ncols 200
nrows 82
xllcorner 300000
yllcorner 705450
cellsize 50
446.4 453.9 452.9 448.3 442.9 444.1 445.4 447.5 451.9 451.2 448.1 439.5 427.2 409.6 395.8 386.8 392 407.8 422.7 424.5 421.8 416.6 412.8 405 384.9 390.9 406.5 412.2 407 395.7 383.5 369.5 360.3 351.9 344.1 338.3 335 331.3 326.2 320.4 313.7 306.8 293.3 302.2 323.7 341.8 353.3 365.6 377.9 382.8 385.8 393.6 393.2 391.6 391.1 388.4 385.4 377.7 370.2 365.2 362.3 359 353.1 345.1 336.7 332.2 327.7 320.9 314.4 309.8 306.3 302.5 294.4 286.6 277.4 271 263.3 253.8 241.4 234.3 230.2 224 226.7 238.5 229.4 232.2 260.9 280.3 286.3 295.3 300.4 308.4 314 319.4 325.1 333.1 341.3 350.4 358.8 362.5 364.6 367.8 367.7 366.3 366.5 362.8 359.1 350.8 343.3 339.2 332.6 328.8 326.6 323.4 321.2 313.7 307.5 302.8 299.6 297.5 294.7 292.2 291.1 289.5 288.1 287.1 283.7 278.7 273.9 267.2 257.6 256.4 253.1 249.4 250.3 255 250.9 245.8 240.9 236.9 231.2 219.2 217.1 232.7 243.5 252.9 258.3 264 267 268.4 273.8 277.9 284.8 292.3 292.2 293.1 297 299.5 293 286.1 279.5 274.3 263.8 260.4 257.2 254 253.1 252.6 249.1 243.8 237.7 232.6 233.1 231 239 254 266.3 275.3 278.1 278.5 275.4 269.9 266.9 262 258.6 261.3 263.2 264.8 266 263.7 263.9 258.6 260.6 259.2 261.2 258.4 253.9 253.6 254 250.8
438.3 446.6 452.9 453.8 450.8 448.8 451.1 451.3 453.4 456 449.8 440.9 427.4 403.4 388 380.7 385.4 398.6 412.8 418.1 417.6 414.2 408.4 405 387.1 383.1 398 402.8 401.1 391.3 377 367.9 358.1 350.9 343.8 337.1 331.6 326.1 322.6 318.8 312.9 305.6 292.3 305.1 326.1 344.7 359.2 377 383.7 387.7 393.3 397.6 398 395.9 393.6 386.5 379 372.4 364.2 358.5 351 350.8 346.9 340 333.2 326.4 319.6 314.1 308.7 304.2 300 292.8 285.9 274.2 264.1 258.6 255.3 248.6 233.6 226.4 223.8 226.1 239 251.8 245.2 228.5 254.4 280.8 292.8 302.8 309.1 316.7 321.8 326 332.6 338.5 347.1 354.8 359 361.4 363.2 365.3 366.7 366.9 365.6 362 356.5 348 341.6 334.8 327.6 323.1 320.4 316.9 315.3 311.1 307.2 303.7 294.1 291.4 289.3 287.3 284.5 281.3 280.8 276.7 268 269.6 265.9 267.7 268 266 263.5 258.1 250.9 240.6 241.1 233.4 233.5 231.2 226.8 214.2 227.4 239 249.1 257.9 263.9 270.2 273.1 274.3 277.5 282.2 287.6 294 296.8 298.5 301.6 299.3 293.3 289.7 283.7 277.7 267.2 261.4 258.7 254 252.8 252.4 250.4 244.7 238.1 238.4 237.9 236.2 235.2 246.3 262.8 270.2 277.7 279.2 278 273.2 270.8 267 262.2 259.9 265.7 267.5 271.3 270.7 264.2 262.4 261.9 261.1 263.4 262.4 256.4 254.7 256.4 261
431.7 441.1 449.7 455.1 455.3 452.5 454.3 455.7 454.1 458.1 451.6 441.9 421.9 401.3 386.2 376.2 379.4 389.4 397.6 406.6 407.6 405.6 402.1 398.2 389.6 371.7 390.1 393.5 392.8 387.1 375.8 365.6 357.3 350.5 344.6 339.8 332.9 326.7 324.1 317.1 308.1 300.1 291.1 305.3 320.8 344.3 361.7 377.9 386.5 389.5 392.9 397.5 396.5 393.1 386.1 378 371.6 360.1 350.4 346.6 342.8 339.6 337.4 334.6 327.6 320.1 312 304 296.7 291.3 284.8 277.7 268.6 259.6 250.3 242.4 231.3 226.7 224.8 223.3 223.2 238.2 255.6 262.4 260 253 238.3 269.4 295 300 310.7 318.3 324.4 327.8 333 339.5 345.5 353.1 360 359.8 362.1 364.7 366.3 366.5 365.1 360.6 352.9 344.9 337.3 329.8 322.6 317.3 314.3 311.1 309.4 305 301.2 306.5 300.6 295.8 292.2 290.8 290 286.9 283.8 280.3 281.6 281.9 281.3 279.3 279.4 279.1 275.8 264.9 256.6 252.6 244.1 238 230.1 222.3 219 217.5 234.8 247.2 255.5 262.3 270.3 275.8 278.3 279.3 281.8 285.8 290.6 295.3 299.9 299.6 297.7 298 298.6 296 288.6 281 270.9 262.6 258.6 254.2 251.1 249.2 247.4 243.2 242 244.7 245.2 242.4 237.4 242.2 256.1 268.5 273.1 277.1 277.5 275.4 273.1 270.6 266.5 261.9 262.7 268 270.2 272.8 270.2 267 266.9 264.1 264.4 265.7 262.9 256.4 254.1 257.9
429.1 439 445.9 450.4 455.5 457.6 457.3 458.3 458.7 454.8 452.5 436.4 415.1 399 385.2 375.8 371.9 379.4 383.9 387.6 393.6 395.5 394.2 390.5 383.7 369 375.9 382.4 382.1 376.8 371.9 364 356.6 349.7 344 342.5 338 331.1 326.3 318.6 310.1 296.5 287.7 302.1 317.6 338.3 361 376.2 380.8 381.5 385.1 390 384.8 383.1 376.7 363.5 352.6 342 334.5 332 329.6 326.6 327.4 326 316.8 307.9 299.2 290.3 284.5 278.7 273.1 263.4 252 244.6 238.3 231.1 226.9 225.3 232.9 237.8 242.1 255.5 270.1 276.8 273.5 265.1 256.3 261.5 285.4 299.9 306.6 314.8 320.1 323 326.8 334.7 340.4 349.4 351.6 357.6 361.2 363.6 365.9 366.3 363.8 357.1 349.4 340 332.4 324.8 317.6 313.4 310.7 308.4 308.7 310.4 311.9 308.9 304.9 302.6 298.7 296.5 296.1 292.8 289.5 286.7 286.9 287.4 286.8 288.8 288.9 289.4 285.5 279.7 266.4 257.7 249.3 240.1 230 224.2 217 228.1 242.4 253.8 262.1 268.4 275.4 280.7 282.4 284.2 287.1 290.7 295.8 300 303 305.1 309 311.4 306.7 298.7 292.9 285 275.3 265.7 258.9 254 249.9 247 243.9 243.1 246.6 252 250.9 248.6 243.4 239.3 250.7 265.1 271.1 274.7 276.3 276.1 274.8 273 269.8 262.8 268.1 269.7 273 274.9 277.8 273.6 271.6 269.2 267 271 270.4 267 258 254.2
428.2 438.8 444.7 451.8 457.2 458.9 461.7 461.9 464.7 455.3 446.2 427.7 409 395.7 384.2 374.9 365.6 368.9 373.4 376.1 379.2 384.1 385.9 384.3 375.4 365 368.9 370.3 371.9 370.6 366.4 360.9 354.4 348.4 344.4 342.9 338.1 332.6 326.4 320 310.4 296.8 286.2 300 318.7 340 356.9 369.1 372.9 372.3 374.2 373.1 369 364.4 356.3 346.4 337.3 328.7 319.9 315.1 314.7 313.6 311.9 309.7 302 292.9 284 275.3 271.7 268.9 264.9 252 238.4 229.8 228.6 227.8 226.6 235.6 242 248.1 261.4 272.2 281.8 290.3 287.4 274.6 268.9 259.8 270.5 286.9 300.8 305.1 311.7 314.5 318.6 326.2 333.5 340.8 349.8 356.8 360.2 362.5 365 366 360.5 352.5 344.7 337 327.1 319.6 313.7 311.4 309.4 310.8 311.3 312.8 314.6 314.1 310.7 308.4 306.2 302.9 302.2 298.8 295.5 291.9 292.3 291.9 290.9 293.8 296.7 296.7 293.2 289.1 271.6 259.7 248.7 237.4 227.2 219.2 227.9 240.9 251.6 261.3 268.8 274.2 280.7 285.8 288.8 290.8 293.5 296.4 301.1 305.1 311.4 317.8 319.9 319.2 316.6 308.2 298 289.6 278.1 267.8 259.3 253.9 249.2 245.4 245 247.2 252.6 254.7 258.4 254.5 248.4 243.9 242.7 255.6 266.3 270.7 274.5 276.1 276.4 275 272.5 265.3 271.9 273.4 275 280.2 284.1 283.6 276.2 274.4 272.4 275 275.7 272.2 268 258.7
429.9 438.4 447.2 455.2 459.8 463.6 465.2 465.8 466.4 460.1 440.7 421.2 404.7 391.5 380.8 372.7 364.8 360 364.7 367.5 371.1 373.9 378.4 377.7 371.3 357.7 364 362.8 363.8 364.9 361 357.3 351.7 346.9 344.4 342.5 339 333.7 327.3 320.7 311.2 299 285.7 297.9 319.7 332.5 344.9 356.5 364.5 360.7 360.5 357.1 352.9 347 337.5 329.8 323.7 316.4 308.4 301.7 301.8 299.1 295.6 292.8 287.2 277.9 268.9 260.1 258.4 257.9 254.1 244.3 230.7 228.9 228.6 228 242 243.2 251.9 261.9 267.2 278.7 289.1 295.8 297.2 289.1 281 274.1 263.5 274.9 285.5 294.6 301.7 306.3 312.3 322.4 327.8 336.7 347.5 356.4 359.5 362 364.2 363.5 355.5 347.1 338.7 332.4 324.3 317.7 316 314.9 315.9 316.6 317.4 316.8 319.3 319.4 316.7 314.8 312.6 309.8 308.3 305 301.8 297.1 296.5 295.9 295.5 298.3 300.8 300.9 300.7 293.9 275.9 262.7 247.3 234.6 224.9 225.5 238.6 251.8 264.4 273.6 276.3 282.2 287 291.3 293.9 296.9 300.1 303.2 306.8 314.6 324 328.6 328 326.2 322 312.5 300.6 291 279.9 270.7 259.8 252.7 248 247 246.9 250.6 256.4 258.9 261.1 260.6 254.1 251.9 248.5 245.4 257.4 265.4 271.2 273.6 275.6 275.5 273.9 267.4 271.1 275.2 275.1 283 288 290.5 286.4 280.8 280.7 273.4 277.7 275.8 272.3 264.9
431.6 438.3 447.1 455.4 462.5 465.8 470.5 471.3 470.9 463.1 443.7 420.3 403.6 390.4 377.6 369.7 362.1 356.1 356.8 361.4 364 365.8 369.3 371.6 367.4 355.5 356.5 356.1 356 356.8 355.1 353.6 350.2 345.6 343.1 341.4 338.6 334.4 328.2 320.9 311.9 299.6 283.7 293.8 312.3 323.9 334.5 349.8 365 362.9 351.2 343.6 337.2 329.8 323.7 316.2 308.9 304.9 296.9 288.6 283.7 277.5 280.8 277.2 272.7 262.3 253.1 246.3 246.6 247 240 232.3 230 235.7 238.3 246.6 253.4 260.8 267.9 275.4 275.9 282.7 294.9 297.8 301.7 298.8 294.5 288.3 281.3 272.8 274 280.4 296.4 306 315.5 325.4 330.8 339.3 349.4 356.3 360.7 355.8 352.5 350 345.8 339.4 332.7 326.3 322.8 321.4 320.5 322.8 323.6 323.7 324.5 323.3 323.6 324.1 322.8 320.6 318.4 316.6 314.2 311.1 306.1 302.3 301 299.5 299.9 301.4 301.6 303.7 302.1 292.6 275.2 261.4 245.8 232.4 223.4 233.9 247.9 261 275.1 285.2 286.5 290.1 293.1 297.4 299.8 302.2 305.3 308.7 315.9 325.3 333.9 337 334.1 330.2 321.7 313.3 303.9 291.4 281.4 270.8 260.7 252.6 249.9 249.4 249.7 255.3 258.1 261.6 262.3 262.2 260.5 257.4 254.9 252.3 249 258.4 265.9 271.4 274.3 275.3 273.9 270.5 267.7 274.4 276.8 281.9 290.3 292.7 293.2 285.1 282.1 283.9 275.3 276.8 276 272.3
431.7 438.5 446.3 454.3 462 469.3 473.5 472.7 472.9 464.7 445.2 418.5 401.6 385 373.9 366.4 358.8 353.4 350.4 354.4 356.9 360 361.8 363.6 362.3 354.5 349.9 351.4 349.8 349.5 350.7 350.2 348.9 345.1 341.6 340.2 337.2 333.2 328.7 322.1 315.1 302.2 285.5 280 296.3 310.3 323.9 343.6 362 361.1 350.4 335.3 326.3 319.8 312.9 305.4 298.1 293.6 287.9 280.6 269.2 262.3 261.6 257.6 249.4 242.6 236.5 233.7 234.7 235.2 231.8 232.5 236 242.6 251.9 255.8 262.3 271.3 278.9 282.6 286.6 290.8 292.3 299 304.4 303.3 300 296.3 292.4 289.8 280.6 290 300.6 312.6 323.1 333.5 341.1 345.6 349.7 349.9 351.6 351.9 349.3 347 342.6 337.3 331.6 328.7 328.5 327.5 326.6 329.5 332.5 331.9 331.6 330.3 328.9 328.6 328 326.2 324.2 322.7 323.2 318.6 310.4 307.1 305.4 303.6 304.5 302.6 302.3 300.9 297.7 289.3 274.7 261.6 246.9 235.3 229.7 242.5 258.4 271.7 287.1 297.5 297.5 296.6 300.4 303.5 307.2 308.3 311.5 316.2 322.9 332.5 341 343.2 339.4 330.5 320 310.4 301.6 291.3 281.9 271.1 263.2 254.4 252.6 254.9 259.2 255.7 261.2 263.9 266.4 269.1 268.6 263.2 261 260.1 258 253.2 261.8 268 271.4 273.7 273.5 270.4 267.3 270.9 278.7 285.8 288.6 293.6 292.9 290.5 284.4 282.4 283.1 273.4 275.4 272.8
429.1 436.8 445.1 452.4 459.9 467.4 473.2 473.2 471.6 465.2 445 417.7 395.9 380.1 369.6 362.6 356.5 350.6 344.4 348.7 351.1 353.7 358.2 359.7 358.2 353.2 345.8 344.6 344.3 345 347.6 348.1 346.2 344.1 341 337.8 335 331.9 327.7 321.8 306.7 304.5 298.2 280.5 281.6 296.3 309.8 325.2 349.2 362.8 349.6 333.3 321 313.5 302.5 294.6 288.9 282.9 280 274.2 266.2 257.4 248 242.8 239.2 236.8 238.7 243.1 237.9 234.6 233.6 247 238.4 249 259.7 261.9 267.8 277.7 285.1 291.7 298.3 299.9 301 305.4 307.5 306.5 305.3 301.2 297.5 295.6 287.6 289.6 304 318.7 331.5 340.7 350.4 354.7 357.2 358.1 358.3 357.9 356.8 355.2 352.4 348.2 344 337.9 336.7 333.8 333.7 335.8 339.3 339.3 336.8 334.6 337.2 335.1 333.7 331.5 330.5 329.8 327.6 324.9 317.2 310.8 309.1 307.3 305.1 302.7 299.9 298.2 292.6 284.3 273.1 260 245 235.7 230.8 246.1 261.9 281.6 298.2 308 304.8 301.3 306.6 312.7 315.4 315.8 317.7 321.5 329.1 339.2 348.6 344 338.2 328.6 317.9 307.9 298.8 290.9 280.5 271.4 264.1 257.1 256.7 262.2 263.4 262.5 262.4 266.8 270.5 273 272.7 270.3 267.3 266.2 265.5 263.2 260.6 261.9 267.3 270.9 272.2 270 268.6 269.6 278.2 289 293.8 293.9 293.9 292.3 289.8 285 281.7 276.7 272 270.1
427.4 435.9 443 449.5 455.5 462 469.3 468.5 464.7 458.5 438.8 414.2 395.5 379.1 366.9 359 353.2 348.3 341.3 342.2 346 350.4 354.7 356.6 354.2 350.3 346 339.1 339.5 344.2 346.8 347.8 345.7 342.2 339.9 337.5 334.5 330.4 326.6 321.2 317.8 314.6 308.4 297.1 278.8 280.2 298.7 311.5 328.5 338.8 337.4 325.7 315.9 303.6 294.5 284.6 281.7 278.7 267.9 259.8 253 252.4 241.6 237.5 241.8 246.3 253.7 257.3 255.2 244.2 251.7 258 238.7 261.9 265.8 267.5 272.7 283.4 294.2 299.6 304.6 306.8 309.9 310.7 310.7 309.8 307 306.1 303.3 297.9 286.5 296.7 309.5 326 340.7 349.2 357.7 362 363.1 363.8 364 364.3 363.1 361.9 360.7 360.1 360.2 353.8 346.8 344.5 342.2 344.5 347.7 349.7 349.3 343.4 342.5 339.5 338.2 337.6 334.1 332.7 329.5 325.9 321.5 314.2 309.7 306.8 304.2 300.7 297.3 293.6 289.4 281.8 268.7 255.2 243.5 239.5 230.7 247.3 262.4 286.1 299.5 313.1 313.3 304.7 310.6 317.5 322.7 324.9 328.4 332 335.8 343 345.5 340.5 335.2 326.5 316.7 308.3 299.6 290.7 280.7 271.4 264.3 265.1 261.5 269.6 268.8 270.5 267.1 269.9 273.6 274.8 274.9 273.4 271.4 269.5 271.3 269.1 266.2 263.9 263.4 267.1 269.9 269.3 268.6 270.1 275.5 290.1 295.8 295.9 294.4 293.3 292.3 288.9 284.6 282.4 278.7 271.2
427.4 435.4 442.9 448.2 451.8 453.6 457.3 454.5 449.6 443.7 426.8 409 388.5 375.2 364.1 356 349.4 345.1 341.2 338.1 340.9 346.6 351.6 353.6 351.1 348 340.9 337.3 336.7 346.4 348.4 348.7 346.4 342.8 340.4 337.1 334.4 331.7 328.7 325.7 322.6 319 314.7 305.8 291.6 269.9 279.9 297.8 314.9 320 321 319 310.1 296.9 288.4 279.7 269 265 254.7 244.2 240.3 239.3 240.9 250.5 256.1 262.2 269.8 271.2 264.2 254.1 262.9 268 261.8 262.8 268.9 275.6 282.3 288.9 297.1 306.8 314.5 318.4 321.4 320.6 319 316.1 313.4 312.8 308.7 303.5 295.9 306.4 319.3 332.9 345.9 356.5 366 368.8 369 369.4 370.2 370.3 369.6 369.1 368.8 365.8 365.4 362.6 357.4 354.5 355.3 355.7 355.7 356.6 357.3 353.1 346.2 343 340.6 339.3 336.1 333.7 330.1 326.6 321.9 316.3 310.7 304.3 300 297.2 293.7 290.6 286.5 281.4 271.8 255.8 245.8 242.7 232.6 248.4 263.7 283.2 299 309.8 316.6 306.8 312.1 320.5 330.8 333 338.5 340.4 343.5 343.4 343.5 339.2 332.7 323.9 315.9 306.7 297.9 289.5 280.8 272.2 272 274.7 269 272.4 276.7 279 274.1 276.1 279.5 278.6 276.8 275.1 274 272.6 274.4 274.2 272.3 268.4 264 264.7 266.7 267.9 268.4 270.9 277.9 292.3 297.2 296.9 295.3 293.8 292.8 291.6 287 285.9 282.6 283.1
427.4 434.6 440.5 445.8 447.7 446.7 441.7 439.6 435.6 426.5 411.5 396.4 381.9 369.4 359.9 353 346.4 341.1 338.6 333.9 335.8 338.7 344.6 348.9 346.2 344.8 339.1 331.5 335.2 343.8 348.3 349.3 346.7 343.9 340.8 337.3 335.3 333.4 330.9 328.2 324.7 320.8 316.8 311.1 300.7 281.2 266.2 277.8 299.7 312.5 316.8 313.4 303 291.1 285.4 273.7 263.4 251.6 242.4 241.9 249.5 254.6 259.9 265.6 271 275.5 276.8 275.5 268.1 260.6 272.6 274.7 271.4 267.7 276.3 286.9 294.6 303.1 310.1 317.9 325 329.5 332.6 330.6 328.9 327 323.8 319.7 316.3 309.6 305 308 323.7 337.5 348.2 360.2 373.2 376.7 377.1 377.2 376.7 377 376.6 380.3 377 373.8 372.1 370.5 367.5 364.3 365.8 367.4 366.9 365.2 362.2 357.1 349.9 345.2 342.2 340.2 337 334.6 331.1 327.4 321.2 314.7 306.9 300.1 293.7 290.8 288.5 286.4 283.5 279.6 273.4 259.6 249.3 241.4 235.5 247.7 263.1 282.7 292.9 306.2 314.9 308.6 312.7 316.7 331.4 337.7 342.1 344.4 344.9 344.8 343.9 339.8 332.2 322.3 314.3 305.7 295.9 287.2 286 279.5 279.5 280.9 278.7 274.9 283.2 285.5 281.7 285.9 286.1 283.7 281.7 280 277.3 277.6 277.9 278.4 277.7 273.8 269.4 264.5 265.7 267.3 268.4 271.4 278.9 299.3 301.3 299.8 297.1 294.7 293.4 293 290.2 287.1 284.1 283.5
429.1 433.7 438.5 442.6 444.4 441 434.4 425.3 421.4 409.4 395.1 383.7 373.6 364 356 350.2 344.5 338.6 335.1 334.1 332.2 333.6 336.7 340.8 343.1 341.7 338.1 327.1 330.8 341.9 348.5 351.1 348.5 344.6 341.3 338.2 335.9 333.8 331.6 329.3 326.3 322.1 317.7 312.9 305.6 293.9 278.5 262.8 280.7 293.4 298 290.2 279 267 267.5 260.3 249 243.7 247 257 264.5 273.8 277.5 279 281.2 282 280.3 280.5 278.1 269.5 273.2 275 270.7 270.2 282.5 293 304.5 312.9 321.8 330.1 337.4 342.3 342.8 342.4 338.3 335.3 331.4 327.4 322.6 315.6 308.9 311.2 326.5 339.8 350.8 362.2 375.9 383.9 382.6 382 382.5 383 383.1 387.4 385.1 382.5 380.9 379.4 376.1 374.6 376.1 377.3 375.9 372.9 369.7 363.5 352.8 346.4 343 340.9 338.3 335.3 329.2 323.1 317.4 309.3 298.5 291.2 285.8 280.5 280.6 281.1 279.8 276.5 272.7 264.7 255 240.4 245.6 248.2 265.5 277.6 288.6 298.7 312 310.2 310.8 316 326.3 335.4 339.6 342.5 344.3 344.9 344 342.6 334.7 321.4 313.5 305.3 294.2 290.7 291.5 288.3 286.2 287.8 290.1 280.8 286.5 292.4 292.1 291 294.9 292.8 288.7 285.6 282 282.2 281.9 282.8 282.1 279.4 274.7 267.4 265.9 267.2 269.3 272.6 282 304.2 309.7 304.8 299.4 296.2 294.1 293.5 292.9 291 287.9 286.9
431 435.6 438.7 439.9 441.2 438.6 430.7 417.7 403.8 395.8 385.1 375.8 367.4 360.2 352.5 346.4 341 335.7 332.9 330.9 326.7 327.9 330.3 333.8 336.5 337.4 335.5 328.5 329.2 340.3 347.6 349.8 348.8 345 341.4 338.3 335.4 333.3 330.9 329.4 326.7 322.9 318.6 314.9 308.7 299.8 289.6 282.8 262.2 270.5 271.2 261.2 251.9 247.5 246.9 245.1 243.8 249.4 262.6 273.4 280.8 284.3 286.3 287.5 288 288.2 287.4 287.6 287.6 283.9 275.9 273.9 280.3 275.2 286.4 299.9 311.1 323 330.3 341.7 348 352.1 356.7 356.4 352.2 346.7 340.1 334.7 328 321.2 314.8 313.8 326 342.2 352.3 361.6 374.5 383.5 387.5 387.9 388.1 388.7 392.6 395.6 393.5 389.9 387.1 386.8 383.7 383.5 384.1 384.9 382.1 378.4 374.9 367.7 356.9 349.3 343.3 337.3 334 330.2 323.9 317.3 309.8 301.5 292.4 285.4 286.7 283.1 279.2 275.1 275.2 274.3 271.6 267.3 250.4 255.6 251.1 248.5 262.7 272.9 283.2 289.7 305 308.1 309 314.1 318.1 326.5 332.2 341 344.7 345.8 343.8 340.9 333.7 322.9 314.8 309 305.4 295 295.1 295.5 294.6 297.1 297.6 291 289.5 298.4 299.9 300 299.6 299.6 296.3 293.7 290.2 286.5 286.7 286.8 284.8 283.6 279.4 272.3 267.7 268 270.6 274.1 283.4 305.9 315.8 312.4 303.7 297.4 295.2 294.1 294.2 293.2 288.9 290.2
433.5 436.3 437.8 439 435.9 433.4 425.6 412.4 399.8 384.1 377.1 369.3 361.8 355.6 349.3 343.2 337.5 332.4 329.8 328.9 328.4 324.9 321.4 326.3 329.2 331.4 332.3 328 324.1 334.5 340.9 345.6 346.1 344.8 341.4 338.3 335.3 332.6 330.1 328.7 326.9 323.4 319.9 315.9 310.9 306.7 302.7 294.5 282.7 260.4 251.9 250 248.3 247.3 248.2 247.3 257.1 266.6 278.7 289.3 295.8 295.8 296.6 295.7 296.1 295 295.4 294.2 288.8 280.1 284.1 285.7 287 284.4 288.5 304.6 315.3 329.4 341.7 350.2 360.3 365.3 368.6 367.9 363.7 358.4 351 341.7 334 326.8 321.4 315.6 327 339.9 352 361 371.7 383 390.6 393.5 393.5 393.7 395.7 399.2 398 396 393.8 390.4 392.4 392.9 393.1 392 388.4 384.2 379.3 370.1 358 348.9 341.1 335.1 329.9 325 319.4 313.1 306.7 295.4 297.7 301.1 301.6 298 292.3 286.7 278.4 269.1 265.6 261.1 265.7 260.3 252.9 249.5 258.8 268 275.9 283.8 292.4 300.8 303.5 307 310.1 319.2 328.1 341.5 347.5 347.8 346 340.8 334.1 326.2 322.2 318.6 315.1 301.7 297.2 298.6 304.7 308.4 307.1 301.7 292.2 304.4 305.7 305.9 303.1 302.8 301.9 300.4 297.6 293.6 289.5 289 286.1 285.8 283.1 276.8 271.2 268.9 271.5 276.4 284.2 306.1 315.5 316.6 307.9 301.8 295.8 294.7 294.6 293.4 291.4 290
435.4 437.7 438.6 436.2 428.9 421.8 414.9 406.2 396.2 383.9 370.4 360.8 353.6 349.5 344.4 340.9 334.7 329.5 324.2 324.6 324.1 323.9 322.8 319 322.2 324.3 324.2 324 315.9 327.8 334.2 339.1 342.2 342.9 340.8 337.9 335 332.2 329 327.8 326.5 324 320.7 317.7 313.9 311 307.5 301.9 294.2 282.1 261.5 250.3 253.9 264.5 271.3 273.7 282.5 289 301.9 305.9 307.1 306.9 302.7 302.9 303.7 303.2 298.4 293.6 285.7 290.1 294.2 294.8 294.7 290.8 293.6 308.1 318.3 332 348.1 363.7 372.9 376.7 382.1 381.4 376.2 370.1 362.6 352.3 340.4 332.7 327.8 324.1 326.1 339.3 350.4 360.4 372.2 383.1 392.2 398.9 400.7 396.9 399.3 401.7 402.2 402.3 402.6 401.1 400.4 399.7 399.2 396.5 393.1 387.5 380.8 372.9 360.9 348.9 339.3 332.5 328.4 325 319.2 311.2 301 309.2 316.1 318 314.1 310 306.4 295.7 289.4 277.3 272 269.1 266.6 262.3 260 248.6 263.3 265.9 270.4 276.4 284.5 292.5 298.9 298.9 307.6 318.9 330.9 343.7 348.9 352.4 348.1 341.3 335.4 329.9 325.7 322.9 318.4 309.5 301 301 304.1 310.8 312.9 308.7 294.7 304.7 308.6 309 308 304.7 302.6 300.9 299.5 295.8 291.8 289.6 286.4 285.8 283.7 278.9 273.4 273.2 274.1 276.6 284 306.5 315.4 316.8 313.1 306.4 298.2 295.3 294.5 294.2 292.7 290.7
437.1 439.7 441.1 440.2 432.1 420.5 410.1 401.3 392 381.6 370.3 355.4 347.7 343.4 332.7 330.7 329.7 325.5 316.4 311.5 311.7 314.5 312.3 311.2 312.2 315.4 313.9 313.9 309.9 319.4 327 331.7 334.2 337.8 337.7 335.7 333.3 330.7 327.6 326.5 324.8 322.5 320.2 317.3 315 312.6 309.3 303.7 295.1 286.4 261.5 258.8 279.8 294 302.8 308.4 312.1 313.5 315.8 316.5 317.1 314.9 314.2 312.4 310.4 305.4 298.7 291.4 291.5 299.2 303 303.9 302.7 296.6 298 313.4 324.7 340.3 357.4 372.7 382.1 389.3 394.9 392.1 389.4 380.1 370.6 358.2 347.3 339.1 333.2 331.9 327.9 338.4 350.9 361.2 372.6 384.2 396.6 409 408.4 403.8 403.9 404.1 404.8 405.3 405.9 405.8 404.4 403.5 400.8 397.9 393.2 387.2 379.4 369.4 358.4 347.5 337.3 330.8 327.2 323.9 319.2 314.6 314.7 318.7 322.7 322.5 317.8 318.2 315.8 305.4 292.3 284.7 273.7 270.6 268.1 267.6 265.6 259.9 266.2 266.6 275.4 272.7 278.2 284.5 292 295.7 304.7 318.8 331.5 342.9 353 354.7 349 343.1 338.1 333.5 330.1 327.4 326.4 322.9 313.6 306.1 307.5 313 316.5 313 300.6 302.3 307.2 308.9 308.5 308.8 303.2 302.4 298.9 297.2 294.1 291.2 287.2 283.3 281.7 278.4 273.2 275.7 277.4 278.6 283.3 303.6 314.1 316.3 314.5 310 301.6 296.8 296.3 294 292.6 291.2
434.7 440 443.3 441.2 433.9 422.9 410.5 400 389.3 378.9 364.9 355.2 344.2 336.5 317.8 313.8 315 308.7 307.2 306.6 305.5 304.6 303.6 302.3 301.6 300.7 299 299.7 297.9 305.5 310.2 316.4 322.6 328.9 331.9 330.8 329.1 326.4 324.7 323.7 321.8 319.7 317.6 315.9 313 308.1 308.4 299.8 289.9 272.3 252.9 277 296 309.6 316.4 322.6 323.4 325.6 328.1 325.9 325.1 326.8 322.1 318.9 313 305.1 297.6 290 302.1 309.8 314.4 314.3 309.5 303.1 301.2 313.8 327.4 342.7 360.5 376.5 387 396.3 401.8 400.5 396 387.4 374.1 363.9 354.5 346.2 340.8 340.7 340.8 341.8 353.8 366.2 377.6 388.7 401 413 412.8 407.8 406.6 406.5 407.3 407.9 410 410.2 407.7 404.7 401.4 397.5 390.6 383.1 373.6 364.4 354 343.2 335.5 329.7 325.7 321 321 323 323.7 326.6 329 327.9 326.6 326.5 319.5 308.3 300.2 290.9 278 273 269.1 268.7 268.3 261.5 258 261.3 265.8 270.1 273.6 277.5 285.2 292.2 300 314.4 329.5 339.7 349.4 354.2 349.2 344.1 341.2 337.7 335.1 333.1 333.7 334.6 327.5 318.7 312.4 318.4 320.8 316.7 306.9 301.7 304.8 307.9 308.1 308.7 303.4 303 299.4 300.1 296.5 291 285.7 280.5 278.6 277 275.1 277.9 280.1 282.6 286.8 299.2 311.4 315.1 313.9 312.1 304.8 299.8 299.1 296.1 293.4 293
430 436.9 439.9 438.1 431.8 422.9 409.8 398.6 390.4 378.3 361.6 346.5 331.1 317.8 314.2 310.6 308.8 310.4 312.5 316.6 322.5 321.8 322.6 318.9 317.1 309.4 306.6 307.8 296 294.2 293.9 299.1 308 319.4 323.2 322.7 319.9 318 316.7 317.2 316.1 315.5 314.1 311.8 309 309.4 305.8 296.5 273.7 254.3 269.4 291.1 311.1 319 326.6 332.5 334.5 336.1 337.7 336.1 334.2 332.7 327.7 321.9 314.5 307 295.8 301.2 312.9 319.4 324.2 322.1 319.6 314.7 308.9 315.2 329.4 341.2 361.6 378.5 390.2 401.3 408.1 406.4 403.3 389.9 378.8 369.4 360.9 353.3 350.1 350.7 351.2 347.2 359 369.8 381.9 393.1 405.8 418.4 416.1 413 410.9 409.5 409.3 410.4 411.1 408.5 404.7 399.5 397.1 392.3 385.1 377.2 369.8 361 351.2 343.3 336.9 329.8 324.1 326.5 328.5 329.9 331.4 332.5 335.1 335.1 330.9 325.8 323.2 315 304.8 294.6 286 276.1 271.9 269.2 269.9 267.3 262.4 265.7 263.3 272.1 284.3 278.2 282.8 288.3 295.7 304.4 320.9 332 338.6 346.9 347.2 343.3 340.9 341.6 341.3 341.6 343.4 346 343.6 333.6 323.5 323.6 326.9 319.8 311.6 305.7 303.6 304 306.2 304.6 304.1 298.7 298.2 295.9 295.2 289.1 283.6 278.9 275.9 274.9 276.3 279.5 282.3 285.8 289.6 296.1 306.4 312.7 314 312.7 307.1 301.7 300.5 298.5 294.9 295.2
417.4 428.9 431.7 430.5 427.8 420.3 400.8 380 369.6 363 348.7 336.2 321.6 314.6 311.1 316 316.9 312.4 320.7 326.2 328.4 326.9 326.6 326.6 326.6 323.9 320.6 318.9 313.2 306.6 302.9 290.3 299.6 314.3 314.9 315.1 311.7 309.7 308.1 309.2 308.3 307.9 307.9 309 308.8 306.6 300.5 285.2 256.5 277.2 291.3 304.8 318.8 326.8 336.1 342.1 344.7 345.2 343.5 341.4 340.5 337.1 330.9 321.7 313.1 303.7 300.9 312.4 323.6 326.4 330.5 332.3 328.8 323.2 318.1 313 327.7 342.5 360.9 376.5 396.5 410.8 415.6 416.4 412.9 403.6 393.9 385.4 377.2 367.1 361.3 360.6 359.8 357.5 361.9 374.2 384.8 395.6 407.4 419.4 417.3 411.8 412.8 412.9 410.9 407.4 405.7 400.6 394.9 389.2 388 386.2 379.9 373.2 366 356.6 347.5 341 336.7 328.6 329.3 334.3 337.9 339.5 339.5 339.5 341 344.5 345 342.5 337.9 323.8 310.1 301.9 290.2 281.4 276.3 271.8 271.3 269.1 266.4 268.9 265 265.7 274.7 280.2 278.8 282.1 288.7 298.8 308.3 316.6 327.8 337.6 343.5 341.8 343 343.8 346.1 348 350.1 352.7 354 342.1 338.9 335.8 331 329.1 318.5 310.3 309.4 303 299.9 299.5 299 295.3 293.9 291.5 290.2 287.6 283.5 279.5 275.9 275.4 276.7 280.6 284.6 289.9 294.5 298.8 303.8 308 312.2 312.5 309.6 303.7 300.1 298.4 295.3 298.5
396 400.4 404.1 400.7 408.8 402.8 379.7 349.1 332.8 331.9 330.9 325 315.4 314.9 321.9 324.1 320.2 322.4 327.1 329.8 332.8 332.9 332.7 334.2 335.9 334.7 332.9 326.9 321.7 312.9 307.9 290.9 295.8 307.8 310.1 309.1 306.4 302.3 295.3 288.4 282.5 277.2 279 285.8 295.6 297.9 284.5 263 282.1 295.2 308.2 321.2 330 333.7 343.6 348.9 351.3 351 347.9 344.2 339.6 335.7 325.7 317.7 308.9 309.9 307.4 318.2 328.4 334.7 336 337.4 334.7 330.6 324.3 318.8 330.5 344.5 361.2 374.1 395 412.7 417.6 420.4 417.8 412.2 405.7 397.6 389.7 381.1 370.8 368.6 365.7 363.9 364.9 374.3 385.3 395.3 406.3 416.6 414.4 411.1 410 408.8 404.8 399.2 396.4 391.1 384.3 380.3 378.8 377 375.7 369.8 362.6 353.4 346.1 340.7 333.3 338.4 341.8 346 347.8 349 348.8 349.5 349.7 352.3 351.7 349.9 348 342.6 326.9 310.5 298.7 291.6 282.8 272.4 272.5 268 270 270.6 268.3 268.2 268.2 271.6 276.6 279.7 283.7 292.2 299.5 307.3 318.2 329.1 337.8 339.8 341.4 340.4 350.5 355.2 354.5 356.2 356.8 355.9 356.4 349.3 337.1 331.8 321.2 314.5 308 302.8 294.9 292.7 292.7 293.3 291.6 288.7 285.7 284.8 282.5 279.3 277.1 276.2 277.6 282.1 288.7 294.9 301.5 304.2 305.8 305.3 307.6 309.9 308.8 305.6 301.8 297.6 297.2 300.6
370.5 368.6 368.5 367.7 378.2 375.8 352.5 331.8 335.8 324.8 321.2 320.6 333.8 327.1 332.5 331.4 328.8 323.3 333.9 335.6 337.3 338.2 340.4 344.4 345.9 345 341.2 334.9 326.7 318.4 310 299.8 296 295.1 300.9 300.2 296.1 291.6 285 278.4 293 293.6 290.2 279.5 266.8 264.5 265.3 283.4 296.7 305.5 316.6 329.3 341.3 345.1 349.6 351.5 352.6 347.8 343.9 336.4 329.4 320 314 312.8 314.7 317.8 312.6 319 332.1 339.3 341 342.8 338.8 335.3 331.5 325 332.7 346.7 361.9 376.5 393 410.1 418.4 422.6 423.9 421 415.2 405.1 399.1 392 381.6 373.7 369.6 366.1 366.1 373.7 383.5 393.5 403.3 411.6 411.1 407.9 405.5 404.3 399.6 391.8 387.1 382.1 377 373.8 369.7 369.4 368.8 365.6 361 353.5 346.4 341.7 344 346.7 350.4 354.4 356.5 357.1 356.5 357.3 358.4 358.1 357.9 355.5 352.8 348.7 341 319.9 305.4 297.9 285.6 277.1 273.7 272.8 272.6 271.2 270.8 270.2 271.2 270 273.4 277.2 281.5 288.3 295.2 302.4 313.1 320.3 328.1 334.1 336.4 336.9 341.9 350.7 355.4 356.1 358.7 358.3 362.1 359 347.9 332.9 323.1 312.5 304.6 301.9 292.1 291 290.7 289.6 288.4 287.5 283.7 281.3 280.2 278.8 278.3 280 279 286.3 291.7 299.2 307.7 312 309.7 306.3 305.9 307 307.8 305.8 303 298.6 300.1 300.8
355.5 355.1 359.6 350.6 346.9 342.7 341.4 354 368.9 359.3 352.6 347.3 346.8 339.4 340.7 339.6 337.3 336.9 339.3 340.9 342.4 345.2 347.9 353.1 354.3 350.9 344.7 337.5 330.2 321.2 312.4 306.4 299.5 286.8 285.7 285.4 283 290.7 300.1 301.3 302.3 300.7 301.9 301.4 298 296.5 300.2 304.2 310.3 317.3 327.4 337.6 348.2 350 352.4 353.4 347.1 339.6 329.7 323.5 323.6 326.1 324.6 325.6 328.5 328.1 324.1 323.4 335.3 344.4 346.8 349 346.1 343.2 337.1 332.5 335.6 349.2 366.5 381 396.3 413.5 425 428.5 429.8 427.7 419.6 412.7 406.4 400 389.6 380.9 372.6 369.4 368.9 373.3 380.6 391.2 401 407.8 407.2 405 402 400 394.1 387.7 379.3 373.7 372.5 371.8 369.9 364.3 362.6 360.8 357.3 350.8 350 349.9 350.7 356.7 359.6 363.2 365.1 364.6 364.1 363 362.8 362.4 361 358.3 356.2 353.9 342.8 327.6 311 298 286.9 278.8 276.3 278.1 276.5 273.4 273.2 271.9 273.6 273.3 273.1 277.4 282.8 286.9 297.4 304.4 309.3 314.6 320.1 326.1 330.7 333.6 339.9 349.4 357.4 362.5 360.3 359.2 361.4 361.5 352.9 333.4 320.2 311.4 305 295.3 291.1 291 290.8 291.1 290.9 288.7 285.6 283.9 283.5 281.2 279.9 284.3 282.6 290.6 297.7 300.8 307.6 313.4 312.3 309.3 306.1 305.4 306.6 304.9 302.7 299.2 302.1 304.7
382.4 384.2 376.8 380.8 372.4 360.6 361 381.1 394.3 389.7 375 360.9 355.6 351.9 348.2 348 345 342.6 340 346.4 349.1 352.1 355.6 358.8 358.4 353.3 346.5 338.4 330.4 321.3 314.3 308.3 301.5 293 290.7 302.7 307.5 310.5 309.8 308 306.9 309.2 310.7 310.1 310.9 313.3 316.2 319.3 324.3 329 338.9 349.8 356.7 354.6 354.4 347.5 336.8 329 339.2 341 339.9 338.5 338.4 342.2 345.5 339.7 332.7 331.4 341.7 347.7 354.7 352.2 352.8 351.8 346.7 340.1 338.1 352.7 370.4 387.4 402 419.1 430.6 433.3 433.4 429.4 424.9 419.8 412.6 407.2 396.3 385.8 376.8 370.1 371.6 376.7 383 389.4 396.7 402.7 403.1 401.7 399 396 389.5 383.3 376.9 376.2 376.5 380.2 373.8 368.5 367.6 361.9 358.6 356.6 354.6 355.3 357.3 362.6 367 368.2 368.7 367.5 365.7 364.4 363.8 363 361.3 359.5 356.7 352.3 341.2 326.7 312 299.7 289.3 277.8 285.7 290 282.8 278.6 275.1 273.2 275.8 278.1 275.7 277 283.4 288.3 294.6 301.6 309.7 313.8 315.5 320.6 323 327.8 335.7 342.4 351.8 359.4 362 359.9 358.5 352.7 351 334.4 317 310.2 299.4 293.4 291.1 290.7 290.5 291.5 291.9 290.4 290.2 287.3 286.5 286.1 282.2 284.4 287.8 293.6 301.7 305.1 307.9 311.5 313.5 311.9 308.5 305.7 305.6 303.4 301.9 299.3 303.9 306.7
399.8 402 407.4 412.5 409.1 405.8 391.9 403.3 404.4 398.5 385.8 369.1 362.7 359.2 355.2 352.8 349.2 343.7 346.3 350.3 354.2 358.7 361.8 362 360 354.3 345.8 336.1 328.7 322.8 316 309.8 304.5 298.1 309.9 314.6 318.1 319.6 318.2 315.3 313.3 314.6 316.6 317.2 319.2 323.9 326.6 329.3 332.9 339.9 349.9 361.3 363.9 359.6 348.9 339.7 336.5 343.4 351.8 354.5 356.5 359.7 358.2 358.2 357.6 351.3 341.1 338.2 350.8 356.5 356.9 356.1 356.7 357.8 354.5 349.8 345.8 357.4 376.4 392.8 406.9 426.8 436.3 434.9 434.6 428.8 424.8 422.1 418.4 410.9 400.4 390.1 379.9 372.3 374 378.7 385.7 391 396.2 399.3 400.3 399.4 396.9 392.3 389 383.8 379.4 384 386.1 386.7 382.6 377.4 373.6 367 360.3 358.1 358.3 358.9 359 361.7 365.3 368.2 368.6 367.6 367 365.3 364.5 362.9 360.8 357.5 352.5 344 335.9 324 311.7 301.2 293.9 288 291.5 295.5 290.8 283.7 279.7 275.6 277 281 281.3 279.4 283.5 289.7 295.7 300.9 308.4 311.3 311.8 315.5 320.2 327.4 336.3 342.8 353.8 359.2 362.4 361.7 359.6 357.3 341 331.4 317.6 312.2 299.8 292.9 291.5 290.8 295.5 295 293.8 296.4 295.3 292.5 289.3 288.2 286.4 289 289.2 297 305.5 308.6 309.9 311.8 312.7 313.6 311.2 307.6 304.8 303.4 301.3 299.7 300.4 304.8
413.1 418.3 424.5 428.4 433.5 432.3 425.3 417 406.4 400 388.9 375.9 368.1 364 361.2 356 344.5 351 350.7 353.9 359.2 364 365.3 365.4 362.2 353.6 342.7 333.7 326.6 320.8 314.2 309.6 305.2 305.7 315.4 320.8 325.4 328.1 326.8 322.5 320.2 321.2 325 328.3 330.7 333.8 337 339.9 343.4 351.5 356.5 362.2 363.9 353.9 343.9 337.5 348.7 358.9 366.4 370.2 373.4 375.9 375.7 374.1 370.8 366.1 349.1 343.9 358.3 363.8 367.1 365 364.1 363.1 362.9 359.2 354.4 360.2 379.4 398.6 414.3 422.2 426.5 427.1 431.2 432 427.5 423.8 423.3 416.2 405.3 392.3 383.4 374.5 376.4 380.8 387.2 393.1 395.7 398.1 399 399.7 393.5 389.9 390.9 386 387.2 390 392.6 391.7 388.5 383.3 378.6 370.6 359.9 359.4 359.4 359.6 360.5 358.3 361.7 363.7 364.1 364 363.1 362.8 361.8 358.8 355.8 351.6 346.5 340.7 334.6 325.7 315.7 307.4 299.5 295.5 293.8 296.4 294.2 285.9 281.5 278.2 278.8 283.2 285.7 284.5 282.6 288.4 294.1 299.2 304.1 307.6 309 310.7 315.8 323.3 330.4 337.3 345.5 357.6 365.6 365.1 364.1 358.5 345.5 326.5 320.5 313.6 304.7 294.4 292.7 295 303.4 306.3 304.7 300.5 299.7 297.9 293.2 291.6 291.6 294.4 291 296.4 308.1 313.3 313.1 313.7 315.3 314.8 314.8 310.4 306.7 305.4 302.6 300.8 300.5 303.5
426.3 436.7 445.7 447 455.9 452.6 440.6 426.2 412.4 403.6 392.5 382 372.3 367.4 363.4 358.8 355.3 356 356.1 358.9 363 367.7 370.8 369.5 363.7 353.1 340.6 331.5 323.8 318 312.9 308.7 305.8 309.4 317.3 324.1 330.2 332.2 331.6 327.5 327 328.7 332.1 336.4 340 344.7 346.4 350 354.4 359.1 361.2 362.8 353 347.1 340.1 348.9 360.8 372 380.4 386.5 389.9 389.2 388.5 387.7 381.9 374.4 362.4 352.3 364.7 369.2 376.6 374.5 374.6 374.5 372.3 368.8 365.4 364.2 383.7 402.6 417.4 422.1 426 429.3 432.5 434.5 430.8 427 422.1 416.1 406.5 394.6 386.8 379.1 380.5 385.5 389.8 393.5 396.1 399.6 400.8 402.1 399.9 396.6 394.7 392.3 393.8 394.1 397.7 397.2 393.9 388.2 381.2 371.9 362.3 359.9 359.3 360.3 359.3 355.7 356.9 357.5 358 356.8 355 354.1 354.7 352.8 350.1 345.8 341.3 337.1 330.1 325.9 319.4 312.1 303.3 301.1 300 298.2 292.1 286.3 282.4 279.2 282.1 285.2 289.1 288.2 287.1 285.7 292.3 297.3 299.7 302.5 304.7 307.8 313.6 318.3 324.3 329.4 336.1 346.6 356.8 361.9 360.9 356 347.3 325.1 319.8 317.7 306.7 298.3 301.3 302.8 303.8 308.7 314 310.3 304.8 303.1 298.8 298.3 296.1 295.4 297.7 301 309.3 315 316.6 317.8 321 318.7 316.7 312.7 309 305.9 304.1 301.6 301.2 305
440.8 454 462.9 465.8 467.2 461 449.5 435.4 421.1 412 399.2 385.3 375.5 368.5 364.2 358.8 360.4 360.7 361.4 363.7 367.1 372.6 374.6 372.8 363.1 347.7 337.2 328.9 322.1 315.6 311.5 308.1 306.2 311.5 318.7 326.1 330.7 333.7 336.7 335.5 333.3 335.7 340.3 345.2 349.3 353.9 358 362.1 364.1 364.5 362.9 357.1 346.5 343.5 348.1 358.3 370.3 381.9 390.3 396.7 399.9 399.9 399 397.5 394.6 388.4 374 359.3 372.8 383.4 385.8 384.7 384.8 385.5 385.5 379.2 375.9 371.2 389.2 405.9 418.1 425.2 428 429.9 432.3 432.9 429.9 425.5 420.6 413.2 403.5 393.8 386.4 380.7 384.6 388.7 392.7 395.3 398.5 402.3 405.4 406.3 404.9 403.7 401 398.8 400.5 400.2 400 399.7 396.1 390.3 384 374.9 365.7 362.3 359.3 357.7 356.5 353.7 351.4 350.3 350 349.7 348 347.1 347.6 346.8 344.7 340 335.6 331.3 326.9 322.2 318.4 314.1 306.5 305.4 304.5 301.4 293.6 287.3 281.2 281.5 285.2 289.2 292.4 292.4 291.7 291.1 290.2 292.9 296.1 298.5 302.4 304.4 309.5 311.9 317.4 322.2 325.9 336.2 347.2 352.3 353.1 349.3 340 325.4 318.8 319.7 314.8 301.6 304.2 307.7 308 313.3 318.1 315.1 311 308.2 305.3 302.6 301.4 298.9 304.6 311.2 316.7 317.8 317.8 320.9 324.9 324.1 318.7 313.8 310.5 307.5 304.7 302.2 302.8 308.4
456.3 467.8 480.5 480.9 474.1 463.7 456.2 445.3 431.4 417.4 403.1 389.2 377.8 370.9 365.9 362 363.5 364.7 365.3 365.5 369.3 372.9 373.7 368.5 357.4 344.8 336.5 329.9 324.5 318.1 312.1 307.5 306.8 311.5 319.7 326.8 330.6 333.7 339.6 339.5 338.6 342.1 347.4 353 358.4 363.1 366.5 370.8 369.8 367 360.7 353.7 347.6 351.5 357.4 365.1 377.3 387.6 396.7 402.8 405.3 412.8 409 406.1 401.4 396.1 380.5 367.3 379.4 391.7 400.5 404 405.1 407.1 405.5 399.8 391.2 387 394.8 408.3 420.1 427.7 429.5 431 431.3 431 428.3 421.7 414.1 410.3 400.6 389.8 384.6 385.9 390.1 393.5 396.9 398.2 400.6 404.4 406.7 408 410.3 409.6 407.7 403.7 405.4 403.5 403.5 401.7 397.5 392.1 386.4 376.7 369.9 366.9 360.5 356.6 353.9 349.2 346.2 344.2 343.7 342.8 342.1 340.9 340.7 341.4 339.6 336.7 330.8 326.5 326.5 323.1 317.7 315.1 311.9 309.6 309.7 306.4 297.8 289.3 282.5 284.4 287.7 291.3 294.4 295.6 294.8 294.5 294.8 296.3 300 300.8 300 301.5 304.4 307.6 309.9 315.1 321.1 329 338.7 345.5 345.9 341.9 334 325.7 318.8 318.1 316.7 309.5 307.3 315.8 315.8 316.1 320.9 320.2 314 311.5 309 306.2 302.6 304.4 308.2 315.7 320.1 319.3 318.5 321.2 323.2 324.8 317.9 312.9 310.7 311.5 307.4 303.1 305 311.8
467.9 475.5 480.1 480.8 477.6 467.2 460.4 450.4 437 422 404.2 391.3 380.9 373.5 367.6 364.5 366.2 367.3 368.9 370.2 370.5 371.2 369.5 362.4 352.9 344.2 337.1 331.6 327.9 321.6 316.5 309.4 306.8 311.5 319.8 326.8 329.8 336 341.9 344.2 346.1 349 353.8 360.2 365.3 372.1 376.8 377.7 372.2 365.2 357.7 351.3 351.9 358 365.5 373.6 383.3 393.8 403.4 407.7 411.1 414.2 414.9 414.3 410.2 402.1 393.3 378.7 384 398.2 411.7 419.2 423.8 425.9 427.1 419.3 407.4 400.1 398.5 411.2 421.2 426.8 428.5 428.8 429.1 429 425.7 419.2 412.3 404.5 395.8 386.7 385.8 389.1 395.7 399.5 401.6 401.8 403.5 405.1 407 409.3 412.3 414.2 410.5 407.7 408.3 405.5 406.3 403.1 399.5 394.6 388 378.6 373.9 369.8 364.9 361.1 355 349.8 348.7 347.8 343.2 340.9 339.9 338.1 336.6 335.7 334.2 329.8 326.5 326.5 329.9 324.2 321.5 318.6 314.2 314.3 314.4 309.6 299.6 290 285.8 287 290.3 293.4 296.6 298.8 299 297.8 298.7 300.3 302.8 305.3 305.4 305.2 304.5 307.1 310.3 313.8 320.8 327.4 332.2 336.9 339.1 335 329 323.5 317.2 314.2 314.7 312.5 312.1 318.5 322.8 318.6 320 319.3 318.7 313.7 312 309.4 303.8 309.7 312.9 315.4 321.5 320 317.4 319.5 320.4 320.9 317.1 311.6 309.1 310.4 309.5 305.3 305.2 311.3
457.9 466.6 471.6 475.4 473.2 469.8 462.2 453.7 439.5 424.6 407.5 396.3 386.3 377.6 371.2 368.3 370.7 372 375.3 377 375 366.5 362.4 356.9 349.9 340.7 335.5 332 330.3 325.9 321.1 314.4 307 310.5 317.7 324.8 331.8 338.3 344.4 348.7 351.6 355.4 361.1 366.8 373.1 378.7 378.2 375.6 371.2 363.6 356.5 351.5 357.3 364.3 373 381.3 387.5 396.9 405.5 412.1 415.8 419.2 419.9 417.5 415.8 410.7 403.7 387.2 389.7 403.3 416.5 428.3 431.9 435.7 437.3 431.8 420 412.7 408.2 417.2 424.3 429.5 431.3 430.1 428.5 427.2 423.9 419.2 411.4 403 394.7 391.6 388.5 393 401.5 406.1 407.6 407.6 406.5 408.7 410.8 412.9 414.4 415.8 413.3 411.4 411.1 408.9 408.3 405.4 402.5 397.6 388 381.6 376.4 372.9 368.4 364.1 359.4 357.7 355.8 353.4 352 351.2 349.5 346.9 345.3 340.7 338.2 336 332.2 335.6 335.8 332 327.3 323.2 317.6 311.1 313.8 310.4 302 293.1 288.5 291 294.2 297.5 300.8 301.7 303.1 301.8 304.8 305.4 307.1 309.1 310.3 310.1 310.3 310.3 314.2 321.8 325.8 331.2 333.9 329.8 329.7 328.3 324.1 321.7 316.2 313.8 314 314.6 314.2 318.2 321.1 322.5 319.9 318.9 318.9 316.7 314.5 311.7 308.6 312.6 313.4 317.8 319.8 318 315.9 315 316.3 317.4 314.8 310.4 307.4 307.4 309.9 308.9 308.5 313.8
445.1 451.5 457.9 463.2 463.2 463.1 463.4 457.5 440 424.8 413.1 403.1 392.1 382.2 375.4 374.2 375.8 378.3 383.3 383 378.8 368 355.5 350.3 344.1 336.5 332 328.9 329.4 326.3 324 315.4 307.3 315.1 322.4 329.4 336.3 343.3 349.8 354.6 357.6 363.4 368.6 373.5 381 385.8 380.2 373.7 369.4 362 356.4 354.6 361 370.7 380.2 388.1 395 402.9 409.8 415.3 420.4 422.4 425.5 425.1 421 414.4 407.5 393.4 396.6 409.1 419.9 430 436.8 438.7 441.1 437.7 430.4 422.6 418.2 422.4 427.7 431 432.3 430.5 429 427.4 423 419.9 413.3 406.7 399.7 394.8 394.5 399.7 405.4 407.9 409.8 410 410.6 411.9 413.5 414.8 416 417.3 416.4 413 411.6 410.5 409.5 407.1 403.4 396.9 389.8 382.1 379.6 377.9 376.8 371.9 371 368.6 366.3 365.4 363.2 362.8 358.2 355.9 352.3 345.9 342.8 338.4 343.3 343.5 343.3 339.8 334.7 328.1 321.1 313.5 311.3 308.3 301.8 295.4 291.7 297.3 299.6 302.6 305.5 306.3 306.8 306.9 309.2 310.8 312.5 313.8 315.5 318 318.9 318.1 318.1 321.7 328.8 336.3 340.4 336.5 327.3 324.5 320.5 319.2 317.3 315.5 317.5 315.8 314.4 316.3 321.8 319.2 321.1 320.2 318.1 317.7 314.7 309.8 309.5 313.4 313.1 316.5 317.2 317.5 312.5 311.8 312.2 313.5 310.9 309.5 306.4 305.2 308.4 313.3 313.7 319.2
431 439.6 446.7 451.3 452.5 458.2 461.9 458.1 445.1 429.2 418 405 394.3 384.4 379.1 379.6 381.3 386.5 390.9 391.9 387.1 373.4 355 344.8 338.1 332.6 327.4 323.9 323 321.2 318.6 308.2 311.2 322.4 331.4 338.3 345.3 352.2 358.5 361.1 366.2 372.5 375.2 382.2 388.1 388.9 382.4 374.9 367.6 362.2 356.8 358.6 366.3 376 385.2 393.6 402.6 409.7 416.3 422.6 426.3 425 426.8 426.4 421.6 416.2 404.6 397.6 407 414.8 423.2 432.8 439.5 442 443.7 440.9 435.7 430.3 426.9 427.7 429.9 432.2 434.7 433.3 431.8 429.1 425.7 420.3 415.9 411.8 406 397.8 399.7 404.1 407.4 410.5 410.4 410.6 412.1 414 415.6 416.8 418 418.7 416.6 413.4 412 410.6 409.6 406.3 401.6 395.3 389.1 389.7 389.2 386.4 385.6 386.3 382.1 379.3 375.4 375.1 372.6 370.2 363.9 360.1 357.1 351.8 346.4 347 347.1 347.4 347.8 344 336.6 329.8 322.3 314.3 310.2 307.5 302.3 297.2 295.7 303.3 305.4 307.1 309.4 309.6 311.6 312.8 314.7 317.6 318.7 319.2 320.7 323.7 326.4 325.7 323.5 329.7 331.9 331.9 337.2 340.7 330.5 323.2 317.8 319.6 318.8 317.3 317.6 317.8 314.8 317.7 318.2 317.5 317.6 318.3 319.6 317.4 314.9 308.9 308.9 314.6 314.7 316.9 316.7 313.8 307.7 307.8 308.4 308.4 306.9 305.8 304.4 303.5 311.8 317.5 317.7 322.4
409.8 422.8 433.7 441 446.1 454.1 461.6 456.5 446.6 431.5 417.9 405.2 393.2 386.8 384.5 385.1 387.5 391.8 396.2 397.6 393.3 380.5 358.4 342.9 333 327.4 322.7 318.1 316.3 316 310.2 304.9 317.2 330.5 339.3 347.2 354.4 360.5 364.8 368.5 373.4 379.4 382 385.2 391.6 388.8 383.1 377.3 369.7 363.3 358.7 362.1 367.9 377.3 387.5 397.3 407.9 417.6 426 430.4 438 439.2 434.3 429 424.1 415.2 404.4 407.3 415 424.6 432.5 441.2 445.8 446.4 446.3 443.2 438.5 433.8 431.4 431 432.9 435.3 436.1 435.1 433.8 432.3 429.4 425.9 420.7 416 414.4 404.3 404.2 406 410.3 411.7 411.1 410.3 410.9 415 417.7 418.4 419 418.5 415.7 412.7 410.9 409.5 408 404.7 399.6 394.4 390.2 396.7 398.3 396.2 396 396.3 393.7 390.5 390.6 388.8 384.7 379.4 369.6 364.5 358.6 354 351.1 351 351 351.4 349.2 343.6 336.6 329.5 322.2 314.9 310 304.8 301.3 298.5 298.8 303.7 308.2 310.4 312.5 313.4 317 320 322.4 324.2 326.1 327.2 330.5 333.6 335.9 334.9 329 334 340.1 338.7 333.4 332 333.2 324.7 316.1 316.8 318.3 316.6 316.4 314.6 312.1 313.7 313.4 316.4 315.1 314.9 319.1 317.5 312.7 307.8 310.3 312.4 312.7 313.2 315.4 311.6 304.4 302.1 301.1 302.6 302.1 301.3 299.9 300.3 311.4 318.4 319 319.8
406.2 412.5 424 432.9 439.8 446.7 453 454 445.1 433.1 415.3 403.7 393.5 389.1 389.7 391.1 393.9 397.7 400.5 403.9 399.7 382.7 363.6 345.4 333.6 325 316 313.3 309.7 308 301.9 311.6 323.7 335.9 345.3 353.5 360.7 364.5 368.2 372.2 379.5 385.6 388.1 389 390.5 387.4 383 377.2 370.8 366.9 364.7 363.9 368.6 378 389.1 399.9 410.2 423.1 436 439.8 444.6 442.5 439.5 434.6 428.3 417 414 418.2 423.2 432.2 440.3 446.1 449.6 450.3 449.5 446.1 441.7 437.1 434.7 435 436.2 437.1 438.1 438 437.3 436 433.4 430.9 427.6 424.6 420.3 408.3 403.5 403.5 410.6 409.3 408.4 408.6 408 413.3 414 414.2 414.9 414.2 411.9 410.1 408.4 406.6 404.4 401.3 396.9 393.9 392.8 399.1 402.9 402.4 401.8 402.4 398.9 397.1 395.3 393.5 388.9 384 379.9 370.5 362.4 356.6 354.6 354.7 355 355.1 350 343.4 336.3 329.2 322.1 315.8 310.1 304.7 301.1 299.4 300.4 305.6 309.8 312.5 314.1 315.6 323.1 331.3 334.5 338 341.4 339.6 341.6 344.5 346.4 342.7 337.3 326.3 338 340.3 335.4 338.2 330.2 322.4 315.1 312.4 314.3 316.3 312.7 314.4 309.6 308.3 308.9 314.8 313.7 313.8 321 318.4 310.4 308.2 307.5 307.4 310 308.5 309.3 307.9 300.8 294 293.1 296.1 301.5 301.3 295.9 296.7 306.3 313.7 316 317.9
418.7 409.8 413.2 424.1 428.2 431.1 433 442.4 439.9 430.1 416.2 401.5 392.2 391.7 393.9 397.5 399.8 403.8 408.4 408.4 404.1 386.9 367.5 349.2 335.9 324 314.8 304.7 300 299.3 305.3 318.3 331.6 341.6 351.3 358.7 364.5 368.3 371.9 377.5 384.8 388.6 391.5 391.8 391 386.4 382.9 378.9 374.7 371 369.3 367.6 373.9 380.5 389.6 399.9 412.4 424.8 439.8 444.3 445.6 446.1 444.4 440.2 432.8 426.4 429.3 430.5 431.5 439.4 447.3 454.2 457.7 457.8 453.4 448.9 445.2 441.3 437.3 437.5 438.2 439.5 440.4 440.4 439.9 439.5 436.8 434.3 434.9 434.5 428.7 419.2 410 400.8 404.3 404.7 405.6 406 403.3 410 410.4 410.5 410.7 410 408.7 406.7 404.8 403.2 401.3 398.8 396 393.5 393.2 395.9 400.2 401.3 401.3 401.5 399.8 397.8 399.3 400.6 396.2 388.1 383.1 374.7 366.5 360.9 357.6 357.6 357.7 355.9 348.7 342.6 335.7 328.8 321.9 315.8 309.9 304.8 302.9 302.5 301.7 306 311 313.1 315.4 322.2 327.3 338.4 349.6 354.4 355.7 355.3 351.6 351.2 351.6 348.4 338.2 326.9 328.7 334 336.9 336.9 329.1 321.7 312.9 309.6 308 309.7 310.9 314.6 308.9 302.4 305.4 306.3 309 309.4 320.4 318.8 311.7 306.8 303.9 302.4 305.1 304.4 302.3 300.7 295.9 290.4 285.5 292.7 303 301.4 295.6 289.8 297.6 304.7 310.8 312.8
440.6 424.2 404.2 409.3 411.3 407.1 406.7 417.7 425.4 421.8 412 395.5 388.1 392.6 396.2 402.6 408.8 413 413.9 412.7 407 392.7 370.2 351.7 338.3 325.6 314 300.6 297.6 303.1 311.4 324.3 337 345.8 355.1 362.1 365.9 371 375.3 381.3 386.1 391 392.3 392.2 391.4 385.5 384.6 381.4 377.6 374.7 371.9 372.9 378.4 384 393.3 404.1 414.9 427.5 441.2 449.2 451.6 452.3 450.4 445.2 441.4 439.5 440.1 440.5 440.8 447.3 455.8 464 464.5 460.8 457.1 452.5 449.1 444.4 439.2 438.7 440.1 441.7 442.6 442.7 442.6 444.1 439.8 438.2 440.6 439.3 436.1 430.6 419.6 402.2 402.5 399.6 400.4 401.8 399.1 401.6 407.4 407.5 407 405.2 404.4 402.9 401.3 399.8 398.2 395.9 393.8 391.5 390.9 394.4 398.2 399.4 400.1 400.2 401.1 399.6 400.1 397 392.6 387.6 382.6 377 369 364 360.1 358.8 358.2 353.9 348.2 342 335.1 328.2 321.7 316.3 311.1 307.8 305 306.5 302 298.7 306.3 314.9 318 324.8 336.9 351 357.1 361.4 362.9 360.8 358.3 354.7 352 348.8 343.5 328.4 325.2 330.6 334.1 333.9 327.1 318.5 311.3 306.2 307 304.4 307.7 308.8 308.3 297.4 300.2 301.7 300.7 302.4 306.8 311.1 308 303.8 299.2 295.3 298 298.1 296.1 293 289.7 285.8 282.9 287 293.3 294.5 288.8 281.2 287.6 291.9 299.8 304.9
459.1 438.8 413.7 393.9 394 394.4 388.2 395.6 403.6 404.6 398.7 388.3 380.3 384.7 391.6 406.7 415.4 418.9 418.1 414.5 409.4 395.9 375.2 355.8 339.8 329.2 317 300 295.9 305.6 315.3 329 339.1 347.2 355.6 360.5 365.2 369.9 374.8 382.2 386.4 392.4 392.7 389.4 386.7 385.9 384.1 382.7 380 376.4 372.5 375.2 381.1 386.7 396.6 407.6 419.1 429 442.6 449.2 454.3 454.8 453.4 447.2 448.5 449.3 449.6 450.4 451.2 455.3 464.5 468.9 464.6 460.5 456.6 452.6 450.4 447.7 443 440.7 440.9 443.6 445.3 444.8 444.8 446.3 444.3 441 438.6 437.8 433.9 428.9 420.8 406.1 393.6 397.5 397.1 394.2 393.5 394.8 402.1 404.1 401 399.7 398 399 397.6 396.2 394.8 392.8 391.8 389.6 388 392.7 397 398.1 398.5 399.2 402 402.4 400.8 395.9 392.2 387.7 382.7 377.6 371.7 365.6 361.3 359.3 358.4 351.8 347.9 341.4 334.5 327.7 322 316.4 311.2 309 311.1 313.5 310.6 305.4 297.6 307.3 315 324.5 339.7 354.2 361.8 366.2 367.5 366.5 360.3 355.9 352.6 347.5 345.2 329.3 320.7 322.4 323.6 323.8 320.3 314.3 308 303.5 300.3 298.9 302.1 305.4 307.8 300.6 292.7 296.3 294.5 294.4 297.2 299.5 303.6 298.8 292.4 289.8 288.8 290.3 288.5 285.5 282.5 279 273.8 277.9 283 280.6 279.8 270.4 277.1 282.3 283.2 289.1
464.8 448.3 423.9 401.8 382.3 380.4 378.1 380.7 384.1 381.3 378.6 375.2 371.2 375.3 390.5 410.6 416.5 421.3 418.6 414.2 409 397.3 378 357.3 343.2 330.3 320 306.4 294.3 303.5 314.2 326.8 337.7 346.2 352.4 357.4 362.4 367.7 372.7 380.3 384.7 388.6 393 391 386.1 390.8 387.7 384.5 381 377.5 374.6 377.1 381.9 388.6 399.2 408.3 416.4 428.4 438.6 446.1 450.1 452.1 451.1 448 452.3 457.5 458.4 459.8 460.5 462.7 469.1 468 461 457.6 454.3 450.9 451.4 451.4 444.7 440.2 440 448.9 450 443.7 442.1 440.9 440.4 440.2 437.8 433.5 429.8 423.1 415.9 402.4 394.1 392.2 394.2 387.8 387.5 389.8 395.2 400.6 396.4 394.8 393.8 394.5 393.2 391.7 390.2 388.5 387.1 385.3 382.2 390.2 393.5 395.9 397.1 399.6 402.6 405.1 402.2 396.2 392 387.4 383 378.3 372.9 367.6 363 360.4 356.8 351.3 345.1 338.2 332.9 328 323.4 318.3 311.8 314.4 316.9 318.8 317.4 313.4 302 297.1 308.2 321.7 336.6 351.5 361.5 367 369 368.6 364.6 357.5 352.9 345.3 342.8 330.5 315.4 315.3 313.5 313.1 312.3 308.4 304.2 300.4 296.4 295 295.6 301.4 303.5 299.8 291.1 288.8 287.2 285.7 289.3 292.7 293 291.9 286.9 282.4 279.8 279.8 279.4 276.5 273.8 271.1 267.6 265.7 268.6 269.8 268.4 263.3 268.3 269.5 271.4 271.5
464.5 445.3 426.6 405.3 386 369.3 363.7 367.3 370 366.6 364.3 364 362.4 373.6 398.2 409.2 415.7 419.9 419.1 413.1 405.5 395.2 379.2 358 341.6 330.7 320.8 309.6 297.8 295.9 310.4 322 330 339.3 348.3 353.8 358.6 363.9 369.2 375.4 381.1 384 387.5 384.9 389.8 393.6 388.8 385.4 380.7 378.5 376.6 378.2 382.5 392.1 402.4 409.6 415.5 424 430.9 439.2 444.5 445.9 446.2 449 454.3 460.6 465.3 466.4 470 472.9 472.6 467.6 460 452.4 448.9 445.5 446.1 444.9 441.5 438.8 436.5 449.1 449.3 446.3 438.9 438.9 437.1 435.6 432.9 428 424.5 417.6 405.9 400.6 389.2 388.2 389 385.4 383.1 385.4 389.9 393.9 392.6 388.2 387.6 388.6 388.8 387.2 385.5 383.3 380.9 379.7 377.7 381.1 386.9 391 394.2 396.8 399.9 403.3 403.2 395.5 391.5 386.8 382.2 377.5 373.2 368.5 365.3 362.6 358.2 352.9 347.1 341.2 335.4 330.3 325.4 321 316.4 318.3 321.5 322.8 321.6 317.8 305.8 297.2 304.9 317.8 333.4 348.7 359.6 365 367.4 365.4 362.5 357.1 348.3 342 336.3 329.2 318 302.9 304 302.2 302 300.6 297.7 294.3 290.8 290.9 291.9 294.4 296.2 295.5 290.5 280.4 280.3 278.5 282.5 283.6 284 281.5 279.6 272.1 271.6 269 268.4 267.1 264.6 261.7 258.7 255.5 254.7 255.4 257.5 256.8 257.1 256.6 256.4 258.7
459.6 442.8 421.7 405.4 387.7 372.7 359.2 354.7 357.4 356.1 353.8 355.2 357.4 375.8 389.8 397.2 404.5 412.6 415.3 410.1 400.4 389.2 375.5 357.3 340.3 328.5 319.1 308.1 296.5 295.3 307.7 317.4 326.5 332.7 342.9 350 353.7 359.4 364.5 369.9 375.2 377.4 379.8 379.6 386 389.6 388.9 385 379.7 378 377.7 379.6 383 393.6 402.3 407.4 413.5 419.9 426.7 432.5 436.4 440 446.9 450.9 456.5 463.6 469.5 475.2 478.8 480.7 477 467.6 459.9 451.4 445.5 440.4 435.1 430.6 432.3 434 432.1 435.4 442.5 441 435.7 436.1 435 430.8 427.5 423.1 417.9 411.5 401.6 395.8 387.6 380.5 383.5 381.5 380.5 384.3 384.1 385.6 385 382.4 379.9 381 383.1 382.5 380.9 378.5 374.6 374.3 372.8 371.6 375.7 380.6 386.8 389.6 392.8 396 395.9 391.5 387.7 383.2 379.7 377.2 375.2 372.4 368.1 365.1 360.4 355.2 349.7 343.6 337.9 332.8 327.6 323.5 319.6 320.2 324.8 327.1 324.7 320.1 308.7 297.7 302.4 315.3 331.3 346.5 355.7 361.6 362.7 361.1 357.3 349 341 336.8 330.1 323.8 317.5 303.2 292.3 291.8 291.1 291.2 289.4 285.5 282.8 287.1 288.9 287.1 288.2 288 286.7 280.4 272.2 272.3 277.6 277.2 275.6 272.1 270.6 266.9 260 259.6 256.9 256.8 254.4 252.3 248.8 243 245.9 246.5 246.1 244.8 245.9 245.9 244.9 245.2
452 437.6 420.4 400.5 384.8 373.1 360.3 348 345.1 346.5 348.6 349.6 356.5 364.6 375.5 383.6 390.7 398.4 405.9 403.7 395.2 381.7 365.9 351.5 333.9 321.7 311.4 300.6 291 296.1 307.6 314.6 321 328 334.1 343.6 348.4 353.7 358.6 363.9 368.3 369.9 371.3 372.7 375.1 382.7 383.9 380.6 378.2 377.9 378.7 382.5 384.5 392.1 400.9 404 410.4 414.8 421.3 429.8 437.4 445.7 450.4 455.2 462.4 469.3 475.8 482 487.6 484.9 477.2 468.1 459 449.6 441.4 434 427.8 420.7 421.2 424.2 426.3 428.6 429.2 431.6 431 429.8 428.9 424.2 420.6 415.5 411.3 404.9 391.7 388.4 383.6 372 376.7 374 378.6 380.6 381.3 378.3 378.7 377.5 373.6 376.6 378 377.9 376.3 374.4 370.4 368.7 367.7 364.7 367.5 370.9 375.9 380.7 383.8 387.9 388 386.7 383.1 378.2 377.6 377.5 378.3 375.2 371.5 367.5 362.1 357.1 351.7 346.3 340.4 335.1 331.1 326.3 324 323.9 325.4 326.7 325.5 323 310 294.5 301 314.4 329 342.2 350.7 356.9 357.8 357.4 348.7 339.8 334 329.2 323.6 318.3 312.9 304.2 289.4 283.6 281.7 282.3 281.8 278.6 277.2 277.3 281.5 281 279.9 279 278.6 277.3 269.7 263.6 269.5 271.3 268.2 264.9 263.7 259.8 253 250.5 247.5 246.2 244.2 242.4 240.4 237.5 239.6 242 243.3 239.9 237.1 237.7 236.9 236.2
443.5 431.5 416.8 396.4 381.1 369.2 359.9 351 341.8 338.3 343 343.1 349.5 352.9 359.3 370.5 380 384.9 392 392.4 385.4 372.6 357.5 340.7 323.6 312.7 303.3 294.5 291.5 302.3 308 311.3 316.9 324.6 331.7 338.4 344.5 350.6 354.4 357.8 360.1 362.5 364.5 366.1 369.3 372.2 375.3 375.3 374.9 377.7 381.8 385.5 388.5 389.5 396.2 402 405.9 413.1 423.6 435.2 445.1 452.2 459 466.3 473.1 476.3 479.9 484.8 486.2 481 469.8 458 448.3 442.6 435.7 423.5 416.4 411 410.4 409.3 415.2 419.3 421.4 420 418.6 420.3 420 418.4 412.5 407.5 402.7 397.1 387.7 380.9 377.2 369.8 368.9 365.6 370.9 374.5 375.3 374.6 372.3 371.4 368.8 368.1 370.3 372.1 370.3 369 366.3 362 361.3 358.6 359.9 363.4 368.1 370.8 374.6 378.4 380.7 380.4 377.8 375.3 380.1 379.9 379 375.8 372.6 368.8 363.7 359 353.6 347.9 342.6 338.4 334.5 329.1 325.9 326.2 326.4 327.5 326.2 323.1 311.8 292.5 300.4 310.4 327.4 338.5 346.1 347.7 347.5 344.4 338.3 331.6 325.1 320.7 316.1 312.1 305.6 301.2 291.3 276.7 274.8 274.4 276.5 277.4 279.8 275.6 271.9 272.5 273.5 271.7 270.6 270.4 269.2 259.6 258.6 260.2 260.8 257.7 255.7 254.5 251.7 244.1 240.4 238 235.5 234.1 232.9 231.2 230.8 235.1 237.6 236.1 232.7 232.2 231.7 230.9
436.9 426.2 411.7 395.1 379.2 366.8 357.6 350 343.3 339 334.3 337.4 339.4 342.1 344.6 353.6 364 371.4 375 378.4 373.3 363.2 347.8 328.8 314.9 305.8 297.1 289.5 297.4 309.1 315.4 316.5 318.6 324.2 330.8 337.2 341.6 348.1 350.1 351.9 353.3 355.4 358.4 359.9 363.9 366 368 372.8 378.9 380.1 385.5 389.6 391.7 393.9 395.7 402 407.1 416.2 427.3 440 451 459.3 466.7 473.9 478.6 483.5 487.8 485.1 483.3 473.6 461.7 450.1 438.5 429.5 424.5 419.3 410 405.3 401.1 401.5 404.8 409.2 411 408.3 407.6 405.7 406.5 408.3 406.1 399.1 392.9 382.5 378.8 373.9 370 365 362.8 357.1 362.5 363.4 367.4 367.9 363.7 364.1 363.4 360.1 362 363.7 363.3 362.3 361.1 358.1 356 353.4 353.4 353.8 359.3 361.9 363.8 369.4 372.3 372.1 373.4 375.5 380 381.7 380.7 377.9 374.8 370 365.9 360.7 354.8 350.6 346.3 341.3 337.4 334.4 332 329.8 329.1 328.5 328.5 325.2 316.2 293.7 295.7 305.8 322 331.9 338.4 338 334.4 331.3 324.9 320.2 315.6 311.4 307.6 304.4 299.2 295 290.9 279.2 269.8 268.9 273.8 278.3 282.1 283.9 272.9 264.5 267.5 266.1 263.5 262.4 262.3 259.3 253 253.5 253 251.9 248.6 249.1 247.6 243 235.1 231 229.5 227.5 226.5 225.5 226.5 229.2 230.6 231.4 230.4 228.2 228.7 228.1
430.2 419.5 406.2 390.8 376.6 364.1 356.8 348.7 342.5 337.4 335.8 333.5 332.2 328.3 335 342.6 349.8 355.6 360.5 362.8 359.9 351.2 336.4 318.8 307.8 297.7 289.4 294.5 309.1 318.5 323.1 321.3 321.1 323.7 330.2 335.5 338.1 340.7 343.4 346.7 347.7 348.4 351.2 353.1 356.6 356.4 366.7 374.8 382.2 387.1 388.3 392.9 394.6 399 402.6 405.1 410.2 419.4 429.9 442.8 453.5 464.1 472.4 489.6 496 493.5 491.2 487.5 477.5 465.6 453.4 441.1 429.7 419.4 413.1 409.4 406.4 401.9 391.3 392.2 395.1 400.4 403.5 404.4 402.5 399.4 396.7 399.8 395.9 390.8 381.5 375.3 371.6 366.1 363 357.8 355 352 353.3 354.7 357.1 358.9 358.8 355.9 356.1 352.4 353.7 353.1 355.2 355.1 355.2 352.9 348.3 347.2 348.2 347.7 351.6 355.5 357.3 359.7 363.8 365.4 368.4 374.8 380.5 383.4 382 379.8 376.7 373.1 368.2 364.4 360 354.7 350.1 346.8 343.2 337.7 334.3 331.6 330.5 326.5 324.6 324 316.1 301 289.9 298.9 311.9 324.6 331.8 329.2 324 320.7 315.9 311 306 303 299.8 296.6 293.9 289.1 285.2 280.4 270.5 265.5 270.1 276.5 281.6 282 275.1 264.4 260.5 260.8 258.5 255.8 254.4 254.8 250.4 252.7 248.5 244.6 242.6 243.3 242.1 238.9 234.6 229.2 225.1 222.6 220.4 218.5 222.2 227.6 230.5 230.3 227 225.7 226.2 225.5
420.6 410.4 398.2 386.3 374.1 362.6 356.4 349.6 345.7 345.3 341.6 336.3 333.4 326.1 323.3 329.3 338.2 342.3 345 346.7 345.3 338 325 312.2 299.9 290.9 291.2 303.8 316.9 324.8 326.1 325.6 320.6 321.8 327.9 331.8 334.7 335.3 337.2 340.9 342.9 342.1 342.8 344.5 350.5 360.5 369 376.7 383.3 390.1 392.6 395.6 399.9 404.3 408.7 411.3 414.1 422.1 431.3 440.9 449.8 461 468.5 482.4 485.7 482.9 481 474.3 463.9 454.4 443.3 432.9 420.6 411.4 405.3 400.2 398.6 392.5 385.4 381.4 384.9 390.6 399.2 403.1 402.8 399.1 394.1 391.8 390.4 387.1 375.5 368.5 364.6 359.6 355.8 352.8 345.7 345.2 345.8 345.4 346.4 349.3 350.8 349.1 347.9 346.2 346.1 345.6 346 347.2 347.3 347.1 343 341.7 340.7 341.8 344 348.5 351.1 352.8 355.9 359.7 365 373.7 379.5 384.7 383.1 381.3 378.6 375.1 371.1 368.1 365.9 361.5 357.6 353.6 348.8 344.6 339.5 333.3 328.2 322.4 319.8 320.3 313.2 301.9 290.2 293.3 304.3 316.1 323.2 318.2 313.7 310.3 306.2 302.3 298.2 294.4 290.8 287.9 287.3 282.7 278.4 276.3 271.9 264.9 262.7 269.3 274.4 274.8 274 268.8 260.6 256.8 257.9 252.1 248.8 248.2 248.9 248.6 247.6 242.6 239 237.9 237 235.7 232.5 227.8 221.8 219.7 217.1 214.8 217.6 222.9 226.7 228.1 226.6 222.5 220.6 222
413.1 401 391.1 382.4 372.4 362.4 358.5 354.8 353 350.9 347.5 341.3 334.4 331.7 328.4 316.9 323.9 330 330.9 330 330.2 327.9 318.1 305.6 294 286.9 294.9 309.3 323.1 329.1 327.7 325.8 321.3 317.2 322.4 328.4 328.8 329.8 331.3 335.9 336.9 334.8 337 343.1 352.7 362.1 370.2 378.5 386.2 391.9 397 401.3 405.6 410.3 415.2 419.1 422.2 425.2 431.9 438.4 446 452.7 458.6 463.7 465.2 464.7 461.2 457.1 449.4 440 431.3 422.6 415.6 406.6 399.4 393.4 389.6 387.2 382.3 373.2 375.3 378.9 389.7 398.2 399.8 396.1 392.2 387.8 384 382.1 373.7 357.1 358.6 353.9 351 348.3 340.2 338.3 338.9 337.8 338.7 340.8 343.5 343.3 340.9 339.3 338.4 338.3 339.1 339.4 339.6 339.4 335.5 332.8 332.8 335.5 336.9 339.3 344 345.9 347.7 354.2 361.9 373 377.5 381.4 382.4 381.4 380.6 378 374.8 371.8 370.8 368.1 364.4 360.3 355.1 350 343 336.2 330.9 327.3 319.1 315.1 313 302.5 294.9 287 295.1 305.2 310 306.1 305.1 301.9 298.7 295.4 291.2 287.8 283 279.6 277.9 277.1 272.8 270.4 269.7 265.7 259.6 261.9 265.3 268.3 269 266.2 261 255.4 252 251.4 246.5 244.4 244.6 246.5 246.2 243 239.3 236.9 235.2 231.2 229.6 226.1 220.9 216.2 215.3 212 211.6 215.6 221.6 224.1 223.6 222.2 218.3 217.5
407.5 397.7 388.4 380.2 371.2 368.6 363.8 360.7 359.2 357 355.2 350.2 342.9 334.2 328.3 325.4 313.3 316.8 317.4 320.6 319.2 316.1 310.4 301.6 291 285.5 298.4 311.4 322 326.4 326.5 320.9 317.7 312.4 313.4 319 322.9 322.6 325.7 326.7 327 334.4 340.2 344.6 354 361.9 369.9 378.1 386.3 395 402.4 406.9 412.1 416.6 421.8 426.2 429.3 432.9 434.9 435.2 440.1 444.8 448.2 452.9 452.2 450.2 449.3 445.3 437.8 429.3 420.4 412.4 405.9 399.8 396.5 389.3 383.3 382.2 376.7 368.6 366.8 368.3 377.8 392.2 395 391.7 387.1 383.1 377.7 374.8 368.5 356.6 350.3 349.7 345.4 339.1 334.8 332.3 332.4 331.6 332.8 335 336.9 338 336.2 333.9 332.5 331.8 331.4 331.5 331.5 331.7 327.8 323.8 325.2 328.2 329.9 331.5 335.6 338.7 342.2 350.1 360.4 369.3 373.9 376.9 377.8 379.8 379.9 379.4 378.2 376.4 375.8 373.2 371.5 367.1 361.1 354.2 346 339.7 335 329.5 320.9 314.4 306.9 300.4 296.2 286.8 290.5 298.5 301.2 299.3 298.2 295.6 292.8 289.4 286 280.9 276.1 273.1 270.6 269.7 268 265.2 263.9 263.6 259.5 256.7 258 261.3 261.3 260.2 259 253.8 246.7 247.2 244.3 242.5 244.2 247.8 248.3 247.2 243.1 240 236.7 233.6 228.8 223.4 220.4 215.7 212 210.1 208.9 210 216.1 219.5 220.4 219.6 218.1 214.7
401.7 393.4 386 379.9 378.1 376.9 372.2 367.6 365.3 366.8 366.5 362 353.6 344.6 333.8 325.8 321 310.8 302.9 309.6 312 307.1 302.2 297 291 285.2 301.7 313.9 319.2 323.4 318.5 313.8 309.4 305.3 307 310.1 314.8 321.4 324 327.8 332.5 335.2 340 346.7 354.4 361.8 369.6 377.8 386.2 396.2 408.8 413.5 418.9 423.2 427.8 433.3 437 436.1 430.2 429.3 433.9 438.4 441.6 443.6 439.7 436.5 434.4 430.2 423.9 418.2 410.1 402.9 396.9 391.5 387.8 384.5 380.2 372.1 368.4 362.2 359.4 360.6 365.9 379.5 383.3 385.6 380.8 375.8 369.4 365.8 362.3 353.7 346.2 344.2 340 333.6 330.1 327.4 325.8 326 327.8 330.5 333.5 332.9 331.6 329.9 326.5 325.9 325.5 324.9 324.3 324.3 322.3 320 319.6 320.5 321.2 323.4 326.1 327.6 336.9 342.5 354.9 364.2 369 373.3 373.5 373.7 375 375.1 376.6 378.4 378.5 374.8 371.8 368 362.6 355.7 348.5 340.3 335.4 328.8 321.1 313.8 304.1 298.6 295.2 288.5 293.9 299.7 299.7 297.8 294.9 290.1 287.7 284.4 281.7 276.3 271.6 267.6 265 263.2 262.3 261 259.4 258.2 257.5 253.8 253 252.7 254.5 254.5 254.2 252.1 246.6 243.1 241.6 241.7 244.9 249 250.2 251.5 249.2 242.1 239.2 235.3 231.3 226.2 220.5 216.8 212.3 208.5 207.4 206.1 209.1 214.2 216.1 216.5 216.1 214.2
391.5 387.7 384.4 383.8 386.9 385.4 380.1 376.5 375 379.1 379.1 372.5 363.4 353.8 343.2 335.3 327.1 319.9 313.1 303.9 294.4 291.9 294.9 289.7 287.8 284.6 302 311.4 317.7 318.8 311.1 302.1 302.1 310 315.6 323.2 325.9 329.3 331.2 334.6 337.7 342.6 345.3 347.3 355 361.8 369.2 377.6 389.1 402.8 414.2 418.7 424.3 429.5 434.2 435.2 433.5 431.2 425.8 423.8 427.8 430.3 432 432.5 430 427.8 423 415.2 410.6 405.3 399.8 393.4 388.4 383.2 379.5 376.4 373 368.1 360.9 358.4 353 352.4 354.3 367.1 374.4 376.2 376 368.6 362.9 359.1 353.9 348.1 344.7 336 333.5 328.4 325.6 324.2 320.9 320.7 323.5 324.9 328.7 329 328.5 327 324.6 320.2 319.9 319.7 318.8 318.3 316.3 312.9 312.8 313.3 314.4 315.2 316.7 324.1 330.1 337.8 346.8 356 363.5 366.4 368.1 367.8 367.5 369.2 370.5 372.4 372.6 371.6 371 367.1 362.1 356.5 349.5 342.9 335.5 328.1 321.3 313.5 304.8 296.3 291.4 288.5 292 296.9 297.3 296.6 294.1 289.7 283.2 280 276.6 272.1 268.3 264.6 261 258.6 257.4 258.4 256.4 254.8 253.5 252.3 249.6 248.8 248.8 249.8 249.5 249 246.5 242.2 240.1 241 243.7 247.7 250.4 251.9 252 247.3 240.7 236.2 233 230.3 223.3 217.5 212.8 209.4 206.9 204.1 204.1 208 211.4 213 213.6 213
386.2 385.4 386.7 391.3 393.7 390.4 386.6 384.6 385.7 388.3 387.5 385.2 375.7 364.3 355.8 346.1 337.4 330.3 322.4 315.5 308.9 305.8 289.8 284.4 283.2 285 297.4 305 310 308.5 300.8 300.4 310.6 317.2 324.9 331.2 335.8 337.8 340.1 342.7 345.4 348.7 351.2 353.8 356.3 361.7 368.7 381.1 393.4 407.3 417.2 420.5 428.1 431.8 433.2 431.5 426.7 425.5 421.3 418.6 421.1 420.7 422.1 421.3 419.7 417.7 413.7 408.8 401.2 394.1 389.8 383 378.2 374.6 371.6 368.7 365.9 362.8 357.8 352.3 346.6 348 345 353.4 364.6 366.5 366.4 360.9 356.8 352.9 347.6 344.3 340.2 334.5 327.5 324.4 320.8 319.9 320.1 315.2 319 320.9 324.7 326 325.8 323.9 321.8 318.2 315 315.5 314.8 313.4 311.1 308.1 305.7 307 308.4 308.9 312.7 318.1 322.7 331 339.6 348.9 356.2 359.3 360.2 361 361.1 361 363.4 365 364.4 365.8 364.9 363.2 360 354.3 348.4 341.6 334.4 325.6 320.1 312.6 298.8 299.1 289.4 283.4 287.7 293 294.1 293.5 291.9 287.8 282.2 276.7 272.7 269.7 265.7 262.4 259.7 256.2 253.4 253.9 253.1 252.1 251 249.5 248.6 246.1 246.1 246 245.1 244.6 244.4 241.9 238.4 238.2 241.5 246.3 249.9 253.4 251.1 249.5 244.8 238.5 234.3 230.2 225.9 220.7 214.3 210.3 207.2 204.2 201.1 201.5 205.5 208.3 210.1 209.8
383.3 387.5 392.6 397.4 397.6 396.2 394.9 395.1 397.7 397.2 396.7 392.4 388.2 378.5 370.1 360.7 351.3 341.6 333 323.1 312.6 306 296.2 283.7 280.8 287.8 293.8 298.4 300.3 298.5 292.9 308.5 320.6 329.3 336.9 342.2 346.7 349.3 349.8 350.7 352.8 354.7 358.3 360.6 363 366.4 368 376.8 390.7 403.2 413.1 420.4 424.1 427.5 426 424.1 420.9 417.2 415.3 413.8 412.9 411.4 411.5 410.2 411.9 408.4 406.6 401 394.3 389.3 383.4 378.5 371.4 365 363.2 361 358.4 355.5 351.6 347.8 344.9 339.6 341.4 345.9 350.6 354 355 352.7 350.4 348.4 343.9 341.3 336.9 330.5 325.4 318.6 316.9 314.3 315.2 312.7 313.3 315.4 321.7 322.1 322 320.5 318.5 316.1 312.9 310.7 312.3 310.6 307.1 305.1 302.3 302.5 303.6 303.7 307.2 311.6 315.7 322.9 331.1 339.9 347.1 351.6 353 354.4 353.6 351.8 353.1 354.1 354.6 354.2 355.9 354.1 352.6 348.5 344.4 338.8 331.9 323.7 316.5 310.6 303.7 294.3 292.1 283.2 286.1 289.5 288.6 289.9 288.8 284.9 281.2 275.9 270.8 266.7 263.4 261.4 258.3 254.8 252.5 249.5 249.5 249.1 248.1 247.3 246.5 244.4 243.2 243.5 243 241.6 240.8 240.4 239.1 236.4 240.2 244.2 248.1 250 251.7 247.2 245.2 241.4 235.3 230.8 227.4 223.4 217.4 212.3 209.2 206 203.9 201.2 198.6 203.1 205.1 206.2
388.5 394.4 398.7 399.3 399.3 400.1 402.5 405.3 407 407.3 406 403.6 401.4 397.2 382.8 373.8 365.4 353.3 338.5 326.5 316.1 305.3 295.1 286.1 280.3 282.7 288.9 291.5 293.2 288.4 300.2 316.2 330.9 341.3 349.6 355 360.4 364.5 365 362.6 362.7 365.8 370.7 372.4 374 376.6 377.2 376.6 387 397.6 406.4 414.4 417.4 418.2 417.4 416 412.9 408.5 405.4 402.7 402.7 402.7 401.1 403.4 401.9 400.7 399.6 393.2 391.1 386.4 381.6 372.3 367.2 361.1 356 352.6 350.9 349.2 345.4 343.5 340.3 337.6 340.6 343.4 346.6 346.3 346.7 345.6 344 342.7 340.3 337.8 333 327.5 322.5 316.5 310.1 309 309.2 309 307.9 309.1 314.4 317.1 318.2 316.2 315.3 313.4 311.3 309 307 307.4 305.4 302.6 299.5 298 298.5 300.5 304.1 306.7 313.5 320 326.2 333.9 340.3 343.3 345.6 346.6 343.9 341 340.9 342 344.1 346.4 348 345.1 341.6 340.5 337.7 334.3 329 322.9 316.1 309.8 302.6 295.3 294 289.5 273.6 281.7 283.7 281.7 283.5 282.8 279.4 275.7 271.3 265.9 261.3 258.7 256.6 254.1 252.6 251.7 248.7 246.1 244.3 244.2 243.7 242.9 241.7 240.1 240.2 239.6 237.4 237.2 238 235.1 239.5 242.7 246.8 248.5 248.3 247.7 244.6 241.5 237.7 233.3 228.5 224.7 219.7 214.9 209.6 206.8 204.7 202.7 199.3 195.7 199.9 201.8
398.2 399 399.6 400.3 400.5 403.9 406.3 410.8 412.2 410.8 409.3 406.9 405.2 403.4 391.3 385.9 375.4 359.1 341.7 328.1 317.4 304.5 293.7 285.4 279 278 282.9 282.7 290.3 298.5 307.7 323.7 338.8 352.7 364.2 370.4 376 380.3 382.3 380.2 377.3 380.3 387.5 391.8 391.7 394.3 393.8 387.3 384.2 391.9 399.4 407.5 408.8 409.4 408.6 408.3 405.3 401.2 397.9 394.8 393.9 394.1 395.2 395.5 394.4 393.7 392.2 388.1 387.3 385.2 382.7 372.7 364.1 358.6 352.7 353.4 346.4 343.3 340.6 337.1 336 333.9 335.7 338.2 340.8 343.4 343.3 342.7 339.2 335.3 332.7 330.9 327.3 323.2 319.2 314.5 308.5 303.5 304.2 302.6 303.1 304.2 306.4 311.3 313.2 312.6 312 310 308.7 306.7 305.6 304.4 304.7 300.7 297.3 295.4 295.4 297.7 300.7 306.1 311.3 318 324 327.6 333.4 335.1 337.6 338.4 337.2 334.3 334.6 332.8 334.5 335.7 336.8 336.4 335.1 333.7 332.7 330.1 326.1 319.9 313.3 309.1 302.6 296.5 292.2 289.7 281.5 272 265.5 264.8 278.4 278.8 276.6 273.3 270.3 265.4 261.3 257.6 255.2 254.3 255.4 256 254.8 250 245.6 242 240.8 240.8 239.8 238.8 238.1 237.1 237 235 234.8 233.4 237.4 239.7 241.2 244.4 245.7 244.8 243.6 240.3 237.3 233.9 230 225.8 221.4 216.4 211.5 206.9 203.8 201.8 200.5 197.8 194.1 195.8
395.7 395.7 395.4 397.4 399.6 403.9 408.6 410.3 410.7 408.4 405.3 404 404.4 404.2 398.4 390.9 377.4 362.1 346.5 329.4 316.8 303.6 292.6 284.6 278.6 274.8 278.3 289.2 295.9 303.8 314.1 331.1 345.3 356.6 371.3 382.4 388.7 395.4 396.1 396 395.5 398.5 404.8 409.3 410.2 409.3 408.4 401.5 391.2 390.4 393.1 396.8 400.2 400.4 400.4 400.8 397.8 394.4 391.2 388.9 386.9 385.7 385.6 385.7 386.9 386.8 385.1 384.3 383.5 381.8 378.2 368.7 363.7 358.8 351.4 344.5 345.5 339.7 336 333.5 331.3 329.6 331 333.9 336.3 340 341.6 342.1 339.9 333.1 329 324.7 322 319.1 315.1 311.1 307.4 301.4 296.3 296.7 298.7 300.2 302.8 306 310.4 309.5 308.6 307.5 306.5 305 303.8 302.6 302.5 301 297.1 294.1 293.1 294.6 298 303.2 309.6 315.3 319.8 324.1 326.8 329.1 330.2 330.5 330.3 329.9 329.8 330.6 332 333.4 333.4 331.4 330 330.2 329.4 325.6 321.7 317.5 311.2 305.4 301.6 297.3 291.8 288.4 284.8 279.6 274 261.1 255.8 266.9 271.3 271 267.7 263.7 260.7 257.2 255.3 255.3 260.6 261.8 260.3 256.7 249.2 244.4 240.8 237.9 237.9 237.4 237.4 236.1 234.5 233.2 232 232.2 235.5 238.2 241.2 242.1 242.4 242.1 240.7 238.5 236 233 229.8 225.9 222.6 217.7 212.9 207.9 203.5 200.5 199.1 197 195 188.3
390.4 392.8 391.3 391.7 392.7 393.9 401.8 404.6 403.5 398.7 396.1 391.9 394.7 396 392.7 385.7 372.5 357.5 341.6 327.5 314.9 301 290 281.6 276.7 274.3 281.8 291.2 300.9 312.5 325.1 338.1 350.4 361.7 376.2 389.2 396.6 402.3 401.2 399.9 405.6 410.7 416 415.6 415.9 417.5 416.5 409.3 402.7 395.1 394.6 395.2 394.5 393.9 392.9 394.1 391 388.1 385.6 383.6 383.1 381 379.3 378 378.6 380.1 379 378.7 379.4 378.4 373.9 369.1 363.9 359 352.9 346.9 340.4 338.7 334 331.1 329.4 328.3 328.8 331.2 333.4 337.7 340.6 341.8 341.7 337.3 332.5 325.6 320.9 316 311.7 307.8 304 300.2 295.4 291.8 293.8 294.9 298.7 303.6 305.9 305.5 304.9 304.3 303.6 303.2 302.2 301.1 300.3 298.5 296.8 294.7 290.5 291.4 294.4 300 306.1 311.2 314.7 318.7 321.6 322.2 323.5 325.1 325.9 327.6 330.1 333.3 333.3 330.3 329.7 326.7 326.3 326.3 326.6 322.5 318.4 313.9 309.9 303.7 300 296.6 289.7 289.4 288.2 287.8 278.9 269.2 257.7 248.7 250.3 255.6 260.1 261.6 258.6 256.5 255.2 255.1 259.9 262.5 261.5 260.1 255.7 248.7 243.3 239.1 235.3 235.3 236 235 232.3 231.5 229.8 232.2 233.4 236.9 239.5 240.7 239.7 238.5 237.3 235.8 234 231.4 228.7 225.8 222.3 218.9 214.4 210.1 205.3 200.7 196.8 195.1 193.9 192.8
387.2 387.8 387.8 387.4 386 385.6 389.9 391.4 392 389.8 383.8 379.5 378.8 382.4 383.8 376.4 363 351.9 336.9 322.9 310.6 300 286.3 276.3 272.5 276.8 287.2 301.2 312.3 323.6 334.9 343.5 353.3 365.7 379.4 388.9 398.1 403.8 402.1 398.4 403.2 408.4 414.3 414.8 414.3 419.7 418.7 414.4 413.3 409.2 403.3 401 402.8 399.5 394.7 394.5 396.5 395.8 394.2 392.1 388.8 384.6 382.5 381.2 376.6 376.1 377 379 378.3 376.5 374.2 370 366.1 362.1 358.5 352.1 345.4 338.4 334.7 331.3 328.6 326.3 327.1 329.3 332.3 337.1 339.9 342.1 342.6 340.5 336.1 328.4 322.3 316.8 312.4 307.6 302.6 297.8 293 290.3 290.8 291.8 293.5 298.1 299.9 302 302 301.4 300.8 300.2 300.4 299.6 300.2 299.7 298.7 296.6 293.9 289 290.7 296.2 300.7 306.9 310.4 312.6 315.1 317.4 319 322 326.1 329.5 332.4 335.9 335.6 331.8 327.5 323.8 327.3 323.5 320.6 318.5 315.2 311.6 307.7 303 298.7 295.6 290.9 287.9 289.6 290.6 284.2 274.9 264.7 256 246.7 243.8 246.3 252.1 250.1 249.2 251.7 253.5 253.9 256.6 258.5 258.2 257.3 253.1 246.7 241.4 236.3 233.3 235.9 232.5 232.1 231 229.5 231.8 232 233.5 237.7 239.1 238.3 238.8 234.2 231.6 230.1 228.7 227 223.8 221.4 217.8 215.2 211.2 206.9 201.5 197.6 194.1 192.2 188.6
385.9 385 384.8 384.3 379.7 376.5 377.6 382.5 383.7 379.4 374.3 369.8 368 369.6 371.5 363.5 355.5 342.2 327.5 317.7 305.3 295.1 284 272.6 271.6 284 295.5 310.5 320.6 330.9 338.7 347.3 357 368.5 379.9 388.2 393.3 396.1 396.6 392.3 388.6 390.6 398.6 407.2 410.6 414.7 418.4 420.3 419.6 416.5 413.4 412.3 410 406.3 400.7 396.1 392.8 390.8 392.7 392.4 388.7 385.5 384.1 382.1 377 375 376.1 381.4 380.3 378.3 375.9 372.7 369.9 366.3 362.9 358.4 352 345.2 339.2 333.8 329.4 326.1 326.2 328 331.2 337.1 341 342.3 344.1 342.1 338.6 331.1 324.1 318.2 313.2 308.2 303.4 298.2 294.2 289.6 286.8 287.2 289.8 293.5 295.9 298.2 299.1 298.6 298 297.1 297.4 298 298.9 298.6 298.6 297 294.7 291.6 287.5 293.3 298.2 302.2 307.9 308.9 311.7 316.7 319.7 324.7 328.6 332.2 334.2 336.2 337.3 335.1 330.9 323.7 322.7 321 317.5 314.8 312.6 308.6 305.6 301.9 297.7 294.1 291.1 286.7 287 288.7 284.2 277 271 264.1 256.7 251.3 243.8 237.8 234.4 237.6 248.5 250.7 251 251 252.5 254 254.2 253.5 250.8 244.4 238.8 232.7 231.2 230.4 230.8 229.7 229.9 230.5 230.8 232.3 234.6 237.1 236.4 236 234 230 226.3 225 223.4 221.5 218.9 216.5 213.6 210.6 208.1 203.6 199.6 191.4 186.3 182.6
385.9 383.4 383 381.6 373.7 366.8 365.2 366.8 368.5 367.1 363 359.7 355 355 356.1 353.4 347.2 335.6 323.2 312.8 303.1 293 282.6 270.8 275.6 287 300.2 311.2 322.1 330.8 338 344.2 354.8 365.5 375.9 383.6 386 384.9 379.7 375.2 371.7 376.7 384.3 399.7 407.3 411.6 420.1 424.8 427.2 425.4 424.2 420.8 416.3 411.6 401.8 397.5 390.6 385.9 383.3 383.9 382.5 380.8 379.5 383.2 378.4 373.5 374.6 379.8 382.8 381.2 378.5 375.2 372.3 368.8 366.2 364.5 358.6 352.3 346 339 332.5 327.2 323.2 325.8 331.1 336.9 340.7 345.2 346.2 344.2 340.5 333.3 325.9 318.5 313.9 308.6 304.5 299.9 295.3 290.5 286.5 284.8 286.4 289.5 291.8 294.2 295.7 295.9 295.1 294.2 294.4 295 296.5 296.7 297.4 296.8 295.9 294.3 285.7 293.6 295.8 299.4 303.9 308.5 312.3 318.6 322.9 330.2 332.5 335.5 337.1 338.2 336.8 335 334.3 328.6 319.5 319.7 317.4 312.1 308.8 305.8 303 299.8 295.6 292.6 289.7 286.1 284.4 285 283.5 284.2 282.2 275.7 264.7 256.1 250.6 242 229.7 231 243.6 247.3 247.7 247.5 247.3 247.7 249.3 249.6 248.8 246.5 241.2 235.5 230 226.4 228.4 227.3 227.1 227.2 227.5 228.2 229.1 231.3 233.5 232.6 230.9 228.9 224.8 220.5 219.1 217.2 215.1 212.3 203.5 193.6 197.7 200.3 195.4 187.9 184.1 182
382.4 381 381.3 376.9 368.2 360.7 354.2 352.1 353.6 354.3 352.4 349.8 345.3 342.7 342.1 340.2 336.3 328.3 316.3 307 299.4 288.6 280.5 269.3 276.7 288.2 302.6 313.1 319.2 328 333.4 339.4 350.1 360.8 367.9 372.9 373.1 366.5 360.6 358.9 361.7 371.5 382 395.7 405.7 416.9 424.8 432.1 433.9 433.9 431.2 426.7 420.5 417.3 408.7 399.7 394 386.4 380.3 376.8 376 375.1 373.4 375.6 378.9 371.6 373.9 379.9 385.8 384.1 381.1 377.7 374.6 371 367.8 364.9 359.8 354.1 349.1 343.6 338.3 330.4 323.1 324.4 329.7 336.7 341.6 345.1 348.3 346.2 342 335.3 328.5 320.8 314.6 309.6 304.9 300.9 296.7 291.5 288.4 285.9 284.3 285.4 287.8 290 291.6 292.2 292.5 292.1 291.4 291.4 292.2 294 295.4 296 293.8 287.2 292.4 294.7 298.2 301.3 304 310.2 315.1 321 329.4 335.6 338.2 339.8 339.4 338.5 338.6 337.1 333.3 330.3 325.9 316.9 312.5 312.9 308.3 304.3 300.8 297.6 293.7 290.9 287.7 285.1 282.7 280.2 283.2 288.3 287.8 281.9 271.9 261.4 252.6 243.9 237 226.5 237.2 242.6 243.7 244 243.9 244.2 243.2 243.6 243.3 243.6 242.2 237.6 232.6 227.6 223.2 224.2 220.4 224 222.8 223.7 224.6 225.4 227.1 228.1 226.6 222.6 221.4 219.2 213.6 211.4 207.7 194.5 193.6 185.2 185 184.7 184.2 182 183.3 184.5
380.9 379.6 378.2 373.3 365.1 356.9 349.5 342.6 341.2 340.9 341.6 340.9 337.6 332.6 330.6 327.9 324.3 319.1 311.5 303 295.6 284 278.1 269.5 269.6 287.9 303.4 311.8 315.9 320.3 328.8 334.5 344.8 354.9 361.1 360.2 358 353.1 346.4 353.2 363.6 376.9 391.1 401.7 415.1 425 432.4 435.9 439.2 437.8 435.2 429.8 423.4 419.9 413.1 403.2 394.5 386.4 379.5 371.7 368.5 368.4 366.6 366.4 372.8 370.1 374 378.8 382.2 387.7 385.9 380.6 376.8 372.3 368.4 363.8 358.2 353.9 348.7 345 340.4 332.7 324.9 321.8 326.7 335.4 341.4 344.9 348 347.9 343.4 337.6 330.9 323.9 316.9 311.5 306.1 301.3 297.2 293 289.1 285.5 281.6 285.6 284.8 285.1 287.2 288.6 289.5 289.4 289.4 288.9 288.6 290.3 291.9 294.1 281.9 289 294.8 296.8 300.1 305.8 309.1 312.2 320 326.7 334.9 341.4 342.2 343.3 344.3 344.4 344.3 343 334.7 330.5 327.7 322.9 315.8 307.6 309.5 304.1 300.5 297 294.3 290.4 285.7 283.8 281.7 280.2 280.8 284.8 285.9 281.7 275.3 265.9 254.9 247.6 235.5 224.2 228.3 236.1 238.3 239.5 240 239.8 238.7 238.4 237.9 237.9 237.7 237 233.3 229.1 223.9 218.6 214.8 219.4 219.4 218.8 219.3 219.4 219.5 216.2 219.8 212.3 208.3 209.9 208.1 199.6 189.9 185.2 184.9 182.8 182.8 181 181.7 180.7 179.1 179.9
379.4 378 375.2 368.8 363.4 355.6 347.4 340.4 333.2 330.9 332.9 331.8 329.8 326.8 319 317 314.1 311.6 306.5 299.4 291.5 282.3 277.8 268.8 266.2 287 301.5 308.2 312.3 315.9 322.6 330.6 340 350.6 353.4 350.6 348 343.6 343.6 354.4 370.7 387.2 400 412.9 423.8 433.1 437.9 440.3 441.9 440.5 435.4 430.4 426.1 419 413.5 405.3 394.2 385.2 377.1 370.7 364.7 361.6 361 360.2 361.3 363.5 372.7 380.5 381.4 384.2 384.5 381.9 375.7 371.2 368.1 362.8 357.3 352 347.4 343.3 339.1 332.8 327.4 320.7 325.1 333.2 338.8 342.8 345.5 348.9 344.5 339.9 333.2 326.8 320.1 313.5 306.9 302.3 297.7 293.7 290.7 287.7 284 280.6 282.3 281.6 282.3 283.7 285.3 286.5 286.6 286.4 285.9 286.2 287.6 285.5 284 291.4 295.8 298.6 303.3 309.1 315.1 320.9 326.2 335.8 342.8 346.9 349.8 349.6 346.9 346.7 345.3 343.8 338.1 331.4 327 324.8 321.9 312.8 303.2 303.5 300.1 296.6 293.8 290.9 286.5 282.3 279.9 278.2 278.9 279.7 278.8 278.7 276.5 267.1 255.5 252.2 240.1 225.1 222.4 225 231.7 233.9 234.7 235.5 234.9 234 232.8 232 231.6 231.9 231.1 227.8 223.7 219.1 212.5 212.5 212.6 212.2 209.5 206.1 206.1 197.2 200.5 195.9 192.8 198.2 191.3 189 194.3 190 188.6 187.1 185.7 184.5 180.9 178.8 178 175.8
375.9 374.4 372.8 368.3 362.5 354.2 345.8 339.2 333 326.8 323.7 322.6 321.9 319.5 316.3 309.1 308.2 303.9 300.2 296.1 289.9 280.4 273.6 271.6 265.9 281.5 294.3 301.8 307.3 311.3 317.8 326.4 335.5 341.4 344.3 343.3 340 333.2 346.9 360.1 376.9 393.9 410 422.2 432.5 438 442.2 443.4 444.1 442.9 438.6 433.4 426.9 419.4 411.8 406 396.8 387.9 377.2 369.8 363.7 358.8 355.1 354.8 353 359.6 369.7 377.2 376.5 376.2 376.4 379 372.5 369.6 367.7 362.8 356.9 350.9 345.5 339.9 335.7 332.4 327.5 323.1 324.3 331.3 337.7 340.3 342.4 347.6 345.5 341.5 335.7 329.3 322.6 315.6 308.9 303.4 298.7 294.8 291.1 287.7 284.5 278.2 276.9 278.5 278.1 278.8 280.5 282.3 283.3 285 284.4 283.1 282.5 278.1 285.4 293.8 299.5 302.4 307.6 313.5 320.2 327.9 337.5 343.1 347.9 351.9 354.6 352.4 349.7 347 346.1 344.3 339.7 333.1 327.6 325.3 321.4 316.7 308.5 301.1 297.8 295.3 292.4 290.2 287.1 282.7 277.8 273.5 272.5 273.2 273.5 273.1 272.6 267.9 255.8 255.4 246.5 233.1 221.6 220.4 221.7 227.5 229.2 230.2 230.2 229.5 227.7 227.5 226.3 224.5 224.1 223.1 222.3 217.6 214 208.8 206.1 203.7 203.6 205.5 199 195 189.9 189.5 198.9 192.8 192.1 195.1 194.5 191.7 189 182.3 179.4 179.6 179.2 177.7 176.8 175.9
372.8 373.3 373 369 364 356.7 349.6 343.3 336 330 323.8 318.9 315.4 310.9 308.6 305.3 298.6 294.5 295.1 287.1 281.5 275.5 274.2 273.1 265.7 272.4 284.5 292.8 300 306.1 312.4 319.9 329.7 336.2 338.5 336.4 326.1 340.5 351.9 371.1 390.4 407.4 420.2 430.5 440.5 447.4 448.8 448.7 446.8 445.6 440.1 433.8 426.2 418.7 409.9 401.7 396.3 387.8 379 369.6 363.2 356.9 351.7 348.2 345.4 354.5 363.2 370.8 372.5 372.2 372 371.9 371.2 369 367 362.2 356.2 350.3 344.3 338.8 333.4 330.3 327.2 320.4 322.6 329.1 335.4 338.7 339.7 343.9 343.5 339.7 336.1 331.8 324.6 316.5 311.2 305.6 299.9 295.8 291.6 288.1 284.4 281.4 274.6 274.4 275.4 275.2 276.3 277.8 280.5 282.7 281.8 280.5 277.6 279.9 288 295.3 304.5 307.7 312.2 318.3 325 335.7 344.2 349.6 351.4 354.3 354.5 353.4 351.1 348.8 346.1 343.1 337.3 332.4 328.1 323.8 320.2 316.4 311.9 304.8 298.4 295.6 292.8 290 287.9 284 279.2 275.2 272.8 270.9 267.2 268 267.4 265.2 258.6 250.8 250.5 241.1 229.6 221.5 219.1 219.5 223.5 225.3 226.7 226.8 225.7 223.5 221.4 219.2 217.6 215.8 214.6 212 208.8 205.7 203.7 199.5 203.7 202.4 199.9 192.3 189.3 190.4 195.9 195.4 194.5 193.3 191.4 188.8 185 179.2 180.6 177.3 175.2 174.4 176.9 176.1
371.7 373.2 374.5 378.8 373.7 367.2 357.5 349.3 341.7 334.4 329 324.4 319.9 315.9 311 305.4 298.4 297 292.4 288.8 284.8 280.7 277.4 275.2 268.1 262.8 276.8 285.3 294.2 300.8 307 314.8 320.6 330.7 330.3 321.6 329.6 343.3 359.6 383.3 404.3 423 435.4 443.4 448.5 452.5 453.5 452.1 450.4 444.8 438.1 429.2 421.9 413.9 404.8 397.2 390.6 385.5 379.7 370 361.2 356.3 350.3 344.4 340.4 348.2 356.2 362.9 367.3 368.3 368.7 369.1 368.5 367.1 364.9 360.1 355.2 349.6 343.2 337.4 332 327 324.7 321.3 316.3 324.4 331.9 337.5 339 339.5 340 339 336.2 331.3 324.9 317.6 312.9 307.9 302.5 297.3 293.2 289 284.6 281.5 278.8 272.5 271.7 271.1 272.6 273.8 276.4 278.9 279.8 270.1 276.2 286.9 294.3 299 307.6 311.5 316.2 321.7 329.1 342.8 349.8 352.5 353.8 355.4 354.2 351.8 350.5 346.7 343.6 338.9 334 330.1 327.1 324.3 319.6 316.9 313.5 308.7 300.9 295.1 293.2 292.1 288.3 284.4 281.5 278.4 275 270.9 266.4 260.4 262.2 260.4 257.5 246.9 249.8 243.3 231.7 223 219.1 217.4 219.2 221.5 224.3 224 222.7 220.6 217.5 214.6 211.6 209.3 208.3 206.8 205 204.4 202 194.6 196.7 197.4 195.1 191.7 189.8 189 188.6 186.3 184.1 181.7 180.8 178.8 177.4 177 177 175.1 174.7 173.1 172.8 173.4
372.3 372.9 380 386 386 377.7 365.7 355.2 346.2 339.8 333.2 328.1 323.2 318.8 314.4 308.4 305.5 303.1 300 298.6 293.7 286.5 277.7 276.3 272.8 261.7 274.2 281.2 286.3 294.3 303.2 310.5 316.6 318.1 315.8 318.2 333.7 347.9 369.7 393.6 415.2 434.9 449.8 456.3 459.7 455.3 453.9 453.1 452.1 445.7 435.4 424.6 416.5 408 399.3 391.1 385.1 380.6 375.1 368.5 360.3 352.4 348 342.9 335.7 342 348.6 354 360.3 365.9 366 366.3 365.9 366 361.8 357.8 352.8 348.1 343.3 337.1 330.9 325.7 320.2 318.5 310.6 319.7 325.6 333.1 337.7 339.4 340 337.8 334.6 329.7 324.9 318.8 313.4 309.4 303.6 299.2 295.3 291.4 287.2 283.3 280.2 276.2 273 268.8 267.9 269.9 272.2 274.6 267.7 278.7 283.2 290.3 297.9 303.2 309.9 313.3 317.4 323.5 332 345 352.1 355.1 355.4 354.9 352.3 349.8 346.8 343.3 339.3 334.6 331.4 328.3 325.6 322.8 319.8 316.9 313.5 310.1 306.2 298.7 292.5 291.8 290 285.7 281.9 278.7 275.5 270.7 264.1 262.2 254.1 256.1 253.4 247.2 243.9 241.3 231.9 223 217.2 217.2 217.2 217.2 219.7 219.9 219.7 217.5 214.4 211.5 209 207.9 206.5 205.4 202 200.4 198.3 196.4 184.2 189.4 189.1 182.1 181.6 182.6 180.5 179.2 177.6 180.4 179.2 177.7 174.7 173.7 172.5 172.2 172.3 172.5 171.8 170
368.8 373.4 382.7 390.9 398.1 385.9 374.1 365 351.7 343.4 336.9 331.4 326.2 321 317.2 311.9 309.9 309.2 308.2 305.9 300.5 291.8 283.1 277.7 275.4 265.5 260.6 273.9 280.3 288 299.5 307.7 310.8 312.4 301.2 321.4 334.5 353.7 375.4 399.4 420.9 442.1 459.2 463.3 467.6 462.6 458.6 454.3 449.8 443.3 434.3 422.2 410.5 403.9 395.1 385.1 378.1 372.6 366.5 362 356.1 351.2 343.5 340.9 333.3 337 341.5 346.7 351.4 357.8 362.5 363.4 364.3 362.2 358.4 354.2 350.2 346.6 342 336.5 330 324.5 318.7 313.8 306.7 315.2 320 325.2 331.3 337 335.5 334.3 331.6 326.9 322.3 317.7 314.2 309.8 305.2 301.1 297.1 292.9 289.7 285.6 281.6 278.6 275.2 271.7 266.1 266.9 267.3 265.7 274.6 283.2 287.1 292.2 297.4 302.7 310.2 314.9 318.5 325.3 331.8 339.2 350.2 351.4 352 351.2 349.8 348.2 344.8 339.5 334.2 330.2 327.2 325.4 323.5 320.9 317.6 315 312.3 309.5 306.9 302.2 297.9 289.2 288.9 286.5 282.3 279.4 274.3 269 264.7 257.9 254.3 249.3 250 245.2 236.4 237.5 229.3 219.8 217.2 217.2 217.2 217.4 212 211.2 213.2 212.5 210.8 208.8 208.9 208.5 206.8 202.3 197 195.2 192.7 192.3 189.5 183.6 181.5 179.5 179.2 177.9 177.1 174.7 175.9 176.4 177.4 176.1 172.9 171.9 171.7 171 169.7 169 167.7 173
365.9 376.3 385.9 395.4 400.9 393.7 382 371.2 357.8 349.2 340.6 334.5 329 324 319.6 315.3 314.6 313.9 312.7 310.5 305.8 297.2 289.6 282.1 276.6 268 258.9 266.1 277.9 281.6 291.4 301.9 304.9 290.4 306.3 320.3 337.2 358 378.9 398.7 417 436.1 454.6 465.2 468.8 471.4 466.8 458.1 450.1 441.3 430.2 419.5 407.7 398.6 390.5 381.4 371.8 363.4 359.6 356.2 351.4 347.2 341.1 337.2 328.6 328.8 336 341.1 346.2 350.5 353 355.6 357.2 356.8 353.6 349.9 345.8 342.5 339.4 335.2 329.5 323.1 317.7 312.7 303.4 311.4 314.8 319.9 324 327.5 330.9 330.4 328.1 324.3 320 316.9 313.6 309.2 305.1 301.7 298.3 294.3 289.5 285.7 283.2 281.1 276.7 273.4 270 263.6 263.1 273.2 279.8 283.8 287.2 291.4 296.2 301.2 307.2 312.9 319.5 326.1 332.8 339.2 341.9 347 346.7 346.3 346.3 344.9 340.7 335.3 329.1 322.6 322.6 321.1 319.7 318.3 315.4 312.8 309.8 307.6 305.3 300.9 299.8 294.8 286.1 283.1 281.2 277.3 272.6 266.4 265.2 256.9 250.9 245 246.8 241.6 234 224.8 220 217.2 217.2 217.2 218.4 217.6 213.1 204.7 203.4 206.2 207.6 208.1 207.8 205.2 202.2 197.7 191.8 189.2 184.2 184.7 184.1 179.8 168.8 176.4 173.9 172 171 169.3 169.8 170.5 169.4 168.7 168 167.7 167.3 167 165.6 165.6 165.2 170.8
363.3 372.9 386.7 396.4 399.3 394.5 383.5 373.5 361.8 352.6 344.4 335.1 329.7 324.4 320.9 317.6 315.7 314.1 313.4 312.1 308.2 302.5 294.5 285.9 278.1 269.3 257.8 265.9 274.8 277.1 282.8 290.7 284.1 291 307.8 319.2 336.6 355.8 374.6 389.1 407.9 422.7 439.6 455.3 465.6 473.8 475.5 466 453.4 441.8 431.9 416.9 404.1 392.6 381.6 374 364.7 357.9 353.8 348.6 345.6 341.9 338.2 336 330 323.1 330.7 336 340.5 343.7 346.8 348.7 350 349.9 348.7 345 341.3 338.7 334.9 332.3 328.4 323.1 316.8 311.5 305.6 305.9 310 314.6 319.5 324.1 326.4 326.8 325 322 319.1 316 312.8 308.1 304.7 300.5 297 293.7 289.9 286.5 284.9 281.5 278.5 274.9 271.2 266.2 261.8 269.2 277.7 281.1 286.2 289.8 295.9 301.5 306.7 312.4 319.3 326.7 333.5 338.8 342.7 343.1 336.6 340.1 340.7 340.5 335.5 331 326.6 321.5 316.1 315.6 315.1 313.1 311 308.6 305.6 303.8 302.4 299.9 294.9 295.1 291.3 283.2 277.3 273.5 268.7 260.9 258.7 256.1 247.6 238.1 242.6 237.3 230.2 220.1 216.9 218.2 217.3 220.5 223.2 223.4 219.4 212.2 201 198.7 201 201.3 199.2 197.4 195.3 192.4 187.4 183 177.3 176.2 177 173.8 168.9 167.1 168.8 167.2 166.6 164.4 163.5 163.5 164 164.1 163.8 163.8 164.2 163.3 162.1 161.8 163.8 167.1
360.3 375.5 387.8 393.3 393.4 389.9 379.4 370.5 361.8 353 344.8 336.9 329.3 323.7 320.4 317 314.5 313.3 312.8 310.2 307.1 301.3 294.4 286.7 279.4 271.2 261.3 266.1 269 270.3 280 272.4 280.4 296 304.9 318.1 334.6 351.3 366.2 379.6 393.1 405.5 422.2 444.2 463.8 471.4 477.3 476.9 460 448.1 434.8 418.8 401.4 388.2 374.9 362.9 356.4 352.6 346 342.2 339 335.8 333 330.9 329.2 316.3 326.1 330.5 333.3 336.6 338.9 341.7 343.2 343.1 343 340.1 338.8 336.8 333.4 328.3 325.2 321.8 317.2 311.2 305.4 296.1 305.1 310.1 317.3 323.2 325.6 325.9 324.1 322.3 318.3 314 311.3 306.9 303.1 299.3 295.2 291.2 288.3 284.7 280.8 278 278.2 274.3 271.2 268.2 264 259.8 270.9 275.3 280.4 288 295.8 302.5 308.9 312.7 318.3 326 333 338.5 341.1 340.7 339.2 333.5 329.9 330 328.5 325.2 320.7 317.4 313.5 311.6 311.3 310.6 306.9 303.9 300.3 298.9 297.3 293.7 291.2 290.5 289.8 285.2 279 271.6 264.8 260.6 252.7 245.1 240.1 233.6 237.3 230.9 224.7 215.2 208.7 214.1 218 222.4 223.2 224.1 221.4 215.7 208.2 196.9 191.6 191.6 191.9 189.2 188.8 186.1 183.7 179 175.2 172.7 173.6 172.3 169.9 166.3 160.7 160 164.1 163.8 161.2 160.8 160.7 161.5 161.1 159.6 160.1 160.3 159.2 160.6 159.6 163.8
356.1 369.5 386.5 385.9 384.9 381.2 372.6 365.3 357.2 349.6 341.7 335.2 329 323.7 319.5 315.7 313 312 311.7 310.8 306.4 301.9 294.5 287.8 280.5 273.8 256.5 253.4 257.5 260.4 270.3 280.1 285.4 288 300.3 314.2 328.8 343.8 354.9 366.7 380.9 394.8 412.8 432.8 455.3 467.5 471.8 474 463.5 450.3 437.6 424.5 405.5 386.5 370.4 360.4 352 343.4 342.1 338.1 332.9 330.5 327.1 326 325.3 319.7 320 324.6 327.2 330.5 332.2 333 335.2 336.8 337 336.5 336.7 334.1 330.4 326.4 320.7 318 314.6 309.5 303.7 294.2 299.9 308.3 317.2 324.5 327 328.8 327 324.8 322.8 319.8 314.9 308.9 303.5 298.9 296.2 293.9 289.9 286 283.3 277.4 275.3 274.9 271.8 268.9 265.8 259.8 259.4 267.3 273.7 284 290.9 299.8 308 315.1 319.1 326.4 331 337.5 337.1 336.4 333.1 330.9 326.5 322.3 320.1 317.7 316.5 313.1 310.3 310.4 308.2 306.5 305.2 302.7 300 297.9 294 293.2 293.9 289.1 286.3 283.4 278.9 273.5 268.8 262.6 255.7 247.1 237.1 230.6 225.9 223 217.8 215.4 202.6 205.5 216.2 224.6 224.8 225.4 223.5 220 214.4 208.5 197.7 185 179 174.2 178.3 181.6 179 176.6 174.5 171.4 170.2 168.5 168 167.5 162.1 154.1 158 161.6 160.9 159.9 160.7 162.6 161.4 158.5 158 157.6 158 159.1 158.4 159.6
353.4 364.4 375.4 377.5 376.4 371.7 365.3 357.8 351.1 345.7 338.6 331.3 326.6 321.5 317.6 313.7 310.3 310 310.2 310.9 306.5 302.9 295.4 289.2 281.7 274 263.1 252.6 260.5 275.9 282.3 291 295.2 300.6 304.4 308.8 322.8 334.6 345.3 354.9 369.5 387.6 406.1 425.3 449.5 461.8 464.7 464.6 463.2 450.1 437.6 423.4 411.2 393 373 359.4 352 345.9 340 331.9 330.4 327.1 323.7 322 321.2 318.5 309.5 318.9 321.1 323.1 324.6 326.4 328.4 331.6 331.3 331 330.9 329.7 327.4 323.8 319.3 315.1 310 307.1 302.3 298.2 296.4 306.5 316.7 325.5 330.7 333.2 334.2 332.1 328.7 326.4 320.4 312.2 307.4 300.6 296.2 293.4 290.9 286.4 281.4 278.1 270.9 272.4 270.7 268.5 265.8 264.6 260.8 263.7 272 283.1 291.1 296.4 304 310.5 317.7 322.8 329.3 332 331.6 329.3 327.6 323.3 320.4 317 314.4 313.6 313.6 311.1 308.5 306.6 306.5 306.8 302 297.4 295.9 294.3 292.9 291.6 291 291 289.2 285.9 284 280.6 273.7 265.7 257.7 249.1 240.5 229.8 222.1 217.2 215.9 213.3 203.5 203.3 212.3 220.4 224.1 221.4 221.3 221 214 209.7 199.9 189.1 182.8 174 164.6 170.2 174.2 173.7 171.4 168.9 166.6 165.3 168.3 166.9 162.1 154.3 151 159.4 159.3 162.6 162.7 162.3 160.1 158.3 157.4 156.5 157.2 158.8 157.4 158
348.6 362.5 375.2 372.4 369.3 364.5 356 350.1 344.8 339.5 333.6 328.6 323.1 318.4 314.6 311 306.9 306.5 307.9 308.4 303.4 305.5 298 290.4 283 275.4 264.2 249.9 267.6 286.1 294 297.9 303.8 308.5 311.7 312.8 322.3 331.1 339.3 349 360.7 379 398.1 417.3 441.6 454 458.2 459 455.2 447 433.3 419.6 407.8 393.4 379 362.9 353 346.3 341 335.3 328.3 323 321.4 317.8 317.4 316.8 309.8 314.5 314.9 316 317.6 320.5 322.2 325.2 325.5 325.4 324.9 325.4 324.6 322 317.2 313.4 308.9 303.3 299.5 293.7 295.8 306 318.2 328.8 332.2 335.7 338.9 338.4 334.9 330.3 323.6 317.8 308.4 302.4 297.5 294.1 290.6 287.2 280.7 276.5 269.8 269.3 268.2 266.6 265.3 263.2 263.4 259.3 271.5 280.1 287 290.9 296.8 303.8 312.2 318.3 323.7 325.5 325.3 323 321 318.3 314.6 312.3 311.6 313.4 312.9 308.9 307.6 306.1 305.8 302.9 298.3 294.4 291 289.1 288 286.6 285.8 287.1 288.2 287.2 286.6 285.5 277.1 269.7 260.8 251.3 241.1 231.6 222.5 216.7 207.6 208.4 198.1 196.1 205.8 214.8 220.4 221.8 216.3 215.1 211.6 201.9 201.7 190.9 176.9 182.4 176.4 162.8 168.1 169.9 169.5 167.8 165.4 162.6 163.7 161.3 158.3 156.3 149.6 150.7 150.1 151.2 153.7 155.5 159.3 160.7 159.6 157 155.8 156.1 156.4 157.5
346.6 360.5 370.2 366.9 362.8 355.6 348.6 343.9 338.6 333.3 327.8 323.2 319.2 315.9 312.3 308.7 304.3 302.1 304.3 299.4 302.1 303.5 297.4 290.9 283.6 276.5 260.8 251 273.5 292.1 303.1 308.5 315.6 319.3 321.8 322.7 326 332.7 339.3 347.6 357.7 371.3 389.7 406.9 431.9 445.1 449.7 450.9 445 436.5 426.4 413.9 401 387.6 376.5 366 356.5 347.5 341.3 336 330.4 323.6 315.4 314 308.7 312.5 307 310.7 311 310.9 312.9 314.6 316.3 318.5 319.8 319.7 320.2 320.7 321.2 320.1 316.2 311.8 305.4 300.3 296.4 287.3 295.6 304.7 319.4 330.1 333.3 337 340.3 345.6 340.9 334.6 328.2 321 313.7 302.1 298 294.5 289.3 284.7 281.1 275.7 271 267.5 266 264.9 264 262.1 261.5 259.2 269.5 276.5 283.8 286.3 289.6 297.2 303 310.3 317.3 318.6 318.1 316.3 315.1 312.6 308.8 308.4 310.8 315.6 317.2 312.3 305.5 304.7 305.5 302.6 298.3 293.3 289.1 284.6 282.8 281.2 280.3 282.8 285.2 284.7 284.1 281.9 276.2 270.1 262.4 252.5 241.8 229.8 220.2 217.8 213.9 195.4 191.2 192.5 197.6 202.4 208.6 211.8 209.4 208.7 205.5 201 193.5 185.8 178.8 178.3 176.5 166.5 161.7 158.4 160.1 161.7 161.6 161.9 158 155.3 155.2 155 153 146.6 146.6 145.2 144.7 148.7 152.8 155.2 156.9 157.4 155.6 152.4 154.8 155.3
345 356.2 361.5 359.2 354.5 346.4 342 337.6 333.7 329 323.6 318.5 314.2 311.8 309.3 305.3 302.4 297.9 299.1 292.1 300.9 298.4 295.8 289.5 282.7 274.4 253.4 253.1 274.8 295.1 309.6 317.5 327 333.7 334.6 333.4 334.9 337.3 342.1 349.5 358.7 369.8 384.1 401.1 416.6 430.3 438.9 437.3 433.4 424.7 414 404.9 396 383.4 372.3 363.2 357.1 350.8 342.9 337.1 330.9 323.4 320.6 314.3 307.7 300.6 302.4 304.5 306 308.3 308.9 311 312.1 313.9 314 314.5 315.4 316.3 317.5 318.2 315.2 310.4 304.7 297.1 293.3 285 295.9 307 319.2 329.5 334.4 336.2 340.2 346.3 344.1 337.7 330.8 324.7 317.4 308.4 298.3 289.9 287.5 283 279.3 274.7 271.3 268.2 264.6 261.2 262.1 260.3 260.1 254.7 263.5 270.5 278.7 281.5 284.7 288.5 295 300.7 305.9 311 310.3 308.8 308.2 303.5 303.6 305.7 310.4 316.4 317 314 306.4 301.3 299.1 297.6 294.1 291.1 287.5 282.8 275.3 274.7 272.5 276.7 280.2 280.8 278.1 275.7 271.8 266 260.7 248.8 237.7 227.7 219 217.2 215.5 208.4 189.8 184.8 191.4 193.6 194.4 197.1 201.3 201.1 198.8 194 186.8 183.3 182.6 177.2 176.7 167.9 165.7 164.2 156.8 154.9 157.7 157.6 154.9 152.8 153.1 152.7 148.7 145.6 145 143.9 142.1 143.6 147.7 148.5 151.8 152.9 151.5 152.3 153.4 153.9
343.2 350.4 353.3 352 348 343 337.1 330.3 328.4 325.2 320.5 316.4 312.9 308.6 305.2 299.7 297.9 294.6 294.1 289.6 293 291.3 290 286.9 281.4 265.4 247.5 254.2 275.8 296.5 312.8 322.1 328.8 340.8 344.3 342.5 343.9 347.6 348.5 353.4 359.3 365.8 379 393.7 408 414.5 421.7 423.3 419.8 412.5 404.5 397.1 390 383.1 376.6 364 355.8 350.9 345.9 339.3 333.1 328 322.9 318.7 312.3 308.9 299.6 294.6 298.8 302 304.3 306.3 308.8 309.2 308.9 310.4 311.7 313.2 314.5 314.2 312.8 308.6 303.8 296.8 289.1 283.9 299.5 309.9 321.8 328.1 333.3 337.1 339.6 342.9 345.2 338.7 332 324.7 320.7 310.4 300.7 292.5 284.4 280.1 275.6 272.8 269.7 267.2 263.8 257.4 260.5 260.3 255.4 249.8 261.1 270 274.8 276.9 278.9 281.7 284.5 290.5 295.9 299.8 301.5 301.6 300.7 299.8 300.9 302.1 305.9 313.2 313.6 309.3 305.1 300.6 295.4 289.3 288.4 286.1 283.2 278.4 271.6 267.2 265.6 266.6 272.6 273.2 270.9 266.8 260.1 251.5 243.9 238.2 230.3 223.6 217.8 214.4 212.6 204.1 193.1 174.3 186 186 185 184 185.9 186.7 186.7 184.8 180.4 178.8 177.1 173.2 168.8 164.6 162 160 157.9 151.8 152.6 152.7 151.5 150.7 150.6 148.3 144.8 143.8 143.8 142 141.2 141 144.1 143.5 146.2 149.4 145.4 150.5 152.2 152.5
340.6 348.6 347.8 343.9 341.1 337.4 332.1 329.4 324.5 322.6 318.3 315.9 312.8 309.5 305 301.1 294.6 289.8 287.2 283.2 288.5 287.2 285.4 283.7 275.6 256.5 247.7 261.3 273.2 293 312.1 322.4 329.6 341.6 351 351.4 353.8 354.6 353.7 355.1 358.1 361.8 368.1 383.3 394.4 401.7 407.4 404.6 406.4 403.7 397.9 393 386.3 380.9 375.8 371.5 361 352.3 346.6 339.5 332.2 327 322.4 318 313.9 308.4 304.6 297.2 290 294.2 299.7 302.6 305.5 308.2 307 306.1 307 308.6 309.3 309.6 308.4 305.9 301.6 295.7 287.4 287 300.1 310.4 320.1 326.9 331.3 336.1 338.9 340.4 339.7 336.5 327.4 319.9 315.4 310.8 302.4 292.2 283.4 277.9 272 268.2 266 264.6 261.5 255.4 259.1 259 250.4 252.2 260.3 267.7 272.9 274 274.4 275.6 277.1 280.4 286.6 290.8 292.5 293.9 294.2 295.7 300 300.8 301.6 303.1 304.7 303.9 301.4 297.6 292.6 286.3 279 277.2 274.2 271.3 267.4 255.5 257.7 256.6 259.9 260 256.4 248.7 240.8 234.9 232 230.2 224.7 217.3 215.1 211.8 208.2 200 192.2 180.2 177.1 179.6 176 175.1 175.6 174.5 174.4 171.8 169.9 168.6 167.7 164 161.3 159.8 157.6 155.9 154.6 152.2 150.1 148.9 147.1 147.4 148 145.1 142.7 142.9 141.6 141 140.2 139.4 140.5 140.5 141.8 144.1 144.7 148.4 151.7 152.2
340 341.8 341.6 337.9 336.5 332.7 328 325.3 322.3 320.1 316.8 314.6 313.3 311.4 307.3 303.1 297.6 291.8 286.9 278.1 284.9 285.6 284.4 282.1 272.3 254.4 249 263 276 287.8 306 319.2 325.3 340.5 346.6 352.4 358.2 358.6 354.3 353 353.2 356.4 361.8 372.2 382.9 393.9 397.2 396.3 394.9 393.3 390.2 386.1 380.5 377.4 374.1 369.5 362.4 353.3 342.9 335.9 329.9 327 321 317.1 312.9 308.5 304.2 301.3 297.4 286.9 295.9 298.9 302 304.9 305.2 303.7 302.3 302.5 303.1 303.3 302.3 301.3 300 293.4 284.3 283.8 299.9 308.7 315.7 323.9 328.3 332.1 334.5 336.3 335.9 331.4 324.4 316.8 309.6 304.4 299 292 283.9 276.6 270.3 265.5 262.3 260.8 259.7 249.2 257.2 257 245 250.1 258.6 265.2 268.8 270.9 272.1 271.1 271.4 273.2 275.9 280.7 285.5 288.5 289.1 291.9 298 299.2 298.2 297.6 297.3 297 296.1 292 286.7 281.8 276.6 271.1 266.2 263.2 259.5 253.1 243.7 242.5 245.4 242.4 236.7 231.1 226.2 223.2 221 219.1 217.2 214.5 210.9 206.2 198.9 192.7 186.8 182.6 168.1 171.3 170.2 166.5 165.7 164.7 163.9 162.1 162 161.3 161.6 159.3 156.6 156.1 155.5 155 153.2 154.1 153.7 147.4 144.7 144.2 143.9 142.3 140.9 141.6 140.9 140.3 139.1 138.4 137.6 137.5 138.4 140.1 142.8 147.5 149.1 150.2
341.8 340 336.9 334.2 332.5 329 324.5 321.3 319.1 316.8 315.1 313.9 313.2 312.1 308.5 303.7 298.2 292.2 284.9 275.7 280.9 280.6 278.8 278.2 273 255.8 238.9 257.4 268 280.2 299 310.7 322.3 333.8 343.8 346.3 355 355.7 352.5 349.4 348.7 351.9 357.2 364.6 375.1 385.5 389.2 388.8 386.7 382.6 380.3 377.8 371.6 369.8 367.5 364.1 360 356.3 353.4 347.5 338.3 330.8 323.8 319.6 313.8 308.8 304.8 300 293.8 289.6 285.6 295.5 298.2 300.1 301.4 303.1 300.8 298.7 297.2 297.6 297.8 297 296.2 291.7 278.5 289.3 298.8 306.9 311 317.1 321.5 325.3 328.6 330.9 329.4 325.8 318.7 312.8 306.4 299.7 294.4 288.9 282.6 276.4 269.8 263.4 258.8 256.1 254.9 244.7 253.9 253.4 253 246.7 253.6 259.5 264 267.3 268.4 268.2 266.5 268.4 271.3 275 278.7 281.9 284.9 289.2 294.1 297.7 296.4 294.8 295.8 295.7 290.6 284.8 280.3 276.8 272.8 267.6 262.1 254.8 251.2 242.5 230.4 228.9 230.1 226.8 225 220.4 218.3 216.5 215.1 211.8 209.1 205.4 201.1 197.9 192.5 187.6 183.4 180.8 173.3 160.6 163.8 161.2 158.3 154.8 152.3 152 151.9 152.5 152.1 151 150.9 149 151.8 153.2 151.5 151.5 151.1 149.8 150.2 142.9 142.3 140.2 139.7 139.9 139.5 139.3 138.3 137.6 136.9 135.9 136.4 137.5 139.8 144.4 143.6 144.4
340.4 338.4 335 332.1 329.5 326.3 320.8 317.6 314.9 313.8 311.6 311.6 310.6 309.2 308.5 304.4 299.7 293.9 288.2 279.7 275.9 274.8 273.9 273.7 273.4 261.5 241.8 240.9 253.5 271.8 288.3 299.6 314.5 326.8 340 340.6 346.4 347.1 343.3 340.9 340.7 345.9 353.1 361.6 369.1 379.3 381.7 382.1 379.4 376.6 372.3 370.8 368.7 368.6 368.1 369.5 369.1 362.9 361.9 361.3 351.9 341.1 330.9 323.5 317.4 310.3 305.6 300.6 296.6 292.2 281.5 291.7 295 296.6 298 300.2 300.2 298 295 294 293.2 292.4 291.9 285.1 279.8 293.1 298.3 304.6 307.5 312.1 315.2 318.1 321 322.9 323.2 317.8 311.9 306.3 301.5 296 289.1 284.4 279 273.7 268.6 262.7 257.6 252.3 249.2 240.6 249 248.2 250.7 239.8 250.2 254.4 259.2 263.5 265.3 263.6 262.8 265.8 269.9 275.2 280.3 285 288.1 287.6 289 292.6 291.7 291.1 290.9 289.4 285.4 279.8 274.7 271.5 266.7 262.5 257.5 251.6 244.2 239.5 229.6 224.6 218.7 216.7 214.9 213.8 212.5 210.1 206.1 202.6 198.8 194.9 190.7 187.8 184.9 181.1 175.9 169 165.7 163.1 156.8 153.2 149.7 147.6 145.3 144.3 143.4 142.6 143.2 145 147.1 146.9 146.8 145.8 145.1 144 143.3 143 142.2 141.4 140.3 140.2 139 137.8 138.5 138.9 137.6 137.1 136.6 134.7 135.4 135.9 137.7 138.9 141.4 144.4
338.6 336.6 332.8 329.6 326.9 321.5 318.1 314.8 311.9 309.4 306.8 306.7 305.9 305.4 304.7 303 300.1 295.9 290.6 284.8 271.2 268 268.5 269.5 270.5 269.1 251.9 238.2 244.9 262.9 279.2 290.4 303 314.8 328.9 333 337.4 334.7 333.8 332.5 336.1 340.8 349 358.5 366.1 371.8 374.2 374.1 373.9 371.2 367.5 365.7 365.9 368.4 371.2 372.7 373.8 372.9 371.3 368.8 364.9 353.7 340.3 328.5 320.6 313.2 306.1 301.3 297 292.7 284.2 283.3 290.1 292.8 294.7 296.5 297.7 297 294 288.9 288.5 288.8 289.3 284.2 281.7 293.6 302.3 304 305.8 309.4 312 313.1 314.3 315.2 315.6 312.8 306.9 301 294.9 289.2 285.6 278.5 273.5 268.7 264.6 259.9 255.4 250.1 244.4 236.3 244.8 241 246.4 240.2 245.5 252.8 255.5 261 263 263.9 266.4 268.2 272.7 278 284.1 289.4 291.9 291.2 290.8 287.9 286.7 285.5 282.7 279.3 276.2 272.2 268 265 259.7 254.7 249.7 243.8 236.4 231.4 226.6 223.8 218.8 209.6 207 198.7 199.3 199.2 197.5 194.9 190.4 187 183.3 180.1 175.6 171.4 167.6 164.6 160.3 157.6 153.5 150.6 148.9 148.2 147.3 147.2 145.2 141.9 141 140.1 140 141.2 140.9 140.3 140.2 140.2 140.8 140 140.2 139.2 139.1 138.7 139.1 137.5 137.2 137.2 137.2 136.4 135.9 135.2 134.7 135.7 136.3 136.4 138 139.1
341.1 334.8 330.8 326.8 323.1 319.9 316.2 311.9 308.8 306.4 303.2 301 300.9 300.8 298.9 297.1 296.3 295.4 291.5 287.4 278 268.4 258.9 264 267.4 268.2 259.7 236.5 240.1 253.5 275.3 285.2 298.7 308.4 314.1 321 325.6 324.3 322.5 323.4 333.5 341.1 347.9 356.4 362.6 367.5 370.3 369.8 369 367.3 363.6 360.2 365.2 368.8 372.6 375.7 376.9 378 382.1 378.4 374.5 367.8 354.1 338.5 324.5 316.2 308.9 301.6 297 292.5 287.7 276.6 282.7 287.6 290.3 291.8 293.2 293.7 291.8 287.3 283.4 284.2 285.1 273.3 278.9 292.1 302 304.6 304 306.1 308.4 308.8 309 308.6 306.2 305.6 300.7 296.1 290.6 285.8 280 273.6 267.7 262.8 258.1 254.3 251 247.5 244.5 237.7 234.4 236 238.9 228.8 246.1 250.7 251.9 255.5 257.6 264.9 268.3 271.5 276.4 282.5 288.6 292.1 292.9 293.5 294.5 295.6 289.5 281.9 277.5 271.4 267.6 263.5 259.5 255.9 249.2 245.2 238.2 233.2 228 226 221.4 218.2 213.2 208.2 206 200.3 195.4 189.5 188.8 187.5 185.1 182 177.7 173.5 169.4 167.3 163.1 159.5 156.5 150.6 148.8 149.2 147.8 146.9 147.6 146.4 144.7 141.4 140.3 139.6 139.1 139 138.6 138.7 138.2 137.5 137.9 137.9 137.7 138.1 137.6 137.5 137.5 137.2 136.9 136.5 136.3 135.8 135.2 134.6 133.8 134.7 134 133.7 133.7 135.9
