ncols 200
nrows 95
xllcorner 120000
yllcorner 941100
cellsize 50
-1.6 -1.6 -1.6 -1.6 -1.6 -1.6 -1.6 -1.6 -1.6 -1.6 -1.6 -1.6 -1.6 -1.6 -1.6 -1.6 -1.6 -1.6 -1.6 -1.6 -1.6 -1.6 -1.6 -1.6 -1.6 -1.6 -1.6 -1.6 -1.6 -1.6 -1.6 -1.6 -1.6 -1.6 -1.6 6.8 58.4 64.7 52.4 39.1 45.3 60.8 59.9 55.6 36.4 26.7 2.1 2 3.2 26.6 25.9 15.3 10.3 6.3 5.1 5.6 7.3 14.2 27.5 31.9 39.2 39.1 38 36.8 32.6 32.6 32.6 32.6 32.6 33 37.4 35.8 36.8 35.3 34.4 35.7 35.2 37.4 45.4 41.7 45.6 57.9 53.5 51.9 41.7 53.2 44.9 49 51.9 54.9 49.8 47.8 44.3 37.1 37.1 37.4 36.1 38.4 39.4 40.4 35.6 33.4 33.9 38.6 41 44.9 50.4 49.8 45.9 40.3 35.3 32.1 29.6 26.7 24.5 21.5 20.2 20.8 21 20.4 20.5 21.5 22.5 23.3 23.9 24.1 25.2 25.2 27.6 30.5 33.5 37.8 38.9 37 37 35.7 36.5 38.2 41.5 45.2 47.2 49 49.5 50.3 51 52.5 54.3 52.2 50.4 50.3 49.9 49.8 47.5 47.5 47.4 47.4 49.9 52.2 54.4 55.9 57.1 57.6 58.5 59.2 60.1 62.1 63.5 63.2 60 57 56 56.2 56.1 56.1 56.1 55.3 54.3 54.2 52.5 50.3 49.3 50.1 46.1 44.7 43 40.3 38.3 37.4 37.3 36.8 36.2 35.1 34 33.8 32.9 32.9 31.8 30 28.4 26.9
-1.6 -1.6 -1.6 -1.6 -1.6 -1.6 -1.6 -1.6 -1.6 -1.6 -1.6 -1.6 -1.6 -1.6 -1.6 -1.6 -1.6 -1.6 -1.6 -1.6 -1.6 -1.6 -1.6 -1.6 -1.6 -1.6 -1.6 -1.6 -1.6 -1.6 -1.6 -1.6 -1.6 -1.6 -1.6 21.4 40.1 56.9 43.9 46.4 53.9 62.3 57.9 47.1 39.4 30.8 11 2 8.4 21.4 19.3 14.2 9.5 3.9 3.9 3.9 3.9 7.2 19.1 25.5 31.7 38.1 38.1 37.9 37.4 32.6 32.6 32.6 32.6 40.2 40.6 41 40.3 38.8 36.9 37.1 36.2 38.5 49.8 45.9 49.5 58.5 56.9 56.3 56.1 54.3 46.8 48.2 49.5 50.9 49.4 49 48.6 40.2 39.7 37.9 37 39.9 40.2 38.5 36.3 35.9 36.4 38 41.6 45.8 50.4 52.3 49.8 43.7 40 35.7 32.7 30.1 26.5 22.7 21.5 21.9 22.2 21.2 21.8 21.4 21.1 21.9 21.8 22.6 23.1 23.9 24.9 28.2 31.4 34.3 35.5 34.9 36 35.6 36.5 38.5 42.3 45.2 46.8 49.3 49.3 49.9 50.7 52.2 52.3 50.9 50.1 49.8 48.4 47.5 47.5 47.5 47.5 47.4 48.5 51.7 54.4 55.4 57.4 58.6 59.1 59.7 60.3 62.7 64.1 63.8 59.6 57.8 57.7 57.1 57.2 56.5 56.6 56.4 55.3 55.2 53.8 52.2 50.9 49.6 46.8 45.8 44.2 42.8 39 37.5 36.8 36.6 35.5 35.4 34.5 33.7 34.1 35 33.1 30.7 28.3 27
-1.6 -1.6 -1.6 -1.6 -1.6 -1.6 -1.6 -1.6 -1.6 -1.6 -1.6 -1.6 -1.6 -1.6 -1.6 -1.6 -1.6 -1.6 -1.6 -1.6 -1.6 -1.6 -1.6 -1.6 -1.6 -1.6 -1.6 -1.6 -1.6 -1.6 -1.6 -1.6 -1.6 -1.6 -1.6 8.6 54.8 56.8 42.3 52.9 54.4 55.9 52.5 48.9 38.5 30.8 27.9 9.5 10.9 14.2 14.9 14.2 5 3.9 3.9 3.9 3.9 4.6 12.9 20.8 26.5 35.7 38.4 39.1 39.3 36.9 32.6 32.6 36.9 39.8 45.2 43.6 38.5 37.1 37.6 36.9 37.9 39.1 50.9 48.6 48.8 55.6 55.3 52.1 56.4 55.2 48.4 48.3 49 51 48.4 50.8 47.8 42.2 37.7 37.8 39.3 41 42.5 41.3 42.3 37.7 40.6 39.6 43.6 46.9 50.4 52.9 51.9 47 41.9 40.1 36 35.4 30.1 25.1 22.2 24.8 23.6 22.1 22.6 22.4 22.5 22.4 21.9 20.9 21.7 22.4 22.5 25 28.5 31.2 33 33.3 35.2 35.9 36.8 39.3 43.2 45.9 46.3 48.2 48.9 49.8 50.9 51 51.3 50 50.3 50.1 47.8 47.4 47.5 47.5 47.5 47.5 48.3 51.6 54.6 56 57.6 58.7 59.8 60.2 60.7 63 64.3 63.3 60.4 58.4 58.6 57.8 57.7 57.8 57.9 57.6 56.1 56.5 54.7 53.8 52.6 51.5 48.5 47.2 45.5 43.5 39.6 37.6 37.5 36.8 35.6 34.4 34.1 33.9 34.6 36.1 33.9 30.2 28.1 26.2
-1.6 -1.6 -1.6 -1.6 -1.6 -1.6 -1.6 -1.6 -1.6 -1.6 -1.6 -1.6 -1.6 -1.6 -1.6 -1.6 -1.6 -1.6 -1.6 -1.6 -1.6 -1.6 -1.6 -1.6 -1.6 -1.6 -1.6 -1.6 -1.6 -1.6 -1.6 -1.6 -1.6 -1.6 -1.6 1.5 59.9 45.5 43.6 57.5 73.1 73.5 66 59.7 46.8 42.5 34.2 18.6 11.1 10.6 6.8 5 3.9 3.9 3.9 3.9 3.9 3.9 9.6 15.9 25 31.1 38 40.5 42.6 38.7 32.6 32.6 46.4 51.8 52.4 46.3 42.4 38.7 38.2 37.6 38.2 40.5 50.2 49.8 48.8 52.6 51.6 51.6 53.1 53.3 50.2 50.1 54.4 49.3 47.8 46 44.1 40.2 38.9 38.7 39.6 41.8 46.4 45.7 43.4 41.9 39.3 40.7 45.3 47.3 50.2 53.2 53.1 49 45.7 44.5 40.1 37.5 34.4 27.4 25.3 27.6 25.6 23.4 22.9 23.4 22.9 22.9 22.3 21.8 20.9 20.9 20.9 21.5 25.5 29.3 30.4 31.5 33.5 34.9 36.6 39.8 43.6 46.3 46.2 46.2 48.1 50.1 50.3 50.6 52.1 50.1 49.9 50.2 49.6 47.5 47.5 47.5 47.4 47.5 47.5 51.9 55.1 56.4 58.1 58.6 60.4 60.9 61.4 62.5 64.2 63 61.2 60.1 59.5 58.4 58.4 57.9 58.4 57.9 58.1 57.1 56.2 55.4 53.8 53.3 51.8 47.6 45.9 44.9 41.4 38 37.5 36.8 35.8 33.9 33.7 32.4 32.3 36.2 33.1 28.7 25.8 25.1
-1.6 -1.6 -1.6 -1.6 -1.6 -1.6 -1.6 -1.6 4.1 -1.6 -1.6 -1.3 -1.6 -1.6 -1.6 -1.6 -1.6 -1.6 -1.6 -1.6 -1.6 -1.6 -1.6 -1.6 -1.6 -1.6 -1.6 -1.6 -1.6 -1.6 -1.6 -1.6 -1.6 -1.6 2.9 36.3 67.9 49.3 51.3 61.6 76.4 83.1 75.2 69 49.6 43.8 35.4 26.5 12.1 8.3 5.4 5 3.9 3.9 6.6 3.9 4.3 5.5 9.9 12.8 20.3 28.8 36.6 42.2 46.6 40.9 35.9 37.2 49.6 53.1 53.1 49.1 45.8 50.5 52.8 49 47.2 43.3 49.2 51.5 49.4 50.7 52.3 51.6 53.8 56.1 52.8 51.6 56.8 53.7 49.4 47.9 48.4 43.4 40.8 38.9 39.3 42.2 46.6 46.8 44.4 48 41.5 45.6 44.3 49.5 51.3 53.9 54.5 53 49.3 48.5 46 39 35 30.9 27 29.5 28.3 25.5 23.9 23.2 23.3 23 23 22.7 22.4 20.9 20.9 20.9 23 25.7 27.5 30.6 32.6 36.3 37.6 40.7 46.3 47.5 46.2 46.9 48.2 49.9 50.5 51.1 53.5 51.3 50.7 51.2 51.6 48.3 47.4 47.5 47.4 47.4 47.5 52.5 55.3 56.9 58 59.4 61 59.6 60.7 63.3 64 63.5 61.5 61 59.6 59 58.9 58.7 59.4 59.1 58.8 58.3 57.5 56.2 55.7 54.9 54.9 49.1 47 46.6 42.4 38.4 37.6 37.4 37.3 33.6 32.9 31.1 30.6 30.5 29.6 26.7 25.5 24.6
-1.6 -1.6 -1.6 -1.6 -1.6 -1.6 -1.6 -1.6 1.5 -1.6 -1.6 10.5 -1.6 -1.6 -1.6 -1.6 -1.6 -1.6 -1.6 -1.6 -1.6 -1.6 -1.6 -1.6 -1.6 -1.6 -1.6 -1.6 -1.6 -1.6 -1.6 -1.6 -1.6 -1.6 37.9 58.9 64.9 50 51.5 63.8 78.6 85.6 80.9 66.3 51 42.1 33.1 23.6 15.1 10.6 5.6 5 5.6 7 17.9 10.1 6.8 6.4 10.5 10.1 17.1 25.2 36.2 43.6 50.9 46.1 43.3 45.2 63.8 79.7 80.3 78.5 78.6 79.3 76.6 67 56.7 58.1 56.1 52.5 51 53.2 51.6 51.9 52.3 52.8 53.6 51.5 52.6 49.8 49.5 47.7 45.8 47 42.5 39.5 39.7 46.7 45.4 45.2 43.9 43.7 42.5 50.8 45 51 52.8 55.1 56 54.9 53.1 51.7 46.7 40.9 37.5 33.1 31.1 31.4 30.2 27.1 24.9 24.5 24 23.9 23.5 23.8 23.3 20.9 20.9 20.9 22.3 23.9 26.8 29.4 33.1 36.3 38.7 40.6 47.2 46.4 45.9 47.2 48.7 51.5 51.5 52.3 54.9 53.2 51.2 52.9 52.2 50.5 47.5 47.5 47.8 50.4 50.9 53 55.9 57.3 59.1 60.1 60.6 59.6 60.6 64.4 65.2 63.6 62.3 61.4 60.4 59.6 60 59.7 59.7 59.9 59.4 59.4 58.8 56.8 56.8 55.6 54.3 50.9 48.9 47.9 45.3 40.2 38.3 37 35.2 33.9 33.1 31.3 29.3 27.3 26 24.8 24.3 23.4
-1.6 0 -1.6 -1.6 -1.6 -1.6 -1.6 1.9 23.4 70.2 59.9 51.6 -1.6 -1.6 -1.6 -1.6 -1.6 -1.6 -1.6 -1.6 -1.6 -1.6 -1.6 -1.6 -1.6 -1.6 -1.6 -1.6 -1.6 -1.6 -1.6 -1.6 -1.6 2.9 38.9 61.3 67.8 48.6 50.4 57.5 72.3 73 74.1 61.1 54.2 43 35.4 29.8 18.4 16.3 11.7 14.9 19 14.9 23.4 20.5 15 11 8.7 9.9 15.2 27 32.4 44 53.5 51.1 48.5 50.5 82.5 94.7 106.1 110.2 105.5 94.7 83.4 76.1 66.9 64.5 66.5 60.9 60.8 51 51.8 52.9 54.4 58.1 56.2 52.6 51.4 47.8 46.2 45.2 44.7 45.7 43.2 40.3 40.1 44.5 45.3 45.5 44.2 47 42.7 46.5 45.9 48.8 54.9 56 56.8 56.9 55.3 52.4 47.4 42.7 39.3 34.6 34.2 33.7 31.8 29.2 27.2 24.9 24.2 24.7 23.9 25 28.9 20.9 20.9 20.9 22 23 25.4 29 33.8 38.1 39.3 40.7 42.2 44.6 46.3 47.5 48.6 53.1 55.1 54.2 56.3 54.7 52 54.4 53.5 50.3 47.5 50.1 50.3 52.1 52.1 53.1 55 57.9 58.7 59.7 61 59.6 62.5 64.8 65 64 62.8 62.2 61 60.7 60.3 60.8 60.2 60.5 60.3 60 59.2 58.6 57.7 57.1 54.5 52 49.7 48.3 46.2 43.3 39.5 37.7 35.8 34.8 32.7 32.1 29.3 26.9 25.6 24.5 23.5 22.9
-1.6 -1.6 -1.6 -1.6 -1.6 -1.6 -1.6 79.3 81.7 74.4 66.1 56.4 37.5 -1.6 -1.6 -1.6 -1.6 -1.6 -1.6 -1.6 -1.6 -1.3 -1.6 -1.6 -1.6 -1.6 -1.6 -1.6 -1.6 -1.6 -1.6 -1.6 -1.6 5 40.4 54.9 57.7 43.6 44.2 52.2 63.2 72.9 68.4 66.8 59.1 48.9 47.4 39.7 29.5 27.7 19 31.3 24 20.3 32.4 29.4 27.2 23.9 11 10.7 12.7 29.6 29.7 43.5 52.2 54.8 55.1 54 89.4 105 121.3 122 121.4 111.5 89.8 78.7 75.9 69.3 72.6 67.3 65.6 58.2 57.7 57.7 57.9 62.2 61.2 55 51.3 49.7 48.9 46.2 45.1 46.5 42.3 41.4 40.4 42.6 44.9 44.5 43.4 43.9 43.9 44.5 50.2 50.5 53.9 57 58 57.3 55.9 53.7 48 44.3 40.6 35.6 37.8 36.6 34.8 31.3 28.4 26.1 26.9 26.9 26.6 25.8 25.5 22.3 20.9 22 22.2 22.8 24.2 29.4 35.5 38.6 40.7 41.7 42.8 44.2 46.9 48.5 52.3 56.5 57.6 55.8 58.2 56.7 53.2 55 54.7 52 50.3 50.7 51.2 51.9 53.2 53.2 54.5 57.9 58.8 60 60.5 60.6 62.1 64 64.2 63.8 63.3 62.1 61.7 61.5 61.2 62.3 62.4 63.4 61.9 61.4 60.3 60.2 58.8 57.4 55.4 52.4 51 48.5 47.1 44.2 40.7 37.5 36.8 35.2 33.1 30.6 30.1 27.6 25.7 24.9 24.1 23.1
-1.6 -1.6 -1.6 -1.6 -1.6 -1.6 -1.6 46.8 80.1 77.4 65.9 60.6 47.9 -1.6 -1.6 -1.6 -1.6 -1.6 8.2 -1.6 -1.6 1.6 -1.6 -1.6 -1.6 -1.6 -1.6 -1.6 -1.6 -1.6 -1.6 -1.6 -1.6 14.2 37.1 37.7 38.7 39.7 40.9 52.3 60.8 70.9 70.6 70.7 65.4 52.1 55.3 41.2 37.4 32.6 24.1 42.4 36.4 23.6 34.9 39.2 39.1 32.6 16.6 13.5 13.8 27.3 28.3 40.9 55 56 57.7 55.7 91.2 106.8 128.5 127 128.4 118.6 94.4 85.8 81.5 72.8 77 71.6 69.1 68 60.1 58 59.3 62.7 59.9 54.2 52.6 51.8 48.6 46.7 45.9 46.7 43.2 40.4 40.3 40.3 42.7 43.2 41.7 42.3 45.3 45.9 47.7 51.8 54.1 56.6 59.2 58.3 56.8 55 50.2 46 42.4 38.1 40 38.5 36.8 33 27.1 28.6 31 31.7 32 30.7 26.4 22.4 20.9 22.7 22.6 22.7 23.7 30.3 36 39.8 42.5 45.3 44.4 45 47.9 50.6 56 59.1 56.8 56.3 58.8 58.9 54.4 56.6 56.3 52.9 50.9 51.9 51.2 49.9 53.2 52.9 54.2 57.4 58.1 59.8 60.1 61.7 61.1 62.1 62.6 61.5 62.7 62.2 62 62.1 62.4 62.5 64.1 65.8 63.5 61.5 61.3 60.6 59.7 58.5 56.5 53.2 51.6 49.8 48.1 45.7 42.2 39 37 35.2 33 31.7 30.6 28.3 26.2 25 24.3 24.7
61.1 44.8 5.6 40.7 4.5 2.8 4.8 72.4 81 81.5 68.8 53.4 35.8 18.7 -1.6 -1.6 -1.6 -1.6 -1.6 -1.6 -1.6 18 -1.6 -1.6 -1.6 -1.6 -1.6 -1.6 -1.6 -1.6 -1.6 -1.6 -1.6 2 30.5 36.3 35.7 39.1 42.6 57.5 63.2 66.1 71.6 77.1 74 57 52.3 47 36.5 31.7 29.3 39 39.1 31.4 50.2 50.5 40 44.9 30.6 17.3 20.3 21.1 26.1 34.3 53.1 55.4 58.5 58.1 92.2 107.4 124.8 127.5 127.6 117.9 104.4 93.9 90.1 76.7 79.2 81.2 76.8 75.6 70.2 63.6 63.8 61.8 62 54 53.5 51.8 50.7 50.5 48.9 49.2 44.6 41.2 40.2 39.2 39 39 39 43.4 43.3 44.6 47.3 50.8 54.4 56.3 58.3 57.6 56.5 55.5 51.1 46.7 44.1 41.7 41.6 40.5 37.9 34.2 28.9 31.2 32.9 34.2 36.9 34.4 30.6 27.9 24.1 26.8 23.5 23 25.1 30.4 35.6 39.4 43.9 49.2 46.2 46.1 47.2 50.9 57.6 58.9 57 57.1 57.2 58.9 56.3 56.7 56.9 54.2 52.8 52.8 51.3 49.2 51.7 51.3 52.4 54.9 57.7 58.1 59.1 60.1 60.1 60.6 60.7 60.6 61.9 62 62 61.9 62.4 63.2 65.6 66.5 64.4 63.1 61.7 61.1 59.9 58.5 56.7 54.3 52.5 51 49.3 47.1 43.8 40.1 38.2 35.8 33.3 32.6 32.1 29.4 27.2 25.6 25.6 24.1
56.6 50.8 46.7 51.7 51.6 32.2 58.7 71.2 73.7 72 69.7 66.8 51.8 -1.6 -1.6 -1.6 -1.6 -1.6 -1.6 10.8 1.5 30.6 20.4 -1.6 -1.6 -1.6 -1.6 -1.6 -1.6 -1.6 -1.6 -1.6 -1.6 2.2 29.5 35.2 39.6 45.2 55.7 59.9 68 68.4 72.8 73.2 66.6 54.4 51.3 45.2 44.4 34 32.9 41.2 49.8 44.8 58.9 58.7 57 44.1 30.7 23 29 26.2 23 31.9 44.4 52 58 59.8 92.4 105.8 117.8 121.9 125.2 115.6 110.1 98.6 91.8 83.9 80.5 80.9 77 74.5 71.8 66 61.6 60 58 55.7 56.2 56.5 54.4 48.2 47.7 45.6 42.9 41.6 40.3 39.3 39 39 39 41.4 43.1 44.4 47 48.9 52.5 55 56.6 57 56.1 54.6 51 47.5 44.1 42.7 43.2 41.7 38.7 35.8 31.5 32.7 35.7 36.7 38.5 39.5 36.3 32.3 26.3 26.3 24.6 24 27.2 33.6 37 41.2 45.6 47.3 46.9 47 47.4 50 56.2 57.3 57 58.1 57.2 59.1 57.5 57.2 56.7 54.6 53.5 53.6 54.5 49.2 50.3 49.2 49.2 53.4 56.2 57.6 58.8 59.6 59.2 59.3 58.4 59 60.3 61 61.4 62.6 62.7 63.9 66.4 67.2 65.8 63.4 62.2 61 60.3 59.1 57.3 55.1 53 51.4 50 47.8 45 42 39.3 37.5 35.4 35 34.4 31 28.3 26.9 26.1 24.5
53.6 48.2 48.6 53.6 54 54 59.7 75.4 70.4 64.6 60.3 58.4 49.4 -1.6 -1.6 -1.6 -1.6 -1.6 30.5 18.5 30.4 29.3 23 -1.6 -1.6 -1.6 -1.6 -1.6 -1.6 -1.6 -1.6 -1.6 0.5 1.7 31 43.8 48.4 48.9 56.4 63.1 71.1 70.7 68.1 61.6 56.6 54.6 57.2 57.4 51.3 46.6 44 56.3 59.5 49.6 69.1 68.9 73.1 60.5 42 32.3 39.5 34.3 24.2 30.6 37.5 44.9 55.5 60.1 90.1 101.9 112.8 116.4 117.1 114.9 117.5 106.9 96.9 88.9 89.6 84.8 89.9 82.4 83.8 78.9 66.6 62.2 60 56.9 58.2 56.8 55.8 49.5 47.3 44.2 43.5 42.1 41.3 40.4 40.4 39.2 43.1 44.3 44.6 45.6 47.2 48.9 51.1 54.6 56.1 56.5 55.9 54.2 51.2 47.3 44.5 44 45.3 43.6 39.3 37.2 31.7 35 36.7 38.1 41 42 38.8 34.7 29.3 26.8 24.9 25.9 30.1 36.8 40.4 42.8 46.5 47 47.7 47.9 47.9 49.2 54.2 56.8 56.8 56.4 57.5 59.3 57.8 57.9 57.8 58.9 55.3 54.4 55.8 49.2 49.2 49.2 49.2 53.4 55.2 56.6 57.4 58.2 59.3 58.2 56.3 55.6 57.7 58.7 61.6 62.1 62.8 64 66 67.9 66.6 64.3 62.4 60.8 59.4 59.4 57.4 55.2 53.4 51.4 50.4 48.4 46.1 42.9 40.7 39.4 37.4 36.3 37.4 32.9 28.7 27.4 27.1 25.2
55.5 50.8 50 55.2 56.5 56.8 60.5 71.1 67.9 62.7 58.3 54.5 44.5 3.8 -1.6 -1.6 -1.6 19.2 36.3 29.1 34.9 26.5 22.3 -1.6 -1.6 -1.6 -1.6 -1.6 -1.6 -1.6 -1.6 -1.6 1.4 5.3 30.7 46.2 50 47.6 55.9 63.2 73.7 73.9 68.3 62 58.6 65.4 70.4 72.5 66.8 56.1 45.5 51.7 62.6 61.5 72.7 75.1 73.6 78.4 58.5 45.2 49.8 46.1 32.2 27.3 34.5 42.8 52.2 60.9 86.4 97.2 106.2 120.5 128.6 126.1 123.4 125.4 112.6 99.7 94.4 98.4 100.1 92.1 91.1 87.3 73.5 67.5 65.4 58.6 57.5 54.5 50.1 48.4 46.5 49.9 47 43.7 42.2 41.2 41.6 41.7 46.9 46.1 47.3 46.4 47.3 48.8 51.2 53.9 55 55.3 55.3 53.6 51.4 47.4 44.5 46.1 47.4 44.8 40.5 38.1 32.4 36.1 38.3 39.5 42.3 42.7 39.6 36.2 32.4 31 29 27.8 30.4 37.7 41.4 45.7 48.2 47.5 49.1 48.3 49.4 49.6 51.4 54.7 57.2 56.7 59.1 59.6 58.1 57.7 58.3 61.9 55.9 54.8 53.9 49.2 49.2 49.2 49.2 51.7 54.4 55.9 57 58.8 57.4 58.1 55.6 55.6 55.6 55.6 60.7 62 63.2 64 65.8 66.6 65.6 64 62.7 61.4 61.2 59.9 57.3 56.2 52.9 52.5 50.5 48.6 46.9 44.1 42.4 43 39.9 39.5 40.8 35.1 30.2 28.5 26.5 24.4
55.4 50.2 50.5 53.4 54.3 55.7 60.3 63.9 63.4 63.1 59.3 55.8 44.6 33.3 -1.6 -1.6 -1.6 28.7 31.5 27.5 29.5 19.6 13.4 1.6 -1.6 -1.6 -1.6 -1.6 -1.6 -1.6 -0.2 1.3 1.8 4.3 24.9 43.8 46 46.9 58.7 59.6 75.1 84.7 84.4 81.4 76.4 71.9 75.7 69.1 64.9 57.3 50 58.2 68.3 63.9 74.9 84.3 91.8 93.8 81.4 58.6 58.1 55.6 36.8 32.4 33.4 40.1 47.9 60.7 80.1 98 108.1 122.2 129.1 126.3 126.7 128.6 120.8 105.8 100.3 110.6 112.2 100.9 99.1 92.5 78 73.1 65.6 60.5 57.5 53.5 50.1 48.9 48.6 56.2 48.7 46.1 44.3 42 42.2 44.1 49.2 50.8 47.7 47 47.6 48.9 50.1 53.1 54.7 55 54.8 53.1 50.5 46.6 44.9 48.1 48.2 44.2 41.3 39.1 33 36.3 38.9 40.7 42.5 42.9 39.9 37.1 34.5 34.8 37.8 28.7 31.9 36.1 40.3 45 47.9 48.6 50.9 50.2 49.5 51.6 52 53.4 57.3 57.3 60.9 59.6 58.8 59 58.9 60.2 57 55.1 54.4 52.8 49.2 49.2 50.2 53.5 55.1 55.5 57.1 57.9 57.5 55.6 55.6 55.6 55.6 55.6 57.5 61.7 62.7 63.3 65 65.1 64.8 63.2 62.3 61.4 60.8 59.4 58.4 55 54.3 52.4 51.4 49.5 47.4 45.6 44 45.3 41.5 41 40.7 36.6 32.2 29.8 27.2 26.9
52.5 48.1 47.6 48.4 50.6 53.6 58.8 61.5 66.6 65.3 63.8 64.6 69.2 55.4 22.5 1.6 1.6 28.2 24.6 22.1 19.8 22.3 20.7 15.7 20.1 14.6 1 -0.1 0.3 0.9 1.8 1.5 6.7 12.6 20.8 37.4 43.9 44.9 50 64.5 88 94.2 92.8 86 83.2 85.9 93.8 84 62.4 59.4 55.4 58.8 66.8 67.3 88.2 95.6 100.8 104.4 95.7 80.1 58.4 55.6 43 37.9 32.9 38.1 44.6 56.1 81.2 96.2 106.6 117.9 121.9 120 116 117.6 116 109.7 104.9 113.6 114.7 106.2 100.2 94.2 84.5 70.1 65.1 61.2 59 56.3 51.8 51 52.4 51.9 49.9 56.2 52.7 51.8 51.8 47.2 56.8 54.1 53.3 50.4 48.6 49 50.5 53.8 55.9 55.9 54.5 52.4 49.7 46.5 45.6 46.9 47.6 44.4 41.7 39.5 34.5 36.5 39.2 40.7 42.7 42.1 38.9 37.5 37.9 38 34.4 31.4 34.1 36.5 39.3 42.2 47.4 50 52.4 52.1 50.5 51.5 53 55.9 55.4 57.4 61 61.2 59.3 59.7 59.1 58.8 57.9 56.4 55.9 54.6 52.9 51.2 53.9 54.6 56.1 57.8 58.5 57.9 55.6 55.6 55.6 55.6 55.6 55.6 56.1 60 61.4 62.4 64.1 64.6 64.1 63.3 62.2 61.3 60.5 59.3 57.2 55.7 54.1 52.8 51.2 50 47.3 45.3 44.8 43.6 42.1 41.6 40.7 37.1 32.6 30.3 28.5 26.6
53 45.5 46.1 47 49.1 51.6 55.2 61.5 64.3 69.6 74.4 71.8 74.4 66.6 28.4 18.5 13.6 24.4 23.1 22.2 21.4 41.3 40.7 37.2 36.8 43.7 23.4 1.9 1.5 2.6 4.8 5.8 10.8 11.7 23.2 26.7 37 46.8 52.9 73 91.7 97.3 96.6 94.1 93.7 92.8 96.2 88.7 67 72 59.5 59.5 66.4 77.6 96.7 95.4 115.3 107.5 100.8 84.5 67.2 56.2 50 42.8 37.4 36.2 40 53 77 93.9 103.1 110.9 121.3 117.8 115.5 123.5 123.4 113.1 107.9 115.2 112.3 101.1 91.8 86.7 76.8 71.8 69 62.5 62 62.1 57 55.8 62 68.3 67 67.2 67 64.4 65.4 55.5 59.6 57.5 53.8 51.3 53 53.4 55.7 56.6 57.5 56.8 54.7 51.6 49.1 47 46.1 46.8 46.8 44 41.9 39.8 36.7 34.5 39 40.7 42.7 41.5 39.4 39.4 40 38.1 35.8 34 36.7 37.3 39.3 41.2 47.5 50 51.1 51 51.7 53.6 55.6 59 56.1 58.8 61.9 62.4 60.8 60.3 60 59.1 59.8 59.2 57.9 57.2 58.4 57.1 58.6 57.6 58 60.5 60.8 59.7 58.6 55.6 55.6 55.6 55.6 55.6 57 59.7 60.7 61.8 63.2 63 63.8 63 62 61 59.8 58.9 56.3 56 54.9 53.5 51.5 50.9 48.4 47 45.2 44.4 43.9 42.7 41.5 38 35 31 29.6 27.9
47.1 43.4 44.3 47.6 49.2 52.1 54.1 59.7 67.4 73.3 81.1 83 75.6 68.1 34.1 23.7 18.2 22.3 22.3 22 22.7 36.7 40.9 47.9 56.4 57.6 32.8 5.8 6.6 11 11.9 11.6 8.5 12.4 17.7 26.5 31 37.7 55.9 72.8 87.4 100.1 105.9 103.7 94.6 89.9 92.7 83.3 72.6 72.6 63.6 60.8 67.8 85.4 103.9 102.3 106.2 108.9 99.4 93.8 77.6 59.6 56.4 45.2 40.2 38.5 39.5 46.6 61.7 87.7 99.5 112.4 116 115.5 125.5 124.8 124.9 122.1 109.8 112 109.6 96.8 90.8 86.5 78.8 73.8 73.2 64.6 65 66.3 66.4 68.8 73.6 73.4 75.4 78.7 73.5 72.2 65.9 61 60.6 58.1 56.6 55.7 62.9 60.4 60.2 60 60.2 58.7 55.1 52.2 48.8 47.1 47.3 47 46.8 44.3 41.9 39.5 37.2 35 38.8 41.3 43.2 41 40.7 39.9 39.8 37.5 35.7 35.7 37.6 40.8 40.5 41.8 46.7 49.1 49.7 52.2 54.9 57.6 60 59.5 57.2 60.1 63.4 63.2 62.4 61.6 61.5 61.5 64.8 65.1 61.6 63.9 65.2 61.2 61.3 60.8 60.9 62.2 62.6 60.8 60 60 55.6 56.6 58.3 55.6 58.8 59.3 60.4 61.5 62.8 63.6 63.6 62.9 62.4 60.6 60 58.8 57.2 56.5 55 53.8 52.2 51.2 49.5 48.3 47 45.6 44.6 43 41.1 39.1 35.6 32.7 31.1 29.1
39.8 41.8 46.6 51.5 53.9 54.1 57 59.9 66.8 79.2 80 80.3 73.9 64.2 38.6 32.8 23.1 22.1 22.7 22.5 25.4 31.5 43.3 60.6 73.5 60.4 41.9 24.2 19.8 24.8 25 19.2 6.5 10.8 16 23.3 29 37.2 43.5 68 80.5 94.8 102.5 104.9 99.8 85.5 84.2 77.6 75.1 74.8 68.5 62.6 69.8 89.5 106.2 106.8 102.5 102.4 100.6 93.7 86.7 64.6 60.2 52.4 42.2 40.1 38.9 42.8 53.8 72.6 97.3 108.7 114.4 115.8 119.2 124 126.2 120.1 109.6 112.9 102.9 98 90.9 88.2 77.7 73 71.8 66.5 67.6 71.6 77.4 73.7 82.4 87.8 94.5 95.6 84.5 84 75.9 67.4 63.9 63.3 64.3 61.7 65.5 61 62.2 63.4 62.4 60.1 55.9 52.8 48.2 47.6 48.4 47.3 46.4 45.2 43 39.9 38.4 35.9 38.1 40.4 42.9 41.1 40.9 40.4 39.8 38.9 37.3 38.4 41.3 44.3 43.4 43.9 45.8 47.2 49.1 53.5 57.1 58.8 60.7 61.1 58.6 60.1 63.7 65 64.5 64.6 64 63.3 67.1 67.7 65.3 65.1 67.6 63.6 63.2 62.6 60.9 61.9 63.1 62 62.4 61.4 59.8 59.9 58.9 55.6 55.6 57.8 60.5 61.4 62.2 64.2 64.3 63.7 62.9 60.7 60.1 58.4 56.6 56.1 55.6 54.3 52.8 52.1 50.5 49.3 48.7 47.1 44.7 43.9 41.9 39.4 37.7 34.7 32.9 30.5
42.2 41.5 45.1 50.2 53.1 55.4 56.9 60.8 65.7 72.8 76.9 82.8 85.3 66.5 43.4 46 28.5 24.9 23.6 23.7 30.4 31.1 51.9 66.8 87.8 65.8 48.6 40.8 46 47.4 42.8 31.7 23.5 12.3 15.8 24.6 28.5 35.1 41.2 59 80 90.8 98.2 97.9 95.3 87.4 79 75.9 75.6 74.3 70.3 63.4 70.9 75.5 97.4 99.2 98.8 99.2 101.5 93.5 85.3 72.7 61.8 58.1 50 45.8 41.3 42.3 46.9 62.2 85.6 104.1 108.5 115.1 118.1 121.7 118 112.8 109.6 112.4 108.8 102.1 92.3 88.2 82 80.2 74.5 71.5 71.2 87.3 91.2 90.8 101.8 103.7 122 116.6 99.4 97.2 91.9 78.1 71.2 70 70.1 69.3 71.9 64.2 66.3 66.1 64.5 61.9 57.2 52.7 49.6 48.9 49.2 48.1 47.1 46.7 44.2 41.2 38.3 35.5 37.7 40.2 42.5 41.6 40.9 40.4 40.3 40.5 40.9 42.4 47.8 50 49.8 49.8 47.9 48 49.7 54.7 57.4 59.6 63.8 64.5 60.7 62 65 66.5 67.8 66.1 65.9 66.2 67.6 71.7 72.2 66 66.5 65.4 64.1 65.4 61.9 61.8 62.2 62.2 63.2 64 61.7 61.1 60.2 57.3 55.6 57.1 60.4 61.6 63 64.3 65.7 64.5 64.3 62.1 61.2 58.5 57.6 56.5 55.6 55.2 54.3 53.5 52.7 51 49.9 48.3 46.3 45 42.9 40.4 37.8 35.1 33 31.5
44.4 40.5 40.9 48.5 52.5 55.2 57 62.1 66.1 71.9 73.6 81.9 85.1 59.1 47.7 46.5 37.7 25.9 24.4 24.8 28.6 33.9 52 63.6 89.6 85.5 70.2 68.3 59 53.6 53.9 38.7 30 18.5 22.5 24.6 28 34 40.3 50.6 76.3 86 98.6 97.9 91.5 83.6 77.8 75.8 74.7 74.3 72.5 64.9 67.6 73.8 94 99.2 101.9 99.7 102.1 95.5 87.9 76 65.9 61.4 56.9 55.7 47.1 47.1 45 56.2 70.3 94.7 107.7 116.4 120.6 117.8 119.8 111 110.7 116.2 108.8 98.2 93 92.3 95.7 87.1 90.5 89.3 81.3 100.7 107.8 114.3 119.2 131.4 138.7 138.7 119.6 120.8 112.5 90.4 75.9 76.7 74.9 74.5 72.9 68.5 69.1 68.6 65.5 62.2 57.4 52.5 50.2 51.1 49.8 48.5 48.2 48 45.3 43.2 40.1 36.5 38.9 40.1 43.3 42.9 41.9 41.6 42 42.1 43.3 43.6 53.2 54.2 55.6 54.3 50.3 51 52.4 56.3 58.6 62 65.5 66 61.5 63.3 68.4 69.7 72 68.7 67.2 71.1 68.7 73.6 73.5 67.3 64.8 65.1 63.1 62.5 61.8 61.5 61.8 62.3 62.7 63 63.1 62.9 62.1 60.9 58.8 59.1 61 62.5 63.4 65.9 66.9 66.9 65.7 64.6 61.8 59.7 58.2 57.9 57.1 57 57.5 56.5 55.2 53.1 51.8 49.9 47.6 45.9 44.2 42 38 35.4 33 31.8
38.2 39.3 40 45 48.6 52.9 55.7 60.9 64.7 69.2 71.7 73.5 70 58.1 49.3 44 37.1 29.1 25.3 25.6 31.2 36.3 40.4 56.6 80.3 85.9 78.3 74.3 65.2 55.7 57.6 55.8 39 23.5 27.7 24.8 27.7 32.5 39.1 50.5 79.2 85 92.6 93.4 91.4 85.7 77.5 79.9 74.7 73.6 68.9 66.3 67.7 73.2 91.6 97 98.7 95 96.6 94.2 87 73.1 65.9 63.3 61 62.9 56 59 51.2 51.4 64 81.8 102.8 113.4 116.9 115.2 114.4 112.3 112.1 114.3 112.3 105.9 106 100.2 102.9 96.8 101.4 102.8 90.8 106.3 113.1 116.4 128.5 143 148.7 146.9 128.5 122.5 117 94.4 82.7 77.1 76.8 75.9 75.7 73.9 71 69.6 66.8 63.2 57.1 53.3 51.1 52.7 50.8 50.4 49.9 50 47.9 45.1 42.1 38.3 38.9 40.1 44 44.2 44.2 42.7 42.7 42.3 43 44 48.3 51.3 52.1 53.6 51.8 52.9 54.1 56.4 60.4 61.9 64.1 63.5 61.8 63.7 68.9 71.1 71.3 70.9 69.2 70.2 69.4 71.4 72.6 72 64.1 63.3 62.1 61.8 61.4 61 62 61.4 62.2 64 64.9 64.1 63.8 64.2 61.1 60.2 61.8 62.8 65 66.9 67.6 67.2 66.3 64.7 63.9 62.2 60.5 59.8 59.5 59.7 59.3 59.4 58.2 56.7 54 52.7 50 47.7 45.6 42.9 39.4 36.6 33.9 32.2
38.1 39.1 39.6 45 47.2 51.9 54.3 57.7 63.2 68 70.6 70 64 57.6 54.6 64.1 54.6 46 25.9 26.6 35.5 37.6 40.4 47.1 63.4 79.4 94.3 84.4 70.7 59.5 60.2 61.9 55.6 29.9 30.2 26.3 27.6 31.9 38.1 47.7 71.7 81.5 86.6 95.5 95 90.6 80.6 80.7 77.9 76.4 71.9 66.9 67.1 72 90.2 93 92.9 91.7 96.7 93.1 94.5 77 66.2 62.9 64.1 64.1 63.1 59.5 59 50.4 60.2 74.2 91.4 106 115.2 118.5 114.5 113.3 112.6 114 115.3 117.4 108.6 106 108.6 104.3 105.9 107.6 97.3 107 117.4 120.6 132.2 148.2 151.9 145.5 128.1 116 108.3 95.3 85.9 78.7 75.7 76.2 75.9 75.4 72.8 70.8 67.9 63 56.9 54.7 51.7 53.6 52.5 51.5 51.6 52.3 49.9 46.4 43.5 39.7 39.4 40.5 46 45.7 49.4 45.4 44 43.9 42.6 43.2 44.5 46 47.6 49.6 49.8 49.7 51.7 53.4 57.3 57.7 61 61.4 61.7 64 67.1 70.8 73.2 73.5 71.2 70.4 70.2 70.5 71.3 67.9 64.5 62.5 61.8 61.3 60.9 60.5 60.4 60.6 61 65 66.3 64.3 67 67.3 62.9 61.1 61.6 63.1 66.4 67.5 68.3 68.6 68.1 67 66.4 65.1 62.8 61.8 61.2 61.1 62.5 62.7 61.5 59.2 56.6 53.9 51.7 49 46.4 44 40.9 37.6 34.7 32.4
37.6 37.1 39.3 41.8 45.1 49.4 51.8 55.2 59.6 64.6 69.6 70.7 67.9 59.4 71.9 79.5 61.9 51 31.8 27.4 40 40.1 42.1 46.8 59.8 87.5 94.8 87.6 77 61.5 67.6 71.9 67 39.8 32.8 27.6 28.8 32.4 37.9 45.7 68.2 77.8 82 87.9 87.3 87.4 84.4 93.5 94.8 92.2 78 68.1 67.7 72.4 98.4 94.9 98.2 91.7 91.7 91.7 91.1 78.5 65 63.1 60.6 61 65 61.7 61.9 54.4 57.7 70.3 85.6 99.5 114 114.1 114 113.2 113.6 113.2 119 118.4 114.5 111.2 110.8 109.5 112.9 115.9 107.1 108 120.8 125.3 137.6 153.2 159.5 148.9 127.3 117.2 105.1 97.9 85.8 81 75.9 78.3 74.5 76.2 72.8 71.2 67.1 62.9 57.4 54.6 53.3 54.2 53.5 53.2 52.3 54.6 52 48.7 44.3 41.2 40.6 41.6 45.6 47.5 53.5 49.9 46.6 45.8 45.1 43.9 44.4 44.9 46 46.6 47.2 47.6 48.6 49.4 51.7 54.8 59.3 61.1 62.2 65 67.6 71.3 73.6 74 71.8 72.5 70.4 70.6 69.1 66 64.5 62.1 61.1 60.4 60.1 60.1 60.2 60.4 60.3 61.2 62.5 63.3 64.7 69.5 63.9 61.1 61.4 62.6 66.2 67.8 69.9 69.4 69.1 68.2 69.5 66.7 66.3 64.6 63.9 63.6 64.2 65 64.4 62.2 58.8 56.2 53.5 50.2 47.7 44.9 42 38.8 35.1 32.8
32 34.4 39.5 41.6 43.2 45.8 49 53.1 57.1 61.3 67.4 68.1 65.8 61 71.2 76.5 70.6 61.4 43.9 28.2 55.1 43.6 44.1 47.9 57.3 74.4 88.9 83.9 79.9 64.2 76.8 77.2 71.3 57.1 36.9 29.4 29.3 32.6 38 44 58.4 76.8 82.8 85.4 85.6 86.7 92.6 103.9 106.2 102.8 95.9 74.6 69.8 72.9 96.5 94.9 97.8 96.4 91.7 103 92.7 83.2 64.9 60.6 60.6 60.6 68 63.4 60.8 57.5 60.6 64 79.4 94.1 107.4 112.6 112.9 113 112.4 113.1 114.5 115.8 116.8 115.8 114 114 117.4 120.1 112.2 111.9 122.1 124.9 134.5 149.2 153.8 147.9 130 116.6 103.3 91.6 85.1 80 77.7 72.4 71.2 70.9 71.7 70.2 66 61.6 56.7 55.5 53.5 54 54.2 54.2 54 53.9 52.9 49.7 45.2 41.5 40.8 41.9 45.1 48.8 52.4 51.1 47.7 44.8 44.8 43.2 44.4 44.9 46.3 47.7 47.2 47.5 48.7 49.3 50.3 52.4 58.4 60.8 61.7 65.7 69.8 71.9 73.3 72.7 73.2 71.4 70.4 69.6 66.9 64.2 62.5 61.3 60.3 60.4 60.1 59.7 59.8 59.4 59.5 59.4 60.7 61.6 64 66.9 66.6 60.7 60.9 62.1 65.8 67.3 69.6 69.7 68.9 69 71.1 68.8 68.5 66.9 65.1 65.3 65.3 66.1 67.5 64.1 60.5 58.2 54.8 51.2 48.9 45.8 42.2 39.2 36.5 34.1
29.4 35.4 40.6 43.4 43.4 45.1 47.4 52.2 55.9 58.8 64.2 66.5 65.1 61.9 73.8 74.3 76.4 64.8 60.3 32.2 47.8 58.7 47.1 48.4 59.1 65.8 82.4 87.6 77.3 69 81 81.4 75.7 57.8 39.4 32.6 29.3 31.9 37.4 43.1 54.5 77.3 79.4 82.8 91.1 101.1 109.5 113 117.6 112.1 106.5 86.2 73.6 75.8 85.9 91.4 94.4 97.3 95 110.3 106.2 82.6 68.3 60.6 60.6 64.1 68 68.5 67 62 62.4 66.9 75.4 85.3 96.5 106 112.1 112.5 112.1 112.2 115.7 116.3 116.1 115.7 117.4 115.3 117.4 119.6 116.7 115.1 117.1 127.4 130 139.4 141.8 137.2 123.7 113.5 107.8 90.2 84.5 76.4 71.5 67.9 66.1 67.6 68.7 68.5 64.7 61.1 58 56.7 54.6 55.3 55.6 56.3 54.3 53.6 52.6 49.9 45.9 42.1 41.2 42.7 44.6 48.1 50.9 52.1 47.3 45.6 45.1 44.6 44.2 45 46.2 46.1 46 46.5 48.1 49.4 50.6 56.1 58.4 60.9 62.1 65.7 67.9 70.6 72.5 72.8 72.5 71.7 71 68.1 65.9 63.5 62 61 60.4 60.1 60.1 59.6 59.2 58.9 58.2 58.7 58.5 59.8 63 68.7 67.3 59.9 60.3 62.7 63.3 66.4 67.9 69.6 69.1 68.4 69.3 70 69 68.5 68 66.2 66.1 65.7 66.6 65.3 62.8 60.2 56.2 52.2 49.4 45.7 41.9 39.4 36.7 34.9
33.8 35.5 38.8 44.9 45 45 47.1 51.3 53.7 56.2 60.4 65.2 67.8 60.7 63.7 67.8 74 65.2 62.4 36 41.8 61.5 49.1 50.3 63.6 67.6 82.7 83.8 80 73.8 78.5 83.1 80.9 65.2 43 35.9 30.1 30.3 35.9 41.5 52.4 70 90.5 94.2 96.1 103.3 110.7 120.1 125.1 120.6 112.9 96.6 79.9 80.7 91.6 91.6 92.6 93.6 98.2 107.1 109.9 84.7 76.9 65.9 67.9 73.4 72 76.8 74.5 67 64.2 66.7 72.9 80.8 88.3 103.1 108.4 110.8 109.8 111.3 116.1 114 117.8 115.9 116.2 116.3 115.9 117.1 118.1 122.8 122.5 128.9 128.9 128.5 126.5 118.9 115.1 106.5 102 86.3 78.4 73.2 69 64.8 64 64.3 66.7 66.6 63.8 60 57.4 56 57.8 58.2 59.3 59.6 54.8 54.2 53.4 50.2 45.3 42.6 40.5 42.6 44.3 45.9 48.1 48.3 46.2 46 45.7 45.7 46.8 48 48.3 49.2 50.4 51.8 49.9 50.2 54 58.8 60.8 64.7 63.7 65.6 66.7 69.4 73.2 72.7 72.2 71 68.3 67.9 64.2 62.5 60.8 61.4 60.7 60.2 59.4 59.5 58.8 58.8 58.5 58.1 57.7 57.9 59.6 63.9 66.6 59.6 58.6 61.9 61.5 63.5 66.2 68.3 67.4 67.5 66.7 67.8 68.6 68.3 68.7 66.5 65.8 65.4 65.8 65.1 62.7 60.4 56.7 53.2 49.6 45.5 41.9 39.6 37.8 35.4
36.3 36.5 38.2 45.9 47.3 46.9 47 48.6 50.7 52.5 58.3 63.3 68.7 59.8 59.4 65.7 72.7 61 57.2 41.8 41.9 61.4 51.1 51.7 57 68.1 69.2 81.7 83.6 74.3 73.5 86.2 83.5 73.6 47.8 40.3 33.6 30.6 34.7 41.3 50.6 76.6 91.4 102.5 102.1 103.8 112.1 122.3 127.1 124.3 119.9 105.7 85.5 85.9 92.1 94.3 94.8 96.5 96.5 103.1 107.2 86.4 81.6 71.8 76.1 81.2 80.5 70.5 69.4 66.8 65.4 66.2 71 79.1 85 97.1 102.5 107.4 108.9 108.3 111.1 112 116 115.7 116.8 115.8 116.9 120.1 119.1 123.4 118.8 119.4 121.1 119.3 117.8 114.6 108.5 104.4 97.1 89.6 80.1 74.1 70.1 64 62.5 63.2 68.2 67.5 63.9 59 57.8 59 62 61.2 62.5 61.1 57.1 56 53.8 50.5 45.2 42.3 43 43.5 43.5 45.9 47.4 47.1 46.6 47.4 48.7 51.2 53.6 53.1 51.9 54.6 55.3 56.3 54.4 51.7 57.5 59.5 61.2 65.4 66.8 65.6 67.4 69.5 75 73.5 72.6 72.5 69.2 65.5 63.1 62.2 61.5 61.3 60.8 60.4 60.2 59.8 59.1 58.9 58.5 57.8 58 58 57.6 62.1 60 57.9 57.5 58.3 58.4 59.1 63.1 65.1 65.2 65.7 64.1 66.4 66.6 67.7 69.1 65.9 64.7 64.9 64.9 64.1 62.2 59.7 56.8 53.3 49.3 45.6 42.3 40.5 37.6 35.9
37.9 38 39.9 49.4 49.5 49.1 49.4 50.3 49.9 50.6 55.9 60.8 63.8 56.8 54.4 59 62.6 60.8 55.9 45.6 41.8 47.7 52.3 51.3 56.5 62.9 66 70.9 79.3 74.6 75.3 88.4 88.6 72.2 52.2 44.7 37 31.8 34.1 40.6 48.6 73.1 88.7 103.2 106.1 105.2 112 119.1 122.9 123.2 116.9 106 91.2 89.3 91.7 95.7 96.1 97.8 96.9 97.6 100.1 90.5 81.8 75.8 78.1 81.5 80.8 70.5 67.3 66.9 65.5 66.4 69.6 76.5 83 96.3 101.2 107.4 107.9 106.7 106.8 109.1 111 112.3 115.3 115.6 115.3 119.5 119.5 120.4 116 115.1 115.4 115 114 110 106.4 103.1 93.8 89.9 77.4 73.3 69.9 65.5 61.5 61.8 63.8 63.9 60.8 58.7 58.9 63.2 64.8 63.6 63.5 62.4 58.7 56.9 55.2 51.2 45.9 43.4 45 44.3 45.1 45.9 46.6 47.4 48.4 50.2 52.4 55.4 61.2 62.3 59.2 60.3 60.9 61.5 60.9 55 62.1 61.2 61.4 62.7 64.8 65.1 66.9 68.7 72.7 73.6 72.4 71.8 69 64.4 63.8 63.4 62.5 61.7 60.6 60.3 59.9 59.4 59.1 58.6 58.4 58.2 58 57.9 57.6 57.3 56.9 57.1 57.8 57.2 55.8 56.9 59.2 61.3 61.8 61.5 59.8 59.4 61.1 63.8 62.9 62 63 62.8 62.8 62 60.9 58.2 56 52.5 49.6 45.1 42.4 40.5 38.3 36.7
39.1 39.3 42.3 47.5 50.8 51.6 53.6 49.8 49.5 50.8 55.6 57 57.9 54.4 54.4 54.8 59.1 60.6 59.1 48.7 41.9 44.2 48.8 49.4 54.3 63.1 62.7 66.9 76 74.1 73.7 83.9 84.1 70.7 55.8 47.6 39.4 33.5 34 40.4 48 63.8 90.3 102.2 106.8 106.6 108.9 110.8 112.2 112.4 113 107.4 94.6 92.3 93.2 96.9 97 96.8 97.6 100.4 101.4 98.9 83.5 79.8 82 75.9 71.2 67 66.5 66.1 66.6 67.4 69.4 74.2 81.8 90.1 97.6 102.6 105.8 105.2 105 105.6 108.4 110.1 112.6 113.6 113.5 114.4 117.4 114.9 115.5 111.7 115.1 110.1 107.6 108.7 100.3 95.4 87.7 83.6 78.2 75.1 71 67.2 60.9 60.5 60.5 60.1 59.4 59.6 62.5 66.5 67.3 65.6 64.9 63.5 61.2 58.3 56.2 52.8 47 43.6 45.8 45.9 46.7 47.8 48.3 50.5 50.2 53.3 56.7 61.6 64.8 66.7 65.4 65.1 66.5 65.5 65 60.6 66.1 63.5 62 63 63.6 64.8 65.8 68.5 71.3 72.4 72.4 70.1 67.6 65.5 62.9 64.4 66.3 67.4 64.9 60.4 60.1 60.9 60.8 60 59 58.9 58.5 58.2 58.4 60.9 64 63.6 63.2 61.6 58.1 56.7 56.5 58.1 59.5 58.5 57.6 56.4 55.7 56.7 57 57.7 57.9 59.1 60 59.5 58.7 56.2 53.3 51.8 49 43.9 42 41.7 40 37.6
40.4 41.4 45.3 49.7 51.9 53.4 57.3 54.8 51.3 51.4 55 54.4 54.4 54.4 54.4 54.4 59.1 60.6 60.4 50.3 43.5 43.4 45.3 49.1 54 61 60.2 65.4 66.3 71.6 78.6 83.9 87.9 82 71.7 50.8 41.4 37.2 34.1 38.6 48.5 61.5 80.8 96.2 101.1 105.6 107.8 109.3 109.5 109.3 108.5 101.7 95.6 94.3 93.9 95.4 98.3 96.6 95.1 93.7 93.9 96.4 87.3 77.8 72.4 70.4 68.3 67 67.5 68.3 68.9 70.8 70.5 72.5 79 88.8 99.4 103.2 105.4 105.7 104.2 104 107.1 109.9 114.7 111.8 111 110.3 110.9 112.8 110.2 107.6 105.8 105.5 104.1 105.8 95.2 89.8 85.6 81.1 78.6 72.9 66.2 62.2 61.2 60.4 60.6 59.6 59.9 62.1 65.8 68.9 68.3 67.6 67.2 65.9 61.9 59.5 57.3 54.5 48.8 46 48 48.7 49.7 49.5 49.1 50.5 51.5 52.9 57.8 63 65.2 66.9 68.4 68.4 69.7 68.4 66.8 64.4 68.3 66.5 62.6 63.1 63.6 65.1 65.4 68.9 72 71.3 70.9 69.3 68.8 66.1 65 66.3 71.6 73.1 71.2 63.4 65 67.7 66.3 62.5 61.8 60 59.1 58.6 60.8 65 71.8 71.1 70.4 67.1 62.2 57.3 56.6 56.1 56.5 55.4 54.3 54.7 53.5 52.2 52.2 51.1 53.5 54.5 55.7 55.8 55.4 53.1 51.4 49.2 46.6 43.1 41.2 41.1 41 39.9
42.4 45 48.9 53.1 53.3 54.7 60.8 57.9 52.2 54.1 55 56.5 54.7 54.4 54.4 54.4 59.6 60.1 59.6 51.4 45.3 46.7 50.9 57.8 55.3 56.8 58 61.4 65.4 66.5 72.2 81.3 87.9 80.5 68 52.5 43.1 41.2 35.6 37.7 47.2 58.8 71.9 88.2 101.2 105.8 107.8 109.5 110.2 106.1 104.2 101.6 96.5 95.2 94.7 94.9 94.9 95.7 92.6 85.7 81.7 81.4 78.3 75.9 70.2 68.1 67.5 75.4 77.5 75.9 75.4 75.7 74.3 72 77.6 86.3 101.7 105.1 107.3 106 103.8 103.6 107 109.7 116.3 110.7 109.3 108.7 107.9 112.1 109.2 105.5 101 99.7 96.1 94.2 92.7 87.9 84.6 72.9 68.9 65.8 64.8 66.9 64.5 61.8 60.7 61 62.4 64.2 68 70.7 70.1 69.3 68.2 65.9 63.7 60.7 59.1 56.7 50.1 49.6 51.5 52.9 53.8 52.4 51.5 51.3 52.8 53.7 57.9 64.3 69 68.7 70.1 70.5 71.5 70.8 68.7 66.9 70.9 71.6 64.3 63.1 64.6 65.9 66.8 68.4 70.7 71 71.6 70.7 69.3 66.9 65.8 67.6 73.6 75.8 73.9 68 66.6 71.8 73.2 70 68.5 69 66.5 63.7 66.8 69.1 74.3 74.9 73.2 71.4 62.9 57.6 56.7 56.1 55.4 57 56.1 56.3 55.3 54.5 54.3 50.9 48.7 50.9 51.3 51.3 51 50.5 49.6 46.6 42.8 40.4 41.1 41.4 42.5 42.1
46.5 49.3 52.3 53.7 54.4 55.7 58.5 60.2 53.2 53.9 54.7 58.1 59.3 54.4 59.9 54.4 61.1 63.2 58.2 54.7 47.2 49.9 56.6 64.2 60.8 56.6 54.8 58.9 68.5 63.7 67.3 79.6 84.7 79.8 66.8 52.3 44.5 46.3 38.3 38.7 44.1 56.4 73.2 87.6 95.3 107.5 111 111.3 111.4 108.4 104.8 101.4 96.1 94.3 93.9 94.2 97 95.8 94.3 85.7 80.1 76.4 74.4 75.1 68.9 68.7 70.7 84.4 87.1 83 80.6 79.1 80.6 72.1 76.9 88.6 100.7 105.7 108.6 107.1 102.9 100.9 101.8 111.1 113 105.4 106.1 106.3 104.6 101.4 100.7 98.7 96.1 94.8 94.2 93.6 87.4 77.7 73.6 69.9 71.9 70.3 68.8 68.1 66.7 64.1 60.8 61.7 65.1 66.9 70.7 72.1 72.3 71.3 70 68.5 64.7 62.6 60.3 57.6 50.6 52 54.9 57.7 58.1 56.4 56.9 55.7 54.9 54.2 54.9 59.1 65.7 66 65.9 66.7 69.7 69.6 70.7 69.9 73.4 73.1 68.7 64.4 67.3 70.9 69.4 69.3 69.8 71.1 71.8 73.2 71.5 71.5 67.4 68 77.8 79.8 78.6 74 69.5 75.1 74.6 76.2 80.1 80.3 76.4 71.4 71.2 71.6 76.2 75.5 72.4 68.5 65 57.5 56.8 55.8 56.3 56.8 57.1 56.1 56.2 55.6 53.9 52.9 52.3 47.6 50.8 49.2 48.4 47.6 44.8 43.3 40.9 39.7 39.9 39.7 41.6 45
48.3 53.2 56.1 55.4 55.2 55.2 56.6 57.4 54.2 53.8 53.5 61.4 61.2 59.1 59.8 60 61.5 62.9 60.1 53.6 49.3 51.5 64.6 63.5 60.7 61.5 54.2 56.3 68.5 62.4 63.7 74.2 80.1 77.9 62.2 51.7 45.3 42.9 40.5 40.7 41.6 54.2 74.2 80.4 100.6 107.3 110 114.8 112.1 109.2 103.6 101.5 95.7 92.8 92.1 93.2 95.1 95.5 94.2 87.6 84.6 78.7 72 69.8 73.5 75.1 85.7 91.7 94.6 88.6 85.4 81.7 81.8 72.7 76.5 90 98 105.6 108.6 108.7 101.9 99.6 100.1 101.3 103.1 98.9 100.7 97.7 100.2 100.6 102.1 98 96.8 93.5 92.3 90.7 84.8 81.1 80.3 79.6 83.6 74.5 67.5 69.6 65 64.4 61.7 66.2 68.5 69.9 72.9 73.5 72.6 72.6 70.7 68.9 66.5 62.9 61.7 59.2 50.2 55.2 58.8 63.1 63.2 61.5 60.6 60.3 63.2 58.3 56.3 57.3 60.7 61.9 63.8 65.8 67.9 69.2 73.4 71.9 74.2 75.3 74.4 67.7 67.7 72.9 70.8 69.4 70.2 74.7 77.9 79.5 74.4 72.8 67 70.7 77.6 81.7 79.7 76.8 71.6 74.7 77.6 88.4 89.3 90.1 86.6 80.4 73.1 71.9 72.8 72.3 69.8 68.2 62.2 57.6 57.3 57 56.9 57.2 58.1 58.5 56.1 55.1 54.4 56.7 55.6 53.4 47.7 46.1 45.1 44.1 42.9 40.5 39.6 39.3 38.3 38.5 38.1 39.1
50.1 54.3 57.7 55.6 55.2 55.4 56.2 56.1 54.6 54.1 53.7 59.1 62.4 60 61.3 59.3 58.5 61.5 58.7 52.6 50.1 53.1 71.5 74.3 68.7 59.9 54.2 54.2 59.1 60 59.6 62.3 68 70.1 63.5 54.4 47.2 48.3 49.3 47.2 44.4 52.5 70.8 78.5 100.7 111.5 110.8 113.6 107.9 105.7 102.5 99.6 95.7 90 89.3 91.8 94.6 95.1 93.7 84.8 80.5 75.2 70.7 70.1 77.7 80.2 87.1 94.4 92.3 88.1 83.8 79.4 77 75.8 78.4 87.1 95.7 103.6 109.5 107.2 99.6 97.4 98.1 98.7 98.1 97 95.9 95.4 102.5 102.7 100.3 96.6 92.7 90.1 87.5 88.4 92.1 90.4 88.2 85.8 87.4 77.7 67.3 65.6 64.1 62.4 62.7 65.3 69.3 72.5 74.3 75.7 74.2 72.4 71.4 69.2 66.3 63.9 62.8 59.3 51.9 57.8 64 70.8 69.3 66.9 66.4 64.1 63.4 62.6 61.7 58.7 59.9 60.2 63.8 66.1 67.4 68.5 73 73 75.5 79.8 77.8 69 70.7 70.9 69.9 69.8 74.4 79.5 80.7 83.4 80.2 73.7 69.4 71.2 79.3 80 78.8 78.9 74.1 77 80 92.8 97 101.5 97.4 91.1 81.5 71.6 70.8 71.5 68.8 61.2 58.7 58.8 63.7 60.4 58.7 58.9 59.8 58.8 58.5 58.5 60.8 62.8 61.1 59.1 52.4 47.6 43.6 43.4 42.4 44.4 42.1 39.5 38.4 38.2 36.2 33.7
51.1 53.4 58.9 54.6 54.4 55 56.2 56 55 55.3 55 58.1 64.3 60.6 60.4 60 58.8 59 58.7 52.7 51.7 52.7 72.2 76 77.1 64.3 54.2 54.2 56.5 57.8 57.6 59.7 63.3 65.4 63.3 62 53.6 54.4 55.4 51.5 48.8 52.2 63.9 77.1 84.7 92.3 101.9 106.6 106.2 104.2 101.7 98.9 92.5 88.4 87.2 87.8 90.5 94.7 90.7 77.3 79.4 71.3 71.7 74.9 80.4 82.1 87.4 91.8 88.6 85.7 82.7 78.6 76.8 77.9 79.5 85.8 91.1 103.9 110.1 105.4 97.5 93.8 96.2 98.5 98.8 99 96 97.3 98.1 97.7 95.2 96.2 90.1 87.5 87.5 87.5 91.2 92.3 91.2 84.1 83.8 75.8 68.6 66.6 66.1 65.5 64.3 68.5 70.3 75.1 76.5 77.2 75.6 74.2 73.1 70.8 67.1 64.9 62.5 59.3 52.2 61.9 68.5 74.9 73.5 71.1 70.8 67.1 64.9 64.4 63.5 61.5 60.5 62.2 64.6 66.4 67.3 68.9 70.7 73.1 76.1 77 78.6 72 70.4 71.9 71.5 71 74.9 83.4 85.7 87.5 84.4 79.4 71.2 70.2 77.3 75.4 78.6 76.8 75.1 76.3 80.7 88.5 100.9 105.3 101.8 94.6 83.7 71.8 70.6 68.5 65 62 59.5 61.1 69.6 64.2 64 66.9 65.7 66.1 66.3 66.3 66.4 66.7 64.6 59.7 55.4 52 48.2 45.7 46.2 47.1 44.1 41.3 38.1 37.8 38.8 37.8
51.1 51.8 54.7 53.3 53.3 54.5 55.9 56.8 57.7 58.6 57.4 57.9 64.4 59.6 59.6 63 59.3 58.3 57.6 54.9 52 52.6 68.9 76.3 78.8 71.1 57.2 54.2 57 54.2 54.2 54.2 58.9 62.9 63.5 65.4 59 59.2 61.4 57.4 52.9 54 62.4 73.4 81 96.7 101.5 104.4 105.5 103.7 101.9 99.6 90.6 86.9 85.5 85.1 86.6 90.1 85.4 73.4 71.4 71.9 71.1 73.3 79.8 87.8 90.7 94 94 87.9 83.8 79.7 75.8 78.2 80.4 87.7 90.8 102.4 108.1 104.7 97 93.8 98.6 99.3 98.9 99.8 97.9 92.4 94.4 95.9 95.5 95.1 91.8 87.5 87.5 90.2 93 94.1 94.4 85.1 85.7 80.3 71.6 67.3 67.7 65.6 65.4 70.2 70.5 77.3 78.5 78.9 77.2 75.9 73.8 71.4 68.6 67 62.4 56.4 59.9 65.3 71.8 76.9 76.6 74.5 72.7 69.1 66.7 66.6 65.3 63.8 64.7 66.2 66 66.7 67.4 72.2 70.5 71.7 75.6 75.8 74.6 72 73.1 76.7 74 73.4 78.9 87.8 90.7 94.1 93.3 87.9 72.8 71.6 72.2 73.1 75 76.4 75.9 76.4 79.5 82.9 90.3 94.4 92.4 88.9 82 74 71.4 75 69.3 65.9 61.9 60.5 68.5 69 71.3 72.4 71.7 69.7 72 71.3 70.9 69.5 68.6 64 59.2 57.8 50.7 49 48.8 47.7 47.3 44.9 39.4 39.7 41.4 42.1
51.1 50.6 50.8 51.5 52.4 54 56.2 57.6 58.1 58.6 59.2 59.3 60 59.6 60.6 63.7 63.2 59.8 59.8 59.3 52.7 52.5 60.5 76.5 79.1 75.6 64.2 54.2 54.2 54.2 54.2 54.2 54.7 60.5 63.9 63.5 63 61.8 61.6 56.3 54.6 56.1 61.4 68.3 76.2 94.3 100.8 102.3 103.2 103.2 102.1 100.5 94.7 84.6 82.1 81 79.8 78.3 72.5 72.3 72 72.2 75 80.9 81.6 85 93.5 96.8 96.5 94.3 88.3 80.9 77 77.5 80.1 90.1 92.9 100.4 105.2 103.8 98.2 93.8 102.1 99.1 98.4 98.8 99.1 92.4 95.9 96.3 97.1 96 98.3 93.9 97.8 104 106.3 103.6 102.1 101 91.5 86.7 79.9 69.8 67.9 67 65.9 68.2 74.1 80.4 81.6 80 78.9 77.5 75.3 71.3 69.1 67.5 64.9 56.2 61.7 67.1 73.7 77.2 77.8 76 75.1 74.5 71.2 69.7 72.7 75.5 74.1 69.3 67.3 67.3 73.4 77 71.1 71.5 75.9 76.2 75.5 79 78.5 80.7 78 78.4 84.8 92.5 96.1 96.8 95.6 92.7 73.3 75 73.3 74.8 77.3 78 79.5 77.2 80.2 82.6 85.7 98.5 97.1 89.2 87.8 77.6 78.4 75.9 74.7 72.7 66.5 61.9 71.6 73.4 74.5 76.9 74.2 72.8 74.4 75.4 73.2 72.2 70.9 67.6 64.6 62.9 54.7 52.5 54 49.9 45.5 42.4 40.2 41 42.2 44.1
50.9 49 48.6 49.3 50.9 53 56.3 58.2 59.9 59.6 65.2 61 59.7 59.6 62.4 66.5 65.9 62.8 60.1 65.7 55.9 53.3 56.9 73.1 79.5 78.4 67.7 54.2 54.2 54.2 54.2 54.2 54.2 56.8 63.9 64.5 65.6 65.3 60.7 57 57.7 56.8 59 64.6 73 83.3 93.8 98.6 101.2 103.6 101.1 100.7 97.1 82.2 80.5 78.1 75.6 73.4 73.1 72.9 72.9 76.8 80.1 87.1 83.5 84 90.5 95.5 97 96.5 90 80.3 76.5 77.1 82.1 92.6 95.3 98.8 105.9 105.6 98.6 93.8 97.8 99.4 96.8 95.5 93.4 92.6 96.7 96.1 95.8 99 104.6 101.6 108.5 114.8 116.4 121.2 111.9 114.9 102.8 88.3 80.7 75.3 70.2 68.7 67.4 70.8 76.6 82.1 83 82.9 80.3 78.6 75.2 72.2 70 67.7 64.3 56.8 63.1 69.1 75 79.3 79.5 78.5 79.3 77.5 77.6 79.2 79 78.7 76.9 73.1 70.4 75.8 80 80.3 72.2 72.3 79.2 79.7 76.7 76.8 77.1 85.1 82.8 81.3 84.8 88.6 92.3 93.2 92.6 90 75.3 81.8 79.4 82.2 82.4 81.3 86.8 78.5 84.9 82.6 84.3 91.9 97.4 90.9 87.6 82.8 81.7 81.9 78 79.4 72.9 66.9 78.4 79.6 79 77.8 77.4 75.1 76.3 76.7 75.9 75 73.4 69.8 67.6 64.3 60 56.5 55.1 52.9 48.7 42 42.4 42.5 44.8 43.5
49.8 47.1 46.1 47.3 49.4 52 55.3 59.4 62.7 63.5 66.6 69.8 62 61.9 65 68.1 68.2 69.1 62.2 62.5 59.9 54.3 56.1 63.2 68.4 74.1 66.9 54.2 56.1 54.2 54.2 54.2 54.2 54.2 60.3 62.9 64.1 66.9 73 59.5 58.7 57.8 58.3 61.8 70 80.1 86.9 94.1 98 99.4 98.7 96.5 93.3 81.4 79.1 76.9 75.3 74 73.6 73.7 75.5 75.2 79.6 83.3 83.8 88.5 93.2 97.3 98.8 100.3 97.9 85.7 77.5 76.8 86 95.6 97.8 100 105 104.8 98.2 93.8 93.8 95.6 96.4 97.2 92.5 92.4 96.7 95.5 94.8 100.5 108.1 108.4 114.8 123 119.4 123 124.4 131.9 116.9 95.2 86.4 79.2 72.4 70.8 69.6 70.9 80.4 83.8 85.2 83.1 81.3 80.3 77.1 72.8 70.2 67.4 65 59.2 65.1 70.9 76.4 80.4 82.1 83.5 83.5 83.4 85.8 85.3 85.4 81.9 78.8 79.9 82.8 85.1 88.7 85.9 75.7 73.1 79.8 81.1 78.1 77.5 77.3 82.7 82.1 82.5 87.1 90.9 92.9 91.7 90.6 87.4 78.4 85.9 84.1 84 86 85.6 87.4 82.6 81.7 85.9 85.5 87.9 94.6 92.7 90.4 86.4 83.4 83.6 83.2 81.6 80.2 72.7 79.9 83.9 84.9 82.5 80.4 78.5 77 78.4 77.7 77.2 74.6 73.3 68.1 64.3 63.2 61.7 58.7 55 50.2 44.8 45.2 45.4 47.2 45.4
49 45.7 44.5 45.2 47.2 50.7 55.7 60.3 64.6 67.9 66.1 72.4 65.6 63.7 66.5 69.2 70.4 70.7 65.5 63.6 63.2 57.7 56.5 61.7 67.5 69.4 66.1 59.4 56.5 54.2 54.2 54.2 54.2 54.2 55.9 60.4 62 65.2 65.3 60.9 60 58.2 57.6 59.5 65.8 74.5 86.7 92.6 96.5 98.2 97.4 95.8 87.4 80.8 78.6 77 75.8 75.3 75.6 77.8 80.7 75.2 80.1 85.4 83.7 92.6 97.3 100.6 98.2 96.2 94.4 86.7 78.2 74.9 88.1 98.1 100.2 100.3 102.7 103.1 99.2 93.8 93.8 93.8 93.8 97.8 96.4 92.4 97.1 93.4 97.3 96.9 109.9 113.7 117.9 125.3 124.2 125.6 126.3 130.2 126.3 106.5 92.2 82.8 76.4 73.5 72.4 73.9 79.1 84.7 86.3 84.4 82.9 81.4 77.1 73.6 69.6 67.8 65.5 62.1 65.7 72.2 77.5 81.6 84.6 86.9 92.5 90.6 92.4 98.2 99.8 89.1 88.7 92.9 94.8 98 93.6 91.3 80 74.2 76.9 78.3 78.3 78.8 77.9 78.2 81 89 95.8 103.1 101.1 94.2 92 88.5 82.2 88.5 88.6 86.8 90.6 90.5 90.6 85.8 83.6 89.9 88.6 89.3 91.5 91.5 91.9 88.2 85.1 85.2 84.7 84 83.6 76.2 78 85.5 84.5 84.5 83 82.2 79 79 78.8 78.4 76.5 74.1 70.7 68.5 65.4 62.9 61.8 57.7 54.1 49.5 49.4 49.1 48.5 45.9
47.5 44.7 42.4 42.9 45 49.6 55.1 60.7 66.7 70.1 67.6 76.1 70.4 66 67.8 69.8 73.8 72.1 69.3 67.2 65.3 63.8 58.8 61.4 71.5 77.5 68 63.8 58.9 54.2 54.2 54.2 54.2 54.2 54.2 56.7 59.6 63.6 64.2 63 61.7 58.4 58.2 58.7 62.8 70.9 79.1 91.7 94.2 96.8 97.3 96.1 84.8 79.8 77.9 77.3 76.3 77.5 80.2 78 79.4 80.3 76.7 81 84.4 87.8 98.2 103.5 102 97.1 93.8 84.6 76.1 74.9 88.6 99.5 102.1 101.5 101.8 101.3 99.8 97 93.8 93.8 93.8 101.9 97.9 97.4 92.4 92.4 98.8 98.5 104.4 111.1 114 123.5 123.5 122.2 125 131.7 126.3 112 101.3 86.9 80.3 77.5 77.7 79.9 79 85.5 86 85.3 84.3 81.9 77.9 73.3 69.8 68.4 67.2 64.5 67.9 72.5 78.1 81.8 86.3 90.2 93.4 92.2 99.3 102.7 102 102.9 102.7 104.7 109.5 110.1 107.4 96.6 88.9 77.7 76.5 77.8 78.7 79 78.9 78.6 82.2 99.2 107.1 109.6 105.7 100.9 96.8 91 92.5 98.4 95.4 94.7 95.6 98.3 101.4 93.8 89.3 90.8 93.1 91 91.3 93.1 95.8 94.5 87.4 85.5 86.8 84.2 83.2 77.4 77.9 84.8 85.5 84.5 83.9 82.6 81.6 80.8 80.3 79.5 78.4 75.1 71.8 69.1 69.3 66.3 62.3 60.4 53.3 54.8 53 55.1 51.4 47.1
45.6 43.6 40.9 41.2 42.7 50 54.2 62.9 65.7 68.8 70.4 71.2 72.4 67.5 68.6 71.1 75.3 76.2 73.6 71.3 68 64.8 61.2 65.3 72.8 78.2 72.7 68.3 68 59.5 56 54.2 54.2 54.2 54.2 54.2 59.3 62.2 65 67.2 65.6 60.6 58.9 58.8 60.9 68.6 76.3 89.3 92.2 96.1 94 92.5 93.4 79.6 78.5 77.7 77.7 79.9 84.1 79.5 82.4 83.6 76.9 77.7 83.5 83.7 100.5 105.5 104.8 101.9 99.7 88 74.9 74.9 84.6 95.7 99.7 100.6 101 100.4 100.2 99.8 97.2 98.8 93.8 93.8 93.8 96 95.2 98.7 103 103.7 106.4 108.8 110.9 119.4 115.7 119.7 120.7 126.4 120.9 115.6 99.1 90.9 85.6 82.4 81.1 81.5 80.7 86 87.3 87 85.7 81.8 77.7 73.7 71.2 69.2 68.3 64.4 68.6 73.7 77.8 82.8 90.4 91.3 91.9 92.4 102 107.6 111.5 110 114.2 123.8 128.4 127.6 120.8 107.5 96.8 86.1 81 78.1 83 83.8 89.6 84.1 87.4 101.4 114.5 119.3 112.7 107.9 107.3 96.9 96 105 106.3 100.6 104.6 113.6 118 109.5 97.6 93.9 92.7 92.3 94.3 94.8 97 96.3 88.6 87.4 87.2 84.3 80.2 78.2 78.1 86 85.5 84.6 83.9 83.3 81.8 81.3 80.7 80.4 78.1 76.1 74 72 70.1 67 61 60.5 58.7 59 55 53.6 52.1 48.4
42.8 42.7 39.9 40.5 40.8 48.6 53.6 61 65.7 68 75.2 69.9 69.5 68.8 70.1 71.3 74.7 74.9 74.5 74.3 72.4 69.6 65.9 68.1 73.3 86.9 80.2 74.7 68.3 64.3 61.7 56.6 54.2 54.2 54.2 54.2 57.9 63.1 66.8 67.8 67.2 63.1 59 59 59.5 64.5 73.2 86.3 90.2 92.3 91.4 88 85.9 79.6 78.3 78.4 78.5 79.5 81.6 80.9 78.6 85.5 76.4 80.8 80.8 81.2 97.6 103.5 103.3 103.4 98.2 89.6 77.5 74.9 82.1 92.3 96.9 98.4 99.9 100.3 99.9 100 99.2 98.9 99 98 95.1 93.8 99.4 100.4 106.4 106.8 110.5 111.2 109.9 108.8 107.3 116.1 113.5 113.3 113.2 103.7 97.1 91.7 89.6 86.2 84.4 83.9 83 87 87.9 88.3 87.5 82.6 77.7 74.6 70.6 69.5 68.7 66.5 69.1 73.5 76.7 79.7 88.8 90.2 91.6 93.8 98.4 104.2 109.6 119.5 136.7 140.7 144 143.8 136.8 127.1 104.1 96.1 94.5 89.3 90.1 95.7 99.9 97.8 90.4 103.8 120.7 123.1 118.1 115.3 110.2 102.1 99.5 110.2 113.2 112.8 108.6 123.5 134.8 125 109.8 101.3 93.9 95.9 96.4 93.9 93.9 92.7 91.4 88.3 86.7 84.7 81.3 79.2 78.6 79.1 79.7 82.8 83.6 81.9 83.9 82.5 81.1 81.1 80.6 76.5 75.9 73.4 71.6 68.1 62.3 59.6 60.8 63.7 57.2 56.1 55.1 49.2
40.1 41.1 38.8 39.2 39.5 44 52 59.5 65 68.1 69.1 68.5 67.9 67.7 68.9 71.9 75.6 75.6 75.7 76 77.8 74.6 70.7 69 72.3 83.1 80.8 81.7 75.7 68.5 67.1 64.7 54.2 59 56.1 54.2 58.5 64.9 65 66.8 66.7 65.7 60.7 59.2 59.9 62.1 68.1 81.4 88.7 92.2 90.2 86.5 82.6 80.3 79.2 78.6 79.3 80 81.4 83.2 78.6 79.6 76.5 83.8 80.5 80.9 82.6 97.5 98.8 99.9 99.5 90.1 79.2 74.9 79.8 86.4 93.4 97.6 99.1 99 99.3 99.9 100.1 100.2 99.5 100.2 100.1 100.5 98.8 100.4 106.5 107.7 108.7 110.9 110.9 108.2 103.8 103 107.8 102.7 104.7 104.8 95.8 92.9 90.6 88.6 87.4 86.6 84.9 87.5 88.8 88.6 88 83.6 77.4 74.1 70.6 69.8 67.9 67.1 67.8 72.4 74.9 78.2 85.2 91 92.8 95.5 100 109.8 113.1 131.8 141.3 149.3 155 159.7 156.4 150.4 125.9 114.3 114.9 101.4 107.5 105.5 123.9 114.5 93.7 115.2 128.3 128.4 123.8 119.2 108.7 97.5 96.5 111.8 118.5 117.7 112.1 126.2 135 141.3 122.5 108.6 99.8 100.6 97 95.5 94.7 94.3 94 92 90.2 87.1 84.5 81.5 79.5 79.2 78.4 82.2 82.9 82.6 81.4 82.9 82 82.1 80.8 78.8 76.3 73.8 71.5 67.4 62.7 60.8 61.5 61.7 59 56.7 55.5 49.7
37 39 38.3 38.7 38.7 41.4 50.5 59.3 64.7 68.3 69 68 67.5 67.6 68.2 72.3 74.4 75.9 75.7 76 81.9 78.1 78 71.2 72.2 75.5 79.9 84.8 81.7 75.1 70.9 70 54.2 54.2 67.4 54.2 55.6 61 65.4 66.3 65.9 64.8 61.6 60 59.6 60.8 66.2 75.5 87.9 91.8 89.2 85.9 82.8 80.1 78.9 79 79.7 80.7 81.4 80.1 78.9 78.4 76.9 79 80.3 81 82.9 88.8 93.2 97.4 94.9 89.1 81 74.9 79.1 86.3 92.8 95.3 96.4 97.8 99.1 99.4 100.9 101.2 101.6 102.6 103.1 107.7 102.2 100.7 101.6 105.2 110.5 109.2 108.4 107.6 101.7 100 99.8 99.6 105.4 100.4 96 94.6 91.4 89.8 89.2 89.3 86.1 87.8 89.2 89.2 87.7 82.5 76.6 73.9 70.9 69.6 68.9 67.9 68.2 71.3 76.6 76.8 81.6 87.9 96.7 107.4 124.1 126.9 141.2 166.5 167.5 187.6 193.6 187.7 178.3 171.6 146.2 134 135.4 118.8 120.3 119.4 133 125.8 105.1 116.3 137.1 132.3 125.7 121.6 106.7 99.1 101.1 106.7 122.4 126.5 121.9 138.2 145.7 148.2 147.2 130.3 122.2 123.7 116 105.5 98.9 99.8 102.4 95.6 93.8 92.2 89.8 85.8 82.5 86.1 82.8 81.6 83.2 83.5 84.3 84.7 83.9 82.3 81.8 80 77.7 73.8 71.4 68.2 63.8 61.9 62.4 61.9 58.3 55.6 53.5 50.2
35 36.3 37.9 38.4 38.6 40.2 47.4 57.9 63.3 68.2 70.5 69.4 67.6 67.1 67.9 73.3 73.9 76.5 75.1 75.7 80.8 82.3 82.7 78.7 73.4 75.1 77.4 84.6 84.9 79 73.7 72 63.8 54.2 57.7 54.2 54.2 57.4 62.9 66.1 66.9 65.5 64 62.5 60.9 60.7 65.2 70.8 87 89.7 91.4 85.8 83.4 79.7 78.6 79 79.6 80.5 81.5 82.4 82.3 79.4 79.8 85.3 83 81.9 84.8 89.5 92.3 94.8 95.5 90.2 83.4 74.9 74.9 82.8 90.5 93.8 95.6 97.1 98.4 99.5 100.5 102.4 103.8 107.7 108.4 113.3 110.5 106.5 102.3 105.8 109.3 108.3 106.9 104.7 101.6 101.6 99.3 98.3 99.6 105 97.5 94.4 92.3 90.7 89.2 87.5 88.3 88.3 89.2 89.8 87.2 83.4 76.2 71.9 70.4 68.6 68.3 67.3 67.7 70.4 72.8 77.6 80.3 101.1 123.7 129.6 146.7 164.8 167.8 180.6 197.2 208.6 213.1 211.2 205.4 190.4 171 155.7 157.8 132.8 131 128.7 136.2 132.9 115.6 122.9 139.1 141 136.7 123.1 104.7 102.5 104.7 108.1 120.6 121.1 129.3 146.5 156.3 162.1 157.5 144.4 138.9 144.1 140.1 133.3 112.2 108 106.1 101.8 99.9 94.6 91.2 90.6 89.3 88.8 86.9 85.7 81.2 85.1 85.2 85.2 84.7 82.9 83.4 81 79.1 75.4 72.4 68.4 63.9 61.7 59.6 62.7 59.8 54.2 51.2 52
34.1 37 38.3 38.1 38.5 40 45.6 56.1 62.4 68.2 71.9 71.2 68.5 65.8 66.4 74 73.3 73.2 73.4 74.2 78.2 82.1 82.8 83.8 75.2 73.5 75.4 83.5 85.7 83 73.7 74.4 68.8 56.9 54.2 58.6 54.2 57.1 62.4 67.4 70.6 71.9 69.2 65.8 64.5 61.1 63.8 68 82 84.5 87 84.9 83.8 80.7 79.4 78.9 80.1 81.3 83.1 83.9 87.5 83.2 83.3 85.8 86.3 85.3 90.6 91.1 92.3 95.8 93 88.5 84.7 74.9 74.9 79 88.2 92.2 93.9 96.3 98.4 99.6 100.9 103.1 108.7 111.8 110 109 111.8 116.2 115.1 116.4 120.1 117.5 110.1 104.9 104 101.8 102.1 98.2 95.9 95.5 95.8 97 92.6 92.1 89.5 88.5 89.3 89.1 89.7 90.4 87.4 83.4 75.5 72.1 70.5 69.7 69.6 69.3 68.4 72.7 76.7 81.3 85.2 110.7 133.4 147.2 151.4 169.1 176.6 188.9 203.7 217.7 227.6 225.6 219 206.1 191.8 193.9 176.7 163.1 140.7 137.1 141.7 146.1 133.5 133.6 150.6 151.7 142.5 130.5 109.1 105 105.1 109.8 114.8 121.8 140.2 156.7 168.7 175.7 170.1 159.6 160.3 165.6 160.6 149.5 135.7 117.3 109.7 107 108 103 99.8 93.5 92.6 93.1 91.1 89.9 83.3 81.2 85 85.3 85.2 85.1 83.8 82.6 80.9 77 74.4 72.2 65.7 62.9 61.2 63.3 64.3 57.8 57.3 58.3
34.5 36 38.9 37.9 38 38.7 43.3 54.4 63.3 68.6 72 72.7 69.4 65.7 65.5 74.3 71.7 71.9 72.2 72.6 76.9 83.5 82.7 82.7 82.4 71.3 71.4 73.7 78.3 77.8 72.4 68.3 64.6 61.1 54.2 60 57.4 60.8 62.4 67.6 71.5 77.1 77 70.6 70.5 63.7 63.7 66.9 73.2 80.3 82.6 82.9 84.4 81.1 79.2 79.3 80.5 81.7 83.3 85.3 88.8 87.1 87.8 89.6 87.9 88.2 91.5 94.4 93.6 93.3 92.3 87.2 81.9 75.8 74.9 74.9 84.8 90.2 92.2 95.9 98.3 100.1 103.7 107.1 111.1 116.2 113.9 121.5 123.5 120.7 122 123.2 127.4 127.7 123.2 112.7 105.8 104.5 100.7 96.5 95.6 95.2 93.3 93.1 92.9 90.6 89.8 89.6 89.7 89.9 89.1 89.7 86.3 81.7 74.9 72.5 70.7 68.8 68.7 67.5 71.9 76.5 78.8 84.9 96.4 119.6 142.3 154.1 166.6 175.2 188.1 202 217.2 222.6 232 235.1 228 226.2 209.5 207.6 202.3 189 159.2 144.8 146.5 152.3 141.9 144.1 159.7 161.6 145.8 131.4 116.5 105.1 105.5 112.3 115.3 123.5 147.6 169.7 180.8 183.3 180.4 173.5 173.1 175.5 170.7 159.3 150 130.5 116.7 113.9 111.9 107.9 105.4 98.8 96 98.9 93.9 90.3 85.6 84.4 85.3 85.8 85.2 85.8 84.5 82.6 80.5 78.9 76.9 75.6 67.7 64.6 64.3 69.4 65.4 62 62.1 60.8
32.1 35.5 38 38.6 37.7 38 42.2 50.2 63.7 68.4 71.8 73.5 70.5 66.8 65.6 68.7 70.7 71.2 71.5 71.9 71.7 82.5 83.7 79.5 76.9 73.4 66.1 68 69.7 73.9 70.4 65.6 63.9 62.1 60.2 59.5 60.7 59.3 63.2 66.5 71.4 77.6 86.8 80.7 75.1 73.4 64.5 66.2 71 79.4 80.9 81.4 84.7 81 79.1 79.2 80.6 82.2 84.7 85.7 88 87.4 88.3 92.9 90.8 91 92.3 94.4 94 92.8 89.2 83.7 80.9 75.1 74.9 74.9 81 89 91.2 95.1 98.7 100.2 102.5 110 110.9 116.8 118 119.4 121.9 126.3 126.1 129.1 129.3 131.5 128.9 123.8 116.8 102.9 100.4 101.8 99.3 95 94 93.2 92.6 91.4 90.2 90.6 90.2 89.5 88.3 87.3 83.9 79.7 75.1 72.7 71 69.8 70 68.8 72.8 77.3 80 84.6 99.8 110 145.8 155.6 167.1 181.8 203.3 206 223.8 234.8 249.3 243.6 235.9 233.3 220.6 217.2 211.4 199.3 182.4 176 156.1 160.8 144.6 153.3 165.4 165.2 148.6 142.3 126.2 107.4 106.6 113 116.5 126.6 152.5 174 185.4 189.2 188.9 177 177.9 181 177.8 171.9 155.7 139.8 119.9 117.2 116 114.6 111.5 102.5 98.7 97 95.1 92.3 90.6 86.5 86.7 87 85.9 84.9 84.2 83.4 81 78.8 76.6 74.3 68.7 66.5 67.7 68.6 67.6 66.6 66.5 66.1
30.6 33.7 36.7 39.1 37.8 37.1 40.4 46.9 62.3 67.3 71.4 74.1 71.4 67.5 65.5 67.7 69.5 70.8 71.6 71 70.4 72.5 78.4 75.8 72.7 68.7 63.3 60.5 62.6 64.6 65.1 64 63.8 65 63.3 61.6 60.3 60.1 65 67.2 71.4 80.7 93.3 91 79.9 82.5 70.6 66.9 70.3 76.2 80 80 83.8 81.6 78.8 79.4 81.5 82.4 85.4 87.5 89.1 88.5 89.2 95.5 94.5 95 94.5 95.6 94.7 92.3 88.6 85.6 84.7 83.2 82.5 74.9 77.9 87.5 90.9 93.7 97.6 100.5 102.7 107.3 112.2 114.5 122 121.5 124.7 128.4 133.3 134 133.5 132.1 130.2 131.9 128.2 118.9 101.3 102.3 101 96 95.3 94.8 93.6 93.4 91.5 91.7 91.3 89.6 88.1 85.9 83.3 79.3 75.3 72 71.5 72.4 73.5 73.1 73.3 78 80.9 88.9 99.1 111.1 151.6 174.9 193.7 211.4 220.4 238.1 236.4 241.1 257 250.7 243.5 240.9 222.8 213.7 216.9 210.5 200.1 190.9 174.2 164.4 149.6 167.1 175.7 169.7 161.6 148.1 143.2 110.2 107.2 111.2 116.4 132 157.7 175.4 188 190.8 191.7 183.9 182.1 185.5 179.7 171.8 159.1 146 126.6 120.2 118.8 115.4 112.7 106.5 102.5 99.3 97.5 94.7 91.6 87.8 86.2 86.3 86.5 86.4 84.8 83.2 80.6 78.4 73.7 70.4 67.8 69 71.8 70.2 69.4 70.4 69.2 67.3
28.5 33.2 36.6 39.1 37.9 36.7 39.5 46 57.2 66.8 71.7 73.7 71.8 68.1 65.7 66.6 69.4 70.3 70.1 70 69.7 70 74.1 74.2 72 70.2 60 58.4 59.2 61.3 61.7 62.5 66.1 71.3 69.6 68.4 63.8 63.4 71 69.9 72.8 81.8 92.8 96.9 87.5 85 81.9 67 66.6 74.4 82 78.8 81.3 79.4 77.3 78.4 81.5 82.8 85.5 87.9 89.4 90 90.6 94.3 96.6 96.7 97 96.5 96.1 94.2 91.4 90.6 90.4 88 88.3 81.9 74.9 85.6 90.6 92.1 94.6 100.1 103.3 110.1 119 119.2 124.4 127.8 129.3 136.3 136.2 136.1 135.8 135.9 134.7 135 131.1 131 105.6 100.5 98.7 96.6 95.8 95 94.7 94.2 93.6 93.3 92.1 90.6 88.1 85.7 82.5 78.8 75.5 72.6 74.3 76.9 77.6 75.7 74.5 77.8 83.1 96.8 99.2 111 147.3 187.5 207.3 222.7 235.6 250.1 252.2 259.9 257.7 252.4 246.7 244.3 222.8 210.6 218.8 213 209 209.9 193.7 186.7 159.7 180.8 189.1 178.2 171.7 157.4 144.8 118.8 112.2 112.9 117.6 135 155.3 177.6 192.3 193.1 193.2 191.8 184 186.2 177.2 166.2 158.4 141.5 130.8 123.2 119.9 114.7 114.4 105.9 104.4 102.8 102.7 97.9 93.3 88.7 87.2 87.2 87.4 86.7 84.1 82.4 79.6 76.8 71 70 72.6 74.4 75.8 72.9 72 73.6 72.2 70.9
25.4 32 38.9 39.6 38.4 35.9 36.8 43.3 52.7 65.5 69.4 71 70.9 68 65 65.9 68.1 68.7 69.4 69.8 69.7 69.5 70.6 72.3 73.2 71.2 66.8 58.1 57.8 59.4 61.7 63.2 71.3 77.9 77.2 75.4 70.7 69.3 74.6 74.6 76.4 82.2 88.2 90.8 86.7 84.4 88.7 78.3 65.9 68.9 80.4 77.5 78.6 78.4 76.7 78.1 79.7 83.2 86.1 88.6 89.4 90.7 92.1 95.6 98.8 100.3 98.3 98.1 97.5 96.1 95.1 93.6 93.3 92.1 85.8 80.8 75.9 81.4 88.9 91.8 94.1 99 105.4 114.5 121.3 124.9 127.5 131.8 134.4 140.3 137.2 136.5 137.6 136.1 135 134.6 132.4 132.4 114.6 104.5 102 99.4 99 96.5 95.6 95 95 94.3 93.6 91.8 88.7 85.2 82.5 79.3 76 74.1 77.8 80.2 81.3 80 79.1 78.9 90 101.6 105 111 136 183.6 207.5 221.8 242.8 252.4 255.1 261.2 253.9 255.3 251.6 244.8 216.3 208.7 209.6 214.5 210.5 210.3 202.2 190.9 186.8 197.3 203.2 182.9 176.9 167.7 149.8 136.4 115.1 114.7 119.3 135.1 157.4 184.2 196.1 199.2 196.3 192 191.1 188 180.3 170 158.8 143.8 133 124.5 119 114.4 109.9 106.9 104.5 102.7 102.4 98 93.6 89.2 87 86.6 86.6 85.4 83.1 81 78.1 76 75.7 74.4 75.3 75.7 76 75.1 74.4 73.9 72.2 70.1
20.9 30.9 38 40.2 37.9 35.7 35.5 39.1 51.2 58.8 63.7 67.8 69.4 67.7 64.8 64.8 66.9 67.8 69.6 70.1 69.8 69.5 69.9 73 74.5 74.1 64.9 59.6 57.1 59 62.2 63.7 69.4 80.2 82.9 80.4 78.1 76.3 76.5 78 76.9 80.6 87.8 88.5 87.2 84 87.3 85.1 65.3 64 72.9 75 75 77.1 75.6 76.4 78.5 82.1 86.6 89 90.4 91.3 92.6 96.5 99.2 101.8 101.3 99 98.1 97.5 96.3 94.9 94.1 93.2 91.5 84.6 82.2 81.9 87.7 90.7 92.9 99.1 106.8 111.8 123.5 127.2 130.1 131.4 134.8 139.8 138.1 138.9 139.7 138 136.8 135.1 131.7 129 125.4 109.2 105.4 105.4 104.9 98 96.2 96.6 96.9 95.6 94.3 93.1 88.2 85.2 81.5 78 76.9 76.8 79.3 85.4 85.2 83 83.1 81.4 95.1 106 111.9 123.2 132.8 180.2 208.9 222.6 240.5 254.7 255.4 254.1 250.7 249.1 249.4 243.9 224.6 208 207.9 215.2 209 206.8 202.3 196.5 200 209.1 212.5 198 188 183.8 159.2 142.2 120.6 116.5 122.2 134.1 162.3 193.2 200.2 202 196.1 190.5 187.7 186.5 179.3 171.5 158.4 145.3 136.2 127.3 118.5 112.7 109.1 105.9 104.4 103.1 101.5 98.5 94.9 90.5 85.9 86.3 85.8 84.7 82.3 80.3 78.1 78.7 76.9 78.6 78.2 77.4 77 76.9 76 74.6 73.2 70.3
15.6 27.5 34.3 39.8 37 35.2 34.9 36.9 47.1 55.6 58.8 63.8 66 65.9 63.6 63.5 66.1 67.4 68.7 69.6 70.2 69.6 69.7 72.2 74.7 73 67.9 62.2 57.4 56.7 63.5 64.7 67.1 78.8 85.3 86.2 82.7 76 73.6 78.8 77.8 79.4 85.7 84.4 81.8 81.8 82.9 82.4 70.3 62.2 66.4 71 72.5 74.5 74.2 73.9 78.7 82.1 86.9 90.1 90.8 91.6 92.8 95.9 98.3 102 103 100.4 99.2 98.2 97.2 96.4 95.5 93.1 90.8 86.8 83.7 84.8 86.4 90 92.6 96.5 107.4 112.3 117.7 122.4 129.1 132.5 130.3 133.6 137.1 139.8 141.6 139.9 137.2 134.2 132.2 130.1 126.7 115.2 111.2 109.4 107.3 99.2 97.4 96.6 96.9 96.5 95 93.5 88 84.1 80.7 78.9 75.7 78.4 80.1 89 92.9 84.3 86.9 84.8 94.6 108.3 121.9 130.9 138 169.4 202.3 219.9 239 254.9 257.4 253.7 249.6 246.3 246.7 238.1 219.9 207.8 207.7 219.4 212.4 207.2 194 188.4 200.3 212.5 213 203.3 188 186.1 173 141.5 126.3 119.8 125.7 135.6 168.6 198.3 204.7 205.2 197.6 189.8 183.9 179.2 174.7 166.4 151.7 142.9 136.7 124 117.4 113.6 108.6 106.2 103.7 101.1 99.8 97.3 95.2 87.8 85.6 85.6 84.7 83.9 81.3 80.6 75.1 75.1 78.5 83 80.9 79.4 78.3 79.3 78.9 77.6 75.6 71.7
13.7 23.8 32.2 34.1 35.6 36.8 34 35.9 40.7 50.5 54.1 57.9 62 63.6 62.1 62.2 64.8 66.6 67.4 68.8 71 68.7 69.2 70.7 74.3 74.1 70.7 63.7 60.1 55.3 57.2 61.7 64.5 78.2 84.1 91.1 87.7 83.1 75.8 75.7 78.7 78.8 83.5 82.3 79.3 78.9 80.7 79.2 75 61.1 61.9 66.9 70 70 71.5 71.8 77.6 82.9 86.7 89.3 89.9 90.6 92.3 94.7 97.6 100.5 102.8 100.9 99.4 98.4 96.9 95.7 96.7 94.4 96.1 92.2 83.5 86.9 87.7 89.5 92.4 96.2 101.3 109.6 117 124.6 126.4 125.6 125.6 125.6 125.6 133.5 139.5 138.3 137.2 133.8 133 130 125.6 120.8 115.2 114.8 112.5 102.8 97.9 97.3 97.5 96.9 94.7 93.9 88 83.2 80 78.7 77.9 78.9 79.9 90.8 92.8 87.4 88.3 87 98.4 110.3 124.5 130 149.9 167.8 207.1 219.9 236.4 252.4 258.3 255.3 252.2 245.2 239.5 236 225.3 207.9 205.6 210.5 205.6 192.6 188.3 189.2 195.3 208.6 213 201.7 185.1 180.1 167.9 145.8 130.6 121.4 129.2 137.1 169.2 197.4 209.6 210 202.8 188.5 183.8 176.8 171 164.8 152.5 141.3 133.6 124.4 116.9 111.8 108.1 104.8 103.1 100.2 96.8 94.4 92.8 86 84.5 84.2 84.3 82.5 80.5 79.1 75.1 75.1 78.8 79.7 81.4 81.8 80.1 80.5 80.4 78.4 76.4 73.6
12.6 19.1 25.9 30.6 33.3 35.3 33.2 35.1 37.4 44.1 49.3 53.3 58.1 59.9 60 59.9 63 64.7 66.6 67.7 67.2 66.8 68.3 68.3 73.5 72.5 70.7 67.5 62.1 56.9 55 57.6 62 71.7 81.9 88.9 88.3 84.5 77.6 71.9 84.1 82.7 80.3 82 76.6 74.4 77.1 78 76.2 68.4 59.8 63.4 66.8 67.2 68.4 69.4 73.6 79.6 84.2 86.4 87.3 89.2 91.2 92.7 96.4 99.2 101.2 99.9 98.9 97.4 97 94.9 95.7 96.7 92.1 89.7 82 86.4 87.5 88.9 90.8 95 99.4 103.6 113.5 123.6 127.3 128.2 125.6 125.6 129.9 131 135.9 138.7 138.1 132.6 135.5 131.9 130.8 126.7 116.8 120.8 110.8 105.2 97.9 96.8 96.3 96.4 95.3 93.5 87.6 83.3 80 78.9 80.4 80 80.7 91.4 92.4 91.4 91.9 89.3 106.9 111.7 125 139.1 150.2 179.1 210.2 222.5 242.4 254.4 256.9 255.2 249.6 246.1 234.3 231.4 227.9 218.8 200.5 198.8 200.3 189.8 188.9 184.2 195.1 203.3 201.4 195.6 184.1 180.5 170.9 151.5 135.4 127.1 132.1 139.1 162.3 194.1 202.9 206.3 200.8 186.3 182 175.6 169.2 159.4 147 139.4 130.9 123.4 115.1 110.5 105.9 103 101.4 98.7 95 92.1 90.2 84.6 83.2 83 83.1 81.5 79.7 75.1 75.1 75.1 78.1 79.5 80 80.5 81.1 80.4 79.8 78.5 78 73.6
10.6 15 21.1 26 29.3 30.9 31.8 32.4 35.8 39.9 44.4 49.7 54.5 56.8 57.7 56.9 60.6 62.9 63.6 65.6 64.4 63.6 67.3 65.3 68.4 69.2 68 62.5 60 58.4 52.5 52.3 58.5 60.8 73 76.4 78.5 76.5 74.7 68.5 79.7 79.8 79.4 77.4 74.2 71.3 71.9 73.3 72.6 68.9 58.2 60.7 64 64.8 64.7 66 71.3 73.8 79.9 81.7 84.4 85.9 88.4 90 93.1 96.2 98.9 97.9 97.3 95.3 94.6 92.8 93.4 94.3 90.2 85.9 82.9 84.2 86.4 87.9 89.7 93.3 96.4 99.9 106.4 120.5 124.7 127.7 128.6 129 129.2 132.3 138.8 139.4 135.5 130.1 127.6 132.6 132.3 132.5 119.8 112.9 110.1 105.7 101.4 94.2 95.8 96.1 95.5 93.6 86.8 83.7 79.9 80 82 81.2 82 90 97 99.5 97.7 90.5 106.5 115.6 128.6 153.4 165.7 182.9 206.9 223.5 235.3 249.9 254.1 255.7 252.8 244.3 230.2 225.2 221 213.8 197.9 194.9 190.9 190.7 189.5 182.4 184.6 195.7 198.9 194.8 186.1 179.9 172.6 161.2 139.7 133.6 133.3 139 156.3 180.9 192.4 197.3 194.5 179.1 178.5 166.6 158.6 146.7 139.5 134 129.1 122.2 113.4 108.6 103.9 101.6 99.2 96.8 93.5 91 88.7 84.3 81.4 82.2 82.2 80.5 78.7 75.1 75.1 75.1 75.1 78.9 80.6 81 82.1 81.6 79.8 78.3 76.2 73.8
9.8 11.3 17.7 21 22.7 26.2 29.3 29.5 34.4 37.9 41.2 47.8 53 54.3 54.3 53.7 57.5 57.9 60.4 62.1 61.9 59.5 62.5 61.5 60.9 61.5 63.2 59.8 58.3 56.8 52.7 49.7 52 56.1 61.5 66 67.3 70.3 70.4 66.9 66.5 75.2 75.4 73.4 71.1 67.8 68.1 68.7 69.4 64.4 57.4 58.4 60.2 61.6 61.8 63 66.1 68.9 76.1 78.6 79.3 83.6 85.2 87.5 89.6 92.5 95.4 96.1 94.7 93.2 91.5 90.2 90.1 90.6 87.3 83 81 82.5 84.9 86.6 88.3 91.2 93.9 96.8 103.1 117.9 124.2 126 126.8 130.3 125.6 129.1 135.4 135.1 130.7 127.6 126.5 125.7 125.1 129.4 114.8 111.1 110.3 105.6 101.7 93.7 94.4 95.3 94.9 93 86.6 82.6 79.6 81.5 83 82 83.9 93.9 96.3 98.6 97.1 92.2 101.5 114.2 125.8 155.4 164.6 181.3 205 216.5 230 241.5 249.2 252.2 249.4 239.2 229.5 211.5 210.1 208.3 196.5 186.8 180.8 185.2 186 183.6 185 192.5 195 189.8 184.1 175.7 168.5 160.3 140.1 131.8 136.3 139.8 151.6 168.7 182.1 184.4 178.2 170.4 166.1 156.4 145.8 140.6 136.1 132.2 126.2 120 110.1 105.7 102.5 99.1 97.2 94.3 91.9 90 88.9 84.3 80.9 80.4 81.4 79.6 75.1 75.1 76.1 75.1 75.1 76.8 80.9 83.4 84.3 84.2 81 78.5 76.9 74.5
9.5 11.1 14.5 16.5 22.2 25.2 25.7 27 29.4 33.3 37.4 44.8 52 51.8 50.8 49.5 50.3 51.4 55.9 58.6 58.5 56.7 58.2 56.9 56.9 57.5 57.3 53.8 55.3 56.4 55.7 47.6 45.3 52.3 53.8 58.3 60.2 63.1 66.8 67.9 61.9 65.6 70.5 68.6 69.6 65.7 64.5 64.9 64.8 58.5 56.8 57 57.3 59.2 59.4 59.9 62.1 64.4 68.5 74.3 74.8 79.1 81.8 84.4 86.3 88.4 91.7 92.4 92 90.1 88.5 86.4 86 85.5 82.9 80.2 80 80.9 83.1 85 86.7 88.7 91.4 93.9 99.6 111.7 117.7 124.1 126.9 126.5 125.6 127.8 130.7 131 129.9 127.8 126.2 125.5 122.9 117.6 114 109.6 108.4 106.2 100.3 93.7 93.8 94.2 93.4 92.2 86.6 82 79.1 81.7 83.8 83.3 85.2 92.9 99.6 102.9 100.6 98.1 106.4 115.5 129.4 154.1 165.7 176 185.5 203.6 214.9 227 238.4 240.7 239.5 229 220 202.4 201.2 202.8 194.3 176.3 174.1 174.3 181.8 182.3 179.3 186.3 188.3 183.5 176.6 167.1 164.2 157.9 148.5 134.6 136.7 141.4 151.1 163.5 172 174.6 171.4 164 157.2 150.2 142.3 137.4 133.5 130.1 123.5 117.1 109.4 102.6 99.6 97.3 95.5 92.6 91.3 89.6 87.9 83.6 80.2 79.2 79.4 75.1 75.1 75.1 75.1 79 75.1 79 81.9 84 85.1 85.4 82.8 79.1 76.7 74.7
9.5 14.7 9.7 12.6 21 26.2 25.9 25.4 24.3 28 34.5 40.5 48.2 49.8 46.5 43.2 44.9 46.4 51.4 56 55.9 53.7 51.3 51.2 51.7 50 47.4 49.2 50 55.4 55.2 46.1 41.2 47.4 48.1 49.7 50.8 52 53.9 55.5 54.3 57.3 62.4 61.2 61.1 60.5 61.1 60 60.9 56.1 56.1 55.7 56.2 56.9 57.7 58.3 60.2 63.3 66.4 68.7 72 74.9 77.8 80 82.6 84.7 87.6 88.4 88.3 86.8 85.6 85.2 83.8 82.7 80.6 83.4 82.2 81 81.3 82.9 85 86 87.7 90.7 95.4 109.9 118.7 125.6 125.9 128.7 128.8 129.3 130.7 130.2 129.9 127.8 125.5 128.4 121.8 116.8 111.7 106.8 105.5 104.4 101 94 92.8 93.8 91.9 89.6 86.1 80.9 79.4 82.3 83.9 84.8 86.1 90.5 101.2 104.5 107.1 105.2 114.3 125.3 140.9 154.6 174.1 186.3 190.2 199.2 210 217.6 219.6 220.2 218.8 205 200.9 190.3 186.6 183.9 177.5 173 168.4 164.3 166.5 169.1 173.2 177.1 178.4 176 169.7 163 156.5 153.2 141.3 137.1 136.3 140.7 149.3 159.7 166.7 169.4 168.7 162 153.1 146.2 139.5 133.3 128.5 125 118.6 114.6 104.3 101.6 97.6 95.7 93.6 91.2 89.9 88.5 87 84 80.6 78.8 77.1 75.1 75.1 75.1 79.5 80.3 80.2 81.5 83.5 85.3 86.3 85.7 83.5 80.1 77.4 75.7
10.2 8.9 7.1 9.9 19.8 21.8 22.8 23.8 23.6 25.1 30.5 35.7 38.3 40.1 38.6 36.9 40.3 40.8 44.3 50.7 53.6 50.1 46.1 45.4 45.7 43.2 39.8 37.4 44.6 53.1 49.4 41.8 33.5 35.8 41.5 41.9 43.9 45.2 48.4 48.4 48 48.2 48.6 50 49.7 54.5 53 56.3 55.9 54.9 55.1 55.2 55.7 56.7 57.4 57.7 58.6 60.7 62.8 65.8 68.3 71.7 74.7 76.9 78.7 81.9 83.8 85 84.3 83.8 83.9 83.3 82.4 80.7 80.3 85.7 89.2 87.1 84.1 78.9 80.8 84.2 85.2 87.5 91.3 108 114.5 123.8 125.3 130.6 131.1 131.8 131.1 130.1 127.6 125.6 122.2 120.4 118.1 114.8 108.6 107.5 104.6 100.4 97.2 95.8 93.3 91.9 90.6 88.4 84 78.7 78.7 82.4 83.6 85.6 89.5 91.1 98.5 104.2 105.2 107.7 112.1 128.9 144.4 153.7 171.7 191.5 199.9 203.5 203.1 207.4 208.2 207.5 204.2 197.3 192.3 186.4 181.6 173.1 173.1 172 170.6 165.6 163.5 163.3 164.2 171.2 171.4 169.7 161.9 155.1 149.6 146 141.7 139.1 136.2 140.7 147.6 157.2 162.8 166.4 164.9 159.2 150.7 144.1 137.2 131.3 124.9 119.7 114.3 108.4 101.8 98.4 96.6 94.4 92.2 90.3 88.6 87.4 86.1 84.3 81.5 79.2 75.9 75.1 75.1 78.4 80.9 81.7 81.7 83.4 85.1 86 88.2 86.1 84.6 82.2 77.9 76
9.1 7.5 5.8 5.4 15.4 19.9 23.4 21.3 21.4 23.4 28.1 31.6 32.8 33.2 32.7 32.1 33.9 35.2 37.5 45 45.5 43.3 40.6 40.8 40.9 39.1 36.3 33.3 32.5 33 33.2 32.9 31.9 32.7 33.9 36.8 37.4 40.5 46.6 47 49.1 56.4 60.4 59.5 60.3 63 56.8 54.3 55 53.6 54.2 54.9 55.2 56.1 57.1 57.1 58.5 60.1 61.5 63.2 65.8 68.8 71.3 73.4 76.1 78.5 79.7 81 80.3 80.7 82.1 81.4 80.3 77.3 81.9 86.5 91.7 93.2 88 81.3 78.9 78.9 82.8 85.7 88.4 103.8 110.6 117.6 124.5 131.6 131.6 132.9 133.8 129.9 127.2 124.3 122.3 120.2 114.2 110.9 110.5 110.1 106.9 102.7 99.1 96.1 94.3 91.2 88.6 85.9 83.1 78.7 78.7 82.1 83.8 85.4 88.7 91.8 99.6 106.2 106.2 107.4 112.2 135 150.1 157.9 167.7 183.9 197.7 202.1 198.6 197.6 198.4 196 192.6 190.3 188.5 189.2 183.9 176.5 171.6 172.7 170.4 166.6 162 160.4 161.2 164.1 166.2 165.4 159.6 154.8 150.2 145.9 143.1 139.5 137.5 141.5 145.9 155.7 159.6 159.3 158.9 152.3 148 142.3 135.6 128.6 122.7 115.6 110.6 105.9 101.5 97.4 94.5 92.8 90.9 89.3 88.1 86.5 85.4 83.3 81.3 79.4 76.8 75.1 75.1 78.8 84.5 82.9 83.6 84.6 85.8 86.5 87.7 88.2 85.9 82.6 77.8 75.4
7.2 7 4.4 3.7 7 16.1 18 17.5 18.4 18.1 24 26 27.6 27.9 28.8 27.4 29 30.7 32.8 33.8 36.7 36.6 35.9 36 36.2 36.1 34.3 33 31.3 30.6 30.7 31.3 32.6 32.8 34.6 37.3 46.1 50.4 50.2 50.7 52.4 59.5 59.1 62.6 60.4 67 61.7 57.6 58.4 58.3 58.5 56.7 54.9 55.7 56.5 56.6 57.4 59.4 61.5 63.1 65.6 66.8 69.5 70.9 72.5 74.4 76.7 76.7 74.4 73 74.2 76.3 77.5 79.8 83 85.8 89.4 94.1 90.3 83.9 78.9 78.9 78.9 82.4 85.8 90.6 99.5 115.6 122.8 127 129 133.2 138 132.3 127.3 123.4 121.6 120 114.1 111.6 111.3 112.3 108.7 104.9 100.7 96.1 93.9 91.7 89.1 85.4 80.9 78.7 78.7 81.1 83.4 85 90.3 92.2 104.1 105.3 107.1 108 117.2 137.6 159.7 164.5 172.7 179.4 186.4 193.7 191.6 191.2 192 191.8 191.8 191.2 190.1 188.6 185.4 177.4 170.8 171.7 168.2 164.9 161.9 160.4 157.4 159.7 162.8 162.2 158.1 155.8 150.8 147.1 144 141.1 139.8 142 146.4 152.6 153.7 152.7 151.2 148.1 144.5 140 132.8 125.9 120.8 113.7 107.5 103.4 99.6 96.7 94.5 92.5 90.9 89.4 87.8 85.8 84.5 82.9 81.9 82.6 79.4 75.1 75.1 79.6 82.8 84.5 84.5 84.5 85.7 85.9 87.7 87.4 86.8 84.2 79.2 74.7
7 7.5 6.1 3 3.4 8.2 12.1 12.6 13.4 13.1 18 18.8 21.2 22.1 23.3 21.8 23.5 24.7 28.8 29.8 32.2 32 31.6 31.8 31.1 30.8 31.6 30.7 30.7 30.4 30.8 31.5 32.1 33 34.3 38.7 46.3 52.7 53.6 53 53.2 59.7 58.5 64.2 62.3 68.8 66.1 62.9 62 62.4 62.5 60.3 56.5 55.6 55.7 56 57.3 59 60.9 62 63.6 64.8 66.7 66.4 69.1 70.9 72.4 71.5 72.4 76.6 80.1 82.2 82.7 82.9 84.2 86.1 88.7 92 91.6 85.7 79.8 78.9 78.9 78.9 84.3 88.4 95.3 106.4 119.3 122.6 126.6 127.1 131.7 130.2 126.7 124 121.5 120.1 117.1 114.3 114.2 115.3 110.9 107.7 104 96.4 92.4 89.8 88.7 85.2 80.1 78.7 78.7 79.7 83.1 84.7 89.9 94.9 102.6 104.8 107.9 112.6 121.2 143.4 161.3 169.7 172.7 178.3 181.8 187.1 190.4 192.4 194.3 191.5 191.8 192.3 192.9 190.8 188.4 180.8 171.9 169.4 168.3 164.2 160.7 158.4 157.3 158.4 159.5 159.7 156 154.1 150.8 146.5 143.7 141.2 139.5 142.3 146.5 149.3 151.1 150.1 147.7 144.2 143.2 138.4 129.7 123.7 117 109.5 105.7 102.3 99.1 95.5 93.6 92.5 90.8 89.5 87.1 85.9 86.7 84.1 84.1 82.3 81.3 78.7 76.6 80.7 85.4 85.4 85.5 85.1 85.2 82.7 82.7 82.7 84.3 83.4 79.9 74.7
8.7 4.4 2.9 2.4 2.7 4.1 8.3 7.2 4.7 3.1 3.9 6.2 8.9 13.7 15.1 16.7 18.8 20.4 25 25.5 25.4 27.8 27.8 28.3 28.9 28.5 31.1 30.1 30.3 30.4 30.9 31.3 32.3 33 33.2 36.3 44.5 53.5 55 54.3 54 56.1 57.8 66.5 63.5 67.1 72 67.4 64 64.9 64.9 64.4 61.8 56.7 55.4 54.9 55.5 57.7 59.8 60.9 62 62.8 63.9 65.3 66.3 67.5 67.8 69.1 73.1 76.1 80.1 83.1 84.2 84.1 84.5 86 87.3 90.1 91.7 87.2 83.2 78.9 78.9 78.9 83.3 86.3 90.7 98.8 111.5 115.8 120.2 122.7 124.5 126.4 125.4 123.2 122.5 121.4 117.7 116 115.2 114.8 113.8 110.8 107.3 98.8 92.5 90.2 88.5 85.4 78.7 78.7 78.7 78.7 82.9 86.3 89.4 98.2 102.8 105.6 108.8 116.6 129.4 150.7 170.5 181.4 179.6 183 184.6 190.9 193.5 194 196.9 194.1 193.3 198.4 198.9 192.1 190.7 183.2 176.3 168.7 167.8 164.2 160.6 158.1 156.8 157.1 156.4 156.6 154.6 153.1 151.8 147.4 143.1 139.9 141.8 143.8 146.8 148.6 150 149.1 146.5 143.4 138.6 133.5 127.9 121.1 113.8 107 103.6 100.8 97.5 95.1 93.6 93.1 90.5 89.6 87.3 86.8 86.5 83.9 83.3 84.7 83.9 79.8 81.1 83.7 86 86.4 86.8 86 85.5 82.7 82.7 82.7 84 81.9 78.2 74.7
13.1 9.7 2.2 2.2 2.2 3.2 9.5 3.9 4.2 6.4 11.2 12.4 5.7 6.8 6.4 7.2 11.8 15.2 19.8 22.7 22.7 24.2 25.8 25.1 26.3 26.7 29.5 29.3 30.1 30.8 30.9 31.7 32.3 32.9 33.4 33.6 41.7 50.5 56.1 54.7 55 55.1 58.9 62.4 62.9 65.1 75.1 70.3 66.5 66.3 66.8 68.4 65 61.4 58 56 55.6 56.5 58.6 59.8 60.6 60.8 62.4 62.8 63.4 63 65.5 69.9 72.1 74.5 79 82.3 84.9 85.4 84.7 85.8 86.7 87.7 90.4 88.3 84.4 78.9 78.9 78.9 83.9 85.7 88.7 92.4 100.3 110 115.2 117.8 118.9 123.1 122.2 122.7 123.9 123.8 120.7 117.2 116.5 116.7 116 112.9 109.9 103.6 93.2 91.2 89.4 86 78.7 78.7 78.7 78.7 83.4 86.5 90 96.8 102.7 105.2 107.4 126.2 135.5 160.8 185.6 197.4 194 215.2 203.4 200.7 205 209.2 201.1 202 194.8 199.5 203 194.1 191.6 186.5 180.6 168 166.4 162.9 160.2 157.5 157 154.9 155.7 155 154.1 152.4 151 146.5 146.9 143.5 143.1 145.9 148.3 147.8 148.6 148.3 147.7 143 138.2 133.5 126.1 118.8 111.8 106.4 102.6 98.8 96.2 95.1 94.2 93.5 90.6 90 89.1 88.2 87.8 85.7 84.6 83.1 85.8 80.4 83 85.9 87.2 87.4 87.3 86.9 86.3 85.1 86.9 86 84.7 81.2 77.8 75.1
13.8 11.6 3.7 2.3 2.5 -1.6 -1.6 -1.6 7.2 9.8 13.1 15.7 14 10.3 9.3 9.5 8.8 10.1 16.9 18.2 20.5 22.4 24.1 23.9 24.9 25.7 27.6 28.1 30.2 30.7 31.1 31.4 31.9 32.7 33.1 33.9 38.9 47.2 56.9 54.6 53.9 55 59.2 60.3 62 65.7 79.1 73.6 67.9 67.3 67.6 68 65.8 65.5 62 60.1 56.6 56.9 57.3 57.7 58.3 59.2 59.8 59.9 60.3 63.1 65.9 68 71.2 74.2 76.9 83 85.6 86 86.3 86.3 86.7 87.5 89.5 89.3 85.7 78.9 81.4 78.9 83 85.1 86.8 91.1 95 100.2 105.8 109.7 112.7 117.1 119.7 120.8 124.8 127.1 122.1 118.2 117.8 118.5 115.9 112.2 108.4 104.4 96.6 91.8 90.1 86 80.6 78.7 78.7 78.7 83.3 86.9 91.3 96.3 103.6 106.2 111.7 131.1 141.4 170.7 189.8 208.6 218.7 228.6 221.8 220.4 222.4 218.4 206.5 209.6 199.4 200.6 203.7 197.7 193.6 188 182.6 175.7 167.3 167.4 162 158.6 157.1 156.2 156.5 155.6 155.8 153.6 152.8 151.8 150.5 146.1 145.3 147 148.5 147.2 147.6 146.5 144.3 141.6 138 132.4 124.4 116.7 109.8 105 101.1 99 96.9 95.5 94.6 93.2 91.4 90.3 89.5 88.7 88.7 87 84.8 83.6 82.7 80.2 84.8 86.6 88.2 88.3 88.6 87.1 86.7 86.1 87.1 86.4 85 81.8 77.9 74.3
4.1 4.5 1.7 -1.6 -1.6 -1.6 -1.6 -1.6 12.5 14.7 17.1 21.1 19.5 14.3 12.4 11.5 15.2 10.4 10 11.9 19.4 21.2 21.9 22.1 23.5 24.9 26.2 26.6 29.5 30.7 30.8 31.4 31.7 32.7 33.9 32.2 37.1 44.2 56.2 54.3 54 53.7 59.6 61.2 61.3 63.3 72.5 70.3 68.2 69.5 68.9 69.3 70 70.6 65.3 65.5 60.3 57.7 57.3 57 57.1 58 58.4 59.1 59.9 61.6 64.6 66.9 69.1 72.8 75.9 82.4 86.6 86.3 86.7 86.7 86.9 87.3 89 89.5 86.1 84.2 83.9 82.3 82.4 84.2 86.4 89.3 93 98 103.3 106.4 108.6 111.2 113.6 115 122.8 126.3 121.5 117.7 118.5 117.7 115.8 111.2 107.4 104.4 98.7 93.1 90.5 85.8 82.1 78.7 78.7 78.7 83.2 88.5 93.5 97.7 104.4 107.1 117.5 131.4 146 170.5 195 220.5 228.4 240.5 239.6 230.6 230.1 219.5 212.7 205.5 202.3 200.7 207.2 201.2 195.2 192.3 190.4 181.4 170.3 170.1 166.8 160.2 158.6 158.1 158.6 160.3 158.7 157.5 156.6 157.2 153.4 148 147.7 147.5 147.6 147.6 145.8 144.3 142.7 140.1 136.5 132.6 123.6 114.4 108.6 104.4 100.7 98.9 96.7 95.5 94.8 95.8 91 89.5 89.5 88.9 89.4 88.4 86.3 85 82.3 83.4 86.2 87.5 89.1 89.6 88.8 87.4 86.5 85.6 86.3 86.2 85.7 81.3 77.6 73.5
0.8 0.4 -0.1 -1.6 -1.6 -1.6 10 14.2 17.5 19.2 19.1 22 20.5 16.4 17.6 14.9 17.3 15 13 12.2 13 17.5 18.8 21.4 23 24 25.8 25.7 28.5 31 31.4 31.7 32.3 32.3 32.8 32 34.4 41.8 51.8 56.7 52.1 52.6 60.6 63.5 62.1 61.6 65.3 69.6 69.7 69.2 69 69.8 73.5 74.3 69.4 66.9 60.5 58.6 58.9 58.4 58.4 58.6 58.6 58.5 59.3 60.5 62.4 65.3 67.7 71.8 76.6 81.4 86.7 87.6 87.5 87.4 87.7 88.2 88.6 88.5 86.9 85.2 84.5 83.7 82.5 83.6 85.8 87.2 90.3 94.8 100.6 104 104.5 105.5 107 109 109.6 119.7 116.7 116 116.9 114.8 111.4 109.5 106.7 104.8 99.9 93.5 91 86.3 83 78.7 78.7 80.3 85 93.9 97.3 99.6 104 112.3 123.7 140.4 150.7 176.3 195.2 217.8 233 245 244.4 240.8 233.9 222.8 214.5 204.7 203.4 203 203.1 201.1 200.1 195.6 196.9 185.8 176.4 172.2 169.6 163.8 161.3 162.1 161.9 163.5 161.8 162.6 165.3 163.2 159.2 149.5 147.6 147.5 148 146.9 143.5 143.8 142.1 139.6 135.6 131.3 121.4 114 108 103.9 101.1 99.8 98.1 95.7 94.5 92.8 90.8 89.8 89.5 88.9 88.9 88.4 88 86.5 82.7 86.1 88.2 89.8 90.1 90.1 90.1 88.1 86.5 85.3 83.3 84.8 84.3 81.7 78.1 72
-1.6 -1.6 -1.6 -1.6 -1.6 10.7 14.1 18.7 22.4 23.9 24.1 20.6 19.1 18.1 21.6 20.1 18.7 17.4 16.6 19.2 12.5 16.2 19.5 21.9 22.9 24.6 26.1 26.1 27.8 31.4 32 32.5 32.3 32.4 33.4 31.8 31.8 39.2 44.5 51 50.5 51.9 60.1 64.8 62.3 60.7 65.8 70.3 69.9 69.8 69.7 70.4 75 72.5 70.5 69 62.1 60.4 60.3 59.7 59.3 59.8 59.7 59.6 59.3 59.7 61.1 63.3 66.4 71.8 75.1 80.7 86 88.9 88.5 88.5 89.1 89.4 89.4 88.1 87.7 86.4 85.3 84.7 83.4 81.7 84.7 86.1 88 91.7 96.3 101 101.4 101.3 101.9 104.1 105.7 109.1 112.1 114.2 114.3 111.8 108.5 107.1 105.7 105.2 100.8 93.6 90.4 87.5 83.3 78.7 78.7 83.2 87 94.2 98.4 101.9 106.9 112.6 126.4 143.5 153.7 173.4 199.3 217.1 225.8 235.7 235.9 237.6 229 223.2 215.8 203.8 203.4 205.9 207.1 205.5 203.2 202.5 200.1 192 184.2 177.9 173 167.9 165.1 165.5 165.7 168.3 165.8 169.8 172.2 168.6 163.9 150.1 148 147.3 146.8 144.4 142.2 141.6 140.7 138.9 134.2 129.7 122.2 113.2 108.1 103.9 100.8 98.8 97.9 95.9 94.6 92.9 90.8 90.2 88.4 88.6 87.5 84.9 89.4 87.2 82.8 88 89.2 90.7 91.1 90.5 90.3 89.3 85.7 85 82.9 85.3 83 78.4 75.5 71.4
-1.6 -1.6 4.9 -1.6 5.6 14.7 15.6 24.1 26.4 29.9 29.3 24.6 23 21.3 27.4 23.8 20.8 19.4 18.3 20.6 11.7 19.8 18.6 22.1 23 23.8 26.2 25.8 26.7 31.5 32.1 32.4 32.9 32.6 34.5 32.3 31.8 35.9 45.3 50 50.4 51.4 53.1 65.5 65.3 59.4 59.6 70.3 69.8 69.2 69.3 69.8 75.6 75.2 75.1 72.7 66.7 62.9 62.3 63.1 60 61.1 60.7 61.3 61.4 61.9 62.2 61.7 65.2 70 74.1 77.6 85.5 90.3 88.8 89.2 89.1 90.1 89.9 90.1 88.6 87.5 86.4 86.1 84.5 83.1 82.9 84.8 86.2 89.1 94.2 97.7 98 98.7 98.5 101.2 102.8 106.2 110 112.7 112.7 110 106.6 105.2 104.4 102.7 98.6 94 90.6 87.5 84.3 78.7 78.7 85.2 88.2 93.9 99.1 102 107.8 120.2 130.8 145 156.6 168.9 196.5 206.4 221.9 226.3 230.2 229.1 225.9 215 209.1 203.8 202.5 204.6 209.5 212.2 206.7 204.8 202.8 197 192.7 185.7 180.7 175.1 170.1 167.8 169.2 171.3 172.5 176.2 177.9 175.1 165.7 151.9 147.9 146.5 143.6 143 140.3 139.5 137.9 136 132.6 127.5 121.2 114.1 108.6 103.8 100.5 99.1 98.4 95.9 95.2 93.7 91.5 89.4 88.4 88.4 86.3 83.5 85.3 85.8 83.3 87 89.5 91.5 91.2 90.6 89.4 87.6 85.4 84.9 83.2 83.6 80.6 76.9 72.9 70.8
-1.6 9.4 13.7 11.8 13.5 21.3 17.8 27.1 28.2 32 26 23.7 25.7 26.4 30 27.6 24.3 22.3 19.9 21.3 14 19.9 20 20.4 24 22.9 26.1 25.6 25.6 30.9 33 32 32.2 32.8 35 31.8 31.8 36.3 46.4 53.5 52 51.1 51.2 60.2 64.7 57.8 56.7 64.7 68.3 68.3 69 69.4 74.1 75.1 73.5 72 69 65.8 64.7 63.6 62.4 62.7 62.3 62.8 63.2 63.5 64.1 62.7 63.6 67.2 72.4 75.8 84.9 90.4 89.1 89.4 89.2 90.8 91.1 90.8 90.8 90.1 88.4 86.8 86.2 84.8 82.1 83 85.3 87 90.6 94.3 95.4 95.7 96.5 98.5 100.5 103.4 106.7 110.2 110.2 108.2 104 102.5 102 99.4 95.6 93.7 90.5 87.3 84.7 78.7 78.7 86.5 89 94.3 99.1 102.9 107.6 121.1 132.9 144.6 158.5 168.9 188.4 200.8 215.1 220.7 221.1 220.2 218.4 211.4 208.3 201.7 202.7 203.4 212.2 215.7 213 210.3 205.8 200.9 198.3 195.1 189.1 181.4 174.8 170.7 172.5 174.8 177.1 182.6 184 179.5 166.1 154 147.8 144.2 142.3 140 138.7 137.7 137.6 135.6 131.5 125.9 121.3 116.1 110.6 105.3 100.9 99.1 99.5 96.5 95.8 94.7 93.3 91.1 89.9 89.7 87.4 83.5 83.5 83.5 84.2 87.4 89.7 90.7 90.8 90.2 88.6 86.9 85.7 84.5 83.6 80.8 78 75.1 71.8 69.8
7.4 18.1 21.3 17.3 19.5 19.6 19.3 29 27.7 26.2 27.8 23.6 25.6 28.6 31.3 32.9 27.5 24.2 20.8 18.6 16.4 21.4 21.3 20.4 25.4 21.6 26.2 24 24.1 28.7 33.2 30.8 31.1 34.4 33.4 32.3 31.8 36.8 46.7 55.5 56.2 51.4 51 57.3 59.1 55.4 54.7 60.6 67.5 67.7 68.2 69 70.7 73.6 75.1 76 72.1 69.2 67.4 65.5 63.7 63.6 63.9 65.1 65.1 65.5 65.7 64.9 63.1 66.6 71.4 73.3 81.5 87.8 89.1 89.5 89.9 91.4 91.9 92 91.6 91.3 90.8 88.2 87.6 86.3 84.1 82.7 84.2 86.2 88.1 91 92.5 93.8 94.7 96.5 98.3 100.2 103 105.5 106.2 104 100.8 100.3 100 96.8 91.7 90 88.9 87.1 85.8 78.7 78.7 87.5 91 95.3 100 103.7 108 120.1 135.9 148.5 158.7 171.1 184 191.4 197.9 203.7 209.7 211.5 209 204.3 203 200.2 199.6 201.2 208 213.8 211.6 214 209.8 206 203.9 201.3 195.6 187 178.8 175.4 175 175.4 179.2 185.3 184.9 177.6 166.3 155.3 148.2 143.4 140.2 138.1 136.9 136 136.2 135.2 130.1 125.6 121 116.5 112 105.9 101.7 103.1 100.9 98.8 97.8 97.1 95.8 93.5 91.1 90.1 88.9 83.5 83.9 83.5 86.1 88.5 89.7 90.6 91.1 89.3 88.2 86.5 85 84.2 81.9 80.1 77 73.5 70.6 68.4
14.6 26.3 26.3 30.1 21.9 21.1 25.8 31.9 26.5 23.6 23.2 26 29.5 31.7 34.2 35 31 26.1 25.5 17.4 18.3 23.2 22.5 20.8 20.7 21.3 20.3 21.9 25.3 23.1 32.7 28.9 30.8 34.3 33.6 33.4 32.9 38.5 45.4 52.8 57.2 52.7 50.6 50.8 56.3 54.6 52.8 54.8 66.9 66 66.8 68.6 70.6 73.6 76.9 78.4 75.3 71.7 68.7 68.1 64.8 64.2 65.6 66.6 66.4 67.4 67.5 66.8 64.1 65.8 69.7 71.5 80.2 87.9 89.8 90.2 90 91.7 93 92.7 92.4 92.5 92.9 90.3 87.7 86.3 85.9 84.2 83.1 85.1 86.5 88.6 90.3 91.6 92.7 94.7 95.6 97.6 99.7 101.7 101.2 99.9 98.1 97 97.3 95.5 87.7 86.7 87 86.4 85.3 78.7 79.3 85.4 91.4 95.6 99.7 104.1 108.9 118.4 139.5 148.8 157.3 166.5 176.1 183.4 187.2 197.3 196.7 199.9 199.6 200.4 198.1 198 198.5 199.4 206.5 209.4 211.2 215.8 212.3 209.3 206.5 203.6 199.2 192.4 182 177.6 176.8 177.7 180.3 187.5 182.1 174.9 164.6 155.3 147.4 142.9 138.7 137.3 135.8 134.4 134.1 130.9 127.7 124.1 121.2 118 112.1 107.2 104.1 106.4 105.1 102.9 101.8 100.1 98.9 94.8 92.5 90.7 89.2 83.5 83.5 86.1 87.7 89 90 90.4 89.8 88.5 86.9 85.8 83.5 82.8 80.8 78.5 75.6 72.7 69.9 67.2
22 30.1 32.4 37.5 22.5 31.5 22.7 24 23 23.1 23.6 28.3 31.8 34.6 38.6 40.6 37.2 29 26.7 18.6 18.4 23.2 23.3 23.1 20.2 19.6 19.5 22.3 27.3 21.7 32.8 26.9 31.2 31.7 33.4 34.8 34.1 37.9 42.6 58.8 52.3 52.1 50.4 49.9 50.2 51.9 50.9 54.3 60.5 62.4 65.1 67.9 70.6 74.5 77.1 76.5 75.3 73.5 70.7 69 67.6 65.2 66.3 68 68.1 69.1 68.9 68.4 65.8 65.8 69.4 70.7 74.6 87.2 89.7 90.9 90.2 91.4 92.6 92 93 93.6 93.2 92.1 90.4 87.9 87.1 85.5 83 83.7 85.4 86.6 88.3 89.7 91.3 92.9 93.5 94.3 95.3 97.7 96.8 95.5 94.6 93.9 94.1 94.8 87.2 82.3 82.2 83.6 83.6 78.7 78.7 84.3 90.5 95.1 99.6 103.7 108.9 116.9 131.9 140 148.2 158.8 163.6 175.2 180.2 182 186.2 184.9 191.2 195 194 195.4 195.8 197.9 203.9 207.4 210 212.1 211.3 208.8 205.6 202.2 198.6 191 182.4 178.3 177.2 177.3 179.8 183.2 176.1 171.7 161.5 154 145.3 140.5 137.6 135.4 134.4 133.2 131 129.4 127 125.1 121.6 117.9 113.5 108 109 110.1 107.2 106 104.4 103 100.3 97.3 94.4 93.1 89.5 85.7 88.3 88.6 88.9 89.1 89.3 89.7 88.3 86.9 85.3 83.6 82.9 83.1 80.5 77 73.6 70.4 67.3 62.4
27.4 30.9 36.6 31.7 26.6 33 26.9 23.8 23.6 24.5 24.3 32.9 36.6 42.6 44 42.7 40.4 32.3 30 19.4 15.4 21.7 24.5 24.2 20.4 19.2 18.8 21.4 31.3 20.9 21.2 23.6 27.4 30.2 35.5 38.5 34.2 38.2 45.1 56.8 52.7 50.1 52.1 49 48.8 48.6 49.7 55.2 58.8 61.5 63.8 68 69 72.3 73.4 76.1 76.2 76 72.6 70.5 68.8 65.7 67.4 69.2 69.6 70.2 70.6 70 67.5 65.8 68.2 69.6 72.7 83.2 89.6 91.5 90.5 90.5 91.6 91.5 92.7 93.4 94.8 94.3 91.7 90.4 88.7 86.4 84.7 83.4 83.9 84.9 86.9 88.5 89.9 91.4 92 92.1 93.4 93.3 93.4 91.9 91.3 91.1 91.3 91.7 87.2 78.7 78.7 78.7 78.7 78.7 78.7 82.1 89.7 94 99.8 103.4 107.5 116.6 128.9 136.2 142.4 151 155.6 161.5 169 172.9 175.1 178.9 182.3 184.4 187 190.3 194.6 196 201.4 205.5 207.5 209.3 207.8 204 203 200.4 195.9 188.7 183.4 178 175.9 176.7 176.3 175.9 171.5 167.6 158.6 149.8 142.7 138.4 136 134.4 132.7 132.6 130 127.4 125.5 123.7 120.9 117.1 113.9 110.8 112.6 112.8 110.7 109.9 106.4 104.6 102.3 99 97 94.9 90.6 89 89 88.9 88.1 88.7 88.7 88.9 87.5 85.8 83.4 82 81.9 80.9 78 74.4 68.7 61.6 61.3 61
33.7 31.7 32.9 31.7 31.5 45.2 36.5 27.6 27.8 25.6 26.5 42.2 44.3 47.3 49.4 46.2 41 33.8 29.7 21.7 16.3 19.1 24.4 26.6 20.4 18.8 18.4 19.1 20.6 20.8 21.8 23.4 26.2 28.7 38.9 37.9 33.6 39.9 44.8 41.6 47 47.5 48.7 49.9 47.9 47.4 48.3 52.1 58.3 60.9 62.3 65.3 69 70.2 71.5 76.2 76.5 75.5 73.1 70.7 69.3 66.4 67.6 69.9 71 71.2 71.7 72 68.6 64.8 66.7 69.2 71.6 76.2 86 89.6 90.1 90 90.9 91.5 92.6 93.8 95.1 95 92.1 91.3 89.3 87.8 85.7 85.5 84.6 83.3 85.6 87.6 88.9 89.7 90.2 91.3 91.4 91.2 90.3 89.3 89.1 88.8 88.4 89.8 86.4 79.8 78.7 78.7 78.7 78.7 78.7 78.7 86.3 92.4 96.8 99.4 103.6 110.9 124.3 133.2 140.1 143.2 147.9 150.5 156.2 162.6 169.3 173.8 178.4 181.1 182 186.4 192.9 194.7 198.1 200.6 203.3 204.5 202 200 199 194.3 189.8 185.7 181.8 175.9 173.4 172.9 171.2 169.8 166.7 162 154.5 147.9 141.3 137.7 135 133.5 132.7 131.2 127.1 126.3 124.7 123.2 120.5 116.1 114 113.8 113.9 113 112.5 111.8 108.8 105.5 103 100.6 97.5 95.5 94.1 91 90.3 90.1 88.3 88.7 88.9 87.6 86.7 85 81 78.7 78.3 78.1 75.5 69.9 66.3 65.5 63.2 62.7
23.8 32.5 37.4 34.7 35.6 52.3 46.8 35.3 28.8 27.8 37.5 41.7 51.2 48.8 53 48.3 43.6 39.5 29.1 23.2 18.2 21.2 24.8 23.1 18.9 18.4 18.4 19.1 20.9 21.1 21.8 27.4 29.6 29.2 38.2 31.5 34.4 43.4 41.1 41.5 44.2 47.3 46.6 47.7 48.3 47.7 49.5 52.7 56.8 60.2 62.6 64.9 67.7 69.5 70.8 73.4 75.5 76 73.2 71.1 69.2 66.7 68.9 70.5 72.3 72.6 73.2 73.4 70.5 67.7 67 69 70.9 72.7 77.7 82 86.8 88.9 89.9 90.6 92.5 93.3 94.7 94.8 93.6 91.6 90.2 88.1 86.8 86.4 85.8 84.3 85.3 87.1 87.9 88.5 89.5 90.3 90.2 89.4 88.1 87.4 86.9 85 87 86.7 84.7 83.2 78.7 78.7 78.7 78.7 78.7 78.7 83.9 86.9 91.4 94.9 98.7 104 113.6 124.9 133.6 136.6 139.5 141.2 145.6 149.5 159 164.5 169.5 175.5 177.7 178.5 190.9 191.3 195.4 194.7 197.6 199.3 198 196 195.4 190.6 185.6 183 175.9 171.8 170.3 169 165.7 163.8 160.4 156.4 150.6 145.1 140 137.1 134.3 133.1 131.9 130 127.3 125.4 123.7 122.6 119.7 117.2 115.7 114.5 114.9 114.3 114.1 112.5 109.9 108.3 104.8 102.1 99.7 96.9 94.4 92.6 91.3 90.1 89.1 88.1 87.6 86.4 85.7 83.2 79.8 76.9 71.3 71 72.4 69.2 66.9 66.4 64.2 62.2
28.6 31.2 43.1 39.8 39.1 63 60.2 46.7 43.8 35.7 42.9 48.4 53.3 53.4 53.8 52.1 44.8 36.4 31 26.5 19.1 17.2 18 18.2 18 17.8 18.3 17.8 20.8 23 25.4 29.2 32.7 31.6 32.2 35.2 36.5 48.9 46.8 49.3 55.3 54.9 52 50.9 50.6 49.2 54.1 60.2 56.9 60.9 63.3 65 66.5 68.3 70.2 72.3 73.6 75 73.4 70.8 68.9 67.4 68.9 71.2 73.7 72.9 75.2 75.4 72.8 69.4 66.4 68.5 70.4 71.8 74.5 76.7 79.6 83 87.1 89.5 91.6 92.8 93.9 94.8 94 92.3 90.7 88.6 87.7 87.2 86.5 85.2 84.3 86.4 87.3 88 89.2 89.5 89.3 88.1 86.9 86.2 83.8 81.8 83 83.4 80.9 84 78.7 78.7 78.7 78.7 78.7 78.7 82.2 85.1 88.4 90.8 94.4 98.8 105.1 111.7 125.1 128.5 133.1 137.8 142 143.4 150.1 156.1 158.4 168.6 168.2 170.5 176.9 183.3 187.5 188.8 191.4 192.6 194.3 191.8 189.4 186.2 181.7 177.4 170.9 167 166.7 164.5 160.2 157.1 155 151.3 146.7 142.7 138.1 135.8 133.7 132.6 131.3 128.3 126.5 124.8 122.3 120.9 119.1 117.7 116.6 115.5 115.2 115.4 114.6 114.2 111.8 109.5 105.8 103.1 100.6 98.6 95.8 95 93.9 90.2 88.4 87.5 86.9 85.6 82.9 79.4 77.5 73.6 78.8 76.4 74.4 71.3 69.8 67.2 65 64
35.3 32.2 43.7 40.6 41.8 69.5 70.6 62.1 52.8 49 41.6 48.8 57.8 55.1 52.8 46 50.9 41.5 33.4 29.5 20.9 18.5 17.2 18.3 17.2 17.4 19 19.6 18.7 25.4 29.3 31.9 36.6 34.4 37.2 40.6 41 53.3 53.8 54.2 59.4 63.3 58.6 54.9 55.9 53.3 54.2 59.1 58.4 61 64.1 65.4 66.7 68.4 70.1 71.7 72.5 73.7 72.6 70.2 68.9 69 69.8 71.7 74.5 75.5 75 76.9 74.9 71.5 69 68 69.8 71.4 72.8 74.8 77.1 79.7 84.4 87 91.2 92.4 93.3 94 93.7 91.5 90.7 89.1 88.2 87.6 86.6 85.9 84.2 85.9 86.7 87.7 88.9 89.5 89.3 88.6 86.7 85.1 82.9 81.8 80.9 80.9 80.9 85.6 82.5 78.7 78.7 78.7 78.7 78.7 78.7 83.9 86 88.9 92.1 96.4 100.4 106.9 113.7 118.4 124.5 135.1 136.8 142.2 145.3 149.7 152.4 156.5 162.9 164.8 170.8 175 179.4 181.4 185.5 188.7 188.6 188.7 185.5 182.7 178.1 173 165.3 163 161.9 159.4 155.9 153.3 150 146.7 143.3 140.2 137.4 134.4 132.6 131.4 129.5 127.5 125.3 123.5 122.5 120.1 119.4 118 117.3 116.4 115.7 115.6 114.9 113.7 112.5 110.5 106.9 103.9 100.1 97.9 96.4 94.7 94.1 91.5 87.4 86.2 85 83.9 80.1 77.1 79.8 81.2 79.8 76.7 75.3 73.4 70.8 68.9 65.8 63.8
44 37.4 39.3 41 44.6 69.7 72.7 64.9 63.8 53.9 48.4 43.7 54.1 49.1 47.3 44 47.5 41.3 36.6 32.8 23.1 20.4 19 19.2 18.2 18.3 19.6 20.6 24.1 20.2 31.9 33.1 42.4 35.4 39 44.6 42.6 56.8 58.4 57.6 59.7 66 63.5 58.3 58 57.7 55.2 59.5 60.3 59.7 63.3 66.4 66.2 67.6 69.2 70.8 71.6 71.7 71.3 69.2 68.3 70 71.3 73.1 74.6 76.1 77.4 78.2 77.1 74 71.7 67.5 70 70.8 71 74.4 77.3 80 82.6 85.6 88.4 91.5 92.4 93.2 92.9 91.5 90.3 89.5 88.5 88.6 88.3 87 85.1 85.1 86.5 87.6 88.2 89.4 90.3 89.1 87.8 85.8 84.6 82.6 81.7 81.2 84.1 86.9 88.6 78.7 78.7 78.7 78.7 78.7 79.1 82.5 83.8 84.6 88.7 93.6 97.5 104 110 114.6 119.2 129 133.1 135.5 139.6 145.2 146.5 150.8 157.5 161.4 166.3 169.9 172.2 175.8 179.3 182.8 184.4 181.8 179.2 175.6 172.3 165.7 161.5 159.7 157.4 154.7 151.6 148.2 145.7 143.3 141.2 138.5 136.4 133.5 131.6 131.2 127.6 125.7 124.1 122.3 121.1 120.3 119.6 118.3 117.5 117.1 116.1 116.4 115.6 114.1 112.7 110.3 108.1 105.4 100.8 97.2 96.2 94.6 93.6 91.6 86.7 85.3 84 82.8 78.2 80.1 81.6 81.9 78.6 77.1 75.6 74.4 72 70.6 68.1 65.8
45.9 50.8 39.8 44 48.9 59.2 73.1 70.1 65.6 48.5 45 43.3 41.7 44.1 43.3 46.5 43.6 43.4 41.2 33.2 25.5 22.8 21.2 20.1 20.1 20 22.7 23.2 28.1 27 32 33.1 41.9 37.5 37.8 48.1 45.4 46.5 62.4 59 61.7 62.8 63.4 61.5 59 59.2 54.6 57.7 61.3 61.3 62.5 66.2 65.1 66.4 68.2 69.1 70.1 70.6 70.1 69 68.7 72.3 72.9 74.5 75.9 77.1 78.4 80.4 79.3 76.1 73.6 72 69.9 70.8 72.2 75.5 79.4 81.8 82.3 83.3 86.6 90.4 91.4 91.8 91.8 91.2 90.1 89.5 89.1 89 88.7 87.7 85.9 85.1 86.2 87.8 88.8 90.6 90.9 90.8 89 87.2 86.6 85.3 85.1 84.6 85.4 87.4 89.9 86.1 78.7 78.7 78.7 78.7 81 79.6 80.2 83.5 85.5 88.7 93.6 99 105.1 110.6 118.2 121.7 120.8 123.9 127.9 134.5 138.8 144 149.8 155.9 161.9 163.5 166.8 169.5 172.2 174.3 173.8 174.7 171.2 169.5 166.5 160.1 156 154.5 152.7 150.9 147.9 144.3 142.7 139.6 136.7 135.6 133.8 132 129.8 127.9 125.9 124 123 121.4 120.8 119.5 118.2 118.3 117.3 115.3 115.8 117 116.3 114.6 112.4 111.3 107.8 105 100.7 97.5 95.2 93.4 90.9 90.3 86.8 84.2 82.2 79.8 77.2 81.1 81.8 80.9 77.8 76.9 76.5 75.8 73.6 72.5 70.3 67.5
49.5 58.4 47.3 46.9 47.5 50.4 70.5 61.4 59.8 48.8 46.5 45.2 41 42 46 47.7 45.2 41.3 38 36.5 31 25.3 25.7 24.2 24.4 24.3 27.5 27.1 28.7 30.3 24.7 34.4 38.6 39.3 39.3 43 49.3 47.9 58.3 59.8 60.3 64 63.1 64.6 60.6 58.4 58.6 57.7 58.7 60.6 62 63.3 64.1 65.8 67 68.1 69.2 69.6 69.2 69 69.1 71.3 73.6 76.7 76.7 77.3 79.9 82 81.5 78.3 74.6 74 72.4 70.4 73 75.4 78.7 81.5 81.3 82.9 84.2 87.6 90.1 90.6 91.4 90.9 90 89 88.8 89.3 89.3 88.5 86.9 85.9 86.5 87.6 88.8 90.1 92.1 92.1 90.5 88.3 87.8 87.5 86.7 86.3 86.7 88.7 90.8 88.3 79.8 78.7 78.7 78.7 83.3 83.6 82.3 81.9 83.7 85.4 88.2 92.7 100.8 106.5 113.4 120.6 123.9 123.1 122.5 123.3 125 129.4 134.3 140.2 150.5 153.7 156.1 160.2 164.6 165.2 163.8 163.8 161.8 159.2 157.6 152.9 150.3 150.7 147.5 146 143.9 141.2 137.9 137.8 133.5 131.6 131.4 129.6 127.7 125.6 124.3 121.9 120.9 120.3 119.4 119.1 117.7 117.1 117.9 116.6 116.5 116.5 116 114.5 112.4 109.8 108 104.2 99.6 97.3 94.2 91.8 90.7 89.4 85.8 83.5 79.9 78.9 78.4 81 81.7 80.1 78.1 77.7 76.7 76.4 75.6 74.4 71.7 70.3
53.8 61.4 55.6 47.4 45.7 47.3 54.1 58.7 50.5 46.4 49.5 43.8 39.3 44.2 48.2 42.6 41 34.8 35.4 41 35.7 29.4 29 29.3 27.9 28.4 29 30.4 29.8 31.2 23.5 38.4 38.7 40.1 40.8 44.9 47.7 49.3 55.3 61.8 58.3 61.4 61.4 61.9 59.8 58.3 56.7 55.1 56.6 58.7 62.3 62.4 63.4 64.7 65.5 67.2 68.1 69.2 69.3 69.6 69.6 70.4 75.7 79.2 77.6 78 81.9 83.7 83.4 80.9 77.4 75.7 74.5 73.2 72.1 74.5 78.2 80.7 81.6 82.8 83.3 85.6 89.3 90.2 90.3 89.7 89.3 89.2 89 89.5 89.7 89.1 87.5 85.5 86.9 88.2 89 90.8 93.8 93.9 92.3 91.3 90.5 89.6 89.4 87.3 88.4 89.9 93.2 90.7 86.6 78.7 78.7 80.1 83.3 85.2 85.5 85.6 83 83.8 86.6 91.3 96.3 101.6 108.9 117.2 123.6 125 124.3 124.5 123.7 124.5 125.3 125.9 133.3 141.8 147.7 152.9 155.6 156.3 156.3 155.5 153.6 151.8 148.9 146.6 145.4 145.5 144.1 141.6 139.2 136.7 134.5 133.6 131 127.2 126.1 126 124.6 123.1 122.5 119.7 119.5 118.7 117.4 118 117.3 118.2 117.4 117.4 116 116 115.8 113.9 111.8 110.1 107.1 103.1 98.8 96.3 93.6 91.8 89.8 87.5 84.2 82.2 79.8 79.6 79.9 80.9 81.3 80.3 78.7 78.7 78.6 77.5 77.8 75.7 74.6 71.6
50.7 58.9 61.7 46.8 44.2 44.2 56.1 50.4 47.6 46.8 50.4 39 37.8 40.3 34.1 34.1 34.1 40.3 43.4 47.1 41.2 32.8 31.7 34.9 31.4 31.4 29.1 31.8 29.6 30.3 27.2 40.5 44.4 41.4 42.4 43.5 47 54 54 55.4 56.8 59.5 60.1 59.5 57.9 57.8 56.6 55.9 56.2 57.9 61.4 61.2 61.9 63.1 64.3 65.8 66.5 68.3 69.1 69.6 70.3 71 75.8 84.3 78.9 77.6 81.4 84.9 85.6 83.1 79.9 76.6 75.3 74.6 73.5 74.2 77.1 79.7 81.1 82.8 83.8 84.6 87.2 88.1 89.2 89.3 89.2 89.2 88.6 89.6 89.7 89.7 88.3 86.7 87.6 88.4 89.6 91.1 95.3 96.9 95.3 94.7 94.2 93.1 91.9 90.7 90.9 91.7 93.6 93.3 88.2 81.5 80.4 81.6 85.1 87.6 89.8 91.6 86.5 82.5 85.2 90 94.3 98.7 105 112.6 120.8 125.6 126.4 126.8 128.5 128.8 129.2 128.4 127.5 133.6 140.9 146.3 148.2 148.5 148.1 148.3 147.3 145.7 143.9 142.7 141.5 140.9 139.4 138.4 135.7 133 130.4 128.5 126.3 123.5 121.6 121 121.9 120.7 119.1 117.9 117.7 117.4 116.5 116.5 116.8 117 116.5 116.7 116.1 115.2 115 113 110.8 109.3 106.1 101.4 98.4 95.6 93 91 89.4 85.6 83.6 81.2 78.5 80.1 80.5 81.7 81.2 80.8 80.7 81 80.8 79.3 79.5 78.7 76.8 73.9
52.7 54 55.5 45.2 42.9 41.4 45.1 48.4 42.9 36.3 34.1 34.1 42.1 34.1 34.1 34.1 34.1 46.6 49.8 52.3 43.5 35.3 33.3 37.2 34.9 37.4 31.6 29.5 29.5 26.9 32.1 37 45.4 43.7 43.3 44.5 45.6 50.3 56 56.4 58.3 59.4 59.2 57.9 57.7 57.4 58.4 56.4 56.4 57.1 59.6 61.1 62.3 64.2 64.3 64 65.6 66.6 68.7 69.8 70.8 71.6 73.3 83.8 78.8 78.4 79.8 84.9 87 85.4 82.8 78.1 76.8 76 75 73.8 76.5 79.4 81.3 83.1 84.1 85.2 86 87.2 87.9 88.6 88.4 88.8 88.8 89.2 89.8 89.9 89 89 88.4 88.6 89.7 92 96.7 98.4 98.3 97.3 96 95.1 94.7 93.8 94.3 94 94.4 94.9 91.8 86.7 82 82.9 86.4 88.5 92.8 97.7 91.4 84.8 83.7 87.5 93 97.9 102.4 108.2 115.7 124.1 125.8 127.3 128.9 131.7 135.6 137.3 134.7 133.3 135.8 138.8 140.2 140.1 140.2 142 141.3 139.2 139.3 138.1 138.2 136 136.3 135.3 133.4 129.2 126.5 123 123.9 120.6 119.5 117.7 117.5 117.5 116.6 116.3 116 115.9 114.9 115.6 115.8 115.7 116.3 116.3 115.6 115 113.6 112.7 111 108.9 105 100 96.4 95.3 92.7 89.6 86.8 84.7 83.1 80.5 80.3 80.9 81.2 81.3 82.1 81.8 82.7 84.5 83.4 82.7 82.5 81.5 79.8 75.4
55.7 47.3 49.9 42.7 39.9 39.4 36.4 34.1 34.1 34.1 34.1 34.1 38.2 34.1 34.1 34.1 36.8 42.1 45.6 53.7 47.5 38.8 35.6 40.2 40.2 36.4 31.9 29.1 28.3 31 34.9 37 50.2 45.7 43.9 45.8 47.4 48.9 52.6 56.8 59.6 59.4 58 56.5 55.9 55.9 56.5 58.4 56.8 57.2 59.1 62.6 63.1 64 65.5 64.9 65.5 65.7 68 69.3 70.7 72.2 73.4 75.7 77.1 79.9 79.2 84.2 88.9 88.3 85.9 81 78.3 77.1 76.5 74.8 76.4 79.3 80.5 82.2 84.4 85 85.1 86.4 87.1 87.3 87.6 88.3 89.1 89.5 89.8 90 89.8 89.4 89.4 90.4 91.5 92.1 97.8 100.1 101.1 99.9 99.3 97.8 97.1 96 96.7 98.1 95.7 95.5 93.4 89.8 86.2 84.1 89 90.7 93.3 100.5 98.3 90.4 83.4 86.4 92.3 97 101.9 106.8 113.6 120.1 123.5 125 126.3 129.5 135.9 138.3 135.5 133.2 132.9 133.7 134.7 134.7 132.9 132.8 134.1 135.6 134.7 134.2 132.4 131.8 131.5 132 128.4 124 122.5 121.4 121.1 119 115.9 115 114.5 113.5 113.6 114.6 114.4 114.8 114.1 114.2 114.8 114.8 114.7 113.7 114.2 113.9 112.6 111.9 109.8 107.3 103.1 98.9 95.6 94.4 91.3 88 86.2 84.4 82.2 80.7 81 81.3 81.7 82.1 82.5 84.3 87.1 87.8 86.3 85.3 84.6 84 81.1 77.6
55.1 44.7 46.4 41.7 38.6 35.7 34.1 34.1 34.1 34.1 34.1 34.1 34.1 34.1 43.9 38 42.6 44.6 46.7 47.3 51.1 41.2 38.1 43.6 39.7 36.4 32.7 28.2 27.2 31.2 37.2 39.4 39.9 47 43.1 46.1 47.9 49.2 51.9 56.4 59.8 58.9 56.7 54.9 54.2 54.5 55.6 55.9 56.5 57.2 58.8 62.5 63.5 64.4 68.5 65.3 66 67 68.1 69.9 71.2 72.3 74.1 75.9 77.4 79.2 79 82.5 91 90.4 87.9 83.2 79.8 78.5 77.4 75.8 75.7 78 80.1 82.5 84 85.1 85.4 85.1 86.1 85.7 86.3 87.5 88.9 89.6 90 90.9 90.3 90.5 91.2 92.1 92.4 92.1 98 102.7 104.8 103.3 102.5 101.9 100.4 100.1 99.8 100.9 98.5 97.2 96 92.8 89 88.4 91.2 93.2 94.4 101.8 104.6 95.4 86.1 85.8 89.8 94.8 100.7 106.8 111.9 116 120.6 122.3 124.7 127.3 132.3 135.4 134.4 131.7 131 131 130.3 130 127.4 128 131.1 131.9 131.2 130.5 129.9 128.1 126.3 125 123.4 122 118.7 118.5 116.8 116.3 113.9 113.4 113 112.2 112.5 113.3 113 112.9 112 112.7 113.1 113 112.6 112.9 111.9 111.6 111.6 111.2 109.1 104.9 100.8 97.6 95.1 93.1 90.5 87.9 85.2 83.8 81.4 81.6 79.8 80.8 83.5 83.2 85.6 88 89.4 89.7 89 88.7 87.5 86.5 83.5 80.1
55.6 46.8 39.8 37.8 34.4 34.1 34.1 34.1 34.1 34.1 34.1 38.6 38.9 43.1 41.5 41.2 43.2 47.2 49.6 53.6 50.1 44.7 40.6 43.1 38.6 38 35.8 28.7 27.3 28.5 36.2 39.6 40.1 40.9 41.6 44.2 48.6 49.6 52.1 56 59.8 58.7 55.4 53.5 53.1 53.3 54.5 56.4 56.6 56.5 58.3 62.3 63.2 65.3 67.1 66.4 67.1 67.8 68.6 70.2 72 73.1 74 76.2 77.7 77.7 77.9 81.7 92 91 89.3 84.8 81.6 80 78.8 77.4 75.3 78.3 80.3 82 84.3 85.7 85.4 84.3 84.6 84.3 85.4 87.2 88.4 90.1 90.8 91.6 91.7 92 92.4 93.1 95.3 95.3 98 103.3 105.8 105.8 106 105.1 105.2 103 103.6 104.9 102.2 99.1 97.9 96.7 92.9 92.7 93.7 95.3 96.7 97.6 99.4 95.6 88.7 84.2 86.9 91.9 98.7 106.1 112 114.9 117.8 120.5 122.3 125.4 128.3 131.7 131.5 130.6 128.9 128.3 127.8 124.3 122.7 125 128.1 128.4 128.6 128.3 127.7 124.3 122.1 119.9 118.1 118.1 116.7 116.1 114.5 114.1 112.6 112.8 111.8 111.1 112 112.5 111.9 111.9 110.3 110.7 111.3 110.9 111.8 110 110.9 109.5 109.4 108.7 105.7 103.8 98.6 96.2 94 93 90.4 86.7 84.8 82.5 82 81.8 80.7 80.7 82.5 83.9 89 91.4 91.5 92.6 91.2 90.4 90.2 88.9 85.3 82.5
54.3 48.5 39.3 34.1 34.1 34.1 34.1 34.1 34.1 34.1 38.3 42.5 47.5 43.3 47.3 42.7 45.3 51.7 50.3 53.8 50 47.6 43.7 40.3 39 42.4 44.5 35.1 28.5 27.3 31 38.3 38 40.1 41.6 43.4 47.5 50.1 51.8 53.7 58.2 57.6 53.8 51.9 51.2 51.2 53.7 56.9 56.9 55.8 57 61.9 63.4 65.6 66.9 67.2 67 67.6 68.5 70.1 72.3 73.9 75.5 76.6 74.6 74.6 74.6 79.3 92.2 92.1 89.8 86.9 83.3 80.9 79.6 78.5 77.6 76.6 80.1 82.5 84.7 85.9 85.5 83.6 80.5 80.5 82.6 86.1 88.3 90.7 91.9 92.1 92.6 93.4 94 95.2 97 98.4 98.2 103.4 107.1 109.6 109 109.1 110.2 108.4 108.5 111.3 110 105.3 102.1 99.8 97.5 96.3 96.8 97.5 98.9 99.2 97.1 94.8 91.1 85.4 85.8 89.8 98.5 102.9 110.1 113.6 115.7 118.4 120.4 122.6 125.7 128.1 128.8 128.3 127.5 126.8 124.5 122.7 123.7 124.1 125.3 126.4 127 126.3 124.2 121.2 119.3 117.7 116.9 116.8 116.1 114.6 112.7 114.1 112.3 111.9 111.7 111.2 110.7 110.7 110.6 108.7 108.8 109.6 109.6 109.9 109.4 108.2 106.5 106.6 106.7 106.2 103.2 101.1 97.4 96 94.3 91.5 88.2 84.9 83.9 82.1 80.8 81.1 80.8 81.3 83.1 87.1 92.4 92.6 92.9 93.2 93.1 92.8 91.4 90.4 87.9 84.6
48 43.3 39.6 34.1 34.1 34.1 34.1 34.1 34.1 34.1 40.8 49.1 50.9 47.4 43.8 43.3 44.7 50.2 50.6 54.3 51.7 49.9 46.6 43.1 40.6 43.4 48.9 41.7 33.1 28.3 29.2 35.3 37.3 39.7 40.7 42.3 48.1 50.7 51.3 51.9 55.8 57.4 53.3 51 50.1 50.4 51.9 56.6 58.9 54.4 55.3 57 60.4 65.6 68.1 67.9 66.7 67.7 68.4 71.5 73 74.5 75.3 77.5 74.6 74.6 74.6 79.5 91.5 92.3 92.1 89.4 85.1 82.2 81.2 79.4 79.4 78.5 79.2 82.3 84.6 86.4 86.1 83.8 80.5 80.5 80.5 84.7 87.4 90.7 93 93.1 93.8 94.9 95.4 96.8 99.3 100.5 100.5 102.7 108.8 112.4 111.8 111.9 114.3 112.3 112.3 115 115.2 110.9 105.8 102.6 101.6 100.3 99.8 99.8 101.9 101.5 99.8 96.7 92.9 87.5 84.4 87.4 94.8 100.3 106.1 111.2 114.3 116.6 118.5 120.2 122.9 125.6 126.9 126.5 126.3 125.1 122.7 123.7 124.9 124.2 124.8 124.9 125.6 124.1 122.1 120.8 122 119.5 118.4 118 116.5 115 113 112.5 112 111.6 111.1 110.3 110.3 108.9 106.7 106.3 107.3 108.6 107.9 107.6 106.7 105.2 104.2 103.8 102.5 102.2 100 98.9 97 96 94.2 91.7 87.9 85.4 83.3 84.4 83.9 82.9 81.9 82.5 84.9 91.1 93.6 93.9 94.7 95.1 94.5 94.6 92.7 91.3 88.7 86
43.6 43.9 40.1 34.1 34.1 34.1 34.1 34.1 34.1 36.8 45.9 48.9 50.8 47 49.9 48.1 46.5 50.9 50.4 58.8 55.6 52.5 48.1 46.1 43.7 43.5 41.4 41.4 42 30.7 28.8 32.3 35.9 42.1 41.6 42.3 44.3 46.7 49.9 50.5 53.2 55.2 51.9 50 49.1 50.1 49.8 51 50.3 51.1 54.2 56.5 59 65.2 69.3 68.7 67.1 67.5 68.3 71.3 74.2 74.5 76.5 77.4 78.1 74.6 74.6 80.9 87 90.7 92.8 91.7 87.3 83.8 81.6 80.6 80.2 79.6 78.1 83 85.4 87 87 82.8 80.5 80.5 80.5 83.3 86.8 90.6 94 95 95.3 96.8 97 98.8 100.8 102.4 101.1 103.1 108.4 113.5 113.5 113.4 114.8 114.5 114.6 116 117.6 116.2 110.4 107.8 104.9 103.1 102.3 101.9 102.2 103.5 105.6 97.9 94.2 90.4 86.4 87 91.9 98 101.4 108.2 111.7 114.3 116.3 117.8 120.5 123.1 125.9 125 124.5 125 125.7 126.6 125.5 124.9 124.4 124.9 125.3 123.6 121.4 123.9 125.5 123.7 122.2 122.6 119.3 115.8 112.9 110.5 110.7 109.8 110.1 110.2 110.1 108.8 106.8 105.5 105.3 105.8 105 105.6 104.1 103.4 101.3 100.8 100 99.8 98.2 97.1 97 95.5 93.2 90.3 87.6 85.1 85.8 88.3 88.5 86.9 83.8 84.8 89.3 94.8 95.8 96.2 96.6 96.8 96.6 95.7 93.7 93 89.6 86.8
42.6 40.8 38.3 34.1 34.1 34.3 37.9 34.2 34.1 40.5 40.9 43.9 47.7 57.9 58.4 52.9 48.2 49.7 51.5 60.3 59.1 52.1 48.8 48.1 46.7 45.4 43.2 41.3 41 38.2 31.8 29.7 33.5 42.7 43.7 44.2 40.9 45.5 47.9 48 47.7 48.7 49.8 48.7 50.4 50.6 51.4 52.8 53.6 54.4 55 54.8 58.6 65.4 72.8 69.6 66.9 67.3 68 69.6 74.8 75.8 77 78.4 79.5 76.6 78 81.6 86.4 90.3 92.7 94.5 88.2 84.7 82.9 81.7 81.1 80.1 77.6 82.8 85.4 87.8 88.1 84.1 80.5 80.5 80.5 83.3 86.9 89.2 95.2 96 96.9 97.3 98.8 99.8 102.3 102.4 102.7 103.7 106.2 112.6 113.3 114.4 114.9 115.5 116.9 118.3 118.4 118.2 114.4 112.3 108.4 106.7 105.2 104.5 103.3 104.1 103.9 99.7 96.9 92.9 89.4 87.3 88.9 95 99.1 104.5 108.3 111.2 114.4 116.2 118 119.8 124.3 123.4 124.7 125.7 127.8 128.5 128 126.9 124.7 127 127.4 125.4 124.5 128.5 129 127.4 125.7 124.1 120.1 117.9 114.4 111.7 110.7 109 109.8 110.8 109.5 106.4 107.1 107 106.2 102.8 102.7 102.2 101.6 100.5 99 98.1 97.7 96.9 96.5 95.5 95 93.4 91.6 88.8 87.3 84.4 90.1 93.3 92.8 88.8 84.7 89.3 94.4 96.5 97 97.7 97.7 97.3 96.9 96.5 95.5 93.8 90.2 87.4
41.7 41 41.3 38 36.6 41.8 42.3 40.2 34.1 34.1 47.2 46.9 56.1 64.2 65.6 63.1 58.5 53 53.7 60.5 64.4 55 47.5 48.7 49.3 46.1 45.2 47.9 40.2 40.4 45.3 31 30.4 32.2 34 35.4 36.7 39.3 45.6 43.1 47.4 48 49.9 51.1 51 50.7 53.3 57.6 57.7 57.2 55.9 55.3 59.3 63.2 73.2 72.4 67.2 66.5 67.4 69.3 73 75.4 77.2 78.5 81 80.3 80.5 82 84.5 88.6 90.6 92.3 87.8 85.1 84.3 82.8 82 80.4 79.6 83.5 86.1 88.8 89.3 86.4 80.5 80.5 80.5 82 86.8 89.1 94.9 96.7 98.2 98.5 99.3 101 102.8 102.9 103.4 104 105.9 110.5 115.3 115.3 115.7 116.7 118 119 119.3 119.6 118 114.7 111 108.7 108.3 106.6 104.8 104.9 104.2 101.9 99.5 99.4 96 90.8 88.5 91.9 95.4 100.2 105.7 109.3 111.3 113.5 113.2 118.2 121.4 123.9 125.9 128.3 131.1 130.7 128.7 127 126.3 129.2 128.8 126.1 128 131.9 130.6 128.9 127.5 125.2 122.3 120.4 117.1 115.2 113 109.6 110.3 110.8 109.2 109.7 109.1 107.8 106.8 105 102.8 100 98.7 98 97 96.6 96.3 95.7 94.7 93.9 92.9 91 88.7 87.2 86.7 89.7 95.8 97.5 95.5 89.8 87.9 92.9 96.4 97.5 98.6 99.8 99.2 98.4 98 97.1 96.2 93.9 91 88.5
43.4 45.6 44.9 40.3 39.3 45.7 47 46.3 34.1 34.1 55 53.8 62.3 70.1 71.4 69.3 64.2 57.3 55.1 58.1 62.7 57 45 46.8 47.5 45.2 45.1 43.6 45.3 39.2 40.8 36.2 31.5 30.6 32.3 32.8 33.8 37.5 45.8 48.9 50.4 53.7 53.8 53.8 51.8 51.3 55.9 60.4 61.8 58.9 57.7 55.9 55.5 58.7 64.9 65 65.5 64.8 66.1 67.9 71.2 74.3 76.1 78.7 81.9 82 81.5 82.8 84.8 86.9 89.5 89.9 88.8 86.4 84 83.4 82.5 81.6 80 83.6 86.3 89.1 91.6 88.4 80.5 80.5 80.5 81.8 86 88.4 92.6 96.5 98.7 98.9 99.7 101.9 103.3 103.9 104.5 104.2 105.3 107.6 112.3 115.8 117.1 116.9 118.3 119.4 119.6 119.8 119.3 118.1 115 111.9 110.3 108.1 106.6 105.4 105.3 103.3 102.2 102.6 100.2 95.5 87.5 89.8 92.4 97.5 103.4 107.8 109.1 109.8 113.5 118.4 122 124.8 127 129.8 131.9 131.1 129 127.7 128 131 129.6 128.8 130.7 132.2 131.3 130.3 129.1 127.2 126.2 123.6 120.8 118.4 114.6 113.4 114.4 112.8 112.3 111.3 110.7 109.2 106.3 104.4 102.6 100.4 95.4 96.5 95.2 95.7 95 94.4 93.6 92.8 91.6 88 90.1 88.6 90.4 95.8 100.5 101.3 96.9 91.2 91.5 95.5 97.6 99.2 99.8 100.6 99.5 98.5 99.1 96.4 96.5 94.2 91.5 89
