ncols 200
nrows 82
xllcorner 250000
yllcorner 780500
cellsize 50
514.7 537.1 543.2 563 561.8 577.9 577.2 584.4 553.3 539.7 534.7 532.3 527.3 525.9 526.7 524.5 527.9 542.5 555.4 550.8 552.5 543.9 544.3 548.1 556.7 563.8 574.8 583.5 581.4 579.5 575.9 576 578.8 571.4 562.5 561.8 558.3 559.3 559.2 556.8 553.7 548.2 542.9 537.1 538.5 537.9 536.9 533.5 530.6 527.8 521.9 512.3 502.8 494.6 488.7 484.2 482.5 486.2 486.3 485.5 481.6 477.6 474.5 472.6 471 473.8 471.6 470.3 472.2 473.7 475.7 480.7 488 496.3 506.3 513.5 519.6 523 526.3 537.1 528.8 511.6 486.1 459.1 439.8 431.1 424 416.9 416.5 416.2 408.1 398.3 387.6 379.7 373.6 363.1 365.1 366.5 366.7 367.2 371 379.6 386.5 393.2 398.2 408.8 418.5 430.5 444.2 458.7 475.5 490.6 506 521.7 535.1 549.1 563.7 576.6 593.9 609.1 613.9 617.2 626.1 631.6 639.5 653.1 658.7 657.6 645.6 630 618.5 606.3 598.8 594 589.4 583.2 576.2 570.3 562.9 554.9 549.7 544.4 539.9 529.3 515.5 515 526.2 508.2 518.3 529.2 528.1 535 538.6 542.7 546 549.6 554.3 558.3 561.8 566.6 571.7 577.3 582.1 588.8 593.6 599.8 604.8 610.1 615.6 621.2 627.2 633.8 641.2 647.9 656.3 665.4 674 683.9 695 705.8 717.7 730.2 741.7 756 766.1 778.6 792.2 806.7 821.5 832.6 839.5 845.2 852.6 864 871.7 875.1 876.6 879.9 876.3 870.7
501.4 519.7 532.8 537.1 553.3 561.6 563.9 548.8 527 524.5 524.5 524.5 524.5 524.5 524.5 527 536.6 556.6 560.8 561.7 556.4 558.1 570.9 565.6 584.3 592.2 599.3 597.3 591.7 588.2 586.5 585.3 585.1 572.8 566.8 564.5 563.2 562.3 562.4 559.8 554.6 549.6 543.9 542.3 541.9 540.6 540.9 537.6 534.2 530.2 523 513.6 505.6 499.2 490.4 481.3 488.9 489.9 490 489.3 486.9 482.5 477.2 474.1 475.1 475.5 470.4 474.7 476.5 478.7 481.9 487.7 494.8 502.5 513.6 520.1 526.9 527.8 535.7 535.5 520.5 504.7 479.5 454.7 439.2 432.6 424.4 419.5 415.9 414.2 406.9 396.5 384.2 378.2 370.4 363.9 367 366.9 367.7 368.4 375.7 382.9 390 396.1 402.8 410.7 421 432.3 447.2 463.4 482 498 512.1 527.5 541.4 554.1 567.7 582.7 598.2 606.4 617.5 622.1 633.5 630.7 635.3 643 652.5 656.3 639.1 626.1 611 600.9 594.9 590.3 586 581.3 574.3 568.3 561.3 555 549.3 543.8 537.6 524.7 513.2 524.1 529.2 511.3 514 525.4 534.2 535.7 539.5 543.2 547.9 552.3 556.3 560.1 564.3 568.7 573.8 578.2 583.8 589.5 595.4 601.4 606.4 612 617.7 622.6 628.4 634.4 641.7 648.6 657 665.3 674.7 685.1 695.6 706.8 718.2 728.2 742.6 754.7 766.8 775.5 790.4 804.1 821 832.9 841.8 849.1 858.4 873.5 882.8 885.6 890.5 891 885.1 876.4
489.8 506.6 518.3 525.4 532.6 531.7 526.7 524.5 524.5 524.5 524.5 524.5 524.8 525.8 527.9 537.7 547.5 568.7 569 566 570.7 577 581.6 597.3 600.9 613.6 625 618 609.2 600.3 596.5 592.9 587 574.8 571.5 570.3 566.6 564.2 561.5 559.5 555.9 549.3 546.6 545.7 545.1 544.4 543.8 541.2 537.5 532.2 523.7 515.4 507.9 499.5 488.3 488.6 496.6 495.3 494 492 490 484.3 479.1 475.8 477.9 475.4 477.1 477 480.1 482.1 486.4 494.1 501.1 507.4 518.5 525.4 531 536.6 543.1 535.1 514.9 506.7 476.5 451.8 440.1 430.3 423.7 421.3 416.6 415.1 404.1 393.1 380.9 377 368.1 364.9 367.4 367.9 368.7 369.5 374.4 385.3 394.6 397.9 405 414.6 423.7 437.1 450.7 467.9 487 503.6 518.3 534.6 547.4 561.1 574.3 587.2 598.3 609.3 621.4 628.5 640.1 630.4 626.4 633.7 648.3 641 627.8 613.7 602.2 594.1 589.4 585 581.5 577.7 571.8 566.1 560.2 554.5 548.9 543.3 535.5 514.6 520.8 532.3 532.1 520.7 512.5 522.4 532.8 538.4 542.1 545 549.1 553.3 556.6 561.1 566.2 570.3 576.1 580.3 586.3 590.2 595.5 601.9 607.5 613.8 619.9 624.6 630.5 636.9 643.2 648.9 658.2 666.2 676.1 686.5 697.3 708.6 719.4 730.5 741.5 753.6 766.8 775.1 792.5 806.5 821.3 832.9 842.7 851.3 865.7 881.7 891.8 894.4 899.8 898.1 890.1 876.4
491.9 506.3 516.1 522.3 521.2 521.3 526.2 531.9 532.5 534.6 533.3 529.6 529.3 531.2 540.4 543.2 554.6 572.4 575.7 577.7 582.8 585.9 597.6 613.2 624.4 646.4 644.5 633.4 625.3 619.1 612.9 608.1 593.6 583.6 579.9 577.8 573.9 571.2 568.5 563.4 557.3 550.2 551 550.1 547.9 546.9 545.3 543 539.2 533.9 525.2 515.8 508.3 499.5 491.7 499.5 500.9 500 498 496.7 493.4 485.5 481.8 479.2 479.9 478.9 480.7 481.1 483.8 486.5 490.7 498.1 506.2 512.5 520.8 529 533.3 541.8 542.7 528 513.7 498.1 472.9 452.3 442 431.6 423.7 420.2 415.5 410.7 400.6 388.8 380.8 376.6 367.6 366.3 366.6 368.7 369.6 371.5 381.4 390.1 395.7 401.1 408.1 416.8 426.9 438.9 455.1 473.2 491 509.9 524.2 540.3 553.5 567.6 579.8 595.4 608.1 621.7 629.4 635 633.4 625.3 620.1 625.4 632.3 623 609.8 601 594.3 586.5 584 579.9 576.7 573.2 569 563.2 558.8 554.1 549.2 541.9 525.5 514.9 530.7 535.8 535.5 516.4 517.1 516.8 527.4 536 541.6 545.8 550 553.4 557.3 561.7 567.9 573.5 578.1 582.7 587.8 592.1 596.7 603 608.7 614.6 619.5 624.9 630.6 636.6 641.6 649.5 659.2 666.8 677.1 687.5 699.1 711.2 723.5 733.2 742.1 754.9 767.5 784.8 796.3 810.2 822.2 832.2 841.7 855.6 868.1 884.5 895.1 900.2 906.7 904.8 892.4 872.1
496.1 505.1 514.5 518.7 523.2 526.6 531 534.6 538.1 541 542.5 538.9 535.1 545.4 554.6 558.3 563.5 575.3 585.1 590.7 593.9 597.5 618.1 623.4 653 663.9 663.1 653.3 642.4 636.2 630.4 617.7 602.8 594.5 589 583.4 580.3 576.2 572.4 564.9 558.6 554.6 555.6 554.3 551.9 549.5 547.1 543.9 539.8 534.2 526 516.8 507.8 496.1 506.9 508 506.7 505 503.2 501.3 496 489.1 484.7 482 482.1 481.6 483.1 484.2 486.3 490.9 494.9 500.8 510.5 516.1 522.2 531.2 535.7 540.4 543.4 522.9 509.7 495.5 468.1 453 441.4 433.3 427.1 419.9 414.1 406.8 397.7 386.3 381.6 383.4 373.5 367.7 366.8 368.5 370.4 373 381.8 392.9 398.5 403.2 410.1 419.1 430.8 443.5 460.9 481.3 500.6 517.9 531.5 548.4 560.6 573.7 593.2 612 618.3 629.9 636.1 637.3 635.8 619.7 613.8 614.9 613.7 608.7 600.8 593.2 584.8 580.3 577.6 573.3 571.3 567.9 565.4 561.4 557.3 553.1 547.8 528.9 516.3 520.1 536.5 538.2 537.7 519 520.8 538.4 525.8 525.6 538.4 544.4 548.7 552.3 556.4 560.8 566.6 572.8 577.5 582.8 587.3 591.8 597.3 603.8 610.4 615 621 626.3 632.1 636.8 640.8 650.2 659.3 667.3 676.7 687.4 699.2 711.4 725.5 735.4 746.1 757.3 775.3 789.1 800.4 812.5 822.5 832.7 842.2 858.8 869.8 885.1 896.4 904.5 910.5 907.9 891.9 868.9
498.9 506.3 516.6 522.9 527.6 530.1 536.1 542.9 548 547.6 549 543.4 549.8 555.4 560 572.8 575.2 579.4 600.8 598.2 602.2 617.3 626.6 654.9 672.8 679.9 677.5 666.1 656.9 650.2 638.3 624.2 621 613.6 603 592.2 586.2 582.5 573.6 573.4 566.3 562.1 560.2 556.9 554.6 552.7 549.3 545.1 541 535.3 528.7 519.4 508.9 501.6 514.6 515.2 513.2 511.3 508.3 505.1 498.4 490.8 487.2 486.2 484.6 483.4 485.6 487.9 491.3 494.5 499.8 507.4 514.2 519.6 525.1 533.1 537.1 537.8 536 521 503.9 489 467.5 452.8 443.6 433.7 426.6 419.7 412.1 405.6 394.5 385.7 382.1 393.5 381 371 368.6 367.5 371.1 379.8 386.3 391.7 399.7 407.7 414.5 424 435.1 449.1 469.3 491.3 509.5 524.3 539.5 553.8 569.2 588.7 611.1 620.8 628.8 635 635.6 632.1 631 610 605.3 603.1 600.7 597.5 590.9 583.2 579.3 574.9 571.7 567.3 564.8 563.9 561.7 559.1 555.9 552.5 542.1 517.6 517 527 541 540.8 539.3 531.7 521.8 536.4 539.8 531.3 531.6 538.8 542.8 546.6 551.9 558.8 561.8 569.7 575.3 581.7 586.7 591 596.6 603.8 609.9 614.7 620.5 626.8 631.9 637.2 642.2 651.1 659 667.4 676.7 687.8 700.2 713.7 726.4 737.6 747.3 763.1 778.2 791.2 803.6 814.1 823.6 833.4 846.7 860.8 871.2 883.6 898.3 904.8 909 905.6 891.6 864.3
503.3 516.4 521.5 525.1 529.1 537.8 540.9 547.8 555.4 552.5 555.8 554.5 557.9 563.6 568.4 576.9 582.2 596.9 614.6 619.9 613.4 628.5 644.4 673 688.1 692.5 684.7 677.4 668.4 660.7 644.9 638.7 634.4 626 619 604.9 592.3 583.8 582.8 578.2 570.4 568.2 565.8 562.9 560.7 557.3 553.7 548.6 543.4 538.7 530 516.9 509.2 521.3 523 524.5 522 518.5 513.7 507.1 501.1 494.5 490 489 487.5 488.7 489.6 491.4 493.7 499.6 504.3 512.2 518.3 522.4 528.2 533.4 535.7 535.4 532.8 520 499.5 483.3 465.9 461.2 445.6 435.4 428.3 418.3 409.8 403.3 395.1 385.6 388.1 397.1 381.6 373.3 369.8 368.5 370.8 381.7 386.6 395.5 404.9 409 417 426.7 438.9 456 475.7 497.6 513.8 528.2 545.1 564.1 583.1 608.6 618.7 625.8 636.2 627.4 631.2 630.3 609.7 600.3 597.4 594.4 591.7 587.9 581.3 574.6 571.7 567.7 564.2 560.4 559.8 561.2 558.3 556.6 554.4 552.1 543.5 517.8 519.1 535.7 544 543.4 542.6 530.3 522.3 537.4 543.2 545.1 546 547.4 551 555 552.6 562.4 567.6 570 574 580.8 585.9 591.2 596.8 603.1 609.5 615.2 621.5 626.4 632 637.8 643.6 651.5 658.5 667.7 676.9 688.7 701.6 716 728.1 737.5 749.4 764.1 778.2 791.6 804.4 814.8 825.2 834.7 848.8 860.6 870.7 888.3 898.3 903.5 908.3 902.2 883.8 857.3
512.4 521.3 531.4 536.9 534.4 541.1 546.8 555.8 558.7 561 560.7 567.6 569.8 575.4 579.2 580.8 584.9 601.5 619.8 625.5 626.1 644.4 667.9 686.7 701.9 701.9 696.1 684.9 679 666 655.2 650.2 645.4 636.3 626.9 612.1 600.1 588.9 586.3 581 577.8 574.5 571.3 568.3 565.7 563.3 556.6 551.4 545.1 539.7 524.6 514.5 527.4 532.3 532.2 532.4 529.2 524.7 519.1 515.4 504.5 497.3 493.4 491.5 489.6 492 492.6 494.5 497.3 503.1 509.1 513.5 521.7 526.2 530.4 535.5 536.4 534.7 528.2 513.6 494.9 481.9 472.6 464.3 449.8 437.7 434.6 421.3 408.7 402.4 394.6 386.6 390.9 400 385.6 375.6 371.2 368.8 371 384.6 392 398 408.8 414.7 423.5 431.7 444.5 460.9 484.2 505 516.9 536.3 557.9 576.9 592.6 613 620 627.7 625.2 619.5 620.8 616.3 596.3 592.2 591.4 587.3 582.6 577.9 572.7 568.2 562.9 558.9 555.1 553.8 555.7 556 554.9 553.6 553.2 551.6 547 521.9 527.9 540.5 545.8 546.3 544.9 526.3 531.8 533.4 545.5 548.2 549.7 550.9 554.3 558.1 561 559.3 568.5 573.4 576.3 579 585.8 591.3 596.2 602.3 609.5 615.3 620.9 626.6 632.3 637.7 643.6 650.8 658.3 667.7 677.4 688.6 702.2 716.6 728.1 738 750.8 761.6 777.2 791 802.9 814.3 825 834.3 850.7 860.2 873.9 891.6 897.8 901.6 903.5 894.5 874 849.6
521 534.2 540.8 543.7 543.6 545.7 555.6 562.8 570 564.6 570.8 582.3 580.9 586.1 583.7 582.9 588.9 598.9 618.5 627 635.5 661.9 684.5 702.2 714.5 713.8 702.5 694.5 686.9 670.6 661.8 657.2 648.3 639.7 626.4 614 605.3 598 588.7 586.9 584.3 582.5 578.6 574.8 571.7 568.3 561.3 555.6 547.6 534.5 523 532.7 540.1 539.3 540.3 539.9 535.7 530.8 529.9 519.8 509.9 505.7 502.1 494.7 496.1 498.2 498 498.3 501.3 506.3 511.7 519.4 525.4 530.1 533.3 536.1 535.6 533.1 524.7 510.7 497 483.7 477.4 467.1 450.5 440.3 432.5 424.1 411.2 400.9 393.1 388.1 392.7 403.4 391.7 380.9 373.2 370.2 371.9 388.5 393.2 397.4 410 417.5 425.3 437.2 451.3 470 493.2 509.4 521.9 542.5 565.8 581 596.8 609.6 617.5 620.3 612.6 611 606.4 594.3 589.1 585.3 582.6 578.6 573.9 568.2 563.8 558.5 555 549.4 546.2 546 548.3 550.9 551.4 551.1 551 551.7 548.7 528.9 518.6 531 547.9 548.4 547.4 529.2 543.8 542.8 538.1 543.6 550.5 556.7 559.6 560.7 564.1 567.8 564.9 570.7 578.2 583.7 586.7 592.9 597.7 603.5 610.9 615.5 620.7 627 633.2 638.3 644.7 651.2 658.6 668.8 678.4 689.4 702 717.3 728.6 738.4 752.1 762.2 773.5 788.2 800.5 810.9 823.6 835.4 852.4 862.3 877.2 891 895.6 897.5 896.1 879.9 863.1 841.1
537.5 540.6 548.6 549.1 553.3 561.1 571.2 576.5 574.5 574.1 581.9 586.9 594.6 588.2 585.7 585 591.8 604.6 621.2 634.8 654.5 684 701 724.7 734.1 730.4 721.2 706.2 691.9 678.1 666.6 659.3 651.1 642.3 633.7 621.3 613.7 602.5 592.6 592.9 590.7 588.7 585.6 582.7 579.7 575.2 569.2 560.9 546.4 528.2 538.6 544.6 544.2 545.6 545.9 542.5 540.9 537.5 537.6 525.4 510.4 504.2 500.7 498.1 499.3 501.5 502.4 503.7 506.2 510.5 516.6 522.8 528.8 534 536 537.3 536.4 532.5 525 510.1 500.6 487.8 478.8 469.1 449.3 441.8 434.5 423.9 414.8 402.4 394.1 390.8 395.9 409 396.7 382.6 372.9 371 373 385.5 391.6 396.2 411.1 420.9 429.5 439.6 458.7 482.7 501.1 509.6 527.8 546.5 570.2 582.2 593.3 603.3 609.2 608.3 603.4 598.4 593.2 585.8 581.3 578.2 576.6 570.6 563.5 557.9 554 547.4 544.1 540.8 538 537.8 540.5 544.7 546.3 547.4 548.7 550.1 550.9 540.7 522.1 522.6 549.9 550.3 540.7 530.6 548.6 551.7 549.4 545 547.6 553.1 563.5 567.8 565.3 570.6 576.3 570.2 578.7 586.6 591.7 593.4 601.2 606.4 612.7 616.1 621.5 627.5 633.6 639.4 644.2 651.1 658.2 668.1 678.8 689.9 703.9 717.5 730.2 742.1 752.9 762.5 772.7 783.8 796 809.6 822.7 834.7 852.4 864.1 876.9 887 890.6 891.2 882.9 863.9 849.4 836
553.8 555.3 555.6 562.2 572.7 583 585.3 584.5 580.6 588.2 592.2 601.3 596.3 593 590.2 590.2 599.6 612.7 626.5 642.4 673.1 705.3 731.5 745.8 744.7 737 733.3 717.5 693.9 683.3 669.3 664.1 656.9 649.4 637.8 627.6 617.1 607.6 602.5 601.4 599.1 595.2 592 590.4 586.5 581.4 573 561 544 541.2 549.1 549.5 550 555.9 553.7 548.7 544.5 541.5 539.2 527.7 515 508.7 505 501.9 502.6 504.1 504.8 508.5 512.1 517.5 523 527.1 533.8 537.4 538.9 539.4 538.3 533.9 523.4 515.1 505.4 489.6 480.4 467.5 450.2 443.8 436.5 426.8 415.1 404 397.1 395.5 401.8 408.5 395.2 380.8 373.3 371.5 375.6 392.4 391 400.7 408.8 419 432 448.5 463.9 487.7 500.9 512.4 526.9 546.5 570.7 577 585.9 594.6 597.6 595.5 593.1 588 584.1 578 573.4 570.4 569.2 560.3 552.5 545 540.4 537.4 534.7 532.7 531.4 532.8 536.6 540.8 543.2 545 546.6 548 549.5 546.2 523.6 531.5 552.8 551.8 533.6 538.2 551.6 556.6 557.3 551.3 554.1 562.3 568.5 571.1 574.3 576 579 584.3 578.8 588.4 595.2 599.1 601.2 609.4 613.7 619.5 624.3 630.5 635.9 641 645.8 652.5 659.8 669 680.3 693 705.4 718 730.9 742.3 752.3 762 771.4 782.3 792.6 807.8 820.8 834.8 850.5 862.8 874.1 884.3 889.2 886 871.6 851.7 841.7 834
566.1 564.1 577.7 585.7 598.1 600.1 599.5 592.5 595.4 599.2 605.4 604.7 608.1 598.2 597.6 599.5 611.5 623.1 635.2 658.8 697.5 723.1 749 755.4 752.9 743.7 738.4 715.8 696.3 688.8 679.1 664.4 660.6 654 644.2 634.2 624 614.5 612.9 608.1 606.2 602.6 599.5 596 591.2 584.6 575 554.7 540.7 551.3 556.9 556.8 562.2 561.3 558.5 552.7 548.3 543.4 539.5 529.5 517.7 513.1 509.3 505 506.1 509 510.3 512 517.3 523.1 526.5 532.7 537.6 540.2 540.9 541.7 539.5 535.7 528.5 520.3 506.6 489.6 479.7 466.8 453.4 448.3 440.4 425.7 415.3 408.5 402.4 401.9 407.7 403.5 388.8 376.1 373.4 374.6 391 395.2 398.9 404.2 412.9 425.1 434.3 450.9 469.4 487.6 501.9 514 528.7 546.4 563.2 572.5 579.3 584.8 586.2 583.2 582 579.1 572.5 568.3 564 559.4 556.7 549.2 542.8 537 534 531.4 529 525.5 524.2 526.3 531.6 538.7 540.9 542.4 544.3 545.9 542.2 526.8 528.5 545.9 553.4 548.5 536.8 542.9 548.9 554.7 560.6 555.2 559.9 565.2 571.8 575.8 578.2 581.2 584.4 588.9 591.7 588.9 595.7 603.8 607.1 607.5 611.7 620.5 628.1 633.4 637.3 642.5 647.8 653.5 662.6 673.5 686.8 699 710 721.1 733 742.9 753.1 763.4 772.1 781.8 791 804.9 821.1 832.3 850.1 861.5 874.2 883 888.3 881.6 861.5 846.4 837.9 832
575.3 589 595.5 608.1 614.8 619.3 610.5 604.9 608.7 612.6 617.5 621 610.4 603.9 606.9 617.6 624.5 635 648.2 686.3 717.5 744.2 756 757.7 756.7 749.5 740 712.7 697.3 689.2 682.7 673.2 664.8 658.2 651.9 642.1 633.3 625.8 622.5 617.3 613.8 609.9 607.7 602.8 594.7 585.6 575.6 555 549.4 566.3 567.1 567.8 568.7 567.5 563.7 557 552.9 549 545.9 536.3 521.6 516.8 513 510 511 513.4 514.4 517.6 521.6 527.2 531.7 537 540.4 542.7 543.5 544 541.8 538.9 532.5 517.8 503.2 489.1 480.2 467.1 457.8 452.4 442.2 429.8 418.9 410.7 407.9 406.8 411.5 396.1 377.9 374.2 375 378.3 393.2 397.5 401.1 409.1 416.9 428.5 439.1 451.4 469.1 489.3 499.4 514.6 526.6 542.7 555.5 563.7 571.3 576.1 576 572.7 570.4 568.2 561.6 555.9 552.6 548.2 545.4 538.2 531.3 527.9 525.7 524.3 520.9 524 526 525.1 528.3 530.6 535.1 532.2 529.7 526.8 524.5 528.3 546.2 551.9 555 541.4 539.5 543.7 556.7 560.8 562.7 564.6 566.3 572.4 577.1 580.4 582.1 585.3 588.6 592.2 596.3 600.1 593.3 606.4 611.5 612.6 614.2 620.3 629.1 634.4 639.7 643.8 648.7 656.6 667.3 678.9 692.7 705.4 715 725 735.5 744.8 756.4 765.2 774.2 781.9 791 805.5 821.3 834.1 849.5 860 874.1 884.6 883.6 874.4 855.1 843.3 837.1 830.4
598.6 609.1 620.4 629.3 632 627 618.3 618.1 617.1 631.3 632.4 625.5 619.8 617.2 619.9 629.2 639.4 648.7 671.3 710.9 734.1 759.4 766.9 767 759.7 752.4 736.4 715.6 700.7 692.6 686.3 682.2 674 667.3 657.5 648.7 640.9 636.9 632.8 625.8 621.7 615.6 612.4 606.8 599.7 590.9 567.7 552.9 566.2 575.2 576.3 576.3 575.5 572.8 569.2 563 554.8 548.4 545.6 534.7 525 520.8 516.8 514.4 516 517.8 519.6 523.2 528.4 532.7 537.6 541.2 543.4 545 545.7 546 544.5 539.1 525.2 512.3 498.8 489.1 481.2 468.2 461.8 455.6 446.7 430.3 420.9 414.4 412.4 408.9 412.8 386.2 376 377.3 379.1 392.6 396.8 399.5 402.6 412.1 419.8 428.5 441.7 457 473.3 486.7 499.6 512.5 523.6 539.3 549.7 556.5 561.9 564.7 566.3 559.1 557.4 555.2 549.7 545.3 540.5 536.8 533.2 527.1 521.3 519.1 518.3 515.1 520.2 525.3 527 530.6 527.5 527.2 527.2 528.1 530.6 531.7 539.9 546.6 552 553.1 550.1 546.4 557 548.7 560 561.3 567.3 568.5 573.7 578.6 582.9 586.7 588.4 591.8 593.8 596.5 599.1 605.1 604.4 605.2 613.7 617.7 616.7 624.5 631.1 636.6 640.7 645 651.8 662.1 673.7 684.3 698.5 710.7 720.2 730.7 740.6 749.7 759.7 768.6 777.9 785.1 796 809.1 821.2 835.6 849.4 858.8 872.9 885.2 882.9 867.7 851.1 843.1 837 830.8
620.1 633.7 652.4 649.7 644.9 627.9 628.9 627.3 639 649.9 641.7 636.7 642.6 635.1 641.2 648 650.2 665.9 696 730.7 756.3 770 772.6 771.4 764.9 755.5 723.3 715.3 703.6 695.8 691.8 686.3 680.3 673.8 664.5 656.9 654.1 650.5 641.1 633.5 626.4 621.9 616.1 609.7 601.4 590.5 569.7 557.2 580.2 582.1 583.3 582.6 581.6 579.1 574 567.6 560.3 555.8 544.2 532.9 529 525 520.9 519.4 519.6 522.9 527.1 531.1 535.9 539.7 542.9 545.4 546.9 548.1 548.1 546.1 542.4 535.2 521.9 508.4 497.9 489.7 481.4 469.5 464.6 461 447.4 435 422.4 417.5 412.9 412.1 411.6 387.7 376.8 379.3 382.1 396.1 399 400 404.9 414.8 422.4 428.8 443.5 456.8 470.1 482.2 494.6 507.5 518.8 529.7 539.2 545.5 550.2 555.4 554.1 548.6 547.5 541.1 538.4 534.6 529.7 526.1 521.8 516.6 514.4 513.9 512.8 514.6 520.3 524.9 529.4 533.3 536.1 536.3 536.6 544 547.6 546.8 549.7 547.5 555.2 554.7 546 559.5 560.3 554.4 561.9 568.8 566.5 573.7 579.7 584.3 589.2 591.6 594.8 597.8 599.9 601.1 604.8 607.8 612.1 604.4 606.6 611.6 619.6 628.6 634.4 639.1 642 648 655.8 666.8 678.1 690.9 703.4 715.9 727.6 736.6 746.6 756.2 766.4 774.1 782.2 790.8 802.7 813.6 825.2 837.6 848.8 858.7 876.1 893.1 879.5 860.9 848.8 842.6 837.1 830.7
670.4 677.2 677.1 670.8 649 635.9 638.2 646.4 662.7 658.9 654.2 655.3 654.7 653.6 661.3 653.6 667.4 687.9 721.3 751.9 769.3 776.4 777.6 776.4 769.8 756 728.6 715.8 707.8 698.3 695.3 692.7 687.5 680.9 672.5 667.1 665.2 655.1 645.7 638.1 631.5 628 619.5 611.7 602.6 593.4 570.9 564.4 589 590.5 590.7 589.6 585.5 582.8 579 572.5 565.3 559.3 549.6 537.7 532.4 528.8 525.6 523.8 526.7 529.5 534.2 537.8 542 546.2 547.9 550.1 550.3 550.5 548.7 545.7 540.3 532.9 518.5 506.6 498.5 491 481.1 471.1 465.7 460.2 448.1 433.6 424.4 417.4 414.6 414.9 405.8 388.4 378.3 379.8 382.7 390 400 400.6 407.7 415.7 420.1 427.3 440.2 452.1 465 477.2 489.3 503.6 514.2 523 528.9 535.3 539.7 543.8 542.9 538.4 535.4 531.8 527.1 523.5 519.1 516.8 512.7 510.7 510.9 511 510.2 515.3 523.4 529 532.7 536.1 539.4 543.4 547.1 550.7 551.9 552.7 557.3 549.9 553.5 553.1 551.3 563.3 563.4 559.5 568.8 571.8 575.2 578.6 587 591.1 593.4 595.5 598.5 602 604.2 606.5 609.4 611.8 615 616.1 615.5 617.7 616.4 628.6 636.4 641.6 645.1 651.9 661.1 672 683.7 695.1 708.8 721.3 732.4 741.5 752.7 762.7 771.9 780.2 788.2 798.2 808.8 818.7 828.7 839.9 849.8 861.8 881.2 888.5 873.9 857.3 852 845.3 836.8 823.7
698.8 698.4 694.8 683.4 645.4 647.5 659.3 666.5 670.5 665.4 666.7 671.4 663.5 669.5 673.1 662.8 679.7 708.8 742.6 766 782.6 783.9 782 775.3 768.1 749.4 730 718 713.7 707.3 702 699.3 695.4 688.9 681.6 678.8 668.8 659 649.4 641.5 637.1 631.8 622.1 611.9 603.2 589.5 569.3 583 595.3 596.4 596.1 594.7 590.7 587.8 582.2 576.7 569.8 560.3 553 543.2 537.1 533 530.6 527.2 532.6 537.1 539.6 543.2 547.1 549.3 551 551.7 552.2 551.8 549.2 544.1 537 527.8 515.9 506 498.9 491.3 479.5 472.3 466.6 456.4 443.6 431.2 424.9 417 413.8 408.9 399 389 380 378.4 385.6 397.3 401.2 401.9 407.3 414.4 417.7 424.6 436.8 447.5 460.3 473.4 483.9 495.3 505.4 511.5 518.7 524.2 528.2 533.1 527.9 526.5 524.3 520 517.2 513.6 511.2 508.3 507.6 508 508.6 508.3 510.2 518.8 527.4 532.5 536.5 541.2 546.3 548.8 554 558.1 557.8 560.9 562.7 561.2 554.1 554.3 551.4 558.8 566 554.8 559.6 572.5 579.6 585.8 591.2 595 595.6 599.6 603.1 605.2 607.8 611.5 613.8 615.2 617.1 620.2 624.1 627.2 625.6 624.9 637.8 644.5 647.4 657 666.3 677 688.4 700.5 713.2 724.5 735.4 745.1 759 769 775.9 787.2 794.6 805.2 815.2 823.3 830.4 843.9 853.7 869 885.3 888.2 871.7 865.9 860.2 850.8 835.4 821.2
709.4 709.6 687.1 671 652.5 668.6 669.5 674.1 675.2 672.5 680 681.1 678.9 678.8 673.6 677.7 697.8 730.5 757.3 777.2 786.6 787.2 781.5 774.8 765.3 749.2 733.7 722.7 715.7 713.3 710 706.5 700.5 693.2 689.7 682.6 671.8 663.1 653.6 647 641.9 633.2 622.9 612.3 602.6 594.6 576.4 596.4 599.6 600.5 600.9 599.7 596.9 591.9 588.1 582.5 573.8 563 555.1 547.9 542.2 538.2 535.2 533 537.9 541.8 544.3 547.7 550.7 552.4 553.1 553.9 553.9 551.7 547 540.3 533.6 524.3 513.2 505.7 498.2 488.9 478.7 471.1 464.7 451.3 441.2 432.3 426 420.6 416.6 413 400.4 389.9 381.5 381.3 378.9 386.2 401.8 403.2 408.8 415.8 416.9 422.1 431.8 443.6 456 468.4 480.2 486.8 493.2 501.2 508.1 513.1 518 519.7 517.4 514.2 511.6 510.2 508.9 506.1 503.7 503.6 505.1 505.8 506 505.4 515.6 523.4 530.9 537.3 542.1 546.4 550.7 554.6 558.2 562.3 564.3 567.4 569.3 569.5 566.6 561.7 559.8 556 564 558.8 567 575.3 580.2 588.1 593.4 598.1 601.6 603.8 606.9 610.4 614.7 617 617.5 617.4 621.3 626.2 629 631.2 631.9 632.1 636.6 645.9 651.6 659.8 670.9 681.1 693 704.6 716 728.2 738.2 749.8 763.2 773 780.1 792.6 800.7 813.6 820.9 826.2 838.3 848 857.6 876.8 886 883.2 875.1 872.8 866.1 851.7 837 818.6
711.6 704.4 681.2 656.8 669.3 672.1 680 685.7 683.7 689 693.9 694.4 691.1 690 689.2 695.6 717.9 752.9 774.3 784.5 790.1 792.7 788.7 778.9 765.4 749.7 738.9 726.5 718.4 715.2 713.2 710.6 703.8 698.9 694.1 684.4 675.4 666.8 656.5 650.9 642.8 633.7 622.7 611.3 602.6 598.9 580.4 600.2 604.4 605.5 605 604.8 600.1 595.2 593 587.6 577.5 567 561.1 555.4 546.7 544.2 539.3 538.9 542.2 546.6 548.4 550.9 553.3 555 555.5 555.4 554.1 550 542.2 536.6 529.9 520.9 511.1 504.6 496.2 486.8 477.7 469.5 461.9 448.1 438.2 433.5 428.2 422.5 415.9 408 402 392.6 383.6 382.8 382.7 381 380.1 400.5 408.1 414.7 416.2 419.2 428 439.2 452.3 463.6 472.5 477.4 483.3 492.2 498.5 502.7 506.9 506.6 505.6 505.3 503.7 502.7 501.6 498.9 498.4 501.4 502.7 503.7 503.6 510.3 519.6 528.1 534.8 541.5 547.4 552.3 556.5 560.2 564 566.5 567.7 572.7 574.4 574.7 574.4 572.9 571.1 568.8 564.2 562 573 578 584.8 592 597.5 601.7 605.4 608.4 610.8 615.6 617.6 620.4 621.9 624 627.8 629.8 631.9 636.3 636 636.6 631.4 646.1 654.6 662.9 674.4 685 695.5 705.6 718.7 730.4 739.6 750.6 765.6 775.3 784.8 798.2 808.3 819.5 825.7 832.1 841.9 851.2 866.3 881.4 883.9 882.4 879.4 875.3 868.9 854.8 836.6 814.2
705 691.6 671.4 673.5 676.2 682.9 691.1 700.7 700.8 706.1 708.5 711.2 698.2 696.1 705.3 716 739.4 768.3 782 792.4 795 796.9 790.1 781.4 766.3 749 738.6 730.7 722.8 717.2 717 713.4 707.3 704.5 696.8 688.4 679 667.4 658.7 652.6 643 632.4 620.5 610.9 606 602.5 586.4 602.7 608.9 609.7 610.3 608.5 602.1 602.2 601.2 592.9 582.3 571.7 569.4 563.2 553.1 549.1 544.4 544.9 547.2 549.5 550.1 553.6 555.8 557 556.7 554.7 552.5 545.6 538.8 533.7 525.7 516.8 510 503.5 494.1 483.3 473.3 465.8 458.3 446.1 437.8 430.9 427.8 421.6 413.9 404.8 400.2 393.3 386.9 385.3 383.5 383.8 382.2 383.6 403 407.3 416 418.9 425 436.3 446.9 455.5 464.1 470.2 473.9 483.1 489 493.2 495.4 497.2 495.5 497.3 496.3 495.7 494.1 493.6 495.7 498.7 500.6 500.4 505.9 515.1 524.9 531.7 538.3 546.1 552.3 557.6 561.5 565.8 570.2 571.5 571.9 578.3 578.1 579.6 578.6 575.6 574.3 570 572.3 572.4 579.9 585.2 591.1 595.2 600.9 605 609.6 612.6 616.8 618.4 622.6 625.1 626.8 630.2 631.5 633.3 639 640.7 641.3 641.6 637.1 644 654.8 663.8 675 684.6 695.2 706.3 719.1 730.1 739.4 751.2 764.3 775.5 784.8 799.9 814.3 824.6 829 835.3 843.7 860.2 875.5 883 883.1 885 887 879 868.9 854 834.6 810.3
689.3 679.1 683 675.4 688.2 689.9 704.6 714.1 715.6 719 729.8 719.7 705 708.8 722.1 736.3 748 778.3 791.2 800.6 802.2 798.4 796.2 780.8 765 747.8 741.8 731.8 724.6 719.7 719.1 716.4 710.6 706.6 698.2 689.6 678.4 669.5 662 652.5 641 632 620.9 612.7 608.8 590.8 599.3 611.5 614 615.4 614.9 612.9 610.4 610 608 598.7 587.9 579.9 573.9 566.3 562.3 553 553.3 551.2 550.3 550.8 552.4 556.1 557.5 557.9 556.2 553.7 548.8 542.2 535.9 530 522.3 514.4 507.5 499.4 489 480.1 469.4 457.9 448.5 442.2 437.3 433.2 425.1 418.4 410.4 405 401.1 397.4 390.6 389.5 385.8 383.2 383.2 386.6 403.5 410 413.9 421.3 426.7 434.3 442.1 449.5 455.2 460.1 465.4 472.9 479.3 483.5 486.4 486.6 487 489.6 490.2 489.6 489.3 490.6 493.3 495.8 495.9 500.3 510.1 520.7 528.7 535.9 543.8 551.2 557.6 561.9 566.1 571.1 575.8 574.7 579.1 582.7 583.3 584.1 582.3 580.6 579.5 573.6 575.1 581.9 585.2 589.6 594.5 600.2 604.6 608.4 613.6 617.9 620.8 623.7 627.1 629.6 633 634 633.3 639.3 644.2 645.3 644.8 644.2 644.4 642.4 653.5 663.7 673.5 683.5 694.2 705.8 717.2 728.5 739 749.8 759.1 773.1 784.4 799.2 816.1 827.8 832.4 837.1 847.7 868.1 879.8 885 888.7 890.7 890.4 876.6 864.3 850.6 827.2 804.1
675.4 679.1 675.4 681.4 691.4 714.4 718 727.9 729.7 740.8 745.2 725.3 713.4 722.2 737.5 750 768.4 791.4 800.1 804.5 803.7 806.4 799 783.3 764.6 753.6 745 736 730.5 725.8 721.6 716.3 713.5 706 698.2 689.8 681.1 670.5 662.7 648.9 638.3 630.1 620.2 614.3 600.9 605.6 611.3 615.9 619.1 620.4 620.9 621.4 618.4 618.2 615.4 604.8 592 583 575.3 569 566.5 566.8 564.4 557.5 556.3 556.8 556.5 557.3 558.1 557.5 554.6 549.9 544.1 537.9 531.7 525 519 512.1 504.1 493.7 484.4 475.3 463.9 455.5 451.8 442.8 438 436.5 428.3 421.6 414.9 405.4 400.8 397.3 402.9 397.8 385.8 384.3 385.8 386.6 391.7 400.9 413.3 421.3 426.4 432.2 438 444 449 453.7 458.7 465 470.2 475.1 477.8 479.1 480.4 481.8 483.5 483 485.3 488.2 490.9 491.8 495.5 504.1 514.6 525.2 532.6 540.8 549.2 555.5 561.4 566.7 571.9 576.9 578.8 583.4 585 587.5 588.4 587.6 586.3 584.9 579.9 571.3 580.9 587.4 591.6 595.1 600 604.3 609.1 613.7 618.1 621.6 624.9 628.3 632.8 635.4 636 635.6 636.3 643.2 648.1 648.8 649.7 649.3 647.5 644.4 651.8 663.1 670.4 681.8 691.4 702.4 714.8 726 735.9 747.2 756.4 768.1 781.6 798.1 813.1 827.2 833.9 839.4 853.3 870 881 888.6 893.8 893.3 882.5 869.8 855.3 839.9 818.4 797.3
665.3 669 677.5 688.5 703.9 713.9 720.3 736.2 750.5 765.2 762.3 732.9 727.1 742.5 758.6 765.2 776.8 794.4 804.2 803.7 803.7 804 795.6 775 764.1 756.1 748.6 742.5 733 729.3 723.8 721.1 714.8 706.4 699.1 690.3 679.8 670.9 660.3 648 638.6 628.1 619.9 614.2 603.3 610.7 615.5 620.3 623.4 625.2 626.9 627.7 623.9 625.3 620.9 607.4 599.3 591.3 586.4 581 579.6 577.1 569.5 563.6 561.8 561.1 561.7 560 558.2 556 552.4 546.6 540.6 532.8 527.6 521.7 516 508.5 499 489.5 475.2 468.6 462.1 456.5 447.9 441.3 435.9 429.8 424.1 419.3 411.2 406.5 404.4 403.2 404.6 405 395.7 384 387.1 392.4 407.9 410.1 402.2 415.6 425.6 429.9 435.8 440.7 445.4 449.9 453.9 458.7 462.7 466.6 470.1 471.6 473.2 474.7 476.1 477.5 481.5 484.9 487 488.9 496.8 507 518.5 527.9 538.1 547.1 554.7 561 566.2 570.1 577.6 582.2 587.3 589.2 592.2 592.8 591.9 590.2 588.3 580.2 582.6 584 587.5 591.7 594.9 598.7 602.7 607.3 611.6 616.9 622.4 626.4 629.1 635.4 637.5 639.5 639.7 639.7 641.7 646.8 651.6 653.3 654.3 655.2 653.6 651.6 650.6 661 669.3 679.3 688.2 700.4 711.4 723.1 732.8 742.7 753.2 762.2 777.6 791.7 807.5 821.1 830.9 840.1 853.5 868 879.9 886.3 888.7 883.6 872.2 861.4 849.4 829.4 806.7 788.8
657.5 668.1 683.7 694.2 704.4 715.3 730.9 750 768.8 779 761.6 739 743.3 757.9 768.4 777.5 789.2 798.7 810.2 809.6 808.2 801.3 794.3 779.9 772.3 763.7 755.7 744.7 737.5 732.8 725.4 724.2 714.3 706.5 698.7 689.8 678.7 669.4 658.1 646.1 636 626.4 620.4 608.7 616.8 620 619.2 624.5 627.7 630.6 632.8 633.2 631.8 631.8 623.6 613.7 608.5 605 599.5 596 590.3 584 579.1 572.7 567.8 567.5 566.3 563.9 557.9 553.7 550.2 542.4 536.5 532.1 525.9 518.9 511.9 503.6 494.2 487.7 475.2 467 462.1 459.7 451.4 445.2 437.9 434.3 430.1 422.5 417 410.9 405.1 405.8 407.5 407.1 403.2 387.1 387.7 395.6 411.3 418.2 415.1 412 419.3 429.8 434.2 439 443.6 447.5 451.1 454.8 457.5 460.6 463.5 465.3 467 469 471.3 474.4 478.2 481.5 484.6 489.1 497.5 510.4 522 533.2 543.5 553 561.1 567.4 571.2 576.5 584.2 590 593.9 596.6 597.2 595.6 594.6 591.1 582.2 585.3 588.2 589.7 590.5 597 600.6 601.8 605.3 609.9 614.5 620.8 626.4 630.5 635.9 638.6 642.4 644.6 645.1 647.1 649.1 652.8 655.3 659.3 660.2 660.2 658.2 656 652.1 659.8 668.7 676.8 685.2 696.1 708.1 719.1 730.3 738.8 749.6 758.8 771.4 785.8 799.7 813.4 825.6 836.7 850.9 866.5 875.1 877.3 878.1 876.3 868.8 856.6 840.2 818 796.1 778.3
655.4 672.4 686.7 697.1 710.7 725.8 738.1 761.8 771.8 771.7 761.2 746.9 759.6 760.9 771.5 783.7 794.9 810.7 816 819.5 815.8 807.1 797.3 789.5 780.6 771.2 761.1 748.6 740.2 735 729.4 720.8 711.7 705.1 698.5 687.4 678.1 666.9 654.9 643.4 634 626.4 618.3 619 622.4 623.9 624.7 628.7 632.3 635.3 638.1 639.5 642 638.4 631.4 621.7 618.7 614 609.2 604.6 598.3 590.5 586.2 582 577.2 573.6 570.7 565.9 559.7 552.9 548 542.2 536.5 530.8 523.9 515.5 506.3 498.4 488.3 477.8 477.2 474 467.5 460 450.9 439.8 434.9 430.6 427 421.4 416.4 409.8 405.6 410.3 416.2 417.1 404.8 389.2 386.4 397.2 410.7 420 422.7 418.6 414.1 421.5 428 430.6 435.1 439.8 443.1 450 453.3 455.8 457.5 459.1 461.3 463.3 467.2 470.7 475.1 478.2 482.9 490.5 500.6 514.4 526.7 538.9 549.5 559.5 567.7 573.2 577.4 585.4 592.4 597.9 600.9 601.3 598.8 597.2 595.6 593.1 587 591.4 593.2 594.6 596.2 603.3 604 605.6 608.6 612.8 619.7 625.9 632 636.3 639.8 643.2 647 648.9 651.5 654 654.7 658.2 662.4 663.7 665.5 664 663.3 659.8 656 660.5 668.7 675.9 682.8 692.5 702.6 714.3 727.2 735.7 746.2 755.4 767 779.6 793.4 806.9 820 832.9 847.1 863.8 870.9 873.4 875.6 873.2 860 846.1 826.8 803.2 783.4 765.8
661.1 675.9 689.3 704.1 719.2 731.3 753.2 766.5 764.1 767.5 760.6 767.9 780.3 784.3 787.2 792.7 807.3 826.6 829.4 830.8 824.4 814.9 805.2 796.1 784.8 776.3 765 755.1 745 740.7 734.1 720.3 709.5 704.9 696.2 685.8 675.4 663.5 653.2 642.3 632.8 628.1 618.8 626.2 627.7 627 629.6 634 637.5 641 643.7 648.3 648.6 643 633.8 631.7 627.3 617.5 610.7 607.8 604.8 597.7 592 587.6 582.8 578.3 573.9 567.8 558.5 553.1 547.2 541.3 536.7 528.3 519 513.9 500.3 496.6 492.6 487.7 481.9 473.7 467.3 455.2 444.5 439.6 435.4 430.3 426.4 421 414.9 410.7 412.4 415.6 417.8 417.9 402.6 390.1 391.7 402.3 414.1 419.2 424.3 425 426.6 428.5 429.8 433.5 440.5 443 444.6 444.6 446.8 447.2 450.8 453.8 455.7 459.4 464.5 470.1 475 479.1 484.7 493.2 504.5 518.9 533.2 545 556.2 566.9 573.1 579.4 587.1 596.2 602 605.1 606.5 604 601.6 598.8 597.5 593.5 592.7 596.1 597.9 600.7 606.6 608 609.9 611.5 613.1 617.1 624.1 629.4 635.8 640.2 643.9 647.3 651.9 655 658.3 660.9 661.7 664.6 669.4 669.8 668.7 666.7 667 665.5 662.1 663.1 667.9 674.9 682.7 692.3 700.4 710 723.9 734 743.1 753 764.3 776.8 790.7 803.7 816.3 831 847.6 860.5 868.3 871.5 873.6 871.1 857 843 823.6 798.6 777 760.7
665.4 680.2 690.3 707.5 719 740.2 755.1 757.2 756.3 765.2 768.2 780.6 786.4 792.6 799.1 800.7 811.3 831 837.5 837.3 829.3 817.3 808.3 800.8 789.6 779.3 772 761.7 748.5 743.2 731.1 719.2 710.9 702.4 692.7 684.9 674.6 661.8 650.1 640.7 636.2 627.8 629.5 630.6 631.1 631.5 634.1 639.7 643.5 648.2 652.7 657.1 654.2 647.4 645.9 640.3 635.3 630.3 626.5 618.3 615.1 606.8 599.9 594.4 586.2 581 575.1 568.2 559.4 552.7 546.2 541.5 537.4 530.5 523 514 507.5 503.9 496.6 488.2 480.8 473.1 465 453.8 446.7 444.3 438.2 430.9 425.3 422.1 418.1 414.6 417 418.2 418.7 418.6 401.9 387.2 395.2 405.6 417.1 419.4 424.1 426.7 430.2 432.6 436.9 440.3 443.6 447.2 448.8 449.6 450.4 452.2 454 456.6 459.7 463.9 468.5 474.1 478.1 482.5 489 496.7 508.9 524.9 540.2 552.3 563.2 572.7 579.5 587.5 597.8 605.3 609.8 611.4 608.4 605.8 604.2 602.7 601.3 598.9 599.4 601.7 602.5 608.8 611.8 614.4 618.6 617.7 617.7 622.8 629 633.6 639.4 644.4 649.6 652.7 657.5 663.4 667.4 669.7 670.9 672.2 673.8 672.7 671.7 670.9 670.5 668.8 666.2 667 672.8 679.3 686.3 693 700 709.9 722.1 732.4 742.1 752 763.9 776.6 789 802.2 816.9 832.5 846.5 859 866.6 870.1 873.2 873.4 862.9 847.6 825.7 795.1 775 761.2
664.9 674.5 688.7 703.6 727.3 740.2 749.3 749.8 753 756.5 765.7 778.6 788.4 792.6 795.9 802.2 813.8 832.7 838 838.6 828.8 820.1 808.8 803 791.2 785.6 779.3 762.3 747.8 741.4 729.4 719.3 709.4 699.2 688.5 683.8 673.6 658 648.7 642.6 638.5 627 633.8 634.5 636.5 636 640.3 645.1 651.5 656 662 663.5 656.4 658.9 658 653.9 649.6 646.1 641.9 635.3 628 618.1 611.1 602 591.8 583.3 575.8 568.5 560.2 553.8 548.2 543.9 538.5 530.8 522.1 517.3 512.8 507.4 498.5 487.6 479.6 472.2 463.6 456.5 449.5 442.7 436.5 431.5 426.4 422.9 418.4 417.2 418.8 419.6 419.7 419.2 401.1 389.3 399.2 406.2 415.7 421.7 425.7 428.4 431.5 434.8 438.7 443 446.9 448.8 450.4 452.3 452.7 453.8 455.8 458.7 462.3 467 472.5 477 481.3 485.6 492.5 500.3 514.4 531.1 545.6 557.9 567.8 577.3 586 596.9 605.7 611.8 616.1 614.1 610.2 609.7 608.5 608 606.3 601.5 598.6 607.4 611.9 614.6 615.2 616.9 618.9 620.8 622.7 626.1 631.5 636.5 642.4 649.7 653 659 666.2 672.3 676.4 677.2 678 678.6 678.1 677.2 675.9 675.1 673.4 673 670.7 670.7 676.7 683.4 690.1 696.9 704.8 715 725.1 734.1 745.7 754.6 766.3 779.3 793.5 808.1 823.3 837.1 846.8 858.2 864.5 868.6 875.4 876.4 866.6 846.9 818.1 791.9 776.5 765.6
664 675.6 691.1 713.1 728.1 741.8 746.9 749 746.1 750.4 770.1 777.3 785.5 791.5 792.4 800 813.9 831.3 839 833.2 826.7 817.9 810.9 802.5 795.4 791.8 781.4 766.2 755.7 738.9 727.1 718.7 709.4 698.3 690.2 682.5 670.5 657.7 646.9 643.1 637.6 633.2 638.5 639.7 641.9 641.4 648.4 652.5 658.3 663.9 670.2 669.2 666.7 671 669.1 663.9 663 660.1 660.7 649.9 638.2 629.5 618.4 607 595.6 586.9 578.2 569.8 561.9 556.3 551.2 546.7 539.8 532.4 527.4 522.7 515.9 508.1 497.6 489.9 481.3 473 463.2 454.9 448.4 441.4 435.7 430.1 424.9 421.9 418.8 419.2 419.8 419.8 420.2 419.3 404.8 389.1 403.3 408.4 418.5 422 425.7 428.9 432.3 436.6 440.3 444.3 448.3 450.4 452.9 455.6 455.9 456.1 457.9 461.7 466.4 471.8 476.1 479.7 484.2 489 495.7 505.8 519.8 536 550.2 562.7 573.3 583 594 605.5 611.1 615.6 616.7 614.9 614.7 614.3 614.2 613.1 610.2 609.1 599.5 612.1 614.7 615.3 615.6 616 616.9 621.5 625 629.4 634.9 639.7 647.2 654 659.5 667.3 674.2 681 683.4 684.8 685 684.6 682.6 678.5 679.2 678.6 678.6 676.7 673.7 674.8 679.9 687.4 695.4 702.9 710.2 720.2 729.3 738.6 747 756.7 768.9 780.8 799.9 813.6 827.4 838.5 848.6 856.8 862.7 871.1 878.4 879 864.5 834.7 812.1 792 779.6 766.9
662.5 673.8 698.1 710.8 719.9 725.7 733.3 733.7 737.3 743.2 759.4 767.5 776.2 783.6 789.1 799.4 810.6 825.3 830.7 826.1 820.3 812.9 810.1 802.8 798.8 795.3 787.9 776.2 759.2 736.1 724.8 719 709.1 699.1 691.5 678.9 667 656.5 648.7 644.9 637.9 641.7 643.2 645.9 647.7 650.1 656.9 660.5 667.7 674.3 676.7 675.8 680.1 681.8 679.7 681.7 683.2 683.3 679.8 666.9 650.5 637.8 624 610 597.6 589.7 581.3 572.8 565.1 559.2 554.2 549.1 543.5 536.6 529.8 524.2 522.7 511.7 501.4 491 480.6 471.5 462.8 455.7 448.7 442.6 435.7 430.4 424.4 421.2 419.5 419.8 420.5 420.1 420.4 419.7 416.1 403.4 405.5 413.2 421.4 423.4 426.3 429.5 432.9 437.8 442.4 445.3 450.1 452.4 454.7 456.8 458 458.8 462 465.3 470.6 476.1 479.7 483.3 487.7 493.5 500.8 510.3 522.5 540.3 553.8 566.5 579.5 590.4 601.6 608.4 614.3 616.6 617 618 621.3 621.7 620.8 618.3 615.2 612.3 602 611.3 613 613.4 613.4 615.7 617.9 622.4 626 632.3 638 643.1 650.1 657.9 666.8 676 683.1 688.9 692.1 693.2 692.7 691.5 689 683.3 683.9 684.5 683.8 682.6 678.1 679.6 684.8 692.6 699.7 707.8 716.8 726 734.6 742.1 751.6 761.5 771 787.1 806.5 819.5 831 841.5 850.4 859.1 867 876.7 882.8 878.8 854.3 826.1 805.6 792.8 774.7 761
657.8 677.4 685.4 693.2 700.9 709.4 714.2 719.9 727.3 737.9 750.4 758.5 767.9 773.4 783.4 793.7 802.9 816.9 822.4 821.9 819.7 814.6 808.6 801.6 800.6 799.1 795.9 777.9 753.8 735.7 723.1 715.8 707.3 698.3 688.4 676.6 665.4 654.3 650.2 641.8 644.8 647.4 650.1 652.3 654.9 659.9 664.4 670.2 677.1 682.9 685 686 689.8 691.7 698.8 700.2 703.2 705.4 696.5 678.8 658.3 646.3 629.3 612.8 601.6 592.4 584.2 575.9 568.8 562.9 557.1 551.6 545.8 537.8 533.4 532.9 528.6 513.8 503.3 491.5 479.3 471 460.6 453.6 447.5 441.2 436.3 433.2 426.6 423.6 421.1 420.6 420.8 420.6 420.1 417.6 413.3 405.3 407.3 418 422.2 426.5 427.6 430.5 434.4 439 443.9 447.5 451.5 453.6 456 457.6 459.5 461.4 465 468.8 474.2 479.6 483.3 486.6 492.1 498.5 506.1 518.6 529.1 542.6 555.1 571.6 585.2 596.8 606 613.2 617.7 618.4 624.5 628.2 628.4 629.8 627.9 622.8 618.5 614.8 610.2 606.5 611.1 611.7 612.8 615.4 619.1 623.5 628.7 636.2 640.9 646.4 655 664.6 674.6 682.7 690.4 697.1 703.1 704.6 701.6 696.7 692.5 691.1 690 689.5 687.9 685.8 682.6 684 690.4 698.4 706.3 714.7 723.1 731.9 739.8 748.2 756.6 764.3 777.4 793.9 811.1 825.5 838 847.8 856.2 864.9 874.5 882.6 884.5 875.6 843.9 820.1 803.5 787.4 769.6 756.7
659.3 670.1 680.5 687.2 692.5 699 702.9 707.7 716.7 732 739.5 746.2 756.9 765 776.5 787.5 795.1 806.3 813.3 815.9 817.4 810.6 806.1 802.8 800.1 798.3 792.8 772 751.4 735.1 721.2 711.7 702.5 694.6 684.5 674.7 663.2 655.7 649.7 649.4 652 653.5 656.9 659.3 662.7 666.3 673.1 680.8 687 693.2 694.7 698.7 702.1 710.2 715.1 716 719.2 715.4 703.7 685.1 668.5 651.9 633.3 617.7 606.2 595.2 587.8 580.1 572.5 565.4 559.4 554.1 547.7 542.9 541.3 539.8 529.5 512.7 501.2 488.6 478.6 470.5 460.8 449.8 443 439.3 435 434.5 430.1 426.4 422.2 421.4 421.4 420.6 418.4 416.3 402.8 402.8 408.2 420.9 424 427.6 429.9 433 436.5 440.7 445.5 449.5 453.7 456.6 458.3 459.2 462.2 464.8 466.7 471.3 477.7 481.9 485.7 489.9 495.7 502.3 515.2 526.6 536.3 546.9 563.2 578.6 591.3 601.7 610.3 618 620.9 630.3 635.5 635.8 638.4 638.1 636.6 628.2 622.5 616.5 613.4 610.9 610.6 612.3 611.7 616.2 621.9 626.3 632.3 639.6 645.1 650.6 659 670.8 681.1 689.5 698 708.6 714.9 716.3 713.4 707.5 703.1 699.1 697.3 694.3 691.5 688.7 687.3 688.4 693.7 702.5 712.2 720.4 728.4 736.9 745.1 753.8 762.4 771.7 785 799.5 817.3 832.4 844.6 854.9 863.1 873.4 883.7 891.1 888.6 872.8 841.1 814.8 799.1 783 767.2 752.3
651.9 662.1 675.7 678.9 684.6 688.8 693.9 703.6 710.7 721.5 730 738.4 750.2 761 770.8 780.5 790.2 797.4 807.5 812.4 812 810.1 807.2 803.1 795.9 795.9 788.3 767.5 752.3 734.1 720.5 709.1 699.5 692.8 682.6 669.6 660.8 655.1 652.6 656.1 656.5 659.7 663 665.5 669.3 675.5 682.9 690 697.7 703.5 707.1 710.3 716.8 724.3 727.6 730.9 730.3 722.3 703.7 686.7 671.7 655.1 636.9 623.1 610.3 599.1 593.4 588.1 576 568.2 561.1 556.1 549.8 547.8 546.2 539.7 523.6 510.4 497.9 485.7 476.5 467 460.1 452.5 448.3 438.1 433.7 432.2 430 428.1 423.3 422.4 421.5 420.2 417.9 411.4 402.8 402.8 409 423.9 426.6 428 430.5 434.1 437.4 441.7 447.5 450.3 454.7 458.6 461.1 462.3 464.7 467.5 469.8 472.6 480.4 484.9 488.8 493.6 500 509.5 522.6 532.3 542.9 555.7 569 583.8 595.5 606.2 615.8 622.2 630.7 642.9 642.5 647 647.4 646 641.6 637 626.4 620.1 615.1 608.2 611.1 612.4 613.8 617.3 623.7 628.4 637.2 642.8 647.9 654.4 663 676 687 697.5 708.9 718.7 728.9 731.4 727.4 720.9 713.5 708.3 704.8 701 698.1 695.4 692.2 691.8 696.7 706.5 716.1 725.3 734.3 741.9 750.5 758.8 767.7 778.9 791.3 807 823.2 836 847.7 859.8 872.7 885.2 896.4 898.2 882 854.9 824.2 811.1 793.4 776.1 759.5 745.4
646.4 657.3 664.7 670 675.2 681.7 688.7 697.8 705 715.4 724.8 733.1 743.2 754 764.6 773.8 784.4 790.8 801.2 811.1 810.3 807.2 805.8 797.9 791.9 792.7 780.3 765.6 751.7 734.3 720.5 707.6 697.4 687.5 674.6 672.4 666.1 661.3 657.5 660.1 663.8 668.2 672.1 673.6 679.7 686 692.1 700 705.6 711.9 717.5 723.9 730.7 735.2 739.6 740.9 738 727.2 711 693 675.8 658 642.6 629.6 615.5 606.4 601.3 591.3 579.3 569.9 562.9 556.2 552.7 549.7 545.5 534.3 518.9 507.3 494.2 481.7 473.5 465.6 456.7 448.2 443.6 440.4 435.8 434.8 437.6 432 426.8 423.9 421.5 419.5 418.6 406.2 402.8 402.8 411.1 423.2 427.1 428.1 431.3 434.1 438.3 442.8 447.7 451.9 456.1 460.1 464.1 465.6 467.8 470.7 473.7 477.4 483.2 488.7 492 497 506.2 517.6 529.2 537.5 549.3 562.2 573.9 588.6 600 611.5 621 630.4 644.5 649.6 656.8 659.8 660.3 654.8 646.5 641.2 631.4 623.3 616.2 610.4 613 612.5 614.3 619.4 625.4 632.7 639.8 645 652.2 658.6 667.5 680.6 692.1 704 716.8 728.6 740.7 743.9 738 730.6 725.1 722.4 716.7 709.6 705.6 700.7 697.5 696.8 701 709.3 721.7 729.8 738.7 746.5 756.3 764.9 774 783.6 797.6 811.8 825.6 841.1 854.5 869.2 883.4 897.2 902.2 887.6 859.9 832.4 817.4 803.7 782.8 764.6 752.6 739.8
642.1 650.9 657.8 664.3 669.7 676.1 684.2 692.6 700.7 712.6 721.4 730 738.4 749.1 758.7 768.4 777.2 784.9 798.7 810.6 812.6 806.8 799.6 792.3 786.6 785.9 778.1 769.3 753.9 736.4 720.6 709.2 702.2 693.1 682.6 674.5 670.2 663.4 663.7 667.1 671.3 676.2 679 684 690.2 697.2 702.7 709.2 715 720.4 730.4 738.9 744.7 748 749.4 744 739.3 727.6 712.2 695.7 676.2 661.1 648.2 633.9 618.5 606.2 595.6 588.2 576.8 568.9 563.4 558.8 554.4 548.3 541 526.6 514.1 502.8 490.2 479.6 471.1 463.2 453.4 446.5 442.5 439.4 438.9 440.7 438.4 433.8 428.8 423.2 420.2 419.6 413 402.9 402.8 408.5 412 422.3 425.9 428.2 431.2 434.2 436.9 442.4 448.1 455 459 462.1 465.1 467.5 469.4 473.7 477.1 480.9 485.9 491.2 496.3 502.3 512.5 524.5 533.1 542 553.2 562 572.6 591.4 604.7 616.2 627.5 642.6 651.3 662.9 670.6 671.5 669.3 663.6 652.8 644.1 636.4 627 618.9 613 610.2 613.9 614.5 619.9 627.6 634.5 640.9 646.8 655.6 663.3 672.1 683.1 695.6 709.3 722.4 734.6 743.4 747.3 745.5 741.1 737.4 732.7 727.6 718.1 710.9 708 705.7 701.7 705.7 713.6 725.5 734.8 742.2 750.9 761.1 770.6 782.6 794.2 806.2 819.3 833.3 849.1 863.4 878.1 892.4 900 893.9 868.7 838.9 816.5 805.2 785.9 768.7 756.1 745.2 731.8
640.1 648 654.7 660.6 666.6 673.4 681.1 690.6 700.4 709.3 718.3 726.4 734.9 744.6 754.6 763 771.9 781.5 792.4 803.6 806.5 804.3 800.4 795.3 788.1 784.4 777.8 767.9 751.9 737.4 726.8 721.1 705.1 695.6 686.3 678.4 670.9 666.4 672 676.4 680.8 683.9 689.4 694.2 699.8 705.9 710.1 716.6 722.8 730.9 738.6 745.5 750.1 755 758.7 751.4 740.9 727.9 711.5 694.2 678 665.1 653.8 635.5 618.3 604.1 589.8 577.8 573.6 567 560.3 554.5 551.1 545 534.7 520.2 508.7 496.7 486 476 467.1 458.6 451.5 445.2 442.6 440.6 440.5 438.4 435 429.4 421.1 419.9 419.3 415.5 404.8 403 408.5 410.9 420.4 417.6 427.6 428.9 431.9 433.6 436.4 442.5 449.2 455.3 458 462.6 465.3 467.9 471.1 475.6 479.6 483.8 488.8 494.8 500.6 508.3 519.1 529.1 535.7 546.8 558.7 569.2 581.1 595.1 609.3 622.2 637.1 651.2 663.8 676.5 681.3 681.5 678 670.4 656.9 648.4 640.3 630.8 622.6 616 612 613.9 616.1 620.9 627.8 635.7 644.2 651.8 658.9 665.8 674 682.6 696.2 711.1 723.6 735.9 745.1 750 750.1 750.8 748.9 742.7 737.8 727.7 719.2 715 712.5 709 708.4 716.2 728.5 739 746.4 757.4 767.4 778.1 793.6 804.1 814.8 828.5 841.2 853.1 869.9 885.2 896.6 898.3 879.8 848 821.6 802.1 790 773.4 759.3 747.2 734.4 723.3
636.8 645.2 652 658.4 665.2 673.4 680.7 690 698.8 705.4 715.4 724 731.5 740.2 749.5 759.2 768.4 775.7 785.1 797.4 806.9 809.5 809.2 803.4 794.6 784.5 775.8 762 749.8 741.9 734.9 723.4 706.1 695.7 685.6 679.8 669.1 676.1 681 686.9 690.8 694.3 700 704.4 710.4 714.6 720.2 726.5 732.5 739.8 746.3 751.1 754.2 760.5 763.2 755.9 743.5 727.9 710.4 691.7 679.6 671.8 656.5 637 615.9 601.6 583.7 573.4 569.7 558.1 553.1 549.2 547.1 542.6 529 515.5 504.6 492.5 481.6 471.4 461.8 454.7 448.5 445.1 442.4 442.2 445 438 431.3 426.7 420.6 417.2 409.1 406.9 405.4 403.5 412 422.3 423.8 421.3 425.6 430.1 431.7 433.4 436.7 441.6 446.8 452.2 456.9 462.3 465.5 468.6 472.6 477.2 481.9 486.4 492.1 498.7 505.9 515.2 524.5 532.4 541.3 552.4 563.5 575.5 587.3 600.4 615.1 629.3 644.1 657.7 674.5 687.4 692.6 693.1 685.7 674.7 663.2 651.6 641.4 632.8 625.9 619.2 615.4 613.6 617.3 621.2 627.8 636.9 646.1 654.2 660.3 667.1 673.7 682.4 694.8 712.1 726.1 737.5 747.2 753.1 758.8 759.5 756.8 754.6 750 738.9 728.9 723.9 718.7 716.4 715.5 719.9 731.4 742.3 751.4 761.5 773.3 786.3 803.7 811.3 823.4 835 848.2 860.6 877.2 889.6 892.5 883.6 855.8 827.2 803.2 789.8 773.5 759.9 749.8 738.7 727.1 715
632.2 641.6 649.5 657.5 663.8 673 680.6 689.8 697.1 702.9 712.5 721 728.9 737 745.5 754.8 763.7 771.3 780.6 794.9 807.2 814.9 815.9 813 802.9 790.2 774.1 763.1 756 749.8 742.2 721.7 706.3 694.5 687.2 678.6 679.5 685.6 690.9 697.5 702.2 704.8 709.7 714.4 719.9 725.4 730.4 734.5 740.7 746.8 753.6 757.4 762 764.1 763.7 754 740.2 724.6 708.6 692.4 683.4 671.7 652.3 633.9 614.1 597.4 585.2 569.6 566.1 552.4 550.3 545.9 541.4 536.2 522.5 510.5 500 487.7 477.4 466.2 458.2 451.2 446.9 444.8 441.7 442.4 443.3 444.9 432.8 428.3 419.9 416.1 409.1 407.3 405.6 403.8 422.2 426.3 427.6 423.6 426 428.5 430.6 435 436.6 441 446.1 452.3 456.6 462.3 465.5 469.5 474.1 478.9 483.7 489.2 495.8 503.3 510.8 520.1 528.8 537.2 547.7 558.8 569.9 581.5 592.9 606.3 620.1 634 649.8 664 681.6 693.5 699.8 697.3 693.8 684.4 670.4 655 643.2 633.4 628.3 622.6 619 616.1 616.8 620.2 628.4 637.9 647 655 661.3 666.4 673.3 681.8 694.6 712.2 727.2 739 749.3 757 763.4 765.5 768 769.7 763.4 750 738.5 733.2 727 724.9 725.6 724 734.7 745.1 755.8 766.9 779.5 793.4 808.7 819.9 830.3 844.8 856 869.6 883.1 890.2 884.1 859.5 834.3 811.3 793.4 776.6 762.2 751 741.4 730.7 716.8 699.7
629.2 641.3 650.5 658.3 664.7 672.4 680.7 688.7 696 702.1 711.2 719.4 726.7 734.4 742.4 751.2 760 769 782.2 797.9 814.1 821.9 826.8 823.6 814.7 799.7 781.4 767.7 759.9 752.3 738.2 721.9 706.5 694.6 687.6 679.5 688.3 694.5 703.2 709.5 713.7 716.9 721.4 725.9 731.3 734.9 739.7 742.6 747.8 752.8 757.9 761.4 764.2 763.5 758.7 748.6 735.7 723.1 708.9 695 684 673 652.2 634.5 612.2 593 580.4 567.8 559.2 553.4 546.8 542.5 539.3 532.9 516.6 504.1 492.3 482.2 472.2 462.3 454.3 448.3 446 445 442.1 438.7 437 434.2 431 425.9 419.8 416.1 405.9 407.1 407.2 416.9 426.5 425.9 425.7 425.7 426.4 428.9 431.1 433.4 437.1 440.7 445.7 450.9 456 461.6 466.2 470 475 480.2 485.9 492.6 499.8 507.3 516.1 524.7 532.9 542.3 553.6 564 575.6 586.9 598.6 611.6 623.6 637 653 669 688.5 699.7 702.2 708.8 704.6 689.7 673.9 660.2 645.9 636 632.6 626.8 620.7 616.2 618.5 622.3 629.8 638.8 647.9 656.1 662.3 668.9 675.6 683.5 696.8 712.4 728.1 741.8 752.5 760.3 768.4 775.3 781.5 782.8 774.6 760.1 749 742 738 735.5 734.7 730.6 737.8 750.3 761.1 772.3 785.4 798.4 814.1 826.3 839.8 852.7 865.7 875 881.1 881.1 864 839.6 815.9 797.3 781 766.4 754.8 745.5 733.2 716.1 694.8 674.1
635.7 643.4 651.2 658.7 665.4 673 680.3 687.4 694.6 701.8 711 718 724.5 731.8 739.8 748.7 758.5 770 782.4 799.5 820.9 832.7 841.3 836.6 825.7 807.2 783.2 772.5 765.8 757.9 742.9 721.1 704.7 697.6 688.2 687.6 698.5 706.6 715.5 721 724.6 727.2 730.6 737.2 740.4 745.3 745.9 749.9 754.6 758 759.7 762.2 762.8 759.8 751 740.4 731.6 720.1 705.4 694.1 690.3 673.8 651.3 631.5 611.2 592.1 577.4 566.2 555.7 549 543.9 539.9 534.1 526 512.3 497.7 487.5 479.1 467.6 458.6 452.1 446.6 444.8 441.7 439.4 436.9 429 428.3 427.6 421.2 419 414.2 408.8 408.8 416.3 424.4 425.8 425.1 424.9 425.6 427 430 432.2 434.5 438.8 441.7 445.9 450.7 456 462.2 466.1 471 476 481.8 487.5 496 503.6 511 520.3 528.1 536.4 545.9 558.1 568.7 580 590.2 602.8 616.4 629.4 641.8 658.1 675.7 696.2 707.3 714.8 717.1 709.8 691.9 678.6 662.4 646.7 640 636.3 629.6 622.1 618.8 619.7 621.4 630.1 638.1 646 655.1 662.4 668.8 674.8 684.4 697.2 715.8 731.6 744.8 756 765.8 775.5 785.1 792.1 790.9 783.8 772.1 760.1 754.3 748.8 745.5 745.1 743.1 743.8 753.5 764.4 778 790.4 805.4 819.2 833 846.9 857.5 871.7 876.1 870.2 861.4 841.6 818.5 804.9 788 769.3 758.7 745.2 730.2 712.6 687.4 666.9 647.8
641 648.6 654.9 660.9 668.6 675 681.4 689 695.4 702.1 710 716.7 723.5 730.4 738.5 748.2 760.6 773.5 784.9 805.4 822.7 842.2 853.4 849.3 837.1 815.1 791.2 782.8 778.3 764.3 741 718.9 707 697.6 688.4 701.5 710.5 720.2 728.5 734.2 736.3 739.8 746.4 746.1 752.4 751.4 751.6 756.3 758.8 760.2 760.7 760.4 758.7 753.9 744.1 734.8 727.2 715.4 704.7 694.7 690.8 668.9 649.2 627.2 606.7 588.3 573.5 562.4 548.3 541.4 534.6 530.9 527.4 525.3 507.3 490.4 482.4 474.1 464.7 457.3 453.1 445 438.7 437.8 433.7 428.3 427 422.3 421.1 419.9 414.3 412.4 407.8 410.4 423.3 424.8 422.9 423.2 424.7 425.6 427.3 429.1 432 435 439.4 442.3 447.2 451.8 456.4 461.4 466.3 471.8 477.7 483.1 490.1 499.8 507.1 515.3 523.7 531.6 538.4 549.4 562.7 572.8 583.1 593.6 607 621.5 635.1 646.9 663.3 681.8 701.8 713.9 715.7 712.1 705.5 693.3 682.6 664.1 649.5 643.5 640.6 633.2 624.6 620.1 621.3 623.4 629.7 638.5 647 655.6 663.2 670.2 677.8 686.9 701.5 718.4 733.6 747.1 760.1 770.7 782.1 793.6 800.2 799.9 796.9 786.4 770.9 764.4 757.3 754.8 753.8 753.9 751.9 758.7 769.3 783.1 796.4 810.7 825.2 839 851.3 865 870.4 865.5 856.5 840.9 820.5 806.2 794 776.3 761.1 745.9 726.8 706.4 686 665.9 648.6 634.1
648 652.8 658.9 665.8 671 677.4 684.5 689.9 697.2 703.7 711.1 717.9 723.9 730.7 739.3 749.9 764.2 777 789.8 811.7 829.5 850.1 859.4 855.4 844.4 821.2 802.5 789.6 780.2 758.7 734.6 718.6 706.7 694.7 703.8 716.7 724.4 734.4 742.1 750 752.4 756.3 755.3 755.4 759.9 755.6 755.6 758 759.5 759 757.6 755.8 750.2 743.8 736.4 728.6 720.1 709.6 706.3 700.2 679.3 662.1 644.1 619.8 600.5 583.6 568.3 556.6 546.2 537.3 535.5 528 519.3 516.1 501.8 487.6 475.5 467.5 460.9 455.7 448.1 441.9 438.7 433.8 438.2 436.5 430.1 425.9 428 422.1 419.2 416 409.5 408.2 423.3 422.8 416.6 420.9 421.6 426.8 427.2 429.3 431.8 435.1 439.6 442.7 446.2 451.5 456.1 461.8 467.5 473.2 479.6 486.2 495.4 503.5 510.7 519.1 526.6 533.8 541.5 554.7 566.8 575.8 585.6 596.9 612 625.5 640.5 653.5 668.3 687.7 703.9 715 715.4 710.3 704.2 694.5 685.2 667.2 652.5 647.2 644.9 637.3 628.2 623.9 621.9 623.2 628.8 639.4 649.1 658.5 664.6 671.5 681 691.6 707.7 721.3 735.3 750.5 763.4 776.8 788.7 797.4 807.4 808.9 806.5 797.8 784.2 773.2 768 766.5 764.3 763.5 762 765.6 775.7 788 801.7 817.1 832 844.8 858.5 868.2 867.8 859.6 842.5 820.9 795 791.6 777 758.2 740.5 724.8 702.9 686.5 667.4 645.9 635.3 628.3
652.2 657.4 663.9 669 674.8 679.7 685.9 692.4 699.4 706.4 713 719 725.2 733 742.3 753.5 767.4 781.8 795.9 816.1 836.2 854.7 862.2 857.3 846.1 832.1 807.1 792.7 775 751.5 730.2 715.1 704.1 706 723.1 732.2 738.3 750.5 760.3 768.1 771.5 766.9 761 764.5 760 756.4 755.2 755.2 754.1 753.4 752.4 749.2 741.2 733.5 726.7 719.7 714 708.8 705.8 686.2 665.2 649.6 633.3 612.3 593.9 576 562.2 551 540.2 533.3 526.5 519.1 509.3 506.9 488.2 479.9 469.9 462.9 456.5 450.6 445.1 441.6 441.6 440 442.1 438.1 429.4 431.5 430.9 422.9 420.8 418.6 411.6 408.6 411.6 417.9 422.6 424.1 427.4 429.1 428.7 430.7 433 436.7 439.8 444.1 448.1 452.4 457.6 464.2 470.4 476.9 483.8 492.1 499.7 506.4 514.8 522.9 529.3 535.6 544.1 558.2 569.4 578.5 588.5 602.1 616.2 630.1 645 660.6 674.7 692.3 708.8 718.2 718.8 713.6 707.2 693.2 684.9 669.9 656.6 651.3 649.1 643 633.4 628.3 624.3 623.6 627.7 639.4 650.6 659.9 665.6 675.3 685 698.2 711.7 723.5 738.3 752.6 765.8 779.4 792.6 800.7 809.6 811.8 814.6 805.3 795.1 788.1 786.6 779.1 776.5 773.9 771.8 772.9 782.9 793.3 805.4 822.7 838.5 853.3 863.7 866.9 862.4 848.3 826.6 798.6 787.5 786.3 768.4 742 726 710.1 691.7 677.9 654.9 635.4 629 627.6
658.1 663.4 668.4 674.8 678.8 683 689.7 696.5 703.2 709.8 716.2 722.5 729.6 737.4 746.2 757.7 772.5 788.5 803.6 822.4 841 856.6 861.8 856.9 846.6 833.2 813.3 792.6 769.9 744.4 726.2 712.5 708.5 727.9 740.8 745.2 754 767.8 778.3 783.4 779.7 772.3 767.4 764.6 758.6 753.9 751.9 749.8 748.9 747.9 745.7 742.2 735.5 726.4 719.7 716 712.2 705.1 690.2 672.4 655.1 637.2 623.2 605.6 586.6 569.9 556.1 546.8 536.3 528.4 520.7 510.8 499.9 490.6 484.8 471.7 465 458.4 453.7 448.7 444.8 443.8 444.9 438.8 435.2 435.3 432.4 431.8 431.6 423.8 422 418.5 413.4 409.9 420.3 426.5 426.4 428.5 430.4 431.9 431.7 431.5 434.2 437.3 440.5 444.6 447.8 453.9 459.9 466.6 473.7 480.3 488.8 495.3 502.5 509.3 519.1 525.8 531.6 537.6 548.1 561.5 571.4 581.6 591.8 606.6 619.8 635.3 650.5 667.3 681.5 695.8 710.6 725.4 725.2 718.1 707.8 694.8 683.7 676.3 662.2 655.6 652.3 648.9 640 635.1 629.5 627 628.6 638.8 651.9 660.7 668.2 679.7 690.4 701.4 713.5 726.2 739 752.1 766 779.3 790.4 799.9 807.9 811.8 811.2 810.2 807.1 805.1 800.1 791.3 784.8 783 782.6 782.9 789.5 797.4 810.9 825.8 841.6 855.2 863 864 857 834 808.8 797.8 792.7 785.9 756.1 732.1 716.4 704.6 686.9 672.8 648.5 629.4 627 623.8
663.7 668.9 673.2 678.2 682.8 687.6 694 700.6 707.2 713.7 720.2 726.3 734.4 741.9 751.3 763.8 778.2 792 807 824.1 839.2 854.5 858.8 853.1 843.4 830.6 815.2 788.7 763.7 737.8 722 712.8 731.2 747.6 751.9 757.2 769.3 784.5 792.8 789 784.1 776.4 767.9 762 755.5 750.4 746.7 744 743.1 741.6 739.5 734.9 727.3 721.7 718.1 714.5 706.9 697 677.5 659.6 644.9 629.2 611.9 596.2 577.2 562.9 551.5 540 530.7 522.5 512.6 503.4 491 482.2 473.2 466.9 462.1 455.9 453.2 447.8 444.3 443.4 440.7 444.4 441.7 440.8 438.8 432 429 423.4 423.2 420.3 413.6 410.5 410 428.2 429.8 431.4 432.8 433.2 434.5 433.5 435 437.5 441.6 445.8 450.4 455.6 462.9 468.1 478.4 484.3 492 498.5 505.9 513.1 523 529 534.6 540.3 552.4 563.4 574 583.9 595.6 609.5 623.6 638.7 653.8 671.4 686.8 700.2 712.4 723.7 726.1 720.9 710.9 701.6 689.8 679.1 664.8 659.8 657 653.2 648.6 643.1 636 631.6 628.9 638.2 651.7 661.2 671.1 683 693.7 704.4 715.4 726.8 737.6 750.5 763.4 775.6 786.6 795.7 803.1 808.6 812.9 817.9 820.2 820.4 816.6 807.7 797.9 793.1 790.7 791.9 796.7 803.4 816.9 829.7 843.6 853.8 859.6 856.7 837.8 816.2 796.7 791.7 789.4 768.7 745.5 721.4 708.5 698.4 683.1 668.6 640 623.6 610.5 594.4
669.3 673.7 677.6 682.1 686.8 693 699.1 705.4 711.9 718.3 724.9 731.8 738.6 746.6 757 769.1 782.5 795.9 807.1 825.9 834.9 844.5 847.9 843.7 835.3 825.4 805 778.4 751.9 731 715.6 731.6 752.8 757.8 760.4 767 785 797.7 795.5 793.4 786.8 771.8 764.8 757.7 748.8 743.8 740.5 738.5 736.6 734.7 731.6 727.3 720.3 718.1 717.3 708.4 700.9 681.6 665.3 648.7 635.1 621.5 605 586.3 569.9 557.6 546.3 535.4 526.3 516.5 501.9 492.1 484.3 476.1 466.7 461.1 455.2 450.5 452.8 446 444.2 444.4 443.8 447.8 448 440 433.3 432.4 424.8 423.6 424.1 421.9 414.2 411.2 411.5 414.6 431.8 432.9 433.9 434.4 435.4 436.9 437 439 443.5 447.7 452.4 458.7 465.8 474.5 481.5 488.1 495.9 501.7 510.2 519.2 527.2 531.7 536.5 543.4 555.8 565.5 575.8 585.9 596.6 610.4 624.7 639.8 656.6 675 692.4 703.7 712.7 722 726 724.9 719.7 705.9 694.1 682.9 669.1 663.9 662.1 658.9 654.9 649.3 641.1 637.2 635.4 634.8 650.2 661.4 673.1 685 695.8 706.7 716 724.9 734.1 747.3 759.8 771.8 781.6 790.2 797.8 806.8 815.9 824.7 830.8 836.6 834.6 826.2 814.4 805.7 803.2 802.7 805.1 810.3 821.2 831.1 843 848.4 848.7 840 821.5 794.4 787.4 785.5 773.5 753.4 733 712.4 703 692.4 672.8 655.7 636.5 613.6 589.8 565.8
675.2 678.4 683 688.4 694.1 700.6 706.8 712.7 718.3 725 731.8 737.5 744.4 752.1 762.2 776.4 788.1 797.8 811 823.7 828.1 826.4 821.7 819.9 815.9 807.7 789.7 762 740.5 725.1 728.2 750.1 763.8 765.7 768.7 777.9 796.9 799 791.8 784.8 773.6 763.8 758.5 750.1 741.4 738.3 735.4 733.5 729.8 728.2 724.6 719.7 719.9 712.1 707.8 701.5 687.4 668.8 653.9 638.4 626.6 612.8 595.5 577.8 565.4 552.7 541.3 530.9 521.5 507.2 498.2 487.7 476.4 470.2 461.9 453 448.8 446.5 445.7 444.9 443.4 443.4 444.7 443.4 435.7 433.4 429.9 426.9 425.2 424.6 424.5 423.2 414 411.5 412.1 412.5 433.5 434.8 435.5 436.6 436.7 438 440 442.4 446 450 455.3 462 470.9 478.3 487.4 493.6 499.9 506.6 512.7 523.9 529.8 534.9 540.1 548.8 558.4 567.9 577 587 597.6 610.7 625.4 641.8 659.9 680.2 693.9 705.5 714.7 721.8 729 732.9 725.7 711.6 696 687 677.4 671.2 667.7 664.2 661.3 655.4 647.7 640.1 637.3 635 649.1 663 673.8 685.6 695.9 706.3 713.7 721.6 732 743.4 754.9 766.1 776.3 785.6 794.1 805 816.7 827.6 837.3 848.4 850.9 846.5 837.6 822.5 815.7 813.3 812.7 816.7 825.3 832.8 837.5 839.8 833.1 817.8 794.6 783.1 779.9 771.8 757.2 737.9 717.4 705.9 697.2 682.7 657.4 640.9 625.1 590.5 564.2 542.4
679.8 684.5 690.9 696.3 702 708.2 714.2 720.4 725.8 731 736.9 744 751 761 770.5 781.5 793.4 806.2 817.1 822.2 821.3 815.2 807.4 794.3 784.2 779 767.4 747.8 733.7 724.8 745.2 762.7 766.9 767.8 775.1 788.7 795.5 790.1 780.1 771.2 761.2 755.6 747.4 739 735.1 733.3 730.9 728.3 724.4 721.2 719.7 718 706.2 701.6 697 687.6 674.6 660 642.6 631.4 618.7 603.6 586.9 571.8 559.9 548 536.8 525.5 513.9 503 491.8 482.4 474.1 466.1 456.9 449.8 446.5 444.6 442.9 443 440.9 439 436.4 435.5 434.3 433.2 431.7 426.4 425.2 424.6 415.2 413.6 413.1 412.5 411.9 420.5 432.7 433 436.3 438.2 438.8 438.7 440.6 444.5 448.2 452.4 458.2 465.6 475.5 484.2 491.8 497.6 504.8 508.2 521.1 525 533.6 537.7 542.5 551.7 560.7 569.3 576.9 586.8 597.3 609.6 624.4 642.3 659 680.2 694 707.5 717 723.1 731.1 735.4 727.7 716.2 702.2 695.6 685.3 676.9 672.3 669 666.2 659 652.4 644.2 641 640.2 647.5 662.4 673.6 684.2 694.3 703.1 710.9 718.2 728.3 739.1 749.8 760.3 769.6 780.6 791 803.1 816 829.3 840.5 852.8 859 862.1 855.8 838 827.7 822.9 823.3 825.5 829.6 831.4 827.8 816.4 806.2 788.7 777.3 772.3 765.4 754 740.7 723.1 707.5 697.2 685.6 667.1 644.8 627.5 607.7 583.6 556.7 531.1
685.5 692.1 699 704.5 710 715.7 721.3 727.1 731.8 737 744.6 752.4 759.6 768 779.1 789.9 799.4 811.7 822.5 825.8 820.6 810.4 800.3 785.1 776.7 770.1 757.8 742.5 731.2 735.2 757.4 763.2 762.1 766.1 776.4 780.5 783.3 774.8 766.8 756.9 752.2 744.8 736.5 732.1 730.7 729 726.6 724 720.3 717.2 714.2 705.4 697.6 691.7 684.4 676.5 663.9 650.8 635.5 622.3 608.8 595 578.9 566.9 553.4 540.8 532.8 521.7 507.3 496.3 485.7 477.4 469.7 461.3 453 448.2 445.3 443.9 442.2 441.3 439.6 439.1 437.4 435.3 434.1 435.5 428 426.2 425.5 425 415.1 414.5 413.8 413.4 413.2 416 427.4 435.5 439.3 437.7 439.5 440 442.3 445.2 449 454 461.3 469.7 479.4 488.8 495.2 501.4 509.7 518.7 525.7 526.5 535.5 540.3 546 553.7 562.4 569.9 575.8 584.1 595.9 608.1 621.4 639.1 656.6 676.3 692.7 707.1 718.7 725.2 729.6 732.8 728.8 720.4 714.6 702.6 692.4 682 677.6 674.9 669.9 662.7 654.3 648.3 645.8 642.9 646.5 658 671 680.2 690 700 708.2 716.1 723.6 734 744.3 755.4 766 775.6 786.6 799.9 815.4 829.3 841.1 855.5 868 873.4 869.4 855 842.8 834.8 832.6 833.1 833.5 828.9 812.4 800.8 776.1 759.9 745.3 741.1 738.4 731.2 721.3 712.3 698.8 684.5 670.6 648.7 628.7 613.7 595.7 574.2 556.1 526.7
695.4 701.4 707.4 712.9 717.1 722.3 727.6 732.3 737.6 743.7 753.2 761.2 771.1 779.6 789.5 799.7 810.2 822 830.9 830.7 821.8 813 800.9 794.2 783.6 774.8 761.9 754 736.3 741 749.2 752.8 754.6 759 762.9 758.5 759.1 755.6 749.4 745.5 739.9 732.8 726.6 724.5 724.1 723 723 718.7 711.8 709.4 708.3 695.3 688.7 681.6 675.6 665.5 653.1 641.4 627.5 613.2 599.3 586 572.6 562.4 544.2 538.7 529 515.4 504.6 493.1 482.1 473.6 466 457.7 451 447.2 444 442.2 440.8 440.1 439.3 440.3 439.6 438.3 438.4 435.9 427.9 426.3 425.8 425.5 417 414.8 414.9 414.6 414.4 412.5 423.6 431.2 436.7 435.3 439.3 440.6 443.7 446.7 450.5 456.5 464.7 473.1 482.5 492.3 498.6 506.2 516.5 524.3 531.2 536.7 536.9 544.1 549 554.4 563.9 571.7 576.4 583.2 597 604.1 618.9 636.8 654.8 672 689.5 705.1 717.1 725.1 729.4 732.7 732.3 732.4 725.5 711 698.7 689.5 683 680.6 675.1 668.4 660 656 651.3 646.8 650.8 659.8 669 677.9 683.6 694.2 706 715.6 722.5 732 741.3 749.2 762.6 772.7 783.8 797.1 813.4 828.5 840.4 857.8 870.6 879.7 879.4 867.1 857 848.5 840.2 838.1 835.5 824 801.1 775.9 753 736.1 713.9 706.7 706.9 710.2 708.2 695.6 683.2 664.8 649.3 629.1 614.9 601.7 580.5 560.5 525.5 501.9
704.5 710.7 715.9 720.5 724.7 729.2 733.9 739.5 746.3 753.1 762.4 770.6 779 786.2 795.2 806.8 819.1 832.7 840.7 831.5 822.2 811.4 802.4 799.2 787 773.2 763.1 754.7 751.6 751.1 747.9 747.7 746.9 745.5 744.7 747.9 746.2 741.6 738.1 732.9 724 718.9 713.8 711.3 710.1 709.7 710 709.9 706.8 702.3 701.1 685 678.8 672.7 664.5 653.7 642.7 630.9 618.3 603.6 590.1 577.3 567.9 555.7 545.3 534.3 524.7 513.5 500.7 489.3 478.9 469.7 462.7 456.2 452.3 447.7 445.2 441.1 438.4 439 439.6 438.7 436.2 438.5 440 438.2 427.9 427 426.2 425.6 419.8 415.6 415.1 415.4 415.4 413.2 433.4 431.9 437.6 437 439.7 440.8 444.5 448.4 452.3 459.4 467.1 477.2 486 494.4 502 511.8 521.9 529.1 535.2 540.3 543.5 546.1 552 559.3 567.5 575 582.8 590 596.5 603.7 616.9 634.7 652.4 667.9 684.5 699.9 713.5 722.8 727.5 732.1 738.3 741.8 731.4 718.8 706.2 696.9 690.3 685.5 681.1 675.8 669 665.2 657.2 650.6 657.2 666.9 680.3 688.6 695.6 701 709.7 717.2 724.3 731.5 740.7 748.6 760.4 770.9 781.1 795.4 812.1 827.3 840.5 859.4 875.6 886.1 888.6 877.2 866.7 856.8 845.8 838.2 831 808.3 778 757 731.1 709.5 699.4 688.8 681.8 682.3 673.1 664.9 659 641.9 629 612.5 599 582.6 561.6 532.4 507.3 485
713.1 717.7 723.5 728.1 731.9 737 746.1 753.7 761.3 766.9 776.8 782.5 790.8 797.2 804.6 818.5 831.3 844.1 838.3 824.5 816.7 810.6 805.6 798.1 781.2 770.8 762.8 755.4 754.6 752.6 749.8 747.4 742.1 738.2 736.8 736.4 736.3 733.6 729 722.8 715.5 709.4 703.3 699.3 698.3 697 697.2 700 695.8 691.9 683.3 672.9 668.7 663.1 656 642.9 633.8 621 607.7 595.1 580.9 571.1 561.4 546.5 538.9 530.1 520.5 509.5 496.1 485.2 474.5 463.6 459.5 454.1 449.3 447.4 444.8 441.9 438.5 436.9 434.5 433.3 432.8 429.8 429.1 428.9 429.3 425.8 425.9 425.2 423.1 415.3 415.6 415.5 415.7 414.6 433.5 441 442 440.1 440.1 442.4 445 450.5 455.6 462.1 469.8 479 487.8 496.8 506 518 526.9 533.3 539.4 543.1 546.8 550.8 554.6 560.5 570.6 579.2 587.3 591.7 597.4 603.6 616.6 632.3 650.5 665.1 679.8 693.8 706.2 718.3 726 733.6 740.2 742.2 737.4 726.6 714.8 705 698.6 692.2 688.1 683.6 677.6 671.7 664 655.6 663.6 673.1 684.9 695 701.6 707.7 714.7 720.9 726.6 733.6 742.4 751.1 759.5 770.2 781.9 796.4 812.9 827 842.4 861.7 878.9 890.9 892.6 889.3 882.3 870.5 852.5 839.3 826.5 801.4 768.2 747.3 724.4 702.4 691.1 677.9 667.8 659.6 649.7 637.8 629.6 620.1 610.8 596.8 577.3 556.9 536.8 511.2 488.2 462.8
721.8 728.9 735.5 738.1 744.6 752.9 761.5 770.1 777.4 786.1 795.2 801.2 808.2 814.5 822.3 831.6 842.7 849 835.5 822.9 813.6 807.7 804.3 791.1 778.8 770.4 765.8 761.6 757.5 756.4 754.4 750.3 741.7 734.7 732.1 729.4 727.8 725.3 721.5 714.6 707.8 701.4 692.6 688.4 687.5 684.4 681.1 679.7 673.5 668.5 664.1 658.9 653.7 650 642.9 635.2 623.9 610.2 596.6 584.3 574.2 564.1 552.8 542.3 532.4 524.4 515.7 494.6 487.4 474.5 470.2 460.6 456 452.8 448.5 446 444.1 442.6 441.5 441.3 436.3 434.5 430.4 428.5 428.2 427.8 427.6 426.7 426.4 426 425.8 416.2 416.3 416.1 415.3 416.1 440.5 443.5 444.3 443.5 441.8 444.2 446.5 451.4 458.6 466.1 474.5 481.3 490.3 499.7 510.5 522.3 530.9 537 542.3 546.9 550.5 555.2 558.9 562.3 572.4 581.7 590.8 595 599.2 605.1 615.5 631.7 648.9 662.9 675.3 688 699.4 712.1 721.8 731.9 739.8 742.8 739.9 732.4 722.7 713.1 704.8 699.9 696.9 692.6 683.3 678.1 671.4 661.3 668.1 681.9 693 700.6 706.8 712 719.4 724.8 731.1 737.5 744.5 752 762 772.3 783 796.3 813.1 828.9 846.3 865.9 881 893.1 899.9 897.7 892.7 883.6 857.2 835.2 814.3 786.4 765.1 744.7 724.6 713.6 692.1 670.8 657.2 645.3 635.9 626.7 616.9 606.3 597.2 584.9 566.3 542.6 522.9 498 472.1 449.7
733.5 742.3 747.1 750.2 759.2 771.7 780.2 787.5 795.1 804.4 815 820.7 828.4 835.6 839.8 847.3 854.5 844.4 831.8 819.6 812.2 807.6 799.8 786.9 779.3 774.7 769 767.3 765.6 764.4 762 750.3 739 734.2 730.1 726 721.6 718.3 713.7 709.4 703.5 693.8 686.2 680.1 674.8 673 668.7 661.8 659 655.7 650.3 642.1 640.6 637 631.4 624.9 611 595.3 586.9 577.2 566.5 553.5 545.3 535.5 526.1 516.5 499.1 494.1 482.8 473.9 465.8 459.6 454.9 450.4 446.7 444 443.4 443.1 442.3 440.8 437.9 435.5 427.6 427.3 427.5 427.4 427.4 427.2 426.7 426.3 426 416.9 416.3 416.8 417 424.8 436.7 444.9 445.6 445.5 444.1 446.1 449.6 453.6 460.1 469.2 477.7 484.3 493.7 503.7 514.9 525.4 534.2 540.8 545.8 550.6 555.3 559.6 564.8 569.7 575.5 580.6 587.6 592.1 601.2 608.1 624.6 632.3 647.3 659.5 672.5 682.3 692.7 705.6 717.5 728.2 737 741.1 740.3 737.7 728.4 717.5 712.4 707.8 704.8 700.2 693.8 684.9 679.2 669.4 672.9 685.4 698.2 707.1 712.4 717.7 723.8 728.9 735.1 742 747.5 756.9 765.7 774.3 784.7 797.4 814 832.2 849.9 867.5 881.4 893.9 900.1 898.4 886.8 869.3 844.9 816.6 793.8 775.5 760.3 745.1 728.6 715.1 690.3 665.3 652.4 638.8 625 616 605.6 596 584 571.1 551 533.6 509.3 481.7 458.4 437.6
745.5 751.5 759.7 771.6 785.7 794.4 799.3 808.3 820.1 831.7 841.6 847.8 852.4 855.8 856.5 859.6 855.4 840 829.3 823.9 812.4 803.3 794.3 785.4 782.9 776.9 775.9 774.1 773.3 770.2 758.5 745.7 738.9 733.4 727.9 724.6 717.7 711.7 708.2 702.9 693.8 685.3 680.5 673.6 668.5 664.1 658.4 651.2 650.2 646.7 640.2 635.6 633.2 628.6 620.3 611 599.4 589.3 579.3 568.8 558.1 548 539.1 528.9 519.8 509.8 498.1 489.9 479.7 471.4 463 458.6 454.1 449.5 445.9 443.6 442 440.6 440.3 438.1 436.3 429.3 427.4 425.7 426.5 426.8 427.4 425.8 427.4 426.8 426.9 416.5 417.1 420.1 435.4 440.4 441.6 445.9 446.8 446.6 446.3 447.2 451.2 456.7 463.3 472.4 480.1 487.1 497.4 508 519 527.8 537.4 544.5 549.4 554.2 559.8 564.3 569.3 573.6 579 583.8 595.1 603.4 599.1 611.5 620.8 632.2 644.4 656.5 670.2 678.6 687.2 698.6 712.6 724.1 732.3 737.8 739.3 736.2 730.5 725.5 720.7 717.2 713.6 708.7 702.3 695.8 686.9 682.2 675.7 687.7 704.4 711.5 716.2 721.6 726.9 732.8 739.8 747.8 755 761.3 768.3 776.6 787.4 799.3 817.4 833.4 850.2 867.3 882.8 891.9 896.7 889.5 868.9 851 822.8 791.3 773.1 759.6 745.2 733.7 707.1 691.3 684.3 667.5 648.9 635.8 618.9 604.3 594.9 584.5 571.4 554.2 538.5 517.9 486.5 465.3 443.9 414.8
754.8 763.4 778.1 793.4 803.6 813.7 821.1 832.4 840.9 849.6 858 866 869.1 870 870.8 869.2 855.1 840.6 831.5 824.1 814.7 804.1 795.8 790.9 785.1 783.6 782.9 782.7 779.4 770.1 757.4 747.5 739.8 733.5 728.1 724.2 713.6 708.5 701.7 696.2 692.1 684 672.8 668.3 663.7 657.5 651.1 647 643.7 639.2 634.2 629.4 623.3 615.1 609 600.8 590.8 581.2 569.9 561.8 551.6 541.4 532.5 521.7 513.4 502.1 492.3 482.2 475.6 468.9 462.5 458.6 454 449.8 446.5 445.1 445.4 443.3 439 436.4 432.1 429.7 428.1 425.7 424.5 426.9 427.4 427.5 427.3 418.8 417.5 418.7 419.2 434.3 439.6 443.4 445.8 447.2 448.7 448.7 448.4 449.2 452.7 457.4 466.5 474.4 482.6 490 499.4 510.1 520.5 531.5 541.7 548 553 558.5 564.4 569.2 573.7 577.6 581.2 587.9 601.8 612.6 608.1 607.9 616.5 630.4 642.1 654.1 667.8 675.1 683.1 693.9 706.7 719.4 727.5 733.6 737.5 737.3 734.9 732.1 728.6 724.7 720.8 716.4 712.1 705.7 696.8 691.9 678.3 690.5 705.2 714.9 720.1 726.1 732.7 738.2 746 752.7 760.1 766.2 774.2 781 792 801.7 817.6 833.7 850.9 866.7 881.5 884.8 879.8 869.3 851.7 828.3 791.9 770.8 755.5 733.4 727.9 707.2 684.2 669 654.1 650.1 641 626.1 608.3 597.4 583.7 572 559.7 542.4 527.4 496.6 470.7 448.4 419.3 398.2
768 778.6 796.8 809.5 818.8 828.1 842 857.8 869.5 878.4 886.7 893 899.3 896.6 888.5 868.4 850.3 838.8 833.5 825.5 817.8 805.8 801.3 796.8 793.3 791.9 794.1 791.9 786.3 773.2 757.4 748.5 736.9 730.7 726.2 720.3 714.2 708.7 702.4 692.3 681.1 673.1 665.7 658.6 657.8 654 648.3 642 638.6 634.9 628.2 622.4 614.6 608.6 601.2 593.2 584.2 573.6 563.9 554.8 545.1 535.8 528.4 516.4 507.5 497.5 487.3 479 472.2 466.9 463.6 459.6 456.3 453.4 449.8 447.7 447 443.9 438.2 432.3 431.5 430.3 428.7 425.9 422.7 426.8 423.1 425.6 421.7 419 418.3 417.8 425.8 437.8 444 443.3 447.8 449 450.3 450.8 450.8 452.1 455.1 459.9 469.5 476.9 485 493 502.5 513.6 524.4 534 545.5 551.8 557.9 563 569.9 574.1 578.4 583.4 587.8 597.6 606.3 614.2 612.1 616.2 618.3 625.1 639.2 652.4 664.5 673.1 680.3 689.2 701.1 714.2 724 730.1 737.7 740.2 737.3 737.1 736.2 732.9 728.3 723.7 720 714.2 707.7 699.7 684.7 692.2 708 718.5 724.3 729.9 737.1 745.9 753.1 759.5 764.7 771.5 778.3 785.2 794.4 804.8 818 834.2 850.6 865.7 874.9 871.9 862.3 839.5 813.6 792.1 764.9 750 738.5 719 701.9 692.5 663.7 653.3 641.6 630.3 623.5 616.9 599.4 585.4 573.7 558.2 540.2 524.3 499.8 476.1 456.1 429.4 406.5 388.1
781.6 796.2 812.5 821.7 835.1 849.2 868 882.4 894.8 906.8 918.2 928.2 930.4 922.3 899.7 863 849.1 840.9 833.7 832.4 820.2 810.4 808.8 806 806 804.9 806.6 803.7 792.4 777.2 759.5 747.9 739.2 733.5 723 717.1 713.2 707.6 702.3 693.4 681.9 675.9 670.5 654.7 650.7 648.9 646.1 639.4 633.7 626.9 621.2 615.5 611.3 602.6 594.3 586.3 576.5 567.4 558.5 548.8 538.9 530.8 521.6 511.5 503.3 493.7 484 476 470.4 467.8 465 462.8 461.6 459.6 455.7 450.7 445.9 445 442.4 440.3 434.6 430.8 429.2 426.6 422.2 421.8 421.1 419.8 419.3 419.2 420.5 426.6 430.7 439.6 443.9 446.1 448.2 450.1 451.4 452.3 453.3 454.5 457.3 462.8 470.6 478.6 486.8 495.2 506.1 516.5 527.4 538.2 549.2 556 561.9 568.2 574.3 579.4 584.2 589.6 597.3 604.7 612.6 618.5 621 623.1 626.7 628.2 633.8 649.6 662.6 672 679.1 686.2 696 709.2 720.7 729.7 737.6 741.7 741.7 740.1 739.4 737.5 732.9 729.7 726.2 720.1 715.5 704.3 693.7 704.4 709.4 722.7 731.1 736.5 743.9 751.1 757.9 763.4 770.7 777 782.6 789.6 798.3 808.6 821.4 836.2 852.3 863.6 863 846.8 835.4 814.6 787.8 773.2 751.3 730.5 721.1 707.3 691.8 670.6 653.9 647.3 633.7 622.5 617.9 610.8 588.7 572.9 558.6 538.2 519.8 502.7 479.2 460 437.6 415.3 397.3 380.1
806.2 825.5 835 843.9 860.3 874.1 892.9 902.2 910.6 924.7 934 937.3 942.7 934.7 901.7 873.1 853.6 847.9 846.6 834 824.4 820.5 819.1 818.5 819.3 820.4 823.1 819.8 806.4 788.8 778.5 768.6 745 737 736.9 726.4 712 706.2 698.6 692.3 682.2 675.1 664.5 654.5 648.9 643 639.3 634.3 629.8 624.7 616.4 611.2 603.6 595.6 587.6 579.1 570.5 561.6 552.2 542.9 535 526.7 518.4 508.5 499.4 491.1 485.3 474.8 470.3 468.1 467.6 468.2 468.9 466.3 462.6 457.4 454 448.8 444.9 437.1 434 432.2 430.6 428.4 424.5 423.2 422.7 421.7 421.5 419.3 424.8 429.5 436.1 440.4 443.9 446.8 448.7 450.5 452.8 454.3 455.5 457.1 460.3 465.8 471.9 480.3 489.8 499 508.7 519 530.3 541.4 552.3 559.5 565.9 573 579.1 584.3 589.5 597.3 607.2 614.7 619.4 625.5 630.1 632.2 637.3 640.2 641.3 646.5 659.3 670.2 678.7 684.6 693.5 705.6 719.3 730.7 738.6 743.4 745.7 744.4 743.3 740.8 738.2 735.5 731.8 727.6 720.7 703.7 706.2 712.5 713.9 728.6 736.7 739.9 750 756.1 763.8 771 776.1 784.3 790 796.4 803.8 811.5 825.2 839.1 854.8 864.5 857.3 836.8 821.9 801.1 777.5 756.7 737 721 701.1 685.1 670.3 668.8 660.4 643.5 626.1 617 615 605.9 586.8 567.5 534.2 517.5 504.5 476.8 463 445.9 423.3 405.2 385.6 368.2
832.3 843 856.7 872 887 901.1 912.3 923.3 933.2 952.8 963.9 962.5 954.7 935.2 903.4 876.9 859.5 848.6 841.4 835.1 834.3 831.2 829.2 828.6 834.2 840.2 839.2 838.8 822.4 809.4 805.8 771.8 751.1 745.9 745.8 736.1 720 704.7 693.6 689.7 680.2 672 662.5 656.1 649.3 641 633.6 627.2 622.8 618 612.7 605.8 594.5 588.1 581.3 573.5 565 556 547 538.4 530.8 523.3 515.1 506.3 497.3 488.4 480.2 477 471.9 471.1 470.8 472 473.4 470.9 467.9 463.2 455.2 447.4 442.5 439 436.8 433.5 432.1 431 429.8 424.8 428.6 422.3 421.1 419.8 423.8 433.3 436.7 439.3 442.5 446.6 449.6 451.7 453.9 455.9 457.9 459.8 463 468 473.7 481.7 491.7 501.5 511.1 520.6 532.3 544 554.8 562.5 570 577.6 584.1 593.6 598.4 607.9 618.5 625.9 629.5 633.1 636.5 638.9 644.9 647.4 650.2 653.3 660.4 669.9 679.3 686.7 696 704.7 721.9 733.3 739.7 745 747.7 749.4 748.2 746.9 744.2 741 737.8 731.9 717.8 715.1 718.9 724.9 725.9 733.9 741.2 749 755.2 764.7 773.4 779.6 787.3 793.5 800.4 805.4 810.3 816.7 831.9 844.9 857.9 851.6 828.9 816.1 804.5 781.9 760.5 744 731.2 712.1 688.4 669.9 676 674.8 658.7 635.3 619.2 609.5 603 595.2 578 558.6 530 508.6 488 468.1 451 430.6 413.3 393.3 371.5 356
859.6 869 882.9 897.3 906.5 913.1 923.8 936.9 956.4 972.4 977.5 976.9 969.8 934.4 905.8 879.4 860.3 856.1 846.6 841.8 839.6 840.5 836.6 839.1 847.1 857.2 863.7 872.1 858.9 852.7 825.1 797.4 765.9 759.9 751.3 732.5 721.9 711.4 700.2 689.2 678.8 670.4 665.3 653.9 645.2 638.5 630.3 624.9 616 608.8 605.6 601.3 593.2 583.6 574.1 565 559.9 551.1 542.9 535.3 527.6 520.1 512.2 503.1 494.5 486.8 479.9 473.3 467.9 468 471.2 473.8 473.8 472.3 469.1 462.8 453.6 443.6 441 440.1 437.5 435.1 433 430.3 426.4 424.8 423 422 421.2 419.5 430.7 436.1 438.8 440.3 441.9 445.8 451.2 454 456.7 458.7 460.3 462.9 466.7 470.7 476.4 484.6 494.7 504.6 513.6 522.4 535.2 547.1 557.6 566.7 574.2 582 593.1 603.6 608.4 618.2 628.6 638.6 642.9 644.9 647.6 650.6 654 655.8 658.5 663 667.7 674 681.6 690.1 699.5 706.6 722.9 734.5 741.6 747.3 751 753.4 754 752.2 748.5 746.6 743.7 736 719.3 726 731.6 733.9 736.7 738.8 749.1 755 763.1 773.1 781.5 789 798.1 805 810.9 813.8 818.1 824.3 837.2 850.2 857.4 835.4 817.8 804.4 776.6 756.9 739.3 721.9 716.8 696.9 671.7 676.2 679.1 672.6 649.7 628.7 613 597 590.8 582.1 566 548.7 524.9 502.6 479.9 461.2 438.1 421.2 399.3 379 356 356
885.5 889.3 900.6 910 915.9 929.4 944.9 959.8 971.9 977.6 981.4 985.1 975.2 938.1 909.4 888.9 871.7 858.4 846.6 847.5 848.4 843.3 847.1 848.3 863.3 878.6 899.3 911.3 919.4 877.1 850.9 819 791.4 770.3 742.1 726.1 714.4 709.8 703.1 695.1 680.5 665.6 656.2 648 640.6 633.4 626.5 619.5 610.6 603 598.9 595.2 588.3 578.2 569.9 561.7 552.1 546.4 539.8 533.5 523.6 516.7 507 501.5 493.9 488.6 483.2 478.1 462.3 455.5 454.7 453.3 456.4 470.1 465.3 458 449.9 441.3 439.4 439.3 438.6 431.9 428.5 427.5 426.4 425.7 424.3 421.3 420.6 422.7 434.8 439.5 439.8 439.8 440.8 446.1 452 456.5 460.7 462.4 464.1 466.3 469.4 473.6 479.6 488.1 498.7 507.8 516 526 537.7 549.2 560.6 569.7 577.7 588.3 607.3 613.3 617.8 625.2 636.5 648.9 655.9 660.1 661.3 661.6 663.3 665.2 668.2 672.5 677.5 683.2 687.8 692.4 699.7 709.7 723.9 736.3 744.4 750.5 755.2 758.5 759.6 757.1 754.4 753.2 750 737.5 728.1 734.2 738.7 741 744.4 748 754.1 761.2 769.7 779.9 788.8 800 810.7 817.8 822.1 825.6 827.7 832.2 841.7 851.3 851.5 815.9 796.9 783.7 764.9 742.4 724.5 705.1 693.5 671.5 670.1 679.6 677.9 663.7 643.1 621.4 599.8 583.9 577.5 570.2 556.8 538.9 519 493.6 473.5 448.9 425.5 406 382.9 359.5 356 356
903 904.4 909.7 920.8 938 948.6 959.8 968.4 976.7 981.1 987.9 994.1 994.6 953.6 918.5 898.4 875.5 860.9 854.8 855.2 847.4 854 854.1 869.5 881.6 903.8 927.9 948.7 932.1 883.8 857.1 828.9 796.4 771.7 744.5 724.4 716.4 706.9 695.3 684 665.7 657.3 649.7 644.6 637.4 629.4 622.4 612.3 604 596.3 592.6 588.3 582.7 573.7 565 557.4 549.5 541 533.9 529.1 522.1 514.7 508.7 499.7 492.3 490 485.4 475.1 457.6 460.2 458.5 456.4 448.1 458 459 442.8 440.3 437.9 438 435.1 434 432.8 430.5 429.2 427.9 426.2 424.5 421.6 420.5 422.1 433 438.6 439 438.6 440.6 446.3 451.2 458.1 462.8 465.3 467.1 469.1 473.3 477.3 484.5 493.2 501.5 510.6 518.4 528.5 539.5 551.2 562.6 572.8 582.9 595 616 620.8 626.1 630.3 644.3 654.6 665.1 671.7 673.8 675.3 675.5 677.1 679.1 681.5 685.9 690.7 692.9 697.5 703.4 716.8 728.3 739.3 748.8 755.1 759.8 762.9 764.2 762.3 760.9 759.1 754 740.8 736 739.2 744.8 747.4 750.8 755.7 759.5 766.2 775.1 784.8 795.9 809.5 821.9 828.4 832.6 834.7 837.2 841.8 848.3 851.9 830.1 795.4 779.4 768.5 749.4 725.7 709.3 691.5 678.9 662.5 674.1 680.2 673.4 659.9 638.6 615.6 594.2 576.7 572.1 563.8 547.6 538.5 509.5 484.5 464.9 430.8 402 385.6 363.4 356 356 356
914.6 921 926 935.1 950.6 966.4 979.8 995.4 1003.2 1006.6 1010.6 1015.5 1005.4 976.3 933.5 909.9 883.5 868.3 860 862.3 858.7 867.6 871.6 889 908.1 932.2 955.3 956.9 928 886.2 852.4 830.1 796 771.9 740.5 724.4 714.1 698.4 683.4 677.2 660.7 653.5 647.3 641.7 634.5 625.6 615.4 604.8 596.7 590.9 587.4 576.8 575.1 566.9 560.1 553.3 547 540.5 531.6 520 514 506.4 500.2 493.6 485.5 480 472.2 461.6 466.9 469.8 470.7 459 455.6 451.3 445.3 445 444.4 441.6 438.3 436.2 434.6 432.7 430.9 429.5 428 426.6 425.1 423.1 421 421.2 428.4 433.7 436.2 438.2 442.6 450.4 457.7 464 466.3 467.9 469.5 472.2 476.1 481.3 487.8 495.9 504.5 512.2 520.8 530.5 541.5 553.2 564.5 575.5 589.8 601.3 615.2 623.9 631.5 635.9 645 658.6 667.7 675.1 681.9 687.4 689 689.9 690.7 690.1 692.7 696.7 700.8 706.1 714.7 725.1 739.5 750 758.5 762.8 766.2 768.3 768.7 767.3 765.3 762.7 757.5 743.7 741.6 747.5 748.2 752.2 759.9 761.8 766.1 771.7 780.1 789.4 801.8 814.5 828.3 838.3 841.9 844.7 848 852.4 848.5 824.1 791.8 764.4 751.3 742.2 727.7 711.8 696.5 675.2 661.9 660.2 673.8 676.1 663.5 649.4 633.3 610.9 590.4 574.5 571.6 558.9 540.6 526.3 495.6 470 445 416.7 396.2 371.5 356 356 356 356
934.7 939.5 945.9 958.8 975.9 994.7 1008.9 1020.5 1018.1 1018.5 1024.3 1025.2 1014.1 991.2 955.6 923.3 894 871.4 872.9 875.1 877.9 882.9 896.9 911.7 934.4 959.6 968 953.7 922.8 882.7 849 824.3 794 759.5 739.9 724.1 709.2 695.1 680.7 670.6 657.1 650.8 645.5 639.1 630.9 620.4 609.6 599.8 593.5 588.5 582.4 575.5 569.9 557.5 555.6 549.8 540.1 540.2 534.6 528 520.4 506.2 497.1 488.6 482.2 476.4 471.1 464.4 476 475 466.8 464.5 458.2 455.9 455.4 451.1 446.2 442.7 438.2 436.4 434.9 433 431.2 429.6 428.3 427.8 426.4 426 422.3 421.3 423.2 432 435.1 439.2 446.2 454.1 461.1 467.2 468.7 469.8 471.3 474.4 478.2 483.5 490.4 499.2 506.9 514.4 523 533.2 543.8 555.1 564.5 576.7 594.2 609.3 617.7 626.1 635.7 640 649.2 661.8 669.4 678.1 687.2 696.5 701.8 703.1 701.8 701.4 703.1 706.6 710.9 717.3 724.3 737.1 749.8 760.7 768.8 770.7 774 775.5 774.1 771.3 769.5 766.6 759.4 749.9 748.1 753.8 754.3 761.4 768.4 773.3 776.4 779.7 785.3 793.6 804.1 817.4 832.9 843.9 849.4 853.1 856.9 851.9 826.5 789.5 767 749.1 730.3 719.2 709.5 689.2 678 664.4 647.7 649.4 650.7 646.3 634.7 637.6 617.6 598.9 580.7 571.2 570.2 546.9 528.8 517.3 483.4 461.2 436.4 409.2 379.4 356 356 356 356 356
949.9 953.7 967 983.4 999.1 1013.1 1020.8 1021.5 1023 1027.9 1029.8 1024.1 1015.7 1005 979.7 937.9 904.6 884.8 889.7 882.9 891.5 904.6 928.6 946.1 966.6 975.2 963 948.3 918.4 874.3 838.9 815.5 788.6 760.2 746.3 722.6 703.3 690.5 678.7 668 657 649.3 643.5 635.8 626.5 616.7 605.6 597 590.1 585.7 576.8 570.6 565.3 559.6 547.4 539.4 536.6 530.6 530.7 524.6 516.2 512 503.8 497.5 484.8 474.8 469 475.4 478.7 473.8 468.2 464.2 460.2 457.3 454.7 451.4 448.8 442.7 438.5 436.7 435.3 433.5 430.3 429.8 428.5 426.9 425.8 425.7 423.6 421.8 422.6 426.2 433.2 440.4 449.7 458.3 464.6 469.4 470.3 470.7 472.3 475.7 479.8 485.8 492.8 500.9 508.4 516.4 524.2 534.3 544.9 554.6 564.6 576.7 592.2 608.8 621.1 629 637 644.1 651.6 665.3 676.7 681.8 691.2 702.8 711.4 713.6 715.2 715.2 718.2 719.3 727.1 729.8 739.6 753.2 761.3 769.6 776.4 779.9 780.1 782.8 781.8 778 772.9 768.5 762.2 753.7 755.5 758.3 762.7 770.5 778.1 783.7 789.7 793.4 795 800.2 808.6 820.9 836.4 848.3 857.2 860.9 863 837.3 808.4 772.5 751.1 735.6 719.5 705.5 688.6 676.4 665.8 648.8 631.4 644.8 649.1 643.8 633 620.1 603.1 581.5 565.6 554.5 530.8 517.5 506.8 485.4 466.2 438.6 407.9 384 362.1 356 356 356 356 356
961.8 967 979.9 995 1007.9 1017.7 1025.1 1026.6 1032.2 1037.2 1034.3 1027.4 1017.3 1005.6 984.2 957.5 922.8 910.6 901.5 901.9 909.1 928.7 959.8 974.9 977 964.1 954.9 937.6 908.9 867.5 832.8 809.1 782.3 766.1 745.2 721.5 701 687.5 676.7 665.1 654.8 648.1 641.9 633.9 624.8 614.5 603.2 595.4 587.2 579.9 571.6 567.7 562.3 557.2 549.8 539.7 530.3 523.4 519.2 523.5 517.8 507.1 501.6 490.3 482.7 479.1 471.9 481.2 477.5 472.3 468.6 465.1 457 452.5 450.6 446.3 444.8 440.7 438.7 436.7 434.8 430.6 429.2 428.7 428.1 428.4 427.7 427.3 424.2 422.3 423.9 429.7 435.7 444.3 454.2 462.3 468 470.1 470.3 471.5 473.5 476.8 481.9 487.5 495.3 502.2 509.7 517.6 525.2 535.4 545.7 554.6 564.1 575.8 589.7 605.2 619.8 629.5 636 646.5 652.9 666.9 681.7 685.9 695.3 706.3 715.4 721.7 725.8 735.1 732.9 736 742.9 747.7 755 765.1 773.5 777.8 782.5 790.3 788.1 788.9 786.5 783.7 777.1 772 767.2 758.8 762.1 764.3 772.2 779.9 787.1 795.8 802.7 805.8 808.2 811.9 816.5 825.7 838.5 853 862.5 866.5 843.3 813.5 789.8 758.4 731.6 712.4 705.6 686.6 672 659.4 647.1 625.7 617.6 624.2 629.6 626 620.5 606.5 594.3 575.1 559.4 524.1 495.1 480.1 472.9 457.4 433.8 418.9 393.8 370.2 356 356 356 356 356 356
970.5 980.4 991.6 1001.5 1013.3 1022.9 1028 1032.2 1040.5 1043.8 1037.9 1029.3 1019.9 1004.9 991.6 970.2 953.1 929.1 920.3 930.3 943.2 966.8 975.9 974.2 967 955 945.7 928.1 900.5 862.4 829.7 807.2 789.2 763.4 744.9 721.9 696.3 684.6 674.3 662.2 651.8 646.8 641.3 633.7 624.7 613.6 602.9 593.9 584.2 576.1 569.8 565.1 558.5 552.5 545.8 536.3 527.7 521.2 515.1 510 507.8 499.2 493.5 493.8 487.6 480.4 476.6 477.7 475.5 472.4 468.9 462.9 457.8 459.5 447.6 444.5 442.4 440 438.1 436.4 435 433.4 432.9 431.7 430.3 429.6 429.5 429 422.8 424.3 425 425.7 432.1 448.8 458.2 464.4 468.2 469.7 470.6 472.1 475 478.5 484 490.2 496.8 504.1 510.4 518.2 526.7 535.1 545.2 554.8 563 574.7 587.1 602.9 616.3 627.1 635.2 643.8 653.8 666.2 682.8 689.1 695.7 706.2 717.7 725.5 740.4 748.9 748.2 752.6 758 764.2 768.6 776.5 782.5 787 792.8 799.6 798 792.9 793.7 788.9 781.4 776.8 771.4 765.7 770.4 775.1 783.9 792 800.7 808.7 817 821.4 822.4 821.9 824.6 833.2 843.1 854 862.5 863.8 833.3 804.3 783.5 752 721.4 700.7 685.8 666.3 649.6 639.5 626.8 605.8 603.3 609.6 611.1 609.4 603.9 593 578 554.4 517.8 500 475.6 456.9 447.8 433.2 415.7 407 380.2 356 356 356 356 356 356 356
984.3 998.9 1010.3 1018.3 1025.3 1029 1030.7 1035.9 1050.3 1040.1 1032.6 1027.1 1013.1 1001.8 997 987.1 973.8 956.3 954.2 969.5 980.6 985.4 976.6 969 960.6 948.1 934.7 917.8 882.6 851.5 823.4 799.4 786.3 765.9 742.8 711.5 692.8 681.9 671.7 658.7 648.7 645.7 639.8 633.2 624.2 613.4 602.8 592.7 582.9 575.3 568.2 561.1 553.1 548 541.8 536.2 532.9 523.8 516.4 508.7 510 506.5 502 495.2 490.1 482.6 481.3 478 475 471.4 466.6 464.3 461.3 452 447 448 446.4 440.3 437.6 437.1 436.2 439.2 436.5 431.6 430.6 428.4 422.8 423.3 424.6 425 427.1 428.3 433.2 449.7 459.6 464.2 466.8 467.9 470 472.4 476.1 480.4 485.8 491.5 497.9 504.8 511.2 518.7 526.3 533.5 543.7 553.1 561.1 571 583.8 598.1 611.7 623.7 633.2 643 655.2 666.6 682.1 690.8 696.5 707.1 721.2 729.9 747.7 757.2 762.4 766.5 773 777.9 783.1 789.8 795.6 800.4 805.8 808.2 806.7 800.3 798.9 793.6 787.6 782.3 776.7 773 776.4 785 793.5 803.3 811.7 823.1 834.1 837.3 834.5 835.2 835.6 839.6 847 856.7 865.2 861.6 830.1 795.6 763.9 738.1 708.2 683.7 664.9 652.5 630 618.1 605.5 587.7 587.2 597.7 605.9 601.5 589.5 571.8 545.6 519.3 493.8 483.2 468.9 446 434.2 420.2 403.7 385.1 359.4 356 356 356 356 356 356 356
1003.5 1017.3 1030.4 1038 1036.1 1033.6 1034.9 1039.1 1035.1 1029.4 1023.6 1017.8 1007.6 1002.7 999.6 995.2 991.9 988.8 994.5 1010 1006 992.9 978.1 964.9 952.7 937.7 921.6 890 862 834.4 807.3 793.7 780.1 760.9 732.5 707.9 694.2 681.4 670.1 655.8 648.2 645.2 639.3 630.5 621.8 611.4 601.2 592 582.2 575.1 568.2 559.7 551.5 544.8 539.2 534.6 531.4 527.6 523.6 518.5 514.3 506.4 501.1 495.4 488.4 486.1 483.1 476.9 474.2 470.6 468.5 465.1 455 449.4 457.9 458.6 448.6 439.5 438.9 438.3 440.3 440.3 438.7 429.7 426.3 424.2 422.8 424.5 426.3 426.2 429.5 433.6 443.6 452 459 463.4 465.8 467.2 469.7 473.3 476.9 481.1 487.3 494 500.1 505.6 511.7 518.7 524.3 532.3 541.8 550.7 558.9 568.3 581.6 593.5 605.1 619.7 630.8 641.7 654 663.2 679.2 687.7 696.3 708.4 720.9 734.4 751.7 763.9 772 778.4 785 790.1 795.6 800.6 807 814.2 817.5 818.9 816.1 810.8 804.4 797.3 792.2 789 782 781.2 784.1 793.2 804.8 814.6 825.7 838.1 849.7 853.1 849.8 849 848.1 849.2 852.9 861.2 868.5 852.9 825.4 794.1 760.4 721.3 691.2 665.7 647.4 635.3 619.1 605.8 590.2 583.5 585.5 589.9 594.6 591.1 573.8 549.9 525.4 494.5 479.8 476.6 453.6 436.3 430.7 415.5 397.2 375.7 356 356 356 356 356 356 356 356
1014.9 1021.8 1032.3 1038.4 1032.4 1034.5 1035.4 1031.7 1025.9 1020.4 1016.6 1010.3 1004.1 1002.7 1002.5 1001.6 1001.6 1006.3 1021.8 1019.3 1008.9 996.2 975.7 957.3 934.5 911.8 884.2 861.3 837.3 815.8 798.2 784.5 771.1 750 727.3 709.9 695.9 680.9 666.1 651.3 648.4 645.3 638.2 628.3 618.3 608.9 599.6 589.7 581.5 573.7 565.7 557.8 549.3 542.8 538.3 533.6 529.8 525.3 519.5 515.7 511.5 506.4 500.9 495 486 485.3 479.2 473.5 466.5 462.4 458.3 455 452.6 462.2 460 455.7 441.3 441.5 440.5 443.2 441.8 438.3 431.6 427.1 426.4 425 422.8 425 427.4 429.5 429.9 435.1 442.5 455.9 458.9 461.9 464.9 467.5 470.3 473.6 477.4 482.3 489 495.9 502.3 507.7 512.2 517.1 522.4 530.9 539.6 547.5 557.3 566.4 578.9 590.4 601.7 614.2 626 636.9 649.2 659.2 670.7 681.1 690.3 705.4 716.8 734.4 752 766.3 778.1 787.1 794.2 798.6 806.6 812.8 818.3 826.8 828.8 831.7 830.6 823.6 813.1 802.2 798.1 794 786.8 785.6 793.3 806.3 815.5 825.8 838.6 850 858.7 863.1 861.7 859 856.9 858.3 859.4 864.2 862 838.1 808 774.7 743.5 712.5 677 644.8 630.3 623.3 607.7 597.8 588.8 587.2 585 585.4 585.3 573.4 553.2 526.7 508.4 483.5 468.9 455.9 445.3 433.4 416.5 402.6 377.1 356 356 356 356 356 356 356 356 356
1019.6 1024.5 1029.8 1028.8 1028.5 1032.8 1032.1 1024.9 1017.7 1013.3 1010.9 1001.2 1000.5 1002 1003.7 1005.3 1008 1014.2 1021.8 1017.4 1007.5 993.1 967.2 929.7 904.4 878.4 855.8 834.4 815.6 797.4 786.9 773.3 756.6 737.9 724.7 710.7 696.8 677.5 662.2 649.3 648.5 643.8 636.3 624 615.2 606.2 597.4 587.4 579.6 571 563.6 555 548.1 541.3 536.7 532.8 528.9 523.7 518.7 513.2 509 505.4 498.3 492.9 487.1 485.5 479.9 474.3 469.5 465.3 458.3 458.5 463.1 461.5 456.1 442.7 442 447.6 446.7 443.3 439.4 431.7 428.6 427.4 429 425.7 423.1 425.5 427.4 431.5 435 433.3 443 455.1 455.4 458.2 465.3 468.8 471.7 474.3 478.2 484.1 490.3 496.4 502.5 507.7 511.3 515.7 520.7 528.1 537 545.6 555.6 564.2 574.2 586.8 597.7 609.1 618.5 629.3 642.9 651.8 662.8 673.6 686.1 699.7 714 729 748 763.5 777.8 789.2 796.6 804.3 814.2 817.9 823.5 835 839.3 841.5 841.1 832.7 822.1 812.1 802.9 797.3 792.2 793.6 804.8 815.8 824.6 835 847.6 857.1 865.8 869.1 870.2 868.5 869.7 869.5 865.7 858.3 842.5 812.8 786.4 760 728.9 693.4 658.3 628.9 618.5 608.7 601.5 581.8 580.8 580.3 572.3 575.2 570.5 551.2 533.3 508.6 490.4 476 457.5 446.8 431.6 410.6 391.8 370.8 356 356 356 356 356 356 356 356 356 356
1015.1 1019.7 1018.9 1020.8 1023.7 1026.8 1022.8 1014.9 1009.8 1007.2 1001.8 995.4 997.8 1000.2 1003.4 1006.2 1009.8 1015.4 1016.1 1012.3 1002.3 980 943.7 909.7 884.7 860.1 834.7 811.5 796 782.9 772.9 759.3 744.5 736 719.8 710.2 692.4 674.1 656.5 649.8 648.7 643 633.4 621.4 611.8 601.9 593 584.3 574.1 568.4 562 554.4 545.7 539.4 534.6 530.9 526.8 521.1 516.7 512.2 508.1 505.2 500.5 492.6 490.8 487.9 482 476.1 470.9 466.4 458.3 463.3 457.3 446.8 442.7 441.1 447.1 449.3 446.4 438.1 432.1 429.7 428.2 428.2 428.5 425.3 423.6 425.6 427.3 430.6 436.3 437.9 436.8 444.4 455.5 461.9 466.3 469.7 472.2 475.8 480.2 485 490.5 496.2 502.3 507.3 510.8 514 519.4 526 534.3 543.2 552.9 561.7 571.5 582.7 592.7 603.4 612.5 622.2 633.4 643.7 655.1 666.4 680.3 692.7 707.9 725 740.6 757.5 771.9 782.5 792.7 805.1 814.1 820.2 826.9 838.1 843.4 846 845.8 838.6 831.2 820.3 810.4 805.6 801.8 805.6 815.4 823.8 833.1 841.8 852.7 862.1 869.4 874.6 878.6 883.5 884.8 878.8 865.3 843.3 817.5 788.7 765.8 741.7 708.5 678.8 648.5 613.6 601.8 598 585.7 565.6 559.8 561.1 562.3 553.9 538.6 521.8 506.9 486.5 471.6 452.4 437.5 416.1 399.9 380.8 362.3 356 356 356 356 356 356 356 356 356 356 356
1011.3 1011.2 1011.6 1014.3 1017.7 1017.6 1009.6 1001.8 999.8 998.2 990.6 990.5 994.5 997.4 1000.8 1003.6 1007.1 1010 1007.9 1004.8 991.2 968.4 927.8 891.2 866.9 845.9 817.8 798.1 783.5 771.9 765.7 754.2 743.3 730.4 718.3 707.1 686.8 665.2 652.6 649.9 647.4 640.6 630.4 618.6 608.3 598.2 587.9 579 572 566.6 559.6 551.3 542.8 537 532.7 528.8 525.4 520.1 516.2 511.9 508.8 504.3 504.1 500 491.9 487.1 480.9 475.4 471 467 461.4 449.2 445.1 442.8 441.2 439.3 444.9 447.1 441.4 433.3 431.7 429.5 427.8 428.9 427.7 423.2 426.5 426.4 430.4 436.7 442.5 442.8 445.5 443 452.7 463.5 468 466.5 472.1 477 481.9 486.1 489.5 486.4 488.1 500.2 508.2 511.7 517.9 523.5 531.2 540.8 549.2 557.8 567.3 577.7 588.3 599.1 607.2 615.7 626.3 637.1 646.4 658.3 671 685.4 701.6 716.9 732.9 749.4 764.1 775.4 785.5 800.3 810 816.6 825.7 835.3 842.5 848.8 847.3 841.4 834.8 826.6 819.5 813.2 810.4 816.7 824.2 832.3 840.1 847.2 857.4 868.2 876.2 885.5 890.4 890.3 883.6 863.2 843.6 819.1 793.5 766.3 739.7 715.4 689.1 661.5 625.9 599.4 585 580.9 568.6 556.8 545 546.8 549.7 527.2 516.3 493 479.1 454.3 447.4 422.7 404.2 390.6 380 363.9 356 356 356 356 356 356 356 356 356 356 356 356
1006.7 1003.2 1001.7 1005.2 1008.8 1003.5 995.7 993.2 992 987.6 983.4 984.9 989.1 992.5 996.6 998.2 1000.7 999.9 997.5 994.5 977.3 955.9 905.7 878 852.5 832.4 805 787.5 775.3 763.8 757 746.4 734.5 723.9 716.1 702.9 680.1 657.9 650.9 649 645.9 638 627.6 615.6 604.8 594.2 583.7 574.8 569.7 564.6 556.6 548.6 540.7 534.4 530.4 527.4 523.2 519.6 516.2 512.6 507.8 504.5 507.9 501.6 492.4 485.7 479.7 473.3 468.6 463.7 455 445.6 442.9 441 437.8 434.4 434 434.5 434.3 432.7 432.2 429.7 428.8 426.6 425.7 422.7 425 426.7 432.2 440.8 445.6 451.6 455.6 456.2 445.5 449 453 458.2 464.1 467.3 467.7 470.4 473 487.4 493.6 492.5 498.5 508.9 515.7 521.9 528.6 537.9 545.9 553.9 563.8 573.1 583.9 593.4 602.2 611.2 620.3 629.9 639.7 650.6 663.2 677.6 692.1 706.9 722.6 738 754.1 765.4 775.8 788.7 800.9 811.2 820.5 830.6 838.9 845.5 846 843.7 838.9 834.1 827.4 821.7 820.8 825.2 833.3 838.3 843.8 854 864.7 876.4 887.1 892.8 894.6 886.1 862.4 852.8 834.1 807.6 784.8 745.3 720.2 694.5 669.8 639.7 612.2 591.1 573.1 566.7 559.3 543.7 540.7 537.6 525.4 511.8 503.5 470.2 454.7 439.5 424.6 415.5 398 376.5 360.2 356 356 356 356 356 356 356 356 356 356 356 356 356
997.7 992.6 993.9 997.3 997.9 987.8 985.6 983.6 981.7 977.9 976.9 979.3 982.9 985.1 987.8 990.8 989.8 987.2 986 978.6 966.6 945.5 895.6 871.3 845.8 822.3 798.8 782.6 771.4 764.6 756.6 740.5 725.4 719.1 710.7 692.7 671.9 653.5 649.2 648.3 644.2 635.2 623.8 610.9 600.6 591.1 581.6 574 569 563.3 555.6 546.8 539.9 533.5 529 526 523.3 519.6 516.1 511 507 509.6 507.5 500.4 489.9 483.3 477.6 471.2 465.6 456.6 448 444 441.8 438.8 436.3 435.8 435.7 433.5 432.3 432.7 429.9 428.1 427 425.8 425.2 424.3 423.7 426.7 430.6 439.7 443.3 449 457.2 462.3 459.9 453.7 458.6 454.9 457.7 460 465.8 475.4 480 489.4 498.1 505 507.6 509.3 515.4 520.8 527.6 535.5 541.4 549.9 560.3 568.4 579 588.9 596.8 605.2 614.7 623.5 633.1 644 655.8 669.5 683.5 697.1 711 725.5 738.6 752.6 762.9 775.4 787.7 801.4 813.5 823.4 833.5 843.4 844.7 843.5 841.8 838 831.3 826 827.8 833.5 839.3 842.9 848.7 858.1 870.2 883.8 889.5 893.3 884.4 873 852.6 835.9 812 798.5 765.7 736.9 708 670.7 646 621.4 597.8 579.6 560.1 543.4 546.5 532 530.5 524.3 509.1 494 481.3 463.6 435.1 426.2 410.4 397.4 377.3 358.5 356 356 356 356 356 356 356 356 356 356 356 356 356 356
983.7 981.1 985.5 988.9 986 979 973.9 975.7 972.5 970.5 970.3 973.7 975.7 975.4 976.5 978.9 974.3 970.9 966.7 959.8 950.1 936 893.3 868.2 847.3 826.5 796.8 778.8 769.2 759.6 751.6 733.9 723.1 716.1 699.6 685.3 663.2 652.3 648.3 646.5 640.9 629.5 618.7 607.5 597.7 587.9 579.7 574.1 568.3 562.4 554.8 545.8 538.8 533 528.7 525.4 522.4 519.5 518.7 514.9 510.8 503.6 499.7 495.7 488.7 482.3 474.7 469.2 463.3 453 446.2 442.5 439.2 437.9 437.4 437.9 437.3 435.3 433.6 431.4 428.9 427.9 426.3 425.5 424.6 423.8 422.9 427 432.1 439.6 452.8 452.6 456.9 461.7 464.6 465.7 469.3 470.5 460.2 468.4 473.6 490.4 487.9 492.7 502.5 504.1 510 508.4 517.2 520.9 526.6 533.5 539.2 545.8 554.7 563.2 572.8 582.6 590.8 598.3 608.9 617.9 627.2 638.2 648.2 661.3 674.7 687.3 699.7 711.9 721.9 734.8 747 759.9 774.1 788.7 802.5 815.7 827.8 835.7 841.1 843.7 842.2 836.1 832.3 830.5 832.6 837.8 842.8 846.5 851.6 860.5 877.4 883 888.1 881.9 868.5 852.6 832.2 806.1 794.7 777.2 746 725.7 682.1 650.9 625.9 603.7 583.9 565.6 548.6 528.1 521.2 508.5 503.5 492.4 479.6 474.1 463.5 449.1 417.3 405.1 389.9 384 380.7 356 356 356 356 356 356 356 356 356 356 356 356 356 356 356
971.6 970.8 976 979.1 974.5 969 968.5 968 964.3 963.2 964.5 967.1 967.9 964.8 959.9 957.8 955.7 953.3 947.9 942 935.8 931.6 904.7 871.2 847.9 831.1 800.7 780.5 769.3 755.6 744.9 727.4 720.5 714 691.2 679.4 657.8 650.1 647 643.7 634.5 623.1 612.1 603.4 595.2 586.8 579.5 573.8 567.2 559.8 551.4 544.1 538 532.8 528.7 525.1 522.4 522.1 520.6 518.2 514.4 510.2 505.5 497.1 486.4 480.3 473.8 466 458.4 449.9 445 441.2 437.8 437.1 437.4 438.8 438.6 437.4 436.4 436.1 433.7 429.3 427.5 425.8 424.3 423 422.9 427.6 434.7 447.8 455.2 457.8 463.5 466.3 462.6 471.1 473.3 476.1 465.2 482.4 485.5 486.6 494 501.2 507.7 513.3 515.1 517.5 518.8 522.1 526.6 532.9 538.3 544.6 551.8 559.4 567.3 576.5 584.4 594 604.8 612.8 621 631.1 641.4 652.1 664.7 677.4 688.4 698.1 709.8 721.7 733.9 747.5 763.6 779.2 794.5 808.1 821.2 830.2 836.8 838.6 836.5 833.6 832.1 831.2 834.4 839.2 843.9 848.1 854.8 866.3 878.9 878.2 873.4 862 848.1 823.2 798.4 782.4 770.1 755 728.9 700.4 664.5 633.2 607.7 587.5 568.4 549.9 531.2 513.1 484.6 476.5 468.6 460.6 450.9 451.2 451 434.2 415.1 397.2 387.9 380.3 368.4 356 356 356 356 356 356 356 356 356 356 356 356 356 356 356
960 959.3 963.3 965 962.4 958.5 959.4 958.5 955.3 955.3 957.6 958.5 955.6 950.9 947.2 943.3 939.4 938.9 935 930.8 927.1 924.7 911.1 887.4 859.2 836.2 813.4 793.9 773.4 754.8 735.5 724.5 713.7 700.6 687.8 673.2 654.3 646 643.6 638.1 628.4 617.6 609.2 601.1 592.9 586.3 579.5 573 565.3 558.4 549 542 536.9 531.9 527.6 525.6 525.3 523.7 522.5 520.7 516.3 512.6 507.4 498 490.1 480.6 471.5 462.6 456.2 448.3 444.2 439.5 436.6 436.7 437.7 438.3 438.6 437.5 436 435.2 434.6 429.6 427 425.5 424.7 423 424 427.5 441.3 451.4 455.6 459.7 467.3 471.7 466.6 470.5 473.9 478.1 476.7 482.5 490.4 497.2 502.2 507.9 512.3 516.4 521.2 523.3 523.4 523.6 524 531.9 537.8 543.5 548.7 555.5 564 573 580.1 590.4 600.6 609.1 616.2 625.3 634.6 644.7 655.4 666.9 678.2 690.3 700.6 712.9 723.9 737 756 772.9 788.1 802 817 827.9 831 830.9 831.6 832.3 826.4 826.9 831.3 837.7 843.7 850.3 858.5 871.5 878.8 873.2 853.9 836.6 811.9 796 777.6 762.3 742.8 722.2 702 673.9 644 615.3 593.5 574.2 549.8 532.4 512.9 492 469.1 460.9 458.6 456.2 445.6 443.6 445.2 429.6 405.1 384.4 374.5 356 356 356 356 356 356 356 356 356 356 356 356 356 356 356 356 356
948.6 948.3 951 952.1 950.6 951.1 952.3 950.5 946.6 947.1 950 949.6 946.3 941.5 936.8 929.3 928.9 927.1 923.5 919.7 917.5 914.8 898.9 880.7 860.7 844.3 826.4 797.8 770.1 756.7 734 718.2 705.7 694.8 687 668 649.6 641.3 639.4 632.4 622.9 614.6 606.1 598.5 591.4 583.5 576.4 571.8 564 554.4 545.8 541.2 537.2 531.8 527.4 527.3 526.9 526.4 524.8 522.6 519.5 512.4 507.6 497.9 488 478.2 470.2 460 452.8 446.5 442.7 438.2 435.4 435.4 437 437.6 438.1 437.2 434.4 432.2 430.6 428.4 426.2 425.1 425 423.2 423.8 430 443.9 450.1 456.1 460.6 468.7 471.9 472.6 474.7 476.7 479.7 483.8 485.2 494.7 501.1 506.6 511 515.1 520.1 523.7 526.1 527.5 529.2 530 532.5 537.5 543.1 548.2 554.6 562.9 571.9 578.2 586.2 596 604 612.3 620.8 630.3 639.7 649 658.2 668.8 680.1 690.4 703.6 716.4 730.6 748.5 769.1 784.3 798.8 813.1 823.2 825.2 823 821 818.7 814.4 819.1 826.1 834.8 844.7 850.9 859.4 871.7 870.6 847.6 825.2 799.9 786.5 777.1 762.1 732.8 711 694.6 669.2 642.5 618.2 600.5 582.5 560.4 538.2 514.8 496 477.1 460.2 452.5 452.5 450.8 443 436.5 422.4 409.1 387.8 362.2 356 356 356 356 356 356 356 356 356 356 356 356 356 356 356 356 356 364.9
938 938.8 939.7 940.4 941.9 943.5 946.5 939.8 937.5 939.6 941.8 941 937.7 930.6 923.5 918.7 917.7 915.9 914.4 911.1 909 899.8 884.6 871.6 858.2 846.5 836 805.8 769.8 754.6 729.7 720.4 708.1 694.2 685.2 663.1 647.6 639.6 634.2 626.9 618.6 611.2 602.7 595.3 587.6 579.7 573.8 568.1 559.7 550.2 544.1 539.4 534.8 530.9 530.2 529.6 530.2 529.2 527.8 525.3 521 512.5 506.2 497.3 485.7 476.9 469.6 458.5 449 443.2 439.2 437.1 434.6 434.4 435.9 436.8 437.6 437.3 433.1 430.3 428.4 426.7 425.8 424.9 423.9 423.8 424.5 434.3 446.9 451.5 456.1 461.6 468.7 471.4 474 477 479.9 483.5 488 492.5 499.4 505.1 510.3 515 519.7 523.9 526.2 528.5 531 531.2 533.9 535.9 539.1 542.5 549.8 555 563 570.3 576.3 583.1 592.3 600.6 607.9 616.1 625.5 634.7 642.7 651 660.6 671.3 685.1 699.9 713.2 731.2 750.5 767.3 782.8 796.6 808.1 816.4 811.9 807.7 802.3 798.8 801.4 810.7 821.5 832 840.6 847.1 854.2 860.9 844.6 823.3 804 780.2 765.3 758.4 734.4 706.1 687.4 664.3 637.7 615.3 601.7 583.9 564.7 545.1 523.8 500.1 482.7 466.9 454.3 441.4 442 432.8 425.2 415.3 399 386.4 366.9 356 356 356 356 356 356 356 356 356 356 356 356 356 356 356 356 356 360.3 377.5
927.6 929.3 931.7 932.4 933.5 935.1 934.6 927.7 926.8 931.8 933.9 932.3 927.7 917.7 911.6 910 908 906.5 901.8 899.9 897.2 882.8 872.8 861.5 850.8 840.5 834.9 812.1 773.9 750.6 732 723.4 708 697.1 680.4 659 646.1 640.1 632.9 623.7 614.7 607.7 599.9 592.9 583.8 576.3 569.9 562.2 555.5 550.5 544.4 539 534.3 532.9 533.8 534 533.9 533 531.4 528.7 522.3 517.3 503.7 496.8 483.8 474.9 466.6 457.7 446.8 440.1 436.3 433.8 432.8 433.1 434.4 435.9 435.8 434.8 430.7 427.9 427 426.6 426.3 425.5 425.1 423.4 425.3 439.2 447.8 452.3 458.2 465.4 471 474.5 477.5 480.7 484.8 489.9 494 498 503.4 509.6 515.3 519.6 525.3 528.7 530.7 531.8 535 537 536.9 539.7 542.1 547.5 551.7 557.3 562.1 567.9 574.5 581 589.6 597.4 603.9 611.4 618.5 629.9 640.3 650.7 661.5 672.5 684.2 697.5 715.4 733 752.7 768.5 784.1 793.4 800.3 803 796.9 790.1 783.3 783.9 790 801.9 812.9 824 832 836.7 840.5 835.5 815.4 795.4 774.2 753 741.1 727.1 708.6 686.8 663.7 643.5 620.3 604.1 587.3 564.8 548.5 527.4 507.3 488.7 471.7 457.1 443.8 430.9 418.2 401.4 403.6 394.6 384.6 371.5 356 356 356 356 356 356 356 356 356 356 356 356 356 356 356 356 356 356.5 376.9 393.4
