ncols 200
nrows 82
xllcorner 210000
yllcorner 765100
cellsize 50
167 163.8 161.5 148.9 147.8 147.3 138.5 135.2 129.2 125.2 125.3 127.1 127.3 129.4 137 138.4 141.4 143 144 146.7 150.8 153.9 163.7 171.4 178.2 186.4 196.4 194.7 185.1 171.4 169.9 168.9 168.7 173.7 186.6 200.1 208.5 203.4 218.7 232.9 252 290.4 326.3 340.1 351.5 365.6 387.3 382.3 382.7 403.2 424 436.9 446.9 460.4 475.3 493.1 514.8 522.8 513.4 481.3 441.8 398.9 363 322 290 258 211.8 182 158.3 132.4 111.4 94.2 79.3 62.6 50.8 40.8 40.3 38.2 36.4 36.4 36 36.3 37.8 42.9 47.5 47.3 50.1 67 77.4 93.7 113.3 128.2 157.6 190.8 216.7 243.9 270.2 286.4 304.1 332.8 369.3 401.9 421.5 433.5 442.1 439.5 438.8 424.2 422.3 408.3 397.3 388.3 373.9 366.9 339.6 338.4 330 314.2 287.6 281.4 276.7 274.4 264.8 259.2 250 231.8 206.7 194 186.2 181.7 174.9 173 161.3 157.8 155.6 157.8 159.1 155.2 152.9 152.5 150.3 147 142 136.2 140.1 156.2 153.5 201.3 232.3 258.6 291 344.1 387.9 449.8 507.6 547.1 564.1 569.2 569.1 546 548.1 540.9 515.7 483.1 469.1 448.6 421.4 398.7 383.3 366 349.3 332.3 334.7 327 325.6 323.1 319.7 332.5 358.5 356.3 361.5 375.4 387.4 372.8 369 358.5 357.3 355.6 349.8 345.7 340.8 333.5 330.5 332.5 333.6 336 339 341.9 345 350.9
157.9 151.9 151.8 141.6 139.9 140 131.5 126.3 122.6 123.3 125.2 128.3 130.2 130.1 131.5 135.2 133.8 134.9 136.5 144.9 149.4 155 164.3 171.2 177.2 183.2 183.9 175.1 159.3 169.9 170.8 171 179.5 189.6 201 210.9 217.9 213.8 230.2 248.5 276.5 321 345.8 352.5 368.7 383.9 391.9 393.2 403.6 415.7 435.7 447.3 462.2 479.1 496.1 507.6 522.1 527.8 518.9 485 439.6 400.4 360.6 316.9 286.4 248.3 211.4 182.6 154.7 132.7 113 93.9 80.6 64.2 47.8 47.1 47 39.1 37.7 35.6 34.9 40.9 49.5 55.8 59.2 60.4 61.2 65.8 77.4 90.6 107.7 124.1 157.7 184.9 206 242.4 265.4 283 309.3 340.7 369.4 396.1 420.4 435.1 429.6 427.4 421.3 412.4 402.7 391.9 371.1 359.5 340.5 327.6 316.4 311.7 302.9 293.8 268.2 263.4 247.7 247 238.5 238.4 229.5 207.2 184 171.6 164.3 153.1 144.5 136.6 137.5 140.3 144.4 140.7 137.1 140.6 141.4 143.8 141.5 136.2 130.6 136.7 153 177.6 172.7 180.1 216.9 243.3 278.2 314.1 355.6 399.3 432.3 479.6 531.3 553.1 538.9 538.2 540.7 528.2 501 482.5 461.4 446.1 419.3 396.5 380.5 353.2 336.1 319.2 318.5 310.4 307.5 304.6 307.3 324.8 337.6 343.1 349.4 358.2 351.5 346.4 337 330.1 339.7 336.6 331.6 325.1 316.6 312.8 314.3 315.3 314.7 318.6 320.3 324.7 329.1 332
147 143.7 141.9 135.9 129.4 125.3 124.4 121.8 122.1 122 125 125.9 132.8 134.8 134.4 134.2 134.2 135.4 136.7 145.6 150.2 153.7 161.4 169.5 168.6 163 155.7 161.6 170.5 172.4 173.8 179.8 194.4 206.4 214.7 220.8 220.4 231.6 243.4 263.3 305.5 341.3 352 368.1 386.4 395.5 404.3 406.1 416.6 421.9 436.2 461.2 483.8 493.8 512.5 529.1 531.7 535.5 515.3 482.4 434.5 389.6 349.7 316.9 287.8 249.7 220.2 181.4 152.1 131.2 111.5 94.8 80.3 67.9 52.2 52.5 47.7 40.9 35.9 35.4 38.1 55.2 69.2 74.1 75.1 80.2 80.6 79.4 86.4 97.6 109.3 126 149.3 179.1 201.5 230.8 252.1 284.2 328.2 352.3 370.2 390.6 409.7 428.4 428.7 425 434.8 423.6 405.1 383.3 364.4 344.5 327.6 310.3 300 296 275.7 260.7 262.3 243.9 233.6 226.4 227 232 215.8 189.2 168.3 155.5 143 131.6 126.9 122.6 127.2 128.9 135.3 132.5 133.3 133.5 132.4 129.1 126.7 129 134.2 149.7 166.2 185.9 184.8 170.2 215.7 266.2 285.7 314.2 367.5 410.8 446.7 474.5 490.4 512.6 521.5 527.8 515.4 498 492.2 472.1 454.3 440.7 410.9 392.7 366.3 341.9 323 309.2 302.8 295 293.7 292 303 310.9 319.6 323.3 328.3 330.2 321.6 314.8 305.5 299 302.5 306.2 304.4 297.5 300.3 296.6 297.8 296.1 299.4 298.3 305.9 310.6 315.9 318.9
140.1 138.1 133.4 131.4 122.1 118.1 119.6 120.6 121.3 123.8 124.7 125.2 135.1 136 139.6 143.9 145.8 146.7 147.6 148 145.9 147.3 146.1 148.8 152.4 157.7 166.1 170 175 176.2 182 194.1 205.7 219.2 229.6 232.6 232.6 238.6 261.4 291.6 327.3 346.6 366.1 383.6 395.1 410.4 413.2 413.1 429.3 432 441 469.4 486.5 513.2 524.4 538.8 546.6 543.3 528.9 486 446.2 398.8 355.6 319.3 293.6 258 229.7 190.7 157.6 131.2 110.6 96.8 82.9 69.5 56.2 54.4 45.3 35.2 37.5 38.3 44.9 64.3 78.8 87.4 91.8 105.3 104.3 102.6 103.5 114.4 124.3 144.5 163.4 187.9 210.8 232.1 260.3 302.9 341.9 369.3 383 387.7 410.1 423.9 421.1 420.2 408.3 401.8 378.7 361.7 343.4 323.6 303.1 293 279.7 258.5 250.7 252.2 241.6 223.2 222.1 216.3 223.1 212.4 198.2 180.2 159.4 142.7 127.3 118.7 115.1 116.9 119.6 120.5 121.9 121.1 116.7 120.7 127.1 128.8 138.5 150.4 170 170.5 184.7 195.9 203.6 190.8 213.5 261.9 285.8 303.8 368.2 399.8 412.7 427.3 487.2 501.7 519.1 509.3 490.7 485.1 476.3 459.8 444.2 422.6 393.2 372 346.7 326.3 308.9 294.7 285.5 282.4 274.2 281.1 290.6 296.9 304.6 309.9 311.6 303 294.7 285.4 279.9 275.8 274.3 274.8 274.7 273.1 277.7 281.8 279 277.9 275.9 282.1 288.5 300.4 303.2 306
131.6 131.9 128.6 117 119 119.2 118.7 121.1 123.1 123.8 125.5 129.6 137.1 141.9 141 143.4 148.1 153.9 155.2 157 157.9 160.5 163.4 169.6 175.9 177.2 176.4 183.3 182 188 199.7 208 217.9 229.4 242.1 241.8 238.2 257.4 284.8 308.1 337.5 361.6 372.3 389.8 402.7 416.5 413.6 419 438.5 453.9 447.6 464.9 492.9 520.6 539.8 548.5 554.2 543.6 526.8 494.9 452 404.3 353.2 316.4 288.1 258 223.7 196.2 160.7 136.3 115.2 98.8 83.9 67.2 57.4 51.6 45.6 35.7 39 40 51.6 67.5 84.4 95.6 118.9 128 134 125.4 124.5 141.2 162.2 179.3 187.6 210.4 232 256.4 277.1 305.3 334 372.9 389.6 397.6 413.8 404.7 403.2 397.5 373.7 370.1 355.6 330 317.5 300.1 280.1 260.8 230.3 228.2 231.5 232.5 209.7 201.8 204 209.8 191 186 174.3 159.8 146.7 127.3 109.7 109 111.9 113.5 116.4 118.2 120 121.8 124.3 129.7 133.9 142.1 161.8 184.2 208.2 206 211.5 212.3 241.6 234.2 192.2 247.1 277 291.5 307.9 335.3 376.9 436.6 472.5 494.5 497.3 473 470.1 474.9 470.6 441.4 420.9 396.7 375.1 354.1 336.6 322.4 300 281.9 263.2 265.6 261.3 268.2 271.7 286.5 292.5 290.3 291.3 279.9 273.4 265 260.4 255.6 257.5 253.9 259.5 266.1 269.4 270.6 267 267 269.5 273.2 280.1 290.2 294.6 293.4
124.8 124.5 118.4 118.6 120.6 121.6 124.4 128.4 126 128.6 130.1 134.8 142.7 148.4 150.1 149.9 153.9 157.7 160.6 164.2 167.8 170.7 176.8 184.5 188.4 187.7 189.7 192 196.6 209.4 217.4 221.4 228.4 237 244.5 247.1 247.7 266.6 293 326.5 356.8 359.7 372.7 386.9 401.1 410.6 421.3 432.5 453.1 460.6 464 470.4 503 523.1 548 555.4 548.8 531.7 506.2 489 451 400.2 354.3 318.9 286.2 255.3 226.5 203 166.1 140.9 116.5 100 85.1 69.6 59.1 54.4 43.2 37.5 40 40.7 50.8 65.1 91.8 112.8 123.1 133.3 144.1 166.2 177.6 173.5 192.5 198 210.9 235.8 261.7 283.4 298.8 317.3 346 363.1 377.2 378.8 368.7 365.1 365.9 362.5 328 325 306.3 291.1 285.1 270.7 244.4 221.3 209.4 217.7 206.6 203.7 188.1 185.6 190.6 176.7 166.5 160.3 148.1 135 129.8 111.2 109.1 110.6 113.5 114.7 116.7 118.9 120.6 123.5 131.7 140 148.8 164.6 185.6 209.7 230.6 236.9 246.5 244.7 270.1 252.3 208.4 213.3 251.4 258.8 287 325.1 364.5 425.3 442.4 439.1 433.8 450.9 461 468.8 448.4 427.2 395.6 372 356.7 333.1 327 305.1 284.5 270 258.3 250.4 251.5 252.1 259.7 275.8 277 279.1 271.7 260.3 256.6 251.9 246.5 236.6 239.4 242.9 245 243.6 248.7 252.9 258.3 263 265.2 268.3 273 282.2 285.3 286.4
121.3 117.7 116.3 119.7 123.7 124.2 126.2 129.4 129.6 131.5 130.7 138.5 146.3 149.9 148.3 151.4 157.1 159.9 164.4 171 179.5 185.3 190.2 198.4 195.7 192.8 198.2 206.9 219.4 226 235.6 240.1 242.7 246.1 251.5 256.3 259.9 277.6 302.7 331.3 351.2 375.6 390.9 400.8 411.4 419.3 430.7 443.2 446 473 473.2 493.9 501.6 521.8 539.5 541.1 532.2 525.3 505 464.8 438 398.1 348.2 315.9 285.6 253.4 229.7 197.2 167.6 141.2 114.7 99.8 86.9 75.4 62.9 50.2 44.2 40.5 39.8 44.9 50.3 63.6 89.9 105.6 119.8 139.9 160.3 177.3 193.9 189.4 193.6 220.5 237.8 252.7 278.8 296.8 312 318.4 333.7 316.3 318.9 319 316.4 326 343.3 309.9 287.4 279 258.5 264.2 255.3 236.1 212.8 196.9 199.6 194.6 194.4 184.1 172.8 174.5 171.7 166.3 164.8 159.7 135.7 121.4 116.3 106.3 108.2 110.6 113.3 114.4 117.2 120 127.7 137.6 155.6 169.6 196.7 210.9 218.6 236 252.3 266.4 273.1 268.5 272.5 269.8 258.8 211.9 222.9 236.8 281.8 346.7 357.2 377.2 377.3 385.6 417.6 442 453.8 444.3 429.1 396.3 375.6 348 328.6 312.8 303.8 278.1 267.6 254.5 238.9 231.9 236.8 242.5 252.4 257.5 263.7 263.2 248.3 247.2 245.3 237.1 238.9 243.9 247.6 251.1 260.2 264.8 266.3 271 261.1 258.2 262.3 264 268.2 280.7 280.7 277.1
117.9 113.3 115.1 122 127.9 129.9 128.5 135.7 139 139.1 138.4 138.4 144.1 144.8 144.6 147.9 155.6 162.7 174.3 180.5 184.9 191.6 196.4 202 201 206.3 218.3 227.7 234.5 241.7 250.1 257.6 258.8 255.6 263.2 261.6 269.3 289.4 312.6 338.2 364 383.6 399 410.7 416.7 424 444 458.4 455.9 465.4 480.6 505 515 534.5 547.7 541.6 540.9 518.6 484.1 450.6 409.6 389 348 314.8 290.3 255.7 232.5 193.7 166.5 145.8 123.5 101.3 89.7 77.1 63.7 52.3 46.1 41.6 36.8 50.2 52.1 55.9 73.8 93.9 113 131.6 150.6 163.4 180.6 188.4 200.4 225.7 240 260.7 276 292.5 291.5 293.2 285 264.9 268 289 278.4 290.5 284.7 261.4 253.7 237.5 241.2 236.4 220.6 200 179 185 185.9 187.6 182 175 165 169.5 184.5 176.3 162.6 136.6 123.9 111.3 106.7 105.6 108.4 110.6 115.4 115.1 118.9 125.1 135 162.3 179.8 217.1 237.7 234.1 245 255 262.6 292.3 304.6 286.3 276.3 274.3 257.3 217.1 211.3 217.6 275.7 328.8 324 324.3 342.9 364.5 398.8 432.1 427.5 420.6 409.1 372.5 344.5 318.5 301 284 270.1 257.9 248.2 238.8 230.8 228.1 227.7 232 241.7 246.6 248.2 239.3 235.5 237.2 235.6 243.1 249.7 255.7 261.4 269.3 272 277.3 277.1 272.7 274.3 272.3 267.8 265.3 266.2 265.3 275 271.1
114.4 110.8 114.1 122 133.9 136.9 146.7 131.6 146.9 147.5 152.7 158.9 163.1 166.6 167.9 167.2 168.1 168.8 183.8 188.4 195 202.3 206.5 212.3 216.3 224.8 234.5 245.3 251.3 259.2 263.4 263.5 262.6 268.2 272 270.6 286.3 304.3 324.4 347.6 370.2 386.2 405.5 414.5 429.2 438.2 454.2 466.3 473.7 477.4 490.7 500.8 529.7 541.9 541.6 540.2 528.2 510.8 482.9 451.8 414 378.2 335.4 303.2 279.3 254.1 223.2 188.1 166 147.3 124 106.2 95.2 81 68.2 58.5 50.8 45.5 38.3 43.1 51.6 53.8 66.9 91 102.9 114 131.6 138 153.5 161.9 179.3 207.4 241.8 240.2 247.7 238.5 233.8 237 248.6 224.4 236 239.1 250.9 240.6 229.4 232.1 203.4 198.6 203.7 195.7 182.6 167.3 176.7 192.4 190.9 194.3 197.1 174.7 162.9 170.3 171.3 153 135.5 118.8 107.5 105.6 103.1 106 111 120.7 123.1 125 123.3 133 153.2 171.4 211.9 231.8 256.2 267.4 288.5 282.1 335.6 338.7 310.7 298.1 302.5 268.9 243 221.2 211.7 213.4 238.5 267.8 286.9 302.9 304.1 347.4 372.5 407.9 403.8 400.8 373.6 341.9 312.1 290 274.4 264 251.9 246.4 233.8 229.5 224.7 225.8 225.7 227 230 235.1 234.3 229.4 231.8 234 247.2 261.9 265.3 281.3 289.2 291.9 291 290.7 283.9 288.2 289.6 290.9 289.4 284.5 282 278.2 272.8 269.7
109.1 117.4 123.1 133.3 141.7 146.5 147.2 144.5 151.2 153.7 160.4 167.9 175.3 181.1 180.4 167.7 175 181.7 186.8 194.8 202.9 209.8 222.4 230.4 234.9 239.5 246.1 253.9 259.5 266.2 266.3 265.5 273.3 279.9 282.4 282.5 296.2 315.5 340.1 364.3 389.4 396.4 408 423.8 436.4 452.4 465.5 479.5 490.2 486.8 499 514.1 522.1 541.7 536.2 531.8 519.5 506.7 474.9 443.8 409.9 376.2 334 297.8 274.1 251.4 221.1 192.5 170.8 150.8 125.8 109.8 99.3 87.1 74.8 64.5 55.4 46.6 40.5 43.8 45 47.6 56.1 76.6 88.3 99 102.6 109.6 124.1 142.7 162.1 177.8 195 196.1 200 200.7 210.8 222.3 199.2 190.1 188.7 206.8 215.1 202 190.1 188.4 176.8 177.5 181.8 175 153.3 152.4 166.8 183.5 208.1 203.9 182.9 158.2 156.2 154 136.2 127.8 115.5 106.4 102 102.3 110.1 116.9 134.6 144.4 136.3 130.6 139.4 159.5 195 207.1 226.1 252.2 262.5 294.4 324.6 332.5 360.4 344.2 321.5 316.4 287.7 261.3 258.5 243.3 214.4 213.4 215.4 238.4 264.2 276.5 284.5 287.6 305.6 365.9 378 373.2 336.4 299.5 275.4 259.9 249.1 242.9 237.1 235.3 231.1 225.1 222.8 221.5 223.1 224.1 225.7 233.6 238.5 246.3 240.8 247.7 261.2 280.5 282 301.4 313.8 316.6 309.5 301.9 299.5 300.5 301.1 302.9 309 307.6 307.2 302.3 289.9 281
117 125.4 133.6 143.1 155 149.9 148.4 149.6 147.6 164.3 170.2 176.1 177.8 176.9 172.2 180.3 179.1 184 192.8 203.8 211.7 226.6 236.7 241.5 243.2 247.7 255.1 263 263.3 266.4 270.3 276.7 283 290.9 299.2 303.4 313.5 330.8 351.9 377.8 397 409.4 421.9 433.8 440.6 461.5 478.1 487.6 499.9 505.9 509.3 525.3 532.5 543.6 535.5 528.9 520.8 499.6 466.6 436 403.2 371.5 328.9 290.6 266.6 244.2 219.4 199.4 176.5 153.2 131.4 117.4 104.6 90.1 79.7 69.8 58.7 44.3 40.4 38.8 41.6 46.7 48.4 58 65.8 74.4 80.7 89 95.2 110.3 135.7 142.5 151.4 159.8 159.2 173.2 173 168 149.2 149.1 155.8 170.1 164.3 158.8 165.5 152.1 153 155.9 149.2 133.5 136 138.3 149.7 167.8 197.7 182.9 166.1 144 146.4 133.1 119.2 112.3 107.2 101 106.1 114.4 129 155.2 161.5 157 144.2 155.5 176.4 200.6 224 228 245.2 266.1 280 307.7 342.3 365.4 371 353 329.3 305.5 287.3 269.7 271.2 259.9 230 212.9 214 218.2 235.8 258.3 260.3 263.6 291.7 337.3 348.5 328.9 292.7 257.2 242.8 232.2 225.8 228.8 229.1 227.9 226.2 221.9 220.9 222.5 224.7 226.3 235.4 243.8 248.1 254.4 260.9 260.7 268 280.6 319.9 330.6 318.5 324 321.9 312.2 318.6 319.7 318.1 322.7 326.5 325.7 328 326.4 312.6 300.8
120.5 129 134.2 147.1 149.8 150.1 151.8 158.9 156.2 158.4 173 173.6 174.3 175.7 179.1 180.9 187.4 195.5 202.9 213.9 226 233.9 238.6 243.4 250.2 256.8 262.1 267.3 266.7 271.5 275.5 281 290.6 300.4 308 312.8 327.8 345.2 368.3 388.8 405.4 426.1 436.5 445.3 451.2 470.8 485.6 498.9 515.4 519.5 515.6 532.5 550.2 543.5 531.6 523 507.6 486.4 457.3 430.1 396.3 358.7 320.3 286.5 260.7 240 217.8 195.3 174.5 156 132.1 117.6 100.1 93.4 81.7 72.2 61.7 52.5 40.5 39.2 40.1 39.9 40.6 44.7 51.5 60.6 67.1 69.4 77.4 85.6 95.7 105.7 108.8 112.6 121.5 127.2 125.5 115.9 113.6 117.6 119.9 114.2 137.9 117.2 114.3 140.1 136.2 111.3 111.4 111.9 122.7 128 137.9 172.1 178.2 168.3 142.1 146.8 134.7 117.5 108.8 106.2 105.2 110.8 126.5 157.6 175.8 180 170.1 161.8 165.4 194.5 228.4 250.3 251.8 266.1 299.8 314.1 324.6 343.4 355.8 370.4 368 346 331 317.5 297.4 302.8 298.7 292 247.9 219.3 213.6 214.8 216.6 229.4 246.3 252.5 264.4 284.7 265 243.7 230.5 222 219.5 219.7 219.8 221.8 222.3 222.1 221.4 221 221.6 223.1 228.9 252.1 264 268.7 272.3 269.2 271.5 281.1 292.6 315.2 326.4 337.1 338.2 333.3 327.9 321.7 321.5 334.7 332.7 356.2 363.3 365.3 350.2 335.9 329.3 333.9
127.1 134.6 138.3 148.9 151.8 154.6 162 167.2 157.9 170.4 174.9 176.3 178.2 182 186.6 194.4 198.1 205.4 215 229.3 233.1 238 244.8 249 254.3 262.7 271 274 271.3 275.2 280.8 289 299.2 310.5 318.3 325.4 347.8 365.8 386.9 404 420.9 435.8 454.1 462.9 460.1 478.9 497.3 507.4 521.2 530.3 535 536.7 545.7 535.2 527.7 500.5 491.9 471.4 448.4 420.3 383.2 348.3 320 283.3 258.7 235.9 213.1 184.6 162.7 138.3 131.6 128.7 117.3 108.3 88.5 79.6 69 57.4 46.6 43.9 44.1 42.9 42.9 42.1 43.3 41.9 45.6 54.1 62.4 67.2 72.9 80.9 82.7 87.9 95 98.1 94.8 94.4 92.6 91.8 90.4 88.2 90.5 90.2 94 92.1 90.1 91.2 91 97.9 106 115.5 146.9 160.9 157.1 140.1 126.8 142.6 127.9 102.9 102.2 109.7 117.9 131.3 155.9 172.4 186.2 179.6 174.4 175.4 195.1 221.8 259.2 294.3 321.5 335.6 343.3 356.3 371.6 383.4 390.7 383.4 376.6 361.8 347.7 330.6 318 326.6 327.5 305.2 284.4 240.7 213.8 212.5 215.6 216.6 234.9 235.4 227.8 221.8 216.5 217.2 218.2 218.4 219.2 219.4 218.9 218.3 219.4 219.7 219.6 225.9 229.2 236.1 242.4 265.5 277.7 298.9 302.7 294.8 292.5 294.3 309 330.2 333.9 339.2 351 343.6 336.3 341.8 338.7 339.8 353.8 361.5 368.1 372.6 365 360.8 346.2 342.8
135.3 137.1 143.2 153 157.7 167.6 169.8 169.7 158.3 170.3 184.1 182.4 188.9 190.9 192.3 198.4 204.6 218 227.2 237.6 240.5 244.1 252.1 257.1 266.2 271.3 274.7 279.8 277.8 282.1 286.5 296.9 309.3 320.1 326.7 347.3 364.8 385.1 407.9 423.3 438.4 452.1 470.1 480.7 477.2 492.2 500.7 520.5 535.5 543.7 543.1 540.2 541.5 527.1 507.7 485.7 466.2 446.9 427 398.7 365 338.4 313.4 283.3 254.5 228.4 198 168.9 170.3 166.4 158.3 141.7 133.8 125.9 100.2 87.2 75.5 64.2 53.1 47.8 45.1 44.1 44.4 44.9 45.9 45.1 44.1 46.3 43.1 57.3 60.4 65.6 67.6 69.5 73.7 72.6 80.4 81.6 78.1 79.3 76.4 74.9 72.3 69.4 71.1 71.7 71.9 72.4 78.7 85.5 97.8 110.5 125.6 137.4 119.1 111 128.6 126.6 101.1 94.8 104.6 115 126.2 145.7 183.6 184.4 184.4 189.5 195.7 205.1 238.5 267.4 303.8 330.5 344.8 354.5 368.5 390.6 402 404.8 396.2 394.9 390.8 373.9 359.5 346.3 357.2 353.8 346.4 322.7 295.1 264.3 243.7 216.3 212.3 215.9 217.3 217.1 215.6 216.5 217 217.4 218.1 217.3 217.1 221 222 222 222.2 222.2 224.1 226.9 236.9 240.4 262.4 275.3 299.9 314.8 325.3 326.5 321.5 318.8 331.7 332.1 335.3 337.3 342.8 360.5 370.4 367 353 349.4 361.4 366.7 368.4 368 367.4 359.5 355.2 348.1
143.4 145.7 157.5 159.3 165.3 170.8 172.6 177.8 162.7 179.8 183.4 190.1 200 197.9 197.8 204.1 215.9 224.6 235.4 242.7 250.6 256.1 260.1 267 272.5 277.7 280.9 283.8 286.4 289.3 297.5 308.6 323.7 332.2 341.7 361 375.9 400.8 418.2 438.2 452.4 466.6 481.9 491.1 490.9 509.7 512.1 526.1 542.4 551.5 551.9 545 530.9 522.6 501.6 476.8 454.3 431.9 413 382.3 359 333.4 304.2 275.4 249.9 219.8 194.9 190 195.6 182.1 167.4 160.2 152.1 133.5 107.7 93.2 81.9 71 62.4 57.4 51.5 49 48 48.4 47.9 47.1 47.2 49.6 51.2 50.9 57.4 55.2 57.9 60.2 62 61.5 65.9 62.6 65.2 65 65.1 64.2 62.1 60.7 60.9 63.7 66.3 69.4 73.7 83.4 101.6 119.3 103.7 103 99.9 104.4 103.5 94.6 93.7 96 108.8 123.8 134.9 159.5 192.8 196.3 204.5 222 235.8 257.2 284.6 298 333.1 352.2 363.8 380.8 395.2 411.9 417.4 418.7 422.9 419.8 409.4 390.7 378.8 381.8 387.4 377.7 350.8 315.9 288.3 266.1 250.1 230.2 219.8 214.5 214.4 215.9 215.9 216.3 217 216.8 220.4 224.6 231.9 229.4 228.3 225.6 223.9 223.2 227.2 234.2 246.2 259.3 278.9 305.7 315 320.6 329.6 339.8 346.4 350.4 352.1 350.7 350.5 347.6 356.9 369.4 373.9 367 360.7 353.8 356.6 364.6 369.4 380.8 380.1 368.7 360.5 350.5
149.3 159.9 168.5 175.7 172.3 174.6 181 184.7 165 183.7 190 195 199.3 205.1 203.9 214 223.1 231.5 242 250.8 259.5 263.7 269.2 275.8 283.7 289.4 291 293.3 299.9 306.7 312.5 321.9 333.2 345.1 348.9 370.8 389.7 409.1 429.5 450 467.2 484 494.1 500.2 498.8 511.2 525.4 534.7 550.9 561.9 563 549.3 521 503.2 484.5 463.6 442.2 422.7 399.9 381.9 363.1 335.7 308.6 282 254.8 228.1 198.1 216.8 211.7 197 191.2 180.6 166.1 139.2 120.5 101.3 89.9 78.6 71.9 68.9 61.3 59.7 51.6 51.8 50.8 50.4 49.9 53.1 54.6 47 49.9 54.1 54.7 55 53.5 57.5 58 58.8 59.8 60.3 58.5 58 59.9 61.9 61 60.6 63.5 68 73.1 83.8 98.3 98.7 96 94.6 92.8 93.3 89.9 86.3 93.1 101.8 117.7 135.7 151.6 175.1 215.3 235.1 253.8 273.7 285.2 302.9 321.5 333 349.1 375.3 384.6 389 405.3 407.4 414.9 420.4 412.4 406.7 401.6 395.4 402.5 404.4 397.1 369.2 335.9 309.1 284.5 261.3 244.5 233.1 224.5 216.5 215.1 216.2 215.2 216.9 219.8 220.2 224.9 234 242.7 241 237.1 234 242.7 240.8 244.1 254 265 283.2 299.9 313.5 325.7 339 356.2 361.3 366.6 370.5 373 373.1 366.4 362.8 365.4 370 371.5 369.7 370.2 367.7 366.1 372.7 389.5 388 380.8 372.6 363.5 356.6
165.5 174.7 178.5 178.2 177.7 184.8 192.2 190.2 187.6 183.4 197.8 200.6 206.9 211 213.4 219.8 229.8 240.9 252.5 259.3 266.5 274.4 282.9 286.8 292.7 298.9 299.7 308.8 314.2 325.3 330.9 341.2 350.7 364.2 368.6 381.6 402.1 418.5 440.2 456.9 474 490.6 504.8 508.9 515.5 523.6 532.8 544.9 558.6 569.6 566.3 544.1 515.6 485.4 463.4 449.1 431.3 411.6 392.5 380.4 362.8 331 309 282.3 257.4 231.8 227.4 233.4 228.6 218.4 207 193.4 177.1 154.8 128.9 109.6 100.2 89.7 82.3 74.7 73.1 65.9 59.9 56.3 54.3 53.5 52.3 54.1 55.5 55.7 52.9 57.3 57.6 57.5 57.3 56.6 56.4 55.7 56.1 57.8 58.8 60.2 61.3 62.3 63.2 64.7 61.4 70.8 76 83.9 82.5 84.6 87.2 89 89.5 80.3 89.9 92.9 100.4 113 132.8 155.6 165.6 183.8 218.6 245.6 262.4 275.2 290.8 304.9 319.5 327.8 351.4 360.1 367.4 369.4 380.1 381.7 384.6 386.7 388 406.2 408 421.2 433.7 447.2 443.6 410.3 363.5 320.5 297 272.1 246.2 235.1 228.4 219.4 216.8 216 216.2 219.7 220.1 220.8 227.7 238.3 253.2 258.3 257 268.2 284.2 297.5 305.9 316.7 320.5 327.6 340.3 365.4 401.2 412.3 411.5 419.2 424.9 415.9 411.1 404.3 393.4 393.5 389.8 385.3 381 378.4 375.4 378.7 372.5 374.2 387.6 392.9 385.3 382.1 372.5 364.2
171.4 178.7 185.8 183.8 188.8 193.7 195.9 198.5 192.9 203.7 196.5 209.7 213.4 218.7 220.5 227.4 239.8 255.6 260.6 267.6 274.9 284.7 294.6 300.4 306.2 309.3 313.1 321.5 329 341.2 352.1 363.5 369.5 379.5 386.1 399.7 414.5 435.9 453.9 473.3 497 510 515.5 521 528 539 548.3 553.3 567.2 567.2 556.5 533.6 500.5 475.7 449.3 434.1 420.7 403.7 388.6 372.7 353.7 328 305.2 280.5 258 234 250.7 249.7 243.5 239.7 232.1 217 192.1 163.3 142.2 118.9 108.9 95.4 90.2 81.2 80.5 76.8 65.2 61.8 59.2 55.8 57.3 57.8 58.5 59 57.8 56.4 61.3 63 62.3 62.2 64.2 67.1 69.2 69.1 68.1 69.3 72.2 69.3 70.8 70.7 71.4 68.1 70.7 71.8 77.2 79.2 82.2 84.8 84.7 92.3 96 102.4 112.4 127.4 146.1 169.9 186.7 202.4 224 244.8 266.4 300.3 322.1 333.6 353.1 373.4 383.8 382.7 394.1 389.1 388.1 392.3 399 398.2 417.1 432.4 435.5 455.3 460.7 461.2 460.2 441.2 396.7 342.1 323.9 288.4 262.9 246.9 234.6 232.3 223.6 221.4 221 219.9 223.8 237 273.4 278.2 273.6 275.4 295.1 305.7 335.9 347.8 355 365.2 366.5 407.7 435 443.1 450.5 448.7 451.2 454.1 452.8 478 460.7 433.7 451.5 458 440.5 414.2 401.6 392.4 385.4 382.3 378.5 373.8 374.4 378.4 382.2 379.6 375.5 373.4
179.2 184.7 187.8 194.3 196.5 197.9 205.7 205.7 200.1 209.5 208 207.5 218.1 225 229.3 240 251.2 260.2 270.8 278.7 284.9 296.2 308 315 316.1 322.9 330.4 336.9 343.4 358 367.5 375.3 384.2 391.2 400.9 421 436.2 452 465.3 495.4 514.3 524.1 529.7 529.9 536.3 546.9 559.9 567.3 573.6 572.5 545.4 514.2 488 466.6 443.9 435.6 415.4 399.4 388 378.2 355.4 332.6 312 289.5 259.4 253.5 267.1 263.3 266.2 269 260.6 239 206.1 180.4 157.7 134.1 116.3 105.5 95 89.5 86.6 83.2 73.4 71 63.4 61.2 63 61.8 62 63.2 60.8 58.4 63.5 66.4 66.6 67.7 71.6 76.4 80.6 83.5 85.4 88.3 89.2 90.2 88.6 88 86.9 86.8 89.3 89.7 81.7 74.7 74 80.9 94.7 105.4 107.7 117.3 130.8 149.2 170.3 193.9 217.1 233.4 266.8 291.5 317.6 327.1 338.5 352.6 371.6 380.7 377.1 393.3 391.6 401.4 403.7 410 414.2 427.4 440.9 434.8 457.1 465.9 472.3 475.9 464.4 439.6 398.8 359.6 345.1 309.8 276.3 262.1 250 253.4 241.6 247.9 238 228.4 244.4 280.3 308 349.1 342.1 320.3 305.8 328.5 341.9 350.9 380.7 392.8 409.1 430.8 449.3 470 482.6 489.5 505.1 505 527.3 525.1 490.9 521.2 522.1 518.7 486 447.8 435.6 415.3 402.5 391.8 391.2 389.7 390.7 384.1 379.6 382 377.9 379.9
183.5 186.4 197.7 198.4 201.3 205.7 215.3 205.9 207.6 216 216 218.4 220.9 229.5 242.9 249 258.4 272.8 279.4 284.7 296.5 311.8 324.3 330.2 333.1 339.3 343.2 350.6 359 368.5 378.7 387.3 392.1 405.1 414.5 434.6 452.7 464.5 483.4 506.6 524 534 538 539.6 544.5 554.8 568.5 572.6 573.5 561.6 533.6 504.3 487.5 466.6 449.6 429.3 413.1 398.3 389.8 373.4 355.2 337.7 319.4 292.8 266.6 276 280.6 285.8 294.1 301.9 293.8 264.8 229.4 198 168.8 153.5 130.7 118 105.9 98.6 94.3 89.1 83.4 74.9 74.2 67.8 68.8 68.4 67.4 67.6 65.4 60.8 65.2 71.6 70.5 71.4 75.7 80.9 86.4 91.1 95.4 97.1 102.9 107 108.4 108 111.9 117.2 119.6 118.6 108.1 105.5 103.5 108 116.6 123.3 133.5 149 160.6 177 198.2 226.2 255.2 285.1 291.9 315.7 331 344.1 354.5 375.1 378.9 382.4 387.8 397.4 416.4 414 418.8 421 426.3 443 442 456.2 461.3 468.2 467.6 453 438.5 421.5 395.8 365 349.1 323.8 321.6 313.5 290.6 279.5 266.6 262.1 261.3 266.6 284.7 310.6 367.7 386.5 382.1 357.1 317.1 342.1 367 382.8 408.3 415.9 437.2 457.2 479.2 494 506.6 516.9 532.7 542.9 540 541.9 543.1 550.7 543.3 543.6 523.8 496.6 474.6 436.4 420.6 406.6 399.6 396.1 394.4 394.2 393.2 402.3 403.5 404.8
182.7 193 197.4 200.6 207.8 216.5 223.3 207.5 211.5 217.8 225.8 222 231 240 245 255.3 268.9 277.8 282.3 292.9 304.7 321.7 331.7 341 345.4 350.5 354.9 360.6 369.6 375.2 384.7 394.2 403.7 419.2 430.7 453.8 472.7 489.6 505.5 514.5 534.8 543.1 546.1 549.8 558.3 570.2 579.8 587.9 576.2 554 522.6 502.5 488.1 469.9 450.6 431.6 421.3 404.3 386.9 374.7 358.3 340.8 319.3 299.8 295.7 296.5 300.2 313.6 324.3 338.6 324.4 298.1 252.1 215.7 192.4 165.6 148.2 125.2 114.4 106.6 98.1 94.2 90.3 86.8 83.9 78.8 77.3 78.9 74.4 74.7 76 65 71.3 77.1 77.1 77.2 82 87.1 93.1 99.4 102.4 107.1 110.6 117.2 123.7 127.7 130.9 135.8 139.4 137.8 131.5 129.3 137.5 144 149.3 156.6 164.9 179.3 189.2 205.7 225.2 265.4 293.1 301.5 317.2 341.9 357 365.4 372.9 382.7 386.2 387.7 402.3 408.8 414.5 418.4 427.6 441.5 444.1 450.4 453.2 457.5 458.9 472.2 482.8 473.7 467 449.4 416.9 389.8 379.9 356.4 347.6 345.9 335.7 316.7 315.7 306.3 311.6 329.5 349.3 362 397.2 407.6 407.6 402.3 345.2 349.2 370.2 395.1 413.8 439.3 458.3 482.4 504.6 516.3 513.3 527.6 564.7 567.6 565 561.8 581.1 577.2 565.8 552 527.3 517.1 496 458.4 431 418.4 411.7 403.9 402.5 404.1 401.2 402 408.9 409.4
187.4 192.3 198.3 205.5 214.9 223 219.2 211.2 215.6 227.2 227.7 228 235.5 245 249.3 259.3 270.7 279.8 291.7 303.5 315.7 328.4 338.5 347.5 355.5 362 368.9 373.6 379.1 389.8 397.7 407.7 423.3 443.8 462.4 481.6 503 513.4 522.2 533.6 544.7 553.7 559.8 566.4 572.5 579.6 586.1 594.4 592.1 568.9 531.1 503.7 487.6 467.8 450.9 437.7 424.7 405.7 390.9 381.1 359.7 343.9 321.2 308.9 317.7 318.8 322 332.3 349.4 364.2 350.6 312.6 271.8 236.1 211 183.4 161.5 143.2 125.4 120.6 107.8 102.1 97.2 96.1 92 88.1 85.2 87.2 88.5 84 86.8 75.2 79.5 84.6 84.2 84.4 88.6 93.8 100.1 103.9 110.7 115.9 124.5 136.8 142.1 148.9 152.3 163.5 167.1 155.7 157 161.4 166.8 172.2 175.8 182 194.3 201.5 215.9 250.7 272.6 287.7 305.7 325.1 345.5 369.7 381.6 384.9 386.3 391.7 391.2 403.7 410.6 424.6 421.9 435.8 449.2 464 459.8 457.6 467.4 464.1 487.5 504.6 518.8 506.5 497.2 471.6 436.8 413.6 406 410.7 406.3 398.2 387.3 369.7 368.3 364.4 372.1 423.1 408.7 382.5 405 416.6 429.9 437.6 394.3 370.1 374.1 394.7 418.7 446.1 467.1 490.8 516.1 524.6 528.7 559.9 581 591 589.1 600.1 603.4 583.8 566.4 556.3 540.5 524.2 488.7 460.5 446 433.8 432.7 421.7 414.1 419.3 421.7 415.6 402.7 398.6
185.6 192.9 205.4 214.7 217.2 223.9 223.4 214.3 222 230.8 234.3 232.8 239.7 252.2 261 265 273.7 286 297.4 308.6 322.7 332.9 344.4 352.4 363.6 370.6 375.2 383.8 401 406.5 416.1 433.2 451.5 475.5 497.5 515.1 522.8 535.2 547.3 553.7 554.7 565.9 578.8 584.1 589.1 593.6 597.2 608.2 608.3 573.4 539.8 507.5 486.2 471.7 449.7 435.6 422.7 409.1 400.3 382.5 365 344.2 323.1 333.2 335.2 336.7 338.8 354.7 362.8 374.6 379 339 288.4 259.3 228.3 201.1 176 154.7 139.7 129.9 119.2 109.7 109.4 107 102.2 99.6 92.8 97.8 98.9 94.6 94.5 87.8 90.2 92.1 89.6 93.5 96.8 101.9 109.1 113.7 119.2 126.3 139.1 150.3 161.7 169.6 183.7 183.3 177.9 181.5 190.4 197.7 198.9 200.5 202.8 206.8 217.7 226.2 244.7 269.6 285.7 300.3 318.9 337 371.1 384.3 392.9 400.4 402.6 404.8 414.3 419.4 430.9 440.3 440.6 452.6 463.1 471.6 478 481.6 482.5 507.5 524.1 536.1 548.1 535.2 522.8 499.5 460.9 438.5 435.3 457.8 456.9 451.1 440.4 423.6 403.7 401.5 414.5 437.3 425.3 400.6 419.2 427.4 441.5 463.6 429.5 405.7 404.2 405.5 419 442.9 468.7 495.5 516.9 527.5 548 559.2 586 620.8 629.8 623.6 607.4 582.1 568.7 553.1 540.3 529.9 516.4 485.3 466.8 455.1 462.3 460.1 431.6 436.5 426.7 416.8 410.9 402.2
191 204.3 214.1 216.7 224.3 228.3 219.9 219 227.9 233.4 240.5 237.6 251.3 260.3 267.9 277.4 277.7 287.1 300.5 310.1 322.5 340.5 353.9 357.5 369.3 375.8 384.6 400 413.7 427.7 442.9 463 485.2 502 518 532.9 549.8 558.6 564.1 571.7 580.1 588.9 593.5 598.2 601.1 605.9 614.3 617.7 618.5 582.3 544.5 516.4 496.5 476.1 461.6 450.5 435.9 421.2 406.1 388.5 365.7 341.1 341.9 347.1 348.3 350.8 357.2 370.8 377.1 386 387.8 369.8 323.9 286 253 220.7 195.3 174.6 153.1 142 129.5 121.4 121 120.2 110.8 107.3 104.6 107.4 105.9 107.4 105.5 97.6 102.9 103.4 108.2 108.3 106.7 110.1 119.5 124.1 132 143.1 156 166.2 177.7 190.4 198.5 204.3 202.3 203.3 223.1 237.3 231.7 232.4 238.1 238.7 239.3 253.9 273.1 287.6 305.2 323.5 353.7 366.8 384.3 400.8 413.2 422.2 427.7 433.7 436.4 441.1 450.3 454.6 456.8 472.9 500.6 508.3 505.4 501.6 520.2 531.3 556.6 562.1 564.2 559.9 538 518 483.6 463.7 471.5 500.8 516.9 500.6 483.2 462.4 442.8 446.5 448 449.9 438.4 415.5 429.6 446.5 466.1 497.4 488.3 436.8 427.9 422.9 427.5 445.3 470.8 499.6 521.1 532.4 550.3 595.8 623.7 645.7 650 638.1 605.9 583.5 565.4 553.7 539 529.5 525.2 523.5 514.8 493.4 489.6 472.5 448 431.6 423.9 413.6 397 400.7
200.5 209.9 214.3 220.4 224.9 226.3 225 223.3 231.5 238.9 246.3 246.8 260.2 270.1 279 283.8 289.3 291.6 295.3 318.2 329.9 346.2 353.1 361.6 373.4 383 397.6 414.1 429.4 450.1 469.3 489.3 508.8 522.8 540.1 552.9 564.9 576.3 582.3 592.7 602 608.6 610.4 612.1 619 624.9 625.5 632.7 627.7 594.2 555.6 534.8 521.6 506.9 481.8 458.3 440.7 425.9 408.3 387.3 362 354.2 360 361.7 362.8 370.8 382.3 392.6 400.2 404.9 406.4 385.1 340.7 302.2 271 241.5 210 186 163.4 149.5 136.5 133.9 135.4 131.8 129 123.4 121.1 117.8 119.5 117 115.9 112.3 113.7 122.2 121 127 122.9 126.9 131.5 139.9 147.4 157.7 169.2 185.8 200 210.9 217.7 221.3 225.9 234.7 262.3 279.2 270.8 266.8 272.4 275.1 284.3 293.4 305.3 325.6 350 362.1 383.7 399.4 418 428.8 439.3 446.8 451 455.8 460.4 460.5 463.5 473.3 483.2 503.2 520.8 532.3 535.8 537.8 543.1 563.7 580 596.2 598.5 587.4 560.7 548.3 516.7 496.3 497.9 532.7 559.5 554.6 523.8 498.6 459.2 453.1 459.2 451.4 435.9 429.9 442.1 463.8 484.4 498.8 521.8 470.1 450.6 448.1 449.4 452.9 477.5 501.9 529.3 551 584.1 611.6 645.9 659.1 665.9 649.3 604.9 580.5 567 554 542.4 538 540.7 540.4 535 511.2 477.4 449.1 452 442.5 428.7 419 417.7 411
202.6 212 213.1 226 223.4 228.9 231.9 227.3 233.8 246.3 246.8 256.6 267.1 278.7 290.1 294 299.1 307.4 298 321.6 337 348.8 357.7 368.2 379 395.9 409.3 427.6 450.5 471.9 494.5 514.7 530.4 544.6 560.6 572.1 583.9 591.7 601.5 611.3 622.5 629.8 636 641.4 636.4 643.5 645 646.1 637.6 618 580.9 563.9 550.8 519.6 491.6 469.9 450.3 431.7 410.1 386.5 360.8 370.6 376.7 377 383.6 390.3 403.1 420.1 427.7 427.1 422 391.4 356.9 327.8 289.9 258.1 226.8 198.2 177.3 159 141.6 147.9 148.7 145.1 142.7 142.2 138.4 136 130 126.9 128 128.2 126.1 132.4 131.5 141.4 138.3 141.3 149.4 158.1 166.8 179.5 195.2 206.8 216.4 232.9 243.7 251.8 259.4 269.6 289.7 305 302.6 303 308.2 325.6 346.5 353.2 358.7 386.2 399.6 407.7 421.6 431.4 439.8 458.5 467.3 471.9 478 481.5 486.1 493.4 496 503 523.7 542.3 549.6 550.1 560.8 577.6 581.4 602.9 625.6 629.8 632.6 619 609.1 592.5 575.6 558.5 555.4 582.9 580.9 558.4 526.5 512.9 484.5 476.6 470.2 456.7 431.1 439.4 451.5 468.4 488.6 521.8 538.6 520.8 478.5 469.8 472.7 478.8 488.6 508.8 541 565.9 598.6 630.5 650.9 665.6 661.7 645.2 603.4 579.5 566.4 564.4 561.6 548.6 549 538.8 507.2 470.9 478.3 475.5 465.8 455.1 440.2 431.6 421.8 409.2
202.5 207.9 219.3 219.6 224.2 237.8 245.3 231.8 240.2 250.8 252.4 266.5 278.4 291 300.6 307.5 322.9 325.2 304.6 323.6 341 350.2 361.7 374.5 388.5 406.3 426.8 449 473.5 494.1 516 536.7 553.1 565.8 579.6 591.1 604.4 607.9 618.4 631.7 638.3 644.6 653.3 656.9 655.5 658 660.6 665 657.3 635.9 600.6 575.5 554 528.4 500.6 477.7 455.2 434.2 413.9 384.9 382.5 385.2 388.6 390 399.9 411 429 444.9 453.8 449.7 436 414.4 383.9 347.9 316.3 274.3 238.9 206.9 186.7 167.6 152.1 162.5 159.9 157.6 158 156.8 152.9 150.4 146.3 143.1 139 140.7 133.3 145.6 148.3 155.2 156 161.1 169.1 176.7 194.4 202.8 219.3 231.5 260 270.4 294.9 304.7 302.4 316.9 331.2 335.3 336.2 339.1 347.9 374.1 391.2 405 406.8 425.9 440.6 450.1 465.8 476.3 486.3 488.3 496.2 504.6 512.8 515.3 524.2 532.2 533.9 534.1 546.4 563.2 581.1 588 593.9 617.8 633.6 645.9 657 667.9 663.9 664.4 645.7 634.1 625.2 622.4 620.5 604.8 575.7 540.8 515.6 508 513.9 489.2 478.2 465.3 444.9 451.4 462 488.7 505.3 533.4 546.9 553.6 516.5 497.6 500.7 505.5 514.3 519.8 549.1 584.7 617.9 631.6 651.5 663.7 670.4 642.6 605.8 588 593.5 590.2 582.6 553.9 527 496 497.3 506.1 499.2 488.6 485.3 472.2 458.3 438 421.4 408.7
202.3 210 215.5 219.4 239.2 245.8 249.8 240.5 250.9 252.9 259.1 274.9 286.3 299.5 309.7 321.6 334.5 339 316.1 335.2 345.7 356 368.9 379.1 395 420 446.3 467.5 489.2 514.3 538.4 557.2 573 584.3 598.7 608.3 618.9 621.9 637.1 650.6 656.6 658.5 664.9 660.1 664.6 674.2 678.6 673.1 664.2 632.5 600.4 576.2 556.5 526.1 503.2 479.1 458.9 437 412.3 386.3 399.6 401.4 407.4 410.7 410.9 430.3 445.4 459.6 460.3 458.1 447.2 425.2 394.3 360.6 324.9 288.2 247.9 214.2 196.8 169 164 179.1 175.3 173.7 174.1 170.1 167.8 165.3 160.5 157.1 152.3 151.2 146.4 143.7 162.8 168.8 175 181.3 186.8 201.2 212.8 229.7 243.7 269.5 288.1 303.3 327.7 334.1 341.5 361.8 360.4 362.6 363.9 371.1 385.3 402.6 418.9 430.9 441.3 457.7 469.4 488.6 517.2 514 518 527.8 528.2 541.4 553.9 562.5 561 563.8 572.5 574.4 569.6 587.7 611.1 631.9 653.3 666.7 684.7 697.6 707.5 711 702.8 703 687.8 680.6 663.4 644.3 628.9 592.3 557.5 540 516.2 523.9 515.5 492.1 474.4 453.1 453.9 460.7 475.9 493.4 512.3 539.6 557.5 576.3 562.7 539.8 531 540.7 548.6 551 565.4 600.3 631 644.8 657.6 667.8 664.7 638.5 611.1 603.1 598.9 578.4 549.3 517.5 524.9 529.5 528.6 530.1 518.5 514.1 499.3 481.1 461.4 440.4 422 410.4
201.8 206.9 211.1 231.8 241.4 250.4 254.2 247.2 251.3 256.5 273 284.8 293.4 305.8 317.3 332.1 348.6 348 338.3 336.4 351.8 361.2 372.3 386.6 404.8 431.6 456.4 480.5 504.5 531.4 553.6 573.4 586.9 603 614.2 623.9 632.2 644.4 658.8 667.5 667.5 669 678.4 680.1 685.8 684.4 681.4 680.5 663.5 629.7 600.4 576.5 554 527.5 503 481.1 461.5 440 412.1 408.3 412.6 421.1 423.5 429.4 436.7 436.4 449.4 463.4 464.4 464.4 456.1 431 394.4 356.1 320 285.4 248.1 218.8 193.7 174.4 175.2 193.5 195.3 192.6 191.6 187.1 183 181.5 178.9 172.8 167.3 164.9 164.1 155.4 171.8 187.7 195.2 200.8 207 215.5 228.2 252.7 278.8 299.2 314.7 329 351.1 361.3 370.9 386.6 387.5 384.6 390.8 401.3 416.4 439.7 464.4 473.5 473.4 487.2 514.2 528.3 534.4 543.9 564.5 565.2 562.7 572.3 594.2 604.3 609 609 612.1 603.8 595.3 626.7 644.2 669.6 685.2 698.7 714.2 730.1 734.6 737.2 733.3 710.5 692.1 672.8 652.9 640.9 617.9 581.4 547.4 539.4 528.4 526.9 513.3 487.8 461.9 454.9 467.9 478.1 499.8 512.2 521.6 553.4 584.1 603.3 607.6 585.6 569.3 575.4 584.9 588.9 585.3 619.9 642.9 656.4 668.1 676.4 666.7 639.2 615.5 606.6 583.1 546.6 544.8 555.3 557 555.5 560.7 548.6 550.3 528.9 502.8 481 458.9 440.8 425.2 412.4
198.1 205.1 220.2 231.8 242.2 253.8 254.5 247.2 248.9 270.1 287.5 297.2 301.9 312 333.3 351.2 363.6 361 356.8 353.8 348.8 363.3 376.2 395.1 410.9 433.8 462.8 489.6 517.2 543.7 567.5 587.2 601 611.6 627.6 644.4 655.1 665 670.7 679.8 684.1 686 688.7 690.4 690.5 694.4 692.4 681.2 656 623.4 597 576.5 551.8 527.3 503.6 482.9 461.8 438.6 413.9 425.6 430.7 438.1 446.3 452.3 460 457 458.9 471.3 476.2 474.2 463.2 432.7 394.6 360.9 321.4 278 245.9 217.4 196.4 175.3 187.8 207.2 214.8 217.2 210.2 207.2 203.4 198.2 196.1 189.4 183.3 179.2 174.9 167 171.4 198.8 199.4 211.2 220.4 234 249.7 273.1 297.9 322.1 346.9 361.2 380.8 390 402.1 408.7 410.3 412.1 433.3 440.9 465 495 511.9 516.9 510 523 544 551.2 564.1 585.7 590.1 591.2 595.3 611.3 622.1 634.5 641.7 647.6 647.8 633.7 627.1 649.2 673.5 690.8 712.6 725.7 738 744.4 742.4 731.6 708.9 692.8 681.4 666.9 646.8 623.5 604.5 574.8 543.8 535.3 531.3 526.9 512.6 484.9 453 485 501.2 507.4 543.2 541.5 547.5 564.6 597.2 621 632.3 628.7 609.8 608.7 619.9 629.7 622.3 633 664.8 692 697.6 687.3 663 634.8 615.1 591.1 549.4 570.8 577.3 587.3 595.5 595.2 583.4 564.4 543.7 524.8 505.4 473.7 469.8 450.7 434.4 421.4
195 211.9 223.5 229.5 241.4 255.6 257.6 248.5 256.8 278.2 293.2 302 311.5 326.6 341.2 367 372.2 373.4 371.3 367.6 360.8 365.8 379 396.7 412.9 434.2 463.2 492.2 519.9 548.8 575.2 597.5 608.4 623 642.6 660.7 673.2 679.8 687.5 695.6 695.5 698 704.1 716.6 719.4 710.3 695.2 676.6 652.8 621.9 595.4 578.9 556.2 526.1 504.1 484.5 462.6 440.6 425.1 441.5 448.4 456.2 467.6 474.5 478.3 479.4 479.4 478.1 487.1 487.1 464.3 426.5 393.5 354.6 314.3 276.8 244.8 218.1 199.5 184.6 199.4 217 236.2 239.9 232.4 230.3 228.3 222.7 218 211.2 201.4 195.8 190.4 183.1 177.1 194.7 212.5 215.5 230.2 250.6 269.7 294.5 318 353.5 370.5 392.9 411.1 422.7 433.5 435.5 439.6 447 468.6 505.5 528 535.3 551 565.5 580.5 574.9 572 587 603.8 613.8 621.3 625.4 635.7 655.9 668.6 668.8 682.9 699.6 689.2 671.4 669.9 690 705 721.2 736.9 743 753.2 736.7 714.6 690.3 681.8 678.4 663.6 644.7 621.4 608 596.3 569.7 544 531.1 530.6 529 519.5 491.7 464.9 503.1 528.8 540.6 545.3 556.4 562.2 570.3 593.4 611.3 635.7 656 645.5 652.6 656.7 665 665.2 670.4 682.6 706.2 710.9 692.7 660.2 632.5 605 566.9 588.8 593.6 600.2 617.4 626.6 615.9 584.1 559.8 540.7 514.8 514.5 500.1 484.7 462.8 447.2 433.8
206.6 216.6 225.4 234.4 247 256.9 262.9 252 265.8 285 292.1 305.7 315.3 334.2 354 372.2 387.4 389.7 386.1 380.9 377.4 367.4 380.8 396.9 412.7 432.4 454.5 486.6 516.9 545.5 574.4 593.2 606.1 628.1 652.1 668.8 681.5 690.8 697.7 697.9 705.4 724.5 733.1 730.7 727.1 722 703.6 681.3 650.2 620.5 596.3 577.9 552.6 527.2 505.5 482.3 467 441.5 447.6 457.2 465.7 477.6 488.3 497.8 501.2 503 505.1 502.8 498.1 494.1 457.4 421.4 387.8 349.2 311.2 276.2 248.1 218.2 199.6 195.3 214.7 236.4 259.7 264.7 259.8 258 258.6 251 243.6 232.9 224.2 215 206.4 199.7 192.7 193.9 221 225.8 236.6 261.3 284.3 311.9 341.3 365.1 394.2 416.4 438.7 449.5 459.6 458.4 466.2 480.6 518.3 548.4 561.7 574 611.8 607.6 602.5 609.2 612.4 622.4 634.7 645.8 665 669.4 692.9 703.7 718.2 733.3 740.7 742.5 718.4 722.2 705.5 728 740.8 751.1 755.2 751.1 722.6 703.4 680.5 666.9 660.6 660.3 638.9 620.5 600.5 588.1 584.1 564.7 541.7 534.9 524.5 520.4 505.8 488.4 468.5 497.9 526.2 528.2 532.6 545.2 549.3 564.5 582.5 612.4 641.2 673.4 700.9 717.6 710.5 716.9 717 707 703 724.2 719.7 693.2 663 635.6 615.7 612.7 620.3 624.2 629.8 645.3 628.4 601.6 571.7 573.7 557 545.3 534.1 519.6 505.6 488.6 468.3 454.4
208.1 214.3 224.8 237.9 250.1 262 266.4 257.3 270.9 286.3 294.6 306.1 324.7 339.9 366 385.8 400.4 402.6 402 398.1 391.4 384.6 379.4 397.5 412.5 429.8 447.4 477.9 512.4 538 567 585 599.9 626.8 652.2 674.8 686 694 700.6 708.1 725.5 731.3 738.1 739.1 739.8 726.4 696.6 671.6 648 622.3 598.2 574.1 550.1 529.5 510.8 487.3 465.6 461.9 473 475.4 485.4 496.1 507.9 515.8 523 526.3 528.6 523.3 511.7 481.4 445.9 407.3 373.2 340.8 304.4 277.7 244.4 219.4 200.1 208.4 225.8 252.3 273.9 287.2 290.5 293.3 293.2 281.4 271.2 260.4 249.5 238.6 226.3 219 211.7 202.1 201.6 226.3 240.2 265.4 297.2 325.8 349 382.7 412.3 442.4 463.8 472.8 481.5 489.2 497.7 513.3 544.1 574.7 607 634.8 633.4 620.9 622.8 632.3 638.2 650 659.8 675.1 709 711.8 750.5 755.7 760.3 771.8 770.1 759.3 749.3 744.6 729 752.6 773.6 772.1 758.1 731.7 708 675.1 654.7 645.6 645.6 633.8 620.1 605.8 588.7 579 572.6 551.8 538.5 539.5 529.4 526.4 523.6 497 467.3 489.3 496.9 509.8 520.1 527.1 538.2 566.4 587 616.7 652.7 692.8 726.6 746.2 754.5 772.7 766.8 738 738.1 741.8 731.5 705.8 678.2 665.3 643.1 637.4 660.6 672.7 667.7 648.6 630.9 618.2 605.5 591.4 579.1 570.1 554.6 556 528.4 507.5 487.9 477.3
204.3 217.5 229.6 241.3 256.4 266.7 258 260 285.7 290.6 304.4 316.5 335.4 353 374.2 393.2 406.9 413.3 416.4 412.2 406.2 398.8 390.4 394 414.4 430.1 445.1 468.5 500.9 530.8 554.1 575.1 596.4 625 652.2 672.5 679.2 694.6 704 722 728.6 739.4 743.2 748.7 747.9 717.1 690 665.3 640.9 619.4 597.9 575.4 552.3 534.5 520.7 499.4 474.9 485.7 486.4 494.5 503.3 517 527.2 535.9 539.7 545.2 543.2 533.9 514.7 487.4 452 415.5 380.9 338.8 305.8 272.9 245.2 220.9 203.4 220.4 240.4 265.7 285.7 313.2 323.4 329.2 327.2 316.7 313 309.4 281.6 267.2 252.5 240.6 233.2 226.7 209.8 211.1 242.5 275.3 295.6 325.9 350.6 379.5 410.3 447.5 482.4 499.5 509.9 524.5 543.8 556.7 584 622.3 653.6 669.3 666.2 649.3 648.2 659.7 675.7 675.4 685.1 707.2 735.3 758 776.3 796.1 803.8 797.6 784.5 771.2 783 775 768.5 779 790.8 767.5 761.1 727.9 687.8 655.5 639.6 630.7 622.5 611.8 601.4 583.4 572.1 561.6 551.5 544.1 538.8 536.3 512.5 514.3 507.9 492.4 472.3 472.5 481.4 493 507.2 519.6 541.7 561.9 587.7 620.9 660.8 703.3 743.1 768.4 789.1 810 814.3 803.9 769.9 768.8 754.8 730.9 714 694.4 665.1 659.2 670.6 678.7 668.6 670.9 670.5 655.1 640 626.3 612.4 610.7 591.1 580 559.3 542 509.8 509.3
206 219.1 229.2 242 259.1 264.2 256.3 262.4 284.8 297.6 311.9 326.8 340.1 359.1 381.5 402.6 414.2 424.8 433.7 433.9 427.9 416 410.5 410 415.7 432.1 446.9 464.6 491.2 518.9 543.8 573.4 597.8 626.4 650.7 668 679.4 704.3 715.4 723.4 740.4 743.8 753 755.7 740.4 709 684.1 660.2 635.6 617.4 598.6 577.5 556.4 542.5 530.7 512.2 498 504.7 507 511.3 523 533.9 546.3 556.7 563.4 561.5 552.9 539.2 514.9 484.5 447.3 408.1 372.1 337.2 302.2 269.9 243 215.4 219.1 234.8 255.1 279.5 303.3 328.8 349.8 361.8 363.2 364.4 354.3 345 322.2 300.1 277.7 270.8 258.5 245.9 230 212.6 249.1 275 294.6 317.5 346.5 376.3 406.4 446.7 493.8 525.3 552.9 569.3 590 614.3 620.2 663.3 682.6 698.5 699.8 678.2 676.4 691.3 708.2 714.8 731.9 739.9 752.6 775 800 822.5 832.1 804.8 790.3 794.2 815.6 810.7 800.3 800.8 785.8 768 764.6 726.1 689.5 652.6 631.4 614.9 605.8 595.9 589.3 572.3 561.7 551.9 545.7 542.1 560.1 527.7 498.6 495.6 488.5 474.5 468.7 472.1 476.9 486.8 502.2 517.4 542.3 568.5 593.2 625.1 669.6 706.1 740.9 785.7 809.6 839.4 844.3 820.2 804 787.3 759.2 738.5 719.7 702.1 686.3 671.7 677.5 682.4 691.1 693.1 684 675.8 660.8 650.7 633.6 611.5 591.3 574.5 561 545.2 525.1 514.2
204.2 213.5 228 242.9 255.9 261.8 252.7 272.2 286.8 305.5 318.8 336.3 346.3 366.5 393.2 411.8 427 440.1 449.2 449.2 444.8 433.4 431.9 436.1 424.5 437.5 449.1 467.1 484.4 506.7 540.3 573.2 598.5 627.1 647.9 666.3 685.9 707.2 722.3 734.4 740 757.1 763.9 762.4 731.3 704.8 680.1 657 636.5 618 597.3 579 560.1 550.3 539.4 516.4 522.2 525 528.6 530.3 538.7 553.1 567.8 580.6 584 578.4 565.5 542.6 511.1 478.2 444.6 405.1 366.9 333.3 298.2 267.7 241.2 223 230.1 248.1 268.5 291.8 318.8 347.2 374.7 393 412.1 412.8 416.7 413 389 355.6 325.2 296.8 287.5 273.3 252.6 218.1 255.5 276 295.6 313.5 336.5 368.1 401.6 439.6 485.6 521 556.6 600.6 633.5 661 673.2 693 714.7 728.1 731.3 718 707.5 713.4 727.8 751.2 761 770.2 785.1 805.2 830.8 851.4 842.8 821.5 814 829.7 827.3 820 816.2 811.1 787.9 779.7 780.8 752.3 711.2 666.7 638.5 618.4 599.4 584.7 575.8 569.1 556.3 549.1 546.4 556.8 570.8 523.6 493.5 479.9 476.3 471.5 470.4 471.2 479.1 489.7 505.6 523 546.7 571.2 599 635.3 669.9 710.8 749.8 782.2 817.2 858 857.4 835.7 816.8 782.2 752.8 733.8 720.1 710.3 691.5 685.3 695.5 704.2 706.4 701.8 689.7 677.2 664.9 652 626.7 609.1 589 573.7 555.2 536 519.6 505.6
201.8 211.6 227.7 241.5 249.7 254.7 251.7 269.5 289 309.7 329.6 341.1 356.2 378 403.2 421 437.9 447.3 458.6 456.5 458.6 449.2 446.4 451 444.8 436.4 453.6 468.7 483.2 499.5 535 566.7 595.4 618.6 637.3 666.7 687.7 710.2 725.8 733.7 746.9 757.2 763.9 749.5 729.2 699.5 672.4 651.3 632.9 613.5 596.1 578.3 566.5 557.7 544.3 534.5 538.2 542.5 544.1 548.7 557 571.2 587.4 595.6 597.5 589.9 570.8 540.5 505.3 469.3 433.6 394.6 359.4 326.1 296.1 268.9 245.6 227.1 241.6 260.1 283.9 307.9 332.7 363 392.7 426.1 442 453.2 465.5 463.6 436.8 396.9 354.8 329.2 318.5 295.5 261.1 243.7 248 268.2 290.2 312.5 335.4 364.3 394.2 430.3 467 510 559.8 595.6 630.4 663.9 694.9 723.5 744.5 758.9 771.2 753.5 738.1 739.4 751.4 777.8 790 803.8 815.9 833.5 857.1 871.5 846.6 827.9 830.8 835 827 830.1 822.4 831.9 812.4 799.9 790 756 720.8 695.9 669.4 627.9 606.5 596.3 583.2 580.2 564.2 554.7 550.7 564.3 564.9 523.8 492.6 475.9 474.3 471.8 470.1 473.6 479.6 493 506.1 525.5 549.1 570.6 601.6 634.8 669.1 705 743.7 783.7 823.9 876.5 865.4 843 817.7 787.9 759.6 740.9 727.3 704 706.7 715.4 706.7 717.9 712.5 706.1 693.1 676.4 662.6 646.1 623.1 603.4 583.9 567 549.8 532.5 519.7 491.2
195.9 209.8 225.4 234.5 245.4 248.5 251 271.8 291.3 314.8 332.5 348.2 366.1 387.7 409.4 428.6 446.1 459.5 470.3 474.1 467.7 468.3 466 463 465 457.6 452.1 471.8 485.6 501.2 529 561.5 588.1 610.8 633.3 661.4 684.3 709.3 722.2 738.2 749.9 754.1 753.4 750 719.6 688.9 665.6 642.8 623 610 596 582 572 563.1 548 551.2 553.2 556.3 558.3 565.7 574.8 588.9 599.9 610.1 610.4 596.6 571.1 535.2 500.5 466.5 432.3 393.2 360.2 327.1 296.4 269.6 242.3 248.5 254.3 270.1 295.7 321.1 349.8 375.7 408.9 441.8 470.4 492.4 500.8 505.1 474 425.9 393.8 361.5 332.6 309.3 281.8 260 245.4 262.4 279.5 301.6 331.3 360.7 388.8 421.3 460.9 502.6 550.6 589.1 631.9 664.8 698.6 732.2 755.1 780.2 805.8 790.6 770.3 769.1 786.9 805.3 821.8 836.5 851.3 865.5 886.8 877.3 847.9 846.1 850.3 842.1 843.1 837.8 846 848.1 819.7 813.4 792.4 763.4 725.9 708.7 709.1 659.3 623.8 613.3 603.2 600.7 578.8 567.6 560.5 571.2 556 516.2 487.9 480.1 474.9 473.5 472.1 474.1 481.1 493.2 508.1 528.1 551.7 576.8 598.5 630.5 674.3 712.5 762.2 809.5 862.8 889.6 869.1 847.4 820.3 793.4 768.3 746 722.8 724 726.4 726.4 723 723.7 719.1 705.8 688.5 676.4 658.9 634.9 613.2 593.3 574.3 562.2 542.8 525.8 504.4 475.7
192.9 208.5 217.9 233.7 242.2 242.9 254.3 272.8 298.7 316.6 336.6 355 374.1 392.4 417.2 437.2 453.3 464.9 478.6 484.7 480.9 479.8 480.4 478.5 482.4 474.6 461.2 473.4 488.4 504.1 528.2 553.7 580 608.1 631.6 661.6 683.9 707.2 727 739.9 749.5 758 764 750.9 717.8 688.2 656.1 629.4 620 608.9 596.7 584.7 575.4 563.4 564.1 563.7 565.9 569.5 574.8 580.3 589.9 603.3 612.8 622.2 615.4 596 563.8 526.8 493.2 455.8 421.3 388.2 356.6 323.8 293.7 263.6 258.7 261.8 275.5 289.1 310.7 339.8 364.5 394.7 425.1 456.7 493 526.7 543.2 529.8 486.2 457.4 416.9 386.5 352.2 320.9 292.7 275.8 261.6 260 279.5 298.3 323.4 351.5 378.9 415.9 456.9 503.1 546.8 601.2 626.7 657.4 691.6 726.4 756.8 788.5 819.9 827.6 822.3 829.8 840.6 840.8 853.3 868.6 883.2 902.4 910.1 883.1 856.8 863.8 855.8 858.7 852.8 857.2 865.1 851.5 820.9 823.5 801.4 769.9 743.6 734.6 723.7 688.1 651.2 642.7 636.9 628.1 593.6 580.2 577.7 577.8 547.2 518 497 484.3 474.5 471.9 473.8 476.4 483.4 495 510.9 530.6 555.7 582.6 612.4 643.5 681.3 723 778.4 827.7 878 900.3 878 847.1 817.7 795.6 768.1 758.7 751.6 752.1 754.4 753.1 737.1 727.4 716.8 700.8 681.7 665 640.4 622.1 603.3 586.2 568.1 549.1 530.2 511.4 488.1 460.4
188.5 205.3 219.7 234 237.1 236.7 257.3 276.1 302.1 321.7 339.6 358.2 374.3 397.9 420.2 442.4 454.1 468.6 482.5 491.3 492.1 493.3 490 488.8 491 486.9 481.6 473.4 491.6 506.2 524.5 547.9 580.7 606.6 631.2 658.3 685.2 713.5 729.1 738.2 753.2 762.5 761.5 747.6 717.2 682.1 648 627.8 618.9 608.8 596.7 586 576.7 574.3 574.1 575.1 576.8 582.1 588.3 593.2 604.4 615.8 624.5 630.2 619.7 589.3 553 516.7 480.6 445.2 412 381 349.3 319.3 292.2 269 273.3 280.1 291.5 311 335.6 358.5 385 412.9 443.9 473.1 511 547.5 567.5 539.5 524.3 485.1 449.8 411.2 365.8 335.2 312.8 289.1 272.6 261.3 278.1 297 320.2 349 377.5 412.7 455.1 507.5 549 576.7 613.4 645.3 678.1 712.8 748.1 787.3 825.3 848.5 863.9 876.7 885.8 889.9 890.2 901.8 916 932.5 925.3 890.6 871.5 867.3 867 869.2 863.6 866.7 877.2 863.9 831.2 833.7 821.6 787.6 770.6 766.1 745.8 716.3 686.7 682.2 678.8 664 618.8 599.9 598.2 591.9 556.9 525 503.5 488.9 476.2 474.1 479 482.7 487.4 498 512.1 530.7 558.8 599.4 631.9 660.8 702.4 745.8 798.1 851.4 889.7 912.2 882.1 846.2 821.7 802.6 800.9 794.7 789.1 788.1 781.1 762.2 742 723.3 706.3 686.5 665.1 649.3 630.2 613.8 593.1 576.2 558.5 539.1 517.3 492.3 473.9 458.4
188.1 200.9 217.1 228.7 230.5 238.2 260.8 280.4 303.1 325.2 340.7 358.4 377.6 396.8 421.3 440.3 458.6 477.6 490.3 500 500.6 501.7 500.2 499.1 500.2 500.4 497.9 487 498.9 511.1 527.8 545 578.2 603.5 626.7 655.1 683.4 714.8 727.4 741.2 757.5 768.7 774 750.9 711.9 683.3 650.8 632.2 618.8 608 599.9 591.5 583.2 583.3 583.5 586.3 589.4 594 600.6 609.1 619.2 629.3 637.9 636.7 610.4 578.8 538 503.1 469.7 435 401.6 372.2 341.5 314 287.5 282.4 286.9 295.1 312.9 333.4 352.6 377.2 403.4 433.6 463.8 495.6 531.6 561.4 579 582.9 558.5 517.1 469 431 385.6 351.9 325.4 303.5 285.5 271.3 280.6 295.1 314.3 339.9 368.3 403.3 454.6 488.5 525.9 560 597.1 629.3 665.5 703.5 740.9 783.7 822 844.3 865.9 881.2 898.1 920.1 931.1 935.1 950.7 965.6 928 897.8 890.8 880.7 884.1 879.5 877 882.5 893.9 885.6 860.1 849.5 838.5 802.5 793.6 782.4 764.6 746 733.3 736.4 734.2 700.9 652.3 625 621.8 600.5 565.2 533.1 512.2 492.7 478.2 475.9 481.6 489.2 497.4 506.6 524.4 548.1 577.2 614.9 647.1 677.6 719.7 767.6 820.1 863.3 902.9 921.1 888.2 856.7 843.3 840.4 831.6 826.5 823.2 803.5 778.5 757.7 734.9 710.7 691.2 672 652.5 635.9 621.1 604.2 585.1 566.3 544.8 524.5 503.6 482.2 461.6 459.7
184.2 198.1 212.8 225.3 223.4 240.9 263.9 282.3 303.4 321.8 338.9 356.5 375.9 396.6 416.8 439 463.6 482.1 501.1 506.6 511.1 509 510.9 505.5 506.8 509.8 512.9 511.7 501.4 521.4 535.2 549.7 575.8 603.2 626.9 656.7 684.6 709.4 730.9 743.2 763.2 777.8 781.2 745.9 706.2 673.5 653.3 634.1 619.4 612.8 608.7 599.3 591.8 591 595.4 598.8 603.7 610.2 617.9 626.6 634.8 644.6 647.1 630.6 600.7 561.9 525.7 485.8 454.8 424.1 394.7 367.7 338.9 316.8 293.1 296.4 302.2 315.2 335.3 352.9 376.6 398.2 424.4 452.8 485.5 524.9 547.7 570.5 589 599.3 577.8 540.8 492.7 442.2 401.8 367.3 340.3 316 294.9 281.7 281.7 295.6 313 336 365.2 401.2 436.1 468.3 510.5 546.7 587.9 625.3 660.7 698.2 738.3 780.4 810.3 836.7 863.7 888.3 907.8 932.5 953.6 969.4 982.6 971.8 931.9 908.8 908.6 897.5 893.4 885.1 886.8 896 907.3 914.9 905.6 880.5 860.4 832 818.2 812.5 793.2 798.2 788.8 770.7 737 707.3 664.5 648.4 627.7 598.5 566.2 540.6 521.7 496.8 478.9 481.5 496 515.4 529.8 531.8 544.1 565.7 594.7 622.1 653.4 690.3 737 782.9 815.3 855.2 895.7 918.1 901.9 888.6 882 873.1 869.1 853.4 827.4 799 771.9 745.6 720 696.1 673.9 656.2 639.2 624.8 610.5 595 573.6 553.3 533.5 511.4 490.7 473.4 461.1 460.7
180.8 200.6 209.7 220.8 223.8 242.6 263.2 282.8 299.6 318.9 341.2 356.9 376.2 396.9 418.5 441.5 465.4 487.1 508.2 514.9 517 515.2 515 511.7 519.4 524.2 526.2 526.2 510.6 528.7 543 555.1 576.9 602.8 631.2 658.1 684.9 715.3 734.4 746.9 764.6 788 791 773.9 722.9 687.3 664.6 646.1 631.5 628.6 620.1 611.7 604 605 608.7 614.2 619.5 626.6 635.7 643.3 650 656.3 649 624.3 590.7 555.1 516.8 480.3 445.8 418.2 390.8 362.8 341.9 326.1 305.9 311.3 318.7 336.1 355.7 377 399.2 421.3 442.9 471.1 504.7 533.8 558.5 584.6 605.6 615.1 588.4 551.4 503.2 451.8 417.1 384.7 353.3 327.1 304.6 292.2 283.9 298.1 315.6 336.4 360.4 390.7 422.3 454.7 500 543.6 582.6 619.9 658.7 708.4 745.3 767.5 797 828.4 861.9 890.6 915.8 943.4 966.1 987 1001.1 968.9 936.4 917.7 913.7 909.3 902.8 899.9 904.2 909.2 931.8 960.5 950.4 924.9 918.6 866.3 850.2 844 829.5 848.7 822.5 775.2 743.1 704.8 674 664.2 649.4 619 601.7 575.9 549.5 510.6 486.7 493 524.3 548.4 557.1 557.4 577.2 582.1 607.5 641.4 669.7 699.5 737.6 778.3 820 859.9 879.3 909.1 938.7 927.1 917.8 907.8 884.3 852.1 819.6 791.3 759.1 729.6 705.4 682.3 659.4 645.3 627.9 612.9 599.4 582.1 562.6 543.9 527.2 507.1 487.7 468.6 462 462.1
176.9 197.7 210.5 216.2 222.4 242.2 263.4 284.5 300.6 320.9 341.4 356.9 378.9 399.9 420.2 447.4 477.5 497 510.5 518.8 518.8 521.1 520.2 525.8 533.7 536.4 540.7 539.2 532.3 535.3 549.7 561.8 579.8 605.7 631.5 658.4 690.7 720.7 737.7 757.6 774 788.4 796.2 768.9 737.2 712.1 694.6 681.1 655 643.3 632.3 624.3 620 623.2 624.9 630.2 639.8 647.2 652 658.6 664.7 664.3 642 610.9 576.2 541.7 504.5 470.7 439.9 414.1 387.2 361.7 341.8 326.1 312.3 323 335.2 354.7 378 398.4 421 442.2 465.1 490.3 517.3 549 575.8 602.3 621 614.5 571.8 548.5 516.6 476.3 435 397.8 365.2 336.7 314.2 300.2 287.7 301.1 316.1 333.8 356.2 376.3 415.5 458.2 497.3 539 577.8 616 669.1 704.5 719.4 757 792.9 830.6 863.3 893.5 925.3 956.5 982 1003.8 1017.3 982.5 945.1 926.8 927.4 932.2 922.4 931.5 930.5 938.1 952.5 947.5 933.8 935.7 939.5 905.4 889.6 877.3 846.5 822.3 796.6 762 735.7 703.9 688.5 687.7 667.8 648.8 619.5 582.3 549.3 519.8 498.1 496.7 523.4 541.6 549.9 565.3 574.7 591.4 618 640.8 671 700.2 736.9 775.9 814.3 842.6 870.2 916.3 955.3 964.4 950.4 916 877.7 843 810.2 777 742.5 712.8 687.7 670.5 651 635.6 620.1 605.7 587.1 571.7 557.7 535.5 516.4 499.1 482.5 465.5 464 465.2
177.5 197.7 208.3 209.6 226.1 245 262.8 283 303.6 321.8 343.1 361.3 381.9 403.9 427.7 455.6 482.5 495.8 505.9 517.7 523.2 526.4 536.7 541.1 547.9 551.1 553.1 553.8 548.8 543.4 558.7 569.8 581.7 609.8 636.2 662.7 694.8 721.9 746.2 767.4 782.2 799.8 808.8 792.5 802.9 744.1 722.8 698.8 673 661.3 651.3 642.8 642 641.3 644.3 650 660 665 670.3 676.9 680.4 668.7 637.6 598.9 561.2 527.2 494.1 462.4 435.4 406.6 382.7 360.1 340.6 321.5 325.1 334.4 353.4 375 399.3 420.4 442.5 465.4 487.4 510.3 538.6 564.5 592 619.5 638 639 617.8 575.3 537.5 500.8 451.5 407.6 375.6 347.5 324.1 309.2 294.6 304 319 334.4 356.5 393 428.1 459.9 504.3 540.5 582.5 629.4 650.1 680.3 725.3 763.7 801.2 835.4 868 902.3 925.6 959.8 992.8 1015.3 1027 994.9 964.3 945.1 945.5 951.1 954.3 957.9 959.6 964.3 944.5 919.3 901.6 898 900.9 888.3 869.6 853.2 817.1 790.1 769 750.2 723.3 701.6 691 675 653 630 605.7 576.5 550.4 528.6 507 493 512.3 530.3 541.1 551.3 567.8 588.1 610.9 635.1 666.4 699.2 732.9 766 801.4 829.4 868.2 911.7 947.6 981.8 941.9 903.9 867.8 833.1 798.3 762.6 729 702.4 682.3 666.9 648.4 628.5 612.9 592.1 579.1 565.5 547.6 527 508.6 490.4 471.7 465.2 467 471.9
176.6 195 203.1 211 222.9 244.6 264.2 281.5 304.5 324.2 341.2 363.6 385.9 408.1 431.4 454.5 475.7 490.4 507.4 523.2 529.9 539.5 547.2 552.3 559.4 564.8 563.4 566.4 562.6 551.2 566.6 578.8 588 613 639.9 670.3 699.4 725.3 751.7 774.6 796 811.1 818.4 829.4 811.7 763 732.9 712.2 699 689.9 684.3 680.4 672.6 679 673.4 676.9 679.4 684.7 691.3 694 692.8 676.6 632.3 591.6 554.9 521.6 487.3 458 427.8 402 375.8 356 339 325.4 335.7 345.6 369.1 394.1 416.4 437.9 461.6 486.2 510.6 535.6 560.5 584.9 611.8 635.8 651.6 644.1 608.6 570 536 499.5 462.4 424.9 388.7 359.1 334.1 317.1 305.7 303.1 317.9 334.9 361.4 402.1 433.2 469 506.8 548.7 586 611.4 653.9 692 729.1 769.5 803.6 839.2 877.2 916.1 934.3 960.7 992.3 1018.5 1036.9 1014.4 989.1 972.1 965.5 966.3 975.9 983.4 988.4 965.2 936.7 902.8 884 880.9 873.3 861.2 844.5 828.2 798.8 771.8 753.8 734.9 712 695.6 679.7 659.7 637.7 617.9 595 572.6 551.4 532.4 508.9 496 503.8 515.1 527.7 542.6 564.1 578.5 605 631.4 666 695.9 724.8 753.7 776.2 816 854.9 896.4 935.8 968.5 933.6 895.2 859.9 823.5 787.8 752.5 722.6 699.5 682.3 664.5 644.8 627.8 610.8 593.3 575.8 554.8 534.1 517.4 501.7 486.4 471.2 468.9 472.7 479.8
176.1 191.8 200.5 210.5 231 245 263.7 284.9 304.8 323.7 347.6 371.7 394.1 413.2 437 455 478 493 509.5 524.8 541 552.3 562 567.6 572.3 575.9 575.6 577.1 575.1 557.7 573.7 585.2 595 617.1 645.1 676.7 703.2 728.3 757.2 780.5 805.3 816.4 837.1 845.2 809.3 775.7 753.7 741.9 731.6 728.3 721.4 711.8 709.3 712.1 703.4 701.5 705.3 710.9 718.7 716.4 702.3 669.2 628.9 586.6 550.9 513.7 481.9 450.8 420.7 396.6 376.5 356.6 341.4 338.3 346.5 359.3 385.8 409.9 436.6 455.1 481.8 507.3 534.7 561.1 585.7 608.9 633.1 655.8 662.6 630.1 589.7 552.2 518.3 483 454.4 425.8 395.9 368.3 344.7 325.7 313.7 305.3 320.7 337.5 368.2 399 437.4 470.6 504 538.7 575.6 617.8 656.6 695.2 734.1 769.1 804.1 841.1 880.5 915.2 943.5 961.2 988 1018.3 1042.3 1039.9 1016.5 1003.1 996.3 997.9 1005.4 1014.3 983.6 952.2 926.3 891.9 881.5 864.3 846.9 840.8 823.8 805.9 788.5 766 736.3 719.6 699 680.2 662.1 642.1 625 606.1 584 565.3 547.8 524.9 506.1 495.8 498.2 508.5 523.8 538.2 555 574 599.6 628.4 661.2 678 706.8 731.2 761.2 803.9 843.2 884.7 924.8 955.8 926.2 887.9 849.4 813.9 776.6 744.8 718.5 700.6 680.9 663.8 646 625.6 610.6 589.8 569.4 548.8 526.9 508.5 493.6 481.2 477.5 474.2 480.5 492.9
176.1 186.2 197.8 204.8 224.2 244.3 263.1 282.8 303.3 329.2 354.3 380.1 399.5 423.3 445.3 456.6 481.8 496 515.2 535.2 551 568.2 578.4 584.7 586.5 584.1 587.9 589.7 585.3 566.2 581.4 593.9 601.5 622 650.4 679.8 708.8 735.2 762.9 786.3 808.5 823.2 840.8 854.9 828.2 802.7 788.2 774.5 765.9 758.5 747.9 744.4 747.8 741.3 733.7 732 734.4 737.6 739.6 730.7 700.2 662.2 626.7 578.4 543.9 508.7 476.1 447.5 419.9 396.9 372.5 358 341.8 347.4 357.1 373.8 398.9 423.7 444.9 471.4 498.8 529 555.6 583.2 608.8 633.3 656.6 672 652.8 607.7 566.3 534.2 508.7 486.3 458.2 431.8 409.4 379.9 349.3 332.4 321.6 311.5 327.1 339.7 364.1 395.1 442.4 468.2 500.2 536.1 578.7 618.9 657.2 698.2 738.8 772.8 808.5 844.8 883.7 915.2 944.8 957.8 982.8 1014.2 1046.4 1066.9 1049.5 1036.7 1036.7 1037.5 1048.3 1056.4 999.3 960 920 895.8 881 861.9 832.4 810.6 796.3 787.8 775 755.7 726.6 704.2 685.6 667 648.6 628.4 611.1 593.6 573.3 553.8 536.7 520.6 505.6 496.9 500.2 506.1 517.1 534.5 548.9 571.7 596.2 623.3 642.5 662.7 694 718.1 747.4 783 831.7 873.1 915.2 951.1 920.3 881.5 842.7 802.2 768.1 739.3 718.2 702.4 683.3 664.2 644.7 626.3 609.2 589.8 568 545.3 525.2 505.8 493.3 484.6 474.8 480.6 490 512.3
172 185.4 193.8 204.5 224.8 245.5 264.3 280.7 305.8 334 358.7 384.6 404.2 430.2 444.2 463.2 485.8 501 527.1 548.4 566.5 578.4 588.4 596.8 595.3 592.1 594.9 595.3 594 583.8 587.6 599.2 610 626.2 653.5 683.9 711.7 739.7 766.7 791.6 816.8 835.8 854.1 864.8 859.3 845.7 823.2 810.7 798.3 787.6 781.7 784.7 778.4 770.3 763.4 761.5 763.8 764.5 751.7 718.9 682.2 653.6 613.3 571.7 534.4 499.5 469.9 441.4 414.7 392.3 374.5 361.2 350.5 356.9 370.1 386 414.3 436.1 460.4 486.1 515.9 547.9 576.2 603.3 632 657.4 677.9 687.3 647.2 598 560.6 532.5 518.1 496 465.8 435.5 414.3 386.3 360.2 339.3 324.2 317 332.1 346.9 364 397.8 425.8 458.7 496.6 549.3 582.7 620.3 659.5 703.6 737.7 770.9 805.7 841.9 881.7 907.9 939.1 955.1 981.5 1010.9 1040.7 1057.7 1076.5 1074.4 1076.8 1076.9 1072.1 1039.9 1009.1 969.1 932.3 896.4 866.5 840 812.5 791.2 790.2 778.6 768.6 745.2 717.5 698.2 674.8 655.6 636.7 616.9 596.5 579.2 560.9 543.5 528.2 511.7 500 498.4 501.4 508.2 516.7 529 546.6 563.9 590.4 602.3 633.7 667.1 690 712 736.5 769.7 817.8 854.5 906.4 945.4 923.2 882.3 841.1 798.2 764.9 737.6 719.3 701.7 685.6 669.7 647.8 630.4 612.5 593 570.5 548.4 525.4 504.9 495.6 482.4 480.1 491.5 509.1 524.2
174.5 185.2 195.8 205.6 221.5 243.2 260.4 287.3 312.9 337.6 362.1 386 407.2 425.6 443.7 467.5 488.1 511 539.6 562.4 572.5 580.7 593.3 602.9 606.5 601.7 601.6 603.3 602.4 597.1 590.9 606 616.7 630.9 654.8 687.2 715.6 743.1 771.1 797.8 825.4 848.4 866.3 878.7 887.4 892 869.9 850.9 837.6 822.3 817.3 814.8 809.6 801.3 795.6 794.5 793.2 774.8 736.2 707.9 669.9 634.9 593.9 562.6 528.1 492 461.9 434.4 412.2 393.5 378.4 362.5 361.1 369.6 383.7 402.8 424.3 451.6 475.6 504.5 534.8 564.8 595.9 624.7 652.4 676.2 693.7 702.9 666.7 600.6 564.6 543.7 526.7 504.6 476.8 446.2 419.1 397.3 369.1 343.1 332.3 323.3 332 349.2 367.6 393.8 421.6 453.7 497.8 540.3 580.2 622.1 667.7 702.4 735.2 767 801.2 836.4 870.8 899.6 924.1 945.1 967.9 993.5 1016.1 1035.2 1052.6 1068.5 1088.9 1098.8 1054.6 1019.2 994.6 952.6 930 898.9 869.1 839.1 804.6 787.7 783.9 773 762.1 739.1 714.8 693.1 663.5 641.5 623.2 602.8 584.2 562.8 547 533.2 520 507.1 500.1 498.8 502.4 507.9 516.7 527.2 550.8 568.6 590.5 619.4 648.7 672 693.4 711.5 730.7 761.8 799.9 846.7 894.4 938.7 930.1 889.7 847.8 798.7 765.5 741.4 725.1 710.2 700.1 675.9 649.1 633.3 612.5 591.8 569.4 546.3 520.2 511.3 497 483.8 491.9 508.1 518.2 531.8
175.4 188.5 195.4 201.5 219.7 245.5 265.4 293.2 316.4 342 366.4 390.3 404.8 425.3 447.1 468.5 494.6 524.3 548.8 563.3 571.8 584.4 598.8 618.8 621.9 619.8 614.7 614.7 611.5 606.4 596.2 611.9 621.5 636.6 657.9 688.5 717.4 746.7 774.8 802.9 833 859.5 875.8 889 900.5 905 906.9 889.4 874.5 860.1 852.1 847.4 841.1 830.2 826.8 824.2 799.5 765.8 730.1 690.8 649.3 615.3 583.7 548.9 514.3 488.4 456.7 432.3 413.3 397.2 382.5 367.4 373.6 384.8 401.5 420.8 442.4 468 490.2 524.1 554.2 585.1 614.8 643.5 669.9 693.5 707.1 702.3 657.5 607.2 578.4 557.5 543 524.3 494.2 465.9 434.1 411.9 381.5 358 341.6 328.2 335.1 350.8 367.9 391.8 429.6 467.6 502.1 542.3 581.5 628.1 670.6 706.2 736.7 769 799.1 830.9 857 882.6 904 923.6 947 968.9 988.1 1007.4 1020.5 1036.4 1063.6 1079.3 1038.3 1005.5 979.3 942.1 926.7 892.3 869.5 833.8 812.3 779 774.1 765.4 752.9 731.5 706 677.3 652.6 629.9 609.2 587.3 570.6 553.6 539.2 525.5 514.9 507.3 499.8 500.4 502.1 505.9 525 542 559.3 579.3 605 632.6 660 682.4 700.2 717.5 732.6 758.8 792.9 830.9 886.3 943.7 938.8 898.4 855.7 801.2 770.2 748.5 732.7 721.3 703.7 675 651.4 632.9 613.3 593.5 569.6 550.1 537.7 512.6 495.3 497.1 497.6 513 524.4 540.9
172.1 185.2 192.6 203.6 223 246.6 270.1 296.7 321.3 346.1 369.1 387.7 404.2 428.6 446.2 474.3 503.8 532.3 551.4 562.5 582 598.2 617.9 633.5 637.5 631.5 626.1 622.7 618.4 614.4 608.2 619.3 628.5 639.1 662.3 687.6 718.4 748.8 777.7 807.4 837.5 864.4 883.8 899.6 909.8 913.1 916.4 918.4 908.4 894.7 883.9 855.8 833 818.9 805.3 796.7 776.6 745.4 711.9 677.5 639.4 605.5 570.7 537 510.7 480.1 457.8 433.8 415.9 400.6 386.8 378.9 387.4 401.3 419.9 439.6 457.5 481 509.7 540.8 571.8 606.1 641.8 666.7 690.1 706 714.7 696.6 670.4 637.1 615.4 586.9 566.2 546.8 530.3 493.5 456.3 423.3 389.5 367.9 347.7 332.7 339.4 354.7 369.5 411.6 439.3 471.5 508.4 543.8 589.7 639.3 679.6 709.1 738.7 767.6 793 820.2 842 861.6 878.4 898.7 919.3 938.5 956.7 975.9 985.6 1008.4 1030.3 1049.4 1032.8 998.4 956.7 932.1 922.9 889.9 853.5 826.8 792.5 760 754 752.7 742 723.1 694.8 663.9 641.4 619.6 600.6 582.3 564.2 545.2 530.1 518.7 511.9 505.8 501.5 500.9 501.2 510.4 527.9 549.6 567 590.8 617.1 649.4 674.8 692.1 708.7 723.9 736 759.3 792.4 827.5 881.9 931.4 951.5 906.2 851.3 811.8 778.9 752.4 739.3 726.1 701.7 672.5 651.1 631.7 612.8 592.9 579.2 566.2 536.2 518.7 505.7 508 502.6 518.7 537.3 546.9
177.8 189.1 197 212.7 233.2 252.6 273.1 299.1 323.1 347.4 366.5 386.3 399.6 423.6 453.6 478.9 506.6 535.5 553.7 570 589.2 610.9 635.5 654.8 659.6 647.3 637.3 630.4 625.1 623.6 622.3 626.8 636.4 644.6 661.2 685.6 717 749.6 781.1 809.5 839.7 866.4 890 906.9 913.6 920 925.2 920.7 901.4 885.5 852.9 818.7 793.4 774 763.3 747.6 734.3 712.7 687 655.3 624.2 590.5 558.4 530.2 502 479.5 454.7 435 421.3 405.9 389.9 393.4 403.9 421.2 435.1 453.8 472.2 496.5 527 559.6 592.5 627.9 661.7 679.6 696.1 711.2 722.2 726.6 708 687.6 652.9 612.1 584.2 556.6 533.6 496.5 460 429.7 398.2 372.6 352.1 342.2 349.5 361.9 380.2 406.9 439.8 472 507.5 546.3 597.5 647.1 685 713 738 760.6 780.4 803.4 821.2 837.7 853.8 870.2 885.1 899.5 919.9 943.6 957 976.6 1011.5 1029.8 1032.8 997.7 955.4 926.4 912.1 890.7 839.4 804.9 772.2 754.6 737.9 732.6 721.5 702.8 678.7 651.3 629.6 607.8 589.4 572.9 555.1 536.8 525.9 521.6 510.2 505.6 502.7 501.9 502.2 518.8 536.2 554.8 578.1 599.3 633.2 666.9 686.8 702.3 714.1 732.5 747.6 762 793.1 829.4 891.3 938.4 969.6 921.3 855.4 815.2 780.1 755.5 741.2 727.6 703.7 680.2 655.8 636.6 616.6 607.2 599.9 576.6 551.7 535.5 518.9 505.4 505.8 518.8 533.6 550.2
180.8 188.4 204 221.3 235.1 255.3 277.7 299.5 321.4 345.3 364.4 378.2 401.8 425.1 453.6 480.4 510.4 539.4 561.7 581.2 604 635.1 655.4 669.9 676.6 667.2 648.5 638.1 634.5 633.5 634.5 630.5 643.5 649.7 661 686.6 717.3 749.4 780.4 813.1 841 865.2 888.2 904.3 919.1 925.7 932.4 899.5 855.9 848.1 819.2 796.4 761.6 737.2 723.8 705.4 693.7 673.6 655 634.1 610.1 584.6 554.5 520.7 493.5 471.5 453.8 438.2 426.3 407.9 400.1 408 424.1 439.1 459.7 464.5 485.6 515 546.9 583.1 617.9 643.3 661.3 678.2 694.3 712.7 728 740 741.9 703.4 670.9 643 607.9 571.4 539.1 511.4 503.7 471.1 419.1 392.5 369.8 353 364.3 381.4 385.9 406.7 442.7 477.3 515.5 561.3 611.3 650.5 683.6 709.7 729.1 748.3 769.1 788.6 799.4 811 825.7 840.6 851.1 866 883.9 911.5 939.2 973.4 1007.4 1014.6 1007 996 965.4 926.4 902.5 880.1 835.3 803.1 772.9 753.2 736.8 719.3 694.8 685.4 664.6 639 619.2 599.7 582.4 563.4 551.5 550.9 543.1 522.5 505.8 505.7 503.7 503.3 503.7 521.2 543.6 564.2 584.2 614.5 653.1 683.1 701.4 714.9 730.9 747.3 755.1 768.3 796.2 833.6 872.1 928.8 960.2 917.8 853.8 814.4 781.4 759.6 747.6 731.7 713.2 685.2 659.4 639.3 627.3 613.9 600 574.6 557.9 536.5 523.8 507.4 505.9 512.8 527.6 547.3
180.2 187.9 196.7 218.9 237.2 258.4 279.4 302.4 324 342.4 358.7 377.5 404.1 429 456 482 516.5 547.6 570.7 594.4 613.9 639.7 659.9 679.3 697.5 689.2 658.9 644.1 642.8 646.3 648.4 645.1 650.8 658.7 666.8 687.9 717.3 749.1 779.9 811.2 838.9 862.9 887.5 908 923.4 929.6 904.9 870.1 827.4 803.3 777.9 754.1 731.1 711.5 692 674.6 661.2 642.8 625.9 612.7 596.2 574.9 547.6 520.1 491.6 468.2 453.2 443.4 431.6 412.4 413.9 423.9 441.3 460.4 478.9 476.6 500.5 531.1 564.1 594.8 614 638 659.4 679.9 699.4 721.9 743.4 758.3 762.8 728.5 694.6 652.4 622.6 590.2 568 560.4 547.1 498.8 445 417.7 399.5 383.9 371.5 388.9 390.1 414.1 445.4 494.7 529.7 578.7 619.7 644.6 675.2 699.5 717.2 735.7 756.5 770.7 778 783.6 793.4 809 818.7 835.1 864.8 888.7 913.3 955.3 992.8 978.1 971.1 967.1 957.1 931.5 902.6 880.6 834 799.2 770.8 750 729.7 706.8 686.9 666.5 646.2 624.5 608.5 590.6 576 565.6 552.2 543 530 514.4 506 505.2 505.2 504 510.6 527.1 547 571.7 599.6 634.3 670.4 696.5 715.8 729.3 745.8 758.3 769 779.5 800 835.1 873.5 938.7 927.6 885.5 845.5 804.7 775.9 759 745.2 728.3 706.4 685.5 662.4 645.6 630.8 618 601.7 580.6 559.3 534.5 522.5 508.4 518.1 523.6 539.7 563.2
184.8 188.5 200.1 218.8 240.4 259.7 282.1 303.9 322.4 339.2 358.9 381.8 406.4 432.2 459.7 486.1 520.9 550.2 573.8 602.4 628.3 648.6 671.3 694.8 706.2 704 671.1 654.9 654 660.9 662.3 656.2 651.6 663.9 675.8 693.1 719.7 749.9 779.4 809.4 833.9 861.8 888.4 912.2 927.9 917.3 875.6 838.8 806.3 778.3 754 729.8 716.4 692.1 672.8 655.3 639.1 622.6 609.1 595.8 575 555.4 529.8 504.9 481.8 466.6 455.7 446.6 428 419 427.9 442.3 458.2 477.9 492.6 492.4 507.6 530.7 562.7 594.6 616.7 641.6 663.1 687 717.4 739.2 754.2 762.6 771.3 759.3 716.1 685.8 649.7 628 605.4 576.7 544.8 503.1 490.8 461.7 431.2 411.9 381.6 391.6 412.7 438.3 481.1 508.4 541.4 574.2 596.7 629.8 664.8 689.2 708.4 728.1 743.8 750.2 756.8 756.9 760.6 776.2 790.8 816.6 834.6 861.5 903.3 951.8 958.9 939 933.1 926.8 927.3 904.2 877.3 865.6 830.5 797.8 772.6 745.8 720.9 698.1 673.1 650.7 627 613 597.3 582.8 571.1 559.8 547 535.5 521.2 511.2 507.6 506.9 506.2 508.5 523.6 542.8 563.3 587.9 618.3 654.7 689.7 710.2 728.4 748.5 760.1 769 781.2 794.4 809.8 842.6 879.2 904.5 886.5 857.9 825.2 794.7 770.1 756.5 739.1 720.3 701.1 681 664.1 649.4 634.2 615.7 593.2 572.3 553.8 533.6 518.8 518 532.7 538.9 550.1 572.9
184.4 191.7 203.3 221.2 240.4 263.6 280.8 298.6 317.4 338.3 359.1 384.7 410 436.6 464.5 492.2 523.2 554.6 585.8 612.8 633 659.7 683.8 700.8 719.5 717.1 685.3 667.7 665.6 676.2 679.3 669.6 663.6 670.5 684.7 700.8 722.5 750.6 778.3 806 832.2 863.2 891.4 915.3 931.9 917.9 861.6 828.6 797.6 768.2 744.7 729.2 705.3 680.7 659.1 632.7 611.3 595.9 583.5 568.9 551.8 535.9 515.5 497.1 477.5 466.2 454.8 436.6 425.4 432.7 442.1 455.6 475.6 495.3 502.5 503.8 512.7 527.7 560.3 593.6 620.4 642.7 667 703.1 722.3 739.9 750.1 757.5 771.5 778.8 752.6 700.2 698.6 681.5 625.2 581.3 556.2 546.5 509.8 482.4 454.2 425.1 407.4 392.9 422.5 455.9 478.7 499.2 522.1 547.6 578.7 614 644.5 673.6 697.3 715.2 725.8 730.8 729.1 736.4 745.9 757.1 766.8 786.4 815.9 854.6 895.3 964.7 927.3 907.6 898.1 895.6 900.4 883.6 854.4 838.1 813.8 791.8 769.8 740.6 714.1 685.9 661.2 638.1 618 600.2 589.5 572.7 559.6 550.9 542.2 529.2 516.6 509.2 508.3 508.6 511.2 519.7 537 557.9 578.6 608.3 641.7 677.5 706.4 727 747 761.7 776.4 787 793.5 811.6 831.7 859.9 885.7 869.6 850.1 831.7 811.4 782.8 773.6 753.3 729.9 714 696.8 677.7 658.9 642.5 631.3 609.8 588 571.6 557.4 539.7 523 535.9 552.2 557.3 565.3 579.3
182.4 191.1 208.3 224.2 242.3 258.3 275.5 294 314.5 337.7 361.5 387.9 415.5 442.9 471.5 497.1 528.5 560.6 587.4 614.5 642.5 667.9 688.4 714.4 727.4 729.9 709.3 689.6 681.2 691.6 692 677.2 670.1 678.7 692.2 707.3 728.5 753.2 777.4 803.2 833.9 865.4 897.6 919.1 931.4 903 863.9 832 806.4 782.1 765.7 749.4 722.6 691.4 644.7 612.7 591.6 580.1 567 552.9 538.2 523.7 505.6 484.6 478.8 470.9 459 440.7 437.4 447 454.8 471 495.3 509.9 519.2 518.6 529.9 541.2 561.6 593.2 624.7 640.2 664.4 708.5 721.6 734.1 744.5 758.4 775 779.2 776.2 768.3 725.9 666.5 626.8 595.3 572.1 562.7 530.8 507.1 472.6 454.2 433.7 403.7 416.5 442.4 465.2 480.7 505 527.3 556.2 585 616.5 653.1 684.5 699.4 703.8 704 710.8 721.5 732.2 743 754.6 776.5 807.6 850.2 915.9 955.3 903.9 882.6 875.8 875.1 881.8 863.1 835.8 813.2 793.8 777.1 758.8 732.6 700.4 673.4 648.7 628.2 613.3 597.6 579.9 565.7 550.2 541.8 534.4 522.2 512.6 509.8 510.8 516.5 521 529.9 550.5 571.5 600.5 632 664.5 699.4 723.2 745 766.1 784.6 796.6 804.9 813.7 830.9 849.9 859.4 854 840.1 821.6 808 794.2 784.4 769.1 745.3 720.7 706.8 681.4 663 640.2 633.1 617.5 600.2 585.2 566.2 554.1 536.4 537.9 555.8 568.4 575.7 582.4 595.2
184.4 193.9 212.1 224.6 240.1 256.8 276 294.6 315.2 337.9 364.7 392.4 419 447.6 474.3 501.5 531.7 560.5 586.9 615 645.7 669.9 695 715.5 734.5 741.7 740.7 719 700.8 702.1 697.6 683.6 677.8 688.6 701.3 716.7 733.1 754.3 779.8 804.1 836.9 871 903.3 925.3 936.6 917.9 877.6 850.8 824.5 805.3 774.3 752.5 728.2 690.4 646.3 615.1 595.5 572.6 555.3 545.8 528.3 523.1 514.4 504.7 490.7 479.7 460.3 448.9 448.8 459.6 471.7 490.6 508.4 529.9 531.1 541.2 553.6 566.1 583.5 624.3 636.2 639.6 666.5 694.1 708.2 721.3 739.8 758.2 775.7 781.5 793.5 763.5 717.8 671.9 641.8 614.1 592.1 576.3 553 536.2 508.9 484.8 467.5 429.1 407 428.4 447.5 469 489.5 509.8 536.2 570 601.7 641.5 672.7 674.1 680.6 686.5 695.6 707.3 718.5 733.3 748.6 772.9 810.1 850.6 898.8 936.8 888.5 862.6 853.4 859.6 853.9 836 815.7 798.6 783.5 765.5 735.3 716.8 690.3 664.1 639.5 624.2 606.4 590.3 573.9 560.3 547.3 535.4 526.1 519 513.8 512.3 520.9 524.9 530.8 546.8 563.2 592.2 623.4 654.8 688.9 719 742 766.1 792.9 813.1 826.2 839 848.5 856.6 869.6 856.9 841.5 827.1 810.2 798.9 788.6 777.3 764.6 733.1 722.4 709.1 691.7 668.8 639.6 620.6 604.3 590.5 578 561.7 548.6 545.4 553.5 570.6 581.6 590.5 599.7 610.4
183.8 190.2 207.3 225.7 240.6 257.9 276.4 295.5 316.1 340.3 368.4 395.2 422.2 449.3 475 503.4 532.3 555.8 582.7 613.3 644.9 673.7 702 727.4 744.6 756.3 767.3 750.3 722 710.3 697.7 689 686.4 698.6 713.6 725.3 736.2 758.2 778.9 808.5 840.8 875.8 907.6 929.2 937.2 936 903.2 873.5 840.9 809.1 783.8 757.1 733 706.6 665.1 634.7 610.5 592.2 564.5 555.6 543.2 536.2 525.4 509.7 500.9 476.7 460.9 455.6 460.2 467.4 484.5 507.4 523.6 540.9 557.2 573.9 582.9 596.3 620 628.7 647.5 644.5 647.7 666 688.1 708.6 733 755.8 767.4 775.6 803.5 783 745.5 693.3 661.6 638.2 619.9 605.2 589.1 566.2 557 524.4 484.7 449.9 434 411.6 423.2 459.4 475.5 499.9 525.8 556.3 592.5 634.4 647.7 658 666.2 669.8 684.2 695 708.8 724.1 743.3 766.8 811.9 871.4 899.3 931.1 876.2 845.1 837.6 837.7 836.9 818.7 805.1 789.1 774.1 751.3 726.2 697.7 674.4 654.5 634.6 614.4 597.9 581.2 566.8 556 543.3 531.9 522.4 517.2 514.6 518.3 527.3 534.2 545.4 564.9 585.7 615 642.9 673.2 706.8 736 762.1 789.7 819.5 843.7 860.6 874.1 882.8 893.2 871.7 852.5 840 821.8 804.4 793.5 789.3 780 762.7 743.9 725.2 718.7 695.1 672.2 644.7 619.1 605.3 587.7 573.3 558.8 548.3 557.8 566.9 583.5 594.7 606 615.8 625.6
185.9 195.5 209.1 227.7 242.8 259.1 278.9 297.8 320 343.1 372.4 400.4 425.6 451.5 477.5 505.4 535.1 559.7 590 621 652.9 683.3 713.1 735.2 751 766.9 785.4 770.6 744.1 723 706.1 693.6 694.5 706.7 721.7 731.8 743.6 760.5 783.7 812.9 846 878.7 912.5 929.3 932.6 931.8 922.2 886.9 849.6 818 789.3 765.5 732.7 696.2 674.6 649.8 634.8 611.6 589.9 580 568.7 550.6 537.9 523.2 498.1 477.7 470.2 466.5 471.1 479.8 498.2 522.9 545.8 562.8 586.5 602.4 611.3 617.5 622.1 628.8 645.5 644.3 641.2 647 674.7 696.6 720 745.5 768 785.6 797.1 807.5 767.7 719.7 711.3 683.7 668.4 648.7 619.2 584.3 551.7 531.7 509.7 493.8 468.7 457 452.3 443.4 466.6 490.1 515.2 544.5 576.3 605.4 629.2 640.5 646.7 657.3 669.6 684 699.6 717.9 744.4 779.1 816.6 870.6 933.7 936.5 881 844.1 823.4 820.4 819.5 800.8 787.4 772.1 752.2 730.6 707.9 685.8 664.9 642.6 625.4 607.6 591.5 575.9 563.2 551.4 540.3 530.4 523.4 517.2 521.8 530.1 540.4 547.8 563.6 582 609.3 637.2 664.9 693 722.9 750 781.5 811 848.7 875.1 894.1 909.9 920.2 913 883.4 856.3 847.1 837.2 811.4 793 791.8 782.2 769 751.1 740.6 722.9 700.2 675.2 652.6 630.9 612.5 598.1 582.5 566.6 556.8 569 578.2 594.6 609.2 621.5 631.4 643.2
187 198.3 212.4 224.4 241.7 260.5 281.8 301.1 323.4 346.9 374.9 400.5 427.5 452.4 479.8 508 537.6 566.9 597.8 631.1 664.4 696.1 723 740.2 756.4 782.1 803 808.6 766.6 741.2 716.4 701.3 703.4 711.8 725.1 736.4 747 760.9 789 819.6 851.9 884.3 913.7 925.2 926.1 922 913.9 893.3 844 806.6 774.1 742.8 716.6 692.5 672.3 666.7 653.8 641 629.4 616.3 593.9 578.6 557.9 534.1 513.6 500.9 487.6 487.9 487.8 499.7 519.2 544.3 563.9 584.6 610.2 625.6 629.8 636.5 637.2 641.6 649 644.6 644.1 644.7 663.5 690 717.3 737.7 763.4 782 801.9 815.8 784.2 763.9 756.3 727.7 733.2 691.3 647.3 597.9 563.6 550.7 546.7 537.1 517.2 506.3 475.4 466.7 478.6 500.7 526 544.3 575.4 601.4 611.3 625.2 633 642 656.9 680.8 701.2 722 752.5 785.3 828.7 875.5 940.1 940.6 884.1 839.5 813.6 803.6 791.5 783.1 769 751 729.7 712.4 694.5 671.5 655 634.3 615.6 600 586.6 573.4 560.1 548.7 537.3 527.8 522.1 523.2 531.6 542.5 552.1 561.7 578.3 601.3 628.7 658.3 686.9 711.5 734.9 762.8 794.6 828.4 862.9 897.1 926.3 939.7 952.6 935.3 900.5 872.8 857.3 859.3 816.1 804 802.1 795.3 783.5 777.8 753.3 733 704.7 684.2 669.9 650.2 626.3 613.4 600.4 580.8 564.9 579.3 592 610.1 624 638.3 649.6 662.7
191.8 202.1 215.2 227.9 243.9 260.3 279.8 302.1 323.6 348 373.9 402.1 428.3 453.9 479.5 508.3 538.1 569.2 604.5 638.8 672.5 703.5 726.1 745.5 766.8 797 820 822.5 778 751.1 726.2 713.2 714.7 723.4 734.4 742.9 751 765.6 796.2 828 859.5 892.8 914.3 919.8 916 910 902.1 878.3 840 802.7 771.1 742.2 716.7 706.5 689 681.8 678.2 671.8 658.2 636.8 622 613.8 591 562.8 543.5 530.4 515.3 507.5 511 521.3 542.3 561.8 583.7 607.7 635.3 670.4 680.4 667.9 667.3 665.2 656.2 651.9 654.7 662.4 671 696.6 717.8 734.8 757.8 775.8 808 839.4 827.8 818.2 803 772.6 744.1 694.8 649.6 620.7 579.3 555.1 552.2 552.2 544.4 535.2 507.7 478.1 484.3 501.5 522.1 548.6 574.6 587.9 601.7 627.4 640.5 652.8 676.2 700.3 715.1 735.8 764.9 811.7 864.2 901.2 947.4 947.2 884 839.2 807.3 784 771.7 760.7 749.6 731.5 714.1 695.4 680 658.7 642.4 628 612.2 597.7 583.2 569.5 557.1 546.1 534.6 526 525.6 530.7 543.1 552.1 561.9 576.5 597.2 623.2 652.1 680.1 707.1 731.1 751.3 779.1 810.4 850.7 887.6 919.4 948.7 967.2 978.3 967.7 927.5 899.9 879.4 870.7 831.3 817.3 819.8 811.9 806.6 794.5 774.9 750 720.5 710.9 696.8 663.2 650.5 628.6 610.2 600.1 580.6 593.4 608.3 628.4 640.1 654.5 663.6 669.2
196.1 205.4 218.3 231.1 245.8 262.1 284.3 304.5 324.3 348.5 374 401.2 426.3 454.1 477.7 506 536.1 571.2 608 641.3 675.7 705.3 728.7 752.3 779.5 806.4 834.7 835.6 792.4 766.1 746.3 734.5 731.7 738.8 744.6 749.5 757.2 775.7 808.3 840.3 872.3 902.7 910.2 907.5 902.1 895.7 889.8 881.9 859.6 829.8 787.5 759.5 733.6 720.9 711.5 719.7 725.4 712.1 689.8 673.9 671.6 659.9 657.3 622.1 575.1 560.6 550.9 533.5 534 544 563.9 585.1 601.9 626.9 667.2 706.5 733.2 725.9 710 695.8 681.1 678.5 679.3 691.7 706.1 729.8 750.3 752.6 751.7 774.7 798.9 837.3 885.6 863.9 827.7 780.7 738.2 694.2 659.9 641.3 607 576.1 556.3 550.6 545.2 527.3 502.8 482.7 483.8 499.5 517.4 536.1 574.2 603.2 628.7 640.4 654.5 672.2 701.9 725.5 740.3 760.4 798 844.9 892.4 935.8 975 945.7 876.6 837.7 798.2 773.4 757.8 741.9 727.4 715.4 698.8 680.8 659.6 647.6 639.9 621.4 608.2 593.5 577.9 555.9 554.8 545 534.1 531.9 534.2 544.4 556.1 566.5 578.1 594 617.7 644.7 672.9 701.1 727.6 750.6 776.5 795.8 827.9 868.6 905.1 936 948 955.5 960 962.3 959 929.7 897.1 880.4 850.4 840.4 836.3 838.1 835.8 811.9 791.5 768.9 747.9 732.9 708.9 675.8 652.7 632.7 619.3 598.6 598.9 608.6 627.9 643.1 656.2 667.3 678 682.9
198.3 208.9 219 234.5 249.8 266.4 285.3 306.3 327.1 349.7 373.6 399.2 424.7 452.2 473.9 502 534.9 569.6 603.6 638 669.8 701.4 728.6 755 786.5 817 841 850.1 812.8 789.4 768.5 758.1 754.1 754.4 752.8 757.1 768.5 791.3 821.6 857 886.7 899.1 897.1 892.9 887.6 881.6 875.9 871.9 866.7 852.8 809.5 786.4 765.5 753 751.8 760.9 765.9 754.7 754.6 755 718.9 737.3 706.3 662.4 628.4 605.1 589.6 577 572.1 573.9 583.1 605.6 623.1 644.1 699 738.3 767.5 794.6 749 743.7 740.5 732.7 739.5 744.2 750 764 761.1 757.3 766.7 783.6 804 837.5 897.4 869.7 817 765.7 736.9 702.2 671.7 651.3 628.4 591.7 565.2 552.1 543.2 530 515.7 493.7 490 499.7 521 545.6 574.6 600.8 632.6 650.5 662.5 687 711 733.3 750.7 779.7 826 875.7 917.5 958.1 989.4 938.8 879.3 831.1 798.1 768.7 751.6 731.9 710.6 696 679.2 667.2 665.5 652.3 632.3 616.1 600.4 589.5 579.3 572.3 558.8 545.7 540.4 542.5 547.9 561.6 570.1 580.6 595.5 616.6 640.9 669.7 694.8 718.8 741.8 764 784.6 805 833.3 870.1 908.2 922 926.2 925.6 921.9 929.2 929.7 930.6 922.7 901 880.4 867.2 869.5 873.7 864.7 836.8 816.1 794.4 772 749.8 721.1 692.2 668.3 646.7 627.9 614.7 623.1 633.4 644.4 658.2 672.9 687.2 695.7 708
199.6 210.3 221.2 238.9 252.7 271 289.4 307 327.9 349.2 370.3 397.1 421.9 445.1 470.5 499.9 533.8 564.8 594 625.3 661.8 696.6 726.4 758 789.6 821.4 845.6 864.2 841.6 815.1 793.1 782.8 787.6 774.9 772.1 778.4 794.9 819.3 847.4 879.4 890.3 885.5 880.8 876.3 870.7 865.4 860.5 858.1 855.8 853.7 854.2 825.2 811.8 804 798 806.3 824.2 819.6 814.9 799 786.8 769.8 723 678.6 661.4 645.7 635.2 612.1 594.9 599.2 605.6 622.5 643.2 679.9 720.6 758.3 795.6 823.6 821.2 802.4 781.9 777.3 778.6 777.2 780.2 793 789.6 786.8 783.5 797.2 817.6 849.2 894.2 858.3 793.3 763.6 738.2 709.1 675.7 655.5 631.3 603.5 577.8 553.5 548.1 538.7 521.5 501.5 493.5 503.7 526.6 536 570.4 588.8 621.6 645 661 685.7 709.4 727.4 773.7 803.4 836.7 872.6 912 950 981.6 935.2 877.5 837.5 798.8 768.3 747.7 727.2 713.4 704.1 701 690.6 673.6 651.1 628.6 617.2 606.8 596.5 584 572.9 561.9 549.9 551.6 554 563.1 576.3 584.9 596.1 615.4 638.6 664.2 689.9 714.9 737.5 756.3 774.8 791.9 807.8 835.1 873.4 905.4 901.7 891.2 885.3 884.5 889 898.6 906.4 910.3 912.1 912.8 905.5 904.5 898.3 884 856.5 834.2 807.2 786.6 761.4 730.5 703.4 687.1 664.9 647 643.7 639.8 651.9 668.3 682.9 700.4 712.4 727.1 741.3
200.2 209.7 224 240.5 254.3 272.2 290.3 309.1 330.2 352 375.9 400.2 425.3 449.2 477.9 511.1 547.8 584.7 614.8 644 669.6 695 725.6 758.5 791.4 821.2 847.4 865.6 870.7 839.1 821 813.5 807.6 806.3 808.5 816.2 829.1 846.9 874.4 880.6 875 867.9 863.1 859 854.1 849.1 845.1 843.1 842.8 840.4 844.6 850.6 859.9 869.6 864 873.2 875.3 875.6 871.6 853.8 816.1 775.4 747.1 724.3 709.1 689.9 657.1 650.5 639.4 633.3 642.2 646.4 663.6 715 755.5 790.1 816.1 850.1 859.5 839.1 821.3 813.9 812.6 815.2 819.6 826.2 824 817.3 813.4 822.4 842.3 871.2 899.4 851.5 799.3 762.8 738.9 712.7 684.6 657.8 640.9 618.3 591.5 574.4 575.5 558.2 545.1 518 511.7 539.4 551.3 559.9 561 585.5 616.1 641.9 662.1 679.8 701.4 728.7 759.2 790.8 828.7 864.7 904.5 941.9 969.4 917.3 871.9 839.7 809 776 749.7 738.7 739.7 755.4 733.6 717.6 696.3 669.5 639.9 624.4 614.6 603.4 591.3 576.5 560.6 560.6 565.2 571.9 581.1 591.8 601.1 616.5 637.6 660.3 685.3 709.7 734.5 753 770.9 789.3 808.5 820.7 843.8 876.3 878.3 856.3 847.9 845.5 847.8 852.6 862.3 874.7 880.8 888.9 890.5 893.1 887.1 877 870 855.2 836.2 815.6 796.8 768.8 739 714.9 695.2 675.5 673.8 663.7 663.7 676.2 692.6 708.8 720.6 739 758.4 780.8
201.8 212.6 223.8 240.3 255 272.2 290.3 309.3 330.3 354.5 377.6 402 428.4 454.6 486.6 521.4 554.3 590.1 624.5 657.3 686.7 712.6 734.2 762.3 793 822.2 850.7 872.2 886.5 873.1 851.2 839.1 841.5 844.4 846 851.2 867.2 875.4 869.5 862.1 857.2 850.8 844.4 839.3 835.1 830.6 827.7 826.1 825.7 826.2 832.6 842.2 857.8 865.5 875.3 888.9 897.4 896.6 891.8 875.6 839.7 797.3 772.8 753.3 725.2 707.3 698.4 689.2 675.6 671.7 671.7 674.7 699.4 738 783.4 811.6 844.1 876.1 894.9 869 854 848 849 847.7 843.9 842 845.2 852.5 850.7 855 875.7 903.7 883.8 840.7 813.4 793.7 774.6 730.8 698.1 672.4 641.4 625.7 616.7 607.6 602.5 603.2 569.4 557.3 555.4 562.6 572.1 581.4 589.6 591.2 593.5 633.7 656.3 666.4 683.3 712.3 747.5 782.9 823 865.4 902.6 941.9 953 899.7 872.7 841.3 815.6 779.4 764.6 780.2 798.5 791 787.5 764.5 736.7 706.8 665.1 639.1 624.8 608.7 593.2 570.8 576.1 575.4 582.7 589.3 597.7 610 623.5 639.5 662.1 684.2 708.2 731.2 752.3 771.4 787.5 805.4 818.1 833.1 854.7 863.4 843.8 824.7 809 803.5 804.2 811.4 819.8 833.4 842.4 848.6 854.1 855.4 850.1 843.6 842.7 846.3 841.9 828.1 797.1 777.1 744 721.3 696.8 697.6 686 682.4 689.3 701.3 712.6 733.9 755.5 775.3 792.4 810.9
205.7 213.1 224.5 238.9 253.9 272.2 290.9 309.1 329.6 355.3 379.5 404.8 431.8 459.5 493.2 529.3 564 596 630 663.5 696.7 724.7 752.7 778.8 804.9 831.3 859.2 879.7 893.8 904.5 882.9 873.3 877.4 880.8 884 876.4 865.7 857.8 849.8 843.1 838.5 831 823.7 820.2 815.3 810.2 807.2 806.2 808.4 814 820.2 832.7 843.5 858.9 872.8 885 893.9 894.3 893.6 886.7 843.1 807.5 778.8 752.1 742.8 733.6 729.7 717 710.7 704.8 696 710.4 743 770.2 797.8 834.4 865.6 894.2 898.7 883.9 868.5 855 843.1 832.3 825.9 824 827.3 837.9 853.2 864.5 879.3 891.3 898.6 864 841.7 836.3 819 806.3 725.7 685.6 653.7 640.6 634.5 634.3 644.3 632 615.2 591.7 579.4 580.8 588.4 602.1 624 635.7 624 634.7 649.1 657.4 674.5 710.5 741.4 778.1 819.4 859 902.3 940.5 929.5 895.7 873.3 845.6 808.7 796.3 804.2 823.8 831.2 830.5 818.3 790.3 762.5 728.1 699.7 655 633.1 617 599 589.1 587.4 591.7 599.6 608.2 617.1 632.3 648 665.7 687.7 708.9 731.7 752 774.6 791 808.6 819.5 838.6 861.3 870.3 838.2 814 792 775.3 768.4 768.3 770.6 779.4 796.2 798.8 804.6 808.5 807.2 810 808.1 809.6 821.2 825.4 828.8 808.3 775.4 743.4 723.9 713.2 706.2 706.8 709.9 713.8 723.5 738.9 762.2 784.5 805.1 823.6 836.8
209.9 216 224.1 238 254.2 273 290.6 309.9 332 355.7 380.7 407 434 465.7 501.5 538.5 571.1 604.5 638 671.8 703.3 734.3 765.2 794.5 821.7 845.8 867.6 884.6 899.7 907.2 908 902.6 888.2 877.2 871.8 859 849.8 842.6 833 824.7 817.9 809 803.4 798.6 793.6 788 787.7 786.1 787.6 796 808.4 821.2 837.3 852.5 867.8 877.4 884 888.7 890.4 889.9 856.7 814.1 787.1 774.7 769.5 761 752.7 742.6 731.4 722.6 719.6 737.8 770.8 800.4 820.8 859.7 889.5 907.3 892.1 873.4 856.7 839.9 824 812.4 804.2 801.9 806.1 817.7 831.8 846 861.5 876.9 896.2 896.6 875 871.4 872 857.4 811.1 704.9 678.1 660.2 652.9 662.1 659.1 654.4 652.5 633.5 623.1 624.2 631.2 639.9 647.8 652 651.8 645.4 644.7 654.2 678.9 710.5 735.8 774.1 816.1 862.2 902.6 937.9 930.1 905 872.3 846.7 840.9 847.5 841.7 850.8 855.8 836.4 812.8 785.9 766.2 738.9 701.8 668.8 642.5 622.1 606.7 601.4 605.1 614.3 619.2 626 637.2 653.9 672.4 693.3 715.5 731.9 750.9 769 794.4 809.6 823.9 847.7 871 890.5 854.1 819.5 791.2 767.6 747.5 737.6 735.1 737.1 747.1 757.4 759.4 756.6 762.9 763 767.9 773.6 781.2 794.2 796.8 795.2 801.3 790.2 760.7 744.4 733.4 729.2 729.8 732.7 735 748.3 767.5 788.8 813.7 837.7 859.9 868
213.5 223 229.8 240.7 255.1 272.5 290.7 310.8 333.3 357.8 381.8 409.8 437.4 469.3 504.2 540 576.6 612.8 645.6 678 711.8 744.6 775.9 808.2 837.5 858.6 874.9 885.6 897.7 901.1 899.5 886.1 870.3 856.1 846.6 838.5 830.9 822.7 813 803.3 795.7 788.2 782 777.7 768.3 764.5 764 765.1 768.8 779.6 795 815.5 834.2 847.5 862.3 873.1 880.6 886.7 891.9 892.6 861.3 827.1 806.5 794.7 780.1 759.9 742.8 735.3 730.7 735.7 745.3 764.1 808.6 832.9 858.8 880.2 908.2 900.2 882.6 863.4 844.2 824.4 805.5 790.9 781.4 779.9 784.4 796.4 813.2 827.8 846.6 868.7 893.5 918.3 914.9 910.9 917.9 885.8 799.5 726.2 701.4 684.6 676.5 680.7 685.5 686.5 686.6 703.2 679.8 664.8 663.4 677.9 671.4 659.1 662.7 657.9 650.4 660.5 694.4 704.6 735.2 773.7 817.6 860.6 895.6 912.6 929.4 926.6 892.8 877 874.7 872.7 869.4 877 857 826.4 797.1 779.8 758.4 740.3 714.6 678.2 649.5 627.6 626.4 621.4 623.4 632.4 639.9 645.6 658.5 675.7 697.5 719.4 742.3 756.5 768.8 795.1 809.5 827.8 850 879 904.1 887.4 842 807.4 776.4 748.6 727.4 717.8 710.2 708.8 717.2 720.5 719.4 724.6 725 725.2 733.4 737.2 746.1 757.5 762.6 761.9 770.1 788.9 780.5 770.1 759.1 753.3 748 748.1 754.6 771.2 789.7 813.2 839.9 868 890.7 897.5
215 224.2 232.2 243.8 257.6 273.3 289.7 310.7 334.4 359 387.3 411.3 437.5 469.2 504.6 540.8 577.2 610.8 644.6 679.9 715.6 749 784.4 817 842.5 861.7 870.6 878.8 886.4 888.8 882.6 869.8 849.6 834.7 821.5 812.2 806.2 799.2 791.2 783.5 773.6 764.8 759.4 752 743.2 741.8 743.7 745.2 749.6 774.8 797.1 818.2 835.8 851.1 864.1 875 883.7 890.7 896.8 900.7 890.4 859.3 837.4 814.2 791 765.5 750.9 743.8 744.9 761.9 776.5 815.6 854.8 869 897.9 911.8 902.5 886.8 871.6 851.3 828.9 808.8 787.7 768.4 759.1 759.9 766.6 778.6 793.7 810.6 835.8 864.2 894.2 923.3 949.8 947.3 895.5 871.5 793.7 752.2 728.4 706 698.2 704.3 710.7 724.4 743.4 756.8 746.2 713.7 715.8 706.9 694.8 667.2 663.4 665.4 664.5 679.9 688.8 710.5 739.9 772.6 817.7 855.2 878.7 906 920.3 928.8 929 931.7 907.2 894.4 893.6 886.6 856.3 833.5 803.1 784.7 753.1 734.5 712.1 683.2 656.5 647.8 637.6 639.8 644.6 653.7 658.2 666.5 679.5 698.7 724.5 743 761.4 773.1 787.1 816 838.2 855.6 880.6 891.3 881 870.2 831.8 795.8 765.2 738.6 712 700.5 692.7 692.1 686.8 683.3 684.7 686.8 686.1 689.4 691.6 699.8 712.6 730.4 735.2 744.8 750.8 769.2 780.5 786.7 786.9 776.7 771.4 771 782.9 798.6 816.6 837.8 862.3 886.8 908.3 921.9
216.4 222.9 230.6 242.8 257.4 271.6 288.7 310.3 334.8 361.1 384.3 409.5 436.7 468.4 501 536.7 570.3 605.2 639.5 676.8 712.8 746.9 784.3 815.6 836 848.3 858.3 866.5 868.6 866.3 865.1 852.8 831.1 812.3 797.8 786.9 778.6 773.2 765.6 760.8 752.7 743.5 735.1 727.7 720 721.3 724 727.3 755.1 779 801.5 821.3 839.6 854.3 867 877.8 886.9 893.7 901.8 908.7 909.6 880.1 851.7 824.1 799.3 784.1 773.1 765 776.5 797 812.2 848.9 891.4 912.8 909.7 897.4 882.3 867.5 852.6 835.2 813.4 789.5 768.8 750.6 739 741.1 749.3 758.8 783.3 808.5 837.1 866.7 898.8 929.9 959 939.7 886.5 868.7 810.1 775 750.2 721.2 709.8 719.4 739.6 759.7 768.7 782.6 787.5 770.4 741.6 730.6 699.1 680.2 678.9 682.7 684 688.1 707.6 723.1 747.9 776.1 813.4 842.2 865.6 894 918 945.9 970.1 972.2 947.5 927 911.5 885.4 864.8 836.7 810 785.8 750.9 736.2 714.6 690.5 673.7 661.4 658.7 660.4 667.9 673.7 680.6 690.2 703.1 721.9 744.1 760.1 773.9 782.2 799.8 834 850.1 868.4 874.4 855.9 843.2 832.9 821.8 785.9 751.9 718 705.2 688.9 676 671.8 659.8 651.9 652.4 653.3 654.2 661.4 658.7 667.5 681.1 691.5 701.7 706.6 724.8 742.4 760.3 771.6 787.9 790.7 795.1 799.6 810.6 823.6 842 865.8 893.3 913.5 925.4 938.2
215.6 222 230.5 241.9 256 271.2 290.5 311.8 333.8 357.6 380.8 406.2 434.2 463.4 495.6 532.9 564.7 600 638.5 677.9 711.3 744.7 778.3 801.1 821 829.9 830.7 842.9 846.3 849.5 849.7 832.3 807.8 787.6 774.2 764.1 756 750.3 744.5 736.7 732.5 723.1 711.6 701.9 698.4 698.7 713.3 735.7 759.3 784.5 809 826.3 844.4 858.7 871.3 881.8 890.7 898.4 906.1 912.4 911.9 904.9 875.3 852.7 830.5 819.8 814.1 819.1 816 831.2 862.2 874.8 892.3 885.7 879.9 868.7 855 839.9 826.5 812.5 793 772.8 752.2 734.5 720.9 724.9 732.1 754 781.2 807.8 838.7 870.8 903.9 936.8 963.8 968.5 951.6 868.8 823.8 792.6 766.7 741.2 720.1 730.5 747.9 763.8 770.3 799.9 815.1 792 768.3 740.1 724.9 709.6 698.3 692.2 697.8 711.1 719.7 738.5 755.5 772.4 803.3 817.9 844.6 878 932.8 963.6 980.4 992.8 995.2 952.5 916.2 888.2 871 844.1 816 780.1 755.5 739.4 723.4 704 689.1 685.5 679.4 687 692.1 697.6 704.3 715.2 728.3 747.6 763.1 776.7 789.1 799.7 824 845.7 850.5 839.1 817.7 803.7 797.4 792.5 791.5 779.3 741.2 708.7 687.7 673 660.5 650.4 636.7 630.4 626.7 630 627.5 626.5 628.5 633.8 646.6 659.2 666.5 676.5 696.9 714.9 733.4 744.7 760.7 789.1 808.3 819.1 833.4 847.5 863.2 893.3 922.8 944.8 958.5 953
214.9 222.6 231.5 242.2 255.6 268.7 288 309.2 331.7 352.8 377.2 401 428.6 459.1 490.1 525.3 560.4 597.4 636.3 675.1 705.4 735 757.9 780.7 795.6 800 806.9 820.8 828.3 828.3 825.8 808.4 783.2 761.5 748.4 741.2 734.7 728.5 722 715.7 711.5 700.6 688.8 677.7 674.7 689.8 716.1 740.5 766.1 792.4 815.5 835.6 850.1 864.2 877.6 888.8 898.7 904.4 907.2 909.5 912.9 916.8 918.1 897.1 862.5 854.7 853.6 848.8 851.8 869.1 879 869.2 860.8 852.9 846 836.4 823.2 809.9 798 784.2 768.9 751.7 734.1 718.9 704.7 709.6 726.7 750.2 778.2 809.9 841.9 875.6 909.2 941.5 974 998.9 939.4 902.3 848.6 815.3 804.6 780.6 752.6 745.4 755.9 776.4 798.7 817.4 803.9 784.1 770 757.7 747.7 729.7 717.6 718.5 725.1 729.2 740.4 747.7 760.2 782.8 788.7 801.4 828.8 892.5 949.2 972.9 982.3 991 993.5 952 916.4 889.4 872.2 854 821.3 786.7 760.4 747.3 734.4 719.1 713.9 706.7 704.9 713.6 718 720.9 728.7 738 753.4 768.7 786.2 796.8 808 820.9 830 825.6 809.2 790.4 772.9 761.8 756.1 753.7 755.8 754.4 735.1 705 676.5 656.3 647.4 627.6 616.1 609.3 608 603.8 603.3 605.1 601 608.2 616.1 625.4 638.3 660.6 670.1 689.6 706.3 726.2 747.4 774.4 802.2 823.5 847.1 854.3 865.2 891.7 914.9 943.4 963.1 982.2
213.6 222.2 231.8 242.6 254.3 267.4 283.9 304.9 326.5 348.4 372.4 398.3 424.3 455 485 519.3 554.8 590.9 628.2 664.8 694.5 715 733.4 751.3 761.2 769.6 787.4 802.5 804.5 808 805.1 788.6 762.2 740.6 726.3 718.5 713.1 707 702.4 698.1 689.1 679 666.4 653 664.3 691.6 717.6 746.1 774.9 802.4 825.2 842.3 856.4 869.8 882.1 892.3 896.6 900.1 900.4 902.6 907.1 911.2 912.8 909.7 905 896 890.3 887.9 875.5 863.2 852 840.7 830.5 818.9 811.8 801.4 789.5 776.9 763.3 752.8 741.8 728.4 711.7 697.7 685.8 700.1 721.8 748 778 810.4 845.4 879.7 914.1 948.1 980.7 990.9 944 958.9 922.4 869.6 845.2 809 797.6 797.5 797 814.3 822.8 802.4 784.2 767.6 765.5 768.1 765 755.2 748 742 742 747.4 748.9 753.2 767.9 772.3 785.3 808.5 840.1 881.8 953.4 971.1 977.7 982.5 985.5 966.5 925.8 893.6 874.1 856.5 832.9 802.3 772 757.6 749.5 737.7 737.5 733.4 733.1 740.6 741.7 745.2 750.9 769.3 782.3 791.9 800.8 812.6 825.5 834.3 822.3 801.7 784.3 759.8 739.3 726.3 720.1 718.6 721.5 723.8 721.7 699.5 662.8 639.2 627.6 613.3 599.5 592.5 590.4 582.5 580.5 581.3 576.8 584.7 590 600.1 614.1 630.4 651.8 674.4 689.7 706.2 725.3 747.1 771.2 786 813.4 814.3 836.8 869.7 889.8 916.3 938.4 964.9
213.5 220.7 230.9 243.3 253.9 268.7 284.5 302.3 323.2 345.4 368.7 394 420.2 448.1 478.8 513.9 551 588.3 624.3 658.4 679 686.5 706.2 720.1 730.1 749.8 766.9 776.4 787.3 792.3 788.7 775.6 746.6 723.7 709.1 701 695.4 690.2 683.7 679.4 672.6 658.2 643.9 641 660.6 687.7 719.1 750.4 779.7 808.9 830.6 848.5 862 874.1 883 888.4 890.4 890.7 890.4 893.1 895.4 899.7 900.1 895.8 892.2 888.9 882.3 864.5 846.9 829.4 819.9 806.7 795.5 783.2 775.5 767.9 752.7 741.1 727.7 719.2 709.3 699 687.9 677.4 671.4 694.3 719.1 745.7 775.9 809.5 844.7 879.5 915.4 949.6 973.9 965.6 953.6 931.1 914.7 892.6 873.8 859.6 836 827.2 823.5 816.7 794.1 776.3 760.9 757.2 758 765.7 768.9 765.4 766.5 769 776.3 774.2 768.5 763.2 759.8 777.9 800 819 848.3 887 944 964.2 969.6 968 961 954.3 945.6 916.3 895.7 873.4 848.7 820.8 790.5 775.5 764.3 762.4 758 758.4 761.4 764.6 765.2 770.9 782.3 795.7 809.1 818.9 832.1 835.7 836.1 851 826.1 784.1 761.3 737 715.3 699.2 694.8 688.8 690.4 703.5 699.9 676.9 648.7 627 611.9 594.9 578.2 566.8 561.8 559 560.8 557.1 556.7 560.2 565.6 581.2 594.9 612.1 630 641.5 656.8 676.4 701.4 720.3 734.9 747.7 767.2 779.6 803.8 835.2 857.6 883.8 909.1 937.4
212.7 220.5 231 242.1 253.8 266.7 284 301.7 321.2 343 366.2 388 413.2 443.2 474.4 508.8 543.7 579.9 618.3 650.1 651.5 663.6 677.2 690.8 711.6 729.1 739.7 755.2 769.7 775.7 776 765.7 738 713.7 699.5 691.7 684 678.1 673.5 666.7 659.9 649.5 628.3 632.8 652.8 682.9 714 746.5 779.1 810.3 835.1 852.7 864.6 872 875.7 877.1 876.8 874.4 874.8 875.4 878.9 880.2 876.6 870.8 866.4 861.7 852.5 835.6 814.3 794.1 783 772.2 761.6 748 738.3 727.8 716.4 705.9 694.6 685.5 678.8 671.5 662.4 654.7 664.6 688.3 713.1 740.4 771.3 805.6 842.1 878.3 913.3 941.1 919.8 923.3 916.4 899.1 877.8 863.5 847.7 828.6 812.9 800.6 796 782.8 767.5 752.8 744.9 746.5 748.9 756 753.1 763.1 767.4 773.2 773.9 779.6 784.1 775.5 778.1 796.4 814.6 837.8 867.9 909.5 943.4 953 957.8 933.4 920.2 913.7 912.2 915.4 915.7 896.6 865.7 835.5 813.5 798.4 785.3 780.9 778.4 782.4 788.1 789.6 795.6 803.7 812.3 827.4 845.5 865.2 868.2 869 870.5 879.3 837.1 781.7 747.6 717.1 694.7 678.3 672.5 671 682.3 684.2 667.8 653.1 636 616.1 597 580.9 562.4 544.3 537.6 536.1 540.6 535.2 534.5 535 545.5 562.4 579.1 590.7 597.8 610.7 620.6 641 659.6 674.5 695.5 714.4 737.1 759.3 767.2 792.7 822 844.1 882 909
211.4 221.6 230.3 242.5 249.8 265.4 281.9 300.3 321.1 343.4 365.5 385.8 409.3 436.3 470.4 508.5 545 582.9 618.1 623.5 622.8 640.6 656.5 675.8 690.1 703.7 723.8 741.8 756.9 764.7 762.7 756.7 736.8 711.7 699 688 677.3 668.8 661.3 652.8 644.7 633.9 614.2 616.3 639.7 670.8 704.9 738.3 768.9 798.9 827.3 845.1 853.1 854.2 857.8 857.3 854.2 851.5 849.3 850.3 852.2 852 847.2 839.2 833.5 826.1 821.8 800.4 780.1 761.3 748.2 738.6 728.6 712.6 703.7 693.7 681.1 670.3 660 652 648.7 645.8 639.2 633.9 657.9 682.5 708.6 737.3 769.1 802.9 839.7 875.3 904.6 891 877.8 863.9 861 862.9 847 830.1 812.8 795.9 780 769.8 760.9 754.6 741.4 734.2 734.8 738 742.7 738.7 736.6 742.9 742.3 745.1 748 754.1 779.4 804 810 835.3 852.1 878.2 913.8 931.1 942.4 948.7 926.3 901.5 886.4 881.5 880.1 883.7 891.9 897.5 883 857.8 842.7 824.7 809.5 803 801.5 807.5 806.3 817.7 820.8 829.3 844.3 862.3 885.4 895.5 900.7 900.4 896.4 871.7 835.2 791.4 741.8 702.1 681.4 666.6 657.9 666.2 673.2 665.6 657.6 640.7 620.6 594.3 583.4 567.2 549.3 529.2 517.9 516.2 515.6 513.1 511.8 517.6 533.2 552 564.7 577.3 585.2 592.5 597.3 608.6 621.5 642.8 658.8 685.4 706.5 727.5 741.2 769.8 786.1 817.1 846.1 872.6
212.2 221.6 229.8 241.7 251.7 264.1 280.7 298.2 317.5 339.1 360.1 381.6 404.8 435 471.3 509.9 548.2 582.5 596.7 590.4 595 626.2 644.8 665.5 679.3 696.6 714.5 733 742.9 750.5 754.1 749.3 735.3 709.5 691.7 679.6 667.9 655 646 637.4 629.6 617.7 598.5 600 626.4 657.5 688.7 719.9 748.8 781.1 809.8 819.2 821.4 819.6 821.8 824.8 821.1 817.8 816.9 817.3 819.6 819.4 813.7 805.1 795.6 786.9 784.4 762.2 746.6 725.5 710.2 701.5 692.7 676.9 668.5 659.4 647.7 637.4 628 621.5 621.9 619.1 609.9 630.9 651.5 676.6 705.7 736.9 769.2 803.2 839 873.3 865.4 844.8 838.1 810 805.3 819.7 813.8 794 774.6 763.8 752.5 741.4 735.4 729.5 719.7 721.5 722.7 725 721.1 718.1 710.6 714.6 711.2 714.9 722.4 746.2 779.8 811.8 830.9 848.5 870.1 893 910.1 925.6 936.2 941.5 904.2 875.5 861.6 860.2 859.7 861.2 866.8 876.1 880.2 882.7 873.6 852.9 843.6 836.3 826.9 824.8 831.2 839.3 847 859.4 875.2 893.8 910.8 928.6 938.5 936.6 905.2 861.3 817.1 784.9 742.2 707.4 681.1 661.6 655.7 665.3 664.3 660.2 648.4 620.1 598.1 571.1 558.3 549.9 536.3 522.9 508.5 496.1 495.1 495.5 491.2 512.3 535.9 548 560.2 570.9 576.8 579.5 584.9 591 598.2 614.4 632.5 662.9 686.4 707.3 723.8 741.5 758.9 785.5 817.2 852.5
212 221.2 228.9 241.7 249.7 265.8 281.4 298.3 315.8 336.9 356.3 376.9 402 433.2 470.3 506.5 541.1 561.6 567.2 553.8 596.2 621.7 643.2 660.4 676.2 688.9 710 725.2 736.5 744.3 745.5 753.4 733.1 699.1 677.1 667.6 654.8 639.1 627.4 622.6 613.1 599.3 581.7 584.7 612.1 640 668.5 699.8 732.1 757.2 778.9 784.2 781.7 777.7 784.8 788.5 784.5 783.2 782.1 780.6 783.3 784.1 779.8 769 758.5 745.8 739.1 729.7 710.5 691.9 679.6 669 655.6 644.6 634.6 624.8 614.8 606.3 598.9 593.6 596.7 592.6 596.7 621.5 649.3 678.1 709.3 740.2 772.6 805.9 838.8 840.8 816 802.4 783.4 771.4 764.5 745.8 768.7 757.6 735 729.3 725 715.9 709.5 707.7 708.2 704.3 706.5 705.7 701.5 691.8 678.6 684 684.1 687.2 709.6 744.3 783.3 811.7 830.2 846.4 870 887.4 903.4 918.5 928.1 935.5 889.5 860 841.9 843.4 841 844.5 850.4 859.9 861.2 866.7 875 884.8 888.9 868.8 853.4 846.2 849 863.6 880.8 895.3 916.3 927.7 947.1 964.3 979.5 975.3 934.6 891.8 838.8 780.9 744.8 713.4 687.4 664 657.7 650 634.7 643.1 629.8 601.8 571.8 551.2 536.1 523.7 520.6 508.7 494.8 479.1 476.1 479.2 485.3 502.7 519.3 537.6 556.7 564.9 569.9 574.9 583.5 598 606.4 617 629.4 644.2 668.6 690.8 706.3 727.3 747.8 774.2 805.7 836.7
212.1 220.5 228 238.2 248.4 263.9 279.4 295 313.1 331.4 352 374.8 398.5 428.5 461.4 498.9 523.4 529 526.3 555.4 587.2 609.5 637.1 657.8 677.3 694.9 711.7 722.8 731.7 737.3 753.5 750 725.4 690.3 672.2 657 641.7 625.5 614.5 610.6 601.2 587.6 568.5 570.8 593.9 618.4 649.2 682.2 711 731.7 745.7 748.2 742.9 743.7 752 751 748 746 744.1 743.4 748.4 744.9 739.5 736.3 722.4 708.2 700 697.6 672.9 660.4 643.6 633.8 622.5 612.7 603.5 593.5 584.1 575.6 570.9 566.5 570.8 570.7 597.3 624.2 652.6 681.4 712.9 745 774.6 803.5 808.7 784.6 776.2 760.4 745.1 739 731.7 716.3 701.8 706.7 705.5 703.4 702.9 695.7 688.4 685.7 682.4 684.3 687 683.2 673.6 661.5 651 652 656 670.2 696.3 730.5 775.7 807.4 827.4 846.4 865.7 883.5 894.9 907 920.3 931.3 884.7 851.9 830.3 829.2 831.4 835.3 838.1 849.7 852.9 854.8 858.7 866.7 876.1 893.2 891.4 881.2 883.5 896.1 919.6 943.5 948.7 961.3 980.5 995 1010.8 994.2 955.3 903 864 813.8 751.4 722 694.1 665.7 647.8 612.5 604.7 605.9 595.8 583 554.6 534.2 518.3 503.8 504.4 490.9 474.9 464 458.5 463.2 470.8 487.3 502.7 527.2 542.7 555.5 561.9 570.5 581.5 599 608.2 620.7 631 647.4 661.3 679.7 701.4 719.2 737.7 760.9 794.7 825.8
