ncols 200
nrows 82
xllcorner 220000
yllcorner 860500
cellsize 50
257.7 257.2 260.3 260 258.1 257.5 255.8 253.3 261 255.6 256.4 255.9 255 251 250.7 251.5 255 257.1 258.8 261.6 264.4 266.9 270.8 269.9 270.5 271.5 275.5 276 276.2 275.2 276.2 275 275 274.9 275.3 275.2 273.4 272.7 272.9 272.4 275.1 275 273.8 272.1 273 273.9 276.2 273 271.4 269.8 268.5 269.3 269 269.3 269.9 270.2 270.1 269.7 268.4 266.8 268.5 268.6 265.9 269.2 269.3 264.7 267.1 267.3 266.2 266.6 266.1 263.2 259.8 256.4 256.3 254.7 254.9 250.7 250.7 250.7 250.7 250.7 250.7 252.9 257.5 259.7 261 261.6 266.4 268.9 269.8 273.4 277.7 281.2 286.5 288.8 292.4 299.6 304.7 311.6 316.6 320.7 329.3 332.1 335.7 337.9 337.6 340.6 343.1 348.6 353 359.2 363.6 369.4 378 385.4 390.6 398.9 412.6 414 399.2 383.7 366.6 349.7 335.1 327.7 320.6 321 324.2 329.1 333.1 339.1 345 349.1 352.8 357 357.4 355.6 355.4 358 360.5 362.9 356.4 357.6 360 360.1 358.5 358.3 364.3 374.6 386.1 397 407.5 419.3 429.5 440.7 454.4 468.2 482.2 494.7 502 503.2 454.7 415.7 373.6 345.7 311.1 276.2 252.6 241.1 233.6 228.8 215 207.4 201.4 198.8 198.7 198.4 199.1 200.9 202 202.2 202.9 209.5 213 216.8 220.5 221.2 224.8 227.5 230.8 235 243.3 248.1 249.1 254.3 256.8 261.6 268.9 273.4
259.7 260.1 260.7 260.5 259.5 259.4 255.4 257.1 260.2 259.4 259.1 259.1 258.5 257.8 253.5 256.5 259 263.4 265.4 268.4 272 275.4 277.2 274.8 277.2 278.2 281.4 281 281.6 281.8 282.9 278.5 278.1 278.8 280.2 279.8 278.7 277.4 278.5 278.4 278.5 280.9 280.7 279.8 278.8 278.9 280.9 281.9 279.7 279.8 279.9 281.6 279.1 280.2 280.5 279.3 279.2 276.7 276.5 278.2 278 277 278.8 279.7 279.1 277.9 277.6 279.4 277.8 277.4 276.8 275.7 270.9 268 269.8 272.7 272.3 267.7 265.1 262.2 263.5 265.4 269.9 271.8 274.6 275.9 278 281 284.7 287.7 292 294.5 299.2 303.4 309.3 312 316.2 319.4 323.2 333.5 337.3 345 354.6 360.6 362.5 359.8 359.3 361.7 363.8 367.9 371.5 376.3 380.4 385.1 397.7 405.2 410.6 416.7 427.8 421.6 403.7 386 369.2 353.1 344 333.1 331.3 332.6 336.1 338.4 342.4 351.2 355.9 358.9 363.2 365.5 366.8 367.1 366 367.3 367.7 367.9 361.3 360.9 361.7 361.3 359.5 358.5 362.5 372.9 382.9 393.1 404 417 429.3 441.2 454.1 462.9 478.8 493.6 497.3 484 444.7 399.5 368.3 341.6 311 278.3 258.5 245.3 237.9 230.2 218.6 209.7 202.2 199.2 196.4 194.5 196.7 198.1 197.2 195.5 201.5 204.4 205.9 207.7 211.6 212.4 217.6 220.6 223.4 229.2 238.2 242.6 243.9 250.1 255.3 258.2 264.3 265.2
263.1 261.5 261.4 261.4 259.8 258.2 256.9 259.7 260.5 258.8 260.8 260.8 259.4 260.1 260.2 260.7 261.9 266.9 271.4 275.2 276.5 279.6 280 281.4 281.7 284.1 286.5 287.2 286.2 288.7 287.5 287 283.1 286.3 285.6 285.6 284.1 284 285.6 285.3 285.1 287 286.6 284.8 286 288.1 287.1 287.6 287.2 288.4 291.6 290.5 287.8 288.5 288.6 288.4 289 287.7 286.9 288.4 289.3 288.5 290.4 291.8 291.5 292.5 293.8 296.6 297.4 296.5 294.4 292.9 286.9 285.1 288.6 292.6 291.8 287.7 283.8 280.7 282.8 286.5 291.7 293.5 296.6 298.3 299.9 301.7 306.5 309.3 313 316.1 323.9 328.5 336.7 339.7 341.2 342.9 348.2 352.5 358.6 368.8 374.5 380.9 385.5 385.3 381.9 383.6 390.6 391.9 391.2 398.7 404 405.1 415 423.4 431 433.4 436.3 423.6 404.3 387.6 373.4 359.4 351.6 345.9 347.1 350.1 349.6 352.6 356 360.6 363.1 366.5 370 372 374.5 374.5 376.2 376 378.4 375.4 367.4 364.5 361.6 360.5 359.2 359.5 363.1 370.5 380.1 390.5 401.2 413.8 427.3 438.1 448.6 459.6 473.1 486 483.9 459.4 417.9 378.8 353.3 334.8 309.2 280.5 266.1 247.5 236.2 226.3 216 208.5 202.5 198.7 196.6 194.9 193.1 193.6 189.4 187.7 192.7 197.5 201.5 201.3 203.5 206.2 209.1 212.8 219.2 219.2 222.1 234 237.9 243.6 245.5 247.7 252.6 258.8
264.2 263.2 261.8 259.2 258.5 258.5 259.5 260.9 260.2 260.8 262.1 264 263 262.1 262.3 265 266 272.6 277.7 278.4 279.3 283.5 285.6 288 289.9 291.4 292.1 293.2 293 293.6 292.5 291.6 290.8 289.6 291.9 290.4 288.4 290.6 294.8 291.5 289.7 290.3 290.7 290.4 291.9 292.4 292.6 294.5 294.3 297.6 297.6 296.2 296.1 296.3 297.5 298.8 298.6 298.5 298 298.7 299.7 298.6 300.5 301.1 303.8 306.1 309.3 312.8 315.5 314.4 311.7 308.3 301.7 299.8 300.7 306.1 307.1 303.4 299 299.7 300.4 305.5 311.7 314.9 318.8 319.6 323.1 327 332.6 334.6 338.9 339.5 344.6 351.7 359.5 363 364.8 365.1 371.7 376.6 388 394.3 402.9 408 414.9 414.6 409 405.8 417.2 415.8 417.3 420.8 424.9 427.5 435 444.7 451.5 452.1 456.2 434.3 409 390.1 376.5 367.5 358.2 359.6 360.5 362.3 361.6 369.5 370.4 372.3 374.5 378.9 380.6 381.8 383.5 387.5 390.7 388.8 388.2 388.8 380.1 369.9 362 361.1 363.2 364.6 365.6 370.1 377.6 386.8 397.2 410.4 424.3 436.3 446.7 457.2 468.2 478.4 465.7 442 408.1 370.1 342.9 321.2 300.9 278.6 260.6 248.2 240.5 230.8 222.2 213.7 206.4 201.1 198.9 193.4 190.9 189.8 188.8 185.8 182.7 184.4 193.7 194.3 197.4 200.7 205.3 207.8 211.4 213.4 220.5 224.5 232.6 240.5 244.9 250.9 252.7 257.9
265.3 264.1 261.5 259.7 260.3 257.5 260.1 261.2 261.5 261.9 264.5 264.5 264 264 264.8 266.4 270.6 277.9 284.2 284.2 285.8 289.3 289.9 292.8 296 295.5 296.4 298 299 299.4 300.4 299.8 297.9 297.4 297.4 295.3 295.3 297.3 298.2 296 297 294.8 298.4 296.9 295.8 297.7 298.8 299.1 304.2 303.8 301.7 303 301.1 302.6 305.8 305.1 307.3 307.9 309.3 309.8 309.8 308.9 311 311.1 314.8 317.5 320.9 325 328.9 330.7 328.3 321.7 314.8 313.6 314.3 320.2 320.9 317.8 314.9 318.2 320.3 324 331.6 336.7 339.6 343.7 347.5 356.3 359.8 362.2 364.5 366.4 371.8 378 385.1 387.2 388.5 389.3 395.8 406.5 415.6 420.4 428 432.1 437.7 440.6 437.2 429.3 440.9 443 440.4 445.4 448.1 452.2 461 466.3 470.8 469.6 466.9 443.7 415.4 391.9 379.1 373 370.9 371.4 373.6 374.3 375.8 380.7 382.6 387.4 390.1 392.8 396.2 395.5 393.2 394.8 398 396.6 397.9 399.8 387.6 379.6 371.2 366.4 365.6 366.4 365.9 370.6 377.1 382.5 395.1 406.7 420.2 430 443.1 456 466.3 475.4 462.3 437.7 398.4 362.2 333.5 312.6 293.3 276.3 260.1 249.5 243.3 236.2 227.6 216.6 207.5 201.6 197.9 196.8 191.3 184.6 183.8 183 182.1 181.7 190.2 193.8 196.6 197 199.3 202.7 204 208.2 215.1 219.1 231.9 239 244.1 245.3 247.9 251.4
266.9 264.8 261.2 261.4 261.8 260.5 260 261.5 263.6 268.3 266.3 266.2 267.3 268.6 269.4 271.3 275.5 283.5 286.2 290.5 291.6 293.8 296 298.5 302.4 302.2 305.6 306.5 306.3 306.9 307.4 306.2 304.3 303.7 301.4 300.9 302.9 302.7 303 302 300.8 300.3 300.7 302.2 300.2 302.4 304 305.1 306.9 308.3 307.4 308 309 309.8 310.9 313.6 314.6 315.9 317.3 318.6 319.4 319.5 321.7 322.1 325.4 328.6 332.9 336.8 341.2 344.9 344.4 337.1 328.3 326.8 328.5 333.4 332.8 329.6 331.3 333.7 337.2 343.8 351.7 357.2 363.4 366.8 372.8 380.6 385.8 386.8 389.8 396.5 407.6 409.4 409.7 410.5 415.5 419.4 427.3 433.3 439.8 447 453.6 458.1 462.7 467 457.3 456.3 457.3 472.4 476.3 477.1 476.6 474.1 484.3 486.3 488.7 494.9 478.8 450.4 422 399 386.3 377.1 378.1 382.9 386.3 387.8 390.5 393.1 395.6 399.6 405.1 406.2 408.2 406.4 406.1 406.2 410.9 407.6 407.5 407.7 397.4 389.6 379.5 371.3 367.6 367.7 368.6 370.2 375 381.1 395.2 404.9 415.8 423.3 438 451.9 463.9 469.8 461.8 434.1 394.9 355.4 326.3 307.2 291.1 276.7 262.6 254.9 246.8 237.8 227.4 221.8 211.3 202.1 196.1 192.7 189 185.6 182.7 179.1 180.4 180 191 190.7 191.7 193.2 195.4 195.7 197.5 199.7 202.8 213.2 226.1 233.5 237.3 238.8 241.3 245.3
266.7 266.8 264.1 264.4 265.9 262.5 261.6 263 268 272.4 269.5 269.5 270.4 272.9 275.8 277.3 280.8 286.6 290.4 293.1 296.5 299.5 301.6 304.3 307.3 309.7 310.2 312.1 313.9 314.9 314.9 314.5 311.4 310.7 312.3 310.2 308.9 308.4 307.4 307.8 307.4 305.8 309.9 307.7 306 307.6 308 309.6 310.6 312 312.4 315.8 316.2 316.8 318.2 319.3 322.2 323.9 325 326.8 328.2 328.5 330.4 331.4 334.6 338.3 344.8 350.7 355.3 357.1 357.1 349.4 344.8 341.6 341.5 347.2 344.5 347.4 349.5 349.3 354.1 362.1 370.3 379.4 385 389.2 397.1 405.2 410.3 416.7 422.9 435 436.6 437.2 441.4 437 444.7 450.9 458 462.5 469.1 478 479.9 482.6 486.7 488.4 483.8 489.4 494.8 501 508.6 509.2 509 507.8 508 508.2 504.2 504.4 483 458.4 428.8 404.2 396.1 391.4 394.7 397.4 398 401.9 402.5 406.2 409 413.9 421.9 424.8 422.3 420.8 417.7 421.8 423.6 417 412.9 414.7 404.4 394.8 385.6 377.2 373.3 370.4 371.8 372.9 374.9 379.9 389.3 398 412.7 418.5 429 441.9 449.4 452.7 449.3 422.3 384.8 347.4 327.1 309.4 295.4 283.4 269.8 260.3 247.7 237.2 229.7 219.4 212 203.6 197.4 195 191.8 186.1 183.6 181.6 178.6 176 181.7 185.7 186.5 187.5 189.9 188.7 188.5 190.8 197.2 209.9 219.2 224.6 229.3 230.9 234.5 239.8
270.5 268.3 268.1 268.9 269.6 268.8 266 270.7 272.7 271.5 273.1 274.3 276.3 278.5 279.3 280.6 285 290.2 296.6 297.3 300.2 303 305.6 308.1 312 315.9 315.7 317.5 318.5 320.4 320.6 320.6 318.6 321.7 321.7 318.5 316 315.9 316.2 316 316.4 314.8 314.5 312.5 311.8 311.7 314.9 314.8 315.1 318.1 318.6 320.4 321.9 324.5 324.4 326.7 328.2 330.3 331.9 334.3 336.1 337.2 339.1 340 343.9 349.2 357.3 363.7 367.7 370.1 367 361 359.8 355.9 351.8 356.4 356.2 358.5 361.4 363.7 370.6 379 387.9 397.7 407.3 409.8 421 430.9 438.5 446.4 451.1 459.8 462.6 465.1 470.4 475.1 479.6 483.1 483.3 488.5 493 500 506.3 508.3 509.6 510.1 500.3 510.9 514.1 520.7 531 526.8 530.3 534 532.5 532.6 520.4 516 489.6 459.4 436 424.3 417.6 413.4 414 414.4 414 416.5 418.4 416.2 419.6 424.3 434.3 438.6 436.7 434.4 435.6 434 434.3 425 419.1 419.8 410.6 406.7 395.4 383 380.6 377.5 376.1 374.3 376.6 378.6 388.1 398.4 407.7 410.3 416.4 425.8 430.1 430.7 417.9 399.1 377.2 343.9 327.2 313.3 302.2 291.1 281 265.5 252.4 241.5 228.8 219.1 210.9 205.4 200.1 196.6 191.1 187.4 188 185.7 183.3 185.1 180.4 176.6 175.3 182 184.2 185.1 188.8 188 192.1 202.5 210.6 216.2 221.4 224.5 227.9 230.7
271.5 269.6 271.5 272.7 274.7 268.6 270.9 274.3 274.7 274.4 277 279.6 281.3 281.5 283.2 291.5 293 296.3 302.6 302 303.9 308.8 311.2 314.4 317.6 320.4 321.2 322.8 325.5 327.5 327.5 326 325.7 327.6 328.2 325.4 321 322.5 327.8 325.5 323.4 320.5 318.4 318.6 317.8 316.2 318 318.8 319 321.8 323.2 326.1 327.4 329.7 330.8 332.3 334.7 337.3 339.3 341.6 342.9 345 347.3 348.7 353 357.7 366.7 374.2 378.6 378.4 374.7 371.7 371.1 366.2 360 364.1 367.6 370.7 373 375.3 387 396.7 407.5 417 425 433 448 454.7 464.8 468.6 477.3 480.9 484.6 488.9 495.9 501.3 505.2 504.4 509.4 511.4 515.7 522.7 526.8 526.6 527.3 527.2 515 525.6 526.5 529.3 533.4 540.5 542 548 546.3 544.5 535.6 521.6 497.5 471.1 452.4 441.1 430.3 431.7 430.4 431.7 433.1 435.8 436.4 432.6 431.9 435.3 442.8 447.8 445.3 446.1 447.5 449.9 443.4 436 428.4 426.1 417.5 416.8 403.8 392 387.4 385.2 383.1 379.8 378.5 379.1 385.9 399.3 411.7 411.5 403.2 408.5 406.7 417.4 418.2 404.6 380.9 343.6 327 313.7 305.6 295.9 284.7 274.6 262.5 246 232.5 224.8 217 215.5 205.2 196.7 192.7 190 193.4 192.6 190.8 187 186.9 184.8 176 175.9 178.8 179.5 182 181.7 186.8 192.4 202.9 208.2 214.1 215.9 219 220.5
272.4 273.4 276.6 275.5 272.8 274.3 279.7 278.7 278.2 279.9 282.6 284.9 286.3 287.3 290.6 295.7 299.2 302.1 306.7 306.8 309.3 314.4 315.8 319.6 322.6 324.4 325.9 327.8 329.3 330 330.7 330.7 329.1 328.5 327.5 327.4 326.8 331.5 333.7 333.9 332.2 328.7 327.9 326.1 325.2 322.5 323 323.2 326.7 328.2 331 331.8 333 335.2 336.7 336.9 337.3 343.5 345.9 347.3 349.1 353.1 354.9 356.2 361.5 366 373.9 381.5 385.4 384.6 379.1 377.7 377.4 372.8 367.4 369.7 377.4 380.6 382.3 386.2 396.6 411.2 427.6 435.8 443.7 462.5 474.6 484 490.2 492.7 496.1 499.6 499.8 504.2 514.2 518.2 520.1 528.4 529.6 532.9 532.4 538.6 539.3 538.3 535.7 520.3 518.6 521.9 528.3 532.7 540.9 545.4 543.1 549 556 551.5 540.7 517.9 494.3 478.2 470.6 460.9 448.8 446.5 445.6 443.2 446.3 450.2 448.6 448 447.2 451.7 453 458.2 457.2 454.4 451.8 452.2 447.9 439.3 440.5 437.7 429.2 425.2 418.3 414.5 402 396.1 390.9 383.2 382.2 379.3 381.4 399.2 402.5 412.7 401.2 387.8 386.8 391.9 392.9 384.4 367.3 345.9 327.9 316.9 309.8 301.6 295.3 284.4 269.5 257.6 243.2 233.2 224.7 214.8 207.3 205.8 197 194.3 195.9 195.7 197 194.7 190.8 185 175.7 166.4 170.3 174.3 175.5 176.7 180.9 182.1 193.9 199.8 205.1 208.4 212.6 213.2
274 278.4 280 276.6 278.9 281.9 279.9 280.8 283.1 286.2 289.2 290.6 290.4 294.1 298.2 303.3 306.5 310.2 310.8 311.8 315.8 317.9 321.4 325.2 327 327.5 330.8 331.7 334.4 334.9 334.9 335.7 333.1 331.2 328.9 328.4 329.8 332.6 334.6 335.8 335.2 333.3 332.1 332.3 332 331 329.4 329.5 331.8 332.7 334.7 337.4 339.6 341.3 341.8 341.9 342.3 344.8 349.4 351.5 354.5 359.1 361.4 365.2 368.3 371.3 378.3 385.7 388.9 387.3 383.1 383.5 382.1 376.5 369.4 370.3 376.3 384.4 386.1 391.1 401.4 415.7 434.4 446.6 464.6 477.4 486.1 494.8 496.4 498.9 504.6 505.8 508.4 518.2 523.4 525.6 531.7 537.3 545.2 544.1 534.3 534.5 535.3 537 531.6 515.5 516.6 516.8 522.8 525.9 530.7 528.4 530.9 543.2 553.1 551.4 539.3 519.1 497.5 491.4 479.2 471.7 467.3 462.9 465.7 461.6 461.1 461.3 458.5 460.9 462.2 462.2 462.2 468.3 470.3 470.2 464.9 468.6 464.5 459.4 455 456.5 448.5 446.7 439.2 426 412.7 398.1 391.9 386 384.9 380.3 378.9 387.4 389.2 397.6 385.7 373.4 372.3 373.1 372.8 361.3 349.4 336.7 326 318.4 312.3 305.4 299 293.3 278.4 261.3 248.5 240.2 231.1 222.5 215.3 210.4 206 205.2 208.3 207.1 210.2 203.9 196.4 188.2 182.4 176.1 171 168.7 163.3 168.3 170.7 177.3 186.7 192.1 197.2 200.6 204 208.9
276.4 279.1 279.1 280 282.6 285.1 284.4 286.1 292.2 292.6 294.8 294.9 297.7 301.7 306.1 307.9 310.7 313.5 315.8 314.8 318 322.3 327.2 329 331.3 334 334.7 337 339.9 341.9 338.8 340.9 340.4 335.6 333.1 329.1 328.5 333.2 337.7 340.8 340.7 337.9 337 337.7 337.7 337.6 336.4 337.7 336.7 338.8 339.3 341.4 346.3 348.4 348.4 347.7 348.2 350.4 352.8 353.9 357.4 361.9 364.8 369 372.9 374.2 378.3 382.5 385.5 386.1 384.7 384.1 383.4 379 372.6 372 378.4 388.7 389.8 396 405 420.3 435.9 453.3 464 484.3 497.7 499.8 498.1 495.9 498.2 502.3 508 521 523 523.6 528.5 536.7 542.7 539.7 530.8 528.8 525 523.2 512.7 510.7 506.6 505.6 509.1 515.9 515.2 510.3 514.3 526.8 540.5 547 535.9 521.5 507.1 497.9 490.2 482.8 475.4 477.1 477.8 475.9 473.8 475.8 475.3 473.5 472 475.9 481.2 486.9 490.4 490.7 488.4 481.5 476.9 468.3 465.5 470.5 463.4 457.2 448.2 434.4 413.2 395.6 390.7 386.8 386.2 379.1 372.8 376.3 377 377.2 374.1 364.2 360.8 355.7 355.9 352.6 343 330.5 323.6 317.3 311.1 303.9 295.1 287.3 278.8 265.2 254.7 243.5 236 228.7 222.5 221.4 220.7 221 216.5 211.1 211.8 204.7 198.1 194.4 188.8 179.1 175.1 172.2 168.4 166 161.6 169.8 180.3 183.7 190.4 195.8 199.4 203.8
278.8 280.5 280.3 283.2 286.8 287.5 288.6 292.7 295.5 298.4 299.6 303.8 304.5 308.5 311.1 314 318.2 321.9 320.9 324.6 326.9 329.3 330.5 332.6 335.8 337.5 340.2 341.7 343.7 345.7 344 343.2 342.8 343.2 338.8 335.5 331.8 335.4 348.3 354 352.1 348.1 346.2 344.5 343.9 343.5 342.5 343.6 342.3 343.6 344.8 346.6 349.6 352.4 353.3 353.4 354.7 355.8 357.2 359.3 360.1 362.3 366.2 369.2 372.9 374.4 377 380.4 382.2 384.8 384.2 383.2 382 378.6 375.2 374.6 379.8 392.3 393.9 401.4 411.7 424.8 438.6 452 464.2 474.8 485.9 488 488.7 489.1 490.5 493.2 500.1 508.2 512.9 516.3 518.9 521.1 528 527.2 523.3 520.8 518.1 510.2 496.2 485.3 486.4 480.7 488 491.6 490.5 492.5 498.3 509.2 525.3 538.1 531.7 522.5 514.3 501.8 496.9 487.3 487.2 488.1 489.5 491.8 495.1 494 492.9 487.2 487.2 486.6 488.9 490.6 495.3 497.2 497.5 492.4 487.3 479.6 477 468.3 463.3 457 448.4 430.4 412.9 396.1 390.5 390.1 385 374.2 364.5 365 365.1 366 366.4 360.4 353.9 345 344.8 341.6 334.3 327.9 323.3 317.3 310.1 301.4 292.7 285.1 281.8 272.6 261.1 243.8 237.2 233.9 230.2 231.5 227.9 225.3 218.6 208.3 207.2 204.5 198.8 193.8 188.2 181.3 175.9 173.3 169 168.6 167.9 164.7 165.2 174.5 182.3 188.6 194.2 200.7
281.8 282.2 285.7 290 293.4 295.3 297.8 299.8 305.2 305 307.9 312.1 315.3 318.7 321.2 322.3 326.2 328.5 330 331.5 332.2 335.5 337.3 339.9 342.3 343.1 345.1 347.1 348.9 350.3 350 348.9 346.1 346 344.8 341.6 339.7 337 341.5 359.7 359.7 360 357.7 355 352.3 349.7 348.5 348.6 346.7 349.9 354.9 355.2 355.7 357.2 356.9 359 359.3 359.1 360.8 365.2 365.2 364.9 367.1 369.5 370.8 373.8 374.9 377.4 379.5 383.7 383.2 382 379.6 378.1 376.5 376.5 381.2 390.8 396.6 403.7 416.7 433 440.9 457.3 464.2 472 478.9 481.3 483.6 486.5 489.8 491.4 498.1 505.8 510.8 511.9 513.1 514.5 518.1 515.3 511.9 508.9 505.1 492.2 478.4 473 466.3 464.2 466.7 471.8 473 478.1 487.3 496.6 506.7 511.9 510.8 513.1 510.2 504.9 503.2 500 501 500.7 500 499.4 501 498.4 497.9 494.9 489.4 490.2 492.2 494.6 495.7 496.1 497.2 494.9 490.2 488 484.7 477.3 460.2 447.7 437.4 422.7 412.9 398.8 390.7 390.8 382.2 370.1 362.9 362.9 362.9 362.9 358.1 351.5 345.7 340.6 338.7 336.6 332.8 330.6 323.9 315 308.1 302.3 297.3 297.7 297.4 281.8 258.8 249.7 237.5 234.8 232.3 228.5 227.8 222.2 215.8 210.7 210 205.4 197.8 195.5 190 183.5 178 173.7 170.7 170.3 169.4 166.4 161.3 169.5 175.8 185.8 189.5 191.1
284.8 287.1 292 294.7 299.2 302.5 303.8 310.5 315.8 315.1 317.6 322.8 324.3 329.3 333.8 333.6 335.4 337.1 339.9 340.2 340.9 342.8 344.6 345 347.1 349.1 349.2 351.4 352.5 353 353.3 352.7 350.2 347.4 346.7 344.4 343.2 342.4 339.7 350.4 357.4 356.8 357.2 357.9 358.2 357.9 354.8 355.1 354.7 357.2 363.4 365.9 365.5 363.8 361.7 366.2 366.6 365.2 368.3 373.9 372.7 370.9 370.6 370.9 372.2 373.2 374.6 374.7 375.7 378.3 380.5 379.1 377 376.5 376.9 377.5 381.4 390.8 397.1 404.7 418.7 434.5 455.3 464.3 466.7 473.6 476 482.3 481.1 480.9 484.4 483.9 495.2 501.7 505.1 504.3 503.6 503.4 506.7 504.6 501.6 495.9 486.8 469.1 467.9 462.7 452.7 455.3 457.6 456.4 458.7 468.4 480 488 495.6 504.6 514.8 516.4 513.3 506.7 503.9 502.5 500.9 498.1 497.4 497.1 498.4 498.5 499.8 498.2 496.9 493.2 491.2 491.8 490.9 492.4 495.4 493.3 489.9 485.7 487.4 485.9 473.4 453.9 445.2 427.5 412.3 398.4 390 387.4 376.9 367.7 362.9 362.9 362.9 363.7 364.5 352.5 354.9 347.7 341.1 344.3 346.8 344.9 335.8 329.9 313.7 301.4 298.6 297.1 294.7 277.6 265.6 252.6 242.8 235.6 231.3 227.5 229.2 224.3 218 213.8 210.5 204.7 197.5 194.1 189.8 183.5 178.7 172.8 171.6 169.8 168.8 165.3 159.4 164.5 168.9 174.6 181.6 185.2
290.9 295.4 299.8 302 306.3 310.2 314.6 319.2 323.6 325.9 329 333.4 335.9 339.6 342.1 343.4 346.1 346.2 349.1 349.6 349.9 351.7 351.7 352.3 354.2 354 354 358.2 360.3 358 357.4 356.5 353.7 349.6 347.2 344.4 346.4 346.4 345.2 345.1 353.5 354.3 355 356.4 359.9 362 360.6 360.9 362.5 364.9 372.3 373.2 372.9 371.4 368.3 367.8 369.5 367.9 373.1 378.1 378.2 376.5 375.2 373.8 373.6 374.4 374.6 373.6 372.5 371.2 374.2 375.6 374.8 372.1 374.7 376.3 379.4 389.8 397.1 402.5 415.1 430.5 441.6 455.1 462.6 464.9 468.8 477.8 475.6 473.4 475.6 473.8 482.1 484.7 489.7 494.1 492.1 492.2 494.3 492.6 490.5 481.2 469.7 460.7 453.2 446.6 440.4 439 434.8 441.9 447.3 457.5 475.5 481.3 488.7 496.7 504 508.7 507.4 502.9 496 496.6 497.8 499.9 496 492.2 492 494.1 498.2 496.8 497.5 495.6 493 495.8 494.5 491.8 487.6 484.4 479.5 475.2 474.5 470.6 464.3 454.5 450.9 436.7 417.7 398.8 390.6 387.1 380 367.1 362.9 362.9 362.9 368.2 369.7 355.9 360.4 359.3 352 358 357.8 355.2 341.5 334.6 317.8 302.1 297.8 293.9 288.5 276 266.4 253.9 243.6 234.5 230.1 223.8 224.6 223.1 216.9 215 210.2 203.9 199.1 194.6 188 183.7 178.9 174.6 170.3 169.5 168.6 165.1 160.9 157.2 161.1 167.7 173.5 177.3
295.2 299.8 305.3 309.7 314.4 319.9 323.6 327.5 332.2 336.3 339.4 344 347.6 350 352.7 355.1 356.5 358.5 361.4 361.8 360.1 362.1 362.5 361.7 360.7 359.2 360.2 361.2 362.8 366 365.6 365.5 360 354.2 349.9 347.1 350.1 354.6 353.5 352.8 354.1 355.3 354.5 356.2 362.3 364 364.4 369.3 373.9 377.9 382.3 382.7 380.3 379.2 376.7 372.3 371.9 371.4 376.1 381.5 382.8 382 380.3 378.2 377.2 375.3 373.8 374.5 372.5 372.5 372.5 372.5 372.5 372.5 372.5 374.6 378.6 387.2 394.8 400.1 408.1 423.1 439.9 447 451.6 455.8 464.2 469.3 465.4 464.2 464.2 458.3 464 470.6 475.2 478.4 475.3 472.3 475 477.3 477.7 467.6 454 452.8 441.5 434.5 426.5 419.2 418 427.4 432.5 440.5 448.8 459.1 459.7 466.2 484 493.3 498.8 487.7 484.8 487.3 491.4 494 489.2 484.8 486.1 489.7 491.6 492.1 493.7 493.6 495.7 496.1 490.5 487.9 487.3 485.7 477.3 475.5 476.1 468.1 457.9 444.4 436.9 423.5 417.6 403.9 392.8 384 379.3 367.3 362.7 363.9 367.2 369.9 373.2 367.4 367.9 372.5 375.8 380.7 378.3 365.8 355.4 346.1 318.6 305.9 299 292.6 282.3 276.5 263.7 251.9 240.5 235.8 228.3 222.2 220.2 219.9 214.7 211 204.2 201.4 196 190.9 187.1 182.7 177.7 173.4 169.8 169.1 169.4 162.9 161.4 158.8 158.4 158.8 167 170.7
302 305.7 310.6 316.5 321.3 328.2 332.7 338 342.3 346.3 350.2 355.7 359.3 361.4 363.9 367.3 369.8 371.4 373.2 372.6 370.4 372 372.6 372.8 369.1 365.9 365 364.9 366.2 367.7 367.4 365.4 362.4 360 357.4 353.5 353.5 356 355.7 355.1 359.2 359 357.1 359.5 362.8 366.4 372.4 382.2 390.1 393.5 395.1 390.8 387 384.2 381.4 378 374.3 374.2 378.4 385.6 386.8 385.8 385.6 384.1 381.7 378.8 376.7 374.6 373.1 372.5 372.5 372.5 372.5 372.5 372.5 371.7 377.7 384 390.8 397.6 404.8 413 428.7 438.6 446.5 449.1 458.3 461.6 457.9 455 452.5 453.4 454.1 463.6 467.2 469.4 466.6 464.3 459.6 459.6 460.9 451.6 445.4 437.8 428.4 419.9 407.9 402.2 405.9 415.4 423.5 429.4 437.8 440.6 444.3 448.1 463.4 477.9 487.2 474.2 470 473 477.1 479.8 477.5 475.1 477.4 481.1 482.9 482.2 483.4 488.1 492.9 489.4 486.6 480 479.9 486.2 477.7 478.2 478.9 476.3 465.3 450.9 445 430.3 415.1 400.9 393.1 384.7 376.8 366.9 362.4 366.6 369.3 375.6 379.2 385 388 392.6 394 389.4 396.1 392.1 385 366.4 345.2 316 299.2 290.1 282.3 272 264.5 252.7 245.3 235.5 227.5 224.3 219.8 216.8 212.9 207.7 201 196.6 194.1 190.2 185 179.8 175.5 170.9 168 167.9 167.3 164.1 159.6 158.6 157.3 154.4 161.7 165
307.5 310.7 316.3 322.9 328.1 334.6 341.1 347.4 354.5 358.1 362.6 366.1 369.6 373.8 376.4 380.9 384.6 386.1 384.6 383.1 381.8 384.2 381.5 380 376.1 372.4 369.9 370 369.1 370.1 368.9 366.9 365.3 365.2 363.4 361.8 360 359.2 357.2 356.5 362.3 364.2 363.1 364.7 366 371.8 383.2 398.6 404 406.3 401.6 397.8 394.2 391.4 386.7 381.5 381.3 380.7 382.3 389.2 391 393 394.2 391 387.8 384.5 381.7 379 375.1 373.2 372.5 372.5 372.5 372.5 372.5 372.5 374 380 387.9 395 401.7 411.5 420.1 423.9 432.3 437.7 442 447.5 447.7 447.9 446.6 445.3 444.7 453.3 454.1 459.6 452.8 449 442.2 437.3 438.8 428.1 426.4 422.1 414.5 405.1 396.3 395.3 400.9 403 412.2 417.4 423.4 429.6 434.9 443.7 449.2 462.4 468.9 457.7 456.5 455 460.7 463.6 465.6 463.1 463.1 468.2 469.6 468.9 470.7 476.5 478.1 477.5 475.4 473.6 473.3 480.2 475.3 476.9 476.7 473.8 461.2 452.8 438.8 428.5 419.5 411.4 399.1 388.1 379 366.3 362.4 362.8 365.6 376.3 385.5 396.1 408.9 410.7 420.6 415.9 413.5 406.9 392.7 378.4 357.4 332 299.9 290.6 285.9 276.2 268.5 254.1 241.9 234.2 229.1 225.5 217.7 215.9 205.8 202.9 196.8 194.9 188.6 188.9 181.4 175.4 171.6 170.4 167.5 163.7 164.7 159.6 157.5 156.9 157 153.4 158 161
313.2 317.9 322 329.4 335.5 343.2 351.1 357.5 364 370 375.8 379.6 383.1 387.2 391.6 395.2 398.5 399.9 397.6 395.8 394.7 393.2 391.1 388 383.5 377.8 380.4 380.6 377.6 376.1 373 371.4 371.1 369.7 369.7 367.9 366.7 366.3 362.8 363.7 367.6 370.5 370.1 371.8 374.5 376.7 388.2 397.6 407.7 406.3 403.5 399.7 396.3 394.3 391.5 389.5 386.6 387.5 390.4 396.1 395.5 398.1 399.8 397.6 394.6 390.7 387.5 384.5 381.9 380.2 378.4 375.2 372.5 372.5 372.5 372.5 372.4 376.2 383.1 391.2 398.4 407.1 412.7 419.2 427.8 434.6 437.1 439.3 440.1 441.2 443.8 442.2 439.5 442.2 444.1 444.5 443.5 437.4 432.7 427 417.2 411.7 415 410.1 405.1 398.2 390.2 388.3 390.9 394.9 399.8 408.2 415.5 423.8 426.5 435.2 441.3 449.4 452 447 442.6 442.8 444.7 449.2 452.9 449.1 451.9 452.4 452.9 456.6 458 462.4 467.7 469.4 466.7 466.4 468.7 467.5 461.5 463.3 466.2 466.4 454.4 446.7 441.8 435.7 422.5 408.9 398.6 385.4 379.3 374.1 364.5 366.7 373.3 385.5 387.3 404.6 418.9 420 424.8 423.2 416.5 410.9 400 379.4 360.8 328.6 309.6 298.6 293.5 290.9 271.8 256.9 244.8 236.7 230.5 225.2 217.5 211.9 206.2 200.1 192.9 191.9 183.8 183.1 178.4 177.6 171.7 168 164.2 161.2 159.8 156.8 155.9 155.7 156 150.8 156 156
319.8 324.1 329.7 336.3 342.7 351.3 360.7 369.8 378.9 385.2 390 393 398.7 403.5 406.8 410.4 412.5 411.1 410.4 408.5 405.4 402.3 397.2 395.3 393.5 390 390.3 388 385.8 383 380 379.5 380.8 377.9 376.9 373 372.2 373.3 371.9 372.7 374.2 375.1 377.7 382.7 387.1 387.6 393.1 400.4 401.8 402 401 399.1 396 394.2 393.9 395.5 392.7 395.3 398 403.3 404 408 406.3 406.4 402.5 399.8 395.3 389.7 387.5 385.9 383.4 379.1 374.2 372.5 373.3 373.6 372.5 373.3 378.6 384 391.1 400.1 408.8 415.1 428.4 436 438 437.7 437.1 435.4 437.2 436.2 435.8 436.8 439.2 440.2 437.5 430.8 424.5 417.8 408.6 406.4 406.9 400.2 393.2 390.3 382.3 381.2 386.9 389.1 392.4 402.4 406.2 411 417.1 417.8 425.8 432.1 435.5 431.9 429.1 431.8 430.1 437.6 439.8 437 437.1 439.7 442.4 446.7 448.6 449.4 452.5 455.5 457.1 461.3 463.8 462.7 451.4 450.1 453.1 451.8 445.5 447.3 439.7 428.8 417.1 408.9 396.5 388.3 387 382.6 370 379.8 385.1 397.2 406.3 411.1 424.1 427.6 444 441.3 432.9 427.7 416.4 399.9 380.7 351 323.3 303.5 300.3 285.7 273.8 262.2 249.8 239.1 232.3 224 217.6 211.1 202.4 195.7 191.1 184.5 179.3 176.6 177.5 170.3 167.6 165.4 162.4 157.8 154.7 152.7 152.2 150.4 153.6 154.5 153.9 152.8
328.4 333.2 337.7 343.3 351.7 362.1 374.5 382.8 390.9 397.4 402.1 408.3 413.5 418 422.1 424.1 425.9 422 419.3 417.4 412.7 409.7 406.5 408 404.8 401.3 394.9 392.6 390.5 388 387.4 386.5 385.4 382.7 380.5 378.4 378.2 380 380.3 380.3 380.7 382.8 385.6 391 395.1 400.7 409.5 407 402 399.2 397.2 396 395.6 398.7 398.1 402.9 401.3 404.5 409.7 413.1 415.1 418.2 417.4 418 414.5 407.1 400.9 396 392.7 391 386.4 380.1 374.2 372.5 372.5 373.5 372.5 372.4 375.4 379.4 384.6 392.1 400.8 410.8 421.8 430.1 432.4 433.1 431.8 431 430.9 429.3 432.6 431.8 430.3 433.3 430.2 424.6 420 413.1 406.3 402.5 398.9 392.8 387.4 382.9 379 378.5 385 386.3 386.6 392.2 399.6 404.7 410 409.7 412.9 418.5 422.5 421.1 420.1 420 420 423.5 423.6 422.7 422.2 424.2 428.6 432.4 439.2 440.3 442.3 443.1 449.1 452.2 456.4 453.2 443 440.2 437 436.9 435 433.8 428.9 416.9 415.8 408.1 397.4 394 391.1 382.8 375.3 385.1 388.7 399 407.3 414.3 421.6 424.6 436.1 437.3 438.5 429.4 420.8 407.8 391.3 365.9 325.5 315.4 305 292.3 275.4 270.9 259.6 248 238 229.2 221.5 212 203.5 196.1 187.5 181 173.1 171.3 172.5 171.1 163.6 161.7 158.4 153.6 150.4 148.2 148.5 148.9 150.7 153.7 151.1 150.8
334.2 340.3 346.1 352.9 363.4 375.9 387.6 396.5 404.2 410.3 416.7 422.7 428.4 434.5 436.7 436.6 435.2 432.4 428.9 424.8 417.8 419.5 420.4 417.5 415.3 408.3 401 397.2 395.2 395.2 395 392.2 387.6 385.8 384 385.1 386.6 389 387.2 385.6 385.5 390.6 394.1 400.8 406.8 412.1 417.9 415.2 408.5 406 402.8 397.6 399 404.3 405.5 411.4 412.3 413.4 419.3 421.3 424.9 426.5 427 426.4 422.8 415.1 408.8 406.2 400.9 395.2 390.8 383.4 374.6 372.3 372.5 371.8 372.5 372.5 371.1 375.2 379.7 386 392.2 401.7 411.6 420.3 425.3 429.8 427.2 423.6 422 422.7 429.3 428.4 423.6 423.4 421.2 416.4 411.9 407.4 402.8 398 393 387.1 382.7 378.6 374 376.7 383.9 385.2 383.3 385.4 390.5 397.7 402.8 404.2 406.2 410.9 411.1 411.5 408.8 408.4 408 412.2 412.2 411.9 412.8 420.8 423.4 426.3 429 430.7 435 435.4 437.9 443.8 442.8 436.9 429.4 429 436.4 439.5 434.1 430.3 422.9 414 411 408.9 406 402.1 396.5 387.2 381.5 389.4 399.1 404.2 413.6 422.7 425.9 427.4 431.2 426.1 422.4 418 408.1 404.2 388.1 361.2 329.1 317.7 308 298.6 285 281.8 269.2 256.7 243 231.6 221 210.1 201.7 194.1 185.3 177.7 170.5 165.4 168.5 166.8 160.4 159.4 154.1 149.4 148.4 146.6 146.1 141.5 155.5 154.1 148.3 150.2
339 345.2 352.7 364.2 377.5 389.5 400.4 409.7 417.5 425.4 433.8 440.1 443.4 446.7 448.5 451 447 442.9 437.1 429 429.3 431.8 429.8 426.4 422 415 406.7 402.7 400.4 399.7 395.8 393 390.6 386.1 387 389.5 390.8 391.5 391.3 390 390.1 393.5 398.9 406.1 417.8 424.5 420 420.2 415.6 414.5 411.5 404.3 403 408.4 411.2 418.8 418.1 423.5 428.8 428.1 433.6 435.4 437.4 433.7 429.9 423 417.8 413.5 409.2 403.5 395.4 386.6 379.6 375 375.1 375.4 372.7 372.5 372.5 372.5 373.7 379.4 384.1 390.7 401.2 407 410.9 413.9 415.5 416.2 415.4 416 416.3 415.4 414.2 413.1 411.2 408.5 403.9 401.6 398.5 392.6 388.2 382.3 378.9 376 373.4 373.7 379.5 382.5 382.3 383.9 387.5 393.6 397.6 397.3 399.1 400.8 403.5 402.4 398.3 396 396.8 399.7 401.3 402 407.9 412.1 412.1 413.3 417.8 418.2 419.6 422 428.5 433.2 430.3 423.5 420.1 428.3 432.8 430.9 425 421.6 417.7 411 405.9 405.2 405.4 404.1 400.2 392.6 387.7 396.6 406.2 409.2 411.1 418.8 422.8 425.1 422.1 423 423.5 413.7 406 397.1 375.1 349 327.5 317.7 313.2 307.8 298.8 287.6 273.1 258.2 246.4 234.5 224.4 214.6 206.8 194.2 185.1 177.9 169.2 166.8 163.7 162.2 162.4 156.1 150.5 148.4 147 145.7 144 142.3 145.2 145.8 144.2 146.4
343.2 352.1 360.8 373.5 386.5 399 412 422.5 429.9 441.4 448.5 454 457 457.8 458.1 457.3 457 448.7 446.7 451.6 444.7 443.2 439.1 433.2 428 422.3 413.1 408.7 402 399.1 396 393 392.5 390.3 390.3 390.1 392.2 393.4 393.1 391.6 393 396 401.9 409.9 420.1 422.6 420.3 419.1 416.8 414.6 411.4 410.4 406.7 410.1 414.6 421.4 421.9 426.8 431.7 433.3 440.8 442.8 443.5 441.6 436.5 431.4 426.9 422.5 416.4 409.9 402.6 392 384.6 381.3 379.1 378.3 374.6 372.5 372.5 372.5 372.5 373.4 378.7 380 387.2 394.1 400.6 404.7 403.8 405.9 404.8 405.7 405.2 404.4 403.9 401.2 401.9 400.2 400.9 400.1 395.1 391.4 385 380.5 376.9 374.8 372.3 369.7 373.1 378.6 378.6 381.4 385.1 392 394.5 393.7 391.5 393.7 394 390.9 386.8 383.4 388.3 391.3 390.7 391.8 395.5 397.7 399.7 401.4 403.9 404.5 408.6 409.9 415.2 419.4 417 410.2 409.9 420.6 423.2 418.9 416.1 414.8 410.2 404.3 399.2 400.7 401.7 402 399.6 394.3 391.5 398 407.7 410.3 410 414.2 416.4 416.8 413.8 422.3 425.8 427.5 424.9 411.1 387.2 352.4 327.5 320 314 307.3 303.9 291 273.8 258.5 246.7 234.9 222.2 210.5 199.8 190.5 184.7 178.4 170.1 169.3 166.8 164.2 161.3 159.3 155.5 146.8 145.4 144.5 143.4 142.3 142.7 143.2 140.9 141.7
344.9 355.1 365.6 381.8 397 407.6 420.9 429.7 441.2 453.7 462.7 466.8 467.6 468.4 465.2 463.1 460.8 461.5 464.9 459.4 454.1 450.2 444.5 438.6 429.9 425.5 415.8 410.9 403.2 395.2 391.5 387.1 388.6 393.2 392.3 391.5 391.6 392.1 392.6 393.9 393.6 397.1 401.8 409.5 417 417.2 416.1 415.6 414.4 412.8 411 409.9 409.7 410.3 418.2 425.7 425.2 429.7 435.4 438.9 449.1 447.4 451 448.4 444.1 440.8 435.6 429.1 424.5 417.5 407.8 398.1 393.9 390.2 385.7 382 374.8 372.5 372 371.3 371 371.3 375.8 376.3 376.3 381.6 388.2 393 395.4 394.2 396.2 400.6 401.1 398.8 396 394.3 392.9 394.6 396 399.6 396.9 391.2 385.3 379.2 377.2 374.3 369.4 365.6 368.4 370.1 374.4 377.7 383 389.4 391 388.8 385.1 384.1 384.8 383.7 377.8 375.7 378.8 381.9 380.7 382.1 384.3 386 388.3 390.9 391.9 393.1 395.4 396.1 399.7 401.6 399 395.6 396.2 402.4 408.4 410.7 416 414.4 406.5 400.3 393.5 397.6 400.6 400.1 397.5 395.8 393.8 400.4 408.8 410.2 409 408.7 409.1 411.1 408.6 419.6 432.1 431.3 424.4 413.3 390.6 355.1 337.2 325.3 317.5 304.6 300.1 284.1 270.8 259.5 248.9 235.8 227.1 219 206.4 196.6 187.6 179.9 173.1 171 169 164.7 160.6 157.6 151.3 148 144.6 140.8 139.9 141.8 140.9 140 140 139.2
345.3 355.4 367.8 385.6 400.6 412 422.3 433 448 462.6 471.6 477.2 481.4 484.2 473.3 465.8 468.1 470.5 471.6 467.4 461.2 456.1 444.7 439.3 429.5 422.6 416.6 407.6 396.9 390 385.8 383 380.3 386.4 388.8 390 389.7 389.3 389.5 392.3 393.6 395.8 399.8 403.6 410.6 411.5 410.7 410 409 409.7 409.5 407.9 408.6 409.9 419.8 426.9 426.9 431.7 438.8 443.9 452.9 454.9 455.5 454.6 451.7 451.3 441.4 439.5 433.4 426.9 415.9 407.5 402.9 398.7 393.1 390.3 380.1 375.8 374.1 369.9 369.8 368.4 367.6 372.3 370.8 371.8 373.3 378.3 382.3 383.9 383.2 385.9 387.5 389.5 389.2 387.1 386.2 387.4 389.5 391.8 391.8 388.4 383.7 378.4 375.2 372.3 368.2 363.8 362.7 364.3 371.3 374.6 379.5 388.4 388.9 386.1 381.8 379.8 379 377.5 371.6 367.4 365.3 368.5 369 370.5 370.6 374.8 383 384.2 384.2 383.8 386.3 387.8 388.6 387.7 384.5 386.3 390 395.4 397.5 402.2 404.9 401.7 397.9 395 392.1 392.5 393.8 394.9 393.7 391.3 393.8 406.7 413 411.7 411.1 410 405.6 404.6 402.2 405.1 420.2 427.3 420.4 408.9 371.7 348.8 328.2 318.6 313.3 297.2 286.6 277.5 268.1 258.9 251.9 237.4 229.6 218.6 208 198.2 188.9 180 176.3 172.9 170.6 166.4 161.9 159 156.1 153.1 152 149.5 146.5 146 143.9 139.3 139.8 139.3
346.9 356.3 367.3 382.8 400 411.2 421.1 434.7 451.3 464.6 476.3 481.2 486 484.2 476.1 474.4 477.9 481.3 480 471.1 461.8 452.6 447 435.7 428 421.6 414 403.3 393.3 384.4 380.7 375.2 372.3 377.5 384.1 387.3 386.8 386.1 385.5 387.5 390 391.3 393.6 395.1 398.1 400.3 401.7 402.9 403.2 404.4 404.8 405.4 408.2 409.8 412.7 421.4 424.5 431.6 440.2 446 455.4 456.8 459.1 460.9 459.4 459.3 449.6 445.2 442.5 438.3 430.5 419.1 414.8 409.4 403.3 395.1 387.5 381.7 378.6 371.9 366.8 362.9 360.7 363.9 365.3 365 363.6 364.4 366.5 368.7 370.1 371.1 371.7 371.1 374.2 375.3 377.8 379.9 383.3 381.3 380.2 378.2 375.3 372.7 371 369.4 365 361.7 358.4 360 367.6 371.3 374.2 383.9 385.7 382.6 379 376.9 373.9 370.4 365.6 362.7 361.2 362.8 363.4 363.4 363.8 367.3 372.7 373.1 374.2 375.7 381.6 380.9 380.2 376.4 377 379.8 386.2 390 389.5 391.8 390.3 390.2 391.4 390.2 388.5 388.6 390.5 390.6 389.8 390.7 394.4 401.1 406.1 408.1 406.1 402.4 399 400.9 407.9 410.4 421.7 422.4 410.9 389.7 363.6 343.8 326.3 313.9 303 291.7 282.1 273.6 265.4 252.7 241.3 233.1 227.7 217.8 208.8 198.8 191.4 183.5 183.6 176.9 172.2 169 166.3 163.1 160.4 162.3 161.9 162.8 161.5 162 162.7 159.9 154.7 149.2
347.1 356.7 365.5 378.4 393.9 407.2 419.3 433.6 449.1 461.1 475.1 483.2 482.2 476.7 480.2 483 486.5 486.8 483.7 473.7 463.4 455.9 452.5 443.4 434.6 425.1 412.5 403.7 392.2 381 373.7 368.4 365 370.2 377.7 381.2 381.2 381.7 381.2 382.4 383.7 384.1 386.2 388.4 390.2 391.8 391.9 391.8 395.3 401.3 401.7 403.6 408.8 410 413.1 416.3 420.6 431.5 438.3 446.7 456.6 458.3 460.1 461.6 462.7 461.1 451.8 449.8 446.9 443.8 438.1 431 426.6 418.1 412.3 409.6 397.8 390.7 386.1 375.3 368.3 362.2 357.3 355.6 356.2 355.5 355.2 357.1 356.2 356.3 358.9 359.6 362.9 363.8 364.6 366.9 368.4 370 372.4 373.7 373 370.7 369 366.3 364.3 363 361.5 358.1 354.6 356.6 360.3 366.2 370.6 374.2 378.7 376.6 372.6 371.9 372 367.2 362.9 359 358.2 359.5 358.2 357.3 358 361.6 364.9 364.3 366.6 366.6 371.6 372.1 370.7 367.1 370.6 375.8 380.8 381.9 382.4 382.6 384 384.5 385.5 384.1 381.7 382.9 384.6 385.2 384 386.1 386.5 392.6 399.2 398.8 398.9 399.4 400.2 404.2 414.7 424.7 429.3 429.1 417.9 393.3 363.2 338.9 325.5 313 303.5 293.7 285.8 275.6 265.7 255.8 243.7 234.6 231.5 221.4 212.2 201.4 193.4 189.9 188.9 181.9 175.9 171.9 170.9 169.1 168.4 169.4 171.3 171.8 171.6 172.3 173.1 167.8 164.5 156
345.8 354.4 363.9 375.2 387.6 402.8 418.6 435.8 449.1 457.8 465.5 474.8 474.4 475.9 482.2 487.1 492.9 491.9 483.9 471.5 461.8 459.5 456.8 447.3 433.7 425.3 415.5 403.2 390.9 378.4 370 364.2 360.3 363.6 370.8 378.1 378.5 377.1 376.3 377.2 377.4 378.1 379.7 380.9 383.2 383.6 383.6 383.4 389.3 396.7 400.6 402.7 408.3 410.9 412.8 416.3 419.3 424.4 434 442.7 453.4 454.9 458.9 459.3 463.2 458.8 453.9 452.6 450.8 444.4 438.6 431.8 429.8 424.7 416.1 412.8 404.9 392.7 385.3 377.7 368.9 361.3 355.6 349.2 347 346.3 348.3 349.3 348.1 347.3 350.9 352.2 353.9 356.2 358.2 360.6 362.1 365.8 365.7 364.1 363.8 362.5 361 358.2 358 355.9 355 353.8 351.6 353.2 354.9 357.9 361.4 367.4 369.3 369.1 366.4 365.3 364.5 361.2 357.5 354.2 351.5 353.4 352.8 352.5 353.5 354.8 355.7 356.2 357.1 358 359.8 359.8 357.4 360.5 364.9 369.9 371.3 372 373.1 373.9 376 376.8 377.5 376 372.9 374.9 374.1 376.4 376.8 378.1 382.2 387.6 391.4 399 400.8 400.4 410.7 413.9 422.8 434.9 432.5 427.6 420.2 403.1 373.1 350.3 325.5 308.2 300.3 295.6 288.9 281.1 267.7 255.3 243.1 237.6 231.4 225.1 216.3 205.2 195.9 193 189.8 183.8 178.7 175.6 175.4 174.2 173.8 174.3 176.9 177.3 177.6 178.5 176.7 173.1 166.7 159.8
344.9 353.5 362.2 373.1 385.1 397.3 413.7 430.6 443.3 454.1 460.9 467.1 469 468.9 475.2 480.9 486.2 486.8 476.6 464.3 460.8 460.9 455.8 446 437.8 425.2 412.8 399.7 388.5 376.5 367 360.7 355.7 355.7 362.3 369.9 371.5 371.9 371.9 372.6 372.8 372.8 374.2 374.8 376.1 376.6 376.4 376.9 386.1 392 396.1 398 400.8 404.4 407.8 416.6 418.3 421 431.8 439.8 449.5 454.3 457.8 458.7 458.3 456.9 454.9 457.5 453.2 445.3 437 434.5 428.5 420.6 410.3 404.2 395.1 386.4 377.9 370.2 365.8 359.8 354.1 347.6 340.5 341.5 340 340 337.5 339.8 340.9 343.1 347.7 351.5 353 355.6 356 357.3 359.4 358.9 357.9 356.4 354.4 352.7 352 349.9 348.6 347.5 346.6 348.5 349.5 350.1 353.1 356.1 359.3 359.3 357.7 356 355.6 352.9 350.9 347.9 346.1 347 347.7 347.9 348.3 349.4 349.6 350.9 352.6 354 354.7 355.3 357.1 361.9 362.8 363.4 364.9 367.3 367 369.3 368.9 366.9 364.2 368.5 368 370.1 375.1 383 383.8 382.7 384 390 395.8 402.8 405.8 406.5 410.2 420.8 426.4 434.2 431.3 427.8 412.6 395 368.5 346.1 319.6 305.5 300.5 294.7 286.1 277.5 267.1 254.3 242.7 238.6 233.9 229.6 223 210.2 203.2 198.3 195.1 189 180.3 179.6 180.4 179.4 179.7 179.5 180.4 181.5 181.5 180.4 178 173.4 168.8 162.4
342.8 351 359.9 371.7 382.2 392.4 408.2 423.9 435.1 443.3 451.1 454.2 458.1 460.3 463.4 467.3 469 468.6 462.9 458 457.2 456.1 449 439.9 430.2 423.2 407.3 397.4 382.4 372.1 363.6 356.8 352 347.9 353.7 358.3 361.2 363 363.8 364.9 366.3 367.5 367.9 369.1 369.8 369.8 370.2 369.6 379.6 384.8 387.9 389.6 392.6 397.1 400.1 410.2 414.1 421.4 430.6 438.1 446.4 452 455.8 457.4 457.7 452.9 455.9 458.2 451.7 442.2 434 429 421.8 412.1 402.5 392.2 382.9 373.4 366.9 361.1 354.7 354.1 347.9 341.2 335.8 332.9 333.9 332.7 329.6 331.7 333.5 338 342.9 347.2 348.4 348.4 348.5 349.8 352 351.1 350.3 349.7 348.5 347.5 346.2 343 341.3 340.7 341.7 344.3 344.4 345.5 347.4 350.5 351.4 350 348.7 346.8 345.3 343.4 344 341.8 342.1 342.5 343.3 343.3 344.4 345.5 347.5 349.6 351.6 353.7 355.2 357.2 359.5 360.9 362 362 362.3 362.7 363.1 361.8 361.4 361.5 362.2 365.6 368.9 371.1 375.8 383 384.5 384.2 383.8 385.8 391.3 396.7 402.6 407.2 411.8 420.3 424.9 428.1 421.6 412.2 398.5 384.7 356.8 332.6 314 305.4 300.8 295.2 285.1 275.5 263.6 249.9 244.2 240.9 236.8 231.6 226.3 216 210.6 207.8 203.6 195.7 189.7 186.5 186.5 185.5 185.1 184.6 184 183.6 183.6 180.8 176.9 173 165.5 157.5
342 348.5 357.4 369 379.4 388.5 404.7 419.3 431.3 437.9 441.5 444.3 454.3 451.8 452.2 453.2 449.3 450.4 452.6 452.8 452.5 447 437.5 430.2 423.9 414.3 402.1 388.4 376.7 367 360.2 355.4 348.8 344.1 342.5 345.9 351.6 356 357.4 358.1 360.1 362 362.2 363.2 363.8 363.9 364.5 364.4 370.1 376.9 379.7 382 385.9 389 392.9 402.2 410.6 420.3 428.1 437.4 449.4 451.5 452.8 458.9 458.1 447.9 447.1 446.5 440.1 431.1 423.7 415.7 406.1 395.4 386.4 376.6 366.8 358.3 353.6 347.6 343.6 339.9 336.3 333.6 330.2 325.9 325.4 324.9 323.6 325.9 331 339 340.3 341 343.7 343.7 343.9 346.2 348.4 348.3 347.6 345.8 343.4 343 340.1 336.9 334.6 335.2 336.2 338.1 339.5 342.4 345 348.7 350.4 346.7 344.4 341.5 338.8 337.6 336.3 334.9 335.8 337.5 337.8 339 341 344.6 347.2 348.7 350.8 353 354.9 356.4 358.8 360 360.8 362.1 362.5 362.9 362.2 359.9 359 358.9 356.9 357.7 361.6 365.2 372 378.2 380.6 380.7 380.8 382.7 388.8 391.4 395.7 403 413.8 417.9 421.3 422.5 416.7 403.4 388.6 370.8 346.9 328.4 314.8 307.6 302.2 294.1 288 281.7 270.5 256.8 247 243.6 240.2 234.5 228.4 221.7 219.4 215.3 210.5 201.9 194.2 192.8 191.6 190.5 189.7 187.3 184.8 183.3 181.9 178.4 173.3 171.2 165.7 157.4
339 345.1 354.9 364.6 375.1 386.6 402.2 414.8 422.6 432.4 433.2 433 436.6 434.5 434.1 435.9 439.6 443.1 447.6 446.1 442.6 434.4 426.1 418.5 409.3 400.2 390.5 379.1 369.2 362.6 357.1 350.9 345.9 341 336.5 337 342.1 347.9 349.8 350.2 356.5 359.2 360.7 360.4 360.2 359.6 358.8 359 363.2 369.3 371.5 374.8 378.5 382.3 386.6 393.3 403.1 414.7 424.2 434.6 447.5 451.3 451.4 447.8 445.5 440.3 433.9 427.3 419.7 414.4 407.1 398.8 389.9 378.4 368.4 357.6 353.4 350.7 346.6 341.9 336.3 333.3 329.1 327.2 327.1 323.4 320.6 320.7 321.5 326.2 332 338.2 338.5 337.6 337.9 339.2 341.7 344.3 345.3 344.9 344.7 343.4 341.9 339.4 336.4 333.9 332.6 332.2 330.5 332.8 335.7 339.4 343.2 345.6 344.3 339.5 340.4 336.9 332.7 330.9 330 329.7 331.4 332.2 333 334 336.8 339.7 343.4 345.2 348.3 350.5 354.2 355.8 357.3 357.7 359.5 361.4 361.8 360.6 360.1 358 355.1 352 347.3 351.9 352.8 357 363.8 368.6 371 372.1 372.1 377 383.2 385.5 388.9 398.6 404.7 408.3 407.9 401.3 395.7 384.8 375.2 353.3 334.3 322 313.5 308 302.8 298.5 292 284.7 275.6 264.6 253.5 245.9 240.7 236 229.5 227 228.3 225 213.9 206.6 203.9 198.3 194.6 192.5 192.5 191.8 186.1 181.4 178.9 174.2 170.6 168.4 164.7 159.5
335.6 343 351.9 361.2 371 382.3 398.1 406.8 412.8 418.7 419.6 424.6 426.7 427.5 432.2 437.8 444.8 448.2 450.9 446.7 439.2 431.2 425.6 418.3 401.4 387.8 377.3 367.4 360.7 356.7 351.9 346.9 342.7 338.6 334.8 331.5 334.2 339.6 342.2 343.3 351.7 360.7 360.1 359.3 359 357.5 356.7 356.6 359.1 363.8 366.6 370.5 374.2 380.3 384.1 390.8 399.6 409.4 417.9 424.5 431.6 443.6 443.7 439.4 433.2 423.4 413.9 407.1 401.8 396.1 389.3 379.6 370.9 364.8 358.2 355.1 352.7 351.1 345.6 339.9 334.5 329 324.7 323.4 324.8 321.7 317.4 318.3 322.9 328.2 332.6 335.6 335.7 335.5 335.8 336.5 339.8 342.3 344 343.9 343.7 343.5 341.3 338.2 335.3 332.5 331 329.9 328.2 329.2 330.5 336.1 342.4 342 337.2 334.6 334.2 331.5 327.9 326.1 325.2 324.4 325.5 326 327 327.3 331.5 334.2 335.5 338.5 343.1 348.4 352.1 354.6 355.8 355.8 355.7 358.1 357.4 354.9 353.7 352.1 349.2 345.8 343.1 344.9 343.1 347.8 354.8 362.2 363.8 364.9 365.5 369.1 373.1 375.7 378.7 391.8 396.9 397.6 389.5 383.6 377.3 370 357.1 343 324.1 316.1 310.4 305.7 303.5 302.3 297.5 289.5 283.3 272.2 259.9 251.1 244.1 237.9 233.8 230.5 228.3 224.6 217.2 211 206.4 203.1 199.4 198.1 197.8 194.5 190.8 186.1 181.7 177.5 175.2 172.1 170.4 163.6
333.7 340.5 346.9 356.3 364.9 375 389.8 398.9 399.9 403.6 404.9 411.9 415.6 417.3 421.9 431.5 438.1 446.9 451.9 449.1 442.9 433.9 424.7 411.1 395.2 384.7 375.4 363.5 355.8 351.9 344.9 342.2 338.4 334.6 332 329.2 329.3 331.4 334.8 339.5 343.5 353.3 354.4 355.4 356.7 355.2 355.5 356.1 359.5 363.5 365.9 368.5 375.9 379.2 381.9 387.9 397.5 403.8 410.8 415.2 419.5 424.1 428.2 426.3 421.3 411.9 405.6 396.5 388.9 380 373.4 368.6 361.3 355.4 354 353.4 351.6 347.2 341.8 335.6 330 327.7 323.6 320.6 318.4 316 314 318.1 320.3 323.9 329.1 332 332.4 332.7 332.8 334.6 337.2 340.2 342.2 342.3 343.3 343.8 341.6 339 336.3 333 330.7 328.6 326.6 326.2 327 333.1 339.9 335.5 331.1 329.2 325.9 323.6 321.5 319.5 318.3 318.5 319.4 319.6 320.1 324.2 327.2 329.5 332.2 334.1 338.9 343.1 347.9 353.9 356.3 354 352.5 351.3 349.2 346.8 345.9 344.5 342.5 338.3 337.6 337.7 337.2 338.9 343.9 350.5 352.4 353.4 354.8 360.2 367.3 366.9 364.4 378.1 388 383.2 381.7 386.4 382.2 367.1 355.4 332.9 319.6 312.7 310.1 307.8 305 302.9 298.2 291.3 282.3 271 260.9 251.7 246.1 239.7 235.9 230.2 227.2 224.2 219.9 216.4 210.5 209.6 206.9 206.5 205.6 203.5 202.1 199.7 194.4 191.2 187.8 183.2 178.7 173.2
331.6 337.4 343.2 350.1 358.2 365.6 376.9 385.2 388.2 389.8 392 397.8 402.6 405 412.9 422.3 431 441.9 447.2 446.6 441.4 432.8 417.1 402.8 392.7 382.1 373.1 362.7 355.3 348.3 340.9 338 335.8 332.2 330.2 328.8 327 328.1 332.1 336.4 340.5 344.1 344.1 345.4 347 349.1 351.7 356.1 360.6 363.4 365.6 368.5 374.8 377.4 380.3 384.1 393.7 397.4 402.6 406.9 409 410.8 409.8 406.6 400 391.8 385 380.4 375 368.4 363.6 359.1 355.3 351.8 348.8 348.9 345.1 339.1 334.6 330.5 326.1 322.6 319.7 318.9 318.4 314.3 313 316 318.3 321.4 325.3 326.4 328 327.9 330.2 333.9 334.1 335.4 337.4 338 341.1 340.9 338.6 335.8 333.4 331.4 329.2 327.6 326.1 324.9 324.3 328.4 329.2 328.2 324.7 320.3 317.2 315.5 312.3 312.2 313.7 313.1 313.5 313.4 315.2 316.8 321.3 323.3 324.9 327.8 332 336.2 341.2 345.5 346.7 345 342.2 343.1 340.4 338.4 337.9 337.6 336.2 333.9 332 331.7 329.5 328.8 332.8 334.9 337.7 340.1 343.8 349.2 350.7 350.5 354.9 363.4 366.5 363.3 366.3 365.5 360 351 339 323.3 315.6 314.4 312.2 308.4 305.2 301.6 295.9 289.2 281.3 272.8 263.1 253 244.8 238.3 233.7 230 228.3 225.5 226.3 225.6 211.5 218.3 214.5 214.1 213.6 212.4 210.3 207.1 203.8 199.7 196.3 193.3 188.5 181.3
330.1 336.5 341.8 346 352 358.1 367.9 373.1 376.8 379.5 382.1 390.6 393.8 395.2 404.2 414.8 425.9 432.6 435.9 432.8 429.3 419.7 409.9 399.6 390.3 377.8 368 358.5 354 346.3 338.5 334.4 334 330.5 328.9 327.3 327.3 327.3 328.3 332.2 336.3 340 340.2 340 341.3 344.6 349.7 355.6 360.6 364 367.5 371.6 374.6 376.5 378.5 383.6 392.1 393.1 396.3 396.3 399.3 399.1 395.8 390.7 384.4 379 373 368.1 364.1 358.3 352 348.3 346.3 346.4 344.7 341 337.4 329.8 328.9 326.3 322.2 318 315.4 316.6 315.4 312.8 311.4 313.8 316.2 318.3 319.5 322.2 324.1 324.7 328.3 330.3 330.9 331.3 331.3 333.7 336.5 334.3 332.4 330.8 330.5 329.5 327 325.8 325 321.5 322.3 324.3 323.7 321.2 316.8 313.1 307.4 305.4 303.6 307.6 306.3 305.8 305.9 306.5 309.2 310.5 312.8 315.5 317.9 321.3 325.4 328.3 331.5 336.3 337.9 336 334.7 334 332.2 332.6 332.6 334.1 334.8 331.6 327.8 326.7 325.1 323.4 324.3 323.3 325.6 330.2 333.7 339 341 338.8 342.7 344.2 345.6 352.3 350.7 349 342.5 332.1 319.5 315 315.4 316.5 312.2 305.6 303.1 297.2 290.7 285.9 277.9 269.2 257.9 248.5 242.5 242.1 238.9 233.7 233.2 231.6 231 233.1 233.1 225.5 225.2 225.8 222.7 221.3 219.5 218 214.5 210.6 206.8 203.2 197.4 195.2
327.7 333.5 340 344 348.9 353.3 360 363.5 366.5 370.6 375.6 381.3 387 390.1 398.9 407.7 418.5 423.7 422.5 419.9 416.8 410 402.5 396 387.7 377.3 366.8 356.9 351.4 343.5 336.3 334.7 332.9 329.7 328.5 327.2 327.3 327.3 327.6 331.9 334.7 338.2 338.4 337.8 337.7 340.7 345.3 352.5 359.1 364 368.2 373 374.8 374.5 375.5 383 389.2 391.5 389.4 389 387.7 385.5 383 379.6 375.8 368.4 361.6 357.7 354.1 349.6 345.6 340.8 337.2 334.7 331.8 329.3 328.7 323.8 321.3 320.9 317.7 313.8 312.4 312.6 310.8 309.4 311.7 313.4 314.8 316.8 317.1 318.6 320.8 322.3 325.2 326.7 327.4 327.5 326.3 326.6 327.5 325.9 325.2 327.5 328.1 326.4 324.1 323.4 322.7 320.6 319.9 318.6 317.4 314 309.6 305.7 299.4 296.5 296.9 299 300.4 297.1 297.3 297 300.8 304 304.7 305 309.4 313.9 317.5 320.1 322.5 325.1 326.7 325.5 326.5 326.9 328.2 327.7 326.2 324.4 322.4 322.8 322 321.9 321.4 319 316 314.7 318.1 320.2 322.3 328.2 328.9 326.7 326.5 327.1 329.9 333.8 334.5 334 330.1 318.8 311 311.2 312.1 310 305 300 295.2 289.8 285 278.7 272.2 265.2 255.7 248.7 250.3 249.5 243.7 240.8 238 236.9 237.4 237.3 235.2 231.6 234.1 234 231.3 229.2 226.6 224.4 222.2 219.6 218.5 216.8 214.6 211.4
325.7 331.2 339.4 344 346.4 351.2 356.2 358.2 361.1 366.1 371.8 376.6 382.5 388.1 395.5 401.9 410 412.7 412.8 412.2 406.9 399.4 391.3 388.9 380.7 372.6 364.1 356.6 349.5 342.8 337 334.2 331.7 329.2 327.4 327.3 327.3 327.3 330.4 333.1 334.5 337.7 337.6 336.4 335.9 337.1 340 349.7 356.7 360.9 365.6 369.8 371.4 372.9 371.2 374.6 381.7 381.8 383.1 385.5 384.2 381.1 377.2 371.6 365.1 359 353.1 348.1 346.5 343.3 338.4 334.2 330.6 327.3 323.8 321.6 318.5 316.2 316.9 316.1 313.2 310.1 309.9 309 307.5 308.5 311 312.9 313.2 314.6 315.1 315.7 317 320.3 322.1 323.4 323.9 323.3 322.1 321.8 320.9 319.8 320.2 323.3 323.3 321.2 320.1 319.4 319.7 319.5 314.7 312.6 310.9 310.2 308.5 299.5 295.4 290.3 287.6 290.9 290.3 288.9 287.3 285.4 291.3 294.5 296.7 299.7 301.9 305 308.3 313.3 316.9 319 319.7 319.7 321.5 323.4 328.9 326.2 323 320.5 319.1 320.4 318.3 316 314.1 312.3 309.1 309 315.9 307.8 312.1 313.5 314.3 312.1 312.5 315.9 315.4 318.3 320.3 318.1 314.1 304.8 304.8 306 306.2 304.3 302.4 297.3 291.2 286.5 281.5 276.4 271.5 263 255.6 253.8 256.6 253.6 251.3 248 247.3 246 242.3 240.5 237.7 236.6 237.8 239.2 239.9 240.3 237.6 234.8 232.9 231.8 230.2 227 225.5 224
325.8 329.4 336.4 341.8 345.1 349.2 353.7 356.7 359.2 364.4 371.6 375.5 380.3 388.1 394.9 400.6 403.4 405.1 406.8 407.4 400.9 393 387.2 382.1 377.6 372.2 365 354.9 348.5 343.9 337.6 334.1 333.4 330.5 327.1 327.3 327.3 327.3 331.9 333.6 334.6 336.6 335.8 335.3 334.9 334.7 335.1 344.3 351.7 355.1 360 367 368.3 366.9 366 367.1 372 372.2 374.1 380.7 379.8 373.8 369.3 365 358 350.5 343.6 338.1 337.2 335.1 331.5 326.9 322.4 321.3 319.6 316.6 313.7 313.6 313.3 312.6 309.4 308.3 307.6 306.1 303.6 307.4 310.7 311.5 311.9 312.2 312.7 313.2 314 317.8 318.5 319.4 319.5 318.1 317.2 317.2 315.6 315.1 315.8 316.1 315.4 315.3 315.9 315.5 315.4 313.4 312.4 307.5 305.4 302.3 297.7 289.8 288.1 284.6 279.1 285.4 284.1 279.3 278.3 275.3 282.6 283.9 283.7 290.1 295.8 298.4 300.8 303.9 308.5 310.7 312.4 312.4 313.8 317.9 320.2 318.5 315.9 315.4 314.1 312.9 313.7 307.9 306.9 302.3 301.9 306.7 307.4 299.4 304.7 303.9 301.1 299.8 301.3 307.7 305.4 309.1 307.3 306.4 298.1 298.4 300.4 301.5 299.9 298.5 296 291.6 287.6 284 280.4 276.8 271.5 265 258.3 258 257.4 256.3 254.4 252.8 251.1 248.9 245.6 243.1 241.4 240.1 241.7 243.1 246 247 247.4 243.2 241.8 242.5 240.8 238.2 235.5 232.8
322.4 327.8 334.1 336.5 342.2 346.5 352.7 356.5 359.5 364.6 371.7 375.5 381.7 390 397.5 402.9 407.3 404.3 399.9 396.2 392 387.9 385.2 381 375.3 370.9 362.3 354.3 347.8 343.8 338.9 334.7 335.2 332.9 328.5 327.3 327.3 327.2 332.9 334.3 334.6 335.4 334.8 333.8 333.5 332.5 333 339.7 346.3 348 349.8 354.6 356.6 357.5 358 359 362.4 364.4 366.4 364.8 364.1 360.7 357.4 353.9 348.3 341.3 336 329.5 326.3 325.6 322.6 319.5 316.3 312.9 310.7 308.5 309.2 309.9 311.2 308.5 305.7 304.5 304.8 303.1 302.2 306.1 308.3 308.5 309 309.7 309.2 309.9 311.9 312.4 312.8 313.7 312.4 311.7 311.5 310.6 309.6 309.2 307.9 307.7 309.2 309.7 309.5 310.8 309.5 308.3 305.4 301.1 296.6 291.2 287.2 281.8 278.5 272.9 273.2 278.9 271.5 270.6 267.6 268.8 271.8 271.9 274.3 278.8 284.4 286.1 290.7 294.9 299.5 302.5 305 305.8 307 308.5 308.6 308.1 307.5 308.7 305.6 305.2 303.6 299.7 298.1 295 293.5 300.7 298.9 292.5 295.1 295.4 289.9 293.8 293.1 301.1 295.1 297.9 295.6 291.5 289.8 292.2 294.8 296 296.1 294.9 293 291 288.8 285.8 282.5 279.4 273.3 264.3 259.7 259.7 258.3 257.2 256 255 252.8 250 246.9 244.9 245.6 247.9 250.9 258.4 259.8 258.6 255.5 249 250.5 250.3 247.4 247.7 246.5 240.1
321.6 325.3 331.2 336.8 340.3 344.6 349.7 354.6 359 365.6 368.8 374.9 382.8 389.9 396.2 402.2 405.5 404.3 399.5 397.4 390.6 385.9 381.8 376.7 370.5 366.8 358.1 351.2 346.4 343.3 340 339.2 337.7 334.6 331.3 328.3 327.3 327.9 332.6 333.8 333.7 333.9 333.1 332.2 331.6 330.6 331 336.1 342.2 345 345 344.9 344.7 345.8 347.3 349.5 352.6 359 359.2 357.3 357.4 351 344.4 339.1 337.1 333.2 329 325.4 318.1 318.7 316.5 312.9 312.1 309.2 306.6 303.6 303.6 306.9 305.9 302.4 300.3 298.1 298.5 299.1 299.1 301.9 302.9 303.1 304.5 304.8 305.4 307.7 309.3 308.8 309 308.7 307.7 307 306.2 305.2 304.6 303.1 302.2 302.9 304.5 304.3 302.8 302.3 300.9 300 296.7 292.1 288.2 281.8 275.2 272.5 268.7 266.8 269.1 269.5 263.5 263.2 260.1 264.5 264.2 263.9 265.2 270.3 274.1 275.2 278.3 285.7 290.4 297.1 297 294.2 296.4 298.1 297.7 298.8 298.6 298.6 297.2 296.3 293.4 290.3 287.7 284.1 285.8 290.2 290.5 285.4 284.9 284.2 281.9 282.7 282.1 288.1 286.4 287.7 280.1 282 284.9 288.9 290.5 293.1 294.1 294.2 294.1 293.2 291.2 289.9 284.3 278.4 270.5 263.9 260.5 259.9 259.1 257.1 256.2 255.5 253.7 249.7 246.1 245.2 248.2 252.7 256.5 261.1 263.5 263.5 259.8 255 254.8 252.7 251.7 253.2 255.4 254.3
319.2 324.2 329 334.4 338 342.1 347.1 351.4 355.4 361.8 366.4 372.1 380.2 387.2 394.7 398.7 402.9 400 398.3 397.8 392.3 386.6 384.9 383.8 374.5 365.1 355.6 349.5 345.9 344.7 342.8 342.1 341.3 337.2 334.1 330.2 329 327.3 331.5 332.4 332.7 332.6 332.3 331.5 330.1 328.6 329.9 332.2 340.2 343.9 342.8 342.4 341.8 341.1 343.1 343.8 345.7 349.7 352.8 351.5 348.9 344 338.6 332.5 325.9 324.2 323.1 321.5 316.9 313.1 311.8 308.9 308 305.9 303 300.8 301.7 301.4 299.8 296.8 294.4 292.6 294.2 293.8 296.4 297.2 298.1 298.4 299.7 299.3 302.5 304.5 305.8 305.9 306.8 304.7 303.2 302.2 300.8 298.5 298.5 298.7 298.8 298.2 297.3 295.2 294.9 294.4 294.3 292.1 289.3 284.5 278.1 271.9 266.6 262.3 263.2 265.4 262.5 255.9 258.7 261.2 252.9 254.7 252.1 252.8 256.1 260 262.5 265.1 268.4 273 277.9 281.4 283.7 283.9 287.6 290.5 289 289.2 289.9 289.8 289.2 286.3 282.7 278.2 276.7 276.4 282 284.4 284.4 283.2 277.6 273.1 275.9 275.9 274.5 273.3 275.7 272.9 273.2 276.6 280.1 284.4 287.9 289.8 291.7 294.4 295.4 295.5 295.7 290.3 282 274.4 264.8 261.9 259.7 259.3 258.6 256.8 257.3 257.8 257 253.7 250.5 247.3 253.4 258.2 260.2 263.8 266.2 266.1 264.3 263.4 260.7 259.9 262.2 267.3 267.5 267.7
318.5 322.1 326.4 331.2 336 340.3 344 349.4 354 357.6 362.4 368.2 376.5 383.6 388.4 395.8 402.4 398 393.9 393.6 389.4 385.1 385.7 385.5 379.1 369.8 362.2 354.4 349.5 346 345.6 344.5 343.7 339.1 336.1 331.4 329.9 327.2 329.8 330.4 331.3 331.9 331.6 330.6 329.3 327.8 329 332.7 336.2 340.3 340.5 340.7 340.1 339.3 340.4 341 341.6 341.4 344.8 347 343.6 339.6 335.9 331.3 324.9 319.4 319.4 316.2 312.7 308.4 308.2 305.2 302.9 301 297.8 296 297.6 296.1 293.2 290 289 286.3 287 281.2 289.3 289.8 290.3 291 291.7 293.5 297.9 300.3 300.9 301.8 301.3 299.9 297.9 296 293.8 291.6 291.1 291.5 290.9 290.8 290.1 289.4 287.7 287 287.8 286.3 281.9 275.5 274.2 268.6 257.8 253.3 258.8 256.6 256.8 246.6 252.8 253.2 246.5 243 239.2 244.7 246.7 250.3 254.6 252.5 257.6 263.2 267.2 269.5 272.6 276.1 278 279.3 279.3 279.6 280 279.7 279.2 274.1 271.9 268.2 267.6 268.4 271.6 274.3 274.4 268.5 261.4 263.3 270.5 267.7 266.3 262.6 261.3 268.2 267.5 271.3 275.7 278.8 283.1 284.9 287.3 291 292.8 292.6 289.6 282.7 275.9 266.5 260.9 256.8 257.6 258.1 257.9 259.9 264.2 266.6 264.8 262.1 259.8 257.8 259.9 264 268.9 273.9 275.4 275 274.6 272.3 268.7 269.9 275 277.6 276.2 276.1
316.3 320.5 324.4 329 332.7 339.2 341.5 346.9 353.1 356.2 358.3 362.3 368.1 374.5 379.7 389.3 393.6 391.8 389.2 386.2 384.4 383.4 381.2 380.2 375.3 369 364 357 353.6 350.4 349.8 347.6 344.7 340.7 336.7 333 329.5 326.8 327.4 328.4 330.4 331.1 330.7 330.1 329.2 327.5 330.1 333 336.1 338.9 339.4 339.2 338.1 338.8 340.2 340.5 340.6 340 339.3 335.6 336.3 337.2 334 328.2 322.7 315.1 311.3 311.1 308 303.1 302.5 300.4 299 296 292 290 290.9 287.8 284.6 282.9 281.2 278.8 277.4 276.4 277.9 280.3 280.8 281.9 283.6 284.8 288.9 291.2 292 292.9 291.9 290.7 288.6 287.1 284.9 284.2 284.8 283.8 283.8 281.7 280.9 279.7 279 278.8 279.2 274.5 272.6 271 265.9 253.5 250.1 245.1 244.2 249.3 249 244.2 245.4 241.6 233.9 232 233 238.5 240.8 243 245.9 244.5 248.9 252.9 256.4 260.3 266.9 269.5 268 267.1 268.9 268.7 267.9 266.5 262.7 259.7 258.1 255.8 258.1 258.2 259.2 256.9 253.4 251.5 253.1 259.5 261.8 263.1 256.3 248.8 256.3 262.7 261.1 264.1 268.1 271.7 274.4 278.4 279.6 281 282.1 280.3 277.1 268.9 262.8 254.5 252.5 255.1 256.4 257.5 259 263.2 267 266.6 266.6 266.7 266.8 266.2 268.9 273.4 279.1 279.7 282.3 283.5 286.2 280.1 271.5 277.8 280 283 290.1 291.1
315.1 317.2 320.7 325.5 329.4 335.1 338.8 343 350.7 356.4 357.4 358.7 361.8 365 370.8 376.5 379.3 380.2 381.6 380.3 379.9 382.4 378.3 375.4 370.6 366.4 361.8 357.5 356.3 356.6 355.6 351.7 346.9 341.6 337.8 335 329.4 326.7 326.8 325.7 328.7 328.6 329.6 329.5 328.4 327.1 330.9 333 336.3 338.3 338.7 338.5 337.6 338.5 340.3 342.3 341.6 340.7 339.5 334.3 329.4 326.3 326.2 323.1 318.5 311.9 306.2 306.6 303.4 300.2 297.6 296.4 293.5 290.4 285.6 283.8 284 280.9 276.8 275.3 273.7 271 266.8 264.8 267 269.3 269.8 271 271.4 273.5 278.3 279.2 279.1 280.4 281.3 281.6 280.3 277.3 274 272.4 270.6 270.7 269.6 269.5 268 267.6 268.2 270.5 268.4 265.2 263 260.5 256.5 242.2 240.1 237.4 231.7 238.9 238.2 235.4 238.7 228.8 228.5 227.8 227.7 230.6 233.6 235 234.2 238.8 242.1 244.4 248 252.4 255.6 254.9 254.8 256.8 258.2 257.5 256.5 254.2 250.9 248.4 246 247.5 246.6 246.4 245.7 237.8 235.4 240.5 244.7 247.4 248.6 246.1 237.7 246.7 253.6 257.5 253.4 255.8 260.4 261.1 265.4 269.7 270.1 271.2 271.8 269.9 262.5 259 253 247.5 243.2 243.8 245.9 250.8 255.8 259.1 261.5 264.5 267.6 270.4 274.6 277.8 282.7 287.6 286.3 288.5 295 299.4 295.9 288.5 278.4 289.7 295.6 295.5 296.6 304.6
311.3 315.1 318.8 321 325.7 331.3 334.9 339.2 344.3 349.1 352 355.5 355.6 358.2 362.5 367.6 372.1 374.7 376 376.2 377.3 379.2 376.4 372.5 369.5 365 361.5 360.2 359.9 360.7 356.7 352.9 347.8 342.3 338.3 333.9 329.8 326.3 323.4 322.9 323.5 324.9 326.4 326.5 324.6 327.1 333.3 337.2 339.8 339.2 339.5 338.7 338.5 337.4 339.4 342.3 342.5 339.6 339.6 335.3 330.8 325.6 319.3 316.3 313.2 309 302.7 303.6 299.6 295.7 293 290.2 286.6 282.5 278.2 278.3 275.5 272.6 268.6 265 262.6 259.5 257.6 255.2 256 257.1 257.1 258.5 260.2 261.3 267.3 267.2 268 268.8 268.5 267.8 268.6 268.5 265.9 263 262.8 260.8 259.1 258.1 255.6 254.7 255.8 258.2 256 252.4 248.1 248.4 243.1 234.7 231.6 230.8 228.8 225.3 226.6 225.6 226.2 228.4 223.2 222.1 220.8 221.5 224.2 225.2 228.9 228.7 231.1 234.7 240.3 245.2 244.4 242.3 243 248.4 249.8 248.1 246.4 243.5 239.1 237.2 234.9 235.9 233.7 232.2 229.4 224.8 224.9 225.9 229.6 232.4 230.6 232.7 239.5 245.1 245.4 244.3 242.5 246 249.9 254.6 258.9 260.2 262.5 260.5 260.6 258.2 253.6 250.1 242.8 239.1 238.3 238.9 242.9 246 253.2 254.4 259 264.1 268.6 276.3 283.6 286 291.7 293.7 298 297.5 297.7 296.2 294.2 291.1 286.7 292.7 302.3 308.6 307.4 304.4
308.1 312.5 316.5 318.1 323.9 329.7 333.4 337.2 340.3 345.5 348 349.7 352.3 355.2 356.5 361.3 369 371.4 373.1 372.4 372.7 371.4 370.4 368.2 365.4 362.8 360.9 361.2 359.9 359.7 354.9 351.8 347.1 341.1 337.4 333 328.7 326.3 324.9 321.2 321.4 321.4 322.3 322.6 324.2 331.4 339.6 341.9 344.4 347 344.8 341.7 340.1 336.7 336.5 337.9 341.6 338.6 337.7 335 329.9 324.9 319 314.6 310.8 304.4 300.1 302.2 297.4 292.4 287.5 283.6 279.3 274.6 270.1 268.5 266.2 263.1 259.4 255.7 251.4 249.8 244.9 246.6 246.5 246.8 247.9 248.2 249.6 250.7 257.1 256.3 257.1 257.4 257.5 257 256.4 256.1 254.6 253.1 251.8 250.6 248.6 246.8 244.6 243.3 239.7 242.7 240.3 237.3 234.2 230.2 230.1 227.3 224.7 224 221.8 218 218.9 220.4 218.6 220.9 219.4 216.3 216.6 215.3 217.6 219.6 220.2 220.8 224.9 228.1 233.8 234.6 234.5 231.8 234.9 238.6 237.9 235.9 232.4 228.7 228.2 225.7 224.5 223.7 222.2 219.4 217.4 216.6 219.3 218.5 215.9 220.4 223.7 229.1 235.5 233.7 235.3 234.2 233.4 239 241.6 241.7 242.4 246.2 246.1 245.4 244.8 243 242.8 237 234.9 235.8 233.7 236.7 238.8 239.5 239.9 250.3 257.6 262.1 266.5 275.6 286.8 293.3 301.4 305.4 304 302.1 293.1 281.1 283.4 281.3 290.2 291.6 296.7 300.3 302.9 298.6
305.4 308.6 313.8 316.6 321.7 327.1 331.8 336.4 339.6 343.7 347.7 348.4 348.7 351.5 353.5 354.7 357.4 363.1 364 364.9 364.9 365.6 363.7 362.1 359.6 360.1 360.9 361 360 356.3 352.6 349 344.5 338.8 335.3 331 327 324.5 323.2 320.3 319.2 318.7 319 320.6 322.4 331.1 338.1 340.4 344.9 348.2 345 342.1 338.7 335.4 334.7 335.3 335.3 335.7 333.6 331.4 326.1 320.7 317.9 315.1 309.4 302.7 295.3 296.2 291.5 286.3 281.6 277.4 273.2 267.4 263.1 260 256.3 252.6 248.6 244.8 239.5 238.8 236.8 235.4 235 236.2 237.4 236.2 236.8 237.6 243.2 243.2 243.2 243.1 244.6 245.1 243.6 243.3 242.6 242.5 240.9 239.3 238.3 234.5 233.9 233.2 227.9 230.5 227.2 223.7 220.8 221.1 222 221.1 219 217.2 217.3 215 214.5 217.1 215.5 215.7 213.8 211.6 212.8 213 210.1 215.8 213.8 214.9 218 220.5 223 223.2 223.1 221 224.6 226.2 224 223.1 221.2 220.3 219.6 218 220.2 220.1 217.3 214.1 211 208.3 205.5 205 209.2 218.3 218.6 218.8 213.6 223 225.8 222.9 229.8 232.7 230.7 224.6 225.4 227.2 229.5 228.9 225.5 228.7 230.5 227.7 228.3 227 232.6 234.9 237.3 236.9 236.9 242.8 248.2 256 263.8 268 279.4 289 299.5 302 302.6 296.5 282.2 276.1 275.2 272.6 281.7 280.6 286.7 288.1 289 285.6
300 305.2 308.7 313.5 319.1 324.7 330 334.1 338.9 342.4 343 345.3 346.6 347.6 349.7 350.3 350.5 351.8 355.5 357.6 359.3 360.8 359.2 357 355.8 356.4 358.1 358.3 357.7 352.4 348.7 344.9 340.1 335.5 331.4 327.2 324 321.2 320.6 318.1 316 315.5 316.4 317.3 317.4 327.9 334.4 335.7 339.8 342 339.3 336.1 333.7 332.3 331.1 332.9 331.5 328.9 325.8 321.3 318.2 317.5 317.3 315.3 308.6 302.8 295.7 288.2 282.9 277.8 273.9 270.1 265.7 259.8 256.1 253.4 249.4 244 239.8 234.4 231.4 228.7 225.7 224.1 224.1 226.7 226.1 224.5 223.6 221.7 225.5 226.4 228.6 229.8 230.6 229.9 229.7 229.4 229.6 230.3 230.3 229.5 227 227 224.9 223.5 219.5 220 217.2 214.1 212.6 213.1 213.5 212.9 211.7 211.1 211.7 211.5 209.2 209.6 210.6 209.7 208.8 208.4 210.3 209.4 206.3 205.5 206.9 209.4 211.7 212.3 213.6 213.5 212.7 214.3 216.6 217.2 217.5 218 216.8 215.6 211.4 213.9 219.1 218.3 213.5 207.7 202.9 202.7 196 194.7 199.1 203.6 203 203.5 204.3 206 209.8 213.9 218.9 211.9 210.8 213.8 213.8 210.7 213.9 212.1 209.1 210.1 211.1 210.4 209.6 214.6 221.7 223.9 224.2 228.4 233.5 236.1 238.4 243 248.6 254.7 263.8 274.4 284.5 287.9 287.2 280.7 268.1 268.2 264.4 269.3 269.8 264.3 267.2 268.9 270 262.4
295.8 303.6 307.1 309.9 315.8 321.7 327 331.9 338.3 341.7 341.8 344.2 345.5 347.5 348.2 348.3 347.6 348.2 348.7 349.3 354 356.7 354.9 352.9 351 351.4 352 351.7 351.5 346.8 343.5 339.3 334.8 330.4 326.7 323 320 318.6 315.8 314.5 310.1 309.1 313 314.1 315.8 324.1 327.6 328.4 332.7 335 332.9 330.9 330.3 331.1 329.3 329.1 328.1 326.3 321.9 318.2 315.3 314 315.7 313.1 306.9 300.1 294.5 287.4 281.9 274.3 269 265 259.5 254.1 250.7 247.2 242 235.7 231 226.7 223.2 219.9 216 213.3 212.6 213 211.2 210.7 209.5 207.9 213.2 213.6 214.7 216 216.3 215.1 214.7 214.8 215.8 216.5 216 217.6 215.7 215.9 213.2 211.3 210.7 210.4 208.2 205.8 207.1 208 206.3 205.4 206.5 207.2 207.4 205.3 205.2 204.5 204.3 205.1 205.4 204.4 205 203 202.5 202.2 200.9 202.9 203.2 201.8 202.7 203.8 204.4 207.9 210.4 211.3 211.9 212.8 210.4 208.7 201 199.8 199.7 197.6 197.6 191.5 189.4 193.7 191.7 189.6 187.1 188.8 199.4 196.5 196.2 199.2 195.6 193.3 188.5 190.6 195.2 193.5 198.9 196.7 197.3 195.8 196 197.2 198.3 195.8 200.5 207.4 210.5 214.1 216.9 222.9 230.7 232.1 234.5 233.1 231.2 235.2 241.6 245.4 259.1 263.4 263.2 260.1 250.6 250.4 252.4 255 250.1 242.9 244.2 249.7 243.2 231.4
292.2 301.1 304.4 307.8 311.9 318.1 323.4 328.1 333.6 338.1 339.3 344.6 346.6 350.4 349.4 348.8 346 344.9 344.2 342.2 343.9 347.7 349.1 347.3 345.1 343.6 344.3 344.7 343.8 339.7 337.4 333.9 329.6 325.1 321.5 318 315.2 313.1 310.9 308.9 306.3 304 307.7 309.9 311.2 317.7 320.3 322.5 325.6 324.7 324.6 322.7 322.2 325.2 325 323.6 325 323.9 320.2 315.5 311.4 308 310.4 306.8 301.4 294.9 288.5 282.6 276.5 271.2 264.6 259.4 254.4 249.7 246.1 241.1 234.6 228.5 223 218 214.9 211.7 210 204.9 202.7 202 200.5 198.2 198.6 194.4 198.8 199.6 199.3 199.4 199.7 200.3 199.8 200.5 202.9 203.4 204 204.3 203.6 202.1 202.8 200.1 200.5 201.7 201.1 199.3 198.1 198.9 198.8 197.3 201 201.4 202.7 203.5 199 200 200.2 202.7 201.1 201.4 203.4 203.4 198.9 197.7 193.6 197 193.8 192 190.7 190.2 190.4 193.9 197.3 199 198.9 196 192.1 187.6 189.5 192.2 189.7 184.9 181.5 184 183.4 185.7 185.6 184.4 182.6 181.8 179.8 178.2 180.5 178.5 178.2 179 178.1 182.4 182.5 185.5 186.2 185.7 182.9 176.9 174 180 180.9 187.6 193.7 197.2 202 208 213.8 216.6 219.5 220.6 221.9 221.4 220.4 220.2 224.4 228.3 231.8 240.5 243.2 241.3 236.1 230.8 231.1 233.8 229.2 220.8 219.3 221.5 217 208
290.5 299.1 302.3 304.9 308.2 313.8 318.6 324.2 328.7 334.3 337 342.7 348.2 353.4 354.8 351.4 346.9 342.2 339.3 338.6 337.5 337 341.3 338.9 338 335.4 336.4 337.7 338.3 334.5 331.2 327.1 323 319.3 316.4 313.1 310 307.7 305.6 303.8 302.2 299.5 301.3 303.2 304.1 307.5 309.6 313.5 317 317 317.6 315.8 313.9 314.5 315.1 317.6 316.1 316.3 312.1 308.5 303.6 299.5 298.2 295.4 290.8 285.5 280.8 275.9 272 266.1 260.5 254 248.2 245.2 239.9 233.2 227.7 221.6 216.9 211.6 208.6 205.4 201.4 199.2 193.1 194.2 190.3 188.1 187 186.2 188.6 188.8 188.9 189.2 189 189.6 189 189.7 189 189.7 189.8 189.2 188.6 187.6 188.3 188.8 189.2 189.5 189.9 191.2 192.1 191.4 188.7 187.5 193.5 194.5 196.3 196.8 194.8 192.4 195.7 197.4 194 196.7 198.8 197 193 191 186.9 191.9 184.3 184.5 182.2 182.5 177.7 176.1 176.1 175 176.1 172.1 169.2 175.9 175.3 173 172.6 171.7 172.7 175.9 176.9 183.3 181.9 181.1 180.2 177.7 175.6 174.3 168.1 165 168.3 172.1 172.4 171.8 171.8 176.5 180.1 177.8 173 169.5 163.1 156.2 161.5 172.6 177.4 178.4 184.7 194.2 200.8 210.1 212.1 213.8 213.2 211.3 209.5 212.7 216.9 225.8 231.8 233.1 227.8 223.3 218.9 210.7 209.3 207.1 205 198.9 196.9 197.8 188.1 174.1
287.8 294.4 299.9 301.5 303.6 309.4 315.3 319.7 324.1 328.8 333.4 338.4 347 347.6 352.3 355.1 348.9 342.1 335.6 332.1 332 329.9 329.9 331.7 330.9 328 328.7 330.3 330.6 328 324.5 320.4 316.4 313.7 310.8 307.4 304.2 302.2 300.5 297.8 296 294.1 293.5 293.8 293.8 296.4 297.7 302.5 308.2 310.6 310.1 307.8 305.3 303.1 305.3 306.8 304.5 303.5 300.9 297.3 293.8 291.5 290.8 288.1 284 280.9 276.4 271.3 266.5 261.1 254.9 249.2 244.8 239.2 233.8 227.1 220.6 215.1 212.2 206.5 202.7 199.5 195.9 188.9 189.2 186.2 184.1 180.7 177.7 175.6 177.8 178.8 180.3 180.9 179.1 180.8 180.3 180.2 180.2 179.3 179.4 178.7 177.7 179.8 178.5 177.9 177.3 177.7 177.1 182.6 185.1 183.5 180.7 179.9 183.8 186.8 186.9 187.5 186.9 186.8 186.6 185.8 185.9 188 187.8 185.3 182.3 179.1 176.1 177.6 172.3 170.6 169.2 167.1 165.1 159.9 159.9 158.6 159.4 156.1 160.7 163.7 165.8 170.8 173.7 172 168.5 167 168.2 172.3 179.3 176.4 167.6 162.9 159.2 160 160.7 162.5 163 163 165.2 165.6 166.6 170 170.7 165.8 163 157.8 150 143.5 149.4 154 164.4 169 176.4 179.8 189.8 195 197.1 198.2 195.8 196.5 202.5 204.5 208.5 215.4 220.9 221.8 219.6 219.5 214.1 202.5 197.6 194.5 189 179.8 175.6 176.9 164.1 151.5
284 288.6 293.9 298.4 298.7 304.3 310.5 315.2 319.4 324.6 329 332.5 336.8 339.5 344.3 344.5 341.9 336.8 331.2 327.9 325 323.2 321 323.2 322.5 321.6 321.9 322.7 322.5 319.7 317.2 313.6 310.1 307.5 304.6 301.6 298.3 295 293.4 290.4 289.4 288 287 286.3 285.3 286.7 287.7 292 299.9 300 299.4 297.1 294.8 292.2 290.1 293 291.4 288.5 285.9 286.2 285.7 282.3 282 279.9 275.6 273 267.5 261.5 257.7 252.8 247.6 240.8 236.7 231.6 223.6 218.5 216.8 209.6 202.8 199.5 194.9 190.8 188.7 184 182.3 176.6 176.6 174.4 170.5 168.2 168.4 168.3 168.2 168.3 167.6 167.1 166.6 168.4 168.5 167.3 170.7 170.3 170.2 169.4 168.9 169.7 167.9 166.7 166.3 168.6 169.4 171.5 171.6 174.4 175.6 178 178.4 178.9 173 178.6 178.2 177.4 179.7 179.6 176.8 178.7 174.4 172.3 171.7 164.9 164.9 162.9 162.5 158.7 157.5 150.9 147.1 146.8 148 150.2 138.7 139.6 162 162.1 160.1 158.2 157.2 158.5 158.2 168.2 161.8 154.4 155 159.1 160.1 160.7 162.3 162.5 162.2 160.3 158.6 158.7 158.1 158 160.3 158.3 152.1 152.4 140.5 139.2 140.3 150.7 159.6 166.7 171 176 182.2 181.2 182 182.7 184.6 187.5 194.2 198.4 201.6 207.2 208.3 207.6 206 203.7 204.2 192.8 184.9 180.8 173.2 164.4 161.3 152.6 146.7 138.9
282.9 284.3 286.7 291.8 294.5 298.7 305 310.2 315 320.3 325.2 329.7 330.2 330.8 331.8 336.1 331.5 328.3 324.7 323.2 319.8 317.5 314 314.4 312.8 313.2 315 315.2 315.8 313 310 306 302.6 300.1 297.4 294.3 291 287.5 285.4 282.6 281.5 280.8 279.7 279.6 277.5 277.4 279.1 280.7 285.6 289.3 287 285.7 283.6 281.6 279.5 279.2 279.6 275.8 273.9 273.2 271.6 271.5 272.9 270 266.9 262.2 256.6 251.8 247.6 242.9 236.9 231.8 228.3 221.5 213.5 210 205.7 200.9 194.7 191.6 187.4 184.7 182.9 180.4 175.4 174.7 169.1 168.8 166.5 165.4 161 161.1 157.6 158.7 156.9 155.3 154.5 154.9 157.9 158.7 160 159.4 159.5 158.6 160 162.1 164.1 156.2 157.7 157.2 158.8 164.9 164.9 164.5 166.3 166.2 169.1 166.3 170.9 168.8 171 169.3 168.4 168.9 170.1 169 166.5 162 161.3 158.9 156.9 155.4 154.1 151.7 148.7 142.4 138.6 136.1 135.1 135.2 136.9 145.6 145.1 144.7 146.6 146.9 146.9 146.8 150.9 151.8 149.4 155.7 159.5 165.5 171.2 172.5 169.6 167.2 163.9 163 161.3 157.6 157 155.2 152.2 149.1 141.9 139.8 130.8 129.9 134.3 140.8 148.1 156.1 161.3 168.5 172 171.8 173.8 172.1 172.4 175.5 181.9 187.1 193.2 197.2 195.8 192 189.8 187 188 180.5 172.4 165.5 159 152.7 146.8 139.4 134.5 131.6
281.5 280 281.8 283.4 291.6 294 298.7 304.6 310 316 321.1 325.5 327 328 326.8 323.9 322 321 318.5 316.8 313.4 311 309.5 306.7 306.2 301.4 307.4 307 308.2 305 301.5 297.8 294.1 291.8 289.8 286.4 282.9 279.4 277 274.9 273.1 272.6 271.3 271.4 270.3 268.8 270 270.6 273.2 278 275 273.4 271.8 270.8 269.4 268.4 268.2 264.7 262.4 262.5 261.1 260.4 260.3 257.6 253.8 249.4 244.5 240.4 236.3 231.1 226.7 221.2 216.5 210.5 205.3 203 197.6 190.9 186.7 184.5 182 178.3 177.6 173 171 167.3 162.7 160.8 162.5 159.3 155.3 154.2 150.4 151 149.5 146.7 145.2 146.5 147.5 148.6 149.7 150.5 149.2 148.8 149 150.4 151.7 148.9 153.4 155 152.4 155.8 156.5 157.8 164.3 157.2 160.8 159.1 161.8 162.8 164 161.9 163.4 163 164.7 163 159.7 155.5 151.6 150.1 146.2 153.8 148.8 137.7 136.9 133.4 132.7 126.8 134.3 129.9 127.1 132.6 140 146.7 146.5 143 143 140.1 138.3 141.7 147.5 153.6 158.9 161.3 167.4 170.2 169.2 167.9 167.7 166.3 162.2 161.7 157.6 153 147.5 144.1 138.3 133.8 125.3 119.8 124.9 135 139.5 142.7 146.3 152.3 156.5 158.2 156.7 162.7 169.4 169.6 171.1 172.7 180.8 184.1 180.2 184.2 178.6 174.8 171 159.2 160.4 156 148.5 141.2 136 131.1 126.7 122.4
279.9 277.9 278.2 280.6 284.6 287.2 293.5 297.8 302.8 309.6 316.3 319.1 321.3 326.9 323.3 319.5 315 312 311.6 311.3 308.9 304.9 303.6 301 298.5 297.3 292.9 295.4 296 294 291.2 287.6 284.8 282.2 280.4 277.5 274.3 271.1 267.9 265.5 264.4 263.1 261.8 262.3 257.3 258.7 259.2 259.8 261.2 263.3 262.5 260.7 259 257.7 257.3 255.7 255.4 255 251.4 249.2 249.3 247.3 246.7 244.8 240.8 236.7 232 226.6 223 218.8 213.8 210.7 206.3 201.3 197.1 194.4 188.2 185.9 181.4 179.3 178.2 173.8 171.9 165.4 164.2 159.2 159.7 155.2 155 152.8 149.8 147.7 147.4 144.2 142.9 140.6 137.5 140 139.7 140 141.3 137.8 136 137.6 137.4 139.4 142.1 141.9 141.9 142.4 147.1 145.6 147.6 147.7 147.3 147.7 141.6 137.7 153.7 159.3 156.7 159.7 161.3 157.7 155.6 153.5 148.9 143.7 144.3 139.9 136.1 141.3 137.7 131.5 126.6 126.6 122.7 124.8 124.8 125.7 124.8 134.9 137.9 129.4 128.4 128 130.4 132.8 134 140.6 145.4 150 155.5 159.5 160.1 163.5 164.6 162.6 161.5 160.2 156.9 154.9 150.9 145.1 139.8 139.4 136.1 128.4 122.6 117.9 116.3 119 120.3 128.4 132.9 142 143.8 142.8 146.1 152 152.9 153 156.5 162.5 161.9 166.4 174.2 173.5 171.6 160.6 150 145.5 142.2 142 138.3 131.9 128.6 124.6 121.2 119
279.8 278.2 276.6 278.1 279.5 283.3 287.2 290.5 295 301.4 308.1 311 314.3 316.1 315.1 312.5 309.6 308.8 305.8 303.8 303.2 298.7 296.9 294.5 292.8 290.3 287.4 285.3 284.2 283.2 281.1 278.9 277 273.9 270.9 267.6 264.6 261.9 259.2 256.3 254.8 252.6 250.9 253.4 246 246.7 246.5 247.1 246.3 246.2 246.9 245.1 243.9 242.6 241.6 240.3 239.3 240.9 238.3 236.1 235.1 232.6 232.3 229.9 226 222.9 219.6 214.3 211 206.5 201.4 200.1 196.5 191.1 187.8 181.1 180.6 178.5 177.1 171.6 171.3 166.9 161.2 160.1 157 155.8 151.2 146.6 145.7 144.8 143.6 141.6 139.7 137.6 135.4 133.9 131.2 132.8 131.1 129.5 128.4 127.3 127.1 128.4 126.3 128.5 129.7 132.1 135.4 133.1 134.1 132.7 135.9 137 136.4 136.7 140.6 126.5 133.7 141.7 138.2 150 148.8 143 140.1 133.1 134.8 131.3 130.3 130.2 129 126 124.8 122 121.1 123.9 118.6 118 121.3 121.3 122.2 121.5 121.2 120.2 120.3 128.8 130.3 131.4 133 134 143 148.4 146.3 144.7 146.1 151 154.4 157.5 157.5 154 149.7 144.7 141.8 138.3 134.8 128.8 129.9 120.6 117.6 114.1 110.6 110.6 110.6 113.4 118.8 130.4 127.1 134.4 136 136.7 139.5 146.9 148.3 145.3 145.2 143.2 146.9 150.9 146.5 140.7 136 142.5 132.7 130.6 124.7 123.4 120.6 116.9 118.5 117.2
279.5 276.3 275.8 275.1 275.5 278.1 280.3 285 287.6 293 297.5 303.3 304.9 305.8 304.6 302.6 303.3 303.9 301.7 297.8 294.5 292 290.6 289.6 288.3 285.1 281.7 279.6 277.1 270.8 272.6 270.8 268.4 265.2 262.4 259.8 256.7 253.7 251.1 247.2 244.6 241.9 238.7 242.1 236.3 234.9 234.3 233.7 233.6 232.3 231.1 230.3 228.3 226.2 224.3 222.4 225 225.3 224.4 220.8 219.8 217.7 216.9 214.3 210.9 209 205.7 202.5 198.9 197.4 192 191.1 186.2 182.9 180.5 176.1 173.8 172.4 166.2 163.5 165.3 157.1 155.9 154.6 154.1 146.9 141.7 142.6 139.4 139.1 134.8 135.3 134 132.4 130.3 127.9 125.1 126.4 125.7 123.9 121.5 120.2 119.3 118.3 118.8 119.2 119.6 120.3 123.3 122.9 123.2 123.6 125.3 124.2 125.7 123.3 124.9 123.9 119.9 124.4 122.7 125.6 123.6 121.3 121.1 120.9 120.8 120.4 120.1 120.4 118.8 118.4 115.3 117.8 116.8 117.6 116.3 119.4 117.8 117.4 117.5 118.7 118.4 120.7 122.3 124.4 124.4 125.8 126.3 128.3 129.9 129.3 128.8 131.8 135.6 140.3 143.4 143.6 140.8 140.3 135.6 133.8 130.8 128.1 126.1 122.6 120.1 118.5 113.8 110.6 110.6 110.6 110.6 110.6 110.6 111 115.5 117.7 120.4 123.8 127.9 129.7 126.2 124.3 126.9 131.3 135.5 143.2 131.7 132.3 137.9 137 131 121.5 122.3 120.4 117 115.1 115 115.7
280.3 276.1 273 273.9 272.5 273.3 275.5 278.1 282.9 288 292.4 297.4 298.9 300.1 300.4 298.9 297 296.7 296.5 293 289.1 286.3 283.3 280.1 279.1 277.5 275.3 273.7 270.8 268.6 265.5 264.2 261.4 258.6 254.4 252.2 249.1 246.2 243.5 239.4 235.7 233.5 230.9 229.4 226.2 223.7 222.5 221.3 219.8 219.7 218.7 217.6 215.9 214.2 211.8 210.2 208.3 208.1 206.4 207.9 205.9 203.4 203 202.3 199.2 198.4 195.6 191.7 187 185.4 183.2 180 177 173 169.5 164.7 163.4 160.7 157.3 156.7 153.2 148.6 149.9 142.3 148.3 141.5 135.7 135.7 132.5 132.7 131.5 129.1 128.8 127.1 124 123.6 122.6 120.9 119.7 117.9 117.1 115.3 115.4 115.1 115 114.1 114.3 115.3 114.9 114.7 116.1 119 117.9 118 116.5 116.8 118 119 119 118.7 119.4 117 115.3 114.7 115.3 114.7 113.5 113.3 112.7 113.4 114.7 114.2 113.6 113.2 113.7 114.3 114.4 115 115.6 114.3 113.5 113.7 114.4 118 121.9 125.9 128.3 128.8 129.2 128.5 127.1 125.8 125.8 126.2 133.7 130.4 131.1 132.4 132.6 131.9 130.6 129.5 129.5 125.5 121.7 117.1 110.6 110.6 110.6 110.6 110.6 110.6 110.6 110.6 110.6 110.6 110.6 110.6 111.6 112.1 110.6 110.6 110.7 110.6 111 112.8 113.6 112.9 113 112.3 112.3 113.5 113.2 113 110.6 110.6 110.6 111.5 114.3 115
283.4 280.3 274.4 272.6 272.3 272.1 272.2 272.2 276.3 282.2 285.2 289.3 291.2 292.6 293.1 293.3 293.5 291.3 289.4 285.3 283 281.2 278.1 273.9 270 269.2 268.8 266.4 262.4 260.8 258.6 254.8 254.7 250.5 247.1 243.9 241.6 238.2 234.4 231.7 228.5 224.4 221.4 218.3 216.9 213.1 211.8 210.2 208.5 207.4 207 206 204.7 203.2 201.6 200.4 199.9 198.3 196 194.7 196 192.7 191.3 186.4 186.1 185.7 187.2 184.1 180.3 173.8 170.9 169 166.8 162.8 158.2 154.5 150.5 150.3 151.2 145.5 143.7 142.8 143.4 136.3 135.1 133.2 132.2 130.2 127.6 126.3 125.5 124.4 123.1 121.2 119.4 116.6 116.5 114.9 113.7 113.7 113.2 112.9 112.9 112.6 112.3 111.9 111.9 111.7 112.3 112.6 112.7 113.3 113.3 112.7 112.5 112.8 113.5 114.8 117.2 116.9 117.2 116.1 115.1 115.7 115.4 113.3 112.8 112.2 112.2 112.1 112.1 112.1 112.1 112.2 111.7 111.7 111.7 111.7 112.1 116.8 113.2 112.9 113.4 117.9 126 128.5 128.1 130.5 130.1 126.8 126.7 124.4 117.8 117.7 118.3 121.7 118.7 122 125.9 128.1 127.9 126.4 125.3 121.7 119.1 110.6 110.6 110.6 110.6 110.6 110.6 110.6 110.6 110.6 110.6 110.6 110.6 110.6 110.6 110.6 110.6 110.6 110.6 110.6 110.6 110.6 110.6 110.6 110.6 110.6 110.6 110.6 110.6 110.6 110.6 110.6 110.6 110.6 110.6 110.6
287.1 285 280.9 275.3 271.5 271.9 271.1 271.7 272.8 273.7 278.3 280.3 282.7 282.3 280.6 280.6 280.8 281.5 281.9 278.6 275.3 272.4 270.2 268 264.9 261.7 258.3 256.6 254.4 251.6 248.8 246.5 241 241 238.3 235.8 230.9 228.7 225.5 222.5 218.5 214.6 210.6 209 208.2 204.9 202.7 201.2 198.7 197.6 196.6 196.1 195.1 193.4 191.5 189 188.4 187.2 185.6 183.4 185.1 186.8 183.2 179.9 173.7 174.9 172.2 169.6 164.9 163.3 163.6 156.1 155 152.7 146.9 145.4 144.6 141.6 138.1 138.4 137.2 134.9 132.3 132.3 126.3 126.7 125.2 122.8 122.1 121.9 120 118.7 117.2 114.8 113.8 113.1 113 113 112.8 112.6 112.5 112.5 112.5 112 111.7 111.7 111.7 112.3 112.3 112.5 112.5 111.2 113.1 113.2 113.1 113.1 112.5 113.3 114.5 114.8 114.8 113.8 113 112.8 113.2 112.3 112.2 112.1 112.2 112 111.9 111.8 111.4 111.6 111.7 111.7 111.7 111.7 111.7 112.8 112.6 112.1 111.9 114.5 116.4 119 117.8 119.8 118.2 116.8 113.5 111.7 111.7 111.7 114.2 114.8 114.4 114.6 116.7 119.3 120.5 119.1 122.1 118.1 110.6 110.6 110.6 110.6 110.6 110.6 110.6 110.6 110.6 110.6 110.6 110.6 110.6 110.6 110.6 110.6 110.6 110.6 110.6 110.6 110.6 110.6 110.6 110.6 110.6 110.6 110.6 110.6 110.6 110.6 110.6 110.6 110.6 110.6 113.5 111.8
291.1 288.3 282.9 280.1 275.4 269.9 268.8 268.4 269.2 270.5 272.5 272.7 272.1 271.7 271.1 272 272.6 272 269.7 267.2 265.5 262.8 261.2 258.3 256.2 253.1 249.9 248.2 245.2 242.5 240 237.2 235.2 231.7 227.9 225.9 222.3 220.2 216.9 213.3 209.5 205.5 200.7 200.1 198.8 195.7 193.9 192.2 189.6 188 187.4 187.1 186.9 185.1 183.4 179.4 178.5 177.7 174.9 171.9 173.6 174.1 175.9 169.5 167.6 165.3 158.4 157.6 153.1 152.8 149.3 146.6 145.7 142.1 138.7 137.3 134.9 131.1 130.8 131.6 127.8 124.8 123.6 122 119.7 119.4 118.4 118.6 117.4 116.7 115.1 114.2 114.1 113.9 113.3 112.7 112.7 112.6 112.4 112.3 112.4 112.4 112.4 112 111.7 111.7 111.7 112.1 111.3 111.1 112.7 111.1 112.7 112.5 112.7 112.6 111.1 112 112.6 113.1 113.6 113 112.6 112.4 112.4 112.2 112.1 112.1 112 111.9 111.7 111.5 111.6 111.7 111.8 111.8 111.7 111.7 111.7 111.7 111.7 111.7 111.7 111.7 111.7 111.7 111.7 111.7 111.7 111.7 111.7 111.7 111.7 111.7 111.7 111.7 110.6 110.6 110.6 110.7 114.7 114.5 110.6 110.6 110.6 110.6 110.6 110.6 110.6 110.6 110.6 110.6 110.6 110.6 110.6 110.6 110.6 110.6 110.6 110.6 110.6 110.6 110.6 110.6 110.6 110.6 110.6 110.6 110.6 110.6 110.6 110.6 110.6 115.8 113.9 116.4 114 112.3 123.9 126.1
294.8 291.1 286.9 281.9 277.4 274.1 269.4 263.3 264.3 266.6 265.1 263.4 262.7 262 261.6 261.1 261 260.6 259.9 257.4 256.1 253.7 252.7 249.4 246.9 245.2 242.4 239.6 236.1 232.8 230.4 228.3 224.7 221.2 216.6 214.8 213.7 209.7 208.6 203.9 199.7 197.1 193.4 191.8 188.8 185.7 184.7 183.8 181.3 180.5 178.3 177.7 176.8 175.6 173.5 172.3 168.6 167.7 166.7 165.5 162.7 160.6 159.9 159.8 161.5 157 152.3 146.1 144.5 141.5 139.8 136.3 134.1 130.9 128.7 129.9 123.6 123.8 120.7 120.3 118.9 118.3 117.5 115.2 115 115 114.4 115.6 115.1 113.7 113.2 113.2 113.4 113.4 112.9 112.6 112.5 112.4 112.4 112.3 112.3 112.3 112.3 112.1 111.7 111.8 112.2 112.4 112 111.1 111.1 111.1 111.5 112.2 112.3 112.4 112.8 111.1 111.6 113 112.8 112.5 112.6 112.5 112.3 112.2 112.1 112 111.9 111.7 111.6 111.7 111.9 112 111.8 112 111.7 111.7 111.7 111.7 111.7 111.7 111.7 111.7 111.7 111.7 111.7 111.7 111.7 111.7 111.7 111.7 111.7 114.8 115.9 116.6 118.3 117 116 110.6 110.6 110.6 110.6 110.6 110.6 110.6 110.6 110.6 110.6 110.6 111 110.6 111.4 111.8 110.6 110.6 110.6 110.6 110.6 110.6 110.6 110.6 110.6 110.6 110.6 110.6 110.6 110.6 115.3 118.1 116.2 110.6 110.6 113.3 115.5 114.5 117.9 118.4 120 126
302.2 296.6 291.2 288.4 284 279.7 275.1 265.3 259 257.6 257 254.7 253.3 253.8 252.6 251.6 249.6 249.3 249.2 248.4 244.7 242.8 242.4 239.1 236.9 236.1 234.1 230.5 226.4 223.4 220.1 217.1 214.8 208.4 208.8 206.8 204.5 200.4 199.8 196.5 192.4 188.3 185.1 181.3 178.5 176.9 174.8 174.3 173.2 171.6 170.7 169.2 167.2 165.6 163.4 161.9 157.4 157.6 156.9 153.9 152.2 150.6 149 147 147 145.9 143.3 140.6 136.7 132.8 130.7 128.3 126.8 125.3 121.2 119.8 117.8 117.9 115 113.3 113.9 112.9 113.5 113 112.8 113.1 113 113 113.1 113.4 113.5 113.2 112.9 112.8 112.7 112.6 112.5 112.4 112.4 112.4 112.3 112.4 112.4 112.4 112.5 112.3 112 111.5 111.2 111.1 112.7 112.9 112.7 112.6 112.2 112.2 112.3 112.4 111.1 112.7 112.5 112.4 112.7 112.5 112.3 112.2 112.1 112 111.9 111.7 111.5 111.8 112.2 111.9 111.8 112.3 111.3 111.7 111.7 111.7 111.7 111.7 111.7 111.7 111.7 111.7 111.7 111.7 111.7 111.7 111.7 111.7 111.7 114 114.4 116.5 117.6 116 110.6 110.6 110.6 110.6 110.6 110.6 110.6 110.6 110.6 110.6 110.6 110.6 111.7 111.5 111.6 110.8 110.6 110.6 110.6 110.6 110.6 110.6 110.6 110.6 110.6 110.6 110.6 110.6 110.6 116.1 119.8 118.5 121.4 119.1 117.6 112.5 115 120.7 123.5 124.5 124.9 126.3
312.3 307.1 301.1 298.5 292.3 283.6 276.7 268.8 261.6 257.2 247.7 243.4 243.6 242.2 241.3 241.7 240.6 239.5 238.5 235.9 234.2 232.2 230.7 229.7 228.6 227.2 224.7 221.7 219 215.7 211.2 207.9 205.3 201.8 192.7 198.5 191.8 191.3 188.2 186.4 182.9 178.4 174.6 171.5 169.1 168.5 165.2 164.1 165.5 162.9 163.2 160.5 157.6 156.3 153.8 152.3 149.7 148.2 146.5 144.4 142.5 140.5 138.5 137.7 136.4 133.7 130.8 127.7 128.3 124.4 121.7 121.3 116.3 116.8 113.6 114 114.7 113.9 113.4 110.9 111.2 113.1 111 113.6 112.8 112.9 110.9 110.9 110.9 111.8 111.1 113.5 113.2 113.1 112.8 112.6 112.5 112.5 112.6 112.4 112.4 112.4 112.4 112.3 113.1 111.1 111.3 112.4 113 113.2 112.9 112.8 112.5 112.2 112.1 112.2 112.2 112.3 112.3 111 112.6 112.8 112.7 112.5 112.3 112.2 112.1 112.1 112.1 111.6 111.6 111 110.9 111 111.5 111.3 111.2 111.4 111.7 111.7 111.7 111.7 111.7 111.7 111.7 111.7 111.7 111.7 111.7 111.7 111.7 111.7 113.7 118.7 121.6 118.5 116.6 112.5 114.8 110.6 110.6 110.6 110.6 110.6 110.6 110.6 110.6 113.4 112.2 112.4 111.8 111.7 111.7 110.7 110.6 110.6 110.6 110.6 110.6 110.6 110.6 110.6 110.6 110.6 110.6 110.6 115.8 119.1 120 122.8 129 124.1 121.2 120.2 117.6 134.1 132.9 133.1 136.1 141.9
326.8 319.6 311.8 303.7 296.9 291.7 278 270 263.5 258.8 251.8 244.6 238.3 228.8 229.5 231.3 230.5 227.1 223.6 224.6 221.3 219.8 218.4 218.2 213.7 211.6 208.9 207.6 206.5 205 201.9 199 196 194.4 191.6 184.7 180.3 181.1 178.4 175.9 173.9 167.6 163 161.1 158.8 160.1 156.2 154.1 155.1 155.3 155.7 153.5 151.1 147.2 145.5 142.9 141.6 140.2 137.4 134.4 131.8 129 128.1 126.4 126.9 125 122.7 122.2 120.6 117.7 114.7 114.3 113.8 113.4 112.6 113.3 112.8 111.2 111 112.4 113.2 113.3 113.6 111.1 113.3 113.4 112 114.1 113.8 113.6 113.3 113 110.9 111.5 113 113.1 112.9 112.8 112.8 112.6 112.5 112.4 112.4 112.4 111.2 111.6 112.6 112.6 112.8 112.4 112.4 112.5 112.2 112.2 112.1 112.3 112.5 112.5 112.5 112.4 112.5 112.3 112.6 112.4 112.3 112.2 112.2 112.2 112.3 112.1 110.9 111.9 111.9 111.7 111.6 111.8 111.7 111.5 111 111.7 111.7 111.7 111.7 111.7 111.7 111.7 111.7 111.7 111.7 111.7 111.7 115.2 120.5 122.1 123.2 122.4 119.4 115.2 111.8 112.9 112.9 116.7 112 112.5 112 110.6 116.7 119.3 121.6 116.7 111.8 111.7 111.7 111.9 111.7 110.6 110.6 111 112 113.6 114.1 111.6 113.2 111.6 113.5 117.5 121.3 130.9 135.7 138.6 139.2 138.4 130.3 121.1 126.8 136.8 140.4 146.5 151 148.9
339.7 327.1 317.6 308.4 299.9 292.2 281.2 270.5 263.4 257.1 248.9 238.9 231.6 219 214.4 218.3 218.2 213.6 209.2 209.3 209.3 208.5 207.6 205.7 203.3 201.1 199.2 197.5 194.9 191.9 190.1 187.7 185 182.8 180.1 171.8 172.1 170.2 170.2 167.6 163.4 160.8 152.3 153.4 149.8 150.1 147.5 147.4 143.5 147.8 147.2 145.3 143.8 142.1 139.7 137.1 133.7 130.7 128 122.5 121.9 121 120.6 117.4 119.5 117.6 116.2 114.1 114.1 113.3 113.3 113.2 113 112.9 111.7 111.2 111.3 111 113.5 113.2 113 113.2 113.4 113.3 111.2 113.1 114.3 114.6 114.1 113.9 113.6 113.3 113.1 112.7 110.9 113.4 113.1 113.3 113.4 113.4 112.9 112.5 112.4 112.5 111.4 112.2 112.8 112.5 112.5 112.5 112.3 112.2 112.1 112.1 112.5 112.4 112.5 112 112.1 112.9 111 112.7 112.5 112.4 112.3 112.2 112.2 111.3 111.8 111.4 110.8 112.1 112 111.8 111.7 111.7 111.7 111.7 111.7 111.1 111.9 111.8 111.8 111.7 111.7 111.7 111.7 111.7 111.7 111.7 114.9 119.3 123.9 124.8 125.5 123.8 120.9 114.5 119.9 117.8 114.2 114.2 114.3 115.2 114.5 115.5 115.4 114.2 113.6 113.6 113.6 113.2 113.8 113.5 113.8 114.2 114.1 114.5 113.8 115.3 116.2 116.5 115.3 124.8 129.1 135 137.1 131.8 132.2 132.2 134.5 127.5 126.1 130.7 143.2 138.2 141.9 151.3 161.5 159.3
348.1 333.9 323.4 314.2 304.7 293.4 279.6 268.3 259.6 250.9 241.6 233 224.2 215.6 205.3 201.1 204.9 203.5 202 199.4 197.6 195.4 194.6 193.4 189.7 186.2 184.3 182.1 178.9 178.3 176.7 176.4 173.4 171.6 169.9 163.4 161.6 159.5 160.5 156.7 154.9 150.9 146.5 145.7 143.3 140.5 139.3 138.8 133.6 139.3 138.3 136.7 135.7 133.9 130 130.3 125 121.6 117.8 117.1 116.7 115.1 114.3 113.7 114 113.9 113.8 113.6 113.4 113.4 113.1 113.1 113.1 112.3 110.9 112.1 112.4 113.7 113.5 113.3 113 113.1 113.6 113.7 114.2 114 113.2 114.3 113.8 113.4 112.8 112.7 113.1 113.5 112.7 111.1 110.8 112.8 112.3 113.1 113 112.8 112.9 111.1 111.9 112.8 112.6 112.4 112.3 112.3 112.4 112.3 112 113.9 112 112 112.3 112.3 112.7 110.9 112.9 112.6 112.4 112.4 112.3 112.2 111.4 111 110.8 111.7 111.2 111.6 112 111.8 111.7 111.7 111.7 111.7 111.7 111.7 112 111.4 111.7 111.8 111.7 111.7 111.7 111.7 111.7 111.7 114.3 119 121.8 125.3 125.9 123.1 119.1 116.4 116 116 115.3 116.2 116.8 116.5 118.9 122.6 119.5 114.2 112.4 112.4 113.3 113.8 114.4 117 120.3 120.3 126 132.5 128.9 130.4 131.6 133.7 131.1 132.3 135.3 135.6 135 134.2 132.1 130.6 127.1 126.1 127.8 133.8 140.1 143.6 150.5 159.4 162.8 166.2
350.9 338.1 324.7 315.1 298.3 281.7 265.6 257.4 245.8 237.9 230.9 223.2 216.2 208.9 199.6 186.6 192.6 192.2 188.9 186.9 188.2 187.7 184.9 180.6 177.9 175.3 174 173.9 171.1 168.9 169.5 166.9 166 164.3 162.5 154.2 151.8 148.1 144.1 139.4 146 141.7 137.6 134.4 133.5 133.4 131.7 131.2 130.3 129.8 129 129.9 126.4 122.5 122.5 120.7 118.7 114.9 115 114.2 114 113.9 114.2 114.1 113.8 113.8 113.9 113.6 113.9 113.6 113.3 112.9 113.6 112 113 113.6 113.7 113.6 113.5 113.5 112.9 113.2 113.6 114.1 114.3 113.6 113.5 113 113.3 113 112.9 112.6 112.7 112.9 113.6 113.7 112.6 111.2 111.6 112.5 111.2 112.9 113.1 111.6 112.5 112.6 112.4 112.2 112.3 112.2 112.2 112.1 113 113.9 113.9 113.1 113.9 112.3 112.2 111 112.2 112.5 112.4 112.3 112.3 112 112.7 111.3 111.1 111.1 112.4 111.8 111.8 111.7 111.7 111.7 111.7 111.7 111.7 111.7 111.6 111.9 111.8 111.7 111.7 111.7 111.7 111.7 111.7 111.7 118 128.1 133.4 131.2 125.9 124.6 120.5 116.7 116.2 115.6 115.9 115.8 116 115.8 115.9 114.4 113 112.6 112.9 114.5 116.2 119.5 119.7 121.6 130.1 131.9 137.7 140.8 141.9 141.4 142 147 152.1 149.3 147.5 142.9 140.5 138.3 129.5 128.1 127.5 127.6 133.3 135.4 137.2 145.3 152.1 156.7 163.2 167.5
350.2 335.8 314.1 298.8 278.8 263.5 249 241.6 234 227.8 219.9 211 205 200.1 191.8 185.5 182.3 182.3 180.7 177.2 177 174.7 171.9 170 167.2 166.2 164.5 163.5 162.6 160.7 158.5 157.4 154.9 153.5 151.2 143.4 141.1 139 138.5 135.6 129.9 135.5 133.3 129.1 125.5 125.6 122.7 121.6 120.6 120.5 121 120.9 118.5 115.9 116 114.6 114.7 114.6 114.6 114.8 113.9 114.2 113.9 113.1 113 112.9 113.8 113.8 113.6 113.6 113.6 111.8 111 112.1 113.5 113.6 113.6 113.5 113.5 113.6 113.7 113.2 112.9 112.8 113.3 113.7 113.3 113.5 112.5 112.9 111.9 111.5 112.5 111.3 112.8 113.1 113.1 112.6 112.4 112.7 112.9 111.6 111.4 113.4 112.5 112.5 112.4 112.9 112.4 112.2 112.1 112.2 112 113.9 113.9 113.9 113.9 112 112.2 112.7 111 112.8 112.6 112.4 111.2 111.8 111.9 111.1 111.1 111.4 111.7 111.7 111.7 111.7 111.7 111.7 111.7 111.7 111.7 111.7 111.7 111.7 111.9 111.7 111.7 111.7 111.7 111.7 111.7 111.7 112.3 117.3 115.4 120.1 121.7 118.1 116.8 116 116.2 116.1 116.2 115.3 115.1 114.9 114 113.4 113 115.4 117.6 122.5 126 130.2 137.8 140 139 138.8 143.7 146 149.5 151.2 155.3 159.1 161.4 163.9 160.6 148.4 143.2 136.5 130.6 128.6 134.1 133.2 135.9 137.6 138.9 143.1 150.2 159.1 163.8 166.8
336.2 315.4 298.6 283.9 267 250.1 238.1 229.6 223.5 215.9 208.9 201.5 195 190.5 185.1 178.7 167.9 174.4 172.8 169.1 166.9 164.8 161.9 160.8 160.2 159.3 158 155.9 153.4 149.8 145.9 142.8 140.9 137.7 135.2 132.6 131.7 128.1 138.3 133.8 124.5 126.8 127.2 124.4 121.1 120.3 120.2 117 116.6 114.4 114 113.1 113 114.5 113.9 113.4 112.7 112.6 112.6 113.2 114 114.3 113.3 112.8 113.3 113.2 113.7 113.6 113.8 111.7 111.7 112.6 113.4 113.6 113.6 113.5 113.5 113.5 113.6 113.6 113.9 114.2 113.9 114.4 114.2 113.9 115.6 115.8 114.9 114.2 113.2 113.9 112.9 112.6 114.2 112.5 112.8 112.8 112.5 112.6 112.5 112.4 112.5 112.5 112.6 114.7 115.4 115.9 115.3 114.1 112.9 113.3 112.7 113.2 113.9 113.9 113.6 112.4 112.4 112.4 111.1 112.1 112.3 111.8 111.1 112.4 112.1 112.6 111.7 111.7 111.7 111.7 111.7 111.7 111.7 111.7 111.7 111.7 111.7 111.7 111.7 111.7 111.7 111.7 111.8 111.7 111.7 111.7 111.7 111.7 111.7 111.7 112.1 112.8 114.1 115.3 115.8 115.9 116.5 116.4 115.8 114.4 115 114.6 117.4 119.4 123.1 125.8 131.3 132.4 138.4 144.6 146 145.2 146.6 148.3 151.2 155.9 160.9 166.9 172.2 170.5 166.5 162.6 159.1 149.4 145 139.7 136 133.3 134.5 141.3 142.4 142.6 146.6 152.4 161.6 167.5 171.8 172.7
330 305.6 287.6 273.2 257.2 241.7 229.8 221.8 212.4 206.6 200.6 192.8 188.7 183.1 180 174.5 165.2 165.1 163.8 160.7 157.6 158.6 157.4 154.5 151.6 148.9 145.5 144 141.2 137.7 135.2 133.5 131.9 129.9 127.2 124 122.6 121.1 121.2 117.5 117.8 116.9 117.2 118.1 117.4 117.2 116 115.1 114.9 114.3 113.9 113.2 113.5 112.8 114.8 114.9 114.5 114.6 114.2 112.9 112.6 112.7 112.3 113.6 112.4 113.2 112.5 111.4 111.4 111.4 111.5 113.7 114 114 113.8 113.7 113.9 113.8 114.2 114.2 114.4 114.7 114.7 115.1 116.3 118.5 119.3 121.2 117 115.3 117.2 114.8 115.4 114.2 113.4 112.8 113.1 113.5 113.1 113.6 113.1 114.3 115.5 115.9 119.2 119.6 118.5 118 116.6 115.8 115.6 115.3 114.3 112.3 113.5 112.5 112.4 112.4 113 112.7 111.1 111.2 111.7 111 112.9 112.1 110.9 111.7 111.7 111.7 111.7 111.7 111.7 111.7 111.7 111.7 111.7 111.7 111.7 111.7 111.7 111.7 111.7 111.7 111.7 111.7 111.7 111.7 111.7 111.7 111.7 111.7 111.7 112 114.9 115.4 115.9 116.8 117.1 117.1 115.8 115.2 118.9 121.3 123.9 126.3 129 135.9 141.3 146.2 153.8 154.8 152 152.7 153.1 157.5 159.7 166 169.7 173.3 175.9 172.7 169.5 164.8 156.5 152.7 149.9 146.9 138.3 140.3 142 137.1 140 146.8 153.6 162.9 169.8 170.5 164.8 165.4
324.1 303.4 283.3 267.1 251.3 238.7 224 214.5 204.6 200.2 193.5 185.4 180.7 176.4 172.7 168.3 161.5 155.2 154.3 152.9 151.8 150.1 147.8 143.2 141.3 138.3 137.8 135.6 131.5 129 127.1 126.3 123.9 120.5 120 120 118.7 117.2 118.2 116.3 116 115.5 115.8 115.1 115.1 115.5 115.3 115.7 114.4 114.8 114.4 114.4 114 112.8 114.7 114.6 114.6 114.5 114.2 113.9 113.9 113 112.1 113.5 111.9 112.2 113.4 113.3 112.4 113.2 113.3 114.3 115.5 115.9 116.4 118 117.5 116.7 116.5 115.5 115.5 115.5 115.3 117 116.3 116.8 118.9 119.8 117.7 116.2 115.3 115.6 116.2 115.5 114 114.1 115.3 116.9 117.2 117.6 117.5 117.6 118 119.2 122.1 121.3 119.8 118.8 118.7 117.9 118.1 118.5 117.2 115.3 113.6 113.4 113 113.1 112.9 112.4 112.2 113.4 113.4 112 111.6 111.4 111.6 111.7 111.7 111.7 111.7 111.7 111.7 111.7 111.7 111.7 111.7 111.7 111.7 111.7 111.7 111.7 111.7 111.7 111.7 111.7 111.7 111.7 111.7 111.7 111.7 111.7 111.7 112.5 115.9 116.5 116.9 121.2 121.9 121.4 118.2 119.2 125.3 129 129.6 132.4 138.9 146.1 153.3 155.1 157.2 157.7 156.1 156.9 163.4 170.2 177.1 178.5 180 178.8 175.6 174.8 168.9 163.6 158.1 157.5 154.1 156 146.8 150.6 147.6 142 146 150.5 153.5 159.3 162.1 162.7 170.6 186.9
317.3 295.2 276.4 258.4 246.6 234.5 215.5 207.6 199 192.4 186.6 180.8 175.4 172.1 166.4 161.5 157.1 151.7 141.5 142.9 143.2 139.9 138.8 136.3 134 130.2 128.1 123.8 123 122 119.9 119.6 119.2 119.3 117.9 117.5 116.7 116.4 115.9 116.2 116.1 115.4 116.2 116.3 116.4 115.9 115 114.9 115.2 114.7 114.8 114.7 113.1 114.8 114.6 114.4 114.3 114.1 113.8 114 113.9 113.9 113.3 113.4 113.8 112.9 112.6 113 115.1 115.7 116.3 117.1 118.1 119.3 120.1 122.5 120.2 120 119.7 119.2 118.3 116.4 118.5 119.5 119.3 118.6 119.6 120.2 119.8 119.1 117.5 116.4 116.3 115.3 116.9 116.1 117 118.1 119.5 119.5 120.1 119.6 122.1 121.9 122.4 121.8 121.8 121 124.7 126.5 126.6 127.6 127.4 127.3 126 123.3 120.5 119.4 120.4 119.5 118.6 118.2 117.5 115.1 113.8 112.5 112.4 111.7 111.7 111.7 111.7 111.7 111.7 111.7 111.7 111.7 111.7 111.7 111.7 111.7 111.7 111.7 111.7 111.7 111.7 111.7 111.7 111.7 111.7 111.7 111.7 111.7 113.1 114.3 116.5 117.7 121.2 127.6 127.5 125.3 123.2 128.3 130.4 135.3 138.9 140.3 149.4 156.6 158.6 160.9 159.4 160.2 160.8 172.3 179.7 178.8 183.1 188.2 190.3 184.6 178.1 175.2 172.7 167.6 161.7 161.4 162.1 158.5 159.7 153.8 146.1 146.2 152.4 152.5 154.9 161.1 170.1 178.9 190.5 195.9
311.1 288 268.1 251.8 237.7 222.1 210.8 200.8 192.6 188.1 181.6 175.9 171.6 167.4 162.7 157 152.4 148.3 141.5 138.6 135.8 133.7 132.1 130.5 130.8 126.1 122.6 120.4 119.3 119.2 119.4 117.9 117.9 117.1 116.9 116.6 116.4 116.3 116.3 116.3 116 115.2 115.7 115.6 115.7 115.8 115.6 115 114.8 114.8 114.8 113.2 114.8 114.8 114.6 114.3 114.1 114 114.4 113.8 113.9 113.8 113.4 113.6 113.2 113.8 115.5 118.7 118.5 120.2 120.9 121.4 122.9 123.9 125.8 124.3 125 126.6 126.9 124.2 116.6 120.9 121.6 121.5 120.7 120.1 120.3 124.4 119.6 120.6 119.2 117.4 116.6 117.3 117.9 118.3 118.6 120.4 121.8 122.5 123.4 123.6 124.1 125.2 127.5 126.8 131.4 132.9 132.8 134.1 138.2 140.7 138.4 134.7 134.4 133.1 132.1 130.7 128.4 127.3 126.6 124.7 122.5 120.7 117.3 113.8 112.7 111.7 111.7 111.7 111.7 111.7 111.7 111.7 111.7 111.7 111.7 111.7 111.7 111.7 111.7 111.7 111.7 111.7 111.7 111.7 111.7 111.7 111.7 111.7 111.7 112.7 117.5 119.2 121.9 124.4 126.8 131.9 131.2 130 128.7 134.6 137.5 142.5 144.8 148 154.8 158.6 162.6 164.3 163.9 167.1 173.2 181.7 182.8 187.4 188 192.9 187.7 183.2 176.7 175.4 174.5 171.8 170.4 169.1 168.7 165.2 155.8 148.7 151.7 149.2 151.5 160.8 167.9 178.3 181.4 189.3 192.5 194.2
303.9 280.1 262.5 243.2 222.7 211.7 202.3 195.2 188.8 183.6 178.3 173.8 168.4 163.9 158.9 153.2 148.1 145 139.9 133.6 132.4 129.6 126.6 123.8 121.5 121.1 120.5 120.5 118.8 118.1 117.2 117.5 117.4 117 116.9 116.8 116.6 116 116.3 115.5 114.2 114.7 114.6 114.4 114.1 115.6 115.3 115.4 114.4 114.1 113.4 115.1 115.3 115 115.3 115 114.6 114.3 114.4 114.3 114.6 114.1 114.8 118.1 117.5 117 119.5 124 124.1 126.1 128.2 128.3 128.2 128.1 128.8 129.2 131.3 130.8 130.6 124.7 122.7 122.7 123 123 124 122.2 124.7 124.7 123.3 121.3 121.2 119.4 118.6 121.1 121.2 122.8 121.9 124.4 126.6 128.5 132.9 133.3 134 132.6 131.3 139.8 142.3 141.9 143.4 144 145.5 145.3 142.2 140.2 138.6 135.8 135.4 134.7 133.7 131.4 129.5 127.8 125.2 123.2 120.2 118.3 115.7 114 111.7 111.7 111.7 111.7 111.7 111.7 114.2 115 111.7 111.7 111.7 111.7 111.7 111.7 111.7 111.7 111.7 112.1 111.9 111.7 112.3 113.7 116.2 119.9 121.8 124.6 130.5 133 134.4 137 136.8 133.2 136.9 144.3 143.7 148.1 151.1 155.5 158.5 160.8 163.8 167.8 169.7 171.6 178.9 183.6 184.5 186.5 186 180.8 178.6 177.6 176.9 175.4 173.6 172.9 174.2 169.9 160.4 152.5 149.5 149.3 150.8 156.1 167.8 175.8 172.3 176.2 182 188.1 191.5 193.9
298.7 280.1 252.1 232.5 215.1 204.1 196.7 191.2 185.2 178.9 174.4 170.3 165.1 158.8 153.8 148.6 144.6 141.1 134.7 129.6 124.5 123.3 124.5 121.2 121.1 120.7 119.6 119.2 117.7 117.5 117.3 117.8 117.2 116.5 116.6 116.3 115.7 116.7 116.9 114.3 115.8 115.9 115.6 115.3 114.9 114 115.4 114 113.5 115.3 115.2 115.8 116.3 116.4 116.1 115.7 115 114.8 114.5 114.6 115.2 115.1 119.5 119.9 120.8 120.3 123.2 126.8 128.4 129.5 132.5 133.1 131.3 130.4 130.6 131.5 132.5 132.6 130.1 124.2 121 124 125.9 127 126.9 127.7 125.6 123.1 124 123.3 123 123.2 124.2 124.7 124.7 126.8 131.5 136.2 138.4 140.1 141.5 141.8 138.5 143.3 148.3 149.8 149.9 150.7 152.9 153.2 152.8 151.6 150.9 149.7 145.3 143.4 140.1 139.2 135.4 133.5 132.2 130 127.6 125.9 123.9 123.8 121.9 117.7 114.9 113.3 111.7 111.7 111.7 117.1 119 118.6 111.7 111.7 111.7 111.7 111.7 111.7 112.4 113.1 113.9 112.8 113 111.5 116 115.9 115.6 121 125.9 136 141.7 146.9 147.4 142.4 139.4 140 147.3 147.3 149.4 151.1 157.1 160.5 165.7 170.3 172.3 176.2 179.5 182.8 181 182 182.5 182.6 182.2 179 179.9 182.7 178.3 177.4 174.6 170 163.2 159.8 154.8 152.1 154.7 163.3 170.3 174.7 178 183.9 183.7 180.7 182.9 187.7 192 195.9
283.3 264 237.7 225.7 208.9 199.4 190.5 187.1 182.9 177.9 170.3 162.9 158.3 153.5 147.3 142.6 139.2 133.6 129.1 124.3 123 121.2 120.4 120.8 119.1 119.4 118.5 118 118.3 117.8 117.2 116.8 116.7 116.4 116.4 115.9 116.3 115.4 115.3 116.3 115.9 115.7 115.4 116.2 116.1 116 114.5 115.8 115.5 115.5 115.7 116.3 116 117.2 117.2 117.4 116.1 115.8 114.9 115.2 115.4 116.5 122.8 122.2 121.8 123.2 126.1 129.8 132.2 132.2 132.5 131.8 129.9 130 131 132.9 132.5 130.8 125.2 122.7 124.1 127.7 129.7 130.5 129.8 127 125.2 124.6 124.9 124.4 124.1 124.9 126.7 129.6 136.5 143.7 145.2 145 149.1 151.8 151.3 153.6 158.2 161.7 162.5 161.5 160.8 160.5 160.9 161.4 161.9 161.4 159.5 158.5 155.6 151.8 150.5 148.8 144.7 143.7 142.3 143 140.5 140.7 143.9 138.2 134.4 129.2 124 124.1 124 122.5 116.3 115.3 115.9 118 114.8 111.7 111.7 111.6 111 112.3 112.5 113.2 113.4 113.4 113.3 112.5 115.3 115.8 116.1 117.5 128.4 136.2 142.5 146.4 144 140.5 144.6 148.4 147.4 151.6 154.2 154.9 160.5 170.2 173.7 176.1 185.8 191.6 192.4 188.8 187 184.9 183.8 188.6 190 187.3 188.8 184.2 178.6 170.8 166.4 162.6 161.6 162.8 164 162.9 173.7 183.9 187.7 186.7 185.1 188.7 187.2 185.7 186.3 190.9 199.4 205.9
264.1 238.4 224.8 214.8 201.4 192.2 186.2 179.6 175.8 170.7 162.9 155.3 150.3 145.6 139.5 135.5 132.9 130.7 128 121.1 120.2 121.2 119.3 118.6 119.2 117.6 118.9 119 118 117.8 117.2 117.1 116.9 116.4 116.6 116.9 115.7 116.2 114.4 116 116 116.4 116.5 116.1 116.1 115.6 116.2 117.4 118 117 116.4 117.3 118.2 118.4 118 117.7 117 116.8 116.6 116.7 117.8 118.9 120.9 120.1 121.4 122.9 128 131.7 132.1 132.9 131.2 129.2 129.7 130.4 131.5 131.9 129.2 124.6 123.8 126.7 131.2 133.7 137.5 130 128.4 125.6 125.9 126.9 127.5 127.9 130.7 133.5 135.2 139.7 151.7 152.7 153.9 157.6 161.5 163.8 169.4 172.8 173.3 174.4 174.2 172.3 170.8 169.8 169 166.8 165.6 165.8 164.1 160.1 156.9 155 155.3 154.8 153 150.3 148.3 147.1 147.2 150.3 156.3 156.3 151.8 148.4 144.6 143.4 140.9 137.2 133.2 125.8 122.4 120.9 114.6 111.7 111.7 112.5 112.6 113 112.3 114.3 114.7 114 113.9 113.2 117.1 115.8 117.6 119.6 130.3 135.1 135.8 138.1 138.8 139.8 145.4 151.3 149.7 157.9 158.8 162.2 169.9 175.2 180.2 184.3 185.7 189 188.8 182.9 187.5 187.7 189.9 187.4 191.5 196.1 190.4 177.4 172.4 166.8 160.1 161.7 165 169.5 174.1 181.3 190.8 195.1 198.8 197.5 199.5 199.9 196.6 193.4 195.3 199.6 201.7 205.1
