ncols 200
nrows 94
xllcorner 390000
yllcorner 221400
cellsize 50
21.4 21.7 22 22.3 22.6 22.7 22.9 22.3 22.8 22.9 22.2 22.3 22.4 22.6 22.7 24.4 25.6 23.9 25.2 26.4 27.3 27.9 27.6 27 26.5 25.9 26 27.3 28.6 29.8 30.4 30.8 31.2 32.5 32.9 33 32.8 33.3 34.2 34.7 36.2 36.4 35.9 35.5 34.3 33.2 31.9 31.5 30.8 30.7 30.7 30.7 30.7 29.8 29.4 30.3 31.1 30.6 31.4 31.4 31.3 31.2 30.3 29.7 30.7 31.8 32.8 33.5 36.2 38.7 40.7 40.8 39.5 37.8 35.9 34.4 33.5 36.8 34.5 35.9 36 36.2 36.8 37.8 38.4 38.7 39 39.5 40.5 40.5 40.7 41.5 41.8 42 42.5 43.8 44.7 44.2 44.6 45.1 45.5 46.5 46.1 48.1 49.5 50.3 50.7 51.1 51.8 51.8 53.4 53.6 53.1 53.2 53.9 54.5 55.2 55.9 56.6 57.2 57.9 58.5 59 59.9 60.3 61 62.3 62.9 64 64.8 65.8 65.8 66.9 68 68.9 70.3 71.8 73.2 74.6 76 77.8 80 82.4 84.7 86.9 90.1 97 105 113.1 120.2 125.7 132.8 141.1 146.4 154.7 164.9 174.5 183.1 189.2 196.4 208.3 216.4 224 232.2 242.9 256.6 266.1 290.3 306.5 307.1 301.3 301.3 295.6 290.5 294.9 293 290.3 293.4 292 291.2 291.9 290.1 287.8 284.4 280.3 276.4 273 268.2 262.6 252 227.5 241 248 258.9 264 268.7 271.9 275.1 278.7 277.1
21.2 21.5 21.9 22.2 22.5 22.8 23.1 22.2 23.1 23.3 22.4 22.5 22.7 22.9 23.4 25.6 24.4 24.3 24.5 25.4 26.2 26.7 26.9 26.3 26.3 26.3 26.3 26.5 27.9 29.1 29.5 30.2 31.6 32.7 32.8 32.9 33 33.7 34.6 35.3 36.1 36.9 37.2 37.1 37.2 33.9 32.6 32.5 31.7 30.9 30.7 30.7 30.6 29.9 29.8 30.7 31.5 31.8 31.7 31.7 31.7 31.7 31.3 30.4 30.3 31.3 32.4 32.8 34.6 37.4 40.4 40.3 40.1 39.2 37.2 35.8 33.8 34.1 34.5 35.5 36.2 37.3 37.4 37.7 38.1 38.7 39.1 39.6 40 40 40.1 40.6 41.5 39.9 41.1 42.4 43 43 43.8 44.3 44.8 45.7 44.9 46.3 48.3 49.6 50.7 51.2 52 52.4 52.3 53.7 53.2 53.2 53.8 54.4 55.1 55.7 56.4 57.1 57.8 58.4 59.4 60.5 61.1 61.7 62.8 63.8 62.1 66 67.5 67.3 67.9 68.9 69.6 70.9 72.3 73.7 75.1 76.6 78.2 79.6 81.2 83.2 87.6 93 98.9 106.7 115.9 123.5 130.5 138.2 146.9 152.4 157.7 166.4 173.1 181.8 188.5 198.2 207.7 216.8 224.4 232.4 242.5 253.9 264.2 286.9 310.1 309.2 305 301.4 297 299.5 300.3 298.7 295.1 297.2 296.4 294.6 292.7 291.3 288 283.8 280.1 277.1 272.9 266.6 259.7 250.8 231.7 249.1 258.6 267.4 277.5 285.2 285.6 285 281.2 278.7
21.4 21.4 21.8 22.1 22.4 22.7 22.6 22.9 22.6 22.6 22.8 23.1 23.4 23.6 25.7 23.5 24.7 25.3 24.5 24.6 24.9 25.6 26.3 26.7 26.7 26.7 26.7 26.7 27.1 28.1 28.7 29.5 30.2 31.3 32.6 33.1 33.6 33.4 34.2 34.9 35.7 36.4 37.8 37.4 36.2 34.6 33.2 33.1 32.7 31.9 31.1 30.7 30.4 30.3 30.1 30.9 31.7 32.2 32.1 32 32.1 32.1 32 31.3 30.5 30.9 31.8 31.8 33.1 35.1 37.7 38.1 39.3 39.2 38.4 36.6 34.7 34.3 34.1 35 35.2 35.9 37.2 37.8 38.1 37.7 38.7 39.4 39.5 39.5 39.5 39.6 40.4 38.6 39.8 41.4 41.3 42 42.7 43.5 44.2 44.5 43.9 45.4 46.9 48.3 49.7 51.1 51.8 52.5 53.1 53.8 53.4 53.4 54 54.5 55.1 55.7 56.4 57 57.8 59 60 61 61.7 62.9 63.7 64.6 65.7 67.2 68.7 68.8 68.9 69.7 70.5 71.5 73 74.7 76 77.9 80 81.7 83.4 84.4 89.9 95.9 102.7 109.1 117.4 124.1 132.8 136.5 146.6 151.1 157.5 163.2 171.2 176 187.6 201.1 211 218.6 227.4 232.8 241 254 266 288.1 307.6 307.7 305.7 302.7 304.1 304.4 304.6 302.1 299.7 300.6 299.2 296.8 293.9 290.5 287.7 284.2 280.7 277.2 272.2 265.7 257.6 247.9 240.8 252.6 262.4 272.8 282.2 288.9 291 291.4 290.6 285.4
22 21.5 21.6 22 22.3 22.6 22.9 23.2 23 22.7 22.9 23.2 23.5 25.6 24.6 23.8 23.8 24 24.5 25.3 24.7 25.4 26 26.6 26.8 27.1 27.1 27.1 27.1 27.4 28.2 29 29.7 30.5 31.9 33.1 33.2 33 33.7 34.4 35.1 36 37.2 38.3 36.4 34.8 34.7 34.4 33.6 32.8 32 31.2 31 30.8 30.4 31.2 32 32.2 32.4 32.4 32.4 32.3 32.3 31.8 31.2 30.6 30.9 31.3 31.9 33.7 35 36.2 37.3 38.1 38 37.6 35.9 34.6 34.1 34.4 34.6 34.7 35.1 36.4 36.9 36.3 36.4 37.4 37.7 38 38.3 38.8 38.6 38.5 39.1 40.1 40.2 40.9 41.7 42.4 43.4 43.9 43.9 44.4 44.5 46 48.2 49.9 51.5 52.6 53.5 53.8 53.5 53.5 54.2 54.8 55.2 55.7 56.4 57 58 59.2 60.3 61.5 62.5 63.3 63.8 61.3 66.3 68 68.8 68.7 69.9 70.6 71.4 72.7 74.8 76.6 78.9 82.2 85.3 86.8 88.3 87.9 90 95.8 101.6 107.5 114.2 122.4 127.2 133.6 141.5 147.7 153.3 160.4 172.1 181.3 191.5 205.6 216.8 224.2 231.5 237.5 245.3 252.4 262.4 289.5 308.2 309.5 308 305.9 306.8 308.5 307.7 306.7 304.2 301.6 301.1 298.7 295 291 286.7 282.2 278.5 274.5 269.8 263.5 254.1 246.8 252.7 257.7 262 271.6 280.5 286.3 289.3 290.7 290.7 288.2
22.3 22.1 21.7 22.8 23.9 22.4 22.5 22.7 22.9 23 23.1 23.3 24 25.6 23.8 23.8 23.8 24.5 25 25.3 25 25.1 25.7 26.3 27 26.8 27.5 27.5 27.6 27.7 27.8 28.6 29.4 30.1 31.4 32.5 32.7 32.8 33.3 33.9 34.6 35.6 37.5 37.9 36.6 36.3 35.9 35.3 34.4 33.3 32.4 31.6 31.5 31.7 30.4 31.5 32 32.2 32.4 32.7 32.6 32.6 32.5 32.3 31.7 31.1 31 31.4 31.6 32.2 33.3 34.3 35.4 36.2 36.9 37.1 36.9 36.1 35.2 34.4 34.1 34.4 34.7 35.2 35.5 35.7 36 36.6 36.7 37.2 37.7 37.8 38.7 39.3 39.5 40.4 40.3 40.3 40.8 41.8 42.8 42.8 43.3 42.9 43.6 45.1 45.7 47 48.6 51 52.9 53.6 53.7 53.7 54.3 55 55.6 56 56.4 58.2 58.2 59.3 60.5 61.6 62.2 63.4 64.2 65.3 66.5 67.7 68.6 69.4 70.7 71.8 72.5 73.5 76.4 79.2 82 85.7 89.2 92 94.4 94.3 92.5 93.2 99.5 106.1 112.9 119.7 123.6 131.2 137.4 142.8 150.3 162.4 177.1 188.4 196.6 210 221.5 229.2 236 243.5 251.1 257.3 266.5 286.8 310.4 311.1 311 311.2 311.2 311.3 310.5 308.9 307.4 304.9 303.4 298.9 296.4 292.7 288.5 282.2 274.1 267.6 265.2 260.6 259.2 252.8 259.2 268.3 273 273.6 277 280.7 283.1 284.1 284.4 283.8
22.6 22.4 23.6 25 24.9 22.9 22.4 22.9 22.9 23.1 23.3 23.7 25.8 23.8 23.8 23.8 23.9 24.8 25.6 25.4 25.5 25.6 25.7 25.7 25.8 26.1 26.9 27.8 28.1 28.2 28.3 28.4 29 29.7 30.9 31.8 32.3 32.5 33 33.5 34.1 35.8 37.6 37.9 37.7 37.4 36.8 36.2 35.1 34 33 31.9 31.8 31.9 30.9 31.6 31.8 31.9 32.4 32.8 32.7 32.8 32.8 32.7 32.1 31.7 31.5 31.6 31.8 31.8 31.9 32.6 33.5 34.4 35.5 36.2 36.5 36.2 37.5 34.3 34.6 34.8 35 35.7 36.1 35.8 36.2 37.1 37.2 37.2 38.3 39.3 40.3 41.4 42.5 42.8 42.6 42.3 41.9 41.5 41.5 42.1 41.9 42.7 43.2 44 44.5 45.6 47.9 49.6 51.6 52.9 53.7 53.9 54.5 55.1 55.8 56.3 57.4 58 57.9 59.2 60.5 61.7 62.8 64 63.1 65.5 66.3 67.3 68.2 69.3 71.3 72.8 73.6 74.6 77.2 80.3 83.2 86.9 89.8 93.6 97.7 100 98.5 95.2 97 102.7 109.7 115.6 120.7 129.5 138.6 145.5 153.2 163.5 182 192.4 204 215.5 223.8 231.9 239 247.2 255.6 261.2 268.6 298 310.1 313.1 312.6 312.9 313.8 314.1 313.7 312.7 311.5 306.6 303.5 299.6 295.9 291.4 286.8 278.7 279.7 275.7 271.2 269.1 266.8 256.3 263.7 274.3 280.9 284.7 287.2 286.8 284.9 283.9 279.4 274.5
22.7 22.7 22.8 23.9 26.8 27.4 23.3 23.7 23.5 23.4 23.6 26.2 25.6 24.2 24.1 23.8 24.2 25.2 25.8 25.9 25.9 26 26 26.1 26.1 26.1 26.5 27.6 28 28.3 28.6 28.9 29.1 29.3 30.3 31.2 31.9 32.3 32.8 33.7 34 35.7 37.6 37.8 37.5 37.6 37.8 36.9 35.8 34.7 33.5 32.2 32.1 32.3 31.9 31.8 31.5 32.2 32.8 32.9 32.7 32.6 32.9 33 32.6 32.3 32.1 31.8 31.8 31.8 32.9 31.6 32.3 33.2 34.1 34.8 35.5 36 36.6 34.8 35 35.2 35.4 36.5 36.3 36 36.7 37.5 37.8 38.3 39.9 40.2 40.4 41.5 43.3 43.7 44.1 44.2 43.8 42.6 43.2 43.5 43.1 43.3 44 42.9 43.4 44.5 45.9 46.9 48.9 50.6 52.2 53.6 53.9 54.3 54.9 55.8 56.4 57.3 57.4 58.7 60 61.3 62.6 60.4 64.1 65.6 65.9 67.2 68.3 69.4 71.1 72.7 74.1 75.6 78.2 80.6 83.1 86.3 88.8 92.5 96.7 99.9 102.5 97.8 97.4 102.7 111.1 118.3 120.3 127.2 136.7 145.5 155.8 166 181.2 192.5 208.6 220.7 228.2 235.3 242.5 249.3 257.6 265.8 276.3 304.1 313 313.6 314 314.8 315.7 315.6 315.3 313.6 311.7 309.8 304.8 299.5 295 289.8 287.8 287.2 283.7 278.9 275.7 273.8 270.8 260.2 266 276.5 283.8 288.4 292.6 293.8 293.4 291.1 286.8 281.8
22.5 22.3 22.4 24.1 24 26.4 30.9 25.2 23.9 23.8 26.2 26.2 24.4 24.4 24.7 24.1 24.7 25.7 26 26.1 26.1 26.2 26.2 26.3 26.3 26.6 26.7 27.2 28 28.3 28.6 28.8 29.1 29.4 30.1 31.1 31.9 32.8 33.4 33.8 34.1 35.4 37.5 37.5 37.5 37.6 38 37.2 36 34.9 33.6 32.7 32.5 32.8 32.2 31.6 32.1 32.6 33 33 32.8 32.7 32.6 32.9 33.1 32.8 32.5 32.8 32.6 32.4 33.5 33.4 33 32 32.8 33.4 34.1 35.2 34.8 34.8 35 35.7 36.5 37.1 37 37 37.7 38.8 39.4 40 40.6 40.7 40.8 41.9 43.6 43.8 44.2 44.7 45 43.7 44.1 44.4 44.5 44.7 44.8 43.9 43.9 43.7 44.5 45.4 46.7 48.5 50.2 52 53.1 53.5 54.3 55 55.7 56.5 57 58.3 59.6 60.9 60.5 62.9 63.8 65.1 66 66.6 68.3 69.1 71.9 72.6 73.9 75.8 77.6 80.5 82.5 85.2 87.8 91.5 95.8 99.6 102.1 99.5 97.4 102.2 110.6 117.8 119.8 125.6 132.8 142.2 153 166.2 179.5 193.3 210.1 222.9 232.4 238.7 247.1 254.6 259.8 266.2 276.1 292.5 311.6 312.9 316.1 316.9 317.6 317.9 316.5 315.5 313.5 311 308 304.8 300.5 297.7 293.8 290.6 287.2 282.9 280.8 277.8 273.2 262.2 268 276.5 282.9 288.1 293 295.7 294.7 293.8 292 288.8
22.7 23.3 22.6 23.1 23.5 28.5 31.6 32.3 25.7 25.5 26.2 26.2 24.4 24.4 24.8 25 25.4 25.9 26.2 26.3 26.3 26.4 26.5 26.5 26.8 27 27.2 27.1 27.9 28.3 28.5 28.8 29.1 29.5 30.2 31.5 32.7 33.4 33.8 34.1 34.4 35.3 37.4 37.4 37.6 38.1 38.3 37.4 36.2 35.1 33.8 33.3 33 33.2 32.7 31.9 32.3 33 33.1 33 32.9 32.8 32.6 32.6 33.5 33.2 33.4 33.7 33.5 33.1 33.8 33.7 33 32.4 33 32.2 32.9 33.8 33.8 34.8 35.6 36.3 37.6 37.4 37.6 39 40.2 41.5 42 40.6 41.2 41.2 41.2 42.2 43.7 44 44.4 44.7 45 44.2 44.3 44.5 45 45.9 46 45.9 45.6 45.2 44.1 44.3 45.4 46.4 48 49.7 52.2 53.7 54.7 55.8 56 55.9 56.6 57.9 59.1 60.4 61 62.4 63.7 65 66.4 66.7 67.3 68.7 70.2 72.4 74.5 74.6 76.4 79 81.6 84.4 87.3 90.6 94.4 98.2 99.7 97.4 95.9 100.9 107.3 114.3 119.5 124.9 129.9 138.4 149.4 163 178.9 194 209.2 222.3 231.1 237 241.5 247.6 254.2 263.8 275.2 280.7 306.7 309.9 314.1 317.6 319.5 319.6 318.7 317.5 315.2 314.1 311.7 308.7 305.3 301.8 298.7 294.3 290.8 288 284.6 280.2 274 263.8 268.6 276 282.5 287.7 292.4 296.8 296 295.3 293 290.1
22.9 23.5 23.5 23.5 23.6 27.2 24.7 25.1 32 26.2 27 27.1 24.4 24.5 24.9 25.4 25.7 26 26.3 26.5 26.6 26.6 26.7 27 27.2 27.5 27.7 27.7 27.6 28.2 28.5 28.8 29.2 29.6 30.3 31.4 32.5 33.5 34.6 35.7 36.2 36.7 37.3 37.7 38.2 38.6 38.4 37.6 36.4 34.9 34.3 33.8 33.5 33.6 33.1 32.1 32.3 33.3 33.2 33.1 33 32.9 33 33.3 33.7 34 34.5 34.6 34.2 33.7 34 33.5 32.9 32.7 32.5 33.4 32.8 33.5 34.4 35.3 35.5 36.4 37.9 38.7 40.2 42.2 43.2 44.3 43.7 42.4 41.7 41 41.5 42.3 43 43.6 44.4 44.8 45 44.5 44.1 44.3 45.2 46.3 46.6 46.6 46.6 46.6 45.7 46.2 45.6 45.4 46.2 47.4 49.7 51.9 53.2 54 55 56.1 57 57.9 58.8 59.6 60.3 61.8 63.1 64.5 66.2 67.1 68.2 69.6 71 72.3 74.1 75.5 77.1 78.4 81 83.9 87.1 89.8 92.9 94.7 93.9 92 94.6 100.4 109.1 116.3 122.9 128.7 132.1 136.2 145.7 157.3 174.7 190.9 205.1 217.5 226.7 231.8 236 239.9 243.6 254 263.8 272.4 306.3 308.2 311.2 312.7 315.9 318.6 320.8 319.5 317.8 316.6 315 311.5 309.7 305.4 301.6 298 294.7 290.9 286.8 281.3 273.7 268.6 273.6 277.5 282.1 288 294.3 299.9 300.6 298.6 297.1 293.4
23.2 23.7 24.2 24 23.7 27.7 27 26.2 26.2 24.4 30.5 28.2 24.4 24.7 25.1 25.4 25.6 26.2 26.5 26.7 26.8 26.9 27.2 27.4 27.7 27.9 28.1 28.2 28.1 28.2 28.5 28.9 29.3 29.7 30.2 31.1 32.2 33.3 34.3 35.4 36.5 37.6 38.3 38.4 38.7 39.1 38.6 37.8 35.9 35.4 34.8 34.3 34 33.9 33.5 32.3 32.4 33 33.2 33.2 33.2 33.5 33.9 34.3 34.7 34.9 35.5 35.3 34.8 34.4 34.1 33.8 33.5 33.3 33.2 33.1 33.6 33.2 33.7 38.2 35.8 37.1 38.8 40.8 43.6 47 48.8 47.5 44 42.4 42 41.5 41 42.2 42.4 42.5 43.3 44.5 45 44.9 44.5 44.5 44.8 46.2 46.2 46.2 46.6 46.7 46.7 46.8 47.4 47.1 47 46.6 48.1 50.1 51.5 52.4 53.4 56.5 57.8 58.5 58.7 59 59.7 61.1 62.6 64.9 65.8 66.4 67.7 69.2 70.6 71.9 74 76 78.2 79.2 81.5 84 86.9 87.3 88.5 89.6 88.1 90.1 95.1 101.3 109.8 115.5 122.2 129.7 136.1 142.9 145.9 153.5 167.3 182.7 195.5 208.8 220 227.2 232.9 237.8 242.3 248.3 258.2 269.1 290.4 305.3 306.8 307.9 311.4 313.9 316 316.3 318.3 317.6 316.6 314.5 310.7 307.7 304.3 300.8 297.4 293.3 288.8 280.8 273.2 274.5 278.2 283.2 287.6 292.1 297.5 301.9 304.2 303.2 300.8 298.4
23.4 23.9 24.3 24 23.7 24.7 26.1 26.2 26.2 24.1 24 27.8 25.7 24.9 25.2 25.4 25.6 25.7 26.3 26.9 27.1 27.4 27.6 27.9 28.1 28.3 28.6 28.7 28.6 28.7 28.6 29 29.4 29.7 30.3 31.1 31.9 33 34.1 35.1 36.2 37.3 38.4 39 39.2 39.3 38.7 37.6 36.4 35.9 35.3 34.8 34.5 34.5 33.6 32.1 32.4 32.9 33.2 33.5 34.2 34.6 35 35.4 35.6 35.6 36.2 36.5 35.9 35.2 34.7 34.4 34.1 34 34 34 33.4 33.4 33.2 38.2 35.3 37.4 39.4 42.2 46.5 48.8 48.9 47.2 44.9 42.8 41.5 41.1 41.8 42.7 42.7 42.4 42.7 43.8 43.6 44.5 44 43.5 44.5 45.3 45.6 45.7 46.2 46.5 46.8 47.4 48.3 48.6 48.3 47.2 47.1 48.9 49.8 50.8 51.8 53.7 58.5 56.3 57.1 58.4 59.1 60.5 62.4 64.3 64.9 65.8 67.3 68.7 70.1 71.6 73.5 75.3 78.2 80.4 81.4 84.7 85.5 83.1 83.3 84.2 87.2 89.9 95.6 103.1 111.1 114.6 122.4 129.9 136.9 143.1 150.8 155.7 162.4 175.1 184.9 194.8 210.3 220.8 229.4 234.7 238.9 248.4 259 263.5 293.7 304.2 305.1 305.4 307.7 309 310.4 311.8 313.2 314.3 315.6 312.9 311.1 309 306.6 303.3 299.4 294.4 288.7 280.2 280.8 281.6 282.6 288.5 293.4 297.9 302.3 305.7 306.8 307 305.1 302
23.6 24.2 24.2 24 23.8 23.6 23.6 26.4 24.4 24.5 24.4 24.3 24.5 25.7 25.2 25.4 25.6 25.7 25.9 26.6 27.3 27.7 28 28.3 28.5 28.8 29 29.3 29.2 29.4 28.8 29 29.4 29.8 30.3 31.1 31.9 32.7 33.8 34.8 35.9 37 38.1 40.3 40.3 40.7 38.8 37.9 37.2 36.5 35.9 35.3 35 33.9 32.9 32.4 33.2 33 33.3 34.3 35.2 35.8 36.2 36.5 36.5 36.6 37 37.5 36.8 36.1 35.5 35 34.8 34.7 34.7 34.8 34.5 33.5 33 36 34.5 36.4 38.4 41.1 44.7 46.8 47.2 44.9 42.6 42.2 42.1 41.9 42.5 42.8 42.6 42.4 42.3 42.8 43.4 43.7 43.4 43.3 43.6 44.4 45.1 45.3 45.8 46.2 46.1 47.9 49.1 49.1 49.6 48.8 47.8 47.6 48.4 49.4 54.1 55 52.1 54.8 54.5 55.3 57.3 59.2 61.2 62.7 63.7 65.1 66.5 67.9 69.4 70.8 72.6 74.3 76.2 77.9 79.2 80.5 79.6 79.8 81 83.6 87.1 89.7 93.6 102.8 106.7 113.8 118.3 125 131.6 140.8 149.5 157.7 164.8 171.3 179.5 191 203.4 214 225.6 231.8 238.3 247.8 256 268.6 296.5 299.4 302.1 301.4 305.1 306.7 308.5 310.4 311.8 313.4 315.5 313.5 312.1 310.3 307.6 304.8 300.9 295.7 288.9 283.5 286.2 288.2 287.2 293.5 299 303.3 307.7 309.4 311.3 309 309.5 307.5
24 24.3 24.5 24.1 23.9 23.7 26.2 24.4 24.4 24.4 24.4 24.4 24.5 25.6 25.6 25.4 25.6 25.7 25.6 26.1 27.2 27.6 27.9 28.3 28.6 29 29.3 29.7 30.4 30.1 29.6 29.1 29.5 29.9 30.4 31.2 32 32.8 33.6 34.6 35.6 36.7 38 39.8 40.3 40.4 39.8 39.1 38.5 37.8 37.1 36.2 35.1 34.1 33.2 32.3 32.8 33.1 34.1 35 36 36.9 37.3 37.5 37.5 37.5 37.7 38.4 37.6 36.9 36.4 35.9 35.4 35.4 35.5 35.6 35.3 34.7 33.9 35.2 34.3 35.8 37.8 40 42.5 43.7 44 42 41.4 41.4 41.4 42.1 42.7 42.4 42.2 42.2 42 42.8 43.4 43.9 43.2 43.3 43.6 44 44.4 45.1 45.9 46.6 48 48.6 49.6 50 49.7 49.6 48.9 47.5 48.6 58.2 51.9 52.3 55.5 57.9 56.9 55.5 56.2 57 59.2 61 62.2 63.5 65 66.4 67.9 69.5 71.2 73.1 75 75.7 76.1 77.3 78.3 79.9 83 85 86.7 89.1 92.7 98.9 104.7 111 119.6 125.8 133.5 141.2 149.4 157.9 167.6 176.8 183.3 190.6 199.4 212 223.7 230.9 239 249 257.4 265.3 285.6 293.5 298.2 300.7 303.2 304.3 305.6 307.2 309.8 312.5 315.4 313.5 313 311.7 309.4 306.7 302.9 297.7 291.1 289.9 292.1 294.4 294.2 297.5 304.4 309.2 311.8 312.6 313.5 312.9 311.9 310.4
24.4 24.4 24 23.8 23.8 23.7 26.2 24.4 24.4 24.4 24.4 24.4 24.6 25.2 25.3 25.6 25.6 25.6 25.4 26.1 26.9 27.4 27.8 28.2 28.5 28.9 29.4 29.9 30.3 30.7 30.3 29.7 29.6 29.9 30.5 31.3 32.1 32.8 33.6 34.4 35.4 36.4 38 39.2 40.1 40.2 40.2 39.9 39.7 39.1 38.1 36.9 35.8 34.7 33.7 32.7 32.9 33.9 34.8 35.8 36.8 37.7 38.4 38.6 38.9 39.2 38.9 39.2 38.4 37.8 37.5 37.1 36.3 36.2 36.2 36.1 35.6 35.1 34.5 34.7 33.8 35.2 37.6 39.8 41.5 42.7 41.6 41 40.4 40.4 40.5 40.6 40.3 40.6 40.6 41.4 41.6 43 43.5 42.8 43.1 43.3 43.9 44.5 45.4 46.4 47.2 47.9 50.5 49.7 51.1 53.1 54.1 53.1 52.8 52.7 57.4 49.1 49.9 52.8 56 59 60.5 60.7 59.8 57.8 58.6 59.7 60.8 62 63.4 65 66.5 68.1 69.9 71.8 73.8 75.1 76.9 78.2 79.7 81.9 84.1 85.9 88.2 88.4 92.5 98.1 106.5 113.5 119.8 125.7 132.4 139.8 148.6 158.1 165.1 172.2 181.1 189.7 198.5 210.1 222.3 231.4 239.2 249.8 260.4 260.3 263.2 273.8 289.8 298.2 299.1 301.3 302.7 304.3 306.5 310.4 314.4 314.1 313.6 312.9 310.8 308.6 304.8 300.4 294.1 296.9 299.1 300.8 302.1 304.6 307.1 310.4 314.5 315.7 315.6 314.3 313.1 310.6
24.3 24.4 23.9 23.8 23.8 26.4 24.4 24.4 24.5 24.6 24.7 24.8 24.9 25.1 25.3 25.5 25.7 25.7 26.3 26 26.7 27.3 27.7 28.2 28.7 29.2 29.7 30.1 29.8 30.2 30.4 30.4 29.9 30 30.5 31.3 32.1 32.9 33.7 34.5 35.3 36.2 37.5 38.8 39.7 40.1 40.2 39.9 39.7 40 38.9 37.6 36.4 35.4 34.4 33.3 32.8 33.3 34.3 35.3 36.2 37.2 38.8 39.4 40 40.3 40.1 40.5 39.8 39.9 39.1 38.2 37.4 37.2 37.3 36.6 36.1 35.5 35 34.2 34.3 35.3 37.6 39.2 40.3 41.2 41.3 39.9 39.3 38.6 38.5 39.3 40.4 41.2 41 41.4 41.5 42.6 42.3 43.1 43.6 44.1 44.7 45.5 46.6 48.1 49.4 50.1 50.4 51 52.2 54.4 55.7 54.6 53.9 54.3 50 48.9 50.3 52.2 54.7 58.1 60.9 61.9 62.1 61.7 60.1 60.2 60.6 61 62.2 63.8 65.5 67.5 69 70.6 72.6 73.6 75.5 78.1 80.5 82.2 85.7 87.6 89 89.3 92.7 96.4 103.9 111 117 123.2 130 137.6 144.8 151.3 160.3 168.6 177.8 191.4 202.5 213 222.4 231.8 237.7 244.6 252.7 254.6 260.6 264.8 269.5 286.3 294.4 296.2 299 301.2 303.4 307.7 314.2 314.4 314 313.6 312.4 310.5 308.4 303.7 301.5 302.7 305.1 306.9 308.5 311.1 314.2 316.5 316.5 316 317 316.3 313.7 313.5
23.8 23.8 23.8 23.8 25 26 24.6 24.7 24.8 24.9 25 25.1 25.3 25.5 25.6 25.8 25.9 26.3 26.3 26.9 26 27.3 27.9 28.4 28.9 29.4 29.9 30.2 29.7 29.7 30 30.2 30.4 30.1 30.6 31.4 32.2 33 33.8 34.5 35.2 36 37.2 38.4 39.1 39.7 40.1 39.9 40.3 40.8 40.3 38.9 37.4 36.1 35.1 34.1 33.4 33.4 33.4 34.3 35.2 37.4 38.8 39.5 40.1 40.7 41.5 41.1 41.1 40.9 39.9 39.6 39.9 39.3 38.2 37.2 36.7 36.4 36.2 35.8 34.4 35.5 35.7 37.4 39.3 37.5 39.3 38.7 38.1 37.8 38.6 39.9 42.3 41.7 42.1 42.9 42.6 42.8 43.1 43.8 44.5 45 45.7 47.1 48.6 50.2 51.7 52.4 52.8 53.4 54 55.4 56.3 57.4 52.5 51.2 51.4 49.9 51.1 53 53.8 56.2 59.6 62.3 62.8 63 62.6 62.3 61.5 61 61.6 63.1 65.2 67.4 68.8 70.1 71.4 72.3 74 76.7 79.3 82 84.8 87.2 88.9 88.9 90.6 94.2 101.8 108.2 113.4 118.6 122.4 128.6 138.3 150.1 160 167.2 181.4 193.2 205.1 213.1 221.6 228.5 235.2 238.3 244.5 247.9 251.2 257.4 261.9 269 284.1 291.7 293.5 296.3 301.5 305.4 311.5 314.5 314.2 314 314.6 313 311.2 308.4 308 308 310.3 312.7 314.8 316.3 318.5 320.3 320.1 319.4 320.2 317.7 316.4 313.9
23.2 23.3 23.5 23.7 26.6 24.5 24.7 24.9 25.1 25.3 25.4 25.5 25.6 25.8 26 26.1 26.4 26.3 26.4 26.8 27.1 26.9 27.8 28.4 28.9 29.4 29.9 30.2 29.6 30 30.5 30.5 30.5 30.5 30.6 31.2 31.9 32.6 33.3 34.1 35 35.7 36.2 36.9 37.8 38.7 39.6 40.3 40.8 41.6 41.2 40.3 38.8 37.3 35.8 34.8 34.2 33.8 33.9 33.9 34.6 36.1 38.5 39.6 40.3 41.2 41.9 41.8 41.8 41.6 41.1 39.9 39.4 39.6 38.6 37.9 37.6 37.2 36.8 36 35.5 34.6 35 36.2 37.5 37 36.8 37 36.9 37.1 39.2 40.5 42.4 41.9 42.3 43.1 43.8 44 44.5 45 45.5 46.6 47.8 49.2 50.9 52.5 54 54.9 55.4 56 56.2 57.2 58 56.1 55.1 53.3 53.6 52.4 51.6 50.9 53.5 55 57.3 60.1 61.9 62.7 63.3 62.5 62.9 62.9 61.6 62.7 65.3 67.2 68.6 69.9 71.3 73.2 74.8 76.5 78.7 81.4 82.9 84.7 86.5 88.3 89.9 91.5 96.9 101.8 107.4 115.1 120.3 126.4 138.8 154.6 168 177.3 187.1 196.3 204.9 213.2 219.5 225.7 230.1 231.8 234.9 240.6 245.7 251.4 254 252.7 266.2 280.8 289.8 292.6 297.8 303.7 308.7 311.5 314.4 315.1 316.5 315.2 314.3 314.2 314.1 314 315.6 317.5 319.3 321 322.6 323.1 323 322.1 320.9 319.6 318.1 315.5
23.3 23.6 23.6 26.1 24.5 24.6 24.9 25.1 25.3 25.5 25.7 25.8 26 26.1 26.3 26.4 26 26.3 26.7 27.1 27.3 27.6 27.7 28.1 28.6 29.1 29.6 29.6 29.8 30.2 30.6 31 31.3 31.2 31.1 30.8 31.5 32.3 33.1 34 34.8 35.5 35.9 35.9 36.8 37.7 38.5 39.4 40 41.2 41.8 41.5 40.3 38.8 37.2 35.6 34.9 34.5 34.3 34.3 34.4 35.9 38 40.6 41.6 42.3 42.2 42.3 42.2 42.2 42.2 40.8 40.1 39.6 38.7 37.3 37.2 36.8 36.3 36.3 35.2 34.4 35.2 35 35.2 36.1 37.1 36.6 36.5 37.3 38.7 40.4 42.5 42.1 42.5 43.5 44.5 45.5 46.1 46.8 47.5 48.6 50.2 52.3 54 55.6 57.1 57.9 58.3 58.6 58.5 58.7 58.1 57.2 56.3 55.3 54.3 53.2 52.3 50.3 53.8 55.6 55.6 57.9 60.1 61.1 61.7 62.5 63.5 64.5 64.5 63.2 64.4 66.8 68.5 70 71.7 73.5 75 77.1 79.2 80.5 82.4 84.1 84.3 86.1 87.7 89.7 93.4 97.6 103.9 111.6 119.8 124.6 134.5 148.1 165.6 179.8 190.9 196.8 200.7 206.8 214.6 218.2 221.9 225.8 229.5 233 236.2 240.6 247.9 250.4 253.1 267.8 281.2 289.6 292.9 298.9 306.2 311.7 313.6 315.6 317.3 317.2 317.7 317.9 317.8 316.7 318.7 321.3 323.4 323.2 323 323.8 324.2 322.7 321.4 320.1 318.5 316.1
23.5 23.7 24.2 26.6 24.5 24.8 25 25.2 25.4 25.7 25.9 26.1 26.3 26.4 26.4 25.8 26.2 26.6 27 27.3 27.6 27.8 27.9 28.1 28.4 28.8 29.1 29.7 29.6 30.1 30.5 31 31.5 31.3 30.8 30.4 31.3 32.1 32.9 33.8 34.5 35.2 35.4 35.4 35.7 36.6 37.4 38.6 39.3 41.1 42.4 42.2 41.8 40.2 38.7 37.2 36.1 35.3 35 34.7 34.9 35.4 36.7 39.5 42.7 42.8 42.9 43.2 43.7 43.2 42.7 41.7 40.5 40.1 38.4 37.9 38.1 36.5 35.8 38.3 34.7 34.8 34.9 35 36.3 37.5 36.6 36.5 36.9 38.2 40.4 41.9 42.2 42.3 42.9 43.9 45 46.7 47.9 48.8 49.5 51.1 53.2 55.3 57.1 58.8 59.9 60.8 61.4 58.4 60.4 59.2 58.3 57.4 56.5 55.4 54.5 54 52.5 49.7 50.6 53.5 55.2 56.4 56.3 57.4 58.7 61.1 62.3 64.7 65.6 65.3 64.2 65.7 67.9 70.1 71.1 72.1 74.4 76.6 78.5 79.7 81.3 81.8 82.8 84.8 86.5 88.3 91.5 97.2 102.2 108.5 117.4 123.9 129.1 140.6 151.8 170.7 186.4 191.1 195.9 200.3 205.4 209.3 213.2 218.8 224.4 227.3 229.8 233.7 239.2 243.1 248.6 254.4 272.9 283 287.3 294.7 301.3 306.6 312 314.9 317.9 320.2 321.1 321.6 320.6 319.5 321.4 324 324.9 325 325 325 324.1 323.4 322 319.9 317.3 315.7
23.7 23.7 26.8 25.1 25.1 25 25.2 25.4 25.6 25.8 26 26.3 26.5 26.3 25.8 26.2 26.5 26.9 27.3 27.6 27.8 28 28.1 28.3 28.5 28.7 29.4 30.1 29.5 29.9 30.3 31 31.5 31.4 31 30.7 31.3 31.9 32.8 33.5 34.2 34.8 34.9 34.8 35 35.5 36.4 37.5 39.1 40.8 42.4 42.9 42.8 41.8 40.3 38.9 38 36.8 35.7 35.3 34.9 35.8 35.8 38.1 41.3 43.4 44.1 44.3 44.1 43.7 43.2 42.7 42 40.2 38.8 38.2 36.4 37.6 36.1 39.9 35.1 35 35 35.5 37.1 37.5 37 37.2 37.7 40.5 43.6 44.2 44.2 43.5 43.2 44.1 45.7 47.5 49.2 50.3 51.2 53.5 56.1 58.2 60.3 61.8 63.1 63.6 58.1 63 61.7 60.6 58.5 57.6 56.4 55.2 54 53.2 51.8 49 49 52.8 53.2 54.4 56 57.2 58.5 59.7 61.7 64.6 66.1 66.6 66.4 65.7 66.4 69 69.7 71.1 73.8 76.2 77.3 78.4 79.6 80.6 81.7 83.9 85.6 86.9 90.8 96.3 101.3 106.6 116.3 121.5 128 137.6 146.3 160.1 178.9 184.9 189.7 193.6 197.5 202.6 207 211.2 216.4 221.5 224.7 228.8 232.9 237.2 242 250.1 264.4 276.9 283 289 295.8 300.9 309.3 312.3 317.8 322.1 323.6 324.2 323.3 322.2 324.2 325.7 326.4 326.4 326.3 326.5 326.5 324.7 322.3 319.2 315 311.3
23.8 23.8 26.8 26.8 26.9 26 25.3 25.6 25.8 26.1 26.3 26.6 26.9 25.8 26.1 26.5 26.9 27.2 27.6 27.8 28 28.2 28.5 28.5 28.7 28.8 29.4 30.2 29.7 29.7 30.4 31.2 31.5 31.5 30.3 31.3 32.2 33.2 32.9 33 33.5 34.1 34.2 34.4 34.5 35 35.6 36.5 38.2 39.9 41.4 42.4 42.9 42.8 42 40.6 39.9 38.6 36.9 35.9 35.5 35 35.2 37.1 39.6 42.6 43.6 44.3 44.3 44.1 43.7 42.6 42.1 40.3 38.9 37.9 37 36.6 36.5 38.8 35.8 35.4 35.2 36.2 37.5 37.9 37.8 37.9 38.9 42.6 47.9 50.7 50.1 47 45.8 44.5 46.2 47.9 49.6 51.5 52.8 53.8 57.1 60.4 63.2 64.5 60.1 62.8 64.4 63.2 61.9 60.5 58.6 57.4 56.5 55.6 55.5 51.4 49 49 49.5 52.9 53.5 54.8 56.1 57.5 59 59.2 61.4 64.3 66.6 67.1 67.9 67.7 67 67.5 69.6 70.7 73.3 75.1 76.3 77.5 78.8 79.5 80.3 81.6 83.5 85.5 89.7 94.9 100.5 105.2 111.8 120.7 123.8 133.2 146.5 161.5 169.4 175.6 182.9 186.3 189.7 194.8 200.2 204.7 209.1 213.9 218.9 222.7 227.7 231.8 237.8 244.8 257.3 272.8 278.1 284.2 292.1 297.5 302.3 311.2 315.1 323.3 325.2 325.9 325.8 324.9 326.5 326.9 326.9 326.9 326.8 327.2 327.5 325.2 322.8 320.4 317.5 314.7
23.7 26.5 25.6 26.8 27.3 27.1 26.5 25.5 25.8 26.1 26.4 26.8 26.6 26.3 26.5 26.8 27.2 27.6 27.8 28 28.2 28.5 28.7 28.6 28.8 29.3 29.3 30.2 29.8 29.9 30.7 31.3 31.3 31.1 31 32.1 32.5 32.9 33.3 32.9 33.2 33.6 33.8 34 34.1 34.4 35.1 35.8 37.1 38.9 39.7 40.7 42 42 43.3 42.3 41.6 40.3 38.3 36.4 36 35.5 35.3 36.8 38.2 41.8 43.2 44.2 43.9 44.1 43.8 43.2 41.2 40.5 38.9 38 37.6 37.2 36.6 36.3 36.7 36.5 35.6 35.9 37.2 38 38.3 38.5 40.6 44.5 50.2 55.7 57.9 53.4 48.8 46.9 46.2 47.4 49.4 51.6 53.6 55.4 57.3 60.8 63.1 56.9 64.5 64.7 63.5 62 60.9 59.5 58.3 56.7 55.8 55.8 56.2 54.6 49 49.4 52.2 53.3 54 55 56.4 57.9 59.3 61 61.6 64.1 65.5 67.6 68.3 69.1 68.2 66.8 68.4 70.2 72.2 72.8 74.9 76.7 77.8 78.5 79.3 80.2 81.3 84.5 88.7 93.3 98.4 102.3 110.8 116.3 121.2 131.4 147.7 156.7 161.1 164.7 172.3 179.3 181.9 187.2 192.8 197.9 202.3 207.2 212.5 216.7 221.1 228.1 234.1 242.2 251.2 260.1 270.3 278.1 286.6 293.5 298 306 312.6 319.5 326 326.5 326.9 327.3 327.4 327.4 327.3 327.3 327.3 327.7 328.1 325.8 323.9 322.1 320.1 316.7
24.2 26.9 25.6 26.8 27 26.6 26.1 25.6 25.9 26.3 26.7 27 26 26.8 27 27.2 27.5 27.8 28 28.2 28.4 28.7 28.9 28.9 30.1 29.8 29 29.7 30.1 30.3 31 31.3 30.9 30.9 31.4 31.8 32.1 32.6 33.2 33.2 33.1 34 34 34.2 34.3 34.6 34.8 35.4 36.1 37.8 38.1 39.1 40.4 41.7 42.2 43.7 43.3 41.8 39.7 37.7 36.6 35.9 35.4 36.6 37.4 39.8 42.6 44 44.4 44.4 43.2 42.3 41.3 40.6 38.8 38.1 37.9 37.8 37.5 37.6 37.3 36.3 36.1 36 36.6 37.5 37.8 38.2 39.7 43.6 49.1 57.4 64 60.9 55.2 50.3 48.9 47.8 49.4 51.7 54 55.7 58 59.9 59 63.4 62.6 62.6 61.8 60.8 59.9 58.6 57.3 56 55.7 55.3 55.1 54.5 51.9 51.7 53.1 53.7 54.4 55.5 56.8 58.3 59.7 61.7 63.3 64.8 64.3 66.6 68.7 69.4 69.9 69.7 69.9 69.2 69.9 70.9 72.2 73.9 75.6 76.8 77.7 79.3 79.6 80.4 83.3 89.8 94.8 99.7 107.6 114.4 118.5 130.2 142.8 153.1 156.5 156.7 159.2 166.2 174.2 179.9 185.3 191.2 195.6 200.2 205.4 211.3 216 223.2 230.4 240.3 246.2 253.7 260.2 270.2 279.8 286.8 294.4 297.4 310.4 314 323.5 326.6 326.9 327.1 327.3 327.4 327.6 327.8 327.8 328.2 327.6 326.4 324.8 324 320.9 317.6
26 24.8 25.5 25.9 26 26 25.6 25.7 26.1 26.4 26.8 26.8 26.7 27.3 27.5 27.7 27.8 28 28.2 28.4 28.6 28.8 29 28.8 29.6 29.5 29.3 29.6 30.2 30.6 30.9 31.3 31.6 31.4 31.8 31.4 31.8 32.4 32.9 33.4 33.3 34.3 34.3 34.4 34.6 34.9 35.1 35.4 35.7 36.8 37.2 38.1 39.1 40.2 41.2 42.9 43.7 43.3 41.3 39.3 38.2 37.2 36.2 36.9 37.4 37.9 40.7 43.8 44.8 44.3 42.7 42.5 42.1 40.2 38.7 38.3 38 37.7 38.8 37.5 36.9 36.7 36.5 36.4 36.5 37 37.5 38 38.8 42.7 47.7 54.4 62.7 66.2 61.5 56.3 51.9 50.4 51.1 52.4 54.1 56.3 56.5 60.3 61.5 62.4 62 61.4 60.8 59.6 58.8 57.6 56.5 56.2 56.3 56 55.7 55.3 54 53.5 53.6 54.2 55.4 56.6 57.2 58.6 60.1 62.4 64.9 66.3 66.7 65.7 67.7 70 70.7 70.7 70.6 71.8 70.6 71.9 74.6 76.2 76.1 77.3 77.8 78.9 79.2 79.7 81.8 85.5 90.8 96.2 104 112.1 117.1 127.5 137.7 147.8 154.8 151.8 154.6 161.6 168.2 172.4 175.6 182.8 187.9 191.3 198.6 203.9 211.7 219.3 227.1 234.9 239.9 244.3 251.8 256.4 268.6 281 287.2 293.5 303.9 314.4 319.1 324.9 326.3 326.9 327 327.2 327.3 327.3 326.5 328.7 328.6 328 326.3 324.8 321.5 318.8
26.9 24.9 26.1 25.7 25.2 25.2 25.7 25.8 26.2 26.6 26.9 26.3 26.3 26.9 27.2 27.6 28.1 28.2 28.3 28.5 28.7 29 29.2 28.6 29.7 29.6 29.8 30.2 30.4 30.6 31 31.4 31.3 31.8 32.2 32.6 32.8 33.1 33.4 33.6 33.9 34.4 34.6 34.6 34.9 35.2 35.4 35.7 36 36.2 36.8 37.7 38.6 39.5 40.4 42 44.1 44 42.8 40.9 39.3 38.1 37.9 39.2 38.4 37 37.7 39.6 41.8 42.9 42.4 42.1 41.6 40 39.2 38.4 38.1 38 40.9 37.9 37.4 37.1 36.9 36.8 36.9 37.2 37.2 37.7 38.6 41.9 44.4 50 57.6 64.5 66.7 62.5 57.8 54.6 54 55 56.2 55.6 60.3 61.6 62.9 64.5 62.5 61.7 60.8 59.7 58.4 57.2 56.3 55.5 55.8 55.3 55.1 55.6 54.2 53.5 53.7 55 56.5 57.8 58.4 59 60.5 63.1 65.6 67.4 68.1 68.7 67 69 70.8 71.6 71.5 72.1 72.2 73.5 75.1 75.6 77.3 77.9 79.1 78.9 79.2 79.9 80.7 82.2 86.1 92.4 100.5 109.8 114 125.2 134.5 140.5 145.4 142.9 150.1 155 160.1 165.4 169.9 176.3 181.7 185.9 194.3 202.4 209.4 216.6 221.6 227.8 232.8 237.1 243.9 251 255.3 265.5 278.3 289.1 296.3 308.8 316.1 323.2 325 325.8 326.2 326.2 325.8 326.5 328.1 328.9 328.4 327.7 328.1 324.9 322.2 319.7
26.3 26.2 25.2 25.7 24.7 24.7 25.8 26 26.3 26.7 26.6 26.4 26.6 26.8 26.8 27 27.5 28.2 28.6 28.7 28.9 29.1 29.3 28.7 30 30.1 30.4 30.5 30.6 30.8 31.1 31.5 30.6 32.1 32.6 32.8 33 33.2 33.5 33.8 34.1 34.4 34.8 34.9 35.1 35.4 35.7 36 36.2 36.4 36.6 37.3 38.2 39.1 39.7 40.7 42.8 43.8 44 42.4 41.1 39.4 38.3 37.6 39.3 37.9 37.3 38.2 38.1 40 41.2 41.1 41.1 40.4 39.6 38.8 38.2 38.9 39 39.4 38.5 37.8 37.3 37.1 37.7 38.3 38.1 37.9 38.5 39.7 41.7 46.4 53.5 61.2 66.6 67.7 64 59.9 58.7 57.4 58.8 61.2 63.1 64.3 64.9 67 65.4 62.8 61.5 60.4 58.9 57.5 56.4 55.5 54.9 55 55.4 55.9 54.3 53.8 53.7 55.4 57.1 58.7 59.4 60 61.1 63.7 66.2 68.6 69.4 70.2 69.6 68 69.3 71.1 71.9 72.7 73.3 74.3 75.3 76.4 77.6 78.1 78.4 79.5 80 80.9 81.7 82.6 84.5 89.5 96.5 105 111.2 118.9 129 132.9 133.7 136.8 146.8 151.4 156.3 161.3 166.6 173.4 177.2 182.2 191.4 200.1 207 211.9 215.2 218.9 221.9 229.3 235.2 241.2 245.9 256.9 263.9 285.1 292.9 302.1 312.9 318.7 323.6 324.2 324.4 325.8 326.5 327.8 328.2 328.6 329 329.5 328.6 325.5 323.3 320.8
24.4 24.6 24.9 25.3 25.7 25.8 26 24.7 25.9 26.6 26.4 26.3 26.8 27.2 27.2 27.2 27.3 27.5 28.3 28.8 29.1 29.2 28.2 28.8 30.2 30 30.5 30.6 30.9 30.9 31.2 31.5 32 32.3 32.8 33 33.1 33.4 33.6 33.9 34.2 34.5 34.8 35.1 35.5 36 36 36.3 36.5 36.7 36.8 37 37.7 38.6 39 39.5 41.2 41.6 42.5 43.7 43 41.1 40.2 39.4 38.6 38.8 37.3 37.5 38 37.8 38.9 40 40.4 39.8 39.1 38.5 39.2 39.9 40.6 41.9 41.4 40.2 39 38.3 38.8 39.3 39.2 38.4 38.8 39.6 41 44.5 50.1 57.7 64.9 69.4 68.5 65.4 55.9 62.3 64.4 65.3 66.5 67.6 69 70.2 68.6 66.2 63.5 62.8 60.6 59.2 57.7 56.1 56 55.7 55.7 56.1 54.7 55 54.5 56.2 57.8 58.9 59.8 60.4 61.3 63.7 66.7 68.9 70.4 71.1 71.9 71 70.1 70.1 71.8 73.5 74.3 74.8 75.2 76.2 77.6 78.1 79.5 80 80.6 81.4 82.4 83.6 84.6 87.5 93.2 100.8 107 113.7 120.1 122.5 127 136.9 144.6 149.9 154.6 159.1 163.3 169.2 174.5 179.3 187.1 195.6 201.3 206.1 209.2 212.3 214.4 219.5 226.7 233.4 238.8 248.4 259.1 273.2 288.2 295.9 306.8 314.4 319.1 319.9 323.5 325.5 327.1 327.5 327.9 328.3 328.7 328.9 327.6 325.7 323.9 321.7
24.3 24.4 24.8 25.2 25.5 25.7 26.1 26.8 26.9 26.9 26.3 26.5 27.1 27.6 27.6 27.6 27.8 28.1 28.2 28.1 29 28.6 29.4 30.1 30.1 28.4 30.4 30.8 31.1 31.1 31.4 31.9 32.4 32.1 33.1 33.1 33.2 33.5 33.8 34.1 34.4 34.7 34.9 35.1 35.4 35.7 36.1 36.4 36.7 36.9 37.1 37.2 37.3 38.2 38.3 38.8 39.3 39.8 41.1 42 42 40.8 41.2 40.6 40 39.3 38.8 38 38.6 38.9 37.8 38.9 39.8 39.1 38.6 39.1 40.3 41.2 42.7 43.7 44 42.5 41.2 40.5 40.1 40.4 39.7 39.1 38.8 39.6 41 43.2 48.1 54.2 61.1 67.3 70 67.4 65.2 68.6 69 69.7 70.7 72.5 74.1 74.2 73.2 71.5 66.4 63.7 62.1 58.6 57.3 56.8 57 56.7 56.1 56.4 56 56.4 55.3 56.9 58.1 59 60 60.8 61.7 63.4 65.9 67.8 69.6 71.8 72.8 72.7 72.6 71.3 71.1 72.5 73.8 75.2 76.3 76.2 77.9 78.7 80.1 80.7 81.2 82 83.4 84.6 85.7 87.9 91.6 97.9 103.7 108.5 114.4 120.7 128.1 136.2 141 145.1 148.7 151.7 159 167.7 174.5 175.7 182.1 189.2 193.7 198.4 200.3 204.9 209.9 211.1 217.9 225.2 233.8 241.9 251.9 263.8 283.1 294.9 304.8 312.4 314.1 317.7 322.4 325.4 327.2 328.1 328.5 328.9 329.3 328.9 327.9 326.3 324.2 321.4
24.8 24.5 24.6 25 25.4 25.6 26.2 26.8 26.9 26.9 26.4 27.4 27.4 28 28.1 28.1 28.2 28.4 28.9 29 29.1 28.7 29.6 29.9 30 30.1 30.1 30.1 31.3 31.4 31.6 32 32.9 32 33.3 33.3 33.4 33.6 33.9 34.2 34.5 34.7 35 35.6 35.4 35.7 36 36.3 36.6 37 37.3 37.5 37.6 37.7 38 38.3 38.5 38.8 40 40.8 40.6 40.7 41.1 41.5 41 40.3 39.9 39.5 39.2 38.7 38.5 38.3 39.2 38.8 39.4 39.9 41.4 40.9 44.1 45.8 45.8 44.4 43.8 43.9 43.2 42.7 41.2 40.6 40.3 40.1 41.1 43.2 45.9 51.5 57.3 63.3 59.4 71.1 72.4 72.3 72.2 73.8 75.7 76.2 76.7 76.2 76.3 74.3 70.9 62.7 62.5 59.5 57.5 57.4 57.9 57.8 57.1 57.5 56.4 56.5 55.9 57.2 58.2 59.2 60.2 61.1 62.1 63.5 64.8 66.8 68.9 71.5 73.1 73.2 73.9 73.4 71.6 72.6 73.9 75.2 76.6 77.3 78.4 79.5 80.1 81.3 81.7 83.2 84.4 85.6 86.8 89 91.5 95.7 100.4 104.2 109.9 117.5 124.9 131.9 136.1 138.7 140.3 145.2 156.5 166 173.7 175.7 175.7 181 185.1 190.4 193.9 198.1 201.4 204.7 211 218.8 230.1 238.6 247.5 261 277.1 291.2 300.3 308.2 311.8 316.7 321.5 325.1 327.1 328.5 329.1 329.5 329.5 329 328.1 326.5 323.8 320.8
24.9 24.7 24.6 24.9 25.3 25.7 26.3 26.7 26.8 26.9 26.9 27.4 27.7 28.3 27.8 27.2 27.9 28.6 28.7 28.9 29.3 29 29.8 29.8 29.9 29.9 30.1 30.8 31.4 31.4 30.5 31.3 31.9 31.8 33.5 33.5 33.5 33.8 34 34.3 34.6 34.8 35 35.3 35.3 35.6 36 36.3 36.6 36.9 37.3 37.6 38.4 38.9 38.4 38.8 39.2 39.5 40.3 40.2 40.1 40.5 40.9 41.4 41.8 41.3 41.1 40.7 40.1 39.7 39.4 39.5 39.2 39.6 40.1 40.9 43.2 44.7 47.8 48.2 47.6 46.3 46.3 46.7 46.6 45.9 45.3 43.5 42 41.9 41.6 42 44.8 49.8 54.2 54.5 64.5 69.3 72.5 72.8 72.6 74.3 75.8 76.5 77.1 77.2 77 76.2 70.3 67.4 64.2 61.1 58.7 58.2 58.2 57.9 57.7 57.5 57.4 57.3 57 57.4 58.4 59.4 60.3 61.3 62.1 63.6 64.8 66 68.3 71 73.5 73.8 74.6 74.9 73.3 73.4 74.8 76.1 77 77.4 78.3 79.5 81.4 81.9 82.8 84.3 85.5 86.7 87.9 89.3 91.4 93.8 97 101.5 106.5 113.5 119 123.8 128.8 131.1 132.5 141.3 152.4 162.6 170.4 171.4 171 174.7 178 180.6 185.4 190 194.1 198.1 208.4 215.8 225.8 236.5 244.9 259.2 274.7 290.2 301 308.2 313.2 316.1 320.5 324.1 326.7 328.3 329.7 330 329.6 328.4 328.3 326 323.1 320.2
25.6 25.2 24.8 25 25.2 25.8 26.4 26.5 26.7 26.8 27.8 28.3 28.7 28.9 29 28.4 28.9 28.7 28.8 29 29.3 29.4 29.7 29.7 30 30.3 30.8 31.4 31.9 31 31.8 31.3 30.7 31.3 33 32.8 33.7 33.9 34.1 34.4 34.6 34.9 35.1 35.3 35.8 35.6 35.9 36.2 36.5 36.8 37.2 37.7 38.5 38.7 38.5 39.4 39.5 40.6 40.2 39.6 40 40.4 40.8 41.2 41.6 42 41.6 41.6 41.1 41 39.7 40 40.2 40.8 41 42.1 43.9 48 50.7 50 49.3 49 50 51.1 50.7 49.7 48.7 47.7 46.4 45 43.7 43 44 47.7 51.6 56.6 62.6 67.6 70.9 73.1 73.1 74.7 75.9 76.8 77.2 76.2 76.9 73.4 69.5 68 65.5 62.7 59.8 59.8 60.3 59.6 58.8 58.2 58 57.8 57.7 57.7 58.5 59.5 60.5 61.3 62 62.8 64.2 65.3 67.5 70.5 72.1 74.3 75.2 75.3 75.5 74.6 75.6 76.7 77.2 77.7 78.4 80.3 81.7 82.9 83.2 83.8 85.1 86.1 87.7 89.4 91.2 93.4 96.1 98.9 104.4 110.4 115.4 119.3 121.7 124.7 126.5 136 145.8 152.4 158.1 159.6 163 167 169.8 174.8 179 184 189.3 194.8 205.7 215.8 225.5 237.4 245.6 258.8 276.3 291.2 301.2 308.9 313.5 315.3 317.8 321.5 325.3 327.7 328.5 328.6 327.4 326.2 326 323.4 321.5 320.1
26.4 25.7 25.2 25 26.1 25.8 26.2 26.4 26.4 26.7 27.8 29 29.2 29.5 29.7 29.6 29.4 29.2 28.9 29.1 29.3 29.6 29.9 30.2 30.6 31 31.5 32.1 32.3 30.9 31.9 31.3 31.9 32.6 33.3 35.3 33.5 33.9 34.2 34.4 34.7 34.9 35.2 35.4 35.5 35.6 35.9 36.2 36.4 36.7 37 37.8 38.6 38.2 39.7 39.6 39.6 40.1 39.8 39.8 40.1 40.2 40.6 41.1 41.5 41.9 42.3 41.8 41.3 41.1 40.8 40.6 40.3 39.7 40.2 41.2 44 47.7 49.5 48.8 47.7 49.3 50.9 52.9 53.8 53.9 52.5 51.1 50.2 48.8 47.5 46.8 45.5 46.6 50.2 55.1 60.4 65.5 69.2 71.5 73.7 74.6 75.4 75.9 76.3 75.4 73.2 70.6 68.8 68.4 66.1 63.8 61.5 60.4 60.2 60.5 60.2 58.3 58.7 58.4 58.2 58.4 59 59.7 60.5 61.2 61.9 62.7 63.4 64.8 66.6 69.2 70.6 73.9 75.4 76.2 76.9 76.1 76.5 76.9 77.5 78 79.3 80.8 81.5 82.3 83.2 84.7 85.7 86.6 88 89.5 91.3 93.2 95.4 99.3 103.9 109.9 112.2 114.1 115.6 118.3 123.4 131.5 139.3 143.9 146.4 150.4 154.7 159 164.4 171.1 176.7 181.1 187.4 196.4 204.9 216.2 224.8 236.1 246 259.2 275.9 291.7 300.2 310.1 313.6 315.5 317.5 319.5 322.5 324.7 325 325 324.6 324 322.8 321.8 320.1 321.1
26.1 25.1 25.4 25.7 26.1 25.7 25.9 26 26.1 26.6 27.6 28.4 29.1 29.8 30.2 30.1 29.9 29.9 29.8 29.7 29.8 30.2 30.5 30.9 31.3 31.7 32.2 32.8 32.7 32.1 32.5 32.7 32.9 33.2 33.8 34.7 34.4 33.1 34.7 34.9 34.9 34.9 34.9 35.9 35.9 35.9 36.1 36.4 36.7 36.9 37.1 38.1 39.3 39.7 40.3 40.2 39.3 39.4 40.2 39.9 40.5 40.6 40.5 40.9 41.3 41.7 42.4 41.6 41.5 41.4 41.7 41.7 41.6 41.4 40.1 41 42.1 42.7 43.3 43.4 44.3 45.9 48.2 50.9 54.1 55.3 54.7 54.5 54 53.1 51.8 50.7 49.4 51.7 48.6 52.4 56.7 61.8 65.4 68 70.1 72.7 74 73.8 73.3 72.8 72 69.6 67.2 68.5 67.9 65.7 63.6 62.4 61.3 61.2 60.5 59.3 59.4 59 58.8 59 59.3 59.9 60.6 61.4 62.1 63.1 64.1 65.5 65.7 66.9 69.7 72.9 75.1 76 76.7 77.6 77.7 77.5 78 79 80.3 80.5 82.5 83.4 83.6 85.5 86.6 87.5 88.8 90.3 91.7 93.4 95.7 99.8 103.8 108 109.1 110.3 112.8 115.8 121 129.7 136.6 134.7 138.3 143.6 150.3 154.2 161.7 168.2 174.7 181.2 188.1 197.9 206.6 216.4 225.4 236.5 249.7 262 281.9 292.6 300.4 310.1 314.6 315.8 317.7 318.3 318.5 319.9 320.6 320.7 320.4 320.2 319.8 319 317.1 318.9
26.2 25.1 25.2 26.3 26.6 26.3 26.2 25.8 26 26.6 27.1 27.8 28.6 29.3 30.4 32.8 32.7 32.7 32 31.3 31.4 31.8 32 32.3 32.5 32.7 32.8 33.4 33.4 33.2 32.5 32.8 33 33.3 34.2 34.4 34.4 34.4 33.7 34.4 34.3 34.3 35.2 36.2 36.2 36.3 36.4 36.7 36.9 37.2 37.2 37.7 38.6 39.6 39.9 40.6 39.4 39.6 39.9 39.8 40.2 41.1 41 41 41.2 42 42.3 42.1 41.9 41.8 42.6 42.7 41.9 41.6 42.2 41.9 42.2 42.7 41.6 41.2 41.8 42.8 45 48 51.5 55 56.4 56.6 56.3 56 55.9 53.8 52 50.6 49.5 51.1 54.5 57.6 60.2 62.4 65.1 67.4 68.7 69.1 69.5 70.7 68.7 68 67.4 67.4 68.7 67.5 65.7 64.4 63.3 61.9 61.2 60.4 59.7 59.4 59.5 59.6 60 60.4 61 62 63.1 64.1 64.9 65.6 66.4 67 68.6 70.3 72.5 74.5 76.2 77.4 77.5 78.4 79.4 79.5 80.3 80.9 82.8 83.7 84.3 85.7 86.5 88.4 89.7 91 92.2 94.8 96.8 98.5 103.1 106.4 106.7 108.5 110.8 113.2 119.8 126.2 128.5 129 134.5 143 149.1 155.3 160.7 168.6 174.7 183.5 192.6 200.5 207.6 217.1 227.1 238.8 254.1 264 282.8 294.2 300.6 309.2 316.2 317.4 316.8 315.1 315.4 315.4 316.1 316.1 315.9 315.8 316.8 315.5 314.9 316.6
26.1 25.3 25.6 25.8 26.4 26.1 26.3 25.9 25.9 26.5 27.3 27.5 28.3 29.3 32.3 35.2 37 36.3 34.6 33.8 34.1 34.3 34.6 35 35.2 34.6 34.4 34.6 34.8 34 33 32.9 33.1 33.4 34.2 34.2 34.2 34.7 34.4 34.7 34.9 35.1 35.1 36.2 36.5 36.6 36.7 36.9 37.1 37.2 37.3 37.3 38.2 39.1 39.4 39.6 40.1 40.5 40.9 40.5 40.6 41.5 41.3 41.1 42.5 42 42.4 42.6 42.3 42.3 43.4 43.5 43.1 43.7 43.1 43.4 43 43.3 43.2 42.7 42.1 41.9 43.1 45.9 49.4 52.9 56.2 57.1 57.8 58.1 58.3 57.4 51.7 53.2 51.2 49.9 52.5 54.3 56.2 58.3 60.6 62.7 64.4 65.5 68.1 68.8 69.7 69.6 69.4 69.2 69 68.8 68.1 67.1 65.4 63.3 62.4 61.4 60.2 60.2 60.3 60.4 60.7 61.4 62.1 63.1 64.1 65 65.3 66 66.7 67.3 68.1 69.2 70.6 72 74.2 75.9 77.3 78.2 79.7 80.4 81.1 81.7 82.7 84.7 84.7 85.9 87.2 87.7 89.3 91 92.5 95.7 97.5 99.3 101.3 102.9 104.6 107.1 108.8 111.6 115.6 121.3 121.2 125.6 131.4 141.2 149.3 155.8 159.4 166.5 175.4 185.2 192.7 201.8 209.9 219.2 228.7 241.4 256.2 267.7 284.6 295.7 303.6 308.8 317.2 318.9 317.6 315.3 311.8 311.8 311.8 311.7 311.5 311.1 311.7 311 312.6 314.4
26 25.5 26.3 26 25.8 25.9 26.4 26 25.8 26.6 27.4 27.2 28.3 31.2 34.1 37 39.4 39.5 37.6 36.7 36.8 37.1 37.5 37.7 37.1 36.5 36.5 36.4 35.9 34.7 33.7 33.1 33.2 33.4 33.9 34.1 34.7 35 34.4 35.9 36.5 35.9 34.9 35.6 35.9 36.2 36.5 37.1 37.3 37.3 37.3 37.3 38.3 39.4 39.3 40.2 40.7 41.1 41.4 40.9 40.8 41.1 41 41.8 42 42.4 42.3 42.4 42.6 43.6 43.5 43.6 43.2 43.8 43.5 43.4 43.7 44.2 44.7 44.2 43.2 42.7 42.1 43.8 47.2 50.8 54.3 56.9 58.3 59.1 59.4 57.8 57.8 55.4 53.2 52.2 52.1 52.9 54.5 56.5 58.8 60.6 63 65.9 67.4 69.5 70.4 71.1 71.7 72.1 71.8 71.4 70.8 69.5 67.5 65.4 63.7 62.6 61.6 61.5 61.4 61.4 61.6 62.6 63.1 63.4 63.6 63.8 64.6 65.7 67.2 68.3 67.4 68.3 71 71.8 72.6 74.3 76.3 77.7 78.6 80.7 81.8 82.4 83.1 84.5 85.3 85.6 86.9 88.4 89.6 90.8 92.7 94.7 97.3 99.1 100.4 102.5 104.5 106.1 108.3 110.4 112.8 116.7 120.3 127.1 131.4 142 150.1 158.5 163.3 171.5 178.9 187.7 195.4 204.3 211.1 222.5 229.9 242.3 258.1 273.9 285.6 298 305.3 311.1 318.4 319.4 318.3 316 312.9 307.5 306.9 307.2 306.7 306.1 306.3 304.9 306.8 310.4
25.9 25.6 26.2 26.8 26.2 26.1 26.5 26.1 25.8 26.2 27 27.4 28.3 30.7 33.1 35.6 38.9 40.8 40.9 40.1 40.2 40 40.2 39.7 39.5 37.8 37.2 37.5 37.1 35.4 34.5 33.5 33.4 33.7 34 34.6 35.1 35.4 35.6 36.3 36.7 36.7 36.4 36.1 34.8 35 35.1 35.2 36.8 36.7 36.6 37.3 38.9 39.7 39.6 39.6 40.7 41.2 41.7 41.8 41.6 41.4 41.2 41.8 43.2 43.2 43.8 43.5 43.2 43 44.7 44.2 44 44.3 44.5 44.8 44.5 44.9 45.4 45 44.3 43.6 43.7 43.1 44.8 48.5 51.9 55.3 57.1 59 59.7 52.2 58.5 57.2 55.1 54.8 54.9 54.4 54.9 56.8 59 61.5 63.8 66 68 70 70.8 71.7 72.4 72.8 73.1 73.3 72.7 71.4 68.8 65.9 65.9 65.3 64.5 63.6 62.8 62.8 63.2 63.8 63.9 63 63.5 63.9 64.6 65.5 67.2 69.3 69.6 69.2 69.7 70.4 72.1 73.8 75.5 76.1 76.9 79.1 81.8 83.1 83.5 84.4 85.5 85.9 86.3 87.9 89.1 90.9 92.9 94.9 97 98.2 99.3 101.4 103.4 105.9 108.2 110.8 114.4 119.2 122.8 129.8 135.3 143.4 149.3 157.4 165.9 174.8 182.6 191.4 198.3 206.1 214.1 223 230.9 243.7 257.1 271.7 283.9 298.3 308.3 313.9 318 319.3 317.9 315.9 313.4 309.3 304.3 301.9 301.2 301.2 301.2 299.2 301.3 305.1
27.1 26.6 26.7 26.8 26.4 26.6 26.5 26.1 25.8 26.1 26.4 26.9 27.7 29.2 31.2 34 37.2 40.8 42.1 43.4 43.4 42.5 42.7 42.6 41.4 39.8 38.3 38.4 37.3 36.2 35.2 34.2 33.6 33.8 34.5 35.1 35.4 35.2 35.3 34.9 36.3 36.9 36.7 36.3 35.2 35.5 35.9 36.4 37.4 36.4 37.3 37.6 39.1 38.7 39.5 40 40.1 41.1 41.6 42 41.8 41.6 41.6 42.3 42.9 42.9 43.4 43.9 43.4 43.8 45.2 44.6 44.5 44.7 45 42.8 45.7 45.6 46.8 45.7 44.9 44.9 44.9 44.8 42.5 45.6 48 51.9 55.6 57 58.8 57.4 58.7 58.4 57.4 56.7 56 56.4 56.8 58 60 62.6 65.2 66.9 68.6 70.4 71.3 71.8 72.3 72.3 72.7 72.3 72.3 70.5 68.5 68.1 67.8 68.2 67.5 66.6 65.8 64.9 64.8 65.1 65 64.2 63.7 64.2 64.8 66.3 68.1 69.7 70.4 70.9 70.4 71.2 70.7 73.2 74.1 74.8 75.1 77.5 80.3 82.8 83.8 84.7 85.4 86.1 86.6 87.4 89.1 91.1 93 94.8 96.3 97.2 98.3 100.3 101.9 104.4 108 113.1 116.8 122 127.4 132.3 138.9 145.1 152.3 159 166.5 174.3 183.7 192.5 201.7 208.7 216.4 226.6 237.9 246.1 258.2 268.9 280.5 297.1 308.1 315.7 317.4 318.7 316.8 314.8 312.5 309.1 304.5 299.1 296.4 296.3 296.1 295.2 297.2 300.2
26.4 26.6 26.5 26.4 26.9 26.4 26.3 26.1 25.8 26.1 26.4 26.8 27.7 28.8 30.3 32.4 35.5 38.7 42.8 44.2 44.4 44 44.8 44.3 43 41.7 40.5 40.1 39 37.9 36.7 35.4 33.9 34.2 34.8 34.9 34.5 35 35.1 36.4 36.6 36.8 36.5 36.7 36.4 36.6 36.9 38.1 38.6 38.4 37.6 37.6 38 38.9 39.3 38.5 39.3 41 41.5 42 42.1 41.9 42.2 42.7 43.3 43.3 43.3 43.6 44.3 45.1 45.4 45.7 45 45.1 46.1 45.4 46.2 46.4 47.5 46.5 45.4 46.2 46.1 45.9 44 43.3 45.9 47.7 50.6 54.1 55.6 57.1 59.1 58.9 59.5 58.7 58.4 59.5 59.1 60.3 60.6 63.2 65.7 67.4 69.7 70.5 70.9 71.2 71.9 72 72.8 71.1 70.8 70.2 70.3 70 69.8 70.4 70.4 69.6 69.4 68.1 67.5 67.7 65.9 65.3 64.7 64.5 65 67.1 68.5 69.9 71.1 71.4 71.1 72.7 72.6 71.6 72.1 74.8 75.6 77 77.9 80.2 82.6 83.7 84.8 85.9 86.6 87.3 88.8 90.6 92.5 94.3 95.6 96.1 97.3 99 101.4 105.1 109 113.9 119.4 124.5 128.4 134.2 142.5 149.4 155.4 162.9 169.3 175.6 185.2 193.5 202.1 211.6 222.4 233.5 244.7 253.4 262.6 272.7 282.5 297.2 308.6 316.1 317 317.4 315.5 313.5 311.2 308 303.4 299.1 294.4 292.6 292.8 293.6 295.9 301.5
26.8 26.7 26.5 27.1 26.5 26.1 26 25.9 25.8 26.1 26.4 26.7 27.5 28.4 29.8 31.5 34.2 37.7 40.1 42.9 44 45 45.3 45.5 45 43.9 42.8 41.9 40.7 39.4 37.4 35.7 34.4 34.4 35 35 34.6 35.4 36.1 36 36.8 36.1 36.2 37.2 38.9 37.7 38.4 38.9 39.5 38.7 38.2 38.1 38.2 39.1 39.5 40.4 39.7 40.9 40.9 42.1 42.4 42.1 42.3 42.6 43.2 43.8 43.8 43.9 44.7 45.6 45.2 45.4 46.4 46.5 46.8 46.1 46.4 46.7 47.9 47 46.8 46.4 47.1 47.1 46.8 45.3 46.4 45.7 47.7 50.4 52.6 55.2 57.6 59.5 60.5 60.8 60.6 60.3 60.2 60.9 61.5 63.5 65.9 67.4 68.3 68.9 69.9 70.6 71.1 71.4 72 71.5 71.1 70.6 70.8 71.3 72 72.6 73.1 72.6 71.9 71.8 72.2 70.1 66.9 65.8 65.2 64.8 66 66.3 68 69.9 71 71.9 72 73.3 74.3 74.5 74.6 75.7 76.6 77.5 78.7 80 81.8 81.8 83.1 84.6 86.1 87.5 88.8 90.1 92 93.7 94.9 95.3 97 99.7 102.6 106.9 110.5 114.6 118.9 123.7 128.1 133.7 141.6 149.5 157.4 165.8 172.9 180.8 188.3 194.1 202.3 216.3 221.9 237.1 249.4 260.4 272.1 282.5 287.9 302.2 312.4 316.5 317.9 316.4 314.4 312.4 309.7 305.9 301.5 297.3 293.6 290.5 291.8 293.1 297.5 302.6
26.6 27.2 27.3 27.2 26.1 25.9 25.8 25.9 25.8 26.4 26.4 26.7 27.4 28.2 28.9 30.9 34 37.4 38.9 41.2 42.7 44 45.9 46.1 46.2 45.3 44.2 42.6 40.9 39.2 37.6 35.9 35.1 35 34.9 35.2 34.6 35.6 35.7 35.8 36 35.8 37.2 38 38.4 38.8 38.6 39.1 39.6 40 39.6 39.4 39.1 39.7 40.1 39.8 39.9 40.6 41.2 42.1 42.4 43 42.5 42.5 43 44.2 44.5 44.7 44.9 46.3 45.6 46.8 46.1 47.1 45.9 47.2 47.4 47.8 48 48 47.9 47.4 47.9 48.3 48 47.4 46.6 45 45.7 47.5 51.6 53 55.6 58.6 60.1 61.8 62.4 62.2 61.9 61.6 63 64.7 65.6 66 66.5 67.1 68.9 69.7 70.3 70.1 71 70.4 71.1 71 71.4 72 72.7 74.4 74.7 74.6 74.2 74.1 74.6 71.6 68 66.3 65.9 66.1 67 67.2 67.4 69.5 70.6 71.7 72.7 73.5 74.5 75.4 75.6 77 76.3 77.8 79 79.4 79.7 80.8 81.9 83.5 85.1 86.9 88.6 90 91 92 92.6 95.9 98 99.8 102.8 107.1 112.6 112.7 117.7 122.8 129.5 135.4 142.7 150.5 158.1 167.4 176 183.3 189.9 196.9 204.4 215.6 225.8 240.3 250.9 261.7 275.5 286.3 295.4 310.3 317.5 318.1 317.9 316 314 310.7 307.1 302.7 298.8 295.3 292.3 289.1 286 292.4 297.9 303.3
26.5 27.4 27.5 27.4 26.1 25.9 25.9 25.9 25.9 26.4 26.9 26.8 27.2 28.1 29.1 30.5 35.4 40.2 40.1 39.7 41.4 42.8 44.9 46.7 47 46 44.9 43 41.1 39.4 37.7 36.1 35.8 35.7 35.5 35.2 34.7 35.8 36 36.3 36 35.8 37.1 37.5 38.2 38.8 38.7 39.2 39.7 40.2 40.8 40.6 40 39.9 40.6 40 39.9 40.2 40.6 41.5 42.4 43.2 43.4 43.4 43.3 43.9 45.3 45.9 46.3 46.1 46.3 47.5 47 46.9 43.4 47.1 47.8 48.4 48.2 49.1 48.6 48.1 48.7 48.7 49.2 48.8 47.8 46.5 45.9 46.7 50.6 53.6 55.4 57.7 60.3 62.1 62.3 62.3 62.1 61.7 62.7 63.8 64.2 64 64.2 65.6 67.6 68.7 69.4 70.2 70.6 70.5 70.5 71.2 72.1 73 73.7 74.7 74.7 74.5 74.5 74.8 73.7 70.7 68.9 67.6 67.1 67.6 67.9 68 68.2 69.1 70 70.8 71.9 72.9 74 75 75.1 77.6 78.5 78.6 77.6 79.3 81.3 81.4 82.8 83 84 86 86.7 88.3 90.2 91.3 93.2 94.5 97.2 99.6 102.4 105.5 107.7 110.7 114.5 121.6 127.4 135.1 142.5 150.7 159.8 169.1 177.6 185.7 191.7 201.8 211.5 220.2 229.9 242.9 252.5 262 278.3 289.6 297.8 312.9 319.5 317.9 317.8 315.5 312.5 308.3 304.6 299.8 296.4 293.9 291.1 286.5 283.9 291.2 297.3 303.1
27.6 27.9 27.7 27.5 26.1 26.1 26 25.9 25.9 26.4 26.9 27.5 27.3 28.3 29.6 30.7 36.6 42.5 42.1 40.7 41 42.1 44.1 46.2 47.1 46.7 45.6 43.4 41.2 39.6 37.9 36.5 36.4 36.3 35.7 34.8 35.2 35.9 36.4 36.8 36.7 36.7 36.6 37.2 37.9 38.5 38.9 39.3 39.8 40.3 40.7 40.1 40.3 40.6 40.2 40.2 40.3 40.6 41.3 42 42.7 41.8 43.1 43.4 43.3 44.7 45.2 45.5 45.8 45.8 47.3 47.5 47.7 47.8 44.1 47.6 48.1 48.3 48.5 47.7 48 49 48.5 48.7 49.2 50.1 49 47.9 47.1 46.3 51.1 52.6 55.2 57.3 58.6 60.3 61.3 62 61.5 60.9 61.6 61.7 61.7 62.1 63.4 64.4 66 67.6 68.8 69.1 69.8 70 70.4 70.8 71.9 72.8 73.8 74.5 74.3 74.1 74 74.3 72.4 71.4 70.2 69.1 67.5 67.8 68.6 68.7 69 69.1 69.7 70.4 72 72.5 73.5 74.5 76.9 77.7 77.5 77.7 78.1 80.2 81.6 81.9 83.3 84.8 84.9 85.8 87.2 89.1 89.8 91.7 94 95.1 97 99.4 102 104.5 106.4 109.3 113.4 118.9 124.4 132.3 142.9 152.5 162.2 169.4 178.6 187.4 195.3 205.3 217.5 224.1 236.6 244.2 253.5 263.1 278.9 291.1 298.6 311.4 318.9 317.1 317.1 314.5 311.3 307.6 304.5 300.6 296.4 293.4 290.9 284.6 281.3 289.7 296.3 301.4
27.9 28.2 28.3 27.1 26.3 26.2 26.1 26 25.9 26.4 26.9 27.4 28.1 27.9 29.2 30.4 34.3 38.3 40.9 41 40.7 41.6 43.7 45.8 47.4 47 46.2 43.9 41.7 39.7 38 37.2 37.1 36.3 35.7 35.3 35.2 35.9 36.6 37.1 36.9 36.6 36.6 37.2 37.7 37.8 38.9 39.5 40 40.5 40.8 40.5 41.4 41.3 40.7 41.5 41.6 41.2 41.9 42.6 42.6 42.4 42.1 42.7 42 44.8 44.7 45.3 45.4 45.7 47.1 47.2 47.3 47.7 47.7 48.2 48.5 48.9 48.9 49 49.1 49 48.6 49.4 50.1 50.8 50.2 49.3 48.2 46.7 52.2 53.9 55.8 57.2 58.5 58.2 58.5 60.9 61.1 60.4 59.2 60.5 60.7 60.9 62 63.2 64.5 66.1 67.5 67.9 69.2 69.5 69.9 70.3 71.4 72.4 73.4 73.9 73.9 73.8 73.6 73.8 71.3 70.4 68.8 68 67.4 67.7 68.9 69 68.7 69.8 69.8 70.8 71.5 72.4 74.1 74.5 74.9 75.7 77.2 77.8 79.1 80.4 80.1 82.3 83.2 84.1 86.5 87.2 88.4 90.1 92 93.3 94.4 95.5 97.1 99.4 101.2 103.3 105.7 108.9 112.5 117.3 122.3 130.8 143.4 154 163.6 171.9 180.5 190.3 199.7 208.8 222.6 227.2 240.6 247.2 254.9 263.1 278.8 292.2 298.6 311.4 318.3 316.5 315.7 312.9 309.8 306.3 303.8 300.6 295.7 293.3 290.3 285.7 278 287.5 293.4 298.1
28.1 28.5 28.2 26.7 27.3 26.4 26.2 26.1 26.1 26.3 26.8 27.3 28.2 28.1 28.7 29.8 31.4 34.1 38.2 40.6 40.4 41.2 43.3 45.5 47.1 48 46.8 44.3 42.2 39.9 38.2 37.9 37.1 36.5 35.9 35.8 36.2 35.9 37.1 36.7 37.2 36.7 37.5 36.8 36.5 36.4 37.4 38.6 39.7 40.8 40.9 41 41.4 41 41 41.6 42.6 42 42.7 42.5 42.1 41.8 41.7 41.8 42.9 44.8 45 45.1 45.4 45.7 46.9 47 47.1 47.1 47.9 48.8 48.9 49.2 49.4 49.4 49.3 48.9 48.7 49.7 50 50.5 50.5 50 49 48.5 54.2 55.3 55.7 56 57.5 57.5 57.2 58.2 59 58.5 57.9 58.9 60 61 62.4 63.9 64.2 65.2 66.8 68.1 68.5 68.8 68.6 68.7 70.6 71.8 72.8 73.3 73.4 73.3 73.2 72.8 70.2 69 69.3 68.2 67.1 67.3 68.3 68.2 68.7 69.7 70 70.8 71.2 71.7 72.7 75.4 74 76 77.3 78.5 80.1 80.9 81.5 82.9 83.4 84.5 86.2 88.4 89.5 90.5 91.6 93.3 94.6 96 97.2 99.2 100.6 102 104.4 108.2 111.6 116.4 123.2 131.7 142.8 153.2 162.3 170.5 181.2 190.9 200.9 210.7 223.8 228.5 239.3 251.4 257.2 264.1 277.9 293.5 298.7 313.7 317.6 315.5 313.3 310.3 305.9 302 298.9 296 291.3 287.9 287.3 283.2 274.2 284.5 289 294
28.2 28.2 28.2 28 27.1 26.9 27 26.8 26.7 27.1 26.7 27.3 28.2 29 29.5 29.9 30.7 32.1 35.7 39.4 40.1 40.8 43 45.2 46.7 47.8 47.5 45.4 42.6 40.4 38.6 38 37.4 36.8 36.2 36.3 36.7 36.9 36.7 36.6 36.9 36.8 37.7 37.5 37.3 38.4 37.6 38.3 39.4 40.6 41.2 41.5 41.1 40.8 41.1 41.5 41.4 42.5 42.5 42 41.7 41.9 41.8 41.8 42.8 44.5 45.3 45.4 45.4 46.3 46.7 46.9 47 46 47.6 47.8 49.1 49.4 49.6 49.6 49.1 48.5 49.2 50 50.1 51.2 51.1 50.6 50.4 51.9 54.4 54.6 55.1 54.9 56 55.5 56.7 56.7 55.8 55.9 58 58.8 60 61.6 63.1 63.8 64.2 65.5 67 66.1 66.7 66 66 66.2 67.7 70.5 71.6 72.5 72.8 72.7 72.7 71.1 69.6 66.8 68.1 67.1 66.9 67.4 67.9 68.4 68.9 69.3 70.6 71.4 71.9 72.4 72.3 72.2 74.2 75 76.1 77.2 79.2 80.1 81.3 82.3 83.7 84.3 86 85.8 88.5 89.9 91.4 93.1 94.6 96 97.8 99.6 101 102.9 104.8 107.6 111 115.9 125.2 133.7 143.8 152.8 162.6 170.8 180.7 189 196.6 205.9 214.9 226.1 238.9 250.2 258.9 266.5 280.1 292.9 299.2 312.2 316 313.6 309.5 306 301.9 298 294.6 291.5 287 282.4 278.4 275.9 271.8 275.8 282.1 287.1
28.2 27.9 27.9 27.8 28 27.8 27.5 27.1 27.3 27.7 27.9 27.2 28 28.8 29.2 29.7 30.5 31.8 33.6 36.8 37.9 39.5 42 44.1 45.7 47.2 47.6 46.3 44.5 41 39.1 37.9 37.3 36.8 36.7 37.3 37.8 37.3 37.2 37.1 37.4 37.7 38.4 38.4 39.1 39.2 38.9 38.8 39.1 40.3 41.3 41.7 41.4 40.9 41.8 43.1 42.4 43.1 42.2 42.5 42.8 43.1 43 42 43.4 43.8 44.6 45 45.5 46.9 46.7 47 47.2 45.3 48.2 48.3 48.6 49.3 49.7 49.4 49 48.9 49.3 50.3 51.2 51.5 52.4 51.3 50.6 51.2 53.1 53.8 54.5 54.1 54.6 54.7 55.3 55.2 54.3 56.4 57.7 59.4 60.1 62.3 63 63.5 64.1 65.4 65.1 64.7 64.4 63.4 64.5 64.7 65.3 66.6 69.8 69.2 70.1 69 68.5 67.2 66.5 66 65.3 66.9 67.6 68.1 67.8 68.3 68.8 69.3 70.2 70.8 71.3 72.4 72 73.4 74.4 75.1 75.5 76.6 78.2 79.2 80.6 81.9 83.6 84.4 85.6 87.2 87 89.6 91.2 92.4 94.1 97.1 99 100 101.4 103.8 106 108.5 111.8 116.6 124.5 134.1 144.5 154.3 165.5 170.7 178 183.8 191 200.6 211.1 221.4 230.3 245.2 256.9 268.4 282.4 294.5 301.5 311.3 313.8 311.3 307.2 303.4 299.8 294.9 290.4 288 286.7 287 287.3 286.3 279.6 269.3 272.9 279.6
28.1 27.8 27.6 27.5 27.5 27.4 27.7 27.6 27.8 27.9 27.9 28 27.8 28.6 29 29.4 30.3 31.6 33.1 35.8 39.3 40.5 42.4 44.1 45.5 46.9 47.7 46.6 44.1 42.1 40.5 38.6 38.1 37.9 37.8 38.4 39 38 37.6 37.8 38.2 38.9 38.3 40.3 40.7 39.9 38.8 38.9 39 40.1 41.3 41.4 41.1 41.2 42.6 42.8 43 43.2 43.5 43.5 43.8 43.8 44 43.3 42.1 43.6 44.7 45.4 46.2 46.7 47.2 47 47.5 47.7 48.6 48.7 48.7 49.1 49.8 49.7 49.4 49.6 49.8 50.3 51.2 52.1 52.7 52.5 51.5 56.6 50.1 49.9 54.1 53.4 55 52.9 53.1 52.8 54.3 56.1 58.4 59.8 61.4 61.8 62 62.4 62.2 62.7 61.8 61.7 61.4 61.1 62.8 63.4 64.4 63.6 64.9 65.4 66.4 66.5 65.5 65.4 64.3 66.2 66.7 67.8 68 68.5 68.3 68.3 68.8 69.2 69.9 70.4 71.6 73.1 72.6 73.2 74.5 76.2 76.8 77.7 79.1 80.5 81.3 82.1 83 84.3 85.8 87.4 88.8 89.8 89.3 90.8 93 95.3 97.6 100 101.7 104.1 107.2 109.6 113.1 118 124.6 131.7 141.6 152.4 164.4 165.4 171 179.1 188.5 200.6 210.9 218.6 228.5 245.9 257.5 268.2 282 293.6 303.5 312.3 311.6 309.4 305.8 301.9 298.6 294.6 294.2 292.3 292.9 292.1 290.9 289.1 285 280.8 268.9 267.2
29 28.4 28.2 28.4 28 27.7 26.6 27.7 27.8 27.9 27.9 28 28.1 28.4 28.8 29.1 30.3 31.6 33.6 36.1 39.1 42.2 44.7 44.6 45.7 46.7 47.5 46.9 44.4 42.1 41.4 40.5 39.4 39.4 39.4 39.3 40 39.4 38.4 38.8 39.7 40.5 40.2 40.7 40.5 39.8 39.3 39.1 39.1 39.8 40.9 40.9 40.7 42.5 43 43 43.6 43.6 43.6 44.6 44.2 43.6 43.9 44.3 42.7 43.7 44.8 45.5 46.4 46.1 47.8 46.6 46.6 48.9 48.9 49 49.2 49.3 50 50.3 51 50.5 50.7 50.8 51.2 52.2 51.9 52.8 51.6 55.3 50.2 50.3 53.5 52.3 51.6 51.8 49.8 51.7 53.3 55.4 58.4 60.3 61.5 61.2 60.3 60 59.7 60.2 59.3 59.1 59.3 59.7 61.7 61.8 62.4 62.9 63.1 63.8 63.8 64.3 64.5 65.5 65.5 66.1 67.2 66.6 67.8 68 68.4 68.4 68.7 69.2 70.5 70.9 71.6 72.8 73.7 74.4 75.1 76.2 76.9 77.3 78.9 80.6 81.5 82.3 83.4 84.6 86.1 87.8 89.5 90.7 91.4 93.1 95.2 97.2 98.1 100.4 102 104.3 107 110.9 114 118.6 126 132.6 138.8 148.4 156.7 160.3 168.2 179.4 190.9 201.6 210.6 219.4 228.6 247.2 259.8 269.8 280.7 291.6 304.1 310.1 309.4 307.3 303.8 300.9 299.8 297.6 295.9 294.9 294.9 294.4 293 291 287.9 283.9 277.2 263.3
29.7 28.6 28.1 28.4 28.4 28.2 27.6 27.7 27.8 27.9 28 28 28.1 28.1 29.4 30.7 30.9 31.9 34.2 36.5 39.5 42.6 45.8 46 46.4 46.9 47.4 46.9 44.9 42 41.5 41.1 41 41.1 41.8 41.7 40.5 40.8 40.8 40.5 40.2 40.3 41 41.6 42 41.4 40.1 39.8 39.5 39.5 40.5 40.5 41.7 43.3 44 43.4 44.1 44.3 44.2 45 45.1 45 45.1 44.4 44.3 43.8 44.9 45.8 46 45.8 47.3 46.9 51.5 49.4 49.4 49.5 49.7 49.8 50.5 51 50.7 50.8 51.1 51.4 51.7 51.9 51.8 51.8 52.5 55 50.3 50 51.8 49.3 51.8 51.2 52.5 50.9 52.2 53.5 55.7 58 59.3 59.2 58 57.3 57.2 57.3 57.2 57.6 59.1 59.7 60.6 61.1 61.1 61.1 61.7 62 62.5 63.6 63.8 64.6 65.8 65.5 66.9 67.1 67.6 67.5 67.8 68.2 68.6 69.3 69.8 70.2 71.5 72.6 73.5 73.7 74.5 75.4 76.1 77.5 79.2 80.6 81.8 82.6 83.7 84.9 86.4 88.2 89.8 90.8 91.7 92.8 95.7 96.9 99.1 100.6 102.4 104.3 107.4 111 114 120.2 126.3 131.6 140.4 146.9 152.9 159.1 168.9 179.4 189.9 198.9 207.9 217.1 225.6 245.3 261.5 271 280.5 293 303.3 308.6 307.5 305.6 303.6 301.5 300.9 298.6 297.5 296.9 296.3 295.6 293.8 291.7 288.5 284.5 280.4 269.3
29.7 29.3 29 27.9 28.7 27.8 27.1 27.4 27.4 27.5 27.6 27.7 27.9 28.4 28.9 30 31.1 32.5 34.4 37.1 39.9 43 46 47.6 47.8 47.8 47.9 47.3 46.1 44 42.3 42.4 42.4 43.4 43.5 42.9 42.6 42.5 42.5 42.1 42.4 42.1 42.3 42.5 42.9 43.2 41.6 40.6 40.3 40.4 40.2 41 41.9 43 43.1 43.9 44.5 45 44.4 45.1 45.5 45.2 45.2 45.6 45.5 45 44.7 45.9 45.6 45.8 47.4 46.9 46.3 50.8 49.6 49.7 50.2 50.4 51.1 51.4 51.5 51.1 51.4 51.8 52.1 51.9 52.1 51.9 52.1 54 50.2 50.4 52 51.9 52.1 52.6 53.9 54 54 54 52.4 53.8 55.2 55.4 55.1 53.8 53.8 55.6 55.2 55.4 58.2 59.8 59.4 59.6 59.9 60.2 60.5 61.5 62.6 63.2 64.1 64.2 65.2 65.4 65.4 66.1 67.3 67.1 67.6 68.4 68.9 68.8 70.1 70.3 70.9 72.5 73.1 74 75 76 76.4 77.8 79.4 80.6 81.9 82.8 84 85.2 86.7 88.5 90.1 91 91.8 93.8 96.2 96.9 99.9 101.3 103.1 105.5 108.5 111.4 115.3 120.6 128.5 136.5 140.3 146.2 151.9 160.6 168.5 178.2 186.1 194.2 202.4 211.1 220.7 237 254.7 266.5 276.8 290.5 300.5 307.3 307.9 306 304.1 302.3 301.3 300.2 299.3 298.1 296.9 296.3 294 291.6 289.1 285.2 281.4 275.2
29.8 29.7 29.2 29.3 28.6 27.6 27 26.9 27.1 27.2 27.3 27.6 28 28.7 29.5 31.5 32.4 33.7 35.5 37.4 40.3 43.4 46.4 48.3 48.3 48.3 48.3 47.6 46.7 46.1 44.9 43.5 43.6 44.9 45.6 45.6 45.3 45 45.2 44.6 44.7 44.1 44.3 44.5 44.3 43.8 42.2 42.1 40.7 41.1 41.9 41.5 42.1 42.7 43.6 44.3 44.9 45.5 45.1 45.8 45.6 45.4 45.5 45.6 45.7 46 45.8 45.3 44.9 46.5 47.6 47.9 46.3 46.7 47.1 49.4 50.3 50.9 51.4 51.7 51.7 51.4 51.9 52.2 52.1 51.9 52 52.1 52.2 53 52.3 53.3 53.5 53.6 53.8 54.1 53.3 54 54 51.8 53.3 54 54 50.3 50.3 52.2 52.9 54.1 54.6 54.6 55.1 56.3 57.7 58.5 59.1 59.7 60.4 61.5 62.3 62.6 63.7 64.2 64.5 64.3 65 66 66.9 66.5 67.1 67.2 67.7 68.7 69.4 69.9 70.3 72.2 73.5 74.5 75.1 75.7 77.1 78 79.4 80.6 81.9 83.1 84.3 85.6 87.1 88.8 90.4 91.1 92.8 94.8 96.5 97.7 100.5 102 104.2 106.7 111.2 115.5 117.4 120.4 129.3 137.5 143.4 149.5 153.6 157.7 165.2 172 180 188.8 197 206.2 218.2 227.2 247.2 264.9 279.9 287.5 297.9 306.8 308.2 306.3 304.6 302.9 302 300.5 299.5 298.3 297.1 295.8 293.7 291.3 289 286 282.4 277
29.8 29.7 29.2 28.5 27.7 28.2 27.6 26.8 26.8 26.9 27.3 27.7 28.3 29.1 30.2 31.7 34 35 36.3 38.5 40.8 43.8 46.6 48.7 48.8 48.8 48.6 47.9 47 47.3 45.7 46 45.5 47.1 47.9 48.3 48.1 47.8 47.6 47.3 46.7 46.2 45.4 44.9 44.4 43.9 43.2 42.2 41.6 40.8 41.1 42.3 42.9 43.4 44.1 44.3 44.4 44.6 44.7 45.4 45.2 46 46.8 47.3 47.2 46.9 46.3 45.4 46.3 47.8 47.8 48.3 46.7 46.5 46.9 49.3 50.2 51 51.5 52 51.9 51.7 52.2 52.7 51.7 51.8 52 52.2 52.7 53 53.7 53.6 53.5 53.5 53.5 54.5 53.2 52.2 53.9 53 52.3 52.7 53.2 53.8 53.3 54.5 55 55.4 55.5 55.4 55 55.2 56.5 57.8 59.1 59.5 60.2 60.2 61.6 62.2 63.1 63.1 63.3 64.5 65 65 65.2 66.1 67.9 68.4 68.4 67.7 68.7 69.3 70 71.7 72.5 74.3 75 76.4 77.4 78.5 79.9 81.4 82.8 84 85.1 86.2 87 88.5 89.4 90.7 93.3 95 97 98 100.8 102 105.2 108.8 114.1 118.6 123.1 124 126.9 134.5 141.4 147.9 155.3 161.7 166.6 171.4 179.6 188.2 196.6 205.7 215.8 226.7 240.9 257.4 274 286 296.1 305.4 308.1 307.1 305.3 303.6 302.3 300.4 299 298 296.5 294.9 293.1 291 288.5 285.4 282.3 277.8
30 29.7 29.4 28.4 28.2 28.3 28.4 27.2 27 27.6 27.6 28 28.7 29.4 30.8 32.4 34.3 36.5 38.3 40.2 42.2 44.6 46.5 48.9 49.3 49.3 48.9 48.2 48.5 48.3 47.8 47.8 47.2 47.5 48.4 49.1 49.8 49.6 49.7 48.5 48.5 47.4 46.4 46 45.5 45 44.4 42.5 41.7 41.7 41 41.4 42.3 43.2 44.2 44.4 44.5 44.6 45.1 46 46 46.1 47.2 47.7 48.1 47.9 47.7 47.8 47.5 48 47.9 47.4 47 47 47.7 47.7 49.3 50.7 51.2 51.8 51.7 52 52.5 53 51.9 52.4 52.5 52.6 55.2 53.2 53.7 53.6 53.5 53.4 53.7 53.7 54.9 53.1 52.6 53.4 53.5 54 54.5 54.6 54.1 55.5 56.7 56.4 56.8 56.9 56.3 56.2 56.9 56.8 58.7 59.7 60.2 60.4 60.8 61.8 62.2 61.9 63.5 63.3 64 64.1 64.7 66.2 67.1 67.5 66.6 67.4 67.9 69 69.8 71.2 71.9 74.7 75.5 77.3 78 78.8 81 82.5 83.8 84.9 86 87.1 88.2 88.6 89.2 90 92.1 94 96 97.8 100.2 101.8 106 109.8 116.4 121.8 127.9 132.3 136.5 141.8 147.5 150.1 154.7 164.4 170.8 177.1 183.8 188.9 198.6 208.1 218.2 228.6 239.2 252.7 269.6 283.7 294.8 302.5 307.7 307.8 307.2 304.6 302.2 299.1 298.1 295.8 294 292.3 290.6 288.8 286.2 282.9 279.4 275.7
30.2 29.8 29.2 28.5 28.4 28.6 28.8 28.5 27.3 28.1 28.7 29.4 30.1 30.8 31.6 33.3 35.4 37.2 38.4 40.3 42.8 45.3 47.2 49.1 49.8 49.8 49.6 49.4 49.8 50.3 49.9 48.9 48 47.9 48.5 48.8 49.8 51 51.2 50.1 50.3 48.7 47.6 47 46.6 46.1 45.4 43.6 41.8 40.9 40.4 41 41.8 42.7 44 44.8 45 45.1 45.8 46.9 46.9 46.8 47.5 47.8 48.3 48.6 48.4 48.2 47.9 46.8 47.2 47.6 47.3 47.6 47.9 48.8 49.1 50 51.2 51.3 51.8 52.5 53.6 53.6 52.5 53.5 53.3 53 58.6 53.3 53.7 53.6 53.9 54.2 54.4 54.3 54.2 54.1 53.6 53.4 54.2 54.8 55.3 55.2 54.9 56.3 57 57.7 58 58.4 57.7 58.2 57.8 57.7 59.2 59.8 59.8 60.6 60.9 60.7 61.8 62 62.5 62.7 63.3 63.6 64.3 65.3 66.2 66.3 66.5 67 67.8 68.5 69.6 70.9 71.8 74.1 75.8 76.3 76.9 78.1 81.9 83 84.4 85.7 86.8 87.9 89.1 89.9 90.6 91.2 92.2 94.3 95.6 97.5 99.8 102.4 105.8 109.9 115.9 123.6 131 137.8 142.3 148.8 154.8 160.4 165.5 171.7 176.1 181.6 188.5 193.6 199.6 208.4 221.1 231.7 238.4 249.3 265.7 280.6 292.4 300.7 307.2 308.4 307.7 304.8 300.5 295.9 293 291.3 288.6 286.2 284.3 282.3 280.3 277.9 274.4 271.6
29.7 29.2 28.5 28.3 28.4 28.7 29 28 27.6 28.2 28.7 29.5 31 31.6 32 34.2 36.1 37.6 38.4 40.8 43.9 46 47.9 49.5 50 50.1 50.1 50.5 50.7 51 50.6 50.8 49.5 48.9 49.4 50 50.2 52.3 52.2 51.8 51.3 50.4 48.9 47.9 47.6 47.1 44.5 43.1 42.2 41.8 42.1 42 41.3 42.2 43.9 44.6 45.3 45.6 46.5 46.6 47.1 47.4 47.7 47.9 48.2 49.2 48.5 48.4 49.5 48.4 48.4 47.7 47.7 47.6 49.9 49.2 48.5 48.7 50.3 51.5 51.8 52.8 54.1 53.3 53 52.7 54.1 53.8 54.5 53.9 54 54.4 54.7 55 55 54.9 54.9 54.8 54.9 54.7 54.4 55.4 56.1 55.7 56.3 57 56.6 57.9 58.4 59.2 58.7 58.2 58.4 58.5 59.3 59.8 59.5 59.1 60.2 60.8 61.2 62.2 62.2 62.2 62.3 63.2 63.7 64.4 65.3 65 66.2 67.2 67.9 68.8 69.8 70.2 72.6 73.6 75.8 76.3 76.3 78 82.3 83.5 84.9 86.2 87.6 88.7 89.8 91.1 91.9 92.5 93.1 94.5 96.1 98 100.3 103.2 107.2 111.7 117.1 123.9 133.1 141.4 147.3 153.6 158.8 165.1 173.1 178.4 183.4 188.8 193.8 199.2 205.1 213.6 224 235 240 248.9 264.8 278.9 289.1 296.8 304.1 308.3 307.7 305.6 300.5 295.6 290.3 284.4 281.1 277.7 276.8 275.6 273.2 271.2 268.2 265.3
29.1 28.6 28.3 28.3 28.4 28.7 28.3 27.7 27.7 28.6 29.1 30.2 31.1 31.5 32.7 34.7 35.8 34.5 38.8 41.9 44.8 46.6 48.1 49.7 50.2 50.3 50.4 50.7 51.5 51.7 51.7 52.1 51.6 50.5 50.4 50.6 49.9 51 52.1 52.7 52.1 51.2 50.8 49.3 48 46.6 45.1 43.5 42.9 42.6 41.7 41.4 41.5 42 43.7 44.5 45.2 45.9 45.6 46.1 46.7 47.2 48.2 48.4 48.5 49.5 49.1 49.7 49.5 49.3 49 47.9 48 49 48.9 48.9 49.3 49.2 50.4 51.6 51.5 52.9 53.6 53.3 53.1 53 53.7 53.8 53.9 54.6 55 55.2 55.5 55.7 55.6 55.4 54.8 54.3 54.5 55.1 55.8 55.7 56.3 57.1 56.5 57.6 57.3 57.9 59.2 59.5 59 58.6 59.5 58.9 59.3 59.6 59.2 59 58.7 59.6 60.1 60.6 61 61.7 62.4 63.4 63.1 63.5 63.9 64 66 67.4 68.4 69.3 69.7 70.9 72.9 74.8 76.1 77.7 77.8 78.4 82.5 83.9 85.3 86.7 88.1 89.4 90.6 92 93.1 93.7 94.4 95.2 97.2 99.9 102.1 105.4 110.3 115.1 121 128.1 137.3 148.3 152.3 157 161.2 166.3 174.8 184.8 192.2 196.2 202.2 206.7 212.8 219.5 228.9 239.3 246.1 252.6 265.3 277.5 285.8 293.2 300.8 306.1 307.6 306.4 303.8 301.2 296.7 292 286.1 281 277.2 273.7 269.3 265.8 263.3 261.5
28.8 28.4 28.3 28.3 28.4 28.5 28.2 28.7 28.1 28.5 29.1 29.4 30.4 31.6 32.7 33.7 34.9 34.7 39.9 43 44.9 46.4 47.9 49.5 50.4 50.6 50.7 50.9 51.5 52.2 52.5 52.7 52.5 51.6 51.5 50.9 51 51.1 52.3 52.6 52.9 52.2 51.7 50 49.2 46.9 45.5 44.3 43.9 43.6 42.2 41.7 41.6 41.8 43.6 44.5 45.3 45.5 45.8 46 46.6 47.5 48.3 48.1 48.6 49.2 49.8 50.3 51.3 50.5 47.7 48.1 49.5 50 49.7 48.8 49.1 50.3 51.2 51.5 51.8 52.5 53.3 54.2 53.3 53.6 54 57.5 54.5 54.7 54.8 55.9 56.1 56.1 55.8 55.4 55 55.2 55.2 55.8 56.3 56.6 57 57.6 57.5 58.4 58 59.2 60.1 59.8 59.2 59.3 60.1 59.8 59.5 59.5 59.6 59.8 58.9 58.9 58.8 59.6 61.1 61.9 62.6 62.9 63.3 63.6 63.9 64.4 66.1 67.7 68.8 68.9 69.6 71.8 73.3 74 76.2 79.4 79.9 81.1 82.2 84 85.5 86.9 88.4 89.8 91.4 92.8 94.2 95.3 96.2 97.5 99.9 98.6 103.6 108 114.8 120 127.6 134.9 141.4 151.2 159.2 162.7 167.3 171.4 178.5 188.5 195 203.4 207.3 213 219.1 228.3 236.8 245 250.9 258.9 267.2 276.7 285.9 292.8 297.1 306.3 309.2 309.1 309 306.4 303.8 300.2 296 293 288.7 285.1 280.3 276.8 271.6 269.8
29.3 28.6 28.4 28.4 28.4 28.4 28.4 28.4 28.3 28.6 28.9 29.6 29.5 30.7 30.7 32.8 34.6 37.1 38.8 42.8 44.1 44.8 46.4 48.1 49.3 50.3 51.1 51.2 51.5 51.7 52.3 52.8 52.7 52.4 52.3 53 51.8 51.4 52.2 52.5 52.4 52.2 52.2 51.3 50.2 48.1 46.5 45.5 45.2 45.1 43.6 42.7 42.4 42.5 42.8 43.4 45.2 45.9 46.4 46.1 46.6 47.4 48.3 48.9 48.8 49.4 49.8 50 51 49.7 47.8 49 49.8 50 49.7 48.4 48.9 50.7 51 51.2 51.7 52.3 53 53.1 53.9 54.2 54.4 55.2 55.4 55.8 55.2 55.6 56.6 55.6 55.6 55.7 56.3 56.2 56.1 56.6 56.9 57.1 57.1 57.9 58.7 59 58 59.1 59.8 60.3 61 60.2 59.6 60 60.3 59.3 59.6 60.5 60.3 59.3 59.6 60.1 60.2 61.3 62.4 63.6 63.8 64.1 64.5 65.1 66.3 67.9 69.1 69.2 70.9 71.4 73.5 75 76.3 78.8 79.4 80.8 81.6 83.4 85.3 86.8 88.3 89.8 91.7 93.2 94.9 96.7 97.6 99.5 99.2 101.7 106.3 113.8 120.8 126.9 133.6 142.4 150.2 158.4 166 171.1 174.6 178.2 184 191.6 199 205.4 213.4 221.6 227.8 235.4 244 250.1 259.9 261.2 267.7 276.4 286.7 293.7 301.4 302.2 311.5 311.6 311.9 310.8 308.7 306.1 303.8 300.9 297.9 294.7 291 286.5 281.4 280.3
29.3 29 29.6 29.8 29.8 29.6 29.4 29.1 28.9 28.6 29.1 29.6 28.1 29.7 30 31.9 34.3 37.3 39.7 41.8 42.6 44.2 45.3 46.7 47.9 48.9 49.9 50.9 51.7 52.1 52.4 52.6 52.7 52.8 52.9 52.7 52.8 52.2 52.1 52.1 52.3 52.5 52.6 52.1 50.7 49.5 47.7 46.8 47.1 46.3 44.8 44.2 43.9 43.2 43.1 43.2 44.2 45.6 46.1 47 47.1 47.6 47.9 48.6 49.3 49.4 49.2 49.7 50.9 52.6 48.4 50 50 49.9 49.7 48.6 49 50.3 50.7 51 51.5 52.5 52.8 53.2 53.6 54.8 58.7 55.3 55.3 55.4 55.8 56.3 57.7 56.2 56 56.4 56 56.4 56.7 57.1 57.4 57.5 57.5 57.9 59.1 58.4 58.2 59.1 59.5 60.7 60.9 60.4 60 60.2 59.6 59.2 60.1 60.1 60.4 60 59.8 60.2 60.8 61.2 62.3 63.5 64.2 64.6 65.2 65.8 66.5 68.2 69.1 69.3 71 72.1 73.5 74.1 76 77.8 79.2 80.5 81.2 82.8 84.7 86.5 88.2 90 91.9 93.7 95.7 97.4 99 100.6 101.1 104.6 110 117.8 127 134.4 140.8 148.8 157.7 164.5 171.6 180.9 183.6 186.1 191.5 197.5 204.4 209.9 219.3 229 235.9 244.1 251.7 257.9 261.7 264.7 269.6 276.6 285.9 293.9 303 303.1 310.2 312.9 315.4 314 311.6 309.3 307 304.3 301.8 298.9 295.6 291.7 289.3 289.2
29.2 29.8 30.5 31.4 31.3 31.1 30.9 30.7 30.4 29.2 29.6 30.1 30.4 29.7 30.7 31.1 33.8 36.7 40.3 40.5 42.2 43.7 44.9 46.3 47.1 48.1 49 50 50.9 51.6 52.1 52.3 52.4 52.6 53 53.1 53.2 52.5 52.5 52.6 52.7 52.8 52.9 53 51.8 50.8 49.8 48.4 49.2 47.5 46.3 46.1 44.9 44.3 43.9 43.4 43.4 44.9 44.7 46.3 46.8 48 48.6 48.8 49 49 49.4 49.3 50.5 52.5 49.6 50.4 50.5 50.8 50.2 50.5 49.6 49.9 50.3 49.5 51.9 52.4 52.9 53.1 53.7 54.8 55.6 55.4 55.3 55.6 56.4 56.5 57 56.7 57.1 56.9 56.7 56.5 56.3 57.1 57.9 57.9 57.9 58 59.4 59.4 59.1 60 61.1 60.6 61.7 61.3 61.1 60.5 60.5 61.5 60.3 61.1 61.4 60.9 60.4 60.4 61.3 62.3 62.3 63.5 64.6 65.2 65.9 66.5 67.1 68.4 68.6 69.6 71 71.6 72.6 73.8 75.9 77.4 78.9 79.2 80.8 82.3 84.1 85.9 87.5 89.9 91.8 93.6 95.2 97.2 99.7 103.7 105.2 108 114.4 119.4 129.6 139.8 148.7 155.1 163 171.5 178.2 186.9 192.1 196 199.7 205 210 214.5 224.6 232.1 243.1 250 254.1 258.4 262.5 266.7 271.9 279.3 287.3 293.1 302.6 310.8 316 315.4 315.8 316 313.7 311.4 309.1 306.5 303.6 300.9 297.9 295.7 293.8 293.9
30 30.9 31.9 32.9 32.7 32.6 32.4 32.2 31.6 30.5 30.1 30.4 30.6 30.1 30.2 32 35 36.2 39.7 40.3 41.8 43.3 44.5 46.4 46.9 47.5 48.5 49.3 49.8 50.2 51.6 52 52.2 53.1 53.4 53.4 53.4 53.2 53.2 53.2 53.3 53.4 53.5 53.4 52.3 51.2 51.3 51.2 51 49.4 48.7 47.9 46.7 45.3 44.7 44.6 44.1 44.8 45.3 45.3 46.7 47 47.8 48.8 49.2 48.8 48.9 49.5 50 48.6 51.9 51.5 51.5 51.7 51.5 50.5 49.5 49.2 49.1 51 51.7 52.7 53 54.5 54.8 54.7 54.6 55 55.1 55.8 56.6 57.1 57.4 57.6 58 58.2 58.4 57 56.3 57 57.2 58 58.8 60.2 59.6 60.3 60.2 60.5 62.1 61.8 61.8 61.4 61.7 61.6 61.5 61.6 60.9 61.3 61.9 61.9 61.3 60.7 61 61.6 62.4 63.3 64.4 65.2 66 66.8 67.6 67.6 68.9 70.4 70.3 72.3 73.5 74.2 75.4 76.6 78.2 79.4 80.2 81.6 83.3 84.9 86.6 89.2 91.7 93.6 95.2 97.1 100 103.3 107.3 112.2 118.6 124.4 130.5 141.3 152.2 159.8 164.2 173.4 182.6 190.7 198.7 203 206.8 210.9 214 221.5 231.1 240.9 249.8 252.9 255.3 259.4 263.7 268.2 274.1 281 292.2 296.2 300.4 309.3 314.5 315.1 315.3 315.6 314.7 312.9 310.1 307.3 304.5 301.8 299.2 297.5 296.7 297
31.1 31.8 32.5 33.4 34.7 34.3 34 33.8 32.9 31.7 30.6 30.5 30.9 30.5 31.7 33.9 35.1 36.9 38.8 40.7 41.5 42.9 44.8 46.3 46.8 47.3 47.8 48.2 48.6 49 49.5 51.5 52.7 53.6 53.8 53.5 53.5 54 54 54 54 54.1 54.2 53.6 52.4 52.2 53 53.1 52.7 51.7 50.7 49.7 48.3 46.4 46 46.1 46.3 44.6 44.9 44.6 45.3 47.2 47.7 47.8 48 48.5 49.1 49.7 50.4 50.1 51.4 51.1 51.4 51.7 51.2 51.7 52.5 52.7 52 50.7 51.9 51.9 53.4 54.2 54.6 56.2 55.3 55 55 56.4 57.6 57.8 58.5 58.3 58.4 58.5 58.4 56.6 57.8 58.6 58.3 58 58.9 60.3 59.9 60.4 61.1 61.2 62.3 61.6 62.3 61.8 61.6 62.1 62 61.3 62.3 61.3 61.9 62.2 62.6 62.1 62.7 62.5 62.6 63.1 63.9 64.6 65.5 66.2 66.7 68 69.2 70.4 70.9 71.8 72.7 74.1 74.9 75.8 77.3 79.3 81.4 82.1 82.7 83.8 85.7 88.4 91 93.6 95.3 98.1 102.3 105.6 109.5 115.2 120.9 126.7 132.8 139.6 147.7 156.3 164.7 173.3 182.6 190.2 199.2 208.1 214.2 219.8 225 232.7 239.3 245.5 250.8 253.7 256.9 260.4 264.7 269.5 274.9 282.1 291.3 297.1 298.5 307 312.9 312.7 311.4 312 311 310.1 309 307.1 304.2 301 299.4 298.1 296 295.9
30.9 31.6 32.3 33.5 37 36.7 36.4 35.7 33.9 33 31.9 31 30.9 34.1 34.4 35.2 36.7 38.9 40.1 41 41.7 42.9 45.1 46.2 46.7 47.3 46.9 47.2 48.2 48.6 48.5 49.1 50.6 51.8 52.7 52.9 53.6 54.3 54.6 54.7 54.7 54.8 54.9 53.7 53.1 53.4 54.2 54.7 54.4 53.5 52.5 50.9 49.4 47.8 46.9 46.8 46.7 46.5 46.1 45.8 46 46.7 47.8 47.8 48.2 49 49.7 50.2 50.2 51 51.5 51.9 52.4 51.8 52.1 53.1 53.9 52.8 51.7 51.1 51.2 51.8 51.6 53.6 54 55.5 55.6 55.9 56.3 56.1 57 57.5 59 58.8 58.6 58.8 58.3 57.9 58.8 58.9 58.6 58.3 59 59.8 60.1 60.6 61.7 62.1 62.3 61.8 62 62.2 63.3 62.1 61.8 63 61.8 62.1 61.9 62.3 62.4 62.3 62.3 63.2 62.5 63.1 63.9 64.5 65.1 65.9 66.8 68.5 68.6 70.1 70.5 71.1 71.6 72.4 73.9 75.7 77.7 79.7 80.8 81.2 81.8 82.7 84.9 87.6 90.2 92.9 95.4 99.4 104.7 110.2 112.5 115.4 120.4 127.3 134.1 140.5 147.1 155.8 163 170.8 179.8 189.4 197.9 207.7 216.3 224.7 234.7 239.9 243.4 246 251.2 254.4 258.3 261.5 265.7 270.9 275.7 283.3 290.1 295.8 299.6 304.3 308.8 309.4 308.9 308.4 307.5 305.9 304.9 303.4 300.3 299.7 298.7 296.6 294.8 294
30 31.4 32.3 33.6 37.1 38.6 38.8 37.5 35.2 33.7 33.1 32.4 32.1 34.2 34.9 37.1 38 39.2 40 40.9 41.5 42.6 45.2 46.2 46.7 46.5 45.9 46.3 46.6 47.6 47.4 47.8 49.2 51.1 51.6 53 53.8 54.5 55 55.3 55.5 55.5 55.5 54 54.2 54.6 55.2 55.4 55.4 55 53.4 51.8 50.2 50 49.5 47.3 47.8 46.9 47.1 47 47.1 47.5 46.8 47.6 48.3 49.4 50 50 49.8 50.8 51.1 51.5 51.9 51.9 53.3 53 53.9 52.8 53.5 50.9 49.3 51.3 51.6 51.4 53.5 55.1 56.3 55.6 56.8 56.5 57.9 57.4 58.5 58.7 58.4 58.8 58.3 58.3 58.5 58.8 58.9 58.8 59.5 60.5 60.6 60.9 60.8 62.2 62.4 62.2 62.2 63 63.2 62.8 63.7 62.5 62.4 62.7 62.7 63.1 63.3 63 62.9 62.9 63.1 63.3 63.8 64.8 65.8 66 67 68.3 68.3 68.6 70 71.3 71.7 72.6 73.6 74.1 76 78.9 80.8 81.3 82 82.6 85.1 86.8 89.4 92.1 95.1 99.8 106.9 114.2 117.5 118.7 124.4 131.9 135.7 143.8 149.4 155.4 161.3 170.5 179.4 188.4 196.1 206.2 214.2 223.3 234.9 239.3 242.8 247.3 252 254.6 259.4 262.5 267.4 272.3 277 283.6 287.8 294.1 297.9 301.8 305.1 305.9 305.6 305 303.4 301.9 300 295.7 294.6 293 293.4 293.3 292.1 290.5
29.7 31.2 31.6 32.8 36.6 39.9 40.2 38.9 36.9 34.5 33.6 32.8 33.1 33.9 36 37.6 38.6 39.2 40 40.8 41.5 42.4 44.8 46 46.2 45.6 45 45.3 46 46.8 47.4 47.8 49.4 50.5 51.6 53 54.4 54.7 55.3 55.7 55.9 56.2 55 55.1 55.2 55.8 55.9 56.1 56.2 56.3 55 53.3 52.7 50.6 50 49.6 48.4 47.4 47.9 48.1 48.1 48.3 46.6 47.6 49.3 49 49.4 49.3 48.4 50.6 50.5 50.9 51.4 52.7 53.2 52.8 53.8 53.9 53.6 52.6 51.4 50.1 51.9 52.4 53.7 55.2 55.8 56.2 56.9 56.7 57.7 56.9 57.3 58.3 58.6 58.2 58.4 58.8 58.6 58.7 58.9 59.2 60.4 61.5 61.1 60.2 61.7 62.4 62.4 62.6 63.3 63.9 63.3 62.6 63.3 63.7 63.5 62.9 64.1 64.2 64.3 64.2 63.9 63.7 64.1 64.1 65.4 66 66.5 67 66.8 67.5 68.5 68.8 69.8 70.1 70.9 71.8 73.9 74.1 75 77.6 80.8 81.4 82.1 83 87 88.6 90.2 91.9 95.1 100.3 108 116.4 120.3 122.1 126.9 137.7 146.1 148.4 153.3 159.8 166.7 173.3 182 191.8 197.6 206.1 214.6 222 235.1 240.4 244.6 248.6 251.5 254.5 258.4 262.9 267.9 274.4 277.6 280.5 286 292.1 295.7 299.5 300.8 300.9 301.7 300.9 299.6 297.5 294.6 293.1 289.7 288.2 287.3 286 284.1 283.4
29.8 30.6 30.3 31.5 34.2 37.6 39.5 38.7 36.6 34.6 33.3 32.4 33 34.8 37.4 38 38.5 39.4 40.3 41.1 40.6 41.9 43.6 44.2 44.2 44 44.7 45.2 47.4 47 47.6 48.4 49.4 50.5 51.6 53 54.4 55.4 55.7 56.1 55.9 55.4 55.4 55.9 56.3 56.5 56.5 56.6 56.1 56.8 56 55.3 54.3 53.1 50.6 50.1 49.5 48 48.3 48.6 48.8 48.8 48.3 48 49 49.7 50 49.3 48.8 50.6 50 51.4 51.2 52.7 52.9 52.6 53.3 54.7 54.3 53.9 53.3 51.5 51.6 57.4 52.4 54.7 55.9 57 57.8 57.3 57.7 58 57.7 57.4 58.1 58.4 58.7 59.1 59.1 58.9 59 60 61.1 61.9 61.7 60.1 62.6 63.1 63.2 62.6 63 63.7 63.2 62.8 63.2 63.4 63.8 63.8 64.1 64 64.4 64.9 64.9 64.2 64.9 64.2 65.4 65.5 66.1 67.3 67.2 67.6 68.1 68.6 69.5 69.7 70.5 71.8 73.5 73.4 74.9 76.8 78.7 80.5 82 84.3 88 90.3 92.6 94.1 95.8 101.1 107.2 113.6 120.1 126.1 131.2 139.2 150.2 153.9 158.5 165.7 171.9 178.4 186.2 193.6 200.4 210.7 217.6 225.6 236.7 241.9 245 248.2 251.3 254.4 258.2 262.4 267.6 273.9 276.3 277.6 285.2 290.8 293.1 294.7 296.2 296.3 298.4 297.7 296.2 293.1 289.8 288.6 285.6 283.6 281.4 278.8 276.7 276.1
29.6 30 29.7 30.2 32.1 35.2 37.5 37.8 35.9 33.8 32.7 32.1 32.2 36 38.2 37.9 39.3 40.3 40.8 40.3 39.9 39.9 40.8 41.8 43 44.5 46 46.4 46.8 47.9 48.7 49.6 50.6 51.8 52.9 54 55.1 56.1 56 55.9 55.2 56 55.5 56.1 56.7 56.1 56.2 55.8 56.1 56.8 56.6 56.2 55.5 54.3 52.6 50.5 50 47.6 48.3 49.2 49.3 49.1 48.8 48.5 48.8 49.5 49.3 48.6 48.9 49.9 50.3 50.2 51.1 52.3 52 53.1 54.1 55.3 55.5 55.6 55.4 54.3 50.4 52.7 52.1 54.2 56 56 56.5 57.9 57.7 58.6 58.1 57.7 58.4 58.7 59.1 59.5 59.7 59.4 59.2 60.9 61.2 61.4 61.7 62.3 63.4 63.3 63.2 63.1 63.4 63.4 63.5 63.8 62.8 62.9 63.4 63.9 64.1 64.6 65 65.5 65.6 65 65.5 65.3 65.8 66.4 66.6 67.2 68.2 68.8 68.3 69.4 70.3 70.4 70.6 72.3 73.9 75.5 78.1 78.8 80 82.5 84.1 87.3 92.1 95 95.9 96.7 97.4 101.9 106.4 111.4 117.2 124 131.2 140 151 157.4 164.4 171.2 177.8 184.7 190.2 197.4 205.7 214.2 220.5 230.3 239.5 244.4 246.5 248.5 251.2 254.4 258.1 262.3 266.7 272 275.5 277.9 283.2 287.2 289.4 290.4 292.1 295.4 295.9 294.3 292.3 289 285.6 282.9 281.2 279.7 277.7 273.6 270.8 268.7
27.8 28 28.6 29 30.5 32.8 35 36.4 35.2 32.9 32.1 31.7 31.9 35.6 37.4 37.3 39.4 40.3 39.9 39.5 38.9 39.1 40 41.2 43 44.5 45.8 47 47.5 48.8 49.8 50.7 51.9 53.1 54.2 55.3 56.2 56.5 56 56 56.5 56.1 55.9 56.4 57 56.5 55.9 56.1 56.3 56.8 57.1 56.8 56.6 55.5 53.3 51.5 50.5 48.7 48.4 49.7 49.7 49.4 49.2 49.1 49 49.4 48.6 48.2 49.3 50.4 50.6 51.4 51.9 52 53.3 54.1 54.9 55.8 55.3 56.6 56.7 56.3 56.5 52.1 55.7 56.4 56.3 57.1 57.5 57.6 58.6 58.5 58.2 58.2 57.9 58.5 59.2 59.8 60.2 59.6 60.1 62 62.4 61.7 62 63.1 63.9 63.9 64.2 64 63.9 63.9 64.9 65 64.6 63.9 63.6 64.4 64.7 65.8 66.2 66.1 65.7 66.1 65.8 65.6 66.6 67.7 67.4 68 69.1 68.6 68.6 68.9 70 71.1 72.2 73.5 75.7 77.2 79.8 81.1 81.8 84.5 87.8 92.4 95.3 98 99.1 99.1 99 103.5 106.2 109.7 114.9 122.7 129.7 139.3 151.2 160.6 167.7 175.5 182.1 188 194.7 203.3 209.8 217.8 225.5 233.3 239.1 242.8 245.9 248.9 250.9 254.3 257.9 262.1 265.3 268.4 273.5 275.6 279.6 284.1 286.1 286.9 290.6 292.3 291.6 289.9 287.9 284.7 281.6 277.7 277 275.4 272.6 268.8 264.9 262.5
27.6 28 28.2 28.5 29.5 30.7 32.4 34.7 33.5 31.8 31.3 31 31.4 33 34.8 36.5 38.8 39.5 39.1 38.6 37.9 38.6 39.2 41.2 42.9 43.9 45.2 47.6 48.2 49.5 50.7 52 53.2 54.4 55.5 56.3 56.9 56.8 57 56.1 56.2 55.9 56.2 56.7 57.1 56.8 56.3 56.4 56.5 56.8 57.7 57.4 57.2 56.4 53.8 52.3 50.7 49.2 48.5 49.9 50.1 50 49.8 49.7 50.4 49.8 48.7 48.3 49.6 50.8 51.2 52.2 52.3 53.2 54.1 54 55 56 55.7 57.6 58.5 58.2 58.4 52.9 55.7 56.4 56.1 57 57.1 58.7 58.3 58 58.5 58.3 58 57.7 58.5 59.1 59.7 59.1 60.5 62.2 62.3 61.9 63.6 64.1 64.2 64.6 64.6 64.8 65.2 65.6 65.3 66.2 65.5 65.1 64.4 65.1 64.6 65.3 65 64.7 65.8 66.6 65.9 66.9 67.8 68.7 68.2 68.7 69.3 69.6 70.1 69.4 70.1 70.2 73.8 75.6 77.6 79.6 81.3 83.6 85.2 89.2 90.7 94.7 100 100.4 102.3 101.7 103.9 104.8 108.9 114.2 118.3 122.9 129.6 138.9 151.1 161 172.1 180.3 187 193 200.7 207.9 213.7 223 231.2 235.5 239.2 242 245.1 248.1 251.1 253.9 256 259.1 261.5 265 270.2 273.5 277.3 280.9 282.9 283.7 287.4 288.4 286.7 285.2 282.9 280.8 277.5 273.5 272.2 268.9 267.6 264.3 260.5 256.9
29.2 28.9 28.7 28.2 28.7 29.7 31 31.4 30.6 30.4 30.3 30.5 30.9 32.4 34.3 36.1 37.2 38.6 38.3 37.5 37 38.8 40.6 41.7 42.5 43.3 44.6 48.1 48.9 50.2 51.7 51.9 53.5 55 56.3 56.9 57.6 58.1 57.8 56.9 56 56 56.2 55.7 56.7 56.8 56.6 56.7 56.8 56.9 58.1 57.5 56.8 56.5 54.6 52.8 51.1 49.3 48.6 49.9 50.2 50.4 50.3 50.3 50.9 51 51.3 49 50.4 51.3 51.5 51.8 51.9 52.9 53.5 54.1 55.2 56.3 56.5 57 58.4 55.4 60.4 58.1 57.2 56.3 55.9 56.6 56.6 58.7 57.4 58.8 58.4 58 57.6 57.4 58.2 58.6 59.4 60.1 61.2 62.3 62.4 62.6 63.7 63.6 64.5 64.8 65.4 64.8 64.7 65.7 65.7 66.5 65.8 65.5 65.7 65.6 65.3 64.9 65 66.9 67.1 66.3 66.2 68.1 68 69.4 69.1 69.6 70.4 70.3 70.2 73 74 75.5 78.1 80.3 82.7 83.4 84.9 87.7 90.7 94.2 97.3 98.7 103.4 106.4 108.3 106.8 106.8 108.2 112.7 118.6 124.7 129.2 135.6 141.2 149.9 159.9 174.9 185.1 192.6 198.7 205 211.6 217.5 226.4 232 235.2 238.8 242.1 244.2 246.8 248.6 250.7 254 257.6 261 264.6 266.7 270.4 274.1 278 280.1 281.4 284 283.4 282.9 280.3 278.6 275.6 273.6 270.1 268.3 265.1 263.7 260.8 257 252.6
30.4 29.6 28.9 28.8 28.9 29.2 29.7 29.8 29.7 30.1 31.3 30.5 30.6 31.5 32.9 34.4 36.6 37.8 37.6 36.7 37.5 39 40.6 41 41.4 43.1 44.1 47.4 50 51.7 52.4 50.4 53 54.9 56.8 57.5 58.2 58.7 57.6 57.1 56.6 56.1 54.8 55.5 56.4 56.6 56.8 57.6 57.7 57.2 58 57.7 57.2 56.5 54.8 52.9 52.3 49.8 48.9 49.6 49.9 50.1 50.3 51.3 50.9 50.8 50.6 50.1 52.6 52.8 51.5 51.5 51.8 52.6 53.8 54.7 55.4 57.2 57.3 54.5 59.4 60 61.2 61.1 59.4 56.5 56 56.1 56.3 56.9 57.3 56.6 57.1 57.5 57.1 57.4 58.8 59.4 59.3 59.5 60.6 62 62.1 63.6 63.6 64 64.9 64.9 65.5 65.8 65.9 66.1 66 66.1 66.1 65.9 66.1 66.1 66.3 66.3 65.8 66.7 67.7 67.3 67.6 68.9 68.5 69.3 70.5 71.5 71.7 70.6 70.9 73.9 76.8 77.7 80.5 84.8 86.4 88.4 90.7 91.2 96.9 100.6 103.8 105.9 107.1 110.4 110.8 110.7 110.5 111.6 116.9 123.9 131.3 136.5 144.1 148.5 154.9 166.4 178.6 189.2 198.9 203.4 207.5 214.5 221.1 227.4 231.2 234.3 237.7 240.9 241.6 241.7 246.1 251.8 255.6 258.1 260.8 263.4 264.7 267.7 271.6 275.5 277.4 279.2 281 280.6 279.4 276.5 274.5 272.5 268.7 265.7 263.3 261.6 259.9 257 253.5 248.9
29.8 29.7 29.5 29.3 29.3 30.7 31.6 31.7 31.4 31.7 31.6 31 30.3 31.2 31.9 33.2 34.4 35.9 36.8 36.8 37.4 38.8 40.5 40.4 40.2 41.1 43.7 49 51.1 52.5 53.1 53 53.2 53.6 54.9 58.2 58.8 58.8 57.7 56.9 55.7 54.4 55 54.2 54.8 55.7 56.9 57.3 57.6 57.2 58 57.9 57.7 57 56 54 52.8 50.4 49.6 49.2 49.4 49.9 50.8 51.4 51.8 51.8 49.5 51.7 53 53 52.8 52.5 53 54.3 53.8 55.1 57.6 55.4 60.4 60.7 62.6 63 62.9 63.3 61.4 59.4 56.1 55.4 54.7 54.8 56.4 55.9 56 56.6 56.7 57.4 58 59.6 60.1 59.2 59.4 60.6 62.2 64.2 64.4 64.9 65.3 65 65.3 65.3 66.4 66.6 66.3 66.4 66.2 66.1 66.3 66.2 66.2 67.1 66.7 67.7 67.6 68.1 68.9 70 71.3 72 73.2 72.9 73.6 73.5 75.1 79.6 81.1 82.7 85.1 89.7 92.1 94.9 97 97.7 98.6 106 109.1 111.2 112.4 113.9 114.6 113.3 114.5 116.2 120.6 127.2 134.6 143 150.4 156.2 162.8 172 182.9 192.5 200.4 204.9 210.6 216.1 221.2 226.4 230.7 234.7 236.8 237.1 235.1 242.7 248.2 252.7 254.7 256.9 259.8 261.6 262.8 265.2 269.1 273.6 275.9 278.6 278.7 277 275.6 273.2 271.2 268.4 265.2 262.3 259.9 258 256.2 253.2 250 245.9
29.7 29 29.2 28.8 29.3 30.5 31.8 32 32.2 32.1 31.9 32 31.3 31.5 31.8 32 32.8 34.3 35.9 36.2 36.8 38.4 40 39.9 41 40.9 43.3 48.6 50.1 52.3 52.7 52.5 52.5 53 53.6 58.7 59.2 58.6 57.5 56.3 55.1 54.1 53 52.7 53.9 55.3 56.6 57 57.4 57.5 58.3 58.8 58.5 57.5 56.4 55.2 53.2 51.3 50.5 50.4 50.6 50.5 51.9 51.1 51.3 52.1 49.3 52.1 53.5 53.3 53.1 53 54 54.4 54.4 53.8 58.7 59.6 61.9 63.7 65.1 65.6 65.1 65.2 64.8 62.7 60 57.7 56.7 54.7 56 56.4 55.9 56.3 56.4 57.1 57.8 58.5 59.2 61.1 61.3 60.6 61.4 62.5 63.7 64.4 65 65.5 65.7 66 66.6 66.7 66.8 66.7 65.9 66.1 66.4 66.4 66.4 66.7 67.1 68.7 69 69 71.4 70.8 71.7 73.3 73.8 74.6 75.9 78 80.1 83.8 87 88.3 91.4 95.9 99.2 101 102.4 105.1 106.9 110.3 113.9 115.7 116.3 116.6 117.1 116.7 117.7 119.6 124.1 129.9 137.4 146.1 153.3 157.8 165.2 173.1 181.7 190.2 196.3 202.2 208.7 213.2 217.6 221.1 224.2 227.5 229.4 228.8 237.2 243.5 247.8 251.3 253.7 255.7 257.2 258.6 260.5 263.3 267.7 272.1 276.1 277.4 276.2 273.8 271.8 269.9 267.2 265 262.2 259.2 256.8 254.9 252.4 250.2 246.4 242.3
28.6 29 29.3 28.3 28.7 29.6 31.7 31.9 32.7 32 31.6 32.2 32.4 31.5 31.5 31.6 32.3 34.6 35.7 35 36.1 37.9 39.4 39.6 39.9 40.1 41.5 47.5 47.2 50.3 53.6 52.6 52.1 52.3 52.2 56.5 55.9 56.9 56.5 54.8 54.1 53.2 52 52.2 53.1 54.4 55.1 55.8 56.6 58.3 58.8 58.8 58.6 58 56.9 54.9 53.9 51.9 51.4 51.6 51.8 50.9 51.5 50.8 50.9 51.7 49.6 53.3 54.1 53.5 53.8 53.7 53.1 53.4 56.8 58.1 59.2 62.5 63.3 65.3 66.8 67.2 68.1 67.8 66.4 65 62.7 59.6 59.2 56.1 55.6 56.7 56 56.5 56.3 56.8 57.5 58.2 59 59 60.6 61.1 61 61.7 63.2 65 65 66.3 66 65.7 65.6 65.8 66.2 66.8 66.4 66.4 66.5 66.5 66.9 67.5 68.1 69.1 70.3 70.1 71.2 72.3 73.3 74.6 76.1 77.7 79.2 81.9 84.8 88.9 92.9 95.4 98.2 102.7 105.3 106.8 108.4 111.5 113.6 115 117.2 120 122 119.4 119.1 118.8 121.3 122.4 127.4 133.1 138.6 145.1 152.3 156.7 163.7 171.8 176.8 184.2 190.8 197 205.2 209.4 212.5 213.6 214.8 215.2 216.5 222.2 230.9 242.9 246.4 249.1 250.6 250.9 254.6 257.4 259.9 263.4 267.8 272.2 275.2 276.5 273.7 271 268.8 266.8 264.7 262.5 259.4 256.2 253.7 251.2 248.5 246.9 242.9 238.7
28.2 28.3 28.5 28.2 28.2 28.9 29.9 31.6 32.5 32.2 32.5 33.2 32 31.5 31.6 31.6 31.8 33.4 33.3 34 34.6 36.9 38.7 39.3 39.5 39.5 40.1 45 47.6 48 50.2 50.3 48.4 50 51.7 51.5 51.9 54.3 54 53 52.4 51.8 51.1 51.5 52.4 52.9 53.8 55.2 56.9 58.9 58.8 58.8 58.4 58.1 57.3 55.4 53.9 53 52.3 52.4 53 51.6 52 50.8 51.7 51.7 51.9 54.7 55.1 55.5 53.3 53.4 55.7 57.7 58.8 60.1 61 62 64.3 66.3 67.6 69.1 69.2 69 68.4 67.6 65.4 61.8 59.7 57 57 57 56.5 56.3 56.3 56.9 57.5 58.1 58.9 58.5 59.5 60.5 60.8 61.3 63.9 63.9 64.6 65.4 66.1 65.7 65.9 66.2 66.4 66.9 66.9 67.9 66.9 67.3 67.9 68.5 69.1 69.7 71.6 71.4 72.6 73.7 74.9 76.5 78 79.5 83.3 86.9 91 94.7 97.1 101 104.4 108 111.1 112.7 114.4 117.1 119.1 120.6 121.6 122.1 125.5 127.4 126.3 124 123.9 126 127.9 132.7 137.7 143.3 148.8 154.8 161.5 166.1 172.9 179.2 185.4 193.3 197.7 202.8 205.3 206 208.4 208.5 211.9 217.2 222.9 231 240.5 242.8 243.9 253 255.8 257.9 260.1 263.6 267.9 272.3 274.1 274.3 271.9 269.5 266.9 264 261.9 259.7 256.9 253.6 250.4 247.6 244.6 242.6 240.3 236.2
27.6 27.6 27.6 28.2 28.4 29 30.9 31.8 32.8 33.2 32.8 32.4 32.6 32.2 32 32 33 33.1 32.5 33.2 33.6 34.6 37.1 37.8 37.3 37.5 39 42.8 46.9 47.2 47.9 47.4 48.1 48.5 49.9 50.5 49.2 51.4 51.4 51.6 51.5 51 50.4 50.7 51.2 51.9 52.8 55.3 56 57.6 58.8 58.6 58.5 58.5 58.1 57.2 55.3 54.2 53.1 52.6 53 52.8 52.4 51.6 52.8 50.5 55.1 56.3 57.4 56.1 54.5 57 58 58.4 59.6 61 61.8 62.9 65.1 65.8 67.1 69.8 69.3 71.1 70.4 69.6 66.1 64.1 61.7 58.5 57.3 56.2 56.2 56.9 56.5 57.1 57.7 58.3 58.8 58.3 59.7 60 61.9 61.4 62.8 64.2 65.1 65.6 67.1 66.4 66.3 66.6 66.8 67.1 67.9 68.4 68 67.9 68.5 69.2 69.9 71.9 72.7 72.9 74 75.3 76.8 78.3 79.8 83.5 88.8 92.5 96.2 101.9 106.1 109.8 113.4 114.5 117.7 119 120.7 122.5 123.5 123.8 123.9 123.8 125.2 127.8 127.5 128 127.8 126.5 129 132.2 135.2 140.2 147.5 156.3 157.4 159.9 167.7 173.4 180.5 188.4 193.2 196.7 196.7 197.4 199 202.8 207.8 212.3 216.4 220 225.6 231.6 244.7 250.6 255.3 257.4 259.2 262.4 268.2 270.8 272.5 272.3 270.5 267.9 265.3 262.6 258.8 256.2 253.8 251.2 247.9 244.8 240.4 238.9 237.3 234.3
27 27 27.3 27.7 28.4 30 31.9 32.7 33.5 32.8 32.1 32.6 33.2 33 32.5 33 34.2 34.3 34.5 34.6 34.4 34.2 34.8 36.3 37.4 37.8 38.3 39.8 44.2 46.2 47.4 47.3 47.2 48.7 48.7 48.9 47.3 48 48.7 50 50.3 49.9 51.2 50 50.1 51 52 53.6 55 56.5 58.1 58.9 58.8 58.8 58.6 57.8 57 55.7 54 53.8 52.9 52.8 53 52.3 53.6 54.7 56.5 56.8 57.8 55.5 58.9 60.1 60.1 60.4 60.9 61.6 62.6 64 65.2 65.8 67.8 70.5 72.5 73.2 72.9 69.9 66.9 64 61.9 60.9 58.8 57.4 56.3 56.4 56.6 57.1 57.7 58.2 58.4 59 58.7 60.1 60.9 61.2 62 63.6 64.8 65.6 66.3 67.6 67 66.9 67.7 68.2 68.7 68.7 68.8 68.7 69.2 69.8 71.4 73.2 73.8 74.5 75.7 77.8 79.5 80.7 82.9 87 91.6 97.6 103.9 108.7 113.2 116.9 121.3 122.3 124.4 127 128 128.3 128.4 128.1 126.3 125.6 126 127.2 127.1 127.6 126.5 124.5 129.8 131 131.5 139.5 148.6 156.6 156.2 155.9 161.3 168.4 175.8 181.1 186.6 189.3 188.8 190.4 191.2 195.9 201.6 205.7 209.9 216.9 224.4 230.2 238.2 247.2 252.3 256 258.1 261.2 267.3 269.6 271.4 270.8 268.9 266.4 263.9 261 256.8 253.4 250.4 248 244.9 242.6 238.7 234.7 233.8 231.8
26.8 27.2 27.4 27.7 28.6 30.4 32.3 33.6 33.1 32.8 32.4 32.9 33.4 33.6 33.1 33.8 34.9 34.7 34.6 34.8 34.7 34.4 33.8 34.5 36.1 36.5 37.6 38.7 41.5 44.9 46.1 46.3 45.7 46.4 46 42.9 43.4 45.1 46.9 47.4 48.8 48.8 49.9 49.7 49.5 50.1 51.1 53 54 55.6 57.4 59 59.2 59.2 59 58.2 57.8 56.9 55.2 54.1 54.1 54.3 53.4 51.7 53.2 55 56.4 57.9 56.7 60.1 61.2 61.8 62.2 62.2 62.8 63.4 64 65.7 65.3 67.1 67.5 69.7 71.9 72.7 71.4 70 67.5 64.1 62.4 62.2 60.6 58 57.2 56.7 56.9 57.1 57.6 58.2 57.9 58.2 58.8 58.7 60.4 61.3 61.8 62.9 64.2 65 65.2 66.2 67.7 67.2 68.3 67.8 68.5 68.4 68.9 69.4 70.7 71.3 73.2 74.8 76.1 76.6 77.6 79.6 81.2 82.4 85.9 90.1 96.5 102.9 107.9 116.1 120 123.7 127.7 130.3 131.7 133.3 132.6 133.2 133.3 131.8 129.3 127.6 127.2 126.8 127.1 122.8 121.6 121.4 124.7 127.7 128.5 136.4 145.2 150.5 150.2 149.6 155 163.5 170.6 173.7 178.8 180.1 178.9 180.3 183.1 190 195.2 199.9 205.1 212.6 220 226 232.1 242.3 248.5 252.4 255.3 259.5 266 268.6 269.5 269.6 267.6 265 262.3 259.3 255.8 252.3 249.2 245.8 242.4 240.4 236.8 232.1 230.1 229.6
27 27.2 27.4 27.7 29.2 31 32.9 34.1 33.9 33.5 33 33.2 33.7 34.1 33.7 34.4 34.8 34.4 34.6 34.8 35 35.1 35.2 35.3 35.3 35.9 37.1 38.3 39.9 43.1 44.8 45.1 44.2 43.6 43.7 42.1 42.4 46 46.8 46.6 46.8 47.6 48.4 48.7 49.3 49.4 50.3 51.5 53.1 54.9 56.7 58.7 59.3 59.5 59.5 58.9 58.5 57.6 55.8 55.1 54.9 55.2 54.7 53.2 50.6 55.1 55.3 56.5 60 62 62.7 63.1 63.5 64.5 64.3 64.8 64.7 65.4 64.9 65.4 66.6 68.9 68.3 71.4 70.5 69.6 66.8 63.9 63.1 62.8 60.7 58.8 58.2 57.5 57.2 57.4 57.6 57.6 58.4 58.5 59.2 59.1 58.7 59.1 61.7 62.6 64 65 65.4 66.3 67.5 67.6 68.5 68.5 68.6 69.1 69.6 70.1 71.2 72 73.7 74.6 75.2 77.9 79.1 80.9 82.4 84.7 88.5 93.7 99.7 106 113.1 119.2 125.3 129.7 133.3 136.8 138.6 139.7 140.8 138.4 137.7 135.5 133.1 130.1 125.7 123.4 121.1 118.2 117.3 117.3 119.7 122.1 125.4 132.2 140.1 142.6 144.7 143.7 150.9 160.5 164.5 166.5 169.6 171.4 171.4 172 175.4 181.6 187.4 192.6 200.3 206.4 214 219.2 225.2 234.3 245.6 249.5 252.8 258 264.6 267 267.8 268.8 267.1 264.3 261.2 258.1 253.9 251.3 247.8 245.3 242.4 238 233.2 228.5 225.7 226.8
27.1 27.3 27.5 28 29.9 31.8 33.6 35.1 34.8 34.2 33.7 33.6 34 34.5 34.2 34.6 34.8 34.6 35.1 35.9 36.1 36.3 36.5 36.6 36.3 36.1 37.3 39.2 40.9 42.8 43.5 44 43.4 43.4 43.3 44.9 44.9 44.7 44.8 45.8 46.2 47 47.9 48.7 49 49.3 49.6 50.8 52.3 54.1 55.9 58 59.2 59.5 59.9 59.5 59.3 58 56.8 55.8 55.4 55.9 55.1 51.1 51.9 53.2 55.5 57.3 59.9 63.7 64.6 64.9 65 64.7 65.3 64.5 65.1 65.1 64.7 65.2 65.8 66.8 68 68.6 68.5 68 66.2 65.2 64.4 63.2 61.3 60.7 60 59.4 58.3 58.1 58.1 58.3 58.3 58.5 59.1 59.1 58.9 59.3 61.1 62.6 63.7 64.8 66.2 66.2 67.1 67.9 68.5 68.8 69.1 69.7 70.2 70.7 70.9 73.2 74.2 76 76.7 77.8 80.4 81.2 82.7 87.1 91.5 97.3 105.4 112.1 119.4 125.1 129.6 132.6 135.3 139.3 141.4 142.7 142.9 141.9 140.3 137.6 134.5 131 126.8 122.2 118.9 115.8 114.3 115.3 116.9 119.8 123.6 129.1 132.7 133.5 134.8 137.4 148 154.7 157.8 159.2 162.3 160 163.6 167 169.4 174.4 180.3 187.2 192.7 200.8 208.6 213.8 220.7 228.3 240.4 247.7 252.6 257.4 261 265.2 267.9 267.6 266.6 264.3 261.1 257.8 254 250.4 246.8 244.5 241.9 239 234.2 227.2 221.5 220.1
27.8 27.7 28 28.1 30.2 32.1 33.9 36.5 37 35.6 35 34.6 34.4 34.6 35 35.1 34.8 35 35.3 36.1 36.8 36.8 37 37.4 37.4 36.5 37.6 39.7 40.8 42.4 43.2 43.5 43.4 43.5 44.3 44.9 45.3 45.8 45.6 45.6 46.3 47.1 47.8 48.8 48.8 49 49.6 50 51.5 53.2 54.9 58 58.7 59.3 60.2 59.6 59.7 59.4 58.3 57.1 55.4 56 55.3 51.2 53.4 56.2 56.5 57 59.2 63.5 64 64.1 65.1 64.6 63.8 66 65.4 64.6 65.1 65.6 66.1 66.4 67.1 66.7 67.1 68.3 67.3 66.1 65.5 62.8 63.6 62.6 61.8 60.8 59.7 59.1 59.2 59.1 58.8 58.9 59.9 60 59.8 59.6 60.9 62.2 63.2 63.7 65 66.9 67.1 67.6 68.6 67.9 69.3 69.7 70.2 70.6 70.5 72.8 74.5 76.6 78 79 80.8 82.6 85.2 90.2 95.4 100.8 108.9 116.5 122.5 128.2 130.6 133.1 136.3 140.7 142.7 144.1 143.6 143 141.7 136.2 133.8 130.2 126.7 122.7 117.7 114.7 113.2 113.5 115 116.8 120.8 122.4 124.5 125 128.2 136.2 144 148.9 148.2 153.9 156.1 152.1 155.1 158.6 163.6 168.6 173.6 180.5 188.6 196.3 201.4 209.2 217 225.2 235.7 245.6 250 254.2 258.3 262.7 266.3 267.3 266.3 264.2 261 257.5 253.8 249.9 246.3 243.9 239.9 235.8 231 226.1 223.6 219.1
27.5 28.4 28.2 28.3 30.3 32.4 34.6 37.2 39.1 38 36.4 35.8 35.6 36.2 36.8 35.9 35.2 35.3 35.5 36.2 37 37.5 37.8 38.4 38.3 36.9 37.9 38.5 40.5 41.9 43.2 43.3 43.3 44.4 45 45 45.6 45.7 46.2 47.2 46.8 47 47.8 48.5 48.6 48.8 49.1 49.9 50.8 51.7 53.3 55.5 56.3 57.7 58.2 57.8 57.9 58 57.5 57 56 55.7 51 57.4 56.6 57.5 57.4 57.1 58.9 61.4 61 61.5 63.2 62.7 63.5 64.4 64.4 63.9 64.1 64.5 65.7 66 66.4 66.3 67.2 68 68.3 66.8 65.5 64.3 64.5 64.3 63.2 62.1 61.1 60.2 60.2 59.7 59.2 59.3 59.8 60.7 60.4 60.2 61.3 61.9 62.4 63.5 64.4 65.3 66.5 67.1 69.1 69.1 69.2 69.6 70 70.1 71 73.9 74.5 76.5 79.2 80.2 81.5 84.1 88.3 92.4 98.2 105.3 113 119.2 124.7 128.3 130.8 133 136.1 141.1 142.6 143.4 142.1 140.3 136.6 131.7 130.7 128.5 124.8 120.2 117 113.7 111.9 112.4 114.2 115.7 117.3 118.8 121.5 122.7 126.5 132.6 137.1 140.9 141.2 146.9 146.4 145.3 148.5 150.8 154.4 161.5 168.7 176.2 182.2 188.8 199.3 207.6 214.6 222.8 231.7 243.8 248.9 252.9 256.9 261.1 264 266.1 265.7 263.8 260.9 257.2 253.5 249.8 245.7 242.2 238.8 235.2 230.9 226.9 224.2 222.1
28.8 28.5 28.3 28.4 30.5 32.5 33.3 36.1 38.7 40.4 38.9 39 38.2 37.7 36.9 36.1 35.6 35.9 35.9 37.6 38.1 38.1 38.7 39.4 38.9 38.4 38.9 37.4 41.2 42.2 42.9 44.4 45.1 45.5 46.2 46.5 46 45.9 46.3 47.3 47.8 47.9 47.7 48.2 48.4 48.5 48.7 49.3 50.2 51 51.9 52.7 54.1 55.5 56.2 56.1 56.8 55.7 56.1 56.4 56 50.8 56.5 56.7 57.4 58 57.7 57.8 58.7 59.6 58.6 59.5 61.7 61.9 62.1 62.5 63 63.7 64.2 64.9 65.4 65.6 66.7 66.3 67.2 67.3 68.2 67.3 66.7 65.7 64.7 64.3 64.4 63.5 62.5 61.4 61 60.4 59.7 59.9 60.9 61.3 60.8 60.9 61.9 61.4 62.3 63.8 64.4 64.3 65.2 66.6 69.1 68.8 69 69.4 70 71.6 73.1 73.8 74 76.6 79.3 81.5 82.8 85.3 90.3 95.5 101.1 108.6 116 122.3 126 129.9 131.5 131.9 132.7 135.6 135.7 138.1 136.4 132.4 129.7 127.2 125.7 124.9 121.9 117.9 114.6 111.3 110.2 111.6 113.6 114.4 115.9 119 120.6 122.6 122.7 125.1 127.3 131.2 133.6 136.3 137 139.6 143.8 145.3 149.8 155.9 165.9 174.5 181.6 188.2 197.7 207.3 215.2 223.2 230.4 241.3 246.9 251.2 255.8 259.5 262.8 264.6 264.8 263.2 260.1 256.6 253 249.5 245.7 242.1 238.6 235.1 231.1 227.5 224.9 222.8
27.1 28.5 28.4 28.5 30.6 31.8 32.4 33.3 36.3 40.3 41.5 41.9 40.5 38.2 37.3 36.5 35.7 36.4 36.7 38 38.4 39.2 39.6 40.2 38.7 38.3 40.8 40.3 39.4 37.9 41 44.2 46.5 46.9 47.2 48.1 47 47.8 47.1 48.1 47.8 48.4 48.2 47.8 47.8 47.8 48.3 48.9 49.5 50.4 51.4 52.4 52.8 53.5 54 54.5 55.2 55.3 55.9 50.3 56.5 56.4 56.6 56.8 57.1 57.5 57.7 57.8 58.2 59.1 59.8 60 60.4 61.9 62.3 62.9 63.5 64.5 64.6 64.6 64.8 65.5 66.2 66.3 67.2 68.1 68.6 68.8 68.1 67 65.9 65.2 65.5 65.5 64.6 63.3 62.6 62.6 60.6 60.7 61.5 61.4 61.8 61.2 61.6 61.4 62.6 64.3 63.9 64.2 65.4 66.5 68.6 68.4 69.1 69.3 71.3 73.1 74.7 74.3 74.1 75.8 79.5 82 83.7 86.9 93.8 100 107.2 113.7 120.3 126 128.3 131.4 131.2 130.5 130.4 131.1 131.4 131.9 129.5 127.3 125.5 123 121.6 121.2 118.3 115.2 111.7 109 110.1 111.4 111.9 114.4 118 121.1 122.6 126.3 128.1 130 129.7 131.8 132.1 133.1 137.3 144.8 148.5 155.6 160.1 164.8 172.4 179.5 186.8 193.4 199.9 207.8 216.8 224.8 232.8 241.8 246.3 250.9 255.5 259.2 262.9 264.7 264 262.3 259.7 255.5 251.7 247.9 243.8 240.8 237.2 234.4 231.7 228.1 225.5 223.1
28.3 28.5 28.4 28.6 30.5 31.1 31.6 32.2 33.4 37.5 42 42.4 41.8 40.1 37.8 37 36.5 36.4 37.7 39.2 40.1 39.4 39.9 40.6 40.8 39.7 41.8 42.7 42.5 40.8 38.6 42.2 44.2 45.7 47.1 47.9 48.1 47.9 48.1 48.4 48.1 47.6 47.6 47.2 47.2 47.4 48 48.6 49.2 49.8 50.8 51.9 52.5 54.1 54.2 52.6 54.5 54.4 49.7 56 56.5 56.6 57.1 57.3 57.8 58 58.6 59.2 59.2 59 58.9 60.4 60.6 61.7 62.7 63.3 64 64.4 64.2 64.1 65.9 66.9 67.1 67.5 67.2 67.8 67.8 68.2 68.6 68 66.9 66.5 66.1 65.8 64.4 64.3 64.2 63.4 62.2 61.7 61.8 61.6 61.8 61.8 61.3 61.2 62.2 63.1 63.1 63.9 64.3 65 66.7 68.4 69 69.7 71.9 73 74.2 73.4 74 77.4 80.1 81.9 84.4 87.4 94 102.3 107.6 116 122.6 125.6 128 131.1 130.4 129.3 128.7 127.4 126.1 125 124.1 122.5 120.9 119.3 118.4 117.3 114.7 111.6 108.3 108.1 109.2 110.4 110.6 113.8 117.4 121.3 125.3 130.4 133.6 135.2 137.2 136.1 138.2 137.1 138.5 144.9 151.4 156.9 164.2 170.6 178.2 185.3 191.8 197.8 202.4 211.6 219.8 226.5 236.2 243.2 247.4 251.4 255.4 259.1 262.8 264.9 264.2 261.9 259.1 256.2 252 246.7 240.4 236.1 232.8 230.9 229.3 227.6 225.3 222.5
28.5 28.6 28.7 28.8 29.8 29.8 30.8 31.5 30.2 34.7 38.9 41.5 42.4 41.8 40.3 38.6 37.5 37.7 38.7 39.4 39.7 39.3 41.5 41 41.8 42.2 42.1 42.7 42.3 41.8 40.4 40.5 39.6 42.1 43.8 45.3 46.4 46.3 48.2 47.7 47.3 45.8 46.6 46.8 46.6 47 47.1 47.2 48.3 49.8 51 51.5 52.2 53.8 54.2 51.5 51.2 53.7 55.4 56.2 56.6 56.8 57 57.5 58.6 58.4 58.7 58.8 59.5 59.7 59.4 60.4 60.5 61.2 62.1 62.6 63.2 64 63.3 64.1 65.2 65.3 66 67.5 67.4 67.3 67.9 68.3 68.4 68.5 68.2 67.7 67.2 66.8 65.7 64.6 64.9 64.2 62.2 62.4 62.7 62.6 62.4 61.7 61.9 62.2 62 62.9 62.5 63.8 64.6 65.4 66.3 67.5 68.4 70.5 71.9 73.6 75.1 75.1 76.9 79.4 81.8 83.2 84.9 91.8 98.8 105.1 111.1 118.4 123.3 125.8 128 130.2 129.1 128.4 126.3 122.9 120.7 120.1 120.1 119.8 118.1 116.7 114.9 112.8 111.1 108 106.3 107.4 108.5 109.2 110 112.6 115.7 122.1 126.2 131.9 136.9 138.6 141.1 141.9 144.5 142.2 140.5 145.5 153.2 161.1 167.6 175.7 182.6 190.9 195.6 201.7 207.4 215.8 222.8 229.8 239.1 243.8 247.9 252 256.1 259.5 263.1 265.4 265.4 263.1 260.2 256.9 253.1 247.9 242.9 237.2 232.3 227.1 223 220.9 219.1 217.4
29.6 29.6 29.7 29.6 29.8 30 30 30.1 31.4 36.3 39.5 41.2 43.5 43.3 41 38.7 38.3 38.8 39.2 39.8 40.7 42.8 43.1 42.5 43.2 43.1 43.5 44.3 43.8 42.9 42.9 42.4 41.1 41 40.3 40.8 41.1 42.3 44.3 43.2 44.5 43.4 43.1 43.2 44.6 44.8 45.1 46.7 48.3 49.7 50.9 52.2 52 52.8 53.4 48.6 54.4 54.5 55.4 56.2 56.6 56.9 57.1 57.4 57.9 58.2 58.3 58.4 59.6 59.7 59.8 60.2 60.8 61 61.5 61.8 62.6 63.5 63.4 64.1 64.9 64.9 65.7 67.3 67.4 67.3 68 68.4 68.9 69.3 68.3 68.4 67.6 67.4 67.3 66.6 67.6 64.7 63.6 63.5 64.1 64.5 63.6 63.6 62.6 62.1 62.3 62.2 62.3 64.1 65.1 66 66.3 66.9 70.2 70.8 71.6 73.2 74.8 76.1 78.1 78.4 81.6 85.6 89.3 93.1 99.6 104.6 111.9 117.8 123.5 125.5 126.1 127.8 128 125.9 122.1 118.7 115.5 115.9 116.5 116.1 114.6 112.9 111.1 109.5 107.3 105.3 104.6 106.7 107.4 106.4 107.5 111.9 114.8 120.5 125.1 130.1 137.1 142.9 146.8 146.7 148.4 148.6 144.1 149.7 157.4 166 172.7 179 186.7 194.1 199.8 208.5 215.5 220.3 225.3 235.5 241.7 245 248.7 252.7 256.8 260.6 263.5 265.8 265.2 263.2 260.8 258.1 254.3 248.1 243.9 240.3 235.4 229.6 224.8 220.3 215.1 213.7
30.8 30.6 30.5 30.4 29.8 30.1 30.2 30.1 31.6 35.2 37.2 38.1 42.8 42.1 38.5 38.6 38.5 39.6 40.4 41.4 41.9 43.5 44 44.1 44 44.6 45.4 45.8 44.6 44.5 44.6 44.7 44.8 44.8 44.1 43 42.1 41.3 40.9 41.9 43.2 41.3 42.9 43.6 43.7 43.9 43.9 45.5 47.6 48.6 49.9 50 50.9 48.9 55.6 54.7 54.7 55.2 55.6 56.3 56.6 56.9 57.3 57.6 57.7 58 58.1 58.4 59.7 60.1 60.2 60.5 60.8 61.9 61.3 61.8 62.6 63.9 63.5 63.9 65.6 65.3 65.3 67.3 67.4 67.3 67.7 68.6 69 68.6 68.6 68.9 69.2 68.9 68.6 68.4 67.2 65.9 65.9 64.8 64.8 65.4 65 64.9 63.4 63.2 62.7 63.4 64.3 64.8 65.5 65.8 66.1 68 68.7 70.2 72 73.4 74.3 75.4 77.1 79.3 81.5 85.6 89.4 92.6 98.8 104.7 111.4 116.1 120.7 123.4 124.1 124 121.5 121.5 118.9 114.7 112.2 111.6 112.6 112.7 112 110.5 108.3 106.6 105.3 103.2 103.9 105.9 105.6 105.4 107.4 111.3 114.6 118.7 124.2 131.2 139.5 145.4 148.1 150.2 151 151.4 151.3 154.9 162 170.5 175.6 182.1 190.5 196.5 204.8 211.9 218.4 224.4 231.5 239.5 243.6 246.5 250 253.8 257.5 261.6 264.6 266.3 266.1 263.8 260.9 258.1 253.3 248.9 245.1 241.4 236.6 232.4 228.4 224 219.3 218.6
31.7 31.4 31.3 31.1 30.5 30.3 30 30.2 33 32.8 35.8 37.6 37.6 36.7 33.9 34.2 36.8 40.4 40.7 43 43.4 44.1 44.7 45.2 45.9 45.9 46.4 47.1 46.1 46.1 46.1 46.5 46.5 46.4 46.5 45.2 44.2 44.2 44.4 44.1 44.5 44.5 43.3 44.5 45.7 45.3 46.3 44.4 46.1 47.3 48.4 48.8 48.9 52.7 55.7 54.4 55.5 55.2 55.4 55.8 56.8 57.1 57.5 57.8 57.5 57.8 58 58.4 59.6 60.4 60.6 60.9 61.2 61.4 61.9 62.6 63.4 63.4 63.6 64 65.1 65 65.5 66.1 67.5 67.2 67.4 68.6 69.1 68.1 68.1 69.6 69.1 70.4 68.9 67.3 67.6 67.1 66.2 65.9 65.8 65.9 65.7 64.2 65.1 63.6 63.7 63.8 64.2 64.4 65.1 64.7 65.4 67.9 69.1 70.1 72.6 73.3 74 75.2 78.3 79.6 82 84.8 89.2 92.3 97.9 103.8 108 111.4 115.6 116.6 119.5 119.9 116.8 115.9 111.9 109.6 108.4 108 108.3 108.5 108.5 108.6 107.2 105.7 103.8 101.3 103.1 104.9 106.4 107.2 109.4 111.6 114.1 119.2 125.2 134.2 141.3 145.4 151.2 154 154.6 155.1 157.4 161 167.2 173 179.5 185.5 193.5 199.9 206.5 212.4 219.6 226 235.5 241.2 245.1 248.1 251.4 255.1 258.9 262.3 264.9 266.5 266.9 263.9 260.8 256.8 253 249.3 245.7 242 238.1 233.7 230.2 226 221.6 222.3
32.4 31.8 31.7 31.8 31.5 31.1 30.3 30.9 35.9 38 37.4 33.4 34.2 34.5 35.3 37.2 37.6 39.2 40.7 42.7 42.9 43.4 45.9 46.8 46.6 46.2 47.2 48.4 48.5 47.6 47.7 48.3 48.2 48 48 48.2 46.1 45.8 45.5 44.3 44.8 45.3 44.2 44.3 45.8 47.7 48.7 48.5 47.5 47.2 48.9 45.5 48.2 48.4 53.2 52 52.2 51.7 53.2 54.5 55.1 56 56.4 57.6 57.6 57.7 58 58.4 59.5 60.7 61 61.3 61.6 61.8 62.6 63.9 63.5 63.3 63.7 64.2 64.5 64.6 65.4 65.5 65.7 66.6 67.1 68.2 68.1 68.5 69.1 69.5 70 70.2 69.3 68.7 69.6 69.4 68.6 67.2 66.3 67 67.2 66.2 66.3 65.1 64 63.7 64.7 64.9 65.4 64.8 64.7 66.7 68.3 69.9 72.5 73.1 73.7 75.1 76.9 79.7 82.2 83.5 87.4 90.3 95 99.8 104 107 109.4 109.8 111.4 111.1 111.5 109.3 107.4 107.2 106.3 105.4 105.5 106.2 106 105.7 105.1 103.7 102.1 100.9 102.1 103.8 105.1 107.3 109.7 111.9 114.6 118.9 124.7 133.2 138.3 144.4 150.7 155.4 158.1 160.2 162 168.3 173.2 178.2 184 190.5 197.7 203.9 208.6 215.1 221.7 231 237.2 241.3 244.9 248.7 252.3 255.4 258.8 262.7 265.2 266.1 265.5 264.3 261.3 256.2 252.6 249 245.3 241.7 238.1 234.6 231.1 227.6 225.5 224.6
34 32.9 32.6 32.5 32.7 35.7 38.4 38 33.6 35.7 34.9 35.8 34.9 35.1 36.5 38.7 39.5 40 40.8 42.3 43 45.3 46.9 47.6 48.4 48.7 48.9 48.6 49.7 49.3 50.2 50 49.8 49.6 49.6 49 47.7 47.2 46.6 45 45.5 45.7 46.2 45.5 44.7 47.7 48.8 48.4 48.5 48.6 49.2 49.6 48.9 50.6 52.1 52.6 52 51.6 51.1 49.9 49.8 51.4 50.2 51.9 56.1 54.7 55.9 58 59.7 60.8 61.4 61.6 62 62.2 63.2 63.8 64 63.7 64.5 65.1 65.5 65.2 65.4 65.7 66 66.5 66.6 67.2 68.6 68.4 68.7 69.5 70 70.5 70.4 70.8 70.5 70 69.9 69.2 68.2 67.9 67.1 65.9 65 65.3 64.7 64.2 64.3 64.1 64.6 64.6 65.8 66.4 67.5 69 70.3 72.8 73.6 75.1 76 78.4 81.2 83.3 85.2 88 91.2 94.9 98.2 101.5 103.8 104.2 105 104.5 105 104.6 102.8 102.8 102.7 102.7 103.4 104 103.8 103.4 102.7 101.6 100 101.8 101.3 103.4 104.4 107.4 109.8 112.1 115.2 117.7 122.4 127.2 134.1 141.4 149.4 155.4 159.4 163.7 167.5 174 179.5 184.2 189.4 196.4 202.3 209 213.1 218.5 225.4 235.3 240 242.2 245.2 248.5 251.7 255.1 258.9 262.7 264.7 265.2 263.9 260.8 258.1 255 251.9 248.6 245 241.2 238.2 235.4 231.8 229 226.8 225
35.8 33.8 37.2 39.6 39.1 35.5 31.6 31.5 33.8 34.9 35.4 36.3 36.5 36.6 37.9 39.7 40.9 42.1 41.5 42.4 44.7 46.8 47.7 48.1 48.4 48.7 48.9 49.5 50.7 51.1 51.1 51.1 51.3 51.2 51.2 49.6 49.2 48.6 46.8 45.6 47.1 47.3 47.5 46.7 45.9 46 47.9 47.8 47.1 47.8 48.7 49.5 49.8 50.8 51.2 51.8 52.9 53.3 53.6 53.4 54.3 54.4 53.9 53 51.1 52.4 54.9 56.7 58.3 59.9 61.2 61.9 62 62.7 63.1 63.6 64.1 64.4 65.5 65.7 65.8 65.6 65.7 66.3 66.5 67 66.6 66.8 67.8 68 68.3 69.6 70.1 70.7 70.3 70.3 70.3 70.2 70.3 70.9 70.1 69.4 68.7 68 67.7 67.7 66 65 65.1 65.3 64.5 64.8 65.9 66.4 67 69.7 71.8 71.1 72.3 74.7 75 77.2 79.6 81.4 82.5 84.2 88 90.8 93 96.4 98.1 98.4 99.8 100 100 100.1 98.9 99.2 99.6 100.3 101.7 101.8 101.4 100.8 100.1 99.9 101.3 100.6 100.7 102.2 105 107.3 109.8 112.2 114.7 118.4 123.1 126.4 129.2 136.4 148.1 154.9 158.6 163.1 171.9 178.1 185.5 190.3 196.9 199.6 205.5 212.1 216.8 223.1 231.6 238.9 241.1 243.3 245.6 249 252.1 254.5 257.3 261.3 263.3 263.9 261.8 259.1 256.4 253.6 250.6 247.6 244.2 240.8 238.7 236.1 233.3 231.1 228.9 226.7
