ncols 200
nrows 85
xllcorner 190000
yllcorner 773300
cellsize 50
540 516.6 487.6 464.9 456.2 447.3 431.6 418.6 429.8 396.1 383.3 379.2 377.6 380.2 373.8 359.1 335.7 308.9 284 264.1 245.3 227.6 213.9 203.2 189.5 180.6 174.9 166.6 169.2 173.4 179.4 187 195.2 189.5 192.4 180.7 161.5 144.6 139.5 132.1 114.3 100.1 86.2 84.6 81.3 79.4 76 72.1 66.9 61.8 62.6 69.2 76.8 79.6 83 87.7 92.8 98.3 105.1 113.6 121.7 130.4 139.2 144.8 150.7 155.6 162.5 168.5 173.9 182.2 189.5 194.5 199.6 207.9 216.1 224.6 229.6 238.8 251.5 261.6 266.3 270.7 274 274.1 273 271.9 272.4 271 265.9 254.9 248.8 247.4 260.2 269.9 276.4 278.3 284.6 294 307.3 323.6 331.6 340.5 346.2 352.9 363 364.2 361.7 361.6 358.3 347.9 339 334.3 326.1 311.8 303.1 298.8 284.4 270.1 255.4 242.7 226.5 215.3 197.4 181 167.1 155 144.1 138 132.8 124.3 109.5 99.2 87.8 80.6 76.9 72.7 67.3 64.4 61 57.1 55.5 53.6 53.4 53.6 42.4 30.8 28.8 24.8 15.6 11.3 10.1 7.5 8.6 8.4 8.1 7.6 7.1 5.8 3.4 9.7 8.7 9.7 8.3 9.2 10.6 14.6 16.5 16.6 17.8 19 19 20.2 20.4 20.5 23.6 25.3 28.1 22.8 24.3 24.2 25.3 25.7 27.1 26.3 27.2 28.2 28 26.9 26.9 25.1 23.9 21.6 18.7 16.6 12.9 10.2 8 6.5 2.3 1
566.2 538.4 519.7 497.5 489.7 479.4 463.8 455 435.1 421.8 417.6 406.9 411.1 412.3 389.4 359 329.4 306 279.3 263.5 244.8 229.5 215.9 204.5 193.4 183.9 177.2 170.7 174.1 181 186.7 195.7 212.9 209.8 200.2 183.3 164.8 150.7 146.4 128.4 111.1 99.2 82.7 89.4 88.9 85.5 81.3 77.1 73.7 69.6 65 72.3 79.9 83.5 87.8 92.6 97.9 103.2 111.1 119.6 128.2 136.9 145 152.7 158.8 164.1 168.9 174.9 183.6 185.5 186.3 200.5 207.8 218.7 226.7 232.2 239.3 249.4 262.9 270.7 274.9 276 278.2 280.4 281.6 279.8 280.8 278.7 276 266.5 261.6 259.2 265.7 274.1 284.4 290.9 299.9 323.7 328.3 332.9 342.6 356.5 357.3 363.6 375.4 377.2 373.2 371.2 368.7 355 344.7 345.2 329.9 322.9 308.3 294.3 278.9 267.6 259.6 243.4 235.4 224.3 205.9 182.8 170.3 161.1 147.4 139.1 129.2 123.1 114.7 102.6 90.2 80.1 73.5 69.9 66.2 63.2 59.9 58.3 53.3 51 50.2 46.8 41 35.9 31.5 27.3 17.4 13.5 12 9.7 9.1 9 9.3 8.9 7.6 6.5 6.6 10.6 10.3 10.5 10.4 13.8 17.3 20.9 20.6 21.3 23.9 24.1 25.8 28.2 28.3 27.4 30.5 27.9 29.9 34.4 32.2 30.3 33.9 37.6 33.9 35.9 36.1 38.4 38.5 37.9 34.6 32 30.9 28.5 26.2 22 19.3 16.7 14.6 13.2 9.6 6.5
592.8 571.4 548.4 527.2 509.3 499.3 500 485.2 463.4 458.3 442.9 425.3 426 408.9 381.5 350.8 321.2 299.8 280.7 262.2 244.8 230.5 217 206.4 193.5 186.6 181.4 177.1 178 184.3 190.5 194.1 194.4 194.9 192.2 188.2 172.9 159.1 141.7 126.6 113.3 90.8 96.8 97.3 96 90.3 85.8 82.3 79.8 75 68.1 76.3 83.3 87.4 92.3 97.2 102.9 109.6 116.8 125.3 134 143.3 151.5 160.9 167.4 172.8 178.5 183.9 191.5 196.8 202.4 207.8 218 226.8 233.7 241.4 251.1 257.4 270 282.4 284.8 286 284.9 290.3 293.2 290.8 288 282.2 282.9 276.4 273.3 270.8 268.2 282.5 293.7 304 325.9 332.3 334.1 346 356.6 365.4 362.4 363.3 364.5 370.9 374 366.3 366.6 359.7 353.1 337.6 327.6 314.4 307.4 290.6 275.6 261.6 252.9 243.5 234 218.1 198.2 182.6 174.9 167.6 156.6 149.2 139.6 127 116.9 105 95 85.9 76.3 72.5 68.7 62.3 58.5 54.6 50.8 47.9 44.4 40.9 39.5 33.2 29.8 26.8 20.9 16.2 12.7 9.3 9.3 9.6 9.7 8.1 7.1 5 13.4 12 12.4 11.3 15.1 16.6 22.2 20.3 21.4 23.9 26.3 27.7 29.4 31.8 31.7 33.7 33.6 34.5 33.1 36.3 35.4 36.1 42.7 39.8 40.7 41.7 48 53.7 53.2 48.9 43.2 43 39.3 37.2 31.6 29.3 27.5 24.6 22.5 20.1 17.6 15.6
635.5 618.4 595.1 566.6 549.9 536.6 528.5 498.2 480 474.4 451.7 437.5 417.6 396.8 369.2 343.4 318.8 298.1 278 261.4 248.3 231.5 217.8 209.3 196.8 192.5 186.7 182.5 184.4 188.4 193.4 196.7 191.3 180.9 174.6 174.7 165.5 154.2 139.3 123.8 109.2 94.1 105.2 101.8 98.6 95.2 90.6 88 84.8 79.7 74.8 79.3 87 91.8 96.7 101.9 108.2 114.7 121.2 129.8 137.7 147.9 158.4 168.3 175.7 181.4 188.6 197.2 201 206 214.3 215.8 225.7 233.2 242 252.2 260 267.7 274.3 286 289.6 290.7 292 293 297.3 297.1 290.9 290.5 292.5 289.4 283 276.2 274.8 286.5 301.3 324.8 342 342.4 341.1 350 358.8 357.5 361.2 362.2 362 355 352.1 354.6 359 358 345.7 330.2 316 299.2 284.7 274.7 263.3 251.5 245.1 238.5 224.3 209.7 200.7 189.6 179.2 168.8 162.6 159.2 148.6 133.9 121.8 111.5 99 92.3 81.7 74.7 72 65 57.1 53.3 49.8 46.2 41.4 37.5 32.5 25.9 24.6 23 16 11.4 10.2 9.8 9.7 10.1 10.7 9 8.1 9.8 14 13.5 14.2 13.4 19 16.8 20 20.6 23.1 24.8 26.7 29.3 30.4 34.3 34.9 36.3 36.4 36.5 39 39.5 41.3 39.6 42.6 43.9 44.4 47.3 48.9 56 53.3 51.6 49.5 46.5 44 42.7 39.4 37.7 35.8 33.2 30.3 27.9 27.4 25.7
647.2 637.3 624.5 600.4 571.5 555.4 531.5 500.2 471 467.6 444.7 433.6 408.2 384.5 353.8 336.9 317.3 297.6 277.9 261.8 248.5 230.6 222.2 213.1 201.4 198.3 190.8 187.1 190.6 193.8 197.8 195.1 187.8 180.4 170 164.7 156 145.8 135.1 122.4 105.8 107.3 109.3 106 102.7 99.5 95.9 92.2 88.7 84 78.3 79.4 89.9 95.2 100.9 106.9 113.6 120.5 127.7 135.2 141.9 153.4 163.8 174.7 185.8 193.1 199.3 205.5 211.2 216.1 221.3 222.9 232.6 239.7 249.9 262.5 270.6 282.5 288.1 294.1 295.6 299.1 299.1 299.7 300.3 301 299.7 301.6 299.8 294.1 287.1 280.2 283.5 293.8 303.4 322.9 329.8 334.4 339.7 340.3 351.3 357 364.1 360.4 357.9 362.2 359.2 350.7 348.2 337.1 335.1 321.1 302.2 284.4 265 246.6 238.4 237.2 230.7 224.5 218.3 209.3 200.1 192.6 180.6 168.3 159.5 162.1 152.3 138.1 128.1 117.8 106 99.3 94.4 83.9 75.7 65.6 60.2 56 51.8 45.4 40.1 36.3 30.3 25.9 22.4 19.9 18 13.7 11.4 10.9 10.7 10.9 9.3 9.2 8.5 9.9 12.6 15 20.2 24.3 18.4 24 24 27.4 25 27.5 31.3 34.4 38.7 39.1 40.7 40.7 39.3 40.8 42.5 43.4 43.9 46.4 47.8 49.3 52.5 53 51.5 56.4 53.6 51.5 51.7 49.1 48.3 44.4 41.1 41.6 43.8 41.9 40.6 39 38.3 36
637.7 620.2 608.3 587.8 563.3 540.1 520.8 497.8 469.8 456.8 433.9 414.4 395.9 373.3 348.5 333.6 314.1 294.5 274.8 260.3 244 233.6 225.8 213.4 206.2 200.2 198.6 196.6 198.7 200 204.5 198.5 197.8 181.2 174.4 167.9 155.6 144.2 130.5 117.8 103.4 114 112.4 110 106.6 103.3 99.8 96.3 93 89.4 84.6 82.1 91.4 97.9 104.3 111.2 118.2 126.1 133.4 140.8 148.6 155.4 168.4 180.9 194 202.5 205 216 225.7 226.5 230.5 233 240 247.8 257.4 267.5 276.5 287.1 297.4 301.9 302.4 308 308.4 311.8 312.1 308.6 311.5 311.9 312.3 307.9 297.6 291.7 296.5 308.1 318.9 334.3 338.8 346.9 342.6 345.2 357.8 364.3 365.2 358.3 358.6 361.1 354.1 353.5 353.1 348.1 342.6 327.2 310.8 293.8 276.9 262 245.9 230.2 215.9 203.9 201.3 199.8 196.6 192.6 178.4 168.1 158.7 148.3 145.4 138.9 129.3 118.5 113.5 113.9 104.9 92.9 81.2 71.9 60.7 55.8 50.9 44.7 40 36.6 30.5 32.8 29.2 25.1 20.4 18.4 14.5 12 11.5 10.7 9.1 9.1 9.2 10.1 12.1 23.5 24.4 19.1 23 21.8 23.4 26.1 28.8 31.5 36.3 39.9 40.5 41.7 44.4 45.1 46.1 49.6 46.6 54.6 50 52.9 54.5 58.4 59.5 54.6 54 59.4 59.4 63.1 56.1 53.8 52 50.6 48.3 50.6 51 48.9 47.9 46.5 46.7 45.2
622 601.3 585 563.3 542.9 521.4 509.9 485.4 466.1 437.8 424.9 404 386.8 362.2 340.6 320.9 304.9 291.8 273.8 259.4 246.2 237.5 226.7 216.4 208.8 208.1 206.6 202.2 204.8 204.4 205.6 201.4 195.1 188.4 178.3 164.9 153.2 139.2 129.8 115.5 106 118.4 116.6 114 110 106 102.8 100.6 97.8 95.3 89.7 88.4 94.6 101.9 109 116 123 131.6 139 147.2 155.8 164.7 173.7 182.8 188.1 195.6 208.8 219.3 231.1 233.7 238.2 246.1 251.7 257.3 258.8 275.5 283.2 292.5 303.7 309.7 308.2 311.3 314.9 320.2 321.4 317.6 318.8 318.1 318.7 314.6 309 302.7 304.8 326 339 345.5 350.1 351.1 346.2 352.7 363.1 364 361.9 361.4 363.3 363.3 365.5 368.9 366.1 372.3 357.9 341.5 326.5 310.7 297.2 276.9 254.7 233.8 218.3 208 196.3 183.3 179.2 176.7 171.4 166.5 158.8 147 136.8 134.7 125.9 119.6 116.4 117 103.7 90.5 80.5 69 60.7 54.9 49.6 43.6 40 36 34.2 36.6 34.9 29.6 25.1 21.9 18.3 14 13.3 10.8 9.7 9.6 9.5 10.3 12.7 18.2 20.6 19.1 23 23.7 26.5 34.7 35.8 37.6 41.9 43 43.1 46.1 48.3 52.5 50.5 51.3 53.2 54.9 54.3 57.3 66.1 57.2 56.9 58.8 57.9 61.6 63.1 64 61.5 60.7 60.8 53.5 58.1 57.8 58.8 56.7 60.6 55 54.3 54.3
610.5 590.8 569.9 548.3 529.3 507.2 490.6 470.2 448.9 423.4 405.1 388.2 371.2 350.3 330.8 315.1 300.1 282.8 271.8 258 246.7 238.6 227.9 217.3 215.4 213.8 211.5 207.3 209.3 208.8 214.9 210.7 196.8 188.8 182.8 166.8 151.6 134.1 123 117 124.6 125.2 121.9 118.5 113.1 109.3 106.2 102.9 103.6 99.6 91.1 93.3 99.6 106.9 114 121.5 128.5 137 144.9 153.1 163.9 172.9 181.8 192.9 203.5 212.1 219.2 223.1 222.4 235.5 247 252.9 258.6 264 268.5 276.2 290 298.6 306 311.1 313.9 317.6 322.9 330.9 329.8 329.1 328.4 332.3 333.4 325.6 321.4 312.6 309.7 335.9 343.6 344.5 348.3 353.4 354.7 359.1 371 375.2 381 382.2 379.2 381.1 383.4 382.2 380.2 380 366.1 358.9 347.5 332.5 311.5 288.1 264.5 244.2 225.4 212.4 204.6 191.7 179.9 168.7 160.5 143.4 147.2 143.9 135 125.7 120.6 114.4 111 102.9 93.3 85.3 75.6 65.2 56.2 53.8 47.3 43.1 40.3 37.1 36.7 36.7 35.3 32.9 26.8 24.1 20.1 17.3 15.9 11.8 10.2 10.1 10.3 10.8 14.9 20.8 23.6 21.7 27.4 30.9 34 39.3 40 43.5 43.9 45.2 47.2 53.7 53.6 52.1 52.3 54.4 54.7 57.8 58.3 64.1 59 59.9 61 62.8 63.1 66.2 65.8 64.7 63.4 62 60.7 58 61 59.5 60.9 66 63.2 61.6 62.1 61.1
592.5 572.5 550.2 524.3 509.4 487.6 468.2 454.8 432 403.9 387.8 372.4 358.4 341.5 324.4 310.6 291.6 281.5 268.6 259.5 246.6 236.4 226.1 223.3 222.5 219.8 213.4 211.5 213.8 212.6 216 215.7 197.9 192.6 181.7 167.2 149.4 132.5 118.3 131.6 135.5 132.6 128 123.1 117.6 112.7 109.1 108.1 110.2 104.5 93.9 95.4 104.7 111.9 119.1 127.5 135.4 143.3 150.9 159.4 170.6 179.2 192.6 204.1 212.6 224.1 229.2 235.4 242.6 249.4 254.1 256.2 259.6 268.6 279.3 282.6 291.8 304.7 310.2 313.1 315.9 321.1 330.3 334 337.2 336.4 340.1 348.8 346.4 342.9 332.5 325.6 312.3 336.2 348.8 358.9 364.2 366.6 371 379.8 385.5 391.3 395.8 398.4 400.8 397 394.6 390.9 388.6 385.4 382.5 369.9 360.2 346.6 323.7 297.3 275.4 250.8 232.1 226.6 215.5 204.4 189.3 178.4 168.1 158.1 145.3 134.2 120.3 110.7 111.7 106.8 101.4 97 86 73.7 65 57.9 54.5 52.4 45.4 41.4 41 38.7 37.2 35 33.2 31.8 32.5 24.9 24.2 21.5 18.4 13.9 11.1 11.2 11.5 13.7 17.8 21.9 25.6 27.7 31.7 37.6 40.5 42.3 45.5 46.8 49.1 51.3 54.1 56.6 55.7 55.2 57.9 59.1 59.4 60.1 64.6 62.3 62 64.9 62.9 61.7 64 67.8 71 67.3 67.3 64.8 62.1 61.6 61.6 61.6 60.9 61.6 65.1 66.3 63 61.7
576.2 552.9 528.1 507.2 485.8 464.6 447.3 432.6 409.2 389.8 374.6 356.4 343.6 328 317.1 301.4 287.9 278.1 268.9 256.6 245.1 236.3 230.8 231.2 229.7 223.3 216.1 218.3 215.3 215.2 219.3 216.5 199.9 189.7 177.6 162.7 147.3 132.1 133.6 139.1 141.9 140.9 135 129.5 125.3 123.6 118 114.9 110.3 106.6 96.6 100.7 108.2 116.3 124.2 133.1 141.4 150.2 158.9 166.9 176.3 188.4 198.1 208.2 221.1 231.4 239.4 248.3 259.6 266.8 274 278.2 278.7 283.1 288.7 292.7 292.3 297.5 300.7 308.5 312.6 319.2 326.6 330.3 334.1 336.9 340.2 344.6 346.1 351.1 349 343.3 336.4 349.2 366.1 374.2 375.1 383.3 395.3 394.6 395.6 399.5 405.7 410.8 410.7 404.7 399.7 400.5 401.3 395 391.2 380.5 355.7 341.3 323.3 309.4 291.3 260.5 245.3 240.6 230.7 219.5 197.6 184.4 174.7 162.9 153.3 142.5 130.4 122.8 113.9 99.5 86.2 82.5 71.2 66.7 59.8 56.3 50.8 48.4 45 41.8 41.6 40.1 37.9 34.9 31.1 28.9 24.1 22.2 21.7 20.6 19.2 12.9 11.6 12.2 13.3 21.7 22.1 29.2 31.4 32.7 37.9 49.2 45.4 48 54.2 58 56.3 58.8 60.1 62.7 62.6 64.5 66.8 68.6 71.9 68.5 66.8 66.5 66.3 65.6 62.4 63.6 65.5 66.3 66.3 64.5 68 62.8 60.2 62.7 66.5 64.8 59.4 60.6 61.8 62.1 59.8 57.9
552.7 533.7 510.9 491.9 476.5 449.1 430.5 409.2 390.9 375.7 359.5 342.5 329.6 319.4 304.6 293 282.4 275.2 266.5 256.5 248.4 240.5 238.1 237.3 230.8 221.4 221.7 219.4 216.2 211.6 209.9 205.4 198.3 190.2 176.2 160.1 140.6 126.7 147.6 156.4 154.3 150.2 144.5 138.5 132.6 130.2 124.6 121.6 117.2 107.4 98.6 109.5 113.9 122.1 130.6 138.9 148.1 157.9 167.5 174.2 187.4 194.3 203.8 217.9 230.8 241.3 250.1 262.8 273 280.7 285.2 288.8 293.4 298.2 305.2 309.6 311.8 314.4 321.1 325.1 331.5 335.5 342.3 344.5 346.2 346.5 352.9 362.4 367 365.1 365.5 357 353.8 361.1 379.5 386.8 402 417.9 415.2 414 412.1 411.9 418.8 418.3 417.1 416.3 414.2 412.9 406.3 401.5 388.3 377 361.5 343.1 326.6 311.5 289.7 270.3 260.7 255.2 249.8 232.6 212.2 186.5 174 162 155.8 147.4 136 128.4 118.1 112.1 101.3 86.3 76.3 66 58.5 52.4 49.8 45.1 41.8 41.1 42.3 40.4 38.9 36 31.1 28.8 24.3 20 17.8 15.1 15.6 12.2 13 13.1 22.3 26 25.5 31.9 35.5 40.5 45.7 45.3 49.8 56.8 60 62.4 63.8 65.1 67.1 68.4 71.2 70.7 73.4 75.4 78 75.4 73.6 73.6 74.1 74.4 68.1 68.5 70.1 71.1 65.7 63.5 62.1 59.3 58.8 58.8 60.1 58.5 57.6 56 56.5 56.5 54.7 53.2
533.1 512 492.3 471.9 455.3 432.1 415.7 395.1 378.3 363.3 345 328.2 312 298.8 284.3 283.4 277.3 269.7 259.9 251.7 247.1 243.6 242.5 237.4 229.4 223.5 222.3 218.7 210.3 208.3 203.9 194.4 187.1 182.8 168.4 154.6 139.8 153.9 162.2 168.9 163 162.8 159.2 151.3 141.8 139.2 138.4 128.6 117.6 111 101 111.4 120.2 128.6 137.2 145.9 155.1 165.6 174 181.6 193.4 199.8 212.7 229.7 241.8 252 260.4 274.3 284.9 292.6 299.4 302.1 305.6 309.9 317.6 322.7 325.8 326.6 330.3 337.8 342.7 347.5 355.3 358.8 361 363.3 370.8 385.4 390.1 382.3 374.8 370.1 367.9 372.1 389.9 411.2 421.1 422.5 420.2 417.8 418.8 425.3 430.4 431.4 428.9 429 433 430.4 419 407.4 390.8 373.6 357.4 346.7 332.1 314.6 298.3 282.2 272.5 257.4 244.5 225.2 205.9 188.4 178.3 170.1 161.8 152.1 143.4 134.9 127.6 114.4 105.3 96.8 83.1 75 67.8 58.9 50.3 44.8 40.1 38.7 37.6 41.4 37.6 34.7 31 28.2 26.3 20.2 19.3 16.8 14.7 13.5 13.8 19.6 26.8 30.1 30 39.7 36.1 42.2 45.5 51.8 55 65.4 67.4 67.6 72.2 75.5 74.3 75.7 76 78.1 80.1 84.4 84.8 80.3 76.5 76.1 75.4 74.9 71 68.8 68.3 69.7 66 65.1 69.4 58.8 58.8 61.2 59.8 54.6 54.8 54.3 52.2 49.4 46.1 46.1
512.7 491 468.8 448.7 436.9 416.3 400.4 382.3 368.2 351.7 332.3 313.5 308.1 306.4 299.4 290.7 281.6 272.4 260.6 253.1 245.9 239.4 232.4 234.6 228.5 223.4 221.2 216.8 215.3 215.9 205.2 197.9 187.2 180.1 166.2 150.7 153.6 167 172.9 175.4 173.2 171.9 173.6 163.4 159.3 155.7 152.5 134.9 120.7 110.6 113.9 120.4 125.4 134.4 143.2 152.8 161.5 171.8 179.8 189.9 198.9 208.9 220.7 237.3 247.9 260.5 270.1 286 298.6 307.2 312.9 316.9 319.9 325.2 331.6 331.1 336.3 337.4 336.9 349.4 355.3 360.5 369.4 371.6 374.1 378 385.1 386.4 390 387.9 383.5 384.1 384.4 381.2 399.9 419.8 426.2 423.4 424.9 421.2 429.7 433.1 434.8 441.8 441.2 447 444.3 436.4 427.2 416.1 399.1 377.5 360.8 344 328 315.9 300.5 286.6 271.3 253.4 237.4 223.6 206.7 196.5 188.9 180.3 175.5 165.6 153.4 145.7 132.5 124.8 110.3 100.9 89.1 76.9 71.1 63.7 59.6 46.6 40.9 38 33.2 32.9 35.4 32.5 29.5 29.7 32.1 23.9 24 18.2 14.5 14.2 14.7 28.6 25.3 27.2 34.9 37.8 39.5 46 51.3 57.1 61.4 66.1 70.3 74.9 79.3 77.8 81.3 81.8 85 82.6 84.5 85.5 84.2 80.2 78.2 77.4 75.1 71.4 68.4 67.7 66 65.5 63 62 60.5 58.8 61.6 69.2 58.3 59.8 60.9 59.3 59 55.1 50.5 46.2
495.9 473.1 451.5 438.8 424.8 406.1 389.6 375.2 362.4 350.8 338.4 329.4 324.5 316.5 307.5 294.9 281.5 271.2 262.3 256.1 250 246.7 241.3 231.1 224.3 221.8 219.3 217.4 218.8 214.8 212.7 213.3 195.7 183.3 168.2 154.2 167.3 177.5 184.8 188.9 189.3 187.4 184.3 180.3 174.2 167.4 150.4 135.2 128.2 117.9 117.3 125.8 130.9 140.4 149.7 159 168.7 177.4 186.3 195 205.1 215.3 228.3 241.2 259.2 267.7 282.7 292.2 308.2 319.1 322.9 325.2 331.2 335.7 341.7 343.1 346.2 351.9 354.6 360.9 366.7 372.6 378.7 380.2 383.1 392.6 393.3 394.5 394.6 399.7 396.2 396.1 393.2 390.1 410.4 426.3 426.6 425.6 427.4 433.7 436.7 439 444.7 448.2 455 456 456.2 445.8 441.6 420.8 404.2 385.5 371.3 348.8 330.9 318.1 306.9 291 273.4 255.5 238.8 225.4 213.3 204.2 195.2 186.4 176.3 170.1 158.4 149.3 143.8 131 115.6 101.3 91.8 81.5 72.7 62.7 55.4 48.9 45.5 37.6 35 32.1 26.9 24.8 26.5 33.2 26.6 24 22.1 16.2 15.2 15.4 18.9 24.5 31.4 34.5 38.7 41.1 48.3 54.3 61.6 64.9 71.7 74 79 81.1 82 83 83.4 89 93 95.7 91.2 88.2 83.4 79.5 77.4 76.1 73 70.3 68.6 66.7 68.9 64.8 65.3 64.4 65.1 64.4 69.4 67.1 64.9 65.3 63.3 63.5 61 56.9 49.7 47.2
477.9 458.7 443.2 429.3 414.3 397.4 386 373.7 370.1 362.2 351.3 343.4 335.2 323.9 311.4 299.3 289.6 276.4 265.6 260.1 254.6 251.6 244.9 234.3 227.5 224.1 223.7 220.2 220.6 222.3 224.4 216.7 200.7 184.7 172.2 169.4 179.2 186 196.1 203.9 208.7 204.1 205.1 193.1 185.9 167.1 150.5 144.3 135.2 125.7 112.9 132.6 136 146.4 157.3 166.6 175.7 185.6 192.4 203.3 212.8 221.7 233.6 249.6 263.8 278.5 291.5 303.7 314 321.8 329.6 334.2 340.3 345.3 349 354.3 357.9 362.6 365.2 366.3 375.5 381.5 385.5 389 391.9 398.8 398.9 403 406.7 407.4 409.4 405.3 398.9 399.4 420.8 427.1 431.2 431.3 439.6 442.4 445.1 451.7 455.7 466.1 471.4 469.2 464.4 460.6 447.8 430.5 408.7 391.6 369.4 352 338 327.5 314.1 295.8 281.8 266.6 246.4 230.7 218 209.8 200.2 188.6 176.7 167.9 158.7 148 140.3 130.7 118.5 104.8 90.7 77.7 69.2 61 53.8 48.8 45.2 36.8 33.9 31.2 29.9 24.2 19 20.5 21.2 19.4 17.3 13.3 16.1 17.3 26.9 30.2 33.8 36.6 42.7 49 53.5 55.7 64.6 71.3 76.9 78.2 82.8 86.5 88 92.3 91.3 96.7 98.8 99.9 95.8 91.5 88.9 82.9 80.3 78.9 76.8 72.4 71.2 75.6 73.9 73.4 72.5 71.4 73.4 73.2 72.7 71.4 69.4 67.6 66.4 64.1 61 57.2 51.8 48.3
465.3 451.5 437.4 420.6 405.4 394.7 388.2 383.7 381.3 370.6 363.3 352.1 343.8 336.3 325.4 311.9 294.4 281.2 267.9 263.2 258.3 254 248.6 239.9 231.3 229.1 227.4 224 222.9 219.6 219.7 207.9 194.9 183.6 170 180.1 188.9 199.7 209.3 217.4 222.1 216.7 212 197.7 185 165.9 157.3 150.3 138.8 129 127.3 125.8 142.9 152.2 163.3 174.4 185.2 190.1 199.2 210 219.1 229.1 240.3 255.3 269.4 287.2 303.3 315.3 325.8 331.3 339.4 345.3 354.2 360 360.2 366.1 373 379.9 383.8 374.5 383.9 388.1 394.4 398.1 401.2 402.3 407 404.5 406.6 410.5 413.5 408.2 405.4 407.2 425.3 433.5 434.5 440.8 446 448 454.9 459.4 467.4 469.2 471.4 472.3 472.7 467.2 454.6 438.7 425.5 401.3 375.7 361.2 353.9 340.8 326.1 304.1 285.6 265 250.4 234.8 222.8 215 205.6 188.1 176 164.2 152.4 145.9 137.5 127.9 117.6 103.8 89.3 78.5 66.1 58.1 50.7 46.5 37.2 31.7 30.6 28 24.4 21.4 19.8 20.6 17.9 15.9 17.9 17.8 17.2 18.1 26.4 35.2 43 39.5 43.7 51.8 56.5 60.5 68.2 75.7 80.1 83.8 91 94 95.4 98.6 99.2 100.9 105.5 100.3 94.3 91.5 88.4 85.6 82.3 78.3 74.2 74.9 76.3 79.3 81.1 79 77 74.3 75 74.9 74 72.4 71.2 69.8 70.4 66.1 62.4 58.4 53 48.3
457.1 444 431.1 415.2 407 401.1 400.5 394.4 390 385.1 371.9 362.6 353.7 349 337.8 314.2 298.1 283.6 278.8 268.5 262.7 261 252.8 246.2 240.1 238.2 235.4 230.4 227.1 224.6 217 211.2 206.5 199 191.5 189.3 188 211.4 219.1 225.4 226.9 222.2 210.8 194.5 182.3 169.7 161.9 152.4 141.3 141.8 132.3 142.9 151.1 159.4 170.3 180.8 191.1 198.1 205.3 215.6 229.1 238.1 252.6 263.4 279.4 294.4 309.6 323.2 335.2 344 354 357.3 365.9 368.7 374.7 379.1 384 391.2 391.6 391.4 385.8 399.4 406 410.8 410.9 411.3 415.1 413.7 422 424.5 418.5 412.9 414.7 423.7 437.9 435.9 446.1 450.2 453.1 459.3 473 476.4 478.4 475.7 477.1 480.4 477.6 466.4 447.7 432.7 418 400.7 383.5 366.3 356 344.6 327.5 305.9 284.4 268.5 251.6 235.8 221.1 208.8 194.1 183 171.8 159.4 152.2 145.6 134.2 123.1 112.9 101.9 88.2 76.3 64.9 55.6 47.1 40.2 33.9 29.8 27.9 25.7 22.5 21.2 22.2 22.8 21.5 20.7 20.2 19.6 17.9 19.4 28.4 34 41.5 49.3 50.3 58.1 59.4 63.8 69.2 76.8 84.3 92.5 96.1 100 101.6 104.9 105 110 106.2 102 102 95.5 90.3 87 82.3 77.9 73.3 77.2 80.6 81.9 80 77.4 75.8 76.2 75.1 74.8 74.5 73.8 72.7 75.1 71.2 69.7 64.6 57.6 52 48.9
451.6 439.7 433.6 426 411.4 409.5 408.8 397.8 397.1 392.1 379.9 374.8 369.6 350.2 335 318.9 304 297.3 285.4 276.3 270.4 265.1 260.6 257.9 255.8 252.7 249.3 241.2 237.9 233.8 231 227.4 220 217.4 208.5 207.5 196.9 210.5 229 229.1 226.4 218.7 208.8 202.5 190.9 174.5 165.4 155.4 149.9 146.1 134.6 146.9 155.7 164 177 187.8 196.5 206.7 212.8 225.4 236.8 249.1 262.4 274.8 289.6 307.5 321.2 336.1 348 355.9 364.8 369.2 375.7 381.7 392 393 392.6 403.8 405.4 405.8 402.4 408.8 413.3 417.7 416.9 414 419.8 421.6 428 431.3 428.2 432.5 439.2 432.8 442.3 453 457.4 458.6 465.6 482.5 491.4 484.9 483.5 477 474 475.2 470.2 457.9 440.3 422 402.5 387.3 369.4 354 343.1 338.5 321.1 299.4 284 267.8 249.9 230.9 217.2 199.1 186.5 174.9 163.8 156.5 146.2 139.1 130.3 119.7 106.3 93.4 82.4 70 60.5 51.4 47.1 36.3 31.6 28 25.4 24.8 21.9 24.2 25.2 25.4 24.5 24.1 22.6 20.6 18.2 23.5 33.7 38.7 46.2 50.5 54.9 60.1 63.6 69.3 73.7 79.7 83.7 95.1 99.6 107 108.1 111.4 113 117.2 112.2 108.3 103.2 99.3 92.5 85.9 80.5 78.4 79 80.6 83.1 83.8 79.1 77.2 75.5 74.7 73.7 74.3 73.9 74.3 74.1 73.6 71.1 66.4 62.1 54.2 50.2 48.5
453 442.4 436.6 421.9 422.6 419.6 413.8 409.2 410.7 402.9 393.3 387.5 374.1 353.8 340.3 327.3 320.1 307.4 299.1 290.9 283.6 276.8 273.5 272.9 276.2 278.1 265.5 256.8 254.6 252.8 259 239.3 241.1 233.3 223.5 217.2 195.8 229.4 244.7 239.9 235.1 218.1 207.3 196.1 186.5 173.3 166.7 161.4 155.2 147.8 139.8 152 159.5 170.9 182.9 193.9 203.7 212.8 222.5 237 248.1 262.7 272.2 285.8 300.1 317.7 337 347.8 359.2 366.5 375.2 382.7 397 398.5 406.4 406.3 405.6 409 416.5 414.6 419.7 411.9 423.6 423.8 426.3 426.8 426.8 430.3 433.5 435.4 442.9 455.1 456.5 445.4 450.7 461.3 460.3 466.5 481.4 494.9 501.4 493.6 483.8 480.1 467.6 459.1 453.6 442.5 425.3 402.1 384.9 371.8 358.2 345.7 331.3 320 308.5 287.7 269.7 257.2 242.4 227.2 212.7 198.4 183.7 167.3 155.5 146.1 140.1 133.7 124.8 110.4 95.4 83.4 70.8 58.6 50.8 43.5 39 33.3 31.8 25.7 20.9 22.9 26.2 27.1 28.1 28.1 27.1 25.6 22.8 22.9 21.5 23.5 32 40.3 53.2 53.5 58.6 66.9 70.4 73.5 78.5 85.4 92.6 94.1 104 110.8 112.1 115.6 117.9 117.7 116.6 109.9 105 100.8 95.1 90 82.6 84.5 82.5 84.6 87.2 84.3 80.2 77 76.1 74.5 75.1 72.5 72.8 74.4 73.4 72.6 70.3 62.3 59.2 53 48.8 47.2
457.1 444 439.6 433.8 427.8 423 421.1 422.2 423.9 422.1 415.2 406.5 381.8 357.8 347.9 342.7 335.1 323.7 324.6 309.8 300.2 298.2 293.7 296.9 296.8 299.2 285.8 276.7 270.7 272.1 258.7 251.5 251.8 236.9 228.9 210.6 219.2 246 255.7 247.3 237 228.3 214.3 201.4 189.5 177.1 173.7 168.6 161.4 148.4 142.4 152.5 164.3 177.5 187.8 199.2 210.4 219.1 230.3 244.2 258.2 268.5 284 297.7 313.7 333 349.4 361.1 369.6 380.3 386.7 392.6 406.4 413.9 419.6 421 421.7 424.5 425.3 428.5 426.9 427.4 429.7 431.3 434.4 435.9 438.1 439 445.9 454.7 463.6 465.9 466.5 461 455.2 459.9 466.3 471 484.9 493.4 495.2 483.2 480.8 474.1 459.4 446.7 432.4 419.9 399.9 383.9 365.6 351.3 335.3 330.8 319.1 305.7 291.4 276.2 264 249.1 234.7 222.2 209.7 192.3 177.3 165.5 151.9 144.3 134.9 124.3 113.2 101.5 90.1 78.2 64.2 53.4 44.9 39.8 32.6 33.3 25.9 27.6 27.6 28.4 30 30.7 31.5 31.1 30.1 28.2 30.4 27.1 24.3 21.2 34.5 41.7 53.5 55.1 60 67.9 72.5 78.1 86.5 91 97.6 98.1 102.5 106.9 112.8 114 116.4 118.8 116 111.4 107.8 102.5 101.1 92.3 85.9 83.1 84.8 86.2 85.1 83.3 79.9 76.3 75.8 74.5 72.6 69.7 68.3 68.1 70.3 70.3 65.6 65 61.4 55.3 52.9 44.2
452.6 450.3 444.4 440.4 435.7 440.8 438.7 441.7 448.3 436.9 425.5 408.6 396.3 384.5 367.8 358.3 355.3 348 346.7 338.3 328.8 329.1 320.9 323.9 319.3 318.6 310.6 299.8 289.2 280.7 277 272.1 249.4 238.8 220.9 225.9 242.4 260.3 261.4 254.5 248.3 229.2 218.6 203.5 188.4 184 182.3 175.8 165.1 154.4 154.6 156.1 170.5 181.4 192.3 203.9 214.2 225.2 237 251.4 262.8 274.9 291.6 308.5 323.4 339.9 357.4 371.9 384 393.1 398.8 407.1 418.1 426.2 432.2 431.8 430.3 432.3 435.1 444.8 442.7 439.9 441.6 444.3 448.9 449.6 451.8 458.7 467.1 470.3 473.3 478.7 473.2 464.3 466.5 471.8 473.7 473.2 488.9 493.7 481.4 474.4 469.8 459.7 443.2 426 403.5 393.7 384 374.4 362.9 347 334.2 317.4 297.7 289.5 279.4 260.9 246.6 239.1 229.4 216.1 200.1 183.8 172.5 158.7 151.2 139.9 126.8 111.6 101.1 95 83.4 74.2 64.8 53.6 45.8 36.3 34.5 32.5 30.6 32.6 32.3 33.3 34.5 34.6 34.6 34.1 33.1 31.4 36 32.8 28.8 21.9 33.1 48.5 52.7 58.9 63.6 69.2 73.8 81.5 86.1 88.5 93.4 99.1 103 104 106.2 110.2 113.3 117.2 116 112 108 100.8 96.2 91.2 92.2 92 90.2 88.5 84.8 81.2 77.5 74 72.4 71 68.8 66.6 66.7 66.5 66.8 64.4 60.9 59.1 57 50.5 47.3 45.8
458.6 457 452.9 451 450.3 463.6 452.5 457.2 458.4 443.8 436.5 425 420.6 403.2 388.8 378.3 373.1 372.3 376.9 365.6 360.5 355 353.4 347.2 350.6 340 322.5 312.8 304.1 297.5 283.9 267 254.1 240.5 227.8 242.7 261 269.2 271.3 273.5 265.8 238.9 224.7 211.4 196.4 192.4 189.9 180.4 167.7 163.5 164.6 158.6 176.3 187.5 197.5 208.6 220.3 231.4 243.5 256.9 268.3 282.4 298.9 315.2 331.7 355 369.4 383 391.2 402.4 409.1 420 433.1 436.7 441.2 441.2 439.9 443.4 451.9 454.5 457.5 458.3 454.7 456.7 461.3 472.9 481.7 475.8 476 479.6 481.7 487.8 489.3 475 470 473.8 476.9 474 473.6 476 466.8 463.2 452.3 439.7 425.9 407.6 395.8 381.8 365.8 357.8 349.2 336.8 324.2 311 296.8 277.3 258.3 246.5 230.2 217.2 206.4 194.9 179 169.6 155.9 153 142 130.5 115.7 105.4 92.8 85 78.1 70.9 59.3 45.1 39.5 38.8 40.2 38.7 38 37.6 37.6 38 38.3 38.2 37.8 37.3 36 35.6 33.8 32.2 28.2 25.4 35.1 46.5 55.7 61 65.8 71.2 76.7 82 87 91.1 95.4 99.6 101.3 103.8 105.5 104.1 108.7 111.9 107.9 107 102.5 99.6 93.6 94 94.5 92.1 90 89.1 84.6 81.8 77.3 73.9 73.7 70.4 66 65.6 66.6 67.2 63.7 60.6 57.5 53.5 53.5 50.7 49.1 51.8
460.6 457.7 455.8 462.2 472.6 472.4 470.3 479.3 470.2 457.1 469.9 462.2 445.9 435.8 423 415.2 413.1 414.4 403.4 391.5 390.1 383.7 387 369.2 364.7 348.2 332.1 332.5 329.3 303.1 279.3 264.9 255.1 240.2 237.2 254.9 271.2 282.3 293.2 299.4 279.4 248.8 233.5 217.4 207.1 201.5 195.7 183.3 169.1 169.4 169.6 161.5 179.6 192.3 203.9 214 226.2 236.8 251 262.7 273.8 290 305.8 323.7 340.9 361.4 380.4 391.8 405.1 414 419.4 429.3 436.9 444.4 448.6 454.1 448.4 458.4 466.8 464.6 466.9 470.4 469.1 475.6 491.6 495.5 493.5 489.3 486.9 487.1 484.6 491.5 488.1 483.1 477.1 469.3 468.9 468.8 462 453.9 450.2 445.4 436.3 426.7 409.8 400 388.7 374.1 360.1 345.8 329.1 323.1 314.4 297.8 280.9 265.2 253.8 237.3 221 205.5 192.6 177.1 161.7 148.4 140.6 131.9 121.4 113.7 107.7 96.6 86.3 78.9 72.5 66.7 47.7 44.2 44.2 44 44 43.3 42.8 42.5 42 42.2 42.5 42.2 41.7 40.7 38.9 37.4 34.4 39.5 27.4 26.7 37.2 48.7 58.2 61.8 67.4 72.6 78.1 83.2 88.9 94.5 98.5 101 104.2 105.4 105.3 103.7 101.4 101.4 100.9 98.1 96.9 94.5 95.4 96.6 96.2 91.6 90.2 90.9 85.3 79.4 76.2 72.5 69.8 68.5 66.3 68.5 66.8 66.9 60.9 57.4 56.3 55.4 52.3 51 53.8 55
461.5 458.1 466.1 483 491.5 496.9 498.4 500.1 484.7 493.7 497.7 494.2 501.7 469 449.6 447.3 454.4 449 435.7 432.5 440.4 439.5 414.1 395 377.5 366.6 353.4 340.6 320.1 294.4 272 259.5 247.1 243.6 246.1 263.8 282.3 295.7 307.5 300.8 277.8 258.5 243.7 228.1 214.9 207.4 198.4 185.2 173.8 176.7 174.8 167.3 185.5 197.2 206.8 216.6 231 242.6 257.5 267.8 279.7 295.9 311 333.8 352.4 369.9 384.4 397 411.9 420.4 426.5 437.4 448 448.6 457.9 465.3 463.8 469.8 473.2 472.7 471.1 474.3 482.7 493.1 503.1 505.2 507 502.5 498.5 489.8 485.4 488.3 495.8 489.4 476.1 470.9 461.6 460.1 455.3 447.9 439.7 434.1 426.3 414.7 400.9 391.2 377.7 364.6 349.6 334.5 316.7 303.6 292.5 279.1 265.8 255 239.9 223.8 209.6 198.4 183.1 168 154 141.2 128.9 116.2 104.3 99.4 92.2 85 79.6 74.7 66.4 45.9 48.7 50.3 49.4 48.6 48 47.5 47.3 47 46.6 46.6 46.5 46.3 45.9 44.7 42.1 40.1 39 36.7 28 25.3 35.2 49.9 56.9 63.2 69 74.2 79.6 85.3 91.1 96.8 101 103.3 106.4 107.5 107.1 106.9 104.7 103.8 98.8 96.5 96.8 95 94.7 94.9 94.5 90.4 87.7 84.4 80.5 77.3 73.4 70.3 68.2 66.8 67.9 67.9 65.3 62.3 60.9 57.8 57.5 56.8 55.5 54.1 55.5 55.9
461.6 462.6 473.5 488.4 504.4 515.6 521.4 509.1 518.8 523.9 526.6 534.5 539.4 513.4 492.8 496.6 488.3 478 479.4 478.5 462.8 438.2 418.9 408.2 381.2 366 354.1 331.9 301.5 281.5 262.8 252.2 246.3 248.6 255.7 273.9 295.4 313.7 321.6 318.8 298.1 271.3 254.7 239.9 225.2 213.6 203.2 189.5 175.6 182.2 179.5 173 190.2 201 212.3 222.3 234.7 251.7 261.2 272.5 285 301.7 316.7 339.5 361.1 377.8 398 411.5 429.9 431.5 442.3 452.2 460.3 466 466.3 468.5 471.8 478 481.1 479.9 480.3 487.5 498.8 500.8 512.5 512.1 513.9 513.5 506.9 494.8 487.2 493.4 492.6 481.5 469.9 466.2 457.2 446.3 441 437.1 429.6 419 409.9 399.5 386.5 378.1 366.5 348.6 336 320.9 302.9 288.5 276 265.4 256.4 240.1 224.7 209.4 192.7 181.9 170.5 156.6 141.3 129.1 120 109.1 99.3 88.6 84.9 79.5 76.3 65.9 49.5 53.9 55 54.7 53.8 53 52.3 51.8 51.6 51.3 50.9 50.8 50.5 50.3 49.9 48.4 45.9 43.7 46.9 39.9 31.8 29 35.5 48.7 57.8 63.9 69.9 76.2 82.1 87.7 93.3 98.2 103.2 105.6 108.7 110.3 110.5 109.9 108.3 107.2 103.8 101.4 97 95.9 93.1 93.1 91.8 88.9 85.8 82.6 79 74.9 71.8 68.9 67.3 67.1 68.4 66.2 63.8 63.2 61.2 59.5 58.6 58.4 57.3 55.9 57.9 55.5
471.6 472.9 483.2 498.5 517.4 523.4 529 527.7 537.9 541.4 560.5 560.5 540.2 527.2 510.8 497.1 489.6 479.4 470 463.8 456.8 427.2 409.6 386.2 369.2 346.9 323.6 302.9 284.5 270.3 258.8 252.1 252 255.5 265.3 286.6 308.5 331.3 341.1 331.4 312.6 294.6 278.6 256 235.2 219.1 206.5 192.9 182.8 188.4 183.9 176.3 196.6 208.6 217.2 228.8 241.3 254.2 265.7 276.5 291 307.4 321 344.4 364.5 382.8 403.5 429.8 440.1 453.8 460.5 472.5 482.7 483.1 482.2 493.2 492 493.6 491 498.6 513 518.9 515.8 514 512.4 510.1 512.2 512.1 503.6 495.9 488.5 481.3 472.7 458.7 449.8 443.9 438 428.5 422.6 417 412.9 409.1 394 379.7 371.7 364.8 352.6 336.5 319.2 304.7 288.2 273.7 260.9 250.2 235.5 223.6 209.1 192.8 181.3 168.8 157.6 145.1 132.8 122.5 110.8 100.7 91.8 84.8 79.6 71.9 58.4 62.5 62.9 60.6 59.9 59 58.1 57.3 56.5 56.1 55.9 55.6 55.3 54.7 54.4 53.7 52.5 51.7 49.9 48 44.1 45 38.2 28.9 37.3 49.7 58.4 65 71.8 78.4 84.3 90.4 95.8 100.7 105.8 109.4 112.5 114.1 114.2 113.9 113.2 112 108.8 105.5 103.3 98.8 93.5 93.2 91.4 87.4 83.6 80.8 77.1 73.5 71 67.6 67.5 71.6 68.9 66.5 64.3 62.4 61 60.1 59.6 59.7 58.8 58.9 60.7 57.4
486.6 490.1 502.9 523.6 521.2 528.3 531.1 531.6 532.6 530.3 530.4 523 507.8 502.1 490.7 471.9 461.3 450.5 438.8 426.6 409.4 399.3 375.2 359.2 340 321.8 302.9 285.5 272.9 263.8 255.9 254.9 260.2 267.3 280 301.3 325.3 347.1 355.2 346.2 335.3 324.1 299.9 266.4 241.8 223.5 207.7 197.8 185.8 195 190 178.9 201.4 213.9 223.2 232.8 245.6 259.5 272.3 281.7 295.3 312.6 327.1 352.8 373.1 391.2 412.6 440.2 455.3 475.1 482.3 494 499 492.4 501.2 508.3 510.6 500.7 508 523.2 541.9 545 537.8 536.7 531.5 522.1 518.7 505.5 489 484.2 472.2 463.9 453.7 441.3 433.6 425.7 414.2 411.7 406.4 400.7 394.8 386.5 378.3 365.3 352.4 347.7 334.7 321.4 306.1 289.4 276.9 266.8 252.3 233.4 220.4 206 191.5 180.1 167.6 159.4 152.7 140.5 130.9 120.8 109.7 97.6 90 84.2 76.6 66 68.4 68.7 67.9 66.2 64.9 63.5 62.1 60.9 60.5 60.3 60.3 60.2 60.2 58.6 57.9 56.8 55.2 53.6 52.4 51.1 49.1 45.2 42.2 29.5 40.4 53 61.3 67.3 73.8 80.8 86.9 93 99 104.4 109.2 113 116.2 117.9 118.1 117.9 117.9 117 114.2 109.8 109.9 102.7 99.1 94 90.6 84.9 81.1 77.8 74.8 72.7 71.7 69.4 69.3 70.8 68 67.4 65.2 63.8 62.5 61.6 61.8 61.2 60.8 60.9 58.9 54.3
502.2 504.5 526.2 534.2 539.9 547.2 532.4 534.6 535.9 542 522.9 503.1 485.7 466.1 458.9 447.9 430.7 418.8 404.7 389.1 376.9 363.7 348.4 332.3 317.3 301.4 287.5 275 267.8 260.7 258.1 263.2 268 278 299.3 319.6 346.7 372.4 381.4 364 349.4 334.8 302.9 272.6 250.8 229.2 214.7 202.3 193.9 201.9 194.4 184.1 199.9 210.7 225.1 239 248.6 263.4 275.2 287 302.6 319 335.9 361.3 386.1 401.4 428.2 450.8 467.1 488.9 500.9 505.6 508.8 519.1 525.1 520.5 523.6 528 540.1 553.1 562.3 559.4 556 564 561.4 552.5 539 508.3 483 466.3 456.9 447.7 438.8 428 422.9 413.7 402.9 393.5 386.5 380.1 376.3 368.7 355.3 344.5 334.7 324.6 315.9 305.1 289.4 277 265.7 250.2 235.8 221.9 207.4 192 181.5 166.1 159.4 152.4 146.6 137.3 132.2 119.9 112.9 102 92.5 90.7 78.9 70.3 74 73.1 72.2 70.7 69.3 67.3 65.3 64 63.1 62.9 63.1 63.7 63.1 61.3 59.7 58.7 56.7 55 53.9 52.2 50.2 47.4 36.4 31.8 40.5 60.5 65.7 69.9 76.4 83.7 89.7 96.2 102.6 108.2 112.9 117 120.5 122.2 122.7 122.7 122.7 122.3 119.6 114.1 109.7 103.7 98.1 93.2 87.3 84.1 81.9 83.2 78.9 76.1 76.2 73.4 71.8 68.4 68.6 67.5 66.6 64.9 63.6 63.3 63.4 63.3 61.8 56.3 56.9 59.1
524.6 533 544.3 551.7 553.3 551.9 542.5 531.6 522.1 510 501 489.1 470.4 453.2 442.7 426.9 411.2 400.8 383.3 370.4 355.6 341.7 329.1 314.7 300 286.9 275.5 269.4 264.4 262.4 265 270.6 278.7 296 318.4 343 374.3 399.7 412.6 393.6 364.3 332.3 304.8 283.9 260.7 237.6 221.7 208.4 197.4 209.1 197.5 186.4 208.5 220.4 224.5 237.1 252.6 265.8 278.6 290.7 308.3 323.9 340.7 367.1 393.8 412.9 438.6 463.6 487.2 508.2 517.3 527.1 533 540.9 533 531.5 537.2 539.3 550.7 570.5 566.7 562.7 578.4 578.4 565.3 564.2 554.7 505.8 476.3 461.8 437.7 425.2 414.4 413.1 399.7 393.6 386.3 375.1 367.6 363 356.7 345.8 338.9 331 319.1 303.6 302.7 287.1 276 266.2 253.1 235.7 220.7 207.7 195.2 179.1 167.8 158.9 157.1 153.8 147.9 138.9 131.6 117.5 106.4 98 86.1 82.5 75.2 76.3 78.3 77.5 76.7 75.3 72.1 69.4 66.7 64.5 63.8 63.6 63.7 63.9 63.4 61.8 60.6 59.3 58.2 57.2 56.8 56 51.5 39.8 32.6 36.1 47.4 60.9 68.2 73.6 81.1 87.8 94.1 100.5 106.8 112.4 117 121 125.2 127.1 127.5 127.5 127.5 128.1 125.1 118.5 110.6 104.4 98.7 93.7 89.2 89.5 84.1 79.6 76.6 78.2 76.1 73.7 72 68 67.8 66.3 65.5 64.4 63.2 62.1 59.8 57.8 57.3 58.5 60.6 63.4
558.3 564.1 559.8 566.2 560.7 553.2 546.3 534.3 511.2 488.1 473.3 462.5 449.9 436.7 424.5 406.3 392.5 381 364.5 350.1 334.8 322.2 309.2 299 286.6 275.9 269.6 267.3 266.2 268.7 273.1 280.6 293.8 315.9 336.7 361.5 394.5 424.7 424.3 404.3 373.2 347.5 318.1 293.4 264.7 244.5 226.3 213.2 206.9 213.9 202.4 190.9 209.5 223.8 233.3 237.9 253.5 268.3 280.3 295.7 312.6 329.3 350.4 372.3 400.2 426.2 452.7 479.2 504.4 522 533.9 541.1 548 557.9 556.4 554.2 552.1 555.6 571.7 577.2 575.2 579.8 582.7 574.4 565.1 568 557.7 510.5 477.7 459.2 441.9 432.8 422.7 417.1 397.3 366.7 354.7 351.7 343.8 338.2 337 334.6 325.9 314.3 304.3 287.2 277.9 271.5 264 251.3 237.7 224.2 209.8 195.5 184.8 171.2 161 156.6 151.6 145.9 141.7 136.7 125.9 115.5 102.8 95.1 88 83.9 79.8 82.8 83.3 83.1 80.9 78.7 75.1 71.1 67.5 64.8 64.5 64.4 63.8 63.6 63 62.2 61.6 60 57.9 57.9 57.4 54.7 49.4 39.6 29.4 45.7 53.2 62.4 71 77.7 86.2 92.5 98.5 104.7 111 116.5 121.3 125.7 130.1 132.6 134.8 133.5 132.5 129.8 125.9 119.7 110.9 103.4 95.3 89.7 92.1 90.2 83.7 82 80.7 77.9 72.1 70.8 68.2 70 65.3 67.2 62.5 61.6 61.7 60.5 58.3 60 61.6 62.1 64.6 63.6
592.7 595.3 581.9 571.4 562.8 551.1 536 520.5 490.8 469.2 451 437.1 426.9 414.7 400.5 387.6 373.7 358.8 345.1 329.6 316.3 305.7 295.2 286.1 275.2 274.4 273.6 272.5 273.5 277.5 283.6 294.8 316 334.9 360.3 385.5 413.7 429.3 422.7 408 389.3 364 338 298.7 272.4 252.4 234 216.7 225.8 219.9 210.6 196.1 212.5 226.1 235.2 244.7 255.4 268.9 282.5 299.2 315.4 333.1 356.1 379.3 408.5 434.4 469.7 497.7 524.2 538.3 549 554 559.4 566.6 573.5 571.3 566.5 574.9 579 583.5 587.2 588.8 588 579.4 572 568.2 559.3 522.3 486.9 460.5 443.4 435.2 429.3 420.3 405.8 380.1 362.7 343.8 322.6 309.1 315.8 311.1 305.3 295.2 286.4 272.4 261.5 254.1 246.4 238.4 223.7 213.2 198 182.5 171.9 163 154.3 151.1 147.8 141.8 137.5 133.3 121.3 105.8 98.5 92.9 88 90.5 89 88.9 88.6 88.6 86.5 82.8 78.2 73.6 69.4 65.5 63.7 62.3 62.1 62.4 62.6 62.7 62.6 61.1 59.8 61.8 59 51.5 43.2 34.7 36.4 47.8 57.2 64.9 72.4 81.5 89.4 95.9 102.5 108.6 114.9 120.5 125.6 130.4 135.6 138.4 141.6 140.7 135.2 130.9 125.2 118.9 111 102.2 98.4 94.4 91.8 91.7 87.2 84.9 80.3 79.6 77.3 77.7 72.9 70.2 69.8 63 63.8 60.5 59.6 59.6 59.5 61.3 63.1 64 62.1 61.3
616.7 605.8 590.8 577.2 567.3 552.8 522.6 495.2 468.5 449.3 437.8 422.8 405.7 394.7 383.8 370.5 354.8 339.6 325.7 314.4 303.8 294.8 287.3 279.4 281.5 280.7 280.5 280.2 280.8 286.5 297.9 320.1 338.1 357.8 388.5 421.6 447.4 448 425.5 402.3 379.8 354.5 327.1 299 281.5 262.2 243.3 222.4 234.9 226.8 213.5 199 217 228.3 237.7 247.5 258.3 270.9 286.3 304.8 319.2 335 357.2 385.3 415.2 445.1 485.9 517 537.9 546.7 558.6 565.3 568.2 573.7 578.9 584.4 579.2 580.3 595.2 595.7 591.3 591.6 586.8 577.9 577.1 573.4 559.6 530.5 496.8 467.9 448.4 440.6 435.3 422.1 406.1 392.7 383.8 370.5 345.2 310.1 277.7 281.4 283 273.9 266 254.1 246.1 234.5 228.3 217.2 209 197.5 184 174.2 163.5 159.6 152.1 152.2 144.3 139.4 133.5 120.1 112.5 105.4 98.2 91.3 93.9 99.7 96.9 94.6 95.9 94.2 92.8 87.6 80.8 74.6 70.4 65.8 62.8 61.6 61.3 61.3 61.7 62.8 64 63 63.6 63.7 58.5 50.9 39.4 31.6 43.7 52.3 59.7 66.9 75.2 84.1 92.5 99.5 106.1 112 117.8 123.8 129.6 134.3 138.6 143.4 148.6 146 137.2 130.9 125.2 117 109 105.6 102.4 97.4 97 95 91.8 91.2 89.3 83.3 79.5 77 73.3 69.9 64.2 67 62.1 61.2 61.3 61.9 61.6 61.9 64 64.4 62.3 62.6
638.1 613.9 598.3 576.2 549.1 547 516.4 478.2 450.9 432.4 419.7 407.2 392.2 378.6 365.8 352 337.1 325.6 312.7 303.3 295.1 288.7 285.6 286.9 288.7 290 290.8 289.7 290.9 300.4 319.5 343.5 359.6 387 417.7 445.8 462.6 450.1 427.1 406.1 381.4 350.8 331.8 313.2 294 273.6 251 242.2 244.2 235.6 220.5 204.1 216.9 230.6 238.6 250.1 260.7 273.9 291.1 306.5 322.7 340.6 364.7 393.2 424.9 458.2 505.6 526.3 540.3 557.3 566.5 572.4 576.9 587.3 592.3 590.6 597.3 603 604 598.5 595.4 591.9 585.9 583.8 579.5 570.8 553.2 531.1 512.7 477.8 457.3 453.8 443.4 431.3 419.1 400.7 385.5 370.9 357.7 324.4 305.7 279.7 251.3 254.2 245.4 240.2 227.2 212.4 203 198.6 192 185 173.2 165.1 155.6 153.9 147.2 143.2 138.8 135.7 125 116.5 110.6 103.7 95.8 97.1 99.7 103.4 102 100.1 103 102.2 100.6 93.1 83.5 75.7 71.7 65.5 62.2 62.3 61.6 62.7 61.8 62.8 64.1 65.2 65.7 58 49.2 42.5 35.9 38.1 47.7 56.9 63.6 71.9 78.5 87.1 95.9 103.4 109.4 115.4 121.2 125.5 130.3 134.8 136.8 142.6 147 144.6 137.3 131.2 123.9 115.2 109.2 107.1 102.4 101 99.7 98.2 96.1 92 91.4 82.1 80 75.4 75 70.2 68.6 64.2 62.1 62.1 63.2 64 63.9 63.4 64.8 64.9 63.4 62
632.1 600 581.8 556.1 529.4 503.9 501.2 462.3 436.7 415.7 401.9 388.3 376 359.8 345.9 333.5 322.4 312 303.2 295.5 290.6 293.5 294.1 296.5 298.6 299.2 298.7 296.8 303.7 316.4 339.3 359.6 381.9 412.5 440.9 469.6 465 450.7 434 410.3 382.8 360.6 342.6 327.1 305.3 283 255 254.8 253.3 242.1 228.1 210 216.6 232.2 241.1 251.3 263.8 274.1 290.8 308.5 323.7 344.4 370.5 399.4 432.2 468 506.7 533 555.7 565.4 570.6 579.4 581.5 596.6 603.5 608.6 611.2 616.5 614.5 612.9 613.3 598.3 597 595.2 589 565.9 548.2 530.4 512.1 493.5 474.3 468 469.9 460.4 434.3 408.2 387 362.4 347.8 331.9 313.3 285.6 258.1 237.3 226 219.3 207.1 198.1 195.5 181.4 177.9 174.6 161.3 153.7 147.9 142.3 140.7 136.8 133.7 128.8 122.5 111.6 107.6 98.4 100.1 103.2 104.3 106.6 106.8 104 104.4 101.6 99.3 94.5 87 74.9 70.5 64.9 62.5 63.1 63.3 64.6 63.8 62.9 63.9 65.4 60.2 57.2 49.2 44 38.6 46.3 55.5 62.5 69.7 76.3 83.5 91.2 99.7 107.1 113.1 118.9 123.8 127.7 131.9 135.3 136.7 138 139.3 137.6 135.3 130.5 122.9 116.2 109.9 106.8 105.5 102.1 99.8 99.6 97.2 93.6 87.4 83.4 80.3 76.5 74.2 70.3 64.8 64.2 63.8 64.5 64.7 66.3 65.5 64.6 66.3 65.3 63.8 63.8
614.9 585.8 561.6 545.5 519.4 491.8 462 442.7 418.7 401.4 385.3 372.4 359.7 344.9 332.8 321.8 312 303.8 298.2 294 298.2 304.8 309.4 310.2 303.9 302.8 305.8 308.5 317 338.1 356.6 380.6 407 435.2 467.6 477 469.5 457.5 430.2 409.3 386.3 368.9 354.4 328.2 310.5 285.2 263.9 265.6 261.5 247.1 235.2 220.9 218.5 229.9 241.1 252.9 263 276.4 290.8 308.2 326.2 345.2 374.8 404.4 434.9 472.7 505.2 541.2 561.9 573 582.2 587.1 590 603.6 611.6 613 622.4 633.1 628.7 628 618.9 612 616.4 602.5 592.4 571 558.5 537.6 516.1 499.6 488.3 477.6 467.5 453.3 432.3 406.6 386.8 366.1 350.5 333 317.4 295.4 274.6 261.8 245.9 233.8 225.6 216.9 203.1 183 172 157.7 153.1 148.3 140.3 136.5 134.9 129.9 125.4 119.4 115.2 108 102.3 106.2 108.1 109.3 110 109.8 108.6 106.8 104.5 101.5 96.6 92.1 85 75.9 70.8 65.7 64.4 64.8 64.3 64.3 64.3 64 62.6 61.6 57.9 53.2 47.5 36.4 41.3 52.9 60.6 68.1 74.4 81.9 88.5 96.2 103.6 110.4 116.7 122.1 126.2 130.4 134.5 137.3 138 140.1 139.1 137.6 136.3 131.7 124.3 117 110.5 107.6 107.4 105.8 103.8 101.8 101 97.6 89.2 86 81.5 78 77.3 71.7 69.7 69.6 66.1 67.3 69.4 70.4 70.1 68.4 67.1 65.8 63.9 61.9
593.7 562 536.1 521.5 503.7 474.4 444.8 420.3 405.2 389.5 371.3 357 346.3 334.5 322.7 314.7 306.3 299.1 298.1 303.6 308.5 313.6 317.1 314.5 310.8 315 320.9 321.9 336.6 357.3 379.2 406.3 431.1 465 485.7 481.4 479.5 461.5 430.5 411.1 384.4 370.4 353.1 326.2 308.3 282.2 279.5 275.1 267.7 254.4 242.9 230.9 226.8 232.4 242 252.7 267.3 277.2 291.2 307 325.8 348.2 376.7 406.2 437.5 473 511.5 549.6 563.7 575.1 586.9 596.1 598.4 608.8 612.5 625.6 627.2 630.7 627.7 631 617 615.7 610.6 591.7 578.9 574.8 562.2 541.6 523.7 505.6 499.4 484.9 469 449.6 429.6 412.3 394.6 379.3 367.3 351.3 334.4 310.1 288.2 274.5 250 233.5 228.4 219.2 201.6 180.2 168.3 155.1 148.3 139.3 135 129.1 123.3 119.2 115.6 113.9 108.2 103.5 108.5 111.6 114.1 115.2 115 112.4 110.3 108.5 105.5 99.2 94.2 88.6 83.3 77.4 72.1 67.7 66 65.9 65.1 64.2 63.2 62.7 61.2 58.4 56.2 51.1 39.7 44 49.5 59.2 66.4 73.5 80.3 87 93.8 101 108 114.8 120.7 125.4 129.6 133.6 137.9 140.1 143 142.4 140.6 139 137.3 134.5 128 119.3 113.1 112.5 113.1 109.4 105.9 102.6 99.7 92.8 90.3 87.8 85.8 80.7 77.1 73.1 73.2 71.3 67.1 70.5 71.3 71.7 70.1 69.5 67.5 65.9 64.5 60.8
571.4 550.5 526.9 500.2 481.6 458.9 433.1 409.6 391 374.4 358.6 348 337.3 325.6 315.2 309.9 302.3 304.1 306.5 311.2 314.5 316.8 317.5 318 324.9 332.8 338.9 342.8 360.6 379.7 407 436.1 462.5 486.8 490.4 486.1 465.2 445 417.9 402.6 382.8 363.8 345.5 324.8 302.2 286.1 291 284.2 274.8 261.7 250.4 248 245.8 236.8 251.3 258.7 265.3 276.8 292.4 306.1 324.8 344.8 373.5 405.3 437 472.2 513.5 552.7 563 577.1 590.4 596.7 607.6 614.7 617.5 621.7 626.8 625.8 627.5 623.6 612.9 603.3 597.2 580.5 575.8 567.2 550.4 536.5 526.3 510.4 504 484.8 468.8 447 426.1 411 394.7 383.2 363.2 345.7 326.3 307.6 293.9 265.6 243.8 227.4 219.9 208.3 190.5 176.9 159.6 148.2 143.8 140.8 134.3 128.2 123 117.7 113.5 109 108.8 112.8 115.9 118.2 120.4 119 118.3 115 112.5 110.2 106.7 99.9 91.5 86.3 80.7 77.2 74.5 69.7 67.6 66.7 65.1 62.6 61.6 61.1 58.9 55.8 51.1 44.5 43.8 52.4 57.6 64.6 71.9 78.9 85.5 91.7 98.4 105.3 112.3 119.2 124.3 128.8 133.2 137.3 141.2 144.4 147.3 145.8 142.6 140.1 138 135.1 131.7 126.5 119.3 116.5 114.4 110.1 106.4 102.6 96.1 92 90.1 87.1 83.6 80.5 75.1 76.3 72.2 70.4 72.1 71.8 72.4 73.8 70.9 69.7 68.6 66.9 64.3 62.4
560.8 533.7 511.3 484.1 457.8 443 418.2 394.9 372.3 361.8 348.6 338.1 328.5 319.2 313.2 309.7 305.2 308.7 313.1 316 318.6 320.1 322 331 343.6 353.2 360.2 365.8 380.9 402.3 432.8 456.7 489.4 495.9 493.5 491.1 459.3 432 410.1 394.3 379.5 358.2 340 317.4 298.9 303.4 299.7 288.8 279.7 268 257.8 261 256.5 241.2 257.9 272.7 274.8 276.8 288.8 307.6 320.4 344.4 371.4 401.6 433.5 462.3 506 547.3 564.2 576.4 582.9 592.9 605.6 611.1 619.1 623.4 627.3 621.8 621 617.3 606.7 595.9 586.8 577.7 563.7 552 543.1 535.5 523.5 506.6 494.3 479.1 461.4 443.5 425.4 405.2 389.3 377.2 355.7 336 318 306.3 291.8 263.9 236.3 219.4 207.2 194.7 180.3 167.8 153.5 141.9 138.4 135.3 130.6 125.2 120.8 116 112 109.4 115.1 119.1 123 125.6 125.2 123.2 121.4 118.2 114.3 111 106.1 99.8 92.1 84.6 79.2 76.6 73.4 69.3 67.3 65.6 64.2 62.1 61 59.1 56.5 52.9 47.2 41.7 52 58.7 64 70.6 77.6 84.1 90.3 96.3 103.1 109.9 117 123.8 127.6 132 136.4 140.1 144.4 147.4 149.4 148.3 144.7 141.8 139.2 135.8 132.6 129.1 123.7 118.3 112.9 108.9 105.5 101.8 96.6 94.4 92 88.7 84.1 80.6 77.7 75.7 73 74.2 76.4 76.4 75 71.4 71 70.7 69.3 65.5 62.7 65.5
537.9 514.9 492.4 463.9 437.8 420.7 398 377.3 360.5 349.6 339.4 330.9 323.4 318.5 314.9 308 311.8 316.8 318.2 320.6 324.3 324.2 334.2 350.1 365.9 374.8 376.1 387.8 404.6 427.8 455.4 491.1 497.4 497 490.7 486.5 459.5 425.5 402.8 390.6 375.9 353.2 337.8 315 314.1 314.5 306.8 293.1 286.2 275.9 268.2 271.1 263.1 251.8 267 284.1 286.2 289.7 301.7 315 329 344.8 362.5 393.3 431.3 461.5 497.6 527.5 558.3 570.4 580.6 590.6 601.1 608.6 617.5 622.8 622.2 620.2 614.7 606.4 601 590.8 577.4 567.9 555 543.7 537.7 528.2 515.8 497.8 485.4 467.3 450.2 431.8 415.6 399.7 382.1 369.2 348.6 328.9 306.5 287.2 270.8 251.2 231.7 211.5 196 186.9 172.8 159.4 148.8 136.8 132.6 130.1 126.2 122 117.9 114.6 109.9 116.5 121.2 125.3 129.9 132.6 132.1 128.6 124.7 121.7 115.3 111.9 106.9 103 100.3 87.3 80.4 77 72.8 69.3 67.1 64.5 63 60.4 58.3 56.3 53.5 49.4 42.2 51.1 57.9 64 70.4 76.6 83.5 88.9 94.6 100.9 106.7 114 121.6 128.6 131.1 134.7 138.3 141.6 145.1 147.1 147.7 148 145.5 142.7 140.2 136.8 133.6 129.7 124.3 119.2 113 109.2 108.1 103.4 101.9 97.4 93.4 89.5 83.4 81.9 77.5 75.5 75 76.6 78.6 78.1 75.8 73.8 72.8 68.5 67.8 65.1 67.6 67.2
515.6 496.6 468.5 444.2 420.6 398 377.8 364 349.7 340.8 334 325.7 322.4 318.8 313.9 314.7 320.1 321.3 322.8 325.5 330.8 336.5 352.5 368.7 383.6 386.5 394.4 407.4 434.1 452.9 477.8 493.9 498.3 503.7 491.1 470.5 441.9 419 400.8 388.3 368.4 353.8 333.1 333 328.5 322.3 312.2 299.4 294.2 282.6 280.2 280.9 263.6 265.7 277.9 294.4 291.5 302.9 311.9 323.5 338.5 355 376.7 401.1 427 464 506.6 537.6 554.2 567.2 585 595.7 601.5 606.1 616.6 623.1 627.9 622 613.7 602.7 592.1 578.7 564.4 552.4 542.4 539.3 532.3 521 504.3 486.4 473 455.5 436.5 422.5 407.2 391.9 373.8 356.5 334.7 314.5 296.2 277.6 261.3 245 226.2 208.6 190.6 176.4 165.6 153.3 146.9 135.8 128.5 125.8 122.2 118.6 112.9 113.4 118.1 122.5 127.2 131.4 136.4 139.8 139.3 133.7 130.1 125.5 117.8 110.8 108.2 102.3 96.8 90 82.8 77.6 71.1 68.7 65.2 64.3 61.6 58 55.6 52.5 49.2 43.7 50.5 58.8 64 69.6 76.1 82 89.3 94.1 98.7 103.9 110 115.1 122.2 127.9 132.6 134.8 137.3 140.2 142.3 143.9 144.8 145.4 145.6 144.2 141.3 137.9 133.2 128.4 123.1 117.1 112.3 108.6 105.9 104.3 101.4 97.9 93 90.2 84.6 79.1 77.9 78.3 79.2 80.3 82.2 80.6 78.3 77 73.3 64.9 69 69.3 70.9 70.2
496.9 469.9 442.4 420.1 393.4 378.7 365 351.7 341.7 333.5 328.7 326.3 323.3 318.7 315.7 320.4 324.3 325.7 328.6 333.8 339.6 355.8 367.7 377.5 390.4 404.1 415.2 432.3 457.7 476.2 485.4 500.8 498.4 486.7 482.9 460.4 438.1 412.3 399.5 387.2 370.1 354.5 348.1 348.6 340.2 332.6 322.1 309.7 301.9 288.8 291.7 289.3 271.4 275.5 286 303.9 308.2 314.2 324.3 335.2 347.1 364.6 386.6 413.5 444.7 458.2 494.2 530.2 550.9 570.4 584.9 594.8 600.3 609.3 617.6 623.6 618.2 611.4 598 586.6 575.2 561.3 552.1 538.6 529.4 523.6 517.9 503.9 485.6 470.7 460.5 444.6 425 408.9 395 375.5 355.9 335.2 318.3 300.3 281.1 265.6 250.3 232.3 215.1 199.4 184.5 172.8 160.7 149.3 140 133.6 125.7 121.9 118.6 115.3 115.6 119.3 125.3 128.2 132.7 136.3 138.4 141.5 143.2 136.8 131.7 128.5 121.7 113.1 107.1 105.4 104.3 99.1 91.8 82 75.3 69.3 64.7 64.1 60.2 56.8 51.7 43.9 46.9 49.6 56.5 61.9 67.8 73.7 79.9 85.9 92.5 96.8 100.9 104.8 110.6 115.5 122.2 128.4 133.3 134.5 136.5 138.6 140.9 142.8 143.4 142.8 142.9 142.7 140.5 135.9 131.2 126.7 121.8 115.1 111 108.8 106.8 108.5 99.6 98.4 93.2 88.5 82.1 82.7 82.3 83.7 86.2 85.6 80 80.2 79 77.9 67.1 69.2 71.6 74.3 73.2 72.8
471.9 443.7 418 396 374.4 363.2 351.9 342.8 335.5 329.7 326.6 322 321.9 318.7 324.1 324.5 327 330.7 334.2 343 354.7 366.4 378 387.6 399.9 416.2 435.3 456.4 475.4 491 501.4 513.4 506 480.3 464.9 450.5 431.1 412.9 399.6 383.6 368.5 360.3 363.2 357.2 348.4 339.6 324.3 318.5 308.2 301.6 301.8 297.3 276.8 281.7 294.8 311.4 327.5 326.3 331.8 341.8 355.6 372.8 395.1 420.6 454.1 483 501.3 527.2 554.9 573 584 589.8 597.7 604.2 608.5 608.9 605 592.8 580.5 566.1 553.4 538.4 529.2 526 518.8 510.5 501 487 472.1 450.7 441.8 428.4 409.3 394.1 377.4 359.1 337.3 318.4 304.5 286.4 272.5 256.7 237.3 223.9 206.1 193.1 178.6 167 156.6 149.5 135.7 127 122.8 118.9 116.2 114.9 120.8 126.4 130.7 135.1 139.2 140.3 142.5 141.6 138.3 134.5 131.5 129.1 122.9 119.7 119.2 117.8 114 109.4 101.3 94.1 86.2 73.9 68.5 64.6 60.8 56.5 51.9 45.4 48.3 53.8 58.8 64.5 69.9 76.1 81.1 86.9 92.7 97.4 101.5 105.6 110.6 115.4 121.5 126.7 131.1 133.3 135.4 137.6 139.6 140.3 140.8 140.4 140.6 139.4 137.8 133.7 127.8 122.9 118.5 112 108.7 107.8 106.7 105.2 99.9 96.5 92.5 86.8 83.8 86.8 86.4 88.2 86.2 82 81.8 82 79.9 71.5 67.3 73.5 77.8 77.8 76.1 79.9
447.3 420.4 398.8 379.4 362.2 351.8 345.3 337.5 334.2 332.2 328.2 324.5 321 325.5 326 326.9 330.3 336.9 343 356.2 368.6 380.6 384.8 396.5 410.8 429.9 450.3 471.7 499.2 513.9 513.9 519.1 499.9 477.8 466.5 450.3 430.2 417.1 397.9 383.1 370.3 376.9 372.5 368.8 363.2 342.4 333.4 324.4 316.5 311.1 311.3 306.9 286.5 294 308.9 325.3 338.4 341.7 337.8 352 361 379.8 399.9 430.1 467.6 498.7 518.5 533.3 553.5 568.6 577.8 583.7 587.9 590.9 588.7 585.9 584 574.2 556.2 540.3 527.5 511.1 501.5 501.8 499.6 489.2 474.3 458.7 444.7 428.4 421.9 406.9 391.6 379.7 363.4 336.4 319.2 304.4 287.6 274.7 264.8 249.1 233.6 221.3 205.8 190.5 179.4 168.1 157.2 148.5 136.1 125.2 121.6 119.7 115.8 120.4 123.7 130.7 135.9 138.9 141 142.9 142.3 141.2 140.4 138.1 137.2 130.8 129.7 135 135.8 134.4 129.3 118.7 110.9 99.7 88.5 78.8 71.7 66.3 61.6 56.6 51.8 44.9 51.1 56.8 62.2 67.4 72.1 77 82.5 87.8 92.6 97.5 101.6 105.8 110.4 115.2 119.4 123.6 128.3 131.7 133.7 136.1 137.4 137.9 138.2 138.5 137.9 136.6 135 131 125.2 118.5 112.9 107.8 106.2 105.9 106 101.3 99.2 96.7 91.7 87.9 88.8 89.8 89.1 90.1 87.8 85.6 84.3 81.9 72.2 71.4 77.3 83.6 82.3 83.7 85.3 88.3
431.1 405 386.3 369.7 355.1 347.3 338.9 336.5 334.3 330.9 326.1 326.9 327.9 328.4 330 335.1 340.2 346.7 355.4 368.4 376.8 386.7 393.3 407.9 426.4 441.6 466.2 502 518 523.9 518.5 500.1 485.4 470.9 462.2 446.9 433.6 416.9 400.4 388.6 385.9 383.7 384.1 383.2 362.7 343.4 338.3 329.5 326.4 323.9 320.2 313.9 302.5 303.4 325.3 349 351.7 355.6 355.7 356.1 368.5 384.3 409.8 439.8 473.3 505.5 523.9 541.9 554.4 562.6 571.8 575.7 576.6 575.6 570.1 567.3 556.8 541.3 522 507.4 494.4 484.5 479.2 481.4 474 464.4 453.7 439.4 426.6 407.4 397 380.5 373.6 360.6 343.5 315.1 300.7 285.6 276.3 261.5 247.9 232.2 219.5 209.9 197.1 186 179.7 164.3 153.9 142.3 132.9 123.6 119.3 117.7 119.3 125.8 129.3 130.8 136.7 141.3 145.3 145.9 145.6 144.6 142.8 142.3 141.9 140.5 138.3 141.4 141.7 141.3 135.2 130.8 119.7 103.5 93.3 83.5 74.6 68.4 63 57.6 51.9 46.1 52.8 60.1 65.1 69.8 74.5 78.7 83.7 88.6 93.1 97.6 102 106.2 110 114.4 118.5 122.1 126.2 129.7 132.6 133.9 135.3 136.3 136.6 136.6 136.1 134.8 133.3 129.6 125 120.5 115.4 111.3 107.3 105.2 102.7 101.6 99.7 96 90.6 90.8 92.5 94.9 93.8 91.3 90.3 89.2 81.8 72.6 75.2 81 86.8 87 89.1 93.4 94.4 97.3
413.6 396 376.9 359.9 347.9 340.2 338.2 337.5 334.6 331.9 330.7 331 331.5 333.9 338.5 349.6 351.8 358.3 367.2 377.4 391.2 402.9 413.4 427.6 450.5 466.1 485.7 508.9 525.1 527 509.1 488.1 478.2 464.1 453.5 441.3 426.9 411.2 402.1 398.4 398.7 399.6 401.2 404 393.4 362.9 355.1 341.9 338.2 334.7 329.4 324.9 321.4 314.2 345.7 365.2 370.4 374.2 371.8 369.9 378.4 396 422.1 452.5 486.9 509.9 530.6 542.4 555.5 558.4 557.2 555.8 551.3 547.6 546.7 538.1 520.3 506.2 489 475.6 470.4 460.8 456.8 460.1 455.2 443.2 429.6 417 403.6 381.2 374.6 366.3 350.1 340.9 323.1 299.1 280.5 269.2 258.7 247.4 234.7 221.5 210.5 197.2 188.4 178.9 170.7 157.1 146.3 133.4 124.7 122 119.3 121.4 124.5 128.6 131.7 138.4 144.7 151.1 154 154.3 149.8 149.4 148.8 147.5 147 146.5 145.8 146.7 146.2 141.3 136.5 128.8 115.6 106.5 90.5 81.5 74 68.9 64.1 58.8 53.4 48.8 56.4 61.9 67.4 72.1 76.8 80.4 84.6 88.4 93.4 97.7 101.9 106 109.8 113.7 117.5 121.1 124.8 128 131.1 132.4 133.8 134.5 135.3 134.9 134.2 132.9 130.9 127.5 123.8 120.2 116.7 112.2 108.8 106.2 104.2 102.7 100.4 93.7 95.5 94.8 94.7 94.8 94.1 93.3 91.4 85.4 81.1 78.1 78.2 87.1 89.9 94.8 98.9 104 104.8 107.2
402.8 385.5 370.4 357.6 345.9 341.2 340.8 339.4 333.5 334 335.1 335.9 340.3 344 350.8 356.3 362.3 368.4 382.6 394.6 407.7 422.9 443.7 459.1 474.5 503.8 515.7 527.8 536 533.9 507.8 486.4 474.7 464.2 451.7 438.2 418.7 416.1 413.6 412.4 412.7 414.4 421.3 435 426.7 393.4 372.9 359.8 353.3 350.6 355.1 357.6 358.5 327.7 363 377.5 386.8 388.4 390.8 384.9 392.4 412.1 433.3 469.8 494 511.9 527.3 540.6 543.7 543.7 544.2 537 531.6 525.1 519.7 507.3 491.3 473.9 458.9 451.9 449.6 442.4 440.7 431.2 428.8 417.7 400.9 389.1 372.6 357 353.8 344.2 324.7 315.4 296.8 279.7 263.8 254.9 244.8 232.2 221.7 211.3 202.1 192.6 181.4 173.2 161 146.6 138.1 130.7 125.4 121.5 120.4 123.1 130.6 131.9 136.7 147.3 154.7 162.7 164.6 158.4 156.2 153.2 152.8 152.7 152.6 153.3 151 148.6 148.5 142.5 134.7 123.4 113.5 105.9 95.4 86.7 75.8 69.7 65.1 59.3 53.2 53.9 60.5 64.8 69.4 74.4 77.4 81.1 85.1 89.1 93.3 97.6 101.8 105.6 109.5 113.3 117 120.5 123.7 126.6 129.5 131.3 132.7 133.5 134.2 133.7 133.1 131.4 128.6 125.6 122.2 118.5 115.1 110.2 107.1 107.4 106 100.6 98.2 95.9 97.4 97.8 99.9 97 96.8 95.3 91.7 89.2 75.8 83.9 89.3 92.1 100 105.4 108.5 113.6 114.8 117
398.3 382.4 374.1 358.9 353.7 346.9 346.8 339.3 340.1 342.8 344.2 347 353.1 355.9 358.8 363.6 372 382.3 396.6 413.6 426.3 448.8 478.5 488.1 505.8 526.2 539.1 546.2 548.7 538 524.4 492 473.1 468.4 453.4 434.1 425.2 427.2 426 425.6 425.6 428.1 433.9 441.8 423.4 409.3 385.9 380.7 379.8 391.3 392.5 410.4 387.8 344.9 378.7 399.8 407.8 408.3 403.9 398.9 409.2 428.7 450.8 476.4 497.2 512.8 519 529 530.2 528.3 520.8 515.3 507.7 498.9 490.5 478.5 457.8 445.6 437.4 435.5 431.1 423.5 414.5 405.1 399 388.3 376.3 364.7 346.5 331.3 326.6 317 307.2 287.2 274 259.3 254.8 242.1 230.7 218.6 209 197.9 190.8 180.7 174 162.2 151.9 140.5 132.8 127.7 125.6 122.5 123.4 126.5 130.1 135 144.8 152.7 158.2 162.1 165.9 163.5 164.9 163.4 163.2 162.8 161.6 161 158.9 157.6 145.1 138.5 130.2 122.3 113.2 104.5 95 85.8 77.2 71.8 65.8 56.7 55.1 58.3 62.7 66.4 70.7 74.8 77.7 81.2 85 88.9 93.2 97.5 101.5 105.3 109.1 113 117.1 120.5 123.2 126 128.8 130.4 131.5 132.4 133 132.5 132 129.2 126 123.1 119.9 116.2 111.2 107.8 105.8 105.4 103.1 102.9 100.8 100.6 99.5 99.8 101.6 99 97.4 93.7 92.7 92.1 89.1 91.7 97.2 104.3 110.2 112 116.9 120.7 124.8 128.9
404.6 387.8 378.6 380.7 364.7 358.9 350.2 345.1 348.4 352.4 355.2 355.4 362.4 365 367 376.8 387.7 402 415 433.4 452.5 479.2 506.4 518.5 537.5 549.4 563.9 576.4 552.5 531.4 511.4 489.9 477.4 467.4 451.9 443 439 440.4 440.3 440.7 439.5 441.3 444.9 445.1 440.5 427.7 419.9 418.4 417.7 425.4 432.4 421.2 389.2 362.9 397 412.1 418.1 420.3 415 413.4 424.2 442.7 467.4 489.2 502 509 508.3 512.8 509.8 506.1 500.1 493.4 485.8 472.4 458.2 444.1 430.7 426 418.5 414.3 409.5 398.9 396 389.4 380.4 370 356.2 348.5 336.1 309.2 300.6 292.3 281.2 269 257 245.4 234.6 224 212.4 202.5 192.3 185.7 177 170.1 160.3 150.6 140.5 134 131.7 129.4 126.3 122.3 125.8 129.9 131.9 140 154.3 160.8 168.1 170.6 169.6 171.4 173.8 171 171.1 167.5 167.3 163.6 161.3 156.6 149.8 139.3 128.7 122.2 113 101.9 95.9 84.4 79.2 73.6 66.2 54.6 58.3 60.7 63.7 67.1 71.2 75.2 78.2 81.4 84.8 88.7 93.1 97.3 101.1 104.9 108.7 112.7 116.7 120.2 122.9 125.7 128.3 129.9 130.9 131.5 131.9 131.4 130.9 127.9 124.4 120.8 117.3 112.6 108.3 108.2 106.5 105 104.9 102.1 101.9 103.3 102.2 102.1 101.2 99.3 97.7 95.9 95.2 93.9 98.1 104.2 110.5 115.1 117.3 123.3 128 135.9 138.3 143.7
412.1 400.9 389 387.4 380.8 368.5 349.3 353 354.5 358.2 360.3 361.4 368.2 367.6 374.8 391.1 405.4 424.9 437.9 456.1 477.4 504.9 532.3 548.1 563.1 572.2 588.8 573.2 545.2 525.8 507.8 491.8 481.7 469 461.3 456.1 453.3 451.5 453.6 454.8 459.4 470 470.7 473.8 468.8 461.9 468.6 448 455.7 454.7 444.6 429.6 401 380.2 411.1 431.1 430.2 428.8 425.6 428.2 435.9 460.8 482.6 494 501.5 501.8 497.4 499.4 490.5 480.5 479.5 471.6 457.4 442.5 427.2 418.4 407.4 403.6 401.3 395.9 384.6 379 373.7 369.8 360.6 347.5 335.2 322.7 308.1 291.3 284.3 274.8 261.7 252.1 242.3 232.1 219.6 207.1 197.2 189.6 182.6 175.7 167.9 163.5 151.8 143.8 139.1 138.7 136.1 131 124.5 128.4 129.6 133.9 137.7 148.5 157.9 167.7 173.8 177.7 181.2 182.2 179.5 179 180.3 180.3 176.9 170 161.3 154.7 147.1 136.5 134.1 123.3 111.3 103.2 94 88.4 80.7 75.2 68.4 61.5 57.9 61.4 64.9 67.8 71.1 74.9 78.6 81.9 85.2 88.5 92.9 97 100.8 104.6 108.4 112.4 116.1 119.4 122.1 125.4 127.9 129.4 130.4 131.3 132.1 131.1 129.8 126.7 122.7 118.5 115.4 112 110 109.7 108.6 107.1 105.6 104.2 104.1 104.3 104.1 103.4 102.4 101.8 100.4 96.1 96.7 102 107.5 115.1 120 123.7 129.2 134.4 141.3 148.2 152.5 157
423.5 412.2 396.9 388.4 378 364.3 356.7 359.3 359.9 362.3 363.8 366.4 369.6 373.2 385.1 404.6 426.7 441.1 455.8 480.4 507.4 532.3 550.3 566.2 579.3 593.3 589.3 578.4 551.9 525.7 510.6 502.2 487.9 476.1 472.3 469 468.1 467 469.5 472.3 485.8 504.5 507.1 503.6 500.1 518.6 501.9 482.8 477.9 461.5 448.6 437 425.4 401.2 421.9 440.3 437.8 438.6 440.2 445.7 452.2 473.3 486.7 493.1 494.1 490.9 482.4 480.9 471 451.8 445.5 435.8 427.1 415.6 407.8 397.9 391.7 387.5 380.2 373.7 364 358.1 353.6 347.6 340.4 328.4 320 304.1 286.5 276 270.3 259.3 252 238.8 229.3 217 205.6 195.4 186.4 179 171.3 162.3 157.2 150.4 144.8 141.6 138.6 138.7 139.6 134.7 127.2 133.1 137.6 140.7 148.2 160.6 168 174.5 179.4 189.2 186.8 185.4 186.3 187.6 186.2 183.1 178.6 171.3 166.8 156.6 145.2 138.5 134.3 124.6 116.8 106.9 96.3 88.1 82.3 76.2 70.2 63.8 57.6 61.7 65 67.5 70.7 74.5 77.9 81.9 85.2 88.4 92.4 96.2 100.4 104.2 108 111.9 115.8 118.7 121.7 126.3 129.4 129.6 130.2 131 131.1 129.7 128.3 124.8 120.6 116.2 114.8 113.4 111.9 111.1 109.7 107.9 106.2 105.2 105.3 106 105.7 104.7 104.5 104 96.8 98.1 101.5 109.8 116.6 122.4 127.9 135 142.3 146.8 154.2 158.6 163.5 169.8
440.5 417.6 395 380.4 367.1 363.2 362.2 362 364.1 365.5 368.2 374.8 379.4 389.5 402.1 420.3 446.1 466.9 486.1 511.5 531.3 553.7 572.5 586.6 603.8 605.2 590.7 567.4 546.4 531.5 519.6 506.7 492.6 488.6 484.1 483 485.2 487.6 485.4 491.8 507.8 528.3 545.1 545.9 546.2 530.9 513.8 500 479.2 476.1 460.7 449.6 433.6 414.8 440.2 445.1 447.7 450.1 458.5 464 470.2 481.3 486.6 486.9 482.7 478.5 465.8 451.7 433.8 422.4 413 406.1 397.4 392.7 387.9 382.6 376.8 371.2 361 352.4 346.7 339.7 334 328.2 318.5 305.9 295.8 283.8 273.2 266.7 258.3 252.9 243.1 232.7 219.5 209.9 196.3 184.9 175.6 169.3 163.5 157.7 152.7 149.3 144.6 141.5 139.7 138.3 134.6 130.4 133.9 134.8 137.3 145 156.3 165.5 178.3 186 193.6 192.4 194.5 193.1 192.9 193.7 191.9 184.4 177.9 171.9 166.2 156.7 150.5 142.2 130.6 122.6 115.6 107 96.8 88.6 81.8 75.4 70.1 67.3 56.9 62.6 64.3 66.4 70.4 73.8 77.1 80.5 84.5 88.3 91.5 95.4 99.2 103.6 107.7 111.7 115.5 119.1 123.5 129.4 130.8 130.3 130.5 130.4 129.8 128.2 126.1 123.2 119.7 115.8 115.1 114 112.8 111.9 109.4 107.9 106.8 105.5 106 107 107.3 107 107.2 107 99.5 103.9 111.7 117.9 124.8 131 135.7 145.8 153 158.4 164.6 171.7 176.6 182.8
418.8 402.2 386.2 379.2 372.1 366.1 365.9 361.9 364.5 370 376.9 384.5 390.7 401.6 418.3 448.8 471.2 487.6 510.6 538.2 559.4 585.9 602.7 619.1 621.1 616 588.6 562.9 548.2 537.5 526 510.1 505.7 500.1 498 503.3 505.4 503.9 510.3 528.3 543 560.3 562.6 557.2 540.4 521.9 509.7 497.2 479.8 475.9 459.8 446.2 429.3 432.4 445.8 453.7 461.1 468.2 471.7 480.3 484 484.2 484.5 480.9 473.4 462.9 451.9 425.7 411 406.4 403.2 394.7 387.9 379.5 371.7 367.4 362 354 346.5 335.9 329.7 323.9 316.4 308.4 302.1 291.1 280.9 273.5 265.7 260.1 252.8 246.7 238.7 224.3 210.1 193.8 180.5 172.4 169.2 161.8 158.8 153.5 151.6 148.3 142.5 140 138.2 135.5 133.6 137.6 137.9 140 147.8 160.1 165.5 178.8 184.8 191.1 197.9 202.1 206.4 206.6 203.9 200.3 199.6 189.4 177.9 171.2 164.7 161.2 155.5 142.5 134.1 126.5 118.4 109.8 100 91.8 83.2 78 72.5 67.7 64.2 57.8 62.5 64.8 67.7 73.3 76.2 79.9 79.7 86.2 89.6 90 93.2 96.1 101.9 107.5 110.8 118 124.2 129.2 131.5 131.4 132.3 132.3 130 128.1 125.3 122.4 121.3 120 119.5 117.4 113.5 112.9 108.4 107.8 106.5 105.6 106.3 108.3 110 110 109 106 104.2 111.4 119.7 126.2 130.4 137.1 147.1 156 161.9 168.2 173.9 181.4 189.8 193
406.8 406.9 397.9 383 370.8 368.5 367.9 366.4 370.2 378.8 385.8 401.2 408.2 418.4 443.1 467.8 491.6 515.6 536.6 563 585.3 601.9 624.5 637.1 632.9 612 583.2 564.8 552.6 542.4 529.5 521.6 516.6 515.2 513.2 520.4 519.6 524.4 540 559 572.7 590.5 578 555.3 533.4 510.7 496.7 484 477.4 466.2 455.1 441.3 435.1 446.8 455.5 469.8 474.3 483.6 490 492.1 494 488.7 473.7 472.8 460.8 447.7 434.4 413.6 404 397.2 393.1 388 381.5 371.6 361.2 355.4 350.4 339.1 329.6 319.5 310.9 305 297.7 289.1 281.5 275.1 268 259.5 256.4 252 243.2 235.3 225.9 213.3 197.5 186.8 176.8 170 165.1 162.8 159.1 152.2 149.1 147 143.6 140.5 138 135.6 136.5 138.9 142.7 146.9 159.6 165.6 179.2 186.9 193.4 201.8 211.1 213.6 218 221.1 217 210.7 205.8 195.8 183.7 173.9 166.9 164.6 157.9 148.3 139.1 131 121.2 110.8 102.9 97.4 89.1 82 77 71.5 68.8 67.6 63.1 63.5 67.6 72.9 73.8 74.9 77.6 82.9 85.9 88.5 96 100.9 103.1 106.8 112.1 118.8 125.8 128.9 130.3 132.3 131.7 130.8 130.3 131.7 126.4 128.7 123.4 122.7 120.4 115.6 111.4 109.4 108.5 107.4 107.5 109.5 110.4 111.7 112.3 112.4 110.4 104.1 112.2 119 126.4 132.6 138.5 147 155.8 164.7 173.7 178 183.8 191.4 198.6 203.5
408.9 399.7 388.5 378.6 369.6 367.8 368.5 367.3 376.8 390.3 400.9 419.9 429.6 442.2 469.8 490.9 520.9 551.6 569.7 591.4 620.5 631.7 642.1 647.4 633.4 610.1 586.2 567.5 553.4 543.3 537.9 532.6 529.2 529.2 530.3 533.8 538.2 548.5 564.6 584.3 597.9 600.7 578.3 553.1 530.4 508.6 489.9 480.8 473.2 461.2 449.9 443.5 448.7 458.2 473 487.4 491.9 503.3 504.2 501.8 494.6 483.1 472.3 452.9 444.4 433.5 417.9 405.9 395.7 387.6 382.2 376.3 368.5 356.8 346.9 341 332.5 324.2 312.8 301.9 293.9 286.7 280.7 275.1 269.5 263.3 256.6 250.1 245.7 243.9 233.7 223.8 213.4 203 190.7 183.2 173.3 167.4 163.4 159.9 154.7 151.5 148 145.6 141.7 137.6 140.8 139.9 140 143.1 149 157.5 168.5 178.3 184.7 193.5 206.8 217 224 228 231.4 234.2 229.8 224.8 217.7 204.3 192.7 177.5 172.1 169.8 159.9 151.5 142.9 133.3 123.6 115.3 109.3 101.3 92.1 86.8 81.1 75 70.1 66.7 63.8 63.2 66.7 70 73.1 80 79.4 83.2 88.5 88.9 95.4 97.9 102.5 108.9 117.1 121.7 127.7 129.7 131.4 131.8 131.4 130.6 129.2 128.1 125.4 121 117.1 118.1 114.9 111.7 111.4 111.7 110.4 111.1 111.7 114.3 116.7 115.1 116.4 115.8 111.1 106.4 120.3 125.4 132.2 138.6 146.3 156 162.8 172.4 183.2 187.3 200.9 206.3 209.4 213.8
397 386.4 379.3 372 367.3 367.6 368.5 375.1 385.8 400.7 413.3 436.9 454.7 474.9 497.1 518.5 546 569.8 594.7 620.2 642.3 652.5 658.1 659.1 636.2 611.9 585.2 574.9 559.7 554 548 544.7 541.2 543.7 545.9 548.7 551.3 566.8 597.1 610.1 615.4 603 571.1 547.4 527.6 504.4 483.5 476.3 466.7 460.9 456.1 456.3 460.8 471.2 482.1 498 512.3 514.2 508.3 496.7 487 475.9 460 446.8 430.6 414 403.3 393.9 386.2 379.2 372.9 363.4 354.6 344.6 334.1 326 317.9 306.8 295.9 287 280.2 274.8 267.9 263.5 258 251.8 245.6 237 234.8 232.4 226.6 220.2 208.4 196.8 187.7 177.4 169.2 164.6 160.9 159.1 155.6 150.3 144.7 144.4 144.4 144.6 144.8 145.9 147.7 151.4 162.7 168.9 178.5 185.1 195 205.4 218.9 230.1 237.3 243.2 247.3 248 238 230.2 220.6 212.4 200.2 186.5 178 175.7 162.6 152.9 145.9 138.7 130.2 121.4 114.1 104.7 93.9 89.8 83.2 76.3 72.9 72.5 67.1 62.4 65.2 67.1 69 73.1 77 79.9 85.5 89.6 90.9 96.4 104.5 113.5 120.9 125.8 129.1 130.4 131.1 130.8 130.3 130.6 131.9 130.8 128 124.9 124.8 122.5 115.2 115.3 115.2 115.9 118.7 119.2 119.7 122.6 124.9 127.6 124.1 119.1 115 113.6 124.5 131.5 137.8 143.9 152.8 163.6 171.3 180.7 188.3 195.7 203.4 212.2 216.5 222.3
385.5 380.1 372.9 367.5 368.5 372.4 375.4 379.8 393.7 412.1 427.1 445.9 463.5 489 517.8 545.5 570.9 607.8 626.7 649.5 662.7 668.9 680 683.6 660.9 632 600.4 582.4 568.3 562.4 558.9 557.4 557.9 557.4 561.7 565.3 573 592.5 615.6 626.7 626.2 596.3 571.9 549.4 527.6 502.4 485.3 471.5 468.2 463.2 461.9 464.9 473.2 478.6 491.1 503.4 519.3 517.7 502.6 489.4 478.1 465.2 452 434.2 418.5 404 394.2 382.1 375.7 367.2 362.1 351.3 342.2 333.6 323.9 310.2 299.7 285.4 275 266.3 260.6 256.5 251.8 243.7 241.6 237.2 233.8 224.3 208.6 219 218 215.2 205.9 191.6 178.2 172.1 168.7 163.7 160.3 157.3 151.5 145.9 148.1 148.6 147.8 148.8 150.1 151.3 154.4 162.1 170.7 178.7 185.3 196 207.6 217.5 232.4 245.8 254.3 262.4 266.4 266 255.4 244.5 233.1 228.2 217.2 198.3 191 182.6 176.4 167.9 157.2 142.1 134.1 125.8 114.5 105.6 96.3 90.5 84 78 77.1 74.8 69.5 62.3 66.3 72 76 77.8 80.8 84.9 87.9 93.6 102.6 107.7 111.9 117.1 123.8 127.2 129.5 131.5 131.7 130.5 130.3 132.7 129.8 129.6 128.7 130.4 125.2 118.7 121.3 123.2 122.7 123 126.5 127.8 131 131.8 131 130.5 127.1 124.9 117.3 119.6 128.5 136.8 142.9 148.6 158.2 167.2 176 186 193.7 202 208.3 219.4 224.8 231.2
378.2 372.1 369.3 369.2 370.1 372.6 378.7 384.5 395.9 418.9 437.1 458.9 477.5 508.3 540.2 568.2 603.5 626.3 652.9 667 679.3 692.9 700.8 696.8 674 640.2 611.7 591.8 582.9 576.8 571.2 572.5 571.4 571.8 577.8 582.5 595.8 615 635.2 648.1 630.8 596.8 582 563.6 540.4 520.7 498.6 474.5 469.5 466 466.4 471.4 480.5 487.5 500 514.2 523.7 515.2 495.1 482.4 466.5 449.3 437.1 421.4 405.3 391.7 381.3 360.2 365.3 357.1 349.4 341.1 332.9 327.6 315.1 292.5 282.3 282.9 283.5 279.6 277.3 272.4 268.7 261.2 259.5 256.4 248 230.8 215.9 205.1 202.4 196.7 189.9 179.1 176.9 171.9 168.2 164.9 160.3 155.5 154.1 154.2 153.1 154.7 152.3 153.9 156.4 157.6 166 176.1 182.6 191.4 199 205.5 217.1 232.9 246.5 260.2 271.5 281.9 285.9 283.7 274.7 268 247.3 242.1 232.2 213.9 206.6 206.5 185.8 173.7 164.2 154.2 139.5 129 116.6 107.3 99.4 93.2 87.8 84.9 82.1 76.6 72.7 64.7 67.1 71.5 74.6 79.7 83.6 89.3 90 94.9 104 111.1 115.4 119.4 123.3 127 132 131.7 133.2 135.1 136.2 135.7 133.5 129.9 129.9 127.9 125.4 128.2 131.4 132.1 132 134.8 136.8 138.3 140 137.8 138.4 135.2 134.6 132.2 124.6 124.6 123.4 137.1 144.7 151.7 161 170.3 179.8 189.8 199.6 208.4 217.8 226.9 234.3 240.2
380.4 378.8 374.7 370.6 372.6 376.5 384.4 390.2 405.6 427.9 457.2 476.7 497.7 526.8 553.8 587.9 622.9 647.4 665.7 687 698.5 714.1 719.6 704.8 677.8 651.4 625.1 601.5 594.1 588.7 588.3 587.7 588.5 590.7 596.8 604.8 629.7 657.3 670.5 674 639.9 611.2 595.9 578.3 568.4 535.8 506.9 486.5 474.2 473.4 473.3 474.8 482.8 494.8 509.8 523.7 522 507.7 491.9 474.8 456 442.4 426.8 407.7 393.5 377.3 365.4 358.9 343.4 339.8 338.5 336.5 319.9 314.7 298.7 292.3 296.3 299.1 300.9 300.1 301.8 296.3 286.5 278.7 279.3 281.5 259.4 234.3 221.8 211.7 197.3 188.4 183.9 179.6 175.3 170.4 167.7 164.1 162.5 160.3 160 160.1 160.5 160.4 159.3 159.8 162.9 165.1 178.3 187.4 194.6 199.3 210.8 219.2 231 242.6 259.6 273.4 286.1 295.8 305.6 301.1 291.1 284.1 271.2 250.8 234.1 223.5 216.8 204.3 190.1 178 169.5 156.9 145.1 136.5 122.8 113.4 104.9 97.7 90.7 87.1 85.2 77 73 65.9 69.9 72.8 75.5 78.5 84.2 88.7 93.2 98.4 106.1 111.8 118 122.4 128.9 128.9 128.7 131.6 135 138.3 137.5 136.6 133.3 132.5 132.2 130.9 135.8 136.7 138.6 139.8 141.9 144.5 146.6 147.4 145.6 146 148.6 142 138.8 135.2 127.3 131.6 138.1 132.6 145.8 154.7 164.6 175.5 185.1 194.1 204.1 213 224.1 234 243.6 250.6
387 390 383.3 378.3 381.9 384.3 393.9 402.8 417.8 441.1 477 503.8 520.4 549.6 569.9 604.4 630.1 646.3 671.7 684.3 695.9 712.4 717.9 700.8 680.2 661.9 636.9 617.1 605.9 601.6 600.7 602 605.4 612.9 619.6 629.4 656.8 675.5 690.6 688.6 661.9 635.8 609.1 606.2 579.6 548.1 528.2 520.2 500.7 486.2 487.7 490.5 495.1 506.1 519.7 530.7 523 510.8 491.8 468.4 451.5 433.6 415.2 404.3 395.2 386.2 381 370.9 356.5 343 329.1 317.9 312.5 304.8 308.9 311 312.7 316.5 321.3 322.3 321.4 314.3 303 297.3 309.6 303 266.9 237.6 219.3 207.3 200.6 188.3 183.2 178.5 174.1 170.6 169 166.4 166.8 166.4 166.7 167.2 167.4 167.3 167.9 167.4 171.8 178.3 188.8 192.8 200.4 209.4 224.3 235 245.1 258.9 271.1 286.8 302.7 315.7 322.7 318.1 309.8 303.2 289.9 274.5 255.5 245 229 210 203.6 187.4 174.8 162.6 151.3 141.9 130.5 120.1 112.5 100.5 91.4 88.1 83.6 77.5 71.4 69.6 72.3 76.2 79.4 81.9 85.3 90 94.9 101.9 108 112.8 118.1 124.5 126.5 127.3 132.2 135.9 138.8 141 139.5 137.8 137.3 141.6 141.8 147 147.9 146.9 148.1 147.9 150.2 153.2 152.8 151.9 152.7 154.1 153 147.2 141.6 134.7 131.2 137.5 145.7 144.3 140.8 158.6 168.3 180.5 190.3 200.6 208.4 218.9 231.8 240.7 250.8 259.7
411.9 402.7 402.2 393.8 394.3 397.3 403.1 417.3 435.4 456.3 486.5 514.1 542.2 569.7 586.3 616.6 627.7 638 654 664.9 679.3 695.8 710.1 700.2 683.6 672.3 657.1 639.1 627 618.3 618.5 622.2 629.7 637 649.2 658.6 678.7 690.7 706.6 703.9 679.3 660.8 641.2 618.6 587.3 565.4 549.2 531.5 519 514.3 508.7 507.7 509.2 515.4 527.7 539.6 535.8 514.7 497.8 470.1 452.6 437 429.7 420 406.7 397.1 390.1 376.5 360.9 344.1 336.9 326.4 317.5 321 322.2 327.3 329.3 332.8 340.9 344.2 337.4 325.2 313.1 311.5 309.8 293 272.4 244.1 222.4 208.6 199.1 193.5 188.8 183.1 174.9 175.3 174.3 174 173.6 175.8 175.4 174.8 177.5 174.9 175.9 180 178.6 183.8 191.7 198.2 207.5 221.1 235.4 250.1 262.7 271.9 286.5 302 321 330.6 337.4 342.4 336.3 321.4 313.3 292 278.6 263.8 244 221.2 197.6 183.1 166.7 155.9 146.7 137.7 129.4 119.4 109.6 104.7 97 89.6 84 77.8 72.3 72.9 72.5 77.3 81.1 83 86.9 93 100 105 109.9 114.7 121.3 128.2 133.7 132.9 137.5 140.5 142.6 142.7 143.4 145.7 149.2 152.1 154.9 156 156.7 157.2 157.7 157.9 158.6 161 161.7 160.1 159.1 158.9 156 150.6 144.5 133 135.9 143.6 148.8 152 147.2 159 172 184.2 193.6 199.7 207.5 219.6 233.7 246.4 257 266
432.7 430 425.4 411.2 416 410.6 424.4 440.9 450.6 471.1 493.4 530.7 563.5 586 603.2 612 615 630.4 645.3 652 662.2 674 692.7 692.5 686 683.1 681.5 670.7 657.8 648.3 645.3 650.1 655.5 664 675.7 681.3 689.8 707.2 716.1 711.3 712.6 692.1 663.5 630.6 604.1 577.6 565 548.5 541.7 541.1 530.5 524.8 524.8 532.8 544.2 552.7 545.5 520.4 495.6 480.4 474.6 462.3 436.2 426.9 418 402.8 390.2 378.6 374.2 369.1 356.2 340.3 332.9 331.9 335.1 339.4 340.4 343.5 338.4 338.5 336.3 334.5 324 327.8 316.2 295.2 272.5 241.6 219.5 207 201.7 195.2 188.5 178.2 179.9 180.2 187 186 186.4 189.1 185.5 185.4 185.3 185.6 186.5 189.8 190.1 188.1 196.1 206.3 217.7 232.3 252.9 270.1 282.2 291.6 302.2 321.3 339 347.3 356.7 359.1 354.2 342.7 327.9 306.6 278.5 257.5 235.2 213.5 192.1 177.6 165 149.6 136.7 127 120.8 113.5 108.3 104.8 100 93.2 85.4 77.7 71.4 75.1 75.6 77.9 82.8 87.2 91.8 95.4 105.3 110.1 112.9 118.8 125.6 132.3 139.2 140.6 142.7 146 148.7 152.8 156.2 159.7 162.7 164.1 165.7 166.6 166.8 168.6 170.3 169.6 168.9 168.8 168.2 166.2 162.2 162.9 159 153.9 145.2 140 145.5 150 152.7 156.2 157 150.3 170.2 184 195.6 203 212.3 224.4 234.7 247.7 259 268.9
429.7 430.2 427.9 434.1 415.2 421.1 443.9 452.6 468.3 492.6 511.5 541.7 570.6 590.6 603.5 591.8 597.6 614.9 635.1 640.4 649.6 662.4 674.1 669.7 674.6 680.2 693 692.6 685.5 679.8 674.9 674.6 680.2 691.3 694.2 696.6 695.5 707.5 716.3 717.2 716.1 712.3 688.3 654.5 628.7 605.6 579 571 568.6 554.6 546.4 543 548.7 559.1 561.3 563.6 557.2 523.7 517.9 513.7 492.5 469.8 448 437.8 426.9 410.4 396.6 395.4 389.5 373.2 361.3 352.3 349.3 346.5 352.1 353.3 346.1 347.2 338.3 338 339.9 334.9 336.5 326.1 300.3 283.3 256.2 230.5 215.1 206.6 201.1 195.8 183.5 182.8 188.5 190.5 192.8 194.1 195.6 201.1 200 195.4 201.2 202.3 202.5 206.4 202.3 202.4 208 219.4 229.1 240.4 260.7 284.2 301.9 312.9 323.4 336.7 353 357.8 366.5 364.5 355.8 339.1 315.6 283.9 263.5 241 219.8 200.4 182.3 172 157.6 142.7 132.7 123.2 113.5 109.8 106.7 101.3 94.1 90.6 85.9 79.2 72.6 75.7 81.5 82 85.6 89.4 94.7 100.8 104.6 112.5 118.5 123 130.5 138.9 143.6 146.1 149 154.5 158.8 165.5 170 174.7 178.2 178 177.6 180.9 181.7 181.1 181.3 181.7 181.1 178.7 174.1 172.1 169.9 165.3 161.8 156.5 147.7 150.1 154.3 157 160.2 164.5 165.5 156 162.9 182.6 194.9 204.9 215.9 226.8 238 250.2 260.5 273.4
404.3 409.3 417.9 413.7 417.8 429.4 455.3 480.5 492 526.9 535.3 549.2 567.6 581.5 576 563.9 569.9 583.8 609.1 614.8 624.4 645.8 658.6 660.7 667.7 670.8 685.3 689.4 688 687.4 686 685.9 696.7 701.1 695.2 695.6 695 696.9 700.2 701.1 700.3 701.2 693.5 678.1 659.9 628.2 612.5 599.8 582.7 572.5 566.6 569.7 579.8 582.4 576.2 570 551.3 544.1 537.2 522.7 501.1 474 455.8 442.1 427.8 414.3 412 402.4 389.8 382.9 379.4 371.5 369.5 369.4 363.7 354.8 350.4 344.2 337.5 332 328.9 332.4 330.5 303.1 287.2 265.8 242.3 222.6 209.1 204.9 201 194.9 187.6 198.3 197.7 202.5 203.8 210.5 213.3 211.2 213.9 213.2 216.4 217.7 214.8 217.6 220.3 221.3 228.1 239.5 251.2 259.2 275.2 288.7 310.5 331.7 345.6 354.6 368.2 373.1 368.8 356.8 337 313 290.5 262.3 234.6 213.2 196.9 185.2 172.9 158.8 148.1 138 125.5 119.2 114.2 108.4 104.5 101.7 95.7 89.8 89 83.5 77.1 82 82.2 83.9 89.2 93.7 99.2 104.6 111.7 114.7 120.9 127.9 132.7 140.9 146.9 151.8 158.1 163.8 170.9 178.8 186 191.2 195 192 190.5 189.3 189.2 190.9 192.5 192 189.3 185.4 180.9 179.1 175 170.8 166.8 155.9 152.1 159.1 163.3 166.2 169.9 173.6 175.3 172.2 156.3 177.8 196.6 208.8 218.4 229.4 241.5 253.4 263.8 275.7
382.2 390 393.3 405.7 411.5 439.8 474.5 489.1 499.7 508.2 514.4 517.7 531.7 542 542.4 535.4 538.7 553.2 572.1 578.2 591.2 608.3 626.2 634.7 640.9 645.8 657.2 673.9 677.5 675.5 674.7 674.9 680.9 684.6 681.2 682.3 683.6 684 684.6 680.4 681.6 678.3 676.8 677.5 673.1 658.7 648.4 625.9 612.5 603.7 601.6 600.9 598.4 594.9 584.4 571.9 570.5 563.7 554.9 540 513 486.9 464.6 448.4 438.6 429.2 420.6 410.9 408.2 402 393.6 390.2 394.2 388.5 374.3 362 344.4 336.7 330.1 322.4 319.1 311.7 297.4 289.4 267.9 245.5 229.3 214.8 207.8 205.2 198.1 193 199.8 204.5 208 214.2 220.8 224.6 227.7 227.7 229.8 233.3 239.9 237.4 228.2 230 234.1 241.7 253.5 264.4 276.1 283.5 300.8 311.2 329 344.6 351.7 357.1 362.4 359.2 347.5 333.4 312.4 287.1 256.2 239.2 217.5 199.2 192.7 173.7 162 151.6 139.7 128.4 120.9 118.9 116.5 108.7 103.7 102.2 96.3 90.8 86.7 82.3 79.1 82.9 85.5 91.7 97.1 97.8 107.3 109.7 115.8 119.4 127.5 136.6 142.2 149.7 155.5 161.9 169.4 175.9 182.3 192.8 199.3 204.9 207.5 203.4 200.6 198.1 200.2 200 200.1 199.3 197.5 193.1 187.8 183.7 179.1 174.9 158.2 161.2 166.2 169.9 173 177.5 180.9 183.5 186.5 185 172.7 171.4 196.2 210.2 219.8 232.3 245.7 257.5 266.8 277.4
357 369.2 370.4 381.8 390.2 416.2 441.8 449.3 459.8 471.5 477.7 485 499.3 504.3 511.8 504.3 506.2 522.4 532.9 545.5 554.1 568 583.9 600.7 612.5 615.9 621.5 638.1 645.3 655.8 662.3 662.1 666.4 668.1 665.9 668.5 669.1 669.7 668.6 665.4 660.6 655.5 654.1 658.1 654.7 653.7 648.1 639.1 631.8 624.3 613.8 606.3 603.3 594.6 583.4 588 582 572.8 567 549 518 500.6 485.5 463.8 460.5 453 435.9 425.8 415.7 410.3 399.5 400.7 398.4 390.4 382.2 361.6 342.8 319.9 310.7 309 298.3 293 279.3 263.2 248 233.9 221.1 210.7 205.2 200.2 198.9 203.8 211.1 216.9 226.5 232.1 241.5 247 248.5 252.2 252.2 256.7 253.6 252.2 250.6 252 253.1 264.6 277.9 289.4 301.2 313.3 330.6 343.9 353.5 361.2 377.9 375.6 368.6 353.8 335.4 314 286 262.1 234.4 216.4 206.3 187.2 177.4 165.9 150.1 139.2 129.3 120.9 120.6 113.4 108.1 106.4 104 98.8 93.6 88.5 83.1 84.1 84.7 85.1 87.7 94 95.6 99.6 103.9 112.3 119.7 128.4 131.6 141.7 150.2 158.1 166.5 174.2 181.4 190.4 197.4 204.9 211.2 216.2 216 212.6 211.9 212.1 210.9 210.4 208.7 206.4 204.5 200.2 192.8 187.4 183.1 170.9 170 176.2 179.2 181.6 185.5 189.6 192.5 194.4 197.8 196.3 186.7 162.5 196 213.1 226 237.6 249.9 262.6 273.3 281.5
336.3 347.2 352 361 367.6 379.4 406.3 410.1 423.1 435 437.7 441.5 457.1 468.1 470.5 470.8 475.1 491.5 500.7 510 519 533.9 551.6 559.3 570.9 576.9 581.9 593.3 613.7 629.1 638.3 636.7 640.6 643.3 644.6 648.2 650.1 650.8 650.7 647.6 641 636.6 631.4 629.4 628.9 630.9 627.1 625.4 620.7 614.8 607.3 604.1 598 598.5 601.6 603.4 598.2 588.4 577.3 566.8 545.8 539.4 510.7 481.2 466.4 454.2 442.3 437.4 429.4 415.2 405.3 399.3 391.1 381.1 367.6 351.3 330.8 316.5 302.6 294 287.4 276.5 262.7 250.6 239 226.2 214.4 205.3 199.7 203.3 209.6 214.6 221.7 231.3 242.3 251.9 259.6 264.4 275.1 278.8 275 279.5 274.6 270.9 271.4 275.3 282.1 297.6 303.2 315.6 330.7 342.9 357.6 365.3 373.9 378.6 381.5 373.4 362.7 345.4 325.7 306.5 278.9 258.6 239.3 212.9 187.4 166.3 156.5 144.8 141.1 128.9 117.6 113.6 109.2 107 104.5 99.8 99.7 94 90.9 84.9 85.8 85.9 87.2 89.7 91.6 96.7 99.8 105.7 111.9 117 125.5 132.2 142.2 150 159 168.2 178.4 184.7 194.8 203.7 211.8 217.4 223.6 227.3 226.7 223.9 225.2 225.2 223.5 221.1 216.5 212.4 209.6 202.5 196.1 190.2 180.4 171.9 181.8 188.2 190.4 194 197.7 201.3 204.8 205.8 207 207.7 204 183.6 194.4 216.7 231.2 244.6 254.1 266 277.6 285.7
317.5 321.3 331.1 334.8 342.5 352 365.7 378 391.1 399.8 403.2 407.6 419.2 428.7 431.7 432.2 440.9 457.4 469.6 478.6 488.5 500.2 504.9 523.3 528.1 536.7 549.2 563.6 583.6 597.3 607.8 607 610.1 614 613.7 618.3 623.3 622.8 625 623 619.8 614.3 605.4 604.1 606.2 607.8 607 600.4 593.8 594.9 592.8 594.6 598.5 604 601.6 598 588.7 574.6 574.7 568.9 558.9 537.8 511.6 487.9 468.4 445.7 436.8 430 421.6 410 400.9 389.7 380.2 367 349.3 338.1 325.7 307.4 295.8 284.1 273.1 262.8 251.5 241.3 231.5 219.2 210.1 200.9 204.2 209.9 215.8 223.5 237.6 249.1 258.8 267.9 275.3 285.3 294.5 300 303.4 301.2 300.4 294.5 293.5 297.2 305.7 319.9 324.1 338.3 354.2 366.2 374.1 378.3 380.5 379.7 372.6 354.3 331.2 318.2 296.5 274 250.2 227.9 205 193 170.7 157.5 150.2 143.2 127.9 120.8 116.7 114.1 105.7 98.7 99.2 94.9 94 90 86.1 88.7 88.9 90.5 95.6 99.2 97.5 101.1 105.5 110.9 117.1 126.6 132.3 141 152.3 162.8 169.6 179.6 191.5 200.4 208.1 216.2 224.7 230.4 234.3 237.6 238.4 240.5 239.4 237.4 236.4 232.6 225.9 219.3 212.9 207.4 201.6 189.8 176.2 187.5 197 199.4 201.9 206.9 210.9 215.1 217.6 217.3 220.2 224.1 216.5 204.8 187.6 217.3 236.1 248.7 260.8 269.1 281.7 292.4
291.3 297.7 303 309.8 316.9 323.3 337.9 341.2 355.9 362.2 371.8 375.4 379.1 391 395.8 397.4 411.3 423.5 433.6 445.9 453.9 466.8 472 481.9 492.2 506.3 520.2 538.3 551.4 561.7 570 573.3 576.6 582.5 580.9 590 594.3 594.4 591 591.3 590.1 587.2 581.2 580 575.7 578.4 574.2 569.3 565.6 572.6 579.2 584.3 583.9 585.9 581.9 577.5 566.2 554 555.2 546.1 531.2 515.7 499.3 467.9 447 431.2 425.2 420.7 415.7 411.1 402 395.8 387.2 371.6 353.6 337.8 321 304.5 289.6 275.6 260.7 249.9 241.6 231.4 225.5 214.6 207.9 202.7 207.4 215.9 228.4 236.5 247.8 261.9 273.3 283.4 296 304 319.1 323.2 325.4 322.5 324.8 325.4 323.1 318.6 319.2 333.7 339.7 349.2 363.2 373.5 380 380.1 377.6 371.6 360.8 336.7 309.4 290.5 269.1 251.6 231.9 207.7 193.4 182.7 173.3 159.5 144.6 136.2 126.5 115.3 113.1 113.7 105.5 97.4 95.1 93.8 90 88 90.1 91.6 92.8 94 99.1 105.4 103.3 106.1 111.1 118.2 125.6 132.2 142.4 152.1 163 175.7 185.4 193.8 201 214.6 224.1 231.2 238.5 243.2 247.6 251.9 252.4 253.1 253.2 251.4 245 239.7 231.3 226.4 219.5 212.2 202.1 187.6 188.2 199.4 205.4 210 216.7 220.6 224.4 228.4 229.9 230.9 234.6 233.7 229.6 222 205.4 217.9 238.5 254.3 266.4 277.4 288 296.6
269.8 273.8 278.3 284.4 290.2 297.1 303.3 311.9 319.6 330.6 337.2 342.2 345.3 352 361.7 370.1 382.2 393.3 406.1 415.4 424 431.4 439.8 449.6 461.9 474.1 489.2 507.9 520.6 530.3 538.4 539.1 547.6 555.4 553.9 560.1 564.6 561 560.8 560.2 559.6 562.7 559.2 555.5 551.7 545.9 539.7 542.5 545.2 546.2 554.2 560.7 560 557.6 550.4 547 533 526 526.4 519 506.1 491.7 467.9 446.9 431.1 429 424.7 418.5 415.3 407.6 402.9 406.3 398.3 375.5 354.2 338.2 323.7 305.4 284 268.2 253.8 241.1 233.4 223 218.6 211.9 204.9 207.1 211.6 218.2 229 243.3 263.4 278.5 292.6 299.9 312.5 322.9 330.6 332.3 337.8 338.9 332.9 334.7 335 334.7 335.7 344.1 355.4 365.5 377.9 385.6 387.9 382.7 373.1 365.2 337.1 312 287.2 264.8 246.4 228.6 214.7 200.8 186.4 184 170.5 154 141.5 130.4 124 113.8 108.9 103.1 100.6 97 94.3 90.5 88.8 91.1 91.5 97.2 100.9 103.5 105.9 107.7 110.9 114.6 119.3 122.5 131.4 141.3 150.6 161.8 176 188.6 199.9 210.7 220 228.1 239.9 248.4 255.7 259.2 264.3 266.7 266.7 265.8 266.7 260.1 250.7 240.3 237 227.9 220.1 209.9 197.3 190.1 203.3 212.8 218.5 223.8 229.7 236.1 239.2 240.7 245.1 247.6 249.3 245.9 242.9 238.6 227.2 212.6 238.2 253.1 267 278.8 292 302.7
254.5 257.5 258.9 264.2 268.8 273.8 280.7 286.4 291 299.8 305.2 311.8 314.8 324 334 345.7 354.3 365.2 377.6 385.1 393.6 401.2 409.7 418 431.2 445.9 457.8 470.9 484.7 492.6 500.5 505.7 518.1 523.5 523.3 529.3 533.3 529.5 529.7 531.5 531 528.6 532.9 529.1 528.9 525.9 521.3 518.6 521.4 524.6 534.1 536 533.5 528.6 523.7 522.4 515.5 500.7 494.9 489.7 480.8 461.3 446.6 436.4 426.4 417.9 412.6 413.6 411.6 408.6 412.8 412.1 382 363.3 355.2 338.1 330.9 305.8 287.3 273.2 256.2 240.3 229.9 222.8 216.8 210 207.4 212.3 217 226.4 237.8 248 258.3 278.2 291.5 304.7 313.9 328.8 338.6 346.6 347.5 347.2 346.8 347.9 351.9 355.4 357.9 364.2 369.2 374.2 377 380.4 380.2 372 364.2 340.7 321.6 301.1 278.3 255.8 232.6 215.9 203.7 191.7 181 167.6 158.6 151.7 140.2 127.7 121.1 111.3 106.6 104.6 98.9 94.6 94.5 93.3 90.2 92.9 96.4 99.4 107.7 110.7 114.9 116 121.1 124.7 132 134.9 144.8 156 162.9 174.4 190.3 205.1 217.6 230 240.6 245.4 258.3 268.5 277.1 282.3 284.1 282.3 278.6 280 278.3 269.4 254 242.1 236.5 230.8 223.8 213.9 193.3 206.5 215.3 223.8 230.5 238.5 245.8 250.1 254 256.3 263.1 261.8 261.6 256.3 253.9 252.7 244.4 230.3 229 250.8 265.5 277.1 289.6 304.1
241.8 245.1 248.9 249.9 248.9 252 258.3 267.1 268.5 276.6 280.1 282.9 288.6 294.6 307.5 317.8 329.5 339 350.7 359.2 365 371 379.7 392.5 404.9 419.6 428.3 440 451.6 461.8 466.4 474.5 485 492.9 496.1 502.8 505.6 502.3 501.9 500.8 500.4 502.6 507.3 513.9 514 510.5 504.6 501.9 505.6 511.2 520.6 516.9 514.8 512.8 504.5 500.2 491.6 487.3 481.8 478.5 469.9 452.8 437 426.7 417.6 407 401.8 405.3 411.7 411.5 409.6 395.6 370.5 364.7 351.2 341.5 326.3 311.4 303.1 270.7 249.8 234.6 222.4 217.5 210.9 208.2 212.6 216.1 223.4 233.9 246.3 257.7 270.8 280.6 306.3 324.4 332.7 341.4 346.1 352.2 360.5 365.8 365.7 368.7 372.4 375.8 376 377.4 386.1 386.2 386 378.9 367 353.8 347.5 325.2 311.1 298 276.8 251.7 226.3 210.9 203.4 191.9 181.1 170.8 162.1 143.1 133.8 121.5 114.3 107.4 102.7 100.4 97.1 93.4 91.3 93.5 99.3 97.1 102.4 108.3 113.8 117.8 120.3 126.2 134.7 143.1 142.3 152.5 160.8 174.2 178.8 190.6 208.4 224.2 242.6 260 260.8 264.5 281.9 288.9 298.7 300.2 300.7 294 289.2 286 282.1 268.1 258.8 247.9 240.9 236.5 225.5 209.7 206.4 219.9 228.7 236.9 245 253.6 261.9 263.4 268.4 273.5 274.3 274.9 272.9 269.2 267.5 266.8 261 252.7 235.2 240.8 259.1 275 288.2 302.1
232.4 237.2 236.9 238.1 236.2 237.6 238.4 244.3 251.3 257.8 254.1 259.6 267.2 273.1 285.8 294.3 310.2 315.1 324.1 333 337.4 341.9 354.9 366.3 379 390.5 399.3 412.7 421.4 428.5 441.7 457.1 463.8 466.3 467.9 472.8 478.8 478.8 476.2 474.7 475.5 484.1 487.7 493.6 490.4 485.5 483.2 480.8 481.6 492.4 497.7 496.8 502.7 503.9 497.8 486.7 483.6 477.9 466.2 465.2 456.2 439.2 425.9 413.4 410 400.1 398.6 399.7 398.7 402 395.6 375.3 373.5 363.5 351.7 343.2 322.8 312.2 285.9 265.4 249.5 238.6 227.1 214.2 211.3 212.6 217.2 225.4 233.2 244.1 253.6 262.1 273.8 292 304.7 321.5 342.1 349.8 355.5 363.9 375.6 374.7 379.4 385.5 389.9 391.7 387.9 385 388 388.7 381.9 369.8 354 332.6 323.7 306.8 299 274.4 256.7 231.8 216.2 200.9 193.6 188.9 180 164.8 148.6 134.7 124.6 111.7 102.2 99.5 97.1 97.8 99.2 99.4 101.1 102.2 103.3 101.6 109 116.3 119.1 124.2 130.2 137.3 146.1 155.2 155.8 165.9 176.8 189.4 199 212.1 231.5 252.8 269.7 278.8 283.5 291.3 301.5 309.4 314.1 314.8 313.6 306.3 298.4 293.1 284.4 273.4 261.2 249.6 247.1 237.5 226.3 210.4 222.1 234 245.2 251 261 269.4 274.1 281.5 284.8 290.1 289.9 288.7 287.3 284.1 281.6 279.5 276.2 269.7 258.1 242.4 248.6 271 286.1 297
231.8 229.3 228.9 230.4 229.2 227.2 226 229.5 230.7 234.1 238 242 249.3 254.2 262.4 273.8 284.3 297.4 304.7 311.1 312.6 320.2 329.4 341.5 350.9 360.9 369.6 380.9 392.6 399.5 413.5 428 435 435.7 443 451 456.5 459.6 460.6 460 456.4 458.6 459.6 458.4 461 464.4 463.7 460.3 459 465.6 475.1 481.7 491.4 493.9 489 483.4 478.8 469.7 451.9 441.8 429.1 422.3 409.3 404.9 404.1 394.7 395.4 392 389.8 388.6 376.2 374.9 368.4 359.4 345.7 331.4 313.7 300.2 289.6 268.9 258.8 242.4 225.5 218.3 213.5 218.4 225.3 235.6 245.2 251.7 268.2 279.4 295 302.2 312.9 325.6 333.2 342.7 351.1 361.3 364.4 377.3 391.2 395.1 395.3 392.6 388.6 384.7 380 374.9 365.3 353.3 338.1 314.8 305.5 295.8 269.4 251.5 233.2 214.8 197.4 188.4 182 176.9 171.6 157.4 139.9 129.3 117.9 105.9 100.3 105.9 109.4 108.6 108.2 110.4 106.3 109.9 110.2 109.1 116 124.5 128.6 134.2 136.3 147.2 158.7 168.1 171.4 176.9 194 204.9 215.3 236.3 261.9 276.5 290.7 297.7 305.4 315 324.6 332.7 331.6 328.7 321.6 315.3 307.1 295.6 290.3 275.3 262.8 253.1 250.3 239 230 217.3 234.8 249.1 253.9 265 276 284 289.8 298.8 304.2 306.7 305.8 306 303.5 300 296.5 295.8 293 287.1 278.3 269.3 259.2 260.8 276.9 291.9
233 231.2 228 220.7 224.6 222.2 218 218.3 219.9 222.5 226 235 238.4 239.1 245.8 255.6 264.1 273.5 279.7 288.3 294.4 299.4 303.6 314.2 323.6 339.7 344.7 353.1 362.1 373.5 386.5 398.4 408.3 406.6 419.7 423.2 424.2 430.2 433.6 432.1 431.6 430.8 432.4 431.1 433.8 435.1 437.3 433.7 430.5 441.6 443 456.5 465 468.3 464.7 465.9 461.3 448 432.5 427.3 424.1 415.6 401.5 394.9 394.9 386.7 387.2 386.8 378.9 369.8 368 367.9 360.4 342.4 329.5 312.8 303.9 295.4 286.3 281.9 266.1 246 231.3 224.6 218.8 225 231.1 240.5 254.2 266 278 296.5 317.1 322.1 328.7 329.7 337 348.2 358.5 365.6 375.8 381 387.1 391.7 394.9 393.2 386.7 385.1 376.2 367.6 356.2 340.1 324.1 300.8 290.7 276.8 252.9 236.1 219.2 200.8 187.3 174.1 169.1 166 154.4 145.3 133 118.2 104.7 108.5 115.3 118.2 117.6 117.1 114.1 115 115.7 118.8 119.4 115.2 124.2 131 135.1 137.4 148.3 155.3 165.7 179.2 185.1 188.7 203.7 218.9 234.6 256.7 276.4 291.4 304.3 317.5 327.1 336.3 343 346.4 346.8 339.9 331.5 326.1 310.3 302.3 294.8 276.9 263.2 255.8 252.5 244.1 230.4 235.9 247.1 256.6 268.9 281.3 291.5 299.5 305.9 315.6 320.1 324.1 321.2 321.7 316.2 315 313.2 310.8 307.6 301.9 299.2 295.6 292.2 281.2 283.4 274.6
244.5 234.2 232 228 220.7 214 206.4 209.9 212.3 214.1 218.7 223.2 228.7 229.2 231.7 239.5 247.5 258.3 266.2 271.3 276.2 280 288.2 296 305.5 311.3 319.6 329.2 339.7 353.9 360.9 371.3 379.8 379.2 390 392.1 387.9 394.6 401.7 404 402.4 399 398.5 400.9 404.7 407.9 405.2 409.6 410 412.6 418 424.2 435.1 442 445.2 443.4 439.3 435.6 421.4 418.8 409.5 404.1 397.7 390.4 380.7 374.2 372.7 369 361.3 363.5 362.9 357.5 343.2 330.1 316.6 309.9 305.5 309.1 303.6 289.5 263.6 252 238 229.1 225.2 228.8 237.6 249.6 265.5 276 289.5 304.9 320.3 328.1 341.2 350.1 355 361.2 373.3 382.3 384 390.8 396.7 399.1 393.2 384.3 379.7 379.3 365.2 352.4 340.8 323.5 304.8 289.9 279.5 272.6 253.7 236.5 214.2 193.1 179.9 167.6 151.5 143.4 135.2 124.8 117.2 113.8 108.8 116.6 124.8 123 122.3 122.4 121.7 122.1 127.1 129.2 129.9 122.5 129.9 136.7 140.3 145.5 157.5 166.9 174.4 187.6 200.7 194.4 215.6 233 251.7 273.6 292.7 309.5 325.4 333 343.7 352 354.2 356.9 358.3 353.4 345.6 333.9 320.7 303.5 290.8 275.9 266.8 260.4 256.2 248.7 230.5 249.7 260.2 270.6 282.3 294.7 308.9 313.5 319.1 328 336.1 339.2 333.8 331.8 331.5 329.1 328.7 325.7 323.3 318.7 319 319.4 317.3 309 306.2 291.1
256.3 244.1 235.8 230.6 227.2 219.5 212.3 208.7 203.6 206.9 213.3 217.2 220.2 223.2 222.8 226 233.2 243.6 250.2 253.3 257.8 263.6 269.8 279.3 283.6 290.2 296.5 305.9 317.7 332 335.7 344.5 346 352 352.7 358.4 358.4 364.3 372.9 373.8 377.1 378.8 368.1 373.3 373 377 378.3 385.3 384.5 392.5 395.1 400.7 410.4 419.1 421.1 426.1 424.6 423.5 410.2 409.8 403.3 397.6 393 380.9 376 369.1 358.7 356.8 354.4 353 350.2 347.3 339 323.1 317.3 322.4 313.1 308.1 299.2 277.5 264.4 255.1 244.8 239.8 235.2 237.6 244 259.9 276.4 287.3 303.2 319.2 335.4 343.8 358.3 370.3 375.7 375.5 381.9 391.8 394.4 396 395.1 394.5 393.3 386.1 378.2 366.4 352.3 336.3 317.1 303.3 288.1 275 266.2 255.7 234.3 212.5 191.8 176.3 165.4 154.3 146.3 135.4 128.4 124.5 117.1 111.8 115.9 123.3 126.1 128 128.7 127.6 130.3 132.8 135.7 136.4 136.8 131.6 140.6 141.5 145.9 156.5 164.1 176.4 185.4 195.3 209.5 213.5 233.1 247.4 268.9 287.5 304.1 319.2 336.1 346.3 354.1 363.4 365.1 364.6 364.8 362 350.7 335.7 322.3 311.5 293.2 282.4 272.7 266.3 260.9 250.7 239.9 260.6 272.7 282.2 294.6 305.4 315.6 324.9 335.7 339.9 347.4 355.2 348.4 347.3 345.8 342.9 341.8 342.5 338.4 336.4 337.4 337.7 336.9 330.2 325.3 310.8
258.1 249.9 244.2 234.3 226.6 220.4 214.9 208.1 205.6 204.3 208.8 211.9 213.2 216.8 217.6 221.5 222.4 227.1 233 237.6 243.5 249.5 256.7 261.8 265.3 272.4 281 288.8 298.2 305.1 308.1 312.1 317.9 324.6 324.6 328.9 331.2 335.9 343 347.7 354.1 355.4 352.6 346 350.2 351.7 360.1 363.9 363.1 369.1 371.6 381.2 386.6 394.4 399.4 400 401.7 398.6 394.5 395 395.8 387.1 382.1 373.5 365.6 358.3 354.8 348.6 342.8 341.2 337.9 331.5 329.7 321 322.3 312 302.2 296.6 288.7 270.9 264.8 253.9 250.8 242 242.3 247.8 260.4 271.7 285 303.8 317.2 331.3 344.2 358 370.4 378.5 383.5 386.4 387.7 388.3 384.1 384.1 385.4 384.9 382.4 375.8 371.4 366.2 347.6 332.9 308.7 282.4 273 261.1 247 237.7 221.3 200.3 184.3 174.5 163.4 151.4 143.7 139.8 128.9 126.7 114 117.6 126 131.6 130.2 134 135.2 134.9 137.9 141.3 143.4 144.1 143.5 144.4 145.8 148 154.5 165.5 180.1 187.9 199.3 209.2 220.6 230.9 243.4 260.6 279.5 296.4 312.6 327.2 344.1 357.2 366.9 375 375.2 374.4 373.6 365.1 347.9 336.1 320 306.5 295.3 288.8 280.2 271.9 263.8 249.8 251.8 269.5 282.9 293.4 305.3 315.5 325.2 335.8 347.8 355.2 363.2 361.6 357.9 359.1 358.2 354.9 352.6 353.6 353.2 349.7 352.8 353.6 350.8 347 342.7 329.4
267.2 260.3 249.8 240.2 231.6 224.2 217.7 210.2 205.3 204.6 204.4 207.4 209.3 211.8 214.8 217.1 217 217.8 220.2 223.3 229.7 235.3 239.7 243.7 253.1 262.6 268.1 270.9 277.9 279.6 282.4 286.7 295.5 297.8 299.5 301.2 306.5 311.5 319.8 324.5 329.5 327.7 328 326.5 323.7 328.8 336.2 341.1 343 346.5 355.1 363.3 371 376.2 383 382.1 382.8 380.9 376.5 381.2 381.5 375.3 372.8 363.7 356.4 349.8 343.6 338.3 336.3 334.2 325.5 323.4 323.5 323 318.2 295.2 285.3 289.9 280.4 277.1 263.8 256.4 249.7 241.9 256.4 264.5 276.2 285.3 295.2 314.6 326.7 341.5 351.6 365.9 377.2 384.7 386.1 383.6 382.1 383.7 382.5 378.1 377.6 374.4 369.5 365.3 359.1 353 344 327.8 311 291 270.3 255.5 238.3 224.7 217.2 197.8 176.9 167.1 158.1 148.4 137.2 129.9 119.3 119.7 124.8 129.4 134.6 139 141.9 139.8 139.2 142.5 149 150.7 150.8 152.6 151.2 151.8 154.8 158.3 165.4 175.7 187.3 197.6 208 221.8 231.4 242.9 251.4 267.9 285.8 304.9 324 341 354.6 368.7 376 385 388.3 384 380.2 371.5 355 338.7 325.2 313 303.2 297.1 288.3 279 267.1 249.2 269 274 290.4 303.5 314.9 326.6 336.3 348.2 355.8 365.4 369.5 369.7 369.2 373.2 371 368.7 367.9 366.9 365.8 364.3 363.9 364.5 361 358.3 353.3 341.3
273.2 266.9 261.3 250.5 240 230 222.8 214.6 208.6 202 201.6 204.7 205.7 207.3 209.1 210.4 212.4 215 212 212.7 218.6 226.4 232.4 239.2 242.1 250.6 257.1 254.7 257.6 261.1 264.3 268 272.8 276.8 276.8 280.6 283.9 291.9 294.9 298.6 300.6 306.4 305.5 305.3 308.2 309.4 314.4 320.1 319.6 329.7 337.5 345.4 353.7 357.8 363.9 370.3 365.6 365.1 359 360.2 360.2 356.3 352.1 348.1 342.9 339.4 340.1 337.9 334 327.7 323.3 320.1 321.7 321.7 313.4 287 279.3 277.8 272.1 270.3 261.3 256.3 250 253 262.1 272.2 280.7 293.5 309.4 322.2 336.6 349 353.8 361 366.9 368.3 370.5 375.1 379.8 380.4 380.1 379.9 377.1 371.1 357.4 352.2 348.6 347 340.3 321.8 306.5 281.1 267.2 253.7 238.5 220.3 205.7 197.2 173.1 160.6 147.7 138.3 131.4 126.7 127.1 129.4 130.3 136 145.3 148.4 150.5 149.1 146.7 150.7 158 158.1 155.7 159.6 159.6 159.1 162.9 169.2 175.3 184.3 198.8 213.5 221.6 235 247.9 256.2 264.8 276.9 297.5 319.6 344.5 358.6 367.2 379.9 389.3 399.4 398.4 392.7 384.8 373.8 360.8 346.6 332.5 316.9 307.9 300.6 291.1 283.2 263.6 259.6 283.4 292.4 296.4 311.6 322.2 336.2 349.5 361.7 368 376.5 380.3 379.9 383.5 387.6 387.1 386.7 385.5 382.9 380.4 378.5 377.5 376.5 372.7 367.3 360.7 347.9
285.6 279.3 270.6 259.4 248.5 240.2 231.1 222.8 213.9 208.9 205.3 200.8 201.3 204.6 203.3 206.6 209 210.7 208.8 206.9 211 217.1 222.4 228.5 233.2 240.2 240.7 241.8 244 247.5 252.4 253.1 256.1 257.2 258.6 263.6 268.2 276.6 278.3 276.6 277.8 283.3 283.5 289.5 293.8 288.9 295.8 299.7 303.3 315 326.8 332.3 333.3 340 345.3 347.1 346.2 342.5 340.6 340.3 339.8 341.5 341.8 345.9 343.8 345.5 349.1 349.6 345.1 341.9 335.7 332.1 329.8 320.4 295.5 286.3 274.3 268.4 265.3 261.9 255.5 254.5 256 259.7 266.2 275.3 290.9 303.6 317.9 337.7 350.4 350.4 359.3 367.4 373.4 375 377.4 380.3 384 385.4 381.6 383.7 384.1 370.8 358 344.4 335.8 325.4 321.8 313.5 292.6 272.6 261.2 245.6 228.5 211.5 199.7 180 167.7 155.1 143.7 137.9 132 128.5 132.2 133.9 138.7 149.9 158.8 160.1 162.8 165 162.4 162.7 165.7 165.8 164.7 167.4 168.2 167.6 172.8 180 189.7 199.9 206.4 222.7 234.5 246.1 259.9 271.1 279.5 291.6 309.9 337.8 359.8 372.3 382 393 400.1 404.7 406.3 400.9 391.8 378.7 364.5 349.1 333.7 323.6 312.6 301.6 291.4 277.4 263.7 274.2 287.9 299.9 308.9 315.8 336.2 345.2 360 371.7 381 388.6 391.2 392.4 397.7 399.9 402.1 401.4 397.5 395.1 393 391 389.5 386.8 384 377.4 367.5 353
300 289.9 281.6 273.6 259.9 248.4 241.1 231 223.3 216.2 209.7 203.9 198.1 200.6 201.4 203.9 204.7 204.8 205.9 204.5 205.5 211.3 215.1 218.6 224.5 232.1 233.3 228.3 228.5 232.3 240.1 238 240.4 242.7 241.1 246.4 250.8 256.8 258.1 259.8 260.2 262.6 265 270.8 272.9 274.9 278.7 281.3 291.2 300.4 309.6 316.4 316.1 322 324.1 323.8 323.3 321.9 323.8 330.6 335.3 339 341.5 344.5 344.5 348.3 352.5 354.8 352.8 354.1 355.2 350.3 355.2 339.4 321.6 300.7 283.6 278.1 270 267.8 265.6 260.8 263.4 265.8 272 281.8 299.7 314.8 329.8 356.9 362.4 358.2 359.5 366.6 376.1 380.3 379.7 382.9 387.5 389.9 384.2 383.5 380.6 372.5 356.3 340.7 331.4 323.6 313.2 296.6 281.3 268.7 249.9 234.6 221 210.1 197.1 174.9 160.5 145 141.4 135.1 129.5 135.6 138.1 142.2 154.5 163.2 168.7 171.2 174.2 173.7 173.1 171 175.2 174.2 174.2 175.3 178.7 175.6 183.5 192.2 201.8 211.7 219.2 231.3 246.1 260.7 275 287.2 292.9 304.9 328.2 354.1 368.8 382.6 394 399.1 405.2 407.8 409.8 405.8 395.9 380.9 365.1 351.4 335.9 322.4 308.6 298.2 290.7 275.4 268 283.1 295 306.5 320.9 333.9 338.5 353 366.3 377.1 387.8 394.7 400.1 406 409 412.3 414.6 413.6 410.7 406.6 406.2 401.8 399.3 396.1 392.7 385.7 376.1 362.7
314.5 305.9 294.1 284.3 274.1 261.9 250.2 240.9 234.7 222.8 214.9 206.2 201.8 196.4 200.1 201.5 199.4 200.7 199.7 199 208.5 209.2 206 210.4 215.8 218.9 215.8 218.3 220.7 221.8 224.1 224.2 224.9 222.7 226 229 234 235 239.9 244.2 245.1 247.2 247.9 253.3 257 257.9 261.6 261.7 277.2 281.6 285.4 291.7 296.1 302.2 300.4 300 299.8 312.5 314.1 317.6 326.1 330.6 336.8 340.5 342.1 344.4 347.3 350.5 359.5 358.6 357.5 368.3 369.1 336 314.3 301.3 290.7 287.1 286.8 280 275.9 270.3 274.5 279.4 281.3 297.5 308.1 322.2 340.7 354 358.6 361.6 366.2 374.6 386.2 390.3 390.3 391.6 397.2 396.4 389.8 383.1 382.6 373.2 358.6 337 323.5 320 307.8 291.7 272.8 257.2 242 230.7 217.2 206.9 194 175.9 159.4 148.1 139.8 133.7 134.1 135.4 144.2 154.6 166.7 175.2 180.5 182 184.3 184.7 180.7 181 184.7 184.6 182.3 184.6 186 189.3 196.5 204.1 214.1 223.3 233.5 241 256.3 273.5 287.4 297.2 305.6 320.7 350.9 370.5 376.1 388.8 396.2 401.4 405.6 409.5 409.7 404.2 396.3 382.6 366.3 355.2 342.1 324 311.2 298.8 288.2 274.4 276.2 283.6 301.7 315.9 335.4 342.6 353.2 362 373.7 387.1 396.7 404.1 411 416.2 421.7 424.4 426.8 425.7 424.6 422.5 417.2 414.3 408.5 406 401.3 395 383.1 367.2
340.9 325.6 312.1 305.8 289.1 273.1 264.7 252 242.3 233.5 223.9 212 205.5 200.7 197.5 197.5 196.8 195.5 195.4 199.3 202.9 201.6 204.5 201.7 206.4 204.8 202.7 205.7 207.3 210.5 211.4 210.9 213 211.6 214 218.8 221 224 228.7 228.6 229.7 235.7 236.9 239.8 244.8 246.9 248.4 247 259.6 267.1 273.7 278 282.8 288.3 290.3 288 287.9 294.7 299.1 301.2 310.5 318.9 324.3 329.9 331.2 335.3 346.1 349.6 349.1 355.4 369.7 383 369.9 339.2 324.3 314.6 302.2 294.7 296.9 298.9 294.6 288.9 293.5 292.7 291.4 303.7 322.5 328.3 343.4 351 361.1 375.9 378 385 397.2 400.7 405.2 405.7 405.9 411.6 405.6 389.2 390.3 373.6 354.1 336.7 324.3 304 295.4 278.4 265.5 247.5 240.8 224.6 213.2 202.1 189.4 173.3 160.3 145.3 138.3 135.2 134.2 140.6 154.9 167.3 178.4 180.6 187.7 191.1 196.4 196.6 195.6 194.5 196.2 192.3 194.2 193.3 198.2 203.7 210 217.2 225.2 235.8 245.2 257.3 275.5 284.1 298.4 306 324.4 337 363.8 383.3 388.2 392.5 399.8 404.9 407.3 405.7 403.6 399.2 390.5 381.7 373.9 359.3 342.4 327.6 313 300.7 285.6 281.6 290.4 299.3 309.9 325 339.1 350.9 364.1 375.8 385.6 396.8 408.7 415.6 420.4 429.3 430.6 436.7 436.8 439.1 436.6 433.5 427.9 423.8 418.5 414.7 412.3 402.5 388.6 371.8
366.8 347.6 338.1 323.9 305 290.4 280.1 267.7 258.9 243.6 232.3 220.7 212.6 205.4 200.4 196 196.1 194.4 192.7 195.4 196.2 195.4 194.3 194.4 196 194.8 193 194.9 199.6 203.9 203.3 204.4 202.3 203 205.5 208.6 210.2 215.3 215.6 216.6 218.2 225.3 226.6 228.4 229.5 232.1 234.5 238 241.9 246.9 249.6 259.3 264.3 270.2 268.4 270.5 266.4 275.9 277.4 279.1 290.7 298 305.9 315.7 322.7 330 337 342.3 347.9 358 373.9 385.6 372.3 357.6 339.6 328.5 314.4 304.3 305.6 309.4 307.8 305.5 314.6 307 307.1 314.6 330.5 337.7 346 356 372 382.5 382.1 387.7 400.6 407.8 407.1 408.2 410.6 413.2 409.7 399.4 387.4 379.1 354.7 338.1 324.7 307.2 295.4 287.7 273.1 255.4 234.4 218.8 212.1 200.6 190.3 176 161.9 150.9 142.3 138.4 134.2 153.1 167.8 178.2 183.4 190.7 199.4 207.8 212.9 212.9 214.6 214.2 215.5 212 210.9 208.5 210 216.6 220.9 229 238.4 249.9 256.8 270.3 283.8 297.9 312 318.1 332.9 349.1 370 387 394 398.2 403.5 406 409 407.8 399 395.2 389.6 379 372.5 359.4 345.9 329.9 314 301.6 287.9 297.6 305.6 309.2 317.8 332.8 348.8 359.6 374.1 385.9 397.8 409.5 420.1 426.2 433.2 436.6 441.7 446.4 450 446.9 445 442.1 439.5 432 428.6 424.7 418.5 406.8 394.6 376.2
391.8 379.4 364 345.5 329 309.2 300.4 289.1 274 254.4 239.6 228.5 219.9 212 203.8 195.9 194.2 196.5 194 187.5 189.7 190.2 190.1 191.2 191 190 189.9 192.8 196.3 195.7 198.6 194.3 194.7 194.1 196.6 200.2 200.5 205.5 205.5 202.9 208.3 212.8 217.7 216.1 215.5 218.7 218.4 227.5 227.9 232.8 239.1 243.4 246 249.2 246.5 247.9 249 255.4 263.2 268.3 275.2 286.5 297.6 302 310.8 317.7 324.9 331.6 341.2 350.9 366.1 372.2 375.7 370.6 351.5 340.8 327 324.3 323.7 323.4 325.2 332.2 341.6 327 321.7 326.8 334.2 344.7 358.1 369.3 376.3 385.4 386.8 397.3 401.8 411.2 408.9 416.6 415.6 416 413 403.9 380.2 377.6 352.3 339.7 325.4 306.7 294 289.2 284.5 260.5 233.9 218.7 206.3 193.1 186.6 174.4 162.1 151.6 144.8 142.1 141 163.6 177.8 190.9 197.5 202.4 213.2 226 232 232.1 229.2 232.4 239.3 235.1 226.5 224.1 225.1 230.3 234.8 242.3 251.7 262.7 270.9 284 292.5 309 327.9 330.7 348.1 363.5 374.8 387.2 396.2 401.7 404.3 405.1 408.6 409.6 399 394.4 388.1 375.6 365.1 354.5 345.2 334.6 319 302.6 306.5 313.7 325.4 322.6 333.9 339 358.8 371.9 382.5 396.4 407.8 419.9 428.8 436.9 443.1 448.6 452.1 454.6 457.2 457.9 457.3 452.1 449 443.4 437.3 433.4 423.5 411.5 397.8 377.2
