ncols 200
nrows 85
xllcorner 250000
yllcorner 830200
cellsize 50
226 226.9 226.7 221.9 220.5 223.1 228.6 242.6 256.8 273.3 290.9 299.4 304.4 306.7 311.1 317.2 323.6 326.7 328.2 331.3 334.3 330.3 337.2 343.1 344.7 347.5 349.9 352.9 358 363.1 362.7 350.2 339 333 328.1 326.1 326.8 328 323.8 323.2 322.4 311.3 305.6 306.5 307.7 308.8 308.7 309.1 310 309.8 307 306 306.6 303.7 300.1 300.9 300.9 301.5 300.8 301.5 301.8 299 297.7 295.6 296.9 300.4 305.7 309.2 314.7 319.7 324.5 329.5 332.2 335.8 345.3 350.6 356.6 359.7 368.9 369.9 372.4 375.3 377.6 383.4 393.9 401.4 414.8 412.8 412.3 416.2 418.8 425.1 427.1 424 421.1 419.5 417 414.7 406.6 396.7 391.2 389 387.8 385.6 375.8 372.4 373 373.8 373.5 374 369.1 368.4 368.1 367 357.4 336.6 324.4 315.3 308.2 297.6 284.1 273.5 263.2 255.3 247.5 239.3 229.8 218.2 203.9 196.6 187.7 173.2 162.4 147.7 131 105.9 84.4 64.5 46 25.8 15.3 15.3 15.3 15.3 15.3 15.3 15.3 15.3 15.3 15.3 15.3 15.3 15.3 15.3 15.3 15.3 15.3 15.3 15.3 15.3 15.3 15.3 15.3 15.3 15.3 15.3 15.3 15.3 15.3 15.3 15.3 15.3 15.3 15.3 15.3 15.3 15.3 15.3 15.3 15.3 15.3 15.3 15.3 15.3 15.3 15.3 15.3 15.3 15.3 15.3 15.3 15.3 15.3 23.4 28.5 36.4 48.5 58.5 65.1 73.2
228.7 231 230.1 223.2 220.9 223 226.9 237.4 249.1 266.7 289 299.9 305.5 307.4 313.5 321.7 326.3 327.3 327.8 330.8 332.2 330.5 335.6 341.9 344.5 347.5 350.4 354.9 363.2 367.4 359.9 345.7 337 328.5 325.3 325.2 324 324 309.9 311.1 305.6 305.6 305.9 306.8 308.6 308.3 308.3 308.7 308.8 306.3 304.1 303.6 303.6 301.9 303.3 302.9 304.9 305.4 304.5 304.2 302.3 299.5 296.7 296.9 299.3 304.4 309.9 314.8 318.5 322.9 327.6 332.4 334.4 338.3 350.1 351.7 360.5 369.3 371 373 379.4 381.7 383.1 393.4 401.7 415.9 417.8 414.5 411.3 418.6 421.7 425.7 423.7 422.1 421.4 419.8 419.1 420.5 408.3 404 396.5 391.5 391.2 380.5 378.9 380.3 374.3 373.6 377.9 373 369.4 374 373.2 365.1 349.5 337.4 330.4 323.4 313.4 300 288 278.1 269.1 261.1 254.7 245 231.8 218.4 205.8 193.7 184.9 171.6 158.4 143.9 120.5 95.8 76.4 56.7 33.1 18.4 15.3 15.3 15.3 15.3 15.3 15.3 15.3 15.3 15.3 15.3 15.3 15.3 15.3 15.3 15.3 15.3 15.3 15.3 15.3 15.3 15.3 15.3 15.3 15.3 15.3 15.3 15.3 15.3 15.3 15.3 15.3 15.3 15.3 15.3 15.3 15.3 15.3 15.3 15.3 15.3 15.3 15.3 15.3 15.3 15.3 15.3 15.3 15.3 15.3 15.3 15.3 15.3 19.4 27.6 33.2 41.7 52.5 61.9 68.1 77.7
231.9 235.2 232.9 226.1 221.4 223.5 226.1 234.3 244 262.5 283.8 297.7 303.9 308.3 317.2 322.8 324.9 326.6 329.8 331.7 331.1 329.6 335.2 342.1 343.6 346.9 350.7 356.9 370.3 363.5 347.9 342.9 333.5 325.9 323.9 324 325.2 318.2 308.1 306.6 305.7 305.8 305.8 306.4 307 307.6 308.2 307.8 306.2 304.1 303.3 302.3 305.7 307.6 305.7 306 307.8 309.2 307.8 305.9 303.1 299.3 297.5 298.7 302.4 307 313.1 317.2 321.3 326.1 330 337 336.9 335.1 340.3 342.2 347.7 366.6 372.4 373.3 380.6 383.6 386.5 393 403.2 413.6 413.4 411.5 411.1 413.2 419.1 422.8 422.1 416.3 418.9 419.2 421.4 418.1 409.8 397.6 395.2 398.7 386.8 381.1 383.5 382.7 372.6 372.6 371.9 370.2 371.9 369.8 367.1 356.9 347 340.2 336.2 328 315 304.8 293.6 284 276.8 269.2 259.4 247.8 232.5 218.5 205.9 195 184 171.1 151.9 136.1 110.4 84.5 61.4 39.4 22.8 15.3 15.3 15.3 15.3 15.3 15.3 15.3 15.3 15.3 15.3 15.3 15.3 15.3 15.3 15.3 15.3 15.3 15.3 15.3 15.3 15.3 15.3 15.3 15.3 15.3 15.3 15.3 15.3 15.3 15.3 15.3 15.3 15.3 15.3 15.3 15.3 15.3 15.3 15.3 15.3 15.3 15.3 15.3 15.3 15.3 15.3 15.3 15.3 15.3 15.3 15.3 15.3 17.4 25.6 33.7 38.9 49 57.8 65.9 72.8 81.3
236.9 239 235.4 227.9 222.7 224.1 226.2 234.2 241.4 255.9 270.5 285.9 302.2 307 313 316.7 318.1 322.4 328.2 329.1 329.9 328.5 334.5 339.8 342.1 346 351.3 357.5 356.6 353.5 346.7 339.4 329.9 324.8 321.9 329 323.5 312.8 310.1 307.5 306.2 305.9 306.2 306.4 307.1 307.7 308.2 306.4 304.9 303.8 303.4 307.2 310.7 310.2 309.7 309.9 311.3 311 310.1 307.1 303.1 300.7 301.6 301.8 307.7 311.3 315.5 319.1 322.9 327.1 332.5 339.7 339.8 336.8 337.5 339.4 343.1 351.3 369.2 370.1 378.5 382.4 383.6 387.7 399.6 407.7 408.9 405.9 406 407.1 416.8 417.4 415.6 409 412.4 417.9 417.2 412.4 404.1 397 396.2 391 386.9 382.4 382.1 374.9 371.9 368.9 368.5 369.9 370.2 368.7 361.4 352.9 348.8 349.9 346 332.3 320.1 310.3 299 290.6 284.9 277 262.7 247.7 232.5 219.9 207.8 196.1 184.3 169.7 143.8 122.6 101.7 76.2 46.5 27.2 15.3 15.3 15.3 15.3 15.3 15.3 15.3 15.3 15.3 15.3 15.3 15.3 15.3 15.3 15.3 15.3 15.3 15.3 15.3 15.3 15.3 15.3 15.3 15.3 15.3 15.3 15.3 15.3 15.3 15.3 15.3 15.3 15.3 15.3 15.3 15.3 15.3 15.3 15.3 15.3 15.3 15.3 15.3 15.3 15.3 15.3 15.3 15.3 15.3 15.3 15.3 15.3 15.3 23.8 32.2 40.3 48.2 58.7 60.5 67.9 75.5 83.8
241.6 242.4 238 232.2 224.2 224.2 226.7 231.8 239.2 248.3 262.2 275.1 288.9 295.4 299.8 304.6 310.2 317.9 324.6 327.7 328.1 325.1 332.5 332.4 340 346.2 352.8 357.2 355.7 352.5 346.2 335.2 325 319.9 317 318 310.9 308.8 308.1 307.5 306 306 306.2 306.6 306.9 307.5 307.2 305.8 305.7 307.5 309.4 314 315.6 314.7 314.5 314 314.2 313.1 311.6 308.2 304.9 303 305.3 307 309.7 314.8 316.9 320.6 324.3 328.2 336.3 344.7 342.8 341.1 341.3 341.9 344.7 346.4 353.5 361.2 369.9 378.9 380.6 386.1 393.3 400.7 401.6 397.9 395.4 399.2 410.2 408.4 406.6 398.7 403.6 409.3 406.2 400.3 392.7 391.1 385.6 385.1 383.4 382.8 377 377.3 374 368.3 368.7 370.3 370.3 363.6 357.8 355.3 359.3 358.4 347.4 333.8 323.1 314 304.8 297.9 291.3 279.9 262.1 247.7 232.5 221 208.7 197.3 186.1 163.9 131.7 106.4 83.5 60 29.7 17 15.3 15.3 15.3 15.3 15.3 15.3 15.3 15.3 15.3 15.3 15.3 15.3 15.3 15.3 15.3 15.3 15.3 15.3 15.3 15.3 15.3 15.3 15.3 15.3 15.3 15.3 15.3 15.3 15.3 15.3 15.3 15.3 15.3 15.3 15.3 15.3 15.3 15.3 15.3 15.3 15.3 15.3 15.3 15.3 15.3 15.3 15.3 15.3 15.3 15.3 15.3 15.3 23.2 30.3 39.6 47.9 55.1 62.6 70.6 73.5 80.3 89.4
248.5 246 241.2 235.5 223.6 224 226.3 228.3 235.3 244.4 254.6 264.4 274.8 282.1 287.9 293 299.5 308.5 315.6 320.5 317.2 315.4 317.8 326.9 338.5 349.3 352.4 358.4 359.1 355.1 342 326.7 319.5 312.5 307.1 306.8 308.3 309.1 307.9 306.8 305.8 305.9 306.5 307 307.5 307.4 307.2 308.2 309.5 312.9 315.4 320.4 320.6 319.5 319.3 318.8 317.5 316.1 312.9 308.9 306.7 306.6 309.4 312.5 312.7 316.5 317.7 321.2 324.7 328.4 335.7 345.6 341.7 344.2 346.2 347.4 347.3 349.6 351.3 356.5 362.7 371 374.5 380.1 386.2 391.6 390.2 382.2 382.6 385 393.6 394.9 393.6 388 392.2 398.7 399 388.5 387 385.2 382.8 384 383.3 381 382.7 379.1 372.3 368 369.4 369.9 365.9 360.7 359.4 357.9 360.3 356.1 345.1 339.4 327.7 320 313.4 306.4 295.7 280.5 260.5 246.8 236.3 222.6 207.8 195.2 181.2 151.4 116.4 91.2 63.8 42.4 22.3 15.3 15.3 15.3 15.3 15.3 15.3 15.3 15.3 15.3 15.3 15.3 15.3 15.3 15.3 15.3 15.3 15.3 15.3 15.3 15.3 15.3 15.3 15.3 15.3 15.3 15.3 15.3 15.3 15.3 15.3 15.3 15.3 15.3 15.3 15.3 15.3 15.3 15.3 15.3 15.3 15.3 15.3 15.3 15.3 15.3 15.3 15.3 15.3 15.3 15.3 15.3 15.3 21.1 27.5 34.3 45.4 55.1 61.9 69 78.2 83.8 88.6 94.9
252.7 249.3 245.9 236.7 224.3 223.5 225.4 226.9 229.1 238.7 250.6 258.3 267.5 272.1 276.9 278.1 283.4 291.6 298.4 300.7 299.8 301.1 310.2 320 333.4 342.7 352.3 357.8 357.4 349.2 330 318.8 311.3 307.6 307.5 307.3 307.3 307.1 306.6 306 305.8 306.7 307.2 307.7 308 309.3 310.3 312.4 315.7 318.9 322.9 326.3 325.6 325.2 324.9 323.5 321.9 319 314.2 310.8 309 310.3 312.8 314.9 317.2 317.3 318.4 320.3 322.4 329.7 335.7 341.5 346.9 351 354.2 359.2 367.7 372.9 369.4 366.1 370.2 374 374 376.6 381.4 384.1 382.1 380.6 381.2 382.3 384.5 384.2 383.2 384.6 387.3 392.2 388.2 387.2 386.8 386.1 382.9 376.8 375.8 373.2 371.8 370.6 363.9 365.1 367 366.4 361.4 358.3 358.4 355.1 356.2 352.1 343.3 338.9 329.2 325.2 320.5 313.3 298.8 278.5 258.1 246.8 236.7 222.5 199.1 178.6 161.2 133.6 104.6 80.3 55.6 33.5 15.3 15.3 15.3 15.3 15.3 15.3 15.3 15.3 15.3 15.3 15.3 15.3 15.3 15.3 15.3 15.3 15.3 15.3 15.3 15.3 15.3 15.3 15.3 15.3 15.3 15.3 15.3 15.3 15.3 15.3 15.3 15.3 15.3 15.3 15.3 15.3 15.3 15.3 15.3 15.3 15.3 15.3 15.3 15.3 15.3 15.3 15.3 15.3 15.3 15.3 15.3 15.3 16.1 26.5 32.7 40.2 50.4 60.3 69.1 76.5 85 89.9 94.7 99.5
254.8 252.9 250.1 235 225.8 225.3 226 227 229.6 231.4 242.9 255 263 266.6 267.6 267.1 268.2 272.5 280.3 285.4 286.5 295.9 307 315.7 328.8 340.2 343.8 342.9 340.5 331.1 317.1 310.2 308.3 308.1 308 308.4 308.2 307.5 307.1 306.6 307.2 308 308.6 309.2 311.6 313.4 315.8 320.7 323.9 328.6 331.1 331.4 331 330.3 329 327.6 325.8 322 315.7 312.1 312 313.7 316 318.2 317.7 315.8 317.9 319.1 320.9 331.2 340.2 346.6 350.1 360.7 363.8 365 368.9 371.1 371.2 373.8 374.4 376.1 378.6 379.8 384.4 382.8 380.9 380 379 383.6 379.6 379.6 379.6 382.5 385.1 385.8 385.8 386.7 391.9 391.1 383.3 374.7 369.8 364.7 361.7 361 359.4 361.4 363.5 359.1 357.1 356.1 351.3 351.9 352.2 347.1 344.1 336.5 335.6 330.9 335.8 319 302.3 272.9 255.8 246.1 234.3 211.7 187.2 163.9 145.7 119.7 94.3 69.8 50 30.3 15.3 15.3 15.3 15.3 15.3 15.3 15.3 15.3 15.3 15.3 15.3 15.3 15.3 15.3 15.3 15.3 15.3 15.3 15.3 15.3 15.3 15.3 15.3 15.3 15.3 15.3 15.3 15.3 15.3 15.3 15.3 15.3 15.3 15.3 15.3 15.3 15.3 15.3 15.3 15.3 15.3 15.3 15.3 15.3 15.3 15.3 15.3 15.3 15.3 15.3 15.3 15.3 22.6 31.2 39.8 48.1 59.7 66.6 73.5 80.9 87.8 92.7 98.2 104.4
257 257.4 249 233.6 230.2 230.5 230.2 231.1 235.8 241.4 242.5 254.3 260 261.1 265.5 267.1 267.9 270.5 272.7 276.6 282.4 290.3 301.9 313.5 323.8 331.2 332.3 330.3 326.8 318.1 312.4 310.5 309.1 309.3 309.3 309.7 309.1 308.5 308 308 309.2 309.9 310.3 313.3 315.5 318.1 323.9 329.6 333.7 337 338 336.8 335.4 333.6 332 332.2 329.1 323.6 317.3 313.8 315.4 317.2 319.3 319.2 318.7 318.3 317.4 319.2 321 332.5 338.5 343.4 349 363.3 369.4 367.8 368.8 370.2 373.6 377.3 377.9 378.2 379.6 381.8 388.2 385.3 381 380 378.9 379 377 374.8 377.8 379.3 384 388.9 384.5 392.6 394.7 387.5 380.2 372.8 367.2 361 357.7 355.6 354.5 356.5 356.8 351.3 350.8 347.2 347.8 348.7 347.2 345.9 340.3 339.3 336.1 337.8 331.7 313 293.8 264.2 250.2 231.4 218.3 196.6 177.2 154.6 133.5 110.8 84.2 61.8 38.4 21.6 15.3 15.3 15.3 15.3 15.3 15.3 15.3 15.3 15.3 15.3 15.3 15.3 15.3 15.3 15.3 15.3 15.3 15.3 15.3 15.3 15.3 15.3 15.3 15.3 15.3 15.3 15.3 15.3 15.3 15.3 15.3 15.3 15.3 15.3 15.3 15.3 15.3 15.3 15.3 15.3 15.3 15.3 15.3 15.3 15.3 15.3 15.3 15.3 15.3 15.3 15.3 20.3 29.2 37 46.8 55.2 65 71.6 78.1 84.6 90.1 96.7 103.1 108.7
262 259.7 242.9 232.9 235.7 235.1 235 237.7 242.2 246.5 248 251.3 256.1 261.3 268.8 272.3 272 272.4 274.1 276.6 280.2 288.9 300.9 312.4 321.5 325.1 325.9 323.3 318.9 315.1 311.8 313.3 313.9 311.1 310.6 310.8 310.3 310.3 311.3 313.2 314 313.3 314.4 317.5 320.5 324.7 329.3 337.5 343.4 345.2 344.4 343.2 338.8 335.8 336.6 334.3 329.5 324.3 318.3 315.3 317.6 319.8 319.5 319.4 319.1 318.9 319.3 320.5 322.5 328.9 332 339.2 348.4 360 364.7 366.1 367.8 369.4 371.8 374.9 375.9 377 378.8 381.8 385.4 385.4 382.3 380 378.6 376.8 375.1 375.5 376.6 377.5 381.6 385.9 382.3 385.1 386.5 386.5 376 369.8 365.2 361.3 358.4 354.5 351.2 351.6 348.3 342.3 341.8 340.2 340.3 338.5 334.2 334.1 331.6 333.7 333.3 329.3 318.5 305.6 282.3 256.1 238.9 225.2 210.4 188.6 169.2 147.5 121.3 97.2 74.9 54.3 30.4 15.6 15.3 15.3 15.3 15.3 15.3 15.3 15.3 15.3 15.3 15.3 15.3 15.3 15.3 15.3 15.3 15.3 15.3 15.3 15.3 15.3 15.3 15.3 15.3 15.3 15.3 15.3 15.3 15.3 15.3 15.3 15.3 15.3 15.3 15.3 15.3 15.3 15.3 15.3 15.3 15.3 15.3 15.3 15.3 15.3 15.3 15.3 15.3 15.3 15.3 15.3 16.8 26.7 36.5 45.8 53.9 61.9 68.6 75.1 81.6 88.1 94.5 101.1 105.3 111.7
267.1 254.6 240.9 237.5 239.8 237.4 241.1 244 246.8 249.6 253.3 256.6 261.9 266.9 273.6 277.3 276.8 277.6 280.3 280.5 282.3 291.9 303.6 315.1 322.5 323.2 323.2 320.2 316.7 314.8 317.2 319.5 317.8 314.4 314.4 314.4 316.1 317.1 318.1 318.6 315.7 316.4 318.7 321.7 326.3 332.2 342.7 348.8 351.5 349.2 347.3 346.6 339.7 338 340.5 336.7 331.6 325 318.7 317.5 320.5 321 320.4 319.7 319.5 320.1 322.1 323.2 324.7 335.9 333.6 340.6 353.2 360.9 362 363.9 365.1 366.3 368.3 370.8 371.9 372.9 374.8 379.6 385.2 386.7 382.6 379.2 376.7 374 372.2 372.1 372.9 372.6 376.6 378.7 376.7 378.5 386.6 376.4 373.8 370.9 367.1 365.4 360.2 355 348.8 345.3 339.6 332.8 330.3 330.2 329.8 328.9 327.6 327.5 324.8 325.3 323.4 316.5 299.7 283.4 273.7 249.2 237.4 223.6 205 184 160.6 137.5 114.2 87.5 65.6 43.9 22.8 15.3 15.3 15.3 15.3 15.3 15.3 15.3 15.3 15.3 15.3 15.3 15.3 15.3 15.3 15.3 15.3 15.3 15.3 15.3 15.3 15.3 15.3 15.3 15.3 15.3 15.3 15.3 15.3 15.3 15.3 15.3 15.3 15.3 15.3 15.3 15.3 15.3 15.3 15.3 15.3 15.3 15.3 15.3 15.3 15.3 15.3 15.3 15.3 15.3 15.3 15.3 23.2 34 44.3 52.9 60.6 67.1 73.4 79.7 86.2 94.1 99.2 104.1 108.8 115.8
267.8 248.6 239.8 241.6 242.5 241.9 247.5 249.8 250.5 253 256.8 261.4 266.3 272.2 277.6 280.9 281 283.4 286 287.2 289.1 300 310.9 319.1 322.3 322.3 322 319.5 318.8 321.8 322.5 323.1 320.7 320.2 320 317.6 321.3 323 323.7 322.1 318.6 320.8 323.1 326.4 334.8 341.6 350.3 352.6 352.5 351.5 348 346.6 342.2 340.7 340.7 337.2 331.3 324.6 318.9 321.1 322.6 322.2 321.6 321 321.4 322.9 326.1 329.9 330.4 341.5 340.6 353.4 355.4 359.9 363.5 365.1 366.8 367.6 368.5 370 369.8 369 372 380.4 385.4 385.8 382.5 378.1 373.5 371.3 369.4 366.5 366.5 366.6 368.8 368.9 368.1 372.4 375.9 373 375 371.7 371.4 365.6 363 351.9 348.2 345.3 335.4 328.8 325.5 325 324.2 324.4 324 321.1 319 316.2 311.1 303.8 291.5 276.6 260.3 246.4 235.8 226.3 214 180.2 149.6 124.6 104.6 79.7 55.9 30 15.3 15.3 15.3 15.3 15.3 15.3 15.3 15.3 15.3 15.3 15.3 15.3 15.3 15.3 15.3 15.3 15.3 15.3 15.3 15.3 15.3 15.3 15.3 15.3 15.3 15.3 15.3 15.3 15.3 15.3 15.3 15.3 15.3 15.3 15.3 15.3 15.3 15.3 15.3 15.3 15.3 15.3 15.3 15.3 15.3 15.3 15.3 15.3 15.3 15.3 15.3 18.6 28.4 39.1 50.9 59.2 65.8 72 78.2 84.5 90.9 99.4 103.3 108.2 113.2 121.2
260.6 242 246.2 245.9 243.9 248.9 252.3 253.2 254 255.8 259.5 263.8 269.9 275.8 280.7 282.7 284.7 288 291.4 293.6 299.7 309.6 317.7 319.7 322.1 322 321.2 322.2 325.6 328.2 327.5 326.4 325.3 325.7 324.4 323.2 327.8 330.1 325.9 323.1 322.3 324.2 325.9 328.9 340.1 349 353.3 354.8 353.6 350.3 347.9 346.7 344.6 342.3 339.5 335.5 330.5 323.5 322 323.7 324 323.3 322.7 322.9 324.9 327.2 331.7 333.7 338.8 350.1 354.5 358.6 365.2 369.1 367.7 367.7 371.2 372.7 374.1 371.2 369.5 366.8 371.5 379.3 383.6 383.9 380 375 371 366.5 364.2 364.2 365.4 365.8 365.9 362.4 361.5 369.5 373.3 369.6 371.8 372.8 368.2 366 354.9 348.2 349.1 344.1 328.6 324.3 321.8 318.8 315.7 313.9 312.6 309.7 311.2 308 301.6 292.7 280.3 263.5 251.3 237.9 226.8 215.7 201.8 171.7 137.9 111.3 87.5 68 44.1 20.6 15.3 15.3 15.3 15.3 15.3 15.3 15.3 15.3 15.3 15.3 15.3 15.3 15.3 15.3 15.3 15.3 15.3 15.3 15.3 15.3 15.3 15.3 15.3 15.3 15.3 15.3 15.3 15.3 15.3 15.3 15.3 15.3 15.3 15.3 15.3 15.3 15.3 15.3 15.3 15.3 15.3 15.3 15.3 15.3 15.3 15.3 15.3 15.3 15.3 15.3 17 25.4 34.7 46.1 56.8 64.6 70.6 76.8 83.1 89.4 96 102 107 112.7 119 126.8
249.2 244.7 248 246.1 248.9 253.8 255.4 256.6 257.7 258.9 262 266.5 273 278.6 282.9 286.2 288.5 291.8 295.1 298.7 307.5 314.9 318.4 319.5 320.8 321.9 326.2 329.5 331.5 333.1 332.6 331.6 330.9 330.6 327.6 330.9 335.7 333.2 327.7 325.8 327 328.3 329.9 336.7 349 355 356.4 357.9 354.7 352.1 349.6 347.3 344 340 336.3 332.1 325.7 322.6 324.3 325.6 325.7 324.9 325.2 325.3 329.3 333.2 340.2 343.4 351.1 354.8 364.7 367.5 370.9 372.3 373.7 376 377.2 378 375.3 371.7 368.8 365.9 368.4 375.1 380 380.6 375.4 371.9 368.9 364.5 361 359.7 361.6 363.1 362.7 357.6 356.6 363.2 366 365.4 369.1 364.1 357.8 353.5 350.2 345 343.5 332.4 319.5 316.1 315.4 310.3 304 302.2 298.7 301.2 303.1 299 287.9 273.8 262.2 247.3 235.5 223 210 200 198.6 175.9 130.3 98.1 76.2 55.8 28.6 15.3 15.3 15.3 15.3 15.3 15.3 15.3 15.3 15.3 15.3 15.3 15.3 15.3 15.3 15.3 15.3 15.3 15.3 15.3 15.3 15.3 15.3 15.3 15.3 15.3 15.3 15.3 15.3 15.3 15.3 15.3 15.3 15.3 15.3 15.3 15.3 15.3 15.3 15.3 15.3 15.3 15.3 15.3 15.3 15.3 15.3 15.3 15.3 15.3 15.3 15.3 23.3 33.9 44.3 54 62.5 70 75.6 81.7 88 94.6 101.4 107.1 112.2 119.2 127.1 134.2
245 245.3 246.6 249.3 254.7 257.1 257.5 258.2 260 261.9 264.7 270.1 276.3 281.5 285 288.5 292 295.3 298.5 302.4 310.2 314.3 316.9 318.9 320.8 324.8 336.5 335 339 342.1 338.5 337.2 339.2 335.9 332.3 341 342.3 335 330.1 327.5 328.1 330.5 332.3 340.8 349.1 355.6 359.9 358.8 356.1 353.1 350 346.7 343.7 338 332.9 326.3 322.2 323.9 325.9 327.5 327.5 327.4 327.8 331.3 335.1 342.8 347.9 347.7 352 361.9 369.2 376.9 379.9 380 382.1 382.9 383.2 382.1 376.1 371.7 368.5 365.4 364.1 366.3 366.6 369.3 367.2 368.7 367.2 363.5 359.2 354.5 354.1 356 357.2 350.5 350.1 349.6 352.6 353.6 355.4 350.7 348 346.9 345.3 343.7 342.9 327.8 310.9 306.9 305.4 301.4 293 288.3 286.4 291.1 290.9 284.9 271.6 258.8 246 239.6 230.9 215 203.2 190.1 183.7 148.3 112.2 84.3 63.2 41.2 20.9 15.3 15.3 15.3 15.3 15.3 15.3 15.3 15.3 15.3 15.3 15.3 15.3 15.3 15.3 15.3 15.3 15.3 15.3 15.3 15.3 15.3 15.3 15.3 15.3 15.3 15.3 15.3 15.3 15.3 15.3 15.3 15.3 15.3 15.3 15.3 15.3 15.3 15.3 15.3 15.3 15.3 15.3 15.3 15.3 15.3 15.3 15.3 15.3 15.3 15.3 17.2 30.3 42.5 51 59.3 68.2 75.4 80.8 86.7 93.1 99.9 106.7 112.2 118.5 126.2 133.7 139.8
246.1 246.8 249 254.2 259 259.8 258.8 259.2 261.1 263.4 268.2 274.5 279.3 283.4 286.9 290.3 294.3 298.5 301.4 304.8 310.1 313.8 316.5 318.9 321.2 334.4 333.8 344.4 346.5 343.8 342.2 344.4 344.2 339 336.4 341.1 342 337.7 332.1 330.6 330.6 331.8 335.9 343.8 352.1 360.3 360 360 358.7 353.7 350.3 347 343.6 335.2 330 323.7 322.7 325.8 327.2 329.2 329.8 330 333.4 339.6 346.8 352.4 356.1 352.5 356.3 372.8 379.2 386.8 388.6 387.7 391.1 390.8 388.2 384.2 377.9 372.3 368.3 365.5 364.9 365.3 363.2 362.4 364 365.2 365 362.7 358.3 353.5 347.2 348.5 350.2 344.9 338.3 338.2 344.4 345.9 346.6 347.5 344.5 343.7 343.3 346.9 339 321.4 307.9 301.4 293.4 288.2 282.4 278.5 277.9 278.6 278.2 273.4 266 256 244.6 240.4 234.2 214.9 201 179.3 151.7 123.2 97.9 74.2 53.1 29 15.3 15.3 15.3 15.3 15.3 15.3 15.3 15.3 15.3 15.3 15.3 15.3 15.3 15.3 15.3 15.3 15.3 15.3 15.3 15.3 15.3 15.3 15.3 15.3 15.3 15.3 15.3 15.3 15.3 15.3 15.3 15.3 15.3 15.3 15.3 15.3 15.3 15.3 15.3 15.3 15.3 15.3 15.3 15.3 15.3 15.3 15.3 15.3 15.3 15.3 15.3 25.3 39.9 48.5 56.8 65.7 74.4 80.8 86 92.6 99.1 105.3 112.1 117.8 125.8 132.5 139.1 144.4
247.8 247.3 254 260.2 262.3 262 259.8 260.6 262.9 266.3 272.5 277.8 281.2 284.6 288.7 292.5 296.7 300.9 304.3 306.7 309.9 313 316 318.5 321.8 327.7 346 350.1 346.2 345.8 348.8 351.7 348.1 339.5 338 339.3 339.4 338 334.1 333.8 333.6 334.3 336.7 345.1 353.9 360.5 364.2 366.1 358.6 351.3 347 343.8 336.9 326.5 324.3 323.2 324.9 328 331.4 334.3 333.3 335.8 344 351.1 354.6 362 364.9 359 364 377.8 386.4 394.6 396.4 397.2 399.5 397.3 393.7 385.7 378.5 372.5 368.1 365.1 364 364.1 360.3 358.8 359.3 360.5 360.1 355.5 351.9 344.5 341.3 342.1 341.4 338.1 334.8 335.4 338.9 341.7 341.8 342.6 337.1 337.8 339.4 334.7 317.3 308.9 306.3 299.8 286.8 278.6 272.7 269.4 267.2 266.6 266.7 268 260.6 252.4 240.8 236 231.2 219.1 190.4 164.2 137.6 109.4 85.3 64.3 43.6 21.8 15.3 15.3 15.3 15.3 15.3 15.3 15.3 15.3 15.3 15.3 15.3 15.3 15.3 15.3 15.3 15.3 15.3 15.3 15.3 15.3 15.3 15.3 15.3 15.3 15.3 15.3 15.3 15.3 15.3 15.3 15.3 15.3 15.3 15.3 15.3 15.3 15.3 15.3 15.3 15.3 15.3 15.3 15.3 15.3 15.3 15.3 15.3 15.3 15.3 17.2 25.8 36.3 47.3 54.4 63.8 74.3 81.2 86.5 92 98.1 105.5 112.4 118.8 125.1 131.3 137.7 143.1 148.4
246.3 255.6 260.9 265.6 265.1 260.7 260.1 261.3 264.3 270.4 276.7 280.8 284.2 287.6 290.5 294.4 298.7 302.5 305.3 307.6 310.1 312.9 315.8 320.1 326.1 336.2 340.7 346.4 349.6 351 356.5 357 345.2 339.6 338.6 339.7 339.7 338.2 337.9 337.2 337 337.4 341 351.7 357.8 364.3 367.4 364.1 355 350.4 343 330.1 325.5 324 323.9 325 328.1 332.2 337.7 338.3 337.3 346.8 355.4 361.3 362.4 364.8 362.4 363.6 371.5 377.9 388.6 395.7 402 409 408.5 405 395.3 387.1 379.7 372.5 367.6 366.8 365.8 364.5 362.9 360.1 358 354.8 351 351.8 346.3 343.2 339.7 337.7 336.2 334.8 332 334.7 337.6 339.2 333.8 329.5 326 324.1 323.4 317.4 310.8 310.6 311 298.2 280.9 276.2 265.1 262.5 259.1 256.4 257.4 253.2 250.3 242 237.3 236.3 237.6 225.5 181 154.7 121.4 93 70.6 51.5 27.6 15.3 15.3 15.3 15.3 15.3 15.3 15.3 15.3 15.3 15.3 15.3 15.3 15.3 15.3 15.3 15.3 15.3 15.3 15.3 15.3 15.3 15.3 15.3 15.3 15.3 15.3 15.3 15.3 15.3 15.3 15.3 15.3 15.3 15.3 15.3 15.3 15.3 15.3 15.3 15.3 15.3 15.3 15.3 15.3 15.3 15.3 15.3 15.3 15.3 16.9 24.8 35 45.9 53.1 60.8 70.6 78 87 92.5 98 103.5 110.1 117.3 124.2 131 138.4 142.6 147.4 152.7
253.1 263.2 268.2 267.9 261.8 260.7 260.7 263.1 267.5 274 280.3 283.7 286.7 289.5 292.4 296.2 299.4 302.9 305.6 308.1 310.7 313.3 317.1 321.1 330.2 339.5 345.7 349.7 353 359.3 363.8 358.1 341.3 339.9 339.9 341.1 342.4 341 342.6 341.3 340.6 340.3 347.3 355.7 362.9 368.6 364.7 357.2 348.5 337.5 329.2 326.5 325 324.8 326.9 329.7 333.7 338 343.5 341.5 348.9 357.3 365.1 366.7 365.4 363.8 368.2 370.6 374.5 377.1 385.3 402.4 413.1 412.8 412.1 404.9 395 387.7 379.4 372.6 368.7 368.8 367.8 366.2 364.5 362.1 359.9 355.8 353.9 352.1 346.4 342.6 339.1 336 334.6 332.7 331.2 330.1 329.2 328.1 326.5 325.6 324.2 322.2 321.9 316.1 311.3 311.2 312.3 298.7 286.8 277.7 269.5 263.5 254.2 249.1 247.2 244.6 242.4 241.7 239 241.5 233.4 204.6 164.5 133.2 107.8 84.1 61.3 34.3 16 15.3 15.3 15.3 15.3 15.3 15.3 15.3 15.3 15.3 15.3 15.3 15.3 15.3 15.3 15.3 15.3 15.3 15.3 15.3 15.3 15.3 15.3 15.3 15.3 15.3 15.3 15.3 15.3 15.3 15.3 15.3 15.3 15.3 15.3 15.3 15.3 15.3 15.3 15.3 15.3 15.3 15.3 15.3 15.3 15.3 15.3 15.3 15.3 19.2 22.1 33.3 44.4 53.5 59.7 67.7 75.1 83.3 92 98 103.5 109.5 115.7 122.7 129.9 136.9 143.4 148.7 153.2 157.8
261.4 264.5 268.6 267.9 258.7 259.4 263.1 267.9 271.5 277.7 282.9 285.7 288.5 291.2 294.3 298.2 301.2 303.5 306.1 308.7 311.3 313.9 318.7 323.3 331.6 341.6 352.4 354.3 354.4 358.4 358.3 344.4 342.4 341.1 341.7 342.6 345.2 346.4 347.3 346 344.7 346.4 350.5 366.9 367.2 362.9 355.7 341 333 329 327.6 326.4 325.9 327.2 330.1 333.8 340.9 348.1 345.8 347.7 360.2 366.4 369.8 367.1 366.3 369.7 372.7 378.8 384.4 389.9 401.4 412.7 412 413.1 410.1 402.4 395.6 388 377.8 373.1 371.3 370.8 369.8 367.6 366.9 363.5 360.4 355.9 353.5 349.1 346.1 342.3 338.8 336.7 334.3 334.1 332.4 331 333.9 327.2 325.7 325.3 324.2 325.3 327.1 318.4 315 313.1 309.1 303.5 290.7 281.2 271.9 262.1 255.5 245.8 247.5 245.1 241.6 239.9 241.7 241.8 226.8 193.5 145.7 115.1 93.6 73.7 45.4 18.3 15.3 15.3 15.3 15.3 15.3 15.3 15.3 15.3 15.3 15.3 15.3 15.3 15.3 15.3 15.3 15.3 15.3 15.3 15.3 15.3 15.3 15.3 15.3 15.3 15.3 15.3 15.3 15.3 15.3 15.3 15.3 15.3 15.3 15.3 15.3 15.3 15.3 15.3 15.3 15.3 15.3 15.3 15.3 15.3 15.3 15.3 15.3 15.3 17.6 20.9 30.8 42.8 53.3 61.4 68.8 74.2 81.1 90 97.3 103.6 109.7 115.7 121.8 129.6 137.5 143 148.5 153.6 158.5 163.3
259.2 260.2 265.7 255.9 257.5 260.2 263.4 268.4 278.2 282.8 284.7 287.4 290.2 292.9 296.3 300.1 302.5 304.5 306.9 309.5 312.1 315 320.4 325.2 332.4 342.4 346.2 346.4 347.7 348 345.5 345.5 344.6 343.4 346.8 351.6 353.8 352.8 352.2 349.6 348.2 351 353.5 363.6 358.7 346.2 335.8 335.1 334.1 332.1 329.6 328.4 328.2 330.5 333.9 341.7 351.8 351.7 346.3 362.2 369.9 375.3 370.6 367.9 368.2 370.5 374.3 382.6 390.7 399 403.4 409.3 409.2 411 407.6 397.6 391.4 383 377.9 374.6 374.5 373.1 371 369.9 369.2 364.9 361 356.3 352.1 348 345 342.2 339.4 337.4 336.1 335.5 333.8 338.1 335.1 325.5 324.1 325.8 324.8 326 326.7 328.4 326.6 327.8 323.9 298.7 285 278 271.6 264.2 255.6 246.8 243.8 244.7 241.8 237.8 241.3 233.6 203.3 172.8 129.6 102.1 76.4 53.4 25.7 15.3 15.3 15.3 15.3 15.3 15.3 15.3 15.3 15.3 15.3 15.3 15.3 15.3 15.3 15.3 15.3 15.3 15.3 15.3 15.3 15.3 15.3 15.3 15.3 15.3 15.3 15.3 15.3 15.3 15.3 15.3 15.3 15.3 15.3 15.3 15.3 15.3 15.3 15.3 15.3 15.3 15.3 15.3 15.3 15.3 15.3 15.3 15.3 18.2 19.4 27.4 38.8 54 59.8 67.1 73.6 80.7 88.5 96.4 103 108.8 115.8 121.8 127.9 136 142.7 148 153.4 158.5 163.5 168.4
248.9 247.8 249.8 253.2 258.2 261.7 265.5 273.7 281.9 284 286.3 289.4 292 294.7 298.4 301.8 302.9 305.3 307.7 310.4 313 316.8 322.2 326.6 331.9 334.8 336.8 340.8 343.6 344.5 345.8 345.9 346.5 351.8 358 360.3 359.2 358.6 357.2 354.2 352.4 355.6 354 349.3 341.6 338 336.3 339.8 338.5 336.5 331.6 330.1 330 333 340.9 353.8 356.4 349.7 355.9 367.8 374.4 377.1 370.2 369 369 372.5 381.2 384.2 397.4 397.4 398.2 402.7 405.3 401.9 398.6 393 387.3 381.9 378.6 379.2 378.3 375.8 374 375 370.1 365.3 361 354.7 350.4 348.9 346 342.1 340.4 339.7 337.5 329.8 332 334.1 329.5 322.6 323.7 323.8 324.3 328.7 328.1 330.7 333.4 334.6 319 296.4 283.8 274.8 268.5 262.1 255.3 245.6 241 239.8 234.5 239.3 237 228.7 199.3 144 111.9 85.9 65 39.6 17.9 15.3 15.3 15.3 15.3 15.3 15.3 15.3 15.3 15.3 15.3 15.3 15.3 15.3 15.3 15.3 15.3 15.3 15.3 15.3 15.3 15.3 15.3 15.3 15.3 15.3 15.3 15.3 15.3 15.3 15.3 15.3 15.3 15.3 15.3 15.3 15.3 15.3 15.3 15.3 15.3 15.3 15.3 15.3 15.3 15.3 15.3 15.3 16.4 19.7 24.1 35.6 49.5 59.4 65.5 72.7 81.2 88.5 95.9 102.3 108.3 113.8 122 128.1 134.1 142.2 147.8 153 158.4 163.5 168.5 173.4
246 247.4 248.6 256.7 260.7 264.4 269 278.5 282 284.8 288.1 291.5 294.3 297.2 300.7 301.9 303.7 306.3 308.6 311.3 313.9 318.4 323.8 326.5 329.1 331.8 335.6 341.2 344.3 346.3 348.7 353.1 359.2 365.9 367.3 365.6 364.7 363.9 358.8 355.4 356.7 358.7 350.7 342.4 342.8 343 346.7 348.1 343.7 340.6 335.1 331.6 331.6 341.1 356.4 357.8 353.7 357.6 363.2 369.7 375.2 376.1 370.2 369.8 371.7 372.2 377.7 387.1 393.9 392.9 395.1 395.1 398.1 397.2 397 394.4 389.4 383.1 382.7 386.8 381.9 378.4 380.3 374.9 372.5 365.7 360.4 352.5 349.4 350.3 347.3 341.7 341.3 339.3 335.9 327.6 323.4 324.6 322.8 320.3 321.3 322.7 321.6 324.9 328.7 335 333.2 328.5 312.9 296.9 287 280.5 273 267 256.8 244.4 236.8 233.2 233.1 235.6 232.2 213.5 167.7 123.4 95.8 72.8 54 28.6 15.3 15.3 15.3 15.3 15.3 15.3 15.3 15.3 15.3 15.3 15.3 15.3 15.3 15.3 15.3 15.3 15.3 15.3 15.3 15.3 15.3 15.3 15.3 15.3 15.3 15.3 15.3 15.3 15.3 15.3 15.3 15.3 15.3 15.3 15.3 15.3 15.3 15.3 15.3 15.3 15.3 15.3 15.3 15.3 15.3 15.3 15.3 15.3 20.4 22.7 32.3 45.2 55.7 64.2 71.3 79.9 88.6 95.9 101.7 107.9 113.3 118.7 127 134.3 140.1 147.4 152.8 158 163.3 168.4 173.5 178.3
244.9 248.4 257.1 261.3 262.8 267 272.2 278.8 284.1 287.5 290.4 293.7 296.8 300.4 302.4 303.3 305.5 307.9 310 312.3 315.1 319.9 323.8 325.3 327.6 330.2 335.1 344.6 354.6 356.4 360.8 366 375.1 374.4 368.8 367.8 373.4 369.1 360.5 358 358.3 353.4 345.9 346.6 351.1 354.8 359.9 353.4 350.1 342.4 338.1 333.2 335.3 352.3 358.7 354.4 354.6 369.7 365.1 367.2 377.8 375.6 370.9 377.8 380.3 377.1 377.5 382.3 386.7 391.8 395 397.6 397.3 401.3 401.4 397.5 389.4 389.5 397.7 392.2 382 381.2 382.8 371.4 365.9 361.2 353.8 350.1 348.8 349.2 347.8 335.7 332.9 334.9 332.8 327.4 321.1 317.9 316.3 315.1 317.7 318.9 317.8 321.1 327.3 327.3 326.5 322.1 312.7 299 290.5 286.3 281.5 274.4 262.3 244.1 237.1 231.5 233.9 231.4 222.5 187.2 140 104.1 82 61.8 41.6 24.5 15.3 15.3 15.3 15.3 15.3 15.3 15.3 15.3 15.3 15.3 15.3 15.3 15.3 15.3 15.3 15.3 15.3 15.3 15.3 15.3 15.3 15.3 15.3 15.3 15.3 15.3 15.3 15.3 15.3 15.3 15.3 15.3 15.3 15.3 15.3 15.3 15.3 15.3 15.3 15.3 15.3 15.3 15.3 15.3 15.3 15.3 15.3 17 21 30.4 41.8 52.4 61.7 70.1 78.3 87 94.8 101 107.1 113.3 119.2 124.6 133.2 140.7 145.1 149.4 157 163 168.2 173.3 178.4 183.8
250.3 255.1 259.6 261 265.9 270.3 275.1 280.6 286.1 290 292.9 295.9 300.4 303.1 303.8 304.7 307.2 309.4 311.6 313.7 316.6 320.3 322.8 324.2 326.2 330.5 336.8 350.5 357.5 364.5 372.9 382.8 383.3 377.3 371 375.3 379.2 369.2 356.2 350.7 349.5 345.8 346.2 356.4 369.5 374.8 364.4 360.2 352.3 345.2 340.2 336.7 340.8 354.3 353.7 353.4 359.6 371 367.3 369 375.1 372.2 374.3 379.9 382.1 382 382.7 384.4 387.7 395.4 400.7 400.2 397.9 401.1 401.4 398.8 391.5 397.7 398.9 387.1 383.3 380.1 373 365.2 360.5 355.8 351.4 347.4 346.3 342.3 339.8 332.6 329.3 326.9 326.5 321.4 319.6 316.1 314.7 314.7 306.2 310.4 311.2 317.8 320.7 320 317.4 314.4 312.5 302.3 299.1 292.2 286.8 280.7 263.9 244.2 235.7 227.4 229.8 224.1 203 166.5 123.4 90 67.9 47.8 29.2 16.8 15.3 15.3 15.3 15.3 15.3 15.3 15.3 15.3 15.3 15.3 15.3 15.3 15.3 15.3 15.3 15.3 15.3 15.3 15.3 15.3 15.3 15.3 15.3 15.3 15.3 15.3 15.3 15.3 15.3 15.3 15.3 15.3 15.3 15.3 15.3 15.3 15.3 15.3 15.3 15.3 15.3 15.3 15.3 15.3 15.3 15.3 15.3 20.3 27.3 39.3 50.9 57.8 66.5 75.9 83.5 91.3 98.9 105.7 112.1 117.4 124.9 131.6 137.3 142.7 149 154.6 157.4 166.4 173 178.1 183.2 189.2
249.4 255.8 258.7 264.5 269.6 273.8 279.8 284.9 290.3 292.2 295.2 299.5 303.8 304.2 304.6 306.3 308.9 311 313.3 316 318.6 320.8 322 322.9 327 331.4 341.9 354 365.1 375 388.4 389.5 382.2 374.2 374.1 379.5 371.8 357.9 345.9 346 345.7 352.9 361.4 380.7 389.3 375.4 370.8 364 357 349.1 343.4 339.8 342.6 349.1 350.7 356.9 362.8 368.6 364.5 366.7 372.4 373.5 378.2 384.2 383.7 382.3 382.7 384.8 389.9 397.8 399.3 395.7 396.8 399.4 401.1 398.4 395.6 396.4 393.1 388.9 388.3 382.9 371.2 364.7 360.7 354.6 351.8 346.5 343.4 340 334.7 331.6 330.9 325.8 325.2 319.9 314.1 314.8 313 310.4 302.3 297.5 300.7 307.7 309.2 311.2 309.9 308.2 309.5 308.8 306.2 302.1 288.4 282.9 259.9 238.1 233.5 225 222.2 210.4 173.9 132.3 101.6 76.1 56.9 36 23.6 15.3 15.3 15.3 15.3 15.3 15.3 15.3 15.3 15.3 15.3 15.3 15.3 15.3 15.3 15.3 15.3 15.3 15.3 15.3 15.3 15.3 15.3 15.3 15.3 15.3 15.3 15.3 15.3 15.3 15.3 15.3 15.3 15.3 15.3 15.3 15.3 15.3 15.3 15.3 15.3 15.3 15.3 15.3 15.3 15.3 15.3 15.7 23.6 27.5 37.5 48.5 57.3 64.4 72.7 81 88.4 96.4 104.2 110 116.6 123.3 125 131.1 140.2 147.7 152.3 158.3 160.7 170.6 177.5 182.9 190.7 195.5
250.1 256.3 264.1 269.2 272.7 278.2 285.3 289.5 293.4 294.7 297.2 304.6 304.8 305.4 305.9 308.5 311 313.7 316.2 317.9 319.6 320.3 321.7 323.5 327.8 336.2 346.5 366.7 371 380.5 391.4 385.7 373 371.3 373.7 368.4 360.8 349 345.9 348 354.4 364.4 385 395.4 385.8 379.3 377.5 369 359.1 352.5 346.4 343.9 345 347.8 349.6 363.7 359.8 361.6 358.1 361.6 374.7 375.7 380.3 379.7 379.8 380 382.2 387.9 392.1 396 394.2 395 397.2 399.4 402.5 403.5 403.2 399.5 396 396.6 397.3 385.3 372.4 366.7 363.4 354.2 347.7 346.5 342.4 338.1 333.6 333.6 332.8 326.5 321.7 317.4 310.3 312.2 309.6 304.8 300.4 295.1 295.1 298.2 300.8 302.2 301 300.1 304.6 309.3 311.8 305.1 284.3 275.7 259.1 232.4 228.9 217.6 197.1 172.1 141.7 107.9 81.8 63.3 44.5 25.2 15.3 15.3 15.3 15.3 15.3 15.3 15.3 15.3 15.3 15.3 15.3 15.3 15.3 15.3 15.3 15.3 15.3 15.3 15.3 15.3 15.3 15.3 15.3 15.3 15.3 15.3 15.3 15.3 15.3 15.3 15.3 15.3 15.3 15.3 15.3 15.3 15.3 15.3 15.3 15.3 15.3 15.3 15.3 15.3 15.3 15.3 15.3 27.5 28.6 36.9 48.4 55.1 63 71.3 79.1 85.8 93.4 101.7 110.3 114.7 119.8 126.7 133.4 135 144.7 153.4 155.6 161.6 168.4 177.7 181.8 190.7 196 200.1
251.2 258.1 266.6 271.5 276.7 284.3 290.6 294.1 296.1 297.2 299.4 303.6 305.7 306 308.2 311.4 314 315.4 317.1 318.8 320.5 321.5 322 324.1 328.8 343.1 354.6 368 374.5 385.7 385 373.4 367.2 368.2 369.2 360.1 346.2 345.4 345.9 353.3 367.4 378.6 398 396.8 385.9 386.5 384 371.3 362.3 354.1 349 347.9 348.1 348.1 352.1 358 350.9 347.3 349.1 355.9 373.5 376.3 377.9 377.4 377.8 377.2 380.5 385.2 389.8 391.9 393.7 397.4 402 405.7 413 412.6 409.2 404.3 399.7 399.7 397.5 381.2 376.7 376.2 360.4 348.8 344.3 342.2 339.9 336.3 334.2 333.9 331.4 328.6 321.7 317.4 308.3 306.5 305.7 305.3 298.4 292.8 291.5 291.6 288.1 286.7 287.3 295.4 296.9 303.7 305.1 294.5 282.4 266 241 226.8 218.8 210.3 186.8 134 110.2 88.3 66.1 46.4 26.7 21.1 15.3 15.3 15.3 15.3 15.3 15.3 15.3 15.3 15.3 15.3 15.3 15.3 15.3 15.3 15.3 15.3 15.3 15.3 15.3 15.3 15.3 15.3 15.3 15.3 15.3 15.3 15.3 15.3 15.3 15.3 15.3 15.3 15.3 15.3 15.3 15.3 15.3 15.3 15.3 15.3 15.3 15.3 15.3 15.3 15.3 15.3 27.5 28 34.9 45.8 53.5 59.9 69.5 77.3 83.1 89.5 97.8 105.8 112.5 118.6 125.4 129 137 142.3 150.7 158.1 159.4 167.5 176 180.5 187.6 196.2 200.5 204.6
253 263.7 270.9 275.4 283.4 290.8 295.1 297 297 298.1 300.6 304 305.8 307.9 310.9 314.5 315.9 316.5 318 319.7 321.3 322.6 322.9 324 331.9 345.1 354.7 366.4 373.9 376.5 372.9 366.8 364.7 368.3 364.8 346.3 346 348.5 355.6 369 374.3 390 401.7 391.5 392.6 393.1 387.7 376.3 365.7 356 351.2 349.3 349.2 349.6 352.1 352.6 349.1 342.3 341 347.6 363.9 371.2 374.4 374.1 374.5 376.1 379.4 385.1 390 393.9 400 406.1 412.8 419.7 421.1 418.9 414.2 407.9 401.8 397.9 390.3 378.8 375.3 368.5 358.1 346.8 343.7 341 337.2 334.9 331 330.5 329.2 327.2 321.2 317.1 309.7 307.8 303.3 298.4 291.4 288.9 287.7 285.6 278.5 281.8 277.4 277.8 282.9 289.5 291.6 286.4 281.5 256.4 232.5 226.6 213.9 184.6 162 122.1 92.5 68.7 51.7 27 22.7 15.8 15.3 15.3 15.3 15.3 15.3 15.3 15.3 15.3 15.3 15.3 15.3 15.3 15.3 15.3 15.3 15.3 15.3 15.3 15.3 15.3 15.3 15.3 15.3 15.3 15.3 15.3 15.3 15.3 15.3 15.3 15.3 15.3 15.3 15.3 15.3 15.3 15.3 15.3 15.3 15.3 15.3 15.3 15.3 15.3 15.3 26.1 27.4 34.3 42.5 51.5 57.1 67.4 78.9 84.6 89.6 94.6 101.4 109.7 115.3 122.2 127.5 133.8 141.7 149.5 156.6 162.1 165.5 173 179.4 185.1 191.7 198.9 203.6 208.7
257.6 268.9 272.1 280.6 289.4 295.5 298.3 297.8 298.3 299.3 301.6 304.4 307.5 310.6 314.4 317.4 317.7 318 319.3 320.7 322.7 323.5 323.2 324.9 335.7 349 354.8 365.2 369.8 367.4 367.4 362.6 362 357.9 348.7 346.8 346.9 355.6 366.4 379.1 381.3 393.5 393.9 396.5 400.4 398.2 388.1 379.6 369.1 356.6 353 351.1 350.3 350.2 348.4 345.7 341.2 341 339.6 344 359.2 367.4 370.5 371.2 372.2 375.2 379.6 385.6 393.6 398.9 402.8 409.7 417.3 425.6 426.7 424.4 418.6 413.1 406.7 399.2 390.2 379.6 370.8 362.6 352.6 346 344.4 342.3 338.6 336.2 332.9 332.5 328.8 327.9 327.2 323 318.6 315.1 301.2 294.6 292.7 288.5 287.4 282.8 272.2 269.7 267 268.7 266.1 273.8 280.9 282.4 278.1 255.8 225.2 218.6 190.7 163.8 135.3 102.4 76.9 57.6 36.2 24.6 15.3 15.3 15.3 15.3 15.3 15.3 15.3 15.3 15.3 15.3 15.3 15.3 15.3 15.3 15.3 15.3 15.3 15.3 15.3 15.3 15.3 15.3 15.3 15.3 15.3 15.3 15.3 15.3 15.3 15.3 15.3 15.3 15.3 15.3 15.3 15.3 15.3 15.3 15.3 15.3 15.3 15.3 15.3 15.3 15.3 15.3 19.8 27.1 32.6 41.7 49.8 57.5 64.4 75.5 83.5 89.8 96.6 98.3 107.9 115.6 119.1 125.2 133.1 142.3 147.6 155.7 161.6 167.2 173.5 180.4 184.8 190.1 195.3 201.1 205.4 211.5
260.9 270.1 276.3 287.8 296.4 300.3 299.2 298.2 298.8 300.1 304.2 307 309.6 315.1 318.8 319 319.2 318.9 319.9 322.8 324.4 324.4 323.6 327.1 335.2 348 355.7 357.8 359.2 360.2 358.6 357.1 355.7 352.8 353 353.7 354.9 367.1 374.1 379.2 382.6 383.8 392.2 397.4 401 397.3 390.9 382.6 363.3 357.1 353.9 352.1 350.2 348.2 341.7 342.1 345.5 343.3 347.4 346.8 359.4 364.8 369.7 370 370.7 374.3 379.2 388.8 396.6 401.3 405.3 411.5 420.1 426.2 429.5 428.4 423.4 418 411.9 404.1 390.8 381 371.5 363 355.1 348.1 345.5 343.8 341.6 335.7 334.2 333.1 331 331.5 335.2 330.5 322 308.6 302.3 298 294.1 291.3 286.3 277.5 269.8 262.7 258.6 252.8 251.3 258.6 267.7 270.7 265.2 246.3 217.1 190.9 165.1 136 111.2 85.1 62.7 44.6 27.7 19.5 15.3 15.3 15.3 15.3 15.3 15.3 15.3 15.3 15.3 15.3 15.3 15.3 15.3 15.3 15.3 15.3 15.3 15.3 15.3 15.3 15.3 15.3 15.3 15.3 15.3 15.3 15.3 15.3 15.3 15.3 15.3 15.3 15.3 15.3 15.3 15.3 15.3 15.3 15.3 15.3 15.3 15.3 15.3 15.3 15.3 15.3 25.5 30.2 39.2 49.6 56.2 62.9 71.7 82.9 89 94.6 100.7 105.6 114 120.6 124.3 131.3 139.2 147.6 155.5 161.9 167.8 174.4 181.2 186.1 190.3 193.7 198.7 203.4 207 206.9
266 273.4 281.2 289.5 301.1 302.7 298.3 298.2 299 303.3 307.4 310.5 314.4 319.4 321.2 320.9 319.8 319.6 321.2 325 325.5 325.2 324.5 328.5 333 340.6 347.3 349.8 349.7 351.8 353.3 353.9 355.3 359.6 361.9 355 362.4 370.1 370.9 371.9 378.5 392 394.8 400.2 402.6 401.2 396.1 378 362.4 358 355.4 352.9 349.7 345.1 344 344.1 345 347.3 341.5 346.2 355.1 357.6 364.7 366.9 369.2 373 379 390.3 395.3 402.7 408.1 413.7 423.7 428 432 433.2 429.7 424.7 418.2 409.4 395.4 383.4 374.5 368 361.5 354 349.2 349.9 346.1 341.2 336.1 335 336.9 339.7 342.2 334.6 319.4 308.2 301.7 299.5 294.2 288.8 284.7 275.5 268.1 263.3 259.1 253 248.6 244.3 238.5 232.4 225.3 224.4 207.8 181.4 144.9 119.1 92.8 70.8 51.9 34.1 22.2 15.3 15.3 15.3 15.3 15.3 15.3 15.3 15.3 15.3 15.3 15.3 15.3 15.3 15.3 15.3 15.3 15.3 15.3 15.3 15.3 15.3 15.3 15.3 15.3 15.3 15.3 15.3 15.3 15.3 15.3 15.3 15.3 15.3 15.3 15.3 15.3 15.3 15.3 15.3 15.3 15.3 15.3 15.3 15.3 15.3 15.3 17.8 28.4 35.1 44.4 55.2 60.7 68.1 79 88.7 93.2 98.4 103.8 112 120.2 124.1 129.4 138 145.8 153.8 160.7 168 174.3 181.2 186.6 191 195.4 198.6 201.8 204.8 205.7 206.7
268.9 273.2 280.4 293.3 300.9 296.3 296.5 298.1 302 307.2 309.8 313.5 319.1 322.7 322.4 321.5 318.1 319.1 321.8 325.9 326.9 325.9 325 328.4 332 336.3 340.9 343.5 345.8 348.3 350.8 354.6 360.4 367.9 360.3 363.5 366.9 363.5 359.6 366.9 374.6 389.7 392.8 401.1 403.3 403.7 391.4 374 361.9 358.6 357.1 354.9 349.2 345.2 348.4 346.1 346.2 338.9 337.5 337.2 349 350.3 356.5 361.5 366.7 372.6 379.9 389.6 399.8 408.6 412.2 419 430.7 434.9 436.5 438.3 435.4 429.2 420.6 410.2 398.3 388.8 380.5 371.1 366.4 361.6 357.4 355.1 351.2 345.5 343.5 343.3 344.3 347.6 345.5 336.7 319.3 309.2 304.7 301.5 297 289.9 284 278 271.1 264 256.2 256.2 243.6 229.2 210.2 199.7 183 187 189 168.5 129.3 102.2 76.6 59.1 42.2 29.2 15.5 15.3 15.3 15.3 15.3 15.3 15.3 15.3 15.3 15.3 15.3 15.3 15.3 15.3 15.3 15.3 15.3 15.3 15.3 15.3 15.3 15.3 15.3 15.3 15.3 15.3 15.3 15.3 15.3 15.3 15.3 15.3 15.3 15.3 15.3 15.3 15.3 15.3 15.3 15.3 15.3 15.3 15.3 15.3 15.3 15.3 15.3 27.2 32 40.7 49.4 58.5 66.2 74.5 85.3 92.8 98.5 103.8 109.2 116.6 124 127.3 135.8 144.4 152.1 159.4 165.7 172.6 180.1 186.3 191 195 199.2 201.8 203.6 203.7 204 203.1
262.7 267.5 276.3 290.2 290.1 292.5 295.6 300.7 307.9 310.7 312 317.3 322.8 324.4 323.1 319.3 316.5 318.4 320.8 325.4 326 323.4 324.4 327.8 331.2 334.8 339.2 340.8 342.9 345.7 350.2 355.8 367.1 365.1 359.7 358.3 357.3 356.5 355.9 360.6 373.4 384.4 390.3 405.3 412.6 405.4 387.8 367.1 362.1 360.6 360.1 356 347.6 348.7 349.7 344.1 341.8 339.1 336.7 331.1 337.6 345.8 350.9 357.7 365.1 372.4 381.6 394.2 404.3 413.5 416.6 429.9 439.7 444.6 443 441.1 435.9 429.9 420.5 412.6 404.1 392.8 385.7 380.4 375.8 375 376.8 366.5 365.1 365.5 360.9 370.1 368.1 358.8 349 341.9 329.7 317.2 310.3 304.7 302.6 295.8 291.5 287 276 265.1 252 243.7 232.4 223 206.7 181.7 154.9 130.6 160.5 144.2 116.5 84.1 65.8 48.7 32.4 20.4 15.3 15.3 15.3 15.3 15.3 15.3 15.3 15.3 15.3 15.3 15.3 15.3 15.3 15.3 15.3 15.3 15.3 15.3 15.3 15.3 15.3 15.3 15.3 15.3 15.3 15.3 15.3 15.3 15.3 15.3 15.3 15.3 15.3 15.3 15.3 15.3 15.3 15.3 15.3 15.3 15.3 15.3 15.3 15.3 15.3 15.3 24.8 31.2 37.6 48.1 57.3 64.4 72.3 80.4 90.5 97.9 104.1 109.7 116.8 122.9 126.8 133.6 143.7 150.6 157.5 165 171.3 177.1 184.3 190.6 194.7 198.8 201.8 202.8 203.2 203.4 200.1 200.9
265.3 272.1 277.6 284.8 289.5 293.1 299.3 307.3 313 312.3 315.8 321.8 325 323.2 319.4 315.5 314.6 317.6 321.1 324.2 322.6 321.6 323.9 327.3 330.6 333.8 336.7 338.2 341.2 345.5 351.2 359.8 368.2 361.7 361.2 360 357.6 355.8 355.2 360.7 375.8 386.4 402.7 415.7 413.8 402.1 380.9 364.5 363.1 364 361.5 354.3 345.5 345.7 343.9 339.4 338.8 341.4 332.9 329 329.7 338.2 347.5 355.6 363.6 371.9 383.6 398.5 405.2 412 423.6 440.2 451.5 454.3 451.7 444.5 438.1 431.5 424.8 418.5 410.1 404.5 399.3 391.8 389.6 388.4 384.9 381.8 383.7 381.4 383.2 384.5 382.2 370.3 356.7 348.6 343.1 330.6 319.5 311.6 308.5 308.5 308.2 298.3 291.7 273 253.2 242.7 233.3 223.8 214.9 189.3 156.8 126.1 105.8 114.1 90.1 71.6 60.8 35.1 26 15.3 15.3 15.3 15.3 15.3 15.3 15.3 15.3 15.3 15.3 15.3 15.3 15.3 15.3 15.3 15.3 15.3 15.3 15.3 15.3 15.3 15.3 15.3 15.3 15.3 15.3 15.3 15.3 15.3 15.3 15.3 15.3 15.3 15.3 15.3 15.3 15.3 15.3 15.3 15.3 15.3 15.3 15.3 15.3 15.3 15.3 20.4 27.8 34.5 44.4 54.4 63.7 71.3 79.3 88.4 96.2 102.8 109.7 116.8 122.4 127.6 131.8 140.7 150.4 156.9 163.5 170.8 177.3 183.7 189.1 194 197.8 199.8 202.1 200.2 197.9 197 202.7 208.7
272 278.7 283.2 288.5 291.6 299.1 306.7 314 314.5 314.9 317.2 321 323.1 319.6 313.7 311.8 313.3 316.2 320.3 321 319.9 319.5 322.1 325.3 328.5 331.5 333.8 335.4 340.1 345.6 353.8 368.2 364 362.7 367.5 367 357.3 355.1 354.4 359.4 375.2 388.4 400.6 402.1 398.7 389.8 373.3 365.9 366.1 366.6 360.5 352.8 344.6 339.1 338 337.1 338.7 342 328 327.5 328.4 334.5 344.6 352.6 359.5 369.2 381.5 392.9 401.1 413.5 425.9 446.5 456.8 459.1 459.4 452.4 441.2 433.6 428.9 423.3 420.2 417.9 413.3 406.3 401.1 398.2 396.5 400.3 399.2 394.8 392.5 393.3 390.9 382.1 370.4 362.2 355 344.7 331.3 318.3 315.7 316.4 313.9 305 297.3 292.1 262 242 237.6 223.5 210.8 186 161.9 127.7 99.8 83.5 75 65.5 40.9 27.8 20.3 15.3 15.3 15.3 15.3 15.3 15.3 15.3 15.3 15.3 15.3 15.3 15.3 15.3 15.3 15.3 15.3 15.3 15.3 15.3 15.3 15.3 15.3 15.3 15.3 15.3 15.3 15.3 15.3 15.3 15.3 15.3 15.3 15.3 15.3 15.3 15.3 15.3 15.3 15.3 15.3 15.3 15.3 15.3 15.3 15.3 15.3 24.9 30.7 40.3 50.5 60 69.4 78.1 86 94.9 101.8 107.8 113.8 121.1 126.8 132.5 139.4 148.1 156 162.7 169.4 175.6 182.8 189 193.1 196.8 198.7 200.5 198.8 195.2 195.6 201.6 205.7 207.8
278.5 282.9 288.6 290.6 294.3 305.4 313.7 316.7 316.4 316.3 315.9 320.9 318.4 312 309.4 308.9 310.6 314.4 316.4 316.6 316.7 317.9 320.3 323.2 325.9 328.7 330.8 334.3 339.7 350.6 362.5 366.4 361.7 368.4 375.1 370.8 360.4 357.6 352.5 358.4 371.6 381.4 394.1 402.8 390.3 382.2 369.1 366 367 364.3 359 352.3 344.5 337.5 336.4 334.3 330.8 329.8 326.4 326.5 327.9 334.8 341.9 349.7 358 366.9 376.1 385.9 399.2 415.1 436.1 448.8 456.6 460.4 463.3 452.8 442.5 436.8 433.7 429.9 428.8 425.6 422.2 414.7 408.7 408.2 409.7 408.9 405.8 402.9 397.9 396.6 391.4 385.6 377.8 366.3 357.7 355.1 343.1 327.1 322.4 322.2 320.4 314 303 290.6 254.6 235.5 231.8 219.2 200.5 177.6 157.3 130.6 94.3 72.9 60.1 47.1 27.8 21.3 15.3 15.3 15.3 15.3 15.3 15.3 15.3 15.3 15.3 15.3 15.3 15.3 15.3 15.3 15.3 15.3 15.3 15.3 15.3 15.3 15.3 15.3 15.3 15.3 15.3 15.3 15.3 15.3 15.3 15.3 15.3 15.3 15.3 15.3 15.3 15.3 15.3 15.3 15.3 15.3 15.3 15.3 15.3 15.3 15.3 15.3 20.1 28.9 36.1 46.3 56.4 65.3 76 84.8 92.8 101 106.9 112.9 118.8 124.9 131.2 138.5 146.7 154.1 161.4 168.2 175.3 181.5 187 192.2 195.3 199.1 200.7 197.7 193.9 197.3 199.4 202.8 205.1 210.4
283.9 283.8 288.1 291.4 298 309.8 316 316.1 316.6 314.2 314.3 314.8 310.8 307.2 305.7 306 307.4 309.9 311.7 313.1 314.4 316.5 318.4 320.1 321.9 324.4 326.9 332.3 338.6 354.7 359.8 356.8 363.4 374.7 379.6 368.6 364.5 363.4 350.3 354.9 369.6 384.9 395.6 391.1 383.6 375.1 366.9 362.2 358.7 355.8 352.7 350 341.6 336.7 336.4 337.7 333.2 325.7 325.4 326.9 330.1 335.7 341.2 349.2 357.6 367.4 375.6 386.1 403.1 420.4 433.8 440.4 450.5 458.8 456.5 445.9 441.8 436.9 433.5 431.4 430.7 430.5 429 422.7 416.1 419.5 415 410.8 408.9 406.3 399.6 397 388.7 384.5 378.5 365.9 360.4 358.1 347.6 338.8 329.3 329 323 316.2 307.1 292.3 252.1 225.8 219.3 212.3 195.9 169.4 134.5 105.7 85.4 69 42.4 29.1 22.6 16.6 15.3 15.3 15.3 15.3 15.3 15.3 15.3 15.3 15.3 15.3 15.3 15.3 15.3 15.3 15.3 15.3 15.3 15.3 15.3 15.3 15.3 15.3 15.3 15.3 15.3 15.3 15.3 15.3 15.3 15.3 15.3 15.3 15.3 15.3 15.3 15.3 15.3 15.3 15.3 15.3 15.3 15.3 15.3 15.3 15.3 18.8 25.7 33.9 44.6 54.3 62.9 71.6 82.7 91.6 99.2 105.3 111.7 117.8 123.9 129.8 136 144.2 151.8 158.5 166.3 173.2 179.7 186.2 190.8 195.1 197.9 199.8 197.6 193.8 192.4 195.8 198.1 202.5 208.3 213.5
284.3 285 290.6 293.7 300.4 305.2 310.3 314.2 311.4 308.2 308.9 308.4 304.9 303 302.7 303.4 305.4 307.7 309.7 311.5 313 315.7 315.2 316.7 318.3 320.5 324.2 330.8 338.9 345.6 350 353.4 358.9 366.4 369 360.4 355 348.1 347.9 353.9 367.1 381.8 387.8 388.7 383.5 371.8 369 365.1 358.3 348.7 341.6 339.8 334.2 331.5 333.2 334.3 327.3 326.1 325.5 328.5 331.5 334.9 341.4 350 357.8 366.2 374.8 386.2 398.6 410.3 423.2 430.9 435 443.5 445.4 441.6 437.6 437.1 429.9 429.2 431.7 431.1 430.3 427.2 424 420.5 416.7 410 408.5 406.7 398.9 395.1 391 383.8 377.5 366.3 361.3 356.5 350.8 340.5 335.8 333.6 325.2 318.2 309.2 297.9 256.6 217 202.6 192 165.1 142.1 110.8 92.7 77.6 61.3 35.1 23.1 17.4 15.3 15.3 15.3 15.3 15.3 15.3 15.3 15.3 15.3 15.3 15.3 15.3 15.3 15.3 15.3 15.3 15.3 15.3 15.3 15.3 15.3 15.3 15.3 15.3 15.3 15.3 15.3 15.3 15.3 15.3 15.3 15.3 15.3 15.3 15.3 15.3 15.3 15.3 15.3 15.3 15.3 15.3 15.3 15.3 15.3 16.6 23.8 31.5 41.8 52.1 62.7 70.7 78.2 88.4 96.2 102.5 108.8 115.8 122 128.2 134.3 141.3 149.3 156 163 170.8 178.5 185.2 190.2 194 197.1 198.9 196.6 193.6 191.9 194.9 199.4 204.5 210.7 216.5 219.4
280.8 288.2 290.7 292.3 297.7 299 304.4 309.8 303.9 304 304.1 302.1 299.8 299.7 300.4 301.4 303.4 305.5 307.5 309.5 311.8 312.8 312.4 313.3 314.9 316.6 321 330.5 338.3 345.6 349.9 350 355.2 363.5 362.4 353.6 347.3 344.5 346.7 354.2 363.9 380.5 392.2 385.8 376.6 374.5 372.7 364.9 359.2 348.7 331.3 324.7 324.7 324.7 324.7 323.7 328.3 326.3 330 330.6 332 335.2 341.3 349.4 357.2 364.6 374.4 384.2 393.8 402.8 414.4 423.1 426.5 432.9 436.8 436.9 431.3 430.8 426.6 427.8 431.9 435.2 428.1 423.9 420.8 415 409 405.5 404 402.4 399.3 397.6 389.3 381.6 376 366 358.1 355.5 350.4 340 337.4 334.3 322.4 311.6 299.6 289.4 251 213.5 184.8 160.6 143.2 124.5 102.8 86.3 71.3 51.7 26.5 15.6 15.3 15.3 15.3 15.3 15.3 15.3 15.3 15.3 15.3 15.3 15.3 15.3 15.3 15.3 15.3 15.3 15.3 15.3 15.3 15.3 15.3 15.3 15.3 15.3 15.3 15.3 15.3 15.3 15.3 15.3 15.3 15.3 15.3 15.3 15.3 15.3 15.3 15.3 15.3 15.3 15.3 15.3 15.3 15.3 15.3 15.3 20.8 27.6 37.5 49.6 59.1 70.6 78.4 85.8 92.3 98.9 105.5 112.8 120 126.2 133.2 140.4 147.3 154.2 161.4 168.1 175.6 183.3 188.4 193.1 195.6 197.9 196 192.9 192.8 196.9 201.2 205.8 210.9 216.1 220.5 226.5
281.6 288 289.5 289.9 291.9 293.5 299.9 301.8 300.1 300 298.7 296.6 297 298.4 299.4 299.7 301.4 303.7 306 308.2 309.8 310.8 310.1 309.3 310.8 312.8 320.6 328.6 342.6 350.1 346.3 347.4 353 350.5 345.9 345.4 342.8 345.6 349.7 352.1 360.3 376.7 381.3 375.5 374.4 381.2 376.9 369 358.8 344.3 331.4 324.7 324.7 324.7 324.7 324.7 325.8 332.1 332.3 331.3 332.7 336.5 343.1 350.1 357 364.2 374.4 385.1 394.2 402.4 408.2 414 419 425.4 428.8 431.1 429.8 425 423.5 424.9 438.3 435.5 429.9 424 420.3 414.9 407.7 401.5 401.8 401.1 398 391.7 383.5 377.1 369.5 362.2 357 353.7 348.5 336.9 332.3 324.7 315.4 300.1 289 278.2 244.6 206.6 179.6 153.2 124.4 107.9 93.5 79.1 61.3 40.6 20.2 15.3 15.3 15.3 15.3 15.3 15.3 15.3 15.3 15.3 15.3 15.3 15.3 15.3 15.3 15.3 15.3 15.3 15.3 15.3 15.3 15.3 15.3 15.3 15.3 15.3 15.3 15.3 15.3 15.3 15.3 15.3 15.3 15.3 15.3 15.3 15.3 15.3 15.3 15.3 15.3 15.3 15.3 15.3 15.3 15.3 15.3 18 24.3 33.4 44.4 54.6 66.2 77.4 83.9 90.3 95.8 102.3 109.6 117 124.3 131.9 139.1 146.1 152.9 159.8 166.8 173.4 180.8 186.3 191.1 194.3 194.6 194.7 192.4 192.1 197.5 201.4 204.4 208.4 213.9 219.8 226 230
280.4 286 288.6 289.8 290.5 290.2 295.8 297.1 296 294.7 293.2 292.5 295.4 297.9 297.5 297.7 300 302.3 304.7 306.8 307.7 308.8 307.4 306 306.9 309.1 316.8 330.1 344.1 341.7 339.1 344.6 349.6 338.8 338.5 339.2 344 354 352.3 351.4 357.2 370.5 370.8 372 383.2 383.9 376.2 372.6 359.2 344.1 330.7 324.7 324.7 324.7 324.7 330.3 337 335.5 333.1 333.7 334.3 338.6 343 349.3 356.8 364.3 374.9 385.4 393.7 399.3 403.4 407.9 412.1 419.2 424.9 425 427.3 422.7 422.2 426.1 436 430.1 428.8 425 420.4 415.3 402.2 397 397.1 396.4 388.4 384.7 378.6 367.3 360.4 356.7 355.3 350.1 345.6 331 322.7 315.3 307.4 297.9 279.5 260.3 238.1 207.2 172.7 140.5 116.4 98.2 83 68.8 51.1 27.9 15.3 15.3 15.3 15.3 15.3 15.3 15.3 15.3 15.3 15.3 15.3 15.3 15.3 15.3 15.3 15.3 15.3 15.3 15.3 15.3 15.3 15.3 15.3 15.3 15.3 15.3 15.3 15.3 15.3 15.3 15.3 15.3 15.3 15.3 15.3 15.3 15.3 15.3 15.3 15.3 15.3 15.3 15.3 15.3 15.3 15.3 16.4 21 28.5 39.8 51.2 61.4 71.7 81.8 88.5 94.4 99.6 106.9 114.2 121.6 128.9 136.7 143.6 150.1 156.7 164.3 171.4 178.8 185.2 189.4 192.8 194.8 194.6 190.5 190.9 194.7 198.8 202.8 209.1 213.2 218.2 225 228.2 230.3
277.7 281.7 285.1 287.3 287 287.4 290.4 291 290.4 289 289.6 292.5 294.4 297.2 296.2 296.5 298.8 301.1 303.3 304.7 305.6 306.5 304.1 303.2 304.8 306.3 313.3 327.5 335.1 335.6 334.1 341.7 334.1 331.2 333.9 340.6 352.8 355 351.4 350.5 356 362.5 367.3 376.7 385.5 381.5 380.8 373.8 355 341.9 332.7 324.7 324.7 330.5 341.4 344.3 339.7 335.2 335.1 335.4 335.7 338.1 342.3 348.1 355.6 365 376.4 385.2 391.9 395.2 398.5 402.6 406.5 410.1 421.4 420.1 420 419.1 418.9 428.4 433 427.9 426.1 422.7 420.1 409.8 394.4 389.8 383.7 379.3 377.6 373.8 367.1 358.1 355.5 351.7 346.2 343.2 334.1 321.9 313 305.5 295.6 283.3 268.4 250.5 224.6 206.8 166.8 127.8 102.9 86.3 71.6 58.8 38.4 20.8 15.3 15.3 15.3 15.3 15.3 15.3 15.3 15.3 15.3 15.3 15.3 15.3 15.3 15.3 15.3 15.3 15.3 15.3 15.3 15.3 15.3 15.3 15.3 15.3 15.3 15.3 15.3 15.3 15.3 15.3 15.3 15.3 15.3 15.3 15.3 15.3 15.3 15.3 15.3 15.3 15.3 15.3 15.3 15.3 15.3 15.3 18.1 23.6 33.7 46.5 58 67.3 75.3 84.6 91.3 97.3 105.8 112.9 120.2 127.6 134.2 140.7 147.5 154.4 161.7 169.2 176.3 183 188.1 191.5 193.3 192.2 189.4 189.1 193.1 198.1 201 204.9 211.1 217 222.8 227.3 226.6 226.5
273.5 276.3 281.8 281.7 281 283.1 284 284.1 284.4 285.3 286.6 293.6 295.9 295.7 293.8 295 297.2 299.5 302.9 304.8 306.3 304.3 300 299.2 300.1 302.7 310.6 324.6 327.1 327 329.1 326 326.2 324 329.3 338.2 346.6 347.1 347.8 349.9 353.9 360.3 366.4 381.6 383.7 384.3 383.3 372.9 352.6 339.5 327.7 324.7 328.7 344 347.1 342.9 337 334.3 335.2 335.9 336.2 338 341.7 347.6 355.7 366.5 376 383.5 387.6 389.8 393.1 401 403.1 404.1 409.9 414.9 415.3 412.7 409.8 418.6 425.7 422.8 421.7 415.6 410.8 404.7 392.1 385.3 378.5 369.3 367.2 365.5 357.2 354.9 355.1 352.1 344.1 331.6 324.6 311.5 302.3 294.2 280.1 267.1 251.7 236.5 202.4 170.9 144.4 109.7 90.7 76.1 61.9 47.1 32.4 15.3 15.3 15.3 15.3 15.3 15.3 15.3 15.3 15.3 15.3 15.3 15.3 15.3 15.3 15.3 15.3 15.3 15.3 15.3 15.3 15.3 15.3 15.3 15.3 15.3 15.3 15.3 15.3 15.3 15.3 15.3 15.3 15.3 15.3 15.3 15.3 15.3 15.3 15.3 15.3 15.3 15.3 15.3 15.3 15.3 15.3 15.3 20.6 27.2 39.3 52.3 62.7 70.2 78.1 86.6 93.8 101.8 111.7 119.5 126.4 133.5 140 146.4 152.9 160.1 170.1 173.9 179.2 185.5 189.4 191.6 190.1 189.1 187.1 191.1 195.1 199.4 203.8 207.1 212.9 219.3 223.2 224.6 225.3 226.1
269.6 272.7 274.7 275.8 277 278.7 279.2 279.1 279.8 279.9 288.4 294.9 294.8 293.1 291.8 293.7 295.7 299.5 302.5 304.5 304.7 300.7 298.9 296.9 296.9 300.8 306.5 313 313.9 315.1 313.6 314.6 316.1 321.4 326.2 331.9 339.9 345.7 344.7 346.6 351.5 357.2 367.9 377.8 381.4 376.7 376 361.1 348.2 334.9 324.5 326.7 345.3 343.8 341.3 336.4 334.6 333.6 334.6 335.6 336.6 338.5 342.1 348.7 356.1 365.5 372.9 378.4 379.4 381.2 385.3 395 400 400.4 407.1 407.8 408.5 404 401.4 403.5 409 409 411.8 407.2 402.5 402 397.3 386.3 373.3 362.5 355.8 357.6 352 350.8 350.9 343.4 333.8 319 308.2 299.4 289.5 282.7 268.9 252.6 229.9 208.5 178.7 147.9 120.5 96.4 80 66.8 53.6 37.2 17.4 15.3 15.3 15.3 15.3 15.3 15.3 15.3 15.3 15.3 15.3 15.3 15.3 15.3 15.3 15.3 15.3 15.3 15.3 15.3 15.3 15.3 15.3 15.3 15.3 15.3 15.3 15.3 15.3 15.3 15.3 15.3 15.3 15.3 15.3 15.3 15.3 15.3 15.3 15.3 15.3 15.3 15.3 15.3 15.3 15.3 15.3 15.3 24.4 38.4 50.1 58.2 66.2 74.1 82.4 90.3 99.3 108.9 116.2 123.8 132.2 138.7 145.5 152.1 158.1 165.3 171.8 177.9 183.1 187.3 189.7 189.2 186.9 185.2 188.5 193.3 198.5 199.2 203.4 207.7 211.1 216.5 221.9 224 225.5 226.3
265.7 268.9 270.9 272 273 274.2 275.1 274.5 274.4 279 292.2 292 291 289.2 290.5 292.4 295.3 298.5 302.4 303.5 301.5 298.8 297.7 295.1 291.7 295.1 300.2 305 308.2 309.7 310.5 311.1 313.6 319.2 328.2 335.9 344.5 342.9 338.8 342.8 348.3 355.9 368 373.2 372.8 367.1 363.7 357.8 338.8 324.1 327.3 339.8 346.9 333.9 330.5 331.5 333.2 333.6 335.2 336.6 337.7 339.1 343.3 349.9 356 363.9 369 372.4 374.6 377.2 379.5 383.7 392 393.1 394.9 400.1 399.6 396.6 394.2 395.5 399.7 397.3 397.6 398.9 396.2 394.9 393.7 385.2 367.2 353.8 350.6 345.8 344 338.3 337 331.3 315.7 304.2 292.2 284.8 277.7 270.7 259.4 238.4 211.1 179.1 156.8 125.5 102.5 85.2 69.5 56.6 40.8 19 15.3 15.3 15.3 15.3 15.3 15.3 15.3 15.3 15.3 15.3 15.3 15.3 15.3 15.3 15.3 15.3 15.3 15.3 15.3 15.3 15.3 15.3 15.3 15.3 15.3 15.3 15.3 15.3 15.3 15.3 15.3 15.3 15.3 15.3 15.3 15.3 15.3 15.3 15.3 15.3 15.3 15.3 15.3 15.3 15.3 15.3 15.3 20.3 30.2 45 55.3 63.2 70.6 78.7 88.1 96.2 105.1 113.9 121.2 128.5 137.1 143.3 150 155.8 161.9 167.8 173.7 181.1 185.9 188.3 187.5 185.4 183.6 185.6 188.4 192.7 195.4 197.7 202 211 218.4 224.2 223.9 225.9 226.4 227
262.1 264.8 267 268.2 269.1 270 270.7 269.1 271.3 279.8 281.8 284.3 285.3 288 289.9 291.8 294.2 297.6 299.1 298.2 296.1 295.8 295.4 293.8 286.8 289.5 293.8 299.3 304 309.4 310.1 308.1 311.3 321 323.8 324.6 330.8 332.1 332.2 341.7 346 355.7 363.8 367 368.3 367.2 364 347.8 330.8 325.4 333.4 340.2 331.3 326.6 324.7 327.2 332 334.9 336.8 338.2 338.8 339.8 344.4 349.9 355 362 365.8 368.7 370.9 376.7 379 380.1 379.5 384.4 384.4 387.2 385.1 382.6 383.5 386.8 400.7 393.8 390.1 386.5 386.6 383.3 383.5 379.1 359.7 346.2 342.2 331.7 326 322.3 318.6 311.7 300.7 286.6 273.6 266.9 262.8 255.9 243 223.5 192.4 154.9 134.4 109.9 92 75 61 45.3 28 15.3 15.3 15.3 15.3 15.3 15.3 15.3 15.3 15.3 15.3 15.3 15.3 15.3 15.3 15.3 15.3 15.3 15.3 15.3 15.3 15.3 15.3 15.3 15.3 15.3 15.3 15.3 15.3 15.3 15.3 15.3 15.3 15.3 15.3 15.3 15.3 15.3 15.3 15.3 15.3 15.3 15.3 15.3 15.3 15.3 15.3 15.3 15.3 24.9 39.8 52.2 60.7 67.7 75 85.5 94.6 102 110.4 118.6 126.2 134 141.5 147.7 153.3 159.3 165.7 171.7 177.7 183.3 186.4 185.7 183.4 182.3 183.3 185.6 188.1 192.5 199 204.9 211 217.4 223.8 224.7 226.1 227 227.8 228.3
258 260.6 263.2 264.3 265.3 265.9 264.2 262.8 266.7 273.1 276.4 279.9 284.2 287.5 289.5 291.3 293 293.4 293 292.8 294.4 294.7 294.9 290.9 285.1 283.1 287.4 297 307.4 310.6 311.3 306 304.8 309.8 313.7 313.6 318.8 321.9 328.2 337 342.8 350.5 356.4 359.3 368.7 370.9 358.1 338.6 325.9 325.7 332.4 329.2 322.8 322.2 323.6 330.7 335.9 338.9 338.3 339.3 339.8 340.7 344.9 348.4 353.9 359 362.6 365.3 368.4 372.7 375.9 381.6 379.3 377.4 373.2 371.4 370.7 371.5 375.3 381.6 384.3 386.4 387.7 382.3 381.6 375.8 371.4 361.4 351.4 342.8 332 323.1 317.3 312.9 306.6 297.1 285.2 272.1 261 252.9 242 230.6 216.5 197.8 170.2 143.2 115.3 95.8 78.7 65.9 49.7 32.7 15.3 15.3 15.3 15.3 15.3 15.3 15.3 15.3 15.3 15.3 15.3 15.3 15.3 15.3 15.3 15.3 15.3 15.3 15.3 15.3 15.3 15.3 15.3 15.3 15.3 15.3 15.3 15.3 15.3 15.3 15.3 15.3 15.3 15.3 15.3 15.3 15.3 15.3 15.3 15.3 15.3 15.3 15.3 15.3 15.3 15.3 15.3 15.3 16.9 31.5 47.7 58 65.3 72.2 79.7 91.6 100.8 107.7 114.1 122.4 131.2 138.8 145.5 151.7 156.7 163.1 169.6 175.9 181.7 185.2 184.3 182.5 181.1 181.6 184.6 189.6 194.6 199.5 208.1 213.5 216.4 221.3 225 225.9 226.8 227.9 228.8 229.7
254.2 256.7 258.6 260 260.4 259.7 256.7 257.9 263.5 268.3 271.1 277.7 282.3 284.5 286 287.8 290.1 288.7 289.3 292.1 294.6 293.9 293.5 289.6 281.6 276.7 285 299.1 307.6 317.5 313.7 296.8 295.1 298.4 299.9 304.3 308.3 308.8 323.1 332.5 339.4 347.3 353.4 366 368.6 364.4 351 327.6 317.9 322.6 321.1 319.3 317 320.7 327 336.2 341 340.3 340.3 340.9 340.9 341.1 337.5 344.3 351.3 356 360.5 363.6 367.3 373.4 379.1 387.6 386 379.2 372.8 366.9 364.6 364.7 362.3 368 373.3 375.2 378 376.5 373.3 371.2 360.4 352.6 345.6 334.7 323.8 315.1 309 301.4 293.9 282.7 275.4 266.8 252.7 248 242.1 230.3 221.8 196.3 180.4 146.4 104.5 78.9 67 51.1 35.9 15.3 15.3 15.3 15.3 15.3 15.3 15.3 15.3 15.3 15.3 15.3 15.3 15.3 15.3 15.3 15.3 15.3 15.3 15.3 15.3 15.3 15.3 15.3 15.3 15.3 15.3 15.3 15.3 15.3 15.3 15.3 15.3 15.3 15.3 15.3 15.3 15.3 15.3 15.3 15.3 15.3 15.3 15.3 15.3 15.3 15.3 15.3 15.3 15.3 22.7 38.8 53.7 62 69.7 78.3 86.8 95.8 104.4 113.9 120.4 126.6 134 142.2 149.1 155 160.3 166.8 173.2 178.8 183.5 182.5 180.8 179.8 181.8 183.8 188.9 193.7 197.1 202 208.6 217.1 221.3 225.3 226.4 226.5 227.5 228.6 229.6 232.6
250 251.9 253.9 254.8 255 252.6 251 254.4 259.5 264.1 268.7 273.6 278.6 280.3 282.1 283.8 284.9 287 288.5 292.5 293.5 292.2 290.6 287.2 278.4 271.5 283.6 298.1 305.1 309.9 303.3 285.9 282.4 286.4 290.3 294.2 298.2 304.5 316.5 326.7 333.9 340.8 350.1 363.2 362.1 346.4 334 323.4 318.3 315.3 311.5 312.3 314.9 323.3 334.9 340 341.6 340.6 341.4 341.7 343.5 342.1 335.4 339.4 347.4 354.4 359.3 361.7 369 379.5 389 393.3 395.5 389.1 380.6 368.6 362.8 360 356.2 356.9 360.9 361.8 360.8 362.1 360.6 358.7 348.9 339.7 337 325 316.2 308.5 294.9 286.5 280.7 271.6 265.7 257.2 245.7 238.1 231.5 220.1 212.1 187.3 158.3 130.6 98.6 73.4 53.7 39.9 15.3 15.3 15.3 15.3 15.3 15.3 15.3 15.3 15.3 15.3 15.3 15.3 15.3 15.3 15.3 15.3 15.3 15.3 15.3 15.3 15.3 15.3 15.3 15.3 15.3 15.3 15.3 15.3 15.3 15.3 15.3 15.3 15.3 15.3 15.3 15.3 15.3 15.3 15.3 15.3 15.3 15.3 15.3 15.3 15.3 15.3 15.3 15.3 15.3 15.3 27 44.5 56.3 65.7 75.3 85 93.3 100.3 108.3 118.7 127 134 138.2 142.1 150.1 157.4 162.9 169.9 176.1 179.6 182 180.5 180.3 181.3 184.2 187 191.9 196.3 199.7 204.4 211.3 218.9 224.7 227.6 227.5 227.5 228.4 229.4 232.1 236.2
247.5 248.1 249.1 250.3 247.1 244.9 246.3 251.4 257 262.4 266.1 270.6 275.2 277.8 280.4 281.2 282.4 286.3 290.1 291.9 291 290.2 290.4 285.5 275.3 265.4 277.7 291.6 296.3 293 282.8 277.3 274.3 279.8 284.4 289 294.6 301.6 314.6 320 328.1 342.7 353.2 353.1 343.3 338.7 325.7 319 307.4 306.7 306.7 310.8 318.1 330.7 338.3 341.4 340.5 340.9 341.9 344.5 345.9 335.3 330 339.4 347.6 354.1 358.8 361.6 375.2 390.1 398 407.1 405.4 397 384.7 369.2 362.1 361 351.4 347.5 354.2 348.3 345.9 346.8 342.5 345.7 339.6 330.8 321.5 316.3 306.2 300.1 287.3 277.7 269.7 263.2 257.6 250.2 236.3 227.2 218.9 207.4 195.2 168.8 145.8 112.2 88.9 61.4 42.2 17.7 15.3 15.3 15.3 15.3 15.3 15.3 15.3 15.3 15.3 15.3 15.3 15.3 15.3 15.3 15.3 15.3 15.3 15.3 15.3 15.3 15.3 15.3 15.3 15.3 15.3 15.3 15.3 15.3 15.3 15.3 15.3 15.3 15.3 15.3 15.3 15.3 15.3 15.3 15.3 15.3 15.3 15.3 15.3 15.3 15.3 15.3 15.3 15.3 15.3 22.6 36.2 52.1 61.2 70.5 79.9 89.7 99.3 106.1 113.6 124.1 132.4 139.6 142.7 144.9 149.1 156.3 164.1 172.1 177.9 179.4 178.4 179.5 182.7 185.4 188.8 192.7 197.2 199.7 205 209.3 216 223.2 227.1 227.6 228.1 228.9 229.7 231.2 235.5 238.5
246.1 246.8 246.2 243.4 240.3 240.2 244.3 250.5 256.1 260.6 264.9 269.4 272.7 275.3 278.5 280.8 282.9 286.8 290.7 289.3 288.9 289.1 289.1 284.1 272.5 260.4 270.5 278 276.4 270.4 269.8 270.3 271.3 276.2 279.5 284.1 291.8 303.7 311.4 319.2 328.4 338.5 342.3 337.3 330 325.8 313.8 303.2 297.1 301.9 307.3 314.1 326.5 332.4 338 339.1 340.3 341.6 343.8 348.2 341.2 329.7 329.7 338.3 347.7 356 358.2 363.4 379.6 394 401.4 409 410.2 401.8 391.9 374.5 361.6 360.8 346.8 339.7 337.9 338.1 334.3 335.1 333.5 330.8 326 318.7 307.7 300 293.5 287.7 277.4 271.8 265.1 256.5 250.9 241.9 227.2 213.8 201.7 190.4 173.6 149.6 124.3 94.1 72.1 43.5 23.8 15.3 15.3 15.3 15.3 15.3 15.3 15.3 15.3 15.3 15.3 15.3 15.3 15.3 15.3 15.3 15.3 15.3 15.3 15.3 15.3 15.3 15.3 15.3 15.3 15.3 15.3 15.3 15.3 15.3 15.3 15.3 15.3 15.3 15.3 15.3 15.3 15.3 15.3 15.3 15.3 15.3 15.3 15.3 15.3 15.3 15.3 15.3 15.3 15.3 20.2 31.7 46.2 57.8 67.3 75.5 84.6 94.4 105.2 111.8 119.5 130 137.7 144.4 146.6 148.7 152.5 156.8 164.3 172.3 177.4 176.6 179 182 186.2 191.6 195.4 199.9 202.9 202.6 206.7 214.6 222 226.6 227.6 228.5 229.5 230.3 232 235 238.8 239.9
243.4 243.3 241.4 238 236.4 239.2 244.8 250.3 255.2 259.6 262.9 266.8 269.8 272.8 275.8 279.2 284.2 289.4 288.1 286 286.9 290 288.5 282.4 271.2 259.2 262.2 263.4 263.3 261.4 261.9 263.7 268.6 272.2 275.7 280.1 293.3 302.6 309.8 315.6 327.4 331 327.6 326.8 320.7 312.6 298.5 294.7 289.6 301.4 306.5 314.6 324.3 331.3 334.7 338.3 340.5 342.7 348.7 351.5 336.5 325.2 327.3 336.1 349.5 354.4 357.4 367.2 380 394.7 400.9 404.5 408.4 404 388.6 375.8 361.8 356.4 342.1 331.6 329 329.7 326.5 326.4 321.5 315.7 312.2 310.7 298.4 287.3 285.1 280.4 271.2 265.7 258.7 249.9 245 230.6 211.1 198.6 184.2 170.6 147.7 125.4 101.6 77.4 55 35.6 15.3 15.3 15.3 15.3 15.3 15.3 15.3 15.3 15.3 15.3 15.3 15.3 15.3 15.3 15.3 15.3 15.3 15.3 15.3 15.3 15.3 15.3 15.3 15.3 15.3 15.3 15.3 15.3 15.3 15.3 15.3 15.3 15.3 15.3 15.3 15.3 15.3 15.3 15.3 15.3 15.3 15.3 15.3 15.3 15.3 15.3 15.3 15.3 15.3 16.8 27.1 40.9 53.1 63.5 73.3 81.5 89.7 99.4 109.3 117.5 126 135.7 142.5 148.4 150.1 152.7 157.7 163 165.9 171.2 173 177.3 181.8 186.4 192.5 197.3 201.9 206.4 207.9 209.5 213.4 221.4 226.1 228.7 229.4 230.2 230.9 232.7 235.1 238.8 239.9 241
239.9 238.5 235.3 233.2 234 239 244.7 249.9 254.4 257.4 260.9 264.9 268.2 270.9 274.6 279.6 285.5 291.4 284.3 282.6 288.8 290.9 287.5 280.2 267 254.6 253.7 257 256.6 257.2 259.6 262.6 265.1 267.7 274.2 284.3 292.8 299.3 306.5 314.5 320 322 315.3 316.7 312.3 297.5 290.9 288.9 296.8 301.1 304.6 315 323.5 329.2 331.4 335.8 339.1 345.2 355.3 346.7 331.7 321.8 324 335.9 348.6 351.8 356.7 368.8 378.8 391.9 394.4 400.8 403.1 396.2 383.5 366.5 356.6 352.7 337.2 326.9 322.6 322.2 318.7 316.5 316.4 305.1 302.8 302.6 292.1 282 278 270.8 263.7 256.5 245 235.6 227.8 218 191.9 182.8 168.3 156.3 129.7 110.6 91.2 65.9 42.5 20.4 15.3 15.3 15.3 15.3 15.3 15.3 15.3 15.3 15.3 15.3 15.3 15.3 15.3 15.3 15.3 15.3 15.3 15.3 15.3 15.3 15.3 15.3 15.3 15.3 15.3 15.3 15.3 15.3 15.3 15.3 15.3 15.3 15.3 15.3 15.3 15.3 15.3 15.3 15.3 15.3 15.3 15.3 15.3 15.3 15.3 15.3 15.3 15.3 15.3 23.8 36.8 47.8 59.3 69.5 79.3 87.3 95.5 105.1 113.4 122.7 132 139.8 147.3 150.6 153.1 157.1 162.1 167.1 171.6 175.6 178.4 182.3 186.8 192.6 198.4 202.8 207.2 209.7 210 211.2 218.8 226.4 228.9 230.1 230.9 232.8 234.8 236.3 239.6 241.2 242.1 242.3
236.2 231.9 229.4 227.6 232.7 238.5 244 248.4 252.6 255.5 260.1 263.4 267.5 270.6 275.8 282.1 290.1 287.9 278.8 279.7 289 290 284.6 279 263 250.2 244.1 247.5 249.8 255.3 257 259.7 262.6 267.7 274.7 285.2 289 297.1 302.9 306.6 312.7 308.3 308.2 308 290.1 286.6 285.7 291.7 296.1 300 305.1 316.7 321.8 324.4 327.6 334.7 341 348.3 361.8 338.6 327 317.6 319.7 331.1 346.2 346.3 354.1 365.4 375.8 384.3 384.7 387.8 390.1 387 381 359.8 350.5 344.8 331.3 326.3 319.8 314.4 309.5 304.9 305.3 297.2 291.1 289.6 284.1 276.5 267.1 263.5 256.5 248.3 234.6 223.3 208 194.4 178.3 162.8 148.3 134.8 115 98.8 82.1 44.6 25.7 15.3 15.3 15.3 15.3 15.3 15.3 15.3 15.3 15.3 15.3 15.3 15.3 15.3 15.3 15.3 15.3 15.3 15.3 15.3 15.3 15.3 15.3 15.3 15.3 15.3 15.3 15.3 15.3 15.3 15.3 15.3 15.3 15.3 15.3 15.3 15.3 15.3 15.3 15.3 15.3 15.3 15.3 15.3 15.3 15.3 15.3 15.3 15.3 15.3 20.4 31.6 44.1 54.7 65.8 75.3 84 92.6 102.6 112.6 121.5 129.9 137.4 144.8 149 152 154.3 159.3 164.6 169.8 173.8 177.4 182 187.1 193.5 200.7 205.8 209.3 210.2 210.8 211.1 219.3 225.4 229.7 230.9 232.1 233.9 235.4 237.8 240.5 242.7 242.7 243 243.3
230.1 226.6 224.9 227.6 233.1 238.3 242.4 246.6 250.8 254.4 259 262 266.4 272.1 279 287.7 291.6 283.4 274.7 275.4 277.9 278.6 280.2 271.4 262.1 247.3 240.6 237.7 247.1 250.9 253.1 258.1 262.6 267.5 274.7 278.5 281 292.9 302.4 298.5 295.6 302.8 302.6 292.1 282.3 278.3 287.8 292.5 295.7 299.8 307.6 313.3 314.7 318.6 324.9 331.3 341.9 358.8 352.1 334.9 324.1 313.6 314 320.9 331.9 340 348.5 360 369.5 375.8 378.6 377.2 380.4 382.6 378.4 364.4 346.5 340.4 338.2 331.8 318.8 312.2 305.6 297.1 294.6 285.8 279.9 278.6 271 265.4 258.9 256.8 250.7 238.7 219.9 202 181.7 169.6 157.1 139.1 124.6 115.8 96 77.9 53 30 15.3 15.3 15.3 15.3 15.3 15.3 15.3 15.3 15.3 15.3 15.3 15.3 15.3 15.3 15.3 15.3 15.3 15.3 15.3 15.3 15.3 15.3 15.3 15.3 15.3 15.3 15.3 15.3 15.3 15.3 15.3 15.3 15.3 15.3 15.3 15.3 15.3 15.3 15.3 15.3 15.3 15.3 15.3 15.3 15.3 15.3 15.3 15.3 15.3 17.9 26.2 39.5 50.2 61.6 71.8 80.9 90.1 99.4 109.9 120.4 129.4 137.7 143.8 149.3 151.2 152.5 156.2 161.8 167.4 173.1 177.6 182.5 189 196.3 202.5 207.9 211 212.4 211.8 212.3 216.1 224.9 229.6 232.4 233.5 234.7 236.9 239.2 242.6 244 244.5 243.7 244.6 248.3
224 222.2 222 228.3 233.3 239 243.1 245 249 253.2 256.6 261 268.1 276.7 283.3 290 287.1 277.3 269.1 266.2 262.4 256.8 258.7 257.1 250.6 241.9 238 234.8 242.2 246.8 254.1 261 262.9 265.7 267.9 269.9 280 291.5 289.3 285.2 292.8 296.5 291.6 278.6 272.6 282.9 287.6 291.2 295.5 299.4 303.7 307.7 310.4 313.9 321.2 330 345.8 355.5 342.8 331.9 321.6 312 307.7 315.2 320.8 331.5 340.9 353.4 358.3 363.6 368.6 373.3 375.2 372.8 371.5 359.8 344 337.2 333.8 324.1 316.5 307.5 300 295 286.2 277.1 270.4 266.5 260.6 255.3 247.6 243.2 235.5 222.3 200.3 175 159.5 147.7 132.2 118.7 96.5 85.2 70.6 52.3 34.4 15.3 15.3 15.3 15.3 15.3 15.3 15.3 15.3 15.3 15.3 15.3 15.3 15.3 15.3 15.3 15.3 15.3 15.3 15.3 15.3 15.3 15.3 15.3 15.3 15.3 15.3 15.3 15.3 15.3 15.3 15.3 15.3 15.3 15.3 15.3 15.3 15.3 15.3 15.3 15.3 15.3 15.3 15.3 15.3 15.3 15.3 15.3 15.3 15.3 15.3 23.6 35.3 46.1 56.6 68.5 78.8 87.9 96.9 107.2 118 128.1 136.7 143.1 147.4 150.8 152.5 154.5 158.5 164.6 171.1 177.5 182.9 189.1 196.5 204.4 209.9 213 214.9 214 213.5 216 224.6 229 232.4 233.8 235.6 238.4 241.2 243.8 246.4 246.5 246.5 245.4 248.1 256.6
219.3 219.3 222.5 227.6 232.2 238.4 241.5 244.3 247.2 250.5 253.9 260.6 272.4 280.2 282.1 283.4 279 272.5 265.9 262.5 256.3 247 244.8 244.5 241.5 240.9 236.5 230.8 237.3 246.2 257.3 262.4 256.8 259.8 258.5 262.7 276.9 280.3 283.5 282.2 288.4 281.8 276.2 269.9 279.1 283.3 287.4 290 294.5 299 302.5 305.8 309.7 315.1 322.9 331.2 352.8 349.9 339.2 330.3 319.8 308.9 300.1 307 313.5 322.5 330.4 340.4 345.5 351.7 360 364.1 366.9 359.1 358.3 350.9 340.2 333.9 325.4 314.6 307.4 297.8 288.2 282.8 276.2 269.3 264.2 258.3 250.9 243.4 236.5 229.3 217.3 202.1 181 154.9 142.3 130.6 116.7 95.6 73.4 62.3 58.3 41.1 15.3 15.3 15.3 15.3 15.3 15.3 15.3 15.3 15.3 15.3 15.3 15.3 15.3 15.3 15.3 15.3 15.3 15.3 15.3 15.3 15.3 15.3 15.3 15.3 15.3 15.3 15.3 15.3 15.3 15.3 15.3 15.3 15.3 15.3 15.3 15.3 15.3 15.3 15.3 15.3 15.3 15.3 15.3 15.3 15.3 15.3 15.3 15.3 15.3 15.3 19 28.7 43.1 54.3 64.4 75.6 85.9 94.9 103.9 115.1 125.9 135 142.2 146.7 149.2 151.8 153.2 156.7 162.6 169.6 176.1 181.5 188.4 196.3 204.1 209.8 215.2 217.1 217.5 214.7 218.2 224.8 229 233 235.3 236.9 239.9 242.5 245.3 247.4 249.5 247.8 246.7 246.4 247.5 252.6
217.9 218.4 221.7 226 230.5 234.7 237.3 240.7 244 247.4 252.1 259 267.1 275.9 277.9 273.7 269.6 267 263 257.4 251.8 249.1 247.9 245.1 245.7 241.7 235.3 230.2 232.1 242.4 243.7 247.8 250.9 251.4 252.8 257.7 269.2 277.1 280.6 273.9 276.5 272.4 267.1 274 278.8 283 286.6 288.7 293.5 298 301.2 305 310.5 316.9 325.3 335.4 351.7 343.4 338.3 327.1 316.7 305.9 297.7 298.3 308.7 316.9 324.7 331.6 338 344.9 351.4 354.7 357.7 357.7 356.7 355.8 346.8 343 332.5 319.9 308.4 298.2 289.1 287.6 279 267.1 259.5 250.6 244.1 239.1 222.6 213.3 204.3 187.6 165.8 139.9 125.5 109.2 88.9 75 54.8 41.8 40.5 16.8 15.3 15.3 15.3 15.3 15.3 15.3 15.3 15.3 15.3 15.3 15.3 15.3 15.3 15.3 15.3 15.3 15.3 15.3 15.3 15.3 15.3 15.3 15.3 15.3 15.3 15.3 15.3 15.3 15.3 15.3 15.3 15.3 15.3 15.3 15.3 15.3 15.3 15.3 15.3 15.3 15.3 15.3 15.3 15.3 15.3 15.3 15.3 15.3 15.3 16.4 25.6 37.6 52.6 64 73.7 83.4 93 102.1 112.2 122.9 131.9 140.9 146.3 149.6 151.8 152.6 155 161 167.8 174.5 180.4 187.5 195.7 204.1 210.4 215.1 218.8 219.6 217.7 217.3 222.8 227.9 232 236.3 238.3 241.3 244.9 246.8 249.3 250.8 250.9 248.4 247.3 245.5 243.7 242.8
216 217.4 220 224.2 226.6 230.9 234.6 238.1 241.4 246.8 251.4 256.4 259.7 261.8 263.8 262 263.2 263.6 259.1 254.7 251.7 254.6 253.4 251.8 251.2 242.3 234.7 228.4 226.3 232.6 235.7 241.1 244.1 245.9 248.7 258.6 267.3 268.8 267.1 268.9 268.4 263.7 269.2 273 276.9 281.5 286 288.2 291.6 296.3 299.7 304.5 311.7 319 328.2 339.3 344.9 342.2 337.7 324.5 312.5 302.8 293.2 292.6 301.8 312.9 323 331.7 338.1 347 358.1 364 371.9 372.5 371.7 374 367.7 357.2 344.4 334.2 321.8 309.5 301.4 291.7 280.7 272.2 261.4 247 235.5 223.6 208.6 198 191 171.4 146.9 124.9 107.5 86.5 72.6 57.9 39.9 21.3 15.3 15.3 15.3 15.3 15.3 15.3 15.3 15.3 15.3 15.3 15.3 15.3 15.3 15.3 15.3 15.3 15.3 15.3 15.3 15.3 15.3 15.3 15.3 15.3 15.3 15.3 15.3 15.3 15.3 15.3 15.3 15.3 15.3 15.3 15.3 15.3 15.3 15.3 15.3 15.3 15.3 15.3 15.3 15.3 15.3 15.3 15.3 15.3 15.3 15.3 15.3 21.3 32.3 47.1 60.8 71.1 79.9 89.1 99.6 110.2 121.1 130.1 138.6 146.1 149.3 152.2 153.9 155.1 159.4 166 172.3 178.6 186.7 195.6 205.4 212 218 219.8 220.5 221.1 219.3 223.2 228 232.2 236.5 239.2 242 246.2 249.3 251.1 252.1 252.6 251.7 248.3 245.2 243.1 241.4 241
213.8 216 218.2 220.5 221.7 225.6 230.5 235.3 242.5 247.5 252.9 256.8 256.7 256.6 256.1 257 257.6 256.8 254.3 253.9 254.6 256.6 256.7 255.4 248.3 240.1 232.5 226.1 223.9 226.2 231.2 233.2 237.4 241.1 250.2 255.3 259 263.3 263.6 261.9 257.8 262.7 267.4 271.7 274.8 279.7 284.5 286.2 289.7 294.2 299 304.5 311.8 321 330.6 339.2 343.2 345.6 338.9 322.7 307.2 298.4 289.6 290.8 300.6 314.4 327.8 334.3 342.6 350.4 357.1 362.1 370.9 378.4 380.4 380.3 377.5 374.5 362.4 347.9 336.8 328.8 314.7 297.9 293.3 281.5 264.5 245.4 228.5 214.9 199.1 179.6 171.1 152.7 131 110.1 90.7 75.1 61.1 45.8 29 15.3 15.3 15.3 15.3 15.3 15.3 15.3 15.3 15.3 15.3 15.3 15.3 15.3 15.3 15.3 15.3 15.3 15.3 15.3 15.3 15.3 15.3 15.3 15.3 15.3 15.3 15.3 15.3 15.3 15.3 15.3 15.3 15.3 15.3 15.3 15.3 15.3 15.3 15.3 15.3 15.3 15.3 15.3 15.3 15.3 15.3 15.3 15.3 15.3 15.3 15.3 18.3 27.2 40.7 55.2 67 77.8 87.1 96.3 107.4 118.7 128.9 137.8 145.2 149 151.9 153.7 155.6 157.6 163.4 170.1 175.9 183.2 192.7 202.6 212.3 217.2 220.5 220.6 223.3 221.8 222.9 228.8 233 237.2 240.6 244.2 248.5 250.1 252.8 254.6 254.8 254.7 254.3 251.4 246.4 242.3 241 240.2
211.7 214.3 215.4 215.7 216.7 220.6 226.2 234.9 242.8 248.7 254.2 256.4 255.4 254.6 254.3 254.5 254.7 256.1 258.5 256.6 253.8 251.9 250.7 250.7 246.1 237.1 229.2 223.4 220.5 222.1 224.8 228.4 234.1 235.7 242.4 244 254.7 251.1 255.8 251 254.6 260.8 264.3 268.2 274.7 277.2 277.8 283.3 287.9 292.6 297.7 305 312.8 321.6 329.9 337.6 342.3 353.3 340 320.2 303.9 293.6 284.8 291.5 298.9 313.1 323 328.9 337.9 345.8 349.1 354.9 362.9 373.3 378.4 377.6 374.6 370.4 360.8 351 343.7 331.8 315.5 312.3 307.2 285.9 267.9 245.6 230 210.5 187.6 170.1 157.2 141 117.8 99.1 82.7 68.7 53.5 38.5 15.3 15.3 15.3 15.3 15.3 15.3 15.3 15.3 15.3 15.3 15.3 15.3 15.3 15.3 15.3 15.3 15.3 15.3 15.3 15.3 15.3 15.3 15.3 15.3 15.3 15.3 15.3 15.3 15.3 15.3 15.3 15.3 15.3 15.3 15.3 15.3 15.3 15.3 15.3 15.3 15.3 15.3 15.3 15.3 15.3 15.3 15.3 15.3 15.3 15.3 15.3 15.3 24.3 36.9 50.7 62.5 72.7 83.2 95.3 104.7 115.9 127.1 136 143.9 148.8 151.6 153.4 155.2 157 162.3 168.2 172.9 178.6 186.9 195.5 207.8 213.3 220.3 221.7 224.8 226.2 224.2 229.5 233.2 237.8 241.8 245.3 249.5 252.6 254.8 257.9 263.4 264.6 257.2 258.2 254.8 246.8 242.6 241 239.6
210.5 211 211.3 211.8 212.3 216 221.6 232.2 240.9 248.5 254.7 253.7 253.5 254.4 254.8 255.1 257 261.3 262.4 258.9 256.7 254.1 255.3 252.5 242.4 233.9 227.6 223.9 219.4 217.6 219.9 225 227.1 236.1 238.1 237.4 242.5 245.5 246.9 244.3 252.2 256.6 261 265.2 271.3 271.1 275.5 279.8 285.3 290.3 296.4 304.2 312 321.2 329.7 336.2 352.8 359.8 340.6 317.3 300.2 288.8 283 285.7 294.7 308.3 312.6 321.9 331.9 337.8 337.7 341.8 350.7 362.4 370.7 372.6 369 363.1 355.2 344.8 333.7 319.7 306.4 301.7 290 275.2 261.6 246.2 235 209 185.7 165.4 148.8 130.6 105.6 84.6 70.3 55.8 43.3 23 15.3 15.3 15.3 15.3 15.3 15.3 15.3 15.3 15.3 15.3 15.3 15.3 15.3 15.3 15.3 15.3 15.3 15.3 15.3 15.3 15.3 15.3 15.3 15.3 15.3 15.3 15.3 15.3 15.3 15.3 15.3 15.3 15.3 15.3 15.3 15.3 15.3 15.3 15.3 15.3 15.3 15.3 15.3 15.3 15.3 15.3 15.3 15.3 15.3 15.3 15.3 22.6 34.9 46.4 59.1 73 84.7 91.6 102.2 114.3 124.7 134.3 141.8 147.9 151.3 153.8 154.9 156.7 161.1 167.2 171.4 176.4 184.2 190.5 201.1 211 217.7 223.2 225.7 228.9 224.8 229.8 234.9 238.1 243.3 245.4 249.4 254.2 256.9 263.6 270.1 272.1 275.2 266 257.6 249.7 245.2 242.3 241.1 239.7
207.3 207.6 208 208.5 208.9 212 217.8 230.4 239.8 248.4 249.2 249.9 252.2 253.8 254.6 258.7 261.5 264.2 264 262.2 261.6 260.3 256.6 248.2 237.4 231.1 226.6 222.9 218.3 215.9 216.8 222.2 224.7 228.1 225.6 230.5 233.2 235.3 230.9 243.7 250 254 256.1 262.2 262.3 266.4 272.3 277.3 282 286.9 294.2 301.9 309.7 319.6 327 345.6 359.5 364.1 340.1 315 298.5 287 276.3 280.5 287.5 295.4 301.9 308.7 320.8 325.7 327.2 330 337 350.3 359.5 362.3 358.9 353.2 345.8 336 324.1 307.2 293.2 281.9 271 259.5 250.3 246.3 225.3 198.5 174.4 156.1 146.6 126.1 98.8 73.6 56.8 43 26.7 15.3 15.3 15.3 15.3 15.3 15.3 15.3 15.3 15.3 15.3 15.3 15.3 15.3 15.3 15.3 15.3 15.3 15.3 15.3 15.3 15.3 15.3 15.3 15.3 15.3 15.3 15.3 15.3 15.3 15.3 15.3 15.3 15.3 15.3 15.3 15.3 15.3 15.3 15.3 15.3 15.3 15.3 15.3 15.3 15.3 15.3 15.3 15.3 15.3 15.3 15.3 20.9 31.6 44.2 56.8 70.4 81.8 90.9 98.6 105.3 121.5 132.3 141 147.4 150.7 152.8 155.3 156.7 158.4 166.1 170.7 173.7 180 190.4 198.3 208.4 217.4 221.2 226 229.9 225.8 230.2 235.8 239.1 244.3 249.1 253.4 256.6 261.7 267 277 281.9 283.7 281.9 281.3 269.2 251.8 244 240.5 240 239.5
204.2 204.6 205 205.4 205.9 209.1 215.4 226.5 236.2 241.7 244 247 250.2 252.7 259.7 264.9 268.5 269 266.5 265.1 266.6 262.7 255 241.8 234 229.3 224.6 219.9 216 214.6 219.1 226 221.9 219.4 221.1 222.8 223 218.7 234.2 243.4 245.6 248.8 249.9 253.2 255.6 262.6 268.1 273.3 277.3 283.2 290.6 298.5 306.3 318.1 330.2 353.2 363.9 366.5 341.7 314.1 297.9 284.8 273.8 273 277.4 281.9 288.6 294.8 304.2 312.8 315.7 317.1 322.3 332.9 345.2 348.3 347.3 341 334.6 322.9 304 292.4 281 267.6 257 245.6 235.1 227.1 207 182 162.4 141.5 136.8 119.7 92.9 65 41.1 25.3 15.3 15.3 15.3 15.3 15.3 15.3 15.3 15.3 15.3 15.3 15.3 15.3 15.3 15.3 15.3 15.3 15.3 15.3 15.3 15.3 15.3 15.3 15.3 15.3 15.3 15.3 15.3 15.3 15.3 15.3 15.3 15.3 15.3 15.3 15.3 15.3 15.3 15.3 15.3 15.3 15.3 15.3 15.3 15.3 15.3 15.3 15.3 15.3 15.3 15.3 15.3 18 29.6 41.2 53.7 66.3 79 88.5 94.9 103.7 116.2 122.8 138.2 146.9 149.8 152.2 154.2 156.4 160.7 164 167.1 171.3 178.3 189.8 197.3 203.3 212.1 220.9 221.4 226.8 227.4 231.5 236.9 241.5 246.6 251.9 257.8 263.6 267.5 272.8 279.3 287.8 293.7 294 290.8 288.9 271.9 256.2 246.6 239.9 239.5 238.6
201.6 201 201.9 202.5 204.7 205.8 214.7 223.9 231.8 239.3 243.4 246 248.8 259.3 265.5 269.8 274.2 272.6 267.3 266.6 266.1 259.6 246.4 233.8 230.7 228.9 223.6 217.7 213.6 216.3 232 226.3 221.8 219.3 215.8 212.2 214.3 226.2 232.4 239.1 242.7 242.5 242.6 246.3 252.4 258.4 263.1 267 271.3 278.5 287.1 295 303.1 317 332.8 352 367.8 367.3 343 314.6 296.9 282.5 270.4 265.9 267.7 269.9 276 281 287.3 295.5 298.3 302.5 307.2 313.1 325.3 331.4 333.1 328.9 324.2 308.4 286.9 271.4 261.9 249.7 241.5 227.5 222.4 211.8 191.4 172 149.6 132.2 114.2 97 78.8 49.5 18.1 15.3 15.3 15.3 15.3 15.3 15.3 15.3 15.3 15.3 15.3 15.3 15.3 15.3 15.3 15.3 15.3 15.3 15.3 15.3 15.3 15.3 15.3 15.3 15.3 15.3 15.3 15.3 15.3 15.3 15.3 15.3 15.3 15.3 15.3 15.3 15.3 15.3 15.3 15.3 15.3 15.3 15.3 15.3 15.3 15.3 15.3 15.3 15.3 15.3 15.3 15.3 16.3 27.3 37.8 51 63 76.8 82.7 92.4 101.2 112.4 128.8 135 139.8 148.9 152.4 154.9 157.7 158.3 162.9 166.7 167.9 173.1 186.6 196.9 197.5 209.2 221.1 226 220.6 223.2 229.4 236.8 241.2 247.9 253.8 264.8 270.7 275.5 280.8 286.4 290.8 296.5 301.2 299.4 299.6 296.4 275.3 257.8 243.3 242 237.1 238.2
199.4 198.3 199.1 203.1 202.6 204.1 211.7 219.3 229.1 237.5 242.8 244.4 252.7 266.6 270.2 271.6 274.4 270.8 271.6 269.3 266.3 256.3 238.5 230.3 230.5 226.9 220.5 214.8 212.6 218.5 224.7 223.8 221.2 214.8 208.5 203.3 219.1 223.4 229.2 234.6 234.6 234 236.5 240.8 247.5 252.2 255.7 258.1 264.7 273.5 282 291.3 302.7 317.7 337.5 355.9 371.5 368.5 345.9 319.1 297.1 281.4 269.6 258.1 258.6 259.7 265.8 269.6 271.7 275.2 282.6 283.2 289.7 296.8 308.7 318 319.9 315.3 309.5 290.3 266.6 251.9 245 231.8 218.6 212.2 208.3 191.9 171.5 153.6 129.8 114.3 84.4 65.5 50.8 30.9 15.3 15.3 15.3 15.3 15.3 15.3 15.3 15.3 15.3 15.3 15.3 15.3 15.3 15.3 15.3 15.3 15.3 15.3 15.3 15.3 15.3 15.3 15.3 15.3 15.3 15.3 15.3 15.3 15.3 15.3 15.3 15.3 15.3 15.3 15.3 15.3 15.3 15.3 15.3 15.3 15.3 15.3 15.3 15.3 15.3 15.3 15.3 15.3 15.3 15.3 15.3 17 25 35.6 49.3 60.8 70.5 81.9 91 99.4 111.6 124.3 134.4 144.1 145.2 151.8 155.2 158 159.2 159.6 163.3 168.3 171.9 180.3 191.2 197.5 199.1 208.8 216.2 217.8 221.5 228.9 236.3 243.5 249.7 257.7 268.8 278.5 284.3 289.2 295.1 298 300.3 304.5 307.2 310.6 308.6 293.7 278.8 261.4 245.4 241.1 239.8 232
196.2 195.2 197.4 201.3 198.2 202.1 208.8 217.8 227.6 235.4 238.7 242.7 257 265.4 269.2 270.7 267.3 265.7 269.7 269.2 263.6 242.2 231.1 230.5 228.2 221.9 215.5 210.7 215.6 222.5 223.4 220.8 214.2 205 196.3 208.4 215.9 218.4 222.4 224 224.5 224.4 229 233.2 237.8 242.1 245.9 251.1 258.9 268 278.6 291 305 319.7 345.2 363.9 375 367.3 349.4 324.5 300.6 283.6 270.7 260.3 249.6 249.4 258.5 260.6 257.6 259.1 265.4 266.6 267.7 273.8 286.6 300.9 304.9 298.1 282.8 265.1 245.6 235.4 228.6 214.6 200.4 192.6 188.3 172.5 154.4 128.3 102.5 81.3 59.2 41.7 25.9 15.3 15.3 15.3 15.3 15.3 15.3 15.3 15.3 15.3 15.3 15.3 15.3 15.3 15.3 15.3 15.3 15.3 15.3 15.3 15.3 15.3 15.3 15.3 15.3 15.3 15.3 15.3 15.3 15.3 15.3 15.3 15.3 15.3 15.3 15.3 15.3 15.3 15.3 15.3 15.3 15.3 15.3 15.3 15.3 15.3 15.3 15.3 15.3 15.3 15.3 15.3 16.9 23.7 29.8 43.3 56.6 65.7 76.5 87.9 97.4 109.3 122.9 131.7 137.4 146.7 151.6 154.4 157.3 156.8 157.5 159.7 163.9 170.3 177.7 187.4 196.4 200.3 202.1 207.9 215.6 223.2 229.8 238.2 243.9 251 256.8 272.1 283 292.5 296.1 298.7 303.8 308.1 311.6 314.3 322 316.1 306.7 290.3 278.9 257 248.2 239.3 234.1 229.8
193.4 192.2 193.6 194.5 195.1 199.7 206.7 216.3 222.9 228.4 236.6 249.8 256.3 266.6 273.5 271.1 265.6 260.6 265.7 264.1 248.6 228.7 228 228.7 222.5 214.9 208.6 213 220.8 223.7 221.7 216.2 205.9 195.1 195.8 209 211.1 213.3 214.6 216.1 216.9 217.2 220.9 224.3 228 233.3 238.3 245.6 253.6 263.8 274.6 292 306.6 324.8 354.9 363.4 367.7 365.1 352.5 329.2 306.8 286.9 271.4 261.5 253.9 244.2 244.9 246 240.4 245.7 247.1 247.9 252 257.1 265.6 274.7 277.8 273.4 260 245.7 229.7 219.1 212.6 202.6 190 181.1 169.7 155.2 136.2 102.1 79.6 55 36.2 15.3 15.3 15.3 15.3 15.3 15.3 15.3 15.3 15.3 15.3 15.3 15.3 15.3 15.3 15.3 15.3 15.3 15.3 15.3 15.3 15.3 15.3 15.3 15.3 15.3 15.3 15.3 15.3 15.3 15.3 15.3 15.3 15.3 15.3 15.3 15.3 15.3 15.3 15.3 15.3 15.3 15.3 15.3 15.3 15.3 15.3 15.3 15.3 15.3 15.3 15.3 15.3 15.3 22 29.4 39 49.9 61.4 72 82.8 93.9 106.1 119.7 130 138.8 145.2 149.4 153 153.4 156.6 154.9 156.6 160.5 174.1 177.9 189.3 197.3 203.8 210.4 210.2 217.7 226.8 232.6 241.6 249.3 251 258.7 269.1 284.1 294.1 298.8 304.2 308.6 312.4 315.2 317.8 323.5 330.4 318.7 307.4 290.5 269.3 256.2 248 235.9 230.1 226.7
189.8 189.3 189.5 190.6 193.5 197.7 204.1 211.6 218.7 227.5 236.2 244.1 253.3 266.6 272.6 266.6 261.5 256 261.7 259.1 231.6 221.3 229.7 223.3 213.7 200.7 209.9 219.5 223.6 222.3 215.9 208.1 198 186.6 193.8 202.9 204.7 205.8 207 208.9 209 209.5 211.5 215.1 218.7 225.5 231.7 239.1 249.6 260.3 274 294 310.4 333.9 354.3 358.4 360.4 360.1 351.6 331.2 311 289.8 274.7 263.4 255.8 249.9 235.9 230.9 224.4 223.6 226.5 231.6 233.6 239.3 246 252 253.7 250.3 240.8 227 211.1 198.9 191.9 183.5 175.7 163.7 151.2 128.1 109.9 82.8 61.8 38.5 15.3 15.3 15.3 15.3 15.3 15.3 15.3 15.3 15.3 15.3 15.3 15.3 15.3 15.3 15.3 15.3 15.3 15.3 15.3 15.3 15.3 15.3 15.3 15.3 15.3 15.3 15.3 15.3 15.3 15.3 15.3 15.3 15.3 15.3 15.3 15.3 15.3 15.3 15.3 15.3 15.3 15.3 15.3 15.3 15.3 15.3 15.3 15.3 15.3 15.3 15.3 15.3 15.3 19.9 26.4 37.4 44.9 54.7 67.7 82.4 90.9 103.2 116.4 128.3 138 146.2 150.1 151.9 153.3 154.5 154.9 154.3 156.2 168.7 182.5 189.1 198.1 208.5 212.5 215.7 221.7 228.8 237.3 246.4 253.5 256.7 258.5 269.8 282.5 296.7 301.6 307.4 310.7 314.9 318.9 322.7 325.6 329.4 335.8 323.2 304.1 290.1 265.9 254.8 246.5 232.8 226.6 226.6
187.1 185.7 186.3 187.2 190.8 195.5 200.7 209.8 225.2 239.4 244.8 246.3 254.4 268.5 269.4 258.1 247.9 243.8 247.5 234.6 216.3 215.4 216.5 210 194.3 209.4 220.2 223.7 222.4 216 207.7 199.6 185.2 173.7 186.2 196.2 197.1 198.1 199.3 198.7 197.8 191.9 203 206.6 211.4 218.6 225.4 233.1 245.6 257.5 275.9 298.2 320.1 342.8 350.5 351.5 354.5 354.2 344.2 327.8 308.5 290.1 277.3 266.1 257.7 253.8 249.4 240.5 230.1 218.3 211.6 215 216.5 216.4 220.7 225 227.2 227.9 220.2 206.8 195.4 182.7 171.8 161 153.7 141.3 125.5 107.9 84.8 60.1 43.8 18.4 15.3 15.3 15.3 15.3 15.3 15.3 15.3 15.3 15.3 15.3 15.3 15.3 15.3 15.3 15.3 15.3 15.3 15.3 15.3 15.3 15.3 15.3 15.3 15.3 15.3 15.3 15.3 15.3 15.3 15.3 15.3 15.3 15.3 15.3 15.3 15.3 15.3 15.3 15.3 15.3 15.3 15.3 15.3 15.3 15.3 15.3 15.3 15.3 15.3 15.3 15.3 15.3 17 25.4 33.9 44.7 49.7 57.6 77.1 90 102.9 114 125.6 134.7 142.6 149.9 151.8 153.4 154.6 151.8 152.4 155.5 164.5 180.8 193.3 202.8 206.2 213.4 215.5 225.7 233.3 237.7 245.8 254.1 258.3 261.4 263.7 278.9 291.3 303.3 307.5 312.1 315.7 319.9 323.9 329.9 335 338.7 330.8 316.5 304.5 287.1 258 248.7 241 228.5 223.2 223
183 182 182.4 183.7 189.7 194.6 197.4 209.4 221.9 236.5 245 249.8 252.9 258 262.2 244.1 232.5 231.9 227.3 209.3 203.2 202.7 201 194.3 202.7 220.8 223.1 221.7 215.4 205.4 196.8 191.9 180.6 160.5 172.9 185.1 191 191.4 189.2 186.3 181.1 188.3 193.1 197 202.6 209.8 217.2 227.7 240.6 256.7 280.2 308.6 327.4 343.9 350.7 350.8 348.5 343.3 332.6 316.1 301.6 289.5 278.2 267.5 261.6 259.3 261.4 254.2 240.4 225.8 216.4 204.5 203.2 206.6 205.5 202.7 204.7 205.6 200.8 194.4 176.6 162.6 152.3 139.4 126.9 116.2 110.6 95.5 71 44.5 20.5 15.3 15.3 15.3 15.3 15.3 15.3 15.3 15.3 15.3 15.3 15.3 15.3 15.3 15.3 15.3 15.3 15.3 15.3 15.3 15.3 15.3 15.3 15.3 15.3 15.3 15.3 15.3 15.3 15.3 15.3 15.3 15.3 15.3 15.3 15.3 15.3 15.3 15.3 15.3 15.3 15.3 15.3 15.3 15.3 15.3 15.3 15.3 15.3 15.3 15.3 15.3 15.3 15.3 21.4 30.4 37.2 54.5 63.9 68 68.5 98.6 110.9 122.4 133.6 141.3 148.5 151.5 152.8 152 150 152.2 156.6 163.5 178.6 191 205.4 209.7 211.9 218.1 225.4 237.1 238 245.9 254.8 260.6 262.5 266.2 272.3 286.2 295.2 307.6 312 317.6 322.6 325.9 331.5 337.6 342.1 342.4 328.9 314.8 305.8 275.5 252.3 241.7 232.5 223.8 222.3 221.5
178.8 177 175.7 181.5 190.8 191.6 193.2 201.4 215.5 231.3 242.1 252 258 248.1 242.4 227.5 211.2 208.5 199.4 194.2 192.7 191.5 187.2 188.7 217.7 222.4 221.8 215 204.4 193.1 186.6 182 176.1 150.7 162.7 175.2 179.7 180.7 179.6 176.7 174.7 180 183.8 187.9 194 201.8 211.7 221.8 235.3 252.3 283.6 313.4 328.7 345.6 354.5 346.9 333 326.2 311.7 296.4 286.6 283 274.9 266.6 260.1 260.8 266.9 265.6 252.8 237.4 225.3 212.4 197.1 193.5 193.5 186.5 179.3 181.3 179.6 175 154.6 140.4 132.5 116.8 104.1 98.8 94.3 75.1 50.6 22.7 15.3 15.3 15.3 15.3 15.3 15.3 15.3 15.3 15.3 15.3 15.3 15.3 15.3 15.3 15.3 15.3 15.3 15.3 15.3 15.3 15.3 15.3 15.3 15.3 15.3 15.3 15.3 15.3 15.3 15.3 15.3 15.3 15.3 15.3 15.3 15.3 15.3 15.3 15.3 15.3 15.3 15.3 15.3 15.3 15.3 15.3 15.3 15.3 15.3 15.3 15.3 15.3 15.3 20.3 28.4 39.1 49.8 52.2 70.6 84.8 94.7 86.7 119.5 131.3 141.8 147.8 150.4 152 150.7 149.3 152.5 158.1 165.2 176.7 192.1 205.4 215.9 210.9 216.4 228.7 233.7 241.7 247.5 260.5 262.1 267.9 272.5 275.6 280.8 292.4 300.8 307.2 318 324.9 326.3 331.7 338.2 346.6 351.6 341.1 327.4 302.8 283 258.6 245.5 235.3 226.2 220.7 219.2 218.1
172.1 168 166.5 179.1 187.6 186.1 187.7 189.9 206.2 222.7 234 244.6 243.7 242.5 229.5 208.6 192.4 185.6 181.7 183.1 183.6 178.8 183.2 196.1 213.4 213.2 211.6 201.9 189.4 179.7 175.6 172.4 168.2 144.4 151.2 167.5 167.7 168.4 168.5 166 165.2 167.8 173.4 178.8 187.5 195 201.9 212.9 230.5 250.1 286.9 310.9 326.3 341.4 350.8 332.4 313.6 303.6 288.4 277.4 272.7 270.3 266.1 259.8 254.7 253 255.3 259.9 257.2 245 232 214.2 195.6 182.7 180.5 175.9 166.2 151.3 158.2 156.1 138.5 124.9 110.9 96.4 83.8 77.8 65.9 49.3 26.6 15.3 15.3 15.3 15.3 15.3 15.3 15.3 15.3 15.3 15.3 15.3 15.3 15.3 15.3 15.3 15.3 15.3 15.3 15.3 15.3 15.3 15.3 15.3 15.3 15.3 15.3 15.3 15.3 15.3 15.3 15.3 15.3 15.3 15.3 15.3 15.3 15.3 15.3 15.3 15.3 15.3 15.3 15.3 15.3 15.3 15.3 15.3 15.3 15.3 15.3 15.3 15.3 15.3 16.5 25.3 35.3 51.2 63.7 67.5 64.4 90.4 102.6 110.4 114.1 134.1 145 149.5 150.7 149.6 148.4 151.2 156.5 164.5 178.5 193.3 206 219.5 222.1 214.1 219.3 226.9 239.6 247.6 259 265.4 269.6 274.8 280.4 287 296.2 302.6 305.7 313.7 320.3 328.9 335.6 340.8 343 353.2 357.6 345.6 313.4 293.1 274.5 253.6 241.5 232 223.7 220.6 215.9 214.7
160.6 154.4 157.2 165.6 171.1 174.4 178.9 178.9 189.7 201.1 214.3 218 217.5 214.7 211.7 189.1 173.6 170.1 170.6 172.4 172 176.3 182.8 188 188.3 188.5 190.7 182.3 171.9 166.7 164.6 161.6 157.8 142.7 140.2 154.6 157.4 155.7 154.4 154.3 154.4 157 162.3 171.7 178.1 184.1 190 201.7 220.9 251.2 283.6 305 318.7 328.6 324.5 309.4 287.9 279.9 269.7 262.7 260 254.5 250 245.9 241.6 240.7 241.8 246.7 245.9 237.5 226 211.1 192.2 176.9 167.8 162.7 157 141.4 131.8 131 121.4 110.7 95 75.8 60.9 48.1 39 24.7 15.3 15.3 15.3 15.3 15.3 15.3 15.3 15.3 15.3 15.3 15.3 15.3 15.3 15.3 15.3 15.3 15.3 15.3 15.3 15.3 15.3 15.3 15.3 15.3 15.3 15.3 15.3 15.3 15.3 15.3 15.3 15.3 15.3 15.3 15.3 15.3 15.3 15.3 15.3 15.3 15.3 15.3 15.3 15.3 15.3 15.3 15.3 15.3 15.3 15.3 15.3 15.3 15.3 15.3 21.6 28.9 41.5 59.7 70.9 80.8 83.6 87.8 107.5 119 133 137.8 143.9 150.1 148.8 147.3 148.1 154.1 167.1 181.7 197.7 206.6 225.2 227.6 218.3 222.2 230.4 235.4 244.6 255.9 264.3 270.5 276.8 281.1 287.7 297.4 304.7 310.9 316.3 321.5 326.7 335.9 343.7 346.1 350.2 353.1 351.7 341.2 315.1 281.9 263.4 244.5 235.8 225 218.4 216.1 214.8 214.7
150.5 141.9 140.6 144.9 151.4 153.7 158.3 164.1 170 177 183 182.5 180.5 180.2 174.9 166.3 158.2 158.7 159.8 161.2 161.6 177.1 176.9 173 173.4 171.6 168.6 162.8 159.7 155.8 153.1 150.5 144.7 140.3 126.8 139.4 145.3 143.8 144 145.5 144.2 148.1 154.3 160.9 166 172 178.9 193.8 215 243.1 270.1 287.1 303.2 312.4 300.8 280.5 264.1 256.3 250.5 246.8 245.3 238.9 235.7 231.4 228.5 227.6 226.7 226.7 224.6 217.5 213 196.6 175.7 164.1 151.3 149.3 143.3 129.7 116.6 107.4 101.7 91.3 77.5 52.9 34.3 26.8 17.8 15.3 15.3 15.3 15.3 15.3 15.3 15.3 15.3 15.3 15.3 15.3 15.3 15.3 15.3 15.3 15.3 15.3 15.3 15.3 15.3 15.3 15.3 15.3 15.3 15.3 15.3 15.3 15.3 15.3 15.3 15.3 15.3 15.3 15.3 15.3 15.3 15.3 15.3 15.3 15.3 15.3 15.3 15.3 15.3 15.3 15.3 15.3 15.3 15.3 15.3 15.3 15.3 15.3 15.3 17.4 28.4 44.5 46.6 63.8 75.2 88.7 98.4 108.5 114.4 122.7 141.3 146.7 146.3 146.4 148 152.3 157 167.9 184.6 200.5 211.2 221 226.9 226.4 221.1 221.6 228.2 241.5 252.6 262 270.1 277.1 281.3 285.2 297.5 305 311.7 318.2 323.1 327.7 333.3 337.3 343.9 353.1 357.7 359.6 353.3 332.2 309.2 272.9 249.6 232.3 227.9 222.2 221.2 214.8 214.7 214.7
135 127.7 130 130.8 133.2 133.5 129.8 139.6 150.5 156.2 155.3 154.2 149.6 151.3 152.1 147.9 146.1 146.4 143.9 158.5 158.8 155.7 160.6 158.6 160.2 157.3 153.7 150.2 146.9 143.2 141.5 139.6 131.1 122 116.5 129.8 131.9 131.2 133.1 134.7 135.8 139.3 145.1 150.2 156.8 161.9 168.4 186.4 211.3 231.1 249.1 264.4 272.8 275.4 265.5 250.7 238.9 232.1 229.1 226.2 224.2 221.7 218.4 213.8 212 212.1 209.7 206.4 203 197.3 188.5 174 157 145.9 134.1 133.4 123.2 116.2 101.4 89 79.6 67.9 55.3 38.6 23.8 15.3 15.3 15.3 15.3 15.3 15.3 15.3 15.3 15.3 15.3 15.3 15.3 15.3 15.3 15.3 15.3 15.3 15.3 15.3 15.3 15.3 15.3 15.3 15.3 15.3 15.3 15.3 15.3 15.3 15.3 15.3 15.3 15.3 15.3 15.3 15.3 15.3 15.3 15.3 15.3 15.3 15.3 15.3 15.3 15.3 15.3 15.3 15.3 15.3 15.3 15.3 15.3 15.3 15.3 15.3 15.3 25.2 44 56.7 65.5 72 71.8 92.8 104.3 117.4 129.4 134.9 133.9 147.9 148.7 149.5 154.9 161.4 167.4 181.6 199.5 210.2 218.8 222.6 225.5 226.1 224.3 227.9 234.3 245.7 259.6 267.1 275.5 279.7 284 291.8 303 310.3 315.7 321.1 325.8 333.2 340.4 342.2 344.6 354.4 357.5 355 333.4 314.9 293.5 257.2 238.3 228.9 226 223.1 216.1 214.3 214.6 214.7
115.9 111.2 110.4 112.6 118.7 121 117.1 119.7 125.8 122.5 131.1 133 130 132.5 133.5 132.6 131.7 129.6 143.8 152.5 147.7 144.8 146.6 146.7 146.2 143.5 140.7 137.5 135.1 131.4 129.6 130 119 100.7 108.7 119.6 119.4 119.5 122.5 125.1 127.7 129 134.7 137.1 144.3 151.5 157.4 177.3 201 215.7 228.5 242.2 243.6 238.6 234.8 224.1 213.8 207 203.9 202.1 199.8 198.4 198.7 197.5 195 194.7 190.5 187.7 179.7 171.3 157.5 149 136.9 127.9 113.8 113.2 106.7 97.5 89.9 81.1 71.5 61.6 45 27.5 15.3 15.3 15.3 15.3 15.3 15.3 15.3 15.3 15.3 15.3 15.3 15.3 15.3 15.3 15.3 15.3 15.3 15.3 15.3 15.3 15.3 15.3 15.3 15.3 15.3 15.3 15.3 15.3 15.3 15.3 15.3 15.3 15.3 15.3 15.3 15.3 15.3 15.3 15.3 15.3 15.3 15.3 15.3 15.3 15.3 15.3 15.3 15.3 15.3 15.3 15.3 15.3 15.3 15.3 15.3 15.3 22.4 37.9 55.6 64.3 73.5 83.3 88.7 96.9 105.1 124 138.1 144.3 144.4 142.6 145.6 151.2 158.7 168.6 178.2 197.4 210.2 219.7 223.3 221.5 226.6 226.4 228 233.5 243.4 253 263.8 271.3 277.8 282.4 293.1 300.6 311.4 317.2 322.3 327.4 330.8 338.9 344.3 346.3 349.4 351.6 346.6 330.3 320.2 296.2 274.2 243.5 233.8 227 225.1 219 216.3 214.5 215.7 215.3
99.9 94.6 97.2 95.9 106.8 103.1 99.3 103.1 103.8 104.7 114.6 113.9 114.6 118.6 119.9 111.2 113.8 128.9 150.5 140 135.7 133.8 133.6 134 132.9 129.4 127.3 124.7 121.4 121.7 118.5 116.7 111 90.7 99.5 108.5 109 109.7 112.8 116 119.3 120.4 124.1 125.9 131.8 140.6 147.7 161.3 181.7 196.4 206.6 206.9 207.2 204.5 201.8 197.3 189.9 181.5 178.9 179.8 178.4 176.1 175.1 175.1 175.9 175.7 171.5 165.6 158.2 149.1 137 128 120.6 112.9 100.1 89.7 85.2 83.3 75.9 69.5 59.2 52.2 33.2 15.3 15.3 15.3 15.3 15.3 15.3 15.3 15.3 15.3 15.3 15.3 15.3 15.3 15.3 15.3 15.3 15.3 15.3 15.3 15.3 15.3 15.3 15.3 15.3 15.3 15.3 15.3 15.3 15.3 15.3 15.3 15.3 15.3 15.3 15.3 15.3 15.3 15.3 15.3 15.3 15.3 15.3 15.3 15.3 15.3 15.3 15.3 15.3 15.3 15.3 15.3 15.3 15.3 15.3 15.3 15.3 21.1 34.7 49.4 61.1 71 80.9 90.1 99.7 108.9 116.9 124.3 140 146.6 147.5 146.6 158.7 165.7 168.4 174 187.9 198.8 218.3 217.9 217 218.4 227.7 228.2 231.2 238.2 249 258.3 264.9 274.3 280.8 291.8 298.6 306.5 318.4 324.6 326.7 331.4 335.3 343.4 347.3 348.4 347.8 347.5 333.1 298 282.8 265.5 246.6 236.3 232.6 227.7 225.5 221.5 218 216 215.6 218.3
76.9 75.8 79.8 81.1 88.7 90.8 81.5 79.9 82.5 92.3 97.9 95.7 98.9 103.3 99.5 100.9 119.1 137.3 132.3 124.2 123.7 123.2 122.4 122 119.6 116.1 114 112.7 109.1 107.6 105.9 103.8 101.2 81.4 91.2 97.7 98.1 100 102.3 106.7 109.8 113.8 111.6 115 120.4 127.6 134.3 142.2 156.6 175.1 184.7 178.7 176.4 174.7 174.1 171.6 166.9 161.1 157.9 157.7 156.6 157.4 152.6 153.1 155.4 155 152.4 147.2 142.7 134.9 123.7 113 104.5 97.3 88.5 76.1 69.7 66.3 57.2 48.6 38.9 25.8 16.4 15.3 15.3 15.3 15.3 15.3 15.3 15.3 15.3 15.3 15.3 15.3 15.3 15.3 15.3 15.3 15.3 15.3 15.3 15.3 15.3 15.3 15.3 15.3 15.3 15.3 15.3 15.3 15.3 15.3 15.3 15.3 15.3 15.3 15.3 15.3 15.3 15.3 15.3 15.3 15.3 15.3 15.3 15.3 15.3 15.3 15.3 15.3 15.3 15.3 15.3 15.3 15.3 15.3 15.3 15.3 18.9 30.6 45.7 59.1 67.2 75.9 87 97 108.4 118.5 128.2 134.6 144.3 145.3 148.8 158.2 170.5 178.6 176.2 185.8 197.8 206.9 209.6 210.7 212.7 217.7 223.4 227.4 233.4 241.1 254.6 258.7 263.8 271.4 278.2 289.8 298.5 310.7 321 326.7 330.1 334.5 335.3 333.8 327.4 326.7 317.1 303.2 284.6 280.1 271.7 252.2 243.1 238 234.1 230.8 224.7 220 218.1 219.2 219.9 221.1
56.9 57 59.2 64.9 64.8 65.5 67.2 67.1 70.7 73.1 79.3 81.7 84.9 87.7 72.6 97.1 111.3 117.1 111.1 111.8 111.4 111.1 110.7 109.2 107 104.2 102.2 100.5 97.7 92 92.5 91.5 86.2 73 80.9 86.9 89.6 91 92.1 96.8 100.2 105 101.9 105.1 109.3 114.8 118 127.1 134.1 147.5 153.9 151.5 148.9 148.1 150.2 148.7 145.3 142.1 141.3 141.5 141.9 141.7 133.9 134.2 136.9 138.8 136.2 129.7 124.1 112.2 103.5 95.6 89 81.6 72.5 63.8 54 50 40.3 31.7 21.3 15.3 15.3 15.3 15.3 15.3 15.3 15.3 15.3 15.3 15.3 15.3 15.3 15.3 15.3 15.3 15.3 15.3 15.3 15.3 15.3 15.3 15.3 15.3 15.3 15.3 15.3 15.3 15.3 15.3 15.3 15.3 15.3 15.3 15.3 15.3 15.3 15.3 15.3 15.3 15.3 15.3 15.3 15.3 15.3 15.3 15.3 15.3 15.3 15.3 15.3 15.3 15.3 15.3 15.3 15.3 15.3 15.3 27.4 43.2 55.6 64.8 72.7 83.1 94 105 116.7 126.7 133 140.1 147 148.4 153.6 168.6 180.6 179.8 180.1 197.4 206.1 209.3 210.1 217.6 216.1 220.7 224.8 229.9 239.2 247.1 254.3 260.6 265.8 271.8 284.8 291.9 299.7 308.1 318.7 326.6 333.3 333.2 331.2 326.7 321.6 312.3 310.9 307.1 304 293.3 278.1 257.4 248.2 242.6 237.3 232.7 226.8 221 218.9 220.5 225 225.8
40 39.2 38.6 41.8 47 48.4 44.4 48.1 51.5 57.8 62.1 65.2 67.7 68.4 64.2 89.4 94.9 95.2 97.7 98.1 98.5 98.2 96.4 94.6 94.2 93.5 91.3 89.4 86 79.2 77.3 74.9 72.6 65.8 71.8 75.2 79.1 81.7 80.8 84.4 90.3 93.7 91.2 94.9 98.6 102.4 105.8 111.3 116.4 122.8 127.5 127.7 126.5 126.3 128.9 131.2 127.1 124.9 123.8 123.9 126.6 125.9 117.1 116.3 121.6 124.1 119.4 113 105.8 98 89.9 83.8 72.8 66.3 61.2 52.7 39.6 30.6 24.4 15.3 15.3 15.3 15.3 15.3 15.3 15.3 15.3 15.3 15.3 15.3 15.3 15.3 15.3 15.3 15.3 15.3 15.3 15.3 15.3 15.3 15.3 15.3 15.3 15.3 15.3 15.3 15.3 15.3 15.3 15.3 15.3 15.3 15.3 15.3 15.3 15.3 15.3 15.3 15.3 15.3 15.3 15.3 15.3 15.3 15.3 15.3 15.3 15.3 15.3 15.3 15.3 15.3 15.3 15.3 15.3 15.3 17.5 26.1 39.4 52 62.8 70.5 78 90.4 101.2 112.2 123.3 133.2 139.3 143.1 147.8 150.8 159.7 183.9 190.3 184.6 185.3 199.9 206.3 207.5 211.2 215 220.1 225.9 230.7 238.2 247.4 256 263.4 270 278.1 289 299.2 304.1 314.9 333.6 339.7 344.7 347.3 356.4 360.2 360.4 355.9 346.6 343.1 341.2 321.3 294.7 274.9 258.9 252.6 247.2 242.4 237.5 230.3 225.1 225.2 224.5 229.6 229.2
37.3 37.6 37.5 36.4 35.7 35.9 35 34.5 34.2 34.6 41.7 43.1 47.5 49.6 63.6 77.4 81.3 81.4 84.2 84.8 84.8 84 83.6 82.4 80.9 80.5 78.8 76.1 72.9 67.9 65 63.1 62.4 60.9 64.1 65.7 69.5 71 69.5 75.9 78.8 82.2 82.1 85.3 88.7 90.3 94 98.8 104 101.2 103.9 104.6 107.2 107.2 109.2 108.7 111.2 109.2 107.1 106.1 108.5 109.7 104.5 103.4 109.6 110.7 107.7 102.2 92.8 83.5 76.6 68.9 61.8 55.3 47 33.7 24.4 16.3 15.3 15.3 15.3 15.3 15.3 15.3 15.3 15.3 15.3 15.3 15.3 15.3 15.3 15.3 15.3 15.3 15.3 15.3 15.3 15.3 15.3 15.3 15.3 15.3 15.3 15.3 15.3 15.3 15.3 15.3 15.3 15.3 15.3 15.3 15.3 15.3 15.3 15.3 15.3 15.3 15.3 15.3 15.3 15.3 15.3 15.3 15.3 15.3 15.3 15.3 15.3 15.3 15.3 15.3 15.3 15.3 15.3 17.2 25.4 39 50.8 58.6 68.9 76.3 85.5 96.4 106.8 117.6 128.9 139.8 146.2 146.9 150 154.6 168.5 184.4 190.8 193.2 202.6 200.6 208.3 212.2 212.1 219.2 224 233.6 239.1 247.1 255.7 265.2 279.6 275 293 302.2 310.1 326.1 337.6 347.5 353.1 350.3 361.2 367.3 370.8 374.2 373.3 360.4 349.9 343.9 319.7 295.4 276 264.7 264.7 254.4 248.7 241.7 234.6 233.1 233.3 228.3 235.3 232.4
37.3 37 36.6 36.2 34.9 33.9 33.6 33.4 33.6 33.9 33.4 35.2 37 42.4 54.5 57.4 57.9 64.1 69.1 70.6 72 72.6 72.2 70.6 70 67.1 67.4 63.9 59.5 57 55.7 54.3 54.1 54.9 55 56.2 57.9 58.7 57.9 64.6 67.3 70.4 73.6 75.4 78.2 80.2 83.3 86.2 89.8 88.8 89.4 91.6 87.1 90.2 90.6 93.8 94 93.5 90.5 91.9 92.8 94.8 92.5 93.7 96.5 98.4 96.5 88.4 76.8 68.8 62.4 54.1 44.7 34.5 24.4 15.3 15.3 15.3 15.3 15.3 15.3 15.3 15.3 15.3 15.3 15.3 15.3 15.3 15.3 15.3 15.3 15.3 15.3 15.3 15.3 15.3 15.3 15.3 15.3 15.3 15.3 15.3 15.3 15.3 15.3 15.3 15.3 15.3 15.3 15.3 15.3 15.3 15.3 15.3 15.3 15.3 15.3 15.3 15.3 15.3 15.3 15.3 15.3 15.3 15.3 15.3 15.3 15.3 15.3 15.3 15.3 15.3 15.3 15.3 15.3 24.6 36 47.5 56.1 64.8 74.5 84.1 93.8 103.6 113.3 124.7 136.5 146.5 146.5 149.7 154.3 160.9 173 181.2 194 206.3 213 214.9 208.2 212.2 211.8 215.1 229.7 242.6 248.9 255.5 264.4 281.3 294.7 289.1 302.3 309.4 319.8 336.1 345.7 351.6 353.2 355.9 366.1 374.3 376.4 378.8 375 365.8 357.9 342.9 326.4 304.4 283.8 272.1 273 260.7 251.2 245.4 242 242.5 239.7 235.1 236.4 233
36.7 36 35.7 35.5 34.7 34 32.9 33.1 33.3 32.6 31.7 32.5 35 39.4 43.5 43.1 44.2 46.6 51.1 52.8 55.6 60.1 61.5 60.2 56.2 55 54.6 51 47.9 46.9 47.1 46.9 47 49.7 47.6 48.2 47.3 49.3 48.9 50.4 55.6 60.6 64.4 67.5 68.5 71.4 73.5 74.3 75.3 75.1 74.7 74.1 71.9 74.4 78.1 79.1 78.8 78.9 79.2 79.8 78 81.8 80.8 81.6 82.9 82.5 77.7 70.1 61.1 52.9 43.8 33.9 24.8 16.3 15.3 15.3 15.3 15.3 15.3 15.3 15.3 15.3 15.3 15.3 15.3 15.3 15.3 15.3 15.3 15.3 15.3 15.3 15.3 15.3 15.3 15.3 15.3 15.3 15.3 15.3 15.3 15.3 15.3 15.3 15.3 15.3 15.3 15.3 15.3 15.3 15.3 15.3 15.3 15.3 15.3 15.3 15.3 15.3 15.3 15.3 15.3 15.3 15.3 15.3 15.3 15.3 15.3 15.3 15.3 15.3 15.3 15.3 15.3 15.3 23 32.6 45.4 54 62.5 73 81.6 91.6 101.4 111.2 121.5 133.9 146.1 146.4 150.9 157.6 166.9 174.3 187.7 193 201.2 213.2 216.1 224.3 224.8 221.1 215.2 223.1 238.3 251.9 259.4 267 278.2 292.6 306 305.9 310.2 320.7 330 343.4 350.9 354 358.1 361.7 368.1 374.3 375.1 378 378.9 370.3 377.5 369.7 345.7 311.5 291.3 279.1 276.4 263.6 256.3 252.4 255.3 253 243.2 239.4 234.4 229.8
