ncols 200
nrows 82
xllcorner 290000
yllcorner 341900
cellsize 50
366.1 356 342.3 331.8 328.5 326.5 324.1 323.8 331.7 340.7 352.9 358.5 359.5 362.8 363.7 364.5 365.7 365.1 359.8 349.4 360.3 368.4 378.4 385.4 396.1 407.4 419.5 428.7 436.6 445.5 456.4 461.7 457.1 450 441.7 435.3 425.8 415.3 402.6 387.5 369.2 362.2 358.9 355.7 352.2 347.9 343.8 351.3 357.5 364.8 369.7 376 376.7 375.3 374.2 371.4 369.5 368.7 368.3 369 369.1 370.4 372.1 375 377.9 378.9 384 387.7 390.6 392.8 394.4 397.9 402 409.4 414.4 425.2 437 441.5 443.2 444.7 444.6 447 444 446 441.2 434.4 425.8 420.1 414.1 407.4 399.9 391.3 381.2 369.4 355.5 346.8 339.3 332.6 326.5 322 319.1 314.9 312.4 310.4 308 305.6 307.3 310.3 311.4 311.1 309.3 306.6 303.6 300.4 297 293.3 287.1 283.2 281.4 279.5 277.1 275.2 272.7 268.8 263.9 259.1 252.7 249.5 247.4 247.3 248.1 247.1 242.6 241.7 241.7 240.7 241.3 242.2 243.7 243.3 245.3 247.2 252.3 253.7 255 256.4 259.9 260.4 261.5 269.3 285.6 300.7 307.4 315.9 322.9 328.7 330 331.6 332.2 331.5 331.8 334.7 338.1 346.8 365.5 379.5 390.6 398.1 408 409.1 404.4 394.5 382.6 373.2 359 347.8 338.4 332.6 333.3 335.4 342 358.2 369.7 382.7 386.2 393.4 395.8 404.3 412.5 422.9 429.1 434.5 441.9 450.2 448.7 438.2 430.7 422.1 409.4 401.5
364.6 353.2 339.7 330.9 329.3 326.6 327.9 327.4 334.5 347.6 358.5 364 366.3 369.2 369.9 369.7 369.8 366.9 364.1 353.6 361.4 370.6 379.1 387.5 396.6 407.7 423.8 435.8 444.2 455.4 464.4 460.8 455.6 449.4 442.8 435 424.4 412.9 397.7 380.8 368 364.4 361.3 358 354 351.2 355.6 362.2 369.9 375.7 380.8 381.5 381.6 380.9 379.7 377.9 375.9 374.7 373.9 373.4 374.1 375.7 380.7 383.6 385.4 387.7 393.2 394.4 396.3 398.5 399.4 401.7 405.1 410.8 418.8 431 436.8 441.3 444.9 448.5 447.3 444.6 443.2 441 438.1 431.3 421.5 411.5 407.7 398.4 389.4 381 370 359.8 350.6 345.8 338.9 330.2 325.7 321.8 318.7 315.4 312.7 310.3 308.6 312.3 311.1 313.6 314 313.5 311.6 308.7 305.1 301.2 297.8 294.2 287.7 285.2 283.8 281.8 279.5 276.6 274.1 270.4 266.4 262.1 256.3 255.3 251.1 251.1 251 250.1 245.1 241.3 241.3 241.1 240.1 240.7 241.8 241 241.3 246.1 248.6 250.1 251.4 253.6 255.2 256.6 258.3 267.5 289.4 303.6 314.5 320.8 324.7 326.8 328 329.4 328.3 323.9 323.9 325.5 328.3 338.5 357 374 381 391 400.2 405.1 398.1 388.2 378.9 371.1 360.4 346.9 336.8 330.5 330.2 333.1 341.7 358.8 372.5 384.3 390.1 391.7 393.8 403.6 414 424.4 432.2 438.7 445.9 453.3 449.4 441.1 431.9 424.5 411.9 399.2
365.3 351.6 339.2 331.6 332.9 331.8 330 332.5 342.3 352.6 362.3 368.4 373.7 375.3 375 374.1 370.9 367.6 364.1 354.3 362.6 371.2 379.1 387.8 396.6 408.1 426.3 437.5 445.4 455.2 456.4 454.8 450.3 445.5 440.1 431.1 420.9 407.7 392.9 377.8 369 365.9 362.7 355.1 358 358.3 364.1 375.2 380.5 385.3 386.9 386.5 386.1 385 383.8 384.4 382.9 381 380 380 381.7 384.9 388 390.1 393.2 396.5 398.6 399.9 401.8 405.1 407.6 408.4 408.5 412.2 419 430.7 433.9 437 438.5 438.9 440.3 438.4 435.3 430.7 423.5 416.4 408.5 402.9 393.2 382.7 375.4 368.3 360.4 353.6 347.4 342.9 337.5 330.8 326.8 325 322.1 318.2 313.7 310.8 312.3 315.3 316.6 317.3 316.6 315.9 313.7 310.9 305.5 302.5 299.5 296.1 290.7 288.3 286 283.8 281.3 278.7 275.4 272.3 269.5 264.8 260.9 259.4 258.9 257.8 255.6 254.7 248.6 241.2 241 240.5 240.2 240.7 240.9 240 240.1 240.7 243.1 245.5 249.2 251.1 253 250.6 251.7 270 288 304.5 313.9 320.6 323.3 325.8 324.4 323 318.1 312.8 313.2 314.9 321.1 328.8 350.2 364.2 379 386.2 392.5 394 390.5 384.6 375.5 369.3 358.3 347.5 336 329 328.1 330.8 343 362 377.3 383.5 388.8 388.4 389.2 400 413.3 423.9 431.9 440.3 446.9 453.3 449.9 447.8 438.1 427.3 413.8 398.1
360 347.8 336.3 334.6 336.5 335.3 333.8 334.3 341.6 355.1 366.5 375.9 379.1 380.4 378.8 376.8 372.1 368.5 363.3 356.9 363.1 369.6 377.5 387.1 397.5 410.2 425.7 436.9 443 450.5 453.7 452.6 448.3 443.7 435.5 428 416.1 403.4 389.8 377 371.2 367.5 361.2 363.9 364.2 364.3 370.5 381 388.4 391.5 392.1 392.1 390.2 389 388.6 389.8 389.6 388.3 387.2 387.9 391 395 395.8 398.5 401.1 401.8 403.1 407.5 412.1 412.1 411.6 412.3 411 414.1 423 435.2 438.6 439.2 437.6 434.9 434 431.2 427.4 423.5 415.6 405.4 397.2 391.4 385.2 374.2 363.9 358.6 353.5 349.7 346.5 341.5 337.4 333.4 332.2 327.9 324.1 320.1 314.6 314.6 317.8 318.6 319.8 320.3 319.6 318.7 316.2 312.4 308.5 304.7 301.8 299.8 294 291.6 289.1 285.5 283.1 279.8 278.7 275.5 272.6 269.2 265.2 264.8 263.9 261.7 260 258.9 250.4 243.8 244.5 240.7 239.9 240.1 240.4 239.9 239.1 239.9 240.9 242.2 242.5 244.3 246.4 244.8 248.9 263.6 283.7 296.3 304 310.5 316.8 320 320.9 310.6 302.4 300.2 299.3 306.5 317.9 328.2 342.1 355.7 374.1 379.7 379.9 385 385.8 380.6 377.1 368.5 355.6 346 336.8 328.6 326.6 329.6 337.1 358.8 370.9 380.9 380.8 383.2 385.3 391.9 405.7 419 431.5 438.8 445.6 449.4 451.8 447.5 437.2 425.7 412.4 399.8
350.8 340.3 337.7 337.6 340.1 338.4 338.7 345.9 359.5 370.4 375.8 381.6 383.1 384.6 380.8 377.9 371.5 367.6 362 360.6 367.3 373.2 380.7 388.5 400 413.9 426.4 436.6 443.6 450.8 453.1 453 449.8 444.8 435.1 423.4 411.9 401.6 388.5 377.6 373.7 370.4 365.4 368.5 370.9 374.9 381.1 389.2 393.5 395.2 395.9 395 394.4 393.1 393.7 394.9 395.6 396.1 395.9 396.5 399.2 400.7 403.3 406 405.9 405.6 412 416.7 416.9 416 415.9 414.9 412.5 416.1 429.8 446.5 449.5 443 436.6 432 427.4 421.2 413.7 410.1 403.5 398.4 393.4 387.3 378.3 366.8 360.5 355.7 351.8 349.7 345.4 341.2 338.5 333.3 333.6 328.7 324.6 321 320.2 318.6 321.6 322.2 323.1 323.2 322.7 320.9 317.8 313.9 310.8 307.1 304.9 301.2 298 294.9 292.4 288.5 285.7 285.4 282.5 278.5 275.2 273.8 270.8 269.2 267.3 265.7 265.7 263.9 259.1 252.5 249.1 248.4 240.4 239.6 239.9 239.6 240 239.5 239.9 239.2 238.7 239.7 239.8 241.4 245 261.2 281.2 289.9 299.6 308.2 313.8 312.5 303.7 295.9 286.9 283.7 288.4 308.1 317.1 322.5 329.6 342.6 357.4 360.8 365.4 374.8 375.3 376.8 373.7 364 353.9 344.9 337.2 328 324.9 327.5 332.5 344.1 355.9 365.7 372.5 375.9 379.5 385.4 400.6 412.1 424.1 434.7 442.4 450 448.4 444 433.6 422.2 409.5 399.2
348.4 339.7 341.5 342.4 343.9 343.1 346.2 355.1 368.3 378.4 384.8 386.2 386.7 383.9 380.9 376.5 370.2 367 361.4 364.1 368.9 375.2 383.1 394 408.1 420.4 430.4 440.4 450.1 455 457.5 457.3 454.2 445.8 433.4 422.4 411 401.7 390 381 377.1 373.1 370.5 374.6 380.3 383.8 390.7 396 399.5 400.1 400.4 398.5 398.1 398.9 399.3 400.1 403.4 405.3 405.1 406.5 407.5 410.4 409.6 408.7 409.1 412.2 417.9 419.7 420 419.3 419.6 418.5 414.9 417.4 427.9 447.6 448.6 442.5 436.1 431.2 425.4 419.1 411.3 404.6 400.1 395.9 389.6 382.3 372.3 362.4 358 354.1 351.1 347.3 344 342 338.1 335.4 332.4 329.5 324.9 327.4 325.8 325 325 325.1 325.6 325.4 324.3 322 319.5 316.4 313.1 310 307.1 305.7 301.6 298.4 295.8 292.6 290.2 289.3 286.9 282 279.8 278.3 275.1 272.9 272.7 269.7 270.3 269.7 265.9 259.3 254.1 252.3 250.1 239.8 240 239.8 240.2 239.5 239.1 238.6 238.4 239.5 238.5 238.9 240.8 253.8 279.7 285.4 286 289.2 292.3 293.1 288.9 278.9 274.1 276.4 285.9 299.7 309.4 313.4 320.4 335.8 345.4 348.6 353 360 373.8 376.9 371.6 362.2 352.1 343.9 335.3 327.2 322.6 324.5 330.1 340.6 353 359.8 367 373.4 377.9 383.3 390.3 403.1 416.3 429.7 441.5 448.4 449.6 442.7 432 419.4 406.7 396.3
345.1 346.6 345.8 348.4 350.6 352.8 352.1 360.6 373.5 380 384.7 389.5 389.6 383.3 382.3 377 369.7 366.6 363 365.7 370.5 376 386.9 400.5 415 426.5 437 449.7 459.2 465.2 467.8 466 458 448.4 438.9 426.4 414 404.7 393.1 382.9 378.2 374.6 377.9 382.5 387.4 392.6 395.5 398.9 401.1 404 405.1 404.9 404.7 405 407.3 408.4 412.8 413.8 413.7 414.3 414.9 417.1 416.6 413.2 412.3 415.5 418.6 420.4 421.8 425.2 428.4 420.4 416.3 417.3 423.5 441.6 442.3 437.8 433.7 430.5 424.1 416 406.8 400 396.1 391.4 381.9 371 362.7 359.1 356.6 353.1 350.9 346 342.9 340.4 339 335.8 332.1 328.8 329.7 331.6 330.9 331.7 330.4 330.6 329.7 328.3 326.9 324.7 321.6 320 317.6 316.2 310.9 309.1 306.6 302.7 299.8 296.4 295.3 293.9 291.6 286.5 286.1 284.1 280.9 279.1 278.1 275.4 274.9 273 268.3 262.8 260.2 255 252.2 248.6 245.3 239.7 240.2 239.2 238.5 238.3 238.1 239 238.5 238.5 239.1 245.9 267.1 275.9 273.6 267.9 274.6 272.8 269.5 261.2 263.8 268.8 278.9 289.7 301.1 303.5 309.4 328.4 345.6 347.7 356.8 362.9 371.5 375.6 370.6 362 351.8 344.4 334.9 325.5 321.6 321.7 324 331.5 339.2 349.2 356.6 365.5 374.8 381.3 393 402.7 417.5 427.8 436.7 442.1 445.7 439.7 428 415.6 401.6 388.9
350.3 351.1 351.4 352.9 356 360.5 361.2 367.2 377.8 389 394.5 397.2 397.3 387.9 380.3 371.8 368.1 365.5 364.7 366.8 370.3 377.6 387.7 401.8 419.8 433.9 447.9 461 470.4 477.7 478.2 472.2 463.1 453 442.9 429.4 418.1 408 397.3 385.9 380.1 379.9 385 390.5 393.2 395.5 398.5 399.4 401.1 405.9 407.9 410 411.6 413.5 413.1 414.1 416.9 419 419.8 419.5 419.5 421.9 418.9 417.5 416.3 418.5 420.5 422.1 425.9 426.6 427.5 423.4 416.5 417.5 419.6 429.1 431.3 430.6 429.9 425.5 418.3 411 403.6 395 390.5 383.8 372.2 365.7 360.6 356.6 355.4 352.3 348.8 346.3 343.6 339.4 338.3 334.6 331.8 331 333.5 334.7 336.8 337.2 335.7 335.5 335.2 332.8 332.4 332.3 330.3 324.5 321.1 319.3 315.1 312.1 310.6 308.7 305.3 302.5 301.1 298.7 296.8 295.6 294.5 291.8 287.5 285.4 285.6 286.1 282.7 276.3 271.4 267.3 263 259.3 256.1 252.1 247.7 244.7 244.6 244.9 244.7 243.9 241.2 240 238.8 237.5 238.7 238.1 243.8 247.3 247.7 246.6 245.2 249.3 247.8 249.4 256 257.2 262.7 270.2 280.7 291.7 297.4 318.5 332.1 338.1 345.5 355.7 372.9 379.7 372.9 361.2 351.1 344.2 334.4 324.9 320.4 319.7 321.9 325 330.2 339.1 349.8 360.4 371.7 378.2 390.6 407.5 420.6 431.3 432.9 439.8 440.8 439.4 423.3 409.2 395.5 380.7
356.4 357.7 357.5 358.8 362.9 366.8 369 375.4 389.1 397.7 403.7 406 403.9 393.1 380.6 371.8 366.3 365.7 364 366.4 370.2 377.9 390.6 408.8 428.6 444.6 459.4 473.9 483 491.6 486.4 477.9 467.1 457.1 446.8 432.7 421.4 408.9 396.6 388.1 384.9 388.6 393.9 396.9 397.8 398.1 400.4 401.2 402.7 409.8 415.7 417.2 417.9 418.2 416.6 417.3 420 421.2 420.6 421.7 422.4 422.7 423.3 424.6 423.6 423.3 424.4 425.1 425.7 428 428.7 424.1 416.9 416 416.7 418.3 419.9 423.4 424.5 418.6 411.1 404.3 397.6 389.9 381.6 374.1 367.7 363 358.9 356.3 353.6 350.9 348.1 346 342.9 340.8 337.1 334.5 334.1 334.6 336.4 339.6 341.9 341.9 340 339.6 338.7 337 336.7 335.6 334.2 332.2 325.3 322.5 319.8 317.3 315.5 312.9 308.6 306.4 307.3 308.8 307.4 306.1 305.5 302 296.5 292.2 292.3 291.4 288.2 279.1 272.2 267.6 265.2 261.1 258.5 254.6 250.3 251.7 251.3 250.5 245.9 244.9 241.3 240.8 239.5 237.9 236.9 237.4 236.7 238.4 237.8 239.3 240.4 239.9 242.3 245 247.3 249.7 255.7 261 263.7 267.2 275.2 295.9 319.7 330.9 336.9 353.5 371.4 377.4 372.6 359.9 351.9 342.9 332.4 324.4 319.4 318.9 321.3 325 329.1 337.1 345.8 355 366.5 376.5 393.6 407.5 413.7 422 429.7 430.6 432.4 426.7 415 398.8 389.6 377.5
361.6 362.5 363.5 365 371.5 372.9 373.9 382.2 394.3 401.2 405.9 409 405.7 397.8 386.9 375.7 367.5 365.4 364.4 366.2 371.3 381.4 399.9 417.3 436.2 453.5 470.5 483.3 498.7 501.9 494.3 483 471.3 460.4 449.9 437.8 424.2 410.2 397.7 391.6 394.3 398.7 401.4 400.7 400.3 400.6 402.4 403.1 404.5 408.5 416.3 418.6 419.3 417.9 416.9 416.5 417.2 418.3 419 419.5 422.2 425.4 427.4 431.6 435.3 433.4 430.1 427 429.5 430.5 429.4 422.1 416.6 416.4 416.7 414.4 414.5 417.3 418 412.2 405.6 396.9 389.4 381.9 376.7 372.1 367.5 363.2 359.8 356.7 353.3 350.3 347.4 344.7 342.5 338.5 336.2 335.5 335.8 337.5 342.5 345 345.5 345.3 343.6 342.6 341.7 341 339.6 338.3 337.3 335.4 329.9 327.4 324.8 322.4 319.8 316.6 313.2 314.4 317.2 319.8 319.3 316.9 314.9 310.5 304.8 300 299 296.4 291.4 282.4 275.2 272.2 267.7 262.8 260.3 258.5 255.8 256 254.4 251.8 246.6 244.5 241 240.1 239.2 237.9 238.1 237.4 237.2 237.8 236.2 237.3 237.1 238 239.3 242.5 244.2 248.2 253.4 256.5 258.1 255.1 257.6 273.3 297.6 318.9 334.5 344.5 363.7 374 370.4 359.1 350.1 340.7 333.1 325.3 319.6 318.2 319.6 323.6 329.4 341.2 349.8 354.5 364.7 375.9 393.2 406.6 409.7 416.1 418.4 420.7 424.1 414.8 403.3 390.1 383.7 367.3
367.5 367.8 371.2 375.8 380.4 381.8 379.8 388.8 398 403 409.4 409.1 406.3 401.8 392.9 381.7 373.8 365.8 365.1 365.9 370.5 383 403.4 424.1 443.9 461.9 478.9 500.7 514.9 511.1 500.5 489.1 474.7 461.4 449.2 436.7 422 407.6 400.8 399 404.3 404.5 403 402.9 402.8 403 404.4 405.3 406.3 407.5 414.6 419 419.4 417.7 413.5 414 413.9 416 417.2 420.3 423.1 425.8 431.1 437.7 441.6 437.6 430.2 427.9 427.7 425.3 425.9 418.5 414.7 416.9 415.8 411.7 410.7 411.7 410.1 407.6 400.8 392.2 385.8 380.5 375 370.4 366.4 362.5 359 356 353.1 350.4 347.9 345.2 341.4 338.5 337.6 337.2 338 340 345.4 347.1 347.6 346.3 345.2 344.1 343.4 342.9 342.3 340.9 340.7 338.3 334.4 332.3 329.7 327.1 324.5 321.9 321.7 322.9 325.6 328.1 328.8 326.3 323.2 319.1 313.6 308.9 304.7 300.7 293.8 287.1 280.7 274.3 270.3 265.3 262.9 261 258.7 257.1 254.2 251.3 246.2 245.5 242.8 240.3 239.1 238.4 239.4 237.6 236.9 237.2 236.3 236.9 236.7 236.5 238.1 240.7 242.5 246.6 249.2 251.7 253.4 252.8 255.2 261.4 281 309.7 328.6 338 350.8 362.7 363.1 354.5 347 340.2 333.8 327.4 320 316.2 318.7 321.9 327.8 339.7 351 362.2 368.3 374.9 396.3 405.6 407.6 410.4 407.3 404.8 406.2 401.7 393.1 384.2 371.4 360
373.9 377.1 383 385.5 386.1 387.9 388.4 394.7 401.9 407.2 409.9 411.3 409.3 406.5 397 388.2 375.6 367.5 366.3 365.5 371.1 386.1 407 428.4 451.5 471.1 491.6 513 518.1 514.3 502.4 488.6 472.4 459.2 447.7 432.5 418.9 410.9 403.7 401.5 405 404 404.5 404.6 404.6 405.3 406.6 409.7 408.3 407.7 409.1 413.4 414.4 412.2 407.1 407.7 405.6 404.8 414.4 419.1 423.3 425.3 430.4 437.4 439.6 432 421.4 418.6 414.9 416.5 416.7 415.9 411.5 413.9 413.2 409.8 408.5 408.4 407.4 405.1 400.1 393.8 389.1 382.8 376.8 370 365.7 362 359.9 356.7 353.3 349.9 347.3 344.6 342.2 340 338.1 338.3 340.4 342.7 346 348.3 348.8 348.7 347.3 346.2 345.5 345.2 344.5 343.8 343.6 342.1 339.4 336.7 332.9 330.3 327.7 327.3 330.5 331.6 331.7 333.1 332.9 330.6 327.6 323.3 317.7 313.2 308.7 303.1 298.6 291.9 285.1 281.6 274.8 267.8 265.6 263.1 259.9 256.7 252.6 248.3 246 242.2 238.8 238.6 238.7 238.2 241.5 240.6 239.8 237.5 236.6 236.8 236.7 236.3 236 237.7 241.6 244.4 245.2 246.7 248.2 250 255.5 260.6 272.7 302.4 321 330.1 343.4 355.4 351.4 348.4 345.3 341.5 337.5 330.9 322.5 314.4 316.2 319 328.1 339.6 353 363.4 370.5 377.5 389.7 401.1 409.9 407.6 404.4 400.2 392.2 390.6 382.6 374 357.6 350.2
383.3 388.6 392.7 393.2 393.6 394.4 396.1 398.1 403.2 409.2 409.5 409.4 406.4 401.5 395.3 386.4 375.2 369.5 366.9 366.7 373.2 387.4 408.6 432.4 455.8 476.9 498.1 510 520.5 514 500 485.9 469.8 456.4 442.7 430.6 420 412.6 407.9 406.2 405.3 404.3 404.9 403.6 402.4 404.6 409.6 410.9 408.9 407.3 405.7 403.9 401.1 402.5 398.7 394.7 394 394.1 399.9 406.4 416.6 422.3 424.8 428.4 429.6 423.4 416.7 411.6 407 400.8 403.2 403.9 406.2 413.6 413 410.3 408.3 408.1 408.4 407.7 403.5 400.9 395.7 389.2 380.6 372.7 365.7 361.6 359.4 355.7 353.5 350.1 348.6 345.9 343.3 340.9 339 339.4 341.4 343.4 345.2 348.9 349.7 349.8 349.8 349.3 349.6 349.2 348.4 349 347.4 346.1 344.1 340 336.6 333.4 332.9 332.6 337.1 339.3 338.8 338.1 336.8 334.1 330.4 325.1 318.4 314.1 309.8 305.7 299 293.4 290.8 286.3 281.4 274.7 267.9 263.8 260.2 256.7 251.1 247.7 244.9 240.6 239.2 238.9 238.8 238.5 240.3 238.2 237.5 237.1 236.2 236.2 236.5 236.1 235.6 235.7 235.4 235.5 241.2 242.9 243.5 244.3 250.3 257.4 263.1 291.4 312.2 323.5 335.5 339.8 347.9 347.8 347.4 345.6 340.7 334.2 323.1 315.8 311.6 315.5 325.4 339.6 349.2 358.6 368.9 378.8 386.8 396 402 397.3 395.9 388.7 383.7 378.3 365.7 357.2 348.4 344.6
394 397.1 401 400 400.1 401 400.7 404.2 405.9 407.4 408.6 407.8 402.5 396.9 391 382.2 374.9 370.1 367.6 369 378.1 391.4 410.3 434.6 456.1 477.5 494.2 503.6 512.2 505.5 493 483.4 466.8 455.9 439.9 430.1 421.5 414.7 410.1 407.3 405.4 404.4 402.6 401.5 400.4 402.1 405 405.5 404.3 405.1 403.5 398.1 393.8 390.5 387.9 390.3 384.3 383 383.7 391.5 406.9 414 415.6 416.9 416.6 415.3 411.1 404.2 399.2 394 393.4 393.1 401.9 407.6 412 412.3 410 408.7 407.9 407.8 407.9 406.3 400.8 393.7 385.4 376.2 369.2 362.1 358.4 356.5 354.5 352.9 351.2 347.7 343.4 341 339.2 339.6 340.8 341.7 344.1 347.3 350 350.7 351.2 354 354.3 353.7 352.4 352.4 352.6 350.7 346.8 342.9 339.5 338 337.6 338.6 342.3 344.2 343.3 341.7 339.5 336.6 331.1 324.9 318.5 314.1 309.8 305.6 299.4 295.3 292.4 288.5 284.3 280.8 272.8 264 259.5 255.3 249.9 247.9 245.8 242.7 240.1 240.3 239.2 239.2 238.7 238.6 238.1 237.7 236.6 235.6 236 235.6 235.1 235.1 235.4 234.5 235.6 240.6 240.5 242.5 247 252.2 259.9 281 307.9 318.2 324.5 331.2 340 346.5 352.6 348.3 341.9 332.9 323.4 316.5 311 310.6 316.8 329.9 341.8 355.5 363.4 375.6 385.7 393.8 396.2 395.2 388.1 381.6 375.5 365.4 354.4 347 345.3 339.7
403.7 405 404.8 403.8 404.6 405.2 405.2 408.1 409.1 409.8 412.4 414.9 408.7 398.8 388.9 385.4 377.5 369.3 369.6 374.3 384.4 398 415.1 436.7 458.2 475.3 488.8 496.3 498.2 495.9 486.7 476.9 462.8 449.9 438.2 430.6 421.8 415.7 413.2 409 406.6 404.8 402.3 400.1 399 398 397.6 397.7 397.8 400.1 396.6 390.6 387.3 383.8 377.4 375.2 375 375.8 376.4 380.9 390.6 398.2 402.7 405.8 403.3 404.1 401 397.1 392.1 389.5 388.8 391 399 409.7 416.5 416.8 411.6 408.1 407.6 409.8 413.2 411.7 404.5 397.7 389.4 380.6 370.9 363 360 357.9 357.4 354.9 352.6 348.6 343.3 341.1 339 338.3 339 340 343.4 347.6 350.4 352.7 358.1 359.2 358.2 356.8 355.3 354.5 356.4 351.6 348.4 345.7 343.4 343.1 342.3 342.8 344.4 345.6 344.6 342.4 340 335.7 329.4 323.9 317.5 312.9 308.5 303.4 297.3 293.7 289 286.7 284.7 280.5 275.5 267.1 259.7 252.6 249.1 245.5 242.5 240.7 240.4 241 240.5 240 239.5 239.2 238.6 238.1 237 236.5 235.6 235.2 234.8 235.2 235.4 234.9 234.8 236.8 238.7 241.4 244.6 248.7 255 265.7 293.2 309.6 319.9 322.9 328.5 336.9 345.6 343.4 337.3 330.5 322.2 317.1 312.6 299.8 307.9 319.1 333 347.4 355.2 364.5 374.1 383.7 393.3 395.4 385.5 376.5 368.2 358.2 348.2 341.9 338.2 337.8
412.8 411.8 408.1 407.6 408.5 410.4 410.7 412 411.7 417.2 417.1 413.7 408.6 400.7 393.1 387.9 374.8 370 372.6 378.5 389.2 404.4 422.6 442.6 460.6 475.6 485.8 490 491 485.5 477.5 468.6 457.9 447.4 438 429.9 422.2 421.9 414.9 408.8 407.2 406.5 402.6 398.3 396.4 394.3 392.6 391.2 389.2 390.9 388.5 385.5 380.3 374 370.3 369.1 368.9 368.6 370 372.5 377.7 386.3 391 392.2 391.6 390.1 388 388.8 386.4 385.9 385.7 391.5 396 406.3 416.5 417 412.5 408.7 408 408.7 417.7 412.9 405.7 396.3 389.3 379.8 368.8 367.1 364.4 362.5 360.3 357.4 353.5 347.9 342.8 339.3 336.5 334.3 334.8 337.6 344.2 348.3 351.8 354.9 361 361.4 360.5 359.6 358.6 358.6 356.9 353.7 350 348.2 348.1 346.7 344.6 343.5 344.6 345.1 343.3 339.8 337 331.5 325.4 320.2 315.2 309.3 305.9 297.3 291 290 287.2 286.2 281.9 276.6 271.9 265.2 259.4 250.4 249.1 247.8 244.8 241.2 241.9 241.2 240.8 240.2 239.6 239.9 239.3 238.4 237.9 237.6 236.8 236.6 236.8 236.3 235.4 235 235 235.3 236.1 237.9 240.1 245.6 251 258.9 282.3 301.6 310.9 313.3 318.8 327.8 335.3 336.6 333.8 328.9 321.8 315.2 312.8 307 298.5 307.8 319.9 333.8 348.7 358.5 365.5 374 384.5 386.2 380.1 369.8 360.9 352.9 344.3 339.4 333.3 329.6
418.8 415.2 412 412.1 415.1 414.3 413.4 413.9 414.1 414.5 415 410.7 406.3 397.4 392 385.9 373.9 373.5 378.8 385 398.4 413.2 431.8 450.5 466.6 481.1 495.5 503.7 494.8 483.8 473.8 465.3 456.2 446 437.2 427.5 423.4 420.1 411.6 408 409.7 407.4 403.7 398.3 392.8 390.2 389.5 387.1 380.8 379.4 380.5 377.1 372.7 366.9 361.7 359.5 360.8 362.6 364.2 368.4 371.7 381.4 383 382 380 376.6 374.7 374.7 374.6 372.9 383.1 390.6 397.2 406.8 415.4 416.3 416.6 414.5 409.4 409.8 411.5 408.5 400.2 390.2 386.1 377.5 376.5 373.4 371.5 369 364.9 360.1 356.9 352.1 345.4 338.4 334.9 330.9 328.6 331.4 341 347.5 352.3 355.5 358.9 361.8 362.7 362 359.8 359.4 358.8 355.4 351.7 351.3 349.5 345.7 343.7 343.7 342.4 340.1 336.3 329.3 324.1 320.8 317.1 312.4 306.5 300.9 294 286 287.1 285.1 281.1 277.5 274.3 267.7 263.3 261.1 257.6 250 248.7 247.9 247.8 244.3 242.1 241.5 241 240.2 238.7 238.7 238.3 238.5 238.1 236.8 236.1 236 235.9 235.1 235 233.7 234.7 234.5 234.4 235.9 237.4 243 247.6 252 273.2 293.6 302.3 306.9 306.8 315.2 323.7 328.7 327.7 323.1 319.6 314.1 311.7 308.2 293.6 295.9 307.9 324.1 336 347.7 359.4 364.3 366.2 368.9 365.5 355.5 350.7 344.2 339.1 332.4 327.8 323.5
425.1 416.3 414.5 415.1 415.5 414.4 414.1 414.1 414 413.8 412.9 408.5 403.4 395.7 391.1 384.3 375.5 379.2 384.6 393.1 406.8 422.6 440.7 460.4 471.9 487.8 504.1 504 493 481 470.3 462 456.8 446 432.3 425.5 422 414.4 406.6 404 405.7 405.8 400.5 396.7 389.7 384.7 383.7 379.4 373.2 368.7 366.6 363.8 360.3 356.7 353.9 353.9 354.8 358.2 360 360.2 367 371.5 372.4 372.6 372.2 371.2 369.9 367.8 363.8 364.5 376.8 387.8 395.5 402.4 407.9 414.4 418.2 416.1 412.8 406.2 403.7 401.1 396.1 389.3 386.4 386.3 384.5 381.9 377.2 372.9 367.6 362.2 359.2 353.6 346.7 340 332.3 327.3 323.5 323.8 333.9 345.9 351.6 355.1 357.6 359.7 362.8 361.6 355.2 357.9 357.7 354.1 349.8 348.7 347.1 344.3 341.4 339.3 336.5 334 329.9 324.3 318.3 315 308.4 301.5 293.4 286.3 276.9 270.1 271.1 271.8 269.6 266.6 263 261.8 258.3 254.3 250.4 247.4 244.4 246.9 247.4 242.5 241.1 240.3 239.5 239.6 239.5 239.1 238.6 238.7 238.2 237.4 236.5 236.4 236 235.2 234.3 234.5 234.5 233.9 233.8 233.7 234 238.5 243.3 248.4 256.4 279.4 290.6 296.9 300.1 304.7 307.5 310.3 313.8 313.9 314.5 309.8 306.8 304 299.6 280.5 298.2 320.3 334.9 343.6 348.8 355.2 352.1 346.6 345.4 346.5 342.2 337.3 328.6 325.4 324.7 319.6
423 416.5 415.4 415.6 415.7 415.2 412.7 414.3 412.3 410.9 409 406.4 400.2 392.4 387 380.7 377.2 383.2 391.3 397.2 412.1 429.9 447.6 463.4 476.6 486 494.1 492.9 487.9 476.5 465.8 459.3 452.1 441.7 425 423.1 419.6 415.2 405.8 400.4 397.5 397.9 395.6 390.3 383.9 381.3 376.3 372.4 365.1 361.6 358.1 355.7 352.3 349 347.6 349.6 349.9 351.9 354.4 352.3 352.5 358.7 361.3 364.2 362.3 364.7 359.1 357.8 353.7 360.7 373.9 382.5 389.4 394.3 400.9 409.9 418.9 417.9 416.8 408.9 403.1 398.5 396.2 397.3 397.7 397.1 393.1 387.2 380.3 374.3 370.4 365.4 359.1 350.6 344.6 340.5 334.6 326.5 320.5 316.1 326.3 336.2 346.1 351.3 354.8 354.9 353.5 351 348 350.8 351.5 345.7 342.7 343.1 343 339.2 333.5 331.4 328.6 326.2 323.5 313.5 304.1 296.1 288.3 283.6 276.9 273.9 267.4 260.1 258.8 256.5 256.6 255.3 253 252 251.4 250.1 246.3 244.4 243.5 242.7 242 241.1 241.6 244.8 244 242.3 244.7 239.5 238.9 238.8 240.6 241.9 243 241.7 236.6 236.2 234.3 233.9 233.2 233.4 233.5 233.3 233.2 234.6 241.8 244.9 249.5 257.6 275.9 287.3 292.7 297 302.3 304.6 304.8 306.5 305.6 302.4 300.7 298.4 295.7 281.8 287.9 308.9 326.4 337.2 344.3 344.9 346.7 342.1 340.2 334.9 329.3 324.9 320.1 318.7 318.5 313.6
426.6 419.1 415.1 415 415.1 413.9 410.9 412.9 412.8 406.8 403.6 399.2 393.1 384.6 381.1 379.2 379.8 387.4 395.8 405 418.9 436.1 451.8 464.2 475.9 480.9 481.7 480.7 477.5 466.9 458.9 450.7 440 427 419.6 416.1 414.5 409.7 404.6 397.9 393.9 393.1 389 382.1 376.8 375 369.8 364.7 357.6 352 351.3 348.2 343.1 342.2 344.3 345.9 345.4 345.9 346.7 344.4 340.7 336.7 338.9 343 344.9 349.1 346.9 344.3 343.6 358.5 369.7 376.4 381.7 386 393.8 400 404.5 409.9 414.5 413.5 405.2 400.4 403.7 409.9 409.6 404.9 397.2 390 381.4 377.3 371.7 361.7 355.2 349.7 345.1 341.3 332.3 324.5 317.2 312.7 313.3 323.4 333.6 342.9 347.9 349.1 344.1 343.3 342 341.2 340.5 336.1 334.7 334.6 331.7 326.2 321 317.4 313.6 306.6 297.7 286.7 280.1 277.7 274.3 271.3 269.9 268.7 265.8 259.3 254.2 251.2 249.9 247.9 247.1 244.9 244.6 244.3 245 243.6 242.9 242.5 241.8 245.4 246.8 248.9 250.5 249.1 248.9 243.4 242.6 245.9 249 251.5 252.3 247.2 243.5 242.4 240.2 241 240.4 233.8 233.2 233.4 232.6 232.8 232.5 243.1 246.6 249.9 256.6 270.7 280.3 285 291.7 295 293.6 291.6 293.1 292 292.7 291.4 285.3 279.2 280.3 303 319.1 329.2 333.4 332.4 333.5 337.6 337.8 329.1 324 316.3 311.8 304.5 305 302.5
430.9 423.1 412.3 410.5 409 408.9 408.5 407.7 406.7 401.4 394.6 389.5 384.6 379.4 376.4 376.7 381.8 390.1 399.9 410.8 427.8 442.8 456 465.7 472.6 476.5 472.8 471.7 466.8 457 447.9 441.9 429.9 419.2 413.7 411.3 407.7 401.8 395.7 392.6 390.8 383.9 380.4 376.2 372.1 366.4 360 353 347.4 340.3 337.9 336.1 336.3 339.6 340.7 341.7 341.2 341.2 341.1 340.5 335.7 325.6 320.8 319.8 320.6 326.9 332.1 328.4 333.3 347.8 357.4 368.3 371.2 378.1 382.3 390.1 396.4 403.1 408.4 407.2 403.4 408.1 408.1 417.6 414.7 405 399.2 391.3 383.9 378.5 367.2 359.5 355.5 350.3 346.8 339.6 331.3 322 312.6 307.5 306.3 309.1 317.2 326.9 329 332.5 334.8 334.6 335.2 332.5 328.5 325.8 322.7 316 309.5 304.1 299.3 293.6 286.1 281 275.2 270.9 269.2 268.8 268.2 266 265.9 265.4 262.4 258.7 254.2 250.9 249.3 247.5 247.2 247.5 246.3 245.2 246.5 245.4 244.1 243 244.4 248.9 251.5 253.6 254.7 254.8 254.1 251.2 251.3 254.6 261.3 263.6 265.7 260.6 254.7 250.8 246.1 245.8 242.9 240.8 235.6 233.6 233.4 232.8 232.6 232.8 242.8 245.4 248.8 255.2 258.3 264.4 270.1 278 281.2 283.2 283.3 284.7 286.1 281.2 275.3 270.7 275.5 299.6 314.3 320.4 323 326.1 331.5 335.3 332.6 324.4 318.1 309.6 304.4 298.5 292 287.9
427.2 420 410.8 402.2 399.1 400.3 399.1 397.1 395.3 390.6 385.8 382.5 377.4 375 370.4 372 380.1 392.7 400.9 415.2 432.4 448.4 459.1 464.9 466.2 471.1 466.4 459.5 457.7 448.3 438.1 425.3 418.6 412.5 410.5 407.9 405.4 398.2 391.7 386.4 382 377.5 374.6 369.8 365.5 359.8 350.1 343.7 337.4 334 331.5 331 333.9 336.6 336.9 337.5 337.5 336.9 336.5 335.6 332.9 328.4 319 313.5 312 311.4 312.7 315.4 323.1 334.8 344.6 353.3 360.1 365.2 366.1 375.7 385.4 393.5 396 397.4 403 406.1 406.4 413.6 411.1 405.3 399.8 392.5 385.1 371.6 365.2 358.5 354.7 350.4 345.5 335.9 326.2 319.5 310.5 302 301 300.6 301.3 309.4 313.1 316.9 324.2 323 320.9 318.7 314.3 307.8 299.6 292.1 286.7 283 279.1 275.7 272.9 268.8 263.6 260.5 261.7 262.6 261.8 261 260.8 260.6 258.9 255.1 250.6 248.9 249.1 249.2 250 248.8 247.6 246.6 248.3 248.5 247.9 249 248.7 253.1 255.9 258.1 259.6 260.4 260.9 259.7 262.6 268.6 273.4 275.6 274 272.3 269 264.7 259.2 253.4 249 243.7 237.5 234.7 233.2 232.8 232.8 231.8 235.3 239.7 242.3 245.6 248.6 251.9 254.8 256.6 262.8 270.1 272.3 274.6 272.9 269.4 266 262.2 271.5 291.3 304.6 314.9 327.6 336.3 336.8 334.3 332.5 318 307.2 301.9 297.1 291 286.6 277.9
424.1 415.7 406.2 397.1 393.6 392.2 390.2 388.8 387.4 382.7 379.5 372.4 366.5 365.6 364.1 369.1 380.4 393.7 403.7 418.9 435.7 449.7 455.4 459.7 459.5 459.4 453.5 446.9 441.8 435.4 426.3 418.8 414 409.3 404.8 400.9 396.7 393 389.1 381.8 377.6 371.5 366.1 361.2 354.8 347.2 339.7 334.3 332.2 330.8 329.5 329.5 333.4 333.1 333.4 333.9 334.7 333.6 332.1 330.5 329.3 324 320.4 313.9 310.6 310.1 310 312.4 312.8 317.5 326.1 336.3 346.1 351.7 352 359.3 368.7 378.5 385.8 384.4 390.7 394.1 398.2 407.5 405.9 404.9 397.5 390.1 374.2 365.4 363.7 353.2 348.3 344.7 339.1 329.5 321.8 314.9 306.6 299.5 296.7 288.3 288 296.3 300.2 300.3 304.2 303.9 301.2 298.4 293.8 287.7 282.4 279.4 277 274.7 270.4 266 263 260.5 257.7 256 257.8 257.9 257.1 255.1 253.3 252.9 253.3 251.1 250.4 249 250.8 252.8 251.3 250.4 250 248.7 249.5 249.8 250.4 252.8 253.4 257.7 259.9 262 264.2 265.1 266.6 268.1 274 278.2 279.5 279.2 281.5 282.8 278.8 273.9 269.3 261.4 255.9 251.4 244.3 241.9 237.8 232.5 232.4 232.4 232.1 231.8 231.6 239.9 241 242.3 244 246 250 254.3 258.5 258.9 258.5 256.9 256.8 250.3 272.4 289.8 300.6 312.5 323.2 331.8 331.7 324.5 320.1 311.1 299.2 292.1 289.6 286.3 283.7 275.8
418.1 410.1 401.9 397.5 392.2 389.9 387.4 384.5 380 374.1 368.2 364.8 363.2 360.1 360.7 367.4 384.7 394.8 404 419.6 436.9 445.3 450.6 461 458 451.1 442.8 440.5 436.9 429.8 419.7 415.7 412.1 408.6 403.5 398.1 394.2 388.4 385.1 377 373.9 366 361.1 356.1 347.4 338.5 332.4 329.1 328.3 328.4 328.3 328.7 330.4 329.7 329.8 331.3 332.5 331.4 329.7 328.1 325 320.6 316.9 312.5 311.8 310.4 309.5 310.3 309.8 311.6 315.8 321.1 326.4 333.2 336.9 343 351.5 360.8 363.5 367.1 370.1 376 381.2 385.6 386.1 384.1 374.5 365.7 364.7 355.6 344.6 342.8 337.9 334.5 323.7 312.7 309.6 304.6 299.8 295.1 290.7 280.8 278.7 279.8 283 284.8 284.2 282.5 281.1 279.1 278.3 277.4 275 274.1 271.3 268.6 265.3 259.3 258 257.5 256.7 255.7 255.3 254.2 253.8 253.3 254.8 254 253.2 252.6 251.7 253.1 253.7 253.9 252.2 251.4 250.7 249.9 250.2 252 253.8 257.5 259.8 262.4 264.1 266.2 268.5 270.2 271.9 276.6 282 285.5 288 287.4 289.8 289 284 283.2 281.9 269.7 268.2 261.1 253.3 247.7 243.8 238.7 231.7 231.6 231.7 231.7 231.7 231.3 231.5 231.4 231.8 232.4 235.2 240.6 244.7 246.4 247.9 248.4 249.6 251.9 276 287.1 297.5 312 320.3 322.8 323.6 322.4 312 298.1 287.5 287.7 287.5 284.1 280.6 276.1
414.8 408.8 401.4 395 392.1 390.1 387 382.5 374.2 368.6 363.8 360.8 359.2 357.5 361.4 367.2 383.1 395.6 407.6 422.8 436.8 442.7 452.8 458.3 455 446.8 441.7 438.6 431.8 422.1 415.9 413.8 410.4 404.4 399.7 394.6 390.7 385.2 379.3 373.6 368.7 361.7 355.3 349.3 343 331.9 329.1 327.5 326.8 326.3 326.1 325.8 325.2 325.8 326.8 328.6 329.6 328.8 327.2 324.5 320.3 316.8 314.2 314.2 313.6 311.7 310.5 309.6 309 309.6 311.5 314.9 317.5 320 323.3 325.5 329.9 337.4 347.8 356.4 359.8 361.7 366.6 368 365.5 358.8 355.3 346.9 343.4 342.6 336.6 330.6 323.5 317.2 307.6 299.3 296.3 298.2 294.7 286.8 280.7 274.9 272.7 270.7 269.8 269.7 269.4 269.6 269.4 270.4 270.7 270.4 270 268.9 267.3 265.4 262.4 257.8 257.7 258.3 257.7 256 256.3 256.6 260 261.2 258.9 256.5 255.9 254.7 254.3 254.4 254.3 254.7 254.4 253 251.7 252.2 253.3 254.3 255.6 260.6 264 267.3 270.3 274.3 276.8 277.7 280.2 284.4 289.3 293 297.4 299.8 298.1 295.6 296.9 295.6 290.7 286.2 280.3 274.4 264.5 256.3 250.9 246.3 241.3 237.3 233.8 231.8 231.6 231 232.7 232.7 231.1 230 230.2 231.9 231.8 233 235.2 237.9 240.4 257.5 274.5 285.2 292.5 302.1 310.3 315.5 320.5 313 296.6 286.9 286.9 287.1 287.3 282.2 277.6 273.4
412.2 406.7 399.8 394.3 391.6 389.1 385.5 381 371.1 363.2 358.8 356.7 355.7 359.2 363.6 374.1 383.3 396.9 408.7 423 434.9 442 453.2 451.3 448.1 442.3 439.1 435.6 427.8 420.1 415.9 410.9 406 401 397.3 391.5 383.8 380.8 377.4 368.2 360.9 353.1 345.3 339.9 336 329.6 327.9 326.8 326.2 326.7 326.5 326.5 326 326 325.3 324.4 325 323.4 321.2 319.4 318.7 318.2 318.7 319.8 319.6 318.1 311.1 309.1 308.6 308.2 310.2 311.2 312.9 314.9 316.9 317.3 317.7 319.3 327.2 339.3 344.8 349.2 353.3 351.7 346.4 342.5 336.5 332.8 333 330.1 326.2 322 314.6 308 300.1 295.2 291.3 290 283.8 278 273.5 271.1 270.1 268.1 267.2 266.8 266.6 265.8 265.1 264.1 265.8 265.3 265.2 265.3 263.8 262.6 259.2 258.7 260.6 262.7 262 259.9 260.1 261.2 262.7 264.9 262.7 261.7 261.7 258.3 256.3 256.2 256.8 255.5 254.5 254 253.5 254.9 255.5 257.2 258.8 263.7 267.1 271.7 276.7 282.5 287.9 289.1 289.3 293.1 298.5 304.1 309.9 311.6 308.6 307.4 309.8 305.3 302.4 299.5 297.9 290.9 279.9 267 259 256.1 254.9 250.4 244 237 240.4 238.6 235.7 236.9 238.9 232.8 229.8 228.9 229.9 231.1 233.9 237 245.9 259.6 272.2 281.8 289.1 291.6 296.5 297.7 299.7 296.1 285.8 283.5 286 285.9 281.3 272.9 269.5 265.6
408.7 402.3 396.5 391.4 390.1 387.9 384 378 367 358.1 354.7 354.2 355.4 359.6 364.7 376.8 389 397.5 409.8 425.5 434 444.7 449.1 449 443.1 440.4 433.6 425 422.1 419.6 416.8 411.8 404.8 398.7 394.1 388.3 378.2 372.3 369.2 362.3 354.1 344.5 339.1 335.4 330.5 328.2 327.8 326.5 327.1 327 327 328.1 327.5 328.4 329 329.6 327.6 331.8 331.1 331.2 330.7 331.3 329.7 327.1 323.7 323.2 317.1 309.8 308.7 307.9 307.7 308.3 309.3 311 311.1 310.6 310.4 311.5 311.8 314 320.6 326 327.6 329.5 331.7 331 327.4 322.6 316.7 315 316.8 313.1 305.2 296.3 289.1 289.9 288.5 279.6 276.1 272.2 269.2 269.3 268.3 267.5 267.2 267.2 266.4 265.6 264.9 263.8 263.3 262.7 262.5 262.6 261.5 260 260.9 265.4 269.7 271.2 268.4 266.4 266.7 266.5 266.8 268.1 268.4 267.8 266.3 261.2 259.2 257.9 256.5 257.5 255.9 255 256.4 256.7 258.6 260.2 264.5 270 273.8 278.3 283.4 289.9 295.1 296.7 297.8 302.5 309.1 316.6 321 322.8 319.2 319.8 321.2 316.2 314.1 313.9 309 301.1 289.5 279 271.4 268.7 267.3 265.3 261.3 254.3 253.5 250.2 239.4 245 246.8 243.3 240.4 237.5 235.8 229.2 231.3 235.2 245.6 256.2 269.8 276 282.3 285.3 289.9 291 288.4 284.6 281.6 283.9 282.9 282 275.2 266.8 263.9 254
405.5 400.3 393.9 389 387.4 385.9 382.1 371.3 360 354.6 351.7 350 352.1 360.2 365 376.7 395.7 401.5 419.9 427.9 435.3 446.1 449.4 445.6 440.5 436.1 428.3 423.9 422 419.6 418.5 411.6 403.4 397.4 388.1 384 375 366.2 358.1 350.9 343.4 337.2 335.1 330.7 328.6 327.8 327.1 328.2 329.1 329.4 331.8 334.3 333.6 333.1 334.1 337.3 340.5 341.2 341.9 339.5 339.5 338.4 338.2 335.6 331.3 328.6 324.4 317.8 315.7 312.1 309.3 307.5 305.5 306.1 302.1 303.9 305 304.4 303.5 301.7 301.6 304.3 308 310.6 313.2 316.2 314.1 309.8 307 303.9 303.5 295.4 289.5 281.3 279.4 280.4 279.2 272.4 270.8 269.7 269.7 273.4 272.9 269.2 267.1 266.5 266.2 265.5 264.8 263.5 263.2 262.9 261.6 261.6 260.3 264.5 269.8 273.3 275.8 276.2 272.9 270 270.9 270.6 269.5 270.9 272.4 272.2 269.4 266.2 263.6 260.2 258.2 257.8 256.8 257.7 259.9 263 264.9 265.8 269.5 277.7 284.4 289.2 295.5 302 302.5 305 305.5 309.5 318.1 326.8 330.3 332.4 328.8 329.6 330.1 327.3 325.7 322.5 317.5 309.3 297.3 290 285.2 284 278.7 274.7 272.5 268.3 262.9 254.4 246.6 252.5 252.3 248 248.2 242.6 235.5 229.8 228 230.5 239.7 254.8 266.2 274.6 277.8 280.9 284.7 284.8 282.7 280.5 281.2 282.8 282.2 275.9 268.8 263.9 259 251
404.3 398.5 392.5 387 384.2 380.6 373.4 360.6 353.4 352.1 349.7 347.5 350.4 358.1 366.4 381 398.5 409.9 418.9 426.5 441.4 446 447.3 441.8 435.1 430.9 424.9 422.8 421.3 419.8 415.3 409.5 401.4 392.1 382.4 375.9 369.5 361.1 351.7 345.6 337.4 333.5 332.5 329.8 328.1 328.7 330.2 336.8 340.7 343.1 344.4 348.7 344.3 338.7 341.5 345.5 348.1 348.5 347.9 348.8 349.3 346.7 343.3 341.5 338.7 334.1 330.1 326.1 321.1 317.5 315.3 312.4 312.1 307.5 306.4 303.5 299 299 297.3 295.8 295.2 294.1 294.7 296.2 297.6 300.1 302.8 302 298.2 295.1 292.4 287.8 282.2 276.3 274.5 273.6 274.2 272 272 271 273.4 275.6 275.1 271.1 267.4 266.3 265.5 264 263.6 262.9 262.7 263.6 262.2 262.6 265.6 270.5 274.6 277.6 278.3 276.2 273.7 273.5 274 274 273.3 273.6 274.8 273.9 270.9 269.6 267.2 263.8 259.3 259.8 259 264.3 267.1 269.4 270.3 270.2 275.1 285.9 294.3 300.9 308.1 309.1 311.9 313.9 314.5 318.8 327 337.2 341.4 341.3 339 339.1 339.6 336.8 331.8 328.4 322.3 312.8 305.8 301.8 295.3 291.2 286.2 281.6 278.4 274.5 269.8 254.8 253.6 257.5 254.5 254.9 252.6 241.7 230.9 229.3 229.6 231.2 240.6 242.8 265.1 274.7 277.6 281.1 282.9 280.3 275.1 274.2 273.5 273.9 274.4 270.9 266.7 262 254.7 246.7
402.3 395.1 390.2 385.7 381 374.8 362.7 353.8 350.5 348.9 346.7 344.7 352 358.6 366.7 380.5 397.5 413.7 423.7 427.9 440.6 444.8 445.6 436.4 427.8 425 424.1 422.5 422.1 421.3 414.8 403.2 394.4 385.8 377.9 367.1 361.4 354 347.4 340.8 334.4 332.4 330.8 328.6 328.8 331.8 338.4 343.8 350.5 353.8 355.4 358.2 352 349.9 350.6 356.6 359.8 359.2 359.9 359.9 357.5 355 352.6 348.7 345 340.7 334.9 329.6 325.8 322.7 320.5 322.7 321.5 315.5 311.5 307.9 304.7 300.7 298.6 296.9 295.1 293.2 292 291.3 292.9 295.3 298.4 298.3 296.8 294.3 291 287.9 284.3 279.7 274.4 273.2 273.2 273.5 272.7 273.1 275.4 276.9 274.9 274 270.5 268.9 267.6 266 265.7 266 266.1 265.4 265.7 269.3 271 273.2 276.9 278.7 278.9 278.1 279.2 280.2 279.9 278.2 277.8 276.8 274.2 273.7 275.7 275.1 272.1 266.1 261.2 261.5 263.5 272.5 274.8 275.5 276.9 278.3 286.1 296.6 304.3 311.2 318.1 318.9 319.9 321.8 324.4 328.2 337.6 347.4 349 349.7 347 347.1 345.9 345.6 335.5 333.2 328.1 320.2 311.5 310.1 304.9 296.1 291 285.9 280.4 278.3 269.3 257.9 262.7 260.1 259.4 257.1 248.3 239.1 229.7 228.8 229.3 232.4 241.7 249.5 247.5 271.8 276 280.6 279.5 275.5 272.1 267.1 265.8 264.2 266 265.1 261.8 257.6 247 236.5
398.8 393.2 387.6 383.3 377 366.5 357.3 351.4 348.5 345.5 343.4 344.7 353.9 360.2 368 379.9 403 417.7 425.4 430.6 437.6 445.5 437.7 427.8 425.8 425 423.6 422.1 422.6 419.7 408.8 397.6 391.8 383.9 372.8 363.5 355.2 348.1 342.2 336.1 332.9 330.8 329.4 329.9 332.7 338.4 345.8 350.7 354.8 359 364.1 364.6 363.6 360.9 362.2 366.3 367.9 370.2 371.8 371.4 367.6 364.6 361.1 355.8 351.6 348.1 341.9 336.9 332.7 330 328.1 329.9 328.3 325 320.2 315.1 311.6 307.5 305.3 302.9 300.7 297.1 293.2 291.9 289.8 292.8 296.6 297.4 296.3 293.8 289.7 286.5 283.8 280.9 278.6 274.7 275.2 275.4 275 275.2 277.1 278.5 278 276 274.4 273.4 270.8 269.7 268.5 269.9 270.5 273.6 276 277.7 279.5 282.1 283.1 284.7 287.6 288.3 288.7 289.9 288.7 287.6 287.2 284.8 284.4 285.5 283.2 279.2 275.3 268 262.7 266.8 271.5 276.9 280.1 283.3 285.4 290.3 298.6 305.8 313.1 320.2 326.1 327.2 327.8 329.8 332.4 337.3 349.9 354.6 359 356.8 355.7 354.3 352.1 348.2 338.3 336.5 331.4 324.5 318.6 313.8 308.2 299.4 294.1 289.9 280 274.2 264.3 268.2 268.7 270.7 264.7 256.8 247.8 238.4 230.6 228.3 229 232.5 242.2 251.3 251.4 247.7 269.8 271.3 270.5 269.6 268.1 264.4 262.1 261 260.6 258.4 253.9 242.5 228.7 219.9
395.3 390.2 384.5 376.9 367.6 357.3 351.6 348.6 345.7 342.8 340.6 346.4 355.2 362.2 371.4 382.7 404.7 415.3 425 432.1 441.1 438.8 432.2 426.8 425.8 425.4 424.3 422.4 419.4 414.8 405.8 398.6 388.6 381.3 370.6 361.1 352.2 344.7 337.8 333.5 331.3 329.6 331.3 333.6 338.7 347.9 351.9 356.9 360.3 364.7 367.9 372.2 374.7 368.5 373.1 377.6 380.8 387 383.5 381.7 377.1 374.4 370.8 365.4 359.1 356.2 352.9 347 342.5 338.7 336 336.8 334.5 331.3 326.1 324.4 320.6 315.2 312.6 308.6 305 301.6 295.3 291.5 290.7 290.3 293.6 296.4 294.4 291.6 286.9 284.2 282 279.7 275.5 276.1 276.7 276.4 277 278.1 280.6 281.2 281.5 279.5 280 280 276.6 275.9 276.6 279.5 279.9 282.1 286.1 288.9 289.9 291.3 293.5 297.2 298.4 298.2 299.3 299.8 298.5 295.6 292.7 293.2 292.6 291.5 285.6 281.5 274.6 270 265.4 270.2 276.8 281.1 285.6 293.1 295.9 303.3 310.8 319.3 324.9 330.3 334 335.8 335.3 337.8 340.6 347.6 360.1 366.6 366.7 368.1 363.5 358.1 353.8 346.9 339 335.8 332 328.8 323.2 317.4 309.1 303.7 297.7 287.7 278.8 270.9 273.3 273.3 273.6 271.7 264.9 261.2 257.4 242.1 227.6 228.1 228.4 232.9 242.9 246.7 252 253.9 243 260.8 264.7 263.7 264.3 263.4 258 255.4 254.6 250.3 245.2 221.1 209.4 206.4
391.1 386.3 379.5 370.1 359.9 353.1 348.3 345.5 342.6 340.8 338.8 343.9 355.1 363.2 372.6 385.3 400.2 415 426.4 436.9 439.7 434.9 429.6 426.5 425.4 425.1 424.7 423.2 420.2 411.8 403.9 393.5 385.5 376.2 365.7 357.1 350 343.1 335.1 332.5 330.4 331.3 335.7 340 346.1 355.4 358.2 363 366.4 371.3 377.1 379.5 379.5 377 383.1 390.8 390.6 394.4 397.3 393.3 388.9 380.8 375.5 370.4 368.4 367.8 363.8 358.4 353.1 346.2 342.9 341.8 338.4 335.4 332.2 328.6 325 319.3 316.5 313 308.5 304 299 292.6 288.5 289.4 291.1 294.8 292.6 290.2 285.9 282.9 279.8 276.9 276.2 278.1 279.8 280.1 279.6 281.9 284.4 284.5 285 286.1 286.7 287.5 289 288.8 288.9 290.7 292.6 293.6 296.2 299.9 302 302.3 303.2 308.7 308.7 309.5 310.5 308.4 305.2 302.3 299 298.1 296.7 294 288.7 281.3 276.2 267.8 270.6 277.3 282.1 285.9 290.9 300.1 303.8 313.4 320.7 326.3 335 340 343.2 344.1 342.4 345.2 350.7 360.2 369.3 372.9 377.1 373.5 368.4 363.9 356.9 348.2 338.7 336.1 333.9 329.4 323.7 316.1 308.7 302.5 295.2 285.7 282.6 282.5 278.5 277.9 277.9 272.1 264.6 257.1 256.1 252.2 242.5 227.4 227.5 227.8 239.8 240.2 235.8 253.4 258.9 237.2 240.9 249.4 252.4 243.2 235.4 229 226.2 221.2 213.5 209.9 202.7 195.2
384.7 380.9 373.7 362.1 353.7 349.4 345 342.5 340.5 338.7 337 341.3 351.8 361.1 371.6 384.4 400 416.7 431.7 437.8 441 434.3 428.6 425.9 424.9 424.3 424.1 422.5 418.4 407.7 398.8 388.6 379.1 370.3 360.5 351.7 345.4 339.3 333.1 330.6 331.2 335.4 339.8 344.5 350.8 363.9 368.2 375.6 379.8 382.4 384.7 386.2 385.9 383.9 390.2 397.3 402 402.8 408.3 402.6 397.1 389.6 381.3 375.5 375.3 374 371.5 367.3 360.4 352.6 349 344.9 341.8 339.7 336.7 332.6 324.5 321.9 318.8 315.4 311.5 306.7 301.9 295.8 288.2 288.3 289.2 293.3 291.3 287.5 284.7 281.4 278.3 277.1 280.4 282.5 282.1 281.9 283.5 286.3 289.2 292.5 293.5 296.1 298.4 299.2 301.5 303 301.5 300.2 301.2 305 309 310.6 310.1 312.2 312.6 318.7 319.9 319.5 319.3 315.5 311.5 308.5 305.9 302.7 300.1 296.7 288.5 281.5 275 270.4 281.1 285 287 292.9 300.4 304.9 309.9 320.3 329.6 337.1 343.6 351.8 355.3 356.6 355.4 357.8 362.2 369.8 380.5 382.5 380.9 379.3 376.6 367.2 354 346 337.9 334.1 330.8 325.5 317.9 307.9 301.9 298.9 294.1 293.4 290.7 288.7 284.6 282.5 277.7 272.2 263.3 257 250.9 244.2 241.1 236.1 227.6 226.8 224 221.4 209.3 237.5 232.5 234.9 250.8 240.8 228.1 225.5 222.4 219.2 216.9 208.5 202.5 196.7 191.2 185.2
381.6 374 368 357.3 351.5 347.3 343.3 341.3 338.8 337.1 336 341.2 348.2 358.5 370 387.5 400.1 417.9 430.1 438.4 439 433.5 428.5 426.3 426.6 423.4 421.1 418.2 413.4 405.2 392.6 381.8 372.9 365.2 356.3 347.9 341.6 335.8 330.7 331.3 334.1 340.2 345.5 351.8 361.7 373 381.6 384.5 388.8 392.5 396.2 396.5 394.3 394.8 397.7 402.7 408.8 412.1 411.4 416.2 408.9 400.4 390.5 383.4 385.4 386.3 379.2 370.2 363.3 357.2 353.1 348.8 349.5 345.9 341.9 335.8 327.3 325.8 322.3 317.7 313.1 308.5 302.5 298 290.4 286.2 285.8 288.3 287.8 285 281.6 279.3 282.7 286.9 285.4 286.6 285.8 284.7 287.1 290.1 297.1 300.6 307.1 310.3 312.5 314.8 316.3 316.9 314.6 311.9 312.8 318.7 321 322.4 323.9 325 325.2 330.6 330.8 328.8 327.6 323 318 314 309.2 305.4 303.5 296.4 291.7 285.6 276.3 282.3 289.3 293.4 296.5 303.5 308.9 314.3 316.1 328.3 339 347.2 356 362.9 366.5 366.5 367 368.7 373.6 385.2 391.3 392.9 392.3 385 374.7 369.3 360.1 347.2 338.5 334.6 329.3 319.7 310.6 313.2 309.8 306.5 302.7 299.2 296.2 292.5 288 283.3 278.9 270.9 262 252.2 246.5 242.6 238.9 236.4 241.6 239.8 240.4 243.8 228.6 205.8 207.7 196.5 229.9 232.9 228 235.4 219.3 205.2 197 192.2 188.6 185.8 181.6 182.3
377.7 369.6 362.9 356.6 351.8 348.7 344.8 342.2 339.4 335.7 335.4 342.4 349.1 357.9 373.7 389.8 404.6 419 432.3 437.6 438.6 430.1 426.8 428 425.6 422.2 416.1 414 408.4 400.9 387.3 375.6 367.8 359 351.5 343.9 338.6 333.2 331.7 333.5 339 345.2 352.1 357 371.9 382.1 390.5 395.2 399.9 404.1 405.2 404.5 407.3 403.8 405.3 411.9 415.1 420.6 418.9 417.7 421.2 417.5 405.4 396.4 392.1 389.6 380.8 374.4 371.1 367.5 358.1 358.9 361.6 350.5 344.2 338.7 333.9 329.5 325.5 319.8 314.1 308.6 303.2 295.4 289.9 287.3 285.4 283.9 283.6 281.5 286.2 288.5 290.6 292 291.1 290.9 288.7 288.8 292.3 296.7 304.9 310.1 317.6 322.5 325.3 327.4 328.5 329.1 326.9 323 325 331.4 334.6 335.1 337 338.9 339.5 344.5 341.7 340.1 335.5 330.3 322.1 316.1 311.8 308.1 304 297.5 293.7 289.2 278.2 291.6 296.8 302.9 305.5 309 315.2 318.7 324.7 335.9 347.2 356.3 367.3 372.9 376.7 376.2 376.4 380.1 385.9 394.1 401.7 400.9 392.9 387.9 380.2 370.1 358.9 345.5 336.8 331.5 325.3 316.5 317.4 318.3 316.9 312.9 307.3 302.2 296.7 292.6 288 282.3 275 266.3 256.8 248.2 243.4 240.7 238.3 241.3 242.9 243.9 245.9 252.3 253.1 239.1 234.2 220 196.2 217.2 232.6 216.7 201.1 189.2 186.1 184.3 182.2 186.4 188.7 193.7
373.9 366.9 362 357.4 353.8 350 346.9 342.5 340.3 337.7 334 342.5 350.8 359.7 372.3 389 403 420.6 434.5 440.1 436.4 425.8 425.9 427 423.4 417.5 411.8 409.7 403 397 384.3 370.5 360.6 353.2 345.3 339.7 335.8 332.6 333 337.9 346 350.9 361.4 364.9 380 387.2 397.9 405.4 411 415 414.1 416.1 418.7 416.9 418.1 419.8 422.9 425.9 428.6 428.1 424.4 428.8 421.8 416.1 406.9 399.9 392.9 389.7 384.3 379.3 370.9 364.8 364.1 354.6 348.3 342.2 337.4 333.5 330.1 322.5 314.4 307.7 301.9 294.1 288.7 289.6 288.8 289.5 289.2 291.6 293.7 295.7 296.5 297.1 295.7 295.3 291.6 293.8 298 303.1 312.9 321.1 325.9 333 335.2 336.8 337.3 338.8 337.8 333.9 334.9 338.5 342.6 347 348.6 353.1 354.6 354.9 351.9 349.7 342.9 334.9 324.1 317.5 312.4 306.5 302.6 299.2 296.5 290.5 287.6 298.6 305.8 310.5 312.5 314.2 320 325.3 332.3 341.2 352.4 364.8 378.9 383 386 386.6 387.8 392 397.5 403.2 403.1 401.6 396.3 389.1 378 365.8 353.5 339.3 334.7 329.1 324.8 324.6 324 324.5 322.1 317.7 312.1 304.7 299 295.4 290 285 277.7 267.5 256 245.7 243 240.8 240.9 241.2 242.8 245 249.4 254.2 253.2 245.9 237.7 226.2 203.4 194.4 196.5 190.4 188.3 185.1 183.1 186.6 191.2 195.3 207.6 212.7
372.7 368.1 363.3 357.9 352 348.1 345.9 343.1 339.4 338.1 331.8 344.3 353.2 363.4 377.5 388.8 404.4 425.5 436.2 437.1 429.1 421.5 426.1 422.6 416.6 410.3 406.7 401.3 396 390.5 381.3 372.2 357.6 349.2 341.9 338.7 335.3 333.4 337.1 343.4 350.9 359.6 365.9 373.5 388.7 399.2 407.7 415.8 417.4 422.8 423.5 424.7 425.3 427.2 427.9 428.8 432.2 434.7 436 437.9 439.1 436.7 440.4 432.4 423.2 414.5 416.4 407.6 396.9 388.9 379.9 371.2 364.9 358.9 355.5 348.1 341.6 337.8 331.2 322.9 313.3 306 298.9 291.7 298.2 296.8 293.5 294.1 297.2 298.8 301.4 302.3 302.6 302.2 301 300 295.6 300.3 305.4 313.5 321 328.7 334.5 340.6 344.9 346.3 344.9 346.5 345.9 344.9 344.9 347.7 351.8 357.5 360.1 362.6 365.1 364.8 362 355.4 346.8 335.6 323.2 316.7 312.6 307 302.7 300.5 297 289.6 297 304.7 312.7 316.1 318.4 322.5 325 331.3 339.5 345 362 372.1 386.7 391.8 394.6 396.1 398.1 402.1 406.4 406.4 406.7 404 396.1 384.6 370.7 356.1 346.1 338.5 335.1 332.1 331.2 329.7 329.3 329 325.9 322.6 316.8 309.7 304.5 301.4 294.3 288.3 280.8 271 257.9 245.7 242.7 241.5 240.4 241.2 242.9 248 253.9 256 250.7 243.2 236.7 221.9 205.5 194.9 189.4 186.2 185.5 188.8 189.6 194.2 200.3 208.1 230.7 226.9
369.3 365.4 360.8 356.1 350.8 346.3 344.1 340.5 335.9 332.3 331.7 344.6 355 364.1 377.6 392 409.2 426.7 432.1 431.5 421.4 418.7 417.2 413.5 408.9 402.9 399.7 395.3 390.4 385.8 375.8 366.7 352.1 345 338.8 336.8 334 335.7 341.2 346.3 356.5 365.5 372.5 384.7 400.6 409.1 415.6 422 429.6 434 435.8 439 445.8 444.2 434.3 433.3 440.1 443.9 444.7 446.7 449.3 445.8 445.6 441 435.7 431.1 429.1 418.6 409.1 396.5 387 378.2 368.7 365.2 362.1 356.5 345.8 339 331.5 323.2 314.8 305.3 297.2 299.6 302.2 301.8 298.9 300.6 304.3 305.2 307.1 308.4 310.7 310.4 307.8 306.6 304.7 310.8 318.5 327.5 329.8 334.9 342.6 348.4 350.3 353.3 351.3 352.4 353.5 352.9 355.2 358.1 363.2 367.6 371.2 371.6 372.8 371.5 368.3 360.6 348.8 333.8 322.3 316.7 312.3 307.5 303 299.1 294.7 289.2 309 313.1 317.2 321.2 326.4 329.2 330.5 336.7 343.2 352.2 370.4 378.8 391.8 399 403.7 404.7 406.8 410 409.9 411.6 411.7 402.8 392.4 379.1 368.8 360.1 350 341.8 335.7 339.7 336.7 334.9 333.8 332.4 329.5 325.7 321.5 316.8 311.2 304.9 299 289.5 279.8 273.8 261.5 247.5 244.1 241.5 240.4 242.5 245.8 252.3 252.2 252.3 248.4 240.4 223 210.4 203.2 194.8 193.8 192.4 191.2 193.1 198.6 202.9 205.4 223.2 236.1 226.8
367.1 362.5 359.1 354.7 348.3 343.9 338.8 336.1 331.2 324.3 328.2 342.9 354.7 360.1 372.8 389.1 407.1 419.2 423.6 421.4 415.5 415.7 413.4 407.3 405.3 396.2 391.1 384.4 376.7 368.1 363.3 354.1 345.3 338.8 336.9 335.6 337.1 339.5 346.1 352.4 363.6 370.5 380 398.4 410.3 420.3 422.7 434.1 441.8 445.2 452.8 451.8 452.1 451.4 447.1 446.2 453.2 457.6 457.2 455.4 455.3 453.3 449.6 446.9 441.9 438.9 435.5 426.9 416.5 406.7 394.8 384.7 377.8 372.2 365.9 360.1 348.3 339 331.4 323.7 313.6 305 307.5 308.4 307.3 306.3 306.3 311.2 312.2 313.3 315.9 316.3 317.3 316.6 314.6 311.9 308.8 318.8 326.8 334.8 340.8 344 351.2 355.5 358.5 359 359 360 361.1 361.9 362.5 367.8 369.4 375.2 379.2 380.7 379.5 376.4 370.6 361.8 347.1 331.9 324.3 319.5 316 307 301.2 298.6 297.4 296.8 310.2 317.1 320.2 327.1 331.4 334.1 335.8 340.5 348.5 360 375.8 389.2 399.5 408.1 412.8 413 415.1 415.1 413.6 414.7 412.8 402.2 388.4 379.1 370.5 360.8 352.7 345.8 345.5 347.5 342.3 341 340 337.7 335.1 331.3 327.1 323 317.6 311.1 303 289.8 279.7 273.7 265 252.3 246.3 242.3 241.3 244 252.1 253.9 252.8 253.1 246.2 227.5 213.4 207.5 201.9 195.6 196 195.1 198.6 207.3 211 213.1 215.6 225 233 225.3
366 361.3 356.7 349.7 343.1 340.2 334.3 331.8 325.1 319.4 324 336.6 346.3 354.5 365.8 383.7 400.6 413 417.3 412.4 412.7 412.4 406.2 395.3 392 385.5 378.5 371.1 363.6 361.4 354.7 345.8 341.9 337.7 336.9 337.3 339.1 341.9 349.9 357 367.7 374.9 389.3 401.8 415.3 423.5 433.7 441.3 444.3 454.6 458.4 455.4 453.6 453.5 452.6 463 466.1 467 467.1 466.3 461.6 459.4 456.1 451.5 446.2 443.7 439.1 433.4 424.7 414 403 398.2 386.2 377.1 369.6 361.7 350.7 338.9 331 321.7 313.5 308.6 314 314 314.3 312.8 314.2 320.7 322.3 324.3 326.1 326 325.2 321.8 319.6 318.8 319.6 318.5 333.1 342.2 349.7 355 356.7 360.5 362.6 364 366.1 367.2 368.5 371.7 373.7 377.8 379.9 383.1 385.3 385.5 382.6 379.3 372.1 361 344.4 332.1 326.7 323.4 319.3 308.4 303.8 300.7 297.9 298 305.2 314.8 323.4 329.5 333.4 336.6 339.8 344.6 353.3 366.2 382.2 396.5 408.4 416.9 419.7 420 421.3 418.9 414.6 413.7 409.3 397.1 384.7 380.2 368.8 359.9 351.7 351.3 352.6 352.1 349.3 347.2 345.3 343.7 341.8 336.6 333.3 328.2 322.8 315.3 307.1 293.2 281 273.4 266.5 254.7 248.8 245.3 243 245.8 249.7 260.9 257.6 255.8 234 216.1 208 203.9 199.7 201.3 205.1 205.1 209.4 215.8 221.3 229.5 227.6 228.3 230.9 228.2
365.6 361 352.9 347.8 339.9 336.6 332.6 327.7 320.9 316.1 319.6 333.8 340.3 347.3 363.6 386.2 398.1 409.6 411.9 407.5 407 402 389.1 379 372.1 366.8 360.7 356.8 351.6 347.8 343.3 340.4 337.8 337.6 337.4 339.5 342.2 347.6 353.3 360.3 372 382.7 395.8 407.7 416 429.3 442 444 449.9 458.9 459.3 461.7 462.5 458.6 459.5 472.4 474.5 475.1 473.8 471.9 468.1 463.2 459.3 451.9 448.3 444.4 439.4 435.4 431 422.1 411.5 405.7 393.9 381.3 369.5 361.1 349.4 337.8 328.5 318.3 323.4 320.4 319.5 319.7 320 318.2 322.2 329.1 334.5 334.7 335.8 334.5 332.7 329.5 327.4 325.7 326.3 328.3 338.7 349 354.1 359.1 363.4 365.2 366.1 368.4 371 373.8 375.9 382.8 384.9 388.8 390.2 391.1 391.5 390.8 388.2 382.5 372.8 360.6 343.2 333.6 329.7 326.1 321.9 310.8 309.4 304.7 296.8 303 312 315.4 325.4 328.9 332.7 338.5 343.5 348.6 359.1 377.8 388.6 402.3 418.2 424.2 425.8 426.2 424.1 421 415.8 410.3 401.8 389.1 380.8 375.1 363.7 356.6 356.4 356.5 356.2 355.5 354.7 352.5 350.3 349.8 348.4 344.8 339.8 333.2 327.6 320.8 310.6 297.7 281.2 274.7 266.7 255.3 249.7 245.8 245 245 247 254.7 255.3 243.7 222.5 209.1 205.1 202.5 204.8 209 212.1 215.2 220.6 226.6 241.6 245.4 240.1 235.9 236.8 228.5
365.5 359.4 346.6 339.8 335.7 332.7 329.3 325.1 320.7 314.7 313.5 325.8 334.2 343.6 362.7 379.9 397.9 407.9 405.1 400.4 391.5 380 368.7 366.1 363.7 356 353.5 351.4 346.6 340.2 338.1 336.4 335.6 336.7 339.4 343.6 348.1 353 359.6 364.3 376.3 390.2 401.6 408.7 416.8 425.6 433.8 444.6 452.9 459.8 463.7 471.1 470.9 469.1 468.3 470 478.1 475.3 473.9 471.5 469.9 467.5 459.4 454.2 450.4 442.3 438.5 434.9 430.2 425 423.8 413.2 398.2 383.5 367.8 357.7 347.3 335.2 323 327.3 327 323.3 324.2 325 325.2 324.7 330.8 339.8 343.7 345 343.5 341 339 337.6 334.7 332.1 333.2 336.8 338.9 351.6 359.5 365.2 366.8 369.1 371.3 374.4 378.9 382.1 386.1 391.1 394.9 397.6 398.2 398.7 399.4 396.8 392.9 384.5 372.5 357.6 341 335.4 332.3 328.9 323.7 317.2 312.8 306.6 298.8 305.6 315.7 320.2 326.4 330.4 334.2 340.5 348.4 358.6 371.5 386.2 397.9 413.3 426.7 429.7 432.9 429.2 426.7 422.2 410.2 399.5 390.9 380.9 376.5 367.5 360.5 360.9 360 359.7 359.1 360 359.7 359.3 359.2 357.1 356.3 353.6 348.4 339.6 333 324.6 313.6 303.3 287.8 275.3 266.1 258.8 251.8 244.7 240.4 238.8 240.3 240.7 237.9 226.2 212.5 206.8 204.8 205.5 208.9 213.6 224.8 228 240.4 242.3 243.1 244.5 241.3 241 241.7 232.6
362.4 350.5 339.6 334.3 331.6 329.1 325.8 322.9 317.6 314.6 311.5 319.8 331.4 339.5 360.9 374.7 392.6 395 391.9 387.1 380.1 370.7 363 358.6 355.4 351.3 350.1 348.9 346.3 340 335.6 334.6 334 337.5 342.4 347.9 353.9 360.2 365.3 370.6 381.8 392.1 399.6 408.4 415.5 423.1 436.1 444.5 453.2 459 470.4 474.7 476.9 474.9 473.6 473.5 477.1 477 473.9 470.8 467 462.2 455.5 455 447.2 442.1 436 432 429.8 427.8 427.3 420.4 400.7 384.7 363.7 352.6 343.8 332.8 326.1 330.6 330.3 327.2 329 329.5 331.6 333.6 341.1 349 350.8 351.9 351.4 348.2 346 344.4 341.5 339.1 339.4 342.6 349.8 351.6 360.8 367.3 369.8 374.6 380.1 384.2 388.3 392.4 394.4 400.3 403.5 404.5 408.5 408.4 406.6 402.2 395.2 383.9 371.4 353.7 341 338 334.7 331.7 326.8 322.6 312.4 307.6 305.7 306.6 317.6 321.5 326 331.3 337.6 347.2 358.7 368.4 385.5 397.5 409.6 422.4 431.5 438.8 434.7 429.9 421.4 414.4 401.4 387.6 381.1 375.8 368.2 363.5 363.8 364.2 364.2 363.1 363.7 366.4 367.3 368 369.1 366.8 364.3 361 354.6 344.7 337.7 328.6 316.7 305.3 291.8 277.2 270.1 261.8 255.9 243.5 237 233.9 230.8 227.1 222.1 212.9 209 207.4 206.5 209.2 212 227.3 233.3 233.7 238.6 240 241.4 243 240.9 240.8 240 233
351.4 342.1 336 331.7 329.4 326.9 324 320.9 314.4 312.4 309 316.1 325.1 334 355.6 370.5 379.9 382.8 380.6 375.4 368.5 364 357.5 354 351.6 349 347.7 346.1 344.6 341.4 335.7 334.1 334.1 337.8 344.4 350.6 359.8 364.4 369.1 377.6 386.5 392.3 398.9 407.1 413.1 421.8 437.6 447 454.3 460 472.9 480.7 480.9 481.8 477.6 476.6 473.5 471 465.5 463.7 458.1 452.8 448.3 446.1 443.5 440.6 435.6 431.2 429.7 429.2 424.2 413.5 399.5 376.7 356.8 346.1 338.4 329.8 331.5 333.4 334.4 333.8 335.7 335 337.6 342.3 347.8 352.9 357.5 358.8 358.2 356.2 353.5 351.1 347.9 345.1 346.5 351.5 358.1 363.1 362.4 369.5 372.7 380.8 389 393.9 397.8 401 402.5 407.6 411.2 413.9 416.8 414.8 409.8 405 396.1 381.9 367.4 352.1 344.5 342.1 338.5 334.2 328.3 322.3 316.9 319.5 314.5 308.4 317.3 323 327.4 332.6 344.2 357.9 367.8 379.2 398.2 411.6 421.3 431.6 435.5 438.8 438.1 428 416.4 402.1 388.4 382.5 378.3 373.1 366.9 368 367.3 368.2 368.4 368.3 369.6 372.8 375.2 376.9 379.2 377.6 374.6 367.8 358.9 350.4 341.6 333.8 325.3 313.9 299.6 285.1 274.8 266.8 261.5 250.1 244.3 237.9 230.7 223.3 216.5 211.8 209.5 210.5 214.8 219.1 219.8 225.1 231.4 236.4 238.7 240.9 241.1 241.2 241.2 241.9 236.1 231.1
346.8 339.8 334.3 329.6 327.2 324.4 321.7 317.2 312.7 307.6 309.2 312 319.8 329.3 350.5 365 368.6 373.7 374.3 370.3 363 357.9 354.1 350.2 347.7 346.6 345.7 344.1 342.5 340.2 336.4 332.1 333.5 338 344.5 353.7 360.8 368.3 377.9 383.2 388.1 392.8 398.7 405.4 415.7 422.5 437.9 447.6 453 467 474.2 478.5 483.3 482.4 477.9 476.5 470.7 464.5 460 456.1 451.8 444.8 444 444.5 444.3 442.3 438.8 433.7 427.1 418.5 412.3 399.2 382.6 370.7 354.3 343.4 334.8 329.4 334.6 337 338.3 339.5 340 342 343.9 349.5 355.8 360.5 365.1 366.2 365.1 363.5 362.1 359.5 356.5 354.8 354.2 359.8 367.4 371.7 366 373.9 381.9 391.4 396.7 403.2 407.9 412.1 413.9 415.8 419.9 422.8 422.4 419.6 413.9 405.4 393 378.7 362.7 352.5 348.4 344.9 340.7 336.1 323.6 327 327 327 323.7 311.6 317.9 325.3 328.8 336.7 349.7 366.4 376.8 392.3 410.2 424.1 430.1 438.8 441.9 441.4 434.6 422.6 409.7 395.2 384 379.4 376.1 372.6 372.1 371.1 370.9 372.6 373 373.5 377 380.9 386.5 387.7 386.9 384.3 381.1 373.9 365.1 355.5 344.3 337.3 330.2 318.2 305.7 291.9 280.7 273.2 266.5 257.3 247.7 239.3 229.5 221.9 217.7 212.1 212 218.1 222.7 225.6 224.9 224.6 229 233 237.3 238.3 237.5 238 235.9 233.7 228.6 224.2
343 336.1 331.5 326.3 323.2 320.8 318.5 314.7 309.4 306.9 307.7 310.2 315.7 328.3 342.7 354.1 363.2 367.2 368.9 365.1 360.2 355.9 351.8 347.1 345.3 344 343.8 342.2 340.4 337.6 332.1 330.9 332.9 338 345.4 352.3 363 371.8 380.3 385.1 387.8 393.2 398.6 406.2 416 424.4 436.5 447.7 455.9 469.5 478 478.9 477.3 474.4 474.4 467.9 462 455.9 451.5 445.7 440.8 440.3 442.2 442.1 442.1 441.3 437.4 432.6 423.8 419.2 404.8 390.2 377.7 365.9 351.9 341.4 335 331.5 333.5 336.1 340 342.3 344.9 347.1 351.6 355.7 361.8 368.6 371 371.4 369.1 369.8 371.2 367.9 363.2 361.7 363.6 368.7 374 377.8 380.6 379.5 390.5 399.7 407.3 411.4 416.9 421.4 425.8 425.9 426.1 427.8 426.9 422.7 414.1 403.1 388.5 372.5 360.8 353.6 348.8 344.9 342 330.3 336.3 333 332.6 332.1 331.5 319.7 325.3 329.6 331.7 346.2 364.1 374.1 387.2 405.3 425.6 437.5 439.2 442.4 445.4 436.1 425.7 412.7 405.6 390.8 384.1 378.6 375 373.2 374.7 374.7 376.2 377.6 378.6 382.5 387.9 391.4 394.4 393.5 392.5 387.4 384.5 376 367.1 357.1 346.7 340 332.5 322.1 308.3 297.1 285.9 278.6 271.6 263.2 254.2 242.4 229.7 219.8 215.8 213.9 213.3 217.8 223 224.4 224.3 224.3 227 229.9 232.3 233.8 233.4 231.1 227.2 223.1 217.3 208.1
341.3 333.2 329.3 324.4 320.2 318.3 316.4 313.1 311.4 307.7 305.4 307.1 313.5 324.2 334.3 350.3 358.3 363.8 365.4 361.7 355.9 352.6 350.1 345.5 343.7 341.1 341.7 340.1 338.4 333.8 330.8 331 333.7 341.7 350.3 359.4 363.7 370.3 378.6 381.4 388.2 394.2 399.8 408 417.3 428 436.1 446.8 452.9 470.9 478.1 479.5 469.8 462.6 458.8 453.4 448.8 443.3 440 437.3 436.8 435.5 436.2 433.6 433.2 433 430.6 423.9 418.7 413.1 400.7 384.2 368.5 357.7 344.5 337 333.9 332.5 333.7 336.8 341.4 344.7 349.3 354 359.3 363.2 368.7 374.2 376.4 376 374.8 379.2 376.5 372.8 370.2 369.5 372 376.5 381.3 385.6 389.6 392.2 395.6 406.2 414.2 420.9 428.1 433.9 436.5 437.1 432.9 431.4 428.1 423.8 411.5 399.6 382.3 368.7 360.2 354.5 349.2 341.5 340.5 342.3 338.2 339.6 338.7 338.4 337.4 327.5 331.9 334.6 333.9 357.9 374.4 386.4 395.8 415.5 429.5 438.1 440.3 450.4 441.8 436.3 425 409.8 399.3 389.3 384.3 379.5 377 375 377.9 378.5 381.5 384.1 386.9 393 396.7 401.1 405.4 403.1 397.7 393.6 387.3 378.9 367.1 356.2 349 341.7 331.5 322.8 312.4 301.1 290.1 282.7 273.6 264.7 256.2 246.2 230.5 219.8 219 215.9 215 216.3 220.2 220.5 220.4 221.9 225.1 227.8 229.1 229.1 226.7 223.9 219.3 214.3 210.1 199.6
340.9 334.7 328.6 323.7 321.2 318.9 317.2 317.5 317.1 314.8 306.4 305.8 310.4 317.9 331.5 345.4 354.7 358.6 359.9 356.6 352.3 349.8 348.1 344.9 342.5 339.5 339.3 338.3 335.9 332.7 330.1 331 334.1 339.7 350.2 359.6 364.8 369 372.9 380.7 389.3 395.7 401.6 409.2 420.1 427.5 436.1 452.7 463 469 467.2 469.4 461.9 454.6 452.5 447.2 443.1 439 436.7 431.6 429.9 427.2 422.7 420.2 422.3 422 420 413.1 405.3 402 389 377.8 364.2 350.5 340.9 336.5 333.8 334.4 336 338.2 340.1 344.5 353.1 354.5 363.8 368.5 372.8 377.9 379.7 379.7 380.5 381.7 382.3 380.2 378.5 377.2 379 383.6 388.8 395.1 401.5 403.6 397.9 413.4 422.4 430.9 440.5 443.5 443.9 445.4 443.9 436.1 429.8 423.2 411.4 397.6 379.5 367.2 357.3 353.9 344.1 349.5 347.3 346.1 346.2 346.1 345.3 344.3 335.4 335.2 338.4 341.9 339.1 357.3 377.2 395.1 407.9 424.6 440.6 445.8 442.7 446.5 444.8 438.8 425.4 411.1 399 392 392.5 388.1 381.9 378.8 380.8 383.6 387.5 391.9 396 402.8 407.3 410.6 410.6 405.9 402.4 397.5 388.6 377.3 365.6 356.7 348 340 332.2 324 314.9 304.2 294.3 286.7 277.5 266 257.4 244.8 228.9 224.6 227.2 223.4 217.6 216.9 216.5 216.8 216.5 218.3 221.4 224.3 225.7 224.3 220.6 215.5 210.1 205.8 202.3 192.9
340.9 332.5 326.9 322.7 319.8 319.3 318.2 317.5 316.3 315 309 304.8 308.5 315.2 325.5 339.9 348.9 352.4 353.5 351.3 348.9 347.4 345.8 343.3 340.2 338.4 335.9 336.7 334.7 331.3 329.7 331.1 333.8 338.7 345.6 354.8 364.7 368.9 374.3 380.3 391.8 398.6 404.1 413.4 420.9 425.5 447.5 460.2 466.8 471 465.6 464 456.2 448.6 446.7 439.9 435.9 435.5 431.4 427 424.3 421.5 416.8 415 412.7 409.3 407 400.9 395.4 387.6 379.9 368.2 358.4 347.5 339.8 337.2 338.3 340.1 340.2 340.4 342.9 348.2 357 363.1 366.3 371.5 374.1 379.5 382.6 384 385.8 386.8 389.5 390.1 389.3 388.4 388.9 394.3 398.2 403.1 411.7 413.4 409 416.7 429.8 441.3 450.8 453.8 451.8 450.6 447.4 441 429.8 421 408.9 394 376.1 367.1 363.6 356.7 354.9 354.4 352.2 351.7 351.9 353.5 352.2 348.6 334.8 342.2 345.1 348.9 348.9 360.8 379.5 397.5 415.2 431.9 444.1 452.6 449 456.9 451.6 442.5 431.5 418.2 401.6 398.4 396.9 391.4 385.5 384 388 394.2 400.1 406.9 408.9 413.6 414.7 416.2 412.9 409.2 404.3 395.9 385.8 374.2 364.9 356.2 346.8 339.3 331.4 323.5 314.4 305.9 297.2 289.5 281.2 271 262.4 247.6 233.6 229 229.8 227.2 220.1 218.7 217.5 217 216.7 216.4 218.3 220.4 221.9 219.4 215 209.5 202.8 198.6 194 190.8
339 332.2 325.9 322.3 318.5 317.4 316.5 315.3 314.1 312.9 310.8 305.2 305.3 312 320.4 332.8 344.2 347 348.7 346.9 346.6 345.1 343.5 341.7 337.5 335.6 334.4 333.7 333.2 330.7 329.7 331.2 334 338.1 346.7 350.6 357.5 366.1 373.9 380.9 393.3 402.6 406.8 414.8 421.3 426.2 451.5 462.1 470.7 469.6 464.4 457.7 450.8 443.9 438.5 434.3 432.7 428.6 426.6 423.3 422.4 418.8 414.7 412 409.2 401.9 397 393.3 386.4 379.2 371.2 361 351.9 345.2 341.9 341.6 342.1 344.9 344.8 343 347.7 354.9 362 366.4 371.9 374 376.6 379.7 386.5 389 391.4 394.2 399.8 400.6 400.4 399.5 399.9 404.5 410.3 414.8 418.2 419.9 420.7 413.6 434.7 449.5 459.4 459.6 456 454.4 448.2 441.4 430.6 418.4 406.7 387.5 378.2 374.9 368.6 360.8 359.9 360.3 362.5 360.6 359.1 358.9 357.6 355.4 343.9 347 350.9 354.3 356.3 360.3 380.7 396.6 415 436.6 450.1 454 453.1 463.4 457.6 444.9 435.7 423.4 411.3 403.4 401.9 397.6 395.8 397.1 402 410.2 416.4 417.4 417.9 418.7 418.6 417.9 410.9 405.7 398.3 387.7 381.1 372.6 364 354.2 343.6 336 328.3 319.3 311.5 302.5 294.3 288.7 283.2 273.5 263.4 249.2 235.4 233.1 231.9 227.8 222.9 220.6 219.1 217.5 217.2 217.1 217.8 218.7 219.7 217.4 210.4 204.6 197 194.3 193.1 191.4
332.6 327.7 322.8 320.9 316.9 315 313.9 312.6 311.6 310.8 309 305 303.7 310.1 317.2 326.7 336.3 342.5 343.6 342.8 344.6 343 340.3 337.2 335 333.5 332.3 331.2 330.5 329.9 329.1 332.3 335.4 338.8 343.5 348.4 354.3 363.5 371.8 380.3 391.3 401.5 408.8 416.3 423.8 428.1 450.8 466.2 473.1 469.5 463.2 455.8 448.1 443.6 434.4 430.2 427.6 425.2 422.8 420.4 418.1 415.9 413.2 410.3 407.4 401.2 391.1 386.4 380 372.2 365.6 358.5 353.2 350.6 347.4 344.6 345.9 347.4 349.4 350.2 355.4 359.8 365.6 371.5 376.4 378.4 379.5 381.5 389.5 395.5 398.2 403.5 406.4 409.8 410.1 413.7 412.4 412.9 418.1 419.6 422 424.2 426.8 429.7 434.7 451.6 459 460.9 456.1 454.7 452.6 444.8 433.5 421.1 407.4 390.2 381.9 376.8 373.2 366.5 367 369 371.2 370.1 366.1 364 362.5 360.2 358 351.2 355.2 359.3 362 365.8 379.5 396.8 415.5 435.3 450.6 452.4 450.8 458.7 452.6 445.3 438.5 428.2 423.8 418.4 416 407.4 408.2 414.1 421.7 427.7 429.7 430.8 428.9 425.7 422.2 414.6 409.3 400.3 392 381.6 376.6 367.3 358.2 348 337.9 331.4 322.8 314 306.1 300.3 295.4 287.5 279.9 270.8 259.5 246.2 235.4 232.4 230.2 227.1 223.5 221.8 220.3 218.8 218.3 218.4 218.8 220 219.7 218 213.3 205.3 201.3 199.7 196.4 192.6
337.7 332.5 326.4 318.6 314.2 312.3 311.2 310.3 309.5 308.4 306.8 304.3 301.7 307.7 314.7 325.6 334.1 339.4 339.5 339 339.4 340.2 337.8 333.9 332.3 331.5 330.1 329.1 328.8 326.4 329.5 332.7 335.2 338 341.4 346 354.2 361.9 373.6 378.9 389 401.3 410.1 418.1 425.3 429.9 451.5 468.9 474.2 470.6 465.9 458.1 452.6 441.8 434.1 428.3 425.6 423.2 421.2 419.6 417.8 415.8 411.5 408.4 404.8 399.9 388.9 380 372.7 365.7 367.1 365.6 359.3 353.6 350.4 348.4 349.6 351.1 353.3 357.1 360.1 364.1 368.7 375.2 380.1 382.1 383.6 385.3 390.1 400.4 404.4 407.1 411.5 417.2 419.9 420.6 420.4 423.6 429.3 426.4 427.1 428.8 432.1 437.2 432.9 449.5 461.6 462.7 460.5 456.7 454.6 450.1 436.8 423.4 408.6 394 385.1 381.9 377.6 376.2 379.5 385.3 383.4 376.9 371.8 369.2 365.9 365 361.2 354.9 358.9 362.7 365.5 368.1 378.1 395.5 415.3 433.7 444 448.4 449.9 456.3 451.6 447.5 441.1 443.4 439.3 429.4 425.7 425.9 426.5 433 439.6 441.3 438.7 437.9 436.5 431.1 423.8 415.3 405.3 396.1 386.9 380.5 371.9 362.3 353 340.9 332.8 323.8 316.8 310.2 304.8 298.5 291.1 282.9 275.1 265.5 254.2 241.6 232.8 229.5 226.5 226 224.1 222.5 220.9 219.5 220.4 220.6 221.5 223.8 224 221.6 215.2 211.2 208.3 204.2 200.8 197.1
338.5 333.7 328.3 320.8 316.2 311.4 308.6 308.3 307.5 306.1 304.5 302.1 299.3 306.7 312.6 320.8 330.9 334.4 335.6 336.3 336.6 336.3 334.4 330.8 329.4 329.3 328 327.5 327.3 326.6 328.6 330.9 332.5 335.4 338.8 345.6 351.4 363.1 374.4 379.5 388.9 399.7 410.5 417.1 423.6 432.7 450.1 470.4 476.8 475.3 469.6 462.4 457.3 447.5 433.3 428 424.6 422.4 420.7 419.1 417.3 415.8 412.7 407.3 399.3 395.4 388.8 378.8 371.4 376 373.7 369.4 362.8 358.2 355.8 354.6 355.2 357.5 361.8 365 366.1 368 372.6 377.8 381.8 385.3 388.1 390.2 395.6 403.6 408.2 411.6 417.1 424.2 428.3 430.7 432.9 437.1 441.9 442.2 441.1 438 439.7 442.8 447.4 447.5 462.5 470.5 468 459.8 455.8 451.8 439.9 427.8 413.5 398.7 391.2 385 382.2 389 398.7 396.7 391.9 382.9 376.7 373.9 370.4 368.1 360.3 357.8 362.5 366.5 370.4 373.4 378.8 390.9 408.3 426 439.8 450.6 451.6 452.5 452.8 457.5 455 455.4 450.1 440.6 437.8 442.8 442.6 444.8 450.2 448.9 444.1 438.9 435.5 427.5 417.7 409.6 401 393 383.2 375 366.5 356.8 344.8 334.9 328.1 320.3 314.4 307.6 302.1 293.6 283.7 275.1 262.3 251.4 243.5 236.5 232.9 231.3 228.7 226.6 224.9 223.3 221.7 222.8 224.5 225 228.3 231.7 230.6 228.5 226.7 222.4 218 211.4 203.3 199.3
340.1 332.2 328.1 320 315.1 310.7 304.8 305.6 304.6 303.4 301.6 300.4 297.4 304.6 312.6 318.4 328.2 332.4 333.5 334.5 335.2 335.1 332.1 327.5 326.6 326 325.5 325.7 325.5 323 326.6 329.1 329.1 333.6 339.4 346.8 349.5 357.8 373.5 379.9 387 398.4 406.7 415 424.7 435.5 448.4 467.2 477.6 478.2 475.1 469.8 464.4 456.3 440.3 431.6 427.7 422 420.3 418.6 417.2 417.2 415.6 415.2 401 390.6 384 381.9 380.6 379.5 378.2 371.4 366.5 364.8 362.6 361.1 361 364 368.6 370.9 372 370.1 376.5 381.2 385 389.3 394.3 397.9 399.6 407.9 412.1 417.3 422.7 432 436.9 439.8 446.4 450.9 455.5 455.7 454.3 452.5 449 449.8 453.2 446.9 461.2 473.8 477.6 467.6 460.1 455.1 443.5 433.8 419.8 404.4 397.1 397.9 400.4 408.7 410.1 405.3 395.3 386.2 378.3 375 372.8 370.4 362.6 360.3 366.9 371.3 374.6 380.3 382.6 390 407.6 426.3 444.7 453.7 455.5 457.6 465 469.7 470.4 467 457.1 450.5 451.4 456.3 455.2 454.5 450.6 445.3 439 433.8 426.5 420.4 409.9 404.3 395.1 385.8 377.7 367.1 357.5 346.2 336.9 329.2 323.5 316.9 311 305.3 298 287.4 277.3 267.4 260.5 252.1 239.9 237.6 235.2 234 231.3 229.8 227.8 225.1 223.2 225.2 228.5 231.2 237.1 238.7 236.3 234.4 231.4 226.9 221.5 214.3 205.6 201.7
340.4 335.5 330.2 321.6 315.5 311.3 307.2 302.1 301.7 300.7 299 298 295.4 299.9 309.6 319.6 326.7 330.4 330.3 332.4 334.7 332.5 327.8 324.2 323.4 323.3 322.8 323.7 323.5 322.3 325.4 326.9 326.5 332.6 339.4 346.3 354 359.9 367.1 377.4 388 398.2 406.5 413.5 426.3 434.7 454.6 469.4 476.9 476.2 473.1 471.8 464.7 458.7 450.9 436.9 435.4 426.8 420.5 421.3 422.4 422.7 418.4 418 409.5 398.3 393 390.8 389.4 383 382.5 377 371 368.3 368.8 367.8 369.6 372.2 376.5 378.2 378.6 377.9 380.5 385.4 389.4 393.6 398.7 402.8 405.1 411.1 417.4 423 427.1 436.3 443.7 449.4 458.2 463.8 467.7 470.2 466.2 462.6 458.5 457.8 458.6 460 462.5 474.6 482.3 479.5 468.5 458.9 450.2 441.1 427.6 414.8 416.7 416.6 419.9 420.3 417.6 409.6 394.4 385.4 380 375.9 373 369.5 367.1 367 372.3 376.3 380.6 385.8 388.2 392.7 407.2 427.3 446.1 456.3 458.2 471.9 477.4 484 479.9 473.3 464.7 461.2 466.5 464.9 460.3 453.8 445.3 440 432.5 426.3 420.9 413.4 403.9 394.9 386.6 377.8 366.8 354 345.9 337.7 331.8 324.5 318.3 312.4 306.8 299.1 290.9 282.9 274.4 267 258.9 252.2 245.1 242.3 242.9 242.9 246 242.2 239.2 235 229.9 229 233.2 236.5 242.1 243.3 238.4 234.5 231.1 226.5 220.9 210.8 205.2 202.6
341.5 338 331.4 319.5 315.7 311.6 307.4 301.6 299.9 298.6 295.8 295.9 294.7 297.3 304.8 313.7 322 326.4 325 328.9 331.1 331.1 325.9 322.5 319.3 320.3 320 320.6 320.2 317.6 320.9 326 329.4 336.9 343.9 351.1 356.6 362.6 370.4 382.3 390.3 399.1 406.4 412.5 423.6 435.2 452.4 468.9 473.2 474 471.8 473.3 466.3 465.8 455.4 448.2 445.7 439.5 429.8 425 427.7 426.2 422.5 418.3 413.7 406.4 399.8 394.9 391 389.3 383.5 379.3 375.5 376.6 375.4 376.8 379.7 380.6 381.8 384.6 384.1 383.8 386 387.9 391.5 395.5 403.2 407.2 412.2 416.2 422.8 428.2 432.5 440.5 449.6 461.7 470 477.1 479.3 479.3 477.1 473.7 467.5 464.2 462.7 464.8 462.8 475.1 485.2 484 476.3 464.6 457.6 450.3 442.9 435.1 433.4 435.1 434 429.8 422.3 408.7 392.7 384.9 379.4 375.8 372.8 370.4 370.8 373 377.6 383.9 388 391.1 395.8 397.8 411.2 433.7 454.2 464.6 470.3 485.8 489.7 491.7 487.8 483.6 477.6 474.1 471.3 466 458.9 455.6 443.8 431.4 423.1 418.4 410.7 402.9 392.7 383.6 374.6 363.9 354.2 347.1 338.7 332.8 328 320.1 315.9 310.5 300.9 294.8 284.2 278.7 281.5 274.7 265.3 259.8 249.7 253 255.6 258.4 258.8 256.3 254.4 251 239.7 235.8 238.2 242.3 246.7 244 237.9 232.8 227.5 223.5 218.5 209.1 205.5 203.8
344.4 340.2 330.9 322 315.7 311.2 305.6 301 298.1 296.8 294.9 294.1 292.8 291.8 298.6 306.7 316 320.5 321.3 321.4 323.3 324 321.4 320.1 316.5 316.3 317.5 318 315.1 314.4 321.5 325.2 330.3 338.6 345.3 354.3 359.8 367 375 383.8 391.9 398.2 405.2 413.2 422.2 435.3 453.4 462.6 472.6 473.9 470.2 468.1 462.5 455.9 453.7 452.6 455.8 456.5 454.4 456.9 447.5 433.5 427.9 426 417 412.7 402 396.9 395.6 393.8 387.1 384.6 384 386.2 387.1 386.5 387.8 387.6 389.2 391 392.1 388.2 391.2 394.1 395.1 399.7 408.4 412.4 417.3 421.8 428.1 433.7 442.2 448.4 456.1 469.4 478.5 483.1 486.1 487.7 486 481.7 474.4 469.3 468.2 468.4 462.9 476.4 488.7 492.8 485.3 474.3 467.1 462.3 455.1 450.5 449.2 449.1 445.1 439.6 425.1 403 388.7 382.3 376.8 373.8 370.6 373.5 374.1 377.2 382.8 391 395.7 399.3 401 408.1 423.5 444.1 459 470.7 486.7 493.5 502.1 500.5 495.4 491 480.6 476.6 473.4 464.3 459.5 447 433.9 421.7 414.1 408.3 397.8 389.5 382.4 371.8 362.8 355.5 350.4 344.4 338.6 333.1 327.9 324 320 308.8 306.3 298.3 292.9 286.4 281.3 275.2 270.8 263 267.3 272.9 275.5 273.5 272.2 269.3 265.8 257.9 248.2 243.7 242.4 246.3 246.4 242.5 237.2 230.8 224.1 219.6 213.4 208.4 206.3 205
346.1 338.8 334.6 323.3 314.8 310 305.1 301.5 298.8 297.1 295 294.2 292.5 292.1 293.6 301.4 310.5 315 317.3 316.5 318 317.6 316.6 315.1 311.7 312 313.6 314.1 311.8 317.8 320.7 325.1 331.5 339.3 347.4 357.2 364.1 372.4 379.1 386.9 396.4 403.9 411.7 420 427.7 433.4 452.2 461.1 469.3 468 464.5 460.2 453.5 451.6 452.9 455.3 459.1 461.8 465.3 467.3 462.2 449.3 433.2 426.8 420 415.6 408.8 403.6 402 401.7 400.5 397.2 400.2 397.6 398.1 397.5 396.4 395.2 395.8 396.9 398.5 398.3 398.4 399 402.8 407.8 412.4 417.4 423.4 430.5 435.9 442.9 451.1 458.4 465 477.9 485.6 489.3 493.3 494.2 494 489 482.2 475.7 473.7 472.7 470.6 476.6 491.1 501.4 496.6 485.7 479.1 473.3 469.3 465.1 465.1 461.8 456.8 444.6 420 395.4 384.7 377.8 373.9 373.5 375.4 376.1 377 382.5 393.6 404.3 411.6 414.3 414.4 422.7 438 455.2 465.9 481.5 499.8 507.2 507.6 506.9 500.4 495.9 490.5 484.6 475.7 464.9 455.3 442.3 428.5 416.6 407.7 398.7 389.4 382.1 373.7 366.8 362.1 357.9 351.3 344.8 339.5 334.8 329.6 323.8 320.1 313.6 306.4 299.5 296.2 289.5 283.7 279.9 275.8 279.7 284.7 288.6 287.1 285.9 282.7 280.1 279.3 270.3 268.8 258 249.9 248.3 245.1 240.1 234.9 228.2 220.6 215.6 210.5 208.9 209.1 207.8
345.2 341.1 336.1 327.9 318.2 311 305.8 302.8 300.1 299.1 296.6 295.7 293.9 291.8 290.4 296.4 306.9 310.8 313 312.9 312.4 313.5 312.5 310.7 307.4 309.8 311.6 308.6 313.4 316.3 319.3 324.2 330.8 339.6 350.5 360.5 369 377.3 387.2 396.8 404.9 412.9 420.5 427.3 431.6 437.1 447.7 451.9 457.4 456.6 449.7 449.9 442.2 445 450.6 460.4 465.3 470 471 476.9 474 471.1 444 431.7 423.8 417.1 413.5 410.3 408.5 408.7 409.3 407 409.9 413 407.1 407.9 406 403 401.6 402.3 402.8 403.3 403.9 408.2 412 414.8 418.7 425.8 431.2 439.2 443.9 449.1 457.5 465.5 473.9 483.1 491.6 499.3 502.9 502.9 501.4 497.5 489.8 482.3 479.2 478.9 472.7 479.2 493 505.1 506.8 497.6 492.4 485.6 481.1 481.9 478.4 471.9 461.1 438.6 411.1 391.3 382.2 375.3 374.2 375.8 377.5 378.1 381.2 392.9 407.8 421.1 428.5 431.8 431.5 439.1 454.6 465.7 479 492.8 506.3 509.9 508.1 507.3 506.4 504.7 492.7 487.2 475.9 462.5 450.2 436.5 423.4 411.5 403.1 396.9 392.1 385 377.8 369.6 365.2 361.2 355.2 349.2 342.6 337.6 333.1 327.2 324.7 320.2 315.8 308 304.5 295.4 289 286.9 291.5 297.6 299.6 299.2 296.4 294.8 290 290.6 290 284.6 276.2 266.5 257.1 250.9 244.1 238.7 232.6 226.7 219.5 214.2 211.6 214.5 215.2 213.9
345.7 342 337.8 330.4 320.3 311.8 306.5 303.6 301.1 300.1 299.2 298.1 296 292.9 291.5 289.2 303.6 305.4 308.1 308.7 309.2 309.2 307.7 306.4 298.8 302.6 307.4 311.3 313.5 315.8 318.4 323.4 333.9 345.3 356.1 365 374.3 383.9 398.3 407.4 416.4 422.8 428.3 433 435.1 443.7 450.7 448 446.6 446.5 435.4 434.5 434 437.7 448.2 463 468.9 473.9 474.8 477.2 479.6 479.5 461.2 442.5 428.7 420.6 416.6 414.9 414.7 415 416.5 419.4 425.3 423.7 421.9 420.5 415.1 412.4 409.1 406.7 406.5 406.8 406.6 410.3 418.6 424.8 429.2 437.9 440.2 450 456.6 464.2 468.7 475 481.1 490.4 503.7 511.3 514.7 515 511.7 506.6 499.1 490.8 485 483.5 479.6 482.8 493.9 509.4 514.5 511.5 504.2 497.9 497.9 495.8 488.9 477.1 461.8 432.9 406.9 385.7 379.9 376.7 375.1 377.6 379.2 381.4 389.9 410.1 425.9 438.1 445.3 448.7 449.9 456.6 468.5 477.4 492.4 502.8 513.9 516.9 513.8 517.6 510.9 501 492.9 482 468 456.3 443.7 431.5 419.1 407.9 399.1 394.5 390.5 385.2 378.6 372.9 368.4 363.8 359.1 352.7 344 339.2 333.8 330.6 325.4 320.7 317.3 315.6 310.9 302.4 296.6 302.6 306.8 312.5 311.9 306.9 303.1 299.5 299.3 301.6 295.9 289 282.8 273.9 264.3 255.7 247 241.7 236 227.2 221.3 216.2 216.1 220.5 221.1 218.9
345.8 342.1 339.1 334.1 321 313.1 310.6 307.4 302.4 300.8 299.6 298.4 296.3 295.5 294.7 290.5 290.7 298.3 303.3 305.6 305.9 304.9 303.5 294.8 300.6 305.6 308.7 309.9 311.9 314.7 318.4 323.5 334.5 347.2 358.3 369.2 380 393.8 409.6 419.4 427 430.8 432.7 436 437.9 443.9 448.7 444.1 440.1 430.9 426.5 418.8 421.6 429.5 445.8 460.3 469.4 472.8 476.6 487 485.4 482.4 470.5 449.2 436.9 425.3 420.9 420.5 420.2 423.3 425.4 428.2 433.9 440.8 437.7 440.3 428.5 423.4 417.9 413.7 411.3 410 409.8 416.1 424.7 432.8 440.8 449.6 455 462 466.7 471.8 480.4 485.8 492.7 502.6 513.8 521.4 526.1 527 523.2 518 508.2 496.4 490.8 488.9 485.2 486.7 496 512.5 520.7 518.6 514.4 513.4 511.7 504.9 494.3 477.9 451.8 424.8 401.2 386.2 380.7 378 376.9 379.1 381.7 386.4 406.9 426.5 442.1 455.1 460.9 464.4 466.8 472.2 481.4 492.1 506.4 512.2 515.1 519.2 515.3 513.7 506.8 497.4 483.1 473.3 465.4 451.6 439.5 428.8 415.8 405 398.6 393.6 389.1 385.9 381.1 375.7 370.8 365.9 358.7 351.5 345.4 339.9 336.1 332.2 329.8 324.8 321.1 318.4 314.3 308 309.2 314.9 322.4 321.4 322.2 310.3 305.7 303.1 305.1 302 295.9 289.4 283.3 273.8 269.3 262.6 257.1 248 239.4 229.1 223.7 220.8 225.4 225.8 225.1 222.8
345.7 341.9 339.5 333.1 322.2 320.8 313.9 309.6 306.9 304.1 301.2 299.2 297.5 297 296.2 293.9 287.4 290.1 295.7 298.8 300.8 299.4 292.9 297 301.5 305.7 307.2 308.5 312.9 315.9 320.2 326.7 339.8 351.1 362 372.5 388.1 403.2 417.7 427.5 436.9 439.3 438.7 438.2 439.8 444.5 444.1 437.2 432.3 419.1 408.9 408.6 414.1 429.9 446 459.2 469.7 477.3 483.7 490.9 489.8 489.1 474.1 458 446 431.7 426.8 424.6 427.3 430.8 434 438.5 445.9 450.6 451.8 448.2 449.1 436.4 428.2 421.4 417.4 415.7 416.2 420.3 427.7 437.6 453.1 462.2 466.2 472.4 481.6 487.4 493.5 498.1 504.9 512.9 523.5 531.8 536.2 536.8 534 527 515.4 500.8 494.8 491.6 488.8 491.9 502.9 513.8 523.1 521.6 525.3 526.5 524.3 512.3 494.3 468.8 442.3 417.7 397.5 389.6 385 380.6 379.3 381.2 385.8 403.3 423 443.2 460.2 470.9 476.8 480.2 482.6 486.4 492.2 503 512.1 507.9 510.9 515.8 511.5 500.9 498.3 489.5 475.9 465.8 456.5 447.9 439.6 429.6 416.8 408.5 401.9 395.7 391.6 388.3 383.6 377.5 372.1 366.1 360.5 354.8 347 342.2 338.6 337.4 334.2 331 326.3 322.2 316 316.3 321.7 326 327.6 326.2 320.5 311.7 308.7 304.9 303.3 299.8 294.7 287.3 280.3 278.7 275.3 270.4 262.7 254.6 244.4 233.9 227.6 227 230.9 230.7 227.3 225
344.2 341 337.5 338 333.9 325.3 316.3 311.7 309.6 307.6 305.7 301.6 299.6 298.7 296.7 294.6 290.4 286.2 287.6 291.5 293.1 288.8 293.5 296.4 300.2 301.9 305.1 307.8 311.7 316.8 322.3 328.3 345.6 357.2 368.5 380.4 395.9 408 425.3 437.2 445.1 446.1 441.7 438.7 443.2 442.2 436.2 425.9 418.2 408.3 398.4 400.9 409.8 429 442.1 457.2 469.6 477.9 487.8 494.8 491.7 490.2 478.2 466.5 460.8 440.1 433 432.7 433.5 435.8 441.7 447.1 457.2 463 464.1 456.7 459.9 453.2 439.6 428.8 425.4 425.9 426.5 430.8 435.6 444.6 458.6 471.7 477.4 482.6 491.5 497.7 505.1 509.8 515.4 523.7 532.9 538.5 542.4 546.5 543 534.5 520.5 506.2 500.2 494.2 493.7 497.9 513.2 522.8 527.4 533.5 532.6 541.5 532.2 517.4 492.9 464.4 436.3 415.8 401.7 394.7 389.3 384.8 384.9 385.2 398.9 420.1 441.5 461 478.4 486.5 491.6 491.7 492.6 494.6 499.2 506.7 512.8 506.3 495.1 505.5 504.2 490 485 476.5 464.8 461.4 457.3 450.4 438.7 432.2 428.4 419.2 411.2 403.6 396.3 392 386.2 380 374.6 369.4 363.4 355.8 350.2 344.4 343.8 341.8 339.4 335.1 334.1 327.2 324.5 328.4 331.6 333.5 334.2 331.1 319.6 312.3 307.7 303.8 299.1 295 291.9 288.8 281 278.9 276.1 272.4 265.5 257.1 250 237.2 230.2 229.7 230.2 227.6 225.3 222.3
344.6 341.7 340.8 338.9 335.6 329.4 318.8 315 312 311.7 310.2 304.9 302.2 300 297.9 295.8 291 283.3 284.4 284.3 285.3 289.5 292 294 297.2 301.1 304.7 307.5 310.9 318.3 325.4 337.6 348.3 362.7 371.5 386 398.3 413 432.4 447.8 449.6 448.5 445.5 439.3 432.7 431.3 422.6 414.4 402.9 393.4 392.3 394.5 409.1 427.7 441 457.3 464.7 478.1 486.1 488.2 489.1 485.7 478.1 470.8 462.4 450.4 440.3 440.5 439.4 441.9 448.8 457.5 464.3 474 473 472.9 476.1 467 451.3 438.9 435.3 434.3 436.5 444.4 448.2 455.6 469.7 479.4 486.1 493.6 501.3 508.2 514.5 520.4 526.4 532.3 539.6 544 549.9 554.3 549.6 539.4 524.7 512.6 505 498.6 499.5 509.7 523.6 534.2 538.3 546.8 550.4 546.7 542 518.7 491 463.4 436.9 421.1 410.6 401.1 394.8 391.2 390.7 397 416.7 440.7 461.7 479.7 493.5 500.5 502.1 500.7 497.6 499.4 503 504.6 510 495.8 488 491 486.9 477 468.7 462.2 459.9 457.7 456.1 450.8 448.6 445.6 439 433 423.7 415.1 410.1 402.6 396.1 389.3 381.2 372.8 367.9 358.6 353.9 350.1 347 344.7 342.8 339.9 338.2 332.1 331.4 338.2 340 341 338.8 333.3 315.5 312.8 306 297.9 294.7 293.6 289.9 283.8 280.1 280.2 278.9 273 267.1 261.3 253 236 230.2 228.1 224.9 222.9 220.8 217.9
347.1 344.7 342.6 339.3 334.2 327.9 321 316.6 314.3 312.5 310.4 306.9 304.2 301.4 298.7 295.8 293 283.8 282.5 282.2 283.8 286.2 289.6 292.1 295.8 299.9 305.3 309.7 314.1 321.3 329.7 341.2 357 367.6 374 384 399.9 414.6 434.5 448.9 453.2 450.7 443.3 438.6 429.9 415.6 403.8 397 389.9 386.9 388.1 393.6 407.3 421.3 434.9 445.2 456.5 468.8 478.9 482.8 483.8 473.9 471.3 469.1 467.2 461.7 457 447.8 450.4 451.5 458.3 468.3 474.1 483.6 482.7 488.4 486.8 477.5 463.6 451.7 451 445 445.7 452.9 457.1 468.3 478.4 489.1 492.9 501.4 511.6 517.5 524.4 530.9 537.8 541.3 544.3 547.5 555.2 558.7 553.9 541.4 530.1 522.8 515.8 511.8 503.9 518.2 534.4 543.9 550.1 555.1 560.6 556 541 520 494.1 466.6 441.5 428.9 418.7 409.2 403.9 401.4 398 416.8 437.9 460.5 480 496.3 507.2 511.7 511.3 505.8 501.4 501.5 499.9 498.5 495.9 489.3 479.5 477.2 472.6 466.2 459.2 457.3 457.3 457.2 459.7 461.7 460.5 457.3 449.6 440.4 432.8 423.8 416.8 408.9 399.2 392.2 386.3 381.5 375.2 363.9 358 352.8 351 348.9 347.2 344.4 341.6 340 340.7 342.7 345 341.3 337 328.6 315.5 313 302.5 295.6 293.1 286.6 283.4 280.8 280.4 281 278.4 273.3 268.7 261.6 252.1 233.3 230.2 226.4 220.2 218.1 216.1 213.4
350.9 347.5 343.5 338.6 333.7 329.1 323.3 318.7 316 314 310.2 307.6 304.9 302.3 297.3 295.1 291.8 286.6 287.8 281 282.2 284.6 288.4 291.3 295.1 301.3 307.1 312.8 318.2 325.3 336.7 348.6 360.6 371.9 379.7 391.8 401.8 416.5 434.2 441.8 449.4 448.9 443 433.5 422.5 412.4 394.5 388.5 384.8 384.2 386.7 391.5 401.9 414.3 424.5 436.1 446.6 459.2 471.2 477.4 476.1 470.9 467.2 466.3 469.9 474.1 470 464.7 463.7 463 468.6 477.8 481.6 486.6 489.9 496.5 498.6 489.2 478.8 467.1 464.2 466.5 465.1 471.6 476.1 480.1 488.4 494.2 501.3 510.8 520.1 527.3 532.3 539.5 544.1 544.2 545.2 550.6 557.3 559.1 555.7 547.8 540.4 532.5 530.2 523.9 512.5 524.4 540.9 557.4 563.6 565 569.1 558.3 542.1 522.6 501.5 473.8 452.2 437 423.4 418.4 413.7 413.9 418.5 438.8 459.7 480.6 496.8 509.6 517.8 518.9 514.8 505.8 502.4 501 497.8 494 487.6 481.6 473.6 467.7 463 459.2 453.5 453.5 455.6 459.5 462.7 465.4 465.8 462.3 455.5 445.6 433.9 423.6 418.9 413.9 408.5 404 399.7 391.3 381.8 371.8 357.8 353 352.3 352.2 349.7 347 345.8 343.8 345.5 348.2 347.6 342.9 338.9 332 313.4 306.3 298.3 293.7 289.5 284 283 281.1 279.4 277.5 274.8 272.6 266.7 257.4 245.1 232.6 229.5 221.3 215.6 213.1 211.3 208.2
351.9 347.5 342.3 338 333.9 329.5 324.8 320.6 317.6 315 312.8 307.9 304.3 300.1 297.4 295 292 289.4 288.1 286.6 280.6 282.9 286 291 296 303.8 309.1 316.8 323.1 331.4 341 354.5 364.9 375.8 385.3 397 410.3 422 431.3 437.2 439.5 439.1 438.4 433.5 417.9 404.2 393.6 386.6 382.2 382.8 385.5 389.4 403.7 411.6 414.3 421.9 436.7 445.8 456.6 469 470.1 467 465.8 464.8 471.5 478 480.8 476.8 475.5 475.4 477.3 486.1 489.1 491.4 497.6 507.7 508.6 504 493.6 486.5 484.6 481.1 479.2 487.1 491.1 491.3 495.6 502.9 513.3 519.7 527.5 532.9 537.8 543.2 543.1 545.8 548.1 555.7 559.8 562.8 562.3 556.3 551.4 546.7 541.7 534.2 526.7 538.6 553.2 569.8 575.8 575.4 575.2 564.7 546.3 529.9 511.5 490.2 464.2 447.3 434.8 430.7 429.6 434 448.1 466 485 499.2 510.6 519.6 524.7 522.6 514.8 503.7 499 496.8 493.5 487.6 483.6 474.9 465.5 459.9 456.6 451.5 450.2 450.1 451.6 455.2 462.3 467 465.7 460.3 451.6 440.1 432.7 428.5 425.4 420.5 416.4 411.8 404.8 396.5 387.6 382.3 368.9 352.5 351.1 350.6 349.5 348.1 347.5 348.5 352.4 352.9 348.1 346.7 340 327.8 308.7 301.4 296.8 290.2 286.3 282.8 281.3 278.4 275.1 271.2 270.4 267.9 258 244.6 233 226.4 221.5 213.9 206.2 207.4 206 202.5
350.4 345.4 340 336.9 332.7 328.6 324.9 320.7 318.1 315.6 312.4 307.1 304.7 301.2 296.7 293.7 290.8 289.3 287.9 286.5 278.9 280.4 283.1 288.2 296.9 304 310.8 321 330.8 338.1 349.4 360.4 368.8 376.6 392.2 401.7 414.8 425.9 429.2 433.7 435.9 431.8 426.9 426.8 414.7 403.6 392.8 383.9 380.3 381.1 382.7 387.9 400.3 405.7 407.9 415.8 424.1 429.9 442.1 449.6 454.5 459 459.9 459.4 468.2 475.9 486.9 487.9 486.2 492.3 490.9 495.2 500.9 503.2 514 516.3 519 517.6 509.1 504.5 503.2 500.9 501.4 503.1 505 504.7 508 517 523.7 524.5 532.6 538.3 540.7 542.4 544.7 545.7 554.1 562.7 567.4 570 569 565.7 564.1 559.2 553 547 536.2 546.5 569.5 577.4 582.7 578 576.1 568.7 550.9 533 522.2 503.2 485 460.5 457 455 459.6 464.6 475.2 488.1 505.4 516.5 524.5 529.9 529.3 521.7 515 504 498 491.5 487.4 479.9 475.9 467 459 452.7 448.9 446.6 446.4 446.6 448 450.5 459.1 463.5 462.7 456.2 445.4 436.2 432.6 430.3 426.6 422.4 420.3 415.8 409.1 399.2 393.5 384.6 372 354.5 349.7 349 348.3 348.2 348.3 353.5 354.2 353.7 351 346.5 337.1 320.8 305.2 300.1 300.8 294.6 289.9 280.4 274.8 272.5 271.2 267.7 263.6 256.8 243.5 233.6 224.5 216.9 210.1 204.7 202.3 203.5 203 200.6
349 344.5 339 334.7 330.6 327 324.4 320.6 319 315.8 312 307.8 304.1 300.3 296.3 292.4 289.5 288.4 287.9 286.5 279.7 278.3 281.1 286.7 297.1 305.4 313.7 327.5 337.8 346.4 359 369.4 375.6 382 390.4 402.4 415.3 424 426.8 429.9 432 424.3 415.7 412.7 405 395.6 386.5 379 374.1 375 381.2 384.7 396.3 398.2 401.7 404.8 412.6 420.1 429.4 437.8 446.8 454.4 454.1 455.2 460.3 476.5 484.5 490.3 493 500.9 507 508.3 514.6 517.1 522.2 531.2 529.6 529.4 524.4 519.7 512.8 515.7 515.6 516.9 514.1 514 514.7 524.2 529.1 530.2 534.1 538.6 540.4 542 543.1 545.6 553.6 564 569.6 573.7 574.3 576.6 574.8 570.4 566.5 560.3 542.8 552 576.6 585.6 587.1 587.9 574.8 567.2 549.3 536.7 526.5 515.8 500.7 484.7 492.5 494.8 495.6 502.7 508.2 508.4 516.5 527.8 534 538.6 532.6 522.3 515.1 503 497 486.5 478.1 471.6 464.9 456.8 448.3 446.8 444.2 442.2 441.4 441.2 442.7 444.3 450.7 455.6 453.2 444.4 437.2 433.7 432 429.4 428.4 427.2 423.8 417.5 408 401.2 394.6 384.6 372.6 356.3 349.8 349.2 349.2 349.3 355 357.1 359.9 355.9 351.1 341.5 331.9 314.3 302.5 301 299.3 292.3 284.4 275.4 270.3 267.1 266.3 264.6 256.4 245.3 232.8 222.6 215.2 211.6 204.6 201.5 200.9 201.2 200.9 201.5
348.3 344.1 338.5 332.5 329 326 323.3 320.8 318.3 315.7 312 308.3 303.2 299.5 295.7 292 290.1 288.7 286.3 284.6 282.3 277.1 281.3 286.4 296.8 307.7 319.7 333.4 344.1 353.2 365.9 372.9 378.7 389.3 395.7 403 411 417.6 421.2 421.8 422.2 413.1 404.2 402.1 399.5 386.6 379.3 373.1 369.6 371.5 378.2 384.3 389.9 390.4 393.4 395.2 402.3 410.9 421.2 429 444 450.8 452.4 453.7 456.1 466.6 476.1 484.2 498.4 504.5 513.7 518.2 523.2 528.8 534 537.1 538.5 536.3 535.4 528 527.8 525.9 527.1 523.5 521.1 519.2 521.8 526.9 531.9 534.1 537.7 533.6 530.8 532.5 533 538.2 547.8 558.6 567.2 573.3 580.5 583.4 582.6 580.7 578.1 573.5 557.1 557 579.2 589.6 591.1 588.6 574.6 559.2 547.9 537 529.6 518.9 513 513.7 520 517.7 520.6 525 526.7 527.9 533.2 539.1 543.6 542.7 532.4 521.9 510.8 500.4 492.8 479.4 467.8 459.1 452.3 447.9 443.6 441 440.7 439 436.8 436.4 437 437.8 440.4 441.7 439.2 431.5 431.1 429.5 425.5 427.6 427.8 428.4 422.8 415.8 406.2 398.6 388.3 377.7 366 358.1 351.6 350.2 351 353.1 362.1 362.4 360.2 354.1 345.3 335.7 325 307.2 302.9 297.7 292.6 283.2 277.9 271.6 268.5 263 259.7 255.3 242.4 232.7 224.7 216 207.8 202.7 202.1 202.6 201 201.7 203.3 203.9
348.5 343.4 336.6 332.1 327.8 324.9 322.2 320.4 317.2 314.2 310.4 305.3 298.8 295.5 293.4 291.4 290.1 288.6 286.4 282.5 279.1 276.2 279.9 284.9 297.2 309.9 325 339.2 349.6 358.9 369.3 375.3 385.1 392.8 400.4 409.1 412.4 411.1 413.5 413.3 411.1 411.4 404.7 401.2 393.4 384.8 376.8 371 368.3 371.8 379.4 381.7 388.3 383.7 384.8 388.9 395.1 405.1 416.9 423.1 441.4 447.6 448.7 453.3 455 458.5 466.2 475.8 489.4 501.1 509.7 519.4 530.3 537.3 538.5 540.1 542.8 543.8 538.9 542.4 537.8 535.2 533.2 527.7 524.5 521.3 523.7 531.4 539.7 535.2 536.1 530.6 524.1 518.5 521.5 526.3 536.8 550.9 561.6 569.8 581.9 586 591 590.7 587.7 582.5 571.4 571.5 582.7 595.9 593.6 586.3 574.5 555.1 543.5 531.1 522.3 521.4 521.8 525.4 529 532.2 535.3 538.5 540.2 538.9 542.2 543.6 545.4 543.8 529.1 514.5 501.1 487.2 482.1 471.5 458.6 452.3 449.1 446.7 444 440.2 436.7 434.7 432.4 430.4 430 428.8 429.7 430.6 428.1 424.3 420.4 420.2 424 426 426.5 425.7 419.2 410.7 401.3 390.8 381.1 375.1 370 363.7 357.4 356.8 361.3 361.9 365.4 363.5 356.1 344.4 332.7 320.8 307.8 308.6 307.5 297.3 286.3 277.9 271.5 267.8 261.9 254.5 251.3 243.6 233.1 221.5 216.2 210.5 205.3 202.8 202.4 202.4 203.9 205.7 206.4 208.8
346.8 342 337.2 333.2 329.9 326 322.2 317.4 314 309.9 306.4 303.5 300.3 295.8 292.8 291.3 289.9 288.4 286.6 284 280.2 275.2 277.5 284.2 299.5 312.8 330.4 344.1 352.5 363.6 372.2 378.1 386.5 394.4 402.4 409.4 408.5 404.8 405.2 403.9 406.7 404.4 397.2 391.2 383.5 378 371.5 365.5 364.3 369.1 373 375.9 379 379.3 382 386.4 393 403.2 408.3 417 435.4 440.2 443.3 447.8 453 460.8 470.5 477 491.3 506.8 517 524.6 540.4 550 550.5 550.4 551.7 549.5 550.6 546.9 544.2 542 533 528.7 523.5 522.4 526.7 536.1 544.2 538.5 532.7 523.5 515.5 509.6 513.3 517.2 530.9 543.5 557.8 571.1 583.4 592 598 598.4 597.4 594.8 590.3 594.7 594.2 594.5 592.5 582.5 570.6 556.6 535.7 519.7 517.8 517.5 525.4 530.6 536.4 539.5 542.2 546 547.1 546.7 550.4 550.4 546.7 536.1 524.3 509.8 496.1 482.6 475.2 462.6 453.9 449.7 447.2 443.1 441.2 435.2 431.8 430 424.5 422.3 423.7 421.1 418.9 420.1 418.9 411.8 408.6 414 419.5 421.9 421.9 418.7 412.6 404.6 396.6 387.4 381.3 374.7 372.3 367.6 365.6 366.1 368.1 367.8 370.1 363.1 350.4 334.5 324.7 310.6 304.2 309.1 307.9 292.4 278 271.5 268.2 263.2 255.4 245.8 239.3 231.1 224.7 216.4 208.6 204 203.8 203.4 202.9 203.8 205.7 207 211.3 214.6
344 339.2 335.3 332.4 328.7 325 320.3 315.1 309.9 307.6 305.4 302.9 300.5 298.2 293.6 290.7 288.8 287 285.4 283.6 280.9 274.7 275.8 286.8 300.4 312.4 329.8 343.6 355.5 366.6 374.3 380.8 388 391.9 396.5 399.5 397.8 389.3 387.2 391.4 393.7 390.7 385.1 381.1 374.9 369.2 364.6 360.9 363.5 365.5 370 373.5 377 377.4 380.9 386.5 390.5 400.5 404.6 410.6 427.7 433.9 439.8 446.6 453.3 461.4 473.1 486.2 494.1 512.5 528.2 536.5 548.2 560.5 559.1 566.2 560.2 554.6 549 547.1 548.2 539.9 534.8 526.5 518.1 518.7 523.6 531.6 541.1 535.8 526.2 514.1 506.7 501.3 505.8 509.6 523.4 542.2 555 566.8 582.6 593.1 599.9 601.8 603.5 601.5 598.8 605.7 604.6 593.9 587.1 580.6 565.4 554.7 530.5 513.7 512.3 510.8 524 530.9 533.9 539.5 542.8 548.7 549 550.3 552.4 551.5 541 528.3 517.8 506.4 490.8 478 469.3 458.2 453.9 451.8 448.5 445.8 444.1 441.7 435.2 428.9 422.8 414.9 415.9 415.8 411.6 409.6 408.5 402.9 401.9 409 414.1 415.6 416.2 410.4 407.2 396.5 391.4 386.1 379 376 378 374.4 369.7 367.4 365.6 361.4 360.9 355.1 341.5 327.7 318.6 306.6 300.2 312.4 299.4 282.3 272.2 266.8 263.4 255.7 243.9 235.3 226.5 224.6 219 212.7 206.3 204.3 204.4 204.1 204.4 205 206.7 209.8 214.4 219.1
339.2 335.1 331.5 328 325.1 322.1 316.6 311.4 308.2 306.3 304.5 302.3 299.9 297.6 295.2 291.2 287.4 285.6 284.1 282.5 280.8 273.3 275 289.3 301.1 314.9 330.6 347.7 354.8 367 372.2 376.4 377.5 381.2 385 385.8 377.2 376.4 371.6 373.2 376.3 375.7 371.3 368 364.9 359.8 356.5 354.5 360.4 362 366.3 371.1 373.8 376.3 381.5 388.4 394 400.5 405.4 418.3 424.5 429.6 438.8 446.6 456.8 471.1 485.3 495 504.2 513.2 534.2 546.5 556 561 562.4 563.7 561.8 553.1 547.3 543.9 540.3 541.1 533.4 519 511.4 511.7 516.2 524 533.8 532.8 516.6 504.9 493.5 492.5 496.6 501.6 516.5 537.4 555.3 564.7 579 590.9 596.3 599.9 605.2 603.8 602.3 608.4 605.6 592.8 578.2 572.7 559.9 544.5 531.1 517.1 504.6 504.4 513.3 520.2 528.2 535.5 542.5 546.4 545.5 542.4 539.8 537.2 529.1 525.4 512.3 499.2 485.8 474.2 468.2 463.3 461.1 461.3 451.7 448 446 444.5 440.2 432.9 424 411.5 410.7 415 409.2 402.6 397.6 397.8 396.5 396.7 398.3 402.8 405.6 402.2 400.1 391.6 388.7 382.5 379.9 379.5 379.5 374.1 368.4 367.5 356.9 352.1 344.1 342.3 332.8 323.5 313 297.4 295.8 302.9 290.3 276.9 270.8 259.7 254.9 242.2 232.1 226.1 222.7 217.2 209.2 205.7 205 204.7 204.9 205.4 206.2 208.4 209.9 211.6 217.7 224.5
334.6 330.7 327.6 325.3 322.4 319 314.9 310.1 306.6 304.5 303.1 299.9 298.6 296.9 294.5 292 287.8 284.6 283.1 281.7 280.3 272.2 274.4 290 303.2 318.4 335.7 356.4 360.1 359.7 361.4 361.5 362.6 366.8 370.6 368.7 366.7 365.2 359.9 359.5 362.8 363 362.2 359.1 356.8 354.9 351.6 352.3 356.5 357.7 361.6 365.5 372.2 378.8 383.3 389.7 397.2 403.2 408.8 420 425.1 433.4 440 453.6 465.9 484.2 494.1 507 516.4 528.8 536.9 548.8 553.9 558.7 560.5 555.8 556.8 552.2 545.4 538.2 538 535.4 527.7 509 496.7 499 504.8 512.9 521.2 524.2 512.8 496.2 485.4 483.1 487.8 494.8 508.7 528.5 548.2 562.5 577.1 586.7 591.9 597.6 603.3 599.7 600.4 596.3 591.3 584.9 570.5 560.7 549.7 539.1 528.1 514.3 497.9 495.9 506 514 522 527.8 533.3 536.8 532.3 525 527.5 519.8 520.8 517.9 504.5 492.2 488.4 485.2 483.5 483.9 479.1 471.4 463.9 454.7 453.1 446.8 444.3 433 418.6 412.7 408.6 409.3 410.3 400.8 392.9 391 390.8 390.1 390.5 393.9 393.3 392.7 390.5 387.9 383.7 381.3 379 376.5 376.2 371.5 367.8 357.1 352 339.3 334.1 331 318.8 311.2 301.6 285.1 288.4 289.6 281.1 274 263.6 247.8 238.2 228.7 226.1 221.8 217.6 206.8 213.7 215.5 213.5 209.3 208.1 208.1 209.3 212.9 216.7 223.2 229.9 234.7
331.1 326.1 323.6 321.7 318.4 315.5 314 310.4 306.7 303.8 301.9 298 296.7 295.5 293.8 290.8 287.8 284.2 282.7 281.2 279.6 271.4 275 290.9 306.5 325.1 343.3 362.8 364 362.7 357 353.4 351.6 355 356.3 358 356.3 351.6 351.4 350.7 354 353.2 351.9 351.3 349.1 349 350.5 352 356.4 363.7 368.7 372.6 376.2 381.3 387 390.9 399.2 409.7 413.5 424 433.8 444.5 452.1 464.2 473.7 487.5 500.4 515.7 529.4 538 546.7 549.2 551.4 552 553 551.5 547.6 548.6 540.2 535.4 531.7 526.7 518.8 501 489.2 489 490.1 498.1 505.9 510.7 503.8 488.1 479.2 475 478.7 487.8 501 516.4 536.5 555.6 572.1 584.2 589.6 595.6 596.8 592.5 588.7 586.3 580.1 572.6 561.5 546.1 534.9 528.2 523.8 511.6 495.1 488.8 497.6 505 513.4 517.2 521.3 519.1 509.7 504.5 504.4 511.8 514.1 511.9 507.1 505.4 500.9 497.1 498.6 496.3 490.6 483.9 475.8 463.3 453.8 449.7 441.5 426.9 418.3 411.8 406.4 402.3 407.6 396.4 388.4 385.4 382.6 385.5 382.7 383.2 384.3 383.2 383 379.5 375.8 377.1 377.3 373.5 370 370.9 364.2 355.4 342.3 332 323.5 309 300.5 295.5 289.6 275.3 279.6 276 267.6 256.8 245.8 232.8 224.9 220.6 219.6 218.3 213.4 216.7 218.3 219.6 220.7 220.9 217.8 215.1 216.2 222.5 228.5 238.5 242.3 248.1
326.4 324 320.6 318.3 315.9 314.3 312.8 309.5 306 302.2 298.9 296.6 295.4 294.4 291.7 289.1 286.7 284.3 282.6 281.1 277.9 270.9 276.7 291.3 306.8 330.6 346.2 359.9 357.2 356.2 353.2 349.2 349.1 353.5 351.1 348.7 344.7 344.3 347.3 345.5 344.7 345.3 347.2 347.2 348.3 348.4 348.7 349.8 355.9 367.8 373.1 379.4 378.2 388.3 390.9 395.3 406.6 412.8 421.7 432.3 448.5 456.6 464.2 470.2 474.7 484.7 499 516.6 531.4 542.7 547.9 552.7 550.9 545.5 542.3 541.7 536.7 535.3 537 528.4 517.4 518.7 506.2 491.9 483.9 482.5 481.9 482 491.5 495.2 494.4 481.7 473.7 469.7 469.5 479.2 492.4 507.2 526.4 542.6 560.5 575.3 586.7 587.4 588.7 582.9 574.7 567.9 562.7 557.5 548.2 537.2 523.7 515.6 509.4 501 490.4 479.8 486.4 493.2 499.4 504.2 502.5 498.8 493.7 493.9 496.2 508.2 512.9 516.8 516.7 512.5 508.9 506.5 507.8 503.7 496.6 489.8 480.2 472.5 463.8 450.4 439.6 430.9 424.6 414.8 406.5 402.1 397.7 394.1 386.3 382.8 375.6 378.7 376.7 377.8 376.2 375.5 376.3 374.7 371.9 371.7 373.6 371.6 363.6 360.9 358.8 345.2 326.7 319.3 306.9 295 288.8 282.6 271.9 260.3 264 260.6 251.9 240.1 230.8 220.9 216.3 215.1 213.7 211.3 217.5 220 222.6 224.2 226.7 227.7 225.9 224.4 228.5 234.5 240.4 246.4 249.7 255.5
325.6 323.2 318 315.7 313.3 312 310.6 308.4 306.1 301 298 295.2 293.3 292.8 289.9 287.6 285.4 284.1 282.5 280.3 276.7 270.1 273.9 291.2 308.1 329.7 345.5 353.4 352.4 348 343.7 338.1 345.7 347.8 345.7 341.4 342.3 342.5 343.7 345.6 346 346 347 348 348 348.6 349.4 349.8 355.5 369.3 376.1 378.7 384.2 391.9 397.4 403.4 413.1 423.9 429.7 440.1 458 462.7 467.2 471.6 477.9 485.9 495.6 508.3 523.5 534.9 542.9 542.5 542 538 530.6 525.2 522.7 517.9 521.9 517.2 508.6 503.2 494.7 486.3 480.2 476.6 474 471.3 476.1 479.8 481.9 473.4 468.7 465.1 460.8 470 482.2 500 520.3 536.3 549.5 560.9 573.5 579.7 578.2 569.4 561.1 556.7 548.8 536.8 532.5 523.2 514.3 507.5 496.5 487.4 478.3 470.5 473.3 477.1 483.1 485.5 486.1 483.9 484.7 487.1 489.6 497.7 509.1 518.9 522.7 518.4 515.8 513.6 516.4 511.2 506.7 498.1 486.3 478.6 467.5 459.7 449 437.1 430.1 419.1 407.8 404.9 399.7 391.2 387.7 384.3 378.6 371.8 371.3 372.1 371 371.9 368.6 363.6 364.6 364.5 369.6 365.8 356.1 350.7 342.7 327.4 312 299.9 290.7 281.3 272.7 263.2 257.8 244.2 244.2 243.3 235.8 227.2 216.9 213.7 212.8 212.7 212.4 215.4 219.2 223.4 225.9 230.3 233.7 235.6 236.5 236.5 241 244.6 248.6 251.1 256.3 262.5
325.5 320.9 315.4 313.2 310.5 309.2 309.1 308.3 305.7 301.4 297.7 294.4 291.6 289.8 288.4 286.2 283.8 282.5 281.1 279.1 276.9 269.2 275.6 292.3 308.9 325.6 323.7 315.4 318.4 337.4 330 328.8 336.6 338.3 338.4 341.2 342.1 344.2 346.8 348.9 348.1 348.1 349.3 351 350.4 349.8 350.5 350.5 358.9 373.9 377.4 380 385.9 397.2 403.9 411.4 415.7 430.8 433.6 444.4 457.4 461.7 461.4 466.2 473.3 478 490.1 499.5 512.4 524.5 531.5 529.9 527.4 525.3 517.1 506.9 509.2 513.4 516.4 513.5 504.1 497 490.7 484.1 477.2 472.4 469.3 467.6 466.1 468 470.9 464.3 460.3 458.7 455.5 462.6 474.1 491.4 509.4 526.9 541.4 553.5 561.8 563.9 567.5 560.3 547.1 543.8 538.7 527.8 515.2 505.2 495.6 486.4 484.9 476.7 471.7 459.1 459 463.3 469.2 474 473.8 470.2 473.5 476.2 480.2 495.2 508.7 519.1 520.7 522.2 526.1 520.8 518.3 516.9 509.4 499.4 483.3 474.9 470.7 461.7 453.2 444 430 418.4 412.4 408.6 402.9 394.6 391.7 390.8 381.2 371.4 367.1 364 365.1 364.6 360.1 356.4 359.9 360 359.9 354.7 344 333 322.2 311.3 300.9 289.8 276.5 266.4 255.5 248.3 239.4 234.3 232 229 223.8 217.9 214.6 212.4 212.1 212 212.3 216.5 220.5 224.6 229.7 234.1 238.8 242.2 244.3 247.6 250.1 251 253.6 259.9 264.8 271.2
323.4 316 314.4 312.1 308.4 306.8 304.7 304.3 301.5 298.6 296.6 293.7 290.1 287.6 286.5 285.2 282.1 280.7 279.2 278.6 274.2 269 273.9 291.6 308.2 316.2 300.8 288.5 298.9 307 317.7 322.5 328.3 328.6 333.2 340.9 343.3 345.4 346.9 348.7 350.3 349.7 350.4 353.2 354 352.9 351.7 351.8 358.2 371.9 376.3 381.3 387.7 399.5 407.5 413.8 419.4 432 438.4 446.5 449.9 452.1 453.3 453.5 460.8 467.1 478.9 489.1 500.7 509.6 515.5 515.5 511.3 508.8 502.1 496.7 502.5 505.5 509 507.5 500.3 493.9 489.3 484.3 475 470 466.2 464.4 462.8 461.6 462.7 459.9 456.3 453.4 452.7 459.5 468.1 481.3 498.2 514.3 530.3 543.8 555.1 556.8 554.3 549.3 537.1 529.9 524.5 516.6 501.5 492.2 481.7 472.1 469.1 462.8 458.2 451.4 450.2 455.6 462.3 463.8 463.7 462.4 464.7 469 476.6 492.7 505.7 516.7 520.9 524.3 531.2 524.5 523.1 516.6 509.7 497.4 482.1 478.7 472.7 462.9 454.4 444.2 432.4 420.4 420.2 415.1 406 397.9 398.9 395 383.1 370 366.7 364 358.2 351 349.2 349.5 349.6 350.7 347.5 337.8 325.7 314.2 303.2 302.3 295.5 278 266.7 258 249.8 239.7 233.6 230 227.4 224.9 220.3 216.3 213.9 212.1 211.8 212.2 212.5 215.8 221.3 226.4 231.4 235.8 241.9 247 252.1 253.5 254.4 256 260.1 265.8 272.4 276.4
319.9 319.9 319.5 317.1 312.6 309.5 304.5 300.2 298.6 291.4 291.3 290.2 287.6 285.9 284.8 282.9 281.5 279.6 277.7 276.3 273 268.5 272 288.8 305.4 297.9 286.1 297.1 311.4 307.3 311.2 315.1 320 328.6 335.9 339.4 344.3 346 347.5 349.5 351.2 351.8 352.1 355.3 356.1 356.3 353.4 353.3 355.3 370.4 373.8 380.8 387.1 401.6 404.4 408.5 415.5 420.1 431.7 436 438.1 437.2 438.8 441.2 446.8 456.6 467.6 479.4 489.3 494.6 500.7 501.8 497.8 492.1 486.6 485.9 493.3 494.6 498.4 499.8 496.3 491.1 487.6 483.6 473.2 468 463.6 460.4 459.5 458.6 457 456.8 453.6 451.4 449.2 455 460.2 472.9 487.3 503.8 518.2 532 540.4 547 546.9 538.9 527.9 512.7 505.4 502.6 492.4 482 473.5 464.1 452.9 448.8 444.6 442.7 443.6 449.5 452.6 456.1 456.8 455.6 459.3 465.5 474.3 485 499 513.5 520.7 531.2 527.6 525.2 522.7 514.6 502.1 494.1 479.5 476.2 468 462.7 453.1 445.4 435 426.2 429.8 425.1 416.5 408.6 400.2 397.1 387.8 376.2 371.8 372.8 364.2 353 341.5 334.1 331.5 333.2 326.1 316.5 307.3 294.8 282.4 275.3 275.8 268.3 255.2 249.1 242.3 237.4 232.1 229.2 227.4 223.9 220.2 214.2 212.6 212.2 211.8 212.2 212.7 215 220.2 225.7 232.2 238.5 247 251.7 255.7 258.6 259.8 263.5 269.6 273.7 279 281
