ncols 200
nrows 82
xllcorner 240000
yllcorner 933400
cellsize 50
509.5 518 530 542.7 554 565.7 578.2 592.1 602.5 603.7 602.2 600.4 597.4 587.4 566.1 551.8 531.2 514.7 504.1 500.1 482.1 480 484.4 486 486.7 487.4 486.9 484 481.6 483.5 484.5 486.2 486.5 484.6 482.1 480.3 478 474.9 466.3 443.4 413.5 392 365.8 348.6 328.7 316.7 314.7 305.4 296.7 291.3 284.8 277.3 272.6 264.2 254.9 248.8 244.5 243.8 242.3 240.7 239.6 239.6 240.3 243.8 246.6 250.7 253.7 255.9 259.5 262.6 265.5 267.5 272.5 275.1 278.9 280.3 280.1 279.8 277.9 277.9 276.9 280.7 284.1 283.9 287 290.8 292 292.5 292.9 292.7 295.5 299.4 301.4 304.6 298.2 294.5 293.4 294.6 295.1 298.3 300.4 305.8 311.4 311.7 308.9 309.7 309.9 312.6 314.8 317.7 318.2 318.7 320.1 322.4 322.5 322.4 322.4 323.3 324.1 320.7 318.9 318.8 319.4 317.3 316.5 315.4 314.6 313.5 313.3 309.7 309.7 308.9 308.6 305.4 305.7 304.4 304.7 302.5 302.5 305.1 306.1 306.6 306.2 307.2 306.9 309.9 309.8 310.9 312.5 312.5 311.1 310.2 309.3 308.9 306.7 306.3 305.5 305 303.6 299.4 297.8 296.3 295.4 294.6 294 293.5 290.8 288.1 284.6 279.1 278.1 273.4 271.1 269.1 267.3 264.7 262.9 259.8 256.7 253.3 250.2 243.8 240.4 236.7 233.5 228 221.6 217.8 218.8 212.4 207.6 205.3 199.1 197.9 196.2 194.6 192.3 188.8 186.8 181.2
507.5 518.7 529.1 540.5 549.3 556.3 563.3 569 579.2 590.1 595 592.6 586.8 571.4 551.4 533.2 517.6 505.8 500.3 495.6 480 480 481.1 489.5 489.3 490.2 488.8 484.3 485.8 489 491.5 489.9 491.1 490.6 488.3 484.9 479.6 473 456.4 422.1 389.5 365.2 347.2 330.6 317.2 304.5 298.9 293 286.1 279.3 274.9 267.4 260.7 255.7 249.2 248 245.6 243.6 242.8 243.6 245.4 242.4 242.6 247.5 250.9 254.2 257.6 262.1 265.1 268.7 272.5 274.5 277.6 282.3 282.2 282.6 282 281.8 280.6 280.8 283.2 282.6 285.1 291.3 294.8 293.8 295.2 295.1 295.6 295.1 300.8 303 302.5 304.1 301.5 295.1 296.3 296.9 296.8 299 302.8 308.5 312.5 314.6 310 307.8 309.4 311 313.8 316.7 317.5 319.1 321.5 322.9 322.8 323.4 321.9 321.3 320.2 319.4 319.6 318.4 317.6 317.9 316.2 313.9 313.3 311.9 310.6 308.2 308.6 307.3 307 307.7 304.1 303.4 301.9 301.5 301.7 302.6 303.7 305.3 304.5 305.1 308 308.9 307.1 307.7 307.3 308.1 309.2 310.3 307.3 307.7 305.9 304.6 303.9 303.6 302.2 299.9 298.6 297.3 296.6 295 294.9 294 292.7 289.6 286.3 279.3 279.4 273.4 273.8 271.3 268.8 265.4 263.5 260.4 257.3 255.2 252.1 247.1 244.8 240 236.7 231 225.6 222.9 219 212.2 210.7 209.6 206.4 202.6 198.8 196.3 194.5 194.6 187.7 184
505.1 515.7 526.3 535.3 540.6 543.5 548.3 554.5 562.1 573.7 585.5 588.1 577.3 562.4 543.9 525.8 514 507.3 501.2 488.1 480 480 480 489.4 490.8 491.6 490.1 486.7 488.1 495 496 495.6 493.6 493.8 492.5 486.8 477.3 462.1 421.4 383.4 360 340.4 325.7 314.6 304.6 297 285.8 283.2 276.6 271.1 266 259.5 254.6 253.3 249.5 249.3 243.5 244.5 245.9 246.2 248.3 248 247.5 251 255.2 260.1 263.9 267.6 272.4 274.7 277.8 281.7 283 284.7 283.9 283.5 286.3 284.1 283.7 286.2 286.5 284.6 289.4 295.4 296.6 295.6 299.7 300.4 301.6 300.2 303.3 304.9 302.7 301.9 299.9 297.4 298.1 299.9 300.9 299.9 304.9 311 311.6 313.7 312.5 311.9 312.4 313.6 316.4 318.5 319.6 320.2 321.7 324 324.6 324.9 323 322.3 322.4 321.3 321.4 320.6 319 318.5 318.3 316.1 314.2 314.4 313.2 311.8 308.8 306.8 304.3 304.1 305.4 304 301.7 301.1 300.8 300.9 302.5 302.2 300.8 301.4 302.7 304.8 306.4 306.6 306.2 306.6 307.6 306.7 306 305.9 304.5 303.9 303.4 303.1 301.4 298.8 296.5 296.8 297.4 295.8 294.8 293.8 292.6 290.3 287.5 279.7 280.4 273.7 274.1 272.6 269.5 265.6 263.6 261.5 258.3 256.1 253.7 249.6 247.1 243.1 239.3 232.4 230.6 227.8 222.8 216.1 213.5 210.5 209.7 206.9 204.4 201.4 196.7 193.5 190.4 190.7
500.8 512.4 520.5 525.1 530.6 534.9 539.6 546.2 556.2 568 575.7 576.6 566.5 551.8 539.2 522.1 508.8 503 498.7 492 480 480 480 489.9 493.6 494.4 494 492.6 492.3 500.5 500 497.7 496.7 493.9 486.5 475.4 435.8 398.6 372.7 354.5 335.7 319.2 307.6 300.8 293.9 286.2 279.9 275 272.5 266 261.9 256.2 252 250.3 250.3 248.1 245.3 244.6 245.4 245.9 248.8 249.8 250.4 255.5 260.2 265.9 270.2 275.4 278.2 281.3 283.8 284.9 285.1 287.2 286.4 287.2 286.6 284.2 286.4 288.3 289.5 291.5 297.4 300.5 300.4 300.6 303.1 301.8 303.6 304.6 303.5 303.6 302.9 301.4 299.5 299.2 303.4 302 302.3 305.1 306.2 313.9 317.3 318.5 318.9 319.2 316.8 316.6 318.9 320.6 322 324.9 327 329 328.1 328.9 326.3 325.8 325.4 324 322.4 321.5 320 318.4 318.2 317.3 315 314.1 314 312.6 309.4 307.4 306.3 303.2 302.3 302.5 302.6 301.6 300.9 298.4 297 297.1 298.3 299.3 299.3 300.6 301.8 303 305.2 305.6 306 305.5 305.2 303.8 303.8 303.1 302.2 301.9 299.5 297.9 297.2 297.1 297.3 295.6 294.6 293.4 291.7 289 285.5 283.1 280.8 275.9 276.2 273.8 269.3 267.3 264.7 261.6 259.5 257.8 253.3 250.3 248.2 244.6 240.3 236.1 233.5 229.9 223.6 219.6 216.9 213.9 210.7 208.4 203.7 202 201.6 200.9 194.6 191.3
494.7 506.4 514.6 519.1 520.8 526.1 533.7 540.7 552.1 558.9 565.1 564.5 555.8 545.8 533.1 517.9 509.4 501.8 497.7 483.6 480 480 480 491.7 494.6 496.9 498.1 498.3 500.7 505.4 502.9 493.8 491.5 480.4 457.2 423.3 393.5 371 346.7 328 313.8 304.4 297.1 291 284.3 276.9 270.2 265.7 266.7 263.2 259 252.4 246.4 250 248.2 247 244.7 243.3 244.3 246 248.5 251.2 255.8 259.4 265.5 270.4 275.8 280.2 283 286.4 287.4 288.5 288.5 289.7 289.9 291.1 289.6 288.2 288.6 290.2 294.4 299.5 302.2 303 303.9 304.1 305.9 308.4 306.2 305.3 304.1 303.8 303.1 301.4 301 300.4 303.4 304.3 305.4 306.5 308.4 313.6 314.9 319.9 321.8 323.9 324.8 322.4 322.5 323.8 326.4 328.8 331.1 333.4 332.8 330.6 331.2 328.8 329.1 327.7 326.7 323.6 322.3 319.7 318.8 318 317.2 315.2 313.6 311.9 310 309.5 305.7 304.1 298.5 298.6 298.9 297.3 296.9 297.5 297.2 292.5 293 295.5 295.4 298 298.6 299.4 300.7 303.1 303.8 302.6 303.6 302.1 302.5 301.9 301.9 301.9 299.6 298.8 298.5 297.3 296.3 295.3 293.2 290.7 289.2 287.7 285.6 284.3 282.4 276.9 276.4 273.8 269.8 267.4 266.7 262.9 260 257.4 254.6 252.7 249.6 245.7 241.5 238 234.7 230.2 224.8 220.9 216.9 214 211.1 208.4 205.5 201.7 199.6 197.2 197.1 191.5
487.8 501.5 509 513.9 517.2 520.4 528.8 535.6 545.5 551 554.8 555.6 546.8 546.3 533.3 520 511.4 504.2 498.4 482.6 480 480 480 494.9 499.3 501 501.6 502.9 504.9 510.3 496.5 482.4 462 441.7 418.8 394.3 369.2 346.8 325.1 307.6 297.1 291.6 282.1 274.5 270.3 266.1 264 259.3 261.5 259.4 257.3 252.6 245.3 241 243.6 246.5 245 242.9 244.1 247.7 249.5 254.6 259.3 266.6 272.5 277.8 282 285 288.4 290.8 293.8 293.8 292.9 291.7 293.7 295.2 294.2 291.6 291.3 296.2 300.7 304.2 307.3 306.5 307.3 308.2 308.5 311.2 307 305.5 308.6 304.7 303.5 304.9 302.1 304.7 307.3 306.8 307.4 310.7 309 314.5 315.8 318.1 321.6 327.5 328.8 327.7 326.6 328.7 330.8 332.5 333.9 335.5 335.8 334.3 335 333.4 330.5 330.6 330.1 327.4 324.4 323.3 320.9 319.7 318.8 317.7 315.1 313.6 311 309.1 306 303.4 300.3 295.8 294.2 293.4 292.6 293.3 292.4 291.5 290.7 289.9 293 294.2 294.6 295.9 297.3 298.5 302 300.7 301.3 301.8 301.9 301.6 301.3 300.6 298.8 297.9 297.2 295.6 294.2 293.9 291.8 290.1 288.4 287.4 286.4 284.7 282.2 278.6 277.2 274.2 270.1 269.6 268.6 264.9 261.8 259 256.5 255.2 253 250.2 243.5 241.4 235.7 232.4 227 222.9 219.9 218.5 215.2 210.1 204.3 203.2 200.8 197.7 197.9 194.3
480.1 492.8 499.9 504.8 509 513.8 519.6 529.5 537.6 542.8 546.7 548.3 542.4 541 532.3 523 516 507.1 500.7 492.6 480 480 492.7 499.4 502.7 504.2 505.8 506.6 506.6 505.2 486.3 460 439.9 414.6 386.8 366.2 344.9 324.3 308.9 295.5 283 277.4 270.2 268.8 262.8 261.4 259.4 256.2 254.7 252.8 253.6 249.5 239.1 239.1 245 243 244.3 242.3 245.1 249.9 253.5 258.3 264.2 270.1 276.1 281.1 285.5 289.7 290.4 294.5 296.4 296 295.2 296.3 297.9 297.6 300 299.3 298.2 301.1 306.9 310 311.3 311.3 310.7 311.8 312.8 307.3 305.2 305.9 305.4 302.8 302.7 307.7 306.3 308.4 309.3 312.3 309.9 310.6 312.7 312.9 313.7 315.2 320.1 327.2 329.1 328.9 330.1 333.4 336.4 338.8 339.8 338.9 339.4 339.9 338.3 337.2 333.9 332.7 331.7 328.4 327.4 324.2 323.1 320.7 318.9 319 317.1 314.9 312.9 310.8 309.1 306.9 302.9 297.2 294.9 293.4 293.1 290.4 290.6 289.9 289.5 288.4 288.6 291.2 292.1 293.7 294.2 295.5 296.3 296.8 297.8 298.6 299.4 299 298.7 297.4 296.8 295.5 293.9 293.9 292.9 291.1 289.9 289.4 288.9 288.2 286.4 284.3 280.8 279.9 277.8 274.3 271.7 270.8 269.4 267.1 263.9 259.8 258.4 255.8 255.4 251.6 246.4 244.4 240.4 235.1 231 226.8 223.2 221.2 218.5 212.1 208.8 207.2 202.8 199 195.5 191.8
475.9 485.4 491.1 497.1 502.5 507.9 514 523.8 532 534 535.7 539.6 537.9 531.7 529.1 526.4 517.8 510.3 503.7 497.3 489.3 485.4 494.6 502.2 506.5 509.7 511.4 510.6 509.8 496.3 471.4 443.7 418.7 391.5 360.1 341 324.1 308.8 297.1 285.1 275 267.8 266.9 264.7 259.7 259.4 259.4 253.2 251.1 248.2 248.1 239.1 239.1 247 249.8 250.1 246.1 244.4 249 253.8 258.5 262.4 267.4 275.4 281.3 283.5 286.5 292.4 293.9 296.6 297.8 298.9 297.9 298.3 299.8 301.2 306.1 307.6 307.6 308.8 312 314.2 316.4 315.4 314 313.4 314.3 309.9 306.8 310.9 306.2 309.9 309.6 308.8 312 314.5 315 317.4 315 313.6 315.6 318.8 317.6 319.1 323.8 327.4 328.6 331.7 335.1 340.1 343.4 345 345.8 343.7 342.4 342.7 341.6 338.8 337.3 335.4 332.7 331.2 327.3 324.5 323.1 321.6 320.1 318.6 316.5 313.8 311.7 310.4 309 308.2 304.8 301.6 294.9 294.1 293 292.4 291.1 287 289.2 285.8 284.6 287 288.6 289.2 291.5 291.4 293 293.9 294.9 295.4 295.6 295.4 295.5 294.7 293.6 292.7 292.7 292.5 292.1 290.7 290.1 288.7 287.9 286.3 285.3 284.1 282 279.6 277.3 274.7 273.2 271.8 270.1 267.3 263.7 260.4 259.5 257 256.3 252.5 248 246.3 239.9 236.5 233.9 229.6 226.9 224.3 221.2 217.3 214 210.3 205.4 199.5 196.2 194.3
468 477.5 484.1 489.7 495.3 502.6 508.9 515.5 523.6 525.7 528.4 528.4 529.2 526.8 522.8 520.5 515.5 512.4 505.2 498.7 494.7 495.4 499 505.8 511.3 513.9 514.6 512.6 509.2 487.3 447.8 419.5 391.9 368.1 344.3 327.5 309.6 295.9 288.3 279.7 270.3 265.8 265.7 259.7 257.6 258.8 259.2 256.2 250.6 247.1 244.5 239.1 239.1 246.2 250.2 254.9 252.7 252 254.7 258.1 263 266.1 271.5 279.7 283.3 285.4 286.8 291.9 296 299 301.2 300.8 299.9 301.5 302.2 306.4 311.9 313.1 312.8 314.5 316.1 319.1 322.5 320.2 318 318.8 318 314.6 312.7 313.4 314.4 315.5 317.1 315.4 321.7 318.9 320.3 321.6 320.7 320.2 321.4 322.6 323.2 325.8 325.8 330.5 332.6 336.8 341.8 345.9 347.7 349.8 350.2 348.9 349.1 346.4 344.8 341.6 339.6 335.4 333.3 333.9 328.6 324.7 322.1 322.1 320.3 318.8 317.7 315.1 313.1 312.6 310.6 306.9 305.4 300.8 295.9 293.9 292 291.6 288.9 285.5 284.6 285.5 283.1 281.9 283.9 286 287 289 290.2 290.8 292.1 292.2 292.7 292.6 292.7 293.1 292.4 290.9 290.3 289.3 289.8 289.1 287.5 286.5 286.5 285.5 284.1 282.6 280.3 278.6 276.9 275.3 273.2 272.9 270.2 267.5 263.8 262.4 260.5 258.3 256.5 254 249.5 247.8 243.2 238.2 234.9 232.2 230 227.5 224.6 221.1 218 213.5 209.6 204.7 199.6 198.6
463.9 472.5 481 487.5 492 499.4 506 512.6 516.9 519.4 522 523.5 521.9 519.4 519.2 517.1 515.7 514.2 507.8 501.5 499.2 499.4 503 508.3 513.3 515.4 516 511.4 493.9 461.1 427 399.5 371.8 351 329.5 311.6 300.2 287.3 280.1 272.1 265.9 266.4 262.6 256.1 256.5 254.7 252.6 251.5 250.4 245.4 239.1 239.1 242.1 249 251.4 256.3 252.9 254.8 259.3 261.9 267.2 272 276.8 280.1 285 287.7 291.4 294.6 298.4 300.7 301.9 303.1 304 305.7 307.5 311.1 316.8 318.3 319 318.4 319.4 321 322.5 323.4 324 325 321.3 315.8 316.1 318.7 322.2 320.1 321 318.2 324.9 322.8 325.4 324.4 323.1 324.7 324.6 324.2 325 329.8 331.4 333.5 339.1 342.2 345.5 350.4 354.3 355.3 356.7 356.5 353.6 350.5 347.7 344.7 341.2 336.8 332.6 330.4 327 324.2 323 321.5 321.2 318.3 316.9 316.6 313.3 312.8 311.6 308.5 304.7 300.3 296.3 295.7 292.1 290.6 288.4 285.4 279.2 281.2 281 280.9 281.8 282.8 283.9 285.8 286.3 287.5 288.8 289.1 289.7 290 290.1 289.9 289.6 288.4 288.2 286.8 286.7 286.8 286.1 284.5 283.8 283.6 282.8 281.6 279.4 278.7 276.2 274.3 273.3 273.2 270.5 267.6 263.8 262.7 260.3 258.2 256.6 253.7 250.9 248 245.8 240.9 237.6 235.3 233 230.1 227.2 222.9 219.1 214.8 210.8 206.5 204.7 202.9
458 469.7 478.4 486.5 493 499.5 504.9 510.9 513.8 517.3 518.4 524.2 525.7 518.5 515.3 516.2 515.7 514.9 510.5 502.3 500.9 501.3 503.7 508.9 512.6 516.1 516.5 503.4 473.2 442.1 411.4 384.6 359.5 339.5 319.3 300.3 287.9 276.6 272.2 270.9 266.5 266.1 261 255.3 252.2 255.2 254.4 249.4 247 239.1 239.1 239.1 244.4 249.2 252 253.8 259.7 262.6 265.4 267.1 272.1 274.4 278.6 283.4 286.8 289.9 293.9 298.4 300.8 302.3 304.4 306.1 307.8 311.5 312 314.8 319.5 320.9 324.2 324.3 326.1 325.7 328.1 328.8 330.1 326.8 323.8 321.6 323.8 324.8 325.3 327.8 329.6 329.5 327 328.2 326.5 327.3 324.2 325.7 328.1 327 330.3 331.9 333.8 338.6 340.1 344.4 349.5 354.3 357.4 360 361 359.7 357.2 354 350 347.5 342 337.5 333.2 329.7 326.5 325.5 322.7 321.5 321.7 319.8 317 315.2 314.4 312.1 311.1 306.4 304.1 298.9 294.9 292.6 291.8 290.2 286.5 283.7 279.7 275.8 276.7 277.5 278.7 279.8 279.9 280.4 283 284.2 284.9 285.3 286.1 286.1 286 285.3 284.6 284.9 284.5 284.6 283.8 284.4 283 283.1 282.4 281.5 280.8 279.6 277.5 277.2 275.9 274 274.4 273.4 269.4 267.5 264.9 263.1 260.9 259.5 255.8 253.5 252.9 250.5 247.3 244.5 240.3 238.1 235.2 231.9 229.3 225.7 221.7 215.8 210.4 210.8 209.5 207.2
449.6 468.3 479.9 487.7 496.7 503.4 505.8 509.7 513.8 518.6 520.6 521.5 528.1 522 514.4 514.4 514.8 515.2 511.1 506.1 506.2 506.3 508.5 511.2 512.5 514.9 514 493.3 451.5 421.9 395.9 374.7 354.9 335.4 309.1 290.4 286.4 277.1 271.2 267.5 266.1 263.8 256.9 254.1 250.4 249.6 251 250.7 249.6 239.1 239.1 244.9 248.1 251.1 255.3 257.9 264.5 266.4 269.5 270.9 275.1 278.4 281.8 286.4 290.7 292.8 296.9 299.9 302.8 304.7 306.2 308.7 313.7 318.1 316.9 318.7 323.8 328.9 333.1 329.4 331 331.6 334.5 336.8 335.5 330.4 326.7 328.1 328.2 332.4 332 336.2 332.2 328.8 328.6 329.1 328 326.8 328 328.4 331.7 330.8 335.1 335.6 335.9 338.5 344.8 345 351.2 356.6 361 363.4 363.8 362.6 359.3 354.8 350.8 348 342.7 339.1 334.1 330.3 328.7 326.4 321.6 320.3 320.4 319.6 317.8 315.7 314.8 312.2 309.3 304.6 301 297.5 292.8 290.7 289.3 289.3 285.3 282.3 279.4 274.8 272.6 272.5 275.7 277.5 279 278.3 277.8 280.2 281 281.6 282.5 282.4 282.2 281.5 280.7 281.4 282.1 281.4 281.2 280.8 280.8 280.2 279.9 279 278 277.1 276.4 275.3 273.8 273.8 273.7 272 269 268.2 266.3 264.4 261.8 259 256.2 254.4 253.7 255.9 250.3 246.9 242.3 240.4 237.3 234.3 230.9 226.8 222.6 218.7 213.9 213.2 210.2 209.2
450.1 464.7 478 488.3 497.8 506.5 507.5 513.3 516.8 520.2 519.9 520.7 522.6 521.3 514.7 516.2 517.8 519.9 513.9 511.7 509 509 510.1 511.9 511.6 512 506.2 472.4 438.3 408.2 381.8 359.8 341.5 322.3 304.3 289.3 278.6 274.8 271.4 265.4 264 261 254.1 252 248.1 246.9 249.2 251.1 249.3 239.1 239.1 246.7 253.5 260.1 261.4 264.3 267.2 271.6 271.8 273.9 278 281 284.4 288.8 292.1 296.2 300.2 303.2 304.9 306.7 308.5 312.9 317.9 321.3 322.3 324.7 329.1 335 338.8 334.3 337.8 338.3 340 341.1 338.8 335.9 337.2 333.3 333.4 341 340.8 337.3 333.4 329.5 332.7 330.8 329.9 328.9 328.2 331.8 331.3 334.6 339 339.1 340 343.8 345 346.7 350.5 356.6 361 364.4 366.3 364 361.3 355.5 352.4 347.9 342.7 337.8 333.5 330.4 327.8 326.5 322.2 319.8 318.7 319.7 317.5 315.6 314 311.7 307 302.5 298.7 294.9 290.7 288.4 287 285.4 282 279.5 276.3 274.6 267.3 267.4 271.6 272.3 273.4 276.1 275.7 276.4 277.8 278.1 278.5 278.8 278.4 277.3 277.5 279.4 278.2 278.8 277 277.4 276.4 276 276.9 276.5 275.4 274.2 274.4 273.7 272.7 272 271.4 269.3 268.6 267.8 265.5 262.8 260.4 258.5 255.5 254.4 255.4 255.2 250.4 247.3 243.2 240.1 236.6 234.7 231.8 226.5 223.1 220.9 216.1 214.9 211.7 208.2
445.4 461.6 477 489 499.6 507.7 513.8 519.8 523.4 526.5 523.7 524.7 523.7 521.5 519.1 519.7 523.3 520.3 515.9 513.9 510.6 510.4 510 510.3 509.8 509.8 498 458.7 430.7 400.4 373.9 347 324.6 310.7 295.2 282.8 277.1 276.9 272.2 267.6 262.4 258.6 250.9 246.1 240.2 239.9 246.3 247.4 244.2 239.1 239.1 252.6 260.1 263.1 266.5 270.1 271.5 274.1 275.8 277.2 280.5 284.6 287.9 291.4 295.1 299.5 303 305.4 306.6 309.6 313.5 319.1 322.3 322.1 325.1 328.8 334.9 337.2 341.7 342.9 342.1 343.6 342.6 347.3 349.4 349.9 342 340 338 346.9 342.4 337.4 333 334 337.5 334.5 328.7 330.2 330.4 332.8 334.6 336.5 340 341.3 344 344.9 346.5 349 351.5 354.1 359.9 363.3 364.6 363.7 360.6 355.7 351 346.4 342.5 336.1 332.2 329.9 327.5 325.3 322.9 318.3 318.2 318.2 316.1 315.8 312 309 304.4 299 295.7 292.3 288 286.4 284.1 282.6 279.1 276 274.5 271.4 268.1 265.4 269.4 268.3 268.4 271 271.6 272.7 274.5 274.8 274.5 275.4 274.9 274.1 273.2 274.9 274.1 273.3 273.6 273.3 271.1 272.9 272.9 271.9 270.8 271.3 270.9 270.7 269.3 269.8 269.7 268 267 265.6 263.6 261.1 260.2 258.2 257.7 255.6 255.2 252.9 249.6 246.8 243.1 239.5 236.8 234.8 229.7 226.4 223.1 220.8 216.5 212.8 210.5 208.2
440.4 456.2 473 488.2 502.4 512.8 520.8 527.6 531.3 533.1 534.1 533.8 535.3 530 527.2 524.7 525.4 525.9 521.2 518.2 513.2 509.1 509.5 509.3 508.7 508 491.4 451.4 423.7 395.9 365.9 339.8 318.4 301.1 287.5 275.3 267.2 269.2 268.1 265.2 256.6 250.7 243.7 239.1 239.1 239.1 239.1 239.1 239.1 244.1 252.8 256.8 263.7 265.3 270.2 274 274.7 278.2 279.1 281.9 284.6 288.9 291.2 294.3 298 301.5 305.7 308.1 309.9 311.4 316.1 323.9 328.1 327.5 330 335.6 337.6 341 340.6 345.7 346.6 347.5 353 356.3 358.3 355.1 348.2 349.1 344.4 341.2 338.7 335.2 333.2 331.9 334.5 334.2 328.9 328.1 329.3 331.4 336.2 337.7 339.7 343.1 343.7 344.6 347.6 348.5 350.5 351.8 355.9 359.6 360.9 359.6 356.9 352.2 346.3 344.3 341.7 334.8 330.6 328.2 326.4 323.8 321.6 317.4 315.3 315 314.8 312.8 308.8 304.9 300.3 295.1 292.2 289.2 285.4 283.8 281.8 280.1 276.9 273.6 270.7 268.7 265.6 258.5 265.2 264.9 264.4 266.7 267.9 267.9 270.4 270.4 271.5 271.7 271.3 269.8 268.9 269.4 269 267.8 268.5 269.5 269.3 269.7 269.7 269 268.8 268.2 269.1 268.9 268.4 268.2 267.4 264.8 264.2 263.1 260.6 260.1 259.6 258.5 255.7 255.4 253.8 252 249.1 245.8 243.1 239.7 236.8 233 228.8 225.9 223.6 220.7 215.9 212.6 210.2 208.2
435.2 449.4 466.6 488.6 505.1 522 533.7 541.6 545.8 550.7 552.5 550.1 550.6 545 536.4 535.4 537.3 535.5 530.5 525.2 519 515.5 513.1 509.5 507.2 504.8 479.5 439.7 414.9 386.9 358.7 342.9 325 306.9 285 268.5 262.4 261.4 263.9 260.3 254.2 247.7 239.1 239.1 239.1 239.1 239.1 239.1 240.7 252.7 260.7 261.6 270.1 269.7 273.9 278.3 281 283 283.1 285.6 289.2 291.8 293.3 297 300.5 303.9 307.1 310.5 314.4 315.7 321.2 326.1 329.4 330.1 334.3 339.4 341.6 347.2 349.9 350.8 354.7 357.8 359.8 361.5 364.4 358.7 352.9 345.6 343.3 340.5 338.1 332.7 328.5 329.1 327.3 325.7 331.4 331.2 328.5 330.5 335.5 339.7 340.8 343.6 342.8 344.4 345.7 347.5 348.6 349.1 349.6 351.1 353.2 351.7 348.7 343.6 340.2 338.1 336.8 332.2 328.1 326.7 324.8 321 318 316.3 313.5 310.3 309.9 308.7 303.8 299.4 294.9 292.1 290 285.7 282.7 280.8 279.5 277.4 272.3 270.8 267.9 265.8 262 257.6 259.2 260.1 259.8 260.8 262.3 262.5 263.9 265.4 267.8 267.8 267.4 266.5 265.4 265.7 265.5 263.9 263.5 264.3 264.4 265.4 265.2 264.6 265.3 264.8 264.9 265.6 264.8 264 263.2 261.7 260.1 259.7 258.6 259.4 258.7 255.4 255.2 253.7 251.9 249.5 246.3 243.9 242.4 238.4 234.4 231.9 228.8 227 224.5 220.8 218.6 213.5 211.8 210.4
426.8 439.2 455.8 481.5 503.9 524.6 541 554.5 566.4 573.4 578.2 571.1 570.2 569.9 573.2 567.4 566.4 563.8 560.2 549 541.7 535.9 532.4 526.3 516.6 494.6 461.9 430.4 405 378.1 348.5 331.7 316 301.1 280.2 266 257.2 254.1 256 255.9 252.2 239.1 239.1 239.1 239.1 239.1 239.1 249.7 253.1 260.1 264.5 267.5 272.9 273.5 278.3 283.1 285.5 286.2 286.1 289.1 292.9 295 297.3 300.4 303.3 307.6 311.8 314.7 319.2 322.4 324.8 329 331.3 333.2 338 341.3 346.5 352.9 355.6 356.7 363 366.9 366.4 370.8 371.1 366.5 357.3 348.6 341.1 334.6 330.2 325.2 323.1 323.7 325 323 325.9 324.7 326 331.1 335.6 337.8 338.6 341.8 342.3 343.4 343 344.1 344.2 343.7 343.7 342.8 343 343 339.5 335.9 332.8 330.3 329.6 327.4 323.4 322.4 323 316.8 315.4 313.5 311.1 307.6 306.5 303.9 298.5 294 290.8 288.7 286.4 281.8 278.1 276.3 273.6 271.1 268.9 268.6 266.1 261.6 258.5 255.7 250.4 255 255.9 256.7 257 260.4 261.7 262.9 263.8 264.3 264.4 263.4 263.4 261.7 261.4 262 260.7 260.7 261.8 260.6 260.1 260.1 260.7 260.6 261.1 261.3 260.8 259.3 257.8 255.8 255.7 254.7 255.1 255.3 254.1 252.4 250.7 249.4 249.1 247.3 243.8 242.5 241.4 235.4 232.8 230.2 228.2 227.9 226.4 222.3 221.9 219.5 214.2 213.7
419 432.4 447.9 470.9 498.7 522.2 540.9 560.4 575.8 587.8 594.5 597.4 602.5 601.1 603.1 609.1 609.6 610.3 606.5 598.9 589.5 576.1 557.3 540.2 507.5 477.2 447.4 420 394.6 362.7 332.5 308.5 297.6 285.5 274.4 264.2 255.3 250.3 252.8 254.5 250.5 239.1 239.1 239.1 239.1 243.5 249.2 255.6 263.3 267.9 270.1 270.9 277.4 280.7 283.8 287 288.3 289.7 291.1 293.3 296.3 298.4 300.6 304.3 307.2 312.2 316.8 321.3 326.8 328.8 331.4 332.4 334.1 338.2 342 347.2 351.2 358 362.8 371.2 374.7 377.2 375.6 379.2 377.8 369.4 360.2 352.9 340 331.1 327.5 322.1 317.8 315.9 315.4 314.7 316.5 319.1 322.4 326.1 330.7 333.7 334.1 334.6 337.7 339.3 340.6 340.1 339.2 336.9 337.1 336.4 334.4 333.4 330.7 328.8 326.9 325.8 324.5 322.2 320.3 318.3 314.6 311.6 308.2 307 305.2 303.5 299.5 298.5 294.3 288.6 285.1 283.4 281.4 277.4 274.9 275.3 271.5 267.2 267.3 265.8 261.5 259.6 256.4 254 248 252.7 252.6 251.8 253.9 256.8 258.8 260.2 260.4 259.8 260.4 260 256.9 257.1 256.5 256.7 258 257.3 257.3 256 256.3 256.7 256.1 256.2 256.4 256.8 256.4 255.2 253 251.3 250.5 250.9 250.8 251.9 250.9 250.3 247.3 246.5 246.6 245.4 242 240.1 237.9 234.2 231.2 229.3 227.4 227.5 226.8 220.6 219.4 218.5 215.3 214.3
412.9 426.9 439 460.7 489.6 516.2 539.1 560.7 576 590.5 601.5 611.1 618.3 621.5 624.9 622.5 619.5 619.1 618.3 616.6 602.3 573.7 547.9 520.8 490.3 460.6 428.3 403.1 377.2 346.4 315.7 290.3 282.5 278.1 271.3 263.6 255 239.1 239.1 249.7 250.8 239.1 239.1 239.1 239.1 249.3 253.3 261.5 270.5 272.2 274.6 278.4 283.2 285.1 288.5 290.3 291.6 293.6 296.3 298.7 301.7 303.1 305.5 308.6 312.5 317.7 321.4 328.1 333.8 335.2 336.3 338.3 338.9 345.4 349 350.2 360.8 367.6 379.7 386.8 387.9 388.2 389.5 395.5 388.3 381 368.4 361.2 344.9 333.7 325.8 320.1 315.5 313.1 310.1 310.1 310.7 316.3 318.7 325.8 328.8 330.2 331.6 330.9 331.1 334 334.3 334.3 333.3 330.8 331 329.3 327.1 326.6 324.6 322.5 320.1 315.8 315.9 315.4 313.5 309.6 308.5 307.1 302.4 300.9 298.7 295.9 293.2 290.8 288.4 282.6 279.7 277.2 275.9 273.2 270.6 268 267.5 263.4 259.7 259.7 256 256.2 253.7 251.9 247.4 248.4 250.2 246.9 247.3 250.4 253.6 255.9 255.9 255.7 254.8 253.2 252.9 254 252.9 253.3 254.6 254.6 252.9 252.2 252.1 253 252.2 251.6 251.5 252.1 251.8 251.6 249.5 248.9 247.1 246.9 247.5 247.8 247.6 246.1 242.9 243 244.1 241.9 238.7 236.3 233.2 231 229.4 227.6 226 225.9 223.2 220.2 218.2 216.6 215.5 213.8
407.3 420.2 431.7 450.9 479.6 507.5 533.5 555.3 572.1 587 599.9 610.3 619.6 622.6 627.3 626.9 623.8 620.2 618.2 599.5 570 556.8 530.5 503.5 469.1 440.1 410 382.2 359 333.6 306.5 286 277.7 270.8 265.3 257.7 251.8 239.1 239.1 239.1 249 246.9 239.1 239.1 248.3 254.3 260.8 268.1 273.8 277.7 280.4 285.9 288.9 291.5 293.8 295 296.9 299.4 302.9 304.4 306.1 308.3 311.2 314.2 318 324.2 329.7 336.5 339.8 341.2 343.9 344.9 345.8 348.9 355.9 360 371.4 382.4 392.9 400.3 400.1 403.6 410.2 410.2 402.2 391.2 382.8 367.3 352 335.1 326.3 317.5 313.8 309.9 308.8 308 312.2 312.8 313.6 319.5 323.9 325.1 325.5 327 328.8 329.2 329.1 327.9 327.4 324.1 324.3 323.9 320.6 319.6 318.9 317 312.6 309.8 311.8 309.5 308.3 305 303.4 300.7 296 293.1 290.9 289.1 287.1 285 281.4 278.3 275.7 273.5 271.6 268.7 265.2 262.9 261.4 258.5 254.5 254.6 252.4 250.6 252 249.2 247.4 243.3 247.5 245.2 243.6 244.1 247.5 250 251.9 251.6 249 247.1 246.9 247.5 247.3 248.6 249.3 249.8 250.2 248.3 247.7 247.2 247.3 248.3 248 248.1 248.3 248.8 247.9 245.6 244.4 244.6 244 242.9 243 241.5 238.7 238.9 240.4 237 234.9 233 230.7 228.6 227.3 226 224.3 223.3 222.1 219.7 217.8 215.2 214.1 212.1
402.9 413.1 424.8 440.3 466.4 494.5 522.3 547.7 565 579.1 593.1 603.7 611.6 617.2 621.5 623.4 625.5 621.8 606.9 565 529.1 513.9 504.1 481 449.1 417 389.6 364.1 345.2 323.3 301.9 276.1 269.4 262.3 255.1 251.8 239.1 239.1 239.1 239.1 239.1 239.1 240.4 246.6 252.2 258.1 265.9 274.7 280.5 284.1 287.8 291.6 295 296.6 298.1 301.7 304.8 306 309.3 310.5 313.2 314.7 318.5 323.3 326 329.6 337.3 345.7 347.3 350 353.2 355 356.7 360.3 359.5 371.6 379.7 394.5 406 412.2 417.6 422.6 427.4 425.8 419.2 409.4 397.9 377.9 362 340.2 326.9 317.8 310.5 307.3 304.7 305.7 310.2 311.5 311.3 316 317.3 318.4 321.1 322.1 321.9 322.4 321.5 323.9 321.6 317.5 317.9 317.3 314.4 313.6 312.7 311.6 308.3 305.5 303.2 301.1 299.7 297.4 295.2 295.1 293.3 291.4 286.7 285.4 284.4 280.5 279.2 274.4 271.1 270.1 268.8 264.1 260.4 259 257.2 254.7 254.5 250.8 250.1 247.1 246.3 247.9 243.8 238.7 241.8 242.7 242 243.3 243.1 245.1 246.4 245.6 244.9 243.5 243.7 244.6 242.7 240.5 243.9 244.5 244.6 245 244.2 243.4 243.6 245.1 243.6 242.1 243.5 244.8 243.9 241.7 240.4 240.2 240.3 237.4 237.3 235.7 234.4 234.8 235.2 231.3 231.4 228.9 227.2 225.9 224.4 223.5 221.9 220.5 218.7 217.1 215.1 213.8 212.1 208.5
395.7 406.9 416.8 430.7 456.2 481.8 509.2 534.7 554.1 567.2 580 592.4 598.8 605.7 613 616.7 619.6 618.1 597.7 558.8 516.6 491.2 476.5 454.5 427.1 396.2 366.3 343.5 323.4 301.6 284.1 270.7 258.5 247.5 239.1 239.1 239.1 239.1 239.1 239.1 241 247.9 248.9 249.9 258.3 265.9 273.6 282.1 287.6 291.4 295.3 297 299 302.9 305.2 309.2 311.1 313.1 314.7 316.4 319.2 323.1 326.7 330.9 332.8 338.6 350.2 357.7 357.6 360.7 363.1 364.5 367 372.8 372.2 385 393.3 407.1 419.1 424.9 433.3 441.7 446 446.3 438.8 435.5 415.8 388.3 369.3 348.1 325.2 312.5 299.7 299.7 299.7 300.7 303.3 307.1 310.6 314.6 312.6 313.7 315.6 318.7 316 316.7 315.8 318.3 316.3 311.9 311.8 311.4 308.3 308.1 307.5 306.7 304.1 302.3 297.1 296.1 294.8 293.3 293 291 289.7 287.8 286 282.7 278.3 274.6 274 271.5 266.7 266.7 264.2 260.3 257.3 257.1 254.7 254.5 250 248.4 245.6 243.5 242.2 241.6 240.8 239.1 235.1 241.1 238.4 238.1 239.2 240.7 241.6 240.3 241.8 240.3 237.9 240 241 239 237.6 237.2 239.2 240.4 240.4 240.1 239.1 240 240.6 239.4 238 239.4 238.8 237.6 236.7 235.2 234.9 231.7 233.6 230.3 231 230.5 227.3 226.6 226.4 223.4 222.8 220.9 221.2 220.9 217.6 215.8 214.5 214.4 212.5 210.2 208 206.8
388.4 397.6 409.8 423.7 445.8 472.3 496.2 518.6 538.5 551.2 563.3 575.6 584.4 591.9 598.6 604.4 608.7 608.3 578.9 543.3 516.9 484.2 463.7 437.1 416.2 385.1 349.4 325.3 306.2 295.8 274.1 274.4 256 250.6 239.1 244.4 239.1 239.1 239.1 246.9 249.8 252.2 252.1 257.9 266.3 273.8 280.7 287.6 293 297.2 299 302.2 305.9 310.8 313.3 317.2 319.4 320 322 323.2 325.9 331.2 336.5 341 344.5 348.6 363.4 368.5 369.5 370.3 372.1 373.8 380.8 383.6 385.5 390.5 408.5 420.3 429.4 439 447.7 455.8 460 459.4 452.7 449 423.2 399.2 374.3 354.6 327.5 304.8 299.7 299.7 299.7 299.7 299.7 301.2 304.8 309.5 313.8 313.1 316.5 312 308.2 309.2 307.6 309.2 308.2 303 300.5 298.5 301.5 299.7 298.9 298.3 301.1 298.7 295 291.5 291.8 290.3 289.8 288.9 289.5 287.5 283.3 281.4 275.4 271.7 270.1 268.2 264.5 259.3 260.4 259.6 256.2 256.8 252.2 249.5 247.1 243.3 241 242 239.7 238.4 236.9 237.7 236.6 230.9 235.2 234.5 234.6 236.5 237.2 235.6 234.9 234.4 235.1 234.4 234.1 234.8 234.7 235.8 233.4 234.7 235 235.8 234.5 234.1 234.9 234.7 234.6 232.8 233.2 231.4 231.8 231.4 228.9 225.2 225.2 224.3 224.7 223.2 219.3 221.4 220.7 217.7 217.8 217.1 216.6 217.9 213.3 211.5 210.3 209 208.1 204.7 203 202.8
380.2 389.2 400.2 415.5 435.3 457.5 480.4 499 516.4 529.9 542.6 554.1 565.7 575.5 583.5 590.6 595.1 594.5 561.2 527.8 499.7 468.9 444.4 420.7 401.5 380.1 339.3 306.5 291.3 282.1 270.6 263.5 249.6 239.1 239.1 239.1 239.1 239.1 239.1 248.8 249.6 253.1 256.4 264.7 273 280.6 286.6 291.8 297.3 301.4 305.9 308.9 313.2 318.9 320.2 324.4 326.9 327.8 330.3 332.2 336 339.9 347 352.5 355.9 363 377.4 380.3 379.7 381.2 380.7 385.5 392.4 397.9 400.7 410.8 422.8 428.7 439.3 449.5 458.3 466.8 472 472.3 462.4 453.4 429 403.8 383.7 360.4 329.1 303 299.7 299.7 299.7 299.7 299.7 299.7 299.7 302.8 308.6 310.5 307.6 305.6 304.3 305.2 304.6 300.2 299.3 297.8 294.4 294.8 293.6 293.4 296.9 297.4 294.9 293.6 291 292.4 288.1 288.6 288.6 284.7 283.1 280.7 277.4 273.4 271.2 269.1 267.6 265.2 262.3 258.1 256.1 254 251.1 252.5 248.4 243.8 243.7 241.1 237.6 239 239 235 236.8 234.5 235.4 230.6 234.3 233.6 231.8 234.2 234.4 232.5 231.6 230.8 227.6 227.3 227 231.3 231.5 233.4 230.5 229.8 228.8 229.7 229.8 228.8 228.9 229.8 228.8 227.2 227.9 226.3 225.3 224.8 222.9 218.3 219.6 221.1 220.2 216 212.5 215.9 214.4 214.7 213.2 211.5 212.1 210.8 209.8 206.3 205.1 203.4 202 198.2 196.3 195
374 382.8 392.7 406 423.5 441.2 461.7 482.4 494.1 506.4 517.2 529.5 543.4 555 563.9 571.6 577.8 574.7 539.7 508.4 475 444.3 415.2 395.9 380.1 360.2 324 295.1 281.6 271.1 263.4 251.9 239.1 239.1 239.1 239.1 245.5 245.1 247.4 251 254.5 254.8 259.4 271.7 281.2 285.3 291.6 298.5 302.7 306.3 311.3 315.1 320.9 325.5 327 330.9 333.7 336.9 340.4 344 350.5 354.8 361.6 365.3 374.2 380.8 391.3 395.4 393.1 394.9 392.4 402.1 407.4 413.9 419.9 428.6 433.9 438.1 446.9 459 467.5 472.8 481.5 488 485.3 463 436.5 408.2 383.2 354.5 327.2 304.7 299.7 299.7 299.7 299.7 299.7 299.7 299.7 300.8 305 304.7 302 299.9 299.8 303.2 300.4 297.6 296.9 294.5 291.7 290.5 291.3 292.6 291.1 289.2 289.4 285.7 282.6 281.8 283.9 285.6 286.2 286.7 280.8 276.4 274.1 271.7 269.5 265.6 262.6 261.2 259.6 256 252.5 251.2 248.5 244.3 243.9 243.8 237.7 236.6 236.5 234.1 231.9 229.9 228.3 225.8 227.3 225.3 228.7 229.8 225.7 229.2 229.4 230.5 229.3 228.3 228.1 226.1 224.4 226 224.2 226.4 224.5 224.6 223.5 224.2 223.5 223.8 224 223.5 222.1 222.6 221.8 219.4 220.4 219.9 217.2 214.1 213.5 217.1 215.8 212.4 208.5 208.3 206.1 207.1 206.5 205.4 206.9 202.3 202.6 202.1 200.8 198.5 194.1 193.2 190.8 187.8
367.4 375.8 385.1 396 410.1 424.7 442.5 460.8 471.9 480.8 493.3 506 517.9 530.7 541.4 547.8 552.2 550.2 526.9 479.6 450.4 421.8 391.7 364.1 345 328.3 303.9 285.6 271.3 256 251.9 239.1 239.1 239.1 239.1 239.1 239.1 250.1 251.2 256.8 257.7 263.3 272.8 275.6 283.2 290.4 297.3 304.6 308 311 317.3 323.3 328.6 331.6 333.7 338 342.9 348 357.9 365.9 369.9 369.3 371.2 378.7 391.4 394 406.2 408.7 412.6 412.7 418 417.1 426.4 431 438.1 445.4 446.7 451 459.3 470.8 479.7 483.4 490.9 497.9 491.6 468.2 444.2 419 380.9 349.1 325.2 301.4 299.7 299.7 299.7 299.7 299.7 299.7 299.7 299.7 302.6 303.6 302.1 299.7 299.8 302.5 299.1 299.4 295.9 293 290.9 288.8 288.2 289.4 290 287.4 284.2 282.2 279.1 277 282.4 281.2 280.7 279.2 276.8 273.6 270.4 268.8 267.7 263.7 259.6 258.2 256.9 253.8 248.7 247.5 248.9 242.8 242 237.6 237.6 236 232.9 230.9 230.1 230.6 229.8 224 223 223.3 222.9 222 222.5 221.3 222.8 225.6 223.6 222.2 222.8 224.9 223 221.2 222.3 218.6 219.5 219.2 218.9 218.7 219.6 219.4 218.5 216.8 216.9 215.8 215.8 215.1 214.4 213.7 211.4 208.1 206.6 206.6 205.8 204.1 200.6 199.5 197.8 198.6 199.5 199.5 200.9 198.1 197.3 196.7 195.6 193.6 188.5 188.6 184.4 180.5
361.7 368.1 376 386.4 399.1 411.9 424.8 438.7 449.5 458.6 469.7 481.1 494 504.9 513.5 519 522.2 520.6 506.7 462.2 426.6 397.3 368.3 341.8 320.2 304.8 289.8 272.3 260.7 249.2 239.1 239.1 239.1 239.1 239.1 239.1 239.1 247.8 254.3 255.8 259.2 266.7 269.4 282.1 291.5 296 303.4 310.1 313.9 318.7 323.4 328.7 334.4 339.3 342.5 348.4 358.2 369 380 383.2 386.7 383.6 381.9 399.9 403.7 416.3 421.9 429.6 431 437.2 440.1 446.2 444.2 447.6 454.5 458.6 462 467.4 475.7 490 495.7 496.1 501.5 501.1 496.6 471.6 440.6 416.6 377.8 344.2 321.1 299.7 299.7 299.7 299.7 299.7 299.7 299.7 299.7 299.7 299.7 299.7 299.7 299.7 299.7 299.7 300.7 301.1 299.2 294.4 293 286.9 287.3 287.8 288.9 284.5 282.2 282.5 278 274 276.3 276.5 275.3 273.8 273.5 270.5 267.7 265.4 263.7 260.7 258.5 254.2 253.6 251.7 246 242.2 242.3 242.8 238.9 241.5 235.4 232.4 232.9 228.3 224.1 223.6 224.6 223.2 221.9 222 221.9 221.1 220.3 219.5 217.7 218.7 218.2 217.9 217.4 218.3 218.4 216.1 217.7 215.9 218.4 216 215.5 215.8 215.7 215.3 214.8 212.6 211 209.3 207.8 208.5 208.4 207.6 206.3 204.1 202.8 201.5 200.2 198.5 196 194.8 191.9 192.7 192.5 194.4 194.5 191.8 188.3 188.6 190.2 189.1 184.4 184.1 178.6 172.5
355.4 361.3 368.2 378.7 388.8 399.6 408.6 420.5 429.7 440.3 449.4 459.1 469.8 478.7 485.4 489.8 491.2 484.7 464.2 434.6 405.8 376.5 350.8 328.1 304.3 290.2 278.8 264.4 251.4 239.1 239.1 239.1 239.1 239.1 239.1 239.1 239.8 251.2 259.2 262.4 267.6 275.5 281.5 285 296.9 303.4 311.4 314.9 318.5 323.7 329.1 334.6 340.2 346.3 353.2 363.9 377.4 387.4 399.2 400 400.2 399.3 407 415.2 423 435 441.1 448.3 452.7 458.5 461.3 461.6 463 465.5 468.7 475.1 485.4 488 494.2 510.4 511.8 509.7 509.7 508.2 499.5 473 441.9 412.4 375.8 338 317.3 299.7 299.7 299.7 299.7 299.7 299.7 299.7 299.7 299.7 299.7 299.7 299.7 299.7 299.7 299.7 301.3 300.5 299.5 297.3 289 287.5 288.6 289 285.9 284 279.8 279.6 277.3 271.4 269.9 270.9 272.3 270.9 270.3 267.8 265.5 263.3 262 259.1 255.9 251.9 250 246.6 244 240 238.2 237.5 234.6 231.9 230.3 229.1 228 224.6 224.3 222.3 218.3 220 221.3 220.9 219.7 220.8 220.5 220 218.6 215.7 216.6 214.3 214.1 214.7 214.8 214.1 216 214.8 217.4 215 211.7 211.7 212.1 212 210.8 208.2 207.4 206.7 204.2 204.5 205.2 204.1 203.3 200.7 198 197.2 196.2 191.5 191.6 191.1 187.4 184.7 184.1 184.3 186.2 182.5 180.9 181 182.7 182.4 182 178.1 175 166.8
350 352.9 363 369.1 375.3 384.3 394.8 403.9 411.9 420.4 428.9 436.9 446.2 453.1 459.2 460.9 455.8 446.9 429.4 406.8 380.4 353.3 332.2 313.7 293.3 283.7 267.3 254.9 239.1 239.1 239.1 239.1 239.1 239.1 239.1 247.1 239.1 252.8 261.1 265.7 273.7 282.9 289.3 293.5 302.3 310.1 316.8 320.2 324.8 329.4 334.3 338.6 347.5 354.7 365.9 381.8 395.3 408.5 412.8 416.4 418.7 421.6 426.8 430.5 444.4 453.6 460.8 469.2 475.4 479.2 478.4 478.6 482 483.7 491.4 500.1 503.5 508.1 516.1 529.2 532.8 532.6 524.6 524.4 521.2 479.2 449.6 416.4 376.9 338.3 312.9 299.7 299.7 299.7 299.7 299.7 299.7 299.7 299.7 299.7 299.7 299.7 299.7 299.7 299.7 299.7 304.1 300.7 300.9 299.8 290.5 284.5 283.4 284.2 281.9 279.7 276.7 274.6 273.6 271.6 269.8 267.6 269.3 266.5 267.1 266.9 263 261.6 259.1 256.2 252.2 249.4 246.3 245.1 242.2 238.4 236.2 237.9 238.4 233.3 231 228.9 228.4 227.5 226.1 220.4 218.3 218.2 221.3 221.3 218.9 219 217.7 218.6 219.4 218.6 214.4 213.1 213 214 216 214.6 213.3 211.5 211.1 211.1 212.7 209.6 209.7 208.5 206.9 204.7 202.4 205.6 204.3 198.7 201.9 201.2 200.4 199.2 197 196.1 194.2 190.7 186.2 185.5 182.2 179.6 179.2 177.6 182.1 181.7 177.7 175.3 174.6 172.7 171.6 168.6 165.2 161.8
343.7 344.8 355.9 361 366.2 371.5 379.3 386.3 394.1 401.6 409.4 418.1 424.2 428.7 433.4 433.5 422.8 410.5 396.4 375.9 351.9 330.3 313 297.1 280.5 267.6 257.4 240.7 239.1 239.1 239.1 239.1 239.1 239.1 239.1 248.1 250.6 254 262.8 271.7 279.6 288.3 295.1 301.7 309.1 316.9 320.9 326 331.2 336.3 340.9 348.5 355.1 365 381.6 397.5 411.4 421.6 425.7 431.5 436.7 438.4 445.4 452.7 461.1 468.4 478.6 486.2 492.9 497.1 498.7 499.4 506.5 511 511.9 519.5 529.6 541 542.6 554.8 560.5 558 547.8 543.6 522.6 486.1 446.1 419 378 331.8 305.9 299.7 299.7 299.7 299.7 299.7 299.7 299.7 299.7 299.7 299.7 299.7 299.7 299.7 299.7 300.2 303.7 303 301 297.2 290.9 282.2 278.3 277.5 275.5 274.1 273 272.5 272.1 270.2 269.6 266.7 264.6 260.6 259 258.7 257.8 255.5 253 251.2 249 247.8 245.7 243.7 240.9 238.2 235.6 232.2 239.1 240 235.9 232.1 229 225.7 221.1 218.9 217.8 216.6 219.2 218.1 217.9 217.7 217 214.8 216.3 217.6 215.8 215.1 213.2 211.3 211.7 212.5 215.3 216 212.2 210.2 208.8 208 207.7 206.4 204.3 204 203.5 199.8 199.6 200.1 196.1 195.2 194.5 195.2 194.6 193.7 191.2 186.3 182.1 179.4 178.9 177.5 176 170.7 174.2 177.8 172.9 171 170.8 170.5 168.6 167.3 163.3 157.8
334.4 337.8 345.4 351.8 357.3 361.3 367.6 370 377.1 379.9 386.1 394.9 401.7 407.6 410.1 406.9 397.1 382.8 366.8 349 331.1 317.1 295.2 281.5 267.7 262.6 253.4 239.1 239.1 239.1 239.1 239.1 243.8 242.6 245.2 251.4 259.6 263.2 264.6 274.8 285.3 293.9 302.8 306.5 314.9 319.6 324.8 332 336.5 342.5 349.6 355 363.5 378.2 396 410.5 423.8 432.8 437.9 444.3 448 453.7 462.5 470.3 480 485.6 497.8 503.1 513 515.9 521.5 526.4 528.6 534.3 549 556.4 561.6 565.8 571.8 581.8 583.2 579.8 569.6 547.3 522.8 474.4 437.3 409.4 369.6 333.5 307.7 299.7 299.7 299.7 299.7 299.7 299.7 299.7 299.7 299.7 299.7 299.7 299.7 306.5 308.3 304.8 297.7 299.8 300 295.4 289.1 278.6 276.1 276.8 276.2 274.9 272.9 272.3 271.4 270 268.6 264.6 261.8 261.4 257.7 253.6 253.5 251.3 250 248.6 246.9 245.3 243.8 242.3 239.6 237.2 235.8 231.8 233.6 234.2 230.4 225.3 222.6 220.5 219 217.9 216.6 215.9 216.4 216.5 216.3 216.1 215.3 213.8 213.7 214 214.4 214 211.9 213.1 210.6 209.7 212.3 215.5 213.4 211.2 207.9 207.1 206.6 205.3 202 203.7 199.9 198.8 194.7 199.4 201.1 196.9 191.6 191.3 192.7 192.8 184.9 180.6 177.8 177.5 176.6 174.9 173.3 174.7 170.1 170.2 172.3 169.1 171.6 170.4 165.6 163.7 164.4 157.2
323.1 326.1 334.4 339.8 346.5 350.6 352.9 357.6 360.3 362.1 367.5 373.9 377.6 383.2 385.4 380.2 369.3 353.8 339.7 326 313.3 299 283 270 258.4 254.3 243.6 239.1 239.1 239.1 239.1 239.1 239.1 245.1 249 253.9 264.5 266.3 269.8 280.2 288.8 299.1 307 312.7 317.2 323 331.1 336.9 343.1 351.1 356 361.9 373.6 390.2 407.6 423.3 436.8 445.3 450.4 455.6 459.1 470.2 478.3 484.2 494.6 505.1 512.3 522.3 528.2 535.6 541.3 546.1 553.5 568.1 575.4 587.9 594.6 597.1 601.9 609.3 610.2 605.4 589.6 563.2 524.6 464 433.1 404 372.7 345.9 315.1 299.7 299.7 299.7 299.7 299.7 299.7 299.7 299.7 299.7 299.7 303.8 306.5 315.4 311 299.4 296.5 296.6 295.1 292.4 285.3 278.4 279.6 279.3 278.3 275.2 273.4 271.8 270.5 266.8 265.9 263.8 258.7 255.4 253.4 249.6 248.9 248.4 247.4 246 245.4 244.1 242.3 240.4 238 235.4 234.3 231.7 228.6 228.7 226.4 223.5 221 218.7 217.7 217.6 216.8 216.4 214.8 216.1 213.4 213.2 213.1 212.3 212.6 214.3 215.2 213.3 212.1 215.8 212.9 210.8 208.2 208.2 206.5 211.5 208.3 207 207.7 206.1 199.6 196.1 194.4 196.3 193 193.7 194.2 187.5 186.7 185.5 187.8 183.6 181 179.2 180.7 179.1 179.6 179.6 178 173.6 166.2 167.1 167 168 168.9 168.6 165.3 163.8 160 156.2
313.2 315.1 321.5 328.5 329.8 337.4 337.3 340.9 342.9 346 348.7 353.5 356 355.2 352.3 347.1 340.9 330.8 320 304.4 295.5 280.9 269.5 256.3 254.9 251.6 248.2 239.1 239.1 239.1 239.1 239.1 239.1 246.3 253.8 257 269.6 271.2 273.3 287 293.2 304.7 315.1 319.6 324.4 331 338.4 343.9 351 357.3 363.8 371.6 387.9 406.1 419.2 434.7 449.3 457.2 464.3 470.6 474.8 484.3 492.2 501.3 509.6 518.9 527.2 536.7 547 557.3 560.7 569.5 584.2 596.5 608.2 619.4 625.9 631.6 631.3 639.4 634.7 625.9 609.3 554.8 513.9 482 443.5 405.6 382.8 356.5 331.5 309.7 299.7 299.7 299.7 299.7 299.7 299.7 299.7 299.7 299.7 304.3 303.7 313.5 307.5 298.3 299.7 297.8 296.3 293.3 285.1 280.2 278.7 278.8 276.4 275 273.2 272.4 269.5 266.8 263.5 262.4 258.9 254.8 250.2 246.8 244.7 244.2 244.5 243.4 243.7 242.6 241.4 239.3 238.4 235.3 232.7 230.8 227.5 225.4 224 221 219.2 224.8 223.7 223.3 219.1 217.3 216.3 216.8 216.5 215 213.8 213 212 211 214.4 213.7 212.9 214 212.6 210.3 207.1 205 205.1 212.5 213.2 211.5 206 200.7 197.3 194.8 193.4 192.6 191.4 190.3 188.9 188.1 191 190.7 191.2 186.8 185.1 184.2 183.2 182.4 181.8 180.9 177.9 172.1 165.6 166.1 165.9 165.3 165.4 165.8 164.6 163.5 161.6 160.6
291.7 295.8 307.8 314.9 316.3 321.6 324.4 321 324.6 323.9 322.5 325.9 326.3 326.2 323.9 318.6 315.3 308.7 301 292.8 280.7 273 260.2 255.7 253.3 251.9 239.1 239.1 239.1 239.1 239.1 246.6 243.3 249.1 258.9 268 268.6 277.3 279.8 292.5 299.3 313 318.3 327.3 334.3 338.6 344.6 352.8 360.8 368.5 377.2 377.9 405.3 420.3 434.6 450.1 463.5 470.8 480.2 485.6 491.8 496.9 506.2 515.6 525.5 532.3 543.4 555.5 564.3 572.5 583 599 616.3 628.6 638.7 651.7 659.4 660.9 661 661.7 652 636.9 614.9 562.6 517.8 485.1 457.4 423 390 356.1 331.5 316.6 306.7 299.7 299.7 299.7 299.7 299.7 299.7 300.7 302.1 306.4 314.4 316.1 306.8 300.9 297.2 296.4 294.8 292.6 286.3 283.3 280 278.3 276.4 275.8 275.6 273.5 269.5 265.9 262.4 259.6 258.6 256.3 251.8 247.3 244.1 241.8 242.3 242.5 242.3 242.3 241.9 240.1 238.3 235.2 233.7 230.8 224.9 224.3 222.8 224.2 227.1 228.6 225.6 223.9 220.8 219.4 218.2 219 217.7 215.4 214.2 213.4 212.6 212 211.4 215.2 213.5 213.8 210.5 208.6 210 210.1 206.1 202.3 207.8 208.7 203 199.3 195.9 194.5 192.8 192 192 190.1 189.5 189.6 190.7 191.9 190.3 188.6 186.9 185.5 184.5 184 183.4 182.5 178.1 171.3 167.4 164.9 164.9 164.1 163.2 162.9 160.5 163.4 164.9 161.1
279.8 283.1 289.4 294.3 299.1 299.3 302.5 306.6 304.9 302.2 298.4 301.6 302.4 302.4 299.3 296.8 298.1 286 282.3 277 269.8 264.1 257.5 254.2 249.1 250 243.8 239.1 239.1 239.1 250.3 250.6 250.3 255 265.8 268.8 271.6 283.4 285.3 298.6 307.6 315.2 327.4 335.7 342.7 346.8 353.8 365 375.3 389.3 391.9 406.8 412.7 435.8 456.3 465.5 479.2 486.7 498.6 501.5 501.6 516.7 521.4 531 540.7 546.2 560.4 571.5 581.3 594 609.8 627.3 643.6 656.7 670 681.5 686.9 689.8 684.5 672.6 658.9 639.4 602.3 570.1 531.2 496 462.5 437.7 415 366.8 340.7 325 311.4 303.2 299.7 299.7 299.7 299.7 299.7 300.3 307.9 314.1 321.1 315.4 307.1 303.8 302.8 298.5 294.3 293.4 289.1 286.6 284.5 282.9 280.1 280.3 278.9 276.5 271.3 264 261.8 258.3 257 255.3 251 248.1 245.6 242.4 239.5 240.6 241.7 242.4 241.7 240.2 238.9 237.2 234.3 232 229.2 228.2 226.6 227 227.4 226.6 223.8 222.1 221.7 221.5 221 219.5 217.1 214.9 212.7 213.7 213.4 213.2 211.7 213.4 213.7 211.7 209.8 212.7 215 208.5 206.8 205.6 203.6 198.2 196.5 195.7 194 194 192.5 193.8 192.3 191.1 191.8 192.7 194.4 194.1 191.9 190.4 188.8 186.6 187.4 186.1 186.9 184 178 175.6 170.6 169.1 167.8 163.4 163 167.7 165 159.5 159.1 157.5
272.7 274.5 277 278.3 281 282.2 281.6 282.7 280.9 282.9 279.5 278.9 277.8 280.3 281.1 281 279.2 274.2 270 263.2 255.6 250.8 251.4 250.9 239.1 239.1 239.1 239.1 247.4 251.8 257.6 256.9 254.4 263.1 265.8 268.8 274.1 284.4 291.6 302.8 315.4 322.4 331.6 343 350.7 357.3 367.8 384.7 397.8 407.2 410.2 428.9 436.4 450.2 469.5 478.2 494.5 511.4 518.4 508 522.6 533.9 539.8 550 557.2 565.7 578.8 588.4 602.8 619.1 638.5 655.1 668.7 683 698.7 709.5 712.4 710.2 705.1 694.7 672.1 640.8 614.7 583.5 549 515.6 485.4 461.7 423.7 383.4 348.3 329 316.1 309.1 308.9 305 304.8 302.5 303.5 304.2 309.2 322.5 315.1 311.9 304.6 303.7 301.2 299.7 299.3 299.1 296.9 295.5 296.2 292.5 289.4 285.5 280.9 279 273.5 266.3 260.9 258.6 256 256.1 251.9 249 246.9 242.8 240.2 240.2 240.8 241.6 241.7 240.5 238.6 235.2 234.6 235 232.2 231 229.2 228.5 228 226.1 224.6 222.5 220 220.2 219.3 218.6 216.6 215 214.3 214.6 213.3 214.3 213.8 211.2 211.3 215 214.6 212.4 210.8 211 209.5 208.5 207.6 205.3 201.3 199 203.1 197.5 198.1 199.4 194.9 195.7 195.4 196.3 199.6 198.1 196.1 192.6 189.3 190.4 190.5 190.6 188.8 183.5 179.1 175.7 173.4 173 169.9 169 167.3 165.3 164.9 161.5 157.7 157.9
268.1 271.1 271.2 272.5 271.4 271.9 269 267.5 266.7 263.5 261.3 259.1 259.9 259.8 259.4 258.3 259.9 258.6 257.4 253.3 251.2 245.9 248.4 239.1 239.1 239.1 239.1 249.7 253 257.6 259.5 259.4 255.7 258.7 267.2 272.8 275.5 293.5 295.4 308.5 319.6 329.6 339.7 350.7 361.3 369.7 382.4 406.3 418.2 425.9 431.5 449.9 450.2 464.1 479.9 492 509.8 521.6 521.9 528.5 538.1 547.8 556.7 562.7 568.5 582.1 594.2 606.8 624 644 663.3 681.4 695.2 710.5 722.4 730.8 729.2 726.7 725.2 706 680.6 642.1 612.3 584.6 560.5 519.4 498.4 478.3 434.2 385.7 356.3 335.2 328.6 321 318.1 313.9 312.9 317.8 308.2 307.8 309.9 319.1 311.3 309.9 310.2 309.5 305.3 312.4 310.4 309.5 307.9 306.9 307.2 309.1 302.7 296.6 290 283 275.5 268.5 262.1 257.8 257.1 256 252.8 249.3 246.9 245.1 242.4 239.8 239.6 241 240.5 238.2 237.6 238.6 238.2 236.7 235.8 233.4 230.8 231.6 230.8 230.6 226.2 223.2 220.9 219.1 217.9 216.5 216.3 214.3 214.4 214.9 214.7 215 213.1 213.1 212.7 215.6 215.2 212.7 211.7 212.7 211.1 210.1 209.8 208.8 202.6 204 204 204.4 199.6 201.1 200.1 200.7 206.1 202.2 202.7 201.1 200 195.9 195 193.6 193.7 196.1 192.1 187.4 181.7 180.5 176.7 177.7 175.1 176.5 173.8 166.1 167 163.6 159.9 158.5
264.2 268.2 268.4 267.8 267.6 266.2 263.5 261.8 257.3 255.5 253.7 250.7 251.9 251.7 252.6 253.2 251 248.5 246.8 241.3 247.9 241.3 248.8 249.4 239.1 247.5 249.6 252.4 255.5 256.8 258.2 262.6 267 264.9 273.9 282.1 284.2 298.6 302.6 314.1 319 334.9 348.2 360.8 372 385.3 403.5 421.3 437.5 436.9 450.2 466.4 471.2 478.9 488.6 504.2 521.1 531.3 533 540.6 550.9 559.8 567.9 572.9 582.7 595.7 609.8 628.6 647.9 670.4 689.7 705.8 720.2 733.5 743.9 748.3 736.2 738.2 726.1 708.1 684.2 647.9 614.3 589.2 558 537.5 511.2 487.9 429.6 395.3 372.8 353.8 345.4 333.9 327.7 325.7 327.9 328 313.9 317.2 318.3 316.6 316.3 316.7 318.1 318.1 320.6 323 327.6 327.6 327.8 326.5 330.4 329 324.6 307.8 303 290.4 279.3 270.5 264 258.4 256.4 255.4 253.1 248.9 247.3 245.4 245.4 243.1 240.8 238.1 238.7 239.9 239.7 240.1 239.1 238.1 237.6 236.3 233.8 233 232.9 231.9 226.5 223.8 221.2 218.4 216.5 217.1 215.2 217.5 215.3 215.3 215.9 216.5 215.3 214.1 213.9 215.8 215.5 217.6 216.5 214.1 214.5 213 211.8 209.7 208 210.4 209.3 209.2 207.1 205.8 208.7 208.3 208.4 210.8 209.9 209.1 204.9 201.1 201.2 201.2 200.7 199.5 195.7 193.7 188.6 182.5 182 181.6 179.9 180.7 173.4 172.8 170.5 164.2 162.6 160.4
263.8 266.1 267.5 266.6 265.2 263.8 260.5 256.6 253.5 250.9 250.8 250.5 248.7 249 247.8 241.3 241.3 241.3 241.3 241.3 241.3 241.5 253 249.5 249.5 251.8 256.2 256.8 258.5 258.5 259.6 268.3 271.5 272.9 275.8 286.6 293.6 303.2 313.9 322.5 334 344 355 370.1 384.9 403.1 422.7 441.8 460.6 453 467.9 482.1 489.6 494.4 503.9 514.9 530.3 535.2 540.6 545.5 555.9 566.3 574.3 582 596.4 609.9 632.4 654.5 673 694.2 712.4 730.3 743.1 756.2 766.3 767.3 746.2 735.4 730.4 713.9 681.5 647.1 616.2 592.4 560.5 533.8 513.9 479.9 437.1 414.1 388.5 369.2 356.6 350.5 341 339 344.1 338.9 332.9 326 327.7 324.7 326 326.3 331.5 335.4 339.3 347.4 355.8 354.8 353.8 351.8 350.1 349.1 338.5 324.8 312 301 284.3 274.1 266.5 261 256.2 254.8 250.9 248.5 248.3 247.8 244 242.6 240.8 240 240 241.7 240.8 240.4 239.8 238.9 238.2 238.7 237.4 235 236.6 233.7 227.3 223.5 221.2 222.1 222.4 222.4 224.2 223.8 222.1 222 218.6 219.6 219 217.5 219.7 219.1 218.9 220 221.4 217.4 218.5 218.4 218.1 218.8 216.5 216.2 216.1 215.5 213.1 214.6 216 216.6 220.3 219.7 218.7 217.9 213.8 214.1 208.8 210.1 206.5 204.5 201.5 198.2 190.9 185 186 182.9 183.2 176.8 176.2 174.5 168.8 166.2 163.7 163.4
261.6 264.7 267.9 266.9 266.9 264.1 261.8 256.6 252.2 251 249.3 249 248.7 249.7 241.3 241.3 241.3 241.3 241.3 241.3 252 253.9 253.4 251.4 255.7 253.5 257.4 261.8 260 260.3 263.3 269.5 274.1 275.5 280.1 291.5 298 311.7 322.8 329.5 342.2 354.1 362.9 381.3 402.2 423.7 442.5 459.7 473.1 479.3 488.8 496.9 510 509.9 518.7 522.7 535.3 539.8 540.2 545 555.3 568 577.9 591.2 607.2 631.3 656 678.2 696.6 715.3 736.6 756 771.8 778.1 784.7 781.5 757.5 741 731.5 711.8 674.2 644.1 619.5 595.6 570.3 551.9 521 490.2 459.9 425.1 401.2 384.1 374.9 368.2 356.8 353.7 351.8 347.6 344.4 342.3 340.9 334.9 337 338.8 347.7 353.3 365 371.5 379.1 376.8 377.7 374.4 363.8 363.3 354.1 337.6 323.3 308.7 294.3 281 269.9 263.1 257.2 257.9 252.9 249.1 251.8 247.7 244.4 242.3 242 240.9 240.7 242.6 243 241.6 240.7 240.1 242.5 244 243.1 240.3 239.1 235.3 231 226.6 227.1 228.3 228.8 229.3 229.3 229.8 229.5 228 226.2 222.6 221 222.5 222.7 221.5 221 220.9 224.3 219.5 220.8 225.4 225.1 224.1 223.1 224.1 224.7 221.3 221.9 223.5 226.1 232.3 233.4 231.2 229.9 225.6 224.8 219.8 218.2 213.8 211.8 209.9 208.1 202.1 197.4 193.2 191.1 190.5 185.7 184.2 180.5 176.3 174.3 169.7 166.7 165.1
260.1 267.4 267.4 270 272 268.6 266.6 262 256 252.6 250.8 250.9 249.5 248.8 241.3 241.3 241.3 241.3 243.9 251.9 255.4 257.8 258.1 257.4 262.1 259.7 260.3 261.5 261.6 262.5 268 274.2 272.7 280.6 284.5 294.2 298.9 314.2 328.3 340.4 353.1 364.4 378.8 399.2 423.9 441.5 464.2 474.6 485.6 497.9 513 519 519.9 524.1 530.4 532.6 533.6 540.1 535.8 538.7 551.9 568.8 582.2 601.6 628.2 654.8 680.6 701.8 719.2 737.6 760.3 778.5 790.7 796.2 797.5 792.8 771.5 752.3 734.9 707.9 681.3 657 631.7 608.7 586.9 563.3 538.8 506.4 473.1 449.7 422.6 402.2 395.4 388.1 375.3 368.6 362.3 359 357.8 353.5 358.9 354.8 354.9 356.5 368.1 375.8 386.2 387.4 399.2 394.7 398.4 388.8 376.8 372.3 366.9 346 330.7 315.8 298.2 287.4 275 266.1 260.8 258.5 252.3 250.1 250.5 248.8 245 244.1 243.4 241.9 241.5 243.5 244 244 242.9 243.7 247.6 251.3 249.4 247 244.6 240.6 237.9 236.3 237.3 232.8 230.8 232.6 231.1 231.8 232.5 231.3 227.7 228.5 230.4 227 225.2 224.5 226.5 226.1 225.4 226.5 227 232.9 236 236.6 233.5 231.5 231.4 230.2 231.9 235.9 239.7 242.8 244.5 242.4 237.1 231.5 231.9 226.1 221.9 218.6 216.6 214 210.2 205.1 201.1 197.2 198 194.2 191.6 188.9 183.8 180.6 176.3 173.4 168.7 168.6
260.7 273.6 275.5 273.9 271.4 273.6 272.1 267.1 260.5 257 255.5 254.8 255.4 252.3 252.2 250.8 252.2 250.7 254.7 264.8 267.5 265.5 264.6 263.4 265.3 265.2 262.4 265.1 265.4 270.5 272 278.3 276.1 283.5 288.8 304.8 307.6 323.6 333.9 350.6 366.7 381.2 399.2 421.3 444.9 465.8 478.4 491 504 519.3 526.2 529 535.5 541.6 541.6 538.5 536.9 534.3 533 533 545.6 569.2 592.3 620 648.2 676.3 702.8 722.1 739.5 761.6 779.3 791.8 801.3 807.2 809.8 805.5 792.4 771.6 748.8 722.5 701.5 680 650.3 628.3 604.6 580.5 555.3 526.6 499.1 478.3 455.9 433.3 425.4 424.8 407 384.5 376.5 371.6 367.3 365.7 379.2 373.3 377 376.5 389.7 398.1 406.1 407.4 411.5 412.4 411.1 398.8 389.2 379.5 371.4 355.4 340.3 324.1 306.7 294.2 279.2 267.1 263 258.1 256.3 249.8 249 247.6 247.7 246.4 244.9 243.4 242.9 244 244.7 245.4 247.1 247.2 253.4 258.2 256 251 248.3 242.3 239.7 240.5 240.8 238.4 237.5 235.6 234.9 237 235.4 236 231.9 231.7 230.4 231.4 237.3 235.4 234 233.3 236.1 235.5 238 244.2 247.8 248.4 243.6 239.9 238.9 241 242.8 247 250.5 253 256.1 247.3 240.6 238.8 234.8 229.3 223.4 224.6 221.4 217.1 212.8 209.1 209.1 206.1 203.9 197.1 196.8 194.9 190.5 186.5 180 178 176.7 176.5
268.2 278 275.6 276.7 277.9 282.3 281.5 270.2 268.2 269.6 267.5 265.1 265.6 261 258.5 256.7 259 260.9 268.5 274.5 277.4 278.1 273 275.9 274 268.1 267.8 268.1 270.1 276.4 277.7 280.9 280.9 287.3 294.9 308.1 319.9 327.8 344.3 364.5 382.8 404.2 426.1 445.2 464.8 486.1 499.8 508 529.7 531.3 541.3 547.8 545.3 554.6 552.1 544.2 541.4 538.2 533 533 546.2 574.6 606.3 639.1 668.5 696.8 723.8 743.6 762.2 781.5 792.2 804.3 812.7 816.7 816.6 811.6 799.3 786.1 769.7 745.5 725.7 703.8 684.7 658.1 641.5 621.2 581.4 559.2 530.1 510.2 485.4 466.1 462.8 445.6 429.1 414.8 396.5 387 374.1 379 383.8 382.3 388.6 391.5 403 411.3 417.6 420.1 422.8 423.4 420.2 408.8 399.5 394.2 380.9 361.5 346.9 330.8 318 305.1 286.1 274.7 264.6 264 259.1 252.1 249.6 247.9 249.3 247.5 245.5 245.1 244.3 245.2 246.6 249.9 252.1 253.2 259 262 261.9 255.3 249.7 244.3 243.4 246 246.1 244.7 242.1 239.1 241.4 242 238.5 239.7 237.1 235.5 235.3 237 239.8 240.1 241.9 244.2 247.3 247.7 246.6 257.8 258.1 257.7 256.7 252.2 249.9 251.6 256.4 256.8 258.2 258.3 256.3 250.1 244.7 241 237.8 234.1 229.9 226.3 226.9 221.2 220.5 222 217.4 212.3 205.7 199.6 196.5 195.3 193.7 188.2 186.6 185 184.3 180.9
277.3 285.9 285.6 289.3 292.8 290 287.1 285 285.4 283.9 277.8 276.4 276.4 270.5 269.4 271.6 269.2 271 278.2 283 289.3 286.9 285.4 289.6 283.2 270.1 271.5 273.7 277.7 282.9 283.9 287.3 287.6 293 304.8 317.4 328.1 342.6 362.6 380.7 401.4 429.1 447.2 466 486.4 505 522.2 527.5 540.2 547.9 553.9 560.7 564.3 566.2 563 552.7 543.2 543 533 538.4 549.7 582.3 618.9 657.6 689 717.8 743.4 762.4 781.5 795.9 804.7 814.7 820.8 821.6 817.2 809.2 797.8 786.1 773.4 754.9 738.6 720.8 698.3 677.1 659.2 640.9 627.4 617.9 603.1 582.8 564.5 538.5 502.3 487.9 467.5 447.4 425.4 402.5 386.7 388.6 391.2 390.5 397.8 405.7 413 419.6 425.7 428.7 431.7 429 423.1 417.9 410 404.9 390.3 367.7 350.3 340.1 326.1 314.4 299.9 286.6 273.5 273 264.5 255.2 250 249.8 250.6 248.8 247.7 247.2 245.8 246.6 249.6 256 256.1 259.5 262.9 265.2 266.5 260 251.6 246.8 249.6 254.6 253.8 250.1 246.9 246.5 247.3 248 246 245.2 245 243.8 242.9 243.9 241.8 245.1 252 256 256.5 258.8 256.8 265.4 268.4 269.4 266.7 265.4 262.3 262.5 266.2 266.1 264.6 261.6 260.3 253.2 245.5 244.9 240.7 240.4 239.8 239.3 233 228.1 233.4 233.5 228.4 220.6 211.3 206.7 205.2 204.3 203 200.1 195 195.9 191.4 188.5
288.2 299.3 302 308.5 303.3 301.5 302.8 304.7 303 299.8 295.6 297.7 296 292.7 292.6 294.9 293.8 291.1 291 297.2 298.6 298.7 295.3 300.9 287.4 277.3 278.4 279.6 285.3 292.4 294.7 292 297.3 301.4 324.4 332.6 342.3 364.4 379.8 399.9 422.8 447.4 465.2 489 509.1 527 540.8 547.2 556.2 564.1 570.6 574.3 578.8 576.8 571.9 558.2 549.3 548.7 538.1 544.6 556.7 589.6 633.3 673.1 706.3 733.6 758.5 778.8 794.6 805.5 819.5 825.2 827.8 822 815.6 803.6 790.5 778.9 762.9 748.6 731.6 714.8 694.3 676.7 661.4 653.1 642.5 635.4 626.9 608.5 590 571.3 547.7 527.2 504.1 478.6 444.1 419.5 398.5 394.2 397.5 399.8 407.2 412.3 419 426.7 429.9 433.1 436.6 434.2 429.5 423.3 416.9 408.5 391.7 370.2 355.8 343.4 328.9 318.2 307.9 292.5 281.9 275 269.3 259.4 252.3 251.3 251.9 250.5 250.3 249.3 248.2 249 254 259.9 261.3 264.1 267.1 269.6 271.9 264.9 255.8 252.7 255.1 259.7 260.5 256.5 253.7 256.5 256.3 256.7 254.1 251.8 252 253.9 254.8 251.1 252.4 254.1 263.6 266 269.5 270.3 268.8 274.3 275.6 276.6 274.7 275.2 274 274.7 277 272.3 267.9 264 265.9 260.4 252.6 249.3 246.5 246.4 249.3 245.7 237.1 240.2 245.8 240.6 234.5 227.1 223 217.8 216.5 213.3 211.4 206.9 204.5 203.7 199.3 196.5
303.4 313 318.1 321 328 324.5 324.8 324 320.7 323.5 326.9 328.8 329.3 324.4 321.8 321.3 318 316.1 320 318.5 319.2 314 317.2 319.4 308.9 300.4 293.4 300.7 304.5 305 304.3 310.6 317.2 319.9 336.1 352 362 386.2 402.3 420.9 444.8 468 490.2 511.1 535 553 559 569.4 577 583.8 590.2 592.2 594.1 587.7 574.3 562.8 556 550.9 545.5 551.2 568.8 601.6 647.2 689.5 723 750 774 790.8 806.1 818.4 829.1 833.5 831.6 822.2 810.9 797.1 781.9 770.8 754.3 739.9 720.9 704.8 689.9 675.8 665.8 654.1 645.9 639.8 633.8 630.2 617.7 596.1 577.1 555.9 532.6 505.1 459.1 421.4 401.5 399.4 401.9 406.1 412.5 416.6 422.4 428.3 432.5 437.2 439 441.5 436.5 432.8 427.4 407.8 390.6 372.5 359 344.7 330.2 320.3 310.9 298.6 289.9 281.6 270.9 267.2 259 252.6 252.4 253.9 255.1 254.5 250.9 252.3 257.8 265.2 267.1 269.9 272.7 273.2 273.8 269 260.8 260.1 261.9 263.9 267.4 260.1 262 263.5 263 263 262.8 261.6 262 262.9 262.3 259.5 266.4 267.6 272.8 273.8 279.4 279.2 280.9 282.4 283 285.4 283.8 283.1 284.3 286 283.6 279.2 272.7 271.2 273 266.7 261.3 256.2 253.7 259.8 265.4 254.7 249.2 253.7 252.6 245 240.3 234.7 229.7 227.7 223.7 217.4 214.2 213.3 210.9 208.7 205.9 202.7
316.7 328.1 338.2 345.9 352.3 356.5 356.1 353 352.9 363 364.5 369.4 374.9 362.5 355.6 353 356.8 354.6 357.6 349.5 337.2 340.2 335 341.1 334.1 331.7 329.3 332 332.1 330.4 333 343.7 346 342.1 355.8 373.3 385.1 407.4 426.4 445.1 465.6 489.2 513.6 535.7 561.4 568.3 579.1 590.2 598.3 605.1 610.8 608.5 603.9 590 574 564.3 559.5 552.1 549.9 560.9 578.7 615.8 667.9 704.5 739.2 767.9 788.2 802.7 821.1 831.4 840.2 840.4 833.9 821.3 806.5 787.8 774.8 760.7 746.2 726.6 708.9 693.8 679.6 672 661.1 651 643.4 635.3 629.2 624.1 616.5 607.9 598.6 580.1 556.6 515.6 457 419.1 403.1 400.9 404.9 409.3 415.5 419.7 424.3 429.5 435.9 438.4 443.2 443.5 439.1 440.3 432.7 410.5 390.5 373.7 364.3 350.9 333.3 322.3 315 303.8 294.6 286.5 278.1 271.9 267.2 255.4 255.2 256 258.3 257.6 256.7 256.6 265.5 274.1 274.6 277 278 277.5 279.5 275.5 266.7 266.8 267.6 268.3 269.8 268.5 270 271.1 270.5 271.1 266.9 270.7 271.6 269.2 270 271.5 276 278.4 283.3 285.7 289.4 288.9 291 290.1 288.8 293.7 292.3 295.6 293.7 295 292.3 283.9 279.3 281.3 281.2 270.2 264.9 262.1 262 270.1 270.3 258.9 258.6 262.3 258.7 251.6 246.3 240.4 234.1 232.6 230.3 222.3 220.4 220.1 216 213.8 211.8 208.6
329.1 342.8 355.2 370.2 387.9 390.5 388.3 389.7 391.5 401.7 411.5 412.6 407.3 405.4 397.6 394.9 393.5 393.4 395.1 394.9 371.5 368.4 371.7 372.8 380.6 372.6 377.2 374.5 362.8 373.5 389.7 377.6 364 364.2 370.3 389.9 404.6 427.4 450.7 471.2 492.2 512 539.1 561.2 577.6 589.6 599.3 609.4 618.3 626.7 628.2 619.9 611 597.3 581.8 572.2 561.1 554.9 558.5 566.5 593.7 636 683.8 722.1 755.3 780.7 799.1 820.2 834.9 845.4 848.3 844.7 834.6 820.2 802.7 782.6 766 754.1 736.4 715.3 698.4 686.6 676.6 666.8 655.6 645.4 636.5 629.2 622.7 613.3 606.9 600.4 594.5 584.1 562.9 512.7 447.8 414.9 401.9 402.9 406.9 410.3 416.7 421 425.9 431.2 436.7 440.8 447 445.7 441.7 440.2 428.4 408.8 391.2 376.9 365.9 350.7 337.5 326.8 317.4 310.5 302.2 294 286.6 276.3 268.3 259.6 259.1 259.8 262.3 261.3 258.8 264.8 273.5 281.5 284.4 286.1 285.5 282.7 284.3 281.7 275.6 273.1 273.1 273.3 274.9 276.7 276.1 277 276.9 276 275.6 277.8 277 279.3 278.7 281.1 283.9 286.3 294 291.6 297.3 298.3 298.8 297.2 295.9 300.7 308.4 311.9 309.3 306.5 299.2 289.5 288.5 292.9 283.5 276.2 268.9 266.6 268.7 273 270 265.2 265 265.6 263.2 256.9 251.2 248.4 245.2 241.6 235.7 230.6 227 225.7 222.1 220.7 219 213
342.2 358.3 375.4 396.5 415.8 428.7 440.4 440.4 431.3 427.6 443.7 447.2 452.1 452.7 450.6 450.3 444.3 437.4 446 446 418.1 414.7 421.5 417.3 420.2 416.6 415.8 408.7 411.9 412.8 410.5 392.6 383.3 382.7 388.1 409.8 429.3 451.3 476.6 498.3 517.5 540 567.3 583.5 598.6 610.2 618.8 630.6 643.3 645.1 642.6 631.4 613.9 598.8 583.7 576.4 567.7 556.1 562.7 584.9 613.1 659.5 699.1 735.4 770 791.9 815 833.8 846.4 852.2 851.4 844.2 831.7 818 799.3 779.5 762.9 748.1 727.9 710.2 695.5 683.6 670.5 658.6 646.2 636.5 627.8 620.7 611.3 604.4 597.4 590.3 583.6 571.3 556.9 484.5 438.2 408.3 401.2 403.4 407.2 410 416.7 422.9 428 433.8 436.7 442 445.6 446.1 444.5 435.3 423.2 408.3 391.5 379.4 368.6 354.9 342.5 332.3 324 321.8 316.5 308.1 302.2 290 276.7 266 266 265.1 265.2 267.9 264.9 276.2 281.5 287.3 294.5 296 292.9 290.3 291.1 289.8 284 281 278.9 279.8 283 283.8 283 282.6 282.8 285 285.4 281.5 283.7 289 286.6 288.2 289 292.3 296.1 301.2 306.6 307.2 305.8 306.1 307 309.9 319.8 321.4 321.8 313.7 304.9 295.3 299.4 301 288.4 285.2 277.3 274 276.9 275.2 272.4 268.7 266.5 266.7 267.2 268.9 262.6 256.8 255.7 249.8 244.9 239.4 238.1 230.7 229.8 230.3 223.2 212.8
353.5 373.6 395.2 419.2 441.5 460.1 469.2 471 467.2 461.8 479.2 490.7 492 488.4 495.6 488.8 492 509 504.5 488.7 455.9 465.1 472.3 473.7 462.7 461.9 451 446.4 444.1 434.2 419.9 402.9 394.6 396.6 412.5 432.2 447.3 475.3 501.1 526.2 546.6 570.2 589.9 604.7 618.5 629.8 640 656.9 668.1 669.8 668 649.7 625.6 602.6 586.7 577.5 568.9 562.5 572.5 599.9 632.8 677.4 711.5 749.5 780.5 806.3 826.6 840.2 850 852.5 849.9 842 830.6 817.1 796.6 779.4 763.1 745.8 722.1 710 694.9 683.3 667.1 648.6 634.2 623.3 615.6 607.3 602.7 596.7 586.5 581.2 571.8 559.9 540 459.7 421.4 402.3 400.2 402.6 405.8 410.6 416.7 423.1 428.4 433.9 436.3 439.7 446.2 446.4 440.6 432.4 420.7 407 392.4 379.2 368.5 357.7 347.1 338.4 333 330.4 325.9 319.6 312.3 299.8 289.7 272.6 270.3 271.6 270.7 271.2 274.9 285.2 288.5 294.7 303.8 304.2 300.2 298.3 299.5 295.9 291.6 289.5 288.3 290.1 291.4 290.5 289 290.1 289.2 290.2 289 289.9 291.5 292.9 294.6 294.4 295 301.7 304.8 310.2 313.8 315 314.1 316 319.6 322.3 327.7 328.7 322.8 317 309.4 304 306.9 299.1 293 290 284.7 283.5 282.5 281.3 277.7 273.3 272.8 274 278.2 274.7 267.8 263.5 260.4 255.7 250.9 246.3 239.8 237.3 237.8 232.9 223.8 212.1
362.9 386.8 410.8 435.5 459.5 478.8 491.7 497 499 503.4 519.9 517.1 523.7 525.1 519.3 524.2 536.8 539.1 525.6 513.7 498.3 518.5 521 532.2 523 510.2 485.3 473.9 465.5 446 430.4 415.1 409.1 412 427 454.9 469.1 501.6 531.9 553.8 581.4 599.6 610.6 622.5 637.6 646.8 663.1 682.1 690 695.4 691.9 675.1 649.2 626.4 605.2 588.5 575 576.7 588 618.2 658.4 697.6 731.9 764.8 790 814.2 832.9 841.2 847.6 847.2 844.2 835.4 826 814.8 797 782.1 764.6 745.6 726 709.8 697.3 682.8 666.4 645.8 628.5 616.1 606.7 595.9 585 577.6 570.3 562.9 550.4 530.7 491.1 434.6 407.6 399.1 399.1 400.8 405.1 410.4 416.7 423.8 428.5 434.1 435.7 439.1 443.4 444.9 440.4 430.4 416.1 403.2 390 379.5 371.3 361.7 354.9 344.2 337.3 334.9 330.2 325 320.3 310.5 301.5 285.5 276.1 276.6 281 280.2 285.2 291.8 295.6 305.4 311.1 310.7 307.4 307 306.1 302.9 300.2 299.4 299.2 299.2 299.1 297.9 297 296.6 297.7 295.8 299.2 300.8 304.7 300.6 300.8 302.3 305.5 309.9 315 317.3 318.9 322.9 323.6 327 329 333.3 335.8 330.7 326.7 320.1 313.8 309.3 307.6 301.4 297.1 291.7 287.5 289.4 293.7 293.9 284.5 280.8 278.8 280.5 280.8 275.7 272.2 267.2 263.2 259.3 252.8 247.1 245.3 241.8 240.3 234 223.7 213.3
372.2 399.6 424.3 449.2 473.3 491.2 506.7 519.4 528.9 535.4 535.5 537.4 550.7 544.2 541.3 544.7 552.8 553.4 549.3 546 546 555.5 566.8 576.3 554.5 547.7 518 496.4 478 453.7 434.2 423.5 421.9 421.7 447.1 470.6 493.7 523.4 555.8 587.8 608.1 620.3 627.7 638.6 650.4 663.9 682.4 697.2 708.2 716.2 710.4 694.2 668.2 641.1 621 599.6 585.9 596.7 604.2 637.7 681.6 717.5 750 778.9 801.3 823.6 835.9 841.4 843.7 841.5 835 826.2 819.9 810.7 797.2 785.5 771.3 754.9 734.6 716.3 701.7 684.4 665.6 647 631.7 621 609.7 589.7 575.4 560.2 547.6 534.6 518.5 497 458.1 418.4 398 393.5 395.5 398.5 403.2 409.8 416.7 423.6 427.4 431.1 433.7 438.6 442.6 441.6 436.7 427.1 413.5 402.2 391.9 383.3 374.5 366.8 359.3 350.3 343.1 339.6 332.7 328.4 325.1 314.9 305.9 295.6 285 285.2 287.2 287 294.2 301.2 305.3 313.4 317.7 316.2 314.2 313.9 313.3 311.1 310.8 311.3 311 309.8 307.7 307.4 306 305.2 305.4 305.1 304.5 310.3 310.4 308.1 309.4 312.4 315.5 318.6 320.4 321.9 326.8 332.3 335.2 339.6 337.3 342.8 342.1 339.5 332.9 324.1 317.5 311.8 308.9 306.2 301.4 295.2 294.2 297.7 301.1 299 291.2 287.5 286.2 286.1 284.9 280.4 275.6 272 265.7 260.8 256.5 251.8 249.9 246.5 243.3 233.5 225.2 213.5
383.6 410.6 435.5 460.5 482.4 504 518 535 546.7 556.6 560.7 570.3 567.8 563.1 558.3 562.1 564.5 563.5 561.3 562.4 570.5 582.6 600.6 608.4 601.1 573.2 549.2 519.6 498.2 469.5 450.1 431.9 427.1 437 471.4 489.3 518.9 544.4 582.2 617.1 630.1 637.9 643.4 650.3 661.7 676.2 694.6 713.6 728.6 734.7 734.1 712.4 688.5 666.8 640.1 617.8 610.6 610.2 631.7 664.2 702.7 735.3 766.1 788.6 808.8 828.1 833.3 836.5 834.5 830.2 822.3 817.2 814 807.3 800.1 789.2 776.6 764.1 747.4 725.6 709.3 688.7 666 646 633.7 621.9 608.3 588.2 569.6 554.4 537.9 519.1 496.7 474.6 431.6 404 391.6 388.8 392.7 396.8 402.3 408.4 415.9 423.2 428.5 430.8 434.2 437.5 440.4 437.8 431.4 421 408.3 397.4 390.3 384.9 376.1 370.1 363.9 353 348.5 343.4 338.9 335 328.3 317.5 309.3 301.3 293.9 295.7 299.4 295.6 304.9 308.3 311.4 318.9 321.9 322 321.8 322.1 321.7 320.1 321.6 321.8 321.5 320.2 318.1 318.1 314.2 313.5 312.2 311.6 315.7 315.9 315.8 319.9 322.8 325.6 325.7 324.3 329.1 330.6 337.8 343.3 346.4 345.3 341.8 342.9 346.4 343.2 335.7 326.2 322.2 316.8 312.9 311.1 308.3 307.7 306.5 306.6 305.2 302 293.6 292.4 290.9 292 286.4 280.9 278.6 275.2 267.3 265 260 255.4 254.1 250.1 244.5 232.3 225.8 214.3
394.3 417.6 443.1 469.7 491.9 511.2 527 543.6 558.1 568.5 573.6 580.7 579.5 572.8 568.6 569.2 569.9 567.7 566.2 569.8 584.7 600.2 614 626.1 622.1 604.8 582.5 537.5 514.6 486.6 466.1 451.5 448 462.8 488.8 511.8 537.5 565.1 604.5 646.2 649.5 654.6 657.7 663.1 672.9 687.9 710 727.5 739.3 747.6 741.3 723 700.6 677.4 653.8 633.8 631.5 642.4 662.1 690.1 722.5 752.9 776.9 797.2 813.5 824.9 827.9 822.5 815.7 810.5 805.7 806.2 804.9 803 798.5 791.3 787.1 778 761.8 742.3 721 701 677.7 657 638.4 623.5 606.2 587.4 566.8 548.8 531 513.5 483.7 439.1 406.6 396.6 387.9 387.9 391.3 397 398.7 407 414.3 421.6 426.2 429.5 432 434.9 436.1 433.5 429.1 419.6 409 400.5 392.7 384.9 377.6 373.1 366.5 357.5 352.5 349.9 345.1 337.2 329 321.6 314.2 307.1 303.3 310.4 311.6 305.3 309.6 314.9 316.8 322.7 326.6 327.1 328.4 329.9 329.3 330.1 332.1 332 330.8 328.5 329.4 326.7 323 322.4 320.5 321.4 325.2 324.2 323.4 327 330.8 333.7 335.1 332.3 335.3 339.8 345.3 353.4 350.1 350.3 346.3 343 345.1 340.8 335.7 327.4 322.9 325.8 319 319.8 321.8 319.2 320.7 313.8 306.4 298.5 296.2 298.4 292.5 290 285.2 282.7 279.9 273.3 269.4 264.9 261.6 260.4 257.7 251.7 244 231.5 223.4 213
400 422.3 451.2 478 499.7 517.8 532.8 546.9 559.8 573.1 574.4 579.9 578.1 571.6 569.6 567.2 567.1 566.4 568.8 575.4 589 602.1 618.1 636.1 632.3 619.3 595.8 564.7 539 510.6 481.9 465.7 466.9 491 508.5 533.8 560.6 589 632.7 665.1 665.4 670.8 670.6 677.1 684.3 701.1 721.5 736.5 752.6 757.4 749.1 733.6 712.2 689.3 665.6 651.7 659.2 672.8 691.8 714.9 743.1 767.7 789.4 804.1 814.8 810 795.8 782.4 776.6 778.2 783.2 786.3 792.2 795.8 793.7 787.3 784.8 779.3 766.3 746.2 725.8 707.6 689.7 676.2 659.3 639 620.2 598.8 577.2 558 539.7 518.6 492 436.7 408 393.1 387.9 387.9 390.6 397 399 406.5 412.8 419.2 425.1 427.5 431.3 432.8 439.8 432.3 427.2 420.2 409.5 403.8 398.5 389.4 381.5 375.1 366.1 360.4 357.5 351.9 347.7 336.7 332.8 324.2 320.9 317.2 316.7 321.1 321.9 314.8 315.4 319.2 321.9 327.1 331.7 333.3 334.8 337.7 337.5 339.3 340.9 341.1 339.9 337.8 337.3 334.6 331.6 329.9 329.8 331.7 334.7 331.9 333.9 332.6 338.3 340.9 336.3 338.7 342.7 346 350.2 353.5 353.2 353.7 351 344.5 341.4 338.9 330.5 327.6 327.2 328.1 329.2 330 333 325.8 323.7 316.5 306.2 298.7 297.3 296.3 291.9 288.5 284.5 283.2 279.9 272.6 267.6 266.2 263.2 262.5 258.1 250.2 243.8 232.8 221.6 212.1
402.6 424.7 452 478.3 501.1 519.8 536.4 548.7 560.4 565.8 568.8 569.2 567 564.8 563.4 559.4 559.5 560.3 564.5 572.7 585.7 599.1 619.8 640.9 650.7 651.7 633.4 593.6 567.9 525.3 499.4 492 491.3 516.7 537.3 553.8 583.9 620 670.4 684.2 682.8 684.1 687.1 692.4 697.3 711.4 729.9 747.5 761.4 768.6 762.2 746 724.8 701.2 684.2 681.9 691.4 707.5 720.9 737.3 761.2 780 797.6 810.8 789.4 769.7 754.2 740.8 736.4 737.9 745.1 755.8 768.8 784 784.8 781.4 779.4 772.4 761.9 746.5 731.6 711.4 696.6 687.6 676.1 659.5 637.5 615 587.5 564.7 544.9 524.3 497.6 443 401.7 387.9 387.9 387.9 390.4 396.8 399.8 406.4 410.6 416.4 421.5 424.2 426.9 435.1 440.4 432.1 426.3 420.7 409.1 404.8 401.2 393.2 385.3 377.7 367.3 362.4 357.7 350.6 346.8 338.7 334.7 331.1 328.6 329.2 329.6 330.1 330 322.6 319.1 326.1 328.5 331.4 335.8 338.6 340.6 342.5 344.3 346 346.9 347.5 346.3 345.1 345.2 342.4 340.2 338.3 339.6 340.4 341.6 341.1 342.2 342.1 347.3 344.9 342.1 343.3 344.3 351.4 354.3 356 359.8 357.8 357.5 344.9 341.1 331 328.3 326.8 329.5 334 334 335.3 331.9 329.1 326.9 319.3 308.2 301.4 301.2 297.4 293 285.6 283.9 282.4 276.5 269.3 265.7 264.8 261.5 261.5 256.6 248.3 239.8 229.9 220.3 208.6
403.2 424.7 451 476.7 499.4 516.3 534.3 547.7 555.5 560.3 561.7 559.6 559.2 556.4 552.9 550.2 551.6 551.9 557.4 567.7 582.7 598.8 621.8 643 658.9 665.8 653.3 624.3 589.8 562.7 541.7 532.1 526.7 546.2 570.1 593.4 611.6 658.1 694.9 702.7 697.6 696.3 698 700 708 721.2 740.6 759.9 769.5 775.2 772.5 759.5 743.7 723.9 715 717.9 726 736.2 745.6 759.4 770.8 757 760.1 752.6 745.8 723 709 698.2 693.8 698.4 710.1 717.9 734.6 753.7 770.8 772.7 773.5 763.3 753.4 744.3 734.3 719.2 707.9 698.5 685.9 668.9 654.3 633 606.6 571.2 550.9 525.5 498.7 449.8 408.2 387.9 387.9 387.9 391.3 397.2 399.8 405.2 409.7 414.7 420.3 422 425.1 436.8 438.6 432.3 426.6 418.7 410 407 403.4 397.5 389.1 383.4 372.4 361.8 352.2 346.1 341.9 336.9 332.9 335.4 340.9 336.1 338.7 337.1 333.4 331.1 327.8 331.1 336.3 338 339.2 343.2 346.3 348.9 349.1 349.7 352.1 352.3 351.1 351 351.5 349.7 348.1 345.4 346.8 345.4 344.6 344.8 348.1 350.1 354.4 351.1 346.7 348.3 353.8 359.3 359 359.9 360.4 358.1 357.4 346.1 337.8 332.1 329.5 325.2 331.3 336.2 334.9 335.3 332.4 329.1 328.1 316.5 309.3 300.9 299.3 295.6 289.6 284.1 282.2 278.8 271 265.1 262.9 259.9 259.2 260 252.3 245.1 237.4 227.4 217.4 205.3
401.3 421.4 448 471.8 493.1 511.6 526 538 547.3 551.7 553.5 553.1 545.7 544.1 542.1 540.7 540.8 544.7 551.8 565.4 579.3 598.3 619.5 641.9 660.9 673 667.1 643.4 607.6 579.7 567.4 561.1 559.1 581.5 618 650.3 667.7 685.9 714.3 715 714.3 710.5 709.3 710.6 720.3 735.4 751.4 769.3 776.3 780.4 779.6 772.2 761.7 753.3 748.8 752.3 759.1 765 770.8 765.8 757.5 742.3 729 716 702.9 686.6 668.6 655.2 653.9 659.4 670.2 683.5 700.8 717.2 739 757.6 760.7 753.1 744.4 737.7 733.8 727.8 728.2 707.2 695.2 680.1 663.1 649.1 628.2 580.6 545.7 523.3 492.7 448.4 405.5 387.9 387.9 387.9 392.4 396.8 398.9 403.4 407.6 414.4 418.2 424.6 428.1 435.7 439.1 432.8 426.7 417.5 410.9 407.9 402.7 398.4 390.3 383.7 376.6 362.2 352.6 344.8 339.1 334.5 334.1 335.9 341.9 343.4 343 339.2 338.1 338.1 334.2 337.7 341.8 341.4 342.3 345.3 348.5 351.3 352.2 352.1 354.4 354.3 354.5 355.7 356.1 354.3 352.7 350.2 350 351.1 350.2 352 350.8 354.2 355.9 352.5 350.8 353 357.1 360.1 360.9 360.9 361 360.3 355.3 347.5 339.9 339.4 329.1 324.6 332.2 333.5 330.9 331.5 329.4 326.6 320.3 311.8 305.5 295.6 294.3 291.4 285.7 281.4 277.9 273.9 266 261.8 258.9 254.6 255.7 254.1 248.3 241.6 234 223.7 213.9 203.3
399.3 416.1 437.5 457.7 479.4 498.6 515.8 526.5 533.5 538.9 541.7 541.2 538 533.5 529.7 529.2 531.7 535 546.6 560.7 575.2 595.4 615.8 641.9 661.3 676.5 671.1 654.1 635.5 610.5 597.2 600.8 604.6 625.2 657.9 693 703.2 715.5 726.3 728.8 726 723.7 720.6 718 730.2 744.1 763.6 776.4 782.7 787.3 788.9 786.6 780.4 778 779.9 782.2 782.5 769.8 765.8 753.5 741.8 724.7 706.6 685.4 670.1 651.7 634.7 621 619.4 624.1 628.8 645.2 667.3 683.9 702.5 723.6 742.8 739 734.9 730.9 729.3 730 732.1 713.4 698.7 684.1 671.9 657.2 646 601.5 560.7 524.9 488.3 444.3 410.9 389.9 387.9 387.9 391.3 397.2 398.8 401.3 407.4 414.6 419.6 428 432.2 436.3 438.1 435.9 429.2 418.9 412.3 408.1 404.2 397.1 389.6 383 375.7 363.9 353.8 344.6 339.2 337.1 334.9 334.6 338.6 345.4 345.2 342.3 343.2 342.7 334.3 342.9 345.9 345.5 343.9 346.2 348.5 352.4 354.5 354.1 355.4 356.4 357.8 358.5 359.6 357.8 354.9 354.5 354.7 354.7 353.4 354.2 354 354 354.1 354.1 353.4 356.4 359.3 360.2 361.1 361.3 363.2 364.4 354.1 346 339.5 336.3 324.6 324.6 328.1 328.4 327.7 324.7 324.2 319.6 313 309.4 304.7 293 287.6 282.1 279.4 276.5 273.4 267.9 261.7 257.4 255.1 250.4 251.4 249.6 242.6 236.5 228.3 217.7 206.9 199.5
394.3 409.2 426 443 462.3 480.3 497.4 511.8 520.1 525.8 528.8 527.8 525.7 524.9 520.2 521.2 524.1 531 541.5 556.5 570.9 592.2 613.2 637.5 660 674.8 671 656.4 642 631.7 629.8 631.6 635.4 657.6 686.7 714.2 724.2 732.1 736 737.6 735.2 731.2 728.3 728.8 739.7 755.8 772.9 783.5 789.9 794.8 797.8 799.9 798.7 799.5 799.4 783.4 774 765.5 752.7 744 721.4 705.3 695.8 670.3 644.2 627.5 606.8 600.1 594.4 591.5 598.3 612 629.8 652.8 669.6 689.2 709.1 724 725.6 727.1 725.4 728.7 729.4 713 697.8 685.6 674.6 663.5 651 631.9 587 540.5 481.8 444 411.7 393.6 387.9 387.1 391.3 394.5 397.1 400 406 412.4 421.6 427.9 432.7 433.3 437.4 436.3 429.8 419.2 415 412.4 406.8 400.2 390.1 382.4 372.6 359.4 350.7 345.7 340.9 337.6 335.9 335.4 337.9 346.2 343.5 341.9 341.3 344 341.5 343.8 345.6 345.4 346.1 347.2 349.4 352.8 355.6 355.2 357.9 359.1 359.3 360.7 361.2 358.5 355.4 355.3 355.8 353.8 353.8 354 355.2 353.8 353.9 354.5 356.9 363.6 363.3 360.5 359.9 361.1 362 360.9 354.6 346.2 341.7 330.9 324.6 323.6 324.6 325.4 322 320.2 317.9 315 311.6 306.7 297.9 285.8 278.6 276.1 273.8 271.3 267.7 262.8 257 254 249.5 246.5 244.1 241.5 235.7 230.7 222.5 212.8 204.3 194.1
389.3 401.9 414.7 428.8 444.8 461.2 474.8 488.4 498.7 507.4 512.6 514.1 512.7 512 513.3 513.3 516.5 525.4 536.9 551.3 569.9 588.3 608.4 633.1 657.3 672.6 670.4 660.8 653.9 644.7 643.8 645.7 657.3 681 707 722.2 730.8 736.6 740.9 744.9 742.2 737.7 736.5 741.2 753.5 766.7 779 789.6 796.9 802.8 808.8 813.6 816.5 808.1 805.4 791.5 780.6 764 748.1 737.7 714.1 695.5 687.7 671.5 644 612.3 594.3 582.5 577.4 573.2 572.3 582.5 597.5 615.6 636.1 657 683.3 706.8 710.9 716.7 718.5 722.9 720.2 709.9 692.8 683.2 674.1 663.6 647.9 630 602.4 549.8 485.6 439.7 413.8 393.6 387.9 387.6 387.6 391.1 393.9 396.5 402.5 411.4 423.1 425.5 432.2 431.7 436.6 437.1 430 420.9 418.7 414.9 410.2 405.3 397.1 386.9 374.4 366.8 354.1 347.2 342.3 343.1 338.8 337.2 338.7 341.2 342.6 342 341.7 342.2 342 341 345.1 345.9 346.7 348.1 350.8 354.1 356.4 357.2 359.7 361 360.7 360.5 360.6 357.6 355.6 355.6 355 353.8 353.8 354.1 354.4 353.8 353.8 356.7 361.7 365.7 364.6 362.3 360.4 359.2 355.8 353.5 349.9 345.1 338.1 329.6 323.6 324.5 318.1 317 313.7 310 309.9 308.5 302.7 294.9 286.4 280.3 271.6 270.7 268.9 264.5 261.9 255.9 251.2 249.9 243.2 241.5 238.2 233.6 229.4 223.9 216.1 207.4 197 185.8
383.8 393.3 405 416 427.6 440.5 452.9 464.8 474.5 484.4 492 497 499.7 499.6 502.1 503.3 507.4 518 531.7 547.6 566.3 583.7 605.3 628.3 650.6 668.3 671.7 666.8 653.3 652 650.4 657.4 676.3 694.9 712.2 724.7 732.4 739.4 743.4 748.4 747.3 744 745.3 753.6 762.5 774 784.9 795.5 803.8 812.2 820.8 827.8 824.2 822 807.3 790.1 774.4 758.3 746.3 729 716.3 707.6 688.5 668.5 642.7 609.1 582.2 569 557.8 555.2 554 554 566.7 585.7 603.7 623.3 646.9 670.7 690.3 699.2 707.3 708 705.8 699.1 686.5 680.6 671.9 659.1 646.1 624.6 600.9 557.7 483.1 444 410.4 392.9 386.7 387.9 385.4 389.5 390.4 394.6 398.4 408.3 419.4 422.3 428.2 430.1 435.5 436.3 430.9 425.6 423.7 420.2 417.3 415.2 410 396.5 388.5 374.6 366.2 360.8 355.1 351.3 344.1 340.5 344.7 343.4 341.1 340.9 341.9 340.8 338.6 339.5 344.3 347.8 348.7 351.2 353.7 355.2 356 357 359.6 360.5 359.9 358.8 358.4 356.5 354.9 353.6 353.9 355.1 354.1 353.9 353.9 353.9 353.8 359 363.4 364.2 363.7 362 360.1 356 351.5 349.1 346.2 341.4 331.1 320.8 319.7 318.8 313.6 313.6 307.9 303.1 301.7 299.7 296.8 290.8 281.3 272.1 266 263.4 260.9 258.8 255.3 250.3 246.2 243.1 239.6 236.3 232.8 226.8 221.8 216 209 199.9 188 176.9
376.2 386.7 396.1 405.6 415.2 423.4 432.4 442.8 451.2 461.7 469.6 476.5 481 487.1 490 493.2 499.1 510.6 523.8 542.5 562.1 579.9 600.7 622.4 645.2 663.8 671.9 666.5 657.6 655.2 657.2 668.4 687.2 700.5 714.5 725.1 731.7 737.4 744.1 748.7 751.3 751 756.4 762.2 770 780.2 789.3 799.9 809.9 821.7 832 841.5 832.6 818.9 798.6 785.2 776.3 756 743.1 737.2 723.2 712.2 688.8 664.4 641.6 613.6 579.8 556.5 548.2 545.5 539.1 539.8 542.1 558.9 575.4 589.8 611.7 635.4 653.8 677 689.7 694.4 691 683.5 678.6 670.3 664.5 654.2 637.9 613.8 593.6 560.8 493.3 451.8 414.3 394.5 389 386.3 386.4 385 386.7 390.1 395.8 405.4 412.8 418 425.5 428.1 432.4 433.5 432.2 434.9 435.2 434.1 428 424.4 420.5 408.8 396.5 383.9 379.6 378.3 372.3 363.3 356.6 351 354.4 352.7 345 340.3 339.5 337.9 335.5 337.5 343.9 347.9 350.9 355.2 355.3 355.7 357 357.9 358.9 359.8 357.5 357 355 353.1 353 351.1 351.2 351 350.4 350.7 352.9 353.8 357.1 361.7 363.6 363.9 363 357.8 356.2 349.7 346.2 343.4 341.6 332.4 326.8 311.8 311.6 312.2 310.5 308 301.8 297.7 296.1 291.5 289.2 283.3 277 267 259.7 257.9 256.3 254.5 249.6 244.4 239 236.5 234.7 230.9 225.8 220.1 213.9 206.9 200.8 191.7 180.8 170.7
370 378.6 385.2 393.5 402 408.3 414.2 424.1 430.8 439.5 449.8 457.5 464.8 472 476.8 482 489 502.1 519.7 539.6 558.1 575.4 597.7 618.2 638.6 657.6 667 664.8 660.7 657 662.1 675.1 689.9 701.7 714.3 721.7 730.4 736.1 743.1 748 752.3 757.8 763.4 769.2 775.7 785.4 794.7 806.4 818.9 831.1 841.9 847.4 834.9 811.8 785.9 777.3 768.1 748.4 742.3 738.1 722.1 707 684 651.3 628.9 602.4 588.8 561.9 543.1 537.1 534.7 534.2 533.7 540.8 550.9 566.8 581.7 595.3 614.6 638.1 664.9 671.6 674.6 671.6 669.6 662.5 656.7 646.9 632.3 611.4 590 565.3 503.5 455 420.3 395 387.7 387.5 384.9 387.8 387.9 384.3 394.8 402.7 408.3 416.4 423.4 425.6 429.4 434.9 437.2 441.6 446 448.9 439.9 435.1 428.2 420.5 405.6 396.4 391.8 392 386 374.8 368.6 365.5 366.3 362 349.9 342.2 335.5 334.3 334.7 336.3 339.5 346.5 351.6 357.3 357 355.6 356.4 357.9 359 356.4 354.7 353.3 351.3 351.3 352 348.7 346.6 345.1 343.9 346.1 349.7 352.6 361.4 360.9 360.3 361.7 360 353.5 349.4 343.7 339.9 336.2 332.4 325.3 318.2 305.5 303.3 303.8 303.2 300.8 296.7 293.7 288.9 281.5 276.4 273.5 271.5 259.6 253.4 252.8 250.3 247.2 241.7 236.2 232.4 230.1 228.2 224.4 218.6 210.9 204.4 198.2 191.7 183.3 172.6 164.2
360.9 370.3 375.2 381.2 387.1 397.3 398 406.1 412.5 421.2 430.6 439.5 447.1 455 461.9 469.1 479.3 494.9 513.4 536 555.8 573.5 593.4 613.1 630.1 650.7 660.8 662.7 658.4 660 666.9 679.7 690.9 699.3 709.5 716.8 724.9 732 738.1 744.5 752.6 757.5 763.2 769.3 778 788.9 798.9 810.8 824.2 838.1 849.7 844.1 822.4 798 774.7 763.9 746.1 733.3 718.5 698.2 699.4 687.8 669.8 646.1 619.8 597.2 585.7 561.2 546.5 537.9 534.4 533.6 534.7 534.3 538 548.5 562.1 572.4 579.8 592 604.5 623.3 635 649.9 654.7 650.2 640 633.2 620.2 601.1 582.9 565.8 517.7 460.4 419.8 395.6 389.3 387.7 385.8 384.4 387.9 387.9 392.1 401.4 406.4 412.9 420.6 425.6 430.8 439.3 442.9 447.5 453.2 453.6 448.4 441.4 432.6 422.8 414.9 411.7 408.4 403.8 399.5 390.1 380.8 377.9 375.6 366.5 353.1 341.3 335.2 333.8 334.8 335.2 337.3 344.9 350.3 355 356.2 355.5 355.5 356.8 355.9 355.2 353.4 352.4 351.3 351.3 349.8 345.3 340.4 341.3 339.5 342 348 353.3 362.3 357.5 356 357.3 355.7 347.1 343.7 338.6 332.7 329.7 322.2 314.9 306.4 299.8 296.3 298.4 296.3 291.3 291.4 288.5 279.9 270.9 268.1 263.2 262.2 255.2 248.9 247.6 244.6 241.3 233.9 227.7 223.9 221.6 219.3 216 209.1 201.5 194.8 188.5 182 174.4 165.1 158
347.9 355.1 360.8 367.7 373.8 381.7 383.7 391.4 394.9 404.7 412.8 420.9 428.6 438.5 447.9 461.5 471.5 486.8 506.1 527.7 552.1 570.9 588.7 607.3 620.7 638.1 654.3 660.5 661.2 661.7 667.9 678 686.9 694.3 703.3 710.8 717.7 725 731.7 741.7 750.3 757.4 762.9 771.7 780.4 790.3 800.8 813.2 828.7 843.5 850.5 834.5 808.7 788.7 762.4 741.4 723.2 705.5 685.4 670.7 663.8 652.5 643.7 635 616.8 597.1 583.8 566.7 549.6 543.1 535.8 532.8 532.2 530.7 532.6 538.1 545.5 556.1 562.6 566.2 575.8 582.9 593.1 606.4 618 629 625.4 619.7 609.9 591.3 571 558.6 518.7 466.6 423.8 395.7 387.4 384.7 385.9 387.4 387.9 387.9 390.7 400.2 406 413.7 420.1 425.8 433.9 443.3 448.5 455.6 458.1 456.8 452.7 446.2 437.4 429.5 425.6 428.8 425.2 418.5 410.7 403.4 395.1 392.1 390.2 373.9 350.8 340 333.9 333.3 333.2 334.7 335.5 342.5 349.6 354.1 355.1 354.5 353.4 354.3 353.7 352.4 351.9 353.3 352.1 349.5 345.2 337.7 332.2 332.9 334.6 339.3 345.6 352.7 355.2 353.2 351.9 350.4 349.1 341.3 337.8 332.5 326.9 323.1 312.2 304.3 294.6 295.6 292.1 288.7 286.9 285.1 281.9 278.3 270.2 263.7 260.4 256.1 252.3 247.2 243.5 240.4 236.6 232.2 225.7 217 215.1 210.6 208 205.6 197.7 190.7 184.3 179.2 175.1 169.1 163.1 153.7
324.3 328.2 336.2 348.2 361.7 365.1 368.4 377.9 386.8 395.1 401.4 410 420.9 431.3 443.3 454.6 466.2 479.9 499.4 523 547.6 564 582 598.5 611.9 624 639.2 651.2 656.2 662.8 668.4 674.1 681.3 688.1 693.7 698.8 706 713.9 724.6 736 746.1 755.2 763.3 770.8 779.1 788.6 800.5 814.6 830.9 845.9 846.4 839.5 807 776.6 745.3 717.4 696.5 671.8 654.2 642.1 636.8 624.7 614.4 610.8 607.6 597.9 587 577.3 555.4 545.3 537.2 532.6 529.6 527.1 527.2 529.2 534.2 539.8 544.9 550.2 555.3 560.7 567.2 573.7 580.6 586.2 594.7 597.1 593.1 577.8 559 545.1 515.2 461 426.5 397.9 386.1 381.7 382.7 384.2 386.2 387.1 389 398.1 407.2 414 420.2 427.9 437.5 446.5 455.3 462.8 462.6 461.3 458.1 448.5 444.5 439.4 439.3 438.4 433.8 426.3 423.5 422.8 415 408.7 405.2 383.9 358.2 340.4 334.5 333.1 336.5 335 335.1 339.9 345.8 351.6 354.6 353.8 351.5 351.4 352.3 350.6 351 351.9 349.4 348.5 344.8 334 327.3 325.1 329.6 337.4 343.2 351.3 351.6 347.3 346 343 340.4 333.5 329 323.5 317.6 310.2 302 294.1 289.3 290.9 284.4 279.3 278.7 276 274.3 268.2 261 255 253.1 248.3 240.9 237.6 234.8 230.7 227.3 223.4 216 209.3 205 200.8 196.5 192 187.2 180.8 176.2 171.4 168 162.7 154.7 145.6
324.3 334 337.6 334.7 342.3 353.4 360.7 364.2 377.4 390.9 400.5 408.5 418.4 427.7 437.2 451.9 461.8 476.3 490.7 514.2 539.2 557.7 571.2 587.2 601.3 611.8 623.2 634.6 644.9 652.9 658.3 665 671.5 677.4 683.5 688.9 695.7 704.1 714.4 726.7 740.2 749.9 757.5 765.6 774.9 784.9 796.2 812.6 829.6 845 852.9 843.9 819.2 780 744.2 716.4 688.2 660 642.6 628.6 617.1 608.2 604.6 602.9 593.1 584.6 578.7 562.8 548.6 540.4 534.2 530.4 526.4 514.7 520.8 522.9 526.3 528 530.2 534.3 539.9 546 551.5 555.5 558.6 561.7 568.6 571.5 571.7 563.1 548.4 533.8 509.3 454.5 419 393.8 384.9 382.3 380.4 383.3 383.1 385.8 389.6 399.6 409.8 414.5 423.1 431.9 439.4 448.5 459.6 469.3 468.9 465.5 465.5 455 450.2 451.2 449.2 446.1 442.2 444.3 444.4 439.2 431.7 417.9 409.9 390.8 360.9 349.2 337.4 333.3 334.7 335.1 336.1 339.1 342.3 347.9 351.1 351 349.5 347.8 348.3 347.2 347.1 348.9 347.9 345.2 336.5 330.3 326.2 322.3 326.4 335.5 341.2 343.1 344 343.2 341.8 334.5 331.3 324.8 318.8 314 308.4 301.6 293.3 285.7 283.6 282.7 278.3 275.5 274.4 270.2 268.4 259.8 254 248.8 244.6 239.1 232 226.3 223.8 219.6 214.8 211.2 207.4 200.6 193.8 189.4 184.9 180.6 176.3 172.6 166.4 162.5 156.6 153.5 145 136.1
338.9 346 351.6 355.3 355.2 353.8 354.3 360.6 376.5 384.1 395.2 406.6 415.6 423.4 433.2 444.4 457.7 470.2 482 503.8 527.3 548.4 561.7 574.6 589.3 600.1 612 620.9 630 635.8 642 648.3 655.7 662.8 672 678.8 684.5 691.8 705.2 716.9 728.1 740.4 748.6 756.8 766.6 777.3 791.8 809 826.2 842.4 857 858.5 832 797.8 771.2 747 719.5 683.1 662 639.3 621.1 604.1 591.4 585.5 573.6 562.6 554.8 540.7 534.3 528.5 526.1 521.7 518.8 517.6 495.4 515.7 516.1 518 519.5 520.6 525.8 531.8 536.8 540.9 544.1 545.8 547.6 550.1 550.7 545.4 533.4 518.1 500.5 445.3 408.1 391.5 384.9 379.7 379.4 382.2 386.2 388.3 391.8 404 411.7 417.6 425.8 435.7 442.6 451.1 463.3 472.8 473.6 477.1 469.4 463.4 460.3 457.2 458.7 464.4 464.1 463.8 458.9 452.6 437.4 422.5 407.3 388.7 368.5 355 340.3 332.9 333.9 336.3 334.9 336.6 340.9 345 346.1 346.5 345 344.3 342.4 340.9 341.7 343.9 344.6 341.8 334.2 330.1 323.9 320 321.2 328.9 333 333 332.4 336.2 334.1 328.6 322.9 319.1 313.4 308 302.8 295.7 288.8 281 279.3 279.1 276.1 269.8 265.5 262.2 263.2 255.3 246.3 240.5 233.9 226.4 222.2 212.4 211.9 208.8 203.7 200.1 195.9 189.4 184.5 178.9 175.1 169.6 167.2 161.6 157 151.3 144.7 141.7 138.3 135
347.6 356.8 361.5 366.7 368.8 370.1 365.9 366 367.4 376.4 388.4 399.4 407.4 416.4 430.7 440.7 452.2 462 475.2 493.5 515.1 534.6 549.2 560.4 573.1 584.7 597.5 607 615 620.8 625.5 631.2 637.8 646 653.9 661.1 669.8 679.3 691.1 707.8 719.2 728.8 736.6 746.9 757.4 770.8 786 804.6 820.1 838.2 854.4 867 853.7 823 796.8 775.2 750.2 716.5 691.9 667.9 639.2 610.9 586.8 568.1 555.3 544.1 535.7 527.3 519.5 511.9 508.4 508.3 505.1 504.7 486.7 502.6 505.3 506.5 507.6 508.4 512.2 517.2 521.6 526.6 529.8 531.8 532.7 532.6 530.1 525.9 516.6 502.1 485 445.5 399.6 383.1 379.1 375 378.9 381.8 385.1 388.4 395.4 405.3 412.6 421.1 429 440.9 448.2 454.6 466.3 475.2 483.6 483.1 477.6 470.3 470.2 468.1 475.9 478.8 479.8 479.2 470.5 453.1 440 422.6 403.4 382.2 369.6 359.2 342.8 334.4 333 334.7 333.3 334.6 336.4 338.4 341.1 342.3 342.2 340.6 336.4 333.3 330.9 336.2 337.7 336.2 331.3 326.9 321.8 317.9 316.7 319.6 322.1 322.6 322.3 326.3 323.9 320.9 316.2 312 308.5 301.3 297.5 287.3 281.6 276.8 276.3 272.6 268.5 260.3 258.3 255.2 254.6 246.5 241 232.1 224.8 217 210.9 205.2 199.2 198 191.6 188.4 184.9 178.2 174 166.7 164.7 159.9 156 151.5 147.4 144.9 140.8 138.8 136.5 135.8
360.8 363.2 372.1 378.4 383.1 383.1 384.1 381.5 380 377.8 382.3 392.3 400.6 407.7 420.9 433 445.6 458 471 485.1 502.3 519 532.4 546.2 555.9 567.9 579.9 591.5 599.5 605.3 609.9 613.5 619.5 626.3 633.8 641.5 652 661.9 677 691.7 704.7 714.4 724.3 733.4 747 761 779.9 798.9 816.3 832.2 850.2 864.4 872.9 845.5 819.7 792.2 766.2 736.4 714.8 697.3 665.7 623.8 603.4 584.3 566.8 555.5 533.6 519.6 509 495.8 487.6 479.7 478.1 479.9 461.8 483.9 484.5 488.5 491.3 494.5 497.6 500.7 505.4 510.2 513.2 514.2 514.7 513.4 510.3 505.3 496.8 484.7 467.1 430.1 389.4 377 374.2 373.1 376.3 380.6 386.1 390.2 398.7 406.4 415.9 424.3 434.2 444 451 459.3 469.6 477.6 485.8 485.9 482 481.7 483.9 483.8 489.2 491.9 493.2 489.6 474.6 456 443 424 401.2 386.9 373.5 360.7 344 334.5 330.5 330.4 330.8 330.7 331.5 334.1 336.3 337.1 338.5 338.1 334.1 328 319.9 321.8 328.6 329.8 326.8 323.1 318.5 314.9 312 311.3 311.5 314.2 311.2 315.2 313.7 312.7 309.2 303.8 300.3 294.6 288.8 279.2 274.7 271.1 268.1 264.7 259.6 251.9 251 247.2 245.6 238 228.7 221.8 215.1 206.4 200.8 198.1 193.8 190.8 182.6 177.7 172.1 169.3 167.5 162.1 158.6 154.2 153.8 147.3 143.2 140.5 141.8 139.2 140 136.4
369.9 375.5 384.4 390.7 394.6 397.2 396.4 398.3 396.6 396.2 395.6 392.1 393.2 405.2 417 421.7 431.7 445.2 458.3 473 488.2 504 517 528.5 538.4 548.8 560.1 570.3 581.3 588.7 593.8 597.5 598.3 598.6 601.8 613.2 628.6 646.2 662.9 677.3 691.6 702 709.7 723 737 755 773.4 791.8 812 826.7 844.5 858 868.9 870.6 856.3 833.3 790.8 761.7 734.1 712.6 690.1 664 625.5 601.7 577.6 561 544 529 510.8 494.2 479.6 465.4 451.1 453.9 447.2 456.1 458.8 462.5 468.8 474.2 478.3 482.9 487.3 491.8 495.7 496.5 495.1 493.2 488.9 483.5 475.1 463.5 432.1 399.2 383.9 375.1 371.1 371 375.7 382 387.5 392 400.9 407.4 418.6 427.8 439.1 447.1 454.4 461.9 473 478.7 485.1 487.1 496.6 499.9 504 506.4 511.7 506.9 504.3 492.8 476 456.9 442.5 425.1 405 392.9 374.2 360.2 347.6 332.2 327.9 328 327.5 326.7 326.7 328.3 331.8 332.6 334 332.9 329.3 325.8 318.3 311.9 318.1 321.5 321.6 319.1 315.9 311.2 306.8 305.5 303.6 300.8 300.1 301.8 301.8 303.3 299.2 296.1 288.8 285.7 280.2 270.3 267.8 265.7 260.3 257.7 251.3 243.9 242.2 237.6 232.6 227.7 218.7 213.2 206.1 200.1 192.1 187.7 187.1 179.4 175.7 167.8 165.4 158.3 153.2 153.3 150.2 148.5 145.9 144.2 145.2 144.6 147.7 146 144.6 146.9
380.9 385.6 393.1 398.6 404.7 409 412.8 415.3 416.4 414.7 411.4 409.9 410.1 411.9 409.2 417.7 423.5 433.3 444.7 456.6 470.7 484.5 497.3 508.1 517.9 526.9 537.9 549.5 558.9 566.1 571.9 571.6 570.6 571.7 579.7 592.1 608.2 628.1 646.6 662 674.7 685.1 697.5 714.3 731.9 748.9 769.7 787.6 806.1 822.5 837 849.9 859.8 862.9 852.1 837.3 817.3 800.6 766.6 747 709.7 679.6 643.7 619.5 593 574.6 559.2 545.9 533 513.2 481.9 458 439.6 438.2 439 430.9 431.4 434.6 440.6 448.5 456 459.9 464.5 469.3 471.6 472.8 471.6 470.9 467.5 461.6 452.9 434.7 412.1 391.9 379.3 373.3 367.7 371.3 375.8 381.1 389.6 395.7 404.1 412 423.3 430.9 441.8 449.9 457 464.3 475.1 482.8 485.1 499.4 511.7 516.5 523.7 527.3 527.7 519 510.5 496.1 477.1 460.5 445.1 430.1 411 398.8 381 363 349.6 334.3 328.6 326.5 326.2 323.6 322.6 325.2 324.8 324.6 325.8 324.1 322 317.6 313.1 309 309.3 312.9 311.9 312 310 306.3 302.1 296.8 295.1 292.7 290 291.1 289 291 290.3 286.4 278.7 276.3 270.1 262.7 261.1 260.2 253.9 249.8 242.9 234.4 231 228.3 220.8 216.6 209.1 204.9 199.4 192.3 186.6 177.8 173.2 170.7 168.7 160.6 156.2 152.8 150.8 148.9 147.4 145.9 148.6 148.9 149.9 152.9 153.7 151.3 150.2 155.1
394.5 396.1 399.6 406 411.4 418 423.1 427.8 431.7 433.5 432 427.1 420.5 422 425.6 426.8 434.2 439.1 452.4 453.9 456.6 465.5 475.9 486.7 496.2 506 515.7 524.5 534.4 536.9 541.5 543.2 556.3 565.1 571.6 586.5 599 615.2 633.1 647.2 661.4 674.6 690.3 705.7 725.8 745.2 765.3 782 798.7 815.3 828.6 839.5 847.1 849.7 843.8 831.5 815.7 801.2 785.5 768.8 738 705.3 669.4 642.8 613.6 596.2 585.8 568.6 551.8 528.5 500 478.2 449 431.6 425.4 422.1 417.2 415 416 420.6 429.5 437.9 443.9 447.5 449 447.9 447.2 448.6 447.8 443.3 430.7 411.9 395.7 378.7 372.9 369.7 368.3 370.9 377.1 386.4 392.2 398.9 407.5 417.9 425.8 434.7 445.6 453.3 460.4 468.2 476.7 487.1 493.6 514.1 528.8 531.3 538.7 538.8 534.2 523.3 513.3 501 480.6 464.7 452.3 438.5 420 401.1 381.8 366.3 347.5 337.2 330.6 327.8 325.3 319.5 318.3 317.8 317.7 317 316.2 313.8 311.2 307.8 307.8 305 301.8 303.8 301.2 301.1 300.6 299.2 296.2 291 285.1 282 278.6 279.8 278.1 279.2 278.7 273.1 270.3 266.3 262 257.2 252.9 248.7 245.6 242 235.7 227.9 224.5 220.5 211.9 204.6 197.8 195.9 191.5 183.7 177.2 172.4 166.3 158.5 159.8 154.2 152.9 150.8 149.6 151.3 151.8 151.7 152.2 155.4 162.2 160.6 162.1 157.5 160.2 162.2
406.2 407.6 410.2 415.7 420.4 426.7 431.8 437.3 443.6 447.9 448.7 446.9 442.3 438.1 438.6 440.8 443.3 452.4 460 463.3 466 472.9 475.6 477.9 483.8 491.4 499 507.8 515.5 526.4 540.4 555.7 568.3 577.4 582.3 590.5 597.3 612.4 623.4 635.7 650.9 667.3 683.3 701.4 721.5 741.3 759.1 777.2 791.4 805.9 817.6 826.7 832.6 834.8 831.1 821.2 808.9 798.4 783 768.7 753.4 729.5 699.8 666.3 650.7 617.9 600.6 585.7 566.4 547.5 529.1 501 478.4 465.9 435.7 416.1 408.5 402.7 397.7 399.4 404.6 410.6 420.5 429.7 431.8 432.1 430.2 430.9 429.8 424.1 408.8 393.7 385 376.5 369.6 364.5 365.7 372 378.5 389.1 394.6 399.5 411.1 420.4 429.9 439.6 448.8 456.4 464.5 472.9 480.8 490 505.8 527.8 538.2 543.1 544.6 544.7 540.5 536.4 521.3 505.3 487.4 478.2 466.9 456.2 434.2 411.1 392 375.8 357.6 342.5 335.9 328.5 323 313.6 312.2 310.4 309.4 310.4 310.1 308.7 305.1 301.8 301.1 298.7 295 292 290.5 290.6 291.7 289.6 286.1 282.1 275.7 272 269.6 268.6 267.1 267.6 266.7 261.4 260.9 254.6 253.5 250.4 246 240.4 237.6 234 228.8 223.4 215.6 211 201.1 193.5 188.7 183.8 177.8 173.2 167.9 165.1 159.3 156.2 154.3 151.9 151.6 152 155.3 156.5 156.7 158.2 160.3 165.3 170.5 169.6 170.9 164.8 168 170.8
418.3 420.9 421.8 425.1 430.6 436.6 442.4 449.1 455 461.1 464.7 464.2 459.6 454.2 453.8 456.1 456.7 458.4 464.6 470 472.9 480.2 483.9 488.8 494.9 499.1 507.5 514.4 522.2 535.9 549.2 563.5 575.2 584.9 595.4 605.9 611.1 615.7 621.6 634.3 648.3 662.6 680.3 701.1 717 736 753.7 768.8 782.1 794.5 805.7 813 817.4 817.7 815.5 809 799.9 791.6 777 766.6 752.9 735.4 714.9 686.5 665.7 643.2 625.8 601.2 584.2 561.7 541.2 523.9 512.8 502.7 483.2 441.8 412.6 403.9 388.9 386.2 388.9 391.7 399.6 408 415.6 416.4 414.7 413.7 410.3 402.2 392.6 381.4 376.1 370.1 365.3 364.8 364.7 369.7 380.6 390.4 396.9 401.9 413.9 423.9 434.2 444 452.5 457.9 467.3 477.6 487.2 508.4 518.9 533.6 543.3 546 549.6 550.6 550.4 540.5 532.9 519 505.7 492.5 483.8 468.2 457.7 434.5 419.7 389.9 367.4 350.7 344.9 338.6 327 316.3 311.3 306.5 304.4 305.4 306.8 305.9 302 297.1 293.5 291.6 290 285.4 280.2 280.8 278.7 277.5 275 271.8 268.2 260.1 256.8 257.7 258.7 257.5 257.1 252.5 252.2 245.2 241 241.1 234.8 233.5 229 224.1 219.3 212.3 206.4 199.5 195.2 188.7 181.1 181.8 175 170.5 163.1 158.9 156.8 155.2 152.9 154.3 155.1 156.9 159.9 166.7 164.9 168.2 173.2 174.9 176.7 179.7 175.5 176.6 179.1 180.2
430.6 433.4 435.8 438.4 442.7 449.1 454.9 461.6 470 477.7 481.6 481.5 479.2 472.7 466.3 461.1 464.6 462.1 464.6 469.7 474.4 484.9 492 499.6 502.9 507.7 514.2 522.4 529.9 542 554.1 569.3 579.8 591.8 609.9 620.9 627.6 631.2 631.2 637.4 648.7 661.3 677.1 695 713.3 731.7 746.7 761.3 772.2 782.9 792 797.9 800.7 800.5 797.3 790.7 784.1 776.4 767.7 760.3 749.9 732.1 718.5 703.1 684.3 660.4 640.9 619.4 598 575.1 556.1 552 542.8 531.6 518.9 492.6 471.4 425.8 397.6 382.3 376.8 380.3 384.4 389.6 394.7 396.8 396.9 395 392 383.5 375.8 370.5 368 364 362.3 364 365.4 372 383.4 392.2 400.6 406.3 416.3 426.3 437.1 446 454.7 460.7 472.4 484.4 497.3 515.1 532.7 537.2 543.5 547.9 551.9 554.9 549.7 539.5 530.4 523.6 512.8 500.4 494.3 479.7 468.7 454.3 439 415.8 388.7 363.5 352.6 346.2 336.9 322.4 314 307.9 305.3 300.6 302 301.3 297.3 291.8 287.2 282.7 281 278.7 271.4 265.8 266.5 266.7 263.1 260.8 257.3 252.3 244.2 244.4 246.8 247.1 246 241.6 239.6 236.8 230.2 230 226.3 221.9 220 212.2 205.6 201.2 199.7 194.3 185.5 182.4 176.6 171 169.2 163.4 160.7 157.5 155.7 154.7 155.3 162.8 161.3 163.1 166.8 173.9 175.4 177.8 182.9 187.8 188.9 185.3 182.1 183.8 187.9 187.1
441.8 445.7 449.4 452.3 455.8 460.6 467.3 475.4 484.8 494.1 497.3 498.3 497.3 491.3 480.3 471.7 470.6 467.1 464.9 470.8 475.2 486.3 494 503.8 512.2 521.5 527 531.7 537.2 547.4 561.2 579.5 591.6 609.5 626.4 634 640.2 642.1 643.9 647.6 653.8 664.7 678.3 695.6 709.8 726.1 742.1 752 763.5 771.9 778.6 783.1 784.2 782.9 778.8 773.5 765.6 759.3 753.8 747.9 740.6 731.9 724.3 717 707.7 684.6 663.3 643.7 624.6 601.8 582.8 566.9 555.8 549.1 530.3 509.8 492.1 464.9 433.1 392.6 371.9 371.8 371.9 373.9 376.5 379.2 378.1 379 375.7 372.1 368.2 363.6 360.4 358.6 360.3 364.1 365.9 375 381.6 391.1 400.7 409.9 417.1 428.7 438 447.3 457.1 465.5 476.1 489.9 505.4 523.4 535 539.2 543.2 546.2 549.6 551.1 544.1 536.2 527.1 520.9 512.8 506.7 498.6 487.6 477 466.8 449.8 428.4 403 376.8 361 350.4 337.9 334 321.4 307.4 302.5 300.3 297.2 295.6 290.4 284.4 280.8 275 273.3 267.3 263.4 257.9 253.6 253 251.9 248.9 246.4 241.8 237.1 232.4 234.8 232.8 234.9 232 227.7 224.5 222.9 221 216 210.6 209.9 202.9 197.9 196 193.5 190.4 180 177.3 169.4 170.3 162.3 160 157.3 157.3 155 162.5 168.4 169.5 172.1 174.7 180.6 184 185.3 192.5 194 194.5 196.9 188.8 190.4 191.4 193.2 188.8
451.7 458.3 463.6 467.4 469.8 475.2 483.3 491.3 501.2 509.8 513.6 514.8 515.8 512.6 502.9 494 484.8 477 473.8 476.3 480.5 493.2 504.1 511.1 516.1 525 529.7 535.1 546 557.5 576 598.2 611.3 626.5 635.2 642.7 649.7 655.6 659.2 661.6 666.8 672.8 685.4 698.1 708.6 723.2 735.1 745.5 752.9 760.5 765.9 768.2 766.5 762.8 758.6 751.1 745.6 741.5 737.3 734.1 731.8 728.7 722.4 715 706.5 693.5 679.5 663.3 643.3 626.4 605.3 588.6 568.8 558.9 547.8 526.9 509.6 471.6 446.8 418.1 369.6 356.1 360.3 362.2 361.9 363.4 364.5 364.5 364.1 363.7 360.9 356.5 356.5 356.9 360.3 363.6 370 377 387.3 396.2 402.7 410.8 419.7 430.5 440.4 450.2 460 470.2 483.4 495.8 511.1 528.4 535.5 539.4 541.4 543.7 544 541.7 535.6 528.6 523.3 518.3 513.7 507.6 500.4 492.7 482.5 472.9 460.1 434.9 409.6 388 371.5 356.7 340.1 342.7 324.2 304.9 297.6 295.7 284.9 287.1 281.8 275.5 272.9 266.1 263.8 258.2 252.3 249.9 245.5 243.1 241.3 239 234.7 230.6 228.2 225.4 221.2 223.8 220.4 220.2 218.3 213.8 214.5 215.1 208.9 201.2 198.3 196.1 189.6 187.3 181.1 180.4 171.2 171.7 168.7 159.9 159 156.3 156.3 156.4 161.9 173.3 177.9 180.1 181.3 186.8 191.5 193.1 198.5 206.4 205 197.3 198.8 195.1 198.8 202.2 194.8 188.6
459.7 469.1 476.2 480 484.6 491.9 499.1 507.9 518.4 526.8 532.1 533.5 538.6 534.6 527.2 521.8 516.3 504.5 500.9 503.6 499.6 505.8 517.8 532.2 532.4 532.9 543.5 553.8 566 581.8 605.5 617.8 625.7 633.5 641.6 648.7 656.5 662.5 667.2 671.6 677.6 683.4 689.4 697.8 707.3 719.1 729 737.7 744.5 749.3 752.5 753 750.4 741.4 735.7 730.1 725.2 722.6 722.1 723.3 720.9 716.7 710.7 703.5 695.9 685.9 672.9 660 645.5 629.9 611.4 596.1 586 568.4 554 533.6 511.5 477.5 446.5 413.9 364.1 355 347.6 349 351.2 351.6 354.6 354.6 353.5 355.7 355.3 354 352.9 357.6 361.5 366.7 377.2 385.1 392.5 400.3 404 411.7 422.3 431.8 442.1 453 463.3 476.9 488.9 503 515.4 528.1 535.5 538.7 537.8 540.1 537.9 532.6 525.2 522.1 517.9 514.4 512.8 506.2 500.6 491.7 484.4 477.5 460.9 437.3 415.2 397.5 373.3 361.1 345 327.2 317.5 298 291.5 288.3 281.1 258 273.4 269.3 265.6 259.9 251.9 249.3 243.7 242.3 238.4 236.9 233.2 231.4 227 223.2 220.1 217.5 215.5 211.9 208.2 208.7 209.3 208.3 204.7 204.8 201.2 194.8 190.4 186.3 182.4 179.6 174.3 174.1 166.7 163.4 158.6 157.4 157.7 156.9 163.5 170 169.7 174.6 188.6 186.5 190.5 197.9 204.7 206.5 211.8 208.5 205.6 208.1 202.1 201.3 206.9 203.8 197.4 191.6
466.2 478.8 486.5 491.4 499.3 507.5 516.4 525.4 533.8 541.7 548.5 553 556.5 555.8 552 552.4 550.2 539.8 529.9 541.9 534.8 540.7 544.1 551.8 551.9 555.4 572 581.4 598.2 614.4 620.4 626.4 631.9 638.2 644.9 651.8 659.1 665.9 671.9 677.2 681.3 685.4 690.2 697.2 704.6 714.4 721.9 728.8 732.9 735 736.9 737.3 733.8 727.4 721.4 716.3 710.8 708.9 708.3 708.1 707.6 705.6 698.1 692.2 683.6 673 660.5 650.4 637.7 627.3 612.4 600.3 585.9 575.3 552.1 524.2 498.5 471.6 440.2 394.9 348 344.9 342.4 341.1 340.5 343.6 347.5 347.6 347.1 348 350.4 351.7 353 359.9 365.8 369.3 377.5 387.4 394.7 400.7 407.1 415.5 424 433.6 442.9 454.7 466.5 480.7 495.9 507 518 527.1 535 537.4 535.5 534.5 532.3 523 516.7 513.2 509.6 509.8 507.6 501.4 497.5 488.4 480.9 476 458.4 435.9 415.8 398.5 377.3 357.1 337.4 316.3 304.7 289.8 283.3 278.8 270.1 258.9 265.4 259.3 249.9 248.3 243.9 241.3 237.3 232 231 228.7 226.6 224.2 220.5 217.9 214.4 211.5 208.7 205.2 204.1 200.2 199.6 198.6 197.2 197.1 193 189.7 185.1 181.3 175.3 171.6 169.1 164.6 159.3 158.4 158.5 159.4 159.6 168.6 174.4 176.5 175.7 178.9 189.7 201.3 206.1 212.7 214.8 216.9 216.5 212.1 212.2 209.6 207.5 207.4 210.5 206 198.8 192.4
472.5 485.8 496.4 503.6 512.6 523.3 532.4 541.6 548.3 556.7 562.3 567.6 571 573 576.3 579.9 582.5 581.3 570.6 573.6 576.7 579.8 577.8 581.9 589.8 594.6 607.7 615.6 622 626.2 629.2 631.4 633.9 638.9 644.6 652 657.9 665.7 670.8 678.7 682.6 685.7 687.9 694.1 702.1 708.8 715.1 719.8 722.6 724.8 725.4 725.6 723 719.9 714.1 705.6 702.9 698.5 698.3 696.9 696.4 690.9 685.9 680.1 672 662 650 641 632.1 622.2 608.7 597.4 586.8 563.3 535.6 511.1 492 454.5 413.1 367 338.3 336.3 338.3 336.7 336.2 337.1 341.5 342.5 341.8 345.3 347 346.8 353.5 362.3 366.1 375.5 382.3 389.6 395.3 400.9 408.6 417.6 425.1 433.4 443.8 454.9 468.7 484.2 499.3 510.1 519.8 525.9 532.9 538.3 537.4 527.3 524.5 516.2 512 507 504.7 501 496.8 494.2 490.4 482.6 475.1 467.8 455 432.7 412.1 392.2 377.2 355.8 332.4 305.4 291.4 278.6 271.3 267.4 256.6 248.3 249.8 242 237.8 234.7 229.7 229 224.7 221.6 222.8 221.7 218.4 217 216.3 212.3 206.5 202.8 200.6 200.2 199.8 195.8 192.7 191.1 188.9 187.1 183 178 176.1 174.1 169.7 170.1 163.9 160.8 160.6 159.9 160.5 164.6 170.2 175.3 179.4 184 184.8 185.6 195.3 206 218.3 222.3 222.4 225.3 222.7 218.7 216.4 216.8 212.8 212.5 212.7 209 201.5 194.6
