ncols 200
nrows 85
xllcorner 310000
yllcorner 352750
cellsize 50
177 175.9 173.2 170.3 163.8 165.4 165.1 165.2 163.1 160.1 158.3 153.4 150.9 149.2 145.1 139.5 133.2 115.2 93.5 104.2 106.5 106.3 105.7 113.3 121.8 135.6 143.9 144.8 144 144.6 147.3 144.1 139.7 135 129.4 119.5 112.5 105.6 99 91.8 81.9 79.9 76.5 66 64.6 64.7 64.2 61.4 61.8 61.7 61.4 62 62.4 64 63 62.7 63 63.8 70.5 74.2 74.3 76.7 78.2 79.3 79.4 79.4 79.5 79.7 80.5 80.4 80.4 79.5 77.2 74.5 73.6 73.5 72.9 72.3 72.9 72.1 72.2 74 76.1 77.6 78.6 78.6 78.9 79.5 80.8 81.3 82.8 83.8 84.8 85.3 87.4 88.9 91.9 96 100.5 104.1 108.2 112.3 116.3 124.1 130.5 138.2 146.8 156.8 165.5 181.5 197.1 214 231.7 246.5 255 260.3 274.9 285.7 291.4 297.1 300.7 305.8 304.8 307.4 308.5 308.3 302.7 297.3 291 286.6 282.3 281.3 279 278.5 276.1 277.5 285 311.4 339.6 367.8 392.8 396.4 397.7 394.4 392.3 385.2 377.2 378.6 374.9 380 384.1 382.3 377.9 372.2 363.5 355.3 342 335 328.1 320.2 314.5 307.6 298.2 292.4 289.3 287.4 282.2 276.1 265.9 257.2 247.2 241.7 235.5 225.3 229.8 233.4 231.9 229.9 223.1 219.3 217.7 218 220.6 223 227.3 230.1 233.1 235.6 239.6 246.3 250.2 259.6 264.4 267.7 270.6 277.3 280.1 289.1 291.8 297.6
184.4 180.7 178.4 172.4 169.7 171.1 170.8 170.6 167.5 164.5 160.5 154.9 153.8 151.6 146.2 138.7 130.3 112 95.6 106.1 107.3 109.1 110.9 115.4 120.3 128.6 138.6 136.9 141.4 146.3 146.2 145.4 140.5 137.3 132.8 123 117.2 109.3 101.5 97.2 86.1 82.8 79.6 67.6 64.5 64 63.4 61.9 61.5 61.9 61.2 61.9 62.4 64.4 64 63.5 63.2 63.8 67.2 71.3 73.6 75.2 76.9 77.6 77.8 77.7 78.5 78.8 79.4 79.6 79.3 78.5 76.1 74.4 73.8 72.8 72.6 72.6 73.4 72 72.8 74.7 76.9 78 79.2 79.8 79.5 79.6 81.3 82.1 83.3 84.5 85.3 86.6 87.7 89.2 92.4 96.8 101.2 105.6 109.1 113.1 118.1 123.4 130.1 138.1 145.9 154.6 163.1 180.3 196.8 206.2 223.3 238.3 248.3 255.6 274.4 284.6 291.7 301.4 307.7 314.1 313.9 315.9 312.6 313.7 308.7 306.3 303.2 298.6 295.7 294.3 291.7 288.2 287.1 285.4 291.4 306.1 334.2 364.9 388.9 397 401.6 401.6 400 397.6 393.6 392 387.7 388.6 387.5 384.5 379.6 372.3 362.7 352.7 342.6 332.5 325.4 317.5 308.6 299.2 290.6 286.9 283.3 278.7 275.4 272.3 262.9 251.1 239.9 237.7 233.4 229.7 235.3 235.9 232 230 223 222.4 218.8 218.8 220.8 226.5 230.6 234.3 241.2 244.8 241 245.6 250.8 259.2 264 266.4 269 274.6 278.9 286.4 290.2 298.7
189 183.4 178.9 172.4 178.2 178.7 177.6 175.5 171.9 168.7 164.3 158.2 156.6 153.5 144.7 135.6 126.8 108.8 96.2 109.4 113.2 115.8 115.6 117.4 122.9 130.5 136.5 135.7 138.1 139.6 143.5 144.5 142.2 139 133.6 128.7 119.3 113.9 104.6 100.1 91.4 85.2 77.2 68.1 66.3 62.7 62.5 62 61.7 62.1 62.1 62.6 62.8 65 64.7 63.5 63.3 63.7 65.6 70.5 72.9 74.1 75.7 76 76.1 76.8 77.6 77.9 78.4 78.3 77.9 77.6 75.2 74.2 73.6 72.9 73.1 73 72.9 72.9 73.3 75.4 77.7 79.1 79.8 80.5 80 80.3 81.2 82.3 83.4 84.4 85.4 86.8 88.9 89.8 89.9 93.9 98.5 104.4 109.8 114.2 119.9 125 130.3 137.7 146.7 153.9 162.8 172.4 187 197.7 209.2 221 232.2 242.7 260.9 275.8 288 293.8 306.5 312.2 314.4 314.1 311.9 310.4 304.3 301 300.2 299 301.3 303.3 303.7 305.6 304.7 300.3 305.7 315.8 338.9 367.3 398.2 403.7 404.3 403.8 400.5 395.6 387.5 385.2 379.2 377.4 376.2 372.6 368 361 353.3 344.7 335.9 328.3 320.7 312.2 299.6 290.4 285.1 277.8 272.6 268.3 266.4 261.2 253.9 245.1 235.5 233.1 230.4 231.4 234.6 233.8 227.7 225.1 225.1 224.7 220.3 218.1 225.1 230.7 233.7 238.6 242.2 243.7 242.8 243.9 250.5 257.2 262.2 264.3 267.1 272.7 276.7 282.5 286.4 293.8
189.4 183.1 176.8 179.7 185.4 185.5 183 178.8 174.1 170.1 165 161.2 157.7 153.3 142.8 133 120.6 102.2 106.6 112.8 115.5 117 117.1 118.8 124.2 131.6 138.7 138.6 141.2 141.2 140.6 141.5 139.9 138 134.8 131.7 121.8 116 109 103.9 96.2 89.4 80.1 69.8 67.8 63.9 62.3 61.9 61.8 62.1 61.7 62.5 64 65.7 65.5 64 63.8 64 67.8 71.2 72.1 73.5 75 75.3 75.4 75.7 76.7 76.9 77.2 77.2 76.8 75.5 75.1 73.8 73.4 73.7 73.3 72.9 72.9 72.6 74.1 76.2 78.7 79.3 80.5 80.7 80.4 80.5 81.1 82.2 82.7 83.8 85.4 87.8 90.5 92.6 93.9 92.6 94.7 101.2 108.4 114.6 121.2 125.5 131.6 139.7 147.8 155.1 163.5 171.8 177.7 183.6 190.7 198.9 209.4 222.4 242 259.9 272.6 280.5 288.9 299.6 307.6 307.3 303.8 299.7 294.6 296.3 296.2 294.1 298.2 304.4 309 315.6 321.4 320.9 330.4 335 354.5 383.7 411.6 413.2 410.7 406.4 399.4 388.7 378.1 368.8 358.8 355.1 354.4 351.2 347.5 343.8 339.1 331 322.7 315.8 310.5 303.4 295.3 283.5 281.4 275.1 267.6 261.4 256.4 249.8 246.1 241.2 236.3 234.1 230.3 230.2 230.6 228.7 230 228.4 230.1 226.6 222 219 226.4 231.9 236.6 239.6 241.4 242.3 242.3 243.7 247.9 255.3 259.9 262 264.8 269.8 273.6 279.3 283.5 290.6
187.9 182.6 178.5 186.7 190.4 189.1 183.3 177.6 172.9 168.3 164.9 159.9 156.9 152.7 140.3 126.6 114 99.9 105.9 117.1 117.1 115.6 114.9 119.8 126.5 133.8 141.9 145.9 147.1 145.3 140.9 141.3 139.1 136.9 134.8 131.3 124.9 117.7 113.1 105.9 100 93.5 81.4 71.8 68 64.6 62.6 62.4 62.1 62.4 62.3 62.9 65.6 66.9 65.9 64.6 63.6 63.8 66 67.9 70.3 72.5 74.1 74.3 74.6 75.2 76 75.9 76.1 76.3 76.5 75.7 74.2 74.1 73.8 73.8 73.6 73.4 73 72.8 74.7 76.9 79.6 80.2 81.6 81.6 81.5 81.7 82.2 82.5 83.9 84.5 86.4 89.2 92 94.2 95.9 97 95.2 97.8 102.6 106.9 114.4 121.8 131.9 139.2 146.9 154.8 162.3 171.1 178.6 181.5 186.2 193.1 198.5 204.7 220.1 239.7 253.7 262.5 262.7 267.7 273.5 275.6 275.2 274.2 274.6 276.8 280.7 289.6 297.5 306.8 316 327.3 334.7 343 352.3 364.5 381.4 402.8 419.3 417.9 413.3 410.2 397.4 385 372 359.5 349.5 342.7 338.3 334.6 328.7 323.6 319.3 313.6 308.4 301.5 293.5 289.6 284.3 275.4 273.1 269.8 260.6 255.3 250.7 246.1 242.5 239.2 237 234.6 231.4 229.7 229.4 234.7 233.9 234.6 232.4 228 223.9 219.3 226.4 230.9 237.9 239 240.9 240.9 241.1 242.8 247.8 253.7 256.6 259.4 262.4 268.8 270.4 277.4 279.9 287.5
186 180.5 183.7 192 192.2 187.6 180.7 174.5 171.3 167.3 162.8 158.9 152.5 147.5 140.2 127.3 115.7 110.8 102.5 102 112.3 114.5 113.9 120.4 128.2 136.9 146.3 152.6 154.2 151.3 148.4 144.1 139.3 134.8 132.4 130.1 127.7 120.5 115.2 109.6 104.1 97.9 82.7 75.1 70.1 65.5 63 62.7 62.5 62.6 62.7 63 66.8 67.4 66.5 64.7 63.6 66.4 69 70.2 70.9 71.7 73.6 74.2 74.4 74.9 76.3 76 75.5 75.5 75.6 74.8 74.8 74.5 74.2 74.2 74.2 74.1 73.8 73.9 75.6 78 80 81.4 82.4 82.8 82.7 82.9 83.5 82.9 83.7 85.4 88 90.7 93.6 96.7 96.7 97.6 96.4 98.9 103.2 109.8 115.7 120.5 133 140.4 146 150.6 160.1 163.2 171.9 180.8 185.4 190.2 196.5 205 213.7 220.1 229.6 238.6 238.9 243.8 246.7 248 247.8 249.6 253.7 258.4 264.5 273.6 285.3 304.8 320.9 333.9 345.9 357.4 373.6 393.3 406.6 419.8 422.9 420.8 417.5 413 404.3 390.4 375.9 362.4 349.2 341.2 335.8 330.6 326 322.9 317.3 314 309.4 303.6 298.7 293.1 285.7 276.9 270.7 264.7 259.4 254.3 251.2 249.1 244.9 239.4 236.6 234.7 233.2 231.6 234 238 241.4 239.9 236.4 230.2 224.1 219 224.3 230.9 239.3 236.9 235.8 236.9 239.3 242.9 244.8 252.8 255.7 256.6 259.7 266.2 271.8 275 276.5 285.3
182.8 181 188.4 193.9 191.2 185.8 178.9 173.6 170.7 166.4 162.2 156.4 152.8 148 140 126.3 122.9 115.6 110.6 109.3 108.9 110.7 108 119 127.7 137.1 151.7 159.5 160.9 155.5 152.6 149.6 141.6 134.6 130.5 129.2 126.3 123.8 117.7 113.7 106.2 101 85.1 78.6 70 66.6 63.4 63.3 63.2 63.3 63.2 64.8 66.9 67.4 65.6 64.7 64.5 65.5 69.3 71.7 72.5 73.4 74.6 74.7 74.5 75.1 76.7 76.1 75.6 75 75.1 74.8 75 74.8 74.3 74.5 74.7 75 74.7 74.7 77.1 79.1 80.6 81.8 83 83.7 84.1 84.4 84.5 83.9 85.3 86.9 89.4 92.1 96.3 99.1 99.4 98.4 96.9 100.2 106.2 113.2 121.6 127.3 136.1 143.1 149.8 155.1 162.2 169.7 177.2 181.7 183.6 186.6 193.3 198.9 205.6 211.3 218.1 224 228.6 232.5 235.7 238.1 239.5 244 249.9 255.4 262.6 270.9 286.9 306.3 325.6 341.5 356.3 372.4 392.6 411.2 426.4 431.5 428 425 418.1 413.2 404.9 394.2 377 364.3 352.9 342.9 334.8 330.1 325.7 321.6 318.6 314.4 310.2 306.1 303.8 298.1 291.2 283.8 273 265.8 261.9 260.1 254 251.4 248.6 242.7 238.4 235.9 234.4 233.8 240.5 242.5 245.1 242.2 237 233.4 226.1 219.7 223.1 229.5 237 233.8 233.2 234.4 237.6 245.4 246.1 251.9 255.8 255.9 257.8 264.2 271.5 274.1 276.9 286.2
185.5 185.2 189.5 192.4 189.7 184.2 178 171.5 168.5 164.8 160.2 155 150.5 146.1 138.4 136.9 129.5 117 113.3 113.2 116.3 116.3 109.3 116.9 126 133.4 155.1 163 165.5 159.6 156 152.1 146.7 139.2 131.9 130.2 128.8 127.8 119.6 112.4 105.6 102.2 88 80.8 73.6 67.5 63.5 63.1 62.9 63.5 63.9 67 67.7 67.4 65.1 64.2 64.5 64.2 70.5 72.7 73.2 74 75.1 74.7 74 75.5 77.3 76.2 75.4 75.1 75.2 75.6 75.9 75.3 75.1 74.6 74.9 75.6 76 75.8 77.6 79.5 81.6 82.9 83.9 84.8 85.3 85.5 85 84.6 86.4 89 90.8 93.6 97.9 101 101.5 99.4 99.4 100.1 106.6 116.4 123.2 129 135.4 141.8 150 157.9 165.1 172.1 178.7 184.8 188.2 190.1 193.6 198.2 205 208.1 212.1 217.8 221.1 225 228.4 232.2 236.9 243.2 250.9 259.4 269.7 284.3 299.6 317 334.5 353.3 367.2 385.8 408.1 425.9 440.8 440.5 435.1 425.4 417.6 409.4 400.9 390.5 379.7 367.6 358.9 350.4 344.1 337.2 329.4 323.9 322.4 316.1 312.2 309.9 307.1 302.4 295.5 288.3 281.7 277.9 271.6 264.4 257.2 254.7 251.6 245.4 241.6 238.8 237.6 243.7 243.3 246.1 246.8 243 238.2 234.8 229.8 220.5 219.7 226 231.2 232.4 231.9 234.2 240.3 244.1 247.9 248.9 254.4 255.9 259.4 263.6 269.8 274.5 279.5 289.7
187.4 187.3 189.3 190.3 188.3 182.5 175.4 171.3 168.2 163.3 157.5 151.7 145 143 143.2 141.9 133.9 121.8 117.2 117.5 121.7 122.8 117.3 114.1 123.7 131.3 159.1 170.2 169.3 162.6 157.9 154.4 149.4 140.7 134.8 133.8 132.2 130.8 123.5 113.5 105.3 99.5 88 81.4 73.2 68.9 63.6 63.2 63.2 63.9 64.6 68 68 66 65 64.7 64.8 68.1 72.5 73.5 74.3 75.2 75.5 74.9 74.3 76.6 78 77.2 76.3 76 76.2 75.2 75.4 75.7 74.4 75.3 75 75.7 76.4 77.3 78.6 79.9 82.9 83.9 84.9 86.5 86.3 86.2 85.5 85.9 87.1 89.6 92.3 95.2 99.9 103.1 103.4 100.5 100 101.9 106.5 115 122.3 127.8 135 141.9 149.5 159.5 166.6 173.4 180.6 192.3 193.8 196 200.3 206.7 213 217.8 219.7 221 225.2 228.2 231.7 235.7 242.7 250.6 262.7 271.5 281 297.5 310 326.6 343.9 360.4 378.5 400 419.7 434.9 445.3 438.7 432.6 420 410.8 404.2 394.5 385.2 378.6 370.6 365.8 357.3 351.2 346.2 343 337.4 329.4 320.8 316.2 311.3 306.4 301.7 295.2 289.5 284.2 279.7 274.6 268 261.1 256 256.4 253.5 248.5 243 243.5 246.8 246 248 247 242.8 238.8 235.1 230.7 226 220.3 221.1 225.6 228.1 238.8 241.4 242.9 245.1 246 247.3 249.4 256.9 259.3 265.5 270.6 276.5 282.5 290
189.8 189.3 188.4 189.4 186.2 180.5 174.1 170.2 166.8 160.7 154.8 148.6 148.9 146.9 145.2 141.9 134.1 125.8 118.9 117 120.8 123.7 117.3 114 121.3 128.1 161.6 173.9 172.1 166.4 161.2 157.3 152 145.1 137.5 136 133.6 131.6 126 116.8 109.4 101.2 91.6 77.1 73.1 69.5 64.4 63.9 63.7 63.7 62.6 68 66.6 65.1 64.6 64.5 65.3 71.3 74.6 74.9 75.5 76.4 77.2 75.7 75.3 77 78.6 77.8 77 77.1 76.4 75.7 76.2 75.4 75.3 76 76 76.8 77.3 78 79 80.8 83.3 84.6 86.3 86.5 86 86.2 86.2 87.2 88.9 89 93.7 96.9 100.9 104.2 104.9 102.4 102 104.4 107 112.7 120.9 128.1 134.9 142.5 150 157.7 165.2 171.9 181.5 194.8 201.1 204.5 209.3 217.3 223.8 229.3 232.2 234.3 237.3 241 243.8 249.5 257.6 267.2 276.4 286.6 293.3 306.6 320.1 335.9 351.5 367.5 386.2 409.4 427.6 442.3 441.9 432.5 424.3 408.6 399.1 392.3 382.7 372.5 365.3 361.7 360.5 357.5 356.8 353.7 347.7 342.7 339.1 329 320.4 312.1 305.2 298.7 293.3 288.7 285 281.2 274 267.6 261.1 263.3 264.3 255.7 250.5 250.1 243 246.1 249 248 245.5 240.4 237.2 234.3 231.1 226.7 221.7 220.8 221.6 225.2 241.6 243.9 242.9 243.2 243.6 244.3 247.6 253.8 260.1 265.4 271.5 277.9 283.7 290.4
192.3 190.6 190.2 190.4 185.1 179 173 168.9 164 158 152 147.4 148.8 147.6 146.4 143.1 135.5 129 121.3 118.8 120.6 120.7 114.6 113.7 119.5 125.2 158.5 176.8 174.6 168.8 165.4 160.6 156.1 150.1 141.3 141.6 134.7 133.5 129.5 120.2 110.4 105.5 96.1 79 72.9 69.6 66.4 63.9 63.9 63.3 63.4 66.9 65.6 65.6 65.3 65 66.2 72 75.9 76.3 76.7 78 78.1 76.6 76 78.2 79.5 78.7 78.5 77.9 76.9 76.2 75.5 76.2 76.4 77.1 76.9 77.3 77.9 78.6 79.3 81.5 83.3 84.7 86 87 85.8 86.3 86.9 88.5 90.1 91 94.4 98.4 102.4 105.8 106.4 103.8 103.5 105.5 108.6 112.4 119.2 128 135.6 143 149.4 156.9 164.6 171.1 181 192.4 205.4 217.7 226.9 231.3 234.9 238.3 243.4 246.4 250.4 254.9 258.3 263.6 271.8 279.6 287.8 297.7 307.3 315.6 327.5 342.2 359.9 373.7 393.9 415.8 431.9 440.3 439.6 429.8 415.6 403.5 388.1 373.5 363.5 354.3 347.3 343.2 341.8 342.5 346 348.5 351 347.2 339.9 335.4 325.4 316.2 308.4 300.7 295 289.5 284.3 280 275.8 266.3 262.8 264.2 257.5 251.4 249.9 248.7 245.2 247.1 247.4 249.1 245 241 236.8 233.5 230.9 228 225.1 220.8 221.5 224.1 241.2 241.9 241.8 242.3 242.8 242.8 245.4 248.8 259.3 264.4 271.6 277.2 282.6 289.5
194.3 192.2 191.2 190 183.9 177.6 172.5 167.7 161.1 154.9 145.6 148.8 152 151.9 150.3 144.8 138.7 132.9 123.8 122.4 117.2 118.7 117 114.7 117.9 125.8 153.6 175.9 177.4 173.4 170.8 163.9 158.2 153.6 147.1 146.9 138.6 136.4 132.3 123.7 115.4 110.4 101.1 82 72.9 69.9 69.2 65.6 63.8 64.1 62.9 64.7 66 65.8 65.2 65.7 66.9 73.8 75.8 77.7 78.5 79.3 79.2 77.8 76.7 79 80.2 79.8 79.4 78.5 77.3 76.6 75.9 76.5 77.5 77.8 77.9 78.1 78.1 78.6 79.6 81.6 83 84.9 86 86.5 86.2 86.2 87.6 89.2 91.1 93.4 96.7 100 103.5 106.9 107.8 105.5 105.1 107.5 110.4 112.7 117.1 126.1 130.5 137.6 146.2 156.7 164 173 181.1 192.1 202.3 218.9 233.5 239.8 241.6 244.8 252.1 257.8 262.7 268.7 273.7 278.2 284.8 291.3 298.4 309.4 319.8 327.3 333.9 347.2 361.9 378.1 398.3 421 433.6 438.5 434.4 427.2 414.4 402.2 384.1 368.1 357.5 350.9 344.8 340.1 336.5 333.5 330 328.9 334.3 340.9 338.7 334 326.5 317.4 309.9 303.5 295.2 289.9 285.6 279.9 269.2 263.2 260.9 257.6 253.1 248.1 247.5 248 248.2 252.4 248.9 248.3 246.3 245.2 237.3 234.5 233.6 231.9 227.5 222 221.6 235 241.2 242.2 241.6 244.2 241.1 240.8 243.7 252.7 259.6 264.3 269 274.8 279.8 285.8
195.6 189.1 189.8 186 181 176.6 170.9 162.8 156.9 149.5 150.2 153.9 157.5 157 153.8 149.2 145 136.4 128 127 122.6 122.2 119.9 116.6 118.5 127.1 151.7 179 181.8 179.2 175.3 168.7 162.5 154.8 150.8 151.5 143.3 140 135.3 129 120.6 112.4 105.5 84.8 74.7 71.7 70.4 66.6 64.7 63.9 64.1 64.8 65.6 65.6 65.1 65.4 69.5 76.7 77.9 78.6 79.6 80 79.9 78 77.3 79.8 80.4 80.1 79.6 79.1 78.1 76.8 76 76.6 77.9 78.3 78.5 79.1 78.9 79.2 80.1 81.7 83 84.2 84.3 85.8 85.9 87 88.2 90.3 93.1 95.6 99.1 102.2 106.3 109.9 111.1 106.7 105.3 107.3 110.6 114.1 117.6 120.9 130.3 142.1 153.7 157.3 164.4 169.4 176.4 188.5 195.6 208.3 227.3 240.2 246.8 250.1 256.3 265.2 273.3 277.2 283.3 288.2 292.6 300.1 310.2 318.7 326.5 334.3 344.8 356.3 364.3 377.1 398.2 422.6 435.3 436.3 432.9 426.2 417 399.5 379.6 365.9 356.2 349.1 343 339.2 336.2 334.6 330.9 325.9 320.7 323.4 331 330.3 324.9 317.9 311.7 303.9 296.7 286.4 279.3 275.1 265.5 260.1 258.2 253.9 250.1 246.5 245.4 245.6 251 253 251.5 249.3 246.6 244.6 239.7 240.5 238.8 237 233 221.8 222.5 239.2 247 241.5 244.3 243.1 239.7 240 243.9 254.1 258.8 263.3 267.2 271 277.6 280.7
193.4 187.6 185.5 181.5 177.5 174 166 156.8 152.5 155.5 155.5 161.1 163.2 160.4 158.2 155.6 152.3 140 134.3 132.4 128.4 127.5 124.2 117.3 118.8 127.5 148.5 181.2 186.2 185.6 181.4 173.3 169.1 159.2 155.9 154.3 150 147.1 140.6 133.7 125.8 115.4 102.6 84.8 78.2 73.5 70.6 67.8 65 64.7 64.9 64.9 64.2 65.6 65.4 65.9 68 74.3 78 79.4 80.2 80.7 80.3 78.4 78.3 80.8 81.3 80.5 80 79.5 78.4 76.9 76.8 77.1 78.3 79.4 78.8 79.1 79.4 79.9 80.8 82.1 82.9 84 85.6 85.2 86.5 87.7 89 91.7 94.9 98.7 101.5 104.3 108.6 113.4 113.7 108.7 104.5 106.7 109.7 112.5 115.3 121.5 131 144.7 157.2 165.4 172.2 179.7 185.9 191.9 194.1 199.8 209.9 225.5 238.9 249.5 256.9 269.4 275.6 278 284.7 291.5 296.8 305.7 317.6 322.3 329 337 348 362.7 371.6 380.8 398 420.7 436.7 441.4 437 425.6 408.3 392.4 377.1 365.6 356.1 350.4 346.4 342.6 340.7 337.1 331 326.1 322.4 314.9 317.8 320.8 320.2 314.2 309.3 303.9 289.5 278.2 271.4 266.5 259.5 255.5 253.7 250.3 248.5 245.2 243.7 243.7 249.4 251.8 252.1 249.2 248.5 247 245.1 245.8 244.1 241.8 236.5 222.9 223.2 239.7 244.7 235.4 239.5 238.7 238.6 243 246.3 253.5 257.5 261.3 265.2 268.1 273 277
188.9 184.8 182.2 178 172.4 168.4 159.3 152 155.7 157.5 158.2 161.8 162.2 160.9 158.7 157 154.9 143.3 137.7 131.3 132.6 130.3 127.1 118.5 119.9 128.1 147.3 181.2 190.6 191.4 186.7 179 173.4 165.1 160.2 160.1 157.1 152.5 147.5 135.8 127.1 117.5 102.1 89.4 81.6 75.6 72.1 69.3 65.4 64.6 64.9 64.6 64.2 65.3 65.4 67 66.7 69.9 73.9 78 80.8 81.1 80 77.9 78.5 81.6 82.2 81.4 80.6 79.9 78.1 77.1 77 77.2 78.6 79.6 79.9 79.8 80 80.3 81.2 82.4 82.8 83.6 84 85 86.9 88.5 90.3 93.2 96.9 101.5 103 106.6 111.2 115.9 116 110.9 105.1 106.1 108.3 110.4 113.7 120 130.2 145.5 159.9 167.6 175.7 184.1 191.2 196.7 199.7 203.8 205.6 212.5 219.1 233.3 245.7 252.8 259.6 264.4 272.7 280.5 291.3 302.1 312.3 322.1 329.8 338.7 349.3 362.2 376.2 388.3 400.9 419.1 434 439 428.3 418.9 406.4 390.7 383.3 371.7 360.9 355.3 350.9 347 343.7 339.8 333.2 327.8 322.9 318.2 311.8 309.5 310.7 311 306.3 297.5 283.8 273.6 267.2 262.1 257 253.3 252.5 251.5 250.7 245.1 243.3 244 251.6 249.8 248.7 250 249.5 248.8 247.9 245.7 244.2 243.2 239.2 227.8 221.8 224.1 226.8 233.7 232.8 235.9 239.2 242.7 246.5 251.4 253.6 256.7 261.7 264.9 270.6 271.7
190.3 185.8 181.5 172.9 167 161.4 154.4 156.3 161 161.2 161.4 163.3 163.1 161 156.7 155.3 153.6 143.8 130.7 126.9 129.1 127.5 121.4 118.6 120 128.6 146.1 180 192.9 193.6 190.8 182 178.8 172.5 166.3 166 162.7 155.2 148.9 140.1 129.1 118.8 106.5 93.7 86.8 79.4 74.5 71.4 66.8 64.6 64.9 65.3 64.7 65.6 66.6 67.1 66.8 68.2 72.8 77.5 80.9 81 79 77.3 79 82.7 82.7 82 81.2 79.8 77.9 77.7 77.3 77.5 79 79.7 80.3 80.4 80.8 81.1 81.8 82.3 82 82.6 82.9 84.9 86.9 88.9 91.6 94.6 98 102.4 105.4 108.3 113.3 117.6 117.7 111.4 107.4 107.4 107.3 109.7 113.2 119.1 131.1 145.4 160.2 169.3 178.7 188.4 197.6 203.7 206 208 211.5 208.8 219.8 228.5 235.2 243.1 250 255.3 258.5 265 274.1 286.6 302.8 315.9 323.7 331.7 342.3 355.6 371.1 389.1 408 422.7 432 434.8 426.5 414.7 405.4 395.8 390.8 378.2 368.7 362.7 357.2 352.9 348.4 341.8 335.7 328.6 322.9 317.9 313.6 308.4 304 301.9 300.3 294.3 283.2 275.1 269.5 263.6 259.3 256.3 252.4 251.8 250.4 244 243.1 246.1 252 248.9 248.9 250.2 249.1 247.4 245.2 244.4 242.8 242.2 241.2 238.8 232.3 222.6 223.2 224.6 232.3 242.4 246.8 240.9 246.1 247.8 249.7 253.6 258.4 263.8 267.4 267
191.9 186.9 180.5 170.9 163.6 157.7 155.3 159.9 164.8 164.7 163.9 166.1 167.1 163.5 156.6 154.5 147.6 137.2 127.9 124.5 123.8 123.2 122.3 120.6 120.5 129.4 145.9 170.6 191.2 196.7 196 187.1 186 178 174.3 170.5 163.9 159 151.4 142.3 131.4 120.6 107.6 96.5 88.8 80.4 75.3 72.3 69.4 65.2 64 65.1 65.6 66.2 67.3 67.3 67.4 67.5 73.2 79.8 80.8 79.8 78.4 77.4 79.2 82.8 83.4 82.3 81.3 79.9 77.9 77.9 77.8 77.7 78.7 79.8 81 81.4 81.7 82.3 82.9 83.5 83.5 83 83.4 85.4 87.5 89.7 92.5 96.1 98.6 102.6 106.2 110.8 115.1 118.4 119.2 112.8 107.5 107.4 107.4 109.5 113.4 122.3 132.9 145.3 159.9 169.4 179.7 192.7 203.8 210 215.7 215.1 217.8 218.8 222.9 229.7 233.5 241.5 246.8 254.4 256.5 261.4 267.8 276.8 284.2 294.4 305.3 317.8 332 347.8 362.9 382.6 403.3 422.3 431.5 431 427.2 418.6 411.1 398.5 393.4 385 378.4 372.3 367.6 361.5 354.4 348.1 338.4 331.1 324.8 319.9 314 308.7 303.6 298.2 289.8 288.3 282.5 277.2 272.2 265.3 261.6 255.2 250.2 248.3 246.1 243.5 242.9 247.1 250.8 249.8 247.5 248.8 247.3 245 242.5 242.4 242.6 243.3 241.7 239 229.7 224 229.4 227.8 228.9 235.3 247.8 242.1 241.4 243.8 248.1 251.2 258.1 261 262.1 263.9
194 189.8 182.1 170.8 162.2 157.4 157 159.9 165.3 167.6 168.1 172 170.3 163.7 154.3 149.9 143.5 132.9 127.8 125.7 131.1 129 123 121.2 121.7 129.8 146.3 170.1 187.2 199.6 200.4 193.5 192.5 184.3 180.6 176.7 166.1 162.6 154.1 143.6 131.9 117.5 107.9 99.4 93.1 82.8 75.9 72.1 70.7 67.3 64.6 65.2 65.1 65.5 67.2 67.6 67.4 69.4 74.6 79.4 79.1 78.4 77.1 76.7 80 83.9 82.9 82.2 81.3 79.6 78 77.8 77.5 77.8 78.7 80.3 82.2 82.8 82.7 83.3 83.9 84.4 84.9 84.4 84.6 86.3 88.1 90.6 92.8 96.9 100.4 103.2 107.3 112.5 116.3 118.4 118.9 114.4 109.5 107.3 107.5 110.2 114.3 123.5 131.6 144.3 157.7 169.3 179.7 194.6 207.6 215.8 222.3 225.1 226.3 225.9 226.2 231.9 238.6 244.2 249.6 254.2 260.2 263.2 267.9 272.5 279.4 285 290.3 300.6 314.3 330.4 349.4 366.7 390.2 415.6 431 429.9 422 414.1 409.4 398.7 392.8 387.9 381.9 376.4 369.9 364.7 359.4 352.4 344.9 337.4 328.8 322.2 318.2 313.9 305.9 299.4 293.1 286.7 275.3 274.8 268.4 264.7 258.4 252.4 248.8 246.9 245 243.8 242.9 241.7 245.9 246.5 243.2 245.1 245.8 241.5 241.1 241.9 242.5 242.6 238.6 226.3 223.1 225.3 230.4 231.9 232.3 228.9 239.1 238.1 237.1 244.4 249.8 249.4 257.5 257.2 257.8 262
197.6 191.9 181.9 169.8 162.8 159 160.3 158.3 162.3 167 167.5 169.1 166.1 159.7 151.9 146.6 140.8 133.8 129.2 127.8 135.8 130 123.1 121.8 122.4 131.1 143.7 164 177.5 191.4 201 197.5 199.4 190.1 183.8 181.8 170.5 165.6 158.4 148.9 134.5 121.2 110.7 101.6 93.8 85.8 78.9 72.7 70.6 69.7 66 66.1 66.1 66.2 66.8 67.6 68.7 70.7 76.7 78.8 79 77.6 76.3 77 80.2 83.3 83.7 82 80.8 79.2 78.1 77.6 77.6 78.6 79.4 81.1 82 83.6 83.8 84.4 84.1 85 85.6 84.8 84.8 86.1 88.2 90.9 94.2 97.4 100.4 104.3 108.7 113.6 116.6 118.7 119.1 116.2 113.3 109.6 107.9 111.5 117.8 126 132.5 144.6 157.6 170 181.4 197.7 212 221.3 227.8 233.2 235.4 235.2 235.5 239.3 245.6 250.4 255.3 260.3 265.1 269.5 271.8 274.8 281.2 287 291 296.5 304.3 314.9 331.5 351.3 375.4 400.8 421.6 420.5 416.5 410.8 407.8 399.3 389.8 383.9 380.8 379.5 376.1 370.7 363.3 356.6 348.8 339.9 333.5 327.8 320.2 310.6 301.9 296.6 290.1 285.1 280.7 273.6 262.9 258.6 255.2 251.9 249 246.4 244.7 243.7 245.4 244 240.4 242.4 244.6 238.3 238.9 239 239.4 241.1 240.9 237.6 225.7 224.9 229 232.7 232 234.4 238 239.4 238.9 236.5 235.7 242.2 248.4 252.8 254.2 255.9 259.1 263.1
201.5 191.7 182 171.4 164.8 164.7 165.2 162.3 163.3 167.2 167.4 165.3 162.9 158.1 153.1 148.4 142.1 135.8 132.6 131.6 137.8 131 125.1 123 123.6 131.3 144.2 160.6 172.2 183 193.9 198.6 201.6 194.6 189.1 187.1 177 170.5 163.8 153.2 138.5 122.1 110.4 104.3 97 87.9 83.7 79.1 74.8 70.9 65.1 66.6 66.7 66.3 66 67.3 69.9 71 76.2 79.3 78.4 77 75.6 76.6 80.5 83.8 82.7 81.4 80.4 79.3 78.7 77.7 78.1 78.6 78.8 80.9 82.7 85.7 86.5 84.7 85.2 85.6 86.4 86.1 85.6 87 88.5 90.5 93.5 96.9 101.1 104.9 110.2 114.8 117 119 119.3 118.7 116.3 110.2 109.2 112.5 119.7 128 134.3 144.7 157.5 170.4 181.8 201.9 217 227.8 235.5 240.9 244.1 243.2 245.4 249.3 254.5 261.8 265.9 269.2 273.3 276.8 277.1 278.6 282.8 285.1 292.8 297.7 298.2 305.9 319.5 338.2 358.9 382.2 402.4 413.8 412.1 403.5 399 388.9 385.4 382.6 379.4 375.9 372.5 367.8 362.3 354.2 351.7 344 337.6 327.8 318.4 309.5 300.9 294.6 288.8 282.6 278.5 274.6 269.9 258.1 254 251.2 248.9 246.5 244.6 244.1 247.3 244.6 240.6 239.5 241.9 236.8 235.3 236.5 237.9 238.4 235.6 227.4 223.3 235.7 238 238.7 238.6 240.2 243.8 245.7 245.7 243.7 238.4 240.4 242.5 245 249.4 258 259.6 270.3
202 191.3 181.4 172.1 168.5 171.1 169.5 167.4 168.2 169.6 170.4 169 169.2 166.4 159.2 153.7 147.4 139 139 137.2 137 131.7 126.3 123.8 124.8 132.1 143.3 157.1 165.7 174.9 186.7 195.2 202.7 200 193.5 193.5 183.9 174 167.8 159.1 145.1 126.3 113 103.1 97.6 90.7 88 84.9 78.5 76.4 71.6 66.6 64.8 67.1 67.2 66.8 69.2 70.9 73.6 77.7 77 76.5 74.8 77.5 80.8 84.2 82.9 81.6 80.4 79.1 78.9 78.5 78.1 78 79.2 81.2 84 85.7 85.8 86.1 86.4 86.4 86.7 86.1 87.3 88.2 89 91.7 94.7 97.6 101.4 105.4 110.9 115.2 117.4 118.5 118.8 119.6 114.8 111.1 110.9 113.7 122.1 128.7 135.2 146.6 161.2 174.2 185.1 205.2 225.1 238.9 248.7 253 256.2 258.6 260.6 262.9 269 271.8 277.8 279.8 283.1 288.7 289.4 289.6 291.5 292.4 296.6 298.3 300.4 304.1 313.9 330.4 351.4 370.4 383.9 393.6 395.2 389 381.5 375 373.7 373.2 370 366.8 365.7 360.3 357.9 355 347.9 341 334 327.3 318.3 308.2 297.9 291.3 286 280.2 277 273.7 268.8 256.4 253.4 250.9 248.7 246.5 244.4 244.9 253 247.8 242.2 238.8 241.4 234.4 234 235.9 236.6 234.8 227.2 224.4 230.3 240.3 242.6 244 245.3 246.9 248 248.6 247.6 244.3 239.7 245.4 250.4 252.9 255.3 252.2 256.2 263.6
202.2 188.7 174.2 166.6 176.2 178.9 174.7 176.3 176.2 179.5 180.5 180.2 180.9 178.1 168.9 165.5 153.4 145.4 143.5 142.2 138.5 133.1 127 126.5 125.3 131.6 142.4 153.8 161.9 168.5 182.5 192.2 201.4 203 196.5 196.1 187.7 179.1 171 163.1 151.3 134.6 114.6 105.4 99.4 92.9 90.1 88 85.8 79 75.8 69.4 67 67.2 67.2 67 68.7 70.4 71.5 73.1 73.6 74.1 74.8 77.3 80.5 83.1 82.6 81.3 80.3 79.1 79.1 79.1 78.4 78.8 79.7 81.3 83.8 87 87.5 87.6 86.8 86.5 86 86.1 88.3 89.3 90.4 91.9 95.5 97.6 101.2 105.7 110.8 114.4 115.9 115.9 115.2 114.5 112.9 112.1 112.5 114.8 123.2 129.3 137.1 146.9 161.3 174.8 187.8 205.6 232.4 251.7 260.6 264.1 267.9 269.6 273.6 280 284 289.2 295.2 300.6 302.1 306.5 308.4 308.7 307.8 306.1 304.9 304.3 306.3 308.8 316.8 328 342.2 357.4 368.1 371.5 366.8 360.9 355.2 352.5 354.9 356 354 352.1 351.3 347.7 344.5 341.5 337.8 333.1 327.9 322.3 314.6 304.9 295.5 287.3 283.2 278.6 275.4 270.5 262.5 256.3 253 251.6 249.5 246.7 244.5 242.3 248.8 245.2 241.2 241.7 239.2 234.6 231.9 233.6 232.3 229.2 224.5 227.3 234.1 242.5 244.7 247.5 250 251.4 251.6 250.8 247.6 242.6 248.4 249.5 253.4 257.4 262 260.5 258.3 259.8
197.8 172.8 178.4 176 184.8 185.9 185.4 187.9 190.6 191.4 195.5 193.4 190 185.3 178.3 172 158.6 151.5 150.9 144.5 139.2 136.7 128.3 127.5 127.1 131.3 145.7 156.1 161.9 164.8 180.4 191.2 197.4 199.5 199 191.8 192.7 184.1 174.7 166.5 156.6 138.4 119.1 109 101 95.2 91.9 90 90.1 83.9 81.7 71.6 67.7 67.5 67.2 67.8 68.2 69.9 71 72.2 72.3 72.9 74.4 77.6 81.3 82.9 82.5 80.7 79.7 79.4 79.5 79.6 79.3 79.4 79.7 81.8 84.6 87.5 88.9 88.3 87.4 85.5 86.4 86.1 89.1 90.6 92.3 93.2 95.7 98.3 100.3 105.9 110.9 113.1 114.1 113.6 111.7 112.2 113.7 114.1 114.1 118 125.2 130.9 139.1 149.4 163.5 177.1 187.9 206.9 232.7 255.9 269.7 272.7 272.8 274.6 280.8 288 293 299.1 305.4 312.2 318.1 323.9 329.1 328.2 325.2 320.6 322.4 321.8 319.1 321 326.3 333.8 342.7 350.7 354.4 353.3 351.3 347.3 343.3 339.4 337.7 337.4 337 336.4 335.2 332.9 331.9 329.6 326.3 324.2 319.9 314.9 307.7 297.6 287 284.1 281 278 267.9 269.4 265.5 262.2 259.9 257.8 256.1 253.7 249.3 243.1 240.3 241 239.6 235.4 234.6 232.9 230.6 230.2 228.8 225.2 225 228.1 235 243.5 245.9 249.1 252.2 254 253.4 250.2 246.2 242.9 252.1 251.2 257.7 264.2 266.9 264.1 264.6 265.8
176 184.2 190.7 182.5 186.2 192.1 199.8 199 201.7 201.9 204 199.3 195 190 185.8 176.5 166.4 159.8 157.4 147.3 141.2 136.7 130.9 129.9 128.9 130.3 145.1 156.5 158.9 162.2 173.6 188.2 194.5 193.4 196 194.1 188.9 184.7 177.6 170.7 157.5 140.3 125.7 115.7 106.6 99.6 93.5 90.5 90.4 86.4 80 72.1 68.3 66.4 67.5 67.6 67.6 68.1 71.7 72.5 72.4 74.2 74.6 78 81.6 83.4 82.3 81.5 80.8 79.2 79.8 80.1 79.3 79.6 79.6 82.1 84.9 88.5 89 89 87.8 85.6 85.2 86.8 88.4 91.5 93.3 94.3 96.8 100.2 102.9 107.7 111.4 112.9 113.1 110.5 110.7 111.3 113.5 115.3 116.5 121.1 127 132.8 139.8 150.1 163.5 176 187 204.7 231.4 254.3 271.1 276.5 276.4 278.1 282.7 289.5 296 303.5 309.8 317 323.5 326.5 332.9 339.1 339.3 334 337.4 339.3 338.3 337.1 343.5 349.1 353.9 359.1 357.2 351.2 347.4 341.9 338.5 334.7 329.9 327.3 323.8 319.8 319.5 316.2 316.4 315.8 314.3 311.7 308.6 303.8 295.5 286.1 281.4 281.4 278.9 278.3 277.9 276.3 272.8 269.1 266.7 263.8 262.1 257.8 250.2 244.2 240.4 237.3 236.4 238.3 235.4 231.6 229.9 228.7 227.3 226.4 225.1 228.5 233.9 245.5 247.7 250.5 253.3 255.2 253.2 249.4 244.7 246.6 252 251.8 263.9 271.4 273.5 272.9 267.9 267.9
199.2 198.5 193.2 186.7 189.7 203.5 207.7 208 209.9 208.6 207.6 204.3 199.8 196.5 192.2 183.2 170.4 165.1 157.7 150.1 143.2 138.1 132 131.4 130.4 130.7 145.1 155.5 156.8 159 169.5 185.2 190.8 189.2 186.6 188.8 186.3 182.4 175.8 168.2 155.5 140.3 130.2 120 110.9 103.4 96.7 92.2 88.9 86.8 80 71 68.9 67.4 67.5 67.4 67.8 67.5 69.4 71.8 72.8 73.7 74.8 78.5 82.5 83.5 82.8 82.5 81.7 79.6 79.5 79.6 80.1 80.2 79.9 82.2 85.1 88.7 89.8 89.3 87.5 85.4 85.4 86.2 89.4 92.1 95.2 96.9 97.8 101.1 105.1 109.4 112.2 112.9 110.4 107.4 109.7 112.2 114.5 116.3 118.1 122.5 130 134.7 141.2 150 161.8 174.2 187.5 204 229 254 266.4 273.2 276.1 278.9 281.2 284.8 289.4 298.8 305.4 315.7 325.2 332.3 339.6 344.9 348 347.7 356.2 362.5 364 359.7 360.4 364.6 364.9 368.1 364.6 358.3 351.1 344.4 337 331.6 326.8 324.1 321.5 316.4 312.4 308.8 307.8 303.7 301.9 298.9 295.4 293.5 293.3 292.4 289.1 287.6 285.7 284.9 285.5 284.6 282.1 276.7 271.8 270.1 265.2 256.8 249 243.8 240.7 239.2 236.1 233.9 233.2 231.1 230.1 228.7 227.9 225.9 225.3 227.2 234.1 246.2 248.2 251.3 253.5 253.6 251.5 248.3 244.6 245.6 250.9 259.2 265.4 274.9 277.9 276.8 272.2 272.3
207.4 206.5 196.8 187.1 191.3 206.1 212.5 214.4 215.9 213.2 211.6 208.3 203.2 200.7 194.1 185.4 174.1 162.9 156.8 151.7 146.9 143.7 134 132.8 132 131.9 140.6 147.8 150.7 155.5 165.3 180.9 188.7 184.9 180.5 182.1 184.1 180.2 169.3 159.9 152.5 142.1 131.5 122 115 105.6 100.6 97.6 91 84.1 76 72 68.1 67.9 68 67.8 67.7 67.9 68.7 70.7 73.2 74.4 75.6 79.5 83.5 83.9 82.8 83 81.6 79.7 80 80.3 80.4 80.2 80.1 81.9 84.5 88.7 89.8 89 86.4 85.8 85.6 86.4 87.9 90 94.2 97.8 99.1 101.8 105.8 110.1 112 111.6 108.8 106.2 109.1 111.8 114.3 117.2 119.5 122.3 129.8 134.9 140.9 149.2 162.3 174.1 187.1 202.4 223.4 244.3 260.8 263.3 262.6 266.2 266.2 267.5 273.2 280.8 287.5 298.5 314.3 329.2 336 344.8 352.9 361.6 365.1 374.7 385.7 387.2 383.7 388.4 385.4 379.2 369.7 363.8 355.6 349.9 343.7 336.1 331.9 324.8 318.5 314 310.9 308.9 304.9 302.1 300.6 298.4 299.4 298.3 297.9 297.2 295.6 292.5 291.5 292.8 293.8 293.7 287.4 281.2 275.4 272.6 267.2 259.8 251.8 241.8 240 235.9 235.3 233.8 232.1 231.4 230.3 228.5 227.1 226.1 225.7 228.4 236.9 247 249.1 251.7 251.7 250.8 248.9 246.2 244.6 250.6 255.8 262.1 272.5 276.2 278.2 278 279.4 276.4
205.2 209.6 201.6 191.5 192.1 209.9 214.2 218.6 217 214.5 212 209.4 203.7 199.8 192.3 187.1 173.7 163.5 155.2 152.4 143.9 138.9 136.3 134 132 130.4 136.6 143.3 147.2 154.8 161.5 173.8 184.8 180.8 176.8 178 178.1 170.1 164.6 155.7 147.8 141 132.3 123 116.2 108.4 104 97.2 89.2 81.7 75.5 71.1 70 68 68.3 67.8 68.2 68.9 69.1 70 73.3 73.9 76.5 80.9 84.7 83.8 82.9 83.8 82.7 80.5 80.1 80.4 80.8 81 81.2 81.7 84.6 88.2 89.1 88.3 85.6 85.6 85.7 85.8 86.1 87.4 88.6 93.3 99 102.2 106.1 108.8 109.6 108.2 106.1 105.5 108.4 111.2 114 117.5 122.1 130.6 126.7 136.1 141.9 149.8 162.3 173.7 188.7 199.4 214.6 232.2 244.8 245.2 244.7 244.1 246.9 249.4 253 259.2 266 278 291.8 307.5 325.9 341.5 358.2 371.2 376 384.4 396.1 406.3 407 405.7 401.9 393.2 383.5 375.4 366.3 354.4 350.9 347.1 339.6 331.3 322.8 317.8 315 312.8 310.5 308.2 305.8 304.4 303.5 302.4 302.1 302.9 304.2 304.9 302.3 299.7 296.1 292.9 286.6 280.2 274.2 269.2 264 258.2 248.8 238.6 236.5 234.4 232 231.8 231.3 229.1 228.6 228.1 227.7 226.3 225.6 229 237.2 245.4 248 250.1 248.8 249 247.2 245.7 248.5 259.6 260.5 261.2 270.6 272.5 274.2 278 278.6 279.2
209.6 205.9 199.3 191.6 193 207.9 212 213.8 210.9 212.2 208.1 203.3 199.2 192.9 185.9 177.2 167.2 162.6 154.8 150.9 150.6 150.2 139.6 135.3 131.7 131.3 134.6 138.9 145.2 151.9 160.2 169.5 180.6 179.6 175.5 172.2 169.7 162.5 157.8 152.6 146.1 138.5 132.5 126.1 117.9 109.6 106.8 101.4 93.1 86 79.3 73.3 71.7 70.3 68.4 68.5 68.3 68.2 68.6 70.2 74.3 74.7 77.3 82.3 85.7 85 84.8 85.1 83.7 81.6 80.7 80.6 80.8 80.9 81 81.5 83.4 87 87.6 86.2 85.2 84.5 85.7 85.9 86.2 86.6 87.1 88.7 95.2 101.8 104.7 105.6 104.9 105 103.4 105.7 108.1 111.5 115.9 124.7 132.5 134.4 133.1 135.4 141.5 149.5 160.9 172.9 182.1 193 207.3 220.6 227.1 226.6 227.1 225.1 229.8 235.4 241.6 242.9 247 258.7 271.1 287.6 307.2 329.1 352.4 366.7 377.4 390.4 401.3 408 411.8 410.9 407.1 399.4 395.4 388.6 375.9 367.9 363.4 363 359 352 346.4 339.9 333.2 326.4 319.5 317.5 316.3 313 313.1 313.1 317.5 317 314.8 310.5 304.9 298.4 293.5 289 281.6 274.9 268.1 261.3 256.3 249.9 241.2 239.6 238.7 235.8 232 231.6 230.5 228.7 228.8 228.6 227.8 226.3 226.3 226.7 232.3 244.1 243.9 246.9 247.8 249.9 249.7 246.8 254.3 259.6 263.3 264.4 263.2 271.7 272.3 278.9 281.9 286.8
213.3 210.1 199.6 193.8 193 197.1 200.9 200.1 199.3 200.3 199.2 196.3 192.8 185.2 177.5 169.7 163.8 157.4 155.9 159.2 158.8 148.4 138.8 134.8 132.2 131.7 134 137.9 143 150.9 158.6 165.6 179.4 184 179.4 173.9 169.6 166.3 158.4 147.5 140.9 134.7 130.4 126.7 118.5 113.6 114.6 106 98.8 91 80.4 77 75.1 73 69.5 68.9 69.1 68.6 68.6 71.9 74.6 74.9 79.2 83.6 86.1 85.4 85.9 86.3 85.5 82.8 81 80.6 81.1 80.8 81.7 82.9 83.1 85 85.5 85 84.5 84.9 84.6 86.4 86.1 86.1 87.5 88.2 90.1 99.6 103.2 102.1 101 100.5 102.6 112.6 113.5 120.4 132.8 134.3 139.1 139.9 136 138.5 139 149.3 158.7 169.5 180.3 187.2 196.8 205 207.9 209.9 214.7 221 228 232.3 235.3 236.3 242.1 248.6 256.6 274.6 289.2 312 334.6 350.7 363.5 385.2 397.6 402.1 405.9 409.4 407 403.8 399.4 395.5 389.8 391.4 387.8 384.6 383 379.4 373.6 366.6 360.1 352.5 343.3 336.3 334.8 333.1 330.2 328 325.8 321.7 317 311.2 304.6 297.7 290.7 285.4 277.5 269.9 264.3 257.8 252.2 246.3 243.2 242.7 240.8 236.3 235.9 232.5 229.9 228.4 228.6 228.2 227.3 226.9 228.8 228.6 226.1 238.7 241.9 245.8 252.5 254.4 250.7 248.3 254.3 258.5 262.4 270.9 263.6 267 270.6 271.1 285.3 286.2
218.7 215.4 209.2 202.4 197.3 191.8 189.4 191.4 192.9 191.5 191.2 187.3 185.3 178.4 172.3 159.4 158.3 161 161.2 162.7 160 151.6 143.3 138.4 134.4 131.6 132.8 135.1 140.2 149.5 157.3 163.7 172.4 188.4 183.8 177.5 172.6 168.1 162 151.2 140.5 132.6 128.3 124.5 118.8 115.1 113.7 109.2 99.9 90.1 82.2 80.3 78.7 77.2 70.7 69.6 69.9 69 69.3 72.8 74.5 75.7 82 85.4 87.7 87 87.4 88.9 88.1 85.2 83.4 82.1 81.6 81 82 82.5 82.7 82.4 83.4 83.8 84 84.5 87.3 89.1 87.9 86.9 87.3 88.2 88.9 97.3 100.1 98.6 97.2 101.5 104.7 109.3 121.3 132.3 135.2 145.1 149.2 146.5 141.1 142.3 146.8 147.6 159 166.9 175.5 181.4 187.3 195.8 201.1 206.4 209.7 214.2 219.9 224.3 228.8 233 239 243.5 251.2 256.6 275.5 299.6 316 332.1 347.2 371.6 393.7 397.8 397.6 404 406.3 407.3 410.9 410.9 413.9 415.3 412.7 409.5 405.5 402.5 399 394.1 387.6 380.7 369.9 357.2 351.3 345.6 339.6 335.2 328.1 320.4 313 306.9 301 293.2 285.9 279.9 273.7 259 253.7 249.7 248 243.1 240.7 239.5 236.8 235.4 234.7 231.5 229.7 228.8 228.3 228.2 228.1 231.4 232.9 232 228.1 230.2 237.1 246.9 255.5 255.4 253.1 248.2 250.2 253 260.7 264.9 263.4 265.7 267.5 270 276.9 288.6
222.7 220.7 215.5 209.2 200.2 191.6 186.9 185.9 184.5 184.1 181.7 175.5 171.9 170.7 162.7 161.2 165.7 166.7 167 166.5 164.6 156.9 150.6 145.3 138.3 134.9 132.1 132.5 136.9 145.6 156.1 161.6 171.6 187.4 184.5 178.7 175.5 169 163.8 153.2 140.7 133 126.8 123.1 118.9 115.4 113.5 108.3 101.9 92.1 85.4 81.8 85.2 76.8 70.4 68.2 69.3 69.4 71.8 74.9 75.7 77.4 84.8 88.8 89.4 89.7 90.4 91.8 91.1 88.4 86.9 84.2 81.2 81.4 82.1 83 82.6 82.7 83.6 84.1 84.5 85.5 88.2 91.6 92.1 88.3 86.8 87.7 89.5 93.9 97.5 95 98.1 102.6 106 115.7 131.9 134.8 153.1 157.7 154.7 151.4 145.5 144.7 151.5 154.9 156.5 165 168.9 174.7 184.2 193.8 199.6 203.6 206.4 212.6 216.9 221.7 226.7 231.2 235.8 240.7 244.6 249.1 258.1 278.7 291.9 310 330.7 359 377.6 382.6 387.7 394.6 400.4 401.4 407.8 413.4 425.8 430.8 432.4 431.4 428.6 426.8 422 413.7 405.8 396.3 380.6 363.2 350.5 343.2 338.7 334.7 325.8 316.2 307.5 299.9 292.2 285.2 279.3 271.4 263.4 268.1 265.6 256.7 251.2 243.3 241.9 241 235.6 234.3 232.7 230.7 229.6 228.7 228.9 227.7 230.9 235.6 237.7 234.9 227.5 227.9 232.6 243.1 254 253.9 250.1 247.3 248.5 251 256.3 265.9 265.6 266.2 268.8 268.8 275 286.2
222.6 222.4 219.8 214.9 204 192.3 189.1 185.9 184.2 177.5 176.1 179.4 173.8 172.3 169.2 170.2 172.6 173.3 174.8 176.2 173.8 164 161 154.1 139.6 133.1 130.9 129.6 133.4 141.4 154.2 159 168 186.9 184.9 180.7 176.3 170.7 166.3 156.4 146.3 136.6 126 122 118.1 115.4 114.9 111.2 103.7 94.6 90.2 89.8 85.4 75.1 69.3 70 70.3 73 71.9 75.3 76.9 81.9 88.2 90 91.9 91.6 93.4 94.6 93.9 91.3 90.3 86.2 81.2 81.2 82.2 82.5 82.2 83 83.2 83.4 84.4 85.9 89.5 92.6 93.9 94.2 87.9 88.2 90.1 93.4 93.5 97.6 101.2 105.1 107.9 118.7 130.7 139.8 159.4 163.1 160.1 155.1 149.2 148.8 153.4 158.1 164.6 172.4 178.5 184.2 190 197 200.7 204.4 201.1 208.1 211.9 219.1 225.1 232.4 238.4 244.9 249.1 252.7 256.7 261.6 271.2 289.3 313.9 340.7 353.3 358.1 365.1 374.4 382 386 394 408.6 423.4 434.1 438.7 438.3 435.4 430.1 422.9 413.7 401.5 388 369.3 353.7 339.1 334.1 329.1 322.2 316.2 309.3 298.5 291.7 283.8 283.4 282.6 280.3 276.8 273.1 268.8 265.3 258.2 249.3 240.9 237.5 233.7 232.6 232.6 229.9 228.9 228.9 228.8 230.2 236.2 239.5 239.4 234.9 227.2 228.3 229.6 236.7 248.7 252.8 246.1 249.7 256.5 251.4 255.5 262.6 270.4 272.9 270.1 273.6 273.5 282.5
221.7 223 222.5 215.3 206.8 197.8 193.5 186.9 183.7 179.9 185.5 186.9 184.1 178.6 176 175.4 178.7 182.1 183.5 182.7 180.9 172.2 168.7 161.7 143.7 131.4 128.8 127.3 129.8 137.7 148.2 156.2 161 176.1 184.2 182.3 177.1 170 170 161.2 150.1 140.5 126.7 123.2 120.8 115.7 115.5 115.2 104 97.9 92.2 91 84.5 73.9 70.8 71.2 73.6 70.7 74.6 76.4 81.1 88.6 89.8 92.8 93.3 94.1 95.7 98.4 96.9 95.6 92.1 87.4 81.6 81.5 81.6 82.2 82.6 83.1 83.1 83.4 84.9 86.5 90.5 94.8 96.6 100.3 95.1 87.9 89.9 93 96.3 100.1 103.9 107 112.4 120.6 135.6 147.3 162 169.2 163.5 159.8 156.5 150.7 155.6 163.9 172.5 181.7 193.1 198.1 201.7 205.2 209 213.1 217.8 220.3 224.6 231.6 237.1 242 247.2 251.2 255.3 259 263.4 266.7 272.6 280.8 296.9 317 325.3 330.6 339.3 352.9 362.3 371.2 384 402.9 419.5 428.7 432.7 430.7 426.5 419.7 409.7 396.9 382.7 370.1 354.5 340.7 329.7 320.8 316.9 308.8 300.5 296.3 292 292.4 291.3 291.5 289.7 285 279.7 275.2 272.4 268.5 260.3 250.4 237.2 234.4 233.5 232.1 230.8 230.1 229.2 229 231 238.8 241.6 243.1 241.8 236.4 227.6 228 229.9 231.9 241.2 243.7 242.5 254.7 253.1 255.6 254.7 256.4 265.6 271.1 271.5 274.7 275.2 284.1
223.1 225 223.9 215.6 206.8 199.4 195.9 188.4 184.4 185.9 187.7 190 188.2 184.1 183.1 184.6 188.4 192.7 193.3 190.4 185.7 178.1 177.3 168.9 141.8 130 126 124.2 125.5 133.8 143.1 152.8 157.3 164.5 181.2 181.1 176.1 168.6 169.2 164.7 155 143.5 129.8 124.3 124 117.4 113 116.7 106 100 97.6 93.5 84.1 70.7 70.8 71.6 70.4 71.6 75.6 79.5 85.8 91.8 91 92.6 94.6 96.4 99.6 100.4 100.2 97.5 95.2 90 83.7 81.7 81.3 81.3 82.4 82.8 82.4 83.8 84.2 87.8 91.9 95.1 98.4 100.7 99.4 88.7 89.6 96.1 100.7 102.1 107 112.6 114.6 126.6 138.6 152.6 169 173.9 165.7 164.3 161.4 156.4 157.9 167.8 178.1 190.9 202.5 212.4 219.9 225.4 230.7 235 236.7 240.1 245.1 250.2 255.7 262.6 269.5 274 274.8 273.2 272.6 277.3 278.7 285.5 288.4 298.1 308.1 322.5 342.6 359.3 371.6 387.9 400.9 410.9 417.6 422.7 421 416.9 410.1 400.9 389.1 376.1 365.3 354.1 342.2 331.1 325.3 314.8 306.3 299.8 300 298.8 298.2 297.6 296 292.3 289.3 284.1 278 272.3 268.1 263.1 255.7 242.9 237 235.2 233.9 234 230.1 229.7 230.1 236 240.2 243.3 244.5 245 244.1 236.7 227.1 228.2 232 235.2 237 237.7 247 255.3 253.3 254.9 266.6 261.6 269.6 265.9 271 274 276.2 285.5
221.9 223.6 220.6 214.9 205.7 200.9 196 189 185.7 188.2 191.1 193.7 192.2 190.1 189 191.8 195.8 198.5 198.5 197.6 187.7 179.3 174.9 163.6 139.7 128.8 126.3 125 122.2 128.7 136.7 146.9 152.7 157.4 177.3 178.3 172.5 168.1 168.9 165.9 157.5 144.7 130.5 126.2 125.4 118.7 112.4 114.8 108 101.3 99.2 90.9 80.5 69.8 71.3 70.7 70.4 71.1 76.5 82.3 88.5 93.2 92.6 93.3 94.3 97 100.7 103.8 104.1 100.1 97.8 91.4 83.9 82.6 81.6 81.7 82.3 82.5 82.3 82.1 84.7 89.2 93.3 97.5 99.4 100.5 99 89.3 89.7 96.7 101.8 104.8 110.2 113.1 115 126.3 141.8 157.6 173.9 174 166.2 167.8 165.2 162.6 160 168.2 183.9 197.4 209.6 220.9 228.2 235.8 242.9 248.8 252.9 257.7 264 271.1 275.5 282.7 289.9 297 298.5 298 296.1 294.7 294.7 297.9 303.9 315.4 330.4 348.2 364.1 381.9 391.9 405 412 415.8 415.3 413.7 408.5 401.1 390.5 379.7 369.2 359.8 352.4 342.4 334.2 326.4 320.6 312.2 307.9 310.1 308.1 306.3 302.8 300.6 294.8 288 283.5 279.1 273.6 268.6 263.2 258.7 247.4 242 240 238.6 234.3 231.5 229.4 233.1 237.8 243.5 245.5 246.8 246.9 246.4 243.2 235.7 228.6 228.7 231.7 248.5 252.1 247.8 245.1 252.5 252.2 257.3 264.1 271.4 271.7 268.9 270.3 273.4 274.1 276.2
219.2 218.9 217 211.1 206.2 204.3 194.1 190.1 188.2 190.8 194.7 198.1 196.6 195.4 195 197.1 200.8 202.9 201.6 201.4 193.5 182.1 173.3 160.7 137.9 129.1 129.4 125.5 119.9 124.8 133 140.9 147.7 150.9 161.8 176.2 170.7 165.7 167.3 166.1 159.5 148.4 129.7 126.3 126.6 121.3 113.7 115.1 111.9 93 90.1 79.2 71.9 76.1 75.2 71.1 70.6 71 78.3 85.2 90.2 94.3 92.9 94.5 94.8 97.7 101.2 103.7 103.3 100.4 97.6 91.8 84.1 83.3 82.2 81.9 82.1 82.3 82.6 83.1 85 89.7 94.8 98.2 99.7 99.9 98.4 90.7 90.6 95.1 101.6 104.8 108.8 113.3 114.4 125.9 144.5 163 177.1 172.5 167.4 171 168.9 166.7 164.6 169.9 185.3 198.3 211.7 228.1 237.7 245.4 254.8 261.8 266.2 272.4 277.7 288.6 296.6 303.8 310.4 316.7 321 322.4 322.3 320.5 318.3 320.5 325.1 336.8 357 371.2 385.8 399.1 405.6 413 411.5 409.3 399.2 390.9 383.1 375.7 369.2 360.9 353.1 345.2 340.4 333.2 327.9 323.6 315.7 314.9 316.7 317.7 316.6 312 305.3 300.8 293.3 284.9 279.8 275.7 269.4 264.2 261.2 257.9 250.8 246.8 244.8 238.1 234.8 230.3 232.3 237.5 243.3 247.3 249.4 250.9 249.1 246.6 243.1 236 229.3 228.6 231.1 245 251 247.3 245.9 247.8 252.7 261.6 261.9 268.8 270.2 270.2 270.7 271.8 275.4 285
219.5 218.9 212.2 211.1 212 202.4 195.4 190.9 190.2 193.9 198.5 204.4 203.9 202.4 202.2 203.9 206.1 205.1 202.3 199.2 195 188.7 177.1 156.8 137.5 129.9 127.2 122.4 119 121.8 129.3 136 140.4 144.6 151 172 170.8 165.8 165.2 164.3 158.1 144.9 131 125.7 126.5 121.7 112.5 108.7 108.3 88.2 78.3 77.2 83.1 82.3 79.6 71.3 71.4 71.6 79.5 86.5 92.2 94.7 93.7 95.7 95.2 97.1 99.7 101.4 99.6 97.8 96 90.4 85.4 85.1 82.3 81.1 81.7 82 82.2 82.2 85.9 90 95.6 98.8 99.8 99.5 98.4 92.8 90.4 93.8 100.6 103.5 108 113 115.7 129.7 147.8 167.9 182.1 172.9 169.4 173.7 171.9 171.4 167.9 172.7 186.8 203.7 212.7 229.5 245.1 252.6 264.4 271.8 277.4 284.2 292.4 302.1 309.6 320.2 328.8 336.6 341.1 344.8 345.9 344.9 344.8 349.4 353.1 360.8 371.8 388.3 405.7 412.4 412.2 404.2 403.2 396 386 374.3 367.1 357.5 349.3 343.3 336.3 331.3 330 326.6 323.3 317.9 319.7 323.8 326.3 326.5 322.8 314.2 304.1 296.9 289.9 283.5 279.1 272.9 267.8 262 259.4 255.1 250.2 248.2 244.8 240.9 238.8 230.6 238.6 243 247.6 250.1 252 251.7 249.7 247.1 243.7 238.8 230.5 228.1 229.3 236.2 243.3 245.1 246.4 251.1 252.9 258.1 261.3 269.6 271.3 271.5 271.8 274.4 293.9 284.7
222.3 221.3 220.2 221 215.9 202.4 198.6 193.4 195.3 199.1 204.2 209.8 210.5 209.7 210.8 212 210.9 207.3 200.5 195.9 193.3 188.8 174.9 155 139.4 134.5 128.3 123.9 120 119.5 125.4 130.2 133.5 135.6 140.8 157.5 169.2 166.2 163.3 163.1 156.6 143.3 131 125.3 126.6 120.4 111.9 105.4 86.8 75.9 87.9 86.3 89.3 84.3 80.3 71.7 71.6 72.1 80.6 87.8 92.9 95.8 95.4 96.1 95.3 97 98.3 97.2 94.3 92.1 92.5 88.7 86.9 86.9 81.8 81.3 81.3 81.5 81.8 82.3 85.7 91.1 96.2 98.2 99 99 97.9 96.3 90.2 92.2 98.3 100.7 107.3 113.5 117.1 134.5 152.2 176.7 185.6 173.1 169.2 172.2 172.8 175.5 173.9 178.1 190.7 201 212.6 227.3 246.2 256.5 271.5 282.5 287.7 295.8 303 308.9 321.2 329.3 337.1 344.9 352.1 358.8 359.3 366.1 370.8 370.1 372.9 379.6 391.3 403.6 410.5 417.2 412.4 394.9 385.3 377.3 369.9 362.1 354.3 343.3 329.8 323.5 321.2 321.5 320.6 320 320 320.8 325 329.9 331.8 331.8 325.8 317.4 307.5 295.3 287 281.1 277.8 274.7 264.5 259.3 256.1 252.6 250.2 247.4 246.7 246.2 238.9 234.9 242.5 247 251.5 251.3 249.6 251 249.7 247.3 244.3 240.2 233.8 228 228.8 232.9 242.5 242.5 250.9 253.1 253.6 256.6 261.3 270 271.7 273.2 273.3 286.8 294.3 299.7
228 227.2 229.4 227 214.2 205.4 202.4 198.7 200.3 205.1 209.7 216.4 218 216.2 216.6 217 213.4 207.1 200.6 194 187.6 178.6 167.7 150 140.1 138.2 129.8 123.2 119 117 119.8 123.4 125.5 128.5 132.7 138.2 153 159.5 160.1 155.3 151 138.5 130.5 126 124.4 119.6 110.2 94.6 79.4 89.6 93.9 92.9 94.7 87.5 79.9 72 71.8 72.1 81.9 87.9 93.7 96.5 96.9 96.4 96 97 96 94 91.1 90.3 90.9 91.2 88.1 87.1 81.6 81.7 81.2 81.4 81.6 82.4 86 91 95.7 97.1 97.9 98.9 98 98 90.7 91.5 94.9 98.4 109.4 117.8 122.6 141.6 156.4 179.9 187.6 171.8 167.5 169.9 173 181.2 183.3 182.3 191.9 205.1 216.6 228.7 246.4 260.2 272.5 288 295 301.1 309.5 314.4 327.3 334.7 341.6 349.1 359 365.5 369 370.4 375.2 377 378.5 382.1 389.1 397.9 400.6 402.1 398.5 385.6 372.1 364.8 356.7 349.6 341.8 331 320.9 320 320 320 320 320 320 322.4 327 324.1 326.2 327.7 324.6 315 305.2 292.5 283.7 280 277 274.3 266.4 264.8 266.1 261.5 254.6 245.9 244.4 244.3 232.1 239.2 244.9 249.8 251.1 249 249.9 250.7 249.1 246.7 244.2 242.5 236.9 228.2 228.4 228.9 240.7 240.2 249.8 251.6 257.9 264.4 266.4 271.2 272.8 277.4 277.4 295.9 305.1 305.3
235.2 234.3 235.3 226.6 215.2 209.6 203.9 200 205.3 210.1 215.6 223.9 223.3 221.8 221.5 219.5 213.9 207.3 201.3 192.9 186.9 177 162.9 148.6 138.6 132.3 128.6 122.3 119.8 117.6 115.7 116.4 118.6 121.8 124.3 128.7 132.5 136.7 146.8 148.1 141.6 135.7 129.9 124.4 122.4 116.4 106.1 89.1 87 93.7 96.8 98 92.2 89.4 81.8 73.7 72.3 71.9 79.3 86.8 93.2 96.9 97.5 96.7 97.2 98.2 95.4 92.1 90.7 90.3 92.6 92.7 89.7 88.2 81.9 81.4 80.1 81.4 80.7 82.1 86.1 90.9 94.9 95.8 97.2 98.4 98.2 98 92.2 91.4 92.6 97.9 108.8 119.5 123.5 139.8 160.2 182.8 184 172.5 166.7 167.2 174.1 184.5 184.7 184.3 194.8 209 222.4 231.7 248.6 261.8 272.1 292.5 300.3 303.8 309.9 313.8 323 335.2 341.3 349.2 355.3 362.3 369.6 368.6 363.7 361.3 359.7 363.6 370.9 382.5 385.2 386.7 383.7 374.8 360.3 351.5 342.8 335.4 330.5 323.7 320 320 320 320 320 320 324.1 326.5 323 318.5 315 312 310.1 302.2 294.3 286.3 281 277.9 276.3 271.5 267.1 269.3 263.2 260.2 254.4 246.2 240.9 238.7 232.5 240.7 247.1 249.6 249.4 248.6 248.8 249.4 248 246.4 244.5 243.5 242.6 237.5 228.3 228.6 229.6 236.5 248.6 252 260.3 266.2 268.3 272 274.4 280.5 281.7 299.2 310.1 308
239.1 238.7 234.7 224.4 217.2 213.1 208 202.4 210.6 216.4 222.9 231.6 230 226.7 224.3 220.2 213.3 207.7 200.2 190.9 184.3 174.3 162.8 150.7 137.1 131.5 127.4 124.8 121.9 121 119 115.7 112 114.6 115.6 120.3 121.4 119.5 125.7 129 130.9 130.9 131.2 123.6 116.6 117.2 95.4 83.1 98.3 95.9 98.5 98.9 98.8 93.5 83.8 75.7 73.6 74.1 76.3 83.9 92.7 96.5 97.5 97.8 99.3 100.2 95.4 91.8 89.9 91.2 94.3 93.5 91 88.7 82.4 81.2 81.1 81 81.4 82.1 86.3 90.4 93.8 95.2 96.6 97.7 98.4 97.8 93.3 91.8 93.3 97.8 107.2 118.2 120.7 135.6 154.4 182 179.3 172.9 167.2 166.9 168.8 177.3 181.2 182.5 193.2 213.8 227.9 232.3 245.8 260.7 272.8 288.4 296.8 300.7 303.9 307.6 316.3 327.6 334.6 341.2 342 350.9 355.8 354.1 348.8 343.5 340.7 340.1 349.2 365.9 369.2 368.2 366.5 362.5 353.3 350.2 340.4 332 327.3 322.9 320 320 320 320 320 324.5 326.2 325.7 320.8 316.8 313 309.7 302.7 296.3 290.7 286.7 281.9 277.1 275.4 271.3 268.3 264.9 260.1 256.8 252.3 249.3 241.8 236.2 234.2 243 246.1 248 247.8 246.9 247.6 247.4 246.5 246.2 245.3 244.9 244.7 241.6 235.8 228 228.8 233.6 245.4 253 263.5 267.4 273.8 273.3 274.2 280.8 285.6 299.4 305.9 304
238.8 236.9 230.6 223.7 218.5 212.9 208 208.6 216 224 233 238.8 234.3 230.7 225.7 219.3 210.7 201.4 194.2 188.4 182.7 173.1 164.9 150.2 140.2 136.1 131.1 128.9 124.5 123.5 120.7 116.6 111.8 108.8 108.6 110 110.7 111.1 112.2 112.5 114.5 116.5 121.6 113.6 96.9 94 86.4 87.4 96.8 98.6 100.9 98.8 98.6 90.9 86.1 74.7 72.5 73.7 73.8 80.8 90.5 94.2 97.1 101.4 103.6 102.9 96.4 92.5 90.6 91.9 95.8 93.9 92.6 88.4 82 81.3 81.1 81.1 81.2 81.6 85.6 90.1 92.8 94.6 96.4 97.9 98.8 97.9 93 91.8 92.3 98.7 108.8 113.8 119.1 133.5 165.3 176 178.7 174.5 167.4 166.9 168.8 170.6 174.2 178.7 191.2 206.4 216.4 227.2 239 254 264.7 280.9 290.7 298.2 295.3 293.2 300.1 312.8 318.2 321.4 324 333.5 340.5 338 330.3 323 321.1 323.8 336.7 354.2 355.1 353.5 351.3 354.3 347.3 344 338 333.7 329.5 326.3 323.3 323.5 320 320.2 323.6 325.1 325.7 322.2 317.6 313.4 310.4 306.9 301.2 299.2 291.6 286.9 279.4 272.9 270.2 266.7 263 259.9 255.4 252.4 249.9 244.7 244.6 238.4 236.9 242.2 245.3 246.6 245.9 245.6 245.8 245.7 245 244.8 246.3 245.8 243.9 241.7 238.6 234.3 229.1 234.1 242.1 255.7 264.9 270.5 273.9 273.8 275.1 280.7 287.3 298.2 299.5 302.6
235.6 231.9 227.2 222.8 216 217.1 215.8 211.5 219 225 233.8 242.5 238.8 233.4 225.1 215.8 207.6 200.8 192.3 187.7 180 172.4 164.5 150.5 142.4 137.9 135.2 131.6 127.6 125.7 122 116 111.7 107.3 103.6 107.8 102.7 102.9 101.7 100.2 99 97 92.4 85.8 86.1 90.6 98.6 101.5 102.3 102.3 104.8 99.9 97.4 91.3 83.9 76 73.1 74 74.3 76.7 85.2 91.6 96.6 102.9 106.9 103.8 97.8 93.4 92.2 93.5 97.3 94.3 94 87.9 82.8 81.4 81.2 81.2 81.2 81.4 85.2 89.6 91.4 93.3 96.1 97.8 99.3 97.5 93.2 92.4 92.2 93.2 106 117.4 120.6 138.2 167.6 178.7 181.2 176.5 167.1 167.9 168.7 169 168.4 172.6 182.9 191.7 204.2 213.4 225 238 244.4 256.6 269 280.2 276.4 272.3 279.4 292.3 298.4 302.9 308.5 316.9 321.1 317.9 310.4 304.2 310 316.5 329.1 337.9 338.4 340.9 338.2 340.9 339.2 346 345.2 342 336.3 333.3 332 331.7 327.2 325.1 324.6 323.8 323.7 319.5 316.2 311.8 307.9 304.9 302.1 298.7 295 286.9 277.7 267.6 264.4 261.6 259.3 256.3 249.7 246.9 244.6 244.8 241.4 235.6 237.6 240.6 243.7 243.6 244.5 244.8 244.1 244.1 244 243.1 243.4 243.1 240.9 239 236.3 232.1 229.4 234.7 242.7 256.7 260.4 269.8 274.6 274.2 275.7 279.5 283.9 294.6 295 300
235.9 228.9 226.9 225.1 221.1 219.7 218.2 212.2 220.8 227.7 239 243 238 229.4 222 214.2 206.2 198.8 191.4 187 177.5 168.3 158.4 150.5 144 140.9 140.6 132.7 128.9 126.3 121.8 115.7 110.4 107.2 104.9 98.2 96.5 94.9 93.8 93.9 93.3 87 84.6 87.6 97.1 104.5 109.8 108.2 107 109.2 109.1 106.8 101.3 94 86.6 75.2 73.1 74.1 74.4 75.2 80 85.3 92.8 100.3 107.6 103.9 98.4 94.6 93.8 94.7 98.3 94.5 94.4 89.5 83.1 81.8 81.3 81.3 81.2 81.3 84.1 88.2 90.2 92.1 95.3 98.2 100.1 98.1 93.6 92.8 93.3 93.2 104.4 117.9 121.5 142.4 167.9 181.4 180.4 174.9 165.4 165.8 166 163.9 170 177.3 184.5 187.8 188.2 193.4 203.5 216.3 219 231.4 240.6 249 248.6 248.3 257.2 268 274.8 282.6 291.3 298.7 302.1 303.3 297.6 291 300.6 308.7 316.5 319.4 322 325.7 325.8 327.9 331.6 347.1 350.3 347.8 342.5 340.8 338.7 337.9 332.7 326.5 323.3 320.6 319.2 317.2 314.6 310.4 308.4 305.5 299.9 294.5 289.9 280.8 272.1 264.4 259.3 257 254.9 251.8 246.9 247.6 244.9 242.4 236.1 233.5 237.1 238.8 239 240.2 242.4 244.2 244.4 242.7 241.4 241.6 240.9 240.1 237.7 235.5 233.4 230.1 230 235.4 240.6 252.8 263.8 273.2 274.2 274.5 277.2 280.7 284.5 295.9 299.5 301.5
236.9 231.7 230.5 227.1 224.9 223.7 220.8 217.2 222.4 229.1 240 239.1 233 226 219 213.5 204.6 196 188.9 181.7 177 166.9 160.4 153.5 141.5 142.5 138.8 131.5 127.9 125.5 119.1 113.8 108.1 105.8 102.7 96.4 94.3 91.6 89.6 88.2 84.5 85 86.4 95.1 105.7 111.1 120 116.2 114.4 114.7 114 109.7 103.7 96 82.1 74 73.5 74.2 74.3 75.1 76.8 80.8 86.7 94.8 101 103.5 98.7 96.4 95.7 96.6 97.4 94.6 94.3 88.4 84 82.7 81.2 81.1 81.1 81.5 83.9 87 89.3 92.5 95.9 98.5 100.9 99.3 94 93.2 93.7 93.5 105.5 116.1 124.1 142.4 165.1 182 178.7 173.1 162.3 160.7 158.3 164.8 170.3 181.4 188.5 195 198.5 197.3 197.3 198.6 203.5 208.8 216.1 220.3 223.7 225.1 234.1 241.1 247.6 257.4 268.7 277.8 281.2 283.8 282.2 280.6 286.2 292.7 297.7 300.2 304.8 311.4 316.7 322.4 332.5 351.8 353.2 350.8 348.1 346 342.8 337.3 333.3 327.1 320.1 317.1 314.3 312.9 309.9 306.1 303.9 300.1 295.4 289.6 283.4 275.9 267.7 258.3 255 253.1 251.7 249 246.9 248.1 243.1 237.1 234.2 232.6 234.6 235.1 235.5 236.8 238.3 242.1 242.9 241.7 240.8 241.7 242.1 240.4 237.3 235.2 232.5 230.1 229.6 234.2 241.1 252.4 262.7 269.9 273.6 276.8 277 281.9 293.3 299 301.6 300.6
237.2 236.3 232.6 230.7 229.9 227.2 222.8 218 223 229.1 234.1 231.5 228 222.8 216.7 209.8 202.3 198 193 185.9 179.6 164.4 158 152.2 139.7 133.1 132.8 128.1 123.7 120.4 116 112.4 104.3 103.1 97.6 95.1 93 90 86.8 84.6 86 88.4 101.8 110.6 113.4 120 132.6 127.6 125.6 124.8 119.6 114.6 107.9 97.1 81.3 74.1 74.1 74.3 74.8 75.2 76.1 77.1 81.7 87.6 94.2 100.3 98.7 98.2 97.5 97 95.2 94.6 94.6 89 84.8 83.3 81.8 81.5 81.5 81.8 84.1 87 89 92.1 96.7 99.4 102.1 100.9 94.7 94.4 93.6 93.3 106.4 117.3 122.4 143.3 162.6 178.5 175.9 171 156.9 153.1 158.4 164.9 171.6 182.7 193.8 200.5 203.1 209 210.9 209.6 208.7 212 214 217.8 221.5 226.3 230.4 235.3 239.3 242.7 249.8 256.8 261.1 264.3 269.4 276.6 282.6 287.6 293.6 299.7 306.9 312.7 320.3 333 344.2 352.4 354 352 349.1 343.7 338.6 332.8 326.2 319.2 315.5 312.8 313.3 312.1 309.8 305.1 301.7 299.4 294.1 286.2 276.8 270.4 264 256.7 251.9 250 247.8 245.3 246.5 242 241.8 234.3 233.8 233.3 234.5 234.2 233.7 234 235.6 238 239.8 241.7 243.6 244.6 244.2 240.8 236.4 234 233.1 230.9 230.1 234 241.2 252.4 258.9 268.1 272.1 275.9 279.7 285.3 298.7 302.3 300 300.1
240.9 239.1 235.6 235.7 233.5 230.6 226.7 221.9 222.6 226.8 228.2 225.9 223.8 219.2 213.7 207.6 204.9 202.5 197.6 187.3 173.8 162.6 156.4 156.3 141.9 125.5 126.1 123 120 115.4 114.2 111.3 100.2 96.3 94.3 91 90 88.5 86.8 86.9 89.5 92.6 106.7 117.6 119.8 133.9 142.1 138.1 134.5 134.6 129.2 119.8 111.4 98.4 81.6 75.1 74.7 75.3 75.2 76 76.4 76.1 78.4 82.2 86.7 93.7 97.3 97.8 97.6 97 94.4 95 95.3 89.7 86.7 84.9 83.4 81.6 82 82.5 84.3 87.4 89.4 93 97.7 100.5 103.1 101.5 94.9 94.8 94.4 94.4 106.6 115.5 125.2 143.2 158 163.3 166.5 165.6 150.4 152.2 158.2 165.7 173.6 182.1 190.6 197.6 205.1 217.5 222.6 224.4 225.2 231.3 230.8 232.6 233.9 239.9 245.8 250.4 252.4 253.3 256.2 262 268.4 271.8 277.5 286.4 293.2 301.5 308.2 312.2 318.7 325.3 336.6 347.9 350.8 353 351.8 350.5 346.5 340.1 333 326.1 320.2 314.5 311.7 311.2 312.1 311.6 309.8 305.9 301.3 296.8 291.1 283.2 274 266.8 262.7 257.6 253.8 248.7 250.2 241.8 241.7 241 238 234.4 234.5 233.4 233.2 233.7 233.8 233.8 234.1 235.6 239.1 243.7 246.2 245.1 243.8 239.6 236.6 236.1 234.9 232.7 230.2 233.7 240.4 252.1 262.4 263.1 268.5 273.3 279.2 286.4 296 299.4 300 302.7
243.2 241 240.5 240.5 238.5 234.2 230.5 225.9 223.4 224.9 224.6 222.5 219.3 217 214.4 212.4 211.6 208.7 200.9 191.6 173.5 161.2 150.8 136.7 134.3 120.4 118.9 116.7 111.6 108.9 107.6 99.8 95.4 92.7 90.2 89.3 89.5 88.1 86.2 88.7 91.1 100.7 119.5 123.9 133.7 145.8 146.9 142.5 141.6 140.6 133.8 124.2 113.2 101.4 86.9 76.8 75.3 75.3 75.9 76 76.6 76.7 77.1 77.6 80.8 85.2 90.9 96.6 98.6 96.1 95.2 96 95.4 90.8 89.4 87.3 84.6 83 82.9 83.4 84.7 87.3 90 93.9 98.3 101.1 103.7 102.1 95.8 95.5 96.1 97.5 104.9 113.7 121 138.4 153.1 155.8 161.3 162.7 145.4 150.3 157 165.5 177.6 184.1 192.9 200.7 206.6 213.3 220.8 226.6 230.9 244.1 252 254.4 255.3 262.8 269 273.8 278.2 278.7 278.6 279.2 282.3 289.1 290 299.4 306.4 311.2 318.5 323.6 331.1 340.5 349.3 352.7 349.8 348.9 345.9 342.7 337.1 330.5 325.5 320.8 316 313.4 312.5 311.1 311.2 309.8 307.7 304.8 300.9 295 287.1 279.7 272.5 267.3 262.8 258.1 253.7 249.3 246.5 241 238.4 237.3 235.5 234.6 234.3 233.9 233.4 232.8 233.3 233.3 234.4 236.7 241 245.3 248.7 244.7 241.7 241.3 240.3 238 235.5 233.8 229.8 234.8 240.9 249.5 260.3 263.2 265.3 270.8 278.7 293.9 297.2 301.3 303.4 301.4
244 243.6 244.4 243.8 242.7 238.5 234.6 230 226.7 226.5 224.7 222.2 220.1 219.9 219 218.6 219.5 213.8 203.2 193.2 176.3 163.9 160.3 150.8 128.6 116.8 112.1 113 104.7 101.2 96.9 94.4 92.9 91.2 89.8 89.5 89.3 88.4 86.8 89.4 94.6 110 125.6 132.4 150.9 153 151 147.8 144.8 139.5 135 127.1 115.1 103 90.5 79.5 77.6 76.3 75.7 76.5 76.7 77.2 77.7 77.8 78 79.7 83.1 91.4 97.7 96 95.3 97.9 95.9 93.6 93.4 89.5 85.8 84.5 84.8 84.5 86.5 88.7 90.7 94.6 99.1 101.5 103.4 100 95.8 97.1 98.6 99.7 103.9 111.2 118.9 134.5 146.1 148.7 160.4 154.6 142.6 148.8 155 165.8 176.5 182 192.4 201.4 211 218.8 223.9 228 231.1 234.5 245.8 247.8 245.7 246.3 253.1 262.6 274.9 287.1 294 301.3 305.7 310.4 311.4 315.2 321.6 322.9 329.2 337.9 344.5 347.7 356.2 352.3 347.1 343.5 339.5 333.4 328.8 324.1 320.3 317.1 314.8 312.2 311.1 309.2 309.5 307.5 306 305.9 301.4 293 284.9 277.6 272.9 267.4 262.4 257.8 253.3 247.3 241.2 239.3 238 236.8 236 234.8 234.2 234.1 234.2 234.1 233.9 234.4 236.9 240.3 241.6 243.2 245.5 244.9 245.3 244.6 243.4 239.7 235 230.4 231.6 237.4 246.4 250.9 256.3 260 262.9 267.8 277.7 295.2 303.2 306.4 300.7 305.1
244.9 245.2 247 247.4 245.9 243.4 238.9 233.5 230.5 228.8 226 223.9 224.4 225.3 225.5 226.9 222.8 214 205.3 190.3 178.2 169.6 164.6 157.7 131.3 117.1 107.8 107 102.6 99.1 94.6 93.1 91.6 90.8 89.5 89.8 88.5 88.5 87.6 92.8 102.4 119 138.4 150.2 162.7 159.6 157.7 150.1 144.7 141.5 135.5 127.7 117.9 103.7 90.8 83.3 82.5 80.3 77.4 76.7 77.3 77.7 78.3 77.9 78.5 78.9 79.4 83 94.5 95.3 96.1 97.6 95.3 96.4 99 93.1 88.1 87.1 87.2 85.3 87.4 89.9 91.7 95 99.2 101.3 103 100 96.6 97.7 100.7 101.5 104.1 109.3 116.9 130.1 134.4 140 150.6 147.9 141.7 147.7 154.7 165.2 173.4 179.4 185.5 193.9 207.7 218.3 225.8 229.4 230.5 231 233.9 232.1 232.7 235.9 239.6 244.7 259.2 275.9 287.2 298 309.3 318.5 322.2 329.9 337.6 339.5 337.4 350.5 359 355.1 353 347 341.5 338.9 335.2 329.6 325.9 322.1 319 316.3 313.5 311.2 309.7 307.9 307.1 306.4 306 305.9 299.3 293.2 286.6 278.9 272.7 267.5 262 256.4 252.2 245 242.8 240.2 238.3 237.3 236 234.9 234.3 234.5 234.5 234.4 233.8 236.3 242.2 243.4 244.8 245.5 247.4 248.7 246.6 245.8 244 239.5 232 231.5 236 242.4 248.1 253 254.9 256.9 260.9 270.3 288.9 298.2 305.7 300.5 306.5 312.2
244.2 245.6 246.9 247.3 247.3 245.1 240.8 234.3 235.5 232.1 229.6 228.7 229.5 230.4 231.3 232.7 223.4 213.8 203.6 192.9 180.4 171.5 164.4 154.9 134.1 113.7 108.2 103.5 100 97 94.1 91.3 90.1 89.2 89 88.8 88.6 87.6 87.5 98.9 107.8 129.6 145.9 161.3 167.2 163.7 161.1 152.5 147.9 144.6 138 129.3 117 104.7 90.4 83.3 83.6 86.7 83.4 79.1 77.1 78.4 78.4 77.9 78.9 78.7 79.3 79.8 85.8 93.1 97 97.9 97.6 102.1 103 98.2 91.3 89.6 88.8 87 88.4 91 92.9 95.5 97.2 100.4 101.8 99.1 97.3 98.2 99.6 101.4 104 106.8 116.6 124.1 124.8 135.3 140.8 140.1 140.7 145.7 154.1 163.9 172.4 179.3 185.1 192.6 200.1 213.8 221.5 224 224.6 222.4 220.3 222.3 226.8 232.8 237.6 241.2 247.4 255.7 271.6 286.3 293.4 304.9 316 329.5 338.7 347.3 348 352.6 359.9 356 349.6 345.4 339.3 337.2 330.8 327.1 323.3 321.1 318.4 316.3 313.9 312.8 309.1 307.5 307.1 306.5 306 304.8 297.1 292 286.1 277.4 270.8 265.7 261.3 256.8 253.2 250 244.1 240.1 238.9 237.5 235.9 235.9 235.1 234.6 234.7 234.7 236 239.6 244 246.8 248.3 249.9 252 249.8 247.2 244.5 241 235.6 231.9 234.4 237.7 241.4 246.2 250.7 252.5 254.2 258.6 272 286.2 301.9 303.4 298.1 308.8 315.2
243.8 244.3 245.2 245.3 245.1 243.1 239.3 237.3 237.7 236 233.9 232.4 232.2 231.7 233.3 234.3 224 215.5 203.6 193.1 183.1 173.6 161.7 150.9 128.5 121.8 115.4 103.4 99 94.9 92.2 90.2 89.8 89.8 88.9 89.1 89.3 89 96.9 103.2 112 139.1 152.8 165.8 174 167.2 164 155.9 150.2 142.9 136.9 129.9 119.9 106.8 91.9 85.2 86.2 90.9 89.1 87.5 82.9 78.2 78.4 78.8 78.9 79.3 80 79.5 81.7 90.4 97.2 98.4 101.9 106.2 107 101.4 96.1 92.1 91 88.6 89.8 91.6 93.5 96.2 97.7 100.1 101.4 98.4 97.7 98.7 100 101 103.1 105.3 114.6 117.7 114.9 134.1 143.7 137.9 137.8 142.4 149.8 155.7 164 171 176.9 186.1 191.3 203.8 208.4 209.8 208.9 210.2 213.6 219.7 226.1 233.9 238.5 240 243.3 247.7 254.7 261.9 272.6 285.4 297.8 310.4 324.8 339.4 352.1 353.6 352.2 351.9 350.4 341.9 334.2 329 326.4 323.7 322.4 320.6 318.4 315.4 313.7 311.7 309.7 307.8 305.1 305.9 306 301.2 295.3 292.4 286.9 278.3 271.6 266.8 260.8 257.2 254.7 250.1 241.8 239.4 238.1 237.2 236.4 236.5 235.9 235.2 235.2 236.5 238.2 243.5 249 251.9 253.4 253.4 252.1 249.6 246.6 242.6 237.4 232.3 233.9 238.3 239.8 240.6 244.1 246.6 248.7 251.3 260.2 280.3 289.1 292.9 294.2 300.1 313.2 317.5
243.7 243.2 243.2 242.8 241.8 239 238.6 238.9 239.6 237.3 234.4 233.8 231.3 230.3 230.9 232.4 223.6 212.1 204.6 192.2 182.6 173.9 161.7 149 143.9 125.7 113.4 101.2 97 91.5 90.9 94.5 95 94.8 93.5 93.3 94.1 95.6 100.2 109.6 123.1 147.5 160 173.5 175.9 171.1 166 157.1 151.4 142.2 135.1 127.3 117.8 105.4 92.5 87.7 87.1 91.3 91 91 87.4 80.5 78.8 79.5 79.7 79.5 80.2 79.8 80.1 86.2 96.4 100.3 105.1 110.2 109.7 104.1 98.8 94.8 92.4 89.6 90.3 92.3 92.8 95.3 96.6 99 101 98.3 99.1 99.1 100 101.4 103.3 105.4 107.2 113.4 121.5 129.2 136.5 132.2 137.5 143.6 151.9 160.1 162.4 162 168.8 174.3 183.3 188.8 192.6 196.9 201 204 209.1 214.5 220.7 228 232.2 235 238.3 241.8 243 245.1 252.3 265.7 274.7 290 302.1 315.6 328.6 339.7 344.1 342.7 342 337.1 325.6 324 320.8 319.1 319.1 318.3 317.8 316.3 314 310.9 307.8 305.1 304.7 304.5 304 300 292.7 292.7 289.9 277.9 269.9 265 260.4 258.1 254.9 248.3 243 240.4 239 237.8 237 237 235.9 235.8 236.8 241.7 246.8 251.2 254.5 255.8 255.6 254 251.7 249.6 245.8 239.5 234.7 232.5 235.6 239.8 240.7 240.6 242 243.5 245.4 249.9 265.8 278.7 286.5 286.5 292.4 307.1 311.2 316.6
244.8 242.6 240.1 240.2 238.7 238.4 237.6 238.9 239 235.9 233.4 231.1 227.5 225.9 225 224.4 218.4 209.2 202.3 190.7 185.8 175.6 160.7 155.4 146.1 128.4 112.4 100 94.8 91.4 95.4 97 95.5 94.1 94.9 96 95.8 98.6 104.1 112.1 132.3 150.9 168.9 177.3 176.3 173.4 167.3 158.4 150.8 143 136.9 126.1 116.5 105.7 93.3 90.1 89.3 95.4 94.1 92.4 89.2 82.5 82.1 79.8 80.2 80.2 80.6 80.3 81.3 85.5 95.5 101.9 107.1 111.7 110.1 104.4 98.3 94.6 92.1 91.8 91.3 92.3 92.3 93.5 96.2 98 99.7 97.8 97.9 98.3 100.4 101.6 101.9 104.9 112 117.7 123.7 128 129.4 132.7 137.9 144.7 152.6 161.8 167.6 169.3 170.5 173.3 176.4 181 186.7 191.1 192.6 197.5 200.5 206.6 209.3 218 225.6 229.8 233.6 234.8 233.7 236 238.3 244.3 254.9 265.5 279.6 290.7 302.1 311.4 319.8 324.9 326.4 316.4 310.4 308.7 308.8 310.3 312.4 315.9 317 315 313.4 311 308.4 305.8 303.1 302.5 299.1 296.6 292.6 288.9 281.7 273.7 266.3 261.6 258 257.4 253.7 246.9 244 241.5 239.9 238.6 237.8 236.9 238.3 239.2 242 248 252 256.1 256.8 256.9 255.4 253.1 250.8 248.4 241.5 237.4 235.5 232.8 234.4 238.6 239.3 238.9 239.4 240.9 243.6 249.4 258.9 269.5 278.1 288 301 306.9 312.7 320.5
245.1 242.6 240.9 239.2 237.3 236 234.7 237.9 236.8 233.7 230.9 227 223.5 220 217 216.4 214.4 199.4 201.5 191.3 182.9 173.6 165.8 162.2 152.8 130.2 105.4 97.5 92.9 97.8 104 99.6 95.3 93.6 97.6 97.6 98.4 101.3 107.3 115.3 138.9 155.7 175.1 180.2 177.1 173.5 166.7 156.5 146.4 141.2 135.3 128.9 118.7 107.4 95.3 93.6 92.2 96.3 95.8 92.4 89 81.9 82.8 80.4 80.5 80.2 80.7 81.1 81.7 84.7 94.6 101.8 107.6 111.5 108.3 102.6 97 93.3 91.6 92.2 92.4 92 92.3 93.6 96 97.2 99.5 98.4 98.2 98.8 99.4 100.5 101 104.7 115.3 121 128.7 131.6 132.6 135 139.3 144 152.9 161.5 168.2 171.4 174.2 177.8 181.6 185.7 187.6 187.4 195.6 202.1 208.2 216 223.7 229.3 231.6 232.9 234.2 234.3 233.5 232.8 234.2 236.4 240.5 244.6 252.9 263.3 273.6 284.1 290.6 296.3 297 291.5 288.7 292 291.4 294.9 297 310 314.7 313.2 312.3 309.3 306.9 304.1 299.5 298.7 297 293.1 288.1 287.1 279.8 274.5 268.5 263.9 259.2 255.2 250.9 246.5 244.2 241.9 239.5 240.3 241.2 243.5 247.1 248.4 249.9 253.5 256.7 257.4 256.7 255.4 253.8 252.2 248.4 244.1 241.6 239.8 237.1 234 232.6 236.2 237.2 236.9 237.7 239.4 244 251.1 261.8 271.4 283.9 293.6 300.8 308 314.6 329.8
247.4 245.2 242.5 240.4 237.8 236.7 237 234 231.4 228.6 225.6 222.1 224.3 222.1 219.9 218.8 213.9 209.6 203.6 191.3 181.3 179.3 158.6 152.1 148.6 132.5 102.7 96.3 93.1 97.3 99.5 97.7 97 99.5 100.8 100.9 101.7 104.4 108.7 122.6 141.8 162.9 176.9 177.9 174.6 168.6 161.8 154.8 149.7 144.2 137.5 129.2 119.2 109.1 98.4 96.3 95.3 96.8 96.4 93.8 89.4 81.9 82.6 81.1 81.2 81.3 80.9 81.6 81.5 84.8 92.6 99.9 105.3 109.1 104.2 100 95.3 92.6 91.4 92.7 93.3 92.1 92.2 93.7 96.2 98.6 99.1 98.6 98.8 99.4 98.9 99.2 99.8 100.6 115.2 124.1 134.8 133.7 134.4 137.2 140.3 145.3 154.4 165 170.2 174.4 177.8 181.8 186.6 190.2 193.4 196 199.6 203.7 209.7 220.8 234.2 237.9 240.3 240.4 239 239.3 237.9 236.7 235.8 236 236.4 238.5 241.1 244.3 248.1 255.7 264.7 270 273.3 271.5 272.9 278 282.2 288.1 291.4 306.5 313 311.9 311.2 310.2 309 307.1 304.7 305 303.9 300.3 296.1 290.9 283.8 277.5 271.6 266.8 261.5 257.8 253.4 248.3 244.1 241.7 244.5 247.5 247.9 249.5 251.2 252.2 254.8 256.5 257.6 256.1 255.1 253 251.9 250.6 248.1 245.6 242.3 239.5 236.9 234.5 232.4 233.8 235.1 235.2 236.9 241.6 252.4 275 278 280.6 286.2 294.9 303.2 308.4 324.2 329.6
249.2 246.3 244.4 241.1 239.7 239.4 239.3 237.5 234.3 229.9 229.3 229.4 228.1 226.1 224 222.4 217.7 212.2 204.9 191.5 179.4 167.1 147.6 137.7 134.3 118.2 99.7 96.2 93.3 93.4 95.8 96.5 95.1 98.7 104.5 104.2 104.4 107 114.3 125.1 144.3 171.2 179.5 175.9 174.3 167.2 160.8 154.9 150.4 144.6 137.8 129.2 120 112.3 99.8 96.6 95.5 96.2 97.9 94.7 90.2 82.3 83.5 81.8 81.8 81.9 82 82 82.1 84.6 89.9 96.7 103.4 104.5 101.6 97.4 93.5 92.2 92.1 93.3 93.9 91.8 92.3 94.7 97.7 99.9 99.6 99.3 98.8 99.2 99 99 99.4 100.5 116.4 129.2 132.5 134.1 136.3 138.5 142.4 147.9 156.6 167.6 172.4 177.1 181.1 184.8 191.4 194.7 198.7 202.4 204.9 207.5 213.3 221.9 239.6 249.5 251.5 249.4 247.2 244.3 242.8 241.4 239.6 240.6 239.7 239.9 240 241.4 242.9 245.1 248.9 252.1 256.3 262.2 267.1 272.6 279.2 284.5 295.6 310.4 313.3 314.4 314.3 313.2 311.6 310.7 309.8 309.5 305.7 301.3 297.4 294.2 287.5 281.8 274.9 271.8 267.1 263.2 257.8 250.6 246.3 241.7 247.7 251 252.1 252.8 253.3 254.7 256.9 257.7 255.7 254.6 253.4 251 252.4 253.7 249.9 245.1 241.6 238.1 236.9 235.7 232.6 232.6 233.6 236 240.5 249.6 273.4 278.5 281.4 283.9 289.1 295.9 299.3 311.7 322.5 326.2
250.6 249.3 246.7 242.6 241.9 241.8 240.9 239.6 236.1 234.7 234.3 234.8 232.1 228.8 226.3 224 219.5 214.5 206.9 193.5 177.3 160.7 142.9 131.5 117.8 106.3 100.2 96 92.8 93.3 94.5 95.6 94.1 95.6 112.1 108.8 111.4 114.3 123.7 121.7 150.5 178.1 178.6 182.7 176.9 169.7 159.8 154.4 149.8 142.7 138.2 132.3 123 114.4 102.7 97.6 97.5 96.8 94.3 93 86.2 81.9 84.4 82.2 82.3 82.5 82.6 82.3 82.5 83.1 87.6 93.8 100.7 99.9 97.3 95.6 93 91.9 91.7 94.4 94.4 92.5 92.4 95.6 99 101.2 100.7 98.9 99 99 99.8 99.5 99.5 100.2 109.4 129.4 133 135 136.9 140.6 144.7 150.1 158.8 169.3 172.6 178.1 183.7 189.1 194.3 198.3 203.2 207.1 211.4 213 217.1 229.1 241 256.4 258.7 256.9 254.9 251.4 248.5 247.5 247.2 246.5 247.6 247.6 246.2 245.2 246.8 247.6 248.5 250.7 255.7 258.7 264.6 270.5 280.2 291.5 305.8 313.5 317.4 318.1 317.9 316.3 315 313.4 312.1 310.4 308.9 306 303.2 299.1 292 284.8 278.8 273.4 269.9 265.7 260.7 253.8 245.8 243.3 249.3 252.9 253 254.8 255.3 256.4 256.8 255.7 254.4 253.2 252.3 251.8 253.6 256.4 246.9 243.8 239.8 238.4 237.5 235.5 233.3 233.3 233.5 237.1 243.3 268.3 274.3 275.8 280.5 283 297.7 299.3 305.4 308.4 317.6 324.6
252.6 252.2 248.9 245.4 244.1 244.2 243.5 242.5 240.4 240.2 240.3 239.1 236.1 232.6 227.8 224.1 218.8 212.8 207.1 194.9 176.6 157 140.3 128.5 113.1 103.6 99.2 95 92.8 92.8 94.1 96.4 95.1 98.9 104 100.8 112.4 121.1 130.9 134.2 157.1 178.2 184.7 186.3 178.4 169.3 160.4 154.6 149.7 147 141.5 134.3 126.8 118.4 105.2 99.6 97.4 97.5 91.9 89.8 86.7 82.3 86.3 85 83.1 83.2 83.1 83 82.8 82.6 83.7 89.3 95.4 96.4 95.7 95.5 92.6 92 93.1 95.9 95.5 93.8 93.5 96.6 99.5 101.4 100.9 99.3 99.5 99.3 100.1 99.7 100 100.9 104.9 121.4 132.2 134 138.9 143.2 147.9 153.2 161.3 170.3 172.8 179.3 184.8 190.5 196.2 201.5 206.4 210.8 217.3 222.9 225.6 240.1 250.4 261.4 265.8 264.3 262.9 261.5 260.3 259.9 260 257.2 257.8 258 255.6 251.5 253.1 253.4 255.4 256.7 262.7 266.9 272 279.3 287.2 304.4 313.1 318.8 321.6 322.6 322.3 320.4 318.9 316.4 314 312.8 311.8 309.4 306.7 301.4 292.9 285 279.5 272.9 268.6 264 259.8 254 244.4 244.6 249.2 252.7 254.5 254.7 255.3 255.4 255 254.2 253.2 252.3 251.5 251.3 253.2 250.9 246.1 244.6 239.5 238.6 237.9 236.7 234.4 233.7 232.8 236.7 248.7 266.8 271.9 276.8 278 285.7 298.6 304 306.7 313.4 318.1 325.4
255.2 253.3 250.8 247.9 245.5 245.6 246.3 245.7 245.2 245.7 246.4 244.5 240.8 235 229.3 225.3 218.1 211.3 203.4 192.9 171.7 151.2 133.5 121.1 110.2 101.8 98.1 95.1 93.4 93.6 95.1 94.7 93.6 93.7 96.4 95.1 102.8 120.8 135.8 139.5 160 184.3 187.1 187.4 180 171.4 161.9 154.8 150.2 148.8 142.7 135.4 128.4 120 109.7 102.9 97.8 95.3 91.4 90.2 87.6 83.2 85.8 88.7 83.3 83.4 83.2 83.5 83.5 83.5 83.4 85.4 90.1 93.7 95.5 94.7 93.3 93.2 95.7 98.3 98.1 95.3 94.7 97.6 100.2 100.4 99.7 99.8 100 100.1 100.5 101.1 101.4 102.5 105.6 115.6 123.9 133.6 138.6 144.3 150.5 156.8 164.5 170.4 175.1 177.8 183.8 191 198.5 202.8 209.4 215.4 225.3 231.5 240 254.3 263.9 270.8 273.9 273.5 272.2 270.4 270.2 271.6 269.7 266.3 267 267.4 267.3 263 266.4 267 269.1 271.3 271.2 272.9 280.6 288.6 296.2 312 320.3 323.9 327.7 327.5 326.9 325.1 322.8 320 317.9 315.8 314.1 312 309 304.2 295 285.6 279.1 273.6 266.7 261.6 255.2 251 244.9 246 249 251.8 253.8 254.3 254.4 254.4 254.1 253 252 251.2 250.5 249.8 250.4 246.8 244.2 241.8 240.5 240.2 239.5 237.9 234.2 233.4 232.9 238 253.5 264.6 269.3 273 275.9 290.9 296.4 305 309.2 313.6 317.1 327.7
256.9 255 252.2 249.1 246.3 246.5 246.5 247.1 248.2 249 250.4 247.5 241.5 236.3 231 224.8 215.2 208.2 200.2 187.2 169.8 148 129.6 116.7 107.6 102.5 98 95.3 93.5 93.8 94.4 94.3 95.9 96.3 94.1 96.1 108.9 116.7 129.4 140 161 187.8 189 188.8 181.3 172.5 164.4 155.2 151.4 149.9 144.7 137.7 130.3 120.9 111.9 103.9 96.8 94.3 93.8 92.5 88.7 82.9 84.4 90.2 85.7 83.9 84.6 84.2 84.1 84 83.7 84.1 88.1 93.4 95.9 95.8 94.2 95.4 97.9 100.7 99.4 97.3 96.1 99.1 100.4 99.7 99.3 100.5 100.6 100.6 100.6 101.2 101.4 101.6 105.2 112.6 118.1 131.2 138.6 147.3 154.4 159.8 165.3 170.1 173.8 177.3 183.4 193.5 201.1 206.8 213.3 219.1 229.9 238.9 252.8 264 274.5 281.4 282 280.9 279.6 278.7 278.6 278 276.6 272.9 276.9 277.2 276 276.4 279.8 279.8 282.2 284.2 284.6 283.5 287.5 294.4 307 317.1 324.2 327.7 331.6 332.3 332 329.8 326.7 323.5 321.1 319 316 311.7 306.6 304.3 293.6 285.9 280.1 273.2 265.7 259.5 254.3 249.9 246.3 243.7 247.3 248.5 251.2 253.1 253.5 254.6 253.5 250.7 250.2 251.1 252.3 250.1 249.7 248.1 246.7 241.9 241.9 241.3 238.6 233.9 233.8 233.1 233.9 239.1 258.2 264.3 268.2 266.9 273.1 292.9 294.4 304.3 306.7 311.5 316.8 332.1
256.8 255.1 252.7 248.6 245.8 245.5 245.8 245.8 243.9 247.1 249.1 244.4 241 232.9 228.3 221.1 206.9 198.6 188.9 175.7 165 148.6 132.7 116.7 105.3 101.6 97.6 95 93.6 93.9 93.6 95 96.1 98.8 98.8 101.6 110.8 115.8 125.5 140.3 171.1 190.9 191.2 190.8 183.8 174.5 166.3 157.1 152.9 151 146 139 131.4 121.7 112.4 104.5 98.1 95.3 94.6 95.2 88.8 83.2 84.9 91 88.1 84.6 85.5 84.7 84.5 84.3 84 83.7 88.4 93.3 96.4 96.6 95.9 96.9 100.2 102.9 101.8 99.8 98.3 101.1 100.9 100 100 100.4 100.6 101 100.7 101 101.8 102.7 105.7 110.6 118.6 128.3 140.2 145.1 154.6 159.2 164.8 169.7 172.2 176.8 183.8 193.6 201.2 208.3 216 224.3 231.9 241.4 253.8 265 279.4 287.3 289.1 288.6 287.7 287.4 286.5 286.3 282.7 279 279.7 281.6 283.4 282.5 288.1 292.4 296.8 300.4 302 300.6 296.7 299 313.4 330.2 334.6 335.8 335.8 339.2 336.6 334 330.8 326.9 323.7 320.2 316.2 308.8 302 298.8 292.2 284.7 278.4 270.7 263 257.4 252.2 249.1 246.1 244.8 244.8 248 251.2 253.5 254.2 254.8 250.9 248.5 249.3 253 255.5 253.1 248.9 249.7 242.5 241.8 240.9 238.4 235.8 234.1 233.5 234.1 233.9 241.4 256.3 261 264.7 265.6 282 288.3 296.5 300 304.3 309.5 328.2 332.4
256.8 254 252.5 247.3 242.9 243.2 243.5 242.1 238.5 238.6 242.7 238.4 232.9 221.9 217.8 206 197 188.5 179.1 168.1 160.1 147.1 131.5 118.5 105.2 100.9 97 94.6 93.9 93.6 94.7 95.5 97.8 101.2 103.1 106.7 111.9 116.6 127.8 145.5 175.3 192.9 194.5 191.5 185.4 178 165.4 158.2 155.3 152.6 147.5 139.9 132 122.8 109.2 103.9 99.6 96.7 95.3 96.6 90.2 83.4 85.4 91.4 90.2 85 85.5 85.4 85.1 84.8 84.5 84.5 88 93.5 97.7 97.3 96.5 97.7 101.9 104.4 104.1 101.4 101.4 102.8 102.1 100.5 101 101 101.5 101.8 101.6 101.4 102.8 103 105.6 109.7 116.2 125.5 135.4 144.5 152.2 158 162.7 166.3 169.5 175.8 182.9 191 200.3 207 215.3 222.9 231.4 237.7 249.8 264.7 283.3 295.5 295.6 293.7 291.5 289.8 288.8 286.7 286.5 284.3 282.7 287.2 287.3 288.6 294.3 300.7 308.2 311.8 314.7 314 313 313 322.6 339.4 341 343.2 342.2 342.5 341.5 338 333.8 329.3 325 319.2 314.7 308.8 300.9 293.4 287.9 280.5 274.2 267.8 261.6 255.1 252.3 249.3 247 245.8 245.3 247 250.9 253.6 252.9 253.9 247.3 247.5 253.1 257 257.6 250.7 252.6 241 238.4 237.8 237 235 234.3 234 234.2 233.5 235.9 248.1 256.3 259.8 261.2 267.7 283.4 284.9 293.8 295.3 302.2 308.9 327.9 331.3
253.5 250.7 248.5 244.2 240.7 242.7 241 237.6 234.7 232.3 230 222.3 219.2 212.7 205 196.5 189.7 179.7 169.7 162.8 155.6 143.8 132.1 115.9 105.4 99.9 96.6 95.2 93.9 94.3 94.7 97 101.3 104.8 107 110.3 114.8 120.2 130.8 154.2 181.3 195.5 196.2 193 188.4 179.9 165.9 159.3 156.4 154.3 148.8 140.7 132 123.5 109 103.7 100.7 99.8 98.3 95.1 90.8 84.8 87 93.2 91.7 87 85.9 85.4 85.6 85 84.8 85.2 88.3 94.4 98.8 99 98 100 103.4 106.6 106.3 104.5 103.8 104.7 103.3 101.4 104 102.3 101.9 102.3 102.4 102.3 103.2 104 105.9 109.3 114.2 121.1 129.7 141.9 147.7 153.5 157.7 163.3 168.6 174.2 182 190.4 197.4 204.8 213.6 221 227.4 233.3 244.5 260.8 275.1 292.9 293.5 292.8 291.9 291.8 290.9 288.7 287.1 286.1 285.6 286.6 289.1 294.7 300.1 308.5 316.9 323.4 327.8 330.8 330.2 329 330.1 339.2 343.7 346.1 347.4 345.2 344.7 340.9 335.2 330.3 324 318.1 311.8 308.3 303.9 296.4 285.2 277.7 274.5 266.9 259.8 255.8 253.3 249.2 247.7 246.5 245.4 246.6 249.3 249.7 248.9 246.1 245 248.1 253.3 251 250.7 259 247.1 238.4 236 235.5 234.9 234.9 234.3 233.9 233.9 234.5 240.3 254.5 256.9 258.6 260.5 275.2 281 282.8 289.6 294.3 299 311.1 323.6 328.2
249.1 246.2 243.9 239.2 237.7 238.7 235.9 232.9 233.4 229.7 224.3 216.8 212.8 205.7 197.1 187.5 179.8 171.1 165.7 160.3 152.4 139.9 127.6 114.3 105.1 100.1 95.5 94.3 94.3 94.7 94.4 98.9 104.2 109.5 115.4 118.2 123.5 128.6 136.9 159.7 187.3 197.8 198.4 193.8 190.5 180.7 166.5 159.2 157.3 154.9 147.7 139.8 132.4 127 111.8 104.1 102.1 102 100.3 96 92.4 84.8 88.8 93.2 91.5 87.8 86 86.2 86.2 85.8 85.1 85.7 89.2 96 101.3 101.4 100.6 102.6 105.1 108.5 109.1 107.2 106.3 107.1 105.2 103.5 107.5 105.3 103.6 102.9 103.3 103.8 104.4 105.1 107.4 109.8 114.5 119.3 128 132.9 142.2 150.5 157.1 161.4 167.4 175 181.8 189.6 196 202.8 209.7 217 223 227.1 233.9 248.7 265.9 280.4 289.1 292.6 293.9 291.2 288.5 287.6 286.7 285.9 285.4 285.8 290.7 297.7 305.7 313.1 325.9 336.2 343.9 344.4 344.5 346.7 348.8 350.5 352.7 354 351.8 349.2 346.6 341.1 335 329.4 322.5 317.4 315.1 310 303.7 296.2 285.3 278.3 273.8 267.3 259.6 255.3 252.5 249.5 248.9 247.6 246.2 245.2 248.7 250 251 244.9 244.2 247.5 247.6 245 247.2 250.3 238.4 236.4 235.4 234.7 235.3 234.6 234.9 234.6 234.3 236.4 246.6 257 258.5 258.4 260.8 275.1 275.9 281.9 289.4 292.9 297 312.1 320.8 323.5
243.8 239.8 236.8 234.9 231 231.5 230.9 226.8 228.9 222.9 214.9 209.8 206.1 198.8 188.7 178.8 170.7 166.1 166 162.1 151.9 140.2 124.9 111.8 104.8 100.4 95.7 94.5 94.5 94.8 96.3 99.8 106.8 112.2 118.7 123.6 128.7 135 142.9 166.8 188.9 196.2 199.5 193.8 190.5 180.8 164.8 158.3 156.5 153.2 146.4 138 128.6 121.4 111.3 104.4 103 103.9 102.3 96 91.8 83.7 90.5 96.2 92.5 88.1 86.7 86.7 86.5 86.1 85.6 86.3 90.9 98.3 103.6 104.1 103.2 104.8 106.7 109.5 111.4 109.4 108.8 108 105.1 106.4 110 107.3 103.4 104.2 104.2 104.6 104.9 106 107.8 111 116.1 120.5 125.4 131.8 140.2 150.9 156.5 160.3 166.2 175.2 182.8 188.6 195.5 202.6 210 216.3 220.9 223.3 225.8 235.6 251 265.5 273.6 283.3 283.7 280.9 280.8 280.5 283.5 281.6 280.5 279.6 285.2 299.1 309.2 317.5 329.4 343 350.4 354.8 356.4 360.1 364.2 364.2 373 368.6 361.4 354.2 348.7 342.2 334.3 327 323.3 321.3 313.2 306.7 300.9 295.2 288.7 279.4 273.4 265.6 257.9 254.4 252.9 250.6 249.8 248.1 247.1 246 247.4 249.1 249.7 244 244.7 246.1 245.3 242.4 240.7 238.9 237.3 236.9 237 235.2 234.6 234.9 235.2 235.3 234.6 243.3 255 260.1 256.6 257.6 263.4 272.8 273.3 278 290.3 289.2 299 310.5 315.1 318.3
240.3 236.1 233.9 230.7 225.5 225.6 225.6 219.4 215.3 214.5 211.1 207.4 203.6 196.6 184.8 177 170.8 167.6 164.9 155.4 153.1 135.2 119.5 111.2 105.3 100.3 95.3 94.6 95.1 95.2 96.6 99.7 105.1 110.4 117.1 124.4 131.2 139.3 149.5 170 190.9 193.7 197.5 191.3 187.8 178.2 163.5 157.4 154.3 149.9 143.1 135.5 125.6 115.5 109.8 104.8 103.5 105.6 102.9 96.7 94 83.4 93.3 97.9 91.6 87.7 87 87 86.9 86.5 86.3 88.2 92.6 99.2 104.6 106.1 106.3 106.5 108.5 111.7 113 111.7 109.9 107.7 105.6 106.7 108.5 106.5 105.6 103.7 104.9 105.4 106.5 107.3 108.3 112.7 117.9 121.8 124.9 130.2 139.8 148.5 154.5 158.7 164.7 171.6 181.9 189.7 197.5 202.9 210.3 215.3 220.1 221.7 222.8 223.6 232.4 243 254.4 263.8 265.1 262.6 259.6 264.5 264.2 269.3 271.7 271.2 282.8 296.9 309.2 319.5 332.5 349.1 362.5 371.5 372.6 372.6 375.1 376.6 379.8 379 372.7 360.8 352.5 343 334.8 328.6 325.9 322.5 317.4 309.4 300.3 294.3 288.7 281.7 272.3 263.2 257.4 255.3 252 251.4 250.6 248.8 247.9 245.6 246.8 249.8 247 243.1 247.4 244 242.1 240.1 239.3 238.5 245.7 238.3 235.8 235.3 235 234.8 235.3 235.1 239.9 254.2 260.7 258.1 255.5 257.7 265.8 268.1 273.6 276.2 284.8 286.1 296.8 302.4 309.9 311.5
238.2 234.6 230.1 226 222.3 218 214.6 211.4 208.1 206.8 205.5 205.8 199.7 192.7 183.9 177.5 175 169.1 162.8 158.6 152.9 133.3 118.5 111.1 105.4 99.7 95.5 95.3 95.1 96.1 97.1 99.1 103.2 108.3 114.8 123.3 131.4 142.3 156.2 170 187.4 191.7 193 191.1 180.7 169 160.3 154.7 151.3 146.3 140.1 131.7 123.1 111.4 105.9 103.3 102.6 102.9 100 97.7 94 84.2 98.9 98.9 92.5 87.5 87.6 87.3 87.2 87 87.3 89.5 93.1 99.9 105.5 107.4 108 108.5 110 112.7 114.4 113.2 110.2 106.9 104.9 104.1 105.4 105 104.5 104.7 105.1 106 106.9 108.1 109.5 113.2 118.6 120.9 123.1 128.1 137 144.1 151 156.4 163 168.6 180.4 193.8 200.6 205.7 210 214.1 218.1 219.7 219.9 218.6 218 222 230.1 239.4 240.7 242.1 242.2 242 245.2 254.3 266.5 273.4 279.9 290.6 305.5 319.9 332.9 353.8 370.9 381.3 381.2 382.2 388.3 387.7 384.8 383.6 375.3 363.3 353.4 343.8 336.1 330.5 326.7 320.2 314.3 307.6 300.7 293.8 287 280.6 269.5 263.5 258.4 256.5 253.6 251.9 250.9 249 247.3 246.4 247.6 250.3 245.4 243.5 244.5 242.6 242.4 240.9 240 241.3 240.7 236.7 236 235.5 235.1 234.7 234.8 237.6 248.9 253.4 255.4 254.6 255.3 264.5 268.4 264.8 270.3 278.8 280.3 282.7 292.9 298.1 302.2 305.6
235.8 231.6 227.5 221.7 218.9 214.6 209.4 205 202.8 201.6 201.8 200.5 195.1 188.8 183.1 177.5 172.7 169.9 164.9 160.4 149.9 131.1 118.9 109.6 103.4 97.5 96 95.9 95.8 96.1 96.1 98.9 102.6 109 114.2 121 131.7 144.8 158.8 174 186.7 189.3 188.7 187.9 178.4 168.2 159.4 152.5 148.3 142.4 135.8 128.6 120.8 109.3 103.8 102.9 104.8 107.3 103.6 99.7 94.4 87.4 103.7 99.7 92.9 87.3 88.2 88.4 87.7 87.9 88.3 89.1 94.2 100.8 106.8 109 108.5 109.6 111.6 115 116.3 113.9 110.1 106.1 104.5 104.9 105 105.1 104.9 104.8 105.7 106.9 107.1 108.7 109.8 112.6 115.6 118.2 121 126.8 133.1 138.8 144 151.3 160.1 167 175.3 193.1 203.1 208.5 212.3 214.7 215.4 216.5 216.8 215.3 214.4 215 218.2 221.2 224.2 228.9 232.2 240.5 249.6 258.3 266.8 278.6 284.4 290.9 298.4 312.6 326.4 345.9 372.1 393.9 392.3 384.6 387.2 389.6 386.4 380.9 374.3 365.8 355.5 344 335.2 328.3 322.8 316 310.9 305.6 299.7 293.9 284 277.6 272.1 266.4 260.8 257.2 255.2 253.4 251.6 249 247.5 246.9 247.4 247.3 244.7 244.4 245.8 247.5 245.4 241.8 241.1 248.2 238.5 236.9 235.4 235.8 235.3 234.9 235.7 240.1 250.6 253 252 255.8 268.4 264.9 262.2 265 266.2 274 276.7 280 290.6 291.8 294.9 299.1
235.5 231.1 227.5 222.9 217.4 212.2 206.5 201.2 200 198.2 199.6 198.6 192.8 188.5 185.9 178.5 176.7 171.1 165.6 161.3 147.9 130.6 120.5 108.2 102.8 97.2 96 96.1 96.2 96.2 96.5 98.8 102.8 107.3 115 123.6 136 147.6 160 175.7 185.9 188.5 185.1 178.9 174.3 165.2 156.8 148.7 144.2 138.4 133.4 127.5 118.8 107.5 102.9 101 102.5 107.2 106.2 102 94.5 88.9 103.9 98.9 91.2 89.1 89.2 88.8 89 88.8 89.1 90.5 95.8 101.6 106.4 108.5 109.9 111 112.9 115.8 116.3 113.5 110 105.4 104.8 105.4 105.5 105.5 105.6 105.9 106.4 107.2 108.3 109.4 109.9 112 114.7 117.2 120.2 124.6 129.5 132.3 137.3 145.1 155.8 164.2 174.2 182.1 199.4 207.7 211.7 209.5 208.1 209.4 212 209.2 212.2 215 217.4 220.1 223.2 227.5 233.6 240.6 248.8 260.2 271.9 283.7 291.9 298.4 302.2 308.4 323.3 341.1 366.2 395.9 400.5 389.7 387.4 390.6 389.3 385.1 376.3 366.9 356.1 345.6 334.4 324.7 319.7 314.7 309.4 304.5 299.3 288.9 282.3 274.8 271.7 264.5 262.6 258.9 256.3 254.5 252.6 249.7 247.7 247.2 247.6 248.4 249.8 250.9 251.2 249.3 245.5 242.3 242.6 242.3 240.2 236.4 235.4 235.9 236 236 235.6 242.4 250.1 245.8 250.1 265.7 264.2 255.9 254.6 260.7 264 271 274.1 279.5 287 286.2 287.9 291.5
235.3 230.7 226 222.5 216.3 211.5 205.2 199.6 196.4 195.1 197.9 196.6 191.2 187.6 184.2 179.4 174.9 170.1 166.2 158.4 145.8 135.6 122.5 107.8 102.2 97.9 96.3 96.4 96.5 96.6 96.9 100.6 102.4 107.7 115.1 128.5 139.1 151.5 164.4 175.5 186.3 187.2 183.1 176.2 167.4 160.6 153.1 144.8 139.9 132.3 130.2 124.9 117.9 106.2 102.1 100 100.2 102.8 102 97.3 91.3 93.2 105.3 99.9 92.7 88.9 89.9 88.3 89.5 89.6 89.8 93.1 99.4 105.2 108.7 110 111.7 112.1 114.1 117.2 116 113.6 108.7 105.9 105.5 105.5 105.8 105.8 106 107 107.4 108.7 109.9 110.2 111.4 112.4 114.5 116.5 119.5 122.5 125.4 130.4 138.7 150.2 159.4 167.3 169.7 174.9 182.6 194.7 198.3 194 210.8 210.6 212.6 215.7 216.4 216.4 219.2 222.9 225.8 227.8 237.6 245.8 257.9 268.3 278.5 289.9 295.9 300.6 305.1 308.6 322.1 338 360.1 390 408.5 401.2 392 390.3 389.3 384.8 375.9 364.6 352.3 343.4 329.4 320 316.7 312.1 307.2 302.9 292.6 287.6 283.4 279.2 275.5 271.8 267 261.4 257.2 254.2 251.8 249.9 248.5 248.7 250.1 253.2 254.3 253.9 251.8 247.5 245.6 243.4 245.7 243.6 238.7 236.6 235.5 235.2 235.3 236 235.4 236.2 240.1 240.5 247.2 255.2 255.3 254 252.7 256.6 266.8 266.7 272.1 276 279.5 280.3 281.9 283
233.3 230.1 225.7 221.1 216.4 210.4 203.3 197.3 193.2 192.2 194 194 190.8 188.9 185.5 178.9 175.2 170.6 165.7 154.8 148.6 137.4 121.7 107.7 102.6 97.7 96.6 96.7 97 97.3 99 102.1 104.4 108.7 116.2 130.6 141.5 152.9 166.4 179.7 186.9 185.4 184.4 184.6 167.4 159.6 150.7 142.8 138.2 140.1 135 126.8 116.5 105.5 100.2 98.9 98.9 99.5 98.3 93.9 93.6 98.1 106.7 100.4 92.7 90.3 90.2 89.5 90.3 90.4 90.6 92.8 102.6 108 110.7 111.5 111.9 112.6 114.9 117.3 115.8 112.2 107.8 106.8 105.9 106.4 106.2 106.4 106.8 106.5 107.2 108.4 108.7 110.5 110.6 112.3 113.7 115.8 118.7 120.6 125.5 132.8 139.7 152.1 162.3 169.6 176.1 182.5 188.4 195.9 204.6 210.7 214.5 216.6 218.5 220.4 222.2 226.2 228.4 231.7 234.3 234.4 238.9 246.9 258.3 268.9 283.7 293.7 302.3 304.6 309.2 314.1 320.2 336.7 356.1 381.1 409 404.5 396.9 393.2 390.9 380.9 370.8 358.2 349.2 336.5 322.2 315.8 312.4 308.8 305.1 302.5 298.3 292.8 286.5 282.4 279 274.9 269.7 263.1 256.5 253.6 252.2 250.7 249.8 253.7 255.9 256.1 254.7 252.1 248.7 248.4 248.6 247 248.1 243.1 238.6 236.5 235.6 235.3 236.1 236.1 236.2 236 236.1 236.7 239.1 244.6 253 256.9 249.3 257.2 263.8 262 265.8 269.5 272.4 273.1 274.7 274.2
231.4 228.8 224.6 220.1 216.2 208 203.3 196.3 191.2 189.5 190.5 191.3 191.7 189.2 183.9 178.7 175.2 171.5 163.8 154.9 150.7 138 119.8 107.7 102.3 98.1 96.9 97.3 97.6 97.9 99 101 103.8 110.6 121.2 132.4 142.7 152 164.3 178 182.8 184.5 184.1 181.2 166.3 158 150.8 142.1 140.1 143.2 136.7 128.2 119.4 103.9 100.7 99.1 98.4 98.6 97.4 93.4 95.9 99.2 108.9 100.5 95.6 90.6 91 90.8 90.9 91 91.1 95 101.3 107.4 111.9 113.4 112.8 112.4 115.4 116.8 115.8 111.4 107.1 106.2 106 107.5 107.6 107.8 107.7 107.6 108.1 107.8 108.4 109.6 110.9 112.3 115.7 117.7 119.1 122.3 127.6 132.6 139.4 149.5 159.1 170.6 180.7 185.8 191.7 201.9 209.6 216.5 218.4 220.8 224.5 226.5 228.3 231.6 235.4 238.4 239.9 238.9 239.3 245.7 252.5 264.3 281.4 295.8 305.6 310.1 313.4 318.6 325 338.7 354 374.5 399.5 405.6 400.7 398.3 391.1 376.8 366.3 354 341.3 330.3 321.5 316.3 314.2 311.1 310.1 306.3 300 295.1 288 285.4 280 274.6 269.3 261.8 256.6 255.2 252.7 250.7 253.9 257.5 257.8 255.9 253.2 251.2 253 250.3 247.7 247.2 247.9 243.1 238.3 236 235.6 235.5 235.7 235.8 235.9 236.3 236.4 236.7 236.9 238.7 241 247.1 243.1 247.1 254.4 253.7 257.5 261.9 265.2 269.1 269 266.2
230.8 228 223.7 218.2 212.4 208.1 202.1 195 190.9 189.6 188 186.7 186.5 184.6 180.3 175.9 173.6 169.4 160.2 156.1 153.3 136.6 118.6 107.6 102.5 100 97.5 97.5 97.2 97.2 98.5 100.5 104.6 113.3 122.4 132.4 142.8 154.4 166.4 179.7 181.2 182.4 181.1 174.6 166.6 157.7 148.9 142.8 148.3 144.1 137.2 129.1 116.4 105.5 101.8 99.1 98.3 98.2 96.8 94.2 95.9 97.5 110 102.8 93.5 91.5 91.4 91.4 92.2 92 91.2 95.6 100.5 107.6 111.3 113.8 113 112.2 115.2 115.7 115.1 110.7 107.7 106.8 107.2 107.3 108.4 108 108 108.2 108.2 109.4 108.3 109.5 110.3 112.6 118 119.6 120.4 122.6 127.1 132.2 138.4 149.2 157.7 171.3 185.4 194.8 198.4 207.5 214.1 220 222.6 226.7 230.1 233.3 235.1 236.7 239.1 242.3 244.1 243.2 237.7 247.1 253.1 260 276.3 294.2 307.9 314.5 320.3 325.9 333.3 341.8 354.1 369.7 389.8 407.1 406.5 398.1 387.7 373.4 360.9 348.9 337.4 330.3 326.8 323.6 319.8 317 315 309 302.4 296.6 292 287.9 282.1 275.7 268.8 262.1 259.4 256 253.2 252.9 255.8 257.9 258.1 255.8 254.8 256 253.8 249.9 248 249 251.8 244.7 238.4 237.6 236.6 236 237 236.6 236.3 235.6 236.9 237.1 237.1 236.9 237.3 237.5 239.2 240.8 243 245.9 250.4 257.7 259.1 260.8 261 259.6
229.9 225.4 221 215.1 212.8 208.4 199.2 192.5 193.3 194.8 193.3 190.6 186 176.9 169 167.5 170.4 167.2 156.9 154.6 154.3 135.6 119.6 109.5 103.4 101 98.8 98.8 98.6 98.3 99.4 101.1 106.8 115.9 124.9 133.9 143.2 155.2 168.3 180.1 181.1 180.1 179.9 173.4 168.3 159.1 148.8 145.7 150.3 144.5 138.4 130.5 116.3 106.4 103.8 99.6 98 98.1 96.3 94.7 97.5 97.6 110.1 104.3 95.8 91.5 92.3 92.3 92.8 92.9 93.2 95.7 101.8 107.7 111.6 113.6 112.7 111.7 114 114.3 112.8 109.2 108.8 107.5 108.6 108.8 108.8 109.1 109.4 109.5 109.3 109.8 109.8 110 111.4 114.6 120 122 122.5 124.8 126.5 131.8 140 149.5 160.3 172 185.5 198.7 209.3 215.6 220.9 224.5 227.4 232.3 235.7 239.1 240.2 241.4 243.8 245.9 246.9 247 248 247.2 251.3 256.6 270.9 291 308.9 314.9 322.1 328.6 334.9 342.3 351.9 363 377.3 394 398.8 393.6 382.2 372.8 363.3 352.1 342.6 339.5 335.9 331.1 324.1 320.6 318.1 311.1 304.9 299.1 295.5 291.9 286.5 278.3 269.2 263.3 259.9 256.6 254 256.1 259.1 260.4 259.9 255.8 258.7 256.5 254.4 250.5 248.6 253.3 247.8 241.5 245.7 242.4 237.8 245.7 244.4 239.3 236.8 236.8 236.2 237.2 237.2 237.9 237.8 237.7 237.2 238.3 239.4 241.8 245.9 249.1 253.5 254.2 253 253.5
220.7 216.1 212.9 212.5 208.9 205.8 196 193.7 198.3 199.7 198.3 194.6 191 185.6 176.1 166.8 161.7 160.5 154.1 152.9 149.4 134.8 114.5 108.1 104.6 102.2 99.5 99.2 98.9 98.7 99.3 101 111.2 117.5 126.2 136.2 143.2 156 169.7 180.4 179.5 178.9 175.7 172.6 167.2 158 149.5 148.4 151.6 146.8 139.3 131.8 114.5 108.2 109.2 100.5 98.3 97.6 96.9 95.4 97.1 101.6 113.8 106.1 97.1 92.8 93.3 93.8 94.3 94.1 93.8 96.2 101.9 107.3 110.6 112.1 111.7 111 111.9 113 110 109 110.9 109.3 109.9 109.2 109.4 109.6 109.5 109.6 110.3 110.6 111 111.2 112.5 115.9 121.4 123.2 124.4 127.4 129.9 132.8 138.6 147.9 164.2 174 185.7 195.1 206.1 216.8 224.4 228.5 232.8 238.1 241.3 243.6 245.9 247.3 248.6 249.5 250.8 251.4 250.7 249.5 247.9 253.9 261.1 277.1 300.8 311.9 319.9 328 334.5 340.7 348 353.5 360.5 371.4 388.4 393 383.3 375.5 365.5 354.7 347.5 343.5 339.1 334 325.4 320.6 318.5 313.9 307.7 302.3 298.6 294.4 289.5 279.2 273.4 269.3 264.8 259.7 260.1 260.9 263 263.8 260.7 257.8 259.3 257.1 254.5 251.3 254.7 250.5 245.4 249.1 248.2 240.7 246.9 247 244.8 237.5 237.1 237.4 236.8 237.1 238.3 238.3 237.8 238.7 237.3 238.3 238.5 239.8 242.1 245.3 248.7 248.5 248.1 249.6
214.8 209 205.9 205.8 202.2 198.8 196.9 201.8 204.7 203.9 201.3 196.5 190 181.4 172.4 163.5 158.9 155.8 152.1 146.8 137.4 137.1 124.2 109.6 103.7 101.9 99.7 99.3 99.5 99 99.5 99.1 106.7 115.1 126.5 136.5 147.3 156.1 169.8 180 178.6 176.7 176.2 170.6 164.7 156.1 149.8 151.3 153.6 148 140.5 132.1 114.9 110.6 111.1 101.6 98.4 97.4 96.8 96 96.5 104 114.9 107.1 98.8 93 93.3 94.8 96 96.1 95.5 97.1 101 105.2 108.5 110 110.9 110.2 111.2 112.2 109.2 111.8 113.3 112.4 111.6 110.6 109.9 110.4 110.8 111.1 111.3 111.6 112.2 112.3 113.3 116.5 121.2 125 126.7 130.7 133.9 132.8 137.8 145.6 162.1 174.7 183.2 192.5 203.1 212.2 227.5 232.7 237.8 243.1 246.7 249.4 251.5 253.3 254.3 255.1 257 258.2 257.5 255.3 252.1 250.4 256.2 262.2 282.1 307 314.9 327.8 333.3 336.5 339.2 337.4 337.5 357.3 385.1 398.7 390.2 379.9 366.4 356.5 349.5 347.1 339.9 333.1 325.6 321.2 318.8 312.7 307.9 303.8 299.2 287.3 290.6 285.3 281.1 277.4 271.8 269.2 267.4 265 263.4 262.2 259.3 260.1 258.9 257.2 254.9 252.8 251.9 248.4 249.2 249.6 243.9 243 244.1 241 237.9 237.5 237.5 237.9 237.6 238.9 238.2 239 240.6 240.9 238 238 238 239.1 240.5 242.7 245.3 244.4 244.5 246
207.3 202.4 201.1 199.5 198.2 197.4 202.6 208 208.6 205.7 197.5 190.3 184.6 175.9 166.1 159.7 156.8 151.2 147.2 152.9 148 137.4 125.6 112.4 103.4 100.6 98.8 99.4 99.8 99.6 100.3 99.3 103.3 114.8 129.8 140.3 150.9 162.4 173.6 176.3 180.7 179.3 174.1 167.9 163.1 155.9 150.7 152.9 154.4 147.9 140.7 130.1 118.6 113 109.8 103.2 98.7 97.9 98.3 95.3 96.2 111 115.4 107.6 99.2 93.9 93.5 95.3 97.9 97.4 96.9 98.7 101.5 104.4 107.4 108.4 109 110.2 111.4 110.8 110 114.1 115.8 114.9 114.8 112 110.9 111.3 111.7 111.9 112.2 112.5 113.3 113.6 114.3 116.5 121.2 126 129.5 133.5 138.2 140.2 137.5 144.9 156.5 168.6 180.3 192.6 202.4 209.9 220.1 230.9 240.9 248.2 251.5 253.2 255.9 258.1 260.8 261.4 263.6 264.8 265.2 263.7 260.5 256.3 254.6 259.4 267.3 289.3 309.5 315.5 328.9 327.6 321.4 323.3 329.7 353.4 382.3 397.3 391.5 381.3 366.6 358.4 347.5 340.8 336.6 329.3 323 320.6 316.1 310.8 306.6 303.3 293.4 298.4 295.6 292.5 287 281.1 277.5 271.5 266.7 263.2 261.2 259.8 261.2 261 260.5 259.7 257.1 259.2 251.2 252.3 253.7 246.4 243.2 246 238.3 237.5 237.4 237.8 238.4 237.9 237.9 238.4 240 242.5 240.4 238.7 238.8 238.1 238 238.2 239.8 240.8 242.2 242.2 243.1 245.4
203.8 200.7 199.6 197.5 196.5 200.8 208.2 211 207.9 201 192.7 186.1 180.7 170.7 161.3 157.6 154.5 152.3 153.1 154.4 149.8 141.2 128.2 112.5 102.5 99.7 98.8 99 99 98.8 98.6 99.3 103.8 114.4 128.2 139.4 149.9 161 170.6 174.9 178.3 178 171.3 167 161.1 154.5 150.9 153.2 155.8 148 139.2 127.8 120.7 116 111 103.7 99.9 98.5 98.9 95.8 96.2 117.4 114.5 107.4 97.5 94.6 94.1 97 99.3 99.7 99.4 100.8 102.5 105.9 108.6 109.8 110.3 112 112.9 110.5 111.2 116 116.9 117.8 116 113.3 111.9 112.2 112.5 112.7 113.5 113.8 114 114.3 114.6 116.6 121.6 127.1 130.8 137 142.9 145.4 146.8 142.9 156.1 165.1 173.7 189.4 201.3 210.1 219.1 233 243.1 249.7 254.1 257.9 259.9 263 265.8 266.7 267.2 269.2 270.9 271 269.6 265.6 261.4 262 264.3 271.7 290.4 304.4 308.5 309.7 312.1 318.2 328.1 351.8 381 394.6 391.3 380.1 366.4 357.5 347.2 336.8 330.2 324.2 320.7 317 312.8 307.6 304.6 302.2 301.4 300.6 299.7 293.4 287.4 282 275.7 270.7 265.6 263 262.7 263.2 264.9 265.1 262.6 260 260.2 256.5 254 257.8 250.5 244.6 239.9 238.5 238.2 237.9 237.1 242.9 241.2 242.5 239.9 243 244.2 240.6 239.7 239.4 238.8 238.6 238.8 238.8 238.8 239.6 240.2 241.2 242.4 245.8
201.1 199.4 199.5 197.9 197 205.1 210.2 207.6 201.4 194.5 187.2 182 175.2 162.7 156.8 153.9 153.6 154.2 156.3 155.6 152.5 144 130.4 111.8 102.4 99.6 98.4 99.7 99.2 99.4 99.2 100.4 108.7 116.9 125 136.7 146.9 159.3 170.7 171.6 176.4 176.5 168.9 164.2 158.7 154 151.5 155.7 157 148.6 135.8 123.7 122.3 115.9 111.7 105 100.4 98.9 98.6 95.9 96.4 118.3 115.2 106.1 98.2 96 95.1 97.3 100.6 101.2 102 103.3 104.8 107.2 110.2 111.2 111.5 113.7 112.9 110.6 111.6 117.9 118.4 118.5 115.5 113.8 112.3 112.7 113 113.6 114.3 114.4 114.9 115.3 115.8 116.6 123 127.6 132 138.9 147.2 151.8 152.7 153.3 152.1 164.5 173.3 184.2 195.1 206.5 216.3 234.3 246.6 251.3 258.1 261.1 267.1 268.5 269.6 270 270.9 271.6 273.6 274.9 275.5 274.1 270.5 268.7 270.7 272 274.3 286.8 293.4 299.8 306.5 313.3 326 352.8 382.8 391.8 389.8 383.7 372.8 360.4 348.1 337.5 330.6 325.7 322 319.2 315.7 311.3 307.8 305.5 303.2 300.1 297.3 291.5 284.8 279.9 274.7 270.8 266.9 264.9 265.9 268.5 269.3 267.6 263.5 260.7 261.5 255.7 257.9 253.2 244.6 244.1 238.3 238.1 237.9 239.1 247.4 245.6 244.8 242 248.1 246.3 242.6 239.6 239.9 239.5 238.7 238.7 238.9 239 239.3 238.9 240.2 242.8 242.7 242.6
196.3 198.7 198.2 195.7 198.7 206.2 205.9 199.7 194.7 190 182.4 176.3 169.8 158.9 155.2 153.8 154.4 157 159 156.3 150.9 143.2 130.4 112.1 101.5 99.6 99.9 98.9 99.7 99.7 99.8 101.2 107.6 117.1 124 135.6 144.2 153.7 168.6 169.7 174.3 174 167.3 161.5 157.5 153.4 152.1 155.5 155.6 149.1 137 123.2 120.5 115.6 111.9 105.3 101.6 100.3 99.4 95.9 98.6 116.5 114.2 107.3 98.6 96.8 96.1 96.2 99.7 101.6 103.3 106.4 108.5 110.5 112.8 112.4 113 114.6 113.2 110.2 110.8 114.5 116.1 115.9 114.8 113.4 113.2 113.3 114 114.6 114.8 115.3 115.8 116.1 116.8 118.9 124.2 128.1 133.4 141.4 149.6 157.7 160.7 160.8 155.4 163.1 174.5 181.3 190.2 198.9 211.6 225.5 243.5 252.2 262.1 267.9 270.6 272.3 273.5 273.8 274.2 274.4 275.3 276.8 277.9 278.4 278 277.8 280.3 280.8 282.4 284 290.8 298.5 305.7 312.8 325 352.7 385.4 393.9 393 388.3 376.4 363.6 353.5 343.6 336.5 330.7 328.2 324.8 320 311.4 308.5 305.3 301.3 298.3 294.1 289.5 284.2 281.5 277.6 273 270.4 271.7 271.6 274.6 271.4 268.2 262.8 260.6 258.8 259.9 257.9 247.5 243.5 241 239.6 240.1 247.6 248.3 248 245.4 247.2 252 250.3 248 243.7 243.7 242 239.4 239.2 239.1 238.9 238.8 239.5 240.1 239.8 240.4 240.8 240.9
195.7 193.1 191.8 193.9 199 201.4 197.9 194.4 189.8 183.9 175.6 169.3 163.6 158.4 155.8 154.7 156.7 159.7 159.4 153.5 145.4 138.6 125.7 107.2 101.8 100.8 100.3 99.3 100.7 100.5 100.2 102 106.9 114.2 125.1 134.3 141.4 147.8 162.6 168.9 175.4 172.7 166.3 161.3 156.7 155.1 152.9 156.5 154.4 149.2 134.7 122.4 119.1 115.5 113 104.9 101.7 100.7 100.3 96 98.2 119.3 115.3 106 98.9 96.8 97.1 97.2 98.8 100.6 104.3 108.4 112 114.5 115.3 113.8 115.1 117.2 113.2 111.2 111.5 111.3 112.4 112.6 112.9 114 113.6 114.2 114.9 115.4 116 116.4 116.5 117.5 118.5 120.2 125.4 129.7 135.8 143.3 151.9 159.5 166.2 169.2 166 164.2 172.1 177.8 187.2 195.9 204.3 216.2 230.9 245.9 262.3 267 270.7 275.2 276.3 276.8 276.8 277.4 278.6 279.8 281.2 282.4 283.7 283.8 285.7 289.6 294 295.3 299.1 301.4 306.8 315.5 329.5 357.3 388.2 394.6 394.5 391.8 381 370.9 362 350.5 341.4 334.8 330.4 327.4 317.3 311.4 307.9 304.5 301.2 297.8 293.5 292.1 288.8 282.3 278.4 276.6 277.7 276 276.3 274.4 271.5 265.5 262.2 264.7 259.5 264.1 255.7 254.4 244.4 244.4 247.6 246.7 249.4 251.5 248.7 257.5 250.9 250.9 251.1 247.7 245.5 242.2 240.4 240.1 239.8 239.7 239.6 239.5 240.4 240.3 239.6 240 239.7 240.2
202.6 196.8 191.5 192.6 196.3 194.8 191.4 186.4 182.6 177.3 172.6 168 162 160.1 158.1 155.7 158.3 162.3 160.7 152 141.1 128.9 115.8 106.9 101.5 101 100.6 100.1 100.4 100.7 100.5 101.5 105.6 111 124.6 133.8 140.6 147.1 156.8 169.9 175.7 172.9 168.8 161.8 157.4 157.3 156.4 157.2 153.2 148.5 132.3 122.6 118.3 114.9 112.4 105 102.4 101 100.9 96.6 98.1 117.3 114.3 106.6 99.7 97.1 96.2 97.8 98.8 101 105.9 110.7 113.5 116.7 117.6 115.5 118.2 119.2 113.1 111.8 110.8 111.1 112.4 112.9 113.4 113.9 114.4 115.1 115.6 116.1 116.7 117.5 117 117.8 119 120.4 126.1 131.3 137.7 143.9 152 159.4 167.7 174.7 172.6 162.2 172.3 178.8 187.5 195 204.2 212.5 222.5 235.2 249 262.1 269.4 273.8 276.9 278.3 279.2 280.9 281.9 284 285.4 286.6 287.8 289.9 292.8 295.5 299.4 303.1 308.4 312.1 313.9 319.5 337.1 367.8 389.8 392.7 395.9 392.9 383.5 377.6 368.2 354.4 344.3 334.8 326.5 320 313.5 307.8 305.4 303.3 300.5 297.8 297.7 297.7 291.5 284.8 282.8 282.7 279.3 279.4 278.1 273.8 269.8 266.1 268.5 262.2 267.1 264.3 261.2 263.9 249.4 251.1 249.7 255.7 256 263.9 255.3 251.5 250 248.8 245.3 243.4 241.1 239.9 240 240.1 240.5 240.5 240.5 240.4 240.8 240.3 240 240.5 240.2 240.4
202.2 194.1 191.4 187.4 193.3 191.4 189.1 183.7 180.9 177.2 170.5 165.7 161.6 163.3 159.6 157 159.1 162.1 159.3 150 138.2 124 113.2 106.9 102.1 100.6 100.6 101.2 100.8 100.4 100.5 100.8 105.6 113 124.8 134.1 140.6 147.7 158 170.8 174.9 173 169 161.7 158.5 159.5 158.7 155.5 151.6 144.6 131.4 122.1 117.6 114.5 112.1 107.7 103 101.2 99.7 97.4 97.9 119 115.8 107.5 100.9 98.9 97.6 98.3 99.6 101.8 108.2 112.4 114.9 118.5 118.2 116.6 119.3 118.1 112.5 111.3 112 111.9 112.5 113.4 114 114.5 115 115.7 116.8 116.8 117.5 118.2 118.9 118.9 119.8 122.9 128.6 134.2 138.8 144.5 151.3 159.4 167 173.2 174 173.2 168.7 179.5 187.5 195.1 203.4 210.6 215.9 224.8 241 252.1 262.8 270.3 276.3 279.4 282 284.4 287.2 288.5 289.7 290.6 291.6 294.4 297.2 300.4 305.2 308.4 314.7 320 321 326.8 348.5 377.3 393.9 397 395.3 393.2 385.8 378.3 368.4 358.8 345.8 335.4 321.6 314.1 309.2 302.8 300.8 299 297.9 296.6 297 296.3 291.5 286.9 284.7 282.7 282.6 279.4 275.9 272.9 269.8 268.8 265.7 263.7 271.5 262.9 264.8 257.1 256.6 253.2 258.4 261.3 262.6 256 253 250.8 248 248.2 243.5 240.3 240.1 240.1 240 240.5 240.8 240.2 240.5 240.7 240.7 240.6 240.3 240.5 240.4 241
196.6 191.7 192.9 191.1 191.2 188.3 186 182.2 179.2 172.3 167.6 164.8 165.4 165.4 162.5 161.3 161.8 161.3 156.8 148.9 138.2 124.7 113.3 107.3 102.1 101.3 101.2 100.8 100.6 100.8 101.3 102.4 107.7 116.9 127 136 142.8 150.7 162.5 172.6 175.7 173.5 169.2 165.1 159.7 159.4 156.4 152.4 147.6 140 132.3 120.9 117.5 114.9 112.8 110.4 103.1 101.3 99.8 98 97.8 117.8 116.6 110.1 104 102.8 98.5 98.4 99.8 102.8 109.7 114.1 115.8 118.6 117.6 117.4 118.3 115.7 111.9 111.5 111.5 112.2 113 113.8 114.8 115.2 115.9 116.4 116.9 117.6 118.3 119 119.7 120.7 121.2 124.8 131 135.6 139.6 144.3 150.4 158.5 165.4 171 175.6 178.5 180.5 180.6 182.4 194.5 201.1 207.8 213.5 218.1 230.8 242.2 253.7 265 273.4 280.3 284.9 289 290.7 291.2 291.7 293.2 295.7 299.4 303 306.2 309.3 313.5 317.8 324.6 328.5 334.7 359.3 386.2 398.4 400.4 398.4 394 386.9 379.4 368.3 357.9 346.9 332.7 320.7 310.4 303.7 299.2 297.9 295.4 293.2 292.2 293.2 293.1 291.1 287.5 285.8 283.9 280.6 276.8 273.5 270.7 268 267.1 266.2 266.7 266.3 266.8 266 260.9 254.9 257 262.7 262.6 260.8 252.6 250.1 247.5 242.3 241 240.3 240.2 240.9 241.2 241.5 241 240.3 240.3 240.9 240.7 240.6 240.7 240.8 240.8 240.6 241.9
