ncols 200
nrows 82
xllcorner 280000
yllcorner 742050
cellsize 50
343.1 360 378.2 383.5 385.9 388.7 388.5 388 394.3 391.8 380.8 379.7 386 393.3 399.4 405.8 418.5 427.9 432.5 441.3 452.9 460.1 467.7 473.3 480.7 489 498.1 496.5 494.7 491.8 498 504.4 509.4 507.7 496.1 498.3 505.5 512.1 511.3 502.5 493.9 480.4 464.7 453.2 439.5 431.9 427.5 426.1 425.1 420.1 415.7 411.8 405.1 399.4 395.8 394.1 386.7 381.9 380 375 371.4 372.6 365.8 364.8 360.9 357.6 357.4 355.1 353.6 351.6 343.7 339.9 330.8 326.4 325.5 324.5 325.7 327 327.8 329.5 328.6 330.1 325.9 328.7 331.9 335.8 340.9 345.7 350.4 355 359.6 363.6 367.7 371.5 376.1 381.9 388.4 395.9 401.5 408.2 412.3 415.7 420.1 423.3 426.6 431.7 436.9 439.9 444.1 437.1 430.8 423.9 415.7 411.6 409.6 405.1 399.2 399.2 399.1 398.9 402.4 410.3 412.8 413.6 414.2 416.4 418.6 425.5 430 429.8 431.3 434.6 437.4 439.6 438.9 438 435.4 433 430.6 426.9 421.8 416.1 406.5 397.4 391.1 390 387.1 384.8 386.9 387.9 389 392.3 399.7 406 411.6 414.8 414.5 411 404.7 399.5 399.2 398.1 398.5 402.3 409 410.9 415.2 422.1 417.8 415.3 418.9 425.7 432.5 440.2 453.1 464.2 477.1 473 466.9 457.9 451.2 450.9 457.5 462.6 468.9 472.8 460.7 464.6 455.9 433.3 426.3 433.9 442.9 450.6 458.2 462.1 462.1 460.1 455.2 452.3
350.2 364.3 383.8 393.1 397.8 399 400 398.7 404.2 398 390.1 396.4 397.8 399.7 403.2 407.6 420.2 430.8 438.5 448.2 458.5 468.1 471.8 482.7 493.8 499.7 507.5 513.7 519.1 514.1 510.8 515 514.4 511.7 506.1 505.7 522.4 529.2 524.3 515.2 504.9 487.6 467.7 457.3 443.6 432.9 430.7 428.5 427.1 419.8 416.4 414.5 404.1 397.7 393.3 389.1 383.7 381.3 378 377.2 369.7 366.5 365.9 364.2 359.3 357.3 358.4 354.9 351.1 347.1 337.2 333.8 327.5 326.4 325.7 329.5 330.7 332.9 332.7 334.3 331.6 330.8 326.9 326.9 329.8 337.2 342.4 347.3 352.1 356.8 361.5 365.8 369.8 374.2 379.7 385.1 391.7 399.5 406.6 412.9 417.3 425.6 428.9 432.1 435.4 442.4 447.2 454 459 454.4 448.7 439.6 430.6 423.1 415.4 411.9 404.9 405.1 403.2 403.7 407.1 411 414 415.9 416.4 417.9 420.5 430.4 429.4 430 431.7 433.7 437.2 439.5 440.2 438.1 436.8 436 431.5 431.4 431.3 425.2 418 408.3 400.8 398.7 400 392.3 395.9 394.8 394.4 399.6 401.9 409.7 416.6 419.1 420.4 418.3 414.1 402.7 399.4 398.1 398.2 403.5 408.6 409.2 410.5 413.9 414.9 416.3 420.9 429.1 436.8 443.9 452.3 462.5 470.6 468.1 469.9 463.8 453.4 449.8 452.3 459.4 465 467.9 458.6 462.6 449.2 430.4 427.6 439.7 447.5 453.5 460.2 461 459.3 449.3 443.2 439.7
357.8 369.5 383.2 394.5 400.4 404.6 410.1 407 409.7 404.6 403.9 407.1 412.8 409.2 412.2 420.8 425.6 433.5 441.7 450.9 461.6 472.8 479.9 493.2 502.3 507.7 512.1 522.2 530.9 531.7 536 527.3 518.9 516.4 513 513.1 520 527.2 524.9 520.2 507.2 492.6 471.5 459.4 449.8 439.5 438.8 434 427.6 423.7 422 414.8 407.4 402.2 393.4 387.6 383.8 379.3 378 374.6 366 366 365.7 361.5 354.4 353.5 350.2 347.8 345.1 337.4 331.5 329.3 328 327.9 334.7 334.1 337.6 340.5 340.5 337.8 333.9 332.1 329.8 328.6 331.1 338.5 343.8 348.9 353.7 358.4 363 367.6 371.9 376.4 381.5 386.7 394.8 403.7 410.9 417.9 426.5 433.1 437.7 441.1 445.4 454 463.2 471.1 469.3 465.1 458.2 452.2 443.8 434.4 423.7 419.4 414.8 411.5 409.2 409.6 413 413.2 415.5 416.9 417.6 419 425.8 430.4 430.7 429.5 430.9 434 437.5 438.3 439.5 439.5 439 438.2 436.1 435.1 435.4 414 405.9 411.1 404.9 402.9 402.6 401.2 401.6 399.7 400.5 405.2 408.9 416.5 421.2 423.4 424.7 424.7 429.8 414.4 401.9 398.6 397.9 399.7 403.7 406.2 405.6 409.5 412.7 417.4 422.9 429 436.7 448.7 459.8 462.9 464.9 463.1 474.8 472 457.2 450.1 449.7 452.1 459.7 465.7 458.6 463.3 438.4 429.1 431.5 439.6 446.2 450.8 457.4 459.2 453.8 442.3 436.4 432.1
364.6 373 384.4 398.8 406.3 408.8 411.5 413 415.3 410.7 413.8 415.3 416.2 420.1 421.7 426.3 431.7 439.6 450.9 459.8 469.2 478.2 488.6 501.8 509.9 514.5 519.5 530.1 538.2 542 549.6 535.2 525.9 521.8 518.5 518.1 519.2 522.3 522.1 514.7 508.7 491.7 473.4 460.2 452.2 445.1 442.5 436.1 429.9 428.1 424.2 417.8 408.3 400.4 389.8 386.6 383.4 373.2 372.4 366 366 365.9 366.5 360.3 354.1 350.7 344.5 344.6 339.2 334.5 331 332.5 335.4 339.5 340.7 340 344.8 347.7 347.2 341.8 338.5 336 333 329.8 332.6 340.3 345.3 350.4 355.3 359.9 364.5 369.1 373 378 383.3 390.5 399.3 407.7 416.6 424.8 432.7 439.2 445.7 451 457.6 465.3 481.8 479.8 478.7 477.6 472.9 465.7 459.1 447.4 433.6 426.5 422.1 420.5 415.9 415.6 418.7 417.9 417.1 417.8 418.6 420.2 425.6 429.9 430.2 430.9 432.2 434.5 437.4 438.1 440 440.8 440.7 440.3 439 432.1 434.8 432.4 428.7 417.8 410.1 406.2 405.4 405.2 403.5 403.2 406.7 413 418.5 421.6 424.4 425.9 428.8 432.2 439.6 436.1 412.6 399.5 398 397.6 401.3 401.2 402.5 405.5 411.8 416.6 422.2 428.4 437.3 450.3 457.4 460.2 461.9 461.9 468.8 472 461.8 449.7 448.4 449.3 455.3 458.9 455.9 448.1 437.9 431.6 436.1 440.6 442.2 446.1 449.1 449.6 443.5 436.8 432.8 425.7
373.6 380 390.5 404.1 410.9 419.8 416.7 416.9 420.1 418.8 423.3 425.4 424.4 428.4 431.8 434.3 438.2 442 456.5 465.2 474.1 485.7 496.4 508.7 515.8 520.7 528 536.7 544.2 549.3 547.5 536.5 531.4 526.6 522.9 520.7 516.5 516.4 513.1 503.6 492.1 478.1 470.5 462.1 452.7 444.8 444.6 437.8 430 428.6 423 415.8 408.8 398.3 393.9 382.1 378.4 370.7 369.3 367 367.3 367.6 369.6 361.1 353.6 346.6 340.5 337 341.5 340 339.4 340.1 344 346.7 344.8 347.1 351.6 353.8 352.3 349.8 347.1 341.2 334.1 334.3 337.2 343.7 348.7 353.4 357.3 361.6 366.1 370.2 373.9 378.6 385.8 393.3 403.7 413.4 421.8 429.4 437.6 445.2 455.7 462.3 469.3 483.3 490.1 482.4 484.9 490.3 482.5 477.2 474.8 465 446.8 436.5 429.9 425.3 423 422.5 423.1 422.2 420.7 419.5 419.8 421.6 426.3 431.3 432.5 433.2 437 438.6 437.8 438.9 440.7 440.6 440.7 440.3 439 437.6 436.5 436.8 439.4 424.5 412.1 409.4 410.9 410.9 409.7 412.9 416.5 422.4 427 427.1 427.4 429.5 432.9 437 442.7 444.5 417.8 400.6 398.2 397.9 400.3 400.5 399.9 400.5 408.5 415.9 422.8 429.6 437.2 441.4 451.1 455.9 457.2 455.1 457.7 460.9 454 444.1 442.6 449.1 452.4 453.2 448.6 443.5 438.9 438.9 440.6 439.9 440.8 440.8 440.7 437.4 432.8 430.1 429.6 420.8
374.9 386.7 397.7 408.7 414.7 417.9 419 422.4 421.7 425.7 435.8 444.4 440 442.9 441.8 442.2 445.1 456.8 462 471.4 478.7 491.6 502.2 513.7 519.3 525.5 534.1 542.4 548.5 550.2 546.3 539.5 535.9 529.1 523.7 518.7 511.2 508.7 505.4 495.7 483.8 474.9 466.7 459.9 451.2 450.9 444.4 439 431.4 426.5 418.9 412.6 406 399.4 393.5 380.8 379.8 377.3 374.1 368.2 369.7 373.2 367.9 362.3 354.5 345.1 339.1 340.9 344.1 345.6 345.8 347.9 351.1 352.9 353 355.2 357.3 357.4 358.9 357.6 351 342.6 332.1 336.3 340.4 347.5 352.3 356.3 360.1 362.8 366.6 370.5 374.3 380.1 389.8 398.2 407.3 416.6 425.5 434.1 442.7 453.3 464.5 475.4 488.2 495.3 492.6 491.3 490.6 497.3 498.4 494.8 488 484.4 464.4 447 438.4 433.1 430.7 429.9 429.3 427.6 426 425.3 424.2 426 429.7 433.5 436.6 439.5 441 443.4 440.4 439 439.3 440.7 440.8 440.1 439.2 438.7 439.2 438.8 438.6 429.2 416.4 414.3 418.3 418.6 419.5 424.5 429.1 432.3 432.9 432.9 433.4 434.4 437.7 442.9 449.5 449.7 427.6 408.9 398.1 397.9 398.1 398.8 398.7 399 403.4 412.4 421.2 430.2 433.1 435.4 439.8 443.5 449.7 448.7 448.6 452.2 447.4 439 440.6 448.8 451.3 450.7 446.4 441.8 437.9 439.9 441 440.1 440.7 439.3 436 431.3 429.9 429.1 424.7 419.6
378.1 396.1 405 409.7 415.2 418.1 425.8 430.4 428.9 434 446.6 454.5 453.7 453.2 449.9 451.2 453.2 462.4 468.2 478.7 488.9 496.9 506.6 518.7 527.4 536 540.3 546.1 553.9 554.3 553.1 548.2 545.7 535.6 520.8 509.3 501.9 505.1 502.5 499.4 481 473.2 464.1 457 452.9 447.6 440.9 437.3 431.8 424.9 418.3 413.1 407.9 399.1 390.5 381.3 382.5 374.7 370.3 367.9 372 371.9 365.2 358.9 352.5 345 343.1 345.7 348 351.9 354.3 357.2 359.9 361.2 362.8 364.3 364.5 366.3 364.9 363.8 356.1 346.4 341.9 339 344.4 351.1 355.1 359 361.8 364.1 366.8 370.8 376.8 384.5 394.3 402.4 410.6 419.9 429.1 438.5 447.7 461.5 469.2 480.7 497.8 502.7 501.4 500.8 499 506.3 507.8 509.2 506 494.5 475.8 456.2 446.8 442.1 440.7 441.9 439.1 437.4 434.3 433.5 430 429.9 432.5 438.3 445.6 446.9 446.7 449.6 449 446.8 440 441 441.3 441.4 441.1 440 440.8 438.9 433.7 429.6 422.4 423.7 426.6 427.1 429.2 434.2 438.5 440.1 439.2 439.2 439.9 440.7 442.6 447.7 452.7 451.9 444.2 422.6 403.1 397.9 397.9 397.9 397.9 398.4 401.9 411.3 420.3 427.8 430.3 431 434.5 436.9 441.9 439.9 440.2 441.7 438.9 439.6 440.5 440.4 446.1 445.4 441.6 439.5 439.4 443 441.9 441.1 439.6 438 435.1 431.2 431.1 430.6 426.8 424.1
388.7 399.1 408.2 413.8 419.6 422 430.1 435 438.7 446.2 454.5 461 464.6 465.6 462.5 461.9 463.8 471.4 474.5 481.2 494.9 503.5 512.8 525.6 532.5 540.1 544.6 548.9 557.3 559.3 558.7 555.2 550.1 549 529.4 510.4 494.6 490 487.2 476.1 472.2 466.1 460 456.1 452.7 447.9 440.7 439.7 432.6 426.5 420.1 414.6 408.1 399.1 389.4 382.5 384.8 380.8 368.8 370.4 373.6 371.1 364.4 359.4 349.8 344.9 347.1 348.5 353.5 358.2 361.9 363.5 364.1 364.6 369 369.6 369.8 372.7 370.3 367.6 357.2 351.6 341.1 340.1 348.5 353.5 357.9 360.8 363.3 365.8 368.9 375.1 381.1 390 398.9 407 415 424 432.9 442 452.1 464.1 475.1 482.6 495 501.2 505.6 500.2 500.6 505 508.6 508.9 508.2 503.7 489.9 465.7 455.3 451.3 451.4 451.7 450.6 448.1 441 439.1 433.1 436 440.6 446.1 450.8 450.9 453.2 453.1 453.5 449.1 441.2 440 442.8 448.4 450.4 447.6 443.2 438.4 433.1 433.5 434.1 434.8 436 435.1 436.9 441.2 443.2 444.5 443.6 445.7 447.5 447.5 449.1 453.5 458.5 462 462.8 442.4 416.7 398.8 397.9 397.9 397.9 398.3 402.7 411.4 419.9 424.8 427.5 430.2 430.1 431.4 438.3 433.7 435 437.6 439.5 440.1 439.9 439.4 440.6 439.7 439.4 439.5 440.3 448.8 444.9 444.6 441.3 439.1 436.8 435.4 434.3 433 430.1 429.1
392.4 400.9 411 419.4 425.5 428.5 432.5 437.7 443.9 452.6 461 466.5 471.2 473.1 470.4 467.8 469.7 473.6 479.4 486.1 497.3 510.4 518.8 527.9 534 540.4 545.4 550.5 556.1 559 559 553.3 549.8 549.5 532.2 511.8 492.3 485.3 475.4 471 468.9 464.7 454.7 453.4 451.1 444.2 441.5 441.2 433.6 425.4 420.6 418.7 411.4 402 390.1 386.8 385.2 383.1 370.5 372.2 369 364.3 358.6 350.6 351.4 349.7 349.3 352.5 356.4 362 368 371.2 365.8 370.4 372.8 375.5 375.2 375.9 374.7 371.4 360.2 353.8 337.3 342.5 349.9 355.5 359.9 363 365.9 368.4 372.7 379.9 388 396.3 403.7 410.3 418 426.9 436.5 443.5 451.1 462.8 476.2 485.3 491.8 499.4 503.2 504.7 501.8 505.3 510.6 508.4 506.7 503.5 500.6 476.2 466.8 464.4 462.9 460.8 456.5 446.3 440.2 439.1 441 441.1 445.1 450 450.8 453.9 456.8 459.8 456 456.5 451.2 440.6 442.3 449 449.4 447.8 449.1 440 438.8 441.2 442.3 441.8 443.5 443.2 441.6 445.4 447.1 447.6 452.8 455.1 459.2 458.9 460.1 463.8 470.1 475.7 475.6 466.7 429.6 409 397.9 397.9 397.9 397.9 402.5 411.7 419.9 423.6 425.4 427.4 430.1 430.7 430.3 429.6 431.9 437.5 439.7 440.1 439.5 439.5 439.8 440.5 439.8 443.1 447.5 450 451.3 451.1 448.5 441.3 439.9 438.9 437.4 437.2 434 432.1
395.2 405.8 415.5 422.2 427.4 430.7 432.3 441.7 447.2 456 465 471.9 474.6 476.8 476.5 475.8 475.8 481 488.6 491.2 502.5 510.6 521.7 527.5 533 538.8 544.8 548.6 552.5 556.3 559.2 551.2 546.6 539.4 519.9 500.9 489.6 483.8 472.4 469 469.9 464.7 451.9 451.7 450.4 444.7 440.6 439.6 435.3 432.7 426.4 418.3 410.8 402.8 393.1 389.7 383.8 378.8 371.6 369.3 367.1 360.8 358.1 355.1 357.2 351.3 352.9 357.2 359.7 364.9 373.3 375.6 373.3 370.9 375.8 376.5 377.2 376.8 376 374 360.7 353.2 338.9 345.1 351.3 357.1 361 364.5 367.3 371.3 375.7 383.6 392.1 399.7 405.2 411.3 419.2 429.5 440.1 444.3 449.3 459.3 476.2 488.4 489.2 494.4 503.7 504.3 500.6 503.9 507.1 505.3 506.9 505.7 500.8 486 481.6 473.8 468.8 460.2 453.6 445.7 443.2 445.6 448.5 449.4 451.4 452.6 453.4 457.8 462 464.9 471.1 465.8 463.6 444.6 442.1 448.4 449.1 448.3 447.3 441.8 440.6 445.3 447.2 448.7 448.7 451.5 452.7 455.2 457 460.5 462.2 466 466.9 471.6 476.3 477 481 484.3 483.8 478.1 445.6 418.5 398.9 397.9 397.9 397.9 403.5 410.3 416.8 421 422.8 424 426.6 428.2 426.2 429.8 430.4 436.6 439.1 438.4 439.4 440.4 440.3 440.1 447.2 454.8 456.9 458.6 457.3 459 454.9 447 442.1 440.2 439.9 440 437.4 433.8
401.8 412.9 422.5 425.7 428.1 438 444.1 447.8 455.5 464.6 473.1 479.2 480 480 481.8 481.4 482.1 488.1 496.4 499.2 503.8 511.2 520.4 529.4 536.9 539.9 544.2 546.5 547.8 552.7 550.4 540.5 532.4 520.2 502.2 492.6 481.5 477.1 471 465.3 465.9 459.1 451 452.5 446.6 443.6 444.4 442.1 441.6 432 428 418.1 409.6 404.4 396.3 390.1 386 376.3 377.9 369 363 360.5 351.7 358.9 357.3 356.7 362 360.8 364.5 371.3 373.9 378.4 378.3 375.3 378.2 379.5 379.5 378.5 377.9 375 362.7 354.8 350 342.3 349.9 356.7 362.2 365.7 368.8 373.5 378.1 386.5 393.6 400.6 405.4 411.1 420.6 431.1 441.4 444.8 449.6 457.6 471.8 483 484.4 483.8 492.2 500 498.3 501.6 503.4 502.5 501.5 501.6 495.6 492.4 488 477.8 467 458.5 450.4 448.6 449 455 459.6 460.5 460.3 460.5 463.6 464 467.2 474.8 477.6 469.7 470.2 456.3 445.1 447.1 449.8 450 448.8 446.3 446.5 450.1 450 452.4 455.9 459.5 462.1 464.8 469.6 478 477.4 476.5 478.3 484.1 486 486.9 489.5 492.5 491.6 484.2 454.7 428.9 408 397.9 397.9 396.6 404.3 410.6 412.3 418.2 420.7 420.3 420.9 421.3 420.5 429.5 429.4 429.1 432 435.7 438 440 439.9 443.6 453.2 462.1 469 475 471.2 467.2 459.6 448.1 444 442.5 443.3 442.3 440.3 435.8
408.6 418.6 428.2 433.7 437.4 448.6 455.6 461.6 468.9 479 487.8 493.6 493.9 487.8 486.1 484.4 487.1 493.6 501.5 505.3 507.1 512 520.7 530.7 539.5 540.5 544.7 544 541.9 537 531.5 522.9 514.2 502.2 489.9 485.6 475.9 464.2 460.6 458.6 456.9 452.5 448.3 447.2 440.5 441.4 442.8 443.6 445 434.1 427.7 418.2 412.9 403.9 397.5 389.5 386 375.5 371.3 364.8 363.6 361.8 351 360.4 357.9 364.4 367.2 363.8 367.9 374.8 377.1 378.3 380.2 376.2 381.3 382.4 383.3 381.9 380.1 373.4 363.3 355.4 353.3 344.4 346.1 357.4 363.3 366.8 371 375.7 380.4 388.4 394.9 401 406.6 412.1 421.9 432.6 440.3 444.8 448.2 452.7 467.1 474.4 474.2 476.9 484.4 489.2 493 495.2 500.8 499.8 494.4 492.3 490.8 484 478.2 474.4 465.2 456 450.6 452.7 461.3 471.3 475.4 476.5 470.3 467.6 469.1 469.8 475.3 481.9 484.5 474.1 470.4 457.4 445.7 446.9 449.7 454.6 452.6 450.6 450.2 450.7 450 456.8 462.4 466.9 470.4 473.8 480.2 489 494.8 496.2 489.6 490.9 497.5 499.1 500.6 502.8 498.8 486.8 461.3 435.9 410.2 398 397.9 397.9 402.4 408.3 410.6 412 415.7 414.3 416.7 418 419.3 423.4 423.8 429.7 432.3 435.2 438.8 440.2 442 448.4 456.5 471.9 484.6 493.4 484.2 475.5 464.8 449.8 448.1 449.2 446.4 444.2 440.8 435.7
417.6 426.8 435.6 442.5 450 458.9 469.6 477.6 485.8 499 501.2 503.2 502.4 497.3 494.5 494.5 493.9 500.4 505.9 508.5 507.6 510.9 519.8 527.1 529.9 532.8 538.3 536.2 530.9 524.8 516.4 507.7 498 495 484.4 474 464.5 455 451.5 451.3 450.6 446.8 443.7 442.6 440.4 440.6 442.1 444.3 435.7 430.5 426.9 418.8 414.2 405.8 397.5 389.8 387.5 380.2 369.7 365.9 364 351 360.9 361.5 362.2 366.9 367.7 372.3 372.8 375.5 377.7 378.3 378.1 378.9 383.4 385.3 384.2 384.3 382.7 374.1 362.2 355.2 354.3 345.4 349.3 358.1 364.5 368.6 373.3 377.6 381.9 389.6 396.2 401.6 407.1 413.1 418.8 428.6 435.2 440 443.7 447.7 459.5 464.6 468 470.5 478.4 484.2 487.4 492.8 496.3 491.2 487.8 483.1 478.7 478.5 475.5 472 466.5 452.8 456.4 464 477.4 487.9 485 489.1 479.7 474.3 471.2 476.1 486.2 493.3 497.3 479.1 472.5 460.3 448.7 446.7 449 453.9 458.4 452.8 450.5 450.6 453.1 460.7 467.5 475.5 480.8 483.8 489.4 498.4 503.5 506.1 503 500.2 504.3 507.9 509 513.2 508.6 487.7 463.9 432.2 402.6 397.9 397.9 397.9 401.2 403.7 405.7 406.9 408.7 409.6 412.7 414.8 416.7 420.3 422.9 430.8 434.6 438.4 442.6 448.9 449.4 453 461.9 479.7 491.9 495.4 492.2 482.1 472.2 457.5 450.8 451.9 450.6 445.8 440.8 437.3
426.7 435.1 443.4 451.7 464.1 472.5 484.7 492.4 504 512.4 514.3 510.6 511.1 511.1 509.1 511.9 505.1 507.7 510.6 509.4 508.7 511 515.7 518 517.9 523.7 525.2 519.6 518.7 511.6 504.2 494.1 487.7 477.2 469.4 464.8 460 453.5 451.3 449.8 448.1 443.3 442.5 440.5 437.2 436.9 436.5 434.6 432.4 429.2 423 420.7 412 405.2 396.4 393.7 390 381.9 368.4 365.7 361.3 351.7 365 365.1 365.1 369.2 373 379.5 380.1 377.1 380.9 380.8 384.4 385.2 384.9 385.8 385.4 386.2 382.7 374.9 364 358.4 353.1 351.7 351.1 358.5 365.5 370.6 375 379 382.7 390.5 396.9 402.6 408.3 413.9 418.1 425.4 430.8 436 439.9 444.2 449.6 455.5 460.8 465.8 469.9 475.6 481 483.8 484.3 480 478.4 478.7 484.7 476.8 470.4 466.5 465.3 457.6 466.3 471.1 482.2 488.8 494.2 492.3 482.7 477.9 477.3 482.9 494.9 495.6 495.2 483.6 476 461.8 449.9 446.6 447.7 450.2 453.9 449.5 449.2 452.4 458.8 466.7 475.5 486.5 488.8 495.7 499 506.3 513.2 515.4 510.5 507.9 509.7 509.9 514.4 514.9 511 489.7 467.1 435.6 408 398.2 397.9 397.9 397.9 400.3 401.4 403.1 403.8 406.5 408.7 411.1 416 419.3 427.7 434.6 437.3 439 445.1 451.4 453.2 456.5 467.1 481.4 493.2 495.5 494.4 489.6 482.9 467.3 456.1 453.2 451.2 447.1 440.3 438.5
436.5 447.7 455 472.6 482.7 490.7 498.8 508.1 519.9 528.4 528.8 525.6 523.4 530.5 522.3 517.7 510.2 509.3 511 510.4 510 509.5 513.1 512.6 508.1 508 510.3 504.5 501.4 498.6 492.9 485 483.3 469.4 458.6 455.5 452.5 449.6 448 445.6 442.1 441.6 438.8 435.6 435.1 433.2 431.1 429.1 428 425 422.2 414.4 405.7 400.2 393.2 391.4 385.3 372.1 367.3 365.8 354.3 366.8 365.9 366.2 369.1 375 379.9 383.6 384.7 380.9 384 386.2 389.2 388 387.8 388.8 387.9 386.8 383.4 373.7 363.9 357.3 350.5 356.2 358.8 359.7 366.7 371.4 375.6 378.9 383.7 390.1 396.6 403 408.8 414.3 417.6 422.5 428.1 433.8 439.4 442 446.7 450.4 453.8 458.6 461.3 467.1 471.6 474.1 475.2 470.7 474.9 478.9 477.9 467.2 464.3 462.3 459.6 464.2 475.8 479.5 483.7 489.3 492.4 487.9 483.5 478.7 479.3 488.1 497.3 498.6 496 482.9 477.6 463.2 451.9 448.8 448.6 449.1 450.7 449.6 448.5 454.1 464.4 471.2 481.3 488.8 496.4 503.1 506.1 509 515.7 517.7 514.9 510.3 512.7 513.7 515.8 514.8 505.3 498.3 468.9 434.2 406.5 399.6 399.3 397.9 397.9 398.3 399.7 400.8 400.5 402.8 405.5 408.6 413.8 421.7 429.2 437.6 438.6 438.6 447.2 453.6 460.5 465.9 473.2 480.5 490.1 498.4 496.7 491.3 486.3 476.2 458.7 453.1 450.5 446.8 440.8 439
445.5 454.6 466.4 481.6 495.2 506.5 515.4 520.3 528.5 535.2 537.9 538.5 548 549.3 539.3 524.7 512.6 508.9 509.7 508.7 504.1 505.7 507.5 502.8 498.3 495.9 497 493 486.3 483.3 479.4 476.8 474 469.6 452.9 449.6 448 447.4 444.8 441.9 438.8 436.8 431.4 431.2 430.4 428.8 428.5 425.9 424.7 420.6 417.6 411.5 402.8 395.1 391.6 382.1 370.6 368.8 367.2 359.5 366.2 367.1 368.8 370.2 373.8 381.5 385.1 386.1 385.5 384.1 387.3 390.5 392.7 390 390.9 391.3 391.8 387.2 382.8 371.9 361.9 356.7 349.8 360.4 361.9 361.1 365.2 370.5 375.2 380.9 385 389 396.5 403.4 410.7 413 416.3 420.5 426.2 431.6 436.8 440.2 443.7 446.3 449.2 453.4 456.4 459.1 462.2 467 467.8 465.7 471.9 470.1 469.2 459.2 459.2 459.4 461.6 470.7 475.6 480.8 481.6 488.6 490.6 487 485.5 480.7 484.5 494 496.6 497.8 493.2 483.8 473.7 461.2 450.9 449 448.3 448.7 450.7 449.8 448.9 452 463.3 469.5 470.3 476.9 493.7 500.4 499.2 507.7 517.2 517.1 521.7 516.9 515.6 513.3 516.6 498 497.3 496 457.1 427.7 406.5 399.1 397.8 397.9 397.9 397.9 397.2 398.7 399.2 400.8 403.8 407.8 411.4 419.7 425.7 434.7 438.5 440.8 446.6 453.5 462.8 470.5 475.2 481.5 484.3 492.8 495.8 490.4 481.4 473.3 456.1 450.5 449 448.5 442.6 438.2
452 463.3 472.8 489 502.7 515.8 522.8 528.8 537.7 544.5 554.8 562.7 559.5 554.2 550.5 536.9 521.5 512.2 509.5 504.6 500 491.1 489 492.2 490.4 485.2 481.5 480.4 477.1 472.9 469.4 465.3 464.1 459.1 445.6 440.1 441.9 441.8 441.2 437.7 434.5 431.1 427.1 427.6 429.2 426.1 425 425.6 421.6 417.5 415.9 405.8 396.2 390.7 385.1 376.3 361.5 360.3 359.1 366.6 368.4 371.8 374.8 376 380.3 385.8 387.8 386.3 386.1 390.4 391.8 392.6 392.7 393.1 393.1 392.7 392.4 388.3 379 371.1 363.4 354.7 362.1 364.9 366.7 370.8 371.7 368.3 377.2 381.1 383.4 387.7 394.3 402.7 410.1 410 414.9 419.4 424 427.9 431.6 434.9 438.4 441.7 444.5 449.9 451.8 453.6 454.9 460.6 460 461.1 464 462.4 460.7 458 458.1 459.8 464.8 471.4 476 477.9 482.2 485.6 487.7 488.4 487.3 489.3 491.6 495.5 499.8 498.5 497.7 487.1 473.9 460.3 454.5 450.6 450.2 450.1 450.6 449.7 448.8 449.6 458 465.6 469.9 470.3 481.9 489.6 487.8 487.8 499.5 512.6 519.2 517 509.9 498.5 493.4 488.4 489.6 484 448 426 410.1 398.6 397.9 397.9 397.9 397.9 397.9 398.2 399.2 401.1 404.4 407.7 410.2 420.2 426.9 433.4 437.1 441.6 446.8 453 462.6 472.1 476.2 479.4 480.3 481.7 490.6 485.6 472.4 459.6 453.9 451.1 449.6 451.6 448.8 441.7
464.4 471.2 479.2 497.7 510.3 516.5 524.4 529.9 540.9 552.8 556.2 565.4 566.4 561.8 552.7 539.7 528.3 522 518.5 509.3 495.7 484.5 476.8 475.5 477.9 475.3 473.4 472.1 470.9 466.2 461.8 459.4 454.1 446.7 439.5 438.8 440.6 439.3 438.2 432.9 427.9 429.3 425.3 427.4 425.5 425.1 422.3 420.9 418 413.9 406.7 403.8 388.8 383.4 380.5 363.8 364.5 370.2 371.2 372.7 373.8 380.1 382.9 384.6 388.2 387.7 388.5 388.9 392.7 394.6 395.2 396.7 395.6 394.1 395.4 394.1 391.9 387.6 378.8 370.2 356.5 365.2 367.2 369.3 371.1 372.7 376.6 370.3 371.7 379.7 382.4 386.4 393.2 402.8 406.1 406.3 412.6 417 421.3 424.6 428.1 430.2 431.9 433.3 439.2 444.3 449.8 449.9 450.5 454.9 457.1 458.9 458.7 458.1 459.4 453.4 458.2 460.5 467.9 471.9 480 478.9 481.6 486.5 488.8 489.5 489.1 488.8 495.5 498.3 503.1 500.8 500.3 495.4 478.6 464 456.2 451.8 450.8 450 450.1 449.6 449.2 448.5 453.5 460.5 470.1 470.4 472.1 481.4 483.1 484.2 489.1 496.9 506.3 510.3 500.7 490.9 487.3 485.3 482 466.3 445.4 427.3 411.2 401.5 395.8 397.9 397.9 397.9 395.7 398.5 399.8 403.9 406.8 409.7 413.8 423.3 430.1 432 438.7 441.5 446 451.8 462.1 469.3 473.7 476.3 477.7 475.9 477.4 476.3 456 453.8 457 458.6 460.8 462.6 456.8 449.3
462.1 470.9 479.5 491.7 505.6 515.4 524.9 533.4 541.7 550.1 556.3 564.2 563.6 558.2 552.2 538.2 535.1 533.5 532.7 526.6 504.6 491.2 477.1 468.2 464 467.4 465.3 461.7 461.9 460.3 460.1 455.9 447.6 439 436.7 438 439.1 437.2 435.3 430.1 425.7 424 423.6 425.2 422.4 420.6 419.3 417.6 415.4 410.4 403.7 395.8 383 377.3 368.9 366.3 373.8 373.7 375.5 377.4 381.6 384.8 386.3 388.1 388.3 389.4 390.2 391.1 395 395.7 396.1 397.6 398.2 398.8 396.9 393.1 390 383 376.2 364.3 365.7 370.9 371 370.6 374.2 377.2 380.1 377 375.7 381.8 386 387.4 392.6 397 399.8 401.9 409.3 413.7 418.7 421.5 424 425.9 426.5 429.3 434.7 440.3 443.2 444.4 446.2 449.6 453.1 455.1 454.9 453.2 450.4 451.3 459.7 461.1 468.9 474.6 480.3 482.2 484.4 489.1 489.3 490 489.7 485.7 496.8 505.8 508.8 502.8 504.7 500.6 490.6 473.8 458.6 453.5 451.8 450.5 449.4 449 448.7 448.7 449.7 457 469.8 470.6 469.6 478.8 481.7 487 491.8 496.7 498.9 501.4 490 489 486.3 479.7 473.2 462 444 428.8 412.7 404.7 400.4 399.2 398.8 395.4 396.8 398.5 399.6 402.5 410.7 413.8 418.3 421.8 427.9 431.2 437.3 440.3 444.1 449.4 457.6 465.5 471.7 472.7 470.8 469.6 465.1 450.1 449.6 456.3 465.7 468.2 473.6 469.6 462.1 453.2
455.2 464.4 474.3 491.7 503.7 514.4 524.4 532.1 541 552 558.5 559.6 558.7 555 545 540.2 542.1 543.1 531.9 521.5 504.5 494.2 480.2 463.2 454.6 458.7 460.1 456.5 457.3 456.5 453 448 443.4 437.3 433.3 436.9 435.6 433.9 432 425.8 424.5 419.7 421.1 421.5 419.6 417.2 415.4 414.7 412.2 405.9 399.2 388.9 380.2 368.1 368.4 376.3 375.5 378.1 380.6 384 388.5 392.1 392.9 393.3 392.5 392.9 394.4 393.7 395.8 400.5 399.4 399.4 399.7 402.5 398.4 396.2 387 380.4 374.5 363.6 374.8 373.8 377.9 375.8 380.4 381.9 382.3 379.8 380.5 383.9 388.3 392.9 393.5 395 398.8 401.8 406 411.3 415.4 418.7 421 421.1 422.4 426.6 431.9 435 437.8 441.2 445.1 448.1 451 451 450.9 450.6 451.1 457.7 460.5 458.5 465.2 473.1 477.6 481.1 486.1 488 490.7 490.8 488.6 487.9 501.1 511.3 511.7 507.1 508.9 503.7 495 483.4 465.6 456.7 453.3 450.5 449.1 448.7 448.4 449.2 449.3 453.2 465.7 468.9 469.2 475 481.2 486.7 492.3 494.6 495.3 492.8 490.5 491.4 488.3 478.2 466.5 459.4 443 425.7 413.8 406.4 402.8 401.8 400.8 397.4 396.6 398 401.3 404.4 410.7 415.9 419.4 422.2 426.9 430.3 432.9 436.3 440.3 447.2 455.7 466.1 470.5 468.4 459 458.4 448.8 444.8 449 461.1 472.3 477.3 479.3 471.4 462.4 455.9
451.9 462.1 473.5 489.8 502.1 513.5 522.9 532 541.5 546.6 552.9 556.1 557.8 554.3 546 545.6 550.1 540.7 523.8 513 496.8 485.4 474.9 464 449 451.4 450.9 450 450 447.2 441.3 443.5 439.7 436.1 433.4 433.7 435.3 432.4 425.7 419 420.3 417.2 417.4 417.9 417.9 416.4 415.3 413.4 409.3 396.6 391.1 385.2 372.5 378.9 377.6 376.9 379 383.2 387.1 391.8 395.8 399.1 400.8 401.8 402.2 403.3 401.8 401.4 399.4 400.3 402.3 400.9 403.3 403 401.3 400.7 389.4 383.9 376.6 363.3 377.3 379.4 381.7 385.8 386.6 388.9 387.8 383.8 383.7 385.9 390.4 390 392.4 395.9 399.6 401.8 405.3 408.6 411.9 415.3 418.6 419.5 419.4 422.5 428.9 430.8 433.4 437.5 439.5 444.3 450.2 450.6 450.7 450.1 451.9 454.9 452.2 451.8 461.8 471.1 478 483.1 487 486.8 487.5 485.5 485 492.3 501.4 512.1 515.5 517.9 516.3 505.7 498.6 489.6 473.7 464.4 455 450.1 448.7 448.3 448.3 448.4 448.5 452.4 461.8 466.7 468.3 472.7 482 487.2 489.7 493.4 495.5 494.9 494.6 495 494.1 488.1 464 452.4 438.7 424.3 413.4 408.6 406 402.4 400.2 397.7 396.6 399.9 408.4 410.4 412.7 417.4 420.3 422.4 426.2 430 430.8 432 436.5 443.9 451.9 459.9 464.2 463 446 441.5 439.6 444.1 454.3 466.4 481 484.2 481.7 472.5 462.3 454.4
451.4 460.7 470.4 486.1 499.6 511 519.5 528.5 534.9 539.5 548.9 556.5 557.1 555.8 556.8 558.3 550.4 540.9 521.8 507.5 495.9 482.6 471.3 458.5 449.3 446.5 448.5 443.5 441.3 438.7 441 439.2 436.4 437 434.9 433 430.7 426.3 420.9 413 413.8 414.9 416.5 419 416.4 414.4 414.3 411.8 401.7 391.2 385.2 381.3 381.8 380.1 378.8 381 384.8 388.7 394.5 398.3 401.5 402.8 403 404.8 406.3 408.3 407 407.7 409.2 408 403.4 403.4 404.3 404.8 404.8 402.2 395.8 386.9 379.9 370.7 377.7 382.3 386.1 391 391.5 390.6 390.5 388.5 388.6 389.5 390.4 393.7 395.9 395.8 399.2 401.2 405.1 407.8 410.5 413.8 416.2 418.4 418.5 420.2 424.3 430 430.7 431.8 437.7 440.8 444.4 445.3 448.6 448.1 449.2 446.1 447.5 451.4 463.4 472.8 480.1 481.5 484.9 486 484.7 484.7 484.9 494.9 501.5 514 516.3 526.2 523.1 512.3 504.8 492 478.8 471.6 455.9 449.9 449 450.2 448.7 448.3 448.5 451.5 459.5 462.6 467.2 473.8 482.7 489.2 494.1 498.1 497.7 496.1 496.9 498 503.5 490 457.3 440.9 427.4 422 413.7 410.2 405.7 399.8 396.3 395 396.2 397.3 407 409.7 413.2 418.5 420.3 420 423.6 426.1 428.6 429.1 431.5 438.9 440.8 446.9 448.2 445.1 435.3 434.8 441 451.1 462.7 474.5 481.9 487.4 483.3 473.5 464.8 456.8
450 458.2 468.5 483.3 496.8 506.7 515.4 522.7 529.3 535.2 543.2 551.1 553.8 559 562.7 559 551.6 539.7 524.5 511.7 503.2 485.6 471.7 456.8 449.2 445.9 440.6 438.3 437.2 437.8 437.3 435.2 436.9 435.9 434.2 432.2 427.6 423.7 418.8 413.3 411.2 412.7 416.9 415.3 414.9 412 411.2 406.6 392.1 389 385.1 375.7 383.2 380.7 383.9 387.2 390.6 396.9 400 404.9 407.2 408.1 408.3 409.9 412.1 411.5 410.9 411.6 412.3 411.3 412 407.2 406 405.3 404.2 403.7 401.1 393 381.5 369.8 379.8 382.5 388.7 394 394.8 394.8 393.1 391.1 392.5 394.5 395 394.2 396.6 397.8 399.9 401 405 408.8 409.1 411.9 413.2 415.7 418.2 419.4 422.2 428.3 429.9 430.5 434.1 438.3 439.6 440.4 441.8 445.5 448.2 446.8 448.2 456.2 469.5 475.8 482.1 483.6 483.7 485.1 486.6 486.2 485.9 494 505.7 515.6 518.7 527.2 527.3 525.5 511.8 498.1 484.7 474.1 458.9 454.8 456.7 461.6 454.1 448.7 448.9 449.9 457.1 461.5 466.9 473.6 481.2 487.9 491.8 497.4 498.2 497.2 497.6 502.2 506.7 484.3 455.6 439.1 424.2 413.5 411.2 408.3 403.9 397.8 394.5 393.3 395.1 397.5 401.5 406.2 412.1 417.1 418.6 419.8 421 423.5 424 423.3 428.4 433.8 436.2 441.6 438.1 433.8 429.4 431.5 441.9 454.9 467.9 479.9 481.2 481.9 481.1 476.3 469 455
448 456.4 466.4 479.5 493.3 503.7 511.3 517.2 523.9 529.3 534.2 538.4 548 560.5 564.9 560.8 554.3 542.5 524.3 513.2 500.1 485.5 468.1 456.3 449.1 444 436.4 434 433.9 435 433.9 432.2 434.7 432.4 432.2 429.2 425.5 422.1 418.2 413.6 413.3 411.4 410.2 410.2 409.9 407.4 403 397.1 390.2 386.8 382.2 385.9 384.1 387.8 392.5 395.2 398.8 405.2 408.6 411.5 413.6 415.2 415.1 415 415 414.9 415 414.6 414.5 415.9 414.1 413.1 410.4 408.4 408.7 405 399.4 396.6 386.6 372.3 382.3 383.7 393.6 397.2 397.2 397.2 396 395.3 396.8 398.4 399.8 399.9 397.8 399.7 401.7 403.3 407 410.3 409.8 411 413.5 416.4 418.6 420.1 422.9 428.1 429.8 429.9 432.5 438.2 440.8 440.9 441.1 444.2 447.6 447.5 454 467.1 471.9 474.9 476.7 481.5 481.5 485.2 489.5 493 492 497.7 510.7 517.2 521.1 532.6 529.6 529.1 523.8 514.3 500.6 480.2 461.2 459.2 463.2 469.5 467.4 453.8 449.7 449.4 454.2 461.8 468 473 479.1 484.8 489.8 499.2 499.6 498.4 498.8 497 495.1 490.6 458 439.3 423.3 409.4 404.7 402.7 401.9 396.4 394.8 393.5 393.1 395.1 398.9 404.2 411.4 414.4 418.4 420 420.7 420.3 420.4 420 424.5 429 429.5 428 427.1 427.6 429 433.1 444.8 454.8 468 479.4 481.3 480.1 479.7 477 467.6 454.9
445.6 454 463.5 474.6 486.3 495.4 504.6 510.9 516 520.7 526.1 534 546.4 560.4 566.5 566.5 557.7 544.5 526.2 510.1 500.9 482.7 466.6 453.8 447.6 440.2 435.5 432.6 431.5 432.7 431.9 431.1 431.9 432.6 430.7 424.8 420.9 418 415.9 413.6 416.4 413.9 413.4 413.5 410.5 404.4 395.7 388.5 388.5 380.5 389.9 386.9 392.3 397.3 399.9 402.2 407.2 412.8 416.6 418.3 419.9 421.2 421.8 421.8 421.2 421.7 419.6 418.1 419 419.3 419.7 418.2 416.2 413.4 411.8 408 402.3 396.6 389.1 375.2 387.1 389 396.5 399.9 402.7 401.8 399.6 405 405.4 403.4 405.1 404.6 402 401.4 405.5 407.3 408.9 409.9 410.6 411.9 414.6 417.2 419.1 420.4 424.3 429.9 431.3 431.3 434.6 439.5 441.7 443.9 445.5 448.1 449.1 450 455.3 467.7 470.2 476.1 480.9 484.5 486.1 489 493.8 493.7 493.2 500.3 511.3 520.2 524 535.6 532.7 534.4 532.3 528.9 523.2 491.7 469.2 462.7 465.7 469.5 468.6 458.2 451.5 449.5 450.9 459.5 464.4 470.3 477.4 483.6 490.1 498.3 499.7 499.2 499.8 498 496 494 466.9 446.1 426.8 410.5 401.7 398.8 398.1 395.5 394.1 393.2 395.2 395.2 391.7 400.6 409.7 410.7 416.7 420 419.8 417.9 418.3 418.7 419.4 420.2 420.3 421.6 421 425.7 435.8 439.2 446.3 457.7 470.6 479.2 482.1 480.6 477.6 475.4 465.6 454.5
444.2 451.3 461.5 471 480.4 488.8 496 502 508.2 513.6 521.2 532.6 543.2 553.1 562.3 564.6 554.5 547.6 531.2 514.5 499.1 482.8 469.1 453.6 443 438.9 435.6 433.7 430 430.8 430 428.8 428.8 426.3 423.7 422.5 418.6 416.2 414 415.1 416.7 414.8 415.4 413.9 407.5 406.1 399.6 389.4 389.8 390.2 389.2 394.9 399.2 401.9 406 409.9 414.5 419.4 421.5 423.4 425 426.4 427.1 426.3 426.8 424.5 424.2 423.9 423.8 422.4 421.8 422.3 418.3 414 413.9 410 403.9 397 387.8 379 388.8 392.6 396.7 402 404.3 405.4 405.4 409.4 408.8 408.4 408.6 407.6 405.2 408.4 409.9 409.7 409.9 411 412.4 413.8 416 417.2 418.7 420.2 423.8 429.4 433.6 436 439.1 441.2 443.4 445.7 448.2 450.9 453.5 456.3 462.5 468.9 477.2 486 488.8 493.5 498 500.1 504.1 502.4 500.6 509.1 519.3 524.2 530 534.4 536.8 543.6 540.7 541.8 534 513.5 491.4 470.1 465 466.3 463.1 453.4 449.2 449 450.6 456.6 460.1 466.1 474.7 483.5 490 498.7 500.6 499.9 499.5 499.6 495.6 497.2 477.4 451.4 428.5 415.4 401.7 397.9 396.5 395.9 394.8 395.6 398.2 397.4 393.3 396.4 403 408.1 414.1 416.6 416.5 416.4 416.9 417.2 417.3 417.3 417.8 420.7 419.9 426.8 439 442.1 447.7 458.3 468.8 476 482.1 483.6 476.4 470.9 462.1 452.4
444 451.5 460.2 469 475.8 482.8 489.7 497.1 503.1 509.8 520.6 529.2 535.8 544.8 550.5 546 545.5 541.5 528.6 513.1 496.9 482 469.8 452.7 443 437.9 434.7 432.9 431.8 428.4 429.3 428.7 427.3 424.9 421.1 419.1 417.1 415 414.8 416.9 415.5 415.4 415.4 412.5 406.4 404.5 394.1 392.6 391.3 393 397.1 402.4 404.9 407.4 410.1 414.7 419.9 423.1 425.9 428.4 429.9 430.9 431.5 431.4 430.7 430.7 429.4 428.1 427.1 425.5 424.6 423.3 421.4 418.1 414.3 410.8 404.6 399.5 388.5 379.7 395.3 397.3 401.1 404.4 406.6 411.5 410.2 413.3 414.8 412.1 409.8 409.2 408.5 408.7 410.4 410.5 411.2 412.7 414.3 415.7 417.6 418.5 419.2 420.3 422.7 428.1 433.4 438.8 440.3 442.8 445.2 447.6 449.5 450.5 455.9 461.9 467.2 473.3 483.4 491.4 495.8 500.1 503.9 509.2 510.7 510.6 516.9 525.6 530.9 534.8 534.6 538.2 539.1 541.8 543.8 546 542.2 533.8 517 477.9 465 462.2 457.8 449.3 449.2 449.2 451.4 454.9 458.4 463.3 467.4 476.7 483.5 489.6 489.8 497.6 500 499.2 493.9 490.5 484.6 459.8 435.3 418.6 402.8 398 397.2 397.1 394.8 397 399.4 397 391.7 394.2 400.9 407.2 410.4 410.5 414.2 414.9 415.4 415.7 414.9 414.9 416.1 418.4 420 428.4 439.3 443.5 448.3 457.7 465.6 474.5 479.6 479.3 472.2 467.7 461.8 452.2
444.3 451.8 458.6 467.1 472 477.9 485.5 492.7 500.3 508.7 517 522.5 529.2 533.3 534.5 535.4 536.3 536.7 525.9 509.3 493.8 482 469.2 454.3 445 440.1 437.5 437.7 434.2 430.7 427 427.1 426.5 424.5 421.7 420.3 416.5 415.3 415.8 416.7 418.1 416.8 413.9 407.9 403.4 400.5 390.5 395 399.2 401.2 406 408.5 410.5 413.6 415.8 418.9 423.9 426.7 429.8 432.9 434.5 435.4 436 434.6 434.2 433.7 431.4 430.4 432.4 432.3 427.4 425.2 422.9 418.7 415.3 412.6 410.5 402.4 393.3 384.8 396.3 399.5 404.6 407.5 411.1 416.3 414.8 418.1 419.7 417.1 414.1 411 411.4 414.7 415.4 416.2 414.2 415.8 416.8 417.9 419.5 421 421.1 422.5 424.2 428.7 434 438.2 440.6 443.9 446.8 449.6 451.5 454.2 458.2 464.2 471.2 477.3 483 487.6 494 499.1 508.9 515.7 513.8 524.6 529.6 536.8 542.5 547.9 541.9 542.1 543.1 545.9 551.9 558.4 558 550.2 534.7 490 469.4 462.8 457.2 452.8 451.6 451.8 452.7 452.4 450.6 454.8 459.4 467.1 476.1 482.9 488.1 497 500.5 497 490.5 487.1 485.2 470.7 446 423.9 406.6 398.4 397.9 397.9 396.3 397.8 398.2 392.8 389.8 390.8 398.1 405.4 409 410.1 411.8 412.9 414 413.4 412.6 412.7 414.3 416.5 421.2 432.4 440.5 442.5 446.2 457 461.2 464.4 470.2 471.4 468.4 464.1 460.3 450
445 451.5 458.7 466 472.8 479.2 484.4 490.4 499.7 509 515.4 522.3 527.8 530.3 529.5 530.4 530.4 531 521.5 506.7 490.5 479.6 467.3 456 447.3 442.2 440.7 437.9 434.9 432 426.9 426.9 426 423.4 421.6 420.7 417.1 415.9 415.7 417.7 419.3 416.7 410.7 408 405.1 401.9 392.1 403.8 406.3 408.3 411.4 414.6 418.3 420.2 421.7 426.1 429.4 431.4 434.5 436.8 438.4 439.4 439.8 439.7 438.4 438.5 437.6 434.9 433.6 432.4 437.9 433.2 427.4 421.1 414.9 414.3 411.6 406.9 398.3 384.9 398.9 400.2 404.2 411.3 417.1 420.8 419.2 420.2 421.2 419.8 416.9 417.4 415.4 418.6 420.4 420 418.4 420.4 419.5 418.8 420.2 421.6 423.6 425.2 426.8 429.7 433 436.6 441.4 444.7 448.3 451.2 454.5 458 461.4 466.8 473.8 479.6 485.3 492.5 500.9 506.6 513.7 519.4 525.5 535.9 540.8 547.6 551.3 554.8 547.1 547 548.5 558.1 562.5 571 573.5 558.7 532.2 505.5 478.1 468 462.3 458.7 456.2 456.8 453.5 450.2 448.5 449.5 454 459.6 470.4 477.4 485.1 493.9 497.7 495.9 490.8 485.5 482.1 473.8 452.5 430.7 410.3 398 398.5 398.5 397.4 399.2 395 389.7 388.5 392.2 395.7 401.5 406.7 409.9 410.5 411.6 411.1 410 410.4 411.6 414.1 416.9 422.2 431.9 436.8 441.7 446.6 451.6 456.7 460.3 465.1 465.5 464.1 461.3 456.5 448.9
448.2 453.8 460.1 466.1 473.8 480.4 486.2 492.2 502 510.1 517.5 523 527.9 530.3 529.9 526.4 525 520.2 514 504.3 489.9 479.4 471.4 459.5 449.3 444.4 442.3 439.6 434.7 431.7 427.7 425.9 426.7 424.7 423.1 419.7 418.5 418.7 418.7 420.1 420.8 414.6 412.7 411.3 406.2 400.6 395.7 406.6 409.2 413.5 417.6 420.7 423.6 426.4 428.7 432.2 434.9 437.2 439.2 440.6 441.8 442.6 443.1 442.7 443.1 442.7 440.2 438.7 436.5 438.2 441.2 439.7 432.3 424.6 417.6 413.5 413.2 410.9 405.7 386.2 402.8 403.9 410.7 415.8 421.3 421.6 421.1 423.1 422.1 425.4 423.1 419.9 421.5 422.3 425.1 424.2 422.2 421.1 420 419.5 421.5 423.7 425.7 427.1 428.5 428.9 432.2 438.2 442.3 445.4 449.5 453 456.6 460.5 464.4 469.3 475.5 481.9 487.9 496.9 506 509.9 516.8 521.9 531.7 545.2 548 554.8 556.6 557.8 557.5 549.5 558.7 569 575.8 582.2 579.2 567 550.1 525.4 488.6 476.3 470.9 462.8 459.8 461.4 458 451 448.9 448.8 452.3 459 468 473.6 481.7 489.4 492.9 493.9 492.4 484.1 475.6 468.4 453.2 433 414.8 400.6 399.8 399.9 397.6 395.5 392.2 387.2 388.5 392.7 394.9 398.1 402.9 406.2 408.4 409.9 408.6 408 409.6 411.7 414.3 416.7 421.1 428.7 433.7 438.7 443.7 449.9 454.2 457.7 460.3 459.1 461.2 459.9 454.8 447.6
453.6 459.2 463.6 467.6 474.6 480.2 485.9 492.5 500.2 509.7 519 523 526.7 528.3 527.6 523.1 519.9 514.2 507.7 499.3 490.7 479.8 474.6 469.1 457.7 448.1 445.5 439.4 435.6 433.1 428.4 426.2 425.7 423.6 421.7 421.2 419.8 421.8 422.4 423.6 420.9 419.1 412.7 411.3 406.1 400.7 394.5 408.3 413.1 418.2 422.7 426.3 430.3 433.7 435.3 436.9 439.3 441.5 443.5 445.7 446.5 446.6 446.4 446.4 447.5 446.7 444.4 444.2 441.7 439.9 445 441.5 435 429.2 423.9 417.9 414.9 410.7 405.7 392.3 408.7 411 414.9 418.7 422.4 425.5 424.6 425 427.3 430.3 430.1 428.3 426.3 428.1 429.3 428.9 427.2 425.3 422.5 421.2 421.9 425.4 427.6 428.5 429.7 431 434.4 439 442.7 446 449.3 454.7 458.7 463 468 472.1 478.9 485.4 493.4 501.2 509.3 512.9 521.1 528.9 536.2 550.2 553.5 558.3 560.3 558 551.3 554.9 565.9 576.6 580.6 588.7 583.2 578.4 567.9 546.9 503.4 486.2 473.3 467.2 467.4 468.4 461.4 458 453.8 449.7 449.1 460.3 465.5 470.2 474.7 480.7 483.3 488.2 487.6 482.2 471 462.4 453.7 438.9 419.1 409.1 410.2 404 394.4 390.7 387.5 385 387.9 391.4 394.5 396.3 399.6 403.1 404.7 405.9 406.4 406.3 407 411.1 413.8 415.6 420.6 425.9 430.7 435.4 440 446.7 451.4 451.1 449.7 450.4 456.4 456.2 449.7 449.7
458 463.6 468.1 473.1 480 483.3 487.4 494.2 503.3 511.2 518.5 520.4 526.3 532.2 532.7 527.5 520.2 516.6 512.8 510.3 503 491.5 479.7 469.4 459.5 453.4 450.5 444.4 437.5 436.3 433.7 429.3 426.4 428.7 427.5 425.8 423.2 422.2 421.7 422.7 420.8 418.3 412.9 410.2 403 396.4 405.1 412.9 417.8 422.5 427.4 433.5 436.8 438 440.4 442.1 444.4 446.4 448.5 449.6 450.6 450.8 452.2 453.3 452.6 450.5 448.6 448.9 445.4 442.9 443.9 441.5 437.5 432.3 426.3 423.1 419.6 414.2 396.4 401.3 409.4 413.7 417.2 422 426.5 431.1 431 432.6 432.2 434.4 436.9 435.4 430.9 431.6 429.7 429.6 429.3 429.3 426.1 424.8 424.9 427.6 429.7 430.4 432.6 435.8 438.7 440.6 443.3 446.8 450.2 454.9 459.5 463.7 468.4 473.2 482.3 489.4 496 506.7 514.3 517.4 524.5 533.6 539.4 547 554.3 558.5 558.4 556.7 554.4 561 572.7 582.4 584.8 586.5 585.3 583.4 574.6 558.1 511.8 487.5 475.9 472.7 468.3 468.1 463.8 461.4 459.4 453.4 448.8 450 459.7 463.6 466 470.9 470.3 471.1 472.7 473.9 467 456.4 450.5 438.9 415.9 408.6 407.4 397.9 391.6 386.6 383.1 384.1 383.9 388.6 390.9 392.3 399.5 400.2 400.5 401.9 403.2 403.4 404.9 408.6 411.7 414.1 417.4 422 426.9 431.8 436.2 440.3 445.4 444.8 445.7 447.6 449.1 449.6 450 451.3
460.7 466.5 471 475.9 482.6 486.8 489.7 496.4 506.3 513.6 518.7 524.5 533.5 539.7 543.5 541 535.4 528.5 528.7 516.6 508.7 498.3 483.7 472.4 465.1 458.3 451.5 447.4 440.8 439.7 435.7 436.5 431.9 430.8 429.3 424 424.4 424.1 422.4 420.6 420.2 416.1 412.3 400.7 401.7 397.3 408.3 414 420.3 427.2 433.7 438.9 441.7 442.1 445.3 448 451.2 453.9 454.9 455.1 455.7 457 458.5 459.5 457.1 455 453.8 454.1 451 447 444.1 439.5 437.4 431.4 427.7 424.8 421.6 417.8 396 394.9 411.5 417 421.1 426.3 430.4 431.8 435.4 435.4 438.8 442.6 442 439.4 435 433.7 432 430.6 429.4 430.8 428.7 427.9 428 430.1 431 432.4 435.6 439.3 441.5 443.5 445.4 448.6 451.2 456.5 459.3 462.4 468.5 475.6 484 490.8 500.7 511.9 522 523.7 530.4 536 542.2 547.6 558.4 561.4 559.9 562.2 561.8 563.7 572.9 585.7 589.2 587.2 585.5 580.4 573.1 555 513.5 494.1 481.6 474.8 468.4 465.1 463.6 462 460.5 460.2 449.4 449 452.1 456.8 457.8 459.5 460.3 460.3 459.4 461 458.8 450.1 442.2 428.1 412.4 406.1 402.3 396.7 390.7 385.1 380.2 382.1 380.4 383.2 385.6 388.6 393.9 395.8 396.2 397.6 399.2 400.5 402.7 405.5 408.5 411.6 415.1 418.7 422.9 427.9 432.2 436 439.4 442 443.2 444.5 445.2 447.2 449.8 450.2
462.3 468.7 474 479.5 485 489.4 493 498.9 510 515.5 518.6 527.2 535.7 542.4 548.6 550.3 544.3 540.1 537.5 529.2 518.2 506.1 490.7 478.7 471.4 465.5 456.2 450.3 446.1 443.9 439.7 439.7 437 433.4 430 426.9 422.7 422.4 422.5 420 415.8 409.9 408 403.5 399.5 406.3 413.9 420 423.6 427.9 435.9 441.3 445.2 450.5 453.7 454 457.4 460.1 460.3 460.3 461.1 462 464.1 464.5 462.3 460.9 459.4 458.1 456.8 452.2 448.2 441.8 435.9 430.7 427.2 424.6 421.9 416.3 396.1 408.4 411.5 419.2 422 427 433.4 436.5 437.8 442 444.8 447.3 447 443.4 439.3 438.4 435.2 429.5 428.4 428.8 430.4 430.5 429.5 430.2 432 435.1 438.2 440.5 444.4 446.4 448 450.2 454.4 457.2 459.7 464.6 470.8 479.8 487.5 493.5 501.3 512.2 522.9 528.4 533.6 539.1 544.2 550.6 559.3 561.2 560.7 565.4 575.8 577.7 577.5 588.1 590.1 587.3 585.3 577.5 569.1 544 517.6 499 486.9 476.1 468.9 466.2 464 461.9 459.8 457.8 451 442.6 443.6 450.5 451.4 452.6 453.2 452.9 448.9 447.5 445.4 444 435.9 419.4 409.5 405.1 398.9 394.6 390.1 384.8 379.4 376.2 376.8 380.5 381.3 384.9 388.5 391.6 392.1 392.9 394 396.6 400.2 402.9 405.7 408.5 411.9 415.7 419.7 423.9 428.5 432.1 435.8 439.9 441.7 442.7 442.1 443.4 443.3 444.4
464.8 469.7 477.6 483.3 488.5 493.7 498.9 503.1 510.3 516.2 520 529.6 533.5 541.2 547.2 554 549.7 541.8 540.3 537.1 527.9 514.2 498.3 484.1 474.1 466.4 460.9 454.7 451.4 445.8 443 440.9 439.6 436.7 431.9 428 423.3 421.3 419.6 416.4 412.9 408.3 412.8 413.3 414.7 417.7 422.3 425.7 429.3 432.7 438.5 444 448.4 453.8 457.9 460.8 462.7 463.9 465.6 465.7 465.4 467 470.7 471.3 473.5 470 467.2 466.3 462.9 457.9 452.4 445.4 438 431.4 427.7 425 422.1 412.7 408 416.3 417.1 420.2 425.1 431.3 437.3 440.3 443.3 447.2 449.5 453.2 452.9 449.3 446.1 447.9 443.3 437 431.7 429.4 428.8 428.7 429.6 430.5 435.1 438.4 440.1 440.1 446.1 450 451.3 455.4 458.1 460 464 467.9 475.8 484.5 494.3 497 500.7 510.1 517.8 526.9 533.2 537.7 545.9 552.9 558.9 557.7 563.8 572 582 590.7 587.7 590.3 588.8 587.6 584.5 582.7 580.5 539 518.5 498.4 488.9 481.9 473.5 468.1 463.7 461.5 459.5 453 448.5 442.7 439.3 440.7 443.8 446.5 447.1 446 444.2 442 437.2 434.9 431.9 415 405.8 402.4 396.7 392.2 387.5 382.8 376.4 371 372.3 375.7 378.2 381.6 385 387 386.8 387.8 390.1 393.4 397.3 400.6 403.5 406.3 408.7 412.7 416.7 420.8 424.8 428.7 432.5 436.3 439.9 440.6 439.8 439.4 439.4 438.6
467.3 472 482 487.4 493.8 499.8 510.2 511.2 512.3 517.3 521.2 526.5 530.7 537.1 546.9 551.8 549.2 543.3 540.5 539.9 531.8 517.6 500.7 486.7 474 466.5 459.7 454.8 451.7 451.3 454 451.2 449.4 444.9 435.3 430.6 426.2 423.6 419.3 415.3 412.3 409.6 419.8 419.5 421.1 424.7 428.1 431.1 435 438.7 443.1 448.8 452.2 455.9 460.1 463.7 465.5 466.9 468.5 470.3 471.2 474.6 477.2 478.5 479.7 478.9 480.4 476.8 470 466 458.3 449.8 440.7 434.4 429.8 426.3 423.6 407.4 412.8 420.2 422.6 424.7 428.2 432.9 437.1 441.3 446.1 451.9 454.4 458.3 458.9 455.2 454.1 451 451 447.1 442.2 442 432.3 428.7 429.7 431.2 437.1 441.2 441.8 441.7 448.2 451.3 453.6 457.7 461 466.8 469.2 470.6 478.6 486.4 493.4 500.9 506.1 509.6 516.7 522.5 528.5 539.7 547.6 552.6 554.6 558.4 571.7 576.7 585.7 591.2 593.6 591.2 591.4 592.9 588.8 587.4 583.8 535.8 512 495.5 488.3 479.7 472.7 468.4 464 460.9 458.4 453.6 448.6 441.2 432.6 431.8 436.4 440.8 442.8 442.8 441 437.7 433.2 429.1 424.7 413.4 400.2 398.6 394.7 390.2 385.6 380.6 373.9 369.6 369.3 372.2 375.3 377.9 380.6 383.2 381.5 382.3 387.9 390.2 394.1 397.9 401.7 404.6 406.1 410 413.9 417.7 421.3 424.4 428.3 432.1 435.6 437.9 439.3 439 436.1 434.2
469.5 475.4 484.4 492.5 499.6 506.7 512.4 514.8 516.7 519.7 523.2 526.6 529.7 536.1 544.2 547.9 546.1 541.5 538.2 534.1 531.6 516.4 498.7 485.2 473.1 465.2 461.3 454.9 453.2 453.1 455.5 456.5 454.2 451.8 445.7 440.3 431.5 425.3 419.7 417.1 416.1 410.6 420.9 422.1 425 428.1 432.1 436 439.9 443.9 447.8 452.9 456.2 460.1 462.6 466.4 468.3 470.3 473.2 475 476.1 479.5 482.4 486.8 487.2 488.4 493.8 490.6 482.2 474 463.8 456.1 445.4 438.5 434 429.8 424.1 408.2 417.9 423.7 427.1 431.1 434 436.1 438.6 443.1 448.5 454.3 458.6 461.1 462.1 462 461.2 460.2 458.3 454.5 448.3 447.7 443.5 436.4 429.5 432.5 438.7 441.6 444.4 447 449.7 451.8 454.3 459.1 468.7 471.2 474.9 478.6 481.6 487.5 494.2 501.3 505.8 509.4 514.5 521.3 532.6 542.7 549.1 554 553.5 562.7 575.3 578.5 587.9 593.6 593.2 591.7 592.7 593.6 589.9 587.4 578.9 536.4 510.9 498.3 494.4 490.1 478.5 468.4 464.8 459.9 457.4 452.4 447.5 440.4 432.9 425.5 427.1 434.9 438 439.2 434.7 432.4 429.7 426 420.6 412.4 397.8 395.4 392.2 389.1 385 380.1 371.8 365.6 364.3 368.3 371.3 373.8 376.1 377.1 375.7 380.5 383.7 386.4 389.8 394.1 397.5 401 403.2 406.8 410.6 414.4 418 420.2 424 427.9 431.4 434.4 437.5 438 433.5 431.8
469.4 477.9 487.3 496.8 504 511.4 516.2 519.7 520.9 524.7 527.7 528.6 530 534.3 541.2 542.4 542 538.6 533.9 528.6 523.3 508.2 493.1 481 471.9 464.8 461.9 460.9 458.7 459.4 462.1 459.9 457.5 454.9 450.2 443.6 439.4 432.4 425.9 419.8 420.9 412.8 421.9 423.9 426.5 430 433.7 438 441.9 446.2 452.6 456.4 460 463.3 466.9 470.2 473.4 476.4 479.1 480.8 481.3 484.1 488.8 491.6 492.5 493.9 496.4 494.1 486.1 476.9 468 460.4 451.2 442.4 435.1 431 423.4 410.3 424.5 427.7 430.9 435.3 438.6 440.9 443 446 450.5 456.2 461.5 463.3 465.8 466.8 467.7 468.4 466.8 461.7 456.9 453.6 448.5 438 434.5 436.8 440.6 442.2 444.4 447.1 449.3 449.9 456.3 461.6 469.4 474 479.8 483.4 487.6 491.2 497.1 502.3 504.4 509.9 516.5 521.9 528.5 539.2 547.2 547.4 551.1 564.4 569.8 577.4 584.4 588.6 589.7 593.6 597.2 596.1 593.5 593 579.8 532.6 512.2 506.4 503.3 497.3 485.1 474.9 468.9 462 453.8 448.9 443.5 439.9 434.8 429 419.7 426.8 431.9 431.6 429 426.8 424.8 422.1 416.5 405.6 395.9 392.6 389.5 386.4 384 379.4 370.4 362.4 359.3 361.9 366.3 370.7 370.7 369.2 368.7 374.4 378.3 382.4 385.5 391.1 393.2 396.7 400 403.6 407.4 411.2 414.7 417 420.2 424.1 426.8 429.2 430.7 432.9 431.5 429.8
472 481.6 490.5 498.7 505.9 513.9 519.9 523.7 527.8 529.8 530.5 529.6 529.4 533.9 539.5 539.2 537.7 534.8 528.8 522.9 514 496.2 484.1 475.2 469.2 465.1 464.3 465.3 464 462.7 465.8 466.1 462.6 455.6 451.8 445 442.2 437 428.5 424.8 420.4 412.2 417.8 424.7 428.3 431.8 435.3 439.5 443.9 448.8 453.9 459.1 462.9 466.9 470.7 476.3 479.2 482 485 486.5 486.6 490.7 494.6 494.6 494.6 495.8 495.4 491 481.4 474.7 470.5 461.7 452.1 445 436.8 431.3 416 418.2 428.2 430.5 433 438.8 443.6 446.1 447.3 450.3 453.3 457.9 463 467 470.2 470.2 472 473.4 472.6 470.6 465.6 460.8 455.3 440.7 439.4 440.5 442.7 444.2 444.5 447.1 448.7 453 459.5 466.8 469.8 475.7 481.2 485 489.6 495.1 500.7 505.7 509.7 516.3 519.7 523.1 528.7 534.7 540.3 546 554.5 561.8 567.8 577.7 583.8 587.8 589.5 601.6 599.2 593.9 593.7 589 581.5 534.8 520.7 516 509.3 503.1 493.4 482.3 477.7 469.8 458.7 451.2 443.9 439.7 436.5 429.4 419.8 419.8 424.7 425.4 423.9 420.7 418.5 416 410.2 401.9 393.9 389.8 387.5 385.4 382.7 377.2 367.2 360.9 357.6 358.3 359.8 363.2 363.4 362.4 364.6 368.4 372.5 376.6 380.8 386.5 388.8 392.3 396.3 400.6 404.3 408 411.5 414.3 417.2 419.7 422 424.4 426.9 428.2 427.7 426.3
475 485.6 495.3 503.1 509.7 517.4 525.4 529.1 533.2 534 534.1 533.2 533.6 536 539.2 539.1 535.1 529.9 523.3 515.5 499.6 485.5 476.3 471.1 468.8 466.6 467.3 466.6 465.4 464.7 465.7 467 465 461.9 453.7 447 444.7 438.6 432.2 427.8 422.9 413.5 416.7 424.1 428.3 433.1 437.1 441.1 446.6 452 456.1 461 466.2 474.6 479.2 481.9 484.6 486.5 490.7 494.6 492.4 497.1 497.9 495.2 496.6 495.8 493.2 486.9 479.6 474.2 469.3 461.1 452.2 447 439.3 425.2 422.8 428.6 430.4 432.7 435.2 443.1 447.4 450.7 451.4 452.8 456.5 461 466.1 469.4 471.6 473.6 475.8 478.3 479.7 478.6 475.9 467.2 458.2 445 440.3 442.4 444.7 446.3 446.3 447.1 450 458 463.7 469.6 472.6 478.7 480.8 485.8 490.4 496.4 502.4 506.8 512.7 516.3 520.5 526.2 531.9 535.5 540.9 545 552.9 560.3 567.2 579.3 583.7 586.3 589.9 597.9 594.7 591 590.3 589 577.5 549.9 535.1 523.5 512.9 506.7 497.9 488.6 486.7 482.9 469.7 457.5 447.3 442.7 441 433.8 424 413.5 414.2 417.1 417.2 414.4 410.7 408.8 405.7 399.2 394.8 390.2 383.5 382.9 378 372.4 366 360 354.7 352 353.4 355.5 358 358.8 360.4 362.9 366.7 370.8 374.4 379.5 384.1 388 392.4 396.9 401.4 405.2 408.2 410.9 413.5 416.3 418.4 420.8 423.2 423.5 423.3 423
479 488 499 507.8 514.7 523.9 532.7 536.9 540.1 540 539.2 538.4 537.9 539.4 540.3 540.3 533.5 525.4 515.8 506.9 493.9 480.5 472.9 468.8 468.8 469.6 470.1 471.4 475.5 470.8 467 467.7 468.7 464.1 454.5 449.8 447 441.4 436.2 432.6 426.7 416.2 418.7 423 427 431.9 437.1 442.6 449.8 455.1 459.7 463.9 471 477.9 482.9 485.9 488 490.6 494.3 499.6 498.7 497.9 497.2 495.5 493.8 491.4 488.4 482.6 475.9 473 466 455.9 450.4 446 439.2 418 431.1 431.7 432.9 433.7 437.3 443.5 450.9 453.9 455.4 457.3 460.4 465.1 469.1 472.4 475.6 477.3 479.6 483.3 486.7 487.9 485.1 477.3 464.6 447.7 443.9 444.3 446.6 448.3 448.5 448.7 451.1 458.7 466.3 470.3 473.9 479.9 483.9 489.1 492.9 499.3 505.4 510.6 513.7 517.4 520.2 526.1 533.1 537.1 542.2 545.3 551.5 558.2 567.8 579.7 585 585.1 587.8 586.9 591.7 588.8 583.5 582.9 568.3 561.3 549.6 536.4 520.6 512.2 504.5 492 492.8 491.5 482.8 467.3 455.5 446.5 439.8 430.9 424.1 418.9 409.1 408.6 408.4 407.6 403.6 403.9 402.3 399.5 396.1 389.6 382.6 375.9 369.8 366 361.3 358.8 355.2 351.8 350.9 351.5 353.8 355.1 355.8 357.9 361.1 364.9 368.7 372.3 379.3 384.1 388.5 393 397.4 401.9 404.9 407.6 410.6 414 416.2 418.2 419.9 420.3 420.5 420.7
483.4 492.3 501.8 511.9 518.7 527.6 536 544.9 548.2 547.2 543.6 542.8 540.4 540.6 539.5 536.5 528.6 521.2 512 500.2 485.7 475.1 469.4 468.4 470.2 471.9 472 475.5 482.3 482.7 480.3 469.2 467.6 460.5 455.2 451.9 450.2 446 441.8 435 427.7 416.9 420.3 423.5 427.8 430.7 435.7 442.4 451 456.3 462 467.4 472.8 481.3 485.9 489.9 492 494.6 498.4 501.9 503.3 503 498.3 495 492.8 489.2 485.3 477.6 474.1 468.9 461.6 451.7 448.9 443.5 438.1 421.1 432.6 435 435.4 435 439.4 445.9 453.6 457.2 458.8 461 464.4 469.2 473.3 477.4 480 481.5 483.7 488.1 491.3 492.5 490.7 483.3 473.3 456 450.1 448.4 448.1 449.9 450.9 450.2 450.3 458.3 470.5 471 475.8 481.7 489 491.3 496.1 501.2 507.2 512.1 514.2 516.9 520.7 530.7 534.2 538.4 541.3 545.9 548.4 557.1 567.6 575.6 582.9 582.5 584.3 581 583.6 588 584.7 577.4 569.1 561.8 559.1 558.4 529.1 514.7 513 496.2 497.5 498.2 490.9 478.1 463.9 451 440.7 431.6 424.2 416.7 407.8 403.7 402 400.3 399.7 401.9 400.9 398.4 394.6 389.3 382.8 377.5 372.5 363.8 359.6 358.1 352.8 352.7 349.6 350.7 349.6 350.2 350.9 353.9 357.4 361.4 364.4 368.5 372.5 377.8 383.5 388.5 393.5 397.9 401.7 404.7 408.1 411.5 414.2 415.9 417.2 418 418.9 420.3
487.8 496.1 505.3 513 518.4 526 535 548 551.3 550.3 548.3 544.3 542 540.3 539.4 530.3 522.5 515.5 504.9 493.3 482 471.8 466.4 465.3 468.5 472.3 472.9 476.7 480.9 481.4 481.5 476.9 469 462.6 459 453.2 449.4 445.4 441.7 434.9 428.3 417.9 421 426.1 429.4 431.8 435.8 441.3 449 457.2 462.6 469.3 475.8 482.1 487.6 491.8 495.1 498.3 500.9 505.9 506.6 506.7 506.1 504.4 496.4 489 482.4 477.4 471 465.4 457.3 451.7 446.2 442.4 436.1 425.8 436 437.8 436 435.9 438.6 445.8 453.5 459.6 462.5 464.8 468.2 473.2 478.2 482.3 484.5 486.2 488 490.9 494.2 495.5 493.3 486 475.2 462.8 462.2 456.6 453 449.5 450.9 451.9 454.2 459.4 470.5 473.7 479 487.6 489.3 492.4 496.4 500.4 506.5 512.2 515.5 521.4 529.5 534.3 534.7 542.5 542.8 543.3 544.9 551.4 563.2 568.5 573.8 576.9 571.1 576.7 576.9 584.7 583.1 579.1 564.8 562 566.7 562.1 540.2 519.4 509.6 501 501.9 504.9 503.5 486.2 472.7 458.5 444.6 433.4 425.3 421.1 408.4 400.2 399.2 399 400.9 401.7 400.1 396.6 392.9 388.4 383.1 381 374.9 366.3 359.5 353.6 353.3 353.5 349.6 349.2 349.3 349.2 349 350.4 353.5 357.3 360 363.3 367.5 372.2 377.9 382.9 387.9 392.9 397.9 401.8 405.3 408.7 412.1 413.6 415.5 416.7 417.5 418.7
491 497.3 506 512.7 518 523.9 534 546.5 552.9 554.3 551 545.3 540 535 529 523 516.5 509.8 498 485.5 477 470.7 464 461.9 462.8 468.1 470.2 474.6 475.2 475.3 474.4 473.5 468.8 465 460.6 456.6 447.5 442.8 440.2 433.6 427.4 419.8 426.3 426.5 430.4 432.6 436.4 441.8 448.8 457.8 465.1 470.8 476.6 483 488.3 492.5 497.3 501 506.3 511.7 515.4 515.7 516.1 511.5 505.6 496.6 484.6 476.2 470.2 464.6 456.8 450.3 445.4 441.7 438.1 428.5 436.9 438.7 438.1 436.7 439 445.3 451.9 460 463 470.5 473.5 478.1 483.4 487.3 489.1 491.6 494.1 495.2 497 498.3 495 488.3 477.2 470.6 472.5 469.2 463.8 455.6 453.6 456.4 460.3 466.3 470.4 477.2 481.8 486.1 489.7 493.6 497.6 502.7 508.5 515.4 521.7 526.9 532.7 530.9 531.9 541.6 547.7 541.2 539.9 543.3 555.4 561.7 559.4 563 566.4 568.1 575 577.5 581.7 578.6 564.3 560.8 561.8 549.6 537.7 523.1 515.2 508 508.6 510.7 511.9 491.6 481.4 467.3 449.8 436.4 426.4 419.8 409.4 401.1 398.9 399 399.1 400.7 397.2 393.6 391.4 386.2 381.9 380.4 375.7 369.5 361.7 354.6 351.4 350.5 349.4 349 349 348.5 347.8 348 350.7 353.2 356.2 359.7 363 367.6 372.3 377 381.8 386.8 392.2 397.9 401.8 405.2 408.6 411.9 414.2 415.4 416.1 417.1
492.6 499.6 506.5 512.1 516.4 521.8 529.6 544.1 552 557.1 557.6 548.6 539.4 531.2 524 517.9 510.7 502.8 491.8 484 474 468 463 460.4 460.7 464.7 468.8 472.4 472.8 472.9 470.5 468.5 466.9 465.1 461.5 455.6 452.7 445.8 438.8 434.4 421.9 431.7 430.3 430.2 432 433.4 436.5 441.7 449.6 459.4 463.6 469.5 475.6 482.4 488.7 495.1 500.5 505.1 510.7 516.2 522.3 522.5 520.8 517.1 510 501.8 491.7 479.8 471.6 464.8 457.8 449.8 442.9 439.1 436.7 430.5 438.4 439.2 439.4 438.6 440.7 445.9 452.7 460.2 466.8 474.6 477.9 482.9 487.9 491.7 495.4 497.8 500.1 501.8 501.8 501.2 497.9 491.2 487.3 481.9 480.9 478.8 475.5 466.2 458.2 462.3 468.6 472.4 475 479.4 482.8 488.5 491.6 495.8 500.1 505.6 512.4 518.5 521.4 524.9 524.6 521.3 528.7 539.5 545.6 536.8 531.6 535.1 537.6 545.4 549.3 555.4 558.9 566.5 566.7 572 580.8 576.6 565.5 559.9 546.5 544.6 539.6 523.7 515.6 513.7 511.8 509.9 508.2 492.8 485.4 473.9 455.6 441.5 430.1 418.6 410 408.8 403.1 399.7 398.3 396.7 392.6 389.6 384.7 381.2 377.3 375.4 373 368.5 362.3 355 350 349.1 349 348.7 348 347.2 346.5 346.1 348.6 350.1 352.9 356.5 358.9 362.9 367.1 370.8 375.7 381 386.4 392.3 398 401.7 405.2 408.7 410.9 413.1 414.4 415.5
492.3 499.9 505.8 510.8 516.5 521.5 529.8 541 547.5 551.7 549 544.7 539.8 532.7 524.1 514.6 509.7 498 486.3 478.1 470.6 463.4 460.5 459.3 459.8 461.6 467.2 469.2 470.7 469.4 467.5 466.6 464.6 462.5 459.2 453.7 451 445.8 439.8 423.3 434 435.5 433.6 433.4 434.3 435.6 436.7 441.2 447.8 455.9 464.2 470.3 476.4 483.6 491.9 498.4 503.8 510.7 516.7 521.8 526.3 529.9 529.8 525.2 515.7 506.8 494.6 483.3 474.1 465.2 458.6 450.7 442.1 437.2 436.4 435.3 436.8 438.4 439.6 441 442.8 448.4 455.5 461.1 467.2 476.7 481.5 486.7 493.9 498.6 503.3 506 508.5 510.2 509.5 506.7 503.4 497.6 492.6 490.6 486.2 482.7 481.6 474.9 470.3 472 474.2 476.8 479.1 480 484.2 489.2 493.3 497.3 500.6 506.3 511.2 512.2 514.1 511.5 513.8 509.4 519.3 531 536.2 526.5 524.1 523.3 526.2 535.7 542.5 549.2 555.3 562 564.1 570 576.4 573.8 564.1 552.4 543.1 540.6 534.5 522.6 518.7 519 513.2 509.8 501.8 493.7 484.9 471.9 459.2 445.8 430.2 418.8 409.4 407.4 402.9 399.5 396.7 394.2 392.5 390.2 382.9 378.8 371.5 367.4 366.9 365 361 356.4 351.9 349.2 348.7 348 346.8 345.6 344.9 344.7 346.4 346.8 350.1 352.5 353 357.5 361.3 366.9 369.2 374.4 379.8 386 392.4 396.9 400.6 404.9 407.6 409.8 412.1 413.8
491.9 497.4 502.9 510.1 515.8 521.2 528.6 535.4 541.4 541.7 538.9 539.5 538.7 530.9 524 514.8 505 492.8 481.2 472.3 465.6 460.1 458.8 459.1 459.6 460.6 463.2 466.6 468.7 467.1 465 463.6 462.8 461.8 457.2 452 449.7 441 436.6 427.2 437.9 437.2 436.3 436.7 437.3 438.6 441.8 445.3 452.3 458.7 466 471 478.5 486.4 494.6 500.5 507.1 513.9 520.3 525.6 530.5 534.4 534 528.7 521 513.7 499.9 487.1 478.5 469.9 459.5 450.9 443.4 437.3 435 433.6 436.4 438.4 440.4 443.5 446.1 452 458.3 463.7 471.1 477.9 484.4 491.7 497.4 506.1 510.8 513.8 518.9 521.6 521.3 514.1 506.8 500.9 498.6 496.4 489.5 489.1 486.5 480 479.4 479.9 478 481.6 487.3 483.2 487.8 490.9 494.5 501.7 504.4 502.7 506.3 505.3 504.8 503.8 502.4 503.9 509.3 515.5 518.6 515.3 513.5 514.5 519.2 529.4 537.9 546.9 548.8 551.8 561.5 572.1 570.4 567.2 554.9 546.6 542.7 537.6 532.2 521.9 516.4 511.4 509.5 505.6 497.8 490.6 480 467.2 454.6 443.4 434.5 425.8 415.4 409.1 400.5 398.7 396.5 394.6 392.7 390 385.3 381.3 373.4 367.6 359.4 359.9 358.3 353.7 350 348.3 348.6 347.2 346 344.7 343.3 343 342.9 344.1 346.2 347.7 348.4 351.5 358.4 363.8 364.5 367.7 373 378.6 385.7 390.8 395.2 400.9 404.2 406.5 408.9 411.2
487.8 494.5 501.3 510.2 515.9 520.9 526 529 531.6 530.9 529.6 535.3 539.9 537.7 526.4 515.9 501.2 488.5 478.1 469.9 462.7 459.7 458.7 458.4 458.8 459.8 462.7 464.4 465 464.2 463.7 461.7 460.4 459.5 454.9 448.9 445.1 438.6 434.2 426.9 438.4 439.6 440.4 441.9 442 442 445.6 449 453.5 459.4 467.1 473.8 481.2 489.5 497.7 503.5 510.1 516.6 523.3 529 534.5 535.3 534.2 530.7 524 518 503.7 492.8 481 471.1 461.2 453.3 445.9 440.1 436 434.1 436.6 439.1 443.6 446.7 450.3 456.4 461.6 467.8 473.6 479.9 487.9 495.6 501.4 510.4 520.1 523.5 523.5 525.7 528.6 524 516.4 508.2 502.7 498.1 494.7 491.2 490.6 489.1 488.2 483.9 486.6 484.2 483.8 484.7 487.4 491.7 497.3 508.7 499.8 500.4 501.6 501.6 500.6 499.3 497.3 496.3 500.3 506.1 510.4 510.2 506.7 508.5 514.6 523.2 531.1 541.9 541.9 546 552.3 556.7 556.3 557 545.8 541.8 537.9 533.4 526.1 517.2 514.8 512.2 510.4 503.7 496.5 490.3 479.8 466.6 454.3 441.3 432.2 425.8 420.7 411.9 402.8 398.7 396.8 394.9 393 390.7 387.6 383.8 379.9 373.4 365.2 360.2 356.7 351.5 348.8 348.1 348.4 346.8 344.8 343.4 341.9 340.7 340.1 341.7 343.5 344.6 345.8 348.7 355.5 359.2 359.9 362.2 366.7 372.8 378.9 384.7 388.8 395.1 400 403.2 405.3 407.2
483.7 489.6 498.6 507.8 514.1 518.4 520.2 520.3 520.3 519.9 521.5 528 536 541.2 531 516.4 501.7 486.1 477.3 468.5 461.9 460.1 459.5 457.8 457.5 458.3 460.4 461.2 461.5 460.8 459.8 458.8 457 454.9 451.1 445.9 443.1 437 427.9 431.4 438.2 439.3 440.9 444 444.9 445.8 447.1 449.5 454.6 462 468.3 476.9 483.4 489.1 497.2 504.1 511 518.1 526.2 531.9 536.7 535.8 533 528.4 524.6 518.3 505.5 495.1 483.8 474.7 463.4 454.8 449.6 444.2 437.8 434.9 438.6 441.7 445.7 449.9 454.4 459.4 464.9 471.1 476.1 483.2 489.7 500.1 509.5 519.6 528.7 524.4 529.8 530.2 530.6 528.1 523.4 517.3 511 505.9 503.9 498 494.8 496.9 495.9 491.8 485 485.9 491.2 489.1 491.8 492.7 498.1 499.6 499.1 502.3 500.6 498.9 495.8 497.1 497.5 497.5 495.3 500.4 502.7 502.8 502.1 504.9 511.5 517.3 523.8 526.4 534 534.9 535.1 535.7 540.7 542.6 540 533.8 529.7 527.3 520.4 510.9 508.6 507.8 506.7 500.5 492.2 485.4 478.5 469.6 454 438.4 424 420.5 415.2 409.1 401.8 399.8 397.7 395.6 393.5 391.4 389.3 387.2 380.9 371.1 366.9 360.5 358.8 358.3 352.7 349.4 348.1 346.1 343.6 342.3 341 341 339 340.3 341.9 342 342.4 345.3 349.2 352.1 353.4 356.7 361 366.7 372.3 377.3 383.2 389 394.5 398.8 401.8 404.3
480.8 486.7 493.7 502.3 507.4 510.7 511.7 513.7 514.6 515.5 517.7 521.1 528.7 540.1 532.4 517.7 501.2 486.8 476.2 467.5 461 460.5 460.2 458.5 456.4 457.1 458.1 458.5 458.7 458.5 456.4 454.4 453.8 451.8 445.1 442.1 439.2 432.3 432.6 436.8 439.7 439.8 443.8 445.6 446.5 447.7 449 453.8 458.2 463.9 472 478.4 485.8 491.2 497.3 504.5 511.2 518.2 525.6 533.1 537.9 538.5 535.3 531.2 526.8 514.5 505.5 495.4 487 477.4 464.7 457.8 451.4 446.4 440.5 436.6 437.9 442.1 446.4 451.9 457.7 462.8 468.2 473.2 479 485.7 491.9 500.3 512.8 525.2 533.7 538.4 540.3 538.5 535.7 531.3 526.9 522 517.8 514.4 509.5 504.3 506.1 503.3 497.2 492 494.1 499.5 501.8 492.4 494.5 497.7 497.9 498.3 499.3 499 499.4 497.6 497.5 497.5 497.5 497.5 497.5 497 499 498.6 499.2 503.4 508.7 508.5 511.9 517.2 522 524.1 524.5 525.5 531.2 534.5 532.4 528.5 525.5 523.1 516.9 509.1 505.5 503.7 502 495.2 488.2 479.9 472.7 466 454.5 439.7 425.4 417.7 411.7 408.5 400.8 400.3 397.6 395 392.5 390.8 389.7 383.6 374.5 376.1 370.4 365.9 366.7 369.8 362.4 354.1 348.9 346.1 344.7 342.5 341.1 340.4 339.5 339 339.1 339.2 339.5 341.7 343.1 347.1 350.5 353.8 357.3 361.8 366 370.7 376.9 382 387.8 393 397.2 401.4
478.6 483.8 490.2 496.3 499.8 501.7 503.3 509.6 512.3 513.5 515.5 516 521.6 530.5 526.5 515.7 499.1 485.8 475.5 467.6 460.1 459.1 458.8 459.1 456.9 455.5 456.2 456.6 456.7 455.3 453.8 453.1 452 448.1 441.6 438.6 435.7 439 438 439.7 442.4 443.7 444.7 447.2 448.1 448.9 452.2 456.7 458.9 468.7 474 478.4 484.9 491.8 499.2 505 512 517.4 524.8 531.6 539.6 545.3 540 533.2 525.8 516.5 504.6 494.4 488.1 478.6 466.3 458.6 453.7 448 444.2 440.4 437.4 441.3 447 452.5 458.9 465 470.2 475.2 480.3 487.5 493.3 502.1 513.8 526.1 534.2 543 546 545.6 543.2 541.8 536.7 528.2 527.4 520.7 518.7 511 513 511.2 507.8 503.1 504.8 503.2 498.6 494.3 496.9 499.3 497.1 497 498.1 498.1 498.3 497.5 497.5 497.5 497.5 497.5 497.4 498 499.1 498.8 497.6 501.3 503.9 504.4 508.2 511.5 514.4 517.3 517.5 518.3 523.8 528.3 527.8 525.7 523 519.9 513.6 508.2 503.8 501.5 498.8 493 488.3 481.8 475.3 463.2 449.9 442.4 428.8 421.4 419.3 413.1 404.7 399 397.1 394.8 391.2 390.5 383.5 380.3 391.7 388.4 384.9 379.7 375.2 372.8 368.9 361.5 353.9 348.8 346.3 343.2 341.5 340.3 338.8 338.3 338.7 338.9 338.7 339 339.2 343.1 347.2 350.5 352.7 355.6 359.6 365.5 369.5 375.2 381.1 386.1 391.5 395.6
477.5 482.2 486.9 490.3 493.1 495.2 498.2 503.9 510.4 511.6 511.9 512.2 514 517.6 516.8 510.4 496.7 484 474.8 468.9 460.7 459.7 458.9 457.9 457.7 456.1 454.4 454.9 454.9 452.9 451.3 449.1 448.7 443.4 438.7 437 443 443.2 441.2 443.2 444.2 445 446.1 446.7 448.6 452.3 457.6 462.6 466.8 471.6 476.3 481.1 486.2 492.4 498.5 503.9 510.1 516.4 522.8 530.9 540.5 541 537.9 534.6 527.6 518.9 508.6 496.4 489.2 477.7 466.9 457.6 455.9 450 445.9 442.6 438.9 440.2 447.7 453.2 459.9 466.6 471.8 476.9 482.2 488.5 494.4 502.2 514.5 526.8 537.6 542.3 548 549.2 547.8 546 540.8 533.9 534 534.8 532.1 524.8 521 520.3 511.5 515.1 515.7 512.7 507.6 502.8 498.3 500.6 496.8 496.6 496.5 496.9 494.4 497.5 497.5 497.5 497.5 497.5 497.3 496.9 498.8 498.7 497.1 497 499.8 503.5 509.5 509.3 511.8 511 509.4 513.8 520 522.1 522 521.4 520.1 516.1 508.7 503.1 500.2 498.8 496.4 493.7 490.7 482 472.7 461.7 454.3 446.7 434.5 429.7 425.8 418.4 411.8 404.4 400.4 397.2 395.6 400.4 401.3 400.6 402.3 399.9 398.1 390.3 381.5 378.5 371.9 365.6 360.7 353.3 348.5 345.1 342.5 339.6 338.9 338.4 338.7 339.2 338.9 338.7 338.6 340.1 342.1 344.7 347.7 349.1 352.6 358.4 362.3 365.7 372 378.7 383.4 387
476.8 479.9 483.4 486 488.3 491.5 495.6 500.7 505.7 508 509.4 510.9 506.8 505.8 504.4 499.6 490 482.3 474.2 468.6 465 461.3 459.8 457.4 457 456.3 454.6 452.9 452.4 451.9 451.4 449.9 443.5 443.3 443.3 444 444.6 444.1 444.7 447.1 446.9 446.9 448.1 450.7 455.7 462 463.9 466.7 469.1 473.7 478.9 484.4 488.3 494.1 499.2 502.5 509 515.9 522.5 530.4 537.1 539.3 536.3 534.4 523.7 516.8 507.6 495.4 489.8 479.4 469.3 460.4 456 451.3 447.3 443.3 441.9 442 445.9 453.1 460.4 468.1 473.6 478.9 484.2 489.5 495.4 503.4 514.6 526.1 539.2 541.1 548.1 549.8 549.4 546.5 539.2 538.1 537.7 538.1 538.7 538.6 533.4 528 527.8 527.1 523.2 520 509.7 507.2 504.5 499.7 496.9 495.5 495.2 496.6 497.5 497.5 497.5 497.5 497.5 497.5 496.8 496.2 497.4 498.1 496.4 496.3 501 506.2 510.3 510.5 508.8 509.5 509.4 511 514.7 515.6 516.1 515.6 512.7 509.6 501.6 499.5 499.6 499.8 496 492.5 487.5 479.8 470.6 462.3 454.4 447 438.2 433.6 430.6 422.5 416.2 409.7 404.5 400.7 397 403.1 404.9 405.2 407.6 407.3 404.4 400.3 397.4 386.3 377.3 372.8 369 360.4 352.8 347.9 344.7 340.8 339.8 339 339.4 340.8 340.3 339.5 338.8 340.1 340.2 339.8 341.7 342.4 344.5 348.4 352.9 356 361.8 369.3 375.2 379.2
477.7 479.5 481.3 484.1 486.7 489.3 493.5 498 502.5 505 505.7 511 504.2 498.8 495.4 489.3 482.8 477.7 472 466.6 464.5 461.7 459.5 457.6 457 455.5 454 452.4 452 452.5 451 449.2 449 445.8 445.2 447.9 447.6 447.2 447.6 450.7 450.2 451.6 456.7 458.1 460.7 465.9 469.3 472.8 473.5 477.4 481.1 486.8 490.4 496.4 499.4 503.7 509.5 515.4 522.3 528.8 532.7 535.9 536.4 531.7 523.7 513.8 503.8 496.4 489 479.4 471.2 466.1 459.2 452.6 448 447.1 445.3 445.6 445.5 452.7 460.5 468.6 474.4 479.7 484.7 489.9 495.5 501.8 512.5 524.6 536.5 542.7 542.7 546.2 547.4 545.3 541.6 540.8 542.6 544.4 543.6 545.8 545.7 542.9 541.2 538.3 531.9 524.7 517.9 513.8 507.4 498.5 496.8 494.2 493.2 496.4 497.5 497.5 497.5 497.5 497.5 497.5 496.4 494.6 496.8 498.6 496.9 497.2 500.8 506.3 508.1 509.2 501.4 500.8 508.1 510.3 511.2 510.3 510.5 511.5 506.2 500.3 499 499 500.2 498.4 493 490 485.7 477.7 470.5 461.9 453.7 446.4 439.1 435 431 423.9 417 413.2 409 400.2 401.7 405.7 407.4 409.1 411.1 410.7 409.8 408.6 403.9 395 385.7 383 379 368.5 359.3 353.3 348.3 341.7 339.2 339.4 341.8 343 342.7 341 339 339 339 338.4 338.7 337.5 338.5 339.4 344.2 348.4 351.1 359.4 367.1 373
477.7 479.6 481.4 483.5 486.3 488.6 490.9 494.9 499.3 502.7 500.8 500.9 500.6 494.6 490.1 482.6 476.1 472.1 469.4 465.2 462.7 460.8 459.1 457.5 456 455.1 453.8 454.5 452.8 453.6 452.7 452.5 450.1 448.9 448.4 446.8 447.9 450.8 451.3 454.5 456.7 457.5 460 462.1 466.4 470.8 472.9 475.6 479.3 481.1 483.3 487.5 493.2 497 501 505.4 510.6 514.9 523.2 529.4 530.5 530.5 530 528.5 522.6 513.2 506.1 499.8 488.9 481.3 474.9 468 461.2 455.1 450.5 451.7 449.4 448.3 447.2 451.4 459.7 467.8 473.7 479.5 484.9 489.5 494.8 499.5 507.1 518.6 526.8 534.7 540.1 540.8 542.7 541.7 542.2 543.1 550.2 553.3 561.1 563.5 572 560.6 551.8 547.7 536.7 523.6 520.4 516.7 510 501.4 497.2 493.3 495.5 497.5 497.5 497.5 497.5 497.5 497.5 497.5 497.5 497.5 497.5 494.9 494.3 495.8 498.8 501.7 500.2 499.9 495.5 499.4 506.6 510.5 510.7 505.6 506.8 507.2 504.4 498.1 495.1 499.3 500.6 497.6 492.2 490.6 486.4 477.5 470.2 461.5 453.1 445.8 438.4 435.1 432.4 426 419.1 415.8 405.1 408.2 411.9 411.2 411.9 412.6 412.9 413 412.1 410.6 404.6 398.1 395.5 392.1 388.3 374.8 367 359.9 354 346.6 343.3 346 346.3 344.9 344.7 343.3 340.9 340.1 339.2 338.5 336.3 336.7 335.9 337.6 339.8 340.8 342.3 349.5 359.4 366.2
475.7 477.6 481.2 482.5 485.5 486.3 489.6 492.8 496.8 499.5 495.4 492.9 490.3 486.6 482.6 478.1 473.9 471 465.5 465.1 463.5 461.1 460.1 458.8 458.4 457.4 456.9 457.1 454.3 454.4 455.4 454.8 451.5 450.5 446.6 446.2 447.6 450.9 452.1 455.5 459.6 461.8 462.6 468.2 472.1 473.8 477.9 481.1 481.2 485.2 488.5 492.6 496.9 499 503.8 507.8 509.7 515.3 523.5 528.8 528.2 528.7 529.2 529.4 523.6 512.2 505.6 499.2 489.9 483.8 476.2 469.4 462.5 459.6 458.3 454.2 454.3 449.9 447.1 453.1 459.2 467 472.9 478.8 483.7 488.4 493.4 498.3 503.6 513.6 521.5 527.6 533.8 537.6 538.5 539.1 540.6 543.7 552.7 563.1 573.7 583.2 582.7 577.2 567.3 547 539.5 528.4 527.1 520.3 512.2 504.3 499.6 493.5 493.7 496.9 497.5 497.5 497.5 497.5 497.5 497.5 497.5 497.5 497.5 497.5 497.5 496.1 499.7 500.7 498.2 497.9 489.9 498.8 503.2 506.2 502.5 499.3 502.3 502.1 497.2 490.7 490.4 494.4 499.1 497.2 493 491.5 488.7 481.3 472 462.2 455.2 445 438.1 434.4 431.8 427.8 423.1 417.9 408.4 414.6 419.8 418.4 416.8 416 415.6 415 413.9 410.5 408.1 405.2 403.6 398.1 392.5 388.6 375.6 369.7 363.8 359.3 350.2 352.4 352.2 348.8 347.3 347.5 345.6 343.7 341.6 340.7 338.4 336.6 335.4 337.2 338.1 338 339.3 343.5 352 358.1
478.6 477.4 481 481.3 481.7 486 488.5 490.1 490.8 491.1 489.3 486.9 485.6 482.8 478.9 474.6 471.9 468.1 467.9 465.6 464.2 462.9 463.1 462.1 460 459.5 459.6 458 456.4 457.8 456.3 455.2 452.8 449.1 447.9 447.5 448.7 452.5 454.3 456.7 463.8 464.8 469.3 475.6 474.9 478 482.1 483.1 485.9 490.8 492.9 495 499.1 501.4 504.1 508.2 509.8 514.5 521.8 525.9 523.8 523.5 525.3 520.9 515 510.6 502.2 495.8 491.7 485.2 478.9 471.8 463.6 461.4 463.9 459.3 454.5 453.7 451 453.5 458.4 466 471.4 477.3 483.8 488.5 492.7 498.2 502.4 508.1 517 521.2 525.6 530.9 533.8 536.6 540.6 544.6 557.7 568.7 576.9 589.5 591.8 588.9 577.7 557.1 542.4 534.4 529.9 524.4 518.3 508.2 501.9 499.6 495.8 496.7 497.5 497.5 497.5 497.4 497.5 497.5 497.5 497.5 494.9 497.5 497.5 493.1 494.7 496.9 497 492.1 489.8 492.7 497.5 498.7 495.8 496.5 497.4 496.5 491.6 487.6 489 491.8 494.8 497.4 493.9 492.6 490.8 482 472.1 464.3 460.1 448.4 438.9 435.6 432 427.5 423.8 412.9 413.6 421.1 421.8 422.7 420.2 419.3 417.9 417.1 415.7 415.5 414.4 414.2 411.7 405.4 399.9 398.3 386.4 380.6 374.9 372.2 362.3 360.6 361.2 355.5 350.6 352.3 350.1 348 347.9 344.9 342.7 338.7 335.6 335.6 336.3 336.1 337.2 340.9 346.1 350.2
480.4 480.9 480.3 480.3 480.3 480.3 486.3 487.9 488.6 487.5 485.7 483.5 483 480.6 476.8 473 470.6 469.1 469.7 466.7 465.6 464.8 464.7 464 462.6 463.1 462 460.7 460.5 459.8 457.2 457.3 451.2 448.8 448.5 448.7 450 454.8 456.8 458.1 463.7 467.9 473.8 475.3 478.7 479.9 483.8 486.2 490.7 495.3 495.9 498.3 502.5 505 508 509.8 512.2 516.1 518.5 520 519.6 518.7 520.2 515.6 512 505.2 500.4 497.2 493.5 487.5 480.7 474.9 465.1 463.9 467.4 464.1 457.6 453.9 452.8 454.6 458.2 464.7 471.9 476.5 481.3 488.1 493.1 495.3 501.3 504.8 511.7 517.1 521.8 526.6 530.5 534.6 540.5 549 557.6 570.4 576.9 581.6 588.3 586.6 575.1 561 548.8 547.6 546.9 539.7 527.4 515.6 509.3 508.2 505.9 499.8 496.4 496.2 499.8 497.9 498.5 497 497.5 497.5 495.9 493.2 493.2 494 493.4 496.8 491.3 489.3 489.8 491 490 490.2 490.8 491.5 491.2 487.3 482.5 484.8 490.1 493.2 493.5 491.2 490 490.2 487.4 478.4 471.2 465.7 460.2 450.9 441.5 436.9 432.4 429.3 418 421.8 429.1 428.6 427.5 425.9 423.5 421.7 420.2 418.9 419.5 420.9 421.3 420.1 418.6 410.7 405.8 404.3 398.6 393.6 387.3 378.2 371.8 369.9 365.2 360.2 358.7 357.9 356 353.2 352.1 349.1 346.2 343.3 340 335 335.7 334.7 333.7 338.2 342.6 346.2
481.3 480.3 480.3 480.3 480.3 480.3 481.9 486.9 489.9 485.5 484.1 482.7 481.5 478.4 475.1 472.6 471.4 471.3 469.9 468.2 468.1 467.3 466.5 466.1 465.9 466.9 465.6 464.4 462.6 461.8 460.6 457.3 452.5 451 449.6 450.3 455 455.5 460.9 462.1 464.8 472.3 474.8 479.1 481.8 484.4 485.7 490.6 493.1 496.3 497.4 502.5 505.1 506.6 511.4 513.4 516.2 519.8 520.2 517.9 516.5 516 515.9 514.4 508.3 502.1 499.5 496.5 492.8 488.4 482.4 477.8 469.7 470.6 469.7 468.1 459 454.8 454.8 456.5 459.6 465 469.8 476.1 481.2 485.7 491.5 493.1 499 502.9 508.6 515.1 519.8 525.1 529.7 535.6 544.8 553.8 557 568.9 575.3 582.3 585.7 582.9 575.7 561.7 558.4 564.4 563 558 539.4 529 518.2 514.6 514.1 512.9 501.7 503.4 504.1 504.5 506.1 501.5 500 499.6 497 492.7 492.9 493.8 493.2 490.4 489.1 489.7 490.4 489.7 488.9 488.6 488.4 486.9 486.8 482.1 479.7 481.9 489.3 493.2 493.2 485.7 482 478.3 471.5 471.1 467.1 463 456.4 450.8 443.7 437.2 425.4 429 433.7 434.7 436 435.6 436 431.3 429.4 426.5 426.2 422.1 423.8 426.4 425.9 426.2 423.6 417 410.6 408.1 405.5 402.1 398.8 389.4 380.7 375.3 370.5 363.2 362 364.2 362.6 358.9 356.8 352.7 350.6 348.4 343.4 338.8 335.8 334.6 333.1 336.1 338.3 342.3
481.4 483.5 482.8 480.3 480.3 480.3 481.8 483.6 486.3 487.4 484.6 483.1 482 479.9 474.4 472.7 472.7 473.2 471.6 470.9 471.4 470 471.3 470 470.1 469.8 469.6 467.5 465.6 467.7 463.6 460.9 458.9 457.2 453.4 458.1 463.5 456.7 462.2 464.5 469.2 474.3 478.2 481 483.7 485.5 488.5 492 494.3 497.2 500.6 504.9 506.5 509.5 513.1 518.1 521.8 521 520.4 519.5 516.9 513.2 512.8 510.7 505.4 500.5 497.7 495.2 492.1 487.6 483.1 478.7 474.5 473.6 468.6 464.6 462.1 459.2 456.6 458.3 459.9 463.7 470.6 474.9 480.4 484.9 489.3 492.8 496.9 501.3 506.4 512.5 518.1 523.4 531.7 539.2 545.8 554.5 558 569.7 578.1 584.9 589.3 587.6 582.6 570.5 565.2 571.7 579.7 576.9 554.2 542.4 529.9 521.1 518.9 519 511.6 509.4 510.3 512.2 511.1 507.8 505.4 503.7 499.7 493.4 498.4 501.4 501.1 495.6 490.6 492.8 494.9 489.5 488.5 488 487.2 484.5 482.8 480.3 479.9 480.3 487.3 490.1 481.3 476 473.9 470.7 466.9 465 460.1 456.5 450 447.8 435.1 432.3 430.3 437.9 442 441.4 443.9 446.3 446.8 444.7 441.1 437.7 439.3 433.4 430.7 431.7 431.8 432.1 430.2 420.5 416 413.5 410.6 407 402.4 397.6 389.7 383.1 377.7 369.3 370.9 370.5 369.4 366.2 362.2 357.5 353.5 352.6 347.9 341.8 338.9 337.3 332.3 333.6 335.5 337.5
481.5 481.8 484.7 483.4 480.5 480.3 482.6 484.8 489.6 490.3 489.4 485.3 483.6 480.4 474 474.4 476.2 476.7 476.4 475.8 474.6 474.3 475.4 475.1 474.9 473.5 470.9 469.7 471.6 469.9 464.6 464.5 461.3 460.3 459.3 463 465.7 461.6 463.5 466.6 471.3 475.2 477.5 481.9 485 486.9 491.1 494.4 496.1 498.8 503.9 507.2 509.6 515.6 517.6 521.3 523.7 524.2 525.4 521.7 518.7 515.3 509.4 506.6 502.3 499 496.1 494.5 492.1 488.8 484.1 476.8 476.8 474.2 470 467.1 463.9 463.5 461.2 460.1 458.9 463 469.2 474 478.6 483.4 486.9 490.7 496.1 500.1 504.9 510.8 515.4 524.1 531.5 540.5 547.2 556.2 562.2 570.5 578.1 584.8 589.1 589.4 587.2 580.1 581.5 583.9 589.3 591.5 571.9 560.4 545.5 536.3 530.9 528.5 520.9 518.4 517.3 516.7 515.8 513.9 509.7 507.4 502.9 503.7 504.5 504.8 504.4 498.3 493.3 496.9 498.1 493.6 489.1 488.4 486.2 483.3 480.9 480.8 480.8 480.4 482.7 479.8 477.5 474.2 473.1 468 462.1 464.4 463.6 456.3 451 443.4 439.5 436.8 439.4 445.9 449.7 447.3 452.5 454.9 456.4 454.8 451.7 446 447.5 447.6 440.6 436.8 436.8 437.3 434.6 428.8 423.2 417.6 412.9 409.2 406.7 403.4 398 392.1 381.8 383.5 378.5 377.5 375.3 373.1 369.7 364.2 358.7 353.6 349.8 344.3 340.8 338 334.1 331.8 333 334.6
481.7 482.7 487.3 487.6 482.3 482 485.6 488.1 490.5 490.6 491.1 488.8 484.2 478.5 475.6 477.8 480.3 480.8 480.8 481 480.5 480.8 478.5 478.3 478.2 477.3 475 473 471.8 469.4 466.4 465.7 466.3 466.5 463.3 464.9 465.6 464.3 464.9 469.6 473 475.4 481.1 485.3 487.1 489.1 494.5 496.7 499.2 502.3 506.5 507.6 513 517 519.5 524 524.6 525.8 526.5 523.3 522.2 518 513.8 505.9 500.7 496.9 495.3 494 489.8 487.1 484 478.6 478.6 473.9 470.4 468.4 466.4 465.4 462.5 462 459.7 461.9 466.4 471.4 476.9 480.8 484.3 489.7 496.3 500.7 506 513.1 516.1 524.7 531.7 539.8 547.5 555 561.8 568 575.5 580.6 585.2 585.6 587.2 589.7 594.3 594.4 595.9 598.6 583.6 574.4 556.7 549.2 544.1 538.9 530.9 527.4 526 523.4 521 519 516.6 514.7 513.9 509.9 507.6 507.6 502.3 498.9 497 498.6 499.9 497.4 492 489.6 486.9 485.3 482.4 479.8 478.6 480.6 478.5 474.6 473.9 471.1 469.1 462.9 458.8 456.8 454.2 450.1 451.6 448.3 445.5 443.3 446.4 451.2 453.8 454.4 461.5 464.5 465.2 464.2 461.2 454.4 453.9 451.2 448.6 445.4 442.7 442 439.8 433.5 426.1 420.4 417.2 413.9 412.8 410.5 405.2 400 389.3 392.7 388.7 385.2 381.7 379.3 376 370.9 365.3 359.3 353.2 347.6 343.3 339.8 336.8 332.7 332 332.8
488.4 486.6 487.7 484.7 484.6 484.2 486 487.3 489.9 491.8 491.4 490.4 483.3 479.7 481.8 483.2 483.6 484.3 484.2 486.5 486.4 486 483 481.9 482.4 479.7 477.3 475.2 473.6 473.4 470.4 470 473.9 466.8 467.7 466.6 468.9 468.5 470.6 473.1 475 479.7 484.9 487 489.9 495 498.3 501.1 501 505.2 507.3 510.8 516.2 519 522.8 526.4 527.4 529.5 527.9 525.8 524.3 519.9 514 505.6 500.9 496.6 493.5 490.5 488.1 486.5 481.5 478.7 476.4 473 471.1 471.7 466.6 466.7 463.8 459.9 460.9 465.5 469.2 471.8 474.8 478.4 483.2 489.1 494.9 500.1 506.2 511.6 516.7 524.8 531.5 539.2 547.6 555.8 559.9 566.9 571.6 576 579.7 583.6 587.3 592.3 591.2 598.8 600.3 595.6 589.9 583.4 562.8 557.9 551.8 546.1 538 534.5 533.9 531.7 527.7 522.6 522.3 519.2 517.1 514.3 512.1 509.6 504 500 500.2 501.3 502.2 499.7 495.5 491.5 488.4 489.1 485.4 481 478.9 476.4 473.5 472.5 469 465.7 463.5 462.4 464.5 463.6 460.4 458.3 456.4 454.3 453.4 452.4 455.1 457.6 459.4 461.1 466.9 472.9 472.9 472.5 470.3 465.5 463.5 457.3 457.9 455 451.3 447.2 444.4 437.2 430.6 425.6 423.2 421 419.8 417.6 412.2 402.4 400.7 401.3 396.5 392.5 389.1 385 382.1 377.6 372.3 366.7 360.1 352.9 347.1 342.5 339.7 336.8 332 330.6
491 490.9 491 485.8 485.5 487.3 487.2 486.6 490.6 491.1 490.7 488.6 485.4 482.8 484.9 486.7 486.7 487.3 487.8 490.2 490.3 490.5 489.1 487.6 487 483.3 479.8 479.8 478.6 475.1 474.1 472.9 471.8 470 469.4 469.9 473 469.9 473.7 477 480.7 484.4 486.4 490 494.2 496.7 498.2 500.5 503.4 506.9 509.7 515.9 518 521.2 526.4 530.2 532.8 534.2 532.9 531 525.5 520 513.2 508.4 503.4 498.2 494.6 491.6 489.5 486.6 482.6 479.4 475.7 474.5 473.6 471.6 468.3 465.7 463 462 462.8 467.2 472.5 474 475.9 476.7 482.3 488.7 493.8 499 502.8 510.8 517.7 524.4 531.2 537.2 543.9 551.9 558.4 566.8 573.2 579.2 582.9 587.4 590.8 591.7 598.9 592.9 602.4 597.1 591 580.1 567.5 565.3 559.3 552.7 545.1 541.6 540.7 537.8 534.4 529.6 527.8 526.5 524 519 513.2 510 506.7 503.6 502.7 502 501.8 499.6 497.7 493.7 490 489 488.5 485.4 483 480 477.5 476.5 475.7 473.8 473.5 473.6 472.3 469.9 468.3 462.2 465.4 460.1 461 460.1 462.3 465.5 467.5 469.3 470.5 476.1 479.8 479.6 479.6 481.2 476.7 470.6 469.4 468 456.8 453.4 451.7 446.5 439 434.6 430.9 425.5 424.3 423 417.4 409 410.7 408.7 405.6 399.8 396.3 391.9 387.1 383.5 378.3 372.3 366.6 360 353.9 346.5 341.7 339 336.3 331.8
494.5 494.4 495.1 487.5 487.1 492.1 492.4 491.2 491.4 492.3 491.7 489.1 487.2 482.6 487 488.3 488.8 490.5 492.3 493.1 494.2 494.9 494 492.5 493.1 490.2 488 483.3 482.9 477.9 479.1 472.8 472.9 475.1 475.5 473.8 471.9 470.9 476.4 479.1 484.5 487.3 490.1 493.5 495.6 498.1 499.4 501.9 507.2 509.4 513.8 517.5 521.9 525.9 531.4 536.5 538.9 538.9 537.5 533.3 528.6 521.1 514.6 509.8 505.3 501.1 496.9 492.7 489.8 487.1 481.8 480 478.9 479.7 477.9 474.1 475.9 473.4 469.1 463.7 466.2 467.8 473.1 476.4 474.8 475.3 480.5 486.9 493.9 496.6 501.7 511.5 518.6 523.6 529.1 535.9 543.9 551.9 557.8 569.2 578.3 584.4 587.4 592.2 597 599.8 600.2 600.4 599 594.2 586.9 580.9 572.3 569.4 565.6 560.1 553.9 548.6 546.4 543.3 540.1 535.5 532.3 533.5 529 522.5 512.6 512.6 512.4 508.1 505.6 506.1 503.6 500.5 498.2 495.9 490.5 489.3 489.4 490.3 487.1 482.6 482 482.5 479.9 480.7 479.1 479 478.1 473.6 470 470.5 468.3 467.4 468.3 467.4 469.9 473.1 476.1 477.7 479.4 479.4 482.4 488.3 491.4 494.1 490.2 483.9 478.5 472.4 466.1 465.2 462.3 454.9 446.8 446 441.3 431.7 428.8 426.9 420.5 418.5 419.2 417.5 412.7 408.7 403.7 398.7 393.8 388.2 384.2 378.9 373.4 366.9 360.4 353.8 346.1 340.4 336.9 334.1
501.2 499.6 498.9 493.4 495.3 495.4 494.9 492.5 491.6 491.8 491.1 490.1 486.1 486.1 488.8 490.3 491.2 493.6 494.7 495.1 496.2 498.7 497.4 495.5 493.6 491.1 489.2 490 484.8 481.6 481 478 479.9 477.7 481.2 477.1 471.4 471.8 474.7 483.3 485.1 485.3 490.8 495.1 499.4 501.2 503.6 503.9 506.2 509.6 516.5 519 526.6 530.1 536.5 542.7 544.9 544.5 540.2 535.4 530.6 523 516.5 511.5 505.6 501.6 497.7 494.2 491.5 486.1 485.4 483.9 482.9 482.8 482.9 477.6 479.2 479.2 469 468.8 470.5 469.8 473.5 476.5 477.2 477.6 479.1 484.9 488.6 494.8 500.7 509 516.5 522.6 528.7 536.3 544.5 553.3 558.2 569 579.2 586.5 589 591.9 592.9 598 601.4 599.5 595 590.2 583.6 580.1 576 573.5 568.9 562.9 558.4 555.4 551.5 547.2 541.8 539.3 536.7 537.9 534 529.4 521.8 519.2 518.7 513.2 509.9 510.7 508.4 504.5 500.4 500 493.7 491.7 491.7 491.5 490.2 489.4 489.1 486 483.7 482.7 482 480.9 480 479.6 479.3 479.8 472.8 476.3 476.5 475.9 476.7 479.2 482.5 485.3 488.6 488.8 488.7 495.3 500 502.4 501.8 496.5 490.2 483.1 478.4 474.2 468.1 460 458.4 454.9 450.6 444.6 436.5 431.7 426 425.4 422.9 421.9 421.3 417.9 409.2 402.9 399.1 393.3 389.2 384.4 377.4 372.6 365.6 359 353.3 344.9 339 335.8
506.2 506.7 499.2 495.9 498.8 498.1 496.9 494.9 492.4 493.9 494.9 494.5 486.3 490.2 492.2 494 494 495.3 496.9 498 498.8 498.4 497.4 495.7 494.4 493.7 495 492.2 488.2 486.8 480.1 479.6 480.5 483.5 483.5 480.6 473.2 473.5 478.4 481.9 481.1 487.4 493.7 497.9 494.5 499.8 502.3 504.1 506.1 515.4 519.1 524 529.1 534.2 540 545.7 549.4 548.4 545.1 539.4 533.1 526.1 518.7 513.3 507.3 502.8 499.7 494.9 492.2 489.3 488.9 491.6 490.7 486.8 486.8 482.8 485 482.4 474.3 472.4 473.4 472 471.7 472 472.9 476 479.1 482.3 485.1 495.4 500.6 508.1 514.1 522.7 530.7 537 544.1 552 558.3 566.8 575.2 578 589.4 592.5 594.4 599.5 604.6 600.8 600.3 592.8 589.1 585.3 581.6 581.3 575.9 571 568.3 562.8 557.3 550.8 543.3 541.6 543.9 543.6 539.5 536.7 532.6 526.4 522.8 519.6 512.3 512.8 513.7 511.2 506.9 502.3 498.4 495.2 493.6 493 492.4 491.7 490.6 489.2 487.6 486.4 485.4 483.5 483.8 486 481.7 480 479.9 481.9 482.2 483.4 485 485.8 487.1 491.9 496.2 497.9 495 499.9 504.9 507.4 508.5 504 500.4 493.8 486.6 480.3 472.6 467.4 468.5 462.9 458 457.3 443.3 437.5 436 433.2 429.2 427.5 427.4 422.5 413.5 411.5 405.7 398.9 391.5 386.7 382.7 377.9 370.5 363.3 357.5 351.6 342.9 338.3
509.5 510.8 502.6 501 501 499.8 498.3 496.2 494.4 494.3 494.1 493.4 493.2 492.8 494.7 495.9 498.8 499.1 500.6 503 502.4 502 501 501.1 499.1 500.2 497.4 494.6 493 490.1 481.8 480.7 482.4 480.8 479.9 477.3 472.4 475.4 477.1 477.1 484.9 489.9 493.5 493 495 500.5 503.9 509.2 511.3 516 521.1 526.2 531 536.5 543 548.6 553.1 554 550.7 543.6 536.6 529.8 523 515.1 511.4 507 502.2 499.9 496.6 494.7 496.2 497.8 498 495.8 488.8 488.5 490.1 484.8 474.2 472.2 473.6 472.5 472.1 472.4 475.3 476 477.6 477.9 485.3 491 502.3 503.4 514.1 520.2 531.1 537.9 542.8 550 556.8 564.5 569.3 573.4 590.6 594.4 597.6 602.9 606.6 606.9 601.4 597.1 594.4 593.4 594.7 594.2 593.1 583.2 579.8 576.4 575.6 571.8 562.3 550.5 550.7 551.8 548.9 546.4 538.7 531.1 528.6 526 518.9 515.9 516.6 515.7 512.8 504.2 500 497.5 497.4 496.7 496 493.9 492.5 490.6 490.1 489.8 490.2 488.6 490.1 490 486.1 485.4 486.5 487.2 488 489.6 491.8 492.3 494 497.7 501.6 503.9 502.7 504.4 511.3 514.4 516.8 512.5 506.5 501.7 494.7 486.7 478.2 474.2 473.1 471.2 466.8 456.3 450.9 451.3 446.4 444.1 434.9 432.1 432 428.2 414.1 406.9 407.6 399.5 399.3 392.2 384.5 376 373.9 369.5 362.9 356.3 348.4 342
508.5 505 502.8 502.7 503.1 501.3 498.9 496.3 495.6 496.1 496.4 495.9 497.3 496 500.1 503 503.3 504.3 505.6 505.7 505.7 505.6 505.5 505.4 504.6 502.5 499.3 498.2 497 493.5 488.9 484.5 486.4 481.8 477.9 473.8 472.5 477.3 475 476.8 483.8 485.7 489.1 492.4 496.8 500.9 506.9 508.8 514.5 520.9 525.6 531 535.4 541.2 549.1 555.2 557.3 558.6 558.7 552.4 541.7 532.3 526.4 518.9 515.9 510.8 507.9 506 506.6 504.8 503.7 503.7 501.8 500.5 491 494.8 494.2 485.3 475.9 476.6 474.6 479.1 480.6 476.9 476.6 478.7 480.7 479.3 484.8 490 497.8 505.9 514.4 519.1 525.1 533.3 540.5 546.5 555 560.8 568.8 571 587.8 593.3 600.2 602.3 602.2 601.5 600.7 597.5 597.3 599.4 605.2 604.4 602.3 597.6 591 591.6 592.4 589.1 576 567.2 561.6 561.1 556.7 553.1 539.1 534.9 534.5 530.8 526.3 521.4 521.3 521.9 519.6 514.7 506.5 502.3 499.1 500.3 498 496.4 495.7 494.1 494 493.7 490.8 490.4 492.3 493.2 490.7 491.8 492 492.3 493.2 493.9 496.7 498.4 501.1 505 508.5 509.9 508.3 510.9 516.5 518.7 517.4 516.7 512.7 506.9 500.8 495.9 491.8 482.1 476.4 472.8 467.4 465.9 462.5 462.9 463.9 454.2 441.8 439.1 437.1 434 429.1 424 418 409.9 398.8 393.9 389.4 385.5 375.9 371.3 365.7 358.8 353.7 346.3
508.2 504.7 506.4 507.3 505.4 502.9 500 497.6 497.8 496.4 497 497.7 497.8 498.8 504.7 506.8 508 509.8 510.6 511.1 511.2 511.8 512.6 511 509.1 506.8 504.3 502.3 498.9 494.5 488.5 485.5 484.8 481.9 477.6 476.6 476.5 475.4 475.2 477.6 482.2 486.6 488.5 491.6 496.5 499.5 506.2 512.9 519.9 523.8 527.7 534.1 540.6 546.2 554.6 561.2 563.6 562.8 561.9 556.5 546.6 537.9 530.7 522.9 520.4 514.5 513.7 514 515.1 512.7 511.3 509.9 509.3 503.7 496.4 499 494.8 488.1 483 485.9 488 487.2 485.2 480 478.8 479.4 479.4 481.5 484.3 489.2 497.4 506.4 514.5 516.9 523.6 531.3 537.1 543.7 552.5 559.2 561.4 572.6 581.8 588.9 597 601.3 599.3 601.1 598.4 599.2 601.4 608.1 610.5 610.9 606.9 600.7 595.6 603.9 595.1 589.1 586.3 577.7 572.7 567.2 562.7 554.4 541.7 540.8 540.3 538.8 532.5 529.5 528.9 529.6 524.4 519.1 512.6 508.3 502.3 500.7 500.6 500.1 499.8 499.8 499.1 497.5 494.7 496.2 498.2 499.9 497.4 497.1 498 498.5 498.7 499.8 502.5 506.1 510.5 513.4 513.3 513.6 515.9 514.5 519.6 522.6 522.7 520.8 520.1 512.7 507.6 505.4 502.5 496.8 485.2 480.3 478.9 475.7 470.7 472.7 475.4 469.5 454.2 449.4 444.9 439.6 434.1 428.5 421.4 416.2 407.4 402.9 395.4 387.3 384.8 378.6 372.6 364.8 354.7 349.7
506.9 506.5 509.6 508.4 506.6 504.2 501.5 500.1 500.8 498 496.8 499.2 501.8 502.7 504.9 510.3 514.1 515.7 513.2 512.3 514.4 515.2 516.9 519.4 519.7 517.3 510.2 504.8 500 495.6 491.9 487.7 487.4 484 480.2 479.4 478.8 477.3 476.9 483.1 487.5 487.8 488.4 491.9 497.5 500.2 510.1 514.3 520.6 526.1 529.5 535.9 542.9 551.6 559.2 565.6 569 571.1 568.3 560.9 552.6 542.7 534.5 530.9 525.3 521.9 521.1 522.3 522.1 519.5 518.5 518 515.1 509.8 503.6 499.2 494.2 494.7 490.4 491.1 490.8 488.6 485.9 485.3 481.2 479.8 480.1 482.6 487.5 491.4 497.4 506.6 514.2 516.3 523.8 530.8 536.5 542.4 549.8 556.2 560.9 567.8 575.6 583.4 590.1 595.2 593.7 597.8 598.5 600 605.5 611.9 619.6 612.5 607.1 600.4 597.4 601.3 595.3 591.9 589.4 581.8 575.8 572.5 567.8 556.3 548.6 545 543 543.7 541.2 537.1 536.4 534.9 531.2 526.3 522.6 516.2 512.1 508.4 507.6 508.8 506.6 506.6 507.3 504.8 500.2 505.9 507.6 504.4 504.3 505.5 505.8 507 507.4 508.4 511.7 513.9 516.4 517.4 517 521.5 524 521.4 523.8 528.3 529.6 528.7 525.1 519.7 518.7 514.6 511 505.8 497.3 489.6 486.5 484.8 478.6 481.9 481.7 477.8 470.4 461.5 454.9 448.7 442.5 434.9 421.7 413.1 409.5 402.1 396.6 386 385 380.6 373.2 369.4 362.6 354.7
508.3 508.1 511.7 510.7 506.9 505.5 503.2 503 502.1 500.8 499.9 505.6 505.8 506.5 508.4 509.7 513.8 515.2 515.1 514.4 515.1 517.4 519.8 524.6 525.3 521.4 512.3 509.8 503.3 496.3 494.3 490.7 492.3 482.9 482.2 481.8 478.7 477.4 483.5 486.3 484.7 486.7 490.1 494.6 497.4 503.7 510.8 515.7 522.9 525.7 532.7 537.8 544.5 553.7 561.9 568 572.4 575.7 577.3 571.8 562.4 548.3 539.8 535.8 533.8 531.9 529.8 530.3 529.5 526.9 525.5 525.4 522.7 516.2 511.6 506.5 506.2 498.8 499.2 498.1 496.1 489.3 491.6 488.7 482.5 484 483.3 482.7 488.9 492.7 499 505.4 513.3 516.8 523.5 530.2 536.1 542 549.6 556.1 559.7 561 571.2 577.1 580.3 585.7 588.3 592.9 594 602 610.5 619.8 615.9 609.8 604.1 599.3 597.3 597.6 598.8 601.9 592.7 585.3 577.1 577.3 576.2 565 556.4 552 546.9 544.9 543.8 543.9 544.9 542.2 538.8 537.9 534.1 529.8 525.1 520.2 515.3 515.1 514.4 514.6 514.6 511 508.2 512.6 509.2 508 513.5 510.9 511.3 512.2 514.6 517.7 519.7 520 521.8 524.8 527.4 529.9 530.4 526.7 527.2 530.6 534.2 535.5 538.2 532.5 527.9 524 518.6 511.2 503.1 492.3 496.9 494.4 488 489.2 492.3 485.6 482.1 476.8 468.4 458.6 454.9 449.5 435.2 421.8 410.5 411.8 404.3 392.6 381 377.6 379.8 372.6 364.9 358.8
514.3 511.8 511.9 513.7 509.7 507.4 506.1 504.8 503.2 501.2 505.6 505.2 506.1 506.6 509.4 511.3 515.7 517.1 517 516.1 517.3 519.1 520.9 524 522.8 515.8 512.4 511.6 503.3 496.8 495 493.7 490.3 485.2 483.7 486 486.7 483.8 485.4 483.8 487.6 490.7 493 495.3 499 504.3 510.7 517.3 521.1 525.2 533 539.3 546.5 554.6 562.2 568.9 575.6 580.9 581.8 581.2 574.8 561.3 545.7 540.6 539.4 538.8 536.6 540.8 539.7 535.2 532.9 530.5 527.8 522.3 518.2 513.5 514.9 508.3 508.4 506.5 498.3 495.1 495.9 488.6 489.3 489.4 485.7 485.5 489 495.4 500.5 504.5 512.1 518.4 523.9 528.9 534.1 541.2 547.1 553.2 557 559.8 565.3 569.7 574.1 582.7 584.3 588.6 591.1 604.9 613.3 617.4 612 601.8 599 598 597.1 599.7 603.6 601.1 593.1 584.6 584.5 585.3 580.7 574.4 570 560.7 556.6 551.3 550.9 555 556 554.5 551.5 550.2 547.9 543 537.9 533.8 529.9 524.7 524.1 524.2 522.6 519 518.7 519.1 515.4 516.5 523.1 520.3 518 517.4 522.2 524.7 527.1 526.6 528.4 531.6 534.2 536 537.6 534.3 534.3 537 540.1 542.6 551 550.7 540.6 527.6 524.2 517.3 509.8 502.2 503.7 501.9 497.8 501 502.6 496.4 492.5 484 480.7 464.6 460 457.2 445.7 432.1 420.8 411.3 402.5 394.1 392.9 382.2 373.2 373.8 368.7 359.4
514 517.8 517 519 513.8 508.6 505.9 504.3 503.4 507.9 508 510.3 512.3 512.5 514.8 517.8 518.7 521.6 522 524.7 527.5 525.6 521.5 522.6 526.4 515.6 513.4 507 500.9 497.8 496.7 496.3 491 487.1 486.9 484.8 484.4 482.7 483.9 488.7 495.2 497.3 497.8 498.6 503.9 508.9 514 517.9 521.8 527.6 535.2 539.8 547 554 560.9 569.8 577.4 582.9 589 591.8 589.1 574.1 558.4 548.2 547.3 545 543.4 548 547.5 545.5 541.7 540.8 536.9 530.1 525.4 517.8 514.5 514.6 511.1 510.4 505.9 504.8 495.4 494.7 497.5 490.2 488.8 489.2 491.1 495.6 501.9 507.1 515.5 521.8 525.5 528.9 533.5 538.6 544 549.4 553.6 557.7 563.9 568.5 572.8 576.6 579.6 581.8 586.6 600.5 612.6 614.3 610.1 601.5 597.5 595.5 595.5 595.9 601.7 594.2 592.7 588.2 589.4 589.2 583.1 580.3 574.9 571.4 567 564 562.8 564.3 566 566.6 564 560.8 559.3 555.2 549.7 546.4 544 540.8 537.7 532.4 531.8 527.6 524.1 525.7 527 529.1 531.5 531.1 527.2 525.8 530.3 533.2 533.1 533.2 537.8 539 541.5 541.9 540.9 538.5 539.4 542.8 546.2 551.4 558.5 558.8 551.7 541.2 527.5 522.3 518.8 510.8 508.2 508.7 506.8 512.8 510.4 506.8 498.5 494.2 487.8 477.5 465.8 461.1 453.3 444.3 425.9 409.9 410.4 401.9 391.7 384.8 378 370.2 364.2 360.6
514.2 514.7 515.7 515.5 514.1 512.2 508.3 507.9 511 513.2 514.6 517.4 516.6 517.9 520.3 521.1 522.6 524.7 528.6 532.3 533.1 534 528 522.4 520.8 516.9 513.8 509.1 508.7 500.3 495.6 492.6 489.8 487.4 484.8 483.8 483.3 483 486.2 495.5 498.7 499.5 499.6 503.2 506.9 511.4 515.1 516.9 523 529 533.7 539.3 547.3 553 560.1 569.5 577.7 585.3 592.8 596.1 593.3 585.8 571.7 559.5 553 552.3 552.7 556.4 556 554 551.4 549.1 544.9 538.2 535 526.2 523.2 517 515.7 516 507.2 505.9 498.8 497.8 496 495.6 495.1 494.5 493.4 495.1 503.1 510.5 517.2 523.4 527.8 531.4 537.6 542.3 544.6 549.1 554.4 559 563.3 567.6 571.7 575.2 579.3 581.2 586.4 599.9 606.5 610.7 604.4 598.1 594.7 601.6 594.1 590.9 586.4 585.1 588.2 586.8 587.8 586.1 585.6 582.5 583.7 584.8 585.7 582.7 576.5 574.4 580.3 579.1 574 571.5 569.3 566.2 564.1 563 557.9 554.2 549.6 546.4 541.4 538.9 537 534.8 536.3 539.6 539.9 538 537.5 536.3 538.1 542.3 538.6 541.9 546.6 549 549 547.9 548.2 548.5 544.8 546.6 551.9 557.7 561.4 562.5 557.7 548.2 535.9 525.8 523.8 517.3 514 513.4 515.1 523.7 524.3 522.8 513.2 502.7 499.1 491.5 478.3 463.6 457.1 451.5 437.5 413.9 405.2 403.6 393.4 386.5 378.8 372.6 367.2 364.7
514.8 515.8 513.9 513 512.7 509 514.4 513.3 513.7 517 519.2 518.7 524.9 526.6 527.5 527.5 528.3 531 534 536.2 534.5 532.6 530.5 524.2 521.1 517.5 514.4 510.4 502 495.5 492.8 493.8 494.5 489.2 487.3 485.3 484.3 485 485.8 494.6 498.9 499.7 501.8 508.1 507.9 509.6 513.9 519.7 525.7 531 535.1 540.8 547.3 553.4 561 570.6 580.6 589.2 596.4 599.6 600 598.4 580.5 567.8 561.7 559.2 562.3 564.5 566.6 567 564.2 559.6 552.9 550 547.2 536.8 529.7 523.4 520.6 518 515.1 504.2 505.3 500.7 503.7 501.4 500.8 501.4 498.7 501.4 505.1 510.8 517.7 523.8 529.4 535.8 541 544.2 546.8 548.9 553.5 557.9 562.1 567.3 570.9 578.4 580.7 581.9 589 597.1 600.4 603.7 597.5 592.8 591.3 595.5 591.7 584.7 578.6 577.7 577.2 575.4 578.4 584.5 584.4 588.1 590.5 594 595.5 594 586.6 584.6 589.4 586 581.6 580.4 579.4 575.3 575.3 575 570.7 565.3 560 556.3 551.7 549.1 545.1 545.9 544.7 548.7 549.3 546.5 544.8 544.9 548.5 545.2 545.5 552.7 554.1 557 557.4 556.2 557.5 558.1 554.1 551.6 555.2 561.8 564.5 563.5 556.8 550.3 540.2 533.3 528.1 523.9 523.7 522 524.4 531.6 535.1 533.5 524.7 515 506.6 498.7 487 473.6 463.7 461.3 439.3 423.7 408.3 400.7 395.9 391.3 383.5 376.8 371.8 369.1
525.1 520.5 515.7 514 511.5 510.7 516.1 515 518 519.2 523.9 525.9 527.9 528.5 531.2 534 536.4 538.4 540.8 542.9 538.4 535.7 534.1 527.2 522.6 517.4 513 506.5 503.4 501.6 503.2 496.4 494.4 493.5 489.8 487.8 489 491.9 493.8 500.6 499.9 502.6 506.5 508.3 509.9 512.3 514.2 520.9 527.1 532.4 535.8 540.5 547.8 554.5 562 571.6 582.6 593.7 603 605 604.5 601.3 591.1 575.2 572 572.1 571.6 573 577.8 578 577.5 572.7 569.2 563.7 557.1 549 537.6 526.8 524.1 524.1 510.9 511 510.3 504.1 506.8 505.6 508.2 507.2 508.1 508.7 507.9 512.3 518.7 525.2 532.2 539.3 542.9 545.3 546.8 549.4 552.9 556.8 561 565.3 571 579.7 580.4 581.5 588.2 593.3 594.6 594.4 593.1 588.7 585.4 584.7 583.6 574.7 573.3 569.3 569.1 569 575.3 582.2 585.3 592.6 598.6 597.3 596.8 592.7 590 590.1 591.4 585.5 586.3 586.7 584 585.4 584.3 585.7 586.2 582.2 570.1 564.5 560.6 557.1 554 552.4 554 556.6 557.6 553.8 553 554.6 554.9 554.8 556.2 560.1 562.9 565.5 566.5 565.6 568.2 568.7 564.8 556.5 559.5 566.6 571.2 568 559.8 548.9 541.7 535 527.9 530.9 531.5 535.3 534.9 540.2 544.9 540.7 538.7 524.8 516.7 502.3 489.5 484.6 474.3 462.8 447.9 435.6 414.1 403 400.8 392.4 386.2 379.6 373.7 368.9
535.8 525.7 516.9 512 512.1 512.7 517.9 522.1 521.8 523.6 526.7 529.8 528.9 533.5 536.3 538.8 540.8 541.5 545 549.3 550.1 545.3 540.3 532.8 527 520.4 514.1 512.4 510 509.3 507.3 502.8 502.5 497 491.5 493 499.3 499.1 499.6 501.2 502.7 503.4 506.6 509.2 512.8 517.2 519 524.4 529.3 533.5 536.7 542.6 549.7 556.3 564.6 575.7 586.9 600.7 608.3 611 611.5 605.8 593.8 584.2 582 580.7 583.1 581.9 587.9 585.8 586.3 584.1 579.4 573.9 567.6 559.1 547.3 537.5 528.5 522.8 515.3 517.5 515 507.3 509 509.9 511.7 512.7 515.4 515.9 514.1 518.5 521.8 526.2 534.1 540.6 543.8 546.1 548.6 550.1 552.4 556.8 561.9 567 571.4 577.4 580 580.9 587.6 590.3 593.5 589 587.7 582.4 578.7 574.4 570.2 565.9 564.4 565.9 566.8 568.5 575.6 583.7 590.7 595.7 599.1 599.6 595.9 593.8 589.4 590.6 587.5 586.1 592.1 597.1 601 600 597.2 596.9 598.4 594.6 583.4 574.5 569.3 568.4 564.8 560.6 562 562.3 565.2 564.3 561.7 562.1 564.2 563.1 566.1 567.2 570.6 572.4 575.1 577.3 575.6 576.2 575.9 569.1 564.3 570.9 576.5 571 556.7 545.3 540.8 534.5 536.8 536.5 540.7 542.1 542.8 548.5 553.3 556.1 547.8 530.1 524.2 504.5 492.8 492.6 473.9 466.7 450.5 437.6 419.6 408.3 398.3 392.2 386.8 384.6 376.8 372
533.9 527.7 526.4 520.2 516.8 518.6 524 525 524.1 525.3 528.6 530.1 530.2 533.7 536.6 540.2 545.8 548.8 553.1 554.3 553 551.5 546 538.7 532 525.8 517 515.8 511.9 510.9 508.9 506.5 499.6 500 497.6 504.3 501.6 500.2 504.2 505.4 505.2 505.6 509.2 510.6 513.9 519.3 522.4 527.6 531.2 534.1 539.3 545.2 549.7 558.4 568 579.7 592.8 604.4 612 616.5 615.7 612 603.7 587.9 588.7 590 588.9 591 593.5 595 592.1 589.8 587.3 581 575.4 568.7 556.7 542.4 538.3 525.6 521.7 523.9 517.1 509.3 511.5 512.4 515 518.3 520.1 521 521.1 520.9 524.2 528.9 534.4 541.6 545.6 548.8 551.1 552.2 553.5 556.8 562.3 570.5 575.3 578.9 579.3 580 587.5 590.8 589.2 585.4 582.4 574.3 569.9 567.7 561.2 554.3 557.4 564.2 565.8 568.5 575.2 585.6 592.7 595.3 596.2 596.2 595.8 592.9 589.9 589.1 589.3 603.4 612.4 613.3 613.3 613.3 609.1 608.4 608.5 603 589.4 582.8 578 577.6 576.2 570.4 569.4 571.7 575.1 573 569.1 570.5 570.9 571.7 572.6 574.6 577.9 581.8 588.5 588.9 586.8 587.6 587.7 585.7 572.8 573.6 577.1 569.9 554 546.1 540.4 539.5 541.4 541.6 544.3 545.7 548.9 552.8 561 558.2 542.9 535.6 523.7 511.3 494.1 499.6 487.6 467.8 449.6 437.3 421.1 405.7 394.1 392.3 391.8 387.6 382.9 372.5
529.3 528.9 526.9 523.6 526 522.3 523.8 525.4 529.2 529.7 530.3 530.4 530.6 534.8 538.3 543.6 550.1 556.3 556 556.4 553.6 555.7 550.2 543.3 535.9 530.1 524.5 518.4 515.2 513.6 512.5 504.9 506 507 508.2 506 502.4 507.2 510 510.3 512.5 509.7 510.3 511.8 514.9 521.1 523.3 527.4 531.5 535.1 541.8 546.4 552.1 560.5 572.4 583.4 594.8 605.5 614.3 621.8 624.1 618.8 605.2 595 590.6 593.5 594 596.1 596.8 598.2 602 596.1 590.5 586.7 583.4 572.1 564.8 555.3 542.7 526.4 528.3 526.3 521.3 511.7 512.1 515.1 519.2 522 523.1 523.6 524 525.2 526.7 530.3 534.8 540.1 545 548.9 551.4 552.8 554.2 556.4 562.7 569.4 574.9 577 578 580.7 585 588.4 586.5 586.4 581.8 573 568.1 561.5 551.6 550.2 553.4 560 566.6 570.8 577.3 584.4 590 594.9 595 595.5 594.9 591.4 590.2 591.2 603.6 611.7 618.5 621.2 622.1 621.7 619.7 615.9 614.5 606 595.4 588.5 584.2 585.3 583.7 579.5 577 583.2 583.1 581.7 578 579.1 578.9 579.1 579.7 583.1 587 591.9 595.3 596.7 595.8 594.2 598.8 597.4 584.7 577.2 578.5 565.2 555.1 549.3 550.2 552.7 558.8 557 552.7 551.7 554.5 561.1 563.8 560.1 548.6 541.6 526 506.7 496.5 499.3 490.8 469.1 446.3 433.2 420 408.5 394.9 389.4 388.1 391.2 383.6 375.4
530.5 533.7 533 528.9 526 527.7 524.5 527.4 531.6 533.5 531.2 530.9 532.7 535.4 540.5 544.8 551.1 555.3 556.1 556.6 557 560.3 559.5 548.8 543.5 537.2 533 525.7 518.5 518.9 511.7 512.3 515.4 513 511.9 509.5 513.1 514.4 513.5 513 514 515.5 518.4 516.7 517 523.9 527.2 529.6 533.6 539.1 545.7 550.5 555.7 564.5 573.4 584 595.8 606.8 617.8 622.5 623.4 618.9 608.1 598.5 593.3 592.1 596.1 595.5 597.3 603.7 605 606.7 601.3 594.4 586.1 571.7 564.4 563.4 542.8 534.7 533.8 530 518.7 514.1 512.7 515.2 523.5 523.4 523.1 524.6 525.4 526.9 529.6 531.3 533.4 538.4 544.5 548.6 550.3 551.9 553.4 557.9 562.9 567.6 572.8 575.3 577.1 582.5 586 586 583.6 581.4 576.9 568.4 564.4 560.4 550.3 549 552.6 560.7 566.5 570.3 573.8 580.6 587.4 591.3 593.7 594.5 592.3 591.3 595.6 599.1 615.2 623.7 626.8 626.7 627.5 626.8 624.6 621.3 615.3 608.1 600.2 595.5 595.8 592.5 592.1 588.5 585.1 591.7 590.4 586.3 585.2 587.5 586.5 588.7 588.6 591.2 595.4 599.9 602.6 604.6 602.5 603 605.3 601.8 592.4 579.1 576.9 567.2 556.6 560.7 565.1 571.4 572.9 570.5 565.9 559.1 559.5 563.8 564.9 560.8 551.7 543.7 535.9 514.4 498.4 491.5 483.1 463.8 444.7 431.2 422.2 409.9 397.8 389.1 384.4 379.6 379.3 374.3
533.1 535.5 533.5 531.2 528.9 525.9 527.5 533 535 534.8 529.6 530.6 530.9 534.9 540.2 544.3 548 551.7 555.4 560.7 564.2 565.4 566.1 554.2 549.2 543.8 535.7 531.6 523.8 516.9 517.3 519.6 519.9 520.2 519.1 517.9 518.8 519.9 518.9 520 517.6 519.7 522.8 522.9 523.4 525.4 534.1 535 537.5 543.3 549.5 553.1 559.1 567 576 585.3 596.4 609.3 617.3 620.6 622.6 621.5 611.1 599.7 594.4 592.6 594.3 595.3 597.5 601.7 608.4 610.1 614.5 612.5 598.3 577 565.9 557 546 542.8 535.4 523.1 518.3 514.3 515.3 517.8 521.3 521.5 521.5 523.6 527.1 529.2 529.8 530.5 532.8 539.2 544.6 546.1 548.7 551.1 555.3 559.7 564.2 568.1 572.2 576.2 577.5 580.3 585.9 583.5 583 576.1 569.8 567 559.9 554.3 550.6 546.5 547.5 556.5 561.8 566.5 569.4 576 582.5 589.1 593 593.2 593.2 593.8 605.7 608.4 619.4 624.8 627.8 631.3 633.3 634.1 627.8 623.9 621.4 613.5 602.7 598.2 602.9 606.3 601.1 597.4 592.2 600.4 599.8 597.1 595.8 594.7 595.3 597.2 596.5 598.9 603.9 608.3 612.2 614.8 610.3 608.3 608.7 606.6 596.7 582 574.7 565.6 569.5 580.1 583 579.1 579.5 579.5 577.1 568 565.3 564.6 566.6 562.3 556.1 549.1 539.9 530.9 501.6 493.7 488.3 471.1 449 436.8 417.9 409 402 390.5 385.5 381.1 375.7 373.2
