ncols 200
nrows 87
xllcorner 210000
yllcorner 922700
cellsize 50
98.5 98.5 98.5 98.5 98.5 98.5 102.6 100.9 98.5 98.5 98.5 104.8 111.9 106.3 102.2 99.2 99.5 107.9 122.4 128 124.3 110.1 120.2 124.4 128.1 121.6 121.4 108.8 108.2 103.8 105.2 112.1 121.8 133.4 144.2 142.5 138.3 125.8 121.2 119 114.8 106.7 102.2 98.3 91.2 93.1 87.7 76.9 76.3 79.8 79.9 77 81 78.6 62.9 62.9 73.2 75.5 76.8 85.4 85.8 79.6 76.8 62.9 62.9 62.9 62.9 62.9 80.3 96.1 95.7 88.3 87.1 86.3 79 78.1 94 85.8 87.1 87.1 98.2 103 105.8 106 98.3 100.4 102 105.2 97.7 80.6 77.6 78.1 76.1 79.7 84.2 85.9 96.2 105.9 116.9 116.4 115.9 118.3 122.9 125.5 118.4 126.3 129.2 125.9 111.4 103.6 100.5 92.3 96.3 100.8 109.8 128.9 118.6 112.5 98.7 98.7 98.7 98.7 103.8 107.7 119.7 136.1 138.1 139.4 125.9 123.3 121.4 108.3 112.4 110.8 113.2 111.4 98.9 86.9 90 98.8 95.3 94.4 98.1 109.5 114.9 123.9 127.7 127.8 130 121.9 117.6 117 118.3 121.9 118.5 113.7 112.4 113.4 112.9 120.7 128.6 135.1 132.8 132.4 126.7 125 126.6 125.3 137.9 144.6 139.8 126.6 127.2 138.4 141.4 147.6 148.8 158.7 168.6 175.6 177.7 176.3 178.8 174.4 172.9 173.1 166.1 158.4 158.1 162.3 158.3 160.4 156 152.4 148.3 143.6 146 155.5 170.3 189.2
98.7 98.5 98.5 98.5 100.7 100.2 98.5 101.3 98.5 105 111.8 117.5 115.5 109.9 103.5 106.4 100.5 100.3 107 112.6 102.7 97 102.6 110.5 112.8 106.8 97.9 95.1 96.5 105.6 107.9 114.4 124.1 139.2 142.3 133.4 127.1 120.9 116.2 106.9 101 95.6 101 97.6 84.8 78.5 76.3 76.3 79.2 83.9 86.9 84.4 82.2 79.2 63.6 62.9 62.9 71.1 82.9 85.8 84.5 78.5 73.3 72.6 62.9 62.9 62.9 66.1 86.9 91.6 91.7 86.5 87.3 85.8 80.7 82.9 84.5 98.1 90.5 90.7 96.7 105.5 111.1 105.6 96.2 96.4 102.8 98.1 87.4 76.7 74.7 72.8 73.8 80.1 84.4 89.4 107.3 113.5 113.8 111.7 111.8 113.8 117.5 115 112.8 110.5 105 96.1 89 79.3 79.1 80.2 83.7 87.5 106.4 124.5 126.2 123.4 116.6 101.6 98.7 98.7 99 113.2 120.6 126.9 136.3 134.8 126.7 118.7 120.2 112.7 94.5 108.8 110.9 94.5 73.6 94.5 102.9 113.2 111 103.5 104.2 112.9 121.4 121.5 126.4 125.1 125.7 121 124 122.3 127 125.1 123.5 117.8 108 111 109.4 108.2 111.5 120.9 121.1 120.2 118.3 114.8 118.3 115.9 119.1 126.7 122.7 117.6 119.9 120.8 127.9 129.6 134.9 143.4 159.3 166.9 167.6 162.9 163.3 163.5 160.2 158.7 154.7 151.4 152.8 147.8 142 144.5 144.7 140.2 144.1 140.1 134.7 139 163.2 177.9
106.2 98.5 98.5 98.5 98.5 101.2 105.9 110.3 108 109.8 118.7 124.8 123.5 114.9 109.3 108.8 103.3 102.1 97 99.4 88.6 92.3 86.5 87.5 94.8 87.8 86.5 91.9 96.1 108.4 123.8 128.3 134.1 145.5 137.8 129 123 118.7 109.7 103.9 92.5 92.3 94.8 85.5 80.2 76.3 76.3 76.3 83.9 84.6 88.6 84.8 85.4 82.5 75 62.9 62.9 75.6 83.3 84.4 82.4 82.2 78.2 74.2 62.9 62.9 72.1 76.5 84.2 93.3 93.4 83.7 91.8 92.1 81.5 83.3 88 95.1 94.5 93.2 105.5 102.8 100.4 97.2 91.1 86.3 82.2 84.5 73.4 69.1 67.3 71.7 72.8 74.9 82 89.1 103.9 109.2 109.4 106.8 110.6 111 111.9 110.4 110.8 107.3 93.3 85.4 79.1 79.1 79.1 79.1 79.1 82 93.2 105.2 119.5 129.8 129.2 113.1 103.3 98.7 98.7 105.6 117 121.6 135.6 136.9 131 124.7 110.5 93.8 87.9 86.2 82.8 82.9 69.9 82 97.7 103 109.9 114.5 109 116.2 124.6 128 130.8 129 119.7 112.8 115.1 121.5 127.4 128.7 121.8 110.8 106.1 111.5 117.8 112.3 103.8 104.3 109.5 109.9 109.6 108.5 112.4 115.3 107.3 109.3 108.4 108.6 109.6 113.1 114.1 122.3 120.1 127.4 136.2 150.9 154.7 153.5 152.5 153.4 152.4 147.4 145.4 142.3 140.8 136.8 129.5 133.6 133.6 130.3 128.7 129.2 130.1 139.1 150.1 165.8
98.5 98.5 98.5 98.5 98.5 102.9 107.4 113.5 111.5 113.4 123 125.1 121.4 118.4 114.1 118.2 109 102.7 95.6 81.7 82.2 83.9 80.5 80.6 79.3 82.3 84.6 86.4 92.5 117.5 131.3 130.3 134.8 142.7 140.3 133.3 124 113.4 102.4 95.6 91.6 92.3 94.1 87.2 82.3 77.8 76.3 78.1 81.8 84.7 84.8 86.8 89.8 84.1 74 73.4 62.9 63.1 73.8 75.4 77 82.1 83.2 76.9 67.6 62.9 64.9 76 84.6 93.3 85.2 78.6 78.6 78.6 82.2 89.7 94.9 96.2 99.9 106.2 116 109 93.2 82.5 78.9 71.2 62.9 62.9 62.9 62.9 72.2 73.8 75 76.6 82.1 94 102.5 101.6 100.6 98.1 105.3 111.2 111.1 110.1 107.1 104.3 91.4 82.9 79.1 79.1 79.1 79.1 79.1 86.9 86.7 94 105.3 115.3 126.3 123.1 110.6 108.4 99.8 98.7 103.7 113.5 126.8 132 130.6 122.6 108.2 92.6 87.8 82 73.8 69.4 66.4 66.4 75.2 88.5 93.8 102.7 106.8 105.1 119 121.8 126.3 124 114.4 111.5 111.8 106 103.1 106.4 103.3 105.9 104.5 108.3 111.4 110.4 110.1 108.1 98.6 100.7 101.4 101.8 104.2 107.3 104.2 101.2 103.9 102.4 100.3 102.9 106.3 110.3 114.7 118.1 123.7 133.8 135.5 138.5 142 144 139.9 138.8 134.9 133 133 131.8 126.8 127.9 126.5 127 119.8 126.6 131.1 137.4 146.1 153.1
105.7 98.5 110 102.2 103.9 108.5 117 114.3 112.3 113.7 117.5 122.1 117.8 116.8 118.5 121.4 114 104.6 95.7 77.5 73.5 75.4 78.7 84.4 76.8 71.8 76 79.2 104.7 114.5 117.7 126.1 134.7 137.7 127.6 122.7 108.5 97.4 91.8 90.8 91.3 98.5 91.4 86.3 89.5 81.4 76.6 77.3 78.9 84.1 85.1 86.6 86 85.3 86.7 83.1 72 62.9 62.9 70.2 74.6 79.6 83.6 73.9 62.9 62.9 62.9 62.9 72.1 79.6 78.6 78.6 82.7 86.8 93.8 102.3 102.7 108.9 115.3 116.3 118.1 107.8 91.9 73.1 62.9 62.9 62.9 62.9 62.9 65.3 77.9 76.2 74.4 73.2 76.8 86 94.9 90.5 91.6 97 110.1 115.5 118.9 115 113 99.1 84.3 79.1 79.1 79.1 79.1 79.1 79.1 81.7 89.2 96.3 98.1 101.5 104.6 122.2 117.1 109.7 98.9 98.7 98.7 98.7 114.3 121.5 119.1 111.8 98.5 86 87.5 84 77.5 66.4 66.4 66.4 66.4 80.1 87.6 91.7 94.4 92.3 95.4 106.6 111 110.6 107.6 101.6 107.7 103.7 96.5 88.9 91.6 94.2 96 100.9 106.4 110.2 117.3 116.2 111.1 95.5 93.8 95.9 93.8 96.5 93.9 100.6 108.6 99.3 100.1 101.6 106.2 110.1 111.6 111.4 119.1 118.1 124.2 123.5 131.9 130.5 130.8 127 126.6 128.3 129.1 124.4 121.7 118.7 114.8 117.2 112.5 121.3 122.8 135.9 141.5 150.6
110.3 116.3 111 109.5 115.8 111 112.6 114.2 111.3 113.3 112.4 111.3 116.7 116.1 119 117.2 109.2 99.4 84.9 79.5 70.2 72.8 77 83.5 70.9 69.6 73.5 82.7 95.7 96.3 107.4 110.6 122.7 123 120.2 107.3 94.6 91 90.3 90.8 93.2 97.1 86.5 87.6 92.6 89.9 81.8 79.2 84.5 90.1 86.1 85.7 85.9 87.7 89.2 83.5 78.2 74.2 62.9 62.9 78.3 86 84.3 79.7 73.6 62.9 62.9 69.8 77.5 84.1 89 84.1 90.2 91.3 103.6 108.3 106.4 112 117.9 117.1 115.4 105.6 84 67.5 62.9 62.9 71.5 62.9 62.9 71 72.2 74.8 69.6 69.6 70.9 77.9 79 84.2 97 105.9 114.7 124.7 120.8 119.9 110.2 95.2 81.4 79.1 79.1 79.1 79.1 79.1 79.1 89.5 87.9 88.6 92 88.3 97.3 101.8 102.8 105.2 101.4 98.7 103.4 101.7 102.9 101.4 102.6 96.3 88.1 80.8 81.4 76.6 77.4 74.1 66.4 66.4 69.3 68.2 76.8 86 83.5 86.2 83.2 85 89.3 92.5 95.5 90.2 88.4 87 84.8 83.4 88.2 88.1 91.4 98.1 107.8 107.3 108.5 111.7 106.4 96.9 93.6 91.4 88.5 89.5 89.1 94.2 98.6 93.2 98.2 99 104.7 107 105.7 107.4 110.1 115.1 115.9 119.4 122.6 122.8 127.3 126.1 124.3 123.5 120.3 115.4 107.9 112.1 105.1 104.9 105.2 106.5 116.5 123 135.6 143
118.8 118.5 110.6 111.7 112.8 111 110.9 113.4 107.8 107.7 108.6 107.7 113.6 113.7 118.2 115 106 91.9 83.7 74.8 69.3 71 76.3 80.3 67.8 69.7 74.2 83.4 87.7 98.3 106.6 104.4 105.9 107.7 101.9 93.5 91.2 89.9 89.8 91.6 83.7 81.8 84.7 89.8 93.6 87.8 81.9 82.9 85.2 93.8 83.3 83.9 85.2 86.6 86.3 83.1 84.5 88.3 81.5 70.1 62.9 83.4 77.1 76 73.7 74.9 68.1 70.9 85.7 94.3 99.6 89.9 92 91.8 88.8 97.6 105.3 109.9 114 117.6 99.8 85.1 83.3 69 62.9 62.9 62.9 62.9 62.9 62.9 69.9 69.9 68.7 69.5 70.1 71.7 77.9 85.4 100.2 111.5 128.4 131 122.6 112.1 105.5 95.7 84 81.4 79.1 79.1 78.9 79.1 86.5 87.7 87.8 86.2 86.1 87 93.4 98.1 96.9 110.8 110.1 105.1 106.2 99.7 102.2 95.8 91.1 89.9 77.5 70.9 71.8 67.9 66.4 66.4 66.4 66.4 66.4 66.4 66.3 74.2 75.9 74.7 71.4 70.8 70.2 75.9 79 82.9 80.5 81.7 79.2 77.9 79.4 81.9 85.3 93.3 103.6 97.9 96.6 95.5 94.7 92.7 92.2 91.8 87.6 86.7 89.8 93.2 90.7 93.2 94.1 94.8 99.4 101 103 104.2 108 112.1 114.9 118 120.4 120.2 124 126.1 127.4 122.3 108.6 103.3 101.3 104.3 101.9 103.1 103.8 106.2 111.7 118.4 126 132.3
120.9 112.6 112.3 113.7 113.8 111.6 111.6 107.7 107.7 107.7 107.7 113.9 115.5 117.4 117.5 116.7 106.1 88.5 79.8 70.4 69.4 70.1 72.7 67.8 67.8 68.3 73.6 77.6 83.3 94.3 98.8 91 92 83.8 81.3 84.1 78 80.9 76 75.8 76.7 81 90.9 88.2 88.6 83.9 83.5 85.5 83.7 80.2 79.8 85.4 84.8 95.4 92.3 87.8 91.3 91.2 86.8 80.9 62.9 62.9 62.9 62.9 62.9 62.9 62.9 68.9 73.7 79.2 82 83.7 84 82.1 85.6 90.8 99.8 105.7 103.6 96.5 83.1 76.5 76.2 70.8 67.5 62.9 62.9 62.9 62.9 62.9 68.9 67.6 76.6 73.6 72.3 70.7 73.1 81.6 97.5 122 123 120.6 117 107.1 100.3 89.2 90.5 92.2 79 79.1 79.1 86.2 91.4 89 88.1 87.1 87.7 92.5 93.1 93.2 91.3 94.5 107.6 113.8 111.6 101.9 92.4 95.7 87.1 78.9 78.5 74.9 66.4 66.4 66.4 66.4 66.4 66.4 66.4 66.4 66.4 66.3 66.4 66.4 66.4 66.4 66.4 66.4 70.7 76.8 76.6 76.9 74.9 75.5 79.7 78.2 75.9 81.6 86.7 86.4 83.1 82.2 82.7 83.5 83.8 81.6 82.2 86.6 93.2 89.1 89 88.4 87.1 92.9 93.6 93.8 96.4 103.6 100.9 106 107.9 111.3 113 119.8 122.5 138.4 137.9 126.4 115.8 101.4 100.6 101.7 104 112 113.2 117.9 115.4 116.7 115.3 118.7
123.9 120.8 112.6 113.3 115.6 113.3 111.4 107.7 109.4 111.2 116.6 116.1 119.5 121.4 122.2 116.5 97.3 88.4 82.9 71.3 69.8 67.8 67.8 67.8 72.9 76.3 76.3 84.7 87.3 94 88.2 73.4 69.1 69.7 65.9 68.1 70.8 69.1 78.7 77.6 79.4 90.6 88.3 87.9 87.1 85.1 90.6 83.7 80.1 78.7 78.8 80.2 84.1 90.4 91.6 94.1 95.6 91.5 89.8 86.4 81 62.9 62.9 62.9 62.9 62.9 62.9 71.9 76 81.2 88.6 78.9 78 77.6 79.4 89.1 93 91.2 75.7 75.6 70.4 70.9 62.9 62.9 62.9 62.9 67.5 62.9 62.9 62.9 67.7 78.1 79.6 75.4 75.7 72 75.5 90.5 98.3 111.4 109.7 115.5 108.9 104.1 89.5 87.8 89.5 85.5 80.8 82.1 85.7 86.5 89.3 91.2 94.2 96.3 97 93.9 93.6 90.7 90.9 91.8 98.2 113.8 115.7 104.9 93.1 84.9 83.2 78.4 78.3 77.7 72.2 66.3 66.4 66.4 66.4 66.4 66.4 66.4 66.4 66.4 66.4 66.4 66.4 66.4 66.4 66.4 66.4 66.4 72.5 75.4 75.6 75.7 76.1 69.3 67.8 65.4 69.1 81.1 75.5 65.4 69.4 77.1 74.4 74.2 79.2 91.3 94.4 102.1 90.2 86.5 84.3 82.2 82 92.5 96.4 101.2 104.9 110.2 111.7 113.1 115.2 114.9 123.3 130.8 134.3 126.2 115.4 99.7 99.2 99.1 106.1 114.6 118.1 116.5 116.1 115 117.2 118.3
127.7 122.9 115.1 114.2 111.8 111.4 109.2 107.7 107.7 113.9 118.1 117.9 120.6 125.7 125.2 119.6 98.8 103.1 96.3 76.9 71.2 68.2 67.8 67.8 67.8 76.9 88.2 86.8 89.5 81.3 72.2 62.3 58.6 57.7 58.6 57.4 60.8 70.9 76.4 88.9 96.4 96.1 88.1 87.7 87.6 86.6 85.7 80.9 79.6 79.3 77.9 80.4 84.7 90.8 93.3 94.2 96.3 93.5 97.2 92.6 83.1 76 62.9 62.9 62.9 62.9 62.9 72.9 79.6 85.5 85.8 76.2 71.9 72.3 76.3 86 83.7 74.3 62.9 62.9 62.9 62.9 62.9 62.9 62.9 62.9 68.1 62.9 62.9 62.9 68.5 76 78.1 76.5 74.8 77.5 91.7 110 122.8 118.7 103.9 100.5 91.2 87.4 84.6 84.9 80.8 77.8 77.8 78 83.6 95.6 101.1 94.6 96.9 97.8 96.7 94.3 89.5 88.5 88.8 90.1 104.5 114.1 109.8 100.9 95.8 78.8 75.7 79.3 81.4 81.7 82.2 69.4 66.4 66.4 66.4 66.4 66.4 68.3 70.5 69.2 67.5 69.4 66.4 66.4 66.4 66.4 66.3 66.4 71.1 78.7 79.6 79.5 76.6 73.4 72.8 68.2 65.4 65.4 65.4 65.4 65.4 65.4 65.4 65.4 65.4 73 83.7 92.8 91.5 86.1 86.1 80.6 83.8 88.6 91.3 96 106.8 114.5 119 116.1 111 110 113.7 119.2 118.4 104.4 101.4 99.1 98.5 100.2 105.2 108.2 110.4 115.5 116.9 114.1 125.4 127.5
130.8 124.8 116.7 110.8 108.4 111.1 116.7 110.4 113.9 118.1 117 116.7 120.4 125.2 122.4 106.7 108.9 103.9 100.1 80.4 77.6 68.8 67.8 67.8 67.8 68.4 76.9 79.8 82.5 73.9 62.1 57.7 57.7 57.7 57.7 57.7 57.9 68.1 80.8 88.9 93.2 91.2 87.8 87.6 89.7 83.8 82.4 81.2 84.2 83 77.5 76.3 82.1 99.1 103.3 95 96.4 101 96.7 91 80.8 69.9 66.4 62.9 62.9 62.9 68.8 79.7 84.9 94.5 81 76.3 70.2 72 77.4 80.4 73 62.9 62.9 62.9 66.9 62.9 62.9 62.9 62.9 62.9 73.1 74.4 62.9 70.8 71.7 79.2 88.7 80 86.5 90.3 99.5 112.9 117.3 116.2 100.8 94.3 83.5 82.1 82.7 79.9 77.8 77.8 77.8 80.5 96.5 100.3 106.6 108.5 105.8 98 94.8 95.7 94.2 88 87.8 96.5 106.2 107.8 100.4 96.5 89.3 74.9 74.3 79.8 86.3 86.8 79.9 71.4 66.4 66.4 66.4 66.4 66.4 72.9 77.3 78.4 81 83.6 79.8 78.6 74.2 66.3 66.4 67.8 73.7 78.9 78.6 73.8 71.2 70.2 69.9 66.2 65.4 65.4 65.4 65.4 65.4 65.4 65.4 65.4 66 65.4 65.4 70.8 76.8 78.4 73.3 71.3 83.1 83.4 89.6 94.8 108.4 118.3 120.4 111.5 100.8 107.5 107.5 103.7 103.7 105.2 102.6 98 98.9 100.7 104.8 106 107.4 111 113.9 121.9 128.4 129.1
126.7 117.7 116 110.5 109.1 119.9 119.7 119.8 120.6 117.1 116.7 123.9 121.9 122.5 110.3 108.8 113 112.4 108.5 88.7 71.6 67.8 72.9 67.8 67.8 74.9 78.8 66 64.2 64.3 60.5 57.7 57.7 57.7 57.7 57.7 58.9 70.4 83.8 85.9 88.9 85.4 86.2 88.4 86.5 81.3 80.7 81 81.1 79.5 79.7 76.3 77.3 91.3 98.2 97 99.5 102.4 94 87.5 80.9 77.7 72.5 69 62.9 62.9 62.9 80.4 82 78.4 76.5 74.7 70.3 62.9 70.3 76.8 68.3 62.9 62.9 62.9 62.9 62.9 62.9 62.9 62.9 67.7 64.2 75.1 62.9 62.9 74.7 87.1 89.4 89.2 105.9 107.3 105.3 104.1 106.5 102.6 93.1 92.4 87.9 78.8 77.8 77.8 77.8 77.8 80 88.5 99.9 100.9 103.2 105.2 102.9 96.9 92.9 93.8 91.4 88.7 87.5 96.3 107 103.2 99.2 93 79.9 69.6 72.2 76.4 81.6 87.4 83 83.9 66.3 66.4 66.4 66.4 66.4 71.6 78.6 85.3 86.7 93.9 91.1 95.7 93.6 93 85.4 71.4 67 69.4 67.2 69.2 67.1 65.4 65.4 65.4 65.4 65.4 65.4 65.4 65.4 65.4 65.4 65.4 65.4 65.4 65.4 65.9 65.4 65.4 65.4 65.7 78.2 76.5 84.3 94 100.8 98.4 97.4 95.2 103.4 103.8 100.8 101.2 102.2 101.3 97.6 99.5 101.7 105.4 108.6 104 106.7 107.5 108.9 118.8 122.9 123.6
122 116.9 110.3 105.8 123.8 119.1 120.6 115 112.9 114.1 126.1 122.1 121.7 111.6 111.7 124 121.9 114.6 95.3 82.1 75.5 79.2 72.5 71.4 64.6 60.2 59.3 56.3 55.4 57.4 62.9 72.3 63.1 57.7 57.7 57.7 65.3 76.1 77.2 78 79.8 89.4 91 88.7 83.7 87.5 85.6 82.8 83.2 81.5 76.3 76.3 76.3 90.7 98.4 99.6 102.6 100.6 96.4 86.8 83.1 83.5 77.2 76 72 63.3 62.9 65.1 62.9 70.4 73.3 68.3 70.4 62.9 73.9 70.3 62.9 62.9 62.9 65.2 62.9 62.9 62.9 62.9 71 66.3 62.9 65 62.9 67.6 77.7 91.5 95.1 105.3 115.1 112.1 108.3 101.6 95.1 95.2 84.2 83.5 80.8 81.1 77.8 77.8 77.8 77.8 79.2 89.2 98.5 100.9 102.6 98.6 94 90.4 90.1 91.6 89.9 88 88.3 87.9 91.8 96 95.4 85.7 69.6 69.6 72.5 74.2 74.1 79.7 83.5 76.5 66.4 66.4 66.4 66.4 66.4 75.1 84.6 87.1 91.5 98.6 104.1 106.7 108.2 106.9 96.3 75.8 69.7 65.4 65.4 65.4 65.4 65.4 65.4 65.4 65.4 65.4 65.4 65.4 65.4 65.4 65.4 65.4 65.4 65.4 65.4 65.4 65.4 65.4 65.4 65.4 65.4 70 75.6 82.9 85.3 83.3 87 89 89.9 94 96.9 100.8 99.8 101.9 96.9 99.7 100.7 101.9 100.4 95.6 95.6 98.5 105.2 111.9 115.5 114.3
115.9 106.5 105.6 116.6 119.6 108.8 112.1 111 112 120.5 121.2 121.3 117.1 115.5 116.8 121.4 115.2 106.7 85.6 80.3 83.7 76.5 73.5 67.4 59.6 57.5 54.3 53.6 49.9 53.1 56.9 68.6 63.3 57.9 57.5 57.7 72.4 74.9 74.6 76.3 92.3 99.4 91.4 87.4 92.8 96.9 98 95.3 90.7 84.4 79.7 76.3 83.5 94.3 94.3 97.4 105.3 104.2 99 91.8 87.9 96.4 83.2 81.1 82 71.2 62.9 62.9 62.9 67.8 62.9 62.9 62.9 62.9 71.1 62.9 62.9 62.9 62.9 63.9 62.9 62.9 62.9 62.9 69.4 62.9 68.6 62.9 62.9 73.9 77.1 88.5 95.4 109.5 116.4 107.1 107.2 99 94.1 84.3 77 74.9 74.8 74.8 73.1 89.9 91.3 89 84.6 90 93.5 100.1 102.9 99.6 94.1 89.3 91.3 89.7 89.2 90.7 93.5 94.5 87.1 90.7 87.6 69.7 69.6 69.6 74.1 76.6 72.3 76.9 76.2 81.8 70.6 66.4 66.4 66.4 66.4 76 83 85.4 92.2 98.8 110.1 111.3 111.6 107 90.7 81.1 74.6 65.4 65.4 65.4 65.4 65.4 65.4 65.4 65.4 65.4 65.4 65.4 65.4 65.4 65.4 65.4 65.4 65.4 65.4 65.4 65.4 65.4 65.4 65.4 65.4 65.4 69.9 71.8 70.8 71.1 70.4 79.7 77.7 91.9 92 95.3 96.8 95.6 97.6 100.7 99.6 98 95.5 95.5 97 95.2 96.2 101.7 111.7 109.5
107.7 105 105 106.2 106.5 107.4 109.9 113.1 113.6 109.3 116 133.5 135.2 115.9 108.3 105.2 103.2 91.8 81.6 81.2 80.5 75.3 70.5 66 61.4 59.4 58 55.3 47.3 47 47 46.7 48.7 51.6 62.6 69 76.4 77.3 72.7 82 96.6 91.7 90.7 90.4 94.7 88.9 87.8 81.3 90.3 85.4 79.1 79.8 84.3 89.2 93.1 95.1 98.9 100.9 97.4 92.9 87.2 83 80.2 80.5 79.1 78.9 74.7 62.9 62.9 62.9 62.9 62.9 62.9 62.9 65.7 62.9 62.9 62.9 62.9 62.9 62.9 70.8 62.9 62.9 62.9 62.9 65.6 62.9 62.9 75.6 84.9 95.5 97.6 101 111.8 99.6 97.6 91.2 83.7 80.5 76.2 76.4 71.2 76.4 92.7 101.2 103 101.3 102.2 103.8 101.2 101 101 97.7 90.5 89.3 91.6 96.3 104.7 97.9 95.4 92.2 83.4 77.6 72.4 69.6 69.6 69.6 73.1 69.6 70.8 71.8 69.6 71.1 69.6 69.4 66.4 66.4 66.3 72 77.2 84.7 86.9 100.1 104.8 108.2 105.5 87.3 82.8 82 72.1 69.1 67.2 65.4 65.4 65.4 65.4 65.4 65.4 65.4 65.4 65.4 65.4 65.4 65.4 65.4 65.4 65.4 65.4 65.4 65.4 65.4 65.4 65.4 65.4 65.4 65.4 65.4 65.4 65.4 65.4 68.2 75.7 78.8 89.6 92.8 88.9 90.9 98.5 101.6 96.8 95.8 92.7 93.1 93.6 92.9 94.3 97.7 100.5 99.8
105 108.8 108.4 109.3 107.6 110.6 119.2 114.7 104.7 104.7 116.5 137.7 129 114.6 102.3 96.5 89.4 79.2 78.8 82.3 83.7 78.9 73.7 68.7 59.8 57.7 57.6 51.6 49.2 47 47 47 47 47 51.5 61.5 68.9 67.4 83 84.4 88.1 92.6 97.6 89.4 88.1 76.3 72.9 78.9 74.5 77.4 79.1 81.1 81.7 92.1 94.6 98.5 97.4 98.5 98.2 93.9 86.2 82.9 77.7 77.6 82.3 84.2 76.7 62.9 62.9 62.9 62.9 62.9 62.9 62.9 62.9 62.9 62.9 62.9 62.9 70 63.3 62.9 62.9 62.9 70.6 62.9 62.9 62.9 62.9 77 89.2 97.6 103.6 104.3 95.1 86.6 87 88.1 82.6 80.1 79.8 71.8 72.5 85.5 99.9 104.4 108.6 107.4 109.4 113.9 111.2 106.8 100.4 93.3 89.3 89.3 96.3 103.1 107.2 105.8 102.9 91.6 78.6 70.9 69.6 69.6 69.6 69.9 69.6 69.6 69.8 69.6 73.4 75.9 68 66.4 66.4 69.8 70.1 70.6 71.6 74.2 83 89.6 92.7 94.4 88.4 85.4 85.2 76 72 76.5 75.4 65.4 65.4 65.4 65.4 65.4 65.4 65.4 65.4 65.4 65.4 65.4 65.4 65.4 65.4 65.4 65.4 65.4 65.4 65.4 65.4 65.4 65.4 65.4 65.4 65.4 65.4 65.4 65.4 65.4 65.4 73.1 74.8 86.5 82.7 86.6 89.2 90.9 89.1 92.3 90.7 93.8 92.9 91.8 91.5 94 93.2 99
113.9 114.4 111.9 109.1 109 108.6 110 107.1 104.7 117.3 141.3 131.1 111.9 104.3 95.8 91 78.8 74.5 80.8 86.7 81.3 80.1 73.8 62.3 59 56 54.2 51 49.2 47 47 47 47 47 51.5 57.1 65.8 78.2 78.3 76.3 89.6 81.4 81.2 78.6 81.9 69.6 67 67.7 68.8 70.6 74.8 77.5 84.4 100.8 95.5 91.3 96.2 102.2 106.4 96.6 84.1 76.5 73 77.8 87.4 85.6 77.6 62.9 62.9 62.9 62.9 62.9 62.9 62.9 62.9 62.9 62.9 62.9 74.7 72.1 62.9 62.9 62.9 68.5 75.2 62.9 62.9 70.3 69.1 77.3 87 95.6 106.2 109.2 99.3 87.3 77.2 79.5 74.5 77.8 71.7 71.4 80 99.6 104.8 111.7 117.2 115.6 115.1 113.6 112.8 107.8 100.5 90.9 89.3 93.8 95.8 97.5 101.7 102.2 102.8 88.8 74 69.6 69.6 69.6 69.6 69.6 73.6 73.1 72.7 71.7 73.3 77.2 68.7 67.6 70.1 76.7 78.3 76.4 76.4 74.9 75.9 79.2 81.7 84.5 84.9 97.1 90.5 76.1 71.9 66.7 65.4 65.4 65.4 65.4 65.4 65.4 65.4 65.4 65.4 65.4 65.4 65.4 65.4 65.4 65.4 65.4 65.4 65.4 65.4 65.4 65.4 65.4 65.4 65.4 65.4 65.4 65.4 65.4 65.4 65.4 65.4 65.4 65.4 65.6 69.7 77.7 80.8 81.9 85.6 86.7 90.7 92.3 91.4 89.7 88.8 85.5 90.6 95.1
112.7 116.9 112.6 107.7 109 109 104.7 104.7 116.6 135.5 127.3 112.2 105.4 94 90.1 79.2 73.1 71.3 75.9 73.7 77.5 73.6 68.8 64.7 60.6 56.5 51.2 49.5 47 47 47 47 48.2 49.2 47.3 51.4 56.8 59.1 63 74.7 80.7 70.4 74.8 75.6 73 65.9 66.9 66.7 67.5 69.3 73.7 77.4 83.6 84.9 85.3 91.5 89.9 100.3 99.1 83 70 71.4 71.9 78.7 90 85.7 77.9 62.9 62.9 62.9 62.9 64.2 62.9 62.9 62.9 62.9 62.9 64.3 80.1 77.2 75.2 62.9 64 64.4 63.5 62.9 68 74.7 72.6 78.4 93.1 102.4 95.6 98.4 98.5 87.5 74.3 72 70.1 74.4 72.1 92.1 94 95.5 97.7 103.7 110.7 111.3 114.3 114.2 113.9 109.5 96.2 93.6 102.9 100.3 95.9 93.7 91.1 91.6 86.2 78.4 69.6 69.6 69.6 73.6 69.6 72.8 76 77.1 75.3 73.8 74.5 74.4 73.3 71.1 73.2 80 86.6 87.4 80.7 78.3 79.6 79.8 80.8 82 89.4 88.8 85.4 70.2 65.4 65.4 65.4 65.4 65.4 65.4 65.4 65.4 68.1 76.8 65.9 65.4 65.4 65.4 65.4 65.4 65.4 65.4 65.4 65.4 65.4 65.4 65.4 65.4 65.4 65.4 65.4 65.4 65.4 65.4 65.4 65.4 65.4 65.4 65.4 65.4 65.4 65.4 67.6 74.4 77.6 78.1 81.6 82.9 86.1 84.5 80.3 84 84.3 81.9
111.9 112.6 109.4 108.2 108.2 104.7 104.7 104.7 125.9 126.1 110.6 107.6 103.3 89.5 82.5 80 68.7 66.5 69.5 67.4 64.7 65.6 60 58.2 55 52 50.8 47 47 46.6 47 47 47 54.6 48 52.3 53.8 54.8 56.7 57.9 61.4 72.2 76.5 71.1 64.9 68.9 69.9 72.6 82 73.9 78 86.3 86.8 84.1 76.3 82.9 89.1 92.5 86.3 72 69.8 73.4 69.5 77.1 89.1 78.1 77 69.6 62.9 62.9 63.2 73.8 72.8 62.9 62.9 70.2 72.8 72.3 84.2 85.2 76.9 69.4 73.4 71.4 73.7 69.9 73.6 85.8 77.7 80.3 88.7 99 92.2 88.6 92.3 81.3 73.2 71.1 69.1 69.8 78.2 89.8 88.8 87.5 90.5 97.7 105.7 111.3 115.7 116.4 119.9 118.1 105.8 109.3 112 109.8 101.8 94.6 88.7 79.5 75.4 69.6 69.6 69.6 69.6 71.3 73.9 78.4 86 80.3 76.6 75.4 76.8 74.3 73.1 71.2 77.1 80.6 82.3 84.4 93.2 91.1 84 81.4 80.9 81.8 81 82 71.3 65.4 65.4 65.4 65.4 65.4 65.4 65.4 65.4 65.4 84.8 104.8 100.5 91.8 78.5 65.4 65.4 65.4 65.4 65.4 65.4 65.4 65.4 65.4 65.4 65.4 65.4 65.4 65.4 65.4 65.4 65.4 65.4 65.4 65.4 65.4 65.4 65.4 65.4 65.4 65.4 65.4 68.3 75.9 78.2 79.7 78.9 74.8 73.7 75.6 78.9 77
110.8 115.4 117.1 113 112.7 105.9 106.1 119.8 120.5 115.9 102.4 104.4 96.5 83.8 80.7 74.7 65.6 63.7 67.9 71 62.2 57.6 50.2 50 51.3 53.4 50.3 47 47 47 52.7 47 47 49.7 57.5 52.4 51.8 54.3 54.9 55.5 61.5 62 60.8 62.2 67.9 69.9 72.4 74.2 75.8 75.7 83.4 91.4 90 79.5 73.5 75.5 78.8 73.1 74.4 72.3 67.4 66.9 68.9 72.4 79.8 77.4 76.9 62.9 70.1 78.9 69.1 70.9 72.1 67.6 70.6 75.8 75.8 76.4 94 93.3 78.3 77 72.8 73.8 78.1 74.8 77.4 90.3 84.7 83.4 87.3 86.3 79.4 83.6 81.9 79.5 72.4 68.9 69.3 69.5 72.3 75.8 78.9 87.6 92.5 103.5 112.6 119.6 122.3 120.6 120 112.8 112 115.2 114.4 110.9 107.2 100 87 75 69.6 69.6 69.6 69.6 69.6 75.2 79.5 81 86.2 81 78 84.3 86.1 77.4 75.9 73.9 73 77.8 81.7 87.4 94.7 100.2 87 83.6 77.7 80.9 74.5 65.4 65.4 65.4 65.4 65.4 65.4 65.4 65.4 65.4 65.4 84 112.9 123.4 118.9 106.1 91.5 73.5 65.4 65.4 65.4 65.4 65.4 65.4 65.4 65.4 65.4 65.4 65.4 65.4 65.4 65.4 65.4 65.4 65.4 65.4 65.4 65.4 65.4 65.4 65.4 65.4 65.4 65.9 69.9 65.4 70.2 73 69.6 69.6 65.7 67.7 72 75.5
112.1 120.2 120.2 113.9 104.1 110.6 116.2 120.7 111.5 99.3 99.1 94.6 82.9 81.8 76 68.3 59.8 59.8 61.4 59.2 54.5 51.4 47 47 47 51 50.4 47 47 47 47 47 47.5 56.8 62.1 58.2 60.9 55.4 56 60.8 57.8 58.2 61.4 67.1 68.7 69.2 72 75.8 75.4 74.7 77.3 80.6 77.9 75.9 73.6 72.5 72.5 72.7 74.3 66.8 66.8 67.1 73 75.8 78.5 81.9 79.5 68.3 75.6 75.4 74.2 72.2 74 78.3 93.2 89.4 78.1 79.2 101 98 86.4 74 72.6 77.2 81.4 77.9 83.1 91.8 89.7 85.3 81.6 82 81.9 76.7 73.1 71.4 68.8 68.8 69.4 78.3 86.1 86.2 87.3 83.3 93 105.6 110.5 117.9 111.9 109.1 117.4 118.1 116.7 115.5 115.8 112.8 103.5 93.8 77.6 69.6 69.6 73.4 76.6 69.6 72.1 77.7 80.4 86.9 84.1 78.3 76.8 89 88.7 88.6 81.2 75.1 79.8 84.6 84.7 84.8 88.3 100.3 88.7 77.1 74.4 65.4 65.4 65.4 65.4 65.4 65.4 65.4 65.4 65.4 65.4 74.4 91.3 103.2 124.7 118.4 115.2 104.6 91.6 80.8 90.5 90.9 65.4 65.4 65.4 65.4 65.4 65.4 65.4 65.4 65.4 65.4 65.4 65.4 65.4 65.4 65.4 65.4 65.4 65.4 65.4 65.4 65.4 65.4 65.4 65.4 71.7 72.3 67.6 65.4 65.4 65.4 65.4 65.4 66.9 66.3
118.6 132.4 118.3 102.6 104.4 104.2 114.7 107.7 100.6 90.1 88.6 80.3 78.9 75.5 68.2 62.2 59.1 56.5 53.7 51 47 47 47 47 47 48.5 47 47 47 47 47 51.6 65 72.8 72 67 65.7 62.3 60.9 58.6 57.8 58.4 64.6 71.2 65.7 68 70.4 80.8 77.2 73.7 78.9 81.7 85.3 76.3 75.1 71.5 72.2 71.9 70.7 66.8 66.8 71.3 75.3 77.7 79.8 91.4 77.3 63.2 80.9 77.7 75.4 81.6 75.8 86.7 92.6 85.5 84.1 81.6 101.3 97.3 90.7 74.4 72.5 87.5 84 77.8 90.1 97.3 90.1 74.5 73.5 70.4 68.6 72.2 64.8 69.9 74.5 78.1 89.8 94.1 96.9 103.1 106.4 100.8 94.3 95.2 99.2 101 102 121.1 124.5 122.2 121.2 118 112.7 108.2 97.4 87.4 82.6 77.6 75.3 81.6 83.7 73.9 75.2 75.3 80.3 72.7 72.7 76.2 80.4 83.1 83.5 90.2 80.9 77.6 88.3 93.5 86.5 84.7 86.1 87.8 86.6 70.4 65.4 65.4 65.4 65.4 65.4 65.4 65.4 65.4 65.4 65.4 65.4 84.6 96.9 108.4 116.8 119.8 109.7 95.7 88.1 103.2 111.5 98.5 83.6 71.1 65.4 65.4 65.4 65.4 65.4 65.4 65.4 65.4 65.4 65.4 65.4 65.4 65.4 65.4 65.4 65.4 65.4 65.4 65.4 65.4 65.4 65.4 65.4 65.4 65.4 65.4 65.4 65.4 65.4 65.4 67.2 70.9
109.1 106.9 98.5 92.4 88.5 99.8 102.9 98.2 87.2 85.9 86.2 80.2 76.7 72.5 64.9 55.5 54.5 50.6 48.8 47 47 47 47 47 47 52.3 47 47 47.5 54.3 55.1 76.5 87.4 91.5 79.6 72.8 66.3 62.5 60.1 58.6 58.5 58.5 59.4 60.5 65 67.8 67.7 70.1 70.3 73.5 80.8 81.5 76.9 75.7 72.4 71.4 73.6 75.2 66.8 66.8 66.8 69.2 74.6 77.3 83.3 82 66.3 66.1 72.6 74.6 77 91.8 83.9 80.8 88 82.1 83.2 82.5 89.1 89.9 89.6 75.9 74.1 83 80.4 76.2 89.6 91.4 82 67.2 65.6 64.8 66.7 64.4 70.7 74.6 79.1 88.7 103.6 111.1 119.8 121 114 109.6 99.1 94.8 95.1 95.2 100 114.8 121 122.5 122.9 120.1 114.8 105.1 89.3 90.5 87.4 80.3 80.1 81.5 82 77.5 85.3 77.3 80.6 72.7 72.7 73.4 79.4 82.3 85.2 84 84.7 85.1 93.7 95.5 88.3 84.2 85.9 86.6 74.4 65.4 65.4 65.4 65.4 65.4 65.4 65.4 65.4 65.4 65.4 65.4 65.4 81.2 99.2 118 116.3 112.2 104.2 99.9 95.9 98.9 97.3 92.6 90.6 83.9 72 65.4 65.4 65.4 65.4 65.4 65.4 65.4 65.4 65.4 65.4 65.4 65.4 65.4 65.4 65.4 65.4 65.4 65.4 65.4 65.4 65.4 65.4 65.4 65.4 65.4 65.4 65.4 65.4 65.4 67.7 67.3
88.2 86.3 92.5 89.9 81.5 83.9 87.3 86.8 85.5 87.3 87.5 83 84.4 73.7 66.4 54.5 53.2 50.3 47 47 47 47 47 47 47 47 50.8 52.5 58.8 58.6 71.8 81.1 87.1 86.2 82.7 74.1 69.2 64.2 67 62.7 60.9 59.9 66.8 66.9 62.3 63.6 64 66.5 70.5 75.1 85.7 81 77.1 75 71 71.5 71.2 72.6 66.8 66.8 70.1 70.3 75.2 78.4 76.8 68.3 68.2 71.4 71.6 73.4 76.2 93.9 94.9 81.2 83.5 77.4 77.3 82.8 82.4 78.3 84.9 74.8 72.9 74 79.5 71.6 72.3 73.5 69.6 70.6 65.5 63.4 63.4 70.4 77.6 78 79.4 84.9 102.6 106.5 110.3 108.8 104.2 105.1 100 98 96.7 94.9 98.8 104.6 114.7 119.2 123.2 120.3 112.5 101.3 87 86.1 83 85.2 84.5 83.2 84.9 82.9 87.5 77.2 72.7 72.7 72.7 79.6 81.7 88.5 85 84.9 85.9 88.3 96.7 96.3 84.6 82.5 85.2 75.3 65.4 65.4 65.4 65.4 65.4 65.4 65.4 65.4 65.4 65.4 65.4 65.4 65.4 70 86 102.3 103.8 99.5 106.7 102.5 107.1 101.5 95.9 96.3 94.3 93 85 86 80.6 65.4 65.4 65.4 65.4 65.4 65.4 65.4 65.4 65.4 65.4 65.4 65.4 65.4 65.4 65.4 65.4 65.4 65.4 65.4 65.4 65.4 65.4 65.4 65.4 65.4 65.4 65.4 65.4 65.4
81.4 86.3 95.8 93.4 83.8 81.6 81.3 80.5 85 73.6 73.8 74.3 76.8 66.7 53.3 51.5 50 47 47 47 47 47 47 47 47 52 54.9 57.4 63.9 68.2 73.9 85.3 81.6 81.1 78.6 75.9 74.2 76.3 78.7 68.5 63.7 65.6 70.1 66.7 65.1 63.6 64.3 69.2 72.9 78.8 86.4 86.7 82.1 74.8 71.6 70.5 68.6 72.1 66.8 66.8 70.1 74.6 86.4 83.1 70.4 62.9 67.1 71.9 71.9 72.2 79.6 94.1 101.5 95.3 79.8 76.7 76.5 83.4 86.5 70.5 82.6 73.7 65.2 61.2 70.6 65.2 68 67.6 70.8 67.4 66.3 63 65.3 84.5 86.3 79.9 87 86.8 91.8 88.6 91.8 98.9 106.1 107.4 103.8 102.2 102.8 98.8 95.3 95.6 108.8 113 123.3 123.9 108 95.7 87.5 88.2 88.5 88.5 85.4 83.3 85.8 85.2 82.8 72.7 72.7 72.7 72.7 72.7 82.4 87.1 85.9 87.5 85.6 92 86.4 85.4 80 78.2 71.6 65.4 65.4 65.4 65.4 65.4 65.4 65.4 65.4 65.4 65.4 65.4 65.4 65.4 65.4 65.4 81.8 83.9 80.3 97.8 102.4 101 108.4 104 103.2 112.2 112.4 111.9 105.5 93.7 80 65.4 65.4 65.4 65.4 65.4 65.4 65.4 65.4 65.4 65.4 65.4 65.4 65.4 65.4 65.4 65.4 65.4 65.4 65.4 65.4 65.4 65.4 65.4 65.4 65.4 65.4 65.4 65.4 65.4
80.6 77.4 91.7 83.9 75.1 75.6 76.4 66.7 64.2 61.3 58.9 61.8 53.5 49.1 49.1 47 47 47.1 55.9 47.5 49.7 47.9 46.9 47 48.4 53.6 62 66.6 76.7 78.6 79 80.1 80.5 84.1 88.1 89.9 88.1 95.2 80.9 77 72.3 69.9 69.9 68.1 66.3 67 65.3 67.9 73 80.1 88.6 89.2 89.5 84.5 76.6 73.8 67.5 66.8 66.8 66.8 70.7 72.4 82.3 79.9 65.5 62.9 66.4 72.2 71.8 72.4 87 95.4 100.4 96.4 97.2 76.3 75.3 79.7 75.2 66.4 60.3 60.3 60.3 60.3 60.3 64.1 71.3 65.5 64.7 66 63.2 62.8 74.9 82 82.8 84.9 85.1 86.7 80 84 88.3 104.3 114.1 115.1 111.4 112.2 108.2 106.1 103 99.6 98 108.7 117.9 119.2 101.7 88.3 88.9 89.7 91.9 90.1 80.3 82.1 88.1 89.9 82.7 72.7 72.7 72.7 75 76.3 82.8 84.9 87.3 86.7 89.2 88.5 84.1 78.4 73.3 69.6 65.4 65.4 65.4 65.4 65.4 65.4 65.4 65.4 65.4 65.4 65.4 65.4 65.4 65.4 65.4 71.2 68.9 68.8 70.7 81.1 90 97.8 115.7 116.9 111.2 120.1 121.3 112.5 102.4 91.3 86.7 85.4 71.7 70.3 65.8 65.4 65.4 65.4 65.4 65.4 65.4 65.4 65.4 65.4 65.4 65.4 65.4 65.4 65.4 65.4 65.4 65.4 65.4 65.4 65.4 65.4 65.4 65.4 65.4 65.4
78.4 72.2 69.9 65.8 68.4 69.8 71.7 68.8 61.9 57 53.4 51.7 47 47 47 47 48.1 56.4 59.5 61 60.7 62.2 64.4 61.1 63.6 68.9 77.1 84.6 88.1 83.4 80.4 81.8 88.9 92.3 89.9 90.6 89.1 85.8 85.5 88.5 85.3 77.7 75.2 69.5 75.3 78 73.1 81.3 91.5 94.5 98.4 95.7 95.8 94.8 86 73.5 73.6 68.6 66.8 65.7 64.8 70.2 73.7 66.1 62.9 62.9 64.6 69.1 71.2 71.4 83.5 93.3 96.1 94 87.6 82.9 75.8 73.9 75.7 63.9 61.1 60.3 60.3 60.3 60.3 60.3 60.8 61.6 64.1 62.9 63 74.3 88 83.2 79.9 81.1 78.6 75.3 83.1 87 100.8 111 115.1 120.9 121.3 114.7 112.4 108.4 106.9 103.9 99.1 101.4 106.4 107.1 90.7 86.1 86.9 92.6 92.5 87.5 81.3 84.2 89.7 95.5 82.3 73.1 72.7 76.3 78.6 83.5 86.3 87.7 85.4 84.4 82.5 79.8 75.6 68.9 65.5 65.4 65.4 65.4 65.4 65.4 65.4 65.4 65.4 65.4 65.4 65.4 73.6 65.4 65.4 65.4 65.4 65.5 78.5 79.3 84.9 87.7 100 112.7 114.7 112.2 112.7 111.6 106.2 98.7 99.7 93.4 90 84.1 73.8 74.5 72.6 65.4 65.4 65.4 65.4 65.4 65.4 65.4 65.4 65.4 65.4 65.4 65.4 65.4 65.4 65.4 65.4 65.4 65.4 65.4 65.4 65.4 65.4 65.4 65.4 65.4
87 82.5 71.1 63.4 64 64.9 65 59.9 53.3 51.8 48.2 47.7 46.8 51.6 61.6 71.6 85.4 93.9 90 90.5 93.1 92.5 89.1 81.7 75.3 76.6 79.3 84.2 87.4 84.9 90.8 103.6 98.8 102.3 96.7 95.8 87 87.4 88.7 89.9 85.4 74.1 73.2 77 78.6 86 89 95.7 99.6 93.4 97 99.3 95.3 91.8 89.7 76.8 73 71.7 66.8 69.6 70.3 64.7 68.4 66.1 62.9 62.9 62.9 64.5 69.4 71 74.3 90.8 93.7 89.8 84.8 86.5 85.7 71.7 70.7 60.3 60.3 60.3 60.3 60.3 60.3 60.3 62.8 66.1 64.2 63.6 65.5 79.7 77.8 77.7 79 74.6 72.8 75.9 90.8 98.6 107.4 110.6 115.9 119 120.1 117.1 113.1 111.3 113.2 104.6 100.3 103.7 99.7 84.5 81.3 85 86 87.4 90.9 83.8 79.2 92.7 89.1 85.2 81 80.6 76.6 79.7 83.9 85.3 87 89.3 86.3 83.7 81.7 76.2 67.6 65.4 65.4 65.4 65.4 65.4 65.4 65.4 65.4 65.4 65.4 65.4 65.4 65.4 65.4 65.4 65.4 65.4 65.4 84.4 102.2 103.4 104.6 100.5 102.3 96.7 98.4 108.4 113.1 108.4 100.6 90.1 89.7 86.7 82.3 75.6 71.3 73.5 65.4 65.4 65.4 65.4 65.4 65.4 65.4 65.4 65.4 65.4 65.4 65.4 65.4 65.4 65.4 65.4 65.4 65.4 65.4 65.4 65.4 65.4 65.4 65.4 65.4 65.4
85.6 82.1 66.9 56.6 59.8 62.1 54.4 45 50.5 55.7 65.1 52.5 52.4 55.4 68.4 78.2 90.7 97.4 106 109.1 115.2 116.1 116.1 112.8 104.2 97.5 91.6 90.6 87.7 87.8 91.3 96.6 98.5 95.6 95.6 96.1 93.3 92.8 90 85.2 77.6 73.7 74.3 80.6 86 91.4 100.7 98.2 97.6 90.6 96.6 96.6 93.2 93.7 87.8 80.8 73.8 73.7 66.8 80.2 81.2 66.9 65.3 62.9 62.9 62.9 62.9 62.9 67.9 69.5 69.3 80.3 79.8 85.1 82.1 81.4 84.7 75.3 66.2 69.5 60.3 60.3 60.3 60.3 60.3 61.9 74.7 70.1 65.9 65.7 68.7 71.3 75.4 88.2 80.8 73.6 73.6 80.3 89.4 97.7 107.8 115.5 122 120.6 121.7 117.9 112.2 110.4 109.8 108.3 103.4 104.2 99.5 86.4 78.2 80.8 82.9 84.1 81.9 77.5 82.4 95.3 90 86.4 86.3 82.7 81.7 87.4 85.7 86.6 89 86.9 85.5 81.8 74.8 68.4 65.4 65.4 65.4 65.4 65.4 65.4 65.4 65.4 65.4 72 66.9 65.4 65.4 65.4 65.4 68.8 70.1 70.9 85.1 102.2 111.5 110.9 106.6 107.6 110.4 116.7 114.3 109.9 102.9 95.8 88.4 84.9 87.3 79.3 73.2 68.2 69.7 65.4 65.4 65.4 65.4 65.4 65.4 65.4 65.4 65.4 65.4 65.4 65.4 65.4 65.4 65.4 65.4 65.4 65.4 65.4 65.4 65.4 65.4 65.4 65.4 65.4 65.4 65.4
81.4 80.6 66.2 51.6 51.5 43.8 45.1 55.1 70.3 76.7 67.6 54.3 65.1 58.5 74.1 81.1 92 106.9 114.9 115.1 118.2 123.7 123.6 121.1 114.9 110.4 110 107.2 106.8 102.1 96 95.4 96 95.7 93.7 93.4 87.1 86.2 84.2 84.3 84.1 78.8 75.5 76.5 79.6 84.5 87.9 92.3 87 85.6 84.5 86.9 89 88.8 87.7 79.7 73.8 66.8 75 84 86.4 69.7 62.9 62.9 62.9 62.9 62.9 62.9 65.2 66.6 62.9 66.3 67.7 75.6 80.1 75.7 82.1 79 65.5 70.4 61 60.3 60.3 60.3 60.3 60.3 64.5 67 66.8 68.1 68.6 72.2 81.9 70.7 70.9 80.3 78.3 85.1 105.1 112.4 111.3 113.2 117.7 122.3 123.6 119.4 112 109.7 108.9 107.7 107.4 100.7 87 78.3 75.3 79.2 80.8 77.6 74.2 80 83.3 96.8 92 88.2 90 85.6 96.7 89.4 87.5 87.3 88.9 86 83.3 75.7 68.4 65.4 65.4 65.4 65.4 65.4 65.4 65.4 65.4 65.4 65.4 77.1 90.7 91.1 66.1 66 72.4 88.4 94.8 83.7 98.3 104.1 109.3 111.3 108.1 110.9 119.6 122.9 120.3 114.6 98.8 88.5 86.5 83.5 75.8 75.1 77.1 78.1 70.4 65.4 65.4 65.4 65.4 65.4 65.4 65.4 65.4 65.4 65.4 65.4 65.4 65.4 65.4 65.4 65.4 65.4 65.4 65.4 65.4 65.4 65.4 65.4 65.4 65.4 65.4 65.4
72.4 68.5 53.4 44.2 43.7 42.9 49.8 60 72.2 70.6 62.6 56.3 57.9 67.9 91.5 91 101.1 108.9 111.6 118.7 125.4 126.9 126.7 123.7 120.8 118 115.7 110.2 110.7 104.6 99.2 97.7 98.7 99.4 94.7 91.1 85.3 85.3 86.8 93 98.3 96.5 98.5 96.6 94.5 88.5 91.8 95.9 94.3 86.1 83.2 82.6 82.8 81.6 80.3 69.6 67.3 71.8 74.3 77 73.4 68.5 62.9 62.9 62.9 62.9 62.9 62.9 62.9 62.9 62.9 62.9 62.9 65.2 64.5 67.2 72.6 68.8 63.1 63.7 69.6 63.8 62.5 60.3 60.3 65.8 72.7 81.8 80.2 69.9 75.7 67.5 67 68.4 79.9 80 80 85.9 95.8 103.8 114.2 114.5 116.2 124.3 122.4 119.6 114.7 110.4 108.9 106.5 102 98 81.7 81.7 74.3 77.7 76.3 72.7 76.9 80.8 88.2 91.2 89.4 85.6 88 89.8 95.6 90.6 90.4 86.3 83.3 81.9 77.8 70 65.4 65.4 65.4 65.4 65.4 65.4 65.4 65.4 65.4 65.4 79.2 89.7 97.3 95.4 82.5 87.6 88.5 98.5 106.9 90.5 90.1 104.5 122.4 121.4 120 116.8 121.6 129.9 118.5 102.8 91.4 85.9 81.5 81.3 76.2 77.8 79.1 82.9 82.7 71.7 65.4 65.4 67.4 70.5 65.4 67.7 65.5 65.4 65.4 65.4 65.4 65.4 65.4 65.4 65.4 65.4 65.4 65.4 65.4 65.4 65.4 65.4 65.4 65.4 65.4 65.4
50 45.4 40.9 42.9 41.4 50.1 53.5 63.3 64.3 61.8 57.9 56.9 58.8 61.1 83.1 87.6 95.5 103.5 108.1 123.2 128.1 127.1 122.2 121.1 120.4 119.2 115.6 112.6 111.7 108.3 102.1 99.9 99.1 101 96.2 91 85.9 86.1 96.5 103.8 103.9 102.5 102.1 101.9 101.2 98.8 91.4 90.9 89.8 87.1 83.3 81.2 77.9 77.7 77 68.6 69.7 69.1 68.6 63.2 62.9 62.9 62.9 62.9 62.9 62.9 62.9 62.9 67.1 76.9 73 70.6 69.5 67.9 65.9 65.3 66.9 66.8 62.6 62.9 61.7 63.2 63.6 63.6 65.1 65.5 80.3 89.9 82.5 73.6 69.3 66.1 68.8 75.9 82.3 83.1 90.1 92.6 96.9 105.1 115.7 116 113.7 114.8 115.5 111.5 107.5 107.1 109.8 107.7 101.8 97.4 83.4 78.5 71.3 71.1 72.6 74 77.2 82.8 79.6 81.3 83.9 85 86.9 94.6 95.1 85.6 84 82.5 80.7 80.2 75.3 65.4 65.4 65.4 65.4 65.4 65.4 65.4 65.4 65.4 65.4 65.4 86.3 91.8 91 87.2 87 98.6 119.3 118.2 107.1 92.1 87.2 114.7 124.3 127.4 128.9 121.4 118.5 119.5 113 92.4 90.6 83.7 86.8 88.8 85.1 82.6 85.7 87.8 86.9 67.6 65.4 74.1 81.1 85.9 75.5 65.4 67.6 65.4 65.4 65.4 65.4 65.4 65.4 65.4 65.4 65.4 65.4 65.4 65.4 65.4 65.4 65.4 65.4 65.4 65.4 65.4
39.3 38.2 38.9 49.9 48.3 51.1 59.5 65.6 65.3 64.4 57.4 56.5 58.6 64.7 78.2 90.3 100.6 102.1 120.8 129.1 127.5 122.3 121.3 121.9 120.5 117.5 116.2 111.8 107.5 100.9 101.2 99.8 97.5 100 101.9 90.5 89.3 87.8 95.4 106.1 109.2 104.4 104.1 102.7 97.4 93.5 94.8 95.3 89.6 85.8 83.4 74.8 72.1 72.2 65.2 65.2 65.2 69.4 62.9 67.2 68.9 64 68.3 62.9 62.9 62.9 67.8 67.1 71.8 78.6 83.6 81.1 76 73.6 69.7 69.9 71.9 72.1 66 61.8 64.3 65.1 65.4 65.7 65.7 65.5 74 83 77.8 66 65.7 69.8 85 88.5 95.2 93.7 106.7 111.8 102.9 105.3 110.1 110.6 104.2 102.7 105.4 97.5 96.7 97.4 105.2 105 107 100.5 85.1 71.6 68.2 67.4 69.2 69.8 71.2 70.4 72.8 82 85.3 86.5 88.3 89.4 89.1 85.7 82.6 80.1 77.5 72.8 67.8 65.4 65.4 65.4 65.4 65.4 65.4 65.4 65.4 65.4 65.4 70.4 80.7 83 81.6 90.4 100.4 119.3 119.4 104.7 100.1 90.8 91.6 112.4 124.9 129.5 130.1 122.4 109.7 113.9 97.2 89 92.7 97.8 102 105 92.6 88 87.2 85.8 82.4 68.2 77.6 78.9 83.4 86.1 90.4 75.6 65.4 65.4 65.4 65.4 65.4 65.4 65.4 65.4 65.4 65.4 65.4 65.4 65.4 65.4 65.4 65.4 65.4 65.4 65.4 65.4
38 37.9 47.6 70.1 69.9 68.8 70.1 75.6 62.7 58.4 57.9 58.6 55.6 56.1 62.2 78.1 91.9 99.3 118.8 122.4 125.8 120.8 116.5 121.3 123.2 115.6 112.4 105.2 96.2 98.2 102.7 98.2 97.5 100.4 98.1 91.4 90.3 90.4 98.1 104.9 106.2 103.2 99.5 101.8 94 93.7 97.8 91.4 86.5 78.3 76.4 71.3 67.8 65.2 65.2 65.2 69.3 82 88.3 77.6 74.4 82.1 82.6 70.5 65.4 62.9 67.7 73.6 77.2 79.6 84.2 86.4 84.8 82 79.3 79.8 72.9 72.3 69.1 62.1 63.4 65.1 65.4 65.7 65.9 65.6 65.2 65.5 65.1 64.6 70.2 84.8 95.3 100.9 101.2 101.6 105.7 104 93.4 98.1 98.2 98.4 96.5 92.8 90.1 89.1 90.2 83.2 88.8 96.1 86.4 85.4 74.5 67.2 66.6 67.2 68.9 72.7 72.1 80.7 84.5 85.9 89.5 92.4 95.6 97.6 92.2 89.6 84.2 78.9 74.9 68.4 67.1 65.4 65.4 65.4 65.4 65.4 65.4 65.4 65.4 65.4 65.4 73.9 75.1 79.7 91.3 103.4 116.3 122.3 115 105 97.7 94.7 101.3 112.3 121.6 133.3 132.2 119.9 104.9 97 101.9 99.9 114 110.7 102 105 104.5 92 94.7 85.6 74.9 78.6 79.5 77.1 79.7 80.3 79 74 65.4 65.4 65.4 65.4 65.4 65.4 65.4 65.4 65.4 65.4 65.4 65.4 65.4 65.4 65.4 65.4 65.4 65.4 65.4 65.4
38.5 43.5 52.1 64.2 61.4 69.5 79.6 91.8 78.1 71.7 69.2 65.3 56.1 55.3 56.4 56.9 66.3 99.3 113.2 120.2 123.3 118.4 107.4 117.6 116.7 113.5 106.3 100 95 97.9 100.9 98.9 97.6 101.1 94.3 91.5 90.7 99.9 101 101.4 100.4 96.9 97.7 99.8 90.9 90.4 90.7 87.8 86.4 77.1 68.2 67.2 65.2 74.8 79.1 72.5 80.8 102.9 101.6 96.9 87.6 94.4 86.6 77.1 70.3 68 77.1 89.2 85.4 94.3 95 90.6 90.4 85.9 82.2 78.2 74.9 76.1 71.7 62.9 62.8 64.8 65.2 65.3 65.6 65.5 65.2 63.5 64.7 72.5 78 83 87.9 92.8 101.6 101.9 98.6 92.8 89.8 89.8 100.4 100.2 99.5 92.9 90.6 89.5 85.6 79.4 74.7 79.4 82.6 76.7 72.8 66.3 66.1 66.6 69.1 73.2 75.6 82 88.7 92.2 93.5 92.7 93.8 93.6 92.9 88.8 82.9 76.6 69.2 65.4 65.4 65.4 65.4 65.4 65.4 65.4 65.4 65.4 65.4 65.4 65.6 71.1 77.3 90.9 115.2 129.6 134.4 132.8 124.1 112.8 110.7 106 104.7 111.2 138.7 137.4 128.1 113.2 100.5 103.7 107.7 107.5 111.6 105 99.4 100.9 99.1 89.3 85 79.4 85.2 84.5 82.2 79.2 70.8 69.2 72.2 73.8 65.4 65.4 65.4 65.4 65.4 65.4 65.4 65.4 65.4 65.4 65.4 65.4 65.4 65.4 65.4 65.4 65.4 65.4 65.4 65.4
38.9 48.7 52.9 58.1 65.9 70.3 79.4 82.8 75.9 71.4 72.5 70.6 62.4 59.1 61 58.7 62.1 88.5 100.5 119.4 119.6 112.6 104.7 112.1 116.7 108.7 102.7 92.5 89.6 91.9 97.7 95 97.8 99.7 102 93.3 94.3 100.9 101.2 100.7 98.8 95.4 93.2 88.5 83 83.5 73.2 70.7 69.5 68.9 68.9 77.7 90.5 87.8 84.6 84.9 93.8 106.5 106.7 103.9 98.8 98.2 100.8 78.5 77.1 74.3 95.1 93.2 93 104 109.3 97.2 91.9 88.7 82 79.3 78.5 74 67.4 62.9 62.3 64.1 64.5 64.8 65.1 65.8 64.6 62.7 61.3 61.4 68.5 80.3 89.1 102.9 111.4 102 96.2 92.3 89.8 89.8 90.4 99.3 93.8 95.2 94 86.4 77 73.1 70.7 70.5 72.2 80.3 74.9 66.1 66 66.9 69.8 76.1 79.1 82.6 89.7 94.5 96.7 95.4 92.4 87.8 86.1 82.7 78.8 70.7 65.4 65.4 65.4 65.4 65.4 65.4 65.4 65.4 65.4 65.4 65.4 71.1 87.6 89.3 93.9 98.8 106.8 122.3 142.5 143.5 129.2 121.9 122.5 117.2 109.1 114.8 126.7 137.5 128 106.8 107 110.2 107.6 105.6 104 101.8 99.8 100 91.1 89.4 83.6 90.1 94.8 98.2 84.9 83.4 83 70.5 69.2 65.8 65.4 65.4 65.4 65.4 65.4 65.4 65.4 65.4 65.4 65.4 65.4 65.4 65.4 65.4 65.4 65.4 65.4 65.4 65.4 65.4
46.1 57.5 59.4 68.7 72.5 64 67.4 72.3 73.7 82.5 82.5 70 60.2 79.8 87.5 91.2 77.8 89.2 112.6 113.3 112.5 110.8 101.6 111.1 112.4 105.1 98.9 91.4 88.7 88.1 89.4 94.1 97.8 101.8 103.5 95.9 92.8 93.4 99.4 98.6 93.9 87.9 85.8 77.4 76.1 80 78.7 73.6 71.3 74 75.4 77.6 93.4 85.2 84.1 81.7 98.3 103.1 110.3 108.6 95 97.1 95.4 84 79.3 78.4 95.2 93.2 93.5 107.7 108.6 98.8 91.9 89.3 82.6 83.8 78.9 73.8 68.1 64.4 61.9 63.6 63.6 64.4 63 61.2 61.5 61.5 63.1 61.3 61.3 76.4 87.9 108 105.7 106.5 102.1 95.8 92.7 94 95.2 92.3 87.3 86.4 86.2 76.8 73.7 71.9 68.3 68.2 70.5 71.2 69.1 66 69 74.6 81.2 80.2 83.5 94.1 93.1 95 96.6 92.7 91.1 84.2 81.9 77.9 70.5 65.4 65.4 65.4 65.6 65.4 65.4 65.4 65.4 65.4 65.4 65.4 65.4 93 110.2 122.4 122.4 136.1 128.5 129 126.2 132.2 136.3 126.4 135.8 130.1 121.1 113.9 109.9 112.7 109.9 111.5 121.2 115.5 111.3 111.7 113.4 113.1 108.8 106.4 106.9 99.5 89.9 93.1 96.4 97.7 86.6 83.1 80.8 75.3 69.6 65.4 65.4 65.4 65.4 65.4 65.4 65.4 65.4 65.4 65.4 65.4 65.4 65.4 65.4 65.4 65.4 65.4 65.4 65.4 65.4 65.4
54.8 63 61.8 71.6 62.9 62.8 64.7 70.4 85.4 91.5 77.8 61.2 60.4 75.2 93.1 97 104.2 107.9 103.3 103.3 104.2 101.1 101.1 110.2 108.8 101.6 99 94.6 90 86 90.4 93.7 99.2 96.6 97.7 97.3 91.3 86.5 93.4 92.4 85.4 84.8 89.3 90.5 84.2 85.2 89.9 73.4 73.5 75.2 75.6 77.2 87.7 75.4 71.4 78.5 89.5 94.7 105.2 100.7 91.4 98.2 94.8 77.8 76.6 78.1 84 90.3 94.1 102.1 105.5 97.1 92.1 92.7 88.3 88.3 80.7 74.2 69.4 63.8 61.6 62.5 63.3 62.8 62 62.4 63.5 64.5 69.3 65.6 61.3 69.2 79.6 87.8 87.4 99.2 103.9 101.6 103.3 105.6 106.2 101.6 88.7 80.6 79.2 75.9 74.6 69.1 66.4 66.8 65.8 67.1 65.8 67.1 85.4 93.4 89.8 87.4 95 91.1 90.9 89.7 89.5 89.9 87.1 78.8 73.3 70 67.4 65.4 68 73.5 74 76.3 65.4 65.4 65.4 65.4 65.4 65.4 88.2 106.6 125.5 141.2 148.4 147.9 148.1 146.5 151.5 148.3 138 137.6 143.6 142.7 127.2 117.3 107.8 106.6 106.2 114.2 124.1 119 118.9 120.9 121.1 119.9 115.7 111.5 106.9 97.8 96 95.8 98.1 94.8 87.2 84 80.1 78.2 71.4 66.2 70.2 65.4 65.4 65.4 65.4 65.4 65.4 65.4 65.4 65.4 65.4 65.4 65.4 65.4 65.4 65.4 65.4 65.4 65.4 65.4
56.9 61.2 61.1 61.9 61.1 76.1 81.2 88.4 89.3 87 69.4 72.1 61.6 61.6 85.4 106.4 114.3 114.8 113.8 106.1 101.5 102.3 105.1 102.9 100.2 96.2 91 92.1 92.6 87.6 92.4 91.7 100.4 93.6 92.7 84.1 81.2 81.2 81.2 91.4 100.9 103.1 102.8 96.8 85.9 86 81.4 71.6 71.1 75.3 74.9 74.8 73.9 68.5 68.7 81.2 88.8 99.8 103.3 96.6 90.4 98.9 92.3 77.6 76.6 79 83.6 85.4 91.8 108.5 108.4 96.5 89.6 87.4 87.4 89.9 85.2 77.4 72 66.6 61.1 62.8 61 61.9 63.7 63.9 65.4 70.5 69.8 66.6 66.3 61.7 66 71.8 93.5 103.3 110 105.4 105.6 105.4 104.2 103.4 89.5 83.2 74.9 72.5 70.3 66.5 64.7 66.2 71.7 69.7 70.3 76.2 93.4 100.9 101.3 99.7 101 93.2 90.7 88.8 86.9 85 76.5 66.1 65.6 65.4 65.4 74.6 73.2 74.5 87 84.6 71.7 65.4 65.4 65.4 65.4 75 94.4 114.8 133 153.6 169.1 167.6 167.7 167.5 166.7 168.8 166.8 148.7 137.2 131.4 117.9 112.5 108.2 106.4 106.7 109.4 116.9 118.5 121.7 128.7 124.6 123.5 125.7 106.5 102.5 100 99.7 98.3 95.3 93.3 90.7 88.9 81.1 74.1 72.4 66.8 65.4 65.4 65.4 65.4 65.4 65.4 65.4 65.4 65.4 65.4 65.4 65.4 65.4 65.4 65.4 65.4 65.4 65.4 65.4 65.4
65.8 64.2 60.5 59.7 66.8 88 95.1 94.9 87.1 70.3 73 76.1 63.8 62.6 92.7 98.9 111.5 111.3 112.3 107.3 105.8 109.2 106.9 98.6 97.4 97.2 87 86.3 84.9 83.9 88.9 98.7 93.2 82.7 81.2 85.3 81.2 81.2 81.2 97.4 101.7 104.1 101.6 96.6 84.6 86.4 79.2 70.2 70.4 74.7 75.5 74.1 71.9 65.8 62.7 80.3 87 94.7 96.9 86.6 91.8 92.9 84.2 79.6 76.9 77 85 81.3 82.6 93 107.4 93.8 89.5 87.4 89.7 93.1 90.8 87.9 79.6 69.7 63.3 60.5 60.9 63.5 64.1 64 64.3 65.2 65.8 67 66.3 61.3 61.5 67.1 89.4 104.5 108.7 103.1 102 97.8 95.6 94.2 89.9 79.6 73.2 66.7 65.4 63.7 63.2 64.5 70 74.6 78.4 86 101.1 102.3 107.4 112 97.8 87.2 86.6 82.8 78.7 68.2 65.4 65.4 65.4 69.9 71.6 72.1 86.8 84.2 82.9 72 66.4 65.4 65.4 65.4 65.4 65.5 84.8 114 138.4 163.8 183.7 184.8 176.5 182.8 180.7 181.4 173.6 155.8 144.4 125 115.7 118.3 109.2 107.1 106.8 108.7 109.9 113.7 115.2 119.1 127.3 120.7 110.7 102.6 99.8 98 97.3 96.2 98.3 93.4 92.5 90.5 77.3 71 73 66 65.4 65.4 65.4 65.4 65.4 65.4 65.4 65.4 65.4 65.4 65.4 65.4 65.4 65.4 65.4 65.4 65.4 65.4 65.4 65.4
74.4 73.7 67.8 63 69.4 97.9 100.4 94.5 77 75.9 81.6 71.9 68 67.5 80.1 103.5 101.8 100.3 108.2 109.6 115.8 113.7 103.2 95 93.3 93.9 88.7 86.7 85.4 81.2 81.2 81.2 83.3 85.1 91.3 84 84 84.4 88.8 94.7 96.7 104 99.8 88.7 78.8 76.3 69.2 68.7 69.5 75.9 89.9 77.1 68.4 62.7 62.7 79.2 87.7 87 83.8 86.8 93.4 92.5 83.1 79.2 78.1 78.9 88.6 77.7 76.4 81.3 81.2 85.5 87.2 94.2 96.3 95.1 94.8 94.1 79.8 66.6 63.1 60.5 60.8 63.9 64.7 64.6 64.6 65.6 66.8 67.5 67.1 64.8 61.3 66 73.4 93.3 103.3 94.9 76.3 80.7 77.8 78.2 72.2 70.6 69.5 67.3 61.6 64.1 62.5 67.8 69.6 73.8 85 93.5 97.6 89.4 86.5 85.8 79.4 71.6 71.8 65.5 65.4 65.4 65.4 65.4 65.4 69.4 72.7 73.5 72.8 67.9 65.4 65.4 65.4 65.4 65.4 65.4 65.4 84.9 108.1 127 151.3 173 185.2 190.2 183.3 188.6 192.4 184.8 167.4 142.5 131.2 128.5 127.5 128.4 114.4 119.2 112.3 118 125.9 126.3 124.1 119.8 117.6 105.9 103.3 101.4 104.1 104.7 99.5 100.7 102 101.1 94.3 94.7 85.5 76.7 74.4 71.7 65.4 65.4 65.4 65.4 65.4 65.4 65.4 65.4 65.4 65.4 66 65.4 65.4 65.4 65.4 65.4 65.4 65.4 65.4 65.4
79 86.3 85.9 85.3 81.6 90.4 83.1 79.9 74.3 78.5 79.9 80.4 74.5 73 78 90.9 93.3 91.9 105.9 119.4 113.9 110.1 97.4 85.1 90.1 88.6 91 83 83.3 81.2 83.1 88 87 87.8 90.2 97.5 99.4 97 94.4 89.1 95.5 99.7 96.6 87.6 74.9 67.2 66.9 67.4 72 81.4 83.1 73.1 62.7 62.7 62.7 73.9 82.2 87.6 85.5 77.4 81.7 86.1 82.9 78.4 87.9 93.4 88.3 87 81 80.7 76.7 78.2 82.5 90 99 92.5 92.3 89.3 77.8 66.7 69.4 64.5 61.6 63.6 64.5 64.9 66.2 75.4 68.2 68.2 67.9 68 65.8 61.2 69.2 77.2 84.7 92.1 73.5 74.3 69.4 70.1 71.1 66.8 64.1 61.6 63.6 63.7 63 68.2 68 69.2 70.7 71.2 74.2 72.2 70.6 70.3 68.6 65.4 65.4 65.4 65.4 65.4 67.8 68.6 66.8 70.8 74.1 83 88.7 84.1 65.5 65.4 65.4 65.4 65.4 65.4 69.9 102.6 132.4 143.5 165.6 177 184.6 189.1 192.6 194.3 188.7 174.1 156.3 142.4 138.3 143.1 143.6 126.8 121.6 122.5 127.2 128.5 139.9 144.8 151.8 146.9 136 108.7 104.2 103.8 111.2 114.2 112.5 114.1 115.3 109 107.9 96.2 86.9 77.4 71.7 65.4 65.4 65.4 65.4 65.4 65.4 65.4 65.4 65.4 65.4 65.4 65.4 65.4 65.4 65.4 65.4 65.4 65.4 65.4 65.4 65.4
94.8 96.2 97.3 101.7 99.7 89.7 76 73.7 85.9 84.1 88.5 90.2 85.6 77.6 88.9 96.2 85.1 85.3 99.8 110.6 110.5 106.6 92.2 78.9 84.6 88.7 90.7 80.6 83.9 102 105.1 100.3 87.5 88.5 89.8 96.3 101 101.9 102.4 102.2 104 96 87.8 81.3 69.9 67.4 66.5 67.9 72.7 75.4 77.6 62.7 62.7 62.7 65.4 71.9 84.3 79.5 79.3 77.9 94.1 84.3 80.2 81.1 86.7 94.7 84 83.9 83.8 81 73.9 72.1 75.7 83.3 80.9 81.6 75.2 77.6 66.8 65.1 65.2 68.1 61.3 65.2 81.6 85 86.1 81.5 74.8 72.7 71.9 70 69 65.1 61.6 68.6 75.7 70.6 71.9 68.3 68.1 69.7 70.7 64.6 61.8 63.4 66.6 64 62.8 63.7 65.4 67.7 68.3 69.5 71.7 70.4 69.9 69.8 65.9 65.4 65.4 65.4 65.4 67.4 70.7 73.3 74 74.6 82.7 93.1 110.8 96.4 81.8 94.4 101.5 83.2 68.5 66 83.4 114.6 123.9 140.6 162 177 190 187.6 182.3 188 180.8 166.7 155.1 155.9 149.1 154 145.8 133.5 141.9 139.4 131 134.6 149.5 158 155.4 150.1 127.8 111.6 121 122.8 118.9 127.2 135.7 133.4 130.4 130.4 121 113.4 96.7 92.4 78 65.4 65.4 65.4 65.4 65.4 65.4 65.4 65.4 65.4 65.4 65.4 65.4 65.4 65.4 65.4 65.4 65.4 65.4 65.4 65.4 65.4
105.2 101.7 103.2 103.4 98.7 82.4 74.3 74.6 89.9 92.1 92.5 91.7 84 76 87.5 84.8 79 83.8 91.1 93.5 90.2 89.3 76.5 75.3 81.7 83 83 93.5 102.2 105.8 105.9 103.5 92.5 91.4 90.8 95.2 102.3 106.4 106.5 108.3 107.6 99.6 91.8 72.3 68.6 68.5 67 66.7 67.7 69.8 62.9 62.7 62.7 62.7 62.7 73.5 75.7 78.7 77.1 77.7 88.5 82 93.9 92.9 90.4 93.1 82.3 82.8 85.3 85.6 77.2 70.1 70.2 71.9 75.8 69.9 65.4 64.3 64.5 64.9 63.5 62.1 60.2 71.3 84.4 97.6 89.9 78.9 76.2 72.6 73.2 76 73.4 68 64.6 61.3 65.8 66.6 67 68.2 68.5 69.2 62.2 61.3 61.6 61.4 67.9 69.4 70.7 70.8 63.6 64.9 70.6 70.4 71.4 71 71.3 74.4 65.4 65.4 65.4 65.4 65.4 68.8 72.9 80.2 77.2 82.4 95.2 104.4 105.2 103 104.1 123.7 119.6 102.5 93.2 95.9 105 105.3 111.1 121 150.5 164.8 166.7 178 183.5 185.7 173.8 165.1 166.2 176.3 166.3 162.6 151.9 151.4 152.4 149.9 142.8 144.7 157.3 156.9 152.3 133.3 126.4 124.3 130.8 137.1 138.5 149.8 147.3 148.1 139.8 135.7 129.3 116.9 108.1 98.4 84.7 75.6 71.6 65.8 65.4 65.4 65.4 65.4 65.4 65.4 65.4 65.4 65.4 65.4 65.4 65.4 65.4 65.4 65.4 65.4 65.4 65.4
97.4 91.5 94.7 93.7 76.3 72.4 74.5 81.3 88 92.3 96.6 94 82.8 71.6 69.9 72.2 74.8 79.9 79.7 72.9 72.9 72.9 73.6 77.6 88.7 85.3 88.6 101.7 104.7 104.8 107.1 104.3 91.3 96.7 100.2 98 104.7 107.1 109.2 108.6 105.3 98.6 87.8 73.9 69.2 72.6 68.5 64.8 64.6 66.8 62.7 62.7 62.7 62.7 67.4 72.3 80.5 84.1 82.2 75.1 80.8 81.8 100.9 99.3 94.6 86.2 81.1 81.7 88.8 85.8 80.9 79.6 68.5 65 66.5 61.4 61.1 60.3 60.6 62 60 60.2 65.8 76.4 85 80.2 73.2 70.6 71.5 74.6 80.1 79.8 75.6 70.1 66.6 61.7 62.6 63.7 65.7 66.5 66.1 65.1 61.3 61.3 61.3 64.2 69 72.4 77.8 81.9 73.6 66.1 66.3 69.7 69.9 70.5 71.5 68.1 65.4 65.4 65.4 65.4 70 75.3 79 78.3 79.7 84 91.1 104.5 124.2 132.4 144.3 142.8 131.8 123.7 127.6 119.1 123.8 127.8 118.5 134.6 147.8 163.4 171.1 179.2 183.1 171.8 166 166.7 184.6 177.6 170.7 170.1 172.7 175.1 175.3 172.9 164.9 150.5 148.8 143.7 136.3 129.7 132.2 141.4 150.8 149.4 157 169.8 163.6 171.1 163.8 143.6 132.5 125.4 118.8 103.2 91.2 83.5 92.1 84.3 73.1 65.4 65.4 65.4 65.4 65.4 65.4 65.4 65.4 65.4 65.4 65.5 76.2 79.5 81.9 81.8 65.4 65.4
88.1 82.8 85.8 69 69.5 73.5 74.5 87.8 93.7 94.1 93.3 91.1 85.4 71.1 66.6 68.6 72.6 72.9 72.9 72.9 72.9 75.7 79 90.9 94.7 79.6 87.4 100.9 103.3 109.6 108.7 103.2 94 100.2 101.6 104.7 102.1 102 106.8 106.6 100.3 93.6 79.6 76.7 67.5 69.7 63.6 64.6 67 70.2 62.8 68.3 62.7 64.9 71 76 80.7 75.7 73.8 72.5 75.4 79.3 94.1 97.2 91.5 82.8 78.9 82 81.8 86.5 80 72.9 70.6 64.9 61.1 61 63.8 65.8 60.7 60.5 62.2 63.5 66.5 67.7 67.9 68.6 69.5 69.3 70.3 72.6 80.2 76.8 74.4 69.5 67.6 67.1 61.3 61.5 65 65.4 63.6 61.3 61.3 61.4 63.9 67.8 70.1 71 83.7 82.4 78.9 74.7 68.4 65.4 72.3 71.4 70 65.4 65.4 65.4 67.5 70.6 74.4 82.1 81.2 80.7 81.4 83.5 89.9 121.7 146.4 155 153.4 137.2 133.7 127.6 131.6 128.8 127.6 128.8 129 148.7 155.8 179.9 192 183.4 179.3 174.2 172.1 183.1 183.4 184.7 173.8 188.3 194.8 191.1 189.8 186 172.2 157 148.5 142 140.1 134.2 153.7 170.2 161.8 170.8 183.6 187.9 181 187.6 177.2 167.9 153.4 143.1 130.9 114.4 94.2 97 101.5 91.5 70.8 65.4 65.4 65.4 65.4 65.4 65.4 65.4 65.4 65.4 65.4 69.4 81.9 93.8 98.6 89.6 69.7 65.4
80.6 74.5 58.8 61.2 65.4 72.7 79.2 87.2 87 88 87.4 74.2 77.2 68.9 67.3 81.2 77.6 83.8 89.7 86.3 86.6 81.3 84.6 94.5 81.8 77.6 84.2 99.2 103.7 103.6 102 94.1 95.5 102.7 103.3 103.1 101.8 101.1 98.7 100.8 94.2 86.4 74.6 67.7 64.1 63.3 63.9 66.6 67.3 65.1 63 66.4 74.9 70.3 70.9 73.6 74.4 78.9 72.7 68.2 73 80.4 90.1 89.2 81.1 75.4 74.3 76.2 82 79.2 74.2 72 69.8 61.2 60.6 63.8 69.1 64.5 60.7 60.1 62.8 65.9 66.8 67.7 67.7 68.5 69.4 69.9 70.2 70.5 73.8 78.8 75.9 71.6 68.8 68.4 66.5 61.8 61.3 62.3 61.3 64.6 61.3 68.4 71.5 80.9 88.4 98.8 91.4 81.6 79.7 75.2 74.3 71.5 65.3 65.4 65.4 67.6 66.8 68.6 72 73.2 82 88.1 84.9 83.4 84 88 98.1 124.1 143.5 140.2 130 122.9 118.1 119.1 120 125 134.6 142.6 141.1 156.5 185.5 202.9 197.2 183.8 178.1 175 183.2 181.9 190 207.1 197.4 205.4 206.2 200 200.2 200.7 185 157.2 151.6 149.4 147.7 159.3 180.9 184.6 174.6 180.3 189.7 197 193.9 193.5 189.1 182.2 171.9 160.6 141.5 124.1 106.9 106.6 109.8 91.4 71.2 66 65.4 65.4 65.4 65.4 65.4 65.4 65.4 65.4 65.4 69.3 81.1 93.1 102.9 95.8 80 65.4
61.9 58.4 55.8 54.5 54.8 56.9 60.6 66.4 71.9 64 57.3 58.6 58 58.8 61.7 76.7 95.7 97.5 105.3 105.5 105 99.5 97 93.4 78.7 76.6 89.6 100.8 102.4 96.9 95.8 94.7 94.7 97 102.3 105.1 101.3 101.3 98.2 90.8 87.5 92.5 77.6 65.4 63.3 68.6 69.1 68.4 68.1 64.3 64.8 69.4 75.5 75.5 72.7 73.9 74.9 77.8 75.5 67 68.3 81.5 79.8 74.4 74.7 71.7 68.9 67.5 68.3 78.3 83.4 78.7 65 60.4 64.7 75.4 68.5 70.3 61.1 63.2 63.8 65.9 66.8 67.3 69.2 72.5 76.6 70.7 72.1 72.9 73.4 74.2 81.2 75.3 71.6 67.4 67 64.4 61.6 62 62.1 61.7 67.7 74.2 91.9 95.1 95.4 97.8 94.3 84.8 78.2 78.2 77.7 77.3 74.8 73.6 65.6 71.7 71.5 72 73.1 76.6 84.6 91.4 86.1 85.4 89.6 93.7 113.6 124.9 129.9 118.2 112.2 112.6 115.5 119.5 131.9 151.6 158.6 161 162.6 183.6 198.3 202.4 197.2 186.7 182.8 176.6 177.9 200.8 213 209.6 218 218.2 209.9 204.2 203.8 204.1 188.3 157.5 152.8 155.8 166 192.2 200.4 195.9 192.9 201.6 205.6 207.6 199.7 196.6 193.4 188.8 179.6 162.7 141 132 118.3 106.5 101.7 87.1 77 74.3 71.2 65.4 65.4 65.4 65.4 65.4 65.4 65.4 65.4 65.4 78.9 88.5 91.2 87.6 88.5 65.4
55.3 47.3 44.4 52.1 52 53 52.6 52.2 47.1 45.4 48.3 56.6 62.3 74.6 80.8 97.1 98.7 105.6 107.2 102.2 96.8 99.4 103.7 84.9 74.3 74.9 86.4 101.5 98.5 97 96.2 96.1 95.3 95.6 103 103.4 100 98.2 93.2 90.3 84.8 77.8 76.3 62.5 74.8 75.3 71.6 73.2 65.5 64.3 64.4 69.5 80.1 84.1 80.2 84.6 81.1 89.2 74.5 60.4 63.1 68.6 69.2 67.9 62.8 62.1 63.2 67.8 85.1 81.7 76.7 67.1 60.3 61.3 65.1 67.2 71.1 66.7 64.8 65.7 65.9 72.9 73.2 78.8 85.9 77.5 81.7 73.8 80.6 74.1 74.4 74.8 84 82.9 75.5 69.9 66.8 66.1 66 62.2 62.3 62.8 73.1 96.2 103 105.2 96.3 93.9 91.9 81.7 80 84.3 83.9 90.4 96.7 82.9 73.9 71.6 67.8 71.1 73.5 80.2 81 78.5 79.8 84.8 89 93.6 108.4 106.7 95.3 96.1 106.3 114.1 127.8 138.5 144.3 158.6 173.5 184.3 189.4 192.6 197.7 205.1 193.3 184.9 179 180.4 200.1 217.7 223.2 229.4 231.7 225.6 214.1 205.8 199 182.9 171.6 154 156 164.6 182.1 197.6 202.4 204.3 207.8 212.9 214.3 220.4 210.8 205.4 198.5 186.6 174.2 157.9 147.3 141.3 124.4 112.4 108.5 99.2 87.4 82.1 76.5 70.7 65.4 65.4 65.4 65.4 65.4 65.4 65.4 65.6 74.7 80.8 76 75.2 71.6 70.5
40.5 43.6 50.4 59.3 60.1 57.5 53.9 46.2 43.5 46.8 57.2 61.3 66.5 78.8 90.1 96.9 97.7 109.1 109.7 106.5 93.4 93.5 93.8 75.6 73 74.9 86.1 93.6 97.1 99.5 96.8 96.2 104.7 99.5 108 105.2 97.3 91.8 89.3 92 80.8 79 63.1 67.5 71.9 79.4 71.6 70.6 69.2 66.1 66.4 72.3 79.3 77.6 76.4 79.6 81.3 75.1 64.3 59.2 71.1 72.3 62.1 59.4 59.6 59.8 61.2 63.6 65.2 67.5 59.7 59.8 59.9 69.3 71.2 67.6 67.9 67.2 66.9 71.5 75.5 98.7 98.2 111.2 98.8 96.6 88.7 76.5 75.5 77 76.1 76.3 78.4 80.7 73.2 70.5 70.7 68.8 68.8 63.2 63.3 63.4 78.5 100.5 109 105.4 103.3 99.2 88.8 83.9 85.7 89.8 93 91.8 90.3 74 72.9 71.8 71.4 73 75.5 78.4 75.4 76.4 77.4 79.8 81.3 82.7 83.4 83.3 84 90 103.2 118 134.3 151.5 170.2 175.9 195.1 199.4 203.5 206.8 200 196.2 188.6 182 185 195.9 213.5 223.4 229 229.9 226.1 218.8 211.1 202.1 183.4 174.7 158.4 160 159.3 171.7 185.8 191.7 204.3 218.1 222.2 224.3 217.1 223.8 215.2 207.3 200.3 188.3 175.3 163.5 152.8 142.7 132.6 134 121.7 109.9 97.2 92.1 84.8 75.5 76.5 70.4 71.8 66.2 66.2 65.4 65.4 71.1 72.6 73.1 70.7 70.4 71.1 75.7
39.8 39.8 53.7 56.8 61.6 53 56 69.1 50.9 42.4 54.6 60.9 68.5 76.5 85.7 92.9 100.9 103.6 106.7 103 92.3 84 68.9 63 79.5 74.6 80.2 85.9 88.3 87.7 94.6 102.9 95.7 96 97.2 97.4 95.1 92.3 83.6 83.7 81.7 69.4 66.2 69.5 67.8 68.7 71.1 76 68.6 69.5 71.1 73.5 80.7 79 69.9 69.1 70.5 61.9 56.7 62.4 69.1 66.5 61.8 75.2 73 62.8 60.1 59.7 59.7 59.2 59.1 61.3 61.2 63.3 68.6 68.6 67.9 70.7 68.7 79.2 88 113 113.6 114.6 108.9 105.9 99.4 88.3 80.3 78.2 75.5 78.5 79.1 77.7 78.3 71.2 70.7 68.4 65.8 63.4 64.2 64 77.3 97.3 103.2 100 93.3 86.4 87 86.9 90.2 94.3 86.7 82.4 78.6 80.2 82.7 75.9 78.8 85.8 75.5 74.8 75 75.4 77.3 78.9 79.7 78.4 79.1 81 86.6 96.3 112.7 128.3 141.2 158.2 173.8 200.1 206.1 205.2 210.5 209.2 201.7 198.4 193.7 191 209.4 214.8 215.1 234.9 245.2 235.6 227 216.2 204.9 185.3 182.6 177.4 173.7 166.8 170.5 182.9 192.8 202.7 213.4 222.3 224.1 229.9 219.9 219.6 215.2 206.9 197.4 195.7 181.7 171.5 158.9 149.5 148.9 153.7 135.4 119.5 109.3 108.3 91.4 82.4 85.6 89.1 82.1 78.5 70.8 65.4 68.8 72.4 72.5 71.9 72 72.8 71.4 68.3
44.2 41.3 40.3 41.5 44.4 42.9 50.1 41.3 42.8 45.5 57.9 68.1 78.7 80.2 85.8 92.8 98.8 98.4 97.7 85.8 79.5 74.6 61.4 68 71.2 71.1 73.6 78.3 83.8 86 87.9 86.6 88.5 91.5 95.2 96.8 95.8 91.2 85.9 78.1 64.1 55.1 67.5 67.4 67.5 69.4 73.8 71 69.8 76.8 75 75.4 77.9 73.8 67.7 65.3 68.1 60.9 57 61.6 64.8 61.5 70.4 75.4 74.2 70.5 66 59.4 59.9 59.9 59.8 60.4 60.6 62.1 65.7 67.5 67.9 67.7 70.7 76.3 88.6 101.3 106.2 100.6 103.2 96.9 96.4 101.8 91.2 76.9 75.2 77.7 74.2 75.7 72.2 72.6 71.7 72.7 68.9 65.7 64.3 68.5 64.6 85.6 91.1 79.4 78.5 79.5 83.9 86.5 86.1 85.1 81.4 78.7 77.7 80.8 82.2 83 84.9 83.1 76.7 75.2 75.8 76.2 78.6 79.1 77 78.1 83.3 87.5 94.6 106.9 125.3 138.3 149.7 171 197.3 207.3 210.4 208.3 205.6 201.3 199.8 204.2 201.2 213.3 225.5 235.9 237.1 239.6 235.1 228.2 216.5 201.9 188.4 186.7 193.7 191.7 178.8 173.7 183.9 202.5 217.8 229.3 232.1 236.8 235.9 226.2 224.8 221.6 212.8 205.2 201.3 198.6 189.5 181.6 172 161.9 163.1 160.2 146.5 126.6 120 117.9 102.6 88.1 91.8 98.4 86 80.1 73.3 70.5 72.7 79.3 73.3 73.8 73.9 76.7 73.5 67.3
61.6 55.9 50.4 48.5 61.7 51 42.7 41.4 42.8 46.6 56.7 68.8 78.7 76.7 85.6 92 97 93 85 76.7 69.4 57.3 56.7 68.2 65.1 64.4 75.7 81.5 88 83.1 80.9 80.4 88.8 92.4 89.4 99.2 95.1 86 82.6 68.1 56.8 53.8 59.2 65.5 69.7 77.4 87.7 78.6 74.6 74.2 73.6 76.5 68.9 69.5 65.9 66.3 63.3 54.6 60.4 54.3 67.8 75.8 73.4 72.7 72.4 71.1 65.2 63.2 62.2 63.2 67.2 66.4 63.6 73.9 67.3 65.6 66.3 66.8 66.3 68 79.7 95.4 86.1 86.4 87.7 89.5 92.6 97 78.4 75.4 74.4 74 73.2 71 70.5 69.7 68.3 69 68.3 64.9 68.2 75.6 75.5 66.3 74 73.7 74.2 76.9 87.3 88.1 86.2 84.7 81.7 78.6 78.8 79.3 81.6 83.8 86.2 83.1 82.6 78.5 76.7 78.1 79.3 79.1 79.1 81.6 82.6 89.9 103.3 114.7 129.6 145 156.1 181.2 196 204.9 205.1 201.1 205.7 202.1 211.8 213 222.9 222.5 244.3 256.1 253.3 242.7 228 217.2 206.9 191.1 187.1 190.6 198.3 191.7 177.3 189.7 201.7 205.7 224.2 236.9 237.7 241 239.8 238.1 234.7 225 214.6 212.7 214.3 208 199.9 194.3 189.4 184.9 182.3 171.9 152.3 137.8 126.9 120.8 110.9 102.1 102 100.5 90.3 86.4 80.3 73.2 76.1 76.4 75.7 81 77 73.7 68.9 71.6
77.1 69.3 72.9 79.4 88 81.2 73.4 56.5 46.4 45.7 53 57.5 63.7 67.6 83.1 87 86.4 82.7 78.8 74.6 63.2 56.7 56.7 63.4 61.1 65 81.1 88.1 76.6 69.1 70.8 73.6 81.5 89.2 77.8 83.9 83.1 80.1 73.8 67.3 53.3 53 59.3 66.2 67.7 78.5 72.9 74.5 73.1 77.6 68.7 66.2 67.5 70.9 60.6 62.8 54.9 52.6 59.7 73.8 78.2 81.2 78.4 74.5 72.4 70.4 70.4 83 82.8 90.8 81.7 77.1 93 88.9 80.5 76.2 72.8 72.8 67.3 79.1 75 84.6 82.5 82.6 84.5 84.9 86.5 81 75.7 77.7 89.6 83 77.9 72.9 73.7 78.9 72.6 67.9 69.1 67.9 72.9 75.2 74.6 74.6 71.8 70.6 74.4 78.2 82.4 92.5 89.8 83.4 81.9 82.3 85.9 80.6 83.4 85.1 87.7 100.2 96.9 83.7 79.4 80.4 84.5 84.4 86.4 89.7 90.4 91.6 107.9 126 134.3 144.5 150.2 171.6 191.1 195.7 193.4 203.5 203 211.6 223.5 236.5 249.7 248.9 259.9 256.3 247.9 241.1 238.5 222.3 207.9 191.5 191.9 195.4 195.5 192.7 189.6 192.1 203.6 224.6 227.3 238.2 242.4 245.5 243.1 248.3 244.9 243.6 236 224.5 226 216.4 215.3 210.5 209.6 208.6 197.4 180.2 161.7 150 137.5 131.2 119 115.5 109.1 105 94.5 93.8 82.6 75.4 77.6 78.1 82.8 78.8 76.8 69.7 74.9 86.3
81.5 80.7 91.3 91.3 94.2 93.9 80.2 82.7 74.8 56.9 52.3 51 53.3 57.6 66.6 77.2 81.2 73.9 73.6 62 62.1 56.7 56.7 61.9 58.2 63 76 73.3 69 70 69.3 70.3 77.3 75.1 71.5 71.5 68.1 65 59.9 53.8 51.2 54.8 68.4 72.4 72.6 78.3 81.8 74.1 70.9 69.1 65.5 60.5 63.2 63 52.2 49.3 50.7 64.2 78.2 69.9 69.7 74 76.8 89.9 80.2 73.2 89.6 102.6 92.1 91.2 92.9 109 114.7 112.7 102.4 98.6 95.5 89.4 79.6 80.3 90.2 84.2 81.8 82.3 84.5 87.3 85.7 81.6 85.9 99.3 104.8 101.1 87.6 75.8 76 77.2 73.7 68.6 66.6 69.4 73.6 75.4 76.5 78.1 80.2 76.3 74.3 79 89.2 91.4 95.9 91.6 85.1 86.5 89.5 84.9 89.1 91 94.6 99.2 103.5 91.2 84.6 86.9 88.5 88.1 90.1 94.1 102.5 103.8 112.1 123.2 134.2 138.1 142.9 171.9 178.4 186 202.6 206.2 209 226.1 233.9 255.6 260.4 266.4 269.3 270.5 263.7 250.6 240.4 240.2 225.8 205.4 205.2 200.7 204.3 194.2 200.1 199.4 216.3 241.9 246.5 239.8 238.9 248.2 250.3 254 263.6 263.2 261.9 247.5 229.1 228.1 223.9 224.7 231 225.7 208.6 192.6 171.8 159.7 150.3 137.6 130.2 119.6 111.6 113.1 108.6 104.8 84.9 78 78.7 79.2 78.7 77.4 71 74.5 81.3 95.7
81.5 107.1 105.8 102.4 97.2 85.9 85.6 85.8 72.5 59.8 60.2 58 54.7 53 53.3 57.6 68.4 68.9 58.9 56.8 57.8 57.1 56.7 56.7 56.7 56.7 59.2 58.3 62.2 57.5 66.6 70.9 76.8 71.3 71.6 71.6 66.4 60.9 52.6 51 51 60.2 76.3 84 86.8 91.7 84.6 70.4 71.1 70 58.7 55.8 65.6 54.5 49.1 62.6 62.1 70 75.7 64.9 78.2 85.9 98.7 93.4 90.1 82.4 112.8 120.1 105.1 94.9 96.4 109.6 118.2 124.7 125.5 125.6 116.6 93.5 81.1 89.5 90.9 85.9 82.5 82.7 83.4 86 90 94.3 101.8 115.3 113.6 94.7 85.1 83.9 86.2 81.7 74.7 75.3 70.8 73.3 78.1 79.7 80.5 82.5 82.5 80.7 75.3 78.8 93.9 91.7 88 89.1 89.5 92 88.5 85.9 89.4 91.5 98.8 108.4 105.5 101 93.6 98.3 99.1 97.8 102.3 102.3 103.3 103.8 106.7 111.4 118.2 125.8 137.5 159.2 185.2 198 202.9 204.6 225.8 237.4 252.9 263.8 276.8 286.8 295.7 292.6 276.5 260.3 249 240.7 227.4 213.7 211.2 206.4 213.6 218.3 204.2 205.9 219.4 253.5 263.7 264.2 257.8 259.4 256.1 261.8 263.8 270.4 271.1 264.7 248.6 237.6 231.2 237.1 239.2 232.7 219.9 205.5 182.8 167.9 156.9 148.5 135.4 125.8 125.9 119.5 114.1 102.2 94.8 82.8 81.8 80.8 78 73.3 74.2 79.2 79.9 88.3
81.5 90.7 104.8 104.5 97.1 86.2 94.6 87.7 73.9 63.5 60.8 59.6 57.4 60.3 54.3 57.3 60.9 56.6 56.7 56.7 59.3 56.9 56.7 56.6 56.7 56.7 56.7 56.7 56.7 59.5 62.8 66.9 69.3 71.5 72.6 71 62.9 52.2 50.2 50.6 54.2 68.4 79.8 89 96.7 92.2 76.2 68.7 69.6 64.6 62.3 49.9 49.9 45.3 49.3 53 53.1 62.8 65.5 60.1 80.4 96.4 104.9 102.5 88.7 105.2 120.6 113.9 107.2 104.3 100.9 117.2 127.4 131.9 134.4 133.6 123.8 104.1 84.9 88.9 84.4 82.5 83.2 85.6 99.3 95.1 103.6 102.4 106.6 111.1 102.4 91.4 85.6 93.7 94.2 92.9 85.9 81.3 81.1 81.1 86.4 84.9 86.8 88.2 87.2 80.7 80.1 77.6 75.6 86.1 82.5 83.5 86.7 93.2 89.4 87.8 88.9 93.2 102.8 105.6 107 103.1 116.4 123.1 119 107.2 108.8 110.4 104.9 104.1 106.8 114.3 125.2 131.1 150.9 168.9 184.3 185.1 201.5 209.9 216.6 235.2 259 285.2 305.7 309.9 310.4 299.4 285.2 266.5 248.4 239.6 238.4 232.6 221.9 219.1 218.9 227.5 230.7 215.1 226.7 248.9 259.3 263.7 265.8 276.3 281.6 279.7 272.4 269.6 276.8 276.2 256.9 242.9 238.8 244.8 244.2 237.6 227.9 212.5 196.8 178.3 167.8 153.2 144.3 136.9 130.1 120.2 113 102 95.9 90.1 88.6 82.9 76.4 76.7 83.9 76 76 80.3
92.5 82.4 81.2 82.6 86.4 79.7 90.4 89.7 82.9 65.1 62.2 65.8 73.3 60 55.7 55.5 66 60.1 62.2 56.7 56.7 56.7 56.7 57.8 56.7 67.4 64.3 60.6 56.7 57.1 62.6 59 60.1 64 60.5 56.8 60.4 50 49.9 51 52.7 69.7 82.5 98.5 97.4 79.1 67 64.5 61.5 59.9 54.7 47.2 44.5 43.8 45.2 46.6 49.7 52.3 54.3 56.8 73.7 98.7 91.4 86.9 87.9 107.8 123.8 124.8 126.9 125.9 115 117.3 123.9 125.8 129.3 129.3 124.2 115.5 95.9 85.7 83.6 83.1 85 91.6 95.5 111 114 105.7 105.3 105.5 95.4 97.1 104.9 102.5 100.4 92.9 89.7 83.5 88.4 89.3 99 97.7 102.8 98.1 86 81.5 82.1 81.9 80.9 83 80.1 82.3 85.6 92.3 93 87.6 89.9 96.5 103.9 113.7 112 117.5 132.3 143.2 125.9 115.3 115 120.5 111.7 108.5 117.2 129.8 138.4 149.1 167.1 172.6 176.4 191.6 199.7 213.3 230.6 255.2 284.7 311.8 319.3 317.9 313 303.1 284.7 261.7 243.1 245.6 244.7 236 225.2 220.5 225.5 236.1 232.9 234.4 237 260 257 259.5 268.7 281.4 290.3 297.3 288.6 283.9 279.2 269.6 257.3 254.7 247.2 244.3 244.7 243.3 232.1 215.4 199.5 188.6 172.3 160.4 154 147.1 132.7 122.2 112.3 103.2 97.1 95.4 91.9 86 78.4 79.6 83.3 76 76 76
90.9 87.3 80.8 78.1 78.1 78.1 78.1 77.9 78.3 70 66.1 78 70.8 63.9 58.6 56.6 57.5 69.6 62.9 58.5 56.9 56.6 56.7 56.7 62.7 66.8 66.9 59.8 59.3 57.3 55 58.8 60.7 57.9 57.8 63.6 56 49.9 52.1 53.7 57.5 78.1 83.8 87.3 80 66.6 65.5 64.8 65.9 60.1 55.7 44.7 44.2 43.1 44.3 46.8 48.4 51.4 57.8 58.7 64.2 73.7 85.2 83.6 96.3 120.3 133.9 139.2 137.8 134.3 121.4 123.9 126.8 128.3 134 130.4 119 111.9 97.4 96.5 89.1 86.4 90.3 90.4 99.3 109.5 107.4 104.8 101.6 116.9 119.4 111.7 119.6 112.2 98.8 91.5 96 91.1 97.8 102.4 105 113.5 111 94.6 88.7 88.5 88.5 86.6 83.2 84.6 84.2 82.8 86.4 89.3 91.2 92.4 95.8 99.1 111.3 117.7 119.8 122.2 133.3 137.9 130.9 129 124.3 128.4 125.9 120.7 135 147.7 163.1 167.9 171.2 174.1 194.5 205.3 216.8 239.5 258.1 287 313.2 324.2 327.5 324.1 321.2 291.3 268.7 249.5 243.6 246 242.3 234.9 230.4 232.3 238.8 245.6 249.2 243 241.9 255.7 253.3 259.1 268.5 275.3 289.7 294.1 290.7 287.2 283.4 269.2 263.5 260.9 253.9 255.7 248 235.4 225.1 216.9 203.1 187.3 172.3 168.4 161.5 154.7 138.1 124.6 114.6 104.8 102 97.7 94.5 86.1 81.7 82.1 86.2 79.6 78.2 76.3
96.4 86.7 78 78.1 78.1 78.1 84.2 84.6 75.7 74.4 73.1 78 70.3 71.4 61.3 53.3 57 66.6 60.4 61.7 70.2 71.7 62.3 59.2 65.6 57.7 53.5 53.5 52.8 50.2 51.1 53.4 55.1 58 60.8 57.4 49.7 51.9 55.4 55.6 65.9 83.4 84.9 76.8 69.9 66.6 64.7 65.1 73.1 58.9 46 42.6 43.2 42.9 44.6 46 47.5 51.2 52.7 57 64.7 74.3 75.1 83.4 100.3 119.6 138.6 143.2 143.6 137.6 127.8 133.2 129.2 132.7 129.5 123.6 113.8 107.3 98.7 99.8 99.4 103.2 99.7 106.7 108.4 111.9 107.6 109.6 109.7 123.3 130 114.7 112 110.8 105.3 102.6 106 96.9 105.4 113.2 121.8 118.7 102 97.6 95.6 107.7 112.8 98.6 90.5 88.9 86.2 85.9 86.8 92 92.7 94.2 103 114.4 119.3 131 132.1 129.7 129.9 133.2 136.8 139.5 150.8 141 138.6 141.1 169.7 174.8 178.7 172.9 180 206.9 213.3 224 247.6 261.6 291.1 309.6 318.8 325.2 326.7 320.9 298.5 271.1 254.4 245.2 242.4 241.5 238.9 240.4 237.7 238.7 261.3 258.6 259.1 246.5 248.1 254.9 259.9 260.4 264.1 270.5 274.9 284.2 281.9 281.6 275.6 275.4 271 267.1 268.3 261.5 255.5 238.4 227.9 228.3 210.2 193.6 182.4 176.5 171.2 164.8 139.8 126.3 116.1 109.5 106.6 99.9 92.8 91.4 89.7 90.5 90.6 85.3 81 79.8
87.9 82.2 80.9 82 80.9 82.7 89.3 84.1 82.6 81.4 66.2 59.3 57.6 55.1 52.3 52 52 58.3 57.5 57.4 70.2 63.8 59 58.9 61.6 62.2 58.9 49 46.5 47 47.7 50 50.5 50 52.7 47.3 50.4 57.8 58.5 58.9 77.6 88.4 84.4 77.9 71.3 68.9 61.5 53.9 55.9 47.1 42.3 42.5 42.5 45 45.6 50 51.2 52.8 56.3 59.6 67.8 68 73.7 84 101.5 117.1 139.4 144.9 150.1 139.6 130.2 134.7 128.6 131.6 125.8 114.7 111.1 101.8 100.1 102 115.1 110.1 113.2 117.2 118.2 115.3 126.4 128.9 128.5 128.2 122.6 117.3 119.6 120.5 117.5 106.9 106.8 109.7 120.8 124.8 114.4 112.8 108.7 104.4 110.2 113.9 113.4 105.4 102 97.9 88.1 89.6 93.6 91.8 93.7 99.6 107.2 112.6 117.9 128.4 144.8 140.2 133.1 141 153.1 150.3 165.7 160.9 164.1 180.7 194.2 201.4 191.1 194.6 219.6 230.3 246.7 268.9 281.2 303.8 315 323.2 327 325.3 321 305 280.5 263.6 250.7 247 249.4 248.4 242.1 246.8 241.4 261.5 266.4 264.6 263 255.5 253 264.7 270.3 269.7 271.1 271.3 272.9 271 273.8 273.1 270.4 273.3 273.3 277.7 268.2 263.3 255.7 237.6 229.2 223.4 211.6 194.4 186.8 181.3 176.3 163.4 141.6 127.6 124.7 116.4 107.3 103.5 101.8 98.9 98.4 97.6 93.8 86.9 83.6 81.9
83.3 82.7 78.4 84.5 81.5 83.8 82.1 77.2 72.3 63 59.1 57.4 55.3 63.6 52 52 52 52.7 57.8 57.6 66.6 60.3 59.3 58.3 56.7 58.3 54 54.2 57.1 48.2 45.9 45.9 45 43.7 47 48 55.2 61.5 57.5 60.4 79.3 87.2 88.2 80.5 80 69.6 55.7 45.5 42.7 41.9 43 44.1 43.5 45.7 47.1 50.2 55 53.3 60.1 64.2 66.6 65.1 75.3 83.4 95.8 115.6 134.2 138.3 137.5 129.8 128.6 126.3 119 118.7 117 111.9 110 107.9 103.9 107.1 113.1 111.7 114.4 116.6 124.7 129.5 132.5 138.2 136.7 128.8 134.5 134.3 136.5 127.8 117.2 110.9 114.2 115.9 121.6 121 120.2 116 115.2 122.9 119.1 115.1 110 107.5 99.4 98.9 106.1 104.6 102.9 102 100.2 97.5 110 118.9 119.1 127.6 140.1 134.9 139.1 155.7 160.9 162.1 180.5 203.3 208.8 208.5 209.4 219.1 205.8 229.5 247 266.7 286.4 300.7 310.4 323.9 335.5 333.2 331.2 324.2 312.9 284.7 267.4 257.6 258.5 256 251.6 251.2 246.1 248.6 255.6 260.2 267.3 265.8 267.2 262.1 255.8 270.4 276.4 276.7 274.9 272.8 276.7 275.5 273 270.4 270.4 270.4 271.9 279.1 274.5 262.3 251.8 235.9 225.9 222.4 220 200.8 186.3 179.3 172.6 156.1 142.7 134.5 128.3 118.2 111.5 111.3 110.6 108.9 112.4 103.1 101.1 90.7 85.9 83.5
83.3 81.1 74.9 72.2 71.2 70 67.1 64.7 62.5 61.7 64 54.8 54 53.7 52 52 52 52 52.5 58.3 63.3 65.8 59.3 60.7 57.7 55.6 58.4 58.1 67 66.4 64.5 51 49.1 42.9 43 47.1 47 44.8 45.5 69.7 83.1 76.8 80.6 87.6 81.9 68.2 58 41.1 44.3 46.8 46.4 44.9 43.4 45.9 46 46.4 47.6 53.6 63 71.3 61.9 76.6 74.5 82.6 93 103.2 114.2 127 124.4 121.1 126.5 111.5 111.3 115.2 118.3 124.1 119.5 113.5 103 106.8 111.3 112.5 113.5 120.3 130.3 129.5 136.9 137.4 135.3 136.8 141.2 142.8 138.9 127.4 117.2 117.8 111.2 113.3 117.4 120.3 120.4 121.4 129.2 140.5 133.9 116.6 108 109.9 111.3 112.7 115.3 124.9 126.9 117.3 116.3 118.2 99.4 112.7 119.3 123.7 133.6 135.3 147.9 170.4 170.5 190 202.7 218.5 217.6 218.7 231.2 230.3 230.5 250.7 284.1 296.4 309.2 321.8 330.4 343 341.3 338.5 329.1 316.6 288.8 270.9 262.9 260.6 259.1 256.4 257.6 258.8 247.7 251.7 248.2 252.8 261.6 267.1 271.5 270.9 260.6 264 280 280 277.5 273.1 273.8 278.9 276.8 273.2 270.4 270.4 270.4 281.6 279.7 269.5 250.8 235.8 226.9 222.9 216.9 201.9 187.7 179.9 167.6 154.8 144.1 140.3 130.8 124.5 120.9 119.9 117.3 119 116.6 109.5 105.7 100.3 93.3 85.9
76.3 78.5 77 70.9 71 70.3 69.8 66.2 64.1 71.8 69.4 56.2 56.9 63.5 58.7 52 52 52 52 57.2 59.6 63.8 59.6 57.7 56.4 56.6 59.6 62.9 64.4 68.5 70.5 56 46.7 40.7 44.1 40.8 41.5 42.2 42.7 63.5 66.7 65 72.2 74 69.7 55.2 40.7 43.3 51.7 49.2 47.6 45.4 43.7 43.8 47.5 50.1 51.9 59.5 61.2 61 66.8 67.3 68.9 75.1 86.5 95.5 103 101.1 106.1 111.5 110.3 106.9 108.4 122.6 135.9 139.6 128.5 110.3 103.4 102.9 109.2 112.9 122.9 131.5 137.5 143.2 142.4 145 142 135.2 136.7 135.7 128 119.9 116.5 113.4 112.3 113.4 119.3 121.7 126.7 131.2 140.8 141.2 129.5 119.1 118.9 119.7 124 128.5 135.3 133.6 127.5 132.1 140.5 138.7 131.3 112.7 123.1 131.9 135.7 140.3 157.8 168.8 187.8 207.5 211 220.3 233.2 240.7 231 236.7 242.3 262.4 296.1 310 320.6 325.5 331.3 334.4 331.1 323.1 317.4 295.7 276.4 269 271.5 265.1 261.6 260 259 256.4 256.6 259 249.3 256.7 256.9 264.7 263.3 263.6 262.1 267.3 276.3 274.2 272.7 274.9 275.1 279.5 281.4 282.7 273.2 270.4 270.4 287.6 283.7 271.1 260.1 243.8 227.6 222.2 217.3 201.8 192.7 183.6 168 154.6 148.1 147 138.9 133 131.7 126.8 123.8 125.8 122.1 117.6 110.8 112 99.3 91.1
62.8 65.9 60.1 61.7 66.7 72.1 69.4 69.6 77.2 79.8 66 57.5 59.4 62.6 61.2 57.3 53.6 52 52 53.8 56.5 56.8 57.3 57.5 58.7 58.5 58 60 62.1 67 64.8 58.9 53.5 43.4 39.3 39.4 42.1 41.9 41.3 60.6 56 69.1 80.8 70 55.8 43.4 40.3 46.6 48 53.2 49.9 45.5 45.1 48.4 53.7 50.5 66.4 64.4 62.8 63.4 65.6 66.2 70.1 75.8 93.5 93.8 100 100.2 100.2 100.9 102.2 105.6 110.2 124.7 134.8 136.7 125.6 111.5 103.7 103.4 112.9 123.1 133.5 142.3 144.8 148.7 152.4 157.5 146.1 142.2 144.7 142.3 131.9 130.5 120.4 118.1 116.7 117.5 123.7 126.3 134 141.7 137.6 136.1 134.6 130.4 126.2 136.1 136.3 135.9 140.6 141.6 141.8 147.5 145.7 148.9 149.2 145.1 122 116.8 131.9 141.2 158.1 174.5 185.5 209.3 230 238.3 260.2 247.8 240.2 243.2 252.3 282.8 303.6 312.1 316.4 319.5 320.9 316.4 310.7 305.7 288.7 272.3 271.7 281 277.3 275 270.2 262.2 260.1 259.3 260.9 257.4 248.6 248.6 251.8 259 258.2 260 261.3 263.1 267.4 270.3 272.7 274.8 277.4 281.4 282.7 284.1 278.2 271.4 270.5 277 277.9 269.4 263.4 245.6 228.5 218.3 211.1 201.3 195 180.4 163.3 157.2 153.6 145.4 137.4 142 135.3 133 132.4 130.5 125.4 124.7 125.6 120.5 108 99.1
67.3 57 58 64.9 67.2 69.3 66.5 70.9 74.9 80 72.1 63.8 60.8 68.3 66.3 58.7 52.8 52.5 54.9 59.1 56 56.6 57 56.5 56.6 57.9 58 60.8 62.3 63 60.3 51.6 44.7 43.2 40.5 38.9 39.3 39.7 39.7 46.2 49.6 57 63.6 51.4 41.2 39.8 40.5 45.2 49.7 51.3 53.7 44.6 46.4 60.4 48.3 53.2 62.7 71 81.5 81.5 73.6 71.8 70.5 77.6 91.6 98.4 101.5 103.1 108.5 110.3 108.3 106.1 107.5 113.5 119.2 123.3 113.7 111.7 107.3 107.1 112.9 125 132.6 142.4 148.2 149 152.8 157.6 146.1 144.3 153.9 141.1 140.3 135.1 125 121.6 120.2 122.2 127.9 134.6 139.4 139.1 141.8 148.8 150.7 143.4 132.5 138 141.5 149.9 152.2 146.8 148.7 153.1 155 158.1 154 155.9 148.4 136.9 131.8 143.3 155.4 169.6 191.4 211.4 227.2 254 253.1 244 242 251 265.8 278.3 290.6 292.7 302.6 302.7 302.1 301.4 299.3 288.8 265.7 264.9 276.7 282.5 282.8 281.6 276.4 264.9 264.1 270.6 269 262.2 248.6 248.6 248.6 254.2 255.7 259.2 260.5 260.9 263.8 269.9 276.1 280.7 284.9 286.4 285.1 283.4 287.5 287.6 287.9 285.4 273.3 263.7 260.1 247.7 231.8 220.3 214.6 206.4 199.1 181.8 167.5 164 156.5 142.4 145.7 142.1 141.6 144.7 140 137.3 135.9 142.5 145.1 129.7 116.1 107.4
52.8 62.1 68.8 60 56.5 57.9 68.1 72.4 63 59.6 59.3 57.8 53.7 54.2 53.2 52.9 52.3 54.4 59 66.8 66.8 63.6 63.8 59.5 57.2 58.9 58.5 63.5 62.9 55.3 48.3 49.4 44 43.2 41.2 39 39.1 39.4 39.5 39.9 41 40.3 39.4 39.5 40.2 40.3 40.5 43.2 46.2 48.1 45.5 44.2 45.7 47.7 47 49.6 62.4 73.7 79.8 89.6 87.5 79.9 78.6 85.6 92.5 104.4 110.3 126.1 130.1 130.8 134.9 131.4 125.1 129.5 124.9 115.3 112.5 110.7 108.3 111.2 119.8 130.4 136.6 144.1 152.3 143.8 145.8 148.7 144.3 148.6 149.5 142.9 143.2 134.4 128.4 127 123.2 121.5 128.4 135.4 140.7 147.8 151.2 150.6 146.8 147.5 142 145.2 144.5 153.4 154 150.7 152.6 156.8 160.8 165.3 167 171.6 176 168 153.6 140.2 138.4 177.9 200.4 225.2 235.9 231.7 227.4 234 242.5 253.2 266.3 273.4 277.4 286.6 288.1 287.9 292.3 290.2 283.6 264.2 249.9 253.9 273.1 275.6 272.2 275 272.1 272.3 277.5 275.8 270.9 264.4 254.4 248.6 248.6 252 253.8 258.3 258.4 261.4 263.7 272 279.2 286 287.8 284.6 296 293.7 293.2 295.1 295.7 287.8 274.7 265.4 253.5 241.6 228.7 221.9 218.5 211.5 202 180 170.5 166.4 156.8 151.5 150.5 148.4 147.5 145.2 146.1 144.8 147.1 153.7 156.6 144.5 132.8 121.1
44.7 52.5 52.5 48 52.3 63.5 62.5 63.7 65.7 59.1 54.3 48.2 49 50.3 50.9 51.6 50.1 54.3 66.2 73.3 77.2 77.5 73.7 68.5 60.4 59.2 59 56.4 54.3 50.1 46.1 44.7 44.4 44.1 44.6 39.1 39.5 39.9 39.7 40 39.8 39.3 40.7 50.5 47.6 43.9 44 48.5 44.1 44.3 44.1 46.4 45.7 45.9 46.8 49.6 61.9 73.4 78.5 87.9 88.1 83.9 84.2 93.7 103.2 113.6 117.7 128.6 139 138.7 145.3 144.1 134 140.7 127 121.6 111.9 111.1 110.6 119.2 122.4 123.6 128.6 135.6 136.3 138.2 136.9 138.3 142.7 153.5 147.2 147.1 143.2 136.8 135.4 132.7 133.7 125 135.5 146.5 151.2 149.4 150 148 153.6 155.4 156.7 154.6 160.1 170.6 167.1 158.3 158.3 162.9 167.7 171.6 174.1 174.9 175.5 173.9 165.3 160.6 145.7 154.1 189.4 206.3 211.8 212.8 223.6 233.4 230.8 244.9 251.6 251.1 263.8 272.5 277.2 274.9 280 275.7 261.2 246.8 238.4 237.4 238 243.5 247.4 241.6 254.5 272.3 278.3 274.8 264.1 258.9 260.1 248.6 248.6 255.1 253.7 258.2 260.8 270.8 274.4 279.4 289.2 292.2 293.6 294.5 303.3 308.7 308 305.8 302.4 289.1 272 264.4 249.5 234.7 228.8 229.9 218 206.3 193 178.2 174.9 167.6 162.7 160.4 156.7 154.6 153.4 149.5 151.3 154.9 158.8 163.5 165.5 154 143.2 134.4
38.7 42.3 41.8 47.7 57.6 63.5 66.6 63.8 58.1 55.4 49.6 46.2 46.9 48.4 49.4 48.5 49 56.1 64 78.8 84.9 83.2 78.5 76.9 66.6 60 58.4 57.3 55.3 50.5 46.6 44 44.6 48.7 44.4 39.7 38.9 39.4 39.4 39.1 39.4 47.2 60.7 53.7 49.2 46.6 46.5 47.1 47.2 49.4 48.1 45 45.5 46.3 47.5 51.5 57.2 66.1 67.4 73.5 79.7 84.4 89.5 96.9 104.5 121.6 127.6 125.8 128.3 136.2 138 134.3 130.7 134.5 132.4 123 114.8 112.3 114.4 116.2 122.4 124.8 130.3 133.4 133.7 134.3 134.7 138.3 142.1 141.8 146.6 158.1 162.5 154.6 161.3 148.7 148.6 135.5 148.2 168.4 172.1 172 165.9 165 169.5 175 171.6 161.2 168.2 174.3 168 163.5 170.8 177.5 191 190.6 193.7 193.7 189.1 182.8 183.7 182.1 170 152.3 165.8 179.4 191.1 218.6 216.2 214.4 217.8 219.6 227.4 239 251 266.9 269.2 267.6 271.2 255.8 242.8 239.4 231.2 228.5 226.3 227.1 228.9 236.7 252.9 264.4 269.7 265.9 249 248.6 248.6 248.6 248.6 251.4 256.5 266.9 272 281.9 282.6 291.8 297.2 302.4 306.2 309 310.8 313.1 314.4 306.7 298 291 274.8 257.9 246.9 235.9 231.5 228 221 206.2 186.9 190.1 183.6 176 169.3 165 162.6 162.3 158.6 152.8 158.2 162.9 166.1 171.7 166.9 162.1 151.5 145.6
42.2 37.8 37.1 32.9 43.3 60.6 58.8 51.6 48.9 48.8 42 42.9 45.1 44.1 43.7 42.1 47.1 60 67.9 81.4 83.1 76.1 74.3 76 75.7 68.5 61.7 58.7 56.1 49.9 44.6 42.5 42.1 46.9 40.1 38.7 38.5 38.5 39.2 45 53.7 63.5 62.5 57.7 55.5 51.7 51.4 57.5 61.5 59.6 57.9 49.4 45.4 45.2 46.9 47.6 51.2 57.9 63.2 69.1 81 86.9 90.6 101.5 110 131.8 135.7 126.4 124.2 122.8 121 118.5 118.6 118.6 128.4 127 123.8 119.8 116.9 118.9 124.4 129.9 135.3 135.2 134.7 135.2 138.2 155.1 156.6 164.3 174.4 182.8 181.4 177.5 168.8 159.7 158.5 146.9 167.7 178.8 183 183.9 181.6 179 183.7 184.2 183.9 174.8 177.3 179 173.6 172.4 187.9 194.2 201.2 199.7 199.6 203.2 194.7 192.6 195.6 195.5 186.1 177.8 162.8 162.3 174.3 190.9 196.8 194.7 195.7 195.6 205 210.7 221.4 241.9 249.4 250.5 239.8 226.7 228.7 221.2 217.7 216.6 219.2 228.6 236.6 247.8 255.7 257.5 262.7 261.1 258.2 259.2 256.7 255.9 248.6 257.5 266.1 276.2 283.8 287.3 292.4 303.1 305.3 308.9 312.3 319.1 321.7 319.3 313.7 303.2 293.9 285.2 275.6 259 251.6 241.9 233 227.6 218.6 207.8 202.3 205.5 194.8 182.6 174.6 170.8 168.2 168.5 167.7 159.3 167.9 169.9 175.6 180.5 173.3 166.9 161.7 158.9
44.7 49.7 45.9 34.1 27.6 35.5 43 43.2 39.8 37.8 36.9 39.1 42.4 41.6 38 33.8 38.3 56.9 69.7 83.7 86.9 76.4 71.4 68 68.7 71.2 59.6 56.2 51.9 44.6 38.8 38.2 38.2 38.2 38.2 38.8 38.7 39.4 41 58.4 57.6 61.6 61.9 61.6 62.5 68.1 69 81.8 78.8 74 65.9 63.7 57 53.7 57.6 63.2 62.5 55.9 59 67.2 73.5 77.2 84 88.1 105.4 120.8 131.9 127.7 123.5 121.8 117.8 113.8 110.8 117.7 121.9 127.8 133.8 130.1 123.7 120.1 121 127.1 133.6 134.5 141.5 158.8 168.3 181.6 185.4 187.6 192.2 206.8 199.3 191.6 182.8 173.1 172.2 166.5 174.7 194.5 194.1 193.1 188.2 195.5 192.8 186.1 185.6 185 187.3 186.6 181.3 183.8 191.5 201.4 206.1 208.1 209.9 204.9 201.4 198.9 197.1 194.8 191.5 179.9 174.2 160.4 160.8 177.1 181.2 185.3 191.3 193 198.6 195.5 195.7 201.5 216.8 217 212.2 212.7 214.3 204.9 207.3 208.1 213 221.8 229.2 238.9 245.5 252 259.8 268.5 265.1 266.4 267.4 268.9 272.1 272.8 276.6 288.4 280.1 282.4 290.3 304.6 306.9 308.3 311.7 321.1 328.5 317.7 305.2 296.6 287.4 283 279.9 263.2 258.5 245.3 234.7 227.9 218.3 210.1 211.5 207.9 194.3 184.5 182.3 176.8 174 172.3 172.8 166.6 176.4 176.7 181.9 182.1 182.7 180.2 175.2 170.3
54 45 36.5 31 27.6 27.7 27.7 31.9 32.9 32.4 32.1 34.1 36.5 35.7 34.3 29.6 35.1 33.6 52.5 70.2 78.1 75.2 65.8 60 56 56.1 56.6 53.4 46.7 36.8 37.8 38.2 37.9 38.2 39.6 41.4 42.1 44.3 49.6 52.2 58.5 58.4 59 61.4 72.3 75.8 83.3 84.7 84.6 90.3 86.3 78.5 69.6 70.2 71.7 86 77.2 68.1 61.8 62.4 63.4 70 78 78.1 94.4 108.6 122.8 126.1 126.4 119.8 114.7 109.6 111 118 126 141 148.6 135.8 127.5 127.6 125.2 126.3 142.7 153.4 173.2 180.2 196.9 204.6 208.1 206.3 219.9 222.8 215.3 209.8 194.4 189.4 177.4 173.5 184 197.6 200.6 198.1 204.2 191.9 187 190.9 192 188.1 195.7 198.5 199.2 187.8 187.7 199.3 213.6 211.4 211.3 212.1 202.7 198.6 198.4 203.5 199.5 191.9 180.9 167.1 162.1 166.9 187.9 194.6 205.1 215.4 216.9 215.4 209.2 202.8 204.1 198.9 194.2 194.5 193.1 196.6 197.7 202.7 209.6 218.3 226.9 236.7 241.2 252.8 260.2 271 267.5 266.5 269.4 277.3 275.1 276.7 279.6 282.2 282.8 282.4 285.4 286 288.3 290.7 301.2 322.2 320.4 308.1 294.1 287.5 282.7 279.1 276.4 267.3 261.5 247 235.2 228.4 223.5 219.9 219.3 211 200.9 195.9 192.5 192.6 184 183.4 176.6 180.1 182 182.5 187.9 187.5 195.8 190.6 190.4 188.4
45.5 29.3 25.8 25.7 31 29.3 27.6 27.6 27.6 27.6 28.7 28.7 28.7 28.7 28.7 37.6 44.6 45.2 37.2 34.5 48.7 55 51.6 52.8 51.9 47.2 46.9 42.3 37.4 37.6 39.1 38.2 51.2 66.5 70.1 65.1 62.5 58.9 62 58 59.9 62.2 60.6 68.8 76.5 85.8 88.7 96.1 105 101.5 92.6 83.7 77.6 86.8 100.3 105.7 104.9 91.6 85.8 79.9 73.2 73.4 68.9 74.3 81.2 97.2 119.6 124.1 119.5 109.9 102.6 110 117 123.9 127.8 135.7 142.6 143.1 140.8 144.8 139.3 141.9 151.5 171.5 196.8 198 215.5 230.4 235.4 233.5 237.9 235.9 222.9 209.1 202.6 197 181.9 183.9 202 212.7 201.6 199.9 194.5 191.3 193.2 196.9 200.5 201 207.8 205 207.6 199.6 192 193.5 202.4 208.7 212.2 214.8 203 203.5 201.7 209.1 210.4 201.5 190.3 179.8 171.7 168.1 167.2 180.4 195 205.9 216.7 210 202.6 196.8 193.1 193.1 193.1 193.1 193.1 193.1 193.1 198.4 203.8 211.2 219.5 230.9 239.7 250.4 257.6 269.3 270.4 268.6 270.2 279.9 278.3 282.9 289.8 296.2 302.3 302.4 303 306.8 305.4 300 309.2 315.4 318 305 293.8 285.3 276.6 273.6 269 268 260 242.2 234.2 230.2 228.2 230.8 227.6 221.9 215.8 207 209 203.6 197.5 192.1 188.7 187.1 184.5 188.3 193.3 194.8 202 205 206.8 200
30.4 42.6 51.5 48.3 38.6 35.2 33.2 33 29.8 29.8 30.5 33.5 35.3 39.8 40.8 45.1 54.5 63.4 63 46.7 36.6 34.6 34.6 34.6 35.4 35.6 35.7 35.8 37.3 38.5 39.9 50.3 62.7 78 78.6 79.5 77 76.3 70.4 70.6 81.8 83.8 74.9 87 88.4 87.5 90.7 93.6 100.7 102.9 95.3 83.5 90.5 96.4 114.1 122.2 122.6 121.2 116.7 109.7 93.1 86.9 82.4 75.9 74.1 86.3 104.7 113.2 110.8 99 98.7 108.3 116.4 125.3 121.6 118.7 123.5 133.8 146.5 154.2 147.6 148.6 164.4 173.8 199.2 223.8 235.4 244 249.2 247.8 245.5 240.6 236.1 218.8 212.1 201.9 189.2 192.5 204.2 208.4 212.3 201.5 198.1 203.5 201.7 203.7 207.2 212.6 215.9 210.2 208.8 203.7 200 204.6 205.8 200.9 205.7 207.8 205.9 205.7 211.5 217.8 225.1 211.3 195.7 189.4 184.1 181.2 172.1 172.7 189.2 195 203.3 198.4 199.3 193.1 193.1 193.1 193.1 193.1 193.1 193.1 193.1 194.2 197.6 209.1 218.5 229.5 240 256.4 255.2 262.2 270.1 270.1 272.6 283 277.7 287.3 300.4 310 318.1 317.2 322.6 333.6 332.5 330.1 336.7 339.9 332.8 316.4 306.4 293.4 282.7 273.3 265.5 257.7 248.8 241.8 239.6 231.5 236.2 236.1 234 226 220.8 213.3 214.1 211.8 204 196.5 196.6 189 188.3 195.3 198.3 202.4 208 218.6 217.3 205.4
53.1 51.5 55.5 57.1 47.5 42.9 42.8 46.5 46.4 45.3 40.2 35.8 35.5 39.8 48.1 52.2 59.5 62.5 60.2 54.3 50.7 53 45.7 37.3 38.8 46.7 39.3 37.2 38.1 47.5 42.6 52.9 62.3 74.2 77.4 85.5 97.6 92.2 83.8 105.9 120.9 103.1 86.4 104.7 104.9 110.5 101.7 95.6 96.4 94.3 86.6 95.6 99.2 102.8 119.6 131.9 140.1 137.8 132 119.6 106.6 98.8 94.2 87.8 78.3 74.5 78.1 79.4 82.4 82.7 93.4 100.6 109.5 115.3 114 114.2 120 134.2 150.1 157.5 150.5 148.5 166.7 182.2 204.7 233 248.4 257.6 261.4 264.4 254.9 249.6 227.6 223.3 216.3 212.6 200.4 202.4 214.8 221.6 217.6 203.3 205.3 211.5 212 206.2 208.8 212.5 214.9 213.4 214.5 206.9 209.3 212.3 202.2 204.3 211.8 214.5 211.6 212.5 217.6 223.4 225.1 211.3 202.9 199.3 189.2 188.1 186.2 178.9 171.6 183.8 193.3 193.4 193.1 193.1 193.1 193.1 193.1 193.1 193.1 193.1 195 195.4 202.4 206.8 219.4 226.6 237 249.3 254.4 260.8 268.2 271.2 275.7 282.1 281.2 298.6 310.7 301.9 307.3 331.2 335.5 340.3 344.2 345.8 350.3 352.4 347.7 329.7 320.2 305.7 291.7 280.4 270.9 260.7 250.3 240.3 235.4 234.5 233.5 235.2 236 227.2 218.5 210.4 207.4 206.2 204.9 196.4 188.6 187.9 187.9 188.1 194.5 205.2 210.5 211.9 217 206.2
48.4 50.2 50.7 54.5 54.6 57.2 67.4 67.1 64.2 62.6 59.5 54.2 46.9 41.2 47.4 57.7 64.3 66.3 64.7 61.8 67.8 86.5 78.6 71 56.6 47 43.4 40.8 44.5 51 50.3 61.4 70.6 79 84.9 103.8 103.1 94 99.8 120 119 110.6 106.9 114.9 121.7 119.6 111.1 103.3 104.9 96.5 97.9 100.4 103.2 112.9 125.8 135.9 138.3 141.2 137.9 129.8 120.2 104.4 101.9 100.9 93.4 90.1 80 78.3 79.2 82.6 87.6 97.5 118.1 116.2 116.4 122.2 137.7 151.1 163.1 161.3 155 151.3 157.8 182.7 197.5 218.1 243.2 248.8 263.1 257.3 249 236.6 225.3 225.8 225.7 213.6 206.6 209.4 226.7 221.4 214.3 208.7 211.2 218.3 215.8 212.2 217.1 226.3 222.4 213.8 212.8 206.3 205.2 202.8 202 208.6 219.4 222.2 215.9 216.4 223.2 219.9 219.1 220.1 210.5 205.9 200.7 200 198 195.3 189.3 180.4 196.8 197.5 193.1 193.1 193.1 193.1 193.1 193.1 193.1 194.1 196.1 200 203.4 209.8 217.4 226 235.1 247.2 254 262.8 270.4 274.4 277.3 281.3 282.3 298.8 292.3 297.6 303.3 328.6 342.5 345.1 348.1 356 359.7 358.6 355.7 346 334.6 315.2 305.1 300.8 297.1 285.3 277.6 256.6 247.2 241.1 235.5 234.9 231.9 227.7 224.9 218.8 221.1 211.2 208.8 207.1 202.3 205.3 197.6 198.3 203.5 199.1 198.1 198 204.2 203.5
36.8 35.7 40.4 66.6 65.1 66.7 79.5 88.3 84.7 83.2 91.2 79.2 61.3 54.3 49.4 51.1 58.1 66.2 74 68.1 83.8 105.4 102 89.3 77.4 62.5 55 59.7 68.5 66.4 54.1 63.4 74.4 81.4 90.8 109.2 102.8 94.5 99.3 120.3 113 116.4 113.2 111.2 119.3 117.5 104.6 96.5 95.9 100.5 113.4 107.6 107.2 116.8 127.9 132.6 143.1 142.4 134.1 121.7 115.5 110 116.1 117.5 113.7 111.2 104 96.9 93 94.8 85.1 86.3 97.9 100.4 108.3 114.9 135.8 151.5 156.2 152.1 153.4 149.7 171.5 182.8 204.9 208.7 212.3 220.7 227.8 217.1 225.9 227.6 226.3 218.8 217.4 214.8 208.7 224.2 229.6 225.7 226.2 219.9 219.1 220.5 219.9 217.8 222.5 224.9 222.5 215.6 207.8 205.5 204.2 201.7 203.2 207 213.9 216.2 216 216.2 218.7 223.5 229.8 229.9 220.8 217.1 222.5 220 216.3 211.6 208 201.6 200.5 193.1 193.1 193.1 193.1 193.1 193.1 194.6 193.1 199.4 202.8 204.7 210.4 215.5 225.7 230.7 237 245.5 253.2 259.4 269.4 271.8 273 274.6 274.5 277.6 280.4 283.4 291.6 314.6 335 332.6 343.9 356.9 363.9 364 361.5 356.9 343.8 330.6 323 320.4 307.7 301 287.9 286.4 276 260.2 250.8 246 242.5 234.2 237.5 237.9 234 229.6 229.7 229.5 225 220.2 216.4 217.7 219.6 221.8 213.6 202.9 198.3 199.7
28.2 33.9 51 82.6 83.7 88.8 85.7 83.5 86.3 88.6 94.4 88.1 75 64.2 63.1 69.3 70.7 73.3 73.2 73.4 85.4 101.8 103.8 95.4 83.9 72.1 71.4 74.1 72.4 67 59.3 56.7 65.5 75.5 79.3 92.1 90.4 93.8 92.9 99.6 97.6 108.3 104 110.8 112.5 108.6 94.4 89.9 90.7 96.5 102.5 109.3 112.4 117.4 122.4 121.5 127.3 137.6 135.2 128.6 127 128.9 134.3 128.8 125.9 118.7 112.8 107.7 118.2 109.6 99.9 92.4 88.7 93.6 100 102.7 112.8 118.7 129.5 143.2 141.9 138.3 157.4 169.7 175.1 182.1 174.9 193.1 190.6 199.2 211 220.9 217.3 207.3 216.6 209.3 201.9 215.9 225 225.3 226 226.4 226.2 226.2 229 225.8 223.3 228.2 223.3 216.1 209 206.8 205 204 206.6 209.5 215.5 213.8 214.7 216.8 218.3 227.3 229.6 231.7 225.6 223.8 232.8 234.2 227.2 224.4 216.2 209.6 204.7 198.6 193.1 193.1 193.1 193.1 198.4 204.7 204.4 207.6 212 206.9 206.9 211.7 223.2 230.9 236.8 243.6 250.7 255.8 265.7 270.1 266.8 269.9 272.2 276.4 278.2 285 289.3 302.7 311.7 310.8 328.5 346.4 352.4 356.7 360.2 359.1 354 342.6 341.5 332 322 309.9 305.4 303.4 296.7 275.4 266 258.2 250 250 251.8 250 243.9 240.8 242.1 241.8 241.4 239.5 231.6 237.2 239.4 238 234 229.1 228.7 221.7
29 40.5 50.4 78.6 81 91.4 92.3 84.3 83.9 81.7 82.4 82.7 77.7 80.7 86.6 87.7 87 85.5 85.4 83.7 86.3 101 106.1 92.4 83 80.8 78.4 76.4 74.8 70 65.1 61.9 64.1 65.7 71.2 74.8 75.9 80.2 84.3 87 92.8 94.8 93.7 96.1 100.5 90.3 88.7 88.8 94.2 101.6 107.4 115.2 122.1 126.3 128.9 128.9 124.7 125.8 126.4 133.6 144.2 151.1 140.4 137.2 124.9 121.3 116.8 120.1 120.8 116.8 111.6 106.7 102.1 97.8 100.6 105.2 100.3 108.5 113.8 118.3 125.1 128.9 139.1 142.3 144 152.5 165.7 164.8 171.4 180.2 191.2 196.6 196.1 196.1 195.5 188.5 190.9 208.7 215 217.4 221.8 223.1 226.5 224.5 222.2 223.8 224.1 226 222.7 219 213.5 208.4 211.3 216.9 219.5 213.3 211.9 212.9 222.2 217.6 216.4 216.4 218.7 218.9 218.6 224.7 229.9 236.1 235.3 227.6 219.1 216.6 205.8 203.3 199.1 200.1 201 202.4 207.9 210.2 210.4 211.9 215.6 215.1 216.8 221.4 222.1 225 231.4 242.5 249.3 255.6 263.3 269.3 267.7 267.4 270.8 274.1 277.6 282.8 285 288.4 295 296.6 302.8 337.3 350.4 361.4 362.6 362.7 354.3 355.4 351.6 345.1 334.2 325.9 322.5 317.7 310 288.1 279 269.9 268.9 266.9 264.2 259.9 254.1 252.5 253.5 251.2 252.3 252 257.4 257.1 257.8 252.7 247.8 249.1 248.3 238.5
45.6 52 54.3 68.9 93.4 90.5 88.5 84 81.4 80 82 86.1 89.4 101.4 106.9 96.6 98.7 100.3 96 89.7 86.3 87.4 91.4 87.3 91.6 93 88 81.8 81.9 81.7 76.8 68.5 67.1 67.8 66.8 69.1 71.7 75.4 80.1 84.7 88 86.3 87.1 86.8 88.3 87.4 88.2 89.9 96.6 102.6 109.2 115.9 120.5 125.8 134.1 135.5 135.8 130.7 125.8 122.6 122.7 122.8 125 127.3 119.4 119.4 119.8 122.7 122.5 121.1 117.8 115.5 116.9 112.1 112.3 110.1 106.4 105.1 105.6 109 107.8 112.4 116.6 123.4 131.6 135 150.7 156.9 168.4 171.8 169.8 180.4 172.5 175.7 180 172.6 187.5 207.7 211.2 206.1 208.5 219.9 222 218.3 220.3 226.6 225.2 231.1 227.5 223.2 214.6 217.1 212.8 209.4 207 208.1 213.5 217.8 216.5 217.5 218.8 218.1 217.5 218.4 223.1 230.3 227.7 225.2 228.1 224.2 221.1 211.1 215.7 222.6 218.3 219.7 219.3 222.2 225.8 228.2 226 226.1 230.1 223.9 227.8 231.7 236.3 236 236 235 245.8 253.7 262.2 266.5 266.3 267.1 272 273.2 275.9 279 282.6 285.3 283.8 280.4 297.8 305 325.8 341.4 352.5 361.3 365.2 362.4 359.5 353.2 345.2 340.7 333.4 328.2 316.9 302.2 292.9 284 283 280.8 276.7 269.9 267.5 265.4 263.3 261.1 258.9 261.6 266.7 269.2 269.7 261.2 258.5 256.6 255.1 242.8
50.6 72.6 74.2 73.4 73.8 78.4 82.8 76.2 87.5 88.5 88.9 91.8 102.5 109.2 105.7 105.7 110.1 115 111.8 102.1 92.9 88 88.1 89.3 90.7 98.8 91.1 87.8 91.2 94.7 87 78.7 73.5 70.6 68.9 72.8 75.5 80.2 83.1 85.1 87.5 88.1 87.3 86.6 87.1 87.5 89.7 92.9 101.3 105.4 113.7 118.2 119.8 121.8 128.9 122.7 121 120.4 120.7 119.9 119.4 119.4 119.4 119.4 119.4 119.4 119.4 127.5 133.1 131.7 125.9 126.5 126.6 119.5 117.9 116.5 112.9 107.5 110.3 112 111.8 108.4 111.9 117.5 120.2 125.3 134 142.6 154.6 152.6 150.1 155.9 161.1 170.1 165.8 164.3 183.8 200.2 203.1 198.3 205.4 212.8 208.2 206.7 215.5 221 226.8 228 228.2 217.6 213 210.5 208.7 206.3 202.7 204.8 212.4 213.5 215.7 223.2 222.3 222.3 224.8 223.6 233.1 232.9 227.8 223.3 221 218.2 217 229 231.1 229.4 232.2 233 235.4 236.4 246.8 243.8 246.7 253.8 250 241.9 241.3 241.4 247 247.1 246.1 245.6 247.8 248.6 261.5 265.3 264.9 268.3 273.1 277.7 278.3 279 280 279.6 275.2 278.9 285.3 294.1 303.8 328.1 348.6 360.6 361.6 363 359.3 355.4 355.1 347.7 338.3 332.4 323.3 309.7 304.9 298.5 294.9 291.7 286.8 280.5 278.3 275.9 272.1 272.5 272.7 273 272 274.6 275.5 273.5 265.6 261.8 253.7 253.7
73.9 94.9 84.4 75.8 73.2 72.7 73.3 87.3 106.9 106.2 102.5 100.1 113.9 115.7 112.5 128.4 129.3 118.1 107.8 97.7 92 90.3 94.8 95.2 92.9 93.3 94.3 98.7 99.8 100.7 98.7 92.4 91 81.8 75.4 74.5 78.5 86.8 90.9 91.7 91.7 90.7 89.4 87.6 87.7 87.8 90.4 94.4 100.9 104.7 110.4 110.7 111.4 109.5 112.1 114.1 118.6 119.5 120.4 121.1 121.1 119.9 119.4 121.1 119.4 119.4 121.4 125.1 128 128.7 126.8 125.8 123.5 121.1 121.1 122.5 115.4 110 113.2 114.6 114.7 111.6 111.9 112.6 114.3 116.5 119.9 134.9 143.6 137.7 144.3 148.2 151.8 152.4 156.9 166.5 174.6 190.5 187.9 182.7 189.8 196.8 198.8 201.6 209.6 212.3 217.6 223.5 214.9 209.3 215.3 219.4 206.1 202.8 200.7 205.3 213.4 213.5 216.3 224.8 231.7 227.4 225.8 221.8 228.3 232.6 230.4 227.5 220.2 218.1 240.4 237.9 238.2 246.4 243.1 243 245.2 251.8 253.5 253.1 256.5 267.3 268.1 269 256.1 255.9 262.6 259.3 255.6 255.1 255.8 254.7 254.8 262.9 267.3 270.4 275.8 278.6 282.6 280.3 281.1 284.3 274.3 276.8 277.7 292.8 305.8 324.5 330.1 339.5 348.1 354.7 356.4 356.9 356.1 348.4 339.4 329.9 322.1 314.2 311.6 310.2 305.1 299 293.4 288.8 288.4 284.4 283.5 280.8 280.8 280.3 281.5 279 276 272.8 271.1 267.8 259 261.7
104.8 106 90.6 82.8 80.1 75.4 74.8 83 107.4 112.2 112.9 106.3 122 124.2 122.7 131.2 129.4 114.7 99.7 97.8 100.8 93.5 100.1 99.2 100.4 104.5 104.7 104.7 103.1 105.7 108.2 111.7 106.9 93.5 91.3 93.8 86.5 86.6 89 91.4 92.3 94.7 91 87.7 88.4 89.2 90.8 92.6 100 108.5 108.2 110.1 111.3 116.2 122.6 129.9 128.6 124.2 124.4 126.2 125.9 127.5 129.2 129.6 127.6 122.7 131.7 144.6 141.2 131.4 127.6 125.9 122.8 120.5 119.7 115.4 113.7 109.3 115.6 117.4 117.2 113.5 106.2 112.9 115.3 117 117.5 126.2 126.9 129.5 133.1 138.3 138 138.8 145.5 154 158.3 166.6 172.1 174.8 182.3 192.4 189.9 194 204.6 207.4 207.3 205.2 196.4 206.2 211.5 204.4 199.2 198.8 209.3 216 215.3 214.7 218 228 227.2 225.5 222.7 223.8 233.7 238.5 236.2 226.5 234.8 244.8 242.9 242.1 249.5 246.5 245 246.1 249.6 253.4 254.4 256.5 263.3 272.8 274.9 278.1 274.7 268.6 266 272.5 269.5 267.9 265.2 263.7 263.3 261.3 269.7 273.5 278.8 280.8 282.8 283 280.7 281.8 269 269 282 293 301.1 309 314.3 321.8 331.9 351 352.6 353.5 351.5 346.6 339.3 333.2 327.5 322.3 319.1 314.8 307.3 303.3 298.7 295.2 293.2 289.4 288.8 289.1 287.8 287.4 286.2 281.8 277.9 276.4 275.7 272.9 263.4 263.8
105.9 103.9 105 96.1 91.5 92.9 87.4 87.9 106.8 108 112.3 111.7 121.1 119 113.6 107.3 96.1 93.1 94.3 97.8 104.6 102.1 101.5 103.9 104.5 106.1 108.8 110.4 109.3 106.4 106.7 111.4 113.5 104.7 98.4 96.3 94.1 94.6 96 91.8 92.2 91.7 89.2 89.1 89.8 90.9 102.9 105.1 111.1 119.8 114.6 113.3 118.6 125.5 131.1 136.3 135.7 136.8 138.9 130.2 130.2 133.8 134 135.9 135.7 139.8 144.5 152.2 149.2 141.8 132.8 130.1 122.1 118.9 115.7 112.3 111.2 110.8 112.5 114 114.5 111.1 106.2 109 113 113.1 116.3 119.7 122.9 125.9 124.9 128.7 127.9 131.3 139 143.7 148.5 153.6 159.2 164.2 172.5 179.4 177.9 183.1 189.9 191.3 192.3 187.2 190.8 200.5 198.4 192.4 198.2 204.2 209.5 212.2 214.4 215.1 215.2 218.7 222.6 226.7 221.8 229.4 235.9 238.1 233.8 240.5 246.8 244.3 244.1 246.5 250.4 250.6 252.7 251.2 252.5 255.7 256.3 260.8 265.3 272 279.2 284.1 279.1 276.4 277.2 275.6 275.1 276.3 276.5 273 268.1 265.2 264.8 277.5 280.7 284 285.9 282.1 280.9 275.8 269 269 275.6 283.6 290.4 297.3 299.3 307.5 319.4 329.6 339.9 345.5 344.8 341.1 336.7 334.8 333.6 330.5 324.1 318.9 312.4 305.8 301.7 300.3 295.8 295.4 294.7 293.3 293 290.9 288.8 284.6 282.6 283.2 283.1 276.6 272.7 270.9
101.2 103 104.8 104.5 105.7 103.2 91.6 91.3 91.7 93.7 92.8 96.7 106.6 106.7 93.3 88.3 88.8 95.9 100.7 109 112 106.2 106.3 105.8 106 106.9 108.8 110 110.4 109 107.2 105.8 105.4 106.5 103.5 105 108.3 120.2 119.9 108.2 97.6 92.6 89.3 93.9 95.5 98.9 111.4 111 117.1 116.4 116 117.2 128.3 131 136.1 138.6 139.1 139.7 135.2 132 138.5 138.8 138 141 144.4 150.6 156.1 161 156.5 149.1 140.5 135.3 125.7 122.2 117.2 116.8 114 112.8 112.6 108.6 108.5 106.2 106.2 106.2 113.7 112.1 116.9 120.3 124.6 119.3 120.7 122.6 127.3 129.7 134.4 136 142.3 145.5 149.2 151.7 158.2 162.3 163.8 168 172 175.2 177.6 179.1 183.6 188.6 186.1 194.5 201.1 208 207.5 209.9 211.3 214.1 218.4 220.5 233.1 229.5 226.1 232.3 232 243.7 256.3 249.9 245.1 245.1 247.5 253.9 255.4 262.1 260.4 255.2 254.7 259.5 259.3 265 271.2 274.6 278 283.3 284.4 281.3 280.9 282.5 281.3 279.8 283.2 279.3 274.2 271.6 264.8 272.3 279.3 284.8 282.3 279.3 276.9 273.6 271.5 269 272.4 280.3 284.9 289.6 287.9 303.1 307.9 316.7 322.9 335.1 333.8 331.1 330.6 330.4 333.2 332.6 326.6 321.3 317.3 311.1 306.6 302.9 300.9 301.4 302.2 300.4 299.2 296 293.3 291.7 288 290.7 291.7 289.5 288.2 285.8
100 102.6 108.8 110 113.4 103.9 93.7 88.3 88.3 88.3 88.7 89.6 90.6 92.2 88.3 88.3 99 100.3 98.8 102.1 108.7 109.9 109.7 107.8 107.9 108.7 110.5 111.6 113.1 111.8 110.1 107.6 109.8 107.5 107.4 111.1 117.9 124.4 127.3 118.7 107.7 95.4 90 95.1 96.1 102.8 107.3 110 113.4 117 122.9 128.3 131.5 135.6 142.5 146 145.4 139.5 140.1 144.8 141.4 143.6 144.9 148.4 152 151.8 153.1 154.6 155.5 142.9 134.6 130.1 131.7 132.2 127.8 120.9 116.1 113.5 110.9 112 106.2 106.2 106.2 106.2 109.7 113.1 114.5 119.3 117.7 111.9 115.6 117.9 125 128.9 129.7 132.2 138.7 142.3 146.1 147.5 148.3 151.4 154.1 155.7 161.9 162.5 165.7 169.4 178 181.2 185.8 192 195.2 199.4 200.9 204.4 205.8 208 210.7 219.8 224.6 219.8 222.3 223.1 241 245.3 245.9 243.2 246.7 254.3 257.4 263.2 269 271 263.5 259.3 258.3 259.3 261.8 268.8 272.8 277.1 281.9 287.9 288 284.4 286 287.6 287.4 285.9 284.5 283.2 279.9 275.2 271.3 267 275.6 278.3 277.1 270.2 269 270 272.5 269 275.2 279.8 281.9 277.9 285.7 296.4 297.6 297.5 306.8 314.2 322.5 324 326.8 326.7 327.9 330 326.5 322.4 318.7 313.2 309.4 305.2 304.6 302.9 304.5 304.7 303.9 299.7 297.6 294.5 295 295.5 292.7 292.1 291.4 291
103.6 98.7 104.2 112 118.5 114.3 106.2 89.9 88.3 88.3 88.3 88.3 88.3 88.3 88.3 88.3 88.3 92 106.7 114.1 112.8 111.6 117.5 106.5 107 112 115.8 117.5 115.9 115.8 115.8 112.2 113.8 115.3 112.3 115.1 116.5 122 120.3 118.5 111.1 110.3 100.9 91.3 102.8 106 108.8 111.3 115.3 122 128.2 131.1 132.9 138 141.4 141.5 141.8 139.9 141.3 147.5 145.5 145.5 148.3 152.1 152.9 152.9 152.5 152.4 150.4 144.3 141.3 141 135 134.3 132.6 130.5 122.1 113.3 111.9 112.1 111.2 106.2 106.2 106.2 106.2 113.1 111.7 109.5 111.5 117.6 120.2 122.1 131 132.2 133.6 134.3 138.2 140 143.6 146.8 147.9 149.7 150.5 152 153.8 155.1 156.3 161.1 170.8 174.2 176.6 183.5 186.3 188.6 191 191.9 196.6 202.8 207.1 211.6 211.9 211.9 212.2 219.2 223.4 229.4 237.3 242.7 249.2 256.2 267.9 270.8 270.1 265.7 264 267.7 263.9 263.2 269.5 273.4 276.1 281.5 285.1 289.7 287.9 287 289 292.6 290.3 290.1 288.7 285.4 286 281.3 278.6 271.6 273.5 274.7 269 269 269.5 269 269 269 269 279.3 269 269.5 281 282 282.7 287.4 290.9 297.9 302.1 310.9 318 321.6 321.6 323.5 324.3 323.1 321.7 314.5 309.6 307.5 306.1 305.3 304.8 303.9 304.4 305 304.9 300.9 301.5 299.3 294.8 295.1 294.3 295.4
