ncols 200
nrows 99
xllcorner 320000
yllcorner 722300
cellsize 50
234.8 238.5 244.8 248.6 253.3 254 250.9 242.2 234.2 226.6 220.5 217.7 218.8 219.3 217.6 215.2 211 198.7 187.8 184.1 177.8 170.7 168.7 167.5 165.5 157.3 150.6 141.3 127.7 116.7 110.1 106.1 100.8 96.2 92.3 86.9 77 81.6 95.3 105.2 111.7 118 121 120.2 116.2 113.6 110.1 106 101.3 95.3 89.5 90.4 89.1 82.4 72.3 59.7 51.9 48.5 43.1 40.4 37.3 33.6 32.2 34.5 27.6 20.8 18.8 18.6 17.4 16.3 15.2 13.6 13 12.4 11.8 11.2 10.7 10.8 10.9 11 10.9 10.9 10.8 10.8 10.7 10.6 10.5 10.5 10.4 10.3 10.4 10.6 10.6 10.6 10.7 10.6 10.5 12.4 15.2 18.5 19.7 19 17.8 16.9 16.2 15.7 15.1 14.7 15.1 13.9 13.1 12.8 12.2 11.1 10.8 10.9 11.2 10.7 10.7 10.7 10.3 10 9.6 10.1 10.7 10.5 10.1 9.9 9.4 10.2 10.3 9.5 9.4 8.8 9.4 9.9 10.1 10.3 9.8 9.3 9.3 9.3 10.5 10.4 10.2 9 9 9 9.1 9.2 9.3 9.8 10.5 10.4 10.3 10.3 9.8 9.9 10 10.2 10.2 10.2 10.2 10.1 10.1 10.1 10 9.9 9.8 8.6 9.6 9.6 9.7 9 8.6 8.7 8.8 9 9.1 9.2 9.3 9.4 9.6 9.8 9.8 9.8 9.8 9.8 9.1 9.4 9.3 9.1 9 9.5 9.7 9.7 9.7 9.8 9.6 9.4
230.7 235.9 237.5 238.4 233.8 233.2 229 225 223.8 224.6 223.4 222.1 221.5 223.6 224.7 222.9 219 204.5 193.3 188.5 181.2 177.4 175.5 175.6 171.1 166.6 161.1 155.2 148.1 133.3 117.7 107.5 101.5 96.5 92 90.2 85.3 73.3 81.8 90.6 96.3 101.5 103.8 105 106.1 104.5 102.8 99.8 93.6 84 76.1 70 71.9 68.7 58.7 48.8 45 41.9 40 39 39.2 33.2 28.4 26.6 20.2 17.4 17 17.2 17.4 16.1 14.8 13.7 13.1 12.6 12 11.5 11 10.8 10.9 11 11 10.9 10.8 10.8 10.7 10.6 10.5 10.4 10.4 10.3 10.2 10.4 10.5 10.6 10.5 10.5 10.4 11.6 13.9 16.9 18.4 18 17.4 16.4 16.2 15.6 14.7 13.7 12.9 12.5 12.2 11.9 11.4 10.5 11.3 11 10.3 10.2 10.2 10.5 10.3 10 9.8 9.7 9.6 9.7 9.8 9.8 10.3 10.6 10.6 10.6 10.6 9.7 9.5 9.2 10.2 10.3 9.8 9.5 9.4 9.3 9.3 9.2 9.4 9.5 9.4 9.3 9.1 9.2 9.3 9.4 10.7 10.6 10.5 10.4 9.9 10 10.1 10.2 10.4 10.4 10.4 10.4 10.3 10.2 10.1 10 9.9 10 8.7 9.2 9 9 9 9 9 8.7 9.1 9.5 9.9 9.9 9.9 9.8 9.8 9.8 9.8 9.7 8.8 8.9 9.3 9 9.1 9.6 9.9 9.9 9.8 9.8 9.7 9.5
230.3 234.7 230.4 223.5 222.5 220.6 219.8 218.8 220.4 222.9 223.2 220.9 222.5 222.5 223.4 221.4 217.5 206.6 198.6 192.8 187 183.7 182.1 183.2 179.6 174.6 169.6 164.7 158.5 141.4 127.1 112.9 105.3 98.2 92.2 87.9 85.8 75.4 72.9 78.7 84.1 87.9 91.6 94.8 97.8 98 97.3 92.1 84.1 72.2 65.7 60.1 54.9 49.8 47.6 43.2 40.3 39.2 38.4 38.8 37.6 24.2 19.8 20.1 16.2 15.1 15.1 15.9 15.8 15.7 15 13.9 13.1 12.9 12.4 11.8 11.3 11 11 11 11 10.9 10.8 10.7 10.7 10.6 10.5 10.4 10.3 10.3 10.2 10.2 10.3 10.6 10.9 11 10.9 10.8 13.3 17.2 17.8 18 16.9 15.9 16.2 15.5 14.6 13.6 13.1 12.6 12 11.2 10.5 11.5 10 9.9 10 10 10.1 10.1 10.5 9.6 10.2 10.1 9.8 9.7 9.8 9.7 10 10.5 10.6 10.7 10.6 10.6 8.2 9.3 10.4 10.3 9.8 9 8.9 9.5 9.8 10 10.1 9.9 9.8 9.6 9.5 9.4 9.2 9.3 9.5 10.8 10.7 10 9.9 10.1 10.2 10.3 10.4 10.6 10.2 9.5 9.8 10.2 10.1 10 10 10.1 9.6 8.4 9.1 9.1 9.2 9.3 9.4 9.5 9.5 9.5 9.3 9.6 9 9 9.2 9.7 9.7 9.7 8.7 8.2 8.7 9.2 9.3 9.8 9.8 9.7 9.5 9.6 9.7 9.6
213.7 215.8 216.5 215.1 211.8 213 213.6 217.2 219.2 220.9 220.3 216.3 217.1 211.9 209.3 205.6 202.7 200 197.3 196 189.2 189.4 188.6 189.5 189.3 182.5 176.8 173.3 167.5 151 139 127.5 112.4 103.2 95.1 90.3 85.4 79.7 72.8 69.1 73.4 78.8 84.3 86.7 90.6 89.5 87.8 82.5 74 65.3 64.8 60.8 54.5 47.9 42.9 39.6 37.3 36.9 37.4 38.2 30.4 20.5 19.2 16.6 13.8 13.2 13.1 14 15 15 14.7 14.3 13.2 12.4 12.5 12.1 11.6 11.2 11 11 11 10.9 10.8 10.7 10.6 10.6 10.5 10.4 10.3 10.1 10.1 10.1 10.3 10.6 10.9 11.2 11.5 11.8 13.8 16.4 17.7 18 16.7 15.8 15.9 15.9 14.8 13.7 13.4 13 12.5 12 11.9 10.5 10 9.9 9.9 9.9 9.9 9.9 10 9 10.6 10.3 10.1 10.1 9.9 9.8 9.9 10.2 10.7 10.7 10.7 10.7 10 8.1 10.6 10.3 9.7 9.2 8.9 9.8 10 9.8 10.1 10.2 10.1 10 9.9 9.8 9.6 9.5 9.4 9.9 10.8 9.9 10 10.1 10.2 10.4 10.4 10.2 10.4 10.3 10.2 10.2 10.1 10.1 10.1 10 9.9 9 9.2 9.1 9.1 9.2 9.3 9.4 9.5 9.6 9.6 9.8 9.8 9.3 8.3 9.4 9.5 9.5 9.4 9.8 9.6 9.6 9.9 9.8 9.6 9.4 9.3 9.2 9.3 9.4
194.4 197.9 201.5 204.3 205.6 207.8 213.4 215.6 215.8 215.2 212.5 207.6 205.3 200.5 197 196.1 199.2 199.3 198.7 196.4 192.3 194.8 193.9 195.7 194.5 193.3 185.6 181.8 174.2 157.7 145.7 134.6 122.5 111.9 101.9 94.2 88.7 84.3 79.8 74.6 64.8 70.8 77.1 79.2 79.7 81 75.3 69.4 64.4 60.8 59.2 56.6 52.1 47.5 41.9 39.4 36.7 34.1 36.6 37.1 22.1 19.7 18.3 12.7 11.4 11 11.1 11.9 13.1 14.3 13.9 13.5 13.1 12.5 11.7 11.8 11.9 11.5 11.3 10.7 10.5 10.4 10.2 10.1 10 10 10 10 10 10 10.1 10.1 10.3 10.6 10.9 11.2 11.5 12.7 15.3 15.7 17.5 17.9 16.8 16.2 16 15.9 15.9 14.4 13.6 13.4 12.9 11.9 10.5 10.5 10.1 10 10 10 10 10 9.2 9.3 10.9 10.3 10.5 10.3 9.7 9.9 10 10.2 10.4 10.7 10.7 10.7 9.9 10 10 9.7 9.2 9 9.1 10 9.6 9.9 10.1 10.2 10.3 10.2 10.1 10 9.9 9.8 9.7 9.6 9.8 10 10.1 10.2 10.2 10.2 10.2 10.2 10.2 10.2 10.3 10.2 10.2 10.1 10 10 9.9 9.1 9.3 9.2 9.1 9.2 9.2 9.3 9.4 9.5 9.6 9.8 9.8 9.7 8.6 8.6 9.1 9.5 8.8 10 10 9.9 9.7 9.6 9.4 9.2 9.1 8.9 9 9.1
188 192.4 196.1 199.4 204.4 203.1 205.6 210.7 210.3 204.9 200 197.1 194 189.1 189.1 192 195.4 196.7 196.6 195.7 195.4 197.1 196.5 197.7 198.5 196 191.3 185.3 177.7 161 151 142.3 129.9 117.4 106.2 101 93.6 88.7 84.7 81.8 75.4 62 64.2 69.2 69.7 67.9 65.6 63.2 59.6 56.8 54 53.1 51.7 48 42.5 39.2 35.5 34.2 33.8 32.8 19.8 18.6 17 11.3 10.7 10.4 10.3 11.1 12.5 13.3 13.2 12.8 12.4 11.9 11.5 11 11 10.9 10.3 9.9 9.9 9.9 10 10 10 10 10 10 10 10 10.1 10.2 10.4 10.6 10.9 11.2 11.5 12.4 15.9 17.4 17.2 17.9 17.3 16.9 17.2 16.8 16.4 15.4 13.9 13.5 13.3 12.7 10.9 10.5 10.2 10.1 10 10 10.1 9.3 9.8 10.1 10.1 10.5 10.7 10.2 9.8 10 10.1 10.3 10.4 10.6 10.8 10.1 10.3 10.3 9.5 9.2 9 9.1 9.2 9.4 9.1 9.9 10 10.1 10.2 10.3 10.3 10.2 10.1 10 9.9 9.8 9.9 9.8 10 10.1 10.3 10.3 10.3 10.3 10.3 10.3 10.3 10.2 10.1 10.1 10 10 9.9 9.2 9.4 9.3 9.2 9.1 9.2 9.3 9.3 9.4 9.5 9.8 9.9 9.9 9 9 10 9.7 10 10 9.9 9.7 9.5 9.4 9.3 9.1 8.9 8.8 8.6 8.7
183.5 188.9 190.4 192.4 193.8 193.7 195.9 194.4 192.5 186.3 186.1 185.3 184.6 184.3 186.2 188.2 191.4 194.1 194.4 194.1 194.6 196.7 197 196.1 198.7 198.6 194.3 188.1 179 164.2 156 147.1 135.2 125.2 112.8 105.4 101.6 96.1 91.1 87.4 82.3 74 60.8 60 61.3 59.9 58 56.3 54.5 51.9 49.9 48.7 48.2 46.7 42.9 39.9 34.8 34.7 32.6 24.4 19.8 18.7 14.7 11.7 10 9.9 10 10.4 11.5 12.3 12.5 12.1 11.7 11.2 10.8 10.7 10.7 10.3 10 10 9.9 9.9 10 10 10 10 10 10 10 10 10.1 10.3 10.5 10.7 10.9 11.2 11.5 12.2 15.6 15.7 16.3 16.9 17.5 18.6 18.6 18 17.3 14.8 14.2 13.6 13.9 13.5 11.4 10.4 10.2 10.1 10.1 10.1 9.6 10.1 10.2 10.2 10.2 10.1 9.2 10.1 9.9 10.1 10.2 10.4 10.5 10.6 10.8 10.7 10.7 10.6 10.4 9.1 9.1 9.1 8.6 9.3 9 9.8 9.9 10 10.1 10.2 10.3 10.4 10.3 10.2 10.1 10.1 9.9 9.8 9.9 10 10.4 10.4 10.4 10.4 10.4 10.4 10.3 10 10.1 10.1 10 10 9.9 9.3 9.5 9.4 9.3 9.2 9.1 9.2 9.3 9.3 9.4 9.8 9.9 9.9 9.4 9.5 10.1 10.1 9.5 9.3 9.3 9.3 9.3 9.5 9.5 9.6 9.5 9.3 9.1 8.6
184.4 174.5 172.6 174.2 184.4 187.5 182.8 175.8 176.5 176.3 178.5 179 177.8 179.8 182 184.4 187.7 190.3 191 190.2 192.5 195.5 195.8 191.4 193.7 195.3 195 187.6 174.5 164.3 156.6 150.8 142.5 132.8 119 110.4 107.5 102.2 97.6 94.9 90.3 82.3 75.3 65 58.5 55.2 52.8 50.9 49.5 48.8 46.2 45.4 44.6 44 43.2 40.3 34.9 31.4 25.9 23.3 20.8 19 15.3 11.5 10 10.1 10 9.9 10.5 11.3 11.8 11.4 11 10.6 10.9 11.3 11.1 10.7 9.9 10.2 10.1 10 10 10 10 10 10 10 10 10 10.2 10.4 10.6 10.8 11 11.2 11.4 11.9 14.7 14.8 15.4 16 16.7 17.8 19 17 15.8 16.3 15.4 13.9 13.9 14.1 11.8 10.8 10.3 10.2 10.2 10.1 10.2 10.2 10.3 10.3 10.3 10.3 10 9.9 9.9 10 10.1 10.2 10.3 10.4 10.8 10.8 10.8 10.6 9.7 9.5 9.7 9.4 9.3 8.6 9.1 9.7 9.8 9.9 10 10.1 10.2 10.3 10.5 10.4 10.3 10 9.9 9.8 9.7 9.9 10.2 10.6 10.6 10.5 10.5 10.4 10.2 10 9.9 10 10 10 9.9 9.4 9.6 9.5 9.4 9.3 9.2 9.1 9.2 9.3 9.4 9.7 10 10 9.9 10 9.8 9.1 9.1 9.1 9.1 9.1 9.2 9.4 9.5 9.5 9.6 9.6 9.7 9.5
204.7 202.1 190.4 169.1 164.2 163.7 165.5 168.4 171.3 172.6 172.9 175.1 174 174.8 176.8 177.1 179.9 182 186 185.3 186.5 190.7 193.4 191.3 185.7 190.5 190.5 181.1 170.2 162.2 156.6 151.9 145.9 136.4 124.6 116.2 112.3 109.2 105 101.1 96.4 89.9 82.2 74.7 67.7 63.3 57.1 52.3 50.9 47.3 46.2 44.6 42.1 43 41.5 38.5 35 29.1 32.2 37.7 31.3 20.2 14.2 11.4 10.4 10.5 9.9 10.3 10.3 10.3 11.1 10.7 10.7 11 11.3 11 11 11 9.9 10.3 10.2 10.1 10 10 10 10 10 10 10 10 10.2 10.4 10.6 10.8 11 11.2 11.4 11.7 13.4 14 14.7 15.7 16.6 17.5 15.9 19 18 17.8 16.6 15 14 14.5 12.3 11.3 10.3 10.3 10.3 10.3 10.3 10.3 10.4 10.4 10.4 10.4 10.2 10.1 9.9 9.8 9.8 9.8 9.9 10 10.3 10.8 10.8 10.3 9.4 9.8 10.1 10.1 9.9 9.3 9.1 9.7 9.8 9.9 10 10.1 10.2 10.3 10.4 10.5 10.5 10 9.9 9.8 9.7 9.7 10.1 10.5 10.7 10.6 10.4 10.3 10.2 9.9 9.7 9.8 9.9 10 9.9 9.5 9.6 9.6 9.5 9.4 9.3 9.2 9.1 9.2 9.3 9.7 10 10.1 10.1 9.6 9 8.9 8.9 8.9 9 9 9.2 9.4 9.4 9.5 9.5 9.6 9.6 9.7
213.3 216.1 208.7 196.9 180.8 169 161.9 159.8 164.5 167.4 167.4 166.6 167 169.6 170.1 170.4 171.6 172.9 176.8 179.5 180.2 184.1 187.3 187.1 182 177 171.9 169.2 163 160.8 157.3 150.9 146.4 139.2 130.7 122.2 117.7 114 108.6 104.6 100.4 94.8 86.2 80.6 76.2 70.3 65 60.7 55.8 52 49.3 46.7 44.3 43.6 41.3 39.5 37.4 35.1 29.8 27.1 30.1 18.5 12.5 11.6 10.1 10.2 10.2 10.7 10.6 10.6 10.5 10.8 11 11.3 11 10.7 10.7 10.8 10.7 10.5 10.4 10.3 10.2 10.1 10 10 10 10 10 10.1 10.3 10.5 10.7 10.9 11.1 11.3 11.5 11.7 12.6 13.6 14.6 15.6 16.4 15.2 16.4 17.1 17.5 17.6 17.1 15.8 15.2 14.9 13.4 11.4 10.8 10.3 10.4 10.4 10.4 10.4 10.5 10.5 10.5 10.5 10.4 10.3 10.1 9.9 9.8 9.8 9.7 9.8 10.6 10.7 10.4 9.9 9.7 9.8 9.8 9.8 9.9 9.8 9 9.2 9.8 9.9 10 10.1 10.2 10.3 10.4 9.6 10.1 9.7 9.9 9.8 9.8 9.7 9.9 10.3 10.7 10.5 10.4 10.3 10.1 9.9 9.7 9.6 9.7 9.8 9.9 9.9 9.7 9.6 9.5 9.5 9.4 9.3 9.2 9.1 9.3 9.7 10.1 9.9 9.4 8.9 8.9 8.8 8.8 8.8 8.8 8.8 9.2 9.4 9.4 9.5 9.5 9.5 9.6 9.5
220.3 225.8 223.6 219 206.4 185.5 174.6 169.2 162.4 155.5 157.6 160.5 159.3 163.5 164.6 161.8 161.6 161.7 163.1 167.3 167.6 169.7 173 174.6 172.4 169.7 165.3 162.6 157.4 156.2 158 156.1 148.1 140.8 133 125.9 122.6 115.9 111.2 105.2 100.4 95 90.3 84.8 81.3 75.4 70.5 64.7 59.7 55.2 51.4 48.7 46.4 44.6 41.8 37.2 36.1 33.2 27.6 24 28.9 16.3 12.6 11.4 10.7 11 10.8 10.9 10.8 10.7 10.8 11.1 11.3 11.2 11 10.8 10.6 10.6 10.5 10.5 10.5 10.5 10.3 10.2 10.1 10 10 10 10 10.2 10.4 10.6 10.8 11 11.2 11.4 11.6 11.8 12.3 12.9 13.5 14.2 14.4 14.1 14.7 14.9 15 15.5 15.9 16.3 15.9 15.4 14.4 13 12.1 11.3 10.5 10.5 10.5 10.5 10.6 10.6 10.6 10.6 10.3 10.2 10.1 10 9.9 9.8 10.1 10.7 10.9 10.7 10.1 9.6 9.7 9.7 9.8 9.8 9.9 10 9.5 8.3 9.8 9.9 10 10.1 10.2 9.7 10 9.9 9.8 9.9 9.9 9.9 9.8 9.8 9.6 9.9 10.2 10.5 10.4 10.3 10.1 9.8 9.6 9.4 9.5 9.6 9.7 9.8 9.8 9.7 9.7 9.6 9.5 9.4 9.4 9.3 9.7 10.1 9.5 9.1 8.8 8.8 8.8 8.7 8.7 8.7 8.7 8.7 9.2 9.3 9.4 9.4 9.5 9.5 9.5 9.3
228.4 233.8 235.6 231.1 222.4 203.7 186.7 180.7 176.2 168.2 157.1 151.3 153 154.6 158.2 156.1 153 152.4 153.7 154.8 155.7 160 161.4 161.9 161.6 160 161.9 159.5 155.4 151.4 153.3 160.4 149.3 143.3 135.6 127.6 122.9 118.6 114.4 108.1 103.2 100.3 94.7 88.5 84 79.4 75.2 71.4 66 59.2 54.8 50.8 48.2 44.6 42.2 37.8 33.6 28.1 25.4 23.8 25.7 15.6 13.5 11.6 11.1 10.4 9.9 9.9 10.8 10.8 11.1 11.5 11.3 11.2 11.1 10.9 10.8 10.6 9.9 10.6 10.5 10.4 10.5 10.6 10.4 10.1 10 10 10.1 10.3 10.5 10.7 10.9 11.1 11.3 11.5 11.7 12 11.4 12.8 13.5 13.5 12.9 12.4 12.2 12.5 13 13.6 14.2 14.8 16 16 15.4 14.5 13.2 12.6 11.7 10.8 10.6 10.6 10.6 10.7 10.7 10.6 10.2 10.1 10 9.9 9.9 10.3 10.6 10.9 10.7 10.3 9.8 9.7 9.8 9.8 9.8 9.9 9.9 10 10 9 8.9 10 10.1 9.9 9.9 9.9 9.9 9.9 9.9 10 10.1 10.1 10 10 9.6 9.5 9.8 10.5 10.4 10.2 10 9.8 9.5 9.3 9.3 9.4 9.5 9.7 9.9 9.9 10 10 9.9 9.8 9.7 10 9.5 9 9 8.9 8.8 8.7 8.6 8.6 8.6 8.5 8.5 8.6 9.2 9.3 9.3 9.4 9.4 9.4 9.4 9.1
234.3 238.5 242.5 239.3 236 220.2 199.2 191.6 187 179.1 171.5 160.4 150.6 149.3 149.5 148.9 147.6 147.6 147.7 148.4 150.5 151.7 155.9 158.5 158.4 155.9 155.7 155.2 151.5 144.6 147.1 149.8 148.8 143.9 138.3 132.1 125 120.7 116.1 109.8 109.2 106.1 99.5 93.2 87.7 82.7 77.2 74.8 69.1 63.2 59.1 54.2 50.4 45.7 42.3 39.9 36.7 31.6 23.8 23.1 23.1 16.6 14.5 11.9 11 10.5 10 10.6 11.1 11.3 11.6 11.5 11.4 11.2 10.8 10.6 10.6 10.6 9.6 10.6 10.6 10.5 10.4 10.3 10.6 10.8 10.5 10.2 10.2 10.5 10.8 11 10.6 11.1 11.4 11.6 11.9 12 12.5 12.7 12.5 12.4 12.3 11.8 11.2 11.2 11.6 12.1 12.7 13.3 14.6 14.2 13.7 13.5 11.2 11.3 11.6 11.9 11.2 10.7 10.7 10.8 10.8 10.5 10.1 10 9.9 10.1 10.4 10.8 10.8 10.5 10.3 10 9.7 9.8 9.8 9.9 9.9 9.9 10 10 10 9.7 8.8 9.9 10 10 10 9.9 9.9 9.9 9.9 10.1 10.2 10.3 10.2 10.2 9.6 9.5 9.4 9.9 10.4 10.2 9.9 9.7 9.5 9.3 9.1 9.3 9.5 9.7 10 10 10 10 10.1 10.1 10 9.2 9 9 9 9 8.9 8.7 8.6 8.5 8.4 8.4 8.4 8.5 9.2 9.3 9.3 9.3 9.3 9.3 9.2 8.9
237.9 241.7 247.1 247.2 242.8 235.3 215.7 200.7 195.1 189.2 182.4 173.8 162.2 151.7 149 147 145.9 144.5 145 145.7 148.5 149.1 150.5 153.1 152.2 153.3 148.3 146.8 144.5 137.6 138.6 139.7 139.2 139.4 137.2 134 127.5 121.1 116.2 114.9 116 113.4 105 98 91.5 85.7 81 74.3 68.3 63.2 59.3 55.9 52.3 47.3 42.4 40.1 38.6 29.4 23.5 21.7 19.6 17.7 15.1 12.2 11.1 10.5 10.5 11 11 11.8 11.6 11.1 10.6 10.5 10.6 10.5 10.6 10.7 10.3 10.7 10.6 10.5 10.4 10.3 10.3 10.2 10.6 10.9 10.2 10.9 11.2 11.1 10.4 10.6 11.1 11.6 11.8 12.2 10.6 10.7 10.6 10.6 11.2 11.2 10.7 10.7 10.8 10.9 11.3 11.9 12.4 11.8 11.3 11.5 11.4 11.4 11 10.7 10.5 11.2 10.8 10.8 10.8 10.4 10.1 9.9 10.2 10.5 10.9 10.8 10.5 10.3 10 9.7 9.8 9.9 9.9 10 10 10 10.1 10.1 10.1 10.1 8.6 8.7 9.7 10 10 9.9 9.9 9.9 10 10.1 10.2 10.4 10.5 10.4 9.7 9.5 9.4 9.6 10.4 10.3 10.1 10 9.9 9.6 9.1 9.2 9.4 9.7 9.9 10 10 10.1 10.1 9.7 9.2 9.1 9.1 9 9 9 8.9 8.8 8.6 8.5 8.4 8.3 8.2 8.5 9.2 9.2 9.3 9.2 9.2 9.2 9 8.6
240.4 245.6 249.6 250.5 247.8 245.2 232 214.9 205 202.2 194 184.2 174.5 163.4 153.5 149.5 146.3 145 143.8 144.4 144.2 143.5 143.4 142.7 140.7 140.5 138.1 132.6 132.4 129.5 132.2 135.2 137.3 138.4 137.3 131.5 126 120.8 121.2 120.4 117.9 114.2 107.4 101.6 96 89.3 83.8 75.9 69 62.9 59.1 56.6 52.3 49 42.7 38.5 35.4 30.7 23.8 21.6 18.4 18 15.1 12.5 11.1 11 11.1 11.1 10.4 10.9 10.4 10.4 10.5 10.4 10.5 10.6 10.7 10.7 10.8 10.2 10.6 10.5 10.4 10.3 10.3 10.2 10.7 11 10.6 10.1 11.4 11.1 10.4 10.4 10.6 11.2 11.6 10.7 10.6 10.7 10.6 10.5 10.4 10.3 10.2 10.3 10.4 10.5 10.6 10.7 10.9 11.1 11.3 11.5 11.8 11.8 11.5 11.2 10.9 10.6 10.3 10 10.7 11.1 10.9 10.6 10.7 11 10.7 10.5 10.2 10 9.7 9.8 9.8 9.9 10 10.1 10.1 10.2 10.2 10.2 10.2 10 9.9 7.6 8.5 9.4 10 10 9.9 9.9 10 10.2 10.3 10.4 10.6 10.6 9.7 10.2 10.8 10.8 10.8 10.9 10.8 10.6 10.1 9.7 9.2 9.3 9.4 9.6 9.9 10.1 10.1 10.1 10.1 9.8 9.4 8.9 9 9.1 9 9 8.9 8.8 8.7 8.5 8.4 8.3 8.1 8.5 9.1 9.2 9.1 9.1 9.1 9.1 8.8 8.4
241.4 248 251 251 251.8 251 242.6 225.2 212.3 209.5 205.9 195.2 182.4 171.3 161.6 154.3 150.1 146.3 144.9 143.4 143.6 144.1 142.1 140.5 141.6 132.7 126.5 111.8 111.5 120.4 123.1 128.7 134.1 136.7 133.8 130.4 125.8 128 129.4 128.3 123.3 116.8 110.7 102.9 97.6 89.1 82 75.6 67 59.4 54.4 51.3 50.3 49.3 42.9 35.5 31.2 26 22.7 18.6 17.7 16.8 15.3 13 11.3 11.1 11.3 10.5 10.4 10.3 10.4 10.4 10.5 10.5 10.6 10.7 10.8 10.9 10.9 9.7 9.5 10.6 10.6 10.5 10.5 10.6 11.4 11.3 10.6 9.9 11.2 10.8 9.6 10.8 11.4 11.3 11.4 10.8 10.6 10.8 10.7 10.5 10.4 10.3 10.3 10.3 10.4 10.6 10.7 10.8 10.8 10.8 11 11.2 11.4 11.4 11.1 11.1 11 11 10.9 10.8 10.7 10.4 10.2 10.6 10.9 10.6 10.3 10 9.8 9.8 9.8 9.8 9.9 10 10.1 10.2 10.2 10.3 10.3 10.3 10.3 9.8 9.8 9.6 7.2 8.2 9.2 10 9.9 10 10.1 10.2 10.4 10.5 10.6 10.7 10.9 10.9 10.8 10.8 10.8 10.9 10.9 10.8 10.3 9.8 9.4 9.4 9.4 9.6 9.8 10.1 10.1 10 10 10 9.5 9 8.8 9 9.1 9 8.9 8.8 8.7 8.6 8.5 8.8 9.1 9.1 9.1 9.1 9 9 9 8.9 8.5 8.2
242 247.4 252.1 251.5 250 247 239.8 226.5 216.4 213.2 208.9 205.8 194.6 180 167.9 159.6 153.8 149.3 148 145 144.8 144.2 143.1 142.3 139.8 141 143.2 133.1 108.6 107.9 114.5 126 123.8 128 128.8 130.1 128.7 130 132.1 132.8 127.7 120.1 111.8 104.1 98.1 90.8 83.1 74.5 65.7 59 56 52.3 48.9 44.6 37.2 30.5 26.1 22.2 18 15.6 15.2 15.4 14.5 12.9 11.5 11 10.8 10.6 10.5 10.3 10.4 10.5 10.6 10.7 10.8 10.9 11 11 10.8 9.6 10.9 10.6 10.8 10.8 10.9 10.5 11.1 10.5 10.9 10.1 9.7 10.5 9.7 11.2 11.1 10.7 11.3 10.8 10.6 10.8 10.7 10.6 10.4 10.3 10.4 10.4 10.5 10.6 10.7 10.8 10.8 10.8 10.8 10.9 11.1 11.3 10.6 10.5 10.5 10.3 9.8 10.3 10.8 10.5 10.2 10.1 10.2 9.9 9.8 9.8 9.9 9.9 9.9 9.9 10 10.1 10.2 10.2 10.3 10.4 10.4 10.4 9.8 9.7 9.9 10.2 9.7 8.5 8.9 9.3 9.9 10 10.1 10.1 10.1 10.2 10.2 10.6 11 10.9 10.9 10.8 10.9 10.9 10.9 10.9 10.5 10 9.7 9.9 9.9 10.2 10.3 10.1 10 10 10 9.9 9.7 9.1 8.7 8.7 8.9 9.1 9 8.9 9.1 9.1 9.1 9 9 9 9.3 8.7 9 8.9 8.9 8.7 8.5 8.5
243.6 251.1 254.8 253.3 249.6 245.9 231.2 221.8 217.2 214.9 212.2 209.4 199.5 186.8 174.4 165.8 159.1 156.1 149.9 148 147.6 145 144.5 142 140.5 145.4 146.7 140 115.7 98.2 108.4 110 112.7 124.6 128.3 129.6 132.6 131 132.3 132 127.6 120.7 112.5 106.4 98.3 92.3 85.5 79.1 70.3 61.1 56.4 52.6 48.3 40.3 33.4 27.9 22.2 18.2 14.8 13.2 12.5 13.1 13.7 13.1 12 11 10.8 10.6 10.4 10.7 10.6 10.7 10.8 10.9 11 11.1 11.1 11.1 10.2 10.7 10.9 9.9 10.4 10.7 10.9 11.8 11.1 10.5 10.7 11.1 10.8 8.9 10.7 11.1 11 10.9 11.1 10.8 10.7 10.8 10.7 10.6 10.3 10.4 10.4 10.5 10.5 10.6 10.7 10.8 10.8 10.8 10.8 10.8 10.8 11 10.6 9.9 9.9 10.1 10.4 10.6 11 10.8 10.5 10.1 9.9 9.9 9.9 9.9 9.9 9.9 10 10 10.1 10.2 10.3 10.3 10.4 10.5 10.5 10.5 9.6 9.8 10 10.2 10.2 9.2 8.8 9.3 9.7 10 9.8 9.7 9.7 9.8 10 10.3 10.7 11 10.9 10.8 10.9 10.9 10.9 10.9 10.7 10.3 10.1 10.3 10.5 10.3 10.1 10.1 10 9.9 9.6 9.9 9.9 9.4 8.8 8.5 8.7 8.8 9.1 9 9 9 9 9 9 9 9.3 9.2 8.3 8.2 8.6 8.6 8.5 2.7
245.3 252.4 253.8 249.6 248.7 240 221.5 217 216.4 215.8 213.1 209.4 200.4 189.3 180 170.9 163.2 159.2 154.6 149.6 145.7 144.3 143.9 143.5 143.9 147.8 147.8 142.2 118.9 98.1 106.8 109.1 110.2 113.6 124.7 127.1 128.5 128.4 127.4 128.8 126.3 120.9 114.3 109.6 100.2 92.1 86.7 83 74 62.7 57.5 51.3 45.8 34.5 25.5 20.1 17.1 14.8 12.8 11.9 11.7 12.2 12.5 12.9 12.4 11.4 10.6 10.4 11.2 11 10.8 10.9 11 11.1 11.2 11.2 11.2 11.2 10.4 11.1 10.9 10.8 10.6 9.1 10.6 11.2 10.7 10.2 10.1 10.5 11 11.2 11.5 10.3 10.4 11.1 10.9 10.9 10.8 10.8 10.7 10.3 10.5 10.5 10.5 10.6 10.6 10.7 10.8 10.8 10.8 10.8 10.8 10.8 10.8 10.8 10.7 10.1 10.1 10.4 10.7 10.9 11.2 11.1 10.7 10.3 10.1 10 10 10 10 10 10 10.1 10.2 10.3 10.3 10.4 10.5 10.5 10.6 10.1 9.6 9.8 9.9 10.1 10.3 10.1 8.5 9.2 9.5 9.8 10 9.9 9.7 9.5 9.7 10.1 10.4 10.7 10.9 10.9 10.9 10.9 10.9 10.9 10.9 10.6 10.5 10.5 10.3 10.1 9.9 10 10 9.9 9.8 9.3 9.8 9.8 9.2 8.6 8.4 9.2 9.3 9.1 9 9 9 9 9 9 9.2 9 9 8.8 8.5 6.7 2.6 2.5
233.1 245.3 249.1 246 231.9 215.8 211.7 213.1 214.6 215.1 213.2 208.5 200.3 191.9 183.4 175.6 168 161.8 157.2 152.7 146.4 139.6 140.7 142.9 143.9 144.1 140.9 137 125.1 98.7 95 107.1 112.2 113 113.2 122 120.1 121.6 122.2 120.2 119.6 117.1 112.7 106.4 98.3 90.7 84.4 79.6 74.3 64.6 55 46.8 37.3 26.1 18.4 14.6 14.7 13.4 11.3 11.1 11 11.1 11.7 12.2 12.5 11.5 10.7 11.3 11.4 11.2 11 11.1 11.2 11.3 11.3 11.3 11.3 10.7 11.2 11.1 10.9 10.3 10.7 10.3 10.1 10.5 10 9.6 10 10.8 11.1 11.2 11.1 11.4 10.1 11 11 11 10.9 10.8 10.5 10.5 10.5 10.6 10.6 10.6 10.7 10.7 10.8 10.9 10.9 10.9 10.9 10.9 10.9 10.8 10.8 10.4 10.2 10.5 10.7 11 11.1 11.2 10.9 10.6 10.3 10.1 10.1 10.1 10.1 10.1 10.1 10.2 10.3 10.4 10.4 10.4 10.2 9.9 9.7 9.5 9.5 9.6 9.8 10 9.8 8.6 8.7 7.9 9.3 9.4 9.7 9.6 9.3 9.1 9.4 9.8 10.1 10.4 10.8 10.9 10.9 10.9 10.9 10.8 10.6 10.5 10.4 10.3 10.1 9.9 9.7 10.1 10 9.9 9.8 9.7 9.2 9.7 9.5 8.9 9.3 9.5 9.5 9.3 9.2 9 9 9 9 9 9.1 8.9 8.7 8.6 4.2 2.6 2.4 2.2
209.5 223.2 224.3 221 207.8 205.4 207.4 211.6 214.9 216.1 213.2 207.6 198.9 191.7 183.3 176.2 170.2 165.7 161.7 156.3 151.6 140.7 133.1 134 137.3 135.1 132.2 129.8 121.5 109.4 85.9 104.5 113.9 116.4 118.4 113.1 111.1 111.8 114.3 114.3 111.8 110.7 107.4 101.6 92.7 83.6 76.9 70.5 66.2 59.1 49.2 37.7 24.9 17.9 13.5 12.9 12.3 11.4 11.3 11.2 11 10.8 11 11.6 11.8 11.7 10.9 10.6 11.5 11.5 11.3 11.3 11.4 11.4 11.4 11.4 11.4 11.2 11.2 11.1 10.3 10.2 10.7 10.3 9.9 9.9 9.4 9.5 10.1 11 11.2 11 10.9 10.7 10.8 8.1 8.5 10.1 10.4 10.8 10.4 10.6 10.6 10.7 10.7 10.7 10.8 10.8 10.9 10.9 10.9 10.9 10.9 10.9 10.9 10.8 10.8 10.7 10.3 10.6 10.8 11.1 11 11.1 11.1 10.8 10.5 10.3 10.2 10.2 10.2 10.2 10.2 10.3 10.4 10.5 10.5 10.4 10.1 9.7 9.8 9.9 9.4 9.5 9.7 9.9 8.8 9.4 9.7 9.7 8.3 8.9 9.2 9.2 8.5 8.9 9.2 9.5 9.8 10.2 10.5 10.8 10.9 10.8 10.6 10.4 10.3 10.2 10.1 10 9.9 9.7 9.5 9.9 10 9.9 9.8 9.7 9.6 9.1 9.6 9.7 9.6 9.5 9.5 9.4 9.3 9.2 9.1 9 9 8.9 8.9 8.8 8.6 8.1 2.6 2.4 2.2 2
213.8 202.8 200.7 199.4 200 203.6 208.4 211.7 214.7 213.2 210.2 205 197.4 191.2 183.5 176.9 170.7 167 164.7 160.1 155 147.3 136.2 126.9 120.1 116.9 114.4 112.9 109.8 100.9 79.3 98.3 106.2 109.9 113.8 115.5 112.6 107.1 106.5 106.7 103.1 100.2 98.1 90.3 82.6 74 67.2 58.1 47.8 43.6 38.4 27.2 17.3 13.4 12.5 11.9 11.6 11.4 11.3 11.3 11.1 10.8 10.4 10.9 11.2 11.4 11.1 10.9 10.7 11.1 11.6 11.5 11.5 11.5 11.5 11.5 11.2 11.4 11.1 10.6 10.7 10.7 10.3 10.5 10 10.4 9.8 9.3 11.8 11.2 11.1 10.6 9.4 9.9 9.9 10.5 10.6 10.6 10.3 10.3 10.6 10.7 10.7 10.7 10.8 10.8 10.8 10.9 10.9 10.9 10.9 10.9 10.9 10.9 10.9 10.9 10.8 10.8 10.4 10.7 10.9 10.9 10.9 11 11.2 11 10.7 10.5 10.4 10.3 10.3 10.3 10.3 10.4 10.5 10.5 10.3 10.5 10.1 9.7 10.2 10.2 9.4 9.4 9.6 9 9.5 9.6 9.6 9.7 9.7 7.8 7.5 8.4 7.3 8.3 8 9.2 9.9 10.2 10.5 10.8 10.6 10.4 10.3 10.1 10 9.9 9.8 9.7 9.7 9.5 9.4 9.7 10 9.9 9.8 9.7 9.6 8.6 9.5 9.7 9.6 9.5 9.4 9.4 9.3 9.2 9.2 9.1 9 8.9 8.8 8.7 8.5 2.7 2.4 2.2 1.9 1.7
221.8 204.2 198.6 196.4 199.7 204.2 206.9 209.3 209.9 207.8 205.2 201.1 196.2 189.1 183.2 178 172.1 167.7 163.8 160 156.7 151.7 143.7 133.2 124.1 117.6 111.1 104.1 98.9 87.4 76.4 85.7 93.6 98.1 103.6 108.9 112.4 108.2 99 95.4 88.2 82.9 77.7 74 66.9 60.1 49.5 42.7 39.4 32.6 25.6 18.3 13.4 12.1 12.2 11.6 11.6 11.3 11.3 11.3 11.2 10.8 10.5 10.2 10.6 10.8 11.1 10.9 10.8 10.6 10.7 11.5 11.6 11.6 11.6 11.6 11.6 11.1 11.1 11.2 11.2 11.3 9.4 10.4 10.3 10.9 11 11.1 11.1 11.2 10.8 10.5 10.4 10.3 10.6 10.9 10.9 11 10.9 10.5 8.9 10.2 10.3 10.4 10.5 10.6 10.7 10.9 10.9 10.9 10.9 10.9 10.9 10.9 10.9 10.9 10.8 10.8 10.6 10.7 10.9 10.8 10.8 10.9 11.1 11.2 10.9 10.7 10.6 10.4 10.4 10.4 10.4 10.5 10.6 10.2 10.4 10.5 10.2 9.8 9.5 10 10 9.3 9.2 9.4 9.4 9.5 9.5 9.5 9.6 9.6 9.4 9 8.7 8.3 8.2 10 9.4 10.4 10.7 10.4 10.3 10.2 10 9.8 9.6 9.5 9.5 9.4 9.3 9.3 9.2 9.6 9.9 9.9 9.8 9.7 9.5 8.7 9.7 9.6 9.5 9.4 9.4 9.4 9.3 9.3 9.2 9.1 9 8.9 8.7 8.6 2.6 2.4 2.2 1.9 1.7 1.5
231.1 210.4 200.4 195.5 197.2 198.7 200.7 203.2 203.1 203.1 200.8 197 192.9 188.7 183.3 177.4 173.1 168.8 164.6 159.7 155.7 153.4 145.7 137.5 129.6 122.1 115.1 109.6 103.6 96.9 87.8 73.6 79.2 88.3 92.9 100 101.2 97.4 90.1 83.7 76.3 67.5 63.8 60.3 55.1 47 39.7 34.6 30.7 24.5 16.6 12.7 11.2 10.5 11.7 10.9 11.5 11.3 11.4 11.4 11.3 10.9 10.5 10.1 10.6 11.1 11 10.8 10.7 10.5 10.7 11.1 11.2 11.6 11.7 11.7 11.6 11.7 11.7 11.7 11.7 11.7 11.2 10.6 10.3 10.5 11.1 11.2 10.9 10.7 10.7 10.7 10.9 10.9 11.1 11.2 11.2 10.9 10.7 10.5 8.6 10.1 10.2 10.3 10.5 10.7 10.9 10.9 10.7 10.8 10.9 10.9 10.9 10.9 10.9 10.9 10.8 10.8 10.8 10.8 10.8 10.6 10.6 10.8 11 11.2 11.1 10.9 10.8 10.6 10.5 10.5 10.5 10.6 10.3 10 10.4 10.5 10.3 9.8 10 10.2 10.3 9.3 9.3 9.3 9.4 9.4 9.5 9.5 9.6 9.7 9.7 9.5 9.2 8.9 8.2 9 10.4 10.4 10.3 10.1 10.1 9.9 9.7 9.5 9.3 9.3 9.3 9.3 9.2 9.2 9.2 9.5 9.8 9.7 9.3 8.9 9.1 9.5 9.7 9.6 9.5 9.4 9.3 9.3 9.3 9.3 9.2 9.1 9 8.7 8 2.6 2.4 2.1 1.9 1.7 1.5 1.3
244.6 218.6 204.3 197.2 193.3 192.9 195.7 198.7 202.1 201.7 197 191.8 188.9 184 180.1 176.7 172.6 169.6 164.9 159.3 156 150.2 141.5 135.3 129.1 122.7 116.2 110.6 106 99.9 95.5 88.6 71.6 73.5 80.4 82.4 85.3 83.1 79.6 71.6 64.2 55.7 50.8 48.3 43.7 36.5 30.5 25.8 22 17.8 12.7 11.4 11 10.6 10.2 10.2 11.4 11.4 11.4 11.4 11.3 10.9 10.5 10.5 11 10.9 10.8 10.7 10.5 10.6 10.9 10.6 11.4 10.3 10.3 11.7 11.8 11.7 11.3 11.3 11.6 11.8 14.8 12.4 10.9 11.4 11.6 10.6 10.5 11.1 10.6 10.9 11.1 11.3 11.5 11.3 11.1 10.9 10.7 10.5 9.6 10.1 10.3 10.5 10.7 10.9 10.8 10.7 10.5 10.6 10.7 10.8 10.8 10.8 10.8 10.8 10.8 10.8 10.8 10.8 10.6 10.5 10.4 10.4 10.5 10.5 10.6 10.8 11 10.8 10.7 10.6 10.6 10.3 10 10 10.5 10.5 10.3 10.3 10.4 10.5 10.1 9.5 9.3 9.3 9.4 9.4 9.5 9.6 9.7 9.8 9.9 9.7 9.6 9.4 8.8 8.3 7.9 10 10 10 10 9.8 9.6 9.4 9.3 9.4 9.4 9.4 9.4 9.3 9.3 9.5 9.8 9.5 8.9 8.7 9 9.2 9.3 9.5 9.4 9.3 9.3 9.3 9.2 9.2 9.2 9.1 8.9 8.6 2.7 2.4 2.1 1.9 1.6 1.5 1.2 1
253.5 229.5 206.8 197.7 193.4 191.8 190.7 193.4 195.4 194.2 191.6 188.8 190.2 182.8 178.6 174 171.4 166.9 161.7 155.3 152.4 142.2 134.1 126.6 118.7 113.9 110 105.7 102.7 100.9 98.3 92.5 86.7 68.6 64 63.2 69.8 66.8 61.2 56.3 51.4 48.7 43.1 38.1 32.4 27.7 22.6 19.9 16.6 13.4 11.7 11 10.6 10.3 10.2 10.5 11 11.4 11.4 11.5 11.3 10.8 10.4 10.8 10.9 10.8 10.7 10.6 10.4 10.7 11.1 10.1 10.9 10.7 11.1 10.9 11.7 10.9 11.2 11.6 11.9 12.3 16.8 12.6 11.6 13.4 11.5 11.2 11.5 10.9 10.8 11 11.3 11.8 11.6 11.4 11.2 11 10.9 10.7 9.9 10 10.5 10.7 10.9 10.8 10.7 10.5 10.3 10.5 10.6 10.7 10.7 10.7 10.7 10.7 10.7 10.8 10.8 10.7 10.5 10.4 10.2 10.1 10 9.9 10.1 10.3 10.4 10.5 10.6 10.6 10.4 10.1 9.7 10.1 10.5 10.4 10.1 10.6 10.7 10.5 9.8 9.7 9.3 9.4 9.4 9.5 9.5 9.6 9.8 9.9 10 9.9 9.8 9.7 9.9 9.8 8.9 9.2 9.9 9.9 9.9 9.7 9.5 9.4 9.3 9.4 9.4 9.4 9.5 9.4 9.4 9.5 9.6 9.2 8.8 8.4 8.7 8.8 8.9 9.2 9.4 9.3 9.2 9.2 9.2 9.2 9.2 9.1 8.7 3.1 2.4 2.1 1.8 1.6 1.4 1.2 1 0.8
255.7 231.1 209.8 199.7 193.2 187.7 187.2 188 189 187.5 185.3 185.2 186.5 180.4 175.5 169.7 164.7 160.9 156.4 151.6 140.6 131.3 122.9 120 115.2 115.6 108.1 96.1 91.9 89.6 90.5 89 85.9 80.8 72.4 61.8 60.2 52.5 50.6 48 45.6 42.9 37.5 31.9 25.7 21.3 18.2 15.6 13.5 12.3 11.2 10.6 10.5 10.8 10.9 11 11 10.6 11 11.3 11.1 10.4 10.6 10.7 10.7 10.6 10.5 10.4 10.7 11.2 11.5 11.1 10.7 10.7 11.3 11.4 10.6 10.3 11.6 12.3 13 13.6 18.4 12.2 14.1 12.7 11.4 11.2 11.3 10.8 11 11.5 12 11.8 11.7 11.6 11.4 11.2 11 10.8 9.1 10.8 10.7 10.9 10.8 10.7 10.5 10.3 10.2 10.3 10.4 10.5 10.6 10.7 10.7 10.7 10.7 10.7 10.7 10.6 10.4 10.3 10.1 10 9.9 10.1 10.6 10.9 10.8 10.6 10.4 10 10.7 10.4 10 10.6 10.1 9.9 10.4 10.6 10.7 10.5 10 9.8 9.5 9.4 9.4 9.5 9.6 9.7 9.9 10 10 10.1 10 10.1 10.3 10 8.9 8.2 9.9 9.8 9.8 9.6 9.4 9.4 9.4 9.4 9.5 9.5 9.5 9.5 9.5 9.5 9.4 9 8.6 8.2 8.3 8.4 8.5 8.7 9 9.2 9.2 9.2 9.1 9.1 9.1 8.9 8.5 2.5 2.1 1.8 1.5 1.3 1.1 1 0.8 0.5
258.9 232.6 213 202.7 196.2 190.4 185.6 183 180.5 180.2 176.3 178.1 176 174.6 170.5 164.7 159.9 156.6 154.6 146.5 138 144.9 141.7 135 127.8 127 123.3 111.3 97.6 87.8 79.2 78.6 80.3 79.1 73.2 66.3 51.9 49 46.3 43.7 41.8 38.4 32.9 26.1 21.7 18.7 16.1 14 12.3 11.5 10.8 10.7 10.8 10.9 11 11.1 11.1 10.7 11 11.4 10.7 10.5 10.6 10.6 10.6 10.5 10.4 10.7 10 11.6 11.1 10.8 10.6 11 11.5 11.8 11.5 11.1 11.3 11.9 12.6 12.5 12.3 14.1 19.2 12.1 11.7 11.2 11.2 11.2 11.8 12.3 12.1 11.9 11.9 11.7 11.5 11.3 11.1 10.6 8.7 10.5 10.3 10.7 9.9 9.8 9.6 9.5 10 10.1 10.2 10.3 10.4 10.5 10.6 10.6 10.6 10.6 10.7 10.5 10.4 10.2 10 9.8 10.1 10.5 10.9 10.5 10.3 10.1 10 10.3 10.1 9.8 10.6 10.3 9.8 10.4 10.7 10 10.7 10.4 10.2 10 9.7 9.4 9.4 9.5 9.7 9.8 10 10.1 10.1 10.2 10.2 10.2 10.2 10.2 9.4 7.8 9.9 9.8 9.7 9.5 9.4 9.4 9.4 9.5 9.5 9.5 9.5 9.6 9.6 9.5 9.5 9.5 9.5 9.5 9.4 9 8.7 8.3 8.5 8.9 9.1 9 9 8.9 8.9 8.7 2.6 2.2 1.9 1.6 1.2 1 0.8 0.7 0.5 0.3
250.4 230.6 214.7 204.9 198.4 193.1 188 185 184.7 185.3 182.7 177.3 171.7 165.1 162.7 159.2 155.3 153.3 149.4 141.4 146 153.2 150.8 152.1 145.5 136.6 134.4 122.9 112.3 101.6 91.2 79.7 70.2 72.6 65.2 58.4 54.7 47.9 42.6 37.3 40.3 36.8 29.8 22.6 18.8 16.7 14.9 13 11.5 11.2 10.8 10.9 11 11.1 11.2 11.2 11.2 11.2 11.1 11.1 10.5 10.7 10.5 10.5 10.4 10.5 11 11.2 10.3 9.2 10.9 10.5 10.6 11.1 11.6 11.9 11.9 11.8 11.7 11.6 12 12.4 13.3 18.3 17.7 17.7 15 11.9 11.7 12.4 12.6 12.4 12.2 12 12 11.8 11.6 11.5 11.3 11.2 9.4 9.9 9.3 9.8 9 7.8 9.8 9.8 9.8 9.7 9.8 10 10.2 10.4 10.5 10.5 10.5 10.6 10.6 10.5 10.3 10.2 10.1 10 10.3 10.7 10.7 10.2 9.9 9.8 9.8 9.7 9.7 9.7 10.5 10.6 9.7 9.9 9.7 9.6 10.1 10.6 10.5 10.2 9.9 9.5 9.5 9.6 9.8 9.9 10 10.2 10.2 10.3 9.9 10 10 10.1 9.3 5.9 9.4 9.7 9.5 9.4 9.4 9.4 9.4 9.5 9.5 9.6 9.6 9.6 9.4 9 9.1 9.1 9.1 9.5 9.7 9.6 9.6 9.3 8.4 8.4 8.7 9 9 8.9 8.8 5.1 2.4 2 1.6 1.3 1 0.7 0.6 0.4 0.3 0.1
244.3 223.6 212.7 205.7 201.6 196.8 192.4 186.6 185.4 187.2 187.9 184.2 179.2 173.9 167.2 160.9 158.6 155.2 148.1 151.9 157.2 160 160.8 158 157.5 146.1 139.9 131.1 123.6 116.4 104.4 94.4 84.9 70.5 60.3 54.6 50.6 46.7 43 41.4 34.8 34.5 26.3 20.1 17.5 15.7 14.6 13.3 11.9 11.3 10.8 10.9 11.1 11.2 11.3 11.3 11.3 11.3 11.3 10.8 10.2 11 10.4 10.4 10.7 11.2 11.4 11.7 9.9 9.9 10.4 10.5 10.7 11.2 11.6 11.8 12 11.9 11.8 11.8 12.4 13.5 12.3 11.9 12.1 12.1 12.4 12.8 12.9 12 11.7 12 12.2 12.1 12.2 12 11.8 11.7 11.5 11 10.9 10.5 10.1 10.1 10.2 9.1 9.5 9.6 9.6 9.9 9.4 9.6 9.7 9.9 10.1 10.3 10.4 10.4 10.6 10.6 10.5 10.4 10.3 10 9.7 10.9 10.4 10.2 10 9.7 9.7 9.6 9.6 9.6 10.5 10.7 10.3 10.3 9.8 9.8 9.8 9.7 10.2 10.4 9.8 9.4 9.6 9.7 9.9 10 10.1 10.3 10.2 10.2 10.1 10 10 10.1 8.7 8.3 8.4 9 9.3 9.4 9.4 9.4 9.4 9.5 9.6 9.6 9.6 9.2 8.8 8.6 8.7 8.8 9.1 9.5 9.7 9.7 9.7 9.5 8.4 8.3 8.5 8.7 8.8 9.1 8.7 2.4 2 1.7 1.3 1 0.7 0.4 0.2 0.1 0.1 -0.2
246.9 221.9 212.4 206.7 203.2 199 194.9 189.7 185 184.6 185.4 184 180.8 176.8 172.2 167.6 163.6 161.1 157.8 155.1 160.5 166.2 165.9 168.7 166.2 158.4 149.5 137.7 132.1 127.4 120 111.1 101.3 88 73.3 64.6 58 52.1 46.2 39.9 32.6 26.2 22.6 19.1 17.5 16.7 14.2 12.8 11.8 11.8 11.1 11.1 11.2 11.4 11.4 11.4 11.4 11.3 10.7 10.5 10.3 11.1 10.6 10.9 11.4 11.5 11.6 11.8 9.5 10.2 10.4 10.6 10.8 11.3 11.5 11.7 12 12 11.9 12.4 12.5 11.8 11.9 12.1 12.4 12.9 13.5 13.9 14 13.6 12.8 12.8 12.8 11.7 12.2 12.2 12 11.5 10.9 10.8 10.9 10.4 10.2 10.1 10 9.9 8.7 9.1 8.6 7.9 9 8.3 9.6 9.8 10.2 10.3 9.6 9.4 10 10.4 10.6 10.5 10.4 9.8 9.6 10.8 10.8 10.7 10.4 10 9.7 9.6 9.5 9.7 10.5 10.7 10.6 10.3 10 9.9 9.9 10.1 10.2 9.5 9.3 9.5 9.7 9.9 10.1 10.2 10.2 10.1 10 10.1 10.2 10 10.1 10.1 8.5 9.7 7.1 6.2 6.2 5.1 4.3 6.2 8.2 8.5 8.9 9.5 9.1 8.7 8.3 8.2 8.4 8.8 9.1 9.5 9.8 9.8 9.7 9.3 8.6 8.3 8.4 8.6 8.8 8.8 2.7 2 1.5 1.3 1 0.6 0.4 0.1 -0.1 -0.2 -0.3 -0.4
234.7 217.3 210.8 207.5 204.9 201.4 197.7 193.8 186.3 182.3 180.8 180 180.1 177.5 173.5 170.1 168.4 166.5 166 164.2 167 171.1 173.5 171 168.9 164.4 156 143.7 137.6 136.4 128.5 122.9 113.6 105.1 89.5 73.3 62.9 54.8 49.8 41.3 32.7 23.5 19.7 18.2 16.9 15.3 13.5 12.6 11.8 11.4 11.6 11 11.8 11.8 11.4 11.4 11.3 10.6 10.3 11 10.8 10.3 10.3 10.4 10.9 11.1 11.5 11.6 11.1 10.2 10.7 10.7 10.9 11.2 11.4 11.6 11.9 12 12.6 12.5 12.4 12.1 12.3 12.4 12.6 13.5 14.4 14.9 14.8 14.6 14.3 13.9 12.8 11.8 11.7 12 11.4 10.9 10.4 10.8 10.8 10.4 10.3 10.1 10 9.9 8.2 8.8 9.9 9.7 9.8 9.8 9.4 9.4 7 9.7 7.8 8.1 9.3 9.7 10.1 10.5 10.6 9.7 10.5 10 9.9 9.7 10.5 10.3 10 9.7 9.4 9.7 10.1 10.6 10.6 10.1 10.1 10.2 10.3 10.4 10.5 10.1 9.5 9.7 9.8 10 10.2 10.2 10.1 10 9.9 9.8 10 10.2 10.1 10.1 9.7 9.8 9.6 7.9 7.8 8.5 8.6 8.3 6.2 7.6 8.2 8.7 9.1 8.4 7.8 8.1 8.5 8.8 9.2 9.5 9.9 9.9 9.5 8.9 8.8 8.4 8.4 8.5 8.5 8.4 2.3 1.6 1.1 0.8 0.6 0.3 0 -0.1 -0.4 -0.5 -0.6 -0.6
214.8 206.7 205.6 205.4 204.6 201 198.1 195.9 190.5 183.5 179.7 178.3 177.1 177.2 174.4 172 171.3 171.8 171.7 170 169.9 173.2 179.1 178.9 173 169.3 160.9 146.6 138.4 138.7 132.2 128.5 120.6 110.5 97.9 85.2 71.7 58 50 39.9 30.6 21.6 17.8 16.6 15.3 14 13.4 12.6 11.8 11 11 10.8 11.6 11.7 10.9 11 11.2 10.6 10.2 11.5 10.7 11.1 11 10.7 10.2 10.5 10.1 9.7 10.2 10.3 11.5 11 10.9 11.3 11.6 11.9 12.2 12.8 12.5 12.5 12.5 12.5 12.7 12.8 13.5 14.3 15.1 15.9 15.6 15.2 14.2 13.9 13 12 11.6 11.4 10.8 10.2 10.4 10.8 10.8 10.5 10.3 10.1 10.1 9.8 9.2 9.3 10.1 9.8 9.9 9.9 8.9 9.5 9.4 9.4 9.2 9.2 9.1 9.5 9.9 10.3 10.6 10.7 10.6 10.6 10.3 9.9 10.6 10.4 10.1 9.9 9.6 9.3 9.6 10.2 10.8 9.8 9.9 10 10.1 10.2 10.3 10.3 9.7 9.8 10 10.1 10.1 10.1 9.9 9.8 9.7 9.6 9.8 10 10.2 10.1 10 9.9 9.8 9.8 9.7 9.5 9.8 9.4 8.9 7.2 -0.6 -1.4 8.8 8.6 8.6 8.9 9.1 9.4 9.6 9.8 10 9.5 8.9 8.6 8.4 8.1 8 8.1 8.1 4 2.2 1.2 0.7 0.3 0.1 -0.1 -0.3 -0.5 -0.7 -0.9 -0.9 -0.9
197.2 194.9 197.8 200.1 199.6 199.8 199.8 198.4 194.3 185.9 180 176.1 175.7 177.1 177.1 177 175 175.8 176 173.8 173.5 176.2 178.9 178.5 176.1 170.4 161.4 153 139.6 131.6 130.3 127.5 116.7 107.8 97.5 86.9 73.2 60.8 46.6 35.3 27.5 18.4 16.3 15 13.7 13.2 12.7 12 11.3 10.9 10.7 10.5 11.6 11.3 10.7 10.6 11.2 10.7 11.4 10.9 10.4 10.6 11 11.3 11 10.2 10.2 10.4 10.8 11.1 11.1 10.9 11 11 12 12.3 12.8 12.5 12.7 12.7 12.7 13 13.6 13.6 15.6 16.4 16.2 15.6 14.9 14.2 13.8 13 12.4 11.9 11.3 10.8 10.3 9.9 10.3 10.7 10.8 10.6 10.4 10.2 10.1 9.8 9.6 9.7 10.4 9.9 10 10 9.1 9.6 9.5 9.4 9.3 9.1 9 9.9 10.2 10.5 10.6 10.6 10.6 10.5 10.1 9.7 10.1 10.6 10.3 10 9.5 9.3 9.3 9.8 10.5 9.6 9.7 9.9 10 10 10.1 10.2 9.9 10 10 10 10 10.1 9.9 9.6 9.5 9.4 9.5 9.8 10 10.2 10 9.9 9.7 9.8 9.8 9.8 9.8 9.3 8.5 9 8.8 -1.4 -1.4 7 8 9.2 9.4 9.6 9.8 9.9 9.9 9.9 9 8.1 7.5 6.9 6.6 7.2 8.2 3.3 2 1.1 0.2 -0.3 -0.5 -0.6 -0.8 -1 -1.1 -1.2 -1.4 -1.2
183.7 184.1 188.8 192 194.7 197.2 200.5 198.2 195.8 189.8 182.8 174.3 169.9 169.1 173.2 175.3 176.3 176.9 176.2 180.4 175.1 175.7 174.8 170.6 170.6 166.9 159.2 149.7 136.2 125 120.8 119.9 110.1 101.9 93.5 79.9 64.9 50.9 38.9 30.1 22.5 17.7 14.7 13.4 12.9 12.4 11.9 11.4 10.7 11 11.2 10.9 10.3 10.2 10.3 10.8 11.1 11 10.7 10.5 10.4 10 10 10.4 10.8 10.9 10.5 10.8 11.3 11.6 11.9 11 11.1 11.1 11.2 12.1 12.5 12.7 12.8 12.9 13.8 14.8 15 16 16.7 16.4 16.1 15.5 15.3 14.7 13.9 13.2 12.9 12.3 11.4 11 10.6 9.9 10.2 10.8 10.9 10.7 10.5 10.3 10.1 10 10.1 10.1 10.7 10.1 10 10.1 9.8 9.7 9.7 9.5 9.4 9.2 8.7 8.9 10.3 10.5 10.6 10.5 10.3 10.1 9.6 10 10.4 10.6 10.5 10 9.6 9.5 9.7 9.9 10.4 9.5 9.6 9.6 9.8 9.9 9.9 10.1 10 9.8 9.8 9.9 10 10 9.9 9.6 9.3 9.2 9.3 9.5 9.8 10.1 9.9 9.7 9.7 9.8 9.9 9.9 9.7 9.5 9.2 9 8.8 8.7 -1.4 -1.4 7.1 9.3 9.6 9.7 9.8 9.9 9.8 9.8 9.4 8.1 7.5 7.5 7.7 7.6 4.2 2.5 1.4 0.5 -0.1 -0.9 -1.1 -1.4 -1.4 -1.4 -1.4 -1.4 -1.4 -1.4
172 175.2 180.2 182.9 187.1 193.5 192.6 195.3 197.1 193.6 188.3 179.3 168.6 162.7 164 173.5 182.8 177.4 173.9 174.5 170.7 168.8 169.9 166.4 162.8 154.5 146.3 136.1 125.3 113.1 103.4 98.8 97.3 87.8 77.7 67.8 55 42.2 34.9 27.6 18.3 14.7 13 12.4 11.9 11.4 10.9 10.6 10.6 10.2 11.1 11.5 11.3 11 10.4 10.9 11.2 11.3 11.1 11 10.8 10.7 10.1 9.7 9.8 10.1 10.9 10.7 11 11.4 11.9 12.4 11.9 11.9 12 12.6 12.7 13 13.5 14.7 15.8 16.8 17 17 17.2 16.8 16 15.2 14.9 14.7 14.2 13.4 13.2 12.9 11.6 11.2 12 11.6 10.6 11.2 11.2 11 10.8 10.6 10.8 10.4 10.5 10.5 10.9 10.4 10.1 10.1 9.9 9.8 9.8 9.6 9.4 8.9 8.9 9 9.2 10.2 10.4 10.2 10 9.7 10 10.4 10.6 10.6 10.2 10.3 9.8 9.8 10 10.2 10.5 9.5 9.6 9.7 9.7 9.7 9.7 9.7 9.7 9.5 9.7 9.7 9.8 9.9 9.9 9.6 10.3 10 9.1 9.4 9.7 9.9 9.8 9.6 9.6 9.7 9.9 9.9 9.6 9.4 9.2 9 8.8 8.6 9.1 -1.4 -1.4 7.6 9.3 9.7 9.8 9.8 9.7 9.6 9.5 8.2 8.3 8.3 8 6.3 3.4 2 0.8 -0.4 -1.4 -1.4 -1.4 -1.4 -1.4 -1.4 -1.4 -1.4 -1.4 -1.4
160.8 163.7 168.8 173.5 178 180.1 184.5 189.7 189.7 190.5 194.2 191.2 176.3 166.5 156.1 163.4 165.2 166.5 167.3 166.7 164.9 162.8 164 159.4 152.9 145.1 135.1 121.3 108.8 98.6 88.9 83.7 75.7 68.8 61.3 50.1 42.4 37.4 32 24.6 17.4 13.2 11.4 10.7 10.8 10.4 10.4 10.4 10.4 10.2 9.8 9.6 11.2 11 10.4 10.9 11.1 11.1 11.2 11.2 11.2 11.1 11 10.3 9.7 10.5 11.2 11 10.8 11.1 11.6 12.3 12.8 12.8 12.7 12.7 13.1 13.9 15 16.3 17.7 18.7 18.7 17.4 17.2 16.4 15.3 14.9 14.6 14.4 14.2 13.6 13.3 13.1 13.4 12.8 13.2 13.7 12.3 12.9 12.7 12.7 12.5 12 12 11.4 10.9 10.9 11.2 10.6 10.2 9.9 10 9.9 9.8 9.7 9.2 9.3 9.4 8.9 8.9 7.9 9.4 9.9 9.7 10 10.2 10.4 9.8 10.5 9.9 10.6 10.1 10 10.3 10.3 10.1 10.3 9.7 9.8 9.8 9.5 9.1 9.2 9.3 9.2 9.2 9.4 9.6 9.7 9.7 9.9 10.1 10 9.1 9.4 9.6 9.8 9.7 9.5 9.6 9.7 9.8 9.8 9.6 9.4 9.2 9 8.8 8.6 9.3 9.3 7.1 -1.4 -1.4 9.1 9.6 9.6 9.5 9.5 9.3 8.4 8.5 8.5 6.7 4.1 2.6 1 -1.4 -1.4 -1.4 -1.4 -1.4 -1.4 -1.4 -1.4 -1.4 -1.4 -1.4 -1.4
150.9 151.7 154.8 157.6 164.9 160.9 163.8 169.2 170.7 174.8 176.2 176.3 177.3 166.3 152 144.1 150.7 152 155.5 153.7 151.3 144.3 139.1 134.2 128.3 121.4 111.9 102 90.9 82.9 73.8 73.5 67.1 57.5 48.8 41.6 35.5 29.3 25.3 22.2 16 13.2 11.8 11.4 10.3 10.2 10.2 10.3 10.3 11.2 9.8 10.9 11.4 11 10.3 10.7 10.9 11 11 11.1 11.1 11.2 11.2 10.2 10.1 10.1 11.5 11.3 11.1 10.9 11.3 12.1 12.5 12.7 12.5 13.1 13.7 15.1 15.6 16.3 17.6 19 18.1 16.5 16.5 16.4 15.6 15.2 14.9 14.5 14.1 13.8 13.8 14.4 15.1 15 15 15.1 14.3 15.6 15.6 15.5 14.3 13.6 13.1 12.6 11.9 11.3 11.5 10.9 10.4 10.2 10.1 10 9.9 9.6 9.7 9.8 9.3 8.9 9.2 9.3 8.4 7.5 9.4 9.8 10.1 10.3 9.7 10.1 9.6 9.8 10.1 9.9 9.7 9.5 9.6 10.3 10.1 9.9 10.1 9.6 8.8 8.8 8.8 8.8 8.8 9.2 9.3 8.6 9.7 9.8 10 9.8 9.3 9.4 9.6 9.6 9.5 9.5 9.6 9.7 9.8 9.7 9.6 9.4 9.2 9 8.7 9 9.1 9.1 9.1 8.4 -1.4 -1.4 -1.4 8.3 8.8 8 5.6 -1.4 7.7 5.3 4.5 3.1 1.4 -1.4 -1.4 -1.4 -1.4 -1.4 -1.4 -1.4 -1.4 -1.4 -1.4 -1.4 -1.4 -1.4
133 142.3 140.3 138.7 139.6 140 142.3 145.8 149.8 152.3 155.2 158.7 155.7 153.1 156.3 141.6 124.1 137.1 134.4 130.4 128 123 119.5 118.6 111.7 105 94.1 83.3 75.3 67 61.9 64.2 55.1 48 42.5 37.2 30.8 25 20.8 17 13.8 12 11.1 10.8 10.9 10.4 10.3 10.3 10.2 10.2 10.3 11.6 10.9 10.9 10.4 10.5 10.7 10.8 10.8 10.9 11 11 10.9 10.2 10.1 10.2 10.3 10.9 11.5 11.8 11.3 11.6 12.5 12.6 12.9 13.6 14.2 14.8 15.5 15.9 16.9 17.9 17.5 16.2 16.1 15.7 15.4 15.4 15.3 15.2 15 14.7 15.1 15.8 16.6 17.3 17.8 18.4 12.8 18.3 18.2 16.9 17.1 16 14.1 13.8 13.1 12.3 11.7 11.2 10.6 10.3 10.2 10.1 10 10.1 10.1 9.8 9.3 8.9 9.5 9.4 9.5 9.5 9.1 7.2 9.5 9.5 9.9 9.8 9.5 9.8 10 10.2 10 9.7 9.9 10.2 10.3 9.7 10.2 10.6 10 8.5 8.5 8.4 8.4 8.8 5.2 8.8 9.6 9.5 8.7 8.9 9.2 9.2 9.5 9.6 9.5 9.3 9.5 9.6 9.8 9.6 9.4 9.4 9.1 8.9 8.7 8.8 8.6 8.3 9 8.8 6.7 7.4 -1.4 -1.4 -1.4 -1.4 -1.4 -1.4 5.9 5.3 2.2 1 -1.4 -1.4 -1.4 -1.4 -1.4 -1.4 -1.4 -1.4 -1.4 -1.4 -1.4 -1.4 -1.4 -1.4
110.3 109.2 108.5 109.7 110.1 113.9 119.3 121.9 119.8 119.9 126.5 130.4 133.2 125.4 126.6 124.4 118.2 104.2 109.1 109.5 111.1 108.7 105.9 101.1 93 84 74.7 67.2 60.2 54.7 49.4 46.5 43.1 41.9 39.9 35.5 28.9 23.3 18.3 15.4 13.8 12.2 11 10.5 10.5 10.6 10.6 10.5 10.5 10.4 10 11.4 10.9 10.4 10.2 10.3 10.5 10.6 10.7 10.7 10.8 10.6 10.3 10.3 10.3 10.3 10.4 10.6 11.1 11.6 12.2 11.4 12.4 12.7 12.7 13.3 13.9 14.5 15.1 15.6 16.2 16.3 16.3 15.7 15.1 14.5 14.2 14.1 14 14.1 14.1 14.2 13.8 14.5 15.3 15.8 17.1 18.3 17.8 16.5 16.7 15.8 16 14.6 13.5 14 14.4 13.7 14 12.2 11.8 11.1 10.8 10.4 10.4 10.5 10.3 9.8 9.2 9.2 9.5 9.7 9.4 9.3 9.3 9.1 7.6 9.4 9.6 9.4 9.6 9.8 9.9 9.9 10.4 10.2 10.4 9.2 9.6 10.3 10.2 9.8 10 8.3 8.4 8.4 7.6 4.3 8 5 4.5 5 4.9 5.4 7.9 7.8 5.7 6.8 7.6 8 9.2 9.2 7.7 9.2 9.2 9.2 9.1 8.7 6.9 -1.4 7.3 8.4 8.9 8.7 8.3 -1.4 -1.4 8.2 8.7 8.7 8.7 -1.4 2.8 2.1 -1.4 -1.4 -1.4 -1.4 -1.4 -1.4 -1.4 -1.4 -1.4 -1.4 -1.4 -1.4 -1.4 -1.4 -1.4 -1.4
104.2 104.2 105.7 106.8 106.7 105.2 104.6 104.5 102.4 100 96.7 94.6 93 95 96.9 98.7 95.2 90 82.1 86 90.6 86.9 68.3 64.5 62.8 62.9 61.1 56.8 51.9 46.3 44.8 42.9 41.5 41 39.8 35.2 29.2 23.2 18 16 14.9 14.2 11.6 11 11.2 10.7 10.4 10.2 9.9 9.7 11.8 11.6 11.3 10.7 10.2 10.2 10.3 10.4 10.5 10.6 10.3 10.4 10.6 10.8 10.5 10.4 10.4 10.5 10.8 11.4 12.1 12.4 12.6 12.7 12.4 12.7 13.2 13.9 14.6 15 14.5 14.5 14.9 15 14.3 13.6 13.2 13.3 13.3 13.4 13.4 13.5 13.1 12.6 13.1 13.8 14.7 15 13.8 13.6 14.5 13.7 13.2 13.1 13.2 13.6 14.1 15 15.4 14.3 15 14.3 13.5 11.2 10.8 10.8 10.3 9.7 9.1 9.7 9.8 9.7 9.2 9.2 9.2 8.2 6.1 8.1 9.2 9.3 9.6 9.8 9.8 9.6 10.4 10.4 10.2 8.1 7.8 9.8 9.8 8.7 8.9 7.5 8.7 4.7 5.6 9.2 9.5 9.3 8.8 7.2 8.3 9.8 9.8 9.4 8.9 8.8 8.8 8.7 5.9 4.2 4.8 8.2 9 9.1 7.5 4.4 8.8 -1.4 -1.4 8.6 7.9 6.8 -1.4 -1.4 -1.4 8.9 8.8 8.7 8.7 8.9 -1.4 -1.4 -1.4 -1.4 -1.4 -1.4 -1.4 -1.4 -1.4 -1.4 -1.4 -1.4 -1.4 -1.4 -1.4 -1.4 -1.4 -1.4
121 118 114.4 113.3 113 113.9 115 114 111.8 109.3 105.9 102.4 93.7 88.3 85.4 82.8 76.9 76.1 70.2 69.2 66.5 68.4 69.3 64.1 54 48.7 48 46.3 42 42 43 41.5 40.7 40.6 40 35.4 29.5 23.4 18.5 17.1 16.4 15.6 14.3 12.1 11.7 10.7 10.5 10.3 9.9 10.6 11.1 11.2 11 10.7 10.4 10.2 10.2 10.2 10.4 10.4 10.7 10.9 11.1 11.2 11.1 10.6 10.6 10.6 10.7 11.3 12 12.7 12.3 12.2 12.3 12.1 12.6 13.4 14 13.9 13.8 13.6 13.5 13.9 13.9 13.2 12.5 12.5 12.6 12.7 12.7 12.8 12.4 12 12 12.1 12.4 12.4 12.6 12.7 12 12.1 12.2 12.4 12.9 13.4 13.2 14.7 16.3 16.8 17.7 17.6 17.3 16 13 10.8 10.2 9.6 9 9.9 9.8 9.6 9.1 9.1 7.8 7.3 8.2 7.1 9.2 9.4 9.6 9.8 10.1 10.2 10.3 9.3 9.7 7.9 6.5 9 7.6 6.8 7.5 8.3 8.6 9.1 9.7 9.5 9.4 9.2 9.1 9.3 9.5 9.6 9.7 9.6 9.3 9.1 9 8.9 8.8 8.7 8.5 4.7 7.7 6.8 4 8.8 9.6 9 -1.4 -1.4 5.6 -1.4 -1.4 -1.4 -1.4 8.9 8.9 8.8 8.8 7 2.4 0.7 -0.1 -0.9 -1.4 -1.4 -1.4 -1.4 -1.4 -1.4 -1.4 -1.4 -1.4 -1.4 -1.4 -1.4 -1.4 -1.4
144.3 134.6 127.5 120.5 119.3 120.4 123.4 124.8 122.2 122.1 120.5 120 112.5 106.8 102.5 102.5 102.5 99.3 93 79.9 79.7 81.9 83.1 73 61.7 54.7 47.4 44.9 44.5 38 38 35.6 36.6 38.7 40.3 35.7 28.3 23.9 19.9 18.3 17.7 16.4 14.8 12.1 11.9 10.8 10.7 10.7 10.3 10.4 10.5 11.1 10.8 10.5 10.3 10.4 10.5 10.5 10.6 10.9 11.2 11.3 11.3 11.1 11.1 10.9 10.8 10.8 10.9 11.6 12.4 12.2 11.9 11.8 11.9 11.9 12 13.2 13.8 13.8 13.7 13.4 13.1 13 12.9 12.8 11.9 11.8 11.9 12 12 12.1 11.8 11.7 11.7 11.9 11.8 11.8 12 12.1 11.7 11.8 11.9 12.2 12.6 12.6 12.9 14.2 15.2 16.1 17.6 17.6 18.2 19.1 16.3 10.5 10.3 9.9 9.9 9.9 9.9 9.3 8.9 8.1 8 8 9.1 7 9.1 8.4 6.8 10.5 8.4 7.7 8.5 8.5 8.5 9.5 8.6 6.5 6 6.9 7.8 8.7 9.3 9.8 9.7 9.6 9.4 9.3 9.2 9.2 9.4 9.5 9.6 9.5 9.4 9.1 9 9 8.8 8.8 8.8 8.8 8.5 8.1 8 9.2 9.2 9.3 8.5 -1.4 -1.4 -1.4 8.7 8.9 8.9 8.8 8.9 7.3 4.8 2.6 1.7 0.9 0.1 -0.7 -1.4 -1.4 -1.4 -1.4 -1.4 -1.4 -1.4 -1.4 -1.4 -1.4 -1.4 -1.4 -1.4 -1.4
164 152 150.4 140.8 128.6 127.9 130.7 134.1 133.6 133.3 132.7 127 120.6 116.5 114.4 114.8 116.8 117.9 115.6 100.8 89.1 86.4 83.9 76.8 69.4 62 55.1 50.9 48.9 47.4 43.5 41 35.6 30.3 29.3 30.7 28.6 22 20.3 18.4 17.6 16.8 15 13.2 10.6 11.1 11.8 11.7 11.4 10.8 10.3 10.4 10.6 10.3 10.8 10.5 10.9 10.9 11 11.3 11.1 10.8 10.6 11 11.2 11.1 11 10.9 11 12 12.5 11.8 11.6 11.5 11.5 12.1 12.7 13.4 13.7 13.7 13.6 13.4 12.8 12.7 12.5 12.4 12 11.6 11.5 11.5 11.5 11.5 11.5 11.5 11.6 11.5 11.5 11.4 11.4 11.5 11.5 11.4 11.6 11.8 11.6 11.5 11.9 12.9 13.9 15.3 17.1 17.5 18.4 20.8 18.5 12.2 9.9 10 10.2 10.1 10 9.1 8.8 8.7 8.7 8.7 9.2 8.8 9.7 10.5 10.6 10.1 9.8 9.3 9.1 9.8 10 10 9.9 9 7.1 8 9 9.2 10 9.9 9.7 9.6 9.5 9.3 9.2 9.2 9.4 9.5 9.5 9.4 9.4 9.2 9 8.9 8.9 8.9 9 9 9 9.1 9.2 9.2 9.2 9.2 9.2 8.2 6.5 8.3 8.8 8.8 8.8 8.8 8.8 5.4 2.7 2.6 1.9 1.1 0.3 -0.5 -1.3 -1.4 -1.4 -1.4 -1.4 -1.4 -1.4 -1.4 -1.4 -1.4 -1.4 -1.4 -1.4 -1.4
176.7 166.5 159.2 154.5 151.1 150.4 148.2 147.2 143.9 142.9 141.7 127.5 124.8 126.2 126.1 124 123.7 125.4 126 123.3 112.1 98 88.2 80.5 72.7 65.3 60.1 55.5 53.9 49.2 46.4 44.4 42.2 40.7 29.6 23.6 21.8 21.4 19.5 18.4 17.6 16.4 14.7 13.5 11.5 11.5 11.8 11.6 11.3 11.1 10.9 10.6 10.4 10.7 10.5 10.6 10.7 11.3 11.4 10.8 10.5 10.2 10.1 11 11.3 11.4 11.3 11.2 11.2 12.3 12 11.6 11.3 11.3 11.8 12.4 13 13.3 13.5 13.6 13.5 13.3 12.6 12.4 12.3 12.5 12.1 11.6 11.5 11.4 11.3 11.3 11.2 11.2 11.2 11.2 11.2 11.1 11.1 11 11 11.1 11.1 11.4 11.3 11.2 11.3 11.9 13.1 14.8 16.4 18 19.5 20.9 16.9 10.8 9.9 10.1 10.2 10.3 10.1 9.3 9.4 9.4 9.3 9.5 9.3 10.1 10.6 10.1 10.2 10.3 9.7 9.4 9.6 9.8 9.8 10.1 10 9.3 8.2 9.1 9.3 9.9 10 9.9 9.8 9.6 9.5 9.4 9.3 9.1 9.4 9.4 9.3 9.3 9.2 9.2 9.1 9 9 9 9 9 9 9.1 9.2 9.3 9.2 9.1 9.1 8.9 8.7 8.7 8.5 8.8 8.8 7.6 4 2.7 2.6 2.5 2.1 1.3 0.5 -0.3 -1 -1.4 -1.4 -1.4 -1.4 -1.4 -1.4 -1.4 -1.4 -1.4 -1.4 -1.4 -1.4 -1.4
185.4 179.1 168.9 159.8 155.9 156.1 154.7 152.2 149.2 149.7 145.4 131.7 128.2 127.3 130.5 130.5 126.2 127.3 130 131.4 131.6 118.2 100.9 89.3 80 71.1 65.6 60.5 54.7 49.6 44.9 42.3 41 38.4 33.7 25.4 20.5 20.6 19.3 18.4 17.2 15.7 14.4 13.9 13 11.5 11.7 11.4 11.2 11 10.7 10.6 10.4 10.9 11.4 10.9 11 11.1 10.9 10.7 10.5 10.4 10.3 11.1 11.2 11.3 11.3 11.4 11.3 12.2 12.1 11.9 11.6 11.4 11.9 12.3 12.5 12.7 12.9 13.1 13.3 13.3 12.5 12.1 12.1 12.7 12.2 11.6 11.5 11.4 11.3 11.2 11.2 11 10.9 10.9 10.8 10.8 10.7 10.7 10.6 10.7 10.6 10.8 11 11 10.9 11.3 12.4 14 15 14.9 16.8 15.6 12.1 9.9 10 10.1 10.3 10.4 10.3 9.7 9.9 10 9.9 10.3 10.6 10.6 9.6 9.3 9.3 9.4 9.5 9.4 9.6 9.6 9.6 9.8 10.1 9.5 9.3 9.6 9.8 10.2 10 9.9 9.8 9.7 9.6 9.4 9.3 9.2 9.3 9.3 9.2 9.2 9.1 9.1 9.1 9.1 9.1 9.1 9.1 9 9 9 9.2 9.3 9.2 9.1 9 9 8.7 8.7 6.6 8.7 4.3 2.7 2.7 2.6 2.5 2.4 2.3 1.6 0.8 0 -0.8 -1.4 -1.4 -1.4 -1.4 -1.4 -1.4 -1.4 -1.4 -1.4 -1.4 -1.4 -1.4 -1.4
200.7 193.6 184.7 172.2 161.7 159.9 158.4 156.1 153.2 150.8 145.7 134.3 129.5 127.6 129.8 129.8 128.8 126.7 128.8 131 132.9 125.8 112.6 98.7 88 77.9 70.7 63.1 55.9 49.7 43.7 39.6 37.6 35.2 30.7 24.5 20.3 18.5 18.3 18 16.8 15.5 14.3 13.9 13 11.5 11.5 11.3 11.1 10.9 10.8 10.7 10.6 10.8 10.2 10.3 10.8 11.5 11.2 11 10.8 10.7 10.5 11 11.1 11.2 11.3 11.3 12 12.1 12.4 12.6 12.8 12.3 12 12.1 12.3 12.3 12.4 12.6 12.9 13.1 12.4 12.1 12.2 12.8 12.4 11.7 11.5 11.4 11.4 11.5 11.5 11.3 11.1 10.9 10.7 10.5 10.5 10.5 10.5 10.5 10.5 10.5 10.5 10.7 10.7 11 11.8 13.1 13.8 13.7 13.6 12.7 11.3 9.9 10.1 10.2 10.3 10.5 10.4 10.1 10.3 10.5 10.7 10.6 10.4 10.2 9.8 9.3 9.3 9.3 9.6 9.4 9.4 9.4 9.4 9.5 10.1 9.5 10 9.9 10.3 10.2 10.1 9.9 9.8 9.7 9.6 9.5 9.3 9.2 9.2 9.2 9.2 9.3 9.4 9.3 9.1 9.1 9.1 9.1 9.1 9.1 9 9 9.1 9.2 9.3 9.1 9 9 8.8 8.8 6.9 4.5 2.7 2.7 2.6 2.5 2.4 2.3 2.2 1.8 1 0.2 -0.6 -1.4 -1.4 -1.4 -1.4 -1.4 -1.4 -1.4 -1.4 -1.4 -1.4 -1.4 -1.4 -1.4
208.4 206.4 199.1 182.8 169.1 164.1 161.3 158.1 157 155.5 144.5 136.8 130.6 128.6 130.5 131.3 130.2 125 123.7 128.6 127.5 117.6 108.6 98.6 85.5 75.4 70.5 60.2 51.3 43.9 39.4 36.4 34.2 29.3 24.9 22.1 19.2 17.7 17.1 16.8 16.1 15.4 14.2 12.7 11.9 11.8 11.4 11.3 11.2 11 10.9 10.8 10.8 10.7 10.5 10.8 10.8 11.7 11.5 11.3 11.2 11 10.8 10.8 11 11.1 11.2 11.7 12.1 12.3 12.6 12.9 13 13.1 13 12.9 12.8 12.7 12.5 12.6 12.6 12.8 12.8 13.1 13.3 13.1 12.5 11.8 11.5 11.6 11.8 11.7 11.7 11.6 11.4 11.2 11 10.7 10.4 10.5 10.5 10.5 10.5 10.4 10.4 10.4 10.4 10.7 11.5 12.3 12.3 11.9 11.5 10.8 10.3 9.9 10.1 10.3 10.5 10.6 10.6 10.6 10.7 10.6 10.5 10.3 10.1 9.9 9.8 9.3 9.3 10 9.9 10 9.8 9.6 9.3 9.3 9.3 10.3 10.2 10.3 10.3 10.2 10.1 10 9.9 9.7 9.6 9.5 9.4 9.2 9.3 9.5 9.5 9.6 9.5 9.3 9.2 9.2 9.2 9.1 9.1 9.1 9.1 9.1 9.1 9.2 9.3 9.3 9 9 7.9 8.2 3.8 2.7 2.7 2.6 2.5 2.4 2.3 2.2 2.1 2 1.2 0.4 -0.4 -1.2 -1.4 -1.4 -1.4 -1.4 -1.4 -1.4 -1.4 -1.4 -1.4 -1.4 -1.4 -1.4
215.7 210.6 208.4 192.5 176.4 169.2 163.4 160 159.2 155.6 145.9 137.7 131 128.7 129.3 131.9 130.8 125.3 119.1 121 115.6 106.7 98.9 88.2 76.5 67.6 60.2 49.2 39 36.1 33.7 32.4 27.7 22.8 22.1 20.9 18.5 16.9 16.1 15.9 15.6 14.7 12.6 12.1 11.8 11.5 11.5 11.4 11.3 11.1 11 11 10.9 10.9 10.8 11 11.6 12 11.8 11.6 11.4 11.2 11 11.1 11.5 11.7 11.7 12.1 12.3 12.5 12.8 13 13.2 13.3 13.4 13.3 13.2 13.1 12.7 12.8 12.8 13.2 13.9 14.2 13.6 13 12.4 11.9 11.8 12 12 12 11.9 11.9 11.7 11.5 11.3 10.9 10.6 10.4 10.4 10.4 10.4 10.4 10.4 10.4 10.3 10.7 10.9 11.1 11.6 11.2 10.7 10 10 10.1 10.3 10.4 10.6 10.7 10.7 10.6 10.5 10.3 10.2 10.1 9.9 9.7 9.5 9.3 10.4 9.4 10.3 10.1 10 9.8 9.6 9.4 9.2 9.9 10.4 10.5 10.4 10.2 10.1 10 9.9 9.7 9.6 9.5 9.3 9.2 9.3 9.6 9.8 9.6 9.5 9.4 9.2 9.2 9.2 9.2 9.2 9.1 9.1 9.1 9.1 9.2 9.3 9.4 9.2 8.9 7.4 4.1 2.7 2.7 2.7 2.6 2.4 2.3 2.2 2.1 2 2 1.4 0.6 -0.1 -0.9 -1.4 -1.4 -1.4 -1.4 -1.4 -1.4 -1.4 -1.4 -1.4 -1.4 -1.4 -1.4
219.3 215.4 211.5 202.6 188.5 174.9 168.1 162 157.7 152 144.6 136.8 131.4 128.5 128.8 133.2 130.7 127.1 119.4 110.5 103.5 93.9 86.7 78.3 67.8 59.7 49.9 37.3 33.2 29.9 28 25.3 21.4 19.8 19.5 19.1 18 16.3 15.6 15 15 13.8 12.8 11.9 11.7 11.5 11.3 11.4 11.4 11.3 11.2 11.1 11.1 11 11 11.4 11.9 12.2 12 11.8 11.6 11.3 11.1 11.1 11.5 11.8 12.5 12.1 12.3 12.5 12.7 12.9 13.3 13.5 13.6 13.7 13.6 13.5 13.1 13 13.4 13.9 14.9 15 14 13.6 13.3 12.9 12.6 12.2 12.2 12.2 12.2 12.1 12 11.8 11.5 11.1 10.8 10.4 10.4 10.4 10.4 10.3 10.3 10.3 10.7 11.1 11.3 11.4 11.4 10.7 10.2 10.3 10.3 10.4 10.5 10.7 10.7 10.6 10.6 10.5 10.3 10.2 10 9.8 9.7 9.6 9.4 9.2 9.6 10.3 10.6 10 9.9 9.8 9.6 9.4 9.3 10 10.6 10.5 10.4 10.2 10.1 10 9.8 9.7 9.5 9.4 9.3 9.1 9.2 9.5 9.6 9.7 9.6 9.4 9.3 9.2 9.2 9.2 9.2 9.2 9.1 9.1 9.1 9.1 9.2 9.3 9.4 9.1 7.3 3.9 2.7 2.7 2.6 2.5 2.4 2.2 2.1 2 1.9 1.8 1.7 0.9 0.1 -0.7 -1.4 -1.4 -1.4 -1.4 -1.4 -1.4 -1.4 -1.4 -1.4 -1.4 -1.4 -1.4
216.5 213.5 210.5 202.1 189.7 177.5 170.4 164.2 160.9 152.7 144.1 137 131.5 128.9 127.1 129.8 129.2 125.7 119.4 109.9 101.6 91.4 81.8 71.7 63.6 53.5 41.9 33.2 28.5 25.2 23.1 20.8 18.1 17 16.8 16.6 16.7 16.6 15.6 13.9 14.3 13.5 12.4 11.8 11.6 11.4 11.2 11.2 11.4 11.4 11.3 11.3 11.2 11.1 11.1 11.5 11.8 12.1 12.2 11.9 11.7 11.5 11.3 11.1 11.7 11.9 12.2 12.1 12.2 12.4 12.6 12.7 13.2 13.6 13.7 13.9 14 13.9 13.5 13.8 14.2 14.7 15.2 15.3 14.3 14.6 14.3 13.9 12.7 12.3 12 12.1 12.1 12.2 12.3 12 11.7 11.3 11 10.6 10.3 10.4 10.3 10.3 10.3 10.5 11.2 11.4 11.3 11 11.2 10.7 10.4 10.5 10.6 10.7 10.7 10.6 10.6 10.5 10.5 10.4 10.2 10.1 9.9 9.7 9.5 9.4 9.2 9 9.8 10.9 10.9 9.8 9.7 9.6 9.5 9.3 9.5 10.4 10.6 10.5 10.3 10.2 10.1 9.9 9.8 9.6 9.5 9.4 9.2 9.1 9.1 9.3 9.4 9.6 9.6 9.5 9.3 9.3 9.3 9.3 9.2 9.2 9.2 9.2 9.1 9.1 9.2 9.3 9.4 7.8 3.7 2.7 2.7 2.7 2.6 2.4 2.3 2.2 2 1.9 1.8 1.7 1.7 1.1 0.3 -0.5 -1.3 -1.4 -1.4 -1.4 -1.4 -1.4 -1.4 -1.4 -1.4 -1.4 -1.4 -1.4
215.5 212 208.1 201.2 190.9 177.9 171.5 165 159.3 156.1 146.9 138.2 132.2 128.6 126.2 125.3 124.2 122.2 116.7 107.8 98.8 89.6 78 69.5 60 49.2 36.9 29.9 25.1 22.6 20.3 18.1 15.8 15.2 14.7 14.2 14.5 15 14.4 12.7 12.3 12.5 12.2 11.8 11.5 11.3 11.1 11 11.2 11.3 11.7 11.6 11.2 10.3 11.1 11.4 11.7 12 12.3 12.2 11.9 11.7 11.4 11.2 11.7 12.1 12.3 12.2 12.2 12.2 12.4 12.6 13.1 13.6 13.8 14 14.1 14.2 15.2 15.9 16 16.1 15.7 15.4 15.2 15.6 15.1 13.6 12.9 12.5 12.1 11.7 11.8 11.9 12 12.2 11.8 11.5 11.2 10.8 10.5 10.3 10.3 10.3 10.3 10.9 11.6 11.2 10.9 10.5 10.8 10.8 10.6 10.7 10.7 10.6 10.6 10.5 10.5 10.5 10.4 10.3 10.1 10 9.8 9.6 9.4 9.2 9.1 9 10 10.1 14.2 9.7 9.6 9.4 9.3 10.4 10 10.4 10.5 10.5 10.3 10.2 10 9.9 9.8 9.6 9.5 9.4 9.2 9.1 9 9.1 9.2 9.4 9.5 9.5 9.4 9.3 9.3 9.3 9.3 9.2 9.2 9.2 9.2 9.1 9.2 9.3 9.4 4.4 3.3 2.7 2.7 2.6 2.5 2.3 2.2 2.1 2 1.8 1.7 1.6 1.6 1.3 0.5 -0.3 -1.1 -1.4 -1.4 -1.4 -1.4 -1.4 -1.4 -1.4 -1.4 -1.4 -1.4 -1.4
213.1 214.6 208.6 205.7 195.7 182.1 173.7 167.3 163 159.9 157.3 147.3 136.5 130.5 127.9 124.5 119.8 116.5 108.1 100.5 91.9 81.5 73.3 65.1 54.4 42.1 33.1 26.6 22.2 20 17.9 15.8 15.1 14.5 14.5 14.4 14.3 14.1 13 12.7 12.7 12.3 12.1 11.8 11.4 11.2 11 10.8 10.9 10.9 11.5 11.6 10.5 10.7 11.3 11.3 11.6 11.9 12.2 12.3 12.2 11.9 11.6 11.4 11.6 12.3 12.3 12.3 12.2 12.2 12.3 12.5 13 13.5 13.9 14.1 14.2 14.8 17.4 18.3 18.7 19.2 18.7 17.7 17.2 16 14.6 13.5 13.1 12.7 12.3 11.9 11.5 11.5 11.8 12.1 11.9 11.6 11.3 11 10.6 10.3 10.4 10.4 10.4 10.7 11.4 11.2 10.6 10.1 10.4 10.7 10.6 10.6 10.5 10.5 10.5 10.4 10.4 10.4 10.3 10.2 10 9.8 9.7 9.5 9.3 9.1 9.2 9.4 12.2 10.3 15.4 9.6 9.5 9.4 9.5 9.7 10 10.4 10.4 10.4 10.3 10.2 10 9.9 9.8 9.6 9.5 9.3 9.2 9.1 9.2 9.1 9.1 9.2 9.3 9.5 9.4 9.4 9.3 9.3 9.3 9.3 9.2 9.2 9.2 9.2 9.1 9.2 9.3 6.7 2.9 2.7 2.7 2.5 2.4 2.3 2.1 2 1.9 1.7 1.6 1.5 1.5 1.4 0.7 0 -0.8 -1.4 -1.4 -1.4 -1.4 -1.4 -1.4 -1.4 -1.4 -1.4 -1.4 -1.4
213.2 215.2 213.2 207 200.2 186.4 176.4 170.9 166.6 165.4 164.1 159.3 148.6 137.4 130.7 126.9 122.5 118.2 108.1 95.8 83.5 72.4 65.4 56.7 46.9 36.8 30.7 23.7 20.1 17.8 15.8 15.1 14.6 14.4 14.5 14.6 14.6 14.1 13.4 13.7 12.8 12.2 11.9 11.6 11.3 11.1 11 11.2 11.3 10.8 11 11.5 10.9 11.2 11.5 11.5 11.6 11.8 12.1 12.4 12.3 12.1 11.9 11.6 12.2 12.4 12.4 12.3 12.2 12.2 12.2 12.3 12.8 13.4 13.9 14.2 14.3 16.5 18.3 19.7 20.5 20.8 20.8 19.9 18.5 15.6 14.1 13.7 13.3 12.9 12.5 12 11.5 11.4 11.6 11.8 12.1 11.7 11.4 11.1 10.7 10.5 10.6 10.6 10.6 10.6 11.1 10.9 10.8 10.7 10.6 10.5 10.5 10.4 10.3 10.4 10.4 10.4 10.3 10.3 10.2 10.1 9.9 9.7 9.6 9.4 9.2 9.3 9.6 9.8 11.1 17.4 10.1 9.7 9.5 9.4 9.6 9.7 10 10.3 10.3 10.3 10.3 10.2 10 9.9 9.7 9.6 9.5 9.3 9.2 9.2 9.4 9.1 9.2 9.2 9.3 9.3 9.4 9.4 9.4 9.3 9.3 9.3 9.3 9.2 9.2 9.2 9.1 8.7 9 4.3 2.7 2.7 2.6 2.5 2.3 2.2 2.1 1.9 1.8 1.7 1.5 1.4 1.4 1.3 1 0.2 -0.6 -1.4 -1.4 -1.4 -1.4 -1.4 -1.4 -1.4 -1.4 -1.4 -1.4 -1.4
212.9 216.1 216.8 214.3 205.4 191 178.7 172.7 169 170.3 171.7 166.1 159.4 151.8 139.2 129.8 121.9 114.7 105.2 95.3 84.4 73.2 60.9 49.5 39.7 32.1 28.7 23.4 19.1 17.1 15.2 14.7 14.4 14.1 14.2 14.4 14.4 13.2 12.9 12.7 13.3 12.1 11.9 11.7 11.7 11.9 12 11.4 10.8 10.8 10.8 10.4 11.2 11.6 11.7 11.7 11.8 11.8 12 12.3 12.5 12.3 12.1 12.2 12.6 12.6 12.6 12.5 12.5 12.4 12.3 12.2 12.7 13.2 13.7 14.2 15.5 17.2 18.8 20.2 21.2 21.8 20.9 19.7 18.3 15.4 14.2 13.7 13.3 12.8 12.3 11.8 11.1 11.1 11.5 11.6 11.8 11.8 11.5 11.2 10.8 10.6 10.7 10.8 10.8 10.9 10.9 10.7 10.6 10.5 10.4 10.3 10.3 10.2 10.2 10.2 10.3 10.3 10.2 10.2 10.1 10 9.8 9.6 9.5 9.3 9.5 9.7 9.9 10.1 10.4 10.7 10.3 9.9 9.6 9.4 9.6 9.7 10 10.2 10.2 10.2 10.2 10.1 10 9.9 9.7 9.6 9.4 9.3 9.2 9.4 9.6 9.1 9.2 9.2 9.3 9.3 9.4 9.4 9.4 9.4 9.4 9.3 9.3 9.3 9.3 9.2 8.9 8.6 8.3 4 2.7 2.7 2.5 2.4 2.3 2.1 2 1.9 1.7 1.6 1.5 1.3 1.3 1.2 1.1 0.4 -0.4 -1.2 -1.4 -1.4 -1.4 -1.4 -1.4 -1.4 -1.4 -1.4 -1.4 -1.4
214.4 218.9 219.1 218.1 211 194.8 181.3 173.3 170.3 170.6 171.3 169 166.9 161 151.9 142 128.9 115.9 103.8 91.9 77.9 67.5 56.9 47.5 38.3 31.7 26.1 22.3 19.3 16.3 14.8 14.5 14.2 13.9 13.9 14 14 13 12.7 12.6 12.4 13 12.2 12 12.2 12.3 12.1 11.7 11.5 12 12.3 12.3 12 11.7 11.9 12 12 12 12.1 12.2 12.5 12.4 12.3 12.8 12.8 12.9 12.8 12.8 12.7 12.7 12.6 12.4 12.6 13.1 13.6 14.1 14.8 16.6 18.4 19.8 20.5 19.5 18.3 17.7 16.6 14.3 14.1 13.6 13.1 12.6 12.2 11.7 10.9 10.9 11.4 11.6 11.6 11.9 11.6 11.3 11 10.8 10.8 10.9 11 11 10.7 10.6 10.4 10.3 10.2 10.1 10.1 10.1 10 10 10.1 10.2 10.1 10.1 10 9.9 9.7 9.5 9.4 9.6 9.9 10.1 10.3 10.3 10.4 10.4 10.1 9.9 9.6 9.4 9.6 9.7 10 10.1 10.1 10.1 10.1 10.1 10 9.8 9.7 9.6 9.4 9.3 9.2 9.6 9.8 9.3 9.2 9.3 9.3 9.4 9.4 9.4 9.3 9.4 9.4 9.4 9.3 9.3 9.3 9.1 8.7 8.3 8.1 3.7 2.7 2.6 2.5 2.3 2.2 2.1 1.9 1.8 1.7 1.5 1.4 1.3 1.2 1.1 1 0.6 -0.2 -1 -1.4 -1.4 -1.4 -1.4 -1.4 -1.4 -1.4 -1.4 -1.4 -1.4
215.2 219.5 218.9 216.5 208.1 194.8 182.7 174.9 171.6 172.4 176.8 179.6 176.8 169.7 157.1 142 131.4 119.1 106.6 93.1 77.8 65.6 53.9 43.1 35.8 28.9 23.7 21.1 18.6 15.7 15.1 14.6 14.1 13.7 13.6 13.8 13.9 13.1 12.7 12.4 12.2 12.2 13.2 12.4 12.2 12 11.7 11.7 11.6 12.3 12.7 12.4 12.1 11.8 12.1 12.2 12.3 12.4 12.4 12.4 12.5 12.6 12.9 12.9 13 13.1 13.1 13 13 12.9 12.8 12.6 12.6 12.9 13.4 13.9 14.6 15.4 17.1 17.2 16.8 16.3 15.8 15.6 14.8 13.7 13.6 13.4 12.9 12.5 12 11.5 10.7 10.7 10.8 11.7 11.7 11.6 11.7 11.4 11.1 10.9 11 10.9 10.8 10.7 10.5 10.4 10.3 10.1 10 9.9 9.9 9.9 9.8 9.8 9.9 10 10 10 9.9 9.8 9.6 9.6 9.8 10 10.1 10.2 10.3 10.3 10.3 10.2 10 9.7 9.7 9.8 9.6 9.7 10 10 10 10 10 10 10 9.8 9.7 9.6 9.4 9.3 9.3 9.7 10 9.5 9.2 9.3 9.3 9.4 9.3 9.3 9.3 9.3 9.4 9.4 9.4 9.3 9.3 9 8.6 8.2 4.5 3.4 2.6 2.5 2.4 2.2 2.1 2 1.9 1.7 1.6 1.5 1.3 1.2 1.1 1 0.9 0.9 0.1 -0.7 -1.4 -1.4 -1.4 -1.4 -1.4 -1.4 -1.4 -1.4 -1.4 -1.4
210.2 212.8 211.9 207.8 199.5 188.5 182.1 175.4 173.2 176.4 183.1 182.6 180.1 172.3 160.8 143.9 132.3 117.8 102.1 85.5 70.9 60 50.2 41.7 33.5 26.7 22.2 19.5 17.4 15.6 15.3 14.9 14.4 13.9 13.2 13.6 13.8 13.2 12.8 12.4 12.1 11.9 11.8 12.9 12.2 11.7 11.5 11.7 12.1 12.7 12.8 12.5 12.2 11.9 12.1 12.4 12.5 12.6 12.7 12.8 12.8 13 12.9 13.2 13.2 13.3 13.4 13.3 13.2 13.2 13 12.8 12.8 12.8 13.3 13.8 14.4 15.2 15.4 15.4 15.3 15.4 14.9 13.8 13 13.2 13.1 13 12.8 12.3 11.8 10.6 10.5 10.6 10.6 11.4 11.8 11.8 11.6 11.5 11.3 11 11 10.9 10.6 10.5 10.3 10.2 10.1 9.9 9.8 9.8 9.7 9.7 9.7 9.6 9.7 9.8 9.9 9.9 9.8 9.7 9.7 9.9 10 10.1 10.2 10.3 10.3 10.3 10.3 10.1 9.9 9.9 10 10.2 10.3 9.7 9.9 9.9 9.9 9.9 9.9 9.9 9.9 9.8 9.7 9.5 9.4 9.3 9.5 9.9 10.2 9.7 9.3 9.3 9.3 9.3 9.3 9.3 9.2 9.2 9.3 9.4 9.4 9.4 9.2 8.8 8.3 4.6 3.7 2.7 2.6 2.4 2.3 2.2 2 1.9 1.8 1.6 1.5 1.4 1.2 1.1 1 0.9 0.8 0.7 0.3 -0.5 -1.3 -1.4 -1.4 -1.4 -1.4 -1.4 -1.4 -1.4 -1.4 -1.4
194.7 199.1 199.3 195.8 192.8 185.2 178.2 175.8 175.3 175.7 182.8 185 180.8 173.2 159.8 142.3 127.8 112.9 94.8 75.8 64 55.7 47.8 41 34.5 28.6 23.1 19.8 17.2 17 15.7 15.2 14.7 14.1 13.4 13.2 13.6 13.4 13 12.7 12.4 12 11.7 11.6 11.8 11.9 11.6 12 12.3 12.4 12.8 12.6 12.3 12 12.2 12.5 12.7 12.7 12.9 12.9 12.8 13.2 12.8 13.1 13.4 13.5 13.6 13.6 13.5 13.4 13.1 13 12.9 12.9 13.1 13.6 14.3 15.1 14.8 14.8 14.9 15 15 13.9 12.9 12.6 12.7 12.5 12.3 12.1 11.7 10.4 10.4 10.4 10.4 10.7 11.8 11.9 11.8 11.6 11.4 11.1 11 10.8 10.4 10.2 10.1 10 9.9 9.8 9.7 9.6 9.6 9.5 9.5 9.5 9.5 9.6 9.7 9.7 9.7 9.8 9.9 10 10.1 10.2 10.2 10.3 10.3 10.3 10.3 10 10.1 10.2 10.4 10.5 10.7 10.8 10 9.8 9.8 9.8 9.8 9.8 9.8 9.8 9.7 9.5 9.4 9.2 9.6 10.1 10.3 9.9 9.5 9.3 9.3 9.3 9.2 9.2 9.2 9.2 9.2 9.2 9.3 9.4 9 6.9 4.3 3.6 2.7 2.6 2.5 2.3 2.2 2.1 2 1.8 1.7 1.6 1.4 1.3 1.2 1 0.9 0.8 0.7 0.6 0.5 -0.3 -1.1 -1.4 -1.4 -1.4 -1.4 -1.4 -1.4 -1.4 -1.4 -1.4
178.1 183.3 182.6 182.2 186.6 182.5 174.8 174.2 173.9 174.4 179.5 180.7 178.6 170.5 159.4 145.5 128.4 99.2 82.2 68.3 60.3 53.6 46.9 39.8 32.3 28.1 23.8 19 16.8 16.4 15.9 15.5 15 14.3 13.5 12.9 13.1 13.2 13.4 13.2 12.8 12.4 12.1 11.7 11.8 12.3 12.4 12.3 12.1 12.1 12.2 12.2 12.2 12.1 12.3 12.6 12.8 13 12.9 12.7 12.5 12.4 12.7 13 13.3 13.6 13.8 13.8 13.8 13.6 13.3 13.1 13.1 13.1 13.1 13.5 14.1 14.4 14.4 14.5 14.5 14.5 14.7 14.1 13.1 12.4 12.2 12 11.9 11.7 11.5 10.2 10.2 10.2 10.2 10.3 11.9 11.8 11.7 11.6 11.4 11.2 11 10.8 10.4 10 9.8 9.8 9.7 9.6 9.5 9.4 9.4 9.3 9.3 9.3 9.3 9.4 9.5 9.6 9.8 9.9 10 10 10.1 10.2 10.3 10.3 10.3 10.2 10.2 10.3 10.4 10.5 10.5 10.6 10.7 10.8 10.7 10.6 10.2 9.7 9.7 9.7 9.7 9.7 9.6 9.5 9.4 9.4 9.8 10.3 10.5 10.1 9.7 9.3 9.3 9.3 9.3 9.2 9.2 9.2 9.1 9.3 9.4 4.4 4.3 4.4 3.2 2.7 2.6 2.5 2.3 2.2 2.1 2 1.9 1.8 1.6 1.5 1.4 1.2 1.1 1 0.8 0.7 0.6 0.5 0.5 -0.1 -0.8 -1.4 -1.4 -1.4 -1.4 -1.4 -1.4 -1.4 -1.4 -1.4
169.7 174.1 177.2 180.3 181.7 177.4 172.1 176.1 176.1 174 180.9 177.8 174.7 169.2 155 146.1 131.2 95.2 76.2 61.8 56.9 50.4 43.2 36.8 31.8 27.6 23.5 18.9 17.1 16.4 15.6 15.1 15 14.6 13.8 13.1 13.2 13.3 13.4 13.1 13 12.7 12.4 12 12 11.6 11.9 13.1 12.3 12.4 12.5 12.5 12.5 12.5 12.3 12.5 13.3 13 13 12.7 12.4 12 12.7 13 13.3 13.6 13.9 14.1 14 13.7 13.5 13.3 13.3 13.3 13.3 13.3 14 14 14.1 14.1 14.2 14.2 14.2 14.2 13.3 12.6 11.9 11.6 11.5 11.4 11.3 11.7 11.4 10.4 11.7 11.2 11.1 11.4 11.6 11.5 11.3 11.2 11 10.8 10.3 9.9 9.6 9.5 9.6 9.8 9.7 9.4 9.3 9.2 9.1 9.1 9.1 9.3 9.4 9.6 9.8 9.9 10 10.1 10.2 10.3 10.3 10.3 10.2 10.2 10.2 10.3 10.4 10.4 10.5 10.6 10.7 10.7 10.6 10.5 10.4 10.3 10.2 9.6 9.6 9.6 9.6 9.5 9.4 9.6 10 10.5 10.7 10.2 9.5 9.3 9.4 9.4 9.4 9.3 9.3 9.3 9.2 8.1 4.5 3.7 3.6 3 2.7 2.6 2.5 2.3 2.2 2.1 2 1.9 1.8 1.7 1.6 1.4 1.3 1.2 1 0.9 0.8 0.6 0.5 0.4 0.3 0.2 -0.6 -1.4 -1.4 -1.4 -1.4 -1.4 -1.4 -1.4 -1.4 -1.4
166.3 171.2 174.9 177.4 175.5 170 169.2 176 176.8 174.9 172.9 173.6 168.2 158.6 148.7 145.1 128.3 95.1 72.9 58.5 51.9 45.4 38.3 32.4 28.2 24.8 21.3 17.4 16.3 15.5 15.2 15 14.9 14.7 14.1 13.4 13.2 13.4 13.4 13 12.9 12.7 12.6 12.3 12.3 11.4 11.9 12.8 13.1 13.5 13.3 13.1 13.1 13.2 13.7 13.7 13 13.1 13.3 13.4 13.3 14.4 13.7 12.9 13.1 13.3 13.6 13.9 14.1 13.9 13.7 13.5 13.5 13.4 13.4 13.4 13.6 13.7 13.8 13.8 13.8 13.9 13.9 13.9 13.4 12.4 11.7 11.9 11.2 11.1 10.9 11.6 11.3 11.2 11.1 11.1 11.1 10.8 11.5 11.3 11.2 11.1 11 10.5 10.1 9.6 9.5 10 10.5 10.4 9.7 9.5 9.4 9.3 9.3 9.2 9 9.3 9.4 9.6 9.8 9.9 10 10.1 10.2 10.3 10.2 10.2 10.2 10.1 10.2 10.3 10.3 10.4 10.5 10.6 10.6 10.7 10.5 10.4 10.3 10.2 10.1 10 9.9 9.5 9.5 9.5 9.3 9.7 10.2 9.6 10.7 10 9.4 9.4 9.3 9.4 9.5 9.4 9.4 9.4 9.2 4.3 3.4 3.3 2.9 2.6 2.5 2.4 2.3 2.2 2.1 2 1.9 1.8 1.7 1.6 1.5 1.4 1.2 1.1 1 0.8 0.7 0.6 0.4 0.3 0.2 0.2 -0.4 -1.2 -1.4 -1.4 -1.4 -1.4 -1.4 -1.4 -1.4 -1.4
160.1 165.8 170.4 173.7 170.4 162.5 161.8 166 174.6 179.6 174.4 167 157.7 149.1 140.9 123.7 115.4 92.4 65.9 48.6 43.4 38.5 34 29.3 25.8 22.1 18.9 16.3 15.4 15.3 15.1 14.9 14.8 14.6 14.4 13.7 13.3 13.5 13.3 12.9 12.8 12.6 12.5 12.4 12.5 12.1 12.4 12.7 12.2 13.8 13.8 13.2 13.7 13.8 13.9 13.3 12.6 12.4 14.4 14.4 14.4 14.8 14.9 15 13.7 14.3 14.4 14 13.9 13.8 13.9 13.7 13.6 13.7 13.9 14.1 14.5 14.3 14.4 14.8 14.2 13.7 13.1 12.7 12.4 12.1 11.8 12.9 13.1 13.1 11.8 11.7 11.4 11.2 11.1 11 11 11 10.9 11.2 11.1 11 10.8 10.9 9.7 9.5 9.4 9.7 10.2 10.4 9.8 9.7 9.6 9.5 9.4 9.3 9.1 9.1 9.4 9.6 9.8 9.9 10 10.1 10.2 10.2 10.2 10.2 10.1 10.1 10.1 10.2 10.3 10.4 10.5 10.5 10.6 10.6 10.4 10.3 10.2 10.1 10 9.9 9.8 9.7 9.6 9.4 9.5 9.4 9.5 9.6 10.3 9.9 9.5 9.4 9.3 9.4 9.5 9.6 9.5 9.5 7.1 3.5 2.7 2.7 2.6 2.5 2.4 2.3 2.2 2.1 2 1.8 1.7 1.7 1.5 1.4 1.3 1.2 1.1 1 0.9 0.8 0.6 0.5 0.4 0.2 0.1 0.1 -0.2 -1 -1.4 -1.4 -1.4 -1.4 -1.4 -1.4 -1.4 -1.4
151 156.9 162 164.2 162.3 156.8 154.8 155.4 163.6 168.5 165.2 158.9 150.5 142.5 131.3 118.9 105.4 80.3 58.4 43.1 37.4 33.7 30.7 26.5 23.5 20.7 16.7 15.8 15.3 15.2 15 14.8 14.7 14.5 14.4 14 13.4 13.6 13.3 12.8 12.6 12.5 12.3 12.2 12.6 13.2 12.7 13 12.9 13.9 13.9 13.5 14.3 14.2 13.3 12.7 12.6 12.8 15.1 15.1 14.9 14.8 15.1 15.5 15.2 15.4 14.9 14.5 14.4 14.3 14.1 14.3 14.6 14.8 15 15.4 16 16 16.1 16.6 16 15.4 14.9 13.8 13.5 13.2 11.9 13.8 12.2 11.7 11.6 11.6 11.4 11.3 11.1 11 11 11 10.2 11 11 10.8 10.8 10.7 9.8 9.4 9.4 9.3 9.8 10 9.9 9.8 9.8 9.7 9.6 9.5 9.3 8.9 9.2 9.6 9.8 9.9 10 10.1 10.1 10.1 10.1 10.1 10.1 10 10.1 10.2 10.3 10.4 10.4 10.5 10.6 10.6 10.3 10.2 10.1 10 9.9 9.8 9.7 9.6 9.5 9.4 9.4 9.4 9.5 9.6 9.7 9.8 9.5 9.4 9.4 9.3 9.4 9.5 8.4 3.9 3.1 2.7 2.6 2.5 2.5 2.4 2.3 2.2 2 1.9 1.8 1.7 1.6 1.5 1.4 1.3 1.2 1.1 1 0.9 0.8 0.7 0.5 0.4 0.3 0.1 0 -0.1 -0.1 -0.7 -1.4 -1.4 -1.4 -1.4 -1.4 -1.4 -1.4 -1.4
138.7 145.6 149.9 150.7 150.5 148.2 145.7 147.1 150.1 150.5 149.7 146 141.5 134.9 122.3 110.7 90.9 67.6 48.4 39.2 33.5 29.9 27.3 23.8 21.1 18.7 17 15.4 15.2 15 14.9 14.7 14.6 14.4 14.3 14.2 13.6 13.7 13.2 12.7 12.5 12.4 12.2 12.1 12.9 13.3 13.3 13.2 13.5 13.8 14.2 14.7 14.1 13.4 13.2 13 13 14.4 15.2 15 14.7 14.6 14.8 15.1 14.5 15.3 15.2 15 14.9 14.8 14.7 15.3 15.6 15.9 16.1 16.9 17.5 17.7 18 18.3 17.7 16.6 15.5 14.4 14.6 14.7 13.9 12.7 12.1 11.6 11.5 11.5 11.4 11.3 11.1 11 10.9 10.9 10.7 10.4 10.8 10.7 10.8 10.4 10.3 10 9.3 9.2 9.5 9.7 10.3 10.1 9.9 9.8 9.8 9.6 9.4 9.2 8.9 9.3 9.7 9.9 10 10 10.1 10 10.1 10 10 10 10 10.1 10.2 10.3 10.4 10.5 10.6 10.5 10.2 10.1 10 9.9 9.8 9.7 9.6 9.5 9.5 9.4 9.3 9.5 9.5 9.6 9.6 9.6 9.5 9.5 9.4 9.3 9.4 4.7 3.6 2.9 2.6 2.6 2.5 2.4 2.3 2.2 2.1 2 1.9 1.8 1.7 1.6 1.5 1.4 1.3 1.2 1.1 1 0.9 0.8 0.7 0.6 0.5 0.3 0.2 0.1 -0.1 -0.2 -0.2 -0.5 -1.3 -1.4 -1.4 -1.4 -1.4 -1.4 -1.4 -1.4
127.8 134 137 139 137.9 136.9 134.9 135.7 136.9 135.3 134.8 135.7 132.7 126.3 116.6 102.1 75.7 53.8 38.7 33.7 29.7 26.1 24 21.4 19.5 17.4 16.7 15.1 15 14.9 14.8 14.6 14.5 14.4 14.2 14.1 13.9 13.6 13.1 12.6 12.4 12.3 12.4 12.4 13.9 14.2 14.1 13.9 14.1 14.6 14.7 14.7 14.4 13.9 13.7 13.4 13.2 14.4 14.8 14.8 14.6 14.4 14.5 14.4 14.6 14.9 15 15.1 15.5 15.4 15.7 16.4 16.7 17 17.8 19.1 18.9 19 19.3 19.6 17.9 17.1 16.2 15.1 14.5 13.4 13.3 12.6 11.9 11.5 11.4 11.5 11.4 11.4 11.2 11 10.9 10.9 10.9 9.7 10.6 10.6 10.5 10.5 10.4 10.4 10 9.5 9.1 9.7 10.4 11 10.6 10.1 9.9 9.7 9.5 9.3 8.9 9 9.6 9.8 9.9 10 10 10 9.7 10 10 9.9 10 10.1 10.2 10.3 10.4 10.4 10.5 10.4 10.1 10 9.9 9.8 9.7 9.6 9.6 9.6 9.4 9.3 9.2 9.5 9.5 9.6 9.6 9.6 9.6 9.5 9.4 9.4 5.2 3.8 2.7 2.6 2.5 2.4 2.3 2.2 2.2 2.1 2 1.9 1.8 1.7 1.5 1.4 1.3 1.2 1.1 1 0.9 0.8 0.7 0.7 0.6 0.5 0.4 0.3 0.1 0 -0.1 -0.3 -0.3 -0.4 -1.1 -1.4 -1.4 -1.4 -1.4 -1.4 -1.4 -1.4
116 122.8 125.7 127.6 126.4 125.4 124.3 124 122.5 121.8 121.3 123 123.8 120.4 109.9 85.8 61 40.4 30.5 28.5 26 22.6 20.8 18.5 16.6 15.7 15.5 14.7 14.7 14.8 14.7 14.5 14.4 14.3 14.1 14 13.9 13.6 13 12.5 12.6 12.6 12.7 12.8 14 14.8 14.4 14.6 14.5 14.3 14.5 14.8 14.6 14.3 13.9 13.4 13.1 14.3 14.4 14.5 14.4 14.3 14.3 15.1 15.7 16 16.1 16.2 16 16 16.7 17.4 17.5 17.2 17.6 19 20.1 20.2 20.4 20.6 18.8 17.3 16.9 14.8 13.7 13.4 12.8 12.5 11.8 11.5 11.4 11.3 11.3 11.4 11.2 11 10.8 10.8 10.8 10.4 9.7 10 10 9.6 9.9 10.4 10.5 10.1 9.2 9.9 10.5 11.1 11.5 10.8 10.1 10 9.7 9.5 9.2 9.1 9.5 9.6 9.8 9.9 10 9.9 9.6 9.9 9.9 9.9 10 10.1 10.1 10.2 10.3 10.4 10.5 10.4 10 9.9 9.8 9.7 9.6 9.6 9.6 9.5 9.4 9.3 9.2 9.4 9.5 9.6 9.6 9.6 9.3 9.3 9.2 7.1 4.5 2.7 2.6 2.5 2.4 2.3 2.2 2.1 2 1.9 1.8 1.7 1.6 1.5 1.4 1.3 1.2 1.1 1 0.9 0.8 0.7 0.6 0.5 0.4 0.3 0.3 0.2 0.1 -0.1 -0.2 -0.3 -0.4 -0.5 -0.9 -1.4 -1.4 -1.4 -1.4 -1.4 -1.4 -1.4
105.7 111.6 115 116.1 114.5 113.1 110.4 108.8 108 107.9 108.1 107.5 107.8 104.5 97 72.9 50.3 30.4 25.2 23.2 22 19.9 18 16.9 15.7 15.6 14.9 14.4 14.5 14.6 14.6 14.4 14.3 14.1 14 13.8 13.6 13.4 12.8 12.8 12.9 12.8 13 13.1 14.7 15.1 14.7 14.3 14.1 14 14 14.4 14.7 14.4 13.9 13.5 13.1 13.9 14 14.1 14.6 15.1 14.8 15.3 16.3 16.6 16.7 16.9 17 16.7 16.9 17.4 17.5 17.1 16.7 17.8 18.7 19.1 17 16.3 17.5 15.3 15.4 14.3 13.3 12.7 12.1 12 11.6 11.5 11.3 11.2 11.3 11.4 11.3 11.1 10.9 10.7 10.7 10.7 10.2 10.3 10.6 10.3 9.8 10.1 10.3 10.4 10.2 9.8 10.5 11.1 11.6 10.7 10.3 10.3 10.2 9.9 10 9.4 9.5 9.5 9.6 9.8 9.9 9.9 9.6 9.3 9.8 9.8 9.9 10 10.1 10.2 10.3 10.4 14 10.3 9.9 9.8 9.7 9.7 9.7 9.7 9.6 9.5 9.4 9.2 9.1 9.3 9.5 9.6 9.7 9.6 9.4 9.1 8 3.8 2.7 2.6 2.5 2.3 2.2 2.1 2 1.9 1.9 1.8 1.7 1.6 1.5 1.4 1.3 1.2 1.1 1 0.8 0.7 0.6 0.6 0.5 0.4 0.3 0.2 0.1 0.1 0 -0.1 -0.3 -0.4 -0.5 -0.6 -0.6 -1.4 -1.4 -1.4 -1.4 -1.4 -1.4 -1.4
97.8 101.4 104.4 103.9 102.4 100 98.9 97 95.4 96.1 95.6 94.1 93.3 88 79.6 63.3 41.3 24.3 20.7 18.8 17.6 16.5 16.5 15.6 15.2 14.7 14.3 14.3 14.4 14.5 14.5 14.2 14.1 13.9 13.7 13.6 13.4 13.1 12.6 13.2 13.8 13.2 13.2 15.2 14.2 14.5 14.3 13.9 13.8 13.6 13.6 13.9 14.2 14.2 13.9 13.5 13.1 13.5 13.7 14.2 15.2 15.2 14.9 15 15.4 15.4 16 16.2 15.8 15.9 16.1 15.9 17.5 16.9 16.3 16.6 16.5 15.9 15.7 15.6 15.3 14.5 14.6 13.2 12.6 12 11.5 11.5 11.6 11.5 11.3 11.2 11.3 11.5 11.3 11.1 10.9 10.7 9.6 10.6 10.9 10.9 10.3 10.5 10.5 10 10.3 10.4 10.4 10.5 10.3 11 11.4 11.9 10.3 10.3 10.3 10.1 9.1 9.5 9.6 9.7 9.7 9.8 9.8 10 9.5 9.3 9.8 9.8 9.9 10 10.1 10.2 10.3 10.4 14.1 10.2 9.8 9.8 9.8 9.8 9.8 9.7 9.5 9.4 9.3 9.2 9.1 9.2 9.4 9.6 9.7 9.6 9.4 9 3.9 2.7 2.6 2.5 2.3 2.2 2.1 2 1.9 1.8 1.7 1.6 1.5 1.4 1.3 1.2 1.1 1 0.9 0.8 0.7 0.6 0.5 0.4 0.3 0.2 0.2 0.1 0 -0.1 -0.2 -0.2 -0.3 -0.5 -0.6 -0.7 -0.8 -1.2 -1.4 -1.4 -1.4 -1.4 -1.4 -1.4
89 87.9 89.8 89.8 89.5 89.2 88.3 84.9 84.8 84 81.2 78.4 75.9 73.8 70.1 52.4 33.2 22.7 18 16.9 16.2 15.9 15.6 15 14.3 14.2 14.3 14.4 14.4 14.5 14.4 14.2 14 13.8 13.5 13.4 13.1 12.8 12.4 13.6 14.3 14 15.2 13.6 13.6 13.6 13.5 13.5 13.4 13.4 13.3 13.4 13.8 13.8 13.6 13.3 13.1 13.3 13.8 14.4 14.7 14.7 14.3 14.1 14.2 14.5 14.7 14.8 15 15.1 15.4 14.3 15.6 14.9 16.1 16.1 16 15.9 15.6 15.3 14.5 13.7 13 12.4 12 11.7 11.4 11.3 11.6 11.6 11.4 11.2 11 11.3 10.8 10.7 9.6 10.6 10.4 10.3 10.6 10.8 10.8 10.7 10.4 10.4 10.2 10.4 10.4 10.5 10.6 11 11.7 12.5 10.7 10.2 10.3 9.7 9 8.7 9.5 9.6 9.7 9.6 9.9 9.5 10.2 10.2 8.9 9.8 9.9 10 10.1 10.3 10.4 14.4 10.2 10.2 10 9.9 9.9 9.9 9.7 9.6 9.5 9.4 9.3 9.2 9 9.1 9.3 9.6 9.7 9.6 9 4.8 3.9 2.7 2.5 2.4 2.2 2.1 1.9 1.8 1.7 1.6 1.5 1.5 1.4 1.3 1.2 1.1 1 0.9 0.8 0.7 0.6 0.5 0.4 0.3 0.2 0.1 0 -0.1 -0.2 -0.2 -0.3 -0.4 -0.4 -0.6 -0.7 -0.8 -0.9 -1 -1.4 -1.4 -1.4 -1.4 -1.4 -1.4
88.9 79.3 78.3 78.2 78.7 77.5 75 73.6 72.6 72 70.7 68.7 67.2 63.5 53.6 37 23.4 19.2 16.7 15.7 15.3 14.8 14.4 14.1 14.2 14.3 14.3 14.4 14.4 14.5 14.3 14.1 13.9 13.7 13.5 13.3 13 12.6 12.6 14 14.6 14.9 14.7 13.7 13.8 14 13.9 14.5 14.2 13.9 13.5 13.4 13.4 13.5 13.4 13.5 13.5 13.3 13.5 13.8 14.1 14.1 14.2 14.3 14.3 14.6 15.1 15.2 15.4 14.6 14.7 15.6 16.1 15 14.8 15.4 15.3 15.2 15.2 15 14 12.9 12.5 12.2 11.9 11.6 11.3 11.2 11.4 11.7 11.5 11.3 11.1 10.9 10.4 10.8 10.6 10.7 10.5 10.5 10.4 10.5 10.7 10.7 10.6 10.5 10.4 10.4 10.7 11.1 11.7 12.5 12.7 13 11.2 10.5 10.1 9.9 9.5 9.1 9.5 9.4 9.3 9.8 9.7 9.3 9.8 10.3 9.9 10.8 10.8 10.7 10.6 10.5 13.2 10.4 10.4 10.3 10.1 9.9 9.9 9.8 9.7 9.6 9.5 9.3 9.2 9.1 9 9 9.2 9.5 9.7 9.2 8.4 4.1 2.7 2.5 2.4 2.3 2.1 2 1.8 1.7 1.6 1.5 1.4 1.3 1.2 1.1 1.1 1 0.9 0.8 0.6 0.5 0.4 0.3 0.2 0.1 0 -0.1 -0.1 -0.2 -0.3 -0.4 -0.5 -0.5 -0.6 -0.7 -0.8 -0.9 -1 -1 -1.4 -1.4 -1.4 -1.4 -1.4 -1.4
98.6 86.6 75.6 70.6 70.4 69.3 67.5 64.9 63.4 61.3 59.3 57 55.1 47.2 34.1 27.5 20.3 17.7 15.9 15.8 15.5 15 14.6 14.2 14.2 14.3 14.3 14.4 14.4 14.5 14.3 14 13.8 13.6 13.4 13.2 13 12.9 13.8 14.6 14.6 13.5 13.7 14 14 14.4 14.8 15.7 15.4 14.9 15 15.1 14.3 14.4 14 13.8 13.8 13.7 13.8 14 14.3 14.6 14.7 14.8 14.6 14.7 15.5 15.6 15.8 16 16.1 16.4 15.1 14.2 14.2 14.7 14.6 14.7 14.7 14.5 14 13 12.5 12 11.7 11.4 11.1 11 11.3 11.9 11.7 11.4 11.2 10.3 11.7 11.4 10.4 10.8 10.6 10.6 10.5 10.5 10.4 10.7 10.6 10.5 10.4 10.5 11.7 12.2 13.1 14 14.2 14.6 13.5 10.4 10.2 10.1 9.8 9.2 9.7 9 9 9.8 10.1 10 10.1 10.2 10.3 10.4 10.6 10.6 10.6 11.1 11.2 10.4 10.3 10.2 10.1 10 9.9 9.8 9.7 9.5 9.4 9.3 9.2 9.1 9 8.9 9.1 9.4 8.3 8.4 4.4 2.7 2.5 2.4 2.3 2.1 2 1.9 1.7 1.6 1.4 1.3 1.2 1.2 1.1 1 0.9 0.8 0.7 0.6 0.5 0.4 0.3 0.2 0.1 0 -0.1 -0.2 -0.3 -0.4 -0.4 -0.5 -0.6 -0.7 -0.8 -0.8 -0.9 -1 -1.1 -1.2 -1.3 -1.4 -1.4 -1.4 -1.4 -1.4
100 92.3 81.5 71.3 63 62.1 60.1 57.5 55.9 53 49.8 45.7 38.2 33.4 28.1 23.1 19.4 16.8 15.9 15.8 15.7 15.5 15.1 14.6 14.2 14.3 14.3 14.4 14.5 14.5 14.2 13.9 13.6 14.4 14.3 13.7 13.2 14.1 14.5 14.4 14.6 13.8 14 14.7 15.2 15.6 16.2 16.9 16.3 15.6 15.9 15.3 15.4 15.4 15.2 14.4 14.2 14.1 14.1 14.3 14.6 15 15.2 15.3 15.3 14.9 15.6 16 16.1 16.1 15.7 14.9 14.7 14.5 13.6 13.9 14 14.2 14.2 14 13.8 13.3 12.7 12.2 11.7 11.3 11 10.8 11.1 12.1 11.8 11.6 11.9 11.6 11.5 11.6 10.4 10.9 10.7 10.7 10.7 10.6 10.6 10.5 10.6 10.6 10.5 10.7 11.1 13.1 14.5 15.5 15.9 16 15.2 10.4 9.9 9.5 9.4 9.5 9.9 10 10 10 10.1 10.1 10.1 10.2 10.3 10.4 10.5 10 10.3 10.8 10.4 10.5 10.3 10.2 10.1 10 9.8 9.6 9.6 9.5 9.4 9.3 9.1 9 8.9 8.8 9 9.1 5.8 4.9 2.7 2.5 2.3 2.2 2.1 2 1.9 1.7 1.6 1.5 1.3 1.2 1.1 1 0.9 0.8 0.7 0.7 0.6 0.5 0.4 0.3 0.1 0 -0.1 -0.2 -0.3 -0.4 -0.4 -0.5 -0.6 -0.7 -0.8 -0.8 -0.9 -1 -1 -1.1 -1.2 -1.3 -1.3 -1.4 -1.4 -1.4 -1.4 -1.4
99.4 91 79.6 71.1 58.6 51.1 51.2 49.6 46.8 43.2 39.8 34.6 30.1 26.9 23 20.7 18 15.9 15.9 15.8 15.7 15.6 15.5 15.1 14.6 14.3 14.3 14.4 14.5 13.2 13.2 13.4 13.7 22 16 16.2 14.8 14.5 13.9 14.7 15.4 15.4 16 16.7 17.3 17.8 18.3 18.5 17.2 16.5 16.2 16.7 16.5 16.6 15.7 15 14.7 14.5 14.4 14.6 15 15.4 15.6 15.8 15.9 15.6 16.1 15.9 16 16 15.6 15.1 14.9 14.7 13.5 13.4 13.5 13.7 13.7 13 13 12.8 12.5 12.1 11.8 11.4 10.9 10.7 11 12 12 12 11.7 11.4 11.4 11.5 11 11 10.9 10.8 10.8 10.7 10.7 10.6 10.6 10.5 10.6 11.1 11.6 13.4 14.7 16.2 16.9 16.9 15.7 10.3 9.9 9.5 9 8.6 9.7 9.9 10 10 10.1 10.1 10.1 10.2 10.3 10.4 10.5 10.6 9.5 10.1 10.3 10.3 10.4 10.2 10.1 10 9.8 9.6 9.5 9.2 9.2 9.2 9.1 9 8.9 8.8 8.9 6.4 3.8 2.9 2.5 2.3 2.1 1.9 1.9 1.8 1.8 1.6 1.5 1.3 1.2 1.1 1 0.9 0.8 0.7 0.6 0.5 0.4 0.3 0.2 0.1 0 -0.1 -0.2 -0.3 -0.4 -0.5 -0.6 -0.7 -0.7 -0.8 -0.9 -1 -1.1 -1.1 -1.2 -1.3 -1.3 -1.4 -1.4 -1.4 -1.4 -1.4 -1.4 -1.4
100.8 88.2 77.8 66.8 58.7 43.4 38.7 37.8 35.9 33.1 29.6 24.9 20.5 20.7 19.8 17.7 16.1 15.5 15.4 15.4 15.4 15.4 15.3 15.3 15.1 14.6 14.3 14.2 13.3 13.2 13.4 13.6 13.8 23.7 15.9 14.8 14.7 14.4 16 17.5 17.9 18 18.6 19 19.4 19.8 20.2 20.1 20 18.2 18 17.3 17.3 16.9 15.8 15.3 15.1 15 14.8 14.9 15.3 15.8 16.1 16.2 15.9 14.8 15.3 15.6 15.7 15.5 15.7 15.4 15 13.8 13.1 13.1 12.9 12.6 12.3 12.2 12.2 12.1 11.7 11.4 11.1 10.7 10.6 11 11.2 12.1 12.1 11.8 11.5 11.2 11.3 11.4 11.4 11.1 11 10.9 10.9 10.9 10.8 10.8 10.7 10.7 11.2 11.7 12.6 14.3 16.1 17.6 18.1 17.9 15.6 10.2 9.3 9.1 9 8.5 9.8 9.9 10 10 10 10.1 10.2 10.2 10.3 10.4 10.5 10.5 10.5 9.8 10.1 10.2 10.3 10.3 10.1 9.9 9.8 9.6 9.4 9.3 9 8.9 8.8 8.8 8.8 8.7 8.1 4.8 2.8 2.5 2.4 2.1 1.9 1.7 1.7 1.7 1.6 1.5 1.4 1.2 1.1 0.9 0.8 0.7 0.6 0.5 0.4 0.4 0.3 0.2 0.1 0 -0.1 -0.2 -0.3 -0.5 -0.6 -0.7 -0.7 -0.8 -0.9 -1 -1.1 -1.1 -1.2 -1.3 -1.4 -1.4 -1.4 -1.4 -1.4 -1.4 -1.4 -1.4 -1.4 -1.4
89.2 80 71.1 62.9 55.9 48.2 33.5 28.6 28 24.9 20.6 18.8 18.4 17.9 17.5 16.3 15.2 15.1 15 15 15 15 14.9 14.9 14.4 14.3 14.2 13.8 13.1 13.4 13.7 13.9 14.1 20.1 16.7 14.8 14.5 15.4 19.1 20.1 21.4 21 22 22.6 22.1 21.8 21.9 21.8 21.7 19.4 18.4 17.4 16.7 16.4 15.9 15.5 15.5 15.5 15.6 15.9 14.6 16.2 16.2 14.6 14.5 14.5 14.8 15.3 14.9 14.3 15.1 14.8 12.6 11.9 12.8 13.2 13 12.8 12.5 11.9 11.5 11.4 11 10.8 10.7 10.5 10.4 11.1 12.1 12 12 11.9 11.5 11.1 11.2 11.3 11.3 11.2 11.1 11.1 11 11 10.9 10.9 10.8 11.3 12 12.5 14.8 16.5 18.3 19.3 19.5 19.5 15.5 10 9.2 8.7 8.7 9.4 9.8 9.9 10 10 10 10.1 10.2 10.3 10.3 10.4 10.5 10.5 10.4 10.4 9.9 10.7 10.3 10.2 10.1 9.9 9.7 9.6 9.4 9.2 9.1 8.9 8.6 8.5 8.5 8.2 4 2.7 2.5 2.3 2.1 2 1.8 1.6 1.5 1.5 1.4 1.3 1.2 1.1 1 0.8 0.7 0.6 0.5 0.4 0.3 0.2 0.1 0 -0.1 -0.2 -0.3 -0.4 -0.5 -0.6 -0.7 -0.8 -0.9 -1 -1.1 -1.1 -1.2 -1.3 -1.4 -1.4 -1.4 -1.4 -1.4 -1.4 -1.4 -1.4 -1.4 -1.4 -1.4 -1.4
76.1 69.3 63.6 53.7 47.3 37.4 26.8 24.9 22.5 19.7 18.2 16.8 16.5 16.4 16.3 15.4 14.8 14.7 14.5 14.5 14.6 14.6 14.5 14.4 13.9 13.8 13.8 13.8 13.2 13.3 13.6 14 21.7 15.6 15.5 21.6 15.3 18.1 23.3 23.7 23.8 23.9 23.4 23.2 22.4 21.5 20.7 20.3 19.8 19.7 18.7 17.7 16.7 16.6 17.3 16.6 16.4 16.4 16.5 17 16.6 15.7 15.2 15.3 14.5 14.5 14.9 14.3 13.5 13.6 14.5 13.3 11.9 11.3 12.5 13 13.2 13.1 12.7 12.1 11.5 11.6 11.1 10.6 10.4 10.3 10.2 11.6 12 12 11.9 11.8 11.3 11.2 11.2 11.2 11.2 11.2 11.2 11.2 11.2 11.2 11.2 11.2 11.4 12.1 12.7 14.3 16.6 19.4 20 20.7 20.8 20.9 15.3 9.8 9.1 8.5 9.5 9.5 9.8 9.9 9.9 10 10 10.1 10.2 10.1 10.3 10.4 10.4 10.4 10.4 10.4 10 9.6 10.8 10.4 10.1 9.9 9.7 9.5 9.4 9.2 9 8.9 8.7 8.5 8.2 4.3 2.9 2.5 2.3 2.1 1.9 1.8 1.6 1.4 1.3 1.3 1.2 1.1 1 1 0.9 0.7 0.6 0.4 0.3 0.2 0.1 0.1 0 -0.1 -0.2 -0.3 -0.4 -0.5 -0.6 -0.7 -0.8 -0.9 -1 -1.1 -1.2 -1.3 -1.4 -1.4 -1.4 -1.4 -1.4 -1.4 -1.4 -1.4 -1.4 -1.4 -1.4 -1.4 -1.4 -1.4
68.4 60.1 48.1 39 29.8 24.9 21.2 19.5 19 18.4 17.1 16.1 16 15.9 15.8 14.5 14.4 14.3 14.1 14.1 14.1 14.1 14.1 13.9 13.8 13.7 13.6 13.5 13.5 13.3 13.7 15.8 16.6 15.9 19.8 22.9 22.3 23.4 25.2 24.6 24.2 23.4 22.3 22.1 21.3 20.2 19 19.1 19.2 19.3 18.9 17.8 16.7 18.4 18.3 18.2 17.7 17.2 17 16.7 16.4 14.7 14.3 14.9 15.4 14.2 13.4 12.6 12.7 12.7 12.8 12.5 12.3 11.6 12.5 12.9 13.1 12.8 12.9 12.9 12.3 12.5 12.3 11.7 11.1 10.5 9.9 11.3 11.9 12 11.8 11.5 11.3 11.4 11.5 11.7 11.8 11.8 11.6 11.6 11.6 11.6 11.6 12.4 12.6 13.5 15.5 18.8 19.6 20.4 21.8 21.9 22.2 22 14.1 9.7 9.5 8.8 8.9 9.5 9.7 9.9 9.9 10 10 10.1 10.1 10.2 10.4 10.4 10.4 10.4 10.3 10.3 9.8 9.9 9.9 9.7 9.6 10.3 10 9.5 9.3 9.2 9 8.9 8.7 8.5 4.4 3.7 2.5 2.3 2 1.8 1.7 1.5 1.4 1.2 1 1 1 0.9 0.9 0.8 0.7 0.6 0.5 0.3 0.2 0.1 0 -0.1 -0.2 -0.3 -0.4 -0.5 -0.6 -0.7 -0.8 -0.9 -1 -1.1 -1.2 -1.3 -1.4 -1.4 -1.4 -1.4 -1.4 -1.4 -1.4 -1.4 -1.4 -1.4 -1.4 -1.4 -1.4 -1.4 -1.4 -1.4
42 31.2 27.7 24.9 20.5 18.1 17.9 18 17.9 17.6 16.9 15.7 15.6 15.5 14.8 14.1 14 13.9 13.7 13.6 13.6 13.7 13.7 13.7 13.7 13.6 13.5 13.4 13.3 14 15.5 16.3 16.2 20.4 23.2 24.8 24.8 24.4 24.7 24.2 23 21.8 21 21.1 20.7 19.6 18.8 18.7 18.8 18.8 18.5 17.4 17.4 18.3 17.8 18.3 17.6 16.9 16.7 16.5 16.2 16.5 15.9 14.4 16.3 14.1 14.3 14.3 13.6 13.5 13.1 12.7 12.3 11.9 12.6 12.9 12.6 12.1 12.3 12.4 12.3 12.1 11.9 12.2 11.6 11.1 10.6 11.3 11.7 12.2 12.3 12.4 12.2 12.3 12.4 12.5 12.6 12.6 12.5 12.1 12.1 12.1 13.2 14.6 16.4 19.2 20.5 21.8 22.5 22.7 23.2 23.6 23 19.9 13.1 9.7 9 8.4 8.6 8.9 9.7 9.9 9.9 10 9.9 10 10.2 10.3 10.3 10.3 10.3 10.3 10.3 10 9.6 10.3 10.2 10 9.9 9.6 10.5 10.1 9.5 9 9 8.8 8.7 5 3.5 2.6 2.3 2.1 1.8 1.6 1.4 1.3 1.2 1 0.8 0.8 0.8 0.8 0.7 0.6 0.5 0.4 0.3 0.2 0.1 -0.1 -0.2 -0.2 -0.3 -0.4 -0.5 -0.6 -0.7 -0.8 -0.9 -1 -1.1 -1.2 -1.3 -1.4 -1.4 -1.4 -1.4 -1.4 -1.4 -1.4 -1.4 -1.4 -1.4 -1.4 -1.4 -1.4 -1.4 -1.4 -1.4 -1.4
27 20.6 19.4 17.9 14.7 15.1 15.8 16.4 16.8 16.5 15.9 15.4 15.3 15.3 15.1 14.5 13.9 13.5 13.3 13.2 13.2 13.2 14 14 13.8 13.7 13.5 13.4 13.9 14.7 15.9 16.3 20 22.5 23.8 24.4 24.5 24.5 23.9 22.9 21.5 20.3 19.7 19.9 19.9 19 18.5 18.3 18.3 18.1 17.5 17.7 18.4 18.4 18.5 18.8 18.7 18.1 18.1 17.9 17.7 17.8 17.9 15.7 15 14.4 14.9 14.1 13.8 13.9 16.3 14.3 12.4 12.2 12.6 12.9 12.5 12.3 12.3 12.3 12.6 13 12.9 12.7 12.7 11.6 11.7 11.9 12.7 13.3 13.6 13.6 13.4 13.1 13.3 13.4 13.2 13.4 13.5 13.1 13.4 14.7 17.5 18.5 21.9 22.5 22.5 22.9 23.1 22.8 23.3 23.7 22.5 18.4 12.4 9.5 9.3 9.2 9.3 8.9 9.7 9.8 9.9 9.7 9.9 10.1 10.3 10.3 10.3 10.2 10.2 10.2 10.2 9.8 9.3 10.3 10.4 10.4 9.9 9.4 9.6 9.7 9.7 9.3 8.8 8.1 5.7 3.6 2.6 2.4 2.1 1.9 1.6 1.4 1.2 1 1 0.8 0.6 0.6 0.6 0.6 0.5 0.4 0.3 0.3 0.2 0.1 0 -0.2 -0.3 -0.4 -0.5 -0.6 -0.7 -0.8 -0.8 -0.9 -1.1 -1.2 -1.3 -1.4 -1.4 -1.4 -1.4 -1.4 -1.4 -1.4 -1.4 -1.4 -1.4 -1.4 -1.4 -1.4 -1.4 -1.4 -1.4 -1.4 -1.4 -1.4
21.7 17.3 14.6 16.4 14.7 13.6 13.9 14.3 15.7 15 14.5 14.9 15.4 15.3 15.2 14.8 14.4 13.9 13.3 12.8 12.7 13.1 13.3 13.3 13.2 13 13 13.1 14.2 15.5 16.5 17.1 18.8 21.6 22.5 21.9 21.8 21.7 21.7 21.3 20.3 18.7 18.5 18.8 18.7 18.5 18.2 17.9 17.6 18.2 19 19.2 19.6 20.1 19.1 19.4 19.7 19.1 19.6 19.4 19.4 19.4 18.8 16.2 15.2 15.1 15.1 14.2 13.6 13.4 13.5 13.2 13.1 12.4 13.1 13 12.9 12.9 12.8 12.9 13.8 14.2 14.2 14.2 14.2 13.7 14.2 14.2 14.1 14.3 14.7 14.8 14.5 14.2 14.2 14 13.8 14.2 14.5 15.5 17.1 19 21 23.9 23.2 23.5 22.9 22.8 22.8 22.9 23.3 23.8 20.4 18.4 12.4 9.4 9.3 9.4 9.5 8.8 10.1 9.8 9.6 9.8 10 10.2 10.2 10.2 10.2 10.2 10.2 10.2 10 9.6 9.5 8.3 9.4 9.7 9.5 9.6 9.9 10.6 10.6 9.5 8.9 6.4 3.3 2.7 2.4 2.1 1.9 1.6 1.4 1.1 0.9 0.8 0.7 0.6 0.5 0.4 0.4 0.3 0.3 0.2 0.2 0.1 0 -0.1 -0.2 -0.3 -0.4 -0.6 -0.6 -0.7 -0.8 -0.9 -1 -1.1 -1.2 -1.3 -1.4 -1.4 -1.4 -1.4 -1.4 -1.4 -1.4 -1.4 -1.4 -1.4 -1.4 -1.4 -1.4 -1.4 -1.4 -1.4 -1.4 -1.4 -1.4 -1.4
21.6 17.3 13.8 15.7 14.7 14.6 14.8 14.4 13.6 13.8 14 14.8 15.8 15.5 15.3 15.2 14.9 13.7 12.5 12 11.8 12 12.2 12.3 12.4 12.6 12.8 12.7 13.6 15.5 16 17.8 19.4 20.5 19.9 19 18.9 18.7 18.7 18.6 18.3 17.1 17.3 17.6 18 18.7 19.1 18.7 19.6 19.8 20.4 20.9 21.3 21.1 20.1 19.8 20.2 20.1 20.6 20.7 19.7 19 18.8 16.9 15.4 15.4 14.4 14 13.5 14.1 14.8 15.3 16 13.7 14.8 15.5 14.4 14.5 14.5 13.8 14.5 15.1 15.1 15.2 15.2 15.4 15.6 15.9 16 15.5 14.9 14.6 14.6 14.6 15 15.1 15 15.7 17.7 19.3 20.9 21.7 22.8 23.6 23.5 23.6 24.3 24.9 23.6 23.7 24.1 23.8 22.2 18.4 12.3 9.4 9.4 9.4 9.4 9.6 9.8 10.2 9.7 9.9 10.1 10.2 10.2 10.1 10.1 10.1 10.1 10.1 9.8 9.5 9.6 9.7 9.4 9.6 9.5 9.7 10.9 10.6 10.6 9.4 5.1 5 2.7 2.5 2.2 1.9 1.6 1.4 1.2 0.9 0.7 0.5 0.4 0.4 0.3 0.1 0.1 0.1 0.1 0 0 -0.1 -0.2 -0.3 -0.4 -0.4 -0.6 -0.7 -0.8 -0.9 -1 -1.1 -1.1 -1.2 -1.3 -1.4 -1.4 -1.4 -1.4 -1.4 -1.4 -1.4 -1.4 -1.4 -1.4 -1.4 -1.4 -1.4 -1.4 -1.4 -1.4 -1.4 -1.4 -1.4 -1.4 -1.4
18.7 15.6 14.1 13.6 15.2 15.4 14.7 13.8 13 13.3 13.5 14.8 16.1 15.7 14.7 14.4 14.2 14.1 12.2 11 12 12.5 13 13.4 12.8 12.4 12.5 12.4 13.2 15.4 15.8 16.1 18.1 17.7 17 16.6 16.4 16.2 16.4 17.1 16.8 17.3 17.9 18.4 18.4 18.8 19.8 20 20.6 21.5 21.9 22.4 22.7 22.1 21.2 20.2 20.6 20.8 20.4 20.9 19 18.8 18.6 18.2 16.5 15.3 15.3 15.9 15.5 16 16.5 16.4 16 15.7 15 15.4 15.6 15.4 15 14.6 15.2 15.9 16 16.1 16.2 16.3 16.5 16.8 16.3 16.8 17.3 16.4 15.7 15.2 15.9 17 18.6 19.9 21.6 22.7 23.1 24.2 24.9 25.4 24.7 24.3 24.3 25 24.4 25 24.5 23.8 22.4 18.5 11.9 9.7 9.4 9.5 9.5 8.2 9.4 9.8 9.7 10 10.1 10.1 10.1 10.1 10.1 10.1 10.1 10 9.7 9.5 9.7 9.5 9.2 9.2 9.3 9.5 9.8 10.6 9.4 5.4 3.6 3 2.5 2.2 1.9 1.6 1.4 1.1 0.9 0.7 0.5 0.2 0.1 0.1 0.1 -0.1 -0.1 -0.1 -0.1 -0.1 -0.2 -0.3 -0.4 -0.5 -0.5 -0.6 -0.7 -0.8 -0.9 -1 -1.1 -1.2 -1.3 -1.4 -1.4 -1.4 -1.4 -1.4 -1.4 -1.4 -1.4 -1.4 -1.4 -1.4 -1.4 -1.4 -1.4 -1.4 -1.4 -1.4 -1.4 -1.4 -1.4 -1.4 -1.4 -1.4
16.6 16.7 16.6 13.9 13.9 15.5 14.5 13.5 12.8 12.6 13.1 14.8 16.3 15 14.1 13.6 13.5 13.4 12.7 10.8 12.5 12.8 13.1 13.4 13.6 13 12.6 12.8 13.3 15.8 14.2 14.7 15.7 14.7 15.1 15.5 16.1 16.7 17.1 18 18.2 18.4 19 19.4 19.8 19.7 20 20.4 20.7 21.7 23.4 23.3 23.1 23.1 22.2 21.2 20.8 20.3 19.4 19.4 19.3 19.1 19 19.2 18.3 17.2 16.3 15.9 16.6 16.8 16.8 16.7 16.3 15.9 15.6 15.2 15.3 15.6 15.4 15.5 16.1 16.8 16.9 17.1 17.2 17.3 17.5 17.9 18.4 18.9 19.4 18.9 18.2 18.9 19.6 20.2 22.5 23.7 24.4 24.8 25.5 26.6 26.9 27 25.9 25.5 25.1 24.8 24.7 25.1 24.7 23.7 22.6 17.2 11.4 10 9.7 9.4 8.6 9.3 9.6 9.7 9.9 9.9 10 10 10 10 10 10 10 9.9 9.6 9.5 7.7 8.7 8.5 9.1 9.3 9.4 9.5 9.6 7.3 4.7 2.7 2.5 2.3 2 1.7 1.4 1.1 0.9 0.6 0.4 0.2 0 -0.1 -0.2 -0.2 -0.3 -0.3 -0.3 -0.3 -0.4 -0.4 -0.5 -0.6 -0.6 -0.7 -0.8 -0.9 -1 -1.1 -1.2 -1.3 -1.4 -1.4 -1.4 -1.4 -1.4 -1.4 -1.4 -1.4 -1.4 -1.4 -1.4 -1.4 -1.4 -1.4 -1.4 -1.4 -1.4 -1.4 -1.4 -1.4 -1.4 -1.4 -1.4 -1.4 -1.4
15.8 15.3 15.1 15.3 12.3 14.3 15 14.3 13.7 13.2 14 16 15.7 14.3 14 13.7 13.5 13.5 11.8 11.2 12.5 12.7 12.8 13.1 13.4 13 13.3 14.3 15 14.5 13.8 14.1 15.5 17.2 17.6 17.7 17.6 17.6 18.6 19.2 19.6 19.8 19.9 20.2 20.5 20.8 21.2 21.3 21.3 21.5 22.6 23.4 23.4 23.5 22.3 21.4 20.8 20.9 20.9 20.3 19.6 19.5 19.4 20.2 19.3 19.1 18.3 17.3 16.6 16.9 17.1 17 16.6 16.2 16.1 16.1 16.1 16 16.3 17.8 18.5 18.8 19 19.1 19.3 19.5 19.8 20.1 20.5 21 21.5 21.5 21.1 22 22.5 23.5 24.9 25.3 26.5 27 27.4 28.1 28.4 28 27.7 27.1 26.8 25.6 24.6 24.2 24 23.3 22.4 14.6 10.9 9.7 9.5 9.4 8.9 9.3 9.4 9.5 9.7 9.6 9.8 9.8 9.7 9.8 10 10 8.8 10.1 8.6 9.6 9.8 10 8.7 9.6 9.1 9 6.8 6.3 3.6 2.6 2.3 2.1 2 1.7 1.5 1.2 0.9 0.6 0.4 0.1 -0.1 -0.2 -0.4 -0.5 -0.4 -0.5 -0.6 -0.6 -0.6 -0.6 -0.6 -0.7 -0.7 -0.8 -0.9 -1 -1.1 -1.1 -1.2 -1.4 -1.4 -1.4 -1.4 -1.4 -1.4 -1.4 -1.4 -1.4 -1.4 -1.4 -1.4 -1.4 -1.4 -1.4 -1.4 -1.4 -1.4 -1.4 -1.4 -1.4 -1.4 -1.4 -1.4 -1.4 -1.4 -1.4
17.8 14.8 13 15.3 14.4 12.3 12.9 14.5 14.6 13.5 14.8 15.6 15 14.5 14.1 13.7 13.6 12.6 11.1 11.5 12.6 12.7 12.8 13 13.1 13.1 14 15 15.9 15.4 15.3 15.6 17.2 18.5 17.8 19 19.5 19.8 20 20.5 21 20.9 20.9 21.1 21.9 21.9 22.4 22.7 22.7 22.6 22.5 23 23.5 22.6 21.9 21.8 22.1 22.4 22.4 21.8 20.9 20.7 21.3 20.9 20.5 19.7 18.6 17.8 17.5 17.3 17.3 17.3 17 17 17.1 17.4 18.1 18.5 19.2 20 20.7 20.9 21 21.3 21.6 21.8 22.1 22.5 22.8 23.2 23.5 24 24.2 24.7 25.6 26.2 27.4 28.5 29.6 30.4 30.6 30.7 31.3 30.6 29.9 29.3 28.7 27 25 23.9 23.6 22.7 20.1 11.8 9.7 9.6 9.5 9.2 8.5 9.2 9.2 9.2 9.4 9.4 8.3 9.6 9.5 8.7 9.3 10 9.9 10.1 10 9.3 9.6 9.9 10 9.5 9.8 5.3 4 2.9 2.5 2.2 2 1.8 1.6 1.4 1.1 0.9 0.7 0.4 0.1 -0.2 -0.4 -0.5 -0.7 -0.8 -0.7 -0.7 -0.8 -0.8 -0.8 -0.8 -0.8 -0.9 -0.9 -1 -1.1 -1.2 -1.2 -1.3 -1.4 -1.4 -1.4 -1.4 -1.4 -1.4 -1.4 -1.4 -1.4 -1.4 -1.4 -1.4 -1.4 -1.4 -1.4 -1.4 -1.4 -1.4 -1.4 -1.4 -1.4 -1.4 -1.4 -1.4 -1.4 -1.4 -1.4 -1.4
18.3 16.5 15.5 13.5 12 12.5 11.1 11.7 11.8 11.8 13.4 14.8 14.5 14.7 14.2 13.8 13.3 11.4 10.3 11.8 12.6 12.8 12.9 13.1 13.2 13.4 14.7 15.9 15.8 15.8 17.3 17.5 18.3 19.5 20 20.3 20.6 20.9 21.9 22.1 22.8 22.7 22.5 22.8 23.2 23.9 23.6 23.9 24 23.9 23.8 23.9 24.4 23.4 22.8 23 23.3 23.6 23.9 23 21.9 21.6 22.5 21 21.1 20.1 19.1 18.7 18.4 18.2 18.1 18.3 18.4 18.5 19.1 19.8 20.6 21.4 22.1 22.7 22.7 23 23.4 23.6 23.9 24.2 24.5 24.9 25.2 25.5 26.1 26.6 27.6 28.5 29.1 29.7 30.4 32.3 33.2 33.7 34 34.6 35.2 34.8 33.1 30.8 28.8 27 24.5 24.1 22.7 20.7 13.8 10.4 9.6 9.5 9.4 8.5 9 8.4 8.4 9 9.1 9.3 9.7 9.8 9.9 9.9 10.4 10.1 10.1 10.3 10.4 9.5 9.5 9.8 9.7 8.1 4.9 3.9 3 2.5 2.2 2 1.7 1.4 1.2 1 0.8 0.5 0.3 0.1 -0.2 -0.4 -0.7 -0.8 -1 -1.1 -1 -1 -1 -1 -1 -1 -1 -1.1 -1.1 -1.2 -1.3 -1.4 -1.4 -1.4 -1.4 -1.4 -1.4 -1.4 -1.4 -1.4 -1.4 -1.4 -1.4 -1.4 -1.4 -1.4 -1.4 -1.4 -1.4 -1.4 -1.4 -1.4 -1.4 -1.4 -1.4 -1.4 -1.4 -1.4 -1.4 -1.4 -1.4 -1.4
18.1 18.1 17.3 16.3 14.4 13.4 13.9 13.1 12.7 11.8 11.8 11.6 13.5 15.3 14.7 13.7 11.9 10.7 12.3 13.1 13.3 13.3 13.3 13.4 13.5 13.8 15.8 16.6 17.3 17.4 18.5 19.1 20.5 21.4 22.1 22.3 22.7 22.8 23.7 24.1 24.7 24.5 25.5 25.9 25.6 25.3 24.9 25 25.3 25.3 25.1 24.9 25 25 24.3 24.1 24.5 24.4 24.1 23.8 22.8 22.5 21.9 21.6 21.7 20.6 20.3 19.7 19.3 19.1 19.5 20 20 20.8 21.6 22.3 23 24.2 24.9 24.7 24.7 25.2 26 26.2 26.3 26.7 27.3 27.9 28.5 29.1 29.7 29.3 31.4 32 32.6 33.2 33.7 34.3 35.7 35.7 36.4 36.2 37.1 37.1 35.9 32.2 31.2 27.1 24.6 23.9 20.8 14.8 11.5 10.4 9.5 9.4 9.3 9.2 8.9 9.3 9.6 9.4 9.2 9.5 10.2 9.9 9.9 10.5 10.3 10.3 10.3 10.3 10.1 9.5 9.3 7.6 8.2 6.7 4.9 3.1 2.6 2.3 2 1.7 1.4 1.1 0.8 0.6 0.4 0.2 0 -0.2 -0.4 -0.7 -0.9 -1.1 -1.4 -1.4 -1.4 -1.4 -1.2 -1.2 -1.2 -1.2 -1.3 -1.3 -1.3 -1.4 -1.4 -1.4 -1.4 -1.4 -1.4 -1.4 -1.4 -1.4 -1.4 -1.4 -1.4 -1.4 -1.4 -1.4 -1.4 -1.4 -1.4 -1.4 -1.4 -1.4 -1.4 -1.4 -1.4 -1.4 -1.4 -1.4 -1.4 -1.4 -1.4 -1.4 -1.4 -1.4
16.3 17.9 16.8 17.1 16 15.9 16.2 15.7 15.2 14.8 13.8 11.4 11.9 13.8 13.2 11.1 11.4 11.6 14.2 13.3 13.9 14.2 14.2 14.2 15.2 16.2 16.7 17.7 18 18.9 21.2 23.1 23.8 24.8 25.6 25.4 25 25.1 25.5 26 26.5 27.5 28.9 28.9 28.6 28.3 27.9 27.2 27.3 29.4 28.4 27.4 26.7 26.7 25.9 25.1 24.7 24.4 24 23.7 23.4 22.9 22.2 21.5 22.1 21.8 21.4 21 20.3 20.6 21.3 21.9 22.7 23.4 24.1 24.7 25.4 26.5 27.1 26.8 27.2 27.9 28.4 28.9 29.4 29.9 30.6 31.4 32 32.6 32.4 33.4 35.5 36 36.6 37.1 37.7 37.1 38.7 38.5 38.9 37.4 38 37.6 38.6 32.1 27.6 26.6 24.7 23.2 15.9 10.8 9.9 9.7 9.6 9.5 9.4 9.3 9.2 8.6 9.2 9.8 10.1 10.3 10.3 9.5 9.7 10.2 9.3 10 10.3 9.8 6.2 4.5 4.4 4.4 6 5.1 3.4 2.6 2.3 2 1.7 1.4 1.2 0.9 0.6 0.3 0 -0.2 -0.4 -0.6 -0.8 -1 -1.4 -1.4 -1.4 -1.4 -1.4 -1.4 -1.4 -1.4 -1.4 -1.4 -1.4 -1.4 -1.4 -1.4 -1.4 -1.4 -1.4 -1.4 -1.4 -1.4 -1.4 -1.4 -1.4 -1.4 -1.4 -1.4 -1.4 -1.4 -1.4 -1.4 -1.4 -1.4 -1.4 -1.4 -1.4 -1.4 -1.4 -1.4 -1.4 -1.4 -1.4 -1.4 -1.4 -1.4 -1.4 -1.4
17.5 16.6 14.1 14.9 15.7 16.8 16.7 16 15.4 15.2 14.4 11.7 11.1 10.6 10.9 12.3 11.9 11.6 12.3 13.9 14.4 15 15.2 15.3 16.3 17.6 17.4 18.2 20.6 22.8 25.1 27.3 27.8 28.1 28.8 29 28.6 28.3 28.9 29.5 30.3 30.9 32.3 32 31.6 30.4 30.7 30.3 31.3 32.2 33 32 30.1 28.6 27 26.1 25.4 25 24.5 24.1 23.8 23.6 23.7 23.4 23.3 23 22.6 22.2 22.2 22.5 23 23.8 24.3 24.5 25 26.4 27.9 28.8 29.5 29.2 30.3 31 30.7 31.6 32.4 33.1 33.6 34.6 35.5 36.3 37.5 38.6 39 40.3 40.9 40.7 40.7 40.9 40.5 42.3 40.3 38.6 38.2 38.4 35.4 29.4 26.7 25.5 23.1 18.4 12 9.8 9.8 9.8 9.8 9.8 9.7 9.3 9.3 8.8 9.7 10.1 9.9 10.1 10.4 10.4 10.3 10.2 10.2 10.2 7.8 4.4 4.1 4 3.9 3.7 3.3 3.4 2.6 2.3 2 1.7 1.4 1.2 0.9 0.6 0.3 0 -0.3 -0.5 -0.8 -1 -1.2 -1.4 -1.4 -1.4 -1.4 -1.4 -1.4 -1.4 -1.4 -1.4 -1.4 -1.4 -1.4 -1.4 -1.4 -1.4 -1.4 -1.4 -1.4 -1.4 -1.4 -1.4 -1.4 -1.4 -1.4 -1.4 -1.4 -1.4 -1.4 -1.4 -1.4 -1.4 -1.4 -1.4 -1.4 -1.4 -1.4 -1.4 -1.4 -1.4 -1.4 -1.4 -1.4 -1.4 -1.4 -1.4 -1.4 -1.4
17.9 17.5 16.1 14.1 13.1 15.5 16.1 15.7 15.2 14.4 13.4 11.7 11.3 11 12.8 14.1 13.8 11 12.9 12.9 15.3 15.8 15.3 16.7 18 17.9 19 21 23 26.3 28.7 30.5 31.4 31.7 32.2 32.6 32.4 33.6 34.6 35.3 36.3 36.1 34.5 34.8 34.4 33.6 33.2 33.2 33.5 32.9 32.9 32.7 31.4 29.2 28 27.2 26.3 25.7 25.2 24.7 24.3 24.1 24.2 24.1 24.4 23.3 23 23.8 24.6 24.9 25.1 25.7 26.3 27.1 27.8 28.8 30.3 31.4 31.9 31.3 33 33.3 33 34 34.8 36.3 38.2 39.4 41.5 41.1 42.5 43.5 43.4 43.4 43 42.6 42.2 41.7 41.1 40.9 41.5 40.2 35.4 33.2 29.4 26.8 24.9 22.4 18.9 13.4 10 9.8 9.9 9.9 10 10 9.7 9.2 7.5 9.2 9.7 9.9 9.7 9.4 9.8 10.3 10.1 10 10 8.1 4.7 4.4 3.9 3.6 3.5 3.3 2.9 2.6 2.3 2 1.7 1.4 1.2 0.9 0.6 0.3 0 -0.2 -0.5 -0.8 -1.1 -1.4 -1.4 -1.4 -1.4 -1.4 -1.4 -1.4 -1.4 -1.4 -1.4 -1.4 -1.4 -1.4 -1.4 -1.4 -1.4 -1.4 -1.4 -1.4 -1.4 -1.4 -1.4 -1.4 -1.4 -1.4 -1.4 -1.4 -1.4 -1.4 -1.4 -1.4 -1.4 -1.4 -1.4 -1.4 -1.4 -1.4 -1.4 -1.4 -1.4 -1.4 -1.4 -1.4 -1.4 -1.4 -1.4 -1.4 -1.4 -1.4
16.4 16.6 16.8 14.9 12.2 13.6 15.8 15.6 14.8 14 11.3 9.7 10.4 13.5 15.1 15.3 14.8 11.6 11.9 13.1 15.6 16.6 16.8 18.4 18.4 20.3 21.2 23.1 25.3 28.7 31.9 33.1 34.2 35.6 36.1 36.7 37.9 39.1 39.2 39.7 39.2 36.4 33.4 33.4 33.4 32 30.3 30.2 30.5 29.4 29.4 29.1 29.5 29.4 29.3 28.4 27.6 26.7 26.2 25.7 25.2 25 24.8 24.9 25.6 24.9 23.8 25.4 27.5 28.3 29 29.7 30.4 31.3 32 32.6 33.3 34.3 34.9 34.6 35.7 37.1 38.2 39.6 41.6 43 43.8 43.6 43.8 43.8 43.6 43.4 43.3 43.3 43.2 42.9 42.5 42.1 41.6 40.5 39.3 37.4 34.8 29.1 26.2 24.5 21.7 18.7 14 10.3 9.6 9.7 9.8 9.8 9.9 9.9 8.8 8.8 8.8 8.9 9.3 9.8 9.6 9.4 9.5 9.5 9.9 9.9 8.4 4.9 4.5 4.1 3.8 3.4 3.1 2.9 2.6 2.3 2 1.7 1.5 1.2 0.9 0.6 0.3 0.1 -0.2 -0.5 -0.7 -1 -1.2 -1.4 -1.4 -1.4 -1.4 -1.4 -1.4 -1.4 -1.4 -1.4 -1.4 -1.4 -1.4 -1.4 -1.4 -1.4 -1.4 -1.4 -1.4 -1.4 -1.4 -1.4 -1.4 -1.4 -1.4 -1.4 -1.4 -1.4 -1.4 -1.4 -1.4 -1.4 -1.4 -1.4 -1.4 -1.4 -1.4 -1.4 -1.4 -1.4 -1.4 -1.4 -1.4 -1.4 -1.4 -1.4 -1.4 -1.4 -1.4 -1.4
15.3 15.1 15.2 13.8 12.4 14.9 15.8 15.2 15.2 12 10.2 8.9 14.6 14.7 15.2 15.3 13.5 13 15.8 16.7 17.6 17.7 17.2 20.4 21.5 22.5 23.5 25.3 27.9 31.6 34.9 35.8 36.6 38.6 40.9 41.6 41.9 41.2 41.7 39.8 37.4 35.1 32.3 31.6 31 30.1 28.7 28.2 28.2 28.8 29.2 29.5 29.4 28.6 29 29.7 29.3 28.4 27.7 27.2 26.7 26.7 27 27.1 28.1 28.7 28.2 31.1 32.6 34.1 34.2 34.6 35.7 36.7 37 37.8 38.7 39.5 40.2 41.6 42.7 43.8 44 44.3 44.6 44.9 44.5 43.8 43.6 43.5 43.4 43.2 43.1 43.2 43.2 42.9 42.7 42.5 41.3 39.6 37.3 34.4 31 26.7 23.8 20.7 18.4 13.9 10.7 9.7 9.5 9.6 9.6 9.7 9.8 9.3 7.4 7.5 8.9 9 9.1 9.3 9.6 9.4 9.7 10.1 9.9 8.7 4.9 4.6 4.3 3.9 3.5 3.2 2.9 2.6 2.3 2.1 1.8 1.5 1.3 1 0.8 0.5 0.3 0 -0.2 -0.5 -0.7 -1 -1.3 -1.4 -1.4 -1.4 -1.4 -1.4 -1.4 -1.4 -1.4 -1.4 -1.4 -1.4 -1.4 -1.4 -1.4 -1.4 -1.4 -1.4 -1.4 -1.4 -1.4 -1.4 -1.4 -1.4 -1.4 -1.4 -1.4 -1.4 -1.4 -1.4 -1.4 -1.4 -1.4 -1.4 -1.4 -1.4 -1.4 -1.4 -1.4 -1.4 -1.4 -1.4 -1.4 -1.4 -1.4 -1.4 -1.4 -1.4 -1.4 -1.4
14.6 14.1 13.6 12.7 10.8 11.6 12.7 12.3 11.3 10.7 9.7 15 15.4 15.4 15.4 14.7 13.5 15.3 16.1 17.8 17.1 17.7 20.1 21.7 22.9 24 25.5 27.6 30.7 34 35.9 37.5 39.1 41.4 41.5 41.5 41.2 39.1 36.5 35.7 34 33.1 30.9 29.3 28.6 27.9 27.3 27.3 29.2 29.3 29.3 29.2 28.6 27.8 27.3 29 30.2 30.1 29.2 28.7 28.3 29 30.1 31.6 33.1 34.2 34 36.6 37.9 39.3 40.2 41.3 42.7 43.2 43.1 44.1 45 45.5 45.4 45.7 46 45.9 45.8 45.3 45.2 45.1 44.3 43.6 43.2 43.2 43.1 43.1 43 43.1 43.1 43 42.9 40.5 38 35.6 33.2 30.4 28.1 24.5 21.5 18.1 14.4 10.4 9.1 9.3 9.4 9.5 9.6 9.7 9.7 8.4 7.4 7.7 8.9 9 9.1 9.2 9.4 9.4 10 10.6 8.4 4.8 5 4.5 4 3.6 3.3 3 2.7 2.5 2.3 2 1.8 1.5 1.3 1 0.7 0.5 0.2 0 -0.3 -0.5 -0.8 -1 -1.3 -1.4 -1.4 -1.4 -1.4 -1.4 -1.4 -1.4 -1.4 -1.4 -1.4 -1.4 -1.4 -1.4 -1.4 -1.4 -1.4 -1.4 -1.4 -1.4 -1.4 -1.4 -1.4 -1.4 -1.4 -1.4 -1.4 -1.4 -1.4 -1.4 -1.4 -1.4 -1.4 -1.4 -1.4 -1.4 -1.4 -1.4 -1.4 -1.4 -1.4 -1.4 -1.4 -1.4 -1.4 -1.4 -1.4 -1.4 -1.4 -1.4
14.5 16.1 16.4 14.9 13.8 13.3 12.7 11.6 10.7 10 10.1 14.6 15.4 15.7 15.8 15.2 14.9 17.2 17.6 17.6 18.7 19.6 20.9 22.3 24 25.3 25.5 27.5 31.4 34.1 35 36.2 36.3 37.7 37.2 37.3 37.4 34 32.3 30.7 29.6 28.1 27.6 27.9 27.5 26.8 27.6 27.7 29 29.2 29 28.6 27.9 27.3 26.7 27.5 29 30.3 30.7 30.9 31 32.7 33.9 35 36.5 38.7 39.3 39.9 42.1 43.8 45 46 46.8 47.2 47.6 48 48.2 48.3 48.4 48 47.1 46.8 46.3 46.1 45.9 44.5 43.5 43 42.9 42.9 42.8 42.7 41.6 42.4 43 42.6 39.4 36.3 33.8 31.4 28.9 26.6 24.1 21.8 18.6 14.8 11 9.6 9.2 9.2 9.4 9.5 9.6 9.6 8.9 8.3 8 7.9 8.3 9 9.1 9.2 9.3 9.7 10.6 7.2 4.4 4.2 4.7 4.3 3.9 3.4 3 2.7 2.6 2.4 2.2 2 1.7 1.5 1.2 1 0.7 0.5 0.2 0 -0.3 -0.6 -0.8 -1.1 -1.3 -1.4 -1.4 -1.4 -1.4 -1.4 -1.4 -1.4 -1.4 -1.4 -1.4 -1.4 -1.4 -1.4 -1.4 -1.4 -1.4 -1.4 -1.4 -1.4 -1.4 -1.4 -1.4 -1.4 -1.4 -1.4 -1.4 -1.4 -1.4 -1.4 -1.4 -1.4 -1.4 -1.4 -1.4 -1.4 -1.4 -1.4 -1.4 -1.4 -1.4 -1.4 -1.4 -1.4 -1.4 -1.4 -1.4 -1.4 -1.4 -1.4
16.7 16.8 16.9 17.5 16.8 16.1 15.3 14 11.6 10.2 11.6 13.5 14.8 16 16.3 15.7 16.8 17.6 16.7 18.6 18.9 20.4 21.7 23 24.4 24.9 25.4 27.3 28.6 29.6 30 31.2 31.3 31.6 31.6 31.6 30.3 28.6 27.4 25.8 25.2 25.9 26.2 26.4 26.7 26.1 27.1 28.2 28 28.2 28.2 27.9 27.5 26.9 26.3 26.8 27.7 30.1 31 31.8 33.9 35.2 36.8 39.1 40.9 43.2 42.1 42.6 44.7 46.8 48.3 48.9 49.4 49.6 49.6 50.2 50.6 50.4 49.8 49.1 48 47.3 47 46 44.6 43.3 42 41.9 41.7 41.7 41.6 41.2 39.7 39.3 38.8 37.5 35.1 32.1 29.6 27.6 25.8 23.9 21.6 19.7 15.7 11.8 9.8 9.8 9.4 9.4 9.4 9.5 9.5 9 9 9 9.1 9 8.6 9 9.2 9.4 10 10.7 5.7 4.5 4.5 3.9 4 3.8 3.5 3.1 2.7 2.6 2.5 2.3 2.2 2 1.7 1.4 1.2 0.9 0.7 0.4 0.2 -0.1 -0.3 -0.6 -0.8 -1.1 -1.3 -1.4 -1.4 -1.4 -1.4 -1.4 -1.4 -1.4 -1.4 -1.4 -1.4 -1.4 -1.4 -1.4 -1.4 -1.4 -1.4 -1.4 -1.4 -1.4 -1.4 -1.4 -1.4 -1.4 -1.4 -1.4 -1.4 -1.4 -1.4 -1.4 -1.4 -1.4 -1.4 -1.4 -1.4 -1.4 -1.4 -1.4 -1.4 -1.4 -1.4 -1.4 -1.4 -1.4 -1.4 -1.4 -1.4 -1.4 -1.4 -1.4
17.3 17.4 17.5 16.8 16.4 16.5 15.2 13.6 12.1 10.2 12 12.3 14.7 16 16.4 17.2 17.6 15.8 17.8 18 19 21.2 22.4 23.7 24.8 25.3 25 25.8 25.9 25.9 25.8 25.9 26.3 26.4 26.4 26.4 25.4 24.4 23.9 23.3 24.1 24.4 24.7 25 25.2 25.4 25.8 26.5 26.4 26.3 24.9 25 25.3 25.5 25.8 26.6 27.3 29.4 31.4 33.1 35 35.8 38.1 40.5 43.6 45.1 45.2 45.4 46.9 48.8 50.1 50.6 50.8 51.1 51.2 51.2 50.9 50.9 50.7 49.9 48.8 47.4 46.1 44.7 43.4 42 40.6 40.3 39.7 39.6 39.3 37.8 36.4 35.1 33.9 32.3 30.4 28.9 27 25.2 23.3 21.5 19.9 18.6 13.8 10.5 10 9.8 9.6 9.5 9.6 9.6 9.3 7.6 8.2 8.9 8.9 8.9 9 9.1 9.6 10.2 9.2 5 4.2 3.8 4.5 4.5 4.1 3.2 3 2.7 2.6 2.4 2.3 2.2 2.1 1.9 1.7 1.4 1.2 0.9 0.7 0.4 0.1 -0.1 -0.4 -0.6 -0.9 -1.1 -1.4 -1.4 -1.4 -1.4 -1.4 -1.4 -1.4 -1.4 -1.4 -1.4 -1.4 -1.4 -1.4 -1.4 -1.4 -1.4 -1.4 -1.4 -1.4 -1.4 -1.4 -1.4 -1.4 -1.4 -1.4 -1.4 -1.4 -1.4 -1.4 -1.4 -1.4 -1.4 -1.4 -1.4 -1.4 -1.4 -1.4 -1.4 -1.4 -1.4 -1.4 -1.4 -1.4 -1.4 -1.4 -1.4 -1.4 -1.4 -1.4 -1.4
17.5 17.3 16.7 15.2 13.8 13.4 14.2 12.6 11.1 9.2 12.1 14 14.5 15.5 16.6 17.9 18.1 14.6 16.2 17 18.9 20.5 22.2 23 23.5 23.9 23.9 24.2 24 23.8 23.9 23.6 23.5 23.3 23.1 23 22.4 23.4 22.9 22.6 22.8 23.3 23.5 23.7 23.9 24.1 24.3 24.4 24.6 24.9 24.5 24.8 25 25.3 25.6 26 27.1 28.2 31.1 33.4 35.7 37 39.5 42.1 44.3 45.7 46.5 46.7 48.2 50.7 50.9 50.6 50.3 50.7 51.5 50.5 50.5 49.8 48.8 48.3 47.2 45.8 44.7 43.6 42.2 40.7 39.3 38.6 38 37.3 35.8 35.6 35.6 33.5 31.5 30.5 29.6 27.6 25.7 23.8 22 20.8 19 16.7 10.7 10.4 10.4 9.9 9.8 9.6 9.7 9.6 9.2 8.1 8 8 8.7 8.7 8.8 9.4 10.3 7.6 5 5.2 4.8 4.9 3.6 3.4 3.4 2.8 2.7 2.6 2.4 2.3 2.2 2.1 1.9 1.8 1.6 1.4 1.1 0.9 0.6 0.4 0.1 -0.1 -0.4 -0.6 -0.9 -1.2 -1.4 -1.4 -1.4 -1.4 -1.4 -1.4 -1.4 -1.4 -1.4 -1.4 -1.4 -1.4 -1.4 -1.4 -1.4 -1.4 -1.4 -1.4 -1.4 -1.4 -1.4 -1.4 -1.4 -1.4 -1.4 -1.4 -1.4 -1.4 -1.4 -1.4 -1.4 -1.4 -1.4 -1.4 -1.4 -1.4 -1.4 -1.4 -1.4 -1.4 -1.4 -1.4 -1.4 -1.4 -1.4 -1.4 -1.4 -1.4 -1.4 -1.4
16.8 15.8 13.1 12 11.6 12.5 12.7 12.1 10.9 10.7 12 14.4 15.5 15.6 15.3 16.7 18.9 17.3 16.3 16.3 17.9 18.1 19.9 21.3 21.3 22 22.1 22.1 21.8 21.6 22.1 21.5 21.7 21.1 21.1 20.9 20.9 21.7 21.6 21.8 21.6 22 22.4 22.7 22.8 23 23.5 23.8 24 24.5 24.3 24.6 24.8 25.1 25.3 25.6 26.5 27.7 30.4 32.7 35.2 37.8 39.9 42.2 43.7 45.3 46.9 47.6 48 50 50.1 50.1 49.8 49.9 49.8 49.4 48.9 47.4 45.8 45.2 45 44.2 43.1 42.1 41 39.7 39.7 39 38.4 37.6 36.2 34.7 34.6 30.5 31.3 29.9 28.3 26.4 24.4 22.4 20.6 20 16.8 12.2 10.6 10.3 10.3 10.2 9.9 9.7 9.8 9.4 9 9.2 9.5 9.3 8.7 8.5 8.6 10.2 7.3 4.1 3.7 4.2 4.5 4.6 4.1 3.2 2.7 2.7 2.7 2.5 2.3 2.1 2 1.9 1.8 1.7 1.6 1.4 1.1 0.8 0.6 0.3 0.1 -0.2 -0.4 -0.7 -0.9 -1.2 -1.4 -1.4 -1.4 -1.4 -1.4 -1.4 -1.4 -1.4 -1.4 -1.4 -1.4 -1.4 -1.4 -1.4 -1.4 -1.4 -1.4 -1.4 -1.4 -1.4 -1.4 -1.4 -1.4 -1.4 -1.4 -1.4 -1.4 -1.4 -1.4 -1.4 -1.4 -1.4 -1.4 -1.4 -1.4 -1.4 -1.4 -1.4 -1.4 -1.4 -1.4 -1.4 -1.4 -1.4 -1.4 -1.4 -1.4 -1.4 -1.4 -1.4
