ncols 200
nrows 91
xllcorner 160000
yllcorner 743500
cellsize 50
208.7 212.1 216.4 221.2 220.6 219.8 219.2 228.1 229.2 228.3 227.9 222.7 215.7 219.4 218.8 214.2 202.2 190 184.2 179.8 176.6 170.2 167.4 157.5 149.5 135.5 122.4 127.8 127.3 127.7 130.6 132.6 129.3 113.6 106 99.9 121.6 131.7 135.5 139.5 142.7 144.9 151.6 153.2 154.4 157.3 160.3 162.7 169.3 177.6 183.9 186.1 186.6 186.5 187.3 188.9 191 192.7 195.5 204.2 218.9 230.3 234.7 240.5 249.8 254.6 256.8 257.9 257.7 259.8 262.2 268.4 273.7 278.8 285 288.2 286.3 275.6 267.9 259.8 251.7 247 234.9 222.5 213.2 203 196.8 182.9 171.1 160.9 146.3 130.1 119.5 108.1 112.6 133.8 148.9 166.8 194.4 210.5 218.2 225.1 231.9 235.9 240.1 242.8 246.2 247.3 247.5 253.1 255.8 263.6 267.8 272.5 280.5 289.9 292.5 292.8 296.1 297.5 297.4 297.5 295.9 294.6 294 294.6 296.1 295.9 296.5 296.8 296.7 293.5 291.7 290.1 288.6 285.8 281.6 277.7 278.2 272 265.1 255.5 249.6 247.6 242.3 238.7 230.3 234.9 244.7 246.5 247.6 249 251.4 252.8 255.7 250 249.2 255.2 260.8 263.6 265.2 263.6 263.8 263.4 262.7 258.4 252.3 245.2 227.2 213.7 209.3 201.1 196.2 191.8 181.2 168.1 159.3 150.5 145.7 135.5 128.1 123.2 121.5 120.1 119.7 118.6 110.2 103.9 78.3 45.6 36.4 33.2 26.2 7.6 5.9 6 10.1 28.3 42.1 57.4
199.5 201.3 206.5 210.1 208.9 209.3 209.5 217.1 223.3 222.4 226 220.6 206.5 215.2 216.6 211.6 203.7 188.7 183.1 184.9 180 176.6 170 160.6 154.8 144 122.4 120.3 118.3 117.1 118.7 120.6 116.7 105 98.2 120.1 134.1 136.4 139.3 142 144.7 145.7 147.7 151.1 153.6 158.9 163.4 166.1 172.4 180.1 185.6 190.5 192.3 190.7 189.8 189.4 190 191.6 194.4 203 214.4 222.1 233.5 236.4 238.5 241.8 245.7 256.1 260.6 257.3 259.3 262.1 265.6 266.3 270.6 272.8 271.8 267.6 261.8 256.2 250.6 241.2 230.9 218 208.3 198.2 192.2 176 161.8 147.8 138.4 123.3 113.8 106.4 116.1 134.1 149.2 169.5 206 208.8 210.6 219 227.8 229.6 233.2 237.1 239.2 240.5 242.2 243.1 249.4 250.2 253.5 261.1 266.9 274.8 279.4 282.7 288.2 287.7 290 290.8 287.9 287.5 288.3 288.8 289.4 287.5 285.2 285 285.8 285.1 282.4 280.6 278.6 275.6 270.9 265.2 265.5 260.1 252.5 245.2 237.9 238.5 234.9 233.7 228.2 231.7 237 238.7 241.3 241.9 245.1 247.5 250.3 245.7 244.5 248.4 255.8 257.8 258.7 257.2 256.4 256.6 257.4 254.3 248.6 240.4 224.7 206.7 203.9 200.4 193.8 188.5 176.9 162.2 153.8 149.4 140.8 130.6 124.5 121.8 120.1 119.1 118.5 115 108.1 102.9 72.5 43.8 38.8 33.7 21 7.2 4.6 5.8 10.3 30.9 43.4 60.5
171.2 183.9 196.9 198.7 198.4 202.4 203.9 207.1 214.2 223.2 222.3 217.8 207.3 198.9 214.2 204 197.8 187 182.4 177.2 178.8 179.4 171.3 164.1 156.1 145.9 128.2 113.9 111.7 112.7 113 111.9 107.9 89.2 114.9 130.1 140 144.3 144.8 146.7 146.7 147.9 146.7 148.1 153.6 160.5 164.9 167.4 174.4 181.9 186.6 191.2 193.9 194.1 193.4 191.1 190.1 190.7 193.9 203.9 211.9 217.3 221.7 228.7 235.8 240.9 245.6 254 256 254.5 255.1 256.8 257.8 257.4 259.2 262.2 261.1 259.8 253.4 249.8 247 239.1 228.1 219.2 205 192.8 180.5 166.5 154.6 143.1 125.9 115.7 108 107.6 114.5 129.6 146.6 162.5 190.7 195.4 197.5 204 215.6 218.6 223 226.2 229.1 231.7 235.7 238.1 240.9 242.9 245.8 250 253.3 261.1 264.1 271.4 276.9 278.5 278.2 278.7 281.3 280.9 280.5 281.2 281.5 279 276.6 276.3 275.7 274.4 272 269.5 266.3 264.7 261.1 256.1 253 248.7 240.5 236.3 233.4 231.8 230.3 227.3 225.9 229.1 230.2 233.7 235.2 236.5 238.4 240.5 243.5 241.5 239.7 243 249.5 252.3 251.8 251.5 250.6 250.9 252.1 249.7 244.8 234.8 222.8 205.5 199.9 201.8 192.4 183 171.1 158.6 148.7 142.8 135.2 127.7 122.5 120.7 118.7 117.8 118.3 108.4 101.3 83.8 57.3 43.3 38.5 32.2 15.9 6.9 4.7 5.7 11 31.5 43.8 61
160.2 162.6 168.9 173.7 180.7 194.5 198.8 202.2 205 209.2 215.3 210.3 202 191.6 195.5 188.5 185.2 182.6 180.7 174.9 174 173 168.9 159.9 152.2 145.6 133 117.5 108 107.1 107.1 105.7 94.8 94.5 118.5 132 142 150.6 151.3 151.6 150.9 150.9 149 147.2 149.9 158.2 164 169.7 175 182.8 186.2 189.7 194.7 196.4 196.7 195.5 191.3 190.9 195 205.2 210.3 215.5 218.8 217.5 227.7 239 243.3 249.2 252.9 252.5 248.8 250 252.6 254.6 250.8 252 252.2 251.8 248.5 247.6 244.5 235.3 228.3 219.7 203.9 189.9 172.8 158.2 147.8 133 119.1 105.1 101.1 107.2 117.2 123.7 133.9 152.6 163.8 174.7 184.1 198.2 207.7 208.8 213.1 217.8 221.7 224.7 226.2 226.7 229.9 234.5 239.6 242.9 245.3 249.6 254.5 259.7 264.8 267.8 269.7 277.6 274.8 275.1 273.4 273 272.2 271.2 269.5 268.7 267.1 264.6 262.9 260.2 257.3 253 250.1 247.5 239.1 236.2 230.2 229.2 225.1 225.5 223.5 219.4 222.4 223.5 224.6 229 231 230.9 232.8 235.7 238.4 235.8 237.9 237.4 240.4 244.3 245.3 245.6 244.7 245.7 244 240.7 235.6 226.1 216.1 206.9 188.1 192.8 186.9 176.2 164.4 155.6 143.7 136 129.6 124 121.4 119.7 119.3 115.4 112.7 98 77.8 62.3 51.5 44 37 30.1 11.6 7.1 6.7 5 9.9 30.7 38.2 54
150.2 152.2 158.5 164.3 172.4 187 196.2 198.2 197.1 199.8 203.5 203.9 195.4 183.4 181.4 178.3 173.7 175 173.5 167.8 163 162.3 157.9 154.6 147.5 139.6 129.9 120 111.2 93.9 94 88.8 90.2 111.8 124.9 132.4 139 145.8 151.9 153.9 155.6 153.6 152.5 150.2 147.5 150.7 159 167.3 171.9 180.4 187.3 190.4 192.1 198.8 199.6 199.4 193.2 192.5 192.5 197.2 201.8 207.4 206.9 210.3 216.8 228.2 237.2 247.5 251.4 253.2 246.7 245.3 247.6 247.2 246.7 247.1 247.7 246.6 246.1 246.9 243.4 233.2 224.3 213.2 199.3 178 163.3 151.6 137.1 124.5 109.5 97 100.8 109.8 118.9 131.5 149.6 159.4 162.3 163 172.3 187.6 196.9 204.7 207.7 208.7 212.9 216.6 217.6 222.8 226.8 228.4 230.1 234.5 237.8 241.8 250.3 256.9 262 267 286.8 277.7 272.1 269.4 268.3 266.5 266 264.8 265.9 261.8 257.2 255.8 255.2 251.9 247.6 243.4 240.9 238.5 231.9 230.6 228.4 225.3 220.4 220.7 217.7 217.7 219.7 221.9 219.5 222.7 224.4 225.5 228.8 231.3 233.1 233.5 234.6 233.5 233.5 237.7 237.6 237.1 236.6 234.6 232.1 230.2 225.2 218.6 211.2 204.8 188.9 181.9 178.5 170.5 162.6 154 142.6 132.9 126.5 121.5 120.3 118.3 111.1 90.6 84 72.3 58.1 53.9 48.9 44.8 32.6 27.3 12.1 7.3 4.9 5.1 6.3 17.5 30.9 49.2
142 143.3 145.4 150.9 162.9 170 176.3 183 186.8 185.9 189.5 191.9 190.8 179.8 170.2 172.6 171.3 167.8 162.9 157.6 159.1 152.2 150.7 147.1 140.9 134.6 123.6 116.5 110.3 97 82.9 82.8 100.6 116 126.6 131.6 135.2 140.3 146.4 148.8 152.1 153.5 155.3 156.2 150.4 148.9 159.2 165.7 170.5 177.1 186.6 190.6 192.6 194.4 199.2 199.7 195.4 192.8 193.7 194.2 196.9 198.6 201.1 207.4 211 219.5 229.7 236.2 239.7 242.5 241.7 239.6 240.5 242.1 242.6 241.5 242.2 243.1 245.5 246.3 240.6 233.3 224.3 207.6 191.6 171.9 153.1 142.2 127 113.4 103.3 96 101.6 110.5 123.2 141.3 159.2 170.1 179.9 180.6 176.5 191.6 201.6 208.1 211 214.2 216.3 218.9 221.2 224.8 227.2 229.8 231.8 234.3 237.1 243.3 247.4 258.3 264.8 276.5 285.6 278.9 272.9 265.4 262.5 261.8 259.9 257.6 255.3 253.6 251.8 249.1 245.9 241.7 240.3 237.8 235.2 231.3 228.2 224.8 223.7 218.6 217.2 216.5 215.5 216.8 218.7 221.6 219.1 216.6 218.2 221.1 222.8 226.3 227.4 229.8 229.4 229.6 230 229.9 228.8 227.6 224.6 224.8 225.1 220.5 216.2 211.8 204.7 200.7 186.5 170.1 169.6 166.8 159.7 149.4 140.5 130.9 125.4 119.8 116.4 108.7 88.5 73 62.4 57.6 50.2 50.3 45.9 35.5 31.2 24.1 14.3 8.5 7.2 5.1 5.7 11.9 24.8 35.9
133.1 134.4 136.7 140.1 148.5 160.3 166.2 171.2 173.5 171.8 174.4 180.1 181.5 175.9 167.5 166.5 162.2 156.6 154.3 153.8 153.6 146.3 145 139.7 134.2 126.9 118.2 112.9 106.9 100.8 86.9 73.3 91 112.3 125.2 125.8 130.3 136.7 139.7 142.5 146.3 150 153.6 153.8 153.3 149 158.4 163.6 166.3 173.2 183.3 189 192.4 193.3 195.6 196.8 193.1 193.1 193.8 192.6 194.7 191.2 198.7 209.1 212.6 213 222.4 230.8 236.1 234.2 228.9 229.2 230.9 233.7 234.1 235.9 237.3 241.2 245.2 241.1 236.3 228.6 215.8 202.4 187.7 163.4 146.3 131.3 117.7 106.6 96.9 97.8 104.6 115 131.3 147.1 173.2 184.5 196.1 197.9 181.6 192.4 203.1 210.4 215.2 217.1 219.2 221.6 224.1 227 229.3 232 235.1 237.9 241.9 247.1 250.8 262 277.5 275.7 274.4 276.8 272.6 269.8 266.7 262.8 259.2 255.1 252.3 249 246.7 243.8 241 237.9 235.4 233.3 229.7 226.8 224 221.7 222.3 216 214.6 214.3 212.4 214 215.9 219.4 217.2 211.3 213.3 216.4 218.7 221 222 222.3 220.7 219.8 225.2 227.3 224.8 221.1 221.5 215.6 216.9 213.1 207 201.2 197.4 194.1 181.7 169.8 161.7 161.1 154.4 144.8 136.6 128.8 123.5 118.2 111.9 92.1 75 62.9 53.7 51 49 47 36.9 32.5 28.1 30.7 22.3 11.7 10.1 -1.4 -1.4 10.2 25.1 31.2
119.5 126.7 129.6 134.9 138.3 144.5 149.6 153.2 157.5 160.1 161.4 164.1 168.2 166.5 161.1 155.8 152.7 148.8 147 150.8 154.2 149.2 143.1 140.1 136.3 130.5 119.7 116.5 112.2 107.6 93.9 73.6 76.3 104.3 115.2 124.3 124.4 128.2 132.4 137.2 143.4 147.9 152 152.8 152.6 149.7 155.4 158.4 160.2 162.1 170.5 179.7 185.8 188 193.2 196.6 192.5 191.9 193.9 192.9 192.8 189.6 195.5 202.6 205.1 206.9 210.8 216.5 221.2 224.1 224.8 225.6 226.8 228.3 227.2 228 227.7 233.4 236.3 233.7 228.3 221.8 209.3 196.8 179.9 155.1 140.3 121.8 108.4 99.4 91.9 98.3 109.5 123.7 137.3 156.3 173.9 193.4 203.2 209.2 205.9 190.5 202.7 209.7 216.4 219.4 221.8 224.4 227 229.2 231.6 234.7 237.9 240.7 244.6 249.8 260.5 272.1 275.3 287 282.5 277.9 273.5 269.8 266.6 262.5 259.8 255.8 250.8 247.6 242.6 239.8 237 234.9 233.6 228.7 224.1 223.9 220.8 218.8 218.8 213.5 211.7 211.1 209.1 210.4 212.2 214.5 211.9 204.6 209.2 211.2 213.6 214.8 215.3 216.6 215.9 215.5 216.4 217 215.2 212 213.9 206.3 209.1 206.5 199.4 194.6 191.6 187.7 178.9 170.2 155.2 152.2 147.4 140.8 133.2 125.8 120.4 115.6 105.5 84.5 70 56.9 53.3 52.8 49.6 42.2 33.8 29.5 31.1 32.2 25.7 13.3 13.1 -1.4 -1.4 14.7 24.6 22.9
108.2 109.1 118.1 128 133 137.1 143.8 147.4 148.3 150.8 150.8 151.7 154.5 158.6 153.7 147.1 146.9 141.2 142.4 144.7 144.1 141.7 145.5 144.5 143.5 135.6 130.6 127.9 119.2 110.2 101.6 78.8 67.3 93.1 107.1 113.4 118 120.7 124.9 131.9 137.2 143.1 148.5 149.1 148.7 147.5 150.5 152.9 151.8 152.6 162.2 171.5 181.4 189 192.5 194.6 191.4 188.6 190 191.4 190.3 187.9 189.1 196.3 199.1 201.4 202.3 206.2 214 219.2 221.3 225.5 226.7 226.8 220.2 216.4 215.9 220.2 224.9 224.3 217.8 207.9 197.8 187 169.7 147.9 130.1 113.6 99.1 90.4 93.2 100.2 113.4 127.2 144 166.1 189.1 192.2 203.7 212.9 215.7 213.4 208.4 203.6 214.2 221.8 224.5 227.1 229.6 231.5 234.3 237.3 240.7 244.2 249.1 256.2 277.1 290.1 284.5 281.1 277.4 275.6 271.1 268.3 264.9 262.4 259.9 255.9 251.1 248.3 244.9 241.1 236.6 233.3 229.4 228.2 224.3 220.4 216.6 216.7 214.2 214 211.7 212 210.4 205.8 207.2 206.2 205.2 200.8 205.2 208.4 209.1 210.9 212.7 211.6 207.9 207.8 207.9 208.7 206.4 205.2 208.3 201.2 201.6 198.3 192.3 188.6 186.3 182.9 176.4 168.2 152.7 144.4 141 134.2 128.3 122.5 117.2 112.1 99.2 80.4 66.6 55.6 52.6 53.5 48.9 39.6 34.6 31.2 32.4 32.7 26.3 15.3 15.7 -1.4 -1.4 16.4 24.3 18.5
93.9 106.5 113 125.1 127.6 133.2 139.5 143.3 145.7 146.6 149.3 150.2 149.9 150.8 149.2 144.4 140.9 137.8 136.7 140.2 138.9 140.6 138.1 138.7 143.9 141.7 133.9 130.3 118.5 109.8 96.2 76.6 61.9 84.7 99 103.7 109.1 110 113.4 120.9 125.6 132.5 137.4 141.2 142.5 144.4 139.9 144.1 144.6 145.4 152.8 161.5 170.9 178.5 185.7 188.3 186.6 185 184.5 185.9 188.4 187.3 186.6 189 194.6 193.4 194.1 197.9 205.9 212 216.4 219.8 219.6 217.3 212.8 207 203.2 199.5 199.3 199.7 197 191.4 186.1 175 156 136.7 119.5 105.3 95.9 87.7 92.5 104 116.3 130 150.7 174 190.5 200.3 205.7 212.2 219.8 222.9 222.1 225.9 220.7 219.3 228.2 231.9 234.5 236.2 237.6 239.4 243.5 247.6 252.2 267.7 289.2 311.7 305.8 285.5 278.8 274.3 268.6 265.3 263.1 261 259 255.9 251.4 249.7 246 242.3 237.9 233.5 230.1 225.8 221.8 221.1 220.6 218 218.3 217.5 213.6 214 213.7 207.5 201.8 202 199.4 195.8 202.2 205.5 206.5 207.3 207.7 207.8 203.3 201.2 199.7 199.1 197.5 194.7 197.2 196 195.4 190.8 190.2 184.6 184 175.1 173.7 163.8 149.9 139.4 137.2 131.1 125.1 119.4 114 109 99.2 81.8 61.4 54.5 53.4 52.5 47.4 36.9 34.3 33.1 32.8 32.3 21 12.9 14 -1.4 3.6 8.8 13.7 9
85.3 92.7 101.7 108.9 112.8 123.1 133.9 140.7 143.8 146.3 148 149.7 149.4 146.3 146.2 145.5 137.6 135.1 135.3 136.9 137.1 139.6 141.5 135.6 138.8 139.7 132.6 128.6 115.7 107.9 90.4 69.4 65.3 80.3 92.8 99.6 102.6 104.8 107.3 110.9 116.5 121.2 127.4 128.5 135.9 140.3 139.7 134.3 138.1 139.7 144 150 154.6 160.9 171.9 176.2 176.4 176.5 177.4 179 182 182.8 182.9 184.6 187.3 189.2 191.1 193.2 198 203.1 207.5 210.2 211.6 208.4 207.1 196.9 189.8 188 185 184.9 183.2 180.7 175.1 157.9 143.2 123.7 110.1 97.8 88.7 86.8 94.6 101.8 114.9 133.4 151 174.1 192.5 202.5 210.8 217.9 219.2 225.4 228.9 229.2 232.6 233.8 223.5 230.7 234.8 238.5 242.4 246.8 247.6 250.5 260.2 279.3 294.5 310.8 296.3 283.5 277.6 272.7 266.6 264 262.2 260.1 258.2 255.9 252.3 250.6 247.4 244.2 242 238.8 236.3 232.1 228.8 226.6 224.8 223 224.1 222.1 215.5 215.8 214.8 212.6 209.7 206.9 202.6 192.9 194.1 200.7 203.5 204.2 201.7 202.8 199.5 194.3 191.6 191.6 188.5 187 189.5 189.8 184.4 186.2 187.4 181.7 177.1 170.7 168.7 158.2 148.1 138.5 133.6 127.6 121.2 116.7 111.4 104.8 99.2 83.3 59.3 54.9 54.4 54.5 47 36.8 35.1 34.2 32.6 25.6 16.7 7.7 -1.4 -1.4 2.7 5.1 6.3 3.4
77.6 81.7 88.1 94.8 102.6 110.5 119.9 133.5 140.8 136.2 142.8 147 148.6 145.4 143.8 138.6 132.7 134.1 134.8 136.9 137.1 135.8 139.6 132.3 131.7 128.3 125.2 120.1 109.7 102.8 86 58.6 68.1 82.7 87.7 94.2 95.3 101.3 103.4 106.2 112.1 115.5 119.6 124.3 130 136.6 135.4 128.4 130.9 134.1 136 137.4 140.6 147.9 154.1 160.4 164.6 170.9 173.3 175.9 179.5 181.6 185.4 189.1 191.5 189.8 191.8 192.1 193.9 195.3 197.2 200.2 201 199.9 198.1 190.8 181.3 179.4 177 175 175.1 170.9 159.6 147.6 129.8 114.6 97.7 92.2 84.1 90.2 95.4 105.1 113.2 131.7 151.3 177.1 196.7 205.4 214 221.2 224.5 226.4 232.3 232.6 235.1 238.2 243.1 242.6 240.5 236.8 239.3 248.6 251 254.3 264.8 272.5 290.1 305.9 287.7 279.8 276.8 271.8 266.5 263.8 261.7 259.5 259 258.4 256.1 255.2 251.8 248.1 245.6 243.5 241.4 238.1 234.7 231.9 228.9 229.7 226 222.6 218.6 217.8 215.8 213.4 210.8 208.4 206.3 198.4 193.1 186.4 196.6 198.6 196.9 194.7 191.9 189.9 186 182 181.9 180.9 181.2 181.4 179.5 178.9 182.6 176.5 170.2 167.5 162.6 154 142.9 134 129 123.2 117.3 112.6 107.2 101.7 97.4 87.6 65.2 56 56.1 56.1 49.3 40 35.8 32.3 28.6 21.9 13.1 4.1 -1.4 -1.4 1.4 0.9 1.1 1
62.9 70.8 78.3 83.1 89.4 100.1 103.2 111.2 115.7 121.5 131.5 143 145.1 142.9 139.6 135.6 131 137 133.2 131.8 134.6 131.7 128 126.5 123.4 116.5 113.1 112.2 105.8 97.9 82.7 53.9 67.5 79.6 83.6 87.4 88.5 92.5 98.6 102.1 106.7 111.9 115.5 119 124.6 129.9 130 128.4 122.8 123.5 129.8 132.4 139.8 147.1 153.2 161.2 169.3 178.4 180.6 181.7 184.1 186.7 185.4 192.7 196.1 195.2 193.7 197.3 199.8 195.4 193.9 196.8 198.7 195.3 186.3 178.5 172.8 171.3 167.6 165.1 161.5 159.1 153.3 138.2 120 102.7 90.3 87.5 82.7 88.5 98.8 113.8 131.2 145.8 160.2 173.1 196.9 208.3 214.1 222.5 230.6 232.1 232 237.9 238.6 242.3 246.4 249.3 250.1 248.6 250 249.5 248 262.1 270.9 272.2 280.4 284.1 279.3 277.2 275.4 271.4 266.5 264 262 261.9 262.1 261.4 260 258.8 256.9 254.5 253.1 251.8 248.4 243.7 240.1 237.7 233.3 230.4 228.5 224.3 223.3 221.2 218.7 216.2 212.1 208.2 205 199 193.6 183.9 188 192.5 188.5 186.6 186.4 186.8 183.4 174.5 174.6 173.8 174.9 175 174 171.4 173.5 170.3 166.5 160.9 154.7 148.5 138.5 130.2 124.3 118.6 112.5 108.3 102 98.9 97.7 95.8 80.5 59.7 57.1 57.2 50.4 41.3 36.2 26.1 17.9 13.7 8 1.6 -1.4 -1.4 -0.3 -1.4 -1.4 -1.4
39.8 52 65 72.1 77.6 84.2 92.6 98.7 100.2 106.8 120.3 136.1 135.3 133.8 133.8 131.1 129.2 129.1 130.6 127.6 128.4 130.2 128.3 117.1 111.4 107.7 106 108 99.8 93.3 80.7 57.8 63.2 73.8 78.5 82.3 82.6 88.1 91.7 93.8 100.9 104.1 111.5 114.5 119.9 123.2 124.1 123.8 122.3 122 124.3 125.8 138.4 146.1 153.4 162.9 173.1 182 187 187 190.8 187.7 186.8 192.5 194.3 195.8 196.7 200.1 200 194.1 190.4 191.8 192.9 187.6 176.2 169.6 166.4 164.3 160.6 155.6 151 148.7 139.9 125.2 107.8 93.1 85.2 82.5 87.7 94 107.4 122.7 139.7 163 177 189.8 198.3 209.1 219.1 226.9 230.6 236.6 240.3 241.3 249.9 245 248.7 250.9 252.7 253 255.4 257.8 253.9 259.6 275.4 272 274.6 271.4 273.8 275.6 274.3 271.5 265.9 264 263.2 263.2 263.3 264.5 262.4 263.8 262.5 263.5 261.4 259.6 255.8 250.9 245.5 243.1 238.8 233.3 230.6 229.2 229.7 226.1 222.5 221.1 216.9 212.2 205 199.2 194.7 187.8 171.8 187 184 179.1 179.5 180 175.8 166.5 168.1 165.7 168.2 168.5 167.6 165.9 168.3 165.2 159.5 153.4 147.1 142.9 132.6 125.9 120.5 114.6 106.6 103.9 98.5 97 96.5 96.2 86.3 64.6 58.3 56.7 48.7 34.9 21.3 10.6 4.1 1.8 1.1 -1.4 -1.4 -1.4 -1.4 -1.4 -1.4 -1.4
16.3 28.8 41.3 53.9 62.5 71.8 79.7 86.2 91 103 123.9 132.7 132.6 132.5 132.7 128 124.7 122.5 128.5 129.4 123.3 124.4 122.6 114.9 113.3 103.9 101.6 99.4 96.2 90.4 75.5 60.5 50.4 65.6 71.8 75.2 76.1 81 83.9 86.2 91.6 97.2 99.1 106.1 115.9 118.4 118.5 118.3 117.1 120.9 123.6 124.1 125.4 141.6 151.8 161.7 175.4 181.7 186.6 190.3 191.6 190.3 189.2 192.1 192.8 193.7 196.1 198.4 197.5 191.7 188.8 187.7 184 177.3 172 166.9 160.9 157.8 153.9 147.2 142.9 140.1 130.5 115.1 98.3 85.7 80.8 82.7 90.9 99.2 115.5 130.7 147.1 170.8 185.8 197.7 209.5 217.7 221.3 230.1 233.2 238.5 243.9 243.1 247.4 249.3 248.3 252.5 257 257.6 257.5 259 260.5 256.8 263.1 281.7 272.6 270.2 270.8 270.9 270 267.2 265.2 264.5 265 266.1 266.9 266.9 268.9 268 267.3 270.2 270.2 268.3 263 256.7 250.5 246.9 241.4 237.6 232 231 231.4 228 224.5 222.3 219.9 215 205.4 198.7 194.2 190 173.9 177.9 177.4 172.9 169.2 170.6 167 162 160.3 159.7 162.3 162.8 161.6 161.6 163 158.8 152 146 140.6 135.2 128.5 121.1 115.9 107.7 103.7 99.5 94.4 93.5 90.6 90.7 87.6 55.8 46.5 45.6 32 9.3 4.8 1.7 -1.4 -1.4 -1.4 -1.4 -1.4 -1.4 -1.4 -1.4 -1.4 -1.4
4.4 12.3 26.4 42.6 53.5 62.6 73.9 84.3 92.6 105.5 120.5 129 132.3 134.9 132.7 127.9 127.5 119.1 120.4 126.4 120.6 116.6 116 106.9 103.4 100.3 96.5 91.5 91 90.2 76.1 62.3 45 55.6 64.1 69.1 71.3 75.7 76.2 81.1 88.2 93.1 92.6 98.1 105.6 108.4 111.2 115 114.8 119 124.6 124.1 124.1 127.4 142.9 154.6 167.2 181.7 184.6 191.7 195.4 192.8 189.4 189.7 186.7 192.8 192.7 193.9 192.7 191.5 185.2 178.8 173.1 169 166.4 163.9 159.2 153.5 149.6 142.6 137.1 131.8 119.9 106.2 91.2 80.4 80.2 87.5 93.7 105.9 122 136.5 158.5 178.8 193.6 204 215 222.6 230.3 235.3 237.5 241.6 246.8 249.4 251 253.2 253.8 257 256.1 258.4 259 260.3 262 261.3 259.9 261.4 266.6 268.8 268.3 267.5 266.8 265.5 265.2 266.1 269.6 272.7 273.9 272.8 270.7 271.8 273.3 273.8 272.3 270 265 261 256.2 250.8 244.6 240.3 234.5 233.6 232.1 231.6 226.2 224.2 219.9 216.1 206.7 199.8 194.3 190.5 178.9 154.8 167.1 165.9 166.2 164.5 160.4 156.2 151.7 154 155.7 155.2 154.2 153.2 151.8 149.4 147.2 143.2 135.8 126.8 122.8 116.8 109 104.9 100.5 95.1 91.1 86.4 90.3 86 81.1 48.4 34.9 23.6 10.9 3 -1.4 -1.4 -1.4 -1.4 -1.4 -1.4 -1.4 -1.4 -1.4 -1.4 -1.4 -1.4
5.3 5.6 17.4 27.9 40.8 55.3 64.5 78.2 90.1 103.5 110.3 119.2 134.3 133.9 127.4 125.6 128.6 129.8 116.7 120.9 117.1 106.9 102.8 97.6 94.1 93 86.2 83.5 77.9 77.6 71.2 61.8 35.8 49 55.5 60.9 67.9 69.4 70.1 74.3 82.7 89.6 91.2 93.1 97.3 103.3 109.2 108.9 115.2 121.6 126.2 125.7 125.3 129.8 129.6 140.6 157.3 171.1 177.2 183 190.4 192 187.5 185.5 183.1 189.8 191.6 191.2 187.6 187.4 180.6 173.4 168.4 165.4 163 160.3 156.5 150.3 144.8 140.5 133.4 119.1 110.4 97.8 84.4 76.8 82.7 90.8 98.2 112.5 129.2 145.5 171.2 189.4 201.5 211.7 219 226.6 237.5 243.7 244.4 245.3 249.4 254.8 254.7 255.9 258.3 260.3 259.5 256.7 256.9 260.1 266.4 269.9 274.5 275.9 261.1 266.4 266.9 266.8 265.5 265.3 266.2 270.7 274.9 278.5 280.7 281.4 280.2 278.7 277.1 278.2 276.3 274 270.5 266.4 261.1 254.1 248 242.2 238.3 236.7 234.1 233 231.3 227.7 220.5 217.6 208.3 200.8 194.6 190.5 184 168.1 149.7 161.4 162.5 156.9 155.7 150 145 147.8 148.1 147.5 148.9 148.8 146 142.6 143 138.8 130.9 122.4 117.3 113.3 106.1 100.1 96 92.4 89.5 85.1 83.7 74.3 52.3 36.5 22.5 9.7 2.6 -1.4 -1.4 -1.4 -1.4 -1.4 -1.4 -1.4 -1.4 -1.4 -1.4 -1.4 -1.4 -1.4
0.8 4.2 10.5 22.5 34.7 45.9 56.7 65.4 76 89.4 96.4 102.4 110.6 116.9 124.7 127 128.4 126.5 113.2 107.1 105.3 98.7 94.4 92.7 86.6 82.2 81.1 77.2 73 65.7 62.8 50.9 32.1 52.2 61.1 66.7 67.4 68.2 69 69.8 75.8 82.2 88.7 88.5 94.1 98.4 99.2 106.3 112.8 117.8 122 124.5 126.4 131 138.3 134.7 149 162.6 167.9 172.9 180.3 184.1 181.5 179.4 179.9 182.2 185.7 186.9 183.5 180.8 177.1 171.6 165.6 162.3 159.8 156.7 153 147.3 141.8 140.4 133.7 118.5 104.6 86 75.8 75.8 84.5 92.5 105.6 119.9 136.6 157.6 182.6 198.7 206.2 214.2 220.5 228.2 237.7 243.9 251.1 251.5 255.5 257 262 258.3 258.5 260.4 259.7 257.2 258.7 263.7 273.1 280.6 284.8 274.8 266.8 263.9 264 265.5 265 266.6 271.1 276.5 282.2 286.9 290.2 290.3 288.8 287.1 283.7 282.1 280.3 278.7 275.2 269.3 263.4 256.4 250.1 243 241.2 240 234.8 232.7 231.3 228.4 223.5 217.8 210 202.6 194.1 191.3 186.2 172.8 159.7 155.9 158.4 155.3 148.1 146.6 142.9 141.3 143.8 145.4 146.7 146.7 142 138.9 135.6 134.7 127.6 119 112.6 109.2 103.6 97.7 94.1 87.6 79 80.3 69.1 54.1 36.7 26.7 8.5 2.2 -1.4 -1.4 -1.4 -1.4 -1.4 -1.4 -1.4 -1.4 -1.4 -1.4 -1.4 -1.4 -1.4 0.4
0.8 3.9 6.5 19 28.8 40 51.1 61.7 71.8 77.1 85.7 95.2 104 116.3 127.5 128.2 128 121.4 116.4 107.5 95.9 96.1 91.4 84.5 79.9 77.3 78.8 75.9 64.1 54.8 44.5 26.6 42.2 55.7 62.4 66.9 67.6 68.3 69 69.3 75.1 79.3 80.6 83.4 89.7 95.7 99.8 108 113.9 117.3 119 124 126.4 129.3 136.2 141.1 142 151.9 157.6 165.2 170.3 173.2 174.6 174.1 177.5 179.2 179.4 180.3 178.1 176.6 176.6 170.1 163.2 159.1 156.5 152.9 149.6 144.3 137.7 136.2 133.3 115.3 99.8 83.8 72.1 75.7 85.2 96 109 125.8 143.9 165.5 189.2 203.6 211.7 216.7 223.5 230.6 238.2 244.5 248.4 252 256.2 260.7 262 259.7 256.7 258.5 257.4 258.6 260 264.1 270.1 282.1 288.9 278.1 269.1 268.2 266.1 262.8 264 269.5 273.8 276.8 283.8 289.3 296.7 297.1 295 293 290.6 289 287.6 283.8 279.2 274.7 273 268.6 254.8 244.5 243.2 243.3 237.6 231.8 230.3 225.6 220.7 216.5 211.7 200.7 193.3 189.7 183.5 173 163 145.9 155.9 153.9 146.9 141.7 140 137.2 140.9 142.7 143.8 143.5 140 137.1 130.4 124.6 120.3 115.7 109.8 104.3 98.9 95.6 93.6 86.4 77.2 69.2 57.5 37.5 26.3 10.8 2 -1.4 -1.4 -1.4 -1.4 -1.4 -1.4 -1.4 -1.4 -1.4 -1.4 -1.4 -1.4 -1.4 -0.3 1.1
0.6 4.9 6.1 21 31.5 38.6 46.7 55.7 69.6 77.9 90.3 102.4 108.6 116.1 122.4 127.9 123.9 119.4 115.7 104.1 96 83 80.9 76.8 73.6 69.7 67.4 61.8 54.1 50 26.5 35.2 49.5 56.4 60.7 63 64.4 66.2 68.9 68 73 83.4 86.4 86.5 89.1 93.4 98.5 104.8 113.6 116.5 118.9 119.6 123.8 126.9 133.3 140.6 140.4 144.7 151.3 159.2 164.1 167.7 168.4 170.4 175.7 175.2 174.1 174.9 175 173.6 171.3 166.4 160 155 152.3 148.2 146.3 140.2 135.5 133.6 129.5 112.4 94.7 78.3 73.1 76.8 85.6 98.5 113.5 131.5 152.1 173.3 193.1 206.8 215.9 221.3 226.7 231.2 238.4 243 246.7 250.1 253.7 256.2 260.6 256.8 257.3 257.3 257.7 258.9 259.2 260.5 265.1 280 287 272.7 268.2 267.3 272.2 262.1 262.1 267.3 273 277.8 284.5 291.5 296.6 300.3 301.5 297.3 294.2 291.8 291 287.4 281.5 277.8 278.4 275.4 264.4 247.7 247.7 245.9 237.9 230.2 226.8 226.3 223.2 217.9 212.2 201.3 192.8 188.3 180.8 170.8 161.5 152.3 144.4 148 145.4 142.2 137.6 134.8 136.3 136.9 138.9 138.2 135.3 131.7 130 124.6 118.5 114.8 107.4 99.8 94 91.7 87.7 82.7 80.1 71.3 39.4 25.3 10.6 2.8 -1.4 -1.4 -1.4 -1.4 -1.4 -1.4 -1.4 -1.4 -1.4 -1.4 -1.4 -1.4 -1 0 0.8 1.5
1.6 3.7 5 17.2 34.7 43.7 50 54.2 58.5 73.6 85.1 100.1 107.2 112.3 119.4 121.7 118 114.5 109.4 100 91.7 75 72.9 69.9 62.2 56.1 52.5 50.5 47.9 36.4 26.8 42.2 47.4 52.5 55.2 57 58.7 61.8 64.7 67.9 74.3 79.6 83.5 85.8 89.7 92.9 95.9 99.7 106.7 114.4 113.3 120 122.6 124.9 129.8 136.5 138 142.7 147 154.3 159.7 163.8 166 168.5 172.8 174.4 172.1 172.4 173.4 171.1 168.6 164 159 152.6 147.1 145.1 141.8 135.8 132.5 130.2 125.5 107.3 88 71.6 72.7 78.9 88.8 102.2 119.5 137.3 158 175.5 198.2 208.7 218.7 224.9 230.3 233.9 238.4 243.1 245 246.7 250.6 249.2 255.6 252.5 251.6 252 254 257.2 256.6 255.3 257.2 270.3 281.9 275.1 269.5 267.3 262.1 262.1 262.1 265.8 271.6 277.2 284.5 288.7 291.3 295.2 299 296.5 295.2 294.5 294.4 287.2 280.5 279.8 276.5 276.5 270.2 253 250.7 247.8 237.1 232.2 224.2 224.7 221.1 216.3 209.8 202.4 192.4 187.9 179.6 170.3 162.3 159.7 131.8 143.4 142.8 139.4 134.8 133.1 131.3 131.1 131.5 132 130.4 128.4 126.5 122.1 117.8 114.1 106.7 98.6 91 87.7 83.6 80.2 79.3 70.3 30.5 9.7 4 -1.4 -1.4 -1.4 -1.4 -1.4 -1.4 -1.4 -1.4 -1.4 -1.4 -1.4 -1.4 -1.4 -0.6 0.6 1.6 2.7
-1.4 1.9 4.1 10.6 22.5 37.7 51.2 57 59.7 65.7 74 80.3 96 107.4 111.6 111.8 110 105.1 95.9 92.9 84.5 76.8 61.3 67.2 57.4 47.6 45.5 39.9 28.1 17 35.5 45.7 52.9 54.1 53.4 52.5 58.8 59.3 62.2 66.1 70.6 75.7 78.7 83.9 88.9 90.3 92.9 94.4 94.9 99.5 111 119.3 123.4 122.5 127 134.4 138.4 138.4 143.4 150.3 156.2 160.2 162.1 163.5 166.7 168.9 169.2 172.6 171.4 169 165.9 161.7 156.7 151.5 143.9 139.2 135.2 133.4 130.5 127.5 118.9 100.7 80.7 67.6 73.8 86.6 98 111 125.4 146 164.6 182 199.9 210 219.4 227 232.6 236.6 236.7 240.3 241.8 242.6 244.4 244.2 243 244.4 247.9 247.5 248 254.2 252.1 250.7 249.4 256.7 279.5 274.2 272.2 272.3 269 265.1 269.7 274.3 269.4 274.7 281.1 283.5 286 290.1 293.3 292.4 292.4 291.2 288.2 284.6 279.8 277.8 274 275 270 256.4 254.3 249.8 242.7 237 231.3 220 218.5 214.2 208.5 201 192.5 187.1 176.7 167.9 158.7 153.9 134.5 141.8 139.7 134.7 131.2 130.6 129.5 129.1 129.1 127.6 126.4 124.4 122.4 121 116.5 111 105.5 99.6 91.8 83.7 81.4 79.3 79.6 62.1 23.5 6.2 -1.4 -1.4 -1.4 -1.4 -1.4 -1.4 -1.4 -1.4 -1.4 -1.4 -1.4 -1.4 -1.4 -1.2 -0.1 1 2.2 3.3
-1.4 1.2 7 7.1 16.9 24.4 42.3 54.7 62.8 64 63.1 68.2 76.4 84.8 88 91.8 94.6 89.5 83.4 82.6 78.9 68.9 61.3 44.4 45.5 36.4 32.8 22.9 18.1 36.9 46 46.3 47 50 49.5 46.2 50.3 53.4 56.1 61.8 69.8 71.8 74.9 83.7 88.2 85.6 84.9 89.3 93.1 94.7 98.3 108.3 117 119.8 123.4 128.7 136.5 134.3 140.1 146.8 150.4 155.3 156.4 157.2 158.7 160.2 160.3 164.9 166.3 164.2 161.8 159.3 152.1 147.9 140.3 134.4 132.2 130.8 131.1 118.5 108.3 91.2 74.4 63.9 77.6 93.1 105.5 118.6 132.2 150.2 167.5 189.1 200.9 210.7 219 228.2 237 238.9 236.4 236.3 237.3 238.1 238.3 236.5 235.1 240.1 243 242.3 242 248 248.3 247.4 246.5 244 252.4 265.9 269.8 271.7 271 270.3 273.4 278.2 271.5 270.2 275.1 280 286 290.2 290.5 289.1 287 285.3 285.2 280.2 277.8 277.7 273.9 270 266.9 259.5 256.1 252.7 248.7 243.3 237 226.2 220.6 214.2 203.2 197.3 190.8 183.1 173.8 167.4 157.7 150.1 138.6 135.8 133.9 129.4 126.2 127 127.6 128.9 129.8 127.3 124.9 123.6 122.3 119.9 114.8 107.3 102 96.2 87.1 84 80.3 77.1 74 41.4 13.6 -1.4 -1.4 -1.4 -1.4 -1.4 -1.4 -1.4 -1.4 -1.4 -1.4 -1.4 -1.4 -1.4 -1.4 -0.7 0.3 1.3 2.2 4
2.3 3.1 4.6 5.2 11.6 16.7 33.3 46.8 57.1 59.9 59.8 59.1 64.1 69.8 76.2 80.9 79.3 77.7 74.7 71 64 57.7 57.5 50 31.1 31.9 14.4 5 25.9 48.6 49.1 43.5 39.1 40.4 43.1 42.3 47.2 48.1 49.5 55.6 59.8 63.4 68 74.4 77.9 77 74 80.6 92 95.7 90.2 93.5 102.5 107.6 114.3 121.7 128.3 130 134.6 141.5 147.2 151.1 150.9 151.5 151.7 151.1 150.7 152.5 153.4 155.3 156.3 160.1 151 144.9 140.2 133 125.5 122.2 115.4 110.6 97.7 80.7 67.4 70.1 84.6 102 113.5 125.2 138.6 152.6 167.6 187.2 198.9 209 217.2 225.5 231.3 233.7 227.9 227.5 231.7 230.8 230 233.3 226.6 234.9 236.8 234.7 236.6 241.2 243.9 243.6 242.8 241 236.7 242.9 259.2 274.2 272.6 271.8 271.4 269.7 273.5 268.6 269.2 273.9 280 285.4 283.2 283.7 283.1 279.3 276.3 276.3 276.1 274.2 273.2 270 264.2 261 257.5 255 249.9 246 238.5 230.4 223.1 215.5 205.6 199.1 188.6 180 171.9 160.1 154.6 147 138.7 125.6 127.7 124.4 120.2 123 125.2 127.2 128.8 126.3 124.3 122.7 121.7 117.1 110 104.6 99 97 86.8 79.8 77.4 74.8 48.9 19.6 2.2 -1.4 -1.4 -1.4 -1.4 -1.4 -1.4 -1.4 -1.4 -1.4 -1.4 -1.4 -1.4 -1.4 -1.4 -0.8 0.2 1.3 2.4 4.4
-1.4 2.3 3 4.8 7.2 12.6 21.7 36.1 45 52.4 56.9 52.4 47.4 54.1 58.9 64.4 70.3 72.8 61.6 56 51.3 47.1 47.2 45.5 38.5 19.9 9.9 5 8 21.7 31.9 33.5 35.2 38 43 43.1 43.5 45.5 46.4 49 52.5 57.1 60.9 63.9 65.1 66.7 67.6 73.4 80.9 82.8 80.5 80.9 87.8 93.5 104.1 113.3 123.1 129.2 127.6 134.8 141.3 146.5 147.7 147.8 147.1 145.8 144.6 144.5 145.2 146.9 148.5 150.9 149 143.3 136.9 131.3 118.8 112.3 108.5 102.1 90.1 74.8 60.6 70.5 93.8 111.3 118.4 128 138.5 151.1 166.3 183.9 195.2 205.7 214.3 220.7 224.7 227 226.3 221.5 221 221.9 221.8 217.7 217.6 223 226.8 228 225.8 231.2 234.4 235.6 231.7 232.2 229.1 233.7 254.7 272.7 273.9 276.4 271 268.5 268.9 266.1 266.6 267.3 270 273.2 272.8 272 273.3 275.5 271.8 272.3 274.2 273.5 270.8 268.5 265.6 260.4 256.3 254.3 250.1 245 239.2 230.7 221 213.9 206.3 194.4 186.8 178.7 169.1 157.8 152.7 145.6 135.9 129.1 118.1 114.3 116.8 119.2 121.4 123 124.5 123.9 122.8 121.5 118.8 111.2 104.8 99.3 94 88.5 79.7 76.4 72.4 47.3 21 -1.4 -1.4 -1.4 -1.4 -1.4 -1.4 -1.4 -1.4 -1.4 -1.4 -1.4 -1.4 -1.4 -1.4 -1.4 -1.4 -1.4 0.2 1.6 4.6 6.1
-1.4 -1.4 2.6 2.9 4.9 11.1 7.5 17.5 30.9 36.7 41.2 42.3 41.7 40.5 47 49.4 52.1 51.3 50.9 46.7 44.3 40.5 35.7 34.9 22.6 9 6.1 5.3 3.8 7.6 15.7 27.3 33.2 38 39.7 40.8 40.6 44.8 45.1 45.6 49.5 52.7 55.4 58.1 60 58.1 59.7 64.3 70.8 72.4 75.4 74.9 77.1 82.1 92.1 102.4 111.6 117.3 117.5 124.3 130.9 138.5 140.8 141.1 140.8 139.3 140.3 139.8 135.8 135.6 137.1 138.4 141.9 135.3 131.8 129.5 119.3 111.7 108.6 96 80.2 67.1 57.2 73.9 97.4 110.6 119.3 128.8 137.1 148.1 162.8 179 191.9 203 210.6 215.5 218 220.5 221 219.9 216.7 214.8 212 210.6 210.3 215.1 222.2 220.2 216 219.6 220.7 223.8 222.5 225.9 227.4 232.8 245.7 266.6 271 273.1 266.2 259.7 261.8 265.4 263.8 264 264 265.5 267 265.5 263.2 267.7 264.9 265.7 268 268.5 266.5 264.8 263 258.5 254.1 252.3 249.1 245.3 241.3 230.3 220 210.5 201.1 188.9 180.9 174.4 165.3 156.1 150.9 142.6 135.3 124.5 122.5 115.1 112.4 115.3 117.2 119 120.3 120.9 119.2 116.8 111.3 105.6 101 94.3 91.1 88.2 79.5 62.2 37.6 18.6 5.1 -1.4 -1.4 -1.4 -1.4 -1.4 -1.4 -1.4 -1.4 -1.4 -1.4 -1.4 -1.4 -1.4 -1.4 -1.4 -1.4 -1.4 0.4 2 6.4 8.7
-1.4 -1.4 -1.4 2.6 1.9 3 1.7 4.6 9.1 18.9 30 34 36.1 35.4 36.2 38.6 39.3 40.6 40.7 39.5 38 28.9 17.9 7.1 4.9 3.9 2.9 3.2 -1.4 5.4 7.8 11.7 26.2 32.5 36 38.2 41 42.7 42.2 42.9 46.5 49.1 52 56.6 57.1 55.4 54.9 56.4 61.1 65.1 69 72.6 73.1 76.4 83.6 91.9 98.7 103 110.4 115.3 120 126.8 130.1 134 135.5 134.3 129 128.9 126.9 126.6 127.4 126.7 126.6 125.5 123.1 121.6 117.5 110 104.8 95.6 83.2 60.8 57.7 79.5 99.7 110.9 118.8 126.3 135.9 145.9 157.6 173.5 187.8 199.2 206.5 210 212.2 213.4 213.6 213.4 210.8 209.6 208.5 206.7 204.9 206.1 214.1 213.3 211.9 208.5 207.5 209.9 214.2 218.1 221.3 227.4 235.5 246.8 253.9 253.6 251.7 254.4 256.6 261.9 259.6 259.7 259.8 259.3 259 258.8 257.9 259.7 259.5 259.3 260.4 261.2 259.4 258.2 256.8 253.9 252.7 250.6 246.4 239.2 234.4 225.8 218.6 211 200.7 188.7 180.4 170.7 161.9 155 147 140.4 136.7 125.9 117 113 109.1 110.8 113 115 116.2 116.1 114.1 109.9 105.6 101.4 99.5 94.4 88.3 84.3 60.8 33.3 14.4 4.1 -1.4 -1.4 -1.4 -1.4 -1.4 -1.4 -1.4 -1.4 -1.4 -1.4 -1.4 -1.4 -1.4 -1.4 -1.4 -1.4 -1.4 -1.4 0.6 2.6 6.7 9.9
-1.4 -1.4 -1.4 -1.4 -1.4 -1.4 -1.4 1.9 5.9 4.8 5.5 13 28.9 30.8 31.9 30.2 31.5 27.8 26.6 22.4 15.8 11.8 3.7 3.6 3.1 1.8 1.1 -1.4 -1.4 2.2 4.8 6 13.9 26.7 29.4 35.7 41 41.3 40.3 41.1 42.4 44.7 50 51.5 52.7 50.7 50.3 51.2 53.4 57.2 62.2 64.4 68 72.7 77.6 84.1 92.3 98.7 104.8 108.7 113.9 120 122.6 125.2 128.7 128.5 125.1 123.2 118.9 118.8 120.9 121.9 120.5 118.5 117.8 115.4 111.3 104.8 101.4 88.8 71.7 53.4 63.2 81.3 98.3 109.2 118.9 125.6 132.5 142.1 152.7 169.8 184.6 194.5 201.1 204 205.7 205.2 205.2 204.7 202.4 203.1 202.3 200.7 199.6 196 202 205.8 203.7 200.8 201.1 203.7 211.1 216.3 220.7 223.1 235.4 241.8 249.5 252.3 248.6 249 253.1 256.2 253.7 250.5 248.5 252.6 252 252.2 256.5 258.2 254.6 254.8 255.6 254.8 252.6 249.9 251.5 251.3 247.9 245.9 243.5 237.4 227.8 222.6 216 210.8 202.7 191.2 181.1 170.2 162 154.1 145.9 139.3 134.6 129.4 117.8 113.9 107.4 105.9 108.6 110.9 111.2 110 107.9 105.7 101.6 99.9 98.3 86.9 80 79.4 43.1 15.3 -1.4 -1.4 -1.4 -1.4 -1.4 -1.4 -1.4 -1.4 -1.4 -1.4 -1.4 -1.4 -1.4 -1.4 -1.4 -1.4 -1.4 -1.4 -1.4 -1.4 1.1 5.6 9.1 16.7
-1.4 -1.4 -1.4 -1.4 -1.4 -1.4 -1.4 -1.4 -1.4 1.5 0.8 2.3 4.6 10.1 13.9 12.5 6.1 4.8 5.3 5.6 3.1 1.8 0.6 -1.4 -1.4 -1.4 -1.4 -1.4 -1 1.1 1.8 4.8 5.7 7.7 20.1 28 35.4 37.3 36.2 38.9 41.3 43.4 48.5 49.8 49 47 45.7 46.9 47.9 51.4 57.2 64.2 70.8 75.5 82.1 87.2 92.7 97.4 102.6 107.8 110.2 115.4 117.9 120.6 122.9 122.1 122.7 120.6 117 115 114.3 114.3 112.7 112.8 113.5 109.3 104.4 99 92.3 80.1 60.5 49.6 65.7 85.1 100.3 110.4 118.6 124.3 128.6 136.3 149.9 163.9 178.9 188.1 194.9 198.3 198.9 198.1 197 194.2 194.8 196.6 195.4 192.9 190.1 190 193.5 198.2 197.4 196 197.6 201.7 205.7 210.7 220.1 221.2 227.7 235.7 244.3 244.3 244.6 244.9 248.2 251.2 245.3 247 239.7 244 244.2 240.6 249.6 250 244.7 246.4 249.2 247.4 252.6 245.1 247.3 243.3 241 240.5 239.4 236.9 229.1 218.7 213.4 209.2 201.5 194.2 181.8 171.1 161.4 152.6 146.4 141.5 135.3 130.4 121.1 112.6 107.5 105.1 103 105.4 105.5 104.8 104.2 102.8 104.3 99.9 94.6 84.6 76.3 56.2 21.1 -1.4 -1.4 -1.4 -1.4 -1.4 -1.4 -1.4 -1.4 -1.4 -1.4 -1.4 -1.4 -1.4 -1.4 -1.4 -1.4 -1.4 -1.4 -1.4 -1.4 -1.4 2 7.8 18.5 28.2
-1.4 -1.4 -1.4 -1.4 -1.4 -1.4 -1.4 -1.4 -1.4 -1.4 -1.4 -1.4 -1.4 -1.4 -1.4 -1.4 -1.4 1.8 3.1 -1.4 -1.4 -1.4 -1.4 -1.4 -1.4 -1.4 -1.4 -1.4 -1.3 -0.1 0.8 2.1 4.5 5.8 8.8 11.9 21.1 27.3 30.2 34 38.3 43.1 46.2 47.9 47.1 43.4 43.6 42.4 41.6 44.7 50.6 56.5 65.6 74.7 82.6 89 95 99.2 105.2 109.9 113 115.8 116.8 117.1 118.7 120.7 119.8 115.5 114.3 112.6 107.1 107.6 107.9 106.3 103.8 100.1 96.5 91.8 84.8 70.4 54.5 51.9 67.1 84.9 94.3 104.3 118.1 121.1 126.4 132.3 141.9 154.6 166.7 177.2 181.9 185.6 187.8 188.2 187 184.1 186 188.1 186.8 186.1 183.4 182.2 186.4 194 192.9 189.2 195.8 198.2 195.2 201.6 208.9 215.4 214.9 223.7 231.8 232.4 233 238.1 244 245 241.2 236.6 233 228.3 232.7 233.2 238.7 240.6 239.9 242.7 241.2 243.4 244.1 243.2 238.1 241 242.2 235.1 235.2 233.1 227.7 219.7 214.5 212.9 201.4 194 183.6 175.2 166 154.8 148.4 142.9 134.3 127.5 122.2 116.6 109.2 105.8 103.8 98.7 99.2 98.5 98.8 98.2 101.2 98 89.2 82.8 67.7 30.1 8.2 -1.4 -1.4 -1.4 -1.4 -1.4 -1.4 -1.4 -1.4 -1.4 -1.4 -1.4 -1.4 -1.4 -1.4 -1.4 -1.4 -1.4 -1.4 -1.4 -1.4 1.2 4.1 14.5 29 46.7
-1.4 -1.4 -1.4 -1.4 -1.4 -1.4 -1.4 -1.4 -1.4 -1.4 -1.4 -1.4 -1.4 -1.4 -1.4 -1.4 -1.4 -1.4 -1.4 -1.4 -1.4 -1.4 -1.4 -1.4 -1.4 -1.4 -1.4 -1.4 -1.4 -1.4 -0.2 1.3 2.6 4.8 6.2 7.5 9.5 17.9 20.6 28.5 32.4 36.3 38.6 41.4 41.4 38.8 38.5 38.3 38.6 38 44.5 51.7 54.6 61.3 74.2 83.4 89.5 97.2 104.2 112.8 121.2 122.6 121 117.3 114.7 115.2 118 115.3 110.2 108.8 105.2 102.7 99.8 97 93.8 90.8 88.2 84.1 77 66.6 50.9 49.8 67.6 80.2 88.3 96.6 106.6 113.9 123.1 129.1 137.2 144.9 153.3 161.9 167.6 171.3 174.2 176.6 175.1 176.5 178.8 179.6 180.8 180.4 179.2 178.9 180.2 188.8 186.1 185.2 190.4 192.7 192.7 191.7 198.1 204.9 209.8 214.4 222.8 224.4 224 230.2 235 238.2 234.3 224.2 221.9 218.8 219.7 226.1 229.6 232.8 238 237.6 235.3 236.9 238.4 236.9 234.9 234.3 236.4 229.6 230.5 227.7 223.8 219.3 215.1 205.5 197.5 193 185.5 175.1 166.4 155.5 150.5 142.6 134.3 127.3 122.6 119.4 111.1 107 105.5 101.5 98.7 97.6 88.3 95.9 93.2 89.9 82.8 78.2 44.3 12.7 1.1 -1.4 -1.4 -1.4 -1.4 -1.4 -1.4 -1.4 -1.4 -1.4 -1.4 -1.4 -1.4 -1.4 -1.4 -1.4 -1.4 -1.4 -1.4 -1.4 1.5 4.9 10.9 28.9 46.7 71.2
-1.4 -1.4 -1.4 -1.4 -1.4 -1.4 -1.4 -1.4 -1.4 -1.4 -1.4 -1.4 -1.4 -1.4 -1.4 -1.4 -1.4 -1.4 -1.4 -1.4 -1.4 -1.4 -1.4 -1.4 -1.4 -1.4 -1.4 -1.4 -1.4 -1.4 0.3 2.3 2.3 2.3 4.2 5.7 6.1 8.1 10.7 9.7 22.2 28.7 32.4 34.9 35.3 35.2 36.3 39 37 34.5 36.2 41.1 45 50.2 59.5 67.7 78 85.3 95.8 104.7 114.2 119 120.4 118 112.7 109.1 109.5 108.4 103 102.2 101.6 99.5 95 91.3 87.3 84.1 80.6 77.1 71.8 61.6 47.1 48.3 62.3 71 81.5 92.1 101.7 112 121.1 125.6 131.3 137 142.7 148.5 155.5 158.9 162.5 166.7 165.1 169.6 169.4 172.2 172.5 176.7 177.1 177.8 179.7 180.3 181.2 181.3 184.7 187.8 189.3 186.8 189.9 194.2 199.7 204.4 216.4 222.1 222.8 221.2 227.5 228.7 228.2 218.6 212.2 209.9 212.8 213.9 218.5 218.5 224.4 228.5 226.5 228.3 229.7 230.5 229.1 226.9 227.4 223.2 222.8 220.7 218.7 215.8 210.7 202.4 196.5 189.7 182.1 177.1 164.9 154.4 147.6 140.6 132.9 126.8 124.1 121.4 113.9 107.2 106 103.1 107.3 99.4 90 87.2 85.7 84.3 80.6 55 22.8 4.2 0.2 -1.4 -1.4 -1.4 -1.4 -1.4 -1.4 -1.4 -1.4 -1.4 -1.4 -1.4 -1.4 -1.4 -1.4 -1.4 -1.4 -1.4 -1.4 -1.4 7.7 19.1 31.6 51.8 75.5 102.5
-1.4 -1.4 -1.4 -1.4 -1.4 -1.4 -1.4 -1.4 -1.4 -1.4 -1.4 -1.4 -1.4 -1.4 -1.4 -1.4 -1.4 -1.4 -1.4 -1.4 -1.4 -1.4 -1.4 -1.4 -1.4 -1.4 -1.4 -1.4 -1.4 -1.4 1.3 2.3 2.2 0.8 2.3 5.2 4 2.3 2.8 4.2 7.2 11.8 24.4 28.3 29.5 34.2 37.5 36.5 35.7 33.5 32.7 34.9 38.6 43.9 50.4 55.8 62.7 68.4 79.1 89.6 100.1 105.9 111 111.4 109.2 104 103.1 102.6 101.1 94.2 95 95.7 95 91.8 87.4 80.9 75 72.1 66.9 60.1 43.5 46.8 57.3 68.4 76.2 84.7 95.5 104.6 117.1 120.8 123.3 127.2 132.9 138.9 144.5 147.7 150.9 154.5 158.8 162.1 163.9 165.6 168.1 170.2 175.7 175.4 171.8 171.5 175.4 179.1 181.9 186 187 184.1 184.5 186.5 189.6 191.8 202.3 210.1 218.3 219.4 224.3 222.7 221.6 214.4 204.9 203.8 208.4 215.1 213.3 205.8 209.6 214.5 213.9 219.7 223.5 224.5 220.8 220.8 220.8 218.1 218.9 215.1 212.8 209.7 206.9 201.9 199.6 188.6 180.6 172.4 163.4 153.4 146.7 138.9 131 126.5 123.9 120.7 113.6 107.5 106 104.6 105 94.7 87.5 75.9 72.6 64.7 75.4 36.2 14.1 2.3 0.4 -1.4 -1.4 -1.4 -1.4 -1.4 -1.4 -1.4 -1.4 -1.4 -1.4 -1.4 -1.4 -1.4 -1.4 -1.4 -1.4 1.8 7.4 12.1 25.9 35.6 50.6 75.2 112.2 115.1
-1.4 -1.4 -1.4 -1.4 -1.4 -1.4 -1.4 -1.4 -1.4 -1.4 -1.4 -1.4 -1.4 -1.4 -1.4 -1.4 -1.4 -1.4 -1.4 -1.4 -1.4 -1.4 -1.4 -1.4 -1.4 -1.4 -1.4 -1.4 -1.4 -1.4 -1.4 3 -1.4 -1.4 0.5 -1.4 -1.4 -1.4 -1.4 -1.4 1.5 3.6 9.6 21.2 23.6 27.5 27.2 31 33 30.8 30.4 31.4 35.1 40.3 43.2 49.4 55.8 61.5 64.5 71.3 82.4 91 94.4 99.9 102.6 99.3 92.9 95.4 92.1 82.7 86.3 89 90.6 89.7 87.5 81.6 75.2 70.4 63.6 50.4 42 41.6 53.9 67.2 75.9 78.4 84.4 92.1 103.7 107.6 114.4 116.6 122.4 128.4 134.3 137.5 140.1 138.2 151.8 153.3 153.1 157.9 162.5 163.1 169.8 164.5 162.1 166.5 168.3 173 178.7 184.5 185.5 181.9 180.7 180.4 180.7 180.8 185.5 197.3 203.1 204.1 205.4 209.7 211.2 207.1 201.9 197.6 203.7 206.3 204.7 196.5 199.6 202.1 204.2 209.7 215.8 216.2 214.5 212.4 215.2 213.2 213.9 209.5 207.3 204.3 203.8 202 199.2 190 181.7 173.3 164.7 153.5 146.2 139.2 128.9 125 122.8 118.7 114.1 109.1 103.1 104.3 100.5 89.8 86.7 83.7 75.7 63.3 41.8 23.2 7 2.1 0.5 -1.4 -1.4 -1.4 -1.4 -1.4 -1.4 -1.4 -1.4 -1.4 -1.4 -1.4 -1.4 -1.4 -1.4 -1.4 3.2 12.9 23.8 34.4 53.5 61.3 70.6 112.1 118.8 119.2
-1.4 -1.4 -1.4 -1.4 -1.4 -1.4 -1.4 -1.4 -1.4 -1.4 -1.4 -1.4 -1.4 -1.4 -1.4 -1.4 -1.4 -1.4 -1.4 -1.4 -1.4 -1.4 -1.4 -1.4 -1.4 -1.4 -1.4 -1.4 -1.4 -1.4 -1.4 -1.4 -1.4 -1.4 -1.4 -1.4 -1.4 -1.4 -1.4 -1.4 -1.4 -1.4 1.9 4 7.7 16.6 22.6 24.4 27.2 26.1 25.1 30.9 33.1 35.1 38.8 42 49.6 55.2 56.3 56.4 64.7 71.4 77.7 84.1 87.6 88.8 83.8 82.9 83.3 79.4 73.8 79.7 83.1 85.2 83.5 77.8 70.9 69.3 64.7 52 38.4 37.9 52 65.8 73.2 71.3 73.4 76.7 86.5 92.7 101.5 108.1 113.9 118.5 123.7 127.7 131 131.2 142.6 149 146.3 153.4 154.3 159.8 163.9 160.4 162 169.7 174.3 171.2 173.9 179.7 182.4 178 176.9 174.6 175 173.7 174.9 183.9 190.7 194.1 190.2 194.1 198.5 197.5 194.2 184.8 195.5 195.8 193.5 190.8 193.2 196.3 197.8 199.3 202.4 203.4 205.2 208.7 212.5 209.7 208.9 206.1 201.4 202.7 203.2 201.5 199.1 196.6 184.1 179.1 169.5 154.6 146.1 137.8 129.1 122.7 121 118.3 112.2 107.8 104 102.3 97.5 88.9 85.5 83 75.5 66.2 39.2 11.2 3.7 1.4 0.3 -1.4 -1.4 -1.4 -1.4 -1.4 -1.4 -1.4 -1.4 -1.4 -1.4 -1.4 -1.4 -1.4 -1.4 6.9 23.3 40 58.1 70.4 92.1 94.5 99.5 114 117.9 119.7
-1.4 -1.4 -1.4 -1.4 -1.4 -1.4 -1.4 -1.4 -1.4 -1.4 -1.4 -1.4 -1.4 -1.4 -1.4 -1.4 -1.4 -1.4 -1.4 -1.4 -1.4 -1.4 -1.4 -1.4 -1.4 -1.4 -1.4 -1.4 -1.4 -1.4 -1.4 -1.4 -1.4 -1.4 -1.4 -1.4 -1.4 -1.4 -1.4 -1.4 -1.4 -1.4 1.6 2.3 2.3 3.9 6.9 14.3 20 22.2 25.3 30.5 32 33.9 37 41 46.4 48.2 46.7 46.1 51.4 57.9 61.7 66.2 70.8 74.3 74.4 70.6 71.4 69.1 61.2 69.5 74.3 77.5 75.6 71.2 67.7 67.4 65.6 57.4 35.8 37.9 46 53.5 60 63.6 66.2 68.6 71.5 84.5 93.3 100.7 107.6 111.3 114.6 119.3 122 120.1 128.5 136.1 141.9 143.8 144.3 147.5 152.7 154.2 159.2 164.8 170.5 172.5 171.6 171.7 174.2 173.9 170.3 166.9 167.1 168.4 167 173 179.2 185.1 185.3 183.2 185.3 185.3 185 179.4 185.3 186.2 186 186.9 185.9 190.3 192.7 194 195 194.9 201.8 202.5 206.6 202.2 199.4 198.5 197.2 198.7 200.1 200.4 201.5 201.2 191.4 178.3 168.9 155.2 145.8 137 129 124.2 120.6 117.3 113 109.5 105 100.8 94.7 88.1 85 79.5 71.9 65.9 53.4 11.2 2.1 0.6 -0.5 -1.4 -1.4 -1.4 -1.4 -1.4 -1.4 -1.4 -1.4 -1.4 -1.4 -1.4 -1.4 4.3 21.6 50.8 63.2 70.7 81.6 89.3 91.6 96 103.7 115.5 119 119.6
-1.4 -1.4 -1.4 -1.4 -1.4 -1.4 -1.4 -1.4 -1.4 -1.4 -1.4 -1.4 -1.4 -1.4 -1.4 -1.4 -1.4 -1.4 -1.4 -1.4 -1.4 -1.4 -1.4 -1.4 -1.4 -1.4 -1.4 -1.4 -1.4 -1.4 -1.4 -1.4 -1.4 -1.4 -1.4 -1.4 -1.4 -1.4 -1.4 -1.4 -1.4 1.1 2.3 2.3 2.3 2.6 3.7 5.7 7.2 11.3 26 31.1 31.9 31.6 36.6 40.3 45 48.3 48.4 42.3 43.5 46.5 49.1 51.7 54.2 59.7 59.8 59.9 60.5 60.6 57.8 57.2 62 63.1 66.2 65 66.2 65.3 63.5 54.9 38.2 32.7 37.8 42.7 46.1 49.1 55.1 60.2 67.9 75.9 84.8 90.6 98 104.2 107 110.3 112.6 111.2 116.8 121.6 129.5 137.5 144.2 148.8 151.9 156.2 157.7 162.3 168.9 175.6 176.1 170.5 165.6 167.6 161.1 160.1 160.3 156.3 158.2 165.2 168.7 171.9 170.1 175.7 178.3 177.8 176 175.2 177.4 179.7 182 184 186.1 181.6 186.6 187.3 186.3 191.6 198.3 198.8 197.5 193.9 191.1 190.3 191.7 194.4 197.9 201.9 204.9 202.3 193.4 176.3 167.9 157 147.2 138.7 130.6 126.9 124 119.3 116 112.6 107.4 99.2 92.9 88.9 83.2 77.9 71.4 63.7 47.3 15.4 1.6 -1.4 -1.4 -1.4 -1.4 -1.4 -1.4 -1.4 -1.4 -1.4 -1.4 -1.4 -1.4 -1.4 4.2 17.5 49.2 59.4 68.5 72.1 81.6 90.1 94.2 100.1 106.9 115.4 120 121.2
-1.4 -1.4 -1.4 -1.4 -1.4 -1.4 -1.4 -1.4 -1.4 -1.4 -1.4 -1.4 -1.4 -1.4 -1.4 -1.4 -1.4 -1.4 -1.4 -1.4 -1.4 -1.4 -1.4 -1.4 -1.4 -1.4 -1.4 -1.4 -1.4 -1.4 -1.4 -1.4 -1.4 -1.4 -1.4 -1.4 -1.4 -1.4 1.2 3.9 9.1 14.8 9.9 2.3 2.3 2.3 3.8 2.4 2.7 6.8 20.5 25.9 28.6 27.7 29.7 32.5 36.3 40.4 43.5 42.7 36.4 40.3 39.4 39.6 38.6 40.1 44.5 47.9 51.7 50.4 47 50 50.2 51.2 55.4 65.6 70.6 68.4 62 51.7 35.9 27.2 35.4 35.5 36.5 38.9 46.4 54 62 69.8 78.7 82.6 89 97.6 103.5 107.2 106.7 108.3 112.6 120.4 128.2 135.4 141.1 146.4 151.9 155.2 159.1 164.1 170.5 172.7 173.7 172.1 170.8 164.1 162 153.3 153 151.8 150.9 159.3 162.2 163.5 165 169.2 170.5 169.6 169.9 171.2 170.3 174.4 177.8 180.1 180 175.8 182 182.3 183.1 186.1 191 193.4 190.8 185.8 184.3 184.4 187.6 192.3 196.1 200.6 202.5 198.6 186.5 175.2 166.1 154.9 143.4 137.9 130.9 127.6 126.7 121.7 117.4 114 108.9 100.8 93.1 86.6 81 77.5 74.1 60.2 47.9 13.6 -1.4 -1.4 -1.4 -1.4 -1.4 -1.4 -1.4 -1.4 -1.4 -1.4 -1.4 -1.4 -1.4 3.4 9.6 43.4 54.6 61.5 70.3 76.2 84 90 96 104.1 113.3 119.2 121.3 122.6
-1.4 -1.4 -1.4 -1.4 -1.4 -1.4 -1.4 -1.4 -1.4 -1.4 -1.4 -1.4 -1.4 -1.4 -1.4 -1.4 -1.4 -1.4 -1.4 -1.4 -1.4 -1.4 -1.4 -1.4 -1.4 -1.4 -1.4 -1.4 -1.4 -1.4 -1.4 -1.4 -1.4 -1.4 -1.4 -1.4 -1.4 -1.4 0.3 2.3 7.5 14.7 15.7 8.3 3.1 3.3 2.3 2.3 2.3 3.4 6.9 20.7 21.4 23.3 27.1 29.6 31.2 31.7 33.1 33.6 30.6 33 33.6 33 29.8 28.8 30.8 34.1 34.5 35.5 36.8 40.1 46.1 45.5 46.9 52.7 56.7 59.4 57.8 49.6 32.6 25.3 32.3 33.8 32.7 37.1 41.9 50.4 52.6 61 72.8 83.7 94.9 100.2 107.8 115.3 113.5 117.4 119.7 123.9 126.3 134.3 141.8 147.6 152.5 156.1 159.6 166.4 169.7 170.6 171.6 168.9 167.4 164.6 155 146.8 148 145.4 147.3 154.8 157.4 154.6 159 161.8 162.4 158 165.9 170.7 164.8 170.3 173.9 175.7 176.5 173.5 178.8 181.2 181.7 184 180.9 184.4 183.4 180.2 179.9 180.7 184.5 189 193.3 196.5 194.5 189.1 180 171.7 162.1 153.7 142.1 134.7 129.8 127.1 125.3 120.4 116.4 114.3 108.9 101.8 92.8 81.8 81 77 74.4 62.6 38.9 8.1 -1.4 -1.4 -1.4 -1.4 -1.4 -1.4 -1.4 -1.4 -1.4 -1.4 -1.4 -1.4 1.5 5.7 17.7 46.1 53 63.1 73.6 80.7 88.7 92.4 97.1 107.7 117.7 122.8 123.9 124.3
-1.4 -1.4 -1.4 -1.4 -1.4 -1.4 -1.4 -1.4 -1.4 -1.4 -1.4 -1.4 -1.4 -1.4 -1.4 -1.4 -1.4 -1.4 -1.4 -1.4 -1.4 -1.4 -1.4 -1.4 -1.4 -1.4 -1.4 -1.4 -1.4 -1.4 -1.4 -1.4 -1.4 -1.4 -1.4 -1.4 -1.4 -1.4 -1.4 2.3 7.2 7 8 4.6 3.8 -1.4 -1.4 -1.4 2.3 7.7 2.3 6.6 15.5 17 20.9 25.6 28.8 30.8 32.1 29.7 27.6 27 29.4 27.4 25.4 24.8 24.9 27.1 31.2 32.6 33.6 32.7 39.4 39 35.1 41.9 48.6 51.9 46.5 40.8 31.2 24.3 24.8 32.5 31.2 33.5 40.1 45.5 52.3 62.2 71.5 81.3 89.2 96.7 107.7 114.1 114.5 112.5 117.5 123.3 126.7 136.3 144.3 149.3 154.4 157.5 160 164 166.2 166.7 164.8 163.9 163.7 163.9 157.9 146.9 144.6 138.7 139.5 146.2 148 150.5 156.6 156.5 153.5 152 161.6 167.4 164.4 167.3 170.4 170.7 169.9 174.1 178.4 180.1 179.5 182.8 180.5 174.8 178.4 176.5 174.6 175.3 179.6 183.5 187.6 186.3 184.4 181.8 175.9 167.1 157.5 149.1 141.6 133.1 129.3 126.5 122.7 118.1 116.4 113.5 107.9 101.2 94.2 80.4 79.1 78.1 72.5 60.2 24.3 3.5 -1.4 -1.4 -1.4 -1.4 -1.4 -1.4 -1.4 -1.4 -1.4 -1.4 -1.4 0.4 2.2 6.6 27.8 46.9 51.2 61.6 75.7 86.1 91 95.3 98.9 113.5 118.4 123.7 126.5 131.6
-1.4 -1.4 -1.4 -1.4 -1.4 -1.4 -1.4 -1.4 -1.4 -1.4 -1.4 -1.4 -1.4 -1.4 -1.4 -1.4 -1.4 -1.4 -1.4 -1.4 -1.4 -1.4 -1.4 -1.4 -1.4 -1.4 -1.4 -1.4 -1.4 -1.4 -1.4 -1.4 -1.4 -1.4 -1.4 -1.4 -1.4 -1.4 -1.4 -1.4 -1.4 -1.4 3.4 3.1 -1.4 -1.4 -1.4 -1.4 -1.4 2.3 2.3 3.1 6.1 10.6 15.2 17.9 20.1 25.3 29 29.4 23.9 22 24.2 25.2 21.1 18.7 19.7 21 24 27.8 29.2 27.7 30.3 37.5 28.6 31.1 37 38.5 36.6 34.4 30.3 24.1 16.2 23.8 26.6 31.7 39.9 47.1 54.4 62.9 67.7 75.4 82 89 95.8 100.3 104.5 108.5 115.5 122.2 128 138.1 144.5 149.5 152.6 155.9 157.9 160.1 161.9 161.4 158.7 158.2 157.9 158.7 159.2 150.4 140.3 139.5 134.1 138 140.8 146.7 146.4 146.3 145.3 148.5 151.1 155.2 158.7 161.8 162.1 168.4 172.4 175.4 177 178.6 173.1 176.9 175.7 173.1 168.6 170.4 171.1 172 173.1 177.5 178.1 176.6 175 172.8 168 161.6 152.6 144.9 139.9 132 127.1 125.6 121.3 119.4 114.5 110.5 107.2 101.8 93 84.3 79.4 75.3 67.4 46.1 13.5 -1.4 -1.4 -1.4 -1.4 -1.4 -1.4 -1.4 -1.4 -1.4 -1.4 -1.4 -1.4 1.6 4.3 7.2 29.4 45.4 53.4 64.4 73.6 87.6 92.6 99.4 109.2 112.7 121.2 125.9 130.8 140.3
-1.4 -1.4 -1.4 -1.4 -1.4 -1.4 -1.4 -1.4 -1.4 -1.4 -1.4 -1.4 -1.4 -1.4 -1.4 -1.4 -1.4 -1.4 -1.4 -1.4 -1.4 -1.4 -1.4 -1.4 -1.4 -1.4 -1.4 -1.4 -1.4 -1.4 -1.4 -1.4 -1.4 -1.4 -1.4 -1.4 -1.4 -1.4 -1.4 -1.4 -1.4 -1.4 -1.3 -1.4 -1.4 -1.4 -1.4 -1.4 -1.4 1.2 2.3 3.8 4.4 7.2 12 15.2 16.1 17.8 22.2 27.3 22.9 20.4 21.7 22.9 21.1 17 15.9 14.8 17.7 19.1 21 22.1 25.3 24.2 21.3 24.3 27.2 27.5 28.6 29.2 27.5 22.7 15.5 19.3 24.7 28.6 36.6 47.9 56.2 63.4 68 71.6 76 84.6 91.1 96.7 102.2 108.3 115.2 119.8 122.3 131.5 139.9 141.8 145.7 149.4 153.1 155.5 156.2 155.6 152.5 150.5 150.9 149.2 150.1 143.4 136.8 138.3 127.4 131.4 138.2 141.2 141.3 142.3 144.7 148.4 143.4 147.6 149.9 154.6 165.3 166.9 168 169.9 169.7 162.3 167.4 169.6 169.7 169.7 167.4 160 167 165.8 167.7 167.5 166.5 166 165 162.8 159.5 154.3 146 140.7 135.9 129.1 125.1 123.6 120.1 118.8 113.9 107.8 105.4 100.9 93.6 87.2 77.9 73.1 56.7 15.8 3.6 -1.4 -1.4 -1.4 -1.4 -1.4 -1.4 -1.4 -1.4 -1.4 -1.4 -1.4 -1.4 1.9 5.9 7.3 15.4 28.4 55.6 67.6 77.4 78.8 94.5 101.9 113.7 113.1 120.9 128.5 133.8 145.1
-1.4 -1.4 -1.4 -1.4 -1.4 -1.4 -1.4 -1.4 -1.4 -1.4 -1.4 -1.4 -1.4 -1.4 -1.4 -1.4 -1.4 -1.4 -1.4 -1.4 -1.4 -1.4 -1.4 -1.4 -1.4 -1.4 -1.4 -1.4 -1.4 -1.4 -1.4 -1.4 -1.4 -1.4 -1.4 -1.4 -1.4 -1.4 -1.4 -1.4 -1.4 -1.4 -1.4 -1.4 -1.4 -1.4 -1.4 -1.4 -1.4 1.8 2.6 4 4.9 6.8 7.2 8.9 12.8 11.9 17.2 24.7 21 18.9 17.1 17 15.7 18.3 14.3 9.2 10.6 15.1 17.3 19.8 22.4 16.9 15.8 19.1 21.9 22.1 20.1 22.3 22.2 15.8 13.2 17.2 21.1 26.1 33 42.8 51.7 59.6 65.8 69.9 73 82.9 88.9 94.5 97.7 102.2 110.2 113.6 114.3 118 125.4 131.3 136.7 144.4 147.2 148.9 150.4 148.2 145.1 141.4 142.3 142.9 140.6 137 134.5 132.1 127.5 123.3 128.1 134.6 135.5 136 137.9 139.9 141.1 143.6 147.8 152.8 158.8 169.1 161.9 162.3 160.7 150.4 156.8 160.5 162.5 162.9 161.7 155.4 157.7 159.1 161.4 161.8 160.4 159.1 157.9 156.2 152 146 136.3 135.5 133.4 127.5 123.7 121.3 118.6 117.1 112.2 106.5 103.1 98.3 94.2 86.2 71.5 58.7 20.7 6.6 -1.4 -1.4 -1.4 -1.4 -1.4 -1.4 -1.4 -1.4 -1.4 -1.4 -1.4 -1.4 -1.4 2.2 5.5 8.2 27.5 35.5 55.8 73.3 79.2 88 86.5 102 114.2 117.3 121.6 131 138.6 146.9
-1.4 -1.4 -1.4 -1.4 -1.4 -1.4 -1.4 -1.4 -1.4 -1.4 -1.4 -1.4 -1.4 -1.4 -1.4 -1.4 -1.4 -1.4 -1.4 -1.4 -1.4 -1.4 -1.4 -1.4 -1.4 -1.4 -1.4 -1.4 -1.4 -1.4 -1.4 -1.4 -1.4 -1.4 -1.4 -1.4 -1.4 -1.4 -1.4 -1.4 -1.4 -1.4 -1.4 -1.4 -1.4 -1.4 -1.4 -1.4 -1.4 1.3 2.4 4.2 4 6.4 4.5 3.5 7.2 5.6 7.6 18.3 16.3 16.6 9 10.2 7.4 6.8 5.7 5.4 7.2 10.4 15.2 20.5 21.5 9.6 8.9 12.2 17.4 17.2 16.6 14.2 11.2 5.8 11.4 15.4 18.9 22.6 29.3 36.6 43.9 50.9 58.6 63.4 68 76.7 83.9 87.2 91.5 94.2 100.7 102.1 104.1 112.4 113.3 118.1 122.6 128.3 134.6 138.9 140.5 141.4 138.4 134.6 135.6 134.8 133.6 131.1 125.7 123.5 123.5 121 124.7 130.2 132.3 134.3 134.3 137.1 136 142 146.9 148.7 145.4 149.7 148.7 146.7 147.6 142.4 143.7 147.9 152.9 155.5 155.2 151.3 153.3 156.8 156.9 155.1 154.4 153.2 151.8 147.8 141.7 134 131.9 131.3 128.3 124.8 122.5 120.1 117 112.9 107.9 102 98.5 94.2 93.5 83.8 60.7 23.4 10.6 -1.4 -1.4 -1.4 -1.4 -1.4 -1.4 -1.4 -1.4 -1.4 -1.4 -1.4 -1.4 -1.4 -1.4 2.4 4.4 9.9 29.3 36.6 60.8 76.6 84.7 89.2 96 94.8 115.5 116.2 121.3 137.8 145 151.3
-1.4 -1.4 -1.4 -1.4 -1.4 -1.4 -1.4 -1.4 -1.4 -1.4 -1.4 -1.4 -1.4 -1.4 -1.4 -1.4 -1.4 -1.4 -1.4 -1.4 -1.4 -1.4 -1.4 -1.4 -1.4 -1.4 -1.4 -1.4 -1.4 -1.4 -1.4 -1.4 -1.4 -1.4 -1.4 -1.4 -1.4 -1.4 -1.4 -1.4 -1.4 -1.4 -1.4 -1.4 -1.4 -1.4 -1.4 -1.4 -1.4 -1.4 -1.4 -1.4 1.7 1.9 4.4 2.3 3.8 4.8 4.1 6 16.9 4.9 3.5 4.4 3 2.3 1.7 3.3 6.1 7.9 12.5 19.8 16.9 8 7.1 6.7 7.4 9.3 13 10.2 7.2 7.5 10.3 21.3 21.5 22.5 27.6 33.9 40.6 46.7 55.1 59 64.4 70.4 76.8 83.7 85.4 87.2 87.9 92.2 94 100.5 103.3 106.8 113.1 120.7 125.4 128.1 130.7 131.9 130.3 125.3 126.2 131.2 131.8 128.1 124.1 119.1 120.8 115.2 119.7 125.4 132 134.7 131.6 129.2 131.7 132.7 137.8 140.4 138.3 133.2 135.4 136.5 137.9 134.4 136.5 140.2 144.4 147.2 147.3 147.2 150.3 151.1 151.5 150.7 149.2 146.8 142.8 135.2 133.2 129.3 126.3 125.4 123 123.1 121.1 118.1 114.1 109.5 101.7 95.9 92.6 91.8 88.9 75.5 27.6 14.5 -1.4 -1.4 -1.4 -1.4 -1.4 -1.4 -1.4 -1.4 -1.4 -1.4 -1.4 -1.4 -1.4 -1.4 -1.4 1.1 4.3 10.5 28.8 38.1 57.4 78.9 88.3 89.2 100.6 108.2 116.6 115.3 113.4 135.9 147.3 156.8
-1.4 -1.4 -1.4 -1.4 -1.4 -1.4 -1.4 -1.4 -1.4 -1.4 -1.4 -1.4 -1.4 -1.4 -1.4 -1.4 -1.4 -1.4 -1.4 -1.4 -1.4 -1.4 -1.4 -1.4 -1.4 -1.4 -1.4 -1.4 -1.4 -1.4 -1.4 -1.4 -1.4 -1.4 -1.4 -1.4 -1.4 -1.4 -1.4 -1.4 -1.4 -1.4 -1.4 -1.4 -1.4 -1.4 -1.4 -1.4 -1.4 -1.4 -1.4 -1.4 -1.4 -1.4 0.1 -1.4 0.5 1.1 1.4 2.3 7.6 2.3 1.8 3.4 1 0.2 2.3 2.8 4.7 5.7 9.1 16.4 15.2 7.7 6 5.1 4.9 5.6 6.4 6.3 4 4.7 8.8 10.6 18.4 24.3 29.4 34.8 42.8 47.5 52 56.5 63.1 69.5 76 84.5 83.6 85.5 87.5 90.1 87.7 96.5 96.5 100.9 104.5 106.6 110.5 115.2 118.6 118.1 118.2 117.5 119.8 121.5 119.6 116.5 111.6 104.2 113.6 109.4 117.8 118.8 123 123.3 118.8 123.8 125.6 125.4 126.7 130.9 128.4 125.4 128.7 135.9 138.7 131.1 131.7 135.3 139.4 142.5 142.7 142.7 143.6 146.2 146.2 146.9 144.6 137.4 133.9 132 128.6 122.8 120.8 119.7 119.3 119.4 116.8 113.4 110.5 103.8 97.3 93.8 89.5 86.3 74.6 36.1 21.6 -1.4 -1.4 -1.4 -1.4 -1.4 -1.4 -1.4 -1.4 -1.4 -1.4 -1.4 -1.4 -1.4 -1.4 -1.4 -1.4 -1.4 2.1 7.7 23.9 44.2 54.4 78.9 89.1 90.7 101 110.1 111.5 111.3 113.5 128.9 148.4 159.4
-1.4 -1.4 -1.4 -1.4 -1.4 -1.4 -1.4 -1.4 -1.4 -1.4 -1.4 -1.4 -1.4 -1.4 -1.4 -1.4 -1.4 -1.4 -1.4 -1.4 -1.4 -1.4 -1.4 -1.4 -1.4 -1.4 -1.4 -1.4 -1.4 -1.4 -1.4 -1.4 -1.4 -1.4 -1.4 -1.4 -1.4 -1.4 -1.4 -1.4 -1.4 -1.4 -1.4 -1.4 -1.4 -1.4 -1.4 -1.4 -1.4 -1.4 -1.4 -1.4 -1.4 -1.4 -1.4 -1.4 -1.4 -1.4 -1.4 -1.4 4 -1.4 -1.4 -1.4 -1.4 -1.4 -1.4 -1.4 -1.4 2.4 5.7 13.8 15.3 11.8 5.5 -1.4 2.7 3.8 3.9 4.6 4.6 5.3 7.1 10.1 22.2 27.6 30.3 34.8 43 50.6 56.1 62.1 65.7 69.7 72.6 79.4 83.6 84.6 84.3 86.4 84.6 85.2 93.1 97.1 99.9 101.9 104.2 105.4 106.4 108 110.9 109.5 107 104 103.7 102.6 101.5 92.8 101 105.2 110.5 107.9 110.9 111 119.6 125.2 124.1 119.9 116.9 120.6 118.3 116.5 121.3 124.4 125.4 122.2 127.8 131 136 140.2 137.4 138.2 131.9 141 139.6 140.6 133.6 132.1 130.9 126.1 121.2 116.6 116.3 114.2 112.7 112.5 108.6 106.3 104.6 95.9 92.4 88.2 85.4 82.6 50.7 28 11.6 -1.4 -1.4 -1.4 -1.4 -1.4 -1.4 -1.4 -1.4 -1.4 -1.4 -1.4 -1.4 -1.4 -1.4 -1.4 -1.4 -1.4 1.3 5.7 16.8 44.5 57 77.4 88 91.5 101.6 111.9 109.2 110.8 113 121.5 152.8 163.6
-1.4 -1.4 -1.4 -1.4 -1.4 -1.4 -1.4 -1.4 -1.4 -1.4 -1.4 -1.4 -1.4 -1.4 -1.4 -1.4 -1.4 -1.4 -1.4 -1.4 -1.4 -1.4 -1.4 -1.4 -1.4 -1.4 -1.4 -1.4 -1.4 -1.4 -1.4 -1.4 -1.4 -1.4 -1.4 -1.4 -1.4 -1.4 -1.4 -1.4 -1.4 -1.4 -1.4 -1.4 -1.4 -1.4 -1.4 -1.4 -1.4 -1.4 -1.4 -1.4 -1.4 -1.4 -1.4 -1.4 -1.4 -1.4 -1.4 -1.4 -0.1 -1.4 -1.4 -1.4 -1.4 -1.4 -1.4 -1.4 -1.4 -1.4 3.2 7.4 15 17.7 5.9 -1.4 2.3 2.6 3.9 2.3 3.5 4.7 7.5 13.4 21.9 29.3 30.6 38.7 44.6 50.2 53.2 60 66.9 71.1 74.8 80.8 85.1 87 83.5 81.2 83.6 81.5 80.1 88.3 92.9 96.6 100.9 102 102.8 103.3 103.3 101.1 97.3 92.2 92.4 94 89.1 82.6 83.3 95.2 99.1 100.1 104.5 102.6 113.3 121.3 117.3 116 111 111.8 110.2 110.8 113.5 114.4 116.6 119.6 123.7 127.9 132.7 135.9 132 132.9 126.7 132.6 131.8 131 130.3 128.2 125.3 118.6 113.8 113.5 114.7 112.4 110.4 107.1 102.3 99 96.9 89.9 88 85.6 82.3 79.4 49.5 20 -1.4 -1.4 -1.4 -1.4 -1.4 -1.4 -1.4 -1.4 -1.4 -1.4 -1.4 -1.4 -1.4 -1.4 -1.4 -1.4 -1.4 -1.4 1 4.8 12.7 37.7 56.7 77.5 91.7 96.2 103.8 114.1 111.8 112.4 126.6 148.7 154.5 164.5
-1.4 -1.4 -1.4 -1.4 -1.4 -1.4 -1.4 -1.4 -1.4 -1.4 -1.4 -1.4 -1.4 -1.4 -1.4 -1.4 -1.4 -1.4 -1.4 -1.4 -1.4 -1.4 -1.4 -1.4 -1.4 -1.4 -1.4 -1.4 -1.4 -1.4 -1.4 -1.4 -1.4 -1.4 -1.4 -1.4 -1.4 -1.4 -1.4 -1.4 -1.4 -1.4 -1.4 -1.4 -1.4 -1.4 -1.4 -1.4 -1.4 -1.4 -1.4 -1.4 -1.4 -1.4 -1.4 -1.4 -1.4 -1.4 -1.4 -1.4 -1.4 -1.4 -1.4 -1.4 -1.4 -1.4 -1.4 -1.4 -1.4 -1.4 -1.4 -1.4 4.3 10.6 4.9 2 1 0.2 -1.4 3.6 3.5 5.4 7.4 14.8 22.5 27.9 30.9 34 37.7 43.1 51 58.2 62.9 67.5 71.1 77.1 84.4 92.3 85.6 81.9 81.9 77.8 76.1 80.6 85.4 87.3 94.3 100.2 101.5 101 98.5 96.3 88.3 86.1 80.6 82.1 85.2 79.3 83.8 89.8 92.2 94.9 98.4 97.7 105.1 112.1 112.7 108.8 110.7 107.6 108 109.3 108.3 106.5 105.2 111.2 115.7 121.5 127.5 131.7 128 126.3 125.8 127.9 129 127.8 127.2 124.3 118.1 111.5 108.8 109.6 110 109 105.6 101 97.3 94.4 90.8 85.9 83.6 81.9 78.4 73.2 31 7.7 -1.4 -1.4 -1.4 -1.4 -1.4 -1.4 -1.4 -1.4 -1.4 -1.4 -1.4 -1.4 -1.4 -1.4 -1.4 -1.4 -1.4 -1.4 0.9 4.5 11.3 36.1 55.6 78.9 93.7 99.6 110 117 116.3 117.5 143.8 155.6 164.2 165.2
-1.4 -1.4 -1.4 -1.4 -1.4 -1.4 -1.4 -1.4 -1.4 -1.4 -1.4 -1.4 -1.4 -1.4 -1.4 -1.4 -1.4 -1.4 -1.4 -1.4 -1.4 -1.4 -1.4 -1.4 -1.4 -1.4 -1.4 -1.4 -1.4 -1.4 -1.4 -1.4 -1.4 -1.4 -1.4 -1.4 -1.4 -1.4 -1.4 -1.4 -1.4 -1.4 -1.4 -1.4 -1.4 -1.4 -1.4 -1.4 -1.4 -1.4 -1.4 -1.4 -1.4 -1.4 -1.4 -1.4 -1.4 -1.4 -1.4 -1.4 -1.4 -1.4 -1.4 -1.4 -1.4 -1.4 -1.4 -1.4 -1.4 -1.4 -1.4 -1.4 1.7 1.9 2 0.6 -1.4 -1.4 -1.4 3.4 5.3 6.1 7.1 14 18.4 24.5 28.9 37.1 41.5 41.1 46.2 52.2 58.7 60.4 65.4 68.3 75.3 80.3 76.5 87.3 88.1 78.2 75.2 73.7 83.3 82 82.1 91.5 95.9 90.9 87.1 83.4 79 76.4 73.9 75.8 80.6 76.1 73.7 80.5 84.1 86 89.1 92.4 98.1 104.1 106.5 98.6 102.5 99.8 104.3 104.4 100.8 96.9 95.6 102.2 106.1 112.9 119.1 124.9 125.7 118.8 119.4 123.1 125 123.4 119.4 114.9 110.3 106.4 104.8 104.6 103 100.7 98.7 96.3 92.4 90.6 87.7 82 81.7 78.8 72.3 41 14.9 -1.4 -1.4 -1.4 -1.4 -1.4 -1.4 -1.4 -1.4 -1.4 -1.4 -1.4 -1.4 -1.4 -1.4 -1.4 -1.4 -1.4 -1.4 -1.4 1.6 4.5 10.1 38 58.1 84.9 99.7 106.5 115.5 120.2 121.2 132.6 151.5 162.8 168 172.3
-1.4 -1.4 -1.4 -1.4 -1.4 -1.4 -1.4 -1.4 -1.4 -1.4 -1.4 -1.4 -1.4 -1.4 -1.4 -1.4 -1.4 -1.4 -1.4 -1.4 -1.4 -1.4 -1.4 -1.4 -1.4 -1.4 -1.4 -1.4 -1.4 -1.4 -1.4 -1.4 -1.4 -1.4 -1.4 -1.4 -1.4 -1.4 -1.4 -1.4 -1.4 -1.4 -1.4 -1.4 -1.4 -1.4 -1.4 -1.4 -1.4 -1.4 -1.4 -1.4 -1.4 -1.4 -1.4 -1.4 -1.4 -1.4 -1.4 -1.4 -1.4 -1.4 -1.4 -1.4 -1.4 -1.4 -1.4 -1.4 -1.4 -1.4 -1.4 -1.4 -1.4 -1.4 -1.4 -1.4 -1.4 -0.8 1.1 1.6 4.5 6.5 7.6 12.7 18.2 21.7 26.3 31.6 36.8 38.6 45.1 50.3 55 60.4 63.6 67.1 67.3 69.3 73.6 79.8 81.9 76.2 71.9 69.6 75.2 79 73.2 76.4 79.1 80.2 78.5 75.4 73 71.7 71.1 67.8 74.2 74.9 68.2 74 77.5 80.7 82.8 85.9 88.9 90 92.2 94.5 96.2 95.4 98.9 97.7 93.8 91.3 90.3 96.6 98.8 102.1 107.1 114.1 116.5 113.1 111 117.5 120.4 118.5 112.9 109.4 106.5 102.1 100.1 98.9 97.7 96.3 91.9 89.6 86.6 85.1 82.6 79.6 75.9 73.5 51.5 19.9 7.8 -1.4 -1.4 -1.4 -1.4 -1.4 -1.4 -1.4 -1.4 -1.4 -1.4 -1.4 -1.4 -1.4 -1.4 -1.4 -1.4 -1.4 -1.4 1 2.5 5 12.2 43 62.5 89.8 101.9 108.9 120.9 127.9 125.5 142 159.1 171.1 170.5 174.9
-1.4 -1.4 -1.4 -1.4 -1.4 -1.4 -1.4 -1.4 -1.4 -1.4 -1.4 -1.4 -1.4 -1.4 -1.4 -1.4 -1.4 -1.4 -1.4 -1.4 -1.4 -1.4 -1.4 -1.4 -1.4 -1.4 -1.4 -1.4 -1.4 -1.4 -1.4 -1.4 -1.4 -1.4 -1.4 -1.4 -1.4 -1.4 -1.4 -1.4 -1.4 -1.4 -1.4 -1.4 -1.4 -1.4 -1.4 -1.4 -1.4 -1.4 -1.4 -1.4 -1.4 -1.4 -1.4 -1.4 -1.4 -1.4 -1.4 -1.4 -1.4 -1.4 -1.4 -1.4 -1.4 -1.4 -1.4 -1.4 -1.4 -1.4 -1.4 -1.4 -1.4 -1.4 -1.4 -1.4 -1.4 -1.4 0.5 1.2 1.8 4.9 8.4 14.7 18.6 20.4 22.1 26.6 31.7 34.1 39.5 42.4 44.8 51.1 61 65 68.3 65.8 71.4 70.1 73 73.8 65 60.6 62.8 67.1 63.4 63 65.1 64.5 65.9 68.3 69.3 71 70.1 64.2 68.6 66.6 62 70.3 74 76.9 78.3 80.5 85.4 83.9 86.8 90.5 90.6 85.9 85.3 85.8 86.3 88.9 86.8 89.5 92.1 94.7 98.9 102.6 105.5 101.8 104.8 109.1 112.5 112.8 111.2 105.9 102.6 100.1 98.5 97.2 93.1 91.7 87.4 83.8 78.2 77.9 75.4 73.2 71.3 55.4 22 9.1 3.1 -1.4 -1.4 -1.4 -1.4 -1.4 -1.4 -1.4 -1.4 -1.4 -1.4 -1.4 -1.4 -1.4 -1.4 -1.4 -1.4 -1.4 0.7 3.3 4.2 6.6 19 48 72.3 93.2 102.9 110 123.5 133.4 130.4 152.1 166.4 173.3 173.6 178.2
-1.4 -1.4 -1.4 -1.4 -1.4 -1.4 -1.4 -1.4 -1.4 -1.4 -1.4 -1.4 -1.4 -1.4 -1.4 -1.4 -1.4 -1.4 -1.4 -1.4 -1.4 -1.4 -1.4 -1.4 -1.4 -1.4 -1.4 -1.4 -1.4 -1.4 -1.4 -1.4 -1.4 -1.4 -1.4 -1.4 -1.4 -1.4 -1.4 -1.4 -1.4 -1.4 -1.4 -1.4 -1.4 -1.4 -1.4 -1.4 -1.4 -1.4 -1.4 -1.4 -1.4 -1.4 -1.4 -1.4 -1.4 -1.4 -1.4 -1.4 -1.4 -1.4 -1.4 -1.4 -1.4 -1.4 -1.4 -1.4 -1.4 -1.4 -1.4 -1.4 -1.4 -1.4 -1.4 -1.4 -1.4 -1.4 -0.4 -1.4 -1.4 1.5 6.1 13.5 18.1 16.9 19.7 25.1 31.3 33.5 35.8 38.6 40.9 45.7 49.5 53.7 58.8 60.4 67.2 70.8 72.5 73.1 61.1 56 56 55.5 56.2 53.6 58.7 57.1 60.5 65.1 66.1 63.6 63.7 64.7 65 61.3 59.1 67.8 70.5 72.1 73.5 75.7 78 80.2 82.8 83.8 82.6 81 81.1 82 84.9 88.4 84.7 86 87.7 89 91.8 94.6 95.6 93.8 99.3 101.8 104.9 106.4 104.4 102.9 100.4 98.2 97.6 94.9 87.4 85 82.6 76.8 70.8 71.2 69.1 65.8 60 26.2 9 4.3 -1.4 -1.4 -1.4 -1.4 -1.4 -1.4 -1.4 -1.4 -1.4 -1.4 -1.4 -1.4 -1.4 -1.4 -1.4 -1.4 -1.4 -1.4 1.1 3.8 5.6 9.1 33.4 53.8 74.6 98.2 107 114.6 128.5 133.1 134.5 158.7 174.1 175.5 178.3 185.2
-1.4 -1.4 -1.4 -1.4 -1.4 -1.4 -1.4 -1.4 -1.4 -1.4 -1.4 -1.4 -1.4 -1.4 -1.4 -1.4 -1.4 -1.4 -1.4 -1.4 -1.4 -1.4 -1.4 -1.4 -1.4 -1.4 -1.4 -1.4 -1.4 -1.4 -1.4 -1.4 -1.4 -1.4 -1.4 -1.4 -1.4 -1.4 -1.4 -1.4 -1.4 -1.4 -1.4 -1.4 -1.4 -1.4 -1.4 -1.4 -1.4 -1.4 -1.4 -1.4 -1.4 -1.4 -1.4 -1.4 -1.4 -1.4 -1.4 -1.4 -1.4 -1.4 -1.4 -1.4 -1.4 -1.4 -1.4 -1.4 -1.4 -1.4 -1.4 -1.4 -1.4 -1.4 -1.4 -1.4 -1.4 -1.4 -1.4 -1.4 -1.4 -1.4 2.3 6.2 6.4 9.3 12.9 20.6 24.4 29.7 33.5 38.3 41.2 40.5 42.5 47.1 52.8 54.8 59.6 65.7 66.6 57.9 56.9 52.6 50.3 49.3 47.4 46.5 47.4 49.8 53.5 56.3 57.3 59.7 63.1 65.8 67.3 64.9 56.2 66.6 69.9 71.1 71.9 72.5 73.9 76.2 78.7 80.8 77.7 79 80.9 79.1 83 82.8 80.6 83.6 85.2 85.7 84.7 86.9 87.5 90.9 93.7 96.5 98.4 99.6 100.6 99.9 98.7 96.1 92.5 89.4 84.2 81.4 77.1 71.4 67.5 67.7 64.5 56.8 47 11.4 5.7 2.4 -1.4 -1.4 -1.4 -1.4 -1.4 -1.4 -1.4 -1.4 -1.4 -1.4 -1.4 -1.4 -1.4 -1.4 -1.4 -1.4 -1.4 -1.4 1.1 4.2 7 10.8 22.3 46 67.7 100.5 110.4 117.4 133 134.2 138.3 159.7 175.2 177.7 178.7 186.5
-1.4 -1.4 -1.4 -1.4 -1.4 -1.4 -1.4 -1.4 -1.4 -1.4 -1.4 -1.4 -1.4 -1.4 -1.4 -1.4 -1.4 -1.4 -1.4 -1.4 -1.4 -1.4 -1.4 -1.4 -1.4 -1.4 -1.4 -1.4 -1.4 -1.4 -1.4 -1.4 -1.4 -1.4 -1.4 -1.4 -1.4 -1.4 -1.4 -1.4 -1.4 -1.4 -1.4 -1.4 -1.4 -1.4 -1.4 -1.4 -1.4 -1.4 -1.4 -1.4 -1.4 -1.4 -1.4 -1.4 -1.4 -1.4 -1.4 -1.4 -1.4 -1.4 -1.4 -1.4 -1.4 -1.4 -1.4 -1.4 -1.4 -1.4 -1.4 -1.4 -1.4 -1.4 -1.4 -1.4 -1.4 -1.4 -1.4 -1.4 -1.4 -1.4 1.5 2.3 2.8 3.9 7.7 12.5 18.9 24 31.2 34.6 36.6 36.7 39.3 42.4 48.6 51 52.3 50.5 53.5 54.4 50.4 47.4 47.8 44.1 40.3 40.8 39.5 40.3 40.8 44.3 46.8 51.2 56.4 61.5 66.9 62 54.2 63.4 64.5 66.2 67.9 67.9 69.8 72 74.4 76.1 71.9 75 75.6 74.7 76.3 72.7 78.4 79.9 80.9 80 75.8 78.7 79.2 85.2 88.6 91.5 93.5 95.5 97.2 97.4 98.6 90.7 86.3 84.1 80.8 76.7 71.2 68.4 64.3 65.8 65.4 53.2 26.4 5.6 2.3 -1.4 -1.4 -1.4 -1.4 -1.4 -1.4 -1.4 -1.4 -1.4 -1.4 -1.4 -1.4 -1.4 -1.4 -1.4 -1.4 -1.4 -1.4 -1.4 1 4.3 6.9 20.5 41.4 48.5 60.9 100.6 112.2 119.6 135.8 137.9 148.2 162.5 174.7 179.2 185.5 186.2
-1.4 -1.4 -1.4 -1.4 -1.4 -1.4 -1.4 -1.4 -1.4 -1.4 -1.4 -1.4 -1.4 -1.4 -1.4 -1.4 -1.4 -1.4 -1.4 -1.4 -1.4 -1.4 -1.4 -1.4 -1.4 -1.4 -1.4 -1.4 -1.4 -1.4 -1.4 -1.4 -1.4 -1.4 -1.4 -1.4 -1.4 -1.4 -1.4 -1.4 -1.4 -1.4 -1.4 -1.4 -1.4 -1.4 -1.4 -1.4 -1.4 -1.4 -1.4 -1.4 -1.4 -1.4 -1.4 -1.4 -1.4 -1.4 -1.4 -1.4 -1.4 -1.4 -1.4 -1.4 -1.4 -1.4 -1.4 -1.4 -1.4 -1.4 -1.4 -1.4 -1.4 -1.4 -1.4 -1.4 -1.4 -1.4 -1.4 -1.4 -1.4 -1.4 -1.4 1.1 1.2 1.9 3.3 5.8 10.8 20.2 24.7 29.3 30.5 30.5 33.1 33.1 37.4 42.8 44.2 43.8 42.1 41.5 41.6 35.9 34.5 35.3 32.3 31.8 30.1 29.5 29.4 31.7 34.2 37.9 41 45.3 50.8 53.4 52 56.9 59 61.3 63.7 64.8 66.1 67.4 66.8 69.9 69.5 70.2 71.1 70.2 70.1 70 71.7 72.4 73.4 71.2 71.3 72.6 75.1 78.9 82.3 86.8 88.8 91.5 92.9 95.1 93.9 88.5 82.2 78.5 75 70.7 68.7 66.4 65.7 65.4 60.4 49.5 7.4 2.6 -1.4 -1.4 -1.4 -1.4 -1.4 -1.4 -1.4 -1.4 -1.4 -1.4 -1.4 -1.4 -1.4 -1.4 -1.4 -1.4 -1.4 -1.4 -1.4 -1.4 1.5 5 8.5 30.4 48.5 57 79.6 105.2 114.9 125.3 138.3 137.1 150.8 164.4 177.9 180.1 184.4 188.6
-1.4 -1.4 -1.4 -1.4 -1.4 -1.4 -1.4 -1.4 -1.4 -1.4 -1.4 -1.4 -1.4 -1.4 -1.4 -1.4 -1.4 -1.4 -1.4 -1.4 -1.4 -1.4 -1.4 -1.4 -1.4 -1.4 -1.4 -1.4 -1.4 -1.4 -1.4 -1.4 -1.4 -1.4 -1.4 -1.4 -1.4 -1.4 -1.4 -1.4 -1.4 -1.4 -1.4 -1.4 -1.4 -1.4 -1.4 -1.4 -1.4 -1.4 -1.4 -1.4 -1.4 -1.4 -1.4 -1.4 -1.4 -1.4 -1.4 -1.4 -1.4 -1.4 -1.4 -1.4 -1.4 -1.4 -1.4 -1.4 -1.4 -1.4 -1.4 -1.4 -1.4 -1.4 -1.4 -1.4 -1.4 -1.4 -1.4 -1.4 -1.4 -1.4 -1.4 -0.5 0 0.5 1 1.6 5.5 7.9 14.9 21.5 24.1 23.4 25.5 26.3 29.8 29.7 28.5 27.9 29.2 29.7 29.9 27.4 25.9 24.8 23.7 22.4 22.8 22.6 23.2 24.2 26 28.6 32.7 34.8 36.3 43.7 51.9 52.7 54 57.4 59.7 59.4 57.4 58.9 59.3 60.5 61.2 59.7 61.2 60.8 59.6 59.3 62.1 63.8 66.3 68 68.6 68.3 70.6 74.7 77.3 80.4 83.6 85.2 87.3 88.2 88.9 88.1 83 75.7 71.1 68.7 67.3 63.8 63.2 59.4 54.6 39.1 5 -1.4 -1.4 -1.4 -1.4 -1.4 -1.4 -1.4 -1.4 -1.4 -1.4 -1.4 -1.4 -1.4 -1.4 -1.4 -1.4 -1.4 -1.4 -1.4 -1.4 -1.4 2.8 6 12.3 32.8 49.3 59.3 85.9 108.4 117.8 130.4 131.9 139.2 155.8 168.4 178.4 180.4 189.2 190.1
-1.4 -1.4 -1.4 -1.4 -1.4 -1.4 -1.4 -1.4 -1.4 -1.4 -1.4 -1.4 -1.4 -1.4 -1.4 -1.4 -1.4 -1.4 -1.4 -1.4 -1.4 -1.4 -1.4 -1.4 -1.4 -1.4 -1.4 -1.4 -1.4 -1.4 -1.4 -1.4 -1.4 -1.4 -1.4 -1.4 -1.4 -1.4 -1.4 -1.4 -1.4 -1.4 -1.4 -1.4 -1.4 -1.4 -1.4 -1.4 -1.4 -1.4 -1.4 -1.4 -1.4 -1.4 -1.4 -1.4 -1.4 -1.4 -1.4 -1.4 -1.4 -1.4 -1.4 -1.4 -1.4 -1.4 -1.4 -1.4 -1.4 -1.4 -1.4 -1.4 -1.4 -1.4 -1.4 -1.4 -1.4 -1.4 -1.4 -1.4 -1.4 -1.4 -1.4 -1.4 -1.4 -1.4 -1.4 -1.4 1.8 3.7 7.8 15.8 17.7 19.7 20.2 20.3 22.7 21.5 23.6 23.2 22.5 21.5 21.6 20.7 19.5 17.7 15.4 15.7 17.1 18.2 17.9 19.7 21.6 23 24.7 28.6 34.6 39.4 42.7 45.4 47.9 50.1 52.4 56 55.1 55.3 54.3 55.6 55.4 55.8 54.9 56 57 56 60.2 61.9 62.4 64.9 65.6 67.1 70.3 73.3 74.2 75.9 78.5 81.3 83.4 85.5 89.9 86.6 77.6 70.2 69 66.9 64.3 57.5 57.3 55.2 50.1 24.5 4.6 -1.4 -1.4 -1.4 -1.4 -1.4 -1.4 -1.4 -1.4 -1.4 -1.4 -1.4 -1.4 -1.4 -1.4 -1.4 -1.4 -1.4 -1.4 -1.4 -1.4 4.8 9.2 15.2 24.6 42.8 69.4 79.2 96.4 108.5 121.5 135.4 132.9 144.9 156.8 167.7 175 180.7 182.7 186.7
-1.4 -1.4 -1.4 -1.4 -1.4 -1.4 -1.4 -1.4 -1.4 -1.4 -1.4 -1.4 -1.4 -1.4 -1.4 -1.4 -1.4 -1.4 -1.4 -1.4 -1.4 -1.4 -1.4 -1.4 -1.4 -1.4 -1.4 -1.4 -1.4 -1.4 -1.4 -1.4 -1.4 -1.4 -1.4 -1.4 -1.4 -1.4 -1.4 -1.4 -1.4 -1.4 -1.4 -1.4 -1.4 -1.4 -1.4 -1.4 -1.4 -1.4 -1.4 -1.4 -1.4 -1.4 -1.4 -1.4 -1.4 -1.4 -1.4 -1.4 -1.4 -1.4 -1.4 -1.4 -1.4 -1.4 -1.4 -1.4 -1.4 -1.4 -1.4 -1.4 -1.4 -1.4 -1.4 -1.4 -1.4 -1.4 -1.4 -1.4 -1.4 -1.4 -1.4 -1.4 -1.4 -1.4 -1.4 -1.4 -1.4 -1.4 1.8 5.8 8.8 11.6 15.9 15.4 5.8 5.9 8 11.8 7.1 8.4 11.6 13.9 15.1 15.3 12 15.2 15.4 15.5 15.6 16.4 17.7 22.5 26.4 29.8 32.3 36.4 42.3 44.5 47.3 50.3 52.4 55.3 54.5 50.6 51.5 50.8 52.7 52.4 51 47.9 51.7 52.1 53.7 55.1 55.8 58.3 61 63 69.6 72.4 72.9 73.1 75.9 77.8 77 78.3 79.1 76.1 70.3 67.4 65.6 63.4 59 55 53.8 51.5 46.9 19.1 4.5 -1.4 -1.4 -1.4 -1.4 -1.4 -1.4 -1.4 -1.4 -1.4 -1.4 -1.4 -1.4 -1.4 -1.4 -1.4 -1.4 -1.4 -1.4 -1.4 11 16.2 22.5 32.7 47.2 65.1 95 103.4 112.4 111.6 125.6 138.2 139.6 148.5 159.1 165.7 176.3 180.4 183.8 190.2
-1.4 -1.4 -1.4 -1.4 -1.4 -1.4 -1.4 -1.4 -1.4 -1.4 -1.4 -1.4 -1.4 -1.4 -1.4 -1.4 -1.4 -1.4 -1.4 -1.4 -1.4 -1.4 -1.4 -1.4 -1.4 -1.4 -1.4 -1.4 -1.4 -1.4 -1.4 -1.4 -1.4 -1.4 -1.4 -1.4 -1.4 -1.4 -1.4 -1.4 -1.4 -1.4 -1.4 -1.4 -1.4 -1.4 -1.4 -1.4 -1.4 -1.4 -1.4 -1.4 -1.4 -1.4 -1.4 -1.4 -1.4 -1.4 -1.4 -1.4 -1.4 -1.4 -1.4 -1.4 -1.4 -1.4 -1.4 -1.4 -1.4 -1.4 -1.4 -1.4 -1.4 -1.4 -1.4 -1.4 -1.4 -1.4 -1.4 -1.4 -1.4 -1.4 -1.4 -1.4 -1.4 -1.4 -1.4 -1.4 -1.4 -1.4 -1.4 -1.4 2.2 3.1 2 2.4 2.9 2.8 3.3 2.7 2.2 1.3 3.2 7 10.4 5.2 6.1 8.3 12 9.7 12.5 13.6 15.2 20.8 24.1 28.7 32.4 37.5 43 46.2 49.4 52.2 53.2 51.6 49 47.6 48.4 49.8 48.5 48 44.5 43.4 43.5 47.4 49.8 50.3 52.4 54.8 57.7 60.5 63.4 66.8 68.7 71 73.7 75.1 73.5 73.5 73.6 69 62.6 59.9 58.7 56.7 53.3 51.4 50.8 48.1 43.2 22.6 5.7 -1.4 -1.4 -1.4 -1.4 -1.4 -1.4 -1.4 -1.4 -1.4 -1.4 -1.4 -1.4 -1.4 -1.4 -1.4 -1.4 -1.4 -1.4 10.5 23 32.2 41.5 87 97 102.2 101.2 109.6 115.1 118.9 131.4 140.3 145.5 150.5 161.1 164.9 173.9 180.5 183.8 190.1
-1.4 -1.4 -1.4 -1.4 -1.4 -1.4 -1.4 -1.4 -1.4 -1.4 -1.4 -1.4 -1.4 -1.4 -1.4 -1.4 -1.4 -1.4 -1.4 -1.4 -1.4 -1.4 -1.4 -1.4 -1.4 -1.4 -1.4 -1.4 -1.4 -1.4 -1.4 -1.4 -1.4 -1.4 -1.4 -1.4 -1.4 -1.4 -1.4 -1.4 -1.4 -1.4 -1.4 -1.4 -1.4 -1.4 -1.4 -1.4 -1.4 -1.4 -1.4 -1.4 -1.4 -1.4 -1.4 -1.4 -1.4 -1.4 -1.4 -1.4 -1.4 -1.4 -1.4 -1.4 -1.4 -1.4 -1.4 -1.4 -1.4 -1.4 -1.4 -1.4 -1.4 -1.4 -1.4 -1.4 -1.4 -1.4 -1.4 -1.4 -1.4 -1.4 -1.4 -1.4 -1.4 -1.4 -1.4 -1.4 -1.4 -1.4 -1.4 -1.4 -1.4 -1.4 -1.4 -1.4 -1.4 -1.4 -1.4 -1.4 -1.4 -1.4 -1.4 -1.4 -1.4 2.4 2.7 4.9 5.1 5 5.2 7.8 11.6 18.2 22.2 26.8 31.2 36.3 45.5 46.7 51 49.8 48.9 48.9 46.5 44.1 43.7 44.4 43.2 43.4 42.7 41.4 39.9 41.4 43.8 48.2 48.7 53.4 53.6 56 56.8 59.1 61.7 64.8 67.8 69.4 69.7 67 64.2 60.9 53.9 53.4 52.4 51.2 49.2 48 46.1 44.9 42 34.7 4.3 -1.4 -1.4 -1.4 -1.4 -1.4 -1.4 -1.4 -1.4 -1.4 -1.4 -1.4 -1.4 -1.4 -1.4 -1.4 -1.4 -1.4 8.5 22 36.9 66.9 83 92.5 99.6 105.1 104.7 109.1 117.5 123.8 135.9 138.8 149.2 153.7 165.2 173 181.7 182.5 182.8 191
-1.4 -1.4 -1.4 -1.4 -1.4 -1.4 -1.4 -1.4 -1.4 -1.4 -1.4 -1.4 -1.4 -1.4 -1.4 -1.4 -1.4 -1.4 -1.4 -1.4 -1.4 -1.4 -1.4 -1.4 -1.4 -1.4 -1.4 -1.4 -1.4 -1.4 -1.4 -1.4 -1.4 -1.4 -1.4 -1.4 -1.4 -1.4 -1.4 -1.4 -1.4 -1.4 -1.4 -1.4 -1.4 -1.4 -1.4 -1.4 -1.4 -1.4 -1.4 -1.4 -1.4 -1.4 -1.4 -1.4 -1.4 -1.4 -1.4 -1.4 -1.4 -1.4 -1.4 -1.4 -1.4 -1.4 -1.4 -1.4 -1.4 -1.4 -1.4 -1.4 -1.4 -1.4 -1.4 -1.4 -1.4 -1.4 -1.4 -1.4 -1.4 -1.4 -1.4 -1.4 -1.4 -1.4 -1.4 -1.4 -1.4 -1.4 -1.4 -1.4 -1.4 -1.4 -1.4 -1.4 -1.4 -1.4 -1.4 -1.4 -1.4 -1.4 -1.4 -1.4 -1.4 -1.4 -1.4 2.1 2 2.7 2.9 4 7.9 16.5 21.1 25.2 29 32.9 36.9 38.7 41.3 44.6 46 47 47.7 44.3 41.3 40.8 40.2 40.9 38.2 36.5 37.7 39.6 42 43.8 44.9 45.5 47.2 48.6 49.4 50.4 53.1 54.2 57.1 58.5 56.7 56.3 54.3 49.7 46.1 45.4 45.6 44 44.5 43.9 43.7 42.8 40.8 32.2 4.5 -1.4 -1.4 -1.4 -1.4 -1.4 -1.4 -1.4 -1.4 -1.4 -1.4 -1.4 -1.4 -1.4 -1.4 -1.4 0.6 6.7 21 38.4 69.3 81.8 88 96.8 102.1 106.3 110.1 117.8 125.3 132.4 139.1 145.4 151.5 158.7 158.9 175.2 182.7 185.7 190.7 191.9
-1.4 -1.4 -1.4 -1.4 -1.4 -1.4 -1.4 -1.4 -1.4 -1.4 -1.4 -1.4 -1.4 -1.4 -1.4 -1.4 -1.4 -1.4 -1.4 -1.4 -1.4 -1.4 -1.4 -1.4 -1.4 -1.4 -1.4 -1.4 -1.4 -1.4 -1.4 -1.4 -1.4 -1.4 -1.4 -1.4 -1.4 -1.4 -1.4 -1.4 -1.4 -1.4 -1.4 -1.4 -1.4 -1.4 -1.4 -1.4 -1.4 -1.4 -1.4 -1.4 -1.4 -1.4 -1.4 -1.4 -1.4 -1.4 -1.4 -1.4 -1.4 -1.4 -1.4 -1.4 -1.4 -1.4 -1.4 -1.4 -1.4 -1.4 -1.4 -1.4 -1.4 -1.4 -1.4 -1.4 -1.4 -1.4 -1.4 -1.4 -1.4 -1.4 -1.4 -1.4 -1.4 -1.4 -1.4 -1.4 -1.4 -1.4 -1.4 -1.4 -1.4 -1.4 -1.4 -1.4 -1.4 -1.4 -1.4 -1.4 -1.4 -1.4 -1.4 -1.4 -1.4 -1.4 -1.4 -1.4 -1.4 -1.4 2.2 2.6 5.7 11.5 19.1 23.7 28.8 32.9 36.3 38.8 41.2 43.6 44.3 45.6 45.1 42.1 38.5 36.3 34.3 33.6 33.5 35 36.1 38.1 40.1 42.7 44.3 42.7 43.9 44.2 42.6 43.8 44.5 45.5 44.7 51.1 49.2 48.5 45.2 43.2 42.4 41.5 41.9 42.8 42 41.6 38.2 37.2 34.4 24 -1.4 -1.4 -1.4 -1.4 -1.4 -1.4 -1.4 -1.4 -1.4 -1.4 -1.4 -1.4 -1.4 -1.4 -1.4 -1.4 3.4 14.7 35.7 42.4 65.2 84.2 90.9 99.9 106.8 109.4 116.4 125.6 132.1 138.6 144 152.5 156.6 163.1 161.8 174.1 184.1 190.4 193.1 193.9
-1.4 -1.4 -1.4 -1.4 -1.4 -1.4 -1.4 -1.4 -1.4 -1.4 -1.4 -1.4 -1.4 -1.4 -1.4 -1.4 -1.4 -1.4 -1.4 -1.4 -1.4 -1.4 -1.4 -1.4 -1.4 -1.4 -1.4 -1.4 -1.4 -1.4 -1.4 -1.4 -1.4 -1.4 -1.4 -1.4 -1.4 -1.4 -1.4 -1.4 -1.4 -1.4 -1.4 -1.4 -1.4 -1.4 -1.4 -1.4 -1.4 -1.4 -1.4 -1.4 -1.4 -1.4 -1.4 -1.4 -1.4 -1.4 -1.4 -1.4 -1.4 -1.4 -1.4 -1.4 -1.4 -1.4 -1.4 -1.4 -1.4 -1.4 -1.4 -1.4 -1.4 -1.4 -1.4 -1.4 -1.4 -1.4 -1.4 -1.4 -1.4 -1.4 -1.4 -1.4 -1.4 -1.4 -1.4 -1.4 -1.4 -1.4 -1.4 -1.4 -1.4 -1.4 -1.4 -1.4 -1.4 -1.4 -1.4 -1.4 -1.4 -1.4 -1.4 -1.4 -1.4 -1.4 -1.4 -1.4 -1.4 -1.4 -1.4 1 4.5 4.5 8.4 15.6 19.6 32 35.5 39.9 42.4 42.4 40.1 39.6 40.4 39 36.9 36.1 30.9 29.6 32 32 34.4 36 38.1 40.3 42 40.2 37.6 38 38 39.3 39.9 41.7 42.8 41.2 39.5 41.4 39.5 39.2 38.6 37.7 36.7 35.8 35.6 34.4 34.5 31.7 31.1 9.9 -1.4 -1.4 -1.4 -1.4 -1.4 -1.4 -1.4 -1.4 -1.4 -1.4 -1.4 -1.4 -1.4 -1.4 -1.4 1.9 8.9 27.4 46 64.7 82.3 87.5 95.5 102.3 110.5 113 119.1 126.9 137.7 144.2 147.8 156.6 161 166.1 169.8 175.1 186.2 192.8 193.7 196.6
-1.4 -1.4 -1.4 -1.4 -1.4 -1.4 -1.4 -1.4 -1.4 -1.4 -1.4 -1.4 -1.4 -1.4 -1.4 -1.4 -1.4 -1.4 -1.4 -1.4 -1.4 -1.4 -1.4 -1.4 -1.4 -1.4 -1.4 -1.4 -1.4 -1.4 -1.4 -1.4 -1.4 -1.4 -1.4 -1.4 -1.4 -1.4 -1.4 -1.4 -1.4 -1.4 -1.4 -1.4 -1.4 -1.4 -1.4 -1.4 -1.4 -1.4 -1.4 -1.4 -1.4 -1.4 -1.4 -1.4 -1.4 -1.4 -1.4 -1.4 -1.4 -1.4 -1.4 -1.4 -1.4 -1.4 -1.4 -1.4 -1.4 -1.4 -1.4 -1.4 -1.4 -1.4 -1.4 -1.4 -1.4 -1.4 -1.4 -1.4 -1.4 -1.4 -1.4 -1.4 -1.4 -1.4 -1.4 -1.4 -1.4 -1.4 -1.4 -1.4 -1.4 -1.4 -1.4 -1.4 -1.4 -1.4 -1.4 -1.4 -1.4 -1.4 -1.4 -1.4 -1.4 -1.4 -1.4 -1.4 -1.4 -1.4 -1.4 -1.4 2.4 2.6 7.1 5 6.7 22.2 28.3 32.9 32.9 34.5 34.6 32.9 34.6 34.5 34.5 33.3 27.9 26.9 27.3 29.9 31.5 29.7 33.9 37.5 39.3 38.4 30.9 31.7 33.1 34.9 36.1 37.7 39.6 36.5 35 35.6 36.1 36.9 33.8 32.3 33.6 33.2 33.3 32.6 29.2 27.7 14.1 -1.4 -1.4 -1.4 -1.4 -1.4 -1.4 -1.4 -1.4 -1.4 -1.4 -1.4 -1.4 -1.4 -1.4 -1.4 1.4 6.2 20.9 39.6 64.8 85.5 88.8 92.1 97.7 106.1 112.9 115.8 120.8 127.5 141.1 148.3 154.8 160.5 166.5 168.7 176.9 179.5 191.3 193.5 195.4 200.4
-1.4 -1.4 -1.4 -1.4 -1.4 -1.4 -1.4 -1.4 -1.4 -1.4 -1.4 -1.4 -1.4 -1.4 -1.4 -1.4 -1.4 -1.4 -1.4 -1.4 -1.4 -1.4 -1.4 -1.4 -1.4 -1.4 -1.4 -1.4 -1.4 -1.4 -1.4 -1.4 -1.4 -1.4 -1.4 -1.4 -1.4 -1.4 -1.4 -1.4 -1.4 -1.4 -1.4 -1.4 -1.4 -1.4 -1.4 -1.4 -1.4 -1.4 -1.4 -1.4 -1.4 -1.4 -1.4 -1.4 -1.4 -1.4 -1.4 -1.4 -1.4 -1.4 -1.4 -1.4 -1.4 -1.4 -1.4 -1.4 -1.4 -1.4 -1.4 -1.4 -1.4 -1.4 -1.4 -1.4 -1.4 -1.4 -1.4 -1.4 -1.4 -1.4 -1.4 -1.4 -1.4 -1.4 -1.4 -1.4 -1.4 -1.4 -1.4 -1.4 -1.4 -1.4 -1.4 -1.4 -1.4 -1.4 -1.4 -1.4 -1.4 -1.4 -1.4 -1.4 -1.4 -1.4 -1.4 -1.4 -1.4 -1.4 -1.4 -1.4 -1.4 -1.4 2 3.1 4.3 11.2 20.7 26.7 30.2 30.1 29.8 29.4 29 29.2 27.1 22.1 19.7 15.7 17.1 19 18.7 19.9 21.3 23.5 28.3 28 26.4 28.5 30.6 31.7 33.4 32.7 33.3 32.9 32.4 30.2 32 31 31 31.5 32.4 32.3 33.3 31.6 29.1 22.4 4.3 -1.4 -1.4 -1.4 -1.4 -1.4 -1.4 17.8 19.6 15.9 4.6 1 -0.1 -0.2 -0.1 0.9 3.7 11.8 32.9 58.9 74.1 85.8 90.2 93 99.1 106.1 112.5 116.9 121.6 130.2 140.4 148.8 155.7 161.7 166.9 169.8 174.2 181.5 191.8 194.2 198.4 202
-1.4 -1.4 -1.4 -1.4 -1.4 -1.4 -1.4 -1.4 -1.4 -1.4 -1.4 -1.4 -1.4 -1.4 -1.4 -1.4 -1.4 -1.4 -1.4 -1.4 -1.4 -1.4 -1.4 -1.4 -1.4 -1.4 -1.4 -1.4 -1.4 -1.4 -1.4 -1.4 -1.4 -1.4 -1.4 -1.4 -1.4 -1.4 -1.4 -1.4 -1.4 -1.4 -1.4 -1.4 -1.4 -1.4 -1.4 -1.4 -1.4 -1.4 -1.4 -1.4 -1.4 -1.4 -1.4 -1.4 -1.4 -1.4 -1.4 -1.4 -1.4 -1.4 -1.4 -1.4 -1.4 -1.4 -1.4 -1.4 -1.4 -1.4 -1.4 -1.4 -1.4 -1.4 -1.4 -1.4 -1.4 -1.4 -1.4 -1.4 -1.4 -1.4 -1.4 -1.4 -1.4 -1.4 -1.4 -1.4 -1.4 -1.4 -1.4 -1.4 -1.4 -1.4 -1.4 -1.4 -1.4 -1.4 -1.4 -1.4 -1.4 -1.4 -1.4 -1.4 -1.4 -1.4 -1.4 -1.4 -1.4 -1.4 -1.4 -1.4 -1.4 -1.4 -1.4 -1.4 -1.4 3.5 8.7 16.6 23.6 25.6 22.3 23.8 25.1 23.6 19.9 17.2 14.2 12.1 12.6 12.1 13.7 16.6 17.8 20.2 22 24.6 24.4 25.7 27.6 27 29.4 29.3 29.4 29.5 25.7 27 27.3 28.5 30.5 31.9 34 33.4 34.9 30.6 26.5 19.8 6.3 -1.4 -1.4 -1.4 -1.4 -1.4 4 15.6 20.7 23.7 23 3.4 1.9 1.6 1.6 1.9 5.6 23 36.4 63.6 76.1 87 90.6 92.7 98.4 106.1 111.4 116.2 127.2 136 141.8 149.6 151.9 163.3 171 174.2 179.2 184.6 186.8 196.6 201.7 207.4
-1.4 -1.4 -1.4 -1.4 -1.4 -1.4 -1.4 -1.4 -1.4 -1.4 -1.4 -1.4 -1.4 -1.4 -1.4 -1.4 -1.4 -1.4 -1.4 -1.4 -1.4 -1.4 -1.4 -1.4 -1.4 -1.4 -1.4 -1.4 -1.4 -1.4 -1.4 -1.4 -1.4 -1.4 -1.4 -1.4 -1.4 -1.4 -1.4 -1.4 -1.4 -1.4 -1.4 -1.4 -1.4 -1.4 -1.4 -1.4 -1.4 -1.4 -1.4 -1.4 -1.4 -1.4 -1.4 -1.4 -1.4 -1.4 -1.4 -1.4 -1.4 -1.4 -1.4 -1.4 -1.4 -1.4 -1.4 -1.4 -1.4 -1.4 -1.4 -1.4 -1.4 -1.4 -1.4 -1.4 -1.4 -1.4 -1.4 -1.4 -1.4 -1.4 -1.4 -1.4 -1.4 -1.4 -1.4 -1.4 -1.4 -1.4 -1.4 -1.4 -1.4 -1.4 -1.4 -1.4 -1.4 -1.4 -1.4 -1.4 -1.4 -1.4 -1.4 -1.4 -1.4 -1.4 -1.4 -1.4 -1.4 -1.4 -1.4 -1.4 -1.4 -1.4 -1.4 -1.4 -1.4 2 2.5 5.7 8.4 15 17.2 17.6 18.1 17.6 16.6 16.4 11.6 10.1 9.1 10.9 12.9 14.5 16.2 17.3 20.5 24.1 24.1 25.8 26.1 23.2 24.9 26.2 26 26 24.1 24.8 25.9 27.5 30.4 32.3 34.5 35 35.8 32.4 21.3 17.1 5 -1.4 -1.4 -1.4 -1.4 -1.4 5.8 12.9 19.7 23.4 17 3.2 3.5 3.1 3.1 5.1 7.8 25.7 38.7 63.7 76.9 84.6 90.1 95.9 99.4 107 115.4 121.1 129.4 138.4 148 155.2 159.5 169 174.6 179.7 185.8 190 194.2 199.4 205.8 212.8
-1.4 -1.4 -1.4 -1.4 -1.4 -1.4 -1.4 -1.4 -1.4 -1.4 -1.4 -1.4 -1.4 -1.4 -1.4 -1.4 -1.4 -1.4 -1.4 -1.4 -1.4 -1.4 -1.4 -1.4 -1.4 -1.4 -1.4 -1.4 -1.4 -1.4 -1.4 -1.4 -1.4 -1.4 -1.4 -1.4 -1.4 -1.4 -1.4 -1.4 -1.4 -1.4 -1.4 -1.4 -1.4 -1.4 -1.4 -1.4 -1.4 -1.4 -1.4 -1.4 -1.4 -1.4 -1.4 -1.4 -1.4 -1.4 -1.4 -1.4 -1.4 -1.4 -1.4 -1.4 -1.4 -1.4 -1.4 -1.4 -1.4 -1.4 -1.4 -1.4 -1.4 -1.4 -1.4 -1.4 -1.4 -1.4 -1.4 -1.4 -1.4 -1.4 -1.4 -1.4 -1.4 -1.4 -1.4 -1.4 -1.4 -1.4 -1.4 -1.4 -1.4 -1.4 -1.4 -1.4 -1.4 -1.4 -1.4 -1.4 -1.4 -1.4 -1.4 -1.4 -1.4 -1.4 -1.4 -1.4 -1.4 -1.4 -1.4 -1.4 -1.4 -1.4 -1.4 -1.4 -1.4 -1.4 2 2.3 5.1 11.5 16.1 12.8 12.8 12.7 15.2 16.6 15.4 8.5 10.5 10.7 12.3 13.8 15.5 17.1 19.7 22.3 24.3 25.8 25.4 23.1 22.1 21.1 19.4 20.2 22.5 23.6 25 25.1 27.9 31.1 33.8 35.7 36.6 38.7 22.7 17.3 4.8 -1.4 -1.4 -1.4 -1.4 1.9 6.4 10.2 17.4 20.1 5.8 3.8 4.2 4.2 4 7 10.4 28.2 41.6 64 78.9 84.9 91.1 96.9 102.3 109.1 118.1 125.8 131.7 144.2 153.7 159.8 166.4 172.5 178.9 183.6 189.9 195.9 201.3 208.1 211.4 214.2
-1.4 -1.4 -1.4 -1.4 -1.4 -1.4 -1.4 -1.4 -1.4 -1.4 -1.4 -1.4 -1.4 -1.4 -1.4 -1.4 -1.4 -1.4 -1.4 -1.4 -1.4 -1.4 -1.4 -1.4 -1.4 -1.4 -1.4 -1.4 -1.4 -1.4 -1.4 -1.4 -1.4 -1.4 -1.4 -1.4 -1.4 -1.4 -1.4 -1.4 -1.4 -1.4 -1.4 -1.4 -1.4 -1.4 -1.4 -1.4 -1.4 -1.4 -1.4 -1.4 -1.4 -1.4 -1.4 -1.4 -1.4 -1.4 -1.4 -1.4 -1.4 -1.4 -1.4 -1.4 -1.4 -1.4 -1.4 -1.4 -1.4 -1.4 -1.4 -1.4 -1.4 -1.4 -1.4 -1.4 -1.4 -1.4 -1.4 -1.4 -1.4 -1.4 -1.4 -1.4 -1.4 -1.4 -1.4 -1.4 -1.4 -1.4 -1.4 -1.4 -1.4 -1.4 -1.4 -1.4 -1.4 -1.4 -1.4 -1.4 -1.4 -1.4 -1.4 -1.4 -1.4 -1.4 -1.4 -1.4 -1.4 -1.4 -1.4 -1.4 -1.4 -1.4 -1.4 -1.4 -1.4 -1.4 -1.4 -1.4 2.2 5.9 9 10.1 8.4 5.8 7.5 8.9 11.5 7.4 6.5 11.4 13.7 15.6 17.3 17.9 21.4 23.5 25 28.1 24.2 20.4 19.6 19.8 20.9 21 18.7 22.9 24.5 25.2 26.7 27.2 30.6 33.3 36.3 38.5 23.6 16.8 5.4 -1.4 -1.4 -1.4 -1.4 3.7 8.1 12.1 16.3 17.2 5.4 4.8 5.4 6.1 5.9 7.6 16.9 39.8 50.5 69.1 80.3 89.1 95.1 99.8 104.9 111.2 119.8 127.8 140.2 150.8 159.7 165.6 171.7 179.5 183.7 191.2 195.3 204.1 207.5 213.7 218 220.5
-1.4 -1.4 -1.4 -1.4 -1.4 -1.4 -1.4 -1.4 -1.4 -1.4 -1.4 -1.4 -1.4 -1.4 -1.4 -1.4 -1.4 -1.4 -1.4 -1.4 -1.4 -1.4 -1.4 -1.4 -1.4 -1.4 -1.4 -1.4 -1.4 -1.4 -1.4 -1.4 -1.4 -1.4 -1.4 -1.4 -1.4 -1.4 -1.4 -1.4 -1.4 -1.4 -1.4 -1.4 -1.4 -1.4 -1.4 -1.4 -1.4 -1.4 -1.4 -1.4 -1.4 -1.4 -1.4 -1.4 -1.4 -1.4 -1.4 -1.4 -1.4 -1.4 -1.4 -1.4 -1.4 -1.4 -1.4 -1.4 -1.4 -1.4 -1.4 -1.4 -1.4 -1.4 -1.4 -1.4 -1.4 -1.4 -1.4 -1.4 -1.4 -1.4 -1.4 -1.4 -1.4 -1.4 -1.4 -1.4 -1.4 -1.4 -1.4 -1.4 -1.4 -1.4 -1.4 -1.4 -1.4 -1.4 -1.4 -1.4 -1.4 -1.4 -1.4 -1.4 -1.4 -1.4 -1.4 -1.4 -1.4 -1.4 -1.4 -1.4 -1.4 -1.4 -1.4 -1.4 -1.4 -1.4 -1.4 -1.4 -1.4 3.6 8.1 9.2 10 5.1 2.9 4 5.9 6.1 3.3 5.4 13.6 17.7 18.4 17.3 14.7 17.8 20.7 20.3 20.6 17.9 14.8 17.9 20.4 21.5 18.5 17.9 17.7 18.8 22.6 25.6 28.1 31 34.3 36.6 24.4 10.6 7.1 -1.4 -1.4 -1.4 -1.4 5 8.6 11.9 17.7 18.9 6.5 5.8 6.3 6.9 8.4 13.1 36.7 55.3 64.4 73.4 83.2 91.8 95 99.7 105.4 112.5 121.7 132.5 143.2 155 165.2 169.6 175.1 185.6 189.6 197 205.4 209.2 212.1 217.3 223.4 225.6
-1.4 -1.4 -1.4 -1.4 -1.4 -1.4 -1.4 -1.4 -1.4 -1.4 -1.4 -1.4 -1.4 -1.4 -1.4 -1.4 -1.4 -1.4 -1.4 -1.4 -1.4 -1.4 -1.4 -1.4 -1.4 -1.4 -1.4 -1.4 -1.4 -1.4 -1.4 -1.4 -1.4 -1.4 -1.4 -1.4 -1.4 -1.4 -1.4 -1.4 -1.4 -1.4 -1.4 -1.4 -1.4 -1.4 -1.4 -1.4 -1.4 -1.4 -1.4 -1.4 -1.4 -1.4 -1.4 -1.4 -1.4 -1.4 -1.4 -1.4 -1.4 -1.4 -1.4 -1.4 -1.4 -1.4 -1.4 -1.4 -1.4 -1.4 -1.4 -1.4 -1.4 -1.4 -1.4 -1.4 -1.4 -1.4 -1.4 -1.4 -1.4 -1.4 -1.4 -1.4 -1.4 -1.4 -1.4 -1.4 -1.4 -1.4 -1.4 -1.4 -1.4 -1.4 -1.4 -1.4 -1.4 -1.4 -1.4 -1.4 -1.4 -1.4 -1.4 -1.4 -1.4 -1.4 -1.4 -1.4 -1.4 -1.4 -1.4 -1.4 -1.4 -1.4 -1.4 -1.4 -1.4 -1.4 -1.4 -1.4 -1.4 -1.4 5.9 9 10.4 11.4 2.9 2.3 7.6 2.6 2.2 3.7 7.2 11.3 16.6 18.2 14.7 13.6 20.3 18.9 18.5 20.2 14.8 19.1 20.6 21.1 19.3 15.1 16.7 16.9 18.4 18.4 23.3 26.7 30 32.1 24.7 11.3 6.8 -1.4 -1.4 -1.4 -1.4 4.4 7.1 13.4 18.7 20.7 10.8 7.7 7.5 8.8 11.7 23.5 45.3 56.5 63.3 74 81.7 91.6 96 100.3 107.1 114 123.9 135.1 144.2 156.1 166.1 175.1 179.8 185.2 194 203 210 215.2 216.6 222.2 226.1 228.2
-1.4 -1.4 -1.4 -1.4 -1.4 -1.4 -1.4 -1.4 -1.4 -1.4 -1.4 -1.4 -1.4 -1.4 -1.4 -1.4 -1.4 -1.4 -1.4 -1.4 -1.4 -1.4 -1.4 -1.4 -1.4 -1.4 -1.4 -1.4 -1.4 -1.4 -1.4 -1.4 -1.4 -1.4 -1.4 -1.4 -1.4 -1.4 -1.4 -1.4 -1.4 -1.4 -1.4 -1.4 -1.4 -1.4 -1.4 -1.4 -1.4 -1.4 -1.4 -1.4 -1.4 -1.4 -1.4 -1.4 -1.4 -1.4 -1.4 -1.4 -1.4 -1.4 -1.4 -1.4 -1.4 -1.4 -1.4 -1.4 -1.4 -1.4 -1.4 -1.4 -1.4 -1.4 -1.4 -1.4 -1.4 -1.4 -1.4 -1.4 -1.4 -1.4 -1.4 -1.4 -1.4 -1.4 -1.4 -1.4 -1.4 -1.4 -1.4 -1.4 -1.4 -1.4 -1.4 -1.4 -1.4 -1.4 -1.4 -1.4 -1.4 -1.4 -1.4 -1.4 -1.4 -1.4 -1.4 -1.4 -1.4 -1.4 -1.4 -1.4 -1.4 -1.4 -1.4 -1.4 -1.4 -1.4 -1.4 -1.4 -1.4 -1.4 -1.4 -1.4 -1.4 -1.4 -1.4 -1.4 -1.4 -1.4 -1.4 2.6 2.3 3.6 8.8 12.5 15.7 4.1 5.9 20.6 15.9 17.5 14.1 19.7 21.4 19.7 15.7 14.6 13.7 14.9 15.7 12 11 15.8 20.6 27.2 24.2 8.5 -1.4 -1.4 -1.4 -1.4 -1.4 2.2 6.5 16.6 20.3 22.2 20.2 23.3 32.7 20.8 31.8 33.2 51.4 55.8 61.2 70.7 79.9 88.6 95.2 99.9 109 118.6 129.1 134.5 145.3 158.9 168 175.8 181.3 190.3 197.8 207.1 214.6 220.9 224.7 226.1 229.9 237.4
-1.4 -1.4 -1.4 -1.4 -1.4 -1.4 -1.4 -1.4 -1.4 -1.4 -1.4 -1.4 -1.4 -1.4 -1.4 -1.4 -1.4 -1.4 -1.4 -1.4 -1.4 -1.4 -1.4 -1.4 -1.4 -1.4 -1.4 -1.4 -1.4 -1.4 -1.4 -1.4 -1.4 -1.4 -1.4 -1.4 -1.4 -1.4 -1.4 -1.4 -1.4 -1.4 -1.4 -1.4 -1.4 -1.4 -1.4 -1.4 -1.4 -1.4 -1.4 -1.4 -1.4 -1.4 -1.4 -1.4 -1.4 -1.4 -1.4 -1.4 -1.4 -1.4 -1.4 -1.4 -1.4 -1.4 -1.4 -1.4 -1.4 -1.4 -1.4 -1.4 -1.4 -1.4 -1.4 -1.4 -1.4 -1.4 -1.4 -1.4 -1.4 -1.4 -1.4 -1.4 -1.4 -1.4 -1.4 -1.4 -1.4 -1.4 -1.4 -1.4 -1.4 -1.4 -1.4 -1.4 -1.4 -1.4 -1.4 -1.4 -1.4 -1.4 -1.4 -1.4 -1.4 -1.4 -1.4 -1.4 -1.4 -1.4 -1.4 -1.4 -1.4 -1.4 -1.4 -1.4 -1.4 -1.4 -1.4 -1.4 -1.4 -1.4 -1.4 -1.4 -1.4 -1.4 -1.4 -1.4 -1.4 -1.4 -1.4 -1.4 -1.4 -1.4 -1.4 -1.4 -1.4 -1.4 -1.4 -1.4 7.8 16.4 7.8 10.7 15 13 13.5 15 7.8 9.3 7.6 5.2 3.6 7.4 6.9 7.1 7.4 -1.4 -1.4 -1.4 -1.4 -1.4 -1.4 2.2 7.2 16.7 21.5 25.6 33.6 37.9 36.7 37.8 38 41.1 50.7 59.1 62.8 70.4 77 85.5 94.6 102.1 112.6 119.2 130.5 141.4 152.5 161.5 169.2 175.1 189.2 195.7 198.6 209.6 215.8 223.8 227.5 233.2 239.6 243.7
-1.4 -1.4 -1.4 -1.4 -1.4 -1.4 -1.4 -1.4 -1.4 -1.4 -1.4 -1.4 -1.4 -1.4 -1.4 -1.4 -1.4 -1.4 -1.4 -1.4 -1.4 -1.4 -1.4 -1.4 -1.4 -1.4 -1.4 -1.4 -1.4 -1.4 -1.4 -1.4 -1.4 -1.4 -1.4 -1.4 -1.4 -1.4 -1.4 -1.4 -1.4 -1.4 -1.4 -1.4 -1.4 -1.4 -1.4 -1.4 -1.4 -1.4 -1.4 -1.4 -1.4 -1.4 -1.4 -1.4 -1.4 -1.4 -1.4 -1.4 -1.4 -1.4 -1.4 -1.4 -1.4 -1.4 -1.4 -1.4 -1.4 -1.4 -1.4 -1.4 -1.4 -1.4 -1.4 -1.4 -1.4 -1.4 -1.4 -1.4 -1.4 -1.4 -1.4 -1.4 -1.4 -1.4 -1.4 -1.4 -1.4 -1.4 -1.4 -1.4 -1.4 -1.4 -1.4 -1.4 -1.4 -1.4 -1.4 -1.4 -1.4 -1.4 -1.4 -1.4 -1.4 -1.4 -1.4 -1.4 -1.4 -1.4 -1.4 -1.4 -1.4 -1.4 -1.4 -1.4 -1.4 -1.4 -1.4 -1.4 -1.4 -1.4 -1.4 -1.4 -1.4 -1.4 -1.4 -1.4 -1.4 -1.4 -1.4 -1.4 -1.4 -1.4 -1.4 -1.4 -1.4 -1.4 -1.4 -1.4 -1.4 -1.4 1 2 5.9 9.3 10.8 12.2 11.9 6.4 4.4 1.7 2.3 2.6 3.4 -1.4 -1.4 -1.4 -1.4 -1.4 -1.4 -1.4 -1.4 2.1 9.5 21.2 23.8 29.1 35.1 39.3 38.2 38.7 42.1 46.9 53.9 61.3 64.7 69.5 78.4 86 92.9 100.4 111.8 120.1 131.1 144.4 156.2 164.7 172 180.1 190.4 201.3 203.3 209.3 218.7 222.2 228.4 232.8 241.7 246.7
-1.4 -1.4 -1.4 -1.4 -1.4 -1.4 -1.4 -1.4 -1.4 -1.4 -1.4 -1.4 -1.4 -1.4 -1.4 -1.4 -1.4 -1.4 -1.4 -1.4 -1.4 -1.4 -1.4 -1.4 -1.4 -1.4 -1.4 -1.4 -1.4 -1.4 -1.4 -1.4 -1.4 -1.4 -1.4 -1.4 -1.4 -1.4 -1.4 -1.4 -1.4 -1.4 -1.4 -1.4 -1.4 -1.4 -1.4 -1.4 -1.4 -1.4 -1.4 -1.4 -1.4 -1.4 -1.4 -1.4 -1.4 -1.4 -1.4 -1.4 -1.4 -1.4 -1.4 -1.4 -1.4 -1.4 -1.4 -1.4 -1.4 -1.4 -1.4 -1.4 -1.4 -1.4 -1.4 -1.4 -1.4 -1.4 -1.4 -1.4 -1.4 -1.4 -1.4 -1.4 -1.4 -1.4 -1.4 -1.4 -1.4 -1.4 -1.4 -1.4 -1.4 -1.4 -1.4 -1.4 -1.4 -1.4 -1.4 -1.4 -1.4 -1.4 -1.4 -1.4 -1.4 -1.4 -1.4 -1.4 -1.4 -1.4 -1.4 -1.4 -1.4 -1.4 -1.4 -1.4 -1.4 -1.4 -1.4 -1.4 -1.4 -1.4 -1.4 -1.4 -1.4 -1.4 -1.4 -1.4 -1.4 -1.4 -1.4 -1.4 -1.4 -1.4 -1.4 -1.4 -1.4 -1.4 -1.4 -1.4 -1.4 -1.4 -1.4 -1.4 -1.4 -1.4 5.3 10.1 4.7 3.8 0.6 0 -1.4 -1.4 -1.4 -1.4 -1.4 -1.4 -1.4 -1.4 -1.4 -1.4 -1.4 -1.4 9 21.4 24 30.2 37 41.4 38.2 39.6 46.4 51.2 58.6 64.9 64.2 69.5 81.2 88.1 99.1 104.6 107.4 119.9 132.9 144.4 155.7 165.1 170.6 178.5 193.5 202.5 205.5 213.1 221.1 228.1 233.9 239.2 245.2 250
-1.4 -1.4 -1.4 -1.4 -1.4 -1.4 -1.4 -1.4 -1.4 -1.4 -1.4 -1.4 -1.4 -1.4 -1.4 -1.4 -1.4 -1.4 -1.4 -1.4 -1.4 -1.4 -1.4 -1.4 -1.4 -1.4 -1.4 -1.4 -1.4 -1.4 -1.4 -1.4 -1.4 -1.4 -1.4 -1.4 -1.4 -1.4 -1.4 -1.4 -1.4 -1.4 -1.4 -1.4 -1.4 -1.4 -1.4 -1.4 -1.4 -1.4 -1.4 -1.4 -1.4 -1.4 -1.4 -1.4 -1.4 -1.4 -1.4 -1.4 -1.4 -1.4 -1.4 -1.4 -1.4 -1.4 -1.4 -1.4 -1.4 -1.4 -1.4 -1.4 -1.4 -1.4 -1.4 -1.4 -1.4 -1.4 -1.4 -1.4 -1.4 -1.4 -1.4 -1.4 -1.4 -1.4 -1.4 -1.4 -1.4 -1.4 -1.4 -1.4 -1.4 -1.4 -1.4 -1.4 -1.4 -1.4 -1.4 -1.4 -1.4 -1.4 -1.4 -1.4 -1.4 -1.4 -1.4 -1.4 -1.4 -1.4 -1.4 -1.4 -1.4 -1.4 -1.4 -1.4 -1.4 -1.4 -1.4 -1.4 -1.4 -1.4 -1.4 -1.4 -1.4 -1.4 -1.4 -1.4 -1.4 -1.4 -1.4 -1.4 -1.4 -1.4 -1.4 -1.4 -1.4 -1.4 -1.4 -1.4 -1.4 -1.4 -1.4 -1.4 -1.4 -1.4 1.8 0.1 -1.4 -1.4 -1.4 -1.4 -1.4 -1.4 -1.4 -1.4 -1.4 -1.4 -1.4 -1.4 -1.4 -1.4 -1.4 -1.4 6 14.1 24 31.2 34.1 39.2 37.5 42.4 48.9 56.3 62.4 66.8 64.8 75.5 81.2 89.4 100.9 106.1 109.4 114.2 124.7 144.8 151 161.3 172.9 177.6 191.1 202.3 206.3 214.5 225 231.1 238.1 241 245.2 249.8
-1.4 -1.4 -1.4 -1.4 -1.4 -1.4 -1.4 -1.4 -1.4 -1.4 -1.4 -1.4 -1.4 -1.4 -1.4 -1.4 -1.4 -1.4 -1.4 -1.4 -1.4 -1.4 -1.4 -1.4 -1.4 -1.4 -1.4 -1.4 -1.4 -1.4 -1.4 -1.4 -1.4 -1.4 -1.4 -1.4 -1.4 -1.4 -1.4 -1.4 -1.4 -1.4 -1.4 -1.4 -1.4 -1.4 -1.4 -1.4 -1.4 -1.4 -1.4 -1.4 -1.4 -1.4 -1.4 -1.4 -1.4 -1.4 -1.4 -1.4 -1.4 -1.4 -1.4 -1.4 -1.4 -1.4 -1.4 -1.4 -1.4 -1.4 -1.4 -1.4 -1.4 -1.4 -1.4 -1.4 -1.4 -1.4 -1.4 -1.4 -1.4 -1.4 -1.4 -1.4 -1.4 -1.4 -1.4 -1.4 -1.4 -1.4 -1.4 -1.4 -1.4 -1.4 -1.4 -1.4 -1.4 -1.4 -1.4 -1.4 -1.4 -1.4 -1.4 -1.4 -1.4 -1.4 -1.4 -1.4 -1.4 -1.4 -1.4 -1.4 -1.4 -1.4 -1.4 -1.4 -1.4 -1.4 -1.4 -1.4 -1.4 -1.4 -1.4 -1.4 -1.4 -1.4 -1.4 -1.4 -1.4 -1.4 -1.4 -1.4 -1.4 -1.4 -1.4 -1.4 -1.4 -1.4 -1.4 -1.4 -1.4 -1.4 -1.4 -1.4 -1.4 -1.4 -1.4 -1.4 -1.4 -1.4 -1.4 -1.4 -1.4 -1.4 -1.4 -1.4 -1.4 -1.4 -1.4 -1.4 -1.4 -1.4 -1.4 -1.4 2.2 6 14.2 24 28 33.3 36 41.2 47.5 54.3 62.7 66.2 66 78 85.6 89.6 100.7 105.2 109.7 116.9 129.2 139.1 151 159.5 171.6 181.3 191.7 201.6 204.3 214.4 225.9 231.2 239.5 245.8 248.7 251.8
-1.4 -1.4 -1.4 -1.4 -1.4 -1.4 -1.4 -1.4 -1.4 -1.4 -1.4 -1.4 -1.4 -1.4 -1.4 -1.4 -1.4 -1.4 -1.4 -1.4 -1.4 -1.4 -1.4 -1.4 -1.4 -1.4 -1.4 -1.4 -1.4 -1.4 -1.4 -1.4 -1.4 -1.4 -1.4 -1.4 -1.4 -1.4 -1.4 -1.4 -1.4 -1.4 -1.4 -1.4 -1.4 -1.4 -1.4 -1.4 -1.4 -1.4 -1.4 -1.4 -1.4 -1.4 -1.4 -1.4 -1.4 -1.4 -1.4 -1.4 -1.4 -1.4 -1.4 -1.4 -1.4 -1.4 -1.4 -1.4 -1.4 -1.4 -1.4 -1.4 -1.4 -1.4 -1.4 -1.4 -1.4 -1.4 -1.4 -1.4 -1.4 -1.4 -1.4 -1.4 -1.4 -1.4 -1.4 -1.4 -1.4 -1.4 -1.4 -1.4 -1.4 -1.4 -1.4 -1.4 -1.4 -1.4 -1.4 -1.4 -1.4 -1.4 -1.4 -1.4 -1.4 -1.4 -1.4 -1.4 -1.4 -1.4 -1.4 -1.4 -1.4 -1.4 -1.4 -1.4 -1.4 -1.4 -1.4 -1.4 -1.4 -1.4 -1.4 -1.4 -1.4 -1.4 -1.4 -1.4 -1.4 -1.4 -1.4 -1.4 -1.4 -1.4 -1.4 -1.4 -1.4 -1.4 -1.4 -1.4 -1.4 -1.4 -1.4 -1.4 -1.4 -1.4 -1.4 -1.4 -1.4 -1.4 -1.4 -1.4 -1.4 -1.4 -1.4 -1.4 -1.4 -1.4 -1.4 -1.4 -1.4 -1.4 -1.4 -1.4 -1.4 2.5 6.7 14.4 23.4 29.3 35 39.2 44.6 51.7 60.2 67.1 66.2 77.5 87.9 91.7 100.6 105.1 109.6 115.7 125.2 138.8 150.9 161.3 173.4 180.5 193.2 197.5 206.5 215.8 221.8 234.9 242.2 243.5 250.3 251.6
-1.4 -1.4 -1.4 -1.4 -1.4 -1.4 -1.4 -1.4 -1.4 -1.4 -1.4 -1.4 -1.4 -1.4 -1.4 -1.4 -1.4 -1.4 -1.4 -1.4 -1.4 -1.4 -1.4 -1.4 -1.4 -1.4 -1.4 -1.4 -1.4 -1.4 -1.4 -1.4 -1.4 -1.4 -1.4 -1.4 -1.4 -1.4 -1.4 -1.4 -1.4 -1.4 -1.4 -1.4 -1.4 -1.4 -1.4 -1.4 -1.4 -1.4 -1.4 -1.4 -1.4 -1.4 -1.4 -1.4 -1.4 -1.4 -1.4 -1.4 -1.4 -1.4 -1.4 -1.4 -1.4 -1.4 -1.4 -1.4 -1.4 -1.4 -1.4 -1.4 -1.4 -1.4 -1.4 -1.4 -1.4 -1.4 -1.4 -1.4 -1.4 -1.4 -1.4 -1.4 -1.4 -1.4 -1.4 -1.4 -1.4 -1.4 -1.4 -1.4 -1.4 -1.4 -1.4 -1.4 -1.4 -1.4 -1.4 -1.4 -1.4 -1.4 -1.4 -1.4 -1.4 -1.4 -1.4 -1.4 -1.4 -1.4 -1.4 -1.4 -1.4 -1.4 -1.4 -1.4 -1.4 -1.4 -1.4 -1.4 -1.4 -1.4 -1.4 -1.4 -1.4 -1.4 -1.4 -1.4 -1.4 -1.4 -1.4 -1.4 -1.4 -1.4 -1.4 -1.4 -1.4 -1.4 -1.4 -1.4 -1.4 -1.4 -1.4 -1.4 -1.4 -1.4 -1.4 -1.4 -1.4 -1.4 -1.4 -1.4 -1.4 -1.4 -1.4 -1.4 -1.4 -1.4 -1.4 -1.4 -1.4 -1.4 -1.4 -1.4 -1.4 -1.4 4 6 13.9 23.4 31.4 36.2 41.1 47.9 56 64.7 65.9 75.7 88.5 94.3 98.1 103 110.3 117.9 125 137.9 148.8 159.4 169.1 176.1 187.5 197.1 200.1 220.7 222.4 229.7 239.6 242.5 248.8 251.1
-1.4 -1.4 -1.4 -1.4 -1.4 -1.4 -1.4 -1.4 -1.4 -1.4 -1.4 -1.4 -1.4 -1.4 -1.4 -1.4 -1.4 -1.4 -1.4 -1.4 -1.4 -1.4 -1.4 -1.4 -1.4 -1.4 -1.4 -1.4 -1.4 -1.4 -1.4 -1.4 -1.4 -1.4 -1.4 -1.4 -1.4 -1.4 -1.4 -1.4 -1.4 -1.4 -1.4 -1.4 -1.4 -1.4 -1.4 -1.4 -1.4 -1.4 -1.4 -1.4 -1.4 -1.4 -1.4 -1.4 -1.4 -1.4 -1.4 -1.4 -1.4 -1.4 -1.4 -1.4 -1.4 -1.4 -1.4 -1.4 -1.4 -1.4 -1.4 -1.4 -1.4 -1.4 -1.4 -1.4 -1.4 -1.4 -1.4 -1.4 -1.4 -1.4 -1.4 -1.4 -1.4 -1.4 -1.4 -1.4 -1.4 -1.4 -1.4 -1.4 -1.4 -1.4 -1.4 -1.4 -1.4 -1.4 -1.4 -1.4 -1.4 -1.4 -1.4 -1.4 -1.4 -1.4 -1.4 -1.4 -1.4 -1.4 -1.4 -1.4 -1.4 -1.4 -1.4 -1.4 -1.4 -1.4 -1.4 -1.4 -1.4 -1.4 -1.4 -1.4 -1.4 -1.4 -1.4 -1.4 -1.4 -1.4 -1.4 -1.4 -1.4 -1.4 -1.4 -1.4 -1.4 -1.4 -1.4 -1.4 -1.4 -1.4 -1.4 -1.4 -1.4 -1.4 -1.4 -1.4 -1.4 -1.4 -1.4 -1.4 -1.4 -1.4 -1.4 -1.4 -1.4 -1.4 -1.4 -1.4 -1.4 -1.4 -1.4 -1.4 -1.4 -1.4 -1.4 -1.4 5.4 11.8 25 32.2 38.1 44.5 53.9 62.9 64.9 75.3 86.6 95.4 98.9 105.3 115 122.8 130.6 133.9 148.4 158.3 168.5 177.5 183 193.1 196.4 206.9 216.6 230.5 235.9 240.7 247.9 248.7
-1.4 -1.4 -1.4 -1.4 -1.4 -1.4 -1.4 -1.4 -1.4 -1.4 -1.4 -1.4 -1.4 -1.4 -1.4 -1.4 -1.4 -1.4 -1.4 -1.4 -1.4 -1.4 -1.4 -1.4 -1.4 -1.4 -1.4 -1.4 -1.4 -1.4 -1.4 -1.4 -1.4 -1.4 -1.4 -1.4 -1.4 -1.4 -1.4 -1.4 -1.4 -1.4 -1.4 -1.4 -1.4 -1.4 -1.4 -1.4 -1.4 -1.4 -1.4 -1.4 -1.4 -1.4 -1.4 -1.4 -1.4 -1.4 -1.4 -1.4 -1.4 -1.4 -1.4 -1.4 -1.4 -1.4 -1.4 -1.4 -1.4 -1.4 -1.4 -1.4 -1.4 -1.4 -1.4 -1.4 -1.4 -1.4 -1.4 -1.4 -1.4 -1.4 -1.4 -1.4 -1.4 -1.4 -1.4 -1.4 -1.4 -1.4 -1.4 -1.4 -1.4 -1.4 -1.4 -1.4 -1.4 -1.4 -1.4 -1.4 -1.4 -1.4 -1.4 -1.4 -1.4 -1.4 -1.4 -1.4 -1.4 -1.4 -1.4 -1.4 -1.4 -1.4 -1.4 -1.4 -1.4 -1.4 -1.4 -1.4 -1.4 -1.4 -1.4 -1.4 -1.4 -1.4 -1.4 -1.4 -1.4 -1.4 -1.4 -1.4 -1.4 -1.4 -1.4 -1.4 -1.4 -1.4 -1.4 -1.4 -1.4 -1.4 -1.4 -1.4 -1.4 -1.4 -1.4 -1.4 -1.4 -1.4 -1.4 -1.4 -1.4 -1.4 -1.4 -1.4 -1.4 -1.4 -1.4 -1.4 -1.4 -1.4 -1.4 -1.4 -1.4 -1.4 -1.4 -1.4 -1.4 9.2 15 25.4 36 42.3 52.4 62.8 63.7 73.2 85.8 93.3 98.2 101.9 114.4 126.2 133.6 138.1 148.4 158.7 168.4 175.2 181 190.1 198.1 202.6 209 220.3 232.2 237.5 240.8 247.6
-1.4 -1.4 -1.4 -1.4 -1.4 -1.4 -1.4 -1.4 -1.4 -1.4 -1.4 -1.4 -1.4 -1.4 -1.4 -1.4 -1.4 -1.4 -1.4 -1.4 -1.4 -1.4 -1.4 -1.4 -1.4 -1.4 -1.4 -1.4 -1.4 -1.4 -1.4 -1.4 -1.4 -1.4 -1.4 -1.4 -1.4 -1.4 -1.4 -1.4 -1.4 -1.4 -1.4 -1.4 -1.4 -1.4 -1.4 -1.4 -1.4 -1.4 -1.4 -1.4 -1.4 -1.4 -1.4 -1.4 -1.4 -1.4 -1.4 -1.4 -1.4 -1.4 -1.4 -1.4 -1.4 -1.4 -1.4 -1.4 -1.4 -1.4 -1.4 -1.4 -1.4 -1.4 -1.4 -1.4 -1.4 -1.4 -1.4 -1.4 -1.4 -1.4 -1.4 -1.4 -1.4 -1.4 -1.4 -1.4 -1.4 -1.4 -1.4 -1.4 -1.4 -1.4 -1.4 -1.4 -1.4 -1.4 -1.4 -1.4 -1.4 -1.4 -1.4 -1.4 -1.4 -1.4 -1.4 -1.4 -1.4 -1.4 -1.4 -1.4 -1.4 -1.4 -1.4 -1.4 -1.4 -1.4 -1.4 -1.4 -1.4 -1.4 -1.4 -1.4 -1.4 -1.4 -1.4 -1.4 -1.4 -1.4 -1.4 -1.4 -1.4 -1.4 -1.4 -1.4 -1.4 -1.4 -1.4 -1.4 -1.4 -1.4 -1.4 -1.4 -1.4 -1.4 -1.4 -1.4 -1.4 -1.4 -1.4 -1.4 -1.4 -1.4 -1.4 -1.4 -1.4 -1.4 -1.4 -1.4 -1.4 -1.4 -1.4 -1.4 -1.4 -1.4 -1.4 -1.4 -1.4 -1.4 9.4 20.7 29 38.5 47.1 59.3 60.5 73 85.4 93.5 98.7 103.7 114.5 119.9 128 136.3 144.7 156.8 169.5 174.9 178.6 185.7 195.4 200.6 202.1 206.3 221.7 229.4 234.1 240.7
-1.4 -1.4 -1.4 -1.4 -1.4 -1.4 -1.4 -1.4 -1.4 -1.4 -1.4 -1.4 -1.4 -1.4 -1.4 -1.4 -1.4 -1.4 -1.4 -1.4 -1.4 -1.4 -1.4 -1.4 -1.4 -1.4 -1.4 -1.4 -1.4 -1.4 -1.4 -1.4 -1.4 -1.4 -1.4 -1.4 -1.4 -1.4 -1.4 -1.4 -1.4 -1.4 -1.4 -1.4 -1.4 -1.4 -1.4 -1.4 -1.4 -1.4 -1.4 -1.4 -1.4 -1.4 -1.4 -1.4 -1.4 -1.4 -1.4 -1.4 -1.4 -1.4 -1.4 -1.4 -1.4 -1.4 -1.4 -1.4 -1.4 -1.4 -1.4 -1.4 -1.4 -1.4 -1.4 -1.4 -1.4 -1.4 -1.4 -1.4 -1.4 -1.4 -1.4 -1.4 -1.4 -1.4 -1.4 -1.4 -1.4 -1.4 -1.4 -1.4 -1.4 -1.4 -1.4 -1.4 -1.4 -1.4 -1.4 -1.4 -1.4 -1.4 -1.4 -1.4 -1.4 -1.4 -1.4 -1.4 -1.4 -1.4 -1.4 -1.4 -1.4 -1.4 -1.4 -1.4 -1.4 -1.4 -1.4 -1.4 -1.4 -1.4 -1.4 -1.4 -1.4 -1.4 -1.4 -1.4 -1.4 -1.4 -1.4 -1.4 -1.4 -1.4 -1.4 -1.4 -1.4 -1.4 -1.4 -1.4 -1.4 -1.4 -1.4 -1.4 -1.4 -1.4 -1.4 -1.4 -1.4 -1.4 -1.4 -1.4 -1.4 -1.4 -1.4 -1.4 -1.4 -1.4 -1.4 -1.4 -1.4 -1.4 -1.4 -1.4 -1.4 -1.4 -1.4 -1.4 -1.4 -1.4 -1.4 8.6 25.2 33.4 41.3 52.6 57.7 70.7 83 91.6 95.3 104.3 110.5 118.8 121.3 129.9 139.9 153.5 168.3 171.7 178 179.3 187.1 193.3 196.9 203.7 204.7 210.2 222.4 232.1
-1.4 -1.4 -1.4 -1.4 -1.4 -1.4 -1.4 -1.4 -1.4 -1.4 -1.4 -1.4 -1.4 -1.4 -1.4 -1.4 -1.4 -1.4 -1.4 -1.4 -1.4 -1.4 -1.4 -1.4 -1.4 -1.4 -1.4 -1.4 -1.4 -1.4 -1.4 -1.4 -1.4 -1.4 -1.4 -1.4 -1.4 -1.4 -1.4 -1.4 -1.4 -1.4 -1.4 -1.4 -1.4 -1.4 -1.4 -1.4 -1.4 -1.4 -1.4 -1.4 -1.4 -1.4 -1.4 -1.4 -1.4 -1.4 -1.4 -1.4 -1.4 -1.4 -1.4 -1.4 -1.4 -1.4 -1.4 -1.4 -1.4 -1.4 -1.4 -1.4 -1.4 -1.4 -1.4 -1.4 -1.4 -1.4 -1.4 -1.4 -1.4 -1.4 -1.4 -1.4 -1.4 -1.4 -1.4 -1.4 -1.4 -1.4 -1.4 -1.4 -1.4 -1.4 -1.4 -1.4 -1.4 -1.4 -1.4 -1.4 -1.4 -1.4 -1.4 -1.4 -1.4 -1.4 -1.4 -1.4 -1.4 -1.4 -1.4 -1.4 -1.4 -1.4 -1.4 -1.4 -1.4 -1.4 -1.4 -1.4 -1.4 -1.4 -1.4 -1.4 -1.4 -1.4 -1.4 -1.4 -1.4 -1.4 -1.4 -1.4 -1.4 -1.4 -1.4 -1.4 -1.4 -1.4 -1.4 -1.4 -1.4 -1.4 -1.4 -1.4 -1.4 -1.4 -1.4 -1.4 -1.4 -1.4 -1.4 -1.4 -1.4 -1.4 -1.4 -1.4 -1.4 -1.4 -1.4 -1.4 -1.4 -1.4 -1.4 -1.4 -1.4 -1.4 -1.4 -1.4 -1.4 -1.4 -1.4 5.3 23.6 30.2 39.5 44.7 55 67.7 75.2 82.8 91 99.1 109.3 114 118.5 121.5 131 147.9 157.7 161.5 167.5 173.7 178.9 180.2 184.6 192.1 199.3 200.2 208.4 222
-1.4 -1.4 -1.4 -1.4 -1.4 -1.4 -1.4 -1.4 -1.4 -1.4 -1.4 -1.4 -1.4 -1.4 -1.4 -1.4 -1.4 -1.4 -1.4 -1.4 -1.4 -1.4 -1.4 -1.4 -1.4 -1.4 -1.4 -1.4 -1.4 -1.4 -1.4 -1.4 -1.4 -1.4 -1.4 -1.4 -1.4 -1.4 -1.4 -1.4 -1.4 -1.4 -1.4 -1.4 -1.4 -1.4 -1.4 -1.4 -1.4 -1.4 -1.4 -1.4 -1.4 -1.4 -1.4 -1.4 -1.4 -1.4 -1.4 -1.4 -1.4 -1.4 -1.4 -1.4 -1.4 -1.4 -1.4 -1.4 -1.4 -1.4 -1.4 -1.4 -1.4 -1.4 -1.4 -1.4 -1.4 -1.4 -1.4 -1.4 -1.4 -1.4 -1.4 -1.4 -1.4 -1.4 -1.4 -1.4 -1.4 -1.4 -1.4 -1.4 -1.4 -1.4 -1.4 -1.4 -1.4 -1.4 -1.4 -1.4 -1.4 -1.4 -1.4 -1.4 -1.4 -1.4 -1.4 -1.4 -1.4 -1.4 -1.4 -1.4 -1.4 -1.4 -1.4 -1.4 -1.4 -1.4 -1.4 -1.4 -1.4 -1.4 -1.4 -1.4 -1.4 -1.4 -1.4 -1.4 -1.4 -1.4 -1.4 -1.4 -1.4 -1.4 -1.4 -1.4 -1.4 -1.4 -1.4 -1.4 -1.4 -1.4 -1.4 -1.4 -1.4 -1.4 -1.4 -1.4 -1.4 -1.4 -1.4 -1.4 -1.4 -1.4 -1.4 -1.4 -1.4 -1.4 -1.4 -1.4 -1.4 -1.4 -1.4 -1.4 -1.4 -1.4 -1.4 -1.4 -1.4 -1.4 -1.4 -1.4 7.5 29.7 38.5 45 52.1 61.7 69.1 74.2 82.7 89.5 99.9 107.8 111 118.6 122.5 139.6 145.4 152.5 160.5 164.9 170.1 174.8 179.1 183.7 191.7 197.4 201.8 209.5
-1.4 -1.4 -1.4 -1.4 -1.4 -1.4 -1.4 -1.4 -1.4 -1.4 -1.4 -1.4 -1.4 -1.4 -1.4 -1.4 -1.4 -1.4 -1.4 -1.4 -1.4 -1.4 -1.4 -1.4 -1.4 -1.4 -1.4 -1.4 -1.4 -1.4 -1.4 -1.4 -1.4 -1.4 -1.4 -1.4 -1.4 -1.4 -1.4 -1.4 -1.4 -1.4 -1.4 -1.4 -1.4 -1.4 -1.4 -1.4 -1.4 -1.4 -1.4 -1.4 -1.4 -1.4 -1.4 -1.4 -1.4 -1.4 -1.4 -1.4 -1.4 -1.4 -1.4 -1.4 -1.4 -1.4 -1.4 -1.4 -1.4 -1.4 -1.4 -1.4 -1.4 -1.4 -1.4 -1.4 -1.4 -1.4 -1.4 -1.4 -1.4 -1.4 -1.4 -1.4 -1.4 -1.4 -1.4 -1.4 -1.4 -1.4 -1.4 -1.4 -1.4 -1.4 -1.4 -1.4 -1.4 -1.4 -1.4 -1.4 -1.4 -1.4 -1.4 -1.4 -1.4 -1.4 -1.4 -1.4 -1.4 -1.4 -1.4 -1.4 -1.4 -1.4 -1.4 -1.4 -1.4 -1.4 -1.4 -1.4 -1.4 -1.4 -1.4 -1.4 -1.4 -1.4 -1.4 -1.4 -1.4 -1.4 -1.4 -1.4 -1.4 -1.4 -1.4 -1.4 -1.4 -1.4 -1.4 -1.4 -1.4 -1.4 -1.4 -1.4 -1.4 -1.4 -1.4 -1.4 -1.4 -1.4 -1.4 -1.4 -1.4 -1.4 -1.4 -1.4 -1.4 -1.4 -1.4 -1.4 -1.4 -1.4 -1.4 -1.4 -1.4 -1.4 -1.4 -1.4 -1.4 -1.4 -1.4 -1.4 4.1 24.4 34.1 42 49.5 58.9 67 70 74.4 81 89.8 99.9 105.5 114.3 122 134.5 134.6 143.2 155.9 156.8 163.4 169.5 174.7 175.5 183.1 191.5 197.6 201.5
-1.4 -1.4 -1.4 -1.4 -1.4 -1.4 -1.4 -1.4 -1.4 -1.4 -1.4 -1.4 -1.4 -1.4 -1.4 -1.4 -1.4 -1.4 -1.4 -1.4 -1.4 -1.4 -1.4 -1.4 -1.4 -1.4 -1.4 -1.4 -1.4 -1.4 -1.4 -1.4 -1.4 -1.4 -1.4 -1.4 -1.4 -1.4 -1.4 -1.4 -1.4 -1.4 -1.4 -1.4 -1.4 -1.4 -1.4 -1.4 -1.4 -1.4 -1.4 -1.4 -1.4 -1.4 -1.4 -1.4 -1.4 -1.4 -1.4 -1.4 -1.4 -1.4 -1.4 -1.4 -1.4 -1.4 -1.4 -1.4 -1.4 -1.4 -1.4 -1.4 -1.4 -1.4 -1.4 -1.4 -1.4 -1.4 -1.4 -1.4 -1.4 -1.4 -1.4 -1.4 -1.4 -1.4 -1.4 -1.4 -1.4 -1.4 -1.4 -1.4 -1.4 -1.4 -1.4 -1.4 -1.4 -1.4 -1.4 -1.4 -1.4 -1.4 -1.4 -1.4 -1.4 -1.4 -1.4 -1.4 -1.4 -1.4 -1.4 -1.4 -1.4 -1.4 -1.4 -1.4 -1.4 -1.4 -1.4 -1.4 -1.4 -1.4 -1.4 -1.4 -1.4 -1.4 -1.4 -1.4 -1.4 -1.4 -1.4 -1.4 -1.4 -1.4 -1.4 -1.4 -1.4 -1.4 -1.4 -1.4 -1.4 -1.4 -1.4 -1.4 -1.4 -1.4 -1.4 -1.4 -1.4 -1.4 -1.4 -1.4 -1.4 -1.4 -1.4 -1.4 -1.4 -1.4 -1.4 -1.4 -1.4 -1.4 -1.4 -1.4 -1.4 -1.4 -1.4 -1.4 -1.4 -1.4 -1.4 -1.4 -1.4 14.4 28.2 38.4 45 51.9 63.7 68.6 71.7 75.1 79.8 89.1 96.8 106.4 119.9 123.2 129.4 139.1 148 153.7 159.9 167.3 171.2 171.4 177.9 183.1 190.3 191.5
-1.4 -1.4 -1.4 -1.4 -1.4 -1.4 -1.4 -1.4 -1.4 -1.4 -1.4 -1.4 -1.4 -1.4 -1.4 -1.4 -1.4 -1.4 -1.4 -1.4 -1.4 -1.4 -1.4 -1.4 -1.4 -1.4 -1.4 -1.4 -1.4 -1.4 -1.4 -1.4 -1.4 -1.4 -1.4 -1.4 -1.4 -1.4 -1.4 -1.4 -1.4 -1.4 -1.4 -1.4 -1.4 -1.4 -1.4 -1.4 -1.4 -1.4 -1.4 -1.4 -1.4 -1.4 -1.4 -1.4 -1.4 -1.4 -1.4 -1.4 -1.4 -1.4 -1.4 -1.4 -1.4 -1.4 -1.4 -1.4 -1.4 -1.4 -1.4 -1.4 -1.4 -1.4 -1.4 -1.4 -1.4 -1.4 -1.4 -1.4 -1.4 -1.4 -1.4 -1.4 -1.4 -1.4 -1.4 -1.4 -1.4 -1.4 -1.4 -1.4 -1.4 -1.4 -1.4 -1.4 -1.4 -1.4 -1.4 -1.4 -1.4 -1.4 -1.4 -1.4 -1.4 -1.4 -1.4 -1.4 -1.4 -1.4 -1.4 -1.4 -1.4 -1.4 -1.4 -1.4 -1.4 -1.4 -1.4 -1.4 -1.4 -1.4 -1.4 -1.4 -1.4 -1.4 -1.4 -1.4 -1.4 -1.4 -1.4 -1.4 -1.4 -1.4 -1.4 -1.4 -1.4 -1.4 -1.4 -1.4 -1.4 -1.4 -1.4 -1.4 -1.4 -1.4 -1.4 -1.4 -1.4 -1.4 -1.4 -1.4 -1.4 -1.4 -1.4 -1.4 -1.4 -1.4 -1.4 -1.4 -1.4 -1.4 -1.4 -1.4 -1.4 -1.4 -1.4 -1.4 -1.4 -1.4 -1.4 -1.4 -1.4 8.6 24.2 33.9 42.1 48.3 56.9 67.1 70.4 71.9 71.9 79.9 90.8 99.9 102.5 87.7 95.2 108.4 107.4 111.1 116.5 132.9 161.1 160.2 176.6 180.1 183.2 186.6
-1.4 -1.4 -1.4 -1.4 -1.4 -1.4 -1.4 -1.4 -1.4 -1.4 -1.4 -1.4 -1.4 -1.4 -1.4 -1.4 -1.4 -1.4 -1.4 -1.4 -1.4 -1.4 -1.4 -1.4 -1.4 -1.4 -1.4 -1.4 -1.4 -1.4 -1.4 -1.4 -1.4 -1.4 -1.4 -1.4 -1.4 -1.4 -1.4 -1.4 -1.4 -1.4 -1.4 -1.4 -1.4 -1.4 -1.4 -1.4 -1.4 -1.4 -1.4 -1.4 -1.4 -1.4 -1.4 -1.4 -1.4 -1.4 -1.4 -1.4 -1.4 -1.4 -1.4 -1.4 -1.4 -1.4 -1.4 -1.4 -1.4 -1.4 -1.4 -1.4 -1.4 -1.4 -1.4 -1.4 -1.4 -1.4 -1.4 -1.4 -1.4 -1.4 -1.4 -1.4 -1.4 -1.4 -1.4 -1.4 -1.4 -1.4 -1.4 -1.4 -1.4 -1.4 -1.4 -1.4 -1.4 -1.4 -1.4 -1.4 -1.4 -1.4 -1.4 -1.4 -1.4 -1.4 -1.4 -1.4 -1.4 -1.4 -1.4 -1.4 -1.4 -1.4 -1.4 -1.4 -1.4 -1.4 -1.4 -1.4 -1.4 -1.4 -1.4 -1.4 -1.4 -1.4 -1.4 -1.4 -1.4 -1.4 -1.4 -1.4 -1.4 -1.4 -1.4 -1.4 -1.4 -1.4 -1.4 -1.4 -1.4 -1.4 -1.4 -1.4 -1.4 -1.4 -1.4 -1.4 -1.4 -1.4 -1.4 -1.4 -1.4 -1.4 -1.4 -1.4 -1.4 -1.4 -1.4 -1.4 -1.4 -1.4 -1.4 -1.4 -1.4 -1.4 -1.4 -1.4 -1.4 -1.4 -1.4 -1.4 -1.4 7.7 26.5 32.8 38.4 43.5 51.2 61 63.7 64.6 67.1 74 82.7 81.9 71.9 73.3 81.1 78.3 75.8 76.3 85.5 109.4 131.2 130.5 157.2 176.7 177.7 183.4
-1.4 -1.4 -1.4 -1.4 -1.4 -1.4 -1.4 -1.4 -1.4 -1.4 -1.4 -1.4 -1.4 -1.4 -1.4 -1.4 -1.4 -1.4 -1.4 -1.4 -1.4 -1.4 -1.4 -1.4 -1.4 -1.4 -1.4 -1.4 -1.4 -1.4 -1.4 -1.4 -1.4 -1.4 -1.4 -1.4 -1.4 -1.4 -1.4 -1.4 -1.4 -1.4 -1.4 -1.4 -1.4 -1.4 -1.4 -1.4 -1.4 -1.4 -1.4 -1.4 -1.4 -1.4 -1.4 -1.4 -1.4 -1.4 -1.4 -1.4 -1.4 -1.4 -1.4 -1.4 -1.4 -1.4 -1.4 -1.4 -1.4 -1.4 -1.4 -1.4 -1.4 -1.4 -1.4 -1.4 -1.4 -1.4 -1.4 -1.4 -1.4 -1.4 -1.4 -1.4 -1.4 -1.4 -1.4 -1.4 -1.4 -1.4 -1.4 -1.4 -1.4 -1.4 -1.4 -1.4 -1.4 -1.4 -1.4 -1.4 -1.4 -1.4 -1.4 -1.4 -1.4 -1.4 -1.4 -1.4 -1.4 -1.4 -1.4 -1.4 -1.4 -1.4 -1.4 -1.4 -1.4 -1.4 -1.4 -1.4 -1.4 -1.4 -1.4 -1.4 -1.4 -1.4 -1.4 -1.4 -1.4 -1.4 -1.4 -1.4 -1.4 -1.4 -1.4 -1.4 -1.4 -1.4 -1.4 -1.4 -1.4 -1.4 -1.4 -1.4 -1.4 -1.4 -1.4 -1.4 -1.4 -1.4 -1.4 -1.4 -1.4 -1.4 -1.4 -1.4 -1.4 -1.4 -1.4 -1.4 -1.4 -1.4 -1.4 -1.4 -1.4 -1.4 -1.4 -1.4 -1.4 -1.4 -1.4 -1.4 -1.4 6.2 17.7 29.2 38.5 44.3 50.7 56.2 60.1 60.5 62.7 67.3 71.9 52.9 45 55 57.2 55.5 62.3 74.2 73.6 83 95.4 100.4 110.7 126.8 161.4 171.1
