ncols 200
nrows 95
xllcorner 310000
yllcorner 140850
cellsize 50
-3.5 -3.5 -3.5 -3.5 -3.5 -3.5 -3.5 -3.5 -3.5 -3.5 -3.5 -3.5 -3.5 -3.5 -3.5 -3.5 -3.5 -3.5 -3.5 -3.5 -3.5 -3.5 -3.5 -3.5 -3.5 -3.5 -3.5 -3.5 -3.5 -3.5 -3.5 -3.5 -3.5 -3.5 -3.5 -3.5 -3.5 -3.5 -3.5 -3.5 -3.5 -3.5 -3.5 -3.5 -3.5 -3.5 -3.5 -3.5 -3.5 -3.5 -3.5 -3.5 -3.5 -3.5 -3.5 -3.5 -3.5 -3.5 -3.5 -3.5 -3.5 -3.5 -3.5 -3.5 -3.5 -3.5 -3.5 -3.5 -3.5 -3.5 -3.5 -3.5 -3.5 -3.5 -3.5 -3.5 -3.5 -3.5 -3.5 -3.5 -3.5 -3.5 -3.5 -3.5 -3.5 -3.5 -3.5 -3.5 -3.5 -3.5 -3.5 -3.5 -3.5 -3.5 -3.5 -3.5 -3.5 -3.5 -3.5 -3.5 -3.5 -3.5 -3.5 -3.5 -3.5 -3.5 -3.5 -3.5 -3.5 -3.5 -3.5 -3.5 -3.5 -3.5 -3.5 -3.5 -3.5 -3.5 -3.5 -3.5 -3.5 -3.5 -3.5 -2.4 -1.9 -1 -0.3 0.2 0.6 0.9 1.1 1.5 1.5 1.4 1.5 1.4 1.6 1.7 1.3 0.1 -1.1 -3.5 -3.5 -3.5 -3.5 -3.5 -3.5 -3.5 -3.5 -3.5 -3.5 -2.8 -2.7 -2.5 -2.3 -2.1 -1.8 -1.4 -1 -0.5 -0.3 -0.1 0.3 0.7 1.2 1.3 1.4 1.5 1.7 1.9 1.9 2.2 2.2 2.3 2.5 3 3.4 4 20.7 20.6 21 19.8 18.3 17.4 16.8 16.4 16.2 16.8 16.5 17.4 18.4 19 18 18.8 21.3 20.7 20.1 19.6 20.2 20
-3.5 -3.5 -3.5 -3.5 -3.5 -3.5 -3.5 -3.5 -3.5 -3.5 -3.5 -3.5 -3.5 -3.5 -3.5 -3.5 -3.5 -3.5 -3.5 -3.5 -3.5 -3.5 -3.5 -3.5 -3.5 -3.5 -3.5 -3.5 -3.5 -3.5 -3.5 -3.5 -3.5 -3.5 -3.5 -3.5 -3.5 -3.5 -3.5 -3.5 -3.5 -3.5 -3.5 -3.5 -3.5 -3.5 -3.5 -3.5 -3.5 -3.5 -3.5 -3.5 -3.5 -3.5 -3.5 -3.5 -3.5 -3.5 -3.5 -3.5 -3.5 -3.5 -3.5 -3.5 -3.5 -3.5 -3.5 -3.5 -3.5 -3.5 -3.5 -3.5 -3.5 -3.5 -3.5 -3.5 -3.5 -3.5 -3.5 -3.5 -3.5 -3.5 -3.5 -3.5 -3.5 -3.5 -3.5 -3.5 -3.5 -3.5 -3.5 -3.5 -3.5 -3.5 -3.5 -3.5 -3.5 -3.5 -3.5 -3.5 -3.5 -3.5 -3.5 -3.5 -3.5 -3.5 -3.5 -3.5 -3.5 -3.5 -3.5 -3.5 -3.5 -3.5 -3.5 -3.5 -3.5 -3.5 -3.5 -3.5 -1.9 -1.3 -0.9 -0.6 -0.4 0.3 1.1 1.7 2.1 2.3 2.6 2.9 2.9 2.8 2.9 3.1 3.5 3.7 3.4 2.6 1.9 1.2 -0.1 -1.4 -3.5 -3.5 -3.5 -3.5 -2.3 -2.1 -2 -1.9 -1.8 -1.6 -1.3 -1.1 -0.8 -0.5 -0.1 0.4 0.8 1 1.4 1.7 2.1 2.3 2.3 2.4 2.6 2.8 2.8 3 3 3.1 3.3 3.7 4.1 22.9 23.2 23.5 22.3 19.5 17.7 16.9 16.5 16.3 16.4 16.5 17.6 19.6 21.5 21.8 21.5 21.4 25.6 20.7 20.7 20 20.6 20.5
-3.5 -3.5 -3.5 -3.5 -3.5 -3.5 -3.5 -3.5 -3.5 -3.5 -3.5 -3.5 -3.5 -3.5 -3.5 -3.5 -3.5 -3.5 -3.5 -3.5 -3.5 -3.5 -3.5 -3.5 -3.5 -3.5 -3.5 -3.5 -3.5 -3.5 -3.5 -3.5 -3.5 -3.5 -3.5 -3.5 -3.5 -3.5 -3.5 -3.5 -3.5 -3.5 -3.5 -3.5 -3.5 -3.5 -3.5 -3.5 -3.5 -3.5 -3.5 -3.5 -3.5 -3.5 -3.5 -3.5 -3.5 -3.5 -3.5 -3.5 -3.5 -3.5 -3.5 -3.5 -3.5 -3.5 -3.5 -3.5 -3.5 -3.5 -3.5 -3.5 -3.5 -3.5 -3.5 -3.5 -3.5 -3.5 -3.5 -3.5 -3.5 -3.5 -3.5 -3.5 -3.5 -3.5 -3.5 -3.5 -3.5 -3.5 -3.5 -3.5 -3.5 -3.5 -3.5 -3.5 -3.5 -3.5 -3.5 -3.5 -3.5 -3.5 -3.5 -3.5 -3.5 -3.5 -3.5 -3.5 -3.5 -3.5 -3.5 -3.5 -3.5 -3.5 -3.5 -3.5 -3.5 -2.7 -1.9 -1.3 -0.4 0.4 0.7 1.2 1.3 1.7 2.6 3.2 3.5 3.8 4 4.5 4.5 4.2 4.9 6.5 9.6 7.3 8.5 7.1 5.9 4 2.5 1.2 0.3 -0.5 -1.1 -0.8 -0.9 -1 -1 -0.9 -0.9 -0.6 -0.4 -0.1 0.2 0.5 0.9 1.4 1.8 2.1 2.5 2.8 3.1 3.3 3.2 3.4 3.5 3.7 3.7 3.8 3.8 3.9 4 6.1 26 26 26 25.2 22.2 19.8 18.8 17.7 17.2 17 17.1 17.7 20.3 22.9 24.9 26.3 26.9 27.1 31.4 27.8 20.8 20.7 20.6 20.7
-3.5 -3.5 -3.5 -3.5 -3.5 -3.5 -3.5 -3.5 -3.5 -3.5 -3.5 -3.5 -3.5 -3.5 -3.5 -3.5 -3.5 -3.5 -3.5 -3.5 -3.5 -3.5 -3.5 -3.5 -3.5 -3.5 -3.5 -3.5 -3.5 -3.5 -3.5 -3.5 -3.5 -3.5 -3.5 -3.5 -3.5 -3.5 -3.5 -3.5 -3.5 -3.5 -3.5 -3.5 -3.5 -3.5 -3.5 -3.5 -3.5 -3.5 -3.5 -3.5 -3.5 -3.5 -3.5 -3.5 -3.5 -3.5 -3.5 -3.5 -3.5 -3.5 -3.5 -3.5 -3.5 -3.5 -3.5 -3.5 -3.5 -3.5 -3.5 -3.5 -3.5 -3.5 -3.5 -3.5 -3.5 -3.5 -3.5 -3.5 -3.5 -3.5 -3.5 -3.5 -3.5 -3.5 -3.5 -3.5 -3.5 -3.5 -3.5 -3.5 -3.5 -3.5 -3.5 -3.5 -3.5 -3.5 -3.5 -3.5 -3.5 -3.5 -3.5 -3.5 -3.5 -3.5 -3.5 -3.5 -3.5 -3.5 -3.5 -3.5 -3.5 -3.5 -3.5 -3.5 -3.5 -1.4 -0.5 0.2 1 2.1 2.4 3 3.1 3.2 3.9 7.6 29.1 27.5 25.5 24.4 22.8 21.3 18.3 14.4 10.6 7.9 6.3 6.2 5.9 8 6.4 3.7 2.6 1.6 0.8 0.7 0.3 0 0 0 0.1 0.2 0.6 0.9 1.2 1.5 1.9 2.3 2.8 3.2 3.5 3.9 4.3 4.8 4.2 4.2 4.7 10.5 10.7 13.6 24 26.4 27.4 28.3 28.8 29.4 28.6 27.2 25.1 22.6 21.5 20.4 20.6 21.3 22.3 23.3 25.7 27.3 29.8 31.9 32.3 32.2 33.8 31.8 31.5 33.7 30.8 27.1
-3.5 -3.5 -3.5 -3.5 -3.5 -3.5 -3.5 -3.5 -3.5 -3.5 -3.5 -3.5 -3.5 -3.5 -3.5 -3.5 -3.5 -3.5 -3.5 -3.5 -3.5 -3.5 -3.5 -3.5 -3.5 -3.5 -3.5 -3.5 -3.5 -3.5 -3.5 -3.5 -3.5 -3.5 -3.5 -3.5 -3.5 -3.5 -3.5 -3.5 -3.5 -3.5 -3.5 -3.5 -3.5 -3.5 -3.5 -3.5 -3.5 -3.5 -3.5 -3.5 -3.5 -3.5 -3.5 -3.5 -3.5 -3.5 -3.5 -3.5 -3.5 -3.5 -3.5 -3.5 -3.5 -3.5 -3.5 -3.5 -3.5 -3.5 -3.5 -3.5 -3.5 -3.5 -3.5 -3.5 -3.5 -3.5 -3.5 -3.5 -3.5 -3.5 -3.5 -3.5 -3.5 -3.5 -3.5 -3.5 -3.5 -3.5 -3.5 -3.5 -3.5 -3.5 -3.5 -3.5 -3.5 -3.5 -3.5 -3.5 -3.5 -3.5 -3.5 -3.5 -3.5 -3.5 -3.5 -3.5 -3.5 -3.5 -3.5 -3.5 -3.5 -3.5 -3.5 -1.9 -1 -0.2 0.8 1.7 2.5 3.5 12.1 6.8 13 26 28.3 29.7 29.7 28.8 27.5 26.1 24.3 22.5 18.5 14.2 11 9.2 6.5 6.1 6.1 7.2 5.3 -3.5 6.6 3.8 2.7 2 1.4 1 1 1 1 1.1 1.4 1.9 2.1 2.4 2.8 3.3 3.7 4.4 6.9 19.5 20.4 20.2 21.2 23.5 24 25.2 26.2 26.9 28.5 30 30.9 31.9 32.7 33.5 33.4 32.1 30.6 29.1 28.3 27.9 28.4 30.3 31.6 33.1 33.2 33.7 34.9 34.4 32.7 30.4 28.2 27.9 30.9 27.3 27.3 26.8
-3.5 -3.5 -3.5 -3.5 -3.5 -3.5 -3.5 -3.5 -3.5 -3.5 -3.5 -3.5 -3.5 -3.5 -3.5 -3.5 -3.5 -3.5 -3.5 -3.5 -3.5 -3.5 -3.5 -3.5 -3.5 -3.5 -3.5 -3.5 -3.5 -3.5 -3.5 -3.5 -3.5 -3.5 -3.5 -3.5 -3.5 -3.5 -3.5 -3.5 -3.5 -3.5 -3.5 -3.5 -3.5 -3.5 -3.5 -3.5 -3.5 -3.5 -3.5 -3.5 -3.5 -3.5 -3.5 -3.5 -3.5 -3.5 -3.5 -3.5 -3.5 -3.5 -3.5 -3.5 -3.5 -3.5 -3.5 -3.5 -3.5 -3.5 -3.5 -3.5 -3.5 -3.5 -3.5 -3.5 -3.5 -3.5 -3.5 -3.5 -3.5 -3.5 -3.5 -3.5 -3.5 -3.5 -3.5 -3.5 -3.5 -3.5 -3.5 -3.5 -3.5 -3.5 -3.5 -3.5 -3.5 -3.5 -3.5 -3.5 -3.5 -3.5 -3.5 -3.5 -3.5 -3.5 -3.5 -3.5 -3.5 -3.5 -3.5 -3.5 -3.5 -3.5 -1.6 -0.4 0.5 1.3 2.2 3.1 3.9 27.6 27.3 28.6 28.6 28.4 28.4 28.8 28.7 29.2 28.9 27.6 25.4 22.6 19.2 15.7 12.7 10.9 8 6.1 6.2 6.6 13.4 -3.5 -3.5 7 5 3.2 2.6 2.1 1.9 1.9 2 2 2.3 2.7 3.1 3.4 3.8 4.4 6.8 23.1 24.2 24.6 24.4 24.8 26.7 28 29.3 30.8 32 32.7 32.9 33.3 34.7 35.9 36.5 37.5 37.5 36.6 35.9 34.7 33.9 34.4 34.4 35.6 34.6 34.5 33.7 33 30.9 28.3 24.7 22 17.6 18.2 26 33.4 39.8 39.9
-3.5 -3.5 -3.5 -3.5 -3.5 -3.5 -3.5 -3.5 -3.5 -3.5 -3.5 -3.5 -3.5 -3.5 -3.5 -3.5 -3.5 -3.5 -3.5 -3.5 -3.5 -3.5 -3.5 -3.5 -3.5 -3.5 -3.5 -3.5 -3.5 -3.5 -3.5 -3.5 -3.5 -3.5 -3.5 -3.5 -3.5 -3.5 -3.5 -3.5 -3.5 -3.5 -3.5 -3.5 -3.5 -3.5 -3.5 -3.5 -3.5 -3.5 -3.5 -3.5 -3.5 -3.5 -3.5 -3.5 -3.5 -3.5 -3.5 -3.5 -3.5 -3.5 -3.5 -3.5 -3.5 -3.5 -3.5 -3.5 -3.5 -3.5 -3.5 -3.5 -3.5 -3.5 -3.5 -3.5 -3.5 -3.5 -3.5 -3.5 -3.5 -3.5 -3.5 -3.5 -3.5 -3.5 -3.5 -3.5 -3.5 -3.5 -3.5 -3.5 -3.5 -3.5 -3.5 -3.5 -3.5 -3.5 -3.5 -3.5 -3.5 -3.5 -3.5 -3.5 -3.5 -3.5 -3.5 -3.5 -3.5 -3.5 -3.5 -3.5 -2 -1.2 0 1 2 2.8 3.6 6 25.9 27.9 29 30.8 31.4 31.2 30.8 29.7 29 28.6 28.7 28.4 25 20.7 18.9 17.4 15.7 13.1 10.4 6.3 6.7 6.4 11 20.3 23 23.2 12.6 5.3 3.7 3.1 2.8 2.9 2.9 3 3.2 3.6 4.1 22.8 5.3 24.1 24.3 26.2 28.3 28.9 29.2 28.7 30.6 31.9 32.8 34.1 35.4 35.6 35.6 35.8 35 35.1 35.4 35.7 35.7 35.2 35 33.3 32.2 30.7 29.7 29.4 28.7 27.5 24.9 23.5 20.7 19.3 16.8 14.8 14.2 14.6 24.5 36.4 40.4 39.3
-3.5 -3.5 -3.5 -3.5 -3.5 -3.5 -3.5 -3.5 -3.5 -3.5 -3.5 -3.5 -3.5 -3.5 -3.5 -3.5 -3.5 -3.5 -3.5 -3.5 -3.5 -3.5 -3.5 -3.5 -3.5 -3.5 -3.5 -3.5 -3.5 -3.5 -3.5 -3.5 -3.5 -3.5 -3.5 -3.5 -3.5 -3.5 -3.5 -3.5 -3.5 -3.5 -3.5 -3.5 -3.5 -3.5 -3.5 -3.5 -3.5 -3.5 -3.5 -3.5 -3.5 -3.5 -3.5 -3.5 -3.5 -3.5 -3.5 -3.5 -3.5 -3.5 -3.5 -3.5 -3.5 -3.5 -3.5 -3.5 -3.5 -3.5 -3.5 -3.5 -3.5 -3.5 -3.5 -3.5 -3.5 -3.5 -3.5 -3.5 -3.5 -3.5 -3.5 -3.5 -3.5 -3.5 -3.5 -3.5 -3.5 -3.5 -3.5 -3.5 -3.5 -3.5 -3.5 -3.5 -3.5 -3.5 -3.5 -3.5 -3.5 -3.5 -3.5 -3.5 -3.5 -3.5 -3.5 -3.5 -3.5 -3.5 -2.2 -1.3 -0.6 0.3 1.4 2.6 3.5 4.7 22.8 23.8 24.2 25.7 26.8 28.6 31.3 32.1 32.3 31.6 30 28.6 26.9 25 22.3 19 17.7 17.1 17.3 13.4 8.9 7.4 5.9 5.8 5.8 7.7 12.6 19 24 24.8 7.3 4.1 3.8 3.8 3.8 3.9 4 4.4 23.9 25.2 25.1 25.7 26.3 27.8 29.9 32 32.8 32.4 33.3 34.5 35.5 37.1 38.4 38.9 38.3 37.1 35.1 33.7 32.2 31.2 30.2 29.4 28.8 27.4 26.5 25 23.8 23.2 21.3 19.2 17 15.2 13.4 12.4 11.4 10.7 9.6 11.5 22.8 33.8 37.5 38.2
-3.5 -3.5 -3.5 -3.5 -3.5 -3.5 -3.5 -3.5 -3.5 -3.5 -3.5 -3.5 -3.5 -3.5 -3.5 -3.5 -3.5 -3.5 -3.5 -3.5 -3.5 -3.5 -3.5 -3.5 -3.5 -3.5 -3.5 -3.5 -3.5 -3.5 -3.5 -3.5 -3.5 -3.5 -3.5 -3.5 -3.5 -3.5 -3.5 -3.5 -3.5 -3.5 -3.5 -3.5 -3.5 -3.5 -3.5 -3.5 -3.5 -3.5 -3.5 -3.5 -3.5 -3.5 -3.5 -3.5 -3.5 -3.5 -3.5 -3.5 -3.5 -3.5 -3.5 -3.5 -3.5 -3.5 -3.5 -3.5 -3.5 -3.5 -3.5 -3.5 -3.5 -3.5 -3.5 -3.5 -3.5 -3.5 -3.5 -3.5 -3.5 -3.5 -3.5 -3.5 -3.5 -3.5 -3.5 -3.5 -3.5 -3.5 -3.5 -3.5 -3.5 -3.5 -3.5 -3.5 -3.5 -3.5 -3.5 -3.5 -3.5 -3.5 -3.5 -3.5 -3.5 -3.5 -3.5 -3.5 -3.5 -1.9 -0.9 0 0.9 1.8 2.7 3.9 24.7 24.3 24.1 23.7 22.9 22.7 23.8 24.4 27 29.7 31.4 30.3 28.8 27 25.4 23.8 22.4 19.9 19.1 18.5 17.6 16.1 14.2 10.9 7.4 5.7 5.7 7.1 9.9 11.2 14.4 20.6 24.8 17.3 5.5 4.2 4.2 4.8 7 28.1 27.8 27.4 27.4 27.8 28.4 29.6 31.7 34.1 35.2 35.8 36.4 37 38.6 40.2 41.9 42.4 41.8 38.8 35.8 34.1 32 29.5 27.8 26.4 25.5 23.8 22.8 21.3 19 18.1 15.7 13.8 12.3 10.9 10.1 9.5 9.1 8.9 8.3 6.7 15.7 19.2 26.5 28.1
-3.5 -3.5 -3.5 -3.5 -3.5 -3.5 -3.5 -3.5 -3.5 -3.5 -3.5 -3.5 -3.5 -3.5 -3.5 -3.5 -3.5 -3.5 -3.5 -3.5 -3.5 -3.5 -3.5 -3.5 -3.5 -3.5 -3.5 -3.5 -3.5 -3.5 -3.5 -3.5 -3.5 -3.5 -3.5 -3.5 -3.5 -3.5 -3.5 -3.5 -3.5 -3.5 -3.5 -3.5 -3.5 -3.5 -3.5 -3.5 -3.5 -3.5 -3.5 -3.5 -3.5 -3.5 -3.5 -3.5 -3.5 -3.5 -3.5 -3.5 -3.5 -3.5 -3.5 -3.5 -3.5 -3.5 -3.5 -3.5 -3.5 -3.5 -3.5 -3.5 -3.5 -3.5 -3.5 -3.5 -3.5 -3.5 -3.5 -3.5 -3.5 -3.5 -3.5 -3.5 -3.5 -3.5 -3.5 -3.5 -3.5 -3.5 -3.5 -3.5 -3.5 -3.5 -3.5 -3.5 -3.5 -3.5 -3.5 -3.5 -3.5 -3.5 -3.5 -3.5 -3.5 -3.5 -3.5 -2.2 -1.6 -0.8 0.1 1.2 2.2 3.1 4.1 30.9 29.1 27.2 26.5 25 23.1 21.2 20.7 21.8 23.2 24.5 24.7 25.4 24.4 23.4 22.5 21.7 21.7 20.9 20.8 20.6 19.9 18 15 12.1 8.4 5.9 5.6 11.6 18.5 17.1 17.5 17.6 19.5 21.8 22.9 23.5 23.8 25.1 27.4 28.4 28.9 29 28.9 29.9 30.8 31.9 33.9 35.6 36.7 37.6 38.8 39 39.7 41.7 43.3 43.8 42.4 39.2 36.5 34.6 31.1 28.5 26.3 24.5 23.4 21.7 19.6 17.9 15.8 14.3 12.6 11.2 10.3 9.4 8.6 8.1 7.9 7.7 7.5 6.5 14.4 26 27.1 28.2
-3.5 -3.5 -3.5 -3.5 -3.5 -3.5 -3.5 -3.5 -3.5 -3.5 -3.5 -3.5 -3.5 -3.5 -3.5 -3.5 -3.5 -3.5 -3.5 -3.5 -3.5 -3.5 -3.5 -3.5 -3.5 -3.5 -3.5 -3.5 -3.5 -3.5 -3.5 -3.5 -3.5 -3.5 -3.5 -3.5 -3.5 -3.5 -3.5 -3.5 -3.5 -3.5 -3.5 -3.5 -3.5 -3.5 -3.5 -3.5 -3.5 -3.5 -3.5 -3.5 -3.5 -3.5 -3.5 -3.5 -3.5 -3.5 -3.5 -3.5 -3.5 -3.5 -3.5 -3.5 -3.5 -3.5 -3.5 -3.5 -3.5 -3.5 -3.5 -3.5 -3.5 -3.5 -3.5 -3.5 -3.5 -3.5 -3.5 -3.5 -3.5 -3.5 -3.5 -3.5 -3.5 -3.5 -3.5 -3.5 -3.5 -3.5 -3.5 -3.5 -3.5 -3.5 -3.5 -3.5 -3.5 -3.5 -3.5 -3.5 -3.5 -3.5 -3.5 -3.5 -3.5 -3.5 -1.9 -1 -0.4 0.3 1.3 2.2 3.3 9.5 35.9 34.8 33 31.6 29.4 26.9 24.6 21.2 19.2 19.2 19.6 19.9 19.8 20.1 19.8 19 19.1 19.5 20.1 20.8 21.7 22.1 21.6 20.1 18.1 14.8 10.6 5.7 5.9 11.4 19.2 24 24.8 24.8 23.9 23.3 23.9 23.4 23.6 24.5 25.6 26.9 27.9 29.6 30.8 31.7 33.2 34.4 35.8 36.7 38 39.7 39.7 39.7 40 41 41.7 43 41.7 39.5 36.8 34.7 30.9 28.6 25.8 24.2 22.3 18.8 17.2 15.4 13.6 12.9 11.3 10.8 10 9.1 8.4 8.1 7.9 7.6 7.2 5.1 16 29.6 31.3 35.4
-3.5 -3.5 -3.5 -3.5 -3.5 -3.5 -3.5 -3.5 -3.5 -3.5 -3.5 -3.5 -3.5 -3.5 -3.5 -3.5 -3.5 -3.5 -3.5 -3.5 -3.5 -3.5 -3.5 -3.5 -3.5 -3.5 -3.5 -3.5 -3.5 -3.5 -3.5 -3.5 -3.5 -3.5 -3.5 -3.5 -3.5 -3.5 -3.5 -3.5 -3.5 -3.5 -3.5 -3.5 -3.5 -3.5 -3.5 -3.5 -3.5 -3.5 -3.5 -3.5 -3.5 -3.5 -3.5 -3.5 -3.5 -3.5 -3.5 -3.5 -3.5 -3.5 -3.5 -3.5 -3.5 -3.5 -3.5 -3.5 -3.5 -3.5 -3.5 -3.5 -3.5 -3.5 -3.5 -3.5 -3.5 -3.5 -3.5 -3.5 -3.5 -3.5 -3.5 -3.5 -3.5 -3.5 -3.5 -3.5 -3.5 -3.5 -3.5 -3.5 -3.5 -3.5 -3.5 -3.5 -3.5 -3.5 -3.5 -3.5 -3.5 -3.5 -3.5 -2.8 -2.2 -1.6 -0.8 0 0.8 1.5 2.3 3.3 8.3 38.9 38 36.6 34.3 32.6 31.2 29 26.1 22.7 20 18.3 17.7 17.9 17.6 16.8 17.1 16 16.2 17.1 18.4 19.9 20.8 22.1 21.9 21.2 19.1 14.9 9 5.5 6.1 14.1 22.4 24.8 25.5 26 25.9 25.8 25.3 25.3 25.2 25.2 26.1 27.2 28.2 29.6 30.9 32.4 34.2 36.4 37.7 38.6 40 41 40.7 40.6 40.8 41.3 42 42.8 43.3 41.4 37.1 34.1 31.2 29.2 26 23.9 22.6 20 18.3 16.9 15.5 14.1 13.7 12.1 11.3 10.5 9.6 9.3 8.8 8.3 8 6.2 17.5 35 37.9 39.6
-3.5 -3.5 -3.5 -3.5 -3.5 -3.5 -3.5 -3.5 -3.5 -3.5 -3.5 -3.5 -3.5 -3.5 -3.5 -3.5 -3.5 -3.5 -3.5 -3.5 -3.5 -3.5 -3.5 -3.5 -3.5 -3.5 -3.5 -3.5 -3.5 -3.5 -3.5 -3.5 -3.5 -3.5 -3.5 -3.5 -3.5 -3.5 -3.5 -3.5 -3.5 -3.5 -3.5 -3.5 -3.5 -3.5 -3.5 -3.5 -3.5 -3.5 -3.5 -3.5 -3.5 -3.5 -3.5 -3.5 -3.5 -3.5 -3.5 -3.5 -3.5 -3.5 -3.5 -3.5 -3.5 -3.5 -3.5 -3.5 -3.5 -3.5 -3.5 -3.5 -3.5 -3.5 -3.5 -3.5 -3.5 -3.5 -3.5 -3.5 -3.5 -3.5 -3.5 -3.5 -3.5 -3.5 -3.5 -3.5 -3.5 -3.5 -3.5 -3.5 -3.5 -3.5 -3.5 -3.5 -3.5 -3.4 -3.3 -3.2 -3 -2.5 -2.1 -1.6 -1.1 -0.5 0.3 1.1 1.8 2.7 3.4 7.2 41.1 39.2 37.4 36.1 34.4 31.9 29.6 28.5 26.7 23.1 19.9 18.3 17.3 16.6 16.4 16.2 16 15.9 15.4 15.5 15.6 16.9 17.1 18.7 18.2 18.1 14.7 10.5 5.1 5.7 9.2 16.5 24.3 26.1 27 27.7 28.2 28.7 28.8 28.8 28.4 28.6 28.9 29.6 30.2 31.7 33 34.2 35.9 37.3 39.2 40.5 40.9 41.2 41.1 42.2 42.5 43.1 43.6 44.3 43.7 41 37.2 33.7 31.8 29.4 27.3 26.1 25.2 23 22 20.7 19.5 18.3 17.5 16.4 16 15.1 14.1 13.4 12.7 12 12.1 12.7 18.4 37.1 37.1 37.1
-3.5 -3.5 -3.5 -3.5 -3.5 -3.5 -3.5 -3.5 -3.5 -3.5 -3.5 -3.5 -3.5 -3.5 -3.5 -3.5 -3.5 -3.5 -3.5 -3.5 -3.5 -3.5 -3.5 -3.5 -3.5 -3.5 -3.5 -3.5 -3.5 -3.5 -3.5 -3.5 -3.5 -3.5 -3.5 -3.5 -3.5 -3.5 -3.5 -3.5 -3.5 -3.5 -3.5 -3.5 -3.5 -3.5 -3.5 -3.5 -3.5 -3.5 -3.5 -3.5 -3.5 -3.5 -3.5 -3.5 -3.5 -3.5 -3.5 -3.5 -3.5 -3.5 -3.5 -3.5 -3.5 -3.5 -3.5 -3.5 -3.5 -3.5 -3.5 -3.5 -3.5 -3.5 -3.5 -3.5 -3.5 -3.5 -3.5 -3.5 -3.5 -3.5 -3.5 -3.5 -3.5 -3.5 -3.5 -3.5 -3.5 -3.5 -3.5 -3.5 -3.5 -3.5 -3.5 -3.5 -2.7 -2.4 -2.4 -2.3 -2 -1.5 -1 -0.5 0.1 0.7 1.4 2.2 3 3.7 40.6 39.8 38.6 37.1 35 33.6 32.1 30 28.3 27.5 25.8 23.1 20.4 19 18 17.4 17 16.1 15.5 15.6 15.4 15.4 15.5 15 12.7 11.3 12.1 12.3 7.9 6.4 5.5 6.4 10.8 18.8 24.3 27.1 28.8 30.2 31.3 32 32.6 32.6 32.5 32.5 32.8 33.6 34.1 35.1 36.1 37.2 38.5 39.3 40.1 41.1 40.7 41.2 41.7 43.1 42.7 43.4 43.5 42.7 41.3 39.5 36.4 35.1 34.1 33 31.3 29.7 28.3 27.3 26.5 25.5 25.1 24.2 23.8 22.8 22 21.9 21.2 20.6 20.2 20.6 21.1 21.7 29.6 34.6 39.5 36.8
-3.5 -3.5 -3.5 -3.5 -3.5 -3.5 -3.5 -3.5 -3.5 -3.5 -3.5 -3.5 -3.5 -3.5 -3.5 -3.5 -3.5 -3.5 -3.5 -3.5 -3.5 -3.5 -3.5 -3.5 -3.5 -3.5 -3.5 -3.5 -3.5 -3.5 -3.5 -3.5 -3.5 -3.5 -3.5 -3.5 -3.5 -3.5 -3.5 -3.5 -3.5 -3.5 -3.5 -3.5 -3.5 -3.5 -3.5 -3.5 -3.5 -3.5 -3.5 -3.5 -3.5 -3.5 -3.5 -3.5 -3.5 -3.5 -3.5 -3.5 -3.5 -3.5 -3.5 -3.5 -3.5 -3.5 -3.5 -3.5 -3.5 -3.5 -3.5 -3.5 -3.5 -3.5 -3.5 -3.5 -3.5 -3.5 -3.5 -3.5 -3.5 -3.5 -3.5 -3.5 -3.5 -3.5 -3.5 -3.5 -3.5 -3.5 -3.5 -3.5 -3.5 -2.8 -2.3 -2 -1.7 -1.4 -1.4 -1.4 -0.9 -0.7 0 0.5 1.2 1.8 2.4 3.3 4.1 35.2 36.8 36.9 35.3 33.6 31.8 31.1 29.8 28.1 26.6 26.6 27 25.6 22.3 21 19.9 19.2 17.6 16.8 16.7 16.2 15.8 16.1 16.9 16 15.3 14.7 11.9 8.7 6.9 6.9 5.7 11.7 15.3 20.3 25.6 28.4 30.3 31.4 32.3 33.2 34.3 35.2 35.4 35.7 35.6 35.9 37 38.5 39.2 39.4 39.8 39.9 40.3 40.5 40.1 40.6 41.2 41.2 41 41 41.5 41.2 40.3 39.3 38.3 37.7 37.1 36.1 34.9 33.4 32.3 30.3 30.9 30.5 29.7 29.3 29.2 27.9 27.9 27.7 26.9 26.5 26.5 26.5 26.9 28.6 34.2 41.2 43.2 44.4
-3.5 -3.5 -3.5 -3.5 -3.5 -3.5 -3.5 -3.5 -3.5 -3.5 -3.5 -3.5 -3.5 -3.5 -3.5 -3.5 -3.5 -3.5 -3.5 -3.5 -3.5 -3.5 -3.5 -3.5 -3.5 -3.5 -3.5 -3.5 -3.5 -3.5 -3.5 -3.5 -3.5 -3.5 -3.5 -3.5 -3.5 -3.5 -3.5 -3.5 -3.5 -3.5 -3.5 -3.5 -3.5 -3.5 -3.5 -3.5 -3.5 -3.5 -3.5 -3.5 -3.5 -3.5 -3.5 -3.5 -3.5 -3.5 -3.5 -3.5 -3.5 -3.5 -3.5 -3.5 -3.5 -3.5 -3.5 -3.5 -3.5 -3.5 -3.5 -3.5 -3.5 -3.5 -3.5 -3.5 -3.5 -3.5 -3.5 -3.5 -3.5 -3.5 -3.5 -3.5 -3.5 -3.5 -3.5 -3.5 -3.5 -3.5 -3.5 -3.5 -2.9 -2.1 -1.4 -1 -0.7 -0.5 -0.5 -0.5 -0.1 0.3 0.8 1.5 2.1 3 3.6 6.6 30.5 30.7 30.9 30.1 30.1 28.4 27.2 27.1 26.5 26.1 24.8 26 27.8 27.7 24.5 22.1 19.2 16.9 16.1 16.8 17 16.6 16.7 15.9 16 15.4 16.6 17.6 17.7 14.3 9.8 6.9 6.4 19.1 23 26.3 29 29.8 31.5 32.1 32.8 33.7 35 36.4 36.8 37.1 37.3 37.1 38.3 38.9 39.4 38.5 38.9 38.9 39.3 40.2 39.7 39.7 39.6 39.5 39.3 38.8 38.8 39.5 38.9 38.6 38.3 38.4 36.8 34.9 33.8 32.6 32 31.2 30.7 30.9 31.3 31.3 30.7 30.2 29.5 28.6 27.7 26.8 25.7 25.3 25.8 26.3 34.6 35.4 36.1 38.8
-3.5 -3.5 -3.5 -3.5 -3.5 -3.5 -3.5 -3.5 -3.5 -3.5 -3.5 -3.5 -3.5 -3.5 -3.5 -3.5 -3.5 -3.5 -3.5 -3.5 -3.5 -3.5 -3.5 -3.5 -3.5 -3.5 -3.5 -3.5 -3.5 -3.5 -3.5 -3.5 -3.5 -3.5 -3.5 -3.5 -3.5 -3.5 -3.5 -3.5 -3.5 -3.5 -3.5 -3.5 -3.5 -3.5 -3.5 -3.5 -3.5 -3.5 -3.5 -3.5 -3.5 -3.5 -3.5 -3.5 -3.5 -3.5 -3.5 -3.5 -3.5 -3.5 -3.5 -3.5 -3.5 -3.5 -3.5 -3.5 -3.5 -3.5 -3.5 -3.5 -3.5 -3.5 -3.5 -3.5 -3.5 -3.5 -3.5 -3.5 -3.5 -3.5 -3.5 -3.5 -3.5 -3.5 -3.5 -3.5 -3.5 -3.5 -3.5 -3.5 -2.1 -1.4 -0.6 -0.1 0.3 0.5 0.5 0.5 0.7 1.3 1.7 2.3 3 3.9 28.9 28 27.9 26.3 25.3 23.9 23.8 23.5 23.3 23.1 23.4 23.3 22.9 25.4 27.3 25.8 22.3 20 16.9 15 15.3 16.7 18.3 18.6 16.4 14.6 13.3 12.6 12.6 13.7 13.8 12.9 10.3 6.2 6.1 20.2 25.2 28.1 30.1 31.4 33.9 34.3 34.5 34.7 35.5 36.1 34.7 34.9 35.4 36.6 38.6 38 37.1 36.8 36.9 37.4 39 38.7 40.8 40.9 40.1 38.8 37.2 36.9 35.2 34.8 35.3 35.8 35.3 34.4 33 31 29.4 28.3 27.4 27.6 26.8 26.8 26.8 26.8 26.9 26.4 25.9 24.8 23.8 23.1 23.1 23.1 23.1 24 26.9 29.5 31.5 31.3
-3.5 -3.5 -3.5 -3.5 -3.5 -3.5 -3.5 -3.5 -3.5 -3.5 -3.5 -3.5 -3.5 -3.5 -3.5 -3.5 -3.5 -3.5 -3.5 -3.5 -3.5 -3.5 -3.5 -3.5 -3.5 -3.5 -3.5 -3.5 -3.5 -3.5 -3.5 -3.5 -3.5 -3.5 -3.5 -3.5 -3.5 -3.5 -3.5 -3.5 -3.5 -3.5 -3.5 -3.5 -3.5 -3.5 -3.5 -3.5 -3.5 -3.5 -3.5 -3.5 -3.5 -3.5 -3.5 -3.5 -3.5 -3.5 -3.5 -3.5 -3.5 -3.5 -3.5 -3.5 -3.5 -3.5 -3.5 -3.5 -3.5 -3.5 -3.5 -3.5 -3.5 -3.5 -3.5 -3.5 -3.5 -3.5 -3.5 -3.5 -3.5 -3.5 -3.5 -3.5 -3.5 -3.5 -3.5 -3.5 -3.5 -3.5 -3.5 -2.1 -1.6 -0.7 0.1 0.9 1.2 1.5 1.4 1.4 1.6 2.1 2.6 3.2 3.8 31.2 30.5 29 26.4 24.6 23.2 22.1 21.3 21.1 20.9 20.6 20.6 20.6 20.8 23.4 23.8 21.5 18 16.4 13.4 12.8 13.6 14.3 14.4 14.2 14.2 12.4 10.9 11.8 11.6 11.1 10.5 9.6 8.3 6 5.8 14.2 19.3 22.7 25.2 26.6 29.2 31 31.6 31.9 31.3 30.6 29.9 29.9 30.9 32.5 35.3 34 34.4 35.1 36.4 36.7 37 40.3 42 41.2 38.8 36 33.3 32.5 31.4 30.9 31.5 32.2 31.6 30.8 29.8 28.4 27.8 26.3 25.6 25.6 25.1 24.7 24.5 24.4 24.3 23.8 23.3 23 22.4 22 21.9 22.3 23 24.5 25.3 26.6 27.9 30.5
-3.5 -3.5 -3.5 -3.5 -3.5 -3.5 -3.5 -3.5 -3.5 -3.5 -3.5 -3.5 -3.5 -3.5 -3.5 -3.5 -3.5 -3.5 -3.5 -3.5 -3.5 -3.5 -3.5 -3.5 -3.5 -3.5 -3.5 -3.5 -3.5 -3.5 -3.5 -3.5 -3.5 -3.5 -3.5 -3.5 -3.5 -3.5 -3.5 -3.5 -3.5 -3.5 -3.5 -3.5 -3.5 -3.5 -3.5 -3.5 -3.5 -3.5 -3.5 -3.5 -3.5 -3.5 -3.5 -3.5 -3.5 -3.5 -3.5 -3.5 -3.5 -3.5 -3.5 -3.5 -3.5 -3.5 -3.5 -3.5 -3.5 -3.5 -3.5 -3.5 -3.5 -3.5 -3.5 -3.5 -3.5 -3.5 -3.5 -3.5 -3.5 -3.5 -3.5 -3.5 -3.5 -3.5 -3.5 -3.5 -3.5 -2.1 -1.6 -1.1 -0.6 0 0.8 1.6 2.2 2.5 2.4 2.3 2.5 3 3.5 4.1 18.7 30.7 29.6 27.8 25.3 23.4 21.5 20.7 20.1 19.7 19.2 18.5 17.9 17.5 17.4 17.6 17.9 16.8 14 12.4 10.9 10.3 9.9 10.7 10.3 10 9.6 9 8.2 9.7 9.5 9.3 8.7 8.7 6.5 6.3 6.7 9.4 14.2 17.8 20 21.3 23.2 24.3 25.1 25.6 25.3 25.1 24.9 24.9 26.5 28.8 29.8 30.4 34.3 36.1 36.3 35.9 36.8 38.3 39.3 37.7 34.6 32.4 30.9 30.2 29.7 29.3 28.8 28.8 28.8 28.4 27.7 27.1 26.3 25.8 25.4 24.9 25.1 26 24.7 24.1 23.9 23.4 24 23.5 22.7 22.3 21.6 21.3 23.4 25.6 24.3 26 27 28.7
-3.5 -3.5 -3.5 -3.5 -3.5 -3.5 -3.5 -3.5 -3.5 -3.5 -3.5 -3.5 -3.5 -3.5 -3.5 -3.5 -3.5 -3.5 -3.5 -3.5 -3.5 -3.5 -3.5 -3.5 -3.5 -3.5 -3.5 -3.5 -3.5 -3.5 -3.5 -3.5 -3.5 -3.5 -3.5 -3.5 -3.5 -3.5 -3.5 -3.5 -3.5 -3.5 -3.5 -3.5 -3.5 -3.5 -3.5 -3.5 -3.5 -3.5 -3.5 -3.5 -3.5 -3.5 -3.5 -3.5 -3.5 -3.5 -3.5 -3.5 -3.5 -3.5 -3.5 -3.5 -3.5 -3.5 -3.5 -3.5 -3.5 -3.5 -3.5 -3.5 -3.5 -3.5 -3.5 -3.5 -3.4 -3.5 -3 -2.8 -2.7 -2.7 -2.8 -3.5 -3.5 -2.1 -1.4 -1.2 -1 -0.5 -0.3 -0.1 0.5 0.9 1.5 2.3 3.1 3.4 3.3 3.2 3.4 3.8 4.2 26 26.8 26.5 25.9 24.5 22.9 21.1 20.6 20.1 19.8 19.7 20 18.9 18.3 17 15.8 14.8 13.6 12.9 11.7 11 10.2 9.7 9.4 8.9 8.8 8.2 7.9 7.9 7.3 6.9 6.6 6.8 7.4 7.7 7.2 7.2 6.6 7.5 11.1 12.7 14.9 14.7 15 17.1 17.6 18.5 19.7 18.4 18.5 19.5 21.4 21.7 26 31.3 33.3 33.7 34.3 34.7 36.1 36.9 36.6 34.6 32.6 30.7 29.4 29 28.5 28.5 28.5 28.2 28.4 27.8 26.8 26.3 26.5 26.5 27.3 27 27.1 26.9 25.2 24.5 23.7 23.2 24.8 23.4 22.5 21.9 21.3 21.3 21 22.5 22.9 23.6 25.3 26.6
-3.5 -3.5 -3.5 -3.5 -3.5 -3.5 -3.5 -3.5 -3.5 -3.5 -3.5 -3.5 -3.5 -3.5 -3.5 -3.5 -3.5 -3.5 -3.5 -3.5 -3.5 -3.5 -3.5 -3.5 -3.5 -3.5 -3.5 -3.5 -3.5 -3.5 -3.5 -3.5 -3.5 -3.5 -3.5 -3.5 -3.5 -3.5 -3.5 -3.5 -3.5 -3.5 -3.5 -3.5 -3.5 -3.5 -3.5 -3.5 -3.5 -3.5 -3.5 -3.5 -3.5 -3.5 -3.5 -3.5 -3.5 -3.5 -3.5 -3.5 -3.5 -3.5 -3.5 -3.5 -3.5 -3.5 -3.5 -3.5 -3.5 -3.5 -3.5 -3.5 -3.5 -3.5 -2.8 -2.6 -2.4 -2.1 -2 -1.8 -1.7 -1.6 -1.6 -1.5 -1.3 -0.7 0 0.4 0.6 1 1.1 1.2 1.6 2 2.3 3 3.8 25 4.2 4.9 7 23.6 25.6 25.5 23.9 23 22.3 21 20.5 20.1 19.7 19.8 20.3 20.8 20.6 19.2 18.1 16.8 15.2 14 12.8 12.2 11.6 11.3 10.8 9.8 9.3 9.1 8.9 8.5 8.4 8.1 7.7 7.8 7.3 7.8 6.6 6.2 6.7 6.5 6 6.6 7.3 7.5 8.3 9.8 9.3 9.7 10.6 11.1 11.8 11.7 12.8 14.7 16.7 20.1 25.7 28.6 29.6 30.1 32.7 34.8 36.3 36.7 35.1 33.1 31.7 29.9 28.5 27.7 28 28.8 28.6 28.5 28.5 27.9 27.3 27.2 27.7 28.6 28.8 28 24.3 24.5 25.3 24 23.2 22.8 22.4 21.4 21.4 21.7 21.6 21.6 21.2 20.7 20.8 21.8 23.7 24.6
-3.5 -3.5 -3.5 -3.5 -3.5 -3.5 -3.5 -3.5 -3.5 -3.5 -3.5 -3.5 -3.5 -3.5 -3.5 -3.5 -3.5 -3.5 -3.5 -3.5 -3.5 -3.5 -3.5 -3.5 -3.5 -3.5 -3.5 -3.5 -3.5 -3.5 -3.5 -3.5 -3.5 -3.5 -3.5 -3.5 -3.5 -3.5 -3.5 -3.5 -3.5 -3.5 -3.5 -3.5 -3.5 -3.5 -3.5 -3.5 -3.5 -3.5 -3.5 -3.5 -3.5 -3.5 -3.5 -3.5 -3.5 -3.5 -3.5 -3.5 -3.5 -3.5 -3.5 -3.5 -3.5 -3.5 -3.5 -3.5 -3.5 -3.5 -3.5 -3.1 -2.5 -1.8 -1.6 -1.6 -1.3 -1.1 -1 -0.8 -0.6 -0.6 -0.5 -0.4 -0.2 0.7 1.4 1.9 2.3 2.5 2.5 2.5 2.7 3.1 3.5 3.8 25.4 25.2 25.7 24.1 21.4 19.5 20.4 22.4 21.1 20.3 20.1 19.8 19.5 19.5 19.6 20.4 20.8 21.2 20.9 19.3 17.4 15.7 14.3 13.7 12.7 12.1 12.5 12.2 11.5 10.4 9.6 9.5 9.4 8.7 7.6 7.6 7.3 6.4 6.3 6.1 6.2 6 5.7 5.7 5.7 5.7 6.7 7.1 7.2 7 7.6 7.6 7.9 8.4 8.8 9.3 10.3 11.2 13.7 16.5 22.4 24.1 25.2 30.5 33.8 34.2 35.1 34.9 33.8 32.8 31.7 30.6 28.2 27.1 28.5 29.8 29.7 28.6 29 27.5 26.6 26.7 26.4 25.7 26.3 25.7 23.7 24.4 24.5 23.9 22.8 22.2 23 22.9 22.8 22.6 22.7 23 22.3 21.1 20.1 21.2 21.1 21.9
-3.5 -3.5 -3.5 -3.5 -3.5 -3.5 -3.5 -3.5 -3.5 -3.5 -3.5 -3.5 -3.5 -3.5 -3.5 -3.5 -3.5 -3.5 -3.5 -3.5 -3.5 -3.5 -3.5 -3.5 -3.5 -3.5 -3.5 -3.5 -3.5 -3.5 -3.5 -3.5 -3.5 -3.5 -3.5 -3.5 -3.5 -3.5 -3.5 -3.5 -3.5 -3.5 -3.5 -3.5 -3.5 -3.5 -3.5 -3.5 -3.5 -3.5 -3.5 -3.5 -3.5 -3.5 -3.5 -3.5 -3.5 -3.5 -3.5 -3.5 -3.5 -3.5 -3.5 -3.5 -3.5 -3.5 -3.5 -3.5 -3.5 -3.5 -3.5 -2 -1.3 -0.6 -0.4 -0.4 -0.3 -0.1 0 0.2 0.4 0.4 0.7 0.8 1 1.9 2.8 3.4 3.9 4.1 4 3.9 4 6.4 8.8 22.3 21.8 21.7 22.4 22.2 18.9 18 18.6 19 18.9 19.1 19.1 18.8 18.9 19.2 20.2 20.9 21.3 21.5 21 19.3 17.1 15.3 14.2 13 12.5 12.6 13 12.7 11.7 11 10.1 9.1 8.2 8 7.5 7.2 6.8 6.4 6.4 6.3 6.3 6.1 6 5.7 5.8 5.7 5.7 5.8 6 5.6 6.5 6.4 6.4 7 7.9 8.7 10 10.9 13 14.7 19 22.5 26.5 30.1 31.9 32.3 33.1 33.1 32.5 32.6 31.5 30.6 27.7 26.2 28 28.5 27.2 26.4 25.7 25.7 24.5 24.5 24.7 23.9 24.1 23.2 23.3 23.1 23.2 23 22.7 22.8 23.5 23.8 23.9 23.7 24 23.4 22.7 21.3 20.5 20.2 20.4 20.6
-3.5 -3.5 -3.5 -3.5 -3.5 -3.5 -3.5 -3.5 -3.5 -3.5 -3.5 -3.5 -3.5 -3.5 -3.5 -3.5 -3.5 -3.5 -3.5 -3.5 -3.5 -3.5 -3.5 -3.5 -3.5 -3.5 -3.5 -3.5 -3.5 -3.5 -3.5 -3.5 -3.5 -3.5 -3.5 -3.5 -3.5 -3.5 -3.5 -3.5 -3.5 -3.5 -3.5 -3.5 -3.5 -3.5 -3.5 -3.5 -3.5 -3.5 -3.5 -3.5 -3.5 -3.5 -3.5 -3.5 -3.5 -3.5 -3.5 -3.5 -3.5 -3.5 -3.5 -3.5 -3.5 -3.5 -3.5 -2.3 -2 -1.7 -1.3 -0.8 -0.1 0.5 0.8 0.7 0.8 0.9 1 1.1 1.4 1.5 1.7 1.9 2.2 3.1 4.2 6.7 10 11.6 13.6 14.9 14.7 15.3 17.4 18.3 18.5 18.3 18.9 19.3 17.8 17 17.3 17.5 17.8 18.2 18.1 18.5 18.8 20 21 21.6 22 22.1 21 19.2 16.9 14.9 13.8 13 13 13 13.3 12.9 11.5 10.9 10.1 9.1 8.3 8 7.7 8 7.4 7.1 7.1 7.1 7 7.1 6.6 5.9 6 6.1 5.9 6 5.9 6.1 6.4 7 7.3 7.2 8.2 9.9 12.4 14.6 16.9 19.5 23.3 26 27.5 29.8 30.9 30.8 30.4 30.2 30 29.3 29.2 28.3 26.2 25.8 25.4 25.5 25 24.6 24.5 24.3 24.3 24.5 24.8 25.5 25.6 25 24.5 24.2 24.5 23.9 23.4 24.1 24.4 24.7 24.8 24.7 24.7 23.9 22.6 21.9 21.4 20.9 20.7 20.7
-3.5 -3.5 -3.5 -3.5 -3.5 -3.5 -3.5 -3.5 -3.5 -3.5 -3.5 -3.5 -3.5 -3.5 -3.5 -3.5 -3.5 -3.5 -3.5 -3.5 -3.5 -3.5 -3.5 -3.5 -3.5 -3.5 -3.5 -3.5 -3.5 -3.5 -3.5 -3.5 -3.5 -3.5 -3.5 -3.5 -3.5 -3.5 -3.5 -3.5 -3.5 -3.5 -3.5 -3.5 -3.5 -3.5 -3.5 -3.5 -3.5 -3.5 -3.5 -3.5 -3.5 -3.5 -3.5 -3.5 -3.5 -3.5 -3.5 -3.5 -3.5 -3.5 -3.5 -2.6 -2.2 -2 -1.7 -1.2 -0.8 -0.5 -0.1 0.5 1 1.7 1.9 1.9 1.8 2 2 2.1 2.3 2.5 2.8 3.1 3.4 4.6 9.6 7.9 9 9.6 10.2 11.6 13 13.2 14.2 15.1 16.2 16.4 15.8 16.8 16 16.3 16.5 16.9 17.3 17.8 18.2 18.7 20.1 21.2 22.5 23.6 23.4 22.9 21.4 18 15.6 14.7 13.8 13.1 13.3 13.4 13.5 12.9 12.1 11.4 10.3 9.3 8.7 8.8 9.1 9.6 9.7 9.1 8.7 9.5 8.6 8.3 7.6 6.7 6.5 6.7 7 6.8 7.2 7.6 8.9 10.5 11.4 13.1 14.3 16.7 20.1 22.2 24.4 24.7 26.9 28 28.6 29.1 29 28.6 28.2 27.7 27.4 27 26.6 26.2 25.8 25 25 24.9 24.7 24.5 24.5 24.7 24.6 25.1 25.1 25.8 25.9 25.2 25.1 25.2 25.5 25.2 24.3 24.6 25.4 25.6 25.8 25.8 25 24.1 23.5 23.7 22.7 22 22.3 22.2
-3.5 -3.5 -3.5 -3.5 -3.5 -3.5 -3.5 -3.5 -3.5 -3.5 -3.5 -3.5 -3.5 -3.5 -3.5 -3.5 -3.5 -3.5 -3.5 -3.5 -3.5 -3.5 -3.5 -3.5 -3.5 -3.5 -3.5 -3.5 -3.5 -3.5 -3.5 -3.5 -3.5 -3.5 -3.5 -3.5 -3.5 -3.5 -3.5 -3.5 -3.5 -3.5 -3.5 -3.5 -3.5 -3.5 -3.5 -3.5 -3.5 -3.5 -3.5 -3.5 -3.5 -3.5 -3.5 -3.5 -3.5 -3.5 -3.5 -3.5 -3.5 -3.5 -2.3 -1.6 -1.2 -0.9 -0.6 -0.2 0.3 0.7 1.1 1.7 2.3 2.9 3.1 3 2.9 3 3 3.1 3.3 3.5 3.8 4.4 18.7 15.5 11.8 8.7 8.6 9.4 10.4 11.2 13.1 14.1 14.3 14.4 14.6 15 15.1 15.6 15.8 16.4 16.2 17.3 18 19.3 19.9 20.5 22.2 24.1 26.4 28.2 27 22.9 20.6 16.8 15.4 14.6 13.7 13.2 13.4 13.6 13.9 12.9 13.1 11.8 10.7 10.1 9.9 10.6 12 12 13.9 13.1 12.4 12.1 10.9 9.9 9.4 9 8.6 8.8 9.7 10.9 14.2 15.2 16.5 19.4 21.2 23.8 25.2 27.2 27.4 28.3 30 30.3 29.8 29.8 29.3 28.4 27.8 27.3 26.8 26.3 26.2 26 25.7 25.2 25.1 25.1 25 24.9 24.7 24.5 24.5 24.8 25.3 26 26.1 26 26.2 26.2 26 26.4 26.6 26.4 25.1 26.2 26.4 26.5 27 26 25.4 24.7 24.7 24.4 23.5 23.5 23.7 23.3
-3.5 -3.5 -3.5 -3.5 -3.5 -3.5 -3.5 -3.5 -3.5 -3.5 -3.5 -3.5 -3.5 -3.5 -3.5 -3.5 -3.5 -3.5 -3.5 -3.5 -3.5 -3.5 -3.5 -3.5 -3.5 -3.5 -3.5 -3.5 -3.5 -3.5 -3.5 -3.5 -3.5 -3.5 -3.5 -3.5 -3.5 -3.5 -3.5 -3.5 -3.5 -3.5 -3.5 -3.5 -3.5 -3.5 -3.5 -3.5 -3.5 -3.5 -3.5 -3.5 -3.5 -3.5 -3.5 -3.5 -3.3 -3.5 -2.6 -2.4 -2.2 -1.9 -1.4 -0.8 -0.1 0.2 0.5 0.8 1.4 1.8 2.3 2.9 3.6 4.1 4.2 4.5 4 4 4 4.1 4.7 14.3 18.3 20.7 20.5 18.4 14.7 10.5 9.5 10.7 11.2 12.2 14.1 15 15.2 15.1 15.3 15.5 15.7 16 16.1 16.4 16.4 17.8 18.5 19.5 20.2 22.4 24.5 26.8 29.4 30.4 27.7 23.8 18.9 16 15.3 15.1 14.7 14.1 14.1 14.4 13.9 13.3 13.1 12.1 11.8 13.2 15.7 17.7 19.6 19.6 18.8 18.1 17 15.2 13.2 12.8 13 13.9 15.5 16.6 17.7 22.6 24.9 24.4 25.1 26.7 29.5 31.8 32.7 32.1 31.7 31.3 31.4 30.7 30.3 30.5 29.5 28.5 27.2 26.5 26.2 26 26.1 25.8 25.4 25.3 25.2 25.1 25.1 24.9 24.8 24.7 25.3 25.3 25.8 26.3 26.7 27 27.2 27 27.1 27.5 27.8 27.7 27 27.2 27.2 27.1 27.4 26.2 25.7 25.6 25.5 25.1 24.3 23.7 23.4 23.2
-3.5 -3.5 -3.5 -3.5 -3.5 -3.5 -3.5 -3.5 -3.5 -3.5 -3.5 -3.5 -3.5 -3.5 -3.5 -3.5 -3.5 -3.5 -3.5 -3.5 -3.5 -3.5 -3.5 -3.5 -3.5 -3.5 -3.5 -3.5 -3.5 -3.5 -3.5 -3.5 -3.5 -3.5 -3.5 -3.5 -3.5 -3.5 -3.5 -3.5 -3.5 -3.5 -3.5 -3.5 -3.5 -3.5 -3.5 -3.5 -3.5 -3.5 -3.5 -3.5 -3.5 -3.5 -3.5 -2.6 -2.2 -1.9 -1.6 -1.4 -1.1 -0.8 -0.4 0.2 0.8 1.3 1.6 1.9 2.3 2.9 3.4 4.1 17.4 16.2 18 16.6 15.7 16.3 16.7 17.3 17.3 16.7 16.7 15.9 15.3 15.1 15 12.3 10.3 11 10.4 13.9 14.9 15.8 16.2 16.1 16 16.1 16.3 16.4 16.7 17.1 17.4 17.8 17.8 19.1 20.8 22.6 25.5 27.5 30 29.3 25.1 21.4 18.5 17.2 17.4 17.4 16.9 15.8 15 14.5 14 13.7 13.7 14.9 17.1 21.3 24 25.7 26.8 25.1 24.9 24.9 23.3 21 15.8 18.7 21.1 21.9 24 25.4 24.3 28.9 30.6 29.9 29.6 30.6 33 34.9 35.6 35.5 33.9 32.2 30.5 29.9 30 29.9 29.2 28.4 26.6 26.2 26.3 26.5 26.4 25.9 25.5 25.3 25.2 25.3 25.3 25.2 25.1 25 25.7 26 26.5 26.7 27.5 28 28.1 27.7 28.1 28.4 28.6 28.2 27.7 27.9 27.9 27.7 27.1 26.8 26.7 26.6 26.1 25.8 25 25.4 24.7 24.2
-3.5 -3.5 -3.5 -3.5 -3.5 -3.5 -3.5 -3.5 -3.5 -3.5 -3.5 -3.5 -3.5 -3.5 -3.5 -3.5 -3.5 -3.5 -3.5 -3.5 -3.5 -3.5 -3.5 -3.5 -3.5 -3.5 -3.5 -3.5 -3.5 -3.5 -3.5 -3.5 -3.5 -3.5 -3.5 -3.5 -3.5 -3.5 -3.5 -3.5 -3.5 -3.5 -3.5 -3.5 -3.5 -3.5 -3.3 -2.7 -2.4 -2.5 -2.4 -2.4 -2.3 -2.1 -1.9 -1.5 -1.2 -0.9 -0.6 -0.3 -0.1 0.2 0.6 1.2 1.8 2.3 2.7 3 3.4 3.9 15.9 20.6 19.6 18.5 21.3 20.1 18.5 18.2 19.1 20.5 19.7 17.6 16 14.4 13.1 12.5 12 10.3 11.2 12.3 11.8 13.1 15.3 16.2 16.9 17.2 17.4 17.1 17.3 17.3 17.5 17.8 18 18.3 18.6 18.8 20.2 21.5 24.8 25.9 26 24.6 22 19.3 17.7 18.1 19.3 19.3 19.3 19.1 16.7 15.6 15 15.3 14.3 18.1 23 25.9 27.3 27.4 27.9 27.8 29.4 30.4 28.9 25.4 21.2 25.9 28.2 30.4 31.4 31.3 30 30.7 32.2 32.3 33.3 34.6 36 37.1 36.5 35.3 32.8 31 30 29 28.6 28.2 27.5 27.2 26.8 26.8 26.8 26.9 26.6 26.1 25.6 25.5 25.7 25.7 25.7 25.6 25.5 25.4 25.8 26.4 27 27.7 28.1 28.5 28.7 28.6 28.7 29.1 29.2 29.2 28.7 28.8 28.6 28.6 28.1 28 27.7 27.2 26.7 25.1 26.2 25.8 25.6 24
-3.5 -3.5 -3.5 -3.5 -3.5 -3.5 -3.5 -3.5 -3.5 -3.5 -3.5 -3.5 -3.5 -3.5 -3.5 -3.5 -3.5 -3.5 -3.5 -3.5 -3.5 -3.5 -3.5 -3.5 -3.5 -3.5 -3.5 -3.5 -3.5 -3.5 -3.5 -3.5 -3.5 -3.5 -3.5 -3.5 -3.5 -3.5 -3.5 -3.5 -3.5 -3.5 -3.5 -3.5 -3.5 -3.5 -2 -1.4 -1.2 -1.4 -1.4 -1.3 -1.2 -1.1 -0.9 -0.5 -0.2 0.2 0.4 0.7 1 1.3 1.6 2.2 2.8 3.3 3.7 4.1 6.9 29.6 22.7 20.7 20.6 21.2 22.3 22.2 21 18.9 18.1 17.7 17.8 17 15.3 14 12.9 12.3 11.1 11.8 12.7 13.7 13.4 13.1 15.9 16.5 17.3 17.9 18.4 18.1 18.3 18.1 18.3 18.5 18.7 19 19.4 19.6 19.9 21.2 23 24.2 23.7 22.2 20.4 19.5 19.8 20.9 21.4 22 23 21.7 18.5 17 17.4 18.3 16.5 16.9 20.5 22.4 24.8 27.3 29.5 30.8 32.4 34.7 34.1 29.4 26.6 31.7 33.5 34.7 34.5 32.9 31 32.8 35.3 37.8 38.3 38.9 38.5 36.4 34.6 32.8 31.6 30.7 28.8 28.2 27.8 27.2 27.1 27 26.9 26.8 27.2 27.3 26.8 26.5 26.5 26.3 26.4 26.5 26.6 26.4 25.9 25.7 26.1 27.1 27.6 27.4 28.5 28.9 29.1 29 29 29.1 29.2 30 29.3 29.5 29.1 28.9 28.4 28.5 27.4 27.5 26.9 26.8 27.1 26.3 25.3 23.8
-3.5 -3.5 -3.5 -3.5 -3.5 -3.5 -3.5 -3.5 -3.5 -3.5 -3.5 -3.5 -3.5 -3.5 -3.5 -3.5 -3.5 -3.5 -3.5 -3.5 -3.5 -3.5 -3.5 -3.5 -3.5 -3.5 -3.5 -3.5 -3.5 -3.5 -3.5 -3.5 -3.5 -3.5 -3.5 -3.5 -3.5 -3.5 -3.5 -3.5 -3.5 -3.5 -3.5 -3.5 -1.9 -1.3 -0.7 -0.1 0 -0.3 -0.3 -0.2 -0.1 0 0.2 0.5 0.8 1.2 1.5 1.8 2 2.3 2.6 3.1 3.8 5.7 48 40.5 32.7 25.2 21.9 21.8 21.3 20.7 20.6 19.9 19.1 18 16.1 15.5 15.2 14.5 13.6 13.4 13.1 12.4 12 13 13.4 14 14.6 14.8 15.7 16.6 17.8 18.7 18.9 19.5 19.2 19 19.2 19.4 19.7 19.8 20.4 20.8 20.3 21.7 23.6 24.7 24.5 23.5 22.5 22.7 22.9 23.3 25 26.1 25.9 24.3 20.1 19.2 19.4 19.4 19.3 18.6 19.7 20.4 21.1 23.3 26.5 29.3 32.2 33.9 35.1 33.3 29.7 34 36.2 35.6 35.3 34.8 34.9 36.2 38.6 40.5 40.4 38.3 36.5 34.9 33.8 32.6 30.3 29.8 29.3 28.8 28.2 27.5 27.3 27.1 27 26.9 27.3 27.6 27.6 27.6 27.5 27.1 27.3 27.4 27.3 27.1 26.5 26 26 26.8 27.8 28.4 28.5 29.3 29.6 29.6 29.8 30.2 30.5 30.7 30.5 29.5 29.5 29.4 29.1 28.5 28 26.9 27.3 27.6 27.2 26 24.9 23.8
-3.5 -3.5 -3.5 -3.5 -3.5 -3.5 -3.5 -3.5 -3.5 -3.5 -3.5 -3.5 -3.5 -3.5 -3.5 -3.5 -3.5 -3.5 -3.5 -3.5 -3.5 -3.5 -3.5 -3.5 -3.5 -3.5 -3.5 -3.5 -3.5 -3.5 -3.5 -3.5 -3.5 -3.5 -3.5 -3.5 -3.1 -2.6 -2.8 -3.5 -3.5 -3.5 -1.9 -0.8 -0.1 0.4 0.9 1.2 1.1 0.8 0.8 0.9 1 1 1.3 1.6 1.8 2.2 2.5 2.8 3.1 3.4 3.7 4.2 49.8 47.4 39.5 33 27.7 23.5 23 22.5 21.9 21.3 20.3 19.8 19.3 18.7 17.7 15.9 15.1 14.4 13.7 13.8 13.3 11.9 12.9 13.6 13.9 14.5 15.2 15.9 16.8 15.9 16.9 18.6 20 20.3 20.1 19.8 20.1 20.4 20.7 20.8 20.8 20.7 20.8 21.6 23.4 24.8 24.1 24.1 24.7 24.3 24.3 25.6 26.9 28.5 26.9 23.7 22.5 21.3 21.8 22 21.2 21.5 21.4 23.4 25 24.8 26 27.6 29.7 33.5 34.3 34.9 33.6 33.7 36.1 36.8 37.8 38 38.8 39.8 41.2 40.6 38.8 36.9 35.5 34.7 33.7 32.6 31.3 30.5 29.7 29.1 28.5 27.9 27.5 27.3 27.1 27.4 27.9 28.2 28.1 28.1 28 27.9 28.1 28.2 28.1 27.8 26.9 26.7 26.6 27.2 28.3 29 29 29.6 30 30.1 30.3 30.6 31.5 31.2 30.9 30.5 29.4 29.8 29.4 29.1 28.6 28.2 27.7 27.7 26.3 25.2 24.5 23.7
-3.5 -3.5 -3.5 -3.5 -3.5 -3.5 -3.5 -3.5 -3.5 -3.5 -3.5 -3.5 -3.5 -3.5 -3.5 -3.5 -3.5 -3.5 -3.5 -3.5 -3.5 -3.5 -3.5 -3.5 -3.5 -3.5 -3.5 -3.5 -3.5 -3.5 -3.5 -3.5 -3.5 -3.5 -3.5 -2.5 -2 -1.5 -1.4 -1.7 -1.7 -1.1 -0.3 0.7 1.7 2.2 2.5 2.5 2.2 1.9 1.9 2 2 2 2.3 2.6 2.9 3.2 3.6 3.8 4.1 45.6 43.2 51.2 47.6 41.3 34.4 29 26 24.4 23.9 23.2 22.7 22.1 21.1 20.3 20 19 17.8 16 15.7 15 14.3 13.8 13.3 13.7 13 14.2 14.6 15.3 16 16.9 17.2 17 16.8 18.4 20.9 21.1 21.3 20.8 21.3 21.6 22.2 22.4 22.2 22.7 23.3 25.2 27.9 28.6 28.3 28.2 28.1 27.9 27.6 28.8 29.8 29.4 28.3 26.7 25.6 25 26.2 26.6 26.6 26.8 27 28.4 27.5 28 29.4 29.2 30.6 32.6 34.9 36.8 36.9 36 37.3 39.2 40.7 41.4 42 41.5 41.1 39.3 38.2 36.8 36 35.2 34.3 33.1 32.1 31.5 30.6 29.7 28.9 28.1 28.1 27.7 27.4 27.8 28.3 28.8 28.7 28.6 28.5 28.4 28.3 28.7 28.2 27.6 27.5 27.3 27.1 27.9 28.7 29.5 29.5 30 30.4 30.6 30.8 31 31 31 30.5 30.8 30.8 30.5 30 29.5 28.9 29 28.4 26.7 25 24.2 23.9 24.2
-3.5 -3.5 -3.5 -3.5 -3.5 -3.5 -3.5 -3.5 -3.5 -3.5 -3.5 -3.5 -3.5 -3.5 -3.5 -3.5 -3.5 -3.5 -3.5 -3.5 -3.5 -3.5 -3.5 -3.5 -3.5 -3.5 -3.5 -3.5 -3.5 -3.5 -3.5 -3.5 -3.5 -2.6 -2.1 -1.5 -0.9 -0.4 0 -0.2 -0.1 0.5 1.3 2.1 3.2 4 4 3.6 3.3 3 3 3.1 3.1 3.1 3.3 3.6 4 9.2 55 58.3 57.1 54.7 53.6 49.9 43.4 36.2 30.8 28.2 26.7 25.8 25.1 24.2 23.5 22.8 22 21.2 20.3 19 17.5 17 16.8 16.2 15.4 14.6 14 13.2 14.2 15.6 15.4 15.9 16.8 18.1 18.8 19.4 20.1 19.1 20.1 22 22.3 22 22.5 22.9 24.1 24.2 25.1 27.6 29.2 32.5 34 33.5 33.7 33.5 32.6 31.5 31.2 32.1 33.1 32.5 31.5 30.8 29.7 30.3 32.3 33 32 31.8 33.5 33.2 32.1 34 33.2 32 33.3 34.8 37.2 39 39.7 38.6 39.4 41 42.2 43.4 42.8 41.1 40.3 39.6 38.4 37.4 36.5 35.8 35.1 33.9 33 32.1 31.3 30.4 29.6 29.2 28.6 28.1 27.9 28.1 28.6 29.2 29.4 29.3 29.2 29.1 28.8 28.4 28.2 28 27.9 27.7 27.7 28.5 29.4 29.8 30.1 30.3 30.8 30.8 31.3 31.7 31.7 31.1 30.4 31.1 31.2 30.8 30.6 30.2 29.4 29.1 28 26.5 25.3 24.5 25.8 25.8
-3.5 -3.5 -3.5 -3.5 -3.5 -3.5 -3.5 -3.5 -3.5 -3.5 -3.5 -3.5 -3.5 -3.5 -3.5 -3.5 -3.5 -3.5 -3.5 -3.5 -3.5 -3.5 -3.5 -3.5 -3.5 -3.5 -3.5 -3.5 -3.5 -3.5 -3.5 -2.8 -2.2 -1.6 -1.1 -0.5 0.1 0.7 1.2 1.2 1.5 2.1 2.9 3.7 6.8 26.4 25.9 25.7 5.1 4.1 4.1 5.1 14.5 4.1 4.2 29.1 34.7 43.6 54.1 59.8 59.4 58.1 55.9 52.1 43.2 37 34 30.4 28 26.8 26.2 25.3 24.4 24.1 22.5 21.3 20.6 19.7 19.4 18.5 18.1 17.5 16.6 15.6 14.9 14.4 15.3 16.5 16.9 17.3 18.9 19.3 19.8 21 21.1 19 19.4 22.5 23.1 23.2 23.8 24.7 25.4 26.3 30.6 34.4 38.4 42.4 44.4 43.2 43.1 41.1 40.7 39.2 37.9 37.7 37.6 36.5 35.7 35.8 35 37.1 36.9 39.3 39 38.4 37.7 38.7 38.4 37.8 35.8 34.7 38 39.9 42.7 44.1 44.3 43.1 40.7 41.2 43 43.9 43.4 43 41.8 40.8 39.7 38.5 37.5 36.6 35.7 34.4 33.9 32.8 31.6 31.1 30.4 30.1 29.2 28.7 28.5 28.8 29.1 29.5 29.9 29.9 29.8 29.7 29.2 28.7 28.3 28.4 28.3 28.4 28.6 29.2 29.8 30.2 30.9 31.3 31.3 31.8 32 32.4 32.6 32.4 32.4 31.5 31.5 31.2 29.9 30 29.3 28.6 27.4 26.2 26.1 26.6 27 28.1
-3.5 -3.5 -3.5 -3.5 -3.5 -3.5 -3.5 -3.5 -3.5 -3.5 -3.5 -3.5 -3.5 -3.5 -3.5 -3.5 -3.5 -3.5 -3.5 -3.5 -3.5 -3.5 -3.5 -3.5 -3.5 -3.5 -3.5 -3.4 -3.1 -2.8 -2.4 -1.9 -1.3 -0.7 -0.1 0.5 1.1 1.7 2.3 2.6 3 3.8 6.4 29.2 27.8 28.1 28.6 28.1 27.3 25.4 22.7 21.2 22.1 24.8 26.8 27.7 33.9 40.8 53.2 60.8 60.9 59.5 57.1 52.5 46.2 41.3 36.6 31.6 29.1 28.2 27.4 26.5 25.2 23.3 22.8 22.8 21.2 21.2 20.9 20.3 19.6 18.9 17.8 16.7 15.9 15.2 16 17.9 18.6 19.7 20.5 21 21.3 22 23.1 23.5 21.5 21.2 23.4 26.1 27.4 27.6 27.5 29.3 36 42.3 46.8 50.6 51.9 53.5 52.8 50.5 48.4 47.3 45.4 44.8 43.3 41.6 41.4 41.3 41.4 41.9 44.1 44.7 43.7 43.5 41.7 41.8 43.1 40.4 38.3 36.9 41.9 45.4 47 47.9 47.1 45.8 44.3 43.8 44.4 45.5 45.1 44.8 43.4 42.1 40.8 39.6 38.6 37.6 37 35.4 34.7 33.5 31.8 32.4 31.8 31.1 30.4 29.6 29.3 29.5 29.8 30.1 30 30.4 30.9 30.2 29.7 29.4 28.9 28.8 29 29.3 29.5 30.2 30 30.7 31.2 31.2 32.1 32.8 33.1 33.1 33.1 32.8 32.6 32 31.4 31.5 30.6 29.8 29.8 28.6 27.4 26.4 27.4 28 29 30.1
-3.5 -3.5 -3.5 -3.5 -3.5 -3.5 -3.5 -3.5 -3.5 -3.5 -3.5 -3.5 -3.5 -3.5 -3.5 -3.5 -3.5 -3.5 -3.5 -3.5 -3.5 -3.5 -3.5 -3.5 -3.5 -3.1 -2.8 -2.6 -2.3 -2.1 -1.6 -1 -0.5 0.2 0.9 1.4 2.1 2.7 3.3 3.9 7.7 37 36.6 34.2 31.5 30.8 32.3 34.1 33.1 29.8 25.3 23.7 25.1 30.5 34.4 34.1 36.5 41.6 53.2 61.7 62.1 60 55.9 49.6 45.1 40.7 36.3 32.3 30.2 29.4 28.7 26.7 27.5 27.8 28.2 27.3 24.8 23.9 22.8 22.2 21.4 20.2 19.1 18 17.4 18.2 19.6 21.2 21.3 21.5 23.3 24.9 25.6 26 26 25.9 23.8 21.7 24.8 28.9 31.7 32.2 31.9 29.8 34.9 46.4 51.2 53.4 55.9 59.4 57.3 55.5 56.4 55.5 53.1 50.4 48.3 47.4 47.3 47.7 47.9 48.2 49.1 49.2 48.7 47 45.7 46.6 45.9 43.2 38.9 38.5 44.6 48.4 50 50.4 50.1 48.9 48 47 47 47.9 48.4 46.9 45.6 44.1 43.2 41.7 40.2 39.5 38.2 37.1 36.1 34.8 34.7 34.2 33.2 32.5 31.7 31 30.3 30.4 30.6 30.9 31.2 31 32.1 31.7 31 30.2 30 29.6 29.5 30 30.4 30.4 30.3 31.1 31.7 32.4 33.2 33.5 33.7 33.8 33.6 33.3 33.1 31.4 32.3 31.5 30.8 30.2 29.5 28.7 29.5 28.2 28.7 29.9 31.2 32.2
-3.5 -3.5 -3.5 -3.5 -3.5 -3.5 -3.5 -3.5 -3.5 -3.5 -3.5 -3.5 -3.5 -3.5 -3.5 -3.5 -3.5 -3.5 -3.5 -3.5 -3.5 -3.5 -3.5 -3.5 -2.8 -2.3 -2 -1.8 -1.5 -1.2 -0.8 -0.2 0.4 1.1 1.7 2.4 3 3.7 5.5 23.8 34.6 34.6 35.4 37.4 35.8 33.9 39.2 42.5 39.2 33.1 27.9 25.2 28 37.6 42.5 44.7 43.7 46.3 55.6 63.2 62.9 59.1 53.1 47.7 42.7 39.4 36.4 33.2 31.7 30.8 31.2 32.9 35.2 36.3 37.4 38.2 35.1 27.1 25.1 23.8 22.9 21.6 20.1 21.5 22.8 23.9 25.7 26.8 26.3 25 28.9 31.8 34 34 31.2 29.8 25.7 24.1 24.1 30.6 35 37.5 40.2 39 35.1 39.6 46.2 48.5 51.1 54.5 58.3 63.6 65.8 63.5 58.4 55.1 52.9 53 53.4 54.1 54.6 54.4 54.7 54.3 52.9 50.6 48.7 47.9 47 43.4 45 43.5 46.8 51.2 53.5 53.6 53.4 52.2 51.2 50.3 49.6 50.3 50.7 49.4 48.1 46.6 45.7 44.1 43.1 42.4 40.1 39 38 37.1 36.4 35.9 35.2 33.9 32.8 32.2 32.2 31.7 31.9 31.9 32.1 32.6 32.5 32.2 31.7 31.2 30.9 30.5 30.4 30.3 30.4 31.5 31.5 31.7 32.2 32.9 33.6 33.9 34.2 34.3 34.1 33.8 33.5 32.7 32.8 32.1 30.8 30.2 29.6 28.7 27.8 29.1 31 31.9 33.5 34.5
-3.5 -3.5 -3.5 -3.5 -3.5 -3.5 -3.5 -3.5 -3.5 -3.5 -3.5 -3.5 -3.5 -3.5 -3.5 -3.5 -3.5 -3.5 -3.5 -3.5 -3.5 -3.2 -2.8 -2.3 -2.1 -1.7 -1.3 -1 -0.7 -0.5 -0.1 0.5 1.2 1.8 2.6 3.2 3.9 7.4 27.8 33.4 29.6 29.2 30.4 32.3 34.6 36.5 40.7 43.4 41.1 36 29.9 27.3 27.8 34.6 42.6 48.6 51.7 53.8 62.4 64.5 63.9 60.9 56.8 49.5 43.3 38.8 36.4 34.4 33.4 33.3 34.3 36.9 42.4 43 42.8 42.6 37.5 28.2 26.6 25.1 25.8 26.3 27.7 29 31 32 33.7 33.1 30.7 30.1 34.2 39.6 40.2 40.8 38.5 35.2 32.6 27.5 24.3 28 35.9 41.2 46.8 49.4 44.7 42.7 41.9 42.5 44.9 48.2 55.5 61.9 66.8 65.9 62.8 59.5 58.2 58.3 59.4 60 60.2 60 59.1 58.4 56.5 53.7 51.4 50.4 47.6 46.9 48.7 47.6 48.2 53.4 56.6 56.9 56.5 55.5 54.5 53.2 52.9 53.1 52.7 51.4 50.4 49.2 48.2 46.8 46 44.8 42.5 41.3 40.4 39.5 38.5 37.9 37.5 36.3 35.3 34.6 34.3 34 33.4 33.6 33.7 34 33.3 32.9 32.5 32.2 31.8 31.4 31.3 31.1 30.9 31.7 31.9 32.4 32.9 33.4 34 34.3 34.7 34.5 34.2 33.8 32.6 32.2 32.1 31.1 31.2 30.6 29.8 30 29 30.9 32.9 34 35.5 37.1
-3.5 -3.5 -3.5 -3.5 -3.5 -3.5 -3.5 -3.5 -3.5 -3.5 -3.5 -3.5 -3.5 -3.5 -3.5 -3.5 -3.5 -3.5 -3.5 -3.4 -3 -2.6 -2.1 -1.7 -1.4 -1.1 -0.6 -0.2 0.1 0.3 0.6 1.2 1.9 2.6 3.3 4.1 21.9 23.4 20.8 25.9 28.5 30.1 31.2 32.9 35.1 36.8 41.3 44.5 43.2 38 32.7 30.9 29 32 35.8 40.2 44.6 52.8 66 66.9 66.1 63.8 58.4 49.5 44.1 39.9 36.4 35.4 34.7 34.4 34.3 34.3 36.4 36.1 37.9 36.8 31.9 27.6 33.3 33.5 34.3 35.6 38 39 40.2 40 40.9 39.9 36.8 33.4 35.6 39 42.2 45.1 43.7 40.6 35 28.6 25.1 29.3 33.9 44.1 52.7 57.3 56.8 51.3 50.8 48.2 47.4 46.9 49.2 54 61.5 64 66 65.6 63 63.7 65.1 65.7 65.9 65.3 64.6 62.8 60.7 56.5 55 52.7 49.9 50 52.1 50.8 50.5 56 58.9 59.6 59.5 58.3 57 55.8 55.2 55 55.8 54.6 53.4 52.2 51.8 50 48.6 47 45.7 44.5 43.5 42.5 41.5 40.5 39.6 39 38 36.6 36.6 36.4 35.5 35.2 35.3 34.5 33.9 33.6 33.2 32.9 32.6 32.4 32.1 31.7 31.5 31.8 32.5 33 33.5 34 34.4 34.9 35.3 35.2 35 34.8 33.7 33.2 32 32.2 31.8 30.7 29.9 29.1 28.7 31.5 34.1 36 37.1 38.9
-2.2 -3.5 -3.5 -3.5 -3.5 -3.5 -3.5 -3.5 -3.5 -3.5 -3.5 -3.5 -3.5 -3.5 -3.5 -3.5 -3.5 -3.5 -3.5 -2.8 -2.4 -1.9 -1.5 -1 -0.7 -0.4 0 0.5 0.9 1.1 1.4 1.9 2.5 3.3 4 19.7 30.7 28.4 28.9 32.2 33 34.2 36.5 34.8 37.2 39.8 45.2 47.6 44.6 40.3 36.2 33 30.8 32.5 34.5 37.9 43.8 54.3 67.5 69.6 68.3 66.1 58.7 49.4 44.3 40.6 38.4 37.4 36.6 35.9 35.1 34.1 35.7 35.9 36.2 33.2 30.6 33.3 42.1 40.8 42 43.4 45.1 46 46.4 45.9 45 44.5 40.3 36.1 36.6 40.6 46.2 49.1 47 40.9 35.8 31.1 25.7 29 33.4 42.8 53.2 62.9 67.5 59.7 58.2 57 54.2 52.5 51.7 54.1 53.8 61.6 66.1 68.3 69.4 68.6 70.2 71.7 71.4 71.8 70.7 68.5 66.1 61.4 58 55.3 52.7 53.8 54.7 53.2 53.6 59.5 63.1 63.4 62.3 61.2 59.9 59.1 58.4 58.2 58.4 58 56.9 55.7 54.6 53.5 52.1 50.5 49.6 48.5 47.1 46 45.2 44.2 43.2 42.5 41.3 40.4 39.9 39.3 38.5 37 35.9 35.9 35.7 35.2 35 34.7 34.3 33.8 33.5 33.1 32.9 32.8 33 33.4 33.9 34.8 34.9 35.4 35.9 35.8 35.3 34.8 34.2 33 33 32.7 31.7 30.7 30.1 29.7 29.5 31.1 34.5 37.2 38.9 40.4
-0.9 -1.6 -2.5 -3.5 -3.5 -3.5 -3.5 -3.5 -3.5 -3.5 -3.5 -3.5 -3.5 -3.5 -3.5 -3.5 -3.5 -2.9 -2.7 -2.2 -1.7 -1.3 -0.8 -0.4 0 0.3 0.7 1.1 1.5 1.9 2.2 2.6 3.3 3.9 16.2 30.4 31.6 30 34.7 39.8 39.7 39.6 41.6 38.7 39.7 44.5 50.5 52.1 49.1 44.4 40 36.4 33.7 34.2 36.3 41.3 49.6 64 71.7 71.8 70.1 67.2 58.6 50 44.9 41.6 39.8 39.1 38.8 38.1 37.1 36.5 36.4 36.2 36.9 35.7 31.3 38.1 45.7 46.6 46.4 47.7 50.8 52.1 49.8 48.5 47.8 46.7 42.1 39.3 38.7 40.7 46 48.3 45.6 43.5 38.7 33.7 30.1 29.3 34.3 41.7 54.9 66.7 74.2 73.1 67.9 66.1 64.3 62.1 58.8 57.4 56.5 56.7 65.5 69.5 71.6 73.9 77.3 78.1 77.9 76.9 75.4 72.7 67.5 65 61.4 57.3 56.2 57.9 57.6 56.7 56.6 63.5 66.5 67.1 66.1 65.2 63.9 62.7 62.1 61.8 61.6 61 60.3 59.2 58.3 57 55.4 55.1 54 52.1 50.5 49.7 49.1 48.1 47 46.5 45.3 43.9 43.4 40.8 41.2 38.6 37.7 37.8 37.8 37.5 37.2 36.7 36.2 35.7 35.3 35 34.7 34.9 35 35.2 35.9 36.2 35.8 36.1 36.6 36.3 35.6 35.1 34.7 33.8 33.8 32.9 31.6 30.6 30.3 30.2 30.2 31.2 33.8 37 40.1 41.7
0.4 -0.8 -1.4 -2 -3.5 -3.5 -3.5 -3.5 -3.5 -3.5 -3.5 -3.1 -2.7 -2.6 -2.5 -2.5 -2.4 -2.2 -2 -1.6 -1.1 -0.6 -0.2 0.2 0.7 1 1.3 1.7 2.2 2.6 3 3.4 3.9 19 28.8 31.4 33.2 33.4 37.2 43.5 47.5 47.4 47.2 45.9 42.7 48.8 56.3 58.8 54.2 50.1 46.4 40.8 36.8 35.9 41.3 48.6 56.6 69.2 73.8 73.3 70.8 65.1 57.1 49.8 44.7 42.5 41.3 41.3 40.4 40 39 38.5 38.7 37.9 37.7 35.8 33.3 38.2 48.1 49.9 51.7 55.4 60.3 58.4 55.2 51.9 50.5 48 44.1 41.8 41 41 43.3 45.7 46.4 46.3 42.4 39.5 35.5 27.5 37 45.5 56.5 70.8 78.5 80.4 78.8 77.1 76.6 72.7 63.4 60.2 59 57.5 61.5 69.6 74.3 78.4 82.4 83.8 83.6 82.2 79.9 76.8 72.5 69.1 64.9 60 60.7 61.6 61.3 59.6 61 67.4 71 71.5 72 71.1 70.6 69.7 66.5 65.6 64.9 64.1 63.7 63.1 62.3 61.1 60 59.3 58.7 57.5 56.3 54.7 53.4 52.1 50.5 49.4 48.7 47.1 46.5 45.1 43.8 41.4 40 40.7 40.8 40.7 40.3 39.7 39.1 38.3 37.9 37.5 37.5 37.8 37.9 37.6 37.4 37.1 36.8 37.1 37.2 36.8 36.5 35.5 35.2 34.6 33.7 33.2 31.6 31.4 30.7 30.7 30.8 31 33.2 35.7 38.9 41.4
1.6 0.3 0 -0.4 -1.5 -2.2 -2.8 -3.5 -3.4 -3 -2.5 -2.1 -1.7 -1.6 -1.6 -1.7 -1.7 -1.4 -1.2 -0.9 -0.5 0 0.4 0.9 1.3 1.7 2 2.4 2.8 3.3 3.7 4.1 17.1 27 30 33.9 36.5 38.8 44.3 49.8 57.4 58.6 56.6 49.9 47.4 55.1 63 64.6 61.5 57.9 51.5 45 40 37.5 42.3 52.7 64.3 72.5 74 71.3 67 60.9 55.2 49.7 45.8 44 43.5 43.2 42.3 42 41.4 41.1 40.4 40.1 39.3 36.8 35 37.6 48.4 53.1 57.1 64.6 68.8 64.2 59.6 56.5 53.5 50.7 47.1 44.9 44 45.6 46.9 48.1 49 50.7 49.1 45.4 40.3 30 36.3 49.9 60.9 73.9 81.7 84.5 84.2 82.8 80.9 79 69 64.6 61.6 59.1 59.6 67.7 75.8 81.5 86 88.1 87.9 87.7 85.9 81.8 79.2 73.4 68.1 63.8 64.8 65.1 64 62.4 64.3 71.8 76.1 77.9 80 79.7 78.7 76.2 73.5 70.6 68.9 67.8 67.3 67.1 67.2 67 64.8 64.1 63.4 61.9 60.3 58.5 57.3 55.5 53.5 52 50 48.9 47.1 45.2 43 40.8 42.1 44.1 45 44.6 43.8 42.7 41.9 41.3 41.8 40.4 40 39.4 38.6 38.4 38.3 38 38.2 38 37.7 37.2 36.9 36.6 35.7 35.4 33.2 33.6 33.1 31.8 31.6 31.5 31.4 31.5 32.8 34.2 36.8 39.6
2.2 1.7 1.7 1.4 0.7 0.1 -0.9 -2.3 -2.3 -1.9 -1.5 -1.1 -0.6 -0.5 -0.6 -0.8 -0.9 -0.7 -0.4 -0.1 0.2 0.6 1.1 1.5 2 2.3 2.7 3.1 3.5 3.9 6.7 17 28.3 29.6 34 38.8 42.7 49 58.6 64.8 70.8 69.9 63.3 52.6 52.9 60 67.6 69.3 68.2 63.7 57.5 49.3 43.4 40.9 42.5 52.1 66.8 74.7 73.5 67.4 61.7 57.2 52.7 50.2 48 46.3 46.1 45.4 45.3 44.3 44 43.2 43.3 43 41.1 38.5 37.4 39.5 48.2 56.9 62 72 76.1 70.2 64.5 60.7 56.9 54.2 51.9 50.5 49.6 49.8 50.8 51.8 53.2 55.1 54.9 51.1 42.2 31.5 35.5 51.3 62.2 74.4 83.1 88.1 87.8 86.9 85 82.7 77.5 72.7 66.3 62.3 59.4 63.7 74.1 83.6 89 91.8 92.3 92.5 91 87.5 82.2 76.6 71.1 67.3 68.8 69 67.7 65.9 68 76.2 81.7 85.4 87.6 86.6 86.6 82 77.8 75.5 75.2 73.3 72.3 72 71.3 70.5 69.8 69 67.9 66.1 64.2 62.1 59.8 57.6 55.5 53.1 50.5 49.1 47.1 44.8 42.6 43.9 46.1 47.8 48.5 48.1 47.1 46.2 45.3 44.3 44 42.4 41.1 40 39.3 39.2 39.2 39.2 38.7 38.5 38.2 37.8 37.2 36.7 36.1 35.4 33.3 32.3 32.4 32.7 32.5 32.4 32.3 32.2 31.9 33 34.9 36.7
3.1 3 3.3 3.5 3 2.1 0.5 -0.9 -1.1 -0.9 -0.4 0 0.4 0.5 0.2 0 -0.2 0.1 0.3 0.6 0.9 1.3 1.7 2.2 2.6 3 3.3 3.7 4.1 7.8 28.8 33.2 35.8 36 41.9 47.7 53.3 60.2 71.9 77.2 78.6 74.6 64.6 53.6 59 66 70.8 72.9 70.6 66.4 59 50.6 45.6 42.3 42.8 50.6 65.3 77.3 75.7 69.5 64 59.1 54.6 51.2 49.8 48.9 49 48.1 47.2 47.1 45.2 45.2 45 45.3 43.8 40.1 39 40.6 47.1 57.6 62.9 71.5 75.8 71.4 66.8 63.5 61.2 60 57.6 56 55 54.9 56.3 57.4 59.1 59.2 58.1 54.1 42.9 31.4 36.5 48.2 62.4 74 83.8 91.6 90.2 89.6 88.3 85.9 83.6 80.1 71.4 65.5 60.5 61.9 69.9 82.3 89.8 94.6 96.4 96.9 95.3 88.7 85.7 80.7 74.8 72 73.2 72.8 71.4 68.9 71.7 79.7 87.4 92.8 96.5 97.7 95.6 89.5 83.3 82.8 82.6 81.3 78.8 77.1 76.7 75.5 74.5 73.5 71.8 69.7 67.3 64.1 61.2 58.5 55.7 53.2 50.7 48.3 46.2 44.1 44 46.7 49.6 51.3 50.8 50.5 49.8 48.7 46.8 45.4 44.3 42.9 41.3 40.3 40.2 39.8 39.8 39.3 39.3 39.1 38.8 38.5 37.9 37.2 36.3 34.9 32.8 33.1 32.9 33 33.3 33.3 33.2 32.5 32.3 32.8 33.5 35.1
7.6 7.4 25.5 34.2 34 3.5 1.7 0.6 0.1 0.2 0.6 1 1.4 1.3 1.1 0.8 0.6 0.8 1.1 1.3 1.7 2 2.4 2.8 3.2 3.6 4 9.2 31.1 32 34.4 45 51.2 47.6 52.3 56.1 58.9 68.5 80.5 82.9 81.9 77.5 67 60.9 65.3 70.5 73.9 75 72 66.9 59.3 51.7 47.6 45.6 44.5 49.8 63.7 77.4 78.1 73.1 68 62.4 57 53.3 52.5 51.2 50.7 50 49.5 48.7 47 47.9 48 47.4 45.7 42.3 40.4 42.1 45.9 51.8 59.5 67.2 70.9 70.2 66.5 64.2 65.6 66.4 64.7 63.1 61.7 61.5 61.9 63 62 59.1 55.3 50.5 43.9 32.2 34.4 47.1 63.3 73.3 83.3 92 94 92.3 91 89.2 86.7 82.8 77.8 71.8 65.1 61.9 66.8 77.8 89.4 95.9 99.1 100.6 99.5 92.9 89.7 83.7 77.8 75.6 77.2 76.7 74.2 74.4 78.1 84.6 93.2 97.5 100.2 101.3 98.9 94.9 89.8 90.3 89.7 88.3 85.6 83 81.1 80.1 78.8 76.8 74.2 71.8 67.6 63.4 60.1 57.1 54.5 52.1 49.4 47.6 46.2 45.2 46.6 49.6 51.6 52.1 52.1 51.7 50.7 49.8 47.6 45.6 43.6 43.3 42.2 41.5 41.1 40.7 40.3 40.1 39.8 39.6 39.3 38.8 38.2 37.1 36.1 34.8 33.6 33.8 33.5 33.7 34.1 34.3 34.3 34.2 33.8 33.4 33.8 34.6
33.5 35.4 36.4 37.2 35.8 16.8 2.9 2 1.4 1.4 1.7 2.1 2.4 2.1 1.9 1.7 1.4 1.5 1.8 2 2.4 2.7 3.1 3.5 3.9 6.5 27 29.8 32.3 34.9 35.8 42.3 51 58.2 62.1 58.6 62.1 72 83 85.3 83.8 77.5 66.7 67.3 70.9 75.7 77.6 76.8 72.9 67.6 60.2 55 52.9 50.2 47.8 48.6 59.4 73.9 78.7 74.6 69.2 63.4 58 55.6 54.1 54 52.3 52.1 51.6 51.2 50.3 50.2 49.4 49.1 47.3 44.7 42.7 45.7 46.4 49.7 54.9 60.7 67.8 68.5 66.8 67.9 69.9 70.8 69.3 69.2 67.8 66.7 63.5 59.5 56.1 52.5 48.7 43.9 39.7 32.3 35.4 46.9 60.7 71.6 81.2 89.3 95 95.6 93.6 91.9 89.6 86.4 81.7 75 68.6 63.4 66.6 75.6 89.6 96.3 100.7 102.8 102.6 95.9 92.7 86.7 80.4 79.1 79 78.7 79.5 82.6 84.7 89.9 96.6 100.5 103.2 104.8 102.9 99.9 96.4 95.9 95.7 95 91.3 87.8 85.5 83.4 82.1 79.1 75.1 70.7 66.4 62.3 58.3 55.2 52.8 50.7 49 47.2 44.9 46.8 48.9 51 52.6 53 52.9 52.4 50.9 49.6 47.4 45.6 44.2 43 43.6 42.5 41.9 41.4 41.1 40.8 40.4 40 39.6 39.2 38.1 36.3 36 35.3 34.4 34.6 34.5 34.7 34.9 35.2 35.4 35.6 35.7 35.5 35.3 35.7
39.4 41.1 41.1 40.5 38.2 35 4.5 3.3 2.8 2.6 2.8 3.1 3.5 3 2.8 2.5 2.3 2.3 2.5 2.8 3.1 3.5 3.8 4.8 28.8 30.4 31.4 35.8 37.2 41.4 40.9 40.1 43 47.7 51.9 55.6 61.1 68.4 79.5 86.8 85.3 78.1 71.2 73.7 75.5 79 81.7 79.7 74.6 66.7 61.9 59.7 57 54.6 52.4 51.2 56.2 67.4 75.1 75.4 70.3 64.4 59.7 57.8 57.3 56 55 55.3 54.7 54.1 52.8 52.1 51.6 50.8 49.5 45.5 46.3 48.1 50.2 50.4 54.2 61.1 67.5 68.6 67.6 70.3 72.5 71.6 69.5 69 66.6 62.3 57.6 53.2 49.2 45.9 42.8 41 38.1 34.4 37.2 46.3 56.6 67.2 79.2 85.6 93.2 97.5 96.4 94.6 92.3 89.8 84.9 79.3 71.4 66 68 74.5 86.1 94.7 100.5 103.3 103.1 98.6 95.5 89.5 85.6 83.8 83 82.5 82.9 85.6 88.4 92.5 98.3 102.3 105.1 106.6 106 104.5 102.7 102 101.3 98.5 95.3 91.8 88.7 86 82.5 78.3 73.4 68.6 64.1 60.3 56.4 54.3 51.5 49.8 48.4 47.7 46.7 48.2 51 53.1 53.8 53.6 53.5 52.9 51.3 49.5 47.4 45.5 45.1 43.9 43.1 43.1 42.3 42.1 41.6 41.2 40.8 40.4 40.1 38.7 37.2 36.4 36 35.3 34.7 35.9 35.4 36.2 37 37.4 37.4 37.3 37.3 37.5 38 36.9
45.1 46.4 45.9 44.5 42.1 39.1 32.4 5.1 4.1 3.8 3.9 7.5 4.6 3.9 3.6 3.4 3.1 3 3.2 3.5 3.8 4.4 16.3 30.8 32.2 34.8 37.1 41.2 44.3 47.9 46.1 45 43.6 44.4 48.7 53.3 58.4 65.4 74.2 85.2 87.3 82.7 75.5 79.4 81 84 85.1 83.6 78.3 74.9 70.2 64.9 61.5 58.3 55.1 53.7 56.5 64.6 73 76.2 72.3 67 62.3 59.8 59.4 58.4 57.6 57.9 57.2 55.8 54.9 54.3 53.8 52.1 49.6 46.1 50.2 50.9 52 52.9 55.6 61.8 66 68.2 68.6 69.1 70.4 69.9 65.8 64 60.4 56.7 52 50.1 48.9 47.5 47 44.3 39.2 34.6 37.9 45.2 53.7 63.2 72.9 81.9 91.2 96.7 99.7 97.5 93.4 90.8 87.7 82.5 75.8 68.1 70.8 75 84.4 92.7 98.8 103.3 103.8 100.5 98.3 95.2 91.6 89.8 87.7 85.5 85.8 88.6 91.4 94.9 99.1 103.2 106.3 107.5 107.7 106.8 105.8 104.8 103.2 101 97.1 92.9 89.4 85.8 80.9 75.7 70.5 65.7 61.8 57.9 55.2 53.5 51 51.1 50 48.9 48.3 49.7 52.8 54.4 54.9 55 54.5 53.2 51.4 49.8 48.1 46.2 45.9 44.8 44.1 43.5 43.5 42.9 42.1 41.6 41.2 40.2 39.5 38.5 37.3 36.6 36 35.5 36 36.5 37.2 37.2 38.3 38.7 39.1 39 38.9 38.6 38.2 38.3
49.4 52.2 51.9 50.2 46.3 43.8 40 38.1 33.4 36.6 30.6 27.9 29.4 4.6 4.2 4.2 4 3.7 4 4.6 15.5 24.3 31.1 34.3 35.1 37.8 40.2 44 50.8 53.3 51.8 50 48.5 47.8 47.9 52.3 56 62.8 71.6 85.2 88.9 84.9 84 85.6 86.9 88 88.9 87.9 86.3 82.6 73.8 67.8 64.1 60.3 58.4 55.7 57.7 64.9 72 76.3 74.6 69.5 65 62.3 61.6 61.1 60 60.9 60.1 57.9 57 56.6 55 53.4 51.7 47.7 51.1 53.3 53.9 54.6 55.8 61 67.5 68.8 68.6 69 70.2 70.1 66.9 60.6 57 54.4 53.4 53.9 52.7 48.7 47.4 44.3 38.9 36.6 39.2 44.6 51.4 59.5 70.2 79.6 89.4 96.5 100.1 98.5 97 93.9 90.2 85.7 79.4 72.3 74.6 76.2 81.6 88.6 96.6 103.1 105 103.4 103.9 101.2 98.2 95.3 93.5 91.1 90.5 92.9 95.3 97.6 100.5 103.7 106.6 108 108.4 108.4 107.5 106.2 104.3 100.7 95.8 91.7 87.1 82.1 77.9 72.4 67.7 63.5 60.3 56.9 54.9 53.8 53.5 53.1 51.3 50.3 49.5 51.3 52.9 55.8 55.8 55.5 54.4 53.2 51.5 49.4 47.8 46.7 46.4 45.9 45.3 44.7 44.1 43.4 42.5 41.6 40.5 39.7 39 38 37.9 36.9 36.5 36.8 37.9 38 38.4 39.2 40 39.4 39.1 39.5 39.6 38.9 39.2 38.8
54.7 57.5 56.9 54.7 51 47.4 43.7 42.1 40.2 33.4 31.7 29.8 33.4 32.7 7.2 6 6 13.5 32.8 33.5 31.7 32.2 35.3 37.8 38.6 38.8 42.4 47 54 58.5 56.6 55.3 53 51.2 50.2 52.2 55.6 59 71.6 81.8 90 90.4 89.6 90.4 90.9 91.8 91.5 91.5 90.4 86.7 79.4 73.3 68.5 64.9 61.7 58.3 60.3 68.4 74 75.7 76.6 71.9 67.3 65 64 63.6 62.7 62.9 61.9 61 59.4 58 56.6 55.1 51.7 51.3 54.2 55.1 56 56.6 56.7 61.5 68.1 70.1 69.1 68.5 69.1 68.5 64.5 60.8 57.3 55.9 56.2 56 52.5 48.4 45.7 41.5 37.8 36.8 41.8 44.9 49.4 55.8 64.3 75.6 85.9 94.3 99.1 100.3 98.8 95.9 92.1 88 82.4 74.9 76.3 79 82.1 87.5 96.9 104.6 107.9 108.1 108.8 106.2 103 100.6 98.9 97.2 96.2 97.5 99.6 100.7 103 104.9 107.3 108.4 109 109.2 108.5 105.8 103.6 100.1 95.6 90.9 85.4 79.9 75 70.2 66.1 62.4 60.3 57.9 57 56.3 55.6 53.9 52.1 51 50.8 51.8 53.9 55.7 55.9 55 53.6 52.5 51.4 49.3 48.5 47.2 46.8 46.2 45.4 44.7 44.1 43 42.3 41.6 40.9 40.2 39.2 38.7 38.3 37.1 36.7 38 40 40.3 39.8 40.4 40.6 40.1 40.1 39.9 40.3 40.8 41.2 40.3
60.2 62.5 62.4 60.4 56.5 51.6 48.1 45.6 39.3 33.7 32.9 33.3 36.3 36.1 35.3 36.9 38.8 38.5 37.3 34 36.6 38.7 43 44.3 44.4 45 45.3 51.5 57.3 62.3 62.9 60.4 57.1 54.9 53.7 53.5 57.1 58.9 65.8 77.9 90.6 94.1 94.7 95 95.2 95.6 95.7 94.9 94.3 91.1 84.8 80 74.8 67.5 63 59.4 61.4 68.7 76.6 78.4 77.5 73.8 69.8 68 67.3 67.2 66.4 64.4 64.9 63.8 62.2 60.5 59 57 51.6 54.1 55.6 56.6 57.7 58.5 58.7 60.7 67.2 71.2 69.3 67.2 65.7 64.2 62.3 59.9 57.8 57.2 57.2 55.2 51.2 48.3 45.2 43.8 37.5 38.1 40.5 44.3 48.6 54.7 61 69.8 79.3 88.7 95.7 100.3 99.9 97.4 93.7 89.5 85.2 78.8 77.1 79.4 83.7 90.6 99.2 108.3 112.5 112.7 112.8 110.3 107.9 104.5 102.3 101.5 102 102.9 103.4 104.2 105.4 105.9 106.7 108.5 109.2 109 108.1 106.5 104.2 100.9 96.6 90.7 85 79.5 74.3 71.2 66 63.7 61.5 60.8 59.6 58.6 57.6 55.5 53.2 51.3 51.3 52.1 53.1 54.6 55.5 54.2 53 51.7 50.1 48.3 48.3 47.7 47.1 46.4 45.6 44.8 44 43.1 42.4 41.9 41.6 41.1 40.2 39.8 38.2 37.4 37.3 39.7 42 42.1 41.3 41.1 40.7 40.6 40.7 40.6 41.7 42.5 43.5 43.1
64.7 67.5 67.2 65 61 56.7 51.7 46.7 38 35.9 35.6 38.1 40.9 41.4 41.2 42.9 42.5 40.3 36.6 37.5 42 48 52.3 53.7 53.7 53.7 47.1 57.3 61.6 66.6 67.6 65 60.9 59.8 59.1 57.5 59.5 62.5 66.7 75 87.9 96.8 98.4 98.8 99.2 99.4 99.3 98.8 98 95.8 91.5 83 75 72 69.2 62.7 64.3 71.1 78 79.2 78.3 75.2 72.5 70.8 70.3 69.2 68.2 68.2 67.5 66 64.5 62.7 60.9 58.1 53.5 57.1 57.7 58.7 59.7 60.2 60.4 61.1 64.2 67.7 68.4 67 65.2 63.3 61.5 61 60.7 59.1 57.2 54.9 52.9 49.6 45.9 44.1 38.8 39.6 40.5 43.6 48.2 53 58.1 64.3 72.8 80.5 87.8 95.1 99.9 98.5 95 91.2 87.3 81.2 80 81 85.1 91.8 100.8 109 114.2 115.1 115.8 113.7 111.5 110.1 107.9 107.7 108.1 108.9 109.5 107.7 105.4 105.7 106.7 108.2 109.5 109.4 108.4 106.7 104.1 100.2 95.5 89.6 84.1 78.9 74.5 71 68.2 65 63.8 64 62 59.3 60.1 58.3 56.4 54.3 52.9 53.1 53.2 53.3 53.7 53.1 52.2 50.9 49.5 49.3 49 48.2 47.4 46.6 45.8 45 44.2 43.5 43.1 42.6 42 41.7 41.2 40 38.7 37.8 37.6 40.6 42.4 42.2 41.5 40.7 39.8 39.9 40.5 40.9 41.5 42.1 42.5 44
70.1 71.1 70.2 67.7 62.2 57.4 49.9 42.1 36.6 37.1 38.2 40.7 44.4 45.8 48 46.8 44.9 41 40.7 42.9 43 53.1 57.6 59.3 59.1 58.1 51 57.2 68.9 71.3 71.5 70.2 67.3 65.3 64.8 62.3 60.7 63.4 66.3 71.4 81.4 93.6 101 101.9 102.8 103.2 103.1 102.8 102.4 99.6 92.5 82.8 80.9 77.9 77.4 68.7 67.5 73 78.5 80.4 79.4 77.7 75.2 73.2 72.6 72.3 71.4 70.9 69.7 68.2 66.6 64.7 62.4 59.6 55.9 59.3 60 60.8 61.5 62.3 62.1 62.4 63.3 64.5 65 65.3 64.6 63 63.3 63.1 63.7 58.4 53.7 50.8 49.1 46.6 45.3 42.9 41.5 40.9 41 42.5 47.1 51.1 55.6 60.5 66.9 73.1 80.5 88.6 96.5 98.3 96.5 92.8 88.8 84.7 82.8 85.1 86.9 91.2 99.9 108.6 114.6 115.3 117.8 116.6 115 114.1 113.3 113.3 112.3 110.9 108.3 106.1 104.9 104.3 105.3 107.1 108 107.7 106.9 105.3 101.9 97.5 92.6 87.5 82.1 78.9 76.1 73.3 70.2 67.6 66.7 66 64.4 62.6 62.6 60.6 58.7 57 55.2 54 54.1 54.2 53.9 53.5 52.6 51.3 50.2 50 49.2 48.5 47.7 46.9 46.1 45.3 44.8 43.5 43.5 43.6 43.1 42.4 41.4 39.7 38.9 38.4 38.7 41.7 42.6 42.4 41.6 40.8 38.9 37.3 37.6 37.8 38.3 38.7 37.8 38.6
73.4 73 69.6 63.5 57.1 51.9 45.9 39.5 38.5 39 40.9 44.7 48.3 51 52.4 49.7 45.3 43.3 47.6 48 47.4 56.3 63 64.2 64.2 61.2 57.9 66.2 73.1 76.4 81.5 77.9 75.3 72.2 69 66.1 64.9 67.5 70.4 72.6 75.6 85.6 97.3 104.5 105.4 106.6 107.1 107.5 107.5 103 92.5 90.2 89.2 84.7 85 79.8 70.2 81.3 82.6 83.1 82.2 80.3 78 75.8 75.5 74.2 73.9 73.4 72.2 70.7 68.8 66.6 63.8 60.2 57.8 62.5 62.3 63.1 63.9 64.6 64.3 63.7 65.5 67.2 66.5 66.8 66.5 66.6 67 65.9 62.3 56 51.3 49.6 52.1 51.4 47.5 44.8 44.7 43.1 41.9 42.6 45.5 47 53.4 57.5 62.4 68 74.3 83 90.8 95.6 96.6 93.9 90.7 87 85.1 88.9 90.6 92.7 99.6 107.8 114.3 118.7 119.2 119 117.7 117 114.3 112.6 110.8 109 106.6 104.1 101.5 100.5 101.4 103 103.3 103 102 99.8 97.4 93 89.3 85.3 82.2 80 77.8 75.2 72.5 70.5 68.8 67.5 66.3 64.6 64.3 62.1 59.4 57.8 56.1 55.3 55 55.3 54.4 53.9 52.9 51.7 50.9 50.1 49.3 48.6 47.6 47.6 46.5 46 45.4 44.9 44.6 44.1 43.4 42.6 40.6 39.6 39 39.2 40.1 42.5 43 42.5 41.7 39.9 37.9 36.7 36.2 35.7 35.6 35.4 35.1 35.1
74.3 66.8 61 55.1 49.7 44.7 41.2 40.4 40.2 40.5 43 46.1 51.5 55.4 56.3 54.5 52.1 50.1 54.2 53.1 54.5 61.5 67.8 70.7 69.4 62.1 66.4 72.3 78.1 81.5 87.2 89.1 84.3 77.8 73 71.6 70.1 72.5 73.5 76.4 78.3 80.2 87.6 96 102.2 106 109.8 112 112.1 106 100.2 102.3 96.1 90.8 94.4 89.4 76.4 87.6 87.5 86.8 84.9 83.4 80.7 78.5 78.2 75.6 76.4 75.4 74.6 72.7 70.6 68.4 66.2 62.5 60.2 64.6 65.1 66 66.7 67.6 67.5 67.1 68.9 69.9 69.6 69.3 70.4 70.5 70.3 66.1 60.7 54.8 51.3 53 57.2 53.9 49.7 45.8 45.3 44.5 43.1 43 44.1 48.1 51.3 55.4 59.3 64 68.9 74.5 82.2 88.1 92.5 92.4 90.7 88.6 88.5 90.9 93.6 96.4 100.2 105.8 111.3 117.1 119.2 119 118.3 116.7 113.3 111 108.3 105.4 101.9 99 96.1 93.7 94.9 97 96.9 96.9 95.5 93.6 91.7 89.4 87.6 84.6 82.9 81.1 79.1 76.8 74.1 72.7 69.6 67.4 65.4 64.4 62.9 61.8 59.5 58.2 57.4 55.8 55.3 55.8 54.9 54.2 53.3 52.1 51.1 50.3 49.4 48.3 47.5 47.6 47.4 46.5 45.9 45.3 44.7 44.2 42.7 41.8 40.3 39.9 39.5 39.2 42.3 43.8 43.9 42.4 40.9 39 37.6 37.1 36.7 36.5 35.4 34.4 34.5 34.2
71.7 60.8 52.5 47.9 46 44.4 42.5 42 42.3 42.8 43.9 46.9 51.5 56.2 60.4 61.6 62.3 62.7 62.3 59.8 62.1 65.1 72 77.8 76 64.8 70.7 77.7 84.5 89.6 92.4 93.2 88.4 81.2 79.9 78.3 76 79.2 78.8 81 83.2 83.9 86.8 91.2 96.2 100.9 108.5 115.7 115.7 109.7 114.3 112.7 110.6 97 101.6 92.7 81.5 93.4 92.3 90.3 87.9 86.4 83.1 81.3 80.3 78 79 78.1 77 74.8 72.4 70.2 67.9 63.9 62.1 66.5 67.4 67.8 69 70.4 70.2 71.1 71.9 74.1 74.7 74.2 75.7 75.3 69.4 63.3 58.5 55.5 54.4 58 59.5 55.8 50.6 46.7 46.9 45.7 43.5 44.3 44.6 46.3 50.8 53.2 56.8 60 63.9 67.3 72.6 77.6 85.7 91.4 90.8 88.5 89.3 91.9 95.4 98.7 101.5 104.6 107.9 112.2 114.5 114.3 113.4 111.9 109.1 105.6 102.8 99.5 97 93.5 90.4 88.5 88.9 89.7 90.5 90 89.9 89.5 88.3 86.7 85.4 84.6 82.9 81.4 79.6 77.4 74.7 72.6 69 66.4 65.3 63 62.2 60.8 59.7 58.4 58 56.4 55.6 55.4 55 54.2 53.2 52.1 51.1 50.5 49.1 48.3 48 47.9 47.6 46.9 46.3 45.8 44.9 43.6 42.9 41.3 40.8 40.6 40.4 41.2 41.3 44.7 43.8 42.9 41.5 40.2 38.8 38 37.8 37.5 36.5 35.8 35.3 35.1
72.9 60.8 52.5 50.5 49.4 47 43.6 43.1 44.3 45.1 45.7 47.8 50 55.2 61.6 67 70.3 71.2 69.8 67.2 70.9 73.6 77.2 82.2 79 73.6 80.2 82.6 93.8 97.8 98.8 99 92.9 91 89.5 89.2 84.8 86.5 86.5 85.8 88.2 88.6 92.4 95.9 98.6 103.4 109.9 117.5 118.4 118.1 121.1 122.1 117.1 109.3 105.5 97.6 90 97.7 96.8 93.6 92.3 89.8 87.6 84.6 83.5 80.4 81.2 79.7 78.8 76.6 74.1 72.7 71.1 68 63.8 68.6 71.3 72.2 72.7 73 74.3 76.9 77.7 78 78.3 79.1 81.3 80.6 75.6 70.5 64.8 59.7 59.9 62.6 60.6 56.4 52.1 47.6 47.9 46.4 45.8 45.5 45.8 46.2 48.8 52.1 54.3 57.1 60.6 62.8 68.5 75.5 85.6 91.3 90.9 88.9 89.9 92.4 95.3 98.1 102.3 104.1 105.8 107.5 108.4 107.3 107.1 105.7 104.1 100.9 98.4 95.5 92.4 89.7 87.8 85 85.5 85.9 86 85.3 85 85.9 85.9 84.7 84.2 84 82.6 81.2 79.8 76.9 74.2 72.7 69.6 67 63.6 62.8 62.1 60.4 59.5 58.6 57.3 56.9 56.8 56 55.2 54.2 53.2 52.2 51.5 50.9 49.9 49.1 48.8 48.6 48.1 47.3 46.7 45.6 44.3 43 42.5 41.1 41.3 41.1 40.9 41.3 43.9 45.3 45.3 44.2 43 41.7 39.4 39.5 39.3 38.9 38 37.2 36.4 36.2
75.9 62.5 57.3 57.2 55.5 51.3 45.6 45.4 45.9 46.6 47.4 49.2 51 53.3 59.1 67.5 73.5 77.3 75.2 75 77.5 82.8 84.9 87.2 86.3 86.3 89.6 93.7 98.8 101.9 103.2 102.8 101.3 100.4 101.4 102.5 99.5 96.5 98.5 94.6 93.7 94.5 98.7 105.2 108.2 110.2 114.3 121.4 125.6 128.7 132.4 128.6 123.4 119.3 112.5 105 100.6 105.1 102 99.4 96.8 93.8 90 87 85.8 85 84.2 83 81.6 79.9 79.2 74.8 73.1 71.8 66.1 69.9 73.9 74.8 75.5 76.3 77.9 80.5 81.4 81.6 82.9 84.7 87 88.6 86.2 77.3 69.3 65.1 64.5 64.1 60.6 55.3 50.8 50.1 49.3 48.4 47.1 47.1 47.8 48.1 47.7 50.1 52.5 58.2 61.3 64.3 68.5 76.8 85.6 92.4 92.4 90.8 90.8 93.1 95 97 99.3 103.3 105.3 105.8 105.3 104.5 102.5 100.9 99.5 97.2 95.1 91.2 87.5 86.4 84.7 81.7 81.5 81.8 81 79.6 78.9 79.7 79.9 79.4 79.9 80.7 80.7 80.8 79.9 78.1 75.2 70.6 69.9 67.1 61.2 61.3 61.2 60.3 59.3 58.5 57.5 56.3 56.7 55.7 55.1 54.2 53.2 52.5 52 51.4 50.7 50.1 49.5 49 48.6 47.5 46.2 45 43.7 43.3 42.6 42.7 42.2 41.5 41.5 43 45 46.3 46.5 45.6 44.5 43.3 41.2 41 41 40.3 39.7 39.1 38.3 37.5
79.9 68.8 65.6 60.8 55.6 51.3 47.1 47.4 47.4 48 49.6 50.9 52.2 53.8 56.5 62.4 70 74.4 73.6 77.1 85.4 89.9 92 93.5 94 94.2 96.4 98.2 101.6 104.9 109.3 112 114 114.4 115.4 116.5 115.6 112.8 113.6 113 103.8 99.9 105.8 111.7 115.1 120.2 127.8 129.8 133.9 135.1 136.3 135 130.1 128.1 121.7 112.2 108.7 110.5 107.1 104.5 100.5 97.3 92.3 89.5 87.8 87.7 87.1 87.7 86 84.1 82.2 79.4 76.6 74.8 71.2 72.3 75.9 77.2 78.3 79.4 80.5 84.3 85.6 86.7 88.5 90.8 93.9 92.8 87.2 77.3 70 64.5 63.1 61 57.4 54.4 51.5 51.1 50.7 49.8 49.1 49.2 49 49.1 48.8 49.3 50.3 55.7 60.9 63.6 66.7 71.6 81.1 90.8 93.1 92.7 91 93.1 94.5 94.9 95.1 97.5 99.5 100.6 99.8 98.4 96.2 94.8 94.2 91.9 88.7 86.7 84.4 81.9 81.3 79 78.6 77.1 77.1 76.5 75.7 75.1 75.3 74.6 74.6 76.4 78.5 78.4 78.5 77.6 75.8 73.5 69.6 67.3 64.5 61.3 60.8 60 59.3 58.6 57.5 56.3 54.9 55.1 54.5 53.8 53.1 52.8 52.5 51.9 51.3 50.7 50.1 49.5 48.7 47.1 45.8 44.7 44.5 43.6 43.7 43.4 42.8 42.3 42.4 44.5 46.5 46.5 47.5 46.7 46 44.3 42.4 42.8 42.9 42.7 41.7 40.7 39.4 39
82.4 73.1 64.3 57.5 53.1 50.1 48.9 48.9 49 50 50.8 52.2 53.6 55.7 57.9 59 63.2 67 70.8 77 86.5 93.3 96.6 98.5 99.7 101.2 101.9 103.5 106.8 109.7 113.1 116.1 121.4 124.5 130 132.2 132.3 126.2 130.2 128.5 116 111.3 116.7 124.5 127.5 131.4 135.3 136.9 143.6 146 145.6 144.5 140.3 136.9 132.4 124.5 118.9 116.2 112.8 109.4 105.5 101 96.4 92 91.3 91 92 93.4 91.2 89.6 87.7 84.2 80.2 78.1 80.8 71.6 77.8 79.7 80.4 81.5 83.4 87 89.1 90.9 92.6 95.8 98.3 92.9 81 74.1 68.5 67.1 63.9 61.6 58.5 54 52.5 53.4 53 52.6 52.5 52 50.4 50 50.1 50.3 51.1 51.7 56 60.2 62.1 67.2 76 89.4 95 94.2 93.9 94.2 94.4 94.4 93 92.3 92.1 92.4 91.8 91 89.2 88 86.2 85.3 84 83.9 82.1 79.1 77.6 77.7 76.8 75.8 75.4 74.5 72.6 73.1 72.6 72.1 72 72 73.1 70.6 72.4 71.9 70.9 69.1 67 62.7 62.6 62.1 61.6 60.4 59.4 58.7 57.5 56.5 55 54.6 54.1 53.8 53.6 53.5 53.6 53.1 52.3 51.5 50.9 49.8 48.3 46.7 45.7 45.1 45.2 44.8 44.6 43.9 43.1 42.6 43.9 46 48 48.8 48.1 47.4 46.8 45.9 44.5 44.9 44.6 43.8 42.8 41.6 40.1 38.5
80.8 72.4 62.5 59.1 54.4 51.5 50.1 51.2 51.6 52.7 53.2 53.8 54.6 57.2 59.1 61.3 62.5 65.4 68.7 74.5 82.3 92.7 98 102.4 103.3 105.3 107.2 110.3 112.6 114.9 119.4 123.6 127.1 132.3 137.2 143.4 144.1 137.9 144.8 141.1 124.7 114.8 129.6 137.8 143.2 144.8 149.8 157.7 161.2 163.9 161.9 159.2 153.6 148.2 140.4 134 129 124.8 120.8 115.8 111.2 105.6 101.2 95.6 93.9 93.9 97.4 99.6 97.7 95.1 92.8 88.3 83.1 84.2 84.2 78.4 75.9 81.2 83.1 83.8 84.9 88.4 91.4 94.9 100.6 102.4 100.6 91.2 81.3 74.1 74.7 74.8 70 64.8 61.1 57.5 55.5 57 55.9 55.2 55.5 54 52.1 51 51.1 52.1 52.6 51.9 53.1 58.1 61.7 66.1 73.8 87.6 97.2 96 95.1 95 94.6 93.4 91.5 90.2 89.3 88.8 88.4 87.3 86.7 84.3 83 82.7 81.9 81.7 80.2 79.9 78.9 78.1 77.1 76.3 75.3 74.6 74.5 72.9 72 71.2 70.9 70 69.2 66.4 68.2 67.9 66.9 64.6 63.1 62.9 62.8 62.2 61.7 60.9 60.1 58.8 57.9 56.8 55.4 54.8 54.6 54.7 54.1 54.8 54.9 54.4 53.4 52.4 50.7 49.1 48.1 46.6 46.1 45.6 45.9 45.8 45.5 45.1 43.4 43.3 45.6 47.8 49.4 49.4 48.8 48.2 47.6 47 46.7 46.4 45.7 44.6 43.4 41.8 40.4 39.3
84.4 78.1 68.5 64.7 59.3 55.3 54.1 55.8 56.9 57.9 57 57.2 58.1 57.6 59.6 62.3 64.4 65.5 67.8 72 78.3 83.2 91.4 97.9 104.5 115.3 117.5 123.4 126.1 126.9 127.1 131 136.1 141.4 146 151 152.7 147.3 150.2 141.8 123.2 123.9 136.1 148.6 160 166.4 172.3 180.5 183.6 185 182.9 177.8 171.7 166.7 157.5 150.1 139.6 132 128.5 122.9 118.1 111.6 104.5 97 97.4 97.8 101.8 106.1 102.3 101.6 96.1 90.9 90.8 88.8 85.6 81.8 79.7 78.8 84.8 86.6 87.4 89.7 95.2 101.9 105.3 106.2 102 90.9 82.1 77.3 81.2 82.1 75.4 70 66.4 60.9 58.7 60.2 59.6 59.4 57.7 56.5 54.6 54.1 54 55.8 57 54.3 53.9 60.5 64 67.3 73.8 87.9 97.2 97.3 96.3 95.3 94.9 93.6 90.5 88.9 87.6 86.8 85.6 84.9 84.8 84.4 82.5 81.8 81.3 81.2 81.2 80.4 79.6 78.7 78.1 77.2 75.8 74.8 74.7 73.4 72.5 71 69.7 69.4 68.7 67.8 66.9 66.3 65.7 64.4 64.4 63.2 62.8 62.4 61.8 61.3 60.8 59.1 58 57.1 56.3 55 55.3 55.5 55.5 55.5 55.3 54.5 53.3 52 49.9 48.6 47.8 46.9 46.5 47.3 47.2 46.5 46 45.4 43.9 44.3 46.6 49.2 50.5 50.1 49.3 48.8 48.3 47.1 47.1 47 46.2 45.1 43.1 42 40.8 39.3
87.3 87.6 79.6 73 67.6 63.8 59.5 60.3 60.5 60.9 62.8 64.1 63.9 62 61.2 63.2 65 67.8 69.3 72.4 76.3 79.5 86.7 95.7 108.9 116.9 125.5 131.9 135.8 140 144.5 147.4 149.2 151.5 155 157.4 158.5 157 155 142 131.6 138.8 138.9 151.3 167.5 178 185.3 190.8 194.3 194.5 195 191.5 188.9 182.4 175.2 166.6 153.1 136 132 126.5 120.3 111.9 104.7 99.7 102.7 106.7 113.3 113.7 112.1 105.3 99.2 99.1 98.7 95.9 89.6 85.8 83.5 83.5 86.5 88.4 90.2 95.3 102.9 107.7 109.5 110.4 104.6 91.7 85.7 81.5 86.5 86.9 82 78.5 69.7 62.8 61.1 64.4 63.8 63.1 62.6 60.7 58.8 57.1 57.5 60.5 61.6 58.3 55.2 62.1 68.2 70.6 79.3 89.3 96.8 98.5 97.5 96.4 95.6 94.9 92.1 90.2 88.2 86.7 85.7 86 85.5 84.8 83.3 82.3 81.5 81.3 81 80.7 79.8 79.2 78.3 77.2 76.2 75.6 74.9 74 73 71.8 70.4 69.7 69.1 68.6 67.8 66.9 66.1 64.8 64.2 63.9 63.2 62.6 61.6 61.5 60.8 59.3 58 57.3 56.9 55.5 57.2 56.7 56.1 55.6 55.3 54.2 52.9 51.6 50.1 48.4 47.7 47.7 47.9 48.3 48.2 47.3 46.2 45.6 44.3 45.7 48.5 50 51.2 50.4 49.6 49.4 48.8 48 47.5 47.3 46.4 44.8 43.3 42.1 40.3 38.3
90.8 91 87.7 84.2 78.8 74.9 70.4 65.9 65.7 64.1 68.9 71.2 70.3 65.4 63.5 63.1 66.7 69.1 70.6 72.9 75.7 76.2 83 93.4 114.5 124 130.6 135.7 143.1 148.1 152.8 157.1 160.4 161.8 163.1 163.1 161.8 161.4 159.9 145.5 144.8 152.1 155.3 158.5 165.5 181.5 190.2 197.2 201.5 204.7 205.5 202.5 198.9 194.4 186.9 178.5 162.8 143.3 134.5 126.2 118.1 112.9 109.1 103.4 112.2 128.3 133.6 124.8 116.9 108.4 108.4 108.8 108.9 104.4 96.4 93.4 92.1 88.6 86 90.4 94.3 100.9 109.2 112.1 113.4 113 109.7 100.8 93.1 86.8 92.4 92.8 88.9 81.6 71.7 62.9 62.9 68.4 68.3 67.3 66.8 66.9 66.2 63.8 62.2 64 65 61.2 56.2 62.8 69.5 74.9 79.9 90.3 96.4 99 98.6 97.5 96.7 96.5 93.9 91 88.7 87.2 86.3 86.1 86.5 85.4 84.4 84.2 83.6 83 82.4 81.4 79.8 78.6 77.8 76.9 76.5 76.3 75.7 74.4 73.4 72.1 71.3 70.9 69.8 69.1 68.5 67.5 67.1 65.8 64.8 64.1 63.5 62.7 62.1 60.9 59.6 58.6 58.2 57.6 57.3 56.7 56.8 56.4 55.8 55.3 55 53.8 52.6 51.3 50.2 49.4 48.4 48.5 48.9 49.4 49.1 48.1 46.9 45.8 45 47.8 49.9 51.3 51.6 50.5 49.9 49.6 49.4 48.8 48.2 47.1 46.1 44.7 43.4 42 40.1 38.2
91.8 93.4 93.3 92.6 88.2 85 79.9 74.9 71.1 69.6 72.5 76.1 73.9 71.5 68.9 68.5 67.2 68.9 71.6 74.1 76.5 78 83 91.2 115.4 134.9 139.9 143 147.7 152.4 157.2 163.7 168 170.6 168.6 167.3 166.1 166 162.6 149.7 157.1 163.6 169 173.9 179.6 185.1 195.5 203.1 208.5 213.2 213.3 211 208.1 203.1 196.2 186.7 171 148.3 136.6 127 126 124.8 116.8 107.3 120.9 140.9 142.9 132 123.7 118 118.5 118.6 117.2 113.5 107.3 103.2 98.1 94.5 94.3 92 96.9 104.8 112.8 115.6 116.4 115.6 112.9 108.5 98.1 92.9 100.5 99.3 92.2 81.2 70.2 66.2 61.3 71.1 73.9 73.5 73.3 72.5 71.5 69.6 67.4 67.3 65.4 61.4 58 58.9 66.3 74.7 86 93.3 99.1 100.4 99.6 98.9 98.3 97.2 94.7 91.9 89.5 88.1 87.4 86.9 87 86.5 86 85.3 84.6 84.1 83.5 83 81.4 80.4 79.6 78.7 77.7 77.2 76.2 75 72.6 72.5 72.1 71.8 71.1 70.2 69.3 68.9 68.1 66.3 65.7 65.1 64.2 62.3 61.6 60.8 59.5 58.8 58.3 58 57.7 57 56.6 56 55.4 54.8 54.1 53.4 52.1 51.1 50.4 50 49.8 49.3 49.6 49.9 49.7 48.7 47.3 45.6 46.5 49.1 51.3 52.8 52.3 51.3 50.5 50 49.6 49.2 48.4 47.1 45.9 44.6 43 40.9 39.4 38
92.3 94 95.1 93.7 94.2 90.6 86.5 83 79.8 77.8 78.1 80 78.6 81.3 76.7 74.5 69.1 70.3 72.7 75.7 77.9 79.7 82.5 87.7 105.7 126.6 145.6 150.9 154.7 157.9 161.5 165.6 171.5 173.3 172 171.2 170.4 171.1 167.7 158.9 166.1 176 182.1 188.1 191.5 196.9 202.5 209.4 215.4 219.4 219.4 218.1 214.5 209.1 201.3 192.5 176 158.1 145.6 138.2 137.4 139.6 130.3 110.4 123 148.7 148.5 137.7 126.7 126.6 128.5 128.8 126.8 122.5 117.3 108.7 99.3 107.4 102.4 97 97.9 105 114.4 118.6 119.3 118.1 115.1 108.1 101.1 104.1 105.8 97.7 83.9 73.5 70.5 71.3 66.9 69.4 79.3 79.7 79.2 78 75.7 72.4 68.9 66.7 65.4 65.1 61.7 57.4 65 73.7 89.9 98.2 101.9 101.1 99.9 99.2 98.7 97.6 94.5 92 89.9 89.3 88.6 87.8 87.9 87 86.6 86.3 85.7 85 84.3 83.6 82.9 81 80.2 79.6 78.8 77.4 76.2 74.8 74 73.4 73.1 72.5 71.6 70.6 69.8 69.1 68.3 67.3 66 65.4 64.3 63.1 62.5 61.5 60.7 59.6 59 58.8 58.2 57 56.6 55.7 55 54.3 53.2 52.9 51.9 51.5 50.8 50.7 50.4 50.1 50 49.9 49.4 48.6 46.8 46 47.7 50.6 52.9 53.8 53 51.8 50.9 50.3 49.9 49 48.1 46.8 45.1 43.8 42 39.9 38.3 36.9
92.3 94.2 95.1 96.2 95.9 93.7 91.3 89.2 87.4 86 84.8 84.7 84.8 87 83.8 78.4 71.4 71.7 74.6 77.3 83 83.8 83.6 86.7 94 111.2 130.7 147.4 154.9 159 161.4 165.6 171.2 175.6 175.4 175.6 175.2 174.8 174.1 172.1 172.1 184.5 191.1 199.4 203.1 205.9 209.9 215.4 219.9 223 224.6 223.9 220.4 214.3 206.3 197.5 184.1 166.3 153.2 149.4 147.7 153.2 133.6 112.8 130.8 156.6 158.2 146.7 134.8 134.8 138.9 139 136.8 129.6 122.4 109.7 106.9 118.4 110.8 102.9 100.7 102.8 116.7 121.8 121.8 120.2 116.6 109.3 108.4 108.8 101.2 87.5 78.1 76.1 76.9 75.5 71.8 66.3 74.8 83.7 83.9 80.1 75.3 71 69.1 68.6 70 68.5 65 61.1 60.7 73.2 88.8 101.3 104 102.3 101.1 100 99.3 97.9 95.2 92.9 91.2 89.7 89.4 89 88.4 87.9 87.4 87.1 86.5 85.8 85.1 84.4 83.2 81.5 80.8 80.1 79.3 78 76.7 75.3 74.7 74.9 73.8 73 72.1 71.1 70.2 69.3 68.5 66.7 66.4 65 64.5 63.9 62.6 62.1 61.3 60.8 60.2 59.6 58.7 57.7 56.8 55.9 54.8 54.1 53.3 52.6 52.2 51.8 51.5 51.3 51.1 50.8 50.2 49.8 49.3 47.6 46.7 47 49.4 51.7 53.9 54.2 53.3 52 51.4 50.8 49.6 48.2 46.9 45 43.7 42.2 40.6 38.4 37.4 36.1
92.7 94 95.2 96.4 97.1 96.1 94.9 93.6 92.1 91.7 90.5 90 90.3 90.1 88.1 82.4 76 72.5 72.8 81.9 87.7 87.9 87.1 89.2 90.5 100.3 114.4 133.1 140.9 142.3 150.6 164 172.9 178 180.4 181.8 181.6 181.7 183.8 185.4 178.1 190.4 198.8 207.2 211.9 214.1 217.8 221.9 224.4 227.9 229.4 228.7 225.3 219.6 212.1 202.8 190 175.8 165.9 156.6 160.8 156.6 129.8 118.2 141.4 163.9 158.1 148.3 146 146.3 149.1 157 147 137.3 129 113.3 117 123 119 106.7 106 106.1 118.4 124.5 124.4 122.6 119.4 115.5 111.6 102.5 91.5 84 80.3 82 82.2 78.2 75 71.1 71.5 77.2 80.6 78.2 74.4 72.5 71 70.4 72.4 70.9 66.6 63 61.2 73.9 87.2 103.5 105.1 103.4 102.1 100.9 100 99.3 96.2 93.7 91.8 91.3 90.5 89.9 89.4 88.9 88.4 87.8 87.3 86.6 85.9 85 83.4 82.5 81.8 80.9 79.6 78.4 77.5 77.1 76.7 75.6 74.5 73.5 72.6 71.6 70.8 69.7 68.9 68 67.1 65.8 64.6 64 63.2 62.8 61.8 61.7 60.8 59.7 58.9 58.1 57.2 55.8 55.2 54.3 53.4 52.7 52.4 52.6 51.7 52.2 51.6 51 50.3 49.8 48.6 47 46.9 48.4 50.5 52.9 54.7 54.6 53.5 52.3 51.6 50.6 49 47.3 45.2 43.2 41.7 40.3 38.5 37.5 36.4 36.7
91.7 93.5 94.8 95.8 96.9 97.8 97.1 95.9 94.6 95.2 95.7 95.1 94.7 93.8 90.7 87.1 81.4 76 77.1 82.3 90.2 93.1 93.2 95.5 92.7 96.8 105.6 116.9 136.7 157.4 163.4 168.2 176.6 181.8 185 187.9 189.1 190.2 193 195.4 192.8 194.1 203.6 211.6 218 220.7 224.3 227.2 229.5 232.2 234.7 234.3 230.3 223.1 215.6 206.7 195.3 177.4 171 166.5 158.7 143.9 123.8 125.7 152.3 171.8 164.7 156.8 160.3 165.1 167.4 166.9 158.5 145.5 133.9 122.1 128.9 130.6 124.8 111.4 109.3 111.2 120.2 127.9 127.4 126.1 123.5 120.5 109.3 96.1 87.8 87.1 87.8 87.4 84.6 80.8 77.7 73.9 72 74.5 77.2 79.7 78 74.8 73 72.4 73.1 70.6 68.5 66.8 64.1 73.1 87 104 106.2 105.3 103.4 102.5 102.2 101 97.3 95 93.1 92.2 92 91 90.3 89.9 89.3 88.7 88 87.2 86.3 85.5 84.5 83.6 82.5 81.3 79.8 78.7 78.3 77.9 77.3 76.5 75.1 73.9 73 72 71.4 70.2 69.4 68.6 67.7 66.6 65.3 64.1 63.6 63.1 62.4 61.7 60.8 59.7 59 58.2 57.6 56.4 55.4 54.5 53.7 52.9 52.6 53.1 53.4 52.8 52.2 51.6 50.9 50.2 48.8 47.3 48.4 50.1 51.7 53.9 55.2 55 53.8 52.7 51.5 49.8 48 46.1 44.1 42.3 40.6 38.3 37.5 37 37 38.1
90.4 91.6 92.4 93.5 95.3 96.4 96.1 96.1 96.6 98.6 98.9 98.2 97.2 96.3 95.4 92.8 86.6 80.2 80.2 84.8 94.3 97.8 99.9 99 100 96.5 103.2 115 138.1 157.9 169 175.8 181.3 186.3 190.3 193.6 196.4 200.9 203 204.4 205.4 198 208.7 218.6 223.4 226.8 229.7 231.7 234.5 237.9 240.2 240.9 235.9 226.4 217.7 209 198.4 179.9 166.1 152.1 136.2 123.4 125.3 141.4 166 179.2 177.3 178 179.8 180.2 178.4 174.5 167.8 158.6 139.3 132 136.7 137.8 134.1 118 114 115.4 122.6 131.6 130.2 128.8 126.5 120.2 103.2 92.9 95.1 95.7 94.8 91 86.9 84.2 80.2 76 76.5 77.9 80.8 84.1 81.7 77.2 76.8 77.7 76.9 75.4 71.9 69.4 64.1 75.1 89.5 105.7 108.1 107 105.2 103.3 103.5 102.1 99.2 96.2 94.5 93.5 92.8 92.1 91.4 90.8 90 89.4 88.4 87.8 86.9 86 85.1 84.1 82.9 81.4 80.3 79.8 79.3 78.7 77.2 76.7 75.9 74.1 73.2 72.3 71.6 70.4 69.9 68.8 67.7 66.8 66.2 65 64.4 63.8 62.8 61.8 60.8 59.9 59.1 58.3 57.6 57.1 56.4 55.7 54.6 53.9 53 52.6 53 53.1 52.7 52 51.3 50.2 48.2 48.6 50.1 51.5 53.2 55.4 55.5 55 53.6 52.2 50.6 48.6 46.7 44.8 43.2 41.7 40.4 37.4 37.5 37.9 38.6 40.7
82.1 83.3 85.3 87 89 91.4 92 91.6 93.8 98 99.3 99.4 99.9 101.1 100.2 97.6 92.8 87.2 85.2 86.6 94.6 102.3 104.8 106.1 103 100.4 103.1 113.1 128.5 147.6 164.1 177.8 186.2 190.7 195.4 200.7 206.3 209.3 214.9 215.7 215.4 213.9 213.5 223.7 229.1 232.3 234.4 237.7 242.6 246.2 247.7 247.7 242.2 230.1 220.9 212.7 203.6 189.8 171.1 150.2 129 138.5 148.8 164.2 175.2 184.8 188 189.8 189.7 188.6 184.5 180.7 174 161.9 145.7 139.4 145.3 148.8 140 124 118.4 119.9 126.8 133.2 133.1 131.3 126.8 116.7 101.9 96.8 103 102.3 98.6 94.1 91.8 87.7 82.2 79.5 79.3 81.2 84.3 86.3 83 79.1 81.4 83.1 81.7 79.8 76.8 71.1 68.4 78.2 92.6 107.8 110.5 108.2 106.3 105.1 104.4 103.2 99.8 96.9 95.2 94.3 93.5 93.4 92.8 91.5 90.7 89.7 88.8 88 87.5 86.5 85.3 84.4 83.2 81.5 81.1 80.5 80 78.9 77.6 76.7 75.5 74.5 73.6 72.7 71.9 71.1 70.2 68.9 68 67 66.7 65.6 64.8 64.4 63 62.1 61.1 60.6 59.7 58.8 57.9 56.9 56.9 56.5 55.7 54.8 53.9 53 52.6 53 53 52.5 51.6 49.3 48.2 50.6 51.6 53.1 55 56.6 56.3 54.7 53.3 51.9 50.1 47.8 45.5 44.1 42.8 41.3 39.7 38.3 39.5 39.8 40.6 41.9
72.1 73.3 73.2 75.8 79 81.5 82.6 84.3 88.7 92.2 97.5 100.5 101.4 104.7 104.4 103.2 101.9 96.9 95.2 92.8 96.9 104.7 110.1 109.8 106 104.8 105.9 111.4 123.2 138.9 159.3 177.3 189.5 196.3 201.1 207.2 214.2 220.5 226.1 228 224.7 226 221 229.4 234.6 238.5 242.1 246.8 252.4 255.5 256.8 252.9 245 234.6 224.6 215.8 206.7 194.7 173.8 152.9 129.7 149.9 166.9 174.3 180.1 189.1 194.2 197.2 197.3 193.5 188.6 181.7 174.9 168.9 156.8 148.6 154.3 152.9 140.4 126.2 122.1 124.8 128.9 135.1 136 131.3 124.1 115 104.2 105 109.9 105.6 101 97.9 95.8 89.7 84.4 82.6 83.1 84.2 86.4 87.5 83.9 82.2 85.4 86.1 84.5 81 78.4 67.3 74 82.9 99 110.8 111.2 109.4 107.5 107.5 106.5 103.4 97.3 97.4 96.3 95.7 95.5 94.8 94.1 93.3 91.1 90.1 89.1 88.2 87.6 86.4 85.3 84.5 83.3 82.4 82 81.3 80.3 79.1 78 77.1 76 75 74 73.1 72.4 71.3 70.8 70.4 69.3 68.8 67.8 66.7 66.1 64.1 63.3 62.6 61.7 60.7 60.1 59.1 58.2 57.2 56.8 56.7 56.4 55.6 54.7 53.8 52.8 52.5 52.4 52.2 51.3 49.8 48.8 51.2 52.3 54.8 57.4 57.8 57 55.2 54 52.6 50.3 48 46.1 44.8 43.1 41.6 40 38.6 38.4 40 40.6 42.3
60.5 62.9 63.7 65.4 68 71.1 73.2 76.2 80.2 84.2 89.4 94.7 100.1 104.3 106.9 109 109.8 107.8 105.9 102.5 104.6 106.3 112.4 112.5 110.9 108.8 109 112.5 120.8 133 149.3 173.5 188.8 199 205.7 212.3 223.8 232.1 237.6 239.2 237.6 233.2 233.2 237.1 241.8 245 249.7 254.7 261.8 262.8 263 256.4 246.4 237 227.6 218.7 209.8 197.1 174.6 153.3 133.3 156.1 172.9 177.5 185.4 194.1 199 203.7 203.1 200.1 195.5 189.9 181.2 171.3 164.5 160.1 161.3 152.3 140.7 129.2 126.1 130 133.1 137.7 136.7 132.6 127.3 119.1 110.4 107.7 113.2 108.6 104.4 102.6 99.4 91.1 88 86.1 88 90.4 90.8 89.5 86.1 84.1 87 87.3 84.2 79.9 72.5 73.1 79.1 88.6 105 112.3 112.6 110.5 109.8 108.6 107.2 103 99.6 98.9 97.7 97.1 96.5 95.8 95 94.1 91.9 90.8 89.7 88.6 87.6 86.4 85.4 84.9 84.2 83.5 82.7 81.6 80.6 79.5 78.5 77.3 76.4 75.4 74.4 73.8 73.2 72.3 71.7 70.9 69.9 68.9 67.7 67 66.4 64.5 63.1 62.8 61.9 61 60.2 59.5 58.5 57.6 57.8 57.9 56.8 56.3 55.4 54.5 53.5 52.5 52.2 51.5 50.8 49.3 49.3 51.1 53.3 55.7 59.2 59.2 57.4 55.7 53.9 52.2 50.4 48.9 46.4 45.4 43.8 41.6 39.8 39.2 39.1 39.2 39.7 41.2
54.7 56.8 57 60 63.2 65 68.9 70.9 75.2 79.1 84.2 90.2 98 102.4 107.8 112.1 114.2 114.8 114.6 113.7 113.8 111.4 117.1 116.2 116.7 113.9 113.6 118.5 120.7 127.8 144.6 172.2 185.7 198.1 207.2 218.2 230.1 240.3 248 252.1 249.6 246.3 241.7 243.6 248.5 251.6 256.2 261.1 267.8 267.3 264.6 258.1 247.1 238 229.3 219.9 209 194.8 173.7 154.6 138.2 160.8 176.2 183 192.2 199.4 204.7 208.9 210 208.5 204.8 199.4 191.3 181.8 166.5 170.9 162.8 152.9 143.4 132.4 131.9 136 138.9 141.2 140.6 137.5 134.8 126 118.1 113.9 116.7 112.6 109 106 99.4 94 93.4 92.6 96.1 96.9 95.9 91.8 88.4 86.4 86.1 83.4 79.8 77.4 69.5 79.3 83.4 93.8 108.7 114.6 113.4 111.3 111 109.4 107.4 104 100.9 99.9 98.8 98.1 97.4 96.5 95.7 94 92.5 91.4 90.3 89.3 88.9 87.8 86.6 85.5 84.7 83.9 83.1 82.1 80.9 80 79.1 78.6 77.1 76.5 75.9 74.6 73.5 72.3 72.1 71.1 70.2 69 67.9 67.5 66.8 65.5 63.9 63.3 62 61.1 60.3 59.3 59 58.8 58.8 58.8 58 56.9 56.1 55.1 54.2 53.2 52.3 51.6 50.9 50.1 50.1 51.2 53.4 56.5 59 59.2 57.6 56 54.1 52.2 50.3 48.1 46.2 44.6 42.8 41.1 40.1 39.7 40 39.8 40.2 40.6
52.7 54.6 58.4 62 64.9 66.7 68.9 72.3 77.1 80.2 84.1 90.1 96 102.6 107.1 112.8 115.6 118.5 120.8 122.4 121.6 119.5 122.2 125.9 125.7 120.1 124.1 125.2 128.4 130.9 139.6 159.7 183.4 196.9 205.4 221.1 233.7 245.7 254.9 261.7 258.9 254.3 251.4 251.7 254.7 258.9 262.8 267.6 271.1 270.1 266.3 258.6 248.1 240 229.9 220.8 209.1 191.8 174.3 155 142.8 162.2 180.6 186.9 195.6 203 208.7 213.7 215.3 214.2 210.5 205.8 196.9 185.5 183.6 178.8 166.8 155.4 147.3 138.4 136.7 145.3 145.2 147 147 145.3 139 131.5 123.5 122.9 121.2 117.9 111.5 106.4 99.8 100.8 101.6 101.7 103.2 101.1 97.9 94.3 90.7 88.5 86.4 83.6 81.2 76.2 73.4 83.2 86.9 96.8 110.7 115.8 114.2 112.2 111.4 109.9 106.6 103 101.6 100.8 99.7 99 98.1 97 96.2 95 93.5 91.9 91 90.1 89.4 88.2 87 86.3 85.4 84.4 83.7 82.6 80.6 80.3 79.3 78.5 77.8 77 76.1 75 74 73 72.1 71.3 70.5 69.5 68.7 67.9 67 66.2 63.4 63.6 62.4 61.2 60.7 60.3 59.5 60.2 60 59.4 58.9 57.6 56.9 55.9 54.9 54.7 53 52.2 51.3 50.6 51.2 52.5 54.4 57.6 59.4 59.2 57.6 55.9 53.5 51.7 49 46.8 44.9 43.5 41.5 40.1 41.2 41.1 40.9 40.6 41 41.8
55.2 56.2 58.2 61.3 65.3 66.9 70.1 73.1 78.3 82.8 87.5 93.5 98.5 104 108.1 111.8 116 119 122.1 123.8 124.8 125.3 128.7 128.7 127.6 123.7 138.2 148.2 143 140.3 143.1 155.1 175.8 191.4 204.9 220.9 234.7 247.9 257.6 264.4 265.9 261.6 259 260.5 263.2 267.3 270.5 273.6 274.3 272 267.9 259.7 249.3 242 232.6 224 213.5 202.5 177.3 151.4 154.4 150.9 175.6 193.8 201.7 207.6 212.9 217.6 219.6 218.6 214.8 209.7 202.1 192.2 192.1 186.8 178 165 151.7 148.2 141.2 159.4 160.8 160.4 156.5 149 142.6 137.5 133.9 131.4 128 123.7 116.3 109.2 104 108.2 108.5 107.4 106.1 103.1 99.7 95.9 92.6 90.4 88.2 84.6 81.7 76.1 81.9 85.9 90.8 99.2 114.1 116.5 114.8 112.8 112 109 105.9 103.1 102.3 101.5 100.5 99.5 98.7 97.5 96.7 95.5 93.5 92.7 91.1 90.4 89.8 89.1 87.8 86.3 85.5 84.4 84.4 83.5 82 80.8 79.8 78.9 78 76.9 75.9 75.1 74.1 73.3 72 71.6 70.7 69.6 68.3 68 67 66.2 65.1 63.7 62.7 61.7 61.5 61.9 62.5 61.2 60.7 60 59.4 57.8 57.7 56.7 55.6 55.6 54.1 52.8 51.6 52 53.2 54.7 57.1 58.7 60.1 58.5 57 55.3 53 50.3 47.2 45.2 43.8 42.5 41.1 40.6 41.3 41.9 42 42 42 42.8
60.9 58.5 57.1 61.2 65.3 69.4 71.7 74.4 79.1 82.9 87.6 94 99.8 105 109.5 113.3 116.7 119.9 123.4 126 127.8 130.3 132.2 133.3 132.6 129.4 144.4 160.2 160.8 159.6 160.3 157.9 176.6 190.5 202.1 218.5 233.8 247.8 258 265 269.4 266.8 265.1 267.1 270.1 272.7 275 277.3 276.5 273 268.3 260.5 251.5 242.8 235.8 227.4 217.3 198.7 173.4 153.7 168.7 155.4 169.3 188.6 204.6 210.5 216.1 220.4 222.8 222.6 218.6 213.9 207.8 202.4 197.8 191.9 183.2 169.6 157.9 157.8 152.7 165.8 173.1 175.7 171.8 160.4 151 144.5 143.1 140 136.3 131.9 125.3 113.2 110.3 114.8 113.1 111.4 108.6 104.2 100.3 97.4 94.3 91.8 87.7 83.8 82.6 75 81.5 89.2 93.3 102 116 117.4 115.4 113.3 112.1 108 105.5 103.5 103.1 102.2 101.2 100 99.2 97.8 95.8 94.9 93.7 92.6 91.6 90.7 90.1 89.3 88.5 86.9 86.8 85.8 84.3 83.3 82.2 81 80 79 78.1 77.2 75.5 75.2 74.4 73.6 72.8 71.4 70.8 69.3 69.4 68.8 67.9 65.6 64.5 63.3 62.9 63.5 64.2 63.8 63.6 62 61.1 60.4 59.7 58.7 58.1 56.7 55.8 55.8 54.6 53 52.7 54.2 55.8 57.3 59.8 61 60.7 58.5 56.3 54.2 51.8 49.5 46.6 44.5 43.3 42 41.5 41.7 42.4 42.8 43.8 43.7 44.2 44.6
71.6 69 64.1 62.3 61.8 65.4 71.3 76.5 79.9 84.3 89.2 95.2 101.4 106 110.5 114.7 118.7 121.8 124.7 127.9 131.7 135.1 141.2 144.8 140.9 135.9 135.6 136.7 150.2 171.2 170.9 160.9 172.3 187.2 201.4 213.9 230.5 244.5 255.3 262.4 268.2 269.5 268.7 270.2 272.8 275.9 277.9 279.5 278.1 273.9 268.3 262.5 254.4 246.2 237.3 227 208.7 188.9 168.6 166.4 179 165.5 170.3 195 206.6 213.1 218.6 223.1 225.7 225.5 223.2 218.6 213 208 201.5 194.1 178.4 173.9 174.7 170.9 159.3 169.3 177.6 183.9 182.2 173.3 164.7 157.5 158.2 152.6 146.6 139.9 130.2 117.2 119.6 120.6 117.1 113 109.1 104.7 101.4 99.2 97.1 91.4 87.6 87.1 86.1 76.7 84.3 89.6 95.7 106.4 116.6 118 115.9 113.4 111.3 107.5 106 104.6 103.3 102.8 101.6 98.9 98 97.1 96.3 95.4 94.2 93.1 92 91 90.4 89.5 88.7 87.7 87.2 86 84.7 83.5 83 81.1 80.1 79.1 78.1 77.6 76 75.5 74.5 73.6 72.7 71.6 71.2 70.5 69.8 68.9 68.1 65 64.3 63.9 65.6 65.7 65 64.5 63.8 62.7 61.5 60.7 60 59.2 57.9 56.5 55.4 54.9 54.1 53.1 54.1 55.5 57.4 59.1 61.7 61.4 60.5 58.2 56 52.8 50.3 48 45.7 44 42.7 42.3 42.2 43.6 44.6 45.2 45.8 46.6 47.4 48
77.8 77.1 70.3 69.5 68.3 66.4 66.2 71 76.6 83.5 91.4 98.1 103.4 108.1 111.9 115.2 119.5 123.5 127 130.5 138.4 147 152.6 154.7 145 135.3 138.8 156.1 160.5 178.6 180.1 174.1 177.8 179.7 200.9 210.6 224.8 241.5 251.1 257.6 264.1 269 269.9 270.6 273.5 276.8 279 279.5 277.8 274.4 269.6 262.2 254.6 247.6 236.6 216.8 201.3 191.7 179.7 173.9 188.4 174.3 173.2 194.8 209.8 216.6 221.8 226.2 228.8 228.7 225.9 221.6 217.3 210.5 200.7 189.4 190.9 187 187.9 184.3 163.3 177.9 187.5 191.5 189.8 182.5 174.8 170.9 170.4 164.6 153.1 146.6 132.5 123.1 128 124.3 118.8 114 109.6 106.7 104 101.2 97.6 93.7 92.1 91.5 89.4 78.9 84.3 91.5 99 107.2 116 118.1 116 113.4 108.3 107 106.3 105.1 103.8 101.7 100.6 99.4 98.5 97.6 96.6 95.8 94.3 93.6 92.6 91.5 90.6 89.7 88.6 87.5 86.7 86.2 85 83.8 82.4 81.2 80.2 79.2 78.4 77.8 76.5 75.7 74.5 73.5 72.1 72.7 71.6 70.9 70.1 69.2 68.3 65.4 65.2 66.8 66.8 66.2 65.5 64.6 64 63.1 61.3 60.3 59.5 59.1 57.3 56.3 55.3 54.5 54.8 54.7 55.8 57 58.9 61.1 63.4 62.7 60 57.4 55.2 51.9 48.9 46.6 44.7 43.1 42.8 42.8 42.8 44.9 46.7 48.6 49.9 51.3 52 52.4
80.3 80.9 77 76.9 76.8 71.2 68.6 69.2 76.1 80.9 87.5 96.2 102.7 107.6 110.6 113.2 117.7 124.1 128.7 133.5 146.1 157.1 160.3 153.6 168.4 139.1 141.8 160.3 170.7 184.6 185.7 181.7 184.8 193.4 196.9 206.2 220.2 234.3 244 255.1 260.4 264.5 267.8 269.1 270.7 274.6 276.7 277.4 276.6 274.1 269.7 262.1 254.4 244.9 228.7 219.2 220.4 209.3 190.9 177.9 195.7 178 173.5 190.7 204 218 224.2 228.4 230.9 231.4 229.6 225 219.6 212 203.1 203.3 201.7 201.4 199.5 190.7 168.5 185.7 195.2 198.2 196.5 191.7 185.6 181.3 177.4 167.6 157.1 151 141.5 132.9 131.9 127 120.2 115.2 111.7 109.2 107.2 102.3 99.1 98.2 96.4 95.2 92 86.4 79.6 86.5 100.7 107.6 113.3 116.3 115.1 111.7 107.4 106.8 105.2 104.1 103.1 102.1 101.1 100.1 99 98 97 96.1 95.1 94.2 93.3 92 90.7 89.6 88.5 87.4 87.2 86.2 85 83.7 82.2 81.5 80.4 79.5 78.5 77.9 76.9 75.8 74.6 73.4 72.4 72.6 71.6 71.3 70.4 69.5 67 66.6 66.5 66.4 66.6 65.5 65 64.1 62.8 63 61.1 59.7 58.9 59 57.5 56.7 55.4 55.9 56.5 57.9 58.5 59.3 60.7 62.5 63.6 63.1 59.1 57.3 53.4 51.1 48 45.1 44.3 44 44.4 44.6 44.7 45.5 46.9 49.5 52.4 55 55.5 53.6
78.2 82.9 83 82.6 82.7 79.3 73 69.8 74.7 80.8 87.2 91.5 96 101.3 104.4 110.6 117.5 124.2 131.4 136.4 147.8 158.8 166 172.6 159.3 159.1 142.3 154.1 174.7 185.9 189.3 188.8 193.2 201.5 207.9 213.6 218.9 231 240.2 248.6 255.6 258.7 263.3 265.2 266.7 270.7 274.4 275.9 275.3 273.5 269.2 262.6 252.3 237.1 235.7 236.5 231.2 217.9 198.9 183.6 201.6 182.6 183.9 192.1 195.1 213.3 223.4 228.4 232.1 233.3 232.1 227.4 222.2 216.6 214.1 213.8 211.5 210.2 206.6 194.6 173.5 192 203 205.6 203.3 197.5 194.3 189.2 182.7 172.8 164 157 145.9 139.3 133.5 127.8 122.2 118.2 116.5 114.1 109.9 103.7 105.1 105.7 101.7 99.2 97.5 94.8 93.1 86.5 86 98.4 114.8 115.8 112.9 108.4 107.9 107.1 105.8 104.5 103.6 102.6 101.6 100.5 99.5 98.3 97.2 96.1 95.6 94.5 93.4 92 90.9 89.8 88.7 87.6 86.3 85.4 84.4 83.4 82.3 81.3 80.7 79.7 78.7 77.9 77.2 75.8 74.7 73.7 72.9 72.4 71.6 71.1 70 68.9 68 66.1 68 66.3 65.7 65.4 64.6 63.2 62.1 61.8 61.5 60.7 59.9 59.1 58.4 56.8 56 56.1 58.1 60.6 63.3 63.2 62.8 63.8 64.1 61.9 59 56.1 51.7 50.9 48.7 45.2 48.5 47.9 47.8 47.5 47.2 47.5 48.1 50.2 54.4 59 59.1 56.2
74.2 82.3 85.3 86 87 83.7 78.9 74.2 72.9 75.9 80.3 84.6 87.7 91.2 94.5 104 115 124.4 130.9 139.6 149.8 161.1 171.9 178.3 185 181 161.5 152.9 161 174.7 185.8 192.5 199.1 206.4 212.5 218.8 225.6 232 239.3 243.7 244.3 245.1 249.3 256.4 261.1 266.6 271 274 274.6 273.4 268.6 261.7 250 249.8 249.1 244.2 237.9 221.6 201.6 190.6 208.4 191.5 187 205.2 205 205.8 218.8 227.9 232.9 234.7 234.2 231.2 227 223.6 224.4 223 220.4 218.1 213.6 203.2 178.4 198.4 208.8 211.4 208.3 203.7 201.2 195.6 188.7 180.8 172.1 164.1 155 143.9 135.7 128.8 124.6 123.6 120.4 117.3 111.2 108 112.8 112.1 109.7 106.6 105.9 105.3 105.3 103.3 89.6 84.4 99.6 112 111 109.1 108 107.5 106.1 105 104.1 103 102 100.9 99.9 98.7 97.5 96.3 95.3 94.4 93.3 92.1 91 89.9 88.9 88.1 87 85.9 84.2 83.6 82.5 81.3 80.3 79.7 78.7 77.7 76.9 76.1 75 73.9 73 72.2 71.4 70.7 70.2 68.5 68.5 69.4 69.7 69.3 67 65.9 64.5 62.9 62.3 61.9 61.6 60.9 60.1 59.4 58.7 58.6 57.1 57.1 57.5 59.7 61.2 63 63.4 64.4 63.4 60.9 58.7 54.5 51.9 49.9 47.3 46.1 52.2 55.7 55.2 53.7 52.4 51.7 51.4 54.1 59.4 64.7 64 59.6
69.9 79.4 85.2 88.3 89.9 89.3 84.5 78.5 77.3 77.1 79.6 81.4 84 87.4 91.7 97.8 105.1 116.2 129.6 137.9 153.3 166.9 177.7 184.2 188.1 189.7 179.1 165.8 161.6 160 169.6 185.5 199 207.9 214.2 221.3 227.6 233.3 236.4 229.3 227.5 232.7 240 246.9 253.4 260.4 268.7 273.5 274.2 273.8 270.2 261.2 255.6 259.4 257.4 251.9 241.7 223 204.6 199.5 215.6 201.6 187.5 210.9 217.9 217.1 216.4 221 232.5 236.2 236.8 235.2 232.8 231.6 231 230 227.6 224.6 219.3 204.9 183.2 205.4 212.9 215.3 213 208.5 205.7 201.2 191.3 183.4 175 173.5 166.7 149.8 138.8 131.6 130.1 129.5 126.5 119.3 115.1 117.5 122.9 123 120.3 117.6 114.4 115.1 113.8 111.3 106.5 100.3 84.6 111 110.6 109.9 108.5 107.6 106.4 105.5 104.4 103.4 102.3 101.3 100.2 99 97.8 96.7 95.7 94.8 93.7 93.1 91.8 90.2 89.5 88.5 86.6 86.4 84.6 83.2 82.2 81.2 80.4 79.5 79.5 78.6 77.5 76.5 75.3 74.1 73.1 72.3 71.7 71.1 70.5 69.9 69.3 69 68.6 66.9 65.6 64.4 64.4 63.9 63.4 62.8 62.2 61.5 61 60.6 59.8 60.4 59.8 59 58.6 59.2 60.6 61.6 63.1 64.2 62.7 60.2 58.4 55.4 52 48.6 46.4 48.3 53.5 59.3 62.7 61.7 59.6 58.7 57.5 60.8 66.4 69.1 66.3 62.2
67.9 77 84.6 88.8 91.4 92.8 90.2 86.7 83.6 81.3 84 87.6 89.2 90.5 94.1 97.2 103.3 113.2 124.9 135.5 155.1 169.5 179.9 187.6 193.5 195.4 192.5 185.2 179.7 176.8 169.2 172.5 191 205.7 214.6 221.3 226.9 230.2 228.1 218.1 232.9 244 252.7 260.1 264.6 269 272.4 275.1 276.3 275.7 272.9 264 264.8 266.3 263.9 256.5 243.4 224.3 203.2 214.3 222.2 210.8 190 210.5 224.3 226.2 229.1 227.8 231.4 237.4 240 239.7 238.4 237.7 237.1 236.3 234.3 229.8 222.3 201.5 192.3 212.1 218.1 219.1 217.1 211.6 206.4 199.9 189.8 180.1 184.1 180.2 169 155.1 143.2 137.3 134.8 134.5 126.3 123.5 120.1 129 139.9 134.6 125.7 123.4 123.9 125.8 121.8 117.8 111.4 105.8 91.5 111.2 111.1 110.5 109.2 107.9 106.9 106 104.7 103.8 102.8 101.7 100.7 99.5 98.2 97.2 96.2 95.2 94.2 93 91.5 90.7 89.2 87.9 86.6 85.9 84.3 82.8 82.3 81.4 80.9 81.2 81.1 80.4 79.2 76.9 75.6 74.4 73.3 72.5 72.2 71.9 71.1 70.4 69.7 69.2 68.3 67.1 66.1 65.2 64.4 64.4 64.6 63.6 62.9 62.1 61.9 62 62.6 62.5 62.8 62.2 62.2 62.4 61.8 62 62.8 62.7 60.7 58.8 57 53.6 50.3 47.5 46.5 50.5 53.8 59.5 65.5 68.3 66.5 64.9 63 66.6 71.8 71.8 71.5 68.5
72.9 73.3 82.1 89.3 92.4 94.2 94.9 93.6 91.6 86.9 89.4 95.2 98.2 98.3 100.8 101.4 103.4 112.8 125 133.7 152.4 167.5 180.1 190.4 197.2 198.6 197.9 196.7 195.1 194.1 187.1 173.3 178.9 199.1 211 218.3 219.7 215.3 212.6 223.2 238 247.9 255.6 262.8 268.2 272.2 276.1 277.9 279.5 279.1 275.7 273.8 272.6 272.3 268.6 259.6 243.4 223.4 209.6 227.8 230.3 221.9 202.1 212.2 230.1 232.1 235.1 234.8 235.7 240.5 243.5 244 242.7 242.2 242.5 241.8 239.7 234.8 218.2 196.4 203.7 219.1 223.3 223.2 218.9 211.4 204.2 194.4 196.5 194.8 190.6 185.4 173.1 160.8 151 142.2 139.4 134.2 130.3 127.4 129.4 137.6 140.6 136.6 131.1 129.6 129 131.6 129.7 125.3 114.8 99.6 106 112.8 112.2 110.7 109.3 108.4 107.5 106.3 105 103.9 103.2 102.2 101.2 100 98.9 97.7 96.4 95.2 94 92.7 91.4 90.4 89.3 88.1 86.8 86.3 85.1 83.5 83.2 82.4 83 83.1 83.2 82.7 81.1 78.7 76.2 74.7 73.9 73.2 73 72.7 72.1 70.7 70.9 69.9 68.8 67.1 67.3 67.7 66.9 67.4 66.2 65.4 64.3 65 64.5 65.2 65.7 65.6 66.1 65.6 65.3 65.2 64.1 63.7 61.5 60.1 57.7 54.8 52.9 50.9 49.4 47.7 49.5 51.5 54.2 58.4 63.3 66.5 68.3 68.4 69.6 71.7 75.5 76.8 76.9 73.6
81.5 77.4 81.9 89.5 93.2 95.2 96.8 98 96.3 92.3 92 99.4 105.1 107.5 108.7 112.3 109.6 115 123.8 133 146.8 166.1 180.5 191.8 198.7 201.6 202 202.1 201.9 202.1 200 188.4 177.7 191.7 205.8 208.2 202.1 208.3 219.8 230.8 238.5 248.4 257.1 265.3 270.6 275.6 280.1 281.8 282.9 282.7 280 279 277.9 275.3 269.1 261.1 242.8 223.7 223 238.2 237.3 230.8 211.5 215.5 235.8 240.7 242.4 241.8 242.1 244.3 247.4 247.9 248.2 248.2 248.1 247 245.1 238.3 217.6 194.9 214 225.9 228.3 225.6 220.1 210.1 205.4 206 205.3 201.7 196.3 190.7 179.8 165.4 156.3 151.7 145.8 140.8 137.4 135 135.8 139.8 141 138.4 136.2 133.8 132.1 131 129.8 125.5 105.6 111.8 114.1 112.9 112.2 111.4 109.7 108.8 107.9 106.6 105.3 104 103.4 102.3 101 100 98.7 97.4 96.1 95 94 92.7 91.5 90.5 89.5 88.3 87.8 86.7 85.5 84.3 84.5 84.3 84.4 85.3 85.7 84.8 82.9 80.1 77.1 75.7 74.9 74.3 73.9 73.4 72.8 71.6 70.9 70.3 69.2 68.6 70.2 70.5 70.7 70.2 68.4 67.4 66.7 66.5 66.1 68.4 69 69.2 68.5 67 66.8 66.6 65.8 65.2 63.7 58.8 57.3 55.1 51.7 49.7 48.9 50.1 53.2 56.5 59.7 58.2 58.8 61.4 63.3 64.5 66.2 67.9 71.3 73.9 74.1 72.2
86 84.8 81.5 87.3 92.7 95.8 97.5 99.1 100 96.8 95.1 102.3 107.5 111.2 114.4 117.4 119.8 123.5 130.7 137.3 145.3 164.8 178.7 190.7 199.1 203.7 204.8 205.5 205.8 206.1 205.8 203.4 189.6 183.7 192.9 195.4 204.6 209.3 221.1 232.1 240.8 248.9 257.6 266.3 273.8 279 283.9 285.4 285.8 286.9 285.5 284.3 281.5 275.8 266.1 254.7 238.2 225.5 240.3 245.8 244.1 236.6 212.5 222.6 240.8 246.2 247.5 247.4 247.6 249 250.6 251.4 252.1 252.1 251.9 250.6 247 235.1 215.5 206.5 225.4 231.4 231.1 226.5 218 212.1 214.4 214.1 212.3 208.9 203.7 197.5 188.7 171.7 165.3 160.5 151.3 147.4 145.4 144 147 146.3 141.4 138.5 136.9 134.5 130.4 125.8 123.1 119.1 113.2 116.5 114.8 114.3 112.3 111.7 110.3 109.1 108.1 106.6 105.4 104.2 103 101.9 100.9 99.7 98.3 97.1 96 95 94 92.8 91.8 90.8 89.7 88.4 87.3 86.8 85.7 85.4 86.1 86.1 86.6 87 87.4 86.2 84.5 81.4 78.6 76.8 76.3 75.7 75 74.2 73.4 72.4 71.8 70.9 69.9 70.1 71.1 72.5 73.1 72 69.7 67.8 67.4 67.4 67.6 69.9 69.9 69 68.3 67.3 67.1 67.2 67.6 66.8 64.7 61.4 58.5 55.3 51.1 49.7 51.1 52.8 57.1 60.9 64.2 64.1 60.4 59.5 60 60.7 62.2 63.4 65.7 67.7 69.1 68.1
88.2 89 89.5 87.8 91.5 96.5 98.3 100 101.5 101.8 101.7 105.2 108.1 112.8 115.6 119.1 123.3 127.2 131.9 137.4 144.2 159.6 176.9 191.3 198.9 203.3 206.5 208.6 209.7 210.3 210.5 211 207.1 200.3 200 207.6 214.9 221.5 223.2 231.2 241.5 250.9 258.3 267.4 275.3 282.5 288.2 291.5 292.4 291.7 291.1 290 286.1 273.8 266.5 250.8 240.7 245.2 251.6 251.4 246.5 233.8 218.7 230.2 244.9 250.7 252.2 252.4 252.3 253.6 254.2 255 255.4 254.5 251.9 244.4 230.5 217.1 207.1 217.2 231.2 235.4 233.8 227.8 218.9 218.4 220.5 220.7 218.7 216.9 211.4 204.6 197.1 183.9 174.6 168.2 161.3 159 155.5 155.8 154.1 149.3 143.2 133 127.9 123.8 118.4 119.6 118.7 116.7 116.6 117.2 115.8 115.7 113.5 111.9 111.1 109.5 108.4 106.9 105.3 104.1 102.9 101.7 100.7 99.6 98.3 97.1 96 95 93.9 92.7 92 91.1 89.9 88.6 87.7 87.2 86.5 87.3 87.4 87.2 88.3 88.4 88.3 87.6 85.3 82.7 80.1 78.4 77.9 76.7 75.8 75 74.2 73.4 72.6 71.6 70.3 69.9 72.5 73.2 72.9 71.6 70.2 68.8 67.9 67.6 67.3 68.2 67.7 67.3 66.5 65.8 65.8 66.5 67.6 67 64.7 60.8 57.2 54.5 50.4 53.2 55.2 55.6 62.1 65.8 67.1 65.9 63.7 61.8 62.1 62.3 63.2 63.4 64.7 65.5 65.4 63.9
89.9 91.2 92.7 93.5 94.9 97.7 99.3 100.9 102.5 103.8 104.8 107.2 109.9 113.2 116.2 118.4 122.9 126.1 129.6 134.8 141.6 154.4 172.5 188.1 196.3 201.9 206 209.6 210.9 212.4 214.2 215.8 214.7 213.5 215.7 219.1 222.5 227.8 231.9 235.5 242.6 252.8 261.3 268.3 276.9 284.2 290.5 296.6 300 299.1 297.4 295.2 290.8 285.3 274.6 265.5 247.9 256 258.6 255.7 246.5 226 234.1 236.9 246.5 253.7 256.8 257.1 257.9 258.7 259.5 259.3 258.7 256.7 250.5 232.9 221.3 226.6 230.4 230.5 235.6 238.3 235.9 229.2 224.4 225.1 227.9 227.5 225 222.3 217.7 213.4 205.6 196.4 188.5 181.8 176.8 172.5 165.2 160.5 153.9 145.5 135.3 124.1 120.9 121.9 123 121.1 120.6 118.6 119.5 118.6 119 118 115.6 113.3 111.7 110.3 109.2 107.1 105.7 104.2 102.8 101.8 100.9 99.8 98.5 97.3 96.2 95 93.9 93.2 92.8 90.9 90 89.3 88.3 88.1 88.9 89 88.9 88.9 91 90.5 90 89.2 87.4 84.6 81.9 80.2 79.2 78.1 76.9 75.8 75.1 74.3 73.5 72.5 71.1 71 72.6 73.2 73.3 72.8 71.6 69.7 67.7 66.8 66.4 66.1 66.2 65.7 64.8 64.4 65 65.9 67.5 66.3 63.7 60.1 57.2 53.8 50.6 57.9 59.3 60.1 62.9 69.6 71 70.9 70 68.8 68 67.6 66.9 66.7 66.6 66.3 64.8 63.2
90.2 91.4 93.2 94.7 96.3 98.2 100.3 101.8 103.4 104.9 106.4 108.2 109.8 112.7 115.3 118.9 121.9 124.2 124.5 128.3 134.5 145.8 161.6 176.2 192.3 199.4 204.9 208.1 206.1 204.2 204.6 200.2 198.2 202.4 212.3 222.8 228.3 232.7 237.7 244.2 249.2 257.4 264.3 269.9 277.9 286.2 292.8 300.3 307.3 305.4 302.7 299.4 295.4 289.5 283.1 272.5 257.7 264.1 263.7 258.8 248.6 228.7 244.1 248.5 252.4 257.3 260.4 261.7 261.9 264.3 265.7 265.8 262.5 257.5 247 225.8 235.4 242.7 243.6 239.7 241 242.4 238.2 233.2 232.1 234.1 235.2 233.3 231 227.6 225 221.8 214.6 206.8 198.1 190.3 180.9 173.9 167 156.6 146.4 133.9 126 123.7 127.2 127.6 125.9 123.6 121.3 118.1 119.5 120.2 125.1 122.2 118.9 116.1 113.9 111.7 110.7 109.3 107.1 105.5 103.9 102.7 101.5 100.2 99.1 97.9 96.8 95.7 94.7 93.6 91.5 91.4 90.6 90.6 90.7 90.2 90.5 90.6 90.6 90.9 91.5 92.1 91.2 90.8 89.4 86.5 83.2 81.7 80.5 79.3 78.2 77.1 76 74.9 74.2 73.2 72.5 72.5 72.5 73.1 72.5 72.2 71.4 69.9 67.7 66.8 65.6 64.6 64 63.4 62.9 62.9 63.7 64.9 67.2 65.5 63 59.5 56.6 53.4 50.8 60.3 64 65.5 67.5 71.2 72.7 74.3 77 76.7 76.2 75.6 74.5 73.3 73 71.3 69.3 66
90.5 92.8 93.9 95.6 97.1 99 100.9 102.4 103.7 105.2 107.2 108.3 110.4 113.1 115.1 117.1 117.3 118 118.7 122.3 127.3 134.1 152.3 175.8 190.6 197 196.3 191.1 184.7 183.6 178.8 172.8 166.7 174.5 190.9 211 229.4 235.6 241.4 247.5 252.6 260.8 266.7 272.1 279.4 287.4 294 301.8 307.9 309.4 306.6 303.5 299.4 293.6 286.7 278.2 272.1 271 268.1 259.9 251.2 236.4 249.1 256.1 259.7 262.1 264.7 266.1 268.2 270.9 271.3 270.1 266.4 257.4 241.7 237.8 249.9 252.1 251.4 247.9 245.9 246.5 241.2 240.3 241.3 241.3 239.9 239.1 237.9 235.6 233.1 230.2 224.7 217.6 205.3 196.8 184 169.8 157.8 147.3 138.7 126 128.5 137.6 145.4 144.8 136 130 127.1 118.2 121.2 126.1 131.3 128.1 122.9 118.3 116.3 114.2 111.9 110 108 107.5 106.6 105.1 103.6 102.2 100.3 99.1 97.9 96.8 95.5 93.8 92.4 91.7 92 92.6 93 92.2 91.5 92.4 92.6 92.8 93.4 93.5 92.8 92.2 91.1 89.2 84.8 82.7 81.6 80.4 79.2 78.1 77 75.9 75 74.1 73.7 73.7 72.8 72.2 72.3 71.5 71 69.6 68.1 66.7 65.5 64.4 63.4 62.1 61.4 61.2 62.6 63.9 65.3 65 62.4 58.4 55.3 52.5 51.9 57.5 65.8 70.6 72.7 74.5 76.1 77.3 77.8 78.7 78.7 78.2 76.5 74.7 71 67.7 65.4 62
90.9 93 94.7 96.3 97.7 99.7 101.5 103.2 104.4 105.7 108.3 109.5 110.8 111.7 112.2 112.4 110.9 112.6 112.9 117.1 121.9 128.4 141.1 163.2 177.5 176.8 170.1 166 158.7 156.9 151.2 147.2 144.8 149 165.5 189.5 210.2 227.3 239.8 247.4 254 261.8 269.3 274.2 281.1 287.8 294.6 301.3 306.8 309.9 309.3 306.5 303.1 297.6 290.9 284.4 281.2 277.9 272.8 266.6 260.4 241.8 254.2 261.8 265.1 268.7 270.7 272.6 273.8 275.5 275.4 272.1 265.8 251.3 245.6 251.3 258.1 260.4 258.2 254.4 252.4 250.9 247.6 248 247.9 247.7 246.4 244.1 242.9 240.9 239.3 236.3 230.9 222.6 209.9 194.9 178.6 163.9 155.1 144.3 131.3 129.5 140.1 147.7 151 149.5 140.5 129.8 122.5 122.4 130 141.5 139.3 134.5 125.6 121.2 118.6 116.3 114.2 111.3 110.4 109.6 107.8 106.4 105.2 103.1 101.4 99.9 98.7 97.3 95.9 94.6 93.7 92.9 94.1 94.7 94.7 94 93 93.6 94.3 94.7 95.4 94.8 94 93.4 91.9 90.2 85.8 83.7 82.4 81.3 80.2 78.8 77.5 76.5 75.5 74.6 74.6 73.6 71.7 69.9 69.4 69.3 68.8 67.7 66.6 65.5 64.8 63.1 61.7 60.1 59.3 59.2 58.5 59.1 63.4 62.6 55.5 55.3 53.5 53 53.9 54.6 59.1 64.9 68.4 69.8 72.4 74.8 76.2 77.3 73.4 73.4 72.1 68.7 68 65.5 63.3 60.8
91.3 93 94.6 96.1 98.1 100.1 101.9 104.2 106.2 106.8 108.4 108.8 109.2 108.8 107.8 107.8 106.8 107.3 108.1 111.5 115.6 119.9 128.4 143.4 151.3 146.8 140.3 137.5 135.4 135.1 139.3 149 155.6 158.6 153.1 170.8 189.6 209 231.5 243.8 252.7 261.8 268.7 275.2 280.9 287.8 293.4 298.9 305.7 309.5 309.5 308.4 305 300.4 295.6 291 288.1 284.7 280.2 275 267.6 252.9 259.4 267.5 270.8 274 276.2 277.9 279.6 279.6 278.4 271.6 258.8 259.8 257.4 261.9 267.3 267.9 265.7 261.1 258.1 256.7 254.6 255 255.2 254.6 252.5 250.2 247.7 245.8 244.7 241.4 232.7 218.7 201.1 181.9 166.9 154.6 145 131.8 129.7 138.9 149.4 154.4 149.3 141 125.9 126 125.9 132.5 148.2 150.5 144.8 134.4 127.4 123.8 120.8 117.8 114.8 114.6 113 111.8 109.8 108.2 106.5 104.5 103.4 102 100.5 98.5 97.4 96 94.6 95 96 96.6 96.5 95.7 94.7 94.9 95.5 95.8 97.1 96.3 95.5 94.2 90.5 87.6 86.2 84.6 83.4 82.3 81 79.3 77.8 76.9 76 75.1 74.8 73.4 72.4 71.5 71.6 71.3 70.3 68.6 66.7 64.6 62.8 62.1 61.2 61 60.7 60.2 58.6 57.5 56.5 55.6 55.9 54.8 56.2 55.3 54.4 54.3 54.9 57.6 59.5 60.6 62.3 63.6 65.2 65.6 65.5 65.8 65.9 64.8 64.8 64.2 63.2 63.4
