ncols 200
nrows 82
xllcorner 360000
yllcorner 420350
cellsize 50
115 113.7 112.1 112 111.9 111.9 113.4 115.4 117 117.6 114.6 114.3 116.9 117 117.9 116.5 114.6 115.9 118 119.9 120 120.1 121.4 120 117.7 116.4 116.5 115.3 113.7 112.3 111.6 111.2 110.5 109.8 109.8 109.9 110.2 110.6 113.3 114.6 119.9 120.5 127.6 139.3 141.9 141.7 142.3 141 139 138.6 138.8 141.1 141 140.3 139.3 137.9 136.5 134.3 132.1 133.6 133 132.3 129 126.5 129.8 130.8 131.4 131 130.8 130.9 132.5 133.6 134.7 137.9 141.1 143.1 145.3 147.4 149.4 151.8 153.5 154.4 152.8 142.9 135.2 130.9 130.6 130.4 115 99.2 93 96.2 112.1 126.6 131.1 139.3 141.8 143.3 143.5 143.7 142.7 141.6 137.2 132.8 127.2 135.3 138.9 143.4 148.1 152.9 157.3 162.5 166.7 172.8 176.7 179 180.2 180 181.1 183.2 183.9 185.6 187.4 189.2 192.4 195.6 198.3 201.3 206.9 212.1 214.5 216.5 218.3 220.2 221.2 219.3 215.8 215.4 212.3 209 205.8 201.5 198.3 195.5 193.4 192 189.3 188.3 185.4 183.4 181.2 174.4 169.4 167.4 166.7 165 162.7 157.9 153.3 147.4 146 143 140.3 139 137.7 137.5 137.3 138.2 134.7 138.7 134.8 138.3 136.5 137.3 136.8 136.4 137.1 130.5 124.2 126.7 127.9 133.9 134 134.2 134.2 134.9 135.6 136.6 137.7 138.7 138.8 136 132.8 132.9 131.7 131.1 132.6 135.5 140.7 142.3
114.6 113.2 112 111.9 111.4 111.3 111.7 113.6 114.6 114.6 112.8 113.2 115.1 117.4 117.3 115.7 114.3 115.4 118.2 119.1 119.5 119.6 119.9 118.4 116.4 114.8 114.7 113.3 111.9 110.5 109.7 109.3 109 109.6 110 110.2 110.3 111.8 112.7 121.8 136.9 124.7 127.2 142.4 144.2 143.2 143.3 141.7 139.8 139.5 140 141.5 141.4 140.5 139.6 138.6 137.6 136.6 133.6 134.8 134.4 131.2 131.8 131.8 131.7 131.8 131.9 132.1 133.1 133.9 136.1 137.2 137.8 138.1 142.4 146.8 151.2 153.9 156.2 158.5 159 157.7 154.4 147.4 142.3 137.2 131.9 127.5 113.1 101.7 96.7 98.2 113.4 127.5 132 136.2 139 141.8 143.2 144.4 144 141.1 133.9 124.9 133.1 135.9 140.8 145.7 149.2 153.8 159.3 164.2 173.5 180 177.9 182.9 182.9 182.6 182.7 183.3 183.1 182.6 183.8 185.3 187.9 192.1 196 200.2 205.8 210.9 213.5 215.9 217.5 218 218.5 215.8 212.1 208.7 205.8 202.3 200 195.3 192.8 191.4 188.8 188.5 185.4 181.7 177.4 175.5 173.7 173.7 173.8 171.3 167.9 164.8 161.3 153.8 152.5 149.1 147.2 144.2 141.2 140.1 138.5 138.1 137.7 137.6 139.6 138.5 137.2 137.9 138.2 138.4 137.2 136.9 137.8 127.9 122.7 122.4 130 134.4 133.6 133.5 131.6 128 125.8 129.1 145.1 131.4 130 129.8 131.5 130 130.3 131.8 133.2 141.6 143.9 144.7
113.2 112.1 111.7 111.2 110.8 110.8 111 111.3 112.2 111.9 111.6 111.6 112.2 114.7 115.7 113.8 114.3 115 116.8 118 118.4 118.8 117.8 116.5 115.4 114.1 112.9 111.6 110.3 109.8 109.2 108.9 109.2 109.6 110.1 110.3 111.9 114.2 124.8 138.6 142.4 136.7 123.3 136.1 144.5 144.2 144.1 142.4 141.4 141.4 141.3 141.6 141.6 140.7 139.9 138.9 137.9 136.8 134.4 132.6 132.1 131.7 132.6 133.2 133.5 133.8 134.5 135.3 137 138.3 139 140.2 140.7 141.5 143.3 147.7 152.4 158.5 162.9 164 163.5 162.6 155.2 147.3 142.7 138.1 132.4 125.1 112.8 100.2 94.6 101 116.2 128.5 129.4 130.1 131.1 135.7 136.6 137.4 138.4 134.4 123.5 129.5 133.5 137.4 144 148.2 151.7 155 159.9 164.7 174.5 180.9 182.5 184.5 184.7 184.3 183.3 182.3 179.4 177.1 178.1 181.4 182.9 185 192 196.8 202.3 207.9 211.2 211.6 214.8 214.1 213.3 211.2 207.9 205 200.5 198.4 195.6 193.8 188.9 186.5 184.4 183.1 181.1 177.9 177.3 175.4 171.2 172.4 171.2 169.4 166.7 163.2 159.2 155.3 152.4 151 147.2 144 141.5 141.9 139.1 139.2 140.2 140.5 140.2 138.9 139.1 138.4 140 140.1 138.7 138.4 138.3 131 124.2 124.1 132.6 134.6 136.3 133.6 134.4 133.8 128.8 131.9 140.4 134.2 133.9 129.3 130.5 130.5 130.7 132.3 141.6 144.9 146 147
113.6 111.6 111 110.5 110.3 110.3 109.9 110.2 110.4 110.5 110.1 109.7 110.3 111.3 112.3 112 114.7 115.4 116.9 116.3 116.9 117.2 116 114.9 113.7 112.5 111.4 110.3 109.8 109.3 108.6 109.2 109.5 110 110.3 113.8 115.9 125.8 133.2 141.3 144.9 144.2 141.1 127.5 142.8 145 144.9 143.3 143.3 142.8 141.8 141.7 141.8 140.9 140.1 139.2 138.2 137.2 136.3 135 134.8 134.2 134.1 134.8 136.1 136.2 136.5 137 139 141.1 142.7 143.2 144.6 146.9 149.1 153.3 159.2 165.9 170.8 171.6 169.3 165.1 156 147.7 143 138.8 133.8 123.2 109.7 99.3 96.9 98.6 107.2 123.2 132.2 135.4 135.1 133.6 134.8 136.7 137.8 128.1 124.6 131.4 135.6 140.6 147.4 151.2 153.7 157 160.1 164.1 169.8 176.5 182.2 183.7 184 181.5 177.2 174.2 172.7 178.7 181.4 183.3 182.3 181.8 186 192.4 198.8 203.7 206.2 207.7 206.3 204.2 202 198.5 196.1 192.9 190.9 190.2 189.4 188.4 186.3 183.6 181.1 180.9 180.5 182.8 184.5 181.8 174.4 169.6 170.1 168.1 165.5 162.7 160 156.3 152.3 150.9 146.9 145.5 142.4 141.5 140.4 140.4 141.6 142.6 141.4 140.3 139.5 139.9 140.1 140.7 137.9 138 138.8 136.2 126.5 125 132.9 137.5 137.9 137.4 137.2 137.2 137.3 137.2 136.1 136.4 141 140.4 140.2 135.6 133.2 140.8 144.9 146.6 147.7 148.6
112.5 111.9 111.4 110.8 110.1 110.2 109.7 109.3 108.6 109.1 108.9 109 109.4 110.1 110.2 111.6 114.9 115.9 115.4 114.7 115.3 115.8 114.4 113.3 112.1 111 109.9 109.1 108.1 108.5 108.3 109.1 109.8 110.6 112.1 116.8 122.2 129.1 135.9 142.2 146.9 151.1 148.9 143.9 142 146 145.7 145 144.2 143.5 142.4 142.2 142.1 141.1 140.3 139.4 139 138.2 137.6 136.8 136.6 136 135.9 137.6 139.3 139.4 139.7 140.6 141.8 144.2 146.4 147.6 149 152.3 155.4 160.3 166.2 171.4 178.4 181 177.7 171.7 160.8 151.2 145.4 140.4 134.8 120.2 106.8 99.6 99.2 110.3 105.8 125.9 115 124.2 131 134.6 139.2 137.6 133.1 122.1 129.9 145.7 146.1 145.4 150.1 153.1 155.6 158.2 160.5 162.9 166.8 172.4 180.3 180.5 177.4 173.7 169.2 178.1 182.4 186.9 192.2 193.2 192.8 192.2 187 186.4 190.7 191.1 191.2 191.7 191.8 192 192.2 192.2 193 192.4 190.7 190.6 187.6 189.6 185.4 185.6 184.7 183 184.6 182.9 182.8 181.1 179.8 173.4 170.6 168.8 163 162.2 159.5 156.2 152.9 151.3 148.3 146.1 144.5 143.4 142 141.7 142.9 144.2 143.3 140.7 141.3 141.7 141.3 140.7 139.7 139.8 139.1 134.8 128.1 125.3 132.2 140.2 140.4 139.9 137.6 137.9 137.6 145.8 137.5 139.3 141 140.7 141.4 140.8 138.3 136.3 140.2 147.8 149.3 149.7
113.1 113.3 113.1 111.8 110.5 110.7 110.7 110.7 110 109 108 108.4 108.7 109.3 110.1 112.7 114.7 114.4 113.6 113 113.5 114 114.5 112.1 111 110.3 109.6 107.7 108.9 107.5 108.3 109.1 110 111.6 114.5 120.3 126.5 131.8 137.6 143.6 149.3 152 149.6 144.9 142.6 146.8 147.3 145.8 145 143.9 143 142.6 143.2 142.2 140.7 141.7 140.6 139.9 139.1 138.2 137.8 138.3 138.1 140 142 143.3 144 145 146.3 148.7 150.2 151.6 154.6 158.7 163.8 168.2 173.1 179.3 185.1 186.4 183 176.1 166.7 153.6 148 142 131.8 112.9 101.1 102.6 113.7 119.3 115.8 117.3 102.8 104.2 109.6 117.3 129 133.7 129.8 118.7 131.3 138.9 143.1 149.7 151.8 154.1 155.4 157.2 159.3 161.7 163.3 165.4 167.7 169.6 170.7 173.6 175.8 177.4 180 181.3 182.8 185.5 186.4 188.7 191.6 190.5 188.4 188.6 191.9 197.7 195.8 196.4 196 194.4 192.9 191.8 190.7 190.8 190.5 189.6 188.4 188.7 187.6 185.8 183.1 180.3 178.7 182.7 180.8 177.7 176.4 169.7 165.8 159.8 158.4 155.7 152.7 150.9 146.9 145.3 144.2 145.5 143.8 143.2 144.1 145.3 144.4 144.5 143.3 144 143 142.2 142.5 142.3 142.7 136.5 127.7 125.8 131.3 139.9 141.4 141.2 140.9 140.6 138.2 146.7 140.7 140.6 140.8 141.2 141.9 142 142.4 141.9 141.6 143.7 148.8 150.8
114.5 115.1 114.4 113.6 113.6 114.4 114.2 114.1 114 109.9 109 108.5 108.4 108.5 110.1 109.9 112.1 112.1 111.2 112.1 112.7 112.9 113.1 113.3 112 110.5 109 108 108 107.6 109 110.4 110.4 113.6 118.6 123.9 129.9 134.7 139.8 146.5 152.4 151.1 149.4 145.9 138.6 145.9 146.8 147.1 146.2 144.3 143.7 143.4 144.9 143.3 143.8 143.5 142.4 141.4 141 140.7 140.4 140.4 140.8 142.5 144.3 146.4 149 151.2 151.4 152.4 155.4 157.9 159.6 164.2 170.2 174.7 177.4 183.6 188.4 188.1 185.2 177.7 166.4 153.3 147.6 140.8 124.9 102.7 107.1 118.2 123.8 125.1 125.9 122.1 113.4 105.8 104.6 105.6 115.1 120.6 116.9 126.7 133.9 138.8 143.3 148.1 150.9 153.7 155.9 157.3 157.9 159 159.9 160.8 161.6 162.3 165.8 172.3 177.4 181.1 187 193.2 198.1 201.3 204.2 203.5 201.3 198.6 196.1 192.8 191.4 198.9 194.8 196.4 196.7 196.1 195.5 194.9 195 195.4 194.3 194.8 192.8 191.2 189.4 188 185.4 183.7 183.4 182.9 181.3 178.8 177.6 172.8 168.5 163.6 157.3 153.6 151.6 149.3 147.4 146.2 147.9 146.4 144.3 144.2 145.1 146.7 146.3 147.3 146.6 145.5 145 143.6 144 143.1 142.8 134.3 127.7 129.3 137.9 141.5 141.5 141.1 141.1 141.9 143 144.8 144.4 142.2 142.5 143.1 142.6 143.8 145 145 144.4 141.1 145.1 150
115.7 115.2 115 113.6 115.6 114.4 113.2 112.8 111.6 110.5 110 109.5 109 108 107.6 108.6 108.6 109.2 109.2 111 112 112.5 112.6 112.6 111.5 110.1 108.8 107.4 106.9 107.6 108.7 110 113.1 116.5 122.9 128.4 133.1 138.9 145.4 151.2 152.7 150.9 149 146.1 137.1 146.5 147.5 148.3 147.8 146.6 145.6 146 145.8 145.5 145.8 145.5 144.2 144.5 144.2 143.8 143.5 142.8 144 145.7 147.6 149.5 151.9 154.4 157.1 155.3 158.8 162 164.7 165.1 167.8 175.2 173.5 185 189.1 187.8 185.7 178.3 165.1 152.4 146 138.5 123.5 101.6 115.1 127.1 129.3 130 129.7 129.9 128 125.9 121.2 109.9 109.1 117.8 125.6 130 135.5 140.2 144.7 148.9 150.9 152.6 153.6 154.8 156.3 158.2 158.2 158 156.5 162.7 166.4 170.8 175.8 181.2 189.1 195.5 200.9 204.7 207.2 208.3 205.5 202.7 201.4 200.8 196.2 200.2 201.7 202.8 201.8 200.1 199.5 199.6 200.1 201.2 200.9 200 196.6 195.6 194.4 192.2 191 189 187 184.3 181.9 180.9 178.4 174.9 172.2 164.9 158.2 154.2 150.8 149.8 148 148.6 148.3 146.5 144.9 145.2 146.6 147 146.9 146.8 147.1 147.5 147.6 145.5 144 143.6 142.4 131.7 127.7 137.3 139.7 142.3 142.1 140.8 141.3 142.8 148.4 149.9 148.6 144.1 144.2 144.8 145.8 146.3 146.7 146.8 147.2 146.6 147.5 147.4
117.8 118.5 115.6 114.6 114.6 113.4 112.4 111.6 110.5 110.6 110.9 110.4 110.2 109.2 108.2 107.9 107.9 107.3 108.2 109.9 110.9 111.9 112.2 111.9 110.8 109.7 108.5 106.5 107.2 108.1 109.1 110.7 115.8 120.6 126.2 131.9 137.8 146.7 151.9 154.6 153 150.7 148.2 146.8 142 147.6 149.2 149.5 149.2 148.9 149.2 148.8 148.4 148.1 148 147.6 147.2 147.8 147.1 146.8 146.2 145.9 147.1 148.9 151 154 157 158.3 159.7 160.1 161.8 161.9 162.8 165.1 168.8 174.8 168.6 186 188 185.8 183.3 175.9 163.6 151 143.6 135.2 119.3 105.6 102.5 121.7 133.4 132.8 135.7 134.9 132.8 129.6 126.6 117.2 111.7 122.8 126.3 130.9 136.8 141.6 146.1 147.9 149.3 151.5 152.6 153.9 156 157 156.6 152.1 158.8 162.4 165.7 169.6 173.8 181.1 189.5 196.3 202 206.2 209 211.6 209.5 206.8 205.5 203.8 197.5 204.6 205.9 206 206.5 205 205.3 208.4 208.4 207.6 205.1 204.3 202.8 202.7 201 196.6 194.5 192.3 189.6 186.5 183.5 182.6 179.5 176.9 174.1 167.5 159.8 155.1 152.6 149 150 149.8 148.7 146.8 146.2 146.1 146.3 147.7 147.8 147.3 147.4 147.3 147.8 147.8 145.6 142.1 134.5 131.1 134.8 140.1 143.3 143.5 144.7 144.2 144.4 147.2 150.2 150.3 150.3 151.4 149 146.9 146 147.8 148.5 148.5 150 150.1 150.3 152
119.9 121.2 117.3 115.2 115.4 114.5 113.6 111.9 114.2 113.1 112.5 112.6 112.7 112.1 110.7 109.6 109.8 108.1 107.3 108.6 109.8 110.8 110.5 111.2 110 109 106.3 106.8 107.6 109 110.3 114.4 120.2 125.5 129.8 135.7 143 152.3 155.5 155.9 154.1 152.6 150.2 148.4 146.3 149.1 150.8 150.7 150.6 150.4 150.2 150.6 151.1 151.5 153.2 152.7 151.3 151.4 151.1 150.1 148.6 149.2 150.5 152.7 155.3 158.8 161 162.1 163.3 163 162.4 164.2 165.3 167.2 170.3 178.1 182 186.3 184.2 182.9 180.5 172.3 161.7 151.6 142.6 125.4 106.9 107.6 106.7 128.5 136.8 135.3 140.3 139.2 136.3 132.7 129.1 119.2 114 124.3 127.6 132.7 137.6 142.7 146.4 146.7 147.6 150.3 151.6 153.9 155.1 155.5 153.5 153.4 159.7 162.5 165.4 168.7 173.4 180.4 187.8 193.7 198.4 202.5 206.4 210 210.1 209.1 208 204.1 204.6 208.4 208.9 210.5 213.8 213.8 215.6 215.2 214.1 212.5 211.6 210.6 209.4 207.8 205.9 202.1 197.4 194.7 192 188.8 185.5 183.5 180.9 178 174.8 169.6 161.9 155.8 152.6 151 150.3 149.7 148.7 147.3 147.1 146.8 147.1 147.3 147.8 147.9 147.7 148 146.5 143.4 138.5 132.3 129.2 129.9 138.9 142.9 145.6 147.6 145.5 145.3 145.3 150.9 150.7 150.7 150.6 151.3 151.3 150.7 148.4 149.5 150.6 151.6 152.6 153.5 153.6 154.1
122.5 123.3 121.8 116.2 116.1 115.8 115.3 114.2 116.1 117.4 116.1 116.6 117.1 116.5 114.7 112.8 111.7 109.4 106.2 107.3 108.4 109.7 109.6 109.3 109.1 106.8 106.5 107.2 108.1 110.8 113.8 119.7 123.4 128.2 133.3 141 149.8 156.6 156.5 156.9 159.5 155.1 152.5 150 148.5 150.5 151.9 152 152.2 152.3 152.6 153.5 154.4 155.2 154.6 154.7 153 155.6 154.6 155.3 154.4 155.2 154.9 157.3 160 163.1 165.2 166.4 167.6 166.5 167.2 168.1 168.6 169.5 173 179.7 184.5 185.1 183.6 181.6 178 169.7 161.3 149.5 141.5 123.9 106.7 117.6 131.7 136.5 133.3 141.9 142.8 140.9 137.3 133.5 129.6 120.7 111.1 124.2 129.1 133 137.8 141.6 144.7 146 146.2 149.2 150.8 152 152.4 151.8 150.1 155.7 159.6 164.4 167.3 168.5 172.4 178.2 184.5 189.8 194.8 198.1 200.9 203.9 206.6 208.4 208.5 202.1 208.5 211.9 213.3 216 219 220 219.9 218.9 218 217 216.2 215.3 214.3 212.7 210.5 207 201 196.5 193.1 189.2 184.6 182.1 181 178.1 175 172 167.1 157.1 153.4 152.2 152.8 151.2 149.7 148.3 147.4 147.4 147.1 146.7 146.8 147 148.1 146.4 143.9 140 134.8 134.9 130.2 128.8 139.9 144.1 147.1 150.6 150.4 151.3 150.4 151.5 151.2 150.9 150.9 151.2 151.4 153.3 153.9 154 154.7 156.2 158.1 158.5 157.9 157.6
126.7 126.1 122.6 120.3 116.8 118.2 116.7 117.4 117.8 121.3 121.6 122.3 120.2 119.6 118 115.4 113.1 110.3 107.3 106.8 106.9 107.4 107.9 108.2 107.2 107 107.8 108.3 111.3 112.9 117.6 121.9 126.7 131.1 136.6 145.4 154.3 156.1 156 156.7 158.8 154 152 147.9 149.2 151.6 153.8 154.7 155.3 155.4 155.9 156.7 157.8 158.9 157.6 157.6 157.1 158.6 159.2 159.5 161 160 161.8 163.3 165.5 167.7 169.6 171.1 171.6 169.5 170.3 171.2 171.4 172.2 175.7 181.5 184.5 183.4 182.4 180.6 175.2 167.8 159.2 147.5 142 115.3 110.8 121.2 134.7 137.1 140.9 142.4 143 141.2 137.4 133.7 130 124.8 115 119.7 127.3 132.1 135.7 139 141.9 143.5 142.7 145.7 148.2 148.6 146.4 147.6 154.9 158 160.6 164.6 169.3 172 175 177.4 181.4 186 191.9 195.8 198.9 202.6 207.8 209.7 206.1 207.9 212.2 214.5 219 221.2 223.7 224.2 224.1 224 223.4 221.7 221.4 220.1 218.9 215.8 211.2 204.7 200.2 195.9 191.8 188.1 183.6 180.6 177.6 175.7 173.3 170.6 164.6 157.9 157.6 156.1 154 152.3 150.7 149.3 148.5 147.7 147.3 146.2 146.5 144.2 143.9 144.2 140.8 135 134.8 135.1 135 139.8 141.7 145.2 150.5 151 152.7 151.6 151 156.7 155.1 154.2 154 156.5 159.8 160.2 162.3 163 163 164.1 165 165 164.9 163.8
131.5 130.1 126.3 123.5 118.9 120.6 121 122.1 123.2 125.4 125.7 124.5 123.6 120.9 119.6 116.1 113.7 111.1 108.2 107.2 107.6 106.4 106.9 107.1 106.6 106.7 107.8 109.4 111.5 114.8 119.5 123.8 128.7 133.6 139.8 149.5 156.6 156.1 155.2 154.3 153.8 152.4 151.3 150.5 150.5 152.8 155.2 156.3 157.3 158.4 159.2 160.4 162.2 161.2 161.4 161.4 160.3 161.5 162.7 163.2 165.1 166.7 168.2 170.2 172.1 174.7 176.3 175.2 173.3 171.8 172.3 172.8 172.8 174.4 176.5 180.8 183.1 182.2 180.9 177.4 170.9 163.1 154 146.5 142.9 125 112.3 126.4 135.4 137.7 139.6 140.5 141.4 140.7 136.9 133.1 130.5 127.1 120.6 115.3 119.3 123.7 129.8 136.8 139.1 140 140.2 142.3 143.7 138.1 142.4 150.5 155.6 159.9 163.4 167.1 170.6 173.4 176.6 179.6 184.5 189.2 193.2 195.3 198.4 201.7 205.6 208.8 207.7 210.8 215.2 218 224.8 227.1 228 228.5 228.3 228.2 227.6 226.1 224.9 222.3 219.4 213 211.2 208.2 202.6 197.5 192.8 188.4 184.6 181 175.9 170.8 167 163.3 164.7 167.6 161.6 157.9 155.7 153.7 152.1 150.7 149.8 148 147.2 146.3 144 143.7 143.4 142.4 136 135.1 134 132.1 136.9 141 142.1 148.8 153.2 153.5 153.9 152 159.1 166.3 167.8 169.7 169.9 169.2 170.9 171.2 171.8 172.6 172.4 173 172.7 171.5 172.2 170.8
134.9 133.2 129.5 123.1 123.6 123.9 125.5 126.1 126.7 126.6 125.6 125.4 123.1 122.2 119.5 116.3 114.1 111.5 108.7 109.2 108.9 107.8 106.5 106.2 106.3 107 107.7 111 114.3 118.6 121.4 124.9 129.8 134.7 140.3 149.8 155.1 156.5 156 155 154.3 153 152.6 152.7 152.2 154.3 157.3 158.1 158.9 160.9 163.1 164 163.3 165 164.4 163.5 163.1 165 166.3 167 169.1 170.6 172.2 174.5 176.1 177.4 178 176.1 174.2 172.8 173.2 172.9 172.7 173.2 175.5 178.7 181.8 181 178.3 168.3 160.8 161 154.8 147 143.3 131.6 117.6 132 135.5 138.4 138.9 139.8 140.5 139.5 137.1 134.4 131.8 127.5 127.9 129.1 128.2 124.2 120.3 123.3 128.4 131.2 132.3 137.2 135 139.9 145.1 151 156.9 161.3 165.6 169.3 171.9 174.4 178 181.9 186.6 191 194.2 197 199.8 202.5 205.3 209.9 213.2 215.5 217.7 220.7 229.1 231.7 232.6 231.6 230.8 229.9 228.8 227 224.5 223.6 222.7 218.2 216.7 211.7 205.3 198.8 193.8 189.3 186.8 183 179.8 177 174.1 171.3 169 168.1 165.7 160.1 156.8 155.1 153.6 152.1 150.2 148.9 147.7 146.9 144 143.9 143.7 142.6 137.8 135.8 131.8 131.9 135.9 141.8 143.5 150.9 154.1 154.4 153 157.7 170.1 176 179.5 182 181.5 180.7 180.3 180.4 180.5 180.5 180.6 180.3 180.5 180.2 179 177.6
136.5 132.3 129.3 126.9 129.1 126.8 127.2 128.6 128.2 127.2 125.6 124.7 122.4 120.5 118.3 115.4 112.8 110.8 109.6 111.4 111 110.3 108 105.8 107.1 108.4 111.5 112.7 114.4 119.7 122.8 125.8 129.2 134.1 140 148.2 152.7 155.8 156.6 156.3 155.9 155.2 153.9 154.1 155.1 156.4 159.7 160.8 161.6 164.4 167.4 167.5 167.8 167.5 166.8 166 166.5 167.3 169.6 171.5 173.1 174.6 176.2 178 179.1 180.1 177.8 176.9 175.1 174.1 174.6 174.3 172.5 171.8 172.8 177.7 180.1 179.4 175.4 166.8 158.6 154.7 152.5 147.9 144.3 140.1 135 132.2 138 139.4 139.8 139.9 139.6 138.6 137.1 134.7 131.9 126.6 129.6 130.9 132.1 133 132.6 128.5 126.2 124.8 128.8 130.8 135.7 138 142.1 151.6 157.6 162.5 166.9 171.1 174.2 176.8 179.9 183.1 187.7 191.4 194.7 197.6 200.3 203 208 214.6 217 216.6 219.2 221.8 228 232.1 233.5 232.4 231.9 231.4 231.5 232.2 232 231.1 228.4 225.5 221.9 216.9 210.7 203.2 196.8 193.4 190.6 186.8 182 179 175.9 172.6 170 167.8 165.2 162.5 158.9 156.4 154.8 153.3 152 150.4 148.8 147.6 144 143.9 143.1 141 137 135.5 133 131.5 139.4 143.1 147.6 148.7 155.4 156.7 155.5 165.1 173.5 179.4 184.9 188.5 188.8 188.3 187.4 187.6 187.7 187.7 187.8 188.2 188.4 187.3 185.3 183.7
135.9 133.9 129 132.7 133.4 131.9 128.6 130.4 130.1 127.4 125.6 123 120.6 118.4 117 114.4 112.2 111.8 113.4 113.9 113.2 111.8 109.5 106.3 107.6 110.2 110.6 113.7 117 118.8 123.8 127.1 130.1 133.6 138.6 144.3 151.9 155 156.6 157.2 156.5 155.9 155.6 155.6 155.8 157.5 159.8 162 164.1 166.9 169.4 170.9 171.3 170.6 170 169.1 169.9 170.6 171.8 174.8 176.4 177.6 178.5 181 181.8 180.4 179 177.4 176.2 175.4 175.1 174.4 172.6 170.9 168.7 175.6 177.6 177.2 174.4 168.5 161.4 155.2 150.6 147.5 143.7 141 130.7 126.5 138.9 140.4 140.7 140.7 140.5 138.8 137 135.1 132 127.7 130.4 132 133.7 135 136.1 136.4 137.5 136.2 129.9 137.1 141.4 144.1 143.6 148.6 155 161.4 166.1 170.7 174.4 177.4 179.6 183 188 192.1 195.2 198.1 200.8 205.3 213.5 219.1 219.8 219.4 221 222.7 227.3 232.2 234.5 234.4 234.9 235.5 237.4 239.1 238.6 237.9 233.6 232.7 229.6 223.4 216.4 209.2 203.2 197.9 194.2 190.8 185.7 181.9 178.9 176.1 172.8 171.2 167.8 164.2 162.1 158.7 155.9 154.4 152.6 150.6 150 148.2 147.4 146.1 143.3 140.1 137.4 134.6 133.2 133.6 142.9 147.2 151.8 152.2 155.1 154.3 161.7 168.3 174.1 177.6 185.5 189.3 191 191.6 192.2 192 191.4 192 193.3 195.5 195.2 194.3 190.8 189.2
134.1 132.6 134.5 136 135.6 133.4 131.3 131.1 130.1 128.9 124.5 121.7 118.9 116.5 114.7 113.6 115.2 115.4 116.1 115.6 115.3 113.8 111.5 106.3 109.1 110.4 112 114.4 115.8 118.5 123.2 127 130.2 133.2 136.8 142 150.7 154 156.6 158.3 157.6 157.5 157.4 157.1 157.9 159.8 162.8 162.7 165.1 168.2 170.7 171.9 172.5 172.4 173.1 172.2 172.1 172.7 174.8 177.2 179.6 181.6 182.5 183.9 183 180.9 179.4 178.7 177.9 177.2 176.7 174.6 173.7 171.8 168.1 173.2 174.2 173.5 170.4 162.6 157.7 153.2 150.5 147.4 143.2 132.9 122.2 117.2 139.7 141.4 141.5 141.4 141.4 139.7 137.9 135.6 133.1 128.9 130.9 133.6 135 136.6 138 138.6 139 139.3 133 138.4 144.1 148 152 155.2 153.2 154.8 162.1 169.6 173.5 176.8 180.1 184.1 187.3 192.3 197 199.4 202.7 209.4 219.1 223.2 222.3 221.1 220.9 225.3 228.4 233.3 235.6 236.8 238 241 241.9 246.4 246.3 244.7 241.6 240.1 236.3 229.8 222.3 215.6 211.3 204.9 201.5 194.6 192.8 190.2 187.2 180.7 176.1 173.4 171.1 168.8 165.8 162.8 159.2 155.2 153.4 151.7 149.9 149.4 148 146 145.1 143 137.6 136.1 134.1 139.5 143.7 150.1 151.5 152.6 155.3 156.1 161.4 165.3 170.6 177.4 184.3 188.4 190.7 191.5 192.3 192 191.7 192.5 193.8 196.1 199.3 198.5 195.8 192.1
136.2 136.6 138 137.9 136.2 134.1 132 130.3 129.8 130.9 124.1 120.1 117.6 116.8 116.2 116.9 118.9 119.1 119.4 119.4 117.5 116.1 114.5 106.4 108 110.2 110.5 113.5 115.5 120.3 123.9 126.6 130.4 133.9 138 144.4 150.8 154.6 156.5 158.3 159.2 159.1 159 158.9 159.7 161.5 164.5 165.3 164.9 168.9 171.3 173.1 173.1 173.6 174.1 172.8 173 175.2 177.3 180.7 183.5 185.5 186.5 185.9 184.4 182.3 179.8 179 178.2 177 176.4 175.6 175.3 173.5 171.2 168.3 169.7 167.6 163.8 158.8 155.9 151.4 148.9 145.6 138.9 126.4 113.8 125.3 139.8 142.6 142.7 142.2 142.1 140.7 138.5 136 133.5 128.5 132.6 134.9 137.3 139.6 140.3 140 140.2 140.5 135.4 141.1 147.5 152.9 156.3 160.2 164 165.7 162 166.9 173.2 176.3 180.2 185.4 188.8 193.6 198.2 202.4 204.9 213.3 222.1 224.9 223.2 222.6 223.2 226.6 231.8 234.2 236.7 239.5 241.6 243.9 251.5 254.2 253.5 250.9 248.7 245.8 241.5 236.1 229.8 223.9 217.7 215.5 211 208.6 206.6 200.6 196.7 190.2 182.7 177.2 173.9 171.2 167.9 164.4 162.2 157.2 154.7 152.9 151.7 150.5 147.9 147.4 146.1 144.4 141.4 134.6 134.6 142 145.7 151.6 152.5 155.7 155.7 159.3 161.9 168.7 170.9 175.9 182.6 186.5 189.2 190.4 191.4 191.3 191 192.1 192.8 194.3 196.9 198.9 196.6 193.1
138.7 139.8 139 138.4 136.5 134.4 132.3 130.2 129.8 130.2 124.4 121.4 121.9 121.3 121 121.6 123.2 123.9 124.1 123.6 121.3 119.9 115.9 107 109.4 110.5 113.3 117.1 120.9 121.7 125.3 128.9 132.6 135.5 138 143.1 149.3 155.5 158.2 160.4 161 161 160.9 160.8 161.5 162.7 165.3 168 167.6 169.3 172.2 173.7 175 174.9 175 174.5 174 176 178.5 182.6 185.9 187.2 187.1 186.3 184.9 183.2 181.6 179.1 178.8 177.3 176.1 175.6 174.8 174.7 171.6 168.2 166.2 163 160.7 158.1 154.1 151.4 148.2 142.8 134.7 119.2 123.1 136.3 142.1 144.1 144.2 143.3 142.8 141.5 139 136.6 134.2 131.5 133.5 135.7 138.8 141.9 143.1 142.5 142.1 141.2 138.7 145.1 153.3 157 160.4 164.3 166.6 168.3 170.5 166.5 171.2 176.9 181.1 186.9 191.9 195.1 200.8 204.3 206.4 213.1 221.8 225.2 224.4 224.5 226.6 229.7 233.9 236.8 239.4 241.8 244.3 249.8 256.3 259.8 259.3 256.6 253.3 250.1 245.7 240.7 235.8 231.1 226.1 223 217.7 216.8 213.3 209.4 203.6 196.1 189.2 183 177.2 172.7 168.6 166.2 164.2 159.7 156.9 154.8 152 151.4 149.6 147 146.7 144.2 139 140.7 143.7 143.7 149.3 150.3 155.4 156.3 157.2 160.8 162.5 169.5 170.2 175.5 181 184 186.6 188.8 189.6 189.9 191.2 192 192.6 194 196.3 198.7 198 198.2
140.3 141.1 139.9 138.7 136.2 133.6 131.5 129.2 128.5 126.1 129.5 127.6 126.7 126.5 126 127.1 127.1 127.2 127.8 126.2 124 121.1 116.9 108.6 110.4 111 115.4 119.6 123.4 126.6 128 130.7 134.3 136.5 138.8 143 149.8 155.7 159.1 161.3 162.3 162.9 162.8 162.7 163.5 164.7 167.5 170.7 169.5 168.7 173 174.4 175.4 176 176.3 175.5 175.3 177.2 181 183.8 186.3 187.1 187.1 186.2 185.2 183.4 182.2 179 179.2 177.6 175.8 175.8 175 173.9 171.3 168.7 165 160.9 157.7 155.4 152 148.8 146.1 139.3 131.8 116.7 127 141.4 144.5 146.7 147.9 147.1 144.8 141.9 139.5 137.1 134.9 132.8 135.3 137.4 141.2 143.8 144.2 144.2 143.7 141.4 143.3 150.3 157.1 161.1 164.6 167.8 169.7 171.9 174.6 175.3 175.4 176.9 182.8 187.7 193.1 197.4 201.1 204.3 207 212.3 221.9 225.3 225.6 226.6 229.7 231.8 234.5 238.7 241.2 242.9 244.2 251 259.9 265.4 269 267.3 261.4 254.9 249.8 245 240.1 234.7 230.7 226.7 224.2 221.4 217.4 213.2 207.4 200.8 194.7 188.4 179.9 174.9 171.6 167.7 164.5 162.5 159.5 156 154.4 152.6 151.5 146.3 145.9 144.3 141.1 140.3 142.6 144.8 150.7 153.5 157.4 156.8 160 162.6 164.6 166.6 169 173.5 178.8 181.6 183.3 184.2 187.1 188.6 192.6 194.9 196.2 198.7 200.8 201.7 202.4 203.4
140.7 141 139.6 138.1 136.1 133.3 130.7 129.4 126.8 130.5 133.3 135.4 132.5 132.5 131.3 131.9 130.6 130.5 130.2 128.4 124.9 121 114.7 108.7 110.8 113.9 120.6 124.8 126.6 129.7 132.3 132.7 134 137.1 139.4 143.7 149.6 155.2 157.8 160.2 162.5 162.6 164 164.6 165.9 167.8 171 173.4 173.7 172.7 173.5 175 176 178.2 177.7 176.6 176.7 178.9 181.9 184.6 185.6 186.7 186.7 185.8 184.5 182.5 180.4 180.7 179.6 178.6 176.6 175.2 175.5 172.9 170.5 166.3 162.7 159.4 155.8 152.6 149.5 147.2 143.4 138.3 129.9 117.5 126.9 142.2 145.9 148.4 150.1 148.6 146 142.9 139.8 137.4 134.7 134.7 136.1 139.1 143.3 145.3 145.3 145.3 145.3 141.9 146.2 152.4 159.7 163.9 167.7 170.6 173.4 175.6 177.3 178.9 180.4 181.5 179.6 188.8 193.5 197 200.4 204.4 207 213.9 221.3 225.5 226.8 227.7 230.3 231.4 234.5 237 240.9 243.1 246.8 255.1 262.5 270 275.1 275.5 269.4 260 255.1 249.6 244.6 238.6 234.4 230.1 226 222 217.8 214.5 210.6 204.9 198.8 193.2 183 179.6 174 171.4 167.3 164.2 160.9 158.5 155.5 152.4 150.6 146.9 143.7 143.6 140.3 139.5 142 147.2 151.8 154.5 158.1 157.7 161.2 165.2 169.5 173.4 170 173.9 175.9 178.8 181 184.8 187.3 190.7 193.4 197.8 200.1 202 204.3 204.7 205.1 206.2
140.5 140.3 138.4 136.9 135.8 132.6 129.9 128.6 129.5 131.3 133.8 136.3 138.3 138 137.4 137.1 136.3 134.4 131.8 128 124.1 119.8 107.7 109.2 110.8 119.6 127.2 126.7 130 133.2 135.1 136.7 134 135.5 139.5 143.2 147 152.6 156.1 158.2 160.2 162 163.8 165.5 168.1 172.1 174.9 176.5 175.2 174 174.1 175.6 177.3 178.3 178.6 176.8 177.5 180.1 182.4 183.3 184 185.1 185.4 184.7 183.4 181 180.3 180.9 179.6 178.3 176.7 175.6 173.7 172.1 169.2 165.4 161.5 156.8 154.1 151.2 148.9 146.6 142.4 133.6 128.8 123.6 123.6 133.6 145.5 148 150.2 148.5 147 144 140.9 137.4 136.6 135.4 138.2 141.2 146.5 147.7 147.7 147.7 147.7 144.2 149.1 155.4 162.3 166.4 171.2 174.1 176.3 178.7 180.5 183.5 184.9 186.3 188.2 189 193 196.6 200.1 204.7 209.5 216.1 223.6 226.3 227.1 228.6 230.3 232 234.3 238.6 241.1 243.7 248.3 258.6 265.6 271.7 274.7 273.3 270.1 263.5 258 251.9 247 241.9 236.6 229.7 225 220.6 217.7 212.7 210.7 206 201.2 194.6 188.6 181.4 177.5 171.8 170 165.2 162.3 158.6 154.3 152.7 147.9 144.9 142.5 140.5 138.8 139.4 142.4 150 153.5 156.3 158 158.3 165.2 169.9 174.3 172.6 173 172.3 176.1 178.2 180.5 185.6 189.2 194.2 197.5 199.4 202 203.8 204.9 205.1 207.3 207.8
139.7 139.2 137.5 135.6 134.6 132.2 130 130.9 130.5 132.5 134.9 137.1 139.1 138.9 138.3 138.5 137.3 136.9 132.2 127.6 122.5 112.3 106.3 111 119 127.7 126.7 130.1 133.1 136.3 138.1 138.9 137.4 135 138.8 142.4 145.6 151 156.4 158.6 160.5 162.3 164.3 166.4 169.4 173.4 177.4 177.3 176.2 175.1 174.1 175.7 176.9 178 178.7 177.5 177.6 179.8 181.8 182.7 182.3 183 183.5 182.4 182.3 181.5 180.6 179.7 179.5 176.8 176.2 174.7 172.3 171.1 167.6 164.2 159.8 155.4 152.2 149.3 147.1 144.3 140.9 136.9 132.5 123.6 123.6 124 138.2 143.2 148.9 148.4 147.6 145.3 142.1 139.2 138.7 138.9 138.8 141.9 147.9 149.7 150 150.5 150.2 146.5 154 157.9 164.6 169.6 174.5 176.8 178.9 181.3 183.8 187 188.6 190.8 192.3 193.3 196 199 201.3 205.6 212.3 217 223.3 226.3 227 228.9 230.7 232 234.3 237.7 241.2 244.4 252 261.6 270.2 273.1 272.4 269.5 265.8 262.7 257.1 252.5 246.4 240 233.8 228.8 224.4 218.2 214.4 210.5 206.5 204.1 199.4 194.8 188.8 183 177.4 174.3 169.9 166.3 161.8 157.6 149.2 144.7 146.5 145.6 142.2 140.1 138.7 139 146.1 151.1 154.4 157.4 159.2 159 167.4 169.5 170.1 171.3 172.8 174.1 175.7 178.6 182.2 188.2 192 195.5 198.9 200.3 202.9 205 206.1 206.1 206.1 210.3
138.7 138.1 136.6 134.8 134.2 132.9 132.2 132.4 131.8 133.7 135.7 137.3 138.9 139.5 138.9 138.1 138 138 131.8 124.7 116.9 105.8 110.2 118.8 123.3 126.7 130.1 133.1 136 139.1 142.5 141.8 139.1 137.4 138 141.3 144.3 149 154.6 159 160.7 162.7 165.5 167.4 170.7 174.7 177.8 178.3 177.4 176.4 175.9 175.7 176.7 177.7 178.7 178.1 178 179.8 181.5 181.9 181.5 181.1 180.5 180.3 180.4 180.3 179.9 178.9 177.7 174.8 173.4 172.7 170.9 169 165.9 162.8 158.5 154.1 150.4 147.9 145 142 137.1 141.5 135.6 123.6 123.6 123.6 129.9 133.6 138 148.2 148 146.3 143.5 141.6 139.7 141.3 143.5 143.6 143.7 146.9 149.5 151.4 152.7 152.4 154.2 159.8 166.1 172 176.8 179.4 181.5 183.8 186.6 190.3 193 194.3 195.5 196.8 198.3 200.4 203.5 209.3 216 223.1 224.5 225.9 226.9 229.2 231 232.2 234.5 237.5 242.3 247.4 256.7 265.1 270.7 270.3 268 266.5 264.1 260.5 254.1 248.1 242.6 237.1 232.1 228.1 222.1 216.1 210.8 207.6 203.7 199.1 196.3 193.2 188.6 183.7 179.7 175.1 170.3 164.5 152.2 149.2 149.2 149.8 150.5 147.3 145 139.8 139.7 141.9 147 151.6 154.7 158.4 161.2 159.4 166.3 165.8 167.8 169.2 171.2 173 175.3 179 184 188.9 193.1 196.3 200 200.5 205.3 205.8 206.9 207.3 210 210.8
138.2 137.1 136.7 137.5 136 134.8 134.4 133.5 133.1 135.2 135.9 136.8 138.4 139.6 139.5 138.7 134.2 132.9 126.7 122.1 108.3 110.2 114.4 121.8 126 129.2 133 136.1 139 141.9 143.1 143.4 141 139.5 138.2 139.8 142.9 147.8 153.5 158 161.2 164.1 166.1 168 171.5 175.6 178.1 179 178.9 177.8 177.5 177 176.6 177.7 178.9 178.7 178.5 180.1 181 181.8 180.6 179.4 179 178.8 178.8 178.7 178.5 178.2 174 172.9 171.2 169.9 169.3 165.8 163.6 160 156.1 152.6 149 145.9 143.8 140.3 143.1 143.3 138.3 127.1 123.6 123.6 123.6 132.1 134.4 144.6 149.1 146.5 145.3 143.3 141.3 142.9 145.9 148.1 148.4 146.2 148.1 150.7 154.4 156.3 152.7 160.6 167.1 173.6 177.5 180.4 183 185.8 189 192.2 194.7 195.3 197.3 199.2 201.2 203.2 207.2 213.1 221.1 224.9 226 226.9 227.3 228.7 230.3 232.5 234.8 237.6 243.1 250.3 259.6 266.9 271.5 270.5 268.4 265.7 262.3 256.9 251.2 244.8 240.1 235.4 230.7 226.3 219.8 213.6 208.8 206.3 202.2 198.4 194.4 190.7 186.2 182.1 177.9 173.6 159.5 149.2 149.2 151.4 152.2 152.8 152.4 149.8 146.5 141.3 139.8 141.5 146.1 150.8 154.7 158.6 162 161.7 165.3 165.8 167.9 168.2 169.9 171.4 174.5 180.3 184.4 188.6 192.8 195.8 198.7 201.2 205.6 206.6 207.7 208.8 210.4 211.5
139.4 138.2 137 137.6 136.2 134.5 134.4 134.7 134.7 136.7 136.2 136.4 138.1 139.6 140.7 138.5 130.3 125.8 122.2 109 105.3 111 119.6 123 129.4 130.8 136.7 139.3 141.2 141.7 141.9 142.6 142.7 140.8 139.4 140.6 144.5 148.3 152.7 157.5 161.5 164.6 166.4 168.2 171 176 178.3 179.1 179.2 178.9 178.3 178.7 179.1 178.8 179.7 179.7 179.3 180.1 181 181.4 180.7 179.5 179.9 180 179.3 178.1 177.2 175.4 173.8 172.1 170.8 169.3 167.3 163.2 158.8 157.6 152.9 150.5 147 145 143.7 146.1 145.9 145.4 139.7 131 126 123.6 123.6 128.2 135.2 145.2 148.5 147.9 146.6 145.2 144 145 146.1 148.7 150.2 149.4 149.2 151.6 155.7 158.7 161.5 157.1 166.1 174.2 177.9 180.5 183.2 186.4 190.2 192.8 194.7 195.7 197.7 199.7 202.1 205.2 211.7 220.3 225.9 226.3 226.6 226.9 227.3 228.6 231 232.9 235.1 238.3 243.5 253 262.4 269.3 272.6 274.6 272.3 265.1 259.9 253.9 247.9 242.4 237.7 233.5 229.8 224.7 217.9 211.2 206.7 204 201 196.7 192.9 190.2 185.6 181 176.3 161.7 151.8 154.8 160.6 159 157.8 155.3 153.7 151.7 148.2 143.2 139.1 141 144.4 149.6 153.1 157.3 160.4 162.4 165 165.4 165.5 166.4 167.9 169.5 172.3 178.5 184 188 194.2 196.6 197.8 201.3 203 204.6 206.2 207.9 210.8 211.8
140.3 140.1 137.5 137.1 132.4 130.2 128.9 135 136.6 137 136.9 135.8 136.5 138.6 142.9 141.6 131.2 123 108.4 104.9 108.9 117.8 120.3 120.9 124.1 131 136.9 137.4 140.4 140.6 140.9 141.6 141.9 142.1 142.3 142.2 146 149.7 153.4 157.4 161.5 164.7 166.6 168.5 171.1 175.4 178.6 179 179.2 180.4 181.1 181.5 181.9 181.6 181.2 181.6 182.3 181.1 181.6 181.1 180.8 180 181.5 181.6 180.8 179.4 178.1 176.3 174.2 172.2 170.6 166.6 164.9 163.4 160.7 157.4 152.5 149 145.3 144.2 146.7 148.3 149 149.2 143.1 135.4 129.1 125.4 123.6 132.2 135.3 145.5 147.8 148 147.5 146.9 147.3 148.4 149.3 148.3 148.8 150.3 151.4 153.8 157.6 161.4 164.5 167.6 167.5 172.6 177.7 180.4 183.8 187.6 190.3 192.6 194.2 196.3 198.3 200.9 203.5 207 214.5 222.8 227.1 227.6 227.1 227 228.3 230.8 232.4 234.7 237.6 241.3 244.6 250.9 261.5 270.4 276.3 278.1 272.8 267 258.8 251.4 246.6 241.5 236.8 232.7 227.4 221.8 215.9 207.5 203.2 200.5 198.9 195.6 193.7 190.8 185.8 174.8 164.8 153.3 156.4 166.8 166.6 163.3 158.7 156.6 153.7 152.2 149.9 144 139.7 139.7 141.7 145.1 151.8 156.4 159.6 161.6 161.9 165.5 165.3 165.2 165.8 168.2 171.9 176.2 183 188.5 195 196.6 197.7 199.3 200.5 203 205.6 207.3 209.9 211.8
140.2 138.9 137.2 136 132.8 129.8 127.4 131.7 134.6 136.9 137 135.6 137.3 139.2 140.6 135.2 125.6 113.5 104.2 105.9 113.3 121.6 124.6 126.6 128 128.1 132.3 135.2 138.7 139.6 140.9 141.2 142.1 143.6 145.7 146.4 146.2 151.1 153.7 157.8 161.7 164.6 166.8 168.8 171.5 175.2 178.7 178.9 180.9 182 183.2 183.8 184.4 184.2 182.8 184.7 184.7 183.6 182.4 181.7 182 181.9 182.4 180.9 180.7 180.1 177.3 176.7 175 173.3 171.2 169.3 167.4 165.2 162.5 159.1 155.9 150.5 147 145.3 147.8 151.2 152.4 152.4 151.6 138.7 134.5 127.7 123.6 128.2 135.7 144.9 148 148.7 149.7 150.7 151.8 152 151.8 151.2 151.2 151.8 153.4 156 159.3 163.1 167.5 171.1 173.9 170.4 171.9 178.4 182.7 185.8 188.6 190.9 193.5 195.9 197.8 201 205 210 215.4 224.5 228.3 228.8 229.3 229.7 232 234.2 236.4 239 240.4 243.7 246.1 249.6 257.9 270.5 278 277.2 269.8 261.5 255.8 248.5 243.2 237.9 234.8 228.9 222.9 218.2 210.5 202.9 199.4 196.6 195.2 192.6 189.4 179.9 171 159.8 154.6 162.9 171.5 173.5 169.4 164.2 160.9 157.2 155 152.2 147.9 143.6 141.2 139.7 140.3 145.1 149.9 153.1 155.8 158.7 161.7 165.1 166.1 166.4 165.2 167.5 171.3 175.3 180.3 188.1 194 195.1 195.9 197.1 199.3 202.3 205.9 207.2 208.8 210.6
136.8 134.4 134.5 132.6 130.5 126.9 125.8 126.7 131.1 135.7 136.5 134.2 136.1 136.8 138.2 132.7 119.4 105.1 104.6 111 119.3 123.5 127.1 129.6 131.8 133.8 134.1 137.3 137.2 141.2 142.8 144.1 145.6 147.4 149.2 148.9 149.3 149.7 154.2 158.2 160.1 163.3 165.8 168.3 173.1 176.5 179.5 181.1 182.2 183.5 184.7 185.8 185.9 184.7 184.4 186.4 187.3 187.6 186.4 185.3 183.7 183.4 181.3 180.9 180.9 179.7 178.2 177.4 176 174.4 172.6 170.9 168.9 166.7 164.2 159.9 155.6 150.8 147 147.2 150.3 154 156 156.2 154.8 146.4 137 129.8 123.6 128.5 136 144.6 149.8 151.4 153.1 154.7 155.1 154.9 153.9 153 152.7 153.1 155.3 158.5 160.7 165 170 173.2 176.1 178.6 180.6 176.9 180.2 183.8 186.7 188.2 191.4 194.5 197.6 201.4 205.6 213.7 218.3 225.1 231.8 232.5 232.9 235.6 236.5 238.4 240.7 242.3 243.7 246 247.4 250.7 257.9 270.1 278.7 273.5 263.7 252.7 245 240 238 233.8 228.2 222.6 216.7 209.9 204.4 199.3 196 191 188.2 185.3 175.7 166.3 156.6 164.3 173.5 182.3 181.8 177.8 170.5 165.2 161.4 158.3 155.9 154.1 150 148.1 142.3 140.2 140.2 141.7 145.8 151.7 153.6 156.7 160.8 159.3 160.2 163.8 165.5 167.6 170.2 174.5 178.8 186.5 191.3 193 194.6 195.2 196.8 199.4 202.4 204.9 207.7 210
133.6 131.2 130.9 129 127.3 125.4 124.5 123 127.4 132.7 134.5 134 129.5 128.7 130.6 124.6 109.3 104.8 109 117.8 123.4 126.7 129.5 131.6 133.7 137.4 140.7 137.3 137.3 141.4 144.3 147.3 148.9 149.5 151 151.7 152.6 151.4 152.8 155.4 157.9 161.9 163.5 168.2 173 177.3 180.3 182.3 183.2 184.5 185.6 186 185.9 185.3 184.9 186 188 188.5 188.6 188.1 185.8 185.2 182.8 182.6 182.5 181.5 178.5 177.7 176.5 175.1 173.6 171.9 170.2 168 165.2 162.1 157.6 152.7 147.6 149 153.2 156.5 158.7 158 156.6 154.1 143.5 136.2 128.4 124.3 129.5 138.1 151 152.7 154 155.5 156.5 156.1 154.9 153.5 153.7 155.4 157 160.3 164.1 165.9 171.5 175.5 178.5 180.7 182.8 184.3 184 187.7 189.2 193.3 196.5 197.8 197.7 203.2 210.3 214.2 222.7 230.5 235 236.3 239 241.8 242.6 244.8 246 247.3 248.2 248.5 250.2 254.2 259.6 269.4 276.4 266.8 255.6 246.4 239.5 235.2 233.2 229.7 224.8 219 212.3 206.1 201.3 196.5 191.9 185.8 175.3 168.2 161.6 159.9 168.8 180.7 186.6 186.6 183.9 178.1 173.4 167.1 163.1 160.5 157.1 156.1 155 152.2 143.6 141 140.3 142.1 149 152.4 154.1 156.5 156.7 162.6 160.3 163.5 165.9 167.9 169.6 173.5 177.7 183.5 185.8 189.3 193.3 195.1 196.6 198.3 201.1 203.7 205.6 208.7
132.6 130.2 127.7 126.9 124.2 122.2 120.1 121.5 124.2 128.8 132.9 135.4 132.6 124.1 123.7 116.2 104.8 104.8 114.2 123.8 126.8 129.3 131.7 134.1 136.4 141.2 142 141.8 139.9 142.7 146.4 149.6 152 152.8 153.8 153.7 153.4 152.6 153.3 156 160 160 163.4 167.1 172 176.4 182 183.5 184.3 185.4 185.8 186.1 185.9 185.7 185.4 186.1 188.1 188.9 189.4 189.6 189.3 186.5 184.1 184.7 184.8 182.2 179.1 178 177 175.3 173.3 171.8 170.2 168.4 165.9 161.9 158.2 154.3 151 151.3 155.1 157.9 158.8 159.8 158.1 156.2 151.4 139.1 130.9 133 133 129.3 146.5 152.1 153.2 155.5 156.3 156.2 155 154.2 155.2 157.4 159.4 162.2 167 169 172 176.6 180.1 182.1 184.1 186.3 188 190.8 196 200 201.1 202.8 212.3 219.9 221.2 222.2 225.8 230 234.6 239.3 243.1 244 246.3 247.7 248.6 249.6 250.3 252.1 254.2 256.4 259.6 263.7 268.4 259.6 249.5 243.7 239.4 235.6 228.5 224.6 219.7 216.7 212.2 204.7 199.7 193.1 182.8 173.4 162.8 162.4 174.8 181.4 188.7 188.3 189.3 187.4 185.9 181.5 174.6 170.4 165.7 162.5 158.9 156.9 155.5 152.9 146.3 141.2 141.5 141.9 147 152.5 155.2 157.7 158.6 164.2 161.2 162.3 165.6 167.8 170.6 173.1 176.2 181.6 184.7 186.9 189.7 192.8 194 195.9 198.4 202.3 203.6 206.4
131.7 129.8 127.5 126 123.4 120.6 114.5 116.9 122.8 127.5 135.9 133.4 126.8 124.2 108.8 103.9 104.8 112 124.5 127.6 129.1 130.3 133.7 136.5 139 141.2 142.8 142.2 142.2 145.2 146.3 149.4 152.6 153.7 154.1 155.2 155 154.6 160.6 160 160 164.1 168.3 166.6 172.3 177.3 183.6 185.7 185.7 186.2 186.6 187 186.8 186.5 186 186 187.3 188 188.1 187 187.2 185.5 184.8 185.4 185.1 182.2 179.9 178.3 177 174.7 173.1 171.4 169.6 167.8 165.9 162.1 158.1 154.2 154.2 153.8 155.5 158.4 159.9 159.1 158.8 156.3 151.8 139.6 145.8 145.5 143 137.8 135.9 149.3 150.9 152.2 153.7 155.3 154.1 155 156.8 159.3 162.4 165.5 170.3 172.9 175.3 177.7 181.2 183.5 185.5 188.4 191.1 197.3 202.9 205 205.4 209.5 220.1 226.3 228.6 228.1 227.6 230.4 236.2 243.1 245.5 246.6 247.1 248.6 249.6 250.2 250.5 252.1 254.6 256.3 257.4 259.6 259.7 254.8 249.4 247.1 244.4 238.3 232.5 223.6 217.9 215 210.9 208.6 200.3 196.5 182.5 170.1 172 187.7 195.5 193.9 193.2 193.1 191.8 189.5 184.6 180.5 176.1 171.5 169.1 163.8 161.4 158.6 156.9 155.1 152.6 141.3 140.6 141.5 143.5 150.6 155.6 157.9 160 160.9 164.7 164.7 164.5 166 168.2 173.7 176.4 179.7 182.2 185.6 188.1 190.5 192.5 194.5 197.1 200.3 201.5 204.9
130.4 128.6 126.7 124.1 120.9 117.1 113.4 116.4 122.9 126.7 127.2 121.4 108.7 103.4 103.2 104.4 111.4 123.9 127.2 128.3 129.9 132.3 135.2 138 140.6 142.8 144.7 145.6 145.8 145.8 145.8 147.9 150.4 152.2 154.3 155.9 157 159 160 160 162.2 168.3 168.3 169.4 173.5 178.8 183.1 186.3 188.1 188.8 188.7 189.6 189 188.7 187.9 189.6 189.7 189.9 189.3 189.6 188.4 186.7 186.7 185.5 183.8 182.4 181.3 178.8 177.3 175.3 172.9 170.8 168.9 167 165.1 161.9 158 154.1 152.9 157.6 158.2 158.5 159.5 159.1 158.3 155.5 145.9 151.9 153.3 152.5 149.8 142.4 130.4 146.6 149.4 150.9 152.1 153.8 154.1 156.8 159.7 163.3 166.3 169.7 174 176.7 178.4 180.3 182.7 186.1 189 192 199.4 205.2 208.6 209.3 210.5 219 228 232.5 232.6 231.8 229.4 232.7 237.6 241.2 245.8 246.7 247.2 249.1 250.6 250.9 251.5 253.7 255.1 255.6 254.4 253.9 254.9 253.2 252.6 248.1 241.2 235 228.6 220.6 216.2 214.7 211.5 212.6 206.1 199.5 180.2 165.8 186.2 198.6 200 199.3 198.1 195.5 193.1 189.5 185.8 182 178.4 175.3 172.1 169.3 164.8 160.8 158 156.2 154.4 148.2 143.1 142.6 142.2 145.6 151.6 155.2 156.1 160.3 164.9 164.8 165.2 167.1 166.4 174.2 176.3 178.3 179.8 182.1 186.5 187.6 190 192.3 194.8 197.1 199.5 202.7
128 126.9 125.3 123 120.1 116.4 108.6 113.6 121.1 118.8 111.7 102.4 103.1 105.3 107.5 111.8 123.5 127.2 128.7 129.8 131.7 134 135.4 138.7 142 143.7 145.7 146.7 146.8 146.7 146.4 147.1 150.1 151.8 154.2 156.5 157.6 158.4 160.6 160 168.3 168.3 168.3 171.6 174.9 179.1 183.7 190.4 195 195.8 192.9 195.8 196.1 193.5 192.8 193.3 193 193 193 192.8 192.3 192.6 189.5 188.1 186.8 185.3 182.2 179.9 178.2 175.4 173.1 170.8 168.3 166.1 164.2 161.7 157.8 155.1 153.4 158.5 159.7 159.3 158.8 158.3 156.7 149.7 151 155.3 155.5 154.2 152.1 145.2 130.9 138.9 147.3 149.3 149.9 152.2 155 157.2 161.9 166.4 170.2 174.2 177.4 179.2 179.8 182.4 186.2 190.9 195 198.9 205.6 211.4 212.9 214.3 217.3 227.3 236.1 237.2 235 234.3 232.4 234.7 238.5 242 244.3 246 247.8 249.5 251 251.9 252.9 254.3 254.7 253.7 252.9 252.2 252.9 251.8 249.2 246 239.7 231.4 224.8 218 215.7 213.7 214.5 213.4 208.9 197.2 170.6 170 192.8 201.7 203.8 204.2 201.7 198.6 195.3 191.7 189.9 185.9 183.1 181.2 177.6 174.9 169.3 164.8 160.5 157.9 155.9 151.8 145.8 143 142.8 142.6 144.2 149.2 155.2 157.8 160.5 166.5 168.1 169 172.6 174.1 176.1 178.4 179.6 180.8 182.4 185.3 186.9 189.7 193.3 195.3 197.9 200
124.7 124.5 122.7 120.2 118 113.5 107.6 109.1 110.7 103.1 101.4 102.1 105.6 108.8 111.9 113.5 114.7 126.5 128.7 130 132.7 134.4 135.7 138.7 141.5 143.4 145 145.9 146.3 146.7 145.3 147.4 149.4 152.2 154.6 156.3 157.9 159.8 160.7 164.1 166.6 168.3 169.1 172.1 175.2 178.2 184 191.6 197.2 199.5 198.1 202.4 199.3 197.8 197.2 197.1 196.8 197.9 196.9 196.5 196.1 195.2 193.5 190.7 189.4 187.2 182.7 181.2 178.4 175.6 173.4 171 168.2 165.8 163.5 161.4 157.9 154.5 159 160.3 160.9 159.5 158.5 157.1 155.6 149.9 156.3 157.2 156.8 155.7 153.3 147.2 133.2 132 140.4 146.6 150.6 152.1 155 158.5 163.5 167.3 170.9 173.4 177.2 179.3 181.3 184.8 191 195.5 200.2 204.6 212.3 216.7 218.4 219.7 222.6 233 241.2 241.1 239 236.5 235.4 235.9 238.1 240.5 243.1 246.2 246.7 248.6 250.7 251.8 254.4 256.6 257.4 255.3 253.6 251.6 250.8 249.6 246.8 241.8 235.1 228.8 221.8 216.9 216 214.3 214.8 211.3 194.5 179.6 169.4 174.2 189.9 202.1 206.5 208 206.9 204.6 202 196.9 194.8 191.6 189.2 186.8 186.5 183.7 179.8 171.1 165.9 160.8 157 154.7 151.4 143.2 143.7 143.3 143.7 145.2 148.2 155.7 159.4 163.5 167.1 169.4 173.2 175.7 177.1 179.6 179.6 181.7 182.3 183.7 184.2 187.4 191 193.3 196.2 199.6
120.2 119.9 119.9 117.4 114.3 109.2 103.1 101.3 101 100.6 100.7 104 108.9 114 126.1 127.3 120.9 112.5 118 126.6 125.9 124.2 130.8 136.5 139.7 142 143.6 144.1 143.8 142.2 140.7 144.8 148.5 152.2 154.1 156.9 158.6 160.6 162.6 164.7 167 168.3 170 172.4 175.6 178.9 184.8 192 198.5 199.8 200 201.1 201.3 202.2 201.6 201.4 201.8 202.7 202 200.7 198.8 197.3 195.6 193.9 191.8 188.8 186.6 182.8 178.6 176.7 174.1 171.2 168.1 165.8 163.7 161.9 160.8 159.4 162.4 162.1 161.2 159.6 159 157.2 150.8 155.7 157.9 158.8 159.2 158.4 155.8 147.9 136.3 132.1 133.7 140.1 145 151.3 155.5 161.3 163.7 166.7 169.8 172.5 174.1 177 179.2 186.1 193.3 199.4 204.8 209.7 217.7 221.4 223.6 225.1 228.4 237.8 241.1 243.7 242.7 240.2 237.9 238.4 239.4 241.2 243.1 244.3 245.4 247.8 250.5 251.6 253.7 259.2 259.7 258.8 256.5 254.4 250.6 247.4 243.8 238.4 231.6 225.9 219.7 215.8 215.8 215.4 212.9 205.4 183.1 172 174.4 189.6 183.1 199 210.9 211.7 212.3 211.1 209.3 205.8 203 201.2 197.1 196.4 196.7 194.9 189.3 183.1 172.9 165 160.4 156.5 154.9 151.2 144.3 144 144 145 146 148 151.5 155.5 165.2 168.1 169.4 174.8 178.5 181.2 181.1 182.1 182.8 183.2 184.1 183.9 190 192.7 195.4 198.3
116.4 113.6 115.7 114.3 108.8 103.9 100.1 100 99.6 99.5 105.6 111.2 122.3 127.4 128.5 128.4 127.2 116.6 126.1 128.2 127.3 124.7 124 127.2 135.6 138.7 137.1 136.3 136.2 141.2 145.3 145.5 149.2 150.7 153.8 157 160.9 164.2 165 164.7 166.3 168.2 170.4 173.5 176.4 179.9 186.7 193.6 200.2 200.8 201.3 201.9 203.3 205.1 206 206.1 206.9 206.1 205.5 204.4 202.4 199.4 197.7 196 194.6 191.6 188.8 185.7 181.1 177.9 175 170.9 168.7 167 165.4 163.8 153.8 163.7 164.6 163.3 161.4 159.6 159.4 157.7 152 157.9 159.1 160.5 161.2 160.3 158.7 152.2 141.1 135.5 133.1 138 144.9 152.6 158.4 163.1 166 168.6 169.6 171.3 173.9 175.2 179.8 185 193.8 200.4 206.3 214.3 222 224.6 225.3 227.1 230.6 238 240.8 246.5 245.7 242.7 240.2 242.2 243.4 243.8 245.4 246.6 247.1 247.6 250.3 251.4 252.1 256.4 259.7 262 260.7 256.6 251.9 246.6 240.6 230 224.1 219.1 214.8 211.8 213.9 212.4 209.6 192.1 174 177.2 195.5 205.8 185.8 193.1 207.8 214.2 216.1 216 217.1 216.4 214.8 213.8 211.1 208 206.4 205.3 202.7 197.6 185.1 170.4 165 160.2 157.5 156.1 151.4 144 144.3 144.9 144.9 146.2 146.8 149.8 159.2 165.7 168.9 169.6 177 179.9 181.1 182.2 183.2 183.7 183.9 187.3 189.9 192.1 195 196.7
119.7 116.2 110.6 109.7 105.4 98.6 98.7 98.5 99.7 107.4 119.6 126.4 127.7 128.9 130 129.4 125.2 126.4 127.5 133 134.2 134.7 131 133.5 134.7 134.9 138.1 141.7 144.1 146.2 148.1 149.1 149.8 152.4 155 159.3 164.5 168.1 167.5 167.4 168.1 169.2 173.5 175.9 178.4 182.5 189.3 195.4 200 202.8 203.3 204 206.5 207.7 208.2 209.1 210.7 210 208.3 206.4 204.1 201.6 200.6 199.2 196.5 193.3 190.4 187.1 183.7 179.3 175.4 172.5 170.6 169 167.2 161.9 164.3 164.5 164 162.4 161.8 160 158.9 158.4 157.9 159 160.1 161.5 161.8 161.2 159.9 157.1 152 141.1 134.9 136.3 143.2 149 157.4 162.3 166.6 170.4 172.5 173.3 174.6 175 176.3 180.5 189.4 197.7 204.5 210 219.9 226 226.4 227 231.4 237 242.4 247.4 247.2 242.8 240.9 243.1 245.1 246.4 247.8 248.2 248.4 248.8 250 251.2 251.9 253.9 257.4 261.1 262.8 256.6 248.2 239.2 230.8 222.8 218.2 212.6 209.5 206.9 204 201.2 187.4 177.5 184 195.5 194.3 210.8 205.1 189.9 203.9 214.4 218.7 220.9 220.8 222 222.4 221.6 218.2 216.8 215.5 214.1 212.3 208.8 197.4 182.6 168.7 163.5 158.7 157.2 155.2 150.4 145.9 145.5 146.3 146.3 146.5 147.8 151.3 162.1 169 169.2 171 178 180.6 183.2 183.2 184.2 185 187.1 190.7 193.5 195.6 196.5
116.5 113.8 112.2 106.3 98.6 97.6 98.3 108.3 117.9 126.3 127.5 128.9 130.1 131.1 131.7 131.9 128.8 129.2 130.1 134 137.8 138.2 138.2 139.9 141.8 141.6 142.3 144.3 145.6 147.8 149.7 150.7 152.3 155.1 154.8 159.7 167.4 171.4 169.9 170.5 171.5 173.7 176.6 178.8 181.6 185.4 191.3 196.5 201.1 204.2 206.1 207.7 209.9 210.4 210.9 211.4 212.1 211.6 210.3 208.4 206.4 204.8 203.6 201.7 199.3 195.2 191.8 188.4 185.1 181.1 177 174.4 172.5 170.6 168.7 157.9 165.3 164.5 163 161.2 160.3 159 158.8 160.2 160.5 161 161.4 162.1 162.1 162 160.3 158.3 155.8 148.5 137.1 135.9 137.3 145.4 152.8 160 164.5 170.2 173.3 174.6 174.7 175.6 176.3 178.2 184.4 189.7 195.6 201.4 209.9 218.8 220.9 221.9 227.1 232.9 237.6 241.4 243.5 242.8 241.5 243.1 244.7 249 249.4 249.6 249.8 250.4 250 250.9 251.5 252.2 254.4 257.1 257.5 252.1 244.3 235 223.4 215.1 210.8 204.1 198.4 188.4 186.1 181.4 178.2 184.5 198.3 209.9 207 215.3 214.7 201.2 195.8 209.8 221.5 223.7 225.6 226.2 225.8 225.7 225.3 216.9 217.7 222.7 221.3 217.1 208.9 193.4 177.4 167.7 163.9 160.1 158.1 154.5 153.2 147.6 146.7 147 147 148 151.1 157.8 169.8 169.7 170.2 172 176.8 181.2 184.2 185 186 188.7 191.1 193.4 196.9 197.4
112.8 111.6 110.3 102.3 97.2 99.7 109.8 124.8 128.3 127.5 128.9 130.9 132.6 133.5 133.9 133.6 133.9 133.8 135.2 135.7 139.1 141.9 139.8 142.8 144.1 145.1 145.1 145.8 147.8 149.5 151.5 155.5 157.1 155.6 160.6 157.4 164.7 169 169.6 171.9 173.4 175.5 177.4 179.9 183.7 187.9 194.6 199.1 203.6 206.9 208.4 212 211.7 212.1 212.5 212.7 212.9 212.6 212.3 211.4 209.3 206.7 205 203.6 200 196 192.4 189 185.5 182.2 178.6 175.7 172.8 171 157.5 166.7 164.3 162.2 160.7 160 160.3 159.9 161 162.3 163.1 163.5 163.8 163.6 163 162.1 160 158.4 156.6 151.2 140.1 145.8 138.2 141.8 145.5 153.6 161.1 167.4 172.1 174.4 175.1 175.5 175.9 177.7 180.2 184.1 189.2 195 200.6 206.9 212.2 215.7 221.8 224.9 229.8 235.6 238.8 242.5 241.9 242.2 244 249 251.4 251.4 251.3 251.8 251.9 250.8 251.1 251.8 252.9 255.6 254 248.7 240.5 227.7 215.7 209.5 204 196.3 185.6 186.2 184.4 183.5 186.4 199.4 207.7 214.4 218.3 219.5 217.9 209.5 198.2 211.1 222.9 226.9 230.4 232 233.6 235.1 234.2 234.2 234.4 233.6 228.9 223.4 218.2 205.1 186.7 175.4 168.5 164.6 161 159.6 156.9 153.9 149.5 148.3 148.2 148.8 148.7 154.1 157.3 162 169.9 170.4 172.9 175.6 181.6 186 187.4 189 193.1 195 197.8 199.2
117.3 115.8 109.7 96.9 98.2 105.9 116.8 126.7 127.2 128.3 131.2 133.1 134.4 135.7 136.2 136.6 137.3 137.6 140.1 141.1 141.7 143.5 143.3 145.9 146.8 146.6 146.7 147.3 150 152.5 156.2 159.1 161.1 161.3 162.3 164.5 160.2 166.5 169 172 174.2 176.5 178.3 181.6 185.4 190.3 197 201.2 206.6 209.1 209.6 213.5 213.2 212.8 213 213.3 213.6 213.3 213.5 213.1 211.6 208.4 207 204 200.6 197.4 192.6 189.1 185.4 182.4 178.9 175.2 172.5 164.1 168.1 165.4 161.8 160.3 161.3 161.6 163.6 164.4 163.6 164.9 164.8 165.7 166.1 165.8 165.2 163.6 161.2 158.9 157.3 144.3 147.9 151.9 153.5 146.2 143.8 145.1 156.9 167.2 166.6 169.6 174.7 175.1 175.5 177 179.5 182.1 186.3 191 195.8 200.5 205.1 210 215.4 221 225.1 229.8 235.2 239.5 241.3 241.4 242.6 246.2 250.9 253.3 254.1 254.4 253.5 251.9 251.5 251.6 252.4 252.8 250.8 244.5 231.9 218.9 212.6 204.2 192.8 193.5 195.7 199.7 204 199.9 205.3 208.8 215.6 220.3 223.8 224.2 222.1 216.3 210.2 216.7 225.5 232.5 235.7 244.2 245.2 248.5 249.5 250 250.7 248.8 248.3 238.6 224.7 212.4 197.1 184 174.5 170.2 165.6 162.7 159.8 156.6 154.2 150.4 150.4 150.7 150.2 150 158 164.8 166.7 171.3 170.4 175.1 179.3 182.4 186 188.9 192.4 194.9 196.8 198.7
121.1 118 106.3 97.1 102.7 110.2 118.7 124.9 128.8 131.3 133.7 134.5 135.5 137 138.4 138.8 139.3 141.2 143.5 143.7 145.3 146.9 147.2 147.6 148.3 148.1 148.9 149 152.1 157.3 160.2 162.2 164.1 164.7 161.9 166.1 163.9 165.9 169.5 171.9 174.2 176.6 179.4 183.2 187 191.8 197.7 203.2 209.5 210.1 210.6 212.2 212.7 213.4 213.6 214 214.1 214.1 214.3 214 212.3 209.3 206.4 203.2 199.8 196.4 192.5 188.6 184.7 180.8 178.3 174.8 167.3 165.4 166.2 161.8 161.1 164.1 163.4 164 165 166.3 166.5 166.2 167.4 167.4 167.4 167.9 167.4 165.7 162.7 160.4 159.9 159.4 160.9 158.7 158.1 159.2 153.4 143.8 147.6 165 164.7 164.7 173.1 174.7 175 176.2 178.6 181.1 183.9 187.7 191.9 195.5 200.4 205.4 210.4 217.1 223.7 228.9 232.8 236.2 238.6 240.3 240.8 242.3 246.5 252 255.3 256.4 255.1 253.5 253 253 252.5 249.5 241.2 229.7 221.3 215.4 209.8 201.8 195.2 205.3 205.4 214.3 211.1 208.7 212.1 216.2 222.6 226.1 228.9 228.8 226.5 223.1 218.9 222 230.6 239 246.4 249.9 256.2 260.7 262.4 263.5 264.8 264.2 259.6 252.5 237.6 221.3 207.4 196.1 184.8 173.1 169 165.8 163 161.5 157.9 152.1 151.9 151.7 150.4 150.6 156.3 163.7 165.9 168.7 170.9 172.9 175.9 180.3 184 187.8 190.9 193.5 195.4 197.2
121.4 118.2 98.1 98 106.3 116.4 125.1 128.3 130.1 132.9 134.5 135.4 136.7 138.5 140.3 141.9 143.2 142.4 145.5 147.1 147.4 148.8 148.6 148.7 149.8 149.4 150.7 152.6 156.7 160.3 162.2 164.7 166.2 166.6 163.7 166.6 167.6 165.4 170.3 173.4 176 178.6 181.2 184.5 188.3 193.1 199.2 206.2 211.8 211.9 212.1 213 214.5 214.9 215.7 215.4 214.1 213.5 213.9 213.3 211.1 206.8 204.1 201 198.4 194.7 191 185.5 181.7 178.4 175.7 172.5 164.4 166.3 163 162 164.9 166 165.5 165.5 167.1 168 167.9 169.4 170 170.8 170.5 169.7 166.3 165.2 165.3 167.6 166 165.2 165.2 167.2 164.6 164.4 161.3 148.8 148.1 168.2 164.7 164.7 164.7 166.1 172.5 174.2 176 177.8 181.2 184.4 188 191.4 194.9 200.8 206 213.1 220.8 227.1 230.9 232.7 235.3 237.2 239.2 241 242.6 246.2 250.3 251.9 255 256.2 256.2 255.6 251.5 240.5 230 223.4 217.5 213.6 208.2 198.6 201.5 206.1 211.7 213.5 215.9 218.6 221 224.6 227 230.6 232.3 233.2 232.3 230.1 228.8 224.8 236.8 244.5 253.1 259.1 265.1 268.3 270.9 270.8 271.8 271.8 269 260.9 247.9 230.8 215.1 203.8 194.5 184.1 174 170 167.9 163.9 160.9 157.9 156.4 152.5 150.4 152.3 157.3 162.7 165.6 167.9 172.2 171.9 172.1 176.1 181.9 185.9 189.2 192.1 194 196.1
119.8 111.5 95.3 98.3 109.9 121.4 126.4 129.6 131.5 132.3 133.7 136 138.6 140.7 142.8 144.6 145.9 146.2 147 149.3 150.2 150.4 150.4 149.1 151 152.1 153.9 156.3 161.1 163.5 165.8 167 168 168.4 168.5 168.9 169.9 169 169.6 174.3 177.6 179.9 182.2 184.2 188.2 194 200.5 209.5 214.1 214.7 215.1 215.1 215.7 215.3 214.5 213.9 211.9 212.1 210.2 207.5 206.1 203.5 201.1 198 193.8 191.9 188.3 183.5 179.7 175.4 172.6 163.7 165.8 164.1 163 165.6 165.3 166.9 167 168 169.9 171.3 172.2 172.5 172.9 173.4 173.4 172.8 171.5 168.5 165.2 165.2 165.2 165.2 165.2 165.2 167.4 165.2 166.4 166.5 161 166.9 164.7 164.7 164.7 164.7 166 167.4 165.8 167 174.7 179 183 186.9 190.3 192.9 198.2 207.6 215.2 221.6 226.9 229.6 232.2 234.9 237.6 239.7 240.2 241.3 242.5 243.8 245.2 248.6 252.1 250.9 244 234.8 226.1 219.3 215.5 215.5 216.3 210.7 207 210 214.3 218.9 222.2 225.3 227 228.3 231.3 237.7 241 243.8 242.5 240.9 238.4 239.9 246.4 253.5 261 260.3 264.1 271.7 273.1 273 271.9 272 271.7 268.1 256.7 240.7 224.5 210.7 203.6 194.5 183.4 175.6 172 166.2 162.9 160.5 157.9 153.7 152.8 153.6 156.1 161.9 166.8 169.1 171.5 174.5 177.1 178 179.5 183.4 185.9 189.9 191.8 194.5
117.9 103.6 95.8 105.4 110.6 112.3 123.8 128 129.6 132.4 134.6 136.9 139.4 142.3 144.5 146.4 148.1 149.2 148.5 149.4 151.5 152.2 152.5 151.1 151.3 153.7 157.1 160.1 164 166 166.8 168.8 169.8 171 170.8 171.6 172.2 171.9 171.9 173.5 178.2 180.7 182.7 184.6 187.7 192.8 200.7 211 216.2 216.8 217 216.8 215.9 214.3 212.8 211.1 209.2 205.9 202.9 200.7 199.2 198.1 196.8 193.8 190 188.1 185.1 180.4 175.2 172.9 165.5 165.2 162.9 163.7 166.7 170.5 170.5 168 168.6 170.6 172.5 174.4 175.3 175.6 175.8 176.1 176.2 175.9 174.8 172.3 169.8 165.2 165.2 165.2 165.2 165.1 167 168.4 169.3 167.3 165.2 165.7 164.7 164.7 164.7 164.7 164.7 164.7 164.7 164.7 164.7 164.7 177.4 179.2 183.1 186.1 186.8 198.3 208.5 214.9 221.1 225.9 228.3 231.7 234.9 236.9 238 238 237.3 238.3 239.1 238.4 237.5 235.5 233.4 229.1 222.5 216.2 215.5 215.5 215.5 215.5 215.5 216.9 218 222.9 226.7 229.9 232.1 235.6 244.9 250.4 254.8 257.3 255.2 250.4 249.1 252.1 256 260.5 263.6 268.8 272.3 274.5 274.6 273.8 272.3 270.3 270 261.4 263.1 246 233.2 220.6 207.8 199.7 192.9 183 176.3 166.7 166.7 163 159.2 155.7 153.9 154.9 156.7 161.9 169.2 171.4 172.9 176.9 178.9 180.9 180.8 182.7 183.9 185.7 190.7 192.9
116.3 96.9 96.8 108.5 116.6 121.6 124.3 128.7 130.9 133.2 135.7 137.9 140.3 143.1 145.9 147.9 149.7 150.7 150.8 151.2 152.5 153.4 154.1 154.3 154.9 157.2 159.9 162.2 166.8 168.8 170.1 171.6 172.3 172.8 172.2 172.5 173.8 174.9 175.4 175.5 178.1 181.2 182.8 185.4 188.4 192.5 199.7 210.6 217.4 218.7 218.8 218.8 216.7 213.6 211 207.7 203.3 200.7 198.1 196.7 196 194.4 192.2 189.5 186.1 183.7 181.6 177.1 173.7 166.9 165 163.7 164.4 167.6 170.3 173.8 175.1 171.1 171 172.9 174.8 176.7 178 178.3 178.6 178.8 178.9 178.5 177.1 174.5 171.2 165.2 165.2 165.2 165.2 169.8 171.5 173.3 174.7 173.4 170.4 170.5 168.8 164.7 164.7 164.7 164.7 164.8 164.8 166 167.1 167.9 164.7 165 174.6 188.8 186.8 191 200.7 208.1 214.3 217.8 224.3 228.6 232.7 234.4 235.7 236.5 236.1 235 234.8 234.7 231.3 228.7 226.3 223.1 220.2 216 215.5 215.5 215.5 215.5 215.5 215.5 222.4 227 229 232.9 238.2 248.5 258.3 266 269.6 270.9 268.8 265.2 263.1 262.7 262.9 265.6 268.1 271.8 276.3 280.5 279.6 278.9 274.3 268.1 265.8 261.3 257.1 252.7 238.7 228.1 212.5 203.5 197.7 195.8 180.1 176.5 169.9 165.1 158.9 156.5 154.7 154.8 157.2 163.6 169.2 173.1 175.3 174.4 181.3 182.4 183.9 184.8 183.9 185.4 189 194.3
111.7 95.2 96.7 109.9 116.8 120.8 125.8 130.1 132.3 134.6 136.9 139 141.5 145 146.4 150.2 151.2 152.8 152.7 152.7 153.6 154.5 155.4 156.5 158 159.5 162.5 165.2 169.2 171 173.6 174.7 175.8 176 175.4 174.9 175.7 176.7 177.3 177.9 177.9 181.4 184.2 186.8 188.3 192.5 199.1 210.1 215.6 219.3 219.4 219.9 217.1 213.2 207.6 202.8 199.3 196.4 193.9 192.5 191.3 189.8 189.5 185.7 184 181.5 177.7 171.9 168.8 165.8 165.1 165.8 167.2 170.1 173.5 176.3 177.7 175.3 173.6 174.9 177.9 178.4 180.2 180.5 180.9 181.1 180.8 180.2 178.4 175.7 172.5 166.8 165.2 165.2 168.2 173.8 176 178.1 179.8 179.8 179.1 177.5 175.9 171.5 170.2 169.9 170.4 170.3 170.5 171.1 171.4 171 170.2 164.7 181.1 186.8 186.8 186.8 192.6 200.5 205.3 215.4 221 225.9 230 233.2 234.1 235.5 236.2 235.3 233.2 231.2 227.9 225.9 222.7 221.8 221 216.5 215.5 215.5 215.5 215.5 215.5 219.8 226 229.8 233.3 239 246.3 260.4 269.2 272.9 273.2 278.8 278.7 272.6 271.4 271.5 269.9 269.9 270.8 275.2 283.6 288.4 287.1 283.3 277.7 272 264.1 260.2 258 249.9 240.2 228.9 216.5 211.1 198.9 194.1 193.1 180 171.8 165.5 164.4 160.1 157.1 155.3 155.3 160.3 168 172.6 175.8 177.3 181.6 182.6 184.6 186.6 187 186.6 189.9 194.8
103.2 93.5 99.5 111.2 118.2 119.3 126.5 131.2 134 136.2 139.4 140.8 143 146.7 149.2 152.5 154.9 155.7 155.8 155.9 156 156.6 157.5 158.4 160.1 161.8 165.8 169.9 173 175.4 176 178.1 179.1 178.8 178.1 177.7 177.6 178.5 179.3 179.9 180.4 182.4 184.9 187.1 189.4 192.6 197.8 205.2 213.2 213.1 218.6 218.8 214.5 209.4 204.6 198.8 195.8 192.5 189.6 188.5 188.7 185.4 185.2 183.4 180.3 177.5 168.8 170.4 167.9 165.1 167.1 168.5 169.9 171.8 175.6 178.3 179.7 179 175.7 176.7 179.4 180.6 182.1 182.8 183.3 183 182.5 181.8 179.7 176.7 173 169.5 165.2 165.2 170.9 176.6 178.9 181 184 183.9 183.6 183.3 182.4 180.3 177.8 176.7 176.2 175.8 176.6 176.4 176.7 175.6 173.9 174.7 188 186.8 186.8 186.8 186.8 189.1 201 209.6 215.8 222 227.3 231 234.4 237.1 238.8 239.9 236.8 233.8 232 227.8 225.7 222.1 216.6 215.5 215.5 215.5 215.5 215.5 219 223.3 228.9 232.6 238.6 245.3 258.8 264.7 271.8 278.7 278.7 278.7 278.7 278.7 275 271.4 274.7 273.7 273.8 282.8 292 297.5 296.4 291.1 282.6 272.5 266 256.6 250 245.1 237.2 226.5 217.9 211.7 203.9 196.9 188.9 179.9 175.8 174.7 170.4 164.4 160.4 155.4 155.9 159.6 165.1 169.9 173.5 174.3 178.8 182.3 185.2 188.7 189.3 188.7 189.8 195.1
95.5 94.6 105.5 115.9 122.2 122.5 126.7 131.4 135.6 138.5 140.5 143.2 144.4 148.2 152.8 155.8 157.9 159 159.1 159.2 159.3 159.6 160.1 160.8 162.8 165.3 169.9 173.6 176.7 179.1 179.6 180.2 181.7 181.3 180.5 181 180.6 180.6 181.3 181.9 182.5 183.4 185 187.3 189.5 192.3 197.6 202.5 208.5 213.6 214.6 213.8 210.4 204.1 199.2 195.4 192 189.7 186.9 184.4 183.9 183.3 182.6 179.8 176.6 173.5 171.9 169.5 166.3 168.1 169.6 171 172.6 174.2 177.3 180.1 181.1 179.1 178.9 179.8 181 182.4 184.1 185.3 185.4 184.7 184.2 183.2 181.1 177.5 173.9 170.4 167.3 165.2 173.3 179.4 181.7 183.9 186.8 188 187.7 187.1 185.9 184.7 184.3 183.1 183.8 183.6 183.9 182.9 184.4 182.1 179.8 183.7 186.8 186.8 186.8 186.8 186.8 186.8 193.5 203.2 210.4 219.2 226.4 230.6 234.4 237.4 239.8 243.2 243.9 239.4 235.1 230.4 224.2 219.5 217.2 215.5 215.5 215.5 215.5 219 223 227.4 231.6 237.5 243.3 256 267.2 270.2 278.8 278.7 278.7 278.7 278.7 278.7 276.9 277.6 276.4 276.3 282.7 291.7 297.4 300 297.6 293.9 286.7 276.7 267.9 258.3 248.5 240.4 234.7 225.4 221.4 216.5 208.1 199.4 189.9 183.5 184.3 179.9 173.3 170 165.1 157.9 157.9 159.3 164.3 169 171.6 176.6 180.4 182.7 185.1 189.6 192 190.8 190.7 193.2
93.5 95.1 109.5 116.9 118.8 118.2 126.3 132.5 136.5 140.4 143.3 146.2 148.9 152.6 157 159.4 162.1 162.7 162.7 162.8 162.9 163.2 163.8 163.5 165.9 168.5 172.8 177.1 179.7 182 183.7 184.1 183.5 184.3 183.9 183.8 183.8 182.9 183.4 184.1 184.8 185.6 187.3 188.4 190.2 192.8 195.6 199.4 204.9 209.5 210.5 207.6 204.1 199.3 195.8 192 188.2 185.8 185 182.5 182.5 178 178.1 175.9 172.2 171.2 169.3 168.7 166.7 169.8 172 174.2 176.1 178.1 180.3 182.3 183.8 184 185 186 186.8 187.2 193.5 191.1 191.4 190 187.7 185.9 183.5 179.3 175.3 170.4 165.4 169.1 176.4 181.9 184.5 186.3 188.3 189.5 191 189.9 189.2 189 189 188.8 190.5 191.5 192.6 190.6 189.6 187.8 185.5 186.8 186.8 186.8 186.8 186.8 186.8 186.8 186.8 196.5 207.9 216.7 224.9 229.6 233.2 236.3 239.7 243.1 246.4 245.6 241.2 233.4 227.6 223.1 219.7 215.8 215.5 215.5 218.3 223.4 228.2 233.5 237.1 240.9 250.5 263 268.9 278.7 278.7 278.7 278.7 278.7 278.7 278.7 278.7 278.8 280.1 284.9 294.7 303.8 306.3 306.1 301.5 293.5 285 274.8 269.3 259.8 249 238.6 232.3 226.5 221.1 216.9 213.4 206 193.8 191.6 190.9 184.8 178.4 171.5 167.5 160.7 157.3 159.4 165.3 170.4 172.6 172.3 177.5 181.1 185.1 190.7 192.9 193.3 193.1 193.3
93.6 95.8 110.8 108.2 114.2 118.6 126.6 132.7 137.6 140 145.8 150.2 153.6 157.5 161 163.9 166.2 166.8 166.9 166.9 167.3 165.9 167.1 167.3 169.7 174.5 178.3 180.5 183.4 185.2 186.5 187 186.9 186.5 186 185.3 185.3 185.7 185.6 186.4 187.2 188 188.8 190.8 190.7 192.4 194.6 197.2 200.6 206 205.8 200.5 199.5 196 192.4 188.7 184.7 183.9 183.3 181.6 172.8 169.2 171.5 171.8 170.4 169.7 166.3 166.6 171 173.2 176.6 179.1 182.3 185.4 187.7 190.9 192.1 191.1 189.9 189.9 190.7 191.1 194.5 195.3 191.9 193.2 191.1 190.1 186.9 182.5 176.4 171.9 169.6 168.4 176.2 181.8 185.1 187.8 189.1 190.3 191.9 193.2 192.5 191.8 192 192.8 194.9 197.1 197.3 196 194.2 192.5 189.7 186.8 186.8 186.8 186.8 186.8 186.8 186.8 186.8 187.4 203 214.2 222.6 227.9 231.6 235.7 239.6 242.6 245.1 246.6 243.2 236.7 234 227.7 222.5 218.4 215.2 217.8 218.1 224.9 232.6 237.9 242.6 246 256.9 265.9 278.3 278.7 278.7 278.7 278.7 278.7 278.9 280.3 281.3 284.9 290.5 298.7 308.1 317.6 317.9 313.8 303.5 296.8 287 274.8 264.6 256.7 247 238.1 230.7 226.3 220.5 215.3 210.4 202.8 199.4 194.7 195 191.2 185.5 175.2 168.8 163.9 160.7 158.4 160.6 170.7 173.5 172.9 177.7 180.4 185.1 188.9 193.5 195.5 195.8 197.9
93.2 97.1 108.1 117.4 123.6 127.4 130.2 133.2 137.5 141.8 147.2 152.3 157 161.4 165.1 168.5 170.4 171.3 171.8 172.4 173.4 173.4 172 173 175.5 178.2 182.7 184.9 186.7 188.8 189.3 189.4 189.3 188.2 186.8 186.3 187.9 188.4 188.8 189.4 190.2 190.9 191.6 192.3 192 192.8 194 195.2 196.9 199.2 199.6 197.7 196.4 193.5 190.2 185.7 183 181.8 180.7 169.7 169.2 171.7 170.6 168.7 167.2 166.2 164.8 167.7 173.8 177.4 184.2 187.8 191.6 194.5 196.4 198.2 198.7 198.1 196.6 195.2 196.2 197.7 195.3 202 201.3 199.2 196 194 189.9 184.4 179.9 178.3 174.6 171.2 171.7 179.2 184.7 187.5 191 192.4 194.2 195.9 195.8 195.8 196.9 197.4 199.3 201.8 202.7 200.7 198.9 197.2 194.1 191.4 189.2 187.3 186.8 186.8 186.8 186.8 186.8 186.8 199.2 212.1 221 226.1 230 234.9 239.6 244.1 246.5 246.4 245.1 242.8 238.2 232 224 219 214.9 218.7 222.5 225.8 232.1 237.3 244.3 250.8 261.2 266.3 278.7 278.7 278.7 278.7 278.7 280.3 283.6 286.9 291.3 299.2 306.4 315.5 324.3 327.9 327.3 318.7 307.1 296 286.9 274.6 261.3 251.5 241.2 237.1 229.1 223.3 218.3 212.6 204.7 197.4 195.8 198.5 198.3 196.4 192 183 174.6 166.2 161.2 160.5 160.3 172.6 175.6 174.1 173.7 176.9 182 187.2 190.4 194 196.6 199.4
92.8 100.9 107.8 117.1 125.3 130.8 134 133.5 137.5 142.8 149.5 153.9 159.3 163.8 168.6 171.9 173.9 176.5 177.4 178.4 179.4 180.3 177.9 176.3 180.9 182.6 185.7 187.3 189.2 191.4 191.7 191.5 190 189.3 187.9 188.8 189.9 191.2 192.1 192.7 193.4 194.1 194.5 193.8 193.4 193.2 193.7 193.7 195.6 195 195.1 194.9 193.1 190.8 187.7 184.9 181.8 179.5 177.3 169.7 171.7 170.6 168.6 166.8 165.3 164.7 166.6 176.6 185.2 192.3 195.4 197.2 199.6 200.2 202.2 203.1 203.7 204.2 202.5 201.4 203.1 199.5 191.7 200.9 204.7 205.6 201.8 197.7 186.7 186 186 184.3 180.5 176.8 176.3 177.3 178.6 185.1 187.1 190.5 194.2 197.4 201.4 202.9 203 203 203.9 206.8 209.1 207.3 204.4 201.9 198.7 196.4 195 193.3 192.4 191.8 189.7 186.8 186.8 186.8 195 207.9 219.1 224.5 228.6 234.1 240.7 245.5 249 249.4 248.4 244.9 240.3 234.5 227 222.1 220 222.1 226.1 229.5 233.5 238.9 245.6 253.5 262.5 266 270.5 278.7 278.7 278.7 283.6 288.9 293.1 299.5 306.7 315.2 323.5 330.7 337.3 337.7 330.4 320.3 307.9 296 284 271.8 258.9 248 240.6 234.2 228.6 223.6 217.5 210.8 196.9 191.9 192.9 201.1 201.1 198.5 195 186.4 176.9 167.8 163 161.3 161.9 167.8 178.2 179.2 178.5 178.2 180 183.6 187.2 190.1 194.5 197.2
93.5 100.9 108.1 117.8 131.1 138.8 140.3 137.6 136.6 144.4 152.2 156.1 160.9 166 170.6 173.4 177 178.5 181.1 182.5 183.3 183.8 182.6 179.6 183.6 187.7 189.2 189.7 191.8 193.6 193.6 192 190.5 190.3 190.5 191.4 192.7 194 195.4 195.9 196.6 196.7 196.5 195.9 194.3 193.2 192.6 192.7 192.8 192.6 191.9 190.7 190.6 189.2 186.5 183.8 180.6 175.4 173.6 169.8 169.6 168 166.3 165.3 164.8 174.1 185.3 192.9 195.6 199.8 200.8 202.9 203.6 204.3 206.3 208.4 209.6 210.1 210.2 207.9 209.5 203.5 191.4 194.3 206.8 207.8 203.6 196.5 191.5 194 194 193.4 188.6 184.5 185.5 189.5 186 189.1 191.2 191.4 191.7 194.9 200.6 203.3 204.1 205.8 207.7 209.8 213.4 213.6 211.1 208.5 203.5 201 199.1 197.3 196.9 195.6 192.8 189.1 186.8 186.8 193.2 203.6 212.1 220.3 227.8 234.7 241.2 246.8 251 252.7 251.1 247.2 242.6 236.9 229.1 225.4 223.9 225.1 229.3 232.7 236.8 242.8 248.4 256.7 262.6 266 269.8 277.2 278.9 284.5 290.1 298.2 306.8 316 324.4 332.3 340.8 346.5 347.3 340.9 329.2 319.1 305.6 294.9 283.1 271.2 257.9 247.1 239.7 234.3 229.5 221.3 214.4 208.2 195.1 197.4 204.7 203.8 202.1 198.6 193.8 188.9 178.3 170 167.1 162.2 161.4 167.4 173.8 178.2 181.9 180.2 181.5 181.6 183.8 187.2 191.5 192.5
94.7 100.7 110 124.6 137.5 143.7 144.7 143.7 137.2 146.1 154.3 158.3 161.8 166 169.5 172.2 174.1 176.2 178.4 181.9 183 183.1 184 182.9 185.7 188.9 191.6 193.2 194.4 194.5 193.3 191.9 191.5 192 192.7 195.2 197.2 198.2 198.9 199.1 198.6 198 197.4 195.9 194.1 193.2 192.4 193.3 192.6 191.8 190 189.4 188.3 187.8 185.1 179.6 174.8 171.7 170.3 167.9 167 165.3 164.4 170.4 176.8 187.4 201.3 201.5 205.9 202.3 205.6 206 206.1 208.8 210.7 212.6 214.6 216.2 217 216.9 213.2 202.2 193.9 197.3 212.1 209.8 203.2 195.7 197.6 199.7 200.2 201.8 198.5 193.1 183.9 192.6 195.1 202.6 203 202.9 199.2 195.9 195.8 199.8 203.9 206.1 207.7 210.5 214.8 217.6 217.4 214.8 209.8 205.1 202.9 201 199.4 198.1 195.7 191.2 186.8 194.7 191.2 199.9 209.1 215.9 224.1 233.8 241.9 246.3 250.8 254.3 251.9 248.7 243.5 237.7 233.6 228.3 225.2 229.4 232.9 236.1 241.2 246.5 251.9 260.6 263.8 270.3 273.2 279 284.8 293.3 301.2 311.4 321.6 329.5 338.4 347 352.5 350.1 345.3 339.4 327.9 318 305 293 281.1 272.5 260.3 247.4 241.5 235 230.2 225.1 217.4 205.5 198.9 209.3 211.1 209 205.8 199.6 195.2 185.4 179.5 172.7 168.9 163 162 165.7 167.8 175.2 178.5 180.3 185.3 184.4 183.5 185.1 187.8 192.2
95.9 103.3 110 132 139.3 146 150.1 148.9 139.3 145.5 157.2 160.1 161.6 164.2 166.1 168.2 170.1 172.1 174.7 178.6 180.8 181.9 184 184.8 186.4 188.9 191.4 193.2 194.1 194.1 193.1 191.7 192.6 193.1 195.7 198 200.4 201 201.4 201.1 200 198.9 197.9 196 194.3 193.4 192.4 193.2 192.4 191.2 189.3 187.8 185.6 185.3 182 174.8 170.7 169.6 168.3 166.3 164.7 163.7 172.7 182.6 185.4 179.7 186.7 189 198.4 207.4 211.3 211.1 211.4 213.4 215.5 217.5 219.4 220.7 222.3 223.1 220.5 214.1 196 207.4 215.1 210.2 199.6 202.2 204.1 204.5 204.9 207.5 208.6 204.2 193.6 191.9 188.8 209.8 210.3 210 210.1 209 204.6 198.6 201.7 205.1 207.3 210.2 213.5 217.1 220.1 219.1 213.8 209.5 206.7 204.3 202.5 200.6 197.7 194.6 191.8 190.2 197.7 200.1 208.7 217.7 227.3 235.5 242.1 250 251.2 254.1 252.5 249.9 247.6 242.4 239.1 234.9 228.5 230.1 235.2 239.7 244.2 248.6 255.4 266.9 274.2 277.6 281.7 285.3 293.3 302.6 314.1 324.5 333.3 341 348.8 354.1 354.1 348.9 344.4 336.5 326.5 315.3 305 292.2 280.8 271.4 263.4 251.6 242.2 236.6 232.4 224.3 211.9 209.3 210.6 216.3 217.8 216.3 213.7 209.3 196.4 188.5 181.6 176 172.3 167.4 165.2 165.8 166.8 176.4 180.4 180.9 186.1 187.4 186.1 186.8 188.7 188.5
94.5 102.9 112.2 132.9 141.1 147.4 151.8 150.1 140.7 145.2 158.4 162 162.3 163 164.3 165.8 167.1 168.4 171.7 175.9 178.9 180.9 183.2 185.4 186.7 189.2 191.7 192.8 193.5 193.6 193 192.4 193.7 195.4 198.4 200.7 202.5 203.4 203.9 202.7 200.4 198.5 196.7 195.2 194.1 193.3 192.8 192.6 191.6 189.5 187.5 185.9 182.8 181.5 177.3 170.8 169.5 168.3 166.2 164.2 164 165.2 182.2 187 185.1 186.5 187.8 190.8 196.9 200.8 210.4 216.6 216.9 218.1 220.2 222.2 224.3 226 227.4 228.5 227.4 224.7 219.8 216.7 217 211 205.6 208.6 209.5 209.3 211.2 212.6 213.7 212.1 206.7 196 203.3 212.7 214.7 214.9 216 215.2 214.1 211.2 206.1 204.3 207.9 210.6 212.6 215.8 218.8 220 217.4 213.5 209.7 206 204.1 201.7 199 196.1 194.6 187.7 196.3 202 209.9 219.1 228.9 237.3 245.6 251.5 254.2 254.3 253.8 253.6 252.9 251.1 247.3 240.8 235.3 232.3 238.6 242 246.5 251 258.3 270.4 280.3 286.2 289.7 293.4 302.3 315.5 325.8 334.8 343.1 353.9 362.7 365.5 361.7 355.8 345.2 335 325.2 312.5 304.5 292.7 281.6 271.9 263 255.8 246.8 239.8 231.3 225.7 223.6 223.2 218.2 220.6 223.1 221.8 218.6 215.7 201 192.7 185.7 179.5 174 168 165.9 167.5 172.8 178.5 182.7 183.1 185.4 188.4 190.1 190.9 190.5 189.4
111.2 110 113.8 124.6 142.7 148.5 153.4 150.6 140.2 146.4 159.8 162.4 162.1 162 162.8 163.7 164.4 167.2 169 172.6 176.2 179.9 181.7 184.8 187.1 189.4 191.7 192.5 193.2 193.2 192.8 193.7 194.9 198.1 201.1 203.5 204.5 205.6 205 203.2 201.4 198.2 197.3 195.1 193.7 192.7 192 190.3 188.4 187.1 184.1 183.2 181 177.6 171.2 169.2 167.9 166.3 165.1 164 164.2 168.8 188.4 190.7 187.1 188.4 176.4 179.2 185.8 200.3 206.2 211.6 220.8 222 223.8 225.8 227.8 229.7 231.5 233.1 233.3 231.2 228.6 225.1 219 210.4 210.2 214.9 213.7 214.8 216.4 217.9 218.8 216.9 213.6 209.1 205.5 214.3 218.5 220.2 221.2 221.2 221.6 218.5 214.7 209.6 207.5 210.2 213.1 214.7 217.5 219.4 219.1 215.6 212.1 208.6 205.3 202.5 199.8 195.2 191.4 193.3 193.7 201.4 210 219.9 230 238.3 248.2 253.9 256 256 256.9 257.3 258.1 256.5 251.4 244.8 241.3 234.1 241.2 245.1 249.4 254.5 260.1 270.2 283 289 293.6 300.6 313.3 325.1 334.7 344 355.6 367.4 372.1 374.7 369 359.6 349.8 335.3 324.3 310.9 301.9 294.4 283 274.1 264.2 260.1 251.4 238.6 227.9 225.4 228.7 228.6 226.2 224.2 225.9 224.2 220.6 216.5 208.6 201 191.3 183.2 176.6 167.9 166.7 169.7 170.5 177.7 180.8 183.3 184.1 187.7 191.3 193.4 192.8 194.3
112.8 102.1 117.9 127.5 142.6 148.4 154.1 146.9 142.4 147.6 160.5 161.9 161.4 161.1 161.6 161.9 165 166.8 172.2 177.1 179.7 180.6 180.1 182.1 184.2 188.5 191.5 192.3 192.9 192.9 193.2 194.9 197.4 200.8 203.8 205.5 206.5 206.8 204.9 203 201.3 199.3 198.5 195.9 194 192.5 190.3 188.3 186.2 184.5 182.2 180.2 178.9 173.9 169.3 168.6 166 163.7 164.3 167.1 170.4 180.3 195.6 213.5 193.2 180.1 177 177.1 178.4 179.9 206.6 206 224.8 225.4 227.1 229 230.5 231.8 234.9 237.2 237.4 236.9 232.7 228.2 221.8 212.5 216.2 219.2 219.4 219.6 220.8 221.7 222.1 220.8 218.1 215 207.4 217.8 221.5 223.7 225.6 226.3 226 225.2 222.6 218.3 212.8 210.3 213.4 215 216.8 219.7 219.6 218 214.8 211.5 207.4 203.4 200.2 193.6 193.6 197.9 199.5 199.4 205.8 217.9 227.1 237.8 247.9 256 258.8 260.2 261.3 263.4 262.8 259.1 253.8 248.8 245.8 240.1 241.9 247.7 253.1 257 263.4 271.4 281.2 288.9 297.6 308.8 320.1 332.5 338.7 354.4 366.9 373.3 373.7 371.1 367.9 363.6 354.2 338.3 322.6 309.3 300.4 293.6 284 278.3 273.4 267.4 252.8 237.3 237.4 238.9 236.7 235.2 233.4 230.5 228.2 226.5 222.1 215.9 212.8 205.6 200.5 190.4 183.2 172.9 166.4 169.1 168.9 171.2 175.7 178.7 183.5 187.3 191.9 194.8 195.6 197.1
110.4 106.9 123.7 132.5 141.6 147.8 154.1 144 139.9 148.6 160.6 160.4 159.9 158 158.8 161.1 163.8 167.1 172.8 178.4 181.4 183.4 184.1 184.7 187.4 188.8 191.2 192 192.6 192.8 193.9 196.2 199.8 203.4 206.4 207.4 207.1 206.4 204.5 202.7 201.1 199.5 197.1 197 194.2 192.6 190.4 187.5 185.2 182.2 179.6 178.8 177.3 169.3 167.9 166.4 163.9 164 166.4 170.1 179.7 188.8 204.8 196.1 187.8 189.1 189.2 181 180.2 181 206.7 214.7 215.9 229.1 230.1 231.3 232.6 234.2 237.9 240.3 241.8 241.8 237.8 232.2 224.9 219.1 220.5 223.2 223.7 224 224.6 225.3 225.1 224.2 221.6 219.4 212.9 220 224.7 227.1 228.9 230.2 229.8 228.7 227.5 225.4 221.4 213.9 213.2 215.3 216.8 219.7 220.5 220.2 217.2 213.7 208.9 204.1 200.1 192 198.8 202.3 205.5 204.4 213 220.2 223.9 232.8 243.1 255.9 260 261.4 264.4 267.6 266.5 264 256.6 253.2 250.3 247.6 242.8 247.3 253.2 259.5 266.1 275 284.3 291.2 302.7 316.1 327.3 340.8 353.4 363.9 373.1 373.8 372.6 369.3 365.7 360.6 354.2 340 319.7 309.7 297 291 285.7 282 277.9 269.8 251.2 242.6 246.2 248 249 250.1 245.9 238.8 232.7 229.8 224 219.1 215.2 211.4 203.3 197.1 188.2 177.8 167.9 167.6 167.6 170 171.9 175.7 177.9 186.8 191.1 196.3 198.1 198.6
105.9 122 127.7 134.5 140.1 146.9 153.3 142.5 139.8 149.7 161 160.1 159.3 156 157 160.3 162.7 167.2 172.9 177.8 181.3 183.5 185 186.6 188.9 190.3 191.5 192 192.6 193.5 196.2 199.4 202.8 206.1 208.3 208.2 206.9 205.8 204.2 202.5 201 200.5 200.2 197.4 195.4 192.7 189.4 186.1 183.7 182 179.1 175.9 172.6 168.3 165.1 163.2 163.3 164 168.2 175.7 186.5 195.1 209.9 197.5 182.8 187.4 182.8 176.4 180.4 183.5 203.3 216.8 231.6 231.6 233 233.6 234.7 236.8 240.5 243.5 246 246.5 243 236.3 230.4 224.8 225 226.5 226.8 227.4 227.6 228.3 228.3 226.8 225.3 223.2 216 223.6 227.7 229.8 231.5 232.8 232.5 232 230.9 229.2 227.3 222.9 213.9 215.3 217.3 219.7 221.7 221.6 219.1 215.3 208.8 204.4 201 197.2 204.2 206.5 209.4 213.7 216.4 225.9 234.9 244.1 252.8 259.6 262.8 264.7 267.6 269.6 269.1 267.1 263.4 261.6 257.7 255 252.1 249.1 254.2 260.9 268.6 278.6 286.6 298.5 311.3 323.3 336.9 351.6 364.5 371.9 373 372.2 369.7 367.2 362.5 357.5 352 340.9 322.8 307.7 296.3 291.4 286.6 282.8 276.6 264.8 254.9 258.5 263.7 265 264.5 263.6 259 253.2 243.2 232.3 225.7 220.9 217.1 212.8 208.2 202.5 195.7 184.7 176.6 172.3 170.8 171.2 172.2 173.9 178.6 185.3 190.2 196.5 198.4 198.1
108.9 120.7 127.1 133.2 138.9 142.8 144.4 140.4 139.7 149.5 159.9 159.5 153.4 155.7 159.3 160.9 163.6 168.6 172.1 175.2 180 183.1 184.7 186.6 188.3 190.2 191.3 192.3 193.8 195.2 199.1 202.7 206.4 208.5 208.7 207.9 206.4 205.2 203.9 202.8 202.4 201.9 201.4 198.5 194 189.9 187 184 181.3 180.3 179.4 177.3 173.3 168.4 164.6 162.6 163.3 166 172.4 184.7 193.8 207.1 215.7 219.1 189.6 183 182.4 184.7 199.6 225.5 232.3 233.4 235.2 236.3 235.9 236.9 237.1 239.2 242.6 246.4 249 249.9 248.4 243.9 236.6 229.5 227.7 229.7 229.9 230.2 230.3 230.9 231 229.6 228.3 225.4 220 226.2 229.7 232.1 234.1 235.5 235.3 235.1 234.1 233 232 229.5 223.7 215.3 218.5 220.6 222.4 223.3 220.4 216.7 212.6 205.7 204.5 202.4 208.4 208.8 211.4 216.2 219.2 228.4 238.1 248 256.5 263 263.9 265.7 269.6 271.8 272.1 270.9 270.1 268.6 265.1 260.8 259.3 256.2 256.1 262.5 270.9 281.8 293.5 304.8 317.9 332.7 348.2 363.3 370.8 372.9 372.8 370.8 368 364.8 360 354.5 348.9 335.9 320.5 307.3 298.8 292.2 285.3 278.4 270.1 264.1 269.4 270.9 272 271.9 271.9 262.9 262 260.8 255.3 244.9 231.6 223.1 218.9 216.1 212.3 207.2 199.7 190.4 180.5 174.6 170.6 172.8 173.8 172.5 176.3 186.7 188.3 194.3 198.3 198.7
108.9 119.2 126 132.2 136.6 139.8 139.7 138.7 139.4 146 156.9 159.3 154.8 158.6 160.4 161.9 164.9 170 174.1 177.9 181.6 183.4 184.5 186 187.7 189.6 191.6 193.7 196.1 196.8 201.7 204.2 207.4 208.1 208 206.6 206.3 205.1 203.8 202.9 202.5 201.8 200.5 196.3 190.9 186.8 183.9 181.1 177.8 176.1 177.8 177 172.2 168.4 163.8 161.3 163 169.4 181.2 192 201.8 214.7 220.9 223.4 229 192.4 212.9 229.7 231.8 233.4 234.9 237.5 238.8 240.4 240.9 240.5 241 242.7 245.8 249 251.6 251.9 251.7 247.2 242.4 234.2 231.4 234.8 233.2 232.9 233 233.5 233.4 231.3 230.5 227.3 224 230.6 232.8 235 236.5 238 238.1 237.9 237.3 236.3 235.8 233 228.9 221.9 218.7 220.6 222.4 223.2 220.9 218 215.1 210.2 200.8 207.7 211.4 209.7 214.1 219.1 225.3 228.7 241 251.4 260 265.4 266.2 266.1 272.2 273.5 274.1 274.2 276.3 274.8 272.4 269.2 265.4 264.5 259.1 264.1 274.1 285.3 295.8 310.7 324.1 342.3 359.4 369.8 372.7 373.1 372.4 369.5 366.3 362.4 357.8 351.4 346.7 336.5 321 305.4 298 284.3 287.1 283.9 279.5 274.3 276.7 276.2 275.7 274.5 273 271.6 272.7 273.8 266.9 255.3 243.3 230.6 221.8 218 215 210.2 205.2 198.2 189.2 179.5 175.5 174.5 174.2 174.4 178.4 187.1 187.1 189.9 194.6 199
111 118.1 123.8 128.7 134.6 137 137.4 137.7 137.4 143.1 151.1 155.3 154.6 157.9 159.5 162.2 164.8 170.8 175.4 179.8 183 185.2 185.8 186.3 187.1 188.9 191.3 193.4 196.7 199.9 202.2 205 206.7 207 206.5 205.3 205.8 205.1 203.9 202.7 201.5 199.4 195 191.6 186.9 183.1 179.7 177.1 173.3 172.8 174.5 173.8 168.8 164.9 161.3 161.3 163.6 172.7 185.2 198.3 208.9 219.9 225 227 229.8 231.3 233.2 234.9 235.5 237.4 239.5 242 243.1 244 244.8 245.2 246.8 246 247.1 251.1 253.7 254.1 253.7 249.6 247.4 241.3 235.6 237.3 237 236.4 235.9 236.2 235.4 234.3 232 228.7 227.2 232.7 235.8 237.7 239.1 240.6 240.6 239.9 239.4 239.4 238.7 238 235.5 228.2 220.9 221.1 222.2 221.7 221.6 218.8 216.2 205.1 202.7 210.2 213.3 214 217.3 223.7 230.8 238.4 242.2 251.8 261.6 267.4 268.3 269 274.4 276.6 276.6 280.6 282.2 282.7 282.2 277.6 276.8 273.1 275.1 263 275.7 288.9 299.3 313.6 329.3 350.3 367 371.4 372.9 371.8 370.9 368.2 364.6 360.1 355.7 351 344.2 334.2 318.5 306 299.2 298.4 295.3 290.3 286.6 283.9 280.8 279.2 276.7 275.1 273.5 271.7 271.7 273.5 270.9 264.4 251.4 238.7 226.3 220 217.1 212.5 208.1 200.6 194.6 187.3 179.9 177.6 176.1 175 175 188.1 187.5 187.6 192.6 196.8
112.3 116 121.2 127.6 132.1 133.8 134.3 136 136.8 142.6 147 151.1 152.6 156 158.5 161.3 165 170.1 174.7 178.8 182.8 185.6 187 187.4 187.8 189.7 191.9 194 197.9 200.5 202.9 203.3 204.6 205 205.2 205.1 205.1 204.2 200.8 199.2 195.7 192.1 188.7 185.9 182.6 179.3 176.1 172.5 170.1 168.8 168.4 168.3 164.9 161.3 161.3 161.7 165.9 174.1 188.5 203.9 214.5 223.4 228.2 230.2 232.5 234.9 236.7 237.6 239.5 241.6 243.8 245.4 246.1 247.1 248.2 248.8 249.9 249.7 249.8 253.1 255.3 256 255.4 252.4 251.2 245.7 239.7 239.6 239.7 239.7 238.8 238.5 237.4 235.8 233.8 228.8 231.4 234.3 238.1 240.4 241.9 243.4 243.2 242.5 242.5 243.3 240.2 238.3 236.2 231.4 225.2 221.9 220.3 220.1 220.7 219.1 215.7 202.2 210.4 213.5 215 217.7 221 226.6 236.5 246 251.4 256.1 262.7 268.7 270 272.4 276.6 279 281.5 285.2 288.5 289.6 287.8 288.2 290.1 290.3 288 280.4 272.2 290.6 303.4 318.1 333 354.8 367.6 370.7 371.7 371.1 369.3 366.3 362.4 358.7 354.8 348.7 341.4 329.4 316 311.2 307.9 302.4 299 295.9 290.6 287.5 284.3 281.4 279.2 276.6 273.7 270.9 269 268.6 269.1 262 256.4 244.5 232.4 223 218.3 213.5 209.1 203.9 196.8 185.8 182.4 180.8 176.1 174.8 177.1 185.3 188.2 190.2 190 193.7
113 115.6 117.4 125.3 129 130 132.2 133.8 137.2 139.6 142.2 142.3 149.8 155.6 158 161.5 165.5 169.2 173.4 177.6 181.7 184.6 186.6 187.3 188.2 189.6 191.4 194.8 198.5 200.8 201.1 200.8 201.7 203 203.6 203.3 202.2 198.7 195 190.3 188 185.1 181.9 180.9 180.4 177.4 173.7 170.1 167.9 165.8 164.6 162.6 161 161.3 161.3 163.3 171.2 182 193.7 207.4 217.6 225.7 230.7 233.1 235.6 238.4 239.4 240.5 242.5 243.7 245 247.1 248.8 249.9 250.5 252.4 253.1 253.8 254.6 254.9 256.8 257.2 256.3 254.8 252.1 248.3 248.1 241.9 241.9 240.9 241.3 242 240.2 237.3 235.9 232.4 234.3 237.5 240.6 243.1 244.7 246.1 245.8 245.3 245.9 245.4 243.1 239.7 237.5 233.5 228.7 222.9 220 219.7 219.6 216.7 211.1 207.2 211.7 216.8 217.8 221.1 225.3 230.4 240.9 251.4 258.6 264.1 268.4 270.4 272.9 275.2 277.1 281.4 284.6 288.5 292.4 294.4 294.1 296.5 299.1 300.7 299 293.7 283 289.4 305.9 321.2 337.4 357.3 366.1 368.5 370.5 370.4 369.3 367.5 363.8 358.2 354.2 347.2 338.8 329.1 325.9 322.6 318.2 314.4 308.5 300.8 296.2 291.8 287.9 284.3 281.2 278.5 274.6 271.8 267.8 266.1 265.2 263.3 253.7 249 236.2 224.5 219.5 214.9 209.9 204.8 192.1 187.1 186 183.3 181.2 180.1 179.4 181.6 187.6 188.2 193 196
115.8 116 117.5 120.8 122.8 124.9 127.6 132.6 135.3 138.3 144.3 152.6 155.7 158 161.6 164.3 166.4 169.6 173.4 176.3 179.8 182.8 185.4 187.3 188.8 189.6 191.4 193.6 197.2 198 197.7 197.9 199.6 201.3 201.2 199.5 195.9 192.1 186.5 182.8 180.6 177.8 177.8 178.2 178.6 176.1 171.5 167.2 165.9 164.1 162.9 159.8 159.8 161.2 163.3 166.9 174.7 185.9 199.8 211.2 219.5 226.6 232.1 235.8 238.6 240.5 242.1 243.5 244.7 245.9 247 248.3 250.2 251.5 252.5 255.5 256.8 257.5 258.1 258.7 259 258 257.1 255.6 253 252.5 253.1 250.4 244.2 243.1 244 244.9 242 239.6 238.1 233.5 237.7 240.6 242.8 244.8 246.8 248.6 248.5 248.7 248.5 246.8 244.3 241.6 238.8 234.3 229.5 224.6 220.4 219.3 218 216.4 214.1 211 212.3 220 221.7 224.1 227.4 234.2 240.8 252.2 263.1 268.6 271.7 272.6 275.1 277.6 280.7 284 287.9 291.8 295.4 298.2 299.5 302.1 304 305 305.4 303.7 299.2 285.6 305.8 324.3 341.2 357.4 363.6 366.6 369.3 370.2 370.4 369 366.1 360.5 356.6 350.1 346.5 338.4 336.3 333 329.1 324.4 318.2 310 303.1 298.1 293.5 288.2 284.2 280.6 275.6 272.5 268.3 264.6 261.5 259.9 257.1 249.7 236.8 225.7 219.8 213.6 205.3 194.1 194.3 193.4 190 185.7 184.4 182.5 179.8 180.3 185 190.7 192 193.6
118.1 117.1 118.8 120.2 122.3 125.5 130.7 133.5 136.7 138.9 146.9 154.3 157.9 161.2 164.7 166.8 169.4 171.8 174.1 176.3 178.6 181.1 183 184.3 188.7 189.5 190.3 192.6 193.4 194.5 194.7 196.3 198 198.7 196 193.9 188.8 182 178.4 176.9 173.5 172.1 173.4 175.9 176.5 175.2 169.6 165.4 163.3 162.7 160.2 159.4 160.6 162.5 165 169.4 179 192.1 203.3 212.6 218.9 227.2 233.3 237 239.6 241.4 243.5 245.5 246.7 248 249.2 250.4 251.6 253 254.6 257.6 259.9 260.4 260.9 261 260.3 259.3 257 255.7 256.1 256.7 257.2 255.7 250.8 247.1 246.3 246.3 244.2 242.2 240.6 238.7 239.7 242.6 244.8 246.5 248.8 250 250.8 250.3 249.1 247.5 245.4 243.3 239.6 235.7 231.7 228 224 219.9 219.1 217.3 215 211 210.9 221.1 224.7 227.1 231.5 235.9 243.1 252.8 262.7 270.1 274.4 275.3 277.3 279.9 282.7 286.3 289.7 293.5 298 302.1 304.1 307 308.3 309.3 312.7 315.9 312.2 293.4 304.6 322.8 346.7 357 361.7 364.4 367.6 370.6 372.1 371.3 369 366.2 361.2 357.2 352.7 349.3 345.4 341.5 340.3 334.5 327.4 320.5 312.3 306.7 300.6 295.3 291 284.9 278.5 272.5 268.4 264.3 260.9 257.3 253.2 248.3 236 227.4 213.1 205.3 199.8 206.6 204 194.8 191.2 189 188.6 185.7 182.3 180.4 182.3 188.9 191.6 191
120.3 121.6 120.2 121.2 125.3 127.6 132.7 135.2 137 139.7 147.6 155.8 161.5 164.3 167 168.5 169.9 171.7 174.5 177.3 179.5 182.1 184.9 186.5 187.4 188.6 189.2 189.8 190.7 191.7 193.2 194.8 196.3 193.5 190.1 184.5 176.6 173 171.5 170.1 168.7 168.8 169.1 171.8 174.2 175.1 171.8 166 160.6 159.2 159.3 160.3 164.3 168.8 176 169.7 177 191.9 203.6 212.6 218.8 226.9 234.1 237.3 239.8 242 244.6 247.3 248.5 249.8 251 252.3 253.5 255.3 257.9 260.9 263 263.3 263.6 262.6 261.5 259.3 256.9 256.2 258.3 259.3 260.1 259.4 256.8 249.9 248.4 247.7 246.4 244.7 243.2 241.8 241.1 244.4 247.7 248.6 250.7 251.5 252 251.2 250 248.7 247.4 245.3 242.6 239.2 235.5 230.3 225.2 221.6 220.2 218.9 217.4 212.9 211.5 221.5 227.1 230.6 234.2 237.6 246.1 255.7 264.5 270.2 275.7 277.8 279.8 282.3 284.8 288.1 291.3 294.7 300.1 304.2 308.4 310.5 312.3 316.5 322.1 325.7 327.1 307 301.4 321.7 345.1 355.4 358.8 362.3 367.4 371.8 374.3 373.5 371.6 369.5 368.4 363.9 363.9 360.5 358.8 353.6 352.1 344.9 335.6 329.3 322.4 315.8 310.3 305 299.4 292.1 283.1 275.3 269.3 263.7 260 255.5 251.9 245.4 236.2 225.9 206.3 205.6 209.1 212.7 205.7 196.6 189.2 189.3 191.7 192.1 189.4 183.2 181.1 182 183.3 184.3
123.9 124.2 123.9 127 124.3 127.3 133.2 135.5 137.6 139.7 145.7 156.6 163.7 166.5 168.2 168.8 168.9 171.7 174.5 176.9 178.9 181.3 184.9 186.6 186.5 187.5 188 188.4 189.4 190.8 191.6 193.4 192.6 188.6 182 173 168.8 166.9 164.1 163.7 164.3 165.3 166 167.6 170 172.9 171.6 165.2 160.5 157.3 158.7 163.3 167.8 172.6 178.6 185.8 189.9 190.7 201.8 208.5 216.8 223.9 231.6 236.7 240.4 243.1 245.7 248.4 250.3 251.6 252.8 254.1 256.7 259.5 262.3 264 265.1 265.7 264.3 263.2 261.6 258.7 257.8 258 260.1 262.1 262.8 262.5 260.3 257.3 250.2 249.8 248.8 247.5 246.2 244.7 243.4 245.2 247.3 250.2 251.9 252.3 252.7 254 251.8 250.2 248.9 247.3 245.3 241.3 237.4 233.5 228.8 223.6 222.1 220.4 218.3 215.7 214.8 222.7 229.5 233.7 237.9 242.1 248.7 257.7 266.4 272.4 277.7 279.2 281.9 285.4 288 290 293.2 297.4 302.1 306.4 310.6 313.9 318.5 323.8 329.6 335.2 339.5 330.9 312.6 314 337.3 350.7 354.7 359.8 365.7 369.7 371.6 373.7 374.3 373.9 373.1 372.4 372.8 372 369.3 365.5 362.8 356.3 348.3 341 333.4 326 319.2 314.7 309.1 300.9 291.5 281.4 270.9 262.3 257.5 253.5 249.9 246.5 236.7 224.4 210.2 211.9 213 210.1 203.1 193.9 192.5 191.2 194 194.2 192.5 191.8 184.4 183.9 187.6 192.2
126.3 127.4 128.3 125.5 124 126.1 130.2 134 136.8 141.7 148.7 156 162 164.8 167.9 169 168.8 171.7 173.5 175.8 177.2 180.3 183.3 185.2 185.8 186.4 187.1 187.6 188.5 189.9 190.4 189.8 185.6 179 169.2 166.1 163.2 160.9 160.5 159.7 160.6 162 163.9 165.9 168.8 169.8 168.4 164.1 156.6 157.3 159.5 162.9 167.8 173.7 181.3 190.1 198.7 203.6 207.2 209.2 213.9 220.4 227.9 234.5 239.4 243.1 246.5 249.5 252.1 253.4 254.6 257.4 259.7 261.3 262.8 264.3 266.7 266.4 264.5 263.5 259.9 258.9 259.4 259.9 261.9 263.9 265.4 264.9 264.8 261.9 256.9 254.8 253.4 250.5 250.1 248.6 248 249 247.6 250.1 252.6 253.7 256.3 256 253.5 251.7 250 248.4 247.1 244 240.3 236.8 232.2 225.6 223.8 221.9 220 214.6 218.1 222.1 229.3 234.6 239.5 244 249.8 260 266.9 273.6 279.7 280.9 283.9 287.1 290.1 292.4 296.6 300.9 305 308.9 312.8 318.8 325.9 331.3 339.3 348.3 353.1 348.9 336.6 319.2 320.7 341.5 348.9 354.5 358.4 362.9 368.2 372.8 377 377.4 377.6 379.9 380.9 381.1 379.2 376.5 371.4 366.1 361.4 352.8 343.2 338.1 333.4 328.3 318.4 308.7 298.7 286.6 273.3 261.1 256.2 251.8 247.8 238.2 238.9 226.4 216.5 218.5 215.2 207.8 198.3 197.6 197 197.6 198.4 196.6 195.1 193.3 190.9 186.5 194.5 192
129.6 132.6 131.8 128.9 128.4 125.7 128.2 131.9 134.9 141.1 150.8 154.3 158.5 163 165.7 166.7 166.3 169.2 171.7 173.2 176.1 179.5 181.7 183.5 184 184 184.9 186.1 188.2 189 187.2 181.5 175.5 167.1 164.1 161.1 158.2 155.7 154.1 157.5 158.1 159.4 161.4 164.3 166.1 167.3 167 162.9 156.4 156.9 159.3 162.8 166.8 173 183.1 193.4 202.3 208.9 213.5 217 219.7 223.5 227.3 231.1 238.3 243.1 247.4 249.6 253.2 255.3 257.9 260.2 261.9 263.6 264.7 265.5 268.2 268.3 265.7 262.6 260.3 260.2 260.7 261.7 263.8 266.1 268.2 268.4 267.3 266.4 262.4 257.6 255.6 254.3 252.9 252.6 252.1 252.7 252.5 250.6 252.9 256.6 257.1 256.7 255.3 253.1 251.6 250.7 249.5 247.7 243.2 239.7 235 229.5 226.9 224.9 223 218.3 221.4 223.1 227.7 235 239.9 245.6 252.4 260.3 267.6 274.3 281.4 282.6 285.5 288.5 291.5 295 299.9 304.5 307.9 312.5 316.7 324.7 332.1 339.1 351.5 359.5 361.4 357.8 350.3 341.2 330.1 322.6 338 349.5 353.3 359.8 367.1 373.3 377.3 381.2 383.9 386.1 387.5 387.4 385.9 382.5 379.6 375.4 370.9 364.4 355.6 349.6 344.4 339.3 329.4 316.6 303.4 290 271.6 259.4 253.9 248.8 245 235.3 233.4 229.5 225.2 222.9 216.7 204.1 199.9 206.5 203.8 203.5 201 199 198 196.3 194.5 193.8 194.6 196.6
135.9 136.6 134.5 133.3 133.2 131.1 126.5 129.6 133.6 138.9 148 153.3 155.8 159.2 162 163.7 163.8 166.5 168.8 171.9 175.7 178.6 180.4 181.3 181 180.6 182.7 186.6 186.3 184.3 178.2 172.5 163.9 160.9 159.3 156.3 153.3 151.1 152.5 154.4 155.8 157.4 159.8 162.6 164 165.2 165.2 160 155.9 155.7 159 162.6 166.9 173.7 186.8 196.8 204 212.8 217.9 222.1 226.4 229.4 232.6 234.9 237.8 242.4 247.2 250.4 253.9 257.7 259.8 262 263.5 265.2 266.2 267.6 269.6 268.5 266.3 263.1 261.1 261.3 262.3 264.1 266.9 268.6 271.7 272.2 272.1 270.7 267.3 262.3 258.6 257.3 256.8 255.6 255.1 254.9 254.9 255.3 254.6 257.4 258.3 257.8 254.6 255.1 253.8 254.2 254.1 252.9 248.9 242.1 237 233.5 230.7 228.3 225.4 220.4 223.8 224.4 229.9 236.3 239.8 245.3 252.9 260.6 268.5 276 283.1 285.4 287.6 292 295.6 299.2 302.7 307.7 310.9 316.9 323.2 330.3 337.6 346.3 360 365.6 364.2 359.6 353 346.3 330.2 334.3 344.6 348.5 352.9 361.1 368 375.2 381.1 385.9 389.2 390.6 390.8 389.9 389 386.1 383.3 379.9 377 373.1 364.7 359.4 355.9 348.9 334.6 319.3 302.6 282.8 267 257.9 252.8 247.3 242.4 237.3 238.6 238.5 232.7 226.5 215.4 200.7 209.6 209.8 207 206.3 205.9 201 199.6 197 194.9 193.6 196.1 199.2
138.9 140.2 138.4 137.6 141.8 138.9 130.3 128.5 131.8 136.9 144.3 150.2 153.7 156.8 158.8 160.3 161.2 164.1 167.2 170.4 173.4 176.1 177.6 177.8 176.5 177.2 181.2 185.5 183.9 177.6 167.8 162.7 158.4 155 152.9 146.7 144.7 145.6 147 151.5 153.7 156.5 158.6 161.2 162.3 163.4 161.3 159.6 155.2 155.9 158.9 163 169.5 178.4 192.1 202 208.5 215.6 221.5 226.3 229.9 233.4 236.9 239.7 241.1 242 247.4 250.8 254.6 258.3 260.7 263.1 264.6 266.2 267 267.8 269.4 268.7 268 265.1 262.5 263.3 264.4 267.2 271.3 273 274.5 275.5 276 274.6 272.9 268.5 262.2 260.5 260.2 260 258.6 258.9 259 257.3 256.3 258.4 259.4 258.8 257.4 257.4 256.1 257.3 258.3 255.8 252 246.1 239.7 235.4 232.9 231 227.8 223.5 231.1 230.9 231.4 237.7 241.4 245.6 250.9 260.2 270.5 278.3 284.5 287.4 291.3 296.2 299.4 302.3 305.2 309.6 315.3 322.5 329.4 336.2 341.9 350.3 362.2 365.9 363.1 358.9 352.7 342.5 335.3 335.2 342.4 350.1 355.8 362.4 369.4 377.9 384.6 389.3 391.4 390.7 390.2 389.5 387.7 385.9 384.1 381.7 379.5 376.1 372.1 365 359.9 352.9 336.4 319.5 298.7 276.3 265.1 257.7 250.6 245.8 241.2 243.7 243.7 241.5 234.7 228.6 213.8 204.4 215.3 211.7 209.8 208.8 207.2 202.7 200.9 197.3 194.8 195.9 199.2 200.1
141.5 143.7 144.2 143.6 144.7 144.4 137.4 131.5 130 135 143 149.8 152.3 153.5 155.8 157.8 161.3 163.9 166.4 169 171.6 173.4 174.2 173.5 171.8 170.8 176 178.9 176.5 167.9 163.3 160.5 156.8 151.3 144.7 144.3 145.3 146.2 147.5 147 152.4 156 158.8 160 160.8 159.6 157.1 156.4 154.5 155.3 158.5 164.4 174.3 186.7 200.2 209.2 213.8 219.8 225.4 228.7 232.4 235.7 239 242.6 245.7 246.4 247.9 251.3 255.4 259.4 262.7 264.2 265.7 267.2 267.6 267.5 268.7 268.8 267.8 265.4 264.5 265.1 266.5 271.3 274.8 275.9 275.6 277.5 278.9 277.6 275.7 272.3 266.4 263.3 262.9 261.9 262.1 261.3 259.6 257.1 257 259.5 260.4 259.9 259.3 258.8 257.8 258.8 260.5 257.1 252.9 248.3 242.1 238.1 234.9 233 230.7 224.3 236 236.8 230.8 238.1 243.5 247.6 254.2 262.9 272.5 280.4 286.6 290.1 295 298.8 300.8 303.5 307.1 312.2 320.3 328.7 335.3 341.3 345.6 352.3 359.6 362.2 360.7 357.3 350.9 340.1 336 345.3 347.5 354.6 360 365.6 372.3 381.2 387.2 389.7 390.2 389.6 388.5 387.3 386 384.3 382.6 380.5 378.8 375.9 372.1 365.2 356.3 350.4 334.2 316.2 295.2 274.6 262.4 255.9 250.2 246.2 244.7 245.2 242.9 240.5 234.1 227.7 206 220.6 218.9 214.1 211.9 209.7 207.9 205.5 202.7 198.8 198.9 198.8 200.2 201.1
141.5 145.2 148 148.7 148.7 148.2 146.3 146.4 133.4 132.5 140.9 149.4 150.2 145.8 154.2 157.8 161.6 165.4 166.9 167.9 168.4 169.3 171.4 170.6 168.6 167.5 167.5 167.1 164 159.6 160.2 157.6 154.7 148.9 142.5 146.5 148.2 150.9 149.2 147.6 151.2 155.3 158 157.6 157.8 156.7 155.6 154.3 153.9 154.2 158.8 169 182.6 195.5 206.4 214 220.1 226.2 229.8 233.4 235.4 238.3 241.7 244.4 249.4 251.8 252.1 254 256.1 261.9 263.8 265.3 266.8 268.1 268.6 268.8 269.1 269.2 269.5 268.2 267 269.7 269.8 274.3 276.9 278.1 277.4 278.7 279.7 278.6 277.5 276.4 272.2 267.1 265.3 264.8 263.7 262.6 260.6 257.1 259 260.2 261.3 260.9 260.4 259.5 259.9 260 260.6 257 252.5 247.9 243.1 241.1 238 236.1 234.8 227.4 236.7 240.9 238 238.5 244.4 251.2 257.7 266.1 273.8 282.5 288.8 294.1 297.6 300.8 303.1 305.3 309.6 317.6 327 335.1 339.9 347.2 352.1 356.4 358 357.9 356.9 353.5 343.4 346.7 347.7 350.4 355.7 359.7 363.3 371.4 379.6 384.8 388.1 388.9 388.4 387.1 385.8 384.8 383.8 381.8 380.2 378.8 376.8 374 369.8 363 351.4 343 328.3 311.3 294.5 276.6 266.3 258.5 252.5 249.6 248.9 245.7 242.7 238.1 229.7 220.5 223.2 224.6 218.8 216.1 214.1 211.4 209.1 207.1 204.9 201.8 202.7 203 203.2 204
141.1 146 149.4 151.7 152.8 153 152.3 150.8 147.8 134.1 135.7 141.8 144.7 152.4 154.6 157.9 161.8 163.2 163.9 164.2 164.7 166.7 168.8 167.6 166 164.4 160.7 157.2 156.7 156.9 156.1 154.9 148.5 143.1 141.1 144.8 150.8 151.7 150.6 148.2 150.5 154.5 156.1 156.3 157.8 155.8 154.4 154.6 153.9 154.5 159.6 175.4 191.8 203.2 211.2 218.2 224.4 229.6 234.1 237.8 240.9 243.2 246.8 249.7 253.5 257.4 257.6 256.1 255.9 261.2 264.4 266.3 267.8 268.6 269.2 269.8 270.8 272 270.7 270.4 271 272.7 275 277.8 278.8 279.4 280.1 281.4 281.9 280.8 279.8 278.8 276.7 269.8 267.2 266.7 265.5 263.6 261.4 259.6 260 261.1 262.3 262.2 261.7 260.9 260.9 260.9 260.8 257.4 253.1 247.7 244.5 242.3 240.1 238.6 239.3 232.2 239.1 243.5 241.7 242.3 246.3 252.6 260 266 275.1 284.6 293 297.2 299.5 302 303.9 306.6 312.4 322.1 333.5 338.9 344.6 352.7 358.1 359.6 360 357.6 354.9 350.9 350.1 354.8 356.5 359.7 362.9 364.6 369.9 377.1 383.4 387.1 388.5 387 386.4 385.2 383.1 382 380.7 379.4 377.6 376.3 373.4 371.2 366.3 358.3 346.4 334.4 323.8 309.6 294.9 280.8 267.8 259.9 255.5 251.6 247.3 244.8 238.9 233.2 223.4 220.8 226.7 225.7 222.8 218.1 216.5 214.7 212.2 209.8 206.9 204.3 207.1 205.6 206.3 208.3
140.6 145.6 149.5 153.1 155.4 156.8 155.1 153.1 154.7 144.2 134.3 136.9 150.2 156.1 158.9 160.6 162.2 162 161.7 161.7 162.3 163.3 168.4 168.3 163.3 161.3 158.9 153.7 151.3 152.1 150 146.7 142.3 141.6 145.9 151.3 151.2 151.9 151.8 149.3 149.9 152 154.4 155 154.9 155.2 153.8 152.9 153.9 154 161.5 179.6 198.3 208.1 215 222.5 228.5 232.9 237.9 242.8 246.7 249.2 253.8 256.6 259.3 261.7 262.4 261.9 260.6 261.3 263.2 266.7 268.8 269.7 270.5 271.3 273.1 272.5 271.7 273.4 274.6 277 280.2 284.2 282 282.3 282.9 283.1 284.1 283.1 282.2 281.3 279.8 275.9 268.7 268 265.5 264.9 263.1 260.6 261.2 262.4 263.3 263.2 261.2 262 262.4 262.4 261.3 258.4 255 249.9 246.5 244.3 242.1 241.4 243.7 236.1 241.4 245.2 245.7 246.5 250.1 254.2 260.6 267.9 277.5 287.4 296.4 299.1 301.2 303 304.9 307.3 312.4 326.4 336.3 342.7 348 356.5 361.9 362.9 362.8 358.8 356.2 352.8 353.5 357.4 360.8 364.3 366.3 370.1 375.4 382 385.6 387.7 387.2 385.8 384.4 383.2 381.2 379.7 378 376.3 374.9 373.1 370.4 367.1 362.2 353 341.6 327.3 314.4 302.6 291.6 278.4 270.4 264.3 258 253 246.8 243.5 240.5 230.5 230.5 225.1 230.4 231.3 225 219.8 218.5 216.2 214.7 210.9 208.8 207.8 210.4 208.4 211 211.3
140.1 143.4 148.6 154.1 156.6 158.6 159 158.6 153.6 156.3 141.1 135.1 141.3 154.9 160.5 162.8 162.5 162.1 160.1 160.1 159.4 160.9 166.6 167.7 163.7 158.3 154.8 152.9 150 147.3 145.3 142.2 140.8 145.6 151.4 153.8 153.4 152.3 151.7 149.3 150.1 152.4 155.3 154.8 155.5 155.1 153.5 152.9 152.9 155 171.8 189.7 205 211.5 218.6 226.3 233 238.7 244.5 248.8 252.6 255.7 260.1 263.2 264.8 265 265.2 264.3 265.1 265.6 264.7 266.5 270 271.3 272.1 273.4 273.4 272.7 275.3 276.5 280 284.3 286.9 290.8 288.3 286.5 286.6 287.7 287.4 286.4 285.5 284.5 282.5 278.7 271.2 268.4 266.9 266 264.3 263.3 261.3 262.4 262.7 262.7 262.4 263.1 263.4 263.2 260.8 259.2 255.7 252.7 252.3 248.3 244.4 244.8 244.6 237.9 243 247.7 248.9 250.1 253.6 257 262.6 267.8 277.3 287.9 297.9 300.5 302.5 304.3 306 308.6 313.5 323.5 334.6 340.9 348 356.9 364 364.7 364.5 360.5 357.9 352.2 355.8 357.9 363.4 366.6 368.6 374.4 380.5 384.6 386.3 385.6 384.6 383.7 382.8 381.4 379.4 377.8 376.9 374.4 372.4 370.8 368.7 365.6 359.7 352.5 342.3 332.7 322.2 310.3 299.3 285 281.1 271.9 264 258.7 250.5 242.5 232.6 234 236.4 231.2 234.4 232.8 228.2 224.8 222.6 219.5 215.6 213 209.8 212.1 213.1 212 211.9 212.7
138.6 142.7 148.5 154.1 157.2 160.1 161.6 161.3 160.3 159.2 154.8 139 135.8 143 154.4 159.7 160 159.4 157.9 157 156.5 158.8 161.8 165 158.4 153.7 155.2 149.4 147.9 144.9 145.4 140.1 140.9 150.5 154.5 155.3 155.5 154.5 152 149.1 150.2 152.8 155.2 156.3 155.3 154 153.5 154.3 154.4 163.8 184 198.1 207.5 214.6 222.1 229.8 237.6 244.5 250.7 254.5 259.2 263.1 265.9 267.1 268.8 268.9 268.3 267.5 267.7 268.1 268.4 268.3 271.1 272.5 273.7 273.6 273.5 274.2 277.5 280.4 284.6 288.7 292.2 293.9 293.7 292.1 290.8 290.5 290.8 289.8 288.9 287.4 285.4 282.8 276.1 270 268.8 267.3 266.2 264.2 263.5 264.1 264 263.9 263.7 264.1 264.3 264.5 262.3 261.6 258.8 258.2 256.1 253.8 247.7 246 244.3 236.3 243.4 248.7 251.9 254.8 256.3 259.4 264.8 271.4 278.8 287.9 298.5 301.9 303.8 305.6 307.4 310.4 314.4 325.1 333 337.6 344.5 354.3 364.9 368.8 366.5 361.2 360.1 357.6 357.1 360.6 366.3 369.7 372.5 378.7 381.7 384.5 385.4 384.8 383.2 382.3 381.3 379.3 377.4 375.9 374.4 371.8 368.9 367.8 366 364.5 360.2 354.6 345.6 336.1 328.7 313.5 297.4 295.1 285.2 275.5 267.1 262.4 254.7 240.6 237.5 242.7 239.1 231.5 238.5 236.4 233.1 227.4 224.3 221.9 217.6 216.6 214 214.7 215.9 213.1 213.6 216.8
138.3 142.5 149.1 155 158.1 160.7 162.7 163.1 161.6 160.6 159.1 147.7 139.1 137.9 138.8 143.8 151 157.9 155 153.4 155.8 158.5 161 162.3 156 155.1 153.2 147.8 150.9 147.9 141.8 139 141.9 151.8 154.3 154.8 155.1 155 153.5 150.3 149.8 151.4 153.7 154.5 154 152.6 152 153 155.2 176.8 189.7 201.2 211.7 219 226.3 234.3 242.4 252 256.6 262.2 266.1 268.1 269.8 271.2 272.5 272.3 271.3 270.7 270.5 270.4 271.5 270.3 270.5 272.5 274.2 274.9 275.1 275.7 280.4 284.2 288.9 291.9 295.7 296.5 295.9 294.4 293.6 293.6 294 293.1 291.9 290.3 288.3 285.6 279.7 276.2 270.8 268.9 267.9 266.4 264.8 266.1 265.2 265.1 264.9 265 265.5 265.9 264.3 263.8 261.8 261.7 260.3 258.6 254 249.2 246 235.4 245 250.6 254.2 258.7 261 262.9 267 274.4 281.5 287.7 297.2 303.2 305.2 307 309.1 311.5 315.4 323.3 328.2 333.9 342.5 354.8 367 373.3 370.2 363.7 363 361.6 355.4 360.1 368.3 372.8 376.2 380.9 383.7 385 384.6 383.8 382.5 380.2 379.6 377.6 375.8 373.1 370.3 367.5 365.8 364.7 363.4 362.3 358.5 353.9 345.9 334.8 325.7 313.8 311.8 299 285.8 281.3 271.7 268.3 253.2 243 252.1 249.7 244.7 238.2 244.8 237.8 233.3 230.1 227 223.4 224.1 222.7 220 219.2 218.2 216.8 216.4 219.2
138.1 143.3 150.3 155.1 158.9 161.2 162.9 161.9 160.7 160 158.8 158.2 150.4 138.4 137 137.2 140.2 143.1 149.2 157.9 156.3 159.4 161.3 160.5 150.4 148.7 153.3 153 153.6 151.6 143.6 140.5 149.5 150.2 152.3 152.9 153.5 149.6 152 152 149.3 149.8 151.4 152.4 153 151.2 151.8 152.7 167.8 183 194.2 206.3 213.3 221.7 230.4 238.1 247.3 258.1 265.2 267.6 269.7 271.2 272.8 274.2 275.6 275.5 274.6 274.5 274.5 274.3 273.5 273.5 273.6 273.8 274.5 275.5 276.2 278.5 282.4 288.2 292.3 295 297.2 297.4 298.4 297.8 296.8 295.6 295.4 295.2 293.9 292.6 290.9 287.7 284.3 279.7 274.7 273.3 272 268.9 267.4 267.9 268.4 267.8 267.9 269.3 269 269.6 268 267.2 264.9 265.1 266.2 266.1 257.3 251.6 246.3 236.3 248.2 252.9 257.6 262.8 265 265.3 270.2 277.9 282.8 290 298.2 303.8 306.3 308.5 310.3 312.5 317.1 321.5 326.9 331.5 339.1 353.6 367.9 376.1 373.4 365.8 364.6 362.5 364 366.7 368.7 374.2 378.2 381.5 383.6 383.9 383.6 382.7 380.9 378.4 377.3 374.7 370.5 367.4 362.5 359.9 360.4 360.4 360.5 358 354.5 349.2 340 331.1 321.5 316.7 309.6 298 291.1 283.7 275.6 266.4 250.8 266.2 260 255.1 245.2 247.8 244.4 239.8 236.2 233.2 230.5 225.5 229 225.9 224.3 223.2 221.3 219.9 217.5 222.7
