ncols 200
nrows 82
xllcorner 280000
yllcorner 933100
cellsize 50
200.5 200.5 203.2 205.7 207.1 208.3 209.1 209.9 210.9 211.5 212.7 214 216.5 217.5 219.7 221.8 223.3 224.3 225.5 227.4 228.1 229 229.8 230.4 230.6 230.2 229.4 230.5 233.2 236.5 238.9 240.5 243.9 245.7 247.9 251.3 256 261.7 264 262.3 236.4 221.4 210.1 203.3 197.4 192.2 187.3 184.2 181.2 178.2 175.2 172.6 171.4 170.4 169.5 168.5 165.2 163.8 168.3 171.1 174.9 178.4 181.9 184.3 185.5 185.6 187.4 188 188.3 188.7 189.2 188.6 189.9 190.7 191.5 192.2 192.7 192.8 192.8 194.2 195.7 196.6 197.2 197.7 198.2 198.4 198.5 200.1 203.2 206.3 210.6 214.5 218 224 229.8 233.7 237.3 241 244.4 248.7 253.6 258.7 259.8 261 261.4 260.7 253.2 243.5 234 219.7 215.3 206.3 191.4 174.2 163.5 155 148.5 144.1 139.1 133.4 125.9 125.9 125.9 125.9 125.9 125.9 125.9 125.9 125.9 125.9 125.9 125.9 125.9 125.9 125.9 125.9 125.9 125.9 125.9 125.9 125.9 125.9 125.9 132.3 133.8 135.2 136.8 138.5 138.5 139.4 140.5 140.3 140.4 142 143.4 144.6 148.2 151 153.7 153.9 152.8 152.8 154.3 156.2 157.6 158.1 159.9 160.8 161.6 162.4 162.4 162.3 162.9 163.7 164.5 165.8 166.1 165.6 164.4 163 161.9 159 157.2 151.6 152.7 149.5 150.4 152.2 161.7 163.8 165.5 165.3 168.7 169.4 169.9 171 172.4 171.8 172.8 175
203.3 203.5 204.5 206.4 207.7 208.5 208.9 209.5 210.2 210.8 210.5 210.1 210.8 212.3 214.4 216.7 217.9 218.7 221.2 223.2 223.7 224.2 224.8 225.3 224.8 225.7 224.6 226.3 228 230.7 233.9 235.1 237.4 239.5 242 245.5 250.4 253.7 261.2 258.4 234.6 221.1 209.9 203.5 198.3 193 187.6 183.9 180.9 177.9 175.1 172.5 171.3 170.3 169.4 168.3 166.9 163.2 167.4 170.1 172.1 173.4 176.6 180.1 182.2 183.5 184.9 185.9 186.2 186.6 187 186.6 186.9 189.1 189.9 190.6 190.9 190.3 190.8 192.6 194.7 196.2 196.2 196.5 196.6 196.2 195.8 197.3 199.7 202.9 206.3 210.3 213.9 218 223.1 226.3 230.9 234.7 239.1 242.6 245.4 248.4 249.4 250.4 251.6 251.9 249.1 244.8 233.7 218.8 213.3 207.1 195.4 177.2 164.5 156.7 150.4 145 140.1 135.6 125.9 125.9 125.9 125.9 125.9 125.9 125.9 125.9 125.9 125.9 125.9 125.9 125.9 125.9 125.9 125.9 125.9 125.9 125.9 125.9 125.9 125.9 125.9 131.3 132.4 132.8 134.2 136.1 135.9 137.4 138.2 139.5 141.3 143.4 145.2 146.1 148.9 150.3 154.2 153.7 152.8 152.8 152.8 152.8 154.8 158.6 159.5 160.4 161.4 161.5 161.5 161.8 162.2 163 164.3 166.7 166 165.2 163.7 163.3 161.1 156.5 154.4 151.2 151.7 148.3 152.4 154 161.3 165.2 167.1 168.4 168.6 170.1 171 171.8 172.1 172.8 173.4 174.2
206.6 206.9 207.4 208.4 206.9 207.2 208.1 208.9 209.7 209 208.4 207.9 207.5 207.1 208.8 211 212.1 214.5 216.9 218.2 219.5 220 220.6 220.7 221.6 221.9 220.7 221.7 223.1 224.6 227.2 229 231.3 233.2 236.4 240.8 244.2 248.7 255.7 248.5 231.5 219.5 209.9 203.9 198.8 193.4 188.1 184.2 180.6 177.6 175 172.5 171.2 170.2 169.1 168 166.5 162.6 167 168.6 170.1 171.3 174.4 178.5 180.2 181.6 182.9 184.1 184.3 184.5 184.9 185 184.8 187.1 188 188.8 189 187.5 189.6 191.4 193.4 193.5 193.6 194.3 194.4 193.8 193.4 194.3 196.5 199.3 202.8 206.5 209.5 213.3 215.7 218.2 222.4 227.7 230.6 234.7 237.5 238.5 239.9 242 243.3 244.6 244.9 242.2 229.4 218.4 212.2 207.7 193.7 177.3 167.4 157.7 149.9 144.6 140.1 135.4 125.9 125.9 125.9 125.9 125.9 125.9 125.9 125.9 125.9 125.9 125.9 125.9 125.9 125.9 125.9 125.9 125.9 125.9 125.9 125.9 125.9 125.9 125.9 129.7 130.5 132.9 134.6 135.3 136.8 138.2 139.2 140.3 141.7 143.9 146.1 147.8 149.6 151.2 152.5 154.5 153.2 152.8 152.8 152.8 152.8 158.4 159.5 160.6 161.2 160.6 161 161.4 161.8 162.3 164.3 166.6 165.7 164.8 162.9 161.1 159.4 155.3 153.5 152.3 154 147.6 149.8 154 161.5 164.9 167.9 167.7 169.3 170.8 171.3 171.9 172.6 173.2 173.8 174.5
211 210.7 211.4 211.2 210.6 210.9 210.9 210.9 209.5 208.2 206.8 206.4 206 205 204.2 205.4 207.7 210.2 212.6 213.8 215.3 215.8 216.1 217 218 218.4 217.7 217.4 218.4 219.5 220.7 222.7 225.7 226.9 230.3 233.8 238.2 244.2 246.5 236.7 226.3 217.6 208.8 203.2 198.2 193.2 188.3 184.5 180.7 177.5 174.9 172.3 171 169.9 168.8 167.8 165.5 162.4 165.9 166.9 168.1 171 173.3 175.5 177.4 179.2 180.9 182.2 182.5 182.6 182.4 182.3 183.4 185.1 185.9 186.7 186.6 187.3 188.4 190 191.1 190.9 190.7 190.7 191.3 191.4 191 191.6 193.3 195.4 199 202.9 205 208.1 210.7 211.8 214.3 219.4 223.4 225 226.9 229.4 231.6 233.7 235 236.2 237.4 235.2 225.5 218.5 213 202.3 189.2 175.1 168.4 160.3 152.6 144.3 139.9 136.5 132.7 125.9 125.9 125.9 125.9 125.9 125.9 125.9 125.9 125.9 125.9 125.9 125.9 125.9 125.9 125.9 125.9 125.9 125.9 125.9 125.9 125.9 125.9 127.9 130.7 132.6 135.2 136.4 137.7 139.2 140.2 141.3 142.4 144.4 146.4 148.5 151.3 153.3 154.5 154.7 154.5 153.2 152.8 152.8 152.8 157.6 159.2 160 159.6 159.8 160.3 160.7 161.1 161.4 163 164.7 164.6 164 161.9 159.9 158.2 156 154.8 153.8 152.5 146.9 149.6 154.3 163.2 166.2 168.4 167.8 169.9 172.1 170.8 171.6 172.3 173.1 173.9 174.8
216.4 215.5 215 214.4 213.8 213.1 212.9 211.8 210.2 208.6 206.6 205.3 204.6 204 202.9 202.3 204.1 206.2 208.3 209.5 210.8 211.9 213.1 213.5 214.2 214.6 214.4 214 214.8 215.8 215.9 217.5 218.6 220.7 223 226.4 232.3 235.9 233.7 226.4 220.7 214.9 207.6 201.4 196.4 191.5 187.5 183.7 180 176.9 174.3 172.4 170.9 169.5 168.3 167.3 164.8 163.7 163.2 164.4 167.3 169.4 171.6 172.7 174.4 176.3 178.1 179.9 180.3 179.9 178.7 179.4 181.2 182.8 183.3 184 184.6 186.2 187.1 188.6 188.6 188.7 188.8 188.8 188.6 188.5 188.7 190 191.2 192.5 194.9 198.4 200.9 203.3 205.8 206.2 208.8 211.3 214.9 217.7 218.4 221.2 222.4 225.4 226.7 228 228.5 226.7 221.3 216 209.7 200.6 187.2 174.5 167.7 158.8 152.5 144.1 141.4 135.8 131.1 125.9 125.9 125.9 125.9 125.9 125.9 125.9 125.9 125.9 125.9 125.9 125.9 125.9 125.9 125.9 125.9 125.9 125.9 125.9 125.9 125.9 125.9 131.4 132.5 133.9 135 135.3 136.7 138.5 140.1 141.7 143.2 144.8 147.3 150.4 152.6 154 155.7 156.2 156.1 154.1 152.8 153.2 153.7 159.2 159.8 159.9 158.8 158.7 159.1 159.5 159.8 160.1 161.3 162.5 163 162.3 161.2 159.2 158 156.7 156.6 154.7 147.4 146.6 150.4 152.5 161.4 164.7 165.7 167.4 168.6 169.7 170 170.8 171.6 172.3 173.5 174.3
222.3 221.8 220.5 219.1 218.5 217.2 215 213.4 211.3 209.9 208.1 206.1 205.3 203.5 201.4 201.2 201.9 204.4 206.7 207.7 208 208.8 209.1 209.9 210.4 210.8 210.8 211 211.1 211.1 211.1 212.5 213.5 214.5 217.4 219.9 224.5 227.6 221.7 217.5 215.5 210.2 205.2 200.1 194.7 190.7 186.6 183 179.4 176.2 174.4 172.5 170.9 169.7 168.5 166.8 166.1 164.2 161.6 164.5 166.9 169 170.5 171.3 172.3 174 175.7 177 177.5 177.6 176.2 177.4 178.6 180.1 181.1 180.4 183 184.3 185.6 186.6 186.7 186.8 186.9 186.8 186.8 186.7 186.9 188.1 189.2 190.5 192.4 194.8 196.8 199.1 201 201.4 203.8 205.8 207.2 210.2 211 212.4 214.8 216.6 218.8 219.8 219.4 218.1 215.9 213.2 209.6 199.2 182.4 175 170 162.2 153.3 144 141.6 137.2 130.2 125.9 125.9 125.9 125.9 125.9 125.9 125.9 125.9 125.9 125.9 125.9 125.9 125.9 125.9 125.9 125.9 125.9 125.9 125.9 125.9 125.9 129.9 130.6 132.7 133.8 134.5 134.2 136 137.8 139.4 141.3 143.2 145.9 148.1 152.4 153.9 155.2 155.9 156.6 156.3 155.7 153.8 154.9 156.9 157.8 159.8 159.4 158.3 157.5 157.8 158.1 158.4 158.8 159.2 160.2 160 159.3 159.6 158.4 156.6 155.7 156.4 158.6 149 145.9 146.5 152.2 162.3 163.9 165.1 167.1 169 168.5 169.2 170 170.7 172 174.1 174.1
229.1 227.1 226.2 224.5 223.4 221.4 219.6 217.5 215.2 212.2 210.3 208.8 207.7 205.2 203.4 202.5 200.8 202 204.6 204.8 205.3 205.7 206 206.8 207.5 207.7 206.6 208 207.9 207.7 207.3 207.2 208.4 209.4 210.8 213.1 216.1 217.7 214.6 212.3 211 206.9 201.9 197 192.7 188.7 185 181.6 178 176.4 174.5 172.7 171 169.6 168.5 167.3 166.6 164.5 161.9 165 166.6 168.1 169.1 169.9 170.3 172 173.6 174.7 175.1 175.1 174.7 176 177.5 178.5 177.9 179.9 181.2 182.6 184 184.9 185.1 185.2 185.2 185.1 185 184.9 185.2 186.3 187.5 188.7 189.8 191.8 193.8 194.5 196.1 197.2 199.1 201.2 201.3 203 203.9 205.4 206.9 208.8 211.5 212.5 211.2 210.7 208.6 205 202.1 192.8 179.1 175 168.4 163.3 152.9 144.2 139.4 136.5 129.5 125.9 125.9 125.9 125.9 125.9 125.9 125.9 125.9 125.9 125.9 125.9 125.9 125.9 125.9 125.9 125.9 125.9 125.9 125.9 125.9 125.9 131.3 131.2 131.5 132.1 132.4 133.9 135.8 137.8 139.6 141.7 143.8 146 149.3 152.2 154.8 155.6 156.9 156.9 156.6 156.1 155.4 156.4 158.2 159.3 158.8 158.6 157.5 156.5 156.9 157.3 157.7 157.7 157.5 157.7 158.9 158.5 157.6 157.6 154.9 154.4 154.7 155.9 148.4 145.3 145.5 154.1 160.1 161.8 164.2 166.5 168.8 168.4 168.5 169.2 170.5 172.7 173.9 175.1
234.3 232.4 232 230.6 228 226 223.7 221.4 219 215 213.1 211.6 209.2 206.9 205.5 204.2 203.3 200.3 201.3 201.9 202.4 203.2 203 204.5 204.8 205 202.7 204.9 204.9 204.9 203.6 203.5 203.7 204.4 205.7 207.6 209.4 210.5 209.6 208.3 206.4 203 198.6 194.1 189.8 186.1 182.8 179.6 176.6 176.3 175 172.9 171.1 169.5 168.1 166.5 165.9 164.3 159.8 162.7 165.3 166.7 167.7 168.5 168.8 169.9 171.8 172.6 172 171.8 174.5 175.5 176 176.6 175.5 178.2 179.6 181 182.4 183.1 183.5 183.6 183.7 183.7 183.6 183.4 183.8 185 185.9 186.8 187.7 189.5 191.1 191.8 192.3 193.1 195 195.3 196.1 196.4 196.2 199.7 200.4 200.5 203 205.8 204.9 203.5 201.2 197.4 193.8 185.2 178.9 175.1 169.6 161.7 152.5 147 139.5 133.9 129.7 125.9 125.9 125.9 125.9 125.9 125.9 125.9 125.9 125.9 125.9 125.9 125.9 125.9 125.9 125.9 125.9 125.9 125.9 125.9 125.9 125.9 125.9 128.6 130.6 131.8 133.7 135.1 137.2 137.9 140.1 142.3 144.5 147 150 152.9 155.7 157.3 157.8 157.4 157 156.4 157.4 158.3 159.1 160.6 158.5 157.8 156.8 155.9 156 156.5 156.9 156.6 156.4 156.2 156.1 156.6 156.6 156.5 154.3 153.9 153.7 153.4 148.9 145 146.5 148 158.8 160.9 164.2 166.5 168.2 166.9 167.7 168.3 169.3 172.3 174.4 175.4
240.9 238.4 238 236.7 234.8 232.4 229.2 226.2 223.2 220.1 216.2 214.3 210.7 208.8 207.6 206.3 205 203.7 202.2 201.3 198.3 198.9 199.9 201.9 202.2 202.4 200.2 201.5 201.5 201.1 200.1 200.2 200.3 200.5 201 201.7 203.1 204.8 204.3 204.1 202.1 198.6 194.7 190.8 187.4 184.4 181.3 178.2 176.4 176 175.1 173.5 171.3 169.2 167.3 166.5 165.1 163.6 159.7 161.9 163.8 164.3 166.3 167.1 167.4 167.9 169.6 170.7 169.9 170.4 173 173.6 174.1 174.4 173.3 177.1 178 179.4 180.7 181.3 181.8 182.1 182.1 182.1 182.2 181.7 182.7 183.4 184.2 184.9 185.8 187.1 188.4 189.2 189.8 190.6 191.5 191.8 192.4 192.8 192.8 192.6 194.6 195.2 195.3 196.9 198.3 197 194.8 190.8 187.6 181.8 176.8 173.5 170.1 159.7 151.9 147.7 138.5 132.8 131.8 125.9 125.9 125.9 125.9 125.9 125.9 125.9 125.9 125.9 125.9 125.9 125.9 125.9 125.9 125.9 125.9 125.9 125.9 125.9 125.9 125.9 125.9 125.9 125.9 128.3 132.2 135.7 137.4 138.3 140.7 143 145.1 148.6 151.8 154.6 157.5 158.7 158.3 157.9 157.4 157.9 158.4 158.9 160.1 160.8 159.1 158.8 156.6 155.2 155 155.6 155.8 155.7 155.6 155.5 155.2 154.6 154.1 153.6 153.1 152.2 152.7 153.9 153.6 144 144.6 149.6 158.2 160.6 162.2 164 166 163.8 166.9 167.4 167.8 170.9 173.4 173.7
246.8 247.8 243.7 241.7 241 237.8 233.8 230.2 226.8 223.6 220.3 216.8 212.7 210.5 209.1 207.7 206.4 205 204 202.6 201.3 200 196.4 198.4 199.7 199.6 196.5 198.1 198.1 197.6 197.2 197.2 197.3 196.7 196.2 196.8 197.6 198.6 199.4 199.3 197.8 194.2 191.4 188.5 185.8 182.9 179.9 176.9 176.4 175.3 174.3 173 171.9 170.3 168.7 166.4 164.2 162.9 159.8 160.1 161.5 163.1 164.5 165.6 165.6 165.6 166.9 168.5 168.7 169.6 171.5 171.9 172.5 170.9 173.7 175.6 176.9 177.8 178.9 179.4 180 180.5 180.5 180.5 180.5 180.2 181.2 182.4 183.1 183.8 184.5 185.1 186.3 187.2 187.5 188.1 188.4 188.8 188.9 188.3 187.8 188.5 189.4 190.3 190.5 188.9 186.7 189.3 187.8 183.2 177 175.2 172.6 169.9 167.3 157.7 154.1 147.3 139.4 133.1 128.7 125.9 125.9 125.9 125.9 125.9 125.9 125.9 125.9 125.9 125.9 125.9 125.9 125.9 125.9 125.9 125.9 125.9 125.9 125.9 125.9 125.9 125.9 125.9 125.9 126 130.2 134.3 137.6 138.7 140.9 143.5 146.3 150.2 153.6 156.5 159.5 161.2 160.6 159.9 159.1 158.3 158.9 159.5 161 160.9 159.9 157.9 156.6 154.1 154.5 155.3 155.5 155 154.9 154.8 154.4 153.1 151.9 151.2 150.7 150.7 152.5 154.4 155 144 143.9 145.7 156.1 156.9 159 161.6 162.6 161.6 163.9 165.2 165.6 168.7 171.8 174.2
250.4 249.5 247.1 245.6 244.9 241 237.5 234 230.3 226.9 223.7 219.8 215.1 211.7 210.3 209 207.6 206 204.7 203.4 202 200.2 199.3 196 195 195.9 193.8 195.7 195.7 195.2 194.4 194.2 193.5 192.6 192.1 191.9 192.7 194.3 195.4 195.2 194.1 192.4 189.6 186.7 184 181.3 178.5 176.8 175.8 174.7 173.6 172.5 170.4 168.8 167.8 166 163.5 161.8 160.3 158.3 158.1 160.6 162.5 163.6 164.1 165.4 166 166.8 166.8 168.6 169.8 170.8 169.8 170.4 173.7 175.2 176.2 176.6 177 177.6 178.2 178.7 178.9 178.8 178.8 178.7 179.8 181.2 182 182.6 183.2 183.8 184.4 185.4 185.7 185.7 185.6 185.6 184.4 183.7 183.5 184.2 185.2 186 186.4 186.6 185.3 181 177.9 175.8 173.1 170.1 165.9 164.3 163.2 160.9 152.4 144.7 137 134.8 130.6 128.1 130 125.9 125.9 125.9 125.9 125.9 125.9 125.9 125.9 125.9 125.9 125.9 125.9 125.9 125.9 125.9 125.9 125.9 125.9 125.9 125.9 125.9 125.9 125.9 129.8 134 137 138.7 141.6 144.3 147.8 151.7 155.5 158.5 161.5 163 162.5 161.6 160.8 160 159.3 160.4 161.9 162.9 160.9 158.6 156.4 154.7 154.3 155.2 155.4 154.9 154.4 154.1 153.3 151.6 150.8 150 149.9 150.1 150.7 153.7 153.4 149.4 143.4 143.2 151.2 153.1 155.1 158.6 160.3 158.5 161 161.4 163.2 163.8 169.6 173.6
253.6 251.5 250.2 249.3 247 243.5 240 235.9 233.3 229.9 226.5 221.2 216.5 212.7 211.2 209.7 208.2 206.3 205 203.7 202.4 200.4 198.6 197.2 194.6 192.2 191.6 193.7 193.6 193.6 192.4 190.6 189.6 188.6 188.1 187.9 188.3 189.6 190.8 191.9 191.1 189.7 187.8 184.9 182.2 179.5 177.1 176.3 175.2 174.1 173 172 170.6 169.2 167.8 165.6 163.9 162.7 161.3 160.1 159.5 158.8 161.5 162.5 162.8 164.6 165.5 164.9 166.5 167.5 168.2 168 169.3 171.3 172.8 173.9 175.1 175.7 175.9 176 176.2 177 177.5 177.4 177.3 177.1 178.5 180 180.8 181.4 181.9 182.5 183.1 183.7 183.7 183.6 183.5 182 180.9 180.6 180.3 180.2 181.1 181.1 181 180.9 180.5 180.3 174.7 173.9 170.1 167.3 164.9 162.8 160.9 159.6 153.5 140.6 137.3 134.9 132 130.5 131.7 125.9 125.9 125.9 125.9 125.9 125.9 125.9 125.9 125.9 125.9 125.9 125.9 125.9 125.9 125.9 125.9 125.9 125.9 125.9 125.9 125.9 125.9 125.9 131.2 133.4 135.9 139.2 142.3 145.2 149.4 153.5 157.4 160.4 163.3 165 164.1 163.3 162.5 161.2 160 160.1 161.2 162.1 161.4 159.7 157.4 154.8 154 155.2 155.1 154.9 154.4 153.8 152.1 150.5 149.8 149 149.2 149.1 149.7 151.1 152.5 149.9 142.3 146 152.1 150.4 153 154.9 156.7 156.8 155.9 160.3 163.5 166.5 170.5 172.9
255.8 254.1 253.2 251.9 248.9 245 241.1 237.1 234.7 232.7 228.2 222.6 216.9 213.5 211.8 210.3 208.7 206.7 205.3 203.7 201.7 199.6 197.8 195.5 194 192.8 191.3 191.4 191.6 191.2 189.9 187.4 186.3 185.2 184.7 184.8 185 185.3 186.3 187.5 187.2 186.4 185.3 183.1 180.4 177.8 176.3 175.4 174.5 173.6 172.5 171.4 170 168.7 167.4 165.8 164.7 163.5 162.3 161.2 157.8 159.7 161 161 161.5 163.1 162.9 165 165.8 166.4 166 166.8 168.8 170.1 172 173 174 174.7 174.9 175.1 175.2 175.4 176.1 176 175.7 175.8 177.4 178.9 179.7 180.2 180.8 181.4 182 181.9 181.6 181.5 180.8 178.9 178.1 177.7 177.3 177 177 177 176.8 176.5 175.1 174.4 173.7 171.5 166.5 164.1 163 162.2 160.3 157.5 152 144.4 142.1 140 140.8 139.9 130.5 125.9 125.9 125.9 125.9 125.9 125.9 125.9 125.9 125.9 125.9 125.9 125.9 125.9 125.9 125.9 125.9 125.9 125.9 125.9 125.9 125.9 125.9 125.9 129.2 133.1 136.4 139.6 142.9 146.5 150.7 155.4 159.2 162.1 164.6 166.4 165.2 163.9 162.6 161.3 160.6 160.3 160.6 162.1 161.7 159.9 154.8 152.5 152.6 154.3 154.2 154 153.9 153.3 151.1 149.5 148.8 147.8 146.8 147.7 148.6 149.7 150.3 147.2 141.8 143.9 149.3 147.2 147.9 148.5 149.4 157.5 158.4 161.3 164.3 167.8 171.2 173.2
256.5 255.5 254.4 253.4 250.1 246.1 242.2 237.8 235.5 232.7 228.3 222.6 217.1 214.6 212.8 211 209.1 207.1 205.2 203.3 201.3 199.4 197.7 196.4 195.1 193.6 192.2 187.5 188.1 188.6 187.2 185.2 184 182.8 181.8 181.8 181.8 181.8 181.7 183.1 183.1 182.7 181.6 180.6 178.7 176.2 175.4 174.6 173.7 172.8 171.9 170.7 169.2 167.8 166.7 165.9 164.9 163.8 162.7 160.6 157.6 159.5 160.6 159 160.4 161.9 163.7 164.2 164.9 165.5 164.4 167 168 169.6 171.1 171.9 172.2 172.7 173.2 173.6 174 174.4 174.6 174.3 174 174.8 176.7 177.7 178.5 179.1 179.7 180.3 180.5 180.1 179.7 179.5 178 177 176.1 175.7 175.3 174.5 175 174.1 174.7 173.9 172.6 173.5 171 168.4 164.2 162.1 160.3 160.2 159.5 153.8 145.5 140.3 136.7 135.1 134.1 134.4 126 127.3 125.9 125.9 125.9 125.9 125.9 125.9 125.9 125.9 125.9 125.9 125.9 125.9 125.9 125.9 125.9 125.9 125.9 125.9 125.9 125.9 125.9 125.9 130.3 134.4 137.3 140.5 143.5 146.4 151.7 156.9 160.9 163.3 165.7 167.5 165.8 164 162.7 161.5 161.2 160.8 160.5 161.6 161.4 159.4 154.8 152.5 151.5 151.1 152.3 152.8 153.2 152.6 150.5 148.5 147.3 146.2 145.8 147.5 148.6 150.6 148.6 140.9 142.8 152.2 153.5 152.3 152.1 153 150.8 153 158 162.2 165.1 168.4 171.7 174.4
257.6 255.9 254.5 252.9 250.2 246.7 242.4 237.7 234.9 231.3 226.2 222 217.6 214.8 213 211.2 209.8 207.9 205.6 203.3 201.2 199.3 197.4 196.2 194.9 193.7 192.2 190.5 187.4 183.7 184.1 183 181.9 180.7 179.4 179.2 179.2 178.6 178.6 178.2 178.8 178.9 178.1 177.5 176.9 174.6 174.6 173.8 172.8 171.9 170.7 169.2 167.8 166.9 166.2 165.5 164.5 163.4 162.3 161.1 156.8 158 158.3 159.8 161.1 162.8 163.3 163.1 163.7 163.9 164.6 166.1 166.9 168 169.1 169.8 170.2 170.7 171.2 171.7 172.2 172.6 173 172.7 171.9 174 175.8 176.5 177.3 178 178.6 179 178.7 178.3 177.8 177 176.2 175.3 174.3 173.6 172.6 171.5 171.1 171.8 171.8 171.3 170.3 169.1 167.8 167.4 164.9 161.2 159.1 156.9 153.2 147.5 142.3 140.2 138.5 137.4 135.9 134.3 131.2 130.4 125.9 125.9 125.9 125.9 125.9 125.9 125.9 125.9 125.9 125.9 125.9 125.9 125.9 125.9 125.9 125.9 125.9 125.9 125.9 125.9 125.9 126 132.4 135.5 138.5 141.4 144.1 147.2 152.6 158 161.6 164.2 166.9 168.5 166.8 164.4 162.7 162.1 161.7 160.9 159.7 160.8 158.7 156.3 153.1 151.6 150.1 150.1 150.9 151.2 152.3 152.8 149.6 147.3 146.2 145.1 144.3 147.1 148.5 151.1 148.8 140.6 146.1 149.2 152.6 153.3 153.6 154.9 159.3 151.9 154.3 160.1 163.9 167.9 171.2 173.5
258.2 256.5 254.7 252.2 250.1 246.4 240.6 237.1 233.6 228.6 225 221.6 218.5 215.3 213 211.5 210.2 207.9 205.9 203.7 201.6 199.5 197.3 195.9 194.6 193.3 191.8 189.9 187.9 185.4 182.4 178.9 179.9 178.3 177.4 177.1 177 176.1 175.5 175.8 176.2 176.7 175.9 175.1 174.3 173.7 173.8 172.9 171.8 170.7 169.2 167.8 167 166.3 165.6 164.9 164.2 163.1 162 161 159.1 156.7 158.4 158.6 160.3 161.7 162.8 162.3 162.6 162.2 164.4 165.3 166 166.4 166.8 167.8 168.1 168.7 169.2 169.7 170.2 170.8 171.2 170.6 170.9 173.3 174.5 175.3 176.1 176.8 177.5 177.2 176.8 176.4 175.6 174.8 173.3 172.3 171.6 171 170 169.3 169 169.9 169.9 169.1 168.2 167 165.8 163.4 162.1 160 159.3 158.1 154.4 147.9 142.1 140.5 139.3 138.3 137.3 136.6 133.2 130.8 131 128.3 125.9 125.9 125.9 125.9 125.9 125.9 125.9 125.9 125.9 125.9 125.9 125.9 125.9 125.9 125.9 125.9 125.9 125.9 125.9 125.9 132 136.4 139.3 141.8 144 147.8 153 159.8 162.6 164.5 166.8 166.8 165.4 165 163.2 162.2 161.5 160.7 159.3 158 155.7 153.6 151.9 150.5 149.1 148.4 149.1 149.7 150.6 150 148.5 146.2 145.2 144.1 142.8 145.5 146.8 147.9 146.5 140.4 152.5 152.7 151.1 153.6 154.8 157.5 160.5 161.9 156.2 155.5 163.8 168 171.4 174.6
258 256.4 254.8 252.8 249.8 245.1 239.1 234.5 232 227.8 224.1 221.6 218.5 215.6 213.4 211.9 210.2 207.4 205.3 203.2 201.2 199 196.6 194.6 193.6 192.8 191 188.9 187.2 185.1 183.5 181.6 178.6 175.8 176.3 175.7 174.6 173.8 174.4 174.7 175.1 175.5 174.8 174.1 173.5 173.1 173 171.8 170.6 169.2 168.3 167.3 166.4 165.6 164.9 164.3 163.8 162.6 161.8 160.8 159.9 157.4 157.9 158 160 160.9 161.8 161.6 160.5 162 163.8 164.4 164.8 165 165.2 165.5 166.1 166.7 167.2 167.8 168.4 169 169.3 168.1 170.9 172.2 173.1 173.9 174.7 175.5 175.9 175.8 175.4 174.3 173.4 172.6 170.5 169.5 168.9 168.5 167.8 167.5 167.3 167 167.5 166.7 166 163.9 162.5 161.2 159.6 158.6 158 156.3 147.7 144.5 142.4 141.4 140.2 139.1 137.9 135.7 134 132 131.2 129.3 125.9 125.9 125.9 125.9 125.9 125.9 125.9 125.9 125.9 125.9 125.9 125.9 125.9 125.9 125.9 125.9 125.9 125.9 125.9 125.9 131.3 136.3 139.9 142.3 145.7 148.8 153.2 159.2 163.4 165.3 165.7 165.4 165.1 164.7 164.6 163.3 162.2 160.7 158.8 156.4 154.4 152.2 150.5 149.2 147.7 146.3 147.3 148.1 148.8 147.5 147.3 144.8 143.9 142.9 142.3 143.1 141.6 140.3 140 147.2 154.4 154.6 153.9 155.4 158.1 160 162.3 164.1 162.8 156.8 161.9 165.8 171.3 174.7
257.8 256.2 254.3 252.2 248.1 243.7 237.2 231.7 229.8 227.6 223.8 221.5 218.4 215.2 213.8 212.2 209.9 207.1 204.7 202.6 200.6 198.5 195 194.2 193.2 191.9 189.7 187.1 186.8 185 183.4 181.8 179.4 178.1 176.6 174.7 172.1 172 173.3 173.6 174.1 174.8 174.1 173.5 172.9 172.6 172.2 170.7 169.6 168.7 167.8 166.9 166 164.9 164.3 164.2 163.5 162.4 160.7 159.6 160.1 158.4 157.1 155.5 158 158 158.9 160 161.4 162.5 162.8 163.4 163.7 163.8 164 164.1 164.4 165 165.6 166.2 166.8 167.4 166.8 167.9 169.8 170.8 171.7 172.5 173.3 174.1 174.2 174.3 173.7 172.7 171.6 170.6 168.2 167.4 167.5 166.8 166.4 166.1 165.7 164.9 164.6 164.3 163 161 160.9 159.8 158.2 157.3 154.8 152.4 146.8 143.3 142.3 141.6 141 139.9 138.2 136.4 135.3 133.9 132.7 131 130.3 125.9 125.9 125.9 125.9 125.9 125.9 125.9 125.9 125.9 125.9 125.9 125.9 125.9 125.9 125.9 125.9 125.9 125.9 127.4 135 137.6 140.3 142.3 145.2 149 154.5 160.3 163.7 164.9 165.7 165.3 164.9 164.5 165.6 164.4 163.3 160.5 157.8 156 153.8 151.6 149.9 148.1 146.3 146.3 145.8 145.9 146.5 145.7 144.9 143.6 142.4 141.4 141.8 139.1 139.3 139.6 145.2 152.9 155.8 155.7 156.7 158.3 162.9 162.9 164.9 165.5 163.7 158.7 164.3 168 169.2 174.6
256.9 255 253.1 251.1 247 241.5 235 231.6 229.7 227.7 225.2 221.7 218.2 215.5 213.1 211.4 209.3 206.7 204.1 202 200 198.1 195.6 194.4 193.1 191.1 188.7 187.3 185.8 184.4 183 181.6 179.7 178.4 177.1 175.1 173.9 171.6 172.2 172.7 173.5 174.1 173.5 172.9 172.4 172.1 171.5 170.1 169.6 168.9 168 167 166.7 165.7 164.4 164 163.2 162.3 161.2 160.6 157.9 157.8 154.9 156.3 157 156.6 158 160.6 161.9 162 162.1 162.3 162.4 162.5 162.5 162.6 162.7 163.5 164.1 164.7 165.3 165.4 164.1 166.8 167.8 169.3 170.3 171.1 171.9 172.4 172.6 172.6 172.2 170.7 169.9 168.6 166.9 165.4 165.7 165.4 165.1 164.7 164 163.3 162.5 161.9 160.1 158.6 157.5 156.4 154.8 153.8 152.5 149.6 146.6 143.4 142.4 141.7 141.1 140.4 138.9 137.2 136.1 135.1 133.7 131.2 128.5 125.9 125.9 125.9 125.9 125.9 125.9 125.9 125.9 125.9 125.9 125.9 125.9 125.9 125.9 125.9 125.9 125.9 125.9 128.3 135.5 138.1 140.7 142.5 144.9 150.4 155.8 160.9 162.9 164.9 165.7 165.4 164.8 164.3 164.4 165.6 163.4 160.7 157.9 155.5 153.9 152.3 150.5 148.7 147.4 146.3 145.6 144.6 144.8 144.1 143.2 141.9 141.3 141.4 139.3 138.4 138.7 149.1 152.6 154.5 156.6 156.7 157.9 159.5 161.7 164.2 165.9 167.8 166.1 165.4 167.5 168.5 173.1 176
256.6 253.8 251.9 250 245.5 239.7 233.5 231 229.6 227.6 224.9 221.4 217.7 215 212.5 210.6 208.4 206 203.5 201.5 199.7 197.8 195.5 194.2 192.3 190.3 188 186.8 185.7 184.3 181.7 180.9 178.8 177.9 176.6 175.4 174.3 172 171.6 171.6 172.7 172.9 172.9 172.4 171.8 171.5 170.7 169.8 169.3 168.8 168.1 167.3 166.4 165.4 164.6 163.8 162.6 161.4 160.8 160.7 159.3 157.4 155.9 154.1 155.5 156.9 158.5 160.8 161.4 161.5 161.7 161.2 160.9 161 161 161.2 161.5 161.9 162.5 163.1 163.2 162.7 164 165.7 166.8 167.3 168.9 169.7 170.5 170.7 170.9 170.8 170.6 169.1 167.9 167 165.3 163.3 163.5 163.2 163 162.5 161.8 160.9 160.1 159.4 157.7 156.7 155.6 155.1 153.3 151.1 149.4 147.8 145.3 143.6 142.7 142 141.4 140.5 139.3 138 136.4 134.9 135.1 134 131.6 130 125.9 125.9 125.9 125.9 125.9 125.9 125.9 125.9 125.9 125.9 125.9 125.9 125.9 125.9 125.9 125.9 125.9 129.2 135.9 138.4 140.9 143.3 146.5 150.9 156.2 161.2 162.6 164.5 165.7 165.4 164.8 164.3 163.8 164.5 162.9 159.9 157.1 155.6 154.6 152.9 151.2 148.2 145.7 145.1 145.5 144.3 143.5 143.7 142.6 141.3 139.6 139.9 138.2 137.9 140.3 151.5 153.9 156.2 156.7 157.5 160.9 163 163.7 164.7 167.9 167.9 168.5 161.7 168.3 174 176.7 177.8
256.9 253.7 250.8 248 244 238.2 233.1 230.4 228.4 227 224.2 220.7 217.3 214.4 211.8 209.7 207.5 205.2 202.8 200.6 198.6 196.8 195.4 193.4 191.4 189.5 187.6 186.4 185.2 183.9 181.5 180.6 178.7 177.7 175 175.4 174.1 172.3 171.4 169.7 170.7 171.5 171.6 171.6 171.3 170.9 169.2 167.7 168.2 167.9 166.8 167.1 166.1 165.2 164.3 163.8 162.9 161.7 161.2 160 158.6 156 153.4 153.9 156.1 158.2 158.9 160.7 161 161.1 160.7 160.1 159.4 159.4 159.5 159.7 160.1 160.4 161 160.5 160.4 160.4 163 164.2 165.3 166.3 167.2 168.3 168.8 169 169.2 169 168.8 167.1 165.4 165.2 162.8 161.3 161.3 161.3 161.3 160.2 159.8 158.7 157.7 156.8 155.7 154.7 153.8 152.8 151.6 150.5 148.5 146.8 145.1 144.2 143.3 142.3 141.7 140.5 139.8 139.2 137 136.9 135.6 134.9 135.3 131.5 132.3 125.9 125.9 125.9 125.9 125.9 125.9 125.9 125.9 125.9 125.9 125.9 125.9 125.9 125.9 125.9 125.9 129.1 135.7 138.8 140.9 142.7 147 151.6 156.7 161.5 163.4 164.3 165.7 165.4 164.9 164.7 163.3 162.5 161.3 157.8 156 154.8 154.1 153.4 151.1 147.6 144.2 144 145.2 144.7 143.1 142.3 140.5 139.7 139.3 137.1 137.3 137.9 146.8 151.8 153.8 156.4 158 158.7 162 165.7 165.5 166.4 170.2 167.7 169.3 163.6 171.9 174 177.5 178.7
253.9 250.2 246.2 244 240.9 235.4 232.7 230 227.3 225.7 223.5 220 216.8 213.9 211.1 208.9 206.4 204 202.1 199.9 197.2 196.1 194 191.9 190.1 188.3 187 185.8 184.6 183.1 181.8 180.2 178.7 177.6 176.3 174.3 173.4 171.3 169.9 170.6 171.3 169.5 170.1 169.4 169.4 170 170 170.4 168.2 165.5 164.7 163.3 164.2 165 164.1 163.6 163 162.1 160.8 159.3 157.4 155.7 153.3 153.5 156.6 158.6 159.7 160.3 160.6 160.3 159.6 158.9 158.3 157.7 158 158.3 158.6 157.9 158.7 159 159 159.7 161.2 162.5 163.7 164.8 165.9 166.9 167.2 167.5 167.6 167.7 166.5 164.6 163.2 162.2 160.5 159.7 159.6 159.8 158.9 157.8 157.7 156.7 155.7 154.7 154.1 153 152 150.8 149.7 148.5 147.4 146.5 145.5 144.6 143.7 142.7 142 141.3 140.6 139.9 138.1 138.2 137.8 137.7 137.6 134.5 125.9 125.9 125.9 125.9 125.9 125.9 125.9 125.9 125.9 125.9 125.9 125.9 125.9 125.9 125.9 125.9 125.9 131.6 136.4 139.1 141.1 143.2 147.8 152.6 157.2 161.7 164.2 165 165.7 166.2 166 165.3 163 160.8 158.8 157 155.2 154.6 154.6 153.2 150.8 146.4 143.8 143 143.4 143.7 142.4 140.6 138.7 138 137.9 136.8 136.8 139.2 149.2 154.1 156.4 157 157.8 159.3 162.6 165 167.7 168.2 170.5 169.7 170.3 168 173.7 177.1 177.9 178.9
249.6 245.9 242 239.5 236.9 233.4 230.9 228.5 226.8 224.4 221.8 218.3 214.6 211.2 208 205.8 203.5 202.5 200 198.7 195.8 194.6 191.7 189.3 187.5 186 185.9 184.7 182.5 180.9 180.1 178.8 178.2 176.8 173.8 173.5 171.7 172.2 172.6 172.9 173.2 173.1 172.5 172.5 172.6 172.5 171.9 171.3 171 170.1 167.9 166.7 164.3 161.7 162.7 162.5 162.1 160.7 159.2 157.6 155.4 153.5 153.2 155.3 157.7 158.9 159.9 160.1 159.8 159.2 158.5 157.8 157.1 156.5 156.2 155.9 156.8 156.1 157.8 157.1 156.6 158.7 159.9 161 162.1 163.2 164.1 165 165.9 166.3 166.4 166.2 164.7 163.2 161.7 160.4 159.3 158 157.8 157.7 156.4 155.5 155.6 154.6 153.8 153.6 152.6 151.7 151 149.9 148.7 147.9 147.1 146.2 145.3 144.3 143.4 142.6 142.1 141.6 141 140.2 139.2 138.7 138.7 138.7 137.3 133.9 125.9 125.9 125.9 125.9 125.9 125.9 125.9 125.9 125.9 125.9 125.9 125.9 125.9 125.9 125.9 125.9 126.4 133.4 136.4 139.6 141.6 143.8 148.3 153.1 157.4 161.6 164.1 164.6 165.4 166.5 167.3 166.7 163.7 160.3 158.3 156.2 154.4 154.1 153.5 152.4 150 145.9 143.8 141.7 141.1 142.6 142.8 139 137.2 137.4 137.5 136.3 136.6 140 148.8 153.2 156.2 158.1 160.4 161 164.9 167.8 169.4 172 173 172.4 171.9 172.2 175.3 173.2 179.3 180.2
246.3 242.4 240.3 237.7 235.5 232.9 229.8 229 226.3 221.8 219.6 216.3 213.9 211.5 209.5 207.3 206.7 205.3 203.9 201 198.7 195.7 193.2 191.2 188 186.7 184.9 184 183 182 180 177.7 175.7 173.9 175 174.2 172.1 172.4 173.2 173.6 174 174.3 174.1 173.8 173.5 173.2 172.8 172.3 171.7 171.2 169.5 168.1 167.4 165.9 163.9 161.2 162.1 161.9 159.7 158.4 156.8 156.8 154.6 152.1 156.8 159.4 159.6 159.7 158.9 158 157.3 156.7 156 155.4 153.7 154.4 154.9 154.3 155.6 156 155.3 158.5 159.5 160.4 161.3 162 162.6 163.2 164.1 165 165.3 164.4 162.5 161.7 160.2 158.8 157.7 157.1 155.4 155 154 153.2 153.3 152.8 152 151.1 150.9 150.7 150.1 149.2 148.4 147.6 146.8 145.9 145 144.1 143.1 142.7 142.3 141.8 141.2 140.6 139.9 139.5 140.2 141.3 136.9 135.8 133.4 125.9 125.9 125.9 125.9 125.9 125.9 125.9 125.9 125.9 125.9 125.9 125.9 125.9 125.9 125.9 127.2 132.1 137.2 139.4 141.7 144.3 148.1 152.4 156.8 161.3 163 164.2 165.1 165.8 166.1 164 161.5 160 157.7 155.6 153.6 153.2 152.4 151 148.6 144.6 142.3 141.4 139.6 140.9 140.6 139.4 136.1 135.9 135.4 135.9 135.4 143.5 151.8 153.9 157 158.7 163.2 165.7 168.3 170.1 172.2 173.8 173.9 173.1 173.3 175 179.4 174.4 178.2 179.9
243.8 241.2 239.5 237.7 235.4 232.8 230.9 229.4 225.8 225.2 222.9 217.9 215 214.2 212.4 209.3 208.1 206.5 202.8 202 199.5 196.5 194.3 192.4 190.3 187.9 187.3 186.2 185 183.1 181.6 180.5 179.2 177.7 176.3 175 173.8 173.8 174.3 174.6 174.9 175.1 174.7 174.3 174 173.7 173.4 173 172.6 171.5 170.5 170.3 169.2 167.9 166.8 165.4 164.1 162.8 162 160.4 159.1 157.8 155.9 152.9 154.5 159 159.2 159.3 158 156.8 156.2 155.5 155 154.3 152.6 152.5 152.9 152.3 153.7 153.2 155.7 157.3 158.6 159.5 160.4 161.1 161.5 161.6 162.1 163 163.6 162.7 160.4 158.7 158.2 157.4 156.8 155.9 152.7 152 151.9 152.2 151.7 150.5 150.5 150.4 150.4 150.3 149.8 149 148.1 147.3 146.5 145.6 144.7 143.8 143.3 142.8 142.4 142 141.5 140.8 140.2 141 144.1 142.3 137.3 135.2 130.8 126.5 125.9 125.9 125.9 125.9 125.9 125.9 125.9 125.9 125.9 125.9 125.9 125.9 125.9 125.9 129.3 133.9 137.3 139.8 142.3 144.7 148 152.6 157.3 160.8 162.4 163.5 164.2 164.9 163.6 161.3 160.9 159.4 156.8 154.5 152.8 152.4 151.4 149.4 146.9 143.3 141.6 140.4 139.9 137.3 139.2 139.1 137.3 135.3 135 135.9 140.1 144.5 149.9 154.5 158.6 159 163.4 168 169.1 171 174.2 174.5 174.3 174 174.4 177.6 182.3 180.5 179.3 180.8
242.2 240.3 238.5 236.7 235 233 231.7 230.7 227.6 227.7 222.9 221.5 217.6 214.4 211.7 209.6 207.7 206.6 204.3 201.5 200.2 197.5 195.5 193.6 190.4 189.9 188.5 187.1 186 184.2 183.1 182.1 180.7 179.2 177.1 175.1 174.7 174.8 175.2 175.6 176 175.9 175.5 175.1 174.7 174.3 173.9 173.6 171.8 170.3 171.7 170.9 170.3 168.9 168 167.2 165.9 164.5 162.9 161.3 160 158.8 157.1 152.1 152 157.2 158.8 158.7 157.1 155.7 155 154.4 153.5 152.5 151.7 151.1 150.8 150.6 151.9 151.5 154.4 155.7 157 158.4 159.4 160.1 160.3 160.4 160.6 161 161.6 160.9 159.3 156.3 155.5 154.8 153.9 152.5 150.4 149.1 149.2 150 149.7 150.1 150.4 150.3 150.3 150.2 149.7 148.8 147.9 147.1 146.2 145.4 144.4 143.8 143.4 143 142.5 142.1 141.7 141.1 141.2 142.1 143 142.2 139.1 135.7 131.5 129.5 125.9 125.9 125.9 125.9 125.9 125.9 125.9 125.9 125.9 125.9 125.9 125.9 125.9 125.9 131.3 134.3 137.5 140.1 142.9 145.5 148 152.5 157.7 160.5 162 162.7 163.3 163.2 161.9 161.6 161 158.7 155.9 153.6 152.1 151 149.5 147.8 144.9 141.4 139.3 138.9 137 135.1 134.2 135.2 134.4 134.2 134.8 138.5 142.7 147.6 153.1 157.4 159.6 159.6 165.1 169.2 169.5 171.8 173.4 174.3 172.7 173.2 174.2 177.3 181.5 181.9 181.5 182.2
242.1 239.6 237.8 236 234.5 233.4 232.7 231.6 230.5 228.9 226.5 222.5 218 214.3 212.2 210.7 209 207.2 205.3 203 200.8 198.7 196.7 194.7 192.5 190.9 189.6 188.2 186.9 185.5 184.7 183.6 182.1 180.2 177.6 176 175.6 174.1 176.2 176.6 176.8 176.6 176.3 175.9 175.5 175.1 174.7 174.4 173.6 172.4 172.5 171.8 170.9 170.2 169.1 168.1 166.2 164.2 162.4 161.7 159.3 159.4 158.3 156.3 150.2 150.8 156.7 157.6 156 154.5 153.9 153.1 152.2 151.3 150.7 148.7 149.4 149.4 149.8 151.9 153.1 154.4 155.7 157 158.2 159 159.1 159.2 159.4 159.5 159.4 158.9 157.3 154.4 151.7 150.3 150.5 148.7 146.8 146.3 146.6 147.9 149.4 149.7 150.2 150.3 150.2 150.2 149.7 148.7 147.8 146.8 146 145.1 144.4 144 143.5 143.1 142.7 142.2 141.8 141.4 142.2 142.9 145 142.8 139.7 137.2 133.3 127.4 125.9 125.9 125.9 125.9 125.9 125.9 125.9 125.9 125.9 125.9 125.9 125.9 125.9 128.2 132.1 135 138 140.5 143.2 145.9 148.6 153.8 157.7 160.1 161.3 161.9 162.5 162.5 162.2 161.9 161.1 158.1 155.2 152.8 151.7 150.1 148.1 145.9 142.8 139.8 137.2 135.7 134.7 133.9 133.8 133.3 134.8 136 138.1 137.7 144.3 149.6 154.8 159.6 160.5 160.9 165.9 169.1 169.6 171.5 172.4 173 172.9 172.3 174.6 177.5 181.2 183 183.8 184.9
243 239.1 237.4 236.2 235.1 234 233.5 232.6 230.9 230.1 227.5 222.9 220.1 216.5 214 212.5 210.5 208.1 205.9 204.3 202.8 202 199.2 197 194.6 194.3 192.2 190 188 186.9 185.8 184.6 183.2 181.2 178.3 177.3 175.4 175.9 177.2 177.6 177.6 177.3 177.1 176.7 176.3 175.9 175.5 175.3 174.7 173.5 173.1 172.4 171.6 170.9 170 168.8 166.6 164.1 162.6 161 160.5 159.6 158.5 157.5 159.2 156.9 149.4 150 154.1 153.3 152.1 151.5 151 150.7 150.2 147.7 148.1 147.7 147.9 150.4 151.8 153 154.3 155.5 156.8 157.5 158.2 158.3 158.5 158.6 156.8 156.8 153.8 151.3 149.2 147.6 146.1 145 144.7 144.6 145.8 147.6 149.2 149.5 149.8 150.2 150.1 150.1 149.6 148.6 147.7 146.7 145.8 145 144.5 144 143.5 143.1 142.6 142.1 141.6 141.2 142.4 143.7 145.6 142.5 140.5 138.2 131.3 130.9 125.9 125.9 125.9 125.9 125.9 125.9 125.9 125.9 125.9 125.9 125.9 125.9 125.9 130.3 132.8 135.5 138 140.5 143.2 146.2 149.5 153.2 156.9 159.2 160.7 161.3 161.9 162.1 162.2 162.3 160.4 157.5 154.5 152.3 151.1 148.7 146.1 143.5 141.1 138 137 134 133.5 133.1 132.9 133.5 136.8 138.8 141.6 141.3 144.3 150.8 155.2 160 160.8 159.4 161.3 164 167.2 169.8 171.2 171.7 171.8 171.9 174.6 177.4 181 183.6 187.2 187.3
243.4 239.5 237.9 236.9 235.8 234.7 234 233.6 231.7 229.4 227.7 225.9 222.9 219 216.2 214.3 212.3 209.9 208.1 206.5 204.9 203.4 200.6 198.3 198.1 196.5 194.1 191.7 189.9 188.5 187 185.6 184.4 181.7 180.2 178.4 176.1 176.5 178.2 178.5 178.3 178.1 177.9 177.5 177.1 176.7 176.4 176.1 175.8 174.6 173.7 173 172.1 171.3 170.4 169.5 167.3 165.3 163.4 160.7 159.9 159.6 158.8 158.5 158.2 157.9 156.4 152.2 146.4 149.8 150.3 149.7 150 149 149.1 146.4 147.1 146.4 148 148.5 150.1 151.5 152.8 154.1 154.6 155.5 156.6 157.4 157.5 156.7 154.8 152.8 150.3 148.2 146.4 144.9 143.4 143.1 142.6 143.4 145.3 147.2 149 149.3 149.5 149.8 150 150 149.5 148.5 147.6 146.6 145.8 145.1 144.3 143.8 143.3 142.9 142.4 141.9 141.4 141 141.7 143.1 141.9 139.5 137.7 136.4 130.4 127.2 125.9 125.9 125.9 125.9 125.9 125.9 125.9 125.9 125.9 125.9 125.9 125.9 125.9 130.8 133.4 136 137.7 140.3 143.4 146.5 149.8 153.5 156.1 158.3 159.9 160.7 161.1 161.4 161.6 161.7 160.2 157.7 154.7 152.6 149.3 146.8 143.7 141.2 138.8 136.3 134.9 133 132.7 132.2 133.6 138.3 141.9 144.8 145.1 146.7 142.9 149.9 155.5 160.1 158.6 158 159.8 162.5 164.9 168.2 169.9 170.6 170.4 171 173.3 177.4 181 184.9 188.7 190.1
243.3 239.6 238.3 237.3 236.4 235.3 234.5 234.2 232 231.7 230.2 228.1 225.5 221.9 218.8 216.7 214.2 213 210.7 209.4 208.3 205.8 203 201.5 199.9 198 195.6 193.2 191.9 190.5 189 187.5 185.6 184 182 180.4 178.6 177.1 179 179 179 178.8 178.6 178.2 177.9 177.6 177.3 177 176.8 175.7 174.6 173.6 172.6 171.6 170.7 170 168.7 166.4 164.9 162.5 160.3 159.6 158.6 157.5 156.6 155.9 155.1 153.4 149.9 146 148.7 148.3 148.9 148.7 147.2 145.6 144.6 146.8 147.9 148.5 149.1 149.8 151.3 152.6 152.5 153.5 154.7 155.8 156.6 154.6 152.6 150.5 147.9 145.4 143.9 142.1 141.2 141.3 141 142.7 144.6 146.9 148.6 149.1 149.3 149.5 149.8 149.9 149.4 148.4 147.5 146.7 146.1 145.4 144.6 143.7 143.2 142.7 142.2 141.7 141.3 140.7 140.2 141.3 138.4 134 131.8 125.9 125.9 125.9 125.9 125.9 125.9 125.9 125.9 125.9 125.9 125.9 125.9 125.9 125.9 125.9 125.9 129.6 133.6 136.1 137.9 140.7 143.8 147.2 150.1 152.2 154.8 157.2 159.1 160 160.4 160.7 160.9 161.1 159.6 157.3 154.9 151.9 147.8 144.8 142.6 139.4 137 135.6 134.3 132.7 131.9 133.4 135.9 139.5 141.8 144.1 148.2 148 142.5 150.5 156.1 157.7 156.8 157 158.9 161.5 163.7 165.9 168.2 169.6 169.3 170.6 175.2 180.2 183.8 186 188.9 194.8
243.1 239.8 238.6 237.7 236.8 235.9 235 234.8 234.2 234.2 231.7 229.2 226.7 224.4 221.5 220.1 218.9 217.3 215.3 214.2 212.1 209.4 206.7 204.5 202.3 200.4 198 195.1 193.9 192.5 190.5 188.4 186.8 185.3 183.8 182 179.7 179 180.1 179.7 179.1 179.1 179.2 179.1 178.8 178.5 178.2 177.9 177.7 176.8 175.8 174.9 173.9 172.8 171.7 171 170.4 168.4 166.4 164.4 161.6 159.6 158.5 158.5 157.1 155.5 154.1 151.7 149.9 146.6 144.3 148.1 147.9 147.2 146.3 144.2 144.6 145.8 146.9 147.9 148.7 149.4 150.2 151.1 151.1 151.5 152.5 153.9 153.8 152.1 150 148 145.5 143.2 141.5 140.7 140.2 140.3 139.6 141.8 143.9 146.2 148.3 148.9 149.1 149.3 149.6 149.8 149.3 148.4 147.7 147 146.3 145.6 144.9 144 143.1 142.5 142 141.6 140.6 139.3 138.1 137.2 135.8 130.8 126.7 125.9 125.9 125.9 125.9 125.9 125.9 125.9 125.9 125.9 125.9 125.9 125.9 125.9 125.9 125.9 125.9 129.4 132.9 136.4 138.7 141.2 144 146.9 149.8 151 153.6 155.9 158.1 159.4 159.7 160 160.2 160.5 159 156.5 153.5 150.3 146.2 142.6 140.5 138 137.1 136 133.3 132.4 132.1 134.2 137.9 139.4 142.1 145.2 147.7 149.6 149.1 148.2 150.8 152.7 156.2 156.6 158.1 160.5 161.9 163.2 166.2 168.5 168.8 170.1 175.1 180.8 185 187.9 192.8 197.7
242.9 240 239 238.1 237.1 236.3 235.8 235.4 236.3 235.8 233.3 230.9 228.6 226.7 225 223.4 223.1 222 220.1 218.4 215.7 213 210.4 207.7 205.7 202.9 200.7 198 196 193.4 191.2 189.6 188 186.4 185 183.6 182.4 181.3 181.2 180.5 179.3 179.8 179.6 179.5 179.3 179.1 178.9 178.7 178.5 178 177 176.1 175 173.8 172.7 171.9 170.9 169.4 167.9 166.3 164.3 161.8 160.9 158.3 157.1 155.1 153.2 149.2 147.8 146.7 143.8 146.4 146.5 145.5 145 142.7 144.3 144.9 145.9 147 148 148.8 149.1 149.4 149.7 149.7 150.6 151.5 150.1 148.6 146.5 145.4 143.1 141.2 139.6 139.6 139.2 138.6 140.6 142.4 143.4 145.5 147.7 148.7 148.9 149.2 149.4 149.6 149.3 148.5 147.8 147 146.2 145.5 144.1 143.1 142.7 142.3 141.7 140.8 139.9 139 138 134.7 132.1 128 125.9 125.9 125.9 125.9 125.9 125.9 125.9 125.9 125.9 125.9 125.9 125.9 125.9 125.9 125.9 125.9 126.3 130.1 133.7 136.6 138.7 141.9 143.8 146.5 149.3 150.5 152.3 154.6 156.8 158.7 158.7 158.7 158.6 158.6 158 154.8 151.5 148.3 144.9 140.6 138.1 135.8 134.8 133.2 131.8 132.2 133.8 136.2 140.3 144.9 145.9 149 150.7 151.1 151.5 154.9 156.5 159.9 156.5 157 158.2 159 159.8 161.8 164.8 167.4 168.2 171.3 175.9 181.8 186.4 192.1 196.8 201.2
242.7 240.3 239.4 238.6 237.8 237.1 236.7 236.3 237.1 237.5 235.2 233.4 231.6 229.7 228.3 227.1 226.8 226 224.6 221.7 218.8 215.9 212.9 210.3 208.2 205 202.2 200.5 197.6 194.7 191.9 190.7 189.2 187.6 185.8 183.3 182.6 183.2 182.5 181.1 180.1 180.6 180 179.9 179.7 179.5 179.3 179.3 179.7 179.2 177.7 177.6 175.1 174.5 173.7 172.5 171 169.4 167.9 167 166.1 164.4 162.5 159.6 157.4 154.8 151.8 147.1 146.8 145.9 143.6 142.5 145 144.1 143.8 142.4 143.1 143.6 144.7 145.5 146.3 146.8 147.2 147.6 147.9 148.3 148.8 148.6 146.7 144.9 143.4 142.4 140.9 139.4 137.7 137.5 137.5 137.5 138.3 139.3 143.1 145.3 147.4 148.7 148.9 149.2 149.4 149.5 149 148.2 147.5 146.7 145.9 144.8 143.8 142.9 142.4 141.9 140.5 139.5 138.6 137.2 135.3 132.7 130.9 125.9 125.9 125.9 125.9 125.9 125.9 125.9 125.9 125.9 125.9 125.9 131.1 125.9 128.8 131.2 130.5 125.9 126.8 130.7 134.6 136.9 138.8 142.7 144.6 146.6 148.7 150 151.2 153.3 155.4 157.4 157 156.6 156.6 156.6 155.5 152.7 149.5 146.2 142.3 139.3 136.7 135.1 134.7 133 131.8 132.7 135.4 138 141.9 144.1 149.1 153.2 153.9 153.9 154.1 157 160.9 161.1 158.4 157.1 159.2 159.6 160.1 162 164.6 167.3 168.9 172.4 177.7 183.6 188.2 193.3 197.5 203.6
243.3 240.7 239.9 239.2 238.5 238 237.6 237.3 237.9 238.5 237.7 236.3 234.6 232.8 231 230.4 230.1 228.9 227.3 224.3 221.3 218.3 215.3 212.3 209.6 205.9 203.5 201.7 199.2 196.5 193.9 191.5 189.3 188.4 184.9 184.3 185 184.5 183.5 181.4 181.3 181.3 181 180.2 180.1 180.2 180.5 181 181.4 179.6 178 177.6 175.9 174.2 173.6 172.9 172 170.3 168.2 167.5 166.6 165.1 163.9 161.8 158.7 153.7 150.2 147.4 146.2 145.2 143.4 142.5 143.8 143.9 143.5 141.8 141.7 143.3 143.7 144.4 145.3 146.2 145.9 146.2 146.5 146.3 145.9 145.6 143.7 142.2 140.8 139.5 138.5 137.5 137.5 137.5 137.5 137.5 137.5 138 141.3 144.9 147.1 148.3 148.9 149.1 149.4 149.2 148.7 147.9 147.2 146.4 145.5 144.6 143.7 142.9 142 141.3 139.5 138.3 136.7 135 133.3 131.5 129.9 125.9 129.2 129.8 125.9 131.3 131.5 125.9 125.9 125.9 125.9 125.9 131.5 131.7 131.9 129.9 131 127.5 128.3 131.9 133.8 137.1 140 142.2 144.2 146.3 148 149.5 150.8 152.2 154 155.9 156.4 155.5 154.6 154.4 152.9 150.4 147 143.7 140.9 138.1 135.3 135 134.6 133.7 132.6 133.7 135.7 139.9 143.8 145.4 148.5 152.6 156.8 158.6 158.2 159 161.7 163.6 161.6 160.4 159.8 160.9 161.2 163.4 165.6 170.3 170.6 173.8 179.9 185.8 189.5 194.1 198.4 204.4
244.3 241.1 240.3 239.6 239.3 238.9 238.6 238.2 239.4 239 238.4 237.5 236.7 235.1 233.9 233.7 233.4 231.9 229.7 226.9 223.9 220.9 216.9 213.2 210.1 207.2 205 203.1 200.7 198.4 195.7 193.1 190.9 188.5 187.7 187.4 186.7 185.7 183.7 182.9 183.2 182.9 182.4 180.8 181.5 182 182.5 182.8 181.6 179 177.9 177.3 175.6 174.4 173.5 172.9 172 169.5 168.2 167.5 166.4 164.5 163 160.9 158.4 153.7 150.5 147.8 146.4 145.1 143.8 141.4 141.8 142.7 143 142.5 141.6 142.6 143 143.5 143.8 144.3 144.6 144.4 144.1 143.9 143.8 143.6 141.9 140.4 138.9 138 137.5 137.5 137.5 137.5 137.5 137.5 137.5 137.5 139 144.1 146.7 148 148.7 149.1 149.1 148.9 148.3 147.6 146.8 146.1 145 144.2 143.4 142.5 141.7 141.5 139.1 137.5 136.5 134.8 132.9 131.4 129.3 127.8 130.5 131.3 132 131.7 132.3 132.2 130.7 125.9 125.9 125.9 132.6 132.7 132.6 132.2 130.8 127.7 127.6 131.2 134.4 137 139.2 141.4 143.6 145.6 147.2 148.7 150.2 151.6 153.1 154.4 155 154.9 153.5 151.5 149.2 145.4 143.1 140.9 138.4 135.6 134.7 134.6 132.8 131.3 131.8 134.8 137.4 141.9 145.2 146.8 148.8 153.5 156.9 160.9 160.5 160.9 162.6 166.7 167.6 162.4 160 162.3 163.2 165.5 167.9 171.8 174.9 178 182.1 187.2 191.7 195.1 198.7 203
245 241.4 240.9 240.5 240.2 239.9 239.5 239.2 239.7 239.6 239.2 238.3 237.4 236.6 236.5 236.5 236.3 234.1 231.7 229.1 226.3 222.2 218.1 214.2 211.3 208.9 206.2 204 202.1 199.1 196.8 194.9 191 190 189.8 189 187.9 186.2 185.4 184.8 184.7 183.4 182.8 181.9 182.3 183.2 184 183.2 181 178.4 177.8 176.9 175.4 174.7 173.8 172.9 171.4 168.9 168 167.2 165.5 163.1 161.4 159.9 156.9 153.4 150.9 148.1 146.6 145.7 143.4 141.1 141.3 140.4 142.5 141.8 140.6 142 142.8 143 143.3 143.6 144 143.7 143.5 143.4 143.2 142.8 140.9 139.8 138.3 137.5 137.5 137.5 137.5 137.5 137.5 137.5 137.5 137.5 138.4 144 146.4 148.2 148.7 149.1 148.8 148.5 148 147.3 146.5 145.4 143.9 143.2 142.4 141.7 140.8 141.1 139.6 136.8 136.2 133.8 132.8 131.9 131.6 131.8 132.3 129.9 132 132.5 132.6 132.9 132.3 130.5 130.9 131 135.3 133.9 133.8 129.9 127.5 126.4 128.1 130.5 133.9 136.2 138.4 140.7 142.9 144.8 146.3 147.8 148.9 150 151.3 152.4 153.2 152.5 150.4 148.3 145.5 141.8 140.1 138.2 135.8 134 133.9 133.8 133.6 130.7 131.2 133.7 137.6 143.6 146.5 148.3 150.2 153.9 158.7 162.2 162.1 162.8 164 165.4 166.1 166.4 164.5 163.3 164.3 167.4 169.7 173.1 177.4 182.5 184.6 188.1 192.4 195.8 199.4 202.8
244.3 241.8 241.6 241.4 241.1 240.8 240.5 240.2 239.9 239.8 239.8 239.2 238.6 238 238.4 238.2 237.2 235.5 233.6 230.9 226.8 223 219.2 215.3 213.2 211.1 208.5 204.9 203.4 200.5 197.4 194.8 192.7 192.7 192.9 191.2 189.5 187.8 187.1 186.6 185.7 184 182.8 182.6 182.7 182.7 182.7 182.7 180.5 178.2 177.4 176.6 175.7 175 174.2 172.3 170 169.1 168.1 167.1 165.2 162.7 160.4 159.2 155.5 152.9 151.5 149 146.6 145.7 144.1 141.2 141.3 140.6 140.2 139.2 141 142.1 142.4 142.5 142.8 143.5 143.5 143.5 143.1 142.8 142.6 142.1 140.1 139.3 138.2 137.5 137.5 137.5 137.5 137.5 137.5 137.5 137.5 137.5 140.7 144.5 146.8 148.4 148.9 148.9 148.6 148.2 147.7 146.9 146.1 144.7 143.2 142 141.4 140.8 140.3 139.6 138.2 137.2 136.9 135.8 134.9 134.8 133 132.4 133.4 132.1 132 132.5 132.7 133.1 132.8 133.7 132.6 135 131.3 131.9 129 127.2 126.3 127.3 129 130.8 133.8 134.4 136.9 139.4 142.1 143.9 145 146.1 147.2 148.4 149.5 150.4 151.4 150.2 147.6 144.9 141.7 138.6 136.9 135.2 133.4 133.2 133.1 132.9 131.5 130.6 131.3 135.5 139.1 141.7 147.7 149.7 151.6 154.2 160.5 163.4 164 164.6 166.8 167.5 167.6 168.4 167.5 163.4 165.5 168 171.1 174.5 179.2 184.6 188.3 190.9 193.2 196.4 198.5 200
243.5 243 241.7 241.5 241.2 241.4 241.6 241.3 240.9 240.4 240.3 240.2 240 239.4 239.9 239.9 238 236.2 234.6 231.9 227.2 223.3 219.5 216 214.2 212.2 208.6 206 203.5 199.9 198.6 195.9 194.5 196.2 195.3 193.6 191 190.2 189.4 188 186.2 184.2 183.2 182.8 182.1 181.6 181.6 181.6 179.8 177.8 177 176.1 175 174.3 172.5 170.4 169.7 169.1 168.1 166.9 164.2 162.3 159.9 157.9 154.9 152.3 149.8 148.8 147 145.3 143.9 141.3 141.2 140.6 140.3 139.2 138.7 141.4 142 142 142.6 143 143.1 143.1 142.8 142.5 142.1 141.3 139.4 138.1 137.5 137.5 137.5 137.5 137.5 137.5 137.5 137.5 137.5 137.5 142.6 145.8 148.2 148.6 149.1 148.8 148.5 148 147.3 146.5 145.3 143.7 142.3 141.7 141.1 140.6 140 139.4 138.4 138.9 139.3 137.8 136.6 135.2 134.7 134.4 132.6 133.9 132.8 133.4 133 132.5 133.5 135.3 135.8 134.9 136.8 131.2 128.6 127 127 128.7 130.2 131.5 133.3 135 137.3 139.6 141.5 143.3 144.5 145.4 146 146.7 147.6 148.6 147.8 146.7 143.9 141.8 138.4 135.4 133.8 132.5 132.3 132.3 132.2 131 130.5 130.8 132.1 138.1 140.8 142.8 147.6 150.8 153.3 157.2 162.6 166.6 165.8 166.9 168 169.1 169.9 170.1 168.3 164.8 167 169.6 172.7 176 181.6 186.1 189.2 191.9 194.4 196.3 198.4 198.4
242.7 242.5 242.1 241.6 241.7 241.9 242.1 242.3 241.9 241.7 241.7 241.4 241.1 240.8 241.2 240.5 238.9 237 235.4 231.2 227.3 223.8 219.7 216.6 214.6 211.4 208.9 207 204.4 202 199.9 197.6 198.5 199 198.1 195 192.1 191.9 190.5 188.7 186.5 185 183.9 182.7 182 181.4 180.7 180.5 178.9 177.5 177.1 175.5 174.1 173.4 171.2 170.4 169.6 168.9 167.3 165.3 163.9 161.8 159.7 157.5 154.3 152 149.6 146.7 145.5 144.7 143.5 142.3 141 140.6 140 139.4 139.4 138 140.4 141.6 142.5 142.6 142.7 142.6 142.6 142.2 142 141.2 140 138.4 137.5 137.5 137.5 137.5 137.5 137.5 137.5 137.5 137.5 138.3 142.7 146.3 148.4 148.9 149 148.6 148.1 147.7 147 146 144.1 142.7 142.1 141.4 140.8 140.3 139.7 139.1 138.4 138.7 140.5 140.7 138.3 137.7 136.5 134.6 132.6 132.6 132.6 133.8 133.3 133.1 133.9 134.8 134.4 134.2 132.7 131.7 130.9 127.4 126.1 127.3 129.7 131.3 132.9 134.8 136.9 138.8 140.6 142.4 142.9 143.4 144.1 144.9 145.7 145.5 144.1 142.7 141 138.3 135.8 132.8 131.6 131.3 131.1 131.2 131.2 130.8 130.4 131.6 133.6 136.2 139.5 144.1 147.3 150.9 155.3 158.7 163.6 168.2 167.4 167 167.8 168.6 169.6 170.8 170.3 169.9 168.6 171.4 174.8 178.5 183.2 186.3 189.3 191.5 193.2 194.2 194.8 196.5
242.4 242.3 242.1 241.9 242.2 242.4 242.6 242.8 243.6 243.7 243.8 243.2 242.3 241.8 242.1 240.7 239.1 237.5 235.2 230.3 227.5 223.6 219.4 216.9 214 211.5 209.5 207.4 205.4 203.3 200.9 200.5 200 199.3 199 195.4 193.5 192.5 191.2 189.9 187.3 185.9 184 182.6 181.9 181.3 180.6 179.9 178 177.7 176.5 174.8 173.2 172 171.1 170.7 169.5 168.6 166.5 164.5 163.3 161.1 158 155 153.7 151.5 149.2 146.3 145.4 143.7 142.8 141.8 141.1 140.5 140 139.6 140 139 140 141.2 142.1 142.2 142.3 142.2 142.1 142.2 141.8 141 140.1 137.7 137.5 137.5 137.5 137.5 137.5 137.5 137.5 137.5 137.5 137.6 143.8 147.6 148.3 148.9 149 148.3 147.8 147.3 146.7 144.9 143.3 142.5 141.8 141.2 140.5 140 139.4 138.8 138.3 139 139.4 139 138.6 137.6 137.5 136 132.6 132.6 132.6 134.1 133.7 133.8 134.4 134.8 134.7 135.1 136.6 135.4 134.2 131.9 131.1 125.8 129 130.7 132.4 133.8 135.7 137.6 139.4 141.1 141.7 142.1 142.4 142.8 143.5 142.7 141.3 139.9 138.6 135.9 133 131.9 131.2 130.5 130 129.9 130.6 129.2 131.3 133.5 135.8 137.8 140.2 143.3 147.4 151.6 156.2 160.2 163.5 166.5 167 167.3 167.4 168.1 169.2 170.4 172.9 169.9 171.5 173.1 175.1 178.5 182.5 185.9 188.2 190.5 190.5 191.3 194.6 197.5
243.4 243.3 242.9 242.5 242.6 242.8 243 243.3 245.1 245.2 244.8 244 243.2 242.8 242.7 241.1 239.6 237.7 234.4 230.3 227.1 222.6 219 216.5 214 212.1 210.1 207.9 205.7 203.9 202.5 202.2 201.4 200.5 199.6 196.9 194.4 193.2 192 190.8 188.4 185.8 184 182.5 181.8 181.1 180.1 178.8 178 177.5 176 174.7 172.5 171.6 171.3 169.1 168.3 166.9 165.7 163.8 161.5 160 160.7 157.4 152.8 150.2 147.5 147.2 144.8 144.1 142.9 142.4 142 141.1 140.6 140.3 140.5 139.6 138.4 140 141 141.4 141.8 141.1 141.5 141.4 140.8 140.3 139.9 138.2 137.5 137.5 137.5 137.5 137.5 137.5 137.5 137.5 137.5 140.9 143.4 148.7 149.3 148.6 149.1 148.8 148.6 147.5 146.3 145.4 143.5 141.9 141.3 140.8 140.2 139.5 138.7 137.9 137.7 140.2 139.5 138.9 138.6 137.2 136.6 134.3 132.6 132.6 132.6 133.4 134 134.5 135 135.5 135.9 138.6 135.4 134.5 133.5 131.8 129.4 126 127.9 130.3 131.7 132.3 134.4 136.4 138.2 139.7 140.3 140.8 141.1 140.5 141.2 139.8 138.5 137.1 135.9 133.6 131.6 130.8 130.3 129.6 129.2 128.8 130.9 130.8 132.3 134.8 137.2 138.7 141.7 144.2 148.9 151 154.2 160.1 162.6 165.3 167.7 167.7 167.8 167.8 168.9 170.1 172 172.4 171.7 173.1 175.1 178.1 181.6 184.7 187 188.9 189.3 192.2 199.1 199.9
244.4 244 243.6 243.2 243 243.3 243.7 245.2 245.8 246.3 245.7 244.6 243.4 242.8 242.6 241.7 239.8 237 233.4 229.7 226 221.6 218.6 216.3 214.6 212.7 210.5 208.3 206.1 204.9 204 203.4 202.8 202.2 201 197.7 195.6 194.4 193.2 192 189.8 187.5 184.6 182.6 181.6 180.6 179.6 178.7 177.8 177.3 176.5 173.9 172.7 172 170.2 169.1 168.7 168.3 167 165.4 163.7 162.1 154.8 153.9 153.1 152.7 152.4 149.3 146.4 144.9 144.2 143.5 143 142.1 141.1 142.1 141 140.2 139.3 138.3 139.8 140.1 139.6 139.9 140.3 140.1 139.6 139.1 138.5 137.5 137.5 137.5 137.5 137.5 137.5 137.5 137.5 137.5 137.5 141.5 147.2 149.3 150.4 148.9 148.8 148.9 148.6 148.2 147.1 145.5 143.6 141.7 140.7 140.2 139.3 138.2 137.6 137.4 137.1 138.1 139.1 138.9 138.2 136.5 134.8 133.6 134 132.6 134.9 134.6 134.3 134.7 135.5 135.4 135.5 135.7 135.6 134.5 133.7 133.4 130 125.9 127.2 130 131.1 131.7 133.5 135.2 137 138.3 138.9 139.5 139.7 139.6 138.3 137 135.6 134.3 133.1 131.6 130.4 130.1 129.3 128.8 128.8 128.6 132.1 132.5 132.7 135.5 137.6 139.1 141.6 145.8 150.4 153.6 157 160.2 164.1 165.8 166.6 166.6 167.7 167.8 168.9 170.1 172.6 173 173.7 173.9 176.3 177.9 179.2 182.3 184.1 186 189.6 194.5 200.6 202.4
245.5 244.8 244.4 244.1 244.3 244.7 245.2 245.2 246.1 246.3 245.1 243.9 242.7 241.9 241.9 241.6 240 236.2 232.4 228.6 225 220.7 218.2 216.7 215.1 213.2 211.1 208.9 207.3 206.2 204.9 204.2 203.6 203.1 201.3 198.1 196.9 195.7 194.5 192.9 189.9 188.1 185.5 182.8 181.4 180.5 179.5 178.6 177.7 177.1 176.6 174.3 171.5 171 170.8 169.6 168.6 166.5 164.1 167.4 158.1 158.8 160.4 158.2 156.9 155.8 153.5 151 148 146.2 145.1 144.5 143.2 141.9 142 142 140.9 141.1 140.1 139.1 138.1 138.1 137.8 139 138.9 138.6 138.2 137.7 137.5 137.5 137.5 137.5 137.5 137.5 137.5 137.5 137.5 137.5 137.5 143.4 146.8 148.6 149.2 148.4 148.6 149 148.1 147.4 145 143.5 142.4 141.4 140.1 139.2 138.4 137.7 136.9 136.6 136.4 137.5 139.1 139.4 138.3 136.5 134.8 132.7 132.6 134.3 135.3 134.9 134.5 135.9 135.2 135.4 135.5 135.8 135.8 134.5 134.1 133.8 131.4 127.4 126.4 129.6 130.5 131.3 133.2 135 136.7 137.6 138.2 138.8 138.4 137.5 136.2 134.8 133.3 132.3 131.6 131 130.1 128.2 128 128.4 128.3 132 133.4 134.7 135.3 134.9 137.6 139.6 143.1 148.4 153.1 156.2 160.7 161.4 164.9 164.8 164.6 165.9 167.2 167.9 169 170.2 172 172.7 174.3 176.2 178 180.9 181.6 182.5 186.3 189.5 191.9 197 202.5 205
247.2 246 245.5 245.6 245.9 246.3 246.6 245.9 246.4 245.5 244.4 243.2 242 241.1 240.7 239.6 238.1 235.3 230.6 227.3 223.9 220.3 218.6 216.9 215.2 213.9 211.8 209 207.2 206.4 205.7 205 204.3 203.7 201.7 199.4 198.2 196.9 195.6 193.7 190.2 188.4 186.2 182.9 181.4 180.4 179.4 178.5 177.6 177 176 173.2 171.7 172.1 171.8 169.2 168.1 167.5 167.4 163.6 163.4 163.4 163.5 162.7 160.9 158.4 156.6 153.1 149.5 147.4 145.9 144.9 143.6 142.3 141.5 141.5 140.8 141.2 141 139.7 138.7 139.4 139.3 138.1 138.1 137.8 138.2 137.9 137.5 137.5 137.5 137.5 137.5 137.5 137.5 137.5 137.5 137.5 137.5 140.9 144.3 146.3 147.6 148.1 148.6 148.9 148.6 146.3 144.7 143.3 142 140.8 139.7 138.8 138.1 137.5 136.5 135.8 135.5 138.1 138.4 137.9 135.5 136.4 134.6 132.1 131.4 131.6 132.4 133 134 135.4 135.6 135.6 135.6 136.4 136.5 134.4 133.6 132.7 130.6 126.9 125.2 127.5 129.6 131.1 132.4 134.8 136.4 137.1 137.7 138.3 137.1 135.7 134.4 133 132.4 131.8 131.1 130.5 129.5 127.9 129.8 131.2 131.5 133.4 134.2 135.4 137.7 137.2 137.5 141.1 143.9 148 153.3 156.3 159.3 161.6 163.2 162.5 163.7 165 166.4 168 169 170.1 172.3 173.7 175.3 177.1 178.1 180.7 182.7 185.4 187.5 190.6 194.7 199.1 204.4 206.2
249.2 248.3 246.8 247.2 247.6 247.9 247.8 247.2 246.2 245 243.8 242.6 241.4 239.8 238.5 236.9 234.7 231.7 228.8 225.4 222.3 220.4 218.7 217 215.3 214 211.6 208.4 207.7 207.1 206.4 205.7 205 204.2 202.1 200.6 199.3 198 196.3 194.4 191 189.1 186.3 183.1 181.3 180.3 179.4 178.4 177.5 176.6 175.6 174 173.1 172.4 172.1 167.9 169.9 170.6 170.5 169.9 168.8 167.6 167.4 165.9 164.2 162 159.9 158.1 153.9 149.9 147.3 145.9 144.5 143.7 142.5 141.1 140.9 141.1 141.7 140.8 139.9 140.2 139.5 140.5 138.6 139.6 138.1 137.8 137.7 137.5 137.5 137.5 137.5 137.5 137.5 137.5 137.5 137.5 137.5 140.1 144.2 146.6 146.9 147.5 148.1 148.5 148.5 146.1 144.5 143.2 141.8 140.5 139.3 138.6 137.9 137.2 136.6 134.9 134.1 135.6 135.8 134 133.4 132.1 133.8 131.8 130.3 130.8 131.6 133.3 133.6 134 136 136 135.4 136.8 138.8 134.6 134 131.5 130.3 128.4 125 129 129.3 130.2 131.8 134.1 136.1 136.7 137.3 137.6 135.9 134.2 133.2 132.6 132 131.4 130.6 129.7 128 129.8 132.1 133.5 134.6 134.8 135.6 136.3 138.6 140 138.6 141.4 143 148.7 151.4 151.7 157.4 158.6 160.8 162.9 163.8 164.7 166.3 168.5 169.4 170.3 171.6 174 176.1 177.7 179 181.9 183.7 186.6 189.3 193 195.7 200.4 205.7 210.3
250.9 249.7 248.9 248.6 249.1 249.5 249 248.3 246.6 245.4 244.2 242.6 240.8 238.5 236.6 234.4 231.9 229.2 226.5 224.1 222 220.8 218.9 217.1 215.4 214 210.8 208.6 207.9 207.2 206.5 205.5 204.3 203.6 202.9 201.8 200.4 198.9 197 195.1 192.9 190 186.6 183.2 181.9 180.5 179.5 178.5 177.6 176.7 175.6 175.1 174.7 173.9 172.9 170.6 172.8 173.7 173.9 173.5 172.7 171.7 171.1 170.7 169.1 166.9 164.6 160.1 156.3 152.5 150.1 148.7 146.7 145 144 142.6 141.2 141.6 142.1 141.7 141.7 141.5 141.3 141.5 141.4 140.1 140.8 138.1 138.3 137.8 137.5 137.5 137.5 137.5 137.5 137.5 137.5 137.5 137.5 141.4 143.5 145.5 146.2 146.9 147.5 148 147.4 146.1 144.4 143 141.7 140.5 139.5 138.8 138.1 137.5 136.3 134.4 132.7 132.6 134.2 132.4 132.4 131.6 130.5 131.6 127.7 129 132.4 132.8 133.2 135 136.3 135.8 135.2 134.8 134.6 134.4 134.9 131.8 130.6 129 124.6 128 129.1 130.3 131.9 133.9 135.3 135.9 135.8 135.6 134.2 133.5 132.8 132.1 131.6 130.9 129.5 128 126.1 131.8 134.1 134.9 135.8 136.2 138.6 139 140.2 143.8 142.9 140.1 146.6 149.9 152.9 156 158.6 160.2 161.8 162.8 164.2 165.7 167.1 169.1 169.1 170.7 171.5 173.6 176.2 178.3 180.3 182.1 185.6 187.2 190.7 193.8 198.8 203.3 207.7 212.1
251 249.8 249.4 249.9 250.9 250.1 250.1 248.8 246.9 245.4 243.6 241.7 239.9 237.4 234.9 232.8 230.7 227.7 225.3 223.3 222.4 221.2 219.3 217.3 215.5 213.1 210 208.7 207.9 207.1 206.4 205.7 205.1 204.4 203.7 202.7 201.5 199.8 198.3 196.9 193.7 190 186.9 183.4 182.2 181 179.7 178.9 177.2 176.1 175.6 175.3 174.5 173.6 170.3 173.9 175.8 176.4 176 176.2 177.1 176.6 175.2 175.2 172.7 170.9 168.3 164.5 160.5 156.2 152.9 151.3 149.3 146.9 145.5 144 142.1 142.3 142.5 142.2 142.3 142.3 142.4 142.3 142.1 141.6 141.8 139.5 138.2 138 137.5 137.5 137.5 137.5 137.5 137.5 137.5 137.5 140.2 142.2 143.5 144.5 145.3 146.1 146.9 147.5 146.6 145.6 144.2 143.1 142.1 141.1 140.2 139.3 138.2 136.8 135.3 133.6 131.6 131.4 131.3 130.2 130.1 130.1 126.1 125 124.3 126.1 133.2 133.1 133 134.8 134.2 134.9 135.2 135.2 134.6 133.5 133.3 132.3 130.6 129.3 125.3 123.3 127.7 129.8 130.7 133.1 133.9 134.4 134.2 134.3 133.8 133.2 132.5 131.8 130.9 128.8 127.1 129.9 128.3 133.4 135.6 136.3 137 137.7 139 142.1 143.3 144.7 141.5 143 147.2 151.2 154.3 156.6 158.8 160.1 161.8 164 164.2 166.2 168 168.4 170.1 171 171.9 173.3 175.4 176.8 180 183.6 187.8 190.8 194.5 197 198.2 201.1 210.1 213.1
250.6 249.3 248.8 250.1 251.3 249.7 250.1 248.8 246.6 244.6 242.7 240.9 238.8 236.3 233.8 231.6 228.6 226 224.4 222.5 222 220.9 219 217.1 214.7 211.6 210.8 208.6 208.2 207.8 207.2 206.5 205.8 205.1 204.5 203.5 203 201.7 200.3 197.7 194.5 190.5 187.1 183.8 182.4 181.2 179.4 178.7 178 176.9 176.1 173.6 172 170.9 172.6 176.5 178.8 179.6 178.4 181.1 182.7 182.7 181.6 179.6 177.1 174.7 171.9 168.6 164.5 160.4 157.1 155.5 151.4 150.9 149.7 147.6 145.8 145.2 144.4 144.6 144.2 143.7 143.5 143.5 143.2 141.1 142.4 141.3 137.9 137.5 137.5 137.5 137.5 137.5 137.5 137.5 137.5 138.1 140.4 142.8 143.2 144 144.8 145.6 146.4 147.1 146.5 145.5 144.8 143.8 142.8 141.9 140.8 138.9 137.3 135.9 134.2 132.2 129.5 130.8 130.2 126.4 128.8 126.7 124.1 122.4 123.1 123.8 130.5 132.3 132.3 133.2 134.7 135.8 135.6 135.3 133.6 132.1 131.7 131.1 129.4 127.5 125.1 123.2 126.5 127.6 130.4 131.7 132.3 132.8 132.6 133 133.5 132.8 132.1 131.5 130 127.4 127.6 129.3 130.6 136.5 137.5 138.2 138.9 139.4 140.3 141.8 144.2 144 144.1 142.1 146 150.9 154.4 156.8 159.1 160.1 162 163.8 164.1 165.4 167 169.2 170.5 171.4 172.2 174 176.7 179 184.5 188.3 192.5 195.8 198.7 202.2 204.3 206.1 205.7 214.9
249.4 248.3 247.7 248.5 248.8 249.1 249.2 248.2 246.2 244.2 242.2 240.2 237.9 235.5 232.3 229.3 226.2 225 223.6 221.9 221.3 219.8 218.3 215.5 212.7 210.6 209.4 208.5 207.7 207.3 207 206.7 206.4 205.9 205.2 204.4 204.9 203.7 201.7 198.5 195.4 191.6 187.3 184.1 182.6 180.7 179.3 177.6 177.7 175.6 174.8 176.1 176.2 176.7 177.4 179.8 181.9 183.4 184 187.2 189.4 188.8 186.7 184.5 182.5 180.4 177.9 172.9 168.7 164.6 161.3 160 154.9 156 155 153.1 151.6 150.2 148.3 148.2 147.3 146.9 147.8 145.6 144.2 143.9 143.9 142.7 140.4 137.5 137.5 137.5 137.5 137.5 137.5 137.5 137.5 140 142.7 143.1 143.3 143.7 144.5 145.3 146.1 146.9 146.4 145.8 145.1 144.5 143.6 142.4 141 138.8 136.6 134.8 132.3 129.8 127.3 126.9 125.8 123.9 124 123.8 122.9 122 122.4 123.2 124.2 128.5 131.9 132.8 133.7 135.1 136.1 135.8 133.4 131.6 130.5 129.9 129 127.9 126 123.5 125 126.6 128.1 129.7 130.8 131.2 130.8 131.6 132.4 132.7 132 131.4 129.5 126.5 127 130.4 132.4 138 139.7 140.4 140.7 141.3 142.4 143.5 144.6 144.3 144.2 146.1 148.2 152 154.2 155.7 158.5 161.3 162.6 163.5 163.4 164.8 167.2 168.7 170.7 171.6 172.9 174.9 180 182.1 186.2 191.1 195.9 199.4 202.6 208.5 211 212.5 214.3 215.3
246.9 246 245.5 245.8 246.7 248.3 247.7 246.8 245.6 243.6 241.6 239.6 236.6 233.3 229.6 226.7 225.1 224.1 222.7 221.2 220.3 218.7 216.8 214.7 212 210.1 209 208.4 207.5 206.8 206.5 206.2 205.9 205.5 205.2 206.5 206.9 205.6 202.5 199.4 196.2 192.7 188.4 184.5 182.7 181.5 180.4 179.2 176.6 176.8 178.1 178.5 179.1 179.6 180.7 183.4 186.5 189.3 190.8 193 195.6 194 191.8 190 188 186 182.9 177.7 173.2 169.1 166.7 162.8 161.2 162.2 160.1 157.9 155.9 154.7 153.8 153.3 152.1 151 150.2 149.6 147.1 145.9 145.9 143.3 143 137.5 137.5 137.5 137.5 137.5 137.5 137.5 137.5 142.2 142.9 143.1 143.3 143.6 144.3 145.1 145.9 146.6 146.2 145.8 145.5 145.1 144 142.6 141 138.7 136.4 134.1 132.1 130 128 125.4 123.8 123.6 122.8 123.5 123.3 122.5 121.7 122.6 123.5 126.3 129.9 132.7 134.1 134.4 134.4 134.4 133.4 131.5 130.6 129.9 129.1 127.3 124.4 122.8 125.2 126.1 127.4 128.5 129.3 129.5 128.9 130.2 131.2 132 132.4 131.7 128.9 126.2 128.6 130.8 134.2 138.9 141.1 142.1 142.4 143.4 144.5 145.6 146.1 145.4 145.4 147.9 150.3 154.5 156.6 160.1 160.9 161.8 163.8 164.3 164.9 166.1 167.8 169.3 170.8 172.3 173.8 175.7 181.3 184.8 188.3 193.6 198.3 201.3 205.8 214.3 217 221.1 220.7 222.8
244 243.1 242.9 243.6 245 246.3 246 245.2 244.3 243.1 241.1 239.1 235 230.9 228.1 226.5 223.5 222.9 221.9 220.5 219.1 217.2 215.2 212.6 212.1 210.4 208.7 208.3 207.4 206.4 206 205.7 205.4 205 205.7 206.5 207.6 207.1 203.8 200.3 197 193.7 189.2 185.8 183.2 181.9 180.8 178.8 177.7 179.4 179.9 180.4 182.6 183.6 184.6 187.3 190.3 194.6 198 199.5 201.4 199.7 199.1 198.3 195.3 191.9 187.9 182.4 179.1 174.7 170.6 169.8 168.2 167.4 165.1 163.3 161.6 160.8 159.8 158.3 156.5 156 156.3 154.6 151.8 148.8 147.1 143.9 140.8 137.5 137.5 137.5 137.5 137.5 137.5 137.5 137.5 142.5 142.5 142.9 143.4 143.6 144 144.8 145.6 146.4 145.9 146.4 147 146.4 144.6 142.8 140.9 138.5 136.1 133.8 131.7 129.8 128.1 126.7 125.9 125.1 123.8 123.2 123.6 122.9 122.2 121.9 122.8 125.9 132.3 133.3 134.2 135.1 134 133.7 133.1 131.1 130.6 129.9 129 126.3 122.9 123 124.5 125 125.9 127.8 128.1 127.4 127.3 127.3 130.9 131.8 132.5 131 128.7 127.5 129 131.9 136 139.9 142 143.6 144.6 145.6 146.6 147.7 148.2 147.6 146.8 149.5 152.2 155.4 158.5 161.7 162.6 163 163.9 165.6 166.6 167.5 168.6 170.4 172.1 173.4 174.4 176.9 182 187 190.7 196 199.9 203.5 210.1 219.8 224.3 229.6 233.7 235.1
241.1 240.7 241 242.3 243.5 244.6 245 244 242.9 241.7 240.5 237.4 233.5 230.4 228.5 225.9 222.6 221 219.7 218.7 217.1 215 213.5 211.4 211.4 209.8 208 207.9 207.3 206.3 205.5 205.2 204.9 205.5 206.3 207.2 208 207.7 205.1 201.2 196.9 193.2 189.4 187.1 184.3 182.3 181.3 177.6 180 180.6 181.2 182.6 184.8 187.1 188.6 191.9 195.4 199.8 203.2 205.2 206.6 205.5 205.3 204.3 201.1 197.3 192.8 187.2 182.9 179.9 176.6 174.2 173.6 172.4 170.4 169.2 167.7 165.9 165.4 164.9 163.5 162.6 162.4 160.1 157.5 153.8 150.2 145.6 142.2 139.8 137.5 137.5 137.5 137.5 137.5 137.5 137.8 142.3 142.5 142.1 142.6 143.4 143.9 144.6 145.4 146.1 146.6 147.6 148.2 147.1 145.2 143 140.7 138.3 135.9 133.5 131.5 129.8 128.2 127.3 126.6 125.8 124.9 123.5 123.5 123.1 122.5 121.8 122.3 124.6 133.7 137.5 137.3 135.4 134.5 133.3 132.1 131.4 130.7 129.8 128.3 123.4 122.1 122 123.1 124.4 124.8 126.1 122.4 124.9 126.7 127.9 126.5 128.2 128 124.8 126.4 130.5 131.4 133.6 137.8 140.5 143.1 145.3 146.5 147.6 148.8 149.8 150.3 149.9 149.6 151.2 154.1 157 160.1 163.4 164.4 165 164.2 165.8 166.8 168.7 170.3 171.8 173.5 174.8 176.2 178.9 183.1 188.8 193.9 198.8 201.6 206.4 214.6 223.4 231.1 236.3 241.7 244.2
239 239.6 240 241.3 243 244.2 243.9 243 242 241 239.8 236.6 233.9 230.6 228.8 226.2 223.6 221.2 219.2 217.5 216.5 213.1 212 210.3 208.3 207.2 207.8 206.2 206.7 206.1 205.3 204.7 205.3 206.1 206.8 207.4 207.8 207.9 205.5 200.7 196.5 192.8 189.3 187.4 186 183.9 180.3 180.9 181.7 182.6 183.8 185 187.9 190.3 193.2 196.6 200.1 204.5 207.6 210.4 211.8 212.6 211.3 209.5 206.7 202.7 196.4 192.6 188.3 184 181.5 182.6 180.4 178.3 176.2 174.6 173.4 172.8 171.8 171.1 170.4 169.6 168 165.2 162.5 158.4 151.7 147.8 145.1 142.3 137.5 137.5 137.5 137.5 137.5 137.5 138.6 140.8 142.5 142.2 141.8 142.3 143.6 144.5 145.3 147.9 148.9 149.7 149 147.2 145.1 142.9 140.6 138.2 135.8 133.4 131.6 129.9 128.7 128 127.2 126.4 125.6 124.6 123.2 123.4 122.7 122 122.3 125.5 131.7 135.9 136.4 136.2 134.7 134.1 132.9 131.4 130.7 129.7 127.7 121.3 122.4 122.3 122.5 123.3 124.2 121.8 125.5 127.2 128.4 129.1 126.9 126.5 127.9 128.3 129.5 131.2 132.5 135.2 139.6 142.1 144.8 147 148.2 149.3 150.5 151.6 152.3 152 152 153.5 155.8 158.6 161.5 164.3 165.7 166.3 166.2 166.5 168.7 170.9 172.9 173.2 174.9 176.3 178.9 182.1 186 190.1 196.7 200.9 203.8 210.7 219.7 230.8 238.9 244.2 248.3 251.8
237.6 238.6 239.1 240.2 241.9 243.6 243.4 242.4 241.5 240.5 239.5 237.9 235.5 232.9 230.1 226.6 223.9 221.6 219.6 218.4 217.2 215.3 213.7 211.4 209.2 206.8 204.9 204.1 205.6 205 204.9 204.3 204.8 205.4 205.8 206 206.2 207.2 205 200.9 196.2 192.7 189.1 187.3 185.9 181.7 182.8 183.4 184 184.9 186.2 188 191.6 194.8 198.2 201.1 204.5 208.5 212.2 215 216.8 217.8 216.4 213.8 210.6 207.2 201.8 197.7 192.4 188.1 186.8 187.4 186.8 185 182.9 180.9 180.6 179.8 178.5 177.7 176.6 175.4 173.5 170.3 165.6 161.3 153.9 148.2 145.1 142.6 137.5 137.5 137.5 137.5 137.5 137.6 137.9 138.5 139.8 141 139.9 142.2 143.7 144.7 147.1 150.8 151.4 151.6 150.1 147.1 144.9 142.8 140.6 138.1 135.7 133.4 131.8 130.3 129.3 128.6 127.8 127.1 126.3 125.2 124.2 123.6 122.9 122.6 123.6 125.5 129.4 133.1 137.1 139.7 138 137.8 135.1 132.2 130.6 128.7 123.5 122.2 122.7 122.7 122.7 123 122.8 124.6 125.1 127.2 128.4 129 129.3 129.8 129.5 129.9 130.9 132 134.1 137.4 141.3 143.7 146.5 148.7 149.9 151 152 153 153.8 153.8 153.9 155.3 157.6 160.3 163 165.4 166.3 167.1 167.2 168.3 170.3 172.5 174.7 176.6 178.2 179.9 181.9 185.2 189 192.4 198.2 202.3 208.2 216.1 227.1 239.6 247.6 253.3 255.9 259.2
236.2 237.3 238.1 239.2 240.9 242.7 243.6 243.7 242.7 241.8 240.7 239.4 237.7 234.5 231.5 228 224.4 222.2 220.1 218.8 217.7 216.6 214.8 212.3 210 207.8 207.1 205.3 202.9 204.5 204.4 203.2 204 204.2 204.4 204.6 204.8 205 204.3 201.5 195.8 192.3 189.6 187.6 185.5 183.7 185.6 186.3 186.6 187.4 189.4 192 194.9 197.6 201.4 205.1 208.9 212.6 216.2 219.5 220.4 221.3 221.2 218.5 215.7 212.3 207.3 202.8 197 193.5 193.2 193.7 192.9 191.2 189.2 187.5 187.7 187.5 186.6 185.6 182.6 181.2 179 175.2 170.8 164.4 155.8 149.2 145.4 142.1 139.1 137.5 137.5 137.5 137.5 139.3 140.6 139.3 138 138.3 138.7 142.1 144.1 145.3 149.4 153.4 153.8 153.1 150.7 147.8 144.8 142.6 140.5 138.1 135.7 133.6 131.9 130.8 129.8 129.1 128.5 127.7 126.9 126 124.9 123.9 123 121.6 123.6 127.3 133.3 135 136.5 136.4 136.4 134.8 133.7 133 130.4 129.5 121.7 122.6 122.7 122.8 122.9 122.8 122.4 124.2 125.8 127.1 128.2 129.1 130 130.6 130.9 131.4 131.9 133.2 135.5 139.3 143.1 145.4 148.3 150.4 151.4 152.4 153.4 154.4 155.2 155.4 155.6 156.9 159.3 162 164.7 166.4 167 167.8 168.3 170.8 173 175 176.2 177.9 180.4 182.9 186.1 188.7 191.9 196.5 201.7 208 214.8 224.3 235.1 246.1 253.7 262.3 266.3 269.7
234.9 236 236.8 238.2 240.1 241.9 243.3 243.4 243.5 243 243.2 242.5 239.6 236.4 232.6 229.4 225.7 224.4 223.5 222 220.9 220.3 216.3 212.9 210.8 209.6 207.2 205.8 203.6 204 203 201.8 202.5 203.1 203.3 203.5 203.8 203.8 203.4 200.7 196.5 192.3 190.6 188.4 184 185 187.7 188.3 188.7 190.9 194 195.9 198.2 200.5 204.1 207.9 211.7 215.7 219.5 223.6 224.2 224.9 224.8 222.6 219.9 217.1 212.7 208.3 202.7 199.3 199.7 199.2 199 196.9 194.3 193.1 193.5 194.5 192.9 192.8 190.2 187.1 184.1 179.8 174.1 166.1 159.1 153.4 148.2 143.2 141.2 140.1 137.5 137.6 139.2 141.9 142.2 140.9 139.7 138.1 138.5 142.2 144.6 147 151.9 155.7 155.8 154.2 151.4 148.4 145.5 142.5 140.3 138 135.7 133.7 132.5 131.4 130.4 129.7 129 128.3 127.6 126.7 125.6 123.9 122.4 123.1 124.9 129.7 132.9 134.5 136.7 137.1 135.2 132.6 131.7 131.5 130.1 127.2 121.1 121.8 122.2 122.3 122.3 122.5 122.2 123.7 126 127.5 129.7 130 131.5 131.7 132.3 132.9 133.4 134.7 136.9 139.7 143 145.8 148.6 151.6 152.8 153.8 154.8 155.9 156.4 156.4 156.7 158.5 160.9 163.9 166.6 167.9 168 168.5 169.4 175.4 176.3 177 179.4 181.5 182 184.5 188.7 192.6 196.7 201.5 207.3 214.6 221.4 232.5 243 252.6 261.3 270.1 274.7 277.3
233 234.9 236.1 237.3 239.2 241 242.4 243.4 244 244.6 245.4 246 242.4 238.1 234.2 230.7 227.3 226.4 225.1 224.6 224.4 220 216.3 213.7 211.8 210.1 208.5 206.4 204.9 203.6 202.8 200.8 200.2 201.3 202.3 202.1 202.9 202.6 202.1 200.4 197.2 192.8 191.3 187.1 187.5 188.2 189.5 190.1 190.9 193.5 196.4 198.5 201.2 203.8 206.8 210.6 214.4 219.3 223.8 225.5 226.4 227.2 227.2 226.3 223.6 221.7 216.9 212.2 207.2 204.9 205.4 205.6 205.8 202.8 200.7 199.3 199.2 201.4 199.8 198.3 196.3 194.2 189 184.2 177 168.2 161.8 155.8 150.2 144.4 143 141.2 140.5 143 142.9 142.4 142.6 141.7 140.9 138.7 140.5 143.3 146.2 150 155.4 158 157.7 154.9 152.1 149.1 146.2 143.2 140.2 137.9 135.8 134.1 133 131.9 130.9 130.2 129.5 128.9 128.2 127.4 126.2 124.8 123 122.5 124.9 127.7 132.2 134.9 135.2 135.5 135.6 134.4 133.9 130.9 130 127 123.2 120.4 121.6 121.6 121.7 121.9 122.7 124.4 126 127.9 130 131 131.8 133.7 133.4 134.4 135 136.5 139.1 141.9 144.3 147.5 150.1 151.8 154 155.2 156.3 157.5 157.6 157.3 158.4 160 162.5 165.6 168.6 169.4 169.7 171.4 173.8 179.7 180.5 182.6 183.5 186.2 187.9 188 191.5 197.5 204 208 214.2 222 230.2 240.5 250.7 261.6 269.8 277.4 283.3 286.5
230.4 232.6 235 236.7 238.2 240.1 241.6 242.6 243.5 244.6 245.7 244.5 242.2 239 234.8 231.8 228.6 227.2 225.9 225.7 225.5 220.5 217 215.1 213.2 211.2 209.2 207.3 205.6 203.9 202.6 200.6 201.5 200.4 200.3 201 201.6 201.3 200.7 198.3 194.6 192.2 191.3 190.7 191 191.4 191.7 192.2 193.6 195.8 198.6 201 203.6 206.3 209.3 212.7 216.5 221.7 225.4 228.4 229.5 230.1 229.8 229.2 226.9 224.3 220.7 215.9 212 210.4 211.1 211.5 210.7 209 206.9 206.1 206.6 209 207.5 205.7 204.8 199.1 194.4 186.5 178 169.3 163.5 158.1 151.2 146.3 144.6 143.5 142.3 143.9 143.5 143.4 142.3 141.1 139.7 138.2 140.5 143.6 147 153.7 157 159.7 158.8 155.4 152.9 149.9 147 144 141.1 138.3 136.4 134.5 133.4 132.3 131.4 130.7 130.1 129.4 128.7 128 126.5 125.1 123.7 121.9 124.3 129 131.2 133.9 134.8 135 133.7 132.9 132 130.2 130.3 128.4 123.3 119.9 121.1 121.1 120.6 121.5 123.8 124.6 126.7 128.7 130.3 131.4 132.2 133.1 134.2 135 136.4 139.2 141.7 144.3 146 149.1 151.6 154 155.3 156.4 157.7 160.1 159.6 158.3 159.8 161.4 163.8 167 170.1 171.2 173.5 175.8 178.3 182.9 187.3 189 188.3 191.6 192.6 193.7 198.7 203.4 211.5 214.9 224.1 232 239.5 247.5 259.7 270.7 279 285.8 292 295
228 230.1 232.3 234.8 237.2 238.9 240.5 241.9 242.9 243.8 244.7 244.6 242.1 239.3 235.9 232.3 230.3 228 226.8 226.7 224.4 219.9 218 216.1 214.2 212.2 209.4 207.2 205.8 204.4 201.7 201.5 200.8 201.4 201.7 200.7 200.5 201.1 200.5 199.5 197.8 196.4 194.7 193.3 193.7 193.8 194.3 194.4 196.4 199.3 201.3 203.6 206.1 208.7 211.7 214.9 219.4 223.9 226.9 230.3 231.8 232.1 231.8 231.1 229.5 226.7 224.2 220.4 217 215.8 216 216.1 215.5 213.9 213 213.4 214 215.2 213.5 212.2 209 202.9 196.8 190.1 179.6 171.9 167 161.7 153.6 147.7 146.1 145.5 144.5 144.7 144.3 143.7 142.3 140.9 138.7 137.9 140.9 145.8 148 157.7 158.1 158.1 158.4 155.9 153.6 151 148.1 145.1 141.1 138.8 136.9 135 133.8 132.8 131.8 131.2 130.5 129.8 129.1 128.5 127 125.6 123.7 121.2 123.8 127.8 130.4 132.7 133.1 133.5 132.2 131.2 130.4 127.8 127.2 125.8 121.5 120.2 120.9 121 121.3 121.8 124.2 125.3 129.1 129.3 130.1 131.2 132.5 133.5 134.6 135.9 138.4 141.3 144.1 146.6 148.2 150.7 153.1 155.8 157 157.8 160.1 161.1 160.8 159.7 160.7 162.3 164.8 167.9 171 173.4 175.7 180.1 183.7 189 194.3 195.4 191.7 198 198.5 202.2 206.8 212.7 218.8 224.1 234.7 242 246.9 255.8 266.8 276.4 286.7 295 301 303.7
224.5 227.1 229.8 232.4 235.5 237.7 239.3 240.8 242.2 243.1 243.9 244.2 242.8 240.3 236.4 232.6 230.8 229.3 227.6 227 223.8 220.3 219.4 217 215.2 213.1 209.7 207.7 206.6 205.5 204.3 203.5 203.5 203.4 202.8 202.3 202.1 202.3 201.9 201.5 200.5 198.9 197.4 195.6 195.7 195.2 196.3 196.5 199 201.2 204.2 206.2 208.7 211.5 214.4 217.7 222.4 226.5 230.1 233.4 234.3 234.1 233.5 232.5 231.5 229.2 227.2 224.3 220.4 220.2 220.3 219.7 219.1 218.5 219.3 219 219.5 220.2 217.5 213.5 210.8 205.7 198.1 190.9 180.8 174.3 168.8 163.4 156.5 150.5 147.7 147.1 146.7 146.1 146.5 146.4 144.3 142.4 140.5 137.9 141.6 146.2 149.4 157 156.2 157.5 157.6 156.3 154.3 151.7 149.1 145.2 141.4 139.4 137.5 136 134.7 133.3 132.3 131.6 130.8 130.1 129.7 129.1 127.6 125.7 123.4 121.9 123.4 126.3 129.7 131.9 132.8 132.7 131.9 130.9 129.3 128.5 126.2 123.6 119.1 120.3 120.8 120.2 122.4 123.4 124.6 126.3 128.6 131 131.4 132.6 133.9 134.5 135.5 137.6 142.7 143.7 145.9 147.9 149.9 152.5 155.4 156.7 157.9 159.7 161.1 162.1 161.9 161 161.7 163.2 165.8 168.8 171.9 174.9 178.5 184.5 189.3 194.4 200 202.9 199.8 203.2 205.7 208.3 212.8 220.7 226.7 235 245.8 250.6 255.7 264.5 274.5 286.1 295 302.8 309.9 312.7
220.3 223.2 226 230.1 233.7 236 238 239.5 240.9 242.2 243.4 243.9 242.3 240.2 235.9 232.9 230.6 229 227.9 227.1 223.9 220.9 220.2 218.9 217.2 214 209.8 208 207 206.1 206 205.5 205.5 205.3 204.9 204 203.7 203.4 203 202.5 202.1 201.1 199.9 198.4 197.7 199.6 199.6 199.2 200.9 203 206.3 208.8 211.5 214.4 217.3 220.8 225.3 229.1 232.7 235.5 235.9 235.3 235.2 235.1 233.8 232 230.2 228.1 223 223.4 224.2 223.2 222.2 223.4 223.3 223.4 224.3 223.5 221.1 214.6 211.9 206 198.1 190.2 181.4 175.7 170.5 164.8 158.3 152.3 149.7 148.8 148.7 148 146.7 146 145.8 143.7 139.7 138.5 142.8 145.3 150.7 153.9 155.6 156.9 157 156.4 155.2 152.6 149.3 145 142.1 139.9 138.3 137 135.7 134.4 133.3 131.9 131.2 130.7 130.2 129.6 128 126 123.5 120.9 122.9 124.6 128.1 130.6 131.3 131.8 131.4 130.6 129.8 128.4 126.1 119.2 119.7 120.3 122.1 121.6 123.4 124.7 125 127.5 130.1 131.7 132.9 134 135.3 135.5 138.3 140.5 144.7 145.7 147.3 149.2 151.2 154.2 156.5 158.2 159.4 160.9 162 163.2 162.8 162.4 163.1 164.5 167.1 170 172.9 176.1 181.3 187 193.7 202.8 208.2 209.3 205.9 209.9 212.5 214.9 218.3 226.5 233.8 245.6 254.9 261.8 264 272.2 282.1 291.6 301.1 308.7 314.2 318.3
216.9 219.6 222.9 227.4 231.9 234 235.9 237.7 239.5 241 242.3 243 241.5 239.4 235.7 233.2 230.8 229 228.3 227.2 224 221.5 220.7 219.7 218.8 214.8 209.8 208.6 207.6 207.3 207.1 207.1 207.3 207.3 207.2 206.3 205.6 204.4 204 203.5 203.2 202.5 201.3 201.5 202.8 202.5 203.3 202.7 204 206.1 208.2 210.5 214.3 217.2 220.1 223.9 227.9 231.1 234.5 235.9 236.5 236.5 236.3 236.7 237.4 235.5 232.8 230.1 225.2 225.9 226.3 225.9 225.2 225.4 226.3 226.7 230.5 228.7 223.3 217.7 213 207.3 200.1 191.2 183.3 178.1 172.6 166 159.6 153.1 152.1 150.4 149.5 148.4 147.5 146.5 144.3 142.1 141.2 137.4 141.6 145.9 149.9 152.9 154.9 155.6 155.8 155.4 154 151.6 148.1 145 142.7 140.7 139.4 138.1 136.9 135.6 134.4 133.7 131.9 131.4 130.9 130.1 128.3 126.6 124.4 121 121.8 124 126.6 129.4 130 130.6 130.3 130.2 129.4 128 122.1 120.3 122.1 122.1 122.7 123.2 123.6 125.2 126.4 128.9 130.8 132.1 133 134.1 136.8 137.6 139.5 143.3 146 147.7 149.3 150.6 152.5 155.9 156.9 159.6 160.8 161.7 162.8 164.3 163.8 163.6 164.5 166 168.5 171.5 174.4 179.8 184.9 190.1 197.3 208.6 213 215.6 215.4 219.7 221.9 222.8 226.1 233.2 245 256 265.6 272.8 273 278.5 288.7 298.1 306.5 313.5 319.4 323.8
213.7 216.5 220.2 224.6 228.3 231.1 233.5 235.4 237.2 239 240.9 241.6 240.8 238.6 236 233.4 231.3 229.6 228.8 226.7 223.9 221.3 219.9 219.6 217.6 214.3 210.7 209.2 208.6 208.4 208.2 208.3 208.5 208.6 208.9 209.1 208.3 206.7 205.6 205.1 204.7 204.5 205.5 205.3 205.7 206 207 206.8 208.8 211 211.2 212.6 216.5 220.1 222.9 226.9 230.5 233.4 234.9 236.1 236.5 236.9 239.1 238.2 240.6 237.7 235.3 231.3 227.4 228.3 228.4 228 227.5 227.4 228.8 230.1 233.6 231.1 226.4 221.7 216.2 207.8 202.1 192 185 179.7 173.9 166.7 159.1 152.9 152 151.1 150.2 150 148.5 147.4 144.1 139.9 138.5 137.4 142.6 147.3 152.9 154.1 154.2 154.5 154.7 154.1 152.7 150.5 147.1 144.9 142.6 141.5 140.4 139.2 138.1 136.8 135.5 135.7 134.3 132.8 132.2 130.9 128.7 126.9 125.1 122.5 121.1 123.2 124.8 127.9 128.8 129.3 129.4 129.1 128.1 126.4 118.4 120.5 122.9 123.2 123.2 123.3 125.1 125.6 127.9 129.3 131 131.9 133.6 138.7 139.6 139.7 141.3 145.5 147.5 149.8 151.3 152.6 153.9 156.2 157.5 160 162.2 162.4 165 165.4 165 164.8 166.3 167.8 170.7 173.9 176.9 183 190 195.3 202.7 211 216.3 221.8 222.6 223.9 229.5 232.3 234.9 244 256.8 262.7 273.9 282.6 281 286.4 294.8 303.1 311.4 317.8 323.7 330.3
210.9 213.6 217.6 221 224.1 228.3 231.3 233.1 235.1 237.4 239.7 241.3 241.1 238.9 236.4 233.8 231.9 230.3 228.5 226.2 223.6 220.1 218.8 216.5 214.2 211.7 211 209.9 209.8 209.7 209.6 209.8 210 210.2 210.6 211.1 210.9 210.6 208.7 208.1 207.8 208 208.6 209.6 210 210.1 210.8 211.9 211.8 214.3 215.2 216.6 218.2 221.9 226.1 229.7 232.5 235.2 235.2 235.8 236.3 237 238.8 237.7 240.2 236.8 235.1 231.9 228.4 228.6 228.8 229.2 229.3 229.7 230.9 232.4 233.5 232.6 230.1 224.6 216.7 208.4 199.9 191.6 186 180.6 174.6 166.1 158.6 152.8 151.9 151.1 150.7 151 150.3 148.3 143.2 138.5 136.2 136.5 143.2 147.7 154.3 154.2 153.8 153.4 153.6 152.8 151.4 149.7 146.7 144.8 143.4 142.3 141.2 140.1 138.9 137.7 136.6 136.1 136 135 133.6 131.8 129 126.9 125 123.4 119.6 122.1 124 126.3 127.1 127.9 127.1 126.9 126.7 123.8 118.9 120.5 122.7 123.3 123.2 124 126.3 128.3 130.2 132.2 132.5 134.3 137.6 140.5 142 142.7 144.2 146.8 149.1 151.6 153.1 154.3 155.9 157.6 158.9 160.9 162.7 164.9 166.3 166.6 166.3 166.6 167.9 170.1 173.7 177.4 181.2 187.3 194.6 201.5 208.6 215.7 224 229.3 231.8 232.8 234.5 238.6 242.7 254.8 263.6 272.1 288 299.3 295.1 293.9 302 308.2 314.5 321.3 327.9 337.4
207.3 210.8 213.6 217.1 221.3 225.2 227.8 230.8 233.9 236.2 238.5 240 239.9 238.3 236.4 234.2 232.3 230.6 227.7 224 220.7 217.9 216.3 214.4 212.4 211.1 210.5 210.4 211 211.1 213.1 215.5 215.9 216.6 215.9 215.4 214.9 215.1 214.5 213.7 212.9 213.5 214.2 215.8 215.4 214.9 214.7 215.1 215.5 216.9 219.6 220.9 222.1 223.6 228.1 231.9 234.6 235.8 235.7 235.2 234.7 235.2 237.8 236.7 236 234.6 233 230.8 227.8 228.6 229.2 229.5 230 230.8 231.3 232.9 234.4 235 230.2 223.4 215.4 205.7 197.9 191.9 186.8 181.3 174.8 166.4 158.5 152.9 152 151.6 151.2 151.9 150.8 148.8 145.1 140.2 136.8 134.8 141 147.6 153.3 153.8 153.4 152.9 152.6 151.5 150.1 148.3 146.4 145 143.7 142.8 141.9 140.9 139.8 138.7 137.6 137.1 136.6 136.1 135 132.4 129.6 126.9 125 122.9 121.2 119.7 121.8 124.1 125.6 126.4 126.1 126.6 125.9 122.4 118.9 121.9 122 123.2 123.9 125.3 125.4 127.9 131.3 133.2 133.2 135.8 138.9 141 142.8 143 144.4 147.8 150.1 152.7 154.7 156.1 158.1 159.4 160.2 163.9 164.7 166.6 167.7 167.9 168 168.3 170 173.1 176.6 181.5 186.4 192.8 199.9 208.3 214.7 223.8 231.2 233.5 238.9 240.2 238.6 243.2 251.4 260.3 269.2 282.7 295.5 306 305.5 303.4 307.6 313.1 318 324.4 331.8 341.2
203.6 207.6 210.9 214.1 218.6 221.8 225.8 228.5 231.5 234.8 236.2 237.8 238.2 237.1 235.3 233.8 232.1 230.6 228.3 224.2 219.5 215.5 213.7 212.1 210.8 211.5 211 211.3 212.4 215.1 218.8 220.9 222.2 223.1 223 221.9 221.2 222.5 222.9 221.4 220.4 220.6 220.8 221.1 219.9 219.3 218.6 218.7 219.7 222 222.7 224.9 226 227.9 230.3 233.9 236.1 236 236.2 234.2 233.7 233.3 235.6 235.5 234.1 232.3 229 227.6 227 227.9 228.7 229.5 229.7 230.8 231.6 232.7 236.3 235.1 231.3 222.8 213.9 205.3 199.3 194.6 188.7 182.5 173.9 165.8 157.9 152.5 151.3 151.6 151.4 151 151.4 148.5 146.7 144.6 137.3 132.8 139.5 145.5 151.4 152.3 152.6 152 151.5 150.2 148.7 146.9 146.1 145.5 143.9 143 142.1 141.4 140.7 139.6 138.6 138.1 137.6 136.9 135.3 132.7 129.6 126.8 124.3 122.6 121.8 120 120.1 120.8 122.9 124.9 125.1 124.9 124.9 121.4 119.3 120.2 121.4 122.6 124.4 125.3 126.8 127.7 131 133.7 134.1 137.1 139.4 141.5 143.6 143.8 146.2 148.8 151.2 153.8 156.3 158.9 160.3 161 161.3 165.5 166.1 167.2 168.7 169 169 170.4 172.4 176.3 181.6 186.6 192.7 198.5 207.8 213.9 218.6 224.3 231.9 236.7 242.1 244.6 242.8 249.7 257.2 266 276 286.7 299.2 310 312.3 311.5 312.1 316.7 321.7 328.3 336.1 344.5
200 203.7 207.2 211.5 215 218.4 221.5 224.6 228.2 231.9 233.1 234.5 234.8 234.7 233.8 232.1 231.5 230 228.3 222.2 217.5 213.3 212.2 210.9 210.6 211.3 211.9 212.9 214.7 218.8 222.9 224.6 226.3 227.7 230 231.7 231.9 233.6 232.6 230.1 229.2 228.3 228.3 226.8 225.4 223.8 223.1 223 225 226 226.3 226.9 228.5 232.3 232.8 235 237 235.9 236.9 233.3 232.8 232.1 231.8 231.2 230.5 229.4 227.4 225.8 225.6 226 226.6 227.9 228.7 229.8 230.8 232 236.9 234.4 232.8 223.5 213.6 206.1 199.3 195.1 191.4 183 172.5 164.3 155 151.6 150.5 149.6 148.6 148 145.3 144.2 143.5 138.8 135.8 132.4 138.3 143.9 149.3 150.8 150.9 150.6 150.1 148.9 147.2 145.4 146.4 145.9 144.3 143.2 142.4 141.8 141.2 140.5 139.6 139.1 138.2 137.4 135.6 133 129.6 126.6 124.8 123.4 121.3 118.9 118.7 120.2 120.9 121.9 123.7 123.3 121.1 119.1 119.1 119.8 120.7 122.7 123.4 124.8 127.6 129.1 131.1 132.9 135 136.2 138.8 141.5 144.1 144.9 147.2 149.5 151.7 155.1 159.4 161.4 162.5 163.4 163.3 165.9 167 168.8 169.8 170 170.9 172.5 175.3 179.5 187.3 193.2 200 207.9 215.5 222.1 224.4 228.2 233 237.8 243.7 248.7 249.9 255.6 261.7 271.7 281.8 290.6 300.7 312.6 314.2 315.1 314.9 320 325.3 331.3 340.1 348.5
196.1 199.8 204 207.6 211.2 215.4 218.3 220.9 225.4 228.5 230.5 230.9 231.3 231.4 230.5 229.5 229.1 228.5 225.5 218.8 214.3 211.5 210.6 209.7 210.3 210.9 212.8 215.2 218.4 222.5 226.7 230.6 232.3 235 239.7 241.7 243.8 242.7 240.3 239.5 238.8 238.1 237 233.8 231 229.6 228.8 228.4 229.9 231 230.9 230.3 231.3 234.3 234.9 236.1 236.8 234.4 237 234.7 231.9 230.6 229.7 229.2 228.8 227 225.2 224.2 224 223.9 224.9 226.2 227.5 228.5 229.4 230.3 232.5 231.7 228 219.7 212.1 206.4 199.3 194.3 188.7 182.1 172.8 161.9 154 151.4 150.2 149.1 147.6 145.4 143.2 144.7 143.3 139 134.6 131 138.5 143.5 147.6 148.9 149 149.1 148.6 147.1 145.5 144.5 146.1 145.1 143.8 143.5 142.9 142.3 141.7 141.1 140.4 139.6 138.7 137.9 135.8 133.2 129.7 126.3 125.4 123.2 120.2 117.5 119.1 119.6 119.3 119.4 122.1 121.6 118.6 118.2 119.5 120.6 120.7 122.2 125.3 125.5 127.5 128.5 131.5 133.9 136.2 137.2 140.2 142.6 144.7 146.2 146.7 149.3 153.5 157.5 161.3 162.1 163.5 165.5 166 167.6 168.6 170.8 170.9 171.1 172.6 174.2 177.3 182.4 191.9 199.7 208.2 217.9 224.5 226.8 232.9 238.9 242.1 243.8 248.1 252.3 254.4 261.3 263.5 274.5 286 293.9 302.4 309.6 314.7 316.7 318.8 322 326.4 333.1 341.6 349.3
192.8 197 201.1 204.2 207.8 211.7 214.9 217.9 220.9 223.3 225.7 226.3 226.6 226.6 225.8 225.1 223.3 222 219.3 215.8 212.1 209.8 208.9 209 209.8 211.9 214.9 217.9 222.1 226.3 230.6 234.5 237.5 242.1 246.1 251.3 254.4 252.5 251.2 249.9 248.7 247.3 244.2 240 237.2 236.3 235.4 236.1 235.7 235.7 235.5 234 233.8 234.7 235.8 235.7 235 233.1 235.4 235.2 229.9 228.2 227.5 226.9 226.4 225.4 223.6 222.8 222.6 222.8 223 224.1 225.3 226.4 226.1 226.5 228.2 225.3 221.9 215.3 209.6 205 197.5 190.2 186.6 181.4 171.8 158.6 153 151.8 150.4 147.8 144.3 142.8 140.9 143.5 142.4 136.2 133 132.7 137.8 144.2 145.7 146.5 146.8 146.9 146 144.3 142.6 142.8 144.3 143.6 143.7 144 143.4 142.8 142.2 141.9 141.6 140.2 139.3 138.3 135.7 132.8 129.4 126.5 125.5 122.7 119.8 117 118.5 119.2 118.8 118.3 117.6 118 118 118 119.7 120.6 121.8 122.9 123.4 125.6 127.4 128.4 130.9 133.7 134.8 137.1 141.2 143.4 145.5 147.4 147.6 150.3 155.7 159.7 162.6 164.2 165.9 166.8 168.2 169.2 170.4 171.8 171.7 172.7 174.2 175.8 178.7 184.2 195.6 206.6 216.4 225.7 230.2 235.5 243.8 248 252.3 254.5 256 256.5 260.5 266.8 271.2 277.8 286.5 294.8 301.7 308.5 314.8 318.2 320.4 323.5 327.7 334 340.6 346.1
188.8 193.4 197.9 200.8 204.5 207.2 209.7 212.1 214.9 217.6 219.5 219.7 220 219.6 219.2 217.8 217.4 216.6 214 211.6 209.3 208.1 207.3 208.5 210.2 211.8 214.6 219.7 224.8 229.9 234.5 238.4 242.5 248.5 255.1 261.6 263.9 262.6 260.1 259.4 260.6 257.4 253.5 247.5 244.5 243 244.7 245.2 243.4 241.8 239.5 238 236.7 237.5 238.1 237.5 233.7 231.9 231.7 231.3 228 226.2 225.5 224.9 224.2 223.6 222.4 221.6 221.4 221.7 221.9 222.1 222.8 223.8 223.2 222.6 222.5 219.9 216.2 210.2 205.5 201.1 193.7 187.4 184 179.7 169.3 159 151.9 150.4 149 145.1 141.7 140.9 138 136.5 135.3 134.1 132.4 130.8 136 140.1 143.2 144 144.4 144.6 143.1 141.4 140.3 141 142.5 142.9 143.7 144.2 143.9 143.4 143.2 142.9 142.7 141.4 139.9 138.1 135.2 132.3 129.1 126.6 125.4 122.6 119.8 117.2 117.1 117 117.8 117.5 117.9 117.2 118 118.7 119.6 120.4 121.6 123.1 124.6 126.5 126.7 127.7 129.4 130.3 132.9 136.9 141.7 144.3 146.2 147.9 149.7 150.5 157.6 162 164.2 165.8 167.3 168.2 170.6 171.9 172.1 172.9 174.1 174.7 175.9 177.4 180.1 185.3 196.3 209.8 222.9 230.6 236.8 245 251.4 257.9 263.7 265.3 265 266.4 268.7 274.5 278 283.8 290.5 298.7 307.6 313.1 312.8 318.9 322 325.2 329 333.5 339.3 344.7
184.8 189.6 193.8 196.5 200.2 202.8 206.1 208.2 210.3 212.3 212.6 212.8 212.5 212.5 212.9 213 212.6 211.8 210.3 208 206.3 205.8 206.1 207.7 209.3 210.9 215.2 221 226.1 231.2 236.6 242.2 246.8 253 261.3 266.3 269.7 269.9 269.1 270.5 270 265 259.3 253.8 252.4 250 252.4 253.9 253.9 251 246.9 242.3 240 240.6 239.7 239.2 234.6 229.6 228.1 226.5 225 224.2 223.7 223.2 222.7 222.2 220.8 220.3 220.4 220.7 220.2 220.6 221.3 221.1 220.3 219.6 218.4 215.1 210.7 205.5 200.1 195.2 189.1 184.7 180.2 174.1 163.9 153.1 149.3 146.5 144.2 143.7 140.7 140.7 137.9 135.9 135.6 133.4 131.8 131.4 135 137.6 140.1 141.5 141.9 141.6 140.4 139 137.8 139.6 141.2 142 142.8 143.7 144.5 144.4 144.2 144 143.8 142.6 141 137.6 134.7 131.8 128.9 126.8 125.4 122.3 119.5 116.5 116.5 116.4 115.3 116.9 117.6 117.5 117.9 118.6 119.5 120.2 121.5 122.3 124.4 126.9 128.9 129.9 128.4 130.3 132 136.4 141.9 144.8 147.1 148.8 150.5 151 157.5 163.3 164.6 167.2 168.5 170.5 173 174.5 175 176.2 175.8 177.5 178.5 179.3 181.9 186.1 197.2 212.6 226.1 234.8 243 254.3 259.4 268 275.8 275.5 275.3 274.9 278.6 282.8 285.8 292 298.3 303 311.4 317.2 318.3 319.5 322.3 325.7 329.2 334.5 339.8 344.6
181.3 186.3 189.2 191.7 194.2 198.5 200.4 202.5 204.6 205.8 206.3 206.3 206.4 206.6 207.3 208 207.8 207.2 206.1 204.3 204 203.6 204.5 205.7 207.4 209.4 214.5 220.7 226.9 233.4 239.1 244.6 250.2 256.2 261.7 268.2 273.2 274 275.1 276 273.6 267.8 263.4 259.4 259.7 257.2 258.7 260.4 258.5 254.9 251.8 247.9 242.6 241.5 240.2 238.6 234.4 229 225.9 224 223.5 222.7 222.9 222.4 222 220.2 219.6 219.4 219.6 219.7 218.5 219 219.4 218.2 217.1 216.2 213.5 210.4 205.3 200.7 196.4 192.1 186.7 180.8 175.5 168.2 159.4 151.3 148.3 146.3 144.7 143.8 142.8 142.2 138.2 136.1 135.5 133.2 131.3 130.6 134.8 137 138 139 138.8 138.1 137.1 135.4 134.8 136.8 139.6 140.7 141.6 142.4 143.1 143.9 145 145 144.8 143.8 142.1 139.1 134.3 131.4 128.5 126.5 125.3 121.6 117.6 115.4 116.1 116.4 116.6 116.9 116.5 117.5 117.8 118.8 119.6 119.9 121.3 123.7 126.4 128.8 130.2 131.3 131.7 129.2 132.3 136.4 141.7 145 147.2 149.3 151.1 151.9 158.3 162.4 164.3 169 170.5 171.5 173.2 175.7 177.5 178.4 179.4 179.9 180.2 181.6 184 187.4 198.8 213.8 226.8 237 247.6 258.1 266.9 276 283.2 281.7 283.3 283.1 283.6 289.1 290.8 305.3 308.8 310.1 315.1 320.4 322.1 321 325 327.6 332.5 337 341 347
178.8 182.3 185.2 187.7 190.2 192.7 194.8 196.8 198.5 199.4 200.3 200.5 200.6 200.9 201.7 202.6 203.1 202.5 201.6 201.6 201.5 202 202.9 203.8 205.4 208.6 213.6 220.3 227.3 234.9 241.6 247.2 252.8 256.5 260 266.3 273.5 277.1 278.3 278.7 275.6 270.7 267.3 265.4 265 264.7 263.5 265.3 263.5 258.7 253.5 250.4 246.4 243.2 241.6 239.7 236.8 231.6 226 222.7 222.1 220.7 220.8 221 221.2 219.3 218.8 218.3 217.9 217.4 216.6 217.1 216.6 215.3 214.1 211.9 209.6 206.6 201.8 197.3 193.5 190.1 185.8 180 173.3 166.1 157.5 151.7 148.4 148.1 144.2 143.2 141.5 141.6 138.1 137 135.1 133.5 131.9 131.5 134.7 136.4 136.4 135.9 135.2 134.6 134 132.9 132.6 133.7 136.5 139.5 140.3 141.1 142.4 143.8 145.3 145.5 145.4 144.2 143 140.2 136 131 128.8 127.6 125.4 122.2 117.1 115.8 116.2 116.4 116.6 117.2 116.2 117.2 118.7 118.9 119.7 120.7 121.3 123.9 127.1 129.6 131.3 132.9 133.7 134.4 131.9 135.6 141.8 145.2 147 148.5 149.5 152.2 159.4 160.5 164.7 169.3 170.9 173.6 174.8 177.2 179.3 180.2 181.2 181.7 181.9 184.2 186.7 189 200 214.3 224.8 239 251.2 259.8 269.7 278.5 286.5 287.2 290.2 290.6 289.7 293.2 300.4 315.4 319 318.9 323.4 323.9 325.6 326.2 327 330.1 333.7 338.5 343.7 349.3
174.8 178.2 181.1 183.7 186.3 187.9 189.9 191.7 193 193.9 195 195.3 195.3 196.4 196.7 198.2 198.9 198 197.8 197.8 197.8 199 200.6 201.8 203.4 206.8 211.7 217.5 225.8 234.9 242.9 249.7 254.9 257.7 260.5 264.3 271.8 277.1 281.1 281.1 278.5 274 271.9 270.5 270.3 269.8 268.2 268.5 267.5 262.8 255.8 252.6 248.7 245 243 240.8 239.4 234 229.1 224.4 222.3 221 220.8 219.4 220.6 218.1 216.4 215.3 214.9 213.1 214.4 214.9 214 212.9 211.5 209.9 207.6 203.8 199.9 195.8 192.5 188.7 183.8 180 173.3 164.9 155.2 150.1 149.2 148.6 144.8 143 140.3 139.5 138.9 138.2 137.2 132.8 129.5 131.4 132.5 133 134.8 133.9 133.1 132.4 131.7 131.2 130.9 131.7 133.8 137.1 139.6 140.9 142.3 144 145.4 145.8 145.5 144.9 143 140.3 136.1 131.9 128.7 126.9 124.2 121.6 118.9 115.5 115.5 117.6 117.4 117.5 117.4 117.5 118.9 121.2 120 121.6 121.5 124.5 127.5 129.9 131.7 133.8 136 137 136.1 134.2 140.7 143.5 146 146.7 147.7 151.4 157.2 158.9 162.5 166.9 171.5 174.3 174.2 177.5 179.8 180.9 181.8 183 184.4 187.1 189.3 191.4 201.9 214.3 225.9 239.9 252.2 261 272 282.4 288 291.3 294.7 294.6 295.9 300.5 308.7 320 326 325.7 327.2 328.7 328.8 329.4 329.2 331.1 334.4 340.3 345.6 349.6
170.9 174 176.8 179.8 181.5 183 184.8 186.2 187.6 188.5 189.7 190 190.4 191.8 192.4 194 194.3 194.1 194 194 194.2 195.8 197.3 198.6 201 205.2 210.1 215.1 223.2 232.2 241.8 251.2 255.7 258.1 259.5 262.4 269 276 281.9 283.4 280.2 277.1 275.7 274.1 273.5 271.6 271.2 271.8 269.8 263.7 257.1 253.7 250.4 248.2 245.9 245.2 241.8 239.3 233.4 227.4 225 223 221.8 220.4 218.6 216.3 213.5 212.2 211.3 209 211.4 212 211.7 210.1 209.1 207.9 205.5 201.9 198.9 194.4 191.1 187 182.1 177.1 172 164.5 154.6 151.4 148.7 147.5 147.4 145.6 143 139.7 140.1 140.5 138.6 135.4 131.7 129.8 130.2 131 132.1 132.3 130.3 129.8 126.6 126.5 129.3 130.7 132.1 135.5 139 140.9 142.5 144.2 145.5 145.8 145.2 144.4 142.9 139.8 134.1 131 129.2 127.1 123.2 119.7 117 115.2 116.4 118.4 118.4 118.5 118.4 118.5 119 121.9 121.5 123 124.2 125.9 127 128.8 131.2 133.9 136.2 139.2 140.8 136.1 135.3 136.3 141.6 143.4 146.7 149 154.5 157.9 162.4 165.5 168 170.9 173.8 176.8 178.3 179.9 182.4 183.8 185.5 188.3 190.4 192.5 203.1 214.7 226.2 239.8 250.9 261.3 272.5 282.1 288.1 293.2 296 297.9 303.8 307.9 320.6 327.9 330 330.7 331.4 331.9 332 332.4 331 333.2 335.2 340.4 344.6 350
167 169.5 172.1 174.2 176.3 177.7 179.2 180.6 182 183.2 184.4 184.7 185.8 187.3 188.4 189.8 190.4 190.3 190.2 190.3 190.9 192.5 193.8 195 197.4 201.1 206 210.9 217.4 227.7 237.5 246.8 251.9 254.5 255.4 259.6 264.5 271.1 277.4 280.9 280.1 277.8 276.7 275.6 273.9 270.7 271.2 275.1 272 264.9 259 256.1 253.4 252.6 253.5 249.3 247.2 244.5 237.8 233.1 230.7 227.7 226.5 223.8 221.4 218.4 215.5 211 208.1 206.1 208.1 208.7 208.2 207.7 206.6 205.5 202.9 200.5 198.1 193 189.1 184.6 179.7 174.7 167.7 159.3 154.6 151.8 151.4 149.9 149.7 147.5 145.1 141.9 143.1 142.4 141.1 136.2 133.9 131.1 128.3 129.1 129.2 129.2 129.4 129.6 128.8 127.6 126.6 127.6 130.4 133.7 137.4 140.7 142.4 144.1 145.3 145.5 144.8 144.1 141.6 139.1 135.3 131.6 129.3 127 122.3 119 116.7 114.6 116.5 117.6 118.4 118.8 118.8 118.8 123.1 121.9 121.8 122.3 124.2 126.9 127.8 129 131.5 133.9 136.7 140.1 141.1 140.6 139.9 141.1 138.3 142 144 146.2 151.3 155.6 160.3 163.4 165.4 167.8 170.6 173.2 175.7 180 182.8 184.1 186.2 189 191.1 192.8 203.3 213.8 224.3 239.2 249.6 258.5 269.5 279.4 286 292.3 296.5 301.1 308.1 313.4 330.1 338.1 338 336.2 333.6 333.7 334.5 334.7 334.1 335.7 337.9 342.1 347.3 350.6
161.8 165.2 166.7 168.8 170.9 171.2 173.7 175.2 176.8 178 179.2 179.8 181.2 182.7 184 185.2 186.3 186.4 186.5 186.7 187.7 189 190.2 191.4 193.6 197.1 201.9 206.7 212 221.1 230.5 238.8 246 249.8 251.3 255.1 259.7 265.8 272.7 276.6 278.7 277.8 276.9 275.3 271.9 269.4 269.1 269.8 268.8 264.6 261.8 259 257.4 263.9 260.7 255.3 249.5 244.4 239.6 235.5 233.6 230.6 228.9 229.8 225.4 220.2 216.8 213.1 210.1 206.4 205.2 206.2 207.2 205.7 204.5 203.3 201.6 199.3 196.2 190.9 186.6 181.6 176.6 170.2 163.3 157.6 155.1 154 152.7 152.2 150.4 148.8 147 146.2 145.3 143.4 139.4 136.4 134.5 133.1 131.6 129.6 128.2 130.6 131.3 130.7 130.1 129.6 127.2 126.2 130 132.3 136.8 140.2 141.9 143.7 144.7 145.1 144.6 143.2 140.7 137.7 135.9 133.9 130.9 126.6 121.8 118.8 116.8 114.7 116 117.5 118.4 119.1 119.1 119.8 121.8 123.1 124.2 126.1 124.7 127.6 127.8 128.5 132.4 135.3 136.9 139.8 140.8 140.7 143 143.4 142.2 142.6 143.1 145.1 147.3 151.8 157.9 160.8 163.2 166.4 169.4 171.5 174.2 179.1 182.5 184.6 187.1 189.6 191.5 192.9 200.5 212 221.9 236.5 247.8 256.4 266.9 277 283.3 289.4 294.6 302.5 310.3 320.1 335.7 343.8 343.4 340.7 337 335.3 335.9 335.7 336.2 336.9 340.2 344 348.7 350.5
158.8 160.8 162 164.4 165.8 167 169.3 170.6 171.9 173.3 174 175.2 176.6 177.9 178.6 179.8 181.5 182.5 182.8 183.1 184.2 185.4 186.6 187.8 189.8 193.5 197.7 202.4 207.2 213.8 222.2 229.8 237.3 242.3 245.9 249.3 254.8 261.3 267.7 271.8 274.2 276.2 276.9 275.1 271.8 269.2 267.7 267.3 267 266.1 264.8 261.8 261.3 268.4 264 259 253.6 246.9 242.3 238.3 234.7 231.6 229 227.2 224.5 221.8 218 216.1 212.3 207.4 204.2 205.4 205.8 204.1 202.8 201.6 200 198 194 189.1 184.1 179.4 173.6 165.1 162.6 161 159 157.9 158.5 157.2 156.4 154.7 151.2 148.4 147.6 144.8 141.6 138.9 135.4 133.9 133.1 131.7 130.8 132.2 132.3 131.7 131.2 130.6 128.7 126.4 128.4 130.9 136.1 139.8 141.5 143.3 143.9 144.4 144.2 142.4 140.3 137.5 134.9 133.8 132.6 127.4 121.4 116.1 114.9 115.2 117.8 118.7 119 119.4 119.9 120.9 123.1 123 125.4 126.8 125.7 126.7 127.6 128.8 132.4 135.5 136.2 138.9 139.6 140.9 142.7 143.7 143.4 145.6 146.9 146.8 145.4 147.6 151.1 155.9 161.6 164.3 167.3 170.1 173.8 178.4 181.4 182.9 186 188.9 190.4 191.9 198.1 210.5 219.2 231.9 243.9 253.2 262.9 271.4 280.1 286.5 293.8 301.9 311.8 324.6 338.6 344.5 346 343.8 337.3 335.7 335.9 336.7 337.6 337.4 341.7 346.8 350.5 352.8
155.5 157.5 158.3 160.1 160.5 161.9 164.5 166.3 166.9 167.6 169 170.5 171.8 172.4 173.2 174.2 176 178.1 178.5 178.8 181 182.2 183.3 184.2 185.6 187.9 192.5 197.2 202.4 208.5 214.2 221 230.1 233.9 238.3 243.7 249.4 256.4 262.9 267.6 270.4 273.4 276.8 277 272.2 268.1 267.3 266.8 266.5 267 268.2 265.8 263.8 267.6 264.6 260.4 255.7 251.6 246.6 243.3 239.8 234.9 230.3 227.3 225.1 222.3 219.5 216.6 212.9 207.9 204.8 203.5 203.1 202.3 201.1 199.7 198.6 196.3 192.4 188 182.3 175.8 173.8 171.6 168 165.2 163.4 162.6 163.3 162 160.4 158 155.6 152.8 149.8 147.3 144.5 141.2 137.4 135.3 134 132.7 132.4 133.8 133.2 132.5 131.8 131.1 130.3 128.2 126 130.2 134.7 139 141.4 142.6 143.2 143.6 143.1 140.8 139.2 136.2 133.9 133.1 131.7 125.7 118.7 114.4 114.4 116 117.7 119 119.3 119.6 120.3 122 123.4 125.3 126.2 128.2 127.9 127.7 126.3 129.4 132.2 133.5 135.2 137.1 138.7 140.2 141.9 143.7 145.5 147 149.5 150.6 152.5 152.7 149.3 152.7 158 164.7 165.9 169.3 173.5 177.4 178.9 180.3 183 186.8 188.3 189.9 195.5 207 216.1 225.9 237.9 248 256.8 265.4 274.8 282.6 290.3 299.3 311.9 326.7 338.7 345.4 345.9 343.3 337.9 334.8 334.9 337.4 338.2 339.2 342.3 347.4 351.6 356.7
150.4 152.5 154.3 154.9 156.1 157.8 158.7 160.4 162.2 162.9 164 165.5 166.4 166.9 167.8 169.4 171.3 173.6 174.1 174.4 177.5 178.7 179.1 180.5 181.8 183.3 187.2 191.9 197.6 203.4 209.1 215.2 223.1 227.6 233.1 238.6 244.1 250.1 257.7 263.1 266.9 269.8 274.7 277.1 270.9 267.6 266.9 266.3 266.1 265.8 268.1 266.4 266.6 270.6 269.4 263.9 258.7 257.5 253.7 250.4 245.7 241.9 237.6 232.9 228.4 224.4 221.2 217.7 213.5 209.5 207.7 205.7 203.6 200.6 199.4 197.2 197.2 193.5 190.3 185.3 180.2 179.9 177.7 175.5 173.3 171.2 168.8 169.2 167.9 165.9 164.2 161.3 158.6 156.5 152.6 149.3 146.4 143.1 139.1 136.4 134.9 133.6 134.1 134.7 134 133.1 132.2 131.5 130.4 128.4 125.4 130.2 133.8 137.9 140.1 141.8 142.4 143 141.8 139.9 137.9 133.8 132.9 134.7 131.5 123.2 118.9 114.7 115 115.3 117.9 119.2 119.5 119.8 120.6 122.9 126 128.3 129.4 129.2 128.6 127.9 126.3 128.4 131.6 132.8 134.5 137.1 138.7 140 141.3 143.6 146.3 148 150.8 152.8 155.1 155.9 154.3 150.6 152 155.9 162.8 167.7 171.6 174.7 177.1 178.1 180.1 184.1 186.4 188.3 193.1 203 211.3 219.6 231.9 242 251.4 258.4 268.4 276.2 286 296.7 308.9 324.9 336.7 341.2 342.2 338.5 334.7 332.2 332.7 335.2 338.4 340.5 343.6 348.1 353.4 358
146.7 148.8 149.9 150.3 151.7 152.8 153.1 155.1 157 158.2 159.6 161.1 161.6 162.3 163.7 165.3 167 169.1 169.6 170 173.6 174.2 175.1 176.4 177.6 179.4 182.8 187.2 192.9 198.7 204.3 210.2 216.7 222.2 227.7 232.8 238.2 243.9 251.3 257.3 262.7 265.8 269.3 271 269.3 267.1 266.6 265.9 265.6 265.3 266.7 266.8 267.6 271.7 271.8 268.1 262.6 260.5 259.7 256.9 251.2 247.4 243.5 238.3 233.3 228 222.9 217.8 214.4 211.5 209.7 207.7 205.3 203.3 202.7 198.7 196.8 194.8 191.6 189.3 187.3 185 181.7 179.4 177.8 175.8 174.9 174.1 172.4 170.3 167.7 164.7 161.8 158.5 155.1 150.9 148 144.9 141.1 137.7 136.2 134.5 135.4 135.6 135.2 134.2 133.2 132.2 130.8 128.7 127.5 130.4 133.6 136.9 138.9 140.9 141.8 141.8 140.5 139.1 135.7 133 131.9 131.6 130.9 124.5 118.5 115.3 114.9 114.4 117.5 119.4 119.8 120.2 120.5 123 130.3 130.5 130.4 130.2 129.8 129.3 126.9 129.1 131.2 132.6 134.4 136.2 138.1 139.5 141 143.7 146.8 149.3 152 155.2 157.9 159.8 157.3 157.5 158.1 155 156 164.2 169.4 171.8 173.7 176.1 177.9 180.4 184.2 186.9 191.2 198.9 207 213.9 225.2 236.2 245.7 253.7 261.7 271.3 281.3 291.1 302.6 317.7 330.8 336.2 337.2 334.1 330.9 329.1 329.7 331.7 335.3 340 344.2 348.7 354 358.3
143.1 144.1 144.1 146.5 147 147.4 147.8 149.8 152 153 154.2 155.6 157 158.6 160.3 161.3 162.8 164.8 164.4 166.2 168.8 169.7 170.7 172.1 173.4 176.4 179.4 183.9 188.5 193.4 199.3 205.6 211.2 216.7 222 226.8 231.6 237.8 244.9 251 257.2 260.9 264 266.8 265.7 266.6 266.1 265.5 265 265.3 267 267.5 267.3 271.4 272.2 270.9 265.7 264 264 263.1 255.9 251.3 247.3 242.9 237.7 232.1 227.5 222.3 216.6 212.7 210.6 209.1 207.9 205.4 204.1 202.5 200.8 198.7 196.5 193.5 191.9 189.6 187.2 184.9 182.6 180.3 180.4 178.8 176.9 175.1 172.6 169 165.4 161.2 157.6 153.3 149.4 146.4 143.3 139.5 137.1 136.3 136.9 137.6 136.4 135.4 134.4 132.9 131.4 126.8 126.4 130.3 133.1 136 138.5 139.2 139.7 139.1 138.2 137.5 134.3 131.8 131.4 127.1 126 120 116.3 114.8 114.8 114.5 117.3 119.6 120 120 120.4 126.4 131.7 131.3 131.6 132.1 131.5 131.1 130.1 129.7 131.3 132.9 134.5 136.1 138 139.5 141.4 144.4 147.8 151.1 153.2 156.9 160.9 160.8 159.8 159.9 160.3 160 159 158 166.6 166.6 169.5 171.6 175.2 178.9 182.6 185.6 188.9 195.5 203.7 210.9 219.3 231.8 241.5 249.1 257.4 265.1 275.6 285.5 294.5 312.4 325.6 332.3 332.5 329.4 327.2 325.7 327 329.3 333.2 337.9 342.9 347.6 353.3 357.1
