ncols 200
nrows 88
xllcorner 220000
yllcorner 685150
cellsize 50
-1.3 -1.3 -1.3 -1.3 -1.3 -1.3 -1.3 -1.3 -1.3 -1.3 -1.3 -1.3 -1.3 -1.3 -1.3 -1.3 -1.3 -1.3 -1.3 -1.3 -1.3 -1.3 -1.3 -1.3 25.7 53.9 63.9 70.4 90.7 99.1 109.3 134.5 152.4 167.1 174.1 169.7 169.7 169.2 166.5 166.5 166.5 166.5 166.5 167 172.4 183.3 188.4 192.8 188.1 179.7 171.4 167.7 161.4 151.2 142.7 138.7 135 113.3 95.9 81.1 61.4 47 33 19.6 9.5 -1.3 -1.3 -1.3 -1.3 -1.3 -1.3 -1.3 -1.3 -1.3 -1.3 -1.3 -1.3 -1.3 -1.3 -1.3 -1.3 -1.3 -1.3 -1.3 -1.3 -1.3 -1.3 -1.3 -1.3 -1.3 0.8 -1.3 -1.3 5.1 5.1 5.2 13.9 14.7 18.3 28.1 33.6 46.6 54.2 62 71.7 79 87.3 95.8 103.9 112.4 121.1 128.5 135.7 142.2 150.9 158.9 165.2 171.9 177.8 182.9 188 192.7 202 208.9 211.8 213.3 211.3 207.5 200.9 191.8 181.4 169.8 161.3 154.8 148.5 143 136.8 134.2 129.6 128.5 128 128.8 129.3 128.5 127.6 126.5 125.4 124.9 125.4 125.3 125.2 124.8 125 124.4 124.1 127.4 129.3 136.1 142.5 149.7 156.4 165.1 173.4 184.6 197.7 209.8 221.8 235.9 248.1 261.5 276.5 282.6 300.8 315.8 326.6 334 333 338.2 347.3 357.1 366.7 369.6 359.3 342.3 328 315.5 300 286.3 273.6 263.2 244.6 244.3 264.5 272.5 283.5 294.8 310.9 327.2 351.5 375
-1.3 -1.3 -1.3 -1.3 -1.3 -1.3 -1.3 -1.3 -1.3 -1.3 -1.3 -1.3 -1.3 -1.3 -1.3 -1.3 -1.3 -1.3 -1.3 -1.3 -1.3 -1.3 -1.3 6.4 43.4 70.9 80.5 86.1 97.1 110.3 111.7 129.3 147.9 161.2 164.6 167.2 166.5 166.5 166.5 166.5 166.5 166.9 169.1 172 176 181.1 191.6 193 189.6 179.2 174.4 171.1 162 152.5 144.3 134.9 125.3 104.1 87.1 76.1 59.6 47.8 33.2 20 9.7 -1.3 -1.3 -1.3 -1.3 -1.3 -1.3 -1.3 -1.3 -1.3 -1.3 -1.3 -1.3 -1.3 -1.3 -1.3 -1.3 -1.3 -1.3 -1.3 -1.3 -1.3 -1.3 -1.3 1.3 1.1 -1.3 -1.3 -1.3 5.1 5.1 5.2 13.8 13.3 18.2 28.1 35 47.5 55 61 72.4 77.9 86.3 93.2 101.5 110 118.2 127.2 134.1 140.8 148.9 154.8 163.8 169.7 177.2 183.1 187.7 191.9 202.5 208.1 211.8 213.8 213.6 211.7 207.8 198.8 189.4 177.5 166.4 160.5 153.1 146.1 139.4 135.9 132.6 128 127.6 127.4 127 127.3 127.5 125.5 124.9 124.6 124.7 125 124.7 124.3 124.4 123.9 123.7 123.8 126 131.7 135.8 142.2 152.6 155.8 164.3 174.3 186.4 197.9 212.7 221.2 232.6 242.6 254.7 265.4 283.6 298.2 308.7 315.8 318.5 319.3 324 332 344.6 354.3 352.5 338.3 323.6 312.8 300.1 288.6 278.2 263.3 251.1 229.3 251.7 263 272 282.7 295.8 312.1 335.9 360.5
-1.3 -1.3 -1.3 -1.3 -1.3 -1.3 -1.3 -1.3 -1.3 -1.3 -1.3 -1.3 -1.3 -1.3 -1.3 -1.3 -1.3 -1.3 -1.3 -1.3 -1.3 -1.3 -1.3 20.3 64.9 80.9 88.1 90.7 103.2 115.8 120.3 134.8 144 149.8 157.9 165 167.3 166.6 166.5 166.5 166.5 168 171.1 176.9 179.6 181.4 190.5 194.5 187.2 179.8 176.5 173.8 163 154.9 146.4 139.7 124.2 103 85.8 71.4 56.7 46.6 32.3 23.1 10.2 -1.3 -1.3 -1.3 -1.3 -1.3 -1.3 -1.3 -1.3 -1.3 -1.3 -1.3 -1.3 -1.3 -1.3 -1.3 -1.3 -1.3 -1.3 -1.3 -1.3 -1.3 -1.3 -1.3 1.8 -1.3 -1.3 -1.3 -1.3 -1.3 5.4 5.7 13.2 14.7 18.9 30.5 38 48.5 54.1 61.7 71.5 79.3 87.7 94.9 102.5 111.7 118.7 126.8 134.4 141.5 147.7 156 162.6 169.3 177.6 181.3 185.9 191 201.3 207.5 211.4 213.8 215.3 214 214.4 206.1 195.2 183.6 172.3 165.7 159.9 151.1 144.3 139.1 135.4 131.7 126.7 126.3 126.1 126 127.8 125.7 124.4 123.3 124.1 124.1 124.1 123.8 123.6 123.1 122.6 122.6 123.6 126.4 131.9 137.8 142.6 150.1 156.1 164.9 175.1 187.6 201.4 208.2 218.1 228.6 241.1 250.9 268.5 280.4 292.6 299.4 300 300.7 302.7 310.4 320.5 334.8 338.8 329.9 319.9 306.8 298.2 287.2 276.7 265.1 255.2 239.3 229.8 236.1 258.2 269.2 281.3 300.7 324.1 346.5
-1.3 -1.3 -1.3 -1.3 -1.3 -1.3 -1.3 -1.3 -1.3 -1.3 -1.3 -1.3 -1.3 -1.3 -1.3 -1.3 -1.3 -1.3 -1.3 -1.3 -1.3 -1.3 6.5 49.4 73 85.3 88.2 93.6 104 122.3 126.9 132.6 139.4 152.2 157.3 166.7 170.8 170.8 169.6 166.5 166.5 168.9 171.9 177.3 182.4 183.1 187.1 194.3 184.1 182.5 180.9 174.2 166.1 158.1 151.7 141.8 126.8 102.7 86.6 70.5 58.5 45.1 33.8 23.1 14.5 -1.3 -1.3 -1.3 -1.3 -1.3 -1.3 -1.3 -1.3 -1.3 -1.3 -1.3 -1.3 -1.3 -1.3 -1.3 -1.3 -1.3 -1.3 -1.3 -1.3 -1.3 -1.3 -1.3 -1.3 -1.3 -1.3 -1.3 -1.3 -1.3 4.8 5.2 11.4 13.2 20 34.1 39.2 47.9 58.2 62.9 71.5 80.5 87.8 94.8 102.1 109.5 117.3 125.4 131.9 137.8 147.1 154 160.8 168.3 173.3 179.9 184.5 190.3 200.9 206.6 210.6 212.9 215.2 216.5 217.8 214.3 202.5 190.1 179.1 171.7 165.7 157.8 149.4 142.8 138.5 134.6 131.1 125.5 125.8 125.1 125.4 125.6 123.7 123.1 123.2 123.2 123.2 123.3 122.9 122.4 122 122.4 121.8 122.9 127.9 132.2 136.8 142.6 147.8 157.7 165 174.8 188.4 196 205.4 213.9 223.4 235.1 247.1 260.4 272.2 278.9 281.3 282.9 285.6 288.2 296.3 308.9 318.2 315.7 308.4 301.9 292.6 283.4 274.1 265.4 256.9 246.5 234.6 224.1 247.7 256.6 271 289.4 311.1 333.5
-1.3 -1.3 -1.3 -1.3 -1.3 -1.3 -1.3 -1.3 -1.3 -1.3 -1.3 -1.3 -1.3 -1.3 -1.3 -1.3 -1.3 -1.3 -1.3 -1.3 -1.3 -1.3 31.2 62.7 77.4 88.1 96.8 104.1 108.3 124 130.5 135.5 145.6 154 160.9 167 171.7 173.1 174 168.4 166.9 169.7 171.9 178.6 183.2 183.3 184.1 188.9 184.3 183.5 185.6 181.6 172.6 164.8 154.8 145.4 134 107.2 85.7 68.7 57 46.5 34.5 21.9 10.5 -1.3 -1.3 -1.3 -1.3 -1.3 -1.3 -1.3 -1.3 -1.3 -1.3 -1.3 -1.3 -1.3 -1.3 -1.3 -1.3 -1.3 -1.3 -1.3 -1.3 -1.3 -1.3 -1.3 -1.3 -1.3 -1.3 -1.3 -1.3 -1.3 4.7 5.4 6.7 11.8 21.4 35.3 43.3 53 60.6 61.4 72.9 81.1 88.7 95.2 102 109.5 117.1 124 130.7 137.4 143.4 151.6 159.7 166.3 172.7 177.7 182.9 190 199.3 206.1 209.6 212.6 215.1 216.5 217.5 217.6 210.5 198.9 185.4 178.6 172.5 164.8 157.1 149 142.1 137.8 134.3 129.9 125.3 124.6 124.6 123.7 123.1 122.9 122.4 122.3 122.4 122.6 122.2 121.8 121.8 121.5 121.2 121.5 124.4 128.1 132 137.1 142 150.5 159.4 165.6 174.3 183.5 192.8 201.1 209.6 219 228.8 237.6 246.4 255.6 260.7 262.5 267.7 269.5 274.4 284.2 291.9 297.1 298.2 292.8 284.1 278.4 270.8 263.4 256.8 246.7 235.7 214 228.7 248.5 260.7 278.7 300.1 323.9
-1.3 -1.3 -1.3 -1.3 -1.3 -1.3 -1.3 -1.3 -1.3 -1.3 -1.3 -1.3 -1.3 -1.3 -1.3 -1.3 -1.3 -1.3 -1.3 -1.3 -1.3 10.1 54 72.5 83.5 94.9 99.9 113.1 117.6 124.8 132.8 137.1 148.5 155.5 160.5 170 171.7 180.4 180.9 175.2 171.8 172.9 172.9 178.7 181.6 182.6 183.5 184.4 184.7 187.8 194.6 188 176 168.9 159.5 151 140.1 111.9 88 68.3 57.1 47 33.5 21.7 7.7 -1.3 -1.3 -1.3 -1.3 -1.3 -1.3 -1.3 -1.3 -1.3 -1.3 -1.3 -1.3 -1.3 -1.3 -1.3 -1.3 -1.3 -1.3 -1.3 -1.3 -1.3 -1.3 -1.3 -1.3 -1.3 -1.3 -1.3 -1.3 -1.3 -1.3 6.1 8.3 12 24.1 36 47.2 55.7 63.4 68.3 73.7 80.3 86.3 94.7 101.9 108.6 116.8 123 128.8 133.8 142.3 150.8 158.6 166 169.5 177.2 181.7 188.1 197.8 204.5 209.4 212.8 214.9 216.4 217.3 218.1 217.1 207.2 195.2 185.9 178.3 170.7 163.8 156.7 147.4 141.3 137.3 133.6 130.6 124 123.5 123 122.2 121.9 121.9 121.5 121.9 121.9 121.5 121.2 121 120.9 120.7 120.7 121.2 124.1 127.7 132.8 137.9 144.4 150.2 158 167.1 171.9 180.2 188.6 197.1 205.7 214 222.1 230.1 237.7 242.1 244.9 248.8 253.1 253.7 263.5 272.7 278 279.4 278.6 275.1 271 266.1 259.2 252.9 245.9 237.3 226.4 211.3 233.1 249.2 267 287.9 313.4
-1.3 -1.3 -1.3 -1.3 -1.3 -1.3 -1.3 -1.3 -1.3 -1.3 -1.3 -1.3 -1.3 -1.3 -1.3 -1.3 -1.3 -1.3 -1.3 -1.3 -1.3 40.1 77 82.5 87.4 99.3 106.4 113.2 116.8 129 133.9 135.9 150.6 157.8 161.4 169.1 176.4 187.8 184.3 176.2 177.8 177 175.3 177.7 180.8 182 182.9 187.2 190.4 192.8 194.4 189.9 179.8 170.8 162.1 150.3 137.4 114.7 89.9 69.4 57.4 44.4 30.5 17.9 6.7 -1.3 -1.3 -1.3 -1.3 -1.3 -1.3 -1.3 -1.3 -1.3 -1.3 -1.3 -1.3 -1.3 -1.3 -1.3 -1.3 -1.3 -1.3 -1.3 -1.3 -1.3 -1.3 -1.3 -1.3 -1.3 -1.3 -1.3 -1.3 -1.3 -1.3 5.8 9 16.4 27.9 38 49.3 58.1 66.4 72.9 78.3 78.4 86.5 93.3 100.4 107.7 115.8 122.5 127.7 133.8 142.5 148.8 156.2 161.2 167.3 175.7 180.6 188 195.8 203.3 208.8 212.6 214.8 216.2 217.3 218.3 216.9 212 203.7 194.3 184.7 176.8 170.9 163.9 155 147.5 141.9 136.8 133.1 130.4 129.8 128.5 122.3 120.9 121.2 120.7 121.5 121.2 120.9 121.5 120.9 120.6 120.3 120.1 120.3 120.9 125.1 126.4 133.3 138.2 142.2 148.6 155.6 158.9 169 177 184.1 192.3 199.5 206.9 214.1 222.4 228.4 232.6 235.3 236.9 241.1 246.5 256.2 262.7 263.7 263.7 263 263.2 258.8 253.6 248.8 242.6 236.7 227.1 209.6 223.8 240 258.5 279.1 303.8
-1.3 -1.3 -1.3 -1.3 -1.3 -1.3 -1.3 -1.3 -1.3 -1.3 -1.3 -1.3 -1.3 -1.3 -1.3 -1.3 -1.3 -1.3 -1.3 -1.3 27.7 60.7 85.2 90.5 94.4 100.5 106.4 107.2 119.6 131.9 144 142.5 151.5 160.5 165.9 168 175.4 192.7 188.4 183.2 183.4 177.8 176.5 177.1 180.2 181.6 182.5 190.4 191.7 192.3 194.9 192.5 182.5 173.9 163.1 150 134.4 114.5 86.4 69.9 59.7 45.1 27.8 14.4 -1.3 -1.3 -1.3 -1.3 -1.3 -1.3 -1.3 -1.3 -1.3 -1.3 -1.3 -1.3 -1.3 -1.3 -1.3 -1.3 -1.3 -1.3 -1.3 -1.3 -1.3 -1.3 -1.3 -1.3 -1.3 -1.3 -1.3 -1.3 -1.3 -1.3 -1.3 5.7 10.2 17.7 32.1 41.6 51.4 61 69.6 79 85.5 88.3 89.2 96.4 101.3 110 114.1 119.7 125.2 134.3 140.3 147.2 154.3 159.8 168.3 173.8 180.6 186.5 194.7 201.9 207.9 211.8 214.4 216 217.6 217.8 217.3 215.1 209.9 201.8 192.8 184.5 177.7 169.6 162.3 153.9 146.7 140.9 136.5 133.3 131.9 129.7 127.5 126.9 123.7 120.9 119.8 119.4 119.8 121.4 120.8 120.4 120.5 120.3 119.8 119.5 120.2 125.1 129.3 133.4 135.2 141 145.1 152.4 160.4 167.2 172 179 185.9 193.3 198.3 208.1 214.2 218.4 223.6 228.6 230.2 229.3 232.5 243.7 248.4 247.4 250.7 255.6 250.3 245.8 241.1 236.4 233.5 226.9 210.9 213.8 229.1 249.8 270.2 294.5
-1.3 -1.3 -1.3 -1.3 -1.3 -1.3 -1.3 -1.3 -1.3 -1.3 -1.3 -1.3 -1.3 -1.3 -1.3 -1.3 -1.3 -1.3 -1.3 -1.3 42.2 82.7 91.7 100.1 105.6 103.9 106.3 106.8 122.8 135.3 147.3 143.6 158.2 164.2 166.4 167.8 180.7 193.4 190.2 182.5 179.1 178.6 177 177.5 184 185.8 183.8 186.9 190.7 195.1 199.9 197.7 184.3 178.9 166.9 154.1 133.1 113.4 87.1 68.5 57 47.8 28.1 12.7 -1.3 -1.3 -1.3 -1.3 -1.3 -1.3 -1.3 -1.3 -1.3 -1.3 -1.3 -1.3 -1.3 -1.3 -1.3 -1.3 -1.3 -1.3 -1.3 -1.3 -1.3 -1.3 -1.3 -1.3 -1.3 -1.3 -1.3 -1.3 -1.3 -1.3 -1.3 5.6 8 19.8 37.7 45.1 54.5 64.2 74.3 82.2 86.9 89.3 91.1 97.3 102.6 115.9 119.7 123.2 126.3 135.3 142.2 148.6 154.5 158.9 167.8 174 179.2 184.8 192.4 200.5 206.2 210.7 213.4 215.6 217.1 218.6 218.1 217.3 214.3 209.1 200.6 192 184.9 177.5 169.3 159.8 153.4 147.1 141.3 136.3 133.3 131 128.9 126.6 123.7 120.9 120.4 119.9 119.5 120.2 120.4 120.2 120 119.7 119.3 119.1 119.3 121.4 124.1 126.3 131.9 135.9 139.4 146.3 153.5 158.4 163.1 166.9 174.4 181.7 188.6 195.9 201.7 203.5 209.1 213.4 214.4 216.5 217.3 220.3 226.4 232 234.6 236.1 239.8 236.4 232.7 230 227.5 224.6 206.3 207.7 225.8 239.2 259.6 285.3
-1.3 -1.3 -1.3 -1.3 -1.3 -1.3 -1.3 -1.3 -1.3 -1.3 -1.3 -1.3 -1.3 -1.3 -1.3 -1.3 -1.3 -1.3 -1.3 25.4 62.6 84.7 98.5 106.7 116.2 116.2 108.9 109.8 125.4 138 147.4 158.3 160.2 165.1 167.2 172.1 180.8 188.5 186.6 180.7 179.4 177.6 176.2 179.4 181.5 185.8 184.2 184.9 189 204.5 202.2 194.8 184.4 177.6 165.6 152.8 133.5 113.9 88.8 67.6 52.2 46.2 26 8.2 -1.3 -1.3 -1.3 -1.3 -1.3 -1.3 -1.3 -1.3 -1.3 -1.3 -1.3 -1.3 -1.3 -1.3 -1.3 -1.3 -1.3 -1.3 -1.3 -1.3 -1.3 -1.3 -1.3 -1.3 -1.3 -1.3 -1.3 -1.3 -1.3 -1.3 4.3 7.1 10.6 21.1 39.6 48.4 57.7 67.8 76.6 82.7 86.8 90.3 93.1 98.2 104.3 115.1 121.3 123.6 127.4 133.2 141.2 147.4 155.2 160.1 166.9 172.6 177.8 182.7 190.4 198.2 203.9 208.8 212.6 214.8 216.6 218.1 219.1 218.8 217.4 213.2 207.5 200 193.3 186 177.9 169.4 160.7 153.2 147.2 141.3 136 133 130.3 128.2 126.3 124.8 120.4 119.7 119.4 119.9 119.6 119.3 119.2 119 119 118.9 119.1 118.7 120.3 123.3 127.9 130.3 132.9 139.8 146.5 149.7 154.1 158.4 162.3 167.9 173.5 180 186.3 190.5 195.7 199.8 203.3 203.3 202.6 205.7 209.7 213.2 216.6 221 223.5 225.5 224.5 221.6 220.1 220.7 201.9 209.4 220.9 230.3 252.5 279.8
-1.3 -1.3 -1.3 -1.3 -1.3 -1.3 -1.3 -1.3 -1.3 -1.3 -1.3 -1.3 -1.3 -1.3 -1.3 -1.3 -1.3 -1.3 -1.3 39.6 81.9 89.9 100.8 110.5 115.8 113 110.1 115.8 123.5 142.3 151.8 161 163.8 167.8 168.4 177.7 179.1 182.6 180.6 179.1 181.1 177.1 175.4 181.4 178.7 181.5 182 182.2 196.2 201.7 197.4 191.3 182.9 174.3 161.8 149.1 131.5 110.5 90.6 68 47.2 39.1 21.2 4.9 -1.3 -1.3 -1.3 -1.3 -1.3 -1.3 -1.3 -1.3 -1.3 -1.3 -1.3 -1.3 -1.3 -1.3 -1.3 -1.3 -1.3 -1.3 -1.3 -1.3 -1.3 -1.3 -1.3 -1.3 -1.3 -1.3 -1.3 -1.3 -1.3 -1.3 5.2 10.2 15.3 19.9 40 49.5 58.4 68.8 76.1 82.7 86.6 91 94.7 96.9 105 113.5 120.5 123.8 126.9 132.8 140.1 146.7 153.8 160.6 165.4 170.8 176.9 181.5 188.6 195.8 202.1 208.2 212.3 214.9 217.1 218.4 220 220.1 219 217.5 213.2 206.9 201.9 196.1 188.5 180 169.2 159.8 153.5 147.1 141.2 136.8 133.4 129.8 128.2 126.8 124.2 118.8 119.2 119.8 119.5 119.3 119 118.9 118.9 118.7 118.2 118.1 118 120.1 123.9 125.8 126.7 132.9 138.1 141.3 140.4 147.9 152.8 159 161.2 167.5 173 177.2 181.7 185.9 190.3 192.7 192.2 192.8 195 198 203.2 207.5 210.3 212.9 213.4 212.4 210.9 210.7 186.3 207.3 216.4 225.4 247.5 270.5
-1.3 -1.3 -1.3 -1.3 -1.3 -1.3 -1.3 -1.3 -1.3 -1.3 -1.3 -1.3 -1.3 -1.3 -1.3 -1.3 -1.3 -1.3 21.1 55.6 81.5 92.4 103.6 116.1 116.5 114 112.7 115.5 126.6 151 159.5 163.8 165.5 169.2 176.1 183.8 179.6 177.2 177 183.2 188.3 182.7 172.7 178.5 176.8 180.2 182 183.3 196.3 196.4 190.4 184.1 176.7 167.8 158.2 144 126.1 107.5 88.3 67.4 47.1 34.5 17.1 3.4 -1.3 -1.3 -1.3 -1.3 -1.3 -1.3 -1.3 -1.3 -1.3 -1.3 -1.3 -1.3 -1.3 -1.3 -1.3 -1.3 -1.3 -1.3 -1.3 -1.3 -1.3 -1.3 -1.3 -1.3 -1.3 -1.3 -1.3 -1.3 -1.3 4.5 6.2 11.8 17.3 21.4 41.7 50.8 60.9 70.1 76.8 82.9 86.1 87.8 92.4 98.4 104.1 110.9 116.7 118.8 123.4 129.9 136.4 144.5 148.8 157.3 164.6 168.9 176.4 180.6 189.2 195.9 202.3 207.7 211.7 215.4 217.4 218.9 220.7 221.1 221.6 221.3 218.4 212.7 212.3 205 199.3 191.3 179.8 169.7 159.4 153.2 146.7 141.7 137.3 132.6 129.3 127.9 124.5 120.8 119.3 119.3 119.4 119.1 118.7 118.7 118.7 117.9 117.8 117.9 117.9 118.6 121.2 122.7 123.3 124.5 129.8 134 134.3 137.3 143 147.5 152 157.3 161.8 164.1 168.4 173 176.3 180 181.6 183.5 183.2 184.5 192.2 195.1 197.5 199 200.3 201.6 202.1 198.3 178.8 201.9 212.1 221.3 239.5 262.6
-1.3 -1.3 -1.3 -1.3 -1.3 -1.3 -1.3 -1.3 -1.3 -1.3 -1.3 -1.3 -1.3 -1.3 -1.3 -1.3 -1.3 9 37.5 63.5 80.1 89.9 108.5 127.7 125.8 118.6 113.2 114.6 127.7 157 165.1 168.1 167 169.7 179.4 186 179.3 174.2 171.8 181 186.3 180.5 170.5 171 173.8 177.5 180.3 182.8 191.3 192 183.2 174.8 167.9 160 151.9 137.3 122.5 103.8 84.7 63.2 44.9 30.7 13 -1.3 -1.3 -1.3 -1.3 -1.3 -1.3 -1.3 -1.3 -1.3 -1.3 -1.3 -1.3 -1.3 -1.3 -1.3 -1.3 -1.3 -1.3 -1.3 -1.3 -1.3 -1.3 -1.3 -1.3 -1.3 -1.3 -1.3 -1.3 -1.3 -1.3 4.9 10.1 16.8 21.2 34.7 43.5 51 58.6 71 77.1 80.4 86.4 90.9 95.6 99.2 102.7 110.1 117.1 120.9 126 131.3 137 148.9 154.9 157.2 167.2 168.2 172.8 180.9 187.6 193.9 201.7 207.3 211.5 214.9 217.9 219.7 221.5 222.9 224.5 225.3 223.8 223.3 225.3 223.1 213.9 206.7 192 179.3 169.1 159.7 152.3 146.5 140.8 136.3 133.1 129.4 126.5 123.6 120.4 118.9 118.3 118.8 118.5 118.4 118.1 117.7 117.7 117.8 117.8 118 118.7 119 119.2 121.2 121.7 125.2 128.4 129.8 133.8 138.8 142.6 148.5 151.7 156.4 158.8 160.8 163.3 168.6 171.3 173.9 172.4 173.1 176.6 181.5 185.8 187.4 188.7 190.5 191 185.3 167.8 196.5 208.9 217.7 236.4 257.2
-1.3 -1.3 -1.3 -1.3 -1.3 -1.3 -1.3 -1.3 -1.3 -1.3 -1.3 -1.3 -1.3 -1.3 -1.3 -1.3 -1.3 20.8 54.4 68.8 80.5 94.7 110.8 125.6 122.1 116.2 110.8 112.7 126.4 156.4 165.6 169.4 169 169.9 183.1 192.4 187.2 174.3 171.2 171.8 182.1 177.7 170.3 171.1 173.8 176.2 178.5 179.6 184.7 184.8 177.3 167.2 162.8 154.5 145.6 132.6 118.4 100.4 78 60.7 41.3 26.8 7.6 -1.3 -1.3 -1.3 -1.3 -1.3 -1.3 -1.3 -1.3 -1.3 -1.3 -1.3 -1.3 -1.3 -1.3 -1.3 -1.3 -1.3 -1.3 -1.3 -1.3 -1.3 -1.3 -1.3 -1.3 -1.3 -1.3 -1.3 -1.3 -1.3 -1.3 5.5 8.7 17.5 27.2 36 44.9 52.7 61.8 68.5 77.6 81.5 86.5 90.4 95.1 98.2 102.7 108.7 115.6 120.5 124.1 130.4 137.7 152.9 157.1 159.3 163.3 167.7 173.1 179 188 194.5 201 206.5 209.9 213.5 217.5 220.3 222.3 224.9 226.5 228.1 229.2 231.5 237.8 233.7 227 218.5 208.2 192.9 179.7 168.6 159.8 153.8 146.2 142.6 137.5 132.7 129.6 127.1 123.1 119.2 118.6 117.6 118.2 118.2 117.8 117.6 117.6 117.7 117.2 117.6 117.4 117.3 117.1 117.5 118.6 119.2 121.5 123.1 128.2 131.9 135.1 139.6 144.1 146.5 145.5 151.1 154.2 156 159.3 159.9 161.6 163.1 164.6 169.8 173.9 177.1 179.6 181.4 172.3 160.5 176.9 195.5 207.2 216.8 229.6 245.5
-1.3 -1.3 -1.3 -1.3 -1.3 -1.3 -1.3 -1.3 -1.3 -1.3 -1.3 -1.3 -1.3 -1.3 -1.3 -1.3 -1.3 38.5 62.7 74.8 80.5 97.5 105.6 110.8 114.5 114 109 108.5 126.1 152.6 164.9 165.9 168.5 173.4 187 190.4 184.2 176.6 169.8 169 171.3 169.2 167.6 171.4 176.8 177.7 179.8 178.3 181.8 179.7 169.2 163.1 158.8 149.5 135.8 127.9 115.5 95.4 77.2 58.8 41.3 21 7.5 -1.3 -1.3 -1.3 -1.3 -1.3 -1.3 -1.3 -1.3 -1.3 -1.3 -1.3 -1.3 -1.3 -1.3 -1.3 -1.3 -1.3 -1.3 -1.3 -1.3 -1.3 -1.3 -1.3 -1.3 -1.3 -1.3 -1.3 -1.3 -1.3 4.1 6.4 9.8 18.2 26.7 37.8 45.9 53 61 68.9 77.3 81.4 86.9 89.9 93.7 98.4 102.6 107.1 113.5 119.2 123.3 129.6 137.5 148.8 156.5 159.4 162.7 169.3 173.9 178.9 186.2 193.7 200 205.6 209 214 218.1 221 223.5 226.3 228.4 230.7 233.1 236.7 245.4 243 238.1 227.9 218.3 208.2 192.4 179 168.4 161.3 154.3 147.4 142 137.9 133.4 128.9 124.6 121.3 118.6 118 117.8 118.2 117.5 117.5 117.5 117.1 116.9 117.2 116.6 116.5 116.4 116.2 116.7 116.2 117.5 118.6 121.3 123.8 126.4 131.2 136.7 140.1 136.6 141.2 145.3 147.1 149.9 151.2 150.8 155.1 156.4 157.3 162.2 165.4 170.3 172.4 158.4 175.4 184.4 193.2 202.4 212.9 221.6 235.7
-1.3 -1.3 -1.3 -1.3 -1.3 -1.3 -1.3 -1.3 -1.3 -1.3 -1.3 -1.3 -1.3 -1.3 -1.3 -1.3 25.5 48.3 63 79.1 85.2 99.1 100.8 107.1 115.7 111.7 106.5 104.6 127 152.8 164.6 167.6 167.9 171.3 179.4 185.5 182.8 178.4 167.4 163.9 164.8 169 165 178.7 183 179.8 178.2 176.4 179.7 181.4 167.5 157.7 155.2 144 133.1 121.4 110.7 93.3 74.2 56.7 37.4 17.9 7.7 -1.3 -1.3 -1.3 -1.3 -1.3 -1.3 -1.3 -1.3 -1.3 -1.3 -1.3 -1.3 -1.3 -1.3 -1.3 -1.3 -1.3 -1.3 -1.3 -1.3 -1.3 -1.3 -1.3 -1.3 -1.3 -1.3 -1.3 -1.3 -1.3 4 6.1 16.5 21.7 26.2 36.7 46.3 52.8 62.4 67.9 75.2 82.8 86.8 90.5 94.3 98.8 102.4 105.7 111 116.7 121.6 127.7 134.4 144.9 152.9 157.9 162 165.7 172.1 179 184 190.9 199.4 206.4 210.7 214.6 218.3 222.1 225 227.8 230 232.7 235.8 239.7 247.6 249.5 248.4 240.1 230.8 218.1 208.2 191.6 178.7 170.2 163 154.1 146.9 141.7 137.2 131 125.1 121.9 120.4 117.7 117.3 117.7 116.6 117.3 117 116.8 116.9 116.5 116.3 116.1 115.9 115.6 115.5 115.5 115.6 116.2 118.3 119.5 120.8 122.4 128.8 129 129 133.5 137.5 137.2 143.7 142.3 144.3 148.9 148.5 149.3 152.3 155.1 160.3 165.6 149.5 167 181.6 188.5 195.8 206.9 215.1 227.9
-1.3 -1.3 -1.3 -1.3 -1.3 -1.3 -1.3 -1.3 -1.3 -1.3 -1.3 -1.3 -1.3 -1.3 -1.3 -1.3 32.1 51.1 68.6 76.6 81.4 90.3 103.5 108.6 116.9 114.5 105.9 101.2 123.7 152 167.4 171.5 167 167.5 177.8 179.5 181 177.7 168.5 162.2 160.5 159.1 169 180.4 184.2 179.2 176.5 175 175.6 178.6 168.8 159.8 153.2 145.6 136.4 123.5 114 98.5 80.5 64.6 42.7 19.1 8.9 -1.3 -1.3 -1.3 -1.3 -1.3 -1.3 -1.3 -1.3 -1.3 -1.3 -1.3 -1.3 -1.3 -1.3 -1.3 -1.3 -1.3 -1.3 -1.3 -1.3 -1.3 -1.3 -1.3 -1.3 -1.3 -1.3 -1.3 -1.3 -1.3 4.8 7.2 16.8 22.5 34.1 40.1 47.5 52.7 62.7 69.1 75.2 81.3 85.9 90.4 94.1 98.5 101.9 104.9 109.4 115.9 120.7 125.9 131.4 140.2 150.1 154.4 161.9 167.8 172.1 179.2 185.5 194.6 200.4 208.1 213.4 217.6 220.2 223.7 226.6 229.4 231.8 234.6 237.7 243.4 250.7 253.8 252.8 252.2 241.6 228 218.9 205.2 190.3 179.2 170.6 162.1 154.7 148.4 141.6 132.8 126.6 125.2 120.8 119.1 117.4 116.9 117 117.1 116.8 116.6 116.4 116.4 116.2 115.9 115.7 115.4 115.3 115.3 115.4 115.5 116.2 116.3 116.6 117.4 120.9 122.4 124.9 128.5 129.4 130.6 133.2 134.6 136.1 142 142.4 141.2 144 145 151.3 156.2 144.1 163.8 175.3 181.7 190.6 199.5 209 217.6
-1.3 -1.3 -1.3 -1.3 -1.3 -1.3 -1.3 -1.3 -1.3 -1.3 -1.3 -1.3 -1.3 -1.3 -1.3 9.1 30.1 52.2 66.3 75 83 84.7 101.9 104.9 118.7 123.9 106.4 97.6 119.3 149.3 162.4 165.9 163.5 167.5 176.1 175.3 175.7 174 168.4 161.3 157.5 162.1 166.6 175.6 180 177.2 176.4 174.9 174.7 171.2 167.9 162.5 153.6 146.8 140 128.5 116.5 102 83.5 66.8 47.2 22.5 9.3 -1.3 -1.3 -1.3 -1.3 -1.3 -1.3 -1.3 -1.3 -1.3 -1.3 -1.3 -1.3 -1.3 -1.3 -1.3 -1.3 -1.3 -1.3 -1.3 -1.3 -1.3 -1.3 -1.3 -1.3 -1.3 -1.3 -1.3 -1.3 -1.3 4.5 8.1 17.8 24.1 39.6 39.6 48.2 53.9 61.7 69.6 74.9 81.7 85.8 90.2 94.3 97.9 100.8 103.8 107.2 112.4 117.7 123.4 128.2 134.7 143.5 154.9 163 166.4 172.6 178.8 186.2 193.9 200.7 208.3 215 220.7 224.1 227.1 230.1 231.8 234.7 237.2 240.8 247.9 253.2 256.6 256.6 253.6 250.2 239.4 229.5 215.4 202.4 188.6 179.4 170.7 162.8 152.8 141.6 133 135.6 131.7 126.3 122.1 119.5 117.9 117.1 116.8 116.7 116.4 116.3 116.2 116.1 115.7 115.5 115.3 115.1 115.2 115.3 115.4 114.7 114.4 114.8 115.3 117 118.7 120.5 122.7 123.9 124 126.7 127.4 130.2 135.1 136 134.3 135.9 137.9 142.4 135.8 154 161.5 166 175.3 184.2 192.5 201.4 210.3
-1.3 -1.3 -1.3 -1.3 -1.3 -1.3 -1.3 -1.3 -1.3 -1.3 -1.3 -1.3 -1.3 -1.3 -1.3 8.6 23.4 53.5 61.6 80.4 84.5 87.6 98.2 108.9 113.6 115.9 102.5 94.5 112.8 140.4 149 157.1 159.7 164.7 173.6 172.1 172.6 173.2 168.3 159.7 154.9 154.7 163.7 169.1 174.8 177.4 178.2 175.4 173.3 169 171.7 161.9 153.3 145.2 138.3 126.2 113.5 98.3 81.1 59.7 42.2 24.6 12.6 1.8 -1.3 -1.3 -1.3 -1.3 -1.3 -1.3 -1.3 -1.3 -1.3 -1.3 -1.3 -1.3 -1.3 -1.3 -1.3 -1.3 -1.3 -1.3 -1.3 -1.3 -1.3 -1.3 -1.3 -1.3 -1.3 -1.3 -1.3 4.5 5.7 8.8 17.8 22.9 39.6 41.2 49.3 56 63.4 70 74.7 79.5 84.9 90.3 92.8 95.7 99.2 102.5 105.6 110.8 115.8 121.1 126 135.5 143.9 155.2 162.9 166.7 173.5 181 187.6 193.5 202.1 210.7 217.8 222.9 229.3 231.9 234.2 235.9 238.8 241.8 245.6 251.1 255.2 258.6 259.1 256.5 253.6 246.3 234.9 227.3 215.7 200.6 189.3 179.9 169.3 158.3 147.1 145.4 143 137.9 131.6 125.6 122.4 119.1 117.4 116.8 116.5 115.3 116.1 116.1 116 115.6 115.3 115.1 114.9 114.5 114 114 114.3 114.5 114 114.2 115.2 116.5 117.2 117.4 119.2 120.1 121.4 123.5 124.6 127.1 131.1 129.3 129.8 131 132.6 139.5 149.9 155.7 161.7 168.4 178.5 185.9 193.7 202.9
-1.3 -1.3 -1.3 -1.3 -1.3 -1.3 -1.3 -1.3 -1.3 -1.3 -1.3 -1.3 -1.3 -1.3 -1.3 9.9 31.8 57.7 61.5 81.3 86.6 89.5 101 102.9 106 102.8 94.7 86.2 111.8 132.5 142.5 146.6 155.2 161.1 165.6 168.8 169.4 165.5 165.7 156.3 154.4 154.9 158.5 164.2 167.9 173.4 177 173.9 173.7 169.2 169.2 160.4 153.1 145.1 137 121.4 107.3 91.4 72.6 49.2 36.4 22.4 14.7 3.9 -1.3 -1.3 -1.3 -1.3 -1.3 -1.3 -1.3 -1.3 -1.3 -1.3 -1.3 -1.3 -1.3 -1.3 -1.3 -1.3 -1.3 -1.3 -1.3 -1.3 -1.3 -1.3 -1.3 -1.3 -1.3 -1.3 -1.3 4.8 6.9 13.4 20.2 29.8 40.9 40.9 49.6 55.4 63.7 70.3 75.5 81.8 84.9 89.5 93.1 95.9 99.3 101.2 104.3 108.7 114.8 119 124.2 133.6 143.5 152.3 159.1 162.7 173.6 177.5 185.6 195.9 205.1 213.2 225 231 235.5 237.1 238.9 241.3 243.5 246.9 254.1 260.4 258.9 260 260.4 259 255.5 250.8 242.2 234.7 225.9 211.1 200.1 188.3 178.8 167.2 157.9 155.8 151.8 145.5 137.6 133.2 129.6 125.1 121.1 118.8 117.4 116.1 115.5 116 115.5 115.6 115 115.5 114.4 113.8 113.7 113.6 113.9 114.3 114.2 113.9 114 114.7 115.6 115.8 116.9 117.6 118.6 119.5 120.3 121.1 123 123.9 125.6 127 129.4 136.4 143 149.2 155.8 163.7 170.6 179.6 187 194.4
-1.3 -1.3 -1.3 -1.3 -1.3 -1.3 -1.3 -1.3 -1.3 -1.3 -1.3 -1.3 -1.3 -1.3 -1.3 14.8 39.4 57.7 61.4 79.9 85.5 90.6 96.4 96.4 95.5 91 78.4 83.7 100.2 122.5 132 146.1 146.8 154.3 158.2 163.1 164.2 165.1 164.7 158.9 153.3 153.3 152.7 161.3 163 170 174.7 173 172.9 169 166.3 160.9 155.7 150.6 138.7 122.9 102.8 97.5 78.1 62.6 46.4 41.2 24.3 8.4 -1.3 -1.3 -1.3 -1.3 -1.3 -1.3 -1.3 -1.3 -1.3 -1.3 -1.3 -1.3 -1.3 -1.3 -1.3 -1.3 -1.3 -1.3 -1.3 -1.3 -1.3 -1.3 -1.3 -1.3 -1.3 -1.3 3.9 4.4 7.6 13.8 20.8 30.6 40.9 42.1 52 57.5 62.5 67.3 75.8 82.7 83.9 89.2 92.6 95.5 98.8 100.6 101.9 106.7 111.8 116.1 121 133.2 141.3 146.8 155.6 163.1 175.1 177.4 184.5 200 210.6 220.4 232.5 241.3 242.2 242.5 244.2 246.6 249.3 256.8 266.6 276.4 270.3 262.7 261.4 260.2 258.4 254.7 246.3 239.5 233.5 222.8 209.6 197.6 177.9 180.3 171.3 165.2 160 151.6 146.4 141.4 136.3 131.8 126.9 123.7 119.8 118.1 115.9 115.5 115.1 114.7 114.9 115.2 114.6 113.9 113.5 113.2 114.1 113.7 113.9 113.5 113.8 114.5 114.8 115 115.6 116.4 118 118.5 119.7 120.8 121.7 122.9 124.7 125.2 126.3 130.2 136.9 143.4 148.2 156.7 163.7 172.2 179.9 186.3
-1.3 -1.3 -1.3 -1.3 -1.3 -1.3 -1.3 -1.3 -1.3 -1.3 -1.3 -1.3 -1.3 -1.3 -1.3 24 45.7 57.6 61.1 77.7 79.3 88.6 88.6 90 84.1 76.7 69 77.5 93.2 110.3 122.9 135.9 144.7 145.3 151 158 160.6 165.3 165.1 159 152.7 152.7 152.5 161.2 166 166.5 168.8 171.5 172.5 168.9 167.8 163.4 157.7 153.7 145.9 135.9 126 112.2 95.7 76.3 64.7 50.3 32.3 13 -1.3 -1.3 -1.3 -1.3 -1.3 -1.3 -1.3 -1.3 -1.3 -1.3 -1.3 -1.3 -1.3 -1.3 -1.3 -1.3 -1.3 -1.3 -1.3 -1.3 -1.3 -1.3 -1.3 -1.3 -1.3 -1.3 3.7 4.7 8.2 15.9 21.4 30.2 37.9 45.2 51.7 57.6 62.9 64.6 72.2 81.5 86.1 90.8 94.3 96.4 98.8 98.9 100.8 104.8 110.7 115.7 121.5 129.2 138 147.3 154.8 161.7 169.4 176.9 183 204.8 217.2 227.6 237.7 245.2 247.5 248.7 250.8 254.7 261.6 271.1 278.5 280.5 279.8 269.6 263.1 260.5 258.8 256 250 244.2 238.4 231 217.9 205.9 191.5 191.6 182.8 176.3 167.7 160.6 155.6 150.1 144.1 138.3 134.7 130.1 124.5 123 122 116.9 115.5 114.8 114.9 114.7 114.5 114.1 114.1 113.2 112.6 113.1 113.5 113.2 113.4 113.9 114.6 114.7 115 115.6 116.9 118 119.1 120.2 121.4 121.6 123 122.8 124.7 125.5 130.9 136.9 142.5 150 158.4 166.6 174 179.6
-1.3 -1.3 -1.3 -1.3 -1.3 -1.3 -1.3 -1.3 -1.3 -1.3 -1.3 -1.3 -1.3 -1.3 -1.3 24.1 48.7 57.7 62.5 74.4 76.4 76.6 83.8 85 75.4 69.4 67.5 75.4 87.7 101.1 116.4 129.4 138.7 142.3 142.2 146.7 155.9 157.9 161.9 155.8 151.9 151.7 151.4 159.4 165.3 168 168.1 170.9 171.7 171.3 170.7 170.6 169.1 162.5 154 145.1 135.7 118.6 100.8 84.9 77.1 57.2 36 15.6 1.2 -1.3 -1.3 -1.3 -1.3 -1.3 -1.3 -1.3 -1.3 -1.3 -1.3 -1.3 -1.3 -1.3 -1.3 -1.3 -1.3 -1.3 -1.3 -1.3 -1.3 -1.3 -1.3 -1.3 -1.3 -1.3 3.8 5.6 8.1 17.2 24 32.2 40.5 46.7 51.5 57.8 61.2 65.9 70.7 80.2 87.9 91.8 95.2 95.5 96.5 97.1 99.4 104.1 108.4 112.7 119.8 127.9 136.4 144.5 152.4 158.5 167.5 173.6 181 207.1 219.4 230.2 240.5 249.8 251 253.6 256.9 262.9 274.8 282.7 282.8 282.7 281.2 275.5 267.9 263.3 259 256 252.6 247.9 242.2 234.7 225.6 217.1 201.7 211.1 196.4 187 178.7 171.9 165.3 159.7 152.3 147.6 142 135.5 130.9 127.4 124.4 120.5 117.8 116.6 115.6 114.7 114.1 113.5 114 113.7 113.5 113.2 113.4 113.1 113.3 113.5 114 114.4 114.7 115.5 116.3 117.3 118.4 119.8 120.9 120.8 121.3 120.8 122.1 122.9 124.5 130.3 136.6 144.1 151 158.7 166.3 174.2
-1.3 -1.3 -1.3 -1.3 -1.3 -1.3 -1.3 -1.3 -1.3 -1.3 -1.3 -1.3 -1.3 -1.3 -1.3 29.1 48.2 56.1 65.4 66.9 70.4 73.1 75.8 80.6 71.5 67.2 65.3 76.3 85.7 93.1 113.1 123.8 127.5 132.5 135.3 137.6 150.3 155 155.6 152.1 151 151.3 150.7 158.3 163.6 169.4 171.8 171.6 172.7 178.5 175.8 177.2 179.8 172.5 160.4 149.9 140.3 122.5 104.4 91.1 80.2 66.2 41.8 19 1.9 -1.3 -1.3 -1.3 -1.3 -1.3 -1.3 -1.3 -1.3 -1.3 -1.3 -1.3 -1.3 -1.3 -1.3 -1.3 -1.3 -1.3 -1.3 -1.3 -1.3 -1.3 -1.3 -1.3 -1.3 -1.3 4.2 5.6 6.4 10.3 26.3 35 44.5 46.9 49.5 56.2 61.5 65.4 69.6 78.7 88.2 91 94.6 94.1 95.7 96 98.4 101.7 107.3 111.3 118 127.2 132.7 140.7 147.7 154.2 165.1 169.3 180.6 204.6 219 229.9 239 248.4 253.8 256.8 259.2 267.8 280.4 288 287.5 285.3 282.6 278.1 272.5 267.8 260.3 257.5 254.3 250.6 246.1 240 232.9 221.2 216.4 215.4 215.3 204 189.9 181.9 175.3 168.6 162.6 156.5 150.5 144.5 138.1 133.3 129.4 125.5 123.1 120.5 117.9 116.5 116.8 116.7 116 114 113.1 113.4 113.1 112.8 113 113.7 114.1 114.8 114.5 115 115.8 116.6 117.7 118.8 119.4 118.9 118.3 119.2 121.1 120.9 121.7 126.9 131.6 138.7 146.2 151.7 159 166.3
-1.3 -1.3 -1.3 -1.3 -1.3 -1.3 -1.3 -1.3 -1.3 -1.3 -1.3 -1.3 -1.3 -1.3 7.9 35 48.8 56.2 60.5 61.7 69.5 70 70.1 69.5 67 65.1 62.8 73.6 85.6 88.6 101.4 112.5 123.2 130.6 133.9 135.6 144.3 149.7 151.2 150.2 148.9 153.7 156.7 160 164.9 174.3 174.7 177.5 182.3 190.5 190.7 182.8 185.1 177.5 165.6 155.2 145 124.9 108.7 95.9 83.8 69.8 45.2 21.8 6 -1.3 -1.3 -1.3 -1.3 -1.3 -1.3 -1.3 -1.3 -1.3 -1.3 -1.3 -1.3 -1.3 -1.3 -1.3 -1.3 -1.3 -1.3 -1.3 -1.3 -1.3 -1.3 -1.3 -1.3 -1.3 3.1 4.2 6.7 6.6 30 36.3 41.5 43.3 46.3 56 58.9 63.9 68.4 78.2 86.9 87.8 91.6 92.9 94.4 94.4 97.3 99.8 105 110.4 116.9 125 132.1 140.2 146.5 151.8 161.6 165.8 182.2 198.8 215.9 227.4 240 247.4 255.1 258.4 261.4 270.8 281.3 288.2 289.7 287.5 284.5 280.6 276.1 271.5 264.8 257.9 255.1 252.2 248 242.1 233 226.8 226.2 220.7 219.3 214.7 208 194.7 185.2 178.7 172.1 166.4 159.4 153.3 147.5 142.2 136.8 132.6 129.5 126.6 124.7 121.6 118.7 118.2 117.7 115.6 113.6 113.9 113.3 112.7 112.6 113.1 113.5 114.2 114.6 114.4 114.7 116 116.8 117.2 117.4 117.9 118.9 119.7 119.9 119.8 120 121.8 126.6 136.4 140.4 144.1 148.8 157.7
-1.3 -1.3 -1.3 -1.3 -1.3 -1.3 -1.3 -1.3 -1.3 -1.3 -1.3 -1.3 -1.3 -1.3 12 29.4 42.6 53 55.6 61.4 62.7 63.2 67.9 71.1 70.8 65.2 62 71.8 82 83.9 90.4 108.1 118.5 127.8 130.4 134 137.5 142.7 142.6 145.1 148.3 154.1 160.6 162.6 166.9 177.1 180.6 185 191.7 201.2 197.1 187.5 186.8 181.3 169.7 158 148.4 126.6 111.5 99.1 88.8 75.6 48.7 27.5 7.6 -1.3 -1.3 -1.3 -1.3 -1.3 -1.3 -1.3 -1.3 -1.3 -1.3 -1.3 -1.3 -1.3 -1.3 -1.3 -1.3 -1.3 -1.3 -1.3 -1.3 -1.3 -1.3 -1.3 -1.3 -1.3 3.1 4 6.2 6.8 30.2 32.5 39.1 44.1 43.2 53.1 58.5 62.8 66.9 76.1 82.2 84.8 88.1 90.6 92.3 94.4 96.9 98 102.4 108.3 113.5 122.9 132.4 138.9 145.2 150.6 156.6 167.5 182.9 197.8 214.1 225.7 238.1 246.3 254.2 259.9 262.3 270 282.2 287.6 290.1 287.8 285.2 281.3 278.4 274.4 269.6 262.6 256.2 252.3 246.5 241.1 240.7 239.4 234.5 229.1 227.1 220.7 216.4 210.3 199.6 190.1 182.4 176.6 170.2 164.2 157.7 152.4 146.3 142.5 137.4 134.4 131.6 128.1 123.6 121.1 118.6 116.4 115 114.6 113.5 113.1 112.7 112.6 112.7 113.3 114 114 114.3 115 116 116.5 115.8 117.2 118 118.2 118.5 118.4 118.5 119.5 124.1 131.8 134.9 137.3 143.5 152.4
-1.3 -1.3 -1.3 -1.3 -1.3 -1.3 -1.3 -1.3 -1.3 -1.3 -1.3 -1.3 -1.3 -1.3 7 21.3 43.2 50.7 55.9 55.7 58.2 57.1 54.6 60.8 61.5 60.3 63.6 68.1 74.2 82.5 95.9 108.8 118.1 123 127.9 131.3 134.4 136.4 140.9 146.5 149.9 153.6 163.7 172.2 172.9 180.8 194.3 197.8 196.4 202.5 201.1 190.2 187.1 180.6 172.5 162.1 148.9 131.9 113.7 102.4 92.9 80.5 62 35 11.9 -1.3 -1.3 -1.3 -1.3 -1.3 -1.3 -1.3 -1.3 -1.3 -1.3 -1.3 -1.3 -1.3 -1.3 -1.3 -1.3 -1.3 -1.3 -1.3 -1.3 -1.3 -1.3 -1.3 -1.3 -1.3 3.5 4 8.6 20.7 26.8 30.6 34.8 40.9 40.3 50.4 58.1 60.9 65.1 71.4 76.8 80.4 86.1 88 91.3 93.4 94.4 95.7 99.6 104.2 111.9 122 129.3 134.8 143.5 148.5 154.5 168.1 182 199.5 212.9 223.5 232.3 244.6 252.9 259.2 263.8 269.9 279.9 286.6 289.3 289 286.7 282.9 280 276.3 272.3 266.8 260.3 253 247.3 242.9 247.3 245.7 243.8 240.6 238.2 234.3 228 218.4 211.7 204.1 195 188.3 181 174 167.6 162.4 156.9 151.9 146.7 143.5 139.1 134.5 125.6 126.5 123.4 120.8 117.9 115.4 115 114.1 112 112.1 112.3 112.8 113.4 113.9 113.7 114.5 115.3 115.5 114.9 116.8 116.9 116.9 116.9 117 117.8 117.8 119.6 123.7 126.2 134.8 139.9 146.8
-1.3 -1.3 -1.3 -1.3 -1.3 -1.3 -1.3 -1.3 -1.3 -1.3 -1.3 -1.3 -1.3 -1.3 7.1 19.4 41.3 47.5 52.8 56.4 56 54.9 54.1 52.2 58.9 56.4 59.4 66.4 74.1 87.4 97.7 108.6 117 119.7 123.9 126.6 132 139.2 143.7 149.3 154.2 158.3 168.1 173.7 182 193.7 206.2 207.8 201.4 200.9 201.9 193.4 186 180 172.6 162.2 149.9 133.9 115.7 103.3 91.5 78.8 66.6 41.3 15.2 1.5 -1.3 -1.3 -1.3 -1.3 -1.3 -1.3 -1.3 -1.3 -1.3 -1.3 -1.3 -1.3 -1.3 -1.3 -1.3 -1.3 -1.3 -1.3 -1.3 -1.3 -1.3 -1.3 -1.3 -1.3 -1.3 4 9.1 20.3 25.6 29.6 34.1 35 38 48.4 57.2 57.6 61.6 70 73.2 73.7 82.6 86.1 90 91.6 92.8 94.1 96.5 103.3 111.6 115.7 119.7 131.2 140 149.7 158.4 168.9 182.7 200.4 211.8 222.1 231.3 240.7 250.4 257.3 262.9 268.9 277.5 284.1 287.5 286.8 286.5 284.2 281 277.8 273.8 269.2 263.1 254.3 247.4 253 253.4 252.9 250.9 249.1 247.9 245 242.4 236.8 229.1 215.7 207.7 201.1 193.1 185.8 179 173.1 166.2 160.3 157.1 152.2 147.7 140 137.9 136.2 132.9 128.3 125.4 121.4 119.5 118.4 114.5 111.9 112.3 112.8 112.9 113.3 113.6 113.8 113.7 113.6 115.6 115.5 115.5 115.6 115.8 116.4 116.8 117.2 118.1 120.2 124.7 130.4 136.4 142.6
-1.3 -1.3 -1.3 -1.3 -1.3 -1.3 -1.3 -1.3 -1.3 -1.3 -1.3 -1.3 -1.3 -1.3 6.4 12.5 34.2 44.4 49.5 55.8 58.5 60.7 57.6 50.6 52.4 54.1 56.1 63.9 76.4 88.5 97.5 105.8 111.7 117.5 121.9 126.4 132.3 138.9 144.6 152.3 158 163.4 173.5 183.5 196.4 203.5 210.7 212.3 208.4 201.3 200.3 193.2 186 180 173.3 161.1 150.3 136 118 104 92.2 80.4 64.6 42 22.1 5.5 -1.3 -1.3 -1.3 -1.3 -1.3 -1.3 -1.3 -1.3 -1.3 -1.3 -1.3 -1.3 -1.3 -1.3 -1.3 -1.3 -1.3 -1.3 -1.3 -1.3 -1.3 -1.3 -1.3 -1.3 -1.3 4.1 9.4 19.8 24.1 28.1 31.2 34.3 35.4 48.6 52.9 54.8 58.3 63.1 67.7 73.5 80 83.8 88.5 90 91.2 92.2 95.2 100.1 108.8 116.1 124.5 133.3 138.7 149.2 159.3 170 182.4 197 209.8 219 228.6 237.4 245.7 255.2 261.3 267 273.2 280.4 285.1 285.3 285.3 284.2 282.2 278.6 274.6 270 263.7 256.5 251.5 258.2 258.5 259.1 258.3 264 266.8 268.3 262.9 257.8 248.1 238.1 224.3 215.6 208.7 199.3 192.6 185.3 177.5 172.6 167.3 160.3 154.2 148.3 149.2 146.7 143.2 137.9 133.9 129.6 126.5 123.3 118.7 116.1 111.3 110.9 112 112.2 112.8 112.7 112.7 112.9 114.8 114.5 114.3 114.5 115.1 115.6 116.1 116.8 117.6 119.2 122.8 126.6 130.8 135.2
-1.3 -1.3 -1.3 -1.3 -1.3 -1.3 -1.3 -1.3 -1.3 -1.3 -1.3 -1.3 -1.3 -1.3 7.2 13.6 36.5 50.1 53.1 52.5 54.1 54.2 50.9 45.9 48.9 50.7 53.7 60.6 72.6 87 93.4 100.9 109 121.6 127.5 130.7 135.3 143.8 150.3 156.7 159.9 167.8 176.6 191.9 205.7 209.6 211.5 213.4 210.4 202 200.3 198.4 184.2 178.4 170.9 158.9 149.6 136.1 119 102.9 92.5 80.2 62.1 41.8 24.6 9 -1.3 -1.3 -1.3 -1.3 -1.3 -1.3 -1.3 -1.3 -1.3 -1.3 -1.3 -1.3 -1.3 -1.3 -1.3 -1.3 -1.3 -1.3 -1.3 -1.3 -1.3 -1.3 -1.3 -1.3 -1.3 4 8.5 12.6 24.1 25.3 28.1 31.4 33.2 47.1 50.2 50.9 55.6 59.5 63.9 70.7 75.5 84.7 87.8 89.2 91.2 91.6 94.3 99.2 106.5 114.8 125 135.9 144 152.1 160.2 171.7 185.1 197 208.6 217.7 226.3 236.1 243.8 251.6 258.6 264.3 271.1 276.9 283.2 284.5 285.4 283.9 282.9 279.9 275.9 270.1 263.1 254.5 256.5 259.9 261.7 264.3 272 273.8 284.3 287 281.9 271.6 267.9 254.6 241.5 235.5 230.7 220.8 206.8 198.3 189.6 184.6 178.5 171.3 158.9 161 159.5 154.8 153.4 148.5 144.9 140.4 134.9 131.7 125.3 124 120.2 113.9 111.6 111.2 112.3 112 111.7 112.2 114.2 113.7 113.2 113.8 114.4 114.9 115.2 116.2 117.1 118.8 120.8 123.4 127.1 130.6
-1.3 -1.3 -1.3 -1.3 -1.3 -1.3 -1.3 -1.3 -1.3 -1.3 -1.3 -1.3 -1.3 -1.3 7.1 20.3 37 49.4 55.7 53.1 51.4 46.6 44.3 44.8 47.7 49.5 51.4 58.4 74.6 86.6 90.5 99 110 122.3 132.1 138.2 143.3 149.3 155.1 160.2 165.4 172.4 180.7 198.1 210.4 215.3 213.4 213.8 211.6 205.9 200.3 195.6 183.9 176.2 167.8 156.9 147.4 133.9 117.3 103.9 92.3 77.8 62.8 44.1 28 11.7 -1.3 -1.3 -1.3 -1.3 -1.3 -1.3 -1.3 -1.3 -1.3 -1.3 -1.3 -1.3 -1.3 -1.3 -1.3 -1.3 -1.3 -1.3 -1.3 -1.3 -1.3 -1.3 -1.3 -1.3 -1.3 4.5 5.3 12.3 21.3 23.4 27.4 29.9 30.7 42.2 47.5 47.7 49.6 55.7 60.7 65 73.9 82.3 87.3 88.4 88.3 90.2 93.1 97.2 105.9 114.5 121.2 130.8 141.6 153.2 161 173.1 185.2 196.8 207 217.4 225.2 233.6 242.3 249.3 255.7 261.2 270.3 274.5 279.3 291.7 292.6 288.4 284.2 281.1 276.7 270.6 262.6 257.7 259.7 261.4 263.3 268.5 279.6 283.7 288.5 293.9 292.5 283.6 274.9 269.4 256.9 248.8 242.8 235.7 225.4 213.1 203.7 197.4 190.3 183.2 175.5 173.5 170.8 167.9 164.2 159.3 155 149.6 145 141.2 135.3 132 127.9 122.3 116.5 111.1 111.7 111.9 112.1 112.7 112.6 112.5 112.4 113.2 113.7 113.7 114.7 115.6 116.5 118.2 119.5 122.1 125 128
-1.3 -1.3 -1.3 -1.3 -1.3 -1.3 -1.3 -1.3 -1.3 -1.3 -1.3 -1.3 -1.3 -1.3 11.7 24.7 37.6 46.6 49.5 50.3 46.6 48.1 43.8 41.8 47.7 44.3 46.2 54.3 75.9 85.4 91.1 98 114.1 127.8 139.3 146 149 154.1 161.8 165.9 171.3 177.3 181.2 198.6 211.4 216.8 214.5 213.3 209.9 206 198.6 193.1 182.4 174.6 167.1 156.8 145.1 132.1 115.7 103.1 91.3 76.9 62.2 45.1 31.9 15.4 1.9 -1.3 -1.3 -1.3 -1.3 -1.3 -1.3 -1.3 -1.3 -1.3 -1.3 -1.3 -1.3 -1.3 -1.3 -1.3 -1.3 -1.3 -1.3 -1.3 -1.3 -1.3 -1.3 -1.3 -1.3 -1.3 4.8 10.5 14.4 21.9 24.1 27.5 28.7 36.3 42.6 42 46.5 50.1 55.6 62.3 71.6 82.9 90 89.8 86.2 88.9 91.3 97.6 106.2 116.4 123.4 133.6 140 147.8 161 174.8 184.8 196.3 205.2 215.9 225.9 232.3 239.6 246.2 253.3 260.9 269.2 274 278.4 292.1 297.8 294.3 290.5 284 278.3 270.9 262.9 263.2 264.8 264.3 265.9 273.1 279 287 290.2 293.7 296 292.7 285.7 277.9 269.9 260.4 254.1 246.3 239.7 228.3 217.4 208.9 199.6 184.3 189.1 185.6 184.5 180.3 176.4 171.2 166.2 160 153.7 151.6 145.7 141.6 136.7 130.6 123.8 117.2 112.6 111.5 111.6 112 111.8 111.4 111.4 112.6 112.7 112.8 113.8 114.8 115.8 117 118.7 120.3 122.4 126.2
-1.3 -1.3 -1.3 -1.3 -1.3 -1.3 -1.3 -1.3 -1.3 -1.3 -1.3 -1.3 -1.3 -1.3 12.4 23.5 42.3 47.7 48 50 42.4 42.7 42.6 43.3 44.7 44.4 44.7 56.6 76.6 84.4 91.1 101.2 120.2 134.4 143.4 151 154.6 159.6 166.7 174.1 176.6 178.7 180.3 196.9 210.4 215.3 212.2 208.6 207.2 202.9 196.8 189.3 180.3 172.9 164.7 154 143.1 129.8 116.2 102.5 89.7 77.7 61.1 45.2 31.6 19.1 7.2 -1.3 -1.3 -1.3 -1.3 -1.3 -1.3 -1.3 -1.3 -1.3 -1.3 -1.3 -1.3 -1.3 -1.3 -1.3 -1.3 -1.3 -1.3 -1.3 -1.3 -1.3 -1.3 -1.3 -1.3 -1.3 -1.3 5.1 13.1 19.5 23 25.8 26.3 31.9 37.2 38.8 42.4 45.5 55.1 60.6 69.7 81.1 90.8 92.5 85.5 85.4 91 97.6 106.4 114.1 124.5 133.5 145.6 155.4 164.7 177.5 184.2 197.6 206.1 215.5 223.7 231.2 237.8 244 249.7 267.4 270.6 274.6 277.8 290.6 298.7 296 293.4 287.6 280.1 272.3 266.1 267.3 273.6 274.2 270.5 273.1 279.8 287.3 291.8 295.4 296.8 296.7 293.6 285.6 277.2 270.7 264.1 258.1 250.1 241 231.1 220.9 211.4 194.9 201 199.3 197.2 191.8 188 184.6 178.4 172.9 166.9 163.3 158.6 152.2 146.5 140.7 133.5 127.8 118.5 112.7 111 111.2 111.3 110.3 110.5 111.8 112.3 112.2 113.6 113.9 114.8 115.9 117 118 120 124
-1.3 -1.3 -1.3 -1.3 -1.3 -1.3 -1.3 -1.3 -1.3 -1.3 -1.3 -1.3 -1.3 -1.3 8.8 23.2 41.1 43.3 44.7 44.1 44.2 41.8 43 44.9 44.2 44.1 43.7 60.9 76.5 85.3 97.5 108.5 121.9 137.7 148 159.9 162.7 165.4 168.3 177.7 180 180.4 181.1 194.7 205.9 209.3 209.8 205.2 202.8 198.5 192.4 185.8 179.9 170.8 161.3 150.2 141.9 128.7 115.8 99.4 88.1 76.4 59.9 47.1 33.5 20.1 9.8 -1.3 -1.3 -1.3 -1.3 -1.3 -1.3 -1.3 -1.3 -1.3 -1.3 -1.3 -1.3 -1.3 -1.3 -1.3 -1.3 -1.3 -1.3 -1.3 -1.3 -1.3 -1.3 -1.3 -1.3 -1.3 -1.3 -1.3 10.5 10.4 18.7 21.3 23.7 30 33.6 36.2 39.3 43.1 50.7 58 66.3 76.1 86.7 88.2 82.9 82.7 88.5 95.1 104.2 114.6 122.7 131.9 147.5 155.8 164.2 176.1 184.9 197.3 206.9 214.9 221.9 229.7 236.7 241.9 247.8 262.7 272.7 276.8 278.2 286.6 293.9 296.4 295.2 291.1 283.4 273.9 268.3 271.7 276.8 279.8 278.7 280.2 282.1 287.1 291.7 296.5 297.9 298.9 297.1 291.2 283.8 278.5 272.2 265.6 259.2 252.5 243 229.4 214.7 209.5 217 218.8 216.8 207 201.6 197.1 191.9 186.6 179.4 175.1 169.6 164.2 158.7 152 144.2 137 130.4 121.2 112.4 109.8 110.7 110 110.5 111.1 111.3 111.5 112.1 112.3 113.4 114.1 115 116 117.2 121.1
-1.3 -1.3 -1.3 -1.3 -1.3 -1.3 -1.3 -1.3 -1.3 -1.3 -1.3 -1.3 -1.3 -1.3 8.1 19.8 34.7 36.9 48.6 52.1 45.3 39.1 38.8 38.3 37.8 37.4 42.6 62 78.2 91.1 104.6 115 126.7 139.3 152.4 162.8 166.3 167.2 169.2 179.3 181.1 181.6 182.3 192.3 200.5 204 206.1 200.7 197.1 192.5 188.6 183.6 176.9 166.6 156.6 147.2 137.8 124.3 113.3 98.1 86.1 74.8 59.3 48.9 33.6 21.2 9.8 -1.3 -1.3 -1.3 -1.3 -1.3 -1.3 -1.3 -1.3 -1.3 -1.3 -1.3 -1.3 -1.3 -1.3 -1.3 -1.3 -1.3 -1.3 -1.3 -1.3 -1.3 -1.3 -1.3 -1.3 -1.3 -1.3 -1.3 4.9 10.2 11.6 18 21.8 26 29.9 33.4 36.1 40.5 45.8 53.7 61.2 69.6 79.2 82.4 80.8 81.7 88.9 95.6 105.7 118.3 126.3 134.2 145.9 155.2 165.6 173.7 183.2 196.5 206.4 215.9 222.1 228.3 235.1 239.6 247.9 259.5 270.6 275.9 278.7 284.3 291.8 295 297 293.7 287.8 277.2 271.5 279.8 281.7 284.7 285.6 288.5 288.7 290.7 292.3 297.8 299.5 300.6 299 295.3 289.4 284.5 279.3 274.3 269.7 263 253.8 238.8 230.5 217.5 231.1 232.2 228.7 223.9 215.1 211.4 207 199.9 197.1 192.3 186.4 178.3 172.1 162.6 155.5 147.8 139.2 132.6 121.9 112.9 109.3 109.8 110.2 110.1 110.1 110.3 111.4 111.6 112.1 113 113.6 114.3 115.2 116.5
-1.3 -1.3 -1.3 -1.3 -1.3 -1.3 -1.3 -1.3 -1.3 -1.3 -1.3 -1.3 -1.3 -1.3 7.6 12.5 23.7 36.8 48.7 50.9 42.1 36.4 32.1 34.9 35.1 33.7 41.3 62.6 76.2 93.8 106.7 116.6 128.8 139.6 150.8 160.2 166.3 168.8 173.2 181.3 181.3 186.1 187.6 188.1 195 198.4 202 197.4 193 188 184.5 178.3 172.3 163.7 152 144.2 133.2 123.1 110.5 98.1 84.8 73.1 62.3 49.3 34.5 22.5 11.1 5.9 -1.3 -1.3 -1.3 -1.3 -1.3 -1.3 -1.3 -1.3 -1.3 -1.3 -1.3 -1.3 -1.3 -1.3 -1.3 -1.3 -1.3 -1.3 -1.3 -1.3 -1.3 -1.3 -1.3 -1.3 -1.3 -1.3 -1.3 8.5 10.3 15.3 18.8 20.9 23 27.9 33.1 36 43.5 50.4 57.6 65.7 72.4 77.5 76.1 82.4 88.3 95.9 109.6 120 127.5 135.8 146.8 155.8 166.4 173.9 184.8 196.3 206.7 217 223.6 228 234.2 238.9 244.6 257 268.5 274.4 278.1 282.2 291.7 294.9 296.1 295 289.9 281 274.3 284.5 289.8 298.3 302.8 308 304.4 299.6 298.5 301 302.3 303.7 300.7 298.9 294 289.3 284.8 280.2 277.4 270.9 263.8 250.8 240.3 229 235.8 239.8 236.4 232.9 228.8 221.5 218.8 210.4 210 206.7 202.2 195.1 189.3 179.9 170.9 160.9 150.9 142.9 134.7 123.4 114.6 109 109.7 109.9 109.7 110 110.9 110.8 111.1 111.8 112.5 113.2 114.7 116.3
-1.3 -1.3 -1.3 -1.3 -1.3 -1.3 -1.3 -1.3 -1.3 -1.3 -1.3 -1.3 -1.3 -1.3 -1.3 8.1 23.3 33.1 44 46.6 36.6 31.5 22.5 26.1 29.3 29.5 39 57.3 74 92.4 109.9 118.7 130.1 138.4 147.9 158.2 165.1 168.1 174.9 182.1 184.3 187.9 186.5 184.7 189.1 192.6 194.6 192.3 188.1 185.4 180 174.7 167.2 156.2 147.9 136.9 131 122.1 110.7 96.5 84.2 72.6 61.7 50.5 36.9 25.7 13.6 6.4 -1.3 -1.3 -1.3 -1.3 -1.3 -1.3 -1.3 -1.3 -1.3 -1.3 -1.3 -1.3 -1.3 -1.3 -1.3 -1.3 -1.3 -1.3 -1.3 -1.3 -1.3 -1.3 -1.3 -1.3 -1.3 -1.3 -1.3 -1.3 9.8 11.9 15.9 18.5 18.5 23.3 26.3 31.4 39.6 45.6 53.5 60.5 69.8 74.9 77.9 84.2 88.4 98.7 112.5 122.1 129.7 137.4 147.4 156.7 165.8 174.5 183.2 196.2 206.6 217 223.9 227.3 232.8 238.1 243.2 252.4 265.8 272.1 276 279.9 288.3 294.7 295.3 294.9 291 283.6 277.2 289.6 301.2 310.6 316.2 321.5 318.4 311.7 311.3 307.8 307 308.3 306.2 301.8 296.8 292.7 289 285.1 279.8 276 271.3 261.7 251.3 235.5 245.6 248.5 246.8 243.4 239 234.6 230.6 227.2 225.1 221.7 218.2 213.7 206.4 197.3 188.2 175.4 164.4 155.1 145.3 136.2 125.7 114.7 108.3 108.9 109.4 109.5 110.3 109.5 110.3 110.7 111.4 112.6 113.9 117.8
-1.3 -1.3 -1.3 -1.3 -1.3 -1.3 -1.3 -1.3 -1.3 -1.3 -1.3 -1.3 -1.3 -1.3 -1.3 6.1 18.3 26.9 35.2 38.9 30.6 22.4 19.6 21 24.5 26 36.1 56.4 74.4 93 107.7 119.4 132.8 145.8 153.7 162 166.9 170.9 174.6 179.6 182.3 184.5 183.6 182.5 185.3 187.7 188.7 189 183.9 182.1 177.4 172.6 162.2 151.2 141.7 132.7 126.2 119.6 109.9 95.4 83.1 72.4 62.7 51.5 39.6 27.7 14.4 7.7 -1.3 -1.3 -1.3 -1.3 -1.3 -1.3 -1.3 -1.3 -1.3 -1.3 -1.3 -1.3 -1.3 -1.3 -1.3 -1.3 -1.3 -1.3 -1.3 -1.3 -1.3 -1.3 -1.3 -1.3 -1.3 -1.3 -1.3 -1.3 1.6 8.5 12.3 16.2 15.3 20.1 23.1 26.7 34.3 41.5 48.3 56.9 65.2 67.8 75.6 83.8 88.8 97.8 111.9 120 128.4 137.4 146 156.9 167.1 172.3 182.1 195.1 207 218.6 224.8 228.6 232.5 236.4 242 250.1 261.4 268.6 274.2 278.2 284.3 291.6 294.6 295 292.1 286.1 279.9 296 304.3 311.8 318.3 323.8 329.8 321.1 318.3 318.4 313.8 311.5 308.8 305.7 301.2 296.3 292 287.8 283.6 279.6 275.3 267.2 257.8 248.7 256.1 260.4 255.8 253 250.4 245.2 241 240.2 240.6 238.7 233.8 229.9 222.3 212.3 202.8 192.5 178.2 167.3 156.9 146.7 134.6 125.7 114.7 109.1 107.9 108.6 109.2 109.4 108.9 109.6 110.4 111.5 113.1 117.5
-1.3 -1.3 -1.3 -1.3 -1.3 -1.3 -1.3 -1.3 -1.3 -1.3 -1.3 -1.3 -1.3 -1.3 -1.3 -1.3 9 22.2 29 29.2 21.7 21.8 17.3 19.3 25.4 22.9 34.4 58.5 74.3 89.9 107 120.2 138 151.4 158.1 162.8 168.1 170.6 175.2 177.9 178.9 181 178.6 177.7 178.2 182.6 184.6 184.5 181.8 179.6 176.5 167.6 154.1 146.7 137.9 129.2 121.2 115 106.3 95 83.2 72.5 63.6 53.9 44 31.1 20.7 9.5 6 -1.3 -1.3 -1.3 -1.3 -1.3 -1.3 -1.3 -1.3 -1.3 -1.3 -1.3 -1.3 -1.3 -1.3 -1.3 -1.3 -1.3 -1.3 -1.3 -1.3 -1.3 -1.3 -1.3 -1.3 -1.3 -1.3 -1.3 -1.3 6.5 7.8 13.9 14.6 15.7 19.4 23.3 29 37 44 54.1 60.7 65.9 77.8 84.5 90.1 97.5 110.9 119.7 126.6 137.8 146.4 156.9 164.5 173 179.7 194.8 208.8 217.8 226 229.7 232.9 236.6 241.2 248.4 258.9 266.2 272.2 276.2 282.3 287.9 293.6 295.2 293.9 289.6 283.9 294.6 304.3 311.9 319.9 324.6 329.4 331 322.8 322.1 318.4 314.9 312 307.9 303.7 299.3 293.9 290.2 286.6 282.7 278.8 270.7 261.1 264.4 266.2 271.9 266.5 264.4 260.5 259 257.1 258.2 256.8 255.9 252.6 246.4 236.7 229.1 218.6 208.4 196.1 183.2 171.2 157.6 143.7 133.5 121.6 114 108.2 108.3 109.2 109.2 109 109.4 109.5 110.4 110.7 114.8
-1.3 -1.3 -1.3 -1.3 -1.3 -1.3 -1.3 -1.3 -1.3 -1.3 -1.3 -1.3 -1.3 -1.3 -1.3 -1.3 2.2 11 26.1 24 21.5 16 16.3 17.2 20.1 20.1 32.5 54.6 74.9 90 105.4 121.6 141.3 150.5 156.6 162.8 168.2 169.8 171.9 175 175.5 176.2 176.7 175.7 172.3 177.4 180.4 180.7 176.9 172.3 170.1 159.2 150.1 142.5 133.3 124.9 116.7 109.3 100.6 92.5 82.5 73.5 64.1 55 46.5 35.9 26.3 15 8.4 -1.3 -1.3 -1.3 -1.3 -1.3 -1.3 -1.3 -1.3 -1.3 -1.3 -1.3 -1.3 -1.3 -1.3 -1.3 -1.3 -1.3 -1.3 -1.3 -1.3 -1.3 -1.3 -1.3 -1.3 -1.3 -1.3 -1.3 -1.3 -1.3 7.6 12.7 14.3 16.1 18.1 21.9 25.2 31 39 49.3 54.9 63.7 75.1 82.5 88.9 95.8 107.8 118.8 125.9 137 146.8 156.4 163.5 172.4 178.3 194.5 207.3 217.3 224.3 229.2 233.2 237.2 242.3 247.1 256.5 264 269.8 275.4 280.7 288.3 291.1 293.6 294.8 292.4 288.9 294.4 304.9 314.9 321.8 327.1 330.3 332 330.9 326.6 322.9 320 316.3 311.9 307.4 301.2 296.7 292.9 289.5 285.1 281.1 275.9 276.7 275.6 282.4 286.2 288.1 284.6 272.7 271.2 270.2 269.2 269.7 267.9 264.8 258.6 252.6 244.2 233.5 224 209.8 201.4 188.2 168.2 154.8 144.1 129.2 125.4 115.4 108.6 108.5 109.2 108.8 108.9 108.9 109.4 109.8 111
-1.3 -1.3 -1.3 -1.3 -1.3 -1.3 -1.3 -1.3 -1.3 -1.3 -1.3 -1.3 -1.3 -1.3 -1.3 -1.3 2.9 11.3 15.3 14.1 13.9 12.9 14.3 15.7 16.1 19.2 30.1 53.5 75.6 91.7 105 125.9 138.6 146.4 154.7 166.3 168.9 170.1 170.9 170.9 172.7 173.3 175.4 173.4 168.3 172.3 175.4 174.5 171.6 166.1 162.2 153.2 145.1 138 130 122.9 115.1 107.5 101 89.3 79.6 73.1 64.6 56.4 48.1 40 29.8 21.1 11.9 6.5 -1.3 -1.3 -1.3 -1.3 -1.3 -1.3 -1.3 -1.3 -1.3 -1.3 -1.3 -1.3 -1.3 -1.3 -1.3 -1.3 -1.3 -1.3 -1.3 -1.3 -1.3 -1.3 -1.3 -1.3 -1.3 -1.3 -1.3 -1.3 2.9 10.4 11.2 13 16.3 19.5 22.5 27.3 33.9 42 54.3 61.4 72.3 78.5 89.5 96.1 108 115.4 124.7 137.6 147 156.6 162 169.6 177.7 193.6 206.7 215.7 222.9 227.7 232.3 237.2 241.1 246.3 254.2 260.8 266.4 273.5 279.2 284.4 289.6 291.9 294.1 294.1 291.2 296.3 306.4 315.3 322.8 328.5 330.6 333.3 332.6 331.6 331.3 326.6 322.8 321.4 315.8 305.7 300.2 296.5 291.8 288.7 282.5 283.3 282.8 282.6 289.7 294.9 297.7 294.9 285.8 280.5 279.7 278.1 279.2 276.6 272.9 268.4 262.1 253.8 245.6 235.1 222.6 214.8 205.2 186.5 171 153.1 146.6 139.4 127.3 113.2 110.1 109.9 108.8 108.4 108.3 108.9 109.3 110
-1.3 -1.3 -1.3 -1.3 -1.3 -1.3 -1.3 -1.3 -1.3 -1.3 -1.3 -1.3 -1.3 -1.3 -1.3 -1.3 7.9 10 12.3 10.6 8.4 8.9 10.3 10.6 12.1 17.8 29 54.7 77.7 98.3 111.7 124.8 134.2 146.3 156.2 170.2 171.4 171 171.1 171 169.7 171.1 175.3 172.8 165.9 167 169.1 168 165.6 161.1 153.5 148.8 141.9 133.9 127.2 119.5 111.9 104.6 98.9 89 80.5 71.9 64.4 56.2 49.8 43.2 33.4 23.8 16.4 7.9 -1.3 -1.3 -1.3 -1.3 -1.3 -1.3 -1.3 -1.3 -1.3 -1.3 -1.3 -1.3 -1.3 -1.3 -1.3 -1.3 -1.3 -1.3 -1.3 -1.3 -1.3 -1.3 -1.3 -1.3 -1.3 -1.3 -1.3 -1.3 -1.3 5.8 8.7 10.8 13.3 16.2 18.4 22.8 30.5 36.5 45.7 57.9 70 78.2 88.5 95.2 105.4 114.6 125.3 138.6 146.2 155 161.5 167.8 176.8 189.4 203.6 213.1 220.5 225.5 231.1 235.7 240.6 245.6 251.6 257.3 265.2 272.3 278 282.8 287.5 291 293.4 295.5 294.7 299.5 311.7 317.6 322.2 327.3 330.9 338.7 335.7 336.6 337.4 334.5 336.6 332.8 327.7 314.5 303.6 299.6 296.2 293.3 292 289.3 288 288.3 293.5 299.8 302 301.5 295.1 287.8 286.2 286.1 284.8 282.2 278.3 274.3 268.4 262.4 252.6 243.2 231.8 220.6 211.4 201.6 185 168.6 161.8 153.2 137.2 123.4 116 113.6 109.8 108.5 108.7 108.5 108.2 107.8
-1.3 -1.3 -1.3 -1.3 -1.3 -1.3 -1.3 -1.3 -1.3 -1.3 -1.3 -1.3 -1.3 -1.3 -1.3 -1.3 -1.3 9.6 11.8 7.7 7.1 7.8 8.3 11 13.1 14.3 27.8 52.2 81.7 100.1 110.6 119.6 133 146.5 157.7 173.1 177.2 172.9 171.2 170.4 168.4 169 173.6 171.4 164.2 162.1 163.5 161.6 159.1 154.7 150 144.6 137.6 132 123.3 116.3 111.6 102.7 96.2 86.8 78.8 72.6 65.2 57.9 50.5 45 37.6 30.3 21.1 10.1 5.4 -1.3 -1.3 -1.3 -1.3 -1.3 -1.3 -1.3 -1.3 -1.3 -1.3 -1.3 -1.3 -1.3 -1.3 -1.3 -1.3 -1.3 -1.3 -1.3 -1.3 -1.3 -1.3 -1.3 -1.3 -1.3 -1.3 -1.3 -1.3 2.5 7.1 9.9 13.6 14 15.3 19.2 25.9 35.6 46.4 53.2 66.2 78 87.4 97 102.3 115.3 128 134.7 144.1 154.9 161.2 168.5 175.2 186.9 199.5 208.7 215.8 223.2 229.3 234.7 239.9 244.8 249.5 255.7 263.2 270.8 277.1 282.2 285.2 289.3 292.4 294.6 295.2 301.4 315.5 319.5 322.7 326 330.5 336.9 339.8 340 342.4 340.3 343.5 341.2 336.2 326.9 312.7 303.6 300.8 297.4 296.8 295.8 294.3 294.6 302 306.8 304.8 303.6 300.3 294.3 292 291.7 288.8 286.4 282.9 279 276 272.6 265.4 250.9 236 226.5 217.5 208.1 195.9 185.3 178 165.6 148 133.2 121.6 115.9 112.1 110.7 108.1 108.2 107.6 107.4
-1.3 -1.3 -1.3 -1.3 -1.3 -1.3 -1.3 -1.3 -1.3 -1.3 -1.3 -1.3 -1.3 -1.3 -1.3 -1.3 -1.3 -1.3 8.9 3.9 6.1 6.7 8.4 11.1 11.3 11.5 25.3 51.6 81.2 99.4 107.5 116.4 132.9 148.5 159.8 172.6 176.5 172.7 169.9 167.2 165.8 167.6 175.3 176.2 164.1 158.3 156.9 156.2 156.7 150.3 145.8 141.4 135.9 131 121.2 113.4 109.5 104 93.6 84.9 77.6 69.9 63.4 58.2 50.9 45.5 39 32.1 25.2 17 7 -1.3 -1.3 -1.3 -1.3 -1.3 -1.3 -1.3 -1.3 -1.3 -1.3 -1.3 -1.3 -1.3 -1.3 -1.3 -1.3 -1.3 -1.3 -1.3 -1.3 -1.3 -1.3 -1.3 -1.3 -1.3 -1.3 -1.3 -1.3 -1.3 5.1 6.2 10.4 13.2 14.5 16.9 22.3 31.6 45.3 52.9 64.6 75.8 84.2 92.9 98.9 112 129.3 135 143.4 154.8 161 165.5 174 183.9 194.4 204.1 213.2 220.9 226.2 232.8 237.8 242.4 247 252.1 260.5 268.9 274.4 280.6 284.7 288.6 292.2 294.3 296.2 306.6 318.7 323.1 324.6 327.7 331.4 338.3 344.3 343.2 344.4 349.1 350.1 347.6 341.3 332.2 319.4 309.1 305.5 301.8 307 303.8 302.7 304.8 313.2 315.2 309.2 306 303.4 299.6 296.5 294.8 291.8 289.5 285.8 280.5 277.3 277.8 270 257.5 247 233.2 227.8 220.4 204.1 197.9 191.1 173 159.9 141.5 130.4 121.9 115.9 113.7 113.1 112.7 112.3 110.4
-1.3 -1.3 -1.3 -1.3 -1.3 -1.3 -1.3 -1.3 -1.3 -1.3 -1.3 -1.3 -1.3 -1.3 -1.3 -1.3 -1.3 -1.3 6 4.2 4.3 5 6.4 8.5 8.4 10.1 22.4 46.9 75.5 93.9 102.8 110.1 131.5 148.6 159.9 164.7 170.5 170.5 168.6 166.5 165.2 166.8 172.2 173.6 162.7 155.5 150.8 150.5 149.6 147.1 144.9 140 134.5 130.2 119.1 111 106.6 98.3 90.6 81.7 73.2 65.9 62.9 59.2 50.1 46.6 43 35.5 27.6 20.7 11.2 3.5 -1.3 -1.3 -1.3 -1.3 -1.3 -1.3 -1.3 -1.3 -1.3 -1.3 -1.3 -1.3 -1.3 -1.3 -1.3 -1.3 -1.3 -1.3 -1.3 -1.3 -1.3 -1.3 -1.3 -1.3 -1.3 -1.3 -1.3 -1.3 0.6 4.1 6.3 10 13 17.1 21.8 30.1 41.1 51 60.6 71.7 84 95.8 102.2 115.9 128.7 135.8 140.6 153 159.3 164.5 171.3 180.3 191.2 202.7 211.4 216.8 221.9 228.1 232.6 235.6 242.2 247 258.1 267.4 276.1 280.8 284.9 289.5 293.4 296.2 298.5 311.1 322.2 328.6 333.1 332 334.2 342.4 349.4 346.9 348.7 353.9 353.4 351 345.7 334.5 323.3 316.6 313 308.2 315.1 313.9 312.8 313.4 318.5 319.1 317.3 313 308.1 307 303.4 300.1 294.1 290.1 287.1 282.6 277 270.6 266.7 260 249.7 239.7 230.5 224.3 211.6 205.9 199.9 187.8 164.4 151.4 140.6 128.3 121.7 117.9 116.1 114.7 113.3 109.1
-1.3 -1.3 -1.3 -1.3 -1.3 -1.3 -1.3 -1.3 -1.3 -1.3 -1.3 -1.3 -1.3 -1.3 -1.3 -1.3 -1.3 -1.3 11.1 4.9 5.1 4.9 5.1 6.4 8.1 8 8.2 38.9 68.9 88.4 98.9 108.2 126.6 143 153.1 159.5 166.3 168.5 166.2 165.3 164.7 163.5 166 168.7 162.9 157.7 150.3 147.4 146.9 146 144.9 140.2 134.5 128.4 116.8 108.9 103.8 98 93.8 81.6 74.2 69.3 62.2 58.9 53.8 48 44.7 38.9 31.3 23.3 14.8 6.9 -1.3 -1.3 -1.3 -1.3 -1.3 -1.3 -1.3 -1.3 -1.3 -1.3 -1.3 -1.3 -1.3 -1.3 -1.3 -1.3 -1.3 -1.3 -1.3 -1.3 -1.3 -1.3 -1.3 -1.3 -1.3 -1.3 -1.3 -1.3 -1.3 1.2 4.7 6.3 10.2 14.7 20.4 27.9 37.9 47.7 53.4 73.3 83.1 92.8 101.3 110 123.5 134 141.8 150 157.7 163 169.4 176.9 188.6 198.1 205.1 213.2 218.1 225.7 233.2 238.9 244.7 250.2 256.3 265 276.1 280.9 285 291.5 296.4 299.8 302.1 314.6 324.8 333.5 338.1 337.4 337.5 343.7 351.9 351.5 357.2 356.3 355.5 352.5 346.6 337.1 325.4 320.7 319 317.5 319.2 319 318.6 319.9 323.4 323.5 324.9 321.8 316.1 315.1 313.8 310.5 303.9 295.5 289.2 282.8 278.1 271.4 263 258.5 248.8 242 233 222.2 213.5 209.1 207 199.5 178.1 158.7 149.5 134.3 127.2 121.3 118.4 115.7 112.7 109.7
-1.3 -1.3 -1.3 -1.3 -1.3 -1.3 -1.3 -1.3 -1.3 -1.3 -1.3 -1.3 -1.3 -1.3 -1.3 -1.3 -1.3 -1.3 -1.3 11.5 7.4 5.1 4.8 4.7 7.2 7.8 7.7 27.7 62.8 85.1 96.6 108.2 122.1 134.1 143.3 154 158.4 162.7 163.2 164.4 161.1 159.8 161.1 163.4 160 155.7 148 145.5 143.1 141.8 142.2 138.6 134.1 126.1 114.8 108.2 101.4 99.8 95.1 91.2 83.6 74 65.8 61 58.1 53.9 46.7 40.8 32.6 26.7 17.8 7.9 -1.3 -1.3 -1.3 -1.3 -1.3 -1.3 -1.3 -1.3 -1.3 -1.3 -1.3 -1.3 -1.3 -1.3 -1.3 -1.3 -1.3 -1.3 -1.3 -1.3 -1.3 -1.3 -1.3 -1.3 -1.3 -1.3 -1.3 -1.3 -1.3 -1.3 1.5 -1.3 6.7 11.5 17.9 27.4 35.5 46.6 56.9 73.2 81.1 89 99.6 109.6 121.2 131.5 140.2 146.9 155.7 160.8 166.3 173.5 184.8 195.5 204.1 212 218.1 224.2 230.9 237.6 243.4 249.1 256.3 266.4 280.2 283.9 288.2 297.5 301.3 303.4 306.6 315.4 324.9 333.6 339.8 340.9 341.6 345.3 348 350.7 360.9 358.3 355.6 352.6 346.5 336.8 327.6 322.6 320 320.3 321.9 323.1 323.3 324.3 327.1 327.5 326 324.3 320.9 320.2 322 316.5 308.8 301.5 295.6 286.1 275.6 269.4 262.5 255.3 246.8 241 233.2 223.5 213.4 209.8 207.4 196.8 182.6 163 148.8 137.9 128.9 124.6 120.5 117.4 114.3 112.1
-1.3 -1.3 -1.3 -1.3 -1.3 -1.3 -1.3 -1.3 -1.3 -1.3 -1.3 -1.3 -1.3 -1.3 -1.3 -1.3 -1.3 -1.3 -1.3 -1.3 10.7 10.7 6.4 5.8 5.2 6.4 8.9 20.8 58.4 78.7 92.4 102 113.6 126.7 137.1 145 152.9 157.3 161 160.3 161.9 156.6 154.9 158.1 158.2 153.3 145.4 142.6 140 139.8 139.9 140.3 134.8 129.1 117.6 108.1 102.3 102.7 102.9 100.4 93 79.8 73.1 66.5 60 55.8 50.3 44.4 36.9 30.3 22.1 12.5 -1.3 -1.3 -1.3 -1.3 -1.3 -1.3 -1.3 -1.3 -1.3 -1.3 -1.3 -1.3 -1.3 -1.3 -1.3 -1.3 -1.3 -1.3 -1.3 -1.3 -1.3 -1.3 -1.3 -1.3 -1.3 -1.3 -1.3 -1.3 -1.3 -1.3 -1.3 -1.3 4 8.4 12.9 24.2 32.1 44.2 59 73.1 80.3 88.4 97.6 107 115.3 127.6 138.4 145.5 150.1 157.4 165.4 173.5 181.4 190.8 200.8 209.1 215.4 220.6 227.9 234.8 241.1 247.3 252.7 265.6 280.2 288.1 294.1 303.5 310.2 308.2 309.8 316.8 325.1 336.1 345.5 342.6 343 345 346.5 350.1 360.5 358.3 353.4 350 343.8 335.2 329.1 324.7 322.6 323 324.5 325.7 327.3 329 332.5 328.4 326.3 324.7 325 323.1 319.3 321.2 312.5 303.3 296.7 288.1 279.2 269.6 263.1 256.4 246.3 237.4 227.5 219.4 214.2 206.4 199.3 192.9 183.6 169.5 153.5 143.1 133.1 123 125.7 120.2 116.1 114.3
-1.3 -1.3 -1.3 -1.3 -1.3 -1.3 -1.3 -1.3 -1.3 -1.3 -1.3 -1.3 -1.3 -1.3 -1.3 -1.3 -1.3 -1.3 -1.3 -1.3 -1.3 -1.3 7 9.6 6.2 6.2 7.9 23.4 54.1 72.7 87.7 96.4 104.9 115 131.4 138.7 144.9 152.2 156.4 157.6 157.4 154.8 150.3 147.8 144.2 145 141.6 139.5 138.1 137.9 138.1 139.3 133.9 128.1 120.5 112.4 108.4 110.7 112.7 109.8 103.8 93.2 83.6 72.9 60.6 56.6 51.2 46.1 39.9 33.6 27.2 17.5 8 -1.3 -1.3 -1.3 -1.3 -1.3 -1.3 -1.3 -1.3 -1.3 -1.3 -1.3 -1.3 -1.3 -1.3 -1.3 -1.3 -1.3 -1.3 -1.3 -1.3 -1.3 -1.3 -1.3 -1.3 -1.3 -1.3 -1.3 -1.3 -1.3 -1.3 -1.3 1.3 7.5 11.9 22.8 29.7 43.7 59 70.9 78.1 85.9 93.1 102.1 111.9 121.9 133.5 141.5 149.3 158 164.1 171.7 178.9 187 195 205 212 217.5 224.1 231.4 237.6 244.6 255.4 263.2 280.6 290.5 297.2 306.1 313.8 313.6 312.8 319.6 326.8 337.3 348.4 345.2 344.1 344.7 345 347.4 351.9 355.7 350.7 346.8 339.9 334.4 330.3 326.8 324.9 326 327.6 330.3 332.1 332.7 332.3 330.2 326.7 324.6 323.3 321.8 317.8 314.3 310.9 304.4 296.4 289 280.7 273.2 265.8 257.2 245.8 236.3 227.6 216.8 207.8 201.1 195.8 189.3 181.3 167.8 145 147.3 144.1 137.7 129.4 124.9 120 114.9
-1.3 -1.3 -1.3 -1.3 -1.3 -1.3 -1.3 -1.3 -1.3 -1.3 -1.3 -1.3 -1.3 -1.3 -1.3 -1.3 -1.3 -1.3 -1.3 -1.3 -1.3 -1.3 -1.3 -1.3 -1.3 8.2 7.5 24.3 49.4 66.2 79.9 91 99.1 108.6 121.1 132.5 137.3 144.7 153 153.1 152.9 151.1 148 145.9 146.8 145.8 138.2 137 136.6 136.3 136.9 134.7 131.8 127.7 123 120.3 113.4 120.6 121.7 120 112.2 108.6 97.5 85 74.4 64.7 54.8 50.8 42.2 37.1 33 22.4 9.7 -1.3 -1.3 -1.3 -1.3 -1.3 -1.3 -1.3 -1.3 -1.3 -1.3 -1.3 -1.3 -1.3 -1.3 -1.3 -1.3 -1.3 -1.3 -1.3 -1.3 -1.3 -1.3 -1.3 -1.3 -1.3 -1.3 -1.3 -1.3 -1.3 -1.3 -1.3 -1.3 3 10.7 18.8 28.3 44.2 57.9 66.9 75 81.4 89.7 97.8 108.1 119.5 129.1 139.3 145.7 156.4 160.8 167.7 174.3 182.9 190.8 202.6 208.1 216.1 223.9 230.7 236.5 251.6 261.6 264.9 278.8 290.8 298.1 305.8 312.1 315 314.9 319.8 326.8 337.3 343.5 346.1 344.8 345.8 343.9 344.1 345.5 348.9 348 344.3 337.7 333.3 330.3 327.7 327.5 328.8 333.7 334.1 335.8 335.6 334.1 332.5 330.3 324.1 320.8 317.3 315.2 313.5 311.1 303.9 297 289.7 284.4 278.7 271.2 258.6 244.1 238.8 227.5 217.1 205.1 196.1 186.2 181.8 174 157.4 162.2 157.5 152.7 144.9 136.8 130.4 124.6 119.7
-1.3 -1.3 -1.3 -1.3 -1.3 -1.3 -1.3 -1.3 -1.3 -1.3 -1.3 -1.3 -1.3 -1.3 -1.3 -1.3 -1.3 -1.3 -1.3 -1.3 -1.3 -1.3 -1.3 -1.3 -1.3 -1.3 6.7 17.7 42.6 58.9 72.2 83.7 95.9 108.7 117.6 125.3 131.6 137.5 145.8 149.9 148.3 148 146.2 141.8 140.6 142.9 135.3 135.8 135.3 134.9 134.8 133.1 130.6 130.6 129.2 129.7 123.8 130.7 130.9 126 121.9 119.4 108.1 96.8 85.2 73.3 64.7 56.3 48.4 41.4 37.3 27.2 13.2 -1.3 -1.3 -1.3 -1.3 -1.3 -1.3 -1.3 -1.3 -1.3 -1.3 -1.3 -1.3 -1.3 -1.3 -1.3 -1.3 -1.3 -1.3 -1.3 -1.3 -1.3 -1.3 -1.3 -1.3 -1.3 -1.3 -1.3 -1.3 -1.3 -1.3 -1.3 -1.3 1.2 10.2 18.9 26.1 39.2 51.7 64 72.9 80.2 86.9 95.9 105.9 115.7 125.2 134.8 144 152.7 158.1 163.6 171.1 179.7 190.4 199.9 208.3 215.8 223.3 230.5 236.9 249.2 263.4 268.6 280.1 289.6 296 305.6 310.6 314.3 315.3 320 325.4 334 341.9 343 342.4 345.3 342.6 340.3 339.4 340.1 341.6 340.9 335.6 332 330.8 330.2 329 332.4 337.9 338.7 338.7 337.8 335.2 333.2 333.1 326 319.1 315.1 312.5 310.4 306.9 301.9 294.5 289.2 283.8 278.7 270.8 255.4 256.3 248.3 231.5 219.9 208.4 197.1 186.8 175.5 170 165.7 167.4 162.4 157 147.4 143.7 137.1 129.7 123.5
-1.3 -1.3 -1.3 -1.3 -1.3 -1.3 -1.3 -1.3 -1.3 -1.3 -1.3 -1.3 -1.3 -1.3 -1.3 -1.3 -1.3 -1.3 -1.3 -1.3 -1.3 -1.3 -1.3 -1.3 -1.3 -1.3 6.5 14.9 31.5 53.1 66.9 76.9 89.8 101.7 109.7 119.2 126.6 132.3 137.9 142.7 141.1 142.9 141.6 138.8 136.7 135.8 132.4 133.5 134.2 135.1 133.6 131.4 131.7 132.1 135.2 137.8 137.5 140.8 138.7 133.2 132.8 128.2 115.7 105.3 96 86.3 74.4 64.6 55.5 47.2 42 32.8 22 8.8 -1.3 -1.3 -1.3 -1.3 -1.3 -1.3 -1.3 -1.3 -1.3 -1.3 -1.3 -1.3 -1.3 -1.3 -1.3 -1.3 -1.3 -1.3 -1.3 -1.3 -1.3 -1.3 -1.3 -1.3 -1.3 -1.3 -1.3 -1.3 -1.3 -1.3 -1.3 -1.3 8.6 16.3 22.6 36.5 48.3 60.2 69.4 77.9 86.3 94.6 102.6 110.5 120.6 129.9 138.1 146.4 154.4 160.3 167.8 177.7 186.8 197.4 206.5 213.3 221.3 229.2 238.9 250.8 261.3 270.5 279.3 287.4 296.1 306.7 309.4 311.7 314.1 316.2 322.5 331.6 339.7 340.5 339.9 339.8 339.6 337.6 337.2 337.8 337.1 336.3 333.9 331.5 330.8 330.7 330.9 334.5 340.4 340.9 339.5 337.5 334.4 330.9 328.2 326.2 318.5 313.8 310.4 307.6 305 299 292.8 288.1 283.2 275.5 270.2 265.3 264.2 255 238.8 222.6 211.5 196.3 192.8 191.1 184.6 176.8 168 161.1 157 153.8 149.3 142.1 135.1 128.1
-1.3 -1.3 -1.3 -1.3 -1.3 -1.3 -1.3 -1.3 -1.3 -1.3 -1.3 -1.3 -1.3 -1.3 -1.3 -1.3 -1.3 -1.3 -1.3 -1.3 -1.3 -1.3 -1.3 -1.3 -1.3 -1.3 5.1 12.5 21.7 45.7 60 71.3 82.7 93.5 102.8 111.5 119.5 126.1 131.5 135 137.5 136.5 136.1 134.4 133.1 128.1 133.2 133.8 134.1 135.2 135 133.1 134.2 135.3 141.4 140.1 143.7 147.3 146.5 146.5 145 136.6 123.3 111.6 102.4 98 87.2 73 63.6 56.1 48.4 40.9 27.9 14 -1.3 -1.3 -1.3 -1.3 -1.3 -1.3 -1.3 -1.3 -1.3 -1.3 -1.3 -1.3 -1.3 -1.3 -1.3 -1.3 -1.3 -1.3 -1.3 -1.3 -1.3 -1.3 -1.3 -1.3 -1.3 -1.3 -1.3 -1.3 -1.3 -1.3 -1.3 -1.3 8.3 13.5 22.7 35.6 47.8 57.6 65.8 74.5 83.5 91.5 98.5 105.8 116 127.6 132.7 144.1 153.8 158.6 164.9 173.1 183.7 191.8 203.6 211.7 219.3 226.5 241.5 254.6 262.6 270.8 278.2 284.4 294.1 305.4 307.7 309.6 312.1 314.1 319.1 327.2 336.1 337.6 337 335.4 333.9 334.3 335 335.6 335.3 334.7 333.4 332.1 330.9 331.3 334.3 339.7 339.2 340.2 338.9 336.1 331.3 327.5 324.6 322.6 318.8 314 309.8 306 301.8 296.3 290.8 289.4 287.4 284 277 268.9 261.3 252.1 240.3 226.1 211.6 211.7 205.6 200.6 194 185 174.1 168 160.3 153 148.3 146.3 140.4 130
-1.3 -1.3 -1.3 -1.3 -1.3 -1.3 -1.3 -1.3 -1.3 -1.3 -1.3 -1.3 -1.3 -1.3 -1.3 -1.3 -1.3 -1.3 -1.3 -1.3 -1.3 -1.3 -1.3 -1.3 -1.3 -1.3 4.8 7.7 18.8 33.6 51.2 64.7 75.2 85.8 95.1 103.2 111.5 118.2 124.4 129.9 132.7 131.1 130.2 129.2 127.8 126.1 133 133.9 133.9 135 136.5 135.2 136.2 139.6 147 149.3 154.2 156.9 155.9 153.9 153.5 142 127.9 118.5 110.6 107.5 95.1 81.5 68.3 64.6 58.3 54.3 37.5 18.7 9.2 -1.3 -1.3 -1.3 -1.3 -1.3 -1.3 -1.3 -1.3 -1.3 -1.3 -1.3 -1.3 -1.3 -1.3 -1.3 -1.3 -1.3 -1.3 -1.3 -1.3 -1.3 -1.3 -1.3 -1.3 -1.3 -1.3 -1.3 -1.3 -1.3 -1.3 -1.3 5.8 11.7 21.6 29.7 45.2 54.4 61.9 70.4 79.9 84.8 91.8 99.9 113.8 124.7 130.5 140.6 150 156.8 163.1 168.7 178 191.5 201.2 209.3 216.1 224.6 244.7 254.4 263.3 271.8 281.2 285.6 291.2 300.7 305.3 307.1 308.5 311.7 315.5 324.5 330.9 334 333.3 331.6 330.3 330.8 332.1 333.9 334 333.5 332.7 332.4 330.9 331 333.8 339.5 338.1 337.3 336.9 333.7 329.6 326.7 323.9 321 318.4 314.5 310.4 306.3 302.1 296.1 296.7 294.6 292.6 290.8 280.4 274.2 266.9 257.2 240.2 228.8 232.7 225.5 216.2 209.2 201.9 192.3 182 176.4 168.8 159.2 150.1 142.6 137.6 131.3
-1.3 -1.3 -1.3 -1.3 -1.3 -1.3 -1.3 -1.3 -1.3 -1.3 -1.3 -1.3 -1.3 -1.3 -1.3 -1.3 -1.3 -1.3 -1.3 -1.3 -1.3 -1.3 -1.3 -1.3 -1.3 -1.3 4.9 7.7 11.7 28.3 41.4 58.2 67.6 78 86.8 94.2 103.1 110.5 115.3 122.6 125.9 126.8 127.1 125.3 122.9 124.2 128.8 129.4 131.4 134.8 136.5 137.4 139.9 147.9 155.2 163.9 168.3 164.8 165.2 162.4 155.8 145.1 133.3 125.9 121.8 121.4 104.8 90.1 74.6 67.8 64 61.1 44.9 27.2 12.1 -1.3 -1.3 -1.3 -1.3 -1.3 -1.3 -1.3 -1.3 -1.3 -1.3 -1.3 -1.3 -1.3 -1.3 -1.3 -1.3 -1.3 -1.3 -1.3 -1.3 -1.3 -1.3 -1.3 -1.3 -1.3 -1.3 -1.3 -1.3 -1.3 -1.3 -1.3 3.1 9.3 17.7 27.3 41.9 50.2 59.2 65.9 75.2 84.8 92.4 100.2 110.8 120.9 128.6 137.4 147.4 154.1 157.4 165.8 172.2 187.6 198.9 207.2 215.1 226.7 247.1 256.5 265.1 271.3 280.5 285.1 287.6 295.7 300.5 303.8 305.6 306.8 310.9 319.4 326.4 328.8 329.5 327.1 326.8 327.8 331.2 333.2 332.7 333.1 332 332.1 331.2 331 333.3 339.3 336.9 335.4 333.8 332.1 328.3 326.1 323.6 320.4 317.4 314.1 310.7 306.5 301.3 300.7 301.5 299.5 295.8 295.2 286.6 277.5 268.7 256.9 248.6 247.5 243 237.3 226.7 219.6 209.8 201.1 192.8 188.5 179.3 168.2 156.5 146.7 143.4 139.6
-1.3 -1.3 -1.3 -1.3 -1.3 -1.3 -1.3 -1.3 -1.3 -1.3 -1.3 -1.3 -1.3 -1.3 -1.3 -1.3 -1.3 -1.3 -1.3 -1.3 -1.3 -1.3 -1.3 -1.3 -1.3 -1.3 1.5 6.8 10.5 22.2 35.7 47.7 62 72.6 82.3 91.1 97.1 103.5 108.9 114.6 120.2 123.6 123.1 120.9 115.9 120.9 125 127.7 131.5 134.7 136 139.1 146.1 155.9 164.5 176.2 178.4 170.8 171.7 169 160.2 148.6 139.2 133.4 127.7 126.6 111 95.6 80.4 71.5 64.8 59.5 48.3 31.8 18.5 5 -1.3 -1.3 -1.3 -1.3 -1.3 -1.3 -1.3 -1.3 -1.3 -1.3 -1.3 -1.3 -1.3 -1.3 -1.3 -1.3 -1.3 -1.3 -1.3 -1.3 -1.3 -1.3 -1.3 -1.3 -1.3 -1.3 -1.3 -1.3 -1.3 -1.3 0.8 6.6 16.5 26.9 34.9 45.1 53.3 63.1 72.7 81.5 89.8 96.7 106.5 117.7 125 133.8 143.5 151.2 156.9 161.7 171.2 185.5 196.6 207.8 213.8 230 248.8 259.8 266.9 273.3 277.7 281.9 286.8 290.4 294.6 299.8 302.1 303.3 305.3 314.5 321.1 323.6 324.2 323.8 323.8 324.8 327.7 330.5 331.4 333.6 334.9 332.4 329.9 329.5 332 335.5 334.8 332.8 330.7 328.9 326.9 324.9 322.4 319.5 316.8 314.1 311.3 307 306.3 304 302.7 300.7 297.2 293.4 289 281.7 274.9 266.2 260.4 258 257 250.4 236.2 227.5 219.8 214.7 207.9 199 189.2 177.9 166.4 154.6 147.4 142.3
-1.3 -1.3 -1.3 -1.3 -1.3 -1.3 -1.3 -1.3 -1.3 -1.3 -1.3 -1.3 -1.3 -1.3 -1.3 -1.3 -1.3 -1.3 -1.3 -1.3 -1.3 -1.3 -1.3 -1.3 -1.3 -1.3 -1.3 4.7 9.1 17.4 33.9 41.5 55.2 67 76.7 84.8 91.4 97 102.2 107.8 113.5 117.5 119.6 117 112.6 117.8 123.4 127.4 132.6 134.8 136.8 141.5 150 162.4 172.3 181.5 184.6 177.3 177 171.5 163.6 150.3 144.3 136.8 131.7 127.4 114.7 100.4 87.2 75.3 65.5 58.9 50.3 36.3 21.1 9.8 -1.3 -1.3 -1.3 -1.3 -1.3 -1.3 -1.3 -1.3 -1.3 -1.3 -1.3 -1.3 -1.3 -1.3 -1.3 -1.3 -1.3 -1.3 -1.3 -1.3 -1.3 -1.3 -1.3 -1.3 -1.3 -1.3 -1.3 -1.3 -1.3 -1.3 -1.3 4.5 11.5 22.5 31.1 41.6 50.7 60.7 68.5 76.8 86.7 94.2 100.2 112.8 122.8 130.6 140.6 149.7 154.9 161.1 171.9 181.9 194.1 210 217.8 231.2 247.6 258.3 267.1 273.1 277.5 281.5 283.3 286 289.2 294.2 297.5 299.6 300.9 307.8 315 319.5 320.1 319.4 318.8 321.4 324 327.5 330.4 332.6 337.9 335.2 330.7 327.9 329.1 331.6 332.2 330.3 329.1 328 326.7 324.3 322.1 319.7 317.9 316.8 313.8 311.3 311 309.8 305.8 303 300.2 297 291.5 286 281 269.2 269.2 266 264.2 262 249 237.8 235.4 235.6 229 214.7 197.5 186.3 176.3 165.7 157.5 150.1
-1.3 -1.3 -1.3 -1.3 -1.3 -1.3 -1.3 -1.3 -1.3 -1.3 -1.3 -1.3 -1.3 -1.3 -1.3 -1.3 -1.3 -1.3 -1.3 -1.3 -1.3 -1.3 -1.3 -1.3 -1.3 -1.3 -1.3 1.9 7.5 11.3 28.2 39.7 49.3 61.2 69.4 77.9 86.3 90.8 95.8 101 106.6 111.6 115.4 111.6 111.1 118.6 125.1 130.6 133.4 135.7 139.2 141.5 153.2 167.3 176.3 184.7 188.7 181.4 180.4 175.9 167.6 157.4 149.3 139.4 135.8 133.6 126.5 104.4 89.8 78.6 68.9 58.9 50.8 39.7 23.1 12.1 -1.3 -1.3 -1.3 -1.3 -1.3 -1.3 -1.3 -1.3 -1.3 -1.3 -1.3 -1.3 -1.3 -1.3 -1.3 -1.3 -1.3 -1.3 -1.3 -1.3 -1.3 -1.3 -1.3 -1.3 -1.3 -1.3 -1.3 -1.3 -1.3 -1.3 -1.3 -1.3 8.4 19.4 27.7 38 48.2 56.8 64.3 72.4 81 89.4 98.4 108.9 119.3 127.5 138 145.5 153.5 160.5 170 182.1 196.4 210.4 222.2 229.5 246.2 258.7 269.2 273.8 276.7 279.3 281.6 283.5 285 288.1 291.5 295.1 298.2 301.5 309.6 316 316.7 316.7 316.1 317.8 321.1 326.6 329 330.9 331.8 333.4 329.7 327.1 326.8 328 329.3 329.3 328.1 327.1 326.5 324.5 323 321.7 323.5 324.9 326.5 319.7 317.4 315.2 311.3 306.5 302.6 300.1 296.1 292.8 278.7 280.3 274.7 270.1 266.8 265.2 256.8 258.2 258.5 247.9 240.5 231.8 217.3 200.1 187.7 176.6 165.8 157.8
-1.3 -1.3 -1.3 -1.3 -1.3 -1.3 -1.3 -1.3 -1.3 -1.3 -1.3 -1.3 -1.3 -1.3 -1.3 -1.3 -1.3 -1.3 -1.3 -1.3 -1.3 -1.3 -1.3 -1.3 -1.3 -1.3 -1.3 -1.3 5.8 9.8 26 36 46.9 55.7 65 73.8 80.2 85.9 91.2 96.5 101.7 107.3 112.7 103.5 112.9 119.3 128.4 131.8 134.2 137.2 141.2 150 161.8 172.2 179.8 186 190 184.8 182.1 179.6 169.5 162.6 153.8 143.8 138.3 136.5 129.6 109.5 94.1 83.1 71.5 60.4 52.3 41.8 27 14.3 2.1 -1.3 -1.3 -1.3 -1.3 -1.3 -1.3 -1.3 -1.3 -1.3 -1.3 -1.3 -1.3 -1.3 -1.3 -1.3 -1.3 -1.3 -1.3 -1.3 -1.3 -1.3 -1.3 -1.3 -1.3 -1.3 -1.3 -1.3 -1.3 -1.3 -1.3 -1.3 6.2 18.7 23.2 34.1 44.3 53 60.8 67.6 76 85.4 95.1 104.6 114.6 125 134.4 144.7 151.4 160.5 167.2 182.7 198.8 211.3 221.2 228.7 243.3 257.6 264 271.5 274.3 276.4 280.1 281.1 282.7 284.7 288.5 291.2 294.5 297.7 305.8 315.8 313.7 312.8 312.6 314.7 318.3 323.5 326 327 328 329.1 329.7 326.6 324.8 324.6 325.7 328 327 326.1 325.6 325.8 324.7 325.4 328.1 330.7 330.2 325.5 321.4 318.6 316.4 312.3 307.7 305.5 301.7 299.1 282.2 290.9 287.8 285.6 281.4 274.7 270.8 271.8 273.4 263.1 248.9 238.3 226.7 216.2 202.6 188.1 176.6 165.3
-1.3 -1.3 -1.3 -1.3 -1.3 -1.3 -1.3 -1.3 -1.3 -1.3 -1.3 -1.3 -1.3 -1.3 -1.3 -1.3 -1.3 -1.3 -1.3 -1.3 -1.3 -1.3 -1.3 -1.3 -1.3 -1.3 -1.3 -1.3 1.6 7.8 18.1 30.4 40.8 54.1 61.3 68.3 73.4 80.4 86.6 94.1 97.8 103.2 104.8 110.6 111.5 116.8 124.7 131.5 134.2 137.2 144.5 155.6 166.2 174.9 181.4 187.7 190.6 187.9 184.4 179.7 172.6 163.3 155.6 145.4 136.6 134.6 129.2 112.7 96.4 84.7 74.1 62.6 53 42.9 29.3 17.5 5.9 -1.3 -1.3 -1.3 -1.3 -1.3 -1.3 -1.3 -1.3 -1.3 -1.3 -1.3 -1.3 -1.3 -1.3 -1.3 -1.3 -1.3 -1.3 -1.3 -1.3 -1.3 -1.3 -1.3 -1.3 -1.3 -1.3 -1.3 -1.3 -1.3 -1.3 -1.3 5.7 10.7 19.6 31.3 40.6 48.6 57.3 65.2 74.1 81.4 90.6 99 109.8 120.7 131.9 140.3 149.5 158.7 168.1 184.6 200.6 217 222.8 229.2 237.1 251.1 259.8 266.9 272.4 274.7 277.5 279 280.8 283.4 286 288.5 291.4 296 300.5 307.8 309.9 309.2 309.9 312.4 315.7 319.8 322.7 322.8 324.2 326.8 327.1 326.7 324 322.2 321 322.6 325 324.5 325.6 326.5 327.7 329.6 333 333.6 332.5 328.2 325 322.8 320.8 317.1 312.7 309.3 305 299.6 303 304.2 301.7 303.7 289.2 281.6 278.5 278.1 276.6 274.2 267.1 254.4 244.9 236.7 224.2 207.9 191.5 176.1
-1.3 -1.3 -1.3 -1.3 -1.3 -1.3 -1.3 -1.3 -1.3 -1.3 -1.3 -1.3 -1.3 -1.3 -1.3 -1.3 -1.3 -1.3 -1.3 -1.3 -1.3 -1.3 -1.3 -1.3 -1.3 -1.3 -1.3 -1.3 -1.3 6.6 11.7 24.2 37.4 49.5 60 64.9 69.5 76.5 83 90.1 96.1 97.7 100.1 108 110.7 113.4 121.1 129.1 132.7 137 146.1 157.7 167.2 176.1 182.5 189.3 191 188.1 184.9 180.1 173 163.5 155.9 147.8 138.2 133 128.3 116.9 99.5 87.2 76.4 65.7 54.1 44.2 31.3 20.9 9.3 -1.3 -1.3 -1.3 -1.3 -1.3 -1.3 -1.3 -1.3 -1.3 -1.3 -1.3 -1.3 -1.3 -1.3 -1.3 -1.3 -1.3 -1.3 -1.3 -1.3 -1.3 -1.3 -1.3 -1.3 -1.3 -1.3 -1.3 -1.3 -1.3 -1.3 -1.3 6.1 8.5 17.6 28.8 36.7 45.6 54.1 62.1 69.5 76.5 87 95.5 105.7 117.4 129.2 134.9 147.2 155.5 171 186.3 199.8 213.8 223.7 228.6 232.3 242.8 254.3 261.8 268.8 272.3 275.6 277 279.1 280.7 282.8 285.3 287.5 293.7 298.8 302.4 305.4 307.3 306.8 308.5 313.1 315.1 318 319.2 320.7 322.8 324.3 324.9 324.1 321.2 319.4 320.8 322.9 324.6 325.6 326.9 329.3 331.5 333.1 333.8 333 330.5 328.4 325.9 323.3 319.8 314.9 311 305.9 306.7 314.1 312.5 306.5 304.7 293.5 288.9 284.9 283.6 284.2 286.3 281.4 268.1 256.2 240.3 238.6 227.2 211.5 187.4
-1.3 -1.3 -1.3 -1.3 -1.3 -1.3 -1.3 -1.3 -1.3 -1.3 -1.3 -1.3 -1.3 -1.3 -1.3 -1.3 -1.3 -1.3 -1.3 -1.3 -1.3 -1.3 -1.3 -1.3 -1.3 -1.3 -1.3 -1.3 -1.3 4.8 9.8 25.3 36 46.4 51.5 62.2 69.3 74.1 79.5 82.7 85.9 94.3 102.6 107.4 110 113 119.7 127.6 132.3 137.2 147.1 158.8 168.4 177 183.2 190.8 191 188.2 185.2 180.1 172.7 164.6 157.1 150 142.1 134.7 128.2 117.5 103.5 90.9 80 68.8 57 46.1 34.7 23.7 11 1 -1.3 -1.3 -1.3 -1.3 -1.3 -1.3 -1.3 -1.3 -1.3 -1.3 -1.3 -1.3 -1.3 -1.3 -1.3 -1.3 -1.3 -1.3 -1.3 -1.3 -1.3 -1.3 -1.3 -1.3 -1.3 -1.3 -1.3 -1.3 -1.3 -1.3 -1.3 5 11 22.9 32.2 40.5 49.1 59.1 65.5 75.1 83.7 93.1 101.8 111.8 124.6 137.3 145.1 155.9 172.4 185 195.3 212.4 223.2 228.6 231 237.3 249 258.3 265.2 268.8 272 275.2 276.6 278.7 280.7 282.3 284.1 288.7 294.1 296.9 300.7 302.1 302.5 303.8 306 310.2 313.3 315.8 317.7 319.4 320.5 321.1 321.2 319.8 318.1 319.7 321.6 324.4 326.1 328.1 330.5 332.2 332.7 334.3 334.5 332.8 330.2 327.7 325.1 321.3 316.6 314.8 312.6 317.9 318 313.1 307.6 302.7 297.9 294.3 295.4 291.2 289.9 293.4 286.2 276.8 258.9 245.6 244.6 235.7 221.4 195.4
-1.3 -1.3 -1.3 -1.3 -1.3 -1.3 -1.3 -1.3 -1.3 -1.3 -1.3 -1.3 -1.3 -1.3 -1.3 -1.3 -1.3 -1.3 -1.3 -1.3 -1.3 -1.3 -1.3 -1.3 -1.3 -1.3 -1.3 -1.3 -1.3 3.7 10 27.2 33.3 40.7 48.7 55.9 65.1 70.9 75.9 80.7 87.1 92.3 95 103.1 108.9 113 120.5 127 132.1 138.2 147.4 159 169.9 178.4 184.9 191.2 191 188.3 185.2 179.8 172.6 164.7 160.3 156.9 146.7 135.3 128.8 119.6 105.8 90.3 81.4 72.4 60.9 48.8 37.3 26 12.7 2.7 -1.3 -1.3 -1.3 -1.3 -1.3 -1.3 -1.3 -1.3 -1.3 -1.3 -1.3 -1.3 -1.3 -1.3 -1.3 -1.3 -1.3 -1.3 -1.3 -1.3 -1.3 -1.3 -1.3 -1.3 -1.3 -1.3 -1.3 -1.3 -1.3 -1.3 -1.3 5.7 9.5 18.5 28.2 36.6 45.4 54.7 62.3 69.4 79.2 87.2 96.2 108.1 120.9 136.2 145.9 157.8 169.8 181.2 191.6 212.6 222.9 227.1 229.2 233.6 244.6 252.8 260.2 265.9 269.7 272.3 275 276.4 277.7 279.3 280.8 284.6 290 292.4 297.4 299.4 297.5 299.7 301.9 304.8 308.1 311.8 313.4 314.8 316.4 317.4 318.1 316.9 316.4 318.7 321.2 323.7 328.1 330.2 332.5 333.1 334.4 335.1 335.2 333.7 332 329.5 326.9 322.6 320.6 322.4 323 321.8 318.4 312.1 307.6 303.1 303.2 300 296.4 291.8 288.7 288.2 286 278 260.8 251.4 249.5 238.5 224.6 201.5
-1.3 -1.3 -1.3 -1.3 -1.3 -1.3 -1.3 -1.3 -1.3 -1.3 -1.3 -1.3 -1.3 -1.3 -1.3 -1.3 -1.3 -1.3 -1.3 -1.3 -1.3 -1.3 -1.3 -1.3 -1.3 -1.3 -1.3 -1.3 -1.3 3 9.8 20.1 28.7 36.7 47.1 54.7 60.1 66.8 71.6 76.6 82 88.7 96.6 103.6 108 112.7 119.5 126.2 133.2 139.4 147.8 159.5 170 179.2 185.3 191.3 191.5 189.8 186.9 181.9 173.5 166 160.6 159.3 152.8 137.8 131.7 120.8 108 92.9 80.6 71.7 62.8 50.5 38.1 25.3 14.4 5.9 -1.3 -1.3 -1.3 -1.3 -1.3 -1.3 -1.3 -1.3 -1.3 -1.3 -1.3 -1.3 -1.3 -1.3 -1.3 -1.3 -1.3 -1.3 -1.3 -1.3 -1.3 -1.3 -1.3 -1.3 -1.3 -1.3 -1.3 -1.3 -1.3 -1.3 -1.3 -1.3 6.2 15.2 24.9 32.4 41.3 49 59.8 65.6 76.2 86.2 95.2 102.3 116.8 134.5 147.1 154.4 165.6 174.6 188.1 207 218.8 223.3 224.6 229.2 238.9 249 256.5 262.4 267.4 272.1 276.6 276.6 276.9 276.3 276.8 279.3 283.7 287.7 290 294.2 295.7 295 297.2 299.6 302.5 306 308.4 310.6 312.8 314.6 315.5 314.8 314.3 316.5 319.9 323.7 328.7 333.2 335.9 337.1 336.1 335.7 336 334.8 333.5 331.2 327.9 325.3 331.1 333.1 333.4 330.8 324.4 315.2 306.9 301.9 301.7 301.2 295.1 291.7 286.9 285.9 278.7 273.6 263.1 251.2 247.6 238.9 223.1 204.5
-1.3 -1.3 -1.3 -1.3 -1.3 -1.3 -1.3 -1.3 -1.3 -1.3 -1.3 -1.3 -1.3 -1.3 -1.3 -1.3 -1.3 -1.3 -1.3 -1.3 -1.3 -1.3 -1.3 -1.3 -1.3 -1.3 -1.3 -1.3 -1.3 1.6 8 17.9 31.4 37.4 45.8 50.7 56.6 60.7 65.2 71.9 80.4 86 96.3 101.7 106.2 112 118.8 124.9 134.3 141.7 149.2 159.3 170.2 179.3 185.3 189.6 190.7 192.4 188.7 182.7 173.8 166.5 161.2 159.3 155.1 140.3 132.5 121.3 107.6 94.6 82.8 72.7 62.7 52.2 39.5 28.1 18.9 8.5 -1.3 -1.3 -1.3 -1.3 -1.3 -1.3 -1.3 -1.3 -1.3 -1.3 -1.3 -1.3 -1.3 -1.3 -1.3 -1.3 -1.3 -1.3 -1.3 -1.3 -1.3 -1.3 -1.3 -1.3 -1.3 -1.3 -1.3 -1.3 -1.3 -1.3 -1.3 -1.3 5.2 10.3 20.2 27.8 35.5 45.1 55.4 63.9 75.9 85.5 90.8 101.3 114 129.4 142.8 151.4 159.1 172 185 198.6 211.6 217.8 221.2 224.3 232.8 243.3 253.5 259.1 264.7 273.7 278.6 280.5 277 274.2 273.5 274.8 277.9 281.9 280.9 287 289.9 292.9 292.1 294.2 296.6 300.1 304.4 307.1 309.8 311.7 312.9 313 314.1 316.6 319.9 324.2 329 334.1 338.3 340.9 338.8 337.9 336.7 335 333.6 331.3 328.9 330.2 335.6 336.4 336.4 341.3 342.5 326.9 315.2 301.7 297.5 298.6 292.6 287.1 284.2 279.5 273.6 265.6 257.8 247.5 240.1 232.4 221.1 208.4
-1.3 -1.3 -1.3 -1.3 -1.3 -1.3 -1.3 -1.3 -1.3 -1.3 -1.3 -1.3 -1.3 -1.3 -1.3 -1.3 -1.3 -1.3 -1.3 -1.3 -1.3 -1.3 -1.3 -1.3 -1.3 -1.3 -1.3 -1.3 -1.3 1.1 6.6 18.5 30.2 35.3 41.2 43.5 50 56.7 63.7 70.4 76 83.5 92.9 98.1 104.3 111.4 118 125.9 135.2 143.7 151.5 159.7 171 178.8 184.3 188.4 190.5 190.9 187 182.1 173.1 167.9 164.3 159.7 152.9 141.6 134.5 124.7 113 98.3 84.8 72.7 64.3 54.6 43.2 30.3 20.4 10.4 -1.3 -1.3 -1.3 -1.3 -1.3 -1.3 -1.3 -1.3 -1.3 -1.3 -1.3 -1.3 -1.3 -1.3 -1.3 -1.3 -1.3 -1.3 -1.3 -1.3 -1.3 -1.3 -1.3 -1.3 -1.3 -1.3 -1.3 -1.3 -1.3 -1.3 -1.3 -1.3 4.4 8.3 15.3 23.4 31.8 41.3 51.4 60.6 71.1 84.8 87.5 97.6 114 129.4 136.3 147.6 156 167.7 179.9 191.5 202.3 211.7 216.3 219.8 227.4 239.6 249.8 254.5 259.9 269.3 280.9 279.5 275.2 272.4 270.1 269.7 271 274.9 275.7 274.2 283.2 285.1 289.3 290.4 292.5 295.9 300 304.1 307.4 308.1 309.2 311.7 313.6 315.4 319 323.2 329 335.2 338.9 341.2 341.7 339.7 337.2 335.7 334.2 333.6 331.5 332.9 335.5 337.4 339.3 347.5 347.9 335.9 316.2 304.9 295.5 293.2 289.3 284.9 277.3 272 265.6 258.2 249.9 242.7 233.6 224.9 217.3 207.8
-1.3 -1.3 -1.3 -1.3 -1.3 -1.3 -1.3 -1.3 -1.3 -1.3 -1.3 -1.3 -1.3 -1.3 -1.3 -1.3 -1.3 -1.3 -1.3 -1.3 -1.3 -1.3 -1.3 -1.3 -1.3 -1.3 -1.3 -1.3 -1.3 1.1 5.9 11.3 24 29.6 34.1 43 47.4 54.1 60.2 66 71.4 82.3 90.9 97.2 104 110.2 116.4 125.5 135.8 142.9 150.5 158.8 170.3 177.1 182 186 188.6 188.7 186.5 180.6 173.7 168.9 165.3 162.4 154.9 143.2 136.1 126.4 117.7 102.8 86.6 74.5 64.2 56.7 46.2 34.5 21.6 11.1 5.1 -1.3 -1.3 -1.3 -1.3 -1.3 -1.3 -1.3 -1.3 -1.3 -1.3 -1.3 -1.3 -1.3 -1.3 -1.3 -1.3 -1.3 -1.3 -1.3 -1.3 -1.3 -1.3 -1.3 -1.3 -1.3 -1.3 -1.3 -1.3 -1.3 -1.3 -1.3 4.5 6.3 13.4 20.2 30.3 36.8 47 57.1 66.7 77.9 88.1 95.4 108.6 123.2 131.1 141.6 150.4 161.7 173.1 186.6 195.7 204.9 211.6 215.8 219.5 232.4 242.5 250.4 255.1 263 273.2 274.9 273.1 271.2 268.7 263.7 265.9 266.8 269.3 274.2 275 274.3 284.4 286.6 289.5 291.6 295.5 300.6 303.4 304.2 310.5 311.3 312.8 314.3 317.4 321.4 328.1 334.8 339.2 343.2 344.8 343.2 339 336.9 335.6 335 334.2 335.6 337.1 338.4 345.4 346 343 336.1 320.6 307.6 295.3 290.5 290.2 282.8 272.9 263.4 257 248.8 242.9 234.4 226.9 219 212.6 206.6
-1.3 -1.3 -1.3 -1.3 -1.3 -1.3 -1.3 -1.3 -1.3 -1.3 -1.3 -1.3 -1.3 -1.3 -1.3 -1.3 -1.3 -1.3 -1.3 -1.3 -1.3 -1.3 -1.3 -1.3 -1.3 -1.3 -1.3 -1.3 -1.3 1.3 4.7 8.8 20.2 29.2 34.9 41.1 45.5 50.7 54.3 61.4 68.2 79 88.2 94.9 101.7 109.6 116.8 127.1 136 143.1 150.8 159.1 167.6 175.7 180.2 183.8 186.9 187.9 186 180.3 174.4 169.4 165.2 161.8 154.8 143.3 136.9 127.7 119.3 107.3 89.9 77.1 64.8 55.3 48.6 35.8 26.4 14.7 7.2 -1.3 -1.3 -1.3 -1.3 -1.3 -1.3 -1.3 -1.3 -1.3 -1.3 -1.3 -1.3 -1.3 -1.3 -1.3 -1.3 -1.3 -1.3 -1.3 -1.3 -1.3 -1.3 -1.3 -1.3 -1.3 -1.3 -1.3 -1.3 -1.3 -1.3 -1.3 -1.3 4.9 10 15.7 22.1 31.8 41.4 50.7 59.4 72.5 84.6 90.8 101.6 115.4 127.8 137.1 145.6 155.9 166.6 178.1 190.9 199 206.5 211.3 214.9 221.5 235.3 242.5 249.3 254.5 262.4 268.6 269.4 267.4 266.4 262 261 260.2 264.2 267.8 270.9 275.9 279.2 283 286 287.9 291.5 295.7 298.3 303.5 306.5 309.5 311.9 313.4 315.9 320.5 327.7 333.9 339.8 345.6 346.3 344.5 341.7 338.1 337 336.1 336.8 336.7 338.2 337.6 339.8 342.2 336.7 330.2 320.5 307.8 295.6 287.3 284.4 276.9 268.4 259.1 247 236.6 231.2 226.5 219.7 214.2 211.5 203.7
-1.3 -1.3 -1.3 -1.3 -1.3 -1.3 -1.3 -1.3 -1.3 -1.3 -1.3 -1.3 -1.3 -1.3 -1.3 -1.3 -1.3 -1.3 -1.3 -1.3 -1.3 -1.3 -1.3 -1.3 -1.3 -1.3 -1.3 -1.3 -1.3 1.1 3.7 8.4 18.7 27.2 32.8 40.1 43.7 46.3 53 59.8 64.5 76.7 87.6 95.1 103.3 111.1 118.5 126.7 135.8 143.8 151.6 159.6 167.5 174.8 179.2 182.6 185.7 186.8 185.8 180 175.1 170.3 166.1 160.4 153.6 142.8 134.7 127.2 119.3 106.2 90.4 81 68.1 56.5 50.8 39 27 17.6 8.9 -1.3 -1.3 -1.3 -1.3 -1.3 -1.3 -1.3 -1.3 -1.3 -1.3 -1.3 -1.3 -1.3 -1.3 -1.3 -1.3 -1.3 -1.3 -1.3 -1.3 -1.3 -1.3 -1.3 -1.3 -1.3 -1.3 -1.3 -1.3 -1.3 -1.3 -1.3 -1.3 5 8.2 12.5 19.4 24.9 35.5 46.4 56.3 67.5 76.5 87.1 99 109.2 122.1 132.6 140.5 150.4 159.9 170.6 183.6 192.7 199.6 205 209.6 215.7 225.6 235 241.3 246.2 251.4 259.4 261.5 263.3 263.6 261.1 251.7 255.8 258.4 260.2 267 271.5 274.5 278.3 282.2 284.5 286.4 290 297.4 300.4 303.3 306.6 309.3 311.7 314.8 320.3 326.3 332.3 338.1 344 345.3 344.9 342.8 339.7 338.6 338.2 338.3 338.1 338.4 338 334.7 334.3 330.8 324.9 315 305.4 296 287.2 279.2 277.4 272.1 264.5 243.2 241.2 229.4 222.4 216.4 209 205.4 198.8
-1.3 -1.3 -1.3 -1.3 -1.3 -1.3 -1.3 -1.3 -1.3 -1.3 -1.3 -1.3 -1.3 -1.3 -1.3 -1.3 -1.3 -1.3 -1.3 -1.3 -1.3 -1.3 -1.3 -1.3 -1.3 -1.3 -1.3 -1.3 -1.3 1.7 4 8.3 15.8 26.3 29.3 36.8 41.1 45.1 49 55.3 59.8 74.9 86.3 95.3 104.9 111.8 118.7 126.4 134.5 143 150.9 158.8 166.8 173.1 178 181.5 184.5 186.4 184.6 182 177.3 171.3 167.8 167.3 156.3 142.8 134.8 127.7 121.5 109.2 93.2 83.7 72.9 60.1 52.9 45.1 32.2 21.3 9.7 1.7 -1.3 -1.3 -1.3 -1.3 -1.3 -1.3 -1.3 -1.3 -1.3 -1.3 -1.3 -1.3 -1.3 -1.3 -1.3 -1.3 -1.3 -1.3 -1.3 -1.3 -1.3 -1.3 -1.3 -1.3 -1.3 -1.3 -1.3 -1.3 -1.3 -1.3 -1.3 1.7 5.8 11.7 14.2 21.4 30.6 42.5 50.2 62.2 72.7 83.7 93.5 105.7 115.5 128.5 135.9 141.9 155.8 164.6 176.4 185.5 193.7 199.9 204.8 210.7 219.1 232.1 237 241.2 244.2 248.6 253.8 256.9 259 259 252.9 248.8 252.4 256.6 261.5 265 271.5 275 276.3 279.9 286.2 290.8 294.4 297.5 301 304.9 307.5 310.2 313.2 317.5 322.6 328.3 334.5 341 349.4 352.1 344.8 340.7 339.4 339.1 339.1 341.9 341.6 343.5 335.6 327.4 322.7 317.4 310.1 302.2 293.5 286.5 277.7 274.9 274.3 265.7 248.4 242.2 240.5 229.2 214.1 209.1 200.8 192.9
-1.3 -1.3 -1.3 -1.3 -1.3 -1.3 -1.3 -1.3 -1.3 -1.3 -1.3 -1.3 -1.3 -1.3 -1.3 -1.3 -1.3 -1.3 -1.3 -1.3 -1.3 -1.3 -1.3 -1.3 -1.3 -1.3 -1.3 -1.3 1.5 3.5 5.1 7.7 15.5 23.3 29.4 34.8 38.9 42 49.1 54.5 60.4 72.6 84.3 94.5 104.3 111.3 119 127 134.7 142.8 151.5 157.6 165.1 172 177.8 182.8 185.8 186.5 184.6 182.7 180.4 176.8 172.6 167.5 160.8 144.5 135.9 129 121.5 112.2 99.6 83 76.2 67.2 55.8 48.4 34.9 24.5 12.4 4.3 -1.3 -1.3 -1.3 -1.3 -1.3 -1.3 -1.3 -1.3 -1.3 -1.3 -1.3 -1.3 -1.3 -1.3 -1.3 -1.3 -1.3 -1.3 -1.3 -1.3 -1.3 -1.3 -1.3 -1.3 -1.3 -1.3 -1.3 -1.3 -1.3 -1.3 -1.3 -1.3 4.8 8.8 11.9 17.5 25.6 36.5 44.9 56.4 67.8 80.9 89.9 101.1 114.2 122.2 129.8 141.2 150.5 158.2 169.9 178.7 187.1 193.6 199.2 203.9 214.4 225.6 231.4 235 237.9 241.6 246.2 249.9 253 254.5 251.8 246.4 248.3 248.8 254.5 261.7 266.1 272.4 278 281.7 284.6 287.3 291.3 295.3 300.1 303.1 305.7 308.6 311.6 314.4 318.3 326.6 336.9 342.4 349.5 351.8 345.2 340.4 339.3 339.9 340.3 343.1 341.1 341.7 333.2 325.5 319.8 313.4 306.6 299.7 292.7 290.9 281.2 280.1 278 270 252.5 245.3 238.1 227.7 213.4 201 194.2 188.7
-1.3 -1.3 -1.3 -1.3 -1.3 -1.3 -1.3 -1.3 -1.3 -1.3 -1.3 -1.3 -1.3 -1.3 -1.3 -1.3 -1.3 -1.3 -1.3 -1.3 -1.3 -1.3 -1.3 -1.3 -1.3 -1.3 -1.3 -1.3 1.5 4.2 4.8 7.2 11.2 19.8 27 30.5 31.9 44.3 55.7 57 65.5 73.4 82.3 92.6 103.8 111.9 118.2 126.8 134.8 143.1 151.3 158 164.5 172.4 177.8 181.7 184.9 185.9 184.8 183.3 181.6 183.4 174.3 167.2 161.5 150.2 136.2 129.9 121.3 113.7 104.8 95.7 83.5 73.9 57.6 49 39.8 28.9 17.1 7.5 -1.3 -1.3 -1.3 -1.3 -1.3 -1.3 -1.3 -1.3 -1.3 -1.3 -1.3 -1.3 -1.3 -1.3 -1.3 -1.3 -1.3 -1.3 -1.3 -1.3 -1.3 -1.3 -1.3 -1.3 -1.3 -1.3 -1.3 -1.3 -1.3 -1.3 -1.3 -1.3 4.7 7.9 11.4 12.7 20 28.7 37.4 48.5 62.9 75 83.9 94.7 108.6 111.6 127.3 137.6 148.1 154.4 162 169.7 179 187.7 192.8 198.2 206.9 217.1 223.5 226.6 231.1 234.2 238 243.2 246.4 248.6 246.1 240.2 241.4 243.3 247.7 253.1 266.4 270.4 273.7 277.5 281.7 283.2 288.7 294.4 298.6 301.3 304.3 307.3 309.8 312.1 315.5 331.9 337.9 338.7 340.5 344.9 341.4 339 337.6 339.1 340.7 342.1 337.6 336.1 332.1 326.7 319.7 313.7 310.8 304.1 295 291.3 285 278.5 279.5 272.7 255.3 250.6 240.5 225.8 213.1 202.4 192.5 183.9
-1.3 -1.3 -1.3 -1.3 -1.3 -1.3 -1.3 -1.3 -1.3 -1.3 -1.3 -1.3 -1.3 -1.3 -1.3 -1.3 -1.3 -1.3 -1.3 -1.3 -1.3 -1.3 -1.3 -1.3 -1.3 -1.3 -1.3 -1.3 0.7 4.5 4 6 9.5 23.1 29.9 35.4 39.3 45.8 56.9 63.3 68.1 76.8 85.6 94.5 103.9 112.1 118.7 126.6 135.1 143.5 151.8 159 165.3 172.5 177.8 180.6 183.3 183.9 183.6 182.1 182.2 183 175.6 166.3 159.9 152.8 140.9 132.4 124 116.7 109.7 103.6 91 78.8 63.1 51.4 42.7 32.2 21 10 1.8 -1.3 -1.3 -1.3 -1.3 -1.3 -1.3 -1.3 -1.3 -1.3 -1.3 -1.3 -1.3 -1.3 -1.3 -1.3 -1.3 -1.3 -1.3 -1.3 -1.3 -1.3 -1.3 -1.3 -1.3 -1.3 -1.3 -1.3 -1.3 -1.3 -1.3 -1.3 -1.3 5.9 10.6 12.6 16.8 24.6 33.2 42.5 55.1 66.9 79.6 88.9 102.3 110.9 125.1 135.3 145.1 153.9 157.1 163.7 170 178.3 186.3 192.8 199.6 207.8 209.8 220.1 223 226.3 229.6 233.3 238.1 241 243.5 235.1 236.1 238.1 242 253.3 260.7 266.5 267.8 273.2 275.9 282.3 287.7 292.9 296.4 299.7 301.9 305 306.8 309.5 315 326.7 332.4 333.6 333.9 336.6 337.3 336 335.2 336.6 339 338.6 335.8 335.3 331 326.4 322.5 315.2 308.6 304.9 294.4 290.6 280.7 275 271.5 266.1 253.8 246.8 236.9 224.4 214.3 203.9 193.6 182.5
-1.3 -1.3 -1.3 -1.3 -1.3 -1.3 -1.3 -1.3 -1.3 -1.3 -1.3 -1.3 -1.3 -1.3 -1.3 -1.3 -1.3 -1.3 -1.3 -1.3 -1.3 -1.3 -1.3 -1.3 -1.3 -1.3 -1.3 -1.3 0 2.1 4.4 5.7 10 23.8 32.6 38.7 46.4 54.7 57.6 65.8 72.4 80.4 88.9 99.1 105.3 111.7 117.8 126.5 135 143.5 152.8 159.9 166.3 172.4 176.8 180 182.1 182.9 182.3 180.9 181.1 179.5 174.7 166.3 159.1 152.1 142.7 133.5 127.1 119.6 113.1 110.6 104.2 89.2 70.5 55.6 46.1 35.4 23.5 12 5.4 -1.3 -1.3 -1.3 -1.3 -1.3 -1.3 -1.3 -1.3 -1.3 -1.3 -1.3 -1.3 -1.3 -1.3 -1.3 -1.3 -1.3 -1.3 -1.3 -1.3 -1.3 -1.3 -1.3 -1.3 -1.3 -1.3 -1.3 -1.3 -1.3 -1.3 -1.3 -1.3 4.7 7.9 10.6 14.3 20.9 28.9 33.6 47.8 61.6 72.1 78.5 96.5 107.5 123.2 133.6 142.2 156.2 156.2 158.6 163.5 171.9 178.9 186 192.5 196.2 205.7 210.5 215.2 219.3 222.6 225 229.4 233.6 236.9 237.3 232.2 234.3 238.3 245.5 252.2 258.4 264.6 269.1 274.8 282.2 287.1 290.6 293.9 297.2 298.8 306.1 308.6 309.4 313.6 319.1 325.9 328.1 329 330.1 333.1 332.5 332.2 331.5 331.5 331.9 332.1 337.4 330.3 325.1 320.7 315.7 307 296.4 291.2 285.5 276.9 270.4 264.3 258.5 250.7 244.3 235.5 223.1 211.9 205.1 195.5 186.5
-1.3 -1.3 -1.3 -1.3 -1.3 -1.3 -1.3 -1.3 -1.3 -1.3 -1.3 -1.3 -1.3 -1.3 -1.3 -1.3 -1.3 -1.3 -1.3 -1.3 -1.3 -1.3 -1.3 -1.3 -1.3 -1.3 -1.3 -1.3 -1.3 0.6 2.2 4.9 11.1 28.5 39.1 47 48.8 60.1 67.1 70.3 77.4 85.2 92 100.5 106.3 111.4 118.4 127 135 143.9 152.7 160 166.5 171 175.2 180.9 181.8 181.7 180.9 179.4 177.8 176 172.9 166.7 158.7 150.8 143.4 133.4 126.9 121.5 116.9 112.6 106.8 98 79 63.5 49.9 40.9 27.6 16.5 7.6 1.2 -1.3 -1.3 -1.3 -1.3 -1.3 -1.3 -1.3 -1.3 -1.3 -1.3 -1.3 -1.3 -1.3 -1.3 -1.3 -1.3 -1.3 -1.3 -1.3 -1.3 -1.3 -1.3 -1.3 -1.3 -1.3 -1.3 -1.3 -1.3 -1.3 -1.3 -1.3 -1.3 4.2 7.8 12 16.5 23.8 30.5 40.3 54.4 65.6 77.2 93.8 102.9 118 129.9 140.2 149.8 151.7 154.4 159.8 165.6 172.4 178.4 182.7 191.1 197.9 203.2 208.9 212.4 216 219.1 223.5 226.5 229.2 231.2 228.3 230.7 236.6 238.9 241.1 251.4 263.2 269 273.5 281.2 284.6 288.6 291.6 294.8 299.9 307.2 310.9 308.3 308.9 313.3 319.7 323.3 324.8 325.5 328.3 328.1 328.4 328.4 328 326.5 328 330.3 329.4 324.3 318.4 314.8 310.2 293.7 288 279.6 269.5 262.1 255.7 249.9 247.2 242 232.9 219.5 210.6 203.2 195.2 186.5
-1.3 -1.3 -1.3 -1.3 -1.3 -1.3 -1.3 -1.3 -1.3 -1.3 -1.3 -1.3 -1.3 -1.3 -1.3 -1.3 -1.3 -1.3 -1.3 -1.3 -1.3 -1.3 -1.3 -1.3 -1.3 -1.3 -1.3 -1.3 -1.3 0 3.2 5.3 11 32 45.6 49 56.6 65.8 74.3 75 83.4 91 93.5 101.6 106.5 112.6 119.1 127 135.6 144.5 152.5 160 165.5 170.3 173.8 179.9 181.1 180.5 179.1 177.2 175 173.4 170.4 166.3 159.2 150.5 142.7 134.5 127.5 121.5 116.8 112.1 106.9 101.2 85.7 68.4 56 43.8 32.3 22 12.8 5.2 -1.3 -1.3 -1.3 -1.3 -1.3 -1.3 -1.3 -1.3 -1.3 -1.3 -1.3 -1.3 -1.3 -1.3 -1.3 -1.3 -1.3 -1.3 -1.3 -1.3 -1.3 -1.3 -1.3 -1.3 -1.3 -1.3 -1.3 -1.3 -1.3 -1.3 -1.3 -1.3 -1.3 5.3 9 14.3 21.8 27.6 33.5 42.5 61.8 72.3 87.8 96.8 111 124.4 134.2 142.6 149.8 152.3 156.1 159.8 165.4 167 176.8 184.4 190.4 196.7 202.5 207.2 210.3 213.7 217.7 220.1 222.3 224.7 223.6 226.8 231.4 235.4 243.1 252.8 261.7 268.7 270.6 277.8 283.1 285.4 289.6 295.3 299.6 302 304.5 304.9 305.3 307.8 312.8 317.9 320.4 320.9 322.4 323.2 324 323.9 324.8 322.7 322.6 324.7 322.4 319.5 314.6 310.8 303.8 293.4 279.6 273.3 264.2 257.2 251.4 243.7 237.2 235.1 228 216.4 208.6 199.9 193 184.5
-1.3 -1.3 -1.3 -1.3 -1.3 -1.3 -1.3 -1.3 -1.3 -1.3 -1.3 -1.3 -1.3 -1.3 -1.3 -1.3 -1.3 -1.3 -1.3 -1.3 -1.3 -1.3 -1.3 -1.3 -1.3 -1.3 -1.3 -1.3 -1.3 0.4 3.6 7.4 15.2 36.8 48.6 56.7 63 69.4 74 78.9 88.4 96.6 97.2 101.5 107.2 113.7 120.3 127 135.7 144.2 151.4 158.5 164.9 169.3 171.8 176.9 179.7 179.3 176.9 174.4 171.9 170.2 168.2 164.5 158.7 150.7 142.1 134.9 128.3 121.5 116.5 111.6 106.6 100.9 90.4 72.9 61.1 47.1 36.1 25.7 14.4 7.8 2 -1.3 -1.3 -1.3 -1.3 -1.3 -1.3 -1.3 -1.3 -1.3 -1.3 -1.3 -1.3 -1.3 -1.3 -1.3 -1.3 -1.3 -1.3 -1.3 -1.3 -1.3 -1.3 -1.3 -1.3 -1.3 -1.3 -1.3 -1.3 -1.3 -1.3 -1.3 -1.3 5.3 7.3 11.8 19.4 23.6 29.9 38.3 58.4 67.6 80 92.1 104.8 115.6 127.8 136.3 146.1 147.3 151.6 155.1 159.4 163.3 167.6 176.7 183.9 190.9 197.6 203.3 205.5 208.3 211.4 213.7 215.6 216.6 214.2 221.8 223.3 233.5 243.1 250.8 259.1 264.3 267.7 271.4 274.3 282.6 290 294.1 297.5 299.1 300.9 301.9 302.1 304.3 309.3 313.2 314.5 315.5 316.5 317.5 318.4 319.9 321.3 318.8 316.3 317.6 316.8 312.8 307.9 304.6 298.3 290.6 279.3 266.7 258.8 252.4 245.7 237.4 229.4 222.1 219.3 212.3 206 197.8 191 185.2
-1.3 -1.3 -1.3 -1.3 -1.3 -1.3 -1.3 -1.3 -1.3 -1.3 -1.3 -1.3 -1.3 -1.3 -1.3 -1.3 -1.3 -1.3 -1.3 -1.3 -1.3 -1.3 -1.3 -1.3 -1.3 -1.3 -1.3 -1.3 -1.3 0.7 5.1 7.8 18 37.6 49 59.5 66.3 70.3 76.8 82.9 86.9 98.1 101.5 104.3 108.8 114.5 119.9 127.1 135.5 143.9 150.9 159 165.6 169.8 171.6 175.1 177 175.8 174.7 172.1 169.4 168 164.7 161.2 157.4 151 142.6 135.4 129.1 122.5 116.4 111.8 105.3 98.7 90.5 76.7 65.4 52.2 39 28.6 17.6 9.8 6.6 0.4 -1.3 -1.3 -1.3 -1.3 -1.3 -1.3 -1.3 -1.3 -1.3 -1.3 -1.3 -1.3 -1.3 -1.3 -1.3 -1.3 -1.3 -1.3 -1.3 -1.3 -1.3 -1.3 -1.3 -1.3 -1.3 -1.3 -1.3 -1.3 -1.3 -1.3 -1.3 1.1 4.4 9.2 12.5 18.5 27.3 34.1 51.2 63.7 72.5 85.5 97.3 108.2 117.3 127.9 137.1 141.8 146.5 150.5 154 158 161.8 168.7 176.1 183.4 192.3 200.2 200.9 203.7 205.7 208.3 210.2 207.3 208.5 217.6 224.1 231.6 240.8 248.8 254.4 258.7 259.3 266.7 274 283 288.4 292.2 295.3 297.1 298.4 298.5 299.4 301 304 306.9 308.2 309.2 310.3 311 311.4 314.6 316.2 314.3 310.4 309.8 308.8 306.1 300.4 295.5 291.5 285.1 276.3 263.2 253.5 245.8 238.1 229.9 223.7 219 213.8 207.4 202.6 196.3 190.4 184.9
-1.3 -1.3 -1.3 -1.3 -1.3 -1.3 -1.3 -1.3 -1.3 -1.3 -1.3 -1.3 -1.3 -1.3 -1.3 -1.3 -1.3 -1.3 -1.3 -1.3 -1.3 -1.3 -1.3 -1.3 -1.3 -1.3 -1.3 -1.3 -1.3 0.8 5.3 8.1 21.8 38.4 48.5 57.6 65 70.1 76.3 84.6 89.1 96.5 102.7 106.1 109.8 114.7 120.9 128.1 135.7 143.3 150.9 159.3 166.4 171.8 173 174.8 175.4 173.6 172.5 170.3 167.9 165.5 162.2 158.8 155.4 150.2 143 135.6 129.3 122.6 116.7 112.7 106.6 100.2 92.7 79.5 69.7 55.3 42 30.8 20.2 11.7 7.6 1.6 -1.3 -1.3 -1.3 -1.3 -1.3 -1.3 -1.3 -1.3 -1.3 -1.3 -1.3 -1.3 -1.3 -1.3 -1.3 -1.3 -1.3 -1.3 -1.3 -1.3 -1.3 -1.3 -1.3 -1.3 -1.3 -1.3 -1.3 -1.3 -1.3 -1.3 -1.3 -1.3 5.1 6.9 12.2 15.5 23.2 32.6 43.7 59.1 66.5 75.7 89.5 100.2 109.3 118.3 128.5 134.6 139.8 138.4 148.8 151.5 155.2 161.5 168.6 176.4 185.3 191.4 196.7 199.1 201.5 204.5 199.6 201.9 210.7 219 222.3 229.2 237.8 244.2 249.6 249.4 256.5 268.8 275.6 281.3 286.8 289.9 293 295.8 296.7 297 296.3 296.6 298.1 301.4 303.5 304.3 304 305 306.2 307.8 308.7 308.3 302.7 301.3 298.6 297.9 292.1 287.3 281 275.5 270.2 258.7 248 240.4 233.8 225.9 220 217.3 211.3 205 197.4 193.1 187.7 182.8
-1.3 -1.3 -1.3 -1.3 -1.3 -1.3 -1.3 -1.3 -1.3 -1.3 -1.3 -1.3 -1.3 -1.3 -1.3 -1.3 -1.3 -1.3 -1.3 -1.3 -1.3 -1.3 -1.3 -1.3 -1.3 -1.3 -1.3 -1.3 -1.3 0.7 6.9 9.7 23.9 37.9 46.5 58.2 64.8 70.7 78.9 85 90.4 95.7 103.2 107 112.2 115.9 121.6 127.3 134.5 143.2 152 160.7 167.1 172 173.9 174.5 173.7 172.1 170.6 168.8 166 163.5 160.1 156.6 152.6 148.3 142.6 133.8 128.5 122.6 117.5 112.9 106.1 99.6 91.2 82 65 49.5 42.6 34.2 25.4 18.4 10.9 4.9 -1.3 -1.3 -1.3 -1.3 -1.3 -1.3 -1.3 -1.3 -1.3 -1.3 -1.3 -1.3 -1.3 -1.3 -1.3 -1.3 -1.3 -1.3 -1.3 -1.3 -1.3 -1.3 -1.3 -1.3 -1.3 -1.3 -1.3 -1.3 -1.3 -1.3 -1.3 -1.3 -1.3 5 9.2 12 20.4 31.6 40.4 52.3 59.4 70.6 82 91.7 101.2 111.2 119.2 126.3 129.1 138.5 142.3 143.8 149.3 155.7 161.5 170.2 178.4 186 190.5 195 198.1 199.9 194.2 205.3 208.9 215 218.6 224.9 231.8 238 240.1 250.6 262.9 269 273.4 277.7 283.9 287 290.1 294.5 295.9 296.1 295.6 293.5 293.7 295.5 297.4 298.3 297.6 298.7 300 301.9 301.7 298.8 296.1 292.4 288.6 286.1 282.1 278.3 273.8 267.2 261.8 251.9 244.3 237.1 230.7 223.9 217.2 209.7 206.8 200.8 192.8 189.2 184.9 180.4
-1.3 -1.3 -1.3 -1.3 -1.3 -1.3 -1.3 -1.3 -1.3 -1.3 -1.3 -1.3 -1.3 -1.3 -1.3 -1.3 -1.3 -1.3 -1.3 -1.3 -1.3 -1.3 -1.3 -1.3 -1.3 -1.3 -1.3 -1.3 -1.3 -1.3 7.6 12.9 24.5 39.7 47 55.3 63.8 71.2 79.4 84.1 90.5 96.5 102 108.8 114.3 117.3 121.9 127 134.7 142.6 152.2 160.7 166.8 170.7 175 179.5 178.4 176.9 172.3 169.3 166.7 163.5 158.8 154.7 151 145.5 140.5 132.5 126.1 120.3 115.6 111.7 102.4 97.8 87.8 80.9 71.8 60 47.8 37.5 28.7 19.9 12.6 6.3 -1.3 -1.3 -1.3 -1.3 -1.3 -1.3 -1.3 -1.3 -1.3 -1.3 -1.3 -1.3 -1.3 -1.3 -1.3 -1.3 -1.3 -1.3 -1.3 -1.3 -1.3 -1.3 -1.3 -1.3 -1.3 -1.3 -1.3 -1.3 -1.3 -1.3 -1.3 -1.3 -1.3 1.3 7.8 10.9 19.8 27.2 35 42.3 51.9 61 72.7 85 93.7 103.5 109.4 116.9 123.6 130.5 134 134.8 143 149.6 153.6 162.9 171.9 178.8 184.7 189.5 192.9 194.5 191.6 200.1 199.9 208.8 217.4 226.2 237.3 240.9 241.8 252.4 258.1 265.9 270 273.8 279.6 284.1 288.2 292.4 294.9 293.5 293.9 290.3 290.8 291.3 292.1 291.4 290.9 291.6 293.2 295.5 294.4 291 287.1 283.7 279.3 275.2 271.4 268.9 265.2 260.2 256.2 250.1 242 233 226.1 221 216.2 208.2 198.8 193.9 191.3 186.7 182.4 178.1
-1.3 -1.3 -1.3 -1.3 -1.3 -1.3 -1.3 -1.3 -1.3 -1.3 -1.3 -1.3 -1.3 -1.3 -1.3 -1.3 -1.3 -1.3 -1.3 -1.3 -1.3 -1.3 -1.3 -1.3 -1.3 -1.3 -1.3 -1.3 -1.3 -1.3 7.8 16.1 28.2 39.7 46.4 53.2 61.6 70.7 77.7 84.6 89.7 96.2 101.3 107.3 114.1 119.1 122.7 127.6 134.4 141.9 151 159.2 165 170.1 175.8 182.1 188.2 185.1 178.1 172.8 167.8 164.4 159.7 155.9 151.1 145.5 141.6 135.3 129.3 123.4 119.8 116.3 108.8 100.6 94.3 85.7 75.3 64.6 51.8 42.3 31.8 23.4 15 7.8 -1.3 -1.3 -1.3 -1.3 -1.3 -1.3 -1.3 -1.3 -1.3 -1.3 -1.3 -1.3 -1.3 -1.3 -1.3 -1.3 -1.3 -1.3 -1.3 -1.3 -1.3 -1.3 -1.3 -1.3 -1.3 -1.3 -1.3 -1.3 -1.3 -1.3 -1.3 -1.3 -1.3 -1.3 1.8 8.6 15.8 21.4 29 38.5 49.4 49.8 65.2 76.3 87.2 93.4 99.6 107.3 115.1 120.7 123.2 132.4 139.4 142.2 147.2 153.5 163.5 173.8 179.3 184.6 187.5 189.1 187.3 196.2 196.5 207.2 219.5 232 236.5 236.4 243.2 247.1 256.6 261.6 265.5 270.1 275.3 281.1 284.8 286.9 290.7 290.2 288.4 285.9 283.1 286.4 285.2 283.8 282.7 284.4 286.3 287.6 286.3 282.7 278.3 274 271.1 268.8 267.6 263.9 258.3 256.6 253.6 249.3 245.5 230.9 223.7 218.5 212.9 206 197.9 191.3 186.1 183.7 180.2 175.5
-1.3 -1.3 -1.3 -1.3 -1.3 -1.3 -1.3 -1.3 -1.3 -1.3 -1.3 -1.3 -1.3 -1.3 -1.3 -1.3 -1.3 -1.3 -1.3 -1.3 -1.3 -1.3 -1.3 -1.3 -1.3 -1.3 -1.3 -1.3 -1.3 -1.3 9 14.7 29.7 38.6 47.8 53.3 59.6 67.2 75.9 83.6 90.4 96.5 103.4 108.6 113.4 119.6 123.9 127.6 134.2 142.9 150.8 158.6 164.6 170.5 176.1 188.8 196.6 195.7 185.2 180 174.4 167.3 163.5 156.7 150.6 146.6 143.6 137.6 132.2 125.7 121.4 117.8 111.8 104.1 96.1 87.1 77.8 66.7 54.5 44.7 35.3 26.4 16.6 10.1 4.1 -1.3 -1.3 -1.3 -1.3 -1.3 -1.3 -1.3 -1.3 -1.3 -1.3 -1.3 -1.3 -1.3 -1.3 -1.3 -1.3 -1.3 -1.3 -1.3 -1.3 -1.3 -1.3 -1.3 -1.3 -1.3 -1.3 -1.3 -1.3 -1.3 -1.3 -1.3 -1.3 -1.3 0.4 5 14 18.6 23.1 30.7 41.7 45 55.8 67.3 76.1 83.9 91.1 100.8 106.6 109.7 121.5 128.8 132.6 133.5 140.9 146.9 152.4 166.1 171.9 178.6 179.8 178.3 188.5 186.2 191.7 201.9 218.1 226.4 228.4 232.9 237.3 246.4 253.2 257.5 262.2 267.6 274.8 277.3 279.3 279.7 284 284.2 282.8 280.4 277.3 279 279.1 277.2 276.2 276.8 277.6 281.5 279.3 273 267.9 264.3 264.2 262.7 259.8 256.1 253.6 250.8 249.1 248.8 241.1 230.3 221.2 215.1 208.5 200.4 194.3 188.6 183.2 179.7 177.7 174.6
-1.3 -1.3 -1.3 -1.3 -1.3 -1.3 -1.3 -1.3 -1.3 -1.3 -1.3 -1.3 -1.3 -1.3 -1.3 -1.3 -1.3 -1.3 -1.3 -1.3 -1.3 -1.3 -1.3 -1.3 -1.3 -1.3 -1.3 -1.3 -1.3 -1.3 8.6 15.3 28.6 37.2 47 53.8 59.3 66.5 75.6 83.2 89.8 98.3 108.9 113.9 117.4 119.2 124.2 127.8 134 143.2 151.6 157.4 164.6 169.2 174.1 188.6 195.8 196.4 189.2 183.5 179.9 174 168.8 161.7 154.4 148.5 145.1 140.9 136.3 129.9 123.4 120.4 112.7 106.1 100.2 92.2 81.8 69.5 56.6 45.6 38.1 28.2 21 11.8 6 -1.3 -1.3 -1.3 -1.3 -1.3 -1.3 -1.3 -1.3 -1.3 -1.3 -1.3 -1.3 -1.3 -1.3 -1.3 -1.3 -1.3 -1.3 -1.3 -1.3 -1.3 -1.3 -1.3 -1.3 -1.3 -1.3 -1.3 -1.3 -1.3 -1.3 -1.3 -1.3 -1.3 -1.3 3.3 7.7 15.4 17.4 23.3 34.6 39.3 46.9 57.6 68.5 76.3 85.9 92.3 95.1 107 116 122.2 124.6 125.8 132.5 139.1 142.6 155.1 163.9 171.8 164.8 180.4 185.1 181.6 183.8 196.5 207.9 215.8 223.2 226.5 230.3 239.8 248.5 252.2 256.9 263.3 269.2 272.7 272.8 272.8 274 277 276.3 275.2 272.5 271.4 272.8 270.8 267.9 266.8 267.5 272.3 272.3 266.3 258.2 258.2 258.7 259.4 258.7 255 250.5 246.5 242.7 241.7 235.9 226.4 220.2 212.1 204.2 195.6 190.9 186.6 181.3 176.6 173.8 171.5
-1.3 -1.3 -1.3 -1.3 -1.3 -1.3 -1.3 -1.3 -1.3 -1.3 -1.3 -1.3 -1.3 -1.3 -1.3 -1.3 -1.3 -1.3 -1.3 -1.3 -1.3 -1.3 -1.3 -1.3 -1.3 -1.3 -1.3 -1.3 -1.3 -1.3 4 12.8 25.7 37.1 47.4 53.6 59.4 66.1 74.4 82.2 88.9 101.6 110.8 119.3 123.7 124.3 124.7 128.6 133.5 141.9 149.2 156.2 162.8 167.5 172.5 185.1 192.4 193.4 192 186.5 182.1 177.7 172.9 165.9 158.7 152.9 149.7 146 140.8 135.4 127.7 122.2 115 107.5 101.5 93.3 85.6 73 59.1 47.8 41.2 33.2 23.2 17.3 7.9 1.4 -1.3 -1.3 -1.3 -1.3 -1.3 -1.3 -1.3 -1.3 -1.3 -1.3 -1.3 -1.3 -1.3 -1.3 -1.3 -1.3 -1.3 -1.3 -1.3 -1.3 -1.3 -1.3 -1.3 -1.3 -1.3 -1.3 -1.3 -1.3 -1.3 -1.3 -1.3 -1.3 -1.3 1.1 5.4 10.2 15.2 19.2 24.6 36.2 39.8 48.9 60 69.7 77.6 81.4 92 99.8 108.1 112.3 114.8 120.5 124.2 131.9 135.4 142.8 152.2 161.7 167.6 176.4 181.4 172.5 181.7 189.9 200.3 209.8 216.9 220.3 222.6 232.8 239.8 246.2 251.3 256 262.4 263.8 264.2 265.4 266.5 268.6 268.8 268.2 267 266.8 266.7 264.1 261.3 258.3 256.1 257.7 260.5 256.7 251.3 247.8 252.5 254.6 251.2 251.1 247 241.8 237.2 235.3 230.2 222.9 217.7 211.1 202.7 194.1 185.4 182.3 178.5 173.9 169.6 168.7
-1.3 -1.3 -1.3 -1.3 -1.3 -1.3 -1.3 -1.3 -1.3 -1.3 -1.3 -1.3 -1.3 -1.3 -1.3 -1.3 -1.3 -1.3 -1.3 -1.3 -1.3 -1.3 -1.3 -1.3 -1.3 -1.3 -1.3 -1.3 -1.3 -1.3 5.1 12.2 24.6 38.9 47.6 53.8 59.9 67.2 72.3 80.4 93.2 104.6 111.7 119.8 125.5 127 127.6 129.9 134.2 138.6 146.5 154.4 160.5 165.7 171.1 182 187.3 190.4 191.4 189.1 184.4 180 175.4 170.1 163.8 158.1 153.3 150.4 145.1 139.7 132.5 125.4 117.5 109.9 104.9 99.4 86.5 75.6 63.8 52.5 43.2 34.5 27.6 18.7 10.7 5.4 -1.3 -1.3 -1.3 -1.3 -1.3 -1.3 -1.3 -1.3 -1.3 -1.3 -1.3 -1.3 -1.3 -1.3 -1.3 -1.3 -1.3 -1.3 -1.3 -1.3 -1.3 -1.3 -1.3 -1.3 -1.3 -1.3 -1.3 -1.3 -1.3 -1.3 -1.3 -1.3 -1.3 -0.3 1.5 13.1 12 17.5 21.2 29.6 35.7 42 52.3 60.9 68.8 78 86 92.6 97.9 102.6 108.9 113.7 117.4 123.7 129.5 132.9 138.9 146.8 165.2 170.6 174.8 165.6 174.9 185.2 193.9 203 209.5 214.3 217.6 223.7 230.6 240.6 245.9 247.1 250.1 252.5 255.3 257.2 258.3 260.3 261.2 260.6 259.5 260.3 260 256.3 252.6 249.8 247.3 247.4 247.6 245.8 243.7 241.2 243.6 244.3 245.1 242.3 240.8 237.7 231.9 228.8 224.7 217.2 213.1 208.5 202.2 194.2 186.5 179.7 173.1 170.4 166.3 164
-1.3 -1.3 -1.3 -1.3 -1.3 -1.3 -1.3 -1.3 -1.3 -1.3 -1.3 -1.3 -1.3 -1.3 -1.3 -1.3 -1.3 -1.3 -1.3 -1.3 -1.3 -1.3 -1.3 -1.3 -1.3 -1.3 -1.3 -1.3 -1.3 -1.3 6.3 11 23.6 38.9 49 55.1 61.2 67.3 74 83.9 98.9 106.9 112.1 118.1 124.3 127.8 128.9 130.8 133.2 138.2 146.8 153.5 159.2 164.3 169.5 179.9 184.8 187.1 188.8 188.8 186.5 182.3 182.8 177.1 168.4 163.4 158.5 153.6 149.5 146.2 140.6 129.6 123.5 114.9 105.2 100.1 93.1 84.2 72.5 60.2 49.4 38.7 29.6 21.1 12.7 7.3 1.4 -1.3 -1.3 -1.3 -1.3 -1.3 -1.3 -1.3 -1.3 -1.3 -1.3 -1.3 -1.3 -1.3 -1.3 -1.3 -1.3 -1.3 -1.3 -1.3 -1.3 -1.3 -1.3 -1.3 -1.3 -1.3 -1.3 -1.3 -1.3 -1.3 -1.3 -1.3 -1.3 -1.3 1.1 11.6 12.7 13.2 16.7 23.5 30.6 36 43.6 51.1 62 70.5 77.4 83.4 88.4 95.7 101.8 105.7 111.3 117.1 123.2 118.4 133.9 149.1 158.3 164.2 166.2 157.1 172.6 181.2 189 195.4 201.7 207.6 213.2 219.2 228.7 236 238.6 240.2 239 240.5 244.8 247.8 249.8 251.8 255.2 254.3 250.8 251.9 253.4 253.5 249.5 242.8 238.8 238.7 237.4 235.9 235.2 233.6 233.5 234.9 236.5 236 232.5 230.1 227 221 216.4 214 209.1 204.7 200 194.7 186.6 179.9 174.6 169.5 163.2 158.7
-1.3 -1.3 -1.3 -1.3 -1.3 -1.3 -1.3 -1.3 -1.3 -1.3 -1.3 -1.3 -1.3 -1.3 -1.3 -1.3 -1.3 -1.3 -1.3 -1.3 -1.3 -1.3 -1.3 -1.3 -1.3 -1.3 -1.3 -1.3 -1.3 -1.3 6.6 10.5 24.5 37.6 47.9 55.7 63.8 69.3 75.9 85.4 99.1 108.7 113.1 116.1 122.2 127.2 129.2 130.7 133.7 139.6 148.9 152.9 158.1 163.3 168.5 178.1 182.9 184 185.5 186.7 186.1 183.8 185.8 183.6 173.3 168.3 163.2 158.4 155 151.3 146 136 129.3 120.6 115.3 108.1 100.1 90.6 83.1 68.6 56.7 43.2 33 25.6 16.5 9.8 4.7 -1.3 -1.3 -1.3 -1.3 -1.3 -1.3 -1.3 -1.3 -1.3 -1.3 -1.3 -1.3 -1.3 -1.3 -1.3 -1.3 -1.3 -1.3 -1.3 -1.3 -1.3 -1.3 -1.3 -1.3 -1.3 -1.3 -1.3 -1.3 -1.3 -1.3 -1.3 -1.3 -1.3 -1.3 7 7.9 11.1 13.5 19.1 25.7 30.5 37.3 46 55.2 62.9 69.9 73.9 81.7 89.2 91.1 98.8 105.7 111.2 113.2 105.5 128 140.1 147.4 155.4 158.1 158.1 168.5 176.6 183.6 187.2 194 200.5 207.6 214.7 219.6 225.4 230.5 231.6 231.4 233.9 238 243 245.4 246.4 248 247.3 246.2 247.2 248.7 249.4 247.6 242.2 232.7 228.1 227.9 226.7 227.3 226.6 227.3 225 225.2 224.4 225.8 222.8 219.9 216.6 211.3 207.7 204.5 200.4 195.4 190.8 185.4 178.9 174.6 169.2 164.7 159.4
