ncols 200
nrows 85
xllcorner 190000
yllcorner 864450
cellsize 50
250.4 243.2 242.5 240.2 237.9 233.6 232.9 234.1 235.8 232.5 248.3 257.1 264.3 281.4 295.5 317 328.8 322.5 307.7 299.7 277.7 258.3 238.7 222.9 216.8 211.5 205 194.1 181.1 174.4 168.5 160.5 138.4 99.9 139.8 153 160.1 165.2 168.2 174.8 176.7 186 193.7 189.6 203.9 221.8 222.3 207.4 208.8 200.4 196.9 182.5 184.5 180.2 188 206.3 230.9 246.2 253.3 249.2 244.7 250.9 246.9 232.8 223.4 224.3 248.5 252.5 263.6 262.1 265.1 259.8 257.1 249.5 247 234.4 230 213.8 179.5 174.3 170 161.6 134.6 131.9 132.2 139.4 142.1 139.8 134.3 117 116 113.5 111.1 105 98.1 77.9 73.4 77.7 83 93.5 109.3 95.1 71.8 62.6 59.4 70.9 71.9 61 64.1 54.7 48 34.7 22.2 23.7 18.2 12.4 15.8 15.1 12.7 6.4 6.4 6.4 6.4 6.4 6.4 6.4 6.4 6.4 6.4 6.4 6.4 6.4 6.4 6.4 6.4 6.4 6.4 6.4 6.4 6.4 6.4 6.4 6.4 6.4 6.4 6.4 6.4 6.4 6.4 6.4 6.4 6.4 6.4 6.4 6.4 6.4 6.4 6.4 6.4 6.4 9.8 16 23.1 31.5 37.8 46.4 58.2 75.5 109.8 122.6 146.5 177 202.7 219.2 239.4 265.2 291.8 301.4 321.3 339 417.7 425.8 423.5 426 444 456.4 463.6 468.4 472.8 477.9 490.2 499.9 498.5 499.9 492.8 484 491.9 515.2 538.1 554.7
254.7 253.2 248.8 245.3 243 243 241.2 242.6 246.3 250.1 250.1 244.3 257.4 275.6 288.4 308.2 328.6 334.4 334.6 317.3 293.8 269.3 248.9 233.7 225.1 215.2 210.8 197.7 185.2 176.3 172.9 167.9 153.6 115.7 126.2 155.5 165.6 167.6 168.9 175.5 182.7 190.3 193.7 195.4 204 221.1 221.8 215.4 220.5 212.5 204.4 197.6 196.7 196.7 208.6 225.8 245.1 260.1 265.2 260.7 258.7 256.2 252.9 245.6 230.9 232.4 235.5 252.7 264.6 267.3 264.7 260.8 255.5 254.5 251.4 236 231.1 214.7 214.2 196.1 191.9 183.8 166.4 139.8 134.1 145 145.9 145.1 143 125.7 121.6 120.2 117.2 110.9 109.7 86.3 82.5 86.2 104.3 121.5 134.3 135.2 118.6 84.8 68.4 78.9 80.9 76.7 78.7 68 53.5 44.6 29.8 27.5 20.5 18.9 19 17.3 13.4 10.8 6.4 6.4 6.4 6.4 6.4 6.4 6.4 6.4 6.4 6.4 6.4 6.4 6.4 6.4 6.4 6.4 6.4 6.4 6.4 6.4 6.4 6.4 6.4 6.4 6.4 6.4 6.4 6.4 6.4 6.4 6.4 6.4 6.4 6.4 6.4 6.4 6.4 6.4 6.4 6.4 6.4 6.8 17.8 24.5 29.4 37 46.6 64.9 80.3 104 130.5 158 184 210.3 233.7 256.2 279.8 292.1 307.9 322.5 377.4 410.4 398.9 402.4 422 433.5 440.5 438.3 448.4 462.2 482.8 499.1 492.9 493.6 484.6 476.3 483.7 501.7 525.8 545.7
264.9 263.5 266.4 258.1 254.7 251 248.6 247.4 250.2 256.7 258.1 258.2 251.7 265 281.9 305.5 332.8 349 345.5 339 318.1 299.9 279.8 254 243.5 223.3 212 199.6 191.9 179 174.8 174.2 161.2 142.5 125.6 157.1 168.3 170.9 176.4 184.6 188.7 190.5 195.4 198.1 204.8 218.4 226.7 229.4 231.9 221.8 207.3 205.7 216 223.9 225.9 237.5 261.1 280 278.7 272.6 266.6 263 259.6 256.4 245.5 263 243.4 238.7 258.1 264.3 264.4 253.1 255.9 252.7 246.8 237.8 232.8 220.1 228.9 221.3 204.2 209.5 195.8 189.1 151.1 150.3 151.4 149.5 146.7 134.3 125.5 127.5 127.9 121.2 117.4 101.9 95.7 107.2 126.3 138.2 144.5 136 128.6 109.4 84.7 93 89.9 87.9 86.8 79 66.8 52.2 49 32.8 27.5 23.5 19.2 22.5 20.6 13.5 6.4 6.4 6.4 6.4 6.4 6.4 6.4 6.4 6.4 6.4 6.4 6.4 6.4 6.4 6.4 6.4 6.4 6.4 6.4 6.4 6.4 6.4 6.4 6.4 6.4 6.4 6.4 6.4 6.4 6.4 6.4 6.4 6.4 6.4 6.4 6.4 6.4 6.4 6.4 6.4 6.4 6.4 6.4 13.8 18.9 29.5 36.4 51.4 66.7 88.1 116.8 145 171.3 197.4 221.1 245.4 271.8 277 291.7 302.3 317.5 357.3 369.6 380.7 400.8 415.5 426.2 427.6 430.7 447.1 467.3 479.9 483 483.4 479.1 471.3 472.9 479.7 502.8 526.5
285.6 282.4 275.3 274.3 276.1 271.7 265.8 258.5 256.3 256 260.5 262.9 260.5 269.4 286.5 306.8 325 340.9 354.8 349.1 333.6 318 298.2 275.3 259.8 240.2 221.1 202.2 196.8 184 179.2 175.4 166.9 153.3 119.6 157.3 167.4 175.4 181 186.3 190.1 191.8 196.5 201.2 209.9 220.2 235.5 244.9 234.5 218.3 215.4 217.1 235.1 234.7 236.7 247.5 280.3 294.3 292 285.3 278.3 272.3 269 260.5 262.9 264.7 258.3 251.4 241 247.3 252.9 246.8 245 246.6 246.8 240.9 231.6 229.1 238.5 233.4 225.7 218.4 211.7 194.7 191.3 164.9 163.7 160.2 156.5 155.4 153 145.3 132 132 118.7 113.5 106 127.3 145.1 150.4 148.8 139.3 127.5 118.1 103.1 96 96.1 99 95.3 80.3 71.5 61.2 47.2 50.9 43.1 31.4 29.4 23.6 18.5 12.9 6.4 6.4 6.4 6.4 6.4 6.4 6.4 6.4 6.4 6.4 6.4 6.4 6.4 6.4 6.4 6.4 6.4 6.4 6.4 6.4 6.4 6.4 6.4 6.4 6.4 6.4 6.4 6.4 6.4 6.4 6.4 6.4 6.4 6.4 6.4 6.4 6.4 6.4 6.4 6.4 6.4 6.4 6.4 6.4 6.4 25.8 31.5 40.4 51.7 70.8 93.6 118.9 151.3 178.7 208.5 237.6 249.5 253.4 276 292.3 297.9 323.3 349.7 359.7 378.2 400.9 411.6 418 417.1 436.2 456.1 471 475.4 479.3 479.2 468 460.2 463.1 483 508.2
299.5 293 288.1 287.1 285.9 283.8 284.8 283.3 271.6 268.6 264.5 269.4 269.7 265.1 285.8 302.2 316.5 326.9 350.9 355.2 346.2 333.2 311.5 296.4 278.2 256.4 237.3 215.6 203 191 187.3 181.4 174.8 161.7 122.3 158.4 171.3 179.6 184.1 188 195.1 196.9 201.6 216.4 218.2 226.4 239.8 247.1 238.5 230.8 235.1 240.5 242.4 242.7 254.7 259.4 291.6 298.5 295.8 287.9 285.5 275.8 272 265.7 261.7 266.5 262.8 252.5 241.2 239.9 239.9 239.9 239.9 245.7 251.1 245.8 237.8 231.7 235.5 235.1 237.9 232.3 222.1 215.8 209.1 205.9 194.8 168.4 168.7 164.7 170.9 170.9 162.7 139.9 129 118.4 109.4 132.8 157.9 164.6 160 153.4 154.6 144.6 135 132.4 126.3 117.8 103.5 90.8 75.1 58.8 47.7 52.4 46.8 36.9 33.9 26.9 19.5 12.4 10.2 6.4 6.4 6.4 6.4 6.4 6.4 6.4 6.4 6.4 6.4 6.4 6.4 6.4 6.4 6.4 6.4 6.4 6.4 6.4 6.4 6.4 6.4 6.4 6.4 6.4 6.4 6.4 6.4 6.4 6.4 6.4 6.4 6.4 6.4 6.4 6.4 6.4 6.4 6.4 6.4 6.4 6.4 6.4 6.4 15.8 26.5 31.6 36.8 57.4 79.9 99.3 124.5 155.7 180.8 222.7 225.5 231.5 256.3 276.7 285.9 301.4 342.7 361.2 365.4 386.7 401.4 411.5 409.8 422.8 442.5 459.2 466.9 471.5 471 462 449.7 448.8 464 494.5
306 302.5 298.4 302.1 297 297.4 299.6 292.2 285.6 277.6 274.8 276.4 276 279.7 278.1 285.9 304.9 324.4 344.8 357.5 352.5 338.7 314.9 299.9 278 264.8 249.2 230.1 218 197.9 191.8 186.3 181.9 162.5 124.8 164.9 175.7 186.1 188.4 189.6 195.7 199.3 207.7 214 222.4 235.9 244.6 251.8 250.8 247 250.4 251.6 245.5 248.1 263.8 275.7 300 299.5 294.3 288.9 287 284 277.2 271.4 266.2 268.2 267 258.1 246.5 243.1 239.9 239.9 248.2 252.3 255 245.1 235.7 236.8 232.3 230.7 234 232.5 233.5 221.9 219.9 215.3 205.4 200.1 174.1 177.2 174.5 178 174.2 163.3 146.3 137.1 124.4 148.8 172.2 184 185.2 180.1 176.3 172.1 172 175.3 173.6 153.8 127.4 109.2 94.6 75.1 61.4 52.9 46.1 39.5 32.4 24.8 18.2 17.8 13.9 11.4 9.3 6.4 6.4 6.4 6.4 6.4 6.4 6.4 10 6.4 6.4 6.4 6.4 6.4 6.4 6.4 6.4 6.4 6.4 6.4 6.4 6.4 6.4 6.4 6.4 6.4 6.4 6.4 6.4 6.4 6.4 6.4 6.4 6.4 6.4 6.4 6.4 6.4 6.4 6.4 6.4 6.4 6.4 6.4 18.7 17.9 24.4 46.5 68.7 87 103.1 124.7 152.5 182.4 194.2 205 230.1 266.5 270.9 290 331.3 364.4 362.5 366 384.1 392.2 402.5 408.1 423.8 443.2 452.5 461.8 461.8 454.2 442.7 437.9 447.3 476.3
310.4 311.6 316.3 316.9 308.2 312.2 315 305.4 295.1 285.3 280.1 276.2 279.9 282.5 288.6 291.9 299.9 324.2 347.4 362.2 352.1 332.6 309 292.4 271.4 257.8 241.3 229.5 219.1 207.5 196.4 192.7 181.8 158.4 128.8 166 180.1 187.8 189.8 191 195.3 203 206.5 211.6 218 224.7 240.2 250.8 256.3 253.4 246.9 248 252.9 272.1 279.4 293.3 302.9 301.4 300 292.8 291 286.6 279.2 274 270.8 269.2 264.4 259.3 255.7 247.1 240.5 246.4 258.4 255.6 247.7 239.5 236.7 245.8 246.5 243.2 236.3 233.8 227.7 227.8 224.8 219.6 212.8 207.8 200.5 189.3 179.2 174.2 180.1 174.8 163.7 149.6 138.7 161.7 190.2 191.5 187.3 186.8 193.3 186.9 198.3 199.4 192.2 176.2 153.3 131.8 107.7 97 83.7 66.9 54.7 50 41.8 32.7 21.9 16.4 16 14.7 15.3 14.2 6.4 6.4 6.4 6.4 6.4 6.5 10.8 11.3 6.4 6.4 6.4 6.4 6.4 6.4 6.4 6.4 6.4 6.4 6.4 6.4 6.4 6.4 6.4 6.4 6.4 6.4 6.4 6.4 6.4 6.4 6.4 6.4 6.4 6.4 6.4 6.4 6.4 6.4 6.4 6.4 6.4 6.4 6.4 6.4 10 42.4 60.7 74.1 86 102.9 125.7 144.9 159.6 188.2 207.6 238.1 262.4 276.8 300.5 342.6 361.4 354.9 369.4 381.1 387.2 394.2 407.1 422.3 436.7 446.9 454.9 448.2 435 428.7 433.8 457.6
327.2 322.4 320.5 318.1 319.5 319.4 318.3 315 308.5 304.3 292.9 284.2 290.5 297.4 303.7 300.8 293.5 315.7 354.6 357.7 342.5 322 301.2 287.4 271 246.9 240.8 236.1 225.9 212.5 202.3 191.4 179.7 162 131.1 167.1 183 190.3 192 191 194.7 199.6 203.8 213.4 219 224.8 239.7 249.8 256.4 259.5 253.5 247.5 257.1 279.8 287.4 299.4 297.1 297.5 295.9 294.9 289 284.4 274.7 280.5 278.1 275.1 267.8 265 268.4 269 265.5 250.6 251.5 252.5 247 238.3 237.1 241.3 247 246.9 243.8 242.9 235.4 234 244.7 243.9 233.1 224.8 213 204.8 204.5 200.1 185.6 172.3 162.6 152.2 155.4 167.2 188.8 190.3 190.4 194.8 196.4 203.4 203.7 205.5 195.3 187.9 175.4 153.4 120.4 110.9 100.5 80.8 61.2 55.1 47.9 39.4 30.8 25 18.9 16.6 15.6 14.6 13.5 6.4 6.4 10.8 11.3 12.9 6.7 13.4 9.4 6.4 6.4 6.4 6.4 6.4 6.4 6.4 6.4 6.4 6.4 6.4 6.4 6.4 6.4 6.4 6.4 6.4 6.4 6.4 6.4 6.4 6.4 6.4 6.4 6.4 6.4 6.4 6.4 6.4 6.4 6.4 6.4 6.4 6.4 6.4 6.4 18.6 48.4 54.8 67.2 82 101.9 121.7 137.5 162.5 188.1 228.2 262.7 268.6 277.1 329.3 352.6 345.7 349.1 367.7 377.6 382.7 392 409.6 427.3 431.6 443.8 445.2 434.8 422.4 422.8 443.9
325.6 325.1 323.1 323 325.7 325.1 324.4 321.1 326.3 321.3 309.9 306.4 295.6 306.6 310.2 309.8 296.1 307.2 329.3 338 326.4 313 292.2 273.9 261.1 246.1 244.9 241.6 236.5 221.4 206.7 193.4 181.1 164.8 133.6 167.5 183.6 192.6 197.4 191.4 194.7 201.7 206 210 217.4 221.8 231.7 252.5 262.9 267.3 254.5 253.4 265.5 281.4 284 293.6 295.9 292.7 289.8 289.5 289 285.7 284.8 291.1 290.6 282.4 273.2 276.9 278.8 282.7 278.2 272.4 261 254.6 260 238.3 238.6 240.6 243.4 244.7 243.3 247 253.5 257.2 255.4 245.7 245 231.5 227.6 213.9 219.5 227.9 218.9 213.8 193.5 162.8 173.9 172.3 173 188.4 188.3 192.1 197.8 201.3 213.2 215.6 201.8 191.4 182.6 162.2 151.1 137.4 113.7 89.7 68.2 73 55.8 44.6 32.9 27.3 21.8 18.3 17.3 15.6 15.5 14.5 15.1 16.9 16.5 15.3 6.4 13.3 13.4 10.9 6.4 6.4 6.4 9.4 13.2 9 6.4 13.6 8.6 6.4 6.4 6.4 6.4 6.4 6.4 6.4 6.4 6.4 6.4 6.4 6.4 6.4 6.4 6.4 6.4 6.4 6.4 6.4 6.4 6.4 6.4 6.4 6.4 6.4 6.4 6.4 28.4 44.1 45.9 62.9 83.4 104.2 126.6 145.7 169.6 203.4 234.5 251.1 266 305.7 327 330.8 343.2 354.2 365.2 373.6 385.2 397.4 413.1 419.2 426.5 434.9 429.1 418.4 413 429.7
334.7 333.4 329.1 333.4 332.9 332.4 335.2 332.4 331.7 330.5 326.2 320.2 312.2 304.4 307.8 310.3 307.4 295.8 316.2 324.5 315.1 299.3 285.7 269.3 251.9 243.4 245.3 241.4 234.4 228 216.7 200.3 194.7 178 136.9 158.2 184 192.9 200.9 200.2 196.3 206.3 214.1 210 217.4 222.6 229.7 259.3 267.3 270.7 270.4 266 265.3 276.3 277.6 286.4 287.1 287.9 284.7 287.7 289.9 286.6 292 295.4 295.1 287.3 282.3 275.3 279 286.8 287.4 280.6 277.1 260.6 252 242.5 239.4 240.1 242.7 245 248.3 252.3 266.6 268.8 269.7 263 251.5 234.9 235.9 227.2 242.6 243.8 225.3 223.8 206.3 180.5 202.4 204.6 196.7 182.1 180.1 189.5 194.2 195.8 214.9 214.9 208.5 195.9 188.2 175.3 168 157.4 134.5 103.9 82.8 79.8 62.8 57 40.1 32.9 26.5 18.7 18.7 17.3 17 15 15.4 17 17.9 19 11.5 14.5 14.6 14.8 15.2 15.8 13.8 13.6 15.4 15.4 15.3 17.2 14.4 6.4 6.4 6.4 6.4 6.4 6.4 6.4 6.4 6.4 6.4 6.4 6.4 6.4 6.4 6.4 6.4 6.4 6.4 6.4 6.4 6.4 6.4 6.4 6.4 6.4 6.4 6.4 13.1 37.2 41.2 50.5 71.4 104.2 118.8 135.6 152.1 189 207.8 228.9 243.5 267.4 301.6 307.5 342.8 361.6 361.8 370.4 384.3 392.9 405.8 414 415.8 426.6 424.7 414.1 405.6 420
345 343.9 341.6 341.8 341.4 339.1 341.3 343.1 338.8 335.2 332.1 327.7 323.4 313.9 309.7 312.2 309.7 296.9 300.2 310.2 306.2 292.7 272.6 257.1 251.5 247.6 241.7 239.2 233.6 230.3 220.3 212.3 199.8 192.5 142.2 170 186.7 197.5 206.4 209.5 204 206.4 211.1 213.2 220.9 223.8 229.8 247.9 270.5 271.8 276.9 276.5 275.7 274.8 276.6 282.2 283.1 281.4 285.6 285.7 291.5 290.2 304.8 307.5 308.2 299 287.4 276.4 281.5 294.6 296.6 300.2 288 270.5 262.4 242.6 240.3 243.1 251.8 255.5 258.6 267.4 275.4 279.8 278.6 271.7 260.1 239.7 239 236.1 245.5 240.8 232 223.7 209.9 211.6 219.4 220.8 214.9 207.3 188.7 183.2 186.1 187.7 200.4 211.6 206.1 203.1 193.5 181.1 175.8 167.6 149.2 116.7 98.2 87.9 75.9 62.7 50.7 44.7 30.7 24.6 19.3 19.2 18 18 16.4 17.5 19.3 17.1 14.1 14.1 15.8 16.2 20.5 19.6 17.2 15.3 16 16.5 16.3 17.2 17 13.8 9.6 6.4 6.4 6.4 6.4 6.4 6.4 6.4 6.4 6.4 6.4 6.4 6.4 6.4 6.4 6.4 6.4 6.4 6.4 6.4 6.4 6.4 6.4 6.4 6.4 6.4 6.4 36.6 39 40.1 50.7 85.6 112.8 130.2 139.7 163.5 186.7 217.7 236.2 247 262.6 282.7 302.9 363.4 370.7 369.7 388.6 390.6 401.5 413.6 408.7 418.9 420 412.1 399.6 403.3
353.2 352.4 349.1 347.4 348.6 348.5 347.9 348.5 346.9 343.3 339.3 336.3 326.8 324 310.7 307.7 305.3 295.5 295.4 305.7 304.4 288.9 270.2 256.4 250.4 245.1 240.6 236.9 233.5 228.2 222.3 218.8 207 191.5 167.1 160.5 188 205.5 214.3 224.6 219.6 213.3 209.4 213.8 221.8 232.9 231.4 235.5 264.4 274.1 281.9 287.6 281.2 274.1 274.5 280.4 277.7 278.3 281.4 286.4 295 317.6 318.5 315.5 313.9 310.6 294.4 281.5 284 300.8 297 299.7 297.9 283 265.5 255.7 243 247.1 255.5 268.6 276.2 283.1 288.9 288.5 284.8 280.1 263.4 263.6 255.1 257.4 259.3 253.8 243.3 236.5 212.1 214.8 230 228.3 233.8 232.1 230.2 223 200 200.9 200.6 192.9 196.6 195.9 193.8 184.5 180.1 173.5 159.4 129.1 116.4 104.9 87 93.1 77.7 49.5 38.5 29.2 20.5 20.1 18.8 18.5 17.8 19.5 17.6 16.4 15.1 6.4 17.9 17.1 21.2 22.2 22.4 20.7 17 17.4 17.4 17.9 19.4 17.5 15.1 7 6.4 6.4 6.4 6.4 6.4 6.4 6.4 6.4 6.4 6.4 6.4 6.4 6.4 6.4 6.4 6.4 6.4 6.4 6.4 6.4 6.4 6.4 6.4 6.4 6.4 6.4 41.5 43.8 40.7 57.5 88.4 113.1 124.7 149.3 170.3 202.9 224.5 240.6 245.5 266.5 292.5 347.4 362.7 368.3 375.4 388.8 406 413 408.1 406.2 415.4 407.7 397.1 390
352.1 353.6 353.2 350.9 357.6 355.4 355.7 355.2 351.4 350.1 348.8 344.2 333.9 326.3 318.6 307.3 306 298.3 294.8 298.1 297 290.7 278.7 261 249.8 244.1 240.6 234.5 230.5 227.7 227.9 221.3 214 199.5 174.1 160.7 197.2 208 224.5 226.7 228 223.8 211.1 218.8 227.1 233.3 233.8 233.7 259.7 273.1 279.4 287.7 284.5 277.2 274 277.4 278 281.9 280.6 292.1 313 323.5 321.1 319.8 316.2 307.8 291.9 283.2 283.8 293.3 295.8 292.1 289.3 283.4 267 265.9 258.7 249 261.3 274.6 280.5 289.3 292.9 296 295.9 282.2 268.5 273.5 263.4 267.6 273.4 257.8 246.2 227.1 218.5 231 239.8 251.6 243 237.9 236.1 233.4 214.6 229.3 229.2 227.3 225.3 202.4 198.5 198.5 194.6 182.2 170.6 143.1 130.8 118.8 106.5 107.8 90.9 58.6 40.3 29.9 22.4 21 20.3 19.6 20.2 20.4 18.9 17.2 17.8 6.4 21 20.7 21.9 23.5 24.7 23.3 19.6 19.2 18.9 18.9 18.3 17.3 16.4 14.9 6.4 6.4 6.4 6.4 6.4 6.4 6.4 6.4 6.4 6.4 6.4 6.4 6.4 6.4 6.4 6.4 6.4 6.4 6.4 6.4 6.4 6.4 6.4 6.4 6.4 6.4 8.9 40.8 48.1 47.5 68.5 90 105.6 129.4 161.6 187.8 212.4 224.1 233.2 253.1 288.1 343.2 371.7 368.6 376.4 392.8 392.9 395.9 398.9 396.4 407.8 401.5 394.6 385.7
356.4 354.4 356.9 353.4 355.5 358.5 359.1 358.4 357 353.1 353.5 352.2 343.9 332.4 322.7 313.6 305.4 299.3 296.9 299.3 293.5 288.3 272.3 261.9 254.5 245 237.8 235.3 230.1 230.7 227.9 220.5 215.4 208.6 174.8 164.5 205.6 211.8 219.7 227 228.9 222.8 219.5 222 230.3 233.4 237.1 235.6 252.8 270.6 281.9 289.8 287.2 285.2 277.2 280.5 280.2 282.6 284 298.3 321 324.1 325.7 323.3 318.6 307 300.4 297.4 291.5 298.5 298.6 293.7 294.5 290 271.6 271 267.3 261.9 264.4 274 285.3 296.4 301.1 296.3 296.6 283.9 276.4 275.3 267.8 266.3 276.4 268.4 257 229.5 229.1 242.1 256.5 253.6 252.6 255.9 248.9 243.5 236 239.7 231.1 236.2 239.9 233.5 221.8 203.5 196.1 193.3 182.4 163.8 149.3 128.5 117.2 109.4 90.3 62.2 43.2 31.2 24.1 21 21.2 21.8 22 21.6 20.6 18.4 19.3 15.4 18.8 22 22.4 24.7 28.1 26.9 20.5 20.3 20.1 20 19.4 17.6 16.6 16 12.3 11.4 10.2 6.4 6.4 6.4 6.4 6.4 6.4 6.4 6.4 6.4 6.4 6.4 6.4 6.4 6.4 6.4 6.4 6.4 6.4 6.4 6.4 6.4 6.4 6.4 11 14.8 39.3 43.2 49.2 76.8 98.4 120.1 144.1 178.1 192.7 202.3 222 233.8 261 327.4 357.2 357.3 374.7 382.8 387.6 387.9 390.3 388.3 393.2 391.9 387.4 382.9
357.9 361.3 362.8 360.6 359.1 362.7 365.5 364.5 361.9 359.6 356.4 352.8 346.8 338.2 326.9 318.1 311 298.9 298.5 299.9 296 288.2 273.8 261.1 249.4 243.4 238.3 234.9 232.7 229.6 226.5 224.1 221.4 211.2 196.8 165.3 203.6 212.3 221.7 222.5 222.9 221.9 225.5 225.5 230.2 235.5 238.3 238.1 245.1 268.7 284.2 289.1 292.6 286.8 282.6 278.4 282.5 283.2 287.1 305.9 321.1 328.1 327.8 322.9 312 307.6 301.7 303.8 300.6 305.8 304.7 301.4 299.4 293.8 276.8 286.3 281.5 274.6 277.9 278 284.5 297.6 302.7 300 294.9 278.9 278.2 281.4 273.8 276.7 278.9 269.5 257.2 232.7 246.5 260.5 261.6 262.7 264.3 261.1 260.5 246.6 239.1 250.9 236.9 245 242.2 236.9 229.6 214.9 205.1 196.5 180.2 165.7 157.3 135.1 119.7 107 89.7 70 52.1 41.6 28.2 22.4 22.6 21.8 21.9 21 19.1 22.7 23.9 20.3 21.4 23.1 22.7 24.5 27.1 28.6 21.8 21.5 21.3 20.8 19.8 19 18.1 16.8 16.4 13.1 13.3 12.5 6.4 6.4 6.4 6.4 6.4 6.4 6.4 6.4 6.4 6.4 6.4 6.4 6.4 6.4 6.4 6.4 6.4 6.4 6.4 6.4 6.4 22.7 18.6 20.3 23.5 36.4 49.1 83 112.4 139.9 137.7 158.3 170.7 180.8 207.7 223.2 245 269.1 313.4 340.8 358.8 364.8 374.6 377.7 376.9 375.4 377.1 378 376.7 379.3
362.8 364.2 366.7 363.9 362.6 364.8 365 368 366 361.3 360.2 355.6 348.9 341.3 326.2 323.2 312 304.9 296.8 296.2 294.4 286.2 268.4 253.1 248 241.3 237.9 237.4 236.8 233.3 228.5 226.5 222.3 216.7 199.9 165.3 199.5 213.5 216.5 219 219.9 222.2 226.3 225.6 229.1 234.5 240.5 241.4 244.2 254.3 272.3 284.7 292.8 293.9 288.7 282.5 286.3 286.3 287.2 301.5 321.5 330.5 334.4 330.8 316 310.5 311.5 303.1 308.5 312.7 312 306.6 299.9 289 296.4 298.1 293.3 292 300.2 291.9 284.3 294.9 305.3 302.2 296.5 287.2 278.1 278 284.2 286.8 281.8 268.9 254.8 247 272.1 273.5 271.9 269.1 268.4 267.9 258 247 248.5 258.2 248.7 259 251.9 243 234 216.8 209.5 204.5 189.5 172.3 155.5 131.4 106.5 96.1 84.9 67.6 60 56.5 47.7 28 24.6 23.3 23.5 20.8 20.6 23.6 6.4 22.5 23.8 30.9 31.2 29 31.3 29.5 27.8 22 22.4 21.5 20.8 20.4 19.7 18.6 16.9 14.1 14.6 14 12.4 6.4 6.4 6.4 6.4 6.4 6.4 6.4 6.4 6.4 6.4 6.4 6.4 6.4 6.4 6.4 6.4 6.4 6.4 6.4 6.4 6.4 13.4 22.5 24.2 37.6 50.9 66.2 108.5 120.8 155.3 160.1 162.8 171.2 191.9 215.8 233.1 249.5 283 326.8 348.3 355.1 364.7 364.2 360.2 356.5 359.3 354.2 362.8 365.5
370.5 368.2 368.8 366.7 364.9 365 365.9 367 368.9 362.6 361.3 358 355.5 343.1 329.9 321 311.9 307.1 300.4 294.2 294.9 284.5 263.1 252.3 247.7 239.8 237.9 237.3 238.6 235.2 234.4 227.6 222 218.4 202.1 170.5 199.4 210.5 217.8 217.7 217.6 219.1 224 225.4 227.9 233.2 238.8 239.3 242.7 247.6 262.7 275.9 292.3 298.2 287.3 289.1 289.2 287 293.7 301.7 324.5 336.7 337.4 332.3 328 319 317.3 306.3 314.8 317.4 313 309.5 309 313.2 316.9 322.5 313.7 313.8 312.4 306.7 297.4 305.8 306.3 308.9 299 295.2 286 287.2 286.3 288.9 279.5 279.6 258.5 260 283.2 283.4 281.2 281.3 269.7 269.7 255.5 252.6 258.1 270 258.2 264.6 256.6 248.5 235.8 216.5 212.1 205.1 194.1 176.9 164.2 137.6 133.1 113.1 98.4 78.7 59.3 50.9 42.4 29 25.8 25.8 24.7 23.8 23.7 22.7 20.8 26.5 27.3 35.3 32.6 28.5 28.5 27.5 26.9 26 25.2 23.6 22.1 21.4 20.2 18 15 15.3 15.4 15.1 14.5 6.6 6.4 6.4 6.4 6.4 6.4 6.4 6.4 6.4 6.4 6.4 6.4 6.4 6.4 6.4 6.4 6.4 6.4 6.4 6.4 6.4 6.4 15.4 33.7 33.6 45.5 57.2 78.3 101.7 139.7 164.2 169.1 177.5 185.3 203.9 225.4 234.2 274.2 301.6 323.6 349.5 345.5 353.8 349.2 342.7 340.5 341.4 340.7 349.5
381.5 381.1 377.7 372.9 366.5 365.4 366.5 368.9 369.5 363.4 362.3 358.9 350.3 339.8 328.4 318.7 310.9 311.7 305.8 291.2 290.3 284.1 266.1 253 248.2 241.5 239.2 239.3 240.7 236.1 233.2 230.5 223.2 214.9 206.1 176.7 198.9 213.1 218.7 221.3 220.7 221 224.1 226.7 227.1 233.5 237.6 239.3 246 248.8 266.7 276 286 295.3 283.8 287.5 285 286.5 291.5 303.4 325.4 338.3 337.9 336.4 336.9 328.5 322.8 317.5 320.9 319.2 314.7 321 325 328.4 331.5 330.2 320.1 320.4 326.7 321.7 319.3 319.2 314.3 310.9 301.5 298.1 294.6 287.8 285.1 284.6 277.4 281 261.5 266 290.4 293.4 287.6 287.1 280.7 270.1 257.5 255.8 273.8 277.8 269.8 263.6 258.1 254.8 238.1 220.4 222.2 208.1 198 179.7 163.7 146.1 139.4 131.4 111.3 95.4 70.6 61.6 44.8 35.2 30.5 26.3 26.6 24 23.4 6.4 22.2 24.3 28.9 37.4 30 27.8 27.9 27.2 26.6 26.4 24.9 24.3 23.7 22.8 21.2 15.5 17.4 16.1 15.7 14.7 16.9 15.9 6.4 6.4 6.4 6.4 6.4 6.4 6.4 6.4 6.4 6.4 6.4 6.4 6.4 6.4 6.4 6.4 6.4 6.4 6.4 6.4 6.4 6.4 28.8 33.7 25.9 34.7 62.3 94.7 103.1 148.6 147.6 155.7 170 186.1 204.4 216.6 249.6 293.7 302.4 330.5 343.4 339.5 346.4 330.8 324.5 323.7 327.7 334.3
388 388.6 379.1 374.9 369.4 368.2 369.2 373.9 370 365.4 362.5 359.8 349.1 339.6 325.6 313.1 312.3 312.4 307.8 290.3 285.5 283.7 270.9 259.3 252.9 242.5 240.9 244.6 242.8 238.3 233.9 231.8 225 218.8 209.3 193.7 200.2 214.1 223.1 226.6 226.1 225.9 232.1 234.2 233.7 233.2 235.7 241.4 248.4 253.6 273.4 281.8 287 278.6 279.2 281.9 281.4 282.4 289.5 301.6 325.1 337.1 336.2 333 335.9 327.6 322.8 327.7 329.2 327.5 324.6 331.5 336.6 338.2 336.2 336.1 326.7 328.2 330.7 328.6 331.2 329.5 327.2 325.5 319 301.9 295.7 285.4 284.4 282.2 279.2 280.1 266 273.6 293.9 293.7 295.9 292.7 284.4 275 265.5 267.3 279.4 278.2 276.8 272.1 267.2 254.5 243.9 229.7 228.3 214.3 199.6 187.5 170.7 149 148.3 142.1 125.8 101 81.1 69.3 54.3 45.3 36.2 30 25.2 25.1 25 25.2 6.4 23.3 28.3 28.4 25.7 27.7 28.5 27.8 27.9 26.8 26.6 25.2 24.7 24.3 21.7 18.2 16.6 17 17 15 17.8 17.7 16.7 11.9 6.4 6.4 6.4 6.4 6.4 6.4 6.4 6.4 6.4 6.4 6.4 6.4 6.4 6.4 6.4 6.4 6.4 6.4 6.4 6.4 6.4 6.4 18.5 22.3 36.7 51.6 76 92.8 128 131.7 138 157.6 176.2 196.2 226.7 288 300 303 330.5 336 333.9 322.8 305.9 305 312.6 319.4
396.3 389.8 385.1 380.1 383.2 382.6 373.6 373 372.6 369.1 364.7 358.4 349.4 338.7 324.6 317.9 311.7 311 305.9 297.9 288.5 280.9 272.4 262.1 257.7 252.1 245.5 243.1 240.2 238.5 236.4 232.1 227.3 215.2 210.9 199.2 197.3 212.4 222.6 233.2 230.6 227.7 230.9 235.1 233 235.1 237 239 246.2 256.1 261.1 273.9 279.4 278.2 284.1 293.6 296.7 282.7 291.3 307.4 322.2 334.8 328.5 324.6 326.2 323.7 319.1 330 334.5 334 335 336.8 346.5 344.9 342.1 340.8 337.5 333.9 329.3 332.2 337 342.6 339.5 336.1 331 318.8 301.3 291.9 280.6 280.2 275.1 273.8 266.3 283.9 286.8 290.6 290.1 292.4 289.3 280.3 278 293.1 290.3 284.6 278.6 276.2 270.8 265.6 251.7 249.6 239.1 226.5 204.7 193.7 180 159.8 152.4 146.4 130.8 115.6 93.7 81 62.9 53.1 42.5 31.4 27.4 25.7 25.6 25.8 26.1 27 28 28.6 26.6 26.6 29 29.4 28.7 28.7 27.5 27.5 26.8 25.1 19.5 19.1 17.8 20.7 21 14.5 19.3 19 18.2 15.7 6.6 6.4 6.4 6.4 6.4 6.4 6.4 6.4 6.4 6.4 6.4 6.4 6.4 6.4 6.4 6.4 6.4 6.4 7 6.4 6.4 6.4 8.8 13 17.1 36.9 48.3 65 77.9 104.1 115.7 127.8 156.6 179.6 209.7 249.8 290.1 303.3 313.1 324.6 324.2 315.7 299.8 291.2 295.3 304.8
405.7 396.3 390.8 385.8 385.2 384.9 379.7 378.1 374.9 370.4 361.8 357.2 348 340.6 330.1 322.1 313 304.6 300.3 298.6 290.3 280.6 273.3 265.2 258.8 258.7 250 244.8 241.3 239.2 237 234.8 226.1 217.7 212 199.8 180.1 211.5 227.7 231.9 234.2 230.3 231 233.2 238.5 237.8 238.5 243.1 248.8 257 263 269.1 272.3 275.4 293.5 301.7 303.2 291.1 300 310.9 328.6 336.4 324.8 318.5 318 322.6 329.2 338.2 338.6 341.3 340.4 340.3 347.5 346.8 345.9 346.1 335.2 328.7 343.3 350.3 351 347.4 343.1 336.5 333.4 325.1 312.4 296.2 288.4 276.6 280.2 270 282.8 279.3 283.7 283.7 283.2 284 285.8 285.2 289.9 299.4 295.4 290.5 290.8 286.3 278.8 272.9 263.7 262.5 254.8 238.7 219.5 205.4 185.4 178.2 158.1 150.7 136.2 120.3 106.9 89.1 70.5 55.7 45.7 36.4 29.3 28 26.8 27.9 30.5 30.2 29.7 29.4 28.1 28.1 29.9 30.8 30.2 29.7 29.2 29 27.8 21 20 19 21.5 21.7 22.3 22 21.2 19.2 17.8 19 14.5 6.4 6.4 6.4 6.4 6.4 6.4 6.4 6.4 6.4 6.4 6.4 6.4 6.4 6.4 6.4 6.4 6.4 6.4 19.2 12.7 12.6 27.8 26.7 12.7 18.6 41.8 49 67 77.1 104.7 112.9 154.9 164.2 191.8 213.6 258 283.1 297.2 313.3 319.6 303.6 298.3 282.6 281.5 286
408.2 404.1 401.7 400.9 389.9 391.1 387.4 382.2 374.6 367.6 360.1 360.5 342.1 335.2 329.4 321.1 312.5 304.2 298.1 297.5 291.5 284.1 276.2 269.6 264.8 258.8 250.4 245.4 244 241.9 239.1 234.1 229.1 223 215.6 206.8 183 211.4 232 234.5 232.6 234 232.2 232.8 236.3 240.2 246.2 250.8 256.2 263.2 263.4 263.7 270.9 279 298 301.3 309.4 294.6 303.7 311.8 330.2 335.6 321.4 317.5 320.1 332.5 338 339.1 342.7 346.6 339.3 344.3 344.6 346.1 348.9 342 342.2 354.3 357.9 349.8 349.6 348.7 343.8 338.2 335.6 333.9 317.5 300.1 292.4 282.8 272.7 278.4 282.4 280.7 276.3 283.4 276.3 281.5 287.5 286.4 300.8 307.2 302.7 299.5 296.2 290.1 284.5 274.8 263.9 262.4 260 251.2 236.9 208.8 197.8 192.8 178.6 164.2 145.7 126.9 111.9 90.8 76.6 64.4 50.9 40.1 31.6 29.9 29.8 30.8 32.7 33.1 30.6 28.9 29.2 27.7 30.5 30.6 32 31.1 31.7 30.2 28.4 20.9 21.7 21.8 23.3 22.7 24.1 24.1 24 20.4 19.1 23.9 15.4 9.1 6.4 6.4 6.4 6.4 6.4 6.4 6.4 6.4 6.4 6.4 6.4 6.4 6.4 6.4 6.4 6.4 6.4 6.4 6.4 6.4 6.4 19 22.9 17.1 37.5 43.4 59 61.8 71.3 92.2 121.1 150.5 163.1 190.1 222.5 250.7 285.5 311.3 311.8 307.7 290.2 276 271.3 274.3
412.6 406.6 406.2 402 396.9 398.1 396.3 387.7 377.6 366.7 364.3 352 339.8 331.2 326.9 314.5 313.9 306.3 299.2 296.9 291.1 285.1 281.1 272.7 267.1 260.5 254.4 247.5 244 242.8 238.5 232.7 228.8 224.8 214.3 211.1 198.3 222.1 232.9 236.6 233.5 233.8 234 233.6 234.8 241.1 245.6 252.6 260.4 265.4 266 268.9 279.8 286.9 298.3 311.9 315.9 303 305.1 307.4 311.2 313.7 310 320.9 333.5 337.3 343.4 345.4 347.9 353.7 340 344.4 344.6 350.3 349.9 351.5 357.5 364.4 358.6 353.7 353.2 351.3 343.4 342.9 341.6 337 321.7 310.4 298.9 291.6 278.9 274.8 275.7 277.9 276.6 276.3 276.3 281.2 285.9 292.3 309.8 312.1 309.7 304.9 298.6 292.9 290 280.9 261.5 263.1 259.4 254 234.3 212.6 200.9 203.7 185 165.9 146.5 134.8 118.4 95.1 77.4 68.4 54.5 45.2 34.6 32.9 33 32.4 35 34.4 35.6 29.6 28.9 29.6 29.7 30.7 33 31.3 31.3 30.3 24.2 22.1 26 25.1 25.2 25 25.1 24.8 25.2 23.6 23.8 25.5 22 15.8 6.4 6.4 6.4 6.4 6.4 6.4 6.4 6.4 6.4 6.4 6.4 6.4 6.4 6.4 6.4 6.4 6.4 6.4 6.4 6.4 6.4 17.7 21.1 22.6 28.2 47.2 57.2 57.9 60.2 73.7 104.5 121.8 138.1 164 199.4 232.7 257.2 280.8 312.4 311.1 289.5 273.8 262.2 260
412.7 409 408 406.6 402.4 399.5 395.8 386.6 376.5 363.9 358.1 348.9 337.7 331.3 325.6 318.9 309 303.3 298.1 293.7 288.1 282.6 278.8 273.7 267.6 264.5 256.1 251.3 248.5 243.7 242 234.1 229.6 225.7 219.9 215.1 190.6 228.4 232.9 234.7 235.9 234.7 235.9 237.2 241.4 244.7 247.4 257.7 265.5 269 271.8 282.1 294.7 297.8 303.1 311.1 319.5 308.8 299.1 301.7 306.9 305.9 309.1 328.7 334.9 352.7 359 362.6 354.6 353.6 341.7 346.2 346 355 359.9 358.7 368.2 369.2 363 354.1 352.8 352.1 352.6 351.8 348.6 344.4 327.1 314.6 307.5 292.9 291.4 285.5 274.1 275.8 280.4 281.1 287.1 290.9 281.6 303.7 316.6 313.4 312 305.7 301 297.3 293.4 280.6 270 263.6 260.3 253.6 232.5 220.1 209.8 208.2 196.9 173.8 150.6 131.1 114.3 98.7 77.5 72.8 60.5 48.7 41.1 37.5 37.9 33.1 33.5 34.2 35.2 31.4 30.5 29.9 30.3 32.9 33.1 31.5 30.3 29.8 23.3 25.6 27.5 26.9 26.4 26.5 26.9 26.4 25.4 32.3 35.7 24.3 20 16.7 16.1 6.4 6.4 6.4 6.4 6.4 6.4 6.4 6.4 6.4 6.4 6.4 6.4 6.4 6.4 6.4 6.4 6.4 6.4 6.4 6.4 6.4 6.4 6.4 26.1 38.3 54.9 55.3 53.9 72.1 101.7 116 131.4 143.8 173.9 212 233.3 254.2 292.6 306.3 301 270.6 252.3 251.9
432.7 426.2 412.4 411.3 407.3 400.7 398.8 384.5 374.2 366.4 354.6 353.6 345.9 335.4 323.1 318.2 310 301.4 295.6 291.4 289.1 282.8 278.2 273.6 267.2 262.6 255.3 251.9 250.2 246.9 240.1 234.9 236.3 230.2 225.3 221.7 195 232.4 238.3 238.6 239.7 240.3 240.5 241.6 245 246.2 251.6 260.2 264.5 274.2 282.3 295.9 305.5 312.2 316.7 311.7 313.8 307.7 304 299.2 305.5 320.8 315.3 330.9 338.2 352.3 359.4 361.9 355.4 357.5 352.7 350.6 350.9 363.5 365.6 365.7 372.3 370.9 367.5 360.7 359.7 357.1 355.6 353.7 353.6 351.9 334.8 314 308.7 306.3 303.1 295.2 279.8 274.5 281.4 284.1 289.7 289.6 284.5 299 311 315.7 313.7 311.9 308.4 298.5 293.1 284.2 274.1 267.6 261.8 247.1 229.1 217.1 217.7 205.9 196.5 178.4 153 127.4 113.4 100.3 81.8 75.4 63.2 53.2 44.8 44.3 42.2 33.4 33.9 35.5 34.5 30.6 29.7 31.5 33.8 33.5 36 31.6 30.3 28.4 23.1 28.1 30.8 29.8 28.9 29.2 28.7 27.2 30.5 34.3 34.9 32.1 19.9 17.4 21.9 16 6.4 6.4 6.4 6.4 6.4 6.4 6.4 6.4 6.4 6.4 6.4 6.4 6.4 6.4 6.4 6.4 6.4 6.4 6.4 6.4 6.4 6.4 10.5 31.8 40.4 50 53.6 53 79.5 107.5 132.3 140.4 163 193.2 214.4 235.1 257.5 284.7 292.1 272.3 249.6 240
444.6 438.9 425.8 414.5 407.2 404.6 398.4 385.5 373.7 375.3 367.2 351.2 346.4 336.2 326.2 320.2 307.9 301.6 293.9 288.9 286.3 280.8 277.1 272.5 267.2 259.6 254.7 252.9 250.1 246.5 240.9 240.6 234.4 232.2 230.6 225.2 199.4 229.9 236.5 238.4 242.4 247.4 245.8 247.9 251.1 248.8 252.9 260.1 270.8 281.3 291.9 308.3 312.4 321.4 327.2 327.9 331.6 330.4 325.9 309.7 330.9 333.1 327 339 345.8 355.8 360.6 365.5 355.8 361.8 362.6 355.1 358 374.8 370.9 369 374.1 373.1 370 366.4 367.1 363.3 357.4 356.8 357.7 353.6 341.7 322.8 310.8 313.1 310.9 304.5 293.8 290.4 278.6 277 280.6 286.3 286.5 291.4 310 314.8 320.1 315.1 309.7 300.3 291.2 280.3 274.1 269.2 262 246.8 231.8 216.6 224.8 211 193.9 176.4 153.4 127 116.5 98.8 83.6 74.8 63.9 58.8 49.5 46.4 43.9 38.2 38 38.2 32.2 31.6 31.9 32.1 32.4 32.1 31.1 30.4 28.7 27.3 24.9 25.8 28 29.3 30.6 31.2 30.6 28.8 32.1 37.7 39.3 33.4 26.8 23.9 23.6 22.9 6.4 6.4 6.4 6.4 6.4 6.4 6.4 6.4 6.4 6.4 6.4 6.4 6.4 6.4 6.4 6.4 6.4 6.4 6.4 6.4 6.4 6.4 6.4 19 21 32.9 38.7 49.4 57.8 87.1 118.3 158.9 158.2 180 200.4 213.8 235.1 278 277 274.2 246.8 226.9
458.3 450.3 430.6 416.5 410.9 403.4 391.9 382.6 379.8 375.1 366.5 356.9 344 334.8 327.3 319.8 312 302.2 293.5 287.5 285.4 280.6 276.1 270.5 265.9 258 253.5 252.5 250.6 249.4 245.6 239.5 236.1 234.2 232.2 228.6 207.5 233.6 238.7 239.7 244.9 249.8 251 249 252.7 254.5 257.8 269.1 281.1 296.3 303.4 312.2 320 336.6 339.6 338.8 342.6 346.9 341.9 325.1 336.2 334.2 333.8 332.7 345 359 363.4 360.8 358.1 369.4 367 365.1 363.3 378.2 376.7 372.1 379.8 377.2 372.6 369.8 368.5 366.9 362.9 360.1 358.9 358.2 344.6 329.9 319.6 327.6 324 320.7 316.9 307.9 296.8 286.5 280.2 285.3 289.7 287.5 292 305.1 305.1 314.1 310.4 303 290.1 281.1 276.6 271 266.2 246.9 234.2 226.5 224.7 209.9 197.3 170.8 151.8 128.5 114.3 98.8 84.8 75.2 65.5 59.1 55.3 49.1 47.4 43.1 40.6 37.3 33.2 31.6 33.1 33.3 32.5 31.7 31.1 29.9 29 28.1 26.9 25.2 26.4 29.1 31.8 32.5 34 29.7 36.2 40.2 42.4 35.8 36.3 29 31.3 28.2 20.2 12 6.4 6.4 6.4 6.4 6.4 6.4 6.4 6.4 6.4 6.4 6.4 6.4 6.4 6.4 6.4 6.4 6.4 6.4 6.4 6.4 6.4 16.4 22.5 35.1 41.3 39.9 50.9 61.8 93.3 153.1 169.4 171.4 189.3 199.6 214.8 230.6 244.9 264.9 247.4 224.1
469.2 459.9 447 420.3 412.5 401.2 388.1 388.6 382 374.4 369.4 359.6 347.1 339.4 331.6 321.7 316.6 304.2 294 287.1 280.9 278.7 275.2 270.5 263.2 256.7 254.7 252.3 249.2 249.5 244.3 238.9 237 234.8 231.2 227.9 221.9 237.7 240.7 241.2 246.8 249.9 254.1 251.5 254.4 259.2 273.2 284.4 294.7 298.7 306 317.5 332.7 356.1 358.6 364.9 359.8 360.3 351.3 334.3 334.6 338 340.9 350.8 352.6 356.7 362.5 362.5 363.6 369.7 370.1 364.5 372.7 376.6 376.8 373.8 385.6 384 383.1 381.7 373.2 371.2 366.7 366.2 366.4 359.1 350.8 337.1 326.9 334.7 332.4 331.6 326 312 307.3 304.1 290.3 289.3 291.8 294.2 294.5 300.5 302.2 300.8 306.2 300.1 286.5 283.1 278.8 274.9 267.3 248 230.8 229.8 225 210.3 195.8 170.5 148.9 129.3 112.1 97.1 84.4 74.9 67.7 60.8 56.9 51.6 49.1 43.4 38.6 35.3 32.5 34.6 34.7 33.3 33 31.8 31 30.4 29.6 28.5 27 26.4 29 32.2 32.6 33.8 33.5 31.6 36.1 39.2 39 39.1 37.6 38.6 39.4 37.9 27.3 19.2 6.4 6.4 6.4 6.4 6.4 6.4 6.4 6.4 6.4 6.4 6.4 6.4 6.4 6.4 6.4 6.4 6.4 6.4 6.4 6.4 6.4 6.4 12.2 22.7 43.1 45.9 48 49.4 65.7 95.2 147.3 146.3 171.6 185.3 208.6 208.3 221.7 250.1 238.6 212.9
474.5 467.7 449 425.1 409.8 398 395.2 392.3 379.4 374.1 371.1 360.6 349.9 341.9 331.9 325.9 317.2 306.2 297.1 286.3 280.8 276 273.9 266.8 262.5 260.3 256.1 255.6 254.4 249.4 245.8 240.2 238.2 237.3 233.3 234.7 233.9 239 244.9 244.9 254.3 253.8 258.1 257.8 260 266 280.3 299.1 304.4 310.9 316 328 346.7 372.9 378.2 379.6 376.5 371.8 356.6 352.6 346.1 348.9 353.1 358.3 364.5 371 372.2 370.1 382.5 385.2 374.1 367.9 378.9 380.6 380.2 377.1 388.3 399 400.4 395.2 388.2 381.9 375 372.9 374.2 367.5 359.5 339.9 333.1 341.2 337.4 335.7 329.3 316.8 311.3 307.8 298.8 295.1 291.6 290.1 296.2 297.9 307.3 305.2 302.5 297 287.2 279.1 277.7 272.7 269.8 248.5 233.3 226.3 219.9 210.7 188.5 166.1 146.2 127.4 107.1 94.6 82.7 77.4 68.4 62.8 58.7 54 48.6 42.2 36.7 34.7 35.5 35 34 33 32.6 31.7 31.1 30.5 29.4 28.5 27.5 31.5 32.2 33.5 33.1 33.6 34.1 34.4 38 39.5 37.4 41.5 42.7 44.1 42.6 42.8 34.7 30.1 20.6 8.4 6.4 6.4 6.4 6.4 6.4 6.4 6.4 6.4 6.4 6.4 6.4 6.4 6.4 6.4 6.4 6.4 6.4 6.4 6.4 6.4 6.4 16.2 42.5 45.5 62.3 61.9 59.8 65.1 90.2 124 140.5 176.7 196.2 203 194.1 223.3 230.8 206.4
475.7 466.7 456.1 429.2 406 407.1 408.3 395.3 381.6 378.2 377.2 366.6 353.2 346.4 335.2 328.7 319.5 306.6 297.2 288.7 282.6 277.5 272.4 267.6 265.9 258.2 253.9 252.1 249.2 249.3 245.5 245.4 241.8 238.7 239.6 238.8 237.4 238.5 247.9 249.9 253.1 256.1 260.4 261.4 263.6 275.7 292.4 299.6 307 313.9 324 337.9 353.5 382.5 394.8 395.2 392.5 382 363.5 369.2 365.7 368 374 386.3 388.5 391.6 389.4 383.2 385.6 386.4 384.1 387.3 386 394.3 398.5 386.5 403.4 407.5 409.2 409.8 405.6 398.3 388.7 382 378.8 371.2 361.6 338.8 343.1 348.6 345.6 339.5 329.6 322.3 318.1 309.5 300 298.1 292.9 291.1 290.3 294.5 295.3 299.6 298.7 297 294.1 284.8 275.4 272.9 263.6 239.8 225 218.1 219.8 209.7 180.9 161.6 142.6 121.2 106.6 94.1 83.2 76.2 70.4 64.5 60.2 53.8 46.8 41.1 36 38 36.3 36 35.3 33.8 32.6 31.7 31.3 30.3 28.9 28.2 35 34.4 34.3 37.1 43.8 40.9 37.9 38.1 41.5 39.6 40.3 43.6 47.6 49.1 45.9 41.3 43.5 37.8 30.1 17.4 10.4 6.4 6.4 6.4 6.4 6.4 6.4 6.4 6.4 6.4 6.4 6.4 6.4 6.4 6.4 6.4 6.4 6.4 6.4 6.4 6.4 26.7 33.2 46 61.1 74.8 80.5 75.5 69.6 90.1 120.9 145.8 171.1 182.6 183.4 179.6 217.4 205.9
475.5 459.8 451.6 430.8 413 408.2 409.1 401.8 392.5 383.1 377.8 374.8 364.2 353.2 339.4 330.8 321.3 308.7 297.1 288.7 284.2 277.2 273.6 268.4 263.7 256.2 252.1 251.8 249.4 248.5 247.9 245.5 242.4 243.7 244.1 245.5 239.1 242.7 250.5 251.9 253.5 263.1 263.2 265 275.4 285.8 296 303.2 312 317.9 329.3 340.4 368.1 386 397.5 395.1 394.7 384.2 370.1 373.8 383.7 400.2 402.5 400.1 403.1 403.9 399.9 392.2 389.3 394.2 398.2 390.9 395.5 408.7 409.9 411.2 419.6 418.9 418.8 415.4 414.7 409.8 399.4 392.5 389.8 381.7 364.9 344 354.2 354 351.6 343.1 332.1 334.2 321.7 310.7 303.2 305.6 312 302.3 290.8 290.3 292.1 295 294.9 298 291.6 282.6 275.6 264.4 257.1 237 219.7 209.1 204.7 190.6 174.1 153.3 133.2 118.4 103 92.1 84.8 81.1 72.8 65.5 62.3 51.4 43.5 36.6 39.7 39.2 37.5 36.1 35 34 32.9 34.1 33 32.1 30 29.5 31.3 34.9 39.2 53.4 57.4 56.4 51 46.2 43.9 42.9 43.9 48.4 53.6 55.2 52.4 43.8 48.8 45.9 46.2 34.1 18.2 6.4 6.4 6.4 6.4 6.4 6.4 6.4 6.4 6.4 6.4 6.4 6.4 6.4 6.4 6.4 6.4 6.4 6.4 6.4 6.4 6.4 6.4 41.8 57.8 66.5 71.5 80.6 90.8 84 101.9 117.5 142 161.6 177.1 161.5 159.2 183.6
475 463.6 449.5 428.2 414.1 419.2 407.2 407.1 395.9 387.9 382.5 377.2 368.9 358.1 342.9 333.6 320.7 310.8 298.7 289.4 284.9 278.4 269.3 266.4 260.3 256.3 255 252.9 251 251.7 253.1 248.3 244 244.4 246.2 244.7 244.2 246.9 262.4 262.1 262.7 265.9 266.5 273.7 285.5 293.4 298.9 304.6 310.6 322.7 333.1 346 373.1 390 402.1 401.9 394.7 393.2 380.7 394 413 424.3 424.1 417.2 414.4 415.1 406.1 403.8 411.4 404.7 402.6 408.7 408.5 418.4 418 424.9 431.8 435.2 431.4 429 427.3 422.1 415.7 408.3 400.2 391.6 372 351.3 361.4 363.3 356 344.8 339.2 335.1 326.2 316.7 312.4 317.5 320 318.5 309.3 295 293.1 290.2 293.1 294.4 296.7 285.5 278.4 266.7 254.8 230.8 215.7 207.2 201.2 189.4 168 150.4 133.3 120.6 102.1 92.4 86.4 73.6 69.1 64.2 51.5 45.3 39.5 40.9 40.3 40.2 39.2 38 36.6 35.9 35.4 34.8 33.7 32.2 31.5 30.8 33.4 37.9 49.9 63 69.9 69.6 59.2 51.6 50.1 51.2 54.6 61.9 62.3 62.1 53.7 49.6 50.7 59.9 61.4 45.8 33.7 20.9 6.4 6.4 6.4 6.4 6.4 6.4 6.4 6.4 6.4 6.4 6.4 6.4 6.4 6.4 6.4 6.4 6.4 6.4 6.4 6.4 6.4 6.4 42.8 64.4 68.4 69.6 76.5 95.6 88.3 104.2 109.1 135.5 154.2 153.6 144.4 141.6
476.3 465.1 445.8 423.2 418.2 421.9 412.7 408.4 402.9 394.8 390.1 383.3 377.7 363.9 349 334.6 322.6 311.8 302.3 291.9 282.9 274.5 269.9 268.3 266.4 262 259.7 256.1 254.3 254.5 252.7 251.8 248.4 243.1 249.4 245.5 247.9 252.6 262.7 262.5 264.5 266.8 271.2 284 287.1 296.2 300 305.6 311.9 327 333.6 349.5 378.7 395.8 411.7 408 404 402.8 395.7 411.3 425.3 440.5 441.7 438.7 429.8 419.7 408.5 418.3 422.3 415.4 411 411.4 416.4 422.8 419.7 425.9 437.7 441.9 444.5 438.8 430.4 427.6 426.5 423.7 411 402.1 374 358.6 365.8 364.3 355.9 349.4 342.2 335.4 334.1 322.2 321.3 324.5 324.9 326.3 320.2 313.3 298.2 291.4 291.6 293.6 294.8 288.6 284.8 267.1 253.7 233.6 220.3 205.2 193.1 178.3 164.4 148.8 130.9 114.1 101.1 92.5 77.8 69.5 64.2 56.6 48.7 42.9 43.4 42.4 42.4 41.3 39.6 37.8 38 37.6 36.6 34.9 33.8 33.3 32.3 33.1 38.5 48.3 60.3 70.2 82.1 78.5 71.7 61.2 61.7 65.9 69.7 74.1 70.5 73.5 69.7 58.8 56.6 60.7 64.3 57.7 44.6 30.7 18.3 6.4 6.4 6.4 6.4 6.4 6.4 6.4 6.4 6.4 6.4 6.4 6.4 6.4 6.4 6.4 6.4 6.4 6.4 6.4 6.4 6.4 6.4 27.8 52.3 55.8 66.3 69.3 86.5 90.6 89.9 101.4 127.8 135.7 134.3 140.1
483.6 463.9 447.5 428.8 423.1 424.3 421 410.3 407.6 403.3 400.7 391.3 383.4 371.2 355.1 338.2 323.2 312 303.1 290.8 280.7 275.5 273.2 272.3 269.8 262.9 259.9 260.8 260.8 257.6 251.7 248.7 247 243.4 247 247.1 250 254.3 262.8 264.7 265.9 269.6 276.4 286.2 292.2 297.2 302 306.5 313.9 328.7 336.1 357.6 376.8 399.6 407 403.1 408.5 416.8 410.3 423.3 433.8 445.7 457.5 451 441.4 427.9 416.6 424 427.3 426.2 414.7 419.5 422.7 426 420.2 432.6 446.8 448.1 447.4 447.5 446.4 440 436.7 431.4 422.4 406.4 379.3 368 371.4 367.5 360.1 353.1 342.9 338 334 327.8 326.3 327.2 330.4 328.9 324.1 318.4 310.2 293 290.8 290.4 293.4 291.5 275.7 261.8 244.1 232.3 216.9 202.1 194.3 177.3 163.1 147.1 126.4 110.2 97.6 88.2 75.3 68.8 64.4 53.3 49.1 45.5 46.4 45.3 42.6 41.3 39.9 39.9 39.5 39 37.2 36.3 34.9 34.1 33.9 39.2 46.5 58.2 69.9 85.1 87.5 83.8 79.4 76.4 77.3 81.8 82.9 87.3 91.7 91.2 80.7 82.4 76.3 68.8 65.2 59.6 45.8 38.8 28.4 17.6 6.4 6.4 6.4 6.4 6.4 6.4 6.4 6.4 6.4 6.4 6.4 6.4 6.4 6.4 6.4 6.4 6.4 6.4 6.4 6.4 6.4 6.4 6.4 30.8 43 53.7 56.9 81.5 85.9 88 92.3 103.7 120.6 131.4
475.7 459.2 451 439 431.9 436 428.5 417.2 406.6 405 404.4 400.6 390.3 372.7 354.5 338.4 325.3 315.8 306.3 292.9 280.6 277.4 276.3 272.8 271.1 264.6 263.7 261.4 257.9 257.4 252.9 249.7 246.5 243.4 246.3 248.7 249.3 255.4 264.2 263.7 265.9 273.8 279.4 286.4 292.8 298.4 304.9 310.7 321.9 330.4 338.5 359.6 375.3 391.6 395.7 402.7 418 415.9 423.4 439.8 444.2 453.3 466.3 471.9 446.3 442.3 430 426.7 425.5 423.4 421.1 428.5 427.6 431.1 430.4 444.4 453.5 453.6 452.3 450 447.8 448.4 440.3 437.8 431.9 413.8 387.5 377.9 376.2 371.9 362.1 356.5 349.9 339.1 335.3 328.1 330.1 331.1 332.7 330.3 326 323.6 317.7 308.1 295.8 286.9 281.8 279.5 264.4 255 240.1 227.5 207.7 196.2 185.3 171.5 158.9 141.2 125.9 110.1 95.7 86.4 74.1 66.2 62.2 52.4 42.9 51.7 52.4 48.5 45.3 42 42.1 42.1 41.8 40.6 39.3 38.2 36.8 37.1 42.1 52.9 60.7 75.3 91.3 97.3 98.2 97.5 94.8 95.4 95.1 100.2 100.8 110.7 112.5 111.5 103.3 103.5 100.2 85.9 70.3 67.2 58.8 50.2 41.7 28 23.4 7 6.4 6.4 6.4 6.4 6.4 6.4 6.4 6.4 6.4 6.4 6.4 6.4 6.4 6.4 6.4 6.4 6.4 6.4 6.4 6.4 6.4 6.4 20.8 33.7 39.4 41.5 55.6 67.6 88.1 92.7 94.8 107.6
475.7 469.8 452.5 449.6 444.2 442.1 438 419 413.1 411.3 410.9 406.9 396.5 374.4 358.1 338.7 324.7 318.5 308.3 296.7 287.3 285.1 279.1 277.9 271.3 269.9 261.1 258.7 257.1 255.5 251.5 247.4 245.8 244.1 246.3 248.7 249.5 253.2 259.1 262.2 269.2 273 280.5 285.4 292.8 298.3 304 311.3 323 336.4 344.8 359.3 375.5 385.2 392.1 407.3 415.3 416.5 432.6 440.8 446 454.9 466.1 467.9 459.9 447.4 443.3 441.5 434.9 430.6 431.6 429.2 435.2 439.4 439.3 453.1 455.8 454.6 455.8 456.8 451.5 453.9 447.6 442.6 439.3 420.7 391.4 387.4 380.4 373.6 371.9 362 353.4 342.9 339.6 335.7 334.8 334.2 334.8 333.8 332.2 330.8 325.1 318.8 304.7 286.8 279 269.1 262.2 251.9 238.5 220.7 202.1 188.3 178.8 169.2 154.7 139.1 123.9 106.9 96.4 84.6 72.2 66 58.2 52.6 56.4 58.3 58.1 54.2 51.3 49.9 45.1 45 43.5 42.5 41.5 39.8 43.1 44.3 56.5 66.2 82.4 101.1 111.9 114 121.2 118.9 116.7 115.4 111.8 119.8 124.2 132.6 134.6 118.8 114.9 123.3 113 93.7 76.7 76.7 72.6 68.5 59.4 41.4 32.7 29.8 16.7 6.4 6.4 6.4 6.4 6.4 6.4 6.4 6.4 6.4 6.4 6.4 6.4 6.4 6.4 6.4 6.4 6.4 6.4 6.4 6.4 6.4 6.4 6.4 18.3 24.7 29.4 40.7 56.8 78.3 97 98
477.7 471.2 453.2 453.8 447.4 445.4 436.4 430.5 423.9 419.2 414 408.5 395.7 379.4 357.7 343.3 325.9 319 309.6 299.7 292.4 293.4 285.4 278.7 269.4 266.4 260.7 256.9 253.8 252.2 248.9 246.3 246.3 244.2 246.3 249.3 247.2 250.1 255.1 261.2 268.9 276.2 282 286 290.7 296.1 308.2 313.7 325.5 333.9 344.8 362.1 375 381 390.1 404.2 419.4 422.6 429.7 435.1 440.4 450.2 457.1 461.3 465.9 450.8 448.8 448.6 445.5 439.4 438.9 441.9 438.1 456.3 451 463.6 464.5 465.2 459.1 458.5 458.5 451.7 453.2 450.1 444.1 419.6 395.9 391 387.6 387.3 382.7 373.9 359.4 353.9 348.4 341.6 342.9 346.5 355.6 355.4 356.6 359 343 333.8 314.3 292 282.4 272.2 253.9 242.6 231.3 211.9 195.4 184.7 177.2 162.4 151.5 135.8 118.6 105.6 95.8 79.8 69.9 62.1 54.4 56.3 64.2 61.9 62.1 59.6 57.3 56.3 49.4 46.8 46.7 44.9 44.2 45.5 47.7 56.9 73.7 88.3 108.1 127.1 130.6 141 150.4 142.3 144.9 137.3 128.3 138.9 150.7 151.3 150 142.5 145.6 137.4 125.5 109 93.6 96.1 92.5 87.6 78.2 75.9 52.3 32.1 31.9 23.4 6.4 6.4 6.4 6.4 6.4 6.4 6.4 6.4 6.4 6.4 6.4 6.4 6.4 6.4 6.4 6.4 6.4 6.4 6.4 6.4 6.4 6.4 6.4 6.4 6.4 21.5 32.9 52.8 67.8 82
483.9 470 464.6 455 449.7 444.5 441.2 434.4 428 427.4 419.1 411.1 392.5 376.8 356.9 342.2 328.9 318.9 315.8 305.4 297.9 298.2 287.1 279.4 273.3 264.3 258.2 254.3 252.2 248.1 247 246.3 245 244.8 247.4 248.9 247.3 249.3 253.5 264.8 270.5 275.1 281.3 286.2 290.5 297 307.2 318 327.9 335.3 342.6 361.2 370.4 378 384.3 399.9 415.3 421.9 424.5 429.9 437.4 456.6 463.8 461.5 469.5 459.2 456.8 459.2 453.3 446 450.2 448.2 451.3 458.7 470.8 480 483.3 475.6 471 464.2 461 464.1 461.1 455.1 449.9 430.2 401.4 394.6 396.9 394.2 387.4 382.1 369.3 362.1 354.4 347.6 358.7 366.9 367.5 364 362 362.6 349.9 335.9 319.7 303.7 284.3 271.6 252.5 235.9 217.1 204.6 191.2 179 171.4 160.7 145.6 130.6 116 105.2 89.7 77.3 67.6 62.8 55.3 64.8 68.3 66.1 64.3 66.5 61.9 60.3 52 50.3 49.7 47.8 50 52.5 54.5 73.5 91.5 109.6 133.4 148.8 150 161 159.4 171.8 162.1 154.7 152.7 159.6 168.6 174.8 169 176.1 165.8 152.3 137.1 125.8 108.9 120.4 118.9 102.7 95.7 83.2 60.1 52.4 44.9 32.2 12 6.4 6.4 6.4 6.4 6.4 6.4 6.4 6.4 6.4 6.4 6.4 6.4 6.4 6.4 6.4 6.4 6.4 6.4 6.4 6.4 6.4 6.4 6.4 6.4 6.4 6.4 22.9 37.6 54.9
489.5 475.1 475.5 460.9 449.6 448.3 442.7 438.2 429.2 427.2 419.4 406.1 389.1 371.7 357.7 342.7 328.7 323.2 318.1 312.4 303.6 300.4 291.8 281.8 270.3 263.8 258.5 257.2 250.9 246.2 246.1 245.3 243.4 246.1 246.4 249.2 249 250.8 258.2 263.9 269 276.1 281.5 284.2 289.8 296.2 309 317.8 326.3 335.3 345.9 355.4 364.1 373.6 383.5 397.7 411.8 423 437.8 448.2 444.4 454.8 462.9 475.9 473.7 462.5 469.1 469.6 462.8 459.7 459.4 464 460.4 468.3 484.6 489.3 492 492.2 487.5 475.4 469.6 466.9 468.4 463.5 455.7 447.3 415.9 412.8 413.7 407.4 398.2 385.8 384.4 372.7 368.5 372.2 376.3 375.8 376.3 370.5 366.6 363.8 354.7 336.5 323 311 289.2 269.8 252.4 239.5 214.4 199.4 187.6 166.2 163.8 152.5 139.6 125 114.6 101.1 89.1 75.3 65.3 55 69.4 73.3 74 70.7 70.4 68.2 67.5 63.8 56.3 54.5 51.5 51.9 54.6 56.9 73 95.9 115.7 132.5 141.3 149.1 161.9 174.8 180.8 184.9 176 170.1 174.1 174.8 186.6 191.8 195.3 188.9 177.2 162.3 156 135.8 137.3 135.7 126.6 111.1 102.7 89.9 85.9 69.8 69 53.7 27.8 24.8 6.4 6.4 6.4 6.4 6.4 6.4 6.4 6.4 6.4 6.4 6.4 6.4 6.4 6.4 6.4 6.4 6.4 6.4 6.4 6.4 6.4 6.4 6.4 6.4 6.4 6.4 17.1 32.4
488 477.9 476.3 464.4 452 450.1 446.8 441 429.9 419.4 413.8 400.7 390.1 376.3 360 344.3 334.1 325.1 318.7 313.2 308.4 306.7 293.7 286.2 276.2 268.3 257.9 256.2 254.3 246.3 245 244.3 243.4 246.1 247.6 248.6 249.3 250.1 258.7 263.3 267.2 273.3 279.4 283.5 288.6 295.7 307 315.9 326.1 332.8 345.2 353.7 361.7 371.2 385.7 399.5 407 417.4 432.9 446.5 452.1 464.6 471.6 478.5 481.1 470.8 480.7 478.8 472.6 475.4 473.7 474.7 469.5 482.5 487.2 494.9 502.3 501 499.5 494.4 478.3 476.5 473.1 466.4 454.5 450.5 425 427.9 435.6 424.7 410.5 404.7 397.9 396.4 392.6 396.7 400.5 398 392.4 383.5 379.6 372.2 359.9 341.3 333.2 315.2 292.4 266 246.7 230.7 213.4 192 182.8 161.8 155.3 145.6 134.7 123.7 110.9 97.7 84.6 71.4 63.9 67.8 76.7 81.7 80.7 78.4 76.2 75.9 74.2 71.2 59.9 58.4 66.6 66.1 62.5 69.5 92.3 116.4 137.6 151.9 155.1 157.7 185.9 193.3 203.3 197.9 190.3 189.7 186.2 199 206.8 210.9 204.1 194.8 184.5 173.3 162.3 156.4 154.1 137.7 136.1 116 104.5 103.3 98 86 72.9 50.7 48.1 40.1 22.3 6.4 6.4 6.4 6.4 6.4 6.4 6.4 6.4 6.4 6.4 6.4 6.4 6.4 6.4 6.4 6.4 6.4 6.4 6.4 6.4 6.4 6.4 6.4 6.4 6.4 6.4 17.7
487.9 484.4 479.9 468.6 459.3 455.3 445.1 438.5 423.3 417.3 412.3 400.5 389.9 384 372.2 355.6 338.4 327.5 320.8 314.2 310.3 309.8 296.6 283 274.3 266.3 260.4 255.2 252.2 247.4 245.5 244.7 243.4 246.2 247.5 248.2 249.8 251 257.3 262.3 265.1 271.9 277.1 280.9 287.8 293.5 305 312.7 322.5 328 345.8 350.4 356.6 369.1 385.6 399.9 408.7 413.5 425.5 440 455.6 471.3 483.9 491.1 484.1 481.4 484.6 484.3 481.8 482 484.4 483.6 481.2 489.2 498.2 503.4 507.4 509.6 505.2 500.1 495.7 488.9 476.7 474 456 447.5 433.6 446.2 451.4 444.4 428.2 410.1 412.7 417 413 410.6 407 403 400.5 399.3 401.3 390.4 359.7 353.4 336 315.4 294.1 267.2 243.8 226.2 209.8 191.5 179.6 167.2 151.3 142 132.6 123.4 108.9 95 77.4 68.6 70.5 79.2 85.6 88.7 89.9 85.8 85.6 82.7 79 75.5 63.2 78.8 82.7 80.5 80.2 90.7 110.1 133.6 150.8 158.6 160.4 181.5 203.9 215.1 216.8 211.9 218.1 219.6 207.9 213.6 220.4 215.3 205.9 198.8 190.9 178.5 180.2 168.7 161.2 144.7 135.1 124 117.7 127.6 116.6 90.6 75.2 61.6 59.6 48.2 30.1 21.5 6.4 6.4 6.4 6.4 6.4 6.4 6.4 6.4 6.4 6.4 6.4 6.4 6.4 6.4 6.4 6.4 6.4 6.4 6.4 6.4 6.4 6.4 6.4 6.4 6.4 6.4
494.7 486 483.2 478.2 466.7 451.8 443.5 441.1 436.1 429.9 416.7 405.2 403 394.9 382.2 360.6 343.8 327.6 323 316 315.6 308.6 297.6 284.4 275.7 266.4 259.7 256 251.7 247.9 245.8 244.8 245.4 245.3 247.2 248.3 248.5 250.2 257.7 259 262.4 268.4 275.3 279.3 285.6 294.5 303.9 309.6 319.5 326.2 341.8 346.4 356.2 372.2 388.5 398.9 406.3 409.3 418.7 437.1 466.6 480.2 486.8 489.2 491.9 491.3 486 483.6 483.2 483.2 485 485.8 487.1 496.4 501.8 516 518.6 514.1 511.7 505.7 499.6 494.7 482.1 478.5 462.4 445 442.9 455.4 458.5 455.1 442.4 428.3 422.1 441.3 437.5 424.6 409.9 408.8 409.3 406.7 408.1 386.8 367.9 357 334 308.6 289.4 263.1 243.2 219.9 207.4 189.7 178.3 160.8 150.1 137.9 131 118 105.3 86.4 72.7 66.4 83.7 92.3 94.6 100.2 98.9 95.2 94.1 91.5 87.6 76.1 73.5 93.7 95.1 87 99.3 112.8 128.8 144.7 162.1 166.7 174.6 198.1 209.6 230.3 230.4 234.1 234.6 228.7 223.4 227.8 224.9 217 206.2 202.6 197.4 184.3 186.3 171.3 164.3 158.9 151.7 143.9 134 131.4 120.4 100.7 81.5 69.3 62 52.1 37.6 31.4 19.3 6.4 6.4 6.4 6.4 6.4 6.4 6.4 6.4 6.4 6.4 6.4 6.4 6.4 6.4 6.4 6.4 6.4 6.4 6.4 6.4 6.4 6.4 6.4 6.4 6.4
502.5 498 495.9 479.1 472.6 457.1 453.9 450.3 441.9 438.6 423.2 423 422.4 416.5 394.6 368.3 345.6 331.9 318.1 315.7 312.2 301.8 293 288.1 274.2 271.5 261.9 257.2 254.1 249.7 247.2 245.8 244.2 244.7 245.4 247.2 247.4 248.9 253.3 255.5 261.2 267.5 273.7 277.7 281.8 291 300.2 308.1 319.6 326.4 339.1 345.5 356.6 369.3 382.9 391.3 395.1 406.9 416.5 438.2 472.7 491.8 498.1 505.6 499.3 496.8 492.2 486.9 483.9 487.5 492.8 492.7 490.5 496.5 511.6 518.2 523 524.2 522 511.3 501.9 497.8 492.5 483 468.4 449.1 457.3 461.5 469.6 465.8 451.8 449.7 440.8 452.6 445.7 433 421.2 412.1 407.4 402.9 401.6 379.5 368.9 350.4 321.8 299.7 278.1 260.3 238.7 218.3 200.9 188.6 177.2 162.9 148.7 139.9 126.1 113.5 96.2 77.1 62.9 85 93.2 100.8 105.7 108.2 106.9 106.7 102.5 102 95 76.3 96.3 103.8 102 101.6 115.3 130.1 143.2 155.1 170.3 173.3 195.1 217.3 242.7 245.3 244.9 240.5 236.3 232.9 228.4 230.8 224.7 219.5 213.8 204.4 203.1 196.2 187.5 188.1 177.1 169.4 165.1 143.1 133.9 130.3 122 102 85.1 78.8 68.2 58.5 58.6 58.7 46.9 18.2 9.1 6.4 6.4 6.4 6.4 6.4 6.4 6.4 6.4 6.4 6.4 6.4 6.4 6.4 6.4 6.4 6.4 6.4 6.4 6.4 6.4 6.4 6.4 6.4
511.7 505.9 500.9 481.5 474.6 468.2 460.3 454.6 448.6 440.9 428.9 438.7 441.8 434.1 414.2 379.6 350.4 332.2 321.5 315.2 309 304 293.7 284.4 279.2 269.8 262 257.6 252.8 247.9 245.9 244.6 243.4 244.9 244.1 245.5 247.6 248.9 250.4 255.1 259.1 265.3 271.8 274.4 278 287.1 292.7 305.4 316.1 327.3 334.4 342.6 354 367.7 379.9 384.9 395.4 404.8 415 435.4 474.7 494.5 496.1 503 503.1 502.3 499.7 496.3 493.7 497.2 496 496.4 502.4 510.1 515.3 522.8 527.9 528.5 521.1 520.1 512.9 507.6 502.1 488.7 480.4 456.5 461.5 465.8 474.4 467.9 469.2 455.3 449.7 455.7 448.7 440.8 425.1 413.7 407.1 402.3 388.6 369.7 354.5 334.5 310.2 292.4 272.3 253.8 234.6 217.2 200.5 187.9 176 162.1 144.7 136.5 126.2 112 92.9 78.4 78 93.1 104 109.3 114.4 114.3 115.4 113.3 111.8 111.1 89.8 105.7 108.8 112.8 114.4 117.1 130 146.3 155.5 163.3 173.3 184.6 217.2 232.4 259.6 271.1 270.3 259.1 246.3 244.6 233.6 226.5 221.8 226.9 223 213.3 207.6 199 192.7 193 179.4 179.5 165.6 147.5 146.8 139.1 126.5 102.1 95.2 84.5 73.7 78.4 71.7 71.1 62.3 42.4 18.3 6.4 6.4 6.4 6.4 6.4 6.4 6.4 6.4 6.4 6.4 6.4 6.4 6.4 6.4 6.4 6.4 6.4 6.4 6.4 6.4 6.4 6.4 6.4
516.6 509.3 505.6 488.1 481.8 483.4 479.1 458.5 452.9 445.3 445.5 462.4 453.8 440.2 418.2 382.3 354.5 334.8 321.3 315.7 309.9 301.4 291.8 287.5 278.9 271.5 263.3 257.7 252.3 247.8 245.4 244.7 243.9 245.3 244.9 247.1 248.1 248.8 249.9 254.5 258.1 261.2 266.7 271.5 276.5 284.3 289.1 304.6 312.5 324.9 332.8 344.7 352.7 366.8 375.7 380.4 392.9 401.3 414.9 442.8 468 488.3 490.9 499.2 501.1 502.3 501.2 502.1 498.2 507.8 505.3 505.3 503.1 509.8 522.1 525 531.6 533.5 529.7 523.3 521.9 516.1 504.8 495.6 484.2 467.6 465.3 474.3 477.1 473.8 476.7 461.9 453.2 451.2 447.9 444.3 433.4 415.5 408.5 399.7 373.9 364.2 343.6 315.1 301.7 280.7 263.4 249.3 230 214.2 201.1 186.7 174 159.7 144.9 134.9 123.4 109.5 88.7 73.5 86.3 99.1 111.8 117.1 120.5 120.4 121.4 119.7 117.7 112.9 92.1 118.9 121.2 126.4 123.1 133.1 140.5 161 167.4 169 181.9 217.5 246.8 261.9 259.7 282.5 282.1 276.3 267.5 250.7 239.8 246 240.2 231.9 221.3 211.5 198.8 191.1 187.7 185.7 183.9 176.7 167.1 161.1 155.7 137.4 122.3 111.3 104.6 94.6 92.4 89.2 78.1 69.6 62.7 56.1 32.5 18.8 12.3 6.4 6.4 6.4 6.4 6.4 6.4 6.4 6.4 6.4 6.4 6.4 6.4 6.4 6.4 6.4 6.4 6.4 6.4 6.4 6.4 6.4
513.2 510.3 509.1 502.6 495 493.2 488.2 468 456.1 450.3 462.3 471.8 460.5 437.7 418 390.4 360.1 338.4 326.7 316.6 309.1 302.6 297.1 290.5 280.1 270 265.5 259.9 257.1 248.1 247 245.5 244.6 245.3 243.4 245.7 246.8 247 248.7 251.9 256.9 258.4 262.3 268.8 274.9 282.1 288.9 303.5 310 319 331.3 340 351.9 364 367.6 379.5 388.1 400.1 417 442.9 463.2 480.2 487.4 495.1 500.2 502.4 502.8 505.7 505.5 512.8 515.9 507.4 505.5 519.4 522.8 531.2 541.6 540.4 541.7 532.6 527.1 518.2 509.6 504.6 493.2 476.5 473.1 483.1 482.4 485.4 481.4 465.2 461.4 453.7 448.6 445.6 433.7 419.5 406.9 392.5 368.8 349.5 331.7 308 292.5 275.6 257.7 239.8 226.5 213.6 199.1 187.6 171.7 159 145.7 133.6 118.6 100.2 90.5 87.7 93.2 109.8 120 122.5 125.9 127.7 128 125.2 120.3 100.8 119.3 125 131.7 135.6 133.5 147.6 153.5 171.3 180.1 183.5 205.4 239.9 265.6 267.7 276.2 286.6 294.6 281.2 274.7 279.6 272.5 263.1 255.2 242.6 239.5 245.3 236.8 220.3 210.5 205.7 194.8 183.5 172.4 172.2 164.5 152.4 132 118.2 111.7 110.6 99.9 93.9 80.9 70 66.7 59.2 43.2 30 18.8 9.5 6.4 6.4 6.4 6.4 6.4 6.4 6.4 6.4 6.4 6.4 6.4 6.4 6.4 6.4 6.4 6.4 6.4 6.4 6.4 6.4
519.3 513.2 515.9 508.3 506.5 503.2 495.4 481.8 465 466 476.2 475.4 463.8 442.4 423.1 393.2 362.5 343 332.5 326.7 310.9 304.9 297.6 291.5 281.2 272.1 270.6 265.8 255.5 249 248.2 245.4 245.1 245.3 245.5 244.1 245.3 246 246.8 251.8 254.3 257.1 259.6 266.6 272.6 279.4 289.8 297.6 308.3 319.8 325.7 336.5 349.3 357.3 371.9 382.5 390.1 401.8 415.9 442.2 461.1 472.3 483.4 496.3 502.4 500.3 505.1 507.7 505.2 514.4 516.5 515 513.5 519.4 533.1 541.4 549.4 553.4 545.2 536.1 534.2 529.5 517.7 508.9 497.3 486.6 486.5 486.5 484.5 488.4 486.3 472.1 466.8 457.8 450.8 446.5 433.3 416.7 398.4 380.1 362.1 339 314.3 303 285 270.7 251.8 235.9 225.1 211.8 200.9 183.9 170.3 154.9 141.8 127.8 111 96 97.3 92.2 102.3 118 124.3 129.5 130 132.5 133.4 128.3 122.4 100.8 133.4 137.3 141.3 144.3 145.6 157.2 165.7 179.3 189.7 201.2 231.7 261.7 279.8 278 285.8 290.8 295.4 305.5 296.9 293.2 285.5 277.3 264.6 254.1 257.7 251.5 246.2 234.3 217.3 208.5 204.7 194.8 176.3 179.5 178 159.3 138.6 127.9 120.4 119.9 106.2 100 87.4 74.6 68.1 62.2 51 35.2 24.2 17.7 9.7 6.4 6.4 6.4 6.4 6.4 6.4 6.4 6.4 6.4 6.4 6.4 6.4 6.4 6.4 6.4 6.4 6.4 6.4 6.4
527.8 523.4 520.4 516.2 513.7 512.8 507.5 493.2 475.2 483.1 486.6 479.7 461.8 443.1 424.4 402.4 371.1 345.7 336.9 329.9 320 307.2 299.8 295.4 282.4 274.4 270 267.6 257.3 250.8 249.3 246.1 246.2 245.5 244.8 245.4 243.4 245.6 244.4 250.5 253.3 255.2 258 263.1 271.1 278 283.8 293.5 304.9 313.6 319 335.2 344.8 352.6 371.1 383.3 395 405.9 416.2 445.2 457.8 470.8 478.3 488.3 491.5 493.6 500.4 503.1 501.9 517.5 520.1 520.7 521.8 527.7 533.8 542.2 552.7 555.1 551.4 547.2 540.2 529.7 523.2 508.6 502 493.1 492.3 489 486.1 493.3 484.4 475.8 472.5 464.5 454 445.5 430.2 413 388.2 364.2 345.8 323.8 308.7 292.5 282.3 263.9 245.8 235.2 221.3 211.7 196.7 179.5 166.1 149.4 135.3 123.5 107.1 101.2 98.3 96.3 108.8 121.5 128.4 131.2 135.3 137.8 139.1 132.4 119.1 122.8 143.8 144.3 151 153.1 158.9 165.9 175.3 188.1 202.9 231.3 257.6 277.8 283.8 291.1 294.4 295.2 315.4 315.3 313.2 305.9 291.6 283.8 272.9 277.8 270.2 250.6 241.5 232.2 226.7 214.6 198 186.1 185 189.9 185.9 166.2 147.7 143.5 135.9 128.3 114.1 105.7 91.6 83.4 70.6 66.2 54.5 37.3 27.8 21.1 14.8 6.4 6.4 6.4 6.4 6.4 6.4 6.4 6.4 6.4 6.4 6.4 6.4 6.4 6.4 6.4 6.4 6.4 6.4 6.4
529.8 526.5 524.6 524.1 521.1 521.4 514.3 499.2 489.7 488.4 485.6 482.6 467 452.7 432.6 405.8 376.5 353.4 339 333.4 326.7 312.5 302.4 292.8 282.6 275.3 270.9 266.9 257.4 251.9 250 248.2 247.3 246.7 244.5 245.7 245.4 243.4 245.5 248.4 251.3 253.2 257.2 260.8 268.4 275.6 280.5 291.9 304.1 307.3 318.7 335.1 345.5 351.9 364.9 382.3 399 408.1 428.4 447.2 461.7 469 471.7 478.8 482.4 485.9 494.6 500.2 503.1 520.6 520.6 520.6 523.2 530.3 535.8 542 546.2 548.1 549.3 548.6 543 532.8 524 510.1 506.4 492.3 488.9 485.5 489 487 483 474.4 469.2 462.1 454.6 441.5 421.3 393.6 370.7 346.2 328.5 315.8 303.8 287.8 276.2 256 244.5 231.5 218.5 206.3 190.9 177.1 161.3 140.5 136 116.6 109.3 105.8 99.7 102.2 114.9 124.9 131 136.1 140.3 142.7 142 134.9 113 141.2 148.3 150.2 157.1 161.4 171.4 176.9 186.5 197.2 216.7 248.4 278.2 295.2 307.3 311 310 328.7 325 326.1 322.2 318.1 297.5 286.1 285.4 283 273.6 264.9 244.6 234 226.2 213.3 194.6 189.1 188.7 190.8 188.6 169.3 167.4 162.3 151 138.7 125.1 112.6 103.4 88.8 73.2 63.3 53.9 40 26.6 22.4 18.4 13.1 6.4 6.4 6.4 6.4 6.4 6.4 6.4 6.4 6.4 6.4 6.4 6.4 6.4 6.4 6.4 6.4 6.4 6.4
529.1 528 525.4 523.3 526.7 526 515.8 506.5 500.1 494 494.4 489.3 470.1 459.9 445.5 418.3 388.1 360.1 343.9 336.3 329.4 313.8 304.7 297.3 285 275.2 269.4 265.3 257.9 253.5 251.2 248.7 247 246 246 246.7 245.2 245.2 245.8 246.4 251.7 251.2 257.1 260.7 265.9 272.9 280 291.7 300.5 309 323.9 336.2 341.8 351.3 365.9 378.7 396.3 412.7 435.7 443.8 459.1 464.7 468.9 473.9 476.9 478.2 484.1 496 504.7 517.3 521.5 521.5 531.6 531.5 539.8 546 544.6 547 548 545 542.3 531 520.3 512 506.6 490.3 487.8 483.9 488 480.3 477.1 464.9 455.4 450.6 442.7 426.2 395.9 374.5 350.2 332.2 318.2 309.4 294.7 281.5 265.2 252.8 240.4 227.8 209.4 198 186.5 171 153.1 140.9 125.6 111.5 113.3 107.8 103.9 106.4 120 127.6 133 139.4 143.7 146.6 144.2 131.2 125 146.5 152.7 159.6 167.3 169.1 182 189.4 197.7 211.3 234.2 266.7 297.7 307 321.4 328.4 358.7 350.4 341.9 337.5 332.4 323.7 322.8 319.3 296.7 287.9 280.5 269 253.5 247.1 230.5 221.1 213.5 196.2 200.1 203.9 196.3 175.5 178.5 168.6 160.9 146.6 136.2 123.4 107.2 93.1 76.4 68 57.9 46.6 31.1 27 21.9 16.2 6.4 6.4 6.4 6.4 6.4 6.4 6.4 6.4 6.4 6.4 6.4 6.4 6.4 6.4 6.4 6.4 6.4 6.4
533 535.1 532.7 528.7 529.4 526.3 521.4 524 515.6 505.3 501.4 487.5 478.8 473.7 464.9 423.9 393.9 366.6 351.7 340.9 332.7 316.7 310 303.9 288.4 278.2 269.1 264.2 259.6 254 252 251.6 250.2 247.2 246.4 245.4 244.9 244.2 245.7 246 248.7 249.2 258.8 263 265.5 270.2 280.6 287.9 291.7 310.6 322.2 330.5 339.3 351 364.7 379.4 390.7 407.2 428.3 437.9 451.2 458.7 469.1 472.9 478.2 476 483.2 492.3 504.2 513.2 518.3 523.5 531 532 537.3 542.3 544.8 545.2 544.2 539.3 535 528.5 513.1 508.6 503.3 484.1 482.7 483.2 478.6 470.9 464.6 451.8 440.1 427.8 408.6 391.7 370.2 349.9 335.7 322.1 310.5 302.3 293.4 272.3 258.4 246.9 235.2 220.3 204 195 183 167.3 152 135.3 122.1 112.3 110.2 108.2 102.9 113.1 121.7 128.8 136.6 141.2 146.3 149.6 147 133.7 142.4 156.4 168.5 173.2 176.1 177.4 190.4 200.5 213.6 228.8 253.7 283.1 302.3 318.9 336.9 363.8 370.4 366.8 360.1 343.5 336.3 326.9 340 326 305.7 293.9 285 274.9 264.8 250.8 235.9 236.4 225.6 212.1 217.2 210.6 199 184.2 177.7 172.2 163.6 148 134.2 122.4 109.9 91.7 71.8 61.1 62.7 52 38.5 29.8 23.1 18 6.4 6.4 6.4 6.4 6.4 6.4 6.4 6.4 6.4 6.4 6.4 6.4 6.4 6.4 6.4 6.4 6.4 6.4
539.7 539.1 542.7 537.4 532.4 531.5 531.9 532.7 520.4 516 504.2 503.7 505.4 480.8 445.3 419.2 397.6 376 358.8 345.8 332.7 319.6 311.7 299.5 289.6 280.1 270.8 263.7 260.8 255.2 255.8 254.1 249.2 248 246.5 246.6 245.4 245.5 243.5 245.3 246.1 247.4 252.6 260.3 264.1 270.6 277.6 283.4 295.4 306 313.9 322.8 330 347 364.1 377.4 393.3 403.9 423 432.2 446.7 459.3 460.3 465.8 470.1 474.9 480.9 491.6 506.2 505.4 510.6 518 533.1 533.8 537.4 537.1 540.1 541.7 539.5 538.6 535.5 532.8 510.7 501 494.8 484 481.7 479.8 464.7 454.7 450.3 431 410 393.9 378.4 360.1 348.4 334 322.8 311.2 303.2 294.7 281.2 267.3 256.6 241.6 228.2 215.2 202.5 192.2 179.2 170.2 149.6 137.1 123.4 115.2 110.1 106.8 111.7 117.5 123.2 131.2 140.5 143.3 147.3 149.9 145.7 142.3 154.8 162.9 176.6 183.9 187.5 187 200.4 213.1 227.6 250.2 276.8 296.8 322.4 364.6 379.2 385 380 377.6 365.6 356.6 344.7 339.4 337.3 330 310.3 296.1 286.8 276.5 269.7 262.9 253.3 245.8 236.8 225.9 215.1 211.1 191.5 184 180 175.4 162.6 148.2 129.8 123.5 109.7 84.9 79.7 76.9 65.8 57.1 43.8 31.6 24.7 19.6 6.4 6.4 6.4 6.4 6.4 6.4 6.4 6.4 6.4 6.4 6.4 6.4 6.4 6.4 6.4 6.4 6.4 6.4
543.9 542.7 541.1 540.4 537.9 533.7 534.8 536.5 523.2 518.7 510.5 521.1 514.2 467 425.7 412.6 401 382.1 362.9 347.2 335.6 322.3 310.5 299.1 291.3 283 273.5 264.5 261.7 259.1 256.4 254.7 250.7 247.7 247.3 246 245.6 245 243.6 245.4 246 249.8 252.3 254.3 261 269.5 274.6 280.8 291.9 302.9 308.1 317.5 329.6 341.6 357.6 372.3 389.3 402.3 414.4 426.5 436.3 443.7 462.1 467.8 468.7 469.5 482.5 495.1 502.3 504.3 511.4 516.7 525.2 531.3 535.1 536.5 537.6 537 539 539.5 534.4 529.3 508.8 500.9 491.3 483 472.3 461.5 439.9 431.5 415.9 397.6 381.6 367.5 355.1 343.4 331.7 322.1 314 304.1 296.5 282.6 273.3 261.6 251.1 237.5 225 208.8 197.5 189.1 179.6 167.5 149.1 136 126.2 116.5 112.2 108.9 113.8 124.2 128.9 135.1 142.8 146.3 148.8 148.5 148.5 154.4 161.6 169.9 182.5 191.7 193.2 200.1 214.8 229.9 247.7 274.4 292.6 334.1 372.4 388.3 389.2 388.9 386.8 380.3 375.4 378.6 363.6 356.6 340.9 330.9 316.5 303.9 288.1 280.7 278.8 269 262.2 255.2 243.6 229.9 222.5 210.6 193.7 189.4 182.8 175.1 162 149.8 133.5 123.1 104.2 99.6 90.2 82 67.6 55.3 43.4 35.2 30.6 21.9 13.2 6.4 6.4 6.4 6.4 6.4 6.4 6.4 6.4 6.4 6.4 6.4 6.4 6.4 6.4 6.4 6.4 6.4
550 545 545.1 545.8 543.4 536.6 538.8 532.9 524.8 515.5 517.1 522.9 491.5 444 424.6 413.9 398.6 382.6 371.8 353.4 334.6 324.4 314 303.1 291.3 282.3 273.8 265 261.2 259.1 257.4 256.5 251.6 248.3 249.5 247.6 245.3 245 243.5 246.6 247.4 247.7 252.5 255.7 262.5 266.6 270.9 279.7 290.8 299.9 307.9 320.8 330.1 340.1 357.6 373.6 386.4 399.5 417 424.3 433.6 445.1 455.2 462.1 470.2 480.1 488.6 496.4 498 506.9 513.1 519.8 528.7 533.5 533.6 535.6 537.8 537.1 532.3 528.4 526.6 516.6 503.3 491.9 472.1 456.6 442.1 431.2 411.3 396.3 382.8 371.7 362.8 351.7 341.8 331.6 324.7 315.6 300.8 292.5 285.2 273.8 263.5 257.4 244.7 234.9 224.1 207.7 201.5 188.8 179.1 160.9 151.9 140.6 128.7 121.4 116.8 113.7 110.4 125.7 133.6 137.5 145.2 147.4 150.8 149.9 152.3 161 168.8 182.7 190.6 200.3 199 209.2 228.3 246.7 266.9 287.1 310.5 355.1 392.1 399 394.9 393 391.9 388.9 386.9 379.4 372 357.9 344 329 323.1 306.2 292.1 292.9 289.8 283.3 274.5 260.7 247 234 222.2 212.4 210.6 191.8 184.1 175.8 171.6 154.1 138 115.8 117.6 106.4 96 83.1 67.8 56.8 45.5 37.9 28.6 23.1 17.1 6.4 6.4 6.4 6.4 6.4 6.4 6.4 6.4 6.4 6.4 6.4 6.4 6.4 6.4 6.4 6.4 6.4
568.1 557.6 552.2 554.9 555.2 543.7 538.9 536.5 529.6 520.8 516.9 517.5 478.3 451.4 429.3 412.5 408.9 395.4 376.7 356.5 341.5 327.1 317.9 302.4 290.8 283.9 274.3 263.9 259.5 258.1 256.7 253.8 250.9 248.2 249.6 248.8 245.7 245.5 244.3 245.9 247.2 247.4 252.7 258 261.1 263.7 268.4 281.1 287.2 295.3 306.7 314.1 326 345.3 354.3 372.5 387.9 400 414.3 420.1 429.5 442.4 454.3 462.1 468.3 469.9 489.1 497.2 502.3 508.4 508.4 517.2 528.8 530.1 532.3 533.1 533.9 533.3 524.7 518.2 514.1 500.6 483.8 460.2 444.1 426.7 414.9 402.9 392 379.2 367.9 355.8 345.1 335.7 326.1 320.7 314 302.7 293.1 285.3 277.5 269.2 262.2 251.1 245.8 235.4 223.1 210.4 204.7 191.2 176.6 169.6 152.6 141.1 131.2 127.6 120.8 118.6 116.9 124.4 133 141.4 146.1 147.7 149.8 151.6 160.7 166.8 172.8 187.3 195.3 202.6 204.8 221.4 238.7 256.9 279.5 307.3 338.7 367.7 390.2 400.3 403.8 398.7 402.4 401.7 395.5 382.6 374.9 359.8 350.2 347.6 328.4 311.6 300.6 302.1 295.3 285 276.8 260.3 247.8 233.6 218 223.6 218.1 203.5 192.4 187 177.2 157.9 139.4 124 118.8 107.4 94.6 83.5 70.4 58.4 49.9 39.1 30 22.2 18.5 6.4 6.4 6.4 6.4 6.4 6.4 6.4 6.4 6.4 6.4 6.4 6.4 6.4 6.4 6.4 6.4 6.4
572.4 563.1 558.6 555.3 553.2 548.4 543.3 541.1 536.5 523 518.4 502.8 477.1 454.1 431.2 431.1 414 398.6 386.7 364.8 349.5 337.3 318.1 306.8 294 284.4 275.9 264.2 261.1 258.9 256.6 253 250.9 250.8 250.6 248 245.3 245.2 243.6 245.9 246.1 248.7 253.1 258.9 259.6 263.7 273.1 277.1 284.3 294.2 299.3 307.6 328.3 345.2 354.4 371.6 389 402.2 412.3 423.7 433.2 443.6 455.5 459.4 468.4 474.1 484.2 499.5 504.9 515.5 511.3 520.1 527.7 534.1 533.3 531.9 523.7 521.1 517.7 509.1 499.3 482.2 458.3 435.1 420.2 409.3 399.4 385.5 376.9 368 358.8 347.3 337.6 326.7 318.2 311.7 301.8 294.4 286.6 276.9 268 262.6 253.7 246.3 240.6 230.2 225.2 215.5 201.7 188.1 178.9 161.8 152.6 148.7 146.5 130.9 126.6 120.5 120.5 124.9 131.7 142.5 146.3 147.8 150 157 166.6 171 179.6 190 200.1 208.4 210.9 232.7 250.1 270.2 293.1 332.2 353.9 373.8 392.1 402.1 406.5 410 406 404.7 392.5 383.3 381.3 375.5 365.7 349.7 332 325.2 316.9 312.5 303.6 292.7 277.3 262.5 251.8 235.6 223.7 222.6 215.1 205.9 195.8 184.8 173.2 161.1 142.1 129.8 122.9 109.9 95.3 81 69.2 57.8 48 40.3 32.7 26.5 20.3 12.9 6.4 6.4 6.4 6.4 6.4 6.4 6.4 6.4 6.4 6.4 6.4 6.4 6.4 6.4 6.4 6.4
583.5 572.5 561.4 554.5 549 548 543.2 539.1 538.4 522.9 512.9 491.9 471.6 460.3 455.6 446.8 434.8 422.7 411.8 384.8 367.7 344.6 329.4 311.2 297.9 291.1 276.4 267.2 261.3 259.6 257 252.8 251.5 250.7 253 246.9 246.4 245.6 246.8 244 245.8 249.8 252.1 257 260.5 262.9 270.8 278.3 282.1 292.3 298.4 311.2 328.1 338.5 352.3 367.7 386.1 402.5 420.7 432.4 439.7 449.9 458.9 465.4 473 477.3 481.2 495 511.2 517.2 518.3 514.7 525.8 530.4 536.2 531.2 516.2 512.4 505 500.1 490.4 462.5 434.5 418.1 405.7 395.1 386.8 375.7 366.2 357.1 349.6 339.3 327.2 317.7 312.7 303.6 294.4 284.9 276.7 269.4 260.8 256.4 248.9 243.2 236.8 230.9 223.3 214.4 203.1 190 184.5 166.2 156.3 152.4 151.7 136.1 128.2 124.7 125.1 126.2 132.3 142.1 147.2 147.9 150.6 161 172.7 175.4 182.8 195.1 205.5 213.1 217.5 240.1 261.1 281.3 310.7 342.2 367.1 391 395 404.1 407 414.3 412 406.1 399.8 388.2 386.2 375.1 366.9 350.1 335 331.7 327.6 318.8 305.5 292.3 279 265.9 251 231.6 225.8 219.8 212.9 202 191.8 176.6 164.4 145.2 146.8 127.9 121.3 110.5 93.9 81.4 73.2 59.4 52 41.5 33.3 26.2 21.3 16.6 6.4 6.4 6.4 6.4 6.4 6.4 6.4 6.4 6.4 6.4 6.4 6.4 6.4 6.4 6.4 6.4
589.8 578.3 563.9 555.7 550 548.2 546.1 535.3 527.7 520.9 503.7 486.7 481.3 480 483.8 487.3 474.2 459.8 453.9 424 393.6 371.5 338.7 320.8 302.7 293.3 276.3 268.5 261.7 259.8 255.2 252.7 252.2 252.7 255.4 250 247.1 246.8 246.1 245.7 245.7 247.3 252.9 256.3 259 260.1 268.1 277.8 280 287.6 295.9 310.9 322 334.3 350.3 365.9 381.2 402.5 422.2 436.9 446.9 451.4 455.1 469.9 476.7 483.1 484.5 494.3 502 514.3 522.1 514.7 518.3 521.8 535.4 526 512.6 507.3 496.1 488.6 473.5 437.2 419.8 405.6 393.7 383.9 374 368 356.1 348 339.4 331.2 321.5 311.6 303.3 295.3 286 279.5 273.5 266.1 260.8 250.6 245.9 237.6 232.6 228.5 217 216.7 202.6 197.2 186.1 168.3 159.6 155.8 149.7 139 130.5 127.8 126.9 129.4 134.8 140.7 144.7 147.8 151.6 165.2 172.3 178.8 186.9 197.3 207.8 214.3 223.8 249.9 270 292.4 322.8 351.6 376.4 400.1 415.5 415 415.6 416.8 415.8 411.6 400 386.1 382.3 375 366.4 358.2 349.3 340.6 340.9 344.2 335.5 320.5 303.8 286.1 266.5 239.7 232.5 228.2 217.2 204.9 190.9 175.9 160.2 155.5 148.7 134 118.6 107.7 97.5 86.9 78.5 67.2 58.1 44.9 34.8 26.6 22.6 17.8 12.2 6.4 6.4 6.4 6.4 6.4 6.4 6.4 6.4 6.4 6.4 6.4 6.4 6.4 6.4 6.4
591.2 581 568.7 562.7 553 547.3 542.6 535.2 526.3 516.4 500.1 487.8 497.9 508 514.2 521.7 526.2 517.7 485.3 472.2 451.4 427.7 361.4 332 307.8 295.3 284.1 275.3 264.7 261.7 258.4 255 255.9 257.2 255.9 250.6 248.1 246.9 245.6 243.8 246.3 247.2 249 248.9 256.7 257.3 265.2 273.8 279.2 284.9 291.9 308.6 316.7 337.6 346.1 361.1 378.3 397.9 420.2 440.9 449.7 458.1 458.1 468.5 481.2 485.6 490.1 497.2 505.1 521.6 527.6 518.5 516.1 518.3 520.8 514.1 510.2 498.4 491.6 478.4 452 424.7 405.7 392.7 381.7 373.9 364.3 355 349.9 335.1 325.5 319.6 316.7 305 295.4 285.2 279.2 270.1 264.3 259.4 251.2 244.8 240.6 230.3 229.9 220.3 219.2 215.5 205.1 198.9 177.2 167 159.6 150.9 143.8 136.7 132.5 128.2 127.2 134.7 135.5 144 141.6 141.4 152.4 167.8 178.3 188.6 190.9 200.3 209.4 217.5 229.2 254.2 280.1 304.4 334.1 357.8 383.9 418.2 423.4 422.2 421.1 418.2 416.5 410.4 400.5 398.7 397.4 385.4 372.8 370 366.5 360.7 355.9 347.2 335.8 325.8 312.6 289.7 263.7 254 243.3 233 223.2 212.5 195.2 186.2 174.7 166.6 152.7 135.5 121.2 116.2 105.7 96.4 87.1 74.4 61.7 46.8 37.5 31.4 25 19.4 14.2 6.4 6.4 6.4 6.4 6.4 6.4 6.4 6.4 6.4 6.4 6.4 6.4 6.4 6.4 6.4
598.4 587.7 575.2 563.9 555.7 548.8 546.8 542.8 533.4 514.8 509.1 503 510.1 515.5 532.1 547.4 564.6 553.5 532 503.3 480.8 444.1 376.5 343.4 316 296.5 287.8 276.8 267.5 263.9 260.4 255.8 254.6 253.5 253.4 251.8 246.4 246.3 244.2 247.8 248.5 246.7 247.7 249.7 252.2 255.5 259.3 268.5 275.7 283 295.3 304.2 316.8 335.6 344.8 358.9 375.4 394.4 418 437.7 458 463.6 462.9 468.1 484.5 490.7 502 504.5 513 529.7 523.5 521.3 516.1 520.8 516.9 505.3 502 494.6 485.8 463.3 432.2 411.7 394.4 382.9 375.5 364.7 353.8 349.1 340.9 330.8 322.9 319.5 306.8 300.1 291.2 283.1 273.5 266.5 259.8 253 247.2 239.9 232.3 229.1 223.9 222.7 218.3 212.8 204.4 195.2 177 166.9 158.7 153.5 148.2 140.1 133.4 128.8 128.8 132.9 136 139.1 140.9 144 153.3 172.9 183.6 191.2 196.8 207 213.5 224.6 239.8 265.5 290.3 315 344.6 374.7 398.6 416.6 427 427.3 427.9 420.2 414.8 411.3 414.4 411.9 404.1 390.4 380.2 376.9 376.2 375.8 367.8 356.7 342.9 326.9 312.7 285.8 267.9 261.5 253.8 238.5 230.2 213 201.5 186.8 183 172.6 163.6 148.3 135.4 123.1 113.7 102.9 91.9 79.4 62.9 55.6 42.6 36.2 28.1 22.5 17 6.4 6.4 6.4 6.4 6.4 6.4 6.4 6.4 6.4 6.4 6.4 6.4 6.4 6.4 6.4
619.5 597.2 580.7 574.7 559.7 555 549.4 550.4 535 514.5 515.7 513.2 516.9 530.5 546.2 563 566.2 563.2 549.8 528.7 497.8 452.6 385.2 352.8 324.1 303.4 287.3 276.1 270 264.9 260.4 256.7 255.3 256.4 253.2 248.9 247.7 247.2 247.1 244.1 248.6 246.7 247.4 248.1 249 252.5 259.9 267.1 273.8 286.7 294 300.8 319 334.4 343.3 359 378.2 392.6 417.7 440.9 454.7 461.9 469.2 482 496.7 501.2 507.3 510.3 520.6 532.1 527.4 522 516.1 517.6 503.9 496.2 491.8 486.1 477.6 449.7 423.1 402.1 387.9 376.9 362.4 355.3 343.2 345.5 335.5 321.5 318 310.1 297.3 293.8 290.7 279.1 269.3 261.2 255.1 249.3 247 238.3 230.7 228.7 225.2 219.2 215.9 210.2 205.9 195.2 177.9 176.6 163.3 152.7 146.3 139.5 136.1 130 129.8 134.5 136.4 138.5 143.1 145.5 157.8 173.9 184.8 193.1 204.5 208.7 220.2 231.9 250 275.4 300.5 324.5 357.3 380.1 405.1 418.3 426.5 434.4 433.6 430.6 423.7 423.9 423.8 418.3 407.5 398.8 393.4 390 393.5 401 391.6 370.9 351.8 338 314.2 292.7 280.2 266.3 254.4 240.7 227.6 219.1 210.1 196.8 193.7 189 177.3 162.9 149.1 133.6 117.7 105.8 95.2 82.2 67.4 53.6 46.6 37.1 30.7 24.8 17.8 12 6.4 6.4 6.4 6.4 6.4 6.4 6.4 6.4 6.4 6.4 6.4 6.4 6.4 6.4
637.8 622.2 596.1 583.5 564.4 559 552.2 548.1 541.3 521.2 521.3 517 524.9 545.1 561.8 569 569.9 567.8 552.8 531.5 498.6 456 392.9 360.3 330 308.2 292 277.1 272.5 267.2 260.9 257 256.1 253 252.8 250.6 249.9 247.4 246.4 247.4 244.8 247.5 247.6 248.3 250.2 252.5 256.2 265.8 278.2 290.4 299 307.5 318.9 331.3 341 370.6 378.1 390.7 415.8 442.9 446.8 458.2 469.1 483.7 500.3 507.3 515.2 520.7 527.3 529.5 528.5 520.1 515 508.9 495.8 489.3 487.8 483.7 474.7 443 416.5 394.4 381.4 363.6 354.4 344 339.2 329.9 327.4 319 313.8 305.5 298.9 296 284.7 276.8 268.6 262.6 253.4 248.7 243.7 237.3 229.6 225.8 220.8 218 214.7 212.8 204.5 190.6 179.5 173.6 164.9 154.1 147 141.5 136.8 133.8 132.7 134 137.2 141.8 148.6 145 159.9 179.7 188.7 196.1 199.6 211.4 226.7 239 258.3 283.5 305.7 332.4 362.5 390.6 411.7 421 431.6 437.4 439.6 435.6 434.6 434.2 431.5 425.4 422.4 416 414.5 415.8 421.4 422.5 409.6 387.9 356.5 336.9 323 301.6 283.2 269.9 261 245.2 237.2 231 224.2 218.4 212.3 203.2 186.9 168.8 150.6 137 122.9 112.4 101.3 86 73.5 55.3 48.8 47.1 34 27 20.9 18.5 15.9 6.4 6.4 6.4 6.4 6.4 6.4 6.4 6.4 6.4 6.4 6.4 6.4 6.4
659 638.1 612.6 600.1 576.1 558.9 552.8 546.3 539.1 527.9 526.2 528.1 537.7 555.1 567.1 566.5 566.5 565 550.8 528 495.5 448.8 396.7 364.6 337.4 313.2 294.1 279.5 271.9 268.3 261 255.4 252.6 254.2 251.4 255.1 247.9 248.5 247.8 247.3 245.3 246.8 248.8 252.5 250.3 253.4 258.2 264.5 276 288.4 300.8 309.3 317.3 327.1 344.5 365.9 376.5 392.5 419.4 436 443.2 457 468.8 482.5 505.6 519.6 515.9 526.8 532.5 538.2 530.3 520 512.2 499.7 495.8 494.2 491.2 481.1 461.4 439.6 411 391.7 377.7 361.3 349.8 342 332.2 326.5 323.3 325.8 321 315.2 298.5 293.7 288 279.4 272.4 263.7 253.6 244.9 239.8 235.3 229 224.1 219.5 217.7 216.3 213.9 206.6 194.8 182.6 176.9 165.7 158.7 149.5 141.6 138.9 134.7 134.7 133.6 136.3 142.5 147.2 147.7 160.4 173.9 182.3 190.9 199 213.1 233.8 249.8 268.6 292.2 315.5 347.6 368.2 399.6 424.7 435.3 440.3 443.8 448.1 448 448 449.5 449.7 449.7 445.8 441.7 439.3 442.4 445.2 449.1 426.6 398.9 374.5 350.7 331.2 305.7 292.2 276.2 264.3 255.2 247.9 244.5 245.3 242.2 229.2 215.3 197.4 170.7 150.7 139.9 128.7 115.9 99.6 83 76.5 64 56.1 49.6 50.6 40.3 27.2 25 20.9 18.1 15.6 13 6.4 6.4 6.4 6.4 6.4 6.4 6.4 6.4 6.4 6.4
683.7 654 626.5 604.1 581 563.9 553.1 548.3 541.7 538.5 538.1 537.1 547.5 556.5 562.4 560 559.9 559.1 555.3 532.7 510.6 473 429.5 376.8 339.8 313.9 296 281.9 271.5 266.4 260.5 255.2 251.7 251.7 250.7 252.1 254.4 249.8 248.7 247.8 246.9 245.1 247 251.4 252.3 256.1 259 262.4 272.2 281.8 298.3 302.2 314.8 330.1 344.7 358.5 378.2 392.7 417.6 429.5 441.8 475.8 476.9 489.5 513.9 523.2 529.1 538 534.6 542.1 527 518.4 506.3 506.4 502.3 494.6 477.7 462.5 449.5 443.8 425.4 399.9 383 363.9 356.8 342.6 331.6 328.1 325.8 330 326.9 308.8 306.4 299.9 292.9 281.5 272.7 263.4 255.1 248.4 239.5 231.9 227.9 223.9 221.8 217.7 217.8 211.4 202.9 191.8 182.7 176 165.8 161.6 152.3 147.5 139.8 137.1 135.8 134.4 138.6 145 147.5 148.9 158.2 171.1 184.8 196.3 204.1 217 236.2 253.8 278.3 299 328.7 352 377.2 406.2 427.7 438.6 445.8 451.3 453.7 459.8 465.4 473.2 470 465.1 462.4 460.3 468.8 475.9 470.7 461.5 440.5 422.4 399.3 377.1 346.1 321.1 300.1 286 276.9 268.1 265.5 267 272.9 262.8 245.2 225.1 206.2 179.5 158.2 145.9 129.2 124.5 115.2 104.9 94.8 77.2 62.3 68.8 70.5 60.2 42.7 33.5 27.5 25.5 24.6 21.8 14.5 10.6 6.4 6.4 6.4 6.4 6.4 6.4 6.4 6.4
708.2 672.4 639.6 607.8 589.9 571.1 557.8 550.6 545.8 545.3 544.8 543.3 549.6 555.7 558.3 557.7 557.3 557.3 556.4 540.6 514.9 479.4 443.9 405 345.9 316.6 297.6 285.8 272.2 266.5 260.7 256.2 252.4 251.2 250.9 251.9 253.5 254.6 250.1 250.1 250.4 246.1 250.3 250.5 249.6 257.2 260.8 263.6 273.7 284.8 293.9 301.4 313.7 336.5 349.7 364.7 385 401.8 411.9 428 449.3 472.7 480.3 493 512.9 522.4 528.2 536.1 533 528.6 515.5 510.5 511.2 505.1 488.4 481.8 475 466.7 465.7 457.3 444.2 412 388 375.9 360.8 349.1 342.3 337.2 331.2 332.4 327.6 321.6 318 307.7 298.3 286.7 278.5 270.5 262.5 255.7 248.3 234.8 233.6 224.9 222.7 221.2 221.8 213.3 206.4 192.1 180.2 173.7 167 160.8 151 149.4 143.5 138.9 137.6 137.9 138.6 146.2 146.6 147.6 158.8 175.4 188.9 201.9 208.7 223.9 238.8 262.4 283.5 305.1 329.9 355.5 382.6 412 435.1 447.7 454.9 461.5 469.2 478.5 485.4 492.7 495.2 493.6 489.6 492.1 492.4 482.8 473.5 460.7 448.2 439.1 420.7 409.6 383 340.3 318 332.6 326.7 287.8 306.2 321.1 310.5 284.2 256.4 235.7 205.8 191.7 176.5 158 139.5 127.9 121 109.8 89.1 75.6 78.1 83.4 78.3 73.3 54.5 47.6 39.2 33.5 31.6 27.8 23.8 15.3 8.4 6.4 6.4 6.4 6.4 6.4 6.4 6.4
705.2 688.9 649.8 615 598.2 586.3 570.6 559.3 558.8 557.8 550.9 552.8 552.6 555.7 564.4 559.9 557.5 557.3 554.8 547.6 518.2 488.6 451.3 410.6 349.5 318 299.3 285.9 275.6 267.5 262.8 260.2 253.3 251.8 252 252.5 254.7 254.4 252.2 250.3 249.8 248.9 250.1 249.6 252.1 258.9 264.6 265.7 276.2 283.3 294 308.8 316.5 331.6 347.4 359.7 382.5 399.8 417.5 428.3 449.3 466.4 477.9 494.4 517.7 525.9 532.6 531.5 530.1 520.3 507.2 508 511.9 503.9 494.5 482.5 474.5 475.6 477.1 473 460.6 426.7 400 384 371.3 364.2 358.2 353.1 344 338.9 334.9 334.9 332.8 327.9 312.4 300.5 288 280.1 269.6 262.1 251.4 242.3 231.5 225.7 230.8 224.6 225.1 215.1 206 190 182.8 173.8 166.7 162.4 156.2 148.3 142.6 140.3 136.6 140 143.8 144.3 146.2 147 164.3 176.5 183.9 195.9 210.6 228.3 244.5 264.3 287.4 310.3 335.8 369.1 391.8 423 439.7 449 465.2 473.8 484.8 494 509.7 520.4 526.1 522.4 512.6 505.7 501.6 484.8 475 468.4 459.4 445.9 438.7 422.4 389.1 378.1 374.6 366.6 347 324.9 338.3 331.8 295.5 305.8 268.1 247.5 243.7 219.2 194.8 171.9 151.4 133.3 118.3 104.8 94.7 89.1 91.6 89 84.7 84.8 73.2 67 58.2 45 40.4 33.9 30.2 25.2 13.9 6.4 6.4 6.4 6.4 6.4 6.4 6.4
700.4 703.6 658.7 625.6 607.1 599.7 587 570.6 566.3 570.6 575.5 570.9 561 560.8 565 566.1 561.7 561.5 556.7 548.5 522.8 487.5 451.1 402.5 356.8 320.2 302.3 286.8 276.4 269.1 263.4 259.3 253.4 251.8 253.3 254.5 256.1 255.2 251.7 250.1 250.6 249.1 247.6 250.4 253.3 255.6 262.6 267.3 273.5 280.8 294.1 312.8 316.8 332.9 348.7 364.7 380.1 397 417.2 428.2 452.3 461.5 473.4 502.8 523.3 525.4 529.4 524.6 520.1 514.6 504.4 511.7 509 506.8 493.1 484.7 479.6 477.2 475.5 472.7 459.9 443.1 417 407.5 398.5 386.1 377.5 370.6 361.3 358.7 353.7 360.7 367.1 372.9 348.1 314.2 297.7 283.9 272.3 264.5 259.1 243.7 236.1 230 229.8 225.4 220.7 211 200.3 190.8 180.2 173.5 166.8 161.2 155.7 147.9 143.3 141.6 140.6 142.4 144.9 145 145.3 147 167.3 175 180.4 196.9 214.1 230.3 247.6 269.8 295.1 318 342.7 371.3 397.6 429.4 449.8 457.7 466.4 482.9 500.3 517.1 538.8 535.8 531.6 525.5 518 511.9 502.4 490.8 478.2 471.1 465.2 456 437.4 425.2 414.5 406.7 396.4 381.4 358 352.2 352.3 341.2 329 315.6 303.7 289.1 272.7 260.1 243.6 226.3 178.3 163.2 146.6 123.3 113.1 108.1 105.3 98.9 92.3 88.9 86.4 81.9 69 52.1 47.3 43.8 38.2 33.7 25.2 13 6.4 6.4 6.4 6.4 6.4 6.4
693.5 704.1 671.2 639.6 620.8 615.5 599.2 578.4 576.3 588.1 589.6 580.7 571.3 568.4 566.2 565 563 561.2 553.2 546.1 517.5 486.7 441.7 398.8 359 326.4 306.5 289.3 279.2 271.5 263.9 259.9 257.2 254.1 255.2 255.6 255.5 253.8 250.6 249.6 250.1 250 249.8 248 250.7 252.5 259.5 265.5 273.5 283.1 293.3 306.9 320 333.8 346.8 360.3 377.9 394.8 414.7 427.6 441.7 458.9 479.3 508 523.5 525.9 523.6 518.8 515.8 511 504.8 503.3 497.8 498.8 492.4 489.1 482.9 476.9 474.4 468.7 467.7 462.7 435.8 428.6 420 414.7 411.5 397.7 391.7 385.2 389.2 391.1 394.7 394.1 374.4 332.1 310.6 287.1 277.7 264.7 257.4 249.9 242.8 233.6 225.6 222.5 215.9 210.3 202.1 193.1 184.2 177.8 171.5 164.8 153.7 152.4 144.6 142 145.9 145.2 147.9 147.4 146.7 147.8 162.5 172.2 188 203.6 217.1 232.7 253.3 274.7 296.9 322.9 355.4 379.1 410.3 441.4 455 464.3 475.8 498 538.3 550.4 548.5 543.5 536.2 529.4 522.3 514.2 505.1 500.6 491 479.9 471.4 461.4 452 437.4 425.4 414.5 408.4 390.2 381 373.1 363.9 351.7 339.4 325.5 314.2 310.5 297.1 275.6 259.5 244.2 227.7 206.6 190.6 170 153.3 136.8 127.6 117.1 107.5 95.1 83.7 77.4 72.6 61.9 57.6 53.1 50.4 50.2 39.5 26 14.6 6.4 6.4 6.4 6.4 6.4
681.4 701.1 689.6 669.8 655.1 631.8 613.7 603.1 596.9 599.7 597.9 592.4 588.3 574.8 568.2 563.9 562.9 560.6 550.9 542.2 514.6 478.4 439.5 396.9 360.8 330.2 308.9 290.7 280.7 271.8 265.4 261.1 258.6 256.7 256.5 253.9 251.6 249.8 250.5 252.4 251.2 251.1 250.5 248 249.6 250.3 255.9 262.5 270.7 280.7 296.2 302.7 317.3 332.8 346 361.2 378.4 394.7 409.9 428.4 442.2 457 488.6 507.5 518 522.3 515.4 514.4 513 505.9 500.8 497.1 495 495.3 490.6 487 481.2 476.1 473.1 472.9 471.5 467.7 452.1 448.2 454.3 447.9 434.4 422.7 414.5 416.2 418.9 414.5 409.2 403.2 385 353.5 320.8 296.5 280.9 269.1 260.7 258 248.3 241.2 233.7 220.9 216.6 207.4 201.9 194 185.6 179.2 171.9 164.9 156.8 152.9 146.8 144.4 149.7 151.2 149 149.6 147.6 150.8 159.5 172.7 194.3 205.4 218.6 234.6 256 279.4 301.1 327.9 357.2 388.4 416.8 442.4 455.4 474.4 488.3 521.1 552.2 556.2 554.4 551.4 548.7 534 523.6 519.8 517.4 511.2 506.2 497.3 488 477.5 465.1 451.8 441.2 435 423.6 411.1 394.4 384.8 373.7 365.4 363.4 360.2 352.8 346.6 334 314.7 286.2 263.2 239.5 228.9 210.1 200.1 191.4 163.9 137.6 123.1 112.3 97.4 92.4 86.8 80 73.9 68.2 61.7 61.8 63.5 52 47.2 42 31.9 15.2 12.3 7 6.4
665.6 690 699.3 702.8 667.3 647.9 647.3 643.4 627.2 618.7 619.6 619.6 613.5 586.1 571.9 565.7 560.5 550.5 545.9 529 509.5 476.7 432.8 395.2 362.3 333.3 310.1 295.8 283.4 272.6 264.8 263.6 259.5 257.9 258.3 255 252.4 251.4 252.3 254 253.7 252.8 249.4 252.5 250.7 251.4 255.5 260.7 269.5 279.5 291.2 303.5 318.6 330.8 341.1 361.1 381.9 397.4 409.2 427.5 441.8 462.6 488.1 498.5 509.8 511.9 512 516.9 510.5 505.4 502.3 497.7 495.4 494.5 497.5 491.1 486.5 478.5 474.3 475.3 470.3 463.9 471.8 475.4 479.3 472.1 464.4 446 445 439.9 441.5 427.4 413.1 401.4 379.9 357.4 324.7 296.2 280.8 273 265 252 244 240.8 230.9 219.3 214.6 207.4 198.4 189.8 183.5 179.3 169.8 162.7 156.6 152 147 145.9 149.7 155.5 152.2 152.2 149 153.6 159.5 177.5 194.9 210.3 222.5 238.5 261.3 281.7 306.3 333.8 364.6 393.4 420.9 442 464.7 483.9 501.6 532.1 550.9 553.6 553.2 549.9 541 532.9 530.3 529.3 526.7 520.3 510.1 502.5 498 489.7 478.4 470.5 459.1 450.5 442 424.6 411.1 403.3 399.3 396.8 396.4 410.6 402.4 390.5 372.3 336.5 311.1 287.8 255.5 238.4 227.3 217.3 200.2 172.6 150.6 134.8 121.5 114 105.6 98.6 91.3 85.1 78.3 73.2 73.8 71.4 68.7 59.9 47.7 33.6 25.9 17.6 14.6 8.5
653.6 687.9 696.8 712.5 686.8 671.3 674.3 674.6 664.9 645.7 649.1 643.8 625.1 593.8 577.1 568.1 558.9 543.5 542 524 501.8 470.9 430.5 393.7 364.3 335.3 314 299.8 287.6 274.6 267.5 264.5 260 259.3 258 255 256.1 254.9 254.8 255.1 254.5 256.2 250.7 255.3 257.4 256.6 254.9 259.7 270.3 276.9 291.4 306.3 319.7 334 342.6 363.9 384.7 398.4 412.2 428.8 441.7 463 483.2 492.1 494.8 510.2 516.7 518.1 513.7 509.9 508.6 505.8 501.1 499.9 499.9 493.8 492 489 480.8 482 476 471.8 474.3 482 482.2 484.6 478.4 472.8 465.9 457.9 451.5 438.9 414.8 400.6 374.4 351.7 322.3 293.9 282.4 272.6 261.9 255.5 243.3 239.1 229.5 219.5 214.6 205.6 200.3 191.2 184.7 179.6 171.2 162.7 162.1 154.7 148.7 146.2 151.2 154.2 154.8 154.2 150.2 151 162.2 184.3 197.4 213.2 229.2 242.6 263.2 286.7 312.1 341.9 369.5 394.4 421 447.4 474.9 494.3 515.8 546.3 558.3 557.2 552.1 547.7 542.8 535.7 534.4 546 551.3 548.6 535.8 518.6 512.3 506.5 500.1 492.8 481.7 469.3 459.9 443.9 431.6 434.6 441.6 453.4 444.7 444.1 428.8 418.7 397 376.9 337 309 283.2 258.1 237.4 222.9 207.9 183.5 160.4 142.2 131.1 126.9 115.7 110.2 106.6 102 90.9 84.3 79.1 79.7 71 64.7 49.3 40.6 28.2 19.7 16 6.4
643.4 674 686.4 709.5 721.3 714.3 712.5 712 709.7 705.6 685.3 669.5 637.5 606 585.8 568.5 557 541.6 530 517.4 494.9 464.3 423 392 364.2 338.5 317.6 303.9 286.9 278.4 270.8 265.1 263 261.9 260.6 257.1 255 255.7 255.7 255.9 255.5 255.7 253.3 251.5 256.6 261.7 261.8 265.7 271.5 279.7 291.2 304.5 319.3 338.3 348.1 363.1 384.1 397.7 415.4 434.9 455.5 468.6 481.8 490.5 498.8 509.1 525.8 520.5 517.4 512.6 511.8 510.1 504.4 503 504.5 502.9 500.8 498.3 491.9 488.3 481.3 484.1 481.4 496.4 493.2 491.3 488.5 482.6 481 477.1 468 448.4 420.1 397.1 371.2 346.2 330.6 300 279.8 270.9 265.4 258.3 247.1 238.7 234.4 223 212.6 206.5 199.6 191.3 185.1 178.2 172.7 165.1 160 157 149 153.6 157 154.4 154 156.4 151.5 151.8 164.9 185.8 202.2 216.4 230.4 246.3 268.7 291.9 317.3 346.6 375.9 406 429.2 455.5 484.8 511.6 534.9 559.2 562.4 561.8 557.9 553 548.2 543.5 542.7 549.4 561.4 568.1 557.3 548.3 538 530 532 527.2 521.8 500.6 492.8 484.1 491.3 485.5 491.4 483.2 476.3 468.9 448.3 438.9 414.6 395.5 370.9 328.6 299.2 275.5 242.9 224 207 186.7 165 149.6 143.7 137.3 121.4 115.1 109.3 100.5 92.3 83.3 78.7 75.2 70.9 68 64.8 53.6 43.5 27.3 18.2 12
622.9 642.4 673.1 697.7 721.2 746.8 762.8 758 761.6 741.5 710.5 683.2 648.8 620.6 594.6 569.1 554.7 542 526.5 511.6 490.7 457.8 419.8 389.7 361.7 339 320.5 306.6 291.4 281.3 273.5 270.4 268.4 262.8 260.1 258.5 256.3 258.2 256.1 256.6 256.8 255 256.7 258.1 261.1 262.7 265.8 267.7 273.8 282.6 291.4 303.1 321 335.2 349 363.3 384.8 404.4 422.7 445.9 460.2 475.1 486.2 493.9 513.3 524.7 525.6 525.4 521.2 513.4 510 509.9 504.7 509.2 513.2 510.8 505.9 501.5 494 493.9 486.8 492.6 492.9 500 500 497.6 498.5 490.9 484.5 481.8 469.5 452.3 418.6 390.7 364.1 346.6 329.8 300.1 281.1 275.4 271.3 257.5 253.2 240.8 234.1 222.3 214 203.4 196.4 187.8 184.4 177.8 172.5 166.4 163.5 157.8 150.9 157.1 158.5 160.7 158.8 159.8 152.1 152.5 173.8 197.2 206.1 218.8 232.1 251.6 272.2 296.4 324.4 352.8 382.8 406.9 435.8 465.3 495.9 524.7 559.4 568.8 570.2 569.3 565.4 560.6 554 549.6 543.3 553.2 560.4 568.9 575.9 573.3 564.7 550.4 540 548.7 549.5 543.3 542.3 543.8 544.9 542.3 534 516.7 499.5 483.1 465.7 443.8 428.3 405 376.2 332.4 297.8 279.8 253.3 228.3 211.8 190.5 173.8 158.2 152 141.4 135.7 124.9 115.8 110.5 98.8 88.5 84.7 81.3 78.4 77.4 70.8 65.5 51.5 42.9 30.8 16.5
602.2 622.9 653.9 683.6 716.1 745.7 775.3 804.9 800.1 760.4 723.9 693.7 665.4 633.9 604.8 577.8 556.5 542.4 525.3 504.6 482.6 453.6 417.6 389 363.8 341.3 322.5 306.7 294.2 282.9 274.9 272.7 266.9 262.8 259.8 259.3 257 256.5 255.9 255.5 255.8 253.7 255 258.7 261.9 263.6 268.1 269.5 275.6 284.3 294.2 305.3 321.5 337.7 352.3 364.3 384.7 409.5 432.1 449.3 468.1 481 495 512.8 525.1 531.2 533.4 531.1 527.3 520.5 519 511.7 511.3 520 517.6 514.5 514 513.7 501.7 497.7 495.3 511.8 502.5 514 516.5 506.5 500.2 497.8 492.3 485.8 477.7 455.3 418.6 385.6 361 345.2 328.9 304.9 289.2 283.7 270 260.5 253.6 238.5 233.1 220.7 212.3 202.2 191.3 187.5 181.6 175 172.7 167.6 159.1 158.9 150.5 160.1 158.4 162.4 163.6 161.7 153.3 153.3 174.7 195.9 207.9 219.1 237.8 256.5 277 303.1 330.6 358.8 383.8 411 442.7 473.2 503.5 535.1 569 580.3 581.2 580.6 577 570.8 559.2 554.6 552.2 561.7 570.4 589.5 594.8 592.7 579.2 568 560 559.7 560.8 555.6 554.5 568 571.4 565.9 570 540.9 533.3 502.3 485.7 464.3 440.2 404.6 366.9 323.8 301.6 279.8 259 231.7 215.1 197.9 183.3 168.7 159.4 158.8 148.8 136.2 130.7 121.2 108.5 99.4 97.5 91.1 93.8 94.7 85.9 75 65.2 51.8 32.1 19.6
580.8 609 645.2 675.3 708.5 743.3 776.4 807.2 807.2 772.6 744.2 716.6 689.1 652.3 622.4 593.5 563.9 545.9 521.1 496.7 475.7 448.8 415.9 386.9 364.2 345.6 325.4 306 291.4 283.4 277.3 270.8 266.4 261.8 259.7 258.4 257.2 256.5 255.4 255.3 254.3 254 256.8 260.5 265.2 266.5 266.6 270 279 288.6 294.2 309.3 323.5 337.2 352.6 369.6 391.2 414 433.2 459 473.3 491.2 508 528.4 530.8 542.5 544.8 542.3 539.2 530.2 527.4 521.3 519.6 519.5 521 529.2 530.6 525.7 513.6 507.5 509.7 522.3 512.2 520.8 522.8 513.6 506.4 502.6 500.3 491.1 482.3 470.1 417.2 379.9 359.6 345.1 330.6 311.2 298.5 284.7 274 262 252.5 239.1 231.3 220.9 212.2 198 191.2 186.7 180.9 173.1 170.4 163.9 158.3 154.7 153.7 160.1 162.3 162.2 163.1 161.5 154.7 154.9 177 197.7 210.6 224.9 242.3 263.4 281 307.5 335.4 363.5 397.1 427.2 451.8 484.4 516.1 547.6 578.5 589.3 588.4 587.3 585.1 576.2 572.6 566.4 563.5 571.2 587 598.2 602.6 592.7 584.4 577.7 574.9 570.6 566.2 565 566.6 578.6 581.9 579.6 581.1 581.8 554.9 534.4 518.3 488.3 458 405.4 362.5 335.3 312.9 293.9 270.6 244.6 225.2 213.1 195.7 183 173.7 168.9 163.5 160.9 146 133.8 122.5 118.8 117.3 108.6 110.9 110.1 104.4 86.3 73.9 60.9 39.6 21.2
565.1 600.3 633.7 666.4 699.8 733 769.2 801.3 812.3 796.3 765.3 734.7 701.9 668.5 640.4 610.6 578.8 544 519.1 491.6 465.9 439.2 410.6 385.3 364.3 342.7 324.5 305.4 293.9 284.1 277.3 272.6 264.8 262.7 261 259.8 257.3 255.6 256.5 256.4 254.3 255.7 260.3 262.2 264.7 268.2 266.7 270.2 280.1 289.6 299.4 310.7 322.2 339.1 355 376 399.1 418.8 435.8 460.6 481.8 503.9 522.2 533.2 541.3 556.3 553.8 548.3 543.5 543.7 539 529.2 530 530.9 530.9 539.2 539 538.7 529.2 522.1 519.9 526.4 526.2 528.5 523.8 516.5 513.8 507.9 503.1 501.3 495.1 474.4 416.4 374.7 358.7 345.6 330.6 315.2 299 290 274.3 266.3 252.7 240.9 232.6 223.1 211.8 199.2 192.6 186.1 180.2 173 167.8 164.6 161.5 152.9 156.9 161 162.4 164.5 164.3 161.8 156 160.9 184.1 202.2 215.3 231.4 250.1 267.4 287 312 343 376.2 406.4 432.7 462.8 491.8 526.5 561.1 590.6 597.2 593.4 589.1 586.9 582.3 577.9 576.6 572.7 585.2 592.3 593.5 594.8 588.6 590.2 592.3 592.4 585 580.7 576.2 581 583 588.4 592.5 589.8 592.1 578.4 567.1 534.8 490.6 440.2 416.5 376.2 354.2 335.6 315.8 286.5 262.3 239.7 221.2 204.8 197.7 194.3 191.4 189.3 181.3 163.7 156.1 158 141.7 135.7 126.2 121.4 115.9 109 96.5 87.5 69.5 56.6 37.8
556 595.7 626.8 655.2 687.7 724.2 760.9 793.8 813 810.5 778.3 747.1 719.1 691.5 662.7 636.9 607.3 554.4 519.1 486.1 458.3 434.1 406.9 384.2 362.7 341.4 323.7 308.2 297.5 285.4 276.1 269.1 265.5 263.1 260.7 259.2 258.1 256.8 258.6 255.9 255.9 258.1 260.6 262.5 266.4 267.2 267.9 270.1 279.4 289.2 301.9 309.1 325.9 342.9 357.6 382.1 408.3 427.8 448.9 471.1 500.7 525.5 532.1 544.2 549.7 566.8 562.2 553.7 553.2 554.1 545.3 539.1 538.3 544.4 546.2 543.7 551.3 548 539.1 539.2 536.5 539.8 541.6 535.2 528.6 526.6 518.9 509.4 509.2 506 496 479.7 420.5 376.6 359.2 345.3 335.7 320.2 305.8 291 275.9 268 251.6 243.3 233.6 223.5 208.8 202.6 194.3 185 181.9 176.9 169.9 165.4 161.5 154.2 161.9 162.1 162.4 165.7 166.2 163.2 156.7 168.4 192 203.7 220.7 234.5 252.5 272.7 292 317.5 345.4 377.1 408.9 438.2 469.6 501.8 535 572.8 597.6 599.6 596 592.8 590.3 588.1 583.7 579.6 581.3 582.1 588.8 586.8 586.8 590.8 598.1 608.5 603.2 599.8 592.6 582.6 581.7 583.8 591.9 593.3 599.2 603.1 598.4 583.5 551.1 494.5 466.5 432.3 399.2 394.2 381.2 351.6 313.7 282.2 255 236.2 215.2 215.7 211.6 209 207.3 193.7 182.1 177.3 172.7 165 151.7 150.4 137.7 126.3 115.6 103.8 94.3 83 70.5 52.5
549.5 583.3 616.4 643.2 678.4 714.7 750.4 783.1 810.6 826.2 792.7 764.6 736.5 711.3 682.5 650.6 619.5 556.6 514.6 481.8 456.7 430.7 404.4 381.7 357.5 338.9 323.5 308.9 298.3 285.8 275.8 270 265.8 262.9 261.1 258.6 258.2 257.9 257.6 257.6 259.3 258.3 261.4 262.3 264.9 266.6 267.9 270 279.9 291.7 304 312.5 324.6 342.9 360.2 391.2 413.2 437.8 468.4 498.4 522 535.1 541 547.4 558.2 567.4 570.3 565.9 568.1 566.7 561.1 560.8 560.1 562.6 563.7 557.9 568.5 564.3 554 551.8 548.4 551.3 542.7 542.7 534.1 528.4 526 515.3 512.1 511.1 502 485.7 428.9 385 363.9 349.4 336.2 325.6 312.2 295 279.8 265.3 255.7 247.6 233.6 220.6 209.1 200.9 192.2 187.3 181.6 179.4 170.1 163.4 159.9 158 161.6 162.5 162.9 165.8 166.6 165.4 159.8 175.7 198.4 209.4 224.5 243 258.2 277.1 296.6 321.6 350.2 379.2 412.5 448.5 476.4 508.7 544.4 581 599.3 598.6 595.4 593.7 591.6 590.1 590.3 591.7 589.6 585.4 583.6 590.4 596.1 598 605.8 612.2 609.4 599.7 595.9 590.3 588.7 589.1 592.8 603.3 612.2 610.8 605.9 588.2 574.5 538.6 503.2 466.8 454.8 443.4 415.8 374.6 336.5 295.4 269.5 255.5 236 233.7 230.4 220.4 220.5 215.6 198.7 186.5 181.6 171.2 165 166.2 169.1 149.1 133 115.8 108.5 104.1 87.9 73.6
545.8 577.2 607.3 633.6 670.6 703.5 737.7 772.6 805.6 838.1 812.1 784.5 755.8 727.4 695.5 655.8 614.7 560 516.3 485.5 457.7 429.6 403.8 377.8 356.3 336.6 322.1 311.3 296.3 286.8 275.6 270.1 265.9 263.5 259.9 258.3 259.7 259.4 257.1 258.4 259 261.4 261.1 265 263.6 267.4 267.6 271.3 277.8 288.6 298.9 312 325.9 341.7 367.6 392.4 424.1 456.4 493.4 525.9 548.2 551.1 556 560.6 566.7 575.5 576.1 576.1 582.1 582.6 575.6 574.7 577.6 579.2 584.4 579.6 592.5 582.6 567.9 559.7 564 560.1 552.8 552.9 540.3 537.2 527.4 526.3 518.3 515.2 512.1 489 435.8 394.2 371.6 349.9 335.2 328.2 312.4 298.2 283.6 267 256.4 246.9 232.6 219.3 206.7 201.7 197 190.3 188.2 180.2 168.5 163.4 156.1 161.6 161.9 163.8 166.7 166.8 170.2 170.5 160.9 183.1 202.7 213.5 229.8 245.3 266.9 283.3 302 325.6 353.2 383.9 419.9 454.7 483.1 515.7 550.9 586.9 600.1 599.2 596 594 593 592.2 593.1 598.4 592.7 585.7 584.8 588.9 595.9 599.8 601.8 604.5 601.8 603.9 599.5 599 597.2 598.7 604.2 615.4 617.4 607.4 615.8 621.4 608.7 594.9 544.7 510.4 486.7 460.3 432.2 402.9 364.7 322.6 296.2 270.8 267.2 255.7 257 245.8 238.5 233.2 230.2 227 204.7 189.4 186.8 182 179.4 172 140.3 130.7 136.8 127.3 106.2 74.6
540.5 570 598.2 625.1 659.5 693.4 727.5 763.3 800.1 836 831 802.7 771.8 733.2 689 632.1 596.1 572.1 523.2 487.8 455.8 426.7 398.7 376.3 354.9 337.4 323.3 305.1 293.7 282.2 275.1 272.7 267.1 264 261.4 262.4 261.3 260.5 258.3 259.9 260.4 262.3 265.5 265.8 267 269.1 268.9 272.8 279.8 287.5 298.1 315.6 331.5 345.7 364.7 397 430 470.6 515.3 542.6 572.6 575 574 573.8 579.2 580.1 581 590.6 591.5 589.5 582.7 591 590.5 593.9 593.8 606.3 607.9 591.2 580.4 571.1 575.1 564.2 560.5 561.6 546.2 540.9 541.1 528.6 529.2 520 524.6 492.2 440 402.2 373.7 352.4 338.1 327.6 313.9 299.4 283.1 268.9 258.3 243.7 230.6 215.8 211.5 202.4 198.2 191.6 184.7 179.2 168 163.6 160.5 162.6 162.8 164 168.3 170.2 175.6 173.9 163.3 191 209.1 218.3 235.5 252.4 267.7 288.2 306.2 331.3 359.6 392.5 423.6 456.8 486.4 520.1 554.6 587.6 598.2 598.4 596.8 592.3 590.3 589.1 586.6 594.9 593.1 585.6 585.1 585.4 581.8 593.3 604.8 605.4 600.2 604.7 612.5 606.4 609.6 611 610.2 613.8 621.4 617.1 615.1 617.6 611.5 604 578.4 550.2 525.6 481.9 448.8 424.2 390.6 352.3 324.2 300.9 291.5 274.3 280 271.2 261.3 250.9 239.8 236.3 232.8 221.1 205.2 196.2 191.3 174.9 147.9 138.3 139.9 130.1 100.9 77
533.9 564.3 593.4 624.2 651.6 687.3 720.5 758.6 796.4 834.6 848.3 810.6 775 727.3 689.5 669.6 632.5 568.7 525.5 488.7 455.5 426.7 400.1 374.4 355.9 336.2 317.5 301.9 289.8 279.3 274.3 270.3 267.8 264 264.9 266.9 263.3 262.6 259.1 262.5 265.6 265.5 268.6 267.6 267.9 269.6 271.2 275 279.4 287.5 296.6 315 332.1 346.6 373.3 404.1 440.8 481.5 526.2 566 592.4 596.4 588.6 585.3 594.2 590.9 585.1 591.6 595.1 590.5 588.6 592.5 595.7 605.7 606.8 614.1 609.6 594.8 584.7 584.2 580.4 571 570.7 567.7 557.4 557.7 560.6 546.8 532.2 531.3 523.9 489.1 446.5 402.1 374.7 355.8 340 328 313.5 299.3 283.6 271.1 256.6 241.2 232.7 219.8 210.2 204.6 196.9 190.2 183.6 177.9 168 163.9 158.5 164.4 164.6 168.2 170.9 175 177 173.1 173.9 194.4 209.2 222.9 241.8 260.2 273.7 292.9 312.2 337.6 364.7 396.1 436.2 459.8 489.5 523.2 557.1 583 593.9 596.7 596.3 594.9 589.5 589.2 584.2 586.7 587.5 591.6 585.9 581.8 583.8 590.8 600.8 604.5 606.1 615.2 613 613.9 615.3 614.5 609.9 613.1 620.4 614.7 608.1 608.3 596.7 590.1 577.8 562 549.3 501.4 458.4 423.9 388.9 358.3 341.6 318.6 311.3 294.1 296.6 289.8 278.7 257.6 249.7 243.3 239.1 224.3 215.5 204 199.8 175.9 156 141.8 132 127.1 95.5 79.5
525.7 557.3 586.1 618.6 645.7 681 717.9 755.9 794.2 834.8 847.3 804 767 719.2 687.4 651.8 620.9 563.8 523.3 487.4 454.6 424.2 394.2 370.4 349.6 332.6 313.8 300 287.8 277.8 274 268 264.4 265.1 265 265 264.1 266.2 262.1 264.4 265.1 266.4 267.4 269.9 269.8 272.4 273.3 276.2 282.7 288.5 301.2 316.1 333.3 354.7 379.6 411.4 444.2 491.1 540.7 591.6 614.1 611.6 602 600 602.8 601.5 597.4 593.7 595.4 590.2 588.7 599.4 603.6 607.6 612.8 617.5 608.6 596.5 587.6 583.9 585 575.5 573.9 567.1 566.4 569.9 565.4 560.7 538.2 534.1 527.4 502.5 447.5 406.9 375.7 357.9 341.3 328.6 312.6 299.4 283 271.8 254.7 241.4 230.4 219.3 212.2 203.9 195.1 188.1 182.7 177.4 173.9 168.5 162.7 165.2 166 167.8 172.1 175.6 179 170.6 180.4 194.1 209.6 225.7 244.2 263 277.5 294.6 320.2 340.5 369 402.4 435.9 465.6 494 523.9 554.4 571.7 581.9 590.7 593.4 592 588.5 587.5 581.8 581.8 581.8 586.4 581.9 581.8 581.8 595 599.5 605.5 605.5 613.1 621.7 614.4 610.8 610.3 612 618.7 618.1 615.3 605.8 604.3 602 588.3 572.9 563.9 538.6 492 452.4 428.6 390 365.1 350.7 330.7 314 301.3 302.3 283.9 259.5 260.6 257.2 253 239.7 221.2 203.8 186.8 184.9 170 156.4 142.2 125.5 114.4 98.4 79.8
515.8 549.3 583.6 613.4 640.4 676.8 712.2 755.8 792.4 832.8 834.4 798.3 758.6 715.3 680.2 642.4 596 552.2 517.5 484.5 453.4 423.1 393.4 370.4 347.8 329.2 314.6 303 289.5 280.1 273.7 265.8 264.6 266.2 267.3 269.9 266.3 266.5 264 266 266 266.5 267.6 270.9 270.4 273.4 278.2 283.8 286.1 292.6 307.5 319.3 333.5 359.3 385.2 417.3 453.9 503.3 572.3 612.3 636.6 646 638.3 624.8 614.8 613 608.5 603.4 597.6 603.5 600.1 601.7 603.6 613.1 613.8 612.5 608.7 597.8 590.4 585.1 584.8 580.4 578 577.5 585.8 582.1 574.1 567.1 557.9 539.7 526.2 500.5 447.2 409.3 382.9 355.5 339.3 326.5 310.9 298.8 282.7 271 251.7 241.1 231.2 219.8 212 201.2 194 187.2 180.3 177.2 172.9 169.7 166.4 164.1 169.8 170.5 180.8 177.1 182.1 168.7 180 195.7 213.7 227.1 243.7 262.1 282.3 299.5 320.2 349 379.5 406.8 435.6 466.7 497.2 523.6 543.7 561.5 575.4 587.7 592.4 592.4 590.9 587.9 581.8 581.8 581.8 581.8 581.8 581.8 581.8 587.4 596.7 602.3 607 619 624.1 621.6 616.1 618 622.6 624.3 623.9 617 607.1 600.2 596.6 583.7 571.1 560.3 535.6 500.7 456.9 417.2 387.8 374.5 352.8 328.8 310.2 272.2 255.1 261.4 256.5 257.1 238.3 212.1 189.7 181.7 174.9 158.8 159.2 147.8 137.3 123.4 107.8 106.9 95.3 85.3
506 538.8 575.9 607.3 635.6 669.9 707.2 750.9 788.8 824.6 824.8 787.5 747.6 708.6 671.6 635.7 595.4 544.2 509.8 478.7 450.2 420.3 392.9 367.3 346.5 328.1 312 299.6 286.6 276.3 268.6 266.4 266.4 267.6 268.7 271.3 265.5 264.2 262.5 265 266.6 266.1 267.3 268.7 269.9 275.2 280.3 284.8 291.1 296.4 311.5 322.6 337.5 363.5 390.1 424.2 467.1 512.8 592.4 623.6 650.5 660.3 653.4 641.3 640.5 631.9 618.8 617 610.9 611.6 603.2 611 615.2 618 617.1 614.5 615.5 598.1 590.2 586.1 585.2 583.8 584.2 586.6 590.6 589.4 589.5 588 574.2 555.7 528.1 494.7 448.6 410.3 385.9 355.8 339.2 321.8 306.9 296 281.7 267.9 250.6 239.8 229.3 218.2 208 198.8 191.2 184.2 179.6 175.1 173.9 171.4 167.9 165.9 169.3 173 177.9 182.8 179.3 170.5 180.1 195.9 211.1 229.9 248 267.5 285.8 303.3 325.3 353.8 384.7 412.5 443.2 473.1 503.4 525.1 546.1 564.8 581.2 589.4 594.9 596.2 594.3 591.4 585.7 581.8 581.8 581.8 581.8 587 582.4 585.1 600.2 612.6 619.9 627 630.7 635.9 626.7 632.5 629.2 631.2 627.1 620.5 608.3 594.5 588.1 576.9 570.5 559.2 541.5 505.5 483.7 457.1 416.8 400.4 367.8 341.3 317.4 286.1 293.6 299 299.3 287.5 270.5 252.2 229.4 210.5 200 190.6 181.8 168.3 155.7 142.7 129.7 116.9 104.2 97.6
497.1 527.8 567.7 599.5 629.9 666 703.3 741.5 782.6 806.4 805.8 773.5 737.4 700.2 663.2 628.4 591.4 547.8 507.3 473.7 445.4 417 388.3 363 342.8 323.5 310.4 294.9 283.1 274.8 269.8 268.4 267.1 269.3 269.5 268.7 267.9 266.3 264.1 264.3 264.9 266.4 267.7 269.6 271 276.9 282.1 286.7 294 302.8 314.5 328.4 345.7 369.4 393.8 427.2 473.3 527.9 597.6 631.4 655.1 662 657.6 654.3 655.6 647.4 638.8 634.3 623 616.6 611.3 620.3 621.5 627 624.7 617.4 614.4 599.2 597.5 592.7 588.2 587.3 594 605.7 607.2 600.4 606.1 607 597.4 573 536.7 497.6 446 411.5 382.9 352.4 339.7 319.5 304.1 291.6 276.9 264.4 252.8 241.5 229 217 205.6 195.6 188.5 184 179 176.1 178.5 172.6 169 165.9 169.7 173 177.1 177.8 179.9 170.4 183.3 197.5 215.4 232.9 251.2 268.3 288.5 308.5 331.8 358.4 387.6 418.3 449.2 478.2 504 525.7 549.9 571.1 588 602.2 602.7 599 594.7 597.3 588.7 583.3 581.8 581.8 581.8 586.6 586.2 594.1 608.7 618 625.3 638.4 648.8 650.4 646.4 647 643 640.8 628.5 620.8 614.9 599 592.3 572.2 570.1 557 548.5 537.2 511.9 493.8 470.6 421.9 389.8 361.2 332.7 294.4 323.4 326.7 320.5 311.7 293.8 273 252.6 234.6 220.2 209.7 197 182 164.6 150.4 138.5 127.7 118.1 106.9
