ncols 200
nrows 82
xllcorner 200000
yllcorner 870850
cellsize 50
312.7 334.5 360.1 387.5 423 461.7 494.2 521.8 558.4 588.9 616.5 659.5 698.7 749.3 897.6 955.4 946 934.4 923.8 911.1 895.2 873.2 841.9 831.2 817.5 801.1 788.1 776.5 765.5 750.3 739.5 733.8 734 726.9 722 713.4 688.2 655.1 647.4 647.1 623.9 606.4 605.3 607.6 598.3 588.9 583.9 580.5 576.7 567.2 554.6 539 518.8 500.8 492.8 478.9 446.4 429 417.3 395.4 368.8 337.3 313.7 295.9 281.5 271.8 264.7 255.5 245.4 239.2 236 233.9 233.6 235.4 240.1 248.9 254.2 257.8 258.1 264.6 269.3 275.8 287 302.6 311 316.3 330.2 344.3 364.4 385.4 412.4 433.8 455.3 472.7 491.3 507.3 524.9 545 566.8 589.2 616.5 635 666.4 705.2 738.6 770.5 804.7 835.8 867.3 901.3 919.6 905.1 891 878 867.4 856.8 846.7 835.6 825.1 819.7 818.9 817.6 814.3 800.6 787 773.6 751.8 731.2 713.4 697 683.7 674.7 663.1 648.3 629.5 621 610.6 600.2 590 577.9 562.5 547.5 534.7 518.8 501.1 478.3 452.7 435.2 412.8 387.8 362.2 337.6 318.6 300.9 286.1 274.5 265 255.2 251.3 248.7 248.1 249.3 250.7 259.7 268.9 289.1 304.1 338.2 367.5 410 461.4 504.7 538.1 561.3 580.8 601.9 631.9 657.8 674.2 675 671.1 668.9 673.8 679.2 683 690.3 707 721.7 735.5 744.7 751.6 756.2 758.8 760.6 760.3 755.5 755.5 755.6 748.1 734.4
311.3 330.7 354.4 381.1 411.7 445.6 478 514.4 557.7 614.9 665.3 693.5 750.6 833.7 949.3 957.8 942.1 929.5 919.2 905.3 890.3 875 857.6 841.5 824.8 806.1 795 781.3 769.3 756.4 741 730.3 726.6 721.6 713.3 701.7 665.7 644.3 645.3 641.1 612.3 600.9 603.6 606.8 602.6 582.1 568.9 570.2 576.1 562.9 547 532.9 516.6 497.7 474.2 459.4 435.1 417.1 402.1 383.6 348.4 324.1 301.5 285.3 273.2 263.5 256.1 248.2 242 238.2 236 236.6 240.4 246.8 255.5 260.5 263.7 265.9 270.2 271.7 279.7 285.5 297.7 314.4 316.8 329.8 344.8 358.3 380.9 400.1 423.8 447.8 468.7 488.7 501.3 517.5 532.8 555.2 575.8 602.7 626.9 647.1 680.5 719.1 755.1 788 821.8 855.4 890.7 918.5 934.1 925.7 909.5 903.6 891.9 881.5 870.1 858.2 847.8 839.7 831.6 825.4 818.2 803.6 787.9 769.8 749.2 730.9 713.4 700.7 690.8 678.4 662.8 643.8 627.6 623.5 613.8 600.4 586.3 574.5 560.2 546 530.6 512.9 495 477.9 456.8 443 429 409.9 375.8 343.6 322.1 305.6 291.4 276.5 264.8 258.9 254.4 247.9 246.6 246.9 248.4 254.6 266 281.1 307.2 331.2 355.2 391.2 438.9 495.3 530.9 553.3 578.5 600.9 636.7 661.1 671 669 665.6 667.4 674.8 674.3 673.6 680 691.3 704.7 719.1 728.7 735.2 740.2 744.7 747.5 750.6 749.1 749.6 750 741.3 726.4
314.6 331.6 352.1 378.3 404.1 433.5 462.5 516.5 565.4 604.6 644.9 724.9 789.8 859.1 893.9 947.6 933.5 923.3 912.6 898.3 884.3 869.8 856.8 845.7 834.9 820.2 803.9 795.6 779.3 771.7 755.5 729.9 722.4 711.2 697.1 684.2 663.4 641.8 638.4 627.7 613.5 599 599.7 603.8 594.6 564.5 554.5 557.9 559.8 553.7 538.6 520.5 503 476.6 457.5 441 426.9 403.4 389.9 363.9 334.8 313.6 292.8 275.9 266 258.7 252.2 244.6 237.9 238.9 240 241.1 248.3 258 268.5 276.1 274.2 274.3 278.2 284.5 292.3 298.4 309.8 312.1 328.4 345.9 355 371.4 391.1 413.5 434.2 457.1 479.1 497 511.5 528 543.8 565.2 584.4 611.3 635.8 662.6 693.7 732.1 768 805.5 839.6 876.2 909 940.9 953.3 941.8 930.1 923.5 917.6 904.5 889.4 875.6 862.8 850.4 840.2 832 821.4 805.4 789.2 769.6 749.4 732.9 717.9 704.5 692.7 679.1 662.9 643 632.6 625.4 611.6 598.6 585.5 572.1 558.4 541.9 525.9 509.8 493.1 475.5 456.4 443.5 429.3 415 386.9 351.6 327 312.7 299.1 283.8 271.1 261.9 254.6 249.3 245.5 245.5 246.3 252.7 264.6 285 308.2 325.4 350.9 381.8 417.7 473.8 511 549.9 575.2 597.9 636.6 660.2 662.4 661.7 663.4 671.1 672.1 665.3 660.5 664.7 674.5 687.4 700.1 708.3 717.2 724.1 730.9 736.4 740.6 741.4 742.3 741.6 733.6 721.8
318.2 332.2 350.4 369.3 394.8 422.8 461 503.8 555.8 592.3 654.7 731 778.9 805.2 852.4 927.9 920.5 913.5 904 890.5 876.9 864.1 852.9 843.6 835.8 825.1 812.8 805.6 789.5 775.4 763.6 748 719.2 695.8 687.6 680.3 662.3 643.6 636 621.6 612.4 600.8 599.7 594.8 567.9 545 537.6 534.9 536.8 534.9 526.6 500 483.7 459.1 445.5 430.9 400.7 388 368.3 344.7 318.3 300.6 284.4 270.4 257.9 253.3 248.5 242.4 246.3 245.9 247.5 246.7 258.9 266.9 276.7 282.2 284.9 287.1 292.1 299.6 308.6 315.1 323.6 318.3 336.5 350.1 362.3 381.6 405.2 423.4 442.9 466.7 489.6 507.2 523.4 538.7 558.1 576.7 601.7 621.8 644.5 677.7 712.5 748.8 778.1 806.5 852.2 894.2 928.7 956.8 962.9 956 947 942.3 935 918.3 901.5 884.8 870.5 857.9 847.7 837.5 825.8 808.1 792.2 771.4 754.2 740.4 725.2 709.5 693.7 680.8 664.1 647.2 636.3 620.4 608.7 595.1 581.5 569.9 555.4 540 525.7 509.5 492.3 473.2 455.7 442.5 428.3 413.7 394.2 354.5 332.1 309.9 296.4 284.7 272.2 262.3 256.5 249.5 245.5 245.5 245.5 250.2 262.2 276.8 299.9 319.4 344.7 378 414.5 451 487.9 534.6 567.8 594.5 631.8 656.6 659.2 656.4 659.1 665.5 661.4 653.8 645.4 645.9 653.7 666.7 679 689.4 699.8 708.6 717.1 724.4 731.9 734.3 735.2 732.5 725.4 717.5
327.8 334.9 344.9 359.8 383.1 410.9 454 517.4 548.6 582.3 651.8 704.1 751.1 813.2 851.6 891.6 901.7 903.3 897.1 885.4 870.5 858 847.8 840.5 833.1 825.4 815.8 806 795.1 780.6 767.2 756.5 730 707 677.3 667.9 664.9 651.7 643.3 625.1 613.7 604.9 606.4 598.4 560.7 526.9 524.4 508.3 507.4 509.3 501.6 484.1 468.1 446 426.8 411.2 381.9 356.8 345.5 326.9 305.6 292.9 273.3 262.9 256.6 252.5 247.3 249.1 252.8 253.9 256.8 258.1 271.9 278.2 288.9 291.3 294.8 302.7 309.7 314.9 330.3 341 332.4 337.6 346.9 362 374.9 394.1 418 439.2 457.9 479.6 500.5 518.1 533.5 546.1 566.5 587.6 614 636.1 658.5 693.9 732.3 769.5 805.8 838 869.8 898.3 922.3 952.9 965.4 967.6 965.1 959.2 945.5 927 907.9 889.8 873.6 862.4 851.5 838.8 825.8 811.3 794.1 775.7 759.5 743.8 727.5 711.1 694 679.2 661.1 646.7 635.1 620.1 606.9 595 581 568.8 555.3 540.2 524.6 508.5 491.6 472.6 456.5 443.9 429.2 414.1 395.9 357.2 332.8 319 299.9 282.9 270.9 264.3 258.8 252.1 245.5 245.5 245.5 249.2 258.4 274.9 297.4 317.6 340.6 371.7 407.9 443.3 475.7 515.3 556.6 592 627.8 653.2 656.3 651.2 651.1 651.5 648.4 639.5 631 628 633.3 646.1 656.9 670.6 682.6 692.5 702.2 712.8 722.5 726.8 727.4 723.9 716.9 716.5
342.5 344.9 345.9 357.4 379.5 410.1 489.7 518.3 549.2 583.6 651.7 702.1 758.3 800.6 816.8 855.6 877.7 892.5 892.2 879.2 868 853.7 842.5 835.9 828.7 821.4 814 805.1 795.1 783.9 770.1 760.8 740.3 712.2 690.9 678.3 664.3 651.9 645 636.7 626.7 610.3 603.7 589.4 556.7 511.8 496.9 490.8 490.3 485.2 475 467.8 451.3 430 406.5 388.8 362.9 340.8 321.3 306.1 292.9 276.6 267.3 258.5 256.8 256.8 257.5 259.5 262.3 263.2 267.5 276.4 288.6 293.1 300.2 310.7 318 323.1 327.3 335.2 352.6 349 340.6 354.2 359.2 373.5 389 406.1 427.4 452.2 470.1 487.3 510.2 525.8 541 551.5 574 596.8 622.7 646.3 675.9 710.5 750.4 788 826.5 861 897.3 928.2 951.9 962.7 971.9 976.5 978.6 968.7 950.5 929.9 910.4 891.8 875.3 862.4 850.5 837.2 824.2 809.9 795 776.7 758 742 725.8 709.2 693.4 674.6 657.1 645.2 631.6 617.8 605.1 594 582.1 567.9 553.4 539.1 522.4 504.7 488.5 470.4 456.3 444 429 413.6 396.1 367.6 337.2 316.6 302.8 287.7 273.9 267.4 260.4 251.6 245.5 245.5 245.5 245.5 254.1 269.9 299.5 319.4 336.1 360.4 395.9 436.6 467.4 510.3 546.9 586.9 629.7 653.3 652.9 644.8 641.7 638.5 634.2 626.4 619.7 613.9 617.8 628.2 638 651.6 664.4 675.6 687.5 700.9 711.7 718.1 718.6 715 713.7 713.8
362.7 364.3 357 362.1 380.3 446 477.5 516.4 545.2 576.9 633.6 684.3 726.2 752 815.2 834.1 843.4 873.4 885.9 873.4 862.8 849.1 838.3 830.8 823.8 817.2 810.9 803.4 794 783.6 771.5 759.6 747.3 723.8 700.9 691.1 684.1 679.7 678.5 657 628.8 609.1 599.7 574.8 556.8 497.6 481 475.2 470.7 464.2 457 448.2 436.8 412.1 390.8 371.6 346.5 328.6 312.4 295.1 283.7 275.8 269.8 266.4 261 264.6 270.8 272 274.1 278 283.9 295.6 307.4 313.6 326.2 333.7 338.8 346.7 347.8 361.5 373.4 356.8 354.6 362.5 371.3 388.5 400.9 416.7 442.4 460.6 481.6 495 516.4 532.9 544.9 556.8 577.9 600.6 627.3 655 688.6 724 762.1 794.9 826.1 864 906.5 941.6 964.8 973.2 978.9 982.5 982 971.4 951.3 930.2 909.2 890.5 874 861 847.3 834.2 821.1 807.9 795.1 776.5 756.5 739.6 723.4 704.5 685.1 664.8 658.6 642.7 629.8 616.6 605.7 594.6 581.2 566.4 551.7 536.5 519.1 501.2 485.7 468.6 455.6 445.4 430.5 415 395.5 371.4 346.4 316.3 298.6 286.6 275.9 266.1 257.2 250 245.5 245.5 245.5 245.5 253.8 268.1 292.1 305.8 327 350.3 383.1 422.3 462.4 501 536.7 582.3 626.2 653.5 649.4 642.6 634.3 629.9 625.5 616.7 607.4 600.3 603.2 611.2 621 634.4 647.7 660.6 674.3 688.9 701.6 709.3 711.1 708.6 710.5 713.1
427.9 417.3 378.3 371.8 392.6 438.7 463.2 492 533.9 580.2 622.4 662.1 693.9 758 787.8 796.9 817.1 844.9 871.9 868.7 856.7 845.2 834.5 826.3 818.9 812.8 806.4 798.7 792 782.3 772 758.9 751.3 742.3 730.9 718.5 709.4 705.9 702.7 695.8 679.1 645.3 607 566.6 539.8 489.8 473.5 465.5 456.9 451.5 442.7 432.3 418.1 399.1 375.3 353.9 334.8 316.9 300.7 289.9 284.8 280 278.5 270.1 270.1 276 280.3 283.1 289.5 296.7 299.4 314.9 324.8 335.4 349.8 351.3 353.6 362.3 371.6 385 383 365.3 367.6 372.7 380.4 398.7 410.5 430.7 455.2 470 488.4 503.9 522 538.6 547.6 562.2 579 605.3 634.1 663.3 698.6 738.6 778.6 814.3 850 885.6 912.9 945.4 971.5 982.2 983.1 984.1 982.2 969 948.3 926.5 906.5 888.7 872.6 857.7 843.4 830.4 818.4 807.4 795.7 777.8 756.9 738.2 719.7 702.8 678.7 659.2 646.3 636.4 626.3 615.1 604 591.5 577.8 566 552.6 536.5 516.1 498 481.7 468.4 455.2 444.3 429.4 414.5 395.1 369.9 345.7 318.5 300.2 286.3 274.7 264 256.5 250.3 245.5 245.5 245.5 247.6 254.7 266.8 282.2 300.2 319.3 343.8 379.2 412.2 450 490.9 526.2 579.1 621.9 650.1 643.5 637.6 633.1 627.7 617.5 608.1 598.5 587.6 587 595.2 606.1 616.7 628.7 644.5 662.5 680.4 692.8 701.3 704.9 705.4 707.8 708.2
458.6 442.2 397.2 384.4 392.7 417.1 443.9 484.5 534.5 586.3 615.6 639.5 678.6 719.8 738.8 758.3 788.9 808.9 834.4 858.7 850.1 840 829.3 820.4 813 807.2 801.6 796 788.5 780.4 772.9 764.2 756.4 749.9 742.5 733 721.2 715 709.8 704.4 700.7 683.1 649.8 604.2 529.8 504.1 473.5 457.4 453.9 438 423.8 418.6 403.4 382.5 363.3 344.3 327.4 322.4 311 300.5 292.5 289.1 283.9 278.3 285.2 292.4 293.4 298.5 303.6 307.7 320.2 334.5 342.8 356.8 361.9 365.7 373.7 377.8 392.8 400.8 389.4 374.4 377.3 381.2 393.4 412.1 424.4 444.7 461.8 479.5 496.8 511.1 528 543.6 551.5 566.4 581.7 611.6 638.8 671.4 710.1 753.4 795.1 829.8 864.5 899.2 936.9 960.2 979 983.8 984.3 984.6 980.4 964.5 944 922.2 902.5 883.9 868.1 853.8 840 827.3 816.8 805.3 794.6 779.5 758.1 737.2 717.1 697.8 677.1 658.3 642.8 631.8 622.7 613.2 601.3 588.4 576.6 566.6 555 536.6 512.9 496.6 481 467.3 451.9 439.7 425.7 410.5 390.8 369.4 344.2 318.7 300.9 286.8 274 262.5 254.3 250.6 245.5 245.5 245.5 246.8 252.8 264.6 277.8 296.1 315.5 338.5 366.6 401.2 438.3 481 517.7 570.4 614.8 643.6 637.1 635.1 632.5 622.9 609.3 596 589.9 577 569.8 578.6 588.3 602.8 614.3 631.8 651.3 669.6 683.3 692.3 697.1 699.1 699.7 698.7
468.4 447.3 408.8 397.6 402.4 409.9 431.3 459.9 506.1 557.6 590.9 616.3 638.4 666.3 712.3 735.7 756.5 778.5 801.5 836.1 840.7 833.1 823.2 815.1 807.4 801.9 796.7 792.6 788.1 782.3 777.1 770.6 764.3 756.5 746.1 734.5 721.7 715.1 708.9 703.2 700 687.8 669.5 635.6 558.7 515.6 469 455.7 446.5 431.6 417.7 404.1 390.9 370.5 357.4 352.1 348.2 337.6 323.9 309 302.1 294.1 287.9 293.6 303.3 305.5 303.6 309.2 316.1 329.2 344.7 351.5 361.9 370.7 375.5 380.7 391.6 399.7 407.4 411.1 397.2 386.1 383.8 390.9 402.7 421.3 439 453.8 472.8 489.8 504.7 517.1 532.1 546.8 558.4 572 587.2 614.8 646.3 680.9 721 767.7 808.8 846.3 882 915.8 949.1 973.9 984.3 983.8 983.6 978.9 962.1 945.1 928.3 912.4 896.1 879.5 861.6 848 835.9 824.1 814.1 802.3 789.7 777.8 759.2 735.6 715.1 694.9 675.2 654.9 640.5 629 620.8 611.3 598.4 585.8 576.1 569.2 554.9 534.4 514 496.9 481.5 467.4 451.3 438.1 422.1 406 386 366.9 342.2 317 296.2 282.5 272.1 261.3 254.4 249.5 245.5 245.5 245.5 245.4 252.6 259.8 271.7 292.8 314.2 333.8 361.5 394.8 433.9 477.2 520.6 566.5 613.9 638.3 637.2 632.5 625.1 613.9 600.6 590.9 581 564.1 553.1 563.9 579.5 588.1 604 622 640.5 658.8 672.4 681.6 686.6 689.5 690.2 689.2
464.3 445.4 418 417.5 417.8 419.7 431.2 449.1 478.5 526.6 554.6 576.3 634.6 665.8 692.9 704 723.3 747.2 778.6 813.9 829.3 824.8 815.6 807.1 801.1 795.7 792 789.8 787.8 784.7 781.4 775.4 767.3 756.3 745 728 714.7 709.5 705.2 701.4 691.9 686 670.6 650.3 610.6 577.1 509.6 455.3 444 431.8 420 403.6 394.5 385.8 375 367.4 362.7 348.9 330.4 318 309.3 300.8 301.1 311.1 312.2 312.4 317.4 331 340.5 357.2 364.7 366.7 378.9 386.1 390.6 397.9 406.6 419 421.5 415.3 405.3 395.4 390.2 398.4 409.8 427.4 446.5 461.8 483.4 501.5 509.5 521.5 535.5 550.6 563.6 576.8 594.6 619.8 650.3 683.9 727.6 770.3 808.6 847.2 885.5 923.6 953.3 971.5 978 979.1 971.6 954.9 934.9 916.3 898.9 883.7 870.2 858.6 848 836.8 824.4 816.5 806.4 794.7 780 767.6 753.9 734.1 713.3 693.3 672.4 653.5 638.3 627.5 618.1 608 596 586.8 579.1 570 555.2 535 515.8 497.1 481.9 468 451.6 437.7 421.5 402.8 382.7 364.2 340.1 315.2 294.5 281.6 272.4 263 254 249.5 245.5 245.5 245.5 245.5 249 258.8 268.2 288.9 309.7 328 355.1 385.2 430.8 473.3 521.3 565.7 613.1 629.4 627.8 620.3 610.6 602.7 594.6 587.2 577.4 557.9 543.8 559.7 568 578.4 593.6 612.7 631.2 648.5 661.1 669.5 674.6 677.2 678.3 678
447.2 432.4 414.3 414.7 417.6 440.3 437.8 436.7 460.6 490.8 516.8 572.8 623 647.5 662 673.7 690.4 720.8 759.7 800.4 810.9 813 804.8 797.1 792.1 788.8 786 785.8 786.9 786.2 782.5 775.1 764.1 751.6 735.1 713.6 699.6 695.1 692.1 692.1 683.2 665 660.7 637.6 624.9 605.7 534.6 471.5 447.7 434.5 427.6 417.7 404.3 394.8 385.6 375.3 366.8 353.4 338.6 328.7 318 312.6 320.3 322.6 326.5 337.2 352.7 361.5 373.2 382.8 379.4 386 393.1 398.9 404.7 416.4 423.4 430.7 429.6 419 409.9 408.5 395.1 402.9 416.6 432.2 453.4 469.9 486.9 504.7 512.2 523.9 538.5 554.3 565.3 578.4 598.4 625.3 654.8 685.7 724.7 766.1 806.7 842.9 878.2 913.9 947.6 961.1 962.6 960.3 947.7 929.6 908.9 888.7 871.3 856.3 842.3 830.6 820.9 811.2 802 794.8 788.1 783 771.5 760.1 747.3 729.4 710.3 689.5 669.9 651.6 636.5 624.7 614.4 604.5 596.1 590.2 581.3 573.6 560.1 539.2 514.4 497.1 482.5 468.4 454.4 440.2 421 403.3 382.8 363.5 338.3 311.3 291 278.6 272.1 262.3 255.3 249.3 245.5 245.5 245.5 245.5 245.5 253.9 267.1 282.9 306.6 326.1 350.7 380.2 417.2 470.5 523.6 570.9 603.4 612.5 611.5 605.7 599.1 592.6 586.4 582.2 572.1 549.8 534.8 544 556 566.4 584.9 603.2 620.5 637.7 649.6 656.5 662.2 664.9 665.6 664.6
426.5 420.9 413.9 413.9 423.3 425.8 429.6 436.8 447.2 470.8 494.8 550.4 576.6 609.9 625.4 642.5 665.7 713.7 765.3 779.1 785.1 792.6 788.8 785 781 779.2 778.5 781.2 784.5 784.1 778.9 767.3 755.8 738.8 717.4 700.5 689.6 684.5 678.1 674 660.9 639 628.4 608.2 605.6 571.4 500.9 469 449.7 442.4 439 433.8 425.6 415.5 393.4 380.3 369.6 361.2 350.8 341.8 335.8 331.4 336.3 339.1 354.9 369.3 380.7 388.5 394 395.2 394.9 401.7 410.9 415 423.1 437.4 445.1 441.8 439.7 429.1 418.1 416.5 408.5 409.1 426.8 443.7 460.6 477.1 492.1 505.7 517.3 528.9 541.6 557.2 567.3 580 600.8 624.9 656.8 692.2 734.8 772.4 809.1 844.6 880.6 915.2 942.8 947.2 945.5 936.7 922.7 904.8 884.6 863.9 844.8 829.4 815.7 803.3 793.5 784.8 777.9 771.5 766.2 763.5 760.2 752.8 740.2 724.8 705.4 686.9 669.3 651.3 635.1 623.3 611.9 604.7 598.4 590.6 582.9 575.1 564.2 544.5 519.8 501.7 488.2 475.5 459.6 443.7 423.6 403 384.1 364.9 339.6 313.4 295.5 281.3 270.2 263.5 253.4 249 245.5 245.5 245.5 245.5 245.5 252.1 262.5 279.8 298 319.2 344.5 373.1 410.3 464.7 521.9 566.2 592.1 596.7 597.4 595.8 589.4 585 581 576 563.8 547.2 527.8 529.4 543.7 557 575.8 593.7 612.9 627.4 637.7 644.5 649.6 652.7 652.6 652.3
416.7 419.4 413.9 413.9 413.9 413.9 415.1 425.3 437.6 451.1 470.8 523.9 548.8 580.7 586 610.9 652.2 697 731.2 753.6 761.3 763.9 768.1 770.4 770.4 770.1 770.2 776.2 779.8 776.1 768.3 756.5 744.8 725.4 706.1 694.1 684.7 672.1 658.8 649.7 636.2 614.9 586 571.2 556.2 515.3 478 464 454.4 450.3 447.7 446 440.8 438.1 426.7 395.5 382.8 375.4 368.3 362.1 352.7 347 355.1 369.3 386.7 398.2 408.7 416.3 418.6 418.5 412.6 421 426.2 431.5 445.4 457.3 461.5 459.7 447.8 438.3 428.3 428 420.8 414.4 431.1 449.8 467.6 483 496.5 509.8 521.5 536.2 544.4 559.7 570.7 584.2 605.2 630 658.5 700.1 741.1 776.9 811.7 846 880.6 913.7 930.6 931.2 924.7 913 899.4 880.1 862.2 840.4 819.5 804.1 789.2 777.4 768.8 762.8 756.5 749 744.1 739.2 736.4 735.6 727.4 715.2 700.5 684.5 667 649.7 634.5 621 611.7 606.1 598.6 588.8 584.3 579.3 578.1 561.5 527.9 510.3 498.3 480.8 464.2 446.6 424.8 402.8 383.6 364.6 338.1 314.3 296.9 282.8 269.4 260.4 251.6 248.3 245.5 245.5 245.5 245.5 245.5 254.1 261.3 276.2 297.9 314.4 337.6 367.2 402.1 456.5 507.8 556.5 583.5 585.4 588.5 585.6 582.5 577.7 574.5 566.4 550.9 539.2 521.5 510.6 528.9 545.8 561.4 583.8 601.8 617.1 625.9 631.8 636.4 639 641.3 640.9
413.9 413.9 413.9 413.9 413.9 413.9 413.9 413.9 422 436.7 451.2 491.4 520.1 540.2 557.1 584.5 628.5 664.8 700.1 719.6 728 740.9 745.7 752 757.8 759.4 764.2 772.4 774.4 765.6 755.6 744.1 731.3 713.2 695.7 682.9 674.5 654.3 640.8 629.9 612.2 585 555.9 539.1 519 487.2 470.1 459.5 457.7 452.5 449.7 451 449.7 444.5 437.8 431.4 410.2 403.6 390.2 379.6 364 373.7 393.3 404.9 417 428.2 434.4 436.2 435.5 435.2 435.1 437.1 442.9 452.9 464.1 474.2 473.8 478 458.6 446 443.9 441.4 434.2 423.7 435.8 454 470.2 487.6 501.4 514.1 525.8 539.3 547.3 563.2 574.4 586.9 607.3 631.5 663.9 701.7 745.9 779.1 812.5 847.3 880.5 908.4 915.1 910.9 901 889.9 875.3 858.5 839.7 819.2 797.5 782 765.9 753.1 743.5 737.4 731.5 724.4 719.3 713.2 710.7 708.8 706.7 700.7 690.5 678.8 663.8 646.5 631.3 617.7 611.9 606.6 597.4 591.3 586.2 584.8 588.7 575.7 553 530.2 510.2 490.4 466.6 451.5 427 399.1 380.8 362.4 337.4 316.1 295.6 283.6 270.3 261.6 254.4 249.8 245.5 245.5 245.5 245.5 245.5 248.8 254.6 270.5 293.7 311.6 332.7 360.8 398.8 450.8 503.7 552 577 578.4 579 575.9 575 571.1 567.3 558.2 543.8 532.2 510.3 498.2 519.7 535.9 550.2 562.4 587.5 601.6 612.6 619.6 623.4 626.2 627.7 628.2
413.9 413.9 413.9 413.9 413.9 413.9 413.9 413.9 413.9 418.2 435.9 451.3 475.3 500.1 520.1 548.2 592.8 625.8 658.3 689.6 712.1 720.7 729.8 740.3 742.6 744.3 753.2 769.5 768.2 754.2 740.7 726.8 716.7 698.4 683 669.6 656.1 637.5 625.5 604.1 584.9 564 529.7 513.7 495.9 478.2 463.1 454 452.6 452.8 453.5 456.3 457.7 456 454 455.1 453.2 442.7 429.1 402.3 376.5 405.1 422.4 437.4 447.7 451.6 453.8 452.1 455.9 450.4 452.3 455.7 461.3 472.5 478.9 488 490.3 486.6 473 458.3 451.5 445.2 436.3 430.9 441.5 455.5 472.2 488.9 504.1 517.6 526.5 540.8 547.9 564.6 577.9 590.6 607.4 632.6 668.7 701 742 781.5 814.1 845.6 874.5 890.7 891.1 888.2 877.8 867.4 852.6 834.3 817.1 798.1 777 760.6 742 729 723.7 721.5 718.1 709.7 701.5 696.2 690.7 685.1 680.7 675.7 672 668.5 659.3 642.8 629.3 616.7 609.7 604.7 595.4 593.3 589.8 599.4 616.8 599.8 572.8 545.1 518.8 498.1 476.8 450.9 427.9 399.5 378.4 360.3 336.6 316.2 297.4 284.1 271.4 263.5 256.1 250.7 245.5 245.5 245.5 245.5 245.5 247.3 254 268.3 289.7 307.5 327.7 359.8 402.8 444.1 492 546 567.8 572.3 572.2 572.2 571.4 566.3 560.7 552.6 538.4 522.8 503.3 482.9 501.4 516.3 532.1 542.6 563.8 585.3 596.9 605.4 609.2 612.2 613.3 613.7
413.9 413.9 413.9 413.9 413.9 413.9 413.9 413.9 413.9 413.9 417.4 436.1 459 473.7 492.5 518.6 563.2 594.5 634 675.3 693.7 701.7 712.7 725.5 732.1 732.2 740.1 756.2 761.8 744.7 724.7 712.4 703.8 687.2 669 656.3 642.8 629.9 616.1 589.4 562.5 537 510.7 496.1 485.9 472.1 460.9 453.7 451.7 452.1 453.9 459.8 464.6 468.5 468.5 470.6 484 480.7 454.1 418.6 395.2 436.6 454.5 462.4 463.7 463.2 465.3 468.7 468.9 470.6 473.6 474 479.3 489 496.2 500.2 501.9 494.8 476.5 464 454.3 447.3 438.7 438 445 456.8 473.6 492.2 508.2 518.8 531.7 541.9 557.1 565.6 579.2 591.7 608.7 629.5 663.6 703.7 745.2 786.7 817.2 836.5 857.6 872.4 868 860.7 855.5 844.3 829.5 812.6 798.6 781 760.3 744.5 731.3 722.9 721.5 715 707.9 702 694.2 687.3 680 671.9 665 660.2 657.1 650.7 648.8 639.5 626.8 613 605.8 599.9 596.9 593.8 593.5 615.9 645.5 637.9 611.7 565.8 531.7 500.5 478.5 455.7 430.1 403 377.4 357.8 335.7 318.2 296 285.9 272.1 263.3 256.4 250.5 245.5 245.5 245.5 245.5 245.5 246.7 250 268.9 291.5 308.3 330.9 367.3 418.8 451.6 487.4 546.9 565.2 568.2 569.7 568.9 564.2 559.5 556.3 548.5 534.7 520.5 501.2 473.8 478.8 494 511.2 526.2 545.3 572.1 580.4 588.3 593.7 596.4 597.5 597.8
413.9 413.9 413.9 413.9 413.9 413.9 413.9 413.9 413.9 413.9 413.9 424.8 441.7 452.7 469.1 496.6 530.7 569.5 616.7 639 656.8 675.1 697.4 712.2 719.3 717.7 722.3 738.5 743.4 733.4 712.1 700.8 690.8 674.6 656.5 646.6 633.9 624.8 604.4 564.8 543.4 527.5 502.8 489 475.8 464 459.1 453.5 452.5 452.1 455.7 462.7 467.4 471.8 475.7 489.1 503.9 492.3 447.7 409.4 438.9 468.9 475.2 478.1 479.7 477.2 476.2 476.3 484.5 489.3 485.3 489.5 494.9 501.8 508.9 512.6 514.3 502.6 485.1 466.6 456.4 448.9 440.2 438.7 446.4 459.8 475.3 495.5 510.1 519.7 531.6 545.1 558.9 566.8 581.2 593.3 608.9 632.7 661.1 698.5 745.8 789.1 811.4 825.2 845.8 850.8 844.9 837.7 831.3 821.1 811.2 799.6 785.8 761.7 752.3 737.6 725.4 719.9 715.7 707.7 700 692.6 683.5 674.5 666.1 659.6 653.8 646 640.2 635 629.7 626.1 622.2 608.5 601.2 594.6 595.4 592.5 596.9 617.2 632.4 637.7 627.8 586.5 541.4 506.6 478.9 455.9 434.3 404.8 380.9 359.4 335.9 317.5 299 290.4 273.8 265.4 258.9 251.8 245.5 245.5 245.5 245.5 246.3 245.5 247.5 263.3 283.3 307.4 337.9 372.8 420.9 453.2 509.3 554 567.3 568.9 565.1 561.7 557.5 553.2 549.2 543.3 532.9 518.3 501.3 472.3 454.7 474.4 494.3 510.9 528 550.6 562.4 570.7 574 576.7 578.4 579.9
413.9 413.9 413.9 413.9 413.9 413.9 413.9 413.9 413.9 413.9 413.9 416.3 427.9 437.7 451.5 475.1 507.6 554.4 591.1 614.5 623.8 654.4 677.2 694.8 700.1 700.4 699.8 712.7 719.8 716.4 697.9 687.3 676.8 661.2 648.4 638.8 626.7 616.4 596.2 555.5 535.2 519.2 500.8 484.6 470.2 458.9 455.4 454.9 453.4 452.7 456.1 465.2 471.1 479 485.1 497.8 502.7 462.9 431.2 456.8 482.4 492.9 493.8 494.2 492.7 490.4 498.7 506.7 515.3 511.4 501.2 504.5 510.4 515.9 524.2 526.3 524.6 512.8 492.9 474 460.5 449 443.7 439.8 445.6 460.1 475.3 494.5 512.7 522.6 533.3 548.5 561.4 571.7 586.2 598.6 610.1 634.4 666.1 702.6 756.4 797.1 810.4 821.8 830.4 832.3 826.1 818.4 812.6 806.9 799.2 789.3 771.4 753 736.2 724.6 718.4 711.6 704.3 697.5 690.5 682.8 672.3 660.5 652.2 647.5 642.1 635 627.2 619.7 613.6 608.9 604.8 598.7 589.3 587.4 590.4 587.6 590.7 599.6 608.2 615.7 611.7 597.5 551.4 513 482.1 454.3 434.6 406.7 382.5 363.6 339.5 319.5 302 290.6 275.6 266.1 261.8 254 246.5 246.3 246.6 246.6 246.1 245.7 247.9 262.4 282.3 305.6 338.3 371 408.7 458.3 529.8 558.5 566.9 564.7 560.4 559 554 549.1 542.9 537.2 531.1 517.7 501.6 475.3 447.5 458.9 477.9 494.1 509.6 524.1 537.2 548 554.1 556.8 559.4 558.9
415.1 429.1 413.9 413.9 413.9 413.9 413.9 413.9 413.9 413.9 413.9 413.9 413.9 425 437.9 456.4 489.5 537 565.4 588.8 601.4 624.2 657.8 684.4 687.5 681.7 684 686.2 693.1 693.2 681.2 671.9 662.6 650.9 641.7 634.5 622.5 612.6 599.7 556.3 530 512.4 498.6 486 468.1 461.1 456.9 457.6 457.8 456 458.6 466.4 477.8 486.3 494.4 499.7 482.9 450.8 481.1 506.9 513 517.5 515 516.9 529.1 525 531.2 553 540.6 529.9 517.8 520.7 527.2 530.7 541.7 537.6 532.3 521.2 500.3 477.9 466 453.8 450.4 443.9 446.8 460.1 476.3 496.3 513.5 525.7 537.1 550.1 562.6 574.9 588 602.3 615.9 638.8 668.7 710.8 760.9 796.1 809.4 821.2 821.3 815.5 809.5 802.8 798.4 793.4 787.5 777.2 758.5 743.3 728 717.6 711 705.2 700.3 693.8 685.7 676.4 666.2 656.3 650 641.7 633.5 624.5 616.4 605.4 597.9 593.2 587.6 585.3 577.2 572.6 574.3 579.2 577.4 577.7 579.7 581.1 582 575.8 561.2 520.4 485.8 457.6 431.9 406.5 384.6 364.3 342.4 320.1 300.7 286.9 276.2 267 261.7 255.8 252.4 250.9 247.7 247.4 246.9 246.7 251.5 263.9 282.5 306.2 333 366.7 405.8 469.3 546.2 556.2 553.8 552.4 552.5 554.4 550.6 545.9 539.6 533.6 527.5 516.2 501.6 474.4 445.6 449.7 464.2 475.5 489.3 501.3 513 524 533.4 536.6 537.5 541.1
451.8 485.5 445 413.9 413.9 413.9 413.9 413.9 413.9 413.9 413.9 413.9 413.9 413.9 422.5 436.5 458.9 503 538.1 562 577.3 597.7 631.8 665.6 674.9 666.6 670.2 672.1 671.4 669.6 660.6 656.4 648.3 641.6 637.3 629.5 621.2 610.4 581.6 550.2 529.9 516.2 504.7 500.9 484.1 465.6 462.1 464.6 459.6 459.5 461.9 472.6 484.4 496.6 499.8 495 465.2 489.3 519.6 535.2 540.7 548 549.2 570.5 581.1 583.8 580.9 570.4 553.2 540.7 528.4 536.2 541.1 549.4 554.6 549.3 542.3 529.5 506.6 481.6 470.3 459.1 454.2 448.7 450.9 460.9 477.7 496 514.2 527.1 539.8 551.9 566.2 575.9 590.9 605.1 622.4 645.7 674.9 714.9 764 796.3 816.2 822.7 815.3 808.9 801.6 796.9 792.9 787.1 778.5 768.5 753.9 743.6 728.4 721.9 710.8 705.4 701.1 693.3 684.3 675.4 666.9 660.4 653.5 646.9 639.4 631 621.4 613.6 603.5 594.4 585.1 568.3 563.9 559.7 558.3 560.4 561.9 559 557.9 556.4 550.7 547.4 546.8 518.5 488.7 457.3 431.6 404.9 381 365.1 341.1 319.7 300.4 286.9 276 270.8 262.6 256.4 252.6 250.5 249.9 248.6 247.7 248.4 256.6 265.5 281.2 306.8 332.3 363.9 412.1 489.5 543.3 545.7 545.2 549.2 547.5 545.7 542.3 538.5 535.1 529.9 523.2 514.4 499.2 473.7 445.9 436.2 448.7 458.6 468.4 480.4 492.1 501 510.8 515.7 520 522.1
489.9 511.3 488.6 474.8 427.9 413.9 413.9 413.9 413.9 413.9 413.9 413.9 413.9 413.9 413.9 421.7 446.7 475 502 531.7 555.9 580.1 604.3 631.1 653.7 653.2 657.1 658.3 653.9 648.6 650.1 649.3 643.2 635.4 632.1 627.4 617.5 592 573.8 560.9 534.9 525.6 513.2 505.2 489.3 470.4 468.1 466.7 468.3 466.2 472.6 481.1 491.2 502.4 502.2 473.6 496.2 523 545.4 555.4 567.6 580.4 600.4 623.9 639.4 636 605.2 578.5 563 545 540.1 549.6 557.6 567.4 568.3 560 549.1 537.1 515.8 488.8 479.3 466.7 460.9 453 452 458.8 477.2 495.1 515.3 530.7 542.1 555.5 567.4 579.1 593.6 608.6 628.4 650.7 682.5 721.2 767.3 802.2 823.7 823.2 821.3 814.2 806.9 802.1 795.3 786.6 775.6 766.4 756.7 747.5 740.5 733 717.9 711.6 703.7 695.6 687.1 679 672.3 666.1 660 650.7 639.4 628 618.2 609.3 600.5 593.2 585.5 576.3 561.5 546.3 543.6 541.5 545 539.1 532.4 534.5 532.6 524.8 519.7 510.3 485.7 454.6 429.6 409.9 381.5 363.9 339.4 319.3 303 288.8 278.9 271.4 262.5 259.5 254.8 252.4 250.7 249.3 248 250.2 256.1 264.2 278.6 307.6 332.5 368.5 412.1 467.5 519.1 543.5 541.2 539.8 538.3 535.6 532.6 530.5 528.1 524.9 518.1 508.1 496.6 476.3 451.2 426.3 431.5 441.7 450.2 459.9 468.4 479.2 486.6 492.2 497.9 498.9
527.9 532.8 515.6 499.6 463.1 447.8 438.9 442.1 423.7 413.9 413.9 413.9 413.9 413.9 413.9 417.1 433.4 464.7 486.9 506.2 529.3 556.4 578.2 607.7 629 640 644.2 644.9 636.4 635.5 643 643 636.9 627.7 623.8 616.3 607.7 599.4 586.3 573.2 547.7 537.6 513.4 504.8 497.1 478.8 474.7 472.3 471 473 479.6 489.7 497.3 504.7 504.1 489.6 519.7 537.2 555.6 569.8 590.7 617.2 642.4 660.3 668.4 657.6 628.1 593.2 569 556.8 553.2 570.1 581.2 587.2 587.6 572.2 558 545.3 522.2 504.4 486.2 473 466 457.4 455.4 460.6 477.1 497 516.3 534.4 545 556.9 569.7 581.3 596.8 611.8 632.8 659.1 693.2 735.6 772.5 807.1 836.1 841.6 843.6 839.7 831.4 820.7 806.9 790.6 776.5 765.4 759.5 759.6 757.7 747.7 731.6 722.6 713.3 704.6 697.3 687.6 680.8 675.4 664.9 651.3 639.2 625.9 613.6 605.1 594.5 587.7 581.8 574.5 566 556 549.6 534.8 517.5 523.2 521.7 508.8 507.9 505.9 500.7 491.6 477.1 453.1 425.6 408.3 381.7 359 336.9 319.3 302.2 290.9 282 273 264.4 259.2 255.7 252.8 251.3 249.7 247.9 252.1 259.6 266.3 284.1 308.9 338.2 371.5 413.9 452.9 516.6 531.2 532.3 531.9 531.2 528.3 524.7 523.7 520.3 517.1 510.2 502.1 491.9 480.2 464.3 441.3 418.3 424.3 433.5 440.7 447.9 455.9 463.5 467.7 468.7 467.1
516.8 528 534.5 536.9 509.4 494.7 481.4 470.9 435.1 420 413.9 413.9 413.9 413.9 417.6 420.2 431.7 456.5 479.9 490.1 506.4 530 555.6 610 632 634.8 631.2 625.6 625.6 625.9 633.1 626.9 621.7 625.7 623.6 616.9 611.6 603.3 601 590.2 565 549.6 519.9 508.7 497.3 492.3 486.9 484.3 483.2 486.6 497.4 504 506.4 509 494.8 510.7 529.1 548.7 562.5 582.5 609.9 637.4 662.4 678.3 688.4 672.5 637.7 598.4 578.1 569.1 574.6 588.7 595.5 603.7 604 588.2 569.6 552.8 531.1 520.2 498.1 481.2 472 462.3 459.3 461.9 477.3 498.3 517.1 535.3 549.2 556.3 577.6 583.4 604.9 616.8 640.9 672.5 710.2 746.4 782.8 823.8 859.3 879.5 880.9 872.5 860.3 839.4 817.9 798.6 783.3 774.2 772.4 775.7 773.6 767.6 751.8 738.3 727.7 716.2 709.2 698.9 690.5 684 671.3 657 642.1 632.9 620.9 607.8 600.1 593.7 585.7 577.4 571.1 563 563.2 548.7 533.6 510.8 498 503.4 490.5 482.5 480.4 474.8 465.7 447.1 422.1 405.4 381 359.3 338.6 318.6 303 289.6 283.5 273.6 262.4 260.4 255.8 252.5 251.4 249.7 248.6 250.5 256.9 267.9 285.3 307.9 334.4 366.9 403.8 447.2 508.3 517.8 519.2 520.2 521.6 519.2 516.1 516.3 512.5 508.6 502.5 495.7 485.8 477.9 465.8 447.3 430.2 409 417.3 423.6 429.3 433.9 435.2 440.9 442 458.7
489.2 505.8 522.1 533.1 538 515.6 504 477.9 454.2 436.4 433.5 429.5 430.3 428.1 429.8 433.4 439.7 453.6 475.9 487.5 493.2 509.5 532.6 598.5 623.3 633.8 625.8 618 621.4 616.3 626.2 621.8 616 629.4 625.7 609.2 595.3 589.5 584.5 568.3 556.1 540.7 522.7 508.4 502.1 502.7 498.2 492.3 493.5 497.1 506.3 513.6 516.8 513.8 499.2 522.6 540.4 554.7 572.2 594.3 621.9 648.9 673.2 689.3 698.7 681.8 648.6 610.7 595.3 580.5 586.7 598.3 610.2 618.8 621.9 606 583.8 563.4 543 529.9 511.5 488.5 476.9 468.7 465.5 466.1 480.3 503.1 522.5 541.5 553.4 562.1 585.3 589.2 611.9 627.4 652.9 685.6 721.3 760.5 798.7 844.9 884 916.5 912.2 900.8 880.9 854.4 826.7 805.4 792.8 786.1 788.1 789.2 786.8 780.1 773.9 766.7 753.3 742.1 732.5 719.2 709.2 698.2 681.4 666.5 654.7 644.3 632.5 622.7 618.7 610.2 603.6 586.7 576.6 568.9 566.3 558.7 548.6 526.5 513.5 492.8 477.4 475.5 465.3 454.2 447.1 435.1 416.2 400.6 378.1 355.2 336.2 318 303.9 290.6 280.8 273.3 270.5 266.8 257.4 251.8 250.2 249.3 248.8 249.8 255.1 266.6 282.3 305.1 329.8 359.7 400.6 449.9 501.8 507.2 510.2 514.6 515.8 514.1 513.6 511.6 507.4 501.4 496.5 489.5 480.6 473.3 461.9 451.9 438.7 425.1 404 404.6 411.8 413.7 426.4 442.6 459 473.9
462 481.9 503 514.4 525.6 518.9 509 492 480.7 493.4 488.5 478.5 468.9 477.1 453 458.1 454.8 460.1 473.5 486.8 495.8 505.5 526.5 556.5 601.9 627.6 618.5 616 612.2 614.8 610.2 612.1 606.4 616.6 607.2 591.9 578.2 570.5 564.7 555.8 544.9 533.4 519.7 512.4 506.8 510.2 509.5 507.3 506.5 510.3 514.4 518.5 522.7 508.5 520.1 531.7 547.4 560.8 581.3 603.6 630.7 656.3 677.2 694 705.9 714.9 675.6 633.5 603.5 592.1 596.2 610.5 614.2 626.4 633.9 625.7 599.6 569 555.7 539.9 522.2 500.6 491.8 480.1 472 473.5 489.5 510.7 529.6 547.2 564.3 570.1 586.6 598.3 614.7 636.5 663.6 698.4 736.4 775.8 820.9 865.8 903.4 935.9 938 921.1 896.3 867.1 840.8 819.1 808.8 803.6 803.3 804.4 801.9 799.6 795.4 791.7 787.2 780.4 769.9 754.4 740.4 723.5 707 693.2 676.4 664 651.2 638.4 627.9 620.1 608.4 592.3 575.7 569.2 566.3 557.5 547.6 531.3 512.2 499.3 483.3 468.7 447.1 441.4 427.2 422.3 407.6 390.5 373 350.9 333 315.1 300.9 290.1 279.1 277.9 277 270.8 260.7 251.7 251.9 249.5 249.5 249.7 254.2 267.5 280.3 305.7 331.4 365 405.1 461.7 497.1 505.3 504.3 509 512.4 508.6 507 503.4 498.7 494.6 489.2 481.7 474.2 467.6 456.8 449.1 439.4 429 417.7 399.2 390.5 396.8 425.1 445 459.3 473
431.4 449.5 473.7 492.1 502.4 499.7 517 516.8 519.1 538.6 541.9 524.3 519 505 496.5 481.9 486 482.6 483.8 494.1 510.2 511.6 531.6 568.2 590.4 609.1 619.8 623.8 614.2 603.7 599.7 592.8 587.5 589.5 584.5 573.6 562.9 555.5 550.2 543.5 534.8 529.1 520.5 517.6 514.7 517.4 521.6 522.5 521.7 528.2 523.3 523.9 521.2 524 528.3 542 552.9 566.4 587.3 612.3 633.7 658.9 678.4 695.2 716.4 731.4 712.7 662.4 623.6 601 607 614.5 622.1 635.1 643.4 636.4 606.3 581 569.3 566.7 555.1 537.9 519.9 499.3 489.4 491.6 517.2 532.9 547 571.3 580.1 577.6 590.6 601.8 622.7 643.6 671.3 713.6 754.7 792.9 845.7 880.6 916.7 950 965.8 940.1 910.8 883.7 857.5 837.5 827.1 824.1 825.1 827.9 831.7 834.5 832.2 825 811.1 794.6 779.2 761.9 745.5 729.9 715.3 701.4 684.9 672.9 662.3 649.5 637.3 621.8 607.6 592.3 577.2 568.7 563.1 553.3 542 525 509.9 494.3 479.3 464.3 453.2 436.7 421.4 405.7 389.9 376.6 365.3 346.8 327.9 313.1 299.7 288 287.8 289.2 285.8 278.7 264.1 262.5 262.1 250.6 249.4 249.9 250.6 261.3 276.3 302.4 328.9 364.5 423.4 466.6 491.9 495.1 495.8 499.1 503.4 501.1 498.3 493.4 489.9 486.5 481.4 475.3 468.9 460.8 454 443.4 433.3 425 415.2 400.7 380.1 395.4 418.5 434.6 452 466.5
404.5 419 443.3 457.9 465 485.7 505.3 524.9 538.4 549.9 549 548.6 541.9 530.7 523.9 507.6 500.9 502.9 505.2 518.9 535.9 533.3 535 566.6 581.7 584.5 611.5 611.8 604.1 595.4 585.8 579.9 574.6 574.6 569 558.5 548.7 540.3 535.7 532.1 532.9 526.7 522.3 522.5 523.7 523 526.3 532.8 537.5 534.1 530 529 527 529 535 547.8 559 575.2 596.8 619.2 639.3 659.8 679.9 699.5 720.8 742.3 719 674.9 637.9 615.1 618.2 621.1 633.6 644.7 648 640.3 619.6 597.3 580.1 574.1 569.3 556.8 547.1 549.5 526.1 530.1 542.5 561.2 574.3 588 593.2 591.5 601.5 614.3 631.9 652.7 687.7 728.6 773.4 823 851.7 903.6 934.6 964.5 986.2 958.2 930.3 903.3 878 859.7 849.8 852.8 855.4 862.4 871.6 870.1 862.4 848.4 826.8 794.4 775.3 758.9 743.3 727.8 713.1 698.6 685.5 673.3 661.6 650 637.4 621.5 608.2 594.3 578.5 568.8 555.4 545 536.2 522.3 505.3 489.8 474.7 459.8 447.4 432.3 418.2 403.5 390.1 371.6 355.1 341.6 327.3 315.7 305.4 293.5 302.1 293.9 286.1 274.5 267.3 268.9 264.8 253.6 250.8 250.2 251.1 258.6 281 303.2 333.8 418.3 454.4 470.6 479.6 488.1 493.2 496.9 497.4 491.8 488.8 484.6 482.6 477.9 472.7 467.2 459.7 453.8 443.3 433 427.6 420.6 413 402.5 384.9 385.2 409.3 428.4 443.6 458.5
386.5 392.6 409.3 425.2 432.2 455.3 476.5 504.7 531.7 540.4 538.9 541 546.5 539.5 540.2 529.7 517 520.4 541 559.1 554 561.1 553.2 561.3 571.8 584 584.8 592 589.3 580.2 575.6 567.1 564.8 560.7 555.4 545.6 534.9 526.1 522.7 522.6 521 521.8 523.6 522.2 527 533.7 536.7 542.1 541.9 538 534.5 531.4 532.4 535.2 542.7 554.6 565.3 584 610.7 624.4 647.1 662.7 683 701 727.6 758.5 753.5 684.5 650.5 630.1 628.3 633.6 644.5 658.7 659.3 649.7 635.2 613.9 601.7 580.3 575.4 563.7 563.1 561.9 560.1 550.2 572.8 578.2 592.3 613.7 623 618.9 616.5 626.7 642.2 666.8 711.5 754.7 788.7 840.8 889 901.5 936.8 976.4 1005.4 979 951.4 924.7 900.6 886 882.1 884.6 892.3 902.4 900.2 892.2 878 861.9 835.9 795.3 772.9 754.7 738.4 723.5 708.7 695.6 682.7 671.6 660.5 647.9 634.7 621 607.6 594.9 582.5 566.4 554 545 533.7 519.3 502.9 486.3 471.4 455.9 442.3 427.3 412.6 397.1 383.2 371.2 356.2 342.8 334.9 319.9 309.4 306.7 303 304.8 287 276 276.4 280.3 276.9 266.6 257.2 250.7 251.1 257 280.7 311.6 347.8 428.3 456 461.9 469.2 475.3 483.1 488.3 488.9 483.4 478.3 475.9 473.2 467.2 463.2 454.1 450.6 445.4 434.7 425.3 421 415.7 409.6 402 386.6 373.7 395.8 418.2 434.4 447.9
361.4 368.4 381.6 390.5 403.3 420.5 445 467.8 500.7 510.8 522.2 521.5 529.4 535.7 544 546 538.2 539.1 550.7 558.6 574.9 581.9 577 560.8 565.3 592.7 589.1 576.9 574.2 566.8 565.1 561.1 559.7 549.5 540.8 532.8 525.2 518.2 514.1 514.4 515.3 515.1 517.3 524.7 529.3 534.8 541.6 541.3 540.7 539.6 536.4 534.9 538.2 541.6 549.3 560.7 572.1 591.1 614.2 629.1 646.7 666.4 685.4 705.9 733.4 763.7 768.3 698.2 665.5 647.7 640.6 649.9 666.5 671.7 669.6 662.6 650.1 629.8 616.2 596 583.4 573.7 571.3 565.6 563.1 556.7 577.2 589.2 615.5 650.5 662.1 646.8 644.9 645.8 657.2 692.1 733 775.4 812.8 876.9 912.5 944 953.5 985.1 1004.9 994.7 975.2 950.2 927.4 921.8 917.4 921.5 928.7 928.5 920.5 908.2 888.8 869 838.9 800.2 769 748.3 733.2 718.6 706 693.4 681.7 670.4 657.8 646.1 632.8 617.9 604.1 591.8 579.4 565.8 552.9 541.3 528.2 514.4 500.3 483.1 467.2 452.2 437.8 423.1 408.6 393 378.4 367.7 359.7 353.2 337.6 323.5 311.9 313 309.5 303.8 289.2 279.9 287.1 296.2 300.5 278.3 255 252 252.1 254.7 276.5 306 342.9 424 446 452.3 457.8 465.6 475.2 476.8 479.4 472.4 469.2 465.7 462.2 458.1 453.1 444.9 437.4 435.2 425.9 417.5 413.3 408.7 404 398.1 384.4 361.3 386.7 409.4 425.8 437.2
341.2 350.5 356.4 364.3 375.8 386.8 412.9 432.6 461 478.2 491.1 496.7 508.9 519.1 536.4 543.1 540 547.3 555.4 558.1 569.9 573.7 581.2 566.8 563.5 576 576 575.1 568.6 565.7 557.8 556.9 557.4 545 532.9 524.3 518 511.5 507.2 506.5 508.2 509.6 514.8 521.8 529 536.7 539.6 540 539.7 540.4 542 544.1 545.5 548.6 554.6 565.8 576.1 594.2 616.1 630.9 646.2 667.6 687.9 708.7 735.7 765.3 776.5 724.2 688.2 667.9 659.1 666.2 678.3 687.6 682 673.9 656.4 640.5 625.8 610.1 595.2 590.7 580 566.9 562.4 555.9 575.9 601.8 641.2 667 669.9 659.2 652.2 657.2 684.7 711.1 749.2 785.2 833 886.2 924.6 957.9 990.6 1000.4 987.3 979.2 973.9 963.8 960.3 958.7 949.2 950.8 957.8 951.8 935.4 913.4 885.1 866.7 843.8 810 775.7 749.7 734.4 720 707.6 693.8 681.2 668.2 655.5 642.1 628.9 614.7 600.5 589.3 576.9 563.7 550.1 537.8 524.6 506.6 492.7 478.3 462.6 446.9 433.6 419.1 404.6 393.9 382.7 374.7 367.9 351.8 337 319.7 320.2 315 311.5 300.3 295.5 284.6 290.6 292.1 289.1 273.9 255.5 253.4 252.4 254.2 271.2 300.3 336.2 407 428.8 439.6 451.6 460.8 462 464 466.3 460.5 457.1 454.3 451.4 447.8 442.6 437.2 428.2 424.9 415.1 409.1 403.4 400 396.3 390.1 378.3 363.5 375.8 401.9 416 426.3
322.1 329.6 337 344.4 350.8 360.3 381 398.2 424.2 444.6 455.9 463.6 481.7 498.2 518.1 529.2 527.3 538.3 544.3 552.6 557.6 572.9 572.7 572.8 567 560.6 565.6 569.3 565.6 560.5 552.8 547.3 546.9 536.7 526.7 516 512.1 504.6 502.2 500.8 501.5 504.6 510.3 519.6 528.7 535.1 537.2 538.6 539.3 544 546.7 551.2 553 554.8 558.6 568.8 583.1 595.5 615.3 632.6 650.8 670.7 691.3 710.7 736 763.6 791.5 743.9 714 693.5 680.6 685.1 692.4 698.6 693.1 682.1 658.2 642.9 635 617.4 604.8 598.8 583.9 569.4 560.7 556.1 572.8 608 646.5 663.3 666.9 661.4 651.3 664.7 691.5 714 753.6 789.8 841.9 894.6 934.7 966.5 980.3 971.4 960 949.7 944 938.3 941 951.5 947.1 955.3 972.9 957.6 935.3 908.7 877.7 875.2 844.8 810.7 773.7 750.2 734.4 718.7 704.4 691.2 678.3 666.1 654.1 640.2 626.1 612.4 601.3 588.2 574 556.7 544 532.1 518.5 501.6 485.7 468.9 457.3 445.1 431.2 417.2 406.5 399.7 392.7 379.3 366.4 347.8 330.2 321.5 322 317 309.5 304.1 295.3 294.4 292.4 286.6 281.6 270.3 258.7 254.8 253.4 257.2 269.3 294 327.4 374.2 406 421.4 434.5 438.8 445 446.6 448.7 447 444 442.7 439.5 438.8 432.8 424.5 417.3 409.5 403 396 392.4 391.3 386.6 378.6 367.5 354 373.5 392.7 404.5 413.7
312.7 315.6 319 325.1 329.3 334.4 355.1 370.4 389.2 409.6 419.3 433.2 445.7 470.7 496.3 502.5 508.7 524 534 545.1 546.4 561.5 562.8 567.1 569.2 557 554.4 557.1 561.7 551.4 545.5 538.5 537.2 528.2 519.8 509.1 504.2 499 497.9 496.8 497.2 501.4 504.6 514.9 524.2 530 533.1 536.8 542 547.1 548.5 553.5 557.7 560.7 566.8 576.9 592.7 604.4 616 635.6 652.9 673.9 693.2 711.5 736.6 764.8 791.2 796.6 751.8 729.4 704.6 695 695.3 697.2 691.2 677 660.6 646.1 638.4 625.7 615.7 606 584.3 572.1 562.2 558.2 568.5 599.9 636.4 649.1 659.8 665.2 653.5 656.8 687.9 713.5 750.9 788.5 836.7 893 931.2 956.6 950.6 937.9 926 915.8 909 905.8 911.8 922.4 930.4 936.4 956.6 945.9 927.1 908 884.8 856.6 827.8 797.5 767.9 745.4 729.9 715.5 702.1 689.6 675.8 663.7 651.4 637.2 626.9 617.4 602 587.1 570 555.8 541.2 528.9 508.4 493.9 481.1 467.5 455.2 441.9 435.7 424.1 416.4 408.2 393.7 379.5 362.3 342.4 330 323.2 321 314.6 310.4 304 296.4 294.1 292.3 283 279.7 267.7 259.2 255.1 254.7 260.5 267.6 287.1 314.6 342.3 368 396.8 415.5 422.4 427.2 431.2 433 433.3 429.4 431 425.9 423.6 417.5 410.6 402.1 396.5 390.7 387 383.1 380.5 374.9 367.7 358.3 358.2 373.2 382.1 391.4 398.9
310.5 310.2 309.4 309.8 313.3 321.2 331.9 348.6 363.8 375.4 390 400.9 412.9 438.6 462.6 472.8 482.1 506 521.5 532.6 535.8 542.5 547.4 570 565.5 555.8 550.3 546.3 547 541.4 538.9 531.4 524.2 519 512.2 502.9 498.5 494.1 493.4 491.2 493.2 497 503.2 510.2 518.2 525.7 530.7 539.4 544.4 549.6 551.5 556 561.6 565.4 575.7 583.4 597.7 608.7 622.5 639.4 653.7 674.7 692.7 712.3 737.2 765.9 793.8 813.1 828.9 788 728.2 692.9 688 692.3 687.4 669.2 657.2 649 641.2 633 620.3 609.6 597 577 565.3 562.2 573.6 591.9 620.5 635.6 649.8 659.3 649.6 658.8 681.9 709.6 744.2 782.7 826.6 880.3 917.5 930.9 919.3 905.2 892.8 880.6 874.1 872.3 878 886.5 895.4 911.3 928.6 945.3 918.4 896 873 840.4 807.8 781.6 758.2 740 725.8 712.7 698.6 685.2 672.6 660.3 649.4 637.3 627 616.4 601 584.5 568.5 553.7 536.2 522.3 506.9 496.3 484.4 469.7 460 451 442.9 431.9 420.4 412.3 402 385 368.8 349.5 334.2 327 317.5 314.2 308.8 302.2 298.5 295.2 287.6 283.4 280.8 270.7 261.1 255.4 257.2 261.2 267.9 281.7 303.6 334.7 366.5 389.4 398.7 405.9 410.3 413.7 415.6 418.5 416.3 416.2 412.9 406 401 395 390.2 384.9 380.7 375.3 372.3 369.6 364.8 358.5 353.3 352.9 364.4 371.5 378.1 386.1
310.4 311.7 309.6 309.6 309.6 309.6 313.5 328 347.5 344.1 361 373.6 387.3 402.5 420.8 439.1 455.4 479.9 503.2 511.8 520.5 528.2 547.8 565.6 564.6 559.8 550.9 544.1 539.5 536.1 531.3 526.3 519.6 514.9 509 499.1 493 489.4 488.5 488.9 490.2 492.5 496.8 502 511.5 519.6 529.6 539.6 544.9 550.3 556.6 562.8 569 574.9 580.6 585.9 597 611.2 625.2 638.3 653.3 672 691.8 709.5 737.7 766.7 795.9 824.7 829.9 785.7 723.9 692.2 683.4 685.3 681 673.3 665.1 654.6 648.9 639.6 625.7 613.9 605.7 584.8 574.1 569 577.3 585.6 606.4 621.9 638.2 649.8 647.1 658.8 674.3 699.3 734.4 768.7 809.7 857.4 895.4 903.2 888.3 873.1 858.8 846.3 838.2 838 841.1 848.6 858.5 882.1 899.4 914.1 919.3 885.3 857.7 826.8 800.5 778 756.7 739.1 725.8 713.1 696.7 682 671.1 659.1 646.3 633.9 622.6 615 602.3 584.8 569.9 558.3 547.2 531.4 519.6 505.1 493.4 482.9 471.4 461.3 449.5 441.5 432.4 426 407.9 394.3 376 356.8 343.6 327.8 315.9 312.7 309.3 303 298.4 293.2 289.7 284.8 282.3 275.1 260.1 256.6 257 260.2 266.7 276.8 301.1 334.7 358.1 374.4 383.4 390.4 395.6 398.8 402.7 402 400.6 402.1 397.5 391 387.2 382.1 376.3 372.7 367.7 363.7 360.4 358 355.1 351.4 342.4 340.7 350.7 359 366.5 371.5
309.7 309.8 309.6 309.6 309.6 309.6 309.6 309.6 326.8 327.4 335.7 351.3 361.8 375.8 392.3 414.2 425.4 455.6 479.1 486.2 504 513.5 527.7 553.5 569.3 562 558.1 546 540.1 529.3 524.7 519.3 515.9 508.7 502.1 494 489.1 487.1 486 485.3 485.1 488.4 489.4 494 503 511.7 523.5 534.2 541.4 551.5 560.3 567.4 573.2 577.6 581.2 587.7 600.8 612.9 627 638.6 653.7 672.5 693.8 712.1 740.4 772.1 802.2 829.1 829.4 774.1 732.2 699.2 688.7 683.4 686.2 680.7 676.2 661.9 657.2 647.3 639.4 619.9 615.6 601.4 589.2 581.9 579.8 592 598.6 606 626.2 639 641.4 648.2 665.7 687.1 717.8 747.9 785.9 834.6 878.1 874 855.2 838.3 824.1 810.7 802.7 801.1 804 811.3 827.1 848.4 866.3 882.7 896.9 888.6 857 827.5 799.1 776.7 754.9 739 725.8 712.9 697.6 683.1 669.5 656.1 644.9 632.9 621.5 611.3 604.1 587.3 583.4 578.4 565.5 549.1 536 524.3 515.8 502.2 489.2 474.1 466 461.5 457.5 457 434.4 404.3 378.3 359.9 345 332.7 318.6 314.4 310.6 310.3 298.4 292.5 289.7 288.5 283.2 271.1 262.5 259.2 259.9 260.4 264.8 271 294 324.3 347.9 362.8 370.8 378.5 382.2 386.4 386.5 388.1 385.4 384.3 382.3 376.9 371.4 367.4 364 359 355.5 352.5 350.5 348.3 345.3 342.3 334.5 327.3 336.1 345.1 348.8 351.6
309.8 309.6 309.6 309.6 309.6 309.6 309.6 309.6 309.6 309.6 316.8 327.7 338.1 351.4 368.4 384.1 401 421.8 444.4 462.3 491.2 501.5 539.1 570.7 568.8 563.3 555.9 555.5 558.5 540.7 524.7 514.2 510.3 501.8 496.6 485.9 482.5 478.4 480.6 479.2 479.4 481.4 484.5 489.3 497 508.4 518.4 528.8 537.6 545.9 555.8 563.9 567.9 572.6 582.1 592.2 607 618.4 632.7 640.4 655.3 671.6 691.2 711.9 740.8 775.8 808.9 832.2 840.2 783.7 736.9 707.6 688.8 683.4 688.1 683.9 681.6 679.2 671.7 667.8 654.5 640.9 630.6 619 611.6 596.4 584.9 596.4 599.4 600.6 614.9 629.4 633.7 636.7 651.6 672.1 694.2 723.8 762.8 807.6 852.1 846.3 824.4 800.7 783.2 772.5 765.9 762.5 767.1 777.3 791.6 809.4 831.2 853.1 870.5 886.2 868.7 838.6 813 788.4 767.7 757 738 718.2 702.1 685.4 670.2 660.5 650.6 637.1 626 617.7 608.2 608.2 634.5 636.6 633.1 624 591 574.9 549.2 555.3 541.4 518.5 497.4 492.8 493.6 495.1 472.4 421.9 387.7 364.1 346.4 332.2 319.2 315.3 312.1 309 300.3 292.4 288.8 288 281.1 271.6 265.2 263.9 263.3 264.6 268.6 277.4 286.6 316.5 334.6 351.2 360.4 364.9 368 371.7 373.1 373.9 370.2 370 366.7 363.1 356.9 352.9 349.1 345.8 343.2 339.8 338.8 336.6 334.9 333.5 328.5 314.4 321.6 327.9 331.7 333
322 310.9 309.6 309.6 309.6 309.6 309.6 309.6 309.6 309.6 309.6 311.8 320.7 334.7 346.2 361.5 377.4 395.8 415.7 436.3 454.5 486 527.2 550.4 562.7 560.6 565.3 569 574.2 565 535.2 519.4 504.2 494.2 486 480 472.3 471.3 471 476.3 474.7 475.9 481.4 487.9 495.3 504.3 515 522.7 531.5 541 553.2 559.7 564.2 570.6 581.8 594.1 606.1 619.2 633.3 641.5 656.1 668.2 687.5 707.8 737.9 777.2 812.4 839.1 840.2 796.3 741.9 714.1 692.3 687 686.5 686.9 690.7 693.2 721.3 711.5 683.2 662.2 657.2 653.4 634.3 616.1 606.2 602.6 603.3 600.9 613.9 623.5 629.2 629.2 639.2 655.8 675.9 701.4 741.1 785.7 825.9 814.3 789.6 766.8 748.1 734.5 722.5 724.7 732.9 745.7 759.1 776.6 797.4 815.7 839.1 859 869.5 852 832.7 812.3 787 774 760.2 743.1 722.5 702.7 688.5 676.3 662.2 653.4 644.9 628.9 624.5 638.2 648.5 665.8 665.9 657.5 643.1 637.1 625.4 604.1 569 566.9 559.6 540.9 534.3 530.3 493 444.7 399.4 373.3 353.1 334.7 317.8 313.3 313 307.9 300.8 298.8 292 286.6 277.7 270.2 266.2 264.5 267.6 271.2 273.8 283.2 290.6 306.4 327.1 338.2 347.5 351.1 355.7 360.2 360.3 359.6 356.3 355.7 353.5 350.5 344.3 341.1 336.5 335.4 332 329.3 327.4 327.1 325.8 323.1 321.3 319.9 311.6 315 315.8 319.8
341.1 325.4 316.6 309.6 309.6 309.6 309.6 309.6 309.6 309.6 309.6 309.6 309.6 316.7 327.2 340 357.1 375.8 395.9 415 432.8 454.6 486.9 522.8 547.7 556.6 576.9 583.9 583.1 569.8 550.6 525.4 503.5 488.1 479.5 469.3 465.3 464.2 464.6 465.1 467.6 472.1 475.9 482.9 491.4 498.5 507 516.3 527.1 538.9 557.6 563.1 567.8 573.9 579.9 594.2 604.6 617 630 639 653.4 663.5 679.5 701 731.8 771.6 811.2 847.9 849.1 800.3 749.7 725.4 709.8 694.3 689.7 691.1 700.1 725.9 749.5 756.3 733.3 729.7 704.8 680.2 659.8 658.7 649.2 642.8 620.6 612.2 616.1 621.6 628.5 629.5 640.6 648.2 661.3 684.6 716.8 761 796.2 786.4 759.7 735.2 720.3 702.2 691.9 691.6 703.8 715.3 728.9 746.9 763.8 786.3 805.9 829.6 847.7 867.9 858.9 840.7 816.1 803 788.9 772.2 751.9 732.8 712 699.3 686.2 687.3 672.7 666.6 660.2 651.8 655.1 670 673.3 671.3 670.9 652.1 632.2 618.6 629.6 610.8 609.3 597.6 568.2 558.5 550.9 494.2 429.7 387.1 361.5 342.6 323.8 316.6 313.7 308.4 307 297.5 292.2 284.4 276.7 270.3 266.8 267.7 273.1 276.6 278.2 282.6 291.6 300.5 316.3 326.3 334.1 339.6 344.2 345.6 347.1 345.5 343.1 341.1 337.5 334.6 331.8 328.4 324 323.3 321.9 320.6 319.1 317.7 316.5 314.8 314.4 314.4 312.1 306.3 311.9 308.6
363.5 341.5 331.6 319.2 309.6 309.6 309.6 309.6 309.6 309.6 309.6 309.6 309.6 309.6 318.7 325.5 339.1 360.3 376.5 397.5 411.6 428.8 459.7 495.8 528.7 553.4 572.5 586.1 579.5 569.9 570.9 540.7 513.9 491 473.7 465.3 460.9 457 464.3 461.5 462 468 471.8 479.3 489.1 492.1 500.2 507.8 520.8 535.6 547.7 559.3 568.8 576.1 580.2 591 602.5 614.1 624.3 635.1 649.6 659.6 673.5 696.7 723.5 759.8 799.1 832.6 853.1 796.9 750 726 715.2 703 704.3 707.9 715.9 758.7 783 789.1 776.3 764.3 731 716.7 715.9 701.4 691.3 675.2 666.1 643.3 626.5 624 631 635 646.9 649.1 656.2 676.6 704.8 739.4 775.6 768.9 739.9 713.3 692.5 681.4 677.3 677.1 684.5 691.4 701.9 715 732 751.5 770.2 798.6 820.5 842.8 871.2 876.7 852.3 834.3 824.2 816.7 826.7 814.1 792.2 764.9 789.1 728.6 747.3 722.4 685.9 678.4 672.6 669.8 673.9 679.6 666.1 653.7 643.3 633.8 636 641.2 636.7 618.3 608 588 569.2 542.6 486.7 408.4 370.2 347.9 331.3 319.9 314.4 310.8 306.7 297 291.6 282.5 273.4 271.4 268.6 274 275.7 280.4 281 285.2 287.5 294.6 308.1 317.7 323.4 329 332 334.1 333.7 331.9 331.8 328.4 326.2 323.9 318.6 318.5 315.9 315.4 315.1 313.4 312.7 312.6 312.8 310.2 308.2 307.2 308.3 303.8 298.7 300.8
389.1 363.7 347 331 311.2 309.6 309.6 309.6 309.6 309.6 309.6 309.6 309.6 309.6 309.6 315.3 327 342 356.8 376.2 389 406.3 437.5 469.6 504.1 528.4 548.3 559.4 556.4 575.3 577.7 539 497.4 481.5 469 461.8 451.5 450.4 452.3 450.9 460.2 463.2 470.2 476 480.2 485.6 492.1 502.4 513.7 528.7 541.4 551.3 562.2 571.8 578.6 586.5 599 608.5 619.9 630.5 640.8 652.9 665.9 688.8 714 744.3 782.2 823.4 857.5 812 771.2 738 726.7 715.3 714 725.1 740.9 787.7 818.8 859.9 832.7 788.5 773.2 803.2 781.8 759.1 723.9 708.7 693.6 678.8 664 654 651.5 644.1 646 647.9 653.6 667.2 694.6 729.8 765.8 758.6 729.6 703.4 684.4 674.2 670 669 672 675.2 681.5 692.7 704.3 720.8 738.3 761.5 793.3 818.3 847.2 891.7 899.5 888.2 876.6 883.9 877.5 861 843.1 823.9 807 783.6 770.2 740.9 715 699.9 697.1 691.9 690 678.1 665.5 654.7 646.9 645.5 652.9 665.5 656.2 643.1 626.2 601.2 577.1 546.3 506.5 423.9 379.1 353.2 334.7 320.7 313.6 309.6 302.1 297.5 290.7 285 276.6 273.9 271.6 272.6 275.5 278.8 281.3 285.5 286.9 291.7 296.2 309.1 315.4 320.7 323.4 323 322.7 323.9 322.8 318.3 317.1 314.9 309 312.3 311.4 309.7 305.9 308.5 309.7 308.6 311 304.9 302 303.7 305.1 305.5 298.7 293.2
414.8 382.9 364 341.9 322.4 309.6 309.6 309.6 309.6 309.6 309.6 309.6 309.6 309.6 309.6 309.6 316.3 328.2 338.7 352.7 367.6 387.9 404.9 434 463.3 501.5 499.8 500.3 515.4 546.7 546 518.9 479.7 468.6 458.2 451.5 447.5 441.8 440.8 446.6 456.7 462.8 465.3 471.9 473.3 479.8 490.7 503 510.5 522.1 533.2 542.3 554.2 565.1 573 579.8 591.4 603.5 613.7 624.3 633.6 645.3 655 678.8 703.4 729.5 766 802 836.1 834.5 790.8 765.6 752.3 746 749.4 752.6 768.6 812.4 867 897.5 857.2 840.1 857.3 840.4 821.7 804.6 779.3 749.4 721 706.6 695.2 688.6 672.6 654.9 650.9 651 657.6 668.5 693.6 730.8 754.2 754.4 731.1 700 680 666.5 662.2 663.7 666.9 663.4 667 676.9 686 693.7 708.5 731.9 760.5 796.6 821.9 858.3 871.9 896.7 895.2 884.5 872.3 857.1 839.5 820.3 800.9 782.1 779.5 764.2 743.9 730.7 722.4 711.6 700.7 695.2 680.2 672.2 669.3 677.3 682.1 684.5 672 659.4 642.9 613.1 581.4 546.6 506.4 455.5 402.9 362.4 338.5 323.8 315 305.6 299.2 294.2 289.9 283.4 277.3 274.1 273.8 274.6 277 279.7 279.6 283 284 288.2 292.6 297.5 305.8 312.4 313.3 312.3 314.9 315.8 312.7 311 310.5 308.4 305.6 305.5 305.9 304.1 301.7 303.6 306 304.3 304.8 302.1 302.9 301.2 301.9 300.9 300.6 301
437 407.1 387.2 358.7 335.1 318.2 309.6 309.6 309.6 309.6 309.6 309.6 309.6 309.6 309.6 309.6 310.5 317.3 327.9 338.8 356.1 369.9 383.6 404.3 431.9 454.4 441.4 454.4 479.3 503.9 494.6 477.9 455.6 452.5 447.7 442.4 441 434 433.1 443.6 447.7 453.9 458 461.4 473.4 479.3 489.5 500.7 509.4 516.8 526.4 534.8 545.1 556.9 566.8 572.4 583.7 595.4 605.4 616 625.1 635 648.7 669.8 690.1 714 747.6 783.7 815.3 845.1 816 795.2 784.9 781.2 780.4 782.5 801.9 856.4 899.2 912.3 899.4 907.7 904.2 872.4 843.9 822.2 801.7 779.6 744.5 727 709.7 702 688 663.1 659.6 659.9 666.6 680.6 707.8 733.4 755.5 759.5 739.3 706.1 679 661.7 658.6 657.3 649.6 648.7 658.2 666.1 666.2 672 683.9 697.9 728.4 772.8 793.7 811.2 833.3 877.2 878.3 875.8 866.1 852.3 834.4 815.5 794.5 781.3 781.4 765.8 757.6 741.9 724.3 717.4 712.6 707.5 698 698.6 691.8 694.1 698.5 694.7 687.9 673.1 656 621.1 580.1 533.1 501.4 456.4 414.8 370.5 347.8 326.8 314.2 304.1 297.8 291.9 287.6 280.9 277.2 276.6 276.4 277 278.6 281.9 283.1 282.4 282.9 283.7 287.7 291.7 298.9 303 304.9 307.6 308.9 308 306.1 307.1 308.6 304.9 305.8 306.9 305.5 304.5 301.6 300.6 302.3 301.2 297.6 297.3 299.2 295.6 298.3 298.7 293.5 294.7
457.4 431.9 405.5 380.3 353.9 333 315.3 309.6 309.6 309.6 309.6 309.6 309.6 309.6 309.6 309.6 309.6 309.6 313.1 325.6 341.2 360.1 366.6 377 391.7 394.5 409.7 420.1 434.1 452.5 445.4 436.2 438.8 433.3 432.3 428.9 423.3 425.7 424 433.3 439.2 443.6 449.9 459.7 467.1 476.2 485.7 493.9 501.5 510.7 518.9 528.1 537.7 546.7 558.6 565.2 573.8 584.9 596.9 607.3 617 625.7 639.3 654.2 675.2 698.2 728.8 760.9 793.4 822.8 838.9 856.1 830.8 814.5 807.5 818 841.3 889.3 924.1 927 918.3 909.9 897.6 874.3 850.4 826.7 806.4 784.4 756.9 740.5 722.3 712.3 700.8 673.1 666.4 671.4 677.5 695.2 723.7 753.8 778.5 777.3 752.3 710.8 676.4 660.6 653.4 641.4 631.9 635.2 647 652.7 649.8 662 662.2 675.6 689 719 761.8 778.9 797.1 835.8 854.5 862.4 855.5 843.8 826.7 808 790.3 774.3 768.6 757.7 749.6 744.4 733.6 722.1 715 711.4 706.8 707.6 708.6 707.3 702.1 698.5 689.3 671.9 662.7 629.8 574 520.1 485.5 451.1 417.6 374.3 349.4 326.8 315.4 305.2 298.4 289.9 284.1 280.3 279.6 281 283 283.6 283.8 286.1 288.8 287.8 288.8 286.6 286.5 291.9 296.1 297.7 303 304.9 304.6 305.1 302.3 304.5 303.6 303.8 306.8 308.9 307.9 306 305.6 302.4 298.6 298.4 296.8 298.1 295.1 295.6 292.1 292 289.5 290.9
482.5 454.5 424.4 400.5 377 352 329.3 313 309.6 309.6 309.6 309.6 309.6 309.6 309.6 309.6 309.6 309.6 309.6 316.1 327.6 343.4 350.1 357.4 367.1 377.3 388 402.9 406.6 409.4 407.7 415.9 418.7 417.2 415.7 415.5 412.2 414.7 418.2 425.3 432.1 439 444.5 454 457.3 467.5 476.9 486.5 495 503.8 511.3 521.3 529.5 538.6 549 558.3 566.2 575.6 586.1 595.7 605.2 615.8 626 639.6 660.3 681.4 710.4 740.6 769.5 797.9 818.1 842.9 868.2 856.2 851.8 859.2 885.5 919.2 920 912.4 901 891.8 880.5 863 844.4 825.3 807.2 786.3 760.9 750.8 738.4 723.1 717.4 690.8 681.9 684.9 699.2 720.2 758.1 797.9 821.7 802.4 766.7 724.1 680.2 663.5 639.2 624 622.8 626.7 634.8 634.4 640.6 643.3 639.3 646.4 657.2 677 716.5 744.1 766.9 793.2 843.8 849 841.2 830.5 815.5 798 786.9 771.2 762.9 747.1 739.9 736.9 733.3 730 712.6 706.9 704.5 701.9 703.2 704.8 698 693.4 684.7 673.4 662.4 609.5 562 517.4 476 445 410 370.2 344.3 327.4 314.8 307.2 298.7 289 283.9 281.5 283 288.1 290.5 293.1 292.8 292.6 292.3 292.5 292.1 292.1 292.8 291.7 293.8 296 296.2 298.2 299.7 303.2 305.4 309.4 308.5 307.8 306.5 309.7 310.8 306.8 306.2 303.6 299.6 298.1 298 298.7 298.1 299.1 298.5 294.8 293.5 291.3
517.3 491.5 454.7 428.6 416 377.4 350.7 330.2 316.9 309.6 309.6 309.6 309.6 309.6 309.6 309.6 309.6 309.6 309.6 309.6 311.1 326 342.1 345 354.8 361.2 376.2 384.9 388.8 389.4 396.8 399.9 400.5 400.7 400.4 402 394.5 406.5 411 418.4 424.1 429.1 432.8 439.9 446.8 457 469.2 479.1 488.5 496.1 504.3 514.7 522.6 531.9 542 552.1 557.8 565.6 572.1 581.2 591.4 601.9 613.9 627.3 647.4 664.3 689.5 716.7 747.3 775.4 791.6 811.2 829.2 844.6 860.5 872 893 906.1 904.1 895.9 883.6 874.4 864 848.5 834.5 819.9 804.6 786.9 768.1 757.5 743.4 732.5 724.8 708.6 708.2 708.3 725.1 758.6 818.8 843 831 807 771.8 729 682.1 663 626.8 616.5 617 618.6 626.9 626.7 627.7 621.9 621.3 627.3 632.8 651.6 677.1 716.8 743.3 762.2 801.4 831.9 828.4 816.8 802.3 786.9 776.4 774.1 759.2 746.1 732.4 725.1 720.3 717.1 704.8 692.8 694.8 685.6 689.1 696.4 691 685.6 679.4 669.6 650.7 606.2 557.7 520.7 463.6 427.8 395.8 365.2 344.4 329.5 317.2 309.9 299.9 290.6 284.8 283 287.7 295.5 297 298.2 297.8 298.4 298 298.3 297.4 298.4 300.4 301.1 304.9 305.3 309 304.9 304.5 307.6 305.9 309.3 311 311.2 310.6 313.3 314.3 310.4 307.9 305.5 304.9 303.2 302.5 301.4 303 304.1 301.3 299.5 298.6 291.7
572 528.1 491.9 473.1 437.2 397.3 371.7 348.4 328.5 315.3 309.6 310.9 309.6 309.6 309.6 309.6 309.6 309.6 309.6 309.6 309.6 309.6 321.8 330.3 342.6 350.4 362.6 366.5 369.8 372.3 376.1 380.3 383.6 384.7 385.4 387.3 387.8 385.7 403.1 404.9 411.1 419 423.7 428.4 437.9 448.5 458.8 471.5 480.8 486 497.2 511.5 517.8 527.2 537.4 547 553.9 558.4 563.6 568.1 577.3 587.9 602 615.4 629.4 645.6 668.3 694.6 723.2 745.5 759.5 777.6 796.9 814.9 828.9 842.9 860.7 880.7 884.8 877.9 865.5 856.6 845.1 832.8 821.9 811.4 800 786.6 771.9 760.4 741.4 735.6 728.4 724.5 728.4 735.5 763.9 796.4 843.9 844.4 828.7 805 769.3 725.6 673.8 636.7 620.2 612.8 611.4 613.5 616.7 620.4 618.7 612.9 612.3 620.1 616.6 631.4 654.6 700.4 718.7 738.4 777.9 827 819.9 804.9 788.5 770.2 762.1 756.3 751.1 741.9 726.6 714 705.7 698.5 688.3 680.9 676.2 677 674.5 673.2 672.1 679.5 674.4 661.8 630.4 585.2 548.5 494.7 449.5 416.4 383.8 361.3 341.6 326.6 318.5 308.9 299 292 288.2 288 291.7 296.2 299.3 302.7 300.8 303.8 303.2 303.6 305.7 308.5 306.6 307.7 311.5 312.5 313.7 312 313.2 313.1 309.9 310.2 310.7 310.8 311.6 315 316.2 310.1 311 310.9 306.1 308 306 305.7 307.8 304.2 302.6 298.4 295.3 300.9
598.5 574.3 531.7 498.6 475.5 418.2 391.9 369 340.7 324.1 316.6 314.3 311.4 309.6 309.6 309.6 309.6 309.6 309.6 309.6 309.6 309.6 309.6 321.8 333.6 342.5 348.6 350.3 350.7 354.1 355.7 360.8 364.6 366.8 370.5 370.4 380.2 381.6 388.5 395.2 400.3 408.3 413.4 418.2 430.9 438 448.5 459.1 467.4 475.6 488.8 495 510.5 519 531 543.1 548.7 553.3 555.2 560.4 566 577.8 592.9 604.5 615.9 627.4 646.8 670.1 696.6 714.1 727.9 748.6 767.4 785.7 799.6 812.7 829.7 852 860.8 858.3 847.9 837.8 827.4 819.8 810.2 801.5 792.1 783.9 769.7 757.7 744.2 734.2 729.7 729.3 743 757 787.6 812.7 831.9 835 823.4 801.5 761 728.3 672.3 630.4 615.8 609.1 609.6 612 617.8 621.2 618.9 610.1 604.6 603.9 602.5 611.9 624.5 650 686.5 711.5 742.6 787.1 804.6 790.7 770.2 758.2 751.2 749.4 743.8 733.9 723 708.5 691.5 685.1 676 664.1 667 659.9 654.9 650.4 648.5 656.4 661.6 644.3 618.9 579.5 528.5 489.2 444.4 406.3 378.3 355.9 337.8 324.1 318.7 308.5 299.9 294.9 290.5 292.8 296.9 297.2 300.6 305.4 305.7 307.3 309.4 310.1 311.8 316.1 319.2 318.9 317.9 320.5 322.7 321.4 321.1 318.7 317.8 317.6 317.5 315.3 315.5 321 319 314.4 311.8 313 315.5 316.1 307.3 311 308.3 308.1 301.3 300.5 300.8 302.1
606.2 594.6 571 536.2 484.4 443.4 423.5 380.3 356.8 335 325.2 319.4 314.2 309.6 309.6 309.6 309.6 309.6 309.6 309.6 309.6 309.6 309.6 309.6 316.5 328.5 330.9 332.4 334.7 335.8 337.4 346.6 348.6 352 356.4 356.1 361.7 371.4 376.8 383.3 389.5 396.3 402 412.1 418.4 426.2 435.5 445.9 452.1 465.1 477.5 484.1 497.5 509.8 523.2 536.8 544.2 547.2 550.3 553.6 554.9 567.2 581.6 592.3 603.2 611.9 629.9 647.4 667.6 692.1 699.6 714.1 738.6 756.8 772.3 782.7 798.4 817.9 836.3 838.3 830.4 820.9 812.6 806.7 798.1 792.7 785.1 778.4 765.1 753.5 741.6 735.3 726.5 723.2 734.8 747.4 773 798.5 819.7 824.5 816.8 797.2 765.7 725.3 662.6 630 616.3 607.1 609.6 614.8 619.6 619.1 616.1 603.4 602.8 598.8 586.5 591.3 603 614.5 646.9 689.5 703.2 727.5 773 772.2 760.6 756.2 751.8 749.1 735.6 723.1 710.8 697.2 679 672.1 668.2 661.2 652.9 643.2 630.6 624.4 626.2 623.2 625 618.5 591.2 552.9 517.2 474.4 428 397 371.3 350.3 336.5 327.3 318.7 307.3 300 295.1 292.9 296.4 300.5 303.2 307.4 310.5 310.6 311.9 313.1 315.7 319.7 322.1 324 325.4 327.6 330.7 330.8 332.2 329.2 326.3 328.9 326.7 325.8 324.3 327.8 327.4 324.9 325.2 317.1 316.9 316.7 317.2 317.4 318.2 314.3 304.9 306.9 301.4 304.5 301.3
593.5 588.1 563 541 499.3 487.5 434.5 390.9 366.3 348.8 333.6 324.4 317.3 311 309.6 309.6 309.6 309.6 309.6 309.6 309.6 309.6 309.6 309.6 309.6 314.9 318.2 320.5 323.2 325 323.6 328.3 334.5 337.1 338.8 341.2 351.7 359.9 364.9 371.2 380 384.8 391.6 400.4 406.4 416.4 421.6 430 442.7 453.9 464.1 471.4 483.4 498.1 513.7 527.9 537.2 539.8 543.4 546.5 550.5 555.3 566 578.7 590.5 597.8 612.1 628.7 642.7 662.9 670.6 681 704.6 723.8 739.3 753.8 766.3 784.7 813 818.4 812.4 805.2 798.9 794.9 788.5 785 778 771.3 761.4 748.4 736.9 730.9 719.9 715.6 720.3 729.6 750.7 777.7 802.8 813.5 805.7 789.2 755.5 726.9 665.7 628.3 611.1 605.1 606.8 616.5 619.5 615.1 605.1 596 597.1 583.5 579.9 573.7 575.5 590.3 618.3 658.8 682.5 705.5 743.9 753.3 752.2 752.3 747.2 739.4 727.5 713.5 699.3 685.1 673.2 668.6 661.1 650.5 639.9 631.3 618.9 604.7 595.9 592.9 583.4 575.6 556.1 524.4 492.4 454 416.4 389.7 370.5 354.6 337.7 326.9 315.3 306 299.9 296.6 299.5 304.1 309.5 310.3 311.6 314.6 315.1 319.4 321.1 322.3 324.8 329.6 331.9 334.4 335.5 338.3 338.7 339 338.9 339.6 339.9 338.1 335.9 335.8 338.5 335.9 332.5 330.9 327.9 328.2 321.3 319 321.1 315.3 311.4 318.3 315.3 308.8 308.6 307.9
576.8 558.9 554.4 546.2 514.2 507.7 473.1 413.1 382.1 359.4 346.6 335 324.4 317.4 310 309.6 309.6 309.6 309.6 309.6 309.6 309.6 309.6 309.6 309.6 309.6 309.6 309.6 314.8 315.9 312.2 316.6 321.3 328.5 328.6 334.8 344.7 349.9 357.7 361 369.8 377.7 386.6 392.3 395.7 403.8 412.7 421 429.9 442.3 448.1 460.3 471.5 487.7 505.5 523.9 529.5 530.5 534.5 538.4 542.4 546.7 553.8 562.4 573.4 582.3 595.2 611.8 621.8 637 643.9 652.5 670.3 690.4 706.6 726 730.3 752.2 769.7 786.1 785.7 787.1 784.6 779.8 775.5 772.8 768.9 761.9 754 741.1 733.7 724 713.2 709.1 706.2 712.2 726.6 750.3 777 793.8 792.4 779.3 753.7 717.9 673.3 628.7 610.5 602.8 605.3 614.3 619.1 607.6 600.6 592.8 580 569.1 559.3 561 561.7 572.5 593.2 630.8 661.5 686.4 727.5 740.1 745.9 746.7 739.8 725.7 716.5 702.2 690.4 675.6 670.5 662.3 650.6 637.7 624.9 617 609.1 596.8 574.1 556.7 547 538 509.8 489.8 464.8 431.5 403.4 383.8 371.1 356.6 341.8 325.5 317.8 306.1 299.5 301 303.3 308.8 312 317.3 319.7 320.8 323.5 329.3 327.6 331 334.3 337.3 339.5 343.3 348.5 351.8 352.5 349.4 350 353.3 351.9 350.6 349.6 347.5 348.1 346.8 343.2 339.1 336.7 335.6 328.5 326.5 323.8 319.6 313.9 321.7 319.3 314.8 317.8 315.6
579.7 545.3 529.9 521.7 517.6 489.8 458.6 419.9 397.9 385 360.3 346.5 333.4 324.1 315.8 309.6 309.6 309.6 309.6 309.6 309.6 309.6 309.6 309.6 309.6 309.6 309.6 309.6 309.6 309.6 309.6 309.6 312.8 318.5 322.1 326.2 332.5 340 348 354.5 363.2 370.7 376.2 379 386.7 391.7 402.9 411.8 418.9 427.3 436.6 445.2 457.9 474.8 493.2 505.8 512.1 518.6 524.5 528.8 532.8 536.3 541.4 547.2 555.3 564.8 577.4 591.9 605.5 613.3 619.2 627.5 638.5 655.7 675.2 687.5 695.6 712.9 728.8 737.9 749.7 759.3 762.1 763.9 763.8 762.7 759.2 752.1 744.6 734.5 723.9 708.7 699.7 697.5 692.8 694.8 704.9 727.2 752.2 771.1 774.8 765.8 744.9 705.4 666.5 628.6 604.1 598.9 601.2 610.3 603.6 599.8 599.3 587.4 569.4 554.4 549.3 551.3 552.7 562.1 575.7 614.2 644.5 667.4 706.6 727.6 733.7 734 725.4 716.5 702.9 691.1 679.9 672.1 663.1 651.9 641.4 623.9 611.1 602.9 589.5 580.3 560.2 540.1 524 498.4 481.2 464.1 440.2 415.3 393.2 381.1 367 346.9 333.9 326 316.5 307.9 307.1 307.4 309.1 313.9 317.6 327.9 325.6 331.1 331.6 334.3 334.3 340.1 343.6 346.8 348.7 352.1 359 362.5 365.4 367.6 367.1 368 370.2 366.7 363.8 361.3 361.3 359.4 353.6 349.2 346.4 342.6 336.5 334 331.2 327.6 319.8 326.7 328.9 325.9 325.8 326
585 551.4 526.1 514.8 500.8 501.4 497.1 464.7 417.3 393.8 377.1 353.7 343.9 332.5 322.9 315 309.6 309.6 309.6 309.6 309.6 309.6 309.6 309.6 309.6 309.6 309.6 309.6 309.6 309.6 309.6 309.6 310.9 314.4 316.1 320.1 324.3 329.3 338.7 345.2 353.7 361.1 365 372.9 379.9 388.2 391.2 400.2 405.8 413.6 422.6 430.9 443.7 455.8 468.2 477.3 490.3 506.2 515 519.2 523.8 525.9 529.1 536 542.2 548.6 559.4 571.8 582.5 591 597.3 605.8 615.6 629.3 644.3 653.3 663.2 676.8 691.4 704.2 714.1 724.3 733.4 744.1 747 749.5 747.4 739.3 729.9 722.8 712.3 697.3 693.2 688.2 685.2 683.1 690.7 704.4 725 743.8 754.3 749.2 728.9 695.6 660.5 630.1 597.8 595.7 597.6 598.9 598.1 598.4 595.6 574.3 560.7 546.1 543.1 538 544.4 555.5 566.4 590.1 625.3 649.4 681.3 720.8 727.5 724.9 717.7 701.9 692.8 686.6 673.7 665.5 645.7 641.7 630 615.9 602.2 581.5 572.2 553.1 529.9 512.2 498.6 473.5 454.3 435 416.7 399.2 386.9 372.8 355.2 342.8 336.7 323.8 317.2 311.7 315.7 317.6 319.7 325 327.5 335.3 338.3 336.4 340.2 341.9 343 351.2 352.5 357.1 361.5 368.5 371 377.7 381.4 388 394.6 387.2 384.5 383.4 380.6 377.5 375.8 370.8 364.9 360.9 358.1 350.6 345 343.3 339.3 331 329.7 333.3 336.7 336.4 337.3 337.4
593.2 567.2 526.1 519 513.2 514.1 503 470.3 445.2 413.3 397 374.4 357.9 341.4 329.4 320.3 309.6 309.6 309.6 309.6 309.6 309.6 309.6 309.6 309.6 309.6 309.6 309.6 309.6 309.6 309.6 309.6 309.6 311 312.1 313.9 317.4 324.9 332.7 339.7 345.8 349.3 355.8 365.3 371.9 379.3 384.7 389.9 396 401.1 410.9 417.9 429.5 439.8 448.3 456.6 475.7 493.9 509.1 509.8 513.4 516.7 519.1 522.5 528.9 536 543.6 554.1 562.3 569.9 577.7 586.2 595.5 602 613.3 623.9 632.5 642.7 654.6 671 684.7 693.1 703.4 722.3 735.9 731.5 731.7 726.3 718.1 710.4 699.2 692.3 689.4 680.5 678.3 673 678.6 684.6 704.3 718.5 729.5 727 711.6 679.7 635.7 609.9 596.6 593.7 593.1 592.4 596.1 598 578.8 567.4 551.8 543.8 540.1 537.1 540.3 550.6 561.4 578.6 610.3 633.8 668.8 713.2 720.9 720.3 713.8 699.9 688.6 678.6 666.7 655.2 636.8 629.6 611.8 599 576.2 558.2 536.6 517.8 498.7 482.9 469.8 449.5 426.4 410.2 397.9 385.8 375.3 363.9 353.4 343.1 334.9 324.9 316.6 322 324.8 327.3 326.8 336.4 337.8 347.9 346.9 344.2 346 348.5 355.1 362.7 365.1 368.6 375.1 385.9 393.2 396.6 398.6 405.1 407.1 404.6 402.2 396.5 395.6 392.8 389.4 382.1 377.7 375.6 366.9 361.1 356.5 352.4 348.1 332.1 338.7 343 347.4 344 345 345.1
602.8 583.4 545.3 528.7 522.9 521.5 509.7 485.6 456.9 434 428.2 399.7 378.6 361.4 336.4 327.8 316.8 309.6 309.6 309.6 309.6 309.6 309.6 309.6 309.6 309.6 309.6 309.6 309.6 309.6 309.6 309.6 309.6 309.6 309.6 309.6 311.3 319.5 328.6 336.2 340.5 343.9 349.8 356.8 365.4 371.7 376.1 385.5 386.5 394.7 398.3 404.7 416 425.4 433.8 442.6 460.3 489.3 499.3 498.9 501 505.6 510.4 513.2 515.4 521.3 528.7 536.5 545.1 552.4 559.9 567.6 576.4 582.8 591.7 600.7 605.1 613.9 621.3 640 655.9 672.1 686 698.4 707.6 711.2 710.9 710.9 704.7 695.6 689.9 684.4 681.8 673.6 671.5 665.6 667.4 673.6 683.1 698.6 711.9 711.2 694.8 673.5 632.6 610.4 598 593.1 592.4 588.5 596.6 582.7 572.3 562 550.7 541.6 537.5 536.3 538.1 547.3 553.5 567.2 602 621.4 645.8 690.7 714.9 716.2 709 696.1 685.1 675.5 662.5 644.8 630.1 622 601 562.6 542.6 521.2 501 486 470.8 456 442.3 421.8 402.7 390.6 378.9 370.6 361.8 354.6 346.7 337.3 329.7 321.8 320.2 326.9 332.3 333.9 336.7 342.9 346.8 353.9 352.9 353.9 356 358 366 372.9 377.4 382.3 389.4 398 403.7 411.2 412.9 416.7 416.9 417 416.5 413.5 409.6 404.3 400.7 393.5 387.2 382.3 375.4 369.2 363.2 357.2 351.7 337.8 343 347 356 350.3 351.4 352
609.7 584.1 559.4 548.3 528.8 516 502.1 480 467.6 465.4 452 419.3 387.8 360.5 345.1 333.3 323.6 314.7 309.6 309.6 309.6 309.6 309.6 309.6 309.6 309.6 309.6 309.6 309.6 309.6 309.6 309.6 309.6 309.6 309.6 309.6 309.6 314.5 322 331 336.4 343.3 349.8 355 360.6 365.2 369.4 376.6 380 384.1 390.2 394.2 402 412.4 418.3 428.6 436.8 458.8 468.3 481.7 485.7 490.5 498 503.4 505.3 508.4 514.2 521.3 528.4 535.2 541.9 549.1 557.9 565.5 574.1 580.3 586.5 590.5 598 619.4 630 653.7 677.8 683.4 694.8 701 703.7 699.9 693.2 686.9 685 681.5 676.4 666 662 659.3 659.9 667.5 677.7 689.6 700.3 702.7 688.7 669.9 633.4 613.3 598.1 594 588.7 585.2 583.3 574.6 567.6 555.4 544.6 539 536.9 536.3 537.7 543.6 550.3 561.3 582.8 605.4 633.7 687.2 710 710.7 704.8 692.9 681 666.1 654 634.6 618.4 606.7 569 540.9 515.9 498.4 476.2 455 443.2 430.7 418.7 404.9 387.7 372.3 360.5 354.4 352.5 344 334.7 330.5 325 325.8 325.3 329.7 332.3 336.2 339.6 347.6 357.9 359.5 359.9 362.4 369.1 377.1 385.4 392.4 398.9 401.4 407 413.7 417.1 421.7 426.2 427.5 427.8 428 426.3 424.2 422.3 417 410.5 403.6 397.1 388.5 382.8 374.7 369.1 363 355.2 346.9 353.3 356 360.5 360.2 361.6 360.3
626.4 600.3 576.5 571.3 550.8 526.6 502.5 489.1 477.2 470.4 447.9 423.1 396.4 373.3 353.8 341.1 330 322.2 316.3 309.6 309.6 309.6 309.6 309.6 309.6 309.6 309.6 309.6 309.6 309.6 309.6 309.6 309.6 309.6 309.6 309.6 309.6 309.6 314.8 324.4 332.2 336.6 344.5 350.1 356.8 359.4 361.2 367.3 371.3 376.5 382.7 386 392.3 401.1 404.4 414.1 422.4 432.7 447.7 456.2 466 472.2 480.4 488.6 493.4 497 501 506.7 512.7 519.2 526 533.5 539.4 546.6 556.9 563.6 569.6 575.1 580.6 591.5 608.8 639.4 652.5 677.9 688.5 688.4 695 692.2 685.3 680.7 679.3 678.2 672.1 660.9 654.2 653.7 647.3 657.6 668.2 681.7 684.4 682.6 678 663 638.8 616.3 601.7 595.6 589.1 582.2 577 569.9 565.5 549.4 542.4 536.7 535.4 535.2 536.7 541.2 548.3 559 574 594.4 620.5 664.3 700.4 701.7 695 683.3 672.1 652.8 632.6 624.2 592.9 574.3 546.5 517.8 494.5 477.8 457.2 434.4 416 408.1 394 383.4 370.8 357.9 353.3 349.9 337.9 338.3 334.5 330.6 330.3 329.2 331.4 332 337 344.1 345.6 356 366 367.4 368.5 375.8 384.1 392.5 401 406.9 414.9 422.3 431 431.3 436.1 439.7 440.6 441.2 442.1 441.4 437.6 437.4 432.8 427.7 422.2 414.8 407.8 399.5 390.7 381.4 375.3 370.2 351.5 361.5 367.5 368.4 369.8 371.5 373.8 370.7
650.1 616.7 595.7 586.9 567.1 543.5 508.9 498.2 485.7 470.2 451.8 439 420.2 382.3 363.2 352.7 344.1 333.5 326.1 317.4 309.6 309.6 309.6 309.6 309.6 309.6 309.6 309.6 309.6 309.6 309.6 309.6 309.6 309.6 309.6 309.6 309.6 309.6 309.6 317.3 328 334 341.1 343.2 352 352.2 356.6 361.9 365.9 370 375.5 379.3 383.6 388.8 393.8 400.5 409.3 416.4 425.5 439.2 443.8 453.4 460.6 471.2 477.2 484.2 488.9 493.4 498.9 504 510.2 516.8 524 530.9 539.7 548 555.2 562.8 566.1 578.4 591.2 606.9 628.3 657.9 683.9 683.9 686 686.9 681.7 676.3 675.6 672 666.8 661.8 650.6 642.9 635.5 650.4 661.6 672.1 676.4 675.4 669.8 657.5 641.9 619.3 606.1 598.7 593.1 583.9 575 564.7 554.4 544.3 538.7 536.1 534.3 532.6 535.1 541 546.6 554.7 566.4 586.1 607 638.1 673.4 687.8 677.2 670.8 649.8 627.2 616.7 589 564.8 547.3 524.7 497.5 473.5 452.8 432.8 417.3 399.6 385.5 376.7 367.4 360.6 351.4 346.5 340.5 341.9 340.7 341.3 337.2 335.5 334 336 338 342.7 353 358.8 367.6 375.8 377.5 384.2 393.2 406.6 417 419 427.4 443.7 450.3 451.1 454.8 454.6 459.3 459.5 461.6 460.9 457.4 450.4 447 442.7 438.4 432.3 424.9 416.5 407.5 399.6 389.8 383.1 372.5 363.5 372.6 377.5 380.5 383.1 381.6 382.6 382.7
655.3 637.6 611 589.3 569.3 548.2 525.5 508.3 499.7 474.9 469.6 456.1 416.7 395.9 376.6 364 357.6 349.3 339.9 329.9 315.2 309.6 309.6 309.6 309.6 309.6 309.6 309.6 309.6 309.6 309.6 309.6 309.6 309.6 309.6 309.6 309.6 309.6 309.6 309.6 317.8 322.5 335.7 336.6 342.8 346.2 348.1 352.6 358.6 363.6 370 373.1 378.9 381.5 386.8 386.6 394 401.8 410.7 418.1 425.2 432.1 442.4 454.7 458.2 466 473.8 478.3 483.9 490.5 496.3 502.6 510 517.1 525.1 535.5 546.7 552.7 559.1 567.6 581.5 595.1 611.1 639.3 671.9 682.3 688.8 685.4 684.6 676 671.9 670.6 663.5 659.5 646.4 634.7 626.6 640 653.1 657.2 658.9 670.5 665.4 653 639.2 622.1 607.5 601.8 593.9 587.6 574.7 559.5 549.5 540.3 537.3 534.1 532.7 531.9 534.1 537.7 545.5 552.9 564.2 575.6 593.3 621.8 639.2 665.4 662.8 644.9 616.8 601.4 588.8 563.2 541.7 519.9 495.7 473.6 451.7 436.8 416.9 402 385.1 373.7 365.1 361.7 354 347.6 344.1 350.3 349.2 347.6 343.1 342.8 342.3 340.2 343.5 347 352 364.9 376.6 383.7 393.5 394.4 403.9 413.7 425.5 435.3 443.4 453.7 469 474.4 477.3 476.8 478.5 478.9 478.6 478.6 477.5 472 466.8 458.3 452.7 447.1 439 430.9 423.2 415 405.8 397.3 390.8 374.5 377.1 384.2 389.2 397.3 397.9 395.1 394.9 394.4
674.7 646.3 620.8 607.5 578.5 559.1 529.4 514.9 504.3 487.1 474.1 449.6 424.5 413.4 392.4 378.9 371.5 365.1 354.9 336.9 322.6 309.6 309.6 309.6 309.6 309.6 309.6 309.6 309.6 309.6 309.6 309.6 309.6 309.6 309.6 309.6 309.6 309.6 309.6 309.6 309.6 318.5 325.4 332.1 338.5 342.9 344.7 347.2 351.2 356.9 363.5 367.4 372.7 375.2 378.8 380.3 385.2 390.7 395.7 404.8 408.3 419 431.8 438.6 445.7 447.2 453.4 460.6 468.4 475.6 483.6 490.9 497.8 504.8 512.7 524.9 542 546.2 551.7 562.7 574.5 587.8 604 618.8 646.5 674.7 678.3 686.4 684.4 676.3 671 665.5 658.1 653 634.5 627.4 620.1 627.5 635 640.6 643.2 650.7 647.2 642.8 629.4 615.3 609.1 606.1 598.7 587.8 570.6 557.5 549 539.1 536.3 534.5 533 531.1 534.4 537.1 543.8 552.2 557.7 566 585.5 607.2 622.6 623.1 623.7 604 590.6 577.9 562.5 540.3 520.9 493.3 475.5 455.1 435 416 401.2 388.7 376.4 365.7 357.6 352.3 352.7 352.6 354.8 357.2 359.3 354.9 350.5 351.1 350.5 351.2 356.3 359.7 369.1 382 392.2 400.4 408.7 419.4 431 439.5 452.8 462.7 477.9 486.1 497.9 501.3 503 503 501.6 498.8 496.7 496.2 491.7 486.4 478.2 471.6 463.5 454.5 448.1 439.3 429.5 419.5 410.8 405 396.6 386 390.3 396.6 404.6 407.7 408.5 408 409.4 410
679.2 648.9 622.8 600.4 576.5 556.7 531.1 519.3 512.3 490.7 473.9 452.9 440.9 429.8 411.5 395.8 389.2 385.6 361 341 328.7 316.2 309.6 309.6 309.6 309.6 309.6 309.6 309.6 309.6 309.6 309.6 309.6 309.6 309.6 309.6 309.6 309.6 309.6 309.6 309.6 309.6 319.7 327.7 333.5 336.7 342 348.1 350.8 355.2 361.8 364.7 367.6 371.2 373.6 376.5 376.6 380.4 386.8 387.7 392.8 404.5 422 424.7 427.9 430 435.9 444.2 455.4 461.1 469.6 478.8 488 493.9 504.5 517.4 531 544.7 548.3 558.1 563.7 585.6 597.1 616.3 635.9 662.4 683.7 686 681.5 676.2 665.3 657.3 652.4 645.8 631.9 619.8 616.8 618.5 621.6 629.4 635.1 635.6 635.9 627.7 626.6 615.6 609.7 607.4 598.9 585.6 568 557.2 546.2 539.8 537.6 537.1 534.4 533.1 534.5 534.8 543.4 547.6 553.2 561.4 575.2 593.3 597.4 599 591.1 574.1 562.9 553 536.5 516.4 497.7 474.5 455.1 436.8 418.2 403.2 390.2 379.6 372.2 361 361 361.4 365 368.2 369.7 368.9 369.5 366 361.9 361.6 363.5 363.4 368.5 377.6 387.4 397 405.4 416.3 430.3 444.9 460.2 473.5 480.6 489.6 509.2 522.6 533.9 540.2 551.2 540.1 527.7 528.5 521 512.9 506.1 497 488.8 479.5 472.1 465.9 457.7 446.2 436.8 425.3 416.1 409.5 392.7 398.7 404.5 410.9 417.4 418.1 419.3 423 421.6 422.5
655.8 633 603.5 577.3 563.1 541.1 523 518.5 522.6 499 482.6 467.9 464 450.8 429.8 416 409.1 392.1 366.2 351.5 338.9 326.9 315 309.6 309.6 309.6 309.6 309.6 309.6 309.6 309.6 309.6 309.6 309.6 309.6 309.6 309.6 309.6 309.6 309.6 309.6 309.6 315.7 325.7 330.2 334 336.5 341.7 344 351.1 354.6 360.2 363.7 365.8 365.7 371 373.2 375.2 379.1 380.9 381.4 393.5 404.2 410.9 411.6 413.6 425.6 431.4 441.5 443 454.3 469.4 478.5 488.9 498.4 508.5 527.1 544.6 549.9 553.8 560 572.4 595 615.8 629.4 657.9 690 687.4 681.5 676.6 666.9 656.6 646.4 640.6 631.6 621.5 608.2 612.3 613.1 620.5 627.8 627.9 625.5 623 622.3 611.6 605.6 602.6 595.9 583.4 564.4 555 547.2 542 539.1 537.4 534.7 530.3 532 534.7 540 545.1 548.4 555.6 569.8 582.6 586.4 577.1 569.7 558.5 548.6 537 521.3 496.9 479.6 463.5 446.8 428.9 408.9 394.3 383.2 374.8 367.8 371.4 373.5 376 383.8 385.8 388 388.6 383.8 374.4 375.2 373 376.7 378.8 387.8 395.6 406.3 415.8 430 442.8 456.1 473 491.3 504.3 512.9 529.7 542.9 559 568.3 577.8 571.4 559.9 550.5 548.3 536 527.2 517.9 506.2 499.8 491.2 482.8 474.9 464.1 453.1 441.5 431.3 421.7 412.2 408.3 412 420.3 424.8 431.6 434.1 434.4 436.9 439.8 438.4
632.5 600.3 574.4 558.8 543.7 526 517.5 515.9 514.9 501.3 490.7 481 477.2 464.6 453 436.8 423.5 403.4 379.3 363.4 348.2 334.3 324.4 309.7 309.6 309.6 309.6 309.6 309.6 309.6 309.6 309.6 309.6 309.6 309.6 309.6 309.6 309.6 309.6 309.6 309.6 309.6 309.6 316 318 327 330.9 332.7 336.9 345.1 348.9 354.6 357.1 360 363.2 363.8 368.5 370.8 374.6 374.9 374.9 380.4 390.2 398 402.3 403.4 409.9 413.9 425.5 433.6 443.9 460 479.5 489 496.5 505.5 525.1 551.6 551 552.8 556.1 564.6 578.6 599.7 615.3 649.1 691.6 689.5 683.2 676.4 667.5 656.3 644.1 636.3 629.5 617.8 607.4 606.7 608.6 614.6 620.8 622.8 620.4 622.1 618.9 609.3 607.1 600.4 590 572.4 563.1 556 550 545.9 542.1 540.1 537 531.3 527.3 532.6 535.2 539.6 542.9 552.6 560.8 579.9 579.3 563.2 540.4 531.7 527.6 526.4 513.2 486.1 466 450.6 436.7 421.7 404.7 390.8 377.7 373.2 377.5 383.4 390 395.8 402.2 404.3 407.9 404.5 402.1 393.8 390.4 389.2 394.5 398.5 406.6 417.4 428.5 437.9 457.6 476.1 485.7 503.5 524.2 534.5 552.7 563.8 581.2 589.5 591.2 589 585 578.1 566.3 555.9 542.9 533.5 526.3 515.6 504.4 497.3 488.6 479.6 468.4 458.5 448.2 432.8 422.3 415.3 422.4 426.8 438.6 441.2 443.3 445.9 448.7 451.9 454.8 454
601.3 567.6 554.5 539.5 526.5 516.2 513.9 517 528.8 513.4 500.9 495.5 486.4 485.2 462.4 443.9 430.9 422.7 392.7 378.1 360.9 344.5 327.9 319.5 309.6 309.6 309.6 309.6 309.6 309.6 309.6 309.6 309.6 309.6 309.6 309.6 309.6 309.6 309.6 309.6 309.6 309.6 309.6 309.6 309.6 310.4 320.9 329.2 334.3 338.5 344 352.5 355.4 358.5 359.8 362.2 366.5 366.7 363.1 365.4 370.1 372 380.9 385.8 386.1 395.2 399.7 407.2 415.1 427.2 438.9 453.6 472.6 480.9 489 499.9 518.2 558.3 552.4 551.9 551.7 560.1 566.6 581.4 600.2 634.4 676.4 689.7 687.9 676.8 667.3 658.1 645.7 635.5 628.2 613.3 592.7 601.7 603.6 608.1 615.1 616.5 617.2 615 612.4 607.3 604.7 600.7 585.1 574.7 566 560.1 555.4 551.2 548.1 545.1 540 533.3 524.6 526.5 529.9 533.4 537.3 544.8 552.5 559.2 567.6 552.4 529 519.4 518.2 513.6 501.9 478.7 459.2 440.2 428.6 414.8 402.5 388.1 379.5 388.2 393.9 400.8 411.3 419.9 422.1 424.4 421.8 423.4 412.7 410.6 408.2 411.3 414.9 425.2 434 439.9 452.1 471.2 499.9 510.3 524.8 543 554.4 574.2 587.1 594 605.6 608.6 608 605.7 596 586.4 575.8 562.3 548.9 537.4 524.4 516.2 508.4 498.9 491.5 480.7 473.9 459.8 448.4 437.4 426.1 429.2 436.5 445.1 455 458.4 457.5 460.2 463.1 466.2 472 472.8
571.6 543.3 527.2 518.2 516.2 514.9 514.1 524.2 540.5 537 518.9 509.4 503.6 490.3 463.6 449.8 439.9 423.5 398.4 387.1 367.6 348.6 333.9 325.3 309.6 309.6 309.6 309.6 309.6 309.6 309.6 309.6 309.6 309.6 309.6 309.6 309.6 309.6 309.6 309.6 309.6 309.6 309.6 309.6 309.6 309.6 315.4 323.3 329.4 332.5 339.6 349.7 356.2 358.4 357.7 358.6 361.3 360.3 357.7 359.1 364.7 370 376 378.1 377.3 384.2 391.1 398.3 409.3 415.7 428.3 440.8 457.4 463.1 476.5 489.6 513.4 549.2 544.4 543.8 545.2 551.8 556.6 568.6 589.9 624.5 660.3 683.2 687.1 679.4 669 659.6 646.7 634.9 623.4 603.7 596.4 594.2 597.1 602.4 609.2 609.8 617 612.9 609 604 597.3 591.5 584.9 577.7 572 565.1 562.4 557.7 553.3 549.5 541.2 531.7 524.5 520.3 523.9 525.5 531.1 537.3 545.6 544.7 540 534.1 519.3 511.6 511.6 500 490.3 469.5 450.5 439 424.5 414.4 406.8 395.8 397.1 409.6 418 426.6 436.5 439.6 443.9 445.9 442.4 436.2 433.2 431.9 433.8 435 441.1 449.7 454.8 465.4 482.4 508.7 529.5 542.2 557.4 572.7 587 599.5 606.9 610.3 613.4 620 617.8 612.2 600.9 594.4 584.1 571.1 559 542.1 528.1 516.5 507.9 500.1 494.4 487 476 465.6 451.5 436.5 438.1 442.5 450.9 461.1 467.7 470.1 472.6 476.5 480.7 484.6 490.8 493.5
550.3 525.8 514 513.5 513.7 511.9 517.4 531.9 528.6 539.7 531.3 526.2 512.7 494.4 471.9 454.7 437 415.6 396.9 384.3 363.5 354.3 339 324.9 310.6 309.6 309.6 309.6 309.6 309.6 309.6 309.6 309.6 309.6 309.6 309.6 309.6 309.6 309.6 309.6 309.6 309.6 309.6 309.6 309.6 309.6 309.5 316.9 320.2 329.8 340.7 356.2 357.5 355.2 354.5 356.4 358.3 356.1 354.1 357.9 363.5 370.2 372.1 364.9 372.3 379.4 382.3 390.3 402.6 410.2 418.3 430 439.7 451.4 466.3 492.5 516.9 536 537 532.2 532.9 537.5 549.2 558.7 573.5 606.5 634.8 666.9 680 679.7 670.9 661.2 650 636.3 618.7 597.1 590.8 585 589.4 595.3 602.5 606.6 614 610.6 606.6 596.8 592.7 590.1 584.1 578.3 572.4 568.6 566 560.9 557.3 549.1 539.3 530.3 521.7 512 518.8 518.6 524.3 529.9 536.4 537.8 530.9 517.1 507 503.2 496.9 488.8 478.9 465.2 452 435.5 427 418.8 407.8 407.8 425.5 437.3 445.3 453.5 458.2 465.6 467.8 464.8 461.2 457.3 457.6 456.9 455.7 459.6 466.8 474.1 485.3 497 523.8 549.9 565.6 574.4 585.9 596.3 607.1 610.4 612.5 616.1 621.8 621.5 619.5 617.6 615.7 607.4 599.7 588.8 574.6 560.8 537.9 521.6 512.5 504.7 498.5 488.2 479.5 467.5 450.3 448.2 451.6 457.1 465.7 476.9 483.6 486 488.9 493.5 502 507.5 510.5 511.8
529.1 514.5 510.8 511.8 511.8 519.1 532.6 520.9 523.2 531.6 539.1 531.5 528.6 509.3 481.9 461.9 442 420.5 403 386.8 371.9 357.1 344.9 327.7 316.1 309.6 309.6 309.6 309.6 309.6 309.6 309.6 309.6 309.6 309.6 309.6 309.6 309.6 309.6 309.6 309.6 309.6 309.6 309.6 309.6 309.6 309.6 312.2 317.7 326.9 339.5 350.1 358.3 352.4 353.5 355.5 353.5 351.2 349.8 352.7 358.4 364 361.5 357.9 369.6 373.2 376 383.1 391.6 399.8 409.1 414.5 421 436.6 452.8 471.8 502.8 529.4 523.5 520.2 518.8 521.4 537.2 548.8 562.8 583.6 623.6 663.9 678.9 678.7 670.8 662.5 652.6 634.8 615 592.6 586.4 576.9 582 588.5 600.1 601.8 604.9 605.6 599.8 595.7 592.7 588.3 583.9 577 571.9 569.6 567.6 562.9 557.1 547.7 538 530.2 520.2 512.4 508.7 513.1 517.4 520.5 521.8 523.5 515.6 508.5 502.8 492.9 487.8 479.1 468 457.4 445.4 436.8 427.1 417.4 411.6 431.7 453.6 467.1 471.3 477.5 483.1 488.4 490.8 489.1 489.1 482.9 482.2 484.1 482.5 486.6 494.1 508.8 515.3 532.3 553.2 572.2 581.8 594.9 604.1 611 615.4 617.5 621 623.9 627.3 627.6 632.3 634.1 634.3 630.5 620.1 607.3 590.5 571.7 547.4 532.6 521.7 508.8 500.3 491.8 479.1 463.4 453 456.9 461.3 472.9 485.1 491.5 495.2 500.5 507.7 511.3 520.6 531.1 531.6 531.1
516.1 511.8 511.4 511.8 517.4 512 511.5 517.3 525.7 541.9 543.7 530.9 539.3 525.7 490.3 474.4 451.4 431.3 411.6 395.5 377.4 362.4 349.5 336.6 323.6 312.2 309.6 309.6 309.6 309.6 309.6 309.6 309.6 309.6 309.6 309.6 309.6 309.6 309.6 309.6 309.6 309.6 309.6 309.6 309.6 309.6 309.6 309.6 318.4 326.3 337.9 346.7 349 348.2 348 349.7 347.7 345.9 345.4 351.2 354.1 356.2 351.9 354.5 363.4 367.8 370.7 375.9 383.6 394.4 396.5 402 408.9 423.1 440 458.4 481.5 509.4 504.6 503.1 501.7 506.3 519.8 533.9 547.7 570.5 606 635.6 666.1 679.4 674.6 668.6 653.6 635.2 612.9 593.8 583.8 576.1 574.8 578.4 587.9 594.7 598 598.7 593 593.2 588.8 585.6 582 575.3 570.3 569.7 567.1 562 554.3 545 535.6 526.6 516.7 509.2 502.3 507.6 510.8 513.2 512.2 511.1 505.4 501.4 494.5 486.4 477.3 464.4 457.2 447.6 439.4 430.6 421.7 416.9 435 461.2 480.9 491.4 502.9 508.9 508.7 516.7 518.6 516.1 513.1 513.4 513.5 513.4 513.4 517.1 525.2 536.5 544.5 555.4 586.3 589.4 599.1 609.3 619.3 627.3 627.7 631.3 632.8 644.6 649.9 648.7 646.3 648.9 648.6 647.9 633.7 620.7 606.2 580.7 561.3 545 529.4 513.5 503.2 493.4 479.8 467.6 463.8 464.5 472.4 487 499 503.6 510.5 520.1 523.3 534.7 547.6 553.7 555.4 553.5
511.7 510.4 514.3 515.5 513.5 505.5 502.3 511.3 536.3 537 538.8 534 545.9 531.5 499 479.4 464.7 445 419.3 399.2 383.6 373.2 359.1 344 330.1 319.6 309.6 309.6 309.6 309.6 309.6 309.6 309.6 309.6 309.6 309.6 309.6 309.6 309.6 309.6 309.6 309.6 309.6 309.6 309.6 309.6 309.6 309.6 310.5 319.7 332.1 341.3 340.2 340 340.4 339.6 342.2 342.5 343.2 345.9 348.9 347.4 342.9 348.4 356.3 360 370.6 377.8 382.7 381.4 385.9 393.9 403.2 417.7 432.7 445.7 460.5 481.9 482.8 483.9 485.1 489.1 497 509.6 526.3 550.3 586.4 618 647.2 673.8 673.2 663.8 653.7 636 612 598.1 580.7 572.9 556.8 569.8 579.1 588.6 594.6 588.2 582.9 588 586.3 579.3 576 573.3 570 567.8 564.4 560.5 551.3 540.9 532.7 524 515.3 508.8 498.3 502.8 505.1 505.9 505.8 505.1 500.5 496.1 484.4 475.1 463.7 453.6 448 438 428.8 423.7 421.1 441.4 467.4 494 506.4 519.2 529.3 538.3 536.3 540.8 542.5 545.4 544.3 544.7 545.6 540.7 541.7 546 550.7 558.9 565.6 576.6 594.7 605.2 612 620.2 626.3 635.6 646.2 650.7 652.2 654.3 657 656.8 655.1 653.6 658.3 655.2 643.2 632.7 617.4 598.7 578.4 558.6 536.1 518.3 507.3 491.7 480.2 468.7 467.6 471.9 483.1 499.5 510.7 519 527 536.5 547.4 563.9 575.7 581.3 582.8 584
513.2 523.8 518.6 516.8 503.6 493.7 492.8 512.9 524.1 519.1 526.2 531.6 540.8 526.9 505.2 487.7 464.3 441.1 422.6 405.8 394.5 383.7 365.7 353.1 338.8 324.2 313.8 309.6 309.6 309.6 309.6 309.6 309.6 309.6 309.6 309.6 309.6 309.6 309.6 309.6 309.6 309.6 309.6 309.6 309.6 309.6 309.6 309.6 309.6 310.6 319 325.9 330.8 333 331.2 333.5 336.7 338.7 339.6 339.6 341 339.9 340.4 342.5 350.6 356.6 363.4 370.6 378.7 376.3 379.1 388.2 400.3 408.2 421.7 433.5 445.1 454.6 461.4 465.9 467.4 468 473.3 487.8 502.4 523.3 556.2 586.1 637.2 671.4 670.2 661.4 652.4 634.5 606.6 589.5 578.3 571.3 557.5 560.5 565 576.3 587.3 579.9 574.2 573.6 576 572 569.2 569.4 570 566.3 563.7 557.5 548.5 537.9 529.7 521.2 514.3 506.4 498 496.1 500.1 500.9 498.9 496 492.4 484.5 474.5 461.8 452.4 445.7 436.2 427.2 421.8 421.3 434 463.4 494.2 511.2 529.8 538.4 550.8 557.7 558.9 562.4 566 562.4 563.9 567.8 570.7 566.1 567.6 573.1 571.6 575.6 584.9 594.9 605 612 614.9 621 632.2 639.7 653.1 656.2 659.6 660.9 661.7 663.1 661.4 663.1 662.8 658.5 656.6 642.8 627.9 609.4 591.9 570.5 539.4 520 504.4 493.9 477.7 469.4 470.4 479.7 494.8 514.5 524.5 535.2 549.6 562.7 579.2 597.6 600.5 606.3 608.3 614.8
517.4 520.9 510.2 505.4 490.2 485.8 491.8 517.1 509.2 513.1 524.5 524 527.2 530.5 510.4 490.7 463.3 443.8 428.3 415.5 400 386.5 369.5 360 346.9 334.5 325.8 312.2 309.6 309.6 309.6 309.6 309.6 309.6 309.6 309.6 309.6 309.6 309.6 309.6 309.6 309.6 309.6 309.6 309.6 309.6 309.6 309.6 309.6 309.6 309.6 316.8 324.6 325.2 323.5 325.4 327.7 332.3 335.5 334.9 337.3 338.3 339 342.7 348.1 354.5 360.6 364.4 367.3 371.5 378.9 388.8 397.5 404.8 417.3 423.3 427.9 436 441 449.6 450.1 446.2 452.8 461.5 475.7 493.3 516.5 563.8 612.6 638 657.3 654.5 644.4 625.9 598 588.7 576.2 568.1 552.7 551.8 558.4 561.3 566.4 564.5 565 564.8 565.5 564.3 563.9 565.6 568.7 568.1 563 555 545.5 534.7 526.7 519.3 512.6 506.1 499.1 488.4 494.1 492.6 489.6 486.6 484 476 468.1 452.5 437.8 430.7 422.4 418.8 415.2 414.5 447.2 481.4 509.9 528.9 542.7 555.8 566.7 574.4 578.5 586.7 588.3 584.3 584.7 592.9 594.8 588.4 587.3 587.7 588.3 590.6 594.9 599.8 602.7 608.1 610.3 614.4 623 632.1 639.4 648.3 655.7 660.3 665.3 665.2 664.9 665.9 661.2 661.5 659.6 647.6 633 611.8 591.2 560.2 536.3 517.5 507.3 493.1 476.6 469.3 473.4 486.9 506.3 526.5 535.1 552.2 567.9 589.6 606.6 615.3 620 627.1 627.9 631.8
510.3 507.2 494.4 488 475.7 476.3 485.5 490.9 495.5 506.5 510.9 528.7 535.2 539.1 511.3 498.6 476.9 458.8 441.7 423.1 407.2 390.8 377.3 372 357.4 344.3 334.8 320.3 309.6 309.6 309.6 309.6 309.6 309.6 309.6 309.6 309.6 309.6 309.6 309.6 309.6 309.6 309.6 309.6 309.6 309.6 309.6 309.6 309.6 309.6 309.6 309.6 313.5 317.3 316.6 317.9 319.5 324.3 330 337.7 337.6 338.9 339.8 341.8 348.5 352.9 356.8 358.6 359.9 370.8 383.6 396.4 404 406.2 410.5 410.8 416.5 418.1 422.5 433.9 439.5 430.2 434.4 442.7 455.9 467.7 487.3 529.5 566.2 595.5 603.4 631.3 639.5 621.6 593.2 573.9 568.4 564.9 549 543 551 555 557.1 555.7 556.8 557.1 559 557 558.6 566.3 571.2 568.8 561.6 552.3 543.2 533.1 525.5 517.6 511.7 505.8 498.4 491 483.4 483.4 480.5 475.4 469.3 464.1 460.8 441.7 429.8 419.3 413 411.6 406.3 414 454.9 494.3 517 535.9 554.5 567.9 581.2 591.4 594.9 601.4 604.9 602.6 604.3 602.7 601.6 601.1 598.5 601.1 597.6 595.5 593.2 592.5 592.8 594.2 595.7 599.6 606.3 615.2 626.8 637.3 648.5 655.9 660.5 662.4 666.2 663 665.4 661.5 655.3 643.9 627.4 607.6 579 554.5 533.9 519.7 507.1 492.2 475.3 470.6 477.1 493.1 515.1 536.1 547.8 563.4 581.7 602.7 620 628.5 636.1 640.1 645.9 651.3
483.6 479.7 473.6 466.6 461.2 468 466.6 478.5 495.6 494.9 514.5 531.8 536.6 529.5 512.2 499.2 485.7 472.5 453.4 433.4 414.3 398.7 386.1 374.9 367.1 355.4 342.7 325.9 317.5 309.6 309.6 309.6 309.6 309.6 309.6 309.6 309.6 309.6 309.6 309.6 309.6 309.6 309.6 309.6 309.6 309.6 309.6 309.6 309.6 309.6 309.6 309.6 309.6 309.6 311.9 314.3 316.8 324.1 327.6 330.9 337.6 339.8 342.5 344 344.5 349.2 352.9 354.6 358.6 369.4 381.1 392.8 410.4 404.5 402.7 403.2 407.6 405.5 412.3 418.7 422.5 415 421.7 422.1 427.7 444.3 459.9 485 525.1 542.3 566.6 619.1 633.6 614.4 585.9 563.2 555.3 553.8 543.9 522.4 539.7 543.3 544.7 544.1 545.3 545.9 547.1 546.9 553.8 561.4 567.9 564.5 559.4 550.4 541.7 531.5 523.7 517.8 511.7 504.6 498.5 490.2 486.6 473.8 469.3 465.1 458.7 450.5 443.5 435.3 425.9 415 405.7 403 399 413.7 441.7 477.9 516.9 543 562.9 580.9 593 599.6 605.3 609.4 610.8 610.5 607.8 602.7 598 596.5 593.9 593.2 593.1 585.7 582 579.8 580.3 580.4 578.6 582.2 588.7 597.6 606.6 622.6 636.6 647.5 653.6 657.8 659.9 662 659.7 655.2 651.4 642.6 616.9 591.3 566.9 546.9 532.9 517.7 502.4 487.8 472.2 469.3 478.8 496.3 521.9 541.4 557.9 573.5 590.3 609.2 625.2 638.2 647.9 655.4 661.1 659.9
464.3 454.4 451.3 444.6 445.5 457.4 464.9 467.6 470.4 491 508.3 520.7 523.6 515.6 495.8 489.7 480.7 468.8 455 442.3 426 410.9 387.2 374.4 382.1 369.5 355.6 340.9 321 309.6 309.6 309.6 309.6 309.6 309.6 309.6 309.6 309.6 309.6 309.6 309.6 309.6 309.6 309.6 309.6 309.6 309.6 309.6 309.6 309.6 309.6 309.6 309.6 309.6 311.4 313.1 317.7 328.5 327.9 339.4 342 346.3 345.5 343.4 343.3 346.5 349 352.3 360.5 371.3 377.3 386.8 395.8 396.5 396.2 395.3 397.7 394.3 396.1 403.1 404.5 402.2 401.3 407.3 411.6 419.6 434.2 454 476.4 491.8 540.6 570.9 604.9 593.7 565.7 547.6 541.5 541.1 537.3 524.5 529 530 532.5 533.5 532.3 534.2 534.6 539.4 544.8 554.4 558.8 564.3 557 549 539 530.5 522.7 516.6 510.2 504.3 497 490.9 482.3 475.6 462.2 456.9 453.3 447.1 441.2 432.6 420.7 413.5 406.7 403.1 398.8 409.9 440.7 469 508.4 542.7 568.1 587.9 599.8 602.6 609.4 610.8 607.9 602.6 599.9 591.3 584.1 578.9 574.1 571.9 569.5 565.4 562.3 561.5 560 559.8 562 564.2 570.6 579.9 589.3 602.3 619.4 633.1 644.7 653.1 657.5 660.3 661.3 652.5 644.7 632.4 606.4 581.4 560.6 541.5 526.1 511.3 495.1 479.6 465.9 466.5 481.1 501.2 527.8 544.6 565.9 579 596.2 612.8 627.6 642.2 655.2 668.9 672.6 667.6
447.1 435 425 428.1 439.9 449.5 449.2 460.7 459.1 490.1 494.4 511.9 506.4 490.3 485.9 473.6 473.6 461 443.9 423.6 416.1 400 380.3 384.3 384 383.1 375.4 354.5 327.8 310.5 309.6 309.6 309.6 309.6 309.6 309.6 309.6 309.6 309.6 309.6 309.6 309.6 309.6 309.6 309.6 309.6 309.6 309.6 309.6 309.6 309.6 309.6 309.6 309.6 309.6 309.6 309.6 319 324.7 338 344.1 344.9 347.9 341.8 339.8 341 343.2 348.8 359.6 371.6 380.5 384 382.8 389 389.3 389.6 388.9 385.5 384.8 386.5 389 390.1 392.2 398.6 398.3 401.4 408.6 421.5 439.4 455.6 509.1 529.8 549 554.4 529.7 519.9 520.6 532.4 531.4 519.6 508.4 515.1 517.2 520.6 522.6 521.5 523.3 528.2 533.1 538.5 544.3 559.6 554.8 546.2 536.8 529.4 521.6 515.2 508.7 501.7 495.8 490.5 482.6 473.4 465.7 455.2 442.7 440.7 434.1 425.4 418.4 412.4 400.2 393.4 392.5 408.1 436.8 466.5 506.3 537.6 566 586.4 598.7 603 601.8 597.7 595 591 583.6 574.5 567.5 560.4 555.9 548.5 542 541.4 539.7 541.2 543 536.7 536.5 540.8 549.4 559 574.4 587 603.2 620.1 635.4 645.7 652.1 659.1 662.1 652.7 638.1 621 598.8 577.3 553.7 535 516.7 501.9 484.7 470.4 458.4 465.8 480.9 509.2 528.8 547.2 567.8 582.6 600.5 614.8 629.9 647.6 661.9 675.9 676.6 673.2
421.3 409.2 403 415.8 424.9 427 441.9 443.7 461.5 473.6 477.6 490.7 486.5 471.8 458.5 454.2 450.2 436.1 416.8 419.5 405.8 382.2 379.1 401.4 394.1 384.1 376.9 347.4 342.2 325.7 313.2 309.6 318.1 312.7 322.1 325.4 309.6 309.6 309.6 309.6 309.6 309.6 309.6 309.6 309.6 309.6 309.6 309.6 309.6 309.6 309.6 309.6 309.6 309.6 309.6 309.6 309.6 309.6 320.6 329 341.6 342.3 343.7 341.1 337.7 337.7 344.1 350.8 357.3 369.7 380.5 378.2 380.2 380.7 382.9 379.5 376.3 373.6 372.6 373.7 377.9 383.7 382.2 389.6 391.1 384.7 395.3 406.1 414.5 427 437.1 458.2 488.1 506.6 499.3 489.7 490.8 506.7 520.4 506.4 489.9 502.7 500.5 503.9 506.1 506.4 508.9 512.8 518 520.9 520.7 536.8 547.9 543 533.6 526 519.8 513.4 506.9 500.3 494.6 488.4 479.4 470 461.2 454.5 445.3 426.8 422.3 422.4 415.1 407.9 394.8 389.1 390.7 408.6 433.3 460.8 495.3 519.5 541.7 562.9 578.3 584.9 585.7 583.2 579.4 573.4 564.7 555.7 547.7 535.8 525.4 518.5 514.9 511.8 510.1 509.6 511.6 510.2 513 516.8 527.3 541.1 558.5 576 593.1 610.1 626.8 638.2 646.8 654.2 654.8 646.6 629.5 613.5 595.9 574.2 544.3 522.2 505.7 491.3 473.4 460.6 455.8 464 481.4 504.5 530.3 550.1 568.6 586.7 602.4 616.2 633.7 652.4 667.2 675.9 685.1 685
393.3 384.1 392.2 404.7 402 418 424 426.5 447.9 460.4 468 464.2 463.7 442.4 424.7 429.4 418.6 407.3 411.3 398.9 379.7 369.2 371.4 375.2 388.9 382.7 359.6 357.9 353.1 342.9 329.7 324.5 330.2 329.4 325.1 330.8 319 309.6 309.6 309.6 309.6 309.6 309.6 309.6 309.6 309.6 309.6 309.6 309.6 309.6 309.6 309.6 309.6 309.6 309.6 309.6 309.6 309.6 315.1 325.2 332.1 335.5 340.9 339.5 335.7 335.2 336.3 346.7 356.1 366.1 373.7 377.2 378 379.2 379.4 373.1 369.3 365.2 361.6 367.8 373.2 376.2 371.7 381.3 384.9 379.8 379.5 384.3 393.5 397 407.5 419.3 433.4 460.9 462.5 464.6 464.1 470.1 490.3 491.2 478.9 487.6 485.6 485.7 488.3 491.1 494 495.6 499.8 504.2 504.7 507.4 529.4 539.9 531.6 524.3 518 511.4 504.7 498.6 492.8 487.4 481.9 473.7 463.5 455.4 446 433.9 416.8 411.9 402.5 399.6 391.8 388.2 391.6 404.7 428.3 458.3 485.2 500.2 514.8 535.5 547.7 556.2 560.7 559.6 554.5 545.5 534.4 525.7 516 506.7 496.4 488.9 487.4 483.6 479.3 483.3 488.7 487 487.7 499 508.3 524 542.6 564.2 582.3 599.2 611.7 625.2 637.4 642.3 640.7 629.8 615.8 603.3 585.7 558.6 531.2 509.3 491.5 476.4 463.6 452.8 453.6 462.2 482.2 509.9 534.2 553.1 573.2 588.3 604.6 618 636.5 657.2 671.2 686.9 695.3 693.9
367.5 364.6 377.4 381.1 390.2 397.8 400.3 417 438.7 452.5 439.2 434.8 435.6 414.2 406.3 398.8 396.2 392 388.7 373.4 355.2 366.4 359.8 363.9 360.2 366.6 356.7 375.8 370.8 361.5 352.2 347.8 350.7 357.9 350.6 343.1 328.1 309.6 309.6 309.6 309.6 309.6 309.6 309.6 309.6 309.6 309.6 309.6 309.6 309.6 309.6 309.6 309.6 309.6 309.6 309.6 309.6 309.6 309.6 318.4 324.4 325.8 326 330.5 333.9 333.5 333.9 340.1 354.7 374.2 387.8 393.6 384.9 380 376.4 370.5 366.9 364.8 359.1 365.3 370.9 374.4 369.3 374.1 377.5 374.2 369.2 370.7 372.7 382.3 387.6 396.7 409.7 429.2 429 432.9 444.1 446.1 461.3 466 464.3 467.9 466.5 470.7 472.9 476.1 479.6 482.6 486.4 487.9 490.5 489 506.3 534.9 526.7 520.4 515.9 508.7 502.2 496.3 490.7 485.1 479.7 474.2 466.3 457.7 447.7 435.3 421.5 409.8 399.4 389.3 388.8 386.7 392.1 401.2 421.2 452.5 462.9 480 491 507.9 518.8 526.7 530.3 529.8 524.2 516 505.1 497.7 489.3 482.1 470.4 463.4 458.7 458.3 456.3 459.8 463.6 459.6 461.4 475.1 487.4 508.8 530.8 551.1 570.1 582.4 595 604 617.1 622.9 619.4 608.9 595.7 583.4 564.6 541.2 515.4 498.1 479.3 463.4 453.7 448.8 451.9 462.7 482.2 508.9 534.5 557.3 574.5 589.8 607.3 621.5 641.4 660.7 681.3 695.3 705 715.3
350.8 354.4 366.4 375.4 380.2 371.3 383.1 411.3 434.5 428.3 411.8 411.1 402.7 396.7 393.6 383.1 379.6 372.6 362.9 351 343.1 355 353.1 353.7 346.9 337.6 364.6 368.2 371.1 372.6 380.1 381.2 381.1 375.8 364.4 351.2 330.3 309.6 309.6 309.6 309.6 309.6 309.6 309.6 309.6 309.6 309.6 309.6 309.6 309.6 309.6 309.6 309.6 309.6 309.6 309.6 309.6 309.6 309.6 309.5 312 309.6 315.6 327.4 329.9 329.7 331 338.1 349.3 377.5 391 394.9 383.2 377.7 373.8 368.9 365.3 360 356.7 359.8 365 369.7 368.9 367.3 370.2 367 358 359.5 363.1 366.6 375.8 380.7 391.8 403.2 404.1 418.5 423 425.6 436.2 441.7 441.1 451.5 453.6 455.7 458.1 462.5 469.4 473.3 473.8 473.5 476.8 475.1 487.6 523.6 515.6 516.1 512.4 505.1 498.5 494.1 488.6 483.6 478.7 473.2 466.3 458 450.7 439.6 425.1 413.7 400.7 392.2 383.5 385.6 391.2 397.1 409.1 429 444.8 458 474.3 478.4 487.5 493.3 496.7 498.2 494.4 489.7 481 467.9 462.3 458.9 447.2 438.7 437.3 436.4 435.5 437.2 438.5 434.5 436.2 446.4 467.4 495.1 516.2 535.6 553.6 565.9 576.5 583.9 591.9 600.2 597.3 588.6 578 563.8 542.9 522 498.9 483.8 462.1 448.5 444.3 447.9 449.7 462.4 481 507.6 533.1 556.4 573.7 592.9 609.7 625.5 645.9 667.5 690.1 704.8 719.1 732.7
340.3 344.7 351.4 356.5 352.6 362.7 375.4 394 413.7 397.5 387.7 389.4 373.7 373 376.8 374.6 362.5 352.7 347.1 338.6 337.8 340.5 345.4 341.1 332.8 343.3 361.1 355 361.5 383.8 404.1 399.3 385.2 369.1 352.2 341.5 333.5 320.8 309.6 309.6 309.6 309.6 309.6 309.6 309.6 309.6 309.6 309.6 309.6 309.6 309.6 309.6 309.6 309.6 309.6 309.6 309.6 309.6 309.6 309.6 309.6 309.6 311 323.2 329.3 329.4 331 339.9 348.4 364.9 375.5 380.7 373.7 373.8 369.8 366 362.2 356.2 351.2 355.8 360.6 364.2 368.9 357.5 363.4 358.4 348.2 354.5 359.4 361 363.7 369.2 372 382.1 391.9 402.3 405.2 408.9 417.7 416.7 430.6 438.2 444.8 444.9 444.6 448.4 456.9 462 465.9 465.1 466.1 466.1 470.8 494.2 504.2 511.8 506.1 500 493.4 489.2 486 481.8 477.4 473.4 465.7 460 451.2 441.7 428.3 416.9 402.7 393.5 387.2 379.2 384.8 391.9 402.8 411.4 425.5 440 455.3 462.5 463.4 470.1 469.7 468 465.1 457.2 452.1 443.4 434.4 426.9 420.7 415.1 416 414.7 415 417.2 415.4 413.4 409.5 423.9 452.2 476.4 499.9 518.3 534.4 548.8 559 567.4 572.6 574.8 575.3 569 559.2 546.1 527.1 504 483.7 462.8 446 430.4 432.9 441.2 446.1 460.4 479.1 505.3 530.3 552.2 573.3 593.4 612.1 628.7 649.7 673.5 697.3 719.3 733.2 742.2
334 335.8 336.2 337 344.6 352.2 360.9 382.8 384.5 375.4 375.2 364.8 357.2 360.6 356.6 353.2 348.6 334.8 330.3 331.9 328.2 329.9 330.5 325.8 345.3 341.7 345.3 358.5 368.5 383.1 404.3 399.4 385.5 369.5 357.4 344.1 339.8 329.2 318 309.6 309.6 309.6 309.6 309.6 309.6 309.6 309.6 309.6 309.6 309.6 309.6 309.6 309.6 309.6 309.6 309.6 309.6 309.6 309.6 309.6 309.6 309.6 309.5 319.3 326.9 328 329 336.1 349.9 358.9 364.9 361.8 366.7 365 362.7 362.3 358.2 351.6 348 349.4 359.8 361.1 359.5 351.7 356.7 351.7 343.1 346.7 351.8 353.5 351.3 359 362.1 369 376.9 388.9 393.8 393.5 398.6 411.6 418.2 425.4 435.6 436.2 435.9 436.6 440.8 451 456.9 456.8 456.9 457.5 459 475.4 506.6 504.5 500.1 493.9 489.2 487.7 483.8 481 475.7 470.2 465.4 459.5 451.9 442 429.6 421.1 407.4 396.5 389.7 379.1 381.4 388.8 396.2 404.4 411.4 422.4 435.5 442.8 447.9 448.2 449.4 444 437.8 432.9 423.1 417.7 410.4 404.3 402.1 397.2 396.3 397.2 397.6 399.6 401.6 399.6 394.6 412.3 433.4 456.1 479.7 497.7 516.6 532.1 544.2 551.8 556.8 557.6 556.1 551.7 539.8 522.3 507.2 488.6 464.6 445 428.9 417.7 423.7 429.4 443.4 455.5 477.4 503.7 528.9 552.3 573.4 593.5 612.9 632 652.4 679.2 704.6 727.7 743.7 747.9
325 329.2 326 323.7 329.4 334.3 344.3 363.3 369.9 356.6 359.1 356.3 344.3 338.1 337.8 342.5 334.5 318.8 327.2 324.2 320 319.3 317 331.3 333.9 344.2 358 359.5 363.6 376.6 394.2 391.6 383.2 371.3 361.7 349.2 343.3 333 322.6 316.5 309.6 309.6 309.6 309.6 309.6 309.6 309.6 309.6 309.6 309.6 309.6 309.6 309.6 309.6 309.6 309.6 309.6 309.6 309.6 309.6 309.6 309.6 309.6 314.4 327.4 320.9 326.1 332 342.3 347.4 349.4 352.4 355.7 354.8 354.2 354.1 351.5 346.2 343.7 344.5 350 355.3 358.6 348.3 348.4 343.4 336.5 341 343.2 344 344.3 345.8 353.7 357.3 364.3 376.5 386.4 385.5 387.5 396.9 409.5 415.7 423 426.1 426.8 429 432.1 438.6 445 447.9 446.6 447.2 452.9 470.8 502.1 496.6 492.2 487.5 486.1 484.2 482.7 480.1 475.1 469.6 464.5 459.6 451.4 443.2 432.9 423 410.1 398.5 387.6 379.5 375.2 379.6 385.7 394.9 399.4 406 415.5 419.2 427.1 435.5 429.8 423.7 419.4 411.7 404.8 399.1 392.9 387.4 385.3 381.7 380.5 382.4 383.1 381.4 384.5 383.6 381.6 401.4 420.2 437.9 457.1 477.5 500.4 515.1 530 538.4 540.6 541.8 538.9 532.8 522.8 506.6 488.5 470.4 448.8 429.8 411.4 406.9 414.8 426.4 437.7 454.7 474 499.4 523.3 547.1 569.8 591.9 615.4 635.2 653.8 682.8 706.9 729.9 744.5 747.8
