ncols 200
nrows 82
xllcorner 260000
yllcorner 773900
cellsize 50
786.2 772.6 758.4 742.9 726.8 711 700.8 688.9 674.4 664.7 652.6 640 627.4 616.9 604.8 592.1 575.9 562.4 547.4 532.3 531.6 533.5 538.6 546.5 558 567.9 576.4 582 587.6 595.1 599.3 593.3 578.5 565.2 545.7 528.4 513.1 501.7 491.4 477.5 470.2 463.5 451 436.8 437.1 435.6 437.6 435.1 434.7 432.8 438.3 448 454.5 478.1 501.2 526.6 558.9 585.7 604.1 615 624.5 631.5 636.2 635 631.4 624.9 616.2 614.1 606.5 597.6 590.8 584.7 573.5 586.2 595.2 605.5 618.7 633.6 651.9 673.3 696.7 718.1 739.6 763 787.9 811.1 830 847 861.5 872.1 881.1 885 885.4 883.9 883 880 872.2 877.8 885.5 889.4 892.7 897.5 901.6 903.7 904 904.2 905.6 908.3 909.7 906.9 901.6 896.6 893 896.2 900.7 908.7 916.4 921 922.7 923 923.3 922.4 921.2 919.7 918.4 917.1 917.9 917.2 916.2 912.6 908.3 903.9 899.2 893.4 886.1 879.5 874.6 868.3 864.2 859.5 854.1 849.1 844.8 837.1 833.9 838.4 843.7 848.8 854.2 860.4 865.8 868.6 870.1 870 869.1 863.8 857.1 849.2 842.2 837.2 831.7 823.2 820.7 812.3 814.1 824.4 831.6 836.6 838.1 836.5 833.8 830.3 823.2 826 827.8 828.1 827.2 824.7 823.8 826.6 830.1 834.1 838.7 843.2 848.2 853.2 854.6 852 849.3 844.8 835.4 830.4 824.1 818.1 811.3 797.2 776.8 759.8 746 727.3
765.2 748.5 732.4 717.1 702.1 691.8 681 669.6 657.4 645.1 634.5 624.5 613.4 601.7 591.6 575.3 564.6 549.1 536.7 537.3 541.1 546.3 554.1 566.7 576.7 585 591.9 599.2 605.9 613.3 612.3 603.2 589.1 571.2 550.3 535.2 517.3 501.7 490.7 480.5 472.3 459.7 445.2 437.8 438.8 438.6 438.6 436.6 436.2 434 439 447.2 456.1 477.6 504.4 531 562.9 590.7 610.3 620.9 627.5 633.9 639.8 640.9 637.6 630.3 619.6 617.8 610.7 601.3 600.9 591.7 576.9 588.8 597 606.4 622.6 640.4 657.8 675.7 698.6 718.6 742.4 767.7 793 817.5 837.4 855.1 870.5 882.3 890.6 895.1 895.7 894.9 892 888.8 883.3 877.2 884.6 890.2 894.7 899.5 903.5 907 908.8 908.9 910.8 912.4 911 907.2 903.8 902.2 897.3 902.3 900.9 906.4 913 918.4 921 921.6 921.9 921.4 920 917 914.2 912.4 912.5 912.4 910.4 905.8 902.6 897.7 893.9 887.2 880.6 876.7 871.2 866.5 861.6 856.9 852.5 847.6 842.2 836.3 838.9 843 847.6 853.5 858.9 864.2 868.2 869.3 868.2 867.6 867.1 863.3 857.9 848.9 841.7 837.2 832.2 824.7 822.2 813.9 817.7 827.1 833.6 840.4 842.4 841.3 837.7 829.7 832.4 835.7 835.9 833.3 832.4 829.8 829.2 831 833 837.5 842.4 847.9 855.1 858.6 857.8 856 852 848 844.3 836.6 835.7 821.2 814.9 797.3 775.8 762.5 746.9 730.7
740.7 721.5 706.1 695.8 683 673.7 663.6 655.3 644.2 630.1 619.6 612.3 600.4 589.1 578.5 564.7 550.4 539.6 544 551.5 556.1 564.1 574.1 584.7 591.9 601.8 609.4 618.6 627.3 627.3 626.8 613.4 589.3 576.7 551.4 531.9 515.3 501.3 490.4 481.7 471.5 456.6 447.4 439.5 440.5 439.8 439 439.6 440.8 439.8 440.6 448.9 456.1 476.7 506.1 535 565.4 594.9 614.5 624.7 632.2 637.5 644.7 649.4 646.3 635.2 622.8 620.1 610.8 611.4 607.7 597.4 581.8 587.6 600.8 611.9 625.6 644.5 662.3 680.6 704.4 728.7 751.1 774.1 798.2 821.5 841.5 859.4 875.8 889.6 897.5 902.6 904.1 902.8 899.2 894.8 889.7 885.4 889.5 892.7 896.4 902.2 907 910.3 912.5 913.4 914.5 914.4 912.6 910.5 907.7 907.2 903.3 905.7 908.4 911.2 915.9 918.4 921.1 921.8 921.3 920.3 918.1 915.4 911.6 906.6 907.3 907.5 904.4 900.5 896.7 891.9 886 882 877.4 872.9 868.4 864 859.6 854.9 850.1 845.3 839.3 839.8 845 849.3 851.6 858.1 862.6 866.5 868.6 869.1 867.9 866.5 864.4 861.1 855.8 849.6 841.5 836.4 831.1 825.6 823.1 815.4 821.2 828.9 836.3 842.3 844.9 845 838.2 838.7 842.3 841.7 840.9 838.6 836.5 833.9 832.4 834 837.5 840.9 846.2 852.1 858.5 861.1 862.8 860.3 856 850.7 847.8 839.7 835.8 826.4 814.4 793.2 780.7 765.7 748.9 738.3
711 697.2 687 676.4 667.1 658.3 649.6 642 629.1 616.7 607.4 596.8 586.5 576.4 565.7 551.9 545.1 547.8 557.5 568.1 575.3 583.9 591.9 598.5 609 619.7 629.1 634.6 640.8 634.8 632.4 616.2 596.4 580.8 554.2 536.8 515.7 501.4 490.3 481.8 469.6 456.6 449.8 443.3 442.8 441.4 444.5 446.2 446 440.7 441 451.1 457.1 478.9 507.2 538.8 570.6 597.9 616.6 629.8 637.5 642.4 650.7 653.4 650.8 641.5 628.1 622.3 615.4 614.5 610.6 598.1 589.4 592.3 603.6 615.4 631.2 648.9 666.7 685.5 712 736.1 757.8 783.3 808 830.3 848.2 865.6 879.8 893.6 901.8 907.7 908.5 907.1 902.7 898.3 892.6 890.7 893.6 897.1 899.8 904.3 910.8 914 916.8 916 917.1 916.4 915.8 913.9 912.8 911.6 908.9 908.5 912.7 915.3 919.2 920.6 921.9 922.9 922.1 921.5 918.5 915.2 908.8 905.2 901.3 901 897.6 893.6 887.7 885 882 878.8 873.7 870.9 866.6 862 857.9 852.6 847.1 842.6 840.9 847.1 850.9 853.5 855.8 861.5 865.3 868.9 869.4 869.1 866.4 864.7 860.4 857 853.1 849.1 841.7 835.5 832.1 827.5 822 821.9 826.3 831.8 839.5 843.2 847.1 845.4 846.2 848.2 848.4 847.4 847.1 844 843.8 840.4 838 838.8 841 844.9 848 853.9 860.3 862.7 864.9 863.5 859.4 852 849.2 840.5 835 823.2 804 790.6 780.3 766.1 751.2 746.7
688.9 678 669.9 662.8 654.9 645.5 636.1 626.2 615.2 604.7 595 583.8 571.9 557.6 552.5 556.9 558.2 567.6 576.9 584.8 591.8 598.8 608.6 617.4 627.6 636.2 644.6 650.4 652.3 646.9 631.3 620 605.8 582.1 558.7 535.5 517.9 500.8 488.8 480.2 466.6 454.1 449.3 451 451.1 447.7 450.7 449.3 449.7 440.9 439.9 450.6 458.9 483.1 509.3 541.7 575 602.8 620.5 634.9 641.7 650.7 655.3 658.8 656.5 647.7 631.4 624.8 618.8 615.2 611.1 598.7 592.6 594.4 609.1 621.7 639.9 653.4 672.2 693.3 718.6 742.1 765.3 791.3 816 838 855.9 871.9 886.1 895.6 904.2 908.8 910.3 907.3 904.2 901.1 897.1 897.9 897.8 900.4 903.8 908.6 913 916.6 919.5 919.1 920.4 919.1 919.3 918.4 917.9 916.2 913.6 913.2 914.9 919.2 922 922.9 925.1 925.3 924.8 923.9 921.2 916.7 908.7 907.3 903.4 896.7 889.8 887.4 884.3 882 879.5 875 870.6 866.8 863.7 860.2 855.9 851.1 845.7 843.9 846.2 850.3 853.6 856.3 860.5 865 868.3 871.4 871.9 869.6 866.6 862.8 860.1 857.2 853.7 847.8 842.1 835.9 832.7 827.2 824.7 827.1 831.7 837.4 841.2 845.5 848.3 853.5 856.3 856.3 854.6 854.8 854 850.7 850.9 848 845.1 843.3 844.9 847.8 849.2 854.8 860.8 864.3 865.2 864.7 859.6 857 846.5 830.5 821 810.2 798.1 785.9 776.6 767.8 753 747.5
673.3 665.4 657.5 651.1 641.8 632.3 624.5 615.5 603.9 594 583.9 569.8 562 565.1 564.7 571 577.2 583.7 592.2 600.8 609.7 617.6 626.6 637.6 645.3 652.4 659.8 664 661.2 649.1 630.8 621.5 606.8 579.2 559.3 536.7 517 499.7 492.3 480.9 464.5 451.6 450.6 457.3 447.6 457.8 457.2 452.9 452.2 446.1 440.4 449.8 462.3 484.9 510.7 542.5 575.8 606.7 625.4 639.3 647.6 655.6 659.7 662.5 662.1 654.8 635.4 623.2 622 616.9 611.7 601.7 594.8 601.6 614.7 629.2 647.3 663.8 681.1 700.8 724.3 749.4 775.9 799.3 822.7 843.9 861.9 878.2 891.3 900.1 906.9 910.7 912.8 909 905.1 902.2 902.3 902.5 903.3 904.4 907.9 912.9 916.8 919.7 921.9 922.6 922.8 923.1 923.2 923.2 922.7 920.9 919.6 918.3 919.1 922.8 925 925.1 926.5 928 928.5 928.2 923.9 919.3 915.3 910.6 905 898.7 891 887 880.7 876.5 871.3 867.1 864 862.3 858.1 854.7 851.5 848.7 846.8 850.5 853.2 854.1 857 859.3 862.8 867.1 871.5 874.2 873.8 870.8 866.9 865 861.3 858.1 854.5 848.9 842.1 836.5 831.6 828.1 824.4 829.9 834.8 840.7 844.6 848.1 856.1 860.8 863.7 863.9 863 862.2 861.1 858.4 856.6 854.1 851.7 848 848 849.5 851.4 854.8 859.4 864.4 865.8 863.9 860.1 853.4 841.3 825.1 816.7 799.3 792.8 781.8 771.5 764.2 751.9 740.3
659.8 652.5 645 638.2 631.8 621.2 611.4 602.2 593.4 582.3 570.4 573.2 575.1 575.8 582.5 590.5 595.7 601.8 609.7 620.3 627.7 636 647.5 657 665.2 669.7 672.1 671 667.1 653.6 633.2 621.9 607.1 580.5 561.5 539.8 517.4 501 488.4 474.7 464.3 451 451.9 457.4 447 459.4 468.7 460.4 463.3 442 439.3 447.4 459.7 484.6 511.2 543.7 577.3 609.4 627.9 643.5 652.2 663.7 668.6 669.6 668.2 660.4 643.5 633.1 626.3 619.4 614.3 606 600.9 608.3 621.8 636.9 655.4 673.3 690.2 712.1 733.9 759.7 785.7 809.7 832.3 851.3 867.7 882.3 894.1 903.1 908.2 911.9 913.9 910.9 906.7 903.9 904.9 905.5 906.7 908.4 911.4 915.9 920.2 921.8 923.5 925.1 926 927 928 928 927.6 926.3 925.1 922.8 922.7 924.8 926.1 926.8 928.1 930.6 932.3 932 928.9 924.1 919.9 913.2 906.3 899.6 894.3 889.5 884.9 881.8 877.5 873.7 871 867 862.2 858.3 855.5 852.3 853 855 857.2 858.6 861 864 866.4 870.2 873.1 875.8 876.1 873.7 868.2 866.2 862.9 859.4 855 849.5 843.2 836.4 832.6 829.8 829.1 833.4 837.3 842.4 847.2 856.9 862 866.8 869.1 870.3 871 871.3 869.8 866.8 863.4 858.7 857.6 852.6 849.5 850.8 853.1 856 858.6 860.6 861.8 860.8 858.1 846.9 836.4 821.9 811.5 790.5 786.3 775.8 766 757.9 748.2 736.6
647 640 633.4 627.1 620.9 611 600.6 590.8 581.5 586.3 586.3 586.2 589.5 593.3 598.4 606.5 614.2 623.5 632.9 642.4 647.7 652 667 677.2 682.2 687.3 684.9 682.1 670.4 653.2 634.9 622 605.3 579.4 560.7 537.1 516.8 494.9 483.2 473 461.3 451.5 452.2 455.6 448.9 457.9 467.6 469.5 464.5 448.1 439.3 446.1 457.5 480.9 509.4 539.5 577.4 610.8 630.4 644.3 657.4 671.4 679.4 679.4 674.7 666.8 649.5 635.5 630.2 623.5 617.3 608.6 610 613.8 626.6 643.3 663 682.5 700.5 726.3 747.2 772.7 795.1 819.1 840 857 872.2 885.6 895.3 902.5 906.3 909.1 910.3 909.4 906.3 905.9 907.4 908.7 910.1 911.8 915.9 919.6 923.5 924.7 926 927.5 929 929.4 931 931.7 931.2 930.6 928.5 925.9 925.3 924.4 926.3 927.6 929.5 932.1 934.1 935.1 932.1 927.8 921.9 914.3 906.3 900.4 895.3 890 886.7 884.7 880 875 871.3 867.8 864.1 859.8 855.5 856.5 859 860.5 861.3 863.4 864.9 867.8 871.2 873.3 875.2 876 877.6 875.6 870.8 867.1 863.9 861 856 850 841.7 837 833.8 829.1 833.8 836.7 839.9 846.6 854.8 861.8 867.7 872.8 875.1 876.2 877.7 877.3 877.2 874.2 869.1 863.2 860 856.4 853.2 853 855.5 855.8 856.4 856.6 858.9 858 855.2 842.9 831.9 818.2 801.8 785.2 776.9 775.1 762.3 753 744 732.5
639.2 631.1 623.6 615.9 609.6 602.3 594.7 586.8 589.2 593.9 596.4 600.6 603.7 608.5 614.5 626.2 635.8 644.5 653.9 661 667.3 674.8 689.8 696.2 699 699.3 692.7 684.2 671.7 651.6 631.8 621.2 602.3 579.3 558.8 535.2 515.4 495.8 481.2 468.4 463.7 456.7 453.8 458.7 451.4 458.1 467.9 472.9 461.6 451.4 441.6 445.1 456.3 478.5 507.6 538.4 576.6 609.3 632.5 650.7 666.4 680.8 688.3 690.4 684.3 671 653.1 636.8 634.6 626.4 620.2 613.4 615.3 620.1 633.3 653.2 670.7 691.1 710.1 736.1 759 784.3 807.2 827.4 846.4 862.3 876 887.4 895.9 900.9 903.5 905 905.4 905.4 905.2 906.3 908.2 910.7 912.9 915 918.8 922.2 924.5 925.4 927 929.7 931.4 931.8 932.3 933 933.6 932.2 930 927.6 926.8 925.4 924.9 926.7 929 931.5 933.7 935.7 933.2 927.9 921.5 913.3 906.3 900.6 896.7 892.4 887.6 884.6 881.2 876.3 872.5 868.4 864.9 859.8 859 861.9 862.9 863.9 865.1 867.6 869.4 872.3 874.8 876.5 877 877.9 878.3 876.5 873.7 870.3 865.5 862 857.9 849.3 843 839.6 836.4 831.4 836.6 839.6 843.6 852.9 860.3 869.7 874.1 876.4 882.5 882.4 882.1 881.1 880 877.7 870.9 865 861.9 857.6 854.7 853 856.6 855.6 854.5 853.7 855.3 852.5 852 841.2 828.3 819.3 795.1 781.3 774.2 768.4 760.2 751.2 738.6 729.6
633 624.3 617.2 609.8 604.8 597.2 592 595.2 597.8 602.5 606.7 611.6 619 625.9 636.8 647.8 657.2 669.6 677 683.7 689.7 699.3 711.5 711.5 714.1 708.1 694.3 681.3 668.5 647.1 634.3 618.6 599.7 576.8 555.7 535.8 514.7 502.3 481.6 467.9 463.6 463.7 458.4 456.4 451.9 455.2 466.7 472.1 468.9 449.8 442.8 445.8 458.8 477.7 503.3 535.8 569.2 606.4 636.1 658.1 677.9 689.3 696.4 696.7 692.6 677.4 661.9 650 639.8 631.7 625.2 614.7 618.3 625.7 641.2 659.2 680.4 700.1 722.9 750.9 769.2 792.8 815.3 834.1 850.5 865.9 878.1 888.3 895.2 898.6 899.3 899.8 900.3 900.2 901.2 903.6 907.6 910.4 913.3 915.5 919.1 922 923.8 926 928 931 932.2 932.2 933.1 933.9 934.1 932.9 930.8 928.2 926.2 925.2 924 924.9 927.4 929.3 932.5 934.5 932.1 927 919.5 911.6 904.1 901.4 897.1 893.5 889.2 884.9 880.2 876 873.7 869.6 865 860.8 864 865 866.4 867.3 868.9 870.9 873 875.4 877.5 879.7 879.5 879.7 879.2 878.9 876.2 872.6 868.4 863.9 858.7 850.3 846.2 841.1 835.2 836.2 841.7 843 848.2 858 866.5 873.6 878.1 879.2 884 883.2 879.9 880.6 878.8 876.6 872.4 867.2 863.6 858.3 855.2 853.6 853.4 852.9 850.1 849.3 849 848.1 846.9 839.5 825.2 807.9 794.8 784.5 771.2 763.8 754.1 746 734.9 724
627.4 617.7 609.7 604.3 597.9 595.7 599 601 606.5 613.8 622.6 628.9 635.6 645.6 655.3 664.4 676.3 687.7 693 702.9 713.8 721.6 730 728.3 728.3 715.9 702 684.7 667.2 643.8 631.6 615.4 596.6 574.8 553.1 533.2 515.3 498.1 481.9 471 469.4 465.4 459.3 463.4 454.1 455.2 463.8 471.4 471.6 454.9 443.4 447.6 457.3 473.4 497.5 529.2 563.3 600 637.6 664.4 684.3 695.7 702.1 702.5 697.7 683.5 669.2 656.5 646.5 639.8 632.8 623.4 622.4 635.3 647.3 664.5 685.7 707.7 732.5 759.7 776.4 797.7 820.9 838.2 853.9 867.2 878.1 886.3 889.6 893 893.5 893.6 894.5 896 897.3 900.7 904.9 908.6 911.5 915.1 917.6 919.1 921 923.6 927 930.4 932.5 932.6 933.7 934.8 934.6 933.2 930.5 927.6 925.3 923.4 922 921.7 923.4 925.3 928.2 930.3 929.1 923.9 917.1 909 904 900.8 896.8 892.5 888.6 884.4 880.4 877.7 873.7 869.1 864.5 865.5 868.2 869.7 871.1 872.9 874.8 876.2 877 878.8 879.9 881.4 881.6 880.9 881.5 880.2 877.2 874.9 870.8 866.5 859.7 854.1 849 843 834.4 842.8 845.8 849.1 854 862.2 872.2 877.5 879.6 880.5 875.8 878 875.9 877.2 872.8 868.4 869.1 867.8 862.4 856.1 854.2 851.9 844.8 845.2 845.7 843.2 840.5 842.2 840.2 834.7 820.7 804.3 792.5 782.3 770.9 761.4 754 743.3 732.7 721.4
621.5 611.2 604.8 602.9 602.3 601.2 604 612.2 620 630.3 639 648 655.7 666.3 676.5 685.4 696.3 703.9 715.9 726.1 737 743.6 743.8 743 734.9 718 703.7 683.8 665.1 644.2 631 614.6 593.8 572.3 551.2 533.3 516.6 498 479.4 472.8 467.5 466 458.2 459.8 455.5 456.9 461.4 465.7 467.3 455.2 444 444.5 452 468 491.7 522.3 555 592.8 633.3 666.2 686.9 698 705 707.2 701 688.1 676 664.9 652.9 648.1 638 631.5 628.8 642.2 654.4 672.5 694 720 741.8 765.3 784.4 802 823.8 840.8 854.1 865.9 874.7 879.8 882.7 885.7 887.2 886.1 887 888.3 891.8 896.9 901.1 904.7 909.3 912.4 913.5 913.7 915.8 919.4 924.3 928.2 931.5 932.7 934 935.3 934.9 932.2 929.2 926.4 924.3 921.9 918.6 917.2 918.6 920.6 923 925.2 923.5 918.5 911.6 907 903.3 899.6 895.4 890.6 887 884.4 880.9 877.9 873.1 867.1 867.9 868.7 871.9 874.5 875.6 877.2 878.7 879.6 880.8 881.6 882.2 883 882.8 881.7 882.9 881.8 878.5 875.6 872.4 868.5 861.6 857.6 850.3 837.4 845 846.7 850 855.5 859.6 869.2 874.8 876.6 876.8 872.4 867.6 865.5 869.9 868.9 864.8 859.8 858.1 858.6 856.1 852.9 850.9 845.3 840.4 838 834 835.5 832.8 831.9 833 830.5 819.6 807.5 795.1 783.8 770.9 758.6 750.4 740.8 730.3 719.8
614.8 608.3 607.3 606.4 604.4 609.8 618.9 627.5 637.3 649.1 658 666.7 677.7 688.7 698 704.2 715.6 728.1 740.7 749.3 756.6 760.8 756.6 749.4 734.2 721.4 698.4 679.2 659.8 644.3 627.3 611.3 590.4 569.1 550.5 532.8 513.3 496.8 484.3 475.1 471.1 468.1 464.5 459.2 457.5 458 460.3 465 465.5 459.8 443.9 445.8 448.3 464.1 483.8 511.7 544.8 581.9 623.4 657.9 685.5 701.6 711 712 706.9 694.5 683.3 671.3 663.8 657.9 647.9 638.3 638.3 649 661.8 679.7 702.1 728.8 748.4 771.3 788.2 804.3 825.5 840.1 851.6 861.8 868.5 873.2 875.5 877.2 877.3 877 877.8 880.8 885 890.8 895.5 900 903.3 905.3 904.5 902.4 908 912.9 919.3 926.3 930.1 931.7 933.1 934.4 933.7 930.9 928 925.4 922.4 919.4 915 911.3 912.1 914.3 917.5 918.2 916.4 912.5 908.5 904.8 901.2 897.3 892.6 889.2 886.5 884.2 879.9 875.8 871 870.8 871.9 873.8 875.4 877.4 879.1 881.5 881.6 882.9 884 884.3 884.7 884.5 883.9 883.5 883.1 882.5 880.3 877.3 874.1 870.5 864.7 859.5 840.6 846.3 849.1 852.7 857.5 860.9 866.1 872.8 873.4 870.7 869.1 863.5 856.4 849.8 855.5 851.7 850.7 846.6 847.3 848.4 845.2 842.4 843 836.5 832.4 827.3 828.2 826 825.2 825.3 826.6 828.1 818.7 809.7 798.5 780.5 769.6 757.5 747.8 737.1 727.7 717.3
614.2 612.7 611 610.2 615.7 625.7 635.7 646.7 656.9 667.4 678.4 693.4 704.7 710.3 717.8 728.2 737.9 750.9 760.6 769.6 771 769.4 760.5 746.4 729 709.3 691.5 672.9 654.4 638.7 620.6 605.7 586.3 567.2 547.9 530.8 510.8 498.6 487.1 472.7 471.8 470.7 463 461.2 462 462.6 459.2 460.6 461.6 464.5 447.7 443.7 448.8 461.3 475.3 502.3 533.1 567.3 604 643.7 679.9 705.3 717.5 718.9 713 700.8 688.6 677.6 671.3 666.1 656.7 646 647.6 659.7 669.8 687.4 711.6 735.1 755.4 773.7 791.2 806.7 824.2 836.3 846.3 854.7 860.4 863 864.8 866.3 866.7 867.3 868.7 873.5 877.7 883.2 888.1 892.1 893.5 891.8 885.1 885.3 895.6 903.4 915.4 923.3 928.5 930.3 931.7 932.2 931.1 928.8 926.2 923.1 920.2 916.1 911.7 907.9 907.8 909.7 912.6 912.7 909.7 907.3 905 902.1 898.5 894.9 890.9 888.2 885.2 882.1 877.9 874.2 874.3 875.8 877.3 877.5 879.6 881.4 882.2 884.6 885.7 887.2 887.4 887 886.4 885 884.3 885.6 884.2 883.4 881.2 878.4 875.7 871.3 866.8 850.8 857.7 854.3 855.7 861 864.7 868.8 873.7 876.5 871.9 862.6 858.9 853 841.5 836.4 835.9 835.1 828.5 823.8 824 829.7 828.5 829.5 829.5 826.7 825 822.1 819.5 816.3 814.3 815 815.7 820.3 821.7 810.6 798 781 772.5 756.2 743.6 736.3 726 716.2
619.5 616.1 620.4 623.3 632.7 645.2 655.8 669.1 676.8 691.3 704.3 715.2 725 729.2 739 750.2 762.4 773.3 779 781.1 774.6 767.5 758.1 739.1 721.5 698.3 679.9 663.6 643.6 631.8 615.7 600.3 582 564 547.4 530.9 515 504.4 487.7 477.1 476.7 466.4 464.8 471 464.9 461 462.3 460.1 460.1 458.7 448.6 447.6 445.6 453.3 468.2 492.7 520 553.3 590.9 628.1 664.1 698.5 718.3 722.5 718.5 709 696.9 684.4 677.6 672.9 667.7 657 655.1 664.3 681.7 699 721.2 739.2 758.7 773.7 790.3 806.3 819.1 831 839.4 845.7 849.9 851.5 852.4 853.1 853.7 857.4 860.8 865.9 870.5 875.5 879.4 881.5 877.2 868.5 858.7 863.1 872.5 891.7 910.2 919.7 925.4 929 930 931 928.7 926 923.7 920.1 916.9 911 907.3 905.3 905.1 905.5 907.3 906 903.6 902.9 901.8 899.3 895.4 892.9 890.3 886.9 883.3 879.5 877.6 877.8 878.6 879.6 880.4 881.3 882.9 885.2 885.9 888.1 889.9 891.1 889.2 888.3 887.1 885.3 887 886.7 883 881.5 879.2 877.1 874.3 869.1 865.4 862 864.1 856 863.2 866.1 870.2 877.2 880.1 875.9 866.7 854.9 847.2 841 830.6 824.1 819.2 818.8 806.6 806.9 804.6 810.8 814.6 817.4 817.7 817.2 817.7 814.6 808.6 808.3 805.5 803.9 803.5 806.5 812.6 809 795 782.5 771.8 757.6 747 738 726.2 716.5
626.5 629.7 632 639.4 651.1 666.9 681 691.7 703.1 718.9 733.5 740.5 749.8 757.5 766.5 776.7 788.1 788.2 785 778 766.2 754.7 743.8 729.4 708.9 686.9 672.9 656.1 637.9 625.3 609.1 594.4 579.7 560 545.9 528.7 514.3 498.9 488.3 484.3 470.3 467.3 465.7 466.6 467.2 466 460.3 459.7 459.8 456 450.2 450.2 445.9 450.3 462.9 482.8 509.6 540.6 574 612.6 648.6 681 711.3 721.5 722.2 714.8 705.2 691.6 683.8 680.6 675.1 660.3 665.1 673.6 691.4 704.8 726.5 740.3 756.6 771.4 787 802.7 813.2 823.2 830.3 834.1 836.9 838.8 839.4 838.9 843.7 848 854.4 858.7 864.5 868.2 869.4 867 856.6 848.5 835.1 839.8 864.7 887.7 905 914.6 922 926.3 928.1 928 926.2 923.1 920.3 916.6 912.9 906.9 902.4 900.6 900.9 901.9 902.9 902.1 900.9 899.3 898.1 895.8 893.2 890.3 887.7 885.1 881.6 879.4 880.6 881.7 882.4 883.2 883.8 885 885.9 888.2 889.8 891.5 893.1 892.6 889.6 887.6 887.5 885.7 886.5 883.3 880.2 877.9 876.8 875.6 871.5 865.8 859.2 870.6 864.7 865 870.2 874.4 879.2 884.9 878.3 867.7 858.4 844.7 835 829.7 822.2 810.9 806 804.9 799.6 793.3 794.2 796.8 800.1 805.6 808.3 808.9 809.3 806 802.2 798.8 795.7 795.5 795.9 797.1 803.4 804.3 794.4 779.6 775.8 761.4 750.5 739 726.7 717.3
640.9 641.6 648.7 659.7 675 693.6 706.7 719.9 733.1 746.5 758 764.4 775.5 784.6 790.6 795.7 794.4 785.2 776.5 764.6 751.2 737.4 726.3 713 695.4 679.3 665.8 648.9 632.6 621.4 604.5 591.7 574.3 559.6 543.9 529.5 513.6 504.4 495.3 477.8 471.4 468.9 471.7 464.9 462.6 460 457.9 459 457.3 451 451.1 450.4 447.2 449.7 457.7 473.5 496.9 526 557.3 594 630.2 660.8 692.2 716.3 721.7 717.5 709.9 699.3 689.9 686.8 683.8 666 675.5 682.8 697.7 711 729.3 740.8 753.3 766.5 781 796.4 808.3 816.2 821.1 823.2 823.8 826.4 827.5 829.7 832.8 841.5 848.2 854 858.4 859.7 857 847.3 837.5 827 813 836.8 858.8 887.6 902.3 912.3 920.4 923.9 926.6 925.8 924.3 919.6 915.7 912.5 907.7 902.4 898.7 892.9 897.1 898.2 899.1 898.6 897.3 896.5 894.8 892.2 890.2 887.6 884.5 882.2 880.1 881.2 883 884.1 885.5 886.5 887.5 888.3 888.5 889.4 891.7 894.1 893.3 891.8 889.7 887.2 885.1 885.9 884.4 881.1 879.1 876.5 874.5 869.6 865.9 857.8 865.7 870.3 875.2 878.1 880.9 886 893.2 891.5 878.4 860.4 853.5 835.7 825.8 817.3 810.6 802.6 792.6 792.3 791 787 785.5 787.9 792.8 797.8 801.5 803 800.9 797.3 792.6 788 786 786.4 787.4 788.8 790.3 798.3 793.3 786 778.9 765.7 752.4 739.5 729.3 721
649.9 658.3 670.4 684.4 699.8 715.3 731.6 749.7 763.7 776 787.8 798.5 806.7 810.2 805 795.3 787 776.4 765.7 750.5 736.6 723.3 710.5 696.9 683.8 672.3 658.4 642 629.1 615.3 598.8 587.5 570.8 556.4 543 529.5 521.6 505.1 493.7 475.8 484.4 474.1 466.2 462.2 461.2 462.1 465.7 459.2 454.7 452.9 451.3 451 445.8 447.6 452.2 464.7 483.3 507.6 539.6 571.3 606.9 639.9 668.5 699.8 718.3 719.8 713.9 705.6 696 692.4 690.2 674.4 684.1 690.9 702.7 714.2 728 739.9 749.8 762.7 775.3 790.2 800.4 807.9 811.9 813.7 813.9 812.9 815.4 818.1 827.8 836.9 844 849.6 851 849.5 840.4 829.6 819.5 809.1 813.7 836.1 862.1 885.9 899.3 910.7 919.4 922.9 925.8 924 921.7 916.5 912.3 908.9 904.5 898.5 892.6 888.2 892.3 894.1 894.8 894.8 893.8 893.5 892.2 889.2 887.2 882.9 879.7 880.1 881.9 882.3 884.1 886.4 888 889.6 887.9 891.4 890.5 891.2 893 893.6 893.5 893 889.8 887 881.4 881.9 880.8 877.1 875 871.3 867.4 864.7 855.9 849.6 869.2 875.5 881.9 887.3 894.4 900.6 907.2 896.5 877.7 861.6 847.9 833.3 819.7 810.3 800.1 794.8 787.4 781.8 780.4 779.9 778.3 781.5 787.9 791.9 794.7 795.1 791.7 787.7 781 772.9 774.3 774.5 775.5 776.4 780.6 786 790.3 788.9 781.6 765.7 750.2 738.6 729.9 721.9
663.6 678.7 695.3 711.6 726.1 741.3 759.6 777 793.9 807.7 819.8 831.8 828.5 817.7 808.4 794.6 779 765.7 752.3 737.4 722.6 712.2 699.1 686.6 676 665.5 651.4 636.8 622.3 609.4 595.1 583 567.5 553.8 541.4 536 518.7 501.8 494.7 477.6 485 485.5 464.9 459 459.5 465.5 466.2 461.5 456.1 454 453.8 451.4 447.9 448.7 448.2 458.3 471.9 491.7 520.4 551.2 585.7 617.8 649.5 677.6 705 711.9 714.6 709.8 702 697.7 694.4 679.9 689.7 695 703.6 714.3 724.9 735.9 745.5 756.4 769 781.5 792.2 797.5 801 800.4 799.8 802.6 807 815.7 825.3 833.9 840.3 845.4 845 838.7 826.1 813.1 802.6 789.4 814.3 839.2 862.5 886.5 899.9 911.2 918.2 921.7 925 923.2 919.3 914.6 909.3 905.2 900.7 894.3 888.8 882.3 887.1 888.6 890.4 889.7 890.2 890.2 888.1 885.8 883.2 878 877.8 880.8 883.4 884.2 885.3 888.4 889.5 890.1 890.8 892.8 891.9 891.4 892.6 891.3 890.1 889.1 884.8 880.9 875.8 875.3 870.2 864.9 862.4 859.5 856.6 851.4 836.8 851.6 872.5 883.5 889 898.1 909.4 917.2 916.3 901.3 880.1 860.2 841.6 830.1 820.2 809.2 798.8 790.7 782.5 777.5 775.8 773.4 772.9 775.2 780.8 784.6 787.5 786.5 782.8 776.3 771.3 763.9 762.5 761 764.2 765.7 768.1 774.4 780.4 782.1 776 764.7 746.4 737 729.6 718.5
681 700 718.3 735.2 754.5 770.5 788.9 806.5 823.7 842.9 851.3 849.9 836.4 819.7 804 785.2 766.8 754.5 742.9 730.4 717.4 705 691.8 680 669.2 655.6 647.2 633.9 618.4 606.5 591.7 579.1 567.3 552.1 540.4 529.3 518.2 505.1 486.6 481.1 487.8 480.4 474 465.5 467.4 466 465.6 462 458.9 455.1 455.4 456.8 450.2 449.5 448.6 453.3 465.5 478.7 503.6 531.8 561.7 595.6 624.7 652.2 672.9 685.6 712.3 710.2 703.9 699.7 696.6 687.2 695.2 698.3 704.9 711.4 719.9 729.8 739.6 750 760.5 772.7 783.2 787.8 789.2 789.5 788.6 797.8 803.7 812.2 821.9 830.3 836.6 840.5 838.3 828.4 814.3 799.1 788 793.4 813.6 836.6 861.3 882.7 897.9 909.7 917.6 920.9 924.4 922.3 918.6 913.6 907.6 902.1 892.4 887.7 883.6 871.4 878.6 884 887.5 886 886.5 887.7 884.9 881.9 874.8 875.4 881.2 884.2 886.9 888.1 888 890.1 890.7 889.8 891.5 891 892.3 889.1 888.4 885.5 883.2 879.4 875.9 871.1 864.5 859.8 849.9 845.4 845.2 843.3 840.9 833.3 822.2 852 873.8 887.1 897.1 909.5 920.4 925.3 921.1 894.9 874.8 856 840.4 828.7 820.1 810.4 802.8 793.2 782.3 774.4 770.2 769.2 767.8 770.4 773.8 776.4 777.8 776.7 771.2 767.8 762 757 751.6 751.1 752.4 756.7 758.7 762 766.3 768.1 763.1 756 742.3 732.3 725 712.9
699.6 716.1 737.8 756.8 774.2 793.9 810.6 829.8 849.3 861.9 858.4 848 834.1 815.6 794.6 776.4 759.3 749.2 737.9 726 715.2 699.4 686.5 674.8 663 653.3 643.7 631.4 617.2 606.4 591.6 576.8 563.7 549.3 532.2 519.8 513.9 498.3 485.1 495.8 494.1 489.7 482.5 478 468.3 464.1 463.8 465 458.5 455.3 454.8 453.5 452 450.4 449 452.8 454.8 470.4 485.8 510.8 539.3 568 598.7 618.4 641.1 668.9 698.7 707.9 704.3 699.4 697 689.4 698.6 701.2 704.9 711.6 718.5 725 732.7 743 753.3 762.7 772.7 777 778.3 777.2 784.1 793.3 800.7 809.1 817.5 825.5 831 833.7 831.6 821.7 803.7 787.7 772.3 788.8 809.8 832 855.8 876.5 892.6 905.9 915.7 920.8 922.4 920.9 917.7 912.4 906.5 902.5 893.4 884.6 870.5 866.6 863.1 878.5 883.7 883.2 883.1 882.8 880.4 870.8 873.4 882.2 885.3 887.8 890 890.8 890 890.5 891 891.3 890.6 889.4 889.3 885.1 882 878.5 875.4 870.2 862.3 853.8 846.2 838 832.4 830.8 831.1 829.6 825.2 814.7 823 850.9 873.8 889 903 916.9 925.1 927.1 921.3 897.6 870.8 856.1 836 827.9 817.6 812.6 804.9 795.4 786 774.7 767.8 764.5 764.3 764.2 764.8 768.1 768.3 766.7 763 758.6 753.4 748.2 740.1 738.4 740.7 744.7 749.3 753 756.8 757.4 754.4 750.7 740.9 729.2 715.4 705
708.5 730 750.5 770.5 785.6 807.6 823.7 846.2 861.8 870.5 863.9 847.8 831.7 808.1 784.6 769.6 756.4 746.2 734.6 721.7 707 695.4 682.6 672 661.6 652.1 642.8 630.7 616.7 602.7 590.6 576.4 559.8 547.6 534.9 524.9 516.4 499.7 485.8 505.3 510.3 503.5 499.1 496.1 473.7 462.3 461.1 467.2 460.4 456.6 455 453.2 451.9 451.5 449.7 450.1 454.3 460.7 474.3 488.8 515.4 541.3 569.7 597.2 610.5 649.1 671.5 700.6 701.4 699.4 696.8 695.6 697.3 701.5 705.8 709.7 716.4 722.3 728.9 736.9 743.8 753.2 760.4 765.9 766.1 772.1 779.9 789.6 797.6 804 811.9 819.6 825.4 825.3 821.2 809.4 794.5 779.7 764.3 784.7 801.2 820.3 844.3 869.9 887.5 901.5 912.5 917.9 919.8 919.4 915.5 910.2 905.9 900.2 892.8 880.2 869.4 854 854.1 872.7 880.3 880.2 879.6 878.9 870.9 868.9 879.5 885.9 889.5 891.6 893 892.8 890.5 889 889.6 889.5 887.6 885.7 883.4 878.3 875 869.5 864.2 855 842.3 832.8 826 823 819 815.7 815.5 816 811 806.2 827.9 850.6 871 890.7 907.5 919.9 925.8 925.3 914.4 886.2 864.2 847.7 835.8 823.9 815 812.5 804 795.9 786.6 778 768.8 759 746.4 758.4 758 758.6 758.9 755.9 754.1 749.8 743.8 738.6 733 727.8 730.7 732.6 737.6 742.3 747.3 747.5 749.2 743.5 734.6 725 711.7 698.9
719.1 738.6 756.9 775.2 792 815.3 833.1 854.1 867.7 873.7 867.9 844.8 822.4 796.7 776.6 763.9 754.2 743.1 731.2 717.8 705 692.3 680.4 669.6 659.8 649.5 639.9 629.2 616.4 604.7 590 576.3 561.6 549.1 535.2 528 514.5 492.1 507.2 515.5 521.3 522.7 522.6 512.7 485.7 470.4 462 461 461.7 461.8 456.6 452.7 453.9 450.9 448.9 451.4 452.5 462.4 466.9 476 494.7 519.7 547.2 569.3 589 620.4 660.1 685.4 695.8 696.7 695.7 696 698.3 702.1 705 708.7 713.2 719.3 724.7 730.3 737.1 744.1 749.7 754.7 757.1 767.1 776.1 784.7 792 800.1 805.9 811.6 816.4 814.6 808.2 796.8 782.2 769.9 756.6 774.1 786.9 810.6 836.9 863.1 881.6 896.7 908.4 914.9 918.2 916.9 913.6 909.2 904 898.8 888.7 877.4 862.8 840 844.2 865.3 874.9 878.5 874.6 872.2 860.1 874.1 884.2 889.6 893 895.7 895.1 892.8 887.7 884.9 886.4 886.2 883.5 881.9 877.2 869.3 862.4 858.5 848.4 835 822.7 817.2 813.1 808.8 806 804.3 805.4 804.8 796.5 811.6 831.4 849.5 869.7 892 907.5 918.9 922.8 918.4 897.6 878.2 860.9 850.2 835.3 824.9 813.9 809.1 802.5 794.1 785.1 776.5 767.7 760.3 751.1 740.4 749.3 748.8 748.5 746 743.2 740 735.2 728.4 723.5 720.8 721.5 724.6 727.1 730.6 736.3 738.6 742.2 736.5 728.7 715 705.3 696
732 740 758.2 777.7 795.9 817.1 837 856.7 871.7 879.5 869.3 840.1 809.1 781.3 763.4 758.9 749.7 740.6 729 716.8 703.5 691.8 678.8 668 659 647.6 637.7 629.9 615.9 602.5 589.7 577.1 564.5 545.4 536.8 526.8 514.3 498 514.6 526.2 533.5 543.8 550.7 529.5 502.5 481.4 470 461.6 461.1 456.5 453.3 451.1 449.9 450.1 450 449.3 450.6 454.1 459.8 469.5 478.1 499.7 523.1 545.9 576.2 606.4 643.8 668.3 684.4 688.2 692.6 695.2 697.8 699.4 705.7 708.4 712.1 716.5 720.8 724.7 731.3 736.3 740.7 742.3 752.8 763.6 771.2 778.6 785.8 792.6 798 801.7 802.9 799.3 792.8 780.3 768.1 756.9 750.2 770.4 788.9 810.1 833.4 855.7 873.9 888.7 902.9 911 914.7 915 912.2 908.4 903.3 898 888 873.4 849.5 822.2 833.5 855.2 869.9 875.2 871.8 859.4 861.4 875.5 885.9 892.9 896.2 898.1 896.5 892.7 887 881.4 881.2 879.5 877.7 873.3 869.1 860.4 851.8 841.8 831.6 819.1 810 804.7 800.1 796.2 797.2 796.3 795.6 788.3 799.4 814.6 832 850.4 870.7 892 904.8 913.5 915.5 907.3 887.3 874.2 857.7 844.4 834.6 823 818.3 808.9 800.2 791.1 782.6 774.9 764.9 756.9 750.1 736.3 741.2 740.2 739.2 736 731.9 728.2 724.6 718.9 715.4 708.5 711.6 714.3 719 723.1 726.3 729.4 734.9 728.7 718.5 712.2 701.8 691.1
748.8 757.3 769.3 780.9 797.5 819 838.8 858.9 874.2 882.9 859.3 827.1 797.7 773.9 759.6 754.5 746.2 737.1 729.2 716.5 703.8 693.2 679.8 668.8 659.5 646.5 636 626 616.3 598.7 587.3 572.9 559.7 548.9 537.4 535.8 511.6 514.6 528.6 539.8 547.8 563.3 579.3 553.1 519.3 498.8 480.3 467.7 465.1 455.8 452.9 453.7 453.9 450.1 448.9 450.8 450.5 454.2 455.1 461.7 472.4 486.3 505.4 529.6 558.2 587.2 621.7 654.3 672.3 678.9 685.8 690.7 694.7 698.4 701.2 705.6 710.3 713.3 717.2 721 725.4 728.8 730.5 738.6 747.6 755.9 765.3 773.2 777.2 782.1 787.3 788.7 786.8 783.3 773.5 762.2 750.5 741.8 748.6 765.8 782 804.5 828.2 851 871.2 888 902.2 911 914.7 914.5 911.6 906.9 902.3 895.8 884.4 869.9 845.6 815.3 821.8 844.1 864.7 871.8 866.4 850.5 861.8 875.3 886.3 894.8 899.2 899.8 897.1 891.5 883.1 876.3 871 870 868.5 864.5 859.4 849.9 839.4 826.3 812.8 804.8 799.4 792.5 789.1 786.3 786.8 787.2 783 786 800.1 814.7 833.6 853.5 874.3 889.1 898.4 905.4 903.6 893.4 880.9 864.3 852 840.8 831.5 823.1 816.8 808.1 798.9 790.6 778.3 771.3 763 754.7 746.3 738 721.9 731.2 729.2 726.2 721.9 717.6 714.7 711 707.8 704.1 704.7 705.6 707.9 713.6 718.5 724.3 725.9 721.6 715.8 707 695.7 681.7
767.1 775.5 781.3 793.4 802.5 823.4 842.8 862 879.5 885 847.4 817.8 794.3 774.1 762 752.3 743.4 735.8 726.8 715.9 702.2 690.7 678.3 667.1 658.7 646.4 636.8 626.1 610.8 596.5 584.4 578.4 561.2 548.2 539.9 526.9 520.5 528 542 553.2 565.2 583.7 602.2 573.7 540.4 516.4 491.8 476.7 466.9 457.7 453.8 455.8 455.1 450.1 451.2 449.3 450.1 451.1 456.5 462.2 467.3 475.4 489.2 513.4 539.3 567.8 601.2 634 654.1 666.2 674.1 683.9 690 693.9 697 701 705.5 709 712.1 715.8 717.2 721.2 728.7 736.8 744.5 751.5 758.9 766 770.7 772.8 774 774.1 771.2 763.7 753 742.5 733.5 732.7 747.9 764.7 784.3 804.2 826.8 848.6 869.4 888.4 902.8 911.7 916.5 916.5 911.7 904.7 894.3 882.3 870.9 857.9 839.7 814.1 807.3 831.2 855 867.2 861.1 841.6 855.8 871.3 883.1 894.2 900.5 900.9 895.9 887.5 876.8 868.7 863.2 859.7 858.2 852.8 845.5 833.5 819.8 806.8 797 790.8 785.8 781.1 779.3 778.1 778.7 778.2 771.2 786.7 801 818.1 839.2 859.9 876.1 884.9 891.1 894.2 892 884.6 867.5 855.2 843.4 833.8 827.6 819.7 813.9 805.5 797.4 787.4 777.8 767.4 759.8 749.7 741.9 733.9 727.7 720.2 719.5 716.7 714.1 709.4 705.3 702.9 699.9 697.6 697.7 698.5 701.6 704.3 709.5 714.6 717.9 716.1 709.2 699.5 684.4 676.3
782.6 791.7 793.8 804.9 819.7 831.2 850.1 870.2 885.8 880.8 843.7 817 793 779.5 765.8 753.5 743.4 734.6 724.8 713.9 702 688.9 675.7 665.6 657.2 643.7 632.2 621.3 609.4 597.2 588.9 574.3 560.8 550 545.4 531.8 531.7 541.4 553.5 566.4 582.1 601.6 625.3 596.6 558.6 535 510.4 490.3 476.9 463.6 456.2 456.7 457.6 456.4 451.6 451.2 450.1 453.7 454.6 461.8 464.6 466.5 478.4 496.4 524 549.6 580.1 614.9 642.8 654.5 664.4 674.8 682.4 689 692.2 695.3 700.5 704.6 705.7 706.8 711.6 720.4 727.2 731.5 739 746.9 752.8 757 761.4 762.9 761.3 759.8 755 743.5 732.7 723.5 725.5 743.1 761 776.4 792.2 810.6 829.6 851.2 871.2 888.3 902.3 911.3 917.1 917.9 911.5 892.2 870.3 854.5 847.1 841.2 829.8 809.6 793 819 847 863.9 854.6 829.8 841.1 858.3 876.4 889 898.5 898.8 890.4 880.6 870.9 860.6 853 846.5 846 839.9 830.2 814.5 801.7 791.7 783.7 777.1 772.5 770.8 769.8 770.1 770.1 761.8 776.1 788.5 802.7 824.1 845.5 863.6 872.9 877.6 884.2 883.7 880 870.1 854.7 843.1 834.9 827 821.1 814.6 808 801.2 792.8 784.5 775.1 764.7 756.4 747.8 738.2 731.4 722.4 715.9 708.4 708.5 705.5 702 698.4 694.4 692.8 691.5 691.7 691.3 693.4 696.5 699.4 706.1 708.5 707.4 701.6 693.9 685.9 673.4
796.4 806.1 808.2 819 831.9 847.8 862.6 881.4 896.8 891.2 856.4 825.6 801.3 786.9 772.5 756.5 747.3 739.3 725.4 714.4 701.1 689 676 664.6 657 646.9 636.1 626.9 613.2 599 586.9 576.2 563.7 553.8 540.9 542.7 535.8 549.1 566.4 578.6 599.2 621.9 642 618.2 583.4 555.2 524 505.3 484.6 474.4 463.3 457.9 459 456.5 453 449.5 450 453.3 454.4 457.7 461.3 466.3 470.7 483.8 508.1 535.2 566.3 601.6 624.9 641.3 656.5 665.6 675.4 681.8 686.4 690.1 693.4 695.8 698.3 705.3 711.7 718.1 724.1 728.9 734.8 740.8 745.6 748.3 751 751.8 748.9 745.7 737.5 723 715.6 718.7 733 748.9 765.5 782.8 800.3 819.5 841.8 859.4 875.8 889.9 901.8 911.4 916.7 917.7 899.6 871.3 851.3 838.8 830.7 822.9 816.8 798 778.1 813.5 841.9 856.4 843.7 811.6 810 833.4 861.2 880.9 892.7 892.7 881.9 871.3 862.2 853.2 846.4 835.6 828.9 821.2 807.9 794.3 783.9 775.3 770.2 764.5 762.3 762.3 761.8 760.9 755.4 763.7 775.3 791.4 810.5 828.6 849.1 862.4 866 867.5 872 871.5 866.3 856.1 845.1 836.2 827.1 820.9 815.3 809.6 802.3 795.8 788.6 781.4 772.5 762.2 753.7 745.2 736.6 726.6 718.5 711.3 700.4 698.8 697.5 695.1 692.2 689.2 687 685.1 683.6 686 687.2 690.7 692.4 697.2 699.2 698.6 693.7 689.7 682.1 668.9
813.1 819.4 824.6 833.9 844.8 861.5 879.6 894.8 908.1 906.4 869 837.2 811.7 800.3 782.5 766.3 754.6 742.4 727.9 712.7 699.1 687.3 675.8 663.6 655.7 646.3 635.3 622.1 608.6 596.9 585.9 577.2 568.9 550.4 546.6 548.8 540.7 558.5 575.5 594.5 618.4 645.6 660.2 637.6 607.5 574.8 543.3 525.7 502.3 483.2 468.2 459.1 458.3 454 450.7 451.4 453.7 450.9 452 454 461.5 463 467.9 472.5 495.5 523.8 550.6 578.9 608.8 631 646.5 657.6 664.5 671.3 678 682.8 685 690 698 703.5 709.1 714 719 723.3 728.7 733.9 737.3 739.5 740 739.8 738.1 733.1 722.2 707.2 717.5 731.5 742.7 757 772.6 790.3 809.3 826.6 851.1 870.4 883.4 894 903.2 911.3 916.4 915.1 884.8 856.3 838.2 829.5 816.9 809.5 802.8 785 778.7 813.2 836.5 842.2 823.8 800 789 813.8 845.7 873.6 885.3 881.7 872 862 851.6 841.7 832.4 819.3 804.8 797.9 786.7 775.2 765 759.7 754.5 751.8 751.2 750.7 750.7 746.2 743.2 763.6 776.8 795.7 816 834.5 844.9 852.5 858.7 858.3 859.6 855.5 851.2 847.9 836.9 825.5 819.8 812.5 808 803.1 797.5 792 784.9 776.2 769.2 760.3 751.1 744 734.9 726.3 717 708.1 699.1 691.8 690.5 689.2 685.8 683.4 681.2 681 674.4 680 682 684 686.7 688.2 691.7 692.5 689.6 684.5 676.5 664.1
825.4 830.3 841.6 850 860.6 875.3 893.4 906.8 920.5 918.7 889.2 853.8 830 811.9 797 774.9 762.2 746.8 727.9 712.5 699.9 688 676.6 666.7 655.3 644.8 634.7 622 607 593.7 583.6 573.8 565.3 548.3 552.3 554.1 555.1 570.6 590.5 614.1 639.8 666.6 681.6 655.9 629.7 597.4 568.6 542.2 519.8 495.8 473.5 462.2 459.1 453.9 450.7 453.9 452.3 450.3 450.4 453.7 458.1 462.3 466.6 469.9 485 510.3 538.1 564.1 592.3 618.9 635.4 648.6 657.1 664.2 670.5 672 681.2 688.1 693.1 700 704.5 710.5 716.5 718.8 722.5 725.7 728.6 730.9 731.3 730.4 728 721.4 709.2 703.5 720.1 732.6 740 758.1 777.5 795.8 815.8 837.7 861.4 877.7 889.7 898.7 905 911.2 916.2 908.6 874.8 847.9 831.8 821.3 804.6 791.1 786.2 770.8 779.3 802.9 822.2 820.9 802 779 771.4 804.4 835.4 864.2 874.9 869.5 858.2 847.6 837 825 812.4 798.2 784.7 774.6 764.5 754.6 748 742 740 740 740.1 739.9 739.1 729.7 747.6 763.2 781.1 798.9 817.9 832.4 840.4 844 845.1 843.7 844.3 842.7 841.4 835.6 826.2 815.4 807.2 803.2 798.5 795.2 791.4 786.3 779.7 773.1 766.1 757.9 749.5 741.9 732.9 724 714.8 705.4 696.7 688.8 682.2 682.7 681 679.7 678.2 676.1 668.2 675.1 676.6 677.9 681 683.2 684.7 685.1 684.2 679.9 671.4 663.8
838.2 846.2 853.3 864.3 877.2 892.9 906.7 923.2 935.8 946.2 922.6 884.4 857.5 835 816.5 799.8 777.2 761 734.3 718 701.3 691.9 678.9 670.2 658.6 645.5 632.9 621.5 607.1 593.1 582.9 572.1 562.2 561.2 560.8 559.2 567 584.8 605.8 632.2 658.6 688 701.4 674.6 653.4 619.8 590.8 560.8 532.5 506.1 484.3 467.4 461.5 457.2 452.2 452.4 451.4 450.6 450.6 451.2 454.7 460.5 464 470.2 478 501.5 525.5 551.2 576.7 599.7 619 635.4 644.7 652.3 657.5 671.3 678.6 685.3 688.4 692.8 698.9 705.6 710.5 713.8 715.7 719.2 720.8 722.5 722.1 722.2 719.4 706.7 698.7 703.4 718.6 730.9 744.7 763.6 784.3 803.1 823.2 845.7 868.2 882.5 893.7 901.4 907.1 911.4 915.3 904.6 871.2 842.8 825.5 814.1 799.1 782.6 770.2 761.5 765.7 783.9 796.4 794.8 778.2 755.6 767.9 798.2 828 852.6 860.1 852.4 842.7 831.9 819.3 806.7 792.3 778.9 765.9 754.5 745.6 736.8 731.9 729.4 728.5 728.5 728.3 727.5 725.3 735.6 751.3 768.6 786.2 797.5 809.9 818 825.9 829.7 832.5 832.8 829.2 826.1 828.3 822.5 816.3 805.9 799.9 794.4 789.7 786.1 783 778.2 773.6 768.3 763 756.7 748.2 738.3 730.7 721.3 713.1 703.7 693.6 687.1 680.2 677 675.8 674.7 672 671 669.1 668.3 671.9 673.8 675.5 676.6 677.6 677.3 677.1 673.5 668.3 661.3
851.9 860.1 864.6 877.3 892.7 907 921 936.5 954 964.8 951.5 922.4 893.7 867.2 846.6 820.4 789.5 769.4 741.9 726.7 708 698.5 684 672.2 660.1 646.2 632.9 619.8 604.2 591.2 579.5 571.6 562.2 564.4 571.9 560.8 581.5 600.2 623.7 648.9 674.2 706.7 718.3 701 673.7 645.2 611.7 578.4 546.9 517.9 492 474.1 462.9 459.7 455.2 451.1 450.6 450.4 450.5 451 454.3 460.2 464.6 471.5 479.7 492.7 514.1 536.9 561.1 585.7 597.8 600.2 629.4 645.8 658.7 667 674.9 680.8 683 690 695.1 699.8 706.1 708 711.5 713 714.4 714.5 715.1 714.5 709.8 697.8 693.6 711.6 723.4 734 750.8 767.1 789.3 809 829.5 855.1 872.4 887 897 903.7 908.1 910.6 913 904.2 870.9 842.2 822.3 810.2 795.4 776.9 754.9 750.7 752.5 764.4 772.8 770.9 756.5 741.5 763 790.4 819.4 843.8 845.2 836.1 826.6 814.9 802.6 787.5 772.3 759.1 747.5 737.1 727.9 722.1 719 718.1 717.6 717.3 714.8 711.1 722.7 743 759.8 774.4 787.1 796.5 801.1 806 808.6 812.2 817.4 816.1 816.1 812.8 814.8 812.4 807.6 796.4 790.8 785.9 779.3 773.8 771.9 769.9 765.4 763.4 759 752.9 744.4 737 729.2 719.6 712.4 702.8 693.7 684.9 680 672 668.8 669.5 667.1 665.7 665.3 659.8 664.4 667 670.2 670.1 671.2 672.1 670.7 668.4 663.6 657.4
866 872.7 880.5 890.3 907 922.6 935.6 951.1 966.3 972 968.8 954.8 923.6 895.8 864.8 834.3 798.6 771.1 746.6 728.5 712.9 697.9 687.3 676 660 646.1 628.3 618.3 602.4 590.5 575.6 568.9 572.4 576.1 577.5 575.4 592.2 617.1 640.1 663.4 691.6 721.7 730.9 723 696.7 665.1 631.6 597.1 562.3 532.7 506.4 481.9 467.9 461.7 455.7 451.1 450.7 450.8 451 451.8 454.5 457.9 462.3 468.9 482 488.5 504.5 525 546 563 573 609.6 627.7 643.4 654.7 665.1 671.3 676.7 682.3 682.3 687.7 695.9 698.8 702.2 705.1 705.6 706.2 706.1 707.8 703.4 693.2 686.5 695.1 708.3 721 734.6 751.3 771.5 791.5 812.8 835.8 860 875.2 888.9 899 904.3 908.6 909.7 911.1 907.1 874.8 844.3 822.9 808.4 794.9 775.9 756.6 738.1 738.6 745.2 753 749.6 742.7 727.2 757.4 783.6 812.1 832.2 832.1 823.4 812.5 799.6 785.7 769.7 754.6 742 730.7 721.7 714.2 712.3 709.4 708.5 706.3 698.3 706.7 722.9 736.3 752.7 769.3 782.2 788.6 795.7 792.7 790.8 793.7 795.6 798.7 799.4 796 799.1 801.1 800.1 801.4 789.9 783.2 778 770.9 763.8 760.8 760 759.6 756.8 755.1 748.4 739.8 733.2 727.6 717.4 709.7 700.8 691 682.9 678.1 672.5 663.9 664.5 662.6 662.1 660.4 652.1 659.8 661.7 663.4 665.2 666.5 667.4 666.7 664.4 658.7 654.6
877.5 884 894.9 908.1 919.4 933.9 949.5 963.7 972.1 971.9 966.9 957.6 942.4 913.2 880 846.1 811.3 775.7 747.5 728.4 712.8 699.4 687.6 677.4 663.1 645.6 628.5 614.6 600.9 589.9 579.5 578.3 577.2 583.6 586.1 594.5 609.5 628.2 653.4 679.7 712 734.1 737.7 732.2 712.4 681.9 648.1 613.4 577.5 542.6 519 489.3 472 462.8 457.4 450.8 450.5 452.2 450.8 452.1 452.7 455.6 461.6 465.1 476.3 485 492.2 506.5 531.4 552.9 580.4 606.2 626.7 640.2 650 655.7 665.5 671.6 675.4 680.5 686.2 688.2 694.9 698 699.6 700.1 699.5 698 698.4 687.6 682.1 692.2 703.1 713.6 725.8 740.8 759.1 776.1 795.4 815.7 840.2 863.6 879 891.2 899.6 904.9 907.2 906.5 906.4 904.6 883 851.9 825.7 809.5 796.3 778.8 757.4 731.8 724.5 729.8 734.5 740.2 725.2 718.5 749.4 776.6 804.6 818.5 817.5 809.4 796.9 781.8 765.6 749.7 736.5 725.1 715.5 708.1 699.8 701.7 699.7 696 689.3 703.1 717.6 730.5 747.9 766.5 779.5 788.3 793.9 786.3 785 778 781.6 779.7 779.2 780.8 780.6 779.9 783.9 788.1 788.5 782.3 775.2 769 762.8 756 749.3 750.3 751.5 751.9 750 744.9 737.3 730.6 723.2 715.9 707.3 698.1 689.4 679.8 674.6 669.8 665.2 655.2 657.6 657 655.5 647.9 655.4 658.1 659.5 661.1 662.1 663.4 663.5 659.6 655.2 651.7
888.8 897.1 906.7 919.8 933 944.4 958.7 968.7 972.8 968.8 960.8 946.9 925.8 903.5 879.1 848.3 821.6 785.5 756.3 728.5 713 700.3 688.6 677.3 659.1 642.1 627.7 612.9 598.3 589.5 590.7 591.1 590.6 594.4 599.3 608.8 625.4 648 666.5 693.5 722.9 737.5 737.7 732.9 720.8 693.8 660.2 626.6 591.8 555.7 527 500.3 476.6 465.7 459.9 450.6 450.4 450.2 451.3 452.4 453.9 456.6 460.1 465 470.9 478.5 491.2 508.9 529 550.2 575.4 598 619 635.2 647.7 653.8 663 668.1 670.6 674.9 679.3 686 690 691.5 692.7 691.7 691.9 692.6 682.5 676.6 685.7 700.2 710.3 720.5 729.9 742.8 759.9 779.8 799.4 819.7 843.3 866 884.4 895.4 901.3 903.9 903.3 901.5 900.1 899 892 861.1 831.9 810.1 796.9 780.6 763 740.3 713.5 716.2 717.5 725.1 716.8 711.5 740 768.1 794.3 804.3 800.7 792.5 779.9 763.5 748.1 733.2 720.8 708.8 700 694.2 689 685.8 680.2 680.5 698.1 711.7 726.9 743.1 760.3 776.4 788.5 796.3 791.2 785.1 771.6 766.2 765 766.5 763.3 764.8 763.9 765.5 768.1 773.6 779.3 774.4 765.5 759.2 753.6 747.9 741.8 739.9 742.6 744.2 742.7 739.8 734.3 727.2 719 712.1 703.7 694 685.5 677.1 671.4 665.6 661.5 657 651.8 651.2 651.4 645 650.6 653 655 656.2 659.1 660.1 659.7 657.4 653.4 649.7
900.7 910.4 919 930.9 943.5 952.2 962.4 969.8 969.6 963.8 949.5 921.1 895.5 874.2 854.1 835.2 823.5 790.5 758.4 732.7 713.6 701.2 688.7 676.2 657.8 638 624.9 609.3 595 601.3 600.9 604.1 604.5 605.3 598.9 625.7 641.6 660.5 678.7 702.7 729.6 738.3 735.4 731.4 722.5 702 671.2 638.9 606.8 568.9 536.1 508.7 480 468 458 452.1 450.8 450.6 451.2 452.7 455.2 456.3 459.6 464.3 468.2 474.1 485.9 500.5 522.5 541.5 568.9 594.1 614.3 632.7 642.7 651.6 656.6 665.3 670.1 671.3 676.2 677.8 680.3 685.9 686.2 685.7 687.1 682.2 670.8 680.5 696.5 703.7 712.6 723.4 734.4 747.4 763.5 783.5 805.3 828.5 849.7 870.9 886.9 897.5 900.7 899.8 896.9 892.7 891.2 890.7 887.1 868.7 834.2 808.6 794.1 780.7 765.2 746.1 725.4 700.8 702.9 707.9 698.6 704.7 730.2 757.7 779.1 786.2 782.9 772.8 758.9 744 729 717.2 706.5 696 687 681.6 677.8 675 673.9 692.1 705.8 721.6 739.1 756.4 773.4 787.8 796 799 789.1 779.5 765.9 751.7 751.3 748.1 747 747.5 749.9 750.7 754.2 759 765 763.8 758.5 750.2 743.9 738.7 734.7 731 732.1 733.8 734.7 733.2 728.3 722.4 714.2 707 699.9 692.1 682.5 672.6 667.4 662.5 657.5 653.3 650.3 645.7 646.4 641.9 646.7 649.8 651.9 653.7 655 656.3 656 654.7 651.4 647
911.9 919.8 932.4 942.7 951.4 959.2 966.1 968.4 965.3 955.8 922.8 896.8 872.6 849.6 829.4 820.2 812.1 795 759.9 736.2 715.4 700.8 688.5 671.5 653.2 634.6 621.9 601 608.1 615.2 615.4 618.9 622.3 620 616.4 638.6 655.7 673.3 694.4 711.3 732 737.7 732.6 728.2 720.4 707.4 680.4 647.7 616.6 575.6 543.7 512.4 484.6 468.3 457.5 454.6 451 450.5 451.6 452.6 453.7 457.2 459.1 464.4 470 473.5 480.4 495.7 515.2 537 562.9 587.9 607.2 624.5 637 646.9 653.6 659.2 663.1 667.8 668.9 675.8 680.1 681.9 681 680.4 676.2 669.6 672.5 682.1 695.9 705.8 713.6 723.7 736 750 767.7 788.4 811.1 833.2 853.1 872.1 885.2 894.1 896.5 893.7 888.3 883.9 881.2 880.8 877.1 866.2 836.1 806.9 793.3 778.4 761.4 747.1 730.6 715 698.7 688.9 691.7 694.8 717.7 743.2 759.6 763.5 759.7 750.1 737.2 722.9 711.3 700.5 691.4 683.7 675.1 671.6 667.5 665 683.9 698.8 716.8 734.4 752 768.4 786.9 797.6 800.4 798.3 787.1 771.9 758.4 750 740.6 734.6 734.4 736.3 737 739.3 741.5 745.9 750.2 752.2 749.7 741.9 733.7 729.6 725.9 724 722.9 726 728.9 728 723.6 715.8 709.3 701.7 694.6 686 678.9 669.2 662.4 658.2 654 649.5 645.4 638 641.1 636.6 642.5 645.5 648.3 649 651.7 652.4 652.9 651.3 649 646.4
922.9 932.3 943.5 951.4 957.4 961.5 965.3 965.5 959.8 944.9 910.3 886.5 861.5 837.4 820.7 809.7 800.6 784.8 757.6 736 715.8 699.7 682.6 665.5 648 630.8 619.7 616.7 619 624.8 626.1 630.2 632.5 621.2 631.4 650.8 666.8 684 703.7 719.6 733.1 733.1 728.4 722.7 717.2 708.4 689.7 658 623.2 586.1 550.2 516.3 489.6 470.6 460.1 456.8 451.4 450.8 451.3 452.3 453.6 455.1 459.6 462.7 470.1 475.1 480.4 491.2 509.5 530.8 555 580.3 601.6 617.2 631.3 641.8 649.8 655.4 660.5 662.7 665.7 668.6 671.7 673.2 672.5 670.6 665.1 664.8 676 687.9 695.7 704.3 714.8 724.7 740.2 757.1 773.6 795.1 816.5 837.6 856.3 871.4 881.4 888.6 890 886.1 880.1 875 871.2 868.5 863.8 854.4 831.7 803.3 788.5 771.7 755.7 742.1 729.2 715.8 705.7 692.4 672.8 682.3 701.9 725.9 737.9 741.1 736.9 726.8 715.2 704.3 694.9 686.4 677.1 670 663.6 656.4 660.7 676.3 691.1 707.2 727.7 747.3 764 780.9 798.1 803 800.4 795.6 782.8 767.9 757.4 746.7 739.9 732.7 726.1 727.1 727.1 727.2 730.1 731.9 736.8 740.2 740.3 733.3 724.2 720.1 717.2 716.3 719 720.7 722.3 721.1 716.1 710.5 703.9 697.2 690.2 682.2 674.4 664.8 658.5 653.9 650.5 646.6 641.4 639.8 635.4 634.9 639 640.8 644.2 646.3 648.8 650.6 650.4 648.7 646.6 644.3
935.3 945.2 952.2 957.1 959.5 962.9 963.8 960.9 953.8 924.1 900.5 879.3 857.3 824.5 810.9 800.4 789.9 773.5 753.2 733.9 713.6 693.6 677.3 659.5 645.2 628.7 614.1 625.5 626.9 631.9 638.3 643.6 646 631.7 652.9 662.2 676.3 693.2 710.9 723.4 728.2 725 721.2 716.5 711.8 704.7 692.4 665.6 628.4 591.8 559.6 522.4 490.3 473.5 463.1 460.5 452.3 451.2 451.2 452.1 452.7 453.7 458.1 463.7 471.7 476.9 480.3 487.6 500.7 517.8 547.5 574 593.6 609.4 623.6 639.1 646.3 650.4 654.8 659.1 662.6 663 664.6 666.2 663.7 659.2 658.7 666 668.3 683.8 695 705.4 716.1 729.8 745.3 760.3 780.2 800.4 822.5 842.7 859.1 870.8 879 882.4 882.5 877.6 870.9 865 859 854.5 849.7 839.5 819.8 792.1 777.5 763.4 747.8 734.3 724.9 712.1 706 698 680.9 661.2 685.3 706.1 718.8 721.1 714.7 705.5 696.4 687.1 679.8 672.3 663.4 658.1 651.5 651.7 669.4 683.2 699.9 717.5 738.3 757.7 774.4 793.3 810.8 810.3 800.3 792.1 782.4 769 756.1 744.3 735 728.3 723.4 719.6 718.5 717.6 719.1 719.9 721.8 725.9 730.9 723 712.7 709.8 708.6 708 711.3 713.8 715.8 714.1 708.9 704.2 698 691.3 684.9 677 669.9 661.1 655.7 650.1 645.7 642.4 637.9 636.3 628 627.7 635 638.1 640.3 643.8 645.8 647.7 646 645.3 643.6 642
947.1 953.5 958.5 961.5 962.8 963.8 961.7 955.6 944.9 910.4 888.4 870.4 843.8 817.6 800 793.7 779.1 765.9 748.4 727.8 707.7 690.4 673.8 659.1 643 626.7 627.2 631.3 636.8 641.6 650.5 655.4 653.7 649.5 665.9 671.3 686.8 702.5 717.1 724.3 724.9 720.1 714 710.4 706 699 690.6 667.4 632.5 595.4 559.9 525.5 492.1 472.4 467.7 460.5 453.3 451.6 451.5 451.3 452.5 454.4 459.6 467.6 469.6 475.4 478.5 484.6 493.3 511.5 537.3 563.9 588.5 603.9 616 630.5 637.1 642.5 648.3 653.5 656 657.3 659.7 657.7 652.4 650.9 656 665.7 670.3 685.2 696.7 705.7 717.2 734.1 748.9 765.4 786.1 802.7 824.1 842.8 858.7 870.2 875.6 878 875.3 869.7 861.3 853.1 845.8 840.4 834.2 822.2 804.7 778.5 765.7 751.8 737.8 724.7 713.9 706.3 703.7 699.5 683.9 660.8 668.2 687 701.8 700.5 694 687.1 680.9 672.8 665.5 658.9 654.2 646.4 646.8 660.7 676 690.9 708.5 727.3 749.1 768 787.3 806.6 821.8 814.2 806.6 795.3 782.2 772.5 761.3 746.7 734.6 725 717.9 715.7 712.7 710.7 710.2 710 710.1 712 716.5 712.6 705.2 697.9 698.6 702.5 704.7 706 709.1 709.2 704.7 699.2 691.5 685 677.9 671.7 664.1 657.3 651.7 646.2 641.7 639.1 634 631 630.5 623 629.7 634.6 637.9 642.2 643.8 645.9 645.9 642.9 642.1 639.5
954.3 959.6 964 966.1 964.5 962.2 958.7 952.3 935.6 899.7 877.7 862 840.2 822.6 797.8 784.6 773.8 760.9 743.1 720.2 700.8 685.6 669.7 655.8 642.4 625 630.7 638 648.7 664.8 666.1 665.8 649 669.3 676 686 699.1 709 717.4 721.6 720.3 714.8 709.2 704.9 698.3 693 685.4 665.3 632.9 596.3 560.7 525.4 495 472.7 472.9 463.8 454.6 452.5 451.9 452.1 453.3 456 457.7 461.7 466.1 473.8 478.4 485.9 493.2 506.5 530.9 556.7 575.7 597.8 610 625 634.1 640.8 644.1 647.7 650.9 652.4 650.6 647.8 647.3 652.5 657.6 665.7 673.1 692.2 698.4 706.7 718.8 735.7 750.8 769.3 790.3 808.5 823.4 840.2 854.6 866.3 870.9 870 866.3 859.2 850 841.4 829.2 823.3 816.1 806.3 788.9 766.5 754.2 737.7 723.7 713.9 704.1 701.9 699.5 697.3 685.5 664.6 647 668.2 680.1 681 674 670.2 665.9 661.6 653.2 647.2 643.4 639.7 653 670.3 685 697.4 715 736.7 757.9 779.2 799.2 820.3 831.9 823.8 815.1 804.9 787.4 773.3 762 750.4 739.3 728.7 718.4 711.4 709.3 707.1 704.9 702.7 701.2 701.3 702.6 701 697 689.8 689.4 693.2 698 700.2 701.4 702.1 699.8 695.1 687.3 680.3 671.8 664.7 658.2 653.3 648.3 643.1 639.5 635 629.9 627.6 625.8 618.3 626.9 630.8 635.4 638 641.9 644.5 645.1 643 641.5 637.9
959.8 964.1 967.4 968.2 966.2 961 955.4 948.4 929.8 894.1 873.4 858.3 838.6 822.4 800.7 783.9 769.9 753.1 736.8 715.3 697.8 681.1 667.2 654.5 643.6 625.2 636 643.1 655.6 664.4 670.2 673.6 666.7 681.3 689.6 698 704.8 712.1 715.4 716.3 715.7 709.9 703.5 696.6 690.4 685 678.1 663.4 633.2 594.6 557.4 522.8 493.6 476 474.4 462.9 455.8 453.6 452.4 452.8 454.4 452.3 453.9 459.9 463.8 469.7 476.5 479.1 487.6 499.1 518.9 547.3 568.8 588.9 606.4 619 628.2 635.2 640.4 643 643.4 645.4 644.3 640.2 649.4 652.8 658.3 666.9 674.3 689.4 699.8 707.2 715.6 735.7 754.8 772.1 791.6 807.9 823.7 838.7 850.8 860.1 862.8 861 855.3 846.4 836.2 826 815.1 808.3 801.6 790.6 774.5 755.3 741.5 722.9 712 700.9 695.8 693.7 694.7 695.5 685.4 669.7 647.9 651.7 659.4 660.3 657.6 655.4 651.6 648.6 639.9 636.2 635.9 648.4 664.5 679.7 696.3 711.1 727.9 746.7 767.8 788.2 812.6 832.2 844.1 835.2 822.9 811.3 796.2 779.2 766.7 752.6 741.9 733 723 713.5 708.9 702.2 700.3 697.4 695.6 694.2 692.2 689.7 686.9 684.7 682.7 688.1 691.4 694.8 696.1 694.7 693 690.1 683.9 676.7 668 659.9 653 649.3 644.2 640.1 635.7 630.8 626.9 624.2 622.7 616.7 623.2 628.1 632.2 636.4 640.6 643 642.9 643 641 638.3
962.6 966.8 969.3 968.7 964.7 959.6 951.8 942.4 924.5 895.6 865.7 852 835.6 817.4 798.2 780.8 764.6 749.8 732 713.7 694 676.3 664.3 651.5 640.7 630.6 641.3 654.1 663.2 669.2 676.1 671.9 678.7 693.4 702.5 706.6 710.2 711 710.3 710.2 708.6 700.8 693.8 687.7 682.5 676.7 667.5 654.6 630.1 591.3 555 520.9 491.9 481.6 474.1 464 460.2 454.5 452.6 451.4 450.9 451.6 453.7 458.9 462.6 465.3 472.5 475.3 480.9 494.1 513 538.5 562.2 582 598.5 613.5 622.9 629.6 634.6 637.7 639.1 638.7 637.4 641.7 644.7 650.5 656.2 665.9 675.8 690.4 701.1 708.8 721 736.4 755.5 773.5 792.4 806.7 821.1 833.3 845.2 851.2 853.5 850.8 843.4 834 822.3 810.7 802.2 794.7 787.2 773.4 760.9 745.4 727.9 710.6 701.2 689.4 685.9 687 691.8 692.2 684.9 672.4 654.2 636.6 644 645.9 645.9 642.5 639.4 634 628.5 630.4 645.1 659.9 676 689 703.9 722.6 741.4 758.5 778.6 801.2 824.3 844.2 858 849.2 833.1 817.6 804.5 788.4 771.8 757.7 746.5 737.5 729.9 721.5 713.2 708 702.8 694.8 686.6 688.1 687.8 683.4 681.6 679.5 676.2 681.2 686.1 690.4 691.1 688.8 687.5 684.9 680.2 673.1 665.8 657.1 649.4 643.5 638.8 636 632.6 627.5 623 620.8 618.6 612.8 620.8 625.3 629.2 634.2 638.3 641.4 642.5 642 640.4 636.4
964.2 967.7 968.5 966.1 962.5 955.9 947.4 935.9 918 895.8 866.2 847.5 832.2 816.4 800.3 781.6 767.4 747.4 727.9 709 691.8 675.7 663.9 653.3 638.5 636.7 648.1 656.9 666.7 673.4 680.3 688 686.6 703.4 711.4 711.1 709.4 706 703 699.1 696.2 690.5 685.6 680.1 674 667 656.3 642 620.3 582.9 550.3 515.6 488.3 480.5 475.8 467.3 464.5 455.6 453.2 450.8 450.2 451 453.7 455.9 457.9 467.2 476 478.6 482.2 493.6 506.7 528.6 552.1 574.6 593.6 607.9 617.9 624 628.7 632.2 631.7 633 633.4 637.1 640.2 649.5 657.7 667 676.3 688.3 700.1 709.7 723.8 738.8 755.6 772.8 791.6 804.4 815.5 825.4 835.8 840.5 842.9 839.7 830.2 818.4 809.6 797.9 788.6 779.4 770.1 759.2 747.5 732.3 715.6 700.9 692.4 682.7 678.4 680.6 685.9 684.9 678.7 668.1 654.9 636.6 631.8 634.3 635.5 631.7 628.1 624.3 626.8 640.5 655.8 670.5 686.2 700.7 716.9 735.4 753.2 772.7 793.4 816.5 837.4 854.9 868.3 859.5 843.5 825.1 809.9 793.6 778.3 763.7 750.5 742.2 733.6 727.2 719.6 711.7 706.5 699.8 690.6 680 681.1 679.4 675.4 674.1 669 676.6 680.1 683.5 684.4 683.8 683.8 680.8 676.6 670 662.8 655 648.3 641.6 637.4 632.1 627.6 623.4 619.4 616.9 614.3 610.8 617.6 623.2 628.1 632 636.5 640.3 641.3 639.9 638.7 635.5
963.1 965.2 964.8 962.6 957.8 950.6 941.2 928.4 911.3 892.1 869.5 849.9 834 814 795.7 782.2 770.2 746.3 725.7 708.1 690.3 676.6 665.2 654.3 638.9 644.8 649.2 657.9 667.1 676.8 683.4 692.8 695 707 712.6 709.7 702.7 697.9 694.1 688.1 684.3 680.5 676.2 671.7 665.6 656.2 642.8 629 609.4 569.7 540 508.3 486.5 480.1 471.9 465.4 460.3 456.9 451.4 450.3 450.9 450.8 452.2 455.2 459.1 469.8 478 484.2 482.5 489.7 503.9 523.3 548.1 568.9 587.9 601.3 613.3 619.2 623.7 626 625.9 624.6 629.7 635.2 641.2 645.2 655 663.7 676.2 686.6 698.9 710.1 726.2 740.3 752.1 769.1 785.8 798.4 808.5 817.9 825.8 829.6 829.8 825.3 816.1 806.6 794.2 780.7 775.8 769.9 757.2 746.9 734.6 720.9 705.4 692.1 683.2 674.1 670.1 673.4 677.2 676.4 668.3 660.1 650 639.5 624.1 625.3 623.5 620.9 625.1 621 632.9 651.1 667.2 679.1 695.1 710.9 730.4 748 768.4 786.7 808.1 829.4 849 865.1 875.8 872.2 855.1 834.8 818 801.7 787 768.2 755.9 745.7 738.1 731.4 724.5 717.1 709.1 701.3 692.8 682.9 675.7 672.9 671 668.3 664.1 669.8 672.8 676.4 678.3 679 678.8 676.7 673.1 667.3 659.3 651.8 647.2 640.7 635.1 630.2 624.1 618.8 614.9 612.7 610.1 605.8 615 620.5 626.8 630.8 635.2 638.5 639.7 639.6 636.4 635.9
960.1 961 959.9 956.9 951.1 943.4 933.4 919.5 901.7 884.1 868.5 846.8 827.7 810.9 793.3 780.9 767.5 743.3 722.8 704.7 687.8 674.3 663.5 653.6 651.2 652.3 654.1 656.4 665.5 674 686.6 696.3 701.6 703.3 706.1 700.5 694.4 688.5 682.1 677.6 672.5 669 665.4 660.7 652.7 640.7 628.1 613.4 586.6 557.3 527.5 505.1 488.2 479 470.9 463.3 461.1 456.9 453.4 452.7 453.3 450.4 451.4 455.1 461.2 469.7 478.4 482.3 485.9 489 502.3 521.9 542.3 561.1 582.4 598.4 607.3 614.2 614 616.2 618.7 622.5 622.7 630.2 638.1 640.7 646.5 656.4 672.6 684.9 698.7 711.4 724.4 738.2 745 758.9 773.6 788.2 799.1 807.6 814.6 816.5 813.5 810.7 802.9 793.6 779 770.3 764.6 757.8 748.4 734.7 722.6 710.3 696.6 684.9 675.2 664.4 662.1 663.7 666.3 664 656.1 651.2 642.2 635.5 620 619.3 618.6 619.8 615.4 625.9 640.3 657.5 674.9 689.7 704.2 723.1 742.4 761.5 781.3 800.9 822.4 841 859.2 872.2 880.1 877.3 864.6 843.7 826.8 810.7 793.3 774.2 761.1 749.2 743.2 735.5 727.8 720.9 710.9 702.6 694.9 685.3 675.6 667.7 659 663.4 659.4 663.6 666.1 670.4 672 673.2 673.6 672 669.2 663.7 657.4 648.8 643.2 637.1 630.8 627.2 621.9 613.5 609.4 607.9 607.3 601.9 611.8 618.2 624.5 629.5 633.7 636.9 638.7 638 636.6 635.5
954 954.2 952.4 948.7 942.3 933.7 922.7 909.6 892.8 876.7 861.6 840.4 823.7 806 789.8 774.6 756.9 736.2 718.6 702.1 686 672.3 660.3 656.9 656.9 658.7 656.4 657.1 663 673.2 684.2 694.4 698.5 696.4 695.4 690.9 684.8 676.6 671 664.3 658.8 654.4 651.9 647.3 637.7 624.4 611.8 595.6 570.8 543.7 523.6 500.3 487.3 480.9 471.6 463.8 459.5 454.4 452 454.2 451.4 449.8 451.1 454.8 461.6 469.5 479.7 481.7 488.1 489.3 500.9 518.5 538.5 554.2 568.6 593.1 606.4 615 620.1 622.7 624.7 624.3 622.3 623.2 627.4 632.3 650.8 657.2 671 673.7 692.8 708.5 717.2 734.5 744.4 756.1 764.9 777 787.8 796.7 800.6 802.3 801.5 798.8 791.4 779.6 767.7 761.7 754.5 748 738.9 726.6 713.1 701.8 689.8 676 666.6 658.4 653.6 656 655.3 653.3 647.8 642.9 635.4 627.4 615.4 615.9 615 617.4 615.4 633.7 652.7 668.2 681.8 697.5 713.6 732.8 751.2 772.7 794.3 813.4 834.3 850.3 864.7 874.1 879.8 877.2 867.9 852 833.8 818.8 801 782.8 768.8 756.7 746.8 738.9 729.6 722.1 712.4 704.2 695.8 687.8 677.1 667.9 659.9 651.7 647.3 656.6 659.3 662.8 666.3 666.9 666.8 667.2 664.4 660 654.3 647.2 640.1 633.7 627.4 623.4 618.8 609.4 606.8 604.2 603.9 597.9 609.7 615.5 622.2 627.2 631.5 636.5 636.6 636.1 635.3 633.6
946.7 944.9 943.5 938.7 931.6 921.6 911.3 897.7 881.9 866.2 848.5 832.3 814.8 798.8 782 761.5 745.4 730.3 711.3 696.7 683.2 670.5 659.7 657.2 661.2 661.5 658.4 655.1 661.6 673.1 681.1 689.4 691.7 688.1 683 679 672.5 663.9 658.8 652 645.2 640.7 636.4 630.5 618.7 605.4 593.5 573.6 556.6 532.6 518.3 496 484.3 476.2 469 464.2 457.5 454.3 456.1 455.2 451.3 449.8 451.5 454 461.3 466.8 474.9 480.6 486.7 485.4 496.4 512.1 525.8 554.2 571.8 591 605 612.7 618.3 621.4 622.1 622.8 626.2 627 624 638.4 640.4 658.2 672.3 682.7 697.7 707.3 720.5 725.8 737.3 747.7 759.2 769 778.1 785 790.7 794.1 794 790.4 780.6 772.1 760.4 751.6 745.5 738.3 729 718.6 706.6 693.4 682.1 671.4 661 651.4 644.5 647.1 646.8 644.4 639 633.6 620.8 615.4 610 610.6 609.6 610.3 622.5 643.4 660.6 675.9 692.2 706 722.3 742.1 762.2 783.9 805 825.3 843.1 855.7 864.5 871.3 872.8 870.2 863.6 852.5 841 826.5 814.2 791.6 778 767.9 751.4 739.1 730.3 721 713 704.9 696.6 688.7 678 668.8 659.5 649.7 638.1 648 653.6 656.8 660.3 662.3 662.6 661.6 660.1 657.1 651.5 645.4 638.4 631.2 625.3 621.4 614.4 607.4 603.9 601.2 600.4 596 606.1 611.4 618.8 625.2 630.1 636 637.3 635.7 634.7 631.5
936.5 934.6 931.7 927.4 919.3 908.7 898.2 884.1 870.4 855 839.8 824.7 807.6 791.8 775.1 755.3 741 722.9 706.9 689.8 675.9 666.8 661.6 659.6 661.9 662 658.7 654.2 658.8 667.1 674.9 678.6 679.7 676.3 671.3 665.8 659.5 651.1 645.3 637.5 629.4 623.4 612.2 610 598.7 587.3 574.6 557.4 540.1 526 505.3 491.4 480.6 471.9 474 466.2 455.5 453.9 454 453.1 450.6 447.8 450.8 453.8 461.3 463.5 467.5 469.1 477.5 487.3 497.2 517.3 536.1 553.7 573.5 593.6 602.1 608.4 614.5 619.9 621.2 620.9 624.1 627.7 624.4 633.3 642.3 655.5 666.3 684.3 697.1 707.2 716.7 722.2 730.9 738.6 749.6 760 768.6 776.9 782 785.6 785.7 781.5 774.6 762.5 754.5 743.6 736.4 730.1 720.9 710.3 697.8 686.9 675.1 664.9 654.4 647.1 639.5 636.8 634.7 633.4 629.6 621.4 612.3 608.8 606.4 608 605.5 618 635.5 653.1 668 684.1 698.3 718 735.1 752.2 774.2 795.8 813.2 832.6 845.2 854.1 861.2 862.8 860.2 857.3 852.4 845.3 839.1 831.6 816.8 800.3 787.1 775.6 757.4 742.4 729.8 720.6 712.7 704.3 695.9 688.1 678 667.4 658.1 651.4 647.1 634.1 644.8 649.7 654 656.5 659 659.6 656.8 654.1 648.2 642.2 636.4 627.9 622.4 618.2 611.7 606.4 602.7 598.7 596.6 590.7 601.9 608.7 617 623.3 628.9 635.4 637 634.7 631.9 629.8
925.2 922.9 919.3 913.6 904 893.8 882.4 869.9 858.8 842.4 828.8 813.2 795.2 781.3 763.7 745 729.8 714.2 699.6 684.3 671 663.5 661.2 661.1 661.6 659.9 651.4 650.6 653.7 660.4 666.5 668 667.4 663.7 659.9 653 644.6 636.6 629.5 620.5 611.6 601.4 591.5 588.1 578.8 567 555.9 541.4 530 515.9 503.3 491 478.3 476.4 472 466.8 454.9 455.4 452.4 450.7 449.4 449.7 450.1 451.9 455.7 457.8 464.7 480.2 484.3 489 499.9 515.9 534 553.6 572.3 592.4 602.7 612.4 619.7 617.4 619.6 620.4 621.5 624.5 628.2 633 637.2 651.3 665.2 682 692.3 704.4 715.3 717.5 723.8 730.4 742.2 751.5 760.3 767.5 771.3 776.7 777.3 773.2 764.8 754.2 746 734.6 728.4 721.6 713.1 702.7 691.9 680.7 668.6 658.5 650 643.2 636.7 623.5 625.2 623.2 618.7 608.8 605.7 604.5 602.5 601.7 609.8 628.6 646.6 661.9 676.6 692.2 707.5 726.4 743.9 763.8 786.5 805.5 819 834.5 840.8 845.9 851.4 851.7 849.4 844.9 839.7 834.8 831.8 826.7 818.7 804.7 791.2 777.3 760.5 745.5 733.5 722.6 713.2 703 694.7 686.3 678 666.1 655.8 649.9 641 630.1 632.4 642 646.5 651.4 654.9 656.4 654.4 650.2 645.6 639.4 633.9 625.3 620 615.6 610.4 605.4 600.5 596.8 593.4 587.2 598.6 606.1 615.8 621.7 627.6 633.3 636.6 634.2 631.6 627.5
911.5 909.5 905.4 897.8 888.8 878.7 867.5 855.8 842 830.9 816.6 802.8 786.1 768.3 746.7 734.1 719.6 704 689 678.5 667.5 662.6 660.9 661 658.3 652.5 649.1 645.1 647.3 651.5 655.6 656.5 654.9 650.3 646.7 638.2 628 615.7 609.8 602.3 593.8 581.5 576.5 567.8 558.4 550.1 539.7 527 516.2 506.2 497.7 484.2 477.4 474.5 469.7 461.2 456.7 454.4 452.9 454.1 454.7 447.8 449.2 449.1 453 462 476.3 478.9 484 491.2 502.6 516 533.6 553.5 572.4 588.6 601.7 612.6 620 621.1 617.9 618.3 620 623.3 626.1 635.1 637.7 651.6 665.8 681.9 688.3 699 705.9 711.9 717.1 724.9 731.2 744 752.1 756.7 764.3 768.8 770.2 765.9 757.3 746.5 736.6 727.1 719.3 713.2 706.1 696.1 685.9 674.9 663.9 653.6 645.9 638.4 630.5 618.6 614.5 609.5 605 602.8 601.4 599 599.3 605.2 623 640.2 656.1 671.3 686.5 703.2 719.2 736.2 753.8 774.3 796.7 811.8 825.6 834.2 837.9 839.9 840.9 837.1 836 832.1 828.8 825.6 820.1 818.1 815.2 805.9 794.5 780.7 762.2 745.2 731.8 723.4 711.7 702.2 691.6 683.9 674.4 664.2 654.5 644.4 640.1 633.8 618.1 634.8 639.3 645 648.4 652.5 651.9 648.3 643.3 638.4 631.4 624.3 617.1 614.1 609.7 604.5 599.2 595.8 589.3 585.4 596.2 603.4 613.2 620.3 626.3 632 636.4 633.4 630.3 626.2
897.2 894.4 889.8 883.3 875.3 862.3 852.9 840.7 830.1 817.6 804.3 790.8 774 755.4 736 722.8 708.6 692.7 679.4 670.3 663.2 659.5 657.6 656.6 651.7 649.7 644.1 639.1 640 642.5 641.6 641.7 640.4 636.4 630.1 619.8 612.3 601.9 593.8 587.3 577.8 568.6 554.1 553.5 542.3 534.1 525.7 516.1 506.3 497.6 491.5 486.1 478.4 474.4 467.2 463.1 458.3 453.7 451.3 452.4 455.2 445.4 445.5 447 452.4 460.8 474 477.9 481.9 493.4 504 522.3 533.3 551 570.6 588.8 602.7 613.2 617.3 619.3 615.6 615.9 615.7 622 626 636 641.8 648.6 657.4 669.9 683 695.8 696.6 703.4 710.6 714.6 721.4 732.2 741.9 752.1 758.6 761.7 763.5 758.6 749.4 740.9 727.5 717.1 710.4 705.1 698.3 688 679.9 668.5 658.2 650.9 642.2 632.6 624.6 614.3 604.1 599.9 599.2 597 593.7 595.5 598.3 618.6 636.4 651.8 667.4 682.6 698.8 715.3 731.9 749.8 767.3 787.2 805.3 817.4 827.9 833.5 835.1 834.5 833.8 831.2 826 820.9 815.8 811.9 809.3 809.8 808.9 803.9 794.7 782.3 767.8 747.6 732.7 720 708.8 699.5 689.7 679 670.4 660.4 652.4 640.7 635.5 631.5 617.8 625.4 634 638.7 643.7 647.5 648.4 644.6 640.4 636.5 629.2 622.5 616.9 612.6 608.3 603.2 598.7 593.9 589.7 584.8 592.4 600.6 610.1 617.9 624.3 629.5 634.4 632.4 627.2 622.6
883 879.1 874.6 867.4 857 846 837 827 814.1 803.1 790.2 778.5 761.3 743 725.4 708.3 694.4 685 671.2 663.1 660.5 655.8 651.4 648.3 642.3 638.9 635.2 630.8 630.9 630.6 630.4 630.2 627.6 619.7 612.5 604 594.6 591.6 579 573.3 561.9 553.8 536.2 538.6 525.9 516 507.8 501.5 494.3 485.4 484.3 482.1 477.1 469.5 464.2 464 461.7 463.8 452.7 449.9 451.7 449.4 443 448.7 449.8 455.9 465.2 477.1 482.2 494.4 501.4 522.1 540 557.8 566 585.9 602.9 608.9 616.3 616 613.2 612.9 613.6 619.9 625.4 634.3 641.7 651.3 661.8 666.4 681.7 691.5 697.6 696.3 700.2 703.5 714.8 729.5 737.3 745.2 752.2 755.9 757.3 752.7 743.9 734.6 719.5 708 701.2 697 690.8 682.3 674 664.1 655 645.4 635.7 627.3 617 603.8 596.9 597 595.3 591.2 591.2 601.1 614.3 630.6 647.9 662.6 678.7 695.5 712 728.6 745.5 763.7 782 799.8 812.1 822.1 829.1 831.6 831.1 828.4 826.6 821.4 816.2 812 806.7 802.4 800.2 800.6 800.6 798.9 792 778.8 765.2 753.3 734.2 720.2 709.2 697.5 686.8 675.1 665.4 655.8 647.7 638.9 632 626.6 618.1 615.5 625.8 629.7 636.2 641.1 643.6 640.4 636.3 632.8 626.8 619.5 614 611 606.9 601.5 597.7 592.8 588.6 580.1 589.1 597.5 606.2 614.2 621 626.5 631.8 630.3 623.8 620.1
866.8 862.7 856.6 849.1 840 830.7 821.7 813.4 801.5 789 779.6 761.9 748.2 729.8 712.9 696.7 682.9 669.8 664.8 659 654.2 646.9 643.8 636.9 631.4 625.9 622.6 619.4 620.3 620.9 620 615.6 611 602.9 594.4 588.2 581.4 576.6 563 561.4 547.8 543.3 529.4 524.2 514.4 505.5 498.6 491.5 487 482 478.5 476.6 475.1 470.6 463.8 461.7 460.1 457.4 451.6 445 440.8 440.6 440 444.8 447.9 454 460.7 475.7 481 489.2 500.8 522.5 550.7 568.9 574.4 583.5 596 606.3 611.2 611.6 610.2 610.4 612.3 615.5 623.5 632.6 636.8 645.7 657.1 666.9 677.8 688.6 693.9 697.7 698.9 703 711.1 726.3 732.9 737.5 743 750.4 750.6 748.4 738.9 729.3 714.7 698.6 690.6 687.3 683.1 676.5 669 659.8 650.3 638.8 629.4 620.4 609.2 596.9 592.4 593.7 590.5 587.9 594.9 609.2 625.9 642 658.8 673.5 690.2 708.6 725.8 743.1 761.7 778.5 795.7 808.6 816.5 822.6 827.2 828 825.8 823.1 818.3 813.7 808.5 802.1 795 791.9 789.4 791 792 791.1 786.6 776.4 764.4 754.2 733.4 720.4 707.5 695.9 684 671.5 661.6 651.7 642.9 634.3 626.8 620.9 617.7 607.8 617.2 622.1 628.7 633.3 636.1 635 632.2 629.6 623.9 618.1 612.6 609.1 604.3 598.9 596.2 592.3 587.5 575.6 585 593.1 602.8 610.8 617.6 623.9 626.1 626 621.5 618.1
847.7 844.2 838.9 831.8 824.5 815.5 804.7 797 784.5 774.8 764.3 748.7 733 713.6 700 686.8 674.4 665.1 653.2 648.4 642.3 633.8 630.4 622.2 614.6 613.2 607.7 602.7 610.7 609.6 605.5 600.3 594.3 587.3 582.1 573.3 568.5 559.5 546.8 544.2 536.6 521 512.7 509.3 501.6 497.1 493.1 487.8 483.7 481.7 480.6 476.2 470.4 464.2 462.2 460.2 456.8 456.8 450.1 447.1 444.8 442.6 439.7 438.7 443.3 450.5 457.9 469.3 479.1 486.1 498.3 515.3 544 567 578.9 584.8 597.2 608.2 610.5 608.7 607 604.5 609.2 615.8 619.3 630.2 639.1 648.7 656.5 663.7 674.2 679.9 687.3 693.1 701 698.5 706.5 717.2 727.9 733.2 739.2 742.5 744.5 742.8 735.1 721.5 708.4 693.7 683.5 676.3 671.8 666 659.1 651.1 642 630.8 620.7 612.5 599.3 590.7 590.5 586.9 585.3 588.5 605.9 621.8 636.6 651.9 667.5 684.4 702.7 721.6 739.9 757.9 778.9 793.5 805.2 813.6 818.5 821 824 822.6 820.6 817.6 814 807.9 800.1 791.8 785.6 783.2 781.2 779.7 780.5 781.2 780 773.4 763.7 754.5 739.1 722.7 710 692.4 683.3 669.4 657.9 649.9 640.1 630.3 622.8 617 612.7 600.9 609.1 614.8 619.9 623.8 626.8 627.4 627.4 626 621.3 615.6 609.8 606 602 597.1 593.3 590.3 585 576.3 579.4 589.7 597.7 606.6 613.5 618.7 621.8 621.6 619.3 616.5
831.8 827.9 821.2 814.1 806.8 797.3 787.8 775.9 765.2 752.6 746.5 731 713.1 696.2 683.2 675 666.3 656.1 646.6 637.4 628.9 619.1 610.6 607.3 605.7 601.5 599 593.3 595.6 595.3 590.4 582.8 578.1 571.4 564.7 558.8 552.3 538.6 536.1 525.6 519.8 513 502.8 498.7 494.3 491.2 488.2 479.4 477.6 474.3 466.7 462.6 465.6 461.8 458.2 470.1 469.1 460.5 458.1 449.4 445.3 443.1 439.5 437.3 438.8 444.9 449.8 458.3 473.8 481.6 494.3 509.9 533.7 559.2 578.2 588.2 594.6 603.7 607.5 606.4 603.2 600.7 602.3 610.2 617.5 625.6 635.9 647.9 654.8 660.9 670.3 680.1 688 690.3 695.7 699.2 702.9 712.7 720.4 724.5 728.2 737.4 741.3 738.7 728.9 716.9 701.5 687.6 678.5 667.5 659.1 652 645.7 639.7 630 618.9 610.9 599.5 590.6 583.7 583.9 583 587.7 602.5 617.6 633.3 648.2 664.8 679.6 696.8 716.1 735.5 755.8 773.6 788.5 800.6 809.2 814.2 815.9 818 819.9 818.6 815.4 810.8 806 798.8 790.5 782.4 777.9 775.1 773.7 772.4 771.9 772.3 772 770 763.3 754.3 742.5 727.8 708.8 694.4 680.1 669.4 656 647.1 637.8 629.3 619.9 614.5 610.6 605 599.7 607.1 610.7 614.6 616.3 619.2 620.9 620.1 616.2 612.1 606.5 603.6 599.4 595.4 592.8 588.3 581.8 577.2 572.8 585 592.4 602.2 608.9 614.4 617.6 618.9 618 614.8
813.9 811.3 805.3 797.4 789 778.6 767.7 752.1 744.9 732 722.3 709.1 694 680 671.1 661.5 652.9 643.3 633.5 622.7 614.7 601.3 596.3 592.5 587.1 584.7 582.3 582.7 581 579 575.2 573.7 561 554.7 548.2 542.9 532.4 522.7 519.7 510.3 508.9 504.1 495.1 490.2 487.3 482.3 474.5 470.3 475.5 476.5 469.6 468.3 469.6 471.9 475.6 474.8 469.7 465.4 462.8 451.4 447.3 445.4 443 434.8 436.9 442.2 446.2 458.6 469 479.9 487.9 506.5 528.2 545.7 564.5 578.3 588.1 596.7 599 599.9 599.3 596.4 598.2 604.8 614.3 622.5 631.6 640.3 650.4 659.4 667.5 676.5 682 686.6 691.7 694.8 698.9 708.1 713.8 719.4 724.7 731 732.9 733 721.8 710.5 696.3 682.7 671 662.4 652.1 640.6 636.1 630 620.5 609.6 598.6 590.6 584.2 579.2 580.9 585.5 598.7 610.4 628.5 645 661.1 678.2 695.4 711.8 729.2 749.9 772.3 784.8 794.4 804.6 810.9 813 814.3 815.9 814.8 813.6 809 802.5 796 788.2 781.1 774.9 771.2 766.8 765.9 765.3 764.8 765 764.2 763.1 759.3 752.2 742.9 729.1 709.6 693.9 680.4 669.8 656.9 647 637.1 628.8 620.2 613.1 608.5 603.6 593.2 597.4 602.5 606.1 609.3 611.2 613.3 614 611.8 607 603.2 599.6 596.9 593.8 590.3 586.7 580.7 575.3 568.6 580.4 588 595.8 603.7 608.8 613 615.9 616.3 612.9
797 793.7 786.8 779.6 771 760.3 745.8 727.2 718 707.9 696.4 686.3 674.7 663.6 653.5 642 634.7 624.2 614.6 609.4 599.5 590.8 584.3 579.7 570.5 570.1 568.6 566.2 563.1 562.1 557.4 552.4 546.3 541.9 530.2 528.9 525.4 513.4 511.4 502.2 498.2 491.6 487.1 480.6 482.4 482.5 485.5 482.8 485.9 485.6 472.9 473.9 477.7 476 475.8 475.8 472.2 470.1 465.2 458.5 447.4 444.8 442.5 446.9 434.6 435.7 436.5 449.7 463.9 478 483.1 496.9 516.9 531.6 553.2 569.4 583 587.6 592.2 594.7 593.4 590.1 592.8 599.2 610 618.4 628.2 639 647.3 657.5 666.7 673.6 676.7 679.2 681 688.6 696 700.6 709.4 715.9 721.9 725.3 730.4 726.1 716.1 703.4 689.7 676.8 665.3 655.5 645 634.3 624.3 618.4 608.7 597.6 590 586.1 576.9 579 585 595.8 609.3 624.7 640.6 657.7 675 692.5 711.8 728.8 744.5 762 782.6 792 799.3 806.6 810.7 813.5 815.2 814.9 812.6 808.7 802.6 796.3 789.8 781.5 774.7 769.8 766.2 761.8 760.5 759.5 759 758.6 758.3 757.3 754.2 748.4 742.1 729.2 713 693.3 681.7 669.7 658.1 647 638.6 630 621.3 613.4 607.3 603.9 597.7 590.5 594.1 597.3 600.9 604.3 606.1 607.1 607.2 603.3 600.7 597 594.1 591.9 588.8 585.6 579.9 575.6 563.1 576.5 582.6 588.5 598.4 603.7 608.8 612.9 613.2 610.9
779.8 776.6 769 760.6 747.4 736.3 721.5 705.3 688.3 683.7 674.3 664.9 656 645.8 634.9 625.7 618 608.5 598.8 593.3 584.1 576.5 566.4 563.7 562.8 557.3 550.8 554 549.8 544.7 542.8 537.5 532.3 528.1 521.4 519.6 512.8 507.7 498.8 492.9 491.2 489.2 487.6 489 491.2 495.2 495.1 493.8 491 486.8 481.1 475.8 480.3 478.6 475.4 470.9 469.9 469.6 466.7 458 450.3 446.5 445.3 449 434.1 434.7 440.6 446.5 459.5 475.9 478.4 488.9 504.1 518.7 538.3 559.1 576.9 581.5 584.2 586.2 585.9 583 587.9 594.2 605.4 616.1 623.5 635.6 643.1 651.1 663.9 668.7 672.7 676.1 679.9 684.2 691.2 699.4 702.7 707.6 714.5 717.3 719.7 716.9 706.4 695.3 684.5 670.9 659.9 650.1 636.4 628.1 616 606.8 597.7 587.6 583.5 578.9 575.3 583.3 593.3 607.9 622.8 637.5 654.7 672.6 691.1 710.8 728.6 745.8 763.2 778.1 785.9 795.6 803.6 804.9 806.6 810 810.9 810.8 806.8 802.1 796.4 790 784.3 777 770.2 765 761.3 758.4 757.5 757.1 755.6 754.3 751.8 751.6 750.4 746.1 739.7 728.4 713.2 694.8 683.7 671.2 660.9 648.3 639.5 630.3 622.9 615.2 608.9 602.8 596.6 583.2 586.9 588.9 591.3 595.1 598.7 600.3 600.6 599.1 597.9 594.3 591.9 588.9 587.2 583.8 579.2 574.4 560 569.3 577.5 583.7 593.3 599.7 604.2 608.8 609.1 608
760.7 754.5 744.7 732.6 716.9 709.4 698.8 686.1 670 661.9 656.1 645.3 638.3 626.6 618.3 610.8 600.8 591.3 586.4 575.7 566.1 559.3 554.1 550.3 545.3 544.1 539.4 539 535.4 532.6 526.7 521.9 517.6 514.9 508.4 504.1 495.2 492.9 495.4 493.1 498.4 502.4 505.5 493.2 505.5 507.5 505 504.9 498.5 496.8 485.3 478.4 483.1 480.7 478 476.7 475.3 471.7 461.4 453.7 448.3 448.7 443.6 445.8 434 433.9 433.6 441.4 459.1 471.1 475.4 479.5 494.3 509.3 523.8 543.6 564.3 574.2 575.8 576 577.3 572.8 578.7 589.4 600.6 613.5 622.1 633.6 642.9 648.9 658.2 662.6 666.2 670.7 675.9 681.7 686.3 692.3 696.9 706.6 708.1 710.4 712.8 708.5 698 688.7 677.1 665.9 653.7 642 628.2 618.1 609.3 595.2 586.4 581.6 576.7 573.2 576.2 590.4 606.6 619.4 634.2 650.9 669.1 689.4 709.7 728.5 747 766.9 779.5 784.7 787.8 794.7 800.9 802.8 803.5 807.4 807.5 805.1 802.1 797.8 791.8 786.2 779.5 772.9 767.7 763.1 758.7 755.9 753.5 753.1 751.4 749.2 747.6 746.4 746.8 743.8 735.1 726.6 713.5 700.1 685.2 672.1 662.1 652.1 638.5 629.6 623.9 616.2 607.8 602.6 596.3 589.6 581.4 581.4 583.8 587.3 590.1 593.4 594.8 594.7 594 592.3 588.4 586.1 584 581.6 578.8 572.9 564 559.5 573.5 579.2 588.4 593.9 598.9 604.2 605.6 604.8
734.9 727.2 716.3 703.1 691.2 682.7 673.9 666.4 651.3 640.8 633.4 628.9 619.5 610.1 601.7 593.9 585.9 578.2 570.4 562.8 553.1 545.1 544.6 543.8 539.9 538.4 537.8 532 524.4 523.4 522 517.2 511.4 504.7 501.2 501.4 504.7 506.1 500.4 508.9 512.5 511.6 506.3 507.1 510.3 511.1 515.5 507 502.1 498.2 497.2 492.3 488.4 488 482.9 480 479.6 475.7 467.1 457.6 449.9 448 438.1 441.9 439.2 432.6 432 442 458.6 463.3 471.6 477.7 486.2 499.3 511.9 529 543.5 559.7 565 564.1 566.5 564 569.5 581.2 596.5 609.4 622 629.8 638 646.7 654.8 660.9 664.2 666.1 669.8 675.9 682.6 687.5 691.3 701.6 703.8 707.1 706.2 700.1 689.2 681.1 669.7 660.4 648.2 639.5 624.7 613.4 600.6 586 582.2 573.7 570.2 573.2 586.4 601.6 616.8 631.4 646.4 665.9 685.7 707.6 727 745 766.3 779.4 783.7 788 790.6 792.2 796 798.5 798.6 802.4 806.9 803.2 799.3 793.9 788.5 782.2 775.6 770.1 765.7 760.5 757.2 752.6 749.9 749.2 748.4 745.6 742.5 740.7 741.8 740.3 733.9 724.8 713.5 700.8 686.1 672.4 661.3 653.2 641.4 631.1 623 616.8 610.5 602.5 595 588.5 584.2 575.9 577.6 580.8 583.9 587 588.3 589.6 589.8 588.3 585.3 581.8 580 579.6 576.3 572.6 563.9 552.9 568.8 573.1 582.2 588.9 594 598.4 601.8 602.4
707.2 698 686.1 677.1 666.8 658.7 652.5 643.8 629.4 619.3 615.8 611.3 603.9 590.2 585.5 579.4 566.9 562.3 554.9 550.7 543.2 540.3 541.2 535.8 526.8 524 524.1 516.2 515.3 514.2 510.5 510.9 506.6 509 520.8 506.5 507 512.4 516.1 517.3 520.4 515.7 512.6 516.3 515.9 518.9 520.6 511.6 507.4 502.1 503.1 502.3 499.9 497.1 489.2 484.2 482.1 480 472.4 459.5 452.8 446.5 439.3 434 432.6 431.6 431.4 438.3 454.4 458.3 471.3 475 481.2 491.5 503.4 516.9 526.8 539.7 549.5 552.5 552.4 554 561 575.2 591.5 603.7 614.7 624 632.2 642.8 650.7 655.9 659.8 661.9 664.6 671.3 678.8 681.1 687.8 694.3 697.5 698.3 697 690.4 678.7 664.2 653.8 646.6 639.7 632.9 618 606.9 589.6 582.9 575.2 567.7 571.7 580.3 595.5 612.9 628.2 643.8 661 680.2 701.4 723.5 743.8 763.1 778.3 783.2 785.7 790.1 792 792.1 793.1 793.8 795.2 797.5 801 801.3 797.2 790.7 785.4 779.4 773.2 767.8 763.5 759.2 755.2 751.7 748.5 746.2 744.3 741.2 738.1 736 735.9 736.5 731.3 722.8 710.6 701.5 688.1 675.8 662.8 650.5 642.3 632.3 623.5 617.9 611.4 603.6 595.4 589.6 584.7 579.5 570.2 575.4 578.2 581.7 583.3 583.9 585.2 584 581.7 580 578.3 576.5 573.8 570.4 563 549 565.3 569.5 576.2 583.7 589.3 593.2 597.8 598.7
677 668.2 660.9 653 642.7 634.7 632.5 621.8 611.7 602.2 597.6 593.8 585.9 578.8 571.8 565.7 558.8 552.5 552.2 550.9 546.2 540.6 530.6 524.4 525.1 520.9 519.6 518.5 521.6 519.1 519.5 517.6 517.3 519.2 515.7 506.7 514.2 521 522.5 523.1 524.9 518.6 519.7 519.8 523.9 526.4 525.6 521.3 517.5 513.6 515.4 513.5 510.9 507.3 497.3 491.1 490.3 484.1 476.1 459.6 452.3 446.3 436.3 432.8 430.9 430.5 429.9 431.4 449.1 463.2 465.1 471.4 478.1 485.3 495.1 506.3 513.7 523.7 534.7 544.2 539 546.6 555.4 569.3 582.1 596.6 610.8 620 632 638.9 646.5 653.2 655.3 654.9 658.3 665.1 665.6 674.7 683 686.9 691 687.7 683.8 676.2 664.3 652 642.5 633.5 625.7 617.4 605.4 592.1 581.3 577 568.2 567 576.1 590 607 623.6 641.2 657.4 675.6 695.3 716 738.4 758.3 777.7 784.2 786.7 787.7 790.7 792.2 790.5 793.3 791.8 791.4 794.4 798.2 799 793.8 788.7 783 777.8 772.4 766.9 761.4 756.7 752.9 749.2 746.3 743.8 740.6 738 735.5 733.1 731.7 732.4 727.9 720.7 711.3 700.7 688.7 676.8 665.7 652.9 642 633.1 624 617.5 611.1 602.9 596 588.5 582.8 578.6 571.5 567.5 574.6 575.7 577.6 577.3 578.6 579.4 578.5 577.4 576.1 573.7 573 569.8 561.5 547.6 561.5 566.3 570.6 578.3 584 588.3 593.2 594.3
651.2 644.3 637.1 629.7 621.8 615.7 610.5 602.4 587.2 583.6 579.4 571 564.3 562 556.2 548.8 547.8 541.1 539.7 534.7 530.4 528.6 527.2 534.8 531 529 534.7 531.7 527.1 525.4 533.7 525.2 525.7 521.1 510.6 514.4 523.5 532.8 530.2 531.5 530.2 526 526.1 526.4 531.1 533.5 533.6 535.7 532.3 530.4 530.1 529.5 522.9 520.8 515.1 501.3 494.3 486.2 477.6 466.8 456.8 447 438.3 431.6 429.2 429.3 428.9 429 439.7 456.1 458 467.9 474.8 482.6 489.9 499.6 508 514.3 522.8 529.3 532 540.3 549.8 557.8 570.4 589.9 600.7 613.8 624.6 633.4 638.8 644.9 649.3 646.2 653.5 658.2 664 669.8 674.2 681 680.6 677 669 659.8 649.2 640.5 630.3 622.1 613.8 603.7 589.9 579.1 574.9 568.4 562.4 574.2 585.5 597.6 619.7 637.2 655.3 672.5 690.2 709.6 730.2 752.2 770.6 783 788 787.6 787.3 788.1 789.2 787.9 786.6 786.7 786.3 789.3 793.1 793.8 790.9 787.2 781.4 776.2 771.4 765.9 760.4 755.6 750.5 747.5 745.1 741.3 738.3 735.1 732.5 729.5 727.8 727.5 725.8 719 710.5 701.2 688.6 677.3 665.8 653.5 641.5 632 624.5 616.6 609 603.4 597.3 590.4 582.8 577.7 573.9 562.7 568.5 572.4 572.9 573.4 573.9 576 575.7 574.9 573.8 572.4 569.3 566.4 562.1 541.5 553.6 560.5 565.7 574.5 579.5 583.9 587.3 590
629.6 625.3 618.7 609.6 602.7 597.6 590.1 580.3 571.7 565.4 560.5 555.9 553.5 550.4 547.3 540.8 540 537.8 535.8 533.7 536.4 539.2 540.5 536.3 539.1 541.4 542.4 536.1 539.8 541.7 541 540.6 533.2 522.3 519.2 523.6 531.9 535.4 534.1 533.5 534.3 532.5 533.8 540 544.3 545.9 547.5 544.9 547.8 549.5 549.6 545.2 540.9 536.5 526.7 514.6 503.7 497.3 484.3 471.3 458.8 450.3 439.3 430.5 429 428.3 428.7 428.1 436.2 449.4 460.8 464.2 469.6 479.5 486.7 495.4 502.3 508.3 514.8 520.1 526.2 533.1 542.4 551.9 566.8 580.8 592.9 604.5 616.7 623.1 632.4 637.2 639.2 640.9 646.6 653.7 657.9 663.5 667.7 668 667.8 662.8 653.4 643.8 637.7 626.3 618.1 609.1 601 589.1 577.4 572.6 567.2 558.5 562.1 582.1 594.1 612 631.2 649.7 669.3 688.8 705.8 725.6 746.3 765 781.8 789.7 789.7 787.8 790.8 788.9 786 784.5 782.6 780.7 781.1 784.2 785.6 788.7 787.9 786.7 781.6 775 769.2 765 759.6 753.5 749.8 745.6 741.2 737.3 734.9 732.6 728.8 725.5 724.4 723 721.8 717.4 708.7 699.5 689.6 678.7 668.6 654.7 642.7 632.4 625.1 616.3 607.7 601 595.9 590.2 582.9 577.4 573.6 567 562 568.4 569.3 569.6 570.4 570.9 571.6 571.7 570 569.6 567.9 563.6 559.6 543.6 540.1 553.1 557.3 564.3 574.1 579.2 582.7 584.2
609.8 606.5 602.4 594.8 585.4 579.8 572.9 565.5 560.2 555.2 552.5 550 548.5 546 544.6 547.4 549.1 547.9 545.9 549.6 547.8 546.3 547.7 545.6 551.8 550.6 546.5 548.9 549 547.9 547.3 545.3 536.7 536.2 530.8 535.4 537.2 538.3 541.3 540.8 542.2 544.8 542.4 552.3 555.9 560.5 563.8 566.4 567 567.7 568.9 567.2 559.1 547.9 537.3 524.3 514.9 498.8 492 481.4 463.5 452 440.6 432.8 426.9 427.9 428 427.3 428 441.6 453.2 458 466.3 476.1 483.6 491.1 497.9 505.8 510.1 515.9 521.9 528.5 537.2 546.9 558.5 572.8 580.4 594.9 604.4 615.8 621.1 624.7 632 632.6 640.3 647.8 653.5 658.2 659.6 658.4 652.4 646.1 638.5 630.6 624.6 614.4 606.1 595.5 584.5 575 569.5 561.6 554.7 564.7 579.9 590.6 605.1 623.7 643.8 661.9 682.8 704.2 723.6 743.3 761.3 779.7 792.2 791.9 789.9 787.8 787.9 785.8 783.2 781.8 779.3 776.5 777.6 779.9 781.6 783.6 784.9 784.4 780.6 773.7 767.3 764.8 759.3 754 749.2 744.8 739.2 734.2 731 728.8 724.8 719 718.8 718.1 718.5 714.9 707.2 698 689.1 679.7 669.1 655.8 643.7 634.6 625.5 616.3 606.7 598.8 592.8 586.8 580.8 576.1 571.4 567.9 562.6 562.2 565.3 565.4 566.6 567.1 568.6 567.5 567.8 564.7 564.1 562.1 555.8 548.2 535 545.7 556 558.3 568.6 574.3 577.8 579.3
593.4 590.1 586.2 578 566.1 564.1 562.4 559.5 556.3 564.3 561.7 561.6 558.6 558.1 557.6 553.1 559 554.8 553.5 554.8 556.1 552.7 559.1 555.5 558.1 563.2 559.9 558.3 560.8 561.4 561.6 556.3 547.9 549.8 543.7 547 544.6 547 547.8 550 547.8 550.3 557 568.6 571 575.6 580.5 582 586.5 591 589.2 585.7 578 563.7 548.6 533.5 523.7 508.5 498.9 487.8 469.5 454.2 443.8 434.5 427.3 425.8 427 426.8 426.5 435.4 446.5 455.5 464.8 471.9 480.9 489.4 496 502 507.4 513.6 518.1 523.8 532.2 542.3 551.6 562.6 572.3 583.6 594.2 602.4 612.2 616.8 621.5 625.8 632 640 645.9 648.9 648.5 645 639.6 628.2 623.8 617 608.5 600.1 591.2 580.4 571.8 565.8 555.2 551.8 562.2 576.2 587.7 602.4 619.3 637.3 656.1 676.8 697.9 720.2 742.8 762.1 775.3 792.6 796.8 793.5 791 788.4 785.6 782.7 781.2 779.2 776.5 772.5 773.9 775.7 776.2 778.4 780.4 781.8 778.9 771.9 766 762.6 758.4 753.8 749.1 743.4 737.4 733.5 729.4 724 720.1 715.1 710.7 710.9 713.4 712.6 704.7 697.7 687.9 679.8 669.5 658.2 645.7 636.3 626.2 616.3 606.3 597.3 591.5 585.1 579.8 574.8 570.3 566.7 564.3 552.7 561.2 561.7 562.2 562.4 564.1 564 563.8 562.9 560.3 559.3 556.5 546.8 533.8 545.1 550.4 552.8 558.2 568.9 573.2 575.7
588.2 580.2 575.3 568.5 572.8 573.7 573.3 573.5 575.5 574.6 572.8 569.3 568.7 568.9 565.1 566.4 566.3 564.5 563 565.8 566.7 564.5 569.5 568.7 575.1 573 572.1 569.5 565.9 573.6 572.4 569.4 568.6 564.8 559.5 558.5 559 558 555.4 555.6 544.4 558.3 572.8 579.2 584.8 589.9 596.4 599.6 605.2 609.5 609.2 604.3 594 578.5 562.4 547.5 530.2 517.3 503.7 491.5 480.2 458.8 446.6 434.5 426.2 424.6 426.1 426.1 426 433 437 448.4 457.1 465.2 476.7 485 491.9 499.7 504.7 510 515 521.3 527.9 537.7 545.5 557.7 566.7 574.4 583.4 592.4 602.8 607.5 613 621.4 626.2 634.3 639.2 640.6 638.6 633.3 627.5 621 612.9 603.6 594.7 586.4 574.9 567.8 562.7 556.8 548.1 560.2 574.9 585.9 598 614.6 634.2 650.7 671.2 691.8 714.7 737.6 758.7 774.9 792.3 797.9 795.7 792 791 786.3 781.9 780.5 777.8 774.9 772.7 770 770.7 771.2 772.7 773.1 776.2 779.1 778.5 771.6 766.4 761 756.3 752.4 748.3 742.7 736.1 730.8 727.5 723.2 718 713.8 701.5 705.4 707.5 709.7 704 697.5 688.2 678.8 670.3 659.5 647.5 636.2 625.1 616.4 605.6 596.7 590.4 584.2 579.1 574.8 570.6 565.1 561.5 553.4 551.7 559 558.9 558.9 559.6 561.7 560.2 560.3 558.8 555.2 553.9 548.8 529.9 533.6 544.2 545.6 548.6 562.6 569.1 571.3
577.1 574.5 579.2 580.9 584.8 585.2 585.9 586.4 585.5 583.2 584 583.4 580.5 578.4 573.1 576 577.6 578.7 578.2 579.7 579.5 575.8 578.3 581.2 586.9 583.9 583.3 581.1 580.5 579.6 581.4 580.1 578.9 576 570.5 569.6 570.1 568.9 565.1 563.1 546.3 568.4 582.3 593.4 597 604.4 611.1 620.4 626.5 628.7 626.7 619.5 609.9 593.5 575.4 558.2 544 526.3 511.8 497.8 484.4 463.6 453.2 441.6 428.6 425.5 425.3 425.3 425.6 427.8 431.8 444.3 457.9 467.6 473.9 480.8 488.4 494.6 502 507.4 512.5 518.3 524 530.3 539.4 551.1 560.7 567.4 574.1 584.3 591.2 597.9 606.7 615.1 620.6 627.7 631.3 630 624.5 619.3 614.9 608 598.7 590.8 582.4 571.1 562.7 559.9 552.4 546.7 546.3 571.1 583.8 596.6 612.8 629.2 645.5 664.4 685.3 708.4 730.8 753.2 771.7 789 798.8 797.1 794 790.8 787.6 782.8 778.3 775 773.5 770.9 769 766.7 766.7 767 768.8 769.6 771.9 774.1 776.9 771.7 765.9 760.1 755.1 749.8 745.8 739.4 734.6 730.1 725.3 718.9 715.5 712 706.4 691.9 701.5 705 704.4 696.3 689 679.5 668.2 658.9 648 636.7 626.3 616 605 597 589.2 583.1 577.7 573.3 568.3 563.5 560.4 556.4 546 554 554.6 554.4 554.9 557 556.1 556.5 556 553.8 549.7 547.2 535.8 525.1 538.3 539.2 543.7 555.1 564.1 567.1
587.9 591 596.3 601.8 601.2 604.7 602.3 600.4 595.7 592.9 595.6 595.5 593 584.6 586.9 590.8 588.7 592.2 592.1 591.5 592 590 592 592.5 595.3 593.7 590.4 590.8 588.5 585.5 589.7 588.4 588.6 586.3 583.4 579.8 579.5 577.8 574 563.8 551.3 576.5 591.6 601.2 612.5 620.6 632.7 642.6 649.2 650.1 645.4 636.5 625.7 609 591 571 553.9 538.4 518.7 503.8 486.7 472.4 455.5 440.5 430.9 423.4 424.5 424.5 424.6 424.9 433.2 436.7 450.2 457.9 473.8 478 484.9 490.5 497.1 503.7 509.2 515.8 523 528.3 536.2 543.8 551.7 559.2 566.1 575.4 584.7 590.7 602.4 609.5 617 620.6 621.4 618.5 610.1 608.6 603.1 597.5 588.6 580.9 569.9 560.6 556.9 544.7 539.6 545.7 565.7 581 594.1 610.1 624.8 641.1 659.9 679.6 702.5 725.1 746.8 764.6 785.3 798.2 799.2 795.9 792.8 790.1 785.9 780.3 773.1 769.8 768.2 766.3 764.6 761.9 762.3 762.6 763 765.4 767.3 770.9 773.2 770.9 765 758.5 750.9 746.3 742.8 737.6 732.6 727 722.9 716.2 711.1 707.7 704.4 699.2 690.3 697.7 700.8 695.4 687.2 678.3 669.2 657.6 649.7 639.1 628 617.7 606.3 596.8 589.1 583.4 577.5 573.7 567.1 561.6 558.1 554.8 543.8 547.7 551.3 550.3 549.6 551.6 552.6 552.8 551.1 549.8 547.4 542.1 540.9 531.8 518.8 536.4 535.4 536.7 556.6 562.5
602.2 610.5 612.6 616.3 615.9 617.4 616.2 611.2 604.2 604.4 604.6 605.2 601.8 600 599 601.4 601.7 604.6 607.2 606.1 605.8 603.5 603.4 601.9 602.6 601 599.6 598.3 591.9 594.3 597.1 599.1 600.4 601.6 597.5 589.2 588.2 584.9 581.4 566.8 552.8 585.1 602.5 616 627.7 642.2 655.3 665.2 670.5 671.5 669 655.4 641.2 624.9 605.6 586.2 565.6 548.7 530.3 509.1 490.9 476.2 459.3 444.1 435 423.6 423.1 423.5 424 423.7 430.7 431.2 443 458.8 466.6 477.2 483.9 487.8 492.9 498.4 503.9 512.1 517.9 522.9 531.2 537.7 546.8 554.4 559.9 567.5 576.8 585.7 594.3 601.5 609.9 612.1 610.7 606 601.6 596.9 591.6 587.9 581 573.9 561.1 555.1 551.1 538.7 537 558.1 577.7 591 605.5 620.3 638 655.4 673.4 694.9 716.9 738.2 759.1 778.5 792.2 795.9 795.8 794 790.2 788.2 781.6 775 767.2 764.2 763.3 761.8 759.7 758.3 757.5 757.7 758.5 760.8 762.3 766.3 769.2 767.6 763.8 757.8 750.3 744.1 739.4 735.9 729.7 723.9 718.2 713.2 707.8 702.8 700.2 695.9 683.6 692 695.4 690.1 684.2 676.1 667.9 658.2 650.4 639.5 629.8 619.3 608.1 598.2 589.4 582 576.5 571.9 566.2 561.2 556.6 551.9 548.9 538.3 547.1 545.4 544.3 545.9 547.2 547.6 547.8 545.8 543.5 539.6 535.7 528.3 527.3 532.4 536 532.3 551.5 556.3
609.9 623.1 623.4 624.4 623 625.2 622.6 617.5 612.9 613.6 614.8 615.5 613.7 612.5 613.7 614.5 616.1 619.6 621.6 620.2 615.6 614.2 612.6 610.1 609.4 606.5 605.4 602.5 601.9 603.8 605.6 608.5 609 609.8 607.2 601 597.8 593 588.3 572.8 554.8 592.9 616.3 631.2 647.1 663.1 678.4 693.1 699.6 697.7 695.2 677.9 659.4 639.1 620.4 597.9 576.2 557.9 539.1 518.8 498.7 481.9 468.9 449.8 436.6 427.2 422.1 423.1 423 422.9 425.4 433 441.2 456.7 458.4 473.5 481.1 486.7 490.4 494.8 500.2 507.2 514 519 525.8 532.4 539.8 545.7 552.6 562.4 569.4 581.1 588.1 594.5 601.2 601.7 598.4 594.9 590.1 584.6 578.6 576 571 563.7 545.4 538.4 532.5 536.7 556.3 575.6 588.3 603.1 616.3 630.3 646.3 666.7 686.8 709.1 730.7 749.2 767.5 784.5 793.6 791.5 792.3 791.5 786.1 781.5 776.6 769.9 762.8 760.2 758.4 756.3 755.4 751.3 753.6 752 753.7 755.3 757.7 760.9 765.3 763.4 759.9 755 749.1 743.6 737.3 732.5 727.2 720.7 713.8 707.6 703.7 698.9 696.2 692.8 687.7 682.2 689.3 686.2 681.5 674.1 665 658 650.8 640.9 630.6 621.9 610.2 599.7 589.4 581.7 575.7 570.5 564.1 559.7 554.7 551 547.8 542.3 535.7 541.6 540 540.7 542.5 542.8 542.3 540.2 537.8 534.9 531.7 513.7 519.8 526.6 530.1 530.7 540.4 550
626.1 631.1 634.6 634.8 631.8 634 632.5 629.3 627.4 623.9 627 627.5 625.4 626.6 627.5 628.8 630.5 637.3 638.1 630.2 625.9 623.6 622.8 619.5 616.9 613.3 608.3 610.6 612.4 611.7 613.4 615 616.6 618.6 616.9 614.2 607.3 604.5 595.9 568.3 558.7 598 628.7 647.4 666.6 688.2 706.8 719.3 728.1 728.6 720.1 704.4 679.6 655.8 632.6 609.1 588.9 567 547.1 527.3 506.2 488.3 471.9 450.9 439.6 429.7 423.7 421.5 422.2 422.1 423.2 432 438.4 447.7 456 467.4 476.7 483.7 488.1 491.9 497.2 503.2 510.3 513.6 523.8 530.7 537.2 543.3 552.1 557.1 564.2 571.4 578.4 586.9 590.7 590.8 588.4 585.1 580.3 571.6 565 557.3 553.4 540 530.7 529 539.1 563.2 574.2 585.5 597.8 611.8 624.4 640.1 657.7 677.9 699.5 721.5 740.7 758.6 774.5 784.7 790.3 790.4 788.2 785.7 780.8 775.2 769.9 763.2 757.6 754.6 753.9 752.3 751.2 747.2 748 747.4 748.4 749.9 752.4 755.3 758.5 759 755.2 750.2 745.9 740.5 735.1 730.3 723.8 717.5 710.3 704.7 698.9 695.1 691.5 687.8 683.3 670.9 683.6 682.8 679 672.9 664.7 657.5 648.2 641.1 632.5 622.7 612.4 601 591 582 575.2 568.6 563.1 557.9 553.5 549 545.7 542.2 531 530.9 535.7 535 536.2 537.2 536.5 535 532.1 529.5 527.5 520 507.9 520.7 518.1 527.1 530.2 541.1
637.3 641.7 645.6 644.4 643.9 644.5 642 642 640.3 638.1 640.8 640.7 640.4 641.7 641.4 640.7 643.5 649.3 645.3 639.2 636.5 634.1 632.8 628.9 625.7 623.8 620 618.3 619.4 621.8 624.4 625.7 626.5 629.9 629.3 625 618.9 615 598.6 569.1 568.3 606.7 640.6 665.9 690.3 711.8 728.6 740.3 749.8 753 747.6 732.1 703.7 674.2 646.5 621.9 599.3 578.8 557.1 536.2 512.8 493.2 476.5 456.1 443.4 432.6 422.4 421.5 420 421.5 421.3 429.1 434.2 448.5 458.3 458.5 471.6 477.6 483.5 488.3 494.2 499 505.5 513.5 519.5 527.8 536.5 542.2 550.2 555.9 562.6 568.8 572 576.7 580.9 581.4 578.7 576 568.9 559.6 550.7 541.5 528.7 523.9 530.8 546.9 567.5 575.4 584.2 592.8 605.8 619.3 633.5 650.7 669.6 690.3 712.7 731.5 750.3 764.8 773.1 780.6 783.9 783.1 782.3 778.9 774.1 768.3 763.6 758.1 753.8 751.6 750.1 749.1 746.7 743.9 742.9 741.5 742.9 744.6 747.8 750.6 752.5 753.8 750.1 745.4 740.7 737.4 732.5 727.9 720.9 712.5 706.5 701.4 696.4 690.4 686 681.9 678.5 668.6 677.5 678.7 675.6 671.7 665.4 658.2 650.2 642.2 634.1 624.8 615.3 604 592.8 583.4 575.1 568.7 562.9 557.8 552.9 548.1 543.5 539.4 534.6 525.9 532.8 531.4 530 530.9 530.6 528.9 526.8 524.6 522.9 519.6 513.7 514.7 519.8 522.7 525.6 534.9
652.9 655.8 656.9 655.1 655.4 656.4 655.6 654.4 652.9 651.5 652.4 652.8 652.9 653.1 652.7 651.4 653.6 655.6 652.8 651.2 648.9 646.8 643 640.2 633.9 629.7 619.5 625.6 628.2 631.1 632.9 635.1 637.8 641.3 642 637.7 630.7 624.2 597.6 565.4 577.9 617.7 652.9 684.8 708.5 728.8 746.4 759.9 769.9 773.6 770.6 753.6 728.7 693.7 663.8 635.4 611.3 587.9 567.2 542.8 521.8 500.5 481.9 462.7 446.1 434 426.2 421 421 420.9 420.5 425.4 432.5 446.7 456.7 454.5 465.6 473.9 480.5 484.3 490.2 495.4 501.8 509.5 517.2 525.5 533.3 540.4 545.1 548.9 555.1 561.7 564.6 568.7 573.3 572.5 568.9 563.4 557 545.7 534.9 518.8 521.9 538.5 557.1 572.2 578.9 585.1 592.6 604.2 615.8 628.6 645.2 664.7 683.4 703.2 722.1 740.5 753.6 763.7 770 774.1 775.9 774 772 770.2 766.5 762.5 757.1 753.1 749.8 749.1 748 745.1 743 739.9 737.5 736.7 735.9 738.1 742 745.8 748.4 747.8 745.2 740 736.6 733.8 730.1 723.3 715.8 709.1 702.9 697.1 693.3 687.5 681.8 678.7 672.9 661.1 670.4 673.5 672.4 668.8 664.8 657.8 652.4 643.8 635.3 627.5 618.2 609.2 596.1 585.9 577.7 568.8 562.6 557.1 551.7 546.8 542.7 538.6 534.5 526.9 522.8 528.3 526 524.6 524.6 524.1 523 517.6 518.3 515.2 499.3 507.7 514.7 512.3 519.8 526.5
664 669.1 669.4 668 670.1 669.9 669.2 668.6 666.5 663.4 664.3 665.3 663.9 663 662.6 661.8 664.1 664.7 663.8 665.3 662.3 659.7 655.9 650.7 644.8 637.5 624.6 636.8 637.8 642.4 644.2 647.9 650.5 653.7 653.6 650.8 644.5 630.1 594.3 571.4 585.1 619.4 661.8 698.5 725.3 747 762.9 776.8 783.7 788.2 789.8 777.8 754.9 713.6 680.9 650.4 622.1 598.4 577.9 553.8 529.2 509.7 489 467.8 450.1 437.1 428.4 420 420.4 420.7 420.2 422.5 430 439.2 447.5 455 455.6 468.7 473.6 480 486.9 491.4 497.6 502.6 511.9 520.5 527.5 534.6 542.2 546.6 550.1 552.8 557.6 561.2 564.6 562.2 558.6 553.5 545.7 533.5 517.4 520.8 544.7 561.9 574.6 584.1 591.9 594.6 599.4 612 624.2 640 658 678 696.6 715.7 733 745.9 753.1 759.9 763 765.5 765.1 763.4 761.6 760.1 758.7 754.7 751.5 747.7 746.9 746 745.5 742.4 739 730 729.6 731 731.5 734.2 737 739.2 743.2 743.3 740.5 736.9 733.5 730.5 725.3 718.3 711.3 705.3 699.3 693.7 689.4 683.8 679.3 674.7 670.9 663.2 663.8 667.4 667.6 666.1 662.6 657 652.6 645.7 639.6 632.8 624.7 613.4 600.6 589.6 579.6 570.6 563 556.6 551.1 546 542.1 537.6 533.4 530.5 520.2 520.1 524.4 521.4 519.4 519.5 518.4 517.6 513 509.9 494.3 500.4 508.7 509.1 517.4 520.1
680.8 680.5 681.7 680 680.4 681.6 680.5 679.1 678.3 676.4 676.8 675.6 674.7 672.5 672.8 674.5 673.9 674.3 675.5 675.8 671.8 670.7 668.2 663 655.8 645.1 637.4 643.3 648.4 654.1 657.3 660.2 664.6 667.2 668.9 667.6 649.4 633.4 598.4 571.5 590.8 625.2 669.9 706.2 736.9 758.8 775.7 784.9 790.5 794.3 795.9 790.5 773.1 735.9 699.9 665.6 636.1 609.6 587.6 564.7 535.9 517.4 496.2 479.1 455.3 442.2 431.7 422.6 420.1 419.8 419.7 421.6 428.4 433.8 438.6 445 453 460.6 462.9 474.9 481.4 487.7 491.6 499.4 505.7 514.7 521.6 529.1 536.6 542.5 546.3 547.3 551.3 553.1 555.5 554.1 548.6 543.7 528.1 510.4 516.8 538 553.3 565.4 575.2 586.6 598.5 602.7 609.5 622.9 637.2 654.6 673.3 693.5 709.2 727.1 739.9 745.9 753.1 755.1 754.6 755.7 755 753.5 751.5 750.9 749.8 748.2 745.1 742.5 740.6 741.3 741.1 739.2 736.6 731.7 725.6 726.6 727.9 729.4 732.6 735.5 737.1 739.5 738 733.8 729.6 726.2 719.1 713.4 706.3 700.5 696.2 690.9 687.1 680 674.8 671.2 666.4 660.3 652.7 661.1 660.9 661.8 660.4 657 653.6 648.9 643.8 638.5 629.6 618.9 606.6 594.5 584.3 572.8 564.2 557.4 551.5 545.1 540.4 536.2 532.5 529 526.4 516.4 516.3 521.1 517.3 513.8 514.6 513.3 510.9 505.5 499.7 487.5 502.8 507.3 510.8 512.9
691.1 693.2 694 691.9 688.1 692.9 690.6 690.9 688.5 687.6 687.7 687 685.1 683.1 684.3 685.3 686.2 686.9 686.6 684.4 683.2 680.3 677.6 674.1 665.1 657.5 653.2 646 660.3 664 668.6 672.1 678.9 683.8 686.3 682.8 664.6 638.5 602.5 579.1 595.9 629.1 670.6 710.2 746.2 767.3 781.3 788.3 794 798.6 797.9 793.1 783.1 756.6 718.8 680.8 649.5 619.5 594.3 570.5 544.9 526.1 504.1 484.6 465.6 449 434.2 427.2 418.8 419.7 419.2 419.1 426.2 426.9 433.8 440.1 445.3 453.5 461.2 469.3 477 481.8 486 494 500.4 508.4 517 521.8 529.1 535.3 540.7 543.7 544.6 545.2 546.4 543.8 541.3 525 505.4 518.1 534.4 547.9 560.7 567.6 576 585.5 595.3 606.9 619.3 633.3 649.6 668.6 686.5 706.5 723.2 737.4 745.2 746.6 748.8 747.9 746.4 746 746.3 744.5 743.2 742.9 742.1 740.5 738.6 737.8 736.5 736.2 735.5 734.6 732.6 729.3 716.2 713 722.7 724.7 727.4 731.9 734.2 735.7 736.2 733.2 727.3 722.4 716.4 708.5 701.2 695.8 692 688 683.8 677.8 672.9 666.2 662.3 657.8 646 654.3 656.5 657.8 659.6 658 654.4 651.7 647.3 642.8 636.7 625.4 613.5 601.3 589.5 576.5 566.2 559.2 552.3 546 541.2 535.7 532 528.2 524.7 514.8 510.9 508.9 516.1 512.9 509.8 509.3 507.6 505.2 501.3 488.3 495.6 500.1 501.6 508.7
701.6 702.5 705.6 704.3 702.1 704.7 702.5 700.4 698.6 698.5 696.8 696.8 696.4 695.6 697.2 697.8 699.1 698.8 698.9 695.4 692.3 689.2 684.7 680.8 675.8 667.5 662.7 658.6 670.8 674.9 681.3 690.3 696.7 703.1 702.8 697.8 671.8 636.5 604.4 582.7 603.2 638 672.3 711.7 750.2 770.4 781.7 789.4 793.6 796.1 796.7 790.8 780.1 765.2 738.7 702.3 665.3 633 603.4 576.5 555.5 532.5 511.4 492.6 475.6 454.7 439.2 428.1 417.7 418.9 418.7 418.7 421.8 427.3 427.1 432.6 443.9 448.1 456.8 465.1 472.6 476.8 483.1 489.4 493.5 501.6 510.5 514.1 521 527.5 534.5 538.1 537.6 538.9 536.8 537.6 533.1 509.9 510.5 526.5 542.7 554.6 563.4 570.3 577.7 589.6 601.5 613.8 629.7 645.3 664.4 681.8 700 719.6 734.4 745.4 750.4 750.1 745.9 740.1 739.6 738.8 737 736.5 736.4 735.5 734.7 734.3 733.8 731.7 730.1 731.2 730.2 729.1 726.8 724.1 721 704 714.7 717.8 721.2 723.8 726 729.9 732.5 731.7 726 719 714.9 705 695.9 690.9 688 683.6 679.3 673.7 668.7 665 659.4 655.5 646.8 648.4 650.9 653.9 656.2 656.2 654.8 653.1 649.8 646 640.8 632.9 619.2 608.4 596.3 581.7 569.4 560.6 553.6 547.3 541.9 535.7 531.5 527.1 524.1 520.3 517.3 507.4 503.5 501.4 507.9 505.4 503.8 501.4 498.5 487.4 482.7 494.5 496.6 502.2
715.9 715.3 717.2 717.7 712.5 714.6 714.2 712.3 710.9 709 708.4 708 708 708.6 709.2 709.7 711.2 711.8 710.3 706.8 704.9 700.9 693.6 686.6 685.7 678 672.6 667.5 679.9 687.6 696.4 706 714 719 717 708.9 676.6 639.3 607.4 588.7 608 641.5 674.1 710.1 749.4 770.4 779.7 786.2 789.8 792.2 792.4 785.2 773.2 760.8 745.3 721 683.1 649.3 613.7 586.7 563.1 543.3 518.1 498.3 481.4 463.7 444.9 431.2 417.6 418.3 417 418 418.7 422.8 422.6 426 431.3 439.9 453.1 461.5 465.2 471.2 478 483.5 490.2 497.6 507.3 512 515.6 520.2 525.6 531.9 529.6 527.3 528.5 532 520 493.7 518.7 535.8 545.9 555.6 565.3 574.7 583.9 596.5 610.6 623.3 639.2 657.6 677 694.8 712 730.8 744.1 750.5 751.3 747 740.6 737.4 732.1 730.3 728.3 726.4 726.7 727.1 728.1 727.6 728.1 727.5 726.1 724.8 724.6 723.8 721.3 718.1 713.9 709.4 704.5 709.2 712.9 716.3 719.9 725.1 728.5 728.7 723.2 715.2 708.2 699.3 691.4 685.6 682.5 679.2 674.8 670.4 665.7 661.1 656.6 652.9 649 636.6 645.1 648.6 650.9 652.2 652.3 651.3 649.3 646.3 645.5 639.5 625 613.6 601.5 586.4 574.4 564.1 555.5 548.7 543.1 536.4 532.2 527.6 523.3 519.9 516.7 512.4 508.3 498.4 503.3 505.5 502.4 499.4 495.6 489.9 478.7 489.1 491.2 496
729.5 728.6 728.9 727.4 725.3 727.9 726.4 724.9 722.6 721.7 721.5 720.4 720.1 721.9 722.2 723.1 726.2 726.2 721.7 719.8 714.3 710 702.9 697.6 697.2 688.4 681.8 676.8 688.6 699.3 711.1 720.8 728.6 733.3 728.6 716 676 639 608.4 587.5 614.7 649.8 681.8 718 753.8 769.1 777.1 781.9 785.5 787.3 786.1 779 767.2 755 740.9 728.1 700.1 664.4 627.2 594.9 570.9 551.6 526.7 507.5 486.3 470.7 450 437 422.7 417 417.1 417.7 417.8 419 422.2 421.2 424.5 430.3 439.6 452.6 459.6 466 473.6 476.8 483.5 492.5 499.3 505.6 511.3 514.9 520.1 523.4 521.2 519.4 521.6 526.6 503.7 504.9 528.8 538.7 549.2 559.1 569.7 579.4 590.2 604 619.6 632.8 649.5 669.6 689.1 707.5 723.8 740.2 747.7 750.8 748.2 738.3 732.6 728.1 723.4 720.6 718.9 716.3 716.2 716.2 717.7 718.9 719.2 720.1 721.1 721 720.1 719 717 714.6 709.7 703.6 698.1 702.8 705.6 707.7 714.2 720.4 724.2 723.4 717.3 713.2 704.8 696.1 688 681.9 677.2 674.4 671.4 666.2 661.9 657.2 651.9 649.6 645.1 633.2 637.5 641.9 644.7 646.3 647 647.1 645.3 645.5 643.9 637.3 626 616.3 603.9 589.4 579.1 566.2 559.6 551.5 544.5 538 532.8 527.7 523.6 519.6 515.5 512.1 509.7 504.5 495.9 500.8 502.5 501.3 497.1 493 476.5 475.8 482.5 489.1
742.2 738.4 741.2 738.8 737 740.4 739.5 736 734 734.1 734.2 733.5 732.9 734.5 734.9 736.3 738.6 739.5 736.5 730 725.1 720.4 712.2 708.3 707 696.6 696.1 687.9 698.9 711.7 723.7 733 741.1 744.8 738.6 722.5 684.5 642.7 608.5 590.6 623 653.1 684.6 724.3 752.5 766.9 772.8 777.2 781 781.2 777.4 770.6 760.2 746.2 735.8 724.9 705.9 678.5 637.6 606 578.3 560.8 535.6 514.3 493.4 477.5 457.3 441.3 428.7 417.3 417.4 417 417.1 417.7 430.5 422.4 423.1 425.6 430.6 440.8 451.6 462.4 467.3 472.3 479.4 488.7 494.7 499.8 506.7 512.1 515.3 517.2 513.1 514 517.7 518 487 509.7 528.7 539.2 551 563.8 575.6 586.3 599.1 610.3 628.1 641.9 662.4 680.5 700.1 717.5 734.1 744.3 746.8 746.8 741.8 730.5 721.9 717.3 712.6 709.5 708 706.3 706.5 707.1 708.7 709.9 712.6 714 715.1 715.9 715.6 714.1 711.3 708.9 704.5 699.9 687.4 696 698.6 703 707 713.5 718.4 717 713.5 710.5 702.7 692.7 683.5 678.6 673.9 670.1 666.1 661.4 657.1 653.9 649.8 645.8 641.3 636.1 630.2 634.8 638.2 639.4 640.5 640.8 640.3 637.7 636.3 631.2 625 619 609.4 592.5 581.5 570.1 560 554 546.6 539.5 534 528.7 523.9 519.5 515.9 512.3 509.7 506.9 501.5 493 492.1 488.6 494 493.2 483.8 470.8 477.7 486.1
