ncols 200
nrows 82
xllcorner 280000
yllcorner 191550
cellsize 50
203 209.3 215.4 219.6 223.8 227.9 230.1 231.6 232.4 230.9 227.8 225.1 220.4 216.3 214.7 214.3 214.7 216.4 220.1 225.7 227.8 235.7 250.2 262.2 270.5 278 282.6 286.5 289.5 290.9 292.8 296.9 299.7 302.8 306.5 310.7 311.5 309.6 305.6 302.6 292.1 275.4 260.9 249.1 234.6 227.5 220.5 211 194 184.3 182.9 178.8 175.3 172.4 167.2 162.1 154.7 143 131.4 120.5 106.3 102.9 127.2 147 153.3 162.1 180.7 192.3 198.1 196.2 192.2 189 188.8 182.8 176.1 167.5 167.5 169.9 172.2 173.5 171.9 170.8 170.4 171.8 175 172.3 173.4 168.3 164.3 175.8 184.7 195 208.8 221.2 232.5 241.3 250.2 256.3 263.3 267.2 274.1 280.3 285.8 289.7 292 293.5 293.9 294.4 286.4 279.8 277.4 269.2 267 268.2 268.1 269.8 270.4 270.1 270.9 273.8 274.7 278.2 279.4 280.7 279.9 276.9 277.6 276.9 273.3 267.4 250.1 244.7 241.6 237.9 235.3 235.1 233.6 231.8 231.2 228.9 229.6 235.1 236.9 241.2 248.3 253.9 259 260.8 262.5 264.3 266.6 266.5 270.3 274 276.2 280 286.1 296.8 306 315.4 320.6 322.8 324.3 325 325.4 327.8 328.1 328.9 332.2 335.4 337.7 336.8 329.2 339 347.2 353.5 360.6 373.9 385.2 397.1 411.6 421.7 425.5 428.8 430.6 430.8 432.3 429.2 432.5 439.9 444.8 446.3 445.5 438 425.8 411.5 386.5 409.4 419.1 424.8
210.3 216.2 221.5 225.8 230.2 232.7 233.9 235 236.6 236.6 233.8 230.2 226.5 222.8 221 221.8 221.9 223.1 228.7 233.1 236.7 241.3 249.6 260.6 269.2 277.6 284.2 289.5 290.3 290 292.8 294.9 294.8 295.3 297.5 299.5 297.6 295.4 289.8 279.5 262 242.7 228.3 218.2 207.8 198.3 190.1 179.7 167.1 157 155 152.2 149.8 145.4 141.9 139 127.5 119.5 110.1 103.7 101 122.6 136.5 148.6 155.1 164.5 181.5 191.9 202.1 208.4 207.3 201.5 199.3 195.5 186.6 179.8 178.9 181.6 183.1 183 183.4 181.9 183.7 185 189 190.9 188 175.2 174.4 183.7 196.9 208.5 220.3 231 241.6 250.9 259.7 265.6 272.2 275.3 279 282.7 288.7 293.9 297.1 294.7 293.7 291.2 286.6 285.9 285.2 279.4 278.1 279 281.4 281.5 281.3 280.3 280.4 283.1 282.1 285.4 287.3 288.8 289.2 285.1 281.3 279.8 277.1 271 259.5 250.7 248.8 246.6 243.5 240.7 238 236.1 235 234.6 237.2 241.5 243.2 247.1 252.8 259 263 264.7 266.3 267.8 269.5 270.9 273.6 278.1 280.5 286.6 294 308.2 319.7 326.7 328.9 332.1 333.1 333.7 332.6 335.2 337.4 337.5 339.9 342.4 343.9 342.4 341.2 330.6 347.2 354 360.6 370.7 383.9 397.3 409.9 420.9 428.5 433.8 437.3 437.9 439.7 439.8 438.2 440.7 446.1 450.4 451.7 446.6 435.3 422.7 401.5 409.9 420 427.1
217.7 223 228.4 232.6 235 236.9 238.1 239.3 240.5 241.2 239.5 236.6 233 229.5 227.1 225.8 227 232.1 235.5 239.2 242.4 246.3 250.7 256.6 264.9 274.2 280.7 283.3 281 281.2 285 286 284.6 282.3 284.5 285 284.6 280.4 269.1 250.2 232.3 214.6 198.2 190.2 180 167.6 159.9 150.7 143.8 137.1 132.2 128.3 123.5 118.8 114.1 107.8 100.8 100.2 103.2 112.2 123.6 132.4 140.2 151.9 161.9 174.5 188.2 197.2 207.2 213.4 217.7 215.6 206.9 202.4 196.3 189.9 192.8 193.3 194.8 193.5 193.6 195.3 196.5 203.1 207.2 206.8 198.6 182.1 174.6 190.8 203.7 215.6 226 238.6 249.7 260.4 269.8 276.1 281.4 283.7 286.8 288.5 291.8 298.6 302.3 298.4 294.7 292.2 291.1 292.5 292.1 289.4 289.1 290.3 293.1 294.7 292.8 290.6 288.6 290.1 289 289.7 291.5 297 297.8 293.5 288.1 286.4 283.9 274.2 264.8 256.2 253.3 249 246.3 243.1 241.1 238.4 237.6 237.8 239.1 244.6 248.3 253.1 257.6 263 266.1 268.5 270.1 271.5 273.7 275.7 277.7 283.1 288 293.9 305.7 322.1 329.8 334.3 338.2 340.7 342.9 344.2 342.2 344.7 345.9 345.2 346.6 348.5 350.2 350.2 346.5 342.5 342.9 351.7 357.7 368.3 377.2 391.2 404.7 419.4 427.5 434 438.4 440.7 442.6 443.5 443.3 444.6 447.3 450.3 453.3 453.6 446.8 433 421.4 410.7 410.9 426.2
225 230 234.7 237.4 239.5 241.2 242.4 243.7 244.9 244.5 243.4 241.5 239 234.8 230 229.1 233.1 236.5 239.3 242.6 245.9 249.8 253.2 255.4 258.5 266.1 271.2 272.1 268.5 266.2 269.6 269.5 269.3 268.4 271.8 273.6 273.3 268.8 248.9 223 203.6 189.2 173.3 161.6 150.7 144.6 137 128.6 120.2 114 108.7 102.8 97.1 99.6 100 100.4 103.3 113.9 124 127.6 130.1 139.9 147.4 153.7 162.9 176.6 191.1 204.1 214.3 222.6 227.6 227.6 217.5 209.6 204.4 200.9 200.3 202.6 202.9 204.6 207.7 211.4 214 221 226.4 221.2 206.6 186.1 181.5 193.8 207.3 219.1 230.6 244 257.2 268.6 280.2 287.3 290.3 292.5 294.6 295 297.4 301.5 303 299.8 297.6 298 299 298.5 298.9 298.7 299.9 301.7 302.4 305.3 304.2 301.1 297.5 295.1 293.1 292.6 296.2 302.2 305 301.3 295.9 295.4 291.8 285 271 260.3 255.9 252.3 248.4 246 245.1 239.2 239.4 238.6 239.1 244.3 249.7 254.7 262.3 266 268.8 271.7 274.3 275.5 277.4 280.2 283 289.3 297.1 302.3 317.1 331 338 343.8 348.7 351.1 352.9 357.9 360.8 358.1 353.8 355.1 360.6 356.6 357.6 355.6 350.6 349.1 342.4 352.6 361.1 367.8 374.4 381.7 393.7 406.1 417.6 426 433.4 438.2 441.7 444 445.6 448 449.7 452 454.9 457.8 457.5 451.5 441.2 432.2 425.2 426.7
231.4 236.4 241.4 243 244.5 245.5 246.7 248 249.1 248 246.8 245.6 242.7 237.7 230.9 221 233.9 237.6 238.7 237.6 237.8 239.8 238.1 238.1 239.1 243.9 249.9 249.3 246.3 243.4 244.1 245 244.5 248 254.7 256.6 251.9 242.5 222.2 196.4 177.4 162.2 149.5 142.6 136.6 126.5 116.1 105.5 98.6 97.2 95.7 107.8 112.4 110.5 103.8 110.2 120.7 125.6 127.5 131.6 142.8 150.8 158.3 164.2 170.8 184.9 197.3 210.8 221.1 229.8 237.2 236.3 225.6 219.1 214.3 210.1 207.3 211.5 213 216.6 220.4 225.1 228.1 233 235.4 229.7 209 189.5 187.2 194.3 210.4 223.5 236.6 250.6 264.9 277.5 290.1 297.9 300.3 301.7 302.7 303 301.9 303.8 304.7 304.4 305.1 305.4 304.6 305.6 306.7 308 310.9 318.6 321.7 314.6 311.5 307.7 304.7 297.9 297.4 299.2 301.8 304.8 310.9 309.2 303 301.5 295.7 286.8 276.6 263.4 258.2 254.2 251.1 249.1 249 247.6 246.4 245.8 245.9 243 251.6 257.5 263.5 267.5 271.8 275.9 278.3 280.4 282.9 285.7 290.9 299.6 309.6 316.4 329 339.1 347.3 353.7 357.7 361.3 367.4 372.7 371 366.5 369 371.9 368.2 370.8 368.6 362.5 361.6 355.6 352.5 346.8 358.3 364.6 370.2 374.6 383.2 393.7 402.9 411.5 423.1 429.6 433.3 435.1 439.9 446.8 450.9 453.7 456.8 460.9 463.4 463.9 461.6 452.1 441 435.1
238.3 242.8 248.1 249.4 249.9 250.3 250.9 252 251.8 250.9 250 248.6 244.9 238.5 229.9 204.8 217.6 222.6 220.8 217.4 214.2 214.2 214.2 215.6 217.9 219.2 221.1 220.5 217.8 217.1 217.6 218.6 218 219.8 222.7 224 217.9 207.7 192.6 173.9 155.1 142 132.1 123.3 113.7 102 97.5 94 98.3 111.1 129.2 123.1 122.1 122.9 114.9 124.5 126.4 130.5 140 148.7 155.1 161.9 169.4 177.7 185.6 194.8 204.9 217.9 226.8 234.8 239.5 237.5 231.6 225.7 221.4 218.6 216.8 220 220.4 224.6 230.9 234.6 238.5 241.3 239.8 233.9 211.3 194.6 190.9 199.7 211 226.2 241.4 256.5 271.2 283.7 295.3 305.6 309 310.6 311.3 310.8 306.7 305.6 307.1 308.6 309.9 311.1 314.2 315.7 316.8 318.6 318.9 327.2 332.6 332.7 326.6 318.3 310.2 300.3 301.2 306.1 306.5 307.6 309.4 307.9 304.6 302.9 294 288.2 278.4 268.4 262.4 258.3 254.3 253.2 253.9 253.7 251.5 250.7 251.6 251.9 254.7 257.7 263.7 268.8 274.4 279 282.2 285.8 288.2 289.8 297.9 308.8 322.3 329.7 343.9 352.9 357.9 362.5 368.5 376.6 381.9 379.5 374.7 380.1 385.6 388.3 384.1 382.2 375.9 373.3 369.9 364.9 359 350.9 351.1 356.1 363.5 369.2 375.6 383.6 391.2 398.8 407.7 415 418.6 432.5 444.8 452.4 455.5 455.9 458.6 462.7 466.6 469.4 471.2 471.9 466.8 457.4
243.9 248.2 253.1 254.9 254.9 254.7 254.3 255.2 255 254 253.1 250.6 245.9 238.6 228.4 203.2 189.1 195.6 194.4 189 184.2 188.5 190.1 192.4 197 197.3 193.3 190.9 189.2 190.4 192.1 191 190.1 188.7 189.7 189.6 184.1 175.7 165.1 150.2 135.6 120.7 107.9 97.8 92.7 93.2 100.8 115.8 121.8 121.6 130.2 131.7 135.9 135.5 129.7 136.4 143.6 147.8 154.1 159.5 167.4 174.5 181.8 189.3 197.9 206.3 213.2 221.5 227.8 233.5 237.6 237.9 236.3 231.7 228.5 226.4 224.3 227.8 229.2 232.4 240.4 244.5 251.6 248.6 245.9 237 216 201.8 191.7 204.5 212.4 228.7 244.5 259.5 272.9 284 295.1 305.5 313.8 317.2 318.1 316.2 311.4 310.7 312.6 315.1 316.3 320.4 322.2 324.1 326.6 328.1 328.3 332.2 340.2 341.1 337.3 327.6 315.5 302.9 302.2 307.2 307.4 308.8 312.2 310.2 304.7 297.7 290.2 286.7 280.4 274.3 267.9 264.3 259.3 257.6 258.6 258.7 257.4 257.2 257.1 258.1 256.4 262 265.9 270.7 276.6 282.9 289.6 292.8 295.5 299.8 311 326.1 343.4 353.6 358.1 364.8 370.6 377.8 386.1 387.6 383.7 383.8 395.1 405.3 413.8 408.8 404.4 401.1 398.7 395.6 387.9 375.8 365.5 357.2 355.8 356 355.4 361.8 367.7 375.9 383.3 390.8 396.8 405.8 414.7 433.6 445.6 454.8 458.2 458.9 459.8 462.6 466.6 470.4 476.2 480.2 481.3 479.2
248.2 251.4 255.8 258.7 258.5 258.4 257.8 258 258.4 257.2 256.3 252.6 245.9 238 223.5 203.9 174.7 173.4 174.1 169.8 166.5 165.9 168.2 169.2 170.3 169.6 167.2 164.9 160.8 163.4 163.3 162 158.1 155.3 156.7 158 155.6 150.1 140.7 130.7 111.2 92.9 95 98.4 102 111.4 118.9 122.4 133.1 134.3 135.9 140.3 142.7 143.8 136.3 146.9 156.8 160.3 165.6 171.6 180.4 188.3 196.8 205.7 216 221.8 223.4 226.5 231.4 237.2 242.4 244 242 238.8 238.3 235.8 231.4 235 238.6 240.3 243.2 247.8 260.1 252.7 252.7 240.5 221.4 208.7 193.4 206.9 216.7 226.6 242.7 257.7 269.6 279.4 290.3 297.1 304 311.8 313 313.5 310.6 311.5 314.3 312.8 313.3 317.8 318.4 321.5 324.8 329.5 330.8 333.8 343.2 346.4 341.2 328.1 317.3 304.8 301.3 301.2 303 304.2 309 306.2 301.5 294.3 291.8 287.9 284.4 278.9 273.9 270 267.3 264.5 263.9 263.6 262.5 262.4 262.7 263.6 263.9 267.6 271.4 275.8 283.1 288.5 294.3 299 303.7 311.7 326.8 345.8 359.5 368.1 372.9 376.3 384 388.5 389 389.3 396.3 408.6 419.8 425.2 429.6 425.4 422.4 422.5 418.2 418.9 407.7 386.1 370.1 364.5 363.9 364.3 364.5 363 362.9 368.5 375.8 382.2 394.3 405.7 414.8 432.1 444.6 453.9 458.4 460.6 461.9 463.6 467.3 472.5 478.3 483 487.8 488.8
251.1 253.9 258.2 261.3 262.4 262.3 262.3 261.6 261.2 261.4 259.4 252.8 243 229.7 213.2 199.5 168.5 144.6 146.2 141 139 137.3 138.9 140.2 141.7 143.1 143.2 136.7 131.4 136.9 139.2 138 134 133.1 132.5 134.7 132.6 126.1 117.5 101.5 92.3 97.7 108.8 117.7 125.1 132.1 133.3 134.4 140.4 140.8 145.3 149.8 156.1 157.8 156.4 151.2 166.9 171.2 176.3 185.2 194.4 203.1 210.2 217.7 228.7 235.9 240 241.2 240.4 242.3 246.7 248 247.5 249.2 249.5 246.2 238 241 247.4 249.5 250.1 253.6 267.4 254.5 255.9 245.2 227.7 214.7 201.2 211.8 221.6 229.5 240.1 254.2 264.4 272.5 280.7 287.6 290.2 294.6 295.7 295 297.2 303.1 306.4 306.4 308.3 309.3 308 309.8 319.6 331.2 335 332.4 337.4 335.7 327.7 324.4 315.3 306.9 304.1 303.7 301.2 304.9 306 303.6 297.7 294.7 292.5 290.7 287.5 282.1 278.6 277.7 274.9 272.6 270.9 269.7 269.3 269.8 268.8 268.8 270 271.4 275.8 281.2 288.3 294.3 300.7 307 313.3 327.5 346.5 361.5 369.6 377.6 382.6 388.5 398.8 406.9 413.8 419.6 426.4 432.9 438.9 449.7 451.8 452 448.8 447 446.9 438.6 414.9 388.9 374.1 373.4 373.9 375 374.6 373 369.8 365.1 371 374.7 387.4 402.4 412.3 424.6 440.6 451 456.8 460.4 463.5 465.3 468.8 472.9 478.4 483.3 487.3 492.2
256 260.3 265 267.9 269 268.4 268 267.1 266.2 265.1 260.5 251.1 236 212 193.9 173.7 156.7 138.7 126.8 126 122.7 120.2 120.9 120.3 120.2 119.3 111.1 96.2 95.4 99.9 103.2 107.3 106.8 109.4 105.4 103.1 105.2 100.3 92.5 94.1 108.7 117.7 125.2 130.1 131.8 136.4 143.6 149.3 149.3 151.5 156 164.6 168.2 168.4 165.4 161.4 171.1 180.4 188.2 197.2 204.8 212.8 219.2 227.1 237.4 246.4 253.6 258.2 261.5 260.9 256.9 255.3 256.8 262.3 261.8 255.5 245.9 247.1 251.3 254.7 257.2 261.5 277.8 258.8 255.9 250.2 234.8 220.9 213.1 214.3 225.1 231.5 239.5 250.6 259.4 265.8 270.3 274.9 277.2 279.8 282.1 281.8 279.8 284.8 288 290.2 292.7 294.5 294.3 296.6 307.6 320.1 324.9 318.4 319.8 322.4 320.6 320.1 314.3 308.8 312.4 314.7 307 301.4 299.3 297.7 296.8 295.2 293.7 291.9 288.9 284.9 282.9 280.8 280.5 279.1 276.6 275.1 275.8 275.6 273.8 273.4 273 274.8 279.8 285.4 292.9 300.1 310.1 316.8 325.7 348 363.7 370.2 375.8 385.5 395 402.5 408.4 417.8 426.1 437.1 446.4 452 456.9 459.2 460.5 461.7 461.9 460.3 455.1 440.3 414.5 389.7 382.9 386.5 390.5 392.5 394.3 394.5 387.4 381.3 379.7 380.4 381.6 395.7 405.8 414.6 430.3 445.2 453.3 459.1 463.8 467.4 470.5 473.7 479 485.6 492.5 495.3
265.1 270.5 275.3 276.6 275.4 273.7 272.1 270.8 268.9 266 259.7 248.1 227.4 198.1 170.9 153.8 139.4 129 116.7 110.3 105.8 102.3 101.7 97.8 93.2 85.8 84.7 95 99.5 97.4 88.3 86 89.8 90.6 90.9 91.1 91.4 91.9 93.5 110.4 118.8 128 130 131.3 133.4 141.7 151.4 163.9 165.8 164.4 173.6 177.8 179.1 178.9 173.8 168.6 171.8 185.4 194.9 203.5 210.8 217.5 224.1 232.1 241.5 252.9 263.5 270.1 275.5 279.9 280.8 279.1 277.9 279.1 275.9 263.8 251.5 252.2 255.7 259.7 261.2 266.6 282.5 263.8 261.1 254.8 240.9 225.4 218.6 213.5 226.8 233.8 240.8 248.8 256.2 261.6 265.1 267.3 269.1 270.4 272 271.9 268.6 272.1 275.6 280.1 283.4 285.7 288.4 291.4 299.5 306.6 308.4 305.4 305.4 308.9 311.9 314.6 314 313.5 319.7 320.9 308.1 298.7 296.9 297.1 296.1 295.1 294.9 292.5 290.7 288.4 285.7 283.9 283.8 282.8 281.5 279.4 279.6 279.9 278.7 277 278 280 284.1 290.5 299 307.7 319.3 327.1 338.2 361.2 372.5 376.2 383.5 393.4 406.7 412.3 415.3 423.5 437.5 449.6 456.4 460.6 463.1 466 468.8 472 474.5 469.2 460.8 439.5 414.1 387.7 395.1 405.8 415.7 421 424 422.7 414.5 406 401.6 401.6 399.4 393.2 401.3 410.6 420.9 436.5 447.9 456.4 463 468.1 472.3 476 481.9 488 494.6 498.8
277.6 281.3 283.6 280.3 277.5 276 274.6 272.3 269.2 265 255.9 238.9 215.6 188.2 162.4 143 130 115.7 104.9 94.7 88.4 84.9 83.7 83.8 84.3 84.3 83.8 106.2 110.4 110.6 106 99.6 89.4 89.4 90.1 90.4 90.8 91.6 107.5 114.7 124.9 133.3 134.2 135.4 134.6 140.4 152.7 167.5 173.9 175.3 182 184.9 185.9 185.3 179.9 177.8 175 184.8 198.2 205.8 212.6 218.6 227.4 237.4 247 257.7 269.1 277.9 283.6 288.4 291.8 293.6 293.1 291.5 284.4 269.4 259.5 257.8 263.8 267.1 267.8 268.8 269 267.9 265.1 259.9 248.6 232.4 222.5 217.1 226.5 233.5 240.1 245.2 251.9 256.8 259.6 261.5 262.6 263 263.7 260.6 260 263 267.4 271.7 276.8 280.1 284.7 288.2 292.1 296.3 298.6 298.1 300.1 304.3 308.4 313.7 316.6 318.7 317.3 309 299.2 295.9 296.3 297.3 296.2 294.8 294.4 293.4 291.2 289.3 287.1 286.5 285.7 285.3 284 282.9 283.9 284 282.4 280.2 283.2 286.6 290.5 296.9 305 314.3 325.6 333.2 346.1 366.3 377.6 383.7 388.1 396.2 409.8 419.3 423.7 436.8 446.7 455.3 463.1 466.2 469.7 473.1 476.5 481.2 482 476.7 466.7 443.2 417.1 403.5 415.9 430.4 444.2 452.6 455.1 451.7 443.7 433.7 425.9 419.7 415.7 410.1 401.1 409.8 426.7 436.3 445.4 455.6 463.6 470.2 475.2 480.3 487.6 492.9 497 501.2
281.6 283.5 284.9 282.3 279.1 277.5 275.1 272.4 269 261.9 248.9 226.9 203.2 178.5 154.9 136.9 113.5 101.9 90.3 83.5 81.5 78.3 78.6 79.4 81.2 91.1 102.3 103.1 115.3 115.6 115.7 109.2 103.6 102 93.1 90.9 93.6 103 113.8 123.1 128.3 136.9 148.1 150.3 150.7 154.6 160.2 170.8 179.1 181.5 185.2 190.1 190.3 189.1 186 185.1 184 189.2 200.7 207.4 213.5 219.6 228.6 241.4 252.4 262.1 272.2 283.8 289.6 295.9 298.8 300.4 300 296.4 289.1 274.9 266.8 268.5 271.7 274.7 278.3 285.1 289.7 275.1 272.2 267.7 258.2 241.3 232.1 226.9 225.5 230.9 237.1 239.8 243.1 250.6 253.9 256.8 257.7 257.5 257 254.4 254.2 256 260.6 267 272.6 277.3 281.7 284.6 286.1 288.3 290.1 291.8 295.9 302 307.1 311.5 313.7 315.1 307.8 296.7 290.9 292.5 295.2 295.5 294.1 293.2 293.6 292.7 290.9 286.7 286.6 287.2 285.3 283.3 279.9 281.1 283.3 282 279.7 280.2 287.2 292.4 296 302.2 310.1 319.6 329.3 336.8 348.4 370.5 384.6 387.6 391.9 398.7 414.7 425.7 433.1 445.2 453.6 461.4 467.6 471.8 476.1 481.5 485.1 487.5 487.7 482.8 470.7 446.5 418.2 426.1 440.4 456.2 471.7 478.6 479.7 476.2 469.8 458.4 447.6 440.1 432.6 427.2 420.8 412.7 434.2 448.2 455.7 461.2 468 473.8 478.5 483.3 490.4 496.9 500.5 504.7
282.1 284 285.5 282.4 279.5 276 273.3 270.1 265.4 256.8 244.4 221.6 194.2 164.3 135.8 112.3 94.1 83.7 79.6 77.6 83.2 85.4 90.8 101.2 102.1 107.8 112.2 118.2 124.8 127.1 126.9 125.8 117.1 114.6 111.3 112.5 115.7 116.7 117.2 124 133.7 145.5 151 157.4 162 166.1 172.8 180.9 186.1 187.3 187.5 194.4 195.1 194.2 193.7 192 193.2 192.8 201.9 209.9 216.1 222 231.5 246 256 266.4 277.1 287.5 294.9 300.6 303.6 305.2 304.6 300.7 292.6 279.7 275.3 276.4 281.1 282 285.9 298.7 299.1 283.6 280.7 275.7 266 248.6 237.5 232.3 228.2 230.8 233.7 237.4 240.7 242.9 248.5 251.3 252.2 251.8 251.3 249.4 249.6 252.1 256.7 263.3 268.6 272.7 275.7 278 278.8 279.9 282.8 285.4 289.5 295.4 301.9 304.9 307.5 303.4 294.2 288.5 276.6 287 288.3 285.9 284.7 283.9 285.2 278.9 274.7 273.7 274.1 273.8 272.1 271.8 273.9 275.4 280.6 278.6 277.2 281.5 293.4 299.4 302.9 306.5 313.9 322.8 329.8 338.5 351.5 375.1 388.5 391.9 395.6 402.3 419.2 432.2 442.3 452 460 466.7 472.2 476.4 481.9 488.1 490.7 491.3 490.9 486 475.1 451.3 432.7 448.5 463.4 479.5 490.4 494.8 495 493.5 488.2 480 470.1 461 452.6 444.5 435.7 421.3 434.4 449.6 459.9 465.9 472.6 477.1 481.1 485.9 492.9 500.3 504.6 508.3
283 283.6 283.4 279.7 275.2 271.4 267.1 263.2 259.1 250.7 235.2 217.2 195.9 157 125.2 95.6 77.1 80.9 90 97.6 101.1 104.2 106.4 109.3 113.6 122.3 131.2 132.2 133.3 138 136.3 135.1 140 138.8 131.8 122.1 102.8 116.4 123.6 132.1 143.4 153.7 158.4 163.7 168.9 174.4 183 191.5 195.1 193.5 192.4 198.8 201.9 206 205.8 203.5 202.8 204.2 201.3 213.4 221.8 227.5 236.8 249.9 260.2 270.2 282 290.8 298.4 303.9 307.4 309.2 308.3 304.5 294.9 288 283.2 284.6 286.1 289.2 293.9 314.4 308.6 293.9 289.8 284.2 274.9 255.7 243.9 233.1 233.9 237.4 240.1 242.8 244.1 244.2 245.9 247.3 246.9 246.1 245.8 246 246.3 249.2 254.9 260.3 264.4 267.4 269.4 270.5 269.4 271.6 274.5 279.3 282 285.6 287.2 285.7 292.7 288.3 284.6 281.1 268 263.9 264.2 264.4 265.4 265.8 266.5 265.1 264.6 265.9 267.2 267.5 267.6 269 270.8 273.1 276.2 274.7 276.4 283.9 297 304.9 308.6 312.5 316.6 324 336.7 340.5 353.1 375.2 391.3 397.2 400.5 407.7 425.9 437.7 447 457.4 464.1 469.8 475.1 479.7 485.5 491.4 495.1 495.3 492.3 487.9 477.1 452.8 456.9 470.4 485.9 495.9 502.6 506.6 506.8 504.8 500.8 495.1 489.3 483 472.6 461.4 449.8 438.3 436.2 451.7 461.4 469.4 474.3 478 482.9 487.4 492.8 502 506.6 510.3
280.4 280.7 280.1 275 269.7 265.8 259.4 254.8 245.8 232.5 213.6 212.6 192.9 149.4 114.5 84.2 80.4 91.9 98.1 106.2 120.5 123.4 127.1 135.9 140.8 149.8 159.3 156.4 141.3 148.4 147.5 146.7 145.9 145.6 141 131.3 105.5 126.1 136.9 143.6 153.8 161.7 167 170.2 175.7 179.9 187.2 196.3 199.9 200.8 201.8 210.6 215.1 217.9 216.3 213.5 214 216 214.5 211.3 224.3 232.4 241 252.2 263 275.6 285.4 294 302.3 307.4 311.5 312.8 312.4 308.6 300.1 295.3 292.9 292.9 294.6 296 300.6 313.7 305.4 304.3 300 293.4 282.8 263.3 249.5 235.8 241.2 246.4 247.7 248.8 249.2 248.8 246.7 247.3 244.7 243.4 242.8 242.9 244.8 248.1 252.7 256.9 259.6 262.2 263.3 262.3 261.6 263.6 266.7 271.2 275.5 277.8 279.7 277.9 278.1 277 272.5 267.6 255.5 243.6 241.4 248.1 253.9 257 259.4 260.1 260.5 261.7 264.3 264.9 265 266.7 268.7 271.5 274.5 270.6 276.7 281.6 291.6 304 309.8 314.9 320.6 326 333.8 342.6 352.4 370 390 401.1 406 414.2 428.8 439 448.9 459.9 467.3 472.4 477.1 481.4 486.5 490.2 494.1 495.8 494.6 491.6 480.9 473.3 480.5 491.4 500.4 508.2 513.7 516.2 516.4 514.7 511 507 503.4 499.3 493.2 481.1 467.7 455.6 448.5 452.1 461.3 469.3 475.9 480.1 484.4 489.1 491.9 501.3 507 510.7
277 277.8 274.9 261.1 254.6 249.7 240.3 231.2 223.3 206.6 196.1 192.9 173.4 142.3 105 77.8 83.5 95.9 102.2 114.1 142.9 152.6 153.4 164.5 170.7 175 180.2 175 154.1 161.7 160.1 157.2 152.2 149.7 145.5 129.5 114.5 136.5 147.7 154.8 164 171.2 176.1 179.5 181.9 185 191 198.4 204.1 207.6 213.2 215.4 225.5 229 228.3 230.1 232.4 233.6 229.2 219.6 224.2 234.5 243.3 253.3 265.8 278.4 287.3 295.5 305.3 310.8 314.8 317.4 316.7 311.5 305.6 302.2 301.7 302.8 303.8 304.4 308 334.2 315.5 312.5 308.5 302.3 290.9 272.1 256.6 241.2 243 252 254.7 255.8 254.5 253.5 250.5 248.2 243.5 241.5 240 240.2 243.6 247.2 249.6 252.4 254.7 256.5 256.3 254.7 254.9 254.8 258.5 262.3 267.8 270.4 271.2 261.8 262.9 257.7 255 246.5 238.5 233.4 229.4 232.9 242.9 251.3 254.7 257.7 259.1 261.3 262.3 263.3 264.1 266.1 268 272.1 272.9 266.5 275 279.3 283.2 290.2 300.9 311.1 317.8 325.6 333.4 342.3 351.1 365 385.2 401.1 408.7 417.2 429.8 438.5 447.8 457.8 467.8 472 476.2 479.9 485.4 489.3 492.7 494.5 495.4 494.7 488.4 491.7 497 504 512.1 518.2 522.4 524.7 524.2 522.6 520.7 517.1 513.6 510.3 505.8 500.1 486.3 472.9 468 463.5 464.3 468.8 475.8 482.6 484.8 489.1 491.7 496.3 500.8 505.2
270.4 269 258.7 242.7 233.6 225 226 224.2 212.7 195.4 177.2 168.5 155.9 131.7 98.8 75.8 86.2 98.2 104.8 119.6 144.6 160 168.7 180.1 188 193.3 196.1 193.5 167.7 177.6 171.9 169 162 155.3 150.3 134.8 118 141.2 155.2 164.6 172.9 180.6 185.8 188.8 191.4 192.6 197 202.8 208.9 215.6 219.9 225.2 235 240.8 245.6 249.5 250.7 250.9 247.1 236.2 224.6 232.8 243.2 254.8 267.2 279.3 287.9 296.5 307.3 313.9 318.4 322.3 321.2 317.3 312 308.5 307.8 309.5 312.4 314.5 317.2 333 322.7 320.3 316.5 308.8 296.6 279.7 265.8 248.3 242.9 255.2 262 265 263.3 260.2 255.3 250.4 246.5 242.1 237.6 235.2 238 241 244 246.8 249 249.4 249.3 249 247.5 245.7 248.6 253 258.7 262.3 260.9 252.6 245.1 237.4 234.6 232.8 229.8 223.9 222.3 227 232.4 237.2 244 246.9 252.6 256.4 259.3 261.4 263.6 264.7 268.4 271.1 268.7 263.6 272.4 275.9 279.2 283 291.4 303.4 316 324.8 333.7 342.4 350.3 358.4 375.7 396.5 409.4 417.5 427.8 437.4 445.6 454.2 462.2 467.2 471 477 483.3 488.2 491.9 494.4 495.8 497 498.6 501.2 505.5 513 520 525.6 529.8 531.2 532.2 531.5 529.7 526.5 522.4 518.9 515.8 510.9 501.7 489.3 480 475.9 468.9 465.9 468.7 474.4 469.9 464.7 462.2 462.1 466.1 473.7
261.8 258 247 227.6 212.2 206.4 210.5 208.2 197.2 168.8 151.7 143.9 134 113.9 92 76.2 82.1 100.8 108 120.7 141.5 162.2 178.7 188.9 196.8 204.9 208.3 204.1 185.8 188.2 181.1 177.1 172.5 165 157.8 142.5 130.5 140.4 159.2 170 179.9 187.3 194.9 201.1 204.8 208 211.8 214.6 215.1 220.3 225.6 231.6 238.7 250.8 257.4 260.7 263.4 265 263 253.2 246.5 236.5 240.8 253.8 264.8 279.9 289.2 297.8 308.1 316 321.1 325 325.1 324.6 321.3 316.4 316.2 318.2 323 324.9 325.6 325.5 326.4 325.1 321.3 313.5 300.7 284.6 266.9 251.7 246.7 259.1 268.8 272.1 273.9 267.7 261 253.6 249.7 245.1 239 233.2 233.7 235 237.3 240.8 242.9 243.2 241.6 241.7 240.9 238.3 238.9 242.1 247.1 249.7 242.1 237 228.7 224.1 222.6 220.1 218.3 217.8 219 223.2 226.4 231.9 236.5 241.1 245 246.3 249.2 253.8 259.8 265 263.9 262.6 258.5 259.5 266.1 270.7 273.9 277.8 286.7 301.2 312.8 323.7 334.2 342.9 349.3 356.6 370.9 392.9 407.6 417.3 425.9 434.3 442.4 448.8 455.4 458.1 463.6 475 483.1 488.3 491.6 493.9 496.4 498.8 502 506.1 512.2 518.3 525.3 531.5 535.1 538.2 538.9 539 538.7 534.2 530.2 526.4 523 519.1 513 504.4 494.5 487 473.3 461.5 452.5 444.8 437.9 431.5 429.5 430.6 434.9 442.2
257.7 251.8 231.3 209.2 187.3 179.9 180.2 176.6 163.3 149.8 134.9 122.3 113.2 100.7 78.1 76.5 82.9 103.7 110.2 120.6 141.7 164.3 180.5 195 208.8 218.2 222.9 216.1 193.1 198.1 192.2 189.4 181.4 174.1 166 150.8 138.1 138.8 159.4 168.2 179.7 191.2 200 206.4 210.1 214.1 220.4 226.1 229.7 233 238.7 243.3 248.1 257.6 267.6 272.1 275.7 277.5 277.8 271.6 263.7 256 247.3 248.9 263.3 274.3 287.6 297.9 307.5 315.6 321.2 325.5 328.5 329.6 328.2 325.3 323.8 326.1 329.2 332 332.3 331.9 331.1 328.6 324.2 317.2 306.6 294.4 274.4 255.1 251.1 260.6 276.6 283.6 283.1 275.7 266.4 258 253.9 248.7 241.4 235.9 230.1 230.9 233 234.9 236.4 235.6 234.1 233.9 234.9 231.6 232 234.3 238.2 236 230.3 224.5 218.6 216.1 214.5 213.7 213.9 214 215.2 218.6 224.1 230.3 236.3 239.3 240.6 241.4 243.3 247 250.5 253.8 257.8 257 246.7 254.3 260.3 261 268.3 275.5 286 300.6 311.5 324.1 335.9 343.5 350.8 358.5 370.5 390.5 406.4 416.8 424.9 431.8 438.6 444.3 448.6 453.8 463.1 472.9 481.2 486.5 490.3 493.3 496.2 499.4 503.3 508.6 511.9 521.6 528.8 533.7 539.9 542.6 544.4 544.4 542.2 539.7 536.7 533.1 530 526.5 522.2 515.8 507.5 498.2 471 444 428.2 416.9 409.6 405.9 402.8 402.7 409.4 417.3
255.9 237.9 213.8 190 168.3 156.4 151.6 145.3 136.6 126.7 113.5 102.5 96.3 83.7 76.9 74.8 98.1 108.3 113.6 124.4 145.1 166.2 184.4 202.9 217.2 227.1 234.1 233.1 207.5 206.2 205.4 198.7 190.7 188 178.7 160.8 143.1 134 150.2 162.2 172.4 181 194 207.5 216.5 223.3 230.7 236.3 240.1 245.3 248.4 252.8 258.6 266.4 282.6 286.8 290.2 292.1 291 287.3 280.7 274.8 267.7 260.5 253.5 269.7 283.3 296 306.3 314.9 321.4 326.3 330.2 333 333 331.7 331.1 332.6 334.6 336.7 336.7 337.3 334.8 331.5 327.6 322.5 314.2 298.7 275.7 254.5 258 270.1 283.5 291 289.8 282.4 271.9 264.7 258.9 249.4 240.9 235.9 230.2 224.3 229 229.2 230.3 228.3 226.4 225 226.9 224.5 226.7 226.5 227.8 226.6 219.5 215.5 211.8 209.7 209.6 208.8 209.3 210.1 213.6 218.8 223.8 230.4 235.5 237.8 238.9 239.8 240.4 242.4 246.5 254.5 256.9 258.5 252.1 246.7 251.5 262.8 269.8 277.3 288.6 299.9 310.3 323.2 334 344.5 352.7 360.8 369.7 386.2 405.5 416.6 423.7 428.9 434.5 438.5 444.2 452.2 459.4 467.6 476.4 482.4 487.7 491.2 494.7 498.7 503.4 508.9 515.1 522.7 530.9 538.1 543.5 546.6 548.1 548.5 546.7 545.1 542.5 539.5 536.4 533.3 529.7 524.6 517 499.8 454.7 426.5 409.8 399.8 394.3 390.1 386.1 386.1 389.3 394.4
236.8 216.3 195.2 174.1 151.2 136 125.1 116.1 106.3 93.7 86.7 79.1 75.2 74.9 72.4 86 103.6 110.7 120.9 134.1 152.3 169 189.8 209.5 224 234.6 242.6 244.8 215 214.5 213.4 208.5 203.1 199.9 192.5 174 158.1 137.9 138.2 147.7 161.8 173.2 185.5 200.7 218.1 232.4 240.2 246.3 253.4 259.6 262 261.7 263.2 284.6 293.6 298.4 302.5 304 302.7 299.4 293.9 289 285.1 280 273.9 264 273.6 288.6 302.7 313.9 321.6 327.5 332.7 335.8 337.9 338 339 340.7 342.3 343.5 343.5 341 338.9 336.8 333.9 329.6 316.8 294.7 270.8 260.1 265.2 281 294.9 300.3 297.5 288.3 277.5 269.4 261.1 249.9 238.5 230.5 226.1 223 223.1 223.6 223 218.4 215.5 214.6 217.5 217.9 218.4 218.1 220 216.6 212.8 209.8 205.4 204.5 203 203.3 204.8 206.6 211.5 215.6 221.8 228 231.5 234.4 236.3 235.4 233.1 232.1 235 244.6 249.3 255.7 252.9 244.9 249.5 260.7 267.6 276.4 287.5 299.2 308.7 318.5 327.7 338.7 350.6 358.6 367.4 379.2 397.6 412.3 421.7 426.4 430.5 435.7 441.2 447 452.5 459.3 465.1 471.4 478.9 485.8 490.8 496.2 502.4 508.6 514.7 521.6 530.8 539.1 544.5 548.9 550.9 551.9 550.9 549.6 547.7 544.6 541.6 538.2 534.4 530.6 523.2 480.8 437.6 411.6 404.8 393.2 382.6 377.1 370.7 367.7 372.6 374.7
213.5 196.5 174 152.5 128.8 109.8 94.2 85.4 77.8 74.8 74.2 73.7 71.5 78 87.2 100.6 107.2 120.5 131.2 145.7 157.7 175.2 195.1 215.1 232 243 250.3 255 224.3 224.6 220.1 220.7 214.8 210.5 204.7 190.1 170.4 146.3 159.3 153.7 150.8 159.4 177.1 190.9 208.8 229.5 244.3 254.6 261.2 266.6 269.6 276.4 290.2 297.4 302.1 307 311.3 313.2 313.4 310.3 306.4 302.3 297.8 294.6 292.6 289.3 283.3 277.3 297.1 309 319.1 325.5 331.2 335.8 340 341.4 343.3 345.6 346.7 347.5 348.1 347.4 345.4 342.8 340.5 331.7 311.2 287.7 265.5 265.6 276.2 294.9 307.4 310.2 305 295.4 285.5 277.1 263.5 252.7 240.1 230.7 225.5 220.5 214.9 215 214.9 213.5 209.1 207.8 210.7 211.8 211.6 212.3 212.4 209.8 206.7 203 198.4 198.5 199.9 199.6 203.3 205.3 208.1 208.8 213.9 220.9 225.2 226.4 225.2 225.5 230.1 233.5 236.7 240.4 240.6 246 251.2 253.5 250.2 252.1 259 272.8 286.5 298.7 307.4 316.5 325.1 334.1 345.2 355.9 364.9 372.6 383.5 397.4 410.4 417.6 425.1 432.1 438 442.3 446.5 449.9 454.7 461.8 468.6 474.3 481.7 489.9 498.4 506.8 513.7 520.6 529 538.2 544.6 549.3 552.1 553.8 553.3 552.8 551.6 548.9 545.6 542.1 538.4 534.7 520 467.5 431.3 407.8 400.1 391.4 375.3 361.2 355 348.7 351.3 353.5
197.7 175.2 151.2 129.1 106.3 88.1 74.1 73.1 72.6 69.7 74.9 84.1 96.8 94.6 103.3 108.4 117.6 130.3 144.4 156.4 167.1 181.1 199.9 219.4 239.4 251.1 259.1 264.4 236.3 236.5 234.5 230 224.8 221.7 215.4 200.2 178.4 159.5 177.2 175.9 171.2 166 165.1 181.7 198.8 219.2 237.3 253.6 264.5 273.1 280.5 293.7 302.6 306.9 310.3 314 317.3 320.4 320.8 319 317.1 314.4 311.5 308.1 305.3 303.5 302.1 300.7 291.3 301 316.6 324.9 330.1 334.6 339.3 344.7 348.7 351.7 353.6 355.4 355.4 354.4 352.4 349.1 343.8 327.4 304 282 269.5 275.8 289.4 310.2 319.2 321.4 315 304.2 292.4 283.6 266.4 252.9 246.6 238.2 230.2 222.1 211.6 213.1 213.9 210 205.2 194.8 204.1 206 206.5 207.2 207 204.5 199.4 196.5 194.4 199.6 203.6 207.2 210.7 212.9 214.1 217.3 219.1 222.1 227.9 230.4 233.3 234 235.4 237.5 241.8 246.3 244.7 249.8 259.7 263.8 266.5 263.5 262.4 261.4 283.3 297.7 307.1 316.1 324.6 331.4 339.3 350 361.1 368.7 373.6 381.3 389.1 397.9 414 424.3 431.4 437.6 442 444.6 448.1 453.5 455.4 460.4 469.7 480.1 490.5 501.6 511.3 518.5 525.4 534.7 542.3 548.5 552.2 554 554.6 554.8 553.3 551 548.6 545.6 541.8 538.1 508 465.2 431.7 407.7 397.6 383.5 367.5 352.5 341 334.8 334.2 338.3
184.7 160.5 132.6 106.3 83.8 67.8 70.8 74.4 91.8 96.3 95.8 95.9 100.9 107.4 117.9 128.1 136.2 148.4 158.8 170.9 181 188.8 204.7 220.6 241.5 258.1 267 271.5 250.5 246.4 242.1 240.1 236 233 224.6 207.5 184.9 171.6 187.6 187.9 187.7 185.3 175.8 171.9 191.5 207.7 226.3 245.6 262.1 274.1 285.1 296.8 305.2 311.3 315.6 319.2 322.6 325 325.6 325.6 324.3 322.6 320.9 319.1 316.9 316.3 316.6 316.1 315.3 314.9 313.6 324.6 332.4 337.8 342.1 348.2 352.7 356 359.4 360.9 361.1 359.8 356.8 352.1 343 320.5 299.5 279.6 280.2 287 304.5 322 327.8 329.1 326.6 317.1 304.8 289.7 269.1 253.1 247.1 240.7 234.7 228.1 218.9 201.3 203.4 203.9 203 189.1 200.5 202.1 202.5 202.7 202.4 195.1 194.2 194.4 197.4 202.7 208 211.7 215.8 219.4 223.3 226.2 230.2 234.9 239.4 244.2 244.7 243.9 243.2 248 250.6 254.8 256.7 251.5 268.5 274.1 276.5 275.1 273.4 269.6 270.6 284.5 307.1 315.6 323 329 336.1 343 352.7 364.1 366.9 371.3 377.3 385.1 394.6 405.6 415 424.4 429.6 434.1 437.2 435.6 437 443.9 453.2 467.3 482.1 494.6 506.2 515 523.3 531.8 539.6 545.8 550 552.5 554.3 555 553.1 551.1 549 546.5 543.6 536.6 508.6 469.7 439.7 410 391 372.3 360.9 348 332.7 323.1 322.8 328.4
158.5 134.6 109.9 86.7 67.4 71.9 93 94.3 93.5 98.3 102.7 114.2 123.4 134.3 144.1 151.4 153.8 160.5 169.1 178.4 190.5 201.1 208.4 222.8 240.8 260.4 272.7 276.7 254.3 252.2 250.2 251.3 246.3 241.9 233.7 214.1 195.3 186.8 201.8 203.8 203.9 201.5 191.2 178.2 177.1 197 212.4 231.5 250.8 267.8 282.2 294.6 303.8 311 317.6 323.1 325.8 327.3 328.4 328.8 328.6 327.5 325.9 326 325.4 325.9 326.4 326.5 325.4 325.5 327.9 330.3 335.2 340.2 345.2 348.5 352.8 356.9 361.1 363.5 363.9 362.2 358.7 352.9 339.3 316.1 297.8 280.3 288.3 298.3 319.5 330.9 334.2 334.7 331.4 325.2 313.2 293.5 270.2 257.2 249 242.6 235.3 227.9 217 203 200 202.4 197.1 190.6 196.1 197.4 198.8 198.3 194.1 191.7 191.8 199.2 206.5 209.4 212.9 216.3 221.4 226.9 230.8 229.8 234.1 239.6 247.3 253.1 253.9 253 252 254.4 258.8 262.4 264.6 263.6 273.6 280.5 283.1 285.3 285 281.9 276.8 283.2 304.1 312.8 322.2 327.4 333.3 339.4 345.5 352.4 360.9 362.7 369.3 375.5 382 388.4 395 402.1 408.9 413.1 414.9 415.2 415.5 423.2 439.3 458.4 472.6 486.1 498.7 510.7 520.2 527.2 535.4 542.1 547.1 550.4 552.4 553.2 552.6 550.6 548.7 546 542.7 536.5 512.4 477 444.4 413.1 391.5 369.6 355.8 341.1 328.5 318.1 316.3 323.2
139.3 111.6 88.2 69 70.6 86 90.6 95.8 102.3 111.7 128.1 140.3 151.1 160.8 165.4 167.5 168.9 172.8 178.4 187 202.1 213.3 220.4 228.3 241.9 256.9 272.4 279.1 269 262.1 264.3 259.9 256.3 251.6 241.9 227.6 204.4 199.2 213.8 214 216.2 215 209 198.5 179.5 181.9 198.1 215.9 236 255.7 270.4 283.6 296.4 306 312.4 318.2 321.6 324.7 327.1 328.4 328.4 327.8 326.6 326.8 329.2 331.9 333.3 333.9 333.8 333.2 333.2 335.1 338.8 342.9 347.5 351 353.5 357.8 362.1 364.3 365.4 363.7 359.6 351.9 336.9 313.6 296.7 281.1 298.2 314.2 329.9 338 341.6 341 336.9 328 318.6 296.3 272.2 259.5 252.2 244.8 236.9 226.6 212.2 201.1 195.6 196.9 191.1 189.3 190.5 191.8 187.4 187.9 188.5 191.2 200 205.1 208.9 215.7 219.8 223.8 229.6 234.8 236.7 234.4 237.1 244.4 252.5 258.2 259.6 258.8 257.4 260.1 264.9 267.9 270.4 273.5 277.7 286.7 289 292 294.8 294.2 288 282.9 288.7 313.6 318.5 324.7 330.3 335.5 340.8 344.5 350 355.4 362.2 369.1 373.6 378.5 385.2 390.3 394.6 396.6 398.3 400.7 404.6 413.3 429.1 450.6 466.6 479.3 491.6 503.8 516.5 524.2 531.3 538.5 543.6 547.5 549.7 551.1 550.7 548.7 546.3 543 539.4 534.2 519.2 487.4 451.7 419 394.4 372 357.9 345.2 331.7 321.1 313.4 315.9
122.1 91.5 70.4 70.3 87.7 92 94.8 112.2 124.1 134.2 146.6 157.2 165.6 173.3 176.2 177.9 180.6 182.8 190.4 198.9 213.1 224.1 231.3 237.8 245.1 256.6 265.8 274.3 275 272.8 271.1 268.1 263.8 258.8 249.1 236.9 219.8 214.1 223.5 224.7 228.5 227.4 226.5 219.7 204.1 190.6 182.6 201.6 220.4 238.8 253.5 266.1 277.6 287.4 295.9 304.3 310.3 315 321 325.5 327 325.1 323.1 323.5 328.8 333.2 338 338.6 338 337.4 338.2 340.5 342.1 345.2 349.7 354.2 356.4 360.3 363.8 365.6 366.2 363.6 359.2 351.8 335.6 315.9 294.7 290.5 306.5 323.7 334.5 342.7 346.9 347.2 343.9 335.5 321.7 297.1 275 264.5 257.6 246.5 236.7 222.2 205.2 197 196.1 187.9 188.2 184.9 186 185.6 185.4 187.7 194.6 199.3 203.7 206.7 210 215.2 223 228.4 232.9 236.8 238.1 238.2 237.9 244.3 252.1 257 258.7 257.8 261.8 266.3 270.4 273.2 277.7 286.9 292.2 294.2 295.6 299.1 302.1 302.6 299.6 290.6 283 293.7 317 322.8 326.6 331.3 334.8 338.4 342.6 348.9 354.2 360.7 365.3 370.1 375.6 380.6 384.6 385.3 383.5 389.1 395.5 408.1 423.1 442.7 459.7 473.6 483.9 497.4 510.2 520.3 527.3 533.3 540.3 544.4 547.5 548.9 548.2 546.2 542.8 539 535.4 531.4 523.7 502.9 466.6 435 404.6 381.7 363.3 349.8 337.2 324.9 314.4 308.9
85.2 82.9 82.3 88 91 93 109 126.5 137.8 148.2 158.8 167.8 176.4 182.5 186.2 188.5 190.5 192.9 200.1 209.5 222.2 231 239 247.1 253.2 258.2 264.8 270.8 274.9 276.9 276.5 274.7 270.3 264.5 256.7 248 227.5 219.5 233 236.3 238.7 239.7 239.3 235.1 224.1 211.7 197.3 188.7 205 218 230.3 242 252.5 260.9 270 280.9 292.3 298.9 306.3 313.4 317.3 318.2 316.5 319.7 324.5 329.2 334.1 338.8 340.3 341.5 343.3 345.3 347.8 350.2 353.4 357.8 361.6 365.1 367.3 368.4 366.5 364 358.9 351.7 336.9 317.8 297.6 296.9 313.2 327.4 338 346 351 352.3 347.8 339 318.9 297.5 276.6 267.9 260 247 234.9 213.9 197.6 191.6 190 188.8 181.3 182.3 186.2 191.7 193.6 195.4 198.6 203.4 204.8 206.6 209.5 213.6 221 228.8 232.6 236.1 239.3 239.3 238.9 242.4 246.5 249 253.2 258.3 263.2 269.2 274.9 282.3 292.9 298.4 300.1 300.2 302.8 307.1 310 310.4 307.6 303.7 296.3 290.1 309.2 320.7 324.2 327.4 330.6 335 339.5 344.1 348.3 352.6 357.5 363 367.6 371.2 375.1 373.9 368.1 376.6 389.2 404.2 419.1 434.6 450.6 464 476.7 491.1 504.4 515.6 523.2 530 537.2 541.3 544.9 546.7 545.7 543.5 539.3 535.3 531.3 527.1 522.6 511.8 489 454.1 423.8 394.7 373.4 359 342.7 329.8 319 306.8
74.4 68.3 72.2 89.2 90.8 97.1 115 136.3 147.9 157.1 169 178.2 184.3 190.4 194 197.3 200.3 203.3 208.2 216.5 227 237 246.5 253.3 260.4 265.9 271.4 275.5 278.6 280.5 280.1 278.5 274.9 270 264.7 256 239.7 220.8 243.3 247.4 250.8 253.7 252.9 247 239 225.8 210.2 200 196.5 195 207.8 219.4 227.3 234.5 242.8 254.7 266.4 277.1 288.1 296.5 302.4 305.2 309 315.1 320 324.9 329.9 334.8 340.4 344.4 347.5 349.6 350.6 353.8 356.8 360.4 364.4 367.3 369.1 370.1 368.4 364.3 358.7 351.6 339.7 318.4 301.4 301.8 317.4 332.2 341.2 349.2 355.2 357.6 351.2 335.1 317.2 294.7 276.6 269.4 258.2 246.5 228 207.3 192.8 188.6 187.2 179.9 180.2 184.5 189 192.7 195.7 197.7 200.6 202.2 203.4 205.1 209.1 213.2 219.6 226.4 229.9 232.5 233.6 234.7 236.8 239.6 242.8 247.9 253.5 259.4 264.6 272.4 282.5 291.6 303.3 308.8 310.6 309.8 310.4 315.7 318.2 317.7 315.5 311.6 305.4 296.8 299.5 318.1 320.3 325.3 329 333.3 336.9 340.8 344.6 348.3 351.4 354.8 359.9 362.3 363.1 358.2 369.6 382.1 389.3 403.9 417.8 430.3 443.8 457.7 472 486.2 498.6 510.7 520.2 526.5 532 538.2 541.9 544.1 542.9 540.1 534.3 526.3 517.1 515.1 517 513.7 500.5 469.8 445.2 414.1 387.1 362.2 347.6 335.8 323.7 309.2
66.5 67.5 79.3 82.7 92.5 102.5 122.6 142.9 155.7 166.7 177.9 185.2 190.9 197.1 201.6 205.7 209.9 213.8 217.6 222.4 230.9 244.1 253.2 260.4 267 272.4 277.7 280.8 283.2 284.5 283.8 282.2 278.6 274.8 270.3 263 250.8 229.7 250.5 256.9 261.1 264.6 263.7 259 252.4 240.4 223 214.1 211.1 208.7 201.4 200.9 204.9 214.8 220.8 225.7 238.6 247.1 261.1 274.8 288.5 297.2 302.2 308.1 314.9 320.4 324.8 329.8 335.3 340.3 345.8 348.4 350.6 354.6 358.5 362 365.2 367.9 369.5 370.5 369.2 364.9 358.6 351.3 341.2 320 304.4 304.1 320.1 335.9 343.7 352.3 358.6 362.2 352 330.9 311.4 291 276.7 268.3 254.7 240.9 222.8 202.6 190.8 186.3 183.6 179 180 185.7 188.4 192.6 195.9 198.1 198.9 200.3 200.7 203.8 208 212.1 216.3 221.1 224.8 227.4 229.7 230.6 231.2 234.4 239.2 245.5 253.5 259.9 265.8 276.4 286.7 297.9 311.2 316 320.2 325.9 322.7 323.9 325.2 324.2 321.9 317.8 312 305.7 300.4 309.9 320.3 323.9 327.3 331 334.4 339.3 343 346.1 349.4 351.1 351.3 353.3 351.7 362.1 373.7 383.8 393.1 403.4 415.2 426.1 438 452.2 468 483.3 495.8 506.2 515.4 522.9 527.8 532.4 538.8 541.2 540.6 536.5 525.4 508.7 491.1 491.7 498.8 505.1 504.1 485.6 458.4 431.7 394.5 367.3 362.5 346.3 330.7 311.7
66.3 65.3 84.7 92.3 99 107.4 128.7 148.5 160.7 171.3 180.9 187.8 194.5 201.5 208.4 214 217.9 221.2 225.3 230.3 236.9 250 260.7 267.5 273.9 279 282.9 285.7 287.9 288.6 287.9 285.8 283.3 279.6 275.1 269 260.4 239 258.3 264.1 267.9 271.1 271.2 269.3 264 250.1 233.6 226.3 221.3 218.8 214.1 213.1 215.2 214.5 218.1 222.5 219 226.6 236.1 247.5 266.3 280.4 291 299.9 306 312.5 318.3 323.8 328.4 333.4 338.8 341.5 346.9 354.7 359.4 363.6 366.5 368.9 370.1 370.4 369.4 366.1 361 355.2 339.5 320.7 307.4 307.1 322.6 337.2 345.8 353.5 358.2 359.6 346.1 325.5 305.8 290 277.7 266.8 251.1 234.1 217.1 200.3 190.6 184.3 180.9 177.1 179.2 183.5 186.3 190.5 193.8 192.9 193 194.5 196.9 201.1 205.5 209.1 212.4 217.7 221.1 224.8 221 224.8 232 235.5 239.2 241.7 253.1 261.9 268.6 276.9 287.3 300.9 312.7 323.3 330.7 336.2 330.5 334.3 328.9 329.5 326.9 324 321.2 315 307.5 306.2 317.4 321.7 325.3 327.8 331.9 336.8 341.4 344.9 348.3 350.3 350.1 348.9 350.4 362.1 374.1 383 391.9 400.9 410.8 421.5 432.8 447.3 463.4 479.9 492.9 501.9 510.2 517.3 522.5 527.4 532.5 536.5 536.4 531.1 510.2 482.9 458 460.1 468.1 481.1 487 482.5 467.6 439.5 397.8 371.1 369.3 352.6 334.5 315.6
76.3 83.9 93.7 106.8 114.4 118.3 136.5 146.9 160.2 172.3 180.7 187.6 195.4 203.5 210.6 219.4 224.4 229.5 234.7 239.2 245.1 252.8 263.2 271.8 279.2 283.9 287.3 290.3 292.3 292.3 292.3 290.1 287.6 284.8 280.8 275.2 267.6 247.8 264.5 270.2 275.8 278.9 280.1 278.7 274.9 263.9 244.4 235.1 229.4 224.5 225.2 223.5 225.5 225.5 232.5 227.3 230.3 229.5 230.2 228.1 245.6 261.7 277 290.4 300.2 306.3 310.5 314.9 319.9 326 330.9 333.2 342.9 351.9 360.6 365.9 368.7 370.5 371.4 372.3 372.1 368.9 361.2 350.2 332.5 319.8 309.8 309.4 323.1 336.1 344.8 351.7 353.9 351.7 335 316 301.1 288.5 279.2 266.5 247.8 229.1 213.4 198.3 190.2 184.7 181.1 172.9 178.2 180.1 182.2 187.1 189.4 189.7 189.9 192.2 197.5 200.4 205.8 208.8 210.8 212.7 215.7 220.5 225.4 232.7 237.5 241.7 245.5 248.7 249.3 261.5 271.1 277.3 289.5 300.9 316.8 342.6 339.5 342 337.5 337.5 337.6 334.8 331.2 326.2 321.9 319.9 311.3 302.6 316.1 319.3 321.9 322.7 327.6 332.3 336.5 340.6 345.1 348.7 349 345.8 349 360.5 371.2 380.5 388.8 396.9 406.2 414.9 426.7 441.1 457.9 475.2 488.9 500.5 506.4 511.6 516.7 521.5 526.3 529.1 528.8 518.2 487.5 457.1 435 428.2 435 448.6 459.9 462.1 463.4 448.4 409.6 376.3 369.9 354.5 335.8 319.8
94.3 85.7 97.7 115.8 133.7 139.5 138.1 139.9 150.1 163.8 176 186.6 194.3 203.6 212.5 221.6 228.2 235.3 241.7 248.1 254.1 259.8 265.4 272.2 279.9 287.4 291.5 294.4 296.1 296.6 296.6 294.9 293.8 292 288.6 283.6 275.7 263.3 266.8 275.5 281.8 285.2 286.2 285.4 283.1 274.7 254.2 243.3 237.1 228.5 230.6 232.3 233.2 233.7 237.9 240.5 241.4 246.2 246 237 236.8 254.2 270.6 282.1 292 298.7 302.6 306.7 313.1 314.8 320.2 327.6 338.4 345.8 354.3 361 366.8 369.1 369.7 369.8 368.6 363.2 355.1 341.9 329.2 318.9 315.1 314.7 325.7 334.4 339.8 343.9 344.5 334.9 322.1 309.1 298.2 289.3 279.1 264.7 247.4 228.6 214.1 200.8 190.6 183.8 176.2 175.5 176.2 177.7 180 182.3 185.1 186.6 188.7 197.4 199.9 203.6 212.1 216.3 219.6 222.3 224.4 228.5 234.9 239.8 242.8 246.5 250.4 256.2 260.3 259.7 270.5 278.8 289.9 301.9 317.1 341.1 347 353.5 348.8 346.7 340 338 337.1 332 329.9 328.2 325 317.1 306.8 309.3 313.8 318.4 321.2 321.3 327.9 334.4 339.5 342.8 346 341.2 348.5 357 365.6 373.7 383.8 393.2 401 409.7 420 435.9 453.2 469.8 485.1 497.4 504.9 508.1 511.9 515.5 519 519.2 519.4 504 468.4 438.7 416.8 401.6 406.6 415.4 427 436.3 442.2 446.6 428.5 392.8 368.1 348.4 332.5 320.1
116.4 95.4 96.2 119 144.1 156 153.4 152.5 156.8 163.5 171.1 178.3 191.8 202.1 212.2 222 229.6 237.1 243.4 251.5 259.3 265.7 271.3 276.8 282.8 288.6 294.3 297.3 299.5 300.4 301.6 302 300.7 299.3 296.8 290.9 284.9 275.4 268.3 280.8 286.3 290.1 292.8 292.8 290.1 283.3 264.7 252.1 240.8 236.4 238 238.3 240 240.6 243.8 251.1 253.2 253.7 252.8 247.8 232.3 248.3 259.2 271.2 282.2 289.2 294.4 298.9 303.2 305.4 318 328.5 336 339.5 346.7 354.3 359.3 363 363.9 361.8 360 354.9 347.7 338.6 327.7 324.9 321.8 322.3 326.8 332.3 335.7 335.9 330.5 323 316.5 306.3 298.7 290.4 281 270.9 256.2 236.1 216.7 202.8 186.3 182 175 173.7 174.9 176.9 179 180.6 183.3 186.1 191.2 197.1 200.6 207.9 219.3 223.3 227 230 231.8 234 241.6 246.2 249.2 254.1 257.6 262.4 264.3 258.5 272.8 279.1 290.1 297.8 309 332 352.5 367.7 356.4 352.9 347.8 345.3 348.3 348 337.6 336.5 338.2 333.4 328.5 326.4 331 332.8 333.3 333.9 335.3 337.3 334.6 333.5 336 339.1 347.1 354.2 358.3 364.4 374.7 383.8 392.3 404.6 416.9 431.3 449.8 469 483.8 495.4 503.6 507.2 509.2 512.3 513 513.9 513.7 487.6 454.9 426.1 403 381.4 381.3 389.1 395.8 407.3 419.2 425.9 427.4 401.6 370.7 347.9 325.5 314.8
129.8 105.2 96.1 116.4 139.6 154.3 155.7 156.4 164 174.7 181.6 187.1 193.2 200.1 211.1 220.6 228.8 237 244.2 253.5 262.2 268.5 274.9 282.2 287.7 292.3 297 300.2 303 304.3 307 308.5 307.4 305.3 301.7 296.1 290 281.9 275 286.8 293.3 298.8 300.8 300.9 295.7 286 273.3 260.5 256.1 247.1 248.1 249.9 248.6 249.1 248.2 260 263.2 263.7 263.4 253.8 237.7 235.9 245.2 253.3 263 271.6 281.9 288.8 290.8 291.3 311.8 325.2 335.4 342.4 350.8 356.4 361.5 364.1 363.8 356.7 349.7 343.8 339.4 335.2 332.9 330.7 328.4 327.9 329.9 331.7 332.8 331.1 325.1 319.4 314.4 308.3 302.1 296.1 287.9 278.4 258.5 236.7 217.1 203.1 183.7 177.6 174 172 173.7 176.2 178.7 180.2 183.7 189.2 194.9 198.1 202.2 213.8 225.4 230 233.4 236.7 238.8 240.8 243.5 248.5 254 258.5 262.1 266.3 270.1 271.3 266.1 281.7 291.3 296.4 304.7 321.4 346.9 374.4 374.8 371.4 370.3 359 358.7 348.4 355.2 351.3 342.5 336.7 339.4 338.9 340.7 341.4 341.1 340.4 341.1 345.4 344.8 339.5 335.3 338.8 344.8 347.6 349.8 362.8 373.1 384.5 396.5 408 419.6 433.5 454.1 472 484.4 493.4 501.8 506 507.7 509.2 509.3 510.1 508.9 480.5 443.5 413.9 389.9 373.7 367.4 365.7 371.8 380.4 392.1 404 407 398.3 370.6 341 322.4 308.1
140.4 116.4 95.5 111.4 130.6 144.7 149.5 153.3 161.9 173 183.1 191.5 198.6 206.3 213.1 218.7 227.3 235.8 243.6 253.5 261.9 269.2 276.8 284 290.9 295.3 299.5 302.9 306 308.6 310.8 311.9 310.7 308.7 304.9 300.7 295.4 287.2 286.8 296.1 301.7 306.1 308.9 306.7 303.2 292.4 282.9 277.1 269.5 263.7 261.6 264.2 262.5 261.5 255.6 269.3 271.3 268.4 258.4 247.2 248.4 248.7 248.3 249.5 253.1 254.6 257.8 266.4 273.6 286.1 301.5 313.7 325.4 337.3 348.1 356.4 363.2 366.8 367.6 363.4 356.6 351.6 346.3 342.3 337.9 334.8 333.3 332.7 332.6 333.2 333.2 330.7 325.1 319.6 316.5 312.5 307.3 300.9 292.8 275.6 254.7 234.9 216.4 195.2 178.9 174 171.2 170.4 173.2 178.5 178.6 179.6 183.1 191.1 196.4 199.7 205.2 216.8 230.2 235.4 239.4 243.1 246.3 248.8 249.8 251.6 257 260.3 263.6 269.7 273.7 275.8 277.6 274.6 291.2 296.2 303.1 316.9 343.1 371.1 379.1 378.3 376.9 375.1 371.8 367.3 363.6 360.6 356.1 353.2 349.3 347.8 347.7 347.9 347.5 347.1 346.9 349.6 349 346.7 345.4 340 342.6 350.2 359.6 368.8 381.3 393.6 405 415.6 425.9 439.2 457.3 473.1 484 492.6 499.1 503.6 505.9 506 506.1 506.3 503.1 478.1 437.5 408.7 384.2 365.6 359.1 353.2 349.7 356.8 366.1 378.6 386.7 381.5 363.7 339.6 320 301.8
151.2 129.5 109.9 102.4 119.2 132 140.9 147.9 157.1 167.1 177.7 188.4 199.4 210.2 217.8 223.1 228.4 233.9 241.3 251.4 260.7 268.5 277.4 284.7 291.4 296.4 300.7 305.2 308.7 311.9 313.9 314.6 313.4 311.4 307.9 304.9 300.6 297.8 299.3 303 307.6 313.7 315.5 312.7 308.7 301.8 297.5 292 285.8 280 271.7 268.3 272.1 273 268.1 271.3 273.9 267 262.2 258.7 258 258.8 258.1 260.2 262.6 266.8 272 275.9 278.8 284.1 292.2 303.8 316.6 328.4 340.6 352.5 359.3 364.6 367.5 368.2 365.5 361.5 355.4 348.2 342.2 338.5 336.2 335.4 335.2 335 334.9 332.3 327.6 323.2 319.7 316 310.8 303.5 290.1 267.6 248.4 232.6 207.2 189.9 176.3 171.4 169.5 169.5 171.7 173.7 177.6 179.4 181.5 189.8 197.4 202.6 208 219.7 234.7 239.9 243.3 246.2 251.6 255 256 258.5 261.9 264.2 267.6 271.8 276.4 279.6 283.6 287.1 286.4 295.8 301.9 316 336.6 362.2 381.4 381.8 381 379.3 377.4 374.2 370.9 367.1 362 358.2 355.4 354.5 352.9 352.7 351.9 353.1 351.7 354.2 352.2 349.7 351.3 349.3 347.3 353.2 363.4 376.4 390.1 402.6 413 421.5 431.1 443.9 460.5 474.2 484.4 491.3 496.4 500.6 502.3 503 503 501.4 494 478.2 443.8 412.1 384.2 361.9 353.8 340.7 332.4 333.7 343 351.2 361 363.2 354.6 327.8 310.3 295.5
164.3 143.3 125 112.5 107 121.1 131.5 143 153.2 163.7 173.5 184.2 196.3 208.5 219.7 227.7 234 239.6 244.9 251.2 260.4 268.8 276.9 283.8 290.9 297.4 302.2 306.8 310.3 314 316.1 316.6 315.6 314.1 311 308.4 306.9 305.7 306.7 308.8 314.5 319.8 320.8 318.6 315.5 312.4 309.6 307.7 305.6 300.2 286.1 279.2 281.2 280.7 278.4 278.2 275.5 272.4 269.8 267 265.5 265.6 267 269.7 275.2 280.8 285.1 288.6 290.8 292.7 294.5 293.6 308.4 322.2 334.3 344 353.9 359.4 364.4 366.5 367.9 367.4 362.6 355.6 348.3 341.4 338.9 337.2 336.4 336.1 336.6 334.6 331.2 326.9 322.3 317.7 310.7 298.2 281.8 257.1 241.5 218.5 204.8 187.6 175.6 169.7 165 168.4 170.3 171.9 174 175.8 182 188.8 196.2 201.9 209.6 220.3 238.6 244.4 248 251.8 258.7 260.3 261.6 263.9 267 270.2 272.9 274.3 279.4 284.9 289.5 292.4 290.1 295.2 301.8 312.9 330.9 354.7 379.5 384.2 384 383.5 381.9 378.7 376 373.1 369.7 364.7 362.8 361.3 359.8 357.9 357.7 357.8 356.7 356.7 355.5 355.4 357.1 356.8 354.1 359.3 370.4 385.4 398.6 410.7 419.7 426.7 435.6 447.5 462 474.8 484.8 491.2 495.4 497.8 499 499.8 499 492 476.2 457.7 434.8 411.9 388.6 363.1 351.4 333.3 315.9 313.5 319.8 327.7 335.3 337.9 333.1 316 300.4 287.8
172.6 160.6 144.5 129.6 120.8 112.4 119.6 134.5 150.3 161 170.3 180.5 191.7 203.3 216.4 227.1 236.4 243.9 251 256.6 263.4 270.6 277.3 283.8 291.6 299.1 303.9 308.4 312.1 315.8 318.2 318.5 317.4 315.9 314.2 312.2 311.4 312.1 312.9 316.6 321 324.1 324.5 324.9 324 322.5 320.3 317.8 315.4 313.3 303.1 289 291.1 291.5 289.3 285.1 280.8 280.1 277.9 275.1 273.3 272.6 273.1 276.9 283.8 291.1 296.6 299.4 300.7 302.2 303 303.6 305.5 317.7 327.7 337.7 347 354.1 358.7 362.9 365.4 366.6 365.6 361.1 354.4 344.6 339.3 335.9 333.4 332.3 334.1 334.8 332.5 327.3 314.8 308.7 303.1 292.2 269.6 247.1 236.5 210.3 204.5 181.4 173.1 167.8 166.6 166.9 169.2 170.6 172 174.7 184.2 188.2 195.7 201.2 207.3 218.2 235 247.6 251.7 256.1 261.3 264.7 267.2 269.3 270.5 273.6 276.5 278.6 284.7 289.5 295.5 298.3 298.5 296.9 302.2 309.9 324.4 344.8 367.3 380.7 386.9 387.3 386.6 384.1 382 379.4 373.8 371.5 369.4 367.5 365.9 364.2 361.9 361.2 360.5 359.4 358.8 360.3 363.3 364.1 362 364.6 376.7 391 405 415.4 423.8 431.9 440.2 451.4 462.3 473.3 484.4 491.5 494.6 496.2 496.6 496.3 487.2 472.4 452.2 432.7 417 404.1 387.4 364.6 349.5 330.3 311.5 293 299.8 304.5 311.7 315.1 312.5 301.2 288.4 276.8
184.2 174.6 162.1 147 137.3 131.1 126.2 129.1 147.8 160.8 170.1 179.3 188.3 197.7 211.5 220.9 231.8 244 252.3 259.3 266.2 272.8 279.1 285.6 293.1 300.7 305.1 308.9 312.9 316.6 317.7 317.5 316.8 316 314.6 313.4 314.1 316.4 319.6 323.5 327.2 329.9 330.8 331.2 331.1 331 329 327.4 325 322.1 319.2 309.2 300.8 301.8 300.6 292.3 288.3 286.8 285.2 282.9 281.5 281.3 281.1 282.9 288.6 296 301.4 303.6 306.7 308.7 310 311.1 312.3 315.5 324.6 333 341.2 347.7 353.7 357.4 360.5 362.5 362.5 360.5 355 345.8 337 332.5 328.9 326.5 324.7 326.5 326.4 316.9 306.3 301.5 297.5 283 259.6 242.5 232.2 217.6 202.2 179.6 169.4 165.6 163.9 165.6 168 169.3 170.4 173.4 187 187.3 188.7 196.5 204.6 213.8 228.9 246.2 253.8 258.2 265.5 267.7 269.8 271.7 273 276 280.4 285.8 292.7 296 299.8 302.7 305.3 305.4 303.4 308.6 321.1 340.5 363.2 382.3 390.5 391.9 391.1 389.5 388 385 380.4 377.1 375.8 373.9 372.1 369.5 367.5 364.3 363.3 362.3 362.8 365.9 369.8 372.4 371.5 370.6 375.9 393.9 408.8 420.1 428.6 436.2 444 454.9 464 472.6 483.1 490.4 493.7 494.9 495.2 491.4 471.2 451.6 429.6 413.4 401.7 386.2 373.9 361.9 346.4 329.5 312.4 294.2 274.1 282 288 291.6 290.9 284.3 274.8 266.8
189.7 180.7 170.9 159.2 150 140.5 134.1 128.7 146.3 159.9 169.1 179 186.8 195.3 206.1 215.7 224.3 236.8 248.4 258.6 268.2 275.7 282.6 289 296 302.9 306.4 309.9 313.1 315.9 316.8 316.1 315.4 314.8 314.3 313.8 315.2 318.6 323.3 327.2 331 334.5 336.3 337.3 336.9 336 335.4 335.3 334.2 331.7 328.9 326.7 323.4 320.5 312.3 301.4 297.1 294.3 292.1 291.3 290.1 289.9 289.6 290.8 291.8 296.7 303.1 307.4 310.4 312.7 314.9 316.8 318.7 319.4 323.6 330.4 337.1 343.6 348 352.1 355.4 356.1 355.1 354.6 351.7 345.2 332 326.8 323.5 319.6 316.5 312.7 311.9 305.8 299.1 294.8 290.3 274.1 252.1 236 226.4 213.7 197 179 168.6 159.9 163.3 164.6 167.2 168 169 175.1 186.6 186.7 186.6 191.6 202.9 212.7 224.3 237 251.7 259 266.3 262.2 262.1 269.6 275.1 280.8 287.4 295.4 300.8 305 306.5 308.8 310.4 311.6 310.3 305.6 319.2 338 359.6 380.9 391.6 394.1 395 394.5 393.8 390.9 387.2 383.2 381.3 380.1 378.4 375.5 372.5 369.1 367.9 368.7 369.9 373.7 378.1 381.6 384.2 384 385.8 391.8 409.6 424.6 432.7 439.7 447.1 457.7 468.8 473.9 481.9 489.1 492.6 493.4 493.1 482.4 458.4 433.6 411.8 399.7 384.3 367.1 358.3 350.2 339.7 326.7 311.1 296.7 279.7 262.1 270.7 274.5 275.9 269.3 262.7 256.7
191.3 183.5 176.8 167.4 158.7 149.2 145.4 139.5 141.5 157.7 166.8 175.6 185.3 193.5 201 211.4 218.3 225.2 238.5 254.3 266.4 275.9 284.4 291.8 298.6 304.7 308.3 311.3 313.5 314.7 315.2 314.7 314 313.3 312 311.7 313 315.6 321.2 326.9 330.9 334.3 336.6 338.5 340.1 340.2 340.3 341.3 342.7 341.6 339.6 336.9 334.3 330.6 321.9 311.9 305.8 301.5 298.8 298 298.4 298.6 298.7 299.7 299.4 301.1 303.1 308 312.6 315.5 317.7 320 322.2 324.4 325.3 330.3 334.8 339 342.7 346.1 347.6 348.4 347.7 345.8 342.9 336.8 327.6 318.6 315.2 311.2 308.4 302.8 299.9 298 293.3 287.5 283 266.8 246.4 231 220.9 208.6 190.4 174.4 168.1 162.1 160.8 164.5 166.4 167.2 169.3 179.7 186.2 186.1 186.1 190.9 202.2 213.4 221.4 229.6 240.1 250 252.7 249.1 269.3 274.6 279.3 286.1 293.1 300.6 308.2 315.6 316.7 317 319.7 318 315.9 314.8 315.8 336.4 360.1 379.5 391.7 396.2 397.6 398.2 397.1 395.7 392.7 390.7 387.4 385.9 384.6 381.8 379.6 376.6 375.2 376 378.8 383.6 388.9 392.7 396.2 398.4 401.3 408.1 416.5 428.6 436.9 443.9 450.6 461.6 472.4 477 482.1 488.3 491.4 491.9 490.2 475.8 450 421.5 402 390.9 372.5 353.6 343 335.6 329.9 320.9 309.7 297.5 281.4 264.8 255.7 260.1 260 254.4 249.6 244.2
193.5 187.3 182.1 173.3 166 160.3 156.3 149.6 141.8 153.8 164.3 171.7 180.4 189.7 198.4 207.4 214.3 220.1 230.6 246.1 258.6 270.3 282.2 292.5 300.9 306.2 309.5 311.7 312.7 313.2 313.4 312.3 312.1 308.5 305.6 304.5 306.2 308.3 312.5 318.7 323.9 327.4 331 334.9 338.6 341.2 343.8 346.1 348.8 349.4 348 345.5 343.3 337.9 332.7 324.6 316.5 310.9 305.9 304.5 304.8 305.2 305.5 305.5 305.7 306.2 308.1 310.8 314.6 317.5 320.5 323.3 325.7 328.6 330.8 332.3 333.1 335.4 338.4 339.6 339.4 338.5 337.4 335.4 331.5 324.7 316.3 308.9 305.1 302.5 300.5 296.8 294.4 292.6 289 283.6 276.7 262 240.6 225.6 215.2 201.1 183.9 174.2 167.4 162.2 160.7 162.4 165.3 167.5 171.2 180.1 180.8 185.6 186.3 192.3 203.3 214.8 220.4 227.1 231.9 237 239.3 249.5 266.7 278 284.7 291.1 296.2 306.9 322.1 328.1 329.2 333.1 333.3 328.9 325.7 324.2 321.6 333.2 355 375.7 389.8 396.5 399.6 400.1 400.4 399.5 397.3 396.2 394.3 393.1 391.6 389.8 387.1 384.6 382.6 383.8 389 394.4 400 403.8 408.2 412.7 417.8 423 429.4 437.7 441.8 448.2 454.2 463 474.1 479.6 483.4 485.7 489.6 489.5 486.7 471.3 441.9 412.2 395.5 381.7 362.6 337.9 324.1 319.7 318.5 314.3 306.3 295.5 280.5 263.8 251.5 246.7 247.8 242.1 234.6 229.9
198.8 194.2 186.9 181.4 175.1 169.4 167.7 163 151.5 150.7 158 168.3 176.8 186.2 195.1 202.9 211 217.5 226.3 235.4 248.9 261.5 273.8 286.1 297.3 305.1 310.5 311.4 310.7 311 311 309.3 305.7 297.7 294 291.1 293.4 296.5 301 306.2 312.5 317.7 322.8 328.4 334.1 338.3 343 347.5 351.8 354.7 354.7 353.3 352.5 348.4 343.5 338.7 330.2 321.5 314.4 311.2 310.9 310.9 309.5 308.8 308.7 308.9 311.5 314.1 316.9 319.9 323 326.3 329.3 332.3 334.6 335.7 336.5 337.1 337.7 337.6 336.1 332.5 329.8 324.8 319.6 316 309.3 302.1 298.1 295.9 294 290.7 288.4 286.4 284.2 278.4 271.9 259.5 237.6 220.9 210.3 198 181 173.9 167.5 158.8 159.4 162.7 165.6 168.3 175.6 180.1 180.7 184.3 188 195.1 205.9 213.5 222.6 227.1 229.7 233.6 237.8 245.4 259.4 277.4 284.8 291.3 298.8 313.7 329.3 337.9 342.8 343.4 344 343.1 338.1 334.3 332.5 328.7 350.3 368.8 383.7 395.4 399.1 400.9 401.2 401.6 402.2 400.8 399.8 399.2 398.2 396.6 394.4 391.7 390.9 391.7 396.9 404.4 411.5 416.1 421.2 427 430 434.5 443.9 446.3 448 453.4 457 462.6 471.8 479.6 483 485.2 486.2 485.5 480.6 466.4 439.4 408.3 389.8 373.5 354.8 325.6 298.7 302.4 302.7 299.3 294.3 287.3 278.3 264.7 249.2 237.9 234.8 229.7 226.2 224.3
206.5 202.6 197.9 192.6 187.1 183.2 179.8 177.2 168.2 160.1 159.9 164.4 172.7 183 191.5 199.6 207.7 214.7 222.9 232.5 244.1 255.7 265.8 276.3 287.9 298.3 306.4 307.9 306.8 307.9 308 303.5 296.2 284.8 276.1 272.8 273.4 276.9 282.4 286.5 293.8 301.7 309.3 315.4 323.1 330.7 338.4 343.6 348.7 353.6 356.4 358 358.2 357.1 353.6 348.5 340.4 331.5 322.6 317.5 316.1 314.2 312.6 310.5 309.7 310.1 313.8 316.9 319.2 322.2 325.3 327.9 331 333.6 336.7 339.1 340.2 340 340 338.5 335.3 331.4 321.7 314.9 312 307 302.5 297.7 293.1 287.1 285.2 282.7 281.8 281.3 281 275.2 268.5 257.3 236.9 219.2 206.1 192.8 180.5 169.9 165.7 157.9 159.2 163.8 166.3 168.1 178.9 180.1 180.8 185.7 192.8 199.8 209.1 224.9 224 225.9 229 234.4 239.2 245.3 254.6 268.1 282.2 291.4 296.3 310.9 329.3 348.2 358.9 358.3 355.1 351.5 347.7 344.1 343.4 332 341.8 360.2 376.9 392.5 398.8 401.4 402.8 403.3 403.9 404.5 404.3 404.4 403.4 402.2 400.8 399.3 398.5 399.4 404.7 411.1 419.5 427.3 433.3 437.6 443.1 447.6 450.6 452.3 453.5 457.4 460 463.3 467.5 474.2 478.7 480.8 480.4 478.1 473.1 459.5 438.8 410.3 389.1 368.4 351.4 321.5 296.1 280.7 283 282.1 278.2 275.7 271.4 262.8 247.6 231.9 228.6 219.7 217.9 225.5
216.6 212.5 207.9 203.2 199.5 195.9 191.2 187.3 183.4 177.2 171.1 169.2 172.5 178.8 187 196.4 204.3 212 220.5 230 241.6 252.8 263 272.2 281.9 290.3 298.2 299.8 299.6 299.8 296.6 291.4 281.2 271.1 263.1 259.7 261 263.7 269.7 274.7 280.1 285.3 291.6 298.4 306.3 315.2 325.3 333.8 339.3 345.2 349.3 353.9 358.2 360.1 358.8 353.8 344.9 335.5 326.7 321.6 318.4 315.9 313 310 306.5 308.8 312.4 316.3 319.5 323 325.7 328.6 331.7 335 338 340.9 343.2 344.5 344.4 343.4 341.8 340 336.4 329.9 320.8 312.6 306 300.5 295.7 292.6 284.7 274.4 269.9 275.2 274.4 269.8 264.2 252.3 234 217.6 200.7 188.7 176.5 169 166.4 157.5 157.9 163.8 166.7 174 179.4 179.9 180.7 185.9 190.3 200 207.3 214.4 211.2 224.5 230 236.1 239.7 248.8 255.5 263.5 275.8 288.6 297.1 308.5 327.2 353.1 371.6 371.1 368.2 364.3 359.4 356.9 353.6 342.4 357.9 366.6 364.9 389.1 398.1 402.1 403.6 404.7 405.3 405.8 406.2 406.9 407.5 406.6 405.4 405.3 405.4 407.5 410.8 414.9 421.2 429.1 431.6 439.5 445.9 451.3 455.3 457 458 459.2 461.3 462.5 465 466.5 468.1 469.8 468.6 465.4 458.9 447.7 433.8 408.8 388.7 366.8 344.1 319.3 294.7 274.3 262.6 263.3 261.6 258.5 257.2 251.3 239.6 228.7 219.9 209.4 216.4 234.1
227.7 223.7 219 213.6 209.4 206.1 200.8 197 193.2 188.7 183.3 177.5 178.1 181.3 187.2 194.2 203.3 211.9 219.3 229.1 241.4 252.9 263.7 273.8 281.8 287.7 292.5 294.5 293.3 289.9 285.9 279.4 271.6 262.1 254.6 247.3 251.2 257.2 262.9 266.7 272 276 281.9 287.8 294.3 301.5 309.6 317.5 323.5 329.6 335.8 341.5 346.6 351.3 351.2 346.9 342 335.2 326.8 320.3 315.9 312.3 309 306.5 302.5 306.1 309.7 313.6 317.7 321.6 324.8 328.2 331.8 335.7 339.4 342.4 345.6 348 349 349 350 350 349.8 342.7 333.4 326.8 321.2 314.8 307.2 299.8 292.8 284 265.9 265.4 269 264.9 258 246.4 230 215.9 203.6 185.8 174.4 167.8 156.3 157.3 158 163.4 166.6 177.1 178.4 178.8 188 192.8 195.1 198.9 200.1 210.9 218.3 225.7 232.2 238.6 247.4 250.7 254.3 264.1 276.2 286.6 297.5 313.8 335.7 358.1 381.6 388.2 383.1 379.3 371.8 366.2 365.3 354 376.7 389.7 393.2 392.9 399.4 403 404.4 405.1 405.3 406.4 407 407.9 408.8 409.6 409.3 409.4 410.2 412 414.3 417.9 417 425.7 430.8 436.5 443.2 449.1 454.4 457 459.6 459.7 460 460.7 461.4 461.1 461 460.1 456.9 452.9 447 437.1 424.8 395.6 381.7 360.7 334.5 313.5 291.4 272 256.1 247.9 247.6 244.4 239.8 237.9 227.6 227.1 212.8 209.3 215.4 233.5
236.8 234.4 230.1 224.5 217.9 214 207.8 205.3 202.4 199.3 194.3 186.8 186.4 188.1 192.6 198.3 206.1 213.3 219.4 227.7 240.9 252.7 264.3 275.9 284.9 290.9 293.2 293.5 290.3 285.9 280.2 273.5 268.7 264.6 259.8 248.9 235.1 248.7 258 262.2 270.1 272.5 276.3 281.6 287.8 295.7 303 308.6 313.5 318.1 322.9 327.9 333.2 337.4 338 335.4 332.2 328.6 322 315.9 310.1 306.4 303.7 302.2 299.9 302.5 305.7 310 314.3 318.2 322.4 326.9 331 336.1 340.5 344.2 347.6 350.3 352.6 354.1 355.4 356.6 355.9 351.4 346.1 340 332.8 324.1 315.2 307.5 299.9 291.5 271.6 252 264.5 260.9 251.9 240.1 226.6 213.4 200.7 181.4 172.8 164.5 156.1 158.1 161.1 163.8 167.9 178.1 177.9 185.7 193.3 195.6 206.5 211.8 215.4 218.7 224.7 229.1 237.4 243.9 249.7 255.3 262.6 269.2 280.5 292.4 305.2 317.6 342.9 365.7 391.1 401.7 398.5 396.4 389.5 386.2 382 365.5 386.3 394.3 398.2 400.3 402 403.4 405.1 405.3 405.4 406 406.8 408.5 409.7 410.4 410.7 411.3 412 413.4 414.2 416.4 418.9 422.3 426.6 430.9 435.8 440.4 444.7 448.7 452.2 453.6 455.1 457.3 456.9 456.3 455 453.2 448.9 444.4 437.6 428.2 416.3 396.8 366.6 341.2 322.8 304.4 285.3 267.1 252.5 241.2 236.4 236.9 236.8 231.7 226.8 226.6 209 206.4 209.9 220.9
246.6 244.1 238 233.3 228.4 222.5 216.4 213.6 208.1 204.8 200.9 197.7 197.5 195.6 197.3 201.8 208.2 214.7 220.3 227.5 237.6 250.4 263.3 275.2 286.4 289.9 291.6 292.6 292 287.7 281.8 276.4 271.5 266.8 260.1 246.2 223 235.2 250.4 257 263.4 270.8 272.7 278.3 285.5 292.5 298.9 304.4 308.3 311.6 314.8 318.3 320.6 323.8 325.7 324.6 323 320 314.4 308.5 303 300.1 297.8 296.3 295.1 298.6 302.1 306.4 310.1 314.2 318.6 323.4 327.7 333.5 339.3 344.6 349.2 352.5 355.2 356.7 357.2 357.7 358.3 357 355.2 350.5 343.6 333.5 323.5 315.2 307.2 293.1 268.1 240.5 255.3 255.3 246.1 235.1 222.6 211.1 193.1 178.3 166.1 160.6 154.9 155.8 160.2 162.7 173.5 177.4 176.3 189.6 197.3 202.2 206.9 211.3 219.7 226.7 234.2 243 246 250.8 254.9 262.8 268.4 276.3 286.3 297.7 308.4 326.8 347.6 376.3 403.3 407.7 404.3 404.4 401.4 398.1 393.2 386.5 384.8 393.6 399.2 402.5 404 405.4 405.8 405.8 405.7 405.7 406.3 407.7 408.7 409.9 410.8 411.3 411.7 411.8 411.8 413.9 416.4 419.4 422.6 426.5 430.1 434 437.9 442.7 446 448 451.6 452.1 452 450.1 448 443.9 438.5 433.2 426.9 417.7 408.4 396.6 371 339.9 320.9 305.9 286.7 272.4 257.6 244.6 236.3 236.2 236.1 228.9 226.1 224.8 208.4 202.3 206.2 211.3
257.5 255.7 251 244.7 238.4 231.3 225.5 222 216.6 214.1 211 208.6 205 202.5 201.4 204.2 209.9 216.8 222.7 229.2 237.5 247.3 258.8 271.6 281.8 286 287.5 289.4 289.9 285.9 280.9 275 270.9 266.8 259 236.4 214.6 220.4 237.9 247.4 256.9 269.6 269.1 275 282.8 289.1 294.7 299.4 303.8 306.2 308.5 310.7 312.8 314.5 316 316.1 315.1 312.5 307.6 301.6 295.7 292.9 291.6 288.1 290 294.3 298.6 302.9 307.1 310.6 315.6 319.9 324.2 330.8 336.6 342.5 348.4 353.5 357.4 357.9 358.1 358.5 359.1 358.9 357.4 356.2 352.3 342.5 332.6 323 312.8 288.1 264.1 236.8 243.5 245.8 240.7 229 218.7 206.8 187.1 175 165.6 158.9 153.9 155.1 160 162.3 176.3 176.9 179.2 192.7 197.4 204.2 206.4 212.9 223 236.6 245.9 250 252.3 256.5 264.1 268.5 273.4 281 291.8 305.9 316.6 333 352.8 377.3 406.5 413.4 411.3 410.5 408.2 404 401.2 397.8 393.4 392.4 399 403.3 406.1 406.5 406.5 406.3 405.9 405.2 404.7 405.8 406.7 407.4 408 408.1 408.3 408.2 409 411.1 414 416.8 419.7 423.3 427.1 431.5 435 438.7 442.4 444.5 446.4 446.4 444.4 442.3 439 433.7 427.2 422.4 416.7 410.7 404.3 393.4 375.3 344.9 327.9 313.6 295.2 278.2 266.3 252 240.3 235.2 227 225.6 225.5 223.1 207.6 196.3 201 205.5
262.4 261.3 258.6 253.6 247.3 241.3 236 231.2 226.6 223 220.1 216.6 212.4 208.3 205.9 207 212 219.9 227.5 233.9 240.5 248 256.4 264 273.1 279.8 281.4 283 281.8 276.1 271.8 266 262 259.5 252.6 233.2 214.1 206.4 218.8 231.7 248 257.6 264.7 270.9 278.2 284.9 289.8 295 298.2 300.5 302.5 304.6 306.6 308.3 309.8 309.8 309.1 306.1 301.8 295.9 290.2 286.9 280.6 277.5 280.6 290.7 295 299.3 303.5 306.8 311.1 315.3 320.8 327.6 333.6 339.5 345.9 352.2 357 358.6 359 359.4 360 360.7 359.4 358.1 356 349.5 338.1 326.4 308.6 281.7 259.7 230.5 233.1 236.8 234 224 214.3 202.5 179.3 167.5 164.9 157.7 153.5 153.7 159 162 176.1 176 180.9 193.6 197.5 203.9 207.6 216.1 226 238.3 247.1 250.2 252.9 258.8 267.7 274.7 282.1 285.2 297.8 310.6 323.6 338.4 356.5 378.1 408.5 416.8 415.8 415.5 413.5 409.5 407.3 405.1 402.8 399.9 403.6 407.5 410.9 411 409.4 407.1 406 403.7 401.8 402.1 402.7 403.8 403.5 403.5 403.6 403.9 405.6 408 410.8 413 417.3 421.8 425.8 428.9 432.6 434.8 437.7 440.3 441.6 442 437.8 434.3 430.1 424.3 417.4 412.3 408 403.8 398.8 389.9 373.3 347.2 336.7 319.6 304.4 284.3 270.5 257.4 246.1 239.5 233 225.6 225 223.1 207.8 194.6 195.3 199.5
264.3 264.8 262.5 259.1 253.4 247.7 242.7 237.7 233.7 229.9 226.5 222.2 217.1 212.6 209.3 207.9 212.3 219.7 227.6 236.1 244.1 249.8 254.8 260 266.3 270.1 270.9 270.2 267.4 263.5 259 253.2 250.6 250.7 248.5 237.2 224.5 200.4 205.6 227 242.8 249.7 257.3 264.5 271.5 278.5 284.2 288.8 291.8 294.5 296.5 298.5 300.3 302 303.6 304 303.2 300.5 296.2 291.7 289.4 286.5 275.3 257.7 273 285.9 290.5 294.7 295.2 307.9 313.5 318.2 322.4 326.6 331.6 337.6 343.8 350.2 355.8 357.7 359.4 360.2 360.9 361.4 361.1 359.9 358.5 350.2 337.2 324.1 301.9 276.6 255.7 233.6 222.5 229 229.3 219.5 209.6 193.1 175 167.5 161.5 157.9 152.5 152.8 157.6 166.9 175.5 175.4 180.3 194.7 203 204.1 214 227.9 239.1 241 241.1 244.5 252.5 263.6 269.6 275.5 282.4 292.8 305.6 317.8 330.3 346.8 364 384.7 411.9 417.5 419 418.9 417.4 414.4 412.9 411.4 409.7 407.8 409.3 413.5 417 415.7 412.2 408.8 406.9 402.9 397.6 396.7 397.8 398.1 398.4 398.6 398.7 398.9 401.3 403.8 406.7 409.8 414.6 419.1 424.4 427.5 430.3 432.5 434.8 435.3 437 436.6 432 426.2 420.8 415.2 407.2 401.3 397.8 393.7 389 381.9 368.7 348.9 338.3 324.7 311.5 296.6 278.2 266.3 253.6 251.6 245.6 241.6 231.4 218.2 210.2 200.8 194.2 195.3
258 263.3 263.9 262.9 258.2 251.3 246.2 242 238 234 228.9 223.6 218.7 214.2 210.2 208 209.7 212.4 217.3 222.3 232.6 240.5 245.5 252.3 257.5 258.1 257.1 254.6 253.2 249.5 244.9 239.3 234.6 237.9 243.6 240.1 221 197 197.3 218.2 235.4 241.2 249.9 257.1 263.8 270 275.8 280.4 284.3 287.7 289.9 292.1 294.3 295.9 297.6 298.5 297.4 295.1 293.4 291.6 289.4 287.1 280.5 253.9 262.2 280.4 279 287.1 305.1 314 319.1 323.1 326.9 330.6 334.1 337.7 342.6 348.7 353.9 356.7 358.4 360.7 361.9 362 362.1 361.5 359.7 349.7 336.4 320.2 296.6 267.9 254.1 231.9 211.3 223.4 223.4 211.9 201.2 182.2 170 163.7 160 156.5 151.5 154.1 156.4 169 175 175.6 186.1 198.5 211.6 218.6 228.4 239.6 241.3 241.5 242.5 247.8 257.6 266.8 272.1 277.4 286.9 300.8 314.1 325.6 343.6 358.6 376.4 395.2 415.3 419 421.8 421.9 420.1 418.2 417.5 416.6 415.5 414.1 414.7 418.6 421.3 419.4 415.7 410.8 407.2 403.7 397.6 387.9 390.4 391.5 392.2 392.4 392.4 393.1 397.9 398 398 405.2 410.5 416.5 422.1 426 429 430.8 431.7 431.7 431.2 429 423.6 416.9 411.1 405.1 396.3 390 386.3 383 377.1 370.9 365.1 350.5 337.7 326.8 313.3 306.2 290.6 271.9 271.5 265.8 260.7 255.4 245.4 229.4 217 208.5 199.4 192.4
233.1 246.4 255.9 260 258.6 253.8 249.6 245.5 241.3 236.6 230.2 224.5 218.1 212.9 209.2 209.2 205.8 207.7 211.2 214.4 218.7 223 226.8 230.6 235 236.4 235.6 235.3 232.8 230.1 226.4 220.5 217.4 217.1 217.9 215.5 205.8 190.8 189.7 207.2 217.7 228 238.2 246.4 254.5 261.2 266.9 270.9 274.7 278.7 281.9 284.9 288 290.1 291.8 292.2 292.5 292.4 291.2 289.8 287.9 285.1 275.5 248.5 247.5 265.8 268.9 292.7 306.5 315.1 321.4 326.7 330.8 334.6 337.6 340.6 343.7 347.2 352 355.7 358 360 362 362.8 362.8 362.5 358.8 347.5 333.9 318.1 293.3 271.4 251.7 227.8 207.6 211.6 207.1 199.5 191.7 179.1 170.1 163.6 159.6 156.7 152.7 154.8 155.3 171.9 174.6 178.5 191.7 206.4 217.8 223.9 231.8 239 240 241.5 246.6 251.9 260.3 270 275.7 284.8 296.5 308.8 320.3 334.8 350.8 369.2 393.4 406.9 414.9 420.3 423.9 424 422.7 421.6 421.1 420.2 418.8 417.7 418 419.6 421.5 421 417.7 412.5 406.3 403.6 398.8 386.8 376.2 379.9 384.1 385.4 384.6 384.3 387.7 387 385 393.3 399.7 413.7 420.9 424.8 427.8 429.4 429.5 427.6 426 421.6 415.6 406.9 400.8 392.7 384.2 378.9 375 372.1 368.9 367.3 362.2 351.1 339.6 329.4 321 312.8 300.4 291.6 282.5 278.3 276.2 268.1 257.6 244.8 226.7 216.3 207.5 196.4
217 226.1 232.9 241 246.9 249.8 249.2 247 242.6 236.8 230.2 224.1 217.3 209.2 208.1 207.9 203.1 204.5 206.4 207.7 211.5 215 215.8 217.8 220.6 221 221.4 221.7 220.2 217.1 213 208 203.2 201.1 199.5 197.9 193.8 184.1 179.5 195.8 206.7 216.7 222.9 229.2 238.5 246.2 253.2 259.3 265.1 269.6 273.3 276.6 280.3 283.6 284.7 285.3 285.9 286.7 286.8 285.2 281.9 278.1 262.6 236.9 234 247.2 268.2 291.3 304 313.8 321.2 327.8 333.7 337.9 340.9 343.7 346.3 349 351.9 355.1 357.2 359.3 360.8 361.8 361.9 361.6 356.6 344.3 330.4 313.8 290.1 272.3 248.7 224.9 206.6 202.9 201.5 195.1 187.9 179 169.8 161.8 158.5 156.7 152.5 150.9 154.3 168.2 174.5 182 197.6 213 223.1 228.5 233.7 240.7 246.5 252.5 255.3 263.2 273.5 283.7 290.8 297.4 306.3 314.5 329 344.2 358.6 378.8 407.1 412.1 413.7 418.1 423.6 425.1 424.3 423.6 422.8 422.3 421.2 419.7 419.2 418.8 418.5 418.1 416.5 412.3 406.8 400 396.2 389.9 375.1 359.6 370.7 374.9 372.9 370.1 374 367 364 382.1 400.9 413.2 420.1 424.7 427.3 428.8 427.4 424.7 420.5 414.2 405.4 396.9 389 379.7 373.9 369 364.6 364.8 365.1 363.9 359.8 351.5 341.9 332.9 324.8 319.7 316.4 312.8 307.6 300.4 288 276 263.9 249.5 234.8 224.1 211 203
207.4 215.1 219.9 224.2 229.5 233.3 235.7 237.1 235.6 230.9 224.9 219 211.8 203.6 200.6 198.9 199.6 200.5 200.2 202.3 204.5 206 208.6 209.6 210.7 211.9 212.9 212.1 211.7 206.4 202 196.4 190 185.8 184.5 181.6 180.8 172.2 176.5 188.4 200.3 208.1 214.4 218.6 222.8 227.6 234.8 242.7 250.2 255.7 260.4 265.1 270.5 272.6 271.6 271.9 272.6 273.2 273.2 272 269.7 262.6 243.3 225.3 227.4 250.4 265.4 283.9 299.5 310.5 319.4 326.9 333.7 339.8 342.7 345.6 348.4 350.7 353.1 354.4 356.5 358.5 359 358.9 358.5 358 352.8 340.9 326.5 308.7 290.4 270.8 244.9 221.9 206.8 192 195.9 190.3 185.4 176.3 168.5 162.1 158.4 156.3 154 151.3 151.5 164.5 175.8 190.7 206.7 220.1 225.1 230.5 236.5 248.7 249.5 256.8 266 276.9 288.9 299.8 305.2 309.9 314 324.1 336.6 350.9 369 393.4 410 412.4 413.4 416.2 419 424.3 424.9 423.4 422.7 422.1 420.9 419.2 417.9 416.2 415.5 413.4 410.8 408.4 405.3 399.3 391.6 384.2 377 361.6 354.8 363 361.1 357.2 356.8 344.9 363 383.4 405.2 413.4 420.3 424.6 428 428.7 426.9 421.9 414.7 406.1 395.1 386.7 376.7 367.1 362.2 358 353.9 355.7 359.3 361.6 359.6 353.3 344.8 337 331 326.6 323.4 323.9 328.8 325.5 296.9 281.8 270.8 253.5 238.5 228.1 212.8 203.9
202 206.9 210.7 214.5 216.4 218.9 220.5 222 220.9 218.2 214.1 209.7 204.3 199.7 196.1 195.5 194.9 195.2 196.1 196.7 198.2 199.8 205.6 202 201.7 204.4 204.8 204.3 201.4 194.1 190.2 183.9 177.9 172.4 170.1 169.7 170 171.1 176.5 185.6 193.4 200.4 205.7 209.7 212.4 216.4 221.7 229.4 234.7 239.9 243 247.8 251.8 253.8 249.7 250.3 250.2 248.8 250 252.8 252.2 240.5 222.9 223.7 231.8 249.2 264.8 276.7 291.1 303.9 314.6 323.5 330.8 337 341 345 349.6 352.6 354.2 354.6 355.7 357.4 357.9 358.4 357.8 356.2 350.4 337.8 323.7 308.8 289.1 261.1 239.4 224.2 207.5 195 185.1 185.2 182 173.8 165.6 161.4 158.2 155.9 154.3 150.8 150.2 163.1 177.7 192.6 208.1 223.7 228 232.6 241.3 248.6 256 263 274.8 286.9 297.3 308.5 318.9 324.2 328.8 334.9 344.8 363.9 383.5 406.4 410 411.2 412.6 413.7 415.2 417.4 421.1 420 419 418.6 417.6 416.9 415.4 413.3 411.6 409.2 405.8 402.7 399.8 395.9 390.4 382.3 369.3 357.2 345.7 345.2 348.3 344.1 337.5 339.5 362.2 382.8 396.8 412.4 420.8 425.7 428.4 428.3 425.7 420 410.5 398.7 387.3 377.5 367.7 358.3 351.7 347.2 344.3 346.5 350.2 356 360.8 357.8 351.7 342.8 337.2 333.5 331.4 332.9 336.3 337.6 307.1 282.6 279.3 260.8 245.8 232.2 215.5 203
195.7 201.1 204.8 207.9 209.8 210.3 209.6 210.1 209.5 207.6 206.1 203.4 200.2 195.7 193 191.6 190.5 190.2 190.1 191.3 192.2 192.2 193.4 192.5 192.4 195 194.9 193.3 191.5 186.3 179.7 172.8 166 163.5 162 160.9 169.9 169.6 174.4 184.7 190.3 194 197 201.5 204.3 206 210.3 215.7 221.5 225 229.4 233.4 233.1 233.4 227.4 227.2 227.2 228.9 229.6 231.1 232.1 221 207.8 214.9 238.9 247.2 256.8 267.3 278.9 290.1 298.3 307 316.2 325.1 331.7 333.4 338.8 347.1 346.7 345.8 350.9 356.9 357.9 357.6 357 355.7 350.7 337.1 319 293.6 272.1 251.5 237.5 223.1 207.2 198 185.2 174.5 177.3 171.8 164.2 160.1 156.8 154.6 153.4 149.7 151.8 163.3 173.5 187.8 204.6 219.3 228.6 236.5 245.4 253.2 262.5 267.9 279.4 291.4 299 308.3 323.9 334.8 340 347.3 360.8 380.1 401.2 407.8 408.8 409.5 411 411.2 411.7 411.2 412.1 413.1 413.1 414.2 414.1 414.7 413.1 410.8 408.2 405.1 401.9 398.4 394.5 390.5 385.4 380.2 372.3 364.4 354.7 335.2 331.5 329.2 321 344.8 365.8 377.9 391 410.8 421.2 426.7 428.3 427.4 423.6 418.7 408.3 395.3 379.4 368.7 359.5 350.3 341.7 337.3 335.3 337.8 342.3 347.9 355.3 360.2 357.8 350 343.3 339.9 338.2 339.3 342.3 342.8 325.7 294.7 286.4 270.9 253.2 235.4 218.9 204.7
193.4 197.2 199.8 202 202.9 203.5 203.8 203.4 202.4 201.8 200.7 198.8 195.8 192.2 187.8 186.7 185.2 184.8 184.8 184.6 183.8 184.3 184.1 184.3 185.1 186.4 185.8 183.6 179.8 178.6 174.7 165.3 159.1 156.5 155.3 153.1 160.5 167.2 171.8 177.5 183.2 188 192.3 194.4 189.6 195.4 199.5 204.2 208 209.2 210.4 213.1 214.1 211 208.1 209.5 210.9 212.1 211.2 211.7 212.1 204.9 198.9 219.4 235.8 238.3 246.9 254.9 264.7 274.5 280.8 290 297.7 303.2 310.4 314.8 318.9 325.6 331.5 340.6 346.9 345.7 355.6 356.8 356.7 354.9 347.9 327.7 300.1 276.2 254.7 243.7 234.7 219.6 204.7 196.3 190.9 182.4 173.9 166 162.5 158.7 156.5 154.1 151 149.4 154 164.4 171 181.5 198.8 217.3 230.7 239.4 248.8 257.3 265.4 271.2 281.8 294.7 301.4 307.7 320.1 334.9 345 356.3 372.1 389.8 402.1 405.8 406.8 407.2 406.3 406.4 405.9 405.4 403.5 402.9 403.4 407.4 411.2 412.2 410.6 408.6 406 402.9 399.6 394.4 388.9 383.3 379.2 374.9 370.7 365.5 357.7 340.4 312.4 308 333.2 352.4 364.4 373.2 385.8 403.2 420.5 428.2 430.1 428.3 424.6 418.3 406.8 393.1 378.2 363.9 352.5 342.9 333.9 327.1 325.1 329.1 334 339.6 348.2 356.7 358.8 355.4 349 345.7 344.6 344.8 346.5 347.1 338.8 304.6 291.5 276.2 255.8 236.5 221 203.7
190.2 193.4 195.9 196.9 197.3 197.9 197.6 197.1 196.8 196.4 196 194.3 192.4 188.6 184.9 182.4 181.4 180 180.8 180.2 180 180.2 180.2 180.1 181.1 181.2 179.8 177.7 174 167.8 164.6 158.9 154.4 150.1 147.2 153.5 161.1 165.4 170.3 176 180.1 182.9 186.4 188 188.1 188.4 188.8 192.1 197.7 197 197.8 191.9 190.9 194.5 194.7 198.1 198.2 201 199.9 200.9 199.2 195.5 201 211.6 222.4 227.5 237.4 246.7 254.9 263.2 269.6 276.4 282.2 288.3 294.6 300.4 304.6 308.4 313.4 318.6 323.6 328.2 334.8 340.6 343 341.9 332.2 306 280.4 262.9 248.6 235.4 217.7 211.5 201.6 195.4 189.4 185.2 177.1 167.8 161 157.8 154.5 152.4 149.8 148.4 156.6 164.8 174.9 187.3 206.1 220 234.6 243.1 251.8 260.3 267 273.7 282.8 293.4 301.8 308.8 318.2 329.9 343.8 357.6 373.7 389 396.5 400.4 403.3 403.5 402.1 400.9 398.8 397.8 396.1 395.9 394.3 392.5 394 404.1 407.5 405.9 403.7 400.7 397.2 392.4 385.7 376.8 372.9 369.2 365 360 353.6 319.8 309.6 306.6 333.6 349.3 360.1 368.7 378.8 390.7 407.7 419.9 427.8 430 426.4 419.3 407.3 392.5 378.1 362.6 347.5 335.9 326.6 319.8 314.4 319.9 324.7 331.1 341.2 351.5 355.6 355.1 352 350 349.1 348.7 348.4 348.9 346.7 319.1 296.4 276 256.9 237.4 219.7 202.1
189.8 193.1 193.8 193.2 194 193.8 192.6 191.8 191.3 191.1 190.2 189.7 188.9 186.7 183.2 179.6 177 176.3 176.7 176.7 175.8 176.8 176.9 177.1 177.6 176.9 175.4 172.8 168.9 164.2 160.7 154.6 150.7 141.9 148.7 156 161.6 165.5 170.9 175.6 178.5 181 182.3 182.5 181 182 182.3 181.1 182.4 182.2 182.6 181.2 181.4 183 185.1 187.7 189.5 191 191.7 191.3 196.2 191.9 199.5 206 211.4 220.8 230 240.2 248.9 254.8 260.3 266.9 273.1 279.2 283.8 288.2 292.8 296.8 300.9 305.2 308.7 312 315.2 317.8 319.4 317.3 310.2 293 272.8 262.9 248.8 231.4 221.2 210.5 201.4 195.4 193.4 185.3 174.6 167.8 160.8 155.7 153.3 150.4 150.7 148.8 160 168.3 179 191.5 208.2 223.2 237.9 246.9 254.1 262.4 269.1 275.6 281.9 288.9 296.7 306 314.6 325.9 337.4 347.6 363.2 370.5 371.4 383.6 393.7 396.9 395.9 393.7 391.3 389.8 388.1 388.3 393.2 391.9 386.8 383.8 393.3 401.4 400.3 398.3 394.9 390.6 384 376.5 367 362.7 357 343.7 325.7 311.5 297.8 301.2 327.3 344.5 356.1 364.4 374.2 383.6 396.1 407.5 418.6 425.5 428.1 421.5 409.5 394.9 379.3 364 348.2 334.8 325.5 314.9 304.8 313.3 319.2 324.5 335.4 344.2 351.4 352 351.9 351.5 350.6 349.6 348.2 347.4 345.3 325.4 296.1 275.1 257.2 236.4 218.2 202
191.7 194.5 194.9 193.8 192.3 190.6 188.8 187.5 186.3 185.6 185.9 185.6 185.7 184.5 181.6 178.3 170.5 172.3 176.7 172.6 172.7 174 174.7 174.9 175.3 174.5 171.6 169.6 166.1 162.6 157.9 152.6 145.4 140.7 149.8 155.7 162 170.6 174.6 177.6 180.7 187.1 187.6 181.4 176.1 174.5 175.8 171.2 172.5 172.6 172.8 173.4 175 177.6 179.2 181.9 182.5 183.2 184.4 184.1 186.5 192.1 197.9 203.7 209.9 218.1 227 236.7 244.6 247.6 253.1 259.9 266.3 272.4 277.3 281.4 285.4 287.3 290.7 294.5 298.2 300.9 303.1 304.3 304.8 303.3 296.2 283 267.7 251.6 241.4 228.4 218.8 210.2 201 189.6 185 179.7 174.4 163.8 159.3 154.4 151.7 148.6 146.8 156.3 162.1 169.4 180.9 193.9 209.7 224.9 240 251.6 256.2 262.8 269.4 275 279.2 285.5 292.7 303.1 311.2 320.7 329.9 338.7 348.2 352.5 356.3 358.2 362.1 371.9 371.7 372.6 372.9 373.1 375.1 370.9 387.3 391.8 386.8 379.9 373.1 382.7 394 394.3 392.4 388.3 383.4 375.8 366.4 343.5 326.1 312.2 304.7 296 288.6 296.1 321 340.7 351.9 360.3 368.8 377.3 385.6 395.4 405.8 416.3 423.4 420.1 411.4 397.7 381.8 366.2 350.8 337.9 327.6 317.2 300.6 302.8 311.3 319.7 328.1 336 343.5 348.8 350.2 349.2 348.5 348.1 346.6 344.7 340.9 318.7 288.9 270.5 253.8 233.1 214.7 198.2
191.2 193.1 193.6 192.4 190.5 188.1 186.2 184.7 183.5 182.5 181.7 181.6 181.8 181.8 180.1 176.9 172.6 162.5 169 169 169.6 170.6 172.2 173.3 173.2 173.3 171.1 168.1 165.7 162.7 160.2 155.4 145.4 142 149.7 155.5 158.7 171.9 178.4 181.5 186.6 192.1 191.8 184.8 174 168.4 167 164.5 164.6 165.8 167.1 168.2 169.6 172.5 174.2 175.9 177.6 178.1 180 181.9 185.8 191.5 197.3 203.6 207.6 210.9 221.3 230.1 235 238.9 246.8 255 261.2 266.6 271.3 275.6 279.4 282.6 284.8 288.9 289.8 292.7 293.1 294.1 293.5 290.8 281.2 269.8 258.9 249.9 236.4 226.3 214.5 203.4 193.8 187.2 179.8 175.9 168.3 162.4 157.2 152.7 149.4 144.8 146 158.3 164.3 171.5 182.5 196.1 207.9 221.5 237.4 252 257.9 262.2 265.7 268.2 276.7 285.5 291.6 297.8 305.6 314.4 320.8 326.3 335.2 341.8 344.6 347.2 350.3 349.6 349 349 349.1 349.9 352.1 351.7 363.8 373.2 380.3 377.5 370.2 361.5 371.9 385.6 386.2 382.4 376.5 366.9 352.2 329.6 308.5 300.8 292.6 284.2 277.3 285.1 319.7 336.3 347.1 356 364.5 372 378.2 384.4 392.9 402.5 408.5 411.1 407.1 396.7 382.6 366.8 352.5 339.3 327.5 318.2 306.6 291 301.5 314.8 318.7 326 334.8 340.9 345.7 346.9 346.2 344.7 343.5 340.7 334.2 308.1 282 264.2 245.9 229.2 210.7 193.7
191.4 192.4 191.7 190.6 188.6 186.4 184 182.4 181.1 179.7 178.9 177.1 176.9 177 176.8 173.9 171.5 163.7 163.5 163.6 166 168.9 170.9 171.9 172.1 171.9 170.6 169 167.1 163.7 162.4 154.4 137.1 139.2 146.5 154 159.1 165 177 184.3 191.5 192.2 191.9 185.1 174.3 164.3 159.5 157.8 156.8 157.8 157.7 158.2 162.2 165.2 168 171.1 172.3 173.5 175.8 180.2 183.8 189.1 194.6 199.1 203.2 206.8 211.5 218.2 225.7 233.4 239.8 248.4 255.5 260.9 265.4 269.7 274.1 278.2 280.2 283.7 286.4 289.5 289 289 286.9 283.8 277 264.5 256 246.3 234.3 224.8 216.6 209 199.3 189.4 178.8 172.8 164.8 159.9 155.3 150.7 147.9 148.1 146.5 160.4 166.7 172.1 184.9 198 206.8 215.6 228.8 242.2 252.5 259.8 261.3 269.2 274.8 281.5 287.4 292.5 299.3 306.7 311.5 314.8 319.1 325.1 330.8 333.4 333.6 333.4 332.5 332.3 331.9 332.7 337 337 342.5 348.3 354.6 361.9 366.5 351.2 345.1 359.7 358.6 350.1 345.2 337.9 327.1 313.1 295.3 285.5 281.5 272.6 266.7 284 311.6 329.7 341.3 350.8 359.3 366.7 371.3 377.2 382.3 387.9 391.7 393.9 391.4 382.8 372.7 363.4 351.9 338.3 325.8 317.5 309.4 296.5 289.2 297.8 315.4 319.1 325.2 331.6 337.9 343.4 344.1 341.6 338.7 335.6 321.2 295.2 273.8 258.1 239.3 221.8 208.1 190.5
189.7 190 190.3 189.7 187.4 185 182.1 180.2 178.7 177.3 175.8 173.2 171 171.3 172.2 162.8 161.4 165 154.4 155.3 161.5 165.7 167.2 170.3 170.9 170.7 166 160.6 159.8 156.3 153 140.5 140.6 142.1 146.9 155.6 160.3 165.4 173.6 182.3 188 191.5 191.4 184 176 161.5 154.2 149.8 151.6 155.8 158.2 161.3 162.7 160.2 164.8 167.1 169.7 174 176.7 180.4 182.8 185.9 190.4 194.4 198.3 202.3 206.8 212.8 222.5 229.3 234 241 247.2 254.7 260.7 264.7 269.7 274.5 276.9 279.3 281.1 282.8 284.5 283.8 281.9 276.4 267.9 260.5 252.7 244.5 236.1 228.5 221.8 213.9 201.6 188 175.6 170.1 161.4 157.7 153 149.2 142.8 147.7 152.2 165.2 174.4 179.1 186.6 197.3 205.9 210.8 219.4 230.5 242.5 250 258.4 263.1 270.2 275.4 281.8 287.2 293.1 299.6 302.1 304 308.2 312.1 315.1 318.9 321.3 319 319.5 319.2 319 319.4 319.7 319.9 323.2 329.7 336.5 341.4 343.2 333 330.5 330.7 329.3 321.8 320.6 315.5 308.1 298.3 284.8 272.3 266.8 261.7 252.3 279.3 297.2 318.2 333.8 344.1 353 358.9 363.2 368.6 373.5 376 377.5 376.1 372 365.4 359.9 352.6 344.2 332.3 323.3 316.5 309.5 302.6 285.8 291.1 313.7 316.5 318.2 321.7 330.9 339.5 342.2 339.9 333.6 327.6 311.6 287.7 269 249.2 232.4 216.1 204.6 186.3
183.2 183.3 183 183.1 180.6 180.2 178.8 175.3 174.9 173.2 173.3 172.8 166.3 161.4 163.6 153.6 153.4 151.6 148.5 149.9 153.4 158.1 159.9 159.9 162.4 161 155.4 154.6 153.7 152 147.1 135.6 136.3 138.6 145.2 157.8 166.2 168.5 171.9 175.8 180.3 185.5 186.3 179.6 168.6 156.9 147 154.5 158.5 162.4 166.9 168.3 169.9 173.4 174.9 175.4 177.4 180.3 182.6 184.9 189 190.4 191.3 193.7 196.2 199.3 203.8 209.2 215 225.1 234.6 241.6 247.9 253.9 259.6 263.7 267.7 271.9 273.7 275.1 276.5 278.8 278.8 277.7 275.4 269 262.3 256.3 249.8 242.8 235.4 227.4 217.9 208 197.3 184.5 173.6 169.4 158.2 155 151.3 147.6 141.9 148.1 157 169.8 180.8 185.6 187 199.8 203.5 207.9 213.1 221 226.7 242.6 251.4 262.1 260.3 269.3 273.4 278.3 284 290 292.5 294.3 297 298.2 302.5 305.3 305.6 304.9 305.7 306.3 306.4 306.3 307.1 306.2 307.3 310.9 315.6 320.1 321.3 323.3 318.8 312.7 306.6 303.2 299.4 295.6 292.4 285.2 273.8 262.4 254.9 243.1 254.5 272.5 287.4 305 324.7 337.7 345.1 350 353 357.8 363.1 367.4 367.2 364.9 360.1 354.3 349.3 342.9 335 327.5 321.8 316.7 311.5 306.7 291.8 282.3 307.3 313.2 313.5 314.8 325.3 335.9 340.2 339.1 332.4 323.5 312 285.2 266.5 244.7 229.2 213.6 202.7 185.3
177.6 177.1 176.8 175.8 174.3 172 170.9 167.3 166.1 165.7 166.8 167.8 164.8 157.3 153 147.8 145.3 144.2 142.3 146.1 149.1 152.8 154.7 154.3 153.5 152.5 151.3 150.2 148.9 146.8 143 134.9 133.7 135.1 139.2 145.5 153.7 160.4 163.2 167.3 172.6 175.4 174.3 169.9 163.1 150.4 150.5 158.7 161.4 164.5 169.7 175.3 176.6 177.4 180.6 183.4 184.3 186 188.1 191.4 198.2 202.3 202.4 201 202.1 204 207.3 212.2 219.2 227.5 235.7 243.5 250.2 255.4 260.5 264.2 267.1 268.7 269.5 270.3 271.1 272.9 272.5 271.5 268.1 260.5 254.4 247.5 239.9 231.8 222.8 214 206.5 197.1 191 179.1 166.4 161.3 156.3 152 147.7 144.7 143.2 149.3 162.6 174.9 184.5 189.3 187.7 200.5 205.3 208.9 212.8 217.1 222.9 231.5 239.7 247.2 253 256.9 262.5 262.9 270.4 278.6 281.8 282.7 287.3 289.6 293.2 295.4 294.2 294.3 294.2 293.6 295.5 294.3 298.4 295.7 297 296.9 299 301.1 299 300.3 300 296.4 290.2 290.2 286.2 280.9 276.9 271.7 263.8 255.5 247.8 234.9 250.5 264.8 278.6 294 312.5 327.5 334 338.1 341.2 346.1 351.5 356.7 359.1 358.8 354.8 351.8 346.8 340.2 333 326.9 322.4 317.5 313.8 311 298.8 272.5 294.2 307.9 309.1 310.2 321.3 332.5 339.2 339.7 333.3 321.7 313.4 290.4 269.2 244.9 227.8 211.5 199.2 192.2
169.3 169.3 168.5 168.5 167.1 165.4 163.5 161 159.7 159.8 164.1 165.8 165.2 162.4 156.1 149.7 144.4 136.7 135.2 141 146.3 149.9 152.1 151.5 150.4 149.1 147.4 146 143.2 136.4 128.3 123.2 119.2 128 131.8 134.8 138.7 144.8 152.3 159.7 165.3 168 167.5 164.5 158.3 146.8 155.1 160.7 165.2 169.2 172.6 177.9 184 186 188.5 191.3 193 195.1 194.8 197.9 208.5 211.7 214.6 213.9 210.6 209.4 212 217.4 224 231.8 239.1 246.9 251.8 257.1 261.7 263.7 264.2 263.7 264.2 264.9 265.7 266.2 264.9 262.3 257.3 250.1 244.3 237.1 228.3 218.2 208.4 200.6 193.7 187.6 178.1 171.6 162.6 158.3 154.1 148.6 144 139.4 145.3 151.9 164.9 177.5 187.3 192.2 190.6 197.3 203.4 208.6 211.6 215.8 220.1 223.2 228.8 234.6 239.9 243.8 247.5 252.3 265.6 270.2 266.6 273.1 277 279.4 280.2 282 282.1 283.4 283.4 284.6 284.8 286.7 287.5 288.2 288.8 288.4 289.1 287.7 288.6 290.1 288.4 286 281.4 275.7 275.1 271.6 268 263 256 248.5 240.2 232 243.4 256.3 269.1 282.4 297.3 311.6 320.2 324.8 330.4 334.2 340.1 346 349.4 351.9 352.5 350.3 346 339.7 332.7 327.1 322.5 319.4 316.4 314.3 306.6 278 278.9 291.6 300.1 306.6 316.2 329.3 338.4 339.5 332.9 321.4 313.1 300.1 271.3 248.9 227.7 211.5 196.6 192.2
158.4 157 157.9 157 155.6 154.1 153.7 153.2 150.8 152.6 156.8 160.5 163.7 165.1 162.5 159.6 154.9 141.6 130.7 134.7 140.1 147.4 149.5 149.4 147.6 146.1 142.6 132.6 120.9 113.9 115.1 116 116.3 119.3 121.2 129.6 132.8 138 146.1 154.2 157.9 160 160.3 157.6 152.4 152.1 158.9 166.2 170.5 172.3 176.7 180.8 185.8 192.4 196 200 202.1 205.6 205.4 206.8 210.9 218.6 224.2 225.9 223 220.4 220.1 223.1 228.7 234.9 242.3 250.7 256.7 260.9 261.7 260.7 259.9 259.9 259.9 260.3 260 259.5 258.5 255.6 250.6 244.8 237.8 231.1 221 211 202.6 195.5 187.7 180.4 173.3 168.1 160.9 156.3 152 146.9 138.8 140.7 148.3 153.9 166.6 177.1 184.2 189.1 191.7 193.4 199.1 202.7 205.8 210.3 213.7 215.8 221 223.7 226.9 230.1 233.1 239.9 247.7 254.5 264.1 261.4 266.5 270.1 268.9 270.3 271.6 272.6 274.4 274.5 274.9 275.9 275.6 278.9 279.4 279.4 280.6 281.3 279.4 279.7 278.5 273.7 270.1 266.4 265.6 262.6 258.3 253.7 250.2 243.4 234 226 239 248.2 260.2 271.5 283.2 292.7 301.2 311.4 319.1 324.8 330.3 337.4 341.6 346.2 348.7 349.1 344.5 338.9 332.3 327.2 323.5 321.2 319 316.5 311 291.9 267.2 271.4 285.1 303 312.8 326.4 336.9 338.1 329.9 318.3 310.4 306 274.1 251.1 230.1 213.8 201.9 193
150.8 148.5 149.3 147.6 145.2 143.9 142.9 143.2 143 144.7 147 149.6 150.8 153.1 152.7 151 150 141.1 131.2 130.1 131.1 137.1 143.4 145.1 138.7 132.9 119.6 111.8 110.9 112.5 117.8 123.7 124.9 126.4 126.8 128.5 131.6 133.8 141.5 148.9 150.6 151.2 150.5 147.2 151.9 156.9 164.7 174.9 181 182.2 182.2 184.8 188.9 193.7 198.5 204.8 209.8 213.8 214.5 216.4 215.6 223.9 230.2 233.4 233.5 233 232.8 230.6 232.9 238 245.7 255.6 260.4 260.4 260.1 258 256.6 256.5 256.3 254.9 255.6 254.9 253.4 251.1 247.8 242.2 235.2 226.8 217.4 209.5 202 194.3 187.8 181 172.1 166.5 159.9 154.7 153.1 147.3 139.3 144.5 150.1 156 166.6 174.8 181 185.7 188.2 191.9 197.5 197.1 197.7 199.5 203.3 209.7 215.1 218.3 219.2 221.1 222.9 226.2 233.4 241.4 248.3 253.2 257 257.4 256.1 258.5 260.1 261.9 265.9 262 263.5 265.3 265 268.5 270.2 271.3 272.2 272.4 271.3 269.8 268.4 265.3 263.3 259.6 256.1 253.5 249.6 246.6 243.2 236 221.5 225.2 233.9 241.5 251.3 262.1 271.1 279 285.1 292.6 306 314.9 323 330.3 336.8 341.5 345.2 345.7 342.8 337.6 331.5 327.4 325 322.5 320 316.6 312.9 306.3 287.7 251.9 267.2 295.9 311.9 324.8 333.2 334.5 324.4 313.4 303.5 294.2 270.1 248.6 230 219.4 208 195.5
144.9 141.7 142.6 140.3 137.2 135.8 135 135.2 134.6 136.7 139.4 139.5 140.2 139.9 139.1 138.2 137.2 129.6 128.8 115.4 126.3 128.5 130.4 128.2 126 120 107.1 114.6 121.3 125.3 127.1 128.7 129.6 131.6 133.1 133.8 134.6 135.7 139.9 141.8 142.6 142.8 143.9 148.1 153.5 163.2 174.4 181.1 187.7 192.2 191.3 190.7 192.9 198.1 202.6 207.3 210.9 214.8 219 220.4 223.6 226.4 231.8 234.8 239.3 239.5 241.2 240.9 239.5 241.7 246.5 253 259.7 260.7 260.1 255.2 254.1 252.8 252.3 251.5 251.5 251.2 250.3 248.1 245.9 241.4 234 226.6 218.8 212.1 205.4 197.8 191.8 184.9 176.8 167 159.4 153.9 146.1 145.7 138.1 142.4 150.3 157.9 169 177.4 183 187.7 190.5 192 193.7 196 194.4 193.6 195 199.5 205.1 211.5 212.7 214.9 217 218.9 221.9 229.6 236.8 243.8 247.1 247.6 244.9 247.1 249.4 250.5 251.8 253.9 253.3 254.9 256.2 258.8 260.7 262.3 263.5 262.9 261.6 261.5 260.6 258.7 255.3 251.8 246.7 245.1 241.7 239.1 233.4 222.2 213.7 221.9 228.3 236 246.3 253.4 261.3 268.5 275.2 282.6 291.3 305.2 315 323.3 332.3 338.6 342.5 343.5 341.6 337.8 332.4 328.2 326 323.3 320.4 317.7 315 310 289.8 259.3 251.6 285.1 308.3 318.2 323.6 325.9 319.1 310.4 301.6 289.3 269.3 252.9 236.5 221 210 196
138.4 136.2 136.6 134.3 131 129 127.8 128 128 128.1 128.2 130.2 130.6 128.9 129.1 127.8 126.9 126.3 123.9 114.4 122.1 121.7 119.5 116.4 112.1 107.5 115.1 119.6 125.3 130.9 132.8 133.2 134.7 136.5 138.2 142 141.7 140 140.2 138.2 135.4 139 143.6 148.3 154.7 164.8 172.7 179.2 186.8 193.1 198.1 199.4 201.4 206.5 208.9 210 212.6 216.6 221.2 224.7 226 227.1 228.9 230.5 233.3 235.4 237.3 238.8 243.7 245.2 246.9 251 254.1 259.3 261.1 252.9 251.5 250 249 248.4 248.7 248.9 248.3 247.1 245.2 241.2 235.2 228.6 224.1 219.1 211.6 200.4 192.9 187.7 180.8 168.9 163.6 162.8 145.9 145.3 137.1 138.6 146.7 153.7 166.3 175.1 181.9 186.4 190.3 191.3 190.7 191.2 192.2 190.3 188.9 188.7 191.8 197 202.3 207.8 211.7 214 215.8 220 226.1 232.2 236.6 240.1 245.4 242.4 243.1 243.5 245.1 243 246.1 246.8 247.8 249.2 250.2 249.8 249.9 248.4 247.7 247.8 248.7 246.6 241.8 240.9 237.6 235.6 231.5 227.6 221.8 213 207.3 217.7 224.9 231.8 239.6 247.4 251.6 257.8 264.3 271.8 280.1 293.2 310 324.9 332.8 338.7 343.4 344.2 342.6 339.2 334.1 330 327 324.2 321.2 318.6 315.1 306.3 274.2 256 244 275.8 305.6 314.4 316.5 316.6 316 312.8 308.6 301 272.7 253.8 239 222.5 210.6 197.3
133.6 131.8 130.7 128.1 126.9 123.5 121.5 120.6 120.2 119.5 120.9 121.9 121.3 120.7 121 120.6 120.5 120.8 120.1 111.5 118.2 113.8 108.7 105.3 102.2 114.7 120.8 131.3 129.4 131.7 134.1 136 138.2 141.3 143.9 145.5 145.3 145.1 142.4 140.7 135.9 136.8 142.3 148.2 155.6 162.7 169.6 176.4 182.7 188.5 194.9 199.6 206.8 212.5 215.7 217 216.9 218.8 220.8 222.4 223.6 223.3 222.6 223.1 224.1 226.3 229 233.5 238.3 242.5 246.1 248.4 251.6 253.9 259.9 251.2 249.4 247.1 245.5 244.8 245.5 245.7 244.9 243.3 241.7 239.7 233.2 227.7 223.9 216.1 208.8 205 197.2 190.8 173.5 168.7 164.3 154 145.3 143.4 137.1 141.4 143 150.3 159 168.8 177.1 183.9 186.4 187.5 187.2 187.4 188 188.4 186.5 183.5 182.3 181.9 186.8 193.9 204.8 209.5 208.2 211.4 216.1 220.4 226.2 228.9 231.5 232.7 234.8 236.1 236.7 239.3 240.2 240.9 236.7 242.4 242.4 240.2 239.3 237 236.9 236.4 235.2 232.9 230.9 227.9 224.8 220.6 216.7 214.2 212.4 206 205.3 215.8 222.5 228.2 233.4 239.6 245.1 249.5 254.2 259.5 270.6 284.1 299.6 321.7 334.8 341.2 345 345.9 344.3 341.3 337.1 332.3 328.5 325.2 322 319.3 312.6 286.8 265.2 247 245.5 269.4 293.7 315.4 316.9 317 317 315.1 312.4 308 287.2 260.7 245.2 228.2 212.7 200.8
129.3 128 125.5 123 121.3 117.5 114.8 114 114.1 114.1 115.2 116.5 116.3 115.9 116.4 116.7 117 117.5 115.7 108 106.7 102.6 103.3 104.5 115.2 122.5 126.7 129.6 132.2 134.9 137.5 140.7 143.4 146.6 150.2 151.4 150.9 149.3 147.2 145.7 142.8 140.2 141.9 149.4 151.9 157.2 166.3 171.9 177.7 183.2 189.5 194.9 202.7 209.5 214.7 217.8 219.5 219.8 219.6 218.5 218.1 217.7 217.9 218.3 218.9 220.5 222.2 226.4 231.2 235.4 238.5 244.7 247.8 251 255 249.3 247.3 244.2 242.3 241 241.6 240 238.5 235.9 233.8 231.8 227.7 222.5 216.8 210.3 206 199.5 196.7 185.5 170.8 168.6 164.8 147.7 144.9 138.7 137 139.9 141.3 151.1 149.2 158.7 167.2 174.2 180.8 182.8 183.1 183.5 183.7 184 180.7 178.7 176 171.6 174.2 178.1 192.4 201.8 204.3 207.3 210.4 211.9 214.5 219.2 223 224.6 227.3 228.6 230.1 232.4 234.5 235.6 236.1 235.9 235 233.7 233.4 231.4 232.3 230.3 228.7 228.4 224.2 221.1 217.4 214.6 210.9 208.1 205.4 202 206.7 213.2 219 224.8 229.3 233.1 237.2 242.8 246.8 253.2 263 275 287.6 304.6 319.9 333.5 346.5 349 346.8 345.2 341.6 336.5 331.1 327.2 323.7 318.7 303.3 277.8 257.8 242.4 239.1 260.1 282.5 304.7 317.3 316.5 316.2 316.8 314.7 311.7 298.3 268.5 250.2 230.6 217.4 203.4
126.6 124.1 120.8 118.2 116.1 113.8 110 109.8 109.8 110.2 111.5 112 112.6 113.1 114.2 114.2 112.7 111 109.3 104.6 100.9 102.1 110.4 116.8 120.6 126.3 129.2 132 134.9 137.7 142.4 146.4 151.1 154.7 157.4 157.2 155.8 154.2 153.2 151.4 147.9 148.2 141.3 141.2 147.8 153.3 157.8 157.2 168.4 175.1 182.7 187.7 193.9 197.7 205.6 209 214.7 216.9 216.6 215.6 214.9 214.8 215.1 215.8 217 218 218.9 219.5 223.2 226.3 234.7 240.2 243.7 245.8 247.6 246.3 244.5 241.4 239.2 237.6 237.7 235.4 233.6 231.8 228.6 221.7 205 206.3 206.3 200.6 197.1 196.6 196.2 185 171 168.5 165.2 144.8 144.2 141.1 136.2 138.2 140.3 145.5 152.2 151.2 157 164.1 171.4 178.5 179.4 178.5 177.3 177.1 174 170.8 168.8 167 163.4 168.7 177.1 188.7 198.5 206.3 210.6 211.1 211.7 212.4 214.3 216.9 219.6 221.3 223.3 226.8 228.5 227.8 234.1 227.7 227.8 229.8 230.1 226.4 225.1 224.6 225.2 222.3 220.4 218.2 214.5 210.9 207.6 203.1 200.4 200.5 210.5 211.8 216.3 220.9 225.3 228.2 231.6 234.6 241.8 247.1 253.8 266.6 278.6 290 304 320.2 337.8 349.1 347.8 347.2 345.1 340.3 334.8 331.2 327.1 320.7 303.2 274.2 253.6 236.9 230.5 253.4 270.9 285.6 309.7 314.1 313.2 314.7 315.5 313.1 305 274.9 255.5 238.4 223.2 208.7
125.9 125.6 119.2 114.8 112.4 110.6 106.7 105.3 105.2 105.6 107.7 107.4 107.8 108.6 108.5 107.4 105.5 102.3 99.2 99.7 98.7 105.3 111.8 120.8 126.6 128.9 131.7 135 137.9 141.3 147 152.2 157.7 162.3 164.8 164.9 163.4 163.1 161.4 157.3 153.6 155.3 144.7 142.4 143.4 147.4 152.2 156 160.1 165.1 171.3 176.6 182 186.2 192.2 197.6 201.2 190.1 206.4 209.1 209.6 209.6 210.7 212.2 214.3 215.4 215.2 214.9 216.8 222.7 229.7 235.2 239.3 242 243.8 243.9 241.6 239 236.6 234.4 233.1 230.4 229.4 227.6 225.2 205.8 203.7 201.6 197.2 196.1 195.9 195.7 195.2 182.4 169.5 167.9 166 144.8 144.4 141.8 134.7 137.5 139.9 140.7 152.9 152.8 152.2 153.4 161.5 167.9 170.2 169.4 166 166.2 163.5 161 159.5 157.9 157.9 163 171.6 181.2 189.1 197.1 204.1 208.8 206.9 203.9 207.7 210.7 212.7 215 217.8 219.7 221.8 221.7 221.7 221.2 220.8 221.3 221 220.5 219.3 219.1 218.6 217 215.8 214.1 211.4 207.6 204.3 200.2 195.5 205.1 222.1 224.6 214.5 216.7 220.7 224.3 227.3 231 235.8 242 247.8 256.8 269 280.1 291.4 304.6 320.9 336.9 348.7 349 347.6 343.4 339.3 335.9 331.6 323.3 300.5 274.1 252.4 234.5 230.4 243.8 258.5 272 292.7 309.5 310.5 311.4 312.6 311.9 307.1 289.4 262.8 246.9 229.6 213
121.3 119.5 116.4 112.1 108.8 106 102.1 99.6 99.2 100.1 99.2 94 92.4 93.8 94.7 95.1 95.7 96.9 95.3 98.7 102.5 113.1 118 124.5 129.5 132.7 135 138.3 141.3 145 149.1 154.5 161.8 167 170.9 172.8 172.5 169.3 166.6 160.9 158 155.1 153.2 153.4 148.8 146.3 147.6 151.5 153.6 158.1 163.1 168.2 171 169 174.5 177 172.3 186.5 189.5 191.9 194.5 199.6 203.6 206.9 209.5 210.7 210.5 209.6 212.7 219.9 226 230.9 235.4 237.7 239 240.7 240.2 236.3 233.9 231.6 228.5 225.9 225 223.1 220.8 214.4 206.3 203.5 196.2 195.6 195.2 195.3 186.6 175.2 169.4 167.4 157.2 144.5 144.6 144.4 134 136.5 138.8 138.7 151.4 153.8 153.7 154 153.5 153.5 155.1 154.7 153.4 153.7 155.6 155.7 156.2 156.3 157 159.8 166.1 173.7 182 188.4 195.3 200.4 196.5 198.4 201.1 204.7 206.7 208.8 211.5 213.8 215.6 214.8 215.3 214.6 214 214.1 214.6 214.7 214 213.2 212.4 211.5 210.9 209.6 207.1 204.4 201.2 196.6 188.8 208.1 228.5 229.3 225.6 212.3 215.3 218.5 221.3 226.1 230.3 236.6 243.2 251.5 260.2 270 282 293.2 305.2 319.4 336 351.3 349.8 346.4 343.3 340.5 336.6 328.6 307.5 275.3 250.9 234.5 224.5 233.7 245 258.7 272.7 292.8 306.6 309.2 309.9 310.6 307 296.7 270.3 254.4 238.3 221.2
116.8 112.9 112.1 108.9 104.8 99 94.8 92.5 91.2 92.5 90.9 90.2 91.2 92 93 92 95.1 96.3 103.5 105.9 109.4 117.2 124.3 130.8 132.8 136.5 138.9 142.9 147.6 149.4 151 156.2 163.8 170.6 175.5 180.1 180.6 178.9 173.6 165.7 163.1 161 165.7 163.4 158.3 154.5 153.6 153.3 153.3 160.5 156.6 159.4 165.6 166.6 169.4 173.5 170.9 178.5 181.6 184.4 188.3 192 195.4 199.1 200.1 199.9 200.4 201.4 207.7 214.9 222.1 228.3 232 233.9 236.9 238.3 238.7 235 233.1 228.8 225.6 223.7 221.2 217.2 216.3 213.3 209.3 204.4 194.7 194.9 194.7 189 178.8 171.4 167 166 153 144.8 144.7 144.3 141.1 135.2 137.1 143.4 148.2 153.3 154.4 154.7 154.8 153.7 156 156.6 156.9 156.7 156.9 156.7 156.9 154.3 159.6 160.1 160 169 176.2 185 189 190.5 191.9 193.4 195.5 198.7 200.6 202.6 204.5 206.7 209 208.4 208.5 207.5 207.3 206.8 208.2 208 208.6 207.8 207.2 207 206.4 205.4 203.4 201.9 197.3 193.7 189.1 208.8 227.7 227.4 226.2 213.2 210.4 213.3 218.7 220.8 225.1 231.6 238.3 245.4 253.4 263 271.2 283.4 294.6 305.9 319.3 338.6 352.9 351.5 348.4 345.3 343.7 330.7 305.5 276.9 251.6 234.9 222.2 225.6 233.6 246.3 260.2 275.3 294.6 306.9 307.6 307.1 305.1 299.5 283.5 262.2 245.4 230.5
111 105.2 103.7 101.3 96.3 92 88.6 86.2 87 85.1 86.3 91.4 95.3 97.6 97.9 98.3 99.2 102.7 115 115.4 113.1 122.4 131.5 138.9 142.1 145.3 147.2 152 156.5 158.4 158.3 161.2 166.6 173.1 179.2 185.6 190.5 190 182.9 177.7 169.6 164.7 170.6 170.3 166.8 163.3 162.7 162.2 162.1 161.4 160.2 161.4 162.2 163.2 164.9 167.8 170.6 174.4 176.4 178.8 183.5 186 188.5 189.7 191.4 192.4 191.7 197.2 203.3 209.5 217.3 223.5 227.6 230.9 234.3 236.7 235.9 234.6 233.4 229.4 225.7 222.2 219.4 215.8 214.6 210.8 207.5 201.3 192.9 193 186.8 178.4 173.9 171 167.1 166.2 152 144.9 145 144.5 144.9 135.3 135.5 136.8 143.9 147.4 155.2 155.2 155.3 154.8 156.4 157 156.9 156.8 156.8 157.4 155.4 152.7 159.6 159.6 159.7 163.3 169.8 177.1 183.2 184.9 187.3 188.9 190.5 192.7 194.5 196.2 197.9 199.7 201.7 201.5 201.8 202.4 201.9 202.6 203.1 203.1 203 203.1 202.8 203.3 203 202.3 200.6 198.4 195.3 193.4 188.8 208.5 225.3 224.3 222 208.2 206.7 210.2 214.2 217.7 221.7 226 233.4 240.4 248.2 257.1 265.3 275 286 297.7 309.1 323.5 341.2 354.9 352.7 349.9 347.1 328.3 298.5 272.2 251.9 234.8 219.4 222.3 228.7 235.1 247.2 261.1 277.1 293.1 304.1 304.8 303.2 300.8 291.9 268.4 251.5 237.4
104.1 98.5 95.8 92 88 85.2 84.3 86 87 91.8 101.6 111.1 116.4 119.8 122.8 122.4 127 128.5 127 129.9 125 119.5 135.8 146.9 153.3 157 158.6 162.5 170.2 173.3 173.5 176.9 176.4 181.2 187.5 195.7 202.1 204.6 197.9 185.9 179.6 175.7 173 180.1 177.6 173.8 172.7 172.2 171.5 170.5 169 165 166.6 167.2 169.9 172 172.3 172.1 174.5 176.5 177.4 178.7 182.1 187.2 190 193.3 196.9 200.8 203.2 207 215.1 222.9 226.7 229.8 232.7 234.5 234.3 233 232.4 229.9 227.2 224.3 221.1 216.2 211.7 206.3 203.3 199.4 193.5 189.8 186.8 180.5 175 171.1 167.3 166.1 159.5 145.4 145.2 145.3 145.6 144.6 133 135.6 137.2 147.9 154.8 155.5 155.7 155.9 156.8 155.7 156.8 157.1 157.2 157.1 149.7 158.2 159.1 159.1 159.1 158.8 164.1 169.8 175.9 177.7 180.3 183 185.9 188.1 189.3 190.4 192 193.9 194.9 195.7 196 196.2 196.6 197.4 198.2 198.5 198.5 198.8 199.8 200.2 199.7 199.4 198.4 196.1 194.7 194.1 189.7 207.3 222.9 221.6 209.4 201.4 203.6 206.8 210.3 214.8 219.4 224 228 235.1 243.4 252 259.7 268.9 278.6 290.3 302.5 314.9 331.4 350.9 353.9 350.6 338.8 317.1 295.4 274.8 253.4 236.5 220.4 215.6 224.1 228.7 236.9 249.5 261.1 277.5 295.7 302 301.9 299.1 292.5 269.5 251 239.2
99.8 92.2 88.5 85.2 83.3 80.1 89.2 102.4 111.6 116.7 123.5 129.6 132.2 135.6 136.6 133.3 142.6 148.7 151.8 150 145.4 133.4 128.6 150.4 164.3 171.7 172.7 175.8 184.4 188.8 190.9 190.7 189 192.7 200.8 209.3 214.1 216.3 212.6 198 189.9 183.8 182.8 191.5 190.4 188 187.2 186.2 185.4 183.7 179.8 174.2 173.9 174.5 176.1 179.3 180.8 182.1 183.6 185.9 187.3 188.8 189.9 184 197.4 201.2 205.1 208.9 212.6 214.2 213.5 224 227 229.8 231 232.8 232.6 232 231.3 229.9 229.7 228.1 228.3 223 214.8 205.6 199.6 194.9 191.7 187.1 184.7 179.1 174.7 171 167.6 164.3 161 145 145 144.7 144.9 144.6 127.5 133.9 135.2 139 154.2 154.8 155 155 155 154.4 152.1 149.8 148.3 145.9 147.5 157.3 158.7 158.6 158.4 158.5 158.1 164 168.7 171.5 174.6 179 182.2 183.8 185.2 186.5 187.5 185.4 188.7 189.7 190.1 191.1 192 192.6 193.2 193.8 194.2 195.6 196.8 197.1 196.8 196.4 194.7 190.5 193.6 185.9 190.8 205.7 220.6 216.3 199.4 198.5 200.2 203 205.7 210 215 219.7 224.1 229.2 239 248.1 256.7 265.3 274.3 285.1 297.3 311 327.4 344.9 353.9 351 329.2 314.5 293.2 274.2 260.4 236.4 219.6 217 212.6 222 227.9 238.3 247.8 263.3 280.1 293.9 298.5 296.8 290.7 272 250.8 238.6
