ncols 200
nrows 98
xllcorner 260000
yllcorner 293800
cellsize 50
68.3 73.9 79.9 86.8 96 103.6 102.1 107.2 112.8 124.1 138.8 158.1 168 163 146.8 128.5 114.7 109.3 112.9 119 126.6 136.8 140.1 144.4 151.2 158 164.2 170.7 173.5 175.4 177.9 179.8 183.5 190.3 187.9 175.9 154.6 133.8 110.8 90.6 80.9 76.5 73.4 64.8 50 71.2 75.7 72.5 68.4 61.9 58.3 57.5 58.9 61.4 62.5 63.3 67 73.5 82.1 88 84.9 85.4 83.7 82.1 81.3 81.7 83.7 81.9 80.6 80.9 76.1 69.8 67.3 67.8 84.4 100.9 118.5 118.8 106.4 99.8 98.6 99.6 102.6 116.3 133.4 137.1 127.7 121.2 118.1 118.3 125.3 132.2 141.4 154 164.6 169.8 176.3 188 196.5 204 209.2 217.3 222.1 218.5 214 212.4 212.9 219.3 228.4 240.8 246.8 248.5 252.8 254.6 253.1 251.3 241.5 233.7 230.8 223.9 211.5 204 196.1 183.1 167.3 150.5 130.2 122.9 116.4 112.7 111.1 109.4 110.4 107.7 107.7 98.7 96.4 99.2 90.2 82 74.1 70.6 64.4 60.6 57.3 53.2 53.1 56.3 59.6 58.4 56.7 49 41.3 20 10.5 5 4.8 4.5 4.3 4.3 4.2 4.1 3.4 3.4 3.2 4.5 14.7 20.1 27 28.8 22.2 21.6 29.7 34.5 33.8 19.6 12.4 5.4 4.4 2.8 2.5 2.8 2.2 2.2 2.1 0.5 -1.1 -1.1 2.7 2.8 2.9 -1.1 -1.1 -1.1 -1.1 -1.1 3.3 3.8 3.9 3.9
69.8 75.2 82.4 90.1 95.5 98.1 100.5 105.2 117 128 143.1 156.1 163.2 159.8 145.8 129.4 117.4 110.9 112.2 116.5 124 128.9 131.7 139.2 152.3 156.3 162.1 169.7 170.9 168.2 173.1 174.8 177 178.4 179 171.9 161.9 142.6 119.4 95.9 87.6 87.4 84.2 77.1 48.3 53.2 53.8 51.8 51.9 52.6 53.9 55.4 57.3 58.8 60.1 60.9 62.7 64.8 66.6 66.7 66.1 65.5 65.4 65.8 66.1 65.3 64.4 64.5 65.6 65.3 66.3 75 93.6 102.7 110.9 117.9 118.6 108.5 101.8 95.2 94.5 95.5 105.6 115.8 126.2 114.6 111.8 112.8 113.2 117.4 123.3 132.2 141.9 151.1 163.6 170 180.6 190 200.7 211.1 212.6 213.9 223.9 226.2 223.8 219.7 228.2 231.9 232.5 244.3 247.6 249.2 252.3 248 246.8 243.5 239.9 239.5 233 220.5 210.8 203.1 192.3 176.7 162.2 139.2 126.9 118.4 115 113.5 114 119.2 129.3 123.8 120.4 108.7 99.7 95.4 86 79.3 74 68 64.5 63.7 60.7 56.8 55.5 51 47.3 43.9 33.7 19.7 20.5 10.3 4.5 4.4 4.4 4.3 4.1 4.2 4.9 4.1 3.7 2.8 3.8 7.4 16 24.9 29.4 25.8 18.9 21.8 29.4 33.8 27.9 17.5 9 4 3.7 2.7 2.4 2.8 3 2.3 2 3.2 -1.1 -1.1 2.6 2.6 2.9 3 3.1 2.9 3 3.3 3.7 3.7 3.8 3.7
75.4 84.5 89.5 94.1 98.9 98.9 100.3 107.4 116.7 127.8 144 153.8 159.7 158 143.8 127.8 114.9 111.4 111.4 123 120.3 122.5 129.1 136.4 144.8 150.3 154.1 156.8 159.7 164 167.9 170.2 171.6 171.2 174.4 169.8 164.9 150.1 129.7 107.3 96.3 92.3 84.1 72.4 54.6 51 50.6 51.4 51.4 52.3 53.4 54.9 55.8 57 58 58.3 58.8 58.3 58.4 58.1 58.8 59.3 59.8 60.4 61.1 61.7 62.1 62.7 63.2 63 69.4 90.8 101.2 104.6 114.4 107.2 101.6 96.2 89.6 89.3 88.9 93.7 107.4 111.8 107.2 103.5 106 107.2 116 125 135.7 147.7 156.8 165.5 172.5 180.2 186.2 196 207.2 215.9 219.6 229.6 235.2 230.3 223.1 224.6 227 229.3 231.9 237 239.2 238.8 239.2 239 238.4 242.3 237.8 228.4 218.6 215.8 207.6 200.4 188.5 174.4 154.2 132.2 121.5 117.9 116.4 121.9 134.1 140.1 143.3 131.2 126.2 120.9 119.3 114.6 110.6 105.7 99.2 93.6 89.7 86.6 85.7 82.4 81.2 77.6 74.5 70.6 54.6 38.4 16.4 5.4 4.1 3.6 3.7 3.9 4 4.3 8.4 4.1 2.7 2.7 2.7 9.8 15.7 26 28.4 20.8 18 22.4 33.8 33.9 22 12.5 7.7 4.2 3.2 2.4 2.6 2.8 3 2.7 3.8 3 -1.1 -1.1 2.4 2.3 2.6 2.9 3 2.9 2.8 3.1 3.5 3.7 3.6 1.9
76.8 83.5 88.5 91.8 94.3 96.3 99.3 107 115.8 127.4 138.3 149.7 152.8 146.9 135.5 122.6 113.9 113.9 121.3 120.5 111 116.3 126.5 130.9 135.2 141.7 146.7 145.8 151.3 156 151.7 151.4 157.7 160.6 164.4 159.4 154.2 145.3 131.4 117.7 102.4 91.3 79.2 64.5 55.2 51.7 51.2 51.7 51.4 52.2 53.2 54.2 54.8 55.6 56.4 57 56.7 56.5 56.2 57 57.5 58.1 58.9 59.6 60.3 60.6 60.9 61.4 62.6 63.1 68.6 77.6 81.9 82.6 85.5 82.5 80.2 80.4 82.7 84.1 84.4 93.2 102.4 99.5 94.3 94.8 101.2 111.1 123.3 136.1 143.2 158.6 172 180.5 182.6 186.9 195.2 212.4 221.6 225.2 233 239.4 243.5 229.2 217.7 216.2 216.8 215 225.2 224.7 224.8 229.4 230.5 234.3 237.4 233.2 226.8 220.1 216 210.8 203 194.7 183.2 164.1 141.1 129.5 125.1 131.5 144.5 154 159.9 159.5 148.7 144.5 138.2 136.1 135.4 134.1 131.4 128.8 125.8 121.2 117.3 114.5 113.2 109.5 106.8 102.1 84.9 65.2 48 34.4 13.5 4.1 3.8 3.4 3.5 3.6 3.3 11.8 11.3 3.1 2.8 2.8 2.6 12.8 20 25.2 26.5 17.6 19.4 25.6 31.6 32.5 19.4 13.3 8.1 3.3 2.9 2.5 2.7 2.9 2.7 2.4 3 2.5 -1.1 -1.1 -1.1 -1.1 2.2 2.5 2.8 2.7 2.9 3.1 3.4 3.6 2.1 2.8
76.6 81.9 85.6 88.3 90.9 94.7 98.6 104.5 111.3 118.7 129.2 137.5 142.4 137.2 126.1 117.5 110 114 110.2 100 101.8 105.7 114.4 123 129.9 132.2 132.7 129.3 134.9 139.2 132.2 136.7 148.6 142.5 144.9 132.2 126.9 121.5 118.5 106.3 94.4 78.5 68.7 60.5 55.3 52.5 51.6 51.5 51.8 52.3 52.9 53.4 53.9 54.4 55 55.7 55.4 55.5 55.8 56.3 57.1 57.7 58.4 59 59.7 60.1 60.5 60.7 62 62.6 63.3 65.3 66.8 68.1 68.6 68.8 70 73.4 77.5 79.5 82.8 91.4 86.9 88 92 102.1 116.4 129.9 143.9 160 174.2 183.2 195.7 206.5 210.6 215.6 220.6 226.1 231.2 241.6 243.5 239.5 238.9 227.3 218 215.6 214.3 213.3 219 218.2 219.2 224 228.9 224.4 226.3 222.8 219.4 214.6 210.4 205.3 197.2 187.2 172.6 154.4 144.1 134.4 143.9 160.2 173.6 179.3 177.6 167.9 158.5 153.3 150.5 152.4 153.8 153.2 152.2 150.6 148.8 146.7 143 140.5 137.7 129.1 117.8 107.1 85.9 55.9 38.7 26.9 4.5 3.3 3.7 3.4 3.2 3.4 4.6 14.6 5.1 2.1 2.8 2.7 4.8 14.5 21.3 23 21 18.9 20 27.1 32.1 28.9 17.4 15.6 5.7 3.1 2.8 2.7 2.7 2.6 2.4 2.2 3.1 2.7 -1.1 -1.1 2.8 -1.1 -1.1 -1.1 -1.1 2 3.3 3.3 3.5 2.1 3 3.6
73.9 77.2 78.1 82.8 85.4 89.1 93.7 97.1 102.6 112 121.9 127.6 128.8 124.5 114.7 107.9 99 98.4 90.4 90.9 92.5 94.2 101 115.2 118.9 112.9 113.7 115 119.4 121.8 111.4 120.2 127.4 116.4 112.5 104.5 99.8 97.5 98.7 93.8 89 78.8 72.1 64.9 59.1 54.4 52.4 51.8 51.6 52.2 52.7 52.7 53.5 53.9 54.1 54.4 54.5 55.1 55.7 56.2 56.8 57.4 57.9 58.5 59.2 59.7 60.1 60 60.9 61.9 62.8 64.3 64.6 65.7 66.4 67.5 69.3 71.5 74.3 77.6 79.7 81.1 86.2 92.2 103.8 127 147 163.4 176.5 190.8 199.6 216.3 230.6 241.2 245.8 247.6 248.7 245.6 245 245.1 244.7 242.5 237.3 231.8 220.6 217.7 214.8 212.9 213.2 213.6 215.5 220.8 219.5 217.2 217.2 215.3 211.8 208.5 203.9 197.5 189.2 179.1 169.5 164.9 157.5 148.3 160.4 176.2 191.9 187.6 183.9 170 161 164.7 165.9 168.6 170.1 174.3 174.6 172.6 173.7 174 165.1 156 137.3 121.7 107.7 94.4 74 49.7 28.9 11.2 2.9 2 2.5 3.2 3.1 2.8 6.9 5 3.2 2.1 2.3 2.5 5.9 15.9 18.9 20.9 19 18.9 18.3 30.2 29.8 20.9 16.4 8.3 4.6 3.1 2.5 2.4 2.3 2.5 2.3 2.1 2.7 2.5 -1.1 -1.1 3.1 3.1 2.9 -1.1 2.9 3.2 3.4 3.2 2.2 2.9 3.8 4
65.4 68.4 71.8 75.1 79.2 83.6 90.8 94.3 97.8 105.8 112.7 119.5 118.5 115.4 111.7 102.8 95.2 84.9 80.7 83.6 82.9 83.8 84.3 89.1 93.2 91 91.2 95.5 98.9 96 90.7 91.2 92.2 93.1 93.6 93.3 93.6 99.4 95 99.2 106.8 96.9 86.5 75.6 67.7 61.3 56.9 54.1 52.9 52.8 52.8 52.4 52.8 52.6 54 54.6 54.9 55.4 56 56.4 56.7 56.8 57.4 58.2 58.7 59.3 59.5 59.4 60.8 61.9 62.6 63.4 64.3 65.5 66.7 69.4 71.8 74 75.8 78.8 83.6 87.4 95.5 98.8 113 137.4 161.9 180 202.1 217.8 219.4 221.8 234.6 251.4 259.4 262.5 263.6 268 269.2 265.7 256.1 246.8 241.2 236.6 221.2 215.2 210.9 212.8 213.1 209.8 208.5 211.4 208.5 210.8 209.7 206.7 203.9 200.6 195.2 188 182 182.5 173.9 167.5 163.8 166.1 173.2 184 194 192.1 179.2 175.3 172.5 177 176 178.9 187.6 191.8 193.1 191 191.6 185.8 170.2 146.9 125.8 108.8 95.3 80.7 61.7 40 22.4 4 1 2.5 1.1 1.8 2.8 2.6 7 2.4 2.1 2.1 1.7 2.6 6.4 15.5 18.4 21 16.1 16.7 23 33.2 26 18.7 14.9 5.2 5.3 4.6 3.3 2.5 2.3 2.3 2.1 2.8 2.5 2.3 -1.1 -1.1 3.2 2.9 3 3.3 2.9 3.2 3.4 3.3 2.9 3.8 4.4 4.3
61.9 65.8 69.3 73.1 78 80.6 86.7 95.4 95.6 99.8 112.5 114.5 109.7 108.5 101.9 91 80 67.9 64.4 66.4 66 69.1 70.3 71.4 70.4 67.7 69.9 72 70.5 70.2 76.1 84.8 93.9 92.2 92.7 91.9 92.1 92.2 93.9 101.6 105.5 103 99.4 89.6 84.9 80.6 73.6 67.1 63.7 61.7 60.4 59.3 58.9 56.1 55.1 54.5 54.9 53.7 54.6 55.9 56.4 56.5 57.3 58.1 58.4 58.3 58.4 60.3 60.8 61.7 62.5 63.3 64.6 66.6 69.3 72.7 77.5 83 88.3 91.5 96.2 97 108.7 115.9 118.3 140.7 167.4 184.5 202.5 218.7 219.9 225.7 234.9 245.2 254.1 260.8 263.7 270.9 278.6 275 263 247.4 241.4 233.7 216.9 212.1 210.4 215.7 212.8 205.1 203 200.4 201.5 201.8 201 197.9 194.5 189.9 184.5 180.3 184.6 178.7 178.2 177.8 179 176.8 177.3 191.9 189.9 184.2 171.9 174.2 179.5 180.3 183.2 191.1 199.8 199.3 198.1 195.2 184.8 182.2 160.5 135.6 114.8 97.6 81.6 66.6 48.9 29.6 13.2 3.3 2.4 3.3 3.2 2.7 2.3 5.3 3.8 2 2.2 2.1 1.8 1.4 7.6 16.2 17.3 13.3 14.9 19.2 27.9 32.6 26 17.5 5.5 5.2 10.8 6.5 3.3 2.4 2.1 2.3 2.2 2.6 2.7 -1.1 -1.1 -1.1 2.9 2.9 3.5 3.5 3.1 3.2 3.2 2.5 3.5 4.4 4.6 4.4
57.6 58.9 60.6 65 68.9 74.2 82 83.8 85.1 96 98.1 96.6 91 88.5 80.7 68.5 58.7 50.6 45 49.9 47 45.2 44.8 43.9 42.8 47.1 49.3 51.1 53.7 59.7 80.7 87.7 83.3 86.6 91.8 87.7 88.4 90.6 97.2 105.5 105.5 109.2 119.3 119.6 113.3 107 100.2 94.8 88.5 83.4 80.1 77.4 75.4 71.5 67.6 65.2 63.8 61.9 60.7 59.9 60.5 60.5 61.6 59.9 64.4 65.7 64.9 64.1 63.6 63.8 64.8 66.2 67.1 70.1 76.1 87.2 94.6 97.8 100 103.5 108.1 110.1 123 128.6 129.4 143.2 165.5 180.8 194 206.1 225.7 231.5 236.5 243 252.6 261.6 267.3 268.5 270.7 271.2 263.5 245 235.9 226.4 219.7 211.3 209.9 207.8 204.5 202.7 200.6 196.1 194.4 192.6 190.2 187.3 183.4 177.2 176.6 177.7 176.3 189.9 188.2 179.5 186.4 187 173 181.6 186.6 170.7 176.7 179.6 186.6 185.2 193.2 201.4 197.8 200 192 190.1 182.8 170.6 147.5 123.6 100.8 82.5 66.4 52.1 33.3 20.3 4.2 3.1 3.1 3.7 3.4 2.4 2.3 1.8 2.2 2.5 2.3 2.5 1.5 2.7 5.7 12.1 10.9 10.6 17.1 20.6 29 27.3 28.3 9.3 5.5 11.9 13.8 7.8 3.1 2.5 2.3 2.1 3.2 2.7 -1.1 -1.1 -1.1 -1.1 2.8 3.2 4.4 3.7 3.2 3.3 2.8 3.1 4.1 4.6 4.4 4.1
52.5 52.7 55.7 61.3 65.1 73.4 74.8 74.8 78.7 85.3 81.6 76.2 70.5 65.8 56.3 47.6 42.7 34 32.4 32.5 32.9 32.6 33 34.8 36.9 38.6 40 41.8 46.6 54.4 66.6 71.8 69.9 76.4 79.7 81 82.5 86.2 92.5 102.6 106.6 121.8 130.5 135.4 132.4 125.6 118.6 113.4 108.8 104.5 100.9 97.3 94.4 91.7 87.8 86.3 84.5 82.5 80.7 78.2 77.9 76.7 76.4 76.7 75.8 75.5 73 70.6 69.2 69.1 69.9 71 73.4 81.8 92.2 101.7 106.8 107.2 109.8 114 119.2 125.1 133.1 141.9 146 145.6 160 182.2 198.5 218 234.8 238.9 240.6 244.2 258.7 262.8 266.1 264.7 265.1 267.8 257.7 240.9 232 230.3 220.2 212.5 204.9 200.2 197.8 198.4 197.1 191.1 185.1 181.9 178.8 173.9 170 170 168.4 170.3 187.3 187.9 186.6 186 197.9 182.1 166 165.7 169.5 166.8 181.9 181.3 188.4 189 196.3 196.4 197.4 191.2 183.4 179.5 173.4 155.6 135 112.2 88.2 67.7 49.8 38.2 21.9 14.6 3.6 3.1 2.8 3 3 2 1.8 1.8 2.8 2.6 2.5 2.9 1.2 2.4 7.4 11.3 6.3 12.6 17.2 20.9 24.4 32.1 18.1 5.1 7 26.4 14.8 8 3.2 2.7 2.4 2.9 2.9 3.1 -1.1 2.3 -1.1 -1.1 3 3.9 3.9 3.8 3.4 3.6 3.2 3.6 4.5 4.3 4.1 3.9
45.1 48.3 51.9 55.2 60.8 65.5 66.6 65.4 68.7 62.6 58.7 55 47.8 40 34.8 30.6 28.1 27.6 28.5 29.3 29.6 31 32.1 33.3 34.6 35.8 38.4 45.5 52.3 54.1 61.1 69.1 77.6 78.1 78.4 78 78.4 81.6 88.5 95.4 103.5 113.4 128.4 136.9 137.6 135.6 130.1 124.1 118.7 116.7 117.5 113 110.8 109 107.6 106.1 104.7 103.3 100.7 98.1 97.4 95.9 93.6 92.2 90.4 88.2 82.4 80.3 77.9 77.2 77.1 78.5 84.2 93.6 101.6 109 114.4 116.2 120.2 127.6 139.8 145.9 147.4 156 162.4 166.4 165.8 184.4 204.5 219.5 241.6 249 243.8 244.3 250.4 259.6 260.2 262.4 259.4 257.1 252.8 240.1 228.6 227.4 217.9 211.4 204.8 196.9 191.9 193.2 189.5 182.7 173.5 168.2 163.4 160.4 159.1 160.6 167.2 185.3 186.3 185.7 181.9 193.1 186.1 168.2 150.5 155.4 158.1 165.2 175.3 184.6 190.8 189.5 193.1 191.9 188 179.1 170.2 166.2 156.1 139.5 121.6 99.8 76.3 53.2 33.4 19.7 17.6 8.3 3.5 3.3 3.4 2.4 2.2 2.4 1.9 2.5 2.7 2.4 2.5 2.6 1.8 2.7 9.8 6.9 4.4 13 17.7 20.2 23.4 22 4.7 4.6 26.6 18.3 14.5 12.1 3.1 2.7 3.7 2.6 2.9 3 -1.1 2.3 -1.1 -1.1 -1.1 3.2 3.6 3.7 3.6 2.7 2.9 4 4.1 4 3.9 3.8
41 43.7 45.2 46.9 50.4 53.6 52.8 50.2 43.8 34.8 31.2 30.6 27.5 26.3 24.4 24.8 24.9 26.1 27.3 28.4 29.9 31 32.5 34.3 35.6 36.8 39.5 46.1 56.8 58.1 63 73.8 77.3 84.2 77.9 74.7 77.3 82.5 90.1 101.5 117.7 133.1 141.6 148 146.6 144.9 141.3 136.5 132.6 128.5 127.1 127.6 126.1 125 126.7 125.2 123.8 120.7 117.9 117.5 115.2 115.5 114.5 112.3 107.9 101.5 95.1 93.9 92.5 89.2 89.1 92.1 97.7 106.4 114.1 119.6 123.9 128.4 134.9 148.7 156.5 163.5 167.8 171.5 180.1 191.2 187.9 188.2 205.2 223.8 241.4 252.9 250.3 246.8 256.4 262.8 260.7 257.4 252.5 247.9 246.6 240.3 228 222.3 211.3 206.2 198.8 191 184.9 183.9 180.3 173.4 162.9 157.2 154.4 153.5 153.9 165.2 173.2 184.5 188.1 172.9 178.8 181.3 169.9 157.4 147.9 155.2 159.9 170 184.4 186.8 187.5 188.4 183.5 183.1 175.9 163.2 155.9 150.7 141 124.9 108.1 87.8 63.7 41.1 19.9 15.3 11.8 3.2 3.3 3 2.8 1.5 3 2.6 2.7 2.8 2.8 2.6 2.5 2.1 1.9 4.8 6.7 4.4 8.4 14.2 18.8 18.7 19.7 4 4.2 14.6 23.7 17.7 16.4 6.3 2 3.7 2.7 2.7 2.8 2.8 -1.1 -1.1 2.6 -1.1 -1.1 2.6 3.5 3.7 3.6 2.9 3.2 3.6 3.9 3.9 3.8 3.8
31.7 33.3 33.2 34.1 35.6 34 34.4 27.9 22.3 21.2 21.4 22.6 22.7 22.7 23.7 24.7 25.8 27.9 28.9 31.9 32.8 33.4 35 36.9 42.1 41.8 39.7 44.1 45.3 52.5 62.2 64.8 66.7 67.4 72.2 75.4 77.3 84.8 96.6 114.2 130.1 138.1 143.2 147.6 146.9 148.2 150 147.2 146.7 145 140.5 140.2 140.1 142.3 144.9 144.2 140 140.5 141.4 140.1 139.1 139 137.4 133.4 129 121.2 113.9 109.1 107.7 104.1 103.5 107.5 115.5 122.2 129.8 136.6 140 145.8 158.2 169.2 175.3 186.1 193.9 196.1 195.4 199.5 198.5 197.5 205.3 222.8 240.6 252.9 254.7 247.9 251.6 260.7 258.2 251.9 248.1 244.6 247.6 242.4 227 215.9 207.9 201.4 191.2 184.1 179 174.4 169 160.4 155 150.9 150.8 148.8 154.9 166.1 165.4 172 172.2 169.9 173.1 166.6 157.2 150.5 153.3 156.6 160.3 168.5 179.1 183.1 189.3 184.3 176.8 171.3 164 154.8 145.8 137.9 128.7 112.6 94.7 76 51.7 29.8 7.9 12.7 5.7 2.1 2.4 1.6 3.1 2.9 2.8 2.5 2.6 2.7 2.6 2.6 2.5 1.5 1.8 5 4.6 4.6 14 14.7 20.8 13.6 7 3.2 5.8 20.9 16.7 17.9 14.5 3.2 2.8 3.7 2.8 2.7 2.8 2.9 2.6 -1.1 -1.1 -1.1 -1.1 2.2 3.3 3.7 3.5 3 3.1 3.6 3.8 3.8 3.8 3.7
20.9 20.3 18.6 17 15.6 15.2 15.6 16.2 16.1 16 22.5 25.3 26.9 27.6 30.2 38.4 44.8 38.5 41.8 43.3 41.5 42.2 43.6 48.9 53.1 52.7 59.4 62.8 69.8 77.5 91 90 85.8 85.8 87.8 87 85.1 89.7 111.1 124.8 133.6 140.9 138.4 143.3 142.3 143.7 143.8 147.8 152 154 153.2 153.1 154 155.7 158.7 159.8 162.3 160.6 157.4 158.5 159.2 161.4 162 157.9 153.3 147.8 138.2 129.7 125.9 122.3 121.3 126.6 131.2 140.5 148.2 153.2 158.3 166.4 180.5 186.5 193.7 204.4 210.5 213 212.6 211.4 209.2 205.1 207.1 219.6 233.2 246.8 252.9 248 243.9 247.3 245.3 244.9 242.8 242.3 242.1 234.9 224.4 210 203.7 192.6 182.5 176.1 170.7 161.7 158.8 155.3 148.4 143.5 147 145.1 156 151.8 155.8 160.7 158.9 166.1 158.7 153.9 144.5 141.3 149.3 147.1 152.4 165.9 174.7 185.5 183.9 181.7 170.3 157.6 150.4 143.6 135.8 126.9 116 99.6 81 60.9 39.3 14.2 4.1 6.2 2.7 2.4 2.2 3.3 2.9 2.5 2.6 2.7 2.2 2.7 2.8 2.8 2.6 1.7 3 3.7 4.4 6 12.8 4.9 5.9 8.9 3.6 2.7 9.8 14.6 17.3 21.6 8.8 2.7 2.4 3.5 3.2 2.9 1.8 3.2 3 2.9 2.7 -1.1 -1.1 -1.1 3 3.7 3.7 3.2 3.2 3.8 3.5 3.6 3.6 3.6
8.8 8.4 8.5 10.2 12.9 21 24.2 26.7 29.2 31.7 36.2 38.1 41.1 42.1 42.9 45.8 49.5 50.2 53.2 56.3 55.8 57.5 61.4 67.4 70 77 87 90.6 98 103.1 109.5 109.8 111.1 111.7 114.9 115 114.5 103.7 117.1 122 130.5 132.4 139.9 139.7 137.4 138.9 143.6 150.6 154.2 155.3 156.2 158.1 161.2 163.5 169.7 176 177.9 175.7 176.9 179 179.7 182.4 183.3 182.7 178.1 173.3 162.7 154.7 148.7 143.6 143.1 147.3 153.1 161.1 167.4 175.4 182.3 189.5 198.8 207.6 213.1 222.7 229.1 229.3 222.9 218.4 212.1 207.3 207.1 212.8 227.5 238.9 242.6 238.7 235.4 233.1 232.6 233.5 234.3 236.9 235.2 229 219.9 201.9 192.4 182.5 173.1 161.9 163.3 163.3 159 153.8 149.2 142 134.9 151.3 149.3 143.9 147.4 156.8 151.7 152.7 148.4 136.4 137.8 141.1 146.8 133.3 148.9 168 177.5 181.7 179.8 178.3 167.8 155.7 144 134.8 127.3 117.2 102.6 85.6 67.5 46.6 30.3 3.5 4.2 3.2 2.6 2.4 2.3 2.3 2.3 2.3 0.5 2.7 2.4 1.7 2.1 2.8 2.4 2.3 2.1 2.4 3 4 4 3.2 3.2 3.3 3.5 3.7 6.2 16.5 18.5 15.8 2.9 2.6 2.1 3.4 3.1 2.8 2.8 2.9 3.1 3.3 3.4 -1.1 -1.1 -1.1 -1.1 3.2 2.5 3.4 3.1 3.4 3.3 3.3 3.4 3.7
9.4 11.7 14.5 19.7 26.6 33.6 39.5 43.9 46.6 53.2 57.6 59 59.1 59.5 62.3 66 67.3 70.3 74.8 78 80.4 86.5 92.4 97.1 100.9 104.2 113.4 119.5 126.1 130.4 134.1 137.1 138.9 142.1 143.9 142.8 142.9 138.3 132.6 131.9 129.6 127.9 131.2 135.2 137 139.4 144.2 148.9 153.3 154.9 157.3 158.9 162.1 165.7 172.1 180.6 186 190.8 194.9 199.1 202.7 209.5 210.2 205.1 202.1 196.7 186.9 182.2 173.9 167.9 165.8 168 172.1 179.3 187.4 204.1 211.7 213.2 219.7 228.6 231.5 237.3 241.3 239.9 228.6 217.9 210.5 205.3 203.4 204.7 220.8 229.9 232.4 229.4 223.8 217.8 214.8 217.5 222.1 227.1 229.1 224.7 213.4 185.7 175.6 167 157 160.5 167.6 165.3 159.3 156.1 149.9 145 133 141.2 135.6 139.1 145.8 150 148 144.9 134.7 130.7 138.2 145.5 140.9 129.7 148.2 165.7 175.2 180.2 176.9 172.9 168.2 155.8 141.3 131.2 121.1 105.3 88.4 72.1 53 34.1 14.7 2.8 2.5 2.8 2.6 2.5 2.4 2.4 2.3 2.1 2.5 2.7 2.6 2 2.9 2.5 2.2 2 2.3 2.6 3 3.3 3.3 3 3.1 3.1 3.3 4.2 14 18 16.9 2.5 2.7 2.6 3.3 3.3 2.9 2.8 2.7 2.8 3 3.5 3.7 2.7 -1.1 -1.1 -1.1 5.5 3.2 3.5 2.8 3.1 3.2 3.7 3.7 3.8
21.4 24.6 30.1 39.8 47.7 54.1 58.9 62.5 70.3 77 82.8 85.6 87 89.4 89.1 90.2 98.5 104 106.6 108.2 113.1 117.2 121.4 124.1 127.9 133.6 139.7 147 152 156.1 160.3 163.8 163.8 164.4 168.6 175.3 169.8 162.5 158.1 152.9 147.2 144.5 142.1 139.9 140.1 140.3 142.9 148.7 149.9 154.8 159.8 170.8 172.5 175.5 176.3 183.7 193.8 194.6 199.2 208.4 211.9 219.3 226 229.7 221.2 216.7 212.2 206.5 201.1 193.8 189.1 191 196 204.4 212.4 221.8 228.2 236.1 240.7 248.1 248.8 244.6 244.9 245.4 234.1 216.7 206.5 201.6 198.9 199.4 211 222.7 222 216.8 210.1 201.9 196.7 203.6 212.5 219.5 218.5 213.3 201.3 173.2 160.6 153.3 154.1 163.1 165.9 162 166.6 165.3 150.5 144.7 129.1 130.8 133.4 143.5 141 138.7 136.6 133.5 126.9 123.4 134.1 139 124.1 127.8 145.4 160.8 171.1 173.1 170.9 173.6 166.1 156.6 141.3 126.4 111.8 93.6 73.9 56 36.1 23.9 3.2 2.8 3.3 2.7 2.7 2.5 2.5 2.6 2.4 2.4 2.8 2.7 2.6 2 1.8 2.6 2.2 2 2.4 2.6 2.8 3.1 3 2.7 2.8 2.8 3.1 4.5 17.2 15.7 14.1 1.9 2.7 2.5 3.5 3.2 2.9 2.5 2.4 3.2 3.1 3.6 3.9 3.7 -1.1 -1.1 -1.1 3.2 3.3 3.2 3.5 3.4 3.2 3.6 3.9 3.9
41.5 48.3 53.4 61.4 69.6 75.3 82.6 87.9 94.2 99.8 103.7 106 106.5 110.6 112.7 120.2 125.1 129.3 132.5 133 135.2 141.6 144.2 146.8 149.5 152.5 163.7 170 174.2 180.5 186.8 187.2 187.5 193 198.1 197 194.6 187.6 180.2 173.7 166.9 161.8 158.7 155.5 155.1 154.6 156.9 156.6 165.1 167.8 174 181.8 183 181.7 184.5 191.1 194.4 201.1 214.3 218.7 220.1 223.5 235.2 236.7 233.3 231.4 232.9 231.2 229.8 219.6 215.5 216.9 223.5 229.9 230.4 230.7 234.9 241.9 252.3 260.7 261.3 255.6 253.7 251.9 238.6 219.8 204.7 196.5 195.3 193.8 201.1 211.2 206.7 201.2 194.9 185.3 185.3 194.2 202.9 207.1 207.3 206.7 189.9 163.7 149.3 141.7 148.4 156.6 162.8 169.1 166.5 161 146 137.1 122.1 124.2 137.7 143.9 131.3 123.5 119.8 125.4 130.4 115.4 128.2 125.1 115.6 121.2 140.7 155.7 162.6 165.7 167.1 163.4 157.9 153.6 137.1 118.5 100.5 81.9 62.1 40 22.1 4.6 2.9 2.9 3.1 3.2 2.6 2.8 2.7 2.5 2.1 2.1 2.5 2.5 2.4 2.1 1 -0.7 1.5 2 2.5 2.4 2.6 2.8 2.8 2.9 2.9 3 3.4 4.8 8.6 8.8 3 3.6 3.7 2.9 3.6 3.6 3.7 3.5 4.7 4.8 3.7 3.4 3.7 3.6 -1.1 -1.1 -1.1 2.8 2.8 2.8 3.5 3.1 2.6 3.4 3.6 3.4
64 69.7 80 91 96.9 102 105.8 109.6 112.3 117.9 124.5 128.6 130.8 131.2 139.1 144.5 148.5 154.6 157.2 158.5 160.3 160.8 165.1 167.2 170.1 169 175.3 182.4 186 188.8 189.6 192.5 196.4 201.2 205.3 207.5 207.3 206.6 204.8 200.2 190.5 183.6 180.5 180 179 176 178.3 178.4 178.4 185.7 187.8 191 191.4 189.3 193.7 198.5 203.8 215.2 221.3 225.1 222.3 226.1 231 236.2 238.5 235.5 238.6 240.1 241.3 240.7 243.2 243.3 240.7 239.3 239.4 239.7 242.1 251.5 263.1 273.9 273.7 267.5 263.2 258.4 243.1 222.7 202.9 188.7 185.9 187.8 185.6 193.4 190.1 186.2 181.5 173.9 177.3 184.7 191.6 196 198.1 195.4 178.6 149.7 135.8 136.4 146.3 164.2 166.9 167.2 168.2 161 143.7 134.7 123.9 118.3 133.5 128.2 123.1 111.3 118.5 111.3 98.9 101.6 114.8 109.4 104.9 114.7 131 147.7 150.8 158.1 160.1 153.3 152.5 145.7 131.1 112.2 89.8 70.6 51.3 32.8 5.1 3.2 3.1 2.9 2.7 3.8 3.3 2.4 2.2 2.1 2.1 2 2.3 2.9 3.5 3.8 3.7 3.6 3.4 3 3 3 3.1 3 3.9 4.1 4 4 3.5 3.2 3.4 1.9 2.8 4.2 3.6 3.5 3.8 3.7 3.8 3.5 3.3 2.8 2.8 3 3.4 3.3 -1.1 -1.1 -1.1 -1.1 2.3 2.9 1.8 2.3 2.2 2.1 3.4 3.9
93.8 99.1 109.8 117.6 120.9 123.9 125.3 128.1 135.7 140 144.4 149.4 148.5 153.7 160 165.2 169.4 173.7 173.9 176.4 175.3 178.5 181.6 182 178.4 178.5 183.5 187.6 189.7 190.8 193.8 199.5 199.8 202.6 206.3 209.5 211.8 212.2 211.1 209.8 205.7 205.5 206 204.6 201.2 199.8 198.5 194.6 197.7 203.8 200.7 201 199.4 199.5 203.2 209.1 221.3 226.5 230 226.2 222.5 223 227.8 231.9 237.7 238.9 237.4 240.7 248.7 251.5 255.2 253.7 247.2 242.9 245.3 245.3 254.5 261.5 272.5 277.2 275.2 271.9 267.9 261.5 246.9 224.4 202.7 184.9 178.5 180 178 173.8 168.2 170.9 169.9 165.8 167.3 173 178.6 182.2 185 182.1 169.7 137.4 128.4 141.1 157.6 161.4 164.9 172.9 172.8 165.3 143.9 132.4 122.3 109.1 110.6 114.1 103.2 110.1 110.6 92.1 77.3 82.7 97.9 92.4 98.9 104.7 123.9 134.2 137.6 142.9 147.3 148.6 146.3 139.2 124.8 110.4 84.4 57.5 36.6 12.7 3.4 3.4 3.2 3.7 3.8 3.7 3.5 3.3 3.3 3.4 3.5 3.5 3.2 3.1 3 3 3.3 2.6 1.8 2 3.2 3.3 2.6 2.3 3.3 3.4 3.4 3.4 3.5 3 2.7 2.8 3.5 4.2 3.7 3.6 3.6 3.7 3.7 3.5 3.3 3.1 3.1 2.8 2.8 2.8 -1.1 -1.1 -1.1 -1.1 2.4 3.9 2.9 3 3.1 2.7 3.3 3.3
117.6 125.8 129.2 130.1 132.3 134.1 138.1 142.9 149.6 153.7 159.1 160 165 172.2 176 180.6 182.4 183.8 183.7 186 188.8 190.8 189.7 188.4 184 185.6 190 192.1 193.3 197.7 199 200 200 202.6 205.9 209.5 212.7 213.9 214.3 214.9 214.8 215.1 216.2 214.9 216.1 216.1 215.2 215.1 214.2 216.5 215 213 214.7 212.5 214.1 224.7 234.8 234.8 230.5 223.4 220.6 218.3 221.3 229.1 236.3 237.9 237.1 242 247.7 255.3 257.3 254 248.8 243.2 240.2 244.5 249 259 271.1 272.4 274.2 271.5 267.5 261.3 250.4 227.9 203.2 183.8 172.4 167.1 167.1 161 153.4 153.9 156.7 157.8 155.4 161.8 167.4 170.6 172 170.6 158.3 127.1 125 140.9 147.2 160.2 171.8 169.8 173.9 163.4 138.9 125.8 116.1 114.5 102.2 89.7 97.1 105.3 94.9 76.4 57.6 67.2 80.1 87.7 92.2 94.8 103.7 114.4 123.8 137 143.9 146.9 140.7 131.9 120.8 103.9 77.9 47 12.2 4.5 3 3 1.7 3.3 3.4 3.4 3.7 3.5 3.5 3.1 2.9 3.4 3.3 2.9 2.7 2.9 3.1 2.5 2.7 1.8 3 3.3 1.9 2.2 3.1 3.3 3.2 3.3 3.4 2.7 4.4 1.5 3.3 3.5 3.7 3.6 3.5 3.5 3.6 3.6 3.7 7 3.3 2.7 2.8 2.9 -1.1 -1.1 -1.1 2.9 3 3.7 3.3 3.2 3.3 3.3 3.3 3.1
132.8 134.6 134.4 136.1 138.1 141.3 146.2 151 157.7 162.6 168.7 173.4 178 181.1 183.2 184.9 186.6 187 189 191.9 193.6 194.9 197.1 191.9 188.9 190.4 194.5 193.6 196.3 197.5 198.3 198.4 201.5 203.8 206.7 211.9 212.5 212.5 215.3 218.3 219.8 221.2 222.1 225.6 228 228.7 229.9 230.2 231.1 228.2 227.1 227.2 228.1 230.2 230.6 240.2 243 240.1 231.7 222.4 215.5 212.8 215.7 224.2 229.4 232.4 233.5 235.1 241.2 249 251.4 248.8 240.8 237.7 234.1 240.4 238.8 249.1 258.1 264.1 264.9 270.6 268.5 262.3 252.9 231.7 210.8 190 172 156.1 150.7 147.9 141.6 134.6 134.8 147 148.5 154 159.2 158.5 158.5 156.1 141.4 118.9 118.3 130 139 151 170.6 178.9 172.5 157.6 135 125.6 120.3 116 109.2 81.1 76.3 91.1 83.5 62.7 44.4 59.5 74 84.9 82.8 76.4 81.6 96.4 118.5 123.7 139.2 139.6 133.7 126.8 110 88.8 64.3 37.1 5.5 2.6 1.8 1.8 1.8 1.8 2.9 3.4 3.6 3.3 3.2 3.1 2.8 3 3.1 2.8 2.6 2.8 3 3.2 3.4 1.8 1.8 2 2.7 2.7 3 2.5 3.1 3.2 3.2 2.9 3.2 3.4 3.7 3.7 3.7 3.7 3.6 3.5 3.4 3.5 3.3 3.5 3 2.9 2.9 2.8 -1.1 -1.1 -1.1 2.7 3.1 3.6 3.5 3.4 3.5 3.4 3 2.8
138 137.7 139.2 141.7 144 148.8 154.6 159.2 163.6 168.8 172.3 176.4 180.4 182.6 185 187 190.5 193 194.1 194.8 196.7 198.2 195.9 192 190.3 192.1 191.8 194.6 196.3 198.1 197.6 201.3 204 204.6 208.2 209.9 209.9 212.6 216.5 219.7 221.7 222.3 227.1 230.3 231.5 233.8 236.5 239.1 239.6 239.5 240.4 239.8 241.2 241.1 243.4 249.3 246 241.3 229.4 218.4 211.7 206.3 206.2 210.9 217.6 226.4 229.6 226.4 228.5 231.3 237.6 238.6 230.4 228.4 231 234.3 233.5 239.3 245.8 254.7 258.4 264.8 264.9 258.5 250.3 236.6 219.5 200.6 181.8 165.3 147.4 132.7 129.6 121.6 113.9 127.6 139.6 141.6 146.9 141.9 141.3 143.1 131.2 114.5 113.2 118.6 123.3 149.6 180.8 178.4 169.7 146.1 135.8 130.4 122.8 113.7 99.5 80.7 63 70.9 57.5 44.5 36.4 41.8 61.6 74.1 63.1 55.2 60.4 81.4 112.2 122.6 134.9 132.9 124.1 115.8 96.4 71.6 48.5 14.2 1.8 1.5 1.4 1.4 1.4 1.3 1.4 1.6 1.8 2.6 2.8 3.3 2.6 2.8 2.9 2.7 2.5 2.7 2.9 3.1 3.3 2.8 -1.1 -1.1 -1.1 -1.1 -1.1 -1.1 -1.1 1.6 2.6 2.4 2.9 3.3 3.5 3.8 3.8 3.7 3.6 3.5 3.4 3.4 3.3 3.2 3.1 3.1 3.1 3 2.5 -1.1 -1.1 3.1 3.3 3.5 3.4 3.5 3.5 2.8 2.7 2.6
137.5 139.6 142.9 146.5 151.7 154.6 158.4 162.1 166.5 170.1 173.1 176.5 179.6 182.5 184.3 186.3 191.1 193.4 194.5 195.1 197.1 197.8 195 192 191.4 191.5 191.9 194.9 196.7 198.1 200.4 201.6 202.8 205.5 206.6 207.6 210.3 213.9 218 220.1 220.7 223.6 227.6 229.1 232.6 235.7 239.5 242.6 244.4 246.2 247.3 247.1 246.3 246.4 250.5 252.7 252 242.6 227.5 211.7 205 199.3 198.4 202 210.6 219.2 220.4 216.8 215.1 218.7 217.9 225.8 223.9 230.7 237.1 231 225.1 225.5 233.8 241.4 249.4 254.9 258 250.2 242.7 237.7 223.7 206.3 190.1 171.7 155.5 136.2 116.9 99.3 96.3 117 125.8 133.4 135.6 133.4 129.9 134.4 112.9 106.6 104 108.1 132.5 166.8 174.9 173.9 156.5 134.5 135.7 127.4 118.2 104.2 94.8 82.6 58.9 46.5 41.5 32.7 31.2 30.4 45.6 64.2 49 35.3 48.2 81 108.1 126.3 127.5 117.2 107 93.4 75.4 53.8 26.1 1.8 1.5 1.2 1 1 0.9 0.9 0.9 1 1.1 1.2 1.2 1.5 1.8 2.2 2.6 2.7 2.6 1.9 2.9 -1.1 -1.1 -1.1 -1.1 -1.1 -1.1 -1.1 -1.1 -1.1 -1.1 -1.1 -1.1 1 1.9 2.9 3.3 3.5 3.8 3.7 3.6 3.5 3.4 3.3 3.3 3.3 3.2 3.2 3.2 3.2 1.3 -1.1 -1.1 3.4 3.6 3.3 3.2 3.2 3.2 2.5 2.5 2.4
135.4 139.7 144.8 149.9 153.4 156.5 159.5 163.8 166.5 167.3 171.2 175 178.3 180.9 182.8 186.4 189 190.4 192.1 192.5 194.2 194.2 191.1 189.3 188.4 190.2 192.2 194.5 196.1 198.1 196.5 199.4 201.8 203 205.7 208.3 212.4 216.1 218.8 219.6 221.6 223.2 225.8 229.3 231.7 234.9 237.7 243.3 249.1 251.5 252.5 252.7 252.3 253 252.6 256.8 257.6 242.2 221.9 202 197.4 191.6 186.6 191.8 200 206.1 206 206.1 201.1 206.9 207.7 213.9 223.2 230.7 233.1 224.7 218.8 220.5 222.4 233 238.7 244 247.3 244.7 238.7 234.7 223.7 208.2 193.2 175.6 155.6 133.2 111.1 95.4 79.9 107.7 121.9 123.8 128.7 130.4 124.8 117.2 102.2 99.7 100.7 119.2 158.5 165.6 172.3 158.6 142.8 133.9 127.4 126.7 117.6 106.6 99.1 84.4 61.6 32.2 32 20.4 21.9 26.7 46.5 51.3 30.6 25.7 49.7 77.6 110 117.9 112.9 98.8 93 71.6 48.9 29.1 1.8 1.5 1.2 0.9 0.6 0.5 0.5 0.4 0.4 0.4 0.4 0.4 0.3 0.3 0.4 0.5 0.8 0.6 -1.1 -1.1 -1.1 -1.1 -1.1 -1.1 -1.1 -1.1 -1.1 -1.1 -1.1 -1.1 -1.1 -1.1 -1.1 -1.1 0.6 1.9 2.7 3.1 3.4 3.6 3.5 3.4 3.3 3.3 3.3 3.3 3.3 3.2 3.2 3.4 1 -1.1 -1.1 -1.1 3.6 3.1 3.1 3 2.9 2.6 2.5 2.5
131.9 136.4 142.6 146.9 150.5 153.9 159.1 162.1 164.2 163.6 167.9 170.7 172.6 175.8 179.1 180.8 182.8 184.2 186 187.5 188.6 186.2 187 184 184.1 187.2 190 191.8 192.4 193 196.3 199.9 199.5 205.1 205.1 207.7 212.4 216.4 217.1 220.7 218.5 216.2 220.5 223.9 228.7 231.2 237 245.3 250.4 253.4 254.6 254.7 254.5 253.4 254 257 255.1 238.2 217.1 192.6 189.4 184.7 172 179.5 187.8 192.2 192.4 192.3 190.7 188.8 203.9 207.1 218.6 226 229.2 226.2 215.6 212.6 212 222 227.4 236 240.8 238.9 234.4 229.9 219.5 206.6 196.2 176 151.3 125.1 98.4 72.9 82.2 97.5 105.7 108.1 110.6 111.2 107.6 97 95 95.3 104.3 130.8 152.2 160.2 152.7 143 123.9 121.2 117 124.5 121.3 102.9 107.3 89.5 66.7 35.3 21.9 11.8 10.9 32.9 45.7 25.5 19.6 18.4 45.2 71.9 99 102.9 93 82 66.5 45.9 30.3 1.8 1.5 1.1 0.9 0.6 0.3 0.1 0 0 -0.2 -0.2 -0.3 -0.4 -0.6 -1.1 -1.1 -1.1 -1.1 -1.1 -1.1 -1.1 -1.1 -1.1 -1.1 -1.1 -1.1 -0.1 0 0 -1.1 -1.1 -1.1 -1.1 -1.1 -1.1 -1.1 1 2 2.8 3.1 3.4 3.5 3.4 3.3 3.2 3.5 3.4 3.4 3.3 3.4 2.9 0.9 0.1 -1.1 2.9 3.3 3 2.9 2.7 2.5 2.5 2.5 2.5
127.5 132.6 139.1 143.6 147.2 150.9 154.7 157.6 155.1 160.2 163.8 165.5 167.1 171.7 173.3 174.2 175.4 177.5 179.9 180.3 180.4 181.5 180.8 180.2 184.3 187.1 188.8 189.2 191.2 193.5 195.7 195.9 200.7 197.5 201.9 206.3 210.2 209.9 211.3 211.7 211.7 209.8 213.1 219.1 221.7 228 239 247.3 250.2 252.3 253.9 255.5 256 257.7 258 256 253 239.3 217.8 196.5 180.9 176.4 167.9 166.1 171.6 177.8 178.4 178.5 181.7 183.3 190 201.9 216.5 222.7 224.8 223.5 211.2 204 202.9 209.3 218.5 229.1 234.7 235.4 231 224.9 214.6 203.1 192.5 173.9 145.9 115.5 88.7 69.4 71.5 89.4 99.9 100.9 98.9 99.3 96.1 91.1 89 98.4 114.1 131.3 142.5 135.4 129.5 122.9 118.2 108.4 104.5 117.5 103.8 102.9 95.1 80.4 63.3 36.3 9.5 5 12.5 38.7 33.4 16.1 10.8 15.2 38.9 57.3 77.7 81.6 74.6 58.4 39.4 20.8 1.8 1.5 1.1 0.8 0.5 0.3 0 -0.3 -0.4 -0.5 -0.7 -1.1 -1.1 -1.1 -1.1 -1.1 -1.1 -1.1 -1.1 -1.1 -1.1 -1.1 -1.1 -1.1 -1.1 -1.1 0.1 1 1.2 1.4 1.6 1.5 -1.1 -1.1 -1.1 -1.1 -1.1 -1.1 1.7 2 2.8 3 3.1 3.3 3.3 3.2 3.5 3.4 3.4 3.4 3.7 4 -1.1 -1.1 -1.1 2.5 3.2 2.8 2.5 2.3 2.7 2.5 2.5 2.6
122.7 133.4 138.6 141.4 146.2 148.8 151 149 149.9 156.7 157.6 158.3 161.7 165 165.1 167.1 171.2 172.7 172.6 173.7 173 174.4 171.7 180 182.5 184.7 185.8 185.5 186.9 186.8 188.7 191.1 188.4 187.7 191.7 197.7 198.1 198.6 198.9 199.8 201.9 201.3 206.1 209.2 216.7 229.6 239.7 245.1 248.1 250.9 254.5 255.7 257.7 259.3 258 254 250.5 240.5 222.2 200 179 163.3 156.7 155.3 159.2 163.9 166.6 166.1 173.2 178.1 183.4 197.9 209.5 219.3 223.9 214.5 210.6 201 200.6 201.3 209.9 218.8 226.7 229.9 222.2 215.2 208 198.2 189.7 169.6 138.9 109.4 82.7 66.5 63 78.3 88.8 92.3 92.4 93.7 90.1 84.3 85.4 94 115 130.8 124.1 116.5 112.4 110.1 104.6 94.5 91 91.9 96.9 91.7 79.1 63.1 51.6 29.5 6 5.4 16.4 26.4 17.3 14.7 2.9 12.8 18.6 42.1 56.9 60.3 51.5 34.7 15.4 1.7 1.4 1.1 0.8 0.5 0.1 -0.1 -0.3 -0.6 -0.8 -1.1 -1.1 -1.1 -1.1 -1.1 -1.1 -1.1 -1.1 -1.1 -1.1 -0.5 -1.1 -1.1 -1.1 -0.1 0.6 1 1.6 1.9 2.3 2.1 2.3 2.4 2.1 -1.1 -1.1 -1.1 -1.1 -1.1 1.3 1.8 2.6 2.7 2.9 3 3.1 3.1 2.6 3.4 3.4 3.3 3.3 3.3 -1.1 -1.1 -1.1 2.6 3.7 2.7 2.5 2.3 2.7 2.6 2.6 2.3
123.4 131.5 136.3 138.7 140.1 142.7 141.3 140.2 145.2 147.6 147.9 151.1 154.6 156.7 158.8 161.2 163.6 162.4 164.1 161.6 163.6 163.4 168.7 168.9 170.1 173.7 173.1 175.1 176.8 174.8 172.5 177.7 179.2 181.5 184.2 187.2 190.2 192.2 190.9 189.4 190.2 194.6 193.8 200.6 216.2 226.7 233.4 238.6 243 246.2 248.8 252.9 256.1 258 256.4 251 250.7 245.4 227.6 207.5 187.4 165 145.8 139.1 145.3 149.7 150.7 153.3 161.7 172.2 175.8 187.5 199.9 216.4 218.5 212.9 203.2 200.9 198.1 195.5 199.1 212.5 216.4 218.4 215.2 213 198.8 189.3 183.7 165.1 135.5 105.6 82.4 69.6 48.7 65.8 76.7 78.7 80.2 81.2 78.4 77.4 82.1 108.2 111.6 119.3 111 103.6 95.5 92.3 85.4 73.3 73.1 86.2 82.9 71 60.8 45.5 36.1 21.5 4.4 3.1 6.9 9.5 8.6 4.5 2.5 4.7 17.7 34.2 45.3 42.4 30.9 14.9 1.6 1.3 1 0.7 0.4 0.1 -0.2 -0.5 -0.7 -1.1 -1.1 -1.1 -1.1 -1.1 -1.1 -1.1 -1.1 -0.4 -0.2 0 0.3 0.5 0.7 0.8 -1.1 1.5 1.9 2.4 2.4 2.2 2.5 2.5 2.6 2.4 2.4 1.9 -1.1 -1.1 -1.1 -1.1 -1.1 1.9 2.4 2.7 2.6 2.8 2.9 3.2 3.1 2.9 3 3.2 3 3 -1.1 -1.1 -1.1 2.8 3.6 2.9 2.7 2.6 2.7 2.8 2.5 2
123.6 128.4 129.8 131.8 133.7 132.6 131.9 133.1 136.8 141.1 145.5 145.8 144.9 144.6 147.2 148.8 149.2 151 148.2 152 154 158.3 158.8 158.6 160.9 161.4 163.2 163.9 164.8 163.8 165 170.2 177.6 181.1 181.2 184.9 182.7 183.1 183.5 178 178.5 179.9 185.2 190.8 203.4 217.4 225.3 229.9 233.4 236.4 241.4 248.2 253.1 253.8 251.1 246.6 246.1 240.7 230.1 215.9 193.6 171.4 148.9 124.2 126.8 132.8 139.6 143 160.9 167.4 169.7 176.8 191.2 204.7 213.8 205.1 196 198.2 193.9 185.5 190.2 201.9 205.1 205.3 207.6 206.9 196.7 180.1 172.7 161.4 135.9 110 81.4 67.3 51.1 55.9 66.2 69.2 68.6 65.6 65.7 72.4 99 107.6 107.3 106.3 97.2 82.7 75.8 69 59.6 50.4 57.4 60.4 53.2 48.5 40.5 33.2 15.9 6.9 3.7 -1.1 4.9 2.1 4.4 3 2.9 4.4 16.4 29.2 34.1 20 6.3 1.5 1.1 0.8 0.6 0.3 0 -0.3 -0.6 -1.1 -1.1 -1.1 -1.1 -1.1 -1.1 -1.1 -1.1 0.1 0.3 0.6 0.7 0.9 1.2 1.6 1.8 1.8 -1.1 -1.1 1.9 2.3 2.5 2.6 2.7 2.7 2.7 2.5 2.4 2.3 2.5 -1.1 -1.1 -1.1 -1.1 2 2.7 2.7 2.5 2.6 2.9 3.2 3.3 3.4 3.3 3.2 3 2.3 -1.1 -1.1 -1.1 3.3 4.3 2.9 2.8 2.6 2.4 2.5 4.9 14.9
120.8 122.6 127 126.8 126.1 125.2 125.2 132.2 132 136.8 135.2 136 135.5 135.5 136.2 137.1 138.5 140.3 142.3 145.5 140.9 148.1 145.6 149.1 149.9 150.5 152.2 152.1 157.5 156.4 161.7 163.7 170.2 169.9 174.6 176.6 177.3 175.8 170.5 168.9 170.3 174.7 176.4 181.9 194 204.2 216 219.8 224.9 232.1 234 238.6 245 245.6 243.6 243.4 236.1 234.2 231.8 218.1 197.3 174.4 153.9 134.4 109.1 112.6 123.5 132.1 143.3 160.4 166.4 174 190 196.8 201.3 193.8 194.6 194.2 186.2 180.9 181 190.3 191.6 203.5 198.4 197 192.4 176.9 170.7 158.2 140.5 114.5 85.3 63.1 48.2 47.7 55.8 60.8 61.8 56.2 59.9 74.2 103.6 106.9 99.1 84.5 73.7 61.8 47.9 36.6 30 27.8 34.4 34.6 33.2 31.2 25.4 10 3.1 1.2 0.4 -1.1 0.8 0.7 0.8 1 1.5 2.9 11.9 23.3 10.4 1.8 1.2 0.8 0.5 0.3 0.1 -0.1 -0.3 -0.6 -1.1 -1.1 -1.1 -1.1 -1.1 -1.1 -1.1 -1.1 0.3 1.1 1.3 1.6 1.8 1.8 1.8 1.8 1.8 1.8 1.8 1.8 2 2.2 2.4 2.5 2.7 2.8 2.7 2.5 2.4 2.4 2.6 -1.1 -1.1 -1.1 -1.1 -1.1 2.2 2.7 2.6 2.6 2.9 3 3.1 3.2 3.1 3.1 3 2.1 -1.1 -1.1 -1.1 3.5 2.7 2.8 2.5 2.7 6.9 13.8 22.1 31.7
97.7 103.8 108.7 114.8 123.9 119.2 122 124.8 126.6 126.6 126.8 126.9 127.1 126.8 126.9 130.8 131.2 135.4 135.7 130.3 132.7 133.4 136 137.9 140.6 142.9 143 147.1 149.3 152.4 156.9 166.1 169.8 173 174.6 176.8 174.2 168.7 161.1 158.4 162.9 166 169.8 178.1 184.4 197 203.4 211.7 217.4 223.4 228.8 232.9 236 235.2 237.7 235 229.6 229 221.5 209 188.5 171 150.6 131.5 111.9 97.8 107.4 119.2 131.5 153.4 163.1 167.4 182.3 194.1 185.6 183.3 184.5 188.5 185.5 181.9 170.8 182.8 189.1 192.4 190.3 185.9 184 177.9 161.9 149.2 141.7 120.8 87.7 60 44.8 41 46.4 54.7 48.1 49.3 55 76.2 99.9 94.3 81.8 66.1 55.8 35 21.4 11.4 9.4 10.6 10.9 4.3 3.1 15.2 3.8 -1.1 -1.1 -1.1 -1.1 -1.1 -1.1 -0.3 -0.2 0 0.7 -1.1 3.1 2.8 1.2 0.6 0.4 0.1 -0.2 -0.3 -0.4 -0.6 -0.8 -1.1 -1.1 -1.1 -1.1 -1.1 -1.1 -1.1 -1.1 0.4 1.7 1.8 1.8 1.8 1.8 1.8 1.8 1.8 1.8 1.8 1.8 1.8 1.9 2 2.2 2.3 2.6 2.7 2.7 2.5 2.4 2.5 2.5 2.5 -1.1 -1.1 -1.1 -1.1 2.7 2.5 2.5 1.7 2.6 2.8 2.9 2.9 2.9 2.8 2.4 1.9 -1.1 -1.1 -1.1 3.6 3.3 2.9 7.3 8.1 25.3 32.8 41.6 51.6
80.4 99.2 108 109.4 110 113.4 118.4 121.3 122.1 121.8 119.9 118.6 115.7 115 116.2 116.8 120.6 121.7 121.3 119.7 124.2 129.7 132.1 136.1 139.2 136.1 139.3 141.4 146.4 149.2 151.1 161.3 165.5 170.4 172.2 172.6 166.6 161.9 150.3 149.9 155.2 159.2 164.9 171.9 175 178.6 193.9 206.9 211.2 220.6 223.1 226.7 230.2 229.3 228.7 225.9 226.4 212.6 202.7 191.8 175.2 160.1 143.2 121.1 102.2 93.4 96.5 108.7 125.8 145.7 157.7 160.2 167.1 182 167.6 175.6 184.7 183 186 174.5 164.6 171.4 182.3 184.8 183.4 180.7 176.4 164.6 154.9 132.8 121.1 113.9 91 61 42.3 34.5 36.5 44.3 38.7 40.7 54.5 82.7 86 78.5 66.5 54.6 29.5 4.2 6 2.6 5.7 9.7 1.2 0.5 -1.1 -1.1 -1.1 -1.1 -1.1 -1.1 -1.1 -1.1 -1.1 -1.1 -1.1 -1 -1.1 -1.1 -1.1 -1.1 -0.2 -1.1 -1.1 -1.1 -1.1 -1.1 -1.1 -1.1 -1.1 -1.1 -1.1 -1.1 -1.1 -1.1 -1.1 -1.1 -0.4 0.4 1.4 1.8 1.8 1.8 1.8 1.8 1.8 1.8 1.8 1.8 1.8 1.8 1.8 1.8 2 2.3 2.7 2.7 2.7 3.3 2.4 2.5 2.5 2.7 2.6 -1.1 -1.1 -1.1 2.3 2 2.5 2.5 2.6 2.7 2.8 2.8 2.8 2.9 2.4 -1.1 -1.1 -1.1 -1.1 3.6 3 6.9 20.8 32.8 46.7 53 61.5 72
83.4 88.3 95 100.1 109.3 117.4 118.5 118.9 118 115.9 112.8 108.5 101.9 103.5 104.4 107 109.9 112.2 114.9 117.7 120.8 122.7 126.8 129.6 131.1 134.9 136.3 136.8 138.4 142.8 146.4 153.9 159.5 162.1 169.2 166 168 163.2 142.5 139.6 144.1 148.9 156.4 158.3 164.6 178 192 199.9 210.2 219.3 223.3 224.7 225.5 224.3 220.5 219.8 217.1 200 178.7 169.9 158.6 146.8 130.3 106.3 95.4 88 92.7 105.5 121.8 134.7 146.1 154.1 159.8 163 162.2 173.4 183.7 184.4 180.4 162.5 150.5 161.6 175.7 174 174.9 172.1 161.4 151.2 136.8 119.9 109.6 105.8 95.1 64 40.3 29.6 26.7 30.4 29.6 37.8 63.1 72.9 68.4 59 47.6 35.1 5.1 1.6 0.8 0.7 5.2 -1.1 -1.1 -1.1 -1.1 -1.1 -1.1 -1.1 -1.1 -1.1 -1.1 -1.1 -1.1 -1.1 -1.1 -1.1 -1.1 -1.1 -1.1 -1.1 -1.1 -1.1 -1.1 -1.1 -1.1 -1.1 -1.1 -1.1 -1.1 -1.1 -1.1 -1.1 -1.1 -1.1 -1.1 -0.6 0 0.6 1.2 1.8 1.8 1.8 1.8 1.8 1.8 1.8 1.8 1.8 1.8 1.8 1.8 1.9 2 2.5 2.9 3.1 2.4 0.8 3.1 2.6 2.5 2.6 2.7 2.6 -1.1 -1.1 -1.1 2.1 2.5 2.4 2.5 2.6 2.9 2.4 2.7 2.8 2 -1.1 -1.1 -1.1 3.2 3.2 7.4 20.3 35.1 50.2 63.4 70.2 75.7 86
110.4 115.9 115.6 104.9 103.6 107.8 115.6 112.4 113.8 112.1 99.3 98.3 105.7 108.2 112.3 115.6 121.2 123 122.7 123.6 128.5 136.1 133.5 134 133.7 136.3 134.7 132.8 134.5 139.1 144.1 151.1 155.8 159.7 160.1 169.1 174.8 158 135.8 131.3 134.6 140.9 142.5 148 162.4 178.2 187.7 198.7 208.1 214.7 218.3 216.7 215.1 212.5 214.7 211.2 205 189.5 162.1 138.1 138.5 128.9 113.3 90.7 86.3 84 87.7 103.6 117.3 128.8 140.1 148.9 150.7 156 167.1 177.7 181.4 178.8 168.3 152.7 144.1 157.2 166.7 168.5 168.7 164.4 152.8 135.3 120.9 116.6 106.3 97.6 89.4 65.1 38.2 24.7 10 18.8 18.2 39.4 54.3 57.3 51.8 39.2 27.2 5.7 1.2 0.3 -1.1 -1.1 -1.1 -1.1 -1.1 -1.1 -1.1 -1.1 -1.1 -1.1 -1.1 -1.1 -1.1 -1.1 -1.1 -1.1 -1.1 -1.1 -1.1 -1.1 -1.1 -1.1 -1.1 -1.1 -1.1 -1.1 -1.1 -1.1 -1.1 -1.1 -1.1 -1.1 -1.1 -1.1 -1.1 -1.1 -0.5 -0.1 0.3 0.9 1.5 1.8 1.8 1.8 1.8 1.8 1.8 1.8 1.8 1.8 1.8 1.8 2 2.2 2.3 2.5 3.4 4.4 2.4 2.3 1.3 2.6 2.8 3 3.2 2.5 2 -1.1 -1.1 1.1 2.1 2.3 2.5 2.6 3.1 2.2 2 2.3 -1.1 -1.1 -1.1 -1.1 4.6 12.6 17.2 33.5 51.4 64.9 75.2 81 87.1 102.1
110.4 108.1 108.1 102.2 92.7 95.7 103.3 106.5 105.9 96.1 96.2 102.7 104.8 108.6 121 124.5 125.7 127.6 128 133.4 138.8 141.2 146.1 145.3 143 138.3 131.3 128.7 130.3 133.7 143.1 148.1 151.8 153.4 163.6 172.6 173.5 154 131.3 122.4 126.2 126.8 136.1 152.1 166.8 172.9 181.1 189.9 202.4 207.6 207.4 204.8 201 205.3 203.2 197.3 190.6 179.6 153.4 126.5 108.5 107.1 93.9 80.3 77.7 71.7 81.5 95.7 110.5 123.7 136.2 145.3 149.3 157.4 169.9 181.1 183 174.1 166.1 145.5 142.1 156.3 159 163.7 162.1 152.2 132.6 117.1 120.3 111.8 101.2 76.2 71.5 55.4 40.6 18.1 4.9 5.6 12.6 26.7 36.4 34.8 29.6 11.5 2.3 -1.1 -1.1 -1.1 -1.1 -1.1 -1.1 -1.1 -1.1 -1.1 -1.1 -1.1 -1.1 -1.1 -1.1 -1.1 -1.1 -1.1 -1.1 -1.1 -1.1 -1.1 -1.1 -1.1 -1.1 -1.1 -1.1 -1.1 -1.1 -1.1 -1.1 -1.1 -1.1 -1.1 -1.1 -1.1 -1.1 -1.1 -0.6 -0.3 0 0.4 0.8 1.2 1.8 1.8 1.8 1.8 1.8 1.8 1.8 1.8 1.8 1.8 1.8 1.9 2.2 2.5 2.7 2.8 3.7 2.4 3.2 2.4 0.8 3.2 3.1 3.4 3.6 3.7 4 -1.1 -1.1 0.1 1.6 2.1 2.4 2.7 3 2.7 -1.1 -1.1 -1.1 -1.1 -1.1 4.6 15.6 25.5 34.5 51.3 64.6 76.1 85.8 94.4 107.3 122.8
100.9 98.5 92.9 86 82 87 91.4 90 87.7 84.7 94 98 104.8 112.6 123.6 127.6 128.7 128.6 132.3 139.6 145.5 147.9 148.8 147.7 143.5 135.2 129 122.9 124.2 129.5 136.2 141.8 145.7 157.4 164.6 170.4 169.2 147.7 127.1 111.4 116 125.7 140.3 154.3 164.5 173.8 172.1 183.7 193 191.5 192.7 188.9 188.9 190.6 187.7 183.4 176.4 168.2 150.6 123.1 95.6 85.3 77.7 70.7 69.2 61.8 77.7 90.9 106.2 119.1 130.2 143.1 152.7 162.6 176.5 179.5 170.4 168.3 161.1 135 137.4 146.4 153.4 150.9 140 128.1 110.9 101.1 93.7 92.2 78 58.2 42.6 32.3 15.9 3.7 -0.9 1 -1.1 15.5 21.2 11.6 -1.1 -1.1 -1.1 -1.1 -1.1 -1.1 -1.1 -1.1 -1.1 -1.1 -1.1 -1.1 -1.1 -1.1 -1.1 -1.1 -1.1 -1.1 -1.1 -1.1 -1.1 -1.1 -1.1 -1.1 -1.1 -1.1 -1.1 -1.1 -1.1 -1.1 -1.1 -1.1 -1.1 -1.1 -1.1 -1.1 -1.1 -1.1 -1.1 -0.5 -0.2 0.2 0.5 0.9 1.3 1.6 2 1.8 1.8 1.8 1.8 1.8 1.8 1.8 1.8 1.8 1.8 1.9 2.2 2.5 2.9 5.4 2.4 2.6 2.6 0.8 2.1 7.1 3.2 3.6 3.6 4 4.2 -1.1 -1.1 -1.1 0.5 1.2 2 2.5 -1.1 -1.1 -1.1 -1.1 -1.1 1.5 10.5 15.5 31.9 40.6 50 62.4 74.3 85.8 96.4 107.4 121 140.8
84.7 83.4 76.6 68.6 73.5 79.7 75.4 76.7 77.7 85.2 87.1 96.2 108.4 119.8 125 125.7 127.3 129.5 136.6 142 145.7 148 147.4 148.4 142.3 133.6 123.6 116.3 119 123.6 130.3 135.5 146.2 153.1 160.6 161.3 153.5 143.2 118.6 98.5 114.4 125.6 140.2 150.2 161.1 164.1 165 170.9 178.8 180.1 176.4 169.8 174.1 172.9 171.2 168.7 163.5 154.6 138.6 117.6 92.4 72.5 67.6 62.1 59.2 66.1 81.2 92.5 102.2 113.1 129.7 141.9 160.2 161 170.3 165.5 162.4 164.2 149.4 126.7 128.3 138.2 143.3 133.6 119.9 100.7 90.7 80.7 75.9 71.5 52 41.6 23.3 13.4 1.5 1.1 1 -1.1 -1.1 -1.1 -1.1 -1.1 -1.1 -1.1 -1.1 -1.1 -1.1 -1.1 -1.1 -1.1 -1.1 -1.1 -1.1 -1.1 -1.1 -1.1 -1.1 -1.1 -1.1 -1.1 -1.1 -1.1 -1.1 -1.1 -1.1 -1.1 -1.1 -1.1 -1.1 -1.1 -1.1 -1.1 -1.1 -1.1 -1.1 -1.1 -1.1 -1.1 -1.1 -1.1 -0.6 -0.2 0.2 0.6 1 1.4 1.7 2 2.3 2.1 1.8 1.8 1.8 1.8 1.8 1.9 1.8 1.8 1.8 2 2.3 2.6 3 3.4 3.3 2.6 2.6 3.7 13.4 12.1 3.6 3.5 3.5 3.8 5.2 -1.1 -1.1 -1.1 -0.9 -0.6 -0.8 -1.1 -1.1 -1.1 -1.1 -1.1 7.9 23.6 28.7 33.3 45.9 53.4 60.6 71.3 81.4 94.1 104.2 119.1 138.7 155.8
66.6 64 58 58.9 63.6 63.1 66.5 68.5 71.3 80.2 89.8 99.5 114.2 124.3 125.4 126.9 128.2 132.7 139.3 143.1 146.8 147.2 143.4 144.7 139.9 128.6 111.8 105.9 113.6 118.2 122.9 129.8 137.9 147.2 150.9 151.2 146.9 140.3 113 92.3 105 119.9 130.7 142.8 148.9 155.7 159.7 164.3 165.3 161 154.5 156.1 156.5 156.2 157.1 152.6 148.7 137.5 124.6 107.3 84.2 62.7 57.1 48.8 58.2 68.6 80.4 91.6 99.2 112.6 128.8 138.3 154.3 155.1 160.6 156.9 162 154 134.5 120.1 116.9 125 114.4 107.7 93.5 76.7 68.3 62.9 60.2 43.7 28.6 15.8 8.5 1.2 0.5 0.1 -0.2 -1.1 -1.1 -1.1 -1.1 -1.1 -1.1 -1.1 -1.1 -1.1 -1.1 -1.1 -1.1 -1.1 -1.1 -1.1 -1.1 -1.1 -1.1 -1.1 -1.1 -1.1 -1.1 -1.1 -1.1 -1.1 -1.1 -1.1 -1.1 -1.1 -1.1 -1.1 -1.1 -1.1 -1.1 -1.1 -1.1 -1.1 -1.1 -1.1 -1.1 -1.1 -1.1 -0.6 -0.3 0.2 0.5 1 1.4 1.8 1.9 2.1 2.3 2.2 1.9 1.8 1.8 1.9 2.1 2.2 2 1.9 1.9 2.1 2.5 2.8 3 3.3 3.5 5.5 2.6 4.7 14.5 9.6 3.3 3.4 3.4 2.9 2.4 -1.1 -1.1 -1.1 -1.1 -1.1 -1.1 -1.1 -1.1 -1.1 8.8 27.2 40.9 44.1 42.7 49.2 51.3 60.9 66 76.7 87.2 97.3 116 135.6 155 167.1
51.6 49.4 46.6 46.4 43.9 54.5 67.8 72.7 78.2 86.1 97.3 104.3 123 126 127.7 129.2 135.2 137.7 142.7 146.4 149.1 145.2 143.4 142.2 132.1 114.5 101.2 102.1 108.9 112.5 116.8 122.7 132.8 138.2 145.1 142.6 148.9 137.9 107.8 80.9 93.8 108.9 123 131.4 142.1 149.4 152.8 156 153.4 146.5 140.6 140.6 140.7 143.5 137.5 135.5 133.9 124.8 109.8 96.5 77 52.7 43.5 46.6 59 66.2 75.7 91.8 99.9 107.3 120.3 131.7 143.7 149.9 142.9 147.6 152.9 139.5 119.1 111.5 89.8 91.4 86.9 79.3 64.8 51.9 48.3 43.6 35.9 17.4 5.9 1.3 0.6 0 -1.1 -1.1 -1.1 -1.1 -1.1 -1.1 -1.1 -1.1 -1.1 -1.1 -1.1 -1.1 -1.1 -1.1 -1.1 -1.1 -1.1 -1.1 -1.1 -1.1 -1.1 -1.1 -1.1 -1.1 -1.1 -1.1 -1.1 -1.1 -1.1 -1.1 -1.1 -1.1 -1.1 -1.1 -1.1 -1.1 -1.1 -1.1 -1.1 -1.1 -1.1 -1.1 -1.1 -1.1 -1.1 -0.6 0 0.4 0.9 1.3 1.7 1.8 1.9 2.1 2.3 2.2 2.1 1.8 1.9 2.2 2.4 2.5 2.4 2.1 1.9 2.3 3.2 2.6 2.8 3 3.2 3.4 3.4 10.3 14.8 8.8 3.4 3.4 3.4 2.4 2.5 -1.1 -1.1 3.4 -1.1 -1.1 -1.1 2.9 9.3 22.2 39.8 46.9 48.6 52.7 47.8 55.2 50.8 64.1 72.4 85.7 97.9 104.8 128.8 148.9 164 168.3
37.7 33.7 30.4 47.4 59.7 68.3 75.4 85.7 88.1 95.9 103.3 117 125.3 128.5 127.9 134.5 138.3 142.3 145.5 149.1 147.4 143.4 144.4 134.6 118.4 103.9 95.6 99.5 103.1 109.1 110.8 120.3 126 134.2 136.6 143.3 143.9 132.7 106.5 78 85.7 100.9 113.3 126 134.6 142.4 145.5 147.6 140 136.9 130.6 128.3 126.8 125.5 128.4 128.5 120.6 110.9 104.8 91.9 69.9 44.8 32.2 40.6 49.9 62.5 74.8 86.3 94.1 101 114.3 131 144 149 145.7 128.3 122.6 111.8 95.8 92.3 60.9 62.4 60.8 55.9 37 25.6 18 13.6 4.7 1.2 0.4 -1.1 -1.1 -1.1 -1.1 -1.1 -1.1 -1.1 -1.1 -1.1 -1.1 -1.1 -1.1 -1.1 -1.1 -1.1 -1.1 -1.1 -1.1 -1.1 -1.1 -1.1 -1.1 -1.1 -1.1 -1.1 -1.1 -1.1 -1.1 -1.1 -1.1 -1.1 -1.1 -1.1 -1.1 -1.1 -1.1 -1.1 -1.1 -1.1 -1.1 -1.1 -1.1 -1.1 -1.1 -1.1 -1.1 -1.1 -1.1 -0.6 -0.1 0.5 1 1.5 1.8 1.8 1.9 2 2.1 2 1.8 1.9 2.3 2.4 2.7 2.8 2.8 2.6 1.9 2.7 2.3 2.2 2.4 2.6 2.7 2.9 3 10.7 12.4 3.8 3.5 2.4 2.4 2.4 2.4 -1.1 -1.1 3.2 3.2 3.8 3.6 6.1 20.4 40.2 50.9 52.3 54.3 55.1 45.1 49.1 54.9 68.3 81.8 97.3 104.6 116.2 138.1 159.4 164.7 172.4
24.9 28.8 40.9 52.6 66.2 77.5 85.8 101.4 103.9 105 112.5 124.2 123 124.5 128.1 134 139.5 144.8 147.3 147.7 145.8 145.4 134.2 120.3 103.1 91.3 88.9 94.3 98.6 101.8 105 114 123.6 129 136.8 137.3 141.4 125.2 99.3 69.4 80 93.6 107 117.4 124.3 129.9 135.3 136.7 137.8 131.9 124.5 109.3 111.4 114.7 116.7 114.5 110 102.9 97.7 87.5 65.6 40.2 26.4 35 45 58.8 68.4 78.3 84.3 93.6 115.1 130.6 138.9 145.4 143.3 118.7 100.6 82.9 68 63.1 46.5 36.6 35.3 24.8 5.7 1.8 1.7 1.3 0.6 -1.1 -1.1 -1.1 -1.1 -1.1 -1.1 -1.1 -1.1 -1.1 -1.1 -1.1 -1.1 -1.1 -1.1 -1.1 -1.1 -1.1 -1.1 -1.1 -1.1 -1.1 -1.1 -1.1 -1.1 -1.1 -1.1 -1.1 -1.1 -1.1 -1.1 -1.1 -1.1 -1.1 -1.1 -1.1 -1.1 -1.1 -1.1 -1.1 -1.1 -1.1 -1.1 -1.1 -1.1 -1.1 -1.1 -1.1 -1.1 -1.1 -1.1 -0.6 -0.1 0.5 1 1.6 1.8 1.8 1.8 1.8 1.8 1.9 1.9 2.2 2.7 2.9 3 3.2 3.3 3.4 4.8 4.4 4.4 4.3 4.7 5 4.8 4.8 4.7 5 6.3 5.8 5.9 5.8 5.2 4.3 5.3 -1.1 -1.1 3.4 3.1 3 3.4 9.9 33.1 48.6 52.4 55.8 55.6 48.5 40.1 52.5 64.1 76.8 92 105.4 109.1 125.2 145.1 158.8 168 172
25.1 34.2 46.1 63.5 80.9 88.1 97.8 106.5 112.7 110.7 117.7 119.7 118.8 125.7 129.5 138.2 143.5 146.9 147.5 146.8 144.5 138.1 123.8 105 87.9 83.1 78.5 87.2 90.1 94 100 111.3 117.3 126.7 131.1 135.1 138.8 121.1 89.5 60 73.9 87.6 99.4 106.1 113.1 122.8 131 136.1 134.3 127.9 118.5 100.4 90.5 97.8 100.9 99.3 97.6 96.7 87.4 81.9 62.7 35.9 26.8 30.7 40.7 49.1 56 62.6 68.7 80.9 101.6 118.6 121.6 118.6 118.3 103.2 88.4 66.1 42.4 30.4 22.1 13.6 4.8 1.6 1.1 0.8 0.3 -1.1 -1.1 -1.1 -1.1 -1.1 -1.1 -1.1 -1.1 -1.1 -1.1 -1.1 -1.1 -1.1 -1.1 -1.1 -1.1 -1.1 -1.1 -1.1 -1.1 -1.1 -1.1 -1.1 -1.1 -1.1 -1.1 -1.1 -1.1 -1.1 -1.1 -1.1 -1.1 -1.1 -1.1 -1.1 -1.1 -1.1 -1.1 -1.1 -1.1 -1.1 -1.1 -1.1 -1.1 -1.1 -1.1 -1.1 -1.1 -1.1 -1.1 -1.1 -1.1 -0.7 -0.1 0.5 1.2 1.8 1.8 1.8 1.8 2 2 2 2.1 2.4 3.1 3.3 3.4 5.2 3.4 3.2 3.8 3.3 1 2.7 2.7 2.3 2.6 3.6 7.5 13.5 9.1 3.5 3.5 3.3 3.2 3.4 3.8 3.9 -1.1 3.5 3.5 3.1 6.8 18.6 39.9 47.2 52.7 56.9 53.6 37.6 45.8 57.7 72.1 82.5 97.7 105.6 113.5 131.9 149.3 165.4 171.6 173.8
30.4 38.9 51.6 75.4 92.4 101 109 112.9 112.3 114.2 114 112.4 119.8 123.7 133.7 139.7 143 141.3 144 139.3 136.8 130 110.9 88.5 75.8 75.4 73 75.9 81.6 87.6 96.7 108.8 121.5 128.8 134.2 135.8 134.8 121.6 91.4 58.6 65.9 80.9 89.3 95.8 105.5 111.8 120.5 125.5 126.5 122.9 116.9 96.7 73 82.4 84.2 82.8 84.7 83.3 79 75.7 55.9 33.7 20.1 24.3 32 39.5 43.6 46.5 56.9 71.4 96.4 101.1 102.1 100.1 93.6 76.8 61.3 44.3 32.4 7.2 1.8 1.6 1.3 0.8 0.4 -0.1 -1.1 -1.1 -1.1 -1.1 -1.1 -1.1 -1.1 -1.1 -1.1 -1.1 -1.1 -1.1 -1.1 -1.1 -1.1 -1.1 -1.1 -1.1 -1.1 -1.1 -1.1 -1.1 -1.1 -1.1 -1.1 -1.1 -1.1 -1.1 -1.1 -1.1 -1.1 -1.1 -1.1 -1.1 -1.1 -1.1 -1.1 -1.1 -1.1 -1.1 -1.1 -1.1 -1.1 -1.1 -1.1 -1.1 -1.1 -1.1 -1.1 -1.1 -1.1 -1.1 -1.1 -0.4 0.3 0.9 1.6 1.8 1.8 1.8 2.1 2.4 2.4 2.4 2.8 3 3.7 4.3 2.6 3.2 3 9 4.3 1 1 2.2 2.4 2.8 3.2 6 10.5 10.3 4 3.1 3.1 3.2 3 3.1 3.5 -1.1 -1.1 3.5 3.4 4.8 9.4 21.7 38.9 45.9 50.5 52.4 39.7 36.3 52.6 63.3 76.5 80.8 96.7 104 116.4 130.8 158.3 169.6 169.9 165.1
38.3 48.5 62.1 86.1 100.8 104.7 108 110.3 110.7 114 104.9 112 114.2 119.3 125.7 129.4 133.3 134.1 136.9 135.8 136 119 92.7 73 65 65.3 61.5 66.8 73.5 84.2 93.3 108 117.6 125.5 129.9 129.6 122.5 116.1 91.3 60.3 55.8 69.8 77.1 83.5 94.1 99.8 108.3 117.9 116.2 115.8 109.1 91.5 70.8 67.3 68.2 65.8 67 68.6 67.6 64.1 49.6 28.7 17.5 18.1 22.8 30.1 32.5 37.7 47.6 70.4 83.7 85.4 87.8 80.9 65.7 51.5 35.9 18.8 6.1 1.6 1.4 1.2 0.8 0.3 -0.2 -0.7 -1.1 -1.1 -1.1 -1.1 -1.1 -1.1 -1.1 -1.1 -1.1 -1.1 -1.1 -1.1 -1.1 -1.1 -1.1 -1.1 -1.1 -1.1 -1.1 -1.1 -1.1 -1.1 -1.1 -1.1 -1.1 -1.1 -1.1 -1.1 -1.1 -1.1 -1.1 -1.1 -1.1 -1.1 -1.1 -1.1 -1.1 -1.1 -1.1 -1.1 -1.1 -1.1 -1.1 -1.1 -1.1 -1.1 -1.1 -1.1 -1.1 -1.1 -0.1 -1.1 -1.1 0.3 1 1.6 1.8 1.8 1.8 1.9 2.4 2.7 2.9 3.1 3.4 3.8 2.9 3.1 3 3.1 8.3 15.2 4.9 3.7 2.2 2.4 2.7 3.2 4.3 8.2 12 7.9 3.9 3.9 3.8 3.3 3 3.3 3.1 -1.1 3.4 3.2 3.5 7.4 14.4 26.4 40.4 44.5 45.9 45.8 30.9 38.9 52.9 63.5 74.3 83.3 95 108.2 115.5 134 159.9 173.4 163.9 140.7
38.6 56.4 79.9 93.9 103 103.5 105.3 109.4 105.3 97.3 99 105 103.2 105.3 107.2 113 120.8 119.5 120.2 122.8 117.7 100.8 78.6 59.5 55.8 55.3 49.6 66.4 71.5 83.1 91 102.1 111.4 118.4 122.2 120.3 109 108.6 93.7 62.4 41.6 57.7 62.1 68.3 76.8 84.8 92.9 100.7 107.5 101.2 94.7 80.7 65.1 42.5 50.6 51.1 61.3 57.4 52.3 49.5 41.7 25.8 12.8 9 14 20.5 25.4 30.8 43.1 56.3 62.2 62.7 59.9 47.9 38.8 27.4 13.2 -1.1 0.4 1.2 0.9 0.8 0.4 -0.1 -0.6 -1.1 -1.1 -1.1 -1.1 -1.1 -1.1 -1.1 -1.1 -1.1 -1.1 -1.1 -1.1 -1.1 -1.1 -1.1 -1.1 -1.1 -1.1 -1.1 -1.1 -1.1 -1.1 -1.1 -1.1 -1.1 -1.1 -1.1 -1.1 -1.1 -1.1 -1.1 -1.1 -1.1 -1.1 -1.1 -1.1 -1.1 -1.1 -1.1 -1.1 -1.1 -1.1 -1.1 -1.1 -1.1 -1.1 -1.1 -1.1 -1.1 -1.1 -1.1 1.3 1.7 -1.1 -1.1 1.8 2.3 2.4 1.8 1.8 2.2 2.7 3 3.5 3.8 5.3 2.4 2.7 2.7 3.4 5.3 12.5 23.5 5.9 3.6 2.7 2.9 3.1 4.7 7.2 11.3 12.3 4.9 3.8 3.8 3.6 3.4 3.2 3.4 -1.1 -1.1 3 5.9 6.4 7.6 17.2 30 36.8 40.2 42.3 32 29.2 38.8 50.1 61.4 72.9 83 93.4 99.8 114.1 140.6 162.7 161.6 140.7 119.8
46.3 68.8 87.6 95 93.9 95.7 94.9 95 86.5 77.1 82.3 87.8 82.9 81.5 83.5 94.4 94.7 97.6 99.4 101.7 97.8 90.1 68.9 50.3 48.1 42.1 57.1 62.7 67.1 75.4 83.5 91.1 102.2 105.8 107.5 106.8 101.1 102 94.1 63.1 35.5 42.2 49.9 57.3 65.1 74.4 81.1 94.3 93.7 85.6 74.2 62.6 48.7 38.8 35.1 38.4 43.5 43.9 43.2 39.6 29.9 21 7 6.4 9.5 12.4 15.9 20.1 32.3 35.6 36.2 33.3 24.1 9.6 -1.1 -1.1 -1.1 -1.1 -0.4 0.8 0.5 0.4 -0.1 -0.6 -1.1 -1.1 -1.1 -1.1 -1.1 -1.1 -1.1 -1.1 -1.1 -1.1 -1.1 -1.1 -1.1 -1.1 -1.1 -1.1 -1.1 -1.1 -1.1 -1.1 -1.1 -1.1 -1.1 -1.1 -1.1 -1.1 -1.1 -1.1 -1.1 -1.1 -1.1 -1.1 -1.1 -1.1 -1.1 -1.1 -1.1 -1.1 -1.1 -1.1 -1.1 -1.1 -1.1 -1.1 -1.1 -1.1 -1.1 -1.1 -1.1 -1.1 -1.1 -1.1 1.8 1.8 1.8 -1.1 1.8 2.4 2.5 2.1 2.1 2.7 3.1 3.2 3.6 3.9 2.6 2.6 2.7 2.4 8.4 15 22.4 13.7 6.6 4.1 2.9 3.3 4.1 7.4 10.5 13 8 3.6 2.9 3.5 3.3 3.2 3.1 3.2 3.3 3 3.4 6.9 5.5 12.7 15.9 25 31.7 36.7 33.3 25.6 29.7 38.1 46.7 59.6 68.1 79.4 93.4 100.8 121.1 148.1 158.5 138.3 118 100.9
48.5 66.9 71.7 70.2 76.8 72.6 71.6 66.6 55.8 55.8 60.6 59.4 57.7 62.8 66.8 71.4 77.7 81.9 78.8 78.3 77.5 71.3 54.8 44.8 37.4 46.3 54.6 57.5 62.9 66.4 74 81.2 91.1 95.7 96.5 94.5 95.4 88.2 78.6 58.6 32.2 29.6 41.9 43.3 53 63.4 76 80.6 76 66.7 55.8 42.5 28.2 27.5 22.1 27.4 27.6 33.8 30.4 20.4 16.1 7.7 1.8 2.7 5.2 4.7 4.5 8.7 13.8 15.9 15.2 -1.1 -1.1 -1.1 -1.1 -1.1 -1.1 -1.1 -1.1 -0.1 0.1 0 -0.5 -1 -1.1 -1.1 -1.1 -1.1 -1.1 -1.1 -1.1 -1.1 -1.1 -1.1 -1.1 -1.1 -1.1 -1.1 -1.1 -1.1 -1.1 -1.1 -1.1 -1.1 -1.1 -1.1 -1.1 -1.1 -1.1 -1.1 -1.1 -1.1 -1.1 -1.1 -1.1 -1.1 -1.1 -1.1 -1.1 -1.1 -1.1 -1.1 -1.1 -1.1 -1.1 -1.1 -1.1 -1.1 -1.1 -1.1 -1.1 -1.1 -1.1 -1.1 -1.1 0.7 1.8 1.8 1.8 1.8 -1.1 1.8 2 2 2.9 3.4 3.3 3.4 2.8 2.7 2.8 2.5 2.3 6.3 6.6 13 23.5 8.7 5.5 3.5 3.5 3.9 6.8 10.5 17 12.9 2.4 2.8 2.7 2.8 3 3 2.9 3.2 3.5 3.6 5.3 4.9 5.1 8.5 15.7 21.5 24.5 26.6 25.7 26.5 30.4 33.7 44.1 54.5 63.2 77.8 93.5 103.7 126.9 144.2 136.1 109.7 94.1 87.1
34.5 43.6 44.7 23.5 46.4 43.4 43 43.2 31.5 33.2 32.6 38 44.7 48.1 48 49.9 50.5 58 54.4 55.9 58.6 58.9 49.7 39.2 36.3 42.4 47.9 50.6 52.9 60 66.5 74.4 81.3 87.4 87.3 96.2 95.7 81 64.3 51.7 29.3 18.1 30 35.9 44.3 55.3 69.6 64.9 54.4 44.3 35.2 24.1 14.2 5.6 7.8 12.3 12.1 12.2 -1.1 -1.1 -1.1 -1.1 -1.1 -1.1 4.3 1.8 -1.1 -1.1 -1.1 -1.1 -1.1 -1.1 -1.1 -1.1 -1.1 -1.1 -1.1 -1.1 -1.1 -0.9 -0.3 -0.5 -1 -1.1 -1.1 -1.1 -1.1 -1.1 -1.1 -1.1 -1.1 -1.1 -1.1 -1.1 -1.1 -1.1 -1.1 -1.1 -1.1 -1.1 -1.1 -1.1 -1.1 -1.1 -1.1 -1.1 -1.1 -1.1 -1.1 -1.1 -1.1 -1.1 -1.1 -1.1 -1.1 -1.1 -1.1 -1.1 -1.1 -1.1 -1.1 -1.1 -1.1 -1.1 -1.1 -1.1 -1.1 -1.1 -1.1 -1.1 -1.1 -1.1 -1.1 -1.1 -0.6 0.9 1.8 1.8 1.8 1.8 1.8 1.8 2 2.5 3.4 3.3 3.4 2.9 2.7 2.7 3.5 3 3.4 6.7 5.9 11.8 8.4 5.4 3.8 3.7 4.2 4.7 11.9 22.2 19.5 12.4 2.9 2.7 2.8 2.8 2.7 2.5 2.8 3.5 3.7 4 4.3 3.2 5.8 11.7 17.5 17.9 23.8 25 25.9 26.8 27.1 31 41 50.7 61.4 80.7 88.4 102 123.8 127.8 106.7 86.9 77.2 75.2
14 15.1 12.1 19.2 20.8 20.3 24.1 14.3 7.4 7.5 14.6 19.2 22.1 22.6 26.4 29.7 34.7 36.2 36.1 42.9 45.9 52.8 55.2 36.8 30.2 35.6 39.9 42.5 47.5 52.4 56.5 62 66.4 70.7 78.1 77.8 77.2 73.4 56.1 40.2 25.9 11.3 17.8 26.4 39.3 51.1 50.6 42.9 32.7 24.7 14.4 2.4 -1.1 -1.1 -1.1 -1.1 -1.1 -1.1 -1.1 -1.1 -1.1 -1.1 -1.1 -1.1 0.9 -0.4 -1.1 -1.1 -1.1 -1.1 -1.1 -1.1 -1.1 -1.1 -1.1 -1.1 -1.1 -1.1 -1.1 -1.1 -0.7 -0.9 -1.1 -1.1 -1.1 -1.1 -1.1 -1.1 -1.1 -1.1 -1.1 -1.1 -1.1 -1.1 -1.1 -1.1 -1.1 -1.1 -1.1 -1.1 -1.1 -1.1 -1.1 -1.1 -1.1 -1.1 -1.1 -1.1 -1.1 -1.1 -1.1 -1.1 -1.1 -1.1 -1.1 -1.1 -1.1 -1.1 -1.1 -1.1 -1.1 -1.1 -1.1 -1.1 -1.1 -1.1 -1.1 -1.1 -1.1 -1.1 -1.1 -1.1 -1.1 -1.1 -0.2 0.8 1.8 1.8 1.8 1.8 1.8 2.1 2.4 2.6 3.1 2.8 2.7 2.5 3.1 4.5 3.3 4.2 7.3 4.2 5.1 4.8 4.7 4.5 4.3 4.2 5.5 12.5 24.5 20.9 19.8 8.5 2.7 2.9 2.8 2.8 2.4 2.1 2.9 3.8 4.3 4.6 4.8 4.9 5.8 10.1 18.4 24.1 29.8 25.1 26 27.9 29 29.7 40 49.4 68.3 86.5 83.4 93.3 105.1 101.7 81.5 69.5 68.4 67.4
5 4.7 4.9 4.6 4.6 4.5 4.2 4.4 4.7 4.7 4.9 5 5.1 5.2 6.2 12.7 17.2 19.9 22.8 29.5 34.7 49.8 54.2 38.6 23.2 25.4 29.1 33.6 38.6 40.9 45.4 50 52 54.7 63.8 61.1 56.4 53.8 41.2 30.3 19 6.7 9 18.2 35.9 37.9 30.7 23.4 16 -1.1 -1.1 -1.1 -1.1 -1.1 -1.1 -1.1 -1.1 -1.1 -1.1 -1.1 -1.1 -1.1 -1.1 -1.1 -1.1 -1.1 -1.1 -1.1 -1.1 -1.1 -1.1 -1.1 -1.1 -1.1 -1.1 -1.1 -1.1 -1.1 -1.1 -1.1 -1.1 -1.1 -1.1 -1.1 -1.1 -1.1 -1.1 -1.1 -1.1 -1.1 -1.1 -1.1 -1.1 -1.1 -1.1 -1.1 -1.1 -1.1 -1.1 -1.1 -1.1 -1.1 -1.1 -1.1 -1.1 -1.1 -1.1 -1.1 -1.1 -1.1 -1.1 -1.1 -1.1 -1.1 -1.1 -1.1 -1 -1 -1.1 -1.1 -1.1 -1.1 -1.1 -1.1 -1.1 -1.1 -1.1 -1.1 -1.1 -1.1 -1.1 -1.1 -1.1 -0.6 0.3 1.2 1.8 1.8 1.8 1.8 2.1 2.3 2.7 3 2.8 1.8 2.4 2.4 2.6 3 2.8 4.2 5 3.9 4 6.5 4.3 4.2 3.9 4.9 11.9 23.2 25.1 22.2 17.7 9.2 3.4 3.1 2.8 2.4 2.2 2.5 3.5 4.2 5.2 5.4 5.6 6 10.5 19 25 39.6 38 26 26.5 28.7 35 38.4 41.8 49.9 69.3 74.9 79.2 83.4 94.2 79.8 64.2 61.5 67 73.1
3.8 4.4 4.2 4 5 4.8 4.3 4.2 4.3 4.4 4.3 4.4 4.5 4.5 4.2 4.4 5 5.7 7.1 14.4 28.8 40.3 43.4 42.3 33.4 16.8 17.9 21.5 28.2 31.8 35.3 36.1 38 45.9 48.4 41.4 33.8 29.6 30.7 21.2 5.1 6.6 7.2 16.5 26.9 21.1 11.7 -1.1 -1.1 -1.1 -1.1 -1.1 -1.1 -1.1 -1.1 -1.1 -1.1 -1.1 -1.1 -1.1 -1.1 -1.1 -1.1 -1.1 -1.1 -1.1 -1.1 -1.1 -1.1 -1.1 -1.1 -1.1 -1.1 -1.1 -1.1 -1.1 -1.1 -1.1 -1.1 -1.1 -1.1 -1.1 -1.1 -1.1 -1.1 -1.1 -1.1 -1.1 -1.1 -1.1 -1.1 -1.1 -1.1 -1.1 -1.1 -1.1 -1.1 -1.1 -1.1 -1.1 -1.1 -1.1 -1.1 -1.1 -1.1 -1.1 -1.1 -1.1 -1.1 -1.1 -1.1 -1.1 -1.1 -1.1 -1.1 -1.1 -0.9 -0.8 -0.9 -0.9 -1.1 -1.1 -1.1 -1.1 -1.1 -1.1 -1.1 -1.1 -1.1 -1.1 -1.1 -1.1 -1.1 -0.2 0.8 1.4 1.8 1.8 2 2.2 2.7 2.8 2.9 2.6 2.3 2.5 2.5 2.5 2.7 3.1 4.1 3.6 3.9 4 4 4.1 4.6 4.4 4.5 10 20.8 29.5 25.3 22.6 20 10 3.5 2.7 2.5 2.7 2.7 2.8 4.3 5.6 5.8 6.2 6.6 8.2 15.4 24.5 34.4 37.1 34.6 26.9 29.3 41.8 51.7 53 39.7 50.6 59.4 60.8 70.1 76.2 82.4 64.2 59.9 66.1 73.3 80.6
5.1 5.7 4.1 3.3 3.4 3.6 3.5 3.7 4.2 4.6 4.5 4.4 4.5 4.3 4.2 4.5 4.9 4.6 6.5 10.6 21.5 32.1 40.2 43.9 35.3 21.8 12.5 13.3 13.4 14.3 24.6 25.2 25 31.5 32.7 28.1 6.7 5.3 -1.1 -1.1 -1.1 -1.1 -1.1 -1.1 -1.1 -1.1 -1.1 -1.1 -1.1 -1.1 -1.1 -1.1 -1.1 -1.1 -1.1 -1.1 -1.1 -1.1 -1.1 -1.1 -1.1 -1.1 -1.1 -1.1 -1.1 -1.1 -1.1 -1.1 -1.1 -1.1 -1.1 -1.1 -1.1 -1.1 -1.1 -1.1 -1.1 -1.1 -1.1 -1.1 -1.1 -1.1 -1.1 -1.1 -1.1 -1.1 -1.1 -1.1 -1.1 -1.1 -1.1 -1.1 -1.1 -1.1 -1.1 -1.1 -1.1 -1.1 -1.1 -1.1 -1.1 -1.1 -1.1 -1.1 -1.1 -1.1 -1.1 -1.1 -1.1 -1.1 -1.1 -1.1 -1.1 -1.1 -1.1 -1.1 -0.7 -0.7 -0.7 -0.7 -0.8 -0.9 -1 -1.1 -1.1 -1.1 -1.1 -1.1 -1.1 -1.1 -1.1 -1.1 -0.6 0.3 0.8 1.4 2 2.3 2.5 2.8 3.3 3.3 4.2 2.6 1.4 1.4 2.6 2.6 3.4 4.2 6.4 3.7 3.4 3.7 4 4.3 8.6 6.1 5.5 18.1 28.9 32.6 25 23.8 18.2 9.3 3.6 2.9 3.2 3.2 3.2 3.2 5.2 5.3 5.7 7.1 8.7 11 20.9 29.8 34.9 35.8 30.7 31.3 40.1 52.2 64.4 73.6 59.7 57.8 51.4 51.8 50.6 57.2 57.5 68.1 65.8 71.8 79.1 87.9
13.4 6.3 5.9 4.7 4.1 3.8 3.7 3.7 3.6 3.7 3.9 4.4 4.7 4.4 4.5 5.1 5 4.8 5.7 6.7 8.2 27.2 29.7 25.9 11.9 23.3 24.2 13.2 6 5.4 9.5 5.1 6.9 11.6 9.8 -1.1 -1.1 -1.1 -1.1 -1.1 -1.1 -1.1 -1.1 -1.1 -1.1 -1.1 -1.1 -1.1 -1.1 -1.1 -1.1 -1.1 -1.1 -1.1 -1.1 -1.1 -1.1 -1.1 -1.1 -1.1 -1.1 -1.1 -1.1 -1.1 -1.1 -1.1 -1.1 -1.1 -1.1 -1.1 -1.1 -1.1 -1.1 -1.1 -1.1 -1.1 -1.1 -1.1 -1.1 -1.1 -1.1 -1.1 -1.1 -1.1 -1.1 -1.1 -1.1 -1.1 -1.1 -1.1 -1.1 -1.1 -1.1 -1.1 -1.1 -1.1 -1.1 -1.1 -1.1 -1.1 -1.1 -1.1 -1.1 -1.1 -1.1 -1.1 -1.1 -1.1 -1.1 -1.1 -1.1 -1.1 -1.1 -1.1 -1.1 -0.9 -0.6 -0.5 -0.6 -0.5 -0.6 -0.7 -0.8 -0.9 -1.1 -1.1 -1.1 -1.1 -1.1 -1.1 -1.1 -1.1 -0.4 0.2 0.8 1.4 2.1 2.7 2.9 3.1 3.4 4.4 3.3 2.9 2.8 1.4 2.6 2.8 3.6 8.6 6.1 3.7 3.5 3.7 4.1 3.9 8.6 4.8 13.6 31.3 36.7 35.9 28.5 22.7 20.9 9.4 4.7 3.3 3.5 3.6 3.6 4.3 4.8 4.9 5.6 7.2 11.8 15.8 26.2 34.5 38.1 36 33 44.7 54.1 70.6 90.6 100 97 93.9 79 73.8 73.1 76.2 73 66 75.4 77.6 85.5 98.2
7.2 11.8 13.9 6.8 4.4 3.8 3.8 3.6 3.5 3.7 3.9 4 4.6 4.5 4.2 4.6 4.8 4.3 6.7 8.1 9.2 7.6 5.4 5.3 5.7 5.9 10.1 16.5 4.8 4.1 -1.1 -1.1 -1.1 -1.1 -1.1 -1.1 -1.1 -1.1 -1.1 -1.1 -1.1 -1.1 -1.1 -1.1 -1.1 -1.1 -1.1 -1.1 -1.1 -1.1 -1.1 -1.1 -1.1 -1.1 -1.1 -1.1 -1.1 -1.1 -1.1 -1.1 -1.1 -1.1 -1.1 -1.1 -1.1 -1.1 -1.1 -1.1 -1.1 -1.1 -1.1 -1.1 -1.1 -1.1 -1.1 -1.1 -1.1 -1.1 -1.1 -1.1 -1.1 -1.1 -1.1 -1.1 -1.1 -1.1 -1.1 -1.1 -1.1 -1.1 -1.1 -1.1 -1.1 -1.1 -1.1 -1.1 -1.1 -1.1 -1.1 -1.1 -1.1 -1.1 -1.1 -1.1 -1.1 -1.1 -1.1 -1.1 -1.1 -1.1 -1.1 -1.1 -1.1 -1.1 -1.1 -0.8 -0.5 -0.4 -0.4 -0.3 -0.4 -0.5 -0.6 -0.7 -0.8 -1 -1.1 -1.1 -1.1 -1.1 -1.1 -1.1 -0.4 0.4 1.2 1.8 2 2.7 3.2 3.1 3.8 2 2.8 2.7 2.7 1.4 2.1 2.6 3.4 6.5 3.7 3.8 3.5 3.7 4.1 4 4.5 6.8 23.3 42.3 43.2 36.9 27.1 28.6 21.4 8.1 4.8 3.9 3.8 4 4.3 4.5 4.7 4.7 5.9 10.4 14.4 20 33.1 43.5 40.2 38.5 46.5 63.6 73.1 89.4 112.1 120.9 127.2 117.8 104.1 109.1 104.1 102.9 98 91.9 85.2 79 92.3 107.1
4.4 6 10.8 14.6 10.9 3.9 5.3 4.3 3.9 3.5 4.7 5.2 5.9 4.4 4.1 4.5 4.6 5.3 4.7 5.6 4.1 4.2 3.9 4.4 5 5 4.5 4.3 -1.1 -1.1 -1.1 -1.1 -1.1 -1.1 -1.1 -1.1 -1.1 -1.1 -1.1 -1.1 -1.1 -1.1 -1.1 -1.1 -1.1 -1.1 -1.1 -1.1 -1.1 -1.1 -1.1 -1.1 -1.1 -1.1 -1.1 -1.1 -1.1 -1.1 -1.1 -1.1 -1.1 -1.1 -1.1 -1.1 -1.1 -1.1 -1.1 -1.1 -1.1 -1.1 -1.1 -1.1 -1.1 -1.1 -1.1 -1.1 -1.1 -1.1 -1.1 -1.1 -1.1 -1.1 -1.1 -1.1 -1.1 -1.1 -1.1 -1.1 -1.1 -1.1 -1.1 -1.1 -1.1 -1.1 -1.1 -1.1 -1.1 -1.1 -1.1 -1.1 -1.1 -1.1 -1.1 -1.1 -1.1 -1.1 -1.1 -1.1 -1.1 -1.1 -1.1 -1.1 -1.1 -1.1 -0.9 -0.6 -0.3 -0.2 -0.3 -0.2 -0.2 -0.3 -0.4 -0.5 -0.6 -0.8 -0.9 -1.1 -1.1 -1.1 -1.1 -1.1 -1.1 1.1 1.8 1.8 1.9 2.9 3.6 3.2 2.8 2.6 1.4 1.4 1.4 2.7 2.6 2.6 5 4.4 3.9 3.8 3.5 3.6 4 4.3 4.8 12.7 33.4 52.4 43.1 33.9 32.3 30.1 17.9 7.6 5 4.3 3.8 4.1 4.4 4.7 4.4 4.6 9 14 16.6 32.6 42.8 42.7 42.1 41.5 62 80.5 91.8 110.1 122.2 138.7 141.2 127.6 129.6 138.1 135.3 132.2 125.3 114 103.4 79.9 104.6 118.1
3.2 3.1 3.4 3.8 4.1 4.7 9.4 8.9 7.6 8.3 8.3 8.9 7.5 7.1 7.4 6.8 6.7 6.7 5 5.4 5.5 5.1 4.8 3.3 2.8 2.8 1.7 -1.1 -1.1 -1.1 -1.1 -1.1 -1.1 -1.1 -1.1 -1.1 -1.1 -1.1 -1.1 -1.1 -1.1 -1.1 -1.1 -1.1 -1.1 -1.1 -1.1 -1.1 -1.1 -1.1 -1.1 -1.1 -1.1 -1.1 -1.1 -1.1 -1.1 -1.1 -1.1 -1.1 -1.1 -1.1 -1.1 -1.1 -1.1 -1.1 -1.1 -1.1 -1.1 -1.1 -1.1 -1.1 -1.1 -1.1 -1.1 -1.1 -1.1 -1.1 -1.1 -1.1 -1.1 -1.1 -1.1 -1.1 -1.1 -1.1 -1.1 -1.1 -1.1 -1.1 -1.1 -1.1 -1.1 -1.1 -1.1 -1.1 -1.1 -1.1 -1.1 -1.1 -1.1 -1.1 -1.1 -1.1 -1.1 -1.1 -1.1 -1.1 -1.1 -1.1 -1.1 -1.1 -1.1 -1.1 -0.8 -0.5 -0.2 -0.1 -0.1 0 -0.1 -0.1 -0.2 -0.3 -0.4 -0.5 -0.7 -0.8 -0.4 -0.2 0 0.1 -1.1 2.3 2.5 2.8 2.5 2.6 3.5 2.8 2.7 2.6 2.6 2.7 1.4 2.8 2.5 2.7 5.8 3.8 3.7 3.6 3.5 3.6 3.9 4.5 5.5 21.6 43.8 54.1 42.7 35.3 34.3 21.3 12.3 9.4 6.8 4.7 4.2 4.1 4.5 4.7 4.5 4.9 9.1 16.1 18.5 39.2 46.6 44.5 45.4 57.2 78.6 93.6 106.4 120.1 132 148.4 140.7 147.8 154.1 159.2 164.2 155.6 147.5 134.1 119.9 110.6 115.7 128.5
2.4 2.1 2.1 2.1 2.2 2.6 3 3.4 3.7 3.6 3.7 4.2 5.6 6.8 7.5 7.5 7.1 6.8 6.5 6 5.5 3.5 2.5 2.1 1.9 -1.1 -1.1 -1.1 -1.1 -1.1 -1.1 -1.1 -1.1 -1.1 -1.1 -1.1 -1.1 -1.1 -1.1 -1.1 -1.1 -1.1 -1.1 -1.1 -1.1 -1.1 -1.1 -1.1 -1.1 -1.1 -1.1 -1.1 -1.1 -1.1 -1.1 -1.1 -1.1 -1.1 -1.1 -1.1 -1.1 -1.1 -1.1 -1.1 -1.1 -1.1 -1.1 -1.1 -1.1 -1.1 -1.1 -1.1 -1.1 -1.1 -1.1 -1.1 -1.1 -1.1 -1.1 -1.1 -1.1 -1.1 -1.1 -1.1 -1.1 -1.1 -1.1 -1.1 -1.1 -1.1 -1.1 -1.1 -1.1 -1.1 -1.1 -1.1 -1.1 -1.1 -1.1 -1.1 -1.1 -1.1 -1.1 -1.1 -1.1 -1.1 -1.1 -1.1 -1.1 -1.1 -1.1 -1.1 -1.1 -1 -0.7 -0.3 0 0 0 0.1 0.1 0.1 0.1 -0.1 -0.2 -0.3 -0.5 -0.4 -0.1 0.4 0.7 1.5 -1.1 2.8 2.9 2.2 1.8 3.9 3.3 2.8 2.7 2.7 2.7 2.5 2.4 1.4 2.9 2.9 4.3 3.8 3.7 3.6 3.5 3.6 3.9 4.6 7.3 26 47.9 53.1 46.1 41.1 31.3 18.9 14.6 12.4 8.5 5.5 5.3 4.8 4.9 4.9 4.8 4.9 12.7 15.9 30.4 41.3 45.7 47 55.9 75 96.7 106.5 113.6 124.6 141.5 156.5 159.6 162.7 171.7 174.4 179.4 173.1 162.2 147.6 134.7 126.1 129.8 126.1
1.9 1.9 2 2 2 2 2 2.1 2.1 2.6 2.7 2.6 2.5 2.3 1.7 1.6 1.5 1.5 1.6 1.5 1.2 1.1 0.8 0.5 -1.1 -1.1 -1.1 -1.1 -1.1 -1.1 -1.1 -1.1 -1.1 -1.1 -1.1 -1.1 -1.1 -1.1 -1.1 -1.1 -1.1 -1.1 -1.1 -1.1 -1.1 -1.1 -1.1 -1.1 -1.1 -1.1 -1.1 -1.1 -1.1 -1.1 -1.1 -1.1 -1.1 -1.1 -1.1 -1.1 -1.1 -1.1 -1.1 -1.1 -1.1 -1.1 -1.1 -1.1 -1.1 -1.1 -1.1 -1.1 -1.1 -1.1 -1.1 -1.1 -1.1 -1.1 -1.1 -1.1 -1.1 -1.1 -1.1 -1.1 -1.1 -1.1 -1.1 -1.1 -1.1 -1.1 -1.1 -1.1 -1.1 -1.1 -1.1 -1.1 -1.1 -1.1 -1.1 -1.1 -1.1 -1.1 -1.1 -1.1 -1.1 -1.1 -1.1 -1.1 -1.1 -1.1 -1.1 -1.1 -1.1 -0.8 -0.5 -0.2 0.1 0.2 0.2 0.3 0.3 0.2 0.3 0.2 0 -0.1 -0.2 -0.1 0.3 0.7 1.3 1.8 -1.1 2.2 2.7 2.9 3.6 3.5 3 3 2.7 2.8 2.5 2.5 2.2 2.2 2.4 2.2 2.2 3.1 3.4 3.6 3.5 3.6 4 4.5 8 30.4 43.8 48.1 42.8 40.3 26.2 22.3 18 14.1 9.7 5.8 5.5 5.7 5.4 5.4 5.3 5.7 13 21.6 37 44.1 46 50.3 69.7 87.1 105.1 111.7 123.1 132.9 153.6 168.3 172.7 176.9 185.4 193 196.8 189.3 172.1 158.7 146.4 142.4 143.8 140.3
1.6 1.7 1.8 1.8 1.9 1.9 1.9 1.9 1.9 1.9 1.8 1.5 1.3 1.1 0.8 0.7 0.4 0.4 0.3 0.1 0 -0.1 -1.1 -1.1 -1.1 -1.1 -1.1 -1.1 -1.1 -1.1 -1.1 -1.1 -1.1 -1.1 -1.1 -1.1 -1.1 -1.1 -1.1 -1.1 -1.1 -1.1 -1.1 -1.1 -1.1 -1.1 -1.1 -1.1 -1.1 -1.1 -1.1 -1.1 -1.1 -1.1 -1.1 -1.1 -1.1 -1.1 -1.1 -1.1 -1.1 -1.1 -1.1 -1.1 -1.1 -1.1 -1.1 -1.1 -1.1 -1.1 -1.1 -1.1 -1.1 -1.1 -1.1 -1.1 -1.1 -1.1 -1.1 -1.1 -1.1 -1.1 -1.1 -1.1 -1.1 -1.1 -1.1 -1.1 -1.1 -1.1 -1.1 -1.1 -1.1 -1.1 -1.1 -1.1 -1.1 -1.1 -1.1 -1.1 -1.1 -1.1 -1.1 -1.1 -1.1 -1.1 -1.1 -1.1 -1.1 -1.1 -1.1 -1.1 -1 -0.7 -0.4 -0.1 0.3 0.3 0.3 0.4 0.5 0.4 0.5 0.4 0.2 0.1 0.1 0.3 0.6 1 1.5 1.8 1.8 1.8 4 2.7 2.6 2.6 2.7 2.7 2.1 2.3 2.1 1.8 1.7 1.9 2.1 2.9 2.6 3 3.3 3.4 3.5 3.6 4.1 4.7 10.3 31.8 43.4 43.3 39.2 29.6 28.3 24.7 19.9 14.5 9.9 5.6 5.4 5.6 5.8 5.7 5.5 9.9 17.2 27.5 42.5 46.5 45.9 56.2 79.5 96.7 108 120.8 132.5 146 162.9 178.4 180.9 190.2 201.8 207.7 208.7 204.2 180.8 169.5 159.7 157 158.6 155.2
1.1 1.3 1.4 1.4 1.5 1.5 1.6 1.5 1.4 1.2 1.1 0.8 0.6 0.2 0 -0.2 -0.5 -1.1 -1.1 -1.1 -1.1 -1.1 -1.1 -1.1 -1.1 -1.1 -1.1 -1.1 -1.1 -1.1 -1.1 -1.1 -1.1 -1.1 -1.1 -1.1 -1.1 -1.1 -1.1 -1.1 -1.1 -1.1 -1.1 -1.1 -1.1 -1.1 -1.1 -1.1 -1.1 -1.1 -1.1 -1.1 -1.1 -1.1 -1.1 -1.1 -1.1 -1.1 -1.1 -1.1 -1.1 -1.1 -1.1 -1.1 -1.1 -1.1 -1.1 -1.1 -1.1 -1.1 -1.1 -1.1 -1.1 -1.1 -1.1 -1.1 -1.1 -1.1 -1.1 -1.1 -1.1 -1.1 -1.1 -1.1 -1.1 -1.1 -1.1 -1.1 -1.1 -1.1 -1.1 -1.1 -1.1 -1.1 -1.1 -1.1 -1.1 -1.1 -1.1 -1.1 -1.1 -1.1 -1.1 -1.1 -1.1 -1.1 -1.1 -1.1 -1.1 -1.1 -1.1 -1.1 -0.8 -0.5 -0.2 0.1 0.4 0.5 0.5 0.6 0.7 0.6 0.7 0.6 0.5 0.3 0.5 0.6 0.9 1.3 1.8 2.5 2.3 4.4 2.2 2.7 2.6 2.5 2.5 2.4 2.1 2.1 2.3 2.2 2.3 2.7 3 2.6 2.5 2.9 3.3 3.3 3.4 3.6 4 4.7 14.6 27.3 36 37.2 29.3 28.1 26.9 23 18.7 13.6 9.2 6.2 6.4 6.2 6.2 6.2 6.5 14 20.4 36.9 47.7 48.5 45.9 63 84.7 100.1 112.1 125.2 143.5 154.8 172.1 184.7 194.2 205.7 215.1 222.1 220.6 211.6 190.8 178.6 171 170.4 174.7 180
0.7 0.8 0.9 1 1 1 1 0.9 0.8 0.6 0.4 0.2 -0.2 -0.5 -1.1 -1.1 -1.1 -1.1 -1.1 -1.1 -1.1 -1.1 -1.1 -1.1 -1.1 -1.1 -1.1 -1.1 -1.1 -1.1 -1.1 -1.1 -1.1 -1.1 -1.1 -1.1 -1.1 -1.1 -1.1 -1.1 -1.1 -1.1 -1.1 -1.1 -1.1 -1.1 -1.1 -1.1 -1.1 -1.1 -1.1 -1.1 -1.1 -1.1 -1.1 -1.1 -1.1 -1.1 -1.1 -1.1 -1.1 -1.1 -1.1 -1.1 -1.1 -1.1 -1.1 -1.1 -1.1 -1.1 -1.1 -1.1 -1.1 -1.1 -1.1 -1.1 -1.1 -1.1 -1.1 -1.1 -1.1 -1.1 -1.1 -1.1 -1.1 -1.1 -1.1 -1.1 -1.1 -1.1 -1.1 -1.1 -1.1 -1.1 -1.1 -1.1 -1.1 -1.1 -1.1 -1.1 -1.1 -1.1 -1.1 -1.1 -1.1 -1.1 -1.1 -1.1 -1.1 -1.1 -1.1 -1 -0.7 -0.4 -0.1 0.2 0.5 0.6 0.6 0.7 0.9 0.8 0.9 0.8 0.7 0.6 0.8 1 1.3 1.6 2.2 3 5.1 0.9 3 2.6 2.6 2.7 2.5 2.2 2.4 2.8 2.9 2.6 2.5 2.2 2.2 2.2 2.7 3.1 3.2 3.3 3.4 3.6 3.9 4.5 10.3 25.9 24 20.1 25.2 25.8 23.7 20.5 16.3 12 8.2 6.5 6.4 7.7 7 6.8 8.7 16.4 27.1 45.9 54.5 51.6 48.9 79.4 91.8 101.5 120.3 137.6 150.2 165.1 179.1 190.8 204.7 213.1 222.2 232.2 233.4 214.5 200.8 188.7 183.9 185.2 191.5 195.3
0.2 0.4 0.5 0.5 0.5 0.5 0.5 0.4 0.3 0.1 -0.1 -0.5 -1.1 -1.1 -1.1 -1.1 -1.1 -1.1 -1.1 -1.1 -1.1 -1.1 -1.1 -1.1 -1.1 -1.1 -1.1 -1.1 -1.1 -1.1 -1.1 -1.1 -1.1 -1.1 -1.1 -1.1 -1.1 -1.1 -1.1 -1.1 -1.1 -1.1 -1.1 -1.1 -1.1 -1.1 -1.1 -1.1 -1.1 -1.1 -1.1 -1.1 -1.1 -1.1 -1.1 -1.1 -1.1 -1.1 -1.1 -1.1 -1.1 -1.1 -1.1 -1.1 -1.1 -1.1 -1.1 -1.1 -1.1 -1.1 -1.1 -1.1 -1.1 -1.1 -1.1 -1.1 -1.1 -1.1 -1.1 -1.1 -1.1 -1.1 -1.1 -1.1 -1.1 -1.1 -1.1 -1.1 -1.1 -1.1 -1.1 -1.1 -1.1 -1.1 -1.1 -1.1 -1.1 -1.1 -1.1 -1.1 -1.1 -1.1 -1.1 -1.1 -1.1 -1.1 -1.1 -1.1 -1.1 -1.1 -1.1 -0.9 -0.6 -0.3 0.1 0.4 0.7 0.7 0.8 0.9 1 1 1 1 0.9 0.9 1.1 1.3 1.6 2.1 3.2 3.5 3.1 2.8 2.5 2.5 2.5 2.7 2.3 2.5 2.7 2.4 2.8 2.5 2.2 2.2 2.3 2.2 3.1 3.1 3.2 3.2 3.3 3.5 3.9 4.9 11.6 20.7 16.7 19.9 23.5 22 19.8 16.8 13.8 9.9 7.2 7 7.1 7.7 7.4 9.8 13.1 18.8 38.6 52.8 60.4 49 67.4 86.4 100 110.9 130.8 147.7 159.4 171.9 188.9 203.5 214.2 220.3 229.3 237.4 238.1 217 207.8 197.6 195.6 202.4 203.8 209.5
-0.2 -0.1 0.1 0.1 0.1 0 -0.1 -0.2 -0.3 -0.4 -0.7 -1.1 -1.1 -1.1 -1.1 -1.1 -1.1 -1.1 -1.1 -1.1 -1.1 -1.1 -1.1 -1.1 -1.1 -1.1 -1.1 -1.1 -1.1 -1.1 -1.1 -1.1 -1.1 -1.1 -1.1 -1.1 -1.1 -1.1 -1.1 -1.1 -1.1 -1.1 -1.1 -1.1 -1.1 -1.1 -1.1 -1.1 -1.1 -1.1 -1.1 -1.1 -1.1 -1.1 -1.1 -1.1 -1.1 -1.1 -1.1 -1.1 -1.1 -1.1 -1.1 -1.1 -1.1 -1.1 -1.1 -1.1 -1.1 -1.1 -1.1 -1.1 -1.1 -1.1 -1.1 -1.1 -1.1 -1.1 -1.1 -1.1 -1.1 -1.1 -1.1 -1.1 -1.1 -1.1 -1.1 -1.1 -1.1 -1.1 -1.1 -1.1 -1.1 -1.1 -1.1 -1.1 -1.1 -1.1 -1.1 -1.1 -1.1 -1.1 -1.1 -1.1 -1.1 -1.1 -1.1 -1.1 -1.1 -1.1 -1 -0.7 -0.4 -0.1 0.2 0.5 0.8 0.9 0.9 1 1.2 1.2 1.2 1.2 1.1 1.2 1.4 1.6 2 2.9 2.5 3.2 2.8 2.5 2.3 2.3 2.4 2.3 2.6 2.8 2.9 2.8 2.9 2.4 2.2 2.2 2.2 2.2 3.5 3.4 3.1 3.2 3.4 3.3 3.7 5.8 9.3 11.3 13.2 17.7 20.4 18 15.3 12.9 10.6 8 7.2 7.5 7.8 7.7 7.9 9.8 13.2 26 42.9 55.7 53.8 57.1 80.1 92.9 110.3 128.7 150.2 162.3 171 187.7 204 215.6 223.3 228.1 237.6 243.3 238.9 220.9 212.9 204.7 206.3 214.5 219.2 226
-0.7 -0.5 -0.4 -0.4 -0.4 -0.5 -0.6 -0.7 -1.1 -1.1 -1.1 -1.1 -1.1 -1.1 -1.1 -1.1 -1.1 -1.1 -1.1 -1.1 -1.1 -1.1 -1.1 -1.1 -1.1 -1.1 -1.1 -1.1 -1.1 -1.1 -1.1 -1.1 -1.1 -1.1 -1.1 -1.1 -1.1 -1.1 -1.1 -1.1 -1.1 -1.1 -1.1 -1.1 -1.1 -1.1 -1.1 -1.1 -1.1 -1.1 -1.1 -1.1 -1.1 -1.1 -1.1 -1.1 -1.1 -1.1 -1.1 -1.1 -1.1 -1.1 -1.1 -1.1 -1.1 -1.1 -1.1 -1.1 -1.1 -1.1 -1.1 -1.1 -1.1 -1.1 -1.1 -1.1 -1.1 -1.1 -1.1 -1.1 -1.1 -1.1 -1.1 -1.1 -1.1 -1.1 -1.1 -1.1 -1.1 -1.1 -1.1 -1.1 -1.1 -1.1 -1.1 -1.1 -1.1 -1.1 -1.1 -1.1 -1.1 -1.1 -1.1 -1.1 -1.1 -1.1 -1.1 -1.1 -1.1 -1.1 -0.9 -0.6 -0.3 0 0.3 0.7 1 1 1.1 1.2 1.3 1.4 1.4 1.5 1.4 1.5 1.7 2.1 2.8 3.4 4 2.1 2.3 2.4 2.3 2.2 2.4 2.6 2.6 2.6 2.9 2.8 2.6 2.7 2.6 2.2 2.8 2.2 2.3 3.6 3.4 3.3 3.4 3.5 3.4 4.4 6 8.1 11 14.8 15.6 13.4 11.7 10 7.8 5.8 6.4 8 7.6 8 8.2 8.9 19.8 37 46.2 54.7 49.1 71.5 84.2 104.9 119.8 144.2 162.2 169.9 186.1 204.3 216.1 225.2 229 236.8 245.7 251.2 235.9 224.2 214.8 211.6 221.4 233.6 244.9 246.8
-1.1 -1.1 -0.8 -0.8 -1.1 -1.1 -1.1 -1.1 -1.1 -1.1 -1.1 -1.1 -1.1 -1.1 -1.1 -1.1 -1.1 -1.1 -1.1 -1.1 -1.1 -1.1 -1.1 -1.1 -1.1 -1.1 -1.1 -1.1 -1.1 -1.1 -1.1 -1.1 -1.1 -1.1 -1.1 -1.1 -1.1 -1.1 -1.1 -1.1 -1.1 -1.1 -1.1 -1.1 -1.1 -1.1 -1.1 -1.1 -1.1 -1.1 -1.1 -1.1 -1.1 -1.1 -1.1 -1.1 -1.1 -1.1 -1.1 -1.1 -1.1 -1.1 -1.1 -1.1 -1.1 -1.1 -1.1 -1.1 -1.1 -1.1 -1.1 -1.1 -1.1 -1.1 -1.1 -1.1 -1.1 -1.1 -1.1 -1.1 -1.1 -1.1 -1.1 -1.1 -1.1 -1.1 -1.1 -1.1 -1.1 -1.1 -1.1 -1.1 -1.1 -1.1 -1.1 -1.1 -1.1 -1.1 -1.1 -1.1 -1.1 -1.1 -1.1 -1.1 -1.1 -1.1 -1.1 -1.1 -1.1 -1.1 -0.8 -0.4 -0.1 0.2 0.5 0.8 1.1 1.2 1.2 1.3 1.5 1.6 1.6 1.7 1.7 1.9 2.9 4 2.1 3.9 3.3 2.9 1.3 2.3 1.5 2.6 2.5 2.4 2.3 2.5 2.9 2.4 2.5 3 3 2.3 3.1 2.9 3.1 3.6 3.6 3.6 3.5 3.6 3.7 4.2 6.2 7.7 9.7 11.1 10.1 9.1 8.4 7 5.7 6 6.8 8.6 8 8.6 8.7 11.8 27.5 36.7 47.7 44.1 62.6 77.9 98.4 114.3 129.9 155.2 167.9 177.6 198.2 209 224.3 232 236.3 241.7 258.6 253.6 233.3 222.8 219.2 222.4 237.1 255.2 264.2 262.3
-1.1 -1.1 -1.1 -1.1 -1.1 -1.1 -1.1 -1.1 -1.1 -1.1 -1.1 -1.1 -1.1 -1.1 -1.1 -1.1 -1.1 -1.1 -1.1 -1.1 -1.1 -1.1 -1.1 -1.1 -1.1 -1.1 -1.1 -1.1 -1.1 -1.1 -1.1 -1.1 -1.1 -1.1 -1.1 -1.1 -1.1 -1.1 -1.1 -1.1 -1.1 -1.1 -1.1 -1.1 -1.1 -1.1 -1.1 -1.1 -1.1 -1.1 -1.1 -1.1 -1.1 -1.1 -1.1 -1.1 -1.1 -1.1 -1.1 -1.1 -1.1 -1.1 -1.1 -1.1 -1.1 -1.1 -1.1 -1.1 -1.1 -1.1 -1.1 -1.1 -1.1 -1.1 -1.1 -1.1 -1.1 -1.1 -1.1 -1.1 -1.1 -1.1 -1.1 -1.1 -1.1 -1.1 -1.1 -1.1 -1.1 -1.1 -1.1 -1.1 -1.1 -1.1 -1.1 -1.1 -1.1 -1.1 -1.1 -1.1 -1.1 -1.1 -1.1 -1.1 -1.1 -1.1 -1.1 -1.1 -1.1 -0.9 -0.6 -0.3 0 0.3 0.6 0.9 1.3 1.3 1.4 1.5 1.6 1.7 1.8 2.1 2.6 3.2 2.6 2.6 3 3.2 2.6 2.7 2.9 2.5 2.1 2.4 2.3 2.4 2.2 3.2 2.7 3 3.3 3.4 3.4 3.3 3.4 3.2 3.6 3.8 3.9 3.8 3.7 3.7 3.9 5.6 7 8.2 8.7 8 6.1 5 4.7 5.2 5.5 5.8 8.2 9.2 8.3 9 9.8 20.6 28.1 37.2 43.5 50.1 73.9 85.4 109 120 137.8 163.9 179.1 184.9 204.8 213.4 227.8 237.4 245.2 254.2 263.4 240 227.8 222.4 225.8 234 253.4 271.4 279.6 274.5
-1.1 -1.1 -1.1 -1.1 -1.1 -1.1 -1.1 -1.1 -1.1 -1.1 -1.1 -1.1 -1.1 -1.1 -1.1 -1.1 -1.1 -1.1 -1.1 -1.1 -1.1 -1.1 -1.1 -1.1 -1.1 -1.1 -1.1 -1.1 -1.1 -1.1 -1.1 -1.1 -1.1 -1.1 -1.1 -1.1 -1.1 -1.1 -1.1 -1.1 -1.1 -1.1 -1.1 -1.1 -1.1 -1.1 -1.1 -1.1 -1.1 -1.1 -1.1 -1.1 -1.1 -1.1 -1.1 -1.1 -1.1 -1.1 -1.1 -1.1 -1.1 -1.1 -1.1 -1.1 -1.1 -1.1 -1.1 -1.1 -1.1 -1.1 -1.1 -1.1 -1.1 -1.1 -1.1 -1.1 -1.1 -1.1 -1.1 -1.1 -1.1 -1.1 -1.1 -1.1 -1.1 -1.1 -1.1 -1.1 -1.1 -1.1 -1.1 -1.1 -1.1 -1.1 -1.1 -1.1 -1.1 -1.1 -1.1 -1.1 -1.1 -1.1 -1.1 -1.1 -1.1 -1.1 -1.1 -1.1 -1.1 -0.8 -0.5 -0.2 0.1 0.5 0.8 1.1 1.4 1.5 1.5 1.6 1.8 2 2.7 3.4 3.3 2.4 2.4 1.2 2.2 2.5 2.4 2.5 2.8 2.4 2.1 2.1 2.2 2.4 2.3 3.4 3.5 3.7 3.7 3.8 3.6 3.6 3.6 3.3 3.2 3.4 3.6 3.7 3.9 3.8 4.9 7.8 9 8.5 6.7 4.8 4.7 4.8 5.1 5.8 6 6.9 9.6 10.1 9.3 9 9.3 20.2 27.5 40.5 39.6 62.3 79.7 97.7 112.9 125.9 147.5 168.4 194.7 202.4 213.8 219.2 231.6 241.1 250 263.3 247.5 230.6 223.6 224.5 229.8 246.7 268.7 275.5 278.8 282
-1.1 -1.1 -1.1 -1.1 -1.1 -1.1 -1.1 -1.1 -1.1 -1.1 -1.1 -1.1 -1.1 -1.1 -1.1 -1.1 -1.1 -1.1 -1.1 -1.1 -1.1 -1.1 -1.1 -1.1 -1.1 -1.1 -1.1 -1.1 -1.1 -1.1 -1.1 -1.1 -1.1 -1.1 -1.1 -1.1 -1.1 -1.1 -1.1 -1.1 -1.1 -1.1 -1.1 -1.1 -1.1 -1.1 -1.1 -1.1 -1.1 -1.1 -1.1 -1.1 -1.1 -1.1 -1.1 -1.1 -1.1 -1.1 -1.1 -1.1 -1.1 -1.1 -1.1 -1.1 -1.1 -1.1 -1.1 -1.1 -1.1 -1.1 -1.1 -1.1 -1.1 -1.1 -1.1 -1.1 -1.1 -1.1 -1.1 -1.1 -1.1 -1.1 -1.1 -1.1 -1.1 -1.1 -1.1 -1.1 -1.1 -1.1 -1.1 -1.1 -1.1 -1.1 -1.1 -1.1 -1.1 -1.1 -1.1 -1.1 -1.1 -1.1 -1.1 -1.1 -1.1 -1.1 -1.1 -1.1 -1 -0.6 -0.3 0 0.3 0.6 0.9 1.2 1.5 1.6 1.7 1.8 1.8 3.7 3.7 1.9 2.1 2.2 2.2 2.3 2.1 2 2.2 2.5 2.3 2.1 2.1 2.1 2.2 4.2 7 4.3 4.2 4.1 4.1 4 3.8 3.8 3.8 3.7 3.5 3.3 3.2 3.3 3.4 3.6 7.4 10.1 13.7 7.3 5.1 4.4 4.9 4.7 5.5 6.6 7.3 7.9 9.9 10.6 10.4 9.1 13.8 19.2 27.9 33.7 50.8 70.5 87 102.5 122 138.2 159.7 185.4 197.3 207.4 221.4 230.8 238.8 246.4 247.1 253.5 230.2 221 221.4 222.6 235.5 256.2 276.4 288.1 292.1 292.9
-1.1 -1.1 -1.1 -1.1 -1.1 -1.1 -1.1 -1.1 -1.1 -1.1 -1.1 -1.1 -1.1 -1.1 -1.1 -1.1 -1.1 -0.8 -0.9 -1.1 -1.1 -1.1 -1.1 -1.1 -1.1 -1.1 -1.1 -1.1 -1.1 -1.1 -1.1 -1.1 -1.1 -1.1 -1.1 -1.1 -1.1 -1.1 -1.1 -1.1 -1.1 -1.1 -1.1 -1.1 -1.1 -1.1 -1.1 -1.1 -1.1 -1.1 -1.1 -1.1 -1.1 -1.1 -1.1 -1.1 -1.1 -1.1 -1.1 -1.1 -1.1 -1.1 -1.1 -1.1 -1.1 -1.1 -1.1 -1.1 -1.1 -1.1 -1.1 -1.1 -1.1 -1.1 -1.1 -1.1 -1.1 -1.1 -1.1 -1.1 -1.1 -1.1 -1.1 -1.1 -1.1 -1.1 -1.1 -1.1 -1.1 -1.1 -1.1 -1.1 -1.1 -1.1 -1.1 -1.1 -1.1 -1.1 -1.1 -1.1 -1.1 -1.1 -1.1 -1.1 -1.1 -1.1 -1.1 -1.1 -0.8 -0.5 -0.2 0.1 0.4 0.7 1.1 1.4 1.7 1.8 1.8 1.8 3.6 1 2.7 2.3 2.2 1.9 2.2 2.4 2.2 2 2.1 2.2 2 2 2.1 2.3 3.4 9.7 10.6 4.9 4.7 4.6 4.2 4 3.6 3.8 3.8 3.8 3.7 3.7 3.4 3.4 3.5 4 9.1 15.6 13.8 5.1 4.4 4.3 4.4 5.3 5.8 6.7 10.4 13 11.4 11.8 11.9 9.7 14.2 23.4 30.9 37.5 57.5 74.4 93.6 112 126.6 147.7 174.6 191.5 198.6 208.9 219.2 234 245.8 247.9 246.7 233.2 220.2 215.6 216.2 225 240.9 259.4 276.9 288.3 293.5 290.9
-1.1 -1.1 -1.1 -1.1 -1.1 -1.1 -1.1 -1.1 -1.1 -1.1 -1.1 -1.1 -1.1 -1.1 -1.1 -1.1 -0.5 -0.4 -0.5 -0.7 -1 -1.1 -1.1 -1.1 -1.1 -1.1 -1.1 -1.1 -1.1 -1.1 -1.1 -1.1 -1.1 -1.1 -1.1 -1.1 -1.1 -1.1 -1.1 -1.1 -1.1 -1.1 -1.1 -1.1 -1.1 -1.1 -1.1 -1.1 -1.1 -1.1 -1.1 -1.1 -1.1 -1.1 -1.1 -1.1 -1.1 -1.1 -1.1 -1.1 -1.1 -1.1 -1.1 -1.1 -1.1 -1.1 -1.1 -1.1 -1.1 -1.1 -1.1 -1.1 -1.1 -1.1 -1.1 -1.1 -1.1 -1.1 -1.1 -1.1 -1.1 -1.1 -1.1 -1.1 -1.1 -1.1 -1.1 -1.1 -1.1 -1.1 -1.1 -1.1 -1.1 -1.1 -1.1 -1.1 -1.1 -1.1 -1.1 -1.1 -1.1 -1.1 -1.1 -1.1 -1.1 -1.1 -1.1 -1 -0.7 -0.4 0 0.3 0.6 0.9 1.2 1.5 1.9 2.9 3.6 1.4 2.4 2.3 2.4 2.6 2.6 2.4 1.9 2.2 2.2 2.4 2.3 1.9 2 2.3 2.3 4.7 16.4 30.2 12.1 5.3 5.2 4.7 4.4 4 3.5 3.8 3.6 3.6 3.5 3.7 3.8 3.7 3.5 4.6 11.9 16.8 7.4 4.7 4.4 5.1 5.2 6.4 5.7 10.8 14 14.5 14.3 14.6 13.9 14.2 14.4 30.6 32.7 43.9 60.8 78.1 99.7 114.3 131.6 157.6 185.4 197.1 200.4 211.4 223.7 242.3 250.5 239.1 226 209.3 207.8 206.7 215.5 232.3 244 259.5 282.3 287.3 290.3 286.5
-1.1 -1.1 -1.1 -1.1 -1.1 -1.1 -1.1 -1.1 -1.1 -1.1 -1.1 -1.1 -1.1 -1.1 -0.5 -0.3 -0.1 0 0 -0.2 -0.5 -0.8 -1 -1.1 -1.1 -1.1 -1.1 -1.1 -1.1 -1.1 -1.1 -1.1 -1.1 -1.1 -1.1 -1.1 -1.1 -1.1 -1.1 -1.1 -1.1 -1.1 -1.1 -1.1 -1.1 -1.1 -1.1 -1.1 -1.1 -1.1 -1.1 -1.1 -1.1 -1.1 -1.1 -1.1 -1.1 -1.1 -1.1 -1.1 -1.1 -1.1 -1.1 -1.1 -1.1 -1.1 -1.1 -1.1 -1.1 -1.1 -1.1 -1.1 -1.1 -1.1 -1.1 -1.1 -1.1 -1.1 -1.1 -1.1 -1.1 -1.1 -1.1 -1.1 -1.1 -1.1 -1.1 -1.1 -1.1 -1.1 -1.1 -1.1 -1.1 -1.1 -1.1 -1.1 -1.1 -1.1 -1.1 -1.1 -1.1 -1.1 -1.1 -1.1 -1.1 -1.1 -1.1 -0.8 -0.5 -0.2 0.2 0.6 0.9 1.3 1.7 2.3 4.6 1.7 2.6 2.7 2.6 1.5 2.3 2.6 2.7 2.6 2.3 2.4 2.6 2.6 2.2 1.8 2.1 2.6 2.4 13.3 36.1 32.1 16.7 9.6 6.7 4.9 4.5 3.8 3.8 3.6 3.4 3.4 3.3 3.3 3.5 3.3 3.2 5.3 13.3 6.2 4 4.3 5.3 5.7 7 5.6 6.2 15.1 19.7 15 14.6 14.7 15.8 18.8 15 27.7 35 49.9 63.9 84.5 103.6 117.7 134.5 162.7 191.6 187.6 196 208.9 224.5 238 230 213.5 199.1 196.8 197 201.8 221.9 233.1 247.5 258.7 272.9 281.4 274.4 277.1
-1.1 -1.1 -1.1 -1.1 -1.1 -1.1 -1.1 -1.1 -1.1 -1.1 -1.1 -1.1 -1.1 -0.4 -0.1 0.2 0.4 0.4 0.5 0.2 0 -0.3 -0.6 -1.1 -1.1 -1.1 -1.1 -1.1 -1.1 -1.1 -1.1 -1.1 -1.1 -1.1 -1.1 -1.1 -1.1 -1.1 -1.1 -1.1 -1.1 -1.1 -1.1 -1.1 -1.1 -1.1 -1.1 -1.1 -1.1 -1.1 -1.1 -1.1 -1.1 -1.1 -1.1 -1.1 -1.1 -1.1 -1.1 -1.1 -1.1 -1.1 -1.1 -1.1 -1.1 -1.1 -1.1 -1.1 -1.1 -1.1 -1.1 -1.1 -1.1 -1.1 -1.1 -1.1 -1.1 -1.1 -1.1 -1.1 -1.1 -1.1 -1.1 -1.1 -1.1 -1.1 -1.1 -1.1 -1.1 -1.1 -1.1 -1.1 -1.1 -1.1 -1.1 -1.1 -1.1 -1.1 -1.1 -1.1 -1.1 -1.1 -1.1 -1.1 -1.1 -0.9 -1.1 -1.1 -0.4 0.2 0.9 1.3 -1.1 1.8 -1.1 -1.1 -1.1 2.7 2.7 2.6 2.7 1.8 2.4 2.6 2.6 2.7 2.5 2.1 2.6 2.5 2.2 2 1.8 1.5 5.7 29.8 34.9 29.3 27.1 25.1 12.7 8.5 4.6 3.6 3.6 3.4 3.4 3.3 3.3 3.4 3.1 3.8 3.9 5.2 2.5 3.5 4.2 4.5 5.3 5.8 7.4 6.3 11.5 17.4 16.9 15 15.1 18.4 20.9 24.4 25.5 28.5 42 57.1 71 91.9 107.1 119.2 135.3 163.1 182.4 174 190.6 204.2 211.1 213 198 186.2 181.3 181.1 190.9 202.7 221.7 240 250 260.4 266.1 259.9 259.2 277.6
-1.1 -1.1 -1.1 -1.1 -1.1 -1.1 -1.1 -1.1 -1.1 -1.1 -1.1 -1.1 -0.5 0 0.4 0.7 1 0.9 1 0.7 0.5 0.2 -0.4 -1.1 -1.1 -1.1 -1.1 -1.1 -1.1 -1.1 -1.1 -1.1 -1.1 -1.1 -1.1 -1.1 -1.1 -1.1 -1.1 -1.1 -1.1 -1.1 -1.1 -1.1 -1.1 -1.1 -1.1 -1.1 -1.1 -1.1 -1.1 -1.1 -1.1 -1 -0.9 -0.9 -1.1 -1.1 -1.1 -1.1 -1.1 -1.1 -1.1 -1.1 -1.1 -1.1 -1.1 -1.1 -1.1 -1.1 -1.1 -1.1 -1.1 -1.1 -1.1 -1.1 -1.1 -1.1 -1.1 -1.1 -1.1 -1.1 -1.1 -1.1 -1.1 -1.1 -1.1 -1.1 -1.1 -1.1 -1.1 -1.1 -1.1 -1.1 -1.1 -1.1 -1.1 -1.1 -0.4 -1.1 -0.9 -1.1 -1.1 1 1.1 1.3 1.1 0.8 -1.1 -1.1 1.8 1.8 -1.1 2.5 -1.1 3.2 -1.1 3.5 2.4 2.5 2.6 2.7 2.6 2.5 2.5 2.7 2.7 2.5 2.3 2.4 2.3 2 1.8 1.8 15 28.9 33 30.9 31 29 22.3 17.5 4.7 3.7 3.5 3.3 3.3 3.1 3.9 4.5 4.1 3.8 3.6 3.8 4.4 4.3 4.7 5.3 9 9 8 8.7 13.6 16.7 17.2 17.8 19.1 19.9 24.7 31.7 25.3 28.4 47.7 64.2 80.6 100.4 107.8 117.2 129.6 156.6 159.8 164.3 175.2 190.4 188.5 180.7 169 161.6 162.8 177.1 186.9 202 221.2 235.7 244.4 244.7 241.7 250.3 268.2 288.2
-1.1 -1.1 -1.1 -1.1 -1.1 -1.1 -1.1 -1.1 -1.1 -1.1 -1.1 -0.5 -0.1 0.4 0.8 1.2 1.4 1.4 1.4 1.2 0.8 0.2 -0.3 -1.1 -1.1 -1.1 -1.1 -1.1 -1.1 -1.1 -1.1 -1.1 -1.1 -1.1 -1.1 -1.1 -1.1 -1.1 -1.1 -1.1 -1.1 -1.1 -1.1 -1.1 -1.1 -1.1 -1.1 -1.1 -1.1 -1.1 -1.1 -1 -0.9 -0.8 -0.8 -0.9 -0.9 -1 -1.1 -1.1 -1.1 -1.1 -1.1 -1.1 -1.1 -1.1 -1.1 -1.1 -1.1 -1.1 -1.1 -1.1 -1.1 -1.1 -1.1 -1.1 -1.1 -1.1 -1.1 -1.1 -1.1 -1.1 -1.1 -1.1 -1.1 -1.1 -1.1 -1.1 -1.1 -1.1 -1.1 -1.1 -1.1 -1.1 -1.1 -0.4 0.7 0.7 1.8 1.8 1.8 1.8 1.8 2.1 2.1 1.9 1.8 -1.1 1.8 -1.1 1.8 -1.1 -1.1 -1.1 4.3 2 4.1 -1.1 -1.1 2.3 2.5 2.6 2.7 2.5 2.4 2.6 1.9 2.9 2.5 2.3 2.4 2.2 1.8 1 15.7 24.7 28.7 30.2 33.5 32.8 29.2 19.2 4.3 3 3 3.1 2.9 5.2 8.7 5.3 4.9 4.7 4.4 4.9 5.7 5.4 5.8 7.7 12.2 7.6 11.7 13.6 16.8 17.7 18.4 19.1 19.5 23.7 29.8 36.4 25.2 33.5 55 73.6 90.7 98.7 106.8 112.5 117 127.9 137.2 146.9 153.7 158.3 153.2 146.7 144.7 148.1 161.3 171.3 184.2 198.3 216.3 226 224 229.6 238.8 260.3 278.9 295.5
-1.1 -1.1 -1.1 -1.1 -1.1 -1.1 -1.1 -1.1 -1.1 -1.1 -0.7 -0.2 0.3 0.8 1.2 1.6 1.5 1.8 1.8 1.5 1 0.4 -0.2 -1.1 -1.1 -1.1 -1.1 -1.1 -1.1 -1.1 -1.1 -1.1 -1.1 -1.1 -1.1 -1.1 -1.1 -1.1 -1.1 -1.1 -1.1 -1.1 -1.1 -1.1 -1.1 -1.1 -1.1 -1.1 -1.1 -1 -0.9 -0.8 -0.7 -0.6 -0.7 -0.7 -0.8 -0.9 -1 -1.1 -1.1 -1.1 -1.1 -1.1 -1.1 -1.1 -1.1 -1.1 -1.1 -1.1 -1.1 -1.1 -1.1 -1.1 -1.1 -1.1 -1.1 -1.1 -1.1 -1.1 -1.1 -1.1 -1.1 -1.1 -1.1 -1.1 -1.1 -1.1 -1.1 -1.1 -1.1 -0.9 -0.8 -1.1 1.8 1.8 1.8 1.8 1.8 1.8 1.8 1.8 2.1 2.4 2.7 2.3 1.9 -1.1 -1.1 -1.1 2.6 -1.1 3.2 3.9 1.9 1.9 2.2 5.8 -1.1 -1.1 2.5 2.8 2.6 2.4 2.4 2.4 2.6 1.9 3 2.8 2.4 1 1.9 3.1 11.4 18.2 24.6 26.4 30 28.9 28.9 7.3 3.5 3.6 3.2 1.8 3.2 7.4 8.7 5.4 4.8 4.6 4.6 10.7 13.2 10 9.9 9.2 13.3 10.1 13.3 16.6 18.3 20.3 22.1 21.8 24.5 31.9 39.6 40 26.1 44.6 67.8 81.8 89.1 90.8 91.3 93.5 95.8 102.8 113.2 125 127.7 128.4 124.4 123.1 131.8 148.2 157.6 166.8 177.8 193.7 199.1 202.9 212.6 222.1 238.8 265.6 280.1 297.4
-1.1 -1.1 -1.1 -1.1 -1.1 -1.1 -1.1 -1.1 -1.1 -1.1 -0.4 0.1 0.7 1.2 1.6 1.5 0.7 0.4 0.4 1.7 1.1 0.6 0 -0.6 -1.1 -1.1 -1.1 -1.1 -1.1 -1.1 -1.1 -1.1 -1.1 -1.1 -1.1 -1.1 -1.1 -1.1 -1.1 -1.1 -1.1 -1.1 -1.1 -1.1 -1.1 -1.1 -1.1 -1.1 -0.9 -0.8 -0.7 -0.6 -0.4 -0.5 -0.6 -0.6 -0.7 -0.8 -0.9 -0.9 -1.1 -1.1 -1.1 -1.1 -1.1 -1.1 -1.1 -1.1 -1.1 -1.1 -1.1 -1.1 -1.1 -1.1 -1.1 -1.1 -1.1 -1.1 -1.1 -1.1 -1.1 -1.1 -1.1 -1.1 -1.1 -1.1 -1.1 -1.1 -1.1 -0.8 -0.1 0.4 1.1 1.8 1.8 1.8 1.8 1.8 1.8 1.8 1.8 1.8 1.8 1.9 2.7 2.6 2.2 -1.1 -1.1 0.8 4.1 1.8 1.8 1.8 1.7 2.1 2.5 2.5 4.6 -1.1 -1.1 2.8 2.7 2.6 2.6 2.4 2.2 2.7 1.9 2.5 2.4 2.5 1.5 3.2 7.7 14.7 15.8 18.3 20.5 29.1 25.4 4.6 3.4 3.8 3.9 3.6 6.9 10.9 12.4 5.5 4.8 4.4 4 17 16 18.8 17 18.4 11.6 11.3 14.6 20.4 23.1 24.5 24.7 25.5 31.3 45.3 49.1 39.2 28.2 51.6 72.6 67.2 73 67.5 62.6 59.2 62.5 72.5 88.5 100 110.3 108.7 107.3 111.5 125.6 140.9 153.8 159.8 167.1 178.1 192.8 205.2 217.3 223.8 240 259.9 276.1 289.1
-1.1 -1.1 -1.1 -1.1 -1.1 -1.1 -1.1 -1.1 -1.1 -1.1 -0.4 0.3 0.9 1.5 1.8 0.9 0.3 0.3 0.3 1.6 1.3 0.8 0.2 -0.4 -1.1 -1.1 -1.1 -1.1 -1.1 -1.1 -1.1 -1.1 -1.1 -1.1 -1.1 -1.1 -1.1 -1.1 -1.1 -1.1 -1.1 -1.1 -1.1 -1.1 -1.1 -1.1 -1 -0.8 -0.7 -0.6 -0.5 -0.3 -0.3 -0.4 -0.5 -0.5 -0.6 -0.7 -0.7 -0.8 -0.9 -0.9 -1.1 -1.1 -1.1 -1.1 -1.1 -1.1 -1.1 -1.1 -1.1 -1.1 -1.1 -1.1 -1.1 -1.1 -1.1 -1.1 -1.1 -1.1 -1.1 -1.1 -1.1 -1.1 -1.1 -1.1 -1.1 -1.1 -0.9 -0.2 0.5 1.1 1.8 1.8 1.8 1.8 1.8 1.8 1.8 1.8 1.9 1.9 1.9 2.1 2.3 2.5 2.7 5 2.5 2.3 2.5 2.2 2.4 2.4 2.2 1.9 2.3 2.8 2.9 4 -1.1 -1.1 2.5 2.6 2.6 2.6 2.3 1.8 2.1 2.1 2.4 2.2 2.5 2.8 5.5 6.1 3.6 8.4 14.7 30.5 18.3 3.8 3.3 3.4 2.6 4.3 10.8 14.1 9.3 5.6 5.1 4.5 11.5 20.2 23.6 26.5 29.9 16.9 13.5 13.5 19.8 23 25.6 27.7 29.8 32.8 44.3 54.6 56.6 46.6 40.9 39.1 39.6 40.3 48.4 51 64.8 73.1 78.3 73.6 63.8 76.9 87.6 89.5 95.7 105.7 124.2 142.6 152.3 160.5 170.2 186.1 193.5 204.9 219.7 222.9 241.5 256.9 270.6 279
-1.1 -1.1 -1.1 -1.1 -1.1 -1.1 -1.1 -1.1 -1.1 -1.1 -0.2 0.4 1.1 1.8 2.9 2.1 2.7 2.2 1 1.2 1.5 1 0.4 -0.1 -1.1 -1.1 -1.1 -1.1 -1.1 -1.1 -1.1 -1.1 -1.1 -1.1 -1.1 -1.1 -1.1 -1.1 -1.1 -1.1 -1.1 -1.1 -1.1 -1.1 -1 -0.9 -0.7 -0.6 -0.5 -0.4 -0.2 -0.1 -0.2 -0.3 -0.4 -0.4 -0.5 -0.5 -0.6 -0.7 -0.8 -0.8 -0.9 -0.9 -1 -1.1 -1.1 -1.1 -1.1 -1.1 -1.1 -1.1 -1.1 -1.1 -1.1 -1.1 -1.1 -1.1 -1.1 -1.1 -1.1 -1.1 -1.1 -1.1 -1.1 -1 -1.1 -1.1 -0.3 0.4 1.1 1.7 1.8 1.8 1.8 1.8 1.8 1.9 2 2 2 2 2.1 2.4 2.6 2.9 2.3 2.3 2.7 2.6 2.8 2.7 2.8 2.6 2.4 2.1 2.2 2.8 2.6 2.8 3 -1.1 -1.1 -1.1 2.7 2.5 2.2 2 1.5 2.1 2.1 1.9 2.1 2.3 3.3 3 2.8 6.8 19 30.7 7.1 3.2 3.7 3.5 2.9 7.9 18.9 11.5 8.3 5.1 5.3 7.1 18.7 27.8 34 45.6 33.9 17.3 14.6 19.2 22.6 24.9 31.8 34.3 38.4 47.1 60.9 67.8 69.3 68.5 68.6 64.9 65.4 73.1 82.9 88 90 95.7 97.8 97.1 89.9 73.7 75.4 85.2 97.4 112.6 130 142 152.8 161.6 169.4 181 186.8 195.4 204.3 221.8 238.4 250.6 261.2 270.8
-1.1 -1.1 -1.1 -1.1 -1.1 -1.1 -1.1 -1.1 -1.1 -0.5 0.2 1 1.7 2.4 4.5 4 3.5 2.9 2.3 0.8 1.8 1.3 0.7 0.1 -0.5 -1.1 -1.1 -1.1 -1.1 -1.1 -1.1 -1.1 -1.1 -1.1 -1.1 -1.1 -1.1 -1.1 -1.1 -1.1 -1.1 -1.1 -1 -0.9 -0.8 -0.6 -0.5 -0.4 -0.3 -0.1 0 0 -0.1 -0.2 -0.2 -0.3 -0.4 -0.4 -0.5 -0.6 -0.6 -0.6 -0.7 -0.7 -0.8 -0.9 -0.9 -1.1 -1.1 -1.1 -1.1 -1.1 -1.1 -1.1 -1.1 -1.1 -1.1 -1.1 -1.1 -1.1 -1.1 -1.1 -1.1 -1.1 -0.2 0.2 0 -1.1 -0.4 0.6 1.5 1.8 1.8 1.8 1.8 1.8 1.8 2 2.3 2.3 2.1 2.2 2.4 2.6 3.1 2.3 2.9 2.9 2.9 2.9 2.9 2.9 3 2.9 2.7 2.6 2.2 2.4 2.3 2.6 2.6 2.6 3.7 -1.1 1 2.3 1.8 2.1 1.8 0.3 1.8 2 2 2 2.3 2.7 3.3 9.9 24.5 19.3 3 3.1 3.3 2.7 5 14.7 19.6 10.3 8.7 5.2 6.6 15.4 27 34.7 39.8 42.4 25.9 14.4 16.2 20.7 24 27.9 41.3 41.6 50.5 61.1 75.5 81.3 81.6 84.9 88 90.7 91.3 96.4 100 105.5 112.8 117.7 120.5 117.9 108.6 85.8 67.3 82 100.2 116.6 129.1 143 153.3 162.4 169.4 178.2 182.7 188.6 199.7 221 234.3 238.1 247.6 256.6
-1.1 -1.1 -1.1 -1.1 -1.1 -1.1 -1.1 -1.1 -1.1 0 0.7 1.4 2.3 4.1 5.1 4.6 3.9 4.4 2.5 1.2 1.5 1.4 0.9 0.3 -0.3 -1.1 -1.1 -1.1 -1.1 -1.1 -1.1 -1.1 -1.1 -1.1 -1.1 -1.1 -1.1 -1.1 -1.1 -1.1 -1 -0.9 -0.8 -0.7 -0.5 -0.4 -0.3 -0.2 0 0.1 0.1 0.1 0 -0.1 -0.1 -0.2 -0.2 -0.3 -0.4 -0.4 -0.5 -0.5 -0.6 -0.6 -0.6 -0.7 -0.8 -0.8 -0.9 -1.1 -1.1 -1.1 -1.1 -1.1 -1.1 -1.1 -1.1 -1.1 -1.1 -1.1 -1.1 -1.1 -0.2 0.3 0.9 1.4 1.1 -1.1 -0.2 1 1.8 1.8 1.8 1.8 1.8 1.8 2 2.3 2.6 2.6 2.4 2.3 2.5 4.9 0.6 4.2 3.1 3.1 2.9 2.9 2.9 2.9 3 2.8 2.6 2.4 2.6 2.2 2.2 2.3 2.3 2.3 2.3 4 -1.1 2.5 2.2 2.3 2.2 1.9 1.9 1.9 2 2.3 2.5 2.5 4.1 10.2 18.9 9.6 3.2 3 3.5 3.5 10.8 20.3 16.4 12 9.7 7.6 10.1 23.4 32.7 35.1 37.5 29.2 19.8 21.8 15.5 21.1 25.3 35.5 43.9 51.9 63.2 72.9 88.8 93.7 94 99.3 103.3 108.4 114.6 120.6 127.1 131.8 135.4 138.8 141.3 134.5 119.6 98.6 85 71.2 85.7 105.2 126.9 141.3 153.6 160.5 166.7 172 177 183.4 200 216.8 225.9 227.7 235.5 241.9
-1.1 -1.1 -1.1 -1.1 -1.1 -1.1 -1.1 -1.1 -0.3 0.4 1 1.7 2.9 6.7 5.6 4.4 3.8 3.3 4.1 3.3 2.5 1.6 1 0.5 -0.1 -0.5 -1.1 -1.1 -1.1 -1.1 -1.1 -1.1 -1.1 -1.1 -1.1 -1.1 -1.1 -1.1 -1 -0.9 -0.8 -0.7 -0.6 -0.4 -0.3 -0.2 -0.1 0.1 0.2 0.3 0.3 0.2 0.1 0.1 0 0 -0.1 -0.2 -0.2 -0.3 -0.3 -0.3 -0.4 -0.4 -0.5 -0.5 -0.6 -0.7 -0.7 -0.7 -0.8 -0.8 -1.1 -1.1 -1.1 -1.1 -1.1 -0.7 -0.5 -0.3 -0.1 0.2 0.7 1.2 1.8 1.9 1.9 -1.1 -1.1 0.8 1.8 1.8 1.8 1.8 1.8 2 2.3 2.6 2.9 2.9 2.8 3.1 1.8 2.5 2.3 2.4 2.7 2.9 3 2.9 2.9 2.9 2.9 2.7 2.6 2.4 1.8 1.8 2.1 2.2 2.2 2.3 2.4 2.8 3.1 -1.1 5.1 2.5 2.3 2.2 2 2 2.3 2.4 2.4 2.7 2.9 11.2 8.3 3.5 4 3.5 3.4 6 16.8 22.3 17.7 14.4 13.6 9 11.1 19.5 30.5 34.3 22.9 20.2 22 23.2 20.7 18.8 25.8 40.6 51.1 61.3 69.4 83.8 96 101.3 102.4 104.7 110.3 122.8 131.9 137.5 143.1 147.2 151 152.3 150.9 141.5 125.4 110.1 97.9 91 75.7 85.9 108.5 134.9 152.8 154.5 159.6 165.3 169.3 178.2 195.2 204.8 205.4 215.9 224.3 230.8
-1.1 -1.1 -1.1 -1.1 -1.1 -1.1 -1.1 -0.6 0.1 0.8 1.4 2.4 6.1 8.7 7.2 5.3 6.9 4.2 3.5 3.2 1.1 1.7 1.1 0.6 0.1 -0.3 -0.7 -1.1 -1.1 -1.1 -1.1 -1.1 -1.1 -1.1 -1.1 -1.1 -1.1 -0.9 -0.8 -0.7 -0.6 -0.5 -0.3 -0.2 -0.1 0 0.2 0.3 0.4 0.4 0.4 0.3 0.2 0.2 0.1 0.1 0 0 -0.1 -0.1 -0.2 -0.2 -0.2 -0.2 -0.3 -0.4 -0.4 -0.5 -0.5 -0.5 -0.6 -0.5 -0.6 -0.6 -0.7 -0.5 -0.3 -0.1 0.1 0.3 0.6 0.9 1.4 1.9 2 2.1 2.2 2.2 -1.1 -1.1 1.9 1.8 1.8 1.8 2.1 2.4 2.7 3 3.3 3.3 3.4 1.3 2.5 2.6 2.6 2.5 2.6 2.7 2.9 2.9 2.8 2.8 2.8 2.7 2.7 2.4 1.8 1.8 2.1 2.2 2.2 2.4 2.7 2.8 2.7 2.3 -1.1 -1.1 2.5 3 2.4 3.1 3.2 3.3 3.1 3 4.1 4.7 3.3 4.4 3.3 2.6 3.8 11.8 18.7 17.1 16.5 17.4 11.8 8.4 12 19.8 26.1 23.4 21.3 22.1 24.1 25.5 22.7 25 36.3 48.2 60.8 71.5 80.6 93.8 105.6 108.5 107.7 111.8 125.2 134.9 141.8 148.4 154.5 159.9 159.8 158.4 154.7 145.3 128.5 122.5 118.8 114.7 100.6 83.9 95 125.9 140.1 148.8 154.7 157.9 162.2 174.2 183.5 188.9 195.6 203.1 210.5 217.1
-1.1 -1.1 -1.1 -1.1 -1.1 -1.1 -1.1 -0.2 0.5 1.1 1.8 4.9 9.4 13.4 12.1 9.1 8.9 11.1 4.5 1.4 1.5 1.7 1.2 0.7 0.2 -0.1 -0.4 -0.6 -0.8 -1.1 -1.1 -1.1 -1.1 -1.1 -1.1 -1 -0.8 -0.7 -0.6 -0.5 -0.4 -0.2 -0.1 0 0.1 0.3 0.4 0.5 0.6 0.6 0.5 0.4 0.4 0.3 0.3 0.2 0.1 0.1 0 0 0 0 -0.1 -0.1 -0.1 -0.2 -0.2 -0.3 -0.3 -0.3 -0.3 -0.3 -0.3 -0.3 -0.3 -0.1 0.2 0.4 0.7 0.9 1.2 1.6 2 2.1 1 2.2 0.7 2.2 2.2 -1.1 -1.1 1.8 1.9 2 2.3 2.6 2.9 3.2 3.4 4.7 2.6 2.7 2.9 2.5 2.5 2.7 2.5 2.7 2.8 2.8 2.7 2.7 2.7 2.6 2.7 2.7 1.7 2 2.2 2.6 2.4 2.9 2.6 2.6 2.7 2.7 2.7 -1.1 -1.1 3.2 3.3 3.1 3 3.5 3.7 4.1 3.2 2.9 2.5 2.6 3.1 2.9 8.8 13.4 13.1 12.8 13.4 14.1 10 11 14.7 19.5 21.6 21.8 22.5 23.3 25.4 25.3 29.3 39.3 44.7 58.3 71.2 81.7 89.6 105.3 113.4 117.1 114.2 123.8 133.8 142.7 150.1 156.8 160.2 161.6 161.1 161.3 151.8 142.4 133.4 132.1 132.3 130 119.5 109 93.9 109.9 127.2 138.1 144.7 147.8 156.8 169.2 170.8 174.4 182.6 189.4 196.4 192.5
-1.1 -1.1 -1.1 -1.1 -1.1 -1.1 -0.5 0.1 0.7 1.4 2.2 6.5 11 8.8 7 6.3 5.9 6.9 4.8 2.9 2.1 1.7 1.3 0.9 0.5 0.2 -0.1 -0.3 -0.5 -0.8 -1.1 -1.1 -1.1 -1.1 -1.1 -0.8 -0.6 -0.5 -0.4 -0.3 -0.1 0 0.1 0.2 0.4 0.5 0.6 0.7 0.7 0.7 0.6 0.5 0.5 0.4 0.4 0.3 0.3 0.2 0.2 0.2 0.1 0.1 0.1 0.1 0 0 -0.1 -0.1 -0.1 -0.1 -0.1 -0.1 -0.1 0.1 0.1 0.2 0.4 0.8 1.1 1.5 1.9 2.1 2.2 2.2 2.2 2.2 2.2 2.2 2.2 2 -1.1 -1.1 2.2 2.3 2.4 2.8 3.1 3.4 3.6 2.6 2.3 2.5 2.7 2.9 2.6 2.7 2.5 2.7 2.7 2.7 2.7 2.7 2.6 2.6 2.6 2.5 1.6 0.7 2.3 2.6 2.1 2.1 2.1 2.5 2.6 2.7 2.7 2.9 4.2 -1.1 1.2 2.8 2.6 2.9 3.2 3.4 3.3 3.1 2.6 2.8 2.9 4.3 10.9 11.3 10.5 10.1 10.8 10.5 10.4 12.1 16.6 20.9 21.8 22.8 23.5 25.3 27.4 29.1 38.8 44.9 53.3 68.8 83.1 91.3 99.1 115.2 122.2 117 120.2 132.8 142.3 149.8 153.9 158.5 160.6 162.2 163.2 161.1 150.6 143.9 143.2 145.6 150.3 146.8 137.8 127.8 107.3 100.8 115.9 126.3 129.1 134.4 144.3 153.3 153 155.5 163.5 171.2 175 166.2
-1.1 -1.1 -1.1 -1.1 -1.1 -0.6 -0.1 0.4 1 1.6 2.6 8.7 10.2 9.1 6.3 5.5 5 6.2 5.1 4.1 2.5 1.9 1.4 1.1 0.8 0.4 0.2 -0.1 -0.4 -0.7 -1 -1.1 -1.1 -1.1 -1.1 -0.7 -0.5 -0.3 -0.2 0 0.1 0.2 0.3 0.5 0.6 0.7 0.8 0.9 0.8 0.8 0.7 0.7 0.6 0.6 0.5 0.5 0.4 0.4 0.3 0.3 0.3 0.2 0.3 0.3 0.2 0.2 0.1 0.1 0.1 0.1 0.1 0.2 0.2 0.3 0.4 0.5 0.7 1.1 1.5 1.9 2.1 2.2 2.2 2.2 2.2 2.2 2.2 2.2 2.2 -1.1 -1.1 2.4 2.4 2.5 2.6 2.8 3.2 1.7 2.6 2.6 2.6 2.3 2.5 2.6 2.8 2.7 2.7 2.8 2.8 2.8 2.8 2.7 2.7 2.6 2.3 2.1 2 2.1 2.3 2.3 2.3 2.5 2.6 2.7 2.6 2.9 2.7 2.8 3.6 4 -1.1 -1.1 -1.1 2.4 2.7 2.6 2.9 3.4 3.1 3.1 3.1 6.7 10.3 9.9 9.6 10 10.7 10.6 10.6 11.5 16.3 21.7 23.8 24.5 25.8 27.3 28.9 31.1 37.7 47.6 61.5 79.8 90.5 95.3 108.6 123.7 123.8 113.6 128.9 137.8 147.5 151.5 155.2 161.2 165.2 166.2 164.3 152.4 150.6 150.9 150 154.2 162.6 161.2 151.8 142 120.3 102.9 102.4 105.7 110.2 117.4 123.3 127.7 131.8 141.8 144.9 152.4 150.4 135.6
-1.1 -1.1 -1.1 -1.1 -1.1 -0.4 0.1 0.6 1.2 1.8 4.9 11.2 6.4 9.4 7.4 6.3 6.2 7.4 4 2.9 2.3 1.7 1.7 1.3 1 0.7 0.4 0.1 -0.2 -0.5 -0.8 -1.1 -1.1 -1.1 -0.7 -0.4 -0.2 -0.1 0.1 0.2 0.3 0.4 0.6 0.7 0.8 0.9 1 1 1 0.9 0.8 0.8 0.8 0.7 0.6 0.6 0.6 0.5 0.5 0.5 0.5 0.4 0.4 0.4 0.4 0.3 0.3 0.3 0.3 0.3 0.4 0.4 0.5 0.6 0.7 0.9 1.1 1.4 1.8 2.1 2.3 2.3 2.2 2.2 2.2 2.2 2.2 2.2 2.2 -1.1 2.2 2.3 2.7 2.9 3 3.9 2.5 2.3 2.5 2.6 2.6 2.3 2.3 2.6 2.8 2.8 2.6 2.8 2.9 2.9 2.9 2.8 2.8 2.7 2.6 0.9 2.2 0.6 2.7 2.4 2.3 2.5 2.4 2.4 2.5 3.1 3 4.8 4.5 3.8 2.9 2.7 -1.1 -1.1 1.8 2.7 3 3.4 3.6 3.4 4.1 7.5 9.1 9.1 9.7 10.2 11.3 11.8 12.1 13.4 19.6 25.8 27.4 28.6 29.8 30.6 30.3 35 41.7 49.6 69 84.4 92.8 99.7 116.7 124.8 120.9 111.7 130.5 141.1 145.9 149.5 156 160.3 160 161.6 153.9 150.4 152.9 153.6 155.8 164.1 172.4 173.4 165 154.3 144 130.2 116.2 108.5 108.2 107.8 106.1 110.3 111.7 113.5 112.4 117.8 119.3 120.1
-1.1 -1.1 -1.1 -1.1 -0.7 -0.2 0.3 0.8 1.3 2.1 8.9 10.9 10.1 12.3 11.6 13.2 13.4 7.6 3.3 2.1 1.4 1.5 1.8 1.5 1.2 0.9 0.6 0.3 0 -0.3 -0.7 -1 -1.1 -0.9 -0.5 -0.2 0 0.2 0.3 0.4 0.5 0.7 0.8 0.9 1 1.1 1.2 1.1 1.1 1 1 0.9 0.9 0.8 0.8 0.7 0.7 0.7 0.6 0.6 0.6 0.6 0.6 0.6 0.6 0.5 0.5 0.5 0.5 0.5 0.6 0.6 0.8 0.9 1.1 1.2 1.4 1.7 1.9 2.3 2.5 2.4 2.2 2.2 1.8 1.8 1.8 2.4 -1.1 -1.1 2.2 2.8 2.9 3.2 5.2 2.5 2.3 2 2.3 2.5 2.6 2.3 2 2.3 2.3 2.6 2.5 2.6 2.7 2.8 2.8 2.9 2.9 2.9 1.8 2.4 2.1 2.1 2.4 2.4 2.3 2.4 2.5 2.4 2.3 2.8 8.6 13.3 13.8 7 4.9 3.4 3.3 3.9 4.4 1.7 3 3.5 3.8 3.7 5.3 7.6 8.5 8.9 9.7 10.8 12 13.6 14.3 16.6 24.2 26.1 29.5 30.8 33.1 33.8 33.6 44.7 55.6 60.3 73.3 85.6 91.9 105.2 117.4 118.9 109.6 109.8 129.6 141.6 146.7 149.4 152.5 152.9 152.3 149.7 150.4 151.3 154.2 156.9 160.2 171.9 176.9 182.9 177.1 169.9 162.1 156.4 137.7 131.3 130.9 131.3 126.2 130.6 134.1 130.4 122.6 117.8 119.4 118.5
-1.1 -1.1 -1.1 -1.1 -0.6 0 0.5 1 1.5 3 10.3 10.6 7.9 10 11 10.9 8.8 5.9 3.5 1.8 1 1.1 1.4 1.7 1.4 1.1 0.8 0.5 0.1 -0.2 -0.5 -0.8 -1.1 -0.8 -0.2 0.1 0.3 0.5 0.6 0.6 0.8 0.9 1 1.1 1.2 1.3 1.3 1.2 1.2 1.1 1.1 1.1 1 1 0.9 0.9 0.8 0.8 0.8 0.8 0.8 0.7 0.8 0.8 0.7 0.7 0.7 0.7 0.7 0.8 0.8 0.9 1 1.1 1.3 1.5 1.8 1.9 2 2 2.1 2 1.6 1.8 2.2 2.4 2.6 2.5 -1.1 -1.1 3 3.2 3.3 3.1 2.3 2.3 2.2 1.9 2 2.3 2.4 2.2 2 1.6 2.4 2.2 2.6 2.3 2.6 2.6 2.7 2.7 2.8 2.8 2.9 2.2 2.1 2.1 2.1 2 2.4 2.3 2.5 2.6 2.5 3.7 11.3 18.9 15.6 7.4 5.6 3.9 3.5 3.7 3.7 4.1 1.7 2.9 4 7.3 8.3 8.8 8.9 9.1 10.6 13.1 14.8 16.3 17.1 20.2 24.8 28.3 31.6 33.8 35.9 38.9 44.5 55.2 67.9 63.9 76.9 85 94.9 106.6 113.4 107.9 104.8 114.2 130.7 141.4 144.1 134.4 134.8 137.1 143.8 150.1 155.5 151.6 154.4 156.9 166.3 180.5 190 185 184.3 180.4 176.9 171.2 157.7 161.1 164 156.7 154.6 156.7 156.3 150.8 147.9 138 125.7 126.9
-1.1 -1.1 -1.1 -1.1 -0.5 0 0.5 1 1.5 4.2 8.4 9.4 7.1 6.1 7 7.1 6.4 5.7 4.1 2.5 1 0.5 1.1 1.7 1.6 1.3 1 0.7 0.4 0.1 -0.2 -0.7 -1.1 -0.7 -0.2 0.4 0.7 0.8 0.9 1 1 1.1 1.2 1.3 1.5 1.5 1.4 1.4 1.3 1.3 1.2 1.2 1.1 1.1 1.1 1 1 1 0.9 0.9 0.9 0.9 0.9 0.9 0.9 0.9 0.9 0.8 0.9 1 1.1 1.1 1.3 1.4 1.6 1.8 1.9 1.9 1.8 1.8 1.8 1.8 2 1.8 2.3 2.3 2.2 1.8 1.8 -1.1 -1.1 3.4 2.9 2.5 2.2 2 2 1.8 1.8 1.8 2.3 2.2 2.3 1.9 1.4 2.1 2.7 2.3 2.4 2.5 2.5 2.6 2.7 2.7 2.8 2.8 2.5 2.2 2.1 2.3 2.3 2.3 2.3 2.5 2.7 7.3 11.6 21.5 11.7 7.4 6.4 4.7 4.2 3.5 3.2 3.8 3.8 1.6 5.6 10.9 11.7 10.7 9.9 10 13.5 16.1 18.1 20 20 21.2 25.4 29.6 33.9 38.2 40.4 44 53.4 63.7 72 72 77.7 86.4 96.8 102.2 106.1 105.2 104.3 116.4 128.8 131 127.6 132.1 138.7 143.2 150.1 156.7 156.9 152.7 155.3 160.6 181.7 194.5 200.2 197.3 193 191 187.9 180 174.4 178.3 188.3 182.6 175.5 171.9 172.5 172.7 167.7 155.7 136.4 139.8
-1.1 -1.1 -1.1 -1.1 -0.5 0 0.5 1 1.6 5.3 9.2 8.5 6.6 6.3 5.6 5.5 5.7 5.3 4.5 3.8 2.8 1.7 1.8 2.2 1.8 1.6 1.3 1.1 0.8 0.4 -0.1 -0.4 -1.1 -1.1 -0.1 0.5 1 1.2 1.3 1.4 1.4 1.4 1.4 1.6 1.6 1.6 1.5 1.5 1.4 1.4 1.4 1.3 1.3 1.2 1.2 1.2 1.1 1.1 1.1 1.1 1.1 1.1 1.1 1.1 1.1 1.1 1.1 1 1.1 1.2 1.3 1.3 1.5 1.6 1.8 1.9 2 2.1 2 1.9 1.9 1.8 1.8 2.3 2.5 2.6 2.4 2.1 1.7 -1.1 -1.1 2.1 1.9 2.3 2.1 1.9 1.8 1.7 1.8 1.9 1.9 2.1 2.2 1.9 1.3 1.8 2.7 2.4 2.3 2.4 2.5 2.5 2.6 2.6 2.7 2.7 2.5 2.6 2.7 2.6 0.8 2.2 2.2 2.4 9.5 10.2 12.8 14.5 9.6 8.5 6.3 6.2 5.7 4 3.4 3.8 3.9 4.7 9.5 15 14.8 13.1 10.8 11.6 15.4 19 21.6 23.7 25 26.4 29.3 33 37.3 41.5 46.5 52.4 60.9 68.8 74 80.5 83.9 87.5 94.4 97.6 104.5 105 108.8 120.5 124.4 121.5 129 137.6 141.7 147.8 155.4 160 154.5 154.6 155.7 179.1 195.3 205.6 210 208.5 207.6 209.3 202.7 193 185.1 187.1 199 201.1 200 192.6 190.3 188.9 184.7 176.1 146.5 156
-1.1 -1.1 -1.1 -1.1 -0.4 0.1 0.6 1.1 1.6 7.1 9.7 8.9 7.7 6.8 6.5 5.8 5.4 5.6 5.6 5.3 4.8 3.7 2.6 2.5 2.1 1.8 1.8 1.5 1.1 0.8 0.5 0.1 -1.1 -1.1 0.1 0.6 1.2 1.5 1.6 1.7 1.8 1.8 1.8 1.8 1.8 1.7 1.7 1.6 1.6 1.5 1.5 1.5 1.4 1.4 1.3 1.3 1.3 1.3 1.2 1.2 1.2 1.2 1.3 1.3 1.3 1.2 1.3 1.3 1.3 1.4 1.5 1.6 1.7 1.8 1.9 2 2.1 2.2 2.2 2.1 2.1 2 1.9 2.3 2.6 2.7 2.7 2.6 2 2.2 -1.1 -1.1 2.5 4 2 1.7 1.7 1.9 1.9 1.9 1.7 1.8 1.6 1.2 1.2 1.1 2.2 2.1 2.2 2.3 2.4 2.4 2.5 2.5 2.5 2.6 1.1 2.1 2.3 2.2 2.2 2.2 2.2 6.1 5.6 6.9 10.5 10.3 9.4 7.2 6.3 7.4 9.6 3.7 3.6 4.2 4.9 8.2 13.8 15.8 15.3 13.9 12.9 14.6 17.8 21.4 24.7 27.9 29.6 31.1 33.5 37 40.9 46.1 52.2 59.6 66 72.3 78.2 83 87 89.1 92.9 98.3 106.2 103 109.6 113.5 116 126.6 137 141.2 144.3 153.1 159.3 158.2 156.9 157.3 169.9 195.8 204.6 217.3 220.5 219.6 217.2 217.3 215.2 212.9 204.1 201.4 216.7 219.4 212 206.5 199.4 195.9 192.4 186.5 170.7 167.3
-1.1 -1.1 -1.1 -1.1 -0.4 0.1 0.6 1.1 1.6 8.8 10.5 9.4 8.1 7 6.8 6.8 7.1 7 6.7 6.3 5.7 5.3 4.2 2.9 2.4 1.8 1.8 1.8 1.7 1.4 1.1 0.9 -1.1 -1.1 -1.1 1.3 1.7 1.8 1.5 1.4 1.3 1.3 1.3 1.5 1.6 1.8 1.8 1.7 1.7 1.7 1.6 1.6 1.6 1.5 1.5 1.5 1.4 1.4 1.4 1.4 1.4 1.4 1.4 1.4 1.4 1.4 1.4 1.5 1.5 1.6 1.7 1.8 1.9 1.9 2 2.1 2.3 2.3 2.3 2.3 2.2 2.2 2 2.5 2.7 2.7 2.7 2.5 2.2 2.1 2.2 -1.1 -1.1 2.1 2 1.7 1.8 1.9 1.8 1.8 1.8 0.2 1 1 0.9 0.9 1.9 2 2 1.5 2.3 2.3 2.4 2.4 2.4 2.4 2.4 1.2 1.9 2.1 2.2 2.1 2 1.1 1.1 7.8 8.5 9.5 9.2 6.9 6.9 15 12 7.1 3.9 4.2 9.6 13.3 17.6 17.1 17.3 16 14.8 16.3 19.3 24.9 28.2 30.7 33.6 35.6 38.2 41.4 46.9 53.4 59.7 65.7 71.4 77.4 84.3 89.1 90.9 91.5 93 99.2 100.9 103.2 108.1 115.3 123.3 132.4 139.1 142.7 146.9 155.2 158.7 159.5 159.9 162.3 189.9 206.3 216.6 226.1 233 228.3 228 225.8 226 221.1 215.8 216.6 230.4 225.5 221.6 217.7 210.7 202.8 196.4 188.9 177.1 176.7
-1.1 -1.1 -1.1 -1.1 -0.4 0.1 0.6 1.1 1.6 8.9 12.1 9.8 8.9 7.2 7 7.5 7.6 7.3 6.9 6.3 5.8 5.2 5.2 3.4 2.9 2.3 2.1 1.9 1.9 1.8 1.8 1.8 -1.1 -1.1 -1.1 1.8 1.8 1.8 1.4 0.9 0.8 0.8 0.9 1 1.3 1.7 1.8 1.8 1.8 1.8 1.8 1.7 1.7 1.7 1.6 1.6 1.6 1.6 1.5 1.5 1.5 1.6 1.6 1.6 1.6 1.6 1.6 1.7 1.7 1.8 1.8 2 2 2 2.1 2.2 2.4 2.5 2.5 2.5 2.4 2.3 2.1 2.7 2.7 2.9 3.8 2.3 2.2 2.2 2.5 2.3 -1.1 1.9 1.8 1.9 1.9 1.9 1.9 1.7 1.7 1.5 0.9 0.9 0.8 0.8 0.7 1.7 1.5 1.9 2.1 2.1 2.1 2 1.9 1.8 1.7 1.7 1.5 1.8 2.1 2.3 2.4 3 4.2 16.2 10.2 10.4 9.5 5.4 16.1 24.9 14.9 9.7 4.4 4.5 12.1 20.7 21.4 23.4 23.8 20.4 20.9 23.4 29.1 29.6 32 35.2 38.5 41 44.3 47.7 53.3 60.9 66.8 72.5 79.1 84.6 89.8 94.1 94 93.9 95.1 98 101.5 107.3 113.2 119.3 126.5 133.6 139.2 146.3 153.4 157.6 164.2 170.7 163.6 180.9 202.8 214.4 234.7 240.1 241.6 240.4 240.1 238.8 236 229.9 233.5 241.1 246.6 239.5 233.3 223.9 215.5 205.9 197.9 188.3 181.1 188.2
-1.1 -1.1 -1.1 -0.8 -0.3 0.2 0.7 1.1 1.6 10.1 12.4 11.3 10.3 8.9 8 7.4 7.2 7.2 6.3 6.2 6.2 4.9 3.8 4.5 4.2 2.7 2.2 2.2 2.1 2 1.9 1.8 -1.1 -1.1 -1.1 1.8 1.8 1.8 1.4 1 0.5 0.3 0.7 1.1 1.5 1.8 1.8 1.9 1.9 1.9 1.8 1.8 1.8 1.8 1.8 1.8 1.7 1.7 1.7 1.7 1.7 1.7 1.8 1.8 1.8 1.8 1.8 1.8 1.8 1.9 2 2.1 2.2 2.2 2.2 2.3 2.5 2.6 2.7 2.6 2.5 2.4 2.3 2.6 2.8 2.9 2.5 2.3 2.2 2.4 2.6 2.4 -1.1 -1.1 2.4 4.3 0.2 1.8 1.7 1.5 1.7 1.6 1.7 0.3 0.7 0.6 0.6 0.8 1.1 1.1 1.5 1.8 1.8 1.7 1.6 1.5 1.2 2.1 2.6 2.3 2 2.4 2.6 3 10.8 14.2 10.7 12.8 12.6 14.9 33.9 39.1 23 13.1 6 6.8 20.1 26.7 28.4 29.1 27.5 25.5 30.2 38.3 39.5 35.7 37.7 41.2 44.6 47.3 50.7 54.9 61.3 69.1 75.1 79.5 86.7 92.8 94.8 94.9 95.1 96.2 97.6 99.5 107.4 112.7 119.7 123.5 127.9 135.1 142.5 154.9 161.6 165.9 178.5 170.5 174.2 195.7 209.8 232.5 252.6 248.2 253 249.4 249.3 250.7 248.1 245.1 255.3 264.5 266.9 253.7 242.9 230.5 223.2 210.6 205.4 195.1 190.2 198.4
-1.1 -1.1 -1.1 -0.8 -0.3 0.2 0.7 1.2 1.7 10.4 11.4 13.8 12.3 10 8.8 8.5 7.9 7.2 5.8 5.1 4.9 4 3.8 4.4 5.2 3.8 2.4 2.4 2.3 2.2 2.1 1.9 -1.1 -1.1 1.8 1.8 1.8 1.8 1.5 1 0.6 0.6 0.9 1.3 1.8 1.8 1.9 1.9 2 1.9 1.9 1.9 1.9 1.8 1.8 1.8 1.8 1.9 1.9 1.9 1.9 1.8 1.9 1.8 1.9 1.9 1.9 1.9 1.9 1.9 2 2.2 2.3 2.3 2.3 2.4 2.6 2.7 2.8 2.8 2.6 2.3 2.5 2.4 2.4 2.5 2.4 2.3 2.2 2.4 2.5 2.4 2.1 -1.1 -1.1 1.8 2 1.7 1.5 1.5 1.6 1.5 1.6 1.2 -0.5 0.7 0.6 0.7 1.5 1.3 1.6 1.8 1.6 1.5 1.4 0.8 1.9 2.4 2.6 2.4 2.3 2.3 2.9 4 17.3 14.2 14.9 18.4 20.5 36.4 48.4 46.4 30.3 15.6 8.5 12.9 25.7 33.1 37.1 36.2 33.8 36.2 48 57.5 49.7 46.5 50.4 51.2 53.1 54.4 57.5 62.7 69 76.6 83.2 88.3 93.8 97.6 97.3 96.9 97 97.7 99.4 103.6 112.7 119.2 125.6 125.8 130 136.4 147.9 161.3 171.7 180.2 180.2 178.5 196 203.9 226.7 244 257.4 261.5 261.5 256.5 259.9 260.3 258.9 257.3 272.5 286.9 281.5 263.6 249.1 234.7 227.2 217.3 211.9 197.8 192.3 206.4
-1.1 -1.1 -1.1 -0.8 -0.3 0.2 0.7 1.2 1.7 9.3 13.8 16 15.1 10.9 9.9 6.8 6.1 7.8 6.6 5.4 4 5 4.9 4.7 4.8 4.6 3 2.5 2.4 2.4 2.3 2.1 -1.1 -1.1 1.8 1.7 1.8 1.8 1.6 1.2 1.1 1 1.1 1.6 1.8 1.9 1.9 2 2 2 2 2.1 2 1.9 1.9 2 2 2.1 2.1 2.1 2 2 2 1.9 1.9 1.9 1.9 1.9 1.9 1.9 2 2.2 2.3 2.3 2.3 2.3 2.3 2.4 2.6 2.5 2.3 2.4 2.9 2.3 2.3 2.3 2.4 2.4 2.3 2.2 2.4 2.4 2.3 1.8 -1.1 2.5 1.8 1.9 1.5 1.4 1.4 1.5 1.5 1.6 1.1 0.9 0.6 0.8 0.9 1.3 1.4 1.8 1.6 1.3 -0.4 1.8 2.1 2.4 2.6 2.4 2.9 3.2 3.8 12.9 16.5 15.2 26.6 28.6 36.5 56.6 58.9 47.6 32.4 20.3 18.5 26.7 27.3 37.2 40.5 40.1 39.8 55.6 71 67.3 63.8 69.5 69.6 66.5 63.1 62.5 64.9 68.7 74.8 81.5 91 97.3 99.7 100.2 99.8 98.3 98.7 98.7 100.5 109.3 117.1 124.9 128.6 129.4 133.5 141.6 154.9 166.4 180.1 196.9 185 201.1 211.8 221.6 239.6 254.5 264.8 270.2 272.3 266.1 269.1 272 270.3 272 289.2 301.8 285.5 269.3 253.3 240.4 229.5 220.9 207.9 200.9 196.3 213.4
-1.1 -1.1 -1.1 -0.8 -0.3 0.2 0.7 1.2 1.7 11.6 14.7 9.7 18 12.2 7.1 4.3 4.6 4.8 5.1 4.7 4.4 4.5 4.5 4.5 4.5 4.4 3.7 2.6 2.6 2.5 2.4 2.3 -1.1 -1.1 1.5 1.8 1.8 1.8 1.8 1.7 1.6 1.4 1.6 1.8 1.9 1.9 2 2.1 2.1 2.1 2 2.2 2 2 2 2.1 2.1 2.3 2.3 2.3 2.2 2.1 2.1 2 2 2 2 2 2 2 2 2.2 2.3 2.3 2.3 2.5 2.4 2.3 2.2 2.3 2.6 3.7 2.8 2.7 2.5 2.5 2.6 2.5 2.4 2.2 2.2 2.3 2.3 2 2.8 -1.1 1.8 4.3 0.6 1.5 1.6 1.6 1.7 1.9 2.1 2.4 1 0.5 0.8 1.1 1.3 1.7 1.5 1.1 1.8 1.9 2.2 2.4 2.6 2.9 3.3 3.1 5.3 16.8 16.8 23.4 36.2 41.3 56.7 63.3 56.5 44.1 30.2 26.5 29.9 36.5 31.1 40.4 44.2 44.4 53.6 75.4 82.2 80.7 88 92 92.2 82.9 73 69.9 72.7 76.6 81.1 86.9 93.8 100.5 103.2 104 104.1 101.2 100.9 100.3 104.7 115.9 124.1 130.9 132.2 136.1 141.8 150 164.9 179.2 184 196.3 197.6 218.4 227.8 232.8 253.4 269.6 277.1 283.2 282.2 276.7 279.8 285.5 284.9 285.1 304.1 306.2 286.3 275.3 257.8 246 234.4 223.5 213.6 206.2 203.8 229.6
