ncols 200
nrows 84
xllcorner 200000
yllcorner 742000
cellsize 50
297.1 286.8 275.2 267.8 250.7 227.8 204.1 197 178.3 166.2 154.3 143.3 121.9 82 53.9 33.5 12.6 -1.2 -1.2 4 2.5 3.2 6.4 6.8 7 7.2 6.5 6.3 6.9 5.4 5 4.6 4.2 3.5 3.2 3.8 4 11.4 16 42.7 62.9 75.7 91.4 102.4 108.6 105.7 103.5 108.4 109.5 115.4 122.7 131.8 126.6 129.9 133.6 132.4 132.9 135.4 135.6 138.9 130.5 111.1 106.5 115.7 127.8 143.8 157.8 165.8 177.1 187.7 195.2 205.5 218.7 235.1 247.4 264.4 279.6 295.5 312.6 326.7 347.7 365.2 378.1 389.5 403.6 418.9 434.7 453.1 474.7 493.4 519.3 538.9 558.9 576.8 604.2 636.8 671.6 700.6 731.9 771.9 799 819.6 846.8 869 878.9 891.2 903.7 906.2 886.2 851.5 838.7 844.1 850.6 840.2 837.1 829.6 807.4 778.4 744.1 720.4 690.2 664.2 636.9 612.4 587.2 568.9 553 539.5 529 517.9 510.2 500.8 490.3 487.2 480.2 472 464.7 450.1 434.7 423.2 413.4 402.2 395.8 381 373.8 366.9 363 359.7 354.8 346.2 340.6 336.2 333.6 324.9 319.6 320.5 318.1 316.7 316.8 313.6 312.7 316.3 312.3 312.5 317.3 321.4 328.7 334.9 339.6 333.1 329.8 332.8 346.3 361.2 368.9 366.4 360.6 360.5 362.4 360.6 356.9 357.8 343.2 330.8 328.5 319.8 319.1 320.8 322.8 319.7 301.7 291 285.2 284.9 283.9 290.6 311.9 324.3 334.5 338.8
277.4 265.7 253.4 239.6 216.4 198 185.4 169.4 160.3 152.1 140.8 128.1 95 63.8 34.3 16.7 -1.2 -1.2 -1.2 -1.2 2.3 4.2 5.6 5.6 5.8 6.4 5.8 6.2 4.3 4.6 4.9 5.2 2 3.2 7 9.2 9.4 12.2 23.2 49.8 67.7 82.6 89.6 100.4 92.4 97.9 104.2 103.7 113.9 124.6 130.4 133.8 134.9 139.7 143.5 146 142.3 148 150 150 129.2 111.7 115.5 129.3 143.4 159 170.5 178.3 187.3 199.2 203.7 218 228.8 244.2 260.3 276.9 291.1 307.5 323.2 341.4 358.6 367.1 377.9 391.2 399.6 416.5 434.2 448 464.3 479.5 498.7 522.3 542.7 563.3 589.8 630.1 662.5 689.2 724 762.8 798.9 820.4 850.6 887.2 901.2 916.1 926.9 912.3 877.4 847 829.4 810.6 805.8 810.6 803.4 791 774.6 757.3 730.2 700.2 675.7 653.3 627.1 597.3 576.9 561.1 545.9 532.9 523.6 515 505.4 492.9 479.1 476 473.7 461.6 451.9 438.7 426.4 415 408.3 401 388.5 377.1 365.6 364.5 357.4 355.2 351.2 346.9 339.6 334.7 331.8 325 323.7 321.5 318.5 320.7 324 320.2 318.3 319 318.9 314.5 321.4 323.7 327.4 332.8 341.3 338.7 333.7 339 347.4 368.6 372.8 365.7 364.4 364.6 365.8 367.7 359.6 358.1 341 331.9 327 321 319.9 324.4 328.8 328.1 313.1 300.6 295.5 294.8 295.5 298.7 319.9 341.6 358.5 365.4
249.9 244.2 231.8 204.1 188.3 174.7 157.5 151.7 147.3 139.1 127.3 107.9 76.2 46.6 20.6 -1.2 -1.2 -1.2 -1.2 -1.2 -1.2 4.1 5 3.8 5.9 5.8 5.6 5.2 3.9 5.2 4.2 4.3 1.4 7.8 8.1 10 12 13.7 30.3 49.1 67.6 78.9 78.8 82.2 90.2 102.7 106.9 110.4 120.1 129.6 134.7 138.5 145.6 138.8 146.1 147.8 153.1 154.6 160.7 151.5 132.6 124.3 134.3 149.5 162.8 170.6 183.3 193.2 202.3 213.5 215.6 227.5 240 254.5 269.6 284.3 302.8 321.3 336.7 354.9 369.9 378.4 393.1 401 409.5 415.3 428.6 442.4 458.3 475.8 490.4 505.9 528.5 552.2 579.1 616.8 642.5 678.7 715.3 750.1 780 818.5 854 885.1 914.9 927.4 927.6 906.9 872.5 848 820.4 787.1 778.1 776.5 765.1 755.8 744.5 724.9 702.9 680.3 657.7 637 607 586.1 567.5 552.1 538.2 526.3 514.8 504.7 496.4 483.5 473.2 460.5 462 449.8 441.1 437.2 422.5 409.3 401.3 391.9 382.4 372.1 364.5 360.3 356.9 353.9 349.3 342.6 337.9 334.7 333.2 331.1 326.2 318.8 322.3 325.5 328.4 327.7 325.3 326.5 325.3 319.7 321.2 327.2 327.3 334 341.3 344.5 340.5 339.6 348.2 359.2 379.6 364 360.6 369.4 373.6 369.5 359.5 351.3 345 339.7 330.5 324.3 324.4 328.8 333.2 331.5 319.5 309.6 308 309.5 307.6 311.1 331.5 356.4 380.4 383.2
227.8 219.3 197.2 177.1 162.1 145.7 141.9 139.6 134.9 121 108.3 85.7 57.6 29.9 -1.2 -1.2 -1.2 3 3 -1.2 -1.2 3.8 4.3 5 5.4 5.3 5.4 3.9 -1.2 -1.2 -1.2 0.5 7.1 7 11.2 17.3 25.6 26.7 47.1 57.9 64.4 61.8 72 87.5 97.9 106.3 113.4 118 130.6 138.6 139.5 143.9 148.5 143.5 150.4 154.1 161.4 161.9 155.9 145.2 131.6 140.5 158.7 168.4 178.6 184.7 196 206.1 214.6 224.7 231.5 239.5 255.1 270.4 285 301.7 317.1 334.8 356.3 368.6 381.5 390.6 399.9 409.8 418.7 428.8 438.6 447.4 455.4 471.7 485.3 501.9 519.3 540.7 567 593.9 628 664.9 700.8 733.6 773.1 812 842.2 869.9 904.5 919.3 924.5 894.7 862.5 836.4 812.2 783.5 762.7 748.8 736 719.6 704.8 692.2 677.5 657.1 634.1 610.4 590.5 572.3 556.5 541.9 530.8 516.3 503.3 495.4 484.9 476.8 465.8 456.3 445.3 439.5 435 433.6 419.3 407.4 396.3 385.9 375.4 368.5 366 360.1 351.1 352.5 345 341.6 339.5 337 332.7 329.6 325.9 325.5 326.4 330.5 329.4 330.8 330.3 332.1 331.1 322.7 322.7 328.6 336.5 340.2 344.2 344.6 346.3 345.1 346.8 361.3 370 364.1 360.6 364.4 372.3 369.4 366 348.6 344.7 345.4 339.8 333.6 327.7 331.6 338.7 340.1 332.3 325.1 321.4 323.9 325.3 331.5 347.5 367.4 402.8 408.2
216.1 189.3 168.8 157.5 142.6 131.4 131.6 130.2 118.1 105 87.5 61.5 34.6 12.1 -1.2 -1.2 3 3.9 4.4 5.4 -1.2 -1.2 3.8 4 4.6 5 5.6 -1.2 -1.2 -1.2 -1.2 7.2 8.3 12.5 23.2 30.4 35.2 34.7 42.9 56.9 69.9 76.1 85 94.2 104.4 106.6 113.1 130.4 137.9 144.1 144.7 150.6 156.4 154.3 152.4 156.6 166.2 163.3 156 144 151.9 161.9 173.4 187.6 196.5 196.8 205.7 215.7 228.5 235.7 246.7 254.4 266.3 283.3 298 319.1 335.4 349.4 364.1 380.8 394.8 407.7 415.8 422.9 429.2 440.8 451.3 460.8 468.8 477.4 486.5 501 515 534.3 556 582.4 611.4 651.1 686.7 715.3 758.7 790.6 826 861.4 890.8 921.5 918.1 877.3 848.8 822 799.8 782.2 753.5 713.5 701.5 689.7 673.8 662.8 649.2 631.3 609.7 590.8 570.7 556.3 542 530 517.7 507.2 496 484 475.4 467.8 455.7 448.8 442.1 433 432.4 429.3 413 400.3 390.7 383.1 374.5 366.9 363 357.3 353.2 348.8 347.7 343.6 341.1 335 331.2 331.8 331.7 329.6 333.5 337.3 337.4 337 338.1 341.6 335.3 327.4 323.9 329.4 341.6 345.1 349.5 350 347.6 347.5 348.6 358.5 368.2 362.3 360.6 365.6 370.1 371 367.8 355.1 346.1 347.7 345.9 336.3 332.8 331.9 343 346.7 346.7 338.9 335.9 340.4 349.6 357.4 366.6 383.7 418.4 428.7
186.2 164.6 152.1 139.8 128.2 124.1 123.1 113.3 101 85.2 64.9 38.1 18.8 -1.2 -1.2 2.7 3.4 4.3 4.9 5.3 5 -1.2 -1.2 2.9 3.2 3.8 -1.2 -1.2 5.5 6.1 13 18.5 26.9 40.7 44.5 46.9 52.1 48.5 56.4 68.4 77.5 87.9 97.3 101.8 108.6 117.2 126.6 131.6 145.6 151.9 158.9 163.7 169.3 168 164 166.7 176.2 173.4 163.6 156.4 167.4 179 193.1 200.9 211.9 214.4 221.6 232.9 242.2 254.8 262.4 274.5 282.8 297 316.5 333.1 345.3 359.3 375.9 395.9 408.4 420.3 432.9 440.2 451.2 461 468.8 478.3 482.9 490.7 498.2 506.4 519.7 535 554.5 575 602.2 635.9 664 700.2 739 771.5 812.2 846.4 881.3 911.5 913.9 864.8 833.6 800 771.9 749.6 730.4 709 678.5 664.6 648 636.8 621 603.4 585.9 569.7 552.5 538.1 524.9 516.2 503.4 494.6 486.4 479.5 467 456.5 450.2 441.8 436.1 428.4 423.3 419.5 407.8 398.9 386.2 380.5 374.3 365.2 359.5 357 354.1 348.3 345.3 341.7 336.1 334.5 332.1 334.9 337.8 332.9 339.4 346 351.6 344.8 344.8 343.5 339.6 333.1 328 333.8 346.8 350.4 352 351 348.9 349.1 353.1 356.3 360.2 366.3 363.1 363.8 369.7 369.7 367.8 366.6 357.1 354.7 347.5 340.5 340.4 338.5 345.4 354.9 353 352.3 353.1 358.3 367.8 375.3 385.8 408.8 428.1 445.7
162.7 148.9 131.8 122.4 116.7 118.5 110.1 100.9 86.2 68.3 43.2 16.5 5.7 -1.2 -1.2 2.3 2.5 5.3 5 5.1 5 -1.2 -1.2 2.2 2.2 -1.2 -1.2 8 10.6 15.2 24.8 28.1 48.7 63.9 64.1 63.9 57.3 61.3 67.9 81.6 92.4 101.4 106.9 112.6 126 130.5 138.8 140.1 149.7 159 163.9 171.3 169.8 173.5 176.4 182.9 187.1 174.5 167.7 175.1 184.8 196.2 208.9 218.1 224.5 234.2 242.4 251.6 261.1 271.8 280.4 292.2 304.7 314 323.6 337.9 354.4 371.7 389.5 402.6 415.8 435.4 446.3 459.5 469.9 482.6 492.2 502.2 504.1 512.5 513.2 522.2 532.4 538.6 558.3 578.1 592.7 617 646.1 683.7 715.7 756.4 797.7 833 877.6 906.6 901.5 855.1 819.7 778.3 741.3 720.7 700.6 679.7 663.5 639.8 626.6 615 597.5 580.5 567.7 552.5 537.8 523.7 510.4 501.8 491 480.5 471.9 465.3 457.2 451.6 443.4 433.5 426.6 423.7 416.3 412.1 403.8 394.1 385.1 378.8 371.7 365.4 359.1 356.2 349.9 347.2 342.4 338.1 337 336.9 333.1 338.1 340.2 341.8 343 349.1 357.3 354.9 352 345.3 341.8 338 335.2 333.9 346.4 350.2 349.1 348.6 349.9 350.2 355.8 357.4 358.7 364.4 365 364.9 369.8 372.9 371.6 371.4 367.1 357.2 350.5 346.7 350.7 352.6 353.2 360.1 364.1 363.9 378.1 380.2 393.7 405.9 416.5 432.7 453.8 470.2
145.1 123.7 114.3 106.5 109.1 107.4 94.5 85.7 65.8 44.8 23.3 6.8 -1.2 -1.2 2.2 2 2 4.8 5 5.2 4.8 5 5 5.1 6.5 13 10.4 16.4 23.5 25.7 36.9 45.1 54.3 66.1 74.2 65.2 62.6 68.4 77.8 88 96.6 111.1 118.2 120.8 132.9 137.4 143.6 141.2 147.1 161.4 175.5 180.5 181.2 186.8 189.4 189.7 189.5 188.1 182.6 192.6 205.8 217.6 226.7 234.5 242 255 264.3 271.9 280.2 286.1 299.2 309.1 321.9 326.9 340.8 348.6 368.1 383.7 400.6 415.6 439.8 446.9 464.4 479.9 494.1 500 515.6 530.1 538 540.2 543.6 551.4 551.1 556.4 566.6 577.2 588.5 605.6 631.7 663.5 700.4 747.1 782.1 830.1 874.1 895.9 885.9 850.1 805.2 762.6 727.2 704.4 682.5 661.5 644.6 621.1 605.3 594.3 580.9 563.9 549.6 536.3 521.6 511.4 498.4 487.9 477.6 465.4 458.6 450.9 451.4 442.2 436.1 429.3 422.3 412.6 408.5 403.9 401 392.5 384.4 377.7 369.4 363 356.9 350.5 347 343.3 342.2 338.5 336.6 336.2 334.6 334.1 340.7 347.8 351.3 357.9 359.7 358.3 352 347.2 348.1 343.7 341.8 341.4 344 345.6 349.2 349.1 351.8 353 356.1 357.5 358.1 362.8 368.2 372.2 377.5 379.7 379.3 377.2 374.1 364.4 356.9 360.6 361.2 364.6 365.2 371.9 373.7 380.3 401.3 411.8 421.7 434.8 439.3 458.1 480.5 492.5
118 106.9 101.5 96.6 99.3 87.1 78 63.1 49 25 8.7 -1.2 -1.2 -1.2 1.8 2.8 2.8 2.3 4.8 5.1 4.5 4.5 4.2 11.2 15.6 16.9 22.3 28.3 32.1 40.4 48.4 55.4 62.2 69.6 71.1 67.2 71.9 76.7 82.5 92.7 105.3 117.6 129 130 138.9 155.1 160.4 163.9 164.9 173.3 186.9 186.8 199.2 208.3 208.2 206.4 207.9 197.7 199 214.8 227.7 236.3 243.9 253.1 260.4 267.2 282.8 287.8 295.7 305.7 316.9 325 333.2 346.3 349.9 366 378.2 395.2 408.9 427.6 447.1 465.5 482.3 497.8 514.4 523.4 541.3 561.9 574.1 577.5 580.1 582.5 573 582.4 585.1 585 588.6 601.5 621.4 645.5 683 731.9 774.4 822.4 868.6 892.8 869.2 838.4 803 753.7 716.3 691.9 669.9 647.1 625.7 607.1 588.3 575 564.7 549.4 536.4 522.7 510.9 499.6 485.5 472.3 462.3 454.9 447.2 443.8 440.1 431.6 425.9 419.7 415.6 408 396.7 397.2 396.4 387.6 379 374.5 365.5 356.6 352.7 343.8 342.5 340.6 338.5 336.6 337.6 335.6 334.3 336.5 347.4 352.8 360.3 365.3 362.5 359.9 352 353.9 357.5 354.4 346.7 343.9 342.4 344.5 347.9 348.8 351.6 355.9 358.4 358.5 358.7 362.7 373.1 376.2 378.7 384.6 385.1 386.4 385.3 378.9 378.5 380.4 375.9 377.3 379.7 384.2 391.6 397 418 442.5 456.6 464.1 461.4 488.6 507.5 519.4
96.7 93.4 86.3 85.2 76.1 70.8 58.1 45.7 27.3 11.4 2.7 -1.2 -1.2 0.6 1.9 1.9 1.3 4.1 4.3 4.6 5.9 6.7 16.6 14.8 20.6 26.3 39.1 36.7 47.8 44.5 55.6 60.8 65.8 68.6 73.6 77.7 84.2 84.1 93.8 100.9 120.7 131.9 140.3 147.3 156 165.2 172.2 178.6 184.3 193 196.1 202.7 216.3 224.7 224.5 229.1 229.5 209 220.9 236.6 245.6 258.7 266.5 274 280.9 289.6 297.9 308.1 314.5 321.8 331.8 342.6 351.9 363.8 369.6 378 383.9 407.7 421.9 438.1 457.6 480.7 498.5 515.9 533.3 550.8 571.6 593.8 608.8 626.7 610.3 605 607.4 610.4 601.2 593.2 596.9 605.4 619.2 639.4 674.6 720.5 769 817.9 857.8 882.6 850 816.7 787.9 751.5 708.6 680.6 656.3 630.8 608.4 587.3 574.4 561.3 547 533.9 521.3 509.5 496.9 485.7 470.7 462.1 454 445.8 437.9 433 430.2 423.7 417.8 413.1 407.3 400.4 393.2 388.6 388.7 382.3 375.5 365.7 358.8 352.4 348.1 343.2 340.6 338.8 338.1 336.9 337.8 337 339.6 343 353.4 358.9 365.5 372.8 365.2 359 356.8 358.2 365.2 360.7 351.5 347.9 346.8 347.2 348.4 352.4 354.1 356.8 359.4 360.3 360.3 366 377.3 385.9 387.2 389.7 393.5 396 396.5 389.8 397.6 395.9 390.1 388.2 398.2 405.1 422.2 425.4 434 474.7 491.2 500.7 501.6 513.8 529.7 533.6
81.8 82.5 78 65.5 61.4 56 42.2 29.9 8.3 2.5 -1.2 -1.2 -0.1 1.3 -1.2 -1.2 1.5 4.1 5.3 5.8 8.5 17.2 23.4 21.9 29.3 35.2 38.6 41 41.3 53.8 65 65.4 68.9 75.7 80.2 83.6 85.4 97.1 109.3 118.5 125.9 138.3 157.4 158.5 167.9 175 181.3 190.4 197.5 209.6 213.8 221.2 225.6 233.9 242.1 243.1 231.5 227.9 241.3 254.9 269.6 279.4 285.6 295 301.9 308.6 319.6 330.8 339.1 347.4 361.1 366.2 382.2 385.2 387.9 397.3 408.8 423 439.3 450.6 471.1 493.1 514.9 534.9 556.9 586.2 603 621.4 642.8 649.4 649.5 640.8 647.5 640.2 619.9 619.1 616.4 613.5 623.4 638.9 669.1 714.3 770.5 815.2 862.8 865.4 831.5 791.3 762.8 731.4 697.5 666.1 639.9 616.7 591.6 573.8 559.5 544.7 534.8 520.9 507.5 498.1 484.1 472.4 461.3 451 442.8 437.5 428.3 421.4 420.6 415.6 408.3 405.3 402.7 395.8 388.7 382.1 382.9 378.3 373.3 362 351.8 349.5 346.5 341.7 338.8 337.5 337.2 337.2 337.8 334.7 340.8 350.3 358.5 361.6 370.9 377.7 376.4 367.3 365.8 364.5 373.4 365.5 357 351.2 348.7 352.9 350.5 355.4 358.6 358.9 359.5 361.5 363.7 371.4 387.1 394 402.9 400.6 401.6 404.6 403.6 406 408.8 409.3 405.7 405.7 415 436.2 452.3 476.8 474.2 502.1 521.8 530.2 530 532.6 545.1 546.7
76.1 73.9 62.3 52 48.4 39.6 26.8 10.6 2.9 -1.2 -1.2 -1.2 0.9 2.2 -1.2 -1.2 3.3 4.5 5.2 7 11.7 19.1 25.5 30.9 28.9 30.2 31.3 48.9 50.9 60.6 66.1 78.6 82.5 84.2 96.4 102.5 119.1 114.7 122.1 128.1 139.1 156.1 175.8 181.1 184.8 192.3 194.5 199.5 209.7 216.7 227.4 240.4 247.8 258.7 261.9 261.9 237.7 252.2 261.9 276.4 290.2 298.8 310.3 320.7 326.3 331.1 343.6 353.6 361.3 377.7 392.7 404.5 405.9 416.2 413.7 419.6 432.2 443.2 451.7 469.7 483.7 505.5 529.9 553.9 570.2 601.7 626.5 644.4 657 670.4 675 682 678.4 669.6 658.8 659.4 644.8 625.5 634.5 647.1 675.1 717.2 767.5 824.7 856.3 833.9 807 771.6 740 713.1 682.4 649.1 623.5 598.8 576.3 556.1 544.4 533.1 521.4 512.8 497.4 485 473.4 462.4 452.4 443.7 434.3 427.6 422.3 413.9 414 406.8 402.4 399.1 396.5 388.9 382.4 380.7 379 372.3 366.5 354.9 350.5 348.3 344.7 340.6 338.8 337.1 336.5 336.7 335.3 336.9 345.3 357.8 359.2 365.3 374.2 380.1 379.2 373.8 372.6 372.3 373.8 371.2 361.2 357.5 351.7 353 357 355.5 357.3 357.8 361.9 363.9 366.2 376.3 386.5 399 407.8 414.7 416.2 420.8 421.2 423.9 426.3 425.9 426.9 431 442.1 459.6 482.2 509.8 513.1 529.7 542.1 549 553.8 560.6 562.3 563.4
66.2 54.5 46.5 35.3 26.9 21.3 7.8 2.1 0.2 -1.2 -1.2 0.9 2.2 2.5 2.8 3.4 3.1 3.9 4.5 5.7 9.9 19.5 23.1 16.3 24.3 31.4 45.6 58.2 63.7 74.7 82.6 96.3 104.2 112 114.8 120.9 136.2 139.1 138.4 142.9 156.5 179.1 186.3 196.4 202.2 209.4 211.6 213 220 227.7 239.2 252.4 266.4 279.3 288.1 271.7 262.2 275.3 289.6 299.8 310.4 325.7 332.9 339.3 347 355.2 363.1 373.3 387.9 408.2 426.8 437.1 442.8 446.1 445.2 449.4 456 464.6 465.9 482.5 499.4 516.7 543.6 571.5 594.2 617 636.8 659.7 670.4 680.1 692.2 701.8 703.9 702.3 695 689.8 674 647.7 649.9 663.7 684 722.6 779.4 828.9 837.7 807.8 776.6 749.3 716.6 690 659.9 628 603.6 581.3 562.3 545.5 531.8 521.1 508.4 499.2 489.6 476.4 462.8 451.4 443.8 436 427.9 423.6 416.8 410.5 405.7 400.8 397.8 395.9 388.3 383.4 379.2 375.6 371.7 364.9 360.8 355.6 351.5 348.3 343.6 339.3 338 336.9 337.6 335.3 339.1 345.4 347.8 354.5 359.4 364.6 376.2 385.6 384.5 380.2 383 380.2 372.4 372.4 366.2 359.8 358.2 357.3 359 355.9 357.3 358.8 362.1 370 372.3 377.1 385.6 401.6 408.3 418.2 430.8 431.9 434 439.9 440.6 444.4 450.3 457.6 467.4 476.7 510.4 535.1 541.6 557.2 565.3 569.3 569.3 573.5 575.7 578.3
49.4 38.7 31.2 21.3 9.3 -1.2 -1.2 -1.2 -1.2 -1.2 0.5 2 2.6 2.7 3 3.3 3.4 3 3.9 7.3 12.1 11 11.4 20.9 34.7 51.8 55.2 61.1 80.6 89.4 91.6 103.6 115.7 125.8 128.9 140.2 152.7 156.2 160.7 168.9 183.3 198.1 200.7 212 217.8 226.8 228.8 234.3 232.5 245 254.8 265.9 283.2 301.2 302.9 276.7 286.1 300 314.6 328.5 342.3 351.7 357 363.2 371.2 377.4 383.8 397.5 417.9 436.8 451.7 467.6 480.1 478.9 478.2 481.3 486 484.1 485.6 489 512.7 532.2 556.3 582.8 609.1 631.9 651.2 668.3 682.7 693.7 703.1 714 737.3 729.2 727.8 717.5 707 686.1 673.1 680.4 700.5 737.9 793.8 823.5 808 784.3 754 724 694.7 663.6 637.5 607.2 584.6 564.7 547.6 534.1 522.1 509.2 497.7 485.5 476.5 463.6 452 442.1 437.9 430.3 420.8 415.3 409.7 404.7 399.3 395.4 390.6 386.4 382.8 378.5 377.7 369.2 363.7 358.7 358.5 354.5 350 348.3 342.5 339.3 338.4 337.8 335.4 338.8 341 348.1 347.4 351.1 358.4 366.1 374.4 387.7 387.4 387.3 390.6 382.7 373.4 372.1 365.9 362.8 361.8 361 359.9 356.6 357.5 360.3 366 369.9 376.2 380.8 386.2 402.5 410.5 419.7 434.2 440.6 447.5 451.2 456.6 471.1 480.7 490.3 496.5 509.9 535.2 556.8 566.2 567.8 588 589.8 586.6 587.4 592.7 592.5
31.7 25.3 16.6 9 2.5 -1.2 -1.2 -1.2 -0.4 0.5 1.5 3.6 3.1 2.9 3.2 3.3 3.3 4.6 7.6 7.9 6.9 10.6 15.9 29.2 41 52.7 55.2 69.5 84.9 92.3 102.5 114.9 127 133.9 138.5 154.6 161.1 168.4 178.2 189.1 203.3 215 225.3 234.2 234.6 239.9 246.3 249.6 251.5 260.5 272 284.3 298.8 313.6 309.3 298.1 313.3 323.8 338.1 351.8 366.8 377.6 385.5 388.8 390.9 395.3 406.9 422.7 440.6 453.9 474.9 491.9 505 509.8 509.5 513.8 520.3 514.6 513.6 515.1 524.8 546.3 568.9 590.3 617.8 643 666.4 678.8 688.6 704.2 715.1 727.1 757.2 765.9 751.5 737.2 736.2 723.4 699.7 713.3 725.3 757 800.5 803.9 776.4 754.7 727.3 692.3 664.4 638.2 614.4 590.4 570.1 550.3 533.5 519.7 510 496.9 484.3 473.7 464.4 452.5 444 436.6 432.4 423.8 418 411 405.4 399.9 397.3 390.8 387.3 382.2 378.6 374.5 371.4 365.8 361.3 355.8 352.9 353.2 349.2 347.8 342.5 341 338.3 336.8 339.4 340.5 344.8 346.2 346.5 350.5 360.8 371.9 375 380.2 387.7 394.4 395.9 392.4 379.2 377.9 368.3 368 364.8 362.6 366.8 361.5 358.5 362.2 368.7 376.1 379.5 383.4 391.3 402.2 418.2 425.7 430.2 442.3 455.7 468.6 478.7 494.2 511 529.5 532.5 541.4 559 578.1 587.5 584.9 601.6 611.4 606.3 604.4 608.3 606.7
21.2 14.6 6.2 1.5 -1.2 -1.2 -0.7 -0.1 0.7 1.5 2.9 3.5 3.8 3.4 3.4 3.2 3.8 8.8 8.7 5.3 6.7 17 28.7 41.6 41 48.7 60.6 75 81.1 97.2 111.2 122.8 135.1 139.7 149.1 156.2 158.7 176 191.7 209.3 228.7 241.6 243.7 250.3 256 256.3 263.4 272.6 276.7 282.1 292.9 307.6 319 325.6 318.9 320.5 334.7 351.7 365 376.3 390.1 402.3 412.5 413.2 413.6 421.2 434.2 447.2 458.5 476.6 500.2 522 534.8 541.6 547.3 549.6 552.1 549.1 547.3 548.1 551.3 555.6 579.9 599.8 624.2 648.4 671.1 685.7 692.9 700.4 715.5 738.5 763.5 776 790.4 770.4 759.5 750.9 737.6 746 749.9 783.3 808.3 781 753.3 720.7 697.8 666.1 639.2 617.3 595.3 572.9 554.4 536.6 520.9 507.5 496.1 483.4 472.5 464.7 455 447.5 436.6 430.1 424.8 421.1 415.1 407.6 400.8 396.5 394.2 387.7 383.2 379.3 375 371.2 368.2 362.9 358.9 353.8 351.2 348.5 346.8 346.3 343 341 338.7 338.1 340.5 342 347.5 345.5 345.1 351.2 360.8 365.9 372 380.1 387.8 399 395.5 393.8 386.4 382.4 380.7 373.6 377 375 371.6 366.5 366 369.3 376.8 382 387.1 387.5 392.8 404.2 415.7 428.7 430.7 445.8 464.7 478.3 492.5 511.3 533.6 556.2 571.5 584 596 600.7 612.7 612.6 624.1 630.8 630.4 625.2 621.2 616.5
9.6 6.3 1.9 0.3 -1.2 -0.7 0.1 0.8 1.5 2.7 2.5 2.8 3.7 2.5 3.3 4.9 7.8 5.1 4.4 5.1 5.8 15.9 38 48.6 52.8 53.2 65.9 72.8 88.5 103.4 117.8 119.1 132.4 143 155.7 152.6 173.4 198.9 210.3 227.7 247.6 265.2 266.5 269.4 274.4 282.2 283.6 295 299.3 308.6 314 327.6 340.2 341.4 337.1 348.8 361.5 377.4 391.3 408.2 416.8 428.1 439.4 437.2 437.6 451.3 461.6 473.1 487.1 508.9 524.3 550.9 561.1 577.8 594.5 592.1 591.1 589.1 585 579.9 580.3 581.7 592.7 612.5 634.6 659.5 677.5 689.9 699.1 704.9 724.7 741.9 754.6 780.4 803.2 799.6 785.2 788.2 764.1 754 777.7 805.6 783.8 759.3 729.4 699.1 668.3 634.4 615.5 597.3 577 558.8 540 526.4 508.5 496.1 488.4 475.3 463.7 455.6 447.3 439.8 434.1 427 419.9 415.7 411 404.2 397 395.7 389.3 386 383.2 379.6 377.4 370.7 367.1 365.4 361.7 353.4 350 349.2 347.3 344.7 344.1 343.1 342 338 337.9 343 345.5 345 346.4 354.1 363.9 371.3 378.6 384.1 390.6 400.4 399.3 398.9 400 393.5 390.2 388.9 389.3 385.3 380.8 378.7 376.2 375.3 387.4 388.5 389.2 395.8 395.1 404.6 416 430.2 436.9 451.2 470.6 487.1 504.9 526.9 551 577.9 596.2 605.7 613.8 617.8 632.4 635.3 645.4 652.9 657.1 646.6 637.9 618.3
4.7 2.1 0.8 -1.2 -1.2 -0.4 0.4 1.2 2.1 3.5 3 2.1 3.5 2.8 4.5 6.7 3.4 3.7 4 4.9 9 21.2 42.8 52.1 58.9 58.2 71.1 76.3 89.2 103 106 121 129.8 142.7 141.9 167.9 190.7 214.4 233.8 248.7 266.2 280.9 288.1 293.7 299.7 302.1 305.4 313.3 325.5 335.1 341.1 355 366.7 357 363.2 374.2 387.3 405.6 415.8 430.4 441.1 451.7 455.7 461.3 471.7 478.1 486.6 510 523 540.4 543.2 567.1 589.8 608.7 621.1 622.1 634.4 635.9 626.2 617 612.8 610.4 616.6 623.7 646.7 666.1 681.3 691.4 701.4 715.4 742.2 747.9 769 791.4 810.8 823 805.6 801.4 788 775.8 780.8 788.3 763.8 736.5 703 673.8 642.4 613.3 594 578.8 560 543.1 524.2 509.7 497.7 489.8 479.9 466.5 458.5 449.4 442.1 435.1 428.9 421.9 415.7 411.4 406.8 403 397.4 395.3 387.3 386.3 382 380.9 377.1 373.9 373.3 368.9 367.1 358.7 352.2 350.1 348.7 344.4 342.6 343 342.6 337.8 338.2 341.1 345.3 345.2 350.5 358 369 374.7 381.2 386 394.1 398.7 407 409.1 413.2 407.5 404.3 398.1 398.4 395.3 397.2 391.6 387.1 385.7 389.3 397.4 400.9 405 403.6 409.7 419.4 429.4 443.1 452.4 466.5 486.4 513.9 537.7 566 591.2 611.5 621.4 631.3 638.5 647.2 659.1 660.8 673.1 676.5 668 643.3 604
-1.2 0.4 -1.2 -1.2 -0.7 -0.1 0.5 1.2 1.9 2.4 2.2 1.7 2 2.6 2.7 3.2 3.4 3.3 4.7 7.6 13.3 27.3 45.1 55.3 54.2 58.5 69.7 76.4 86 93.2 107.4 118.8 128.6 132.2 151.3 181.7 205.3 229.9 249.6 269.2 280.9 293.8 306 313.7 324.5 326 332.6 338.4 352.5 360.8 370.7 382.2 389.4 376.1 384.2 395.6 412 424.4 437.2 451.4 466.9 477.8 484.2 498.8 504.6 511.4 518 540.5 555.7 567.3 576 589.9 611.7 631.9 646.1 653.3 662.3 670.3 671.9 666 653.6 648.9 647.4 647.2 656.7 669.9 681.2 697.3 712 725.2 741.4 748.5 773.3 807.2 817.9 828.1 824.4 814.9 794.3 781.2 782.6 766.4 737.1 710.8 682.5 645 614.6 594.1 575.4 559.3 543 528.4 516 503.5 488.8 479.2 468.9 458.8 450 442.4 433.4 429.7 422.1 418.1 412.7 408.7 406.2 400.9 398.5 395.2 392.8 386.2 386.3 382.6 379.5 377.7 377 372.8 368.9 361.1 354.6 349.7 348.2 344.6 345 342.5 343.4 341.1 340.8 344 346.5 350.8 352.6 360 369.6 383.9 387.7 393.1 397 405.6 420.9 423.4 422.8 423.6 415.2 409.8 412.9 409.1 407.4 402.3 397.2 398.5 399.3 410.1 412.1 411.5 411.2 416.4 425.5 437.6 445.4 461.2 473.8 488.9 512.7 543.2 574 599.3 622.2 634 646.2 652.8 662.9 674.7 673.6 690.6 693.3 686.3 641.9 579.4
-1.2 -1.2 -1.2 -1.2 -0.4 0.1 0.6 1.3 1.9 2.6 2.1 2.6 3.5 2.8 2.6 3.2 3.5 3.4 4 9.3 14.3 27.2 38 50.3 53 56.3 66.7 76.6 79.5 91.5 105.6 114.3 122.4 136.1 161.8 187.3 214.9 236.7 258.4 278.9 293.2 310.2 327.7 336.4 351 360.2 362.2 370.5 381.8 390.5 401.1 415.8 400.8 399 407 416.8 434.7 451.2 463.3 480.3 498.4 518.2 523.4 534.2 535.9 539.9 548.7 565.9 579.2 591.8 600.5 614.1 633.5 649.5 668.4 674.2 686.1 697.9 705.2 705.9 698.2 692.2 681.2 668.7 668.1 674.5 683.6 705.4 718.4 730.8 745.3 759.6 773.1 803.6 818.5 837.6 833 826.3 796.3 776.9 766.2 745.4 714 682.7 655.4 619.6 599.2 581.1 558.6 542.8 529.3 515 504.5 493.8 484 470.9 461.6 455.4 445.2 437.2 430.3 421.2 417.6 415.6 408.3 406.5 402.7 400.1 397.9 393.5 391.3 390.3 385.9 387.7 381.8 378.9 377.5 374.5 368.6 366.1 357.3 350.9 347.3 342.9 342.1 343.4 342.8 344.7 341.9 342.5 347.9 352.8 356.4 365.9 374.9 388 396.6 403.1 408.3 419.3 432.9 438 437.6 435.7 433 421.1 424.9 429.2 430 421.7 417.6 415.9 413.1 425.2 423.1 423.7 424.7 424.4 429 447.3 456.4 463.9 478 492.3 520.3 544.9 577.2 605 625.5 643.2 657 668.6 678.4 691.2 693.5 703.6 708.3 688.3 635.9 568.5
-1.2 -1.2 -1.2 -0.7 -0.1 0.4 0.8 1.3 1.9 2.2 2.4 2.7 3 2.5 3.1 2.1 1.7 3.2 4.8 17.3 26.2 31.3 35.6 42.7 52.8 61.5 68 72.7 79.5 90.6 101.2 109.7 127.9 144.3 163.8 195.4 221.4 243.4 266.9 281.2 301.6 324.2 344.1 362.2 375.1 389.4 393.4 404.7 417.4 422.7 431 438.3 412.1 426.1 428.6 445.7 476 481.4 488 505.2 529.4 554.2 556.5 563.2 564.9 567.3 575.3 590.6 603.9 609 627.5 641.6 653.6 669.8 684.6 690.2 707.5 720.5 729.8 741.2 733 722.8 700.9 688.8 682.9 683.3 703 720.5 723.9 734.2 751.2 765.5 783.4 792.8 817.6 842.6 818 805.9 788.3 756.6 740.5 716.8 686.7 659.8 631.9 600.2 581 563.2 542 529.9 514.8 500.2 490.9 483.6 472.9 464.2 454.8 446.1 438.9 432.4 423.8 417 414.8 407 404.3 401.1 401.3 399.8 397.6 397 396.7 391.7 389.3 390.4 386.8 383.2 380.8 377.3 371.8 365.7 359.8 350.9 344.7 343 342.6 343.3 343.9 345.1 344.7 343.1 345.9 354.1 363.2 372.2 381 394.9 405.4 413.9 420.2 426.2 445.4 459.2 458.7 451.3 450.2 441.5 440.4 445.9 446.1 442.3 438.6 436.5 436.3 439.4 434.6 431.6 439.3 438.4 436.6 450.1 465 464.4 481.8 501.2 527.6 550.8 581.5 611.5 630.5 651.3 667.7 682.4 690.5 705.2 719.7 720.7 714.9 677.9 615.3 547.7
-1.2 -1.2 -1.2 -1.1 -0.4 0.2 0.9 1.5 2 2.9 2.7 2.3 2.3 2.3 2.3 2.2 2.4 3.4 7.8 22.5 35.6 52.1 53.9 54.5 55.8 65.9 70.7 76.3 82.4 93.3 98.5 112.2 128.3 151.4 176.3 200.6 220 246 269.1 293 311 335.1 363.9 384.3 401.5 413.4 425.7 437.2 446.6 457.6 460.6 442.4 431.1 441.4 455.7 479.4 495.5 504 514.8 537.3 562.3 581.6 582.1 584.4 589.7 593.3 602.9 614.7 624.5 639.7 646.6 660.3 674.5 693.4 703.7 713.1 727 740.5 749.8 760.7 753.6 740.2 725.6 707.3 698.4 698.8 726 751.5 738.9 744.8 750.2 769.4 785 791.5 810.8 822.2 800.4 782.6 768.9 742.5 705.1 689.4 657.4 631.5 605.7 584.1 566 545.6 526.5 511.1 500.8 488.1 475.1 468.7 463.7 454.5 443.7 434.1 431.2 423.4 418 412.1 409.2 404.9 402 399.4 399.1 399 397.5 397.8 397.4 393.5 394.2 392.1 390.5 385.9 383.1 380.9 373.2 364.8 357.5 353.9 346 345.1 344.8 347.8 343.6 344.4 345.1 346.7 351 358.6 369.8 378.5 391 401.1 412.1 428.1 434.8 441.9 468 479.4 484.8 471.9 467.8 461 453.8 462.9 460.6 464.6 456.5 453.7 454.3 451.3 440.8 446.5 448.7 448.1 446.7 457.2 470.3 481.8 487.5 505.6 531.7 557.1 585.8 615.6 638.2 656.3 674.6 691.3 707.5 720.5 735.5 729.8 705 657.3 592.8 521.6
-1.2 -1.2 -1.2 -1.2 -0.8 -0.1 0.5 1.2 1.9 2.2 2.2 -1.2 -1.2 2.2 1.9 1.4 1.7 4.5 19.5 42 54.2 61.3 59.7 64.2 64.4 67.1 71.5 75.7 86.1 94.6 102.1 120.6 132 153.6 184.4 207.4 229.9 245.7 267.5 296.5 320.8 342.3 372.7 397.7 416.1 432 447.4 459.9 473.6 478.3 465.5 437.6 447.7 461.2 478.2 501.1 518.3 531.9 546.5 564.9 579.9 593.6 593.6 601.3 611.9 617.6 617.4 634.8 639 656.4 665.1 677 689.2 708.2 721.7 734.1 748.4 757.6 763.1 775.9 766 751.6 734.2 723.4 718.9 728.2 755.1 770.5 763.1 762 761.3 770.8 777 797.7 806.4 794.9 784 760.4 731.7 711 682.2 661.4 636.3 609.3 589.1 566.6 547.9 529.2 513.5 501.5 487.8 476.3 463 452.9 444.8 444.6 435.5 426.3 418.3 412.6 409.9 406.6 403.4 398.4 399.6 398.3 398.5 399 398.9 398.9 401.1 398.2 398.3 398.3 399.1 394.1 388.1 381.5 372.7 365.4 359 353.7 349.1 347.7 345.6 345.2 344.5 345.3 349.9 351.5 354.1 360.2 376 389.3 398 409.4 424.3 444.5 455.6 467.8 491.1 506 510.9 488.9 479.6 479.9 482.8 481.3 482.1 486.6 480.5 469.2 473.3 463.8 457.8 457.5 456.8 459.4 455.8 465.9 479.4 491.7 492.4 511.1 529.2 562.4 591.3 622.1 644.4 663 679.8 698.6 720 733.7 738.9 689.9 681.9 633.9 560.9 497.3
-1.2 -1.2 -1.2 -1.2 -1.1 -0.5 0.2 0.9 1.2 1.9 2.2 -1.2 -1.2 1.9 1.7 2.6 4 16.8 37.1 61.2 67.2 61.2 66.9 67.8 66.8 70.9 78.8 90.1 93.2 106.9 112.7 126.1 137.8 160.4 186 212.7 229.5 256 280.5 308.3 330.2 349.9 371.5 396.8 417.5 436.5 451.7 466.7 478.9 483.6 455.5 447.4 463.2 486.7 500.9 518.4 537.3 558.5 574.7 580.1 586 588.7 598.5 616 617 626.6 629.6 640.2 646 657.3 678.7 694.5 699.9 713.5 729.9 749 763.4 769.2 773.8 781.5 770.3 759.1 755.1 749.5 744.9 759.6 777 793.2 786 773.4 781.5 783 785.8 787.3 797.6 778.1 752.5 729 706 678.2 648.5 626.4 609.5 589.6 570.6 552.7 531.5 517.4 500.1 486.4 475 461.3 451.2 442.5 434.9 430.9 424.4 416.4 409.5 404.4 404 402.7 400 398.3 397.8 398.5 398.9 400.7 401.8 402.4 404.1 403.5 403.5 406.5 405.7 401.4 393.7 384.3 373.6 364.5 361.7 357.2 350.9 346.9 347.8 347.1 345.8 346.6 349.8 355.4 358.1 366.1 380.9 398 410 424.1 438 461 480.9 495.3 512.6 527.9 529.5 505.7 495 497.2 499.6 502.6 513 513.4 511.5 491.9 483.8 477.5 469.4 473.5 467.6 471.7 470.7 482.7 494.5 505.5 508.2 517.6 534.8 563.9 596 625.3 648.4 669.5 688.6 706.8 726.2 740.1 730.1 672.5 658.4 606.2 538.9 483.4
-1.2 -1.2 -1.2 -1.2 -1.2 -0.8 -0.2 0.2 0.5 0.4 1.8 2.2 2.1 2.3 3.6 5.8 10.4 23 37.7 47.8 55.6 55 60.3 73.5 71.4 73 84.3 93.5 100.4 110.5 117.8 130.3 149.5 168.4 193.1 215 242.3 274.2 300.3 325.7 347.6 363.4 384.4 403.5 423.6 442.6 460 475.1 482.8 472.4 442.5 449 469.7 497.4 506.4 529.3 553.4 559 566.5 567.3 579.1 595.1 601.4 610.7 619.1 625.1 633.1 643.2 655.1 666.6 690.8 706.5 705.6 719.6 741.1 758.2 774.2 784.1 793 794.9 782.5 786.4 789 783.4 774.2 789.7 806.7 808.7 810.9 794.7 796.3 789.8 796.6 792 776.9 753.9 727 702.1 680.6 654.4 624.3 603.3 587.7 571.5 555.9 538.6 520.1 504.5 485.2 471 460.6 451.9 441.9 431.2 425 418.1 411.2 409.4 404.7 401 399.4 397.8 397.4 397.7 398.8 398.5 401.6 402.2 407.2 407.2 415.2 413.2 412.5 416.6 414 406.9 397.3 386.2 373.2 366 363.2 359.3 353.3 349.8 347.6 349.6 346.1 348.2 352.3 358.9 360.5 370.1 386.3 406.8 422.7 440.6 457.1 473.7 499.4 524.2 530.7 543.4 542 520.7 515.9 505.6 513.4 518.7 527.3 531.9 530.2 520.2 504.1 490.8 489 489.5 488.8 485.8 488.7 489.2 511.4 520.9 522.1 523.8 543.7 568.3 598.1 630.6 653.3 673.3 692.1 713.3 733 741.1 718.8 665.4 610.3 591.9 519.8 454.8
-1.2 -1.2 -1.2 -1.2 -1.2 -1.2 -1.2 -1.2 -1 -1.2 -1.2 1.6 2.7 3 5.9 9.5 14.6 22.5 31.8 38.9 45.5 49.5 62.7 67.5 66.7 75.6 85 99 108.6 117.1 123.1 141.4 156.3 177.5 206.9 235.6 265 284 311.9 334.7 355.8 378.1 400.8 417.4 430.3 440.1 453.5 471.3 470.7 445.5 439.4 446.5 471.6 503.2 517.1 529.1 542.3 549.5 552.8 556.8 571.9 586.6 598.8 604.3 616.3 625.2 635.9 649.8 667.1 680.4 699 717.3 719.2 736.7 756.7 767.7 793 804.5 810.7 810.6 808.8 812.6 814.5 814.8 810.7 813.9 826.5 824.3 833.4 813.3 795.3 790.3 788.4 767.7 749.4 729.9 706.5 678.5 656.5 628.6 607.5 586.4 569.4 553.2 538.8 522 504.9 488.1 474.7 460.3 450.1 440.4 431.6 421.1 415.3 408.4 403.3 400.6 399.7 395.6 395 393.3 393.4 395.6 398.3 401.4 405 411.4 417.8 421.5 425.1 424 423.6 427 420.7 411.9 399.4 387.1 374.4 367.1 366.4 359.4 355.2 354.3 352.3 352.2 348.7 350.7 356.3 363.3 367.3 378.3 393.6 414.4 433.6 458.3 481 499.4 525.2 543 551.1 559.4 553.9 532 523 522.3 513.4 527.6 536.7 543.6 545.2 527.7 519.4 506.1 506.4 506.2 502.2 503.2 501.5 503 524.9 540.4 543.4 539.6 549.2 571.3 600.3 632.5 654.9 675 695.1 719 739.6 745 707.7 649.1 580 566.3 504 433.3
-1.2 -1.2 -1.2 -1.2 -1.2 -1.2 -1.2 -1.2 -1.2 -1.2 -1.2 2.1 3 3.8 5.9 7.5 12.5 18.8 26.9 34.3 40.7 49.1 54.4 59.9 69.8 79 88.6 106.7 117.9 122 136.7 158.4 171.7 190.4 220.9 250.4 271 292.8 316.1 341.4 360.1 381 403.9 419.5 427.9 444.8 451.3 450.9 446.2 421 427.1 441.9 469.2 491.4 504.4 514.9 536.2 535.9 531.9 545.8 560 572.9 589.4 600.2 609.4 624.4 644.2 666.3 679.1 696.2 715.3 724.3 737.7 748.8 766.6 785.9 801.6 819.3 821.2 833.2 825.1 820.3 831.2 846.2 841.6 832.5 842.5 855.5 846.2 821.9 792 780.5 759.5 748.2 722.2 700.7 679.7 654.3 630.8 610.2 588.2 572.5 552.7 535.3 520.6 506.8 491.8 476.6 461.2 449.5 438 433.6 425.8 415.3 406.2 395.4 391.1 390.2 389.2 390.1 390 390.1 393.2 397 402.8 407.2 414.3 420.7 424.9 431.1 432.3 431.9 429 431.4 425.5 415.4 401.3 387.9 374.1 367.9 362.2 360 358.2 356.9 355.9 357.2 352.2 352.9 361.5 368.7 377.2 388.3 403.4 425.6 448.5 478.5 512.7 534.7 563.2 574.2 573.8 578.1 567.6 541.4 531.8 524.2 524.7 527.3 539.1 549.6 547 535.6 531 521.5 508.4 519.5 516.2 512.6 520.1 519.6 535.4 553.6 561.5 561.9 552.3 574.6 596.3 630.9 655 683.5 707.6 731.1 747.7 734.7 684 623.6 569.2 523.3 490.3 422.5
-1.2 -1.2 -1.2 -1.2 -1.2 -1.2 -1.2 -1.2 -1.2 -1.2 -1.2 -0.6 2.4 5 6.7 9.9 13.3 17 24.6 34.1 38 45 51.1 61.2 73.8 81.1 93.4 109.3 117.8 137.8 149.7 170.1 187.7 214.5 240.6 265.8 281.3 303.3 325.1 348.3 363.8 377.9 392 396.1 405.6 422.3 424.8 420.3 401.6 403.5 417.7 435.8 458.2 478.1 485.3 501.5 506 510.1 518.4 526.9 545.5 561.7 575.8 593.2 607.6 623.9 641.5 666 684.6 700 722.1 736.6 740 753.6 774.6 787.2 806.5 819.7 827.4 835.3 842.3 839.5 841.3 850.5 845.4 853.3 849.4 850.3 831.1 799.3 776.7 754.1 743.1 720.1 693 677.9 657.6 630.1 612.7 592.2 571.4 558.2 540.7 518.5 505.8 491 476.5 464.3 446.9 440.6 430.6 422.4 418.1 409.8 402.1 394.4 387.1 380.4 382.2 380.8 388 388.7 392.3 396.1 403.8 414 420.8 429.3 437 440.4 442 443.2 435 434.2 428.5 417.2 401.8 387.4 374.7 368.6 363.4 361.6 359.3 359.4 355.6 356.6 356.4 354.1 359.3 372.5 382.1 396.3 411.4 434.5 460.1 496.2 533.8 570.1 580.3 590.9 593.2 588.9 578.3 556.8 536.8 535.3 527.6 531.9 540.4 550.5 544.8 549.6 543.4 538.1 530.2 527.6 529.2 523.8 536.1 538.2 543.2 561.6 573.9 576.7 571.7 578.1 598.3 630.2 662 689.7 713.3 738.1 755.6 721.9 661.7 604.4 548.5 477.7 473.8 426.1
-1.2 -1.2 -1.2 -1.2 -1.2 -1.2 -1.2 -1.2 -1.2 -1.2 -1.2 1 4.4 5.6 9.3 11.1 13.2 19.7 27.4 34 39.6 44.3 52.2 62.1 69.9 83 98.1 110 127.1 142.3 157.6 179.3 201.5 223.7 252.3 272.5 289.9 315 327.7 345 351.9 352.7 366.8 370.8 381.3 398 396.5 379.5 368.4 383.4 393.4 408.9 428.3 438.8 443.1 450.1 457.6 486 497.2 508.7 531.9 547.9 562.5 577.5 605.9 626.4 631.3 654.2 674.1 696.2 717.1 733 739.5 755.7 764.7 785.1 795.1 806.2 810 815 817.9 826.5 829.3 832.9 836 850.3 845.9 827.3 801.1 785.3 763 744.6 720.1 697 674.4 659.6 636.9 611.2 593.2 576.7 557.6 540.9 527.1 507.1 488.3 475.6 461.6 451.7 444.5 431.3 422.2 413.6 409.9 401.3 396.9 386.3 381.3 378.7 375.8 377.1 379.8 385 394.6 398.1 407.6 415.8 424.6 435.8 443 447.9 448.2 450 444.1 435.3 431.5 419.2 403.3 387.2 374.6 367.2 363.9 360.4 359.5 358 357.8 360.6 359.7 359.3 367 375.8 388.2 402.1 419.6 442.3 472.1 510.4 552.5 588.3 595.9 604.3 606.9 596.4 586.6 571.8 552.3 540.1 538.3 535.6 538.3 548.4 561.2 566.7 552.7 559.2 549 544 544.7 544.6 546.1 563 553.3 570.2 582.9 588.7 588.5 587.9 604.1 630.9 664.7 695.9 723.7 749.2 757 700.7 643.1 588.3 533.6 479 432.6 410.9
-1.2 -1.2 -1.2 -1.2 -1.2 -1.2 -1.2 -1.2 -1.2 -1.2 -1.2 0.3 4.2 7.4 12.7 17.7 17.5 24.2 30 36.1 42.5 50.6 60.9 69 79.5 92 99.8 115.9 131.8 147.9 166.2 192.2 210.6 232.8 257.4 277.9 291.5 312.4 313.1 315.1 323.1 328 339.3 345 356.5 365.1 354.8 343 353.1 359.5 369.3 378 388.8 396.8 403.9 416.6 432.5 449.9 464.1 484.4 503.7 529 547.2 566.7 589.3 603.1 619.5 650.8 673.3 687.6 709.6 716.8 733.4 744.6 757.9 773 782.4 787.4 789.2 787.2 796.5 801.4 806 803 808.5 826.8 817.9 805.4 789.1 769.7 745.7 724.2 694.8 666.1 651.1 635.9 614.9 598.1 581.5 561.9 542.9 527 509.6 496.8 477.1 464.6 450.8 440.4 431.1 422.9 416.3 406.3 402.4 395.2 389.1 380.9 377.7 372.2 371.2 371.2 377.5 386.5 391.8 403.6 409.6 415.5 427.6 436.5 451 455.5 455.6 454.6 449.4 439.5 435.1 419.8 403.1 385.2 373.2 367.7 363.8 360.5 362 359.7 363.3 364.3 364 365.4 369.3 377.4 388 403.8 424.1 449.3 478.5 518.3 565.8 601.9 616.7 616.8 618.3 606.9 590.5 576.2 573.9 552.9 548.1 539.1 539.7 544.1 571.2 579.7 578.5 573.6 576.8 571.3 562.8 560.1 560.2 576 573.5 574.1 591 598.2 600.2 598.6 618.9 631.7 666.7 702.4 733.4 757.2 753.5 689.4 627.4 570.9 512 460.7 378.9 382.1
-1.2 -1.2 -1.2 -1.2 -1.2 -1.2 -1.2 -1.2 -1.2 -1.2 -1.2 -1.2 4.2 9.6 15.7 21.6 22.9 24.1 29.9 33.8 44.2 53.3 65.5 74.8 85.8 92.3 103.1 116.9 134.5 152.6 175.7 199.7 219.7 238 255.6 270.8 284.5 289.5 288.5 291 297.7 305.9 314.3 318.7 326.5 326 315.2 314.2 337.7 341.2 346.9 356 362.8 366.4 375.6 392.6 409.4 422.7 434.8 457.6 484.7 506.7 524.4 542.2 556.8 572.2 594.2 622.1 644.8 662 681.2 695.2 711.2 724.8 737 752.3 764.5 763.6 770.4 762.7 769.2 774.9 780.3 784.6 791.4 800.2 793.2 784.4 771.8 760.2 731.7 707.3 678.1 652.3 631.4 619.4 602.9 582.1 564.7 546 528.8 514.9 501.4 484.3 468.1 455.2 444 430.1 421.1 412.1 406.8 397.7 392.8 387.1 381.7 378.3 370.2 365.2 367.4 367.7 375.5 383.3 392.4 401.8 408.9 416 423 434.3 455.5 464.8 465 459.2 454.7 448 434.7 422.7 404.7 386.3 373.4 369 362.6 361.7 359.9 358.6 363.5 366.4 368.7 370.5 372.3 382.8 394.7 410.4 429.7 455.6 484.4 528.4 577.8 616.3 630.7 633 626.7 613.8 595.9 583.9 581.4 566.3 554 545.7 543.8 547.9 566.5 588.3 591.1 592.2 594.2 596.6 590.7 584.6 577.1 596.2 590.1 585.7 603.3 609.4 609.3 616.8 629.1 644 667.5 706.7 739 762 740.9 678 613.8 556.1 498.9 440.7 381.2 349.8
-1.2 -1.2 -1.2 -1.2 -1.2 -1.2 -1.2 -1.2 -1.2 -1.2 -1.2 4.5 8.4 14.1 22.2 27.1 30.4 36.4 38.8 49.1 57.6 65.4 65.8 79.1 86.6 98.4 107.9 122.4 142.4 164.3 184.3 210.4 226.3 240 250.6 252.5 253.5 264.4 268.3 271.3 275.1 279 283.4 292.7 299.7 293.9 291.3 304.3 315.8 321.2 326 333.1 338 342.5 358.6 373.6 394.1 399.5 417.7 441.5 467.1 484.1 497.7 516.8 535.9 552 569 594.3 619.3 637 654.3 669.6 687.5 704.7 720.1 729.1 737.3 742.8 751.6 746.2 748.1 754.8 756.9 755.5 766.4 780.1 780.1 759.2 752 742.8 727.4 701.3 670.3 638.7 621.8 609.7 587.2 567.1 551.1 532.7 514.7 499 485.6 471.1 458.6 449 438.8 426.1 415.7 406 396.7 389.7 378.1 375.7 370.5 368.2 361.8 358.8 359.4 364.6 373.5 381.1 390.1 394.7 406.4 415.6 421 434.3 456.6 471.4 475.6 467.6 458 451.8 438.6 421.6 405.3 385.8 375.1 365.3 361.2 360.5 359.9 361.6 365.6 368.8 375 379 379.1 389.5 396.7 417.1 439.6 462.2 490.3 533 585.8 627.7 643 645.4 635 619.6 602.3 586.6 585.7 568.2 556.4 557.7 552.4 555.2 563.8 592.8 602.3 605.8 607.4 613.1 617.2 606.9 593 602.4 608.8 606.1 618 620.8 617.2 626.1 634.6 658.2 676.6 705.1 735.6 756.2 717.4 645.7 583.9 516.5 464.7 408.3 363.2 319.7
-1.2 -1.2 -1.2 -1.2 -1.2 -1.2 -1.2 -1.2 -1.2 -1.2 -1.2 7.4 12.4 20.6 27.4 31.1 37.7 46.2 52.5 62.6 69.4 75.4 79.4 80.3 90.9 97.4 115 132.5 152.7 169.9 194.2 211.7 225.2 224 225.1 232.2 236.5 242.5 241.7 248 264.5 268.9 276.9 279.5 279.1 273 276.1 290.5 301.9 310.8 315.4 318.4 321.4 329.4 340.1 356.4 369.5 387.8 403.5 418.3 439.4 448.8 471.8 488.2 504.4 524.4 544.1 566.5 587.3 608.5 624.7 647.6 668.9 687.1 700.9 705.5 711.4 719.7 722.3 730.5 728.4 731.9 736.5 743.9 757 765.4 766.6 751.9 730.1 724 708.9 694.3 657.3 630.3 617.5 589.4 574.8 553.7 534.8 517.7 501.4 486 472.6 459.6 443.8 434.2 427.5 415.4 408.8 396.8 385 377.3 374.4 368.1 361 358.3 356.3 354.1 358.4 363.9 371.4 374.7 385.6 388.6 398.6 412.3 424.2 439.8 456.9 471.3 480.4 479.1 469.9 455.1 440.9 421.9 405.9 386.7 370.2 364.3 361 359.8 362 362.4 365.7 369.6 374.3 375.5 382.9 393.8 405.4 426.4 445.5 472.6 502.8 538.1 593 639.6 652.3 655.5 644.2 625.2 601.8 592 584.2 569 565.4 565.8 566.7 578.6 577.2 586.4 608.4 617.4 620.5 623.5 630.4 627 618.2 606.6 621.2 620.5 626.9 634.9 632.4 639.7 650.4 665.5 695.9 686 716.7 722.9 700.4 623.5 550.6 479.4 422 374 336.9 299.1
-1.2 -1.2 -1.2 -1.2 -1.2 -1.2 -1.2 -1.2 -1.2 -1.2 4.9 10.5 18.2 25.5 31.2 37.3 46.2 55.7 64.8 73.2 78.5 83.8 92.3 98.6 110.5 109.7 122.1 143.3 156 167.1 193.4 191.3 197.6 203.9 212.8 212.8 215.2 217.3 223.3 234.3 245.6 253 256.9 261.3 259.6 259.2 263.5 274 283.3 304.4 300.4 307.8 311.1 319.4 327 340.2 352 370.2 382.3 393.9 406.4 423.6 437.3 455.5 475.1 500.6 517.9 537.7 561.2 585.8 604.5 616.5 643 662.7 674.8 689.8 699.8 702.2 697.5 702.2 709.4 712.1 714.5 714.1 726.9 743.3 749.8 737.4 727 706.3 685.8 666.4 638.4 619.5 599.4 572.1 552.1 535.7 518 503.3 489.7 474.6 459.6 445.4 433.1 423.2 413.6 402.6 394.7 382.7 375.2 368.5 363.2 362.9 356.5 354 350.2 354 356.2 362.3 370.6 374.2 380.5 390.8 396.9 409.1 422.4 439.6 454 470.3 480.4 485.6 479.1 461.3 442.6 421.8 402.6 384.4 370.7 364.5 360.9 360.8 363.7 362.8 363.8 371.5 377 375.7 384.6 397.3 411.4 432.9 455.1 479.9 514.6 547.3 608.1 646.5 659.4 663.6 649 629.2 605.6 591.9 589.2 578.6 570.9 571.7 578.8 595.6 605.4 594 613.5 626.1 628.4 637.2 646 649.1 640.7 625.3 626.3 633 636.2 641.9 646.5 658.1 674.4 684.3 707.8 650.5 661.3 673.4 664 604 524.2 458.5 401.8 348.2 314.4 288.4
-1.2 -1.2 -1.2 -1.2 -1.2 -1.2 -1.2 -1.2 -1.2 3.3 7.8 15.8 23.1 28.8 41.8 48 58.6 67.3 75.8 82.8 91 98.9 103 113 122 126.1 119.5 135.8 142.2 149.8 171.4 180.5 187.9 192.8 197.5 200.8 204.2 210.8 221.7 229.4 240.6 245.8 247.9 250.3 246.7 244.4 256 264.5 271.9 280.7 290.5 294.1 300.8 310.7 319.1 327.4 338.6 353.1 367.8 378 385.4 404.2 416.9 439.7 458.8 491.4 521 541.2 552 564.6 590.6 606.1 624.8 641.7 654.6 669 671.5 670.2 676.4 676.4 686.5 687.2 683.1 680.8 696.9 710.6 724.4 720.4 715.6 696.6 669 642.6 620.8 604.9 582 553.6 539.6 519.8 501 491.2 476.3 464.5 449.9 436.4 426.3 416.9 405 392.6 380.6 373.7 362 354 351.9 349.5 346.4 349.4 347.7 350.1 353.1 361 369 371.9 374.8 383.5 390.3 404.1 422.5 439.7 456.1 470.7 482.8 490.9 491.1 466.6 441.1 421.5 401.2 386 374.6 368.5 361.5 364.1 362.2 366.6 376.2 375.5 373.3 377.2 386.2 398.2 418.2 441.7 464.3 488.1 521.5 559.3 606.9 650.1 663.2 667.4 653.6 632.2 608 597 596.6 597.2 583.8 583.4 593.2 608.5 622.3 622.8 613.6 635.6 646.7 650.9 658.8 661.5 662.7 646.4 637.9 644.2 648.5 648.8 655.1 670.8 686.6 702.4 711 662.3 590.1 622.3 620.2 588.3 512.2 446.8 394 330.6 290.8 270.6
-1.2 -1.2 -1.2 -1.2 -1.2 -1.2 -1.2 -1.2 -1.2 6.6 11.6 21.6 33.5 40.8 50.2 60.9 71.9 80.7 89.2 95.9 108.1 113.1 119.4 127.2 132.4 138.6 136.3 138.9 147.4 157.9 161.3 166.2 176.2 187.2 189.5 194.7 200.7 209.8 219.4 225.5 234.5 236.1 237.9 241.1 238 239.6 247.5 252.2 260.5 266.4 273.8 278.7 284.9 298.9 309.4 317.8 325.9 336.1 350.5 364.3 376.6 388 400.3 416.5 436.8 470.1 492.7 509.6 525.3 545.3 569.1 577.6 596.6 612.3 628.8 634.4 641.4 647.6 646.4 649.7 662 658.2 653.2 649.6 653.9 674.1 693.6 700.2 696.5 685.5 665.1 632.3 608.5 579.3 557.3 538.1 522.9 504.4 492.7 476.3 467.5 453.7 437.3 424.1 417 407.8 398.2 386.8 375.1 363.5 355.9 352.8 345.9 342.6 336.7 339.3 343.3 342.9 348.3 358.5 365.6 369.3 370.8 379.2 387.8 401.1 414.8 434.7 454.2 471.8 487.9 498.1 498.3 474.3 450.1 422.4 401.7 386.1 373.2 364.1 362.7 361 364 369.2 369.2 373.1 377.5 384 392.7 404.4 426.2 446.8 471.5 494.4 529.7 566.7 617.7 656.9 669.1 672.4 658.7 643.7 619.1 612.7 600.8 606.3 601.5 597.4 611.8 614.4 639.8 644.7 633.7 642.2 661.6 665.6 671.2 676.3 676.7 665.8 649.8 650.8 655.1 661.6 667.3 680.1 697.7 714.8 708.2 661.5 579.5 561.8 564.5 547.4 502 430.3 359.4 298.4 268.6 247.1
-1.2 -1.2 -1.2 -1.2 -1.2 -1.2 -1.2 -1.2 5.1 10 23.3 34.6 41.4 51.5 66.3 75.6 87 97.4 105.8 114.6 121.6 128.3 135 139.6 143.4 147.9 151.6 155.7 161.1 168.4 175.4 180.1 185.4 195.9 199.3 198.4 201.5 209.5 218.4 224.3 231.2 231.5 229.8 228.8 229.8 233.4 240.1 247.3 251.7 255.8 266.9 272.1 281.7 289.2 298.8 305.2 314.9 323 334.7 350.2 362.1 376.3 385.9 401.7 420.3 446.2 466.4 483.3 504.2 516.6 540.4 548.7 552.3 576.4 602.5 609 612.1 625.7 625.2 625.2 630.8 633 634.2 620.6 628.6 643.2 665.8 685.2 676 666.4 650.4 630.8 595.6 571.8 542 521.3 508.5 491.8 481.1 468 452.6 443.4 434 417.4 408.5 398.9 390.1 384.2 374.9 361.8 355.7 349.5 341.6 333.5 329.3 328.5 335.5 339.5 344 354.6 363.9 365 366.2 377.3 386 399.6 415.8 438.8 462.5 479.9 495.4 506 509.5 483.6 451.4 426.5 403.3 386.7 374.9 366 369.9 360.5 363.7 367.1 370.9 372.6 379.7 389 397.5 410 430.5 453 475.7 502.1 532.8 569.3 616.9 662 673.9 677.6 664.6 649.4 639.6 635.4 614.4 612.6 620.2 626.8 627.1 641 655.3 663.3 662.1 652.1 672 679.2 680.3 685.3 688.4 686.4 669.3 667.1 664.5 672.2 684.2 697.5 708.9 714.7 682.2 645.3 579.1 511.6 515.6 499.1 477.5 397.3 333 278.8 252.7 225.1
-1.2 -1.2 -1.2 -1.2 -1.2 -1.2 -1.2 6.6 13.6 23.7 33.3 44.7 53.6 69.8 80.3 88.4 103.2 113.6 123 127 132 140.1 147.2 151.1 153.3 157.1 162.3 168 171.9 178 184.8 190.6 197.7 203.4 204.9 207.6 207.7 207.7 207.8 222.5 220.7 225.8 225.3 229 229.9 232.8 235.8 243.7 251.5 258 265.2 270.5 276.3 284 294.5 302.1 308.4 317.9 329.3 338.1 348.8 358.9 375.5 390.3 407.3 430.2 440.6 463.8 485.7 493.4 507.3 516.7 518.7 535.3 574.5 584.5 583.7 601.6 599.1 596.2 600.2 607.4 603.4 594.8 610.7 619.5 644.2 650.8 649.9 633.9 636 624.7 595.5 558.8 534.5 513.2 499.2 486.5 475.6 459.8 448.2 436.9 423.5 411.5 401.7 393.9 385.8 376.5 368.1 361 351.1 343.2 333.9 329 323.7 321.8 327.1 332.8 341.3 351.8 357.7 359.9 367.1 379.3 393.3 403 417.7 441.8 465.4 487.4 497.7 511.4 513 495.2 463.1 431.2 403.6 384.5 373.7 361.9 359.4 359.3 363 367.5 369.6 374.2 381.3 388.5 400.2 413.5 432.3 455.3 482 508.3 537.7 573.1 614.6 665.2 679.5 680.4 668.5 657.3 650.8 649.4 638.9 626.3 634.2 650.1 648.9 656.8 666.4 677.8 686.9 678 682.5 691.3 688.2 693.9 697.9 698.5 693.6 685.4 679.3 684.9 697.6 708.6 718.1 712.1 663.6 618 577.2 506.6 462 449.7 438.7 380.2 304.7 265.5 236.5 212.3
-1.2 -1.2 -1.2 -1.2 5.3 8.4 14.5 22.9 31 39.5 50.1 59 70.3 82.6 91.6 104.7 117.5 124.4 131.1 137 144.5 152.2 156.6 162 166.4 170.6 177.9 184.3 190.2 194.6 199.6 204.6 210.5 216 217.7 222.5 225.3 227.7 226.7 231.3 229.8 228.4 227.2 227.2 231.2 235.1 241 246.3 250.5 257.3 263.3 268.9 272.4 276.1 287.3 297 303.5 311.5 320.3 331.5 345.8 361.7 375 380.5 389.9 406.3 422 440.6 462.1 469.9 483.6 485.9 496.2 509.9 551.1 563.7 557.8 571.3 575.9 576 564 569.2 574.7 578.3 572.8 595.2 614.9 625.2 612.9 622 616.5 599.2 584.5 553.4 529.3 506.5 492.8 479 465 450.8 442.9 430.6 419.8 408.1 400.6 386.2 379.2 373 359.4 350.9 343.7 334.5 328 320.9 317.2 317.8 322.3 329.5 336.6 348.6 353 358 366.7 381.3 397.9 408.7 426.5 449.6 474.5 493.6 509.6 520.5 519.1 498.7 469.1 433.4 405.2 379.9 369.6 363.7 358 363.5 365.8 367.4 371.6 377.6 383.2 392.4 401.4 416.6 434.8 460 485.2 514.5 543.1 576.5 614.5 663.7 679.4 683.9 678.8 666.6 661.9 661.6 657.9 634.7 647.2 663 673.2 674.6 688.2 696.8 705.8 709.9 708.5 702.3 707.7 708 707.7 708.4 708.4 700.8 695.8 700.3 711 719.8 723.6 701.1 656.3 594.1 566 507.1 436.5 414.7 393.2 352.3 293.1 252.2 226.7 197.6
4.8 8.5 9.8 13.3 18.2 24.7 32.1 41.3 51.4 58.7 67.5 76.4 89.9 98.4 107.6 119.5 130.7 136.5 144.5 152.5 160.8 169.1 172.9 179.3 184.2 191.6 200.4 207.3 211.1 217.3 222.6 224.8 227.3 233.1 239.5 247.2 248.1 246.1 246.4 245.4 241.2 236.6 232 233.7 236.9 244.2 247.6 252.8 255.5 259.3 263.4 266.9 268.2 276.1 283.1 288.1 297.4 305.4 313.7 325.1 336.5 351.3 366.2 376 382.7 394.8 401.9 417.3 436.8 443.1 452.1 468.3 478.7 486.6 504.8 520.9 521.4 523.3 540.5 539.1 535.9 538.9 554 556.3 551.7 562.1 587.2 598.2 599.6 606.2 600.9 583.8 574.6 552.2 524.4 503.1 482.9 472.9 457.2 447.7 437.2 424 419.2 404 395.8 386.7 377.6 365.9 355 345.8 337.9 330.4 324.7 317 314.5 316.9 319.7 327.1 333.2 338.1 348.2 359.8 371.2 387.6 401.2 419.9 438.1 456.1 481.6 505.5 520.3 528.8 520.7 491.3 462.6 429.7 405.6 385.4 368.4 364.6 356.6 364.3 366 366.7 372.5 379 386.8 390.3 404.1 418 440.2 465.3 487.5 513.7 545 575 611.7 661.1 680.2 684.9 687.5 678.5 673.7 674.1 670.4 649.9 656 676.6 686.6 699.5 705 714.4 720.5 727 726.5 725.5 725.7 726.5 725.8 722.9 722.6 721.2 718.5 718.6 723.4 728.9 719.6 685.3 631.5 581.5 513.5 501.7 439.1 378.5 352.3 306.5 269.2 239.3 212.3 183.5
11.9 16.5 23.5 30.1 34.8 40.9 49.7 58.9 69.6 79.9 88.2 96.1 105.9 116 125.5 138.5 147.7 153.8 158.8 169.8 177.9 185.2 188 193.2 203.9 210.9 227.5 230.3 238 243.2 242.5 245 250.9 258.8 275.2 281.6 278.3 276.3 274.8 265.8 255.9 249.4 246.3 241.2 247.2 251.5 254.7 257.7 263.3 263.9 269.6 274.4 275.7 277.4 278.8 285.7 292.7 301.2 311.2 322.7 330.8 342.7 353.1 363.3 374 386 399.1 408.7 415.5 426 432.5 442.7 452.9 465 479.6 491.4 497.6 504.6 512.6 511.6 513.7 519.9 533 538.2 535 552.1 563.5 572.6 582.6 596.7 592.3 572.3 558.7 539.9 522.6 500.5 481.4 466.4 451.4 443.8 430.4 423.8 417.6 406.2 392.4 382.8 376.4 357.2 348.3 343.3 332.8 327.7 318.1 314.9 312.4 314.3 318.8 323.8 327.8 334.1 347.1 362.4 377.5 388.5 406.3 428.5 447.9 466.6 488.8 519.5 534.7 538 525.5 488.9 456 427.5 402.8 386.2 369 356 356 364.7 365.6 368.4 369.5 376.1 387.1 393.9 406.6 420.1 444 466.6 492.5 518.8 551.5 579.8 616.8 654.2 679.8 685.4 693.9 684.1 683.4 683.8 682.1 679.7 675.9 693.8 709.4 720.3 728.5 736.9 742.1 745 745.2 745.5 740.8 741.2 742.4 741.5 743.7 741.6 733.4 701.6 724.2 721 696.4 656.9 611.6 537 510.2 467.5 433.1 362.6 330.1 290.3 257.7 229.1 201.5 173.7
21.4 27.8 38 47.4 51.8 58.1 68.3 77.8 88.6 97.7 105 111.6 124.1 134.2 143.7 155.8 165.2 171 181.6 191.6 197.9 203.4 205.1 212.1 225.3 237.2 249.7 254.9 262.1 257.8 261.6 269.4 279.1 282.2 298.7 304.6 305.3 302.2 296 281.4 270.5 264 258.6 256.9 263.9 267.1 264.9 268.1 270.7 272.8 276.6 281 282.5 284.6 287.6 288.1 290.9 300.4 312.2 318.8 330.1 339.2 346.4 354.5 363.8 376.3 386.5 396.2 407.3 419.6 428 433.7 449.7 460.6 468.8 474.7 476.9 480.2 488.5 488.5 496.6 501 513.2 518 524 532.7 543.6 551.4 567.9 585.9 576.4 560.4 542.8 531.1 518.1 493.4 475.9 458.2 448.4 439.6 428.8 422.6 408 402.5 393.3 381.2 373.3 353.5 347.5 338.3 328.7 323.1 316 312.3 309.1 312.9 315.8 323.2 326.5 334.3 349.2 362 379 394.1 411.8 433.2 458.6 477.7 503.9 531.5 541.4 544.9 521.6 483.1 454.1 421.3 400.8 382.9 370.4 356.8 356 363.5 367.1 366.1 365.2 368.4 386.9 391.3 404.9 421.5 446.5 469.3 494.2 522.1 558.2 587 625 657.5 680.9 691.9 703 699.9 696.5 701.2 691.9 702.7 705.4 720.8 740.1 753.5 762.8 768.8 772.4 770.1 769 767.4 762.6 755.6 760 759.7 756.8 751.7 739.9 696.7 670 679.7 681 638.1 578.4 528.6 486 445.5 407.6 361.5 314.4 282.6 249.3 220.7 188.6 163.5
36.4 45.5 55.4 64 69.5 74.8 87.5 94 107 114 119.2 131.9 141.8 152.9 163.7 172.6 182.8 188.4 201.8 217.1 215.2 219.2 221.5 228 237.9 252.6 261.3 268 271.1 271.4 281.2 293 295.2 307.1 318.1 330.7 330.6 328.7 318.1 302.9 288.2 279.4 271.3 275.4 281.4 286.2 283.9 282.2 283.7 291.1 291.2 293 294.2 299.8 306.8 301 300.7 300.8 309.8 319 330.6 339.2 346.6 351.2 358.8 367 377.6 387.8 396.8 409.9 417.3 433.6 453.1 468.1 467.5 467 464.4 464.9 467.6 474.5 486 495.8 499.3 504.9 511.7 520.2 537.3 554.3 561.9 567.2 566.5 551.6 535.1 524.9 508.5 487.7 469.7 454.5 447.9 434.8 426.8 417 405.7 400.5 392.9 382.3 368.4 355.1 344.4 333.6 323.1 319.9 314.5 309.5 308.7 310.2 312.8 321.3 327.7 338.3 351.9 364.6 379.8 396.9 417.9 440.1 463.3 496.2 523.2 540.4 553.9 554.1 521 484.2 447.8 421.3 398.7 378.6 370.3 359.8 356 356 361.8 362.3 364.4 369.7 378.8 394.4 406.9 426.4 448 472.2 499.4 527.9 558.7 592.8 628.1 674.8 686.6 704.5 712.5 712.1 709.6 715.5 718.4 735.6 739.5 750.3 768.3 781.7 792.7 797.1 795.9 794.2 795.4 793.7 787.8 781.5 772.3 764.4 758.4 748.2 733.2 678.7 620.5 619.5 629.6 616.6 568.9 497.5 462.4 425.1 377.5 341.5 305 270.6 240.3 209.2 181.7 153.7
55.8 64.5 74.2 80.7 88 92.7 102 114.4 123.9 132.6 140.3 151.2 161.6 173.8 183.1 190.6 199.7 210.1 221.4 235.1 232.1 236.5 235.2 241.6 252.2 259.7 268.3 278.4 283.4 291.1 295.9 306.4 315.2 321.2 336.3 348.8 352.6 344.8 332.2 320.3 308 299.2 289.7 292.1 297.6 304.5 306.5 304.8 305.2 304.4 307.5 305.8 308.3 316.7 319.4 312 307.2 310.1 307.5 321.2 336.5 342.7 344.4 346.9 356.4 365.1 378.4 384.7 391.7 406.3 412.3 430.1 449.1 458.7 460.5 460.1 457.6 462.5 468.2 469.7 481.3 492.5 495.3 503.6 506.3 515 530.5 558.5 566.5 553.1 550.2 543.4 525.3 525.9 504.1 489.9 471.5 452.5 442.4 434.6 425 420.2 404.9 397.5 394.6 384 368.3 354.4 341.2 333.5 321.3 316.4 311.9 308.2 305.1 306.9 312 319 326.8 339.8 352.6 367.9 385 400.2 425.3 453.2 473.4 510.1 529.2 550.5 561.5 559.6 526.4 479.9 447 419.7 398.9 377.6 369 362 356 356 359.6 360.3 363.1 365.6 378.7 392.8 407.3 427.2 448.6 473.4 502.3 532.1 564.3 604.2 639 683.8 697.2 705.9 720.6 723.7 718.2 726.4 737.9 756.1 763.9 773.7 791 803.5 809.9 815.7 814.9 815.8 807.5 805.4 802.5 792.3 779.9 765 752.3 735.9 711.5 652.6 600.8 566.8 576.4 574.1 550.9 513.7 454.1 399.8 355.7 325.8 292.5 261 229.6 199.9 170.3 143.9
76.8 84.3 92.1 100 105.5 111.5 119.3 134.9 142.6 151.4 165.4 172.7 183.3 193.6 202.3 207.5 217.6 230.4 238.1 248.2 254.8 258.5 255 256.4 261.5 273.4 283.5 293.1 303.5 313.9 313.9 324.5 335.2 341.5 350.8 366.8 362.6 358.1 353.1 335.1 325.4 314.8 307 311.3 316.6 319.9 319.6 322.8 326.2 331 333.4 328.6 330.9 325.1 326.1 322.8 315.6 317.6 322.8 319.6 323.2 332.5 337.6 341 348.9 357.3 372.1 382 389.1 399 410 425.8 435.7 447.6 448.1 454.7 455.7 462.6 474 486.8 501.1 505.7 504 500.1 505.1 522.4 532.1 548.8 561.7 550.4 542.1 530.2 519.5 517.4 506.9 483.9 470.5 453.4 447.8 433.7 425.9 412.9 405.8 396.7 393.2 393.3 369.5 354.9 341 328.1 319.5 313.3 308 304.6 302.7 305.3 309.2 318 328.5 339.3 352.8 369.4 389.4 406.8 433.3 465.4 494.3 520.2 541.5 554.4 565.2 559.9 531.7 486.9 443.5 418.3 393.4 375.5 369.5 365.3 356.5 356 356.4 361.5 363.8 366.2 381.1 393.1 407.1 427.6 449.6 475.2 502.5 535.9 572.6 617 652.9 682.6 704.9 720.6 725.2 729.9 726.5 731.4 754.2 768.4 782.2 787.9 802.6 814.3 819.1 825 827.4 830 818.2 812.1 804.1 797.9 779.9 737.1 733.8 711.6 684.6 630.5 575.3 541.7 518.2 525.9 505.4 483.9 451 399.7 341.3 303.7 274.7 246.5 219.3 189.2 160.9 133.2
98.5 102.3 109.3 116.9 122.6 131.4 142.1 154.1 161 170.9 183.3 187.1 202.3 213.3 222.7 228.8 233.7 246.9 255.6 267.2 274.3 274.5 269.4 271.7 279.5 292.6 307 319.3 330.6 342.6 336.4 352.7 366.4 373 375.5 381.7 379.4 372.2 365.6 353.4 342.8 332.8 326.3 327.4 329.8 331.7 336.7 347.5 356.2 372.6 370.3 361.7 353.2 348.9 344.7 337.8 334.6 332.5 331.1 334.9 335.9 338.9 339.1 344.1 350.9 358.5 374.7 385.5 396.1 403.4 417.2 432.3 447.9 447.4 448.6 452 458.1 466.2 483.2 499.9 522.1 547.8 540.7 534.6 534.9 536.2 552.9 564.2 577 556 545.1 526 514.2 509.2 503.7 487.5 467.5 452.7 444.5 435.4 427.2 414.2 406.2 398 392.3 387.4 372.2 348 333.8 326.4 314.8 307.8 305.3 305.9 301.5 304.6 307.5 316.1 329.3 339.9 355.5 374 394 417.3 446.3 482.1 514.5 536.5 554.1 559.5 564.5 547.5 518.7 480.8 442.9 418.1 392.7 372.9 361.8 356.6 356 356 356 362.3 365.8 367.8 379.7 395 408.1 427.7 452 477.4 506.6 539.1 582 626.6 664.2 700.9 712.9 725.5 737.9 733 733 747.2 765.6 777.9 789.5 790.6 798.3 818.4 825.8 829.3 836 835.5 829 815.8 806.2 795.6 781.4 741.9 676.8 682.8 660.3 610.8 572.9 530 491.1 478 469.5 446.1 399.9 368.9 333.3 291.6 259.8 230.3 202.8 176.4 149.1 122.1
121 123.6 127.2 135 140.6 152.8 164.7 171.1 179.9 190.7 203.7 206.2 221 233 241.2 250.4 253.6 268.4 278.2 284.4 286.6 287.1 287.8 290.7 301.9 317.5 329.5 350.1 359.2 359.6 359.2 374.4 398.9 407.1 413.7 400.6 393.6 388.2 377 363.2 357.1 363.6 345.6 339.8 344.2 347.2 353.1 366.2 385.8 408 404.5 394.8 384.1 403.3 388.7 362.5 358.8 355.1 352.7 351.5 351.7 351.3 352.3 358.7 361.6 368.7 380 388.7 398.1 410.5 426.8 440.7 456.5 456.1 459.3 457.1 461.8 470.9 494.4 520.1 552.2 587.6 574.5 581.4 561.8 563.3 575.3 575.8 577.5 559.7 552.6 536.8 515.4 499.8 492.7 479.5 464.8 451.4 441.9 436.6 426.4 419.6 409.6 402.4 395.4 380.4 358.8 345.2 332.8 320.5 310.3 305.3 299.4 299.7 301.5 306 307.8 315.5 329.6 342.1 358.8 375.2 400 430.1 464 496.8 527.6 549.8 562.3 565.5 563.7 533.7 497.4 471.4 437.9 412 390 373.3 360.3 356 356 357.3 356 360.2 365 365.4 379.2 392.5 410.7 430.4 455.6 481.6 507.9 543.7 582.9 625.6 679 706.6 725.1 728.8 739.3 741.3 741.3 753.3 766.2 774.1 781.9 778.8 792.5 810.2 823.7 831.9 834.6 833.8 827.9 820.1 806.1 789.6 776.3 739 683.1 621.5 612.4 615.6 588 540.7 495.8 446.1 441.2 416.7 379.6 344 314.8 279.9 247.9 217.2 189 160.6 135.7 113
141.1 147.6 149.5 155.1 163.5 174.6 187.5 193 199.6 210.8 223.1 224.6 239.5 250.5 262.6 268.9 270.5 283 288.3 297.3 306.9 308.2 314.2 317.9 329.3 341.1 355.6 381.5 389.3 384.4 387.2 399.6 423.8 434.7 432.2 418.8 408.4 396.3 383.5 378.9 372.6 370.8 361.3 357.5 363.5 366 374.4 387.6 407 425.5 427.4 411.4 402.3 407.3 413.6 397.3 392.1 389.4 383.2 374.2 368.1 368.6 368.5 370.4 376.4 382.1 384 394.9 407 419.5 433.4 449.4 457.2 461.1 465.6 464.1 469.2 481.4 521.1 546.2 579.8 607.9 609.7 605 598.4 589.5 576.3 576.7 569.9 563.5 550.1 541.7 522 505.2 494.2 481.5 471 458.4 443.9 438.9 428.6 418.3 415.2 401.5 396.1 379.7 355.7 336.8 325.1 315.7 306.9 301.8 296.7 295.5 299.6 304.2 310.6 318.8 331.4 344.4 361.2 383.8 412.9 436.5 473.4 503.9 540.7 559.1 569.3 571.3 554.1 515.9 486.4 457 430.4 407.6 386.9 369 361 356 356 358.1 360.1 357.4 360.2 364.4 377.7 393.9 412 430.1 457.1 484.6 510 542.7 582.1 625.4 679.8 713.6 728.3 742.7 740.2 742.2 739.9 746.9 755.9 760 768 766.4 786.5 796.4 810.7 820.9 825.2 825.2 819.6 813.8 800.3 782.1 763.8 725.6 673.3 634.9 562.6 569.7 565.6 541.8 495.9 451.1 389 393.3 360.9 323.8 294.6 265.9 233.9 201.9 175.2 150.9 124.7 103.7
165.5 170 171.6 179.4 185.2 195.9 204.5 209.7 217 230.2 240 246.9 258.9 269.4 281.8 282.6 288.5 299.8 316.9 327.6 335.3 336.4 347.1 357.1 363.6 373.1 379.1 407.1 417.6 422.6 426.1 434.7 441.7 451.1 458.6 453 427.8 409.9 400.9 396.8 391.3 390.7 377 384.1 389.8 386.9 391 404.5 420.7 433.6 436.2 429.1 419.1 429.1 427.6 426.8 427.2 413.9 402.4 397.4 396.6 389.7 390.4 391.6 390.1 390.9 397.7 406.9 420.5 430.4 445.8 458.2 456.9 464.9 473.1 475.9 486.2 498.1 559 589.1 597.6 615 619.2 616.7 601.3 587.3 574.9 565.4 557.7 546 533.7 535.3 529.9 504.7 495.2 485.4 468.9 459.8 449.9 438.7 430.8 420.9 410.4 404.2 393.3 373.8 351.6 333.7 319.9 311.5 305.6 300.1 295.8 296.1 298.9 303.6 309.4 320.6 333.1 346.5 366.7 396.8 424.2 454.2 484.6 517.1 544.8 561.3 572.2 575.1 552.2 512.4 481.1 452.8 426.6 408.2 385.8 367.6 361.4 356 356 358 358.9 356 360.4 364.7 379.1 393 409.9 433.2 460.1 486.8 514.2 546.3 580.7 623.6 670.7 709.2 732 747.6 741.3 737.4 742.1 740.1 743 743.2 748.8 754.7 771.5 783.9 791.3 804.4 812.4 813.7 812.3 802.6 791 772.3 753 712.6 659.8 608.6 557 509.6 518.7 512.3 487.1 446.2 392.3 347.4 344.1 302.8 271.5 247.4 214.1 189.8 163.3 138.8 113 90.6
187.9 192.9 195.6 200.1 206.9 215.3 224.7 229.7 237.6 250.8 261.4 268 276 287 298.7 305.2 314.8 326.2 340.5 348.1 351.4 363.7 381.2 395.4 410.5 418.4 411.6 428.8 445 456.8 468.9 473.9 469.2 480.1 487.9 484.1 460.3 432.7 419.1 411.8 410.7 405.6 396.5 414 410.2 409.9 411.3 423.5 440 460.9 454.4 449 441.7 448.6 462.2 445.6 449.2 440.9 439.8 438.6 428.9 410.6 405.3 407.3 406.8 414.1 409.8 417 432.4 439.9 457.5 463.9 468.4 473.9 486.4 488.2 502.5 529.3 600.7 622.1 617.1 621.3 619.1 609.7 589.6 579.6 562.4 548 538.2 528.4 519.3 522.2 512.8 498.2 492.8 488.2 478.8 463.8 455.6 442.4 433.8 424.4 412.8 402.2 395.9 369.9 348.2 330.6 319.8 308.6 302.3 295.8 293.1 296.2 301 306.1 311 321.6 336.2 353.2 372.8 410.5 439.8 474.6 501.7 534.7 558.9 567.5 578 577.1 546.8 515.8 478.3 448.6 424.5 403 386.1 372.5 364.4 359.6 356 356 356 356 359 362.5 373.8 392 411.2 434.3 460.1 485.8 514.8 548.3 581.9 618.7 664.8 711.2 735.7 746.1 739.6 734.2 735 738.5 734.5 737 741.8 746.3 756.5 760 773.4 784.1 791.3 800.7 797 787.7 778.5 758.9 729.4 694.9 644.9 591.2 556.7 514.5 466.7 471.9 454.8 416.6 386.6 343.8 314.6 290.3 257.1 228 200 173.2 147.3 125.4 104.7 81.6
208.1 212.4 214.6 217.2 225.7 237.1 245.6 250.1 260.3 268.1 281.8 291.1 297 315.7 324.6 338 354.7 359.6 366.1 376.2 381.2 386.1 395 419.6 433.1 443.1 452.6 460.1 477 485.5 489.1 492.4 503.6 509.1 511.4 512.2 493.8 469.1 447.5 434.9 425.4 419.5 415.9 424.5 426.8 432.9 450.9 477.9 482.5 481.2 474.3 469.8 466.2 479.1 477.6 471.8 481.8 485.1 491 473.5 459.2 440.4 439.2 429 427.8 432.4 433 437.4 445.7 455 468.7 479.7 486.6 482.6 506.2 510.7 527.4 571.7 615.4 635.4 630 621.3 614.4 589.7 573.1 558 545.2 533.3 525.2 518.2 506.5 505 494.8 495.5 488.4 489.4 476.1 472 463.5 457.4 439.9 429.6 411.6 398 386.2 369.4 348.4 331.8 317.8 307.3 299.6 293.7 291.4 296.2 300.6 308.1 318.4 327 340.7 356.2 384.8 415.5 456 502.7 525.9 548 564.5 574.8 578.8 575.6 546.5 516.5 480.3 445.6 425.1 402.6 387 374.7 365.4 362.3 358.6 356 356 356.9 360.6 362.9 375.7 393.5 412.9 437.7 462.9 488 514.1 548.6 583.2 624.2 668.2 714 737.6 739 732.3 731.3 729.7 733.2 730.1 727.9 731.5 738.4 743.6 750.1 758.6 773.9 782.6 788.2 784.1 772.3 762.1 727.6 684.4 655.6 610.3 563.9 527.9 511.3 484.9 417.2 422 391.5 359.3 335.8 301 269.1 244.4 212.6 188.4 160.2 138.7 117.3 95.4 72.4
223 229.2 232.4 235.7 241.3 250.8 258.5 267.2 276.8 286.2 301 314.7 320 339.4 363.5 372.4 379.2 385.8 393.2 405.3 411.8 425.5 429.5 441.3 449.4 461.1 478.2 481 495 500 496.7 506.4 519.7 531.6 533.8 533.6 523.7 519.7 492.9 469.3 455.1 444.2 435.8 448.1 458.6 482.6 508.1 531.1 528.9 517.9 506.5 497.1 491 495.6 495 505.4 521.9 518.4 515 499.3 484.4 477.2 478.4 453.7 446.4 451.4 451.6 468.9 473.8 469.5 476.1 489.1 498.9 502.4 523.9 535.8 545 608.7 638.3 641.4 626 611.3 602.4 580.1 553.7 538.7 527.6 519.7 512 508.4 497.1 483.4 483.1 485.8 481.9 473.6 468.3 474 459.9 451.6 439.5 428.8 417.3 397.2 377.5 360.8 344.6 327.9 317.2 308 300 293.7 291.4 295.3 299 304.1 317.7 329 343.1 358.1 384.9 420.1 470 516.1 538 554.8 569.3 583.4 579.5 573.1 538.1 511.4 476.4 446.7 426.3 407.4 389.7 375.5 366.4 361.2 359.4 356.9 356 360.5 362.2 367.3 379.7 393.1 416.3 439.2 464.3 490.8 517.7 550.9 586.3 629.5 673.5 712 731.6 730.7 727.8 726.5 721.6 722 725 716.4 722.2 729.7 731.4 738.6 748.3 760.8 766.3 771 771.1 760.7 749.8 733.7 682.7 638.5 572.9 542.2 506.8 476.9 463.4 437.9 387.3 365.5 335.9 308.8 283.9 253.8 225.8 201.7 174.8 151.8 127.7 104.8 82.3 64.3
235.3 245.3 247.9 249.3 254.9 270.4 283.6 298 310.2 308.4 325.2 338.3 342.3 360.1 381.1 394.9 405.6 407.2 408.5 419.7 434 447.6 454.9 468 471.9 479.3 484.7 488.4 496.3 496.3 492.7 514.7 529.1 549 555.1 557.8 555.6 554.4 545.6 514.8 484.3 470.5 461.9 479.5 497.5 528.1 554.9 567.4 561.8 556.2 547.8 538.2 526.7 525.6 525.4 534.5 536.6 538.5 537.5 528.7 520.4 510.8 500.9 487.3 479.6 482.5 484.8 485 493.8 489.4 499.8 506.8 512.1 530.4 547 561 565.7 596.1 646.7 638.5 616.5 601.9 585.7 569.1 544 527.2 517.8 509 505.6 493.6 484.1 472.9 467.3 470.9 466.1 457.3 457.9 455.1 442.9 437.6 426.7 410.4 402.6 392.1 376.2 356.2 341.2 325.5 314.8 307 299.8 292.5 294 296.2 298.5 305.4 318.4 330.1 345.4 361.6 383.3 420.1 460.3 512.3 538.1 560.4 570 584.8 584 571.1 530.9 504.4 474.4 451.5 431.2 414.8 396.9 378.5 369.5 361.2 359.2 357.5 359.9 362.7 364.9 371.1 380.3 397.1 416.6 439.6 463.9 496.6 519.9 553.4 591.5 636.6 678.6 715.9 726.6 722.2 718.8 719.7 718.4 714.3 716.1 713.4 708.4 715.7 722.6 726.4 735.5 745.5 751.2 756 758.6 752.8 745.7 720.4 677.2 629.8 587.5 537.5 497.2 460.1 429.3 407.3 370.2 339.5 317.2 290.6 265.9 237.3 214.2 187.6 165 141 116.8 95.5 73.9 56
255.2 272.9 280.4 276.6 279.4 297.5 315.2 328.3 342.4 340.5 357.2 370.2 375.3 385 399.4 408.6 416 419.8 424.1 435.2 452.5 462.8 467.4 475.6 483.5 495.3 498.6 498.4 498.5 493.2 495.8 519.7 549.9 562.9 575.7 584.2 582.4 577.1 568.2 538.7 509.1 492.4 488.6 502.7 519.3 550 576.4 607.1 615.1 607.1 587.2 579.4 562.9 545.9 554.8 554.6 553.5 555.7 560.8 560 553.1 539.8 536 523.4 517.8 524.8 520.3 512.2 521.4 520.3 521.4 530.6 535.9 561.4 579.1 591.1 609 640.7 642 620 603.9 589.5 570.9 550.5 532.6 521.5 508.1 505.9 491.9 482 475.8 464.7 458.2 452.5 447.7 443 439.3 433.8 429.2 421.3 415.2 404.2 390.9 381.3 366 349.7 335.3 324.8 311.2 302.9 297.5 291.8 291.6 295.5 299.5 304.2 318.7 332.6 344 358.1 383.1 416 449.9 487.4 524.3 552.4 567.9 575.5 578.8 564.6 526.9 503 476.8 454 438 420 399.3 381.6 373.1 361.2 362.8 357.3 362.9 365.5 367.3 371.7 382 397.9 416.9 438.2 466.4 497 522.2 557.3 597.4 640.4 679.5 720.9 720 716.4 714.3 716 712.8 707 709.8 707.6 700.3 703.1 709 709.2 720.3 730.7 734.1 739.8 743.4 743 733.5 704.8 666.1 607 569.4 529.8 493.6 459.1 424.8 386.4 354.8 325.6 296.6 272.7 252.3 227.4 203.8 177.5 150.6 127.9 108.2 86.7 66.6 50.1
278.6 301.1 313.9 306.7 310.4 315.1 336.6 354.1 366.6 371.6 388.2 400.8 408.9 414.6 423.3 431.7 439.3 444.4 451.2 465.2 474.9 485.4 490.3 492.5 498 502.6 506 494.7 494.5 496.6 504.3 524.1 551 579.1 590.9 597.6 598.1 595.7 588.6 568.7 529.8 513.9 513 530.7 548.6 578.6 608.7 639.3 645 648.1 629.5 613 586.4 565 567.1 574 573.2 573.1 581.8 575.9 571.3 567.2 563.3 558.9 565.1 559.6 548.4 549.3 545 543.9 544.5 557.1 570.7 597 620 636.8 642.1 648.7 624.5 604.7 596.9 579.1 558.3 537.4 525.5 519.3 502 505.4 488.6 471.8 463.7 456.5 450.6 444.4 433.5 428.7 419.6 415.1 416.1 406.2 395.5 391.6 383.5 369.7 358.4 345.4 330.9 320.8 308.1 300.5 296.4 291.6 292.2 294 300.3 305.3 314.9 328.2 339.4 352.3 374.7 410.9 441.8 477.5 522.9 545.3 563.3 573.2 580.7 570 539.8 511.7 485.6 461 443 426 405.5 387.6 374.5 362.9 362.3 358.2 368.1 367.7 368.1 374 382.7 400.4 416.6 440.3 467.1 498.1 524 557.9 596.8 640.2 676.3 716.4 712.8 712.6 708.7 707.1 706.2 700.7 696.9 695.5 687.7 695.7 700 699.5 708.2 716.1 721.2 726.5 724 724.6 719 697.1 649.1 599.5 556.5 514.2 473.7 444.2 415.5 374.8 345.4 313.8 276.8 239.4 233.6 210 188.3 163.4 138 118 96.5 76.7 59.7 43.2
297.9 322.5 334.1 333.6 338.5 347.5 357.1 380.8 393.7 398.2 407.6 426 433.4 441.4 445.3 454.4 458.8 465.6 469.5 478.1 491.6 499.2 497.4 502.4 503.8 505.4 492.9 484.5 493.7 497.6 509.9 527.9 560.3 583 595 599.1 606.9 609.7 604.7 597.9 561.9 545.7 541 557.9 588.6 620.9 638 658.4 668.5 671.1 671.5 659.2 627.6 599.4 595.5 594.4 590.1 585.7 594.3 584.6 590 597.1 588.2 590.8 590.7 589.3 578.3 566.6 556 559.3 564.5 572.4 587.3 624.9 649 658.7 652.9 625.7 608.1 595.3 585.1 568.2 543.1 527.5 517.2 511.8 496.8 487 478.1 464.8 456.5 449.6 448 430.8 416.9 413.7 410.8 400.7 396.9 388.2 382 380.6 372.6 358.5 350.1 337.8 325 313.5 305.6 296.4 293.2 290.6 288.9 293 297.7 304.5 309 321.5 330.1 341.4 360 386.1 416.4 442.3 487.3 519.2 540.7 560.6 573.7 570.3 553.8 524.3 492.8 467.7 443.1 422 405.8 390.1 377.2 372.3 356.3 363.5 367.5 359 360.7 372.8 386.1 403.6 420.8 441.3 465.1 499.7 526.7 560.6 593.4 635.3 674 712.6 705.5 707 701 696.1 692.9 692.7 686.8 686.9 683.5 685 689.7 690.5 693.7 702.1 710.6 719.3 714 711.4 710.4 685.1 635.9 587 529.4 499.4 465.8 406.2 389.4 358.6 331.1 301.3 269.6 237.1 212.9 195.5 172.4 149.5 127.7 106.2 88.4 69.2 56 38
324.6 344.9 357.4 360.4 365.3 377.3 384.7 397.7 417.6 422.1 431 446.7 452.8 455.7 456.8 465.9 475.2 485.8 485.5 492.6 502.9 498.6 495.4 504.9 500.3 494.5 479.1 476.7 502.5 508.4 521.3 534.3 574 592.6 603.7 615.1 622.7 620.6 616.2 612.2 604.8 586.3 577.7 592.8 622.4 647.4 654.5 679.3 688 693.7 699.5 687.6 663.7 646.5 626.7 620.7 613.3 611.5 604.5 600.6 600.8 603.5 603.3 617.6 605.1 606.4 594.9 583.8 571.5 572 576.8 588.1 607.4 634 654.7 649.6 632 603.1 593.6 580.4 568.3 554.7 529.1 523.4 510.2 500.6 493.6 479.8 464.7 460.6 451.2 443.9 434.5 424.9 411.5 405.5 400.1 394.6 386.3 375.8 370 366.9 358.3 348.3 345 329.9 316.1 306.3 298.7 291.4 286.5 286.7 286 288.3 291.7 299.8 305.4 310.8 320.4 332.1 342 364.2 393.2 417.4 456 482.7 502.1 534.4 553.5 564.2 554.9 534.1 502.3 469.5 444.4 425.2 408.1 390.8 376.7 364.4 354.3 359.3 355.3 355.9 367.1 375.6 389.5 405.9 421.5 444.2 467.3 494.8 525.5 559.6 592.3 628.6 670.6 701 700.8 700.4 696.1 690.1 689.1 687.2 680.3 675.5 675.2 667.9 675.7 674.7 675.5 681.6 688.3 695.5 700.1 695 703.2 690 658.6 598.9 550.2 524.9 474.7 418.9 377.8 345.7 307.4 277 258.2 227.1 184 164.9 157.9 139.5 118.8 95.4 77.3 61 46.9 35
354 367.9 376.8 380.1 392.2 406.9 408.6 424.1 437.8 447.9 451.2 458 459.8 462.5 463.7 473.3 481.2 480.5 484.4 489.8 487.4 488.9 495.9 494.7 490.5 474.3 465.4 481.1 498.8 510.4 535.9 550 574.6 592.7 612.1 614.5 611.4 616.6 612.1 619.3 619.9 623.1 619 636.8 647 663.2 673.2 684.5 705.2 715.3 719 711.4 698.4 675.7 664.8 657.9 651.8 637.3 629.1 624 622.9 626.5 644.3 644.5 632.2 629.7 618.5 600.7 588.3 587.2 593.9 612 627 630.9 633 629.4 610.7 591.2 582.2 571.3 554.3 540.9 519 515.9 504.5 492.5 486 474.1 464.1 457.1 451 441.6 429.4 416.5 406 401.9 394.8 387.3 379.3 368.6 361.4 360.3 349.4 339.8 330.1 317.8 306 298.3 291.9 286.7 282.2 280.7 279.9 282.6 286.4 292.2 296 302.5 314.1 321.2 327.1 339.6 365.1 391.8 423.7 447.7 475.8 514.1 543.6 556.2 553.1 540.8 508.1 474.9 446.4 427.6 411.3 394.4 377.8 363.7 351.7 348.4 351.3 354.2 357 367.1 382.7 400.5 421.7 444.4 466.1 493.8 525.8 558.5 592.4 627.9 662.8 690.9 697.7 693.7 691.3 686.2 680.9 678.6 673.1 663.2 662.6 654.4 656.9 656.8 660.1 653.2 668 674.3 676.9 673 681.1 674.8 653.1 616.6 575 525.5 485.5 440.4 394.3 354 314.9 284.3 255.9 224.3 195.2 170.4 151.1 120.6 108.7 88.8 69.2 52.7 36.5 26.9
380.3 391.5 397.6 401.9 415 425.4 428.9 437.2 446.9 457.8 464.5 467.5 468.1 463 467.6 466.1 474.1 476.5 479.7 479.6 485.1 485.1 487.9 483.9 476.4 462.8 460 478.9 491.4 509.1 528.7 545 565 573.5 580.5 592.8 606.4 609.8 615.8 618.6 626.2 627.5 635.1 650.4 659.7 666.7 680.1 690.3 715.2 724.8 729.1 726.5 719.5 713.5 700.4 694 683.6 668.3 651.8 639.7 642.9 648.3 662.8 667.9 655.3 644.2 632.3 620.5 610.4 593.2 607.7 624.5 625.6 619.1 615.5 607.6 595.1 579.2 568.2 560.2 544.9 527.5 512.6 508.8 505.4 489.1 484.9 473.3 465.4 456.2 447 438.6 430.9 416.4 405.3 396.8 390.3 378.4 373.1 366.9 355.4 353.7 346.3 331.2 321.8 309.4 298.9 293.8 286.7 282.7 278.5 274.9 272.2 275.1 279.9 283 286.9 291.8 299 308.6 318.6 328.7 340.6 365 393.3 422.3 451.5 495 528.4 545.3 544.1 540 511.4 477.7 452.7 430.9 414.6 396 378.8 367.2 353.7 347.7 345.4 350.4 357.3 368.6 383.4 400.6 418 441.1 466.7 492.1 526.6 561.7 599.8 639.1 670.3 688.1 695.8 688.6 684.6 683.1 676 671.6 663.2 653.3 646.3 642 634.7 639 641.7 635.5 645 642 653 655.1 658.8 657.7 629.5 600.6 559.8 521.6 473.1 425.8 383.9 346.1 306.5 269.7 240.4 213 188.6 159.4 135.6 117.4 98.3 77.3 64.7 48.9 35.3 23.3
387.5 399.4 407.5 412.7 424 437.2 439.2 447.5 454.9 457.6 463 464.6 459 457.9 460.4 459.5 468.1 468.7 470 474.1 474.6 475.3 477.7 472.7 455.1 454.7 468.9 477.5 490.5 505 518.6 537.4 553.4 565.3 575 589.9 602.9 602.9 607.6 618 625.9 622.4 631.8 645.8 652.4 667.4 682.3 685.3 710.7 718.7 726.3 727.5 729.8 732.5 725.5 720.6 706.6 691 672.2 668.4 670.4 670.6 672.5 682.5 674.4 664.3 653.4 641.1 626.7 607.6 613.9 624 618.5 608.3 591.8 590.9 585 571.8 561.1 554.7 533 515.9 508.1 506 498.1 488.1 476.1 471 466.7 457.6 445.7 434.1 427 416.1 406.5 397.8 388 377.3 363.3 361.7 351.5 345.8 335.1 324.9 312.3 305.2 295.4 287 280.9 277.4 273.6 269.6 267 269.3 269.3 273 277.7 281.4 284.8 294.9 305.2 319 328.2 344.2 370.9 398.2 432.9 468.4 499.8 530.9 531.7 532.3 515.9 485.3 455.5 434.1 416.2 399.7 380.9 367.8 356.1 347.5 343.9 345.2 355.2 365.8 382.1 398.3 416.6 437.3 462.2 488.8 520.7 560.1 599.8 632.1 671.3 684 693.3 685.6 678.7 674.7 666.5 659.1 647.9 644.1 629.3 629.6 625.7 623.9 625.4 622.3 617.3 621.9 631.6 626.6 629.2 633.3 611.6 574.8 535 501.5 464.3 423 373.7 337.9 299.7 261.4 226.1 198.5 172.7 147.1 125.5 104.4 85.4 67.9 54.7 44 29.5 20.2
389.9 400.1 404.8 415.6 434 437.2 439 442.4 452.1 454.5 455.2 458.5 448.2 444.7 449 448 453.4 456.7 463 468.6 469.1 469.4 474.9 464.2 455 463.1 470.1 477.9 494.6 510.5 526 537.7 543.4 559.3 565 578 586.4 592.6 600.1 609.1 613.5 619.1 631.2 640.4 649.6 660.5 677.3 683.6 695.9 703.8 708.8 712.1 719.5 727.7 726.4 727.4 721.5 714.6 696.9 688.5 684.2 686.8 692.5 701.6 690.5 677.1 679.7 664.7 641.8 620.3 622.1 625.7 607.1 601.1 583.9 583.7 579.5 566.9 555.4 537.4 521.7 510.1 507.8 506.6 499.5 491.3 476.5 471 461.5 451.9 448.6 437.1 425.7 420.8 410.7 397.6 389.9 377.8 364.4 358.7 349.5 342.5 331.9 321.4 309.7 301.4 293.3 283.9 276.7 272.2 268.5 264.7 265.2 265.3 264.4 267.4 267.8 271.6 275.3 282.8 290.8 301.2 318.2 337.3 353.2 379.9 410.8 445.5 468.9 500.5 524.9 522.1 515.5 490.7 463.9 438.2 419.2 402.7 385.5 368.1 357.4 347.3 343.4 344.8 354.8 366.4 380.6 397.5 414.8 436.3 460.5 485.7 516.7 553.6 602.2 637.7 676 676.9 683.9 683.3 671.7 664.7 655.3 647.8 639.2 630.1 623 613.7 613.2 595.9 609.2 608.1 600.2 607 607.2 604.2 601.6 601.5 588.2 561.6 527.9 450.6 434.7 399.4 365.3 326.6 286.3 253 215.3 183.4 158.1 132.8 111.6 93.9 74.6 56.6 44.4 34.7 23.5 13.3
380.1 391.3 395.6 408.3 416.8 417.8 429 434.6 441.3 440.6 441 443.1 432 427.7 431.5 437.7 440.3 446.2 454.8 458.3 462.6 465.8 466.7 452.5 455.5 464.3 469.6 484.3 501.1 514.9 518.9 526.1 535.1 549.4 557.6 570.7 580.9 585.4 592.3 604.8 601 613.3 623.1 635.2 639.4 646.7 658.2 671.5 682.9 704 712.6 717 722.8 733.8 734.3 738.3 743.6 745.7 728.8 727.4 720.6 724.5 724.5 715.3 711.8 706.3 695.7 676.6 662.2 625.9 617.7 615.4 600.9 589.3 578.1 579.9 577.4 557.8 546 530 521.8 508.6 505.1 503.7 504.6 494.5 483.9 470.6 463.7 452.9 442.7 431 425.3 420.9 412.7 402.8 391.5 380.4 370 356.8 348.3 343.2 334 326.9 310.3 301 292.8 285.3 276.9 270.6 265.3 263.1 261.1 259.3 257.6 260.3 259.9 264.3 268.3 272.4 279.6 290.4 303.4 322.1 339.4 366.5 393.4 425.3 449.6 479.8 506.2 514.1 513.4 492.3 466.9 441.6 419.8 404.4 389.8 371.4 358.1 346.9 343.9 345.6 354 367.1 381.1 397.1 413.7 437 461.9 484.7 513.6 546.4 603.1 637.5 672.1 672.5 673.6 673.6 663.1 654.5 644.5 635.5 628 619.2 611.2 596.3 600.7 595.8 586.7 589.8 586.3 584.5 582.7 580.3 582.8 571.1 558.3 538.8 512.3 480.5 419 372.6 339.9 304.1 271.2 235.3 203.9 174.4 146.2 120.8 99.9 82.2 64.5 45.2 32.4 23.8 15.4 11
360.2 368 380.8 390.3 397.8 403.6 416.9 420.7 424.5 429.2 423.2 419.6 418.2 411.1 416.2 422.8 430.2 438.3 449.2 455 459.5 463.1 458.4 449.6 467.6 477 486.9 495.1 501.4 511.3 523.3 531.4 538.1 545.2 556.1 563.5 573.3 582.6 586 591.1 591.3 604 613.5 629 632 646.1 656.7 667.8 679.1 699.8 710.5 715.9 722.7 731.8 741.4 750.6 762.1 773.8 775.1 770 759.7 749.8 739.5 739.1 727.6 713.5 704.5 684 671 641.1 614.6 610.2 599.5 589.5 581.9 575.7 575.4 559.1 539 525.5 519.5 509 504.2 502.5 497.4 486.1 477.6 468.1 463.7 456.7 443.6 432.1 425.2 418.8 415 402.5 396 385.9 375 364.1 352.1 346.6 337.4 329.3 320.2 305.9 290.9 282.8 276.9 269.9 266 263.6 260.2 254.7 253.7 252.9 254.1 255.5 257.5 262.2 270.8 279.4 291 308.3 326.7 350.6 381.5 406.9 433.4 462.8 490.2 502.8 503.1 492.1 467.8 440.9 420.7 404.6 391.4 375.4 359.9 347.8 342.8 347.6 356.3 368.8 380.9 395.9 412.7 434.8 461.1 483.7 511.5 548.1 598.7 644.4 664 666.6 666 661.6 652.5 641.9 631.5 624.2 617.3 613.4 603.6 594.5 590 589.7 540.6 565.4 566.4 526.2 564.8 559.8 553.9 546 524.7 511.7 479.9 439.4 409.5 350.5 322.2 278.9 253.2 218.5 190.7 162.2 134.6 110.2 87.9 70.1 53.9 38.8 27.3 17 11.5 5.4
341.7 356.7 367.6 382.1 386.5 386.3 394.3 399.8 402.5 396.9 405.3 400.7 396.4 397.1 401.5 419.7 430.2 440.3 449.9 458.3 460.9 459.5 441.1 442.2 474.7 484.9 495.1 506.6 520 526.4 540.1 552.3 556.8 556.9 567.2 573.7 590.6 590 590.8 592.9 593.3 606.6 618.3 627.3 632.6 645.9 659.7 671 680.7 693.6 708.1 718.6 729.5 737.1 747.1 756.3 772.7 783.6 796.6 788.5 781.8 777.3 761.5 747.6 735.5 721.9 710.3 701.7 686.8 643.1 615.8 609.4 597.8 590.6 580.7 575.1 588.5 563.1 534.3 518.9 518.2 512.1 507.6 504.1 495.8 496.2 480.5 469.7 458.1 444.5 439.5 433.8 429.7 424.5 412.8 406.6 399.8 393.5 383 371.3 359.2 350.2 342.4 333 326.2 308.9 291.7 284.8 277.9 271.3 265.2 261.8 258.5 251.6 249.4 247.9 247.2 246.6 248.8 253.1 263.8 270.8 282 295.9 312.9 332.6 357.2 387.6 414.9 442 466.5 489.6 499 487.3 466.2 440.5 421.6 406.8 392.9 377.1 360 346.1 343.3 350.3 356.8 368.7 378.4 396.1 414.1 434.4 460.6 482 512 546.6 593.2 640.1 657 659.2 660.9 653.2 640 627.5 616.5 610.3 604.5 596.5 590.9 585.4 574.9 578.6 566.2 513.2 538.2 536.3 526 541.1 532.7 516.1 488.2 473.2 449.8 400.7 361.4 323.5 292.6 275.9 238.1 197.7 176 151.1 123.4 99.4 78.3 59.3 43.4 32 20.7 10.9 6.2 -1.2
325.4 341.7 353.8 363.9 364.7 372.7 381.3 381.6 385.4 378.9 380.1 378.8 380.9 389.4 406.2 426.9 434.9 443 453.1 457.1 456.1 445.2 436.3 456.1 479.3 494.2 507.9 527 536.6 545.9 553.6 570.3 576.2 577.1 584.6 590.3 594.1 597.2 596.9 598.7 607.6 622.3 631 639 642.5 661.2 674.7 680 691.1 698.1 710.4 720.9 731.3 741.7 755.7 768.4 773.5 787.2 795.5 796.9 791.2 787.5 782.8 764.6 749.1 738.3 720.6 718.5 694.3 649.6 621.9 606.5 599.3 598.1 588.6 574.9 588.9 565.8 532 516.8 514.7 510.9 506.1 502.7 493.8 489.8 485.2 468.3 464.6 449.1 438.9 436.3 433.8 431.7 419.9 413.5 407.9 396.9 392.8 378.6 363 352.8 346.5 339.5 327.7 318.4 301 288.9 281.1 274.6 266 261.3 256.4 249.6 244.4 244.5 241.5 240.2 242.2 247.5 254 262.9 272 287.6 305 321.6 339.5 364 389.2 415 437.8 469.5 491.3 489.4 468.2 443.1 423.9 408.1 393.9 376.5 359.5 345.4 341.2 347 353.4 369.6 377.3 393.3 415 435.5 457.3 482.6 510.4 542.5 601.6 637.9 650.4 649.6 647.4 642.4 627.9 615.1 606.2 597.6 592.4 586.4 577.5 574.1 567.7 567.4 562.9 541.3 478.8 496.4 456.8 519.7 512.6 498.2 473.7 423.3 409 369.8 337.5 301.8 271.3 248.3 216 188.7 156.2 134.9 112.4 87 67.8 51.6 36.2 24.4 13.4 6.9 -1.2 -1.2
304.4 317.5 325.9 334.9 341.9 350.6 362.2 360.6 363.1 361.7 361.1 368.4 379.1 393.9 411.1 427.2 433.5 441.9 452.6 459.5 445.3 432.7 463.4 484.5 493.4 509.8 532 538.5 546.4 556 566.5 576.1 584.1 589.4 591.8 605.7 608.7 610.1 614.7 611.8 623.8 637 646.7 658.1 666.8 669.4 688.1 693.8 700.5 702.7 717.2 726.2 736.7 743.8 757.7 774.8 775.1 786.3 795.6 796.1 794.4 797.2 782.2 775.9 760.5 745.4 738.9 724.9 696 651.4 629 615.3 611.4 603.8 589.5 574.1 582.3 558.8 531.7 513.9 509.2 511.9 503.7 495.4 492.6 482.2 475.5 467.2 459.6 452.8 442.9 439.6 440.1 439 427.5 419 408.7 399.5 393.2 389.3 374.8 361.9 352.7 348.5 332.7 327.5 310.6 295.7 288.4 275.9 265.9 261 255.9 249.6 242.8 239.6 238 235.2 237.2 241.3 246.8 255.2 264.1 275.6 290.1 307.9 325 342.6 364.8 386.2 412.8 444.9 476.6 486.3 466 442.7 423.9 409.4 393.5 377.5 357.5 344.1 339.9 343.1 350.6 364.2 377.1 394.4 415.4 435.8 456.7 486 511.7 540.1 602 635.1 644.5 641.8 638.3 626.5 620.5 604.8 596.1 587.5 582.5 576.7 569.7 562 557.3 551.4 557.3 551.5 528.9 456.5 427.5 443.9 466.3 461 443 410.7 374.2 340.8 311.6 281 254.4 222.1 195.8 168.1 141.3 121.8 97 75.4 58.4 42.3 30.9 18.6 8 -1.2 -1.2 -1.2
285.9 296.2 305.1 315.2 320.9 332 340.3 340.8 340.8 343.7 357.6 369.5 383.2 394.9 413.8 421.9 431.4 441.7 458.6 455.6 423.1 444.9 483 502.8 514.7 521.7 541.2 548.4 559 566.7 579.1 586 591.6 600.1 608.3 620.5 621.3 630 633.8 623.6 641 645.2 674.9 682.7 691.3 694 704.4 711.7 711.2 713.7 725.5 732.4 746.2 758.1 769.5 779.4 784.4 789.2 794.4 792.2 789.7 788 782.4 781.9 773.1 763.1 752.6 726.8 693.1 661.9 633 619.2 608.1 604.8 586.7 573.8 573.6 550.3 532.3 514.9 507.4 509.9 502.2 497.3 491.3 487.2 476.4 463.2 457.9 445.4 441.8 444.6 445.7 438.8 432.3 422.4 410.6 401.8 395.4 385.7 380.6 367.3 362.6 350.7 342.9 330.2 319.2 305.8 299.1 283 272.6 266.8 260.1 252.3 245.5 241.1 235.4 232.4 232.7 235.2 240.8 249.3 254.8 263.8 277.5 292.9 308.4 324.6 342.4 360.7 384 414.5 452.4 472.5 461.8 443.3 423.4 404.9 389.5 374.4 353.6 345.6 338.4 343.2 353.6 367.2 380.4 395.2 415.1 436.6 458.9 481.6 511.4 539 591.2 626.7 637.3 632.9 628.4 614.8 605.3 594.3 586.3 576.7 571.5 567.3 561.2 552.4 543.8 543.2 536.3 537.5 535.5 492.9 430 403.4 406.8 419.1 409.6 385.9 337.9 314.6 286.2 257.7 226.8 199.8 177.5 151.5 129 105.7 86.4 67.1 50.8 37.2 22.1 10.5 -1.2 -1.2 -1.2 -1.2
273 282.9 291.2 300.4 307.5 311.5 317.2 316.6 330.3 344.8 355.5 373.6 387.7 398.6 403.1 425.6 441.2 449.6 459.1 435.1 435.8 472.4 503.8 518.8 532.8 540.2 546.5 553 564.1 568.9 582.9 593.1 601.4 612.4 619.5 630 632 639 646.2 651.1 669.2 667 694.7 708.6 707 710.7 714.4 725.9 732.4 727.9 735.4 740.5 756 770.8 778.2 783 785.5 780.7 788 787.6 779.1 783.8 777.7 762.3 759.2 759.3 746.5 725.1 691.5 671.2 646.1 618.9 602.5 598.2 587.3 575.3 567.8 548.8 532.6 514.2 506.9 506.4 498.9 492.5 488.4 484.2 475.5 460.3 456.7 452.9 446 444.6 443.7 442.6 437.7 429.4 423.8 408.1 404.4 396.9 384.1 376.4 367.8 356.3 346.6 340 330.1 313 307.4 296.8 283.9 279.3 269.4 259 253.2 242.7 236.3 231.5 229.6 231.2 233.9 241.2 246.2 256 265.7 281.3 293.6 307.1 322.8 339 360 384.4 407.9 440 444.7 446.5 423.3 401.4 382.9 367 348.7 342.5 337.8 344.7 355.6 364.9 385.6 399.9 417.1 439.1 458 485.8 508.5 542.3 577.7 615.2 628.7 623.9 618.2 607.1 596.1 581.7 577.4 568.6 562 557.1 551.3 544.1 534.5 531.5 526.5 515.4 515.3 503.1 461.4 390.3 328.3 363.8 372.6 357.6 328.5 286.8 264.3 239.2 208 181.7 158.4 133.4 112.5 89.9 72.2 56.4 43.6 32.3 15.7 7.9 -1.2 -1.2 -1.2 -1.2
253.4 263.8 273 282.3 288.2 293.6 295.3 314.5 329.6 345.4 359.9 374.6 382.2 400.6 411.3 430.3 442.1 449.7 419.1 414.7 467.9 493.3 512.9 531.2 539 548.8 556.8 564.1 575.7 582.2 599.2 605.1 613.6 624.3 641.3 652 657.3 659 661.8 678.8 687.1 689.1 705.5 711.5 720.2 719.3 722.7 728.7 737.8 742 745.4 745.6 754.9 767.4 776.6 772.8 777.4 769.3 773.5 770.5 762.4 762.7 763.5 755.4 749.5 736.9 726.6 708.5 685.3 662.6 643.8 616 598 591.1 578.6 574.4 567.1 551.6 538.2 519.5 509.4 505.3 503.6 496.6 488.4 480.9 470.6 463 457.8 453.7 449.1 444.8 449 446 445.3 440 431.5 426.9 414.1 404.4 390.3 383.3 377.2 368.1 353.7 346.4 338.6 326.9 315.4 304.5 295.6 290.8 282.1 270.5 263.5 255.2 243 234 229.8 227.5 231.6 235 240.1 247.1 255.3 265.4 277.2 289.5 304 317.7 336.5 356.9 376.4 406 417.2 437.8 419.7 400.4 378.8 358.6 344.5 338.3 337.8 343.9 353 366.2 384.3 400 419.4 435 457.4 483.5 510.9 542.4 575.7 604.7 619.1 613 607.6 596.4 585.1 570.8 565.5 560.1 549.6 545.8 537.3 534.5 525.6 517.2 514.2 505.5 499.1 492.3 478.3 409.8 356.1 292.5 329 320.4 295.7 263.8 239 217 191.2 163.6 141.5 119.5 98 78.5 60.6 46.3 35.4 22.7 11.7 -1.2 -1.2 -1.2 -1.2 -1.2
241.4 248.1 257.9 265.9 271.5 281.4 293.5 311.7 328.8 340.7 352.2 370.9 394 405.4 417.7 433.2 442.8 414.2 399.2 455.2 481.2 505.9 520.4 541.8 553.1 558.1 571.4 578.4 589 594.3 606.8 624.4 630.9 639.4 654.2 663.1 676.7 670.9 670.1 687.5 695.8 701.2 710.3 723.3 729.7 734.6 735.6 736 746.3 745.1 747.5 751.4 754 760.9 772 776.5 778 773.9 765.3 753.2 731.6 723 726.6 728 728.6 718.5 707.8 686.3 677.9 656.1 636.1 623.3 595.6 581.9 571.2 562.7 557.9 543.5 532.1 526.7 515.1 508.7 500.1 492.3 484.4 475.3 469.2 460.7 461.1 448.9 449.1 452.2 449.7 451.3 451.2 442.9 437.7 430.5 425 415.6 402.9 390.7 385 377.6 366.4 354 347 337.8 329.4 316.1 307 299.2 292.9 282.9 274.3 266.4 258.3 244.2 233.2 227 226.8 228.1 232.6 238.5 247.4 254 262.9 272.8 285.1 297.5 315.7 332.1 355.4 371.9 380.8 384.2 399 385.6 366.1 351.6 339.4 334.7 337 342.9 351.8 367.8 385.6 400.1 421.6 437.1 455 483.1 512.4 540 569.9 596.1 607.9 604.4 600.4 589.9 575.6 561 555.1 550.1 540.2 534.5 527.2 522.7 518.6 509.2 500.2 499.7 479.9 473.8 456 435.4 362 307.9 263.2 284.5 268.1 243.9 219.7 196.6 174.7 152.1 128.1 106 85.2 67.3 53.5 38.9 24.4 12.3 -1.2 -1.2 -1.2 -1.2 -1.2 -1.2
230.4 236.4 246 252.7 262 276 288.6 306.4 319 328.7 350.7 378.1 395 408.2 416.3 429.2 426.3 380.3 411.2 460.9 491 510.1 528.1 546.9 556.4 563.2 570.6 585.6 600.6 608.3 621.1 633.8 647.5 659.2 671.8 674.9 688.9 687.3 690.5 704.3 717.2 715.8 720 725.2 728.9 732.2 736.7 740.1 748.9 753.8 751.7 763.9 765.2 768.4 772.4 768.5 766.1 765.2 730.3 707.2 695.3 685.6 685.1 696.6 694.5 678.9 667.9 657.6 650.2 629.2 615 609.4 588.9 573.4 563.2 553.3 547.7 534.2 525.9 524.5 516.5 507.9 495.7 488.8 480.3 469.4 463.8 459.5 457.1 449.4 446.7 449.5 443.8 454.2 451.5 442.6 437.7 433.6 432.5 425.6 413.9 401.9 393.4 383.2 373.6 365.5 354.7 350 335.1 326.2 316.7 307.3 303.6 292 282.5 278.6 268.8 257.1 244.1 231.5 226.8 224.3 226.2 231.6 238.4 246.3 251.1 259.7 268.5 280.8 296.3 312.9 336 351.4 358 357.7 359.1 357.3 348.3 340.7 333.1 329.7 335.5 340.6 352.9 368.3 382.5 399.8 422.5 438.6 453.9 487.8 510.6 538.8 566.5 587.6 596.3 591.5 584.9 578.7 568.7 553.6 542.5 538.4 532 523.1 516.3 509.8 508.7 499 486.3 482.4 471.4 451.9 436.1 415.2 380.6 326.7 275.3 237.9 245.2 223.5 201.1 177.4 158.9 139.8 114.4 92.8 72.5 57 41.7 29.5 17.9 7.5 -1.2 -1.2 -1.2 -1.2 -1.2 -1.2
212.3 222.1 231.4 240.2 251.6 271 281.7 295.7 312 332.3 350.7 375.6 394.6 402.7 413.3 420.6 383.6 370.6 429.9 463.8 491.5 511.1 525.4 542.6 551.9 561.1 570.2 587.2 603.2 618.5 633.3 647.3 660.3 673.2 680.8 684.7 694.7 698.8 711.1 713.7 721.9 718.1 722.1 739.7 740.1 752 755.3 747.3 756.4 769.2 764.3 773.6 777.6 776.3 768.4 764.4 749.9 729.7 711.6 673.4 656.3 645.8 641.9 646.4 652.5 637.7 632.4 614.9 609.8 601.5 591.3 588.6 580.6 569.3 559.6 546.4 535.6 528.2 525.4 518.6 508.7 500.9 495.5 484.4 472.2 470.8 464.1 457.7 453.9 448.4 444 444.4 441.7 459.8 453.3 445.2 439.1 437.7 434.6 431.4 422.9 413.7 407.7 399.7 392.1 375.9 363.6 355.6 344.7 334 327.2 317 313.7 303.1 293.8 286 276.1 269.7 256.5 244.7 232.1 225.4 224.9 226 229.7 236.4 241.8 247 254.2 265.2 280.6 295.2 316.6 334 342.2 340.3 334.3 337.2 333.7 331.9 323.8 325.9 331 341.5 351.6 366 382 400.4 420.3 436.7 457.2 484.4 511.7 539.5 567.9 587.4 587.8 577.3 574.2 564.5 555.8 544.8 535 529.8 518.1 509.9 506.7 498.9 497.8 487.9 472.7 471.3 453.5 437.2 409.4 384.7 363 324.6 289.3 234.4 224.6 206.2 183 163.1 142.8 123.2 102.1 79 61.5 45.8 32.6 23.2 10.3 -1.2 -1.2 -1.2 -1.2 -1.2 -1.2 -1.2
209.4 220.5 229.2 238.3 251.2 266.9 275.2 293.5 312.6 331 347.2 368.2 384.3 393.7 401.7 393.4 347 378.8 439.3 461.4 490.6 508.7 523.7 535.3 548.4 559.5 573.5 590 607.1 624.9 642.7 658.5 671 676.9 682.4 690 698.7 711.1 718.1 724.2 724.3 721.3 741.2 749.4 751 750.4 758.8 763.4 767.1 777 785.7 780 780.9 773.6 755.2 734 720.5 702.2 679.7 650.7 628 620.2 617.6 610.2 608.3 604.9 591.9 581.9 573.8 567.3 562.6 557.8 556.9 559.5 542.4 534.8 525.3 519.5 518.6 510.1 503.6 495.1 489.4 480.9 471 465.7 463.5 455.9 448.9 444.4 440.3 440.1 437.6 448.8 443.5 444.1 442.3 438.6 435.6 431.6 429 420.3 418.6 415.1 403.2 393.6 381.5 365.6 351.3 342.9 336.3 328.4 320 312.3 303.1 297.9 285.4 278 268.9 256.3 242.9 229.8 222.3 220.9 222.8 228.3 231.2 234.9 242.3 250.2 264.2 281.9 300.4 318.4 326.6 328 327.9 327.4 324.4 321.9 317.7 322.6 329.8 338.7 350.4 364.9 380.3 398.4 417.6 437.2 459.5 484.2 515.1 539 563.5 578.6 578.9 570.6 562.3 554.9 547.8 536 530 519.7 511.8 502.8 495.6 487.1 480.8 476.2 463.8 454.2 430.5 403.9 389 358.2 336.9 302.5 278.2 247.9 204.5 187.8 170.6 149.1 126.6 105.9 90.2 69.2 53.2 37.4 26.9 15.6 5 -1.2 -1.2 -1.2 -1.2 -1.2 -1.2 -1.2
200.7 211.5 218.4 230.2 240.3 251.1 266.3 281.8 303.4 323.6 335.5 356.9 373.4 382.3 383.6 347.4 343.3 410.9 443.2 472.1 492.1 511.4 528.9 537 550.6 559.7 585 597.3 616.2 631.8 644.3 666 675.7 675.1 683.3 688.4 688.8 713.4 725.1 726.9 724 740.6 750.4 757.2 756.8 758.1 768.2 778.7 775.3 786.1 782.7 780.2 775.9 752.2 730 704.3 688 667.3 647.3 624.5 608.9 598.5 591.5 584.6 577.9 576.7 559.5 547.9 544.4 542.3 539.9 536.3 535.4 533 523.9 518.6 515 510.9 511.4 503.7 498 488.5 482.1 475.5 468.3 463.2 461.8 453.8 449.1 444.1 437.8 430.7 432.6 433.1 431.7 438.4 446.4 438.7 435.4 434.2 430.2 427 427.4 423.6 419.6 410.6 389.9 376.4 363.8 352.8 345.1 336.6 328.5 319.7 311.4 302.7 292.7 285.9 276.8 266.3 250.9 237.9 224.6 217.2 218.2 220.2 220.6 226.9 231.3 238.6 252.9 269.6 288.1 304.1 315.3 318 319.4 317.1 315.1 314.3 311.4 318.7 326.6 336.4 347.7 365.2 381.3 399.1 419.5 437.7 460.4 488.5 518.3 539.3 562.9 567.4 567.6 560.3 554.9 549.2 542.5 531.1 524.1 513.6 503.9 496 484.6 476.3 465.3 466.2 455 438.4 423.3 391.3 360 337.1 307.2 280.4 257.3 230.9 207.7 174.5 155.3 136.2 115.5 96.6 75.9 61.7 44.8 31.5 20.5 8.9 -1.2 -1.2 -1.2 -1.2 -1.2 -1.2 -1.2 -1.2
195 202.9 210.1 219.8 227.1 241.7 257.3 273.1 287.7 311.4 324.4 337.4 358.2 361.6 358.3 316.5 360.6 409.2 436.3 461.1 484.8 505 519.2 532.6 549.9 571.1 584.2 597.1 616.2 632 648.1 658.9 662.4 670.8 684.4 695.2 692.7 713.1 721.3 723.7 734.2 746.5 752.7 760.5 773.5 773.3 779 781.8 785.8 788.9 782.5 773 748.9 729.4 700.8 677.2 659.4 647.1 627.2 606 595.2 582.5 576.4 565.5 559.2 553.3 543.7 538.9 530.6 523.9 518.5 518.9 515.3 515 506.3 501.2 502 503.2 502.8 495.4 490.3 481.6 476.9 470.6 461 456 453.4 448.7 445 439.7 435.4 427.9 428 426.7 423.7 428.5 438 430.3 429.8 434.7 431.5 438.9 439.2 434.8 428.2 416.5 404.9 388.5 379.6 367.2 352.9 347.1 338.4 327.5 317.5 308.8 300.6 294 285.5 276.4 260.2 246.2 230.1 218.1 212.1 214.3 215.4 217.2 219.6 228.7 241.5 258.9 278.9 292.4 302.5 307.5 310.3 307.4 307.7 307.6 308.5 315.5 326.3 336.3 346.8 366.2 383.6 401.5 418.1 437.9 468.3 493.3 522.6 542.6 562.6 565.7 564.9 558 555.2 546.5 535.3 528 520.3 510 498.6 490.9 476.8 465.8 456 447.4 440.3 408.9 395.2 365.5 338.8 313.6 287.2 260.3 235.6 210.2 188.5 167.7 143.5 121.1 105.1 85.2 66.1 50.7 35.3 22.2 12.9 3.5 -1.2 -1.2 -1.2 -1.2 -1.2 -1.2 -1.2 -1.2
187.7 191.1 200 208 222.3 232.9 246.3 259 277.9 299.9 312.7 323.7 338.8 342.9 311.6 314.9 377.8 410.6 430.1 450.2 476.5 498.6 515 532 542.3 563.6 574.6 583.4 612.7 633.3 639.1 649.8 660.2 672.2 689.6 699.7 702.2 712.2 720.3 725.6 728.8 754.1 757.1 768.3 780.1 782.3 785.7 789.6 793.3 788.8 782.2 760.3 727.7 705.4 686.8 663.5 645.7 628.3 612.1 598.3 583.2 569.9 566.5 556 549.8 542.8 533.4 529.8 517.6 512.2 505.5 504.6 501.3 501.9 492 487.6 488.1 491.9 492.5 487.7 482.8 476.8 472.2 463.6 457.3 451.6 447.8 442.2 438.3 435.6 431.7 423.9 422.7 420 417.7 425.1 430 425.6 425.2 430.8 429.9 451.8 454.9 445 432.9 419.9 409.1 397.7 385.5 371.2 357 348.8 341.4 332.5 322.9 317.8 306.6 300.3 290.9 279 265.6 250.9 235.9 221.8 212.9 208.1 209.7 210.1 213.4 222 232.5 249.8 270.1 278.2 291.7 303.3 302 300.4 299.3 299.8 304.8 311.5 323.2 336.3 355.3 368 384.8 403.3 421.5 440.8 470.6 500.8 527.7 543.5 558.6 555.1 555.4 549.7 550.2 541.7 533.1 521.9 516 505.2 498.1 484.4 471.3 454.8 438 429.8 412.3 390.8 365.9 342 317.6 295.8 263.6 240.2 217.9 192.4 171.6 152.1 133.6 112 94.2 78.7 62.1 44.4 31.8 20.1 9.3 -1.2 -1.2 -1.2 -1.2 -1.2 -1.2 -1.2 -1.2 -1.2
178.8 182.9 190.1 200.2 213.6 224.4 237 247.2 262.9 281.6 294.4 310.7 318.5 315.3 295.5 331.1 369.9 391.5 414.2 434.4 466.7 483.3 503.7 526 533.4 549.2 560.4 577.4 601 625.8 631.1 651.1 664.4 676.5 690.3 695.4 694.5 722.4 725.7 732.4 736.4 757.3 762.9 770 771.7 782 787.9 798.5 802.7 787.5 775.8 745.2 706.8 688.3 668.3 651.3 631.7 623 604.3 595.5 580.1 566.8 558.7 554.4 547.4 539.6 531 518.6 510.5 501.6 495.6 490.7 484 480.5 476.2 475.6 475.3 480.8 482.2 481.3 481 473.6 465.5 456.6 452.9 446.7 443.8 438.6 434.2 430.6 427.2 424.7 418.4 415 413.4 414.9 419.3 421.5 421.7 426.9 433.9 452.7 461.5 455.6 441.8 430.1 416.2 406.5 391.6 375.3 361.8 351.7 343.7 332.9 326.2 319.1 312.8 304.7 296.1 284 271.5 256.8 240.4 223.5 211.3 204.3 202.6 205.6 208.2 214.8 226.1 241.6 255.3 268.3 282.5 295.2 295.5 297.4 291.7 296.2 304.1 311.3 323.9 337.5 354.6 370.9 387 407.7 427.1 450.5 478.9 503.4 526.5 549.8 550.9 546.8 543.8 540.5 535.9 528 520.4 513.9 510.6 501.5 492.4 482 461.1 445.6 429.1 411.9 390.9 370.2 354.3 326.9 293 272.4 247.3 221.4 201.6 176.9 154 135.5 119.3 102.1 80.9 63.8 54.3 43.4 26.3 13.8 -1.2 -1.2 -1.2 -1.2 -1.2 -1.2 -1.2 -1.2 -1.2 -1.2
176.1 188.2 193.9 197.3 206 216.3 224.9 240.6 257.2 272.2 284.6 294.9 298.4 279.4 300.8 326.9 349.2 372.2 397.3 421.2 447.1 465.2 489.9 512.4 517.9 539.8 549.6 576.7 591.1 610.2 629.3 646.2 656.5 670.2 681 687.8 695 710.5 726.6 737.8 743.6 757 768.5 775.6 777.1 788 794.7 800.7 798.7 783.5 759.3 730.8 694.8 670.9 660.1 640.5 626 612.5 599.6 592.9 578.4 571.6 566.1 554.5 553.2 542.7 533.2 522.1 510.7 499.1 488.2 481.8 464.5 461.1 464 465 466.8 470.5 474.8 472.9 473.1 465.1 461 455.1 447 441.8 438.5 432.8 427.8 424 420.5 416.2 413.1 411.3 409.6 411.3 411.6 414.6 418.2 423.1 435.8 452.3 464.6 465 452.4 438.4 424.5 408.4 396.4 382.3 368.1 356.2 344.5 336.1 328.1 322.5 315.1 309.4 300 286.5 273.2 259.7 242 224.5 211.8 204.1 201.7 200.6 204.6 210.3 221.9 238.2 250.6 259.6 271.1 281.9 288.8 288.5 286 296.4 301.7 309.9 323 336.7 354.8 372.9 389.9 409.7 432.7 461.2 482.3 505.1 531.5 543.3 544.7 535.8 532.6 529.7 524.6 516.4 510.4 505.3 498.1 494.5 489.6 481.1 462.4 439.5 429.8 404.3 376 340.4 334.2 312.8 283.8 249 227.6 202 183.4 161.7 140.7 122.9 106.3 88.2 72.7 52.3 39 34.6 20.4 8.9 -1.2 -1.2 -1.2 -1.2 -1.2 -1.2 -1.2 -1.2 -1.2 -1.2
182.2 186 190.1 198.6 203.9 208.4 218.5 233.9 247.6 260.2 271.2 280 274.2 271.8 289.3 317.1 334.2 358.5 382.3 407.2 423.5 446.9 472.6 488.9 496 517.2 541.5 558.9 578.3 596.4 627.1 648.7 657.9 669.9 674.8 684.8 693.5 707.2 718.8 726.5 732.8 754.7 770 775.7 780.9 783.8 804.3 805.6 797.7 783.6 748.4 717.7 689.2 661.6 649 636 624.8 610.2 600.6 593.3 583.1 574.3 566.8 560.1 561.4 561.5 545.8 523.1 516.4 500.2 480.8 462.2 450.5 444.6 450.9 453.4 454.7 460.1 466.3 465.4 466.1 456.2 453.6 444.8 441.1 436.8 433.5 425 419.2 416.8 414.6 409.3 407.3 405.1 404 404 405.4 408.9 413.9 423.8 439.6 453.5 464.2 467.1 463.9 450.4 432.6 411.5 397.4 384.4 371.5 360.6 350.2 339.4 330.8 324.1 316 307.2 297.6 285 270.6 254.8 239.3 225.2 212.7 200.9 199.4 198.7 202.7 208.4 218.5 230.9 244.7 254.7 263.8 271.5 276.8 277.7 282.6 292.7 299.5 309.3 323.2 335.5 355.1 371.9 390.6 412.7 438.4 468.7 490.7 512.4 532.1 535 539.3 528.9 522.5 515.8 516.6 502.2 495.9 488.1 488.8 494.9 481.2 474.2 457.3 435 414.8 391.4 367 337 303.8 286.5 266.4 238.6 209.5 185 165.1 147.4 129 110.6 92.6 75.9 62.1 44.7 29.7 17.4 10.1 -1.2 -1.2 -1.2 -1.2 -1.2 -1.2 -1.2 -1.2 -1.2 -1.2 -1.2
195.2 192 193.6 197.6 206.1 215.7 228 231.5 238.8 247.6 257.4 266.8 261 263.7 279.9 306.2 322.2 341.9 365 387.5 404.1 431.5 455.9 472 492.5 510.2 541.4 556.2 569.6 599.3 628.7 643.1 655.2 667.6 662.4 685 695.2 701.7 705.2 714.1 724.9 748.4 762 777.3 787.4 779.9 799.3 801.3 789.2 774.6 740.7 711.9 682.7 657.3 643.2 631 619.9 610.1 598.5 590.8 584.2 574.6 567.3 568.1 585.7 568.1 540.8 515.2 502.5 487.6 466.2 450.6 436.6 429.7 435.7 442.3 446.7 448.9 451.8 454.5 454.1 446.5 443.3 440.2 434.2 430.3 424.6 418.5 414.7 409.6 406.8 403 399.4 397.2 396.2 392 397.4 401 409.3 418.8 431.1 440.8 452.1 463.5 466.7 458.5 439.7 422.1 402.1 389.4 379.1 363.7 354.1 343.3 332.7 325.1 313.3 305.6 294.9 280.5 266 251.2 234 219.8 210 201.2 197.1 201.2 204.5 206.9 216.9 227.9 238.5 246.5 256.8 264.3 267.7 272.7 280.1 291.5 299.3 309.3 323.8 335.8 356.6 370.8 392.1 417.8 447 476 506.3 521 527.8 530.1 527.8 523.2 512.2 501.2 504.6 490.1 482.5 476.1 480.2 474.2 474 466 455.2 432.1 409 388.3 359.6 328 299.8 252.5 243.9 219.1 195.7 169.8 153.1 134.8 117.7 99.3 80.6 67.7 52.8 35.3 19.4 7.1 -1.2 -1.2 -1.2 -1.2 -1.2 -1.2 -1.2 -1.2 -1.2 -1.2 -1.2 -1.2
195.7 201.2 202.2 201.9 206.7 209 221.9 230 236.7 243.8 250.4 255.6 254.7 257.1 274.4 293.2 311 328.1 347.6 370.2 391.1 411.2 435.7 454 477.4 499.3 516 534.3 567.7 599.2 624.7 642.4 653 659.4 663.2 682.4 695.5 702.5 709.5 721 739.6 754 768.1 779 788.6 790 798.6 805.1 794.5 780.7 744.9 703.1 676.1 657.9 638.2 626.8 615 603.7 592.6 584.1 580 574.7 566.5 562.3 575.2 563.4 533.8 510.1 490.7 470.3 445 433 423 418.4 423.4 428.3 436.8 440.5 443.5 441.7 441.4 437.7 433.6 431.8 427.3 423.1 418.1 413.7 409.5 403.1 401.6 396.7 392.7 391.4 387.7 385.1 386.6 390.9 400.3 408.4 415.2 426.4 447.6 459.1 464.9 460 447.4 426.3 411.1 399.3 384.7 369.5 356.5 342.7 330.8 322.9 317.5 301.5 291.8 275.7 261 247.1 229.8 218.7 207.8 199.6 197.9 201.2 204.7 206.5 215.7 225.4 233 240.5 248.2 255.6 264.6 271.1 277.5 287.7 297.3 311.3 327 337.8 355.9 373.9 392.5 423.3 456.7 483.2 508.3 520.3 520.6 525.9 520 512.4 499.8 492.8 487.4 478.6 472.9 465 464.9 464.1 467.7 452.8 449.5 427.3 407.8 377.4 352.8 324.6 294 261.7 220.3 203.8 180.1 159.1 138.4 120.9 106.8 88.4 73.5 56.7 42 28.5 10.6 -1.2 -1.2 -1.2 -1.2 -1.2 -1.2 -1.2 -1.2 -1.2 -1.2 -1.2 -1.2 3.7
201.3 211 212.5 215 213.5 219.2 219.6 230.9 236.4 244.6 244.7 246 251.2 251.7 269.6 289 312.8 329.9 344.1 359.6 371.8 395.7 413.3 432.4 449.5 477 494.9 533.8 563.7 589.3 608.4 624.3 635.6 628.9 656 670.7 696.6 707.5 718.4 730.5 741.3 756.2 770.4 782 785.4 794.3 786.6 796.5 794.3 775.4 748.5 704.6 685.5 666.7 637.4 625.7 616.3 606.4 594.2 585 577.8 569.4 564.2 551.3 545.7 549.3 537.4 515.5 489 460.5 435 422.4 412.7 408.5 410.8 421.3 425.1 431.3 432.4 429.4 430.6 428.6 424.1 419.5 416.8 414.9 410.8 406.5 403.3 397 395.2 390.2 387.4 384.3 381.4 379.4 381.4 382.6 390.3 400.6 404.9 414 433.1 451.7 459.9 457.2 450.9 430.4 417.4 405.8 388.8 374.6 360 344.6 329.5 320.1 309.7 295 285.3 269.8 255.5 240.3 227.2 216.6 205.9 199.2 197.1 199.8 201.9 205.8 212.5 220.1 228.1 237.1 241.6 251.4 258.4 266.1 275 285.6 298.1 311 328.8 343.5 355.7 376.4 399.3 430.3 468.7 486.5 506.1 514 511.2 512.3 504 499.8 489.9 482.5 467 469.1 461.9 455.8 455 455.8 454.3 447.4 440.7 432.7 409 377.1 348 318.3 284.5 256.1 225.9 189.1 167.4 146 126.1 107.7 89.4 77.2 62 48.5 35 19.6 8.3 -1.2 -1.2 -1.2 -1.2 -1.2 -1.2 -1.2 -1.2 -1.2 -1.2 -1.2 5.7 8
211 217 219.8 221.8 219.3 222.8 236.7 226.8 231.2 240.2 239.1 242.6 244.6 251.9 268.8 291.4 299.7 324.7 333.9 346.1 359.7 379 390.4 416.3 432.8 452.2 472.5 508 544.2 574.8 590.2 608.7 602.9 621 643.6 669.5 689 699.9 710.4 726.6 735 749.7 755.9 768.8 782.3 786.5 780.5 781.3 775.7 768.6 743.4 713.1 688.1 675.3 645.9 635 625.8 615.5 600.6 590.9 587.4 582.3 583 562.8 548 531.8 504.3 503.1 485.4 453.7 429.1 414.1 404.8 398.5 405.7 409.7 414.7 417.8 422.1 421.5 421.4 418.4 415.6 413.2 408 403.2 402.7 398.1 393.5 393.1 388.3 384.8 381.7 381.1 376.4 373.4 373.7 377.4 386.3 393.3 398 405.7 421.3 441.7 451.3 448.1 448.5 435.6 421.7 410.8 392.9 379.3 362.8 342.2 324.6 315.9 307.5 289 278.2 264.2 251.8 236 224.1 212.9 204.6 199 196.2 198.9 200.1 204.2 211.3 217.5 224 229.2 237.5 247.6 254.3 264.7 272.7 284.7 295.6 311.2 326.1 343.5 358.2 378.4 405.6 435.5 469.5 487.4 504.4 504.5 503.7 501.5 492.5 488.8 481.6 475.3 463.6 456.2 453.8 448.4 445.4 446.4 450.6 449.9 431.9 427 416.9 386.5 360.2 317.9 280.5 246.3 216.9 187.4 162.5 127.4 113.5 97.5 80.8 64.3 52.3 40.3 26.3 13.9 -1.2 -1.2 -1.2 -1.2 -1.2 -1.2 -1.2 -1.2 -1.2 -1.2 -1.2 5.8 9.9 13.5
223 224.2 224.4 229.9 234.9 229.3 235.3 234.5 227.7 233.2 236.2 240.1 241.6 251.6 260.2 269.8 286.9 299.6 313.6 332.8 343.8 357.5 372 397 411.7 433.1 457.4 488.5 519.6 552.9 573.5 583.4 587.3 616.3 637.4 661 675.2 688.5 697.9 716.7 725.3 737.8 747.5 754.8 764 777.2 773.8 768 769.3 757 747.1 721.4 710.6 683.1 664.7 648.8 643.5 629.6 616 604.6 600.4 601.6 597.1 580.3 556.5 542.2 525.9 504.1 480.2 462.4 429.6 408.9 398.5 390.6 396.4 399.8 404.8 406.2 407.2 409.5 410.6 409.6 406.9 405.9 400 396.7 392.1 389.4 385.9 385.6 383.6 378.3 375.7 375 369.8 369.2 370.9 375 380 384.8 391.7 400.5 414.9 428.5 436.7 438 438.5 435.1 424.4 410.4 394.9 380.8 361.4 339.9 320.3 305.9 297.8 283.3 270.5 255.2 245.9 231.6 220.3 211.2 202.6 198.5 195.8 197.7 199.6 202.9 209.3 215.5 218.2 229.3 235.6 242.7 252.8 261.6 271.8 281.2 294.4 308.5 323.3 340.8 356.9 380.9 409.7 441.7 464.2 472.5 488.3 493.2 488.7 488.7 477.8 476 470.9 464.9 456.9 450.5 439.6 441.2 439.8 431 444.8 455.1 431.6 420.8 420.8 392.3 347.6 315.8 270 237.4 205.8 179.6 155.8 134.5 110.5 89.8 72.9 56.3 40.5 29.8 19.5 7.5 -1.2 -1.2 -1.2 -1.2 -1.2 -1.2 -1.2 -1.2 -1.2 -1.2 6.8 10.4 14.4 18.2
