ncols 200
nrows 82
xllcorner 390000
yllcorner 204550
cellsize 50
191.2 208.6 224.6 232.4 235 235 233.4 227 218.8 203.1 194.4 190.2 189.7 191.7 197 202.1 207.9 210 212.8 215.7 222.8 228.4 238.6 241.5 243.4 243.8 246.7 252.7 255.3 254.5 253.4 252.3 250.9 248.7 246.8 244.2 242.2 238.4 234.1 229.1 223.9 217.9 211.6 205.5 203.9 194 184.4 198.7 212 218.2 225.3 231.4 238.7 246.4 251.2 253.7 254.8 254.7 254.5 254 254.1 254.2 254.1 253.9 253.7 253.2 252.4 251.8 251.4 250.9 250 249.8 248.9 247.7 246 244.1 241.3 236.5 224.4 218.6 213.5 209.2 208.1 209.6 209.9 208.9 204.3 195.5 175.7 166.9 154.2 149 158.5 167.1 177.9 191.9 203.2 210.2 218 225.4 231.4 232.9 232.2 230.8 229.2 226.2 227.4 227.6 227.2 226.5 225.6 225.3 224.7 222.8 221.1 222.9 223.1 222.5 222.1 220.7 219.7 218.9 217.1 215.4 214 213 212.8 212.3 211 209.4 207.3 204.9 201.7 195.9 194.5 201.1 200.8 202.3 206.5 210.7 212.6 214.5 216.7 218.9 221.5 222.7 224.1 224.7 224 223.3 223.5 223.4 224.2 225.1 225.4 225.5 225.3 225.3 225 224.3 222.6 223.2 218.3 215.2 211.7 207.7 202.3 194.5 191.3 187.2 185.4 185.4 187.5 187.1 183.6 176.3 171.8 168.9 163.5 159.8 158.9 158.3 154.6 150.3 149.4 155.2 160.9 167.3 173.3 177.8 181.7 180.7 175.9 171.5 170 171 178.7 185.8 192.8 195.5
190.3 206.7 225.1 236 237.7 237.8 238.4 239.2 233.7 227.8 221.8 216.3 212.4 209.8 207.1 211.3 214.6 216.3 220.3 226.2 230.5 230.3 234.3 240.2 244.2 245.1 248.9 254.3 256.6 256.3 256.3 256.6 256.3 255 252.4 249.8 246.1 241.4 235.9 230.4 224.8 219 212.6 211.5 211.2 198 183.1 190.3 196.2 207 220.2 227.3 234.9 242.9 248.8 252.4 253.8 254.2 254.1 253.4 253.4 253.7 253.9 253.9 253.8 253.6 253.1 252.6 252.5 251.5 250.9 250.7 249.2 247.8 246 243.8 240.5 235.7 231 226.2 223.6 220.6 219.5 218.8 218.8 215.5 208.9 198.9 181.3 167.5 157 149.5 156.2 166.1 172.1 180.7 191 200.8 207.4 219.1 228.4 231 230.4 229 227 223.8 225.5 226.1 226 225 224.6 224.2 223.4 221 218.9 221.9 222.7 222.4 221.7 220.8 220 218.7 217.1 215.2 213.8 213.7 213.6 212.9 212.1 210.5 209.2 207.8 205.5 202.7 195.2 192 194.8 200.7 204.9 208.5 211.2 213.7 216 218.5 220.4 221.6 223.1 222.7 221.6 221.1 221 221.8 223.3 224.9 225.8 225.9 225.9 225.6 225.2 224.8 223.9 220.3 223.5 218.6 216.2 212.7 208.9 205.7 200.7 198.2 196.7 196.6 196.2 193.3 188.3 183.1 179 176.5 172.3 167.4 165.8 165.6 161.9 157.2 151.1 147.8 149.9 156 164 170.9 175.2 174.8 170.3 165.4 162.8 171.7 179.4 184.9 190.2 192.4
179.2 194.4 215.8 234.4 238.1 238.5 239.6 240.8 241 241.4 241 237.9 233.3 230.8 230.7 231 233 236.3 241 241.7 241.5 240.5 237.2 236.6 242.8 246.8 251.3 256 257.7 258.8 259.2 259.8 258.8 257.2 254.6 251.2 247.6 242.7 237.8 232.7 226.8 221.7 216.6 217.5 216 208 192.2 181.9 182.6 196.7 215.6 224.5 231.8 238.1 246.4 250.5 252.8 253.6 253.3 252.7 252.8 253.2 253.6 253.6 253.9 254.1 253.6 253.1 253 251.8 251.4 251.3 250.2 248.3 246.1 243.7 240.6 238.4 237.1 234.9 232.9 230.8 228.7 226.6 223.4 217.9 209.3 201.4 190.2 176.7 156.7 149 150.7 160.4 163.4 168.8 178.3 187.7 198.9 209.3 223 228.3 228.5 227.2 224.6 220 223.5 224.2 224.7 223.4 222.9 222.2 221.7 216.8 219 221.8 222 221.7 221.1 220.2 219.2 218.1 216.8 215.1 213.5 213 213.4 213.7 212.9 211.6 210.7 209.4 207.8 206.1 202.8 196.6 189.7 201 207 209.7 211.9 213.7 215.6 217 218.4 219.2 220.2 219.5 218.9 218.8 220.4 222.7 223.8 225.4 226.2 226.3 226.3 226.2 225.8 225.2 224.4 223.8 221.4 221.7 219 216.6 213.5 211.2 208.9 206 204 203 201.2 198.8 194.5 189.1 185.8 183.7 180.9 177.4 174 172.4 170.8 165.8 160.6 153.9 148.5 145.8 152.9 163.7 167.9 168 163.6 158.6 161.7 171.3 177.6 183.1 187 189.1
166.9 184.7 201.6 222.4 236.6 238.8 240.1 241.3 241.4 242.3 243.3 242.4 241.3 240.7 240.7 242.2 243.5 244.2 244.1 244.1 243.7 242.5 237.5 242 244.5 248.7 253.9 257.7 260.4 262 262.5 261.3 260.1 257.8 255.2 251.9 248.2 243.4 238.3 232.9 228.5 223.5 221.7 221.3 218.9 213.4 203.8 188.4 180.4 192.1 207.1 220.8 228.7 235.1 243.8 248.9 251.1 251.8 251.8 251.6 251.6 252.1 253 253.7 254.2 254.2 254 253.5 252.9 252.3 252.1 251.5 250.5 248.9 246.5 243.7 242.7 241.2 240.3 238.2 236.3 234.1 231.9 228.9 225.5 218.7 209.6 202.6 195 186.8 174.5 156 149.2 149 150 157.2 166.6 175.5 190.1 204.2 217 224.5 225.9 225 222.1 211.4 220.2 222.1 221.9 221.5 220.5 219.7 216.7 213 219.4 221.3 221.2 221 220.4 219.3 218.3 217.3 216 214.5 212.2 212.3 212.8 213.2 212.5 211.7 210.6 209.9 208.5 206.8 204.9 201.5 190.5 196.8 204.6 208.8 211.1 212.3 213.4 214.6 215.8 216.8 216.8 215.9 216.3 219 222.1 224.2 225.1 226 226.7 226.6 226.6 226.5 226.2 225.6 224.7 223.8 223.2 222.3 220.1 219 217 214.8 212.1 210.2 208.1 206.5 204.8 203.1 200.2 196.2 193.1 191.2 188.5 185.8 182.7 179.6 175.9 172.1 168.2 160.7 155.6 149.5 146 153 161 162 157.9 156.3 162.5 168.5 174.4 179.1 182.8 184.1
154 173.4 190.8 211.2 230.9 238.6 240.5 241.3 241.6 242.2 242.5 242 241.1 240.6 241 242.5 244.1 244.5 244.8 244.7 243.3 242.2 239.2 242.3 246.6 252.5 257.2 259.6 261.9 263.4 263.3 262.3 260.7 257.7 255.2 251.8 248.1 243.6 238.8 233.8 229.4 225.9 223.8 222.1 219.3 214.9 206.7 190.8 180.4 195 211 219.5 227.9 236.1 242.3 247 248.8 249.8 249.7 249.2 250.9 252.1 253 253.8 254.4 254.4 254.5 253.9 253.1 252.8 252.6 251.7 250.7 249.2 248.1 246.3 245.2 243.8 242.3 240.5 238.4 235.9 232.9 229.6 224.5 217.5 210.9 203.9 198.5 193.1 184 170.7 157.2 150.7 148.6 147.7 157.5 164 180.3 200 212 220 222.5 222.5 219.4 204.6 210.7 211 213.6 217.5 214.9 210.5 205.9 214.9 220.1 220.4 220.3 219.7 219.1 217.9 216.8 215.5 214 212.4 210.4 210.9 211.6 212 211.6 210.5 209.6 208.9 207.8 205.5 203.6 200.8 194.9 193 202.5 205.5 207.4 209.2 211.1 211.8 212.5 212.9 212.9 214 217.6 220.4 223 225.6 226.6 227.5 227.3 227 226.7 226.4 226.1 225.8 224.9 223.9 223 219.6 222.5 220.5 218.3 216.7 214.8 213.3 210.9 208.9 207 205.7 203.9 200.6 198.1 196.3 193.4 190.8 188 184.5 180.9 177.3 172.6 167.2 162.4 157 149.6 146.3 153.9 157.5 153.3 157.5 161.6 163.8 169 173.7 176.8 178
155.6 162.8 180.8 204.4 224.5 236.8 240 240 240.5 241.3 241.8 241.6 240.9 240.5 240.5 242.2 243.8 244.5 245.1 244.5 243.2 242.5 242.6 244.7 248.3 254.5 258.5 260.6 262.9 264 263.7 262.2 259.9 257.8 255.1 251.4 247.5 242.9 238.3 233.6 229.1 225.6 223.1 221.4 217.7 213.6 204.3 185.9 183.8 199 213.1 221.1 229.5 236.9 241.3 245.1 246.1 246.5 247 247.6 249.5 251.8 252.7 253.4 254.1 254.4 254.5 254.2 253.8 252.8 252.5 251.8 251 249.8 248.7 247.5 246.1 245 243.8 241.9 239.3 236.4 232.9 228.8 222.1 214.9 208.4 200.6 196.1 191.5 182.9 172.3 165.2 154.2 156.8 154.5 148.8 157.2 175 197 207.8 215 216.5 217.1 214.7 200.3 198.7 202.2 200.7 199.9 203.7 197.3 210.7 218.5 220.4 220 219.7 219.3 218 216.6 215.3 213.5 212.1 210.2 209.2 209.1 209.8 209.7 209.7 208.9 208.2 207.2 204.7 202.6 200.2 197.6 190.5 192 200.5 202.7 203.6 205 207.4 207.2 206.9 208.6 212.2 216.2 219.4 222 224.1 226.3 227.3 227.3 227.1 226.8 226.5 226.2 225.7 225 224.7 223.5 222.6 221.9 222.6 220.4 219.6 218.3 216.8 214.8 212.6 211.3 209.4 207.9 206.6 204.7 202.3 200 197.3 194.7 192.5 188.8 185.1 181.3 177.3 172.4 165.6 159.7 155.1 149.3 144.8 151 150.2 155.3 155.5 156.1 160.4 166.4 170.1 172.2
168.7 156.5 173.4 196.9 217.3 233.8 239.1 238.9 239.1 240.1 240.7 240.5 239.8 239.8 239.9 241.6 243 244 244.8 244.7 244.5 246.2 246.8 248.3 253.4 255.8 259.5 261.5 263.7 264.5 263.7 262.1 259.9 257.1 254.5 251.5 246.6 241.9 236.9 231.6 227.4 223.2 220.3 219.3 216.3 210.8 199.2 179 189.2 206.1 214.4 221.9 229.4 236 240 242.7 243 241.9 243.6 246.6 249.1 250.9 252.1 252.8 253.5 254.2 254.1 253.8 253.3 252.8 252.4 251.7 250.8 249.8 248.8 247.8 246.8 245.6 244.4 242.8 240 236.4 232.7 224 213.5 208.6 203.9 195.9 189 180.2 172.8 165.9 164.5 165 162.2 156.3 147.2 155 174.5 197 204 209.1 209.3 206.9 197.8 192.9 188.3 192.4 192.4 193.1 191 205.9 217.1 219.7 220.1 220.1 219.4 217.9 217 214.7 213.3 211.5 209.9 208 206.3 207.4 207.9 207.7 206.4 205.2 204 202.1 200.1 197.5 195.3 191.5 185.3 192.4 197.4 198.3 198.6 199.2 200.4 199.4 203.6 210.6 214.9 217.8 220.2 222.7 224.9 226.7 227.3 227.1 226.9 226.6 226.2 225.5 224.9 224.3 223.8 222.9 222.1 221.3 220.4 222 220.5 219.2 217.2 216.1 213.9 212.8 211.7 210.2 209 206.8 205.1 203.1 200.5 198.8 196.3 192.9 189.2 185.3 181.5 175.7 172.1 164.1 158.2 153 146.6 145.5 147 148 147 148 151.4 158.5 163.2 164.4
185.4 166.1 161.5 188.8 211.5 226.9 237.1 237.8 238 239.7 239.9 239.1 237.6 237.8 238.7 240.4 241.4 242.8 243.7 244.1 246.8 252.2 253.3 253.9 257 258.9 260.9 263 264.3 264.3 263.4 261.1 258.5 255.8 252.9 250 245.7 240.7 235.8 229.7 224.8 220.8 216.9 214.2 212.8 207.8 195.4 177.1 190.1 207 213.5 220.7 229.3 234.5 237.6 234.4 232.7 232.8 242.3 246.3 248.3 250 251.4 252.1 252.8 253.5 253.5 253.3 252.8 252.4 251.9 251.3 250.4 249.5 248.6 247.7 246.8 245.8 244.7 243 239.9 236.7 232.1 218.4 211 204 195.8 189 180 171.6 170.8 173.4 170.8 165.7 160.3 153.9 146.1 156.9 176.5 192.3 198.9 201.6 200.4 195.2 192.2 190 183.4 179.7 181.7 187.7 201.7 215.6 219.2 219.8 220.1 219 218.1 216.8 216 214 211.7 209.6 207.6 205.9 204.2 204.2 204.5 204.2 202.6 200.5 197.4 195.1 192.5 190.4 189.5 188.5 184.1 184.2 192.1 191.3 192.2 193.5 194.1 198.2 207.8 212.4 216.4 218.7 220.6 223 225.1 226.1 226.8 226.8 226.6 226 225.3 224.7 224 223.5 222.8 221.9 221.3 220.6 219.7 218.5 220.2 217.5 216.9 216.6 215.2 214.1 213 211.8 210.7 208.9 207.1 205.3 203.2 201.6 199.8 196.8 193.3 189.6 185.8 180.4 176.7 172.5 167.2 161.2 155.7 150.9 147.7 146.3 145.5 144.4 144.1 151.1 157.3 159.6
202.6 184.1 164 175.3 202.1 218.1 233.1 236.5 236.6 238.1 238.2 237.1 236 235.7 236.6 238 239.5 241 242.4 244.6 250.9 254.8 256.4 258 260.4 260 261.5 263.9 264.2 264 262.7 260.2 257.8 254.9 251.9 247.7 243 237.7 233.2 227.3 222.7 218.6 214.1 210.5 206.7 204.2 193.3 176.8 190.2 207.1 212.6 219.6 228.3 231.8 227 227.8 227.1 229.1 236.7 244 246.8 248.6 250 250.9 251.7 252.5 252.9 252.6 252 251.5 251.3 250.9 250 249 248.2 247.5 246.6 245.7 244.4 242.8 239.3 235.8 231.6 217.8 210.9 203.8 197.5 193.5 189.9 187.7 188.4 184 173.6 163.5 157.7 149.7 144.8 160.5 176.6 184.1 188.8 189.9 189.2 189.3 187.9 184.4 179.3 178.8 185.1 193.2 211.3 218.3 219.7 220.4 219.6 218.7 217.7 216 214.6 213.3 211.3 209.2 207.4 205.5 203.2 200.9 199.8 199 197.1 196.4 196.6 196.3 196.9 196.8 196.9 196.2 193.2 186.9 180.9 182 185.6 188 194.3 198.6 205 210.5 215.4 217.2 219.1 221.1 223.5 225.8 226.1 226.4 225.1 224.6 224.1 223.7 223.2 222.3 221.4 220.5 219.7 219.1 218.6 218.4 211.8 218.7 218.3 217 216.2 215.1 213.8 212.7 211.7 210.2 208.6 208.3 206.7 204.8 201.8 199.3 196.9 193.7 190.1 185.4 182.1 178.5 174.4 170.2 166.1 162.6 157.7 153.9 152.4 150.8 146.7 143.9 151.4 156.4
215.2 200.5 180.2 166 189.1 206.8 219.6 230.3 234.5 235.8 233.9 229.7 228.1 232 235.1 238.7 241 242.4 243.5 246.8 252.6 255.8 258.4 260.2 259.9 260.5 262.4 264.4 264 263.6 262.2 260.4 257.6 254.3 250.9 246.2 240.7 235.3 230.2 224.4 219.6 215.3 209.9 205.9 202.3 197.4 189.4 176.7 188.7 205.5 210.6 217.4 222 223.4 223.1 222.4 222.3 226.3 229.6 241.4 244.6 246.5 248.3 249.4 250.3 251 251.4 251.7 251.2 250.9 250.7 250.3 249.5 248.6 247.8 247.2 246.4 245.4 243.7 242.3 239.6 236.6 232.2 218.6 213.2 209 205.5 203.4 200.4 198.2 194.4 187.6 174.7 160 153.8 147.9 142.6 162.2 168.3 175.1 179.6 180.9 181.1 180.6 178.2 176 173.5 183.4 190.9 200.9 215.9 219.6 220 220.1 219.2 218.3 217.4 215.9 214.3 213.2 211.9 210 208 205.5 201.9 201.9 202.8 202.7 202.6 202.6 203 202.9 202.8 203 202.8 201.7 198.9 194.7 187.8 180.3 181.5 190.3 196.5 199 201.2 206.4 211.6 214.8 216.9 219.3 221.9 224.5 225.3 225 224 222.7 222.3 221.8 221.3 220.4 219.5 218.4 217.1 216.3 216.2 215.6 217.5 218.4 217.8 217 216.1 215.4 214.7 213.3 212.5 211.5 210.6 209.4 208 206.5 204.4 202 199 196.2 193 190.3 187.7 184.5 181.4 177 173.2 169.5 164.4 161.4 159.1 154.9 150.3 145.3 144.4 150.8
228.4 212.8 196.1 178.7 169.9 190.6 205.4 213.7 219.5 217.8 210.5 213.8 229.1 232.9 236.1 239.8 242.3 243.4 246 249.5 253.6 256.6 259.3 259.9 259.3 260.3 263 264.6 264.4 263.4 261.6 259.7 254.5 252.7 250.5 243.9 238.5 233.1 227.5 219.9 214.7 210 206.1 204.2 200.3 194.8 189.8 177.9 186.7 202 207 212.7 215.7 217.6 216.4 214.6 218.1 223.7 227.4 237.7 241 243.2 244.8 246.2 247.8 249.1 249.5 250.4 250.4 250.4 250.1 249.7 249.1 248.2 247.5 246.8 246.1 244.8 243.7 242.2 239.6 237.2 233.2 229.3 218.4 215.4 211.6 206.9 205.9 203.6 198.9 190.9 177.7 160.1 152.2 145.5 149.7 156.7 161.1 166.6 166.5 164.1 162.4 162.1 165.5 171.3 178.2 186.2 194.8 211.2 217.7 220 220.3 219.6 218.8 217.9 217 215.5 214.5 212.8 211.1 209.7 207.6 203.9 204 206.3 207.2 207.6 207.7 207 206.2 206.7 206.3 206.3 206.2 204.3 202.2 198.7 194.1 187.7 180.1 188 193.1 196.3 199 201.5 205.5 210.5 213.9 217.9 220.5 222.8 223.8 223.5 222.6 221.3 220.4 219.6 219.5 218.7 217.5 216.2 214.5 213.2 213.5 214.9 216.9 217 218.4 217.2 215.9 215.7 215.7 214.1 212.9 212.4 211.1 209.9 208.7 207.3 205.8 202.9 200.4 198.3 196.1 193.5 190.8 189.4 187.4 184.3 179.7 175.4 172.4 168.8 164.9 160.1 155.3 150.7 144.4 143.9
233.5 226 208.1 194.9 183.2 178.6 179.6 193.5 196.2 194.1 212.5 227 234.6 234.9 237.6 240.3 243.1 245 250.6 252.3 254.9 257 259.8 259.5 258.9 260.2 263.2 264.2 264 262.8 261.1 258.7 255.2 252.9 249 243.3 238.3 232.8 226.3 220.8 215.7 211.7 206.3 198.6 194.4 192.1 190 179.8 182.7 196.8 203.4 208.8 210.4 211.4 209.6 207 212.7 221.2 225.2 234 236.4 238.4 236.3 238.2 244 246.9 247.8 248.6 249.4 249.8 249.5 249.1 248.7 247.8 247.1 246.4 245.1 244.3 243.4 242 240.6 238.3 236.1 233.2 229.2 223.4 216.1 215.3 212.8 209.8 203.4 193.5 182.1 163.1 152.9 143.7 151.8 152.4 155.8 158.5 152.1 151.2 156.7 165.6 174.5 182.5 187.6 194.7 207.6 214 219 220.4 219.8 219.3 218 216.8 215.6 214.2 213.2 211.9 210.2 208.5 206.3 204.3 207.5 209.3 210 210.1 209.4 209.3 208.8 208.4 207.6 207.9 207.2 205.7 203.7 200.6 197.1 193 183.7 181.2 185.9 191.8 196.5 198.7 199.9 204.7 211.1 215.8 219.4 220.9 221.7 222 220.9 219 217.1 216 216.9 216.8 215.3 213.5 211.2 210.1 212.6 214.9 216.1 216.9 216.3 217 215 215.5 214.9 213.7 212.7 211.7 211 209.8 208.8 207.5 205.1 203.7 202.5 200.1 198.3 196.7 194.2 192.6 190.5 187.8 184.2 181.4 178.8 174.6 170.8 165.8 161 156.8 151.7 144.6
234.8 234.8 225.1 208.8 199.2 194.2 191.7 190.1 198.1 212.9 228.3 233.6 236.5 237.7 238.6 241.2 243.6 248.6 253.2 255.5 256.7 257.9 259.5 258.9 258.6 260.2 263.4 264.2 263.7 262.4 260.7 258.4 255.8 252.6 248.3 243.1 239.1 233.9 229.5 224.3 219.2 213.6 209.2 204 197.4 189 179.9 175.9 180.8 195.4 208.7 213 207.7 204.2 201.5 201.6 210.8 217.3 222 228.2 229.3 226 226 228.1 235.2 243.2 245.6 247.2 248 248.2 248.4 248.4 248.1 247.4 246.7 245.6 244.7 243.9 243.1 241.6 240.6 239 237.5 235.2 232.2 228.9 225.3 222.3 218.2 210.7 203.9 195.3 182.2 170.8 159.8 147.2 144.1 147.9 149.3 150.5 148.1 157.9 172.2 177.1 185.2 190.3 195.1 204.7 214.6 219.2 220.5 220.7 219.7 218.6 217 214.7 213.3 212.6 211.7 209.4 207.8 206.5 205.2 206.5 209.7 211 211.2 210.9 210.2 209.9 209.3 208.8 208.6 208.1 207.4 205.5 204.2 200.7 197.1 194.2 190.7 179.6 177.9 183.1 191.9 193.2 195.8 201.1 207.6 212.8 217.8 219.3 219.9 220.2 218 215.9 213.8 212.5 213.4 214 212.7 211.3 208.6 208.1 211.9 214.4 215.3 216.1 216.1 216 214 213.9 213.9 213.1 212 211 210.2 209.6 208.5 206.4 205.1 204.2 202.8 201.3 200.1 198.9 197.1 195.3 193.2 190.3 187.9 185.7 183.4 180.4 175.7 173.4 168.1 162.9 158 153
236.7 237.4 236.3 231.7 215.9 210 207.9 208.1 211.1 224.6 233.3 235.8 238 239.9 242 243.1 246.8 251.1 255.4 257.8 258.7 258.6 258.6 257.6 258.4 261.2 263.2 264 263.2 262 260.2 258.2 255.7 252.5 247.9 243.3 239.6 235.3 230.3 223.8 217.7 212 206.8 203.9 200.7 196.1 178 175.8 185.5 195.3 213.8 212.4 205.2 195.9 191.2 201.1 207.9 213.9 218.2 219.7 217.1 214.5 216.3 222.4 228.6 238.7 242 244.1 245.3 246.3 246.5 246.7 247 247 246.2 245.3 244.5 243.7 242.2 240.9 239.9 238.8 237.8 235.9 233.6 230.7 227.8 224.2 219.4 209.8 203.5 197.8 190.8 186.6 172.7 155 145.9 144.5 141 141.3 142.5 147.6 162.7 174.9 187.5 196.1 205.1 214.5 220.2 221.4 222.2 222.6 221.1 219.4 218.1 216.3 213.9 212.1 210.7 209.2 208.1 206.9 207.2 208.8 211 211.5 211.5 211 210.4 209.1 208.9 208.5 208.1 207.7 207.3 205.6 203.6 201.9 198.2 195.4 191.6 187.6 178.6 177.8 183.9 189.2 196.5 201.8 205 210.1 214.6 216.6 216.9 216.3 214.5 212.5 210.6 208.6 209.6 210.5 209.8 208.2 203.4 208.1 211.9 213.8 214.7 214.9 214.8 215 215.2 213.5 212.7 212.5 211.7 210.3 209.3 208.9 207 205.9 205.1 203.5 202.5 201.5 200.7 199.2 198.5 197.2 194.7 193.1 191.3 189.4 187 184.3 181.5 178.2 174.2 170.2 164.4 158.8
238.2 239.2 239.3 238.2 237.4 235.7 233.2 232.6 230.2 231.9 233.5 237.5 240.4 244.8 246.6 247.3 250.9 252.4 256.6 260 260.7 259.5 257.6 256.7 258.3 261.5 263.6 263.2 262.4 261.6 259.8 257.5 255.1 252.3 247.4 243.4 239.6 236 229.8 223.9 217.1 209.7 203.2 197.8 197.3 193.9 172.9 174.7 191 201.1 208.5 206.1 197.6 188.3 192.4 203.1 206.1 207.1 210 212.4 209.7 205.8 208.8 215.8 225.7 227.5 231.4 237.8 242.4 244.4 246 246.1 247 246.3 245.9 245.1 244.4 243.1 241.9 240.5 238.9 238 237.2 236.5 234.9 231.9 228.7 224.3 219.8 212.1 207.2 200 196.6 194.5 190.1 176 165.1 159.6 156.6 150.4 142.8 144.2 154.2 176.1 190.9 201.5 214.1 220.3 223 224 224.6 224.4 223.8 222.3 220.3 218.1 216.4 214.8 213.3 211.9 210.8 210 209.9 211 211.8 211.8 210.8 209.9 209 208.2 206.7 207.3 206.8 206.2 205.8 206 204.4 201.8 198.8 194.8 191.5 187.8 181 173.5 179 190.3 197.8 202.5 203 206.4 210.7 212.9 213.4 212.6 210.9 208.3 205.2 202.6 204.9 204.6 204 201.2 197.7 205.4 209.8 212.5 213.8 213.9 213.6 213.6 213.5 213.2 211.6 211.4 211.2 210.4 208.7 206.7 206.2 204.9 204.4 202.6 201.8 201 200.8 199.9 198.6 197.8 196.1 195.1 193.7 192.4 190 187.5 185.2 181.9 178.3 173.8 169 161.1
240.4 241.7 242.9 243.1 242.5 241.6 239.1 237.7 235 234.1 234.4 240.2 245.4 248.7 250.9 252 254.1 254.9 257.8 260.9 260.9 259.1 256.9 256.5 258.5 261.6 263.4 263 261.8 260.9 259.1 256.8 254.4 251.8 247.2 243.4 239.5 235 229.5 223.9 218 210.9 205.3 198.4 189 184.7 171.7 173.4 182 190.4 199.2 197.8 191.7 184.5 186.6 199.1 201.2 200.4 205.5 204.3 199.3 198 206.8 216.4 223.1 221.4 223.6 225.5 237.4 242.7 244.9 245 246 245.6 245.2 244.7 244 242.9 241.6 240 238 235.9 235.9 235.7 234.1 231.1 227.4 223.7 217.2 211.1 206.6 200.3 197.4 196 192.6 185.9 177.2 166.9 161 154.2 146.7 143.4 155.2 176.7 194.8 211.4 221.9 224.5 226.1 226.7 226.7 226.4 226 224.5 222.7 221.2 219.8 218.2 216.6 215.9 214 213.6 214.2 214.2 214.6 213.9 212 210.4 208.9 207.2 206.1 204.7 204.5 204.5 204.4 204.1 203.1 201.2 198.5 194.2 189.6 184.9 177.8 172.8 182.3 189.6 195.1 199.8 199.9 202.4 206.6 210 209.5 208.5 205.9 202.4 198.2 196.1 198.5 195.9 192.8 191 193.2 202.8 208.5 211.4 212.7 212.8 212.7 212.5 212 212.8 211.1 210.4 210.1 209.9 208.6 206.6 205.5 203.9 202.8 201.6 200.4 199.5 199.5 198.6 197.8 197 196.3 195.7 195.1 194.1 192.3 190.1 186.9 184.1 180 175.7 169.4 160
247.2 248.8 249.4 249.7 249.6 248.2 245.2 242.2 238.9 238.5 239.8 243 248.8 251.6 254 254.8 254.9 255.7 258.1 260.2 259.9 258.2 256.3 256.5 259.4 262.4 263.1 262.5 261.5 260.3 258.4 256 253.9 251.3 247.3 243.2 239.3 234.1 229.5 223.7 218.1 212.5 205.6 200.4 196.4 187.2 180.5 170.5 175.3 185.4 192.2 195.1 189.7 180.6 178.9 190 189.7 194.5 197.8 192.4 189.7 193.6 206.3 214 213.4 213.6 216.2 222.4 229.3 240.9 243.2 244.4 244.7 244.7 244.6 244.1 243.3 242.2 241 239.3 237.1 234.4 233.4 233.2 231.1 228.3 223.6 217.7 213.5 209 204 198.8 195.9 193.5 189.4 182.2 174.5 163.3 154.2 147.1 139.4 146.3 161.7 180.3 200.9 216.9 224.8 226.4 227.9 228.3 228.1 228 227.5 226.4 225.4 224.1 223.2 221.8 219.6 219.5 218.5 217.9 217.8 217.2 216.4 215.7 214.7 212.7 210.8 208.5 206.2 204.6 202.7 202.2 201.6 201.3 200.6 199.5 197.5 193.6 188.3 181.5 172.8 172 182.3 186.8 191.2 195.9 196.3 199 203.7 205.2 204.9 203.4 200 195.5 190.5 189.8 191.5 188.2 185.7 184.6 189.9 200.9 206.1 209.5 210.6 211.5 211.6 211.4 211.2 210.6 211.9 209.6 209.8 209.6 207.7 206.9 205.3 203.8 202.5 200.6 198.4 198 197.5 196.9 196.5 195.7 196.2 195.7 195.3 194.7 193 190.9 187.9 184.4 180.3 175 167.6 159.3
253.6 254.8 255.8 256.1 256.1 254.8 252.5 249.3 246.4 247.9 248.5 249.7 251.7 253.6 255.2 254.9 254.2 255.9 258.7 259.4 258.5 257.2 255.5 257.5 260.3 262.2 262.4 262.1 260.5 259.3 257.1 255.1 253.2 251 247.6 243.1 239.2 233.9 228.2 223 217.2 212.4 207.4 203.5 199 195.9 191.4 171.6 169 172.7 183 186.5 179.3 174.4 170.4 180.7 179.3 184.6 186.1 179.3 184.3 197.6 205 206.3 204.5 205.5 211.6 219.7 224.7 238 241.4 242.8 243.3 243.3 243.5 243.4 242.3 241.4 240 238.2 236.1 233 227.7 228.6 226.8 219.5 216.3 213.1 210.3 203.4 198.3 193.8 187.9 183.2 178.7 172 164.6 155.7 147.1 139.7 140 152.2 168.3 183.7 202 219 224.8 227.2 228.2 228.9 229 228.8 228.1 227.7 227.2 226.1 225.1 224.3 223.6 222.9 222.6 221.9 221.2 220.2 219.2 218.4 216.7 214.6 212.5 210.2 207.9 205.6 203.5 201.4 199.6 197.3 195 194.7 193.8 190.4 183.7 179 169.9 170.5 179.7 182.6 187.3 191.6 191.2 194.5 198.4 198.7 198.6 197.4 194 189.1 183.5 182.9 184.4 181.8 179.5 179.9 188.5 198.7 203.5 206.5 208.4 209.1 209.3 209.8 210.1 209.9 209.2 209.5 209.2 208.2 207.7 206.3 205.2 203.6 202.4 201 199.3 197.3 195.7 194.3 194.1 194.5 195.4 195.4 195.2 194.4 193.3 191.4 188.2 184.5 180 173.6 165 157.3
258.3 259.9 260.4 260.7 260.2 259.4 257.9 255.8 254 255.1 255.1 254.7 254.5 255.7 255.4 254 253.3 255.5 257.7 258.5 257.5 254.2 255.5 257.7 260.2 262.1 262 261.3 259.7 258.1 256.2 254.4 252.5 250.3 246.7 242.9 239.1 233.8 228.9 223 216 210.3 205.9 202.7 199.9 196.6 187 172.2 174 168.3 171.9 176.1 172.7 168.7 165.7 167.8 166.1 164.3 165.9 170.4 177.8 194.7 200 193.9 195.9 199.7 208.4 218.5 223.9 237.3 239.5 240.4 240.6 241.8 241.7 241.5 241.1 240.1 238.6 236.8 234.7 230.2 219.9 216.1 215.4 213.4 211.1 207 202.1 195.8 186.5 178.2 173 168.2 163.1 156 151.3 150.8 145.4 138.7 146.8 160.9 175.9 190.6 206.6 219.7 224 227 227.8 228.8 229.1 229.3 228.8 228.6 227.9 227.2 226.6 225.7 225.7 225.2 224.4 223.3 222.7 221.7 220.7 219.4 217.9 216.4 214.2 211.9 209.6 207.4 205.8 203.9 202.5 200.4 195.2 190.8 187.5 183 182.9 182.5 176.9 168.4 169 170.9 171.8 184.7 184.3 186.4 190.1 188.3 188.4 188.6 188.3 183.5 178.3 175.6 176.8 174.6 171.2 178.7 189.3 196.4 200.1 203.3 205.3 206.3 206.6 207.5 208.7 209.4 209 208.7 208.1 207.8 206.3 205.2 204.2 202.8 201.8 200.4 198.8 196.8 194.6 192.2 191.6 192.2 194 194.8 194.6 193.6 192.2 190.7 187.9 184 179.8 173.1 164.7 156.4
261.7 262.9 263.6 263.8 263.5 262.9 261.3 260.1 259.4 259.4 258.7 257.8 256.8 256 254.5 252.9 251.4 253.8 256.1 256.6 255 254.9 256.9 258.7 261 262 261.3 260.4 258.8 257.3 255.4 253.6 251.5 249 245.9 242.4 238.8 234.1 229 223.5 216.6 210.3 204 196.3 192.3 187.7 178.4 186 182.9 173.8 167.2 167.3 167 169.8 170.1 169.4 166.9 167.1 163.5 161.3 166 180.1 184.7 185.6 190.6 198.7 208.8 217.2 229.4 235.3 236.8 237.7 238.7 239.8 239.8 239.8 239.3 237.9 236.7 235.3 233 219.6 214.2 210.1 208.2 206.6 203.2 198.2 189.4 178.2 170.6 165.2 160 159 160.2 162.3 165.1 156.4 142.8 138.2 150.8 166 181.6 193.4 205.6 216.6 222.2 226.2 227.1 228.5 229.1 228.7 228.9 228.2 227.6 227.2 226.6 226 225.8 225.2 224.8 224.3 223 222.1 220.7 219.3 218.2 217 215.5 213.7 211.4 209.4 208.1 206.3 203.8 200.6 195.2 191.3 193.7 194.7 193.8 189.3 183.6 179.8 174.9 170.5 167.2 170.8 172.2 173.8 179.4 177.8 179.3 179.4 180.2 177.6 172.6 170 171.4 168.8 169.5 179.2 187.1 191.8 196.7 199.9 201.9 203.4 204 205.2 206.8 208.5 208.6 208.1 207.3 206.4 205.1 204.3 203.3 202.1 201 199.5 197.7 196 194 192.3 189.4 190.8 192.9 193.9 193.6 192.4 191.2 189.5 186.5 183.2 179.1 173.9 167.9 157.9
263.1 264.4 264.9 265.3 265.6 265 263.9 262.3 261.8 261.5 260.5 259.2 257.8 255.8 253.7 251.2 249.9 251.8 253.1 252.7 251.7 255.4 257 259 260.1 261 260.6 259.5 258 256.4 254.7 252.7 250 247.6 245.2 241.7 238.3 233.7 229 223.6 216.8 210.9 203.3 199.2 197.7 194.7 180.6 194.7 187.1 180.1 175.5 173.2 177.5 181.6 178.3 176.7 179.4 174 166.8 160.4 160.3 166.7 171.5 179.8 193.8 203.9 211.5 219.3 229.9 232.9 234.4 235.3 236.3 237.8 237.6 237.3 236.6 236.2 235 233.6 224.5 213.4 211.5 204.1 202.2 198.5 192.2 184.4 175.9 171 170.1 169.8 169.8 171.1 175 179.8 177.5 162.2 141.1 137.4 147.8 161.6 176.1 189 201.1 213.7 220.7 225.4 226.8 228.4 228.6 228.5 228.3 227.7 227.2 226.8 226.4 225.9 226.6 225.6 224.9 224 223.1 221.6 220 218.7 217.8 217 215.3 213.9 212.7 211.2 209.3 206.8 202.1 198.4 195.4 198 199.9 199.7 196.2 192.9 191.6 188 183.9 179 174.5 168.2 164.9 164.1 164.6 169.1 169.8 172.2 174.5 172.8 168.8 165.7 166.2 163.2 166.9 173.7 179 182.8 192 195.6 197.6 199.6 201.7 203 205.1 207.3 207.1 206.6 204.7 204.8 203 202.5 202.1 201 199.9 198.4 196.7 194.9 193.2 191 187.9 189.2 192.2 192.5 191.9 190.5 189.6 186.8 184.5 181.6 178.6 174.2 170 162
263.6 264.9 265.7 266 265.9 265.8 265.1 263.9 263.1 261.9 261.1 259.6 258.4 255.9 253.6 250.4 248.6 246.8 246.8 249.4 254.1 256.6 258 258.6 259 259.3 258.5 257.4 256.6 255.4 253.3 251.2 248.7 246.4 244.1 241 237.6 233.3 228.4 223.2 217.4 211.5 209.6 208.4 204.9 198.8 185.4 202 192 188.8 186.8 183.2 186.5 185.1 182.8 185.9 183.9 172.8 159.8 159.8 163.8 170.4 176 183.2 193.5 203.1 215.8 223.8 228 229.4 231.3 233.2 235.5 236.6 236.3 236.3 235.2 234.2 233.3 230.6 215.2 209.9 203 196.5 191.2 186.4 183 182.1 180.4 177.7 178.1 180.3 182.7 184.9 186.7 186.6 180.4 165.4 145.4 137.5 144.8 157 170.8 184.5 196.1 209.5 219.5 224.3 227.4 228.3 228.6 228.4 228.3 227.2 226.8 226.4 226 225.6 226 225.7 224.5 223.3 221.9 220.4 219 217.6 216.5 215.1 214.1 213.3 211.9 210 207 203.2 200.5 199 201.4 202.9 203.1 201.8 199.9 198.6 197.1 194.3 191.4 187.2 182.8 177.9 173.2 169.5 164.6 163.3 162.3 167.1 172 170.3 164.9 160.4 159.1 158.3 157.2 160.4 167.2 174.7 184.9 189.8 192 195.1 198.9 201.9 204.2 205.1 205.5 204.6 203.4 202.7 202.2 201.2 200.3 199.5 198.2 197 195.3 192.9 190.8 188.8 187.3 187.9 190.9 190.8 190 188.6 186.1 183.9 181.6 179.1 176 173 169.1 164.4
264.9 265 265.3 265.5 266.1 266 265.7 264.7 263.3 262.1 261.1 260 258.8 256.9 255.3 250.7 246.9 241.6 248.3 253.2 255.7 257.3 257.8 258.7 259 258.7 258.2 256.2 255 253.5 251.5 249.5 247.4 245.1 242.8 240 236.9 233.1 228.3 224.3 221 218.5 215.9 212.1 207.8 198 189.4 207.3 199.4 196.1 193.9 193.7 193.4 193.1 196.9 195.9 183.3 170.7 159.2 164.5 177.9 181.7 184.8 188.2 196.6 204.6 213 217.9 222.9 226.2 230.3 233.5 234.7 235.6 235.7 235 234.1 232.2 230.8 228.1 212.7 207.8 201.4 197.2 196 195.4 194.9 194.5 192.5 193.3 195.1 196.8 197.3 194.9 193.2 188.3 179 163.1 151.9 137.2 140.9 150.6 164.9 181.1 194.7 207.3 218.1 224.5 227.3 227.5 228 227.5 227.7 227 226.8 226.4 225.9 225.5 225.1 225.3 224.7 223.3 221.6 220.6 219.5 218.2 217.3 215.5 213.2 211.4 210.7 207.7 206.5 205.6 205.5 204.4 205.5 205.3 205.4 204 202.7 202.1 200.7 198.2 196 192.7 187.5 182.6 177.3 171.8 168.6 171 168.6 163.2 161.5 160.3 159.4 161.7 166 163.9 157.9 156.4 162.3 173.2 181.8 184.5 186.7 193.8 198.5 201 202.6 202.9 202.9 203.2 202 200.9 201.4 199.2 198.6 197.9 196.7 195.4 193.7 191.7 189.2 186.1 185.3 187.8 189.3 188.4 186.8 184.9 182.5 179.7 177.1 174.6 172.1 169.3 166.1 162
265.4 266 265.7 266.1 266.2 266 265.7 265.3 263.8 262.2 261.3 259.9 258.2 257.5 255.5 251.5 246.4 240.9 248.7 255.3 256.2 257 257.5 258.3 258.5 258 257.7 255 253.5 252.6 250 248.2 246 243.8 241.5 239 236.3 233 229.5 226.3 223.9 221.3 217.6 213.4 209.5 199.7 194.7 210.7 210.1 208.4 207.9 210.4 209.7 202.5 200.6 197.9 183.7 171.5 160.2 170.7 184.7 191.9 196.2 196.7 202.7 209.2 216.7 221.6 225 229 232.3 233.9 235 234.8 235.1 234.2 232.4 229.7 226.8 221.2 214.8 214.4 213 210.9 210.6 210.4 210 208.8 208.1 210.9 211.2 208.8 205.9 201.8 196.6 188.5 174.3 157.8 152.8 137.7 138.1 148.4 164.8 181.5 197.2 210 219 224.3 226.7 227.1 226.8 226.7 227.3 226.7 226.7 226.5 226 225.4 226.2 225.7 224.2 223.3 222.4 221.2 220.1 219 217.9 216.8 215.4 214 212.9 212.1 210.9 209.8 208.7 207.7 208.1 207.5 207.5 206.4 205.5 204.5 203 201 198.7 195.1 190.7 185.2 179.6 175.9 173.5 178.1 178.2 176 173.8 173.2 175.9 177.6 175.7 172.1 166.3 157 159.5 172.4 178.4 179.3 188.4 194.1 198 199.8 200.7 200.9 201.6 201.5 201 200.2 198.1 197.6 196.1 196 195.2 193.7 192 190.3 188.2 182.7 181.6 187.1 187.6 185.6 183.6 180.5 177 172.5 168.1 165.7 164.6 162.6 160.3 156.1
265.5 266.1 266.8 266.6 266.4 266.1 265.6 265 264.1 262.3 261.4 259.7 257.8 257.2 255.9 253.7 249.6 237.9 242.1 250.7 255.6 257 257.2 257.7 257.6 255.4 254.9 253.6 252.1 250.8 248.8 246.9 244.7 241.9 239.4 237.2 234.8 232.3 229.9 227.5 225 221.8 218.6 215.4 211.3 201.3 200.4 213 215.5 216.4 217.3 217.3 215.7 208.7 202 197.5 186.5 172.5 161.7 168.1 182.9 194.6 202.8 208 214.6 220.5 223.6 226 228.6 231.2 233.3 234.1 234.3 234.3 234.2 233.4 232 230.7 228.1 225.2 225.8 225.7 225.3 224.5 223.6 223.1 223.3 222.6 220.6 220.9 219.6 217.3 213.1 207.7 198.9 188.8 172.9 156.3 149.3 146.4 136.6 146.4 165.2 186.1 201.4 213 219.2 223.7 226.1 226.1 225.6 226.2 226.2 226.3 226.7 226.2 225.8 225.7 225.5 225.1 224.2 223.7 222.9 221.7 220.6 219.2 218.2 217.5 215.9 215.5 214.7 214.1 213.1 211.9 211 209.9 209.9 208.9 208.8 207.8 206.9 206.2 204.2 201.9 199.7 197 193.2 189.4 184.5 181.1 178.7 182.1 183.6 183.9 184.4 185.8 185.2 181.4 177.8 171.9 166.1 158.2 158 165.6 173.3 181.6 189.2 193.5 196.1 197.4 198.3 199.7 199.8 200.5 199.8 199.2 197.7 196.3 193.5 192.9 192.6 192.3 190.8 188.9 186.1 180 178.8 184.7 185.2 182.7 179.4 175.1 167.2 164.6 161.6 159 158.2 156.3 153.9 151.3
265.7 265.7 266.2 266.2 266.7 265.8 265.2 264.6 264.1 262.5 261.5 259.9 258.4 258.1 257.1 255.9 254.3 241.9 233.2 237.1 241.4 249.4 255.3 254.4 254 253.8 253.7 251.9 251.1 249.6 247.8 246 243.3 240.5 237.9 235.2 233.2 230.7 228.8 227.2 225.4 222.2 219.1 216.2 213.5 205.7 202 214.3 216.5 217.6 218.9 218.7 216.1 211 204.5 198 189.9 178.3 161.4 164.1 180.6 193.8 203.8 213.9 219.2 222.7 225.4 227.5 229.9 232.3 233.9 234.5 234.7 234.7 234.5 233.9 233 232.1 231.4 230.7 230.7 230.8 230.8 229.6 229.7 229.8 229.7 229.2 228.3 226.9 224.3 220.6 215.8 207.1 195.1 186.3 168.7 159.1 151.6 142.9 137.3 146.9 166 188 201.8 211.8 219.4 222.4 224.3 225.1 224.4 224.5 225.2 225.8 226 226.3 226.3 226.2 225.4 224.6 224.1 223.7 222.8 221.9 220.7 219.8 218.6 217.6 217 216.6 215.8 214.7 214.1 213.5 212.3 211.2 211.2 210.3 209.1 208.4 207.8 206.7 204.9 202.5 200.1 197.7 195 191.5 187.7 184.5 182.3 184.1 186.5 188 188.7 188.4 187.1 182.4 176.2 169.1 160.1 155.8 160.1 168.8 177 183.2 188.6 192.1 193.3 195 196.9 198.3 199.2 199.5 198.9 198.1 197.3 195.5 193.2 190.2 190.6 190.5 189.3 187.5 184.1 177.3 174.8 181.4 181.7 178.6 173.5 165.8 163.2 159.3 156.2 153.8 150.1 148 145.6 144.8
265.5 265.3 265.5 265.7 265.6 265.3 264.9 264.4 263.9 262.8 261.4 260.1 259.3 258.4 257.3 256.2 255.3 250.1 237.8 229.7 230.1 232.8 236.2 245 249.8 251.7 251.6 251 250.1 248.4 246.8 244.8 242.3 240.4 238.3 236.3 233.6 230.6 227 224.9 222.4 220.5 218.6 216.7 214.1 208.1 205.5 213.8 216.4 217.7 218 217.6 215.7 210.7 203.6 196.1 191.1 179.8 162.2 156.2 175.7 189.7 200.6 211.5 219.1 223 226.1 228.3 230.6 232.9 234.5 234.8 235 235.1 234.8 234.5 234.5 233.8 233 232.2 232.4 233 232.8 232.5 232 231.6 231.6 230.9 229.5 228.4 225.3 221.4 215.9 203.5 193.7 181.2 170.8 159.9 150.1 140.8 136.4 150.5 166.1 186.7 199.8 209.2 216.8 220.1 221.9 223.1 222.1 222.8 223.6 224.7 225.8 226 226.5 225.7 224.9 224.4 223.9 223.3 221.6 221.5 220.4 219.3 218.5 218.2 217.4 216.9 216.6 215.5 214.7 214.2 213.5 212.7 212.3 211.3 210.2 209.1 207.6 206 204.5 202.4 200.1 197.7 195.3 192.3 189 186.7 185.2 185.3 187 187.7 188.1 187.9 185.5 181.8 175.9 165.5 155.6 159.2 167 173.7 178.7 183 187.4 188.3 189.9 193.2 195.8 197.8 198.8 198.5 197.9 197.2 196.3 194.1 191 188.8 188.1 188.6 187.2 185.4 180.9 173.8 169.9 176.7 174 169.5 165 162.1 157.7 153.1 150.2 146.6 145.5 144.3 143 142.6
265 265 265.1 265 265.1 265 264.5 264 263.4 262.6 261.6 260.5 259.3 258.4 257.4 256.3 255.2 253.2 245.7 235.3 225.6 227.7 229.4 233.4 240.9 249.6 248.8 249.4 249 247.4 245.8 244.2 242.4 240.1 238.8 237.3 234.3 231.4 228.4 224.8 220.4 216.9 215.5 213.5 209.2 206.2 210.7 215 216.5 216.9 216.7 216.8 214.5 209.3 201.7 194.1 190.4 180.2 162.4 156.1 171.8 185.7 196.7 207.2 218.2 222.2 226.2 228.8 230.6 232.3 234 235 234.9 235.2 234.9 234.5 234.8 234.8 234.2 233.7 233.4 234 234 233.7 233.5 232.9 232.5 231.7 230.2 228.4 225.6 222 216.6 207.1 200.5 194.2 186.5 170.1 153.7 135.8 140.5 152.7 163.9 182.8 195.4 203.9 211 215.4 218.2 218.6 219.6 222 223.8 224.5 225 225.6 226.1 225.4 224.6 224.2 223.6 221.9 220.9 220.2 219.5 219.2 218.2 217.9 217.5 216.8 216.3 215.7 215 214.4 214 213.4 212.4 211.5 210.2 209 207.8 205.8 203.6 201.4 199.9 197.9 195 192.9 190.7 189.1 187.3 186.9 186.2 185.9 186.3 185.8 184 181.2 174.5 163.3 153.1 160.1 169.1 174.4 178 180.6 182.1 184.8 189.8 194.2 196.5 197.4 198.3 197.9 197.3 196.6 195.3 193.8 191.1 188.3 184.1 185 184.7 181.9 177.8 169.1 164.8 165.9 166.4 164.6 160.8 156.4 152.3 151.9 153.9 154.7 154.4 153.5 152.7 151
264.5 264.4 264.3 264.4 264.4 264.5 263.9 263.3 262.6 261.6 261 260.2 258.8 258 257.2 256.3 255.2 253.3 248.8 242.3 227.3 221.5 222.7 227.2 232.2 238.2 244.5 246.5 247 245.5 244.6 244 241.7 240.2 238.6 237.6 234.3 231.2 228.5 225 221.7 218.8 217.1 215 214.9 214.5 214.6 215 215.4 215.6 215.1 215 213.1 207.7 199.8 192.4 188.4 179.4 162.6 154.1 170.9 181.6 193.8 205.6 218.5 223 226.5 229.3 230.9 231.8 233.5 234.2 234.5 234.9 235 234.7 235 235.3 234.7 234.1 234.1 234.3 234.3 233.9 233.3 232.9 232.2 231.4 229.4 227.9 226 222.7 218.1 212.3 207.8 202.7 194.7 180.8 160.3 135.9 139.4 148.2 159.1 175.4 187.1 194.8 200.2 208.8 213.3 215.8 219.8 222.8 224.2 224.4 224.9 225.3 225.2 224.7 224.3 223.9 223 222 220.1 218.9 218 218 217.7 217.3 217.2 216.7 217 216 215.6 214.6 214.2 213.1 212.1 211 209.8 208.3 206.7 204.6 202.3 200 198.1 196.6 194.8 192.6 191.2 190.6 189.2 188.2 186.4 185.2 184.5 184.4 182.7 181.2 176.6 168.4 152.3 158.2 166.1 171.6 174.1 174.3 178.6 185.5 190.9 194.7 196.1 197.1 197.8 197.4 196.8 196 194.4 192.5 190.2 186.3 186.3 181.7 180.4 176 170.6 166.9 163.6 161.7 160 159 155.9 154.9 156.3 159.3 160.9 163.6 164.2 164.6 163.5 159.8
263.5 263.6 263.6 263.4 263.5 263.9 263.2 262.9 262.5 261.2 260.3 259.6 258.1 256.9 256.1 255.4 254.6 252.5 249.4 243.6 234.5 221.5 217.5 221.7 225.8 230.5 231.7 230.7 244.5 244.3 243.7 242.1 241.3 240 238.7 237.3 234.3 231.8 228.5 226.2 224.2 223.5 222.1 219.7 218.2 216 215.5 215 214.8 214.1 213.8 213.2 211.2 204.9 197.2 191 186 177.2 160.6 155.4 169.3 183.9 196.3 205.8 219.2 223.2 226.4 229.6 230.9 231.4 232.9 233.2 233.7 234.1 234.5 234.9 235.1 235.4 235 234.7 234.5 234.2 234 234.1 233.5 233.1 232.3 231.3 229.1 227.9 226.6 224.1 219.9 216 212.2 207.1 200.3 187.4 167 146.7 135.4 140.1 152.3 166.4 180.8 185.6 194.4 203.8 210.6 216.2 220.8 222.9 223.9 224.7 225.3 224.8 224.4 224.3 223.9 222.7 222.4 221 219.4 217.8 216.9 216.6 215 214.9 215.9 216.5 216.1 215.8 215.1 214 213.5 212.6 211.5 210.4 209.4 207.2 205.2 203.4 201.1 198.8 196.5 194.7 193 190.7 189.2 187.6 186.4 186.3 186.5 184.9 183.4 182.3 182.1 180.2 176.6 170.4 158.9 152.4 157.1 162.7 165.9 171.3 177.9 184.5 190.6 194.4 196 196.6 197.2 196.9 196.2 195.2 193.6 191.7 189.6 186.2 185.9 184.8 176.9 175.1 176.4 175.1 171.1 166.4 161.7 161 161 161.9 163.9 166.3 169.6 173.6 174.9 174.2 171.2 165.1
262.4 262.5 262.4 262.2 263 263.3 263 263 262.3 261 260.1 259 257.9 255.9 255.2 254.7 253.7 251.6 249.2 244.5 234.1 225.5 216.8 213.8 217.6 223.9 225.6 226.1 227.2 235.6 242 241.1 240.5 239.3 237.7 236 234.3 232.3 230.2 228 226.6 225.3 223.4 220.9 218.9 217.4 214.8 213.3 213.3 211.9 212 210.8 208.4 199.9 193.1 186.7 180.9 173.7 158.2 158 173.7 189.4 199.6 211.8 219.5 222.8 225.9 229.1 230.9 231.3 232 232.4 232.8 233.3 234.3 235.3 235.8 235.5 235.1 234.7 234.3 234.1 234.3 234 233.8 233.5 232.4 231.3 229 227.8 226.9 225.5 222.2 219.2 214.8 209.5 199.9 191.5 172.2 158 146.8 135.2 141.2 156.5 169.1 177.4 191 201.6 210.7 216.7 221.2 222.9 223.9 224.2 224.8 224.2 224.9 223.8 222.8 222 221.3 220.3 218.6 217.5 216.5 214.9 213.9 213.5 215.1 215.5 215.3 215 214.3 213.3 212.7 211.8 211 209.9 208.2 206.6 204.6 202.7 200.4 198.1 195.9 194.4 192.2 191.3 189.9 188.9 187.3 183.7 181.8 181.7 181.1 177.9 179.2 178.4 176.1 171.1 165.1 155.1 150.9 154.9 161.8 170.3 176.3 182.9 189.3 193.8 195.6 196.1 196.5 196.1 195.4 194.5 192.7 190.8 188.7 185.4 183.5 185.9 183.2 184.7 184.5 182.6 179.7 173.5 166.9 169 171.5 172.9 175.7 178.6 181 182.3 181.5 177.6 174.7 167.6
260.7 260.4 260.8 261.7 262.5 262.8 262.9 262.3 261.6 260.5 259.3 258.1 256.7 254.9 254 253.5 252.6 250.8 248.4 243.1 238 228.1 220.2 213 211.9 214.9 218.3 219.8 222.3 223 225.5 239 238.8 238.4 237.3 235.6 234 232.6 230.7 228.8 226.6 225.5 224.1 221.3 218.4 216.7 213.8 212.1 211.3 210.4 209.1 208.1 203.4 194 186.7 183 176.2 170.5 158.1 160.4 179 191.3 201.5 214.7 218.9 222.2 225.4 228.1 229.5 230 229.9 231.6 232.4 233.5 234.6 235.7 236 235.8 235.4 234.5 234.1 234.2 234.3 234.1 233.4 232.8 232 231 228.8 227.8 226.9 226 224.4 221.1 215.8 210.1 200.2 191.1 178.7 164.6 151.1 140.9 135.5 146.6 158.2 169.9 189.2 200 208 216.3 221.1 222.9 223.5 224.2 224 224.2 223.8 222.9 222.1 221.3 220.2 219.3 218.9 217.3 216.8 216.5 215.3 213.5 213.1 213.8 214 213.9 213 212.3 211.9 211 210.2 209.1 207.6 206 204.5 202.5 200.4 198.8 197.1 196.1 194.4 193.4 191.9 191.1 188.9 185.8 183.7 180.1 176.8 174.2 171.4 168.4 172 169.5 165.4 158.4 150.9 154.4 160.3 168.4 174.7 181.4 187.6 192.7 194.9 195.8 195.3 194.7 194.4 192.8 191.2 189.8 188.3 187.3 187.3 188.1 187.6 188.3 187.5 186.1 182.5 176.4 178.4 180 181.3 182.9 184 187 188.7 188 185.6 180.9 176.4 169.7
259.3 259.3 260.2 261.1 261.9 262.2 262.5 261.4 261 259.7 258.5 257 255.4 253.9 252.8 252.2 251.6 250.6 248.4 244.3 239.4 232.2 223.6 217.7 210.5 209 210.6 211.7 214.1 217.7 222.3 230.5 237.8 237.6 236.6 235.2 233.8 232.2 230.5 228.8 226.7 225.6 224.1 221 218 216.2 213.3 211 208.3 207.5 206.1 204.5 194.9 188.9 182.3 179.8 173.5 166.3 156.5 164.1 181 193 202.5 206.3 211.9 217.7 223.1 226.5 228 227.3 228 230.6 232 233.1 234.4 235.5 235.6 235.3 235 234.5 234.3 234.2 234.1 233.2 232.7 232.1 231.4 230.8 228.4 228 227.1 226.1 224.1 221.2 216.7 211.8 200 193.5 185 171.4 156.4 144.5 134.9 144.3 156.7 167 182.1 193.8 203.5 214.6 220.5 223.6 223.6 223.7 223.5 223.3 223 222.5 221.6 220.6 220.3 219.8 219.1 218.5 217.6 216.8 215.8 214.5 212.4 211.7 212.2 212.2 211.6 210.7 210.3 209.7 209.1 208 207 206 204.9 203.6 201.8 200.3 198.5 197.6 196.6 195.3 194 192.1 190.3 188.9 187.4 185.1 183.5 181.1 176.7 170.8 164.9 161.2 157.1 154.2 150.8 153.4 162.1 168.2 174.7 180.6 186.4 190.9 193.8 195 194.6 194.2 192.5 191.6 190.2 189.8 189.5 190.2 190.8 191.6 188.1 189 188.6 187.2 184.4 183.8 184.4 185.9 186.9 189.3 191 192.1 192.2 191 187.7 182.4 177.1 171.2
258 258.2 259.6 260.3 260.9 261.5 261.3 260.9 260.3 258.9 257.4 256.2 255.1 253.3 251.4 250.1 251 250 248.5 246 242.4 238.6 229.9 221.9 215.8 211.1 206.4 204.4 207.3 210.4 216.9 227.7 236.1 236.4 235.8 234.5 233 231.5 229.9 228.1 226.2 225.2 223.3 220.5 217.8 215 212.3 208.6 205 203.9 201.9 199.8 189.7 186 180.2 176.3 168.7 163.7 154.7 166.3 185.1 194.2 196.8 198.5 201.1 207.3 210.2 222.3 223.3 223.7 227.6 230 231.7 232.7 234.2 234.9 235.1 234.9 234.5 234.4 234.1 233.8 233.3 232.3 232.1 231.4 230.9 230.3 228 227.7 227.4 225.3 223 220.7 217.8 212.5 203.4 195.3 187.8 177.4 163.1 142.9 134.5 140 152 162.4 175.4 185.9 195.8 206.9 219.1 222.9 224 223.8 223.3 223.2 222.6 222 221.2 220.5 219.9 219.7 219.1 218.7 218 217 215.7 214.2 212.7 210 209.6 210.7 210 209.1 208.6 208.1 208 207.9 206.9 206.1 205 203.7 202.6 200.9 199.6 198.7 197.8 196.6 194.6 192.9 191.6 190.9 189.6 188.4 186.1 183.1 180 177.5 173.9 169.6 165.2 159 150.3 154.6 163.9 169.9 174.7 179.7 185.2 189.3 192.6 193.7 193.1 191.8 190.4 189.6 189.7 189.8 191.2 192.9 193.9 193.8 193.4 192.1 190.8 188.1 187.9 188.1 188.7 189.3 191.3 192.8 193.7 194.6 194.6 192.8 189.6 184.3 178.3 171.7
257 257.7 258.9 260 260.3 260.7 260.4 260.5 259.7 258.2 257.1 256 254.7 252.8 251.1 249 249.6 249.8 248.7 246.4 244.2 240.6 236.6 226.1 220.3 215.5 210.2 204.1 200.1 203.2 211 218 232.6 235.1 234.7 233.7 232.2 230.7 228.8 226.9 225.2 223.9 222.2 219.5 217 214.7 211.4 207 203.1 199.1 193.1 191.2 186.8 183.5 178.7 173.7 166 161 153.1 170.4 182.5 186 189.1 192.3 193.3 199 206.2 212 215 221.2 226.6 229 231.2 232.3 233.8 234 234.1 234.2 234.1 233.4 233.2 232.9 232.1 231.3 231.5 231 230.6 229.8 227.7 227.3 226.1 224.6 222.6 220.4 217 212.9 206.8 200 193.2 184.2 171.1 148.8 135.3 137.1 147.2 156.3 169.8 179.3 189.3 200.5 215.8 221.6 223.6 223.8 223.6 223.3 222.4 221.2 220.8 220.4 219.7 219.3 219.3 218.4 217.5 216.3 215.4 213.9 212.4 210.6 207.3 208.2 208.3 207.5 207 206.2 206.9 207 206.9 206.1 205 203.9 202.5 201.3 200.4 199.4 198.4 197.5 195.5 194.4 193.1 192.5 191.7 189.8 187.3 184.3 182.2 180.3 178.6 174.7 168.5 156 149.6 156.9 165.4 170.9 175 179.3 183.2 187.1 189.7 191.8 190.8 189.6 188 188.4 188.9 191.1 193.1 194.9 194.9 194.5 193.8 192.6 195.3 190.2 190.9 191.3 191.8 192.7 193.9 194.9 195.9 196.5 196.2 194 190.7 186 180 173.9
256.4 257.7 258.8 259.5 259.7 260 259.5 259.4 258.9 258.1 256.8 255.7 254.1 252.6 250.8 248.4 246.8 248.3 247.2 245.6 243.9 241.1 238 234.7 228.8 223.2 216.1 210 198.4 195.8 206.3 215.4 222.9 231.9 233.4 232.5 231.2 229.6 227.4 225.3 223.4 221.6 220.2 218 215.2 212.7 209.8 206.3 202.9 195.5 185.6 181.4 181.8 179.6 176.8 172.2 165.2 159.1 152.6 162.9 167.2 170 175.2 180.6 185.6 194.5 202.3 209 218 223.3 226.4 228.1 230.8 232 233 233.3 233.9 233.9 233.5 232.7 231.8 231.5 231.1 230.5 230.2 229.9 230 229.3 227.4 226.5 225.7 224.6 222.6 220.3 217.4 213.1 208 202.6 198.2 188.9 178.4 161.6 140.8 135.3 146.4 155.9 163 173.6 183.4 196.5 211.3 220.6 223.2 223.7 222.4 221.9 220.8 220.4 219.9 219.4 219.6 219.1 218.3 217.9 217 216 214.8 213.5 211.8 209.9 207.6 205 205.3 205.8 204.4 203.4 204.4 206 206.4 205.8 204.7 203.5 202.5 201.7 200.7 199.7 198.4 197.8 196.7 195.4 194.2 193.3 192.3 190.6 187.9 186.4 183.4 180.7 177.4 173.2 166.8 152.6 152.2 157.9 165.2 170 173.9 177.6 180.8 184.4 186.9 188.1 188.6 187.8 186.2 186.8 190.2 192.6 194.8 195.6 195.4 195.2 194.5 193.6 192.5 194.6 192.5 193.2 193.2 194.6 195.7 196.7 197.1 197.5 196.6 194.8 191.5 187.2 180.6 173.3
255.6 257.5 258.3 258.6 258.9 259.2 258.7 258.2 257.7 257.5 256.1 255.3 254 252.5 250.5 248.5 245.7 245.1 245.3 244 242.5 240.4 237.8 233 230.1 224.9 218.3 209.9 200.6 192 202.6 212.1 216.9 224.1 229.5 230.6 229.6 228.3 225.9 223.2 221.3 219.7 218 216.7 214.3 211.6 209 205.5 202.6 199 187.4 175.6 175.1 176.1 173.2 169.9 163 156.9 150.4 155.6 162.7 171.2 178.2 184 190.5 199.1 206.9 216.3 222.3 226.3 229 230.9 230.7 231.7 232.5 233.5 233.7 233.6 233 232.2 231.3 230.1 230 229.8 230 228.9 228.9 228.5 227.1 225.8 225.1 223.9 221.5 218.8 215.8 212.1 207.5 203.8 198.9 192.5 183.1 171.9 154.2 135.8 143.6 152.6 156.8 169.3 182.2 196.4 211.6 220 222.8 222.7 221.6 221.1 220.8 219.5 218.8 219.1 218.5 218.1 217.4 217.1 215.9 214.8 213.8 212.4 210.4 209.1 207 204.6 202.4 202.4 201.1 200.2 202.2 204.5 205.4 205.2 204.2 202.7 202.1 200.7 199.3 198.7 197.6 197.1 196.4 195.4 194.3 193.4 192.2 190.3 188.3 186.1 183 179.5 175.7 170.9 164.5 151.6 150.1 156.2 162.1 166.8 171.8 175.1 178.2 180.8 183.4 185.5 185.7 184.4 183.7 188.2 191.3 193.6 195.6 195.8 195.8 195.3 194.6 194 193.6 194.9 195 194.4 194.6 195.8 197.2 197.9 197.9 197.6 196.7 195.2 192.8 188.2 181.5 174.6
254.7 256.7 257.5 257.9 258.2 258.3 257.8 257.3 257.3 256.4 255.3 254.6 253.3 252.1 250.2 247.6 245.3 241.5 241.6 242 240.5 238.7 228.1 223.4 218 215.9 213.2 210 203.1 189.2 197.9 206.8 212.7 212.7 213.7 222.5 227.5 227 225.1 222.6 219.8 217.6 215.4 214.2 212.1 210.2 207.6 204.3 200.8 197.1 189.8 174.2 169 170.9 170 166.2 162.2 155.3 149.2 158.7 173.7 184.7 189 192.5 197.7 204.6 212.4 219 224.1 227.4 230.1 231.6 232.1 232 232.5 233.2 234 233.2 232.4 231.6 230.5 229.1 228.6 228.8 228.9 228.2 228.4 227.7 226.5 225.4 224.9 223.2 219.9 216.5 213.2 209.8 205.6 202.3 198.1 191.6 184.4 168.2 149.7 138.3 140.1 143.6 151.5 166.7 183.2 201.3 213.4 219.2 222 222.2 221.6 220.2 219.7 219.1 218.5 217.8 217.5 217 216.7 216.5 215.3 214.3 213 211.2 209.3 207.4 206 205.3 203.9 202.3 201.4 199.1 196.8 199.7 202.8 203.7 203 201.8 200.7 199.3 197.9 197.6 196.8 196.3 196.3 195.3 193.7 193 191.7 189.8 187.4 184.9 181.3 177.3 172.9 168.2 161.4 150.7 146.7 150.1 154.9 160.2 165.1 171.3 173.7 176.1 178.3 179.8 180.6 180.2 186.3 190 192.4 194.1 195.5 195.7 195.3 195.7 195.6 195.5 195.4 195.2 198.2 195.8 196.1 197.1 198.4 198.9 199.1 198.5 197.5 195.6 193.7 189.9 184.3 176.6
254 256 256.9 257.2 257.3 257.5 257.4 256.7 256.1 255.3 254.7 253.8 252.6 251.5 249.6 247.1 245 241 233.9 235.2 234.7 226.4 220.7 217.2 216.8 212.3 210.4 207.6 202.8 189.6 190.7 200.6 202.5 204 206.4 210.2 219.8 224.1 224.3 221.9 219.1 216.2 213.5 211.2 209.8 207.3 204.3 200.9 197.7 194.2 189 175 166.9 164.7 166.3 161.6 158.1 153.1 149.5 163.4 185.7 191.8 198 200.3 205.3 211.4 216.9 221.2 225.1 228 230.3 232.2 232.8 232.5 232.4 232.7 232.7 232.5 231.7 230.8 229.8 228.4 227.7 227.5 227.7 227.6 227.7 227.3 226.5 225.7 224.4 222.4 219.4 215.5 211.5 207.5 202.7 199.2 193.4 188.2 181 159.3 143.3 131.8 133.7 141.3 152 169.9 185.5 205.2 213.3 218.7 221.3 222 221.6 220.2 219.3 217.9 217.4 217 217.1 216.4 216.2 215.9 215.1 213.9 212.2 210.4 208.5 207.3 206.6 206.7 206.8 206.3 205.8 203.8 200.5 194.2 197.8 200.9 201 200.1 199.1 197.9 196.5 195.1 194.3 194.7 194.2 193 191.7 191 190 187.8 185.3 182 177.8 173.2 168.3 161.3 151.9 150.2 151.2 146.7 149.4 154.6 160.7 166.8 169.5 171 171.2 171.3 175.8 183.5 188.7 191.6 193.7 194.6 195.2 195.4 194.9 195 194.9 194.8 194.8 194.7 194.9 197.4 196.8 197.6 198.6 199.4 199.9 199.3 197.9 196.1 194.1 191 186.6 179.3
254 255.7 256.2 256.3 256.5 256.7 256.6 255.6 254.9 254.5 254 253.1 251.9 250.7 248.5 246.5 244.2 241.3 233.1 222.9 219.7 219.4 216.6 212.7 208.9 206.2 204 202 199.3 188.8 183.1 189.1 191.2 194.6 197.7 205 208.7 219 221 220.9 218.3 215.4 212.2 207.8 206.2 202.8 199.9 197.5 194.4 189.5 187.7 176.8 166.4 157.8 158.7 154.3 152.7 147.7 156.1 170.1 182.6 189.7 197.7 202.3 209.7 214.8 218.6 222.6 225.3 227.5 229.7 232.2 233 232.7 232.2 232 231.9 231.5 231 230 229 228 227 226.2 225.6 226.8 227 226.7 226.3 225.4 223.8 221.6 218.6 214.7 210.7 206.1 199.7 193.4 189.1 183.4 172.4 150.3 136.7 130.8 132.3 146.3 157.3 172.4 187.7 205.7 212.7 218.4 220.1 220.9 221 219.9 218.4 217.4 216.4 215.8 215.9 215.6 215.4 215.1 214.8 213.3 212.2 211.1 209.8 208.6 208.2 208.5 207.8 207.4 206.7 205 202.5 198.7 191.6 196 197.9 197.9 196.7 196.1 194 191.9 191.7 192.1 191.5 190.3 188.9 187.7 186.6 185 182.5 178.7 173.3 168.2 159.7 152.8 158.4 161.9 159.8 151.3 146.4 149.7 156.7 161.1 162.8 162.2 162.7 168.1 177.9 185.2 189.4 192.6 194 193.9 194.3 194.4 194.2 194.4 194.4 194.4 194.4 194.2 195.1 196.4 198.1 198.1 199 199.8 200.4 199.6 198.5 196.7 194.6 192.2 188.2 183.8
254.6 255 255.4 255.2 255.4 255.6 255.5 254.7 254.4 253.9 252.8 252 251 250.1 247.7 245.5 243.5 240.6 234.6 224.8 216.6 212.7 209.7 207.3 204.3 201.8 197.5 194.7 189.5 183.3 181.1 178.8 177.5 180.8 186.5 197.5 204.4 206.6 214.6 216.2 215.4 213.5 210.7 206.6 203 197.4 194.2 192 188.7 185.2 181.6 175.8 165.9 155.2 149.9 146.7 145.2 150.9 155.9 164.5 173.3 182.9 190.1 197.4 207.6 215.7 219.9 223.5 225.7 228.5 231.2 232.5 233 232.5 232 231.7 231.9 231.3 230.6 229.6 228.3 227.6 226.8 225.7 223.7 225.2 226 225.8 225.4 224.3 222.8 220.7 217.6 213.9 209.8 204.5 197.3 190.9 184.8 173.8 158.1 145 133.2 130.6 141.3 155 164.3 175.5 190.3 206.3 212.2 217.6 220.1 220.5 220.9 219.5 217.9 217 216.2 215.1 215 214.7 215 215.1 214 213.3 212.4 211.6 211 210 209.7 209.2 208.2 207 205.8 203.9 201.8 199.3 195.5 189.2 194.1 195.1 194.2 193.1 191.2 189 187.2 187.9 187.6 186.7 185.2 183.5 181.9 179.8 177.3 173.9 167.4 159.2 154.2 163.8 167.8 165.5 162 155.1 146.9 146.2 148.9 152.2 153.7 155.8 162.1 169.1 178.7 184.8 189.1 191.7 192.6 192.9 192.7 193 193.1 193.4 193.5 193.8 194 194.6 195.3 195.5 199.4 198.5 198.7 199.3 199.9 199.4 198.5 197 194.9 193 190 188.6
254 254.3 254.5 254.5 254.4 254.8 254.1 253.7 253.8 252.5 251.6 250.9 250.2 248.7 247.2 245.1 243.2 240.1 235.8 229.9 220.6 215.7 213.1 209.5 207.6 202.1 199.4 194.5 193.6 194.8 193.2 189.5 186.2 178.8 172.2 186.3 196.4 201.6 203.7 208.1 208.8 208.3 206.1 202.7 197.9 192.6 191 187.3 184.4 183.5 179.2 174.2 164.8 155.8 146.1 141.8 153 165.8 168.2 170.5 176.1 181.8 189.9 199.2 211.2 216.5 219.6 223.1 225.9 229.2 231.3 232.6 233.3 233.2 232.2 231.5 231.4 231.4 230.1 228.7 227.6 226.3 225.5 224.3 222.1 223.5 224.6 224.7 224.3 223.7 221.6 219.4 216.2 213.4 207.9 202.6 195.1 189.9 183.7 166.8 152.2 141.8 132.6 131.4 145.8 158.5 168 178.5 195.6 207.4 213.2 217.1 219.9 219.6 219.2 219.1 217.6 217 215.6 214.2 213.9 214.2 214.8 214.5 214 213.4 212.8 211.9 211.6 211.1 210.2 209.1 207.6 206.1 204.6 202.6 200.4 198 194.5 188.5 188.8 190.3 190.6 189.6 188.1 185.5 181.9 181.4 181.6 180.7 179.7 177.5 174.8 171.4 168.1 162.6 158.2 158.6 166.6 171.7 170.5 167.5 164.1 158.5 148.6 145.7 145.4 145.9 148.2 153.6 160.7 166 177 184.2 187.5 189.4 190.4 190.8 190.8 190.4 191.2 192.1 192.8 192.9 193.4 193.8 194.9 195.5 195.6 198.6 198 198.7 199.1 199.1 198.4 196.5 195 193.8 192.3 191.6
253.3 254.1 253.9 253.9 254.2 254.4 253.7 253.5 252.6 251.6 250.9 250.1 249.7 247.9 246.5 244.9 242.8 240 236.6 233.8 230.3 228.6 219 217.4 215.1 211.1 212.6 206.4 206.2 203.7 202.4 199.1 192.6 185.9 173.4 172.4 186.5 193.8 196.5 198.3 199.1 197.9 195.7 193.6 191.3 190.6 188.8 184.3 180.6 177.2 174.9 168.7 163.3 153.9 144.8 140.6 161.9 178.7 184.1 185.5 188.2 190.9 199.6 208.3 216.7 220.6 222.6 224.4 227 229.7 231.4 233 233.6 233.7 232.8 231.5 231.2 230.9 230.1 228.5 226.7 225 223 222.9 220.8 222.1 223.7 223.7 222.7 222.1 220.3 217.8 214.8 210.3 206.2 201.5 193.6 187.4 181.4 165.3 150 141.4 133 132.6 148 160.3 171.1 185.4 201.8 208.8 213.1 216.8 218.9 218.6 218.3 218.3 216.6 215.2 214.2 213.2 213.4 214.3 214.8 214.8 214.2 213.6 213.1 212.2 211 210.3 208.4 207.2 206.5 205 202.5 199.7 196.6 192.3 189.9 187.8 184.4 181.6 180.9 181.6 179.7 177 175.4 173.4 172.1 170.9 169.2 167.9 166 165.6 164.6 166.5 168.4 170.3 173.6 173.6 172.1 170.1 167.2 164.4 156.8 147.9 145.7 145.2 144.9 147.6 157.1 166.8 175.9 182.2 185.1 186.5 187.8 188.2 187.8 187.5 188.3 189.9 190.6 191.2 191.7 192.1 193.6 195 195.6 196.9 198.1 198 198.4 198.1 197.1 195.8 195.5 194.8 194.3 193.7
253.2 253.4 253.5 253.4 252.8 253.4 253 252.4 251.8 250.8 250.1 249.4 248.3 247.2 246.2 244.7 243 241.1 239.6 238.5 236.8 234.7 233.6 230.4 225.3 222.3 221.8 221.7 219.7 215.3 210.5 206 199.2 191.7 181.6 168.3 173 182.4 187.8 189.4 192.6 193.1 191.6 188.9 184.3 183.4 181.2 177.5 176.8 174.7 168.7 162.7 159.1 151.2 143.2 145.1 169.1 183.5 190.8 195.8 199.8 204.5 209.8 215.3 220.1 222.8 224.9 226.7 229.3 230.8 232.4 233.7 234 234.1 233 231.6 231.3 231 230.1 228.2 226.5 224 222.1 220.2 219.2 220.3 221.9 221.9 221.5 220.3 218.6 216.4 212.5 209.2 204.4 200.5 192.4 187.1 178.5 164.6 150 140 131 135.7 149.2 162.9 175.8 193.4 204.1 209.6 213 216.3 218 217.6 217.3 217.1 215.4 214.3 213.2 212.1 213.1 214.3 215 214.9 214.3 213.7 213.1 212.2 210.9 209 207.1 205.2 204.3 202 199.2 197.3 197.4 197.1 195.7 194.5 192 188.6 182.8 180.1 180.1 181.8 183.7 184.8 182.9 181 179 178.5 178.2 177.6 177.1 176.5 175.1 174.1 174.4 173.8 172.4 170.1 167.6 163.9 160.3 157.8 154.3 150.2 144.7 144.2 155.4 167.8 175.2 180.6 183 183.9 184.6 185 184.2 184.6 186.2 187.4 188.1 188.9 188.8 189.3 191.4 193.5 195.7 196.8 199.3 197.9 197.1 196.8 195.8 195.1 195.1 195 195 195
252.8 252.6 252.8 252.4 252.3 252 251.9 251.3 250.7 250 249 248.3 247.4 246.8 245.9 245.3 243.9 242.5 241.8 241.1 239.6 238 236.2 234 230.9 230 229.8 227.5 224.7 222 217.9 213.3 207.7 200.1 191.2 180.7 167 167.6 171 178 183.9 185.7 184.9 182.8 178.8 176.6 175.1 172.4 170.6 167.6 168.8 163.7 156.5 150.8 142 147 174.1 186.1 193.7 203.2 207.6 211.5 215.8 219.5 222.6 224.9 227.1 229.2 230.4 231.8 233.6 234.2 234.5 234.3 233.2 231.5 231.4 230.7 229.4 227.6 225.7 223.5 221.3 218.9 217.4 217.4 218.8 218.9 218.7 217.4 215.7 214.2 210.9 207.6 203 198.5 191.6 187 180.4 165.6 150.6 136.5 130.5 138 153.5 167.2 183.1 199.5 205.4 209.2 212.9 216.1 217.1 216.7 216.1 215.4 214.4 212.5 210.3 211.7 213.5 214.5 214.5 214.5 214.1 213.5 212.8 211.4 210.2 208.2 206.1 204.1 202.4 202 201.7 202.1 201.6 200.4 198.9 196.8 194 190.6 186.9 187.5 188 189.3 189.6 188.7 187.4 185.5 184.9 184.6 183.8 182.5 180.9 179.2 177.1 175.1 175.3 173.7 172.4 170.4 167.9 164.9 161.7 157.1 154.2 150 146.6 143.2 159.5 168.4 174.6 179.1 181.4 182.1 181.9 181.2 180.8 181.8 183.4 184.3 184.8 185.4 187 189.3 191.3 193.6 195.6 196.4 195.8 197.2 196.5 195.5 194.7 194.3 194.5 195.1 195.7 187.3
251.8 251.4 251.5 251.6 252.2 251.5 251 250.3 249.6 249.2 248.3 247.3 246.7 246.6 246.1 245.5 244.6 243.9 243.3 241.6 240.4 238.9 237.2 235.3 233.1 231 229.7 227.9 225.7 222.7 219.3 216 212.6 206.8 199.1 191.1 183.8 173.4 167.7 163.3 168.9 176.3 177.2 175.7 172.2 167.2 165.3 163.7 162.9 163 161.5 159.4 154.9 147.9 142 146.9 171.9 185.5 192.8 203 207.4 211.1 215.7 220.2 223.5 226.2 228.3 230 231.5 232.8 234.4 234 234.3 234.4 233.1 231.3 230.9 230.3 229 227.5 224.9 222.9 220.8 219.3 218.3 216.1 214.9 216 215.6 213.4 212 210.4 206.6 204.4 196.9 192.8 189.6 185.3 177.8 166.3 147 130.3 129.2 142.6 160 175.7 190.8 200.7 205.3 208.7 212.3 215.5 216.2 215.8 215 214.2 213.2 210.2 209.8 211.8 213.9 215 214.4 214.1 213.9 213.3 212.2 210.9 209.5 207.7 205.9 204.8 203.9 204.1 204.3 203.8 203.2 201.2 199.6 197.9 195.6 193.2 190.9 192.4 192.4 192.3 191.5 190.4 189.3 188.4 187.7 186.7 185.6 184.3 182.8 181.2 179.1 177 175.8 174.1 171.8 169.8 166.9 164.7 161.8 159.5 155 146.6 143.6 148.9 163.7 169.4 174 178 179.7 179.8 178.3 176.7 176 178.3 179.6 181.4 183.5 185.6 187.7 190.3 192.2 194 195.1 195.5 196.8 193.8 196.6 193.8 193.3 193.5 193.9 194.4 185.7 169.9
251.2 250.7 250.3 250.8 250.3 250.5 249.3 249.3 248.6 247.5 246.7 245.7 245.3 245.3 245.5 245.6 244.9 244.2 243.6 241.7 240.4 238.9 237 234.5 232.4 229.8 228.3 226.2 224.3 222.2 219.5 217 214.1 210.3 204.6 197.3 192.4 185 178.3 170.8 160.8 162.2 164 163.7 160 156.7 155.4 154.3 154.4 151.9 151.6 153.2 151.1 145.7 139 139.8 153.3 173.2 186.6 193.3 195.8 203.3 214.4 219.2 224 227.1 228.9 230.6 231.8 233.6 234.6 234.2 234 233.7 232.9 231.3 230.6 230 228.6 227 224.5 223.1 221.5 221.8 220.6 218.4 215.5 214.1 211.3 210.6 209.9 205.8 196.7 193.7 191.3 187 184.4 180.3 173.4 162.2 141.1 128.9 132.6 148.8 166.9 180.9 193.7 199.9 204.7 208.7 210.6 214 215.3 214.9 213.9 213.1 211.3 207.8 210.8 213.1 214.2 214.8 214.4 214 213.7 212.9 211.9 210.9 209.9 208.2 207.2 206.7 206.1 205.8 205.3 204.7 203.5 201.7 200.1 198.6 197 195.4 194.6 194.6 194.1 193.4 192.2 191 190.1 189.1 188.4 187.4 186.2 185 183.3 181.3 179.2 177.5 175.5 172.9 170.5 168.3 165.8 163.7 161.6 158.1 152.1 144.3 142.3 155.7 166 170.3 172.4 175.9 177.4 176.8 173.5 170.5 174.6 178.3 180.6 183.2 185.1 187.2 189 190.8 192.4 194 194.5 194.6 194.9 196.9 198.3 192.7 192.2 192.9 193.3 193.5 165.8 165.8
250.1 249.9 249.7 250 249.9 249.4 248.1 246.1 247 246.2 244.7 243.4 243.4 245 245.6 245.4 244.7 244 243.3 241.4 239.6 237.8 236 233.5 230.8 228.5 226.3 224.1 222.1 220.6 219.1 216.9 214.2 211.2 207.5 202.5 196.1 188.9 182.1 176.7 171.7 166 162.7 160 159.9 161.5 161.2 159.3 154.8 150.9 148.6 145.9 143.9 141 139.9 138.5 139 157.5 173.3 178 185 195.2 207.2 217.9 223.8 227.6 229.7 231.4 232.5 234.2 234.6 234.2 234.1 233.5 232.6 231.4 230.2 229.7 228.6 226.8 225.4 223.9 223.1 222.9 221.9 219.7 217.3 215.5 212.5 207.3 199.5 194.3 194 190.7 185.4 181.3 175.6 171.6 168.4 156 137.1 128.8 138.1 155.1 171.7 184.8 192.8 199.1 202.7 206.5 208.7 211.8 213.9 213.8 213 210.9 207.8 208 212.1 213.2 213.9 214.4 214.6 214.2 213.5 212.8 211.9 211 210 209.3 208.7 208 207.2 206.2 205.3 204.4 203.6 202.2 200.7 199.3 198.1 196.6 196.1 195.4 194.5 192.9 191.9 190.6 189.6 188.8 187.8 186.9 185.8 184.7 183.3 181.5 179.4 177.3 175 172.7 170.3 167.8 165.6 162.5 158.8 154.7 150.3 143.5 147.8 159.3 164.2 167.4 170.1 173 175.1 173.3 166 171.4 177.5 181 182.8 184.4 186.2 187.5 189.1 191.1 192.4 193.3 194.2 194.2 193.6 193.6 194.3 196.2 191.4 192 193.5 185.9 164.7 164.8
248.6 248.9 248.7 248.7 248.3 248.2 247.5 245 244.3 243.4 242.3 241.4 243.2 244.9 245.7 245.3 244.5 243.8 243 241.5 239.2 237.1 234.5 231.9 229.3 226.2 224.2 222.1 220 218.8 217.8 215.9 214.3 211.5 208.2 204.8 199.4 193.6 189.3 185.8 182.2 178.3 175 173.3 173.6 173.1 172.2 168.3 162.5 158.3 154.7 148.8 145.3 143.1 146.3 144.1 138.8 149.3 159.1 167.4 177.3 189.7 202.3 215.8 224 228 230.4 231.9 233.4 234.2 234.4 233.7 233.7 233 232.1 231.1 230.3 229.3 228.3 226.8 226.1 224.5 223.7 223.5 222.3 220.8 218.7 216.1 213 209.7 201.2 189.5 184.9 180.9 177 169 161.3 155 154 148.1 134.7 128.9 139.5 158.4 176 184.6 190.8 197.1 201.2 204.8 206.4 209.1 210.7 211.6 210.5 208.1 202.2 208.5 212.2 213.1 213.9 214.2 214.3 213.6 213 212.4 211.8 210.9 210.2 209.6 209.1 208.6 208 206.8 205.3 204.2 203.3 202.2 200.7 199.7 198.5 197.4 196.3 195.2 194.4 192.5 191.5 190.2 189.1 188.1 187.2 186.3 185.2 184.2 182.8 181.4 179.7 177.7 175.1 172.9 170.6 168.3 166.3 163.3 161.2 159.7 155.5 143.8 143.6 155.9 160.7 163.6 166.9 170 172.6 169.5 162.3 171.4 177.4 181.1 183 184.9 186.6 188 189.7 191 191.9 192.5 193.2 192.8 192 191.5 194.8 192.9 194.5 191.5 191.7 172.7 164.1 164
247.5 246.9 247.4 248 247.5 246.8 246.3 244.3 241.3 240.6 239.8 241.7 243.6 244.9 245.3 244.8 244.1 243.3 242.1 240.3 238.4 235.9 233.3 230.5 227.3 223.9 220.7 218.4 217.5 216.7 215.8 215 213.3 211.6 209 206.4 205.3 200.2 196.6 193.5 190.3 186.5 184 182.4 181.9 180.4 176.6 172.8 168.4 164.5 160.2 155 151.9 150.4 152.6 144.7 138.9 145.7 150.7 159.8 172 185.6 201.4 217.2 225 228.5 230.9 232.6 233.6 234 234.1 233.4 232.9 232.4 231.7 231.1 228.6 228.5 228 226.8 225.8 225 224.2 223.4 222.3 220.8 218.6 216 212.7 209.4 203.6 192.3 186.4 179.1 169.6 158.2 148.6 143.8 140.3 137 133.7 128.2 136.2 154.5 173.1 181.1 187.4 193.3 198.2 202.8 204.2 206.3 207.9 209.4 208.7 203.8 200.2 210.7 212.5 213.3 213.8 213.6 213.5 213 212.5 211.9 211.3 210.9 210.4 209.9 209.3 208.8 207.8 206.9 205.6 204.2 203.1 201.6 200.1 199.6 198.6 197.6 196.5 195.2 193.8 192.2 190.2 188.8 187.3 186.5 185.7 185 184.5 183.6 182.4 181.1 179.7 177.4 175.3 172.9 170.7 169.2 167.2 165.7 165.3 164.4 161.4 150 142.5 141.4 147.5 156.8 161.8 165.5 168.2 162.7 164 172.2 177.6 180.5 183.1 185.1 186.7 188.3 189.5 190.8 191.8 192 191.6 191.1 190.7 189.4 192 196.1 198.8 191.8 191.6 164.5 163.7 163.9
246.4 245.5 246.2 246.8 246.1 245.8 245.5 242.8 240.8 238.1 240.1 242.3 244.1 244.3 244.3 244.2 243.2 242.2 241.3 239.6 237.6 234.7 232.1 229.7 226.3 222.5 218.9 215.4 214.2 213.9 214.1 213.5 212 210.3 208.4 206.1 206.1 205.5 200.9 197.6 194.9 193.3 190.6 189 186 179.4 172.8 169 164.7 161.5 156.2 151.4 148.3 143.8 142.5 137.4 139 150.6 163 175 185.2 196.2 208.4 219.9 225.4 228.9 231.3 232.9 233.5 233.7 233.7 233 232.5 232.5 231.4 230.2 227.9 227.7 227.5 226.4 225.4 223.8 223.2 222.7 221.5 220.4 218.6 215.8 212.5 209.2 206 195.4 189.2 183.6 178.6 171.1 161.3 152.4 148.6 148.1 139.5 128.3 131.9 150.1 164.2 174.5 182.3 188 193.2 200.1 201.4 204 205.4 206.4 203.3 194.4 205.4 211.2 212.7 213.3 213.4 212.7 212.4 212 211.4 211.2 210.6 210.1 209.9 209.7 209.5 208.5 207 205.6 204.6 203.5 202.5 200.9 199.5 198.5 197.7 197.4 196.2 194.8 193.5 192 189.7 188 186.4 184.9 183.8 183.6 183.3 182.7 181.5 179.8 178.4 176.8 174.6 172.7 170.6 168.7 168 167.1 166.6 166 164.1 160.7 153.4 146.8 140.6 140.6 148.9 159.9 161.7 156.4 166.7 173.1 178.5 181.8 183.5 185.2 186.7 188.1 189.2 190.3 190.8 190.9 190.6 190 188.6 186.6 189.8 193.2 193.7 195 193.5 173.6 161.6 164.5
245.5 244.1 244.8 245.5 244.9 244.4 244 241.8 239 236 239.4 242.7 243.6 244 243.6 243.2 242.6 241.6 240.6 238.8 236.7 234 231.2 228 225 221.4 217.3 213.6 210.7 209.8 212.1 211.2 209.8 209.3 205.8 201.4 196.1 193.9 191 189 188.2 186.8 183.6 182.3 178 175.3 170.9 166.1 162.5 157.2 152.6 146.9 142.2 139.4 137.3 138.1 143.6 160.7 175.5 186.2 196.6 207.6 214.8 221.2 225.8 229 231.4 232.8 233 233.2 233.1 232.5 232.1 231.8 231 229.3 227.8 226.9 226 225.2 224.6 223.1 221.9 221.9 220.6 219.4 218.2 215.6 212.4 210.1 208.7 204 193.7 189.9 185.6 182.8 176.5 171.4 168.9 163 143 131.3 128.6 141.7 153.4 162.4 169.7 177.4 183.3 187.3 194.6 197.5 198.6 198.4 193.3 187.8 207 210.6 212.8 213 213 212.4 211.7 211.4 211.2 210.5 209.8 209.3 209.1 208.9 208.7 207.3 206 204.6 203.7 203.4 202.3 200.2 198.2 197.2 196.3 196.3 195.4 194.3 193.1 191.7 190.3 188.6 186.8 185.1 183.2 180.9 181.3 181.9 180.8 178.7 176.8 174.8 173.1 171.3 169 167.4 166.3 166.5 166.7 166.3 164.9 162.8 159.7 156.6 152.3 141.2 139.4 154.2 152.9 157.9 167.8 173.9 179 181.1 182.6 184.1 185.7 186.7 187.9 188.9 189.4 189.2 188.9 188 185.7 186.6 189.8 191.6 193.1 192.4 193.4 182.7 162.9 167.3
244.7 243.1 242.8 243.7 243.5 243.2 242.6 240.8 236.7 233.5 239.6 242.3 243.4 243.6 242.9 242.2 241.6 241 239.9 238.1 235.7 233.5 230.8 227.6 224.2 220.6 217.2 213.9 209.9 202.9 207.7 205.9 200.2 193.9 190.8 187.9 187.8 186.6 185.1 184.3 183.6 182.9 181.1 176.4 174.5 171.6 167.4 161.3 156.3 151 146.8 143.3 141.9 138.3 137 141.1 146.8 165.1 181.9 193.8 203 210.3 216.1 221.9 225.8 228.7 230.9 232.1 232.3 232.6 232.5 231.9 231.7 231.2 230.4 228 226.6 226.3 224.7 223.6 223.3 221.9 220.7 220.2 219.7 218.5 217.4 215.6 213.4 212 210.6 207.6 204.3 199.5 193.5 189.2 184.6 180.1 175.7 166.1 146.9 136 127.6 132.3 142 150.7 159.4 168.2 175.8 180.2 182.6 181.7 180.6 180.6 179.2 191.5 206.6 209.7 211.8 212.2 212.1 211.7 211.2 211.1 210.5 209.8 209 208.5 208.3 208.1 207.7 206.1 204.7 204 203.7 203.4 201.6 199.5 198.1 196.4 195.5 194.6 193.1 193.3 192.5 191.6 190.2 188.7 186.8 184.7 183 180.2 180.4 181 179.9 178 176 173.9 171.3 169.4 167.8 165.6 164.8 165.5 166 165.5 164.3 162.7 160 156.1 152.5 144.7 140 147.4 150.2 161 168 173.7 177.3 179.5 181.4 183.1 184.3 185.3 186.5 187.1 187.3 187.5 186.9 185.1 183.9 187.8 190.2 191.5 191.9 194.9 193 191.2 172.9 162.4
243.5 242.7 240.5 240.4 240.6 241.3 241.3 239.9 236.4 233.6 239.6 241 242.2 243.2 242.7 241.5 240.9 240.2 239.1 237.1 234.6 232 228.9 227.2 223.3 220.5 217.6 214.2 210.9 201.5 196.4 194.8 192.3 189 186.2 183.5 181 179.5 178.3 177.9 178.8 176.7 174.8 171.7 169.7 166.9 161.5 155.5 151.3 148.1 149.1 150.8 145.1 137.9 136.5 144.4 154 170.7 186.2 196.5 203.7 209.5 214.8 220.7 225.5 228.1 230 230.9 231.8 232 231.9 231.5 231.3 230.8 229.8 226.8 225.1 225.3 223.8 222.2 221.2 220.3 219.6 219 218.1 217.4 216.4 215.4 214.3 212.6 211.1 210 208.4 202.4 198.4 195.2 191.8 188.6 179.7 169.5 153.1 138.3 128.4 128.4 132.3 140.4 149.1 158.7 165.7 168.7 169.9 172.2 171.9 171.7 173.5 195.3 206.4 209.9 211.8 211.9 211.7 211 210.5 210 210.2 209.3 208 207.8 207.6 207.4 206.7 204.8 204.6 204.2 203.8 203.4 201.2 200.2 198.6 196.7 195.1 193.3 191.1 189.8 189.7 189.7 188.5 187.1 185.6 183.6 181.8 178.5 178.7 180.1 178.6 177.1 175 172.5 170 166.4 164.3 163.1 161 163.5 163.6 163.1 161.6 159.8 157.4 153.7 149.8 144.6 139.6 140.7 151 161.1 168.2 172.5 174.3 176 178.7 181.3 182.3 183.2 184.4 184.7 184.8 184.8 184.6 182.1 185.5 188.5 190.2 191 191.4 192.2 192.9 192.3 187.4 165.9
243.5 242.6 239.8 237.5 238.1 239.1 238.8 237.8 233.6 231.9 238.9 240 241.5 242.3 242.1 241.2 240.2 239.5 238.2 235.7 232.9 230.5 228.1 225.3 222.9 220.2 217.5 214.2 210.2 202.4 191.3 189.2 186.3 184.9 184.8 183.2 180.8 178.1 176.1 174.5 174.2 169.8 168 165.5 162.7 158.7 157.8 157.9 158.8 159.2 158.9 158.2 146.6 138.5 135.9 149 160 174.6 184.3 193.5 201.1 207.4 213.4 219 224.1 227.1 228.8 229.4 230 231 231.3 231.1 231 230.3 229.2 226.8 224.7 223.5 222.2 220.7 218.7 217.5 217.8 216.4 216.1 215.7 214.8 213.6 212.4 211.8 211.2 209.8 204.4 197.6 195.2 190.3 190.8 190 183.5 174.3 161.1 147.8 135.9 127.7 127.5 129 135.6 141 149.3 153.8 155.8 156.9 160.7 166.4 179.2 199.8 207.2 210.4 211.6 211.7 211.5 211 209.9 209.1 209.2 207.4 207 206.9 206.7 206.3 206 204.7 205.4 204.9 203.9 202.8 201.7 200.5 199.2 197.6 195.8 195.4 194.8 192.7 188.3 184.9 183.5 182.4 181.1 180.8 178.1 174 176.3 177.6 176.5 175.2 173 170.4 167.6 164.2 159.1 158.4 156.4 159.5 159.9 159 157.8 155.8 151.8 147.1 143 141.1 139.1 139.8 150.1 159.8 165.9 168.8 169.5 172.4 175.6 178.1 179.7 181.2 182.4 182.3 182.5 182.2 177.7 181.9 185.9 188.7 189.6 189.6 190 190.6 193.1 190.3 190.4 173.7
242.8 241.8 240 236.8 235.4 235 235.2 235.5 229.6 233.1 238.9 240.5 241 241.4 241.3 240.6 239.6 238.6 236.7 234.6 231.8 229.1 226.4 223.9 221.2 218.6 215.6 212.2 206.9 195.1 189.5 190.5 193.6 196.1 192.6 189.3 185.9 183.5 183.2 180.6 175.7 174.7 172.4 170.2 168.3 170.9 170.9 169.4 169.8 167.5 165.1 159.7 148.6 140.2 135.5 150.4 160.8 172.2 180.4 189 196.6 203.2 210.4 217 222.2 225.7 227.6 227.7 227.8 229.2 230.4 230.4 230.5 229.7 228.5 226.3 224.6 223.4 222 220.7 219.2 217.1 216.4 214.3 214 213.6 212 211.1 210.2 209.4 209.4 205.3 192.6 189.7 186.9 184.2 183.1 183.3 180.4 174.2 168.1 163.1 148.9 134.9 129.7 127.3 127.1 128.5 134.8 141.1 141.4 145.4 162.1 174.1 188.8 202.4 207.5 210.3 211.2 211.2 210.9 210.3 209.2 208.4 208.2 206.5 206.1 206 206.1 205.6 205 205.3 205.5 204.4 203.3 202.2 202.1 201 199.8 198.8 197.4 197.1 196.1 194.7 192.7 190.4 187.2 183.4 179.6 174.9 173 171.7 168.2 167.9 169.4 168.3 166.6 163.3 160.3 156.7 153.7 151.9 151.2 154.3 153.8 152.6 151.1 147 143.8 144.4 146.7 146.7 140.5 138.9 143.1 152.4 159.5 162.5 164 168 171.3 173.7 176 177.9 179.9 180.8 180 176.3 176.9 183.4 186 187.9 188.9 189 188.5 188.8 190 193.5 190.1 189.2
241.9 240.9 240 237.1 233.7 230.6 232.1 224.5 222.7 231.1 237.3 239.3 241.2 241.6 241 240.6 239.9 239.2 237.3 234.8 231.4 227.4 224.6 222 218.8 215 211.2 207.7 198 192.9 198.6 205.4 206 207.8 205.3 201.8 193.9 191.8 188.6 185.1 184.5 182.3 181.2 178.6 178.1 179.1 180 179 181.5 178.3 166.9 161.5 153.2 141.7 135.5 142.9 155.8 167.5 176 184.5 193 199.5 207.1 214.2 219.6 223.7 225.8 226.7 226.8 228 229.2 229.2 229.6 229.4 228.4 226.4 224.3 224 223 221.7 220.3 218.2 215.8 213.6 212.1 211.3 210.6 208.9 206.6 201.8 199 191.7 189.2 184.8 180.6 176 174.2 172.5 170.9 167.4 162 159.4 150 139 131.8 134 134 128.4 127.3 131.2 143.3 159 171.6 182.2 196 204.1 207.7 210.1 210.5 210.7 210.3 209.6 208.7 208 207.1 205.6 205.1 205.3 206.1 206 205.5 205.5 205 203.8 202.7 201.9 201.9 201.4 200.4 199.5 197.9 197.6 196.5 195 193.5 191.6 189.2 186.5 183.1 177.9 180.9 178.9 176.3 171.1 166.9 164.2 163 162 162 161.4 159.8 155.7 150 148.8 147.2 146.8 147.4 150.2 152.2 153.2 153.1 150.5 145.3 140.3 138.6 140.5 149.6 153.6 158.2 163 166.1 168.6 171.2 175.2 177 177.6 174.9 169.6 178.8 182.9 185.1 186.4 186.7 187 186.6 186.2 186.7 189.8 193 189.2
240.8 240.3 239.3 237.8 236.2 232.4 223.3 216.8 218.4 232.9 237.5 240.4 241.6 241.5 241.1 240.8 239.6 238.4 236.4 234 231 226.7 223.4 219.6 214.8 211.7 208.5 205.4 200.6 204.5 208.9 212.2 214.6 213.3 210.4 206.7 205.6 204.6 203.3 200.6 196.3 194.9 194.4 195 194.8 194.3 192.3 190.4 186.1 181.3 170.1 163.7 155.9 143.5 135.9 134.7 143.7 163.1 172.2 178.8 188.3 197 201.5 209.9 216.7 220.4 222.2 224.7 226.1 227.1 228.1 229.1 229.7 229.3 228.5 227 225.4 224.4 223.1 222.5 220.9 218.8 216.8 214.1 212.8 212.8 211.5 210 207.8 204 196.8 188.8 185.5 178.5 172.9 169.7 164.1 159 156.6 152.8 147.7 142.5 137.9 135 136.5 141.7 135.7 126 128.5 143.1 156.7 169.7 180.6 192.3 200.8 205.1 207.6 209.5 209.9 209.8 209.7 209 208.2 207.3 206.1 204.7 204.1 205.1 206 206 205.3 204.8 204.3 203.3 202.2 201.7 201.7 201.4 200.3 199.4 198 197.1 196 194.7 193.1 191.3 189.3 186.1 181.1 184 184.3 183.3 180.9 178.4 175.9 173.2 171.6 169.8 167.9 165.4 161.6 153.4 156.6 156.8 156.1 157.2 158.6 158.4 158.3 156.1 153.4 151 148.8 145.7 140.2 138.2 139.6 144.3 150 154.3 159.2 162 168.1 172.5 174 173.6 168.9 170.8 178.4 181.7 183.5 184.2 184.2 184.4 184.1 183.7 183.4 185.6 189.3 191
239.6 239.1 238.5 237.4 235.9 234.3 223.1 211.3 215.7 231.4 236.9 240 241 240.4 240.4 239.9 238.7 238.3 236.6 233.9 230.6 226.3 223.2 219.7 217.2 217.2 215.5 211.8 207.1 212.4 216.4 218 217.3 215.6 212.4 209.8 210 208.8 207.6 206.7 205.7 205 204.4 203.4 202.4 199.9 196.8 193 188.2 183.6 177 165.8 160.3 149.8 138 134.6 138.5 158.8 165.3 173.1 182 191.3 195.8 198.4 209.7 215.4 219.8 223.9 226.7 226.5 227.8 229.8 229.7 229.2 228.4 227.4 226.3 225.1 223.5 222.3 221.1 219.8 217.4 215 214.2 214.5 214.3 213.3 212.2 210 206.2 200 190.9 184.8 177.6 170.5 163.7 155.1 151.4 150.5 148.9 148.6 147.7 148.4 147.5 143.3 127.3 124.7 134.3 152.9 167.5 176.7 188.7 196.4 201.3 205.1 207.3 208.8 208.8 208.8 208.8 208.3 207.4 206.5 205.1 203.7 203.9 204.8 205.7 205.6 204.9 204.4 203.3 202.6 201.6 201.6 201.6 201.1 200.3 199.1 197.7 196.3 195.2 194.1 192.2 190.5 187.8 185.1 186.5 186.6 186.1 184.8 182.9 180.9 178.6 176.1 173.6 171 168.4 165.2 157 160.1 165.2 165.7 165.2 163.9 162.7 160.8 158.9 156.2 153.6 151.2 148 143 142.3 143.5 140 137.5 137.1 137.8 141.7 152.2 162.5 168.6 170.3 168.8 161.2 171.6 177.4 179.8 181.3 182 181.7 181.8 181.5 180.9 180.9 182 185.4 188.8
237.4 237 236.6 236.4 235.8 227 212.5 207.4 212.1 231.4 236.4 239.5 240.3 239.7 239.3 239.6 238.7 237.5 236.6 234 230.2 226.8 225.9 224.5 222.7 220.9 218.9 213.7 214 218.4 219.9 219.6 218.4 216.5 213.3 212.5 212.3 212.1 211.3 210.2 209.1 208.1 207.2 205.9 204.4 201.6 197.8 193.5 188.8 183.7 176.5 169.4 162 154.2 141 134.8 134.8 149.4 161.5 169.9 175.9 180.4 186.4 192.6 198.7 211.3 219 223.1 226.5 226.9 228.7 229.7 229.6 229 228.3 227.5 226.5 225.4 224 222.8 221.9 220.3 218.2 216.9 216.8 216.9 216.7 216 214.9 212.9 209.9 206.1 199.6 190.7 184.6 179.4 175.2 168.2 165 164.1 163.8 164.5 163.5 161.5 154.5 137.4 124.7 125.4 143.1 159.5 170.7 179.7 190.4 196.3 201 204.6 207 207.8 208 208 208 207.4 206.6 205.6 204.1 202.7 202.7 204.3 205 205.2 205.1 204.9 202 201.1 201.1 201.7 201.2 200.7 200.3 199 197.6 196.2 195 193.8 191.5 188.7 187.5 188.3 188.4 188 186.3 184.7 182.9 180.9 178.6 175.7 172.6 170 167.8 161.7 161.1 166.9 168.8 168.3 166.7 165.5 163.6 161.9 159.1 156.3 152.9 148.3 145 145.8 146.7 149.1 148.9 146.4 140.8 137.9 135.7 135.1 152.9 162.8 165.3 160.9 159.1 171.3 176.1 177.7 178.8 179 179.1 179.2 178.6 178.1 178.4 179.4 183.4 187.5
234.8 233.9 233.2 232.1 224.5 214.6 206.7 204 211.6 231.3 236.6 239.4 239.8 239.7 239.4 239.2 238.8 237 235.5 233.3 231.3 230.5 228.5 227 224.7 222.3 218.8 213.9 217.8 220.6 220.8 219.9 218.7 217.4 215.8 214.9 214.6 214 213 211.8 210.6 209.4 208.3 206.7 204.8 201.9 198.1 193.6 188.7 182.6 172.4 168.8 157.7 148.4 137.3 135 136.6 144 155.7 161.5 165 169.5 180.1 189.9 197.5 211 218.5 223.1 226.2 226.9 228.4 229.5 229.2 228.7 227.8 226.9 226 225.2 224.4 222.9 222.1 221 219.7 218.9 218.6 218.4 217.9 216.9 215.9 214.6 212.7 209.5 205.3 199.8 194.8 189.2 185.6 182.7 180.1 178.1 177.1 175.7 174.2 168.9 154.4 135.1 124.5 128 149.1 163.4 173.4 181.9 189.2 195.5 200.6 204.1 206.4 206.8 207.2 207.2 207.1 206.4 205.3 204.2 202.9 202.2 203 204.2 204.4 204.6 203.5 202.4 203.2 201.8 201.5 201.5 200.6 200 199 198.4 197.5 196.1 194.9 193.4 191.1 188.9 188.6 188.7 188.7 187.9 186.3 184.6 182.9 180.4 177.3 173.6 170.6 167.7 164.1 161.6 167.3 170.3 170.3 169.2 167.4 166 164.2 162 159.6 156.3 152.5 147.7 148.6 150.7 149.4 151.6 151.6 150.7 149.2 145.8 139.2 135.6 139.3 157.4 159.5 152.8 161 169.7 173.7 175.4 176.3 175.9 176 175.9 175.6 175.5 176.9 179.4 184.7 180.1
230.1 227.9 221.9 213.6 209.5 207.5 203.5 202.2 214.3 231.9 236 238.4 238.6 238.9 239.2 238.9 238.5 236.5 235.7 234.8 234.1 232.6 230.5 227.9 225 222.4 219.3 216.2 220.2 221.6 221.7 220.9 219.8 218.4 217 216.9 215.9 214.7 213.4 211.9 210.9 209.8 207.8 206.4 204.1 200.6 196.7 192 186.3 177.1 167.3 162.9 154.5 142.4 134 141.5 147.4 150.8 155.7 160.3 165.2 177.2 185.9 191.6 201 212.2 218.7 222.7 226.1 226.5 227.2 227.9 227.9 227.6 227.2 226.2 225.4 224.6 223.9 223.2 222.4 221.5 221.1 220.3 219.9 218.9 218.8 217.7 216.5 215.4 213.9 211.2 207.7 204.7 200 198 195.4 192.4 189.2 188.4 185.1 182.5 178.9 170.2 154.8 135.6 124.5 130.2 152.2 165.7 173.8 180.8 188.2 195.1 199.8 203.5 206 205.9 206.2 206.4 206.1 204.9 203.9 202.7 200.9 202.7 203.8 204 204 203.9 202.9 202 201.1 201.4 200.5 200.8 199.7 198.4 197.6 196.9 196.4 195.9 194.7 192.9 190.7 189.9 189.6 189 188.6 187.5 186.1 184.2 181.4 179.3 175.7 172 167.8 165.9 163.9 168.1 170.9 171.5 170.9 169.5 168 166.5 164 161.3 158.4 155.2 150.7 149.9 153.3 152.7 151.8 153.5 153.2 151.9 151 149.2 143.7 136.3 136 153.6 151.4 152 163.1 169.1 171.6 172.2 172.6 172.4 172.1 172.3 172.8 174.9 176.1 176.6 175.8 176.2
210.6 209.7 208.9 208.1 206.8 203.1 199.8 201 216.5 231.9 234.2 235.9 237.6 238.2 238.4 238.3 238.1 237.3 236.4 235.6 234.6 233.6 231.2 228.6 225.9 223 220.4 218.7 221.2 222.5 222.5 222.2 220.4 219.2 218.1 216.7 215.2 213.6 211.7 211.1 209.8 208.6 206.6 205.3 203.1 199.4 194.5 187.2 176.5 171.1 164.7 159.8 148.8 137.1 134.5 148.9 156.6 160.8 163.9 166.6 170.7 182.4 191 200.3 207.3 212.1 218.8 222.3 225.7 226.1 226.6 226.8 226.7 226.6 226.4 226.2 225 224.1 224.3 223.6 222.8 221.9 221.8 221.8 220 219.5 219 218.1 217.1 215.9 214.4 212.3 209.6 207 204.3 200.9 197.9 195.8 193.8 191.5 189 185.6 181.4 170.5 155.1 137.1 124.4 128.8 147.7 162.6 171.4 179.5 186.7 194.1 199 203 205.4 206 205.9 205.4 204.6 203.2 202.2 200.1 200.7 203.1 203.5 203.8 203.8 203.3 202.5 202 201.1 200.2 199.4 198.7 198.3 197 196.2 195.5 195 194.5 194.2 193.2 191.5 190.9 190.6 189.7 188.8 187.7 185.8 182.8 179.8 177.6 173.7 170.2 170.8 169.9 166.3 170.7 171.9 171.9 171.2 169.7 168.2 166.4 163.8 160.9 158.3 155.3 150.7 153.2 154.9 154.3 153.3 154.1 154 152.9 151.4 148.4 142.7 136.4 135 147.9 145.1 155.4 164.2 167.5 168.8 168.8 168.9 168.2 168.3 170.6 173.2 174.5 174.7 174.3 172.8 172
206.4 205.7 203.7 202.2 199.8 195.4 195.9 203.4 214.2 229.8 232.2 231.9 235 236.8 237.6 237.6 237.8 237.6 237.1 235.9 235.7 234.1 232 229.4 226.7 223.9 221.6 220.3 221.5 223.3 223.3 222.9 221.8 220.3 218.5 216.1 214.6 212.9 210.5 209.6 206.5 205.7 204.9 203.2 200.7 196.9 186.9 176 172 166.7 159.6 151.8 141.4 133.9 136.5 150.2 161.3 164.9 165.6 167 174.8 182.4 191.6 202.7 209.9 214.3 219.3 222.2 225 225.9 226.1 226.4 226.5 226.4 226.2 225.9 224.8 224.3 224.2 223.3 223 222.4 221.8 221.3 220 219.5 219 218.1 217.2 216.2 214.6 212.9 210.7 208.3 205.4 202.6 200.1 197.8 195.5 193.3 190.3 186.6 181.2 172 157.7 140.3 124.8 125.7 140.8 155.3 168.2 177.2 186 192.9 198.3 202.5 205.2 205.8 205.3 204.6 202.8 201.6 199.6 199 201.5 203.3 203.1 203.6 203.4 202.5 201.4 200.8 199.6 198.6 198.1 197.9 197 195.9 194.8 194.1 194.3 194.5 193.4 192.5 192 191.6 191.3 190.9 190.1 189.1 186.4 182.5 177.8 175.9 174.1 173.8 173.4 171.1 167.9 171.7 172.3 172 171.6 170 168.3 166.3 164 161.6 158.7 154.8 152.9 156.5 156.4 155.1 154.4 154.4 154.1 153.1 151.3 148.6 143.2 134.8 135.1 140.4 146.4 157.1 162.8 164.8 165.3 164.4 164.2 164.2 168.4 171.2 172.5 173.2 172.8 172 169.1 169.1
200.1 198.4 196.6 195.5 191.9 189.2 194.8 202.3 210.2 224.5 227.8 226.6 231.2 235.1 235.8 236.8 237.7 237.7 237.4 236.8 235.9 234.4 232.7 230.5 227.7 225.5 222.9 222 222.7 224 223.9 223.3 221.9 220.3 219.1 218 216.8 214.9 212.5 209.4 205.7 200.8 198 199 197.3 192.2 178.3 173.2 164.5 157 151 144.8 135.8 132.7 132.9 148.5 157.1 160.3 159.3 162.6 170.3 179.7 190.4 200.8 209.2 214.4 219.2 221.7 223.7 224.7 225.2 225.6 226.1 226.2 225.9 225.5 225 224.5 223.9 223.3 222.6 221.9 221.3 220.7 220.2 218.8 218.6 218 217.2 215.9 214.7 213.3 211.1 209.1 206.3 202.8 199.8 196.9 194.1 192 189.6 186.7 182.3 173.8 161.2 144.8 127.5 123 134 148.7 165.3 174.3 183.4 193 197.7 201.8 204 204.4 204 203.2 201.1 198.7 197 200 202.1 202.4 202.4 203.2 202.8 201.7 200.6 199.7 198.6 196.8 197.1 196.6 195.6 194.6 193.5 193.1 193.4 193.5 192.5 192.6 191.8 191.3 191.1 189.9 190 190.1 188.2 183.9 178.8 177.1 175.6 175.2 173.9 171.2 169.5 172.9 173.4 172.6 171.8 169.8 167.8 166.1 163.9 161.5 158.6 155.1 156.1 157.6 156.8 156.1 155.1 154.7 154.1 153 151.4 149.4 145 134.3 133.9 140.7 150.5 156.9 159.6 160.6 161.4 160.7 159.3 165.4 168 170 171.1 171.5 170.5 167.5 163.2 168.2
192.6 193 189.3 187.4 185.6 189 194.6 200.6 208.6 218.7 224.7 226.7 232.2 235.2 237 237.5 238 238.3 237.6 237 236.4 234.8 233.1 230.8 228.8 226.5 224.8 223.4 224.1 224.8 224.5 223.6 222.2 221 220.6 219.7 218.1 216.2 213.6 210.6 206.9 203.8 199.1 191 186.1 182.3 175.1 171.5 165.3 159.4 156.1 152.3 146.9 135.5 133.5 135.8 147.1 149.5 153.4 160.6 167.4 176.7 188.7 196.5 206.8 214.2 216.9 219.7 221.4 222.8 223.4 223.9 224.9 225.4 224.9 224.7 224.7 224.3 223.6 222.9 222.1 221.4 220.7 220.2 219.8 218.7 218.4 217.9 217.2 216.2 215 213.7 211.6 209.6 207.6 204.2 201.2 198 194.9 191 188 186.6 182.4 176.5 167 151.5 133.1 122.8 127.9 143.4 159.5 171 182.1 193.5 197.7 201.3 202.7 203.1 203.1 201.7 199.6 195.8 197.5 200.6 201.7 201.8 202.2 202.5 202.4 201.1 199.9 199.6 198.2 197 196.2 195.2 194.1 193 192 191.9 192.8 193.2 193.1 192.5 191.6 191 190.8 189.7 188.6 188.6 187.8 182.6 181.8 179.5 176.8 175.3 174.1 172.8 171 173.3 173.7 172.8 171.5 169 167 164.3 162 159.4 156.4 155.9 158.4 157.9 157.3 156.2 155.4 154.6 153.4 151.8 150.7 148.4 145 135.9 133.9 135 145.4 151.2 154.8 156 156.5 155.6 159.1 163.9 166.3 167.8 168.7 169 167.4 161.7 164.9 168.9
184 182.3 181.5 184 189.3 195.8 200.5 206.5 215.4 224.3 230 231.8 232.7 236.4 237.3 238.1 238.4 238.9 238.7 237.6 236.6 235.1 233.3 231.3 229.4 227.7 226 224.8 225.4 225.5 225.2 224.3 223 222.5 222.1 220.8 219.1 216.9 214.4 211.3 208 204.3 200.8 196.3 192.5 191.7 189.3 185.1 178.3 171.7 167 160.2 153.5 143 135.6 132.4 136.6 146.6 154.8 161.6 167.8 173.7 186.4 194.8 205.7 214.3 216 216.8 218.4 220.4 222 223.1 224.2 224.6 224.6 223.9 223.8 223.6 223 222.4 221.7 220.9 220.2 219.4 218.6 218.9 218.1 217.7 217.1 216.3 215.1 214 212.1 210.1 208.2 205.8 202.8 199.2 195.5 191.1 183.2 176.9 171.8 170.8 166.4 158.7 139 123.7 121.9 138.8 155.2 170.9 181.9 193.3 197.7 200.7 201.9 202.2 201.7 200.7 198.3 194.3 198.2 200.2 201.2 201.7 202.6 202.5 202 200.9 199.3 198.8 196.8 195 193.8 192.9 191.7 190.9 190.5 191.2 193 193 192.8 192.2 191.4 190.7 190.4 189.5 188.1 187.3 185 182.9 182.8 180.7 178 176 175.1 173.6 172.4 173.6 173.6 172.3 170.8 168.1 165.4 162.3 160.8 159.2 158 158 159 158.4 157.6 155.9 154.1 153.2 151.7 149.4 147.2 143.7 139.6 137.6 135.2 132.7 133.5 139.5 147 152.2 151.2 151.8 158.3 161.4 163.2 164.9 165.9 166.2 164.4 157.3 166.6 164.5
177.9 182 185.4 191.5 195.9 200.7 207.4 215.9 224.2 230.2 233 234.2 235.3 235.8 237.4 238.2 238.5 239 238.3 238.3 237.2 235.6 232.9 231.6 229.4 227.9 226.4 225.5 226.3 226.2 225.9 224.9 224.3 223.9 223 221.5 219.8 217.3 214.7 211.8 208.8 205.9 202.1 198.4 199 197.2 192.8 188 178.2 173.4 167.8 163.7 153.6 147.5 135.7 135.6 143.8 151.5 157.5 162.1 168.6 171.8 183.9 191.3 201.3 208.6 211.6 213.4 215.6 217.3 219.6 221.7 224 223.4 223.5 223 222.9 222.8 222.1 221.5 221.1 220.3 219 217.7 217.5 218.3 218 217.4 216.8 216.2 215.3 214.2 212.6 210.7 208.8 206 202.7 198.5 194.3 189.2 179.6 171.6 164.2 160.4 159.4 157.3 143.1 123.2 121.7 137 155.4 173.8 183.7 191.9 197.3 200.1 200.9 201.2 200.4 199.5 196.2 191.7 197.5 199.3 200.9 201.1 201.6 201.8 201.1 200.6 198.7 197.5 196.4 194.7 192.5 191.7 190.7 189.8 190 190.3 192.2 193.1 192.7 191.8 191 190.5 190.1 189.2 187.7 186.2 184.3 183.5 182 180.7 179 176.9 176.1 174.4 175 175.4 175.2 173.5 170.9 169.1 167.4 165.2 163.7 162.4 160.4 159.5 160.3 159.1 157.2 154.5 152.1 149.7 148.1 145.9 143.2 143.4 143.3 142.7 142.1 138.7 132.7 132.6 142.4 148.2 145.2 151.3 156.8 159.1 161.7 163 163.3 163.2 161 153.9 155.4 161.9
183.7 188.2 193.4 198.3 203.4 207.5 213.2 221.9 229.6 234.1 235.2 236 236.2 236.2 237.5 238 238.3 238.7 238.7 238.1 236.8 235.5 233.8 231.5 229.1 227.6 226.6 225.7 226.5 226.7 226.2 225.4 225.5 225.2 223.6 222.2 220.3 218.1 215.9 212.4 209.2 206.3 203.4 201.9 201.5 198.8 194.5 189.6 179.2 174.5 170.1 161.9 157.7 143 136.9 138.5 148.1 157.4 161.8 164.9 169 173.6 182.7 190.1 196 198.6 206.2 209 212 214.6 217.2 219.8 221.4 222 222.4 222.2 222 221.9 221.4 220.8 220.4 219 217.7 216.2 216.5 217.3 217.6 217.1 216.5 215.8 215.1 214.4 212.8 210.9 208.8 206.1 202.5 198.3 194.1 187.9 179.1 169.5 159.8 149.9 148.3 142.4 132 122.3 122.5 139.8 157.5 175 185.6 194.3 196.8 199.3 200 199.7 199 198 193.6 189.2 196.2 198.7 200.8 201 201.3 201.8 201 200.3 199.1 197.5 196.1 195.1 192.7 191.3 190.8 189.8 189.5 191.3 192.3 192.9 191.8 191.4 190.9 190.3 189.7 189.3 188.1 187 186.3 185 182.8 181.8 180.4 178.2 177 177.1 177.9 177.2 176.6 175.3 173 171.4 169.9 168.4 166.7 164.6 162.3 162.5 161.9 160.6 158.5 156 152 148.1 147.8 149.1 150 148.7 148 145.8 143.8 141 137.2 132 135.3 142.1 143.4 150.9 154.7 157.6 159.9 160.6 161.4 159.5 154.7 151.4 161.8 165.5
192.6 194.5 197.6 204.2 208.4 216.3 222.7 230 233.4 235.7 236.4 236.8 236.8 236.6 236.1 237.3 237.8 238.2 238.3 237.7 236.7 235 233 231.7 229 227.2 226.3 225.8 226.6 226.9 227 226.4 226.4 225.6 224.1 222.2 220.5 218.2 215.9 212.8 209.7 206.8 205.6 203.8 201.7 198.7 194.8 190.7 182.3 175.2 169.8 162.2 157.1 143.5 136.1 136.2 150 160 166.1 169.1 171.7 175 181 189.2 191.5 195 199.4 205.1 210 212.9 215.3 217.8 219.6 220.7 221.1 221.2 221.1 220.9 220.7 220 219.2 218.3 216.1 214.9 216.5 217.1 217.1 216.6 216.1 215.4 214.6 214 212.7 211.2 208.8 206 202.4 198.1 193.9 188.9 179.5 170.1 160.9 150.5 140.6 132.3 123.9 123.3 126.1 144.5 161.1 175.8 188.2 194 196.7 198.1 198.4 198.1 197.5 195.4 189.4 188.3 197.6 199.2 200.7 201 201.3 201.3 200.6 199.9 199.2 197.9 196.8 195.2 194.4 190.9 190.6 189.8 188.8 188.5 188.4 189.1 190.2 190 190.2 189.6 189.1 189.2 188 187.1 186.8 185.6 184.4 183.2 181.8 179.7 178.5 179.7 179.5 179.4 178.3 176.8 175.4 173.9 172.4 170.9 169.3 165.9 165.6 163.8 162.7 161 159.3 156.8 152.4 152.7 154.6 154.1 152.5 150.2 147.7 145.2 142.5 139.9 137.8 133.1 132.7 136.4 142.4 148.7 152.4 154.8 156.8 158.3 157.5 151.8 146.5 157.4 163 166
198.3 200.6 206.1 208.6 215.7 226.8 230.2 232.9 235.4 236.6 237.1 237.2 237.2 237.1 237.1 237.1 237.2 237.4 237.6 237 235.9 234.4 232.4 230.3 227.6 226.3 224.9 225.5 226.4 227.1 226.6 226.5 226.3 225.9 223.7 222 220.6 218.4 216.1 213.6 210.2 208.5 206.1 203.3 200.5 197.5 194.7 191.1 186.2 175.4 168.3 162.3 155.4 149.1 134.5 133.1 147.6 156.3 163.2 167.1 170.9 173.6 176.9 182.1 183.2 188 194.3 203.3 207.7 211.2 213.6 216 218 218.9 219.8 219.9 220.1 220.1 219.8 218.7 217.9 217.1 215.2 213.7 216.3 216.3 215.9 215.8 215.3 214.8 214 213.4 212.3 210.8 208.7 205.9 202.2 197.9 193.5 188.3 180.9 173 164.1 153.7 138.4 127.4 123.3 122.5 133.3 149.9 165.5 181.2 190.5 192.9 195.1 195.8 195.6 195 193.7 187.5 178.6 192.5 199.1 200.5 200.9 201 201.2 200.9 200.4 200 199.2 198 196.3 195.1 194.1 191.5 190.3 189.5 188.6 187.7 187.4 188 188.5 188.5 188.9 189 188.7 189.1 188 187.6 186.8 186.1 184.9 183.8 182.8 181.4 180.3 181.6 181.8 180.8 179.6 178.8 177.3 176.3 174.7 173.2 171.1 168.7 167.1 166.3 164.2 162.1 159.2 154.8 153.9 156.8 156.9 155.2 153.5 150.7 148.3 145.1 143.9 142.4 140.3 135.8 132.3 135.4 141.3 145.7 149.6 152 154 155.4 152.4 144 150.7 159.1 162.8 164.1
208.8 211 214.1 217.7 228.3 231.4 233.8 235.4 236.4 236.9 237.3 237.3 237.3 237.2 237.3 237.2 237.4 237.3 236.8 236 234.9 232.8 231.2 229.4 226.6 225.1 224.3 224.5 226.2 226.4 226.6 226 226 225.4 224.2 222.2 220.8 218.6 216.3 213.7 211 208.2 205.3 202.2 199.2 195.1 192.6 190.4 186.9 177.4 170.4 163.4 158.4 148.3 140.3 129.4 140.2 149.8 156.1 161.4 164.8 167 169.4 174.4 177.9 186 193.6 202.1 205.3 208.6 211.4 214 216.2 217.6 217.9 218 218 218.3 217.8 217.5 216.6 215.7 213.4 213.2 214.6 214.8 215.1 214.8 214.3 214.1 213.3 212.6 211.9 210.4 208.2 205.5 202 197.7 193.6 189.6 182.7 174.3 162.5 150.5 134.5 125.3 122.8 124.3 144.5 159.8 173.1 184.3 188.1 190 188.4 185.4 184.8 183 177.2 172 184 198.2 200.7 200.9 201.1 201.2 200.8 200.3 200 199.5 198.5 197.5 196.3 195 193.8 191.6 190.3 189.4 188.4 186.9 186.5 186.5 186.5 187 187.3 187.7 188.2 188.8 188.3 187.6 186.9 186.6 185.5 184.5 183.4 182.4 182.6 183 182.9 181.9 181.6 180.4 179.2 178 176.2 174.6 173 170.5 169 167 164.4 161.9 158.3 156.8 157.1 159.1 158.2 156.2 154.4 151.8 148.9 147.5 145.6 143.5 141.2 136.7 133 130.9 132.4 139.6 145.2 148.1 149.6 151 145 141.4 153 158.9 161.4 162.1
219 224.7 226.9 229.8 232.3 234 235.2 235.7 236.5 236.8 237.1 237.1 236.8 236.8 237.2 237.2 237 236.6 235.7 235.1 233.7 231.7 230 228.2 225.8 224 222.6 224.3 226.1 226.1 225.7 225.7 225.9 224.7 223.3 221.8 220.6 218.1 216.1 213.4 210.3 207.4 204.6 201 197.8 194.9 191.1 187.3 184.9 181 170.4 165.4 160.9 155.2 144.1 128 131.3 139.8 146 151.1 157.5 163.1 165.6 169 177.1 186.2 190.2 194.4 199.7 203.9 208.2 211.2 213.7 214.8 215.3 214.4 214.6 216 215.8 215.6 215.1 214.2 211.6 212.1 213.8 213.8 213.9 213.9 213.2 213.1 212.5 211.8 211.2 209.8 207.6 204.8 201.6 197.6 193.5 189.4 183.5 172.9 160.4 146.5 130.7 123.6 121.9 136.6 158.2 169.8 177.8 182.1 182 177.6 175.7 175 172.7 169.7 167.3 178.1 195 200.1 200.9 201.1 200.8 200.4 200.2 199.2 198.9 198.6 197.7 196.6 195.5 194.6 194 192 190.7 190.8 189.7 186.2 186.2 186.2 185.3 185.6 186.2 186.5 186.9 187.4 187.4 187.2 187 186.9 185.9 184.7 183.5 182.4 183.3 183.9 183.7 182.8 182 180.7 178.7 177.4 176.3 175.9 173.3 171.4 169.4 167.6 164.7 161.7 159.5 160.4 159.2 160.1 159.3 157.4 155.6 153.8 151.1 149.3 147.2 145 142.5 138.5 136.8 134.3 131 129.9 133.3 138.6 143.4 145.5 139.1 142.9 153.3 157.1 158.9 160
226.3 228.5 230.7 232.5 233.9 234.9 235.4 235.9 235.9 236.1 236.4 236.5 236.2 236.5 236.7 236.6 236.4 235.9 235 234.1 232.6 230.9 229.1 227 225.3 222.8 221.9 223.8 225 225.2 224.5 224.6 224.8 223.9 223 221 219.4 217.7 215.5 212.8 210.2 206.6 203.8 199.5 195.7 193.3 190.8 184.7 177.9 167.9 161.4 163.6 158.1 150.1 139.4 128.5 123.7 128.6 133.5 138.8 149.3 159.8 165.4 170.9 179.9 182.9 184.6 186.7 190.7 194 201.5 208.5 210.2 211.2 211.9 210.6 211.4 212.9 213.3 213.4 212.8 211.1 208.8 210.4 212.5 212.4 212.2 212.2 211.6 211.5 210.8 210.7 210.2 209.3 207.1 204.1 201 197.4 193.4 189.3 182.2 171.3 160.1 147.7 131.9 122.8 126.1 144.7 158.3 166.6 170.4 172.1 171.5 170.8 170.1 167.3 164.7 164.3 171.2 190 198.6 200.9 200.8 200.4 200 199.7 199.6 198.5 197.7 197.1 196.5 195.7 194.6 193 192.8 192.9 191.8 191.1 190.2 187.1 185.8 186.7 185.7 185.9 185.7 186.2 186.3 186.6 186.6 186.5 185.9 185.7 185.4 184.7 183.5 183.3 183.5 183.3 183.3 182.2 181.2 180.5 179.3 177.9 176.8 176.5 174.8 172.2 170.2 168 165 162.8 162.9 161.5 161.4 160.7 160.4 158.7 156.7 155.1 153.2 151.2 149 145.9 143.3 140.6 142.4 140.8 135.5 133.1 129.8 129.2 132.9 138.9 135.3 143.9 151.4 154.9 155.8 156.3
229.6 231 232.3 233.5 234.3 234.6 235 235.2 235 235 235.2 235.7 235.8 236 236.1 236 235.8 235.1 234.2 233.2 231.5 229.7 227.8 225.9 224 221.4 221.9 223.9 224.9 224.6 223.9 224.3 224.2 223.6 222.4 220.3 218.8 216.6 214.9 212.2 209.3 206.4 203.2 199.4 196.8 195.2 193.9 189.6 185 178.1 158 150.6 146.9 135.3 131.3 136.4 135.8 127.1 124.1 125.6 138 152.7 166.1 171 175 176.5 177.7 181.1 186.7 186.4 193 200.3 206 207.6 208.2 207.5 208.1 209.9 210.4 210.3 209.7 208.6 206.9 209.2 210.2 210.6 210.5 210.4 209.9 209.6 209.4 209.6 208.9 208 206.4 203.4 200.5 197.1 193.4 189.1 181.2 170.6 160.1 148.3 134.8 121 131.8 142.6 152.8 161.6 163.9 164.2 163.2 161 158.7 157.4 164.6 170.5 185.7 194.9 199.1 200.4 200.3 200.1 199.3 199.1 199 197.9 196.8 195.7 194.9 194.3 193.6 191.4 190.6 189.7 190.4 189.2 188.8 188.3 187.3 186.9 186.4 186.3 185.7 185.6 185.7 185.9 185.9 185.6 184.8 184.5 184.1 184.1 183.5 183.5 183.5 183.5 183.4 182.3 181.1 180.3 179.8 178.5 177.3 176.4 175.6 173.3 170.9 167.9 165.4 166 165.5 164.2 163 162 161 159.9 157.7 155.9 154.1 151.6 149.2 146.4 143.9 144.6 145.2 143.6 141 139.4 135.4 130.6 128.7 131.2 135.1 143.7 150 151.8 152.4 152.1
231.8 232.3 233.1 233.2 233.9 234.3 234.6 234.5 234.2 234.2 234.2 234.6 234.4 234.8 235.3 235.2 234.9 234.2 233.2 231.9 230.2 228.3 226.4 224.5 222.5 220 222.6 224.3 224.6 224.1 223.4 223.7 223.5 222.9 221.3 219.9 218.4 216.3 214.3 212.1 208.7 205.7 203 201.4 199.5 196.8 194.3 191.2 187 176.9 157.1 148.1 145.5 144.1 149.4 152.9 152.3 146.5 133.2 121.9 128.5 144 156.7 166.8 169.2 170.1 170 172.1 176.2 183.7 188.2 191 198.7 203.1 203.6 203.1 205.1 206.6 207.1 206.8 206.8 206.2 204.5 207.5 208.9 209.1 208.8 208.2 207.6 207.3 207.9 208.4 207.7 206.9 205.1 203.1 200.2 196.7 192.6 188.1 180.2 170.4 161.1 150.3 139.1 120.7 125.8 134.7 141 152.1 153.8 152.8 152.3 150 150.9 159.6 169.9 176.7 190.2 197.1 199.4 199.8 199.5 199 198.5 197.9 197.4 196.8 195.9 194.6 193.5 192.9 192.3 190.5 189.5 188.4 187.9 187.9 187.6 187.1 187.2 186.9 186 185.6 185.1 184.9 185 185 185 184.9 183.9 183.3 182.9 182.8 183 182.9 182.8 182.8 183 182.6 181.4 180.8 180 179 177.7 177 175 172.3 171.1 169.9 167.9 167.4 166.8 165.4 163.8 163 161.9 160.2 158 155.7 153.7 151.6 149.2 146.8 146.7 147.7 146.2 144.9 142.9 140 137.2 133.6 128.6 129.2 136 143.2 147 148.2 148.6 146.4
231.4 232.1 232.2 232.2 232.7 233.8 234 234 233.5 233.3 233.2 233.1 233.5 233.8 234.2 234.2 233.8 233.1 231.6 230 228.9 227 225.1 223.2 220.2 218.9 222.9 223.7 224.4 223.7 223 223.2 222.7 221.9 220.7 219.1 217.4 215.3 213.3 211.5 209.1 206.4 204.3 202.1 199.3 197.1 194 190 185.5 176.7 157.3 149.9 155.7 164.2 165.6 165.2 164 160.7 146.4 131.4 123.2 136.2 144.8 154.7 155.2 156.7 159.4 160.8 167.2 175.3 180.8 185.2 190.7 197.2 199.2 198.6 200.5 202.6 203.1 203.2 203.5 201.9 202.7 205.1 205.4 205.6 205.7 205.3 204.5 204.8 206.1 206.8 206.3 205.7 203.9 201.9 199.3 195.5 192.1 188.2 181.2 172.8 164.8 155.3 143.3 122.7 120.7 126.2 130.3 136.4 137 136.2 140.8 147.2 158.3 166 173.8 184.6 193.9 198 199 199.1 198.8 198.1 197.7 197.1 196.4 195.6 195 193.7 192.3 191.5 190.9 189.7 188.5 187.3 186.9 186.6 186.3 186 186.4 185.9 184.8 184.2 184 183.8 183.8 184 183.6 183.6 183.7 182.1 181.6 181.8 182 181.9 182 182.2 182.4 181.9 181.6 180.8 179.5 179.1 178.2 177.3 175.7 173.9 172.5 170.9 169.5 168.4 167.3 166.2 164.9 162.6 161.4 160 157.9 155.7 153.4 151.3 149.7 149.3 149.5 148.8 147.1 145.6 143.1 140.2 137.5 135.1 129.5 128.1 133.6 139.4 142.1 144 143.7 140.6
230.9 231.1 231.5 231.4 231.9 232.4 233.1 232.8 232.6 232 231.6 231.9 233 233.4 233.2 233.2 232.7 231.9 230.6 229 227.5 225.6 223.5 221.1 217.1 219.6 222.8 223.6 224.1 223.4 222.8 221.7 221.1 220 219.7 218 216.4 214.2 212.3 210.5 208.1 206 203.6 201.3 198.4 195.6 192.2 187.8 178.2 166.6 162.8 172.2 178.3 178 175.6 172.5 169.1 162 153.6 139.5 126.3 128.7 134.4 137.4 139.3 141.8 144.8 152 159.6 167.7 176.4 180.2 186.2 190 191.4 191.6 195.7 197.6 198.6 199.6 199.9 197.6 200.2 201.9 202.4 202.7 202.5 202.1 201.5 203.4 204.4 205 204.4 203.8 202.7 200.8 198.2 195 191.7 187.9 182.5 174.8 167.8 160.9 147.3 132.9 120.9 120.3 121.4 122.7 125.6 139.6 148.1 155.8 164.1 173.4 179.2 191.9 195.8 198 198.3 198.4 197.9 197 196.9 196.2 195.4 194.6 193.9 192.7 191.2 190 189.1 188.7 187.5 186.3 185.8 185.9 186 186.1 186.2 185.1 183.9 182.8 182 181.7 180.9 181.2 181.8 181.7 181.4 180.9 180.7 180.9 181.1 181.2 181.4 181.6 181.7 181.5 180.4 180.4 179.8 179 178.3 177.5 176 174.4 172.3 171.6 170.1 168.5 167.2 166.1 164.8 162.7 160.3 158.6 156.8 155.5 153.5 152.3 151.3 151 150.5 149.3 147.6 145.9 144 142 139.2 136.7 131.7 128.8 127.9 132.8 136.6 139.1 138 137.8
230 230.2 230.9 230.7 231.1 231.4 231.7 231.4 231.2 231.2 231.2 231.5 232.3 232.2 232.4 232.2 231.6 230.6 229 227.7 225.9 223.7 221 217.3 213.4 220.4 222.3 222.8 223.1 223.2 222.5 221.5 219.7 219 218.1 216.9 215.3 212.7 210.9 209.2 206.7 204.6 201.6 199.2 196.5 193 188.3 180.1 181.2 184.2 185.8 186.2 185.4 183.5 179.5 175.5 170.1 164 160.3 148 132.2 123.1 126.3 126.2 130.5 134.5 137.9 146.6 160 173.3 179.5 181.6 182.6 184.4 185 187.3 190.2 191.7 192.9 195.3 195.9 194.5 197 198.7 199.4 199.6 199.2 198.8 199.3 201.1 201.8 202.4 201.9 201.5 200.7 199.5 197.7 194.6 190.9 187.1 181.8 176.3 169.6 163 152.4 138 126.3 121.4 120.2 124.8 140.7 151.7 157.7 165 171 179.4 190 194.6 196.6 197.7 197.5 197.3 196.8 196 195.8 195 194.2 193.4 192.6 191.5 190 188.6 186.8 186.5 185.9 185.2 184.8 184.7 184.9 185.3 185.1 183.2 181.9 180.7 179.1 177.7 177.3 178.3 178.9 179.2 179.1 180 180.9 180.6 180.6 180.3 180.3 180.5 180.8 180.7 181 180.2 179.4 178.7 177.9 176.9 175.5 174.2 172.5 171.2 170.3 169 167.4 166.1 164.6 163.1 160.6 159.3 158 156.6 155.2 153.2 152.2 151.8 150.8 149.2 147.9 146 144 142.4 140.5 138.4 136.8 131.5 127.7 126.1 126.7 129.7 133.6 139.4
228.7 229.4 229.4 229.7 230 230.4 230.7 230.2 229.5 229.3 230.1 230.9 231 231.1 231.2 231 230.1 228.8 227.3 225.9 224.4 222 219.4 215.2 212.9 220.4 221.6 221.8 222 222.3 222.5 221.8 220.6 219.5 217.7 215.5 212.5 209.8 208 206.9 204.6 202.1 199.1 195.6 192.9 189 190.3 191.6 192.2 192.2 191.5 190.4 187.6 184.6 181.3 177.1 170.8 165.5 162.1 158.5 141.2 127.8 122.8 121.4 124.4 128.3 135.3 142.9 157.3 164.4 167.1 166.7 166 170.5 171.1 176.8 180.4 182.7 185.4 189.7 191.3 192.5 195.1 196.5 197.4 197.4 196.8 196.7 197.1 198.3 198.8 199.2 199.3 199.2 198.8 197.8 196.8 194.2 190.5 186.8 182 176.1 170.2 164 154.6 140.4 128.5 121.9 120.3 125 146.7 161.3 167 170 181.8 188.5 191.6 195.3 196.4 196.7 196.5 196.2 195.7 195.2 194.4 193.5 192.6 191.8 191 190.1 188.6 187.1 185.7 184.6 185 184.6 184.2 183.7 183.8 183.8 183 181.7 180.6 179.2 176.8 175.7 175.6 175.9 176 176.8 178.5 179.2 180.3 180.4 180.4 180.2 179.9 179.5 178.6 179.6 180 179.4 178.8 178.2 177.4 176.4 175.1 173.8 172 171.2 169.7 168.8 167.4 166.1 164.8 163.9 162.8 160.4 158.8 157.2 156.1 154.5 153 152.1 150.9 149.4 147.6 145.7 143.7 142.2 140.8 139.2 137.9 137.1 135.7 131.6 126.3 126.1 130.3 137.9
227.9 228.2 228.4 228.7 229 229.3 229.2 229.4 228.7 227.2 228.2 229.3 230 230.1 230.1 229.7 228.9 227.7 226.3 224.6 222.8 220.1 216.7 210.1 213.7 219.6 220.6 221.1 221.5 222 222.1 221.4 220.5 218.7 217.4 216.2 213.7 211.1 207.7 203.6 200.9 199.2 197.1 196.5 195.8 196.2 196.8 197.2 196.9 196.2 194 191.6 188.3 185.1 181.7 177.5 171.2 166.5 161.5 155.8 146.8 133.9 123.4 121 124.8 132.4 137.8 139.1 141.8 143 146.6 151.3 157.7 162.9 167.8 173 178 183.3 187.4 189.6 192.6 193.7 195.4 195.8 195.8 196.1 195.2 194.8 194.8 195.6 195.9 196.3 196.5 196.3 195.9 195.7 195.2 193.5 190.2 187 181.1 175.5 170.1 164.2 154.6 140 127.4 120.6 119.5 128.8 150.8 163.3 172.3 179.9 186.6 190.7 193.2 194.9 195.4 195.7 195.7 195 194.1 193.3 192.4 191.6 190.7 189.9 189.2 188.4 187.3 185.8 184.3 182.8 182.9 183.4 183.3 183.1 182.5 181.5 181 180 178.8 178.2 176.5 175 174.2 173.9 173.9 176.1 178.5 179.6 180.4 180.3 180.3 179.8 179.2 178.7 177.6 177 178.5 178.5 178 177.1 175.9 175.5 174.6 173.4 171.4 170.6 169.4 168.3 166.6 166.1 164.9 164 163.1 162 159 157.8 156.5 155.2 153.9 152.2 150.4 148.4 146.9 145.1 143.2 141.5 139.9 138.5 137.7 136.9 135.7 133.9 130.3 125.6 126 135.8
226.7 227.1 227.4 227.7 227.9 228.2 228.3 227.9 226.2 226.4 227.3 227.8 229.1 229.2 228.4 227.8 227.4 226.4 224.9 223 221.2 218.4 214.2 202.4 213.5 217.5 219.3 219.7 220 221.1 221.4 221 219.5 218.3 217.2 215.4 213.3 211.2 208.2 204.8 203.3 202.6 202.2 201.5 201.2 201.2 200.9 200.7 199.3 197.5 195.1 192.3 188.7 185.5 181.8 177.5 167.6 165.1 158.1 151 141.9 129 120.2 122.2 134.3 142 145.6 149.6 156.7 160.1 164.4 170.8 174.7 178.9 182.9 186 189.4 191.3 192.6 193.7 194 194.5 195.3 194.7 194.5 194.3 194.2 193.8 193.2 193.5 194.3 194.9 194.3 193.7 193.7 193.4 193.1 191.8 189.3 184.9 179.7 172.5 166 160.9 151.8 137.7 121.9 119.4 126.7 137.8 154.4 164.4 173.7 183.1 187.1 190.4 193 194 194.2 194 193.9 193.5 192.7 191.3 190.5 189.7 188.9 188.1 187.5 186.7 185.6 184.5 183 181.4 180.6 181.4 182 181.9 181 179.8 179 177.7 176.6 176.1 176 174.5 173.4 172.8 174.1 176.4 179 179.8 180.3 180 179.6 179 178.4 177.8 177 176.3 176.6 177.3 177.2 175.9 174.4 173.2 172.5 171.9 170.8 168.6 167.1 166.9 166.3 165.6 164.9 163.9 162.7 161.4 159.6 158 156.7 154.7 152.9 151.3 149.7 148.1 145.8 143.5 141.5 140.1 138.9 137.8 137.1 136.4 135 133.3 130.7 126.6 125.6 127.1
