ncols 200
nrows 92
xllcorner 380000
yllcorner 112800
cellsize 50
52.9 52.4 52.3 51.6 51.5 51.7 51.7 51.7 51.8 51.9 51.9 52.1 52.3 52.6 52.5 52.6 53.7 53.2 53.5 53.6 53.4 53.6 54.4 54.3 55.4 57.1 59 61.1 60.9 59.2 57.5 56 54.6 54.2 54.1 54.4 54 53.1 51.5 50.6 51.1 51.9 52 51.8 51.3 50.3 49.7 49.8 49.4 49.4 49.4 49.6 50.2 49.9 49.9 50.7 51.6 52.6 53.7 55.4 57 57.5 58.4 58.9 59.2 59.3 59.6 59.8 61.2 62.6 67 72 76 79.5 81 80.2 78.2 76.9 75.2 72.7 68.1 63.9 61.7 61.6 68.1 72.4 74.5 77.5 82.6 87.2 90.4 93.2 94.6 96.6 96.1 92.3 87.4 84.2 80.4 78.9 79.5 81.9 82.5 82 80.6 79.5 78.9 77.7 76.8 75.6 75.2 74.2 72.7 73.4 74.7 75.3 76.4 78.3 79.1 81.2 82.4 85.4 87.4 88.1 88.7 91.4 92 91.1 91.2 91 91.2 90.2 89.5 89.1 84.8 88.9 88.5 86.2 83.5 81.7 87.3 91.6 98.6 102.3 107.4 112.6 117.7 119.5 121.6 124.5 125 124.2 123.8 122.8 120 117.1 113.8 111.5 107.2 103.6 104.8 114.3 127.1 142.2 156.8 168.4 180.7 189.4 197.2 203.6 208.6 212.7 217 219.7 220.9 220.3 219.9 217.8 215 208.6 202.6 194 187.8 181.3 175.9 170.5 161.6 152.7 167.7 174.2 174.3 168.6 161.1 149.3 138.9 148.5 150.5 141.2 141.1 154.9
52.1 52.1 51.8 51.6 51.8 52.3 51.5 51.6 51.7 51.8 51.7 51.9 52.3 52.3 52.3 52.3 52.8 53.3 53.3 53 53 53.1 53.5 54 55 56.2 57.9 58.7 59 58 56.3 54.9 53.7 53.1 52.9 52.9 52.7 52.1 51.4 51.8 52 52.9 53 53.1 52.3 51.7 50.7 49.9 50.2 50 50.1 49.7 49.4 48.9 49.3 49.6 50.8 51.7 52.8 54 55.6 56.2 57.7 58.4 58.4 58.2 57.5 58.7 60.8 64.2 67.8 70.3 73.5 76.7 76.3 76.3 76.1 75.1 73.7 70.5 67 62.5 60.6 61.7 67.6 72 74.1 76.9 81.6 85.7 85.8 87.1 87.7 90.4 92.5 90.7 85.7 81.6 76.7 75.5 79 81.5 81.8 81.6 80.8 79.6 77.8 76.8 76.4 75.8 75.4 74.4 73.6 72.2 73.6 74.6 75.4 77.2 78 79.2 80.7 83.3 84.7 84.5 86.2 88.3 88.7 88.3 88.8 89.1 88.9 87.9 88.2 87.1 85.5 87.6 86.9 84.3 80.8 84.4 87.9 92.1 98.9 101 104.5 107.2 110.1 113.4 115.1 115.8 116.4 116.1 115.6 114.7 113.4 111.1 109.7 106.6 103.2 102.2 108.1 121 139.5 155.6 166.8 178.6 186.1 192.8 199.1 204.8 209.7 213.9 217.2 219.2 220.6 219.6 219.5 217.7 215.7 209.9 204.4 199.1 192.7 186.6 181.2 174.3 164.3 152.8 153.9 168.3 169.6 165.9 158.2 144.7 135.5 140.3 138.3 141.2 155.2 165.9
51.9 52.4 53.1 53.3 52.4 51.8 51.5 51.6 51.7 52 52.4 52.1 52.1 52 52.1 52.1 52.1 52.5 52.2 52.5 52.6 52.9 53.6 54.1 55 56.2 57.1 57.8 58.7 57.3 55.8 54.6 53.7 53.1 52.4 52.2 51.9 51.4 52.5 53.1 53.4 54 53.8 53.7 53.2 52.3 51.4 50.9 50.3 50 49.7 49.6 49.3 49.2 48.6 49.4 49.8 50.8 51.8 52.8 54.1 55.4 56.7 57.4 57.5 57.3 56.6 59.3 61.8 64.5 66.7 68.5 70.4 72.4 72.7 73.9 74.9 75.1 74.4 70.7 72.1 64.7 60.5 60.7 64.3 68.4 71.5 74.7 78.7 80.8 79.8 79.3 79.8 81.8 85.2 83.1 79.6 75.2 73.3 76 80.3 82.5 83 82.4 81 80 78.7 77.3 77.4 76.2 75.5 74.6 73.7 71.2 72.8 74 74.9 75.4 77.3 78.2 79.4 81 81 81.5 83.4 84.2 85.2 84.8 85.8 86.1 85.4 85.2 85 84.7 83.7 84.8 84.6 82 78.9 85.1 88.3 92.5 97.5 99.8 102.6 104.2 106 107.5 108.4 109.8 110.1 110 109.7 108.8 108.2 106.8 104.5 102.5 100.8 102.8 114.7 132.7 150.4 162.8 173.7 182 187.9 192.7 197.7 203.1 208.3 212.9 216.4 218.4 219.5 219.1 218.2 217.8 216.1 212.5 207.2 201.6 196.5 190.1 183.9 175.7 165.3 155.2 146.1 158.1 163.1 160.4 149.6 137.7 133.1 136.8 144.4 156.7 167.1 173.7
53.1 53.2 53.8 53.6 53 52.7 51.7 51.1 51.5 52 52.1 52 52 52 51.8 51.7 51.8 52.1 52.3 52.3 52.4 52.8 53.6 54.2 55.3 56.3 57.5 58.2 58.8 57.8 56.7 55.1 54.3 53.7 53.1 52.4 52.4 53.1 54 55.5 55.5 55.2 54.6 54 53.5 52.3 51.7 51.7 51.2 50.6 50 49.5 49.2 49.3 49.2 49.2 49.3 49.8 50.8 51.7 53.2 54.3 55.3 55.5 55.9 55.6 57.6 60 61.8 63.4 65.4 66.6 68.2 69.4 70.1 71.5 73.2 74.7 76.3 76.1 78.2 69.1 59.7 60.2 59.9 63.6 67.8 72.2 74.6 75.1 74 72 73.3 75.7 76.8 75 73.8 72.2 75.2 77.6 81.4 84.6 84.8 83.7 81.6 80.6 78.8 78.3 78.2 77.6 76.2 74.9 73.5 72 71 73.4 74.4 75.7 77.1 77.6 77.1 78.2 77.7 79.1 80.2 81.3 81.7 82.5 83.8 84.3 84.3 83.4 82.8 81.8 82 82.4 81.7 79.3 82.6 85.6 89.5 93.1 97.3 98.6 100.9 101.1 102 103.2 104.1 104.8 105.3 105.3 105.2 105.2 103.8 102.4 101.3 100.1 100.4 108.1 119.7 135.6 150.5 160.7 169.6 176.8 182 187.5 192.9 198.3 204 209.5 214.6 217.3 218.8 219.1 219 216.7 215.4 213 208.3 203.5 199.9 193.3 185.7 176.9 166.5 157.6 147.7 144.4 150.1 150.7 140.3 132.8 139.4 149.6 160 168.6 175.4 180.4
55.4 55.9 55.1 55 54.5 53.2 51.8 51.8 51.4 52 51.9 51.9 51.8 51.9 51.8 51.6 51.6 51.8 52.1 52.2 52.5 53.4 54.2 54.6 55.4 56.4 57.6 58.9 59.2 58.3 57.2 55.7 54.9 54.3 53.8 53.6 53.8 54.4 55.9 57.3 57 56 55.2 54 52.9 52.4 51.8 51.7 51.7 51.2 50.2 49.2 49.2 49.3 49.1 49 49 49.2 49.7 50.5 51.9 53.1 53.9 54.2 55.2 55 57.4 59.8 61.2 62.2 63.4 64.8 66.1 67.3 68.6 69.3 71.4 74.8 76.9 80.7 81.5 78.8 65 60.1 59.7 60 64.4 69.8 71.7 71 68.3 65.2 66.4 68.4 69.4 70.3 74.3 75.7 78.1 82.5 82.7 85.8 86.4 84.9 82.7 81 79.7 79.7 79.4 78.2 77 75.6 74.3 72.2 71.1 73.5 74.9 74.8 75.7 75.9 76.2 75.6 74.6 76.2 76.8 77.2 78.6 80.2 81.4 81.7 81 81.5 80.5 79.9 79.3 79.3 77.9 80.9 84.4 86.7 90 94.1 97 98.2 98.7 98.4 99.2 99.9 101 101.6 101.8 102.3 101.5 100.9 100 99.2 97.7 100.1 102.4 104.7 109.4 120.6 130.7 140.9 151.2 158.1 165.8 175.6 184 191.2 199.2 206.9 213 216.2 218.6 219.4 216.7 215.3 214 212.4 209.1 204 200.2 197 188.7 181.4 173.4 165 156 146.8 138.9 138.9 133.6 136.3 149.7 160.3 168.6 175 179.1 182.8
58.8 57.6 56.6 55.7 55 54.1 52.5 52.3 51.5 51.9 51.5 51.3 51.1 51.3 51.6 51.6 51.6 51.6 51.8 52.4 52.9 54.3 54.8 55.6 56.4 57.1 58.4 59.1 58.8 58.2 57.3 56.2 54.9 54.7 54.1 54.1 54.1 56 57.3 58.3 57.4 56.7 55.1 54.2 53.2 52.7 51.3 51.9 51.6 51.2 50 49.4 49.4 48.9 49.4 49.3 48.8 48.9 48.7 49.7 50.8 52.1 52.9 53.5 54 55.5 57.7 58.8 60.3 60.9 62 63.6 64.5 65.9 66.5 67.9 71 74.2 74.3 77.8 81.2 80.6 78 63 61 59.8 60.4 67.9 70.5 65.4 64.2 67.5 68.5 69.4 68.8 71.3 78.6 82.9 78.8 83 84.7 87.5 87.3 85.3 83.6 82.2 81.6 81.3 80.4 79.4 77.9 76 74.7 72.8 71.4 73.2 73.2 73.1 73.2 71.9 72.4 70.9 70.9 71.4 71.1 71.8 74 75.1 77.1 77.9 77.9 78 78.8 77.8 74.7 79.6 81.6 82.9 84.8 88.2 90.7 93.9 96.4 96.7 96.4 97.1 96.7 97.6 98.8 98.2 98.3 98.7 98.3 97.9 97 96.4 96.6 98.3 100.9 102.6 103.9 105.6 113.2 122.2 130.7 137 144.5 151.9 161.3 181.5 195 205.1 211.3 215.7 217.8 216.9 216.3 215 214.3 211.6 208.4 203.7 200.7 198.2 191.5 185.7 179 173.1 165 159.7 152.3 139.5 131.5 137.9 154 164.7 172.4 177.1 180.6 182.4
59.3 58.3 56.7 55.3 54.6 53.8 52.5 52.1 51.6 51.6 51.3 51.3 51.2 51.4 51.4 51.6 51.7 51.7 52 52.8 54.2 56.4 57.4 58.3 57.7 59.5 59.6 59.2 58.6 57.8 56.5 55.4 54.6 53.7 53 53.4 54.5 56.3 57.8 58 56.8 56.2 55.5 54.5 53.2 52.8 52.1 52.2 51.4 51.1 50.3 49.8 49.2 49.9 49.9 49.5 48.4 48.4 48.8 49.5 50.3 51.3 52.2 53.3 54.9 55.9 56.9 58 59.4 59.9 60.8 62.2 63.1 64.6 65.5 67 68.4 70 70.9 72.8 75.4 78.8 79.5 76.3 65.1 59.8 58.3 63.4 63.1 63.8 69.6 70.7 71.8 73.2 75.3 72.2 79.3 83.6 82.9 82.2 85.8 89 88 86 85.6 84.9 83.1 83.1 81.8 80.4 78.2 76.7 74.7 72.6 68.9 70.2 70.8 69.2 69.4 69 71.4 72.9 74.4 74.6 74.9 75.1 74.6 76 73.2 73.8 74.7 72.9 74.3 74.6 79.1 81.1 82.9 84.1 86.6 88.9 91.7 93.7 94.9 95.5 96 94.8 95.1 95.4 95.3 95.9 95.7 95.7 95.6 95.1 94.7 96.9 98 101.4 105.3 107.7 108.5 107.7 106.7 109.7 116.1 121 127.8 134.5 156.4 180 194.6 204.6 211.2 214.8 216.2 216.8 215.5 213.9 211.5 209.2 206.8 203.7 201.2 196.6 190.8 186.8 181.9 176.2 171.3 165.1 156.6 141 129.3 140 156.9 166.6 172.6 176.3 178.5 179.3
58 56.9 55.6 54 53.4 52.7 51.6 50.8 51.4 51.2 51.2 51.4 51.3 51.3 51.4 51.5 51.7 52 52.9 53.8 55.2 57.8 59.2 59.5 59.5 59.8 60.8 60 58.5 57 55.5 54.3 53.3 52.4 51.9 52.1 53.2 54.9 56 56 55.6 55.4 55.2 54.7 53.4 53.6 53.4 53 52.2 50.9 50.6 50.3 50.3 50.3 50.1 49.6 49 48.3 49.1 49.6 50.6 51 52 53.1 54.7 56.1 56.8 57.1 58.3 59 60 61.1 62.8 63.5 64.8 65.3 66 67.5 68.5 69.2 70.4 75.7 79.3 78.6 70.8 61.8 59.1 59.4 63 69.4 73.3 73.9 75.7 78.6 80.4 78.2 76.5 79 79.8 82.3 87.4 90.1 89.1 88.3 90.4 89.5 86.3 84.7 83.1 79.5 77.7 75.3 74.3 71.2 66.8 69.1 66.8 69.3 70.3 72.5 73.1 74.5 75.1 75.8 75.8 76.2 77.2 77.8 78.6 79 78.5 73.5 75.1 77.3 81.2 83.5 85.3 85.5 88.5 90.1 92.2 92.3 92.5 93.2 93.1 93.2 92.8 93 93.3 94.1 93.7 93.7 93.5 93.1 94.7 97.3 99.2 102.3 106.4 110.1 112.4 111.4 109.7 110.6 112.3 116.1 123 140.3 160.3 183.5 196 205 211 214 215.2 214.9 213.5 211.8 208.1 203.6 201.5 200.5 197.6 194.5 190.5 186.3 183.9 179.5 174.7 168.1 159 139.6 129.3 140.8 158 166 170.8 173.2 174.6 174.6
55.6 54.4 53.3 52.5 51.9 50.9 51.2 51 51.1 51.7 51.6 51.4 51.5 51.5 51.5 51.5 51.7 52.4 53.6 54.8 56.2 58.1 59.2 59.4 59.6 59.7 58.9 58.6 57.3 55.8 54.4 52.8 52.1 50.7 50.8 50.9 52.3 53.1 53.5 53.5 53.7 53.6 54.3 54.4 53.9 53.3 52.7 53.3 52.5 51.8 51 50.6 50.6 50.4 50 49.5 48.8 48.4 49 49.6 50.1 50.7 51.7 52.8 54.3 55.6 56.4 56.8 57.9 58.4 59.5 60.8 62.2 62.6 63 63.6 64.3 64.9 65.9 67 68.3 72.6 77.8 79.3 74.5 63.6 58.5 59.1 64.7 70 72.2 74.9 78.7 82.4 83.6 81.4 78.3 79.4 83.6 88.3 87.9 93 92.7 91.8 94.2 92.1 87.8 86.8 83 79.1 75.7 73.8 72.1 69.1 65.9 66.6 69.7 71.2 72.8 73.5 75.4 75.7 76.1 76.8 76.8 76.8 77.9 79.4 80.1 80.8 80.4 78.9 76.4 76.6 79.5 83.2 84.9 86.5 88.5 90.3 91.8 91.5 90.5 90.3 90.2 90.3 90.7 91.1 91 90.5 88 88.7 92 94.7 97.5 100.1 101.1 104 106.9 110.6 113.9 114.8 114.2 116.5 118.6 120.9 133.8 149.9 169.1 187.2 197.8 206.2 211.2 213.1 214.5 213.6 211.9 208.8 204.3 199 197.2 195.4 192.1 189 186 183.8 181.1 178 173.2 167.3 158.5 136.9 129.9 141.4 157.8 163.3 166.1 168 168.7 168.1
53.5 52.1 51.4 50.9 50.7 50.9 50.9 51.7 51.6 51.3 51.4 51.6 51.4 51.4 51.6 51.6 52 53.2 54.8 56 57.1 57.6 58.2 58 57.6 57.4 57 56.3 55.1 54.3 53 51.7 50.7 49.9 50 51 51.8 52.3 52.1 52.1 52.1 52.4 52.7 53.9 53.5 53.7 53.1 53.5 52.9 52.3 51.4 50.5 50.5 50.1 49.9 49.1 48.3 48.6 49 49.4 50 50.6 51.5 52.6 54.1 55.3 56 56.5 56.8 58.1 59.1 60.4 61.2 61.6 61.7 62 62.6 62.7 63.7 64.5 65.7 69.2 75.3 78.4 73.3 64.2 56.6 58.2 65.1 70 71.6 73.5 78.2 83.4 83.7 81.4 80.9 81.2 83.8 91 94.5 97.8 96 94.2 95.5 93.5 90.8 88.6 83.4 77.8 74.2 71.4 66.9 68.5 70 70.9 71.5 72.7 73.6 75 75.6 76 76.8 77 77.8 78 78.9 80.2 80.8 81.6 81.6 81.5 79.3 77.3 77.8 81.5 83.3 86.5 87.4 88.7 89.5 89.3 88.6 88 87.8 87.9 86.5 86.7 86.1 86.1 88.9 92.8 96.1 98.2 100.6 104.4 107.1 111.1 114.7 116.6 117.5 119.3 120.4 124.6 129.3 131.3 146.4 161.9 181.2 192.5 201.5 208.1 211.8 212.5 213.7 211.8 209.1 205.3 200.3 196 192.6 189.7 185.6 182.7 179.9 178.6 176.5 173.3 169.2 165.5 156.7 137.3 128.9 140.4 153.9 158.1 159.6 160.8 160.7 158.3
51.5 50.8 50.4 50.9 50.7 50.8 51 51 51.1 51.5 51.3 51.3 51.3 51.1 51.5 51.7 52.3 53.6 55.2 56.5 57.8 57.4 56.9 56.5 56.1 55.8 55 54.3 53.2 52.2 51 50.4 49.8 49.2 49.5 50.3 51.5 51.3 51.2 51.1 51 51.2 51.5 52.7 53.4 53.3 53.2 53.4 52.8 52.3 51.5 50.8 49.7 49.1 49.2 48.6 48.2 48.5 49 49.3 49.8 50.4 52 52.8 53.7 54.7 55.5 55.3 56.8 57.6 59.1 59.3 60.1 60.3 60.4 60.5 60.7 61.2 62.3 63.3 64.7 67.9 72 76.1 70.7 62.1 58.1 58.4 65 67.7 68.1 71.1 75.1 80.3 81 81.6 81.3 82.4 86.3 90.6 101.4 104.9 97 91.1 89.7 91.1 92.4 89.9 84.2 76.7 72.2 67.2 66.2 70.7 71.2 72.5 73.2 73.9 74.2 74.7 75.7 76.8 77.2 77.3 78.4 79.1 79.8 80.2 80.7 80.8 81.4 82.3 83 78.2 76.4 77.1 79.3 83.4 85.7 86.9 87.1 86.3 86.5 84.4 84.9 83.8 86 88.2 92.2 93 94.4 96.9 98.9 101 105.2 114.2 124 132.4 137.8 138.5 132.1 131 131.4 136.9 143.6 147 160.1 175.8 189.9 198.5 205.4 210 212.7 213.7 212.3 210.6 206.9 199.9 196.9 190.3 185.3 180.9 175.7 174.1 172.3 170.9 169 166.8 164.9 161.7 156 140.3 128.7 136.3 148 148.8 148.9 147.3 145.5 143.1
50.3 50.6 50.9 51 50.5 50.8 50.9 51 51.2 51.3 51.3 51.5 51.5 51.7 52 52.3 53.1 54.3 55.1 56.2 56.7 56.3 55.3 55.2 54.2 54.1 53.2 52.8 52.3 50.9 49.6 49.5 48.7 49.4 48.9 49.8 50.5 50.7 50.4 50.1 50.4 50.8 50.9 51.3 52.8 53.2 53.3 53.3 52.3 52 50.7 49.8 49.2 48.8 48.2 47.9 48.2 48.6 49 49.4 50 50.4 51.5 52.6 53.5 54.4 55.1 54.9 55.7 56.5 57.7 59 59.5 59.8 59.6 59.5 59.4 59.7 60.5 61.8 63.5 65 69.8 71.8 67 58.5 57.6 57.5 60 63 65.1 68.3 70.7 74.1 76.6 78 79.8 82.6 87.7 94 103.5 106.1 99.3 90.1 85.2 85.3 88.1 88 81.4 75.1 71.1 64 69.3 70.8 72 73.1 73.4 73.5 74.1 74.9 76.3 76.6 77.1 77.7 77.8 78.5 79.8 80.3 81.2 82.6 83.3 84.3 85.6 82.6 81.6 78.3 79.4 76.7 78.9 80.6 81.1 81.1 84.1 84.7 85.7 88.9 91.3 92.5 93.8 95.1 96.9 100 103.5 108.2 118.1 131.6 141.8 148.8 151.5 152.2 151 149.8 148.7 153.7 160.9 167.2 176.8 188.1 195.9 204.2 209.3 211.9 212.7 212.4 211.2 209.1 204.7 198.6 194.9 190.1 183.9 178.8 172.8 167.4 161.2 156.4 153.4 153.2 151.4 151.4 151 141.1 129.2 129.7 133.9 132.3 132.2 135 142.5 149.9
51 50.7 50.6 51.1 50.7 50.7 50.9 51.1 51.2 51.4 51.5 51.4 51.6 52.2 53 53.4 53.8 54.3 54.4 54.5 54.3 54.3 53.2 53.9 53 52.5 51.9 51.5 51 50.4 48.9 48.8 48.6 48.3 48.7 49.3 49.8 49.9 49.5 49.2 49.3 49.7 50 50.3 51.4 53 51.9 52.8 52 50.5 48.3 48.1 48.1 48.2 47.9 48.3 48.5 48.9 49.4 49.8 50.2 51 51.5 52.4 53.3 54.1 54.5 53.9 55 56.2 57.9 58.6 59.3 58.6 58.3 58.3 58.2 58.6 59.3 60.4 61.7 63.5 65.6 67.4 62.7 57 56.9 59.3 64.3 66.7 68.6 68.7 69.2 71.7 73.9 76.8 82 83.5 87.2 96 104.3 107.8 104.5 94.7 84 80.1 83.1 83.5 77.7 75.4 72.1 64.2 69.2 70.9 72 73 73.1 73.3 74.1 74.9 76.3 76.9 77.5 78.1 79 79.9 79.9 80.8 82.3 83.1 83.7 84.8 85.4 85.2 83.1 83.7 83.1 83 81.6 81.8 85.2 86.8 87.8 89.2 90.6 91.2 92.7 94.5 96.2 98.4 101.1 104.9 110.4 122.3 134.3 145.8 157.2 164.1 168.9 169.4 168.2 168 169.6 173.5 179.3 186.7 192.5 197.4 203.4 208.2 211.4 212.9 213.4 212.6 211.4 209.1 206.1 202.4 199.5 194 189.5 186.9 183.1 179 173.9 169 163.6 158.2 150.6 145.2 139.7 133.7 130.7 126.8 126.2 134 146.2 152.9 160.1 167
50.8 51.4 51.1 51 51.3 50.7 51 51.3 51.5 51.9 51.9 52.3 52.7 53.2 53.8 53.3 54.1 54 53.2 53.4 53.5 53.3 52.8 52.8 51.7 50.7 50.4 49.9 49.8 49.3 48.9 48 47.8 48.1 48.5 49 49 48.8 48.7 49.1 48.9 49 49.3 49.8 50.9 52.4 52.2 52.3 51.3 49 48.2 48.1 48.2 48.4 48.3 48.6 48.9 49.4 49.7 50.1 50.3 50.7 50.8 51.8 52.5 53.2 53.9 52.4 55 55.6 57.7 59 58.9 58.2 57.4 57 57 57.1 58.2 59.2 60.9 62.2 62.7 62 60.7 57.9 56.7 61.1 67.4 69.5 72.2 72.2 73.1 73.6 76.3 79.7 82.6 84.7 88.9 95.6 103.8 107 104.9 98.3 87.6 80.2 75.3 76.6 75.1 73.9 70.5 65 67.9 69.1 70.2 71.6 72.9 73.9 74.6 75.1 75.7 77.4 77.9 78.7 79.3 80.3 80.4 81.3 82.4 83.2 84.6 85.5 85.1 85.2 84.4 84.1 84.5 84.2 84.6 86.5 87 88.4 90 90.9 92.3 93.6 95.1 96.9 99.4 102.6 107.7 113.6 126.2 136.4 150 162.5 172.5 176.7 181.3 183.5 183.9 184.9 187.4 190.3 193.9 197.7 201.1 204.8 208.5 211.3 212.7 213.5 212.9 212.6 211.1 208.7 206.3 203.9 200.9 197.8 193 192.2 190.6 187.3 182.9 178.6 174.5 168.8 163.5 157.6 150.7 145.1 142.9 132.8 125.8 135.5 151.5 161 169 176.2
54.2 57.4 56.7 55.1 53.8 53.2 52.4 52.4 52.6 53.2 54.3 54.3 54.1 53.7 54.1 54.1 53.7 53.6 53.1 52.8 51.8 52.9 52.3 51.4 51.1 49.8 49.5 48.8 48.6 48.4 48.3 47.8 47.4 47.8 48.1 48.3 48 48 48.2 48.1 48.3 48.6 49.3 50.5 51.6 52.4 51.8 51.5 51.2 48.4 47.9 48.7 48.2 48.5 48.9 49.1 49.3 49.4 49.8 49.7 50 50.5 50.5 51 51.5 52.4 53 51.7 54.1 55.1 57.2 58.1 58.5 57.8 57 56.2 56.2 55.9 57.2 58.9 60.2 61.4 60.9 59.4 58.6 56.7 56.4 61.3 67.1 71.3 74 75.2 75.5 75.5 76.9 79.1 81.1 83.1 85.9 91.7 97.6 100.7 103.8 100.4 93.4 83.9 75.6 71.2 70.6 70.8 66.7 64.9 68.2 69.8 71.2 72.4 73.6 73.8 74.9 75.3 76.7 77.5 78.3 79.4 79.6 80.7 81 81.3 82.3 83.2 84.4 85 85.2 85.8 85.6 85 85.5 84.1 86.4 87.3 88.7 91.2 92 93.7 94.8 96.6 98.6 101.2 104.1 110 119.1 128.9 141.3 154.3 166.8 175 181.7 186.8 190.6 193.2 194.9 196.4 198.1 200.2 202.3 205.3 207.7 209.6 211.4 213 213.3 213.5 212.7 211.9 209.6 208.2 206.7 203.7 201 198.9 196.6 193.8 191.5 189.1 185.7 182.3 178.5 173.8 168.8 161.9 156.3 151.3 146 136.2 125.5 135.4 152.2 164 172.8 178.8
58.6 61.2 61.8 60.9 60.2 59.2 57.4 55.7 55.5 55.6 56.3 56 55.1 54.6 53.8 53.5 52.8 52.7 52.2 51.5 51.1 50.6 50.2 50.4 49.7 49.2 48.6 48.1 48.2 48.1 47.9 47.4 47.6 47.2 47.4 47.5 47.7 48 48.4 48.5 48.1 48.7 49.6 51.2 52.5 52.3 50.8 51.2 50.7 47.3 47.9 48.6 48.4 48.3 48.1 48.7 49.1 49.2 49.6 49.8 50 50.2 50.4 50.8 51 51.6 52.6 52.7 53.1 54.9 56.9 57.3 57.6 57.3 56.8 55.5 54.4 55 55 57.4 59.2 60 58.8 56.1 56.1 55.1 57.3 61.3 66.2 72.5 75.5 74.6 75.4 76 76.4 77.3 78.5 79.5 82 85.8 90.7 97 102 100.7 96 87.3 79.5 74 69.9 67.7 65.2 65.9 68.8 70.5 71.5 72.3 73.7 74.7 75.4 75.8 77.4 77.5 78.7 79.6 80.1 80.7 81.2 81.4 81.8 82.9 83.8 84 85 85.5 86.7 86.2 86.8 87.5 88.6 90.5 91.7 93.4 94.9 96.8 99.3 102 104.6 109.5 115.8 124.8 136.1 146.4 156.8 167.9 175.7 182.2 188.4 193.9 197.8 200.4 202.5 204.2 205.2 206.6 208.4 210.2 211.8 213.1 213.5 213.6 213.5 213.1 211.7 210.2 208.2 206.1 204.2 202.3 199.7 197.4 195 192.5 190.6 188.1 185.2 181.8 177.8 173.2 167.7 161.7 153.8 147.9 141.2 128.3 123.5 139.1 155.1 166.7 175.6 181.7
60.4 62.5 63.8 63.8 63.5 63 61.5 60.3 58.9 58.6 57.6 56.7 55.6 54.1 53.2 52.8 52.4 51.8 51.3 50.8 49.8 49.7 49.3 48.9 48.3 48.2 48.8 48.1 47.8 47.6 47.4 47.6 47.4 46.9 46.8 47.6 47.5 47.8 48.1 48.1 48.2 49.1 50.7 51.9 51.9 52.1 51.4 51.2 49.8 48.5 48.3 48.1 47.8 48.1 48.3 48.8 49.2 49.5 49.8 50.1 50.2 50.4 50.7 50.7 51 51.7 52.3 52.5 52 54 55.7 56.7 56.5 56.5 55.8 54.5 54.4 54.9 54.9 55 55.8 57.1 55.8 55.5 55.4 56.3 58.2 60.5 64.7 70.9 73.7 72.9 74.2 75.2 75.4 75.3 76.4 80.5 85.1 87.5 90.8 94.8 98.1 97.1 93.1 86.3 79.8 73.7 69.7 67.4 63.4 66.3 69.3 70.7 71.8 72.7 74 74.9 75.7 76.4 76.9 78 78.2 79 79.7 79.7 80.5 81.1 81.4 82.1 82.2 82.2 84.5 85.5 87.2 88.5 89.2 87.8 91.5 93.9 95.8 98.1 100.9 104.8 109.3 114.5 120 127.8 134.9 142.5 150.4 159.1 169.2 175.8 182.3 188.1 194 198.9 202.2 205.3 207.1 208.6 209.2 210.7 212.1 213.2 214 214.4 214.4 214.1 213.3 212.2 210.2 208.4 206.3 204.2 202.3 199.6 197.6 195 191.1 189.8 188 186 183.1 179.6 175.2 169.6 163 154.9 141.8 132.1 126.6 122.3 129 144.4 160 169.9 177 182.6
59.6 62 63.3 64.4 64.3 63.6 62.8 61.7 60.5 59.2 57.9 57 55.4 53.8 52.8 52.3 52.3 51.2 50.6 50.1 49.5 48.7 48.4 48.1 48.3 48 48.1 48 47.7 47.4 47.3 47.4 46.9 46.8 46.8 47.2 47.3 47.5 47.8 48.1 48.2 49.4 50.8 51.7 51.8 50.6 51 51.1 51 48.5 47.8 47.5 47.8 48.2 48.9 49.4 49.5 49.6 50.1 50.4 50.5 50.5 51.1 51.2 51.1 51.2 52.2 51.5 51.6 53.4 54.3 55.5 56 54.8 53.4 53.8 54.1 54 54.8 54.9 55.5 55.7 55.4 56 56.7 57.7 58.5 59.8 62.7 67.3 70.8 69.8 72 73.3 72.7 73.8 78.1 83.5 85.7 85.8 87.4 92.7 93 91.5 89.2 84 77.7 72.2 69.6 63.9 64.2 66.6 69.3 71.1 72 73.4 73.9 74.6 75.4 76 76.7 77.4 78.6 78.5 79.2 79.5 79.6 79.3 80.1 80.5 81.5 82.3 84.9 86.8 88.3 90.6 92.3 92.2 95.6 99.3 103.1 107.6 114.1 119.3 124.6 130.8 136.1 141.7 148.7 155 161.2 168.9 175.6 181.7 187.1 192.6 197.5 201.7 205.3 208 210 211 211.9 213.1 214.4 215 215.1 214.9 214.4 213.5 212 209.7 207.5 205.5 203.4 201.3 199.1 196.6 194.1 191.3 188 185.3 184.1 182.4 179.6 176.2 171.1 164.8 156.9 140.3 129 123.8 120.5 128.8 139.5 152 165.2 172.9 179 183.2
58 61.2 63 63.9 64.2 63.9 62.9 62.2 60.7 59.4 58.1 56.6 55.2 53.6 52.7 52 50.6 50.6 50 49 48.4 48.4 48 47.8 47.7 47.8 47.8 47.7 47.6 47.4 47.2 46.9 47 47.3 46.9 47 47.2 47.5 47.7 48.3 49.3 49.9 50.5 50.7 50.5 51.2 50.5 50 50 48.1 47.7 47.6 47.7 48.2 48.8 49.2 49.6 49.7 50.2 50.5 50.3 50.6 51.1 51.3 51.4 51.8 51.4 50.9 50.7 52.2 53.4 53.7 53.6 53.2 53.1 53.2 54 53.7 54.6 55.5 55.9 55.6 56.3 56.8 57.2 57.8 57.8 59.5 60.7 63.7 66.3 68.2 69.6 69.3 70.8 74.6 78.9 83.3 83.9 82.2 84.6 88.5 88.4 85.7 82.9 79.8 75.9 71.6 68.1 62.3 64.4 67 69.2 70.3 71.4 72.1 73 74 74 75.2 76.2 76.5 77.9 78.2 78.6 77.9 77.3 77.5 78.8 80.7 82.7 84.8 86.4 88.6 90.9 93.3 96.4 96.8 102.6 107.5 112.8 119.9 127 133.4 138.5 142.2 146.9 152.5 158.3 163.5 169.4 175.1 180.4 185.3 189 193.3 197.5 202.1 205.7 208.8 210.9 212.2 213.2 214.2 215 215.6 215.6 214.8 213.8 212.4 209.9 207.2 204.7 202.5 200.4 198.2 195.7 193.2 189.9 187.1 184.2 179.7 179.5 178 175.6 171.7 166.4 159.2 143.1 128.8 120.9 125 133 141.9 152.1 161 169.8 175.7 179.4 183
56.4 59 61.5 62.9 63.6 63.3 62.5 61.9 61.1 59.5 57.8 56.2 54.6 53.3 51.9 51.4 50.5 49.9 49.1 48.7 48.7 48 47.9 47.8 47.7 47.7 47.6 47.5 47.6 47.7 47.6 47 47 46.5 46.7 47 47.2 47.5 47.7 48.3 49.2 49 49.6 49.8 50.7 51.4 51 51.2 50.3 49.5 47.5 47.8 47.9 48.3 49.4 49.5 49.6 49.9 50.1 50.3 50.3 50.5 51 51.2 51.5 51.8 51.8 50.9 51.1 51.8 51.9 52.1 52.8 53.2 53.7 53.8 54.2 54.7 55 55.5 55.7 56.4 56.6 57.1 57.3 57.8 57.7 58.4 60.3 62 64.9 67.1 66.6 68.9 71.9 75.1 77.4 79.1 78.2 77 80.9 82.6 84.4 83.1 80.6 76.2 72.8 69.5 68.2 63.7 63.6 66.4 68 68.3 68.2 69.1 69.4 71.1 73.2 74.3 75.3 76.4 76.6 76.6 76.1 75.8 76.8 78 80.5 83.1 85.3 87.2 88.5 90.5 92.7 96.4 99.2 103 108.9 114.4 121.5 129.3 136.6 141.7 146.2 149.9 154.5 160.8 165.9 170 173.6 176.6 177.6 181.6 183.8 189.4 192.7 199.9 204.6 208.5 211.1 212.9 213.6 214.5 214.7 215.2 214.8 214 212.8 210.9 207.6 204.4 200.7 198.4 196.3 194.9 192.7 189.4 185.8 182.3 179 175.8 173.8 173.4 171.7 168.1 162.5 153.8 133.3 122.2 124.1 133.3 142.5 152.9 159.5 166.1 173.7 176.2 178.7 182.1
54.2 56.9 59.9 61.1 61.8 61.8 61.2 61 61.2 59.4 57.7 56.1 54.6 53.1 52 50.9 50.2 49.4 49.1 48.7 48.3 48.2 48 47.8 47.7 47.7 47.7 47.9 48 48 47.6 46.6 46.5 46.3 46.4 46.7 47.1 47.4 47.7 48.2 48.9 48.3 48.9 49.6 50.5 51 51.3 50.8 50.5 49.3 48.2 48 47.9 48.8 49.1 49.1 49.3 49.7 50 50.2 50.4 50.5 50.8 51.1 51.4 51.7 51.8 51.9 52.1 52 52.2 52.4 52.9 53.4 53.2 54.4 54.5 54.8 55.1 55.4 56.4 56.5 56.7 57 56.6 57.4 58.3 58.6 59.9 61.1 62.8 64.9 67.5 70.5 72.3 73.4 73.2 73.5 73.8 74.7 77.4 80.6 83.4 83.3 80.9 77.5 74.1 69.2 67.7 64.9 62.7 64.6 66.3 68.2 69.4 70 70.6 69.8 71.9 74.9 75.6 75.8 75.5 75.3 74.7 76.9 79 81.2 83.1 85.6 88.5 90 91.5 92.8 95.9 98.9 102.2 107.8 112.3 118.7 126.2 134.9 142.6 146.3 151.8 155.8 160.1 163.1 167.6 169.4 169.6 169 170 171.1 173.1 178 186.4 194 202.6 207.7 211.4 212.6 213.6 214.2 214.7 214.5 214.1 213.4 211.5 209.2 206 201.1 197 193.1 190.7 190.4 188.8 185.1 181.6 177.2 173.5 170.7 167 168 166.9 163.7 158.2 145.8 127.3 119.5 129.2 139.4 149.9 158.1 163 168.8 174.5 176.3 178.6 180.1
52.6 55.2 58 59.4 59.7 59.7 59.9 60.7 61.4 59.6 57.8 55.9 54.4 52.9 51.9 50.7 49.8 49.4 49.2 48.9 48.6 48.3 48.1 47.9 48.8 48.7 48.6 48.5 48.2 47.8 47.2 46.6 46 46.3 47.4 46.9 46.4 47.1 47.6 47.4 47.5 47.8 48.3 49.2 49.9 50.5 50.8 50.4 49.9 49.3 47.7 46 48.1 49 49 48.6 49 49.7 49.8 50 50.5 50.6 50.8 51 51.4 51.7 52 52.1 52.3 52.3 52.5 52.7 53.1 53.2 53.6 53.9 54.4 54.6 55.4 55.7 56.1 56.5 56.5 56.8 57 57.8 58.2 58.8 59.8 60.5 64.4 67 68.1 69.4 70.1 70 71.5 73.8 75.1 75.7 78.9 81.8 84.4 83.5 80.6 77 74.3 71 68.9 64.9 62.5 67 69.8 71.3 72.1 72.7 73.2 73.3 71.5 72.3 73.8 74 73.9 75.1 75.6 77.9 81.7 84.4 87.2 89.4 91.6 93.2 95.2 96.2 97.8 100.2 104 108.9 114.3 119.8 127.2 136.6 143.9 147.7 151.6 154.7 159.2 161.7 165.9 163.2 161.4 158.8 152.3 148.9 149.7 156.7 179.1 190.5 200.4 206.4 210.2 212.2 213.4 214.3 214.5 214.6 214 212.2 209.9 206.5 202.4 197.5 193 188.6 185.2 184.6 182.8 179.8 177.1 173 167.3 164.6 157.8 161.9 161 158.4 154.1 139.7 122.4 123 132.2 143.3 155.3 160.4 165.4 170.8 173.6 175.4 176.9 178.3
51.4 53.8 56.1 57.5 57.5 57.1 58.2 60.4 60.9 59.3 57.4 55.1 53.8 52.6 51.4 50.5 49.5 49 48.4 48.7 48.4 48.2 48.1 48.2 49 48.8 48.7 48.1 47.6 47.3 46.5 46.1 46.1 46 45.9 46.2 46.2 47.3 46.7 47 47.3 47.4 47.7 48.5 49.2 49.9 50.2 50.1 49 47.8 48 47.7 47.8 48.7 48.7 49.1 48.9 49.8 49.6 50 50.5 50.7 51 51 51.4 51.9 52.2 52.4 52.6 52.8 52.8 53.1 53.5 53.7 54 54.2 54.3 55 55.5 55.8 56.4 56.4 56.5 57.1 56.7 57.6 58 58.5 58.9 59.9 62.4 65 66.4 67.3 67.4 70 72 74.1 75.8 76.1 76.9 80.2 81.7 80.5 78.5 76.1 72.6 71.7 70.1 62.8 62.7 65.3 69.8 71.2 72.1 73.9 74.5 75.2 74.7 72 72.4 74.2 74.6 77.4 78 79.5 83.3 87.2 90.7 93.9 95.5 96.5 97.2 97.3 98.2 100.6 104.4 109.4 114.2 119.4 126.6 134.1 141 145.8 148.4 151.6 154.6 156.3 156.1 154.7 150.9 135.7 130.4 128.4 128 143 167.6 187.3 197.8 204.8 208.9 210.9 212.6 213.3 213.4 213.4 212.5 211.5 209.6 206.6 200.4 193.7 188.2 183.9 180 177.4 176.5 173.3 171.2 167.3 162.8 156.5 148.7 153 153 151.5 149.1 137 121.3 124.1 134.5 146.9 157.8 162 166 170.1 172.1 173.9 174.6 175.8
50.7 51.7 53.9 54.9 54.2 54.5 57 59.1 60.1 59 57.6 55.9 53.5 52.5 51.3 50.5 49.7 49.1 48.7 48.6 49.3 48.2 48.2 48.5 48.9 48.6 48.3 47.6 47.4 46.7 46.1 45.9 45.9 46.1 45.9 46.3 46.3 46.6 46.8 46.9 47.2 47.6 47.7 48.1 48.6 49.3 49.3 49.8 49.4 47.9 47.2 47.9 48.4 48.4 48.4 49 49.5 49.9 50.2 50.1 50.4 50.7 50.9 50.9 51.4 51.7 52.4 52.7 52.9 53 53.2 53.9 54 54.1 54.3 54.1 54.4 54.8 55.7 56.6 56.2 56.5 56.3 56.9 57 56.9 57.4 57.4 58.1 59.5 61.7 64.3 65.3 66.1 68.3 70.1 72.1 75.4 75.5 74.7 75.1 76.4 77.3 76.3 74.9 73.4 71.9 69.8 66.6 60.7 64 67 68.5 70.4 71.3 74.7 75.8 76.2 75.2 72.7 73.9 75.6 77.5 79.2 81.4 83.2 85.3 88.8 92.9 96 97.8 98.2 97.9 98 98.5 100.7 103.5 105.7 112 117.2 122.8 130.2 133.2 141.4 143.9 145.4 146.1 145.8 143.6 138.9 132.5 118.2 115.5 117.1 127.3 145.7 170.2 188 197.1 204 207.7 209.9 211.1 212 212.1 211.8 210.8 209.8 208 205.3 200.7 194.2 187.3 179 174 169.1 167.8 165.3 163.9 161.5 156.8 145.9 141.6 137.4 136.1 134.7 135.8 131.9 120.6 121.7 130.1 143.5 155.9 159.5 163.7 168.1 170.4 170.9 171.8 172.9
49.7 50.5 51.3 52 53.1 56.6 58.9 60.6 61.2 59.8 58.3 56.6 54.7 53.4 52.1 50.7 50 49.3 48.9 48.7 48.6 48.7 48.9 49.5 49 48.5 48.1 47.5 47.1 46.4 45.8 45.8 45.8 46.5 46.2 46.2 46.4 46.9 46.9 46.8 47.2 47.7 47.9 48.4 48.8 48.9 49.4 49.7 49 47.4 47.5 47.6 48 48.2 48.8 49.1 49.1 49.9 50.3 50.5 50.6 50.5 50.6 51.2 51.1 51.8 52.5 52.4 52.5 52.9 53.3 53.5 53.9 54 53.9 54.3 54.6 54.9 55.4 56.8 55.9 56.3 56 56.3 56.8 57.1 57.6 57.7 58.1 59.1 61.8 65.6 66.9 67.6 68.1 69.2 71 73.5 73.9 72.8 73.2 73.1 72.5 72.8 71.8 71.6 70.6 68 62.9 60.8 65.4 69.3 71 71.1 72.1 75 77 77.2 75.7 75.6 75.5 78.6 79.9 82.8 84.1 86.1 87.9 90.5 93.2 95.2 98 98.5 98.1 98 98.1 98.2 100.4 103.7 108.3 113.8 118.3 122.7 126.7 131.1 133.4 133.9 133.8 133.2 131.9 123.4 116.3 109.5 111 120.9 137.6 155 179.7 191.2 198.5 203.9 207.1 208.4 209.6 210.4 210.4 210 209.1 208.1 206.3 204.3 200.4 195.5 189.2 182.1 175.9 169.6 160.9 155.2 151.5 148.1 142.9 139.1 137.9 136.8 133.4 130.1 125.6 123.6 121.2 118.1 122.1 129.1 139.7 151.7 158.4 163.5 167 167 166.7 168.4
49.7 50.2 50.4 51 54 58.2 61.5 62 62.3 61 59.5 58.2 56 54.9 53.2 51.8 50.5 49.8 49.3 48.8 48.9 49.3 49.2 49.7 49.2 48.7 47.9 47.5 46.9 46.1 45.6 46.1 46.2 46.6 46.5 46.4 46.8 47.2 47.3 47.2 47.5 47.7 48.2 48.6 49.1 48.8 49.5 49.5 48.2 47.4 46.3 47.4 48.3 48.1 48.7 48.8 49.2 49.8 50.2 50.4 50.7 51.1 51.4 51.4 51.2 51.4 51.7 52.1 52.5 52.9 53.2 53.3 53.5 53.5 53.9 54.4 54.7 54.8 54.9 55 55.3 55.9 55.6 56 56.4 56.7 56.8 57 57.7 58.7 60.2 63 66 67.5 68 68.4 69.5 71.4 72.2 71.7 71.6 71.1 70.2 69.7 69.8 70.2 67.2 62.9 61.1 62.1 66.4 69.7 71.5 73.5 74 75 77.7 79.7 78.6 77 78.8 80.5 83.4 84.6 86 87.4 89.9 91.7 93.1 94.7 96.8 97.7 97.5 95.4 96.6 97.5 98.9 101.6 104.9 108.8 111.6 113.6 115.3 118.7 119.5 119.9 119.4 117.6 115.3 110.8 106.7 107.4 117.1 132.8 147.8 167.2 184.7 194.1 200.2 203.9 205.9 206.9 207.5 207.9 207.6 207.4 206.9 205.8 204.5 202.8 200.7 196.3 192.6 188.6 184.3 178.9 172.6 166.6 160.4 155.3 153.9 153.8 153.9 149.7 144.8 141.5 138.2 136.4 131.1 125.3 119.3 118.6 128.6 138.6 148.1 156.4 161.8 162.4 160.9 162.6
49.7 50.1 50.1 50.5 53.3 57.8 60.9 62.8 62.8 62.5 61.3 60 58.2 56.3 54.4 52.2 51.1 50.1 49.5 49 49.3 49.9 49.9 49.9 49.3 48.5 48.1 47.1 46.6 46 45.8 45.7 46.5 46.7 47 47 47.4 48.1 48.1 48 48.4 48 48.4 48.8 49.6 49.1 49 48.7 47.3 47.6 47.2 47.7 48.5 48.7 48.8 49.2 49.2 49.6 49.9 50.2 50.4 50.7 51.1 51.3 51.3 51.6 51.6 52 52.4 52.7 53 53 53 53.3 53.7 54.5 54.7 54.6 54.6 54.7 54.6 54.9 55.5 55.9 56.5 56.3 56.4 57.3 57.3 58.5 59.6 62.3 66 67.2 67.7 68 68.2 69.4 69.5 71.4 71.8 71.4 69 66.5 68 66.6 62.1 61.1 62.1 63.7 67.6 70.5 72.5 75.6 76.4 77.3 78.7 79.7 81.4 80.2 81.8 84.3 85.1 86.9 87.9 88.3 90.3 91.4 92 93.1 93.7 95.4 91.6 94.9 94.2 94.2 95.4 97.7 100.1 102.7 104.3 105.2 105.2 106.2 106.6 106.9 106 104.6 103.7 102.6 103.7 110.4 125.5 142 159.5 178.6 189.7 196.2 200.9 203.3 204.5 205.1 205.2 205.2 204.3 203.9 203.4 202.5 201.8 200.8 199.9 198.5 195.9 192.7 189.6 185.4 181.3 176.9 171.6 170 167.3 165.9 162.8 158.2 154.5 150.8 147.9 145.1 141 134.7 126.3 119.1 116.7 127.7 137 148.3 155.9 155.9 153.4 156.8
49.8 49.2 49.6 50.3 51.6 54.9 59.2 62.3 63.1 63 62.8 61.5 59.6 57.1 54.9 53.1 51.4 50.3 49.7 49.4 49.7 49.9 50.1 49.4 49.2 48.6 47.8 46.8 46.3 45.7 45.7 45.8 45.9 46.7 47.6 48.2 48.5 48.8 49.1 49 49.1 48.6 49 49.3 49.7 49.3 47.6 47.4 46.9 47.4 47.3 47.4 47.7 48.1 48.6 48.6 49.2 49.1 49.4 49.9 50.3 50.4 50.8 51 51.4 51.7 51.5 51.9 52.2 52.6 52.7 52.7 52.9 53.2 53.5 54.3 54.4 54.4 54.5 54.6 54.6 54.8 55.2 55.3 56.3 56.7 57 57.1 57.2 58 59.9 61.9 64.8 66.5 66.9 67.5 67.7 67.9 68.3 70.6 72 71.2 69.5 68.4 64.4 60.8 61.2 61.3 63.4 65.5 66 70.4 73.7 76 78 81.3 86 87.8 87.2 84.4 85.7 87.1 86.4 87.6 86.4 86.3 86.8 88.7 88.9 89 90.2 90.5 91 91.6 91 91.4 92.4 93.7 95.1 96.1 97.1 97.7 97.5 97.2 97.3 98 98.4 98.9 99.4 101.4 108.1 121 136.1 153.3 173.7 183.5 192.3 197.8 200.2 201.8 202.6 202.4 201.6 200.5 199 198.2 198.8 197.8 197.6 197.7 197.4 196.9 196.6 195.2 192 190.3 187 184.3 181.7 179.8 176.8 173.4 169.6 165.4 161.4 156.9 154.1 150.2 145.8 139.3 131.1 124.5 118.4 114.2 125.6 138.6 149.9 148.4 146.6 150.5
49.5 49.7 48.4 49.7 50.5 51.8 55.6 60.9 62.9 63.5 62.9 61.7 60.7 58.6 55.8 54 52.2 50.8 50.3 49.7 49.8 50.1 49.8 48.9 48.3 47.7 47 46.5 46.1 45.8 45.8 45.6 45.8 46.6 47.2 48.3 49 49.2 49.6 49.7 49.4 49.7 49.6 49.5 49.5 49.3 47.3 46.6 47.1 46.9 47.3 47.8 48.2 47.6 48.1 48.5 48.8 48.6 49.1 49.6 50 50.4 50.7 50.8 51.2 51.7 51.9 51.8 52.1 52.4 52.4 52.4 52.8 53.1 53.7 53.8 54 54 53.9 53.7 53.8 54.5 55.3 55.5 56.1 56.4 56.6 56.7 57.1 57.8 59.1 60.8 62 63.5 65.2 66.7 67.1 67.6 67.6 68.9 70.1 70 69 67.8 62 60.6 60.8 63.8 67.6 69.5 68.5 69.1 70.6 74.2 80.2 86.7 93.1 94.4 92.1 90 84.7 89.6 88.3 85.5 86 87.1 87.1 88.4 88.2 89.1 89 89.2 88.6 88 88.3 88.3 89.6 90.3 91.1 92.4 92.1 92.9 92.9 93.3 94.1 95 95.7 96.9 99.8 105.7 119.4 131.5 146.3 167.4 179.4 187.7 193.5 197.1 199.2 200.2 199.8 199.4 198.1 196.8 194.7 193.8 193.2 193.5 193.7 194.8 195.5 196.5 197.1 196 194.1 191 191.5 189.2 187.3 185.7 183.2 179.8 175.8 171.5 167.8 164.1 160.3 155.8 148.3 142.4 137.2 131.3 123.2 117.2 114.4 129.1 141.2 139.9 141.1 144.6
50 49 49.9 49.4 49.8 51.1 55.2 59.7 62.6 63.5 63.3 62.6 61.9 60 57.9 54.8 53.1 51.6 51.1 50.1 50.2 50 48.9 48.3 47.9 47.2 47.5 46.6 46.1 45.9 45.9 45.4 45.8 46.5 47.3 48.5 49.4 49.7 50.1 49.7 49.2 49.8 50.1 49.8 49.3 48.6 47.1 46.9 47.1 46.9 47.4 48 48.1 48.1 48.3 48.6 48.5 48.7 49 49.4 49.8 50.3 50.6 50.7 51.3 51.1 51.3 51.8 51.9 52.5 52.4 52.5 53.2 53.4 53.3 53.5 53.6 53.6 53.6 53.4 54.7 54.2 55 55 55.6 55.6 55.6 56.3 56.7 57.8 57.9 59.3 60.3 61.3 64.6 66.8 67.2 66.9 67.5 68.2 68.6 68.9 68 64.5 59.8 58.3 62 68 71.4 72.1 73.6 71.6 75.8 79.1 84.5 91.1 100.9 99.9 96.8 93.1 90.5 91.6 87.9 88.7 85.2 85.4 84.4 85.7 84.2 85.9 86.4 85.5 85.5 85.3 85.2 85.4 86.9 87.4 87.8 88.3 89.2 89.6 90.2 91.3 92.4 93.7 95.7 99 105.5 117 129.1 142.7 161.6 176.2 182.9 189.5 193.6 196 197.3 197.6 197 196.3 194.7 192.2 189.5 188.3 187.8 188.2 189.5 190.8 193 194.3 195.5 195.1 195.3 195 193.3 192.6 191.3 189.3 187.2 185.2 181.3 177.1 174.7 170.7 166.8 161 155.1 150.3 144.5 137.1 129.6 121.7 115.5 120.4 131.8 131 136.6 138.8
49.4 48.8 48.9 49.6 49.9 50.4 53 57.3 61.6 63.1 63.4 63.4 62.8 61.3 59.6 57.6 54.6 52.8 51.4 51.1 50.1 49.4 48.9 48.6 48.3 47.8 47.1 47.6 46.3 46.3 45.9 45.3 46.1 46.5 47.3 48.5 49.4 49.8 49.6 49.3 49 48.9 49.4 49.3 48.8 47.1 47.1 47.5 47 47.2 47.8 48.2 48.4 48.5 48.6 48.5 48.4 48.9 49.2 49.5 49.8 50.1 50.4 50.9 51.2 51.2 51.5 51.8 51.6 52.4 52.5 52.2 52.6 53 53.2 53.1 53.3 53.3 53.3 53.7 54.1 54.9 54.8 55.5 55.8 55.8 55.8 55.5 56.4 57 57.3 58.4 59.6 61.4 64 66.4 67.2 67.3 66.9 66.8 67.2 67.1 64.7 60.4 59.2 63.6 67.5 70.6 72.5 73.8 75.1 76.2 78.7 82.6 87.4 95.9 100.4 101.9 101.4 100 99.1 96 89.3 89 84.6 83.1 82.4 83.1 83.2 83.1 83.6 83.4 82.7 83.2 83.5 84.2 85.5 86 86.3 86.9 87.8 88.6 89.7 91.2 93.8 96.7 101 106 116.3 129.2 141.7 158.8 172.8 178.6 186.2 189.9 192.5 193.9 194.5 194.2 193.2 192 189.5 186.2 182.9 182.2 182 183.1 184.1 187 190 192.3 193.9 194.9 194.9 195.3 194.3 194 193 191.8 190.6 188.6 186.4 183.5 180.3 176.8 173.3 168.3 162.4 156.7 150 144 136.9 127.4 118.1 113.1 121.4 125.4 129.6 133.3
49.7 49.1 49 48.3 50.1 50.7 51.4 55.7 60 62.9 63.7 63.6 63.5 62.9 61.2 58.9 56 53.8 52.4 51.9 50.6 49.7 49.5 49.1 49.6 48.3 47.9 47.9 46.9 46.6 46.1 45.3 45.4 46.3 47.8 48.9 49.4 49.3 48.9 49.2 48.6 48.7 48.8 48.8 47.8 46.6 46.8 47 47.9 48.3 48.2 48.5 48.5 48.6 48.9 48.6 48.6 49 49.3 49.5 49.8 50.1 50.3 50.6 50.9 51.1 51.1 51.3 51.5 51.8 52.6 52.8 52.3 52.1 52.6 52.8 53 53.1 53.5 53.8 54.3 55 55.6 55.1 55.5 55.7 55.8 56.3 56.4 56.9 57.4 58.1 59.2 60.7 62.8 66.2 66.8 66.9 66.9 66.5 65 63.9 61.5 58.8 62.4 66.4 67.9 70 72.5 73.7 76.5 78.6 81.2 83.9 89.1 93.2 96.1 100.1 101.5 102.1 100.9 96.3 91.1 89.2 85 83.4 81.4 81.2 80.9 80.7 81.1 81.8 81.6 82.1 82.6 83.5 85 85.8 86.1 86.8 87.5 89.2 91.4 94.7 98.4 102.6 111.5 122.9 135.7 144.7 157.3 168.7 175.6 181.3 186.7 189.2 190.9 191 191.1 190 188.7 187.1 184.7 181.5 176.1 175.4 175.5 175.2 177.7 183.2 187.2 190.1 192.4 193.3 194.3 194.8 194.9 194.5 194.2 193.9 192.8 191.4 189.6 187.4 186.1 181.4 177.5 172.8 169.9 165.1 158.9 151.8 145.4 138.4 127.5 115.6 112.5 117.4 120.1 123.2
49.3 48.9 49 49.2 49.5 50.2 50.9 53.7 58.1 62.4 63.4 63.9 63.7 63.4 62.2 60.1 57.9 55.5 53.5 52.7 51.2 50.4 50.2 50.5 50.3 49.9 49 48.6 47.4 46.9 46.5 45.4 45.5 46.3 47.6 48.8 49.1 49.1 48.9 48.5 48.5 48.4 47.9 47.3 46.2 46.3 46.6 47.8 48.6 49 48.5 48.8 48.5 48.8 48.8 49.2 49.1 49 49.2 49.5 49.8 50.1 50.4 50.7 50.9 50.9 51.4 51.5 51.3 51.2 51.6 51.9 51.5 51.5 52.6 52.6 52.9 53 53.7 54 54.3 54.9 54.3 54.9 55.3 56.3 56.5 56.4 56.5 56.7 57.4 58.2 59.2 61.3 62.8 64.6 65.8 65.9 66.5 65.8 65.6 63.7 60.1 57.3 64.8 66.9 67.3 69.3 71.4 73.3 75.7 78.5 81.1 83.5 86.9 89.7 91.8 97.3 102 102.8 102.3 100.5 92.7 89.8 86.2 82.9 81.5 79.7 79.3 78.8 79.5 80.3 80.9 81.9 82.9 83.6 85.3 86.5 85.9 86.7 88.2 91.2 94.9 99 107.2 118.2 131.6 142 149 159 165.3 172.7 178.5 182.2 185 186.8 187.9 187.4 186.3 185.4 184.4 182 179.3 175.6 169 168.1 167.3 165.8 171.6 178.5 184.2 188 190.1 191.3 192.3 194 194.2 195 195.3 195 194.4 193 191.3 189.1 187 184.4 180.4 176.9 175.3 169.5 165 159.2 153 146.4 137.6 127 117.3 111.8 111.3 111.3
50.1 49 48.4 49.1 49 49.7 50.5 53.3 58.2 62.3 63.6 64.1 63.9 63.7 63.4 61.9 59.9 57.9 55.4 53.5 53.4 51.4 51.3 52.1 52 51.5 50.1 49.2 48.4 48 46.4 45.1 45.7 46.7 48 48.4 48.7 48.5 48.3 48.1 47.6 47.1 46.5 46.3 46.1 46.2 46.3 48.2 48.7 49.1 49.1 49 49 49 49 49.3 49.2 49 49.1 49.4 49.6 50 50.2 50.4 50.7 50.7 50.8 50.7 51 50.9 51.1 51.3 51.8 51.9 52.7 52.7 52.8 53.4 53.5 53.9 54 54.4 54.7 55.3 55.8 56.5 57.3 56.5 56.8 56.6 57.2 58.1 59.5 60.5 61.7 63.3 64 65.1 65.9 65.6 64.9 62.9 60.1 59 64.1 66.8 66.8 67.5 69.8 71.2 74.1 76.1 80.1 81.6 83.4 86 87.9 95.2 102.6 102.9 103 101.8 96.9 91.6 87.7 81.6 80.7 78.9 78.2 78.5 79.2 80.5 80.8 81.7 82.6 84.2 86 86.5 86.8 87.6 90.3 94.4 99.5 109.7 121.9 133 143.7 152.1 158.3 163.7 168.9 174.4 178.6 180.6 182.1 183.2 183.1 182 181.6 180.3 178.6 176.5 173.4 169 159.2 162 159 154.1 167.1 176 181.9 185.4 187.8 189.2 190.5 191.8 193.3 194.1 194.8 195.3 194.6 193.9 192.7 190.7 187.5 185.2 182.3 178.1 176.8 172.9 169.1 164.9 160.1 155.4 149 140.8 133.3 127.6 122.6 117.8
49.8 49.4 48.8 48.8 49.3 49.7 50.6 53.7 58.9 62.6 63.6 64.1 64.2 64 63.8 63.2 61.9 60.2 57.7 55.6 54.3 54.1 54.2 55.1 54.6 53.5 51.7 50.4 49.6 48.9 46.8 45.4 45.3 45.7 47.4 47.8 48 48.5 48.1 47.7 47.2 46.6 46.1 46.2 46.3 46 46.3 47.5 47.8 48.6 49 49 49.2 49.1 49.2 49.3 49.1 49 49.2 49.4 49.2 49.6 49.8 50 50.3 50.2 50.6 50.4 51.3 51.9 51.4 51.7 51.2 52.2 52.3 52.6 52.9 53 53.4 53.5 53.6 54.1 53.9 54.9 55.5 55.8 57.5 57.2 57.1 57.2 57.3 57.9 58.5 59.3 60.9 61.8 63.3 65 64.9 64.8 64.1 62.4 59.7 61.2 64 65.5 66.6 67.6 69.3 70.7 72.9 74.9 78.1 81 81.3 83.8 87.5 96.3 104.3 107 104.2 102.6 98.3 93.3 87.5 81.4 80.4 78.2 77.9 78.5 79.1 80.4 80.9 81.2 81.9 83.8 85.6 85.9 86.6 89.3 94.6 100.6 109.8 121 130 138.3 149.1 157.4 162.4 166.6 170.6 173.7 176.4 177.6 178.2 178.6 178.2 177.3 175.6 174.3 172.7 169.9 167.1 162.4 151.1 153.7 149.1 149.9 165.2 173.5 179.7 183.6 185.1 186.1 187.2 189 190.8 192.9 194.1 194.3 194.6 194.4 192.9 190.8 188.1 185.4 182.3 178.5 174.3 172.3 169.6 166.6 163.2 158.8 155.2 150.9 145.1 139.3 134.3 129.8
50 48.9 49.1 49 48.8 49.3 50.7 55 60.4 62.9 64 64.5 64.3 64.1 63.9 63.8 63.2 63.5 61.8 57.8 58.2 57.7 57.5 59.1 58.9 56.3 53.9 51.6 50.8 48.6 47.6 46.9 45.5 45.8 46.8 47 47.2 47.5 47.4 47.1 46.7 46 45.8 46 46.3 45.9 46.3 47.2 47.7 47.9 48.4 48.7 49 48.8 48.8 48.8 48.8 49.1 49.1 48.9 49.4 49.2 49.4 49.7 49.9 50.1 50.5 50.6 50.7 51.8 51.5 52 51.7 52 52.1 51.7 50.6 51.2 51 50.4 52.1 51.6 52.7 53.7 54.4 55.5 56.8 57 56.8 57 57.4 57.9 58.4 59.3 60.7 61.7 63 63.6 63.7 63.7 63.3 62.2 57.3 60.9 63.1 64.6 66.2 67.5 68.9 70.4 71.9 73.8 75.8 77.1 81.6 85.1 92.2 100.2 105.9 107.9 106 102.6 98.4 93.1 89.7 82.9 79.7 77.6 77.3 78.7 79.7 80.2 80.2 79.8 80.8 82.5 83.8 84.8 86.4 89.9 95.8 104.5 114.1 122.9 131.1 139.5 150.7 158.6 162.5 165.9 168.1 170.9 172.3 173 172.8 173.4 171.8 170.9 168.9 167.8 165.9 162 158.2 157 148.2 138.3 136.1 149.6 162.9 171.2 177.8 180.9 181.2 182.6 183.6 185.6 187.8 190.7 192.4 193.7 194.4 193.9 192.3 190.5 187.3 184 178.2 176 173 170.6 168.7 165.2 162.7 159.2 155.7 152 147.7 142.8 136.1 129.6
49.3 49.1 48.6 48.8 48.9 49.5 51.1 56.2 61.4 63.2 63.9 64.3 64.1 64.1 64.1 64.2 64.1 62.6 63 61.4 62.2 61.8 61.6 62.9 62.9 59.9 56.2 53.4 51.2 48.8 47.5 47.1 45.9 44.7 45.6 46.3 47 47.1 46.7 46.3 45.6 45 45.3 45.4 45.7 45.9 47.3 47.7 48 48.1 48.7 48.4 48.8 48.7 48.2 48.2 48.3 48.4 48.7 48.7 48.9 49.3 49.3 49.6 49.9 50.2 50.4 50.6 51.4 51.8 51.7 51.6 51 51.3 50.3 50.5 50.4 50.7 51.2 50.3 51.7 51.3 51.5 51.5 51.5 53 55 55.6 56.2 57.1 57.5 58 58.3 58.5 59.6 61.1 61.6 62.5 62.9 62.9 62.6 61 57.2 60 63.6 64.9 66 67 68.5 69.9 71.4 73 75 78.2 83.5 89.3 97.4 102 105.8 104.9 103.7 101.6 97.7 92.4 88.7 82.8 79.4 76.9 77 77.2 79.3 79.6 79.5 78.8 79.7 81.1 82.3 84.6 86.6 90 96.8 104.9 113.4 121.5 130.8 138.7 148 155.2 160.5 163.2 165.2 166.7 167.5 167.2 166.8 166.4 165.2 163.2 160.8 160.7 159.9 154.8 150.3 148.2 141.7 129.3 134 151.6 161.5 169 174.1 177.1 176.5 176.4 179.3 182.3 185.4 187.9 190.4 192.6 193.4 193.3 192.1 189.8 186.5 182.8 176.4 172 168.4 166.3 164.3 162.5 160.5 157.3 154.1 150.4 146 141.3 136.9 127.2
48.6 48.7 48.6 49.1 49.4 49.4 51.6 56.6 61.9 63.6 63.5 64 63.7 63.6 63.5 63.7 63.8 63.6 63.4 63.8 64.6 63.4 63.2 65 64.5 61.5 58.3 54.6 51.1 49.1 48.9 47.8 47.2 45.8 45.4 45.5 46.2 46.5 46.2 45.6 45.1 45.3 45.3 45.7 46.9 47.5 47.8 48.2 48.3 48.2 48.1 48.3 48.2 48.1 47.8 47.8 47.9 47.8 48.1 48.5 48.4 49.2 49.5 49.7 49.9 50.2 50.5 50.9 50.4 50.4 50.9 50 49.8 50.6 50.2 51.1 51.4 51.6 52.6 53.1 53.1 53.1 53.6 51.5 51.6 52.2 52.8 54.8 56.4 57.1 57.6 57.9 58.2 59.1 59.7 60.4 61.3 61.5 61.2 60.9 60.8 59.8 56.7 60.9 63.1 63.9 65.6 66.6 67.7 68.8 71.1 73.2 77.1 81 85.8 93 98.2 102.1 103.7 103.1 101.8 99.9 96.2 91.6 87.9 81.8 79.8 77 76.9 76.9 77.6 77.5 78.2 78.4 79.3 80.9 81.4 84.6 85.8 89.3 94.7 102.7 111.1 119.8 127.7 134.1 142 149.5 154.8 159 160.9 161.9 162.3 161.9 161.2 160.2 158.2 154.5 151.9 154.6 153 148.7 138.2 136.5 131.1 125.3 137.6 153.4 161.8 168.9 171.8 172 170.2 168 173.6 176.6 180.9 184.5 188.6 191.3 192.3 192.5 191 188.5 185.8 181.6 173 166.7 163.2 160.3 158.9 157.3 155.6 153 151.3 147.9 143.3 139 133.4 123.1
48.6 48.6 48.8 48.8 49.2 49.9 51.9 57.2 62.7 63.6 63.6 63.5 62.9 61.9 64.3 62.9 63.7 63.4 63.1 63.7 63.6 62.8 63.1 64 63 60.2 57.1 54.9 51.9 50.5 47.9 47.3 46.8 46 44.7 44.9 45.7 45.8 45.6 44.8 45.2 45.5 45.8 47.3 47.9 47.9 48.1 48 47.7 47.7 47.5 47.5 47.5 47.5 47.4 48.1 48.2 48.2 48.1 48.5 49 49.5 49.8 49.6 49.6 50.1 49.8 49.5 49.3 49.5 49.5 49.2 50.1 50.8 51.3 52 52.4 52.6 53.2 53.8 53.9 54.3 53.7 54.6 53.4 52.1 52.5 53.4 55.6 57 57.8 57.5 57.7 58.8 59.4 59.7 61.1 61.7 61.7 61.4 59.9 55.9 55.7 60.3 63 63.2 64.4 65.8 66.7 68.5 70.8 73.4 78.8 83.2 88.8 93.4 97 99.5 100.3 100.1 99.5 97.8 94.2 89.8 86 81.5 78.4 76.8 75.8 75.8 75.7 76.4 77.1 77.3 78.3 79.2 80.6 82.3 84.3 87.1 92.5 99.4 107.9 115.2 123.6 128 134.3 140.9 146.8 150.4 153.6 155.7 155.9 155.8 154.9 154.6 151 146.9 143.2 149.5 149.6 144.4 131.6 126.6 122.1 128.3 145 154.5 161.1 164.4 166.8 165.6 161.9 154.5 166.5 170.6 175.8 181.7 187.9 190.2 191.7 191.6 190.4 188 184.7 180.7 171.4 165.6 158.7 151.5 149.4 148.9 148.1 145.9 145.1 142.6 139.9 135.9 130.6 120.4
48.9 49 48.1 49.2 49.4 50.5 52.8 58.5 63 63.5 63.4 62.7 60.7 59.5 59.3 61.2 61.4 62.4 61.7 61.5 61.2 60.5 60.3 60.7 59.5 57.3 54.3 52.6 50.6 48.9 48 46.6 46.3 45.7 45.5 44.3 45.6 45.3 44.6 44.5 44.8 45.5 47.2 47.8 47.7 47.7 47.5 47.3 47.1 47 47 46.7 47.4 47.3 48.7 48.7 48.8 48.8 48.3 48.5 48.9 49.4 49.1 48.9 48.8 48.8 48.9 49.2 49.3 49.3 50.2 50.6 51.4 51.3 51.6 52.3 52.8 53.7 54.3 54.7 55.1 54.8 55.5 56 54.9 53.1 53.3 52.9 54.4 55.9 57.2 57.3 57.3 58.2 59 59.2 59.6 60.6 60.9 61 58.7 56.1 57.7 59.3 61.4 63 64.4 65.3 66.4 68.3 70.9 73.5 79.1 83.3 88.6 91.8 93.9 96.4 97.5 98.1 97.3 93.1 91 88.1 84.7 81.2 77.8 76.2 75.3 75.2 75.1 75.4 76.2 76.6 77.2 78.3 79.6 81.8 82.9 85.6 90 97.2 103.4 111.7 117.6 123.2 128.2 133.3 139.3 142.3 144.4 146.9 147.8 147.6 147.2 145.9 142.5 134.3 135.6 144.9 145.2 139.5 129 115.9 124.8 135.4 147.1 155.4 158.7 161.7 159.5 157.7 152 144.7 152.1 159.4 174.8 181.3 186.6 189.4 190.9 190.8 189.5 187.3 183.5 178.6 173.3 169.4 163.6 155.5 151 143.7 136.2 134.8 134.9 133.8 130.9 126.8 121.5 116.8
48.6 48.4 48.7 48.8 49.4 51.1 54.1 61.1 63.6 63.5 62.8 61.3 57.5 56.7 57.4 57.9 58.4 59 59 59.1 58.8 57.2 56 55.7 54.6 53.5 51.3 49.8 48.9 48.1 47.7 46.3 45.2 44.9 45 45.1 44.2 44.4 45.5 43.9 45.9 45.9 47.6 47.6 47.5 47.5 46.7 46.8 46.4 46.3 47.2 46.8 47.6 48 48.7 49.8 49.9 49.3 48.5 48.4 48.6 48.6 48.5 48.3 49.3 48.7 48.9 49.2 49.9 50 50.7 51.2 51.6 51.8 51.9 52.7 53.2 53.9 55 55.8 56.8 56.8 57.2 57.7 57.5 55 53.5 53.2 53.4 54.6 55.3 56.8 57.5 57 58.1 58.9 59.4 59.1 58.7 59.3 55.7 56.3 59.8 61.6 62.5 64 64.3 65.8 66.3 68.2 70.6 73.9 78.6 82.5 87.1 90.4 90.8 92.7 94 92.5 92.7 90.5 88.4 85.3 81.6 79.2 76.8 75.8 75.1 74.1 73.8 74.9 75.3 75.7 76.5 77.4 78.7 80.9 81.9 84 88 93.7 99.3 104.2 110.6 116.6 121.7 125.8 130.6 133.3 135.8 137.9 137.6 138.2 138.1 136.4 131.2 124.1 133 141.2 141 133.5 119 119.2 129 142.3 148.8 153 155.3 153.3 151 148.2 139 141.1 155.8 168.3 176.3 181.8 186.3 189.3 190.6 190 189 186.3 183.4 179.4 173.8 171 166.5 162.2 157.5 152.4 146.4 139.3 131.8 127.9 124.2 122 119.4 114.8
48.7 48.4 48.5 48.9 49.5 53.1 58.7 62.5 62.6 62.2 60.6 59.6 56.6 53.6 55.6 54.2 54.4 54.4 55.7 55.4 56 54.3 52.9 51.9 51.1 50.2 49.2 48.3 47.5 47.4 46.4 46 45.1 44.8 44.7 44.4 44.4 44.3 44.8 44.7 45.6 46.7 47.4 47.2 47 46.7 46.1 46 46.2 46.8 47.4 47.9 48.5 49.3 49.5 49.8 49.8 49.2 48.8 48.2 48.1 48.2 48.4 47.6 48.5 48.5 49.5 49.7 50 50.4 50.3 50.9 51.7 52.1 52.3 52.9 53.1 54.7 56 56.9 56.7 57.6 57.7 59 59.4 57.6 54.5 53.6 53.7 53.4 53.6 54.1 54.2 54.7 55 55.5 55.2 56.5 55.9 55.7 56.5 58.3 61 62.2 63.2 63.8 64.4 65.7 66.4 67.7 70 73.1 77.5 80.2 84.3 87 88.3 89.7 89.9 89.2 89 87 84.7 82.5 80.4 76.8 75.1 73.6 74.4 73.4 72.8 74.1 75.4 75.7 76.2 76.8 77.5 78.6 81.1 82.8 86.1 90.5 94.5 99.3 104 108.8 113 117.8 122.2 124 125.9 127.5 128.6 128.6 128.6 127 121.3 120.7 130.4 135.7 134.7 129.1 111 122.8 133.4 143.4 146.2 147.3 146.6 144.4 141.3 135.1 130.3 145.6 162.1 171.1 176.9 182.4 186.8 189 190 189.3 188.6 186.5 182.9 179.6 174.7 171.5 167 164.5 161.8 158.3 154.2 149.8 145 140.9 137.4 134.1 130.1 121.4
48.5 48.2 48.8 49.3 51.9 56.7 61.2 62.6 62.5 62.2 59.6 57.5 54.8 51.5 51.3 50.5 50.3 50.8 51.9 51.8 52.2 51.3 50 49.3 48.5 48.4 47.7 47 46.7 46.1 45.9 46.1 44.7 45.2 44.9 43.8 44.7 44 44.8 44.7 45.9 46.4 46.4 46.5 46.3 45.7 46.5 46.5 47.2 47.8 48.5 49 49.2 50.2 50.4 49.2 49.6 49.3 48.5 46.9 46.4 48.9 48.2 48.2 48.9 49.3 49.7 49.5 50 50.6 51.1 51.3 51.8 52.4 52.9 53.3 53.8 55.7 57.1 58.1 57.4 57.6 58.4 60.6 61 60 57.2 55.6 54 53.7 53.8 53.7 54.2 55.4 55.1 55.1 55.5 55.6 55.8 56.2 58.3 60 60.9 62.2 63.2 63.5 64.6 65.3 66.1 67.3 69.3 71.6 75.8 78.2 80.4 83.4 84.8 86.3 85.9 85.9 84.8 83.2 82.3 81.3 77.1 75 73.8 73.2 73.5 73.5 73.1 74.1 74.9 75.5 76.4 77.1 77.7 78.3 79.8 82.5 84.7 87.5 90.4 93.2 97 100.8 104.4 108.8 112.6 115.8 117.8 119 120.2 120.3 119.8 119.3 113.1 116.4 124.8 127.2 126.2 123.2 107.9 123.4 133.2 139.3 140.1 139.1 135.5 131 125.4 127.5 139.2 153.7 164.9 172.5 178.5 183.6 187.2 188.9 189.4 188.9 188.1 185.5 182.4 178 174.2 168.6 166 164.1 162.5 159.4 156.6 153.7 151.5 148.4 144.9 140.1 136.2 129.8
48.6 48.4 49.2 50.8 55.2 59.9 61.6 61.9 60.6 59.6 57.4 54.9 52.8 50.7 48.8 49.2 48 48.3 48.9 48.9 48.7 48.4 48.2 47.5 47 46.7 46.4 46.1 45.9 45.8 45.5 44.9 45.2 44.9 45 44.1 44.4 44.6 44.4 44.7 45.4 45.9 45.7 45.3 45.5 46.2 46 46.8 47.5 48.8 49.2 49.6 49.9 50.3 50.6 50.4 49.4 48.3 49 47.1 47.7 48 48.3 48.5 49.4 49 49.4 49.6 50.1 50.6 51.1 51.4 51.9 52.4 52.9 53.5 54.8 56.2 57.7 59 58.8 59 59.5 61.5 62.7 61.2 61.3 59.1 57.7 56.9 54.1 55.3 56.9 57.3 57.5 57.3 57.5 58 58.4 58.9 59.7 61.4 61.6 63 63.6 64 64.3 64.8 65.6 66.4 68 70.1 72.2 74.7 77.4 80.4 82.5 82.9 82.9 81.9 81.2 80.3 78.2 76.6 75.3 73.3 72.4 72.6 72.9 73.6 73.7 73.9 74.6 75.4 76.1 77.3 78 78.3 79.3 81.2 82.9 85 87.3 89.1 91.5 94.6 97 100 102.4 104.9 106.6 108.7 110.4 111.5 112 110.4 106.7 110.3 116.6 118.5 118.6 117.2 105.4 120.7 125.4 127.6 124.6 121.7 118.7 117.7 125.2 136.9 152.3 162.9 169.4 175.5 180.5 184.7 188 189.3 189.2 188.5 187.3 185 181.3 176.7 171.5 167.1 163.2 161.6 160.8 158.4 156.2 154.2 152 150.3 147.4 143.6 138.4 132.7
48.1 48.3 50 55 58.7 60.8 61.4 60.5 58.4 56.8 54.5 52.9 51.3 49.5 48.4 47.5 47 47.1 47.6 47.5 47.2 46.9 46.7 46.1 45.5 45.4 45.1 45.3 45.1 45 45.4 45.2 44.7 45.1 44.9 43.8 43.9 44.2 43.9 44.2 44.9 45.2 44.8 45.2 45.9 46.5 47.2 47.8 48.4 49.1 49.4 49.9 49.9 50.2 50.3 49.8 48.7 47.4 47 47.4 47.5 48.2 48.2 48.7 48.8 48.9 49.2 49.7 50.2 50.1 51.1 51.6 52.1 52.5 53 53.8 54.9 56.4 57.8 59.8 60.7 61.3 62.4 63.6 63.8 63.6 61.9 60.4 59 57.4 55.4 54.5 58.1 58.7 58.7 58.8 58.6 59.1 58.8 60.2 61.8 62.2 63.2 63.1 63.6 63.8 64.1 64.6 65.4 66.2 67.1 68.9 71 72.8 76.4 79.2 80.7 80.2 79.7 79 77.5 76.3 75.1 74.4 73.5 71.8 72.1 72.9 73.3 73.6 73.6 74 75.1 75.7 76.3 76.5 78 78.3 79 81 82 83.3 84.7 86 87.8 89.7 91.3 93.5 95 96.9 98.1 99.1 100.5 102.1 102.6 102 101.2 102.2 105.9 108.4 110.8 111 103.1 114.9 117.5 116.1 112.6 112.8 120.1 129.3 139.4 151.3 160.6 167.5 173.7 178.9 183.3 187 188.8 189.5 189.3 188.2 186.9 184 180.1 174.6 169 163.8 159.3 157.2 155.7 155.7 154.8 152.5 150.8 149.4 147.6 144 140.9 136.8
48.3 50.2 53.6 58 61.1 61.5 60.7 59.2 56.9 54.7 53.4 51.5 50 48.7 48.1 47.6 46.5 46.5 46.5 46.3 46 45.7 45.3 44.9 44.5 43.5 43.5 43.4 44.4 44.8 44.3 44.9 45.3 45.1 45 44.5 44.3 44.3 43.5 44 44.4 44.7 44.7 45.8 46.3 46.8 47.3 48 48.7 48.4 48.5 49.3 49.7 49.5 49.5 48.9 47.5 46.3 46.2 47 48 48.4 48.8 49 49.4 49.9 49.5 49.9 50.3 51 51.1 51.6 52.3 52.8 53.6 54.5 55.6 56.4 58.3 60.5 63.9 65.1 65 64.9 65.3 64.6 63.2 61.3 60.2 59 57 54.6 55.6 58.6 59.6 59.8 59.9 61 61.4 62.2 62.8 63.3 63 63.7 63.3 63.8 63.8 64.5 65 66 67 69.1 72 74.2 76.1 78.6 79.2 78.1 76.9 75.7 74.4 73.5 72.9 72.4 71.1 71.8 71.9 72.7 73.2 73.4 73.6 74.2 75.1 76.1 75.9 75.8 78.6 78.5 79.3 80 80.8 82.3 83.1 84.3 85 86.6 88.2 89.7 91.4 92.2 93.3 93.9 94.9 95.7 96.3 96.6 95.6 96 97 98 99.6 99.9 100.2 104.4 104.5 106.9 114.7 121.7 132.8 143.6 152.4 159.1 165.9 171.9 177.3 181.9 185.3 188.3 189.3 189.4 189.4 188.3 186.5 183.2 178.8 173.3 166.8 161.6 154.6 149.6 147.1 148.4 147.9 146.4 145 144.8 144.2 140.7 139.1 135.3
49.1 53.5 57.2 59.7 61 60.9 59.9 57.9 55.6 53.5 51.9 50.3 49.1 48.4 47.6 47.2 46 45.8 45.5 45.1 44.8 45.1 44.3 44.3 43.4 43.8 43.3 41.6 42.9 43.2 43.2 45.4 44.4 44.9 44.2 44.3 44.2 44.3 43.5 43.5 43.8 43.8 44.7 45.6 45.9 46.5 47.4 48 48.6 48.6 49.1 49 49.2 48.8 48.3 47.2 46.2 46.4 46.2 48.9 48.2 48.6 49.6 49.4 49.6 49.8 50 50.2 50.6 51.4 51.3 51.6 52.5 53.9 54.2 55.4 56.6 57.6 60.7 63.6 67.1 69.5 70.3 67 67.8 66.5 64 62.7 61.4 60.5 58.7 56.2 54.8 56.2 59.4 59.7 60.7 61.3 61.6 62.2 62.6 62.9 62.9 62.9 63.1 63.3 63.3 64.5 64.4 66.3 67.7 69.1 72.2 74.7 76.5 77.7 77.8 75.1 75.1 73.5 72.8 72 71.2 70.2 70.9 71.7 72.1 72.3 72.9 73.1 73.7 74.3 75.1 75.9 76.5 77.4 78.6 78.6 79.3 80 80.6 81.1 82.5 83.7 84.3 84.6 86 87.1 88 88.9 90.1 90.5 91.2 91.6 92.7 93.5 96.1 100.3 102.4 106.1 106.8 105.9 105.1 107.3 112.8 115.9 123.5 135.9 145 151.4 158.3 165.1 170.8 175.9 180.3 184.5 187.8 188.9 189.9 189.6 189.5 188.1 186.2 182.6 178.6 172.9 164.9 157.1 154.1 152.1 147.9 143 136.4 135 135.9 136.6 136.7 135.4 133.4 129.8
52.1 57 59.1 60.2 60.7 60.2 58.9 56.7 54.5 52.4 50.8 49.2 48.1 47.3 46.5 46.2 45.7 45.1 44.7 44.5 44.2 43.5 43.5 43.3 43.4 44 41.9 43.8 43.5 43.3 43.1 41 44.7 44.2 44.2 44.5 44.1 44.2 43.5 43.4 43.6 44 44.9 45.2 45.4 45.4 46.6 47.3 47.8 48 48.2 48.2 47.8 47.9 47.3 46.2 46 45.4 46.7 48.4 48.6 48.9 49.4 49.4 49.3 48.8 49.4 50 51 51.3 51.7 52.4 53.3 53.8 55.4 56.4 57.9 61 64.6 68.3 70.7 71.8 72 71.4 67.5 67.6 65.2 63.5 62.6 61.5 60.1 58.2 54.4 55.4 58.5 59.7 59.7 59.9 61.9 62.2 62.5 63.1 62.6 62.6 62.5 62.6 63.3 64 64.4 65.4 67.1 68.8 73.6 74.9 77.8 77.4 76.7 74.7 72.8 71.9 70.6 70.2 70.4 70.4 70.8 71.7 71.9 71.6 72.3 72.8 73.3 74.3 75.3 76 76.5 77.6 79.1 79.3 80 81 80.5 81.1 82.3 83.3 83.8 84.2 85 86.3 87 87.7 88.6 89.1 90.4 91.6 94.6 100.1 107.7 115.7 120.7 122.6 122.1 121.1 118.7 119.3 124.4 130.4 137.9 145.3 152.3 157.9 164.8 169.9 175.1 179.5 183.7 186.7 189 190 190.2 190 189.3 188 185.7 183 179.3 174.1 168.7 165.9 161.5 158.7 154.2 148.7 144.6 140 134.3 127.7 123.7 122.5 121.8 119.8
55 57.4 58.8 59.9 60 59.4 57.7 55.5 53.3 51.3 50.2 48.4 47.2 46.2 45.6 45.2 44.7 44.1 44 43.7 43.6 43.4 42 43.1 40.9 43.7 43.9 43.9 43.6 43.8 43.8 43.7 44.9 44.2 43.3 44.1 44 44.2 44 43.7 43.8 44.1 44.5 45 45.2 45.7 46.6 47.3 48.4 47.7 47.6 46.8 47 45.4 46 45.5 45.2 46.4 47.7 47.9 48.7 49 49.3 49.1 48.9 49.2 49.7 50.7 51 51.6 52.2 52.8 53.4 55 56.9 58.8 62 65.8 70.3 73.2 74.4 74.9 74.4 73.5 69.5 67.7 65.2 63.5 63 61.9 60.2 58.8 55.6 56.1 57.3 58.9 58.3 58.3 61.7 62.3 62.3 62.7 62.4 62.2 62.2 62.9 63.3 63.8 64.2 65.3 66.6 70 73.2 76.9 80 79 77.5 74.8 71.9 70.2 69.4 68.7 69.1 69.7 70.5 71.2 71.4 71.3 71.8 72.4 73.6 74.3 74.8 75.9 76.7 78.5 81 82.8 80.7 82.2 82.8 83.7 84.2 85.5 85.9 86.6 87.9 88.9 89.8 90.9 91.8 93.1 95.3 98.1 104.3 114.1 122.2 128.3 134.8 139.1 140.6 138.5 136.8 137.6 141.3 144.6 148.3 153.8 160.3 165.9 170.5 174.9 179 183.1 185.9 188.4 189.9 190.4 190.3 189.6 188.6 187.2 185.5 183.2 181 177.8 174.6 171 167.3 163.6 159.5 155.8 152 148.5 144.3 139.4 134.1 129.4 127 124.1
55.6 57.1 58.4 59.1 59.2 58.5 56.4 54.5 52.4 50.9 49.1 48 46.2 45.4 44.8 44.6 44.1 44 43.9 43.9 43.5 43.8 41.2 42.7 43.7 43.7 43.7 43.9 43.8 43.3 43.6 43.6 40.7 43.9 44.1 43.9 43.7 43.9 44.2 43.9 43.8 44.1 44.2 44.5 45 46.2 47.8 48.6 47.9 47 46.5 46 44.8 45.1 45.2 45 45.9 47.1 47.6 48 48.6 48.4 48.3 48.8 49.3 49.6 50 50.9 51.4 52.1 52.8 53.5 54.9 56.1 58.1 62.4 67.2 71.4 74.7 76.2 76.4 77.3 75.3 73 71.4 66.8 65.7 63.8 63.2 61.7 60.8 58.5 56.4 55.4 55.7 56.6 58.5 61.2 62 61.9 62.1 62.6 61.6 60.7 62 62.5 62.9 63.3 64.3 65.4 68.6 70.8 74.8 79.2 80.6 78.9 77.2 74.4 72.2 69.9 69.1 68.6 69.2 69.6 69.7 70 70.5 70.9 71.5 72.2 73.3 73.9 75 75.9 78 81.3 85.3 89 88.4 88 87.5 88.8 89 90 91.5 93.5 94.5 96.8 98.6 100.8 102.6 104.2 105.9 112.3 118.6 126.8 136.5 144.5 148.2 150.2 151 151.5 151.1 151.5 153.6 156 158.7 161.8 167.6 171.5 175.4 179.4 182.9 185.8 188.4 189.6 190.4 190.6 189.8 189.5 188.3 187.1 185.2 183.3 181.6 179.6 177 174 170.4 167 164.5 161 157.2 155.4 152.1 148.7 145.7 142.2 139.7 137.9
55.4 56.4 57.4 58.1 58.3 57.2 55.3 53.2 51.5 50.1 48.5 46.8 45.6 44.3 44.1 44.1 43.7 43.2 43.8 41.6 42.5 42.6 43.9 43.9 43.8 43.8 43.8 43.8 43.8 43.5 43.2 43.6 43.3 43.8 43.9 43.4 43.6 43.5 43.2 43.5 43.5 44 43.9 44.2 45 46.6 48.3 48.9 47.1 45.9 45.7 45.4 45 44.1 45.2 46 46.7 47.1 47.3 47.7 48.3 48.7 48.9 49.8 49.5 49.9 50.2 50.8 51.7 52.7 53.2 54.6 56.4 57.7 61.1 66.5 71.7 74.6 76.6 77 76.5 75.1 74 72 69.7 67.6 65.8 64.4 63.2 61.6 60.7 58.7 55.8 56.1 56 55.4 56.9 59 60.1 59.9 59.7 61.1 60.2 60.5 61.4 62.2 62.3 63 64.2 65.4 69.5 72.4 76.1 79 79.4 78.3 77.1 74.1 71.5 69.5 68.2 68.7 69.1 69.5 69.8 69.8 70.3 70.7 71.4 72.2 73.5 74 75.4 77.4 80.7 86.7 93.6 95.3 94.9 94.9 96 96.5 98.7 101.1 104.7 108.2 112.7 114.8 117.2 118.9 120.6 123.4 126.7 128.3 134.6 143.6 149.3 153.2 156.2 158.9 160.4 161.1 161 162 162.8 164.9 167.1 169.6 172.9 176.2 180.2 183.4 185.5 188.1 189.4 189.9 190.4 190.1 189.4 188.6 187.8 186.3 184.7 183.2 181.7 179.6 177.1 174.4 172.2 169.4 166.9 165.9 162 160.2 158.3 156.2 152.8 151.2 149.9 148.3
55.2 55.9 56.6 56.8 57.1 56.4 54.2 52 50.6 48.9 46.8 44.2 44 44.4 44.2 44.2 43.7 42.1 43.3 43.5 44.2 44.3 44.1 44.1 44 43.9 43.9 43.9 43.8 43.7 43.8 43.5 43.5 42.4 43.8 42.9 43.2 43 43 43.4 43.2 43.7 43.9 44.1 44.4 45.8 47.2 47.9 47.1 45.3 44.6 45.1 44.1 44.8 45.6 46 46.8 47.2 47.1 47.6 48 48.7 48.9 49.1 49.7 50 50.3 50.8 51.8 52.8 53.5 55.2 57 59.9 64.6 69.6 73.5 75.9 76.9 76.8 76.3 74.6 72.8 71 68.8 66.7 65 63.9 63 61.7 61.1 58.5 57.2 56.3 56.8 56.9 55.8 56.5 57.4 57.9 57.7 58.5 58.6 59.7 60.9 61.5 61.9 62.8 63.8 65.5 68.8 72.6 75.5 76.9 77.2 76.8 75.8 73.6 71.2 68.4 68.3 68.5 68.8 69.3 69.7 69.8 69.8 70.9 70.9 72.7 74.5 75 77.7 81.3 86 95.4 97 99.8 102.5 103.5 105.6 107.4 110.6 114.4 115.9 118.6 120.8 123.4 126.1 130.2 132.7 135.4 138.1 143.4 148.4 153 157.3 160.7 165.1 166.5 167.9 168.5 168.5 169.9 170.8 172.2 173.9 175.9 177.8 180.7 183.7 186.1 187.6 189.1 189.9 190.3 190.1 189.8 188.6 187.6 186.4 185.6 184.4 182.6 181 179 176.9 175.3 172.2 170.3 167.9 167.2 166.5 163.4 161.2 159.7 159.9 157.2 155.3 155.3
54.9 55.6 55.9 56.2 56 55.1 52.9 51.2 49.9 46.3 44.3 44.2 44 43.3 44.4 44 43.5 41.4 44.5 44.4 44.2 44.3 44.3 44.3 44.1 44.1 44 43.9 43.8 43.7 43.6 43.2 43.5 43.5 43.7 40.6 43.8 42.3 42.3 43.3 43.9 43.7 43.8 43.9 44.2 44.6 45.9 46.2 45.1 44.4 44 44.9 44.2 45.1 45.8 46 46.7 46.8 47.1 47.7 48.2 48.7 49.2 49.8 50.5 50.8 50.4 50.8 51.7 52.9 53.9 56.1 58.6 62.6 68.2 72.4 74.9 76.6 76.6 76.6 75.2 73.2 71.6 68.8 68 66.5 65.2 63.6 62.5 61.3 59.8 58.2 57.1 57.2 57.6 57.6 57.7 57.7 57 57.6 58.4 58.2 58.1 58.6 60.2 61.3 61.4 62.1 63.8 65.3 68.2 71.1 73.4 74.5 74.8 74.5 75 72.4 69.9 67.3 67.3 67.9 68.4 68.7 69.1 69.4 70.1 70.3 71.6 73.1 74 77.7 81.3 87.1 91.6 95.4 98.5 101 102.8 106.9 108.6 110.5 113.1 115.7 119.7 122.9 125.6 127.9 132.5 137.7 142.8 146.2 150 153.3 158 160.8 163.9 166.9 170.1 171.4 172.7 173.8 174 174.4 175.4 176.5 178.4 180.6 182.6 184.7 186.1 187.9 189.2 189.8 190.2 189.9 189.6 189.3 188.4 186.6 185.6 184.6 183.5 182.5 180.5 178.6 176.5 174.4 171.8 169.8 168 167.5 167.1 165.9 163.8 162.4 162.3 160.6 159.8 159.1
54.2 54.9 55.2 55.3 55 53.8 52.4 50.9 47.5 45.4 44.2 44.1 42 44.6 41.4 41.9 44.8 44.9 45.2 44.6 44.4 44.3 44.4 44.3 44.2 44.2 44 43.9 43.8 43.8 43.5 43.7 43.4 43.4 43.9 43.4 43.6 41.5 40.8 43.2 43.3 43.1 43.4 43.7 43.5 44.2 44.7 44.4 44 43.7 43.9 44.9 44.7 44.7 45.1 45.7 46.5 46.9 47.4 47.9 48.5 49.2 49.5 50.3 50.7 51.4 51.6 51.5 51.8 53 54.2 56.6 59.1 63.4 68.4 72.5 74.7 76.3 76.9 75.2 74.3 72.4 70.4 69 67 65.7 64.5 62.6 61.8 62 60 58.6 57.9 56.5 57.9 58.3 58.5 58.5 58.8 59.6 60.5 60.9 59.7 58.3 59.4 60.4 61.4 61.5 63.3 64.4 66.5 69 71.1 72.4 72.5 71.8 72.3 70.8 68.6 66.9 67 67.7 68.3 68.8 69.1 70.4 70.9 70.6 71.2 73.3 77.1 81.5 84.7 91.8 90.6 91.8 97.7 99.5 100.9 103.9 106.9 109 110.8 112.8 117.2 122 126 129.5 134.4 141.6 148.1 151.8 155.3 158.8 163.5 165 167.4 169.6 171.7 174 175.7 175.9 176.9 177.7 178.9 180.1 181.6 183 185.1 186.4 187.8 188.9 189.4 189.7 189.9 189.4 188.8 188.1 187.1 186.1 184.6 184.2 183.4 181.5 179.8 177.7 176.4 174 171.2 167.1 166 166.1 166.9 166 165.1 164.6 164.1 162.4 161.8 161.1
53.2 53.8 54.3 54.6 54.2 52.9 51.3 48.6 44.7 41.4 44.7 44.6 44.2 44.3 44.2 44.5 45.3 45.2 45.2 45 44.5 44.3 44.4 44.4 44.3 44.5 44.9 44.1 43.9 44 44.7 44.9 44.6 44.3 43.5 43.6 42.7 42.9 43.6 43.7 40.8 43.6 43.6 43.3 43.2 43.7 43.9 43.7 43.5 43.6 44.3 44.5 44.8 45.5 45.8 46.5 46.8 47.2 47.7 48.2 49 49.6 50.6 50.9 51.7 52.2 52.7 52.7 52.9 53.7 54.1 55.6 57.8 60.9 65.5 71.8 74.7 76.2 75.7 74.9 73.6 71.5 69.7 67.8 66.3 65.1 64 62.8 61.9 60.5 59.8 58.4 58.1 57.3 58.1 58.9 59 59.1 59.4 60.3 61.4 61.6 61.6 59.6 59.3 60 61.1 61.7 62.6 63.5 65 66.8 68.8 70.5 70.8 69.2 69.2 67.3 65.8 65.9 66.8 67.4 68.2 68.7 69.1 70.1 72.2 70.8 72.6 74.9 77.1 82.1 85.4 89.6 90.1 91.1 94.8 96.1 97.1 99.1 101.1 102.9 102.7 103.4 108.1 113.4 121.7 127 132.8 140.7 147.5 152 156.1 160.1 163.8 165.5 167.9 170.3 172.8 175.1 176.7 177.6 178.6 179.6 180.6 181.6 183.1 184.5 186.6 187.7 188.9 189 189.2 189.3 188.8 188.2 187.6 187 186.2 185.1 184 182.8 182 180.7 178.7 177 174.9 173.1 169.4 166.5 163.6 163.9 165.1 165 164.2 164.2 163.4 162.5 162.2 161.7
52.3 52.4 52.5 53.1 52.5 51.6 49.6 44.3 45 44.2 44 44.3 44.4 44.7 45.4 45.4 45.3 45.4 45.3 44.7 44.4 44.3 44.4 44.3 44.3 44.6 44.7 44.9 45.6 46.2 45.9 45.3 44.9 44.4 44.6 43.9 42.5 43.5 43.5 41.7 43.6 43.2 43.6 42.8 43.4 43.4 43.2 43.3 43.5 43.6 44.1 45.4 45.5 45.4 46.6 47.3 47.1 47.5 47.9 48.4 49.1 50.5 51 52 53.1 53.9 54.4 54.6 54.9 55.5 55 55.4 57.5 60.9 64.7 71.2 74.9 75.5 75.7 74.3 72.9 71.2 70.1 68.6 65.6 64.1 63 62 61.7 60.2 59.4 59.6 58.9 57.7 58.1 59 59.2 59.5 59.9 60.7 61.5 62.8 62.1 61.3 59.2 59.7 61.1 61.6 61.9 62.9 63.7 65.2 66.7 68.4 68.4 66.9 65.8 65.6 65.8 65.8 66.7 67.2 68 68.3 69.6 68.9 70.7 70.8 72.2 75.9 76.7 81.4 83 83.3 84.2 89 90.6 91.8 93 93.5 95.6 95.3 99.4 101.6 104.7 109 115.5 121.9 127.7 136.5 143 149.7 153.9 158 159.9 163.5 166.6 168.8 171.1 173.2 176 177.8 179 180 181 182.1 183.7 185.3 186.8 188.3 188.9 188.6 188.7 188.4 187.7 187 185.8 184.9 184.3 183.3 182.5 181.5 180.5 179.7 177.7 176.5 174.3 171.4 169.1 166.6 162.4 159.4 161.2 162.5 162.7 162.9 162.2 161.6 161.9 161.5
50.8 51.1 51.5 51.8 51.6 50.4 45.8 44.2 44.6 44.4 44.3 44.5 44.9 44.9 45.7 45.5 45.2 45.4 45.2 44.8 44.5 44.4 44.4 44.3 44.8 45 45.6 46.5 46.8 46.2 46.3 45.5 45 44.5 44.4 44 44.2 44.9 42.2 43.5 40.8 43.9 43.8 43.5 43.1 43.5 43.4 43.2 43.3 43.5 45.1 45.8 46.3 46.2 46.7 47.3 47.7 48 48.2 48.9 49.7 50.8 52.1 53.1 54.7 55.8 57.2 58.7 59 57.9 56.8 57.8 62.2 67.8 72.1 74.7 75.8 75.4 74.1 73.5 71.8 70.9 70 67.1 65.2 63.7 62.8 62 61 60.4 60 59.7 59.1 58.4 57.4 59 59.6 59.9 60.3 61.4 62.3 63 62.7 62.4 61.6 59.1 61.7 60.7 60.9 62.3 63 63.7 65.2 65.7 65.4 65.1 64.9 65.4 65.9 65.7 66.8 67.1 67.7 68.2 68.7 69.2 70 70.7 72.4 75.1 75.4 79.6 80.6 81.3 82.9 85.6 85 86.8 87.6 89.8 91.2 92.2 93.2 94.8 97.6 101.3 107 114.2 121.6 129.6 136 141.1 146.5 151.8 155 159.5 161.6 163.9 167.1 170.4 173.3 175.4 177.4 179 181.1 182.4 184 185.6 187 188.2 188.3 188.3 188 187.3 185.9 184.5 183.4 182.3 181.7 181.1 180.7 179.4 179.3 177.9 177.1 175.6 173.6 170.9 168.6 166.4 162.6 158.4 157.7 158.9 160.3 160.7 160.7 159.9 158.7 157.9
49.7 50.3 50.5 50.8 50.6 46.3 44.6 41.4 44.4 45.3 45.3 44.9 45.8 45.1 44.9 45.1 45.2 44.9 44.5 44.5 44.5 44.4 44.4 44.8 45.3 45.7 46.7 47.1 47.2 46.8 46.5 45.4 44.6 44.6 44.3 43.5 43.8 44 43.3 43.8 44 42.9 43.4 43.5 43.5 43 40.5 43 43.4 43.4 43.9 45.7 46.4 46.5 47 47 47.4 48.1 48.4 49.1 50.3 51.4 53.5 55.9 57.2 61.5 64.8 66.3 64.3 60.3 59.6 61.9 66.5 72.9 75 75.4 75.1 74.4 73.2 72.2 70.1 69.6 69.3 66.6 64.7 63.5 62.2 61.6 61.3 60.8 60.3 59.8 58.7 57.8 57.8 58.6 59.2 59.5 59.8 60.9 63.2 63.8 63.8 62.9 61.8 59.2 60.9 60.8 60.7 62 62.8 63 63.3 63.7 64 64.5 64.9 65.5 65.8 65.6 66.3 67 67.4 67.8 68.5 69.1 69.2 69.5 70.2 72.8 74.7 74.6 75 75.8 79.1 80.8 80.3 82.8 83.1 85.1 85.8 87.3 88.7 90 91.9 93.9 98.1 102.6 109.7 121 129.6 136.4 141.5 147.3 150.5 153.4 156.1 159 162 164.9 168.4 171.8 174.5 177.3 178.9 181.7 183.6 185.3 186.9 187.6 187.5 187.4 187.3 185.7 183.4 181.6 179.5 178.4 178.4 178.1 177.8 176.9 176.4 176.4 175.9 174.3 173 171 168.6 165.9 162.2 158 153.6 155.4 156.1 156.6 156.1 156.1 155.9 155.1
48.6 49 49.4 48.2 45.8 45.2 44.9 42.8 45 44.8 45.6 45.8 45.9 45.6 45.1 44.8 44.9 44.5 44.7 44.5 44.5 44.6 44.6 44.6 45.4 46.3 47.1 47.6 47.6 47.7 46.7 45.6 44.8 44.6 44.5 43.7 43.9 44.3 44.5 43.5 43.5 41.3 43.4 40.5 43.3 40.5 43.2 40.5 43.2 43.1 43.3 44.9 46.9 46.3 46.2 46.6 47.7 48.2 48.7 49.9 50.7 52.3 54.3 57.1 63 69.6 73.8 74.2 70.4 66.3 65 69.3 71.9 75.7 75.6 74.8 73.9 73.3 72.1 71.3 70 69.8 67.2 65.2 63.3 63.1 61.5 61.3 61.5 60.6 59.5 59.6 58.9 58.5 58.7 58.5 59.1 59.3 60.2 61.4 64.4 65 65.4 63.9 62.5 60.2 61.1 60.4 60.9 61.8 61.6 62.1 63.6 63.8 63.4 65.1 65.2 65.1 65.6 65.8 66 67.1 67.5 67.6 67.5 68.2 68.2 68.4 69.2 70.9 73 74.1 75.1 73.5 74.9 76.6 77.7 78.9 80.1 80 83.4 83.3 84.4 85.8 87.3 88.2 90.2 93.1 99.9 109.3 118.3 125.1 129.2 134.7 139.1 142.8 146.1 149.6 152.9 156.6 161.1 165.4 168.8 172.2 175.9 180.1 182.9 184.3 186.4 187.6 187.5 186.8 185.9 184.2 181.8 178.1 175.9 174.3 175.2 174.9 174.3 174.1 173.9 174.4 174 173.5 172.3 170.6 168.5 165.6 162.2 158.7 154.6 152.9 153.1 151.7 151.7 151.5 151.7 151.4
47.1 47.7 47.6 44.4 43.9 44.3 43.3 41.4 45.1 45.6 45.9 46 45.8 45.4 45.3 44.6 44.6 44.8 44.5 44.5 44.5 45 44.4 45.5 46 46.9 47.4 48 48 47.8 46.6 45.3 44.4 44.8 44.9 43.1 44.7 44.1 44.3 44.8 43.7 43.1 43.1 43.3 43.6 43.3 42.9 40.5 42.8 43.2 43.1 45 46.4 46.8 45.9 46.3 47.6 48.4 49.2 50.2 51.5 53 56 61.1 69.1 76.1 79 78.7 76.9 72.1 68.2 73.4 75.8 75.3 74.9 74.1 73.2 72.1 71.1 69.8 69.2 68.3 66.6 64.7 63.5 62.8 61.4 61.5 61.3 59.8 59.2 59.8 59.5 59.3 59.1 59.1 58.9 59.7 60.6 63.4 66.1 67.5 66.1 64.9 63.4 61 61.2 60.8 61.5 61.8 62.2 62.8 63.3 63.7 63.5 64.1 64.5 64.8 65.4 65.7 66.2 66.5 67 67.1 66.8 67.1 67.3 67.5 68.3 69.1 69.8 72.7 72.2 72.3 72.7 72.4 73.1 76 76.3 76.4 79.5 81 81.6 83.1 84.3 84.8 85.3 86.9 91.2 97.2 104.9 110.7 115.4 118.7 119.5 122.8 126.1 130.3 136.7 146.5 152.5 157.3 161.7 166.4 173.2 178.2 182.2 184.9 185.8 187.4 187.7 187.4 185.1 183 179.1 175.8 172.4 170 170.9 171.6 171.3 170.1 171 172.1 172.8 172.5 171.3 170.3 168.3 165.9 163 159.5 156.5 152.8 150.1 146.4 146.2 147.1 146.2 145.9
45.1 45.8 42.4 44.8 44.2 44.5 44.4 44.2 44.7 45.8 46 45.9 45.7 45.4 44.9 45.3 44.5 44.7 45 45.2 44.8 45.1 44.6 45.6 46.4 47.6 48 48.4 49.1 48.2 46.4 45 45.2 44.6 44.8 44.8 44.6 44.3 44.4 43.8 43.7 43.5 43.5 43.1 43.1 42.5 40.4 43.8 43.2 43.2 43.1 44.8 47.2 46.4 46.5 47 48 48.6 49.8 51 53.2 56 60.3 67.2 74.2 78 79.6 79.5 79 76.1 73 75.7 75.3 74.7 74 73.2 72.4 71.4 70.2 68.9 68.1 66.8 65.6 64.6 63.7 62.1 61.5 60.5 60.6 59.5 59.9 60.4 60.1 59.8 59.5 59.5 59.7 60.3 61.2 64.8 67.1 67.6 66.6 65.2 63.7 61.9 61 60.7 61.8 61.9 62.2 62.9 63.5 63.3 63.8 64 64.4 64.7 65.4 65.9 65.4 65.8 66.4 66.6 66 66 66 66.5 66.1 68.1 68.3 69.8 70.9 69.3 70 69.5 70.7 72.6 72.6 75.3 77.8 79.1 79.5 80.3 80.9 81.2 81.7 83.1 85 87.9 91.7 94.8 97.8 101.3 105.2 107.5 109.1 111.9 115.6 122.6 130.3 139.7 148.7 162.6 171.6 177.7 182.1 184.7 185.4 186.7 186.7 186.1 184.6 182.9 179.9 176.4 172.7 167.7 165.7 167.4 166.9 167.2 168.2 168.4 170.1 170 170.3 169.7 167.9 165.9 163.3 161 158.5 155.9 153.2 150.1 146.4 142.1 139.3 136.6
43.4 43.2 44.5 45 44.6 44.5 44.2 44.8 45.2 45.2 45.9 45.7 45.6 45.4 45.1 44.9 44.9 45.3 45.3 44.7 44.7 44.5 44.7 45.1 46.5 48 48.7 49.5 49.3 48.2 46.6 45 44.9 44.3 44.6 44.2 44.3 44.2 44.3 43.8 43.7 43.5 43.6 43.4 43.3 42.6 42.9 43.3 43.1 43.1 42.9 45 47.3 46.9 46.8 47.1 48.4 49.2 50.6 51.8 55.1 59.6 66.4 73.4 76.5 79.4 79.4 79.4 78.7 77.6 76.5 75.8 75.1 74.4 73.2 72.3 71.5 70.3 69.3 68 66.8 65.9 65.1 64 62.9 61.6 61.7 60.4 60.6 60.1 60.3 60.6 60.7 60.7 60.1 59.9 60.5 61.2 63.2 66.7 68.5 68.3 66.7 64.7 63.3 61.7 61.3 61.5 61.7 61.6 62.2 62.6 63.1 63.5 63.3 63.9 63.7 64.6 64.4 65.3 64.9 65.4 66 66.3 66 66 65.6 66 66.8 67.4 68.6 68.9 68.5 67.5 68 70.4 70.1 70.2 71.7 73.7 75.9 76.9 77.7 78.7 79.2 79.9 81.3 83 84.2 85.8 87.3 88.8 90.8 93.3 94.4 96.4 97.4 99.8 102.9 107.2 114.6 126.9 147.7 162.5 171.4 178.3 182 184.6 185.9 186.6 186.3 185.6 184 182.1 179.1 175.4 171.4 167.1 163.6 162.8 163 162.8 164.9 166.7 168.4 169.8 169.6 168.9 168.1 166 164.1 162 160.4 158 155.7 153.1 151.3 148.7 145.8 143
45.4 45 44.3 44.7 44.6 44.4 44.7 45.2 45.2 45.2 45.3 45.6 45.5 45.3 45.6 45.2 45.3 45.1 45.4 44.8 44.8 44.8 45.1 46.1 47.6 48.6 50 50 49.6 48.4 45.4 44.6 44.4 44.7 44.4 44.6 44.2 44 44.5 43.7 43.7 43.6 43.5 43.5 43.4 43 42.8 43.2 42.9 43 43.4 45.2 47.7 47.2 47.1 47.5 48.8 49.9 51.3 53.3 56.7 62.9 69 74 76.4 78.2 77.9 78.4 77.6 76.8 76.2 75.2 74.4 73.7 72.8 71.7 70.6 69.4 68.2 67 65.5 64.9 64.4 63.1 61.7 61.3 61.5 60.8 61.2 61.1 61.2 61 61.8 61.1 60.3 60.2 61.2 62.4 65.3 67.8 68.4 68.2 65.7 64.3 62.8 62 61.5 61.8 61.6 61.4 62.6 62.1 62.5 62.8 62.9 63.7 63.6 64.2 63.9 63.7 65.6 64.9 66.1 66.2 66 66 66.4 66.2 66.4 67.5 68.3 68.5 67.7 68.4 69.4 69.3 70.5 71.3 72.5 73.2 74.2 75.5 76 77.2 78.6 80.2 83.4 88.1 90.5 90.9 91.2 92 92.9 94.3 96.5 99.8 103.6 107.5 111.2 116.7 125.9 141.2 155.9 165.9 173.5 179 182.4 185 185.9 186.2 185.8 185.3 183.7 181.9 179.4 175.8 171.7 167.8 163.8 160.3 158.6 159.8 162.6 165.8 167.7 167.9 168.3 167.8 167.3 165.9 164.8 163.3 161.5 159.7 157.4 155.5 154.3 152.1 150 147.6
45.5 42.4 44.5 44.7 44.6 44.6 45.1 45.2 45.2 45.3 45.4 45.8 45.9 46.1 46 45.7 45.8 45.6 45.2 45.3 45.1 45.2 45.7 47 48.5 49.2 50.5 50.1 49.7 47.8 45.7 45.2 44.5 44.8 44.4 44.1 43.9 44 44 43.7 43.5 43.5 43.5 43.4 43.3 42.7 42.8 42.6 42.7 40.2 42.3 46.1 47.9 47.6 47.2 47.7 49.2 50.4 52.2 54 57.8 62.3 66.7 70.6 74.8 76.5 77.2 77.5 77 76.2 75.1 73.8 73.3 72.7 72.2 70.7 69.6 68.6 67.6 66.4 65.4 64.5 63.9 62.9 61.6 61.7 61.7 61.6 61.5 61.7 61.8 61.5 61.6 61.4 60.4 60.2 61.3 63.7 66.3 67.7 67.3 66.7 65 63.8 62.8 62.4 62.2 62 61.5 61.4 61.4 62.2 62.3 62.8 63.2 62.7 63 63.6 63.8 63.8 64.9 65.5 65.9 65.5 66.2 66.9 66 65.6 66.2 66.8 67.1 67.7 68.1 67.4 68.5 69.7 70.3 71.5 72 72.6 74.3 74.5 75.7 77 78.5 82.9 89.4 95.8 100.2 101.8 103.6 105.7 106.5 107.5 109.9 113.9 118.2 121.9 126.9 132.8 144.5 154.1 164.5 171.4 176.9 180.6 183.5 184.9 185.6 185.7 185 184.3 183.3 181.6 179.3 176.3 172.9 169.5 166.2 163.6 160 155.6 158.1 163.2 163.6 165.8 166.5 166.7 166.3 165.5 164.6 163.6 162.5 161 159.2 157.6 156.6 155.1 153.1 152.1
44.8 43 44.7 44.7 44.6 45.1 45.8 45.3 45.3 45.4 45.4 45.5 46.3 46.4 46.3 46.4 45.7 45.2 45.5 45.1 45.3 45.6 46.7 47.9 49.1 49.8 50.5 50.3 49.9 48.2 46.4 45.2 44.6 44.5 44.6 44.3 44 43.9 43.7 43.6 43.5 43.4 43.7 43.6 43.3 42.4 42.8 42.9 42.8 42.6 42.9 46.4 48.9 48.3 47.7 48.1 49 50.4 52.3 54.6 57.7 61.1 66.7 71.5 75.2 75.3 75.8 76.3 76 75.3 74.3 73.3 72.5 71.8 71.4 70.2 68.5 68 67 66 65.4 65.1 64.3 62.9 61.8 61.8 62.1 61.5 61.8 62.3 62.5 61.9 61.9 61.9 60.9 60.8 61.8 63.6 65.9 66.2 66.1 65.3 64.3 63.1 62.4 62.3 62.2 61.8 61.4 61.5 61.5 61.8 61.8 61.9 62.2 62.1 62.5 63.1 63.2 63.7 64.1 65.1 65.1 64.8 65 65.2 66 64.5 65.6 65.9 66.2 67.4 66.3 68.5 69.5 70.1 70.7 71.5 72.3 73.5 74.1 75.1 75.9 76.2 79.5 86.1 95.9 104.3 111.2 116.7 119.3 119.9 120 121.5 124.2 129.3 133.9 138.3 142.9 147.9 157.9 165.4 170.9 175.6 179.3 182.2 184 185.1 185.2 184.9 184.5 184 182.6 181.2 179.5 177.3 174.9 172 169.3 166 162.8 158 154.4 157.6 160.6 163.2 164.5 165.3 165.2 164.9 164.5 163.8 162.8 161.8 160.4 159.3 158.1 156.9 156 155.2
44.5 43.2 45.1 44.8 44.9 45.6 45.3 45.6 45.6 45.7 45.6 45.8 46.4 46.4 46.5 46.3 46 45.3 45.2 45.3 45.6 46.4 47.9 48.7 49.6 50.3 50.4 50.5 49.7 48.3 46.8 45.8 44.7 44.4 44.4 44.1 43.8 43.6 43.6 43.7 43.7 43.2 43.4 44.1 43.3 42.9 42.9 43 43.1 42.9 42.9 48.1 48.4 48.4 48.2 48.8 49.9 50.8 52.3 54.9 58 61.8 67.4 71.6 74 73.8 74.1 74.9 74.8 74.3 73.4 72.3 71.6 70.8 69.9 68.8 67.8 67.3 66.7 65.9 65.1 64.5 64.1 63.3 62.6 62.1 62.9 62.8 62.3 62.6 63.4 62.9 62.6 61.7 61.1 61 62 63.7 65 65.5 65.3 64.4 62.8 63.3 62.4 62.1 61.8 61.6 61.2 61.5 61.6 61.7 61.8 61.7 61.9 62 61.5 62.1 62.4 63 63 63.6 63.7 63.9 64.7 64.7 64.4 64.5 65 65.2 66.6 67.5 68.5 69.5 69.9 70.8 71.8 72.3 73.2 74.2 75.1 75.9 76.7 78.4 81.6 88.4 99.2 108.4 117.6 123.9 128.5 132.1 137.3 140.3 144 146.9 150.8 155.3 159.1 161.6 166.1 171.7 175.5 178.8 181.6 183.3 184 184.6 184.5 184.1 183.7 183 181.7 180.4 179 177.1 175.1 172.9 170.4 166.8 164.9 159 153 152.7 157 160 162.2 163.4 164.2 163.9 163.9 163.5 162.7 161.4 160.9 160.4 159.6 158.6 156.8 156.2
45 45 43.4 45.2 45.1 45.6 45.3 45.5 45.8 45.8 45.8 46.1 46.4 46.4 46.5 46 45.4 45.4 45.5 45.7 46 47.4 47.9 48.7 49.6 50.3 50.6 50.6 50.4 49.1 47.9 46.4 45.1 44.4 44.1 43.9 43.7 43.5 43.5 43.6 43.7 43.5 44.4 44.2 42.9 42.3 42.7 42.8 42.8 43.1 42.2 48.4 48.7 49.4 48.9 49.1 50 50.9 52.5 54.4 58.4 62.2 66.4 69.9 71.5 71.8 71.8 72.9 74 73.4 72.3 71.3 70.5 69.7 68.9 68 67.1 66.6 66.1 65.6 64.7 63.9 63.5 63.2 63 62.5 63.6 63.7 63.4 63.2 63.3 63.6 63.1 62.5 61.8 62 62.2 63.4 64.5 65 64.8 63.8 63.3 62.7 62.1 62.1 61.7 61.5 61.6 61.8 61.7 61.7 61.6 61.4 61.6 61.7 61.3 61.7 62 62.2 62.7 63.1 63.5 63.9 64.1 64 64.3 65.3 66 66.1 67.2 68.1 69.2 69.9 71.4 71.8 72.6 73.3 74.4 75.5 76.1 76.9 77.7 79.2 83.2 89.9 100.4 110.6 120.2 129.1 136.9 141.6 146.6 150.7 154.5 157.5 161.4 164.7 167.7 169 171.2 174.9 177.5 180.6 182.5 183.8 183.8 183.8 183.7 183.3 182.6 181.9 180.8 179.4 178.2 176.9 175.1 173.2 170.8 168.9 166.3 162.9 157.6 152.8 151.9 155.7 158.8 161.1 162.1 163 162.9 163 162.1 160.9 160.2 160.3 159.7 158.8 157.4 156.7
42.4 45.2 44.9 44.2 45.1 45.8 45.6 45.7 45.9 45.9 45.9 46.3 46.2 46.1 46.1 45.9 45.9 45.5 45.9 46.1 46.6 47.6 47.9 48.4 49.6 50.2 50.7 50.8 50.3 49.3 48.6 47.4 45.5 44.7 44.2 43.9 43.7 43.5 43.4 43.6 43.7 43.6 44.2 43.9 42.5 42.5 42.5 42.6 42.6 42.7 42.6 47.5 48 48.7 49.1 49.3 50.2 50.9 51.9 54.5 57.9 60.5 63.7 66.4 68.3 69.1 69.3 71 72.7 72.7 71.1 70.4 69.6 68.6 68 66.7 66.9 66 65.4 65 64.1 63.9 63.8 63.5 63.4 63.6 64.3 64.5 64.1 63.6 63.7 63.7 64 62.7 62.3 62.1 62.6 63.3 64.1 64.6 63.7 63.7 63.2 62.6 62.3 62.5 61.9 61.6 61.7 61.8 61.6 61.5 61.6 61.3 61.3 61.3 61.5 61.7 61.7 62 62.1 62.5 62.9 63 63.3 63.6 64 64.7 66 66.6 68.3 69.2 70.3 70.7 72.4 73.8 75 75.3 76.2 77.2 77.9 78.5 78.9 80 82.8 89.4 98.3 107.7 117.5 126.5 136.4 143.7 150.3 156.1 160.6 164.5 167.5 170.2 172.6 174.9 174.6 176.4 178.8 180.6 182.6 183.1 182.8 182.6 182.5 182 181.3 180.6 179.6 178.6 177.3 176.2 174.8 173 171.2 169.2 167.2 164 161.3 156.1 148.8 150 154.9 158.5 160.3 161 161.8 161.7 161.2 160.1 159.3 159.1 158.7 158.6 157.6 157.4
45 42.4 44.2 42.4 45.3 46 45.9 45.8 45.9 46 46 47.2 46.1 45.9 45.7 45.9 45.6 45.8 46 46.4 47.4 47.8 48.2 48.5 49.5 50.3 50.8 51.2 50.6 49.9 49.5 48.5 46.6 45.3 44.4 44.2 44.1 43.4 43.3 43.5 43.5 43.5 43.8 43.9 42.4 42.4 42.4 42.5 42.8 43.1 45.7 46.5 47 48.3 48.6 49.4 50.2 50.5 51.5 53.5 56.5 58.5 60.8 63.4 64.8 65.4 66.4 70.3 72.4 72.1 70.6 69.6 68.8 67.6 67.3 66.1 65.6 65.7 65 64.8 64.4 64.4 64.3 63.7 64.1 64.2 65.2 65.3 65 64.7 65.3 65.2 64.2 63.8 63.1 62.9 63.2 63.7 64.3 64.1 63.8 63.5 63.2 62.8 62.5 62.5 62.5 61.7 61.7 61.8 61.6 61.9 61.7 61.5 61.5 61.6 61.8 61.8 61.6 61.7 61.8 62.1 62.3 62.6 63 63.3 64 64.5 65.8 66.8 68.5 68.9 71.2 72.3 73.6 75 76.4 76.7 78 78.7 79.9 80.6 80.8 81.4 82.9 86.1 91.3 98.4 107.6 115.2 129.8 142.3 150.5 157.5 163.5 167.8 170.6 172.8 175.7 177 177.5 178.5 180 180.9 182.2 181.8 181.6 181.4 180.8 180.3 179.7 179.1 178.1 177.4 176.3 175.3 174 172.6 170.9 169 167.1 164.4 160 155.2 150.9 147.8 150.7 155.2 157.9 159.3 160.1 160.5 160.5 159.8 159.7 158.8 159.1 158.3 158.1 156.9
42.8 45.9 45.1 45.7 46.1 45.9 45.9 45.9 46 46.1 46.2 46 46 46 46 45.8 45.8 46.1 46.4 47 47.8 48.6 48.9 49.1 49.4 50.3 50.9 50.9 51.2 50.4 49.8 48.8 47 45.5 44.5 44.3 43.5 43.3 43.3 43 43.5 43.3 43.3 43 42.2 42.3 42.3 42.5 42.7 39.8 43.3 46 47.1 48 49.1 49.8 50.3 50.5 51.1 52.4 54.9 56.8 58.6 60.3 61.3 61.4 64.9 69.1 71.3 71 69.9 68.8 68 66.8 66.4 65.4 65.2 65.6 65.1 65.7 65 65.2 64.9 64.7 65.5 65.3 66.1 66.6 66.2 66 66.6 66.4 65.6 64.6 63.9 63.7 63.8 64 64.8 64.6 63.7 63.8 63.3 62.8 62.8 62.2 62.1 61.9 61.8 62.6 61.8 62.1 62.4 61.8 61.8 61.8 61.6 61.6 61.5 61.5 61.7 61.7 62.6 62.5 62.8 63.4 63.8 65 65.7 66.9 68.8 70.2 72.4 74.9 75.5 77.1 79.3 79.8 80 81 82.2 83.7 84.4 84.8 84.8 85.7 88.6 93.5 100.4 110.6 127.5 141 151.5 158.8 165.2 169.4 172.3 174.9 176.8 178.4 179 179.7 180.2 180 180.4 180.3 180.2 179.8 179 178.3 177.5 176.9 176.3 175.6 175.3 174.4 173.1 171.7 170.3 168.4 166.6 162.4 157.4 153.5 151.6 145.3 147.5 152.5 155.1 156.7 157.6 158.5 159 159.1 158.7 158.7 158.7 157.1 156.5 156.7
45.4 44.9 45.6 45.7 46.7 46 46 45.9 46.1 46.3 46.3 46.9 46.2 46.1 46 46.6 46.1 46.4 46.9 47.5 49 50.1 50.1 49.8 49.7 50.4 51 51.4 51.3 50.9 50 49.2 47.5 45.5 44.5 44 43.6 42.9 42.7 42.9 43.4 43.2 43.3 43.2 42.2 42.2 42.3 42.5 42.6 43.5 45.8 46.6 47.3 48.3 49.2 49.6 49.9 50 50.5 52 53.7 55.3 56.7 57.3 57.6 61.6 65.8 68.4 69.7 69 68 67.5 66.5 65.4 65.3 64.3 64 64.1 64.3 65 65.4 65.5 65.9 65.9 65.5 65.8 66.5 67.4 67.4 67.6 67.9 67.3 66.3 65.5 64.8 65.1 65.2 65.1 65 64.6 64.5 63.9 63.1 62.6 62.5 62.3 62.1 62 62.1 63 62.5 62.1 62.6 62.1 62.1 62.1 62.5 61.9 61.4 61.4 61.5 61.6 62.3 62.4 63.2 63.3 63.8 65.1 65.8 66.7 68.9 69.9 73.6 76.8 78.9 81.2 83.8 85.3 85.4 85.2 85.8 88.2 89.9 90.6 89.8 89.8 92.1 99.2 109.5 120.6 135.7 145.6 154.8 161.1 166.9 170.6 172.6 175.2 176.7 177.8 179 179.3 179.3 179 177.7 178 178.2 177.6 176.4 175.3 174.2 174.1 174.2 173.8 173.7 173.2 172.1 170.7 169.8 168.4 165.6 159.8 157.2 153.1 148.2 142.8 145.3 147.9 152 153 154.3 155.4 156.9 157.6 157.9 157.2 157.2 157.1 156.2 156.3
45.3 43.2 45.3 47 46.6 46.1 46.5 46.2 46.9 46.1 46.3 46.5 46.2 46.1 46.1 46.3 46.5 46.8 47.3 48.2 50 51.7 51.5 50.7 50.2 50.6 51.1 51.3 50.9 50.8 50.3 49.8 47.8 46.1 45 44 43.4 42.9 43 42.6 43.5 43.4 43.5 43.4 42.1 42.1 42.2 42.4 39.7 44.1 45.4 46.2 47 48 48.9 49.2 49.2 49.3 50 51.5 53 54.2 55 57.3 59.9 63.1 66.7 68.2 68.2 67.4 67.2 66.1 65.4 64.6 64.1 63.5 63 63.6 64.3 65.5 65.8 67.1 67.3 67.8 67.6 67.3 68 69.3 69.4 69.3 69.2 68.3 67.7 67.3 65.3 65.3 65.5 65.7 65.3 65.5 64.7 64.7 63.8 63 62.6 63 62.5 62.4 62.4 63.2 63 63.4 63.8 63.8 63.2 62.7 62.4 61.9 61.3 61.4 61.6 61.9 61.7 62 63 62.7 63.6 64.4 66.2 68.2 69.7 72.9 75.2 80.7 85.9 89 92.3 94.1 94.6 94.3 94.9 97.4 100.5 101.1 99.6 101.4 103.9 111.4 122.2 136.5 143 151.5 158.7 163.8 168.4 171.4 173.7 175 176.7 177.7 178.3 178.3 178.3 177.6 175.9 175 175.3 174.3 172.8 171.5 170.5 170.1 170.2 171.1 171.8 171.9 171.2 170.5 169.7 167.6 163.3 158.6 158.4 152.6 147.4 142.4 138.5 143 147.1 148.6 150.1 151.7 152.8 154.6 155.4 155.8 156.1 156.3 155.9 155.2
45.6 43.4 45.3 46.1 46.7 46.5 46.4 46.4 46.6 46.5 47 47 46.4 47.6 47.7 47.6 47 47.1 47.8 48.6 50.4 50.9 52.9 51.8 50.8 50.8 51.1 51.5 51.4 51.2 50.9 50.2 49.4 47.7 45.6 44.1 43.3 42.8 42.7 42.9 43.5 43.6 43.6 43.2 41.9 42.1 42.3 42.5 42.9 43.5 45.3 46.2 46.7 47.5 48.6 48 48.5 48.9 49.5 50.8 52.1 53.6 55.9 58.9 61.7 64.4 66.5 66.9 67.1 66.6 65.7 64.5 63.7 63.1 62.5 60.9 62.8 63.1 65.5 65.7 66.7 67.3 69.2 69.8 70.7 69.7 69.5 71.4 71.4 71.3 71 70.4 69.8 68.5 67.4 66.7 66.7 66.6 66.6 66.2 66.2 64.9 64.4 63.3 63 63.2 63 62.7 62.9 63.8 65.5 66 66.3 65.3 64.1 62.8 61.6 61.3 61.1 61 61.3 61.6 61.9 61.5 62.5 62.3 63.1 64.2 66.5 69.1 72 77.2 84.9 91.4 95.1 98 101.4 104.1 106.1 106.3 106.7 109.5 112.8 115.3 113.6 115.8 120.9 127.8 136.1 143.5 150.1 156.6 162.5 166.9 169.9 172.1 173.8 175.2 175.6 176.6 176.9 177.1 177.1 176.3 174 172.1 171.5 170.8 169.3 167.6 166.8 166 167.1 168.5 169.9 170.4 170.3 169.6 168.9 168.2 165.5 162.2 158 153.7 148.3 143.1 137.5 137.3 140.1 142.2 145.4 147.5 149.4 150.7 153 153.5 154.4 154.6 154.8 154.1
44.8 45.3 45.2 45.6 46 47.1 46.7 46.6 47 47 46.6 47.7 46.3 46.3 46.8 46.9 47.2 47.4 47.4 49.4 49.8 52.1 53.1 52.2 51.1 51.3 51.3 51.6 51.6 51.5 51.1 50.4 49.9 48.7 46.5 44.6 43.1 43.4 43.5 43 43.6 43.4 43.7 43.1 41.8 42.4 42.5 41.3 42.9 44 44.4 45.3 46.1 46.6 46.9 47.5 48.4 48.7 49.6 50.5 51.5 53.3 55.9 59.9 63 65.5 66.2 65.4 65.8 65.1 64.2 62.9 62 61.3 61.1 60.9 60.9 62.9 65.2 66.4 67.9 69.3 71.1 72.6 73.9 73.8 74.3 73.1 74.3 74.2 73.7 72.8 71.8 70.3 68.8 68.1 67.8 67.7 67.3 66.7 66 65.6 65.6 64.3 64.3 63.7 63.6 65 67.3 68.3 69.6 69.3 68 67.2 65.7 63.8 61.8 61.3 60.9 60.8 60.8 61.1 60.8 61.4 62.4 62.2 62.9 64.7 67.2 72 78.5 86.7 94.2 99.5 104.4 109.2 113.9 116.4 117.6 119.6 119.7 120.4 124 125.8 127.6 130.2 135.1 140 145.4 150.2 156 161.2 165.6 168.8 170.5 172.3 173.4 173.5 175.3 175.6 175.3 175.3 175 174.4 172.5 169.9 168.5 167.1 165.9 163.5 162.3 161.4 163.6 166.7 168.1 169.1 168.9 168.6 168.4 168 165.7 162.3 158.1 155.2 151.6 146.6 143.3 138 132.4 135.1 138.7 142.4 144.9 147.3 149.4 151.4 152.5 152.9 153.1 153.1
43.9 45.2 45.7 45.4 45.7 46.3 47.3 47.3 47.3 47.2 47.1 47.5 46.5 46.7 47.1 47.3 47.1 47.5 47.7 48.9 49 50.2 52.8 52.1 51.5 51.7 51.9 52.1 52.1 51.7 51.3 51 50.6 49.5 47.7 45.3 44 43.2 43 43 43.5 43.7 43.5 43.1 42.1 42 40.1 43.3 43.5 43.4 44 44.7 45.6 48 48 46.9 48.1 48.3 49.2 50.1 51.7 54.3 57 60.5 63.5 65.8 65.9 64.8 64.3 63.6 62.4 60.1 61.1 62.6 63.9 63.6 63.1 63.6 64.6 68 71.4 73.3 75.4 76.5 77.8 77.5 78.1 76.6 76.9 76.4 76 75.4 74 72.3 70.8 69.7 69.1 68.4 68 67.6 67.1 66.2 66.5 65.8 65.8 66.1 66.9 70.7 69.7 69.8 70.9 70.4 69.3 67.4 65.8 63.9 62.2 61.5 61.2 60.8 60.7 60.4 60.6 60.9 61.2 61.7 62.6 64.8 68.2 77.2 87.5 96.4 103.3 109.5 115.5 119.8 123.9 127.8 130 131.6 131.9 132 134.8 137.1 138.7 140.7 144.4 148.9 153.1 157.1 161 164.6 167.2 169 170.5 170.9 171.3 172.5 173.6 173.8 173.6 173.3 172.7 172.3 170.5 168.3 165.8 163.7 162.2 159.7 157.7 157.1 161 164.3 166.4 167.5 167.5 167.3 167.2 166.8 165 163.3 160.1 156.6 154.1 148 147 144.3 140.2 135.4 130 135.2 139.2 142.9 145.7 148.1 150 150.7 151.2 151.1
43.4 45.4 45.5 44.5 46.1 47 47.2 47.3 47.5 47.5 47.4 47.2 47.3 47.1 47.5 47.8 47.8 47.9 48.3 48.4 49.3 50.2 51.2 51.5 51.4 51.9 52.9 52.6 52.2 51.8 51.4 51.1 50.8 50.4 48.9 46.5 44.3 43.3 43.2 43.2 43.2 43.4 43.5 42.5 42.3 42 42.7 43.1 42.9 43.2 43.4 44.6 45.3 45.9 46.7 46.5 46.3 48.1 49.1 50.3 52.3 55.4 59 62.1 64.2 65.7 65.1 64.1 62.3 60.7 58.7 62 64 65.4 65.2 65 64.3 65.2 66.2 69.1 74.4 79.2 79.5 80.7 80.2 81 79.5 78.9 79.5 78.8 78.6 77.8 76.4 74.5 73.1 71.7 70.2 69.5 68.9 68.7 68.2 68.1 68.4 68.2 68.6 69.9 69.9 71.8 72.4 71.8 71.3 70.4 69.1 67.6 65.2 63.6 62.7 61.8 61.3 60.9 60.5 60.4 60.3 60.5 60 60.3 62.8 65.6 71.4 80.9 94.5 102.4 110.3 118.3 124.7 128.9 132.5 136 139.4 140.8 141.3 142.5 143.9 147 148.5 150.5 152.4 155 158 161.8 163.6 166.1 167.4 168.8 170.4 170.8 171 171.6 172 172 171.7 171.4 170.5 169.5 167.5 165 162.4 160.7 158.8 156.8 155.4 155.6 159.5 162.4 165.3 166.6 167 166.8 166.4 165.9 164.5 163 160.9 158.7 155.4 153 150.8 147.3 144.8 141.2 135.1 128 133 138.1 142.2 145.2 147.1 147.7 148.4 148.8
45.3 46.1 46.4 45.2 45 46 46.7 47.3 47.7 47.9 47.8 47.6 47.2 47.3 47.9 48.2 48.3 48.4 48.5 48.8 49.2 50.8 51.8 52.1 52.6 52.8 53.9 54.3 53.5 52.7 51.6 51.2 50.6 50.1 49.1 47 44.7 44.1 43.3 42.7 42.8 43 42.7 42.3 42 42 42 42.9 40.4 43.2 43.9 44.5 45 45.5 46.7 47.3 47.7 48.2 48.9 51.1 54 57.8 61.4 63.2 64.6 65 64.5 63.1 61.1 57.7 60.3 64 64.9 64.9 64.9 65.5 65.9 66.1 67.1 69.3 74.1 81.6 83 84 85.3 85.6 84.6 83.7 83 80.8 81.1 80.1 78.6 76.7 74.7 73.1 71.6 71.1 70.3 70.1 70.4 70.7 70.8 71.2 72.1 73.3 72.5 72.7 71.5 71.6 70.9 69.5 68.1 66.9 64.6 63.8 62.9 62.1 61.7 61.2 60.9 60.4 60.1 60.2 59.3 61.4 62.2 65.8 73.5 86.5 96.8 105.8 115.7 123 129.5 133.6 137.8 141.3 144.5 146.1 147.8 149.4 150.8 152.8 154 155.8 157.5 159.3 161 163.6 164.3 166.1 167.4 168.1 168.2 169.4 169.7 170.1 170.4 170.2 169.8 169.4 168 166.7 164.7 161.9 159 155.9 153.3 151.7 149.9 152.8 157.7 161.3 164.2 165.7 166.5 166.4 165.9 165.5 164.3 163.4 161.6 159.1 155.6 152.9 151.5 149.6 146.6 142.4 138.5 133.3 127.3 132.3 138.1 141.7 143.7 144.5 144.6 146.5
47.4 47.8 47.8 46 46.2 46.7 46.2 47.5 47.9 48 48.3 48.1 47.8 47.7 48.1 48.6 48.6 48.5 48.5 48.7 49.3 51.1 52 52.6 53.8 54.7 55.4 56.1 54.9 53.1 52.1 51 50.2 49.5 48.4 46.8 45.4 44.1 43.4 42.9 42.5 42.5 41.9 42.1 41.9 42.2 39.7 39.7 43.8 45 44.9 44.6 45 45.4 46.3 47.8 49.1 49.5 50.7 52.2 54.9 59.7 62 64.4 64.4 64.5 63.5 61.6 58 59.5 62.2 63.5 64.1 64 64.3 65.3 67.2 68.6 68.6 70.2 74.3 78.2 84 89.5 91.3 91.4 88.3 89.1 86.3 86.1 83.1 82.9 80.5 77.9 75.6 73 72 71.8 71.9 72.6 73.1 73.9 74.1 74.6 74.8 74.3 73.5 71.6 71.7 70.8 69.8 68.7 67.5 65.8 64.2 63.8 63.1 63.4 63.4 62.2 61.6 61.5 60.6 59.8 59.6 59.3 61 64.6 73.1 86.4 97.5 108.1 117.3 126 132.7 138.3 143 147.5 150 151.3 152.6 153.3 154.3 155.9 156.8 158.6 159.6 160.8 161.5 162.9 163.4 165.1 165.6 166.6 166.6 167.3 169.1 168.1 168.3 168.4 167.7 167.3 165.5 163.8 161.6 158.4 154.9 151.7 148.6 146.9 146.3 152 157.1 161.2 163.3 164.4 166.1 166.1 165.6 165.1 163.9 162.4 159.8 158.9 156.7 152.5 149.8 148.9 147.4 143.6 140.2 135.6 128.9 127.8 132.6 137.6 139.6 139.4 140.9 143.9
53.4 51.6 49.6 48.4 48.3 46.8 46.4 46.2 46.8 47.9 48.2 48 48 48 48.2 48.9 48.8 48.7 48.7 48.8 48.5 51.3 52.5 53.3 54.7 56.3 57.5 57.7 56.2 53.5 52.5 51.3 50.3 48.7 47.6 46.2 44.8 44.1 42.9 42.3 42.3 42.4 41.8 41.9 42.1 39.7 43.1 43.2 44.5 45.3 45.4 45 45.2 45.6 47 48.9 50.5 50.2 51.4 52 57 59.7 62.5 63.7 63.9 63.3 61.9 60.5 56.4 59.4 62 62.6 62.9 63.1 63.7 65.7 68.3 70.3 71.4 73.1 75.6 82 86.7 92.8 95.2 94.6 93.2 89.4 90.5 89.9 87 84.8 82.2 78.9 75.8 73.6 74.1 73.9 75.1 75.1 75.9 75.6 75.6 75.6 75.1 74 73.3 73 71.9 71.1 69.9 68.5 66.8 65.2 64.5 63.9 64.1 63.9 64.9 65.2 64.9 63.4 61.3 60.3 59.5 59.4 60.2 63 70.9 83.6 96.1 107.5 118.6 127.8 135.9 142 146.8 150 152.3 153.6 154.7 155.4 156.3 157.6 158.1 159.1 159.7 160.5 161.1 161.7 162.5 163.5 163.7 163.8 162.8 164.3 165.1 166.5 166.7 167.3 166 165 163.5 162.1 158.5 154 149.7 146.1 143.1 141.5 147.2 153 157.3 160.8 162.9 163.6 165 165.7 165.8 165.3 164.2 163.2 160.7 159.5 157.7 152.2 148.2 146.7 145.6 143.6 139.8 135.8 130.7 123.4 128.7 132.5 135.2 134.5 138.6 142.5
57 54.5 52.2 50.9 49.8 48.7 47.8 47 47 47.6 48.6 48.6 48.4 48.3 48.7 49.2 49.1 49 49.2 49.2 49.4 50.2 52.5 54.1 55.5 57.2 58.9 59.1 57.5 56.1 53 51.5 50.2 48.6 47.5 46.7 46.3 44.8 43.4 42.2 42.1 42.1 41.8 42.2 43.2 42.2 43 43.4 44.2 45.1 45.1 45.3 45.3 45.8 47.1 49 51.7 51.8 52.9 56.1 59.1 60.4 62.4 62.8 62.8 62 60.8 59 55.7 59.5 60.6 61.4 62.1 62.4 63.6 65.7 69 73.2 76.5 77.2 81.3 85.5 91.3 93.9 95.1 96.9 97.3 93.9 93.1 91 89.5 85.4 82.9 80.1 76.5 75.7 76.3 76.5 77 76.9 76.8 76.1 75.6 75.1 74.2 73.4 73 72.3 71.6 69.8 69.5 67.7 65.8 65.2 65.1 64.9 64.7 64.9 65.6 65.2 65.7 65 63.3 60.7 59.2 58.9 59.5 62.8 68.2 75.7 91.7 105.2 117.7 127.4 135.2 142 147.3 150.7 152.8 154 155.2 156.2 157 157.9 158.5 159.2 159.3 159.3 159.5 159.5 159.5 159.1 159.7 158.9 159.8 159.9 162.5 163.7 164.7 164.6 163.7 162.3 160.9 158.7 155.5 150.6 145 140.8 138.3 141.1 149.2 154.3 158.3 160.8 162.5 163.1 164 165.4 165 164.9 164.3 163 162.5 160.1 158.3 152.9 148.1 146 144.5 141.9 138.4 135 130.6 123.8 125.1 129.4 129.3 134.1 138.4 141.8
59.5 58 54.1 53.1 51.5 49.9 49.1 48.4 47.4 47.4 49.1 49 48.8 48.7 48.9 49 49.2 49.5 49.7 49.8 50.1 51.9 53.6 54.8 56.1 58 59.7 60.1 59.2 57.5 55.1 52.2 50.5 49.2 48.5 48.2 47.7 46.1 43.9 42.4 41.9 41.7 41.7 42 42.3 41.9 42.2 42.6 43.3 44.3 44.4 44.7 45 45.8 47.8 50.2 52.2 52.5 54 56.2 58.5 60.3 61.6 60.9 61.1 60.3 59.2 57.1 56.2 59 59.6 60.3 60.1 61.5 63.7 66.9 72.1 77.9 78.5 82.4 87 89.7 93.7 96.4 97.6 98.8 99.5 94.3 93.9 91.3 89.4 86.4 82.5 80.3 77.9 77.9 79.5 78.9 78 77.4 76.8 76.1 75.4 74.2 73.4 72.8 72.3 71.5 71 69.5 68.5 66.9 65.4 65.8 65.5 65.9 65.4 65.2 65.7 66 65.5 65.8 63.9 61.5 59.2 59.3 59.6 62.1 65.3 72 84.2 102.8 116.1 126.2 134.8 141.5 145.9 149.8 152.3 154.3 155.5 156.4 157.4 158.2 158.5 158.4 158.3 157.2 156.6 155.9 156.1 155.5 155.2 154.6 154.9 157 159.9 161.1 162.4 162.8 161.2 159.6 157.3 154.6 151.7 146.2 139.5 133 135.1 145.7 151.7 155.5 158.3 160.3 161.7 162.8 162.8 164.3 165.1 164.3 164 163.5 162.1 161.1 160 155.1 149.6 145.5 142.8 137.7 134 130.2 126.5 123.1 120.4 124.4 128.6 134.8 138.3 141.5
62 59.4 56.6 56.5 54.4 52.1 50.3 49.1 48 48.7 49.4 48.9 49.1 49.2 49.4 49.7 49.8 49.9 50.1 50.5 51.2 52.5 54.2 55 56.7 58.5 60.3 61.4 60.6 59.3 56.8 53.6 52.8 49.8 49.6 49.3 48.7 47.1 44.9 42.4 41.5 42.1 42.1 41.9 42.8 42.1 42.4 43 43.4 44.1 44.2 44.3 44.6 45.5 47.2 49.3 51.1 52.9 55.1 57.5 59.6 61.8 60.8 59.3 58.7 58.9 57.2 54.3 55.4 56.8 58.2 58.8 60 61.3 64.1 68.9 75.2 78.7 83.7 86.9 91.2 92.4 91.3 96.6 101.5 101.5 100.8 96.5 93.9 91 88.1 85.7 83.1 81.4 80.7 81.5 81.6 80.9 79 77.9 76.9 75.8 74.5 73.4 72.5 71.9 71.2 70.3 69.5 68.3 67.7 67.3 66.4 66.6 65.8 65.4 65.2 64.9 65.1 65.7 65.4 64.8 61.8 61.3 58.9 59.1 59.3 61.4 65.2 70.1 81.2 100.2 115 124.7 132.9 139.2 143.5 146.8 150.4 152.9 154.7 155.9 157.1 157.7 157.8 157.4 156.1 153.9 152.4 152.4 151.3 151.3 150.9 150.4 150.3 154.7 157.5 159.3 159.2 159.6 158.7 156.6 153.3 150.4 146.8 141.2 134.5 126.6 139.9 148.6 152.7 155.6 157.5 158.5 160.5 161.7 162.7 163.1 164.7 164.4 163.7 163.4 162.3 160.6 159.6 157.1 152.1 146.5 144.5 141.8 137.7 133.4 130.6 127.9 121.3 119.9 128.1 133.9 138.3 140.9
67.7 64 60.7 59.8 56.9 55 52.5 50.2 48.5 48.9 49.3 49.2 49.5 49.9 50 50.2 50.1 50.2 50.5 51.4 51.9 53.2 54.9 55.8 57.3 59.2 61.1 62.2 62.2 60.6 57.7 54 51.3 51.7 50.9 50.8 49.6 47.6 43.3 42.5 41.8 42 41.9 42 43.2 43 43.1 42.9 43.3 44.1 44.6 44.4 44.5 45.3 46.6 47.7 50.1 52.2 55.6 59.5 62 61.7 60 58.5 57.9 57.3 54 56.6 57.5 58.1 59 59.8 60.3 61.7 63.5 67.4 73.7 76.8 80.5 83.7 84.8 86 87.6 95 103 103.4 100.6 96.4 92.7 89.7 87 85.6 84.1 83.8 83.3 83.6 83.3 81.1 79.6 78.1 77 75.8 74.4 72.9 71.6 70.8 70 69.5 68.7 67.6 67.4 67.1 66.5 65.6 65.5 64.8 63.4 63.7 63.4 63.8 63.8 62.5 61.6 60 58.9 58.8 59.1 60.8 63.7 69.5 80.9 97.8 113.9 122.8 129.3 134.5 138.4 142.6 147.1 151.3 153.8 155.4 156.5 157 157 155.8 154.2 150.9 147 146.3 145.9 146 144.6 144.4 147.1 151.8 155.2 156 156.8 156.7 155.3 153 149.9 146 141.3 134.8 127.7 131.3 143.2 149.4 152.6 154.3 155.5 156.8 158.2 160 161.4 162.6 163.8 164.1 164 163 162.2 161.5 159.6 157.4 153.1 148.4 144.8 143.4 140.1 137.2 134 130.7 125.6 116.8 125.3 132.9 135.4 138
76.4 71 67.9 63.3 57.2 57.2 53.9 51.4 49.7 48.3 50.3 50.3 51.4 50.9 51.1 51.3 51 50.9 51.6 51.8 52.7 54.6 56.1 56.4 57.8 59.8 61.8 62.9 63.5 61.2 58 54.4 53.9 55.9 53.1 52.1 50.8 49.1 45.8 42.2 41.9 41.8 41.7 42.4 39.6 42.1 42.8 43.1 43.5 43.7 44.4 44.5 44.6 45 46 47.3 49.2 52.2 55.2 58.7 59.8 59.2 58.2 57.7 56.7 55.2 52.2 56.4 57.5 57.9 58.1 58.6 60.1 61.4 62.5 66.2 70.5 73.5 75.9 78.6 79.4 83.7 88.7 97.7 105.6 107.2 103.5 97.1 94.3 92.1 89.7 89.2 89.2 88.3 86.6 85.6 82.7 81 79.4 77.9 76.8 75.8 74.4 73.1 72 71.4 70.3 69.3 69 67.8 67.3 65.5 65.5 65.3 64.8 63.9 63.4 63.1 62.5 61.9 61 60.9 60 58.8 58.1 58.4 58.8 60.5 63.2 69.1 81.7 97.2 110.4 118.1 123.5 127.3 131.4 137.3 143.6 149.2 152.6 154.4 155.7 155.9 155.9 154.4 153 147.7 142.1 139.9 139.8 140.3 138.1 137.9 143.9 148.8 152.3 153 153.7 153.4 151.9 149.9 147.7 141.6 134.4 128.1 122.1 133.8 143.6 148.5 151.1 152.1 152.3 153.5 155 157.4 160.1 161.8 163 163.6 163.6 162.8 162.2 160.7 159.6 157.2 152.8 148.7 145.4 144.8 141.7 138.5 135 131.1 125.7 117.6 122.9 130.2 134.4 137.8
84.4 80.1 76.3 70.3 65.9 59.6 54.5 52.1 50.8 49.8 51.8 53.9 53.9 53 52.5 52.5 52.3 51.9 52.3 52.9 54.1 55.6 57 57.3 58.5 60.4 62.9 63.9 63.9 61.1 56.6 55.5 56.7 56.6 55.5 52.9 53.1 50 48.4 45.8 39.5 43.2 40.4 42.5 42.4 42 42.5 42.9 43.5 43.9 44.2 44.2 44.6 44.7 45.7 46.5 47.8 50.6 53.3 55.6 56.3 56 56.9 56.5 53.5 52.3 53.4 54.3 55.5 56.2 57.7 58.5 59.3 61 62.6 64.8 67.9 70.9 75.2 78.1 81.1 84.9 90.1 99.8 108.9 112.9 108.6 101.3 98 96.1 94 93.8 93.5 91.5 88.3 86 83.9 80.6 78.8 77.4 76.6 75.4 74.6 73.2 72.4 71.5 71.3 70.9 70.2 68.9 67.2 65.7 64.9 64 63.5 63.5 62.5 61.5 61.6 60.9 60.4 59.7 58.8 58 58 58.1 58.8 60.5 62.4 68.4 81.5 95.4 103.1 108.3 111.8 114.9 122.6 132.9 141.1 146.9 151.2 153.1 154.8 154.9 155.3 153.2 150.9 145.6 139 133.5 133.8 133.9 129.4 136.2 141.6 146.8 149.8 150 151.8 151 148.6 146.6 144.7 137.5 128.7 121.7 119.5 134.6 142.6 146.9 148.5 148.7 147.6 148.2 151.7 155.6 158.5 160.8 162.5 163.1 162.8 162.5 161.9 160.7 159.2 156.8 154 150 146.5 145.6 142.6 138.8 134.3 129.6 124 116.2 121.2 129.3 135 138.6
94.3 88.8 83.6 79.2 70.8 63.9 56.5 53.1 51.3 50.5 52 55 55.3 54.2 52.7 53.1 53.1 53.2 53.3 54.2 55.9 57.5 58.2 58.7 59.8 62.2 63.9 64.6 64.2 59.5 56.8 58.1 58.6 59.1 58.2 57.1 53.6 51.4 51.9 49.5 39.5 42.8 42.3 41.9 42.1 42 42 42.6 42.6 43.6 44.2 44.1 44.8 44.8 45.4 46.1 46.9 48.8 50.7 52.2 53.9 53.5 55.2 54.3 52.2 51.8 52.5 56.1 57.2 59 60.9 60.2 60.3 63.2 63.9 66.9 69 72.5 75.6 78.3 84 89.7 96.3 103.1 116.6 116.1 117.6 108.1 101.9 99.6 97.3 96 94.7 92.2 89 85.7 82.8 80.8 79.2 77.6 76.3 75.5 74.9 73.2 73.3 72.8 72.1 71.7 71.1 69.5 67.5 65.9 64.2 63.7 63 62.8 61.5 61.1 60.9 60 59.4 58.6 58.1 57.8 58 58.7 59.1 60.9 62.8 69.3 79.9 89.2 94.1 95.1 96.3 103.1 119.1 131.4 139.4 146.1 149.8 152 153.8 154.2 153.5 152 149.9 145.3 138.7 131.4 126.8 126.2 126.1 134 138.9 143.3 145.7 147.3 148.4 146.1 145.3 142.3 139.9 131.6 123.3 115.6 122.2 134.9 141.7 144.4 144.7 143.2 140.7 143.6 149.7 154.3 157.4 159.9 161.5 162.7 162.2 162.2 161.1 160.2 158.4 156.7 153.1 149.8 146.7 145.9 142.6 139.1 134.8 128.9 122.2 113.8 119.8 128.4 134.3 137.1
98.2 95.5 90.6 85.3 75.2 66.2 59.1 54.3 52.4 48.9 52 55.5 54.8 53.7 53.1 53.8 53.8 54.1 55 55 57.2 58.9 59.7 60.6 61.8 63.7 65 65 63.4 59.7 59 60.7 60.7 60.9 60.3 59.2 57.6 54.5 56.1 53.9 45.7 42.4 42.2 42.3 42 41.9 41.9 42 43.2 43.8 44.4 44.3 44.5 45 45.4 45.8 46.5 47.5 49.1 50.8 52.1 53.6 52.5 51.1 51 52.7 54.6 55.6 57.9 61.5 64.7 65.2 64.2 65.5 66.4 70.6 72.7 74 78.9 82.7 88.2 94.8 104.2 116.4 134.3 141.1 128.7 118.5 111.6 103 100.9 97.8 95.1 92 89.1 85.8 83.3 81.4 79.2 77.9 76.6 75.8 75.4 75.1 73.7 73.2 72.7 72.5 71.7 69.8 67.8 66 64.9 63.4 62.7 61.5 61.5 60 59.7 59.8 58.6 58.3 57.9 58.4 58.2 58.9 59.7 61 63.3 68.7 75.4 80.4 82.3 85.9 93.9 106.6 121.6 131.6 139.5 145.5 149.1 151.3 152.9 153.2 152.3 151.1 148.8 146.2 140.3 134.4 127 119.4 124.3 131.2 136.6 139.5 142.1 144.8 143.3 142.2 140 136.6 132.7 125.6 117.6 111.2 125.4 134.5 139.6 140.8 139.5 134.8 138.7 145.2 150.9 154.3 157.1 159.5 160.2 161.4 161.2 161.1 160.4 159.3 157.6 156.9 153.2 149.7 147.1 145.4 143.2 138.3 134.6 129.7 124.6 113.4 119.6 129.1 134.1 135.6
101.8 97.8 95.9 87.7 78.8 68.6 58.3 54.5 53.2 49 52 53.6 53.4 54.1 54.4 54.5 54.2 55.3 56.7 57.1 58 59.8 60.6 61.5 63.1 64.7 65.5 64.4 62.9 62.1 62.6 63 63 62 61.3 61.2 59.9 56.8 57.9 56.3 49.2 42.7 42.1 42.3 41.9 41.8 41.8 42.1 42.6 42.9 43.3 43.8 44.8 45.2 45.7 45.8 46.3 46.9 48.3 49.8 50.2 51.2 51.4 50.3 51.8 52.2 54.8 56.4 56.8 59.7 66.5 67.2 68.1 71.8 72 73.4 74.6 78.1 82.5 86.9 91.6 98.9 114.6 135.3 154.7 158.6 147.9 136.2 123.6 114 106.2 101.5 97.5 93.9 90.4 87.1 84.4 82.2 80.4 78.5 77.9 77.2 76.2 75.4 75 73.7 73.5 73.3 71.8 70.3 67.7 66 64.5 63.1 62.7 61.9 60.7 59.5 58.8 58.9 58.5 58.1 57.7 57.7 58.5 59.2 59.9 62.4 63.7 66.8 70.1 73.4 77.9 86.2 99.6 114.2 123.9 132.3 140.2 145.3 148.6 150.6 151.3 151.9 150.8 149.8 147.5 144.7 141 136.3 129.2 120 117.8 126.1 132.3 136.6 139.1 139.8 140 137.2 133.9 131.4 126.5 119.7 111.8 113.3 126.4 133.3 136 134.9 130.5 132.2 140 146.2 150.8 153.7 156.1 158.9 159.5 160.2 160.9 160.3 158.1 158 157 155.6 151.6 147.8 145.6 143.5 141.4 138.3 134 129.1 122.8 113.1 119.9 129.2 132.9 134.3
101.1 99.2 94.4 87 78 68.1 59.6 55.5 53.8 50.8 50.7 53.8 54.9 55.1 55 55.9 55.6 57.3 58.5 58.8 59.8 60.7 62.1 62.4 63.7 65.1 64.9 63.9 63 63.3 63.6 64.7 64.5 63.2 61.5 61.4 60.7 59.8 57.3 57.6 51.8 42.9 42.1 41.9 41.7 41.8 41.7 41.8 41.9 42.5 43.2 43.8 44.4 45.1 45.5 46.2 47 47.1 47.9 48.4 48.8 49 49.6 51.9 54.7 57.6 59.1 58.8 57.9 60.3 64.1 69.1 72.4 74.9 75 75.8 78.6 80.7 84.7 88.7 94.1 102.8 121.3 144.9 165.2 167.3 166.1 157.4 144.6 130.4 119.1 109.8 101.3 96.6 92.3 89 86.3 84.2 81.9 79.6 79.2 78.2 77.5 76.4 76.4 75.3 74.9 73.3 71.5 69.6 67.7 66.2 64.4 62 61.7 61.1 60.9 60 58.6 58.3 58.1 57.9 57.6 57.4 57.7 58.4 60.5 62.2 63.1 65.4 68.2 71.9 78.4 90.3 105.3 115.8 125.6 133.9 140.8 146 148.5 149.8 150.2 150.3 149.5 147.8 145.4 143.1 140.4 136 130.2 121.6 111.9 118.4 127.3 132.7 135.8 136.1 135.4 131.4 128.6 125.8 120.9 114.3 107.9 114.8 126 130.5 130.1 125.9 123.5 132.2 140.2 146.6 150.6 154 156.2 158.3 159.2 160.2 158.1 158.3 158.6 156.8 155 152.4 149.1 145.6 142.2 139.8 138.4 136.4 132.8 128.1 121.9 112.5 115.6 126.5 130.9 132
97.4 97.4 93.4 85.6 78.2 67.9 60.8 56.8 54.9 52.3 50.8 53.5 55 55.5 55.8 57.2 58.3 58.5 59.1 59.9 61.1 62.1 63.3 63.7 65.1 65.8 65.6 65.5 64.6 64.2 65 63.7 63.1 62.6 61.7 61.5 60.4 59.9 58.8 57.6 53.5 44.3 42.3 41.6 41.9 41.7 41.7 41.6 42 42.5 43.2 43.9 44.6 45.5 45.6 46.7 47.1 47.8 48 48.2 49.9 50.3 52.2 54.8 56.6 60.2 63.8 64.4 60.4 62 65.2 72 76.2 77.6 77 81.1 82 83.1 85.8 90.1 95.7 105.5 117.3 142.9 162.1 173.2 180.4 174.8 167.1 155.5 141.7 124.7 108.4 100.1 94.9 91 88.2 85.7 83.1 81.1 79.5 79.6 78.4 77.3 77.7 76.8 75.6 73.8 71 69.8 67.7 66.4 63.8 63.1 61.2 59.8 59.1 58.6 57.9 57.8 57.9 57.6 57.5 57.3 58.1 59.1 61 62.7 64 65.8 68.6 73.5 82.1 96.1 110.4 118.4 127.9 135.9 141.6 145.5 147.9 148.7 149 148.7 147.5 145.8 144 141.4 139.4 134.4 130.6 121 110.9 112 121.3 127.7 131.5 131.5 130.9 128.3 124.6 120.8 116.8 111.2 104.1 116.6 122.6 123.3 120.3 117.3 126 135.5 141.9 147.5 151.5 154.6 156.4 157.9 158.7 159.1 159 158.2 157.5 155.8 153.2 150.6 146.4 143.2 139 136.8 135.2 133.7 130.9 127 120.4 112.5 116.4 125.9 129 129.1
93.1 93.6 91.8 85.4 76.1 68 62.3 58 55.5 51.2 52.5 54.6 54.9 56.2 57.3 58.3 59.4 60.1 60.2 61.4 62.4 63.6 64.2 65.1 66.3 66.6 66.7 66.8 65.9 65.3 64.7 64.1 63.1 62.7 61.5 61.1 59.9 58.8 57.2 55 51.7 46.3 42.5 42.1 42.1 41.8 41.4 41.7 42.2 42.8 43.6 44.4 44.9 44.9 45.3 46.1 46.6 47.6 47.8 48.9 50.2 51.8 54.3 56.6 58.7 62.2 67.3 67.7 64.4 64.1 72 74.3 76.2 81.5 81.7 82.5 83.6 84.4 85.8 89.5 94.6 102.1 117.5 139.1 160.3 174.1 180 181.9 181.9 171.4 155.8 138.3 120.9 103.3 96.9 92.6 89.3 86.3 83.9 82.4 81.6 81.1 80.4 79 77.3 76.5 73.7 71.8 70.3 69 67.3 65.5 64.5 63.2 62.1 61.4 59.4 59.6 57.8 57.7 58 57.6 56.8 57.8 58.9 59.6 61.9 63.6 65.7 67.8 71.4 76.8 88.8 102.2 113.1 122 130.5 137.3 142.4 145.6 147.2 148.1 147.7 147 145.3 143.4 140.8 139 136.7 134.1 129.1 121.9 112.5 105.7 112.6 122.3 126.2 127 125.3 121.4 119.7 116 111.4 108.1 100.6 111.9 114.4 112.9 113.2 121.9 130.9 139 144.7 148.9 152.1 154.8 156.6 157.8 158.2 158 157.6 157 155.7 154.5 152.3 149.3 145.3 141.6 136.4 133 131.7 129.3 128.5 125.5 120.2 111.7 113 122.9 127.1 125.5
88.1 87.6 87.1 81.5 73.9 67.2 61.5 58.1 55.8 50.9 52.3 55 55.2 56.9 57.7 58.6 59.8 60.9 62.3 63.3 64.8 65 66.1 66.7 67.3 67.4 67.7 66.5 66.4 64.7 64 63.2 62.8 61.7 60.5 59.2 57.8 56.3 54.5 53.1 49.6 46.1 44.2 40.3 41.8 41.3 41.5 41.8 42.4 42.9 44.2 44.5 44.2 44.2 45.1 45.8 46.5 47.5 48.4 49.7 51.6 53.9 56.4 57.1 60 63.5 66.2 68.5 70.5 67.9 73 77.7 80.2 81.6 82.3 82.8 83.5 83.5 84.5 87.7 91 95.9 113.6 134.6 146.7 158.4 163.3 172 184.4 179.2 164.7 141.7 122.2 106.8 99.8 94.5 90.4 87.6 85.5 83.7 82.9 82.3 81.9 81 78.4 74.5 72.3 71.1 69.3 68 66.1 65.3 63.2 62 61.7 60.8 59.8 59.2 58.5 57.2 57.7 57.2 57.3 57.5 58.6 60.7 63.1 64.9 67.2 70.9 75.9 82.8 95.1 106.9 116.7 125.1 132.9 139 143.4 146.2 146.9 146.8 146.2 145.1 142.9 140.5 137.8 136.6 135.4 132.9 128.8 123.3 115 105.3 105.4 116.2 120.9 121.7 119.2 114.7 111.3 107.5 102.7 101.1 98.9 102.2 107.5 115.5 123.4 130.6 137.6 142.2 146.4 150.3 152.7 155.1 156.4 157.1 157.3 157.3 156.7 155.9 154.4 153 151 147.9 144.6 139.9 134.8 130.3 126.4 125.4 123.7 122.6 119 111.5 112.6 120.7 123 121.6
