ncols 200
nrows 82
xllcorner 390000
yllcorner 353650
cellsize 50
254.1 257.5 260.3 265.1 272 278.3 273.9 272.2 273.5 272.7 271.3 275.3 277.6 279.8 282 284.7 287.7 288.5 290 291.3 291.8 293.7 297.3 300.4 302.7 305.4 308.6 310.4 309.8 307.7 303.4 297.5 293.4 288.7 285.6 281.6 276.7 271 264.8 258.5 253 248.2 243.1 238.1 235 229.9 227.3 229.5 227 222.5 216.1 211.8 207.8 204.9 202.9 200.4 196.4 193.2 190.9 193 193.8 193.5 192.3 191.2 189.1 185.7 183.1 178 175.1 172.1 170.8 168.5 171.8 173.8 175.6 178.3 184.2 188.9 194 203.8 215 214.9 212 204.6 198.1 198.3 203.4 208.1 214.2 209.7 206.5 205.4 203.5 200 197.7 200.6 204.3 207 209.7 210.8 209.5 204.5 202.1 195.8 185.1 171.1 161.1 158 155.5 150.6 151.5 150.9 150.4 151.8 155.3 149.5 150 152.2 150.5 150.7 150.9 152.2 158.8 162.2 164.3 166.6 168.6 169.9 170.4 170.8 171.6 171.5 172.4 172.8 173 173 173.3 174.2 174.7 175.6 177.4 179.4 181.2 182.7 183.2 183.4 185.3 186.9 187.9 188 188.5 187.6 185.6 180.5 178.9 177.6 164.3 161.6 161.8 163.5 162.5 159.8 157.8 157.6 158 157.8 157.1 158.5 159.3 160.6 162.2 164.8 165.1 164.1 164.2 165.3 164.2 168.7 175.5 187.1 193.4 196.8 198.1 201 203.2 203.3 205.4 205.9 207.9 209.3 209.7 212.2 211.6 213.2 214.8 216.3 221.3 223.4 221.7 219.9
257.2 260.4 263.1 268 274.2 277.5 271.5 270.2 270.4 267.1 270 270.9 274.5 277 281 284.3 286.5 289.1 289.6 291.2 292.4 293.6 297.4 301 303.4 306.5 309.5 311.4 311.3 309.8 305 300.9 295.8 290.9 287.8 284.1 279.6 273.3 266.7 260.1 253.9 248 242.8 240.8 236.6 232.1 234.3 237.3 232.3 226 220 213.5 209.6 205.6 203.8 201.3 199 195.3 192.7 189.9 190.2 191.2 190.9 190 189.1 185.7 183.4 180.4 176.7 172.6 170.3 167.8 169.7 172.6 174.1 176.7 181.2 184 191 196.9 207.2 212.2 212.2 205.5 197.6 193.7 198.8 203.9 208.8 207.4 205.9 204 203 199.7 194.7 198.5 203.7 207 209 212.7 209.5 197.6 185.2 176.1 165.8 161 155 153.3 151.5 152 150.9 150.9 149.8 149.7 149.7 152.8 150.9 149.4 149.3 150.1 151.1 148.8 150.2 158.9 164 165.9 167.8 169.4 169.3 169.2 169.9 170.2 170.2 170.9 171.5 172.3 173 173.6 174.4 175.7 177.5 179.7 181.7 182.9 183.4 183.9 185.6 187.3 188.1 187.7 187.3 185 176.8 173.8 165.6 163.3 160.1 157.3 157.4 158.4 158.8 157.2 156.8 156.9 157.5 158.1 157.1 159.2 160.2 167.7 176.2 176.5 174.2 171.7 170 170.6 171 175.1 182 190.1 193.9 197 198.8 200.5 203.4 204.2 205.5 207.5 209 208.8 210.4 212.8 213.3 213.6 216.3 219.4 224.5 225.9 223.6 221.5
258.3 262.1 265.6 269.7 275.6 272.3 268.6 267.9 265.1 268.3 272 274.4 276.2 278.3 282.3 285.1 287.2 288.7 289.3 290.9 292.5 294.2 296.8 301.2 304.5 307.6 310.4 312.5 312.9 311.2 308.3 305.4 300.9 296.5 291.4 288.4 283.7 276.7 269.9 262.5 256.4 250.7 247.6 243.5 237.2 237.7 240.9 243 237.5 230.7 221.4 214.5 210.9 206.9 204 201.4 198.5 196 192.2 190 189.7 188.7 188.3 187.8 186.8 185.2 182.2 179.7 175.6 173.7 171.5 167.6 167.4 170.7 172.5 175.5 179.3 183.2 187.7 192.5 199.4 208.1 211.9 206 200.3 192.2 195 200 203.7 204.7 202.7 202.8 201.7 199.3 195.9 193.5 199.5 203.4 204.7 209 209 190.5 171 161.4 154.5 152.6 151.5 151.8 151.8 150.8 150.5 150.6 149.8 149.3 149.3 149.3 149.4 152.1 149.3 149 150.9 148.5 148.6 148.7 156 163.3 166 163.9 160.6 162.5 167.3 169.3 169.9 170.3 171 171.7 172.6 173.8 174.9 176.1 176.9 178.7 180.9 182.3 182.8 184 185.2 187 186.5 181.4 176.6 179.1 169.7 168.5 162.1 157 155.9 154.9 155.1 155.7 156.4 156.7 156.1 156 156.5 157 157.5 158.8 161.8 170.8 178.6 183.1 184.8 185.1 182.7 180.9 181.5 186 190.1 192.7 195.4 198.1 200.1 201.4 203.1 204.9 205.8 206.6 207.9 209.7 210.9 212.6 213.9 214.6 217.2 220.8 225.7 227.8 225.3 223.1
260.4 263.9 267.2 271.1 274 267.9 267.2 267.4 264.4 267.3 271.1 272.8 274.6 277.8 282 284.8 285.4 286.8 290.1 291.6 292.7 293.9 296.5 301.6 305.4 309.9 311.4 313.6 314.7 313.7 311.8 309.6 306.2 302.7 298.9 294.7 288.9 281 274.8 266.5 259.1 253.6 249.4 245.2 240.4 242.9 246.4 248.5 242.2 236.1 226.3 218.1 212.1 207.6 204.7 201.3 199.1 196.4 192.4 188.9 187.6 186.3 185.8 185.2 184.6 183.3 181.2 179.9 176.2 172.1 168.9 166.5 166.4 168.6 171.1 174 176.5 181.2 186.8 190.7 195.8 203.6 209.2 207.3 199.7 191.9 190 193.9 198.8 200.4 198.9 199 199.8 198.2 196.4 188.9 193.4 196.5 198.3 202.2 195.9 176.9 163.7 154.4 152.2 152 151.8 152.6 153 152.1 152.5 151.3 151.4 151.3 150.6 150 150.2 149.6 150.8 152.1 150.7 148.5 148.8 148.7 149.1 160.9 157.3 154.1 160.7 170.6 171 170.9 171 171.5 172.2 172.7 172.9 174.1 175.2 176.4 177.5 178.8 180.4 182.2 183.3 184.6 185.8 186.8 187.2 183.5 171.1 167.9 165.1 163.6 161.3 158.3 154.8 155 155 155.1 156.4 156.6 156.6 155.9 155.5 156 157 159 161.1 169.4 177.4 183.1 186.5 188.4 188.7 189.7 189.8 190 192 194.1 196.8 199.3 201.4 201.8 203.4 205.6 205.3 206.8 208 209.4 210.8 212.3 213.8 215.6 219.1 222.8 228.2 229.5 226.4 224.4
264.2 269.5 268.8 268.8 267.4 265.9 264.9 264.2 262.8 266.9 270 271.2 273.7 277.3 281.7 284.5 286 286.9 288.9 290.5 293 293.9 297.3 302.7 306.2 309.5 312.1 314.6 316.1 316.1 314.3 312.3 309.3 305.7 301.9 298 292 285.4 278.2 269.8 261.8 256.3 251.1 247.3 246.6 247 250.3 253 248.5 240.2 230.9 218.4 212.8 209.2 205.2 202 198.7 196.2 194.2 189.9 185.6 184.2 183.2 182.1 182.2 181.2 180 178.1 175.2 172.4 170.2 167.2 165.5 167.6 169.8 172 174.8 179 183.8 188.3 193.8 198.5 205.8 209.2 202.3 191.3 186 186.7 193.3 196.7 196.2 196.1 196.6 196.9 194.8 190.2 181.5 188.9 192.4 192.8 182.6 167.4 156.8 153.4 153.2 153.1 153 155.4 156.9 160.3 158.9 160.6 163.1 163.4 164.3 165.1 163.9 155.6 152.3 151.2 151.8 151 149 148.8 148.4 148.7 150.7 156.8 167 171.7 172.1 172 172.1 172.7 173 173.2 173.4 174.4 175.5 176.6 177 178 180.3 181.8 183.1 184.2 185 185.5 185.7 184.2 171.8 165 162 161.5 157.9 155.1 153.9 154.6 154.8 154.8 156.5 156.5 156.6 156.5 155.5 156.5 157.3 158.5 159.5 166.8 177 182.7 189 194.3 195.1 196.2 195.4 194.6 197.4 195.4 197.7 200.9 202.1 203.6 204.7 205 205.4 207.2 208.6 210.5 212.3 212.4 214.3 216.4 219.5 225.2 230.2 230.5 228 225.6
268.9 269.9 267.5 268.7 266.4 264.5 262.6 262.3 267 267.1 268.5 269.7 273.2 277.1 281.1 284.6 286.5 287.2 288.3 289.7 291.9 293.9 298.1 303.3 307.6 310.3 312.7 315.2 316.8 317.2 315.6 313.9 311 307.6 304 299.7 294.1 286.1 279.4 270.5 265.1 259 254.7 252.3 250.9 250.4 254.5 256 252.2 244.5 234.5 221.4 214.3 210.3 205.9 201.8 199.7 196.7 193.1 190.4 186.4 182.4 181.1 180.3 179.6 178.7 177.5 176.4 175.2 172.5 170 168.7 165.2 167.7 169.7 170.6 173.3 175.8 180.1 185 189.2 194.1 201.8 207.6 203.5 192.6 182.8 180.5 187.3 191.3 193.8 194 192.2 192.5 193.4 189.2 181.6 178.6 181.1 178 165.2 158.2 153.7 154.4 155.7 155.4 156.1 161.3 164.3 166.6 167.5 169.3 171.1 172.9 173.4 172.8 170.5 166.3 159.6 157.2 152.5 149.7 152.7 150.5 148.9 148.7 152.5 166.1 167.8 169.4 171.1 172.2 172.4 173.1 173.5 173.7 173.9 174.7 175.5 175.8 176.1 177.1 178.3 180.1 181.6 182.4 183.3 183.9 184.1 178.8 167 161.8 159.9 158.8 155.1 153.8 154 154.5 154.9 155.5 156.4 155.8 155.8 155.7 156.6 158.5 158.5 159 160.6 164.8 173.6 181.5 186.8 194.2 195.9 197.5 198.9 199.6 198.7 197.7 199.8 202.2 202.9 203.7 205 205.4 205.4 207 208.8 210.5 212.2 213.6 214.5 217.1 222.1 227.8 231.9 232 229.6 226.9
270 268.6 267.6 268.1 265.1 265.2 263.3 264.3 266.4 267.1 268.2 269 272.7 276.4 280.7 282.7 285.9 287.3 288.4 291 291.8 293.9 298.5 304.3 308.3 310.4 312.6 314.9 316.8 317.4 316.5 315 312.5 308.1 304.5 300.4 295 287.7 277.4 272.7 267.1 262.4 258.6 255.9 253.9 253.6 257.3 257.6 253.4 247.4 235.2 225.7 215.7 211.5 206.2 202.4 199.7 196.8 193.3 189.9 185.3 182.3 179.9 178.3 177.5 176.6 175.5 174.5 174.5 172.8 170.5 167.6 163.6 168.4 168.4 168.5 171.3 174.4 176.8 182.2 185.6 190.9 197.4 204.3 203.3 193.7 182.3 175.7 182.5 188.6 192.2 193.1 190 188.5 186.2 185.6 176.6 166.5 162.5 161.1 154.8 154.3 154 155.8 159 159.5 158.5 163.5 169.9 172.4 175.3 177.9 179.5 180.7 181.5 178.4 175.1 171.9 165.6 163.3 156.8 151.3 148.6 148.5 149.8 149.2 162 166 167.4 168.5 169.1 170.9 170.4 171.5 172 172.7 173.4 174.3 174.6 175 175.5 176.3 175.5 178 179.1 179.9 181.4 182.7 182.4 172.1 164.4 159.8 156.9 157.5 153.7 153.9 154.1 154.3 155 155.9 155.6 155.3 155.7 156.5 157.4 158.8 157.8 158.8 160.3 162 168.1 180.5 184.3 194.3 196.5 197.6 199.5 201 199.8 196.2 200.7 201.9 202.7 204.3 205 205.1 205.7 208.3 209.4 211.2 212.6 213.7 214.7 217.4 224 230.2 233.5 233.6 231 228.3
267.9 267.3 264.1 263.6 263.9 263.3 263.6 258.5 265 266.2 265.4 268.2 272 275.8 280.3 283.2 285.8 287.5 288.5 290.9 292.2 295 300.7 304.6 308.5 310.3 312.3 314.4 316.5 317.7 317.5 316 313 308.6 305.4 300.8 295.9 289.3 279.9 273.6 269.4 265 260.6 258.6 257 256.9 258.3 258 254.2 249.9 238.3 229.5 219.2 212.1 207.7 203.6 199.9 196.7 192.8 189.9 185.8 182.2 179.5 177.5 175.5 174.7 173.8 173.2 173.2 172 170.4 167.3 164.8 166.8 167.5 168.9 170.3 172.2 175 178.9 182.8 188.4 194.5 201.5 203.9 194.2 183.1 174.8 177.6 183.5 189.2 191.7 186.5 182.2 179.7 170.3 164.7 160.3 159 157.6 157.9 156.8 157.7 161 164.8 166.6 164 164.1 172.7 176.1 178.8 183.3 186.2 187.4 187.7 185.7 180.8 176.8 173.6 168.9 161.2 153.8 148.6 148.4 148.7 148.3 154.8 165 166.7 166.5 167.9 169.3 168.4 169.6 170.5 171 171.7 172.6 173.7 174.3 175 175.6 173.6 175.9 177.3 178.9 180.5 181.4 181.3 173.5 169.3 166.2 158.9 153.7 153.9 154.2 154.3 154.5 154.7 155.7 155.7 155.5 156 156.5 156.9 157 157.2 159.7 162.9 167.2 176.1 183 187.8 190.9 194.2 194.1 198.5 200.3 196.9 196.2 198.3 200.6 203.4 204.5 204.2 205.5 207.6 208.8 210.1 211.5 212.5 212.9 215.4 218.3 225.1 231.7 235.1 234.4 231.4 228.8
266 264.7 262 262.6 262.7 262.1 257 260.5 264.6 264.6 264.5 267.9 271.8 275.9 280.1 282.8 285.6 288.2 289.2 290.5 292.2 297.1 302.6 305.9 308.1 309.8 312 314.5 316.6 318.6 317.7 316.6 313.9 309.3 306.4 302.4 297.5 290.9 281.5 275.9 270.2 266.2 262.8 260.3 258.7 258.1 259 258.5 254.3 249.8 241.5 230.7 219.7 213.7 209.1 205 201.8 196.9 193.2 189.9 186.4 182.7 179.2 176.6 174.5 173.2 172.2 171.3 170.8 169.7 169.3 167.3 164.7 163.3 167.4 168.8 170.1 171.5 173.2 176.3 181 186.6 191.7 197.9 202 194.5 183.3 175 172.5 178.7 182.7 185.1 184.5 174.9 169.4 161.8 158.5 157.3 157.9 159.8 162.2 166.3 172 168.6 171.2 172.8 171.2 171.3 173.8 178.8 183.3 187.5 191.2 193.1 193.3 192 185.3 181.3 176.5 171.3 164.2 156.1 148.7 149 148.8 148.6 158.9 164.5 155.2 164.3 165.6 166.8 166.4 167.6 168.8 169.5 170.1 170 171.4 172.7 173.6 174.5 174.2 169.8 174.6 176.7 180.1 179.9 178.8 179.3 178.7 176.8 156 152.9 154 154.5 154.7 154.2 153.8 155.6 155.9 155.8 155.9 157.4 157 157 159.5 160.9 167.3 172.3 182.6 186.4 191 193.3 195.2 196.6 198.4 201.9 199.9 199.1 201 201.5 202.7 204.6 205.8 206.7 207.6 208.7 210 211.4 212.5 214.6 216.2 219.5 225.7 232.1 235.8 233.9 231.5 229
261.8 261.8 259.4 260.7 261.7 261.7 258.8 260.3 263.3 261.9 264 267.6 273.2 277.2 280.4 282.6 284.9 287.8 289.9 291.2 293.2 297.2 303.3 305.6 307.6 309 311.6 314.3 316.8 318.6 318.2 317 314.8 311.4 307.7 303.9 299 292.4 283.2 276.9 271.6 267.2 264.5 262 260.6 260.4 259.3 258.9 254.5 249.4 242.6 231.7 221.4 215.4 210.6 206.1 202.9 198.1 193.4 190.1 186.8 181.4 179.3 179 177 175 173.3 170.7 169.1 169.3 167.9 166.1 165.8 162.4 165.4 167.6 169 170.2 172.3 174.1 179 185.2 190.5 195.5 199.7 196.5 185.4 175.8 168 172.8 175.7 174.8 174.4 167.4 161.4 158.8 157.9 158.3 162.9 166.5 173.8 184.1 190.7 188.5 186.7 180.9 178.1 177.9 177 182.7 186.8 189.9 193.9 197.5 198.6 198 189.6 185.2 178.7 174.1 165.5 154.8 148.7 149 148.9 148.8 151.7 160.6 160.4 157.8 157.4 158.4 159.6 163.6 166.3 167.3 167.1 158.6 165.5 166.5 166.2 172.5 170.9 166.5 165.3 172.7 171.7 169.2 173.8 176.8 171 162.4 153.3 154.7 154 154.9 153.5 154 154.6 157.2 157.3 158.5 158.5 158.5 160 159.4 160.7 165.5 171.9 177.7 189.7 190.9 192.7 194.8 196 197.9 198.8 199 200.4 201.3 202 202.6 203.7 204.9 204.9 206.6 208.1 208.6 209.9 212.1 213 214.2 216 221.4 227.8 233.3 235.9 234.3 231.9 230
261.2 256.1 255.8 257.1 260.1 261.1 253.8 257.2 261.6 260.7 263.3 267.5 274.3 279.3 281.2 283.2 285.4 287.9 290.4 292 295.3 298.1 302.4 305.1 306.7 308.4 311.2 313.9 316.6 318.3 318.4 317.5 315.3 312.6 309 304.7 299.7 293.3 286.6 278.5 273 268.4 265.3 263.5 262.3 261.1 259.9 258.8 255.7 249.2 242.9 233 223.4 216.5 211.3 207 203.5 198.6 194.2 190.5 186.7 182.2 181.2 178.8 178.7 176.9 174.5 170.7 168.6 168.2 166.4 165.2 166.5 162.4 162.8 166.2 167.3 169.5 171.5 173 175.2 181.3 188.9 192.3 196.7 198.2 188.7 176.9 169.6 166.8 168 166.8 163.1 160.5 158.6 158.3 159.1 162.6 170 179.8 189.2 193.8 197.2 199.7 200 200.5 189.2 183.1 183 183.9 189.3 193 196.7 201.1 203.6 202.9 196.1 189.5 184.4 176.7 167 154 149 148.9 148.9 149 149.4 149.7 149.9 150 150.3 151.3 152.8 153 160.9 163 164.7 154.1 155.5 155.7 160.3 159.7 157.4 156.8 162.9 161.5 162.3 161.9 175.6 166.7 154.9 154.3 155.6 155.3 155.1 152.3 155.1 155.5 157.9 166.1 168.3 170.1 170.6 168.9 169 170.6 171.3 178.3 182.1 185.5 190.3 191.9 193.5 195 196.2 197.6 198.7 198.4 199.1 199.4 201.4 203.5 204.3 205.9 206.1 206.5 208 209.6 211.8 212.9 213.8 214.7 215.9 222.6 228.4 233.7 236 234.7 233.1 231.5
263.9 260.3 255.3 254.3 257.1 259.1 252.5 254 260.2 259.5 262.9 268.1 276.4 280.3 282.7 284.7 287.7 289.5 290.7 291.7 296.2 298.4 301.1 303.8 305.7 308 310.7 313.5 315.9 317.9 318.6 317.8 315.7 313.4 309.4 305 300 294.4 288 280.3 273.3 268.7 265.6 263.7 262.1 260.4 259.2 257.2 254.4 249.2 242.4 232.7 222.3 216.2 210.9 206 202.5 198.1 193.6 189.3 185.6 183.5 180.2 179.9 179.6 178.7 176.7 172.5 169.6 167.4 165.9 164.6 165.7 162.9 161.8 163.4 164.8 168.1 170.5 171.7 173.1 177.3 184.9 189.5 193.6 198.2 192.4 180.4 171.2 164.4 162.8 159.8 160.4 159.7 158.4 159.3 162.5 169.1 179.1 188.1 194.2 197.9 201.5 203.9 204 206.7 208.5 193.9 188.1 186.1 191.5 194.7 199.3 204.1 206.9 206.9 201.9 194.2 188.7 179.7 168 156.7 149 149 149.4 149.8 150.2 149.8 149.9 149.9 150.3 150.7 150.9 153.3 152.1 154.4 150.3 151.6 151.6 151.6 151.7 152.9 152.4 153.5 154.9 156.8 157.8 163.3 167.4 154.6 156.1 155.5 155.4 155.2 155 155 154.8 157.7 162.6 172.2 181.9 184.8 185.5 185 185.9 185.2 186 187.1 186.1 187.8 190.4 190.8 193 195.2 196.4 197.3 198 197.6 197.6 198.3 200.2 203.1 205.1 205.9 206.8 207.7 208.6 210.9 211.9 212.8 213.9 215 217 222.5 227.7 232.6 237.2 236.4 234.9 233.5
264.4 260 255.2 254.9 256.9 257.1 250.5 257.6 257.9 258.9 262.2 267.8 276.5 280.4 281.5 283.6 286.7 289 289.6 293.3 295.4 297.7 300.5 303.6 305.8 307.9 310.3 312.8 315.2 317.1 317.7 317.1 315.6 313.1 309.5 304.2 298.2 292.9 287.9 280.9 274.3 270.2 266.9 264.1 262.6 260.9 258.7 255.1 251.8 247.9 240.2 230.6 220.7 215.3 208.6 204.5 201.9 196.3 193.2 190 185.5 183.5 182.8 181.3 179.6 178.7 177 172 168.7 167.2 165 164.2 162.8 161.2 161 162.2 163.7 166.9 169.2 170.3 171.6 173.3 180.7 186.6 191.8 195.6 194.9 182.9 172.5 163.8 160.2 159.6 159 158.6 158.7 160.4 170.2 179.1 187.1 193.6 197.5 201.4 204.7 207.1 207.6 206.6 211.4 208.2 196.5 192 192.2 196.4 201 206.7 209.8 209.7 204.6 196.4 190.1 181 169.4 153.9 149.2 148.2 148.9 149.9 150.9 150.7 150.7 150 150.7 151 151.2 151.8 149 153 151.6 152.6 152.7 152 151.6 152.3 152.5 152.3 153.2 154.2 155.7 155.3 155.2 156.2 156.3 155.3 155.3 155 154.8 156.4 156.8 161.7 175.8 181.2 182.9 183.5 184.3 185.9 186.4 186.1 187.4 187.7 188.3 188.3 190.4 190.5 193.1 195.1 196.3 197.1 197.7 197.9 199 197.9 199.3 202.8 203.5 204.5 206.9 207.7 209.8 210.7 211.8 212.7 213.9 215 218.7 224.8 230.2 236.7 239.3 238.3 236.8 235.3
262.8 257.4 253 253.2 256.5 254 247.2 254.7 254.1 257.6 261.7 267.1 278.2 280.9 280.5 282.8 285.2 287.7 289.9 292.5 294.6 297 300 303.6 305.8 307.6 309.4 311.8 314.6 316.2 316.7 316 314.6 312.1 308.7 304.1 296.7 291.4 286.6 280 274.7 270.7 267.6 265.5 263.4 261.3 259.3 254.7 249.5 245.1 238.2 226.5 220.8 214.8 208.3 203.3 200.4 196.7 194.2 190.7 188.7 184.6 182.6 181.6 179.2 178.4 174.4 170.9 170.2 169.1 167.2 164.9 162.6 161 160.3 161.5 164.8 166.3 167.2 168.8 170.7 172.8 176.7 183.1 189.6 191.5 192.6 183.9 172.9 164.2 159.7 158.8 159.6 158.7 159.4 163.3 176.1 185.4 192.3 195.3 199.4 203 206.3 208.6 209.9 208.4 211.1 210.6 203.7 196.1 195.5 196.8 202.4 207.8 211.9 211.5 204.6 196.3 189.3 180.2 170.2 155.2 149.4 149.8 149.8 150.4 150.6 150.8 149.6 149 149.5 150.6 151.8 151.7 150.6 151.3 154.2 154 153.2 152.3 151.9 152.1 152.1 152.5 152.2 152.6 153.3 153.7 153.9 154.3 154.2 155.6 154.9 154.9 155.2 156.6 159.1 167.6 178.7 177.9 178.6 181.2 183.1 184.1 184.5 182.5 184.6 184.5 184.7 188 190.5 191.4 193.4 194.4 195.6 196.6 197.1 197.5 197.6 198.6 198.2 200.6 202.1 203.5 205.2 207.4 210.1 211.7 211.9 212.7 213.9 216.2 221 225.2 233.3 238.5 241.4 240.5 239.4 238.3
261.2 254.9 252.6 252.8 252.4 250.8 248.2 253.5 251.6 256 261.1 265.9 276.2 278.1 279.9 282.8 285.5 286.9 289.8 293.2 295.2 296.3 299.2 302.1 304.7 306.7 308.6 311 314.4 315.6 315.7 313.5 313.3 310.7 307 303.5 295.6 289.6 284.3 278.8 273.5 270.5 267.9 265.3 263 261.2 259.3 255 248.8 243.7 237.2 227.5 219.6 213.4 207.9 203.5 198.7 196.6 195.4 191.9 189.3 186.5 183.1 181.6 178.7 177.2 173.4 172.5 172.3 170.7 168.1 165.8 164.6 162.5 161.4 161.1 163 165.8 166.2 167.9 169.8 172.1 174.2 179.6 186.6 187.2 187 184.1 173.9 165.4 158.6 158 157.9 158.9 160.9 166.5 180.6 189.3 193.9 196.8 200.4 204.1 207.6 209.8 211.2 210.1 210.7 212.1 212.2 201 200.5 199 203.2 209.6 213.4 212.7 205.2 198.3 190.2 180.4 170.3 153.1 149.3 149.9 150.2 150.5 148.5 152.5 159.8 162.7 161.8 158.2 154.3 151.7 151.3 151.8 151.7 156 153.7 152.1 152.1 152 152 152.6 152.2 153.4 153.4 153.3 153.1 154 155.5 155.8 154.6 155.6 156.5 156.6 156.5 161.1 166 165 166.2 169.3 173.7 174.7 176.4 175.8 175.4 178.6 183.1 187.7 190.2 191.7 192.7 193.8 194.8 195.7 196.6 196.4 196.3 197.4 197.5 198.8 201.4 204.4 205.6 207.5 210 212.5 213 213.9 214.9 217 221.8 228.5 234.9 240.9 243.5 242.5 242.5 240.3
257 251.3 250.6 252.1 251.9 245.1 249.1 251 251.6 255.4 260.1 265.2 275.1 276.1 278.5 282.1 284.6 286.6 289.5 292.8 294.9 296.4 299.5 301.7 303.5 305.5 308 310.9 312.7 314.2 313.5 312.7 311.5 308.7 305.6 302 295.4 288.1 283 278.1 273 270.1 266.8 264.1 261.6 260 258.3 254.8 248.4 241.7 236 228.6 218.5 213.5 209.6 204.1 199.6 197.7 196.4 194.3 190.3 187.5 183.8 181.4 178.4 177.1 176.2 175.2 173.2 171 169.2 167.2 164.6 163.5 160.4 159.3 160.5 165.3 165.1 167.5 169.3 171.6 172 176.3 183 184 182.4 181.3 174.1 164.9 157.9 157.4 157.4 157.8 160.6 169.9 185.9 192.4 195.6 198.3 200.7 203.6 208.5 210.6 211.9 211.6 211.8 212.5 213.4 208.8 203.4 201.4 206 210.8 215.2 213.8 204.9 199.4 192.9 180.9 169 153.1 149.4 149.9 150.2 150.5 149.1 152.4 159.5 171.9 173.3 170.4 160 154 153.5 153.3 156.3 156.8 157.3 152.3 152.2 154.8 160.1 168 158.4 153.3 153.3 153.4 153.5 153.6 153.3 153.5 155.1 155 153.9 156 157.5 156.8 158.2 158.5 159.4 160.8 162.5 164 167.8 170.4 172.6 176.9 182.9 187.1 189.9 190.3 191.3 192.3 192.5 193.8 195.3 193.9 192.5 193.9 197.8 199.1 201.8 203.5 206.5 207.9 210.7 212.5 214.3 215.7 216 218.5 225.2 230.4 236.4 241.9 243.3 242.6 243.2 242
254.4 248.9 247.5 248.1 248.7 243.2 247.7 246.2 251.9 255.3 259 263.9 270.1 274.4 278.3 280 284.2 287.9 290.5 292 294.4 296.3 298.7 301 303.2 304.6 307.6 309.3 311.2 312 312.3 311.8 308.9 306.2 303 298.9 294 288.5 282.9 277.8 272.7 269.2 265.8 262.6 259.9 257.8 255.2 251.3 245.9 238.5 232.9 226.4 218.7 213.6 210.5 206.6 202.2 199.9 198 195 192 188.7 185.2 182 180.5 179.4 178.4 177 175.1 172.6 172.6 168.5 164.6 162.9 161 159.7 160.6 162.6 163.1 165 166.7 169.5 169.9 172.4 178.2 180.1 178.7 174.1 168.9 162.8 158.5 157.6 158.2 158.8 161.5 171.6 188.2 193.5 196.2 198.5 200.9 203.8 208.4 210.9 212.3 212.6 213 213.6 215.2 212.2 207.8 205 207.6 212.2 216.8 216.3 206.9 201.4 195.8 181.3 169.7 156.2 149.4 149.3 150.1 149.8 150.1 152.6 159.5 177 177.5 173.9 166.1 160.7 160.2 163.4 163.1 166.2 162.4 157.2 152.4 152.3 158.1 173.5 176.9 165.6 156.8 154 153.5 154.8 154.2 154.4 154.6 154.6 155.2 156.2 156.9 158 157.6 159.5 159.9 161 161.6 162.2 163.6 166.9 170 176.2 180.7 184.8 187.7 189.1 189.5 189.5 189.6 192.1 192.5 192.3 191.5 195.8 197.5 200.1 202.3 204.7 205.9 208.4 210.2 212.5 214.6 215.6 217.1 221.4 226.5 230.9 236.6 241.5 244.6 242.8 243.1 242.4
257 245.9 243.9 245.8 247.9 242.1 243.5 246.3 250.7 255.2 258.6 262.2 271.7 276.5 278.7 281.4 283.6 288 289.7 291.5 293 295.5 297.9 300.2 302.4 304.6 306.2 307.8 309.1 309.1 309.6 309.3 306.4 303.6 300.3 294.9 290.8 286.7 282.4 277.8 272.7 269 265.2 262.2 259.1 256.1 251.5 247 240.7 233.8 229 224.3 217.6 212.5 210.2 206.5 202.7 200.7 197.2 194 191.4 187.5 185.4 184.2 183 181.8 180.4 179 176 175 176.9 173.9 167.2 164 162.3 160.4 159.2 159.4 160.4 162 164.6 167.3 168.5 169.5 173.7 176.1 173.2 169.1 163.7 160.5 158.5 158.7 159 159.9 161.8 175.6 187.8 191.9 194.4 197.4 201 204 207.9 210.9 212.6 213.1 213.6 214.2 215.7 214.9 211.2 208.6 209.6 213.7 217.9 216.8 208.4 202.1 194.3 180 167.3 154.1 149.2 149.2 148.5 149.3 149.8 152.6 160.2 177.9 179.8 180.3 176.1 167.4 166.3 172.9 165.6 176.3 171 164.6 157.5 151.9 156.4 170.3 177.2 169.7 166.4 162.3 158.6 157.9 159.1 163.3 165 166.9 165.6 163.1 162.4 158.9 160.3 165.1 172.2 171 167.5 167.1 167 165.6 167.4 170.5 173.6 177.8 182.4 185.7 186.3 185.6 185.2 186.9 190.2 190.2 190.6 190.3 194.5 198 200.8 202.5 204 207.2 210.7 212.5 213.7 215.8 218.3 222.2 227.3 231.7 235.6 240.1 243 245.2 245 243.5
258.7 246.1 240.6 243.4 240.7 241.5 244.1 247.7 250.2 255.4 259.1 262.4 271.2 276.9 278.1 280.4 283.1 286.5 289.1 290.6 292 294.4 297.1 299.5 301.6 303.6 305.1 305.4 306 306.7 307.4 307.4 303.9 301.1 297.3 292.2 289.2 284.9 282.4 277.1 272.6 268.5 264.6 261.8 259 256.2 252.8 247.1 239.6 232.7 225.8 220 216.1 212.6 209.8 205.1 202.5 199.9 197.3 195.1 191.7 189.7 187.8 186.1 184.8 183.6 181.5 179.8 177.9 179.2 179.9 176 171.9 166 163.9 162.3 158.7 157.4 158.3 159.8 163.4 166.6 167.4 168 169.8 171.7 168.6 165.3 160.6 157.9 158.4 158.6 159.3 160.7 162.8 170.5 183 188.1 192.3 196.8 201 204.8 208.8 210.9 213.8 214.2 214.6 214.8 215.8 216.9 214.4 211.3 212.4 215.4 218.2 218.5 207.7 200.6 191.1 175.6 161.8 152.3 149.2 149.5 149.2 149.7 149.7 152.3 161.8 177.2 183.4 184.3 181.7 177.2 179.3 181.5 180.1 175.9 168.1 159.9 158.1 153.7 153.8 162.3 175 177.8 177.4 177.8 173.2 176.4 175.3 180.5 183.9 184.2 183.4 181.5 168.3 163.8 161.2 166.9 176 180.9 180 175.4 172.1 170.5 168.8 169.8 173.5 174.9 172.6 176.9 180.4 180.8 180.2 181.8 189 191.2 191.2 191.9 192.3 197.4 200.6 203.4 206.7 208.3 210.3 212 215.3 216.6 218.7 223.6 227.6 230.6 236 239.7 243 245.5 246.2 246.3
257.7 243.6 240.3 241 238.9 242.6 244 246.1 250.5 255.6 258 261.3 269.3 276.3 277 278.5 281.5 285.3 287.1 288.9 290.7 293.3 296 298.7 300.7 302.6 303.2 303.9 304.6 305.2 305.9 305.9 302.4 298.3 294 290.6 288.3 285.7 282 278.4 272.5 268.1 264.2 260.8 258.6 256.1 253.3 248.1 241.4 235.2 228.8 222.6 216.9 212.4 209.8 205.3 203.2 201.4 198.8 196 194.3 193.1 190.3 187.6 186.4 185.3 183.1 182.4 180.6 181.5 181.8 178.6 174.6 167.7 164.2 161.6 160.6 159.2 157 158.2 161.1 164.7 165.9 166.2 167.5 167.9 165.5 162.2 158.9 157.2 157.9 157.8 159.3 160.9 163.5 167.5 180.1 188.2 192.8 196.7 200.8 205.3 209.8 212.2 215 215.5 215.6 215.4 216.3 217.4 216 213.9 214.2 216.6 218.8 218.9 207 197.4 187.7 171.8 159.7 150.5 148.6 148.5 148.8 149.3 149.4 154.6 163.8 176.5 185.3 186.3 185.9 186.7 185.7 184.6 182.2 171.2 172.1 163.5 165.5 155.9 154.3 157 164.7 172.6 179.7 180.6 182.6 181.9 182.5 181.7 183.4 183.1 182.3 182.7 180.6 171.5 166.5 164.6 171.6 183 186.1 181.2 181.2 179.8 176.2 176.7 182.1 184.5 183.1 182.5 181.3 179.6 184.7 188.9 191.5 193 193.7 196.2 195.8 197.3 201.5 204.4 206.1 208.3 209.9 212.9 216.3 217.5 220.2 225.5 229.5 232.9 241 242.3 243.8 246.1 247.4 247.6
257.5 242.8 238.7 235.1 240.9 240.8 241.9 245.3 250.5 255.4 256.9 260 268.8 275.1 274.9 277.3 280.3 283.7 285.2 287.1 289.9 292.7 295.4 297.9 299.8 301 301.7 302.4 303.1 303.7 304.4 304.6 301.7 296.6 292.9 290 288.2 286.1 282.4 278.1 272.6 268.8 264.9 261.2 258.1 255.9 253.4 249.7 243.7 237.8 231 223.8 216.7 212.7 208.6 205.6 203.3 201.8 199.9 196.9 195.2 194.1 192.7 189.2 187.9 186.6 185 183.9 182.9 183.8 182.8 180.8 176.2 169.5 165.6 163.2 161.3 159.6 157.3 157.2 158 160.4 162 163.8 164.2 164.5 163.2 160.2 157.3 156.7 157.3 158.1 159.4 160.3 163.4 167.8 176.9 186.7 188.6 190.4 197.2 204 208.8 213.6 215.7 216.4 216.3 216.1 216.8 217.9 217.6 215.4 215.7 217.3 219.8 218 207.8 195.2 185 173.2 158.6 151.4 148.7 149 149.3 147 150.2 155.3 163.9 175.8 186.4 188.5 189 188.5 188.4 186.3 185.2 181.7 178 173.2 171.2 163.9 155.2 155 160.9 170.3 171.8 175.2 179.4 179.5 180.5 180.7 181 180.9 181.7 182.3 182.2 179.7 180.6 176.1 168.4 180.6 187.4 188 187.4 184.8 184.1 185.5 188.8 190.4 190.5 188.8 187.8 183.5 186.8 190 193.1 193.6 196.4 196.8 196.1 196.8 199.6 203.2 205.6 208.5 209.8 214.1 216.1 218.2 221.9 226.2 233.7 238.7 245 246.7 245 247.5 248.7 248.5
257.6 243.6 235.5 233.7 239.4 238.7 241.4 244.9 250 254.1 255.9 259.8 265.5 272.4 274.1 276.7 279.8 281.9 284.2 286.4 289.2 292 294.8 297 298.2 299.3 300.2 300.9 301.6 302.3 303.1 302.6 300.3 296.3 292.8 289.3 286.7 285.3 281.3 277.1 271.7 267.6 263.4 259.7 258.3 256.7 253.7 248.7 242.9 237.8 231.6 224.5 218.5 212.3 209.8 206.2 202.6 200.8 200.1 198.4 196.8 195.6 194.1 190.5 189.3 187.4 186.2 185.1 184.8 185.1 184.3 181.9 177.3 171.3 167.3 164.6 162.3 159.8 159.7 157.3 156.6 157.2 159.5 162.1 161 160.8 160.1 157.9 156.2 156.3 157.3 159.7 159.6 160.7 163.5 167.5 173.2 178.4 190.1 194.9 194.6 201.4 206.9 213.5 215.9 217.2 217 216.8 217.4 218.7 218.6 216.9 217.3 218.2 219.7 219.4 208.4 196.6 186.6 174.5 160.5 150.8 148.5 149 149.3 147.8 150.6 156.6 164.4 175.3 186.4 189.7 190.5 189.9 189.8 189.2 188.4 183.9 181 178.2 173.6 166.4 159 156.5 158.1 161.8 163.3 165.7 171.1 174.2 178 178.2 178.9 179.5 180.4 181.4 182 181.6 182.1 182.8 182.3 173.5 184.5 190.4 192.5 193.2 194.1 196.9 194.4 193.8 192.8 189.7 187.8 185.5 187.6 190 192.8 194.6 196.8 198.2 198.5 198.4 199.7 203.8 206.8 207.6 209.5 212.7 213.4 218.8 222.2 226.7 234.6 240.2 246.2 248.4 247.9 248.8 250.4 251.2
256.6 243.7 232.3 235.7 237.1 237.6 240.2 243.1 249 253.3 254.7 259.5 265.7 270.8 273.4 275.5 278.3 281.4 284.6 286.5 288.5 291.3 294.1 295.3 296.2 297.4 298.5 299.3 300.2 300.9 301.3 301 299.4 295.4 291.5 287.9 285 283.3 280.9 276.5 270.9 266.3 261.9 259.7 257.9 255.9 251.4 246.6 241.8 236.9 231.5 224.4 217.6 212.7 209.8 206.8 202.8 200.3 198.7 199.2 198.2 196.7 194.3 192.8 191 188.2 187.4 186.9 186.7 186.5 186.2 185.1 180.7 175.2 169.7 165.4 162.8 159.9 158.9 156.9 157.1 155.6 158.8 160.1 158.6 157.2 157.4 156.2 156.3 157.3 157.6 159.4 160.3 161.4 164.1 167.4 170.1 178.5 190.6 196.9 199.7 201.7 204.1 209 214.1 216.7 217.2 217.5 217.9 220.3 220.5 220 219.5 219.8 220.9 221.1 210.8 197.7 186.1 174.7 158.4 150.1 148.5 148.8 149 147.9 153.3 158.2 168.4 178.8 188 190.7 191.1 191.3 190.8 189.9 189.2 186.6 182.6 178.3 171.8 166.6 160.9 158.1 159.1 157.5 160.3 162.3 164.2 165.8 169.6 171.8 173.4 175.6 179.3 180.6 181.5 182.2 182.7 183.3 184.1 184.8 182.5 189.5 190.4 192.9 197.9 198.1 197 194.1 193.1 192.9 189.8 187.6 189 193 195.3 196.2 197.2 198.8 199.3 199.9 201.5 203 206 206.9 209.3 211 214.4 219.1 222.7 228.9 236.2 240.6 246 247.6 250.4 250.8 252.2 252.7
254.7 244.9 230.6 236.1 237.4 236.8 239.9 242.4 247.4 251.3 253 257 264.6 269.5 272.2 276.5 278.9 281.8 284.8 286.3 288.2 290.5 292.7 293.1 294.3 295.6 296.4 296.6 297.9 299 299.7 299.5 297.8 294.1 290 286.4 282.9 281.1 279.4 276 269.9 265.3 260.8 258.6 256.6 254.5 250.3 244.1 240.1 234.2 230.5 224.4 218.1 212.7 209.4 206.4 202.9 200.3 197.9 197.7 199.1 196.7 194.4 192.2 190.9 188.3 187.7 187.6 187.4 187.7 188.3 187 183.1 178.1 171.7 167.3 163 160 158.5 157.2 155.3 155.6 156.8 158.1 157.4 155.3 155.2 155.2 156.1 157 157.9 159.9 163.9 163.2 169.1 178.4 178.5 176.7 188.8 196.2 200.9 204.9 208.3 210.1 214 215.9 216.8 217.3 218.7 220.9 222.5 222 221.5 220.8 221.4 221.6 213 196.7 184.1 173.5 155 150.2 148.6 148.6 148.7 148 153.5 160.5 171.4 182.3 189 191.6 192.3 192.8 191.6 190.6 190.1 187.1 184 182 178.1 172 162.5 159.1 163 163.4 161.5 165.1 167.1 167.7 169.3 169.3 171.2 174.6 179.3 179.2 180.4 180.9 181.5 182.1 184.1 185.3 187.4 187.4 188.4 193.8 194 196.3 197 197.3 195.2 194.3 191.4 188.8 191.2 193.8 196.5 198 198.4 200.4 200.1 201.4 203.6 205.4 205.9 207.9 209.3 211.2 214.7 220.3 222.4 230.5 235.4 237.5 243.9 249.5 252.2 253 253.8 253.4
252.2 245.4 231.7 236.1 236.3 235 238.1 241.1 245.7 248.1 252.9 257.1 264.2 269.3 272.9 275.9 278.5 281.5 284.4 285.4 288.4 290.3 291.8 291.8 292.7 293.9 293.6 293.8 295.3 296.7 298.1 298.1 295.8 292.7 288.7 285.4 281.5 279.6 277.4 274.7 270 265.8 261.3 256.8 254.8 252.9 249.5 243.1 237.9 232.7 227.8 222.5 217.8 214.1 208.2 205.3 202.4 199.4 196.3 195.1 194.4 194.4 192.9 191.5 188.7 188.4 187 187.2 187.8 189 190 188.7 185.3 179.4 172.8 168.2 163.6 160.6 158.6 157.5 155.1 155.4 155.1 154.7 155.4 153.7 154.8 155.1 156.6 157.2 158.5 164 168.6 171.1 179.8 192.8 193.4 181.4 183.5 193.4 199.6 205.5 208.9 211.8 213.9 214.8 216.5 217.4 220.3 221.6 222.8 223.5 222.3 222 221.3 220.9 213 196 182.9 170 154.9 150.1 148.2 147.4 148.7 148.4 154.1 163.1 174 183.2 189.6 191.9 194 194.5 193.5 192.4 190.1 187.3 185.3 182.2 179.7 173.4 161.5 161.9 169.4 168.9 167.6 169.2 171.9 172.4 173.6 173.9 173.9 174 177.4 178.8 179.8 180.2 181.4 183.5 184.2 184.9 186.2 187.8 189.1 189.8 192.4 193.9 195.5 195 194.4 193.1 191 190.1 191.6 194 195.1 197.9 199.5 200.3 200.7 201.6 203.7 206.4 208.6 208.9 212.2 212 215.2 220.6 223.2 232.8 235.7 237 241.8 250.9 254.1 253.7 254.9 254.7
248.1 244.8 231.7 235.5 234.2 233.2 236.7 239.9 242.8 248.1 251.4 255.3 261.2 268.5 272.6 275.9 278.2 280.7 283.1 285.6 288.2 289.4 290.4 290.6 291.6 292.1 290.4 290.7 291.9 293 295.3 296.1 295.1 292.5 288.5 284.2 280.4 277.4 277 273.7 269.3 264.8 260 256 253.2 251.9 248.6 241.6 235.3 229.9 225.9 220.8 216.2 212.3 207.3 203.9 201.1 198.3 195.1 193.4 192.3 191.1 190.2 190 188 186 185.9 186.4 187.4 189.9 191.1 191.9 188 182.4 176.9 170.7 165.6 161.2 158.6 157.6 156.5 155.2 154.6 154.3 155.4 154.7 156.8 156.1 156.1 157.8 160.5 167.7 171.3 175.2 187.9 200.2 202.8 198 183.6 190.2 201.8 206.2 209 211.5 212.2 212.1 213.5 217 220 222.2 223.8 224.2 223.4 222.1 221.1 219.6 214.6 196.5 182.8 171.1 155 148.3 147.9 148.1 147.5 149 155.4 163.8 173.8 182.2 189.7 191.9 193.9 194.9 193.9 192.7 190.4 189.2 186.3 183.3 179.6 172 161.9 167.1 175 176.5 178.9 177.4 178.2 178.2 176.2 178.6 177.1 177.7 177.7 178.2 178.6 180.2 181 181.8 182.5 184.3 185.1 186 188.4 189 187.8 192.2 193.4 193.1 192.2 191.2 190.3 189.9 192.2 194 195.4 197 200.4 201.2 200.7 202.4 204.3 207.4 208.9 210 214.5 215.3 215.9 223.9 225.5 231.7 235.6 236.7 243.4 250.4 254.4 255.3 256 256.1
247 244.1 234.6 230.4 233.5 231.7 234.6 236.6 241.4 247.2 249.6 251.9 258.3 269 272.6 275.9 278.4 281.2 283.6 286.1 287 287.9 288.9 289.5 290.2 290 289.2 286.3 287.8 289.8 292.4 294.2 293.5 291.7 288.3 283.3 279.8 275.1 274 271.8 267.8 263.6 258.7 254.1 251.5 250.1 247.4 240.5 235 229 225.3 219.2 214.4 209.9 206.2 202.7 199.8 197.2 193.9 191.7 192.1 191.3 189.2 187.2 186.2 184 183.4 185.2 186.2 189 190.9 192.9 192.2 188 181.7 176.5 169.8 162.9 159.7 158.3 155.8 153.4 154.4 154.2 153.9 155.8 157.1 157.2 157.3 158.8 164.9 169.1 172.8 177.5 193.8 206.2 207.6 204.6 196.2 189.5 200.6 207.1 208.9 210.4 210 210.1 212.4 215.6 219.8 222.9 224.1 223.5 223 222.1 220.1 218 215.2 199.1 187.1 173.3 156 148.3 146.1 148.4 148.7 148.8 154.8 162 171.8 181.1 188.7 192 193.7 193.8 191.8 192.2 191.5 190.3 188.4 183.9 178 171 163.8 170.8 176.5 177.8 180 180.5 182.2 182.4 180.2 179.1 177.6 178.7 179 179.2 179.7 180.3 180.2 180.9 181.3 183.9 184.7 184.3 186.3 187.5 184.2 188.8 189.5 189.5 188.6 189.3 188.3 190.9 192.7 193.6 196.5 197.5 199.3 198.8 199.5 201.8 205 208.6 209.5 212.5 213.1 215.5 217.8 222.8 225.4 230.9 238.1 241.7 245 250 253.9 256.7 258.1 258.8
244.9 245.7 236.3 228.2 234.6 232.2 232.4 236 243.3 246.3 248.1 249.5 257.8 269.3 272.5 275.6 278.6 281.7 284.1 286.1 287.1 286.9 287.5 288.2 287.8 287.2 286.3 282.8 284.6 286.9 289.5 291.6 291.7 290.1 287.6 283.7 280.3 276.6 271.9 268.3 264.6 261.1 257.3 252.6 249.7 248.5 246.1 240.3 234.7 228.9 223 218.3 212.7 209 205.7 202.4 201.2 197.4 194.5 191.5 190 191.6 188.5 186.8 185.5 183.7 182.1 182.7 184.4 187.3 189.7 192.9 192.2 189.1 183 178.3 174.3 166.1 160.6 158.9 156.8 154 153.9 152.6 153.2 153.9 154.5 156.8 157.8 162.6 167 170.3 174.2 181.2 199.4 210.9 212.5 211.2 202.7 188.3 200.3 207.3 209.1 209 208.8 209.7 212.3 214.6 219.1 222.1 223.7 223.2 222.4 222 220.3 218.3 215.4 202 190.8 176.8 158.2 148.6 147.8 148.2 147.6 149 153.2 161.7 168.8 179.8 188.1 191.9 193 192.6 189.3 188.3 187.7 186.9 187.2 183.8 179.7 170.8 165.9 169.8 175.8 176 178.5 182.5 182.4 182 181.5 181.3 181.6 180.5 180.2 180 181.4 179 178.1 177.1 178.9 181.2 183.2 182 184.7 186.2 182.6 182.2 184.3 185.3 186.5 189.1 189.9 192.9 195.7 196.2 198.6 199.3 197 197.8 200.6 202.5 203.6 207.5 208.7 210.8 214.5 215.1 218.9 224 225.2 232.2 238.4 241.9 244.7 247.8 252.3 255.8 258.3 259
241.7 244.1 238 222.8 234.7 232.8 228.7 236.9 242.7 245.1 246.6 248 258 267.2 271.1 275 278.8 282.2 284.2 285.8 287.1 287.4 286.6 285.2 284.9 284.6 283.7 281.8 280.3 283.7 286.3 288.8 289.9 288.2 286.4 282.6 278.9 275.2 271.5 267.2 263 258.3 254.4 250.7 247 244.8 243.4 238.3 232.8 227.3 221.1 216.9 212.4 208.8 205.2 204.3 201 197.3 193.8 191.2 188.9 188.6 186.7 186.8 184.9 182.4 181.6 181.6 184.4 187.1 189 191.1 192.1 189.1 184.4 179.5 174.3 167.5 161 158.5 156.2 153.3 153.4 153.5 152.9 152.5 153.2 156.1 160 164.7 168.5 171.5 176.1 185.5 201.6 213.7 216.8 213.6 206 193.4 199.8 203.1 203.6 209.4 210.8 211.9 211.1 214 216.4 218.8 222.8 223.6 222.8 220.9 219.1 217.4 215.7 206.8 191.9 180.3 160.6 149.3 147.6 148 146.8 149 152.6 160.6 166.8 176.1 186.2 191.6 192.2 191.3 188.3 184.1 183 179.3 176.4 174.4 172.2 169.8 168 169.2 170.6 174 176.8 179.7 181.2 182.4 183.5 182.8 182.2 182.6 182.7 180.9 180.5 179.6 178.1 172.8 174.3 180.6 178.7 179.9 179.6 179.6 178.2 179.8 186.4 191.3 191.6 192.4 192.9 193.9 196.7 197.8 198.7 197.5 196.9 192.1 192.4 195.2 199.4 206 210.6 211.4 214.4 215.1 219.6 223.4 226.6 232.8 236.5 241.7 244.8 247.6 250.3 253.9 258.1 259
238.4 240.7 238.8 229 233.4 232.7 226.7 236.3 240.8 243 245 246.5 256.9 266.2 270.9 275 278.8 281.9 283.2 284.8 286.2 286.5 285.2 283.7 283.3 282.5 281.6 279.9 275.6 279.3 282.9 285.3 287.7 287 285.4 282.2 277.5 273.7 271.2 267.9 264.1 259.2 255.5 250.2 243.6 240.9 238.7 233.4 227.9 223.5 219.4 215.2 211.7 208.2 205.8 203.4 200.1 196.2 194.6 192.8 188.5 186.5 185 183.5 181.8 181 179.6 180 182.6 186.2 189.1 191.9 192.6 189.7 184 178.9 172 167.8 161 157.4 153.8 152.8 153 153.1 155.5 154.3 154.9 158 162.8 166.5 169.4 172.3 177.5 184.7 200.4 215 218 214.9 207.9 200.5 194 193 198.6 206.2 211.6 213 213.5 213.8 215.8 218.2 222.8 224.6 223.1 220.7 218.2 216.4 214.7 213.1 196.8 185.9 165.8 152.1 147.2 147.6 148 148.1 149.7 159.2 165.4 173.3 184.5 190.1 191.5 190.8 189.8 188.1 185.6 183.4 181.8 179.6 173 174.4 172.1 173 176.1 177.5 179.4 178.1 179 181.5 183.6 184 182.8 183.4 181.8 180.1 181.9 180.6 177.4 172.8 169.5 174.1 175.5 174.1 175.3 175.6 178.5 185 187.3 191 195 195 195.8 196.9 197.6 198.5 196 189.7 187.5 187.9 185.9 188.9 193.5 197.6 205.9 211.5 214.6 215.9 221.2 223.9 228.9 230.4 236.5 239.8 243.4 246.4 249.6 252.9 257.8 261.2
236.2 237.7 236.5 234.2 229.1 230.8 226 230.4 237.6 242.1 244.5 246 254.9 263 270.3 275 278.8 281.2 283.6 283.9 285.4 284.7 283.4 282.1 281.1 280.2 279.3 277.2 272.3 275.4 279.3 282.8 285.5 284.8 284.2 282.1 277.1 272.8 270.6 267.8 263.7 259.6 256.4 251.6 244.9 242.2 238.5 234.7 230.5 226.5 223.1 219.6 212.6 208.8 205.7 204.6 200.6 195.5 195 192.2 187 182.2 185.8 185.2 183.5 179.6 178.2 178.7 181 184.6 187.7 190.3 191.8 190.3 184.7 178.1 171.2 165.9 162.8 159.9 153.6 152.4 153 152.4 156.1 154.7 155.6 160.4 163.9 167.1 170.3 173.3 178.4 184.4 198.8 216.4 220 215.5 210 204.4 203.3 203.4 197 203.1 209.6 213.4 213.8 214.2 216 218.4 221.9 224.3 223 220.6 217.4 215.4 215 215 204.6 189.8 171.7 153.5 147.7 147.4 147.6 148.1 148.3 154.4 163.9 172 183.1 189.3 192.4 192.8 191.8 190.6 189.2 188.6 185.9 177.6 176.5 180.6 175.7 178.5 180.6 179.3 179.8 180.6 180.1 181 181.4 182.1 183.5 179.7 177.3 178.4 178.2 175.8 171.9 167.2 168.2 169.6 172.3 172.9 173.2 176.3 179.1 183.6 186.7 191 196.3 198.6 198.3 199.3 198.8 197 187 179 185.6 193.7 195.1 197.7 204.8 206 207.4 211.8 214.6 219.2 222.1 224.1 229.3 233.1 237.3 241.2 244.4 247 250.3 253.7 257.5 261.7
235.4 234.8 236.2 233.2 222.6 228.7 223.3 232.1 236.6 242.3 243.5 245.5 252.5 261.5 268.4 273.7 278.2 280.5 282.9 285.2 284.5 282.7 281.2 279.7 278.9 278.2 277.2 276 271.7 271.9 274.9 278.7 281.9 283.2 282.2 280.5 277.3 274.1 270.9 267.4 263.3 260.1 257 253 248.8 245.2 244.5 241 236.8 231.7 227.9 223.5 217.3 211.9 208.3 206.4 203.8 199.2 196.7 192.9 191.1 186.5 180.2 184.6 182.9 178.9 175.9 177.3 179.2 182.6 186.3 189.4 190.7 190 185.2 179.7 170.8 165.1 160.7 156.4 152.7 152.1 152.5 153 154.5 156 157.9 161.3 164.5 166.8 169.8 173.1 177.4 183.3 193.7 217.6 221.4 216.6 212.4 209.6 208.7 207.4 204.8 207.1 210.4 213.8 215.1 215.5 216.9 218.6 221.8 224.5 223.3 220.9 217.1 214 214.9 214.9 208.8 193.2 175.2 156.1 149 147.1 147.3 146.7 147.9 151.5 159.8 169.7 181.1 188.2 191.1 193.2 192.8 191.5 190.5 189.1 181.9 178.9 183.5 183.2 178.8 181.6 183 183 183.2 183.2 182.7 181.7 176.7 174.9 173.1 163.9 173.2 171.8 171.7 168.3 164.7 166.8 170.4 173.1 172.2 178.6 181.6 180.3 180.6 182.9 186.9 190.8 194.3 197.4 198.1 198 196.5 189.7 177.4 181.9 193.4 199.3 202.4 198.8 204.8 209 211.4 212.6 215.8 218.8 223.2 224 229.7 233.9 239.2 243.4 245.2 248.2 251 254.9 259.6 262.2
233.5 230.2 235.7 231.5 226.9 221.3 226.3 230.4 236 240.7 242.3 245.2 251.1 260.4 266.2 273.5 277.8 281.9 284.1 285.8 283.6 281.3 278.9 277.4 276.6 275.9 275.4 273.1 271.6 266.8 270.6 274.7 277.8 279.9 280.1 279.6 277.3 274.2 271 267.9 263.6 260.4 258 255.3 251.8 249.2 247.8 244.9 240.4 235.3 230.4 224.9 217.5 213.2 209.1 206.9 205.1 203.4 199.9 197 194.2 190 183.9 178 177.7 175.9 173.9 174.9 177.3 181.7 185 188 188.9 189.5 185.5 179.6 171.9 165.2 160.9 154.9 152.5 151.9 152.8 152.5 153.7 156.4 160.1 162.5 165.6 167.5 169.5 172.6 176 181.9 190.8 212.7 220.9 218.2 214.3 211.4 209.4 209.2 208.9 211.4 213.1 214.4 215.6 216.7 217.9 218.9 222 224.4 223.8 221.5 217.6 211.9 208.7 210 207.8 194.2 175.3 156.9 151 147.7 147.7 148.5 147.7 149.2 155.1 165.3 175.9 186.2 191.4 193.6 193.3 191.5 190.3 187.8 183.5 184.1 188.6 185.1 184.2 184.5 184.8 185.1 184.6 184.5 183.7 177.8 172.3 168.9 166.5 163.7 158.1 167.3 165.9 164.2 163.3 168.7 172.4 172.6 173.7 177.7 183 183.8 181.6 184.3 186.3 187.9 189.2 195.8 195.9 190.8 191 180.8 172.8 184.5 196.4 206.5 207.4 206.9 205.4 207.6 211.9 215.4 217.5 220 222.8 225.6 229.1 234.3 239.3 243.6 246.9 249.9 252.6 256.6 261.4 265.2
231.8 229.2 233.2 230.4 224.9 218.6 225.2 229.2 234.9 240.3 242.4 245.6 250.2 258.8 267.2 274.2 278.1 281.8 285.3 286.2 283.5 280.5 277.7 275.4 274.1 273.5 272.9 272 270.7 265.5 265.5 269.8 274.3 276.6 276.9 277.2 277.2 274 270.8 268.3 265.2 262.1 259.9 257.3 254.1 250.7 250.4 247.1 242.8 238.1 232.8 224.2 217.7 213.4 209 205.9 203.9 202.8 200 196.9 193.7 190.3 186.6 181 176.9 173.2 171.6 173.7 175.3 179.4 183.9 186.4 187.2 187 184.2 179.3 171.5 165.5 160.6 154.9 155 155.6 153.2 152.3 154 158.2 161 163.7 166.4 168.3 170.2 172.6 175.6 180.8 187.2 205 218 218 215.1 212.4 210.2 210.7 209.4 211.1 212.5 214.6 215.8 217 218 219.7 222.8 224.4 224.3 222.3 218.8 215.5 208.1 203.3 198.5 185.1 167.8 160.9 153.3 147.8 147.3 147.7 147.9 148.3 153.2 161.6 170.8 181.8 191.8 194.3 194.1 190.5 188.4 187.4 188.8 189.1 192.1 188.4 187.6 187.4 187.1 186.5 186.2 185.7 184.4 184.2 181.7 179.2 174.6 170 163.8 158.3 160.7 160.8 162.1 166 168 166.9 171.2 178.6 182.1 182.3 181.6 181.3 183.2 186.4 186.3 187 191.2 184 178.9 174.1 171.8 185.1 197.2 205.7 209.1 210 210.3 211.7 211.5 214.5 218.2 221.7 224.5 227.1 229.3 233.4 238.9 244.9 248.8 251.3 254.4 257.6 263 267.2
231.2 229.4 229.3 227.9 223 216.8 222.9 228 233.4 238.8 241.8 244.9 249.9 256.8 267.8 274.7 278.3 281.8 284.8 285.8 283.3 280.3 277.2 274.5 272.6 270.7 270.5 270.1 268.9 264.7 260.4 265.3 269.9 272.8 273.6 274.1 274.8 273.8 270.5 267.9 265.6 262.2 260.6 258 254.5 250.6 251.3 248.2 243.6 236.2 234.6 224.8 217.5 213 208 205.6 203.1 200.7 197.8 194.7 189.7 185.5 183.9 182.2 179.6 175.1 171.2 171.1 174.9 177.8 183.6 184.1 184.7 183.8 180.9 177.1 169.7 164.2 159.1 154.4 154.4 155.6 152.1 152 155.1 160.2 162.9 164.9 167.2 169.1 171 172.9 175.7 180.9 186.9 200.5 215.6 219.4 216.1 213.3 211.7 211.3 210.6 211.1 212 213.8 215.3 216.7 218 221.5 224.1 225.1 225 223.2 219.9 216.8 212.2 206.5 196.7 187.8 183.7 172 159.9 151.7 147.3 148 147.6 148.2 153.9 162.2 168.4 178.9 190.5 195.4 196.6 194.4 191.5 190.9 194 193.7 194.1 192.1 190.6 190.2 187.7 187.6 187 183.9 182.4 184.7 184.2 184.5 182.9 177.1 168.9 158.9 158.8 158.7 160.5 163.3 162.8 165.8 171.4 176.3 178.4 176.6 176 178.2 179.8 184.4 183.8 179.7 183.5 174.9 166.7 172 179.7 181.6 187.9 199.9 208.6 211.1 212.9 212.9 216.4 216.5 219.1 222.2 225 227.5 229 230.1 236.5 245.8 249.1 252.1 254.7 258.8 266.5 266.5
230.1 225.5 226.1 223.9 221.2 214.8 223.4 226.4 232.3 236.9 241.2 245 249.9 256.3 266.8 274.8 278.3 281.3 284.3 285.3 282.8 279.7 276.6 274.3 272.2 269.4 267.3 267.3 265 261.9 256.8 261.7 265.6 268.7 269.3 270.6 271.5 273.2 270.2 267.4 264.8 262 259.3 255.3 252.4 249.6 250.7 248.6 243.3 238.2 234.8 224.9 217.9 211.1 207 204.6 200.5 198.9 194.1 189.4 184.5 182.8 179.8 179.6 177.8 174.4 169.3 169.6 173.5 176.3 181.4 182.8 182.3 179.8 176.4 174.6 169.5 165.2 156.2 153.9 153 152.3 151.6 152.1 155.8 160.4 162 163.2 167.6 169.8 171.8 173.7 177.2 181.3 187.3 200.7 216.1 220.5 217.8 214.5 213.1 211.9 210.9 211.5 212.2 214.1 215.5 217 220.1 223.4 224.9 225.5 225.3 223.6 221.1 217.6 214.1 209.1 197.1 206.4 205.8 190.8 172.4 158.8 149.9 146.6 147.2 147.8 152.2 158.9 164.7 174.7 184.6 194.4 198.2 197.6 196.9 196.2 197.6 198.1 196.1 194.5 192.8 191.8 189 188.7 185.7 179.8 176.6 177.6 181.7 183 179.8 172.3 162.5 159.9 157.3 155.7 156.3 158.3 161.6 166.6 168.6 169.9 170.9 170.1 170.8 174.8 178.3 182.7 184.7 179.7 174.2 167.9 166.2 175.2 183 194.8 200.2 202.5 207.3 211.3 213.4 216.3 217.3 219.3 221.4 223.7 226.1 230 230.2 232.6 233.9 243.8 247.3 251.1 253.5 257.7 263.8 265.1
228 222.8 222.3 220.9 217.7 213.3 223.7 228.1 232.1 236.1 240.4 245.5 250.1 255.7 264.3 273.1 278.4 281.3 283.9 284.1 281.5 279 276 273.5 271.2 268.6 266.3 263.1 259.4 257.5 253.5 258.2 260 262.9 265.3 265.6 267.4 269.4 268.8 266.1 263.6 261.2 257.9 252.6 248.5 245.6 247.6 247.2 243 238.4 234.2 224.8 216.6 210.7 206.5 203.5 200.2 196.3 192.3 188.6 184.4 181.3 178.4 176.9 175.8 174.1 168 167.6 170.9 174.6 178.5 175.8 177.9 175.8 171.7 172 171 166 155.6 153.3 153.9 152.2 150.4 151 155.6 159.4 161.3 163.3 166.3 169.6 172.6 175.5 181 184.1 189 203.9 217.1 221.9 221.2 217.7 215.1 213.5 212.5 212.2 212.8 215.2 216.9 219.3 222.5 224.2 225.5 225.6 225 222.5 220.2 217.2 212.2 203.7 204.5 213.6 213.5 208.1 187.7 167.1 156.7 149.4 147.3 147.4 149.5 155.5 166.1 170.9 177.2 187.8 199.6 199.9 199.8 200 200.7 200 197.9 195.9 194.8 193 189.6 185.4 181.4 176.3 170.9 170.3 173.9 179.4 180.3 167.9 162.8 161.2 156.4 154.3 153.4 156.1 159.8 162.1 165.2 163.9 164.9 167.4 172.1 176 181.5 182.7 187.4 181.9 175 167 168 172.9 183.1 196.1 204.4 205.7 208.5 210.7 214.5 216.7 218.7 220.9 222.9 225.1 225.6 230 231.7 234.7 239.2 243.1 246.1 249 252.8 256.8 260.3 260.2
227.1 219.1 216.9 216 210.7 217.4 222.3 227.7 232.8 236.6 240.4 245.7 250 255 261.7 271.7 278.1 280.6 282.6 283.7 280.8 277.7 275.8 272.5 270.7 269.3 267.1 262.4 257.3 252.6 248.8 253.4 255.9 258.2 261.3 261.5 262.4 264 263.8 263.9 262.1 259.4 253.3 248.8 243.3 241.5 243 244.2 241.7 238.3 232.4 223.2 217.5 210.6 206.8 203.8 200.7 196.7 193.4 190.1 186.1 183.4 178.6 176.7 174.3 174.1 168.8 165.6 168.1 170.6 173.9 170.8 170.4 171 168.4 168.6 166.5 162.9 154.8 154.4 153.8 150.6 150.8 153 158.8 161.7 163 163.9 166.3 169.2 174.2 176.9 184.1 188.3 192 205.3 218.1 223.5 222.6 219.7 216.7 215.4 213.9 212.9 213.3 215.6 218.1 220.5 223.3 224.8 226.2 226.2 224.9 222.4 219.5 215.1 209.9 212.3 207.9 212.2 218.4 217.6 200.2 175.4 162.1 152.9 146.9 147.4 147.9 153.1 159.3 164.1 173.1 180.6 195.9 201.5 202.7 203.5 202.6 200.8 200.5 197.2 194 192.5 186.5 181 174.2 171.8 170.7 166.4 168.6 172.3 170.9 163.9 159.5 156.4 153.6 152.4 152.3 153.5 156.6 157.6 159.6 163 169.3 172.4 174.9 179.4 183.8 182.4 183.8 175 172.3 167.1 163.9 170.1 176.9 188 201.1 204.4 209.3 210 211.2 212.1 217.5 220.6 222.1 223.5 225.8 228.7 231.9 234.9 240.3 244.6 247.5 250 253.5 256.4 258.2 255
226.6 216 213.6 210.9 211.2 215.5 221.4 228.9 233.3 237.3 241.1 245 249.4 254.6 260.6 271.2 277 279.4 281.3 282.2 281 277.7 274.2 271.9 270.3 268.8 267.3 262.2 257.3 252.1 243.9 248.6 250.9 252.9 256.2 257.2 257.4 258.2 257.8 258.9 257.6 255.4 250.1 245.4 239.2 236.3 236.9 238.7 237.1 234.8 230.3 224.2 217.8 210.4 207 203.9 202.2 198.5 195.6 192.4 189.6 185.5 180.8 175.5 172.5 170.4 166.2 164.1 165.8 168 170.1 167.7 166.6 166.3 165.6 163.5 161.9 158.4 153.3 151.9 152.5 149.8 152.6 153.4 157.8 162.1 161 162 165.3 168.9 173.9 178.5 183.9 189.1 194.5 204.6 219.3 224.3 224.6 221.7 217.9 216.5 214.3 213.5 213.8 215.2 216.7 220 223.3 225.1 226.6 226.8 225.6 223.6 220.8 218.8 216.9 216.1 215.2 214.4 220.3 221.5 211.8 186.1 168.9 158.6 149.3 146.1 147.1 149 153.6 157.8 168.6 175.8 186.1 201.7 202.9 203 203.4 201.6 199.7 196.3 191.8 192.3 187.4 180.7 175.3 168.5 167.1 164.5 163.5 165.5 166.9 163.2 158.3 154.5 151.3 151.2 152.8 152.7 156.5 159.6 162.6 169.4 174.5 174.9 176.5 179 181.7 178.1 176.5 169.5 168.4 165.1 163 169.1 173.1 184.8 192.9 196 199.4 202.9 204.3 207.4 210.9 216.8 214.5 217.6 224.8 228.1 230.9 235.4 239.9 245.8 248.3 250.6 253.3 256.9 253.9 247.6
226 216.2 207.4 205.4 216.8 223.6 223.4 232.4 235 237.7 241 244.8 248.7 253.3 258.9 269 275.4 277.5 280.1 281.7 280.8 276.2 273.3 271.1 269.6 268.2 266.7 262.8 257.7 252.8 244.3 243 245.5 248.1 250.5 253 252.4 253.5 252.7 252.5 251.8 250.5 247.1 241.9 234.7 231.8 230.6 231.8 232.1 231.1 226.2 219.4 213.7 207.5 205.1 204.1 202.7 200.5 197.8 194.6 191.3 186.8 182.3 178.4 173.3 166.9 164.2 163 161.7 163.4 166.9 164.8 163.1 161.9 161.1 160.9 159.5 153.5 151.7 149.8 149.8 151.2 152.8 155.5 157.4 160.4 161.8 164.6 167.1 169.1 172.3 176.5 181.1 186.3 193.2 202.6 219.6 225.7 225.1 223.5 218.8 217.2 215.9 213.5 213.5 214.2 216.8 218.8 222.9 224.4 226.2 227.3 226.1 224.1 222.1 220.6 221.3 220.3 218.9 218.7 221.4 223 216.8 199.7 176.7 163.3 152.6 147 146.9 147.7 150.2 153.3 160.6 169.9 180 196.9 198.9 198.9 198.7 199.4 198 194.7 183.7 185.6 184.2 179 170.4 164.2 165.9 163.3 159.6 161.5 163.3 161.9 157.2 152.6 151.2 151.6 152.5 152.6 159 164.3 168.3 173.2 172.9 168.1 172.4 174.4 177.5 172 169.3 165 163.7 159.1 160.1 166.1 171.4 177.2 184.2 190.6 192.5 194.4 195.2 198.3 203.1 202.9 210.3 218 220 223.2 228.5 233.2 240.2 244.4 248.3 250.1 251.5 249.1 246 235.5
226.7 215.7 211.5 206.9 222.9 229.5 231.8 232.1 234.8 239.3 242.7 246.5 249.8 253 258.3 266.9 272.7 275.9 278.1 280.8 280.2 276 272.6 270.3 268.5 267.5 266.1 263.9 258.3 253.6 247.5 242.6 241.1 243.8 245.2 247.7 247.3 247.3 247.8 246.9 245.7 244.3 241.4 237 231.5 227.2 225.6 225 225.9 225.3 221.7 214.7 210.4 204.3 201.7 201.6 201.2 200.2 197.5 194.7 191.8 185.4 182.2 178.7 175 169.8 165.6 164.9 164.2 159.5 162.5 161.9 160.9 160.7 159.5 157.8 156.1 150.4 149.6 150 152.1 154.2 154.3 157.5 157.8 160.7 163.7 165.6 167.4 169.6 172 175.7 179.3 183.8 191.7 202.2 218.4 228.7 228.1 225.2 219.4 217.5 215.6 213.9 213.5 213.9 216.3 218.3 222.2 223.9 226 227.9 226.7 224.6 223.1 222.8 224 223.3 223.1 222.2 222.1 223 220.3 213.9 188.7 169.1 158.6 150.3 146.9 147.1 146.8 149.2 156 163.5 172.2 185.2 189.9 191.7 192 191.9 194.5 192.6 181.4 174.8 172.5 172.6 164.3 160.4 165 162.7 158.2 158 160.8 159.5 156.3 152.7 150 149.3 151 152.5 158.7 164.4 166.6 166.6 166.2 163.2 165.9 168.8 169.8 168.7 165.6 159.4 156.9 158.1 160.5 164.3 165.3 172 177.3 181.6 184.3 188.6 189.1 191.9 196.1 195.8 202 208.9 209.3 218.3 225.3 232.5 236 242.8 246.5 247.9 247.9 242.2 235.3 226.7
224.5 213.5 210.5 206 225.1 232.4 234.7 237.5 236.2 239.1 243.9 247.6 250 252.9 257.9 265.8 272.1 274.4 276.9 280.2 279.8 276.2 272.5 269.6 267.5 266.5 265 263.5 259.7 253.7 248.9 243.6 238.1 239.7 240 241.2 241.1 241.4 241.1 239.9 238 236.8 235.2 231.3 226.7 222.7 220.9 220.4 222 220.2 217.6 210.1 206.2 202.4 199.1 198.2 197.4 196.7 196 193.3 190.2 185.8 179.9 177.6 173.7 171.7 169.9 167.1 164.5 160.5 157.4 159.1 158.8 159.2 158.1 156.6 152 149.5 150 151.7 152.1 153.8 154 155.4 156.4 159.8 161.4 164.6 167 169.2 172.4 175.9 179.4 184.1 192 201 216.4 229.5 230.2 226.7 219.8 217.7 216.1 214.6 214 214.7 216.2 217.8 221.6 223.7 225.7 227.8 227.2 226 225.1 225 227.3 228.1 229.6 227.9 226 224.4 221.4 216 193.8 175.7 162.9 153.7 146.2 146.2 145.7 146.6 150 156.6 165 175.9 181.3 185.2 187.6 179.6 186.3 190.2 186.5 178.1 167.8 163 159.3 157 161.7 161.5 157.1 156.4 158.2 157.5 153 151.2 148.4 148.7 151.4 151.2 158.1 160 159.5 158.7 159.5 160.1 162.5 166 167.7 169.1 164.3 158.6 155.2 158.5 161.4 168.3 177.8 179.9 178.5 176.4 178.7 183.5 186.1 187.2 189.8 190.7 195 198.2 204.2 212.2 221.9 231.1 235.5 240.1 244 245.1 243.5 238.3 227.7 220.5
217.3 209.7 205.4 208.6 225.3 235 236.9 238.6 239.6 239.4 242.8 245.5 249.7 252.9 257.8 264.9 270.6 273.6 276.7 279.2 278.8 276.1 272.4 269.5 266.6 265.2 263.8 262.5 261 255.1 250.2 244 238.8 234.1 234.1 236.5 236.8 236.8 235.4 234.1 233.1 231.7 229.5 225.6 221.9 218.5 216.8 216.7 218.6 216.4 214.1 207.7 203.8 200.1 196.8 194.9 194.1 193.3 192.6 191.4 188.6 185.1 182.6 178.1 175.3 174.1 172.1 168.6 164.1 160.2 157.3 157 158.3 156.8 156.8 154.4 148.9 150.1 151.3 151.3 153.8 152.7 152.9 154.5 156.4 157.9 160 163.9 167.1 171.9 173.9 176.5 180.1 184.3 192.8 204.3 219.6 231.2 230.8 226.4 220.2 217.8 216.7 215.4 214.9 215.5 216.9 219.2 221.8 223.9 225.9 227.9 228.7 227.8 227.1 227.3 230.1 233.1 234.9 233.4 229.7 226 222.6 218.5 210.8 192.5 170.7 157.6 149.4 147.1 146.1 147.1 145.9 151.9 160.7 168.7 176.9 181.8 187.5 174.3 174 184.3 184.4 184.1 178.5 171.1 162.5 156.8 155.3 159.5 155.8 152.6 157.7 156 151.5 148.2 148 149 149.8 151.2 152 153 151.7 153 159.5 159 162.1 165.2 167.4 169.4 162.2 155.8 154.7 156.6 161.6 172.3 184.1 195.1 193.4 188.7 188.5 192 194.8 195.3 191.4 203 208.3 203.7 202.2 205.5 211.8 224.6 232.6 237.3 241.6 242.9 240.6 233.5 223.9 212.3
208 205.2 200 214 226.5 235.5 235.6 237.4 239.3 241.4 243.7 245.5 249.2 253 257 263.2 269.9 272.4 274.9 278.5 278.6 276 272.3 269.6 267.1 264.8 263.2 261.9 260.7 256.5 250.2 244.4 239.6 236.1 229.5 231.6 231.7 231.7 230.7 229.5 228 226.6 223.9 220.4 217 214.5 212.3 213.4 214.2 212 210.2 205.3 201.4 197.8 194.3 192 190.7 190 189.3 188.6 187.8 186.1 185.6 183.5 181.5 176.7 173.2 170.6 167.7 163.5 158.9 155.3 157.1 155.3 154.9 152.2 148.7 149.4 150.7 150.9 152.8 152.2 153 154.5 157.3 160.6 162.3 163.6 167.8 171.9 174.8 177.1 180.9 186.8 194.8 206.4 222.2 232.4 231.4 225.6 220.7 218.3 216.9 216.2 215.7 216.2 217.6 219.5 221.7 224.1 226.6 227.8 228.7 229.8 230.5 231.3 232.8 235 236.9 236.2 231.5 227.2 223.8 220.5 215.2 207.8 183.7 164.1 154.8 147 146.4 146.1 145.6 146.7 153 161.6 170.1 176.3 186.3 176.9 162 175.7 179.7 181.4 180.2 179.8 171.8 161.1 151.7 152.1 150.9 151.1 154.6 152.6 151.5 146.4 146.8 147.7 148.1 150.2 151.3 151.1 150.9 151.2 156.4 161.8 166.4 169.9 170.7 170.8 159.2 154.9 153 155.3 159.4 169.1 181 198.7 206.6 205.2 204.6 206.9 209.5 209.9 204.1 197.5 208.4 218.9 216.2 216.8 224 225.6 229.3 236 239.5 241 237.8 228.5 214.2 200.1
200.7 202.5 198.1 213.3 224.5 233.6 233.1 235.9 238.3 240 243.3 245.5 249.1 252.9 255.6 261.4 269.4 272.2 274.3 277.2 278.9 276.2 273 270.1 267.8 265.5 263.2 261.2 259.8 257.4 250.2 244.9 240.5 236.2 232.4 225.9 225.9 226.7 225.9 224.6 223.1 221.5 219 216.6 213.1 210.3 207 206.5 207 205.5 202.8 200.5 197.5 194.8 192.3 190.3 187.7 186.9 186 185.1 186.6 186.9 187 184.1 181.1 178.3 174.3 170.2 165.8 163.9 160.6 157 152.9 153.1 150.5 149.2 148.6 148.7 150.1 151.4 152.2 152.8 154.6 156.4 159.2 162.4 165.3 165.7 167.9 171.3 174.5 178.3 182.7 189.5 197.8 208.5 222.6 233.1 230.2 225.9 220.6 218.5 217.9 216.3 215.8 215.4 216.9 218.7 220.5 222.9 225.1 227.2 228.7 230.2 231 233 234.9 236.2 238.4 237.9 234.1 228.9 224.7 221.4 216.6 208.8 194.7 176.1 162.5 152.5 146.5 145.9 146 146.2 147.7 154.8 161.8 170.2 182.3 175.3 159.1 166.9 172.3 171.8 172.3 177 171.1 163.1 151.6 147.5 148.7 152.1 153 152.7 150.2 147.5 146.6 146.8 147.5 149.1 149 149.7 149.8 154.1 160.4 163.4 169 168.4 166.8 161.5 158.4 156.1 151 154.6 158.3 164.8 176.7 195.6 207.7 214.9 217.8 221 219.6 220.1 219.3 210.4 207.1 212.3 225.6 225.3 230 233.1 235.8 237.5 239.8 232.3 232.1 226.1 211.5 197.6
200.3 200.6 193.2 208.5 217.5 224 228.4 234.3 237.9 240.5 242.7 245.3 248.4 251.8 255.7 259.9 267.2 270.6 273.2 275.8 278.4 277.6 274.7 271 268.7 266.4 264.1 260.8 259.1 255.9 253.3 247.5 243.1 239.8 235.7 231.8 226 224.2 221.1 217.8 218 216 211.7 207.6 205.7 203.4 199.5 196.3 193.9 194.4 192.4 189.8 189.1 188.4 187.8 186.4 185.3 182.2 182.4 181.7 183.4 184.4 184 181.5 179 176.9 170.9 167.7 163.8 160.4 158.1 155.3 151.7 149.5 148.8 148.6 148.7 150.5 151.2 150.3 151.9 155.4 156.3 158.4 161.2 164.3 165.6 166.8 169.1 171.9 175.2 179.4 184.5 191.9 199.3 211.8 229.1 232.2 229.1 224.8 220.8 219.2 217.4 216.4 215.9 215.5 217 218.9 220.1 221.7 223.9 226.1 229.2 231.3 233.1 235.1 236.2 237.2 238.8 238.6 236.2 230.5 225.8 222.4 217.8 209.5 201.3 185.7 168 158.9 149.1 146.3 145.8 145.8 145 147.8 154.7 164.1 174.9 173.3 157.3 156.5 162.5 163.2 161.6 166.7 171.8 166.4 156.3 147.6 146.9 147.6 151.5 150.5 148.2 147.8 147 147.3 147 148.4 148.5 149.1 148.3 148.7 154.1 159.9 160.2 159.1 158.1 155.5 152.5 154.6 150.2 155.6 155.7 161.3 172.8 187.4 203.6 216.1 223.6 228.6 228.3 226.5 225.6 224.5 225.8 220.7 228.9 231 233.2 236.2 238.9 239.6 238.1 234 230.3 218.8 205.8 197.5
197.9 192.3 195.7 209.2 218.5 226 224.9 228.4 232.9 236.6 239.5 242.8 246 249.2 254.6 258.4 265 269.5 272.1 274.8 278 279.1 276.2 271.9 269.6 267.3 264 260.5 259.7 258.1 256 251.3 246.9 243.7 239.8 235.8 234.2 232.3 228.1 222.2 216.9 214.7 216.4 214.9 212.4 210.3 211.1 210.8 204.4 199.4 194.8 192.1 187.9 182.8 181.6 180 176.3 177.3 176.5 176.1 178.4 180.7 180.7 179.1 176.7 174.4 168.9 164.4 157.3 155.5 152.3 151.4 149.2 148.3 147.9 148.8 149.1 149.8 150.7 150.1 152.2 155 157.5 160.4 163.2 164.6 165.9 167.4 170.1 173 176 180.7 188.3 194.2 201.6 215.5 231 231.5 228.9 225.8 222.5 220.1 218.1 216.6 216.5 216.9 217.2 218.4 219.6 221.4 223.1 225.1 229 232.5 236.5 238.4 237.6 237.6 237.7 237.6 237 232.8 227.4 223.6 219.4 212.1 204.5 190.1 170.7 160.1 153.8 148.7 146.4 145.7 144.7 146.1 147.9 154 162.6 164.4 157 149.7 153.4 155.4 153.9 158.7 168.4 172.5 161.6 149.7 145.4 146.5 145.6 147.2 146.5 147.4 148 149 148.8 148.5 147.7 147.6 147.3 147.6 150 153.2 156.3 154.9 151.6 151.6 150.6 152.4 148.6 154.7 157.8 159.3 170.9 182.5 195.4 209.5 223.9 229.5 233.5 232.6 230.1 230.6 230.7 230.2 231 234.5 236.7 240.1 245.4 244.5 237.9 229.5 221.3 214.5 201.6 196.4
186.2 190.8 203.3 214.6 220.6 228.8 235 233 232.4 230.5 237 240.6 243.9 248.3 253.1 256.8 262.6 268.6 271.3 274 276.1 277.5 276.6 272.8 270.5 267.2 263.7 260.1 259.3 257.7 256.1 254.6 250.3 248.3 245 241.2 239.1 237.5 234.1 229.1 226.4 223.5 222.7 223.3 220 216.5 217.2 219.1 214.4 209.2 203.6 199.6 195 191.3 186.7 184.5 180.6 174.5 169.8 169.4 171.9 174.5 177 176.9 175.4 172.6 167.9 162.2 156.7 151.7 150.1 147.4 148.5 147.6 147.9 147.6 148.7 149 149 149.5 152.5 155.2 158.2 161.2 163.5 164.8 166.4 168.2 170.9 173.8 176.6 182.3 190.8 197.3 204.7 216.3 230.6 230.2 228.9 226.9 224.6 220.9 218.7 217.6 217.2 218.5 218.3 218.8 219.2 221.4 222.1 224.2 228.4 233 239 239.1 237.4 237 236.6 236.5 235.4 234.7 228.9 224.3 220.4 214 206 197.5 180.1 166.6 158.5 152.7 148.5 145.5 144.9 145.2 145.4 145.8 149.9 153.6 151.9 145.9 146.3 148.2 147.1 149.9 157.1 159.4 153.6 145.6 145.4 145.1 145.4 145.8 146.9 146.6 148 148.4 147.9 147.8 147.6 147.9 146.6 146.4 146.4 147.5 148.8 149.8 150.9 148.9 147.2 149.6 151.8 154.9 158.5 162 171.7 178.1 188.1 203.9 218.8 224.9 233.3 234.7 234.7 234.8 234.8 234.6 234 236.6 240.1 243.7 248.9 243.3 235.7 228 218.4 210.1 199.7 194.1
195.9 202.5 202.9 215.2 222.1 229.4 239.4 239.6 239.5 238.8 230.7 239.6 241.9 246.3 251.5 255.2 260.3 266.4 271.1 273.7 275.3 276.5 277.1 273.9 270.3 266.5 262.8 259.7 257.7 256 254.6 253.9 252.4 250.8 248.6 246.1 243.4 241.4 239.2 235.7 231.6 229.2 228.1 228.8 224.3 221.4 220.7 222.7 222.8 218.8 209.4 203.5 197.8 192.8 188.8 186.8 184.9 183.2 176 171.8 168.6 168.8 171.7 172.6 172.5 170 162.8 158.6 154.3 150.6 148.3 146.8 147.6 147.1 146.7 148.6 148.4 148.4 148.6 150.2 154.8 157.1 159.5 161.9 163.8 165.4 167 169 171.7 174.5 177.9 185.9 192.4 199.1 206 215.2 226 228.9 229.3 227.3 225.6 222.7 221 219.9 219.5 220.2 219.8 219.9 220.2 220.6 221.4 223.8 227.3 231.6 236.8 237.9 236.8 236.1 235.4 236 236.1 235.2 231.5 224.9 221.3 217.1 209.5 201.6 188.2 175.8 166 158.4 153.2 149.5 146.8 145.4 145.5 146 145.5 146 145.4 145.4 145.2 145 145.1 144.8 146.7 146.3 147.5 146.3 145.9 145.9 146.5 148.1 146.4 145.8 148.3 148.5 148 147.8 147.5 147.2 148.1 145.7 145.5 144.9 146.2 146.1 148.3 148.1 148.7 151.8 151.6 155.3 159 166.7 171.7 176.7 185.7 197.9 211.4 221.9 230.3 232.8 235.3 237.1 238.3 238.2 238.1 239 242.1 245 250 242.5 234.7 227.9 220.9 211.9 199.6 193.2
207.9 214.8 213.9 213.1 223.4 228.9 237.2 244.2 242.4 241.3 238 238.1 243.1 246.4 249.8 254.4 258.9 264.1 270.8 273.2 274.5 275.9 277.1 274.2 269.7 265.6 262.5 259.3 256.1 254.4 253.8 253.1 252 250.8 249 247.1 244.7 242.3 240.1 237.9 235.6 233.7 232.8 232.2 228.9 226.4 224.4 224.8 225.9 222.9 214.7 207.1 199.9 193.2 187.9 184.6 182.4 181.3 180.1 178.1 173.6 167 166.6 167.7 167.3 164.3 158.3 154.3 150.5 149.1 148.2 147 146.4 147.3 146.7 148.5 150 151.7 150.9 153.7 156.8 158.9 160.9 162.9 164.4 166 167.6 169.9 172.5 175.2 179.3 190 196 201.1 205.8 214.1 219.3 223.3 227.4 228.4 226.3 225.1 224.2 223.3 222.3 221.8 221.4 221 221 221.4 222.3 223.3 226.6 229.4 233.8 235.8 234.6 234.2 234.9 235.3 235.4 234.7 233.9 228.5 222.6 219.6 213.5 206.1 201.8 192.5 176.8 167.2 161.2 156.7 152.3 148.2 146 145.2 145.1 144.4 144.9 145 144.9 144.8 145 145.6 146 145.6 145.8 144.4 146.2 146.2 145.9 146.3 147.4 147.6 147.9 148.5 148 148.5 148.4 147.6 147.8 144.6 144.1 144.5 144.6 145.2 145.5 146.1 146.9 148.7 152 157.8 160.3 165.1 170.7 177.4 186.1 195.1 208.4 221.7 228 231 233.5 237.1 240.3 240.8 240.2 240.3 242.8 244.4 246.8 239.2 232.2 225.7 220.2 214.1 204.8 193.2
209.9 219.2 223.2 220.5 224 229.4 235.9 246.7 246.9 244.7 243 238.6 237.4 243.8 247.3 253.3 258 262.5 269.9 272.5 274.2 275.9 277 274.8 270.5 266.1 262.5 259.2 255.9 253 251.9 250.8 249.7 249.1 247.8 245.8 243.7 241 237.9 235.2 233.7 233.8 234 232.4 231.4 228.9 226.8 225.8 226.2 224.5 217.9 208.3 200.9 193.7 188.3 183.8 181.1 178.3 176.3 174.7 171.3 166.3 163 164.5 163.6 159.7 157.4 152.7 151.2 149.3 148.5 148 147.2 146 148.1 148.9 150 151.9 154 156.3 157.8 159.7 161.6 163.9 164.8 166.6 168.2 170.7 173.4 176.2 180.1 188.7 196.4 200.8 206.8 212.6 217.1 221.3 224.6 226.9 228.6 228.4 228 227.1 226 224.8 224.2 223.6 223.2 222.6 223 224.1 225.4 227.5 229.8 232 232.5 233.1 232.3 232.7 233.1 233.9 233.1 230.6 224.1 221 218.3 212 207.1 201.8 192.6 178.8 173.9 171.5 165.8 155.9 150.9 149.7 149 148.4 146.7 144.9 144.8 144.8 144.9 145.4 145.8 145.9 145.6 145.3 146 145.1 144.9 145.4 146.3 147.2 147.6 148.1 148.4 149.1 149.6 148.8 148 144.1 143 143.8 144.3 145.2 145.6 146.4 147.3 149.7 152.4 157.1 164.6 167.5 172 176 186.7 196.3 208.4 221.1 225.4 229.4 231.7 235.4 239.4 240.3 239.9 240.2 242.4 241.5 241.3 236 229.9 223.5 217.9 211.2 201.5 193.1
211.4 220.5 228 227.9 228 230.5 235 243.9 249 247.7 246.5 245.7 244.9 240.1 245.9 251.7 256.5 261.5 268.1 272.1 273.8 275.6 277 275.6 271.8 267.3 263 260.2 257.4 254.4 251.1 248.2 247.7 246.8 245.7 243.5 241.6 238.3 234.4 232 229.9 229.8 230.7 230.4 229.3 228.9 228.4 227.3 226.7 225.2 219.8 210.1 201.5 194.3 189.1 184.7 181.1 178.3 176.1 173.2 171.5 169.1 164.3 159.5 159.9 159.5 155.6 153.1 151 149.8 149.6 148.5 147.3 146.4 146.1 147.9 150.3 152.3 155 158.6 160.4 161.6 162.6 164.8 165.2 167 168.9 171.6 174.3 177.3 181.1 187 193.5 198.2 205.3 211.6 215.2 218.3 223.8 225.4 227.8 230.1 230.6 230.4 229.4 228.2 227.6 226.9 225.8 225.2 223.8 224.6 225.2 227 228.4 230.3 231.3 230.7 230.7 231.2 231.6 232 232.7 232.3 227.2 223.2 220.7 216.6 212.6 207.5 202.1 196.8 196.5 193.5 176.7 158.4 156.1 157.1 157.4 155.3 155.5 154.7 150.8 149.6 147.1 146.8 147.2 148.2 147 145.6 146.2 145.5 145.6 144.6 144.8 143.3 142.5 148.1 146.4 145.9 149.7 149.8 145.6 143.3 142.9 143.8 144.3 144.4 145.8 146.5 147.8 150.5 153.3 158.7 165.3 171.8 179.6 187.6 194.4 201.6 212.2 219.7 222.8 227.1 229.8 232.5 235.9 238 236.3 236.9 238.8 237.7 236.6 232.8 229.2 224.1 217.8 207.8 198.5 189.5
214.8 221.1 230.4 232.6 232.1 233.9 235.9 241.3 251.6 250.3 248.9 248.3 247.6 247.2 245 251 256.1 261.3 266.3 271.3 273.2 274.7 275.8 276.7 272.9 269.1 264.9 260.8 256.9 253.2 249.5 246.6 244 243 242.4 241.2 239.3 235.5 231.7 228.1 225.5 224.9 224.7 225.8 225.5 225.7 226.5 226.6 226.6 225.9 220.6 212.1 203.3 195.9 190.7 186.5 182.4 179.5 176.2 176.6 175.9 174 169.1 163.4 158.4 155.9 154.7 152.1 150.6 149.9 149.1 148.1 147.4 145.5 145.6 146.9 150.8 152.8 154.5 158.1 159.9 161.5 163.5 165.6 165.8 167.6 169.8 172.6 175.2 178.5 182.4 185.8 191.3 198.1 203.1 209.6 214.4 215.2 215.7 225.2 225.8 228.6 230.4 231.4 231.3 231.2 231 229.8 228.4 226.3 225.2 225.8 225.9 226.9 227.6 229.1 228.7 228.8 229.1 229.7 230.1 230.8 231.6 232.4 229.6 226.6 223.8 221 217.6 213.2 208.3 204.2 202.2 196.6 175.5 160.6 161 167.6 165.1 161.7 166.4 166.1 163.1 157.5 149 146.7 149.5 151.9 153 147 150.2 149.5 145.9 149.1 151.5 153.4 149.3 150 150.3 147.8 144.1 147.4 144.9 143.1 142.8 143.7 144.4 144.5 144.6 147.2 148.8 150.7 153 157.6 163.3 173 181.3 190.7 192.1 198.6 209.5 214.9 220.9 224.1 227.3 230 232.7 234.4 232.1 232.5 232.8 232.8 232 229.6 227 224.1 217.1 208.9 197.6 188.3
219 224.3 232.5 237 237.9 236.4 238.4 242.4 251.9 252.8 249.8 250.2 249.6 248.6 244 249.9 256.1 261.1 264.5 269.6 272.3 273.4 274.5 275.6 273.9 269.8 265.2 261 257.1 253.2 250.6 248.1 240.8 237.7 238.1 236.9 235.5 233.3 229.5 225.6 222.5 220.7 220.7 219.5 219.9 220.2 222.2 224 225.6 226.3 223.3 212.4 204.6 198.1 192.3 188.3 184.2 180.7 178.9 179.4 179 176.2 171.6 164 159.5 156.7 153.5 151.7 150 148.2 147.4 145.6 145.5 145.2 146.1 147 151.6 154.3 155.5 157.7 159.5 161 163.2 164.4 166.4 168 170.8 173.8 176.8 179 182.2 186.9 191.8 197.3 202.1 207.4 212 212.8 213.5 218.4 223.9 226.9 228.6 229.8 230.7 231.4 231.6 231.7 230.5 227.5 226.6 226.6 226.6 226.8 227.1 227.3 226.6 227 226.6 227 227.6 229.4 230.5 231.5 230.3 227.5 224.5 222.9 220.9 217.6 212.8 208.2 204.4 198.7 181 166.6 167.8 172.2 167.5 160.6 163.8 169.4 165.9 155.3 147 146.5 153.6 157.6 157 149.6 156.2 153.6 151.9 159.7 165.8 161.5 161.5 164.1 160.6 153.7 149.1 143.8 143.5 145.6 142.6 143.4 144.4 144.8 144.5 147.7 150 151.3 154.5 157.1 163.7 170.6 179.8 181.6 187.1 194.8 203.4 210.6 217.6 220.8 223.7 226.9 229.3 229.8 227.1 226.5 227.7 228.3 228.5 227 224.2 222.2 221.7 211.4 198.9 187.3
220.4 226.2 237.6 244.1 241.5 239.6 240.9 244.8 250.2 256.4 253 252 251.5 249.8 247.9 248.9 255.8 260.1 263.5 267.6 271.6 272.7 273.4 274 273.7 271.3 266.4 261.3 257.1 253.9 250.3 248.3 245.2 237.6 233 231.6 231.1 229.8 227.2 223.3 219.8 216.3 215.9 215.3 214.8 215.4 218.2 219.8 221.4 224.7 225.2 217.6 206.5 199.4 193.8 189.2 185.3 182.1 182.1 182.1 181.2 178.1 173 165.8 159.1 157.1 153.1 151.1 147.9 147.2 146.5 146.5 146.2 145.6 147.3 148 151.3 154.3 155.1 157.4 159.4 160.5 162.3 165.5 167.3 169.4 174 176.5 178 179.7 182.4 186.8 191.3 197.6 202 204.8 208.9 209.8 210.7 215.5 221.6 223.5 224.8 226.8 227.8 228.8 230.3 231.3 230.4 228.5 227.2 227.2 227.6 227.2 226.4 224.6 225.1 224.4 223.8 223.9 224.7 227.4 228.6 229.8 230.1 228.1 225.8 224.2 222.3 219.4 215 208.6 203.7 200.2 190.7 174.1 174.3 169.5 164.5 157.2 156.5 160.1 155.2 148 147 149.7 159.8 164.4 159.5 153.3 161.1 159.6 159.7 166.3 167.9 168.6 169.1 163.6 157.6 154.4 150.4 143.2 142.5 143.4 142.7 141.8 143.5 144.7 146 147.7 149.8 153.1 155.6 157.5 161.1 166.9 171.9 174.5 181.1 189 196.9 208.7 213.7 216.2 219.5 223.2 226.3 225.3 222.4 222.2 222.4 223.3 223.9 221.7 220.9 216.3 210.7 204.3 194.3 186.3
220.7 227.8 233.7 243 244 241.9 242.5 245.7 249.6 258.3 256.5 254.1 253.3 251.1 247.3 251.3 255.7 258.7 261.6 266.9 270.6 271 271.5 272.2 273.1 271.2 267.1 261.3 257.1 253.5 249.6 247.1 244.3 240.4 236.8 233.4 226.2 225.9 223.3 220.9 217.9 214.2 211.2 210.6 210.7 211.5 214 215.5 217.7 222.1 224.4 220.4 208.7 201.1 195.4 190.8 188 185.4 185.3 184.5 183 179.2 174.1 168.2 159.4 156.5 152.9 149.5 147.3 146.4 146 146 145.8 146 146.8 149 149.8 151.8 156.2 158.2 159.7 162.2 163.6 166.6 168.7 170.3 173.9 177 177.8 180.1 182.9 187.3 192.6 196.5 201.9 203.2 205.9 205.7 207.9 213.8 218.3 219.3 220.9 223 224.6 225.7 227.1 229 230.9 229.7 228.8 229 229.1 228.1 226.5 223.6 220.9 221.3 220.1 221.4 222.2 224.8 226.7 228 228.9 227.7 225.5 223.8 222.1 219.7 215.9 210.3 204.6 200.1 190.5 175.4 170.6 162.4 157.9 156.5 153.5 151.8 149.7 149 149.7 153.6 165.9 169.9 160.2 159 164.1 164.2 165.5 166.2 168.2 169.3 169.2 163.3 154.1 149.2 148.4 143.6 141.9 142.7 142.7 142.6 143.8 145.3 146.5 148.1 150.8 154.3 159.1 160.5 163.3 164.9 168.7 174.5 179.7 185.4 194.6 206.3 209.4 211.7 214.3 218 220.3 218.4 217.8 217.7 218.2 218.8 219.2 218.6 214.2 207.9 200.4 194.4 187.6 196.8
222.9 228.7 233.1 238.5 242 242.7 243 245.1 249.9 259.2 259.6 256.6 255.2 253.4 250.7 249.6 255.1 257.7 260.9 265.4 268.9 270.2 269.7 270.4 271 271 267.7 262 256.3 252.3 248.6 245.4 241.4 238.9 236.3 233.1 224.5 220.1 218.2 216.1 214.6 211.9 209.1 205.9 206.8 208.2 211.7 211.5 214.1 219.1 222.2 219.4 211 203.5 198.1 193.1 190.1 187.7 187.2 185.8 183.9 179.9 175 167.4 159.2 154.2 151.8 147.9 147 146.4 145.5 145.4 145.1 145.7 145.8 146.5 148.1 150.2 152.2 158.4 161.9 163.1 164.8 167.1 168.5 170.1 172.4 175.6 177.3 180 183.3 188.6 198.5 199.6 199.4 201 201.6 202.3 204.3 209.3 213.7 216.1 217.5 218.6 221.1 222.3 225.1 227.6 229.5 229.8 230.1 229.5 230.2 227.7 225.9 220.5 216.2 217.9 216.6 218.1 219.9 222 225.1 227 228.5 226.9 225.3 222.7 222 219.3 215 210.4 204 194.1 184.1 171.8 165.2 162.7 166.5 164.5 157.9 155.3 153.4 153.5 155.3 161.2 169.4 173.9 166.1 162.6 169.8 167.2 165.3 165.2 165.2 169.7 169.5 168 158.2 149.7 143.3 143.2 142.4 145.9 141.3 142.1 143.9 146.5 149.2 151.4 151.7 154.3 158.7 162.7 170.4 169.9 172.4 174.4 178.4 185.6 199 205.7 206.2 207.7 209.4 211.7 213.3 213.9 213.5 213.4 214.3 216.4 215 212.5 209.9 200.2 192.2 186.3 198.1 203.1
223.3 227.7 231.1 233.7 237.7 243.1 244.1 244.5 248.1 258 266.5 259.1 257.7 255.5 254.9 252.4 253.5 258.1 260.6 264.5 268.7 270 269.6 268.4 269 269.2 267.8 261.6 254.6 250.6 247.3 243 239.3 236.1 233 231.6 228.7 225.1 213.9 208.2 208.6 207.6 205.7 202.7 202.8 204.9 209.1 207.5 209.9 215.5 218.4 217.7 213.3 205.2 200.1 196.3 192.8 189.8 187.8 185.5 183.6 180 174.6 165.5 159.1 152.4 149.8 146.2 146.4 146 145.7 145.1 145.1 145.3 145.6 147.8 149.6 151.6 153.6 157.2 160.9 163.3 165 166.6 168.1 169.8 171.9 174 177.2 180.1 183.7 190.3 199.8 200.3 200.3 198.8 198.4 199.2 202 205 209.4 212.8 214.3 215.7 217.9 219.7 222.4 225.2 227.2 228.1 228.4 230.6 232 227.6 223.9 215.7 211 212.1 212.1 213.8 215.7 219.3 221.2 224.8 225.8 226.2 225.3 223 221.7 219.1 213.8 208 201.3 191.3 180.5 171.3 170.1 173.9 175.5 168.8 163.9 161.7 162.4 161 163.1 168.7 174 178.6 170.7 164.3 170 167.1 164 161.6 157.6 156.7 156.9 154.8 151.4 145.6 142.8 143.7 143.4 145.3 141.9 142.9 144.5 146.2 148.5 150.6 151.6 153.8 157.1 160.8 168.6 176.5 181 181.1 183.5 189.3 200.6 202.8 203.3 205 206.8 208.4 209.1 209.4 210 210.5 211.1 211.7 211.3 207.9 205.2 194.3 186.6 197.6 199.4 202.8
219.3 222.4 226.6 231.4 237.1 241.8 244.1 244.1 247.1 256.6 267 262.1 261.1 258 257.1 257.2 253.9 257.3 260.4 264.6 267.9 270.1 269 266.9 267.2 267.6 266.5 261 253.5 249.3 245.4 242.7 239.3 235 229.3 227.4 226.6 224.7 220.9 215.9 207.7 204 199.5 198.5 198.6 201.2 204 202.2 204.6 211.8 212.4 211.7 210 203.3 199.5 196.3 193.3 190.2 187.7 184.6 182.7 177.6 169.8 162.9 156.5 150.5 147.5 145.9 145.6 145.2 145 144.9 145.2 144.7 146.1 148.6 149.5 150.7 152.6 155.2 158.7 161.9 164.5 166.9 168.7 171.1 173 175 177.2 180.5 186 193.6 198 199.2 199.1 197.1 196.4 197.5 200.2 202.9 205.8 208.8 211.4 213 215.5 217.9 220.2 222.7 224.8 225.8 226.7 231.2 231.6 225.4 220.1 210.7 209 208.1 208.2 208.9 210.1 213.9 217.8 220.3 222.9 223.9 223.9 223.3 222.1 219.3 215.9 211.5 206.4 200.1 190.3 180 182.5 185.9 182.5 176.9 172.2 169.3 173.2 173.5 175.4 176.8 176.6 179.1 176.5 169.3 170.4 167 164.7 156.8 151.2 147.7 148.1 146.4 142.9 141.7 142.3 142.9 142 144.8 141.3 142.7 145.4 148.3 151.4 153.2 155.9 158 162 162.5 170.6 176.5 182.2 186.5 191.6 195.6 199 201 200.8 202.7 204.4 205.2 206 206.5 207.1 207.8 208.4 208.2 206.8 204.8 196.5 185.5 195.5 194.9 199.2 201.2
215.3 218.9 223.1 227.8 235 239.5 243.5 243.1 244.9 254.3 266.9 270.8 263.5 260.9 260.1 260.2 256.6 257.7 261.4 264.5 267.1 269.1 269.1 267.5 264.9 265.5 265.4 260.2 251.6 246.7 242.3 240.1 237.1 233.6 229.3 225.1 224.3 223.8 220.2 215.8 211.1 205.8 198.7 194.4 195.6 196.7 198 197.1 199.7 204 203.8 203.3 202.3 199.2 198.1 196.9 193.8 190.6 187.9 185.2 182.6 175.7 167.3 161.6 155.2 148.7 145.9 144.6 144.8 144.4 144.4 144.1 144.3 147.1 148.3 148.9 149.3 150.6 151.8 153.7 156.7 159.1 161.9 165.6 168.7 171.9 174.5 175.6 178.5 181.8 187.9 193.8 195 196.5 194.4 192.7 192.2 193.3 195 199.5 202.8 206 209.1 211 214 216.4 218.6 220.7 222.5 223.6 224.2 228.8 227.4 221.3 216.1 208.8 207.1 206.2 205.7 204.7 203.3 207.2 212.7 215.2 219.1 220.4 221.5 221.3 222.3 221.6 219.1 215.1 211 207.3 202.3 196.8 196.2 194.8 192.2 188 184.3 185.1 185.1 181.2 180.4 180.6 178.4 178.5 179.1 174.4 170.8 165.8 156.9 148.7 146.2 147.2 145.3 141.9 140.9 141.4 142 142.6 142.7 144.2 144.5 148.3 148.3 152.3 157.7 160.8 166.3 172.8 169.2 165.3 169.8 174.4 179.7 185.2 184.7 192.3 194.2 196.2 197.3 200.4 201.2 202 203.1 204.1 204.5 205 205.7 205.5 204.2 200.8 189.4 194.3 190.2 196.7 200.7 200.1
212.5 216.1 220.7 224.9 231 236.1 239.3 241.7 244.8 250.6 262.8 273.9 267.5 264.7 263.4 263.1 259.7 258.4 260.1 263.5 266.1 267.8 268.7 266.6 263.8 263.1 263.6 259 251.1 244.7 239.7 236.5 233.1 229.5 226.5 223.1 221.7 221.9 220.2 215.4 211 206 200.1 192.1 191.6 192.1 193.2 192.4 193.9 197 196.5 196.3 195.6 195.2 195 195.9 195.6 192.7 189.7 186.7 183.6 178.3 167.3 162.4 153.9 148 146.3 145 144.3 143.8 144.4 145 144.9 147.4 149.5 150.4 150.6 151.2 152.3 154.1 156.4 157.7 160.6 163.9 167 170.3 173.7 175.9 178.9 183.2 187.5 191.8 194.6 193.9 189.6 188 187.9 189.9 191.2 195 200 202.9 206.3 210.1 212.2 214.1 216.2 218.3 220.2 220.9 222.6 225.5 223.3 217.2 210.2 206.8 204.7 203.8 203.8 202.6 200.4 205.8 208.5 211.3 214.7 218.4 221 222.1 222.8 222.6 221.1 218.1 212.8 209.5 206.7 204.2 201.4 197.4 194.6 191.5 190.3 188.9 185.4 184 181.2 178.5 175.4 177 177 174.7 170.1 165 152.4 149.5 147.8 147.8 141.8 140.7 141.1 141.7 142.2 142.7 141.4 147 148.8 150.4 152.1 155.4 159.6 162.4 167.1 166.7 166.4 166 168.3 171.8 177.4 179.7 185 191.4 188.7 187.8 195.7 198.3 199.4 200.5 201.5 202.4 203 203.4 203.7 204.2 200.8 193.6 192.4 183.7 193.4 197.6 199.1 195.7
210.7 214 219.3 224.2 226.7 230.5 237 241 243.9 248.5 256.5 271.4 273.5 270.3 267.6 267.4 263.5 259.5 259.5 262 264.8 266.8 268.1 266.2 263.3 262 261.5 257.7 250 242.6 236.5 233.5 230.5 226.5 223.6 221 218.7 219.4 219.2 214 209.9 205.4 198.9 194 187.2 187.7 189 187.9 186.9 189.5 190.7 191 189.1 189.1 190.4 192.5 193.7 193.8 191.5 188.2 184.6 177.1 166.1 160.9 152.3 146.7 144.4 144 143.7 143.9 144.4 144.9 145.5 147.6 149.5 151.6 151.4 151.5 153.4 155 155.5 157.1 159.6 162.8 165.6 167.5 171.7 175.5 179 180.9 183.7 187.2 190.5 191 188.4 185.7 185.1 186.7 185.3 189 194.4 199.8 205.3 209.5 210.3 211.6 213.7 215.9 217.5 218.7 221.3 222.3 220.2 213 208.7 204.5 202.3 201.9 202.6 200.7 198.7 200.9 203.2 206.4 212.2 216.1 220.4 223 223.3 223.3 222.4 220.6 216.9 211.5 208.1 204.4 201.4 198.3 195.3 195.2 192.2 188.6 183.4 180.2 178.6 175.7 171.7 173.3 174.9 172.7 167 158.2 155.6 156.3 154.4 148.8 141.7 140.9 141.3 141.8 142.5 140.6 148.2 151.8 155.6 151.8 152.5 155.3 160.1 163.6 165 163.3 163.2 164.5 167.5 170.8 173.8 180.1 187.4 187.9 181.6 186.3 194.4 196.9 197.7 198.7 199.6 200.6 201.3 201.9 201.6 202.1 198.5 189.4 186.5 184.9 194.1 197.1 195.7 189
208.9 211.9 216.5 220.8 223.9 227.7 235.8 242.6 243.4 246.6 252 264.5 270.4 271.7 270.2 270 266.5 261.1 258.3 260.3 263.1 265.3 266.9 266 263.4 260.4 259.2 256.2 248.9 238.6 234.1 230.7 227 223.5 219.7 217.7 215.6 216.5 217.7 212.8 209.2 203.1 198.7 194.5 187.8 183.5 183.3 182 181.3 183.7 184.8 183.7 183 184.7 185.6 187.2 189.1 190.9 191.6 187.8 184.1 175.9 163.7 158.1 149.3 145.2 143.9 143.9 143.8 143.9 144.5 144.8 145.9 147.8 149.7 150 151 152.1 153.6 154.7 155.5 157.1 158.7 161.7 164.2 165.9 169.6 171.9 174.7 177.1 179.5 182.1 184.8 186.8 187 183.3 183.5 183.5 182.8 186.1 190.3 197.3 203 206 208.4 209 211.2 213.6 214.2 215.5 218.8 219.2 216.9 210.9 205.6 203.5 200 200.7 200.2 200.1 197.5 198.2 200 202.9 210 214.5 219.4 223.5 223.4 223.8 223.7 222 215.7 210.5 207.2 204.4 199.1 194.9 195.5 194.3 191.4 186.6 180.9 173.1 170.6 171 168.9 171 171.6 169.7 161.6 156.1 156.9 158.4 152.5 146.3 140.6 140.9 141.6 142.2 143.2 150.8 159.4 158.3 153.8 150.3 150.9 153.9 155.8 158 157.6 159.4 161.3 164.7 167 170.1 175.5 180 185.6 187.2 177.4 184.8 192.8 194.6 194.5 195.5 196.5 197.9 199.2 199.9 200.8 198.9 195.6 189.9 177.9 188 194.1 189 186 186.7
206 208.1 212.8 217.1 219.1 224.6 230.9 238.9 243.4 245.3 248.2 259.7 269 271 271.8 271.9 269 266.1 259 257.2 259.4 263.7 265.6 265.3 262.7 259.8 257.6 255 246.8 236.4 230.6 225.9 223.9 222 219.3 217 213.2 212.1 214.6 211.2 206.4 203.3 196.8 193.6 190.6 185.6 182.7 179.7 174.8 177.9 178.5 178.5 178.9 182.2 182.7 183.8 185.9 187.6 189.1 186.3 182.5 175.2 161.5 153.6 149.7 144.4 143.5 143.8 143.9 144 144.4 144.7 145.6 147.2 149.4 150.6 150.1 151.6 153.1 154.3 155.5 157.1 158.6 160.1 162.7 165.2 166.8 168.8 170.6 172.9 176.2 178.7 180.7 180.9 179.9 178.4 180.9 178.7 179.6 183.2 190.3 195.9 197.8 201.2 205.2 206.8 207.3 210.4 212.5 213 217.4 219.7 214.5 206.8 202 199.3 198.5 198.7 198.2 196.8 195.7 196.4 199.2 202.4 207.8 214.2 220.5 223.9 224.9 224.8 224.4 223 219.1 213.5 208.1 204.6 199.7 194.3 192.2 191 189.7 186.5 184.1 180.3 172.6 164.9 161.8 168.1 170.5 167.4 157.2 153.7 159.1 156.9 151 141.1 141.2 141.5 140 142.1 151 157.5 164.4 155.9 149.5 147.9 149.3 151.4 153.3 154.4 156.7 158.8 163.5 165.2 166.9 169.1 173.9 178.8 182 184.1 176 182.6 190 191.9 191.8 192.4 192.8 193.5 196.8 197.8 198.7 196.1 189.6 183.2 178.2 190.1 191.2 183.6 186.5 187
202.1 203.7 207.4 212.4 215.4 219.1 226.4 238.2 243.5 244.7 246.9 254 265.5 270.4 271.6 272.5 272.5 268.4 264.1 258.8 256.5 259.8 262.6 264.2 261.7 259 255.5 253.3 243.3 232.9 228.2 218.8 215.9 219.8 217.7 214.2 211.5 208.8 210.5 208 203.5 199.4 195.6 192.8 190 186.9 183.9 181.1 176.9 173.1 173.5 174.4 175.6 177.4 178.5 179 182.3 184 185.8 185.2 181.7 175.2 160.8 153 147.3 143.9 143.3 143.4 143.7 143.7 144.2 144.2 145.6 147.4 149.1 150 150.7 151 151.3 153.1 154.4 155.1 155.6 156.6 159.8 161.7 164.7 166.3 167.8 169.3 170.9 173.4 175.8 176.9 175.8 177.1 175.8 177.3 178.7 179.5 188.2 190.3 195.1 197.9 199.6 201.3 205 206.4 206.8 209.2 219.3 221.1 214.2 206 200.3 195.2 196.6 197.1 196.2 194.6 193.1 195.8 196.8 201.4 207 212.4 217.1 223.4 224.9 224.9 224.8 223.5 220.5 214.1 208.4 204.5 200.5 194.4 189.6 183.5 183.6 177.9 176.8 179.4 176.9 171.4 156.4 162.9 169.5 166.8 155.3 151.6 162.4 158.2 148.1 140.5 140.9 141.7 145 151.2 161.9 161.3 154.5 149.2 146.5 146.7 148.2 150.2 152.1 154.6 157.3 161.6 166 169.7 167.2 170.6 173.1 174.2 177.9 179.6 172.6 177.9 184.4 188.2 188.7 188 186.8 189.9 194.7 195.2 195.6 191.7 187.5 178.1 183.1 190.7 182.7 185.4 192.1 194.3
198.5 199.3 201.8 206.9 211.3 215.8 222 235.5 241.2 242.1 243.2 249.4 260.9 269.4 270.8 272.3 272.6 270.1 266.6 259.3 255.8 257.2 258.7 261.8 261.6 258.6 254.1 247.4 233.3 225.1 218.9 211.6 209.6 214.2 215.1 212 209.2 207.1 205.3 203 199.4 196.5 193.2 190.4 187.6 186.7 184.3 181.8 177.1 174.1 168.9 169.9 172.2 174.1 174.8 175.9 177.8 180.4 182.6 183.5 180.2 174 160.7 152.8 146.9 143 143 142.5 142.9 143.4 144.5 145.4 146.6 148 149 149.4 150 150.3 150.5 151.5 151.8 151.8 152.4 153.5 155.9 158.3 160.6 161.4 163.6 165.2 166.7 168.2 170.6 172.8 173.6 173.2 173.7 174.8 174.7 179.8 183.5 186.1 189.9 194.2 194.7 196.1 199.3 201.1 201.7 208.2 223.6 219 212.5 204.8 199.1 193.4 192.7 194.7 194.6 193.5 192.9 192.5 194.3 198.8 204.4 209.2 215.6 221.8 224 223.9 223.3 223.5 220.9 215.3 209.1 203.8 200.8 194.2 188 183 173.7 169.9 164.1 161.6 165 162.1 155.9 156.2 165 162.5 156 148 154.7 150.9 143.4 140.6 141.4 138.9 145.7 153.3 157 154.3 148.6 145.3 145.1 146.2 147.9 150.4 152.9 156.5 160.9 165.9 169.4 172.5 170.9 170 170 170.6 173.6 180.4 168.4 171.8 176.6 181.6 181.9 182.1 186.1 191.5 192.8 193.3 192.6 187.7 180.4 175.8 187.5 189.4 180.1 187.6 193.4 195.9
192.4 194.4 196.3 202.2 208.7 211.5 216.9 229.9 238.2 238.7 242 247.3 257.7 269.2 271.5 271.4 271.6 270.2 267.3 260.8 256.3 254.6 255.7 257.3 261.3 256.8 251.2 247.2 230.6 218.4 211.7 206.5 204.2 205.8 207.5 206.4 206 206.2 202.7 198.8 195.2 191.8 187.2 184.9 185.5 183.7 183.3 181.3 178 174.2 170 166.7 168.9 170.7 171.3 172.8 174.2 176.6 180.2 181.7 178.3 170.3 159.5 152.8 145.8 143 143 142.5 143.2 143.9 144.2 146.4 148.3 148 148.3 148.7 149.3 149.5 149.6 149.2 149.7 150.1 150.8 151.4 153.5 154.8 156.4 157.4 159.5 161.1 163 164.2 165.3 168.4 170.1 170 170.3 171.6 172.9 177.6 180.5 182.7 185.5 189.8 190.3 192.3 195.4 197 199.3 209.1 218.8 212.3 209.2 201.9 195.5 191.9 190.5 190 191.6 189.9 190.1 190.4 194.1 197.3 202.1 207.2 215.2 222 223.2 222.5 221.6 222.3 221.2 214.9 209.1 205.3 201.2 195.7 192.3 186.9 181.1 178 171.1 164.6 161.4 158.4 154.9 149.6 154.4 159.4 158.7 151 148.4 149.2 144.1 141 140.6 142.8 144.1 143.4 142.6 146 144.7 144.5 146.7 147.7 150.1 152.8 155.5 160 165.8 172.8 174.8 171.2 166.7 163.9 165.3 168.7 175.5 171.2 164.3 165.6 168.9 175.2 180.3 184.9 188.6 190.6 192 192.1 188.5 184 175.1 181.5 189.7 187 178.2 187.6 193.9 196.7
188.1 190.4 193.1 197.2 202.7 206.8 211.7 221.1 233 237.6 242.3 246.4 255.1 265.1 270.7 270.6 270.1 269.6 267 263.8 258.9 255.4 252.7 254.6 259.8 253 240.6 236.3 224.2 213.8 207.1 203.4 200 199.8 200.7 201.1 200.7 203 201.8 198.1 194.4 190.9 187.1 185.2 180.6 183.4 183.3 181.4 179.2 173.9 169.7 166.2 165.4 166.9 167.7 169.5 169.7 172.4 177 179.1 175.6 168.1 158.7 149.2 144.7 143 142.4 142.8 143.7 144.5 145.4 147.4 147.9 147.2 147.3 148 148.8 148.6 148.2 148 148.1 148.1 148.8 149.2 150.9 152 152.7 154.4 156.2 156.4 159 160.7 162.2 165 166.5 166.8 167.1 168.3 171.3 174.1 176.2 178.4 182 185.3 187.3 188.5 190.8 193.6 197.8 210 208 205.2 205.2 199.2 194.7 190.7 189 187.5 189.4 189.8 187 188 192.9 195.2 200.5 205 213.4 224.7 226.2 221.2 220.1 221.3 220.4 214.2 208.4 205.1 201.2 196.7 193.3 189.5 184.5 179.1 172.1 171.4 169.8 169.1 165 154.5 148.6 152.4 161.8 163 159.5 162.3 151.1 140.6 140.5 141.1 143.9 143 142.9 140.4 143.7 145.7 150 152.4 155.1 157.4 160.3 167.1 178.9 182.3 174.1 167.6 163.5 159.9 164.8 170.9 178.3 165.6 161.8 170.2 176.7 182.8 185.1 187.1 188.6 190.6 190.7 190 184.9 179.4 170.1 185 189.7 177 179.5 186.6 194.2 197.5
184.6 186.6 190 193.5 198.9 202.1 206.8 217.9 232.3 238 243 245.7 252.1 263.6 268.9 269.8 269.4 269.3 266.9 263.9 259.8 256.3 253.4 252 253.3 246.7 235.6 229 221.6 216.8 213.3 208 202.5 198.9 196.8 195.8 196.7 198.4 199.9 196.7 193.4 189.7 187.5 185.6 181.9 178.3 181.8 180.8 177.3 173.1 169.1 165.4 162.9 164 165.2 165.5 165.7 167.5 172.7 174.1 172.2 164.7 156.8 148.1 143.4 142.8 143.7 143.2 143.5 145.5 146.6 145.9 146.1 146.3 146.3 147.3 147.8 147.3 146.8 146.5 146.6 145.8 147.2 148.3 149.4 149.6 149.8 150.9 152.8 154.7 156.4 158.9 160.2 162.3 163.6 164.1 164 164.6 166 169.3 172.6 175 176.4 180.9 183.4 185.4 187.3 190.3 197 208.4 201.1 198.2 196.5 195.5 191.4 188.3 185.7 184.9 185.8 186.6 186.5 186.3 189.5 192.7 197.2 202.9 211.6 224.4 226 221.2 218.6 218.8 218.6 212.5 206.5 203.6 199.8 195.2 191 188 184.4 179.2 175.2 172 172.4 168.2 165.6 159.8 147.8 148.1 159.4 168.1 171.2 172.4 160.6 143.5 140.4 141.5 142 142.8 141.4 140.4 142 149.4 154.8 159.9 164.1 166.8 173.7 175 179 183.3 175.9 168 163.8 158.5 163.2 174.7 169.3 158.5 164.5 175.6 181.4 184 186.1 188.1 189.5 190 190.7 187.5 180.6 172.6 177.7 185.7 188.3 173.9 180 189 195.1 198.8
180.9 182.9 187.1 191.5 195 198.8 204.9 216.9 227.9 239.6 241.9 244.9 250.7 260.8 271.6 269.7 268.2 267.4 265.5 263.2 260.3 257 255 253.9 250.3 243.6 235.9 229.4 228.6 225.4 223 214.8 207.3 202.5 200.2 198.2 194 193.6 196.4 192 188.6 185 184.3 184.6 181.2 176.9 174.8 175.3 173.5 170.3 167.4 163.5 162 161.9 162.3 163.2 163.7 164.7 167.8 169.6 167.8 163.7 158 151.3 143.3 143 143.6 143.4 144.7 146.2 145.4 144.7 144.4 144.6 145.2 146.2 147.1 146.1 145.4 145 144.9 144.9 145.8 146.4 147 147 147.3 149.7 151.9 153.6 156.5 158.2 159.4 157.1 159.5 160.5 159 159.7 161.2 165.2 169.4 170.7 173.8 177.1 179 182.8 184.9 187.5 195.6 203.3 193.1 193 194.1 192.4 190.5 188.4 185.3 182.1 182.1 185 185.6 185.9 185.5 191.1 193.9 200.3 209.2 221 223.6 221.1 216.8 216.4 215.2 208.3 203.7 201.4 196.7 190.4 187.1 185.8 184.6 182.1 177.2 174.1 172.9 169.4 166.6 162.7 152.6 145.1 154.3 164.7 169.4 170.6 164.2 148.4 140.9 139.7 141.4 141.4 141.6 142.2 143.3 150.1 165.1 173.8 177.7 179.9 178.9 163.9 166.7 179.2 180.5 174.8 168.6 161.1 155.3 159.3 156.8 160.3 173.3 180.8 183.3 185.6 187.9 188.8 189.2 188.8 189.3 182.2 174.9 169.4 181 188.3 185.1 174.6 179.9 189.6 196.2 199.7
178.1 181.2 184.8 189.4 193.7 199.4 204.8 213.1 226.9 238.4 241.6 242.7 250.1 259.3 269.3 269.6 266.5 265.3 264.5 261.9 258.9 257.4 256.4 255.5 255.8 251.2 242.7 238.4 243.2 237.1 230.3 223.4 214.5 210 205 200.8 196.9 191.9 191.4 188.9 187 183.1 179.9 179.9 176.7 172.9 171.5 169.7 171 168.6 165 162.6 160.3 158.5 158.4 159.1 161.1 161.5 163.3 165.7 163.5 161.8 158.5 152.6 144 143.2 143.3 143.7 144.7 144.1 143.5 142.9 142.9 143.2 143.6 146.1 145.9 145.3 144.7 143.4 143.4 143.7 144.1 144 144.2 144.1 144.8 147.3 149 152.4 154.4 154.7 154.5 154.3 156.2 157.3 155.7 156.4 158.3 162.6 166.5 168.2 170.8 173.9 175.3 175.4 178.8 183.1 192.8 193.3 189.3 188.7 190.4 189.7 190 189.2 186 184.7 183.5 180.8 183 184.4 183.7 186.3 190.3 197.3 205.8 216.1 220.5 218.1 215.1 213 210.6 203.7 200.4 198.7 194.9 188.7 185.7 186.3 186.1 185.6 182.1 177.6 175.7 172 167.3 163.4 152.4 142.5 146.6 162.1 168.1 168 162.1 148.4 142.6 140.9 141.4 141.6 143.3 142.6 143.9 146.3 161 172.4 177 179.6 178.5 159.1 163.4 179.3 183 180.7 176.2 168 152.5 152.1 156.2 165.8 178.8 182.2 184.4 186 188.3 188.4 188.8 189.3 184.2 176.2 169.7 177.4 183.4 189.6 179.6 173.6 179.3 189.3 196.8 200.5
178.2 182.1 185.8 190 195.2 202.1 207.5 212.5 224.1 235.5 237.1 237.4 244 256 266.5 269.1 265.8 264.1 263 260 257.2 256.2 255.1 254.6 255.6 255.5 250.9 247.5 247.3 244 236.1 229.3 219.6 216.1 212.5 207.9 203.5 196.1 196.9 198.4 194 189.7 183.8 183 180.7 178.8 174.8 171 167.1 166.6 166 166.4 165.3 161.9 157.3 156.3 156.4 156.8 159.1 161.6 160.1 158.7 157.9 152.6 144.8 143.3 142.7 143.3 143.2 142.9 142.3 142 142.3 142.6 143.7 144.9 146.8 144.6 143.9 142 141.4 141.2 141.1 141.1 141 141.6 142.5 145.2 147.3 148.9 150.5 151.2 151.5 151.7 153.3 153.9 152.8 153.7 156.6 159.9 162.7 163.8 167.3 169.9 170.6 172 175.2 182.3 196.4 189.9 185.9 185.6 186.7 187.2 187.2 188.5 186.4 182.5 179.7 177.6 180.2 182.1 180.8 183 186.6 194 204.3 213.9 218.8 215.6 212.8 210.3 205.9 199.5 196.6 194.6 192.2 188.6 184.9 184.6 185.2 185.8 182.6 177.7 175.9 172.4 167.2 161.7 147.9 140.1 143 160 167.9 166.9 165.1 161.1 154.8 145.3 140.2 143.6 143.6 142.4 143.9 145.6 147.8 156.2 164.9 169.2 168.2 156.4 159.6 170.1 174.3 173.2 172.6 166.3 150.7 151.9 157.4 168.1 177.8 182.5 184 185.4 187.4 190.2 188.8 184.6 178 168.6 173.2 184.7 190.7 191.1 179.6 172.1 177.6 187.8 197.1 200.8
179.2 183.2 188.3 192 196.6 203.4 209.8 214.8 220.9 231.5 229.8 231.1 236 250.9 261.5 269.3 263.6 262.3 260.9 258.5 255.8 254.7 253.5 253.3 254.3 253.9 251.5 249.1 246.6 247.1 239.5 233.2 228.1 224 216.2 210.1 205.1 200.2 204.1 203.7 201.3 198.5 194.2 188.6 184.4 181.5 178.2 175.4 173.3 171.7 171.6 171.8 170.9 170.2 167.3 160.7 155.5 152.7 153.2 157.1 156.9 155.5 155.6 150.7 145 143.5 142.5 143.8 143 142.6 142.4 141.8 142.2 142.4 142.3 142.9 142.3 143 142 141 141.4 140.8 141.2 141 140.5 140.8 140.9 141.6 144.8 146.5 146.7 146.9 148.2 149.6 150.8 149.9 149.9 152.9 155 155.9 157 160.1 163.8 165.4 166.4 169 172.3 177.7 189.5 186.3 182.3 182.4 182.9 183.4 185 186.9 188.5 183.7 178.4 174.4 175.1 180.2 177.5 178.8 182.9 189 201.4 210.8 217.8 213.8 210 206.4 201.3 195.5 191.6 189.8 187.8 184.9 183.6 182.6 183.3 184.4 181.2 176.3 173.3 169.1 166.3 159.4 146.5 139.8 143.3 160.3 166.8 166 165 164.7 164.7 156.9 148.8 139.6 142.3 142.6 143.9 144.6 145.3 148.7 149.9 150.7 152.3 153 153.6 157.6 157.9 159.1 158.6 148.1 149.1 150.4 155.2 171.6 178.6 181.7 184.1 185.4 187 190.4 188.5 180.7 172.2 167.6 176.6 188.1 193.1 193.4 180.3 169.9 176.6 189.3 197.3 198.3
179.7 184.3 190.3 193.9 197.9 203.6 208.9 214.7 220.9 227.6 227.5 226.4 229 241.8 258.3 266.5 262.3 259.3 258.6 257 254 252.9 252.5 252.3 251.9 250.9 249.7 247.1 245.5 245.8 242.5 236.4 231.2 225.9 219.1 213.4 208.6 205.3 206.3 204.8 202.4 198.9 194.8 190.7 189.5 186.3 182.5 178.8 175.7 174.3 175.4 176 178 180.9 176.2 170.9 160.3 154.3 152.4 151.6 152.3 149.5 147.5 145 144 143.8 143.3 142.8 141.4 143.1 142.6 142 142 142.3 141.7 141.7 141.9 142.1 141.8 140.4 140.9 140.8 140.7 140.8 140.9 141.1 140.8 140.2 141.4 141.9 142.5 144 145 146.5 148.1 144.6 148.1 151.6 152.8 152.3 152.3 157.6 160 161.6 162.6 165.4 168.2 175.9 184.5 179.1 178.2 178.2 179.7 180.6 183.2 186.4 195.4 187.7 178.8 174.2 170.5 173.3 174.2 176 179.2 185.1 197.8 209.4 216.1 212.4 205.5 202.3 196.2 190.7 188.6 185.3 183.3 180.7 181 180.9 180.9 181.1 178.7 174.4 164.4 148.3 153.2 154 141.8 139.6 146.8 160.1 164.1 164.3 164 165.4 166 165.1 154.5 145.6 139.6 141.7 143.8 145.8 147.4 143.4 144.8 146.3 147.6 145.5 145.5 145.7 145.4 145.8 145.9 158.6 157.4 149.7 152.4 165.8 177.9 179.7 183.8 186.6 189.1 190.6 185.2 176.4 162.6 168.9 176.3 187 192.9 194.6 182.2 169.2 175.7 189.1 194.8 194.6
180.6 186 191.6 197.2 200.6 203.8 209.4 215.5 219.8 225.9 234.4 228.4 225.8 232.7 248.9 262.8 260.6 257.1 256.6 256 253 249.9 249.3 249.3 249.9 248.5 247.6 245.6 243.3 243.8 244.4 237.8 233.2 227.7 221.5 217.2 211.4 209.4 207.4 205.2 201.8 199.1 196.6 195 192.4 188 184 181.2 179.2 179 180.3 181.1 188.4 192.5 186.6 178.2 169.3 159.2 152.2 150.4 148.2 148.4 147 146 145.1 144 143.6 142.8 142.2 141.9 142.2 142.2 142.3 141.2 141.8 141.3 141.5 141.5 141.6 140.6 140.3 140.5 140.5 140.6 140.7 140.9 141 140 140.3 139.5 140.7 141.3 141.8 143.4 145 144.6 146.2 149 150.1 149.3 150.5 153.4 155.7 157.2 159.8 162.6 165 173.1 180.4 173.7 173.7 175.1 176.2 178.6 181.4 186.6 198.5 193.8 177.6 172 168.4 165.6 170.2 171.5 175.5 181.2 193 206.6 214.6 208.5 200.7 197.7 192.5 186.6 183 180.6 178.2 176.5 177.1 177.7 176.8 175.6 169.2 161.1 148.9 142.4 140.4 141.2 139.2 138.9 145.3 156.6 159.6 162.1 161.3 165.9 166.9 166.8 164.4 155.9 147.7 139.6 141.8 145.9 141.4 141.7 141.8 142.4 143.3 143.6 143.4 144.8 144.1 144.5 145.6 145.9 147.7 161.5 154 156.5 163.3 168.8 178.9 186.3 189.5 187.8 177.7 170.3 161 168.6 179.8 189.8 193.4 192.5 177.8 169.2 174.5 186.4 189.8 188.1
180.1 184 191 197.7 202.7 206.1 209.9 215.5 219.2 224.7 232.6 232.2 224.8 227.1 238.7 257 260.9 255.9 254.4 254.7 251.5 248.6 247.4 247.3 246.9 246.4 245.7 243.5 241.4 241 243.7 238.9 234.3 229.9 223.3 218.5 213.8 211 208.2 206.2 204 201.6 199.2 196.9 194.3 189.8 185.6 183.6 182.7 184.1 186.8 190.6 195.1 196.3 191.2 183.4 174.5 163.4 156.2 152.3 148.3 148.4 146.5 146.1 145.2 144.1 143.4 142.5 142 142.3 142.7 141.5 142 141.6 141.3 141.1 141.1 141.2 141.3 141.1 140.4 140.5 140.7 140.8 140.8 140.2 140.3 140.1 139.8 139.3 140.3 140.4 139.3 139.9 142.6 141.5 141.6 143.5 144.4 144.6 146.1 148.6 150.9 153.5 154.5 157.4 159.8 169.4 175 169.1 169.9 171.7 173.9 176.5 181.2 189 199.1 194 183.1 173 166.9 161.9 165.6 168.7 170.6 175.9 188.7 202.8 211.7 205.3 196 191.9 186.7 182.3 177.9 173.9 171 168.7 169.9 170.5 168.4 163 149.8 145.5 141.3 138.4 138.5 138.4 138.5 138.9 139.6 144.9 152.3 151 158.1 165.6 166.7 166.7 167.1 165 155.8 146.4 142.5 141.3 141.4 142.1 142.2 142.2 143.3 143.9 142.9 143.9 144.7 144.8 145.5 146.3 147.1 147 156.9 163.2 154.4 160.4 169.9 177.7 181.4 177.5 172.3 164.7 165.2 169.7 182.8 190.8 192.3 181.5 169.8 168.1 172.1 178.4 181.9 184.5
180 184.1 191.1 198.1 203.8 208.1 212.5 216.1 218.9 223.9 230.5 245.3 231.1 224.4 232.9 247.7 259.4 253.9 250.9 252.3 249.8 246.8 244.5 243.6 243.9 243.8 243.6 240.8 239.3 237.8 241.6 239.3 233.7 229 222.9 218.4 213.8 211.3 208.5 205.8 204.1 202.2 199.9 197.5 195 192 189.2 187.1 186.3 187.3 188.6 193 195.1 196.7 194.3 186.5 178.6 167.5 159.2 151.9 150.6 146.5 146.3 145.3 144.6 143.9 143.4 142.6 141.8 142 142.6 142.2 141.8 141.5 141.3 142.1 141.2 140.9 141 140.7 140.6 140.7 140.9 140.6 140.2 140.4 140 140 139.8 139.6 139.7 139.9 140 140 140.4 140.2 140 139.6 139.3 140.7 141.2 143.3 146.4 148.8 150 151.9 154 163.1 169.2 163.2 163.7 168.4 171.5 174.9 179.6 188.6 197.1 191.2 185.2 178.7 164 158.6 158.6 161.6 167 172 183.6 197.6 208.5 200.2 190.5 184.8 179.6 175.9 172.6 168.1 163.6 159.3 160.5 161.7 160 149.6 142.7 138 138.3 138.3 138.4 137 138.2 138 138.9 139.5 139.9 144 157.1 162.4 163.4 165 165.7 168.5 164.3 153 141.9 141.5 141.5 141.9 142.7 142.6 142.4 144.1 144 146.2 147.4 148.6 148.5 146.8 147.2 148.4 149.5 151.6 163 167 167.7 169.8 171.4 169.2 166.8 160 164.3 173.2 182.1 186.8 180.4 172.5 165.3 167.7 173 176.5 181.4 183.6
180.5 184.3 192.5 201.2 206.4 210.1 213.8 217.7 219.1 222.5 227.7 240.7 238.1 223.5 225.4 238.8 252.5 251.9 248.8 248.1 247.7 244.6 241.7 240.8 241 240.6 240.3 239.8 236.8 234.7 237.8 238 232.8 228.1 223.4 218.3 213.7 209.3 206.5 204.4 202.6 200.8 199 197 195 192.6 189.9 188.4 187 187.1 188.1 189.5 191.8 195.2 195.4 189.6 182.2 170.4 160.1 152.3 149.1 147.3 145.7 145.3 144.1 143.2 143.6 142.9 142.2 141.9 142 142.2 141.6 141.3 141.2 142.8 141.9 141.2 141.4 141.3 141.2 141.6 142.1 142.6 141.7 141.8 140.8 140.7 141.8 140.7 139.9 140.3 141 140.5 140.5 138.9 140.1 139.1 139.6 140 139.9 139.9 141 143.4 144.9 146.2 149.4 155.3 164.7 159.1 160.2 165.7 168.9 172.8 176.7 187.2 193.9 189.4 183.2 180.5 164.1 154.7 152.8 156.2 162 167.2 178 192.4 203.3 192.6 184.3 178.6 173.8 170.8 167.9 163.4 156.6 152 149.4 150.6 149.3 141.8 136.9 138 138.2 137.6 139.8 139.8 138.5 139 139 137.9 137.6 139.9 146.6 152.4 154 159.3 164 167.6 167.3 160.9 144.1 141.6 142 141.6 142.7 143.7 145.7 144.8 147.3 154.1 158 157.4 155.4 152.4 148.9 150 149.6 149.6 150.8 152.3 157.1 160.6 160 158.4 155.4 157.2 163.2 168 169.3 168.6 166.4 161.5 165.4 174.5 182.2 188.2 190.5 189.6
181.5 185.2 192.8 200.7 207.3 210.7 213.7 217.2 219.9 223.3 226.8 235.2 243.6 224.8 220.1 228.7 247.2 249 245.7 245.4 245.3 241.9 239.2 237 237.9 237.2 236.6 236.2 235.4 232.4 235.2 235.5 232.2 227.8 223.2 218.3 212.1 207.5 203 200.2 200.7 198.8 196.8 195 193 191.1 188.8 186.5 184.8 184.3 185.8 186.9 188.2 193.4 194.3 192.3 184.7 170.5 159.6 152.7 147.8 145.8 145.6 145.3 144.6 143.2 142.9 143.5 142.9 141.8 141.5 143.2 142.6 142 141.8 142 142.6 143.5 145.4 145.4 145 144.2 143.5 145.4 145.3 144.5 143.6 143 143.9 142.8 142.5 141.9 142.3 141.3 141 140.8 140.1 139.6 139.7 140.5 139.8 139.1 139.2 139.9 140.7 141.5 143.3 148.2 157.9 152.8 153.4 162.3 165.9 169.4 172.9 182.1 189.4 186.3 180.8 179 162.5 152.4 148.9 152.4 157.4 162.3 172.6 186 196.3 184.4 177.8 172.9 168.2 164.9 162.2 158.6 152.4 147.9 144.7 144 140.8 136.7 138.3 137.1 138.3 140.3 142.3 146.6 143.6 139.2 140 142 139.1 138.6 137.8 139.4 141.2 148.6 154.3 158.7 164.2 162.3 143.5 140.1 141.3 141.1 142.7 145.5 153.1 154.7 151.3 160.9 170 170.3 162.4 158.3 151.9 150.6 150.2 150.4 151.7 152.1 152.6 153.7 153.1 154 154.8 155.8 157.5 158.7 158.5 162 164.3 167.8 174.8 181.9 188.6 195.8 198 194.8
182.6 185.6 191.4 198.1 206.4 210.1 213.6 216.2 219 222.1 225.9 231.3 238.8 228.7 219.1 222 239.8 247.8 241.7 241.2 242.7 239.5 236.4 233.4 235.1 234.4 234.6 234.7 233.8 231.6 232.7 234.7 231.8 228 222.1 215.3 210.2 202.6 201.4 193.5 197 197.4 195.2 192.4 190.8 188.9 186.8 184.5 182.5 181.3 182.6 182.7 183.3 187.5 189.9 191.5 185.2 172.3 159.4 151.8 146.9 144.3 144.8 144.1 143.9 143.8 143.2 142.7 142.5 142.4 144.5 145.1 144.7 147.3 148.6 149.5 148.9 149.4 149.1 149.1 148.2 148.8 147.3 148.9 149.2 149.1 149.5 149.7 148.4 148.7 148.3 149.6 150.3 149.9 147.9 147.3 144.9 140.9 140 139.9 139.9 139.9 139.6 139.4 139.5 138.8 139.2 140.9 149.4 147.1 150.1 158.8 162 165 166.4 169.3 183.6 182.4 174.8 175.8 158.4 152.1 146.9 147.4 150.9 156.7 165.7 178.5 185.8 175.3 170.1 167.7 162.2 158.7 156.3 153.4 149.1 144.3 141.1 139.2 136.8 138.1 139.6 140.3 148.2 152.2 157.2 157.7 155.2 146.8 138.7 138.6 138.5 141.9 139.1 139.3 138.6 139.3 139.2 143.3 148.8 151.3 143.6 142 141.5 141.5 142.4 147.7 158.6 162.1 159.5 159 169.2 179.5 172 161.9 154.6 151.6 150.4 151.7 151.2 153.2 153 154.5 154 155.4 156.4 157.4 158.2 160 162.6 165.7 169.5 173.8 180.8 190.1 197.3 201.8 203 200
182.5 186.4 189.8 196 204.3 208.8 212.8 215.3 218.1 221.2 225.3 228.9 236.7 231.4 219.1 218.5 228.9 243.7 239.1 238.9 239.5 237.2 234.6 231.4 232.5 231.9 231.9 232.4 231.8 230.9 228.2 230.1 230.3 224.9 219.9 214.2 209 199 194.3 192 191.3 194.6 194.1 190.6 188.4 186.5 184.9 182.9 180.8 179.2 178.6 178.4 178.9 179.7 182.5 186.6 184.6 173.4 159.6 149.4 145.9 144.8 143.4 142.8 143 144.2 143.6 143.1 145.4 148.3 148.1 148.9 150.9 152 152.5 153.3 153.8 153.2 152.3 151.9 151.2 150.5 148.6 151.5 152.1 151.5 152.9 153.9 154.9 154.3 155.7 157 157.9 158.3 156.3 150.9 148.2 145 145 141.1 141.5 140.3 140.9 142.2 144.4 141.3 139.7 138.5 140.1 141 145.8 152.1 156.4 158 160.7 165.7 177.4 176.1 169.3 170.4 156.8 147.2 143.1 142.6 145.1 150.4 160.8 170.2 170.7 163.3 162.2 161.4 155 149.4 150.1 149 144.6 141.4 138.9 137.5 138 139.1 143.1 153.4 156.3 157.6 158.7 160.3 160.1 156.6 151.9 143.3 138.8 139.1 139.4 139.1 138.6 138.4 138.8 138.6 139.3 143.1 143.7 142.7 142.3 141.9 142.7 152.6 156 169.1 168.2 162.8 165.4 174.1 173.3 161.6 159.2 162.1 162.4 162.3 162.5 159.7 155.8 156.1 158.4 161.4 160.8 160.5 161.4 163.2 165.7 169.9 174.7 178.9 183.5 194.8 203.6 205.5 205.5 203.3
182.6 185.7 188.9 194.7 202.1 209.4 212.1 214.5 216.2 220.9 223.7 227.2 233.3 235.9 219.8 214.7 221.7 237.4 236.6 234 235.6 234.2 231.5 229.8 229.4 230.1 230.2 230.2 229.2 228.2 225.7 225.8 227.6 224.5 219.9 213.5 208.9 200.9 193.8 189.2 184.4 190.1 191.8 189.8 186.4 182.9 180.2 179.4 178.6 176.8 176.4 174.5 175.1 174.9 175.9 178.4 178.7 172.8 163.5 150.3 145.2 145.1 144.8 144.1 143.1 143.8 144.4 147.7 152.3 153.9 154.7 155.7 156.1 156.2 156.6 157.2 157.8 156.8 156.2 155.3 154.5 153.3 151.2 153.1 154.5 154.5 156.2 157.9 158.8 159.8 161.2 162.2 163 162.3 160.1 156.7 152 148.8 145.2 144 143.9 145.6 148 151.3 152.1 150.5 148.2 140.6 139.8 141.7 140.2 147.2 147.9 151.4 152.6 156.9 164.8 169.3 158.4 155.9 148.6 142.1 138.8 139.1 139.7 144.5 151.7 158.9 155.7 150.5 153.7 154.3 147.9 145.3 145.6 144.4 140.3 138.5 137.7 137.8 137.9 145 154.4 157.3 158.2 159.5 160.2 161.9 162.7 160.8 157.5 147.9 140.3 139.9 141.4 139.7 142.8 139.8 139.4 140 142.7 141.2 143.8 142.3 142.1 141.5 145.3 155.6 167.8 176 175.9 170.6 171.5 171.7 178.7 172.3 161.8 162.5 164.3 172.8 174.2 172.1 167.1 170.6 171 170.9 170.5 169.5 168.7 170 172.4 177.8 182 187.6 192.7 196.8 205.5 208.1 208.2 203.8
