ncols 200
nrows 93
xllcorner 100000
yllcorner 904700
cellsize 50
63.5 70.5 78.8 72.2 63.7 55.9 47.4 44.1 44.9 48.3 50.4 54.1 55.9 54 52.3 52.2 51.7 48.4 42.3 30.4 17.1 12.7 12.7 15.8 19.8 30.2 45.4 48.9 48.2 42.9 44.6 44.2 44.1 44.3 44.4 43.6 46.8 46.9 45 40.2 35.4 27.6 23.1 23.1 23.1 27.4 25.8 25.9 28.1 29.2 38.7 42.6 47 54.8 56.9 63.1 64.2 65.5 69.1 73.5 80 79.5 90 103.6 122.1 143.6 164 179.7 188.1 203.5 214.3 221.8 231.1 235.7 229.6 231.9 233.6 240.3 249 249 246.6 246.6 242.6 243.7 232.5 228.7 219 210.4 195.1 181.3 176.2 168.5 156 136.7 129.6 124 113.7 105.2 95.8 89.6 88.1 87.4 86.9 83 76 66.4 58.8 50.9 49.5 49.5 50.6 50.1 53.2 55.9 67 72.9 82.9 85.9 81.7 73 73.3 76.6 77.6 77.1 73.1 73.5 74 75 78.5 78.9 82.6 88.8 91.9 98.5 105.4 117.8 129.7 155.5 170.7 176.9 183.3 183.6 188.2 190.7 190.6 192 190.6 191.5 191.9 193.4 198.2 210.2 224.5 240.6 257.4 277.6 299.2 332.3 367.7 403 427 451.2 479.8 496.4 490.8 458.5 416 383.6 361.7 347.7 340.2 333.5 325.7 316.9 308.3 303.1 296.8 291.4 287.5 289 291.4 291.4 283.6 287.9 277.2 258.9 242 223.3 211.1 192.5 172.3 154.5 136.7 120.2 96 84.8 70.6 66.4 58.1 48.8
60 64.7 67.5 67.6 62.1 47.5 40.9 41.8 40.6 45.9 47.7 53.5 58 59 54.5 55.9 57.7 56.9 42.7 23.3 17.7 17.1 12.7 13.4 20.1 25 38.7 47.9 53.5 47.6 46 46.7 51.2 47 44.7 42.8 42.8 45.2 49.3 43.3 38.6 33.2 23.1 23.1 23.1 23.1 23.1 23.1 26.4 29.6 39.1 45.2 45.9 49 50.9 57.3 57.9 63.1 67.3 70.2 73.8 76.7 88.4 103.5 121.3 138 157.9 167.1 179.5 183.3 204.7 210.1 217.8 221.4 221.7 217.4 224.1 225.1 231.3 237.5 237.3 237.9 235.3 228.9 223.7 211.9 206.5 199.1 190.7 181.5 176.3 165.2 151.9 136.3 131.1 123.8 120.2 109 96.4 91.3 88.8 87.7 85.8 81 75.6 68.8 56 53.2 48.3 48.9 49.3 48.6 47.8 48.8 54.9 62.1 70 71.6 72.9 62.9 60.5 62.6 65 66.7 65.2 72.1 74.3 76.9 81.3 84.9 88 93.5 100.1 108.3 118.8 127.8 139.6 160.1 171.9 183.6 191.4 192.2 196.7 198.7 195.1 192.9 194.2 194.8 194.8 196.8 204.2 213.4 225.9 243 260.2 276.8 298.7 328.9 364.3 396.7 430.8 464 484.3 498.4 485.9 446.6 407 374.8 355.8 340 326.5 315.9 308.7 302.1 288.7 279.2 273.3 266.8 262.8 260.4 257.1 252.5 246.3 244.5 238.8 227.3 214.1 203.5 190.5 174.1 158.8 140.3 122.5 110.7 91.5 76.4 67 59.2 55.4 48.8
44.5 53.2 65.3 70.7 64.3 48.6 36.5 31.6 30.6 37 40.4 46.2 52.5 58.9 57.4 59 59.8 55.8 40.6 21.9 13.3 12.5 12.6 17.9 24.8 34.1 35 41.6 42.8 46.2 48.2 49.9 52.7 56.8 52.4 47.4 44.1 42.8 44.8 40.2 34.5 32.5 29.6 23.5 23.1 23.1 23.1 23.1 28.1 31.5 39.9 48 44.8 44.4 48.9 52.3 54 57.9 62.5 67.7 69.8 74.9 84.8 106.8 131.6 143 150 160.3 165.1 177.1 184.7 192.3 197.9 205.9 205.9 198 206.1 207.9 211.2 215.4 219.7 223.8 224.3 220.6 213.5 206.8 199.6 188.1 178 174.8 172.4 160.1 150 135 128.4 122.5 115.3 107.3 101.8 93.8 94.9 91 84.6 84.1 77.1 71.1 61.9 49.8 48.1 47.7 47.8 47.9 46.7 47 47.4 54.1 57.4 59.3 58.8 58.7 55.2 55.6 57.7 58.6 62.1 69.1 75.2 80.1 86.4 91.8 93.5 98.5 109.5 129 132.2 140.3 154.3 176.1 185.1 190.1 193.7 196.5 201.7 199.1 197.4 196.4 195.3 198.4 200.5 204 208.9 218 234.9 249.8 263.6 283.8 305.6 323.9 355.3 394 425.3 460.8 482 498.4 482.3 443.2 397.8 369.5 351.3 332.5 314.7 302.6 291.2 283.6 272 259.4 252.8 246.7 240.7 234 228 227 217.1 216.6 208.9 202 190.6 178.3 170.6 158.1 140.5 124.5 108.5 99.3 88.6 73.8 68.1 56.6 52.1 48.8
41.6 54.2 63.7 70.8 67.5 50.8 42.5 30 25.1 27.8 31 38.5 49.2 53.1 56.9 53.4 48.9 44.4 33.5 15.9 6.9 9.9 16.3 21.7 31.6 42.9 43.6 43.1 48.4 54.3 57.7 63.2 58.3 54.8 52.7 51.2 52.8 51.6 48.8 39 34.4 33.6 32.3 32.5 28.8 23.1 23.1 23.1 23.1 29.8 39.7 44.9 43.4 39.1 40.5 41.6 46.2 49.5 53.9 59.8 65.5 63 78.2 101.6 122.1 134 142.2 145.9 158.1 165.4 167.8 173.1 176.1 178.9 182.3 179.4 176.8 185.7 193 199.5 200.8 207.9 206.8 202.6 201.6 193.6 188.1 175.6 171.6 167.5 166 162.1 139.3 132.2 128 122.6 110.7 103.2 99.9 98.4 95.9 95.9 86.3 83.7 84.2 74.3 69 52.2 48.6 46.2 46.4 46.2 46.5 45.7 46.3 46.5 48.5 48.4 48.6 49.5 49.6 52.3 55.8 58.7 66.2 74 79.3 88.5 95.7 102.5 101 105.4 122.6 138 142.1 161.7 175.2 185.8 194.2 202.6 195.7 196.5 199.7 197.7 199.1 199.9 197.5 199.6 205.4 211.6 220.9 230.3 243.6 257.1 270.4 290.6 307.5 326.5 354.2 394.3 423.1 451.6 475.7 493 468.8 429.3 393 365 344.9 323.1 307.5 289.8 276.4 263.8 256.1 246.2 238.1 232.6 228.2 215.5 204.6 202.4 199.5 189.4 184.3 177.3 169.9 156.8 149.9 145.3 130.8 108.3 94.4 84.6 78.2 67.6 67.8 58.7 48.8 48.8
32.5 43.3 53.6 60.4 58.7 54.1 43.7 36.8 22.5 19.7 21.9 29.3 43.1 47.4 52 51.2 38.6 36.6 26.2 8.3 3 11 19.2 30.5 35.6 44.4 55.6 54.4 55.9 63.4 67.7 74.7 73.4 72.6 65.7 57 57.1 57 57 53.1 49.3 47 35.5 36.5 32.9 32.6 23.1 23.1 23.1 23.1 32.9 40.5 35.1 34.5 35.1 36.2 41.6 43.7 41.4 42.2 47.1 56.5 65.7 82.8 103 122.2 130.1 138.8 143.7 153.3 151.6 150.5 159.1 171.9 169.2 168.1 160.9 166.5 176.7 182.1 185.3 192.5 196.6 189.2 184.5 180.3 178.8 167.5 160.3 165.4 157.1 153.3 136.1 130.2 121.7 115.3 111.4 101.5 99.7 101.2 104.9 98.4 90.9 89.4 81.4 75.6 70.9 61.8 48.5 47.7 45.4 45.5 43.6 45.3 45.7 45.2 45.8 45.8 46.2 46.9 46.9 51.1 56.9 62 70.2 77 86.8 96.3 105.1 108.2 108.5 114.4 120.8 142.5 149.3 169 177.3 187.1 195.4 206.4 199.5 202.4 202.2 192.6 192.1 199.2 200.4 204.6 214.5 223.8 234.4 242.1 248 261.3 274.6 287.3 310.7 328 346.4 381.8 416.8 441.2 464.2 482.5 462.9 420.6 384.5 353.4 333.7 314.7 299.8 281.7 265.4 253.3 241.8 234.2 224.3 220.6 215.3 207.7 199.1 189.7 176 170.8 166.8 155.3 147.7 138.9 133.2 124.6 115.9 105.7 93.4 74.2 68.1 61.4 59.9 55.8 53.1 48.8
25.2 25.4 38.2 48.3 48.8 52.6 43.2 33.6 20.4 12.4 10.8 18.3 30.7 34.8 38.8 33.7 30.3 25.8 17.2 -2.1 -2.1 13 27.5 43.1 41.8 47.7 58.4 66.5 69.2 67 73.9 82.2 80.9 79.4 75.9 68.5 63.3 62.3 61.8 58.8 50.2 44.2 42.7 43.4 42.1 36.5 33.1 25.5 23.1 23.1 28.9 35.7 34.1 33.5 33.2 34.5 36.9 38.7 38.5 42.7 45.2 48.8 58.5 92.6 110.5 123.5 129.7 129.2 136.6 141.6 142.9 146.3 146.9 154 154.1 159.5 156.4 150.5 161.6 159.2 167.6 175.4 178.5 177.9 174.1 170.1 166.7 163.1 151.6 154.7 143.3 134.7 120.3 114.9 114.8 113.4 111.5 103.1 100.9 103.8 105.7 104.9 95.5 88.1 81.5 75.7 70.9 65 51.6 46.8 46.3 45.4 43.7 44.5 45 44.6 45.2 44.8 44.9 44.4 45.4 49.8 55.4 66.4 81.7 84.9 90.1 99.8 110.9 116.8 116.2 119.7 123.5 146.4 156.6 171 183.3 190.4 196.7 200.5 195.1 195.2 195.1 189.6 186.7 193.2 208.8 223.1 233.8 238.7 243.5 251.3 257.4 265.5 277 287.6 304.6 323.5 343.4 372 408.3 433 450.5 466.4 465.6 419.6 373.4 344.2 323 306.3 289 271.4 257.6 244.9 232.3 221.4 213.5 208.1 198.6 191.7 181 170.1 162.6 154.7 149.4 141.9 133.9 122.4 119.2 108.8 102.4 96.9 86.7 76.5 69.6 59.9 54.4 52.9 52.6 49.6
36.1 27.6 29.4 34.5 40.6 46.1 42.4 35.2 23.2 11.9 1.6 3.1 20.6 18.8 15.8 19.1 19.6 13.3 8.6 -2.1 -2.1 14.3 32.9 44.5 50.3 56.2 58.7 71.1 76.3 78.7 76.6 86.3 87.9 90.4 82.9 76.6 69.3 61.4 61.4 62 54 50.9 46.6 44.3 47.3 45.4 43.2 38.6 28.8 23.1 23.1 31 31.9 32.1 33.9 40.5 45.6 32.2 32.1 38.7 39.9 43.7 47.7 79.3 96.7 109.3 118.4 122.1 129.1 136.5 136.4 139 135.9 132.5 147 147.7 145.3 141.6 147.4 140.3 145.3 153.6 159.3 160.1 157 157.2 157.5 149.7 137.1 145.1 130.8 121.5 114.7 111.5 108.1 110.3 112.4 105.1 103.2 105.8 111.5 112.2 109.3 97.6 88 77.8 72.5 68.5 59.9 47.3 43.9 45.4 43.4 43.7 44 44.7 44.8 44 44 42.6 45 49.9 60.6 70 84.1 92.1 98.2 107.2 114.3 114.5 118.5 126.4 127.4 142.1 159.9 167.7 174.7 187.4 189.9 193.5 196.4 192.2 188.6 188.1 185 198.8 226 244.5 248.7 253.7 256.1 260.2 264.3 270 278.9 290 306.5 321.7 340 362.9 388.3 420.2 440.6 451.5 449 407.2 360.3 333.6 313.7 294.9 279.1 264.2 247.4 233.9 221.8 207.3 196.3 187.4 181 173.5 163.3 155.8 148 140.9 134.7 132.3 123.4 113 109 103.3 96.5 88.8 80.6 72.8 66.1 59.6 52.3 50.2 50.3 54
42.6 52.2 37.4 36.8 41.9 46.6 49.1 39.9 29.9 9.1 0.6 -2.1 -2.1 -2.1 6.7 4.5 -2.1 -2.1 -2.1 -2.1 -2.1 2.2 22.5 40 57.6 59.4 67.4 68 78.3 84.2 88.2 89 94.3 94.8 83.7 78.5 71.5 64.9 62 60 57.4 49.7 47.3 47 48.1 47.2 45.4 41.8 37.4 28.8 23.1 28.1 31.3 25.2 24.6 27.5 29 28.8 27.6 33.3 36.3 37.8 39.8 63.1 83.3 95.7 104.6 110 118.9 121.3 120.4 123 124.5 127.6 125.7 132 133.6 135.5 128.6 129.8 133 132.8 134.3 138.3 138.8 135.9 140.8 133 121 117.6 110 108.2 113.7 123.9 106.3 102.8 110.3 114.2 107.2 109.1 113.8 114.4 111 101.7 96.7 89.1 80.9 72.3 63.4 48.1 44 43.5 44 42.6 43.5 43.2 44.4 44.4 43.9 43.5 47.3 53.1 63 75.3 86 94.6 103.8 111.6 121.8 120.5 123.3 125.9 131.3 148 159.7 172.7 182.7 178.4 181.1 187.3 187.3 187.7 185.7 183.2 185.4 210.5 232.1 265.2 262.7 262.4 263.2 266.4 271.8 280.3 283.6 292.6 308.1 324.2 337.6 355.6 382.3 403.3 424.7 440.7 434 393.6 352.2 322.4 301.8 284.7 272.8 259.1 242.8 227.6 212.8 200.3 189.6 178.7 169.5 160.4 151.3 145.5 136.6 132.3 126.6 120.5 112.8 105.2 101.1 95.1 91.2 83.5 73.8 67.1 62.2 54.6 52.7 51 50.2 51.5
36.2 48.3 35.4 35 41.8 43 43.7 41 39.2 29.9 5.3 -2.1 -2.1 -2.1 -2.1 -2.1 -2.1 -2.1 -2.1 -2.1 -2.1 -2.1 17.6 37.1 49.2 63 70.1 76.2 84.2 88.3 93 95 99.7 97.8 88.9 80 76.8 70.2 59.5 60.8 60.1 54.6 49.5 47.9 47.9 48.6 48.1 45.1 42.2 33.9 23.1 26.8 30 26 23.7 24.1 24.2 24.2 25.6 29.3 34.2 35.4 35.8 44.4 68.1 82.8 87.8 93.2 101.2 105.4 104.2 106.4 106.1 108.7 107.4 116 116.5 121.2 118.1 121.5 121.7 121.2 127.3 131.6 128.1 127.4 121.7 122 112.9 105 98.9 96.6 104.7 109.6 100.6 103.9 103.2 109.2 121.5 118.7 119.7 116.7 111.8 108.1 100.3 96.5 88.8 79.3 67.7 54.1 44.6 42.7 43.1 42.7 41.4 40.9 43.2 44.5 43.9 45.6 47.3 54.5 66.9 84.2 96.5 107.8 112.3 116.7 119 129.6 129.9 128.8 138.2 153 167.6 173.9 176.1 177.6 178.3 183 180 180.9 185.1 178.3 184.4 200.9 231.7 261 267.6 268.6 273 276 279.5 289.3 294.7 297.9 310.4 322.9 334.5 350.7 371.8 390.6 414.8 428.6 433.9 388 341.8 314.2 295.4 277.3 266.1 256.4 245 231.5 216.5 201.9 188.9 181.3 172.3 159.7 150.1 137.5 128.4 121.5 117.3 112.4 103.2 97.1 93 89.5 83.5 77.1 68.4 64.5 59.1 53.3 52 50.9 50.6 51.2
34.6 39.9 32.7 32.9 44.3 45.2 42.1 38.3 36.8 35.8 15.1 -2.1 -2.1 -2.1 -2.1 -2.1 -2.1 -2.1 -2.1 -2.1 -2.1 -2.1 11.3 29.5 55.1 64.6 72.9 82 87.7 93.6 93.6 97.5 105.9 101.3 96.7 87.3 79.1 72.4 65.8 60.1 61.4 58.1 56.3 55 52.9 49.5 48.3 46.7 46.1 36.3 30.8 28.4 27.1 25.9 24.6 23.2 22.9 24.1 24 24.9 29.5 34.3 32.5 39.3 57.9 69.5 76.7 78.8 84.6 89.4 88.6 89.1 90.8 93.1 95.5 98.2 104.1 112.4 108.2 115 111.5 106.4 113 118.1 117 113.7 111.8 113.3 108.9 97.4 93.4 93.3 94.2 96.1 95.4 100.6 107.1 111.2 120.8 121.3 121.2 118.1 119.3 113.2 107.3 98.2 94.1 85.6 71.4 61.1 45.6 43.2 42.8 41.7 40.9 40.9 40.9 42.4 41.7 43.2 48.1 56 68.4 85.6 97.9 110.6 118.5 120 122.4 127.1 135.5 138.9 142.2 150.4 167.8 171.2 176 174.6 175 179.6 178.9 179.9 178.3 178.3 185.1 200 236.5 259.8 271.7 273.3 290.9 297.6 295.4 295.9 297.4 303.8 310.9 323.3 337.6 355 365.6 386.1 407.6 419.8 426.9 389.2 344.7 314.3 294.3 273.5 263.4 258.3 251.1 245.7 231.8 216.5 200.3 189.5 181 173.4 160.9 144.6 131.5 118.5 104.2 104.2 97.8 91 85.2 82.2 78.3 71.5 65.7 61 59 54.7 51.4 51.8 52.1 54
27.8 34.5 30.2 29.8 38.3 45.3 45 39 34 33.2 31.6 -2.1 -2.1 -2.1 -2.1 -2.1 -2.1 -2.1 -2.1 -2.1 -2.1 -2.1 11.6 34.6 53.5 64.9 72.1 81.8 85.6 98.2 98.3 100.2 107.7 102.1 97.2 93 90 80.4 72.4 66.3 64.8 60.9 57.8 57.5 59.7 53.2 52.7 46.6 45.5 42.6 42.1 35.6 26 23.9 25.7 25.4 21.2 23.5 22 24.2 25.9 29.3 26.7 29.3 45.1 56.2 61.1 65.3 71.7 73.4 72.2 72.1 72.6 75.1 80.9 84.8 87.7 93 93.3 100.7 101.8 97.2 94.1 99.5 101.2 102.1 101.5 98.7 99.3 90.9 90.6 97.1 93.9 92.7 94.9 102.5 105 111.2 118.2 123.6 120.8 118.2 121 116.9 113.1 106.3 100 87.7 76 68 48.7 44.6 43.3 40.9 40.9 40.9 40.9 40.9 40.9 40.9 45.7 57.4 69.3 86.1 99.7 108.6 118.1 121.3 126 134.2 146.5 147.6 143.3 152.6 164.5 171.2 169.7 171.3 181.1 181.2 182 183.5 178.3 178.3 187.5 207.3 227.5 258 272.5 283.5 306.6 323.8 318.3 306.6 307.2 309.9 317.2 320.7 335.7 346.2 363.2 379.1 394 413 425.8 397.6 356.4 320.7 295.3 277.7 268.6 263.8 261.4 259.6 265.5 244 235.7 208.4 202.5 197.4 185.5 155.7 139.1 124.3 108.8 95.3 86 85.4 80 75.4 69.9 65.8 62.2 57.5 55.2 53.1 52.1 49.5 52.3 54.4
22.5 26.4 28.3 23.1 27.8 38.1 42.5 35 32 29.4 27.2 20 12.8 -2.1 -2.1 -2.1 -2.1 -2.1 -2.1 -2.1 -2.1 -2.1 23.9 37.5 53.1 66.3 69.2 79.6 85.8 97.4 101.2 98.3 101 97 95.8 94.9 89.7 85.5 82 70.8 67.4 62.9 60.2 54.3 52.1 50.7 51 48 45.7 40.9 39.6 33.8 31.3 20.1 20.1 20.9 20.1 20.1 20.1 20.1 24.3 26.5 25 25.3 30.5 37.4 46.1 52.2 59.3 58 59.1 58.9 60 63.3 69.2 72.2 73.3 78.5 79.3 86.5 87.9 86.4 82.6 78.8 85.8 87.5 88.4 87.2 85.2 87.4 88.2 97 98.2 93.3 97.1 100.2 103.2 121.4 131.5 123.8 120.7 120.9 119.9 120 117.3 108.4 98 89.3 78.9 68.9 54.8 47.2 40.9 40.9 40.9 40.9 40.9 40.9 40.9 40.9 43.8 53.7 68.8 97.2 101 110.9 121.7 126.4 132.7 143.2 155.3 148.8 150.4 149.9 159.4 167.3 168.8 174.8 178.1 179.9 184.7 182.6 178.3 179.7 194.8 216.4 233.7 264 288 294.3 317.1 327 329.3 326.3 315.1 315.8 317.9 324.2 335.5 346.3 366.6 380.6 390.4 412.3 425.2 405.3 373.1 327.5 299.6 285.2 275.6 270.6 267.6 272.1 275.7 267.9 253.4 233.3 227.8 222.9 211.8 182 157.8 132.7 114.1 97 86.3 76.9 73.8 70.9 66.9 62.7 58.7 56 51.9 51.3 51.5 48.9 53.8 55.7
12.7 17.3 14.6 18.8 15.3 23.4 28.9 25.2 21.7 22.7 17.2 12.6 8.9 -2.1 -2.1 -2.1 -2.1 -2.1 -2.1 -2.1 -2.1 -2.1 23.8 38.3 44.9 56.9 63.1 72.4 80.5 93.4 95.5 95.9 98.7 94.1 94.5 90.5 88.2 87.9 83.9 79.9 72.4 64.5 60 56.5 50.8 47.5 45.1 41.9 40.7 39.1 36.6 32.3 29.8 21.3 20.1 20.1 20.1 20.1 20.1 24.6 25.6 27.2 25.8 23.7 24.7 30.4 33.9 39.6 44.1 44 46.4 46.9 44.6 45.7 51.7 59.8 63.6 62.6 72.4 73.3 75.3 73 69.3 68.2 66.1 71.1 74.3 74.2 74.4 83.7 88.5 95.8 103.7 102 103.6 111.8 113.2 125 133.7 131.5 121.8 120.4 122.2 122.9 118.5 110.3 100.2 91 81.1 70.8 64 48.9 43.5 40.9 40.9 40.9 40.9 40.9 40.9 40.9 40.9 51.5 66.7 89.6 103.5 111.6 125.9 135.2 139.1 142.7 149.6 152.3 154 150.1 156.3 159.6 169.8 172.7 174.9 179.9 185.2 184.6 178.3 189.3 216.3 228.4 244.6 271.8 290.1 308.8 319.7 324.8 325.9 324.1 322.6 319.8 322.2 327.2 335.3 344.8 363.6 382.8 398.8 426.8 439.9 415 371.3 334.9 307.3 291.4 282.8 276.7 274.1 284.7 284.4 276.3 254.6 245 242.1 238.5 237 216.5 188.8 150.7 124.3 99.3 85.4 74.8 68.5 66.3 63.9 59 55.9 52.9 51.2 49.7 46.8 49.6 52.3 54.8
0.6 1.8 -2.1 4.1 -2.1 -2.1 9.2 13.2 10.7 13.9 13.9 3.3 -2.1 -2.1 -2.1 -2.1 -2.1 -2.1 -2.1 -2.1 -2.1 1.7 17.6 28.2 37.5 48.1 62.3 66.7 76.4 85.2 89.5 94.8 96.6 92.7 92.5 90.7 89 90.3 85.6 80.7 76.9 67 61.8 60.2 54.4 49.2 45.1 43.2 42.7 40.6 36.1 31.9 30.4 20.1 20.1 20.1 20.1 20.1 20.1 20.1 25.6 25.8 25.9 22.7 24.1 26.8 29.3 32.6 32.7 33.2 36.4 35.7 33.6 39.5 44.7 47.7 54.3 51.7 59.2 63.5 64.7 63.5 63.9 57.6 58.3 55.6 63.7 67.5 71.2 82.7 88.3 93.5 99.9 106.8 109.5 118.5 127.9 132.9 137.6 133.2 131.6 128.7 131.3 125.2 122.4 111.7 101.8 91.1 80.5 76.8 73.4 49.1 43.7 40.9 40.9 40.9 40.9 40.9 40.9 40.9 40.9 40.9 66.5 81 99.8 108.7 117.8 126.5 141.4 147.9 162.1 160.4 159.4 155 156 158.8 168.8 171 173.2 178.1 182.4 182.9 183.7 192.1 213 237.1 265.5 289.6 309.7 318.5 333.8 334.8 343.4 335.7 332 331.6 335.2 335.1 342.3 350.3 362.8 380.9 402.9 431.1 448.3 416.3 376.1 346.5 321 304.1 292.5 282.4 280.9 283.6 290.3 280.1 256.5 249.4 248.7 245 251.5 234.9 206.9 174.8 129.2 101.5 84.6 73.8 66.3 62.5 61.4 56.9 53.8 51.4 49.3 48 49.6 50.9 52 53.7
-2.1 -2.1 -2.1 -2.1 -2.1 -2.1 3.2 4 -2.1 7.5 -2.1 -2.1 -2.1 -2.1 -2.1 -2.1 -2.1 -2.1 -2.1 -2.1 -2.1 6.5 21.7 37.1 45.4 47.7 58.1 63.4 68.2 77.9 86.5 91.3 93.3 93.9 93.6 92.3 95.1 94.1 90.5 83.3 80.3 70.6 66 59.3 54.7 50 47.7 46.1 45.3 40.4 38.6 34 27.8 24.4 20.1 20.1 20.1 20.1 20.1 20.1 20.1 20.1 25 23.3 24.4 26.7 28.7 29.9 28.5 31.7 29.2 29.8 30.2 35.1 37.3 39 45.3 47.5 50 53 54.6 53.6 54.6 52.1 47.3 50.8 58.7 60.7 65.3 72.7 83.6 87.5 95.5 104 107.2 121.9 128.7 133.9 137 139.8 132.7 137.3 135.2 132.7 125 112.8 102.2 92.2 82.3 76.7 73.7 53.2 47.8 40.9 40.9 40.9 40.9 40.9 40.9 40.9 40.9 40.9 56.6 78.8 85.4 103 107.2 118.8 130 141.9 160.4 157.2 162.7 162 159.7 159.7 163.7 168 171.6 178.3 182.4 186 184.5 195.6 218 246.3 282.8 323.5 337.1 346.1 351.6 362.5 370.3 366.2 357.4 352.8 350.7 350.8 353.8 361.1 371.8 390.6 409.6 430.7 450.7 443.5 384.6 350 335.9 317.3 300.3 290.7 286.5 283.1 290.8 284 265.9 251.6 247.4 247.9 254.5 250 229.4 193.3 137.5 103.3 85.5 73.3 67.8 61.4 57.8 55.5 51.8 49.2 47.9 44.3 47.4 49.2 50.8 51.6
-2.1 -2.1 -2.1 -2.1 -2.1 -2.1 -2.1 -2.1 -2.1 -1.7 -2.1 -2.1 -2.1 -2.1 -2.1 -2.1 -2.1 -2.1 -2.1 -2.1 -2.1 7.8 21.2 36 45.7 47.6 55.8 58.4 63.1 72.5 84.1 89.4 88.7 93.7 96.7 97.1 99.9 101 96 89.5 79.7 75.2 67.7 59.4 54.4 50.9 49.6 47.7 44.3 42.9 40.3 34.6 27.4 24.3 20.1 25.2 24.7 22.1 20.1 20.1 20.1 20.1 20.1 22.4 22 22.8 27.9 27.4 26.5 25.9 28.2 28.6 29.3 31.3 34.5 35.6 40.1 39.1 40 43.5 42.4 42.3 43.7 44.7 42.5 45.6 47.2 55.6 59.6 65.5 73.7 81.6 95.6 102 107.7 124.7 127 133.5 142.2 137.1 133.2 134.5 138.7 133 126.3 115.4 101.6 88 79 75.7 71 57.3 48.7 40.9 40.9 40.9 40.9 40.9 40.9 40.9 40.9 40.9 43 63.9 75 87.4 94.7 108.2 122.4 131.3 147.5 150.7 154.1 161.9 158.1 152.1 157.2 163.5 167.8 174.9 189.3 187.2 188.1 202.8 228.4 271.7 312.5 333.4 346.6 358.3 370.4 386 400.1 405.4 417.7 395.1 385.2 386.4 382.5 383.4 391.3 402.4 418.8 440.6 454.1 457.5 406.1 365 335.8 325.3 311.2 300.2 294.5 287.9 286 282.2 265.4 251.8 248.9 249.6 256.9 256.4 254.2 207.5 147.6 105.5 86.4 74.9 68.6 60.4 57.1 53.6 51 48.2 46.4 43.3 46.3 47 49.2 49.9
-2.1 -2.1 -2.1 -2.1 -2.1 -2.1 -2.1 -2.1 -2.1 -2.1 -2.1 -2.1 -2.1 -2.1 -2.1 -2.1 -2.1 -2.1 -2.1 -2.1 -2.1 5.9 18.1 27.8 35.7 45.1 53.2 55.3 58 65.6 74 82.4 82.3 89.4 97.2 100.3 101.8 100.6 96.7 91 78 71.7 66.5 60.4 56 50.3 47.9 45 41.7 45.3 41.9 34.2 26.1 20.1 20.7 20.1 24.1 31.4 30.9 32.4 30.3 27.9 30.6 32.1 27.7 23.6 22.8 25 24 24.8 27.8 28.1 28.6 31.7 33.2 33.2 33.9 37.1 35.6 36.2 38.4 41 38.2 40.6 41.5 40.6 42.8 47.5 50.8 57.1 61.5 66.4 82.4 99.5 103.4 113.8 123.9 130.3 136.1 132.2 132 127.7 134.6 135.1 131.1 118.4 101.7 87.9 78 71.7 65.2 57.5 40.9 40.9 44 40.9 40.9 40.9 40.9 40.9 40.9 40.9 40.9 44.7 61.1 69.5 82.3 98.2 112.2 121.7 130.3 138.2 150.4 161.4 153.4 145.1 151.5 159.3 166 175.2 185.2 183.3 191.1 213 254.3 299.5 327.7 343.3 358.4 373 384.5 399.6 421.8 430.8 438.7 444.8 432.6 434.8 422.3 425.3 421.6 429.1 443.9 462.2 464.5 456.3 420.5 386 353.8 335.3 319 312.4 307.4 300.6 286.9 280.4 271 258.4 252.2 253.8 265 263.3 262.5 203.8 150.7 109 88.8 76.7 67.4 61.2 55 52.2 49.5 48.1 45.6 43.7 43.8 45.6 47 47.9
-2.1 -2.1 -2.1 -2.1 -2.1 -2.1 -2.1 -2.1 -2.1 -2.1 -2.1 -2.1 -2.1 -2.1 -2.1 -2.1 -2.1 -2.1 -2.1 -2.1 -2.1 5.3 18.1 30 36.2 46.8 53.8 56.2 56.8 63 73.8 80.7 84 93.8 99.1 104 104.9 105.1 98 88.2 83.1 73.8 65.9 60.1 55.2 48.1 48.9 51 49.2 45.2 39.9 32 29.9 28.6 25.6 24.7 29.9 33.6 39.5 44.1 44 36 30.6 34.8 37 37 28.1 19.1 23.5 26.2 27.7 28.5 27.8 28.9 32.1 31.6 31.2 31.5 31.4 30.3 34.3 39.2 37.2 35.1 36.2 34.3 36.8 37 38.8 49.6 50.6 45.9 65.5 80 91 94.6 109.5 115.6 126 128.4 133 126.3 129.2 133.2 131.1 120 108.4 89.5 78 69.5 65.3 57.3 35.8 47.4 53.3 45.8 40.9 40.9 40.9 40.9 40.9 40.9 40.9 40.9 40.9 52.6 65 81.3 95.2 111.7 120.8 130.6 143.4 154.3 141.2 140.4 146 154.7 164.1 171.8 181.5 181 195.4 228 267.8 299 325.3 345.9 363.3 382.4 395.8 412.9 432.7 451 461.6 473.5 471.9 472.2 465.8 466.1 462.3 462.5 464.5 465.8 462.7 455.4 432.8 395.6 369.1 350 334.7 326.4 316.3 307.8 297.2 284.1 276.4 266.7 257.8 259.7 265.5 263.8 267.9 226.6 151.1 105.8 90.3 79.2 70.3 61.7 55.5 51.7 49.1 47.4 45.3 43.3 41.2 45.8 45.7 46.5
-2.1 -2.1 -2.1 -2.1 -2.1 -2.1 -2.1 -2.1 -2.1 -2.1 -2.1 -2.1 -2.1 -2.1 -2.1 -2.1 -2.1 -2.1 -2.1 -2.1 -2.1 -2.1 17.2 25.9 34.4 42.2 46.6 50.9 55 62.8 68.7 73.5 85.5 92.4 96.9 105 105.1 105.6 101.5 89.7 80.1 76.8 66.8 60.9 55.9 51 49.2 50.8 54.9 51.5 40.2 34.4 30.7 28.2 28.5 26 23.1 32.1 36.5 37.7 36.9 37.4 36.6 35.7 39.8 41 44.2 31.8 27.1 18 25.8 25.7 26.7 26.8 25.1 26.8 25.7 29.5 28.2 22.5 22 28.6 34.8 34.7 31 30.3 26.9 28 24.5 29.4 36.6 35.2 44.6 60.8 75.3 83.6 95 110.6 113.8 121.5 123.2 119 122.5 131.7 130.2 122.9 114.6 97.5 80.3 68.8 63.6 58.5 45.5 43.9 55.9 55.7 47.5 40.9 40.9 40.9 40.9 40.9 40.9 40.9 40.9 40.9 63 71.3 88.4 99.4 110.6 123.6 137.9 145.9 137.1 135.2 140 148.9 158 171.3 172 179 205.6 228.7 269.3 297.6 320.8 343.9 362.5 383.4 400 420.4 439.2 457.7 474.2 487.3 495.5 497.3 493.7 489 483.9 477.8 472.7 465 456.4 447 436.6 414.5 394.9 369.3 354.6 342.3 333 316.9 303.5 290.3 280.6 270.2 261.8 260.9 265 263.9 272.1 236.1 139.6 109.8 92.5 82.3 72.3 63.9 54.6 50 45.9 45.2 43.4 42 41 44.6 44.3 44.1
-2.1 -2.1 -2.1 -2.1 -2.1 -2.1 -2.1 -2.1 -2.1 -2.1 -2.1 -2.1 -2.1 -2.1 -2.1 -2.1 -2.1 -2.1 -2.1 -2.1 -2.1 -2.1 10.6 19.5 28.6 36.9 43.4 47.2 54.2 62.2 63.7 66.6 75.4 84.3 92.3 97.8 104.6 104.8 101.9 93.6 78.5 66.8 68.3 59.4 53.7 50.7 50.7 45.8 43.9 41.7 35.8 32.6 30.1 25.4 23.1 23.1 23.1 23.1 30.3 34 34.7 37.6 37.2 38.5 38.4 43 48 40.3 40.5 32.5 26.2 16.7 20 22.9 19.2 20.6 21.9 28 23.3 16.1 15.6 16.3 26.5 29.5 27.5 23.7 15.4 17.1 16 12.7 19 28 36 50.5 67.9 78.3 78.2 95.2 109.8 111.7 114.7 115.9 122.1 129.7 127.9 125.6 119.3 99.3 82.7 69.9 63.3 60.1 49.2 39.4 51.2 58.6 53.1 49 46.9 40.9 40.9 40.9 40.9 40.9 40.9 40.9 46.3 59.2 74.4 92.5 104.4 118.8 136.6 140.9 134.7 132.6 134.9 141.5 149.9 161.1 171.1 181.1 205.6 233.3 268.7 295.2 320.2 342.2 367 387.9 404.6 423.7 445.1 464.8 481.7 491.6 498.9 505.4 507.6 501.7 490.8 479.9 471.7 461.7 451.1 436.8 427.1 416.9 405.5 398.6 385.4 375.8 354.5 338.7 311.4 296.8 284.4 271.8 261.5 255.2 255.7 255.6 264.1 225.6 141.1 113.5 95.3 82.6 73.2 63.5 54.1 46.5 42.7 42.5 42.6 41.2 40.6 42.2 42.5 43.8
-2.1 -2.1 -2.1 -2.1 -2.1 -2.1 -2.1 -2.1 -2.1 -2.1 -2.1 -2.1 -2.1 -2.1 -2.1 -2.1 -2.1 -2.1 -2.1 -2.1 -2.1 -2.1 11.4 18.3 25.8 34.3 39.4 45.7 51.4 61.8 61.7 66.7 69.8 74.3 80.5 90.3 99.7 105 103.2 95.5 92 77.7 61.1 52.1 47.5 42.5 47.1 49.1 45.9 42.2 34.8 29.4 27.1 25.2 29.4 23.1 23.1 23.1 23.1 26.8 33.1 38.1 37.1 38.6 39 40.7 47.1 50.6 43.2 40.3 35.8 23.7 14.7 11.8 12 12.1 19.4 21.2 19.3 17.3 10.8 11.3 14.6 22.2 21.7 15.6 12.2 6.9 4.4 5.1 12.5 21.6 27.4 38.4 50.7 61 69.2 82.8 99.6 106.6 109.6 111.2 121.5 124 128.7 125.3 118.9 106.9 82.6 66.4 58.7 61.4 51.5 31.3 45.4 60.7 58.8 59.4 56.5 57.8 45.4 40.9 40.9 40.9 40.9 40.9 40.9 44.4 66.7 85.5 96 115.7 136.8 145.7 130.3 127.9 133.6 140.6 152.6 154.4 171.7 186.1 212.3 240.2 267 294.6 319.7 344.3 366.2 389.9 407.6 425.2 448.5 462.4 479.1 488.7 492.6 504.3 509.6 507.9 494 480.7 470.5 457.9 443.5 428.7 420.1 406.1 399 401.9 398.3 400.9 385.8 356.1 327.2 307.9 293.4 275.8 259.6 249.3 240.3 235.4 247.6 204.1 142.5 115.8 99.1 86.3 73.8 66.1 54.4 47.3 42.1 41.2 41.2 40.1 40 40.4 42 44.9
-2.1 -2.1 -2.1 -2.1 -2.1 -2.1 -2.1 -2.1 -2.1 -2.1 -2.1 -2.1 -2.1 -2.1 -2.1 -2.1 -2.1 -2.1 -2.1 -2.1 -2.1 -2.1 12.9 18.2 22 30.4 38.8 48.1 53.2 57.8 59.4 59.4 58.8 72.3 81.3 88.4 91.4 95.4 96.9 94.5 92.6 87.8 71.4 57.7 49.4 42.5 42.5 45.9 50.4 44.1 41 38.9 34.3 28.6 30.2 34.2 27.1 23.1 29.4 29 31.8 35.4 37.1 39.2 40.2 41.3 45.3 44.8 41.8 39.9 33.5 27.1 24.7 21.4 10.1 10.2 10.7 15.9 18.6 15.8 12.3 8.3 6.7 9.1 7.7 7.1 1.7 -2.1 -2.1 -2.1 1.8 11.1 20.1 29 39.7 47.6 58.9 73.5 85 97.7 102.8 109.5 115.6 121.2 122.9 119.5 111.5 104.4 85.2 66.7 57.6 58.5 59.3 31.8 37.1 54.8 61 63.4 68.7 63.8 56 42.7 40.9 40.9 40.9 40.9 40.9 40.9 60.3 75.3 89.9 114.8 135.2 137 126.1 124.7 134.4 140.4 147.3 157.8 174.4 190.2 221 243.7 268.9 294.5 320.3 345.1 367.9 391.3 406.6 423.3 443.2 455.8 466.5 480.9 485.8 496.6 501.2 502.6 493.1 477.8 466.6 451.4 436.6 423.2 410.7 400.8 389.8 392.8 395.3 397.5 397.2 376.9 344.1 315.8 294.6 274.9 256.7 239.1 228 214 206.3 191.1 142.4 116.8 103.1 89.9 77.9 69.4 59.3 49.7 43.4 40.1 40.2 39.3 38.9 40.3 42.1 41
-2.1 -2.1 -2.1 -2.1 -2.1 -2.1 -2.1 -2.1 -2.1 -2.1 -2.1 -2.1 -2.1 -2.1 -2.1 -2.1 -2.1 -2.1 -2.1 -2.1 -2.1 -2.1 12 16.1 18.2 25.7 34.5 40.2 47.9 53.8 55.8 52.1 52.3 65 70.1 78.5 86.3 91.5 93.3 92.9 93.5 90.6 85 73.4 59.4 51.5 43.7 42.5 42.5 42.5 47.9 41.4 39.5 32.9 32.6 35.6 37.3 41.2 43.8 41.2 39.9 40.2 40.2 39.4 42.4 44.2 46.7 45.7 42.4 38 35.3 29.1 26.2 25.9 22.3 17.8 9.1 9.9 12.8 13.3 10 8.3 11.3 2.6 1.8 1.6 -2.1 -2.1 -2.1 -2.1 -2.1 7 17.1 28.3 39 43.2 53.7 62.5 73.4 84.8 99 105.3 114.9 117.3 120.2 111.5 104.7 97.3 81.3 63.3 53.7 52.2 57.1 37 33.2 50.8 59.1 63 68.6 66.6 61 52.4 40.9 40.9 40.9 40.9 40.9 40.9 58.7 84.1 91 108.7 127.9 127.6 122.1 120.4 130 138.8 144 156.3 169.8 191.4 218.7 246.1 268.3 296.2 319.8 347.9 371.8 391.3 408.4 420 435.4 447.4 457.5 469.8 478.7 484.8 492.8 493.4 488.4 476.2 461.7 446.6 432.3 418.9 406.8 396.4 385.3 388.4 395.5 395.7 404.2 399.9 364.4 335.7 297.9 271.3 251.5 236.5 219 202.7 185.5 174.7 145.8 123.6 111.6 97.5 86.9 75.3 66.3 55.7 46.5 40.6 38.8 38.7 38 39.8 38.3 38.1
-2.1 -2.1 -2.1 -2.1 -2.1 -2.1 -2.1 -2.1 -2.1 -2.1 -2.1 -2.1 -2.1 -2.1 -2.1 -2.1 -2.1 -2.1 -2.1 -2.1 -2.1 -2.1 9.6 13.7 16.8 21.6 30.3 32.3 40.3 47.2 53.7 51.7 50.8 51.1 59 67.4 77.8 84.9 87.6 90.3 90.6 88.9 86.7 82 70.7 61.5 51.4 42.5 42.5 42.5 44.8 45.3 43.2 37.6 33.2 37.8 40.6 44.8 44.3 43.2 42.8 43.2 39.8 39.3 40.1 43.9 49.2 48.2 42.2 36.8 35.9 36.4 32.7 27.8 26.5 26.8 26.9 16.9 4.1 -2.1 8.8 6.9 7.3 1.8 0.1 -2.1 -2.1 -2.1 -2.1 -2.1 -2.1 7.1 10 20.7 31.3 38.4 46.8 56.6 67 81.9 90.7 97.7 103.7 107.3 112.5 110.1 95.3 83.3 62.3 55.1 46.5 46.1 45.1 36.9 28.4 43.9 55.5 62.5 64.5 66 60.7 52.1 40.9 40.9 40.9 40.9 40.9 40.9 61.2 86.8 91.7 107 113.4 115.6 116.4 114.7 123.4 126.5 142.3 157.9 175.1 197.3 217.6 245.1 268.1 296.9 323.7 351.2 372.3 390.8 409.8 418.1 428.7 436.4 444.4 455.6 468.4 475.7 484.2 488.4 482.6 473.7 460 442.8 429 414.7 403.6 391.1 380.6 375.9 381.5 383.4 387.9 401.9 394.5 355.2 316.9 280.7 254.7 235.2 218.4 203.1 180.8 158.3 144.6 131.6 121.4 104.6 95.9 83.2 71.1 61.5 52.1 46.3 42.1 39.1 38 36.8 36.3 37.9
-2.1 -2.1 -2.1 -2.1 -2.1 -2.1 -2.1 -2.1 -2.1 -2.1 -2.1 -2.1 -2.1 -2.1 -2.1 -2.1 -2.1 -2.1 -2.1 -2.1 -2.1 -2.1 6.8 8.4 8.3 18.2 22.6 23.4 29.2 36 46.1 47.7 46.9 41.7 45.7 57.1 67.6 77.4 84.5 85.2 82.8 83.3 83.9 80.9 69.5 60.4 50.4 44.7 46.4 42.5 48.5 48.2 44.3 41.7 43.1 39.2 35 35 40.3 41 40.9 41.8 39.3 41.1 41.7 45.3 47.3 49.5 42.2 37.2 36.2 35.7 34.7 28.7 27.6 26.9 29.4 31.1 26.7 -2.1 -2.1 -2.1 2.4 1.6 -0.8 -2.1 -2.1 -2.1 -2.1 -2.1 1.8 5.2 5.7 17.2 25 33.8 40 51 66 75 81 89.7 97 105.5 103.5 103.3 87.8 69.2 54.4 45 38 35.3 38.2 37.2 31 32.8 50.3 57.4 62.6 66.4 65 60.7 48.1 40.9 40.9 40.9 40.9 40.9 52.7 85.1 90.9 100.4 106.9 109.4 108.7 111.6 117 128 140 163.6 177.4 195.1 217.7 243.3 267.6 295.3 327.2 353.2 376.9 392.6 406.6 411.4 418.2 424.4 431.9 442.7 457.2 467 471.5 476.2 476.3 469.2 455.8 441 426.7 409.8 400.9 389 375.8 358.8 364.3 368.7 370.4 380 387.5 378.1 349.8 300.2 269.7 243.2 219.1 203.8 187 162.1 149.8 140.5 126.5 111.7 106.7 93.7 75.9 64.1 55.9 47.9 42.1 38.7 36.4 35.8 35.4 36.5
-2.1 -2.1 -2.1 -2.1 -2.1 -2.1 -2.1 -2.1 -2.1 -2.1 -2.1 -2.1 -2.1 -2.1 -2.1 -2.1 -2.1 -2.1 -2.1 -2.1 -2.1 -2.1 -2.1 -2.1 6.8 13.1 16 16.4 21.6 26.7 34.6 39.1 34.8 31.3 36.6 43.7 58.6 67.9 74.5 76.3 79.7 81.3 77.7 76.4 70.4 62.4 53.2 44.3 44.3 48.2 53.2 52.2 50.4 46.8 44.8 44.1 37 35.4 41.2 42.9 43.1 40.7 41.3 42 45.4 46.9 53 49.5 46.5 38.8 35.6 35.1 31.8 29.8 29.7 27.1 27.4 27.2 29.9 25.1 -2.1 -2.1 -2.1 -2.1 1.4 -2.1 -2.1 -2.1 -2.1 -2.1 6 -2.1 -2.1 9.3 21 29.6 40.7 49.1 61.1 70.6 80 78.1 85.1 96.7 95.8 91.9 79.2 56.2 42.7 31.6 30.9 30.1 32.7 33.5 30 27.3 42.6 50.7 55.9 65.3 68.5 69 57.4 45.9 40.9 40.9 40.9 40.9 48.2 70.2 89.9 95.6 96.7 101.4 98.6 104.2 107.5 126.3 155.5 171.7 183.3 199.2 221.8 243.3 267.2 298.1 323.4 349.8 373.8 390.6 399 404.1 407.7 411.7 418 428.9 437.2 452.9 459.7 463.8 467.2 462.3 454.5 438.1 423.7 409.5 396.8 387.2 371.5 350.3 342.8 349.2 360.5 367 376.8 374.4 365.5 330.1 288.6 258.9 230.8 209.2 191.9 173.3 159.1 147 132.4 118.5 101.8 95 76 66.6 56.7 50.5 43.5 37.6 35.3 35.4 34.1 34.5
-2.1 -2.1 -2.1 -2.1 -2.1 -2.1 -2.1 -2.1 -2.1 -2.1 -2.1 -2.1 -2.1 -2.1 -2.1 -2.1 -2.1 -2.1 -2.1 -2.1 -2.1 -2.1 -2.1 -2.1 -2.1 0.6 -2.1 10 12.3 16.2 16.9 24.5 26.3 29.3 24.6 40.5 50.1 55.4 65.5 69.6 72 74.2 73.2 69.9 68 61 51.4 46.3 53.9 60 60.2 60.8 56.5 53.3 54.7 47.2 46.7 45.7 47.1 47.4 46.1 44.9 48.4 51.1 47.6 50.9 56 54.1 51.5 43.2 35.4 32.7 31.7 30 29 26.7 22.4 25.5 26.3 25.5 21.9 17.6 -2.1 -2.1 -2.1 -2.1 -2.1 -2.1 -2.1 -2.1 -2.1 -2.1 -2.1 9 16.3 28.1 38.3 45.4 59.3 71.2 72.2 74.5 79.1 85.9 87.4 79.4 65.2 45.8 30.8 22.8 22.8 27.3 30.1 29.7 29 25.9 36.3 43.4 54.3 66.8 70.6 70.4 68.8 58.9 47 40.9 40.9 45.1 47 64.7 80.2 85.2 86.1 88.2 93.1 99 109.2 131 149.9 166.6 182.5 201.6 222.4 244.3 269.2 292.5 318.5 345.8 369.3 389.6 394.6 395.8 397.2 399.4 406.7 417.4 427.6 443.6 448.5 453.1 454.8 454.2 451.3 439.7 422.6 405 391.4 376.4 362.8 337.7 323.5 332.9 349.7 360.6 363.1 365.9 359.4 355.3 317.9 279.1 250.1 220.6 198.1 180 167 155 140 122.9 107.2 92.9 81.4 71.5 58.2 52.3 44.4 39.4 36.2 34.4 34.7 34
-2.1 -2.1 -2.1 -2.1 -2.1 -2.1 -2.1 -2.1 -2.1 -2.1 -2.1 -2.1 -2.1 -2.1 -2.1 -2.1 -2.1 -2.1 -2.1 -2.1 -2.1 -2.1 -2.1 -2.1 -2.1 -2.1 -2.1 -2.1 5.3 7.1 6.5 6.5 9.7 13.9 11.2 29.1 33.4 35.9 49.6 62.9 63.6 66.8 67 64.6 62.8 59.4 56.5 56.3 57.2 61.4 66.1 67.4 66.1 62.3 62.1 61.9 59.8 51.4 50.6 49.5 49.8 49.8 53 51.4 50.9 52.4 57 57.5 56.6 49.7 40.4 32.9 29.4 29.9 29.7 26.5 22.4 25.1 25.5 27.1 24.8 26.7 17.4 -2.1 -2.1 -2.1 -2.1 -2.1 -2.1 -2.1 -2.1 -2.1 -2.1 -2.1 10.6 24.4 31.5 41.3 49.3 60.8 59.9 69.2 76.2 80 76.5 70.2 48.6 34.8 25.1 22.8 22.8 22.8 29.3 28.1 28.6 27.6 29.9 39.9 55 71.9 65.2 66.1 68.4 65.9 55.5 47.3 49.6 48.8 51.1 51.1 69.6 79 77 84.8 89.8 94.8 116 130.4 149.1 168.9 181.2 201.8 222 243 266.6 289.1 314.3 340.4 365.7 385.3 387.1 386.2 385.6 389.5 394.8 404.7 415.8 429.2 436.6 441.3 443.7 442.7 442.6 435.2 423.7 408.1 385.2 368.4 345.3 323.8 311 319.1 336.8 354.1 358.2 356.7 358.8 351.9 331.3 299.9 266.1 235.8 210 191 173.5 158.4 145.5 128.5 111.5 96 86.4 74.1 62.2 53.9 45.1 39.6 35.9 32.9 33.5 33.2
-2.1 -2.1 -2.1 -2.1 -2.1 -2.1 -2.1 -2.1 -2.1 -2.1 -2.1 -2.1 -2.1 -2.1 -2.1 -2.1 -2.1 -2.1 -2.1 -2.1 -2.1 -2.1 -2.1 -2.1 -2.1 -2.1 -2.1 -2.1 -2.1 1.5 -2.1 -2.1 -2.1 2.8 -2.1 -2.1 12.3 27.9 38.3 53.1 57 59.3 60.1 58 57.5 57.6 66.3 67.6 65.6 68.4 70.7 71.9 73.2 69.7 69.2 70.5 71.2 67.4 54.3 53.8 57.7 60.3 63.8 59.3 57.4 57.6 59.3 57.9 55.3 50.7 47.4 38.7 33.4 31.9 29.8 25.4 26.1 25 21.5 24.2 22.1 19.6 18.3 1 -2.1 -2.1 -2.1 -2.1 -2.1 -2.1 -2.1 -2.1 -2.1 -2.1 5.1 10.1 21.7 31.5 34.7 40.5 53.3 60.5 70.1 74 71.3 51 30.8 26.2 22.8 22.8 22.8 22.8 30.2 25.6 25.6 26.2 26.8 37.3 50.8 56.2 62.4 65.4 73 71.4 62.9 57.4 57.2 56.9 56.2 57.1 54.1 66.6 73.5 81.8 81.6 91.8 115.8 131.3 149.3 162.2 182.1 199.3 218.5 237.8 260.4 285.9 312.8 335.9 359.6 374.9 377.2 374.9 373.2 373.9 380.6 390.3 401.1 413.4 417 425.8 429.4 428.4 428.9 423.7 412.3 400.9 385.4 358 341.9 314.7 305.8 297.9 321.1 335.8 346.2 355.8 359.5 352.6 332.6 316.8 279.3 253.9 219.4 204 178.8 164.5 151 133.4 120.4 101.4 93.6 81.1 67.2 57.2 48.5 41.2 36.2 33.4 32.9 32.3
-2.1 -2.1 -2.1 -2.1 -2.1 -2.1 -2.1 -2.1 -2.1 -2.1 -2.1 -2.1 -2.1 -2.1 -2.1 -2.1 -2.1 -2.1 -2.1 -2.1 -2.1 -2.1 -2.1 -2.1 -2.1 -2.1 -2.1 -2.1 -2.1 -2.1 -2.1 -2.1 -2.1 8.6 -2.1 -2.1 -2.1 11.2 25.2 34.6 52.3 57.4 57.5 56.6 55.4 64.3 67.9 68.7 70.8 71.3 73.6 75.9 75.1 73.5 74.2 75.5 78.6 80.5 81 69.8 71.9 79.5 78.8 75.3 72 67.8 62.7 59.5 56 49.8 46.7 42.9 37.2 31.7 29.4 25.3 24.4 25.3 21.1 19.5 18.7 19.8 15.8 7.4 -2.1 -2.1 -2.1 -2.1 -2.1 -2.1 -2.1 -2.1 -2.1 -2.1 -2.1 -2.1 5.9 16.3 24.9 28.6 37.1 48.3 59.2 63.7 56.7 37.5 22.8 22.8 22.8 22.8 22.8 22.8 24.8 25.6 25.6 25.6 25.6 32.7 43.5 50.6 62.3 67.8 75.2 73 69.7 69 62.8 66.4 61.4 59.7 58.9 59.3 66 75.6 79.9 94 113.5 133.7 144.7 158.5 173.7 196.7 216 233.2 254.3 277.9 305 328.3 350.7 360.6 365.5 362.3 360.2 361.3 364.2 374.1 383.7 393.4 397 407.1 412.9 412.6 411.5 407.5 400 388.5 376.4 358.4 331 306.5 295.5 287.3 295.1 316.7 340.4 352.5 352.5 350.6 339.6 306.9 280.7 255.6 225.2 215.8 185.7 175.3 163.3 139.3 122.8 106.8 94 86 73.1 59.2 50.1 44.4 36.1 32 32.1 32.1
-2.1 -2.1 -2.1 -2.1 -2.1 -2.1 -2.1 -2.1 -2.1 -2.1 -2.1 -2.1 -2.1 -2.1 -2.1 -2.1 -2.1 -2.1 -2.1 -2.1 -2.1 -2.1 -2.1 -2.1 -2.1 -2.1 -2.1 -2.1 -2.1 -2.1 -2.1 1.8 1.8 1.8 -2.1 -2.1 -2.1 16.4 20.2 25.3 41.3 49 54.9 51.4 48.5 58.2 64 68 71.5 70.1 71.4 74 74.5 74.8 76.6 80.5 83.9 87.2 90.3 90.2 88.9 88.1 84.1 81 75.6 70.3 63.9 59.4 54.8 49.8 45.1 44.9 36.6 30.5 27.2 25.7 25.5 23.1 20.6 21.3 17.8 18.8 18 10 0.7 -2.1 0.4 9.3 -2.1 -2.1 -2.1 -2.1 -2.1 -2.1 4.8 8.7 8 3.5 5.2 7.6 19.1 33.4 42.1 48.7 43.7 30.3 23.8 28.8 28.5 22.8 26.4 24.5 29.4 33.3 25.6 25.6 25.6 27.4 50.2 50.5 66.1 71.1 78.7 79.5 73.7 72.3 68.4 67.5 67.4 66.4 59.2 59.5 61.6 65.4 76.6 92.6 107.1 125.6 142 153.8 172.2 193.3 211.3 228.2 246.8 269.4 296 318.6 337.6 347.1 350 348.2 345.8 346.6 346.6 353.3 358.8 373 376 382.7 390.7 393.7 391.6 392.7 384.8 376.6 362.4 348 323.4 298.2 286.9 277.6 273.1 295.7 315.2 334.8 344.7 347.3 333.6 307.9 278.2 258.6 228.7 218.1 201.2 168.3 161.2 140.5 125.6 115.7 97.9 84.3 72.4 61.3 52 43.9 37 31.3 29.9 30.7
-2.1 -2.1 -2.1 -2.1 -2.1 -2.1 -2.1 -2.1 -2.1 -2.1 -2.1 -2.1 -2.1 -2.1 -2.1 -2.1 -2.1 -2.1 -2.1 -2.1 -2.1 -2.1 -2.1 -2.1 -2.1 -2.1 -2.1 -2.1 -2.1 -2.1 -2.1 -2.1 -2.1 8.7 -2.1 -2.1 -2.1 7.9 23.2 24.4 34.1 42.6 48.6 47.4 50.3 58.5 62.2 69.2 71.1 68.9 69.7 74.1 76.7 73.1 75.9 81.8 84.7 87.3 89.5 92.6 90.9 88.8 85.4 79.9 75.5 70.9 64.1 60.1 55.7 47.7 45.4 44.2 36 33.2 27.7 26.1 25.7 23.2 22 20.5 20.9 17 16.4 11.8 6 5.7 3 12.2 14.7 -2.1 -2.1 -2.1 -2.1 -2.1 2.7 11.1 11.4 -2.1 -2.1 6.5 19.7 26.1 26.8 31.5 28.1 21.7 27.5 36.1 41.3 35.9 36.2 34.2 36.2 32.9 34.7 33.2 25.6 27.4 44.9 51.4 65.1 71.6 77.8 81.2 80.3 74.9 76.8 69.8 73.5 72.6 63.3 59.6 60.8 62.1 77.2 85.6 99.9 118.8 136.6 149.2 166.4 185.2 202.5 220.7 241.3 261.5 287.6 307.6 324.7 334.2 334.5 333.9 332.7 328.8 331.2 335.4 339.4 350.5 357.8 357.5 364.8 375.5 372.5 371 366.2 359.8 346.4 333.7 306.8 286.6 274.3 266.8 262.4 267.4 295.2 319.1 328.3 332.2 320.6 305.3 271.1 248.2 227.5 219.1 209.7 170.5 157.9 140.7 124 120 106.6 87.7 77.1 65.5 54.8 48.5 44.3 33.4 30.9 29.9
-2.1 -2.1 -2.1 -2.1 -2.1 -2.1 -2.1 -2.1 -2.1 -2.1 -2.1 -2.1 -2.1 -2.1 -2.1 -2.1 -2.1 -2.1 -2.1 -2.1 -2.1 -2.1 -2.1 -2.1 -2.1 -2.1 -2.1 -2.1 -2.1 -2.1 -2.1 -2.1 -2.1 -2.1 -2.1 -2.1 -2.1 -2.1 17.4 27.8 34 41 46.5 51.9 56.3 58.1 60.4 64.9 65.2 67.2 68.7 71.6 72.7 73.8 81.1 81.4 85.2 90.8 89.6 89.4 93.6 89 85 80.6 75 67.6 63.2 57.6 52.5 48.4 42.5 42.2 35.5 30.8 29.2 29.4 25.1 24 25.3 23.7 19.5 16.5 14.4 12 7.7 11 7.6 13.9 23.6 14.3 -2.1 -2.1 -2.1 -2.1 -2.1 12.3 -2.1 -2.1 -2.1 -2.1 16.1 22.7 25.8 20.7 25.5 36.6 34 40 44.1 42.4 42 41.9 46.7 40.6 41.3 39.6 26.4 29.1 42.4 49.7 61 77.4 77.6 85.4 84.2 76.7 79.9 71.7 83.5 76.5 69.3 65.6 61.1 62.5 75.2 84.2 94 110.3 128.7 147.7 160.8 179.5 198.1 216.4 233.4 254.5 279.8 298.8 312.7 317.2 317.7 316.4 315.9 315 316.6 319.3 324.6 330.8 334.4 335.2 344 353.5 355 353.9 348 342.7 332.5 317.2 292.5 283.1 267.2 257.2 252.5 254.9 275.6 299.7 313.2 317.3 307 290.2 268.4 237 215.1 197.6 203.7 173 149.4 137.5 119.5 110 102 89.4 83.3 71.4 59.8 51.8 45.4 40 32 29.3
-2.1 -2.1 -2.1 -2.1 -2.1 -2.1 -2.1 -2.1 -2.1 -2.1 -2.1 -2.1 -2.1 -2.1 -2.1 -2.1 -2.1 -2.1 -2.1 -2.1 -2.1 -2.1 -2.1 -2.1 -2.1 -2.1 -2.1 -2.1 -2.1 -2.1 -2.1 -2.1 -2.1 -2.1 -2.1 -2.1 -2.1 -2.1 18.1 29.5 32.2 38.5 45.5 52.1 56 57.5 57.4 58.8 61.2 64.6 68.1 68.2 70.9 73.6 82.1 80.9 82.7 90.9 91.3 86.3 91.1 87.5 80.1 74.8 71.8 67.5 63.5 58.7 53.7 45 38 34.9 33.4 29.7 29 29.1 29.7 27.1 27.2 30.3 33.3 18.2 10.9 10.9 11.3 17.2 14.6 18.7 20.8 19.3 -2.1 -2.1 -2.1 -2.1 -2.1 -0.3 -2.1 -2.1 -2.1 -2.1 10.9 13.9 21.1 34 42.7 44.7 35.2 39.3 43.5 46.1 48.1 49 53.8 50.6 41.5 43.7 32.4 36.3 38.8 52 60.6 76.6 77.7 81.6 84.3 78.7 82.6 72.8 72.7 71.8 72 67.9 63.9 64.4 72.3 83.7 90.9 112.9 126.3 144.9 162 174.4 193.4 211.1 227.2 247.7 267.1 279.9 292.5 300.3 301 301.4 301.3 302.2 303.8 304.6 308.2 313.8 314.8 318.8 330.8 334.5 334 335.9 333.1 326.2 314.5 300.7 281.1 271.4 258.5 249.2 237.2 239.4 250.1 271.5 291 294.6 288 279.1 256 224.9 211.3 188 177.6 166.5 140.8 132.1 123.6 112.2 102.8 96.7 85.3 76.2 64.1 56.1 48.8 41.8 32 29.7
-2.1 -2.1 -2.1 -2.1 -2.1 -2.1 -2.1 -2.1 -2.1 -2.1 -2.1 -2.1 -2.1 -2.1 -2.1 -2.1 -2.1 -2.1 -2.1 -2.1 -2.1 -2.1 -2.1 -2.1 -2.1 -2.1 -2.1 -2.1 -2.1 -2.1 -2.1 -2.1 -2.1 -2.1 -2.1 -2.1 -2.1 -2.1 15.7 23.7 26 36.9 44.5 52.4 54 53.5 54.4 58.2 61.8 65.1 68.7 62.4 65 73.7 80.4 85.5 84 81.1 82 79 79.3 80.8 74.5 69 68.7 64.7 61.2 57.7 53.8 43.8 35.2 31.3 28.2 26.9 28.5 28.6 30.8 26.1 27.9 30.9 30.1 22.9 11.7 9.9 11.3 17.9 20 19.9 24.8 17.3 10.9 -2.1 -2.1 -2.1 -2.1 -2.1 -2.1 -2.1 -2.1 -2.1 17.8 26.4 27.1 37.1 46.4 43.1 30.7 36.4 41.9 49.5 53.1 57.6 61.8 58 50.6 42.5 40.9 37.6 40.5 46.5 67.3 77.1 81.5 80.5 78.6 77.8 77.8 72.2 68.8 64.8 65.7 65.6 66.3 65.4 70.1 85.3 90.5 110.5 132.8 150.7 164 175 191.1 208 225 245.6 257.9 269.4 279.4 283.5 287.2 288 289 290.1 287 289 294.2 301 300.9 305.1 315.9 321.4 323.8 321.1 316.2 311.8 302.3 282.6 267.9 260.7 247.5 229.9 214.8 221 214.1 234 254.1 279 274 267.7 246.3 218.4 200.1 175.6 156.5 143.1 138 134.6 129.4 123.8 111.8 106 92.9 83.3 71 59.5 51.2 45.2 32.9 31.2
-2.1 -2.1 -2.1 -2.1 -2.1 -2.1 -2.1 -2.1 -2.1 -2.1 -2.1 -2.1 -2.1 -2.1 -2.1 -2.1 -2.1 -2.1 -2.1 -2.1 -2.1 -2.1 -2.1 -2.1 -2.1 -2.1 -2.1 -2.1 -2.1 -2.1 -2.1 -2.1 -2.1 -2.1 -2.1 -2.1 -2.1 -2.1 8.6 18.5 25.3 33.4 41.5 44.6 50.2 53.9 50.3 53.8 61.2 64.4 60.3 55.5 60.3 74.2 76.9 76.1 75.5 73.3 72.7 70.4 71 73.2 66.3 60.7 63.4 60.9 57.7 53.9 52.2 41.4 34 25.2 26.6 24.4 26.1 28.4 33.9 32.5 26.2 26.3 25.2 21.3 15.6 13.1 12.5 12.5 16.1 12 13.8 10.4 8.8 12.3 -2.1 -2.1 -2.1 -2.1 -2.1 -2.1 -2.1 7.9 11.9 21.3 27.5 37.4 46.5 40.2 30.7 34.5 41.5 55.9 57 58.4 64.1 59.2 51.6 41 42.1 46.6 44.5 49.1 72.1 78.2 80.9 76.9 77.6 76.8 74.2 70 63.7 60.7 60.7 63 65.6 71.4 71.7 83.2 96.1 109 133.9 152.9 161.1 175.3 190.3 204 222 239.6 249.2 255.7 265.1 273.6 276.9 278.4 277.7 277 274.5 277.5 278.6 288 288.8 293.9 302 308.7 309.7 307 305.6 298.4 289 273.1 259.3 243.7 229.1 213.9 201.2 191 187.8 189.1 210.7 249.6 249.7 248.5 231.7 216 191 163.5 147.5 142.1 133 127.5 123.8 121.8 118.5 113.4 97.6 88 73.1 61.8 53.3 47 40 33.2
-2.1 -2.1 -2.1 -2.1 -2.1 -2.1 -2.1 -2.1 -2.1 -2.1 -2.1 -2.1 -2.1 -2.1 -2.1 -2.1 -2.1 -2.1 -2.1 -2.1 -2.1 -2.1 -2.1 -2.1 -2.1 -2.1 -2.1 -2.1 -2.1 -2.1 -2.1 -2.1 -2.1 -2.1 -2.1 -2.1 -2.1 -2.1 1.6 12.5 21.9 28 36.5 39 47.3 49.7 46.4 51.2 55.6 56.7 57 53.9 63.3 69.3 70.5 70.7 69.2 67 65.2 62.7 64.6 66.4 61.6 55 56.1 54.9 51.6 49.9 44.3 38.8 31.6 24.7 21.8 18.4 21.5 27.9 33 32.4 30.6 25.6 24.3 23 17.3 15.4 14.2 14.3 20.3 13.8 7.8 7.3 3 11 8.3 -2.1 -2.1 -2.1 -2.1 -2.1 -2.1 -2.1 11.1 21.5 28 37 42.3 34.3 33.9 38 47 62.4 60 59.4 66.3 57.1 47.2 42 46 55.7 48.9 55.6 63.3 73.9 74.1 74.2 77.6 79.2 72 66.2 59.4 55.7 56.1 58.2 64.1 78.1 76.5 79.4 97.6 115.7 135 144.9 158.7 172.4 186.8 202.6 219.2 231.7 241 247.6 252.5 262 262.9 263.6 262 261.1 261.1 262.2 268 273.2 274.4 278.8 287.2 293.7 294.7 290.2 292.3 285.3 276.5 263.2 248.6 234.4 215.7 199.9 188.6 183.3 179.6 177 175.1 180.9 214.3 222.3 216.6 193.2 170.4 159.5 154.1 145.4 136.7 128.6 123.8 120.1 118.6 110 100.6 86.8 75.1 63.3 54.4 47.4 40.8 33.4
-2.1 -2.1 -2.1 -2.1 -2.1 -2.1 -2.1 -2.1 -2.1 -2.1 -2.1 -2.1 -2.1 -2.1 -2.1 -2.1 -2.1 -2.1 -2.1 -2.1 -2.1 -2.1 -2.1 -2.1 -2.1 -2.1 -2.1 -2.1 -2.1 -2.1 -2.1 -2.1 -2.1 -2.1 -2.1 -2.1 -2.1 -2.1 -2.1 7.3 15.4 25.3 29.2 32.9 37.9 40.4 42.5 49.8 55.6 51 47 52.5 57.2 64.1 65.3 63.2 60.8 58.7 55.2 58.8 58 57.8 55.3 48.8 49.9 49.2 48.4 45.9 37.9 33.3 27.3 23.3 19.7 13.1 15.8 26 31 34.1 28.6 28.1 25.6 22.9 19.3 15.4 14.2 13.8 13.2 17.8 9.7 5 -2.1 -2.1 3.3 -2.1 -2.1 -2.1 -2.1 -2.1 -2.1 -2.1 8.5 16.1 25.2 29.9 29.8 30.6 29.3 38.2 49.8 61.8 62.6 61.5 60.5 56.8 44.6 43.9 61.3 58.2 54 58.9 63.2 61.4 73.6 74 74.2 76.4 74.9 68.9 58.9 53.4 55 57.8 62.1 73.2 82.7 81.8 90.8 120 139.3 144.8 156.6 167.4 187.8 200.2 219.2 227.7 232.8 238.5 243 248.1 249.9 249.9 251.1 249.9 249.9 248.2 254.1 257.6 260.8 269.6 269.2 274.8 280.9 277.8 276.2 271.2 257.7 256.4 237.1 222.7 205 190 181.9 173.8 172 171.4 159.8 159.3 166.2 181 178.1 173.2 167.3 166.5 161.6 150.5 142.5 133.4 130.2 124.7 120.7 112.9 102.8 92.1 77.8 65.7 56.2 46.1 40 35.4
-2.1 -2.1 -2.1 -2.1 -2.1 -2.1 -2.1 -2.1 -2.1 -2.1 -2.1 -2.1 -2.1 -2.1 -2.1 -2.1 -2.1 -2.1 -2.1 -2.1 -2.1 -2.1 -2.1 -2.1 -2.1 -2.1 -2.1 -2.1 -2.1 -2.1 -2.1 -2.1 -2.1 -2.1 -2.1 -2.1 -2.1 -2.1 -2.1 -2.1 9.4 18.3 19.2 20.5 26.9 29.2 35.2 41.7 42.8 46.2 42.6 45.7 47.2 53.4 54.3 53 50.5 48.9 48.7 50.1 51.6 50.5 51.1 46.4 44.3 46.5 46.1 40.6 32.2 26.5 22.3 20.7 16.8 13.6 13.8 21.1 23.8 23.4 23.9 28.8 32.3 24.9 18.3 14.1 11.9 11.5 12.4 13.2 13.4 12.6 -2.1 -2.1 -1.4 -2.1 -2.1 -2.1 -2.1 -2.1 -2.1 -2.1 -2.1 12.8 22.1 27.6 25.1 30.5 32.2 37.3 45.7 55.4 63.7 66.8 62.8 55.2 46 52.9 67 61.4 61.3 58.1 60.8 60.7 60.7 69.4 74.3 78.2 75.4 69.7 59.6 50.8 56 56.5 59.9 69.3 83.8 89.4 89.9 110.5 131.5 146 154.1 168.8 183.2 200 211.4 220.7 231.4 234.9 239.7 240.4 241.7 243 243.1 240.1 240.3 236.7 242.3 246.9 250.8 259.6 261.8 260.9 264.8 260.7 256.7 254.2 241.6 231.5 219.2 208.6 189.1 175.4 173.5 166.4 157.4 156.7 154.1 151.3 148.8 159.8 169.7 172.8 168 163.5 162.2 158.6 148 138.3 138.6 137.7 122.1 122 104.7 96.9 80.2 66.6 57.1 47.6 41.2 38.2
-2.1 -2.1 -2.1 -2.1 -2.1 -2.1 -2.1 -2.1 -2.1 -2.1 -2.1 -2.1 -2.1 -2.1 -2.1 -2.1 -2.1 -2.1 -2.1 -2.1 -2.1 -2.1 -2.1 -2.1 -2.1 -2.1 -2.1 -2.1 -2.1 -2.1 -2.1 -2.1 -2.1 -2.1 -2.1 -2.1 -2.1 -2.1 -2.1 -2.1 -2.1 -2.1 -2.1 7.4 18 17.1 23.7 27.7 34.2 37.3 34.7 34.9 40 45.3 44.9 41.1 39.4 38.6 37.5 38.6 38.9 41.4 41.9 42.5 40.2 46 42.6 36.8 30.3 19.3 16.2 16 13.5 12.5 7.6 14.4 16.6 20.1 23.8 29.5 37.1 28.6 22.9 10.6 10.7 10.4 11 13.2 14.4 16.1 17.2 -2.1 -2.1 -2.1 -2.1 -2.1 -2.1 -2.1 -2.1 -2.1 -2.1 -2.1 14.2 22.1 25.4 26.7 33.7 36.1 42.1 51.1 63.8 70 65.6 55.1 46.9 59.5 70.1 65.8 63 59.1 63.3 67.1 57 53 61.3 63.3 62.8 62.1 56.4 48.4 51.5 55.6 64.4 71.1 78.1 90.2 91.1 103.9 125.3 142.1 152 169.3 183.4 190.5 201.9 215.5 225.1 235.4 235.8 235.9 237.7 236.9 238.3 233 232.5 229.5 234.4 238.8 242.5 251.2 254.7 254.1 250.9 249.6 245.2 239.2 232.7 221.9 201.6 193.6 170.9 162.3 177.7 167 150.6 144.6 143.7 140.6 142.7 146.6 164.7 166.9 169.4 168.6 167 165.6 151.3 144.4 142.1 143.5 134.4 113.2 102.4 93.2 77.9 67.1 55.9 48.3 41.5 35
-2.1 -2.1 -2.1 -2.1 -2.1 -2.1 -2.1 -2.1 -2.1 -2.1 -2.1 -2.1 -2.1 -2.1 -2.1 -2.1 -2.1 -2.1 -2.1 -2.1 -2.1 -2.1 -2.1 -2.1 -2.1 -2.1 -2.1 -2.1 -2.1 -2.1 -2.1 -2.1 -2.1 -2.1 -2.1 -2.1 -2.1 -2.1 -2.1 -2.1 -2.1 -2.1 -2.1 -2.1 -2.1 -2.1 -2.1 12.1 20.3 23.9 23.9 32.4 32.2 30.9 33.7 31.9 33.3 27.5 30.4 34.4 32.7 34 35.8 38.5 40.6 38.3 39 29.6 23.5 14.8 11.9 8.4 10.9 14.4 12 -2.1 -2.1 20.1 26.3 30.5 34.3 29.4 24.3 17 7.8 8.3 9.4 12.4 15.1 13.9 22.3 9 -2.1 -2.1 -2.1 -2.1 -2.1 -2.1 -2.1 -2.1 -2.1 -2.1 10 18.1 24.9 27.7 35.6 38 40.7 45.5 56.7 65.7 69 59.1 47.9 61.1 72.9 69.2 65.1 61.1 59.8 59.5 59.2 51.7 48.9 52.6 53.6 53.1 51.2 46.8 48.2 52.8 66.2 76.1 80.9 87.1 91.5 98.9 116.1 141 153.4 166.6 177.4 185.1 202 213.5 223.3 230.7 236.5 235 234.1 228.9 225.8 227 223.6 222 223.1 229.6 230.9 241.9 247.9 247.3 242.9 241.5 238.2 227 207 197.6 184.2 175.8 158 156.4 159.5 155.4 148.3 141.9 139.3 136.3 136.2 149.5 167.4 167 173.9 169.7 171 161.8 155.1 144.2 142.6 137.5 125.8 110.3 100.3 88.7 78 65.4 56.4 47.4 39.4 34.1
-2.1 -2.1 -2.1 -2.1 -2.1 -2.1 -2.1 -2.1 -2.1 -2.1 -2.1 -2.1 -2.1 -2.1 -2.1 -2.1 -2.1 -2.1 -2.1 -2.1 -2.1 -2.1 -2.1 -2.1 -2.1 -2.1 -2.1 -2.1 -2.1 -2.1 -2.1 -2.1 -2.1 -2.1 -2.1 -2.1 -2.1 -2.1 -2.1 -2.1 -2.1 -2.1 -2.1 -2.1 -2.1 -2.1 -2.1 -2.1 -2.1 8.9 21.2 21.5 18.5 20.6 25.3 23.9 23 21.4 23.8 27.5 26.5 25.6 31.1 34.6 34.2 31 29.3 23.7 17 11.6 10.3 -2.1 -2.1 9.1 10.2 -2.1 -2.1 14.7 21.7 26.3 25.3 23.8 20.8 17.2 9.8 4.8 8.4 8 13.2 11 17.3 11.3 -2.1 -2.1 -2.1 -2.1 -2.1 -2.1 -2.1 -2.1 -2.1 -2.1 -2.1 12.6 19 16.8 32 40.5 40.8 41.5 47.2 58.9 57.2 51.7 45.9 59.8 66.9 68.3 68.3 63.7 58.1 58.5 59.2 55.3 47.6 50.9 55.4 52.4 47.5 45.7 44.5 52.4 65.7 76 81.3 87.9 93.3 95.6 107.9 140.2 157.3 167.9 176.8 180.3 195.2 206.6 219.8 229 231.3 229 227.1 223.7 219.2 216.3 214.5 215 212.8 218.5 225.4 231.9 232.1 233.8 232 226.8 218.3 201.2 189 186.4 177.9 168.5 154.1 153.5 153.9 151 145.1 139.7 137.6 135.6 133.7 146.7 154.5 155 162.1 165.8 169.9 165.3 155.5 142.9 135 131.5 119.5 108.2 96.1 88.4 76.8 65.9 55.4 46.3 37.6 34.9
-2.1 -2.1 -2.1 -2.1 -2.1 -2.1 -2.1 -2.1 -2.1 -2.1 -2.1 -2.1 -2.1 -2.1 -2.1 -2.1 -2.1 -2.1 -2.1 -2.1 -2.1 -2.1 -2.1 -2.1 -2.1 -2.1 -2.1 -2.1 -2.1 -2.1 -2.1 -2.1 -2.1 -2.1 -2.1 -2.1 -2.1 -2.1 -2.1 -2.1 -2.1 -2.1 -2.1 -2.1 -2.1 -2.1 -2.1 -2.1 -2.1 -2.1 -2.1 -2.1 8.9 16.1 16.8 19.7 16.7 11.2 12.8 20.5 21.7 20.8 28 28 29.5 28.9 23.2 18.2 13 5.3 -2.1 -2.1 -2.1 -2.1 12.2 -2.1 -2.1 -2.1 16.2 20.6 19.4 17.8 16.5 14.7 11.7 -2.1 -2.1 9.3 9.7 7.5 15.9 14.4 -2.1 -2.1 -2.1 -2.1 -2.1 -2.1 -2.1 -2.1 -2.1 -2.1 -2.1 -2.1 -2.1 10.6 20.2 30.5 38 35.8 39.3 48.9 52.8 45.3 43 56.7 63.3 66 70 63.5 58.2 56.4 56.7 56.5 51.9 44.9 43.5 42.8 42.8 42.8 42.8 53.2 65.3 77.4 78.3 90.1 94.1 95.8 101 122.8 150 162 166.6 176.6 189.7 207.6 222.8 224 221.8 217.4 219.6 216.9 216.5 209.9 207.5 204.4 201.9 214 217.6 218.6 218.2 213.8 210.3 199.2 192.5 191.3 181.8 174 173.4 172.9 155.3 151.3 151.8 151.7 145.7 140.5 139.8 132.9 132.7 136.3 150.7 156.6 159.2 166 171.5 162.8 152.1 142.5 128.9 125 114.9 106.2 99.2 87.2 76 65.5 54.9 45.8 37.4 31.5
-2.1 -2.1 -2.1 -2.1 -2.1 -2.1 -2.1 -2.1 -2.1 -2.1 -2.1 -2.1 -2.1 -2.1 -2.1 -2.1 -2.1 -2.1 -2.1 -2.1 -2.1 -2.1 -2.1 -2.1 -2.1 -2.1 -2.1 -2.1 -2.1 -2.1 -2.1 -2.1 -2.1 -2.1 -2.1 -2.1 -2.1 -2.1 -2.1 -2.1 -2.1 -2.1 -2.1 -2.1 -2.1 -2.1 -2.1 -2.1 -2.1 -2.1 -2.1 -2.1 -2.1 3.1 1.5 5.9 5.9 9 9.9 13.2 16.3 19.1 23 22.4 23.7 24.4 16.6 12.6 5.5 -2.1 -2.1 -2.1 -2.1 -2.1 1.6 12.1 -2.1 -2.1 13.9 19.2 15.3 15.9 8.7 12.2 16 9.9 -2.1 -2.1 1.6 5.4 13.6 17.2 -2.1 -2.1 -2.1 -2.1 -2.1 -2.1 -2.1 -2.1 -2.1 -2.1 -2.1 -2.1 -2.1 -2.1 -2.1 18.3 27.1 32.1 33.9 44.1 42.7 41.2 40.3 57.8 67.8 61.6 64.9 59.7 57.8 54.1 53.5 56.3 60.8 46.2 42.8 42.8 42.8 42.8 42.8 50.9 62.2 71.3 75 87.6 96.7 91 98.4 105.7 131.6 151.9 162.2 169.2 185.3 199.7 206.8 206 202.3 207.3 205.2 207.8 212 202.3 194.5 195.5 192.5 204.6 205.4 205 203.6 190.4 190.5 182.3 177.9 177 171.6 170.3 173.4 172.9 153.5 147.7 149.6 149.2 146.3 141.4 140.4 135.8 131.2 140.4 148.5 161.3 164.8 165 165.3 163.9 154.2 145.6 132 121.6 113.1 106.9 98 87.2 76.5 67.2 55.4 44.2 37.1 29.8
-2.1 -2.1 -2.1 -2.1 -2.1 -2.1 -2.1 -2.1 -2.1 -2.1 -2.1 -2.1 -2.1 -2.1 -2.1 -2.1 -2.1 -2.1 -2.1 -2.1 -2.1 -2.1 -2.1 -2.1 -2.1 -2.1 -2.1 -2.1 -2.1 -2.1 -2.1 -2.1 -2.1 -2.1 -2.1 -2.1 -2.1 -2.1 -2.1 -2.1 -2.1 -2.1 -2.1 -2.1 -2.1 -2.1 -2.1 -2.1 -2.1 -2.1 -2.1 -2.1 -2.1 -2.1 -2.1 -2.1 -2.1 -2.1 7.5 10.5 15 18.4 21.1 19.3 13.7 14.7 7.9 5.4 -2.1 -2.1 -2.1 -2.1 -2.1 -2.1 -2.1 1.8 -2.1 -2.1 13.3 14.9 11.3 10.7 3.7 4.4 12.9 8 -2.1 -2.1 -2.1 -2.1 4.9 11.9 0.9 -2.1 -2.1 -2.1 -2.1 -2.1 -2.1 -2.1 -2.1 -2.1 -2.1 -2.1 -2.1 -2.1 -2.1 -2.1 19.2 21.4 28.6 36.7 30.9 37.6 30.7 44.6 56.5 56 59.8 57.9 59.1 52 49.9 52.3 49.4 46.6 42.8 42.8 42.8 46.8 42.8 48.7 55 63.6 70.6 81.8 81.4 83.7 89.9 96.7 108.9 142.4 154 165.3 179.1 184.3 187.1 187.4 191.5 191.9 189.6 196.4 203.4 192 186.6 184.7 177.6 178.3 180.9 177.8 175.3 163.1 170.9 172.7 165.6 162.1 161.3 164.8 168.5 160.2 154.2 145.4 144.8 147.3 145.3 140.1 140.9 139.9 128.9 148 146.8 143.5 155.7 161.3 157.3 153.7 150.9 149.4 137.2 122.9 114.6 108.4 100.5 88.7 79.1 67.4 54.4 45.2 35.1 27.9
-2.1 -2.1 -2.1 -2.1 -2.1 -2.1 -2.1 -2.1 -2.1 -2.1 -2.1 -2.1 -2.1 -2.1 -2.1 -2.1 -2.1 -2.1 -2.1 -2.1 -2.1 -2.1 -2.1 -2.1 -2.1 -2.1 -2.1 -2.1 -2.1 -2.1 -2.1 -2.1 -2.1 -2.1 -2.1 -2.1 -2.1 -2.1 -2.1 -2.1 -2.1 -2.1 -2.1 -2.1 -2.1 -2.1 -2.1 -2.1 -2.1 -2.1 -2.1 -2.1 -2.1 -2.1 -2.1 -2.1 -2.1 -2.1 0.7 8.9 11.7 15.4 15.1 13.4 7.8 7.8 -2.1 -2.1 -2.1 -2.1 -2.1 -2.1 -2.1 -2.1 -2.1 -2.1 -2.1 5.6 12.7 11.9 4 7.2 -2.1 -2.1 6.4 7.3 2.2 2.4 -2.1 -2.1 -2.1 -2.1 -2.1 -2.1 -2.1 -2.1 -2.1 -2.1 -2.1 -2.1 -2.1 -2.1 -2.1 -2.1 -2.1 -2.1 -2.1 -2.1 1.6 10.6 21.1 19.6 22.9 27.5 -2.1 -2.1 38.1 45.1 54.8 53.7 48.7 45.8 39.7 38.4 45.8 50.5 42.8 42.8 42.8 47.3 42.8 47.4 52.6 55.8 61 70.9 71 76.2 82.9 86.5 102.7 130.4 147.4 155.9 166.7 170.6 171 172.9 175.2 181.1 182.5 184.4 188 178.2 181.2 175.1 164.8 162.9 151.4 148.1 148.4 142.9 154.8 159.9 153.5 151.2 153.8 162.4 165.6 152.4 151.9 148.1 143 148.2 140.8 137.3 133.6 137.8 126 137.2 143.1 139.8 144.6 166.1 164.1 156.1 153.9 147.5 133.5 123.8 128.7 108.6 102.5 90.4 78.9 68.5 54.7 44.2 36.2 29.8
-2.1 -2.1 -2.1 -2.1 -2.1 -2.1 -2.1 -2.1 -2.1 -2.1 -2.1 -2.1 -2.1 -2.1 -2.1 -2.1 -2.1 -2.1 -2.1 -2.1 -2.1 -2.1 -2.1 -2.1 -2.1 -2.1 -2.1 -2.1 -2.1 -2.1 -2.1 -2.1 -2.1 -2.1 -2.1 -2.1 -2.1 -2.1 -2.1 -2.1 -2.1 -2.1 -2.1 -2.1 -2.1 -2.1 -2.1 -2.1 -2.1 -2.1 -2.1 -2.1 -2.1 -2.1 -2.1 -2.1 -2.1 -2.1 0 5.6 7.9 8.1 14.1 11.5 6 8.1 -2.1 -2.1 -2.1 -2.1 -2.1 -2.1 -2.1 -2.1 -2.1 -2.1 -2.1 7.5 8.4 -2.1 -2.1 -2.1 -2.1 -2.1 3.9 7.3 3.5 7.4 -2.1 -2.1 -2.1 -2.1 -2.1 -2.1 -2.1 -2.1 -2.1 -2.1 -2.1 -2.1 -2.1 -2.1 -2.1 -2.1 -2.1 -2.1 -2.1 -2.1 -2.1 -2.1 -2.1 -2.1 11.9 18 -2.1 -2.1 -2.1 30.9 39 39.5 40.6 32.8 31.7 38 42.8 55.1 50.5 42.8 42.8 44.6 49.2 48.2 57.3 53.8 56.1 61.2 67.8 73 75.8 79.1 96 106.2 138 146.2 152.6 163 163.6 164 165.3 170 172.5 176.8 168.2 165.3 165.7 165.4 141.6 137.5 132.5 133 129.8 130.2 140.7 148 144.6 143 148.2 161.7 160 153.7 151.2 146.7 145 137.4 138.3 134.8 133.1 128.4 124.8 119.9 130.1 141.9 154.8 165 165.3 157.4 143.8 142.9 137.1 126.1 122.5 109.4 99.1 88.7 80.2 66.7 54.9 44.1 36.5 29
-2.1 -2.1 -2.1 -2.1 -2.1 -2.1 -2.1 -2.1 -2.1 -2.1 -2.1 -2.1 -2.1 -2.1 -2.1 -2.1 -2.1 -2.1 -2.1 -2.1 -2.1 -2.1 -2.1 -2.1 -2.1 -2.1 -2.1 -2.1 -2.1 -2.1 -2.1 -2.1 -2.1 -2.1 -2.1 -2.1 -2.1 -2.1 -2.1 -2.1 -2.1 -2.1 -2.1 -2.1 -2.1 -2.1 -2.1 -2.1 -2.1 -2.1 -2.1 -2.1 -2.1 -2.1 -2.1 -2.1 -2.1 -2.1 -2.1 3.8 7.9 11.2 9.4 7.9 1.4 -2.1 -2.1 -2.1 -2.1 -2.1 -2.1 -2.1 -2.1 -2.1 -2.1 -2.1 -2.1 -2.1 -2.1 -2.1 -2.1 -2.1 -2.1 -2.1 8.5 5.7 -2.1 -2.1 -2.1 -2.1 -2.1 -2.1 -2.1 -2.1 -2.1 -2.1 -2.1 -2.1 -2.1 -2.1 -2.1 -2.1 1.4 -2.1 -2.1 -2.1 -2.1 -2.1 -2.1 -2.1 -2.1 -2.1 -2.1 -2.1 -2.1 -2.1 -2.1 18.9 28.1 30.5 29.3 26.5 25.6 34.1 39.8 46.5 49.1 48.9 42.8 42.8 49.8 53.4 60.4 52.4 51.8 54.5 66.9 70 69 71.7 83.8 98.7 108.4 134.8 154.5 154.7 155.1 155.6 149.8 142.9 141.2 153.5 157.7 150.5 136.3 132.9 131.9 119.8 112.9 112.6 115.8 120.8 135.8 143.7 141.8 142.9 141.5 158.1 156.9 153.1 152.2 145.4 146.8 143 133.1 133 133.7 126.1 124.1 117.5 119 143.6 158.4 159.9 157.1 158.2 148.2 133.7 131.2 127.8 118.6 107.4 98.9 88.1 77.9 68 52.1 45.2 32.8 25.9
-2.1 -2.1 -2.1 -2.1 -2.1 -2.1 -2.1 -2.1 -2.1 -2.1 -2.1 -2.1 -2.1 -2.1 -2.1 -2.1 -2.1 -2.1 -2.1 -2.1 -2.1 -2.1 -2.1 -2.1 -2.1 -2.1 -2.1 -2.1 -2.1 -2.1 -2.1 -2.1 -2.1 -2.1 -2.1 -2.1 -2.1 -2.1 -2.1 -2.1 -2.1 -2.1 -2.1 -2.1 -2.1 -2.1 -2.1 -2.1 -2.1 -2.1 -2.1 -2.1 -2.1 -2.1 -2.1 -2.1 -2.1 -2.1 -2.1 -2.1 -2.1 -2.1 -2.1 -2.1 -2.1 -2.1 -2.1 -2.1 -2.1 -2.1 -2.1 -2.1 -2.1 -2.1 -2.1 -2.1 -2.1 -2.1 -2.1 -2.1 -2.1 -2.1 -2.1 1.8 6.4 -2.1 -2.1 -2.1 -2.1 -2.1 -2.1 -2.1 -2.1 -2.1 -2.1 -2.1 -2.1 -2.1 -2.1 -2.1 -2.1 -2.1 8.3 -2.1 -2.1 -2.1 -2.1 -2.1 -2.1 -2.1 -2.1 -2.1 -2.1 -2.1 -2.1 -2.1 -2.1 -2.1 24.8 25.7 21.9 20.8 23.6 35.3 39.8 44.7 52.1 53.9 51.8 48.5 44.2 44.8 56 55.6 49.3 51 58.4 67.9 62.9 66.2 73.1 84.9 92 103.9 134.5 137.9 133.2 131.8 129.6 117.3 114.8 120.9 119.7 117.4 116 126.8 121.7 116.1 106.6 105.9 109.7 112.9 124.6 131 135.3 140 135.4 148.4 149.2 150.2 146.8 142.8 145.3 141.4 133.7 130.7 133.5 127 126.4 116.5 116.9 130.4 156.7 159.4 151.1 151.7 144.5 130.5 124.7 120.3 108.1 98.7 92.2 87.5 76.4 66 50.1 40.3 31.2 23.4
-2.1 -2.1 -2.1 -2.1 -2.1 -2.1 -2.1 -2.1 -2.1 -2.1 -2.1 -2.1 -2.1 -2.1 -2.1 -2.1 -2.1 -2.1 -2.1 -2.1 -2.1 -2.1 -2.1 -2.1 -2.1 -2.1 -2.1 -2.1 -2.1 -2.1 -2.1 -2.1 -2.1 -2.1 -2.1 -2.1 -2.1 -2.1 -2.1 -2.1 -2.1 -2.1 -2.1 -2.1 -2.1 -2.1 -2.1 -2.1 -2.1 -2.1 -2.1 -2.1 -2.1 -2.1 -2.1 -2.1 -2.1 -2.1 -2.1 -2.1 -2.1 -2.1 -2.1 -2.1 -2.1 -2.1 -2.1 -2.1 -2.1 -2.1 -2.1 -2.1 -2.1 -2.1 -2.1 -2.1 -2.1 -2.1 -2.1 -2.1 -2.1 -2.1 -2.1 0 -2.1 -2.1 -2.1 -2.1 -2.1 -2.1 -2.1 -2.1 -2.1 -2.1 -2.1 -2.1 -2.1 -2.1 -2.1 -2.1 -2.1 -2.1 -1.8 -2.1 -2.1 -2.1 -2.1 -2.1 -2.1 -2.1 -2.1 -2.1 -2.1 -2.1 -2.1 -2.1 -2.1 -2.1 -2.1 14 10 7.2 19.5 30.5 43 57.6 53.3 53.5 58.1 58.5 43.6 38.4 50.9 49.9 44.2 50.5 50.4 53.6 57 59.7 70.1 80.2 82.1 77.3 88.5 99.7 97.8 96.9 96.3 92 92.6 94.2 89.1 93.8 109.2 113 116.7 113.7 105.5 104.1 103.5 110.5 119.3 128.5 132 132.9 129.6 139.1 138.3 138.9 140.6 139.3 143.1 135.5 130 133.5 128.6 126.9 124.7 114.3 118 127.3 148.7 154.9 152.8 145.4 137.7 127 121.1 112.1 99.3 94.3 86 82.4 72.4 63 51 39.1 31.6 23.5
-2.1 -2.1 -2.1 -2.1 -2.1 -2.1 -2.1 -2.1 -2.1 -2.1 -2.1 -2.1 -2.1 -2.1 -2.1 -2.1 -2.1 -2.1 -2.1 -2.1 -2.1 -2.1 -2.1 -2.1 -2.1 -2.1 -2.1 -2.1 -2.1 -2.1 -2.1 -2.1 -2.1 -2.1 -2.1 -2.1 -2.1 -2.1 -2.1 -2.1 -2.1 -2.1 -2.1 -2.1 -2.1 -2.1 -2.1 -2.1 -2.1 -2.1 -2.1 -2.1 -2.1 -2.1 -2.1 -2.1 -2.1 -2.1 -2.1 -2.1 -2.1 -2.1 -2.1 -2.1 -2.1 -2.1 -2.1 -2.1 -2.1 -2.1 -2.1 -2.1 -2.1 -2.1 -2.1 -2.1 -2.1 -2.1 -2.1 -2.1 -2.1 -2.1 -2.1 -2.1 -2.1 -2.1 -2.1 -2.1 -2.1 -2.1 -2.1 -2.1 -2.1 -2.1 -2.1 -2.1 -2.1 -2.1 -2.1 -2.1 -2.1 -2.1 -2.1 -2.1 -2.1 -2.1 -2.1 -2.1 -2.1 -2.1 -2.1 -2.1 -2.1 -2.1 -2.1 -2.1 -2.1 -2.1 -2.1 -2.1 -2.1 -2.1 20.1 41.5 53.3 58.4 57.1 52.6 51.9 54.8 44.3 35.4 40.8 41.3 37 41.8 46 54.5 60.1 57.2 59.3 65.3 69.9 65.9 63.7 64.1 63.4 66.2 73.5 77.2 80.7 84.4 81.1 90.1 94.1 102.2 112.4 113.6 104 105.9 102.3 104.4 110 124 126 125.8 122.9 132.9 132.4 131.9 132.8 134.8 134.4 129.8 128.2 129.3 123.3 120 118.2 113.7 118.4 119.6 145.7 150.9 157.9 150.8 135.5 124 115.3 105.4 88.6 84.7 81 72.5 65 58.8 51.8 39.1 28.3 20.9
-2.1 -2.1 -2.1 -2.1 -2.1 -2.1 -2.1 -2.1 -2.1 -2.1 -2.1 -2.1 -2.1 -2.1 -2.1 -2.1 -2.1 -2.1 -2.1 -2.1 -2.1 -2.1 -2.1 -2.1 -2.1 -2.1 -2.1 -2.1 -2.1 -2.1 -2.1 -2.1 -2.1 -2.1 -2.1 -2.1 -2.1 -2.1 -2.1 -2.1 -2.1 -2.1 -2.1 -2.1 -2.1 -2.1 -2.1 -2.1 -2.1 -2.1 -2.1 -2.1 -2.1 -2.1 -2.1 -2.1 -2.1 -2.1 -2.1 -2.1 -2.1 -2.1 -2.1 -2.1 -2.1 -2.1 -2.1 -2.1 -2.1 -2.1 -2.1 -2.1 -2.1 -2.1 -2.1 -2.1 -2.1 -2.1 -2.1 -2.1 -2.1 -2.1 -2.1 -2.1 -2.1 -2.1 -2.1 -2.1 -2.1 -2.1 -2.1 -2.1 -2.1 -2.1 -2.1 -2.1 -2.1 -2.1 -2.1 -2.1 -2.1 -2.1 -2.1 -2.1 -2.1 -2.1 -2.1 -2.1 -2.1 -2.1 -2.1 -2.1 -2.1 -2.1 -2.1 -2.1 -2.1 -2.1 -2.1 -2.1 -2.1 -2.1 26.7 44.8 52.6 63.3 56.7 54.4 49.6 48.1 42.6 30.6 26.2 28.7 30 36.5 43.3 42.8 48.5 47.6 46.9 43.9 42 41.4 41.7 47.9 46.5 57.1 65.3 67.6 70.6 78.3 77.4 80.5 89.9 103.4 112.9 111.5 104.2 103 107.6 104 99.3 105.3 110 114.9 115.8 123.2 124.4 122.2 123.1 127.4 128.3 125.5 122.8 130.8 128.6 118.8 119 113.6 121.3 125.3 136 148.6 155.5 153.6 135.9 118.2 111 105.1 89.9 81.2 73.4 65.6 59.8 51.4 45.5 37.1 28.9 18.8
-2.1 -2.1 -2.1 -2.1 -2.1 -2.1 -2.1 -2.1 -2.1 -2.1 -2.1 -2.1 -2.1 -2.1 -2.1 -2.1 -2.1 -2.1 -2.1 -2.1 -2.1 -2.1 -2.1 -2.1 -2.1 -2.1 -2.1 -2.1 -2.1 -2.1 -2.1 -2.1 -2.1 -2.1 -2.1 -2.1 -2.1 -2.1 -2.1 -2.1 -2.1 -2.1 -2.1 -2.1 -2.1 -2.1 -2.1 -2.1 -2.1 -2.1 -2.1 -2.1 -2.1 -2.1 -2.1 -2.1 -2.1 -2.1 -2.1 -2.1 -2.1 -2.1 -2.1 -2.1 -2.1 -2.1 -2.1 -2.1 -2.1 -2.1 -2.1 -2.1 -2.1 -2.1 -2.1 -2.1 -2.1 -2.1 -2.1 -2.1 -2.1 -2.1 -2.1 -2.1 -2.1 -2.1 -2.1 -2.1 -2.1 -2.1 -2.1 -2.1 -2.1 -2.1 -2.1 -2.1 -2.1 -2.1 -2.1 -2.1 -2.1 -2.1 -2.1 -2.1 -2.1 -2.1 -2.1 -2.1 -2.1 -2.1 -2.1 -2.1 -2.1 -2.1 -2.1 -2.1 -2.1 -2.1 -2.1 -2.1 -2.1 1.4 24.3 38.9 48.7 56.7 52.8 53.8 45.8 43.1 34.6 27.7 9.2 14.2 17.5 26.5 33.5 35.1 35.6 37 25.7 25 27.1 29.2 29 31.7 33.9 49.2 54.4 56.2 62.4 77.1 74.8 76.2 85.9 93.8 105.4 103.7 99.4 102.3 112.2 106.7 103.9 101.5 112.6 113.7 107.8 113.4 118.9 115.7 113.1 115.6 115.5 119.5 119.3 126.6 129 120 115.2 113.6 123.7 133.2 139.6 149.3 148.3 142.6 137 117.3 105.9 101.6 91 74.4 71.1 64.2 57.5 49.6 41.7 34.6 28.3 19
-2.1 -2.1 -2.1 -2.1 -2.1 -2.1 -2.1 -2.1 -2.1 -2.1 -2.1 -2.1 -2.1 -2.1 -2.1 -2.1 -2.1 -2.1 -2.1 -2.1 -2.1 -2.1 -2.1 -2.1 -2.1 -2.1 -2.1 -2.1 -2.1 -2.1 -2.1 -2.1 -2.1 -2.1 -2.1 -2.1 -2.1 -2.1 -2.1 -2.1 -2.1 -2.1 -2.1 -2.1 -2.1 -2.1 -2.1 -2.1 -2.1 -2.1 -2.1 -2.1 -2.1 -2.1 -2.1 -2.1 -2.1 -2.1 -2.1 -2.1 -2.1 -2.1 -2.1 -2.1 -2.1 -2.1 -2.1 -2.1 -2.1 -2.1 -2.1 -2.1 -2.1 -2.1 -2.1 -2.1 -2.1 -2.1 -2.1 -2.1 -2.1 -2.1 -2.1 -2.1 -2.1 -2.1 -2.1 -2.1 -2.1 -2.1 -2.1 -2.1 -2.1 -2.1 -2.1 -2.1 -2.1 -2.1 -2.1 -2.1 -2.1 -2.1 -2.1 -2.1 -2.1 -2.1 -2.1 -2.1 -2.1 -2.1 -2.1 -2.1 -2.1 -2.1 -2.1 -2.1 -2.1 -2.1 -2.1 -2.1 -2.1 -2.1 23.5 34.8 41.5 45.5 45.3 44.3 40.9 35.3 28.7 18.9 11.6 -2.1 4 8 13.2 14.8 18.6 15.2 15.1 15.4 16.9 21.5 23.2 25.1 26.2 37.5 46.4 51.8 60.4 73.6 71.2 79.4 78.3 86.6 92.9 102.4 96.2 105.3 107 102.9 104.9 99.3 107.3 109.6 102.3 106.3 110 111.3 107.1 104.8 108.5 116.8 118.1 123.4 123.3 120.4 113.6 113.6 122.5 134.2 138.1 140.2 145.9 142.4 137.9 115.1 101.7 90.8 82.1 74.4 66.7 61.8 56.3 49.6 42.4 34.9 25.5 15.7
-2.1 -2.1 -2.1 -2.1 -2.1 -2.1 -2.1 -2.1 -2.1 -2.1 -2.1 -2.1 -2.1 -2.1 -2.1 -2.1 -2.1 -2.1 -2.1 -2.1 -2.1 -2.1 -2.1 -2.1 -2.1 -2.1 -2.1 -2.1 -2.1 -2.1 -2.1 -2.1 -2.1 -2.1 -2.1 -2.1 -2.1 -2.1 -2.1 -2.1 -2.1 -2.1 -2.1 -2.1 -2.1 -2.1 -2.1 -2.1 -2.1 -2.1 -2.1 -2.1 -2.1 -2.1 -2.1 -2.1 -2.1 -2.1 -2.1 -2.1 -2.1 -2.1 -2.1 -2.1 -2.1 -2.1 -2.1 -2.1 -2.1 -2.1 -2.1 -2.1 -2.1 -2.1 -2.1 -2.1 -2.1 -2.1 -2.1 -2.1 -2.1 -2.1 -2.1 -2.1 -2.1 -2.1 -2.1 -2.1 -2.1 -2.1 -2.1 -2.1 -2.1 -2.1 -2.1 -2.1 -2.1 -2.1 -2.1 -2.1 -2.1 -2.1 -2.1 -2.1 -2.1 -2.1 -2.1 -2.1 -2.1 -2.1 -2.1 -2.1 -2.1 -2.1 -2.1 -2.1 -2.1 -2.1 -2.1 -2.1 -2.1 -2.1 27.2 34.8 41.8 45.2 41.2 38.8 38.9 31.6 23.3 17 -2.1 -2.1 -2.1 0.5 6.1 8.4 12.8 14.6 14.9 15.4 17 21.2 21.2 17.3 19.6 29.1 35.3 45.9 59.1 63.6 64.4 71.8 70.2 83.4 90.8 94.2 87.8 99.1 102.8 100.7 104.9 99.9 98.8 105.3 100.5 108.4 109.7 108.3 102.3 102.9 105.2 108.5 114 114.4 112.5 114.2 114 114.5 120.1 134.7 136.6 139.3 149.4 147.8 135.4 114.8 102.2 91.1 78.7 71.2 60 54.6 52.3 48.8 39.7 33.5 25.6 16.1
-2.1 -2.1 -2.1 -2.1 -2.1 -2.1 -2.1 -2.1 -2.1 -2.1 -2.1 -2.1 -2.1 -2.1 -2.1 -2.1 -2.1 -2.1 -2.1 -2.1 -2.1 -2.1 -2.1 -2.1 -2.1 -2.1 -2.1 -2.1 -2.1 -2.1 -2.1 -2.1 -2.1 -2.1 -2.1 -2.1 -2.1 -2.1 -2.1 -2.1 -2.1 -2.1 -2.1 -2.1 -2.1 -2.1 -2.1 -2.1 -2.1 -2.1 -2.1 -2.1 -2.1 -2.1 -2.1 -2.1 -2.1 -2.1 -2.1 -2.1 -2.1 -2.1 -2.1 -2.1 -2.1 -2.1 -2.1 -2.1 -2.1 -2.1 -2.1 -2.1 -2.1 -2.1 -2.1 -2.1 -2.1 -2.1 -2.1 -2.1 -2.1 -2.1 -2.1 -2.1 -2.1 -2.1 -2.1 -2.1 -2.1 -2.1 -2.1 -2.1 -2.1 -2.1 -2.1 -2.1 -2.1 -2.1 -2.1 -2.1 -2.1 -2.1 -2.1 -2.1 -2.1 -2.1 -2.1 -2.1 -2.1 -2.1 -2.1 -2.1 -2.1 -2.1 -2.1 -2.1 -2.1 -2.1 -2.1 -2.1 -2.1 -2.1 33.7 39.6 40.5 42.6 36.4 35.8 28.5 21.7 19.2 -2.1 -2.1 -2.1 -2.1 -2.1 5.1 11.6 15.5 18.5 15.9 17 20.1 21.1 22.2 17.5 13 18 22.8 33.1 49.8 51.8 58.8 55.2 56.7 73.9 82.4 83.9 77.5 90.7 97.4 100.5 103.6 98.8 96.6 89.2 92.3 101.2 105.4 102.6 97.8 95.2 103.2 106 104.5 103.6 104.6 103 113.1 118.2 123.1 139.9 139.6 141.3 151.9 151.1 135.2 119.4 101.4 92.5 80.2 69.9 57.8 51.9 50.1 46.6 38.7 30.1 26 17.6
-2.1 -2.1 -2.1 -2.1 -2.1 -2.1 -2.1 -2.1 -2.1 -2.1 -2.1 -2.1 -2.1 -2.1 -2.1 -2.1 -2.1 -2.1 -2.1 -2.1 -2.1 -2.1 -2.1 -2.1 -2.1 -2.1 -2.1 -2.1 -2.1 -2.1 -2.1 -2.1 -2.1 -2.1 -2.1 -2.1 -2.1 -2.1 -2.1 -2.1 -2.1 -2.1 -2.1 -2.1 -2.1 -2.1 -2.1 -2.1 -2.1 -2.1 -2.1 -2.1 -2.1 -2.1 -2.1 -2.1 -2.1 -2.1 -2.1 -2.1 -2.1 -2.1 -2.1 -2.1 -2.1 -2.1 -2.1 -2.1 -2.1 -2.1 -2.1 -2.1 -2.1 -2.1 -2.1 -2.1 -2.1 -2.1 -2.1 -2.1 -2.1 -2.1 -2.1 -2.1 -2.1 -2.1 -2.1 -2.1 -2.1 -2.1 -2.1 -2.1 -2.1 -2.1 -2.1 -2.1 -2.1 -2.1 -2.1 -2.1 -2.1 -2.1 -2.1 -2.1 -2.1 -2.1 -2.1 -2.1 -2.1 -2.1 -2.1 -2.1 -2.1 -2.1 -2.1 -2.1 -2.1 -2.1 -2.1 -2.1 -2.1 11.1 25.2 32.3 32.3 26.1 22 22.3 21.3 -2.1 -2.1 -2.1 -2.1 -2.1 -2.1 -2.1 -2.1 16.9 22 29.3 25.6 26.6 29.2 32.3 28 19.9 12.1 8.8 14.3 22.8 34.6 36.4 34.7 37.2 49.7 63.4 73.2 79.2 70.8 82.9 91 98.6 103.9 98.9 97.3 93.3 88.3 93.8 97.4 94.7 92.8 91.5 100.9 99.6 102.3 100.4 103.6 101.6 104.5 111.4 116.6 140 147.2 143.7 144.5 149.1 139.4 124.4 107.3 95.4 87.4 76.2 61.9 54 52.3 47.6 37.9 29.7 23.1 16.6
-2.1 -2.1 -2.1 -2.1 -2.1 -2.1 -2.1 -2.1 -2.1 -2.1 -2.1 -2.1 -2.1 -2.1 -2.1 -2.1 -2.1 -2.1 -2.1 -2.1 -2.1 -2.1 -2.1 -2.1 -2.1 -2.1 -2.1 -2.1 -2.1 -2.1 -2.1 -2.1 -2.1 -2.1 -2.1 -2.1 -2.1 -2.1 -2.1 -2.1 -2.1 -2.1 -2.1 -2.1 -2.1 -2.1 -2.1 -2.1 -2.1 -2.1 -2.1 -2.1 -2.1 -2.1 -2.1 -2.1 -2.1 -2.1 -2.1 -2.1 -2.1 -2.1 -2.1 -2.1 -2.1 -2.1 -2.1 -2.1 -2.1 -2.1 -2.1 -2.1 -2.1 -2.1 -2.1 -2.1 -2.1 -2.1 -2.1 -2.1 -2.1 -2.1 -2.1 -2.1 -2.1 -2.1 -2.1 -2.1 -2.1 -2.1 -2.1 -2.1 -2.1 -2.1 -2.1 -2.1 -2.1 -2.1 -2.1 -2.1 -2.1 -2.1 -2.1 -2.1 -2.1 -2.1 -2.1 -2.1 -2.1 -2.1 -2.1 -2.1 -2.1 -2.1 -2.1 -2.1 -2.1 -2.1 -2.1 -2.1 -2.1 -2.1 14.8 21.3 17.1 8.5 -2.1 -2.1 -2.1 -2.1 -2.1 -2.1 -2.1 -2.1 -2.1 -2.1 -2.1 -2.1 22 24.4 24.6 25 30.5 30.7 35.3 29.1 21.4 9.6 2.8 10.4 28.4 21.8 17.1 28.5 39.6 50.4 62.6 71.8 67 79.5 87.5 89.6 99.9 100.4 101.1 97.1 93.6 89.7 94.1 88.7 90.4 87.6 92.2 92.9 100.3 98 100.7 96.3 106.7 112.2 115.6 137.6 143.4 143.1 142.1 147.5 146.4 128 109.7 104.4 93.2 84.6 73.7 60.8 55.5 47.5 36.2 27.5 20.7 15.9
-2.1 -2.1 -2.1 -2.1 -2.1 -2.1 -2.1 -2.1 -2.1 -2.1 -2.1 -2.1 -2.1 -2.1 -2.1 -2.1 -2.1 -2.1 -2.1 -2.1 -2.1 -2.1 -2.1 -2.1 -2.1 -2.1 -2.1 -2.1 -2.1 -2.1 -2.1 -2.1 -2.1 -2.1 -2.1 -2.1 -2.1 -2.1 -2.1 -2.1 -2.1 -2.1 -2.1 -2.1 -2.1 -2.1 -2.1 -2.1 -2.1 -2.1 -2.1 -2.1 -2.1 -2.1 -2.1 -2.1 -2.1 -2.1 -2.1 -2.1 -2.1 -2.1 -2.1 -2.1 -2.1 -2.1 -2.1 -2.1 -2.1 -2.1 -2.1 -2.1 -2.1 -2.1 -2.1 -2.1 -2.1 -2.1 -2.1 -2.1 -2.1 -2.1 -2.1 -2.1 -2.1 -2.1 -2.1 -2.1 -2.1 -2.1 -2.1 -2.1 -2.1 -2.1 -2.1 -2.1 -2.1 -2.1 -2.1 -2.1 -2.1 -2.1 -2.1 -2.1 -2.1 -2.1 -2.1 -2.1 -2.1 -2.1 -2.1 -2.1 -2.1 -2.1 -2.1 -2.1 -2.1 -2.1 -2.1 -2.1 -2.1 -2.1 -1 -0.3 -2 -2.1 -2.1 -2.1 -2.1 -2.1 -2.1 -2.1 -2.1 -2.1 -2.1 -2.1 -2.1 -2.1 -2.1 13.9 20.8 25.3 24.6 28.8 29 25.2 29.8 24.9 -2.1 -2.1 -2.1 -2.1 4.8 13.3 28.2 39.9 49.5 57.3 61.9 81.4 83.1 90.4 96.2 100.2 102.4 98 89.9 81 82.1 82.3 81.8 75.5 80.6 82.6 88.9 93.2 96.3 90.2 104.1 110.9 116 136.9 141.5 141.5 142.1 142.7 138.8 129.9 106.9 106.5 97.2 88.4 76.7 68.9 56.5 47.1 31.9 25.2 18.7 14.2
-2.1 -2.1 -2.1 -2.1 -2.1 -2.1 -2.1 -2.1 -2.1 -2.1 -2.1 -2.1 -2.1 -2.1 -2.1 -2.1 -2.1 -2.1 -2.1 -2.1 -2.1 -2.1 -2.1 -2.1 -2.1 -2.1 -2.1 -2.1 -2.1 -2.1 -2.1 -2.1 -2.1 -2.1 -2.1 -2.1 -2.1 -2.1 -2.1 -2.1 -2.1 -2.1 -2.1 -2.1 -2.1 -2.1 -2.1 -2.1 -2.1 -2.1 -2.1 -2.1 -2.1 -2.1 -2.1 -2.1 -2.1 -2.1 -2.1 -2.1 -2.1 -2.1 -2.1 -2.1 -2.1 -2.1 -2.1 -2.1 -2.1 -2.1 -2.1 -2.1 -2.1 -2.1 -2.1 -2.1 -2.1 -2.1 -2.1 -2.1 -2.1 -2.1 -2.1 -2.1 -2.1 -2.1 -2.1 -2.1 -2.1 -2.1 -2.1 -2.1 -2.1 -2.1 -2.1 -2.1 -2.1 -2.1 -2.1 -2.1 -2.1 -2.1 -2.1 -2.1 -2.1 -2.1 -2.1 -2.1 -2.1 -2.1 -2.1 -2.1 -2.1 -2.1 -2.1 -2.1 -2.1 -2.1 -2.1 -2.1 -2.1 -2.1 -2.1 -2.1 -2.1 -2.1 -2.1 -2.1 -2.1 -2.1 -2.1 -2.1 -2.1 -2.1 -2.1 -2.1 -2.1 -2.1 -2.1 10.8 18.3 21.2 23.3 20.8 22.1 18.5 19.9 20.8 -2.1 -2.1 -2.1 -2.1 -2.1 12 21.4 29.2 40.1 54.5 67 71.8 79.7 91.1 93.4 96.3 97.2 95.6 93 81.1 72.3 77.7 75.9 67.6 66.2 74.8 80.4 84.9 86.9 88.8 96.7 111.8 120 132.7 138.4 144.8 146.9 144.3 139 122.3 103.3 99.8 94.1 86 72.7 62.6 50.3 38 31.1 22.4 15.7 10.3
-2.1 -2.1 -2.1 -2.1 -2.1 -2.1 -2.1 -2.1 -2.1 -2.1 -2.1 -2.1 -2.1 -2.1 -2.1 -2.1 -2.1 -2.1 -2.1 -2.1 -2.1 -2.1 -2.1 -2.1 -2.1 -2.1 -2.1 -2.1 -2.1 -2.1 -2.1 -2.1 -2.1 -2.1 -2.1 -2.1 -2.1 -2.1 -2.1 -2.1 -2.1 -2.1 -2.1 -2.1 -2.1 -2.1 -2.1 -2.1 -2.1 -2.1 -2.1 -2.1 -2.1 -2.1 -2.1 -2.1 -2.1 -2.1 -2.1 -2.1 -2.1 -2.1 -2.1 -2.1 -2.1 -2.1 -2.1 -2.1 -2.1 -2.1 -2.1 -2.1 -2.1 -2.1 -2.1 -2.1 -2.1 -2.1 -2.1 -2.1 -2.1 -2.1 -2.1 -2.1 -2.1 -2.1 -2.1 -2.1 -2.1 -2.1 -2.1 -2.1 -2.1 -2.1 -2.1 -2.1 -2.1 -2.1 -2.1 -2.1 -2.1 -2.1 -2.1 -2.1 -2.1 -2.1 -2.1 -2.1 -2.1 -2.1 -2.1 -2.1 -2.1 -2.1 -2.1 -2.1 -2.1 -2.1 -2.1 -2.1 -2.1 -2.1 -2.1 -2.1 -2.1 -2.1 -2.1 -2.1 -2.1 -2.1 -2.1 -2.1 -2.1 -2.1 -2.1 -2.1 10.6 8.6 8.6 14.6 12.5 19.1 20 14 16.3 13.4 -2.1 -2.1 -2.1 -2.1 -2.1 -2.1 -2.1 1.7 16.7 33.4 48.6 64.7 63.4 64.4 76.8 82.6 85.8 91.7 91.3 90 86.8 77.5 72.6 64.8 64.2 59.5 58 70.8 75.4 73.7 81.6 82.8 99 106.8 114.1 122.9 128.8 134.1 144.1 136 128.7 112.5 98.3 93.8 87.7 75.8 67.6 57.9 46.1 34.2 27.5 21.5 14.5 8.4
-2.1 -2.1 -2.1 -2.1 -2.1 -2.1 -2.1 -2.1 -2.1 -2.1 -2.1 -2.1 -2.1 -2.1 -2.1 -2.1 -2.1 -2.1 -2.1 -2.1 -2.1 -2.1 -2.1 -2.1 -2.1 -2.1 -2.1 -2.1 -2.1 -2.1 -2.1 -2.1 -2.1 -2.1 -2.1 -2.1 -2.1 -2.1 -2.1 -2.1 -2.1 -2.1 -2.1 -2.1 -2.1 -2.1 -2.1 -2.1 -2.1 -2.1 -2.1 -2.1 -2.1 -2.1 -2.1 -2.1 -2.1 -2.1 -2.1 -2.1 -2.1 -2.1 -2.1 -2.1 -2.1 -2.1 -2.1 -2.1 -2.1 -2.1 -2.1 -2.1 -2.1 -2.1 -2.1 -2.1 -2.1 -2.1 -2.1 -2.1 -2.1 -2.1 -2.1 -2.1 -2.1 -2.1 -2.1 -2.1 -2.1 -2.1 -2.1 -2.1 -2.1 -2.1 -2.1 -2.1 -2.1 -2.1 -2.1 -2.1 -2.1 -2.1 -2.1 -2.1 -2.1 -2.1 -2.1 -2.1 -2.1 -2.1 -2.1 -2.1 -2.1 -2.1 -2.1 -2.1 -2.1 -2.1 -2.1 -2.1 -2.1 -2.1 -2.1 -2.1 -2.1 -2.1 -2.1 -2.1 -2.1 -2.1 -2.1 -2.1 -2.1 -2.1 -2.1 -2.1 -2.1 -2.1 12.5 8.9 14.5 16.5 10.1 4.7 -2.1 -2.1 -2.1 -2.1 -2.1 -2.1 -2.1 -2.1 -2.1 -2.1 14.4 23.2 42 61 66.2 62.6 72.8 74.9 80.6 87.1 84 83.6 83 74.5 73 69.5 55.6 53.8 52.7 66.1 70.1 68.2 70.8 84.3 101 98.8 103.6 103.9 120.1 126.1 131.3 129.6 128.5 105.7 94.3 87.9 82.6 72.4 62.1 50.7 44.5 32.3 25.1 17.7 12.5 8.6
-2.1 -2.1 -2.1 -2.1 -2.1 -2.1 -2.1 -2.1 -2.1 -2.1 -2.1 -2.1 -2.1 -2.1 -2.1 -2.1 -2.1 -2.1 -2.1 -2.1 -2.1 -2.1 -2.1 -2.1 -2.1 -2.1 -2.1 -2.1 -2.1 -2.1 -2.1 -2.1 -2.1 -2.1 -2.1 -2.1 -2.1 -2.1 -2.1 -2.1 -2.1 -2.1 -2.1 -2.1 -2.1 -2.1 -2.1 -2.1 -2.1 -2.1 -2.1 -2.1 -2.1 -2.1 -2.1 -2.1 -2.1 -2.1 -2.1 -2.1 -2.1 -2.1 -2.1 -2.1 -2.1 -2.1 -2.1 -2.1 -2.1 -2.1 -2.1 -2.1 -2.1 -2.1 -2.1 -2.1 -2.1 -2.1 -2.1 -2.1 -2.1 -2.1 -2.1 -2.1 -2.1 -2.1 -2.1 -2.1 -2.1 -2.1 -2.1 -2.1 -2.1 -2.1 -2.1 -2.1 -2.1 -2.1 -2.1 -2.1 -2.1 -2.1 -2.1 -2.1 -2.1 -2.1 -2.1 -2.1 -2.1 -2.1 -2.1 -2.1 -2.1 -2.1 -2.1 -2.1 -2.1 -2.1 -2.1 -2.1 -2.1 -2.1 -2.1 -2.1 -2.1 -2.1 -2.1 -2.1 -2.1 -2.1 -2.1 -2.1 -2.1 -2.1 -2.1 -2.1 -2.1 -2.1 -2.1 4.4 -1.2 -2.1 1.4 -1.1 -2.1 -2.1 -2.1 -2.1 -2.1 -2.1 -2.1 -2.1 -2.1 -2.1 -2.1 13.8 41.4 52.1 60.5 61.7 63.6 66.9 73.4 74.7 77.9 75.7 76.9 70.7 67.6 65.1 62.4 49.3 45.9 51.3 61.1 64.5 74.8 76.5 87.5 89.6 89.7 87.3 103.6 113.2 119.1 123.6 120.4 102.4 91.5 85 76.6 67.4 58.2 45.7 37.1 31.1 22.3 15.3 10.4 7
-2.1 -2.1 -2.1 -2.1 -2.1 -2.1 -2.1 -2.1 -2.1 -2.1 -2.1 -2.1 -2.1 -2.1 -2.1 -2.1 -2.1 -2.1 -2.1 -2.1 -2.1 -2.1 -2.1 -2.1 -2.1 -2.1 -2.1 -2.1 -2.1 -2.1 -2.1 -2.1 -2.1 -2.1 -2.1 -2.1 -2.1 -2.1 -2.1 -2.1 -2.1 -2.1 -2.1 -2.1 -2.1 -2.1 -2.1 -2.1 -2.1 -2.1 -2.1 -2.1 -2.1 -2.1 -2.1 -2.1 -2.1 -2.1 -2.1 -2.1 -2.1 -2.1 -2.1 -2.1 -2.1 -2.1 -2.1 -2.1 -2.1 -2.1 -2.1 -2.1 -2.1 -2.1 -2.1 -2.1 -2.1 -2.1 -2.1 -2.1 -2.1 -2.1 -2.1 -2.1 -2.1 -2.1 -2.1 -2.1 -2.1 -2.1 -2.1 -2.1 -2.1 -2.1 -2.1 -2.1 -2.1 -2.1 -2.1 -2.1 -2.1 -2.1 -2.1 -2.1 -2.1 -2.1 -2.1 -2.1 -2.1 -2.1 -2.1 -2.1 -2.1 -2.1 -2.1 -2.1 -2.1 -2.1 -2.1 -2.1 -2.1 -2.1 -2.1 -2.1 -2.1 -2.1 -2.1 -2.1 -2.1 -2.1 -2.1 -2.1 -2.1 -2.1 -2.1 -2.1 -2.1 -2.1 -2.1 -2.1 -2.1 -2.1 -2.1 -2.1 -2.1 -2.1 -2.1 -2.1 -2.1 -2.1 -2.1 -2.1 -2.1 -2.1 -2.1 -2.1 42.7 54.8 64.2 64.6 72.1 71.2 71.1 62.2 64.8 66.6 66.8 62.6 57.9 57.9 55.7 50.7 40.5 37 49.8 59.1 64 66.2 71.5 76.8 76.5 68.6 87.3 99.2 113.3 115.5 114.5 92.1 83.1 77.2 70.5 64.6 56.4 43.5 31.6 26.2 19.9 12 6.5 5.5
-2.1 -2.1 -2.1 -2.1 -2.1 -2.1 -2.1 -2.1 -2.1 -2.1 -2.1 -2.1 -2.1 -2.1 -2.1 -2.1 -2.1 -2.1 -2.1 -2.1 -2.1 -2.1 -2.1 -2.1 -2.1 -2.1 -2.1 -2.1 -2.1 -2.1 -2.1 -2.1 -2.1 -2.1 -2.1 -2.1 -2.1 -2.1 -2.1 -2.1 -2.1 -2.1 -2.1 -2.1 -2.1 -2.1 -2.1 -2.1 -2.1 -2.1 -2.1 -2.1 -2.1 -2.1 -2.1 -2.1 -2.1 -2.1 -2.1 -2.1 -2.1 -2.1 -2.1 -2.1 -2.1 -2.1 -2.1 -2.1 -2.1 -2.1 -2.1 -2.1 -2.1 -2.1 -2.1 -2.1 -2.1 -2.1 -2.1 -2.1 -2.1 -2.1 -2.1 -2.1 -2.1 -2.1 -2.1 -2.1 -2.1 -2.1 -2.1 -2.1 -2.1 -2.1 -2.1 -2.1 -2.1 -2.1 -2.1 -2.1 -2.1 -2.1 -2.1 -2.1 -2.1 -2.1 -2.1 -2.1 -2.1 -2.1 -2.1 -2.1 -2.1 -2.1 -2.1 -2.1 -2.1 -2.1 -2.1 -2.1 -2.1 -2.1 -2.1 -2.1 -2.1 -2.1 -2.1 -2.1 -2.1 -2.1 -2.1 -2.1 -2.1 -2.1 -2.1 -2.1 -2.1 -2.1 -2.1 -2.1 -2.1 -2.1 -2.1 -2.1 5.7 -2.1 -2.1 -2.1 -2.1 -2.1 -2.1 -2.1 -2.1 -2.1 -2.1 -2.1 41.7 57.1 64.3 61 73.9 64.3 64.3 61.1 55.8 53.3 56.2 55.1 52 49.8 52.1 44.3 37.8 31.3 34.3 52.1 59.8 66.4 64.7 67.5 66.6 58.8 74.2 89.4 105.7 110.3 106.2 91.7 76.1 67.3 61.2 55.8 49.9 42.7 26.8 21.3 16 10.4 2.1 4.2
-2.1 -2.1 -2.1 -2.1 -2.1 -2.1 -2.1 -2.1 -2.1 -2.1 -2.1 -2.1 -2.1 -2.1 -2.1 -2.1 -2.1 -2.1 -2.1 -2.1 -2.1 -2.1 -2.1 -2.1 -2.1 -2.1 -2.1 -2.1 -2.1 -2.1 -2.1 -2.1 -2.1 -2.1 -2.1 -2.1 -2.1 -2.1 -2.1 -2.1 -2.1 -2.1 -2.1 -2.1 -2.1 -2.1 -2.1 -2.1 -2.1 -2.1 -2.1 -2.1 -2.1 -2.1 -2.1 -2.1 -2.1 -2.1 -2.1 -2.1 -2.1 -2.1 -2.1 -2.1 -2.1 -2.1 -2.1 -2.1 -2.1 -2.1 -2.1 -2.1 -2.1 -2.1 -2.1 -2.1 -2.1 -2.1 -2.1 -2.1 -2.1 -2.1 -2.1 -2.1 -2.1 -2.1 -2.1 -2.1 -2.1 -2.1 -2.1 -2.1 -2.1 -2.1 -2.1 -2.1 -2.1 -2.1 -2.1 -2.1 -2.1 -2.1 -2.1 -2.1 -2.1 -2.1 -2.1 -2.1 -2.1 -2.1 8.9 -2.1 -2.1 -2.1 -2.1 -2.1 -2.1 -2.1 -2.1 -2.1 -2.1 -2.1 -2.1 -2.1 -2.1 -2.1 -2.1 -2.1 -2.1 -2.1 -2.1 -2.1 -2.1 -2.1 -2.1 -2.1 -2.1 -2.1 -2.1 -2.1 -2.1 -2.1 -2.1 -2.1 -2.1 -2.1 -2.1 -2.1 -2.1 -2.1 -2.1 -2.1 -2.1 -2.1 -2.1 -2.1 34.4 48.6 55.6 55.8 47.6 48 60.5 61 58.4 52.4 46.8 47.8 42.4 43.5 47.7 43.2 32.1 27.5 36.6 39.4 47.8 53.7 57.3 61.7 58.9 55.5 64.1 77.3 97.6 110.3 103.1 87.9 74 66 56.2 50.1 42.5 35 23.3 18.4 12.8 9.8 1.8 -2.1
-2.1 -2.1 -2.1 -2.1 -2.1 -2.1 -2.1 -2.1 -2.1 -2.1 -2.1 -2.1 -2.1 -2.1 -2.1 -2.1 -2.1 -2.1 -2.1 -2.1 -2.1 -2.1 -2.1 -2.1 -2.1 -2.1 -2.1 -2.1 -2.1 -2.1 -2.1 -2.1 -2.1 -2.1 -2.1 -2.1 -2.1 -2.1 -2.1 -2.1 -2.1 -2.1 -2.1 -2.1 -2.1 -2.1 -2.1 -2.1 -2.1 -2.1 -2.1 -2.1 -2.1 -2.1 -2.1 -2.1 -2.1 -2.1 -2.1 -2.1 -2.1 -2.1 -2.1 -2.1 -2.1 -2.1 -2.1 -2.1 -2.1 -2.1 -2.1 -2.1 -2.1 -2.1 -2.1 -2.1 -2.1 -2.1 -2.1 -2.1 -2.1 -2.1 -2.1 -2.1 -2.1 -2.1 -2.1 -2.1 -2.1 -2.1 -2.1 -2.1 -2.1 -2.1 -2.1 -2.1 -2.1 -2.1 -2.1 -2.1 -2.1 -2.1 -2.1 -2.1 -2.1 -2.1 7.2 10.2 8.9 18.5 26 26.4 25.8 18.5 -2.1 -2.1 -2.1 -2.1 -2.1 -2.1 -2.1 -2.1 -2.1 -2.1 -2.1 -2.1 -2.1 -2.1 -2.1 -2.1 -2.1 -2.1 -2.1 -2.1 -2.1 -2.1 -2.1 -2.1 -2.1 -2.1 -2.1 -2.1 -2.1 -2.1 -2.1 -2.1 -2.1 -2.1 -2.1 -2.1 -2.1 -2.1 -2.1 -2.1 -2.1 -2.1 -2.1 23.3 40.2 30.1 25.1 45.3 55.3 60.9 57.1 53.9 50.3 39 37.8 40.1 43.8 39.3 26.9 31.5 40.6 49.2 49.5 46.2 47.6 52.7 54.4 54.9 60.3 81 86.7 99.9 94.9 84.8 70.6 61.4 53.3 42.8 35.2 28.3 21.7 16.7 11.4 2.9 -2.1 -2.1
-2.1 -2.1 -2.1 -2.1 -2.1 -2.1 -2.1 -2.1 -2.1 -2.1 -2.1 -2.1 -2.1 -2.1 -2.1 -2.1 -2.1 -2.1 -2.1 -2.1 -2.1 -2.1 -2.1 -2.1 -2.1 -2.1 -2.1 -2.1 -2.1 -2.1 -2.1 -2.1 -2.1 -2.1 -2.1 -2.1 -2.1 -2.1 -2.1 -2.1 -2.1 -2.1 -2.1 -2.1 -2.1 -2.1 -2.1 -2.1 -2.1 -2.1 -2.1 -2.1 -2.1 -2.1 -2.1 -2.1 -2.1 -2.1 -2.1 -2.1 -2.1 -2.1 -2.1 -2.1 -2.1 -2.1 -2.1 -2.1 -2.1 -2.1 -2.1 -2.1 -2.1 -2.1 -2.1 -2.1 -2.1 -2.1 -2.1 -2.1 -2.1 -2.1 -2.1 -2.1 -2.1 -2.1 -2.1 -2.1 -2.1 -2.1 -2.1 -2.1 -2.1 -2.1 -2.1 -2.1 -2.1 -2.1 -2.1 -2.1 -2.1 -2.1 -2.1 -2.1 -2.1 -2.1 12.6 22.6 26.3 28.2 30.4 37.5 35.7 22.3 15.8 -2.1 -2.1 -2.1 -2.1 -2.1 -2.1 -2.1 -2.1 -2.1 -2.1 -2.1 -2.1 -2.1 -2.1 -2.1 -2.1 -2.1 -2.1 -2.1 -2.1 -2.1 -2.1 -2.1 -2.1 -2.1 -2.1 -2.1 -2.1 -2.1 -2.1 -2.1 -2.1 -2.1 -2.1 -2.1 -2.1 -2.1 -2.1 -2.1 -2.1 -2.1 -2.1 -2.1 14.7 13.6 18.9 37.6 53.4 55.1 55.4 53.2 47.1 35.9 36.6 39.9 35.9 30.1 19.9 23.6 39.9 49.4 50 54.9 53.3 58.4 62.5 58.9 58.4 81.4 88.8 92.5 85.7 79.1 66.9 58.8 50.5 39 33.8 24.1 19 11.3 8 -2.1 -2.1 -2.1
-2.1 -2.1 -2.1 -2.1 -2.1 -2.1 -2.1 -2.1 -2.1 -2.1 -2.1 -2.1 -2.1 -2.1 -2.1 -2.1 -2.1 -2.1 -2.1 -2.1 -2.1 -2.1 -2.1 -2.1 -2.1 -2.1 -2.1 -2.1 -2.1 -2.1 -2.1 -2.1 -2.1 -2.1 -2.1 -2.1 -2.1 -2.1 -2.1 -2.1 -2.1 -2.1 -2.1 -2.1 -2.1 -2.1 -2.1 -2.1 -2.1 -2.1 -2.1 -2.1 -2.1 -2.1 -2.1 -2.1 -2.1 -2.1 -2.1 -2.1 -2.1 -2.1 -2.1 -2.1 -2.1 -2.1 -2.1 -2.1 -2.1 -2.1 -2.1 -2.1 -2.1 -2.1 -2.1 -2.1 -2.1 -2.1 -2.1 -2.1 -2.1 -2.1 -2.1 -2.1 -2.1 -2.1 -2.1 -2.1 -2.1 -2.1 -2.1 -2.1 -2.1 -2.1 -2.1 -2.1 -2.1 -2.1 -2.1 -2.1 -2.1 -2.1 -2.1 -2.1 -2.1 7.5 17.9 26 29 32.6 33.8 35.1 31.2 20.8 12.4 -2.1 -2.1 -2.1 -2.1 -2.1 -2.1 -2.1 -2.1 -2.1 -2.1 -2.1 -2.1 -2.1 -2.1 -2.1 -2.1 -2.1 -2.1 -2.1 -2.1 -2.1 -2.1 -2.1 -2.1 -2.1 -2.1 -2.1 -2.1 -2.1 -2.1 -2.1 -2.1 -2.1 -2.1 -2.1 -2.1 -2.1 -2.1 -2.1 -2.1 -2.1 -2.1 -2.1 -2.1 -2.1 -2.1 26.1 52.8 55.8 51.8 47.9 42.3 33 38.7 39.3 32.7 25.8 13.7 14.8 24.1 34.1 41.6 65.3 67.4 62.6 71.7 68.4 61.3 72.5 85.4 86.1 82.2 78.5 65.6 56.9 44.9 32.6 25.8 21.5 16.5 7.5 -2.1 -2.1 -2.1 -2.1
-2.1 -2.1 -2.1 -2.1 -2.1 -2.1 -2.1 -2.1 -2.1 -2.1 -2.1 -2.1 -2.1 -2.1 -2.1 -2.1 -2.1 -2.1 -2.1 -2.1 -2.1 -2.1 -2.1 -2.1 -2.1 -2.1 -2.1 -2.1 -2.1 -2.1 -2.1 -2.1 -2.1 -2.1 -2.1 -2.1 -2.1 -2.1 -2.1 -2.1 -2.1 -2.1 -2.1 -2.1 -2.1 -2.1 -2.1 -2.1 -2.1 -2.1 -2.1 -2.1 -2.1 -2.1 -2.1 -2.1 -2.1 -2.1 -2.1 -2.1 -2.1 -2.1 -2.1 -2.1 -2.1 -2.1 -2.1 -2.1 -2.1 -2.1 -2.1 -2.1 -2.1 -2.1 -2.1 -2.1 -2.1 -2.1 -2.1 -2.1 -2.1 -2.1 -2.1 -2.1 -2.1 -2.1 -2.1 -2.1 -2.1 -2.1 -2.1 -2.1 -2.1 -2.1 -2.1 -2.1 -2.1 -2.1 -2.1 -2.1 -2.1 -2.1 -2.1 -2.1 -2.1 10.9 20.1 24.6 27.1 31.2 32 28 22.8 16.4 9.8 -2.1 -2.1 -2.1 -2.1 -2.1 -2.1 -2.1 -2.1 -2.1 -2.1 -2.1 -2.1 -2.1 -2.1 -2.1 -2.1 -2.1 -2.1 -2.1 -2.1 -2.1 -2.1 -2.1 -2.1 -2.1 -2.1 -2.1 -2.1 -2.1 -2.1 -2.1 -2.1 -2.1 -2.1 -2.1 -2.1 -2.1 -2.1 -2.1 -2.1 -2.1 -2.1 -2.1 -2.1 -2.1 -2.1 -2.1 44.3 51.7 47 39.5 36.7 33.6 38 35.1 25.9 19.3 8.6 16.8 19.7 36.7 45.3 68.1 76.6 77.3 71.7 68.6 63.3 66.2 74.2 77.4 73.9 69.8 62.2 48.7 36.9 27.3 19.6 16.8 12.6 1.9 -2.1 -2.1 -2.1 -2.1
-2.1 -2.1 -2.1 -2.1 -2.1 -2.1 -2.1 -2.1 -2.1 -2.1 -2.1 -2.1 -2.1 -2.1 -2.1 -2.1 -2.1 -2.1 -2.1 -2.1 -2.1 -2.1 -2.1 -2.1 -2.1 -2.1 -2.1 -2.1 -2.1 -2.1 -2.1 -2.1 -2.1 -2.1 -2.1 -2.1 -2.1 -2.1 -2.1 -2.1 -2.1 -2.1 -2.1 -2.1 -2.1 -2.1 -2.1 -2.1 -2.1 -2.1 -2.1 -2.1 -2.1 -2.1 -2.1 -2.1 -2.1 -2.1 -2.1 -2.1 -2.1 -2.1 -2.1 -2.1 -2.1 -2.1 -2.1 -2.1 -2.1 -2.1 -2.1 -2.1 -2.1 -2.1 -2.1 -2.1 -2.1 -2.1 -2.1 -2.1 -2.1 -2.1 -2.1 -2.1 -2.1 -2.1 -2.1 -2.1 -2.1 -2.1 -2.1 -2.1 -2.1 -2.1 -2.1 -2.1 -2.1 -2.1 -2.1 -2.1 -2.1 -2.1 -2.1 4.1 -2.1 8.5 18.2 22.7 23.7 24.7 24.2 22.8 21.4 24.9 13.1 1 -2.1 -2.1 -2.1 -2.1 -2.1 -2.1 -2.1 -2.1 -2.1 -2.1 -2.1 -2.1 -2.1 -2.1 -2.1 -2.1 -2.1 -2.1 -2.1 -2.1 -2.1 -2.1 -2.1 -2.1 -2.1 -2.1 -2.1 -2.1 -2.1 -2.1 -2.1 -2.1 -2.1 -2.1 -2.1 -2.1 -2.1 -2.1 -2.1 -2.1 -2.1 -2.1 -2.1 -2.1 -2.1 -2.1 38.9 45.7 42.9 34.4 27.5 26.1 24.7 16.5 10.7 4.8 7.2 18.4 21.7 42.3 43.5 69 79.3 77.9 73.3 61.9 69 63.2 63.5 67.3 64.1 61 54.9 39.2 29 22.4 14.4 10.1 5.9 -2.1 -2.1 -2.1 -2.1 -2.1
-2.1 -2.1 -2.1 -2.1 -2.1 -2.1 -2.1 -2.1 -2.1 -2.1 -2.1 -2.1 -2.1 -2.1 -2.1 -2.1 -2.1 -2.1 -2.1 -2.1 -2.1 -2.1 -2.1 -2.1 -2.1 -2.1 -2.1 -2.1 -2.1 -2.1 -2.1 -2.1 -2.1 -2.1 -2.1 -2.1 -2.1 -2.1 -2.1 -2.1 -2.1 -2.1 -2.1 -2.1 -2.1 -2.1 -2.1 -2.1 -2.1 -2.1 -2.1 -2.1 -2.1 -2.1 -2.1 -2.1 -2.1 -2.1 -2.1 -2.1 -2.1 -2.1 -2.1 -2.1 -2.1 -2.1 -2.1 -2.1 -2.1 -2.1 -2.1 -2.1 -2.1 -2.1 -2.1 -2.1 -2.1 -2.1 -2.1 -2.1 -2.1 -2.1 -2.1 -2.1 -2.1 -2.1 -2.1 -2.1 -2.1 -2.1 -2.1 -2.1 -2.1 -2.1 -2.1 -2.1 -2.1 -2.1 -2.1 -2.1 -2.1 -2.1 -2.1 -2.1 -2.1 2.9 10.5 18.8 17.8 21 20.3 22.8 21.6 20.9 15.3 0.9 -2.1 -2.1 -2.1 -2.1 -2.1 -2.1 -2.1 -2.1 -2.1 -2.1 -2.1 -2.1 -2.1 -2.1 -2.1 -2.1 -2.1 -2.1 -2.1 -2.1 -2.1 -2.1 -2.1 -2.1 -2.1 -2.1 -2.1 -2.1 -2.1 -2.1 -2.1 -2.1 -2.1 -2.1 -2.1 -2.1 -2.1 -2.1 -2.1 -2.1 -2.1 -2.1 -2.1 -2.1 -2.1 -2.1 -2.1 29.8 31.6 28.5 26 13.3 -2.1 -2.1 -2.1 -2.1 3.4 15.3 20.4 37 48.9 71.1 82.2 79.5 72.8 61.9 63.3 64.6 54.8 55.5 60.2 52.2 44.3 31.1 23.7 18.3 9.5 4.7 -2.1 -2.1 -2.1 -2.1 -2.1 -2.1
-2.1 -2.1 -2.1 -2.1 -2.1 -2.1 -2.1 -2.1 -2.1 -2.1 -2.1 -2.1 -2.1 -2.1 -2.1 -2.1 -2.1 -2.1 -2.1 -2.1 -2.1 -2.1 -2.1 -2.1 -2.1 -2.1 -2.1 -2.1 -2.1 -2.1 -2.1 -2.1 -2.1 -2.1 -2.1 -2.1 -2.1 -2.1 -2.1 -2.1 -2.1 -2.1 -2.1 -2.1 -2.1 -2.1 -2.1 -2.1 -2.1 -2.1 -2.1 -2.1 -2.1 -2.1 -2.1 -2.1 -2.1 -2.1 -2.1 -2.1 -2.1 -2.1 -2.1 -2.1 -2.1 -2.1 -2.1 -2.1 -2.1 -2.1 -2.1 -2.1 -2.1 -2.1 -2.1 -2.1 -2.1 -2.1 -2.1 -2.1 -2.1 -2.1 -2.1 -2.1 -2.1 -2.1 -2.1 -2.1 -2.1 -2.1 -2.1 -2.1 -2.1 -2.1 -2.1 -2.1 -2.1 -2.1 -2.1 -2.1 -2.1 -2.1 -2.1 -2.1 -2.1 -2.1 -2.1 5.6 14.8 14.5 18.9 17.8 12 16.9 1.7 -2.1 -2.1 -2.1 -2.1 -2.1 -2.1 -2.1 -2.1 -2.1 -2.1 -2.1 -2.1 -2.1 -2.1 -2.1 -2.1 -2.1 -2.1 -2.1 -2.1 -2.1 -2.1 -2.1 -2.1 -2.1 -2.1 -2.1 -2.1 -2.1 -2.1 -2.1 -2.1 -2.1 -2.1 -2.1 -2.1 -2.1 -2.1 -2.1 -2.1 -2.1 -2.1 -2.1 -2.1 -2.1 -2.1 -2.1 -2.1 -2.1 11.8 10.7 -2.1 -2.1 -2.1 -2.1 -2.1 -2.1 -2.1 15.9 24.2 39.1 51.4 62.5 75.6 79 70.6 61.9 64.3 66.4 55.2 45 45.9 45.4 37.8 26.7 16.7 14.3 -2.1 -2.1 -2.1 -2.1 -2.1 -2.1 -2.1 -2.1
-2.1 -2.1 -2.1 -2.1 -2.1 -2.1 -2.1 -2.1 -2.1 -2.1 -2.1 -2.1 -2.1 -2.1 -2.1 -2.1 -2.1 -2.1 -2.1 -2.1 -2.1 -2.1 -2.1 -2.1 -2.1 -2.1 -2.1 -2.1 -2.1 -2.1 -2.1 -2.1 -2.1 -2.1 -2.1 -2.1 -2.1 -2.1 -2.1 -2.1 -2.1 -2.1 -2.1 -2.1 -2.1 -2.1 -2.1 -2.1 -2.1 -2.1 -2.1 -2.1 -2.1 -2.1 -2.1 -2.1 -2.1 -2.1 -2.1 -2.1 -2.1 -2.1 -2.1 -2.1 -2.1 -2.1 -2.1 -2.1 -2.1 -2.1 -2.1 -2.1 -2.1 -2.1 -2.1 -2.1 -2.1 -2.1 -2.1 -2.1 -2.1 -2.1 -2.1 -2.1 -2.1 -2.1 -2.1 -2.1 -2.1 -2.1 -2.1 -2.1 -2.1 -2.1 -2.1 -2.1 -2.1 -2.1 -2.1 -2.1 -2.1 -2.1 -2.1 -2.1 -2.1 -2.1 -2.1 2.1 5.1 14.5 21.2 13.8 -2.1 4.2 -2.1 -2.1 -2.1 -2.1 4.4 -2.1 -2.1 -2.1 -2.1 -2.1 -2.1 -2.1 -2.1 -2.1 -2.1 -2.1 -2.1 -2.1 -2.1 -2.1 -2.1 -2.1 -2.1 -2.1 -2.1 -2.1 -2.1 -2.1 -2.1 -2.1 -2.1 -2.1 -2.1 -2.1 -2.1 -2.1 -2.1 -2.1 -2.1 -2.1 -2.1 -2.1 -2.1 -2.1 -2.1 -2.1 -2.1 -2.1 -2.1 -2.1 -2.1 -2.1 -2.1 -2.1 -2.1 -2.1 -2.1 -2.1 -2.1 10.8 20.4 36.2 48.5 59.4 72.7 77.3 67.8 61.9 66.6 64.3 56.8 44.4 40.2 37.5 30.9 20.1 11.2 7.2 -2.1 -2.1 -2.1 -2.1 -2.1 -2.1 -2.1 -2.1
-2.1 -2.1 -2.1 -2.1 -2.1 -2.1 -2.1 -2.1 -2.1 -2.1 -2.1 -2.1 -2.1 -2.1 -2.1 -2.1 -2.1 -2.1 -2.1 -2.1 -2.1 -2.1 -2.1 -2.1 -2.1 -2.1 -2.1 -2.1 -2.1 -2.1 -2.1 -2.1 -2.1 -2.1 -2.1 -2.1 -2.1 -2.1 -2.1 -2.1 -2.1 -2.1 -2.1 -2.1 -2.1 -2.1 -2.1 -2.1 -2.1 -2.1 -2.1 -2.1 -2.1 -2.1 -2.1 -2.1 -2.1 -2.1 -2.1 -2.1 -2.1 -2.1 -2.1 -2.1 -2.1 -2.1 -2.1 -2.1 -2.1 -2.1 -2.1 -2.1 -2.1 -2.1 -2.1 -2.1 -2.1 -2.1 -2.1 -2.1 -2.1 -2.1 -2.1 -2.1 -2.1 -2.1 -2.1 -2.1 -2.1 -2.1 -2.1 -2.1 -2.1 -2.1 -2.1 -2.1 -2.1 -2.1 -2.1 -2.1 -2.1 -2.1 -2.1 -2.1 -2.1 -2.1 -2.1 -2.1 -2.1 -2.1 15 -2.1 -2.1 -2.1 -2.1 -2.1 -2.1 -2.1 8.9 -2.1 -2.1 -2.1 -2.1 -2.1 -2.1 -2.1 -2.1 -2.1 -2.1 -2.1 -2.1 -2.1 -2.1 -2.1 -2.1 -2.1 -2.1 -2.1 -2.1 -2.1 -2.1 -2.1 -2.1 -2.1 -2.1 -2.1 -2.1 -2.1 -2.1 -2.1 -2.1 -2.1 -2.1 -2.1 -2.1 -2.1 -2.1 -2.1 -2.1 -2.1 -2.1 -2.1 -2.1 -2.1 -2.1 -2.1 -2.1 -2.1 -2.1 -2.1 -2.1 -2.1 -2.1 13.5 25.6 36.6 48.4 53.7 61.8 69.4 67.2 61.9 69.7 66.8 55.8 43.8 33.1 28.3 20 12.4 3.9 -2.1 -2.1 -2.1 -2.1 -2.1 -2.1 -2.1 1.8 1.9
-2.1 -2.1 -2.1 -2.1 -2.1 -2.1 -2.1 -2.1 -2.1 -2.1 -2.1 -2.1 -2.1 -2.1 -2.1 -2.1 -2.1 -2.1 -2.1 -2.1 -2.1 -2.1 -2.1 -2.1 -2.1 -2.1 -2.1 -2.1 -2.1 -2.1 -2.1 -2.1 -2.1 -2.1 -2.1 -2.1 -2.1 -2.1 -2.1 -2.1 -2.1 -2.1 -2.1 -2.1 -2.1 -2.1 -2.1 -2.1 -2.1 -2.1 -2.1 -2.1 -2.1 -2.1 -2.1 -2.1 -2.1 -2.1 -2.1 -2.1 -2.1 -2.1 -2.1 -2.1 -2.1 -2.1 -2.1 -2.1 -2.1 -2.1 -2.1 -2.1 -2.1 -2.1 -2.1 -2.1 -2.1 -2.1 -2.1 -2.1 -2.1 -2.1 -2.1 -2.1 -2.1 -2.1 -2.1 -2.1 -2.1 -2.1 -2.1 -2.1 -2.1 -2.1 -2.1 -2.1 -2.1 -2.1 -2.1 -2.1 -2.1 -2.1 -2.1 -2.1 -2.1 -2.1 -2.1 -2.1 -2.1 -2.1 0.2 -2.1 -2.1 -2.1 -2.1 -2.1 -2.1 6.8 11 -2.1 -2.1 -2.1 -2.1 -2.1 -2.1 -2.1 -2.1 -2.1 -2.1 -2.1 -2.1 -2.1 -2.1 -2.1 -2.1 -2.1 -2.1 -2.1 -2.1 -2.1 -2.1 -2.1 -2.1 -2.1 -2.1 -2.1 -2.1 -2.1 -2.1 -2.1 -2.1 -2.1 -2.1 -2.1 -2.1 -2.1 -2.1 -2.1 -2.1 -2.1 -2.1 -2.1 -2.1 -2.1 -2.1 -2.1 -2.1 -2.1 -2.1 -2.1 -2.1 -2.1 -2.1 18.2 27.4 35.6 42 49.1 55.5 59.6 63.1 61.9 66.6 56.5 46.3 34.5 26.9 19.6 17.3 9.4 -2.1 -2.1 -2.1 -2.1 -2.1 -2.1 8.9 12.6 11 12.7
-2.1 -2.1 -2.1 -2.1 -2.1 -2.1 -2.1 -2.1 -2.1 -2.1 -2.1 -2.1 -2.1 -2.1 -2.1 -2.1 -2.1 -2.1 -2.1 -2.1 -2.1 -2.1 -2.1 -2.1 -2.1 -2.1 -2.1 -2.1 -2.1 -2.1 -2.1 -2.1 -2.1 -2.1 -2.1 -2.1 -2.1 -2.1 -2.1 -2.1 -2.1 -2.1 -2.1 -2.1 -2.1 -2.1 -2.1 -2.1 -2.1 -2.1 -2.1 -2.1 -2.1 -2.1 -2.1 -2.1 -2.1 -2.1 -2.1 -2.1 -2.1 -2.1 -2.1 -2.1 -2.1 -2.1 -2.1 -2.1 -2.1 -2.1 -2.1 -2.1 -2.1 -2.1 -2.1 -2.1 -2.1 -2.1 -2.1 -2.1 -2.1 -2.1 -2.1 -2.1 -2.1 -2.1 -2.1 -2.1 -2.1 -2.1 -2.1 -2.1 -2.1 -2.1 -2.1 -2.1 -2.1 -2.1 -2.1 -2.1 -2.1 -2.1 -2.1 -2.1 -2.1 -2.1 -2.1 -2.1 -2.1 -2.1 -2.1 -2.1 -2.1 -2.1 -2.1 -2.1 -2.1 10.6 11.1 -2.1 -2.1 -2.1 -2.1 -2.1 -2.1 0.9 4 -2.1 -2.1 -2.1 -2.1 -2.1 -2.1 -2.1 -2.1 -2.1 -2.1 -2.1 -2.1 -2.1 -2.1 -2.1 -2.1 -2.1 -2.1 -2.1 -2.1 -2.1 -2.1 -2.1 -2.1 -2.1 -2.1 -2.1 -2.1 -2.1 -2.1 -2.1 -2.1 -2.1 -2.1 -2.1 -2.1 -2.1 -2.1 -2.1 -2.1 -2.1 -2.1 -2.1 -2.1 -2.1 -2.1 13.4 21.2 30.2 33.4 41.3 50.4 58.9 60.7 62.6 60.7 51.8 41.9 26.9 23.3 13.4 -2.1 -2.1 -2.1 -2.1 -2.1 -2.1 4.7 10.9 16.9 23.9 23.3 22.2
-2.1 -2.1 -2.1 -2.1 -2.1 -2.1 -2.1 -2.1 -2.1 -2.1 -2.1 -2.1 -2.1 -2.1 -2.1 -2.1 -2.1 -2.1 -2.1 -2.1 -2.1 -2.1 -2.1 -2.1 -2.1 -2.1 -2.1 -2.1 -2.1 -2.1 -2.1 -2.1 -2.1 -2.1 -2.1 -2.1 -2.1 -2.1 -2.1 -2.1 -2.1 -2.1 -2.1 -2.1 -2.1 -2.1 -2.1 -2.1 -2.1 -2.1 -2.1 -2.1 -2.1 -2.1 -2.1 -2.1 -2.1 -2.1 -2.1 -2.1 -2.1 -2.1 -2.1 -2.1 -2.1 -2.1 -2.1 -2.1 -2.1 -2.1 -2.1 -2.1 -2.1 -2.1 -2.1 -2.1 -2.1 -2.1 -2.1 -2.1 -2.1 -2.1 -2.1 -2.1 -2.1 -2.1 -2.1 -2.1 -2.1 -2.1 -2.1 -2.1 -2.1 -2.1 -2.1 -2.1 -2.1 -2.1 -2.1 -2.1 -2.1 -2.1 -2.1 -2.1 -2.1 -2.1 -2.1 -2.1 -2.1 -2.1 -2.1 -2.1 -2.1 -2.1 -2.1 -2.1 -2.1 11.2 18.3 12.6 0.8 -2.1 5.2 6.2 6.3 6.2 8.4 -2.1 -2.1 -2.1 -2.1 -2.1 -2.1 -2.1 -2.1 -2.1 -2.1 -2.1 -2.1 -2.1 -2.1 -2.1 -2.1 -2.1 -2.1 -2.1 -2.1 -2.1 -2.1 -2.1 -2.1 -2.1 -2.1 -2.1 -2.1 -2.1 -2.1 -2.1 -2.1 -2.1 -2.1 -2.1 -2.1 -2.1 -2.1 -2.1 -2.1 -2.1 -2.1 -2.1 -2.1 -2.1 2.5 13.3 21.9 30.3 32.8 38 48.3 59.5 68.8 59 52.8 45.3 35 19.3 12 -2.1 -2.1 -2.1 -2.1 -2.1 -2.1 3.8 7.1 14.2 24.2 39 33.2 30.5
-2.1 -2.1 -2.1 -2.1 -2.1 -2.1 -2.1 -2.1 -2.1 -2.1 -2.1 -2.1 -2.1 -2.1 -2.1 -2.1 -2.1 -2.1 -2.1 -2.1 -2.1 -2.1 -2.1 -2.1 -2.1 -2.1 -2.1 -2.1 -2.1 -2.1 -2.1 -2.1 -2.1 -2.1 -2.1 -2.1 -2.1 -2.1 -2.1 -2.1 -2.1 -2.1 -2.1 -2.1 -2.1 -2.1 -2.1 -2.1 -2.1 -2.1 -2.1 -2.1 -2.1 -2.1 -2.1 -2.1 -2.1 -2.1 -2.1 -2.1 -2.1 -2.1 -2.1 -2.1 -2.1 -2.1 -2.1 -2.1 -2.1 -2.1 -2.1 -2.1 -2.1 -2.1 -2.1 -2.1 -2.1 -2.1 -2.1 -2.1 -2.1 -2.1 -2.1 -2.1 -2.1 -2.1 -2.1 -2.1 -2.1 -2.1 -2.1 -2.1 -2.1 -2.1 -2.1 -2.1 -2.1 -2.1 -2.1 -2.1 -2.1 -2.1 -2.1 -2.1 -2.1 -2.1 -2.1 -2.1 -2.1 -2.1 -2.1 -2.1 -2.1 -2.1 -2.1 -2.1 -2.1 11.7 23.6 12.9 7.9 5.5 7.6 11.8 11.2 11.5 18.2 -2.1 -2.1 -2.1 -2.1 -2.1 -2.1 -2.1 -2.1 -2.1 -2.1 -2.1 -2.1 -2.1 -2.1 -2.1 -2.1 -2.1 -2.1 -2.1 -2.1 -2.1 -2.1 -2.1 -2.1 -2.1 -2.1 -2.1 -2.1 -2.1 -2.1 -2.1 -2.1 -2.1 -2.1 -2.1 -2.1 -2.1 -2.1 -2.1 -2.1 -2.1 -2.1 -2.1 -2.1 -2.1 3.4 14.2 20.1 26.9 30.4 34.9 45.6 53.2 57 55.4 46.7 43.3 26.6 8.2 -2.1 -2.1 -2.1 -2.1 -2.1 -2.1 -2.1 7.4 8.9 13.1 22.9 31.6 36.6 37.1
-2.1 -2.1 -2.1 -2.1 -2.1 -2.1 -2.1 -2.1 -2.1 -2.1 -2.1 -2.1 -2.1 -2.1 -2.1 -2.1 -2.1 -2.1 -2.1 -2.1 -2.1 -2.1 -2.1 -2.1 -2.1 -2.1 -2.1 -2.1 -2.1 -2.1 -2.1 -2.1 -2.1 -2.1 -2.1 -2.1 -2.1 -2.1 -2.1 -2.1 -2.1 -2.1 -2.1 -2.1 -2.1 -2.1 -2.1 -2.1 -2.1 -2.1 -2.1 -2.1 -2.1 -2.1 -2.1 -2.1 -2.1 -2.1 -2.1 -2.1 -2.1 -2.1 -2.1 -2.1 -2.1 -2.1 -2.1 -2.1 -2.1 -2.1 -2.1 -2.1 -2.1 -2.1 -2.1 -2.1 -2.1 -2.1 -2.1 -2.1 -2.1 -2.1 -2.1 -2.1 -2.1 -2.1 -2.1 -2.1 -2.1 -2.1 -2.1 -2.1 -2.1 -2.1 -2.1 -2.1 -2.1 -2.1 -2.1 -2.1 -2.1 -2.1 -2.1 -2.1 -2.1 -2.1 -2.1 -2.1 -2.1 -2.1 -2.1 -2.1 -2.1 -2.1 -2.1 -2.1 -2.1 7.3 14.7 3.2 5.3 8.8 8.1 11.1 16.9 27.6 26.6 18.9 -2.1 -2.1 -2.1 -2.1 -2.1 -2.1 -2.1 -2.1 -2.1 -2.1 -2.1 -2.1 -2.1 -2.1 -2.1 -2.1 -2.1 -2.1 -2.1 -2.1 -2.1 -2.1 -2.1 -2.1 -2.1 -2.1 -2.1 -2.1 -2.1 -2.1 -2.1 -2.1 -2.1 -2.1 -2.1 -2.1 -2.1 -2.1 -2.1 -2.1 -2.1 -2.1 -2.1 -2.1 -2.1 15.3 23.8 26.1 26.5 31 41.1 42.1 46.7 44.3 33.3 29.6 18.8 -2.1 -2.1 -2.1 -2.1 -2.1 -2.1 8.8 11 14.1 19.2 24.9 28.4 31.7 40.3 45.8
-2.1 -2.1 -2.1 -2.1 -2.1 -2.1 -2.1 -2.1 -2.1 -2.1 -2.1 -2.1 -2.1 -2.1 -2.1 -2.1 -2.1 -2.1 -2.1 -2.1 -2.1 -2.1 -2.1 -2.1 -2.1 -2.1 -2.1 -2.1 -2.1 -2.1 -2.1 -2.1 -2.1 -2.1 -2.1 -2.1 -2.1 -2.1 -2.1 -2.1 -2.1 -2.1 -2.1 -2.1 -2.1 -2.1 -2.1 -2.1 -2.1 -2.1 -2.1 -2.1 -2.1 -2.1 -2.1 -2.1 -2.1 -2.1 -2.1 -2.1 -2.1 -2.1 -2.1 -2.1 -2.1 -2.1 -2.1 -2.1 -2.1 -2.1 -2.1 -2.1 -2.1 -2.1 -2.1 -2.1 -2.1 -2.1 -2.1 -2.1 -2.1 -2.1 -2.1 -2.1 -2.1 -2.1 -2.1 -2.1 -2.1 -2.1 -2.1 -2.1 -2.1 -2.1 -2.1 -2.1 -2.1 -2.1 -2.1 -2.1 -2.1 -2.1 -2.1 -2.1 -2.1 -2.1 -2.1 -2.1 -2.1 -2.1 -2.1 -2.1 -2.1 -2.1 -2.1 -2.1 -2.1 -2.1 -2.1 -2.1 5.3 8.4 3.9 13.2 26 34.8 27.3 23.1 -2.1 -2.1 -2.1 -2.1 -2.1 -2.1 -2.1 -2.1 -2.1 -2.1 -2.1 -2.1 -2.1 -2.1 -2.1 -2.1 -2.1 -2.1 -2.1 -2.1 -2.1 -2.1 -2.1 -2.1 -2.1 -2.1 -2.1 -2.1 -2.1 -2.1 -2.1 -2.1 -2.1 -2.1 -2.1 -2.1 -2.1 -2.1 -2.1 -2.1 -2.1 -2.1 -2.1 -2.1 -2.1 11.3 15.8 22.3 21.4 28.2 32.2 33.6 34.3 37.4 26.4 14.5 -2.1 -2.1 -2.1 -2.1 -2.1 -2.1 20.6 29.4 30.1 29 33.1 38.8 42 46.2 52.1 72.3
-2.1 -2.1 -2.1 -2.1 -2.1 -2.1 -2.1 -2.1 -2.1 -2.1 -2.1 -2.1 -2.1 -2.1 -2.1 -2.1 -2.1 -2.1 -2.1 -2.1 -2.1 -2.1 -2.1 -2.1 -2.1 -2.1 -2.1 -2.1 -2.1 -2.1 -2.1 -2.1 -2.1 -2.1 -2.1 -2.1 -2.1 -2.1 -2.1 -2.1 -2.1 -2.1 -2.1 -2.1 -2.1 -2.1 -2.1 -2.1 -2.1 -2.1 -2.1 -2.1 -2.1 -2.1 -2.1 -2.1 -2.1 -2.1 -2.1 -2.1 -2.1 -2.1 -2.1 -2.1 -2.1 -2.1 -2.1 -2.1 -2.1 -2.1 -2.1 -2.1 -2.1 -2.1 -2.1 -2.1 -2.1 -2.1 -2.1 -2.1 -2.1 -2.1 -2.1 -2.1 -2.1 -2.1 -2.1 -2.1 -2.1 -2.1 -2.1 -2.1 -2.1 -2.1 -2.1 -2.1 -2.1 -2.1 -2.1 -2.1 -2.1 -2.1 -2.1 -2.1 -2.1 -2.1 -2.1 -2.1 -2.1 -2.1 -2.1 -2.1 -2.1 -2.1 -2.1 -2.1 -2.1 -2.1 -2.1 -2.1 8.8 -2.1 11.3 23.7 31.6 35.6 30.4 24.2 10.3 2.5 1.2 -2.1 -2.1 -2.1 -2.1 -2.1 -2.1 -2.1 -2.1 -2.1 -2.1 -2.1 -2.1 -2.1 -2.1 -2.1 -2.1 -2.1 -2.1 -2.1 -2.1 -2.1 -2.1 -2.1 -2.1 -2.1 -2.1 -2.1 -2.1 -2.1 -2.1 -2.1 -2.1 -2.1 -2.1 -2.1 -2.1 -2.1 -2.1 -2.1 -2.1 -2.1 -2.1 -2.1 8.9 14.3 16.6 25.9 34.7 31.2 27.7 22.7 11.8 -2.1 -2.1 -2.1 -2.1 -2.1 9.7 15 37.6 53.1 58.5 53.9 49.2 52.4 58.6 74.4 69.9 89.9
-2.1 -2.1 -2.1 -2.1 -2.1 -2.1 -2.1 -2.1 -2.1 -2.1 -2.1 -2.1 -2.1 -2.1 -2.1 -2.1 -2.1 -2.1 -2.1 -2.1 -2.1 -2.1 -2.1 -2.1 -2.1 -2.1 -2.1 -2.1 -2.1 -2.1 -2.1 -2.1 -2.1 -2.1 -2.1 -2.1 -2.1 -2.1 -2.1 -2.1 -2.1 -2.1 -2.1 -2.1 -2.1 -2.1 -2.1 -2.1 -2.1 -2.1 -2.1 -2.1 -2.1 -2.1 -2.1 -2.1 -2.1 -2.1 -2.1 -2.1 -2.1 -2.1 -2.1 -2.1 -2.1 -2.1 -2.1 -2.1 -2.1 -2.1 -2.1 -2.1 -2.1 -2.1 -2.1 -2.1 -2.1 -2.1 -2.1 -2.1 -2.1 -2.1 -2.1 -2.1 -2.1 -2.1 -2.1 -2.1 -2.1 -2.1 -2.1 -2.1 -2.1 -2.1 -2.1 -2.1 -2.1 -2.1 -2.1 -2.1 -2.1 -2.1 -2.1 -2.1 -2.1 -2.1 -2.1 -2.1 -2.1 -2.1 -2.1 -2.1 -2.1 -2.1 -2.1 -2.1 -2.1 -2.1 -2.1 -2.1 -2.1 -0.1 16.9 23.9 29.9 32.9 33.1 26.7 15.4 7.7 8.4 -2.1 -2.1 -2.1 -2.1 -2.1 -2.1 -2.1 -2.1 -2.1 -2.1 -2.1 -2.1 -2.1 -2.1 -2.1 -2.1 -2.1 -2.1 -2.1 -2.1 -2.1 -2.1 -2.1 -2.1 -2.1 -2.1 -2.1 -2.1 -2.1 -2.1 -2.1 -2.1 -2.1 -2.1 -2.1 -2.1 -2.1 -2.1 -2.1 -2.1 -2.1 -2.1 -2.1 -2.1 -2.1 -2.1 15.8 23 23.3 21.9 9.7 -2.1 -2.1 -2.1 -2.1 9.7 15.3 20.5 30.2 50.5 67.7 78.4 67.7 63.3 58.5 61.2 70.9 78.3 95.4
-2.1 -2.1 -2.1 -2.1 -2.1 -2.1 -2.1 -2.1 -2.1 -2.1 -2.1 -2.1 -2.1 -2.1 -2.1 -2.1 -2.1 -2.1 -2.1 -2.1 -2.1 -2.1 -2.1 -2.1 -2.1 -2.1 -2.1 -2.1 -2.1 -2.1 -2.1 -2.1 -2.1 -2.1 -2.1 -2.1 -2.1 -2.1 -2.1 -2.1 -2.1 -2.1 -2.1 -2.1 -2.1 -2.1 -2.1 -2.1 -2.1 -2.1 -2.1 -2.1 -2.1 -2.1 -2.1 -2.1 -2.1 -2.1 -2.1 -2.1 -2.1 -2.1 -2.1 -2.1 -2.1 -2.1 -2.1 -2.1 -2.1 -2.1 -2.1 -2.1 -2.1 -2.1 -2.1 -2.1 -2.1 -2.1 -2.1 -2.1 -2.1 -2.1 -2.1 -2.1 -2.1 -2.1 -2.1 -2.1 -2.1 -2.1 -2.1 -2.1 -2.1 -2.1 -2.1 -2.1 -2.1 -2.1 -2.1 -2.1 -2.1 -2.1 -2.1 -2.1 -2.1 -2.1 -2.1 -2.1 -2.1 -2.1 -2.1 -2.1 -2.1 -2.1 -2.1 -2.1 -2.1 -2.1 -2.1 -2.1 -2.1 -2.1 12.3 19 25.8 30.8 36.5 30.4 18.4 12.7 11.8 -2.1 -2.1 -2.1 -2.1 -2.1 -2.1 -2.1 -2.1 -2.1 -2.1 -2.1 -2.1 -2.1 -2.1 -2.1 -2.1 -2.1 -2.1 -2.1 -2.1 -2.1 -2.1 -2.1 -2.1 -2.1 -2.1 -2.1 -2.1 -2.1 -2.1 -2.1 -2.1 -2.1 -2.1 -2.1 -2.1 -2.1 -2.1 -2.1 -2.1 -2.1 -2.1 -2.1 -2.1 -2.1 -2.1 -2.1 -2.1 -2.1 10.5 -2.1 -2.1 -2.1 -2.1 10.5 18.7 25.4 30.8 35.9 56.9 77.2 83.3 85.7 70.3 66 61.2 64.4 83.6 95.4
-2.1 -2.1 -2.1 -2.1 -2.1 -2.1 -2.1 -2.1 -2.1 -2.1 -2.1 -2.1 -2.1 -2.1 -2.1 -2.1 -2.1 -2.1 -2.1 -2.1 -2.1 -2.1 -2.1 -2.1 -2.1 -2.1 -2.1 -2.1 -2.1 -2.1 -2.1 -2.1 -2.1 -2.1 -2.1 -2.1 -2.1 -2.1 -2.1 -2.1 -2.1 -2.1 -2.1 -2.1 -2.1 -2.1 -2.1 -2.1 -2.1 -2.1 -2.1 -2.1 -2.1 -2.1 -2.1 -2.1 -2.1 -2.1 -2.1 -2.1 -2.1 -2.1 -2.1 -2.1 -2.1 -2.1 -2.1 -2.1 -2.1 -2.1 -2.1 -2.1 -2.1 -2.1 -2.1 -2.1 -2.1 -2.1 -2.1 -2.1 -2.1 -2.1 -2.1 -2.1 -2.1 -2.1 -2.1 -2.1 -2.1 -2.1 -2.1 -2.1 -2.1 -2.1 -2.1 -2.1 -2.1 -2.1 -2.1 -2.1 -2.1 -2.1 -2.1 -2.1 -2.1 -2.1 -2.1 -2.1 -2.1 -2.1 -2.1 -2.1 -2.1 -2.1 -2.1 -2.1 -2.1 -2.1 -2.1 -2.1 -2.1 -2.1 8.9 20.4 25 25.1 30.6 31.1 23.9 20.9 16.4 10.6 -2.1 -2.1 -2.1 -2.1 -2.1 -2.1 -2.1 -2.1 -2.1 -2.1 -2.1 -2.1 -2.1 -2.1 -2.1 -2.1 -2.1 -2.1 -2.1 -2.1 -2.1 -2.1 -2.1 -2.1 -2.1 -2.1 -2.1 -2.1 -2.1 -2.1 -2.1 -2.1 -2.1 -2.1 -2.1 -2.1 -2.1 -2.1 -2.1 -2.1 -2.1 -2.1 -2.1 -2.1 -2.1 -2.1 -2.1 -2.1 -2.1 -2.1 -2.1 -2.1 -2.1 13.9 21.3 32.9 39.2 46.9 61.5 76.9 85.5 89.5 74 77.9 69.9 66.9 80.7 98
-2.1 -2.1 -2.1 -2.1 -2.1 -2.1 -2.1 -2.1 -2.1 -2.1 -2.1 -2.1 -2.1 -2.1 -2.1 -2.1 -2.1 -2.1 -2.1 -2.1 -2.1 -2.1 -2.1 -2.1 -2.1 -2.1 -2.1 -2.1 -2.1 -2.1 -2.1 -2.1 -2.1 -2.1 -2.1 -2.1 -2.1 -2.1 -2.1 -2.1 -2.1 -2.1 -2.1 -2.1 -2.1 -2.1 -2.1 -2.1 -2.1 -2.1 -2.1 -2.1 -2.1 -2.1 -2.1 -2.1 -2.1 -2.1 -2.1 -2.1 -2.1 -2.1 -2.1 -2.1 -2.1 -2.1 -2.1 -2.1 -2.1 -2.1 -2.1 -2.1 -2.1 -2.1 -2.1 -2.1 -2.1 -2.1 -2.1 -2.1 -2.1 -2.1 -2.1 -2.1 -2.1 -2.1 -2.1 -2.1 -2.1 -2.1 -2.1 -2.1 -2.1 -2.1 -2.1 -2.1 -2.1 -2.1 -2.1 -2.1 -2.1 -2.1 -2.1 -2.1 -2.1 -2.1 -2.1 -2.1 -2.1 -2.1 -2.1 -2.1 -2.1 -2.1 -2.1 -2.1 -2.1 -2.1 -2.1 -2.1 -2.1 -2.1 4.9 12.7 19.4 21.2 24.6 30.1 29 21.6 12.8 8.7 -2.1 -2.1 -2.1 -2.1 -2.1 -2.1 -2.1 -2.1 -2.1 -2.1 -2.1 -2.1 -2.1 -2.1 -2.1 -2.1 -2.1 -2.1 -2.1 -2.1 -2.1 -2.1 -2.1 -2.1 -2.1 -2.1 -2.1 -2.1 -2.1 -2.1 -2.1 -2.1 -2.1 -2.1 -2.1 -2.1 -2.1 -2.1 -2.1 -2.1 -2.1 -2.1 -2.1 -2.1 -2.1 -2.1 -2.1 -2.1 -2.1 -2.1 -2.1 -2.1 -2.1 12.5 24.4 33.6 42.5 52.1 62 75.2 85.5 91 78.3 83.1 80.2 78.2 84.9 94.1
-2.1 -2.1 -2.1 -2.1 -2.1 -2.1 -2.1 -2.1 -2.1 -2.1 -2.1 -2.1 -2.1 -2.1 -2.1 -2.1 -2.1 -2.1 -2.1 -2.1 -2.1 -2.1 -2.1 -2.1 -2.1 -2.1 -2.1 -2.1 -2.1 -2.1 -2.1 -2.1 -2.1 -2.1 -2.1 -2.1 -2.1 -2.1 -2.1 -2.1 -2.1 -2.1 -2.1 -2.1 -2.1 -2.1 -2.1 -2.1 -2.1 -2.1 -2.1 -2.1 -2.1 -2.1 -2.1 -2.1 -2.1 -2.1 -2.1 -2.1 -2.1 -2.1 -2.1 -2.1 -2.1 -2.1 -2.1 -2.1 -2.1 -2.1 -2.1 -2.1 -2.1 -2.1 -2.1 -2.1 -2.1 -2.1 -2.1 -2.1 -2.1 -2.1 -2.1 -2.1 -2.1 -2.1 -2.1 -2.1 -2.1 -2.1 -2.1 -2.1 -2.1 -2.1 -2.1 -2.1 -2.1 -2.1 -2.1 -2.1 -2.1 -2.1 -2.1 -2.1 -2.1 -2.1 -2.1 -2.1 -2.1 -2.1 -2.1 -2.1 -2.1 -2.1 -2.1 -2.1 -2.1 -2.1 -2.1 -2.1 -2.1 -2.1 2 10 16.3 21.1 26.8 33.5 30.6 23.1 12.3 9.5 5 -2.1 -2.1 -2.1 -2.1 -2.1 -2.1 -2.1 -2.1 -2.1 -2.1 -2.1 -2.1 -2.1 -2.1 -2.1 -2.1 -2.1 -2.1 -2.1 -2.1 -2.1 -2.1 -2.1 -2.1 -2.1 -2.1 -2.1 -2.1 -2.1 -2.1 -2.1 -2.1 -2.1 -2.1 -2.1 -2.1 -2.1 -2.1 -2.1 -2.1 -2.1 -2.1 -2.1 -2.1 -2.1 -2.1 -2.1 -2.1 -2.1 -2.1 -2.1 0.4 12.6 21.1 32.3 41.7 52.8 60.1 71.6 79.2 83.7 83.3 90.9 86.5 84 83.6 90.6
-2.1 -2.1 -2.1 -2.1 -2.1 -2.1 -2.1 -2.1 -2.1 -2.1 -2.1 -2.1 -2.1 -2.1 -2.1 -2.1 -2.1 -2.1 -2.1 -2.1 -2.1 -2.1 -2.1 -2.1 -2.1 -2.1 -2.1 -2.1 -2.1 -2.1 -2.1 -2.1 -2.1 -2.1 -2.1 -2.1 -2.1 -2.1 -2.1 -2.1 -2.1 -2.1 -2.1 -2.1 -2.1 -2.1 -2.1 -2.1 -2.1 -2.1 -2.1 -2.1 -2.1 -2.1 -2.1 -2.1 -2.1 -2.1 -2.1 -2.1 -2.1 -2.1 -2.1 -2.1 -2.1 -2.1 -2.1 -2.1 -2.1 -2.1 -2.1 -2.1 -2.1 -2.1 -2.1 -2.1 -2.1 -2.1 -2.1 -2.1 -2.1 -2.1 -2.1 -2.1 -2.1 -2.1 -2.1 -2.1 -2.1 -2.1 -2.1 -2.1 -2.1 -2.1 -2.1 -2.1 -2.1 -2.1 -2.1 -2.1 -2.1 -2.1 -2.1 -2.1 -2.1 -2.1 -2.1 -2.1 -2.1 -2.1 -2.1 -2.1 -2.1 -2.1 -2.1 -2.1 -2.1 -2.1 -2.1 -2.1 -2.1 -2.1 -2.1 7.3 13.1 18.7 28.4 31.8 27.2 19.8 14.9 9.3 6.4 -0.2 -2.1 -2.1 -2.1 -2.1 -2.1 -2.1 -2.1 -2.1 -2.1 -2.1 -2.1 -2.1 -2.1 -2.1 -2.1 -2.1 -2.1 -2.1 -2.1 -2.1 -2.1 -2.1 -2.1 -2.1 -2.1 -2.1 -2.1 -2.1 -2.1 -2.1 -2.1 -2.1 -2.1 -2.1 -2.1 -2.1 -2.1 -2.1 -2.1 -2.1 -2.1 -2.1 -2.1 -2.1 -2.1 -2.1 -2.1 -2.1 -2.1 -2.1 -2.1 7.9 20.1 30.9 42.7 52.6 59.7 71 82.3 87.9 88.3 98 95.5 87.8 85.1 93.3
-2.1 -2.1 -2.1 -2.1 -2.1 -2.1 -2.1 -2.1 -2.1 -2.1 -2.1 -2.1 -2.1 -2.1 -2.1 -2.1 -2.1 -2.1 -2.1 -2.1 -2.1 -2.1 -2.1 -2.1 -2.1 -2.1 -2.1 -2.1 -2.1 -2.1 -2.1 -2.1 -2.1 -2.1 -2.1 -2.1 -2.1 -2.1 -2.1 -2.1 -2.1 -2.1 -2.1 -2.1 -2.1 -2.1 -2.1 -2.1 -2.1 -2.1 -2.1 -2.1 -2.1 -2.1 -2.1 -2.1 -2.1 -2.1 -2.1 -2.1 -2.1 -2.1 -2.1 -2.1 -2.1 -2.1 -2.1 -2.1 -2.1 -2.1 -2.1 -2.1 -2.1 -2.1 -2.1 -2.1 -2.1 -2.1 -2.1 -2.1 -2.1 -2.1 -2.1 -2.1 -2.1 -2.1 -2.1 -2.1 -2.1 -2.1 -2.1 -2.1 -2.1 -2.1 -2.1 -2.1 -2.1 -2.1 -2.1 -2.1 -2.1 -2.1 -2.1 -2.1 -2.1 -2.1 -2.1 -2.1 -2.1 -2.1 -2.1 -2.1 -2.1 -2.1 -2.1 -2.1 -2.1 -2.1 -2.1 -2.1 -2.1 -2.1 -2.1 4.1 12.5 17.5 23.4 26.3 25.1 23.2 20.2 20.9 16.5 6.8 -2.1 -2.1 -2.1 -2.1 -2.1 -2.1 -2.1 -2.1 -2.1 -2.1 -2.1 -2.1 -2.1 -2.1 -2.1 -2.1 -2.1 -2.1 -2.1 -2.1 -2.1 -2.1 -2.1 -2.1 -2.1 -2.1 -2.1 -2.1 -2.1 -2.1 -2.1 -2.1 -2.1 -2.1 -2.1 -2.1 -2.1 -2.1 -2.1 -2.1 -2.1 -2.1 -2.1 -2.1 -2.1 -2.1 -2.1 -2.1 -2.1 -2.1 -2.1 11.9 22.9 33 43.2 51.1 61.4 74.5 84.2 91.1 93.5 99.6 97.1 93.5 93.9 94.8
-2.1 -2.1 -2.1 -2.1 -2.1 -2.1 -2.1 -2.1 -2.1 -2.1 -2.1 -2.1 -2.1 -2.1 -2.1 -2.1 -2.1 -2.1 -2.1 -2.1 -2.1 -2.1 -2.1 -2.1 -2.1 -2.1 -2.1 -2.1 -2.1 -2.1 -2.1 -2.1 -2.1 -2.1 -2.1 -2.1 -2.1 -2.1 -2.1 -2.1 -2.1 -2.1 -2.1 -2.1 -2.1 -2.1 -2.1 -2.1 -2.1 -2.1 -2.1 -2.1 -2.1 -2.1 -2.1 -2.1 -2.1 -2.1 -2.1 -2.1 -2.1 -2.1 -2.1 -2.1 -2.1 -2.1 -2.1 -2.1 -2.1 -2.1 -2.1 -2.1 -2.1 -2.1 -2.1 -2.1 -2.1 -2.1 -2.1 -2.1 -2.1 -2.1 -2.1 -2.1 -2.1 -2.1 -2.1 -2.1 -2.1 -2.1 -2.1 -2.1 -2.1 -2.1 -2.1 -2.1 -2.1 -2.1 -2.1 -2.1 -2.1 -2.1 -2.1 -2.1 -2.1 -2.1 -2.1 -2.1 -2.1 -2.1 -2.1 -2.1 -2.1 -2.1 -2.1 -2.1 -2.1 -2.1 -2.1 -2.1 -2.1 -2.1 -2.1 -2.1 9.7 15.5 21.1 25.1 23.9 26.5 26.7 19.9 19.9 13.3 -2.1 -2.1 -2.1 -2.1 -2.1 -2.1 -2.1 -2.1 -2.1 -2.1 -2.1 -2.1 -2.1 -2.1 -2.1 -2.1 -2.1 -2.1 -2.1 -2.1 -2.1 -2.1 -2.1 -2.1 -2.1 -2.1 -2.1 -2.1 -2.1 -2.1 -2.1 -2.1 -2.1 -2.1 -2.1 -2.1 -2.1 -2.1 -2.1 -2.1 -2.1 -2.1 -2.1 -2.1 -2.1 -2.1 -2.1 -2.1 -2.1 -2.1 -2.1 16.7 28.8 36.5 48.3 55.7 62.1 76.7 87.8 96.5 94.7 95.2 95.3 98.3 93.8 95.4
-2.1 -2.1 -2.1 -2.1 -2.1 -2.1 -2.1 -2.1 -2.1 -2.1 -2.1 -2.1 -2.1 -2.1 -2.1 -2.1 -2.1 -2.1 -2.1 -2.1 -2.1 -2.1 -2.1 -2.1 -2.1 -2.1 -2.1 -2.1 -2.1 -2.1 -2.1 -2.1 -2.1 -2.1 -2.1 -2.1 -2.1 -2.1 -2.1 -2.1 -2.1 -2.1 -2.1 -2.1 -2.1 -2.1 -2.1 -2.1 -2.1 -2.1 -2.1 -2.1 -2.1 -2.1 -2.1 -2.1 -2.1 -2.1 -2.1 -2.1 -2.1 -2.1 -2.1 -2.1 -2.1 -2.1 -2.1 -2.1 -2.1 -2.1 -2.1 -2.1 -2.1 -2.1 -2.1 -2.1 -2.1 -2.1 -2.1 -2.1 -2.1 -2.1 -2.1 -2.1 -2.1 -2.1 -2.1 -2.1 -2.1 -2.1 -2.1 -2.1 -2.1 -2.1 -2.1 -2.1 -2.1 -2.1 -2.1 -2.1 -2.1 -2.1 -2.1 -2.1 -2.1 -2.1 -2.1 -2.1 -2.1 -2.1 -2.1 -2.1 -2.1 -2.1 -2.1 -2.1 -2.1 -2.1 -2.1 -2.1 -2.1 -2.1 1.3 4 1.8 7.8 14.1 22.1 19.7 24.1 26.9 17.1 13.2 10.8 1.3 -2.1 -2.1 -2.1 -2.1 -2.1 -2.1 -2.1 -2.1 -2.1 -2.1 -2.1 -2.1 -2.1 -2.1 -2.1 -2.1 -2.1 -2.1 -2.1 -2.1 -2.1 -2.1 -2.1 -2.1 -2.1 -2.1 -2.1 -2.1 -2.1 -2.1 -2.1 -2.1 -2.1 -2.1 -2.1 -2.1 -2.1 -2.1 -2.1 -2.1 -2.1 -2.1 -2.1 -2.1 -2.1 -2.1 -2.1 -2.1 -2.1 -2.1 21.6 31.6 37.5 52.1 60.8 60.8 75.2 85.8 94.4 96.5 91.4 92.8 93.4 100.4 92.7
-2.1 -2.1 -2.1 -2.1 -2.1 -2.1 -2.1 -2.1 -2.1 -2.1 -2.1 -2.1 -2.1 -2.1 -2.1 -2.1 -2.1 -2.1 -2.1 -2.1 -2.1 -2.1 -2.1 -2.1 -2.1 -2.1 -2.1 -2.1 -2.1 -2.1 -2.1 -2.1 -2.1 -2.1 -2.1 -2.1 -2.1 -2.1 -2.1 -2.1 -2.1 -2.1 -2.1 -2.1 -2.1 -2.1 -2.1 -2.1 -2.1 -2.1 -2.1 -2.1 -2.1 -2.1 -2.1 -2.1 -2.1 -2.1 -2.1 -2.1 -2.1 -2.1 -2.1 -2.1 -2.1 -2.1 -2.1 -2.1 -2.1 -2.1 -2.1 -2.1 -2.1 -2.1 -2.1 -2.1 -2.1 -2.1 -2.1 -2.1 -2.1 -2.1 -2.1 -2.1 -2.1 -2.1 -2.1 -2.1 -2.1 -2.1 -2.1 -2.1 -2.1 -2.1 -2.1 -2.1 -2.1 -2.1 -2.1 -2.1 -2.1 -2.1 -2.1 -2.1 -2.1 -2.1 -2.1 -2.1 -2.1 -2.1 -2.1 -2.1 -2.1 -2.1 -2.1 -2.1 -2.1 -2.1 -2.1 -2.1 -2.1 -2.1 9.1 8.1 9.3 6.7 6.9 14.2 14.3 18.9 22.9 18.2 11 8.5 1.4 -0.9 -2.1 -2.1 -2.1 -2.1 -2.1 -2.1 -2.1 -2.1 -2.1 -2.1 -2.1 -2.1 -2.1 -2.1 -2.1 -2.1 -2.1 -2.1 -2.1 -2.1 -2.1 -2.1 -2.1 -2.1 -2.1 -2.1 -2.1 -2.1 -2.1 -2.1 -2.1 -2.1 -2.1 -2.1 -2.1 -2.1 -2.1 -2.1 -2.1 -2.1 -2.1 -2.1 -2.1 -2.1 -2.1 -2.1 -2.1 -2.1 -2.1 17.9 29.3 37.2 51.9 56.9 55.2 64.8 75.1 81.8 80.9 77 85.1 85.5 86.5 83.8
-2.1 -2.1 -2.1 -2.1 -2.1 -2.1 -2.1 -2.1 -2.1 -2.1 -2.1 -2.1 -2.1 -2.1 -2.1 -2.1 -2.1 -2.1 -2.1 -2.1 -2.1 -2.1 -2.1 -2.1 -2.1 -2.1 -2.1 -2.1 -2.1 -2.1 -2.1 -2.1 -2.1 -2.1 -2.1 -2.1 -2.1 -2.1 -2.1 -2.1 -2.1 -2.1 -2.1 -2.1 -2.1 -2.1 -2.1 -2.1 -2.1 -2.1 -2.1 -2.1 -2.1 -2.1 -2.1 -2.1 -2.1 -2.1 -2.1 -2.1 -2.1 -2.1 -2.1 -2.1 -2.1 -2.1 -2.1 -2.1 -2.1 -2.1 -2.1 -2.1 -2.1 -2.1 -2.1 -2.1 -2.1 -2.1 -2.1 -2.1 -2.1 -2.1 -2.1 -2.1 -2.1 -2.1 -2.1 -2.1 -2.1 -2.1 -2.1 -2.1 -2.1 -2.1 -2.1 -2.1 -2.1 -2.1 -2.1 -2.1 -2.1 -2.1 -2.1 -2.1 -2.1 -2.1 -2.1 -2.1 -2.1 -2.1 -2.1 -2.1 -2.1 -2.1 -2.1 -2.1 -2.1 -2.1 -2.1 -2.1 -2.1 -2.1 -2.1 2.3 6.5 11.2 10 4.6 -2.1 10.2 16.3 15 11.6 6.5 -2.1 -2.1 -2.1 -2.1 -2.1 -2.1 -2.1 -2.1 -2.1 -2.1 -2.1 -2.1 -2.1 -2.1 -2.1 -2.1 -2.1 -2.1 -2.1 -2.1 -2.1 -2.1 -2.1 -2.1 -2.1 -2.1 -2.1 -2.1 -2.1 -2.1 -2.1 -2.1 -2.1 -2.1 -2.1 -2.1 -2.1 -2.1 -2.1 -2.1 -2.1 -2.1 -2.1 -2.1 -2.1 -2.1 -2.1 -2.1 -2.1 -2.1 -2.1 8 21.3 26.4 40.4 47.7 45.8 50.5 50.9 58.6 60.9 49.7 65.5 67.7 71 66.9
