ncols 200
nrows 85
xllcorner 230000
yllcorner 120850
cellsize 50
101.2 107.3 111.3 115.8 119.3 120.7 119.7 116.8 112.7 108.7 104.7 102.2 97.6 95.1 96.9 103 108.4 112.1 112 111.6 106.9 103.2 99.7 97.5 96.9 97.6 100 102.1 101.3 98.3 92.1 79.2 62.6 43.9 13.1 1.2 -2.5 -2.5 -2.5 -2.5 -2.5 -2.5 -2.5 -2.5 -2.5 -2.5 -2.5 -2.5 -2.5 -2.5 -2.5 -2.5 -2.5 -2.5 -2.5 -2.5 -2.5 -2.5 -2.5 -2.5 -2.5 -2.5 -2.5 -2.5 -2.5 -2.5 -2.5 -2.5 -2.5 -2.5 -2.5 -2.5 -2.5 -2.5 -2.5 -2.5 -2.5 -2.5 -2.5 -2.5 -2.5 -2.5 -2.5 -2.5 -2.5 -2.5 -2.5 -2.5 -2.5 -2.5 -2.5 -2.5 -2.5 -2.5 -2.5 -2.5 -2.5 -2.5 -2.5 -2.5 -2.5 -2.5 -2.5 -2.5 -2.5 -2.5 -2.5 -2.5 -2.5 -2.5 -2.5 -2.5 -2.5 -2.5 -2.5 -2.5 -2.5 -2.5 -2.5 -2.5 -2.5 -2.5 -2.5 -2.5 -2.5 -2.5 -2.5 -2.5 -2.5 -2.5 -2.5 -2.5 -2.5 -2.5 -2.5 -2.5 -2.5 -2.5 -2.5 -2.5 -2.5 -2.5 -2.5 -2.5 -2.5 -2.5 -2.5 -2.5 -2.5 -2.5 -2.5 -2.5 -2.5 -2.5 -2.5 -2.5 -2.5 -2.5 -2.5 -2.5 -2.5 -2.5 -2.5 -2.5 -2.5 -2.5 -2.5 -2.5 -2.5 -2.5 -2.5 -2.5 -2.5 -2.5 -1.8 -1.3 -0.7 -0.1 1 2.5 21.8 58.2 81.5 84.5 83.1 80.8 77 75.8 72.7 69.7 72.8 79 85.2 90.7 96 101.8 108.4 114.7 119.3 122.1
102.8 108.9 113.5 117.6 121.8 124.2 124.2 122 118.5 114 109.4 104 100.9 98.2 100.8 108.3 113.6 115.6 114.2 112 108.6 105.8 103.8 101.3 101.9 101.6 104.2 105.7 105.3 103.5 100.2 91 76 54.5 28.7 2.5 -2.5 -2.5 -2.5 -2.5 -2.5 -2.5 -2.5 -2.5 -2.5 -2.5 -2.5 -2.5 -2.5 -2.5 -2.5 -2.5 -2.5 -2.5 -2.5 -2.5 -2.5 -2.5 -2.5 -2.5 -2.5 -2.5 -2.5 -2.5 -2.5 -2.5 -2.5 -2.5 -2.5 -2.5 -2.5 -2.5 -2.5 -2.5 -2.5 -2.5 -2.5 -2.5 -2.5 -2.5 -2.5 -2.5 -2.5 -2.5 -2.5 -2.5 -2.5 -2.5 -2.5 -2.5 -2.5 -2.5 -2.5 -2.5 -2.5 -2.5 -2.5 -2.5 -2.5 -2.5 -2.5 -2.5 -2.5 -2.5 -2.5 -2.5 -2.5 -2.5 -2.5 -2.5 -2.5 -2.5 -2.5 -2.5 -2.5 -2.5 -2.5 -2.5 -2.5 -2.5 -2.5 -2.5 -2.5 -2.5 -2.5 -2.5 -2.5 -2.5 -2.5 -2.5 -2.5 -2.5 -2.5 -2.5 -2.5 -2.5 -2.5 -2.5 -2.5 -2.5 -2.5 -2.5 -2.5 -2.5 -2.5 -2.5 -2.5 -2.5 -2.5 -2.5 -2.5 -2.5 -2.5 -2.5 -2.5 -2.5 -2.5 -2.5 -2.5 -2.5 -2.5 -2.5 -2.5 -2.5 -2.5 -2.5 -2.5 -2.5 -2.5 -2.5 -2.5 -2.5 -2.5 -2.5 -0.9 0 0.6 1.3 2.2 15.7 36.3 59.6 75 76.5 75.9 75.4 72.9 70.4 66.8 62.8 67.6 72.7 76.9 80.9 86.8 95.3 103.5 110.2 114.7 118.2
103.1 107.9 114.3 119 123.1 126.4 127.1 125.6 121.7 116.8 112.9 108.5 105.6 103.8 102.9 111.5 117.3 120.2 117.9 115.9 113.5 114.7 113.7 110.3 107.3 105.7 109.1 111.9 112.7 113.3 111 105.5 89.2 69.8 48 19.4 2.5 -2.5 -2.5 -2.5 -2.5 -2.5 -2.5 -2.5 -2.5 -2.5 -2.5 -2.5 -2.5 -2.5 -2.5 -2.5 -2.5 -2.5 -2.5 -2.5 -2.5 -2.5 -2.5 -2.5 -2.5 -2.5 -2.5 -2.5 -2.5 -2.5 -2.5 -2.5 -2.5 -2.5 -2.5 -2.5 -2.5 -2.5 -2.5 -2.5 -2.5 -2.5 -2.5 -2.5 -2.5 -2.5 -2.5 -2.5 -2.5 -2.5 -2.5 -2.5 -2.5 -2.5 -2.5 -2.5 -2.5 -2.5 -2.5 -2.5 -2.5 -2.5 -2.5 -2.5 -2.5 -2.5 -2.5 -2.5 -2.5 -2.5 -2.5 -2.5 -2.5 -2.5 -2.5 -2.5 -2.5 -2.5 -2.5 -2.5 -2.5 -2.5 -2.5 -2.5 -2.5 -2.5 -2.5 -2.5 -2.5 -2.5 -2.5 -2.5 -2.5 -2.5 -2.5 -2.5 -2.5 -2.5 -2.5 -2.5 -2.5 -2.5 -2.5 -2.5 -2.5 -2.5 -2.5 -2.5 -2.5 -2.5 -2.5 -2.5 -2.5 -2.5 -2.5 -2.5 -2.5 -2.5 -2.5 -2.5 -2.5 -2.5 -2.5 -2.5 -2.5 -2.5 -2.5 -2.5 -2.5 -2.5 -2.5 -2.5 -2.5 -2.5 -2.5 -2.5 -2.5 -1.3 -0.1 0.8 1.7 2.5 13.1 33.8 43.8 55.3 66.3 69.2 73.2 73.4 70.3 68.8 64.7 60.3 61.2 67.5 70.4 74.4 79.4 88.5 97.8 104.4 109.5 114.1
103.9 109.4 114.7 120.2 125.8 128.7 130.2 129.1 125.1 120.8 118.4 115.1 110.3 110.8 105.6 113.6 120.3 124.6 123.1 119.6 119.7 122.7 122.2 119.9 116.1 117.2 119.8 118.5 121.4 123.3 120.1 114.1 103.5 88 69.1 38.7 7.9 -2.5 -2.5 -2.5 -2.5 -2.5 -2.5 -2.5 -2.5 -2.5 -2.5 -2.5 -2.5 -2.5 -2.5 -2.5 -2.5 -2.5 -2.5 -2.5 -2.5 -2.5 -2.5 -2.5 -2.5 -2.5 -2.5 -2.5 -2.5 -2.5 -2.5 -2.5 -2.5 -2.5 -2.5 -2.5 -2.5 -2.5 -2.5 -2.5 -2.5 -2.5 -2.5 -2.5 -2.5 -2.5 -2.5 -2.5 -2.5 -2.5 -2.5 -2.5 -2.5 -2.5 -2.5 -2.5 -2.5 -2.5 -2.5 -2.5 -2.5 -2.5 -2.5 -2.5 -2.5 -2.5 -2.5 -2.5 -2.5 -2.5 -2.5 -2.5 -2.5 -2.5 -2.5 -2.5 -2.5 -2.5 -2.5 -2.5 -2.5 -2.5 -2.5 -2.5 -2.5 -2.5 -2.5 -2.5 -2.5 -2.5 -2.5 -2.5 -2.5 -2.5 -2.5 -2.5 -2.5 -2.5 -2.5 -2.5 -2.5 -2.5 -2.5 -2.5 -2.5 -2.5 -2.5 -2.5 -2.5 -2.5 -2.5 -2.5 -2.5 -2.5 -2.5 -2.5 -2.5 -2.5 -2.5 -2.5 -2.5 -2.5 -2.5 -2.5 -2.5 -2.5 -2.5 -2.5 -2.5 -2.5 -2.5 -2.5 -2.5 -2.5 -2.5 -2.5 -2 -0.7 0.6 1.6 2.6 11.2 38.1 53.3 54.9 58.1 61 65.3 69.6 69.3 66.2 61.2 58.9 55.8 56.7 60.4 64.3 68.6 76.7 85 95 101.2 106.2 110.2
110.7 114.4 119 123.8 128.5 132.7 135.6 136 133.8 128.8 125.1 122.2 118.7 118.3 116.1 116.7 124.2 129.5 130.2 128.1 128.2 131.5 131.4 129.3 125.7 123.7 123.5 125.5 126 126.9 126.3 122.9 111.4 85.9 65.2 46.6 9.8 3 -2.5 -2.5 -2.5 -2.5 -2.5 -2.5 -2.5 -2.5 -2.5 -2.5 -2.5 -2.5 -2.5 -2.5 -2.5 -2.5 -2.5 -2.5 -2.5 -2.5 -2.5 -2.5 -2.5 -2.5 -2.5 -2.5 -2.5 -2.5 -2.5 -2.5 -2.5 -2.5 -2.5 -2.5 -2.5 -2.5 -2.5 -2.5 -2.5 -2.5 -2.5 -2.5 -2.5 -2.5 -2.5 -2.5 -2.5 -2.5 -2.5 -2.5 -2.5 -2.5 -2.5 -2.5 -2.5 -2.5 -2.5 -2.5 -2.5 -2.5 -2.5 -2.5 -2.5 -2.5 -2.5 -2.5 -2.5 -2.5 -2.5 -2.5 -2.5 -2.5 -2.5 -2.5 -2.5 -2.5 -2.5 -2.5 -2.5 -2.5 -2.5 -2.5 -2.5 -2.5 -2.5 -2.5 -2.5 -2.5 -2.5 -2.5 -2.5 -2.5 -2.5 -2.5 -2.5 -2.5 -2.5 -2.5 -2.5 -2.5 -2.5 -2.5 -2.5 -2.5 -2.5 -2.5 -2.5 -2.5 -2.5 -2.5 -2.5 -2.5 -2.5 -2.5 -2.5 -2.5 -2.5 -2.5 -2.5 -2.5 -2.5 -2.5 -2.5 -2.5 -2.5 -2.5 -2.5 -2.5 -2.5 -2.5 -2.5 -2.5 -2.5 -2.5 -1.7 -0.1 1.2 2.5 8.4 26.9 47.9 49.4 50 51.9 53.8 54.7 56.7 58.5 56.6 53.2 51.8 49.1 53.1 55.6 60.5 69.3 77.2 84.6 92.2 95 99.3 105.3
116.5 122 127.2 131 134.8 139.4 142.5 142.6 141.4 136.8 132.7 130.8 128.7 128.1 128.1 126.1 128.9 135.9 137.6 135.7 134.9 139.2 140.2 138.7 135.4 131.5 133.2 133.9 135.3 135.9 136.6 130.8 105.3 82.8 58.5 43.8 30.4 6.2 0.6 -2.5 -2.5 -2.5 -2.5 -2.5 -2.5 -2.5 -2.5 -2.5 -2.5 -2.5 -2.5 -2.5 -2.5 -2.5 -2.5 -2.5 -2.5 -2.5 -2.5 -2.5 -2.5 -2.5 -2.5 -2.5 -2.5 -2.5 -2.5 -2.5 -2.5 -2.5 -2.5 -2.5 -2.5 -2.5 -2.5 -2.5 -2.5 -2.5 -2.5 -2.5 -2.5 -2.5 -2.5 -2.5 -2.5 -2.5 -2.5 -2.5 -2.5 -2.5 -2.5 -2.5 -2.5 -2.5 -2.5 -2.5 -2.5 -2.5 -2.5 -2.5 -2.5 -2.5 -2.5 -2.5 -2.5 -2.5 -2.5 -2.5 -2.5 -2.5 -2.5 -2.5 -2.5 -2.5 -2.5 -2.5 -2.5 -2.5 -2.5 -2.5 -2.5 -2.5 -2.5 -2.5 -2.5 -2.5 -2.5 -2.5 -2.5 -2.5 -2.5 -2.5 -2.5 -2.5 -2.5 -2.5 -2.5 -2.5 -2.5 -2.5 -2.5 -2.5 -2.5 -2.5 -2.5 -2.5 -2.5 -2.5 -2.5 -2.5 -2.5 -2.5 -2.5 -2.5 -2.5 -2.5 -2.5 -2.5 -2.5 -2.5 -2.5 -2.5 -2.5 -2.5 -2.5 -2.5 -2.5 -2.5 -2.5 -2.5 -2.5 -1.4 -0.4 0.8 2.1 6.9 21.8 31.5 38.6 42.3 43.3 43.7 44.1 45.9 47.8 48.4 48 47.2 44.7 43.5 49.1 53.8 58 65.2 73.6 82.1 88 87.4 91.3 98.4
118.8 129.8 135 139.2 141.4 145.1 147.6 148.1 147.8 144.9 141.8 140.3 138.7 138.5 138.5 136.6 134.1 140.7 144 142.2 141.5 144.9 147.1 146.5 144.3 143.6 145.3 146.1 145.9 147 145.5 124.6 97.7 71.7 59.2 54 48.4 17.5 2.2 -2.5 -2.5 -2.5 -2.5 -2.5 -2.5 -2.5 -2.5 -2.5 -2.5 -2.5 -2.5 -2.5 -2.5 -2.5 -2.5 -2.5 -2.5 -2.5 -2.5 -2.5 -2.5 -2.5 -2.5 -2.5 -2.5 -2.5 -2.5 -2.5 -2.5 -2.5 -2.5 -2.5 -2.5 -2.5 -2.5 -2.5 -2.5 -2.5 -2.5 -2.5 -2.5 -2.5 -2.5 -2.5 -2.5 -2.5 -2.5 -2.5 -2.5 -2.5 -2.5 -2.5 -2.5 -2.5 -2.5 -2.5 -2.5 -2.5 -2.5 -2.5 -2.5 -2.5 -2.5 -2.5 -2.5 -2.5 -2.5 -2.5 -2.5 -2.5 -2.5 -2.5 -2.5 -2.5 -2.5 -2.5 -2.5 -2.5 -2.5 -2.5 -2.5 -2.5 -2.5 -2.5 -2.5 -2.5 -2.5 -2.5 -2.5 -2.5 -2.5 -2.5 -2.5 -2.5 -2.5 -2.5 -2.5 -2.5 -2.5 -2.5 -2.5 -2.5 -2.5 -2.5 -2.5 -2.5 -2.5 -2.5 -2.5 -2.5 -2.5 -2.5 -2.5 -2.5 -2.5 -2.5 -2.5 -2.5 -2.5 -2.5 -2.5 -2.5 -2.5 -2.5 -2.5 -2.5 -2.5 -2.5 -2.5 -2.5 -1.5 -0.3 0.9 2 5 16.1 21.9 25 28 30.7 33.8 36.2 37 38.5 41.6 44.1 43.2 42.2 41.1 41.9 46.7 49.7 54.7 59.4 66.3 74.4 79.2 78 82.6 90.2
114 129.3 137.5 141.1 144.8 148.2 150.1 152.1 152.7 151 150.1 148.2 147.1 147.5 145.6 139.8 136.1 142.1 147.3 148.5 148.1 149.9 152.7 152.3 150.9 151 153.2 154 154.2 152.7 146.2 119.9 91 80.6 82 74.8 67.2 40.8 9.4 0.8 -2.5 -2.5 -2.5 -2.5 -2.5 -2.5 -2.5 -2.5 -2.5 -2.5 -2.5 -2.5 -2.5 -2.5 -2.5 -2.5 -2.5 -2.5 -2.5 -2.5 -2.5 -2.5 -2.5 -2.5 -2.5 -2.5 -2.5 -2.5 -2.5 -2.5 -2.5 -2.5 -2.5 -2.5 -2.5 -2.5 -2.5 -2.5 -2.5 -2.5 -2.5 -2.5 -2.5 -2.5 -2.5 -2.5 -2.5 -2.5 -2.5 -2.5 -2.5 -2.5 -2.5 -2.5 -2.5 -2.5 -2.5 -2.5 -2.5 -2.5 -2.5 -2.5 -2.5 -2.5 -2.5 -2.5 -2.5 -2.5 -2.5 -2.5 -2.5 -2.5 -2.5 -2.5 -2.5 -2.5 -2.5 -2.5 -2.5 -2.5 -2.5 -2.5 -2.5 -2.5 -2.5 -2.5 -2.5 -2.5 -2.5 -2.5 -2.5 -2.5 -2.5 -2.5 -2.5 -2.5 -2.5 -2.5 -2.5 -2.5 -2.5 -2.5 -2.5 -2.5 -2.5 -2.5 -2.5 -2.5 -2.5 -2.5 -2.5 -2.5 -2.5 -2.5 -2.5 -2.5 -2.5 -2.5 -2.5 -2.5 -2.5 -2.5 -2.5 -2.5 -2.5 -2.5 -2.5 -2.5 -2.5 -2.5 -0.5 1 2.1 5 12.1 17 20.2 21 22 24.8 26.9 29.4 31.1 32.3 34.2 35 36 37.2 36.3 37.8 42.5 46.3 50.2 56.4 62.2 67.1 69.6 68.6 74.9 81
119.2 133.4 141.5 144.4 147.6 151.2 153.5 156.1 155.8 155.4 154.1 153.2 153.3 153.4 150.9 145.2 142.1 145.8 150.3 152.8 153.3 155.5 157.6 158.3 157.4 157.7 159 160 159.5 156.5 147.1 118.7 93 104.8 107.8 101.6 89.5 60.2 33.2 8.4 -2.5 -2.5 -2.5 -2.5 -2.5 -2.5 -2.5 -2.5 -2.5 -2.5 -2.5 -2.5 -2.5 -2.5 -2.5 -2.5 -2.5 -2.5 -2.5 -2.5 -2.5 -2.5 -2.5 -2.5 -2.5 -2.5 -2.5 -2.5 -2.5 -2.5 -2.5 -2.5 -2.5 -2.5 -2.5 -2.5 -2.5 -2.5 -2.5 -2.5 -2.5 -2.5 -2.5 -2.5 -2.5 -2.5 -2.5 -2.5 -2.5 -2.5 -2.5 -2.5 -2.5 -2.5 -2.5 -2.5 -2.5 -2.5 -2.5 -2.5 -2.5 -2.5 -2.5 -2.5 -2.5 -2.5 -2.5 -2.5 -2.5 -2.5 -2.5 -2.5 -2.5 -2.5 -2.5 -2.5 -2.5 -2.5 -2.5 -2.5 -2.5 -2.5 -2.5 -2.5 -2.5 -2.5 -2.5 -2.5 -2.5 -2.5 -2.5 -2.5 -2.5 -2.5 -2.5 -2.5 -2.5 -2.5 -2.5 -2.5 -2.5 -2.5 -2.5 -2.5 -2.5 -2.5 -2.5 -2.5 -2.5 -2.5 -2.5 -2.5 -2.5 -2.5 -2.5 -2.5 -2.5 -2.5 -2.5 -2.5 -2.5 -2.5 -2.5 -2.5 -2.5 -2.5 -2.5 -2.5 -1.5 -0.6 0.7 2 4.8 13.4 14.8 18.7 19.7 21 22.5 24.3 26 27.1 28.7 29.9 28.8 28.7 30.2 33 35 36.1 38.6 41.4 45.3 49.2 52.8 54.8 58.2 61.2 66.2 71.7
115.2 132.8 143.3 146.6 149.6 152.8 155.7 157.3 158.1 157.6 158.1 157.5 158.1 157.4 154.8 149.7 144 148.9 153.9 157.4 159.1 160.9 162.4 163.1 163.4 163.1 164.2 165.5 165.1 159.1 148 123 115.3 129.7 131.7 127.3 110.1 83 55.1 29.2 12.2 2.1 -2.5 -2.5 -2.5 -2.5 -2.5 -2.5 -2.5 -2.5 -2.5 -2.5 -2.5 -2.5 -2.5 -2.5 -2.5 -2.5 -2.5 -2.5 -2.5 -2.5 -2.5 -2.5 -2.5 -2.5 -2.5 -2.5 -2.5 -2.5 -2.5 -2.5 -2.5 -2.5 -2.5 -2.5 -2.5 -2.5 -2.5 -2.5 -2.5 -2.5 -2.5 -2.5 -2.5 -2.5 -2.5 -2.5 -2.5 -2.5 -2.5 -2.5 -2.5 -2.5 -2.5 -2.5 -2.5 -2.5 -2.5 -2.5 -2.5 -2.5 -2.5 -2.5 -2.5 -2.5 -2.5 -2.5 -2.5 -2.5 -2.5 -2.5 -2.5 -2.5 -2.5 -2.5 -2.5 -2.5 -2.5 -2.5 -2.5 -2.5 -2.5 -2.5 -2.5 -2.5 -2.5 -2.5 -2.5 -2.5 -2.5 -2.5 -2.5 -2.5 -2.5 -2.5 -2.5 -2.5 -2.5 -2.5 -2.5 -2.5 -2.5 -2.5 -2.5 -2.5 -2.5 -2.5 -2.5 -2.5 -2.5 -2.5 -2.5 -2.5 -2.5 -2.5 -2.5 -2.5 -2.5 -2.5 -2.5 -2.5 -2.5 -2.5 -2.5 -2.5 -2.5 -2.5 -0.2 1 2.1 5.7 18 20.8 21.6 21.2 22.5 23.9 24.7 26.3 28.2 28.3 28.7 29.1 29.2 32.2 33.7 35.4 37 37.4 39.9 41.1 42.3 44 46.1 48.4 51 53.8 58.8 63.9
105.1 126.6 134.2 140.4 146.3 150.2 154.7 157.4 158.6 159.7 159.9 159.9 161.2 161 159.6 156.3 148.2 153 158.4 162.1 162.8 166 167.7 169.2 170 169.5 170.1 170.1 167.4 161.4 151.6 144.5 138.7 145.2 142.6 138.1 129.4 100.4 71.5 50.3 33.8 35 19.7 -2.5 -2.5 -2.5 -2.5 -2.5 -2.5 -2.5 -2.5 -2.5 -2.5 -2.5 -2.5 -2.5 -2.5 -2.5 -2.5 -2.5 -2.5 -2.5 -2.5 -2.5 -2.5 -2.5 -2.5 -2.5 -2.5 -2.5 -2.5 -2.5 -2.5 -2.5 -2.5 -2.5 -2.5 -2.5 -2.5 -2.5 -2.5 -2.5 -2.5 -2.5 -2.5 -2.5 -2.5 -2.5 -2.5 -2.5 -2.5 -2.5 -2.5 -2.5 -2.5 -2.5 -2.5 -2.5 -2.5 -2.5 -2.5 -2.5 -2.5 -2.5 -2.5 -2.5 -2.5 -2.5 -2.5 -2.5 -2.5 -2.5 -2.5 -2.5 -2.5 -2.5 -2.5 -2.5 -2.5 -2.5 -2.5 -2.5 -2.5 -2.5 -2.5 -2.5 -2.5 -2.5 -2.5 -2.5 -2.5 -2.5 -2.5 -2.5 -2.5 -2.5 -2.5 -2.5 -2.5 -2.5 -2.5 -2.5 -2.5 -2.5 -2.5 -2.5 -2.5 -2.5 -2.5 -2.5 -2.5 -2.5 -2.5 -2.5 -2.5 -2.5 -2.5 -2.5 -2.5 -2.5 -2.5 -2.5 -2.5 -2.5 -2.5 -2.5 -2.5 0 1.1 2.3 5.5 23.9 23.8 23.6 24.8 24.9 25.6 26.5 27.5 28.5 29.9 29.8 29.4 31.7 38.2 34.3 36.9 38.6 40.3 41.2 42.7 44.6 46.1 47.6 49.5 51.4 53.8 56.9 58.6 61.5
107.1 113.5 120.9 130.7 138.3 144.8 150.4 154.1 157 159.4 161.1 162.7 163.8 164.8 163.8 162.2 155.9 155.1 160 164.5 167.3 170.6 172.9 173.7 174.2 174.2 173.4 169.9 165.6 158.8 153.5 150.1 151.7 154.2 152.1 146.3 136.2 113.9 87.8 66.2 40.2 42 44.1 17.4 0.2 -2.5 -2.5 -2.5 -2.5 -2.5 -2.5 -2.5 -2.5 -2.5 -2.5 -2.5 -2.5 -2.5 -2.5 -2.5 -2.5 -2.5 -2.5 -2.5 -2.5 -2.5 -2.5 -2.5 -2.5 -2.5 -2.5 -2.5 -2.5 -2.5 -2.5 -2.5 -2.5 -2.5 -2.5 -2.5 -2.5 -2.5 -2.5 -2.5 -2.5 -2.5 -2.5 -2.5 -2.5 -2.5 -2.5 -2.5 -2.5 -2.5 -2.5 -2.5 -2.5 -2.5 -2.5 -2.5 -2.5 -2.5 -2.5 -2.5 -2.5 -2.5 -2.5 -2.5 -2.5 -2.5 -2.5 -2.5 -2.5 -2.5 -2.5 -2.5 -2.5 -2.5 -2.5 -2.5 -2.5 -2.5 -2.5 -2.5 -2.5 -2.5 -2.5 -2.5 -2.5 -2.5 -2.5 -2.5 -2.5 -2.5 -2.5 -2.5 -2.5 -2.5 -2.5 -2.5 -2.5 -2.5 -2.5 -2.5 -2.5 -2.5 -2.5 -2.5 -2.5 -2.5 -2.5 -2.5 -2.5 -2.5 -2.5 -2.5 -2.5 -2.5 -2.5 -2.5 -2.5 -2.5 -2.5 -2.5 -2.5 -2.5 0.2 1.4 2.5 6.2 26.3 27.3 27.7 27.3 27.4 28.6 29.1 30 30.9 31.5 32.6 31.5 38.1 38.2 38.2 38.2 40.5 42.6 44.3 45.1 46.1 48.2 49.9 51.4 53.6 56.1 57.4 61.4 61.5 62.6
109 108.2 124.4 137.8 144.1 148.7 152.1 155.2 157.5 159.8 162.5 164.5 166.4 167.6 167.8 165.8 162 159.7 162.8 166.4 170 172.4 174.6 176.6 177.5 177.1 176 172.7 167.9 161.5 155 156.4 159.6 160.8 159.6 154.5 145.4 125.6 99.3 71.2 42 49.9 61.9 52.3 6.5 0.9 -2.5 -2.5 -2.5 -2.5 -2.5 -2.5 -2.5 -2.5 -2.5 -2.5 -2.5 -2.5 -2.5 -2.5 -2.5 -2.5 -2.5 -2.5 -2.5 -2.5 -2.5 -2.5 -2.5 -2.5 -2.5 -2.5 -2.5 -2.5 -2.5 -2.5 -2.5 -2.5 -2.5 -2.5 -2.5 -2.5 -2.5 -2.5 -2.5 -2.5 -2.5 -2.5 -2.5 -2.5 -2.5 -2.5 -2.5 -2.5 -2.5 -2.5 -2.5 -2.5 -2.5 -2.5 -2.5 -2.5 -2.5 -2.5 -2.5 -2.5 -2.5 -2.5 -2.5 -2.5 -2.5 -2.5 -2.5 -2.5 -2.5 -2.5 -2.5 -2.5 -2.5 -2.5 -2.5 -2.5 -2.5 -2.5 -2.5 -2.5 -2.5 -2.5 -2.5 -2.5 -2.5 -2.5 -2.5 -2.5 -2.5 -2.5 -2.5 -2.5 -2.5 -2.5 -2.5 -2.5 -2.5 -2.5 -2.5 -2.5 -2.5 -2.5 -2.5 -2.5 -2.5 -2.5 -2.5 -2.5 -2.5 -2.5 -2.5 -2.5 -2.5 -2.5 -2.5 -2.5 -2.5 -2.5 -1.1 0.3 1.6 2.8 19.5 28.9 30.5 31.6 32.3 32.2 31.6 31.6 33 34.4 35 35.2 36.9 38.2 38.2 38.2 39.4 43.1 44.9 47.6 49.7 50.3 50.4 51.9 53.8 57 61.4 65.4 68.6 72.2 71.6 66.8
122.8 104.7 122.5 135.2 142.4 147.4 150.6 154.2 158.1 160.9 163.1 165.6 168.4 170.2 170.7 170.3 167.8 164.3 167 170.8 174.3 175 178.6 180.7 182.7 183 181.3 178 173.9 168.6 164 165 167.4 168.8 167.2 163.1 154.8 137.4 106.9 78.7 50.6 53.2 67.7 82 42.5 19.8 2.3 0.8 -2.5 -2.5 -2.5 -2.5 -2.5 -2.5 -2.5 -2.5 -2.5 -2.5 -2.5 -2.5 -2.5 -2.5 -2.5 -2.5 -2.5 -2.5 -2.5 -2.5 -2.5 -2.5 -2.5 -2.5 -2.5 -2.5 -2.5 -2.5 -2.5 -2.5 -2.5 -2.5 -2.5 -2.5 -2.5 -2.5 -2.5 -2.5 -2.5 -2.5 -2.5 -2.5 -2.5 -2.5 -2.5 -2.5 -2.5 -2.5 -2.5 -2.5 -2.5 -2.5 -2.5 -2.5 -2.5 -2.5 -2.5 -2.5 -2.5 -2.5 -2.5 -2.5 -2.5 -2.5 -2.5 -2.5 -2.5 -2.5 -2.5 -2.5 -2.5 -2.5 -2.5 -2.5 -2.5 -2.5 -2.5 -2.5 -2.5 -2.5 -2.5 -2.5 -2.5 -2.5 -2.5 -2.5 -2.5 -2.5 -2.5 -2.5 -2.5 -2.5 -2.5 -2.5 -2.5 -2.5 -2.5 -2.5 -2.5 -2.5 -2.5 -2.5 -2.5 -2.5 -2.5 -2.5 -2.5 -2.5 -2.5 -2.5 -2.5 -2.5 -2.5 -2.5 -2.5 -0.4 0.4 1.8 3.8 22.3 33.7 36.1 36 36.3 37.2 37.5 36.5 36.7 38.2 39.8 39.9 40.4 41.2 41 43.7 46.9 48.6 49.5 50.1 52.7 56 57.6 58.9 64 66 68.8 72.1 75.1 78.5 83 83.5 78.6
135.6 117.8 118.3 130.4 136.8 142 146.8 150.9 155 159.1 161.7 165.1 168.7 172 174.5 175.1 174 170.6 172.5 176.5 179.3 181.2 183.4 185.1 186.6 186.4 184.8 182.3 178.1 174 171.8 172.4 173.1 172.9 170.2 163.8 155.5 139.4 110.8 82.2 57.9 66.9 82.3 93 92.5 66 30.9 13.1 2.6 1.8 1.3 0.1 -2.5 -2.5 -2.5 -2.5 -2.5 -2.5 -2.5 -2.5 -2.5 -2.5 -2.5 -2.5 -2.5 -2.5 -2.5 -2.5 -2.5 -2.5 -2.5 -2.5 -2.5 -2.5 -2.5 -2.5 -2.5 -2.5 -2.5 -2.5 -2.5 -2.5 -2.5 -2.5 -2.5 -2.5 -2.5 -2.5 -2.5 -2.5 -2.5 -2.5 -2.5 -2.5 -2.5 -2.5 -2.5 -2.5 -2.5 -2.5 -2.5 -2.5 -2.5 -2.5 -2.5 -2.5 -2.5 -2.5 -2.5 -2.5 -2.5 -2.5 -2.5 -2.5 -2.5 -2.5 -2.5 -2.5 -2.5 -2.5 -2.5 -2.5 -2.5 -2.5 -2.5 -2.5 -2.5 -2.5 -2.5 -2.5 -2.5 -2.5 -2.5 -2.5 -2.5 -2.5 -2.5 -2.5 -2.5 -2.5 -2.5 -2.5 -2.5 -2.5 -2.5 -2.5 -2.5 -2.5 -2.5 -2.5 -2.5 -2.5 -2.5 -2.5 -2.5 -2.5 -2.5 -2.5 -2.5 -2.5 -2.5 -2.5 0.2 1.4 2.4 7.2 30.4 47.2 54.4 52 47.5 46.9 49 49.7 48.6 47 45 46.8 46.4 49.7 53.3 55.2 56.5 60 62.2 62.8 65.3 65.5 65.1 66 69.8 77.1 79 80.4 85.7 86 87.9 93.1 95.4 93.2
140.6 126.7 114.4 124.3 130.8 136.8 142.9 148.9 153.4 156.7 159.3 163.1 168.1 173.1 176.3 177.3 177.1 176 177.5 180.3 183.2 185.9 187.8 189.2 190.2 189.3 187.4 185.3 181.9 179.6 178.1 177.5 176.4 174.6 171.5 165.7 157.6 137.7 112 83.7 59 80.2 97 107.1 114.9 94.7 66.7 57.8 51.9 42.8 27.4 10.7 1.8 0.4 -2.5 -2.5 -2.5 -2.5 -2.5 -2.5 -2.5 -2.5 -2.5 -2.5 -2.5 -2.5 -2.5 -2.5 -2.5 -2.5 -2.5 -2.5 -2.5 -2.5 -2.5 -2.5 -2.5 -2.5 -2.5 -2.5 -2.5 -2.5 -2.5 -2.5 -2.5 -2.5 -2.5 -2.5 -2.5 -2.5 -2.5 -2.5 -2.5 -2.5 -2.5 -2.5 -2.5 -2.5 -2.5 -2.5 -2.5 -2.5 -2.5 -2.5 -2.5 -2.5 -2.5 -2.5 -2.5 -2.5 -2.5 -2.5 -2.5 -2.5 -2.5 -2.5 -2.5 -2.5 -2.5 -2.5 -2.5 -2.5 -2.5 -2.5 -2.5 -2.5 -2.5 -2.5 -2.5 -2.5 -2.5 -2.5 -2.5 -2.5 -2.5 -2.5 -2.5 -2.5 -2.5 -2.5 -2.5 -2.5 -2.5 -2.5 -2.5 -2.5 -2.5 -2.5 -2.5 -2.5 -2.5 -2.5 -2.5 -2.5 -2.5 -2.5 -0.9 -2.5 -2.5 -2.1 -0.3 0.7 1.9 7.3 30.4 38.5 61.1 66 68.8 66.4 63.2 60.6 63.3 62.1 61.8 59.5 59 56 58.8 65.2 69 71.3 73.5 76.4 77.7 78.9 81.5 79.8 75.3 72.8 84.4 89.4 90.7 92 96.1 98.6 98.3 101.4 102.6 101.4
148.7 136.2 115.6 130.2 138.3 143.9 148.7 153.5 157.4 160.5 163.3 164.9 169.1 174.2 177.7 179.8 180.2 179.9 180.4 182.7 185.6 188.8 189.6 192 192.8 192.4 190.5 187.5 185.8 183.6 182.4 180.3 178.8 176.4 172.9 166.7 152.2 132.9 107.5 78.6 72.6 94.8 115.6 129.2 131.2 122 105.7 99.4 87.9 75.9 67.5 54 34.3 11.1 1.8 0.5 -0.6 -2.5 -2.5 -2.5 -2.5 -2.5 -2.5 -2.5 -2.5 -2.5 -2.5 -2.5 -2.5 -2.5 -2.5 -2.5 -2.5 -2.5 -2.5 -2.5 -2.5 -2.5 -2.5 -2.5 -2.5 -2.5 -2.5 -2.5 -2.5 -2.5 -2.5 -2.5 -2.5 -2.5 -2.5 -2.5 -2.5 -2.5 -2.5 -2.5 -2.5 -2.5 -2.5 -2.5 -2.5 -2.5 -2.5 -2.5 -2.5 -2.5 -2.5 -2.5 -2.5 -2.5 -2.5 -2.5 -2.5 -2.5 -2.5 -2.5 -2.5 -2.5 -2.5 -2.5 -2.5 -2.5 -2.5 -2.5 -2.5 -2.5 -2.5 -2.5 -2.5 -2.5 -2.5 -2.5 -2.5 -2.5 -2.5 -2.5 -2.5 -2.5 -2.5 -2.5 -2.5 -2.5 -2.5 -2.5 -2.5 -2.5 -2.5 -2.5 -2.5 -2.5 -2.5 -2.5 -1.1 -0.3 0.2 0.9 1.3 1.4 1.1 1.3 2.1 2.9 13.2 25.1 43.7 59.3 74.1 80.9 83.5 83.3 81.2 80.1 79.1 78.8 76.5 74 73.3 72.3 76.2 80.1 84.6 87.4 89.9 91.8 93.3 95 97 95.7 91.9 81.7 91.4 98.5 101.4 103.6 107.2 108 108 109 108.8 107.7
156.3 145.1 122.5 131.4 143.7 150.2 155 159.6 162 164.5 166 166.8 170.4 175.1 179.8 182.2 183 183.6 184.1 186 188.6 191.4 192.3 194.4 194.8 194.8 192.9 189.4 187.7 185.8 183.6 182.3 179.2 175.1 169.5 154.3 132.2 109.9 84.8 72.9 87.3 108.2 130.6 150.7 155.2 155.3 143.4 131.5 117.3 107.6 99.4 91.2 71.4 48.7 25.2 5.9 2.3 1.6 -0.1 -2.5 -2.5 -2.5 -2.5 -2.5 -2.5 -2.5 -2.5 -2.5 -2.5 -2.5 -2.5 -2.5 -2.5 -2.5 -2.5 -2.5 -2.5 -2.5 -2.5 -2.5 -2.5 -2.5 -2.5 -2.5 -2.5 -2.5 -2.5 -2.5 -2.5 -2.5 -2.5 -2.5 -2.5 -2.5 -2.5 -2.5 -2.5 -2.5 -2.5 -2.5 -2.5 -2.5 -2.5 -2.5 -2.5 -2.5 -2.5 -2.5 -2.5 -2.5 -2.5 -2.5 -2.5 -2.5 -2.5 -2.5 -2.5 -2.5 -2.5 -2.5 -2.5 -2.5 -2.5 -2.5 -2.5 -2.5 -2.5 -2.5 -2.5 -2.5 -2.5 -2.5 -2.5 -2.5 -2.5 -2.5 -2.5 -2.5 -2.5 -2.5 -2.5 -2.5 -2.5 -2.5 -2.5 -2.5 -2.5 -2.5 -2.5 -2.5 -2.5 -0.9 0.7 1.8 2.6 10.2 18.5 16.7 21.2 20.7 22.2 26.2 39.1 35 44 57.8 77.5 93.8 97.9 97.4 95.6 94.1 92.3 91.5 90.4 87.9 87.5 85.4 88.4 92.8 96.9 100.1 102.5 104.2 105.7 106.8 107.8 108.1 106.5 89.8 100.7 110.1 113.6 115.4 116.8 118.4 118.5 117.1 116.1 113.7
160.4 151.1 130.6 132.2 146.2 154.2 159.8 162.6 165.2 167 168.2 170.2 172.8 176.9 181 183.8 185.7 187 187.3 188.7 191.2 193.2 195.3 196.1 196.8 195.8 193.9 191 186.7 183.4 182.1 180.1 176.6 171.6 163.5 136.9 112 93.2 93.5 88.4 105.8 125.9 144.1 166 170.6 171.9 171.3 161.1 147.2 139.1 128.3 124.6 100.4 77.5 66.5 56.8 40.3 19.8 2.5 0.9 -2.5 -2.5 -2.5 -2.5 -2.5 -2.5 -2.5 -2.5 -2.5 -2.5 -2.5 -2.5 -2.5 -2.5 -2.5 -2.5 -2.5 -2.5 -2.5 -2.5 -2.5 -2.5 -2.5 -2.5 -2.5 -2.5 -2.5 -2.5 -2.5 -2.5 -2.5 -2.5 -2.5 -2.5 -2.5 -2.5 -2.5 -2.5 -2.5 -2.5 -2.5 -2.5 -2.5 -2.5 -2.5 -2.5 -2.5 -2.5 -2.5 -2.5 -2.5 -2.5 -2.5 -2.5 -2.5 -2.5 -2.5 -2.5 -2.5 -2.5 -2.5 -2.5 -2.5 -2.5 -2.5 -2.5 -2.5 -2.5 -2.5 -2.5 -2.5 -2.5 -2.5 -2.5 -2.5 -2.5 -2.5 -2.5 -2.5 -2.5 -2.5 -2.5 -2.5 -2.5 -2.5 -2.5 -2.5 -2.5 -2.5 -2.5 -0.9 0.2 1.9 16.6 37.6 56.6 65.8 55.3 60.3 52 49.7 51 44.2 41.1 45.9 56.3 74.9 95.5 107.8 108.9 107.9 107.3 104.6 104 103.8 101.7 100.4 97.1 100.2 104.5 108 111.4 113.6 114.5 116 117.5 118 117.4 108.6 99.2 113.7 119.6 122.5 123.4 124.7 124.7 125 123.2 119.5 117.8
161 152.9 132.7 132.4 140.5 151.4 157.7 162.2 164.1 164.9 166.9 170.2 173.7 177.2 181.4 184.5 186.7 187.9 189.8 191.5 193.2 195.3 196.8 198 197 195.2 192.8 188 182.4 179.3 177.4 175.2 170.1 164.9 145.5 124.5 105.2 115.1 118.1 107.4 118.8 139.9 160.2 172.8 178.2 180.7 182.6 182 176.2 169.5 164.4 152.5 136.6 104.9 96.4 87.8 75 59.4 43.4 11.9 1.9 0.2 -2.5 -2.5 -2.5 -2.5 -2.5 -2.5 -2.5 -2.5 -2.5 -2.5 -2.5 -2.5 -2.5 -2.5 -2.5 -2.5 -2.5 -2.5 -2.5 -2.5 -2.5 -2.5 -2.5 -2.5 -2.5 -2.5 -2.5 -2.5 -2.5 -2.5 -2.5 -2.5 -2.5 -2.5 -2.5 -2.5 -2.5 -2.5 -2.5 -2.5 -2.5 -2.5 -2.5 -2.5 -2.5 -2.5 -2.5 -2.5 -2.5 -2.5 -2.5 -2.5 -2.5 -2.5 -2.5 -2.5 -2.5 -2.5 -2.5 -2.5 -2.5 -2.5 -2.5 -2.5 -2.5 -2.5 -2.5 -2.5 -2.5 -2.5 -2.5 -2.5 -2.5 -2.5 -2.5 -2.5 -2.5 -2.5 -2.5 -2.5 -2.5 -2.5 -2.5 -2.5 -2.5 -0.9 0 0.7 1.5 2.5 23.2 39.6 56.6 82.1 96.2 93.6 97.9 89.1 74 70.6 61.3 51.6 47.5 54.9 71.3 91.4 112.5 118.8 119.5 118.9 117.1 116.9 117 115.1 113.4 109.9 109.7 113.3 118.6 122.5 124.6 125.2 124.7 125.4 125.2 122.7 108.2 115.4 124.4 128.2 130.8 131.3 130.8 128.9 128 125.9 121.3 117.2
157.9 149.4 127.8 140.5 142.8 142.2 151.8 157.4 159.7 161.6 163.7 166.5 170.3 176.1 180.3 182.8 185.2 187.5 190.4 193 194.8 196.8 198 197.1 195.2 191.7 187.9 183.1 178.2 173.7 170.4 168 160.6 142.5 127.3 113.2 129.2 144.1 144.7 135.2 127.7 144.9 164.3 174.9 181.5 186.1 189.2 190.2 187.6 183.8 180.2 174.2 161.2 147.5 133 123.1 109.8 88.1 72.7 62.1 55.5 2.3 0.7 -2.5 -2.5 -2.5 -2.5 -2.5 -2.5 -2.5 -2.5 -2.5 -2.5 -2.5 -2.5 -2.5 -2.5 -2.5 -2.5 -2.5 -2.5 -2.5 -2.5 -2.5 -2.5 -2.5 -2.5 -2.5 -2.5 -2.5 -2.5 -2.5 -2.5 -2.5 -2.5 -2.5 -2.5 -2.5 -2.5 -2.5 -2.5 -2.5 -2.5 -2.5 -2.5 -2.5 -2.5 -2.5 -2.5 -2.5 -2.5 -2.5 -2.5 -2.5 -2.5 -2.5 -2.5 -2.5 -2.5 -2.5 -2.5 -2.5 -2.5 -2.5 -2.5 -2.5 -2.5 -2.5 -2.5 -2.5 -2.5 -2.5 -2.5 -2.5 -2.5 -2.5 -2.5 -2.5 -2.5 -2.5 -2.5 -2.5 -2.5 -2.5 -0.5 0.1 0.6 1.3 2.1 2.8 18.8 26.3 36.3 50.2 61.6 75.6 98 106 104.1 98.7 96.3 90.1 80.8 70.7 60.6 54.4 68.6 90.6 114.1 126.2 129.6 130.4 129.5 129.9 130 128.6 126.7 121.6 117.2 123.4 128.5 130.3 132.3 132.7 131.6 129.5 126.7 125.1 123.6 128.5 131.8 135 136.4 136 134.7 133 130.7 127.1 117 111.1
150.8 140.6 144.1 147.3 149.2 149 146.1 149.3 152 154.8 158.3 160.9 165.6 170.1 174.3 178.2 182.1 186 190.1 193.8 195.9 196.8 197.3 195.9 193.1 188.6 183 177.4 171.3 166.3 161.7 158.6 144.8 129 139.1 142.3 151.5 162.6 164.2 159.3 144 146.3 162 174.2 182.4 187.5 191.4 193.7 194.7 193.5 190.5 184.6 173.3 166.4 163.7 155.5 140.3 131.2 118.3 104.4 86 29.7 2.9 1.8 0.3 -2.5 -2.5 -2.5 -2.5 -2.5 -2.5 -2.5 -2.5 -2.5 -2.5 -2.5 -2.5 -2.5 -2.5 -2.5 -2.5 -2.5 -2.5 -2.5 -2.5 -2.5 -2.5 -2.5 -2.5 -2.5 -2.5 -2.5 -2.5 -2.5 -2.5 -2.5 -2.5 -2.5 -2.5 -2.5 -2.5 -2.5 -2.5 -2.5 -2.5 -2.5 -2.5 -2.5 -2.5 -2.5 -2.5 -2.5 -2.5 -2.5 -2.5 -2.5 -2.5 -2.5 -2.5 -2.5 -2.5 -2.5 -2.5 -2.5 -2.5 -2.5 -2.5 -2.5 -2.5 -2.5 -2.5 -2.5 -2.5 -2.5 -2.5 -2.5 -2.5 -2.5 -2.5 -2.5 -0.9 0 0.5 1.3 2 2.7 3 13 26.7 38.4 50.1 61.9 63.2 68.8 80.2 97.7 112.8 123.2 118.9 114.6 112.1 108.1 96.2 85.9 77.5 63.1 67.5 87.5 112.3 131.6 138.7 140.5 141.8 142.4 142.3 141.3 138.7 133 123.6 128.4 134.7 136.9 137.4 137.1 135.7 132.9 127.8 130.9 132.8 135.2 137.4 138.3 138.9 138.5 137 135 132.5 126.7 119 122.4
152.5 152.9 147.4 148.7 152.6 154.8 153 149.9 150.2 153.9 154.6 156.6 162 168.2 174.6 180.5 184.6 187.6 190.5 194.1 195.8 196.5 197.4 195.7 191.5 186.2 179.9 173.9 168.1 162.4 152.4 144.5 134.4 149.2 161 161.7 165.8 169.1 170.1 167.8 156.8 149.5 161 175.9 183.8 189.8 194.7 197.9 200 199.8 197.7 194.4 185.4 178.1 175.9 172.7 165.8 158.1 142.5 111 91.4 63.9 53.1 51.5 2.8 1.3 -0.3 -2.5 -2.5 -2.5 -2.5 -2.5 -2.5 -2.5 -2.5 -2.5 -2.5 -2.5 -2.5 -2.5 -2.5 -2.5 -2.5 -2.5 -2.5 -2.5 -2.5 -2.5 -2.5 -2.5 -2.5 -2.5 -2.5 -2.5 -2.5 -2.5 -2.5 -2.5 -2.5 -2.5 -2.5 -2.5 -2.5 -2.5 -2.5 -2.5 -2.5 -2.5 -2.5 -2.5 -2.5 -2.5 -2.5 -2.5 -2.5 -2.5 -2.5 -2.5 -2.5 -2.5 -2.5 -2.5 -2.5 -2.5 -2.5 -2.5 -2.5 -0.9 -0.3 0.3 0.3 0.2 -0.1 -0.6 -2.5 -0.3 0.2 0.3 0.5 1.2 2.1 3.8 23 32.5 41.1 48.5 54.2 55 63.4 71.2 81.5 91.3 100.4 106.2 116.2 124.5 131.2 128.4 126.4 123.9 121.7 118.2 109.5 100.9 90.6 70.2 67.8 87.3 109.2 130.8 142.1 146.8 148.6 149.1 148.6 147.8 146 140.5 134 133.3 138.2 141.1 141.9 141.1 139.2 136.7 133.8 135.6 137.6 139.3 141.1 141 141.9 141.3 139.5 137.5 132.7 124.6 127.7 128.7
162.7 160.5 155.5 149.6 154.5 159.2 159.5 159.9 162.3 162.8 161.3 161.9 166.4 171.5 177.1 183.3 187.7 191.2 193.5 196.4 197.6 198.5 198.9 197.2 193.3 189.4 184.6 179.7 175.6 171.5 165.4 152.6 147.1 158.8 169.7 172.1 174.3 175.6 176.7 175.1 171.2 158 167 181 189.3 194.9 199.1 202.3 203.6 203.9 202.3 199.6 196.8 192.3 186.8 178 175.6 168.1 154.4 133.1 112.9 96.4 78.9 61.5 56.8 26.5 2.5 1.3 0.2 -0.6 -0.8 -0.5 -0.5 -0.6 -0.1 -0.7 -2.5 -2.5 -2.5 -2.5 -2.5 -2.5 -2.5 -2.5 -2.5 -2.5 -2.5 -2.5 -2.5 -2.5 -2.5 -2.5 -2.5 -2.5 -2.5 -2.5 -2.5 -2.5 -2.5 -2.5 -2.5 -2.5 -2.5 -2.5 -2.5 -2.5 -2.5 -2.5 -2.5 -2.5 -2.5 -2.5 -2.5 -2.5 -2.5 -2.5 -2.5 -2.5 -2.5 -2.5 -2.5 -2.5 -2.5 -2.5 -2.5 0 0.9 1.7 2.4 12.8 15.3 2.9 2.7 2.5 2.5 2.8 3 6.1 10.3 21.2 38.1 50.4 56.4 64.3 72.4 78.8 84.9 85.8 87.8 106.1 115 121.8 129.8 135.5 141.1 142.7 146.1 143.9 138.9 137.8 132.9 128.6 121.8 111.2 94.6 77.3 70.3 88.8 108.9 126.7 141.1 150.7 154 154.1 151.8 151.8 151.3 148.3 143.2 139 143.1 144.7 144.8 144.3 142.7 141.2 140.1 140.3 142.3 143.9 145.1 145.1 145.1 143.8 142 139.3 135 127.3 133.3 133.5
169.2 168.7 164.7 158.4 158.8 164.3 167.1 168.4 170.9 171 169.7 169.3 169.5 173.9 178.5 184 188.7 192.9 195.6 198 199.8 201.4 201.7 200.3 198.4 195 190.1 185.9 181.7 178.8 175.6 156.8 155.9 171.4 182.4 184.6 184.8 185.4 185.2 184.8 182.9 168.9 173.2 187.1 193.8 197.7 202 205.4 207.2 207.2 206.5 204.1 201.6 197.4 194.6 190.2 187.4 186.9 174.2 153.4 135 116.6 98.1 79.9 67.7 88.8 66.4 12.4 3.9 2.4 2.1 2.2 2.2 2.1 2.5 2.1 1.6 0.9 0.2 0.4 0.2 0.7 1.8 2 2.1 1.9 1.8 1.6 1.3 0.9 1 1.1 1.1 1 0.8 0.5 -0.3 -2.5 -0.6 -0.9 -2.5 -2.5 -2.5 -2.5 -2.5 -2.5 -2.5 -2.5 -2.5 -2.5 -2.5 -2.5 -2.5 -2.5 -2.5 -2.5 -2.5 -2.5 -2.5 -2.5 -2.5 -2.5 -2.5 0.5 2 3.8 14.6 33.7 41.5 52.3 57.4 58.2 48.4 34.6 32.2 32 30.6 36.2 40 48.4 57.2 72.8 77.9 86.2 94 98.3 105.4 113.3 117.8 127.6 139.9 145.2 150.2 152 153 152.6 153 152.1 148 145.4 141.8 136.7 130.6 117.3 98.7 81.2 69.6 90.7 108.4 124.1 135.9 146 151.1 154.2 155 154.9 154.5 151.8 148.2 143.6 147.6 149 148.7 148 147.2 146.5 146.6 146.2 147.6 148.4 149.5 149.7 148.2 146.1 143 140.4 135.8 132.5 137.1 138.3
173 173.5 171.7 168.4 165.5 169.2 173.6 174 177.9 178.1 178.2 178.1 175.8 177.6 181.5 186.7 190.8 194.4 197.6 200.1 202.1 203.8 203.6 202.1 200 197 194.4 190.3 187.2 183.5 176.5 155.3 166.6 180.2 186 189.7 191.3 192.1 192 192.3 190.3 178.6 178.4 189.9 196.3 200.6 204.3 207 209.2 209.7 208.9 206.7 204.8 203.3 202.4 197.7 193.3 193.4 191.4 174.4 154.9 136.4 133.1 104.9 79.1 93.7 103.4 57.3 43 44.2 41.9 34.3 40.3 38.2 43.8 41.5 34.7 17.2 7.3 3.5 3.3 11.1 25.7 34.9 34.9 36.6 37.4 29.8 32 25.6 18.8 19.8 12.3 8.4 13.2 7.8 3.7 2.2 1.8 1.2 0.6 -0.1 -2.5 -2.5 -2.5 -2.5 -2.5 -2.5 -2.5 -2.5 -2.5 -2.5 -2.5 -2.5 -2.5 -2.5 -2.5 -2.5 -2.5 -2.5 -0.3 0.8 2 6.7 27.6 40.8 56.9 73.4 78 75.4 75.4 77.2 63.5 58.2 55.6 56 54.9 64.5 67.8 75 77.9 94 100.1 107.7 112.5 118.1 124.2 132.5 140.3 146.6 151.9 157.3 161.4 163.1 161.7 162.1 161 158.7 156.6 153 150.4 145.8 141.3 125.2 104.3 86.7 78.1 83.7 110 121 132.7 141.3 148.2 153.4 155.5 156.1 154.9 152 149.8 148.6 150.9 153 153.1 153 152.7 152.3 152.1 151.7 151.7 153.1 153.4 152.9 150.6 147.4 144.2 141 136.3 138 143.3 145.3
177.6 178.7 177.6 175.4 172.3 174 179.3 180.8 182.1 182.3 182.2 182.6 183.1 184.5 188 190.7 193.7 197.2 200 201.9 204.3 205.6 205.3 203.6 200.6 197.8 194.9 191.3 188.3 182.7 177.4 159.3 178.3 186.4 191 194.9 196.9 197.6 198.1 197.2 195.2 184.4 181.8 191.7 197.6 202 205.1 207.8 209.5 210.2 209.7 208.3 206.4 204.7 202.9 200.5 198.4 198.1 197 192.5 175.2 163 143.4 116.7 86.9 97.7 119.2 98.4 87.9 79.2 78.5 70.2 71.5 73.5 75.1 76.5 72.4 58.3 51.4 51.2 50.3 60.4 65.9 71.4 70.8 67.6 66.3 65.9 59.5 57.3 56.8 55.7 51.5 46.7 51 53.4 44.6 31.5 20.1 7.2 2.8 2.3 1.5 0.5 -0.6 -2.5 -2.5 -2.5 -2.5 -2.5 -2.5 -2.5 -2.5 -2.5 -0.6 -0.2 -0.1 0.2 0.7 1.5 2.7 13.7 32.2 56.1 67.7 74.4 80.3 90 92.5 94.1 91.5 92 84.4 81.5 79 80.1 79.8 90.5 96.6 102.4 104.8 115 122.5 129.1 131.5 137.4 144.4 149.7 157.5 160.1 162.6 166 169.3 170.7 170.2 169.1 167.8 166.6 162.8 159.7 153.4 144.8 136.7 124.3 105.5 93.8 88.3 87.1 114.7 123.7 130.4 139.4 146.3 151.3 156.4 157.8 155.9 153.6 152.6 152.3 153.2 155.4 156.4 156.3 155.9 154.3 153.9 153.1 154.2 154.1 154.1 153 151.4 149.3 146.2 142.8 140.3 145.3 145.8 149.5
182.8 182.2 180.8 179.8 178.2 177.2 181.5 183.3 184.6 185.4 185.8 186.5 187.1 188.7 192.6 193.1 195.9 198.9 202.3 204.8 206.2 207 206.9 204.8 200.7 196.2 190.9 187 183.9 180.9 181 172.1 183.6 189 193.9 198.3 200.7 201.9 201.8 201.5 198.5 190.4 192.2 193.9 196.8 200.7 204.4 207.4 208.9 209.8 209.6 209 207.7 206.1 203.9 201.8 199.4 198.5 198 191.6 169.8 152.8 144 115.3 87 108.2 134.1 133.4 118.8 110.7 110.6 108.7 110.8 111.1 109.4 106.5 106.1 98.6 94.4 96.8 91.8 100.8 93.5 97 96.5 89.5 84.1 81.8 79.3 81.4 80.8 80.1 75.7 74.6 74.3 78.6 71.3 62.2 62.3 50.5 38 24.8 16.1 4.8 2.3 1.5 1.1 0.8 0.3 0 -0.1 -0.1 0.2 0.5 1.4 2.3 3.4 6.5 14.7 27.6 45.3 47.4 64.8 75.8 88.7 94.5 95.3 105 106.9 108.2 109.4 110.6 107.8 105 102.4 103.9 104.9 115.5 124.3 129.4 131.6 135.4 144.6 148.5 149.9 156.1 161.5 165.2 169.5 172.6 175.4 174.9 175.2 174.9 173.3 172.2 170.2 166.9 162.7 157.3 147.8 136.7 131.8 126.3 117.6 109.7 94.2 100.3 121.2 130 132.2 138.5 144.6 149.9 155.2 158.5 157.2 156.9 156 155.6 156.8 158 159.2 158.8 158.1 156.6 155.4 154.5 154.9 154.4 153.6 152.3 151.1 149 146.9 142.6 144.1 147.4 150.8 151.9
186 185.3 183.9 183.1 182.2 181.7 183 184.7 186.3 187.6 189.1 191.6 193.2 193.7 196.3 197.9 199.1 202.3 204.9 207.4 208.9 209.7 208.7 206.9 202.9 199.1 195.3 191.7 188.4 187 188.1 185.5 183.1 188.2 194.3 198.8 202.2 204.2 204 202.3 198.9 194.4 196 198.2 199.4 202.9 205.9 207.9 208.9 209.9 209.4 208.4 207.1 205.4 203.5 201.5 199.6 194.5 193.9 181.6 158.2 130.7 114.2 98.1 94.8 107.2 142.3 156.8 160 144.6 144 148.1 149.8 151.7 157 152.4 142.6 138.8 137.8 139.1 134.7 132.3 123.2 122.5 122.1 115.9 107.9 99.3 103.2 105.5 105 104.3 102.7 102 100.9 102.2 96.2 88.5 89.9 88.9 74.4 60.9 51.8 41.5 30 20.7 16.2 16 6.8 2.7 2.8 2.7 2.8 7 29.7 40.8 48 53.9 58.2 62.5 66.3 69.8 81.3 94 104 110.2 111.8 119 121.4 125.2 132.8 128.9 127.9 128.1 125.7 127.9 129.6 140.2 149.6 152.4 154.3 155.6 156.7 159.4 162.1 165.7 168.1 171.9 175.1 178.2 178.8 178.5 178.1 177.2 175.4 173.1 170.7 168.1 163.2 156.4 154.3 153.1 147.7 141.6 134.9 114.8 98.3 112.7 127.7 135.5 140.4 144.2 145.6 150.5 155.3 157.9 158 158.5 158.8 158.4 159.6 160.9 162 161.6 160.7 158.4 156.7 155.9 155.4 154.8 154.2 153.1 151.9 149.6 147.9 147.1 146.7 148.6 150.1 152
189.1 188.8 187.8 186.6 185.9 185.4 185.3 187.1 188.7 190.2 191.7 193.8 195.1 196.9 198.6 201 204 206.6 208.8 210.5 212.1 212.4 211.8 209 205.4 203.6 200.9 198.2 196.4 195.6 194.3 192.2 190.4 189.1 193.8 197.9 202.2 204 204.4 203.5 200.8 197.8 198 201.1 203.4 205.6 208 208.6 209.1 209.8 209.2 207.6 206.1 203.8 202 200.4 196.9 191.9 184.2 164.8 145.9 114.9 118.5 119.3 123.4 114.5 118.6 143.9 157.4 162 165.3 168.8 171.4 171.2 169.5 167.4 165.6 159.4 157.4 160.5 160 160.8 152 148.1 148 144.4 132.5 110.4 116.5 129.5 129.3 128.6 128.6 128.9 128 127.3 107.6 105.4 109 111 105.6 94.3 84.9 74.4 64.7 55.6 41.2 39.5 33.6 30 31.2 38.7 41.9 52 60.9 66.2 72 78.7 82.9 85.8 88.9 92 99.6 110.5 119.9 125.2 129.7 134.7 136.8 141.2 143.2 142.2 145.1 144.7 145.1 147 148.6 150.3 152.2 154.6 156.7 160.9 164.6 165.3 165.7 167.7 170.4 174.4 177 179 179.6 179.7 179.4 178.7 176.8 174.6 172 169.4 166.2 163.2 160.8 158.6 155.8 152.4 145.5 121.9 103.2 117.1 136 141 144.6 147.9 149.8 152.3 155.8 158.6 160.1 161.2 161.5 161.8 162.7 162.9 164.2 164.4 163.6 162.1 159.9 157.9 157.1 156.6 156.4 155.6 154.2 152.9 152.5 152 151.7 151.1 151.6 151.3
192.1 192 190.9 189.5 188.3 188.3 188.6 189.8 191.2 192.4 193.5 195.1 197.1 199 201.2 203.4 206.2 208.2 210.1 212 213.6 214.4 213.6 211.8 208.2 205.3 205.4 204.2 203.2 202 200.8 199.5 198.2 197.7 199.9 201.4 204 206.2 206.3 206 204.7 203.3 202 204.4 206.5 207.1 208.8 209.2 209.3 208.6 206.8 205.1 203.8 201.6 199 196 192.9 188.6 174.2 154.6 136.8 129.7 145.6 150.1 151.3 144.9 146.7 139.4 149.9 165.1 168.5 171.9 173.9 175.4 175 174.1 172 170.1 167.9 168.5 169.3 169.9 169.5 167.7 165.8 162.9 143.1 119.6 133.8 151.5 152.8 150.4 149.1 147.8 142 135 110.1 115.6 127.9 130.4 133.2 127.9 118.1 107.5 100.3 86.5 68.9 62.9 57.4 52.5 41.2 57.3 71.5 80.7 86.9 91.5 97.1 103.4 107.6 110.2 111.5 113.6 119.8 129.4 136.1 140.2 143.9 146.5 148.7 152.4 155.8 155.3 155.3 155.7 156.1 157 157.3 158.6 161.1 162.9 164 164.4 165.2 166.3 167.7 168.7 171 174.1 176 177.7 178.8 179.7 180.7 180.1 178.2 176.2 173.7 171.2 168 164.8 162.6 160.5 157.4 154.4 149.8 130.5 110.4 119.1 138 145.6 149.1 151.2 153.2 155.3 157.5 159.6 161.1 163.6 165.5 166 166.3 167.5 167.4 166.7 164.5 163.1 161.8 160.2 158.7 158.3 158.2 157.6 156.7 155.8 155.8 155.9 155.5 154.6 153.4 152.1
193.4 192.8 191.5 190.6 189.9 189.6 189.6 190.5 191.5 192.6 194 195.5 197.4 199.2 201.8 203.5 206.6 208.5 210.3 212.1 213.5 214.5 214.4 212.9 212.2 210.1 208.7 207.4 206.4 205.4 204.4 203.8 202.7 202.5 203.4 205.6 205.8 207.8 208.7 208.7 208.2 206.9 206.2 207 208.2 208.9 208.7 208.9 208.1 206.2 203.7 201.4 199.7 197.9 195.3 192.4 189.7 186.7 170.8 156.4 135.6 147.4 169.4 179.9 179.7 173.7 172.8 170 157.7 160.9 165.7 167.9 172.4 176.1 178.6 179.9 178.8 177.6 178.2 180.1 180.5 180 178.4 176.1 170.2 165.9 147.7 126.5 152 162.3 160.9 156.3 153.9 150.4 143 130.7 127 128 138.3 140.9 143 141.1 138.3 135.8 129.7 117.3 99.5 86.3 78.7 65 51.6 47.4 64 82.2 98.1 113.8 121.7 127.3 132.6 133.5 132.3 129.7 132.8 138.3 144.4 147.4 148.9 151.3 156.1 158 160.2 161.8 164.1 163.6 165 166.5 166.5 165.7 166.1 165.6 165.9 165.9 166 166.8 167 167.2 167.4 169.5 171.6 174.1 176.2 178.2 179.4 179.5 179 177.6 175.7 173.1 169.9 167 163.6 160.6 157.4 153.9 149.9 135.8 117.1 119.1 139.4 147.9 150.6 152.3 154.4 156.4 158.3 159.6 161 162.3 163.4 165.1 166.5 167.8 168.5 167.5 165.2 163.9 162.3 160.6 159 158.4 157.2 156.2 155.3 155.4 155.6 155.6 155 154.4 152.8 151.1
192.7 191.1 189.5 188.8 188.4 188.7 189.6 190.6 191.4 192.2 193.7 195 196.7 198.6 200.9 204 206.7 208.1 210 211.4 212.1 213.2 214.1 213.5 213.1 211.4 210.2 209.1 208 207.1 206.8 206.1 205.6 205.8 206.8 208.4 209.3 209.9 210.2 210.8 210.7 209.8 209.1 209.7 210.2 209.6 209.7 209.3 208.4 206.4 203.3 200.7 198.2 196.2 191.3 187.6 182.3 173.5 164.4 157.2 143.5 161.6 177.4 187.1 188.7 187.9 186.3 183.9 180.7 179.8 177.7 174.4 174.9 178.7 182.1 184.2 185.3 184.7 185.8 186.6 186.8 184.6 181.4 177.2 169.1 162.3 151.7 151.5 163.3 167.5 166.4 162.8 158.5 153.6 149.4 145.3 145.1 144.5 146.3 148.7 149.7 149.2 147.9 145.7 141.7 136.7 122.3 109.8 98.4 86.6 70.7 54.1 54.1 70.1 84.9 100.7 116.7 137.8 143.1 143 140.8 138.8 141.5 145.6 148.6 149.7 151.1 151.8 155.2 158.3 161.1 163.2 164.2 165.9 167.1 169.5 170.3 171.2 171.5 171.1 170.1 169 167.1 165.6 164.2 163.2 162.3 163.8 166.1 169.2 173.2 175.5 177.6 178.6 179 178.4 177.3 175 172 168.4 165 161.6 155.6 152.2 142.3 131.2 126.9 118.9 133.1 148.1 151.2 152.8 154.2 155.7 157.6 158.8 159.7 160.6 161.7 162.9 164.1 165.2 166.3 166.6 165.5 163.8 162.3 160.7 159.1 157.6 156.1 154.4 153.7 153 152.5 152.9 152.3 151.7 150 147.8
188.8 188.1 187 186.7 186.5 187.4 188.5 189.9 190.8 191.8 193.3 194.7 196.2 198.2 200.7 203.5 205.3 207.4 208.6 210.1 211.4 212 213.1 212.9 211.9 210.5 210.2 209.3 208 207.8 207.7 207.4 207.7 207.8 208.6 209.6 209.5 210.7 211 212 212.3 211.7 211.1 211.5 211.6 211 210.2 209.8 209.5 208.1 205.9 203.9 202.7 200.3 195.8 191.4 190.4 188 180.9 171.4 162.9 155.1 172 186.4 190 191.4 190.8 190 188.2 186.2 184.2 179 179.3 180.4 183.8 187.7 189.5 190.7 191.1 191.4 191.1 189.5 186.6 180.4 174.5 172.6 172.2 171.2 173.4 174.3 170.9 167.1 163.6 159.1 158.2 155.7 155.5 156.3 158.7 158.7 158.4 158.4 157.8 156.4 154.4 150.4 144.5 134.8 122.3 106.9 92.8 77.3 56.9 57.3 71.8 88.8 106.1 120.4 135.5 137.7 138.7 139.5 143.1 146.1 148 148.3 146.6 145.8 149 153.6 158.3 161.9 163.8 165.6 167.8 170.2 171.5 171.4 171.4 170.8 169.6 168 165.7 163.2 161.2 158.8 158.2 159.2 161.7 164.8 168.6 171.8 174 175.9 177 177.1 176.9 176.6 173.8 172.5 169.1 165.9 161.5 156.9 149.8 148.1 145.7 129.6 138.7 146.2 150.7 152.3 153.7 155 156 156.7 157.2 157.9 158.9 159.8 161.3 162.5 163.5 164 163.4 162.6 161.5 159.9 158.3 156.7 155.1 153.3 151 149.4 149.1 149.2 149.6 149 147.3 145.3
184.6 184 183.9 184.2 185.4 186.9 188 189.2 190 191.4 192.3 194.2 196.3 197.9 200.4 202.3 204.8 207.7 209.1 210.2 211.3 211.2 211.2 211.2 210 210 208.9 207.8 207.5 207.1 207.1 207.7 208.3 208.7 209.2 209.8 210.6 211.2 212.2 213.3 213.5 213.1 212.9 213.2 212.7 212.3 211.5 211 210.5 209.7 208.5 206.8 205.6 203 200.9 199.8 199.2 197.3 193.9 188.9 181.6 174.6 177.9 190.1 191.5 192.9 192.4 191.6 190.7 190.1 188.1 185.7 183.9 183.1 185.6 188.9 191.6 192.7 193.7 194.5 195 193.9 192.1 188 182.1 183.4 182.9 182.3 181.4 180.1 177 173.5 170.3 169.7 168.6 168.4 167.4 166.8 167 166 166 166.1 165.7 164.8 162.7 159.7 154.9 152.4 145.4 131.9 117.6 99.5 82 67.2 57.6 71.9 84.4 99.6 114.9 123.4 126.3 131.9 140.2 144.6 141.6 136.3 133.3 136.8 151.3 154.5 156.6 160.7 163.9 166.7 168.7 170.9 172.1 172 172 171.6 170.4 169.5 167.1 164.6 160.8 157.8 155.3 154.7 155.9 158.8 162.4 166.3 169.1 172.1 175.9 177.2 177.3 177.5 176.1 174.9 171.5 168.1 164 159.5 155.4 153.5 151.4 145.3 135.3 146.6 150.5 150.6 151.3 152.3 153.2 153.5 153.2 153.8 155 156 157.1 158.3 159.5 160.4 160.6 160.1 159 158.2 157.1 155.5 153.5 151.5 148.7 146.7 146.7 146.4 146.5 145.5 144.2 142.5
180.4 181.1 181.4 182 183.6 185.3 186.5 187.5 188.9 189.7 190.9 193 195.2 197.4 199.9 202.4 205.2 208 209.2 210 210.4 210 209.6 209.9 209.5 208.2 207.7 207.4 206.6 206.3 207.4 208 208.8 209.4 209.8 210.1 211.2 212.3 213.3 214 214.2 214.5 214.4 213.9 213.3 213.1 212.8 212.2 211.5 210.6 209.1 209 206.9 205.7 204.3 203.2 202.3 201.1 199.1 196.1 182.6 187.9 189.4 192.4 194.3 193.9 193.3 192.8 192.1 191.8 190.8 190.6 188.9 188.8 189.9 191.2 193.3 194.2 195.2 196.2 196.5 196.2 194.3 191.6 188.7 188.7 188.2 187.1 184.8 182.8 180.7 178.2 176.4 175.1 174.5 172.5 171.2 170.9 171.8 172.1 172.5 171.8 171 170.8 169.4 168.3 166.3 165.3 162.8 157.1 141.6 123.6 110 94.6 77.1 63.3 66.2 84.3 94.4 101.3 110.5 120.4 120.1 119.5 119 114.5 131.4 149.9 155.1 157.9 160.3 162.9 165.2 167.5 169.8 172.3 172.8 172.9 173.3 173.2 172.1 171.4 169.2 166.5 163 159.4 155.3 152.8 151.8 152.9 157.2 160.7 164.9 169.6 173.5 176.4 178.2 178.2 178.1 177 174.9 172.7 170.6 165.8 162.8 158.5 155.4 148.5 145.9 151 151.7 150.9 150.3 149.9 150.2 150.8 150.7 150.4 150.4 151.2 151.6 152.3 153.9 155.5 156.2 157.3 157.1 156.3 155.8 154.1 151.9 149.7 146.3 144 143.4 143.5 143.1 142.2 140.9 138.2
176.1 177.7 178.9 179.9 181.5 183.2 183.8 185.1 186.7 188.3 189.6 191.8 194.4 196.6 198.9 202 204.7 206.9 208.5 208.8 208.9 208.4 208.6 208.2 207.2 206.8 206 204.4 204.5 204.6 206.2 207.1 208.5 209.4 210.1 210.5 211.3 212.1 213.2 214 214.7 214.7 214.5 214.1 213.4 213 212.7 212.3 211.1 209.6 209.1 207.3 206.2 204.9 204.1 203.2 201.9 199.9 197.2 186.5 193.5 196.3 196.6 196.1 195.2 194.7 193.9 194 193.4 192.7 192 191.8 191.1 190.7 192.1 193.7 194.8 195.7 196.5 197.4 198 197.8 197 195.3 193.5 192.1 191 188.9 186.9 185 183.3 182 179.8 178.9 178.2 176.9 176.1 175.2 175.6 175.1 176.2 176.4 175.9 175.4 173.4 171.7 170.6 169.6 167.3 163.5 158.7 148.4 126.9 111.4 90.9 67.9 69.2 73.3 79.2 80.9 88.7 95.5 99.7 98.3 101.9 123.4 143.1 151.8 156.4 159 162.1 163.3 164.5 166.3 169.2 171 171.7 172.8 174.6 175 174.4 173 170.9 168.2 165 161.5 156.6 152.3 150.8 150.1 154.1 158.3 162 165.8 169.5 171.6 174.2 175.4 177 177.5 176.7 175.6 173.5 171.1 168.3 164.4 160.2 155.2 152.8 153.5 153 151.6 150.5 149.4 148.4 148 147 146.2 146.1 145.7 145.9 146.3 147.6 149.6 151.3 152.8 154.9 154.4 154.5 152.6 151.4 149.1 145.6 142.2 139.4 140 139.9 139.5 137.9 136.5
174.5 175.1 176.8 177.9 179.7 180.9 182.5 183.6 185.7 187.2 189.2 191.6 193.7 196 198.1 200.7 203.1 204.8 206.6 206.8 206.8 206.8 206.5 205.5 204.4 203.7 203.1 202.4 203.1 203.4 204.4 204.6 206.3 207 208.8 211 211.3 212 213 213.6 214.1 214.6 214.2 214.2 213.5 212.9 212.5 211.3 209.5 208.3 205.6 205.5 203.5 201.8 200.8 200.1 197.5 193.7 193.9 193.3 197.9 199 198.5 197.6 196.6 195.5 194.7 194.2 193.2 192.4 191.8 191.8 191.5 191.9 192.6 194 195.3 196.5 197.3 197.9 198.4 198.9 198 197.2 195.5 194 191.9 190.6 188.7 186.3 184.4 183.4 182 180.9 179.8 178.4 177.8 176.7 176.6 175.8 176.2 176.6 176.3 175.2 173.5 171.9 170.2 168.9 165.2 159.2 152.8 140.1 128.6 114.4 96.1 72.3 77.5 81 93.3 105 115.3 117.6 121.1 116.2 101 126.3 148.2 152.5 154.7 156.7 158.7 159.4 160.6 162.8 163.9 165.9 167.6 169.4 171.1 173.1 172.5 171.7 169.3 167.9 165.6 163.2 159.3 153 148.8 147 151.3 156.6 159.7 162.4 165.4 168 169.9 171.8 173.6 175.1 175.2 174.2 172.9 171.5 169.4 166.7 163.3 159.7 158.1 156.7 154.2 152.7 150.8 149.6 147.4 145.9 144.1 143.2 142.2 141.5 141.3 141.1 141 141.2 142.4 146.6 149.9 152.4 153.1 152.1 150.9 148.7 145.9 142.1 138.4 136 137.2 136.2 135.4 134.6
176.2 176.2 175.8 177.2 178.4 180.3 182.6 184.9 186.7 188.6 190.5 193.3 194.6 195.5 198 200.6 202.3 203.8 205.6 205.5 205.3 204.6 204.2 202.8 202.1 201.6 200.9 200.1 200.4 201.4 201.5 202.7 204.9 206.9 209.4 211.6 212.2 212.4 212.8 213.1 213.7 214.2 213.7 214.3 214.2 212.9 211.8 210.7 209.9 209.3 207.3 207.3 207.1 205.7 202.1 198.8 199.1 199.4 200.8 200.6 200.5 200.3 199.1 198.1 196.9 195.5 194.5 194.3 192.9 192.1 191.6 191.4 191.2 191.5 193.2 194 194.9 196.2 197.7 198.2 198.9 198.9 198.6 198.2 196.3 194.3 191.9 190.6 189.2 187.5 185.5 184.3 182.4 181 179.9 178.1 175.7 175.3 175 174 173.5 173.7 173.3 169.6 169.6 159.6 156 147 135 134.2 122.8 114 109.8 96.5 77.9 92.8 99.5 86.9 109.7 119 129.8 136.1 138.1 138.3 120 116.5 134 137.8 146.5 151 153.5 154.5 156.3 156 157.4 158.3 160.5 162.3 164.7 167.2 167.3 166.8 166.1 164.6 162.8 160.7 157.7 153.5 146.4 144.4 148.8 154.2 157.2 159.8 161.9 164.5 166.9 169.6 171.4 173 173.6 173.3 172.5 171.2 169.4 166.6 164.1 162.5 161.8 159.2 156.3 154 151.8 149.4 147.6 145.7 143.9 142.7 140.5 137.5 136.4 136.1 135.6 135.3 135.5 138.7 144.6 148.3 150.6 150.9 149.8 148 145.5 141.6 137.8 134.2 134.1 133.7 132.9 132.2
179 178.8 179 179.2 180.3 181.4 183.6 185.5 187.8 190.3 192.6 195.1 196.2 196.8 198.2 200.4 201.8 203.1 204.7 204.4 203.3 202.5 201.8 200.6 199.9 199 198.3 197.8 198.6 198.9 200.1 202.9 205.5 208 210.1 212.3 213.2 213.7 214 214.3 214.6 214.7 214.5 214.7 214.9 214.7 214.2 212.9 212.2 211.5 210.7 210 209.5 208.4 206.4 205.6 204.9 204.2 203.9 203 202.1 200.9 199.6 198.5 197 195.6 194.2 193.3 192.6 192.3 191.4 191.1 190.9 191.2 192 193.3 194.7 195.8 197 197.6 198.1 198.5 198.7 197.9 196 194.5 192.8 190 188.2 186.3 184.1 182.5 181.4 179.6 178.4 175 166.2 158.4 159.3 158.9 157.8 156.9 151.9 142.6 141.4 131.1 127.1 116 110.9 107.7 97.6 92.5 89.7 88.2 97.3 110.5 107.6 96.6 123.9 129 136 143.8 145.4 144.1 134.6 116 117.4 115.3 132.5 146.4 148.3 150 151.5 152.7 153.3 153.5 154.1 155.2 157 158 158.4 158.6 159.2 158.6 157.2 155.8 153.2 150.4 145 140.5 146.7 151.4 152.7 155.3 156.9 159.5 162.4 165.7 169.5 171.4 172.7 172.7 172.4 171.6 170 167.9 165.9 164.2 162.1 160.3 159 155.8 153.2 150.6 148.8 147.1 146.1 145.1 143.5 142 138.6 134.7 131.9 130.1 130.4 132.7 139.3 144.1 147.5 148.9 148.4 146.8 144.3 140.8 137.7 132.8 129.8 130 129.3 129.2
182.5 182.5 182.1 182.2 182.9 184.1 186.3 188.7 190 192.8 194.9 196.2 197.4 197.9 198.8 200.6 201.8 203 203.9 203.6 202.9 201.6 200.3 199.3 198.3 197.4 196.4 195.8 196.8 197.4 199.9 203 205.8 208.5 210.8 212.6 213.5 214.7 214.9 215 215.1 215.2 215.5 215.7 215.9 216.1 215.3 214.6 214.1 213.5 212.7 211.7 211.1 209.4 207.7 207.4 206.1 205.5 205.1 204.3 202.9 201.6 200.2 198.9 197.2 195.7 194.3 193.2 192.3 191.2 192.2 190.7 190.7 190.1 190.9 191.9 193.3 194.8 195.2 196.2 197 197.3 197.4 196.5 194.5 193.6 190.8 187.8 186.1 184.2 181.8 181.1 180.4 179 180.7 179.2 177.2 173.8 170.4 165 150.7 140 137.1 136 140.9 140.2 132.1 126.6 124.1 119.5 103.7 103.7 109.4 109.3 118.5 127.6 111.2 108.6 136.5 143.5 145.9 148.4 147.9 143.3 131.3 140.6 140 134.1 124.7 139.6 144.5 146.8 148.9 150.4 151.3 151.9 151.1 150.7 150.6 150 149.1 148.9 148.6 148.8 150.3 150.1 148.4 145.1 141.1 139.2 142.3 146.3 148.2 148.5 149.4 151.1 156.4 162 167.4 170.7 172.1 173 173.2 172.8 171.5 169.8 168.2 166.9 165.1 162.7 160.5 157.4 154.7 152 149.8 148.3 147.5 147.7 146.7 145.8 144.6 141.9 138.3 133.8 127.6 125.2 133.1 139.7 143.7 145.7 146 144.4 142.1 139.6 136.4 132 126.7 125.3 122.2 122.1
187.4 186.6 186.3 186.3 185.9 187.6 190.4 192.5 193 194.1 195.7 196.8 197.4 198.6 199.5 200.8 201.8 202.6 203 202.8 202.4 201.2 200.1 198.7 197.4 196.4 195.5 194.4 195 196.7 199.6 202.6 205.5 208.5 210.7 212.2 212.9 214.2 214.6 214.7 214.9 215.2 215.5 215.9 216.3 216.4 216.3 215.6 214.8 214 212.9 212.1 211.4 211.5 210 209.1 207.2 206.7 205.8 204.9 203.4 202.2 200.7 199.1 197.1 195.7 194.3 193 191.8 192.1 190.8 190.8 190.2 189.3 189.7 190.7 192 193.1 194.2 194.7 195.6 196.1 195.9 195.5 194 192.8 191.3 189.5 188.6 186.9 184.1 182.2 182.5 184.1 184.4 183.6 182 180 177.3 172.9 167.4 160.2 157.7 159.2 166.7 165.4 159.3 157.6 153.1 140.4 108.5 117.6 134.9 135.2 139.9 132.4 112.2 119.7 146 152.8 154.2 152.4 149.4 145.9 144.7 145.5 143.1 136.9 135 140.6 143.7 146.7 149.3 151 152.1 151.8 151.5 150.8 150.1 149.1 148.1 146.1 144.7 143.9 143.9 144 143.2 141.6 138.8 136.9 135.8 137.7 139.6 141.6 141.9 145.1 148 155.9 163.3 168.2 170.3 172 173.3 173.8 173.1 172.1 170.5 168.6 166.7 165.1 162.6 160.3 156.3 151.8 149.1 147.4 147.2 147.7 148 147.7 146.7 144.9 142.2 138.2 132.1 123.1 127.2 134.6 139 140.6 141.4 140 138.6 137.3 134.8 132.5 129.5 125.4 120.4 116.4
190.7 190 190.2 190.5 191 191.1 194 195.3 196.1 196.7 196.5 197.9 198.5 199 199.6 200 201.1 201.7 202.2 201.9 201.6 200.9 200.1 199.3 197.9 196.6 195.2 194 194.2 196.1 199.1 202.1 205.1 207.6 209.6 211.4 212.3 213.6 214.1 214.3 213.6 212.9 214.2 215.1 215.5 215.7 215.7 215.3 214.4 213.7 213 212.2 211.3 210.7 210.6 208.7 207.9 206.8 205.9 204.9 202.4 200.8 199.8 198.8 197 195.5 194.2 192.9 191.9 191.2 191 189.9 189.7 189 188.7 189.8 191.2 192.5 193.5 194 194.6 194.9 195.2 195.4 194.8 193.4 192.9 192.4 190.9 189.5 187.1 186.8 186.8 187.9 188.4 187.1 184.8 183.4 180.1 175.9 171.9 170.1 174.1 173.8 172.5 171.4 169.2 167.5 164.8 145.3 116.2 136.8 159 157.8 157.1 150.8 121.1 137.4 153.6 159.4 158.4 155.9 153.3 151.1 149.6 148 144.8 138.3 139.7 144.4 146.9 149.2 151.8 153.7 154.1 154.3 153.7 152.9 151.7 150.5 148 146.1 144.4 143.3 142 141.5 140.4 138 135.6 134.5 133.1 131.4 131.2 131.4 131.2 133 136.8 146.1 154.9 161.4 164.7 166.2 168.5 170.2 171.1 171.1 169.9 168.5 167 165.3 163.3 160.6 157.8 153.1 146.2 144 144.4 145.1 145.9 146.1 145.9 145.1 142.8 138.9 133.5 123.5 121 127.2 132.2 135 136.1 136 135.1 134.4 133.1 131.2 129.7 127.1 123 118.1
194.5 194.5 195.3 195.9 196 195.8 196.4 197.5 198 197.8 196.8 197.9 198.7 198.5 198.4 198.4 199.5 200.4 201 200.9 200.7 200.9 200.4 199.5 198.3 197 195.9 196.1 193.7 195.6 198.6 201.3 203.7 206 208.3 210.1 211.6 212.2 212.8 212.3 211.3 210.6 212.1 213.5 214 214.3 214.6 214.3 213.6 212.9 212.2 211.6 211 210.5 210.4 209.2 208.3 207.8 206.3 205 203.4 201.7 200.2 198.9 197 195.7 194.2 193 191.6 190.8 189.4 189 188.7 188 187.8 189.5 191.3 192.5 193.2 193.8 194.4 194.9 195.5 195.6 195.1 194.9 194.8 194 193.4 192.2 190.8 190.4 191.1 190.8 190.8 189.5 186.5 186.6 182.3 178.3 174.7 174.9 176.1 175.3 174.6 173.6 172.4 171 169 156.4 125.8 149.5 165.6 164.8 163.4 151.1 136.1 153.5 158.3 161.8 160.4 159.3 158 155.5 152 150.1 146.7 134.5 136.7 144.4 148.7 151.7 154.6 156.7 157.6 157.6 156.6 155.2 153.2 152.7 151.2 149.5 148.3 146.3 144.1 143.2 141.8 139.9 138.2 136.7 135.6 135 134.8 130.2 128.7 126.4 126.3 132.1 141.4 151.2 157.2 159.7 162.2 165.5 167.4 168.2 168 166.8 165.2 163.6 160.6 158.5 155 149.9 142.3 139.7 140.6 141.1 142 143.3 143.6 143 141.6 138 134.6 126.3 119.2 118.2 119.6 123.4 127.1 129 130.1 129.4 129 129.4 128.6 126.7 123.6 120.5
198.9 198.8 198.8 199.6 199.8 199.6 199.1 199.1 199.4 198.5 197.7 197.6 197.4 196.9 196.8 196.9 197.1 198.2 199.1 199.2 199.4 199.2 198.8 198.4 197.3 196.1 194.5 192.5 190.6 194.3 197 199.4 201.8 204.1 206.3 208 209.5 210.1 210.7 210.3 209.3 208.3 209.8 210.8 211.2 211.7 212.5 212.6 212.4 212 211.5 211.1 210.7 210.4 210.6 209.8 209.1 209.2 207.1 205.9 204.3 202.7 201 199.4 197.9 196.3 194.5 192.7 191 189.1 188.2 187.7 187.3 188 187.9 189 191.1 192 192.5 193 193.5 193.9 194.4 195 195.7 195.7 195.8 195.5 195.2 195 194.3 193.8 192.7 193.2 192.5 191.7 188.4 187.9 185.7 182.5 179.3 178.1 176.1 173.9 172.4 170.5 168.7 164.8 156.9 148.5 128 154.8 163.3 164.3 162.3 151.6 152.3 160.1 163.3 164.4 163.6 162.8 161.5 159.4 156.3 151.5 148 138.2 146.2 148.2 151.4 154.5 157 159.2 160.7 161.4 160.4 157.8 157.3 156.3 155.6 155.1 154.8 153.3 150.7 148.1 148 146.9 145.7 141.2 140.5 142.4 143.1 139.4 139.9 132.2 125.1 124.1 129.7 138.8 146.8 150.9 155.1 159.2 162.6 164.4 165.2 164.7 163.5 161.3 157.7 155.2 151.2 146.7 138.1 135.1 137.2 138.4 137.8 139.2 140.5 141.3 140.2 137.6 134.3 129.2 124 116.5 113.9 114.9 119.1 122.8 124.3 124.3 124.4 125.5 125.6 125.1 123.3 121.8
200.8 201.3 201.7 201.9 202 201.8 201.3 201.1 200.4 199.3 198.1 197.4 196.8 195.7 195.2 195 195.1 196.1 196.9 196.8 196.9 197.1 196.6 196 195 193 191.7 189.5 188.6 192.5 193.8 195.6 198.2 201.3 203.9 205.6 207.5 208.1 208.6 208.1 207.2 206.2 206.9 208.1 208.8 209.4 209.8 210.6 210.6 210.2 209.8 209.3 209.3 210 210.7 210.3 209.2 208.2 207.1 206.2 205.1 203.5 202.1 200.4 199.1 197.1 194.6 191.9 190.3 188.2 186.6 184.6 185.8 185.9 187 189 190.7 191 191.4 191.8 192.2 192.6 192.9 194.1 195 195.6 196.2 196.6 197.2 197.5 197.8 197 196.5 197.2 196.6 195.2 192.3 190.4 187.6 184.5 181.6 178.2 172.2 167.6 162.2 157.6 153.2 152 150.2 146.2 143.5 159.1 165.4 165.4 165.2 161 158.4 163.9 166 168.2 168.3 167.9 167.5 164.9 160.8 155.4 147.5 144.8 150.1 153.4 155.6 158.1 160.9 162.8 164.3 164.1 165.3 162.3 162.4 164.2 164.3 164.2 164.3 163.8 161.6 160.2 160.2 159.8 157.4 153.4 151.3 152 150.8 150.2 147.6 142.8 131.8 124.1 120.8 123.9 129.9 137.9 143.1 150.1 155.5 159.8 161.4 162.2 161.5 160.1 155.9 150.8 146.5 142.1 135 130 131.2 133.3 133.5 134.6 137.7 139.1 139.3 135.8 134.4 130.6 126.4 120.2 113.2 109.4 111.9 115.2 116.8 116.9 117.5 118.9 119.4 119.8 120 120.1
202.6 203 203.3 203.4 203.6 203.4 202.6 201.7 200.8 200.1 198.8 197.7 196.7 195.3 193.9 193.2 193.2 193 193.8 193.2 194.1 194.3 192.5 192.2 190.8 189.4 188.4 188.2 188.6 190.6 192 193.6 196.7 199.6 202.7 204.6 206.2 207 207.1 206.6 205.6 204.3 204.5 206 206.8 207.2 207.6 208.1 208.7 208.4 208 207.4 207.2 207.9 208.6 209.5 209.2 208.4 207.2 206.2 205.5 204.6 203.5 201.4 199.9 197.3 194.2 191.3 189.9 188.3 186.1 184.6 184.9 185.1 186.5 188.1 189.4 189.7 189.3 189.8 190.2 190.6 191.2 192.6 194.1 195.3 196.2 197.7 198.5 199.4 200.1 200.5 200.2 199.9 199.2 198 194.5 193.6 191 188.2 183.3 181.1 178.6 175.9 170.3 170.7 167.2 169.7 168.9 165.8 148 165.5 169.6 170.1 168.6 166 164.4 167.1 169.7 170.5 172.4 172.8 172.1 169.4 165.5 162.3 158.3 154.3 157.4 159.7 161.7 164.5 166.5 167.4 168.8 170.4 170.5 169.5 170.6 172.3 172.7 173.3 173.2 172.9 172.1 169.6 169.5 168.2 166.8 164.7 163.1 161.8 161.7 159.4 154.6 149.5 142.6 131.5 123.8 119.4 119.8 126 134.9 143 150.3 155.4 159.1 160.4 159.6 158.5 155.6 151.4 147.4 142.2 135.5 132.5 125.8 125.7 127 129.6 132.5 136.2 136.7 135.6 133.8 130 126.9 122.7 116.1 110 103.2 106.8 110.1 110.1 110.8 112.2 113.1 112.9 113.5 114.3
202.8 203.9 204.4 204.8 205 204.7 203.6 202.4 201.9 201 199.7 198.4 196.8 194.9 193.6 192.1 189.7 190.6 190.6 190 190 189.6 189.4 189.5 188 187.4 188.2 188 188.2 189.8 191.4 194.4 197.5 199.9 202.5 204.5 205.8 206.2 205.8 205.1 204 202.4 202.7 203.5 204.6 205 205.4 205.8 206.4 206.6 205.7 205.4 205.1 205.8 206.4 207.6 207.5 206.9 206.2 205.6 205.1 204.5 203.8 202.3 200.4 197.6 195 191.3 189.9 188.3 185.4 184.7 183.8 183.4 184.6 185.7 186.8 187 187.2 187.6 188.1 188.5 189.5 191.4 193.2 194.5 196.5 198.2 199.9 200.7 201.5 202.1 202.3 201.7 201.1 201.2 198.2 196.4 194.3 191.9 189.1 186.1 184 178.5 176.2 176.4 175.6 175.1 174 171.5 159 169.5 171.7 172.3 171.3 171 171.5 172.5 175 175.6 176 175.6 172.1 171 169.6 167.9 163.9 164 168.9 170.9 171.7 173.4 174.2 175 175.2 174.9 174.4 173.7 175 176.6 178.7 178.7 178.7 178.1 177.3 176.5 175.6 174.6 173 170.9 169.1 168.1 167.3 164 159 153.5 148.9 142.9 131.4 123 117.1 119.9 129.4 138.8 146.8 153.1 157.4 159.8 159.5 158.9 157.1 154.2 150.4 147.2 140.5 129.8 123.6 119.7 120.9 123.3 127 130.7 132.8 133.1 131.4 128.5 125.1 121.5 116.8 111.5 106.2 102.5 104.6 104.4 104.4 105.1 104.4 103.2 102.8 103.2
204.2 205 205.5 205.9 206.3 205.8 205.1 204 203.2 201.8 200.1 197.9 196.7 195.6 193.9 191.3 188.7 187.3 187.3 187.6 187.5 187.4 187.1 186.8 186 185.9 185.5 185.1 187 187.6 191.4 194.2 197.1 199.8 202.1 203.7 204.4 204.3 203.4 202.9 202.2 199.8 199.8 201.3 202.3 202.7 203.2 203.7 204.1 204 203.3 202.7 203 203.6 204.3 205.1 205.6 205.1 204.5 203.5 203.1 202.6 202 200.6 198.5 196.2 194 191.2 189 187.8 185.3 184.2 182.8 181.6 182.5 183.7 184.3 185.1 184.8 185.6 186.1 186.7 188.5 190.6 192.4 194.2 196.4 198.5 200.2 202 203.1 203.7 204 204 203.8 202.5 201.3 199.2 196.9 194.7 192.8 191 188.6 184.2 183.3 182.5 181.5 180.4 180.1 178.6 175.1 175.5 178.6 178.7 179.4 179.4 178.9 178.9 180.4 180.8 180 177.8 175 173.6 172.2 171.4 169.2 169.8 174.9 178.1 180.2 181.2 182.7 183.3 182.8 181.1 178.9 178.4 179.1 181.5 182.8 183.1 182.4 182.1 181.8 181.3 181 180.8 179 176.8 173.6 173.1 171.5 168 163.4 157.3 152.2 147.1 139.8 132.3 122.3 114.6 123.3 134 142.5 149.4 154.9 158.3 159.3 158.4 156.1 154.2 151.6 148.5 142.8 132.9 121 117.8 116.1 119.1 121.9 126.7 129.8 130.9 130 126.8 123.3 118.8 114.2 110 106.1 101.8 97.8 97.6 93 94.2 92 91.5 91.4 91.4
205.6 205.9 206.4 206.2 205.8 205.1 203.3 202.7 202.1 200.7 199 197.2 195.3 194 192.2 189.9 187.7 185.6 185.1 184.4 183.9 183.7 183.7 183.7 183.5 183.2 183.8 185.1 186 186 188.3 190.9 193.4 196.1 198.7 200.6 201.1 201.4 200.9 200.3 199.4 198 197.7 198.6 200 200.5 201 201.9 202.3 201.8 201.3 200.4 200 200.8 201.6 202.6 203.1 203.4 202.5 201.5 201 200.6 200.2 199.1 197.4 195.4 193.2 191.2 189.3 187.1 185.2 185 182.8 181.7 180.8 180.8 181.2 181.7 181.7 183.8 184.4 185.5 187.8 189.9 192.2 194.4 196.7 198.8 200.5 201.8 203.3 203.9 204.5 205.1 205.5 203.5 204 201.9 199.6 197.4 195.5 193 189.5 188.4 188 186.2 183.5 185.4 183.7 179.7 180.3 181.2 182.2 183 183.3 183.2 183 182.9 184 184.8 184.1 182.6 180.9 180.7 180.9 179.5 176.7 177.6 180.1 182.7 184.9 187.6 190.3 190.8 189.8 187.8 185.9 184.1 184.5 185.6 186.1 186.1 185.1 184.8 184.3 183.9 183.5 183.2 182.1 180.6 177.6 176 174.1 170.7 166.4 161.1 156.2 150.3 143.2 135 126.5 114.2 117.4 129.3 139.9 148 154.1 157.2 158.3 156.8 154.1 150.9 147.7 144 139.2 132.2 120.9 116.6 112.9 114.6 118.2 122.9 127.1 130.3 130 128 125.2 121.6 117.2 111.3 106.2 103.4 100.4 97.2 95 92.3 91.7 89.1 85.7 84.5
207.1 207.5 207 206.5 206 203.9 202 200.5 198.9 197.7 195.8 194.1 192.7 191.5 190.6 188.4 186 184.4 183.8 183.2 182.3 182 181.8 181.6 181.6 181.5 182.3 182.4 185.2 186 186.2 188.5 191.6 194.3 196.8 198.1 198.8 198.9 198.7 198.1 197 196.2 196.2 196.9 198.2 199.3 200.3 200.7 200.7 200 198.5 198 197.7 198 199.1 200.2 200.7 201.1 200.3 199.1 197.9 197.8 198.2 197.6 196.6 194.9 192.7 191.2 189.1 186.6 185.4 185.4 183 181.3 179.6 178.7 179 179.8 180.3 181.8 183.2 185 186.5 188.9 191.3 194.4 196.7 199.1 201 201.7 203.4 204 204.7 205.7 206.6 205.4 205.6 203.6 201.9 199.9 197.3 194.7 192.5 191.7 191.1 189.8 187.5 185.4 185.2 184.9 184.4 184.6 185.1 185.6 186.2 186 185.6 185.6 186.8 187.6 187.4 187 186.1 187.1 186.9 185.9 184.3 183.7 184.5 186.8 190.9 194.6 196.8 197.8 197.2 195.4 193.6 192.1 190.5 189.1 188.7 186.9 186.1 186 185.7 185.2 185.4 185.1 184.3 182.7 181.2 178.7 176.3 172.9 169.1 165.7 161.1 154.9 149.3 140.7 129 116.9 112.5 119.7 129.9 139.4 146.8 152.4 155.1 154 151.6 148.8 145 140.3 134.9 127.5 121.6 114.9 112.6 111.8 114.8 120.3 126.1 129.8 130.7 129.5 127.7 124.8 120.7 114.8 108.2 105.4 102.9 100.9 99.2 97.5 95.1 90.8 86.7 82.7
209 209.5 208.6 207.7 206.2 203.8 201.7 199.6 197.5 196.4 194.7 193.5 191.5 190.2 189.8 188.1 186 183.8 182.7 182.1 181 180.4 180.2 179.9 180.2 180.4 182 182.4 182.4 183.1 184.2 187.5 189.8 192.5 194.4 195.6 196.5 196.5 196.4 195.9 195.1 194.3 194.2 195.5 197.3 198.3 198.9 198.6 198.4 196.7 195.7 195.1 193.6 194.7 196.1 197.1 197.7 198 197.3 196 194.8 195.2 195.9 195.9 195.2 194.4 193.3 191.9 190.1 185.7 185.2 184.8 182.5 180.8 179.6 178.3 177.6 178.3 181.3 183.5 184.9 186.8 188.2 189.5 192.3 194.5 196.7 199.2 201.4 202.7 203.8 204.7 205.7 206.6 207.4 206.9 207 205.8 204 202 199.5 196.9 195.7 194.8 193.8 193.1 190.5 188.4 187.4 187.1 186.7 187.1 187.1 187.7 188.5 188.7 188.6 188.5 188.7 190.2 190.2 189.8 189.1 189.6 189.3 188.9 187.3 187.1 187.1 190.9 193.6 197.1 199.8 201.8 202.4 201.4 198.7 196.5 194.9 192.4 189.9 187.8 186.8 185.8 185.3 185.2 185.8 185.5 185.1 184 182.8 182.1 180.3 176.8 172.5 168.2 163.4 157.6 151 141.5 132.4 121.7 114.5 112.5 120.2 130.3 138.9 146 150.2 151.2 150.1 148.5 145.5 142.2 137.8 133.3 128.2 120.3 112 110 108.9 112.8 119.1 124.8 127.3 128.6 128 125.8 121.9 116.6 112.1 109.2 107 104.8 102.4 99.4 96.1 91.6 86.6 82.1
211 211.1 210.2 209.6 208 205.3 202.3 199.6 198.2 196.8 195.3 194.3 193.6 192.7 190.8 189.2 186.9 184.9 183.1 181.9 181 180 179 178.9 179.4 180.1 180.9 180.4 180.6 182.4 182.3 182.3 185.6 187.7 190 191.4 193 193 193 193 192.5 192 192.5 194.6 195.3 196.7 197.2 197 196.3 194.3 192.6 192.2 191.7 191.4 192.3 193.1 193.5 193.9 192.8 192 191.6 192 192.3 192.6 192.8 192.6 191.6 190.8 189.3 187.9 185.3 184.6 183.7 181.5 181.3 180 178.8 179 182.7 184.7 187.4 189.4 191.2 191.8 192.9 194.5 196.9 199.4 202.1 203.7 205 205.8 206.7 207.5 207.8 207.7 207.4 206.9 205.2 203.3 200.9 199.1 198.4 197.2 196 194.8 192.6 191 190.2 189.6 188.8 189.2 189.9 189.8 190.1 190 189.5 188.8 189.6 191.4 191.9 191.7 191.9 192.1 191.8 191.1 189.6 188.6 188.9 191.1 192.7 195.8 198.5 201.3 202.8 201.6 199.5 197.6 196.3 194.2 191.6 187.6 185.3 184 183.6 183.7 183.9 184.2 183.7 183.1 182.2 181.3 179.9 176.9 173.5 169.4 164.2 159 155.3 149.4 141.9 130 118.2 109.6 112.1 121.6 132.3 141.5 148 149.6 149.5 148.8 147.3 144.4 140.8 136.9 131.6 123.3 114.6 106.5 103.9 107.1 112.9 118.6 121.5 124.8 126.3 124.7 120.8 116.1 113.1 110.9 108.6 106.2 103.5 99.1 94.5 89 82.1 76.8
213.2 212.8 212.1 211.4 209.7 207.2 204.2 201.8 200.6 198.9 198 197.3 195.6 194.8 193.4 191.5 189.3 187.2 184.9 183.1 180.4 179.6 179 178.6 178.6 180.8 180.4 180.4 180.4 181.5 182.3 182.3 184.8 186.1 187.2 188.6 189.5 190.1 190.3 190.7 190.7 190.8 192.5 193.6 194.7 195.5 195.6 194.7 193.9 192.9 191.4 190.2 189.2 189.3 189.6 189.9 189.8 189.6 189.5 189.1 188 188.2 188.8 189.1 189.9 190.1 189.9 189.2 187.9 187.1 185.9 184.9 183.6 182.7 181.5 180.2 178.4 178.6 182.9 186.8 189.6 192 193.9 195.1 194.9 195.8 197.6 199.8 202.5 204.3 205.7 206.8 207.2 207.7 208.2 207.7 207.4 207 205.8 204.4 202.3 201 199.5 198 196.8 195.3 193.5 191.7 190.6 190.2 189.7 189.9 189.5 190.4 190.8 190.2 188.8 187.9 189.1 191 191.9 192.9 193.1 193.7 193.1 191.8 190.7 189.6 188.8 189.8 191.2 192.6 195.1 197.3 197.7 197.2 196.7 195.3 193.8 192 189.8 186.8 183.9 181 179.7 180 180.5 181.4 181.1 180.3 179.9 180 179.1 177.2 174 169.8 164.9 160.7 156.1 150.8 144.5 136.2 124.1 112.4 106.2 112.7 122.4 130.8 138.4 142.4 144.2 145 145 143.9 141.1 138 134.1 126.6 117.5 107.7 99.7 103.3 107.9 113.3 117.8 123.3 128.3 128.2 126.1 120.3 116.3 113.9 111.3 108.9 102.6 94.7 87.4 81.8 75.7 72.5
215 214.4 213.8 213.1 211.3 209.2 207.1 204.9 203.8 202.3 200.6 200.1 199.1 197.3 195.1 193.2 191.4 189.2 186.8 184 181.2 179.1 178.2 177.6 178.5 178.2 180.3 180.1 180.1 180.3 181.8 181.9 182.9 184.2 184.8 185.9 187.2 187.8 188.3 188.7 189.4 190.5 191.4 192.4 193.4 193.8 193.5 192.4 191.5 190.4 189.5 188.2 187.4 187.4 187.7 187.6 188 187.6 186.7 186.6 185.7 185.4 185.5 185.9 186.2 186.7 186.9 185.8 186.1 185.2 184.9 184.2 182.8 182 181.1 180.1 177.9 177 182.9 187.1 191 194.1 196.1 197.5 197.6 197.8 198.9 200.8 202.9 204.9 206 207.1 207.4 207.9 208 208 207.7 207.1 206.1 204.8 203.2 202 200.5 199.1 197.2 195.2 193.2 190.9 188.9 188.3 187.3 186.6 186.7 186.2 186.7 186.8 186.2 186.2 187.4 189.3 191.8 193 193.8 194.2 193.5 191.7 190.6 189.5 188 188.3 188.7 189 190.7 192.4 192.4 192 192 191.3 189.7 187.9 186.6 184.6 181.9 178.6 177.1 175.9 176.5 176.9 176.8 176.3 176.1 175.9 175.4 174.1 171.4 167.7 161.9 158.2 153.7 148.2 142.2 135.4 127 119.5 110.1 105.6 108.4 113.9 123.1 129.8 134.1 137.3 138.1 137 135.1 132.9 129 125.1 117.8 109.3 99.2 100.3 106.7 113.2 118.3 121.6 125.8 128.1 127.7 125.9 124.3 121.7 117.4 112.3 102.8 87.2 79.2 74.2 70.7 69.7
216.4 215.9 215.2 214.4 212.9 211.1 209.2 208 207 205.1 203.9 202.6 201.5 199.1 196.3 194.6 192.8 190.7 187.7 183.7 180.3 178 177 176.5 177.2 178.1 179.1 180.4 181.1 181.4 182 182.4 183.1 183.6 184.1 185.3 186 186.4 186.9 188.1 188.8 189.6 190.5 191.5 192.2 192.7 191.4 191.4 190.7 189.4 188 186.9 186.3 186 185.7 186.3 186.9 186.3 185 183.8 183.3 182.9 183.1 183.6 183.9 183.6 183.1 183.4 182.5 181.8 181.2 180.9 180.5 179.8 178.7 178.2 176.6 176.5 182.6 186.9 191.4 194.4 197.2 198.6 199.1 199.7 200.2 201.9 203.6 205 206.2 207.3 207.7 207.7 207.7 208.2 207.9 207.2 206.3 205 203 201 199.9 198.6 196.4 194.2 191.4 189.5 187.5 185.6 184.4 184 183.7 183 183.2 183.6 183.3 184.6 186.6 189.1 191.7 193.8 194.5 193.9 193.1 192 190.6 189.2 187.8 186.9 186.2 186.1 186.8 188.4 188.7 187.7 187.3 187.1 185.7 184.9 183.6 181.7 179.4 176.9 174.9 172.9 172.8 172.4 171.7 171 171.2 171.3 170.5 168.9 166.4 162.3 157.3 153.1 149.1 142 135.3 130.3 124.7 112.6 105 103.2 102.4 100.1 110.2 115.2 119.7 126.4 127.2 126.7 126.9 123.5 119.4 113.9 108.3 102.6 97.8 98.7 104.2 106.5 112.4 116.4 120.8 123.6 123.5 122.7 121 119 115.6 110.2 98.6 81.8 72.8 72.2 71.4 71.9
217 216.4 215.7 214.8 214.1 212.9 210.9 210 209.1 207.2 205.6 204.1 201.7 199.3 196.8 194.7 192.8 190.8 187.1 181 177.3 175.8 175.8 177.2 178.5 180.2 181.4 183 183.5 184.4 185.1 185.4 185.3 185.7 186 186.5 186.5 187.3 187.6 187.7 188.1 188.7 189.6 190.2 191.2 192 191.4 190.5 189.6 188.7 187.6 186.7 185.8 185.3 185.4 185.1 185.7 185 183.8 182.4 181.5 180.7 181.1 180.6 180.9 180.9 180.6 180.4 179.9 179.7 179.3 178.2 177.5 176.5 175.2 175.3 174.3 175.7 182.5 187 191.4 195 197.4 199.3 200.1 200.6 200.3 201.5 203.2 204.9 206 207 207.4 207.6 207.5 207.8 207.5 205.8 204.6 203.1 201.4 199.9 198.3 195.5 193.8 191.8 188.7 187.4 186 183.9 182.6 182.2 181.9 180.3 180.4 180.7 182.6 184.3 186.4 189.1 191.6 194.5 195.2 194.2 192.6 191.6 190.4 189 187.5 186.1 184.3 183.5 183.3 184.3 185 183.7 183.2 182.3 181.5 179.7 179.7 178.4 177.4 175.7 173.5 170.4 168.4 167.3 166.5 165.6 165.6 165.1 164.6 162.4 160.5 157.2 152.8 145 135.5 128.1 122.8 114.3 113.7 107.3 105.9 107.8 108.5 103.2 100.6 105.3 107.1 112.4 116.1 117 116.2 112.5 108.2 103.7 99.5 96.6 94 95.7 98.6 100.6 104.1 110.2 114.8 117.5 118.1 113.9 100.7 93.7 88.6 86.8 82.8 74.4 72.7 73.9 77.9 82.9
216.5 216.3 215.8 215.1 215.1 213.9 212.9 212 210.9 209.1 207.3 204.8 202.1 198.8 196.2 194 192.6 190.4 187.1 180.1 175.8 177.3 177.3 179.5 181.3 183.1 184.6 185.8 187.1 187.8 188.3 188.3 188.5 188.9 189.4 189.9 190 189.5 189 189.1 188.7 189.1 189.9 190.7 191.5 192.3 192 191.5 191 189.9 188.8 187.7 186.1 185.3 185.2 184.4 184.5 183.7 182.5 181.4 181 180.5 179.8 179.3 178.8 178.3 178.3 178.3 177.9 176.9 175.6 175.2 174.6 173.8 173.3 172.1 172.5 174.6 181.7 186.2 189.7 193.3 196.2 198.3 199.6 199.8 199.3 200.3 202 204.5 205.8 206.5 207.2 207.6 207.4 207 207.1 205.1 203.1 201.2 199.2 197.4 195.4 193.7 192.4 191.5 190.3 188.6 187.4 185.1 183.9 182.2 180.7 178.6 177.7 179.7 182 184.1 186.3 188.9 191.4 194.4 195.5 195.2 194.3 191.7 189.1 187.7 186.5 185.6 184.2 181.8 180.2 180.1 180.3 178.8 177 175.7 176.4 176 176.2 175.7 176.2 174.5 172.9 170 167.2 164.4 161 159 157.6 157.6 156.1 152.4 147.5 142 137.6 131 130.6 129.8 122.5 112.9 108.8 109.2 115.5 119.7 117.6 111.5 104.9 99.6 96.6 96.1 101.7 106.3 106.7 105.6 100.5 97.9 93.3 89.4 88.5 88.1 88.2 89 93.4 97.7 101.1 104 103.1 85.8 81.5 77.9 78.2 77.1 75.9 78.5 81.7 85.2 90 100.5
215.6 215.3 215.4 215.4 215 214.6 214.1 213.2 211.8 210.1 207.8 205.6 203 199.8 195.8 192 189.5 188.2 185.7 180.9 174.8 176.4 178.8 181.9 183.8 185.6 187.4 188.5 189.7 191.3 191.8 192.1 192.8 193.3 193.7 193.2 193.5 192.5 191.2 190.6 190.1 189.9 190.9 192.1 193.4 194.6 194.3 194.1 193.3 192.2 190.7 188.7 186.7 185.7 184.9 184.2 183.5 182.9 182.4 181.6 180.8 180.5 179.6 178.9 178.6 177.8 177.1 176.5 176.5 175.8 176.3 177.6 177.1 176.8 174.6 172.7 172.6 173 179.1 183.3 186.4 189.6 192.8 194.8 196.3 196.4 196.7 197.9 201.4 203.8 205.6 206.4 207.1 207.5 207.2 206.9 206.5 204.3 203.1 201.4 199.4 198 196.5 195.6 194.3 193 191.7 190.3 188.8 187.2 185.6 184.2 182.6 180.6 176.4 179.3 182.5 183.9 185.6 187.5 189.5 192.6 193.4 193.4 192.3 190.8 187.6 185.7 184.8 184.1 182.7 181.2 177.6 175.6 175.2 173.8 171.5 169.7 172.8 172.8 172.6 173.9 174.6 174.1 172.4 169.9 168.4 165.8 162.8 159.3 156.5 153.4 151.4 149.8 146.9 143.6 142.2 139.8 140.1 137.9 129.1 114.6 109.4 117.4 125 125.3 123.8 120.4 112.1 106.7 102.6 100.8 98.1 96.2 94.3 93 91.9 90.4 89.4 88.7 87.3 86 85.6 84.5 84 83.8 88.7 91.5 84.7 79.8 82.1 85.1 84.5 85 87 91 96.2 101.1 105.8 110.7
213.8 213.7 213.9 213.9 214.4 214.2 214 213.2 212 210.6 208.7 206.3 203.4 200.6 195.2 190.8 186.8 184.6 183 179.4 174.7 177.4 181.3 183.5 185.5 187.6 189.9 191.7 193.4 195.1 196 196.9 197.2 197.5 197.8 197.7 196.8 195.4 194.2 193.3 192.4 192.1 193.2 194.5 196.1 196.9 196.7 196.5 195.9 194.7 192.7 190.7 188.3 187.2 186.5 185.9 185.3 184.7 184 183.6 182.9 181.9 181.2 180.1 179.4 178.6 177.9 178 178.2 179.4 180.5 181.2 181.5 180.8 179.1 176.8 173.4 170.1 175.3 179.7 182.3 185.5 188.9 191 192.8 192.4 192.1 194.4 197.5 201.2 204.1 205.4 206.8 207.4 207.1 206.8 205.7 204.4 203.2 201.7 200.2 198.9 197.6 195.8 194.5 193.4 192.1 191 189.8 188.6 187.2 185.7 184.3 182 176.5 178.8 181.7 183.1 183.5 184.6 185.7 189.5 190.7 190.8 187.7 185.5 185.7 184 182.8 182.2 181.4 180 177.7 172.9 166.5 164.9 163.2 163.4 166.6 167.7 168.4 172.1 172.9 173 172.7 171.3 169.5 166.9 164.2 160.8 158.3 157.3 156.4 155.4 153.4 151.2 149.8 149.3 146.1 141.7 122.8 110.4 116.1 123.8 128.3 130 128.1 126.5 123.6 119.1 112.9 109.1 107.1 104.9 103.3 102.3 97.4 96.2 94.1 92.6 90.7 88.4 87.8 85.9 84.9 82.8 82 81.7 80.8 83.4 90.3 94.8 97.3 97.9 101.1 105.3 108 111.8 115.5 118.1
211 211.3 211.8 212.2 212.9 213.6 213.6 213 212 210.9 208.8 206.3 203.5 199.9 195.4 189.1 185 181.3 179.4 177 176.6 180.1 182.1 184.2 186.6 188.7 191.4 193.6 195.9 198.4 199.4 199.9 200.7 200.9 200.9 200.4 199.5 198.2 197 196.1 194.5 194.6 195.7 197 198.4 199.1 199.4 199.1 198.3 196.8 194.8 192.2 190 189 188.4 187.8 187.2 186.6 185.9 185.2 184.8 183.5 182.5 181.4 180.4 179.5 179.7 180.1 180.8 181.5 182.9 183.8 184.2 183.7 182.2 179.7 175.5 172.3 170.7 174.1 176.6 179.7 184.3 186.8 188 188.8 189.9 191.8 194.5 197.6 200.9 204.1 205.7 207 206.9 205.9 204.7 203.1 202 200.7 199.3 198.2 196.9 195.2 193.6 192.6 191.7 191.1 190.1 188.7 187.3 185.2 182.8 179.5 175.5 173.4 177.2 179.5 179.5 180.5 182.6 186.9 188.9 188.2 186.5 183.6 181.3 179.8 179.4 178.5 178.4 177.1 175.4 173.9 167.3 166.9 161.9 154 159.6 162.6 167.8 171.8 173.9 174 173.7 172.7 170.5 168.9 165.8 162.5 160.3 159 158.6 157.9 156.3 155.5 155.3 154.2 151.1 137.4 121.1 113.5 124.6 132.3 133.3 134.3 132.9 131.6 130.5 128.1 125.6 122.3 119.9 118.6 116.7 114.1 109.9 105.7 101.5 97.6 96.1 93.7 92 90.5 89.6 87.6 88 87.5 82.6 86.6 100.5 105.5 107.8 111.1 113.7 115.5 117 120 122.7 125.2
206.8 207.2 207.9 209.3 210.4 211.2 211.7 211.3 210.4 209.1 207.5 205.1 202.4 198.7 192.7 186.5 182 178.8 175.5 173.5 178.3 179.7 182 183.8 186 188 190.8 194 196.7 199 200.4 201.6 202.3 202.3 202.1 201.3 200.8 200 199.1 198.2 196.8 196.8 197.4 198.9 200.1 200.7 200.9 200.7 200.3 199 197.1 195.5 192.2 191.6 191 190.5 189.9 189.1 187.9 187.6 187 186.3 185 183.7 182.8 181.8 181.8 182.6 183.9 184.8 185.4 186.1 186.3 185.3 183.5 182 178 173.5 167 169.3 171.6 173.9 177.3 180.8 183.5 184.6 186.3 188.5 191.8 196.1 199.8 203.3 206.1 206.8 205.9 204.5 202.2 200.2 199.5 198.5 197.2 195.9 194.6 194.1 192.3 190.7 190.6 190.1 189.4 188.4 186.8 185.4 183.5 181.7 179 172.9 174.5 176.8 176.3 176.7 179.7 185.1 187.8 186.6 184.3 180.2 175.3 172.3 171.5 169.4 169.9 170.2 169.4 168 166.2 165.6 160.6 155.2 151.1 161.7 169.2 172.7 173.7 173.5 172.7 171.4 170.8 168.9 167.3 164.5 163 161.3 158.4 157.1 156.8 157.2 156.8 156.1 152.7 135.6 118.7 121.4 132.8 139.8 141.1 140 139.6 140.1 138.5 137.4 136 133.5 132.3 129.7 128.4 125.2 121.5 117.1 113.5 109.9 102.8 108.3 106.1 103.5 100.3 99.7 99.7 97.9 84.4 85.6 103.9 111 115.1 119.4 122.5 124.5 125.9 127.7 130.6 133.1
201.8 202.8 204.4 205.9 207.5 208.6 209.2 208.3 207.5 205.8 203.3 201.8 199.4 195.9 190.6 184.5 179.4 176.6 174 173.2 176.4 178 180 182.3 184.2 187.3 190.3 193.5 196 199.2 200.9 202 202.7 202.5 202.7 202.3 201.4 200.7 200.3 199.6 199 198.6 199 200.5 200.8 201.4 201.6 201.8 201.5 200.5 199.7 198.3 196.8 195.4 194.5 193.1 193.1 192.4 191.3 190.4 190.3 189.3 188.4 186.5 184.7 184 184.7 185.5 186.9 187.3 187.8 188.8 188.7 187.9 186.5 185.1 181 176 171.8 169.6 169.1 170.3 173.8 177.1 179.3 181.3 183.8 186.3 190.5 194.8 198.7 202.6 204.9 205.6 204.6 202.9 200.5 198.1 196.4 195.5 194.5 193.7 192.7 191.4 189.4 188 187.5 188.2 188 187.3 185.7 184.7 183.3 181 178.9 172.9 169.1 169.9 168.4 168.3 169.2 174.9 177.8 179.7 178.3 174.4 169.2 164 162.5 161.9 161.8 162.2 162 159.5 156.9 155.3 156.4 152.5 150.2 152.8 163.2 165.5 170 169.8 169.3 167.8 166.3 164.3 162.3 160.1 157.9 155.9 155.8 154.8 154.5 156.6 157.8 157.6 153.1 136.9 119.4 125 137.5 144.5 147.9 147.9 147.5 147.4 147.7 146.7 144.8 142.5 139.8 138.6 136.3 133.2 130.3 126.1 123.5 120.3 113.2 118.7 117.6 114.4 111 108.9 105.9 100 84.6 86.4 104.4 114.5 121.1 126.7 130.6 133.8 136.4 136.3 138.7 140
197.9 198.2 199.8 201.7 203.4 204.1 204.8 204 202.7 200.8 198.3 198.2 196.6 193.3 188.3 183.5 178.1 175.2 172.5 173.3 175.5 176.8 178.3 180.7 183.4 186.3 189.4 193 195.2 197.3 200.3 201.7 202.3 202.1 202.1 201.8 201.5 200.9 200.5 200.1 199.3 199.8 200.2 200.4 201 201.5 201.5 201.8 202 201.8 201.5 200.8 199.9 198.9 197.4 196 195.6 195.3 194.1 192.9 193.5 192.8 192.1 190.9 188.9 187.6 188 188 188.7 189.7 190 191 191 190.9 189.5 188 185.6 181.7 177 174.5 172.5 169.3 170.5 173.3 175.3 179 182.4 185.5 188.5 194.5 199.1 201.8 204 206.1 202.4 201.8 197.7 196.7 194.1 192.6 191.4 191.2 189.8 188 186.6 185.4 184.6 184.4 183.8 181.5 180.2 177.5 174.9 172.6 169.4 168.2 167.3 167.2 166.3 164.4 161.9 161.4 163.2 166.4 165.7 161.5 158.9 157.3 156.8 157.6 156.9 156.7 153.4 151.4 153.2 152.8 150 149.6 147.6 145.7 151.4 161.4 164 163 160.9 160.7 159.8 157.4 154.6 151.5 149.4 148.5 149.4 149.5 150.3 151.7 152.8 155 152.3 137.8 119.7 126.1 139.2 146.3 151.1 153.7 155 153.5 151.8 150.7 149.5 148.1 146.6 143.8 141.3 138.6 136.3 133.5 130.4 127.2 123.4 125.6 123.5 121.7 119.2 115 110.2 102.6 87.1 87.2 99.5 112.9 121.6 128.3 133.6 137.5 140.7 142.7 144.3 144.7
194 193.7 195.1 196.8 198.4 199.5 200.2 199.4 197.6 195.3 194.3 194.5 193.4 191.4 188 182.8 176.3 172.7 171.3 172.9 174.5 176.3 178.4 180 182.5 185.5 188.8 191.7 194.8 197.4 199.8 201.3 201.9 201.9 201.5 200.4 200 199.6 199.7 199.7 198.8 198.8 199.2 199.7 200.1 200.6 200.6 201 201.9 202.3 202.8 202.7 201.8 200.6 200.3 198.9 197.6 197.1 196.3 195.5 195 194.5 194 193.3 192.5 191.9 191.2 191.4 192.1 192.7 192.6 193 192.9 192.7 192 190.7 188.8 186.3 182.7 178.3 173.1 169.9 170.7 175.6 178.4 181.8 184.9 187.5 190.8 195.2 199.5 202.3 203.6 206 202.6 202 200.3 196 193.5 190.8 187.7 186.4 185.5 185 183.4 182.3 180.2 178.9 177.6 175.9 173.2 172.7 172.9 173.2 174.4 172.8 172.3 172.4 173.1 173.8 171.6 167.8 163.4 162.6 159.6 159.2 157.3 156.1 154.9 156.4 154.6 152.1 152.4 156.7 160.8 161.2 160.8 158 154 149.5 140.9 146.3 151 149.1 150.4 151.4 151.3 147.3 138.7 132.6 133.7 134.6 139.7 143.9 145.6 146.6 144.6 145.2 136.2 126.1 117.3 120 132.5 143.5 150.9 155.1 157.2 157.2 156.7 156 155.3 154 152.3 149.8 146.9 144.8 142.9 140.2 136.9 133.3 131.9 132.4 130.5 127.2 124.1 120.3 115.1 101 92.7 87 93.4 107.1 116.5 125.1 131.3 136.7 141.1 144.4 145.9 146.5
188.5 188.9 190 191.3 192.7 193.8 194.2 192.9 191.2 190.4 190.3 190.2 189.3 188.8 185.5 180.6 175 170.4 171.3 174.3 176.3 178.9 181.2 183.1 184.5 185.8 188.2 190.4 193.7 195.7 197.6 199.1 199.8 200.1 199.6 198.9 198.2 198.1 197.8 197.4 197.7 197.6 197.8 198.1 199 199.2 199.1 200.3 201.3 202.2 203 203 203.2 203.6 203.2 200.8 198.9 198 196.9 195.8 195.3 194.6 194 193.4 192.5 192 191.6 192.3 193.1 193.5 194 194.1 194.3 194.1 193.6 192.3 190.4 187.8 184.8 180.6 174.4 167.9 171.2 177.3 180.4 184.2 186.9 189.4 193.4 196.5 200 202.5 203.9 205.9 205.4 203.2 200.7 197.1 194 190.3 187.5 185.7 184 182.8 180.8 179.3 177.3 176.9 175.8 174.8 174.3 177 178.4 180 180.5 179.6 177.9 179.5 180.4 179.7 177.9 175.5 169.5 165.5 162.9 162.5 160.9 160.3 160.4 159.5 155.2 153.5 157.4 161.8 163.8 165.4 165 161.2 155.7 151 142.9 139.9 140.4 140.8 140.7 142.5 142.5 133.9 135.1 134.4 133.8 132.5 129.8 130 136.3 138.1 130.4 121.6 119.4 120.1 128 126.2 124.7 134.3 143.5 149.5 154.6 157.8 159.1 160.2 160.2 159.4 157.5 155.5 152.9 150.7 148.7 146.7 143.6 138.6 138.7 138.5 136.9 132.9 129 124 113.4 112.8 105.6 87.7 90.8 104.1 113.9 120.6 128.3 135.4 140.5 144.9 147 147.7
183.9 184.2 184.4 184.9 187.1 187.8 187.4 185.6 185.6 184.8 185 185.2 185.2 184.5 181.7 178.4 173 170.4 172.4 176.6 178.5 180.8 182.8 184.6 186.5 187.8 188.7 190.5 192.5 194.2 196.5 198 197.8 198.2 197.6 197 196 195.7 195.5 195 194.8 194.6 194.9 195.6 196.4 196.5 197.2 198.7 200.2 201.2 202.1 202 202.3 202.8 200.3 199.6 198.2 197.4 196.5 195.4 194.8 193.8 193 192.3 192.4 192.3 192 191.9 192.2 192.6 193 193.6 194.2 194.9 195 193.6 191.5 189.1 185.8 178.9 172.9 165.3 170 175.7 180.4 184 187.8 191.2 194.4 197.6 200.4 202.1 203.7 204.8 204.8 203.1 201 198.5 194.9 191.7 189.1 186.9 184.2 182.5 180.7 179.2 179.2 178.7 177.9 177.1 176 180.2 182.3 183.9 184.7 185 185.7 186.5 186.7 184.7 182.2 179.1 174.1 171 169.4 168 166.1 164.6 163.6 160.9 156.9 156.7 159.9 163.3 166.7 168.1 167.4 164.2 159.2 153.5 148.3 143.6 140.2 139.4 138.9 138 140.3 143.6 144.6 143.6 143.7 142.2 137.8 130.3 126.1 124.4 124.4 123.5 127.5 134.6 142 140.7 128.4 124.8 132.2 141.3 148.2 152.2 154.6 157.3 158.7 159.1 158.6 157.3 155.8 154.2 152.6 150.4 148.3 143.4 142.7 141.3 138.8 135.7 130.9 126.3 122.3 120.1 113.7 92.1 89.5 99.8 112.6 119.1 128 135.6 141.8 146 148 148.8
181.2 180 178.3 177.4 178 179.2 179.1 179.6 179.9 180 179.8 180.2 180.6 179.7 177.9 175.4 171 170.2 174 177.2 179.8 181.6 183.5 185.6 187.4 189 189.9 191.3 192.6 194 195.7 197.1 197.1 196.8 195.9 195.1 193.7 193.1 193 192.9 192.5 192 192.3 192.8 193.6 194 195.5 196.9 198.5 200.2 200.4 201 201.3 200.4 199.6 198.1 196.9 196.2 195.5 194.8 193.6 192.2 191.3 190.7 189.7 189.7 189.6 189.2 189.4 190.4 190.1 191.2 192.7 193.8 194.2 193.6 191.8 189.2 185.9 181.1 174.4 165.1 167.4 174 178.5 183.6 187.6 191.5 194.7 198.2 200 201.5 203.2 203.5 203.4 202.6 200.5 198.8 197.2 194.4 191.8 189.1 186.1 183.9 181.8 181.6 181.6 181.6 180.5 179.5 177.6 182.1 184.5 186.2 187.4 188.5 189.3 189.7 188.8 187 184 181 177.7 174.6 174.5 172.2 169.6 167.8 166.2 163.2 158.7 161.2 162.1 164.6 168.8 170.6 169.9 166 161.1 155.8 150.4 147 143 141.4 141.1 142.7 146.4 149 149.6 149.9 148.6 148.2 145.4 141.2 136 137.2 136.5 140.8 143.4 148.7 152.2 150.7 143 135.4 131.6 131.5 140.3 145 149.6 152.4 155.2 156.9 158.5 158.6 158.2 157 155.2 153.4 152.9 149.6 148.1 145.4 142.7 139.3 135 130.1 127.3 123.1 118.5 98.1 90.5 99.2 109.4 116.8 127.2 134.6 141 144.8 146.7 146.4
178.9 179.3 179.8 179.8 179 177.3 175.1 174.2 174.3 175.3 175.4 175.7 175.6 174.6 173.3 171.7 168.7 171.5 174.5 177.1 179.4 181.5 183.5 185.5 187.4 189.1 190.6 191.9 192.6 193.4 195.2 196.3 196.2 196 194.4 192.4 191.3 190.5 190.1 189.7 189.2 189.6 189.9 190.1 190.9 192.6 194.3 195.9 197.6 199.3 199.8 199.8 199.8 199.7 198.6 196.8 195.5 194.5 193.1 192 191.3 190.3 188.7 188.2 187.7 187.3 186.9 186.4 186.2 186.6 187.7 188.8 189.8 190.9 191.4 191.5 190.8 189 186 182 176.4 166.8 166.7 174 179.4 184.2 188.4 191.9 195.6 198.5 200.3 201.3 202.6 202.6 202.1 201.5 201.1 199.5 198.2 196.2 194.2 191 188.2 185.9 184.5 184.1 184 184 183.7 182.8 180.3 181.8 184.5 187 188.6 190.1 191.1 191.3 190.4 189.2 186.3 183.6 180.1 178.1 176.6 174.2 171.3 168.8 165.7 162.1 161.8 165.3 165.9 167.5 170.7 173 171.9 167.7 162.5 156.2 150.9 147.5 144.2 144.4 143.9 143.5 149.1 152 153.9 153.9 154.4 154.2 153.6 150.9 148 143.3 146.8 151.3 154.2 157.9 156.4 155.1 150.8 143.8 135.9 130.6 133.5 139.4 143.6 147.7 151.2 154.8 156.7 158.1 158.8 158.7 158.1 157.2 156 153.5 151.8 148.9 145.1 141 136.8 132.7 128.4 122.3 110.8 94.8 91.8 95.4 107.6 114.6 121.8 129.1 134.6 138.6 141.6 143.1
183.5 183.7 183.8 184.3 183.9 181.4 178.9 175.6 174 172.1 170.4 171.5 171.8 171.2 170.1 169.3 168.8 171.5 174.2 176.1 178.1 179.9 181.5 184.4 185.8 187.7 189.8 191.4 192.8 193.7 194.6 195.4 195.7 195.2 194.5 192.5 190.5 188.5 186.9 186.5 186.3 185.8 187.1 188.8 190.4 192.2 193.7 195.2 196.8 198.4 199.5 199.5 199.5 199 197.7 196.1 194.6 192.4 190.8 189.7 189.2 188.4 186.4 185 184.8 183.9 182.9 183 184.1 183.2 183.9 185 186.2 187.4 188.7 189.2 189.1 187.8 185.4 181.4 176.2 167.1 166.3 173.3 178.3 183.9 188.5 192.6 196.1 198.7 200.6 201.4 201.1 201 200.2 199.8 199.5 199.4 198.6 197.2 195.6 193.7 190.9 188.6 188.3 187.5 186.7 186.2 185.6 184.6 183 181.9 183.8 186.4 188.9 190.3 191.6 192.4 192.3 191 188.7 186.1 181.7 180.8 179.3 175.5 171.8 168 163.7 163.7 166.1 169.9 171.1 176.7 179.8 179.1 173.9 169.4 161.8 157.6 152.8 148.4 147 146.7 146.3 146.2 151.5 155.4 158 159.8 160.7 160.9 160.4 159.8 157.4 154.4 155.6 158.4 160.3 159.7 161.2 158.1 155.4 144.3 135.8 133.8 135.2 136 141.2 145.2 148.6 152.2 155.3 157.6 159.6 160.4 159.8 159.7 158.6 156.6 154.7 151.2 146 142.1 137.7 132.9 128.3 122.9 103.6 95 97.4 95.7 103.1 113.5 120.3 125.4 129.4 134.6 138.1 140.5
186.9 186.9 187.3 187.5 186.3 184.9 181.3 177.6 174.6 172.1 170 168.9 169.2 168.9 168.6 168.1 168.2 170.3 172.6 174.5 175.9 177.8 179.3 181.1 183.6 185.7 188.5 190.1 191.7 193.2 194.1 195.3 195.5 195.1 193.9 192.1 190.2 188.2 186 184.1 183.9 184.2 186.3 188.3 190.1 191.5 193 194.5 196.2 198.4 199.4 200.1 199.7 199 198.3 197 195.8 194.4 193 191.9 189.8 187.6 186.6 185.7 185 184.3 183.4 185.4 182.6 181.4 180.7 179.4 180.7 181.9 184.3 187 187.7 186.5 183.5 180.3 175.7 167.4 164.7 171.9 178.4 183.9 188.1 192.1 195.7 198.4 199.8 200.4 199.2 197.9 197.6 198.1 197.8 198.4 198.3 198 197.2 195.8 194.7 193.2 191.9 190.9 189.9 188.2 187.5 186.4 184.8 183.6 184 186.5 188.6 190.1 191.6 192.7 193 192.2 190.3 187.8 185.8 184.3 182.3 177.8 173.9 169.3 168.4 168.9 171.5 176.2 177.9 177.5 176 181 177.1 173.4 167.3 161.2 154.2 152.2 150.9 149.5 149.5 149 154.5 159.2 162.8 164.9 166.4 167.4 167.2 166.8 166.7 164.5 164 165.2 166.2 162.2 162.2 158.4 154.3 144.8 136 140.1 139.8 136.8 139.9 144.2 148.3 152.4 156.4 159 161.2 162 161.2 162.1 160.6 158.1 155.1 150.8 144.7 139.6 134.4 130.2 126 117 99.3 96.6 105.1 103 98.9 107.1 114.4 122.7 127.2 130.9 135.8 140.2
192.4 192.5 191.9 191 189.4 188.1 184.8 179.7 176.2 173.7 171 168.7 167.7 167.6 167.7 167.7 168 169.4 170.9 172.3 173.7 175.3 176.9 178.8 181.3 183.7 186.5 188.9 190.5 192.1 193.4 194.5 194.9 194.6 193.7 192 189.5 187 184.7 182.6 181.7 183 185 186.9 188.9 190 191.9 193.9 196.1 198.3 199.5 200.5 200.7 200.2 199.9 199.1 198 197.2 195.8 194.6 192.1 189.8 189.3 188.4 187.3 186.9 186.6 186.3 185.3 182.9 181.5 179.3 176.4 175.9 173.3 178 182.8 183.4 181.7 179.1 177.5 169.7 164.3 173.3 180.2 184.8 188.4 191.6 194.5 196.5 197.8 198.3 197.4 195.5 195.6 196.8 196 196.8 197.6 198.2 198.1 197.5 197.2 196.1 194.9 193.7 192.5 191.3 189.4 188.2 186.7 185.3 185.4 186.7 188.3 189.8 191.5 192.9 193.4 192.9 191.9 190 188.5 187.6 186.1 182.5 179.6 176.9 175.8 178.3 180.5 182.5 184.2 184.9 182.8 185.9 181.3 178.1 172.4 165.7 157.6 155.9 154.9 153.8 154.2 152 157.4 163 166.6 169.2 171 172 173.1 173.3 173 173.2 172.2 171.6 170.9 168.9 165.2 158.6 153.2 144.7 142.7 143.9 143 139.7 141.6 146 150.1 154 158.2 160.8 162.6 164 164 163.2 160.9 157.5 153 147.5 140.9 134.9 129.5 125.8 122.6 110.4 98.1 101.6 113.9 108.8 99 111.1 121 126.3 129.5 132.8 137.4 141.2
196.5 196.8 196.2 195.4 193.4 191.6 189 186.5 180.9 177.7 173.3 168.4 167 167.1 167.2 167.3 167.9 168.7 169.5 170.4 171.7 173.1 174.8 176.8 179.1 181.7 184.5 187.2 189 190.8 192.4 193.6 194.3 193.9 192.7 191 188.4 185.6 183.4 181.3 179.8 181.7 183.6 185.5 187.5 189.5 192.2 194.3 196 198.2 199.6 200.5 201.2 201.2 200.7 200.7 199.4 199.3 198.3 196.6 193.9 192.6 192 190.8 189.9 189.6 189.6 189.4 189.1 189.2 188.5 186.8 183.9 179.4 172.7 169.8 175.2 177.5 180 179 177.3 170.7 163.7 175.2 180.8 184.7 187.5 189.6 192.2 194.3 195.8 196.3 195.5 195.1 192.8 192.6 194.4 195.6 197 198.3 198.6 199.2 198.9 199.1 197.7 196.6 195.4 194 191.6 190.4 189.1 187.4 187.3 186.6 188.2 190 191.7 193 193.6 193.4 193.1 192.4 191 190 189.3 187.5 185.7 184 181.7 183.7 185.7 186.6 188.2 189 186.3 186.1 185.6 183 177.2 175.1 163 160.3 159.9 160.1 158.8 154.6 161.1 167.1 170.3 173.2 175.6 176.8 177.8 178.3 178.4 177.9 176.7 175.3 174.4 172.3 168.3 161.2 149.2 149.1 149 147.5 145.5 142.1 143.5 147.6 151.8 155.7 159.7 162.2 163.6 165.4 164.8 162.4 159.8 156.1 151.6 145 137.7 131.5 126.2 118.7 114.6 101 102.8 118.4 119.7 115.3 98.9 111.4 120.9 127.7 132.2 135.5 139.2 142.1
199.6 200.1 199.9 198.6 196.9 194.1 191.3 187.7 183.7 179.7 174.2 169.2 166.3 166.6 167.3 167.9 168.1 168.8 169.3 169.9 170.9 172.2 173.3 175 177.2 179.6 182.4 185 186.8 188.5 190.2 192.5 193.5 193.2 191.9 189.3 186.7 184.2 182.1 180.2 178.4 180.2 182.2 184.1 186.1 188.6 191.9 194.3 196.2 198 199.5 200.3 200.9 201.3 200.7 200.1 200.1 200.1 199.2 197.6 196.5 195.5 194.4 192.9 192.6 192.5 192.1 191.8 191.6 191.2 190.9 190.1 188.2 184.8 177.2 173.3 169.4 168 169.2 170.8 171.4 167.7 165.1 174.6 179.3 183.1 185.3 187 189.7 191.5 193.3 194.1 193.3 191.8 190.4 191 193.3 194.9 196.2 197.6 199 200.1 200.6 200.6 200.5 199.8 198.7 196.9 195.1 192.9 191 189.6 188.6 188 188.4 190.3 191.7 193 193.9 194.3 194.3 194.1 193.5 192.4 191.7 190.6 189.5 188.2 188.2 189.3 190 190.8 192.2 192.4 188 186.7 186.5 185.6 183 177.6 167.8 168.5 167.6 167.7 166.4 162.5 164.7 171 174.5 177.1 179.3 181.4 182.3 182.8 183.1 182.5 181.1 179.5 177.6 175.1 171 163.7 148.3 155.3 154.5 150.8 147.3 143.6 145.5 148.9 152.9 156.9 161.1 163.9 165.4 165.5 163.6 160.3 157.2 153.8 145.6 138.3 132.6 127.9 122.4 114.5 105.2 101.3 110 122.1 124.3 120.9 106.5 107.5 118 127.2 132.9 137.1 141.1 144.4
202.6 202.3 201.7 200.4 198.6 196.4 193.7 190.2 185.3 179.8 172.7 166.8 166.2 166.6 168 168.7 169 169.7 170.4 170.8 170.8 172.2 172.9 173.7 175.9 177.8 179.9 182.7 184.8 187.4 189.7 191.7 192.6 192.6 191.7 188.4 185.7 183.2 181.5 179.9 177.3 179 180.8 182.7 185 187.7 190.4 193.4 195.5 197.4 199 199.8 200 200.3 200.1 199.8 199.9 199.5 199.2 198.6 197.8 196.8 196 195.1 194.8 194.4 193.9 193.7 193.6 193.1 192.4 191.5 189.7 186.7 180.9 177 173.2 169.5 166.8 163.5 162.4 161.1 165.5 172.2 177.2 180 181.7 184.1 185.7 187.4 188.9 189.7 189.8 188.7 187.8 190 191.9 193.2 194.6 196.2 198.1 199.8 200.7 201.5 201.4 201.3 200.5 198.8 197 194.6 193.3 191.2 189.4 188.3 188.3 189.4 191.1 192.5 193.7 194.5 195 194.7 194.5 194.2 193.3 192.7 191.8 191.3 191.4 192.3 193.2 194.1 194.6 194.7 194.1 192.4 188 187 183.3 178.1 175.5 175.5 175.8 174.8 173.7 170.6 165.2 174.5 178.1 181 183.6 185.9 187.3 187.8 187.4 186.6 184.4 182.6 180.4 177.7 173.4 163.7 155.2 159.8 159.2 153.4 149 146.7 146.9 150.2 154 158.6 162 164.6 164.9 164.6 162 157.6 154.1 146.1 137.1 133 127.5 125.9 121.6 115.3 103.8 104.1 120.1 125.8 127.9 124.6 117.7 101.8 114.5 126.1 132.9 138.1 142.6 146.4
203 202.9 202.5 201.6 200.2 198 195.8 190.7 184.7 177.1 167.5 165.8 166.3 167.5 168.9 170.5 172 173.5 174.1 174.2 172.5 172.4 173 173.9 175.2 176.9 178.9 181.7 184.4 187 189 191.2 191.8 192.4 191.3 188.2 185 182.5 180.2 178.6 176.7 177.3 179.3 181.4 184.1 186.8 189.5 192.2 194.4 195.8 197 197.3 198.4 198.6 198.6 197.4 198.9 198.9 198.3 197.6 197.5 197.3 196.6 195.8 196 195.9 195.8 195.3 194.5 193.6 192.5 191.4 189.3 187.7 184.4 181.2 177.5 174.6 172.1 168.7 164.2 160.3 164.4 170.9 174.3 176.5 178.1 179.4 180.4 181.8 183.5 185.2 185.2 184.6 184.7 187.4 189.8 190.3 192.2 194.2 196.1 198.6 199.6 201.7 201.6 201.8 201.1 199.6 198 196.1 194.1 192.1 189.9 188.2 187.4 188.6 190.4 191.6 192 192.5 193.6 193.9 194 193.6 193.7 192.9 192.5 192.6 192.9 193.6 194.7 195.3 195.8 195.9 195.5 194.6 191.5 188.2 184.5 184.5 184.3 182.7 180.9 179.6 178.4 175.8 169.8 177.1 180.9 184.4 187.4 189.8 191.2 191.7 190.7 189.2 187.1 184.7 181.7 178.7 172.8 164.6 161.5 164.1 161.5 155.8 150.7 148.5 149.6 152.1 155.7 159.7 162.3 165.2 165.2 163 160.6 156 149.3 139.6 139.2 140.5 138.9 136.7 131.4 124.1 109.7 105.8 121.2 126.8 129.7 129 122.4 107.5 108 122.9 131.1 137.5 143 147.9
202.4 202.2 202.2 201.9 201.2 199.5 196.8 192.5 186.6 175.5 166.1 166.1 168.6 170.6 173.1 174.7 176.3 177.7 177.6 177.1 175.7 175.3 175.2 176.6 176.1 177 178.9 181.7 184.2 186.9 189.4 190.6 191.8 192.1 190.9 188.3 184.7 181.8 179 177.4 175.6 176.6 178.7 180.8 183.2 185.9 188.5 191.1 192.7 194 193.8 194.7 195.8 196.5 194.9 195.7 197 197.9 197.9 197 196.2 197.1 196.9 196.5 196.6 196.4 196 195.5 194.3 193.2 191.9 189.7 188.5 187 185 182.3 179 176.2 174.2 171.6 167 159.3 163.2 168.8 171.1 172.2 173 174.5 175.5 176.3 178 179.7 180 180 181.5 184.4 186.8 188.5 188.7 191 193.8 197 199.4 200.4 201.2 200.9 200.4 199.1 197.6 195.6 193.6 191.6 189.5 187.4 186.7 187.4 189 190 189.8 190.2 191.7 191.8 191.7 192 192.3 192.7 193 193.4 193.8 194.2 194.8 196 196.6 197 196.8 194.8 193.4 190.9 189.2 189 188 186.6 184.6 183.1 180.5 176.4 175.9 178.6 183.1 187 190 192 192.9 192.5 191.6 189.9 187.5 184.5 180.9 176.9 171.3 163.4 164.9 166.1 163.7 159.9 154.8 149.5 151.7 154.3 158.1 161.2 164 165.6 163.9 162.6 159 152.1 147.3 146.5 147.1 147.1 145.3 142.6 137.5 126.2 110.4 105.7 122.3 128.4 130.8 129.6 124.7 115.8 106.3 119.8 130.3 137.5 143.7 148.9
201.4 201.3 201.4 201.6 201.1 200 197.3 193.1 187.1 174.9 165.8 170 175.2 177.3 178.8 179.4 180.9 181.3 180.8 180.2 178.7 177.3 177.2 178.8 178.4 177.5 179.4 182.1 184.6 187.2 189.4 190.7 191.7 192.1 191.3 188.4 185 182.2 179.2 176.6 174.8 175.4 178 180.2 182.2 185 187.3 189.6 191.3 192.2 193 193.6 193.3 191.9 192.5 194.2 195.6 196.3 196.6 196.3 195.5 194.1 195.6 195.7 195.4 195.5 195 193.9 192.2 191.3 189.3 187.9 186.8 185.3 183 180.2 178.2 175.8 173.4 170.7 166.6 158.5 160.8 165.4 165.2 165.5 167.3 168.5 169.5 171.3 173.6 174.5 174.7 174.8 177.8 179.9 182.1 185.1 186.3 188.6 191.9 195.1 197.5 199.2 199.8 198.7 198.1 196.6 195.2 193.3 191.1 189.2 187.2 185.2 184 184.1 185.8 186.4 186.6 187.3 188.1 188.3 188.7 189.4 190.2 190.5 191.3 192 192.5 193.1 194.7 196.4 197 197.6 198.2 197.8 196.5 195.5 194.7 193.4 191.4 189.8 188.2 185.2 181.8 178 180.7 182.4 184.4 187.4 189.9 191.6 192.2 191.8 190.9 189.6 186.6 183 178.2 173.4 169 164.3 169.4 169.3 166.8 162.8 157.8 154.1 154 156.4 160.8 163.6 165.1 165.9 164.3 162.1 157.6 153 151.6 152.1 152.1 151.7 149.9 146.3 140.2 128.8 109.8 111.4 125.6 131.5 132.6 131 124.7 114.7 110.8 111.6 125 133.8 142.9 148.1
199.5 199.3 199.6 199.9 199.7 198.7 196.1 192.4 186.8 170.3 167.1 177.3 180.9 182.5 183.8 184.6 185.1 184.8 184.6 182.9 181.2 179.6 179.3 180.4 180.3 179 180 182.6 185 187.5 189.5 190.9 192 192 189.5 188.5 185.5 182.4 179.5 176.9 174.7 174.1 176.3 179.1 180.6 183.2 185.4 187.4 188.9 190.1 190.8 191.1 192 190.9 190.1 193 194.4 195.5 195.3 194.3 193.4 193.2 193.9 194.3 194.2 193.6 192.7 191.5 189.1 188.4 186.9 184.4 183.6 182.7 180.5 178.2 175.4 172.7 170.4 168.3 163.8 159.9 158 159.1 161.5 164.8 166.5 167.7 168.3 168.8 170.1 172.1 173.4 174.6 174.8 177.1 178.8 181.3 183.7 186.7 190.6 193.5 196.1 198 198.5 197.2 196.1 194.6 192.7 190.1 187.7 185.2 182.8 181.8 180.7 180.7 181.5 182.6 183.4 184.1 185.1 185.5 185.9 186.7 187.5 188.2 189.1 190.1 190.7 191.7 194.2 196.6 197.3 198.6 199.6 200 200 199.8 198.9 197.5 195.4 193.7 190.8 187.4 183.6 182.7 184.1 185.6 187.2 188.6 190.2 190.7 191.3 190.9 190.1 189.3 186.6 183.9 179.9 174.2 165.6 170.1 172.4 172.4 169.8 165.8 161.7 157.7 157.1 159.2 161.5 163.8 165.6 165.6 163.4 161.5 158.1 155.5 156.1 155.8 156.1 155.5 153.3 149 142.5 127.9 109.3 119.1 133.7 137 137.2 134.2 128.1 112.5 119.6 116.2 117.9 128.9 139.1 144.3
197.2 196 196.6 197.1 196.5 195.3 193.2 189.8 173.5 164.8 169 182 185.6 186.9 187.5 187.8 187.9 187.5 187.1 185.4 183.7 181.5 181 181.3 181.4 181.3 181.2 183.1 185.5 187.9 189.5 191.1 192.3 192.2 191.2 188.9 186.3 182.5 179.7 177.1 175.1 173 175 176.9 178.4 180.6 183.1 184.7 186.3 187.8 188.7 188.6 188.2 187.9 188.9 192.1 193.7 194.5 194.1 192.8 191.6 190.6 189.8 191.8 190.9 190 188.4 187.6 188.2 186.1 184.1 182.3 180.7 179.3 176.9 174.6 172.3 169.4 166.5 163.3 158.4 160.1 159.3 162.5 166.6 169.8 171.7 172.8 173.9 174.6 174.8 176.8 178.7 179.9 179.2 178.6 178.7 180.1 182.7 186.1 189.6 192.4 195.2 196.7 196.4 195.5 194.1 192 189.6 186.9 184.2 182.2 179.7 178.7 178 178.3 179.1 179.6 180.3 181.3 182.3 182.8 183.7 184.2 185.1 185.6 186.7 187.7 188.8 191.4 194.1 196.5 197 200.3 201.8 202.2 202.8 202.9 202.2 201.1 199 196.3 193.3 189.8 185.9 187.2 188.3 189.1 189.4 190.2 190.7 190 190.3 189.9 189.4 188.2 186.7 183.7 180.2 173.8 170.6 175.7 175.9 175.8 173.7 169.9 165.9 162.6 160.8 160.4 162.5 164.7 165.4 164.8 163.7 161.3 158.7 158.9 160.3 162.1 163.3 162.9 158.8 152.1 138.6 116.5 111.2 126.2 138 141.7 141.8 138.2 131.9 117 124.5 124.1 115.6 122.7 134.2 139.4
194.6 191.6 192.3 192.7 192.4 191.8 190 186.7 163.7 162.6 175.5 183.4 187.5 189.1 189.9 190.5 190.7 190 189.6 188.3 186.8 183.5 183.7 183.5 182.9 182.5 182.4 182.8 185.4 187.2 189.9 191.8 192.9 193.3 192.4 189.5 186.3 182 179.3 177.5 174.8 172.1 172.6 173.9 175 176.9 179.5 181.2 182.6 184.2 185.3 185.6 185 184.1 187.3 190.9 192.7 193.7 193.4 192 189.5 186.8 185.7 186 188 186.1 186.2 185 184.2 183 181.1 179.1 177.1 175.6 173.9 171.3 168.7 165.7 162.3 158.8 158.2 159.5 162.7 167.1 170.4 173.4 175 176.5 178.7 179.6 180.7 181.8 183.3 184.1 184.3 183.4 183.1 183.2 182.8 186.2 188.9 191.7 194 196.1 194.7 193.5 191.5 189.2 186.3 183.6 180.5 178.8 177 176.1 176 176 176 176.7 177.7 178.5 179.6 180.3 181.5 182.1 182.7 184 185.5 187.3 189.1 192.4 195.1 197.8 200.1 201.8 203.2 204.6 205.4 205.3 204.8 203.4 201.5 198.5 195.5 192.8 190.9 191.9 191.3 191.9 192.1 191.9 191.2 190.2 188.7 188 187.4 186.6 185.3 183.1 179.1 172.1 174.9 179 179.2 178.7 176.3 173.3 170.5 167 164 163.2 164.2 165.2 165.4 165 163.9 162.4 161.7 161.9 163.8 165.8 166.4 164.5 160 152.6 124.7 111.3 122.4 134.6 141.6 144.5 143.5 139.9 133.8 123.6 132.1 130.3 122.4 116.5 127.6 133.7
192 188.8 188 188.4 187.5 187 185 169 160.7 168.2 178.8 184.7 187.8 189.9 191.4 191.6 191.8 192.1 191.3 190.1 188.8 187 186.7 185.2 184.5 183.9 183.8 185 185.7 187.6 189.4 191.6 192.8 193.4 192.3 189.2 185.6 183.4 179.7 179.6 175.6 172.8 170.6 170.7 171.9 173.5 175.4 176.9 178.7 180.4 182 182.2 181.3 181.8 185.7 189.5 191.8 192.9 192.9 192.1 189.6 187.4 184.1 183 182.8 182.8 182.2 181.1 180.4 179.4 177.4 175.3 172.9 170.9 169 166.8 163 159.9 157.1 154.9 155 155.7 162.4 169.3 172.7 175.6 178.1 180 181.3 182.8 184.7 185.7 186.9 187.7 187.8 187.7 187.1 186 186.3 187.5 189.7 192.4 193.5 195.5 194.3 192.2 189.2 186.2 182.9 179.5 176.8 175 174.4 174.3 174.1 174.3 175.6 177 176.7 177.3 178.1 179 180 181 182.2 183.6 185.6 187.7 189.7 192.7 195.5 198 200.4 202.6 204.4 205.9 207.1 207.1 206.3 204.8 202.9 200.9 197.9 195.8 194.4 194.2 193.5 194 194 193.1 191.9 190.4 188.3 186.5 185.6 184.7 183.9 181.8 178.9 172.9 178.6 181.1 181.7 181.2 178.9 176.6 174.5 171.7 169.3 166.1 165.6 164.9 164.9 164.5 163.5 163.1 163.9 164.5 166.1 167.7 168 165.3 159.8 142.1 116.6 115.7 131.1 140.6 145.2 146.9 144.8 140.8 134.9 130.9 136.3 135.1 131.3 122.7 119.9 128.7
189.7 185.8 184 183.6 182.6 181.6 173.2 161.7 166.1 172.2 175.9 183.6 186.2 189.5 191.9 191.3 192.5 193.6 192.7 191.3 189.6 189 188.5 186.9 186.5 185.4 185.8 186.5 186.8 187.9 190.1 191.5 192.3 193.3 192.3 190.5 187.8 185.6 182.1 179.3 176.8 174.8 171.9 169.8 169.4 170.4 172 173.7 175.2 176.8 178.5 178.2 177.6 180 184.4 188.1 190.5 192.4 192.9 192.4 190.9 188.1 184.7 181.8 178.3 179 178.2 177 176.4 175.3 173.4 171.1 167.9 164.2 162.2 160.8 159.3 160.5 157.6 154.8 155.1 157.1 163.9 169.1 173.4 177.3 180.2 182.3 183.9 185.3 187.7 189.1 190.2 191 190.9 191.1 190.4 189.8 189.5 190.2 191.8 193.6 194.3 195 193.8 191.9 189.4 186 181.7 177 174.3 172.6 173.1 173.3 174.3 177.4 179.2 179.7 179.9 180 180.4 180.9 181.3 181.8 182.7 183.9 185.7 187.9 190.2 193 195.6 198.1 200.6 203.1 205.1 206.8 208.1 208.5 207.8 206.8 204.3 202.6 200.3 198.3 196.7 196 195.4 194.9 194.6 193.8 192.5 190.3 188.2 186 183.9 183 182 180.6 177.6 176.6 181.6 183.4 183.8 183.1 182.1 179.8 176.9 174.9 171.7 169.1 166.9 165.1 163.9 163 163 164.2 165.3 165.9 167.2 168.3 168.1 165.2 159.3 136.7 113.6 124.8 141.8 146.9 149.5 149.6 147.2 142.3 135 131.6 140.2 139.8 137.5 133.7 125.7 118.8
189.1 184.7 181.5 177.8 176.7 175.3 165.8 160.7 171.9 176.6 179 181.1 186.3 189.5 191.4 192.5 193.7 194.9 194.4 193.6 192.5 191.5 190.4 189.2 188.7 187.8 187.2 187.2 187.6 188.3 190.1 191.5 192.3 192.7 192.8 191.8 190.4 188.3 185.6 182.5 178.7 176 173.1 171.3 169 168.3 169.1 171.1 172.6 174 175.2 175.1 175.4 179.2 183.4 186.7 189.8 191.5 192.8 192.6 191.4 189.6 186.1 184 178.8 175.9 174.3 173.9 173 170.8 168.5 166.3 164 163 163.8 164.4 165.1 164.6 161.8 156.8 154.1 156.6 162 167.6 172.9 177 180.7 183.9 186.2 188.6 190.7 192.1 192.7 193.1 193.2 192.8 192.5 191.9 191.9 191.9 192.8 193.9 194.8 195 193.7 191.6 189.2 185.4 181.5 176.6 171.5 171 172.6 174.8 177.8 180.4 181.8 182.5 182.6 182.7 182.9 183.4 183.8 183.8 183.8 184.4 185.9 188.4 191 193.1 194.9 197.4 199.9 202.3 204.8 206.6 208.2 208.2 207.8 206.5 204.9 202.8 200.8 199.3 197.2 195.4 194.6 194.6 194.1 193.1 192 189.7 187.7 185.8 183.5 181.1 179.9 177.9 177.5 180.1 183.6 184.6 184.5 185 183.5 181.2 178.5 175.9 173.1 169.9 167.4 164.6 162.8 162.4 162.7 163.9 164.8 165.8 166.7 166.7 165.8 162.8 155.5 134.1 113.7 135.5 150.2 152.6 153.9 152.5 148.9 143.4 135.8 138.3 143 143.3 141.3 137.9 134.3 126.5
188.9 185.8 180.9 175.2 170.8 166.4 161 163.3 172.8 178.5 181.6 183.6 186.3 190 192.3 193.5 194.8 195.5 195.8 196.8 194.8 193.3 192 190.8 191 190.8 189.8 188.9 188.9 189.1 190.1 191.1 191.9 192 192.1 192.2 191.1 189.8 187.9 184.7 181 176.9 174.3 172 170.4 167.5 167.2 167.4 169.2 170.7 171.8 171.5 174.3 178.3 182.2 185.5 189 190.7 192.3 192.8 190.7 189.6 187.3 184.2 179.7 176 173.5 171.8 171.5 169.8 167.5 167.5 167.6 169 169.1 168.9 168.4 166.4 162.9 157.5 152.9 152.4 159.5 165.4 171.1 176 180.8 184.6 187.8 190.5 192.1 193.6 194 194.5 194.6 194 193.1 191.6 191.5 191.5 191.1 193 193.9 193.9 193.4 191 188.5 184.2 178.3 171.8 170.5 173.1 177.4 179.3 181.7 182.9 183.7 184.4 184.7 185 185.2 185.4 185.3 185 185.1 185.3 186.7 188.7 190.4 192.1 194.2 196 198.1 200.5 203.1 205.6 207.1 207.3 206.6 205 203.5 201.4 199.6 197 195.3 193.7 193.2 192.8 192.5 191.7 190.7 189.3 187.5 185.4 183.1 181.1 178.9 180.1 181.2 183.5 185.3 186 186.7 186.3 184.6 182.1 179.3 176.5 173.3 170.2 167.2 164.4 161.8 159.4 161 161.5 162.2 163 163.8 163.7 162.3 160.1 154.1 133 113.8 137.5 150.5 153.9 155.9 154.6 150.6 145.5 136.7 140.9 145.9 146.6 145.8 143.5 140.1 135.3
