ncols 200
nrows 85
xllcorner 320000
yllcorner 701250
cellsize 50
277.9 278.1 272.7 275.3 274.1 269 270.6 271.6 270.2 270.5 270.3 268.9 268.4 267.5 265.8 264.9 263 262.5 262.4 260.4 257.8 257.8 257.8 257.8 257.8 257.8 257.8 257.8 257.8 256.7 254.6 251.6 250.9 249.9 249.2 248.2 247 245.4 244.3 243.6 243.3 243.4 243.7 243.7 244.7 243.3 245.5 248 250.3 256.2 262.7 268.8 275 279.3 282.6 285.6 287.8 292.6 295.8 300.7 305.2 304.1 306.6 306 306.6 309.6 314.8 317.1 319.2 320.5 321.6 322 324 322.6 321 317.9 313.2 312.4 310.3 302.6 296.9 293.5 289.6 285.9 284.7 282.9 283.4 283.7 289.7 291.1 294.2 294 298.3 299.9 302.8 305.1 308.1 310 311.3 311.1 312.9 314.1 317.8 322.5 318.4 310.6 304.9 299.4 294.8 287.1 279.7 274 270.7 267 264.8 261.2 258.6 255.1 251.4 248.1 244.3 240.7 237.7 238.4 238.6 230.6 227.1 219.7 215.1 210 205 200.5 196.5 191 186 180.4 175 169.8 165.1 160.9 157 153.1 148.2 143.9 139.9 135.9 132.8 129.8 126.7 124.2 121.8 119.2 117.3 115.5 113.5 112.4 110.7 109.9 108.9 107.2 105.3 102.3 100.1 98.3 97.3 96.8 95.8 95.1 93.9 92.7 91.4 90.9 80.1 91.5 92.3 93.5 92.6 91.8 92.2 92.3 90.6 86.8 91.1 94.2 94.3 94.4 93.7 96.4 98.3 100.9 104.6 109.2 113.8 117.7 121.5 124.6 127.1 129.7 131.5 132.9
278.8 278.5 277.4 275.7 273.8 272.4 270.3 266.5 266 267.3 267.2 267.2 266.2 266.3 265.7 264.6 263.2 261.4 259.1 257.8 257.8 257.8 257.8 257.8 257.8 257.8 257.8 257.8 260.6 254 253.4 248.7 248.4 247.9 247.3 245.5 244.7 243.7 242.7 242.1 242.1 242.1 242.3 242.8 243.1 242.8 243.1 243.6 245.9 248.6 253.3 257.8 261 264.8 269 275.7 279.7 284.8 291.8 294.3 295.4 298.8 301.6 305.2 305.7 310.5 312.7 316.4 318 319.5 320.9 321.2 322.7 321.4 322 319 315.9 309.2 303 296.4 289.2 286.4 283.3 280.8 281.4 279.6 278.4 277.7 278 279.4 281 284.3 287.5 290.8 295.4 300.7 307.2 308.3 308.7 308.2 308 308.8 310.8 316.2 317.1 309.2 304.2 299.2 293.2 286.9 280.4 274 269.2 265.2 260.6 257.5 255.2 252.9 250.5 248.5 246.2 243.7 241.5 238.6 237.7 235 230.2 224 216.4 211.3 207.6 202.7 198.6 193.8 188.2 181.6 176.7 171.2 165.5 162.5 157.3 152.4 148.1 143.8 139.7 135.8 132.2 129.7 126.8 124.2 122 119.6 117 115 113.5 111.9 110.6 110.1 109.2 107.1 105.9 103.6 100.7 99.1 98.1 97.5 96.4 95.7 95.1 93.5 92.4 91.6 85.6 85.5 91.1 92.4 93 92.3 92.6 93.2 91.9 88.6 93 95.9 96.8 96.7 96.5 98.3 100.4 102.3 105.4 109.2 113.1 117.2 121 124 126.5 129 131.4 133.2
280.3 279.3 277.7 276.6 274.7 272.6 272 270.2 269.2 266.9 264.7 263.3 261.6 261.9 264.8 263.8 262.7 261.8 258.5 257.8 257.8 257.8 257.8 257.8 257.8 257.8 257.8 257.8 254 247.4 248 247.3 246.2 245.9 245.8 245 244.3 243.5 242.1 242.1 242.1 242.1 242.1 242.1 242.1 242.1 242.7 242.6 243.1 245.3 249.4 252.5 253.9 256 259 264.1 274.1 282.4 287.5 290.4 292 299.3 302.8 305.3 304.3 308.3 314.1 316.9 318.7 318.4 318 319.3 321.4 318.6 315 311.8 304.7 299.5 294.6 290.3 285 282.4 280.2 274.7 278.8 276.3 274.6 273.3 274 274.4 275.8 276.9 279.8 283.8 288 293.8 304.7 305.6 305.9 305.7 304.3 304.8 305.1 307.8 311.3 306.8 300.1 295.8 293 286.1 281.2 274.9 269.6 264.5 259.6 256.7 254.7 251.6 249.5 247.5 245.6 243.7 241.5 239.9 236.6 234.5 231.3 227.1 219.8 214.5 210.9 206.3 200 195.6 190.6 186.3 179.4 173.7 167.6 163.5 157.7 153 148.6 144.2 140.2 136.2 132.6 129.2 126.6 124.2 121.4 119.1 116.7 114.9 113.4 111.4 109.9 109.3 108 106.4 104.6 103.9 103.1 101 98.6 98.5 97.9 96.4 95.3 94.5 93.1 92.2 89.3 88.2 87.4 90.5 92.5 92.3 92.1 91.7 92.2 90.8 93.1 97 98.7 98.1 99.2 100.1 100.8 102.9 105.8 109 112.6 116.7 120.4 123.6 125.8 128.2 130.5 133.5
282.2 280.3 278.9 276.5 275.4 273.9 272.4 270.4 269.1 268.1 267.7 265.8 264.7 264.9 257.8 258.9 259.6 260.6 257.8 257.8 257.8 257.8 257.8 257.8 257.8 257.8 257.8 257.8 247 245.4 245.1 245 245.1 244.7 244.6 244.4 243.4 242.4 242.1 242.1 242.1 242.1 242.1 242.1 242.1 242.1 242.7 242.7 242.1 242.1 243.8 247.5 250.8 252.9 255.5 258.3 261 267.7 274.7 282.8 289.2 294.4 299.9 307.6 309.8 307.2 305.2 313.9 316.4 318.4 319.6 319.2 319 315.6 311.8 302.1 294 290.6 288 284 281.3 276.2 276.2 271.7 271.3 269.7 268.8 269.6 270.9 271.2 272 272.3 275.1 275.5 275.1 284.1 288.3 297.3 300.6 300.9 300.1 300.7 302.8 302.8 301 302.2 299.4 292.5 288.1 283.9 278.9 274.2 268.6 263.3 258.5 255.6 253 250.4 248.1 246.3 245 243.4 240.9 238.1 235.6 233.5 230.2 227.2 223.1 217.8 214.1 210.2 204.4 199.6 195.1 189.8 185 177.3 171 163.2 159.7 154.5 149.3 144.9 140.7 136.6 132.9 129.6 126.3 123.5 121.1 118.7 116.8 114.7 113.1 111.2 109.1 108 106.6 105.9 104.9 104.7 103.1 100.7 98.8 99.3 98.6 97.3 96.7 95.7 94 92.7 91.3 89.8 88.1 87.2 90 90.5 90.9 91.9 91.9 92.9 93.4 96.7 98.9 101.3 101.3 101.1 101 103 105.9 108.8 112.2 115.7 119.1 122.7 125.6 127.3 129 131.6
287.7 284.9 281 278.4 275.9 274 273.8 272.4 270.9 270 268.4 266.8 266.1 263.9 264.4 258.3 257.8 257.8 257.8 257.8 257.8 257.8 257.8 257.8 257.8 257.8 257.8 259.7 251.6 246.1 245.7 244.4 244.7 244.1 243.8 243.6 243.1 242.1 242.1 242.1 242.1 242.1 242.1 242.1 242.1 242.1 242.1 242.1 242.1 242.1 242.1 242.6 245.6 247.9 250.6 253.7 257.1 260.2 264.6 271.6 282.5 289.8 295.4 302.9 310 314.4 315.1 306.6 305.1 312.6 318.4 317.7 312.2 305.4 298.2 292.3 290 286.6 282.4 277.2 274.6 272.7 270.7 268.2 267.9 266.1 266.1 267.3 267.9 268.1 268.4 268.5 269.8 272 273.7 274.6 270.3 281 295 295.1 296.9 294.9 296.4 299.9 295.5 294.6 290.7 288.8 287.2 280.9 275.5 270.6 265.2 261.7 256.5 252.8 250.3 249.8 246.7 244.3 243.2 241.7 240 237.6 234.7 232.2 229.2 226.4 224 219.4 216.3 212.1 208.1 203.8 198.8 194 188.3 182.7 174.3 167.3 161.7 156.8 151.1 145.6 141.2 137.1 133.3 130 126.7 123.9 120.8 119 116.9 114.6 112.7 110.5 109 107 105.8 105.2 104.4 104 102.4 101.3 99.8 97.9 98.2 98 97.8 96.4 94.9 91.6 91.4 90.5 88.2 89.2 89.1 89.6 89.9 90.7 91.8 93 93.6 95.9 98.6 100.8 102.4 102.1 101.4 103 105.7 108.5 111.3 114.2 118.2 123.1 126.4 126.7 128.4 130.6
294.1 289.9 285.7 278.8 276.6 274.7 273.4 274 272.3 269.4 267.3 266.8 265.2 266 265.6 265 257.8 257.8 257.8 260.7 260.3 259.5 257.8 257.8 257.8 257.8 257.8 252 248.8 246.7 246 245.2 244.6 244.1 242.3 243.3 242.2 242.1 242.1 242.1 242.1 242.1 242.1 242.1 242.1 242.1 242.1 242.1 242.1 242.1 242.1 242.1 242.1 244.6 247.2 249 251.9 255.3 259.5 264.7 274.3 283.4 289.2 296.9 305.4 310 311.7 308.2 305.6 301.7 295.8 295.3 294.5 292.3 286.7 284.7 283.2 279.9 274.5 272.4 270.7 269.1 267.7 266.2 265.7 264.3 264.5 264.8 264.8 265.8 265.8 265.4 265.5 267.6 266.5 268.7 268.8 267.6 283.8 293.1 292.1 293.8 293.5 293.2 291.4 288.4 285.5 285.6 282.4 277.7 272.4 268.2 263.5 259.3 254.8 252.2 249.2 245.5 244.3 242.1 240.9 239.3 237.8 235.4 233.9 231.6 228.1 226.4 224.8 220.4 218.1 215.1 211 206.4 202 197.5 192.4 187.4 181 174.5 167 160 154 148 142.4 138 134.2 130.4 127.2 124.5 121.5 118.8 116.8 114.6 111.8 110.4 108.1 106.4 104.4 103.7 103 103 102.1 101.4 99.9 97.6 96.7 96.7 96.1 94.2 95.2 88.9 92.1 86.6 88.9 89.4 89.2 89.4 89.1 89.7 91.1 92 93.4 95.1 97.8 99.7 101.6 102.9 102.8 103.2 104.5 106.9 110.3 114.1 119.6 123 125.2 126.6 127.7 129.6
297.4 293.6 289 285.5 281.9 276.4 274.8 274.3 269.4 271.6 272.4 272.4 270.2 266.6 261 263.5 257.8 263.8 266.3 265.1 264.5 263.2 260.8 261.2 257.8 257.8 257.8 252.4 250.3 247.8 246.1 245.7 245.1 244.3 243.5 242.5 242.1 242.1 242.1 242.1 242.1 242.1 242.1 242.1 242.1 242.1 242.5 242.1 242.1 242.1 242.1 242.1 242.1 242.1 243.2 245.7 247.7 250.3 253.7 260.4 265.4 271.8 278.5 291.3 305.2 308.1 308.2 307.2 310.7 306.5 299 292.4 288.5 286.8 284.2 281.1 278.6 276.3 275.8 273.4 269.9 268 266.5 264.5 263.8 262.7 262.8 263 262.3 263 262.6 263 263 263.2 263.2 263.1 264.5 266.8 268 287 287.9 290 289.4 288.3 287 288.1 285.3 280.7 276.3 272.2 269.3 265.5 261.3 257.2 253.3 249.5 245.8 242.5 240.9 238.6 237.8 237 235.6 234.1 231.5 229.1 227.2 224.5 221.1 217.8 215.9 214.6 211.5 208.5 204.7 200.8 196.3 191.2 187.3 181.4 176.3 167.3 162.3 153.6 145.9 140.7 135.4 131.5 127.6 124.2 121 118.8 116.4 114 112.1 109.9 107.9 106 103.9 102.2 101.5 101.2 101 100.4 99.3 97.9 96.4 96.3 95.3 94.1 93.8 83.6 90.6 90.5 90 88.8 89.6 89.9 90.1 90.7 90.8 91.6 93.1 94.3 96.9 98.7 100 101.2 102.3 102.4 103.5 105 108.8 111.8 117.2 121.4 123.7 124.9 125.6 127.5
300.4 294.3 290.9 289.6 286.6 284.1 281 271.4 278.5 277.8 276.7 277 277 272.5 270.1 267.8 264.8 266.6 268 267.2 266.3 265.2 264.2 262.6 261.6 258.6 257.7 255.9 253.7 249.3 255.5 254.7 247.1 244.6 244 243.7 243.3 242.1 242.1 242.1 242.1 242.1 242.1 242.1 242.1 242.1 242.3 242.1 242.1 242.1 242.1 242.1 242.1 242.1 242.1 242.7 244.6 246.8 249.5 253.4 259.6 265.8 272.5 282.9 301 307.8 307.6 305.5 301 295.7 292.7 288.8 285.2 284.8 281.6 277.6 275.4 273.1 272.7 271.9 269.5 266.5 264.6 263.5 263 262.6 261.9 261.3 261.2 261.1 260.7 260.7 260.8 261.1 261.4 261.2 262.2 263.3 265.1 269.8 281.8 283.1 284.4 283.3 282.5 281 278.4 275.7 274.5 269.5 263.5 258.6 257.7 254.5 250.6 247.6 244.3 241.3 237.3 235.2 234.3 234 232.6 230.9 229.2 226.6 224.3 221.8 219.6 216.5 213.5 212.4 211.3 208.7 205.3 201.7 198.1 193.8 189.5 185.2 178.9 173.5 166.8 161.2 153.6 145.8 139.1 134.3 129 124.9 122.2 119.2 117.1 114.2 111.8 109.7 106.9 106.9 104.6 101.1 100 98.6 99.1 98.9 98 97 95.9 95.1 93.7 93.8 90.9 84 90.9 91.5 91.1 90.7 89.5 90.8 91.6 92.7 92.6 91.6 92.8 94 95.8 97.1 98.6 99.9 100.7 101.2 101.8 104.4 105.4 108.4 113.4 116.9 119.9 122.2 122.7 124.6
303.3 296.8 292 290.8 288.7 283.8 278.3 283.2 282.5 282.3 281.4 281.9 282 280.3 276.5 272.9 272.5 271.9 269.9 268.4 267.2 269.2 269 266.4 263.8 261.4 258.8 257.4 253.7 249.7 253.3 255.2 251 248.6 246.9 245 245.3 247.1 243.8 242.1 242.1 242.1 242.1 242.1 242.1 242.1 242.1 242.1 242.1 242.1 242.1 242.1 242.1 242.1 242.1 242.1 242 244.5 247.2 250.1 253.7 258.9 265.1 273.5 286.8 298.3 300.8 300.1 297 294 288.6 287.3 284.9 279.8 276 273 271.4 268.2 270.2 268.9 266.6 264.4 263.3 261.4 261.6 261.6 261.5 260.8 263 262.4 260.1 259.3 259.1 259.1 259.7 262.1 262.1 263.7 265.2 266.8 282.1 283.9 284.5 284.3 285.2 288.6 283.6 277.6 272.8 266 261.4 255.5 251.8 250.1 247.6 246.5 241.4 237.5 235.1 233.4 231.7 231 230.6 228.9 227.1 225 222.7 222 218 214.9 212.6 209.6 208.5 207.1 204.7 201.6 198.3 194.7 190.8 187.4 183 177.5 172.5 167.5 161.4 154.4 147 140 134.3 128.9 124 120.8 117.8 114.7 112.4 110.2 106.7 106.7 106 103 100.2 97 97.2 97.1 96.3 95.3 93.2 92 95.1 93.6 91 85.7 90.5 91.2 91.9 90.8 90.8 91.9 92.6 94 94.4 92.1 92.2 93.6 94.7 96.2 97.4 98.1 99.1 100 100.9 102.4 103.9 106.2 108.7 111.7 114.9 117.7 119.7 120.9
305.1 300.8 295.1 285.4 282.8 282.9 289.1 288.9 286.4 286.6 287.2 287.3 286.6 283.1 280.7 278.3 279.5 278.7 277.4 276.5 274.4 273.2 273 269.9 265.6 263.4 261.3 259.1 256.1 252 252.6 256.2 253.3 251.1 249.9 247.7 247.8 245.8 243.5 242.1 242.1 242.1 242.1 242.1 242.1 242.1 242.1 242.1 242.1 242.1 242.1 242.1 242.1 242.1 242.1 242.1 242.1 243.3 246.2 249.4 252.4 254.7 258.8 265.4 273.1 281 286.1 286.9 286.8 285.8 283.4 281.1 279.3 277.2 275.5 272.8 270.7 267.1 263.8 262.6 262.6 260.8 261.3 259.7 258.8 258.2 261.1 264.1 262.1 260.7 258.6 258.4 258.1 257.8 259.5 263.4 263 263.6 264.4 264.2 272.2 280 276.9 277.7 278.2 281.6 279.7 275.9 270.1 264.5 260.9 256.8 251.3 247.5 243.9 242.8 240.2 237.7 234.8 232.8 231.5 231 229.2 228.1 226.4 223.3 221.2 221.7 220.2 215.3 212.4 209.3 207.1 204.8 203.2 201.5 198 196.4 193.4 189.9 185.8 180.9 176.2 171.8 166.7 160.7 153.8 147.1 141.9 136.2 129.7 123.9 119.8 115.8 112.1 109.8 107.4 107.1 105.8 104.4 100.1 96.9 95.8 95.4 94.7 93.5 93.5 98.5 97.1 93.3 90.6 85.9 91.9 91.6 92.3 91.1 91.6 92.9 92.1 93.4 93.3 93.5 93.4 92.9 93.8 94.9 95.6 96.4 97.4 97.9 97.8 99.6 100.5 102.2 104.4 106.9 109.3 112.1 114.1 116.2
306.4 301.6 293.8 295.6 286.2 293.4 292.6 294.4 293.6 293.7 293.6 292.7 291.5 288.8 287 283.9 285.9 284.9 282.5 282.4 282.9 280.6 278.3 273 269.4 265.9 263.6 260.1 258 257.2 257.8 257.8 253.1 252 250.9 249.1 247.4 245.7 244.3 243.3 242.3 242.1 242.1 242.1 242.1 242.1 242.1 242.1 242.1 242.1 242.1 242.1 242.1 242.1 242.1 242.1 242.1 242.1 243.1 247.4 250.9 253.1 258.2 263.8 268.6 273.1 277.1 281.8 283.4 283.2 281 279.5 277.6 274.6 274.2 274.9 273.1 270.3 267 262.5 259.5 258.6 258 257.4 255.4 261.7 265.6 266.2 264.1 263.2 261.5 258 256.7 256.8 259.4 261.9 262.1 262.4 262.5 263.7 263.7 276.3 276 275 273.6 273.8 274.8 273.9 269.3 266.4 262.3 258.5 255 249.6 244.3 241.6 238.1 237.6 235.8 233.4 231.1 228.8 228.2 225.2 224 221.6 220.2 218.4 214.9 213.5 213.3 211.5 208.6 204.8 203.4 203 200.8 197.5 193.3 189.5 186.4 182.9 178.9 174.9 169.6 165.2 159.9 154.1 148.1 142.2 136.5 130.6 126 120.5 116.2 112.4 109.7 108.1 106.7 102.6 99 99.8 100.5 100.7 103.1 102.4 100.9 98.9 96 93.5 92.2 85.7 93.5 91.4 91.9 91.4 87.8 93.5 91.3 92 93.9 95 94.5 94.9 94 95.2 95.7 96.2 96.4 97.4 97.2 97.6 98.5 99 100.8 102.1 103.9 106.1 108.6 110.7
308.6 300.4 297.7 299.4 295.7 300.1 301.4 306.3 306.8 301.4 296.6 298 295.6 291.6 290.2 288.6 291.4 291.1 289.7 287.9 289.9 287.4 282.9 277.4 273.1 268 266.1 261 259.1 258.5 263.5 260.2 255.1 253.1 251.7 250.2 248.3 246.7 245.8 244.7 243.6 242.1 242.1 242.1 242.1 242.1 242.1 242.1 242.1 242.1 242.1 242.1 242.1 242.1 242.1 242.1 242.1 242.1 242.1 244 249.5 253 257.9 261 264.3 269.2 271.1 274.3 278 277.9 279.4 277.8 275.2 273.1 272.5 272.8 270.9 268.7 266.8 265.2 261.8 259.3 257.8 255.7 254.2 258.6 264.8 264.8 262.4 261.6 260.1 258.6 256.9 255.7 256.8 257.3 258.2 258.9 259.9 260.4 261.2 264.9 274.3 272.2 270.5 268.2 270.5 270.2 268.1 265.1 262.7 261 256.9 249.8 243.8 239.4 237.2 233.6 231.8 229.3 227.6 225.8 224.3 223 222.8 221.6 220.1 217.5 214.7 212.6 210.9 210.7 209.1 206.1 203.1 202.2 201.7 199.3 192.8 189.5 186.6 182.7 178.8 175.3 171.3 167.8 163.8 158.5 152.9 147.2 141.9 139.1 133.8 127.3 121.5 118 112.9 110 105.1 102.3 100.4 102.8 107.9 108.6 105.8 104.8 102 97.5 95.5 93.7 92.4 85.7 93.9 91.6 91.2 90.6 90.6 90.4 92.2 93.3 91.2 93.9 95.1 94.3 93.6 93.4 93.6 93.4 94.6 95.3 95.8 97 98.5 98.5 99.2 99.8 100.8 100.9 102.6 105.1
318.6 309.3 301.7 302.2 304.8 309.7 313.3 313.1 310 306.1 303.9 304.3 299.5 294.6 291.7 290.6 295 294.8 292.5 290.6 293.6 292.5 284.8 280.8 278.5 274.3 270.5 264.6 260.2 262.7 262.3 260 257.6 255.8 254.5 253.1 250.5 249 248.9 246.8 245.2 243.7 242.1 242.1 242.1 242.1 242.1 242.1 242.1 242.1 242.1 242.1 242.1 242.1 242.1 242.1 242.1 242.1 242.1 242.1 245.4 251.3 255.5 258.2 262.2 265.3 265.9 266.6 272.9 278.2 276.6 272.2 267.4 266.7 266.9 268 266.6 266.8 265.4 262.8 260.5 259.1 257.8 255.1 254.9 251.2 251.8 259.7 259.2 257.4 256.8 256 254.4 254.3 254.3 254.2 255.9 256.2 256.3 256.5 258.1 259 268.8 269.9 268.6 266.9 266.7 266.3 264.5 262 261.1 261 257.3 248.8 238.8 233.3 233.1 232.7 232.5 231.7 229 227.1 221.9 220.8 220 220 219.5 216.6 215.4 212.6 209.3 208.2 207.4 205.4 203.1 201.8 202 201.2 197.7 191.3 188.2 185.6 181.8 177.8 174 169.9 165.7 161.5 159.3 153.5 150.1 141.7 135.6 131.4 128.1 123.9 118.7 114.2 108.7 104.7 103.5 109.2 108.7 107.1 104.3 102.1 99.5 97.1 94.7 94 93.5 88.7 92.6 92.7 92 91.2 90.6 91.4 93.5 96.9 91 94 91.8 93.4 95 94.6 92.4 92.7 93.2 95 95.1 96.6 97.5 99 99.8 100.9 100.1 99 99.2 99.1
329.4 317.6 312.4 310.2 309.5 311 312.3 315 312.2 310.6 306.1 304.6 301.1 298.6 295.4 293.4 296 294.9 296.4 293.4 291 291.5 287.2 283 280.7 277.3 273.6 268.4 266.3 264.4 262.5 261.9 259.6 258.8 257.2 256.2 253.8 251.9 250.9 249.4 247.9 246.6 244.4 242.5 242.1 242.1 242.1 242.1 242.1 242.1 242.1 242.1 242.1 242.1 242.1 242.1 242.1 242.1 242.1 242.1 242.1 248.5 252.2 255.4 259.6 262 262.4 262.4 263 264.4 262.7 261.8 261 260.6 259.7 259.7 261.1 261.9 261.5 260.6 257.9 256.3 255.3 254.9 256 254.7 252.6 255 248.1 252.3 252.8 251.9 251.4 251.2 252.4 252 253.5 253.4 252.9 253.3 254.1 256 256.9 266.9 267.2 266.7 264.4 262.8 261.9 259.8 257.1 258.3 253.9 244 235.3 241.1 237.1 236.5 235.8 232 230.9 228.7 227.5 223.7 222.7 217.5 217.5 215.3 212.2 211.8 208.3 207.8 205.9 203.9 202.9 200.7 200.6 200.2 196.9 193.8 193.1 192.1 188.3 180.1 174.8 170.8 166.9 162.9 160 154.7 149.4 145.1 141.6 136.5 131.7 126.8 123.2 119.5 114.6 109.3 109.7 107.9 103.7 100.7 99.5 97.6 96.4 95.7 95.1 94.5 93.9 95.3 91 95.5 93.4 91.9 91 90.5 91.5 91.1 92.1 93.6 93.3 92.9 92.8 92.7 92.7 93 93.6 94.2 94 94.7 95.3 97.3 102 102.2 103.1 102.9 99.7 97.6
331.5 322.2 325.2 326.4 323.9 316.8 316 316.3 314.7 313.2 311.7 308.2 306.9 305.5 299.7 296.5 299.8 301.3 299.7 296.3 291.5 290.7 286.7 281.8 280.3 277.9 276.1 271.9 269.2 266.5 264.7 264.5 263.6 262.5 259.7 257.9 258.4 255.7 254.6 252.5 251.4 250.4 248.7 245.9 242.9 242.1 242.1 242.1 242.1 242.1 242.1 242.1 242.1 242.1 242.1 242.1 242.1 242.1 242.1 242.1 242.1 246.1 250.4 253.1 257.6 260 259.5 259.2 259 259.2 258.5 259 256.6 256 254.9 254.5 256.1 256.7 256.8 257.6 256 254 253.6 252.9 254.5 254.7 255.6 254.9 250.9 244.6 246.4 249 248.4 247.3 249.5 249.5 249.8 249.6 249.6 250.7 252.2 252.6 252.9 260.8 263.3 263.5 261.4 259.8 258.2 255.8 256 255.1 248.8 243.8 237.5 240.3 239.4 236.3 233.4 231.8 230.8 228.8 225.9 222.7 220.7 218.3 215.3 213.4 211.4 208.6 207 205.8 201.7 202.6 203 200.3 197.4 195.7 194.4 191.7 189.4 190.9 185.5 180.3 176.2 172.2 168.2 164.9 160.4 156.8 151.9 148.2 144.7 140.5 136.7 131.8 127.6 123.1 119.1 113.9 109.2 106.2 103.4 101.2 98.7 97.3 96.2 95.6 95 94.4 94.2 93.7 89.2 94.6 93.8 89.8 91.5 90.8 90.5 90.5 90.5 91.9 92.2 92.5 91.6 92.1 92.8 93.4 93.7 94.6 94.8 93.6 94.2 95 102.1 103.1 103.9 103.5 101.2 98.9
330.2 327.8 330.9 336.2 330.8 326.6 322.3 319.3 316.6 320.4 317.8 315.5 313 308.5 303.2 300.2 298.1 304.7 302.3 296.4 291.7 291.2 288.9 284.1 281.4 277.4 277.1 273.6 269.9 267.7 265.2 264.2 262.3 262.1 263 264.3 266.2 262.1 259.4 256.7 254.5 252.6 251.3 249.6 247.8 244.2 242.1 242.1 242.1 242.1 242.1 242.1 242.1 242.1 242.1 242.1 242.1 242.1 242.1 242.1 242.1 243.2 247.3 253 257.4 260.4 260.1 259 258.6 258.9 258.2 257 255.9 254 251.9 250.4 249.7 250.2 253.3 255.6 256.4 252.6 251.6 250.6 254.1 256.1 254.5 253.2 252.9 250.5 246.8 242.3 245.8 243.8 244.9 244.7 244.9 246.8 247.5 246.3 246.2 247.2 249.4 250.4 254.2 255.5 255.2 255.4 255.1 253.1 251.6 251.4 248.7 240.9 236.4 237.9 236.3 233.5 230.4 228.2 227 224.8 223.5 221.3 219.4 216 213.9 211.9 209 208.5 205.9 205.8 203.2 200.6 201 198.9 198.3 195.7 194 192.6 190.7 187.5 186 183.1 179.9 174.7 171 166.6 162.4 158.5 154.9 151.1 147.4 143.2 139.1 135.4 130.9 126.6 122.1 118.1 115.7 112 107.1 101.8 99.2 97.6 96.3 95.4 94.8 94.5 94.5 92.7 87.8 93.4 94.6 93.4 91.9 90.4 90.1 90.4 90.5 91.2 92.1 92.2 91.6 92.4 93.4 93.9 93.8 94.4 93.7 93.4 94.5 94.3 100 103.1 102.6 102.1 100 98.2
329.5 327.8 338.8 339.9 334.1 329.6 331.1 328.5 325.4 323.1 320.1 318 315.2 311.7 307.8 304.6 302.7 299.9 303.7 297.9 295.6 290.6 286.9 283.2 279.6 277.2 275.3 272.8 269.5 266.7 263.9 262.8 261.8 261.4 261.3 263.3 268.4 266.9 264.5 263.1 262.4 260.6 257.9 254.9 251.6 249.2 247 243.2 242.1 242.1 242.1 242.1 242.1 242.1 242.1 242.1 242.1 242.1 242.1 242.1 242.1 242.1 245.7 251.5 255 259 257.6 254.3 252.9 252.7 252.3 251.5 250.7 249.6 248.5 247.8 247.2 247.8 254.9 254.3 252.9 251.1 249.5 247.9 251.7 253.6 252.6 252.1 250.2 247.7 245.7 244.6 242 241.2 243.4 242.6 242.1 242.8 244.2 244 241.5 242 243.1 246.9 249.7 251.2 250.6 249.8 247.7 245.3 244.8 244 242.5 238.6 234.1 233.4 230.2 228.1 226 223.4 222 220.3 219.1 217.9 216.5 214.8 212.4 209.6 206.9 206.1 204.1 204.3 203.3 199.8 198.3 197.6 196.3 195.4 193.5 191.8 190 188 186.6 184.1 181.5 177.9 173.8 170 164.5 160.4 157 154.1 152.2 146.4 141.5 137.6 134.4 128.7 124.9 122.1 118.6 113.9 109.4 104.2 100.9 98.3 97.2 96.4 95.4 94.8 94.1 93.4 93 93.8 94.2 94.4 93.2 92 90.5 90.7 90.6 91.4 91.7 93.8 94.2 93.9 94.5 94.9 94.2 95.4 93.5 93.4 94.4 96.3 100.5 101.6 100.8 100.7 99.5 97.8
328.2 324.2 339.8 337.2 333.9 335.7 331.7 331.5 327.3 325.6 322 320.7 318.6 316.6 313.1 308.7 308.7 305.6 305.5 301.3 298.2 292.7 286.4 283.2 279.6 276.9 274.7 271.4 268.1 264.5 263.8 262.7 261.4 261.3 260.8 260.4 261.9 263.2 264.5 263.7 264.7 264.6 263.5 261.2 258.7 255.3 251.8 248.1 245.4 242.4 242.1 242.1 242.1 242.1 242.1 242.1 242.1 242.1 242.1 242.1 242.1 242.1 244.3 249.2 252.3 252.4 251.2 250 249.7 249 248.4 247.5 247.2 246.3 245.2 246.3 246 245.5 249.4 250.3 249.4 249.4 247.8 246.6 246.1 249.1 249.4 248 246.3 244.8 244.2 242.9 243.7 240.2 239.4 241.1 241.4 240.3 239.6 240.3 239.7 239.6 238.7 240.8 244 244.4 244 242.4 240.8 239.1 238 235.9 233.8 232 229.2 226.8 224.6 223.3 221.3 219.5 217.9 216.9 215.2 214 212.9 211.7 209.8 208 205.5 205.1 202.6 201.8 201 199.8 197.3 195.3 195.1 193.5 192.1 191 190.1 188.2 186.6 184.1 182.4 180 175.9 173.7 169.7 163.2 162.3 160.6 156 150.5 146.4 147 140.5 133.2 127.7 125 120.6 116.5 111.4 109.2 105 101.5 97.5 95.7 95 94.4 94.2 94.4 94.1 88.6 92.9 94 93.1 92.7 90.7 90.2 90.7 91 92.1 92.9 93.4 93.8 94.6 94.7 94.6 95.2 95.3 97.9 98.2 97.6 98.6 99.5 99.1 99 97.9 96.4
327.7 322 330 335.1 334.2 333.4 331.1 327 325.3 323.1 323.7 319.3 318.4 315.6 314.5 310.6 308.1 305.4 299.8 299.2 295.4 291.9 288.5 283.8 277.5 275.3 271.3 269 265.3 263.8 264.5 263 262.1 261.7 262.4 261 260.1 258.7 257.9 257.3 258.9 260.5 260.4 258.6 257.4 256.1 253.6 251.3 249.2 245.6 243.9 242.4 242.1 242.1 242.1 242.1 242.1 242.1 242.1 242.1 242.1 242.2 243.6 247 250.3 250.1 247.8 246.5 246.5 245.8 245.2 243.8 243.6 242.2 242.2 243.3 242.9 243.8 247.8 247.8 247.6 246.7 246.2 245.4 244.5 243.7 244.2 245.1 243.8 242.5 241.7 241 240.7 239.8 237.7 237.5 238.9 238.4 237.7 237.4 236.8 236.5 235.6 237.2 238.7 238.2 238.1 237.4 234.8 233.1 232.2 230.3 228.6 225.1 221.7 219.3 218.4 218.4 216.6 215.7 214.1 213.9 212.2 210.7 209.8 207.9 206.7 205.8 204 201.6 200 199.2 198.3 197 195.1 194.3 192.3 191.6 191.1 189.8 188.6 187.9 186.4 184.2 182.1 180.2 178 175 172.9 172.4 169.5 165.8 162.1 156.1 153.2 148.6 142.9 135 129.6 125.4 121.6 117.4 114.4 111 107.7 103.5 100.4 97.2 95.5 94.6 94.3 94.5 94 94.2 94.9 93.7 93.9 92.8 91.1 91.9 90.4 90.8 91.8 93.2 93.4 93.5 93.4 94.3 94.4 94.9 94.7 96 96.7 97.1 98.1 98.1 97.8 97.2 96.2 95.7
322 318.8 330.1 338.9 337.1 333.4 330.8 327.6 326.6 324.4 321.8 319.3 314.9 315.2 316 309.5 306.5 303.7 300.3 295.5 290.9 287.2 282.2 279.8 275.4 271.7 269.2 266 263.7 262.2 261.4 262.3 261.7 260.3 259.1 259.8 259 257.7 257.2 256.5 256.3 254.8 253.1 252.6 251.8 250.2 248.5 248.4 247.4 246 245.9 244.8 243.7 242.1 242.1 242.1 242.1 242.1 242.1 242.1 242.1 243.2 243.4 248.2 250.2 249.9 245.6 244.2 243.4 244 242.2 241.2 241.4 240.5 239.6 238.9 239.7 240.6 245.2 244.8 244.7 244 243.4 241.9 241.2 241 241.9 243.2 242.4 240.7 239.5 237.8 236.9 236.3 236.3 235.9 236.5 236.7 235.8 234.9 234.3 233.7 232.3 233.4 236.6 234.4 233.3 232.3 229.2 227.5 225.6 223.6 221.7 219.1 217.5 215.9 214.4 213.7 212.1 211.6 210.5 210.4 209.5 208.4 207.8 205.1 203.5 202 201.2 199.3 197.6 196.7 195.6 194 192.7 191.9 191.1 190.1 188.6 188 186.9 186.7 185.3 183.5 181.4 179.3 178 176.9 174.6 173.2 170.5 166.4 160 155.9 152.3 147.9 141.9 135.8 131.6 127.6 123.5 120 115.9 112.5 109.8 106.9 103.9 100.1 97.2 96 94.9 93.5 93.1 92.9 89.8 92.2 92.7 93.8 93.5 93.3 92.6 91.8 92.2 92.6 92.5 93.4 91.2 94.4 94.4 97.6 96.2 96.9 96.7 96.9 97.6 97.4 96.9 96 95.4 94.9
316.2 315.8 327.7 333.9 335.3 333.8 331 327.1 325.8 323.4 319.7 321.3 314.8 312.2 308.8 304.9 302.9 300 294.8 290.4 286.2 283.8 279 275.1 273 270.4 265.4 262.7 261.8 260.3 258.9 257.4 258.8 257.3 255.6 256.1 255.9 256.4 255.5 253.2 253.5 254.5 250.4 247.5 246 245.1 244.4 243.6 242.9 242.5 242.3 242.3 242 233 239.4 242.8 243.7 242.1 242.9 242.6 243.7 244.5 246.5 250.5 251.8 251.9 246.8 243 241.5 240.8 240.8 239.6 239 238.6 237.6 237.1 236.8 237.6 241.4 242.5 241.3 241.3 240.1 238.8 238.5 238.2 238.5 239 239.6 237.9 236.6 234.9 233.5 232.9 233 233.8 231.2 236.3 234.5 232.6 232.4 232 231.2 229.9 234.5 232.9 231.6 229.3 226 223.3 222.1 220.6 219.2 218.8 218.2 218 215.4 214.5 214.3 212.6 211.4 210.2 209.3 206.6 204 202.9 201.7 199.7 198.2 196.6 195.5 194.6 193.8 192.6 190.8 189.4 188.5 187.6 186.6 185.8 184.8 184.4 183.6 182.3 180 177.5 176.1 174.7 172.6 171.1 167.6 163.3 160.5 155.7 149.9 145.9 142.2 137.7 134 130.1 125.9 122 117.8 114.1 111.1 108 105.3 102.3 99.9 98.6 95.4 94.7 93.2 92.9 93.6 92.8 91.9 92.5 93.5 92.7 92.3 91.8 92 91.9 91.9 92.7 92.2 91.8 95.7 98.3 97.1 96.3 96.4 96.7 96.7 96 96.2 96.3 95.4 95.1
314.5 313 319 325.8 324.9 323.3 323.6 320 318.6 315.4 311.8 309 307.2 303.9 300.2 297.9 293.9 290.6 288.6 286 282.4 280.8 277.5 273 269.9 265.8 262.9 260.8 260.6 258.8 257.4 255.9 255.5 254.1 251.1 250.3 250.4 251.2 252.2 251.2 251.7 252.8 245.9 244.3 243 242.4 241.2 240.1 239.7 239.2 238.8 238.7 238.5 231.2 237.7 239.4 240.5 242.1 244.6 244.8 246.5 248.2 251 254.8 255.5 256.3 253.9 247.6 242.8 239.7 239.2 238.4 238.1 239.7 236.6 236.3 236.1 235.7 238.1 237.7 238 238.5 237.2 236 234.9 234.5 234.2 234.7 234.9 233.8 232.7 231.5 230.4 229.4 229.9 230.1 230.8 232.2 231.2 230.3 229.5 229.3 228.4 228 230.9 230.9 228.7 226.3 224.4 222.5 220.7 219 217.8 217.6 218.1 216.4 217.6 218.3 216.2 214.5 213.1 209.8 207.3 204.7 203.2 202.2 200.3 198.2 196.2 194.6 193.5 192.8 191.6 191.4 190.3 187.6 186.3 185.3 184.8 183.3 182.6 181.3 180.9 180 178.5 175.6 173.7 171.9 170.5 168.6 165 161.9 160.2 157.7 152.8 148.4 144.4 140.7 138.1 134.6 128.4 124 119.9 115.8 112.2 108.8 106.1 103.3 100.4 98.9 96.6 95 93.2 93.1 92.4 92 91.3 91.7 92.3 93.5 92.9 92.2 91.6 91 92.4 93.4 93.7 93.9 97.3 97.2 95.7 95.4 96.3 96.2 95.6 95.2 95.5 95.3 94.9 94.1
315.9 312.4 312.4 315.6 315.9 314.8 312 309.9 307.1 304.7 302.8 302.4 299.9 298.7 297.1 293.8 290.1 288.2 285.3 283.3 277 274.3 273.5 271.2 268.1 264.5 262.2 260.4 257.8 256.4 255 254 254.3 252.6 250 248.2 246.6 245.1 244.5 244.7 245.1 244.4 241.2 243 239.8 238.7 237.7 235.5 236.4 237.4 237.2 236.5 235.8 228.6 234.9 236.4 239.8 243.8 243.4 246.2 249.7 254.7 257 257.7 261.8 261.3 259.3 256.3 250.6 246.3 243.4 244.9 242.8 240.2 241.8 243.9 240.5 235.6 233.9 233.3 232.2 233.1 232.9 232.7 231.3 231 231 231.3 231.3 230.5 229.7 228.5 227.5 226.1 226.2 226.6 227 228.5 229.4 228.4 229.1 228.7 228.1 227.1 225.8 227.2 226 224.2 222.7 220.8 219.9 219.2 216.7 215.7 215.3 217.5 219.2 220.4 217.1 216.4 213.1 208.8 206.7 202.4 200.8 199.7 199.4 197.7 195.9 193.4 191.7 190.7 189.5 188.8 188.1 185.9 184.1 182.9 182.8 181.5 181.3 180.1 178.1 176.4 175.1 173.3 171.9 170.1 167.2 165.6 163.5 160.4 158 156 153.5 150.9 146.4 144.7 141.4 135.4 129.3 125.4 121 117.5 113.4 109.6 106.9 104.1 101.2 98.7 96.7 95.3 93.8 93.1 92.5 91.5 91.1 90.9 92.1 92.9 93.6 92.7 91.3 91.4 93.5 94.4 94.1 95.7 97.8 98.1 96.2 96 96.7 95.4 94.8 94.4 94.3 94.6 94.4 94
321.7 317.1 313.4 309.6 307.9 307.5 305.8 303.3 302 300.4 297.2 296.7 294.3 293 292.9 289.6 287.3 283.7 280.8 278.5 275.9 273.5 268.3 266.1 262.9 261.7 259.2 257.8 256.7 255.6 254.9 254.1 254.4 254 250.7 248.7 248.8 244.7 242.5 242 241.8 241.4 240.2 238.7 238.2 235.9 230.9 230.9 230.9 233.7 233.8 227.4 228.7 228.6 234.8 237.2 241.8 243.7 246.4 248 249.7 251.9 252.9 257.6 264.7 267.6 268 265 261.4 257.4 253.1 251 249.4 247 245.2 244.4 242.5 239.9 237.8 236.6 235.5 233.4 230.1 229.5 229.9 229.2 227.9 227.5 228.3 228.3 227.3 226.1 225.3 223.3 222.1 221.8 224.7 225 225 224.5 226.1 227.1 227 226.1 224.6 223 222.4 221.4 220.5 220 220.8 219.5 218.1 216.6 215.8 213.7 216.9 219.4 217.3 215.1 212.6 208.6 205.3 201.8 198.9 197.6 197.8 196.2 194.4 192.4 190.1 188.7 187.3 187 186.1 183.5 182 181.1 180.6 178.9 178.6 177.5 176.4 174.9 173.9 172.1 170.1 167.8 164.8 162.5 159.8 157.3 154.7 152.4 150.2 149.7 149.2 147.9 141.4 136.5 131.5 126.8 122.8 118.9 115.1 111.1 107.4 104.4 101.5 99.3 97 96.2 95 92.9 91.9 91 90.9 91.8 91.5 92.6 92.6 91.9 91.2 91.1 92.1 93.3 94.4 95.8 96.4 96.2 95.9 96.6 96.1 95.1 94.2 94.2 93.8 94.2 94 93.7
328.8 324.1 317.2 312.2 308 305.5 302.5 300.7 298.3 295 292.9 290.8 289.1 287.2 286.2 283.7 282 279.9 277.1 275.7 276.4 271.4 266.7 264.3 261.2 259.6 258 256.3 255.9 253.4 253 251.2 251.5 252.7 253.6 254.9 250.4 246.4 243 241 240.6 240.5 238.8 237.3 236.2 234.1 230.9 230.9 230.9 230.6 222.6 225.5 232.1 235.6 238.8 240.2 245.3 251.7 254.3 253.8 256.3 256.2 260.1 263.1 267.6 272 268.5 264.3 260.3 256.1 252.3 249.8 248.4 247.3 245.3 242.7 240.7 237.6 234.9 233.2 231.4 229.8 228.7 227.7 227.8 229.9 230.5 229.5 226.8 225.2 224.7 223.9 223.4 222.1 220.6 219.6 219.7 219.3 219.7 224.4 226.9 226.1 225.6 225 223.5 221.6 221.3 220.1 217 215.9 216.6 217.5 215.7 214 213.1 212.3 212.6 211.1 211.9 212.4 210.8 207.8 205.1 201.1 198.2 195.7 195.2 194.1 192.6 190.8 189.3 188.4 185.9 183.4 182.6 181.5 180.2 179.9 178.5 176.6 175.9 175.9 174.9 173.7 172.7 171.1 169.1 165.1 162.5 158.8 156.7 154 151.2 150.7 148.7 147.9 146.7 144.9 142.2 138.2 133.4 128.6 124.3 120.2 116 112.1 108.2 104.7 101.8 99.4 97.2 95.8 94.7 92.9 91.9 91.7 90.4 90.1 91.5 91.3 91.6 91.6 91 90.7 92.1 92.4 93.6 94.9 95.1 95.2 95 94.2 94.5 94.3 94.2 94.2 93.1 93.7 93.6 93.3
334.5 328.6 320.9 314.3 309.8 305.8 303.6 302.2 298.2 293.9 292 288.4 285.3 285 282.6 280.5 277.4 275.5 273.8 272.4 270.8 270.2 268.7 265.6 261 258.8 257.6 258.4 255.3 251.9 249.9 249.2 249.8 251 251.7 251.8 247.6 245.6 243.1 240.4 240 238.4 236.4 235.1 234.1 230.9 230.9 230.9 226.5 220.3 220.2 232.3 234 235.8 240.5 245.6 250.4 257.1 264 266.4 264.8 264.2 261.9 262 262.9 263.7 259.1 256.6 253.7 250.8 248.4 245.3 243.5 242.5 239.8 236.2 234.7 232.5 229.7 227.5 226.4 225.5 225.5 224.5 226.6 227.5 227.7 228.6 229.5 228.7 226.3 224 221.4 220.2 219.1 218.2 218 217.9 217.4 222.3 225.6 225.4 224.2 223.2 220.9 219.9 220.1 218.5 216.5 214.2 212.6 209.1 207.2 206 205.9 205.5 203.9 202.4 202.5 203.1 202.9 203.3 200.9 197.8 195.1 192 190 188.9 188.2 187.4 185.7 184.2 182.2 180.2 179.7 178.6 177.7 176.8 175.7 175 173.4 174 173.4 172.5 171.5 169.5 166.8 164.8 163.8 159.7 154.9 153.5 153 150.9 148.1 145.4 143.8 142.4 141 138 134.6 130.3 125.6 120.6 116.2 113 109.2 105.8 101.5 99.5 97.6 95.4 94.8 94.1 92.4 91.4 91.2 91 90.4 90.8 90.7 91.1 90.7 90.9 91.8 91.7 92.2 92.4 94 94.6 94.3 94.2 93.8 94.3 94.2 94.2 92.7 93.2 92.7 92.8
333.7 328.6 323.5 318 314.2 308.5 305.7 303.4 300.1 298.3 291.9 290.6 288.6 284 284.8 282.5 279.6 276.4 273.6 274.2 271.5 269.7 268.1 268 262.2 260.2 257.4 256.8 254.1 251 248.8 245.6 247.3 248 248.9 245.4 245.6 243.2 241.5 238.2 238.7 237.1 236.4 235.5 235 232.6 230.9 225.4 216.3 222.5 231.9 233.5 234.1 238.4 244.6 250.1 255.8 261.6 261.9 261.2 260.1 258.3 254.5 252.5 251.8 251.2 248.4 246.4 244.5 243.1 241.1 238.8 237.4 235.4 229.8 228.3 227.4 225.3 223.5 222.6 221.7 220.3 220 223.6 223.5 224.9 225.2 226 226.8 226.3 225.6 224.9 223.8 223.5 219.8 218.1 217.8 217 218.9 218 217.4 217.7 214.7 214.4 217.1 215.1 214.7 213.7 213.6 212.1 206.3 206.2 207.4 205.3 202.4 198.8 196.6 196.5 192.9 191.8 191.8 190.9 192.3 192.1 190.4 187.1 185.2 185 184.2 182.5 180.8 180 178.5 176.8 175.4 174.4 173.6 172.6 172.4 172.5 169.7 169.7 170.5 170 169.2 167.7 165.9 165.2 162.6 159.7 158.1 157.3 154.4 151.5 148.5 145.7 142 138.7 138.1 136 133.7 130 125.8 120.9 116.5 112.6 108.5 105.3 103.1 101.8 97.7 94.9 94 93.3 93.2 92 91.6 91 90.6 91.7 91.2 90.6 90.4 90.2 90.5 90.7 91.8 91 91.5 91.6 92.5 92.4 92.6 92.5 92.8 92.3 92 92.5 92.7 92.6
332.4 326.6 321.7 318.6 315 310.1 306.7 305.1 303.4 300.5 295.1 292.8 292.2 287.8 285.9 284 279.1 275.8 275.6 274.4 271.3 270.7 268.5 265.1 263.5 260.8 258.4 254.1 251.5 247.3 245 243 240.5 239.7 240.4 241.8 238.7 238.1 236.9 235 233.8 235.8 233.6 232.6 233.3 232.5 230.3 224.1 213.5 224.4 233 234.8 235.2 237.4 243.5 251.4 255.6 257.7 258.1 256.2 253.1 250.1 247 244.4 242 243.1 242.4 240.2 234.6 233.4 233.4 232.7 230.6 225.5 219.7 217.2 215.7 217.1 216.9 217.1 216.2 214.8 215 218.1 218.4 219.5 220.1 220.9 222.2 223.4 223.1 223.5 222.5 220.2 218.6 218.9 219.5 219 217.8 217.6 217.6 218.6 219.8 220 221.8 219.8 218.7 212.4 210.2 207.6 209.9 206.4 203 199.5 196.8 197 193.7 196.6 195.2 183.7 181.4 179.9 178.5 180.7 180.8 180.8 179.3 179.7 178.4 175.5 175.5 175 174.7 172.7 168.6 168.4 168.2 167.6 167 166.9 165.4 164.6 165.7 166.2 165.7 165.2 163.8 162.2 160.4 159.7 159.6 158 156.9 154.3 150.8 147.5 143.5 139.6 135.2 133 131.7 128.8 125.2 120.9 116.5 112.1 107.8 105.3 103.8 99.3 97 94.5 93.9 93.1 92.4 92.4 91.6 90.9 90.9 90.7 92.2 91.1 90.7 90.4 90.6 90.7 91.5 92 91.7 93.2 93.7 92.8 93.7 93.4 92.8 92.8 92.8 93.2 93.5 93.3
331.5 325.7 320.2 316.6 312.8 308.6 305.9 304.8 302.8 300.3 297.9 293.2 292.1 287.9 284.7 281.6 278.9 278.3 276.2 273.9 272 269.4 267.6 264.7 260.3 259.3 257 254.1 251.8 249.9 245 242.6 239.8 237.8 235.9 236.8 233.8 231.6 233 232.4 229 231.3 231.4 229.1 228 226.2 221.4 211.8 217.9 227.5 232.7 234.2 237.9 240.9 245.2 249.7 251.5 251.8 251 248.2 246.5 244.7 238.4 235.9 234.3 233.7 234.2 232.2 231 227.3 225.4 223.6 219.9 216.5 214.1 211.2 209 208.7 208.3 208.8 206.3 207.4 210.3 209.9 211.6 212.2 213.9 215.3 217.6 218.6 218.5 218.1 217.6 216.5 216.3 216.4 216.2 217.3 218.5 219.6 223.4 222.1 218.7 216.7 217 217.3 219.9 222 221.9 218.8 217.3 213.7 210.3 207.4 204.2 202.8 205.8 206.2 203.7 200.6 192 188.2 183.5 176.3 172 172.2 169.7 172 171.2 168.3 168.4 167.8 167.7 168.5 163 162.8 162.6 161.6 160.7 160.4 158.9 159.3 159.9 161 160.3 159.6 159.3 158.2 157.4 156.8 156 154.4 154.2 152.9 151.2 148.3 144.9 140.6 135.7 131.6 128.2 126.4 123.5 120.3 116.5 112.1 107.9 105.1 101 98.5 96.4 95.2 94.9 93.3 92.1 92 91.6 91.2 91.2 90.7 90.5 91.6 90.7 90.7 90.7 90.8 91.6 93.7 91.8 93.9 93.9 93 93.7 93.5 93.2 92.8 93 93.6 93.9 94
330.2 323.2 318.5 314.8 311.3 307.5 308.9 306.1 304.6 300.8 296.9 293.8 291.7 286.6 283.6 282.8 279.6 278.5 276.2 273.3 270.3 267.5 263.8 262.2 258.4 255.2 254 252.5 250 247.5 245.4 242.8 239.7 237.1 235.3 232.6 230.8 230 229.4 227.8 225.2 224.4 225.5 223.3 221.3 216.5 211.8 210.7 221.1 223.6 228.8 232 236.8 242.6 243.6 246.6 246 245.4 244.7 241.9 239.1 237 235.3 232.1 230.5 228.9 226.3 226.7 226.9 223.8 219.6 214.3 212.1 210.1 207.8 206.2 204.5 203.7 202.6 203.1 201.9 200.9 199.8 202.4 204.7 208.1 210.4 210.3 211.3 212.1 212.9 212.2 212.1 213.3 213.9 214 213.6 213.7 215.9 218.6 219.1 216.5 214.9 217.3 218.6 222.3 223.3 220.2 219.8 218.6 218.1 217.2 215.8 222 218.3 213.2 210 207.7 205.6 205 204.2 200.7 190.7 186.1 181.5 177.2 170.4 164.1 164.6 162.7 160.5 158.7 158.6 162.1 160.7 156.8 157.4 156.3 154.8 153.2 151.9 152.9 153.2 153.6 153.2 152.2 152.5 152 151.7 150.7 150.3 149.5 148.9 147.4 146.9 145.7 143.7 139.8 136.1 131.6 126.8 122.2 121.9 118.9 114.8 111.4 107.7 103.6 101 98.6 96.2 95.5 94.5 93.3 92.4 92.2 92 91.3 91.4 91 91.6 92.2 91.4 91.1 91 91.6 91.7 93.7 94.1 93.5 93.9 93.2 94.1 94.1 94.8 94.4 93.8 92.6 93.5 94.4
327.9 322.2 317.8 313.2 310.5 307.6 309.9 307.2 305.8 302.1 298.6 295.8 290.8 288.5 285.5 283.3 280 276.9 274.8 272.1 268.9 264.8 260.9 257.9 254.8 253.4 251 250.5 248.2 245.9 243.6 240.7 237.9 234.8 233 230.5 228.4 227.7 227.7 229.1 226 222.2 219.9 218.5 217 215.9 208.9 211.6 213.9 216.1 224.5 230.3 234 236.9 238.6 238.8 238.4 236.6 233 230.2 228.4 230.3 229.9 229.8 227.3 226.8 224.6 221 218.5 217.3 213.7 210.5 208.3 207.2 203.8 201.8 200.2 199.6 200.2 199.4 199.2 199.4 199.5 199.1 200.1 204.6 204.8 203.6 206.9 207.7 208.2 205.4 205.2 207.9 208.4 210.3 212.6 211.7 213.8 215.4 212.9 215.1 220.1 223.8 224.3 221.6 219.9 219.7 219.5 219.6 220.6 225.9 231.7 229.4 223.1 215.4 210.3 207.7 205.9 204.6 205.4 203.7 199 195.1 189.2 185.3 180.4 175.9 172.3 166.3 160.8 157.5 150.9 152.2 153.4 150.5 153.4 155.9 153 148.5 149.1 146.7 147.1 147.8 145.8 145.3 145.6 144.9 144.7 144.8 143.8 143.3 142.4 142 141 140.4 138.7 136.9 134.2 130.8 126.8 121.8 118.4 116.5 113.6 110.5 107.1 104 101.6 98.9 96.2 95.4 94.7 93.8 93.6 95 94 92.4 92 92.2 92.6 92.6 92.1 91.8 90.9 91.8 91.9 93.9 94.5 94.2 93.4 94.1 94.2 93.5 93.7 93 93.3 93.7 93.1 93.9
323.6 320 315.4 312.2 308.9 305.9 309 305.5 302.9 300 296 292.7 292.2 291.8 287.1 283.5 280.6 276.6 273.7 270.5 267.2 260.9 257.3 255.8 252.5 251.2 250 248.1 246.2 246 243 240.4 237 234.7 231.6 226.4 224 223.3 222.9 222 221.7 220.7 216.7 215 212.2 211.9 205.9 207.6 207.8 211.3 215.8 223 226.2 226.3 227.3 225.7 225 223.5 221.3 219.4 221.2 220.8 222.1 225.7 224.5 224.8 223.3 221.4 217.5 214.6 212.9 211 209.1 206.2 204.1 202.4 199.6 197.4 197.5 197.7 197.9 198.2 198.1 198.7 199.4 199.4 200.6 201.7 205 206.8 206.9 205.3 203.2 202.5 203.2 206.4 208.2 209 209.1 209.3 214 217.2 220.7 225.7 223.6 219.2 219.8 223.8 228.9 228.1 226.7 230.3 232.9 229.1 219.5 213.3 209.7 207.7 207 204.1 203.2 203.4 202.8 200.5 194.2 188 183.6 181.3 179.6 176.5 171.8 166.3 158.7 151.7 146.7 143.6 142.2 145.6 148.8 141.8 150.9 142.4 142.3 141.8 141.2 140.7 140.1 139.4 139.4 138.9 138.2 137.7 135.9 135.1 134.5 134.1 132.9 131.3 129.9 127.7 124.7 121.5 117.5 113.7 111.2 108.8 105.6 102.4 99.7 98 96.1 95.8 94.6 95.5 95.6 95.6 95 94.9 94.7 93.2 92.7 92.6 91.9 92.1 91.3 91.4 91.3 93.7 93.4 94.4 94.4 93.8 94.3 93 93 94.3 93.7 94 93.1 93.1
321.9 317.9 313.5 310.1 306.3 304.2 308.2 306.8 303.1 297.2 294.6 292.3 289 287.3 285.1 280.5 278.7 276.3 273.6 269.1 264.3 260.4 256.4 253.1 250.9 249.6 248.9 247.8 248.8 246.9 243.8 240.8 238.5 236.3 233.1 230 227.9 226.5 222.3 218.2 216.1 214.2 214 212 209.8 208.5 208.8 201.5 206 208.3 210.7 212.5 212 212.6 215.5 211.8 210.4 211.2 214.3 216 218.4 218.4 219.2 222.4 222.5 221.3 220.7 219.8 216.3 215 213.8 212.1 210.3 208.5 204.3 202.1 199.7 197.9 196 196.3 196.9 197.6 198.3 198.9 200.5 201.9 201 202.5 203.7 205.8 207.3 207.2 205.9 203 202.6 202.8 203.7 204.9 206.1 209 210.8 212 214.7 215.7 216.2 218.4 219.6 224.6 225.1 227.7 230.9 227.3 227.7 225.5 219.5 213.4 207.5 205.4 205.8 202.3 202.2 200.7 200.9 200.3 194.9 195.1 190.2 185.9 181.8 180 176.8 173.2 166.8 160.5 154.2 147.1 142.5 138.1 138.1 138.1 148.7 139.7 137.7 136.8 136.6 136.6 135.5 134.8 134 133.5 132.1 131.1 129.9 129.2 129.4 127.9 127.2 126 125 123.7 121.7 119 116.3 113 109.3 106.5 103.6 101.2 98.8 97.7 96.9 96.8 96.7 96.6 96 96.2 95.3 94.8 93.8 93.8 93 91.8 92.2 91.6 91.5 90.8 90.9 91.4 92.6 94.8 94 94.2 93.7 93.8 94.6 93.4 93.6 93 93.8 92.8
318.2 315.4 311.9 307.4 303.8 303.5 307.9 307.2 302.9 297.6 295 292.3 289.9 286.9 284.2 280.2 275.5 275.4 271.9 264.4 261.3 259.2 256.4 254.4 252.9 250.7 248.8 248 246.9 246 242.2 240.5 239.1 237.3 235.3 233.5 231.3 230.3 228.6 223.2 218.1 215 212.2 208.6 208.9 207.5 204.4 201.5 201.5 204 205.9 205 205 204.6 206.4 206.8 209.8 210.6 212.5 214.5 220.9 219.2 219.6 219.9 217.7 216.8 216.5 214.6 214.2 213.9 212.9 211.7 210.6 207.9 204.1 201.9 199.8 199.2 197.2 196.4 197.6 198.7 199.2 200.8 202 203 202.8 202.3 202.3 202.8 202.9 202.7 205.5 204.3 204.1 202.3 202.1 204.4 206.3 209 210 210 214 222.4 223 224.5 222.3 222.5 223 222.3 223.5 220.9 217.7 219.5 215.2 210.3 209.4 207.3 203.3 202.2 201.3 202.3 199.7 196.3 197.7 196.8 193.4 188.8 183.1 180.7 177.9 175.3 170.7 167.2 163 157.5 149.2 140.6 138.1 138.1 145.3 135.3 135.6 132.3 132.7 132 131.2 130.1 130.1 129.1 128.1 127.2 126 125 124.5 123 122.1 121.1 120.1 119.5 118 116.2 114.4 111.9 108.7 105.7 103.4 101.1 99 98.4 97.1 96 97.5 96.3 95.9 95.9 94.9 93.8 93.9 93.3 93.9 92.3 92.3 91.6 91.8 91.5 91.1 90.9 93.3 94.9 94.6 93.2 94.1 94.2 93.6 93.8 94.2 92.3 92.9 92.8
313.9 310.4 307.2 304 300.1 305.3 308.1 303.8 300.2 297.3 295.8 291.7 287.1 283.8 280 276.3 271.5 267.5 264.9 262.4 260.2 258.6 257.1 255.4 253.3 250.5 249.3 248.6 249.7 248.2 243 242 239 237.6 232.7 230.3 227.7 227.7 227.5 223.3 219.8 216.2 212.8 209.2 201.5 204.6 201.5 201.5 201.5 201.5 201.5 201.5 204.4 203.5 208 210.2 211.6 209.3 210.3 214.5 219.4 220.2 218.4 217.3 216.2 214.9 214 212.9 213.2 212 210.7 209.9 207.6 205.4 201.8 200 198.2 196.6 194.7 196.4 197.2 198.3 198.9 200.7 201.1 202.7 205 202.6 202.4 200.5 199.6 198.4 202.1 204.5 205 204.1 203.9 203.8 207 209.3 208.4 208 218.3 226.9 229.2 228.1 224.7 222.3 219.2 217.3 215.6 215.1 214.6 215 211.5 209.6 208.7 206.8 205 202.8 200.8 200.8 203 200.3 195.4 192.3 190.2 188.8 185.5 179.5 177.7 174 170.2 166.6 163.9 159.9 156.3 150 138.2 141.8 142.7 134.2 132.3 128.9 126.4 126.7 126.5 126.2 126.1 125.7 125.1 124.2 123 121.8 120.1 118.7 117.7 116.5 115.4 115 114.1 113.1 112.1 110 108.3 105.4 103.3 101 99.2 98.1 97.4 96.1 96.5 95.5 95.2 95.2 94.3 94.8 95.6 95.6 95.4 94.4 92.2 91.9 91.1 91.9 91.6 90.8 92.5 94.1 94.2 93.6 93.5 94.3 94.8 93.9 93.8 92.4 92.9 92.8
313 311 306.6 299.1 298 303.3 304.1 304.1 302.2 299.1 298.6 292.9 288.1 284.8 280.7 277.9 274.9 270.8 266.9 262.7 257.7 255.5 253.9 252.3 250.4 249.1 248.5 247.8 247 245.4 244 243.1 240.7 234.3 236.1 235.7 234.5 231.2 228.1 227.8 218.9 216.5 211.3 209.2 204.4 201.5 201.5 201.5 201.5 201.5 201.5 201.5 201.5 201.5 201.5 204.6 204.3 207.7 208.4 210.4 213.6 214.3 213.6 209.7 208.9 208.9 210.3 209.8 208.5 205.2 202.3 199.5 197.4 196.5 193.7 192.2 190.8 190.1 188.1 190.6 192.5 194.2 194.9 197.3 197.9 201.3 203.9 202.9 200.9 198.1 196.5 195.3 198.3 201.7 200.4 204.8 204.3 199.9 203.6 204.6 204.9 209.6 219.6 222.1 225.4 225.2 223.8 223.9 222 215.5 210.1 211.9 212.9 211.5 209.7 207.5 205.9 205.3 204.5 201.3 198.1 197.1 200.3 201 197.7 192.7 189.6 186.3 184.1 180.8 177.8 174.9 170.7 167.7 164.6 161.7 159.1 154.8 148.9 149.3 145.2 138.6 134.1 132.3 129.6 127.3 123 120.4 122.8 122.4 122.1 121.2 120.1 119.2 117.4 116.5 114.5 112.6 111.2 110.2 109.4 109 108.7 107.5 106.5 105 102.7 101 98.4 97.8 97.4 96.3 95.6 95 94.7 94.9 93.7 94.4 95.9 95.9 95.8 94.7 91.5 92 91.8 90.7 91.6 91.7 92.7 94.5 94.6 92 93.5 95.3 95.1 94.6 93.9 92.5 93.1 92.9
314.6 310.5 306.9 302.3 295.3 307.6 307 304 300.6 296.7 295.9 293.1 288.2 286.3 283.5 280.4 275.5 271.8 267.2 258.5 259.2 257.2 258.7 254.7 257.2 258.1 255.7 252.7 249.5 250.3 249 248.8 243.9 246.9 247.8 240.5 239.7 237.3 234.6 231.4 226.6 220.6 216.6 213 208.6 201.5 201.5 201.5 201.5 201.5 201.5 201.5 201.5 201.5 201.5 201.5 201.5 200.7 205.2 204.5 207 207.4 204.5 198 200.8 197.6 197.3 195 192.6 191.3 190.6 189.7 188.3 187.5 185.8 185.2 185.2 185.2 185.2 185.2 185.2 191 192.3 194.4 196.8 200.3 201.5 200.7 199.7 196.1 193.4 191.9 195.5 197.4 200.8 201.9 198.4 201.7 202.1 199.9 203.4 213 212.1 213.3 214.4 215.5 217.3 219.6 222.1 216.2 211.6 208.6 207.8 208 205.9 204.3 203.4 202.9 202.5 200.5 195.9 192.2 194.6 196.9 193.9 190.4 186.4 184.2 182.2 181 178.3 175.4 171.6 168.5 164.6 161.2 158.3 155.2 152.3 149.5 148.3 141.4 138.9 134.2 131.1 128.9 127.1 123.2 119.9 119.5 119 117.6 117.2 116.6 115.7 114.8 113 110.4 108.4 106.4 105.7 105 104.8 104 102.7 102.3 100.3 98.9 98.3 97.7 97.8 96.9 96 95.4 95.3 95.1 94.2 92.9 95.7 96 95.8 95 91.9 90.9 90.7 91.6 91.5 92.3 93.3 93.8 93.6 93.1 94.4 94.8 94.9 93.9 93.3 94.4 94 92.8
313.5 309.5 305.4 300.9 292.7 304.6 304.8 302.5 298.3 293.7 290.5 288.5 287.6 286.2 283.6 279.8 275.5 272.2 266.6 267.1 269.8 265.8 265 262.8 261.8 259.4 256.8 255.4 253.5 252.8 252.2 252.1 249.5 251.7 250.8 244.8 242.5 238.2 235.3 234 229.7 224.7 219.1 211.5 206.7 201.5 205.6 201.5 201.5 201.5 201.5 201.5 201.5 201.5 201.5 201.5 201.5 196 197.9 198.8 198.5 196.2 194 191.1 190.7 190.5 190.4 189.2 189.1 189.6 190.1 191.3 192.9 192.2 191.6 190.3 186.5 185.2 185.2 185.2 185.2 185.2 189.3 191.2 194 197 197 197 196.6 195.5 194.6 191.3 189.4 191.7 197.5 194.9 195.1 194.2 199.6 198.5 202.3 205.3 205.7 206.1 207 210 211.8 211.7 211.7 211 208.4 207.5 207.3 205.6 204.3 202.7 201.6 202 201 197.4 194.3 189.8 187.5 188.7 187.5 185.6 183.4 181.8 181 179 177.3 173.8 169.2 166.9 163.9 159.8 156.4 153.9 151 148 147.1 143.6 139.9 137.1 133.7 130.1 127.6 127.6 121.9 116.1 116 114.7 114.8 114 114 113 110.6 109.3 107.6 105.5 103.7 102 101.2 100.6 100.2 99.9 98.9 98.6 98.2 97.8 98.1 97.1 96.1 97.1 96.6 96.1 95.6 94.7 94.1 95.9 95.7 93.4 91.3 91.1 90.9 90.7 90.1 91.6 93.2 92.3 93.7 94.3 95.4 94 94 93.6 94.7 94.5 93.6 93.4
312.5 308.2 304.3 299.7 291 297.5 300.6 297.7 292.2 288.1 283.4 281.5 279.7 278.1 277 275.7 273.5 272.4 269.2 265.4 268.2 269.6 266.1 264 261.8 259.9 258 256.9 256 255.8 255.2 252.7 253.4 253.3 250.2 245.7 243.5 238.2 235.9 233.3 226.9 218.1 212.5 209.6 209 207.7 207.3 203.6 201.5 201.5 201.5 201.5 201.5 201.5 201.5 201.5 202.3 193.4 193.2 191.6 190.8 190.4 190.2 189.8 191.2 190.9 191.1 193.2 198.3 196.3 196.2 199.2 197.4 196.4 195.1 194.2 191.2 188.4 185.2 185.2 185.2 188.2 188.8 190.5 192.5 193.8 193 192.8 192.7 193.3 195.6 189.9 187.4 187.8 189.3 187.5 189.3 189.7 191 193.1 195.6 200.2 200.6 204.1 203.2 204.4 203.9 204.5 204.9 208.3 207.8 206.6 205.5 203.9 202.3 201.5 200.8 199.8 199.9 198.4 194.9 190.5 184.4 184.9 185.1 183.7 183 183.7 182 177.3 175.3 170.8 169.3 166 162.9 159.6 156.2 152.4 149.2 147.4 145.5 143.7 140.8 137.6 134.9 132.2 129.1 127.6 125.8 124 115.2 112.6 112.1 112.3 110.9 109.6 108.9 108.8 107.4 105.4 103.2 101.9 101.1 100.5 99.9 99.2 99 98.4 98.2 98.2 98.4 97.5 97.6 97.4 96.7 96.2 95.8 95.1 95.7 96.2 91.9 92.2 94.6 94.7 91.9 91.6 92.2 94.1 90.9 93.2 92.9 93.9 94.9 94.5 93.5 94.5 94.6 94.1 93.9 93.3
312.6 308.2 303.5 298.5 293.7 288.1 285.3 284.2 281.9 278.3 276.2 275.3 274.3 273.9 273.1 272.5 272.2 272 270.2 269 267.8 266.7 268 265.1 263.5 261.1 259.1 257.9 257.4 257.4 256.5 255.4 255.7 252.8 247.7 245.5 243.3 237.7 234.1 228.7 222.2 216.8 215.1 213.3 212.8 212.2 210.1 208.2 205.5 201.5 201.5 201.5 201.5 201.5 201.5 201.5 194.2 188.8 189.9 189.2 189 189.4 191 190.8 193.4 197.3 200 200.2 199.2 198.6 198.6 197.8 197.1 195.6 192.8 191.1 188.5 185.2 182.9 179.6 180.3 188 188.2 188.3 188.4 189.3 188.9 191.6 193 190.2 187.1 185.7 184.8 182.6 181.5 180.5 181.2 182.9 186 186.1 187.7 191.6 193.8 192.8 193.1 193.7 193.8 195.6 202.2 206.4 204.7 202.8 204 202 199.5 198.7 196.4 196 195.9 194.3 190.9 186.5 183.5 180.5 180.7 180.6 180 182.3 181.3 177 171.1 168.3 168 165.5 162.6 159.5 155 151.8 148.8 145.7 143.9 141.6 140 136.8 134.2 131.8 129.7 127.5 125.5 123 121.4 118.5 115.7 112.6 110.5 111.3 106.5 106.4 106.4 104.9 103.3 102 101.1 100.4 100 99.3 99.2 98.5 98.4 98.5 98.6 98 97.7 97.3 96.8 96.4 96 94.7 94.8 92.7 91.5 95 95.5 95.5 95.2 94.8 94.7 94.8 93.4 95.3 95 94.2 93.7 94.4 93.8 94.4 95 94.6 94.1 93.8
313.5 309.1 304.2 299.6 295.1 292 287.2 284.3 280.6 278.3 277.4 276.2 275 274.4 273.8 272.5 271.8 271.2 271.4 270.7 273.2 270.8 266.3 268.7 264.8 263.8 261.1 258.8 258.6 257.4 257.1 258 255.5 252.7 247.4 244.1 237.2 233.5 230 226.7 221.8 220.6 216.9 217.6 216.1 214.9 212.8 209.3 208.6 207.4 203.3 201.5 201.5 201.5 201.5 201.5 190.3 189.6 188.2 190 191.7 194.9 197.8 194.3 191.9 192.3 192.7 191.2 191.1 189.5 190.1 189.9 190.1 187.8 184.3 181.8 180.8 178.4 176.7 171.4 176.2 182.4 186.2 185.6 184.8 182.8 185.9 187.1 185.4 181 177.3 176.5 176.4 174.1 173 171.9 172.9 174.7 177 177.7 178.6 181.7 184.1 184.1 182.8 185.4 187.5 186.5 196.2 199.4 199.7 199.5 199.8 197.7 195.9 195.3 193.4 191.2 189.9 189.2 186.5 183.3 179.9 178.8 179.1 176.8 173.8 172.9 174.9 173 172 166 166.5 164.7 162.4 158.9 155.4 151.5 148 145 142.7 140.4 138.2 135.2 132.1 129.8 128.7 126.9 125.7 123.5 120.9 117.7 115.5 114.6 113 112.4 109.9 106.1 105.3 104.4 103.6 102.2 101.5 99.8 99.6 98.9 98.8 98.1 97.4 97.6 98.5 97.9 97.5 97.2 97 96.8 96.2 96.4 96.5 95.8 95.3 95.9 95.8 95.5 95.5 95.4 95.2 95.2 95.4 89.7 95.2 94.9 94.2 94.1 94.4 94.4 95 95.1 94.7 94.6
314.5 310 304.9 301.2 297.1 293.9 289.6 286 284.2 282.2 280.5 278.6 277.5 276 274.7 274.2 273.8 272.8 272.2 271.7 274.1 273.3 270.6 265.9 263.2 262.5 263.3 260.9 258.6 258.4 258.8 256.4 252.6 248.7 244.1 239.3 235 232 228.5 224.1 224.4 221.2 218.3 219.5 218.4 217.2 214.3 213.7 212.9 209.6 207.1 201.5 201.5 201.5 203.5 195.7 193.3 190.4 191.5 194.6 197 200.8 202.4 202.1 198.8 193.6 192.3 190.5 187.9 186.4 183.7 181.7 180.6 179.6 177.3 175.6 174.1 173 171.4 168.5 171.9 174.9 182.8 184.2 181.4 176.7 177.2 176.1 174.6 173.8 171.9 170.4 169.6 169.1 166.6 166 168.2 169.2 169.9 170 171.6 173 174.8 176.9 178.6 182.4 185.5 180.4 187.5 190.5 191.6 192.1 192 191.9 191.9 191 189.4 188.3 187.1 186.3 183 182.5 180.6 179.4 177.4 178.3 178.6 173.2 171.1 173.1 172.8 169.5 164.3 161.6 159.7 156.7 154.3 151.1 146.4 144.4 140.8 138.6 136.2 133.7 131.4 129.4 127 125.8 123.5 121.2 118.7 116.9 115.4 113 111.6 109.5 109.1 107.3 104.2 103.9 103.2 102.5 101.7 100.9 99.5 99.1 99 98.5 98.2 99 97.8 98.1 98 97.9 97.6 97.2 97.2 97.3 96.8 96.6 96.3 96.1 95.7 95.7 95.7 95.6 95.4 95.5 95.5 93.6 95.4 95 94.4 93.9 94.7 94.8 94.6 94.9 95.3 95.2
309.6 307.7 304.1 300.8 297.5 293.3 289.4 286.2 283.4 281.3 279 276.4 275.2 275.1 274.2 273.1 272.6 272.5 272.7 273.5 273.7 273.4 272.3 270.8 266.5 262.3 261 261.3 255.1 256.8 255 252.7 247.8 242.8 238 234.3 230.4 227.2 224.2 222.9 220.5 218.3 218.9 218.7 217.5 217.5 217.6 218.2 218.7 214.8 210.6 207 201.5 203.1 199.3 196.3 194.7 189.5 187.1 194.1 195.5 201.1 201.2 200.9 200.9 201.3 198.5 197.9 192.3 189.6 186.2 183.7 181 178.3 176.6 174.6 172.7 171.2 170 167.4 168.7 169.5 174.1 177.6 173 170 172.1 170.2 168.8 170.4 169 167.2 165.2 164.5 162.4 160.8 162.5 163.5 164.3 163.9 165.5 166.6 168 169.2 172 174.4 176.3 176.6 181 183.2 186.2 186.1 185.2 186.4 185.6 185.8 185.1 184.7 185.1 184.6 182.9 180.4 180.1 178.2 175.7 173.8 173 172.9 171.8 172.3 171.8 170.4 165.8 159.9 156.7 154.4 151.7 148.6 145.9 144 140.5 137.9 135.9 132.9 130.7 128.2 125.7 124.1 121.4 119.2 117.3 114.9 112.7 110.6 109 107.6 106.8 105.5 102.8 102.8 102 101.8 101.4 101 102.1 102.7 102.4 100.6 98.8 98.2 98.1 98.4 97.9 97.1 96.6 96.7 96.1 96.5 96.4 95.7 96.1 95.9 95.7 95.9 95.9 95.8 95.6 95.7 96 95.6 88.5 94.6 93.9 94.1 95.1 94.8 94.6 94.9 95.8 95.8
293.9 293.3 293.3 289.7 288.9 285.9 282.9 279.1 275.7 272.7 270.3 268.6 267.4 266.7 266.5 265.9 266.5 267.5 269.3 271.1 271.8 271.7 271.1 269.2 267.6 262.4 257.7 251.4 251.6 250.3 245.8 242.5 240.2 236.7 233 229.7 227.5 224.9 223.6 221.8 219.1 219.4 218.8 218.3 218.5 218.5 218.3 218.9 218.9 217.7 213 208.5 206.2 203.2 201.7 198.7 196.1 192.7 180.7 183.4 185.6 188.6 193.4 196.3 196.2 197 195.5 194 193.6 190.2 188.2 185.6 182.4 178.7 176.6 174.3 172.1 170.8 169.5 166.3 163.5 165.1 164.7 164.8 164.7 166.2 168.3 166.6 163.3 163 162.8 160.7 158.2 157.9 157.6 155.2 154.3 155.9 157.7 156.8 159.5 160.3 161.5 162.2 165.7 167.4 168.7 170.9 172.4 174 175.3 179.4 180.6 182.8 182.5 182.2 182.7 181.8 182.5 181.9 180.6 179.7 177.1 175.7 176 177.3 176.5 175.6 172.7 170.7 168 167.1 161.4 159.2 156.2 152.9 150 147.7 145.4 143.6 139.7 137.6 135.9 132.4 129.9 126.5 125 122 119.6 116.5 114.9 112.3 110.6 108.9 107.9 104.3 103.3 102 100.9 100.5 102.2 102 100.9 100.2 99.9 99.3 99 98.8 98.4 97.9 97.5 97.8 97.1 96.1 94.4 95.3 95.3 95.2 95.3 95.4 95.6 95.5 95.2 95.3 95.3 95.1 95.2 95 95.3 95.5 95.7 93.9 93.9 95.1 94.9 94.3 94.1 94.6 95.5 96
280.9 278 275.5 273.7 272.6 271 267.9 265.7 263.7 261.9 260.1 258.7 257.8 257.6 257.8 257.7 258.5 259.4 260.9 264.1 266.3 265.2 267.5 264 260.3 256.1 252.9 247.7 244.9 243 240 237.7 235.4 233.1 230.7 227.8 226.3 224.1 224 222.8 221.7 220.8 220.4 220.1 219.8 219.2 218.3 217.8 216.9 214 211.8 207.6 205.7 202.5 200.2 196.9 195.3 193.3 190.5 187.8 180 178.6 178.9 181.2 182.1 180.9 181 180.4 179.9 180.6 181.1 179.3 176.2 174.8 173.1 171.2 169 167 165.7 162.6 159.2 163.1 161.4 159.3 159.9 162.5 163.2 160.8 157.5 158 156.6 153.5 150.7 150.1 151.5 150.2 149 147.6 148.1 149.2 151.9 152.7 154.3 155.7 158.5 160.5 162.2 164.5 164.4 166.1 168.5 170.9 174.8 175.4 177 179.4 179.4 179.5 180.2 180 180.3 177.8 175.4 175.2 178.9 178.7 177.4 176.2 174.2 169.6 168 164.8 162 160.1 156.8 153.8 152 147.6 145.6 143.7 140.7 137.7 136 132.4 130.4 127.3 123.9 121.1 118.8 116.1 114.1 111.4 109.2 106.4 105.5 102.4 102.2 101.3 102.7 102.6 102.3 100.9 100.3 100.3 99.2 99.7 98.7 98.7 98.7 97.8 97.6 97.4 96.4 95.2 93.9 93.6 94.3 95.5 95.4 95.3 95.2 94.8 94.2 94.7 94.8 94.8 95.2 94.4 93.9 93.4 94 87.9 95.4 95 94.5 93.6 94.7 95 96 96.6
271.8 268.8 266.1 263.5 260.8 259.7 257.7 256 254.8 253.6 252.2 251.1 250.6 250.3 249.9 250.4 251.1 252.6 254.2 256.1 256.8 256.7 255.3 254.3 252.1 249.3 246.4 244 239.8 238.4 236.1 234.1 231.7 230.1 227.9 226.7 225.1 223.6 222.7 222.1 221.1 221.7 222 221.8 221.2 219.1 216.3 213.5 211.8 210.9 209.2 205.7 204.5 200.8 199 195.3 193.3 192.4 189.6 187.2 184 181.8 180.1 176.4 177.2 175.2 175.8 175.3 175 173.8 173.2 172.1 172.3 170.8 169.5 167.5 165 162.7 161 160.3 158.1 159.9 158.8 156.6 156.6 156.8 156.8 156.3 155.1 154.1 153 150.8 149.4 147.8 146.9 146.1 144 143.7 142.9 142.2 143.2 143.6 144.9 147.7 149.7 153.3 157.4 158.5 160.5 162.7 162.7 162.8 165.2 167.4 169.5 170.8 172.5 174.2 173.8 176.8 176.5 174.6 171.1 174.3 176.8 176.6 174 173.6 172.9 169 167.1 164.4 162.5 159.2 156.6 155 153.2 150 147.1 144.6 142.8 140.9 138 134.8 131.2 127.7 124.8 122.6 119.3 115 112.4 112.1 108.2 104.3 101.6 102.2 102.5 101.1 100.6 101.3 100.5 99.6 100.2 99.5 99.9 99.1 97.6 98.2 97.8 97.6 96.7 96.3 95.2 96.1 94.3 94.2 94.7 95.5 96 94.6 94.8 95 95.6 95.4 95 94.8 94.5 94.4 95.5 95 95.6 94.5 95.7 96.4 96 95.2 95.9 95.5 96.4 97
264.9 261.9 259 256.3 253.6 252.2 250.3 248.4 247.3 246.2 245.1 244.6 244.2 243.9 244 244 246 248.1 250.2 251.5 251.8 252.1 251.3 249.1 247.2 245.9 243 240.6 238.3 236.9 235.3 233.2 229.6 227.3 227.1 225.3 224.1 223.1 221.7 221.3 220.8 221.3 221.9 221.2 218.5 217.8 216.8 214.7 211.9 207.9 205.9 205.3 205.8 204.4 201.3 199.5 197.5 193.1 190.5 186.5 184.5 183.5 182.2 179.3 174.1 171.3 171.4 170.6 171.7 171 170.5 167.5 168.2 166.5 165.1 164.2 162.5 160.1 158.7 157.5 156.5 155.9 154.2 152.9 154.4 155.2 154.4 153.8 153.1 152.1 150.7 149 147.7 146 144.1 143.6 142.1 141.3 140.8 140.1 139.4 139.5 140.1 143.8 142.4 145.4 151.8 156.2 156.9 158.1 158.8 160.4 161.6 162.3 163.4 164.1 165.1 167.4 169.9 171.2 172.1 170.1 167 168.9 172.2 173.6 172.7 171.4 169.2 168.5 166 164.5 161.7 159.1 157 154.4 152.5 151.6 150 147.4 144.7 142.6 139.8 137.5 134.2 130.9 127.4 124.6 120.7 118 113.9 108.4 104 103 104.1 103.6 103.2 103.4 100.4 99.9 100.5 100.6 99.7 99.8 99.8 99.4 98.1 98.2 97.8 96.3 97 94.1 96.3 98 98.9 99.4 98.2 95.3 94.5 93.7 94.3 95.1 96.5 98.4 96.7 95.9 95.7 96.4 97 97.1 96.8 97 91.4 96.9 97.4 96.6 96.9 95.8 97.2 97.1
257.8 255.6 252.7 249.3 247.2 245.2 243.6 242.4 241.5 240.4 239.5 239.5 239.4 239.6 240.6 241.5 243.2 246.8 251.3 251.2 253.4 254.5 251.3 254.5 252.8 251 247.9 244.2 240.5 237 234.7 232.8 230.1 229.8 227.6 226.4 224.3 222.6 221.3 220.8 221.2 220.6 221.5 221.9 229.5 228.3 225.5 221 217.8 213.5 209.7 207.1 207.1 206.8 205.5 204 204.2 204.1 200.8 195.3 192.3 191.3 190.4 188.1 183.6 178.7 174.6 170.9 171.4 167.6 166.3 165.2 163 165.5 166.9 164.7 164.8 161.2 157.6 154.7 155.3 153.8 151.6 150.4 151.3 154.7 153.3 151.9 151.5 150.9 149.4 147 144.5 142.2 140.8 140.4 140.1 139.4 139.2 138.6 137.9 137.3 138.1 138.2 139.1 139.3 144.9 150 153.5 156.1 156.9 157.5 157.9 158.8 160.7 161.2 161 162.1 164.8 165.2 167.3 167.4 165.7 166.1 168.9 168.8 168.1 167.8 167.5 165.9 163.6 162.2 159.9 157.1 155 153 150.5 150.3 149.4 147.9 146.2 143.9 141.7 139.4 135.8 132.5 130 127.6 123.8 118.9 111.1 104.6 104.3 105 104.2 103.9 103 102.8 102.8 100.6 100.6 99.8 100 98.7 99.3 99.3 97.3 97.1 97.4 97.4 97.3 93.1 97.8 99.5 99.1 98.3 97.3 94.4 94.7 93.2 92.5 92.6 94.8 98.5 99.9 97.1 97.1 98.1 98.5 100.1 101.9 101 88.5 96.7 97.1 94 96 97.7 97.8 97.7
253.3 251.1 248.6 245.9 243.7 242.8 240.8 238.6 237.9 236.8 236 236.2 237 237.9 238.9 239.8 243.8 253.4 258.6 259.4 259.3 257.8 256.2 254.9 253.5 251.1 248.9 246.4 244.3 242 237.6 237.6 233.1 231.7 230.9 228 226 223.3 221.8 232.3 227.7 226.2 224.6 227.3 232.1 230.6 227.6 224 219.1 214.4 211.4 209 207.1 205.7 204.2 202.2 202.9 203.5 202.3 201.5 198.8 193.7 190.5 188.2 186.2 186.1 182.3 179.8 175.9 173.5 172.7 170.2 167.7 161.9 163.3 161 160.4 159.1 156.7 154.4 151.4 150.5 149.5 148.5 147.7 151.2 151 150.2 149.6 148.8 148.7 148.3 144.5 141.4 139.7 138.1 137.5 137.6 137 136.7 136.2 135.6 136.6 136.8 136.6 136.9 137 140.6 146.3 150.9 153.1 154.6 155.2 154.2 156.1 156.1 157 158.8 160.4 161.5 163.4 165.2 162.9 163.7 164.3 164.2 165.3 165.2 165.4 163.8 161.6 159.7 158.1 155.7 153.1 150.4 149.4 147 146.4 145.7 144.4 142.4 140.2 138.9 136.7 133.8 131.2 126.8 121.5 113 105.8 105.5 105.1 104.8 104.5 103.3 103.3 103.4 103.4 100.2 99.6 100.3 100 97.6 98.5 98.6 95.4 96.2 96.6 97.6 96.2 92.3 97.2 99.4 99.2 99.6 98.5 96.8 95.5 95.3 95.8 98.4 99.7 100.5 103.2 103.5 99.8 99 101.7 103.5 106.5 105.4 101.7 95.1 94.1 93.5 95.9 96.8 98.7 98.2
253.4 249.9 247.6 245 243 240.7 239.9 238.5 238.2 237.4 236 234.2 235 237.3 238.5 239.4 245.9 253.1 255.1 258.8 259 258.6 256.2 255.7 254.3 252.3 249.2 247.5 245 242.9 239.2 240.1 236 232.3 231.5 229.5 228.2 223.8 233 241.9 238.4 234.3 234.8 233.5 230.1 228.7 226.5 221.6 216.6 212 208.6 207 203.7 202 201.6 201 200 200.7 200.2 198.9 196.2 193.3 191.4 188.4 186.1 183.8 182.6 182.2 178.1 174.5 174.2 172.2 168.6 166.8 165.3 163.1 158.4 157.5 156.7 154.5 152.7 152.5 153.5 148.8 148.3 146 147.1 146.3 144.9 143.5 142.4 142.2 140.2 140.2 139.7 139 136.5 135.2 135 134.2 134.2 133.9 134.1 134.6 134.4 135.2 136.4 135.8 137.7 142.5 147.8 151.4 151.7 151.9 151 151.1 152.3 153.8 157.4 159.2 160.5 160.8 160.7 160.5 161.7 161.6 162.7 162.5 161.4 160.5 159.2 157.7 154.4 151.5 149.3 148 146.3 144.8 143.7 142.6 140 139.3 138.7 136.7 134.5 131.6 128.3 122.7 113.5 106.7 107.5 106.6 105.4 105.1 103.8 104.6 104.7 104.6 104.2 100.8 98.5 99.3 100.7 98.2 97.1 97.9 96.1 94.5 96.3 97.7 94.7 90.9 96.5 99.1 100.2 99.4 98.5 101.1 101 102.5 103.3 103.6 103.2 102.8 103.2 103.3 101.8 97.9 98.4 100.9 105.4 107.8 100.8 84.5 96.2 96.1 94.2 93.6 97.2 97.7
253.4 250 247.4 245.1 242.9 241.2 240 239.5 238.4 237.8 236.5 234.1 230.9 235.4 236.5 237.1 246 252.2 252.8 256.5 258 258.2 256.9 256.3 254.7 253.4 250.5 248.5 245.4 242.9 240.9 240.6 237.7 235.3 232.2 230.4 228.2 226.7 242.6 243.9 241.8 237.3 236 233.4 230.8 227.8 223.6 219.2 214 209.7 205.6 202.3 201 199.9 199.4 199.4 198.5 196.7 196.1 194.1 192.6 191.6 189.9 186.9 185 182.2 179.2 180.3 178.4 176.2 172.8 169.8 168 166.7 164.8 163.2 161.8 162.5 160.9 159.2 157.2 154.6 154.2 153 151.9 150.6 149.5 146.5 142.2 141.4 139.5 138.5 136.8 136.2 137.6 137.3 135.4 135.5 133.4 132.6 127.9 124.8 129.2 128.2 128.4 129.1 134.6 133.2 135.2 138.1 139.7 144.9 150.6 150.3 150.4 149.6 149.6 151.4 155.7 156.4 156.5 159.1 158.3 162.2 161.7 159.2 159.1 159.2 158.4 157.8 156 153.5 150.4 147.8 146 145.1 143 141.9 141 138.9 136.9 135.7 134.3 132.9 128.2 122.5 118.4 114.3 108.1 108.4 107.8 107.2 106.4 105.4 103.8 105.8 106.1 105.9 103.9 102.2 98.1 97.8 97.8 97.6 99.2 100.6 98.4 94.9 95 97.2 96.1 90.3 94.1 97.5 97.9 99.7 99.1 99.5 102 106 106.6 106.3 102 100 98.9 99 97.8 95.7 96.1 99.4 104.5 109.9 101.1 96.1 95.2 93.5 92.7 92.9 93.6 96.8
252.7 250.1 246.9 245.1 242.8 241.9 241.5 240.1 238.2 236.3 234.9 233.7 227.5 232 233.6 234.8 239.9 248.2 250.7 251.9 255.5 257.3 258.9 257.1 255.6 253.9 251.6 249.1 246.2 243.3 241.9 241 238.8 236.6 233.9 230.4 228.4 233.5 247.2 244.7 242.3 238 234.3 231.6 230.1 226.7 222.1 218.1 213.1 208.7 203.9 201.9 199.7 197.7 196.1 196.1 195.2 194 193.2 190.5 189.5 188.7 186.8 184.9 183 181 177.8 176 176.3 173.1 170.7 169 167.6 165.1 163.2 161.8 160.2 159.2 158.9 159.6 158.1 155.8 154.2 153 151.4 150.7 149.3 147.3 145.6 144.7 142.9 141.1 139 137.1 135.1 134.1 133.8 133.5 132.7 132.5 128.5 133.3 132.9 132.5 131.3 123 126.7 134.7 130.4 136.5 137.5 138.6 143.3 146.2 147.7 149.5 148.6 149.3 152.9 155.9 155 154 153.3 154.8 159.9 158.2 158.7 156.5 155.1 155.2 153.3 150.9 147.9 146.5 143.8 142.7 140.6 137.9 134.8 133.9 127.6 125.6 124.9 121.7 116.4 113 109.2 109.9 109.9 109.2 107.7 107.4 106.5 104.5 105.9 106.7 106.1 105.6 105.8 101.7 98.9 98.3 99.1 98.1 99.6 99.5 97 94.9 94.8 96.5 94.9 92.7 89.2 93.1 95 98.3 98.5 97.1 99.4 101.3 102 99.9 97.9 96.3 96.1 94.9 93.8 92.9 93.9 95.2 98.2 103.8 98.2 95 84.5 92.5 94.1 95.7 97.4 98.2
251.2 248.9 246.2 244.3 243.2 241.3 239.5 237.1 234.5 232.4 231.3 230.4 225.1 228.6 230.2 231.8 235.2 240.5 247.3 249.5 250.9 255.9 256.8 256.8 256.3 255.1 253.4 249.9 246.4 243.9 242.3 241.5 239 236.9 234.2 232.8 230.1 235 245.1 242.6 238.4 233.5 231.7 229.8 227.9 222.6 218.8 215 211.1 206.8 202.3 198.2 195.9 194.3 193.5 192.5 193.1 192.4 191.1 189.1 188.7 187.9 185.5 181.9 181.4 179.5 177.4 174 171.7 169.1 167.4 169.2 167.8 163.9 161.5 160 158.2 157 156.5 157.3 157.7 155 153.5 152.3 149.6 148.6 147.4 146.3 144 143.2 141.9 140.9 139.6 137.9 135.7 134.6 134.8 131.8 131.9 131.4 128 136.1 135.4 134.5 133.8 131.9 120.9 119.4 119 131.2 134.6 136 136.5 139.7 143.3 144.9 145.8 146.3 148 152 151.9 150.9 149.9 153.2 157 158.2 158.9 158.4 155.5 153.8 153.6 149.4 147.5 143.5 141.4 138.6 137.1 135.5 131.6 126.4 122.9 114.2 113.7 112.9 111.4 109.3 110 110.6 110.2 109.3 108.1 107.6 105.8 103 105.3 107.9 106.6 106.3 106.2 103.5 100.4 101.2 100.8 100.7 100.2 98.4 95.1 93.3 94.5 94.1 94.2 93.3 88.5 92.3 93.7 96.6 95.9 94.2 96.2 97.5 94.5 94.8 93.5 94.2 95.1 94 92.3 91.3 91.8 93.2 95.4 98.1 98.4 94.6 90.8 91 93.4 99.4 102.2 103.9
248 247.6 242.9 240.5 238.2 238 235.1 232.4 229.7 228.6 227.6 226.5 221.6 225.4 226.8 228.9 232.7 239.7 243.4 246.8 249.6 254.2 255.6 256.3 255.9 254.8 253.5 250.3 246.9 244.6 242.3 242.3 240.1 237.6 236.1 238.7 236.9 231 230.3 229.6 227.2 225.8 225.2 224.7 220.9 215.7 213.1 208.6 205 201 196.4 193.9 192.5 190.9 191.3 191 191 189.8 188.6 187.2 184.6 182.9 182.4 179.7 175.6 174 172.8 170.4 167.6 166.4 164 166 168.8 166 161.1 157.7 155.5 154.7 154.3 154.5 154.3 152.7 151.7 151.1 148.3 146.7 145.8 145.2 142.3 141.2 140.2 139.3 138.6 136.9 138.2 137.5 135.8 138 133.8 131.9 136.2 137 135.2 132.5 131.8 131.8 131.3 131.5 117.1 127.2 134.5 134.6 135.6 137.3 139.1 141.2 143.6 144.5 145.9 147.7 148 146.9 149.5 154.6 156.7 155.7 155.7 155.5 153.3 153.4 152.8 151.6 147.1 140.8 136.9 133.8 133.8 130.8 127.4 125.9 124.3 115.4 110.9 110.8 109.7 111.1 109.8 109.2 109.7 109.8 108.1 107.1 106 102.4 106 107 106.2 105.5 103.5 103.1 99.6 101.9 103.7 104.9 98.9 98.1 96.5 93.7 92.6 91.9 92.6 91.3 89.7 88.8 92.8 92.2 91.3 91.9 92.4 92.4 89.4 86.3 85.1 87.3 91.5 91.5 91.8 90.8 89.9 92.8 94.1 101.5 100.2 96.7 91.7 88.1 93.3 100.5 104.1 105.6
251.6 248.3 244 240.4 234.9 232 228.8 226.7 224.8 224.2 223.8 221.6 221.3 222.1 224.1 226.5 231.5 237.2 241.2 243.7 245.7 248.3 252.5 254.8 254.8 254.3 252.5 250.9 247.8 244.8 240.5 236.9 235.2 235 236.1 235.7 235.3 235.2 234.7 235.2 232.6 229.2 226 222 216.9 213 206.2 202.4 200 195.3 192.5 190.8 190 189.6 189.3 188.8 188.2 186.3 184.6 182.9 179.4 177.9 177.6 174.9 171 168.9 167.5 166.5 165.5 164.9 161.7 160.8 162.1 162.5 158.6 155.6 153.5 151.8 151.7 151.5 151.2 150.3 148.2 147.2 145.9 144.9 143.8 143 140.3 139.5 139.1 137.8 137.7 138.8 139.3 138.7 138.3 137.6 135.5 133.1 135.6 132.9 131.5 129.9 128.6 129 129.5 129.7 123 117.5 128 133.9 134.9 135.6 138.1 138.7 140.5 142.3 142.8 142.4 143.1 142.9 145.6 149.4 154 153.3 152.9 152.4 150.4 151.6 150.6 146.7 143.3 140 138.2 136.6 132.5 129.1 127.7 126.5 124 118.6 110.1 111.6 112.6 113.4 108.6 108.5 109.1 109.2 107.8 106.8 105.8 103.8 105.8 106.6 105.1 104.9 103.1 101.9 101.3 101.6 105.1 106.1 99.1 96.5 94.7 94.6 94.5 94.4 92.2 92.8 90.1 86.1 92.8 89.5 90.2 89.9 90 84.6 80 77.6 75.8 80.4 85.1 88.3 89.4 89.4 89.1 90.4 92.7 97.2 99.4 95.9 91.9 84.3 93.2 98 103.3 105.3
249.2 245.3 241.4 237.5 233.4 228 225.9 222.5 221.2 221.1 220.6 219.5 218.7 220.9 222 224.6 228.6 233.2 236.7 240.3 242.2 243.7 246.1 247.4 249.8 250.8 249.1 247.1 244.3 240.9 240.4 245.6 250.6 250.2 251.8 249.2 253.2 249.8 246.1 241 236.7 231.2 227.7 223.5 217.3 212.8 207.1 200 195.7 193.4 190.9 188.4 187.1 186 187 185.6 183.4 181.3 180.4 179.7 175.5 171.4 170.8 169.2 167.1 165 164.4 163.9 163.4 162.6 159.4 156.6 159 158.2 155.9 154.8 153.8 150.2 148.8 148.5 148.5 147.8 146.3 145.6 144.6 143.1 142 143.2 142.4 140.9 139.7 138.6 139.8 139.7 138.6 137.3 138.8 136.9 130 129.6 132.3 129.6 126.6 127 126.1 126.7 127.7 128.3 122.2 112.4 118.6 129.5 131.7 134.7 136.6 137.4 138.1 139.9 139.6 139.3 139.9 140.5 142.9 143.2 143.8 146.3 144.7 144 142 142.6 138.2 138.5 137.6 137.4 137.6 136.4 133.4 131.2 128.9 127.1 124.7 121.1 112.2 114 114.8 118.4 114.3 111.5 109 108.4 107.4 106.7 106.4 105.1 104.5 105.7 104.6 103.6 102.2 101.9 101.6 101.5 102.8 102.4 98.5 96.4 95.9 95.6 95.3 95.3 95.7 93.5 90.8 86.2 88.7 89.1 87.7 86.7 82.6 77.7 78 78 76 75.6 78.4 83.5 85.6 85.4 86.6 88.6 91.3 91.8 91.5 94.5 93.4 88.1 87.3 98 101.7 102.9
249.2 245.1 241.2 237 232.9 230.7 228.4 225.4 222.7 221 218.2 217.5 214.5 218.1 219.9 221.7 224.6 232.8 236.9 237.7 237.8 238.9 238.5 237.5 237.7 241.6 246.5 248.3 247.3 243.4 249 252.9 254.4 249.8 249.9 263.4 263.6 256.5 249.8 242 236.8 231.9 225.9 221.2 215.5 211.4 206.4 198.9 194.4 192.1 188.7 186 184.2 183.7 182.3 181.1 179.9 177.3 175.6 174.3 171.5 166.8 166.3 166.1 164.6 163.1 162 161.8 161.4 159.9 157.8 155.1 154 155.7 155 153.4 151.3 149.2 146.2 146.1 148 148.2 145.4 144.7 143.3 143.7 143.6 144.1 142.8 141 140 138.8 141 141 139.5 137.2 134.8 134.3 133.6 125.9 125.6 124 123.6 123.4 123.9 124.5 125.3 126.4 125.5 112.5 115.2 127.9 127.4 132.9 135 135.4 136.2 136 137.9 138.1 137.9 139.5 139.1 138.6 139 140 140.6 138.8 138.3 137.3 137.2 137.3 137.5 136.6 135.3 133.7 131.5 130.1 128.4 127.3 125.1 123.8 115 116.7 119.7 119.1 119.9 115.1 111.7 107.5 107 106.6 105.7 104.7 104.8 104 102 103.2 103.1 102.9 102.9 102.3 101.5 102.4 101.4 98.6 96.7 97.6 96.4 93.8 93.5 93.8 94.4 88 86.5 88.8 85.2 82.5 78.3 78.5 80.8 81.5 78.3 73.8 74.6 76.2 79 81.3 82.8 86.9 92.2 90.5 88.4 93.9 95.5 88.1 79.8 88.3 96.1 95.2
255.5 250.5 245.5 241.5 237.4 234.5 230.9 227.5 224 221.3 218.2 214 209.2 213.9 214.9 216.8 223.4 227.8 232.9 234.5 235.8 237.9 236.9 237.1 236.3 236.7 236.8 237.3 236.9 237.3 238.5 241.5 242.8 247.4 254.4 257.8 255.6 249.7 243.3 237.2 231.2 227.8 223 219.5 213.4 210.3 204.5 198.6 193.5 188.8 185.5 183.8 181.8 180.6 179.3 177.2 175.9 174.7 171.9 170.6 168.8 163.9 163.3 163.2 161.9 160.4 160.6 159 158.7 157.2 156 155 153.7 154 153 151.3 151.1 151.1 145.3 144.3 145 144.5 143.7 143.6 144.8 145.6 145.3 144.2 142.1 141.1 141.3 141.2 141.1 141.8 138.2 133.1 133.1 128.3 127.4 126 121.4 121 120.8 119.7 119.4 119.8 120.9 122 122.5 115.8 116.3 117.6 120.7 126.8 129.8 132.6 133.5 130.3 131.9 132.5 135.2 138.2 139.6 138 137.8 138.3 138 137.7 135.7 134 136 133.7 133.6 132 132.6 133 130.6 129.1 127.9 126 124.4 119.5 116.6 117.6 119.8 117.3 115.5 111.6 111.3 107.4 106.9 106 105.3 104.5 104.2 102.5 103.5 104.5 105.7 104 103.4 103 102.3 101.3 100.1 98.7 98 98.6 93.8 93.4 93.6 94.5 94.7 89.7 85.3 85.7 81.3 80 78.8 78.8 83 83.6 82.9 79.6 77.1 73.4 74.5 76.1 80.4 84.2 86.8 87.7 87.6 88.4 83.4 80.1 76.7 79.9 81.7 81.4
260.5 255.8 249.5 243.7 238.9 235.7 231.2 227.3 223 219.3 215.9 211.7 209.2 209.2 209.9 211.5 218.9 222.4 224.9 230.3 237.9 240.9 244.1 243.5 242.7 239.9 241.2 239.8 239.8 242.4 245.1 245.5 246.6 245.8 246.9 246.1 243.3 238.7 233.9 227.7 224 222.7 220 216.9 211.3 207.3 202.1 195.6 191 187.7 184 181 179.8 178.9 177.1 174.7 172.4 170.6 167.5 165.1 164.4 161.7 160.9 161.1 159.4 157.9 158.6 158.2 156.9 156.5 154.7 153.1 153.2 152.3 151.3 150.1 148.6 146.5 144.5 144.5 143.7 144.1 144.3 146 146.1 145.4 144.9 144.3 141.9 140.2 140.7 140 140.1 139 135.6 133.1 127.2 129.4 125.8 125.3 122 119.6 118.5 117 116.7 116.7 116.9 116.3 114.9 113.6 114.7 115.9 115 115.3 120.9 122.2 123.6 121.3 122.5 122.4 124.1 126.1 130.8 130.6 131.3 133.7 135.5 135.3 132.4 129.9 131.9 132.6 131.4 131.6 129.8 125.8 122.8 120 120.9 122.8 115.9 116.8 118.9 116.7 115.7 114 112.7 110.6 110.2 108.1 106.8 106.4 105.7 104.1 105.2 104.5 103.6 105.4 109.1 105.5 104.7 103.1 101.6 101.1 99.5 98.9 101 96.6 94 93.7 95.7 95.8 92.9 92.1 85.9 86.8 86.3 85.7 81.2 78.5 77.6 78.5 86.9 84.5 84.2 80.2 72.9 73.4 74 76.8 78.9 80.3 79.4 77.7 75.5 74.3 74 74 75.6 72.4
258.7 253.5 248.6 242.9 237.8 233.4 227.8 222.9 218.1 214.3 211.6 208.4 206.2 204.6 204.6 205.6 209.4 214.9 225.3 229.8 236.7 240.1 242.8 242.6 242.6 242.6 242.5 241.4 241.7 242.3 243.5 242.5 244.5 245.1 245.4 243.4 236.8 230.3 230.3 226.6 222 219 216.4 213.3 207.8 201.4 197.8 191.4 187.3 183.5 180 178.8 177.7 175.8 174.3 172.4 170.6 167.7 165.6 163.1 161.2 159.7 158.4 157.4 157.3 157.8 158 157.4 156.2 154.1 153.6 151.5 150.8 149.9 149.4 148.2 146.3 145 144.2 143.9 144.5 143.6 143.9 144.4 144.5 144.4 143.4 142.3 141.9 139.6 138.6 137.3 137.8 137.6 130.6 127.3 128.1 131.4 131.6 129 125.8 123.9 122.9 120.5 118.1 116.7 116.6 114.4 112 110.4 111.6 112.7 112.1 111.4 111.7 111.9 112.9 114.3 114.5 114.4 114.7 113.9 115.6 115.7 120.6 127 130.1 128.7 126.9 126.1 127.6 128.5 128.3 127 128.2 127.4 124.4 119.7 115.4 114.8 116.2 118.4 117.8 114.9 114.3 112.4 111.3 109.6 108.6 107.7 106.2 105.7 105.4 106.7 107.2 106.9 104.3 107.8 113.9 111.5 108.4 104.2 102.3 100.9 98.6 98.9 98.5 95.4 96.5 97.1 95.1 94.7 95.1 92.6 91.8 95.2 94.1 88.9 83.8 80.3 79.2 79.2 88.6 91 91.7 87.9 80.7 73.8 71.9 73.7 74.9 76 73.7 72.9 72.3 71.1 70.7 69.6 78.8 68.6
251.9 248 242.3 236.8 231.9 226.6 221.6 216.9 213.1 209.6 207.4 204.6 204.6 204.6 204.6 204.6 204.6 215.5 223.3 229.8 237.3 240.7 242 241.3 241.2 241 241 240.9 240 239.5 239.1 237.8 239.2 238.9 237.5 236 237.7 235.8 231.9 224.6 218.7 214.3 209.9 206.9 202.2 197.6 193 188 183.5 179.5 177.4 176.4 175.5 174.2 172.9 170.2 168.6 166.3 163 162 159.2 157.1 155.3 154.6 154.1 155.3 156.2 154.8 154 154 152.6 150.5 147.8 146.2 147.7 146.1 146.4 145.1 144.5 143.9 144.5 146.3 142.9 144.1 141.4 142.5 141.4 143.5 143 137.7 137.6 137.7 137.7 133.2 135 133.6 135.8 135.8 134.8 132.4 129.8 126.9 124.8 121.3 118 118.5 118.1 116.6 112.3 109 109.7 110.1 109.5 110.1 108.8 108.9 110 111.2 111 114.5 114.4 115 114.1 113.8 112.5 116.6 119 120.5 123.2 121.2 121.2 121.6 123.4 123 122.7 121.9 121.1 115.5 114.1 116.7 117.2 117.2 114.2 112.8 111.4 109.8 108.5 107.7 107.6 105.5 105.8 108.3 107.8 108.7 109.4 108.8 105.7 110 116.1 116.2 115.1 109.1 104.2 100.5 98.9 98.6 97.6 96.9 96.5 96.4 95.9 94.4 95.7 95.4 95.7 95.9 95.7 90.2 85 80.9 80.1 80.3 87.3 93.3 95.5 93.8 84.8 79.8 78 72 72 71.6 70.8 69.7 69.3 68.9 69.5 68.4 68.1 74.9
243.2 238.4 233.2 228.6 223.6 219.9 215.6 211.7 206.6 204.6 204.6 204.6 204.6 204.6 204.6 204.6 204.6 204.6 218.3 230.3 239.7 242.4 241.9 240.3 239.5 239 239.1 239.6 240.2 240.6 240.4 238 234.4 233.1 233.1 231.7 233.4 231.1 224.8 217.8 213.6 208.5 203.6 198.3 195.6 193.2 189.1 184.2 180.5 177.5 175.2 174.6 173.9 173.3 171.5 169.1 168.2 166.2 163.2 160.1 156.3 154.3 153 152.8 151.1 152.3 152 151 150.6 150.5 149.9 147.6 146.4 146 146.1 146.4 144.9 144.1 144.1 144 144.5 127.7 119.4 124.6 129.9 138.5 143.4 145.2 146.1 137.7 138 134 133 137.9 138.2 139.7 138.7 136.8 136.2 134.7 133.3 128.4 124.9 120.1 118.4 118.5 117.3 115.3 112.9 108.5 107.7 109.4 108.5 108.1 107.5 107.3 106.9 106.7 111.2 113.8 114 115.5 117 116.2 109.3 107.7 113.6 115 117.2 119.2 119.6 118.4 119.8 120 119.9 118.3 112.5 112.6 114.7 115.6 116.4 115 112.8 111.2 110.1 107.8 107.2 106.8 106.1 106.2 106 108.9 109.3 111.1 110.6 107.8 104.6 107.4 115.1 115.7 115.5 113.7 102.6 99.5 98 95.3 92.9 87.1 86.2 89.8 94.6 95.5 96.9 96.7 96.9 95.2 94.6 88.9 86 81.2 80.4 89.2 103.3 101.3 98.2 97.2 92.1 90.8 77.6 72.9 71.2 70.9 70 69.7 69 68.6 68.5 68.3 68.3 73.8
233.5 228.8 225.3 220.5 216.5 213.1 209.9 206.6 204.6 204.6 204.6 204.6 204.6 204.6 204.6 204.6 204.6 204.6 213.2 225.8 239.5 240.7 241.5 240.9 240.3 238.3 237.2 236.8 238.3 237.7 233.9 231.4 228 226.6 224.6 223.5 224.3 222.9 218.1 213.2 208.7 204.9 201 196.6 191.5 187.3 184.2 180.7 178.5 176.4 174.6 173.5 172.4 170.9 169.5 168.2 164.7 162.4 159.5 157.4 154.6 153.6 152.2 151 149.9 149.8 150.1 149.6 149 147.9 148.1 146.6 145.8 145.3 144.8 145.3 144.2 144.3 143.8 143.5 145 123 121.3 111.7 107.1 117.5 116.5 136.7 138.3 138.5 133.6 131.8 133 132.5 136.3 138.9 138.8 136.8 136.6 135.6 134 130.5 124.5 119.3 117.8 117.6 118.5 114.4 112.6 111 107.3 107.3 107.4 107.3 106.8 106.6 106.7 105.4 106.3 110.2 112.2 111.9 115.8 116.5 114.3 106.1 108.9 111.9 111.9 112.3 114.1 115.3 114.3 115.6 113 108.9 112.2 115 114.4 114.9 113.3 113.2 112 109.8 108.3 107.5 106 106.8 106.2 105.2 105.3 106 107.6 109.4 108.9 106.6 104.1 104.1 111 112.8 114.4 109.9 102.6 96.2 92.6 86.8 87 85.2 84.9 83.6 86.1 92.2 94.6 95.1 89.8 90.2 89.6 87.3 84.5 80.4 80.3 89.3 97.3 101.4 101.6 100 104.6 101.1 80 72 70.2 70.1 70.5 69.7 69.3 69.2 69.1 68.8 71.2 71.4
225.1 221.1 218.2 214.7 212.9 210.5 209.1 208.4 207.2 204.6 204.6 204.6 204.6 204.6 204.6 204.6 204.6 204.6 204.6 216.6 233.3 237.9 238.5 239.3 238.5 237 235.1 231.9 231.9 229.8 228.6 229.1 228.2 229 225.3 221.8 218.2 216.7 213 209.3 204.5 200.5 196.8 193 188.9 186.7 183.3 180.7 179.3 175.7 173.8 172.3 171.7 172 170.4 169.3 165.7 163.6 160.8 158.1 156.8 155.3 153.6 151.7 149.6 148.1 147.8 147.4 147.1 146.1 146.1 145.4 145 144.7 144.6 144.9 145 143.7 143.8 147.7 138 134.2 107.6 107.1 110.3 115.8 125.6 121.7 121.5 132.3 131.5 131.2 130.7 131.7 131.5 136.4 137.8 138.1 136.6 135.8 134.3 129.9 119.8 119.2 118.8 117.6 117.5 115.3 113.3 111.5 109.1 106.2 105.4 105.9 106.3 105.9 105.2 105.1 104.7 105.2 107.9 106.4 106 109.4 108.7 106.4 105.2 110.6 110.3 109.3 107.9 105.4 105 106.6 106.2 108.1 111.5 111.5 112.2 111.9 110.6 110.3 109.8 108.8 107.4 107.9 107.6 107.5 106.7 106 106.2 105.8 106.6 106.8 106.9 105.2 104.9 104.2 104.6 104.6 106.5 101.8 95.8 91.3 85.7 88 91.2 88.7 85.1 83.6 84.4 92.6 94 92.7 90.1 88.2 86 84.9 80.5 79.6 84.7 86.4 85.3 90.1 92.7 92.6 93.2 85.4 74 73.1 70.1 70.1 71.4 71.1 70 70.1 77.8 79.8 77.6 69.8
220.5 219.5 216.7 215.1 214.7 213.2 211.7 210.2 208.9 208 205.8 204.6 204.6 204.6 204.6 204.6 204.6 204.6 204.6 211.7 224 237.5 237.7 236.2 235.1 231.8 228.7 226.3 225.3 225.6 227.1 231.5 229.8 227.8 222.6 218.4 214.3 211.7 207.8 204.6 199.7 195.1 192.7 190.3 186.9 184.8 183.2 180.7 179.2 177.9 174.6 174.1 173.4 169.2 166.9 167 166.8 165.7 163.5 161.6 158.8 156.3 155 152.5 150.3 148.2 147.1 146.1 146.1 146 145.5 145.4 145.2 145.6 145.1 144.8 145.1 143.7 143.5 143.3 128.4 124.4 116.5 113.2 113 113.5 128.3 121.9 130.7 131.5 132.3 131.5 130.9 131.8 128.9 134.9 140.6 139.2 137.2 135.3 134 121.8 119.8 122.5 120 117.8 116.9 117.7 114.4 110.8 107.6 106.5 106.2 104.6 103.3 104.2 104.8 104.4 104.6 104.2 105.8 108.4 106.6 103.3 103.7 105.4 103.3 104.5 106.6 106.1 102.9 101.8 100.8 102.6 102.3 99.3 105.3 108.6 109.2 109.5 109.8 109.9 109.4 108.6 108.1 108 107.2 106.9 106.6 106.2 105.6 105.6 106.2 105.2 104.8 106.7 106.3 105.6 105.8 104.8 101.5 94 87.8 89 95.2 95.8 95.4 92.5 88.1 83.7 83.7 91.3 90.7 88.5 86.2 85.3 83.5 81.3 80.3 83.1 88.4 84.4 83 83.2 84.6 84.1 83.1 74 70.8 71.1 70.7 70.6 70.8 70.2 71.9 84 92 88.1 74.5 66.2
219.6 218.5 217.3 215.6 213.8 213 211.4 209.4 209.2 209.4 208.8 208.3 206.1 204.6 204.6 204.6 204.6 207.5 203.1 208 220.7 229.9 233.7 233.5 231.7 227.7 225.7 224.3 223.2 222.5 222.4 223.1 222.7 220.6 218.2 214.1 209.7 206.2 203.6 199.4 195.7 192 188.6 186.5 184.5 182.5 180.9 179.8 179.2 178.2 177 174.7 170.9 169.4 166.8 163.9 162.3 160.9 163.1 162.9 159.9 157.2 155.4 153.8 152.7 150.9 149.3 147.9 145.6 145.8 145.9 145.8 145.4 146 145.6 144.7 144.1 144.2 143.8 143 146.6 143 139.2 138.8 124.1 126.6 130.6 121.6 121.6 133.9 135.7 133.5 128.4 128.4 128.9 128.9 137.7 136.9 136.2 133 125.5 120.8 120.8 124.1 121.1 117.9 117 115 112.6 108.7 108.7 107.7 107.2 108.3 107.4 102.9 104.6 104.1 103.4 104.6 108.3 109.9 105.6 103.2 102.6 102.9 102.2 103.5 101.4 101.8 100.1 100.6 99.3 99.8 97.4 96.2 96.9 98.8 104.6 104.5 107.2 108.3 108.4 107.3 105.1 105.7 106.4 105.8 105.4 105 103.5 102.4 101.2 102.4 103.1 105.5 104.5 103.2 103.5 100.4 93.2 89.1 89.8 99.3 100.5 98.9 96.8 94.2 91.3 87.8 83.4 83.1 84.3 84.1 83.4 82.9 81.7 81.4 82 86.2 87.5 84.1 81.4 80.6 79.2 76.9 73.9 71.8 70.3 72 80.1 79.5 76.9 83.9 88.4 94.6 92.9 83.4 69.4 65.5
215.6 214.3 213.2 211.3 210.2 208.5 207.2 206.8 206.7 207.4 207.2 206.7 206.2 205.9 205.2 204.3 198.8 189.1 195.7 207.1 216.1 221.7 222.9 222.7 222.5 223.2 222.6 222.8 222.3 223.6 220.3 218.1 216.9 215.8 213.3 209.5 205.6 200.2 197.6 194 190.5 187.3 186 184.3 182.5 180.5 179.5 178.7 177.2 177.6 173.6 171.3 170.9 170.2 169.1 166.7 164.8 161.5 158.5 162.1 159.5 159.5 157.1 154.4 152.4 151.6 150.9 148.8 147.1 145.5 145.4 146.3 145.8 145.1 145 144.1 143.7 144.8 143.9 143.4 142.7 145.3 144.4 144.6 144.1 141.9 134.1 131.5 131.1 130.8 132.9 129.4 136.2 136 133.2 130.6 127.7 126.5 126 127.3 120.7 119.1 119.3 120.8 118.4 117.4 116.4 111.8 108.9 108.1 107.5 107.5 107.5 107.3 106.3 101.6 103 103.1 105 105.8 107.3 106.2 104 101.5 100.7 100.4 98.1 100 100.1 99.3 99.3 97 98 95.7 94.9 94.6 94.7 94.6 95 99.9 103.1 102.4 102.8 103.4 103.4 103.4 102.5 103.8 102.3 101 99.5 96.5 95.8 96.2 97.3 98.9 99 97.5 97.5 90.9 90.1 88.2 91.9 97.3 97.1 95.4 94.8 92.6 89.8 90.4 87.5 82.8 82.2 81.9 82.8 80.9 80.6 81.6 82 86 85 82.3 80.4 79.2 79 74.2 73.8 71.6 70.4 75.1 82.1 81.3 79.2 85.2 88.5 86.1 81 72.5 66.4 66
209.9 208.8 207.9 206.6 205.5 204.5 202.8 202.1 202.3 202.1 201.7 202 201.5 202.2 203.3 203.6 194.9 189.5 200.7 206.9 209.2 212.4 213.1 214 214.8 214.1 216.3 218.2 218 218.6 215 211.3 210.6 209.8 207.8 204.6 201.4 195.9 191.9 188.6 185.4 183.6 182.7 180.5 180.4 179.1 178.4 176.8 174.5 173.1 173.1 174.6 175.6 173.5 170.9 168.1 164.9 160.6 157.4 158.9 161 160.2 158.2 156.6 153.8 152.4 152.2 151.8 150.1 148.6 147 145 145.3 145.8 144.9 144.2 143.3 144.4 143.5 142.9 142 142.6 144.2 142 141.3 136.6 141.2 134.6 140.3 140.5 141.2 139.6 131.2 125.7 123.2 122.2 121.2 119.1 117.9 118.2 118.9 116.1 116 116.2 115.6 115.1 113.8 111.3 112.1 116 124.3 118.1 113.5 104.7 104.3 102.8 102.6 103.6 107 108.6 106.6 105.8 104.4 101.9 99.7 98.2 98.8 98.1 97.6 96.9 94.7 95.7 95.2 93.4 92.8 93.2 94.4 94.5 97.7 95.5 94.1 95.4 98.5 97.8 96.8 96.6 96.2 95.9 94.4 95.4 94.3 92.3 91.7 91.6 92.9 92.5 92.7 92.5 91 88.5 89.6 87.6 90.4 93 90.7 88.3 88.4 86 84.9 85.2 84.2 85.1 85.7 86 83.8 83.3 81.6 79.6 79.7 79.9 80.8 77.8 77.2 77.7 76.5 72.4 71.2 70 70.4 71.9 75.7 76.8 78.4 83.8 84.1 78 72 67.5 65.4 65.4
203.1 202.2 201.5 200.7 200.2 199.5 198.8 196.9 195.6 193.5 193.8 193.8 191.6 193.3 194.6 196.9 193.7 185.8 194.7 200.4 206.2 209.1 211.3 211.4 213 212.1 211.4 210.9 211.2 210.5 208.6 206.6 205.8 203.5 202.4 201 195.2 191.2 186 183.5 180.7 177.7 179.3 178.8 176.3 175.7 174.8 174.7 173.7 173.1 174.7 175.5 174.5 173.7 171.2 168.5 164.2 159.8 156.2 158.6 161.2 159.9 158.7 157 155.4 153.3 152.2 151.7 151 150.3 148.4 146.5 146.5 145.5 145.1 144.6 141.5 143.6 142.8 140.9 139.9 138.2 137.6 138 140 141.8 140.7 141 142 140.7 133.8 126.4 123.4 122.5 120.4 119.9 119.7 119.1 118.9 118.5 117.9 114.1 113.9 113.3 113.9 113.9 112.6 109.8 113.9 126.7 126.9 126.8 123.9 118.5 100.6 101.1 104.3 109.9 107.8 107.1 105.1 104.7 104.3 103 101 99.8 99.2 98.5 96.5 93.7 95.3 96.3 96.6 95.6 93.3 92.8 93.6 92.5 89.4 88.7 89.4 91.7 93.9 94.9 92.6 90.1 92.2 91.8 91.8 91.2 90.3 89.8 89.2 89.9 89.1 88.8 88.6 88.6 87 86.8 87.1 86.9 86.7 87 86.7 82.2 80.1 81.2 85.1 91.4 93.8 94.1 92.2 92.2 89.7 87.3 83.6 82.4 79 76.3 76.5 73.6 73.1 72.4 71.8 70.6 72.6 70.5 72.8 71.2 71 73.7 74.5 77.6 78.8 75.9 67.8 65.9 64.7 64.4
195.7 193.8 193 192.3 191.2 188.9 187.9 187.1 185.5 185.4 185.3 185.5 184.9 184.6 184.6 185.8 186.4 181.3 184.5 190 200.9 203.5 205.2 204.9 204.9 206.2 206.7 206.7 206.4 205.1 203.4 201.3 198.9 197.2 194.6 192.7 187.3 183.3 179.6 177.8 175.6 174.4 173.9 173.1 172.9 172.8 172.4 172.1 171.7 172.2 172.9 175 172.8 170.7 169.9 167.6 164.3 160.5 156.1 157.4 158.6 157.8 154.2 150.3 148 149.7 147.8 145.3 143.8 142.7 142.6 146.4 147 145.4 143.9 140.5 139 138.6 137.8 136.4 135 133.6 133.6 132.4 130.7 130.7 129.9 129 127.7 127.2 123.9 122.8 121.7 121 120.4 120.8 118.9 118.2 118.5 118.1 117.6 116.4 112.9 113.1 112.1 111.6 110.1 109.7 112 125.2 124.7 123.8 122.7 117.1 110.5 109.6 109.3 108.5 106.7 104.2 103.6 103.9 103.6 102.3 101.7 99.7 98.3 97 95.3 93.9 94.2 92.9 93.4 93.4 93.2 93.2 92.1 91.5 87.9 86.6 85.8 86.9 88.9 89.8 89.7 90.2 88.8 88.9 89 88.5 88.9 88.6 88.2 89.2 88 88.4 87.7 87 86.3 86.3 86.4 85.3 85.3 83.3 82.2 80.3 77.7 81.9 83 88.1 92.1 93.8 93.4 92.1 91.3 88.8 85 82.8 80.6 75.1 74.3 73 72.7 72.1 72.1 71.9 70.4 70.8 72.3 71.2 73.1 73.5 73.2 72.8 73.9 69.4 66.3 64.9 64 63.9
191.1 189.5 187.1 186.5 184.9 184.5 187.2 187.6 187.4 187.1 187.6 187.3 185.6 185.7 184.9 186.3 183.7 180.9 180.3 185.5 192.6 193.4 195.1 195.9 196.7 196.3 197.1 197.6 197.5 196 194.8 191.9 191 187.6 180.4 178.8 176 175.8 174.9 174.4 173.2 172.7 171.8 171.4 171 170.8 170.3 169 167.8 168.8 172.8 172.1 172.1 170.2 167.9 165.7 162.7 158.9 154.8 152 149.2 148.9 147.1 146.1 145.2 144 143.5 142.4 142.3 141.8 141.4 140.2 141 140.8 139.5 139.3 137.8 137.1 136.7 135.6 133.9 132.1 131.1 129.3 129.1 129.1 128.6 128.1 127.8 126.6 125.2 124.6 127.3 126.4 125.8 125.3 120.4 117.8 117.6 116.4 115.3 113.7 113.1 113.6 112.1 110.9 110.1 110.3 115.1 123.3 123.1 120.2 117.2 114.6 108.7 97.3 93.1 97.9 97.5 98.1 100.1 103.7 103.5 101.7 97.9 96.1 96.3 95.8 94.3 93.2 93.2 91.5 90.5 91.3 92.9 92.6 92 90.6 89.2 85.9 86.3 85.9 87 86 85.1 86.7 85.8 85.9 87.3 86.3 86.5 86.6 87 87.4 85.8 84.9 83.8 83.7 85 85.2 84.9 83.5 81.3 82.3 77.8 76.1 76.2 75.5 75 77.4 84.5 92.6 93.3 92.6 91.5 88.3 87 82.7 77.5 72.2 71.3 72.1 71.1 72.8 72.7 73.2 73.1 69.9 68.2 69.6 73.1 73.8 72.6 71.8 77.2 71.4 68 64 64 63.9
187.2 187.6 185.3 184.4 184.4 186.3 186.4 186 186.8 186.7 186.5 185.9 185.4 185.5 186.5 186.4 186.6 185.5 177.8 181.4 181.5 182.3 182.8 185.2 186.5 185.1 188 186.8 187.6 185.4 184.8 181.5 180.8 179.4 176.6 175.5 174.9 173 171.9 172 171.5 170.7 169.3 168.9 168.4 169.8 168.4 165.2 164.7 164.9 170.2 171.2 172 170.6 168.8 166.8 161.8 159.3 154.1 151.6 149.2 147.2 147.2 147.6 146.2 145.5 145.1 144.2 143.5 142.8 142 143.3 139.8 139.7 138.4 137.5 136.6 135.9 135.4 134.6 135.2 135.1 133 130.9 135 135.1 130.4 129.8 128.7 128.2 128 128.7 127.9 126.7 125.7 124.4 118.9 117.7 117.4 116.3 114.8 118.6 127.7 130.2 128 119.5 117 119.7 123.8 122.3 120.8 116.3 111.8 108.3 106.2 101.7 93.3 92.3 93.6 93.8 93.9 92.5 99.2 98 97.2 94.5 93.3 92.6 92.7 92.7 92.5 92 90.5 89.8 91.2 92.2 91.7 90.1 87.5 84.2 83.8 83.9 82.8 83.3 84 83.6 84 84.7 85.8 85.5 84.4 87.5 86.1 82.3 79.9 79 79 79.1 79.6 74.5 78.4 77.5 76.1 79.2 80.2 80 78 76 75 74.8 75.7 82.3 86.7 87.3 86.9 84.7 81 76.1 72.6 72.5 74.9 72.6 70 70.9 71 72.7 75.2 71.7 70.6 68.5 68.2 70.2 68.3 68 68.1 68.5 65.4 63.7 63.4 63.8
181.8 186.2 185.2 183.2 181.8 184.1 184 184.2 184.3 184.2 184 183.5 183.1 183.7 184.1 183.7 183.4 183.3 180.8 176.7 176.4 178.9 180.6 179.8 179.4 180.8 180 180.7 180.1 177.9 176.7 179.2 178.2 178 175.5 174.2 173.2 171.2 168.7 169.3 168 167.2 165.6 165.4 165.2 164.4 163.2 160.5 161.3 160.4 164.7 167.1 166.3 168.1 166.6 163.1 161.1 158.3 154.6 151.3 149.1 147.7 148.9 147.5 146.6 147.1 147.1 146.1 144.9 143.6 144 143.1 142.3 140.8 139.2 137.7 138.8 138.4 138.9 137.3 135.2 134 131.7 138.3 140.5 136.9 133.9 131.8 130.3 129.5 129.1 129 129.5 128.7 127.5 124.5 119 118.8 124.4 130.9 129.2 130.7 131.4 131.5 131.3 128.2 125.6 124.3 123.2 121.4 112.7 105.3 101.4 105.5 105.8 102.7 97.8 95.6 88.6 93.3 90.9 88.8 86.5 88.8 90.3 92.5 90.5 91.8 92.6 89.4 91.9 91.8 90.8 89.9 92.8 91.6 89.4 89.4 86.1 83.5 83.2 82.3 82.7 83.9 83.4 81.1 80.8 82.7 82.5 83.4 83 80.2 80.8 78.6 76.8 76.3 76.6 74.4 69.5 69.6 69.2 69.6 73.2 77.8 78.6 78.8 77.9 75.5 73.8 74.5 74.1 74.6 74.4 75.5 76.2 76.7 74.3 75.1 76.7 79.6 78.2 74.9 70.2 69.6 69.8 72.1 74.4 71.3 70.5 69.1 67.9 66.4 65.4 66.1 65.5 65.5 64.5 63.7 63.7 63.6
176.4 176.8 177.1 180.1 180.9 178.8 180.7 179.9 179.7 180.8 180.5 180.3 180.1 180.1 179.9 180.5 181.2 182.3 182.9 183 177.3 172 177.1 180.2 179.4 177.7 177.9 178 178.6 182.4 181.6 178.6 175 173 172.3 169.8 167.7 167.2 166.5 165.7 163.1 161.6 159.8 158.5 158.1 157.2 156.2 156.3 157.1 159.3 160.1 164.5 164.4 164 162 159.6 158.5 155.7 153.6 151.7 149.1 150.3 149.1 147.9 147.9 147.7 146.9 145.8 144.8 144.1 142.8 141.4 141 142.1 139.2 137.8 138.6 138.5 137.8 138.6 135.6 133.4 136.1 141.4 138.8 134.9 134.5 131.3 130.9 130.7 129.9 129.4 127.6 125.9 122 119.5 123.8 125.2 132.2 132 130.8 130.8 130.3 129.5 127.9 128.7 126.9 124.4 113 103.9 96 88.5 87.7 88.9 92 93 96.7 97.4 97.9 95.8 94.3 91.5 88.1 86.2 84.2 88.8 86.2 90.1 90.7 90.5 86.8 90.3 87.8 89.6 89.1 85.5 85.1 84.6 86.5 85.5 84.3 80.3 85.7 86 83.2 80.8 79.7 81.4 81.4 82.4 78.7 74 66.1 71.1 72.8 72.5 70.4 67.7 64.3 64.3 58.7 58.8 63.4 71.8 80.2 76.9 77.6 76 74.5 73.2 73.8 74 72.9 74.6 74.3 73.2 73.9 76.2 79.3 81.6 79.5 76.1 72.9 71.6 68.4 68.5 68.6 68.4 67.6 66.1 66.3 66.1 66.7 67.4 65.6 66.2 66.5 68.2 67.1 66.1
172.8 174.7 174.5 172.5 177.1 175.4 173.3 172.4 172.2 173 173.5 174.8 176.4 178.5 178.3 178.4 180.5 180.9 179.9 178.7 175.9 172.5 168.1 173 174.2 174.8 174.9 174.4 175.1 177 177.3 173.9 170.8 167.1 165.5 162.3 161.2 160.9 160.7 159.4 158.4 156.4 155.5 154.6 154.2 153.3 151.7 151.5 153 156.1 157.1 157.8 158.1 160.9 160.6 157.2 155.1 153.4 152.4 151.5 150.6 149.9 148.8 146.3 146.5 146.1 144.6 144.3 143 141.9 139.9 139.8 139.9 138.8 139.1 137.7 137 137.3 137.1 136 137.8 139.1 140 137.9 136.3 135 134 132.5 133.6 132.5 130.5 128.5 126.1 124.4 120.3 123.6 128 127.4 127.5 128.3 127.7 129.6 131.3 130.7 130.2 126.6 121.4 109.1 96.5 90 81 80.9 80.2 76.2 75.8 76 76.9 76.5 79.7 83.3 82.8 86.8 93.8 92.7 91.1 80.3 78.2 78.7 89.2 88.8 89.7 83.5 83.6 84.6 81.1 76.7 76 75.9 77.8 78.6 78 78.8 87.2 86.9 86.6 79.2 78.9 78.6 73.2 66.3 64.7 62.8 62.6 61.9 60.3 60.6 60.5 59.9 60.5 59 59.3 59.4 58.8 61.2 65.3 75.3 75.4 74.4 73.4 72.8 73.1 72.7 71.8 73.7 72.6 73.6 76.8 79.8 82 82.2 79.6 77 75.1 72.4 71.2 69.5 68.7 67.4 67.7 67.1 68 66 66.4 67.3 66.5 68 68.3 69.3 68.7 67.7
164 168.7 169.9 168.2 170.1 171.1 170.4 169.1 167.9 167.3 167.8 169.8 168.6 173.3 172.2 172.7 172.1 169.9 167.1 165.8 166.6 165.5 163.4 167.1 169.2 171 172.7 171.2 169.3 168.7 168.6 166.6 164.7 163.7 158.4 157.4 155.5 153.9 153 152.7 152.8 152.3 150.2 148.5 149.4 149.1 147.6 149.1 150.4 151.2 153.9 153 153.8 154.5 157.4 156.4 154.2 152.4 151.4 150.6 149.2 148.7 147.4 145.3 144.2 142.9 141.6 140.2 140.4 139.9 139.4 140.8 141 138.5 138.7 138.7 137.1 136.9 136.9 136.7 137.9 137.9 137.6 136.7 136.2 136.5 134.5 133.6 133.3 131.8 129.9 126.9 125.6 122.4 120.3 130.3 126.8 126.1 125 124.8 122.9 121.5 121.3 121.7 120.8 112.5 101.4 93 81.2 80.4 82.4 85.3 90.3 90.3 86.8 83.3 81.7 76.2 75.6 74.9 76.4 81.5 93 91.5 91.2 87.6 81 75.5 81.7 87.9 84.7 79.9 80.7 76.4 73.6 71 70.3 69.4 70.3 70.2 69.8 74.2 84.2 81.4 79 77.7 78.1 71.6 64.9 65.3 64.5 66.8 66.8 65.7 64.9 60.4 60.3 60.3 60.1 59.5 59.5 58.6 58.6 56.7 59.9 68.3 73 73.9 73 73.5 72 71.4 71.8 71.7 73.8 75.6 76.8 79.7 81.2 80.4 76.9 76.1 74.9 73.9 73.2 72.5 71.1 70.8 68.9 68.7 67.6 66.3 66.4 66.4 65.1 68.7 69.6 69.5 69.3 69.3
156.2 160.4 163.3 162.9 163.3 165.1 164.4 164.7 166.1 165.4 163 166.6 166.9 167.2 166.8 164.7 163.1 161.6 160.2 159.3 159.6 160.3 160.5 159.7 164.2 168.2 170 168.5 165 163.2 161.9 161.1 159.1 156.9 154.2 153.2 151.1 148 147.8 146.8 146.5 145.5 143.2 142.7 143.3 143.5 143 144.6 146 147.9 150 150.4 147.2 149.2 153 153.6 152.8 151.4 149 147.9 147.4 146.5 143.8 143 141.7 140.6 139.9 138.6 139.6 141.1 140.8 139.9 138.1 137 136.4 136.7 136.5 136.4 138.1 138.1 137.8 137.3 136.4 135.9 134.9 133.4 132.9 132.9 131.4 130.6 128.7 126.2 125.8 122.5 123.7 127.4 126.3 125.7 124.8 123.6 122.5 121.1 119.2 114.6 101.9 98.7 86.4 81.4 84.3 90.1 95 99.8 104.8 103.6 103.5 102.7 99.6 91.8 83 74.7 75.1 79.5 78.1 82 84.1 87.3 85.7 79.1 73.9 79.3 78.7 76.6 78.3 76.4 70.3 69.1 68.6 68 67.5 67.9 66 66.9 74.7 78.5 76.8 74.9 75.1 67.1 64.4 61.9 71.2 71.6 71.3 71 69.2 65 64.3 61.9 59.9 59.9 59.8 61.8 58.9 59.4 55.4 61.9 70.4 74.1 73.8 72 71.6 69.4 69.6 70 71.9 74.4 76 74.6 72.9 73.5 73.8 74.9 75.3 74.8 73.8 71.9 71.3 72.6 70.1 69.4 70.4 66.8 66.6 65.5 66.9 70.2 69.7 69.9 69.7 70
149.3 150.5 149.4 148.6 150.3 153.3 154.5 158.2 162 159.9 158.9 161.8 162.7 162.7 162 161.2 160.5 160.3 158.8 157.6 157.4 157.6 157.1 156 157.6 162.2 164.3 161.9 159.8 158 155.8 156.2 154.3 152 150 148.3 145.7 145.1 145.1 144.2 142.1 139.4 137.4 135.3 134.7 134 133.7 137 140.2 143.8 145.3 145.1 144.6 143.4 144.4 148.3 150.2 148.1 145.8 144.3 143.7 142.8 141.3 140.2 140.2 138.4 137.5 137.9 140.5 139 137.5 136.7 137.2 136.7 136.6 137.1 136.2 136.6 138.7 138.6 137.7 136.4 135.5 134.9 133.9 133.1 132.5 130.3 128.6 127.7 126.3 125.1 124.1 121.4 125.1 126.1 126.2 125.8 123.7 123.5 122.2 120 113.8 103.2 90.7 86.7 83.4 86.1 93.9 101.4 107 111.2 111.1 109.7 108.6 108 105.4 105.3 100 90 80 76.5 74.8 75.5 73.8 74.7 74.5 74.1 74.1 73.3 74.1 73.6 71 71 72.5 72.6 72.5 72.2 69.4 67.2 67.2 66.3 67 76.1 75.2 74.1 67.8 64.4 64.4 62.5 74.8 74.4 71.5 71.3 69.5 68.1 64.9 64.5 62.7 62.3 61.8 63.4 62.2 60 60.4 58.8 64 69.2 69.5 69.3 69.3 67.1 63.8 67.5 70.8 70.9 71.1 68.9 68.7 67.3 68.4 72.2 71.8 71.4 70.9 70.8 70.8 70.4 69.3 68.6 68.6 67.4 64.9 65.6 68.8 70 70.5 70.6 71.3 70.6
140.2 142.7 141.2 141.5 143.1 142.9 143.1 146.2 151.7 152.3 152.2 158 159.6 157.7 159.5 159.2 158.9 158.7 158.2 157.3 157.1 156.4 155.9 155.4 154.5 153.4 156.2 155.7 153.2 152.1 151.7 151 148.7 148.4 145.4 144.5 142.6 141.5 139.3 136.6 135.9 135.7 134.7 131.9 129.4 130.3 128.4 130.3 132.7 135.6 139.8 139.8 139.4 139.5 138.9 141.5 142.8 142.8 141.9 141.6 141 140.3 139.6 138.4 138.7 137.5 137.7 136.2 134.9 133.8 133 134.8 134.4 133.7 133 133.2 133.8 136.6 139.9 139.4 138.2 136.3 135.6 134.1 133.5 131.5 130 127.9 126.1 124.5 124.2 123.6 124.2 125.3 125.7 124.3 124.2 123.6 122.7 122 117.6 111.1 100.2 91.6 87.3 86.6 90.2 97.6 105.7 112.2 113.4 113.2 112.5 111.5 110.2 108.4 106.8 104.7 104.3 100.9 89 80.7 78.3 76.8 76 76.2 73.5 73.9 73.5 71.8 71.6 74.6 78 80.4 78.3 76.8 76.6 75.2 71.7 68.6 67.4 66.4 66.2 68.9 73.2 67.4 65.8 65.5 64.3 73.2 78.2 78 78.7 73.5 71.2 70 68.3 64.4 64.5 64.3 63.8 62.9 63.4 61.6 61 56.8 56.3 66.2 65.1 63.3 63.1 63 61.2 59.9 62.4 60.5 63.2 62.7 62.8 66.4 67.6 68.6 68.8 67 69.5 69.7 70.2 71.2 69.5 68.8 68.3 67.1 65.4 67.1 67.4 69.9 70.8 71.7 73.6 70.1
134.2 135.8 136.6 137.1 138.8 138.7 140.5 141.9 143.3 144.8 146.1 150.5 156.4 158.4 159.8 160.6 160.9 161 160 159.4 159.2 159.5 158.4 156.8 154.9 152.4 150.6 151.3 149.1 147.4 147.3 145.6 144.1 143.6 142.5 138.1 135.9 135.6 132.3 129.2 131.1 132.5 128.9 124.9 121.5 125.4 128.3 126 130 127.5 130.7 133.7 134.2 134.6 134 136.1 137.5 138.9 139.6 138.9 139.6 140.2 138.4 138 137 136.9 137.7 133.1 130.3 128.8 127.9 127.2 128.2 130.3 130.3 130.5 131.6 133.8 136.3 137.4 135.8 135.2 134.3 132.9 131.1 129.1 127.4 126.7 126.2 127.1 127 126.6 126.3 126.1 123.3 123.5 123.1 123.1 122.6 120.1 110.8 101 89.9 85.1 87.3 93 101.1 109.1 114.6 114.5 115.9 115.4 114.3 113.2 110.6 109.1 107.7 106.4 105.2 103.9 97.4 90.9 85.5 82 79.7 76.5 75.4 74.9 75.2 76.3 80.6 82.8 83.4 83 81.7 80.8 78.7 77.9 73 68.6 67.5 66.8 66 65.1 66.3 65.6 64.9 71.4 80.5 80.1 78.3 78.2 77.3 73.4 73.1 72.4 71.4 70 68.5 66.1 63.9 64.7 62.8 62.5 62.1 60.6 55.7 55.3 63.2 64.8 59 57.8 57.2 58 56.3 55.7 56 54.8 55 57.8 60.2 62.6 63.5 62.9 65.6 66.8 66.3 67 69.3 68.8 66.9 65.3 65.2 66.6 66.2 67.8 69.6 72.1 73.9 74.2
129.4 130.5 131 132.7 132.6 135.7 138.6 138.9 139.4 144 148.6 155.7 160 161.9 163.6 165.6 168.4 168.2 166.6 163.8 162 161.3 160.6 160.4 158.3 155.6 151.6 148.1 142.4 140.9 142.7 141.6 139.3 136.3 131.9 131.2 129 127.7 124.9 123.7 122.8 125.2 122.7 121.1 121.1 118.6 123.7 121.9 126.9 126.2 123.6 127.2 129.5 130.1 130.3 133.2 133.8 135.5 136.9 136.5 136.7 138.5 137.6 136.2 135.5 134.2 132.4 130.8 129.4 128 127.7 126.4 125.3 124 124.9 126.6 126.7 128.5 132.1 134.3 134.1 133.7 132 130.7 130.2 128.8 128.8 129 128.9 129.3 128 126.8 127.8 127.2 124.9 122.1 122.5 121.5 116.2 107 100 91.6 84.5 88.8 97.2 103.1 110.1 116.2 116.8 116.5 116.1 115.8 114.6 114.6 112.4 111.6 110.2 109.4 108.2 107.1 99.4 103.5 100.3 99.5 96.5 93.5 92.7 89.8 89.5 90 87.9 86.9 85.5 85 84.5 84.5 83.6 81.9 78 71.5 67.5 66.8 65.9 65.3 64.9 65.5 66.1 79.4 78.6 78.5 79 78.7 78.3 78.3 72.9 72.8 73.8 72.4 70.7 70.7 70 67.9 64.6 63.1 61.5 61.8 62 61 63.1 54.3 54.5 53.6 54.6 56.9 55.4 55.6 55 54.3 54 53.8 56.2 57.3 59.6 62.7 65.9 66.5 66.4 65.8 66.5 65.1 64.9 64.9 64.7 65.1 64.7 66.1 68.1 71.2 70.5 76.7
123.1 122.8 124.2 125.9 126.1 129.3 130.7 132.8 136.1 140.6 148.2 155.2 160.5 164.9 171.4 173.4 175.1 174 171 167.2 164.7 162.6 159.5 157.8 156.5 155.1 152.3 148.6 147.5 142.2 135.4 132.7 138.2 136.6 133.5 128.5 126.9 126.5 127.3 126.2 123 121.8 121.5 122.4 121.2 119.1 118.7 119.8 119.8 119.6 119.8 120.5 124.1 125.5 128.8 130.7 133.4 133.6 135 134.4 134.1 134.7 135 134.8 134.1 130.6 128.4 127 125.9 124.6 123.1 122.9 123.3 123.4 122.2 121.6 122.4 124.4 126.8 132.2 131.6 130.9 130.5 130.7 130.2 130.3 129.3 128.5 127.9 128.5 127.6 123.4 124.5 123.7 123 120.8 119.6 113.2 104.6 100.2 90.5 88.6 93.5 99.3 108.3 115 117.8 117.1 117.5 117.7 117.5 117.4 116.5 115.3 115 115.2 114.1 111.9 111.2 110.2 100.2 107.1 107.3 107.3 106.8 105.9 99.3 98 95.8 94.3 94.2 93.3 92.3 91.5 89.1 90.6 90 86.9 84.9 79.3 74.7 68 66.8 66.8 66.3 68.5 75 80.5 80.3 80 80.3 80.6 80.2 80.4 77.7 76.2 75.3 74.2 74.3 73.9 70.9 69.3 69.1 66.5 63 62.2 61.6 61.6 60.7 60.1 55.9 54.8 54.2 52.6 55.2 55.3 55.6 55.3 54.7 53.1 56 55.6 58.8 63 66.4 66 65.7 65.7 65.6 65.7 65.3 64.8 63.9 65.3 64.6 65.1 67.4 71.3 69.3 77.2
116.6 116.4 117.4 118.7 119.9 122.7 125.5 130.7 131.6 132.4 142.8 152.7 159 167 175.9 180.3 180.1 178 171 166.2 163.7 161.6 158.4 155.3 153.9 152.8 150.2 146.7 144.6 143.2 139.9 129.1 129.2 132.5 129 128.5 126.6 127.1 126.5 126.5 125.5 122.5 123.2 121.8 120.1 118.5 117.2 117.8 119.4 117.5 117.3 117.2 118.1 120.5 126 128.9 131.3 133.2 134 133.5 131.4 130.4 129.4 129.9 128.3 126.7 125.7 125.5 125.2 124.2 121.8 121 121.3 120.2 120 120.4 119.6 121.4 122.8 125.8 129.3 129.4 129.4 129.6 129 128.7 127.2 127 126.5 123.6 119.3 119.8 117.1 115.1 115.9 114.1 112.9 106.9 96.6 89.9 89.9 95.8 103.9 109.5 114.2 118.5 118.8 117.6 117.2 117.4 118.1 117.2 116.5 115.6 115.7 115 114.6 114 112.2 107.5 108.2 107.3 107.3 107.1 106.9 106.8 105.1 101.8 99.3 99.2 98.7 96.5 95.2 93.8 92.1 93.3 92.2 92.2 90 88.5 83 76.7 76.2 75.7 77.3 83.5 85.5 86 84.3 83.4 83.6 83.8 83.1 81.3 77.6 76.1 75.6 74.4 74.2 73.8 73.6 70.6 69.8 68.7 68.4 67.7 66.6 65.4 64.8 65.1 61.6 58.5 55.5 52.5 54.3 55.3 54.9 54.2 54.5 54.1 54.1 54.5 56.8 61.4 65.8 65.7 66.1 66.1 66.9 66.7 65.2 64.6 62.9 63.8 63.8 64.6 68 70.9 69 77.4
113.3 113.9 113.6 114.6 115.4 118 120.6 125.2 127.3 129.4 136 147 158.6 168.1 173.7 174.7 173.7 170.8 167.4 160.4 158.2 153 149.7 146.9 147 146.5 144 140.6 138.7 136.8 131.7 127.8 123.4 126.1 125.2 122.6 121.3 121.3 119.2 117.3 121.5 118.9 116.9 116.9 115.6 113.7 114.5 115 116.2 115.3 116.2 116.1 116.1 116.3 116.9 120.5 126.3 129.3 128.9 128.8 127.8 128.8 130.7 132 128.7 125.2 122.4 121.4 123.4 122.1 121.4 119.7 120.1 121 119.1 116.9 116.6 118.2 119.6 120.1 121.1 122.2 124.7 125.2 125 124.4 123.3 122.8 122.2 115.7 113.2 111.9 111.5 110.5 108.7 107.4 106.5 106.4 88.3 90.8 96.4 106.3 111.4 115.5 118.9 119.9 120.2 119.1 119.1 118.1 118 117 116 115.2 115.2 114.9 114.5 114.3 112.8 104.7 110.9 110.4 109.5 108.3 107.3 107 105 103.5 102 101.2 101.1 99.6 98.2 96.7 95.1 95.6 94.2 94.5 93.3 92.4 90.5 89.5 88.4 88.6 89.1 89.4 89 87.6 86 85.9 85.9 84.3 82.9 81.9 81.5 80 79.2 78.8 78.6 78.3 77.8 75.4 74.7 74.5 71.4 69.4 69.8 67.9 66.6 66.3 65.7 64.9 63.9 60.3 58.4 54.4 51.7 51.9 52.6 52.7 52.6 54.7 54.9 58.1 60.5 64 65.1 65.4 65.2 65.2 64.6 64 63.1 63.2 63.7 64.9 66.8 69.2 70.3 74.5
111.9 111.9 112.2 113 113.2 113.6 115.9 119.9 119.8 122.7 127.2 138.8 146.7 158 165.4 166.4 165.9 167.1 156.8 150.6 145.2 140.5 131.8 123 129.2 132.5 131.5 129.8 129.9 127.5 122.8 122.2 122 119.6 119.1 115.7 115.4 113.3 112.7 112.8 111.5 111.1 108.8 108.1 107.4 107.9 107.1 106.9 107.7 109.5 114 115.1 113.4 116.6 116.1 116.3 126.1 130.2 131.1 130.2 129 130.8 127.6 123.3 123.2 122.2 119.9 118.5 118.7 118.7 115.2 112.6 110.6 110.1 111.2 110.9 111.9 110.9 111.4 115.5 115.1 114.7 114.7 114.8 113.4 113.6 115.6 115.6 112.6 110.2 110.4 110.4 111.1 113.5 102.8 94.1 88.8 87.6 90.4 96.8 104.1 114.5 119.1 119.1 120 120 120.4 121 119.9 119.7 118.1 117.2 116 114.9 114.6 114.4 114.1 113.9 112.2 108.3 110.4 111 110.3 108.8 108.1 108.3 107.9 105.3 104.3 104 102.9 102.4 101 99.7 97.2 97.6 96.2 94.9 94.4 93.9 92.2 90.5 90.8 90.4 89.5 90 89.6 89.2 87.2 86.1 85.4 85.2 83.8 83.1 82.4 81 78.9 78.8 78.8 78.9 78.8 77.1 76.8 76.7 74.3 73.4 72.9 73.3 71.4 68.2 67.6 67.2 66.1 64.9 62 58.9 55.6 53.9 51.5 52.6 52.4 52.3 57.5 53.5 53.3 56.1 58.3 60.1 59.7 64.1 64.7 63.6 63.4 63.5 63.9 64.6 65.2 67.8 69.2 73.1
