ncols 200
nrows 88
xllcorner 360000
yllcorner 471250
cellsize 50
40.4 38.1 37.6 37 36.7 36.5 36.4 36.3 36.2 36.2 36 35.9 36.3 36.5 37.1 37 37 36.8 32.9 35.3 35.4 35.6 36.1 36.5 36.8 37.7 38.4 39.2 40.1 39.8 40.2 39.8 41.1 42.6 44.4 45.3 46.5 47.2 47.6 48.8 49.5 50.1 50.9 52.2 56.8 60.6 59.8 58.7 58.5 57.5 57 58.2 64.6 67.8 67.5 64.7 62.7 62.9 63.9 65.7 66.8 67.9 68.4 69.2 69.7 70 73 76.5 77.7 78.5 77.8 78.1 80.1 84.2 88.2 93.8 97.7 100.1 101.3 104.5 106.9 107.5 105 102.9 98.2 95.1 100 98.8 102.5 103.1 108.4 110.2 113.3 115.9 118.2 120.4 119.8 117.6 117.4 118.2 119.4 121.3 124.8 128.8 128 128.9 130 132.4 136.6 135.8 136.7 138.6 141.1 146.3 149.2 151.4 153.9 156.8 159.4 161 162.7 164.8 167 165.6 170.1 175.9 180.3 183.2 182.6 188.8 185.9 196 203.3 206.1 204.8 198.7 208.5 205.5 209.4 216.6 222.3 224.7 228.8 231.3 231.2 234.2 234.3 237.1 242.5 246.4 249.6 254.6 257.3 258.1 258.8 261.5 263 263.4 263.2 259.3 254.9 254.1 254.7 256 259.1 264.6 274.4 282 288.2 293.5 307.4 326.2 331.7 338.9 340.8 346.8 339.4 329.2 325.9 317.8 308.4 297.1 290.7 290.1 288.3 284.4 278.5 275.3 273.8 267.8 254.7 257 269.4 274.8 279 285.7 296 308.4 324.9 349.3
40.9 37.9 37.3 36.7 36.6 36.2 36.2 36.1 36.1 36.1 36.1 35.6 36.1 36.5 36.9 36.7 36.8 36.4 32.5 35.5 35.7 35.6 35.6 35.9 36.5 37.1 37.7 38.5 39.1 38.1 40.6 41 41.4 45.1 51.7 52.4 51.2 51.6 53.2 51.9 50.4 50.4 53.2 57.8 61.1 62.8 62 61 61.3 62.2 60.8 59.1 63.8 66.9 66.4 63.3 61.4 62.9 67.7 71.1 69.7 68.6 68.1 68.4 69 69.8 75.9 77.9 78.4 78 77.2 77.1 79 82.2 86 89.7 92.9 95.1 96.5 100 103.1 104 102.9 100.7 97.2 94.8 93.4 100.1 100.1 101.3 103.2 106.4 109.7 112.7 114.9 116.4 116.1 115.5 116.4 117.9 120.1 122.1 124.1 127.2 128.4 129 130.2 131.6 134.3 133.5 136 140.4 142.5 145.6 148.4 150.3 151.3 152.6 154 156 158.1 160.7 162.4 162.1 166.6 169.8 174.8 180 176.5 181.8 183.9 192.9 199.9 202.4 204 196 202.1 200.7 208.9 213.3 214 222.2 228.1 228.2 229.3 231.5 232.1 235.7 240.9 246.3 251 254 255.2 257.2 260.9 263.9 266.4 266.1 263.8 260.4 255.2 251.9 252.5 253.8 256.4 264.4 271.6 276.8 277.8 283.5 290.7 311.6 324.9 328.5 331.3 333.2 328.1 321.2 320.9 313.3 303.5 293.2 287.6 286.7 289 286.2 283 282.3 280.2 275.5 263 248.2 264.9 269.7 272.1 277.7 285.9 304.8 324.2 343
40.3 37.1 36.7 36.3 36.3 35.9 36.1 36 35.9 35.9 35.3 35.4 35.9 36.4 36.4 36.4 36.4 36.2 32.9 34.9 35.8 35.4 35.9 36.1 36.5 37.2 37 38.8 38.8 39.7 40.1 40.9 47.8 55.1 58.7 61.1 64.5 65.6 63.1 57.1 51.1 51.2 54.8 58.2 61.4 63.9 63.7 62.4 64.2 66.3 65.7 62.2 63.7 66.2 65.4 61.3 60.8 66.5 72 74.7 71.5 67.6 67.3 67.7 68.7 75.1 77.4 79.4 79.4 77.4 77.4 76.4 77.9 80.7 83.9 86.3 88.9 90.9 92.5 96 98.8 100.3 99.7 98.1 95.4 93.2 92.5 93.5 99.6 97.7 98.3 102.7 105.9 108.9 111.6 113.8 114.1 112.8 115.3 117.4 119.7 124.2 129 133.4 134.5 133.3 131.5 131.4 132.2 132.8 137.5 142.5 145 146.5 148.5 149.6 150.6 150.3 150.2 152.2 155.1 157.7 159.3 161.2 164.3 165 169.2 174.6 174.1 176.3 182.1 187 192.8 198.1 203 192.5 196.8 195.2 199.3 203.6 208.8 217.5 222.3 226.3 227.3 228.5 230.9 235.4 243.1 248.5 251 251.8 253.7 255.9 260.6 264.8 267.6 265.6 261.8 259 255 251 251 252.4 254.4 262.3 267.3 269.2 269.7 270 274.3 284.1 302.3 311.7 322.3 325.1 325.5 318.7 313.2 309 299.9 290.7 286.9 283.6 286.2 284.5 282.6 276.4 272.2 272.5 267.7 251 250.4 266.5 269.8 273.8 280.7 294.4 313 332.5
38.8 36.7 36.1 36.1 36.1 35.6 35.3 35.5 35.6 35.5 35.6 35.5 36 35.7 35.7 35.9 36 35.9 33.2 33.6 35.4 35.3 35.5 34.4 36.4 36.9 37.4 37.8 38.6 40.7 43.1 52.2 57.5 59.8 61.6 63 66.3 66.2 63.9 57.1 50.2 50.9 54.1 57.7 61.3 63.4 63.3 62.7 66.2 69.7 68.4 64.4 64 66.1 63.9 59.5 61 72.9 78.6 79.1 73 66.6 66.7 67.1 71.1 76.3 78.4 80.3 80.6 78.9 78 76.3 76.6 79.2 82.4 84.5 86.3 87.8 89.1 92.3 95.3 96.9 96.9 95.7 94.2 91.5 91.5 92.7 94.5 99.3 97.5 99.4 103.2 104.7 106.2 108.6 112.3 114.7 116.4 119.3 121.9 127.7 134.3 138 139.8 139.2 135.8 130.7 130.4 133 136.2 141.4 144.3 148.4 152.6 153.4 153.8 152.1 150.2 149.6 153.7 156.8 159.3 161.7 162.3 162.5 163 168.6 170.7 172.9 176.8 181 185.9 193.6 192.8 187.9 188 189 192.7 198.5 208.3 218.2 223.2 224.3 225.8 226.6 231.9 239.3 244.6 246.4 247.5 250.4 251.7 252.5 257.1 262.8 266.2 263.2 259.4 257.8 255.6 248.5 248.8 251.8 254.6 260.9 263.3 262.7 262.3 260.3 262.5 271.5 284.7 297.6 309 320.3 322 318.5 312.5 302.8 293.3 290.4 286.2 279.7 281 278.4 271.5 267 263.6 264.1 261.7 255.9 239.8 265.5 270.3 274.2 277.5 284.5 298.9 315.9
37.6 36.4 35.9 35.8 35.8 35.5 35.3 35.4 35.5 35.4 35.7 35.9 36.2 35.3 35.2 35.6 35.6 35.7 34.3 32.9 35.4 35.1 35.8 35.8 36.1 36.5 36.9 37.8 38.5 40.7 45.3 54.2 58.9 60.8 62.1 63.5 64.6 63.8 61.6 55.9 49.4 49.3 52.6 56.2 59.7 61.7 61.6 62.4 66.5 71.8 70.4 65.4 64.2 65.6 62.1 58.6 63.6 76 81.2 79.1 72.1 65.7 65.9 66.3 72.2 76.9 78.7 80.5 81.6 79.2 77.7 76.8 75.2 77.1 80.4 83.3 84.9 86 86 88.8 91.6 93.9 94.5 93.6 92.4 90.6 91.1 91.8 93.7 96.5 99.4 99.2 101.2 104.7 108.4 111.9 113.6 116.1 118.2 119.8 123.4 130 137.5 140.3 140.9 139.2 136.3 129.1 129.4 130.8 135.6 139.2 143.6 147.1 152.3 155.6 156.2 155.5 154.2 149.4 154.2 158.5 160.7 160.2 158.8 159 160 163.2 166.5 168.9 172.1 175.1 179.9 186.8 187.8 185.7 184.1 185.7 191.7 197.8 206 213.7 218.5 222.5 222.2 225.1 232.9 237.1 238.6 239.6 244.6 248.1 247.1 247.1 251.9 258.8 263.4 260.8 258.1 256.1 254.2 245.9 250.1 252.8 259.3 261 259.5 256 255.9 255.6 257.1 263.8 271.6 285 297.9 311.2 316.9 318.7 311.5 298.5 288.2 291.6 286 278.2 276.3 271.2 263 257.1 255.7 254.7 251.2 249.1 240.7 264.3 274.6 275.8 275.2 277.2 283.8 299.8
36.7 35.9 35.6 35.4 35.4 35.4 35.3 35.3 35.3 35.4 35.7 36.1 35.7 35.1 35.1 35.2 35.2 35.3 34.8 32.5 35 35.7 35.2 35.3 35.8 36.3 37.1 37.9 38.6 39.7 46.5 54.1 57.5 59.1 59.4 60.7 61.4 59.8 57.8 53 48.6 48.2 50.2 53.7 57.1 58.9 59.3 60.3 64.7 70.9 70.9 65.3 64.2 64.7 60.3 58.3 65.3 74.9 79.2 77 71.5 65.2 65.2 67.1 72.3 76.9 79.6 81.7 82.6 80 77.8 76.7 75.5 74.9 78.8 82 83.6 85.1 84.7 86.7 89.2 91.3 92.2 92.1 91.4 90 90 90.9 95.6 97.7 99.8 100.7 101.4 104.3 107.6 112.1 113.6 116.3 117.9 119.2 122.2 130.5 137.4 139.2 138.4 136.3 132.7 128.1 127.7 128.1 130.9 137.1 141.4 144.8 147.4 151.4 152.6 153.2 152.2 148.8 157 159.9 160.7 158.3 156.4 157.2 159.2 161.7 164.6 167.1 169 171.3 175.4 183.2 186.7 184.9 182.5 183.2 191.8 197.4 201.7 205.6 211 214.6 216.6 223.1 227.4 230.6 231.3 233.6 239.7 241.3 240.3 242.2 247.5 255.7 259.9 258.6 255 244.5 246.6 253.6 254 257.3 261.3 259.7 255.8 253 253.5 254.3 256.1 260.2 266.7 273.6 282.7 299.6 315.7 314.7 306.8 296.4 286.7 288.1 284.9 277.7 272.1 266.2 256.1 246.3 242.5 243 233 246.2 255.4 268.6 277.7 273.3 272.9 274.2 274.9 287.7
35.9 35.8 35.6 35.4 35.4 35.3 35.3 35.4 35.3 35.3 35.7 35.7 35.4 35.1 35.1 34.6 34.7 35 35 32.1 35.2 35.3 35.6 36 36.7 36.6 37.6 38.3 38.8 40.5 48.2 52.9 55.6 56.3 56.5 57.3 57.2 55.3 53.3 49 47.6 47.7 48.1 50.9 53.5 55.3 55.6 56.3 61.8 67.5 69 65 63.8 64.2 60 58.7 64.5 73.3 75.8 74.5 67.7 64.2 64.8 68.7 72.2 76.6 79.8 82.4 83.6 81.3 77.8 76 75 74.9 77.8 80.4 82.9 84.2 84.2 85.3 87.1 88.9 90.5 90.6 90.1 89.4 89.4 91.7 95.6 97.6 99.4 101.5 102.6 104.8 107.9 111.4 114.4 115.4 116.6 118.5 121.8 129.1 134.2 136.7 135.9 133.7 128.3 126.3 126.2 126.4 126.7 131.9 136.9 140.1 140.6 145.3 147.2 148.2 145.9 151 155 157.4 158.4 158.2 156.3 156.4 159.8 162.6 164.4 165.9 166.9 168.6 171.2 176.5 182.7 183.7 180.4 182.1 190.8 195.3 197.5 199.7 203 205.5 210.3 215.8 220.7 223.6 223.4 225.2 231 233.1 234.7 238.3 244.4 251.6 252.5 252.3 244.3 249.4 255.5 257.8 258.4 259.9 260 255.8 250.7 250.5 252.2 253.7 255.2 257.5 261.4 267.1 274.1 287.3 302.5 306.7 299.3 295.2 286.6 279.4 281.6 274.7 268.8 262.6 250.3 234.6 215.1 211 239.7 251.5 263.1 274.3 280.4 272.1 266.9 267.7 269.1 278.1
34.6 35.2 35.2 35.3 35.3 35.2 35.3 35.4 35.4 35.3 35 35.1 35.1 34.9 34.6 34.6 34.7 34.9 35 32 35.1 36 37.8 37.6 37.5 37.3 38 38.3 39.8 43.5 48.7 51.3 52.9 53.3 53 53.1 52.8 50.3 48.8 46.7 46.5 46.5 46.9 47.7 50.1 51.5 51.4 52.7 57.8 63.3 65.6 62.6 62.5 63.4 59 57.1 63.4 69.8 72.3 71.3 65.7 63.2 65.1 68.5 71.4 76 79.6 82.8 84.6 82.3 78.4 75.1 73.4 74.4 78.6 81.7 83.3 84.2 84.1 85 87 88.9 90.2 89.9 89.4 89 89.2 91.9 95.1 97.1 98.8 101.5 103.2 105.3 107.9 111.3 113.5 115.2 115.9 117.7 120.1 125.4 129.6 132.4 133.4 131.4 125.7 125 124.4 127.1 127.5 127.5 129.4 132.6 139.2 142 143.4 143.8 143.8 147.5 150.6 153.5 155.7 158.4 158.6 155.9 160.4 164.6 164.6 165.7 165 166.8 169.3 171.3 174.4 177 178.3 183.8 190.3 193 194.4 195 195.9 197.3 202.9 209.6 214.8 216.9 217.2 219.6 223.7 227.2 229.4 233.2 239 244 244.3 235.7 241.7 253.6 258.2 261.6 262 261.3 257.2 252.3 248.2 248.9 249.7 250.6 251 251.4 255.3 260.4 267.6 275.4 284.5 294.8 292.8 289.7 283.3 275.2 277.5 271.4 266.7 262.4 249.9 232 206.9 223.1 239.6 252.6 264.1 275.7 275.1 266.1 260.5 262.4 264.3 269.9
34.5 35.2 34.8 34.9 35.1 35.2 35.2 35.1 34.8 34.4 34.6 34.8 34.7 34.4 34.5 34.6 34.8 34.9 34.3 31.9 32.2 36.7 38 38 37.9 38.1 38.8 39.7 41.8 44.1 47.2 49 50.2 49.8 49.6 49.3 48.9 47.5 46.6 45.8 44.9 44.5 45.9 46.5 46.5 47.7 47.5 48.8 54 58.9 62 60.5 60.2 60.9 56.1 56.4 62.6 67.1 68.3 67.8 63.7 62 63.3 66.8 70.5 74.9 78.6 82.4 85.2 83.3 78.8 74.1 72.5 76.7 81.1 84.2 85.2 85.6 85.2 84.7 87.7 89.5 90.5 89.8 88.6 89 89.3 91.4 94.8 97 98.8 100.8 103.4 106 108.1 109.4 111.4 113 113.7 115.8 118.5 121.3 124.4 127.6 130 128.6 123.1 122.7 124.2 130.1 129.4 128.2 128.1 129.8 135.7 140.1 141.1 141.6 140.9 143.1 147.1 150.6 153.9 156.3 159.2 154.9 160.4 163 163.5 164.9 164.1 166.9 168.6 169.6 171.7 175.1 177 181.4 188 190 191 191.2 191.1 193.2 198.8 203.8 208.1 210.3 211.9 214.9 219 222.8 224.7 228 231.9 235.1 230.8 242 249.5 252.7 256.7 260.2 263.4 262.6 258.7 251.8 246.6 247.5 249.4 249.9 248 244.2 248 253 261 267.8 273.5 280.4 282 280.1 279 272.7 273 268.9 264.1 261.1 252.6 237.3 210.4 219.4 239.2 251.4 260.8 267.1 264 259.7 258.7 258.4 260.6 263.9
34.4 34.7 34.4 34.5 34.5 34.4 34.2 34.1 34 34.2 34.2 34.2 34.1 34.2 34.5 34.6 34.7 34.8 34.8 31.9 32 37.5 37.5 37.6 38 38.2 38.5 40.7 43.4 44.2 45.6 46.8 47.1 46.8 46.6 47.4 47.2 46.1 45.4 44.5 43.4 43.4 44.4 45 44.9 45.5 46.2 47.6 50.8 55.9 58.4 57.3 55.9 55.1 55 57.5 61.1 64.1 64.6 64.3 61.9 61.2 62.2 66 69.4 73.6 77.3 81.1 83.6 82.2 78.2 71.7 73.7 79.5 84.5 87 87.4 87.4 86.9 86.1 88.7 90.7 91.1 89.8 88.8 90.1 90.7 91.7 94.8 97 99.2 101.4 103 105.6 107.4 108.2 109.5 111.4 111.7 113.4 115.8 118.4 120.7 123.8 126.5 125.7 121.6 121 127.6 132.4 132.5 129.9 128.5 131.1 133.2 137.1 141.8 140 138.5 139.2 143.5 146.6 148.6 150.8 153.5 150.4 157.6 159.4 161.7 163.4 162.6 165.1 167 168.3 171.3 174.4 174.2 176.7 184.7 186.8 187.9 188.2 189 192.1 194.5 198.1 201.6 204.4 208.2 212 216.4 219.5 220.8 220.8 219.9 222 235.6 244.6 247.9 246.3 252.1 259.1 263.5 263.1 258.8 251.2 246.6 248.9 252 254.9 253 244.8 242.2 246.5 255.4 261.4 265.6 269.8 273.5 275.5 276.3 273.1 265.8 263.1 260.4 259.9 254.5 241.1 214.9 214.1 235.7 247.1 256.6 260.7 265.2 263.3 258 254.1 255.1 257.3
34.2 34.1 33.9 33.9 33.9 33.9 33.5 33.4 33.5 33.7 33.9 33.9 33.9 34.2 34.5 34.6 34.6 34.6 34.8 33.2 31.8 37.3 37.3 37.5 38 38.1 38.3 44.1 43.5 43.6 44.2 44.4 44.3 44.3 45.2 47.7 47 44.8 44.2 43.6 43 43.2 44 44.6 45.3 46 46.5 47.4 49 53.6 54 52.9 52.1 53.9 57.5 59.3 60.3 61.6 61.8 61.3 60.6 60.7 61.8 65.4 68.2 71.8 75.2 77.7 79.6 78.8 76 70.6 73.6 80.9 86.5 89 89.1 88.4 88.5 87.8 89.6 90.7 91.2 89.4 88.7 91.4 92.6 92.8 95.1 96.7 100.1 102.7 104 105.3 106.4 107 107.9 109.3 109.9 110.9 113 115.6 118.5 119.9 120.8 121 118.9 122.5 129.6 133.2 133.6 129.9 130 133.3 134.2 136 136.4 138 139.7 138.5 141.2 142.1 143.4 144.9 146.5 145.1 151.2 154.4 159.7 161.8 161.1 162.4 165 167.2 171 173.1 172.3 175 182.3 184.4 185.6 186.3 188.3 190.4 192 193.9 196.9 199.9 204.9 209.4 214.7 215.8 213 208.9 214.7 228.8 238.7 245.4 244 242 248.3 257.3 258.3 255 251 245.8 247.9 254 258.2 258.8 253.7 244.6 241.9 245.1 252 256.7 260.6 265 268.4 271.4 274.3 275.2 273.2 269.9 263.7 252.8 254.6 244.1 223.8 204.9 231.2 244.9 254.9 266.7 268.9 261.4 256.8 253.2 250.8 252.5
34.2 34 33.6 33.3 33.1 31.9 33.4 33.1 33.3 33.4 33.7 34 34 34.2 34.4 34.5 34.5 34.4 34.6 34.7 31.7 37.2 37.4 37.6 37.9 38 38.3 42.5 42.1 42.1 42.2 42.3 42.2 42.6 45.1 47.4 46.7 43.9 43.3 42.7 42.2 43.1 44.1 45.1 45.9 46.5 46.9 47.6 48.6 50.2 50.5 51.4 54.3 58.2 62.1 62.9 61.2 60.5 60.1 60 59.8 59.7 60.7 64.2 66.6 69.1 71.5 73.2 74.8 74.9 72.8 68.7 74.1 81.1 87.2 90 89.3 89.3 88.9 88.5 89.6 90.3 90.4 87.5 89.9 92.7 94.2 95.6 97.7 99.2 102.2 106 107.5 109.1 105.3 105.2 107 107.7 108.8 109.1 111.1 114.3 116.6 118.5 118.4 118.1 118.7 124 128.8 131.3 132.1 128.6 129.4 132.9 132.9 137.3 141.3 143.6 144 142.5 141.3 140.8 140.4 140.5 140.6 140.8 144 149.5 156.6 160.9 159.6 160.7 163.8 165.9 170.1 170.9 170.6 172.6 177.6 182.1 184.5 186.1 187.8 188.7 189.8 191.4 193.4 196.3 201.9 207.9 212 211.8 204.5 205.8 219.6 231.2 238.6 242.7 242 240.2 247 250.6 248.7 245.4 241.4 243.3 248.6 253.1 254.8 253 248 242.6 241.2 244.7 249.1 253 257.3 261 264.5 268.5 272.2 274 272.2 269 264.6 258.6 248.3 243.8 225 195.5 226.8 241.3 249.4 258.8 265 258 254.5 252.2 248 249.4
33.8 33.3 33 33.1 33.2 33.5 33.1 33.2 33.3 33.5 33.8 34 34.1 34.2 34.2 34.4 34.4 34.3 34.6 34.7 32 36.9 37.2 37.5 37.8 37.8 37.6 39.2 40.8 40.9 40.9 40.6 40.7 41.6 44.2 46.9 47.3 44 42.6 42 42.1 43.3 46.5 50.3 51.9 51.4 48.9 47.5 47.5 49 51.1 54.8 59.1 63.6 68 69 65.9 61.2 59.4 59.3 59.1 58.9 60 63.2 64.6 66.3 68.2 69.4 70.8 71.3 69.7 68.5 74.5 80.6 86.5 89.1 87.9 88.1 87.5 87.5 88.5 88.2 87.1 86.7 90.6 93.6 95.6 98.3 101.6 105 108.8 110.7 109.9 109.3 106.9 104.9 104.6 105.7 107.2 107.9 109.9 113 115 118.1 117.1 116.8 117.7 119.2 123.8 127.4 128.5 126.4 126.9 129.3 135.7 144.4 147.9 149 148.6 147.5 146 144.5 143.1 140.8 138.5 138.3 140.2 144.7 152.6 155.5 156.9 159.1 162.2 164.9 167.5 168.9 168.7 170.7 179.1 183 185.6 186.9 187.1 186.9 188.5 189.4 190.9 193.8 201 207.1 211.3 211.1 201.2 204.4 217.7 227.1 234.2 238.9 239.5 238.5 242.2 241 238.8 236 236.4 238.1 242.1 245.7 246.8 244.9 242.4 240.2 240.6 243.7 247.5 251.5 254.5 257.4 261.5 265.6 269.6 270.3 268.5 266.4 263.1 258.4 247.9 240.7 228.7 207.3 219.2 236.5 244.6 256.5 261.3 254 248.8 245.5 243.9 247
33.9 32.9 32.9 32.9 33 33.1 33.1 33.1 33.2 33.3 33.6 33.7 33.8 34 34.2 34.3 34.4 34.2 34.6 34.3 31.5 36.6 37 37.4 37.7 37.6 37.8 37.7 39.7 40.4 40.3 40.2 40.2 40.9 44.4 47.4 47.9 44.5 42 41.6 42.3 45.7 51.2 55.1 57.9 57.5 54 49.5 48.7 50.3 53.7 58.7 63.6 68.4 73.9 74.1 70.1 63.8 59.4 58.5 58.3 58.2 59.5 61.5 62.6 63.9 65.1 66.5 67 67.7 66.6 67.8 72.6 79.1 84.1 86.1 86 85.3 86 86.1 85.6 83.4 86.6 88.5 91.5 95 98.3 102.6 108.7 113.9 118.1 119.5 117.3 111.6 108.7 105.3 103.5 104.6 106 107.4 108.8 110.4 112.9 116.3 114.8 116.1 116.9 118.4 121 122.9 123.1 123.9 126 131.8 140.2 147.7 150.2 150.1 149.3 148.5 148.2 148.4 148.3 147.1 143.8 137 140.2 146.4 152.5 157.5 157.3 158.1 160 162.1 165.6 166.2 166.1 169.2 176.8 181.1 184.9 186.2 185.6 186 187.1 187.3 189.7 193.7 200.2 206.3 210.1 207.8 196 201.9 213.9 221.2 229.1 232.9 232.8 234.6 234.2 232.4 229.6 228.4 229.1 230.8 233.2 237 239.2 238.9 237.6 237 239 242.3 246.6 248.6 250.3 253.9 258.3 262.7 265.2 265.2 264.1 262.6 260.4 255.1 248.3 237.8 227.3 205.4 205.8 229 238.4 253.6 253.4 245.9 241.2 239.3 242 244
33.2 32.9 32.7 32.8 32.9 33 33 33 33.1 33.2 33.4 33.6 33.6 33.8 34.1 34.3 34.3 34.4 34.5 33.4 31.5 36.8 37.2 37.4 37.6 37.5 37.4 37.2 37.2 39.4 39.4 39.7 39.8 40.9 45.2 47.7 47.1 43.7 41.2 41.1 42.2 47.8 53.9 58.7 61.3 61.6 57.9 51.9 50.5 51.3 54.6 60.8 67.2 72.7 78.5 79.2 74.3 65.3 58.5 57.8 57.7 57.7 58.4 60.4 61 62 62.8 63.2 64.1 65.3 65 67 70.7 75.6 80.9 84.2 83.7 84.4 85.6 83.5 81.2 85.3 88.1 89.9 93 97.2 102.2 109.3 117.2 122.8 125.1 124.6 121.7 115 107.8 103.9 103 104.2 105.4 106.3 107.3 108.7 111.1 112.6 113.9 115.5 116.1 119.4 122.8 123.1 121.8 122.7 126.5 134.8 141.4 144.9 145.2 144.9 145.7 145.8 145.2 145.8 146.4 148 147.7 139.4 141.9 152.7 159.4 159.2 157.2 156.8 159 160.4 162.7 163.6 164.7 167.4 174.2 177.2 180.7 182.7 183.1 184.2 183.6 185.8 189.4 194.2 199.3 203.6 205.1 200.8 192.7 200.8 210.1 216.1 221.4 223.5 225 225.4 224.7 223.9 222.5 222.4 223.3 224.8 226 230.3 234.2 235.3 234.4 234.9 237.9 242 243.7 244.8 247 250.6 254.9 258.3 258.8 259 259.5 258.9 256 249.4 244.7 230.6 219.6 199.7 179.7 220.1 234.9 247.8 243.3 238.6 233.4 238.4 239.6 238.4
32.8 32.6 32.6 32.8 32.9 33 33.1 33.2 33.1 33.2 33.4 33.5 33.4 33.7 34.1 34 33.8 34.2 34.6 32.5 33.1 36.9 37 37.2 37.4 37.4 37.1 37.2 36.8 36.8 37.7 38 39.3 41.9 45.6 47.9 46.3 42.6 40.4 40.7 41.6 48.2 54.5 58.3 60.5 61.7 57.7 50.7 50.5 51.3 55.4 64.2 70.9 75.8 79.2 79.5 75.6 65.9 57.9 57 57 57.2 57.6 58.5 59.1 59.9 60.7 61.5 62.7 63.4 63.8 66.3 69.5 74.2 79.1 81.6 82.1 83.4 84.2 78.8 82.4 86.6 89.4 91.6 95 99.2 105.6 113.4 120.3 125.3 126.5 124.9 120.9 112.3 105.6 101.8 102.4 103.7 105.1 108.6 112.2 114.2 113.6 111.8 114.3 114.8 119.9 124.1 125.8 125.5 121.9 123.3 125.5 132 135.9 137 137.3 138.3 139.4 139.8 140 140.4 141.5 143.1 143.8 137.4 141.9 152.5 157.2 157 156.1 156.8 158.1 159.2 161 162.1 164.4 165.8 170.1 173.2 176.9 179 179 180.7 179.3 183.1 188.3 192.3 194.6 197.6 198.8 195.2 188.2 198.7 205.6 209.6 212.3 214.8 215.6 214.5 213.1 215 216.1 219 223.1 221.7 221.1 226.6 231.8 233.8 233.2 233.4 236.6 239.2 240.8 242.2 244.4 247.7 250.9 252.9 253.4 253.9 253.9 254.9 249.7 244.1 241.6 226.3 198.7 175.7 180.4 216 228.5 238.1 235.4 230.1 229.6 234.9 234 233.5
32.4 32.5 32.6 32.7 32.7 32.9 33 33.1 33 33.2 33.4 33.5 33.5 33.8 33.9 33.6 34 34.2 34.1 31.5 36.2 36.4 36.8 36.7 37.3 37.3 37.1 37.5 37 36.5 37 37.4 39 42.7 46.3 47.4 44.5 41.1 39.9 40.3 41.1 46.8 51.2 54.6 57.9 58.4 54.5 48.8 49.8 51.8 58.9 65.8 71.4 72.6 75 74.5 71.2 65.3 57.3 56.4 56.5 56.6 57.1 58.2 59.2 59.9 60.8 61.5 62.5 63.6 63.8 65 68.1 72.4 76 78.1 80.4 81.4 78.6 79.6 83.6 88.9 91.1 92.3 96.1 99.1 104.8 111.4 117.7 121.4 122.1 120.4 115.6 108.3 101.7 100.8 101.7 102.8 105.6 110.7 115.5 119.2 120.7 117.8 112.1 115.1 121.8 125.9 127.9 126.5 122.3 120 123 126 128.8 129.1 129.7 131 132.1 133 134.4 136.3 137.2 134.4 132.3 136.7 144.9 148.4 154.2 155.8 155.1 157.1 157.2 159.1 161.8 162.8 165.1 165.6 166.1 171.1 174.4 175.1 175.4 176.3 176.4 179.5 183.5 186.7 187.7 189.5 191.8 189.5 184.5 197 201.3 203.3 204.7 206.4 206 204.7 204.9 207.5 212.8 220.1 221.5 219.1 219.3 225 231 234.3 233.5 229 232.9 235.6 239.1 241.4 242.8 244.9 247.5 248.8 249.4 250.1 250.8 249.6 244.2 238.6 236.2 215.5 188.6 163.6 182 212.3 223 230.6 229 225.3 226.1 230.2 228.9 228.3
32.1 32.3 32.3 32.3 32.5 32.7 32.8 32.9 32.9 33 33.4 33.3 33.2 33.2 33.6 34 34 34.1 32 31.5 36.3 36.5 36.7 36.3 37.1 37.1 36.9 37.3 37 36.6 36.7 37.2 40.6 44.4 46.8 46.4 43.1 40.1 39.5 39.9 40.5 44.5 48.5 51 52.9 54 51.1 47.4 50.2 52.9 59.4 64.6 68.2 68.5 67.7 67.8 65.9 62.1 56.2 55.8 56 56.1 57 58 58.9 59.8 60.8 61.9 62.7 63.6 64.4 64.8 66.3 68.7 70.9 74 77 77 76.4 79.2 81.9 88.3 91.2 92.2 93.8 96 99.4 104.7 109.8 114.3 115.5 113.9 109.8 102.7 98.8 99.7 100.6 105.3 109.4 115.1 120.2 123.5 126.4 125.6 114 113.7 120.4 124.3 125.3 123.8 119.9 118.9 120.9 123.4 124.2 124.5 125.4 125.6 126.7 128 129.8 131.7 131.5 130.9 133.7 138.9 142.8 145.9 151.7 156.3 154.4 156 156.4 160.9 162.5 162.8 163 163.9 168.1 170.8 172 172.3 171.5 171.4 173.5 175.3 178.8 180.4 181.4 183.7 186.1 180.1 183.1 194.1 197.7 198.1 197.8 198.6 198 198.3 199.6 206.2 213.1 217.3 216.6 215.2 217.4 223.8 230.2 233.9 231.4 223.1 228.4 235.3 240.6 241.9 241.6 243.3 244.9 245.6 246.5 246 245.5 241.7 238.5 235.6 233.5 209 171.9 156.8 187.5 207.5 220.8 225.1 225 221 221.4 225.3 225.4 225
31.9 32.1 32.2 32.4 32.6 32.6 32.6 32.7 32.8 32.9 33.4 33.2 33.4 33.7 33.8 33.9 33.8 33.7 31.5 34.7 36 36.4 36.2 36.3 36.5 36.8 36.8 37 37.1 36.7 36.5 38.6 42.5 45.1 47 45.7 41.8 39.8 39 39.1 39.7 42.8 45.9 47.4 49.2 50.6 48.7 46.7 48.6 52.6 58 62.1 63.6 62.7 61.6 61.7 61.2 58.3 55.3 55 55.3 55.8 56.4 57.2 58.2 59.4 60.9 62.2 63.2 63.1 64.4 65.1 65.5 67.8 69.4 70.7 72 75 77.3 77.6 79.2 85 87.9 89.6 90 90.9 92.7 96.2 100.8 105.2 107.8 106.9 103.9 97.9 97.7 99.9 105.5 109.9 115.6 120.5 124.7 127.4 129.4 123.9 115.6 112.5 116.7 118.6 119.4 117.9 116.8 117.8 119.4 121 121.2 122.1 123.5 124.1 124.8 126.2 127 128.4 131.3 135.1 139.1 140.3 140.5 143 147.7 152.6 153.3 153.8 156.9 160.1 161.1 161.5 160.9 165 168.9 170.1 170.8 170.2 168.1 168.7 170.8 172.1 174.3 176 176.9 178.2 177 176.1 185.7 190.1 191.7 191.7 192.1 191.6 191.5 194.5 199.1 204.6 209.1 211.2 210.7 211.1 215.9 222.1 226.9 225.8 222 216.6 226.7 234.5 239.9 240 241 242.7 242.7 242.4 240.6 240.2 237.3 235.9 234.8 233.8 230.6 215.1 154 167.4 190.3 204.7 214.8 219.3 220 217.8 219.4 221.7 222.3 222.1
31.8 32.1 32.3 32.4 32.6 32.3 32.5 32.7 33 33.2 33.1 32.9 33.2 33.5 33.7 33.8 33.8 31.5 31.5 35.4 35.4 35.7 36.1 36.4 36.6 36.9 36.8 36.5 36.8 36.5 37 40.8 44.1 45.3 47 44.8 40.7 39.1 38.6 38.5 38.9 41.2 42.2 43.9 47 49.7 48.3 46 47.7 49.9 54.8 58.3 58.1 57.2 57.2 57.2 57.3 55.2 54.3 54.4 55 55.5 56.2 57.2 58.3 59.6 61.6 65.2 65.3 66.5 67.9 67.3 67 67.4 68.7 70.7 73.9 76.1 77.2 76.7 77.8 82 84.2 83.2 84.9 85.6 86.7 88.9 92.4 96.5 99.3 100.5 98.7 96 98.5 102.8 107.6 112.6 118.1 123.7 127.8 129.5 128.4 123.9 115.3 111.6 112.6 112.7 113.1 114.1 115.4 116.9 118.6 119.1 120.5 121.6 123.4 126.2 128.5 128.7 129 132.7 139.3 143.1 145.5 145 146.6 148.7 151.6 151 151.7 154.4 156.8 158.8 158.6 157.8 160.4 168.4 169.5 169.3 168.8 167.8 165 166.2 167.9 169.3 170.8 172.4 172.9 170.5 172.7 179.8 184.5 186 185.8 183.1 184 185.5 188.9 193.1 194.7 198.5 203.2 204.4 204.4 207.5 213.2 216.7 217.2 215 211.4 214.6 224.6 230.9 233.8 235.4 239.4 239.2 238 236.3 235.3 232.3 232.1 232.3 233.1 230.4 227.1 217.7 171.7 162.8 184.2 197.4 204.6 210.5 214.5 215.8 218.4 220 221 219
31.7 32 32.2 32.3 32.4 32.4 32.5 32.8 32.7 32.2 32.4 32.9 33.2 33.5 33.7 33.9 32.2 31.5 34.8 35.7 35.6 35.8 36.1 36.4 36.7 37 37.1 36.3 36.5 36.3 38.1 43 45 46.3 46.6 43.8 39.9 38.3 38.3 38.2 38.2 39 39.2 40.6 45.1 48.2 47.3 46.1 46.1 47.6 52.5 54.9 54.3 52.7 53.2 53.4 53.8 53.1 53.5 54 54.7 55.5 56.3 57.6 59.5 62.7 64.9 68.7 71.4 73 73.9 73.7 71.8 70.9 69.6 69.8 71.9 72.9 74.3 75.1 76.1 77.5 78.9 80.6 82 83 83.8 85.6 87.5 91.4 95 96.4 96 94.4 98.8 102.9 107 111 116.1 121.2 124.5 126.4 126.6 123 114.5 110.7 111.6 112 112.4 113 114.3 116 117.5 119.2 122.4 122.4 127.4 132.5 135.5 137.6 134.6 135.2 141.5 144.3 145.5 146.7 151.5 157 160.5 155.1 151 155.7 156.9 157.3 156.4 155.9 162.3 168.2 169 168.5 167.2 165.5 162.8 163.6 165.4 166.7 168.2 169.3 167.8 167.3 175.6 179.6 181.7 182 180.8 178.6 179.4 181.8 184.3 188.5 190.9 192.2 196.1 197.6 199.8 204 208.2 208.3 207.1 205.1 204.5 212.8 219.6 223.5 225.1 231.2 234.2 232.6 230.9 230.3 229.2 225 227.9 226.7 228.4 225.6 224.5 221.6 201.7 150.4 165.4 186.4 197.2 202.7 206.7 215.5 217.6 218.2 219.1 217.2
31.7 31.9 32.2 32.2 32.2 32.1 32 32.1 32.2 32.5 32.7 32.9 33.3 33.5 33.8 32.9 31.5 34.3 35.1 35.3 35.7 35.6 35.7 36.7 36.9 37.1 37.2 36.3 36.3 36.3 40.6 44.3 45.9 46.7 46 43.3 39.6 38 37.9 37.8 37.7 37.7 37.8 38.4 42.6 46 46.1 45.4 46.2 49 52.1 52.5 51.9 50.8 51.1 51.5 51.9 52.7 53.3 53.8 55.1 56 56.9 58.4 62 65.8 69.8 73.7 75.3 77.2 78.5 77.5 76 76.1 76.6 76.6 77.4 77.2 77.4 78.5 80.2 82.9 83.3 85.2 88.9 87.8 85.1 85 86.9 89.3 92.8 93.9 92.7 94.3 97.3 100.2 104.1 106.2 108.8 112.2 115.2 118.2 119.4 117.5 112.5 110.3 111.2 112.1 112.4 113.2 114.1 116.6 117.7 120.3 124.9 128.2 133.9 138.7 141.2 141.4 137.4 132.4 138.1 140.9 142.8 147 153 159.6 159.7 153.9 150.6 158 156.9 155.3 155.1 155.3 163.2 166.8 167.3 166.3 165.1 163.1 159.4 162.3 163.5 165.8 167.5 168 163.9 167.5 172.9 176.7 178.2 178.6 177.5 175.8 176.6 179.1 182.8 186.8 191.7 191.5 188.4 189.2 193.8 197.5 200.4 200.7 199.5 198.9 201.7 207 212.5 215.8 220 225.8 226.4 224.8 222.7 223.6 221.1 221 222.3 222.2 222.9 224.1 223.9 223.5 215.2 191 149.8 170.5 189.1 194 207.8 215 214.7 214.8 215.7 214.9
31.7 31.9 31.9 31.9 32.1 32.2 32.2 32.5 32.5 32.6 32.8 33.1 33.3 33.5 32.6 31.1 32 35.5 35.5 35.5 35.8 36 35.7 36.1 36.7 37.2 37.2 36.9 36.6 36.4 42.3 45.1 46.7 47.2 45.7 43 39.9 37.9 37.4 37.3 37.1 37 37.4 38.2 40.9 44.8 45 46.1 47.8 51.6 52.2 51.3 50.2 50.2 50.6 51.1 51.6 52.5 53.1 53.8 55.2 56.7 57.8 60.2 63.6 69.4 73.8 77.7 78.3 79.3 81.6 81.3 80.1 80.3 80.9 81.1 81.3 81.1 80.4 81.4 83.7 88.3 90.6 94.7 96.9 93.9 89.4 86.2 87.5 88.9 90 91.7 92.9 94 94.9 96.9 98.6 100.3 101.5 103.3 106 110 112 110.9 109.1 109.8 112 113 113.5 113.9 114.8 116 117.5 120.9 122.9 129.3 136.2 140 142.3 140.6 134.2 127.8 131.9 135.7 140 144.3 149.6 154.6 152.4 148.2 153.9 157.5 156 153.8 154.1 154.6 162.3 165.2 165.4 164.4 162.3 160.3 156.9 161.2 164 166.3 167.1 166.7 160.3 167 171.1 173.2 174.8 175.6 174.8 173.4 174.7 178.7 183.9 191 193.9 191.7 184.1 183.3 187.3 190.7 193.5 195.2 194.7 193.3 194.8 199.6 205.9 211.2 215.5 217.3 217 215.5 216.1 217 214.5 216.5 218.2 218.5 218.1 220.3 223.2 224.5 219.1 203.3 174.6 148.1 172.8 195 207.7 211 211.2 210 212.9 212.4
31.7 31.6 31.5 32.1 32.2 32.4 32.5 32.6 32.8 32.8 33 33.2 33.1 31.7 31.1 31.1 35.3 35.4 35.3 35.5 36 36.5 36.8 36.6 36.8 36.6 37.2 36.6 36.2 39.3 43.4 46.2 47.5 47.1 45.1 42.6 40.3 37.7 37.2 37 36.8 36.8 37.4 38.7 41.6 44.5 45.7 48.1 50.6 53.6 52.7 51.2 49.6 49.9 50.3 50.8 51.3 52.3 53.7 55.1 56.1 57.7 58.9 61.2 66.8 73.6 78.8 81.1 79.6 79.8 82.3 83 82.5 83.4 84.6 84.8 85.1 83.4 81.9 84.1 86.4 90.8 95.9 100.5 102.3 98.2 93 87.9 87.4 88.3 89 90.4 92.1 93.1 93 94.5 95.1 96.1 97.6 101.3 105.5 105.1 105.7 106.7 108.2 110 114 114.7 114.5 114.4 114.9 115.2 115.4 118.3 120.2 126 131.1 135.2 137.3 133.9 127.6 126.2 128.2 129.9 133.2 138.8 143.6 147.5 145.4 149.7 155.6 156.5 157.3 155.5 152.3 153.2 160.8 163.8 163.7 162.1 159.4 156.5 157.4 162 164.9 166.5 165.5 164 159.4 165.3 169.3 170.7 171.4 171.2 170.5 169.9 174.4 180.9 187.3 191.1 190.6 185.9 179.7 178.9 181.7 186 190.7 192.2 190.3 186.6 189.9 194.3 201.1 206.1 208.3 208.4 208.1 207.3 210.1 210.8 209.2 212.3 215.1 215.7 214.2 217 220.8 223.1 220.2 205.7 184.7 151.6 156.9 182.8 204 207.2 206.7 205.3 209.3 209.1
31.5 31.7 31.9 32.2 32.3 32.4 32.2 32.6 32.4 32.4 32.9 33.2 30.9 31.1 32.3 34.6 35.2 34.7 35 35.6 35.8 36.3 36.1 36.1 35.8 37 36.8 36.2 38.6 42.5 44.5 46.6 47.7 47 45.2 42.6 39.9 37.7 37.1 36.6 36.5 36.9 37.8 40.1 43.5 46.6 47.6 51 53.9 55.2 54.6 51.9 49.5 49.5 49.9 50.4 51.6 53.5 55.1 56.4 57.2 58.1 59.5 61.8 68.5 78 81.3 81.7 79.9 79.3 81.5 82.7 83.2 85.7 87.7 87.9 87.1 84.8 83.8 86 87.4 91.8 96.9 101.2 102.6 99.9 95 89.9 88.3 89.2 89.4 89.5 90.4 91.7 93 93.6 94.8 95.9 97.7 100 101.7 105.3 105.7 106.4 107.5 112.4 115.9 116.3 114.9 113.6 114 114.3 114.6 115.8 117.1 120.4 125.1 128.3 129.5 125.6 122.7 125.3 127.1 128.7 130.2 132.8 137.8 142 143 145.5 150.4 155.4 158 156.3 151 152.5 159 161.5 161.5 159.9 156.7 152.1 157.3 161.2 163.1 164.2 162.2 157.6 156.2 165.2 167.4 167.9 165.9 164.6 166 168.8 173.7 180.9 185.7 187 184.3 180 176.9 176 178.5 184.2 188 188.5 185.3 181.9 184.9 191.2 197.7 200.4 201.7 201.2 201 201.6 204.3 205 205.5 207.3 211.3 210.3 212 216.7 222.4 222.3 217.9 201.7 186.3 158.3 150.3 175.7 200.1 202.3 199.9 199.9 205 206.4
31.7 31.7 31.8 32.2 32.2 32.3 32.3 32.5 32.6 32.6 32 30.6 30.6 32.9 34.5 35 34.8 34.9 35.5 35.7 35.7 36.1 35.6 36.2 36.1 36.2 36.2 36.1 41 42.4 45 46.2 47.1 46.3 44.8 42.4 39.4 37.4 36.8 36.3 36.8 37.5 38.8 42.1 45.3 47.8 50.5 54.2 56.9 58.5 58.4 53.4 48.9 49.1 49.6 50.4 52.7 54.6 57 57.9 58 58.1 59.3 62.2 70.4 78.9 79.9 79.9 78.9 77.7 79.6 80.2 81.6 85.5 87.6 88.2 86.4 82.8 84.9 84.8 86.4 89.7 93.9 97.4 98.1 97 94.1 90.2 88.8 89.6 90.4 91 91.3 93.3 95.7 95.8 95.3 96.2 97.7 100.9 104.3 105.7 106.1 106.2 107.8 112.5 115.4 115.9 114.2 112 113.3 114.3 115.1 115.4 116.1 116.9 119.4 121.3 121.4 120.6 122.1 124.2 126.2 128.2 130.2 132.2 135.6 137.2 140.7 143.4 145 151.1 155.3 153.5 149.6 152 158.8 160.6 159.2 156.7 153.1 150.7 155.5 158.4 160.1 160.7 156.6 152.7 161.2 164.4 165.3 163.8 161.6 161.2 164.9 167.7 171.9 176.2 179.3 178.4 175.7 174.8 173.4 173.1 177.6 181.6 182.9 181.5 177.9 176.4 182.4 188.5 193.8 198.2 199.3 196.4 194.6 195.4 198.7 198.9 200.3 202.7 205.1 208.5 212.4 219 220.7 222.3 212.5 196.6 180.5 145.1 152.6 178.5 194.7 196.3 194.2 193.8 198.7 200.7
31.8 31.8 31.7 32 32.2 32.4 32.7 32.1 31.1 30.6 30.2 30.8 33.7 34 34.6 34.7 34.7 34.9 35.1 35.2 35.3 35.2 35.3 36 36 35.8 35.4 38.2 39.7 41 43.7 45.5 46.2 45.1 43.3 40.9 39.1 37.1 36.5 36.1 36.9 38.1 40 43.2 46.5 49.2 51.9 56.2 58.9 60.9 60.6 54.9 48.6 48.8 49.5 52.5 55.8 57.9 58.9 58.4 58.4 58.2 58.9 61.6 68.8 77 77 76.7 75.6 75.2 77.3 77.6 80.2 82.9 84.6 85 84.1 81.9 83.1 82.3 85.6 87.3 89.6 92.4 93 92.2 91.6 88.9 88.6 89.8 91.3 92.7 94 96.1 98.8 97.9 97.2 97.3 98.8 101.8 105.2 105.7 105.2 105.3 107.3 112.2 114.3 114.1 113.4 112.1 114.4 114.6 115.8 116.3 116.2 116.2 117.1 117.8 119 120.2 121.4 123.1 125.4 127.7 130 131.4 133.1 135.2 137.8 141.1 143.1 146.6 149.4 149 149.6 153 159.3 159 155.7 152.1 149.4 148.6 152.8 155.2 155.1 154.7 149.2 154.6 159.6 161.7 161.9 160 158.5 159.3 162.1 166.3 169.4 171.3 169.4 166.8 168.5 169.4 168.6 169.6 173.7 175.4 173.8 171.5 169.3 173.7 180.2 185.2 192.5 196 192.3 187.2 186.1 189.6 192.1 192.9 194.3 197.1 199 203.6 210 213.1 216.8 217.3 209.1 191 169.4 146.1 177.6 189.5 192.7 191.7 189.1 189.3 189.8 194.8
31.6 31.8 32 32.3 32.3 32.7 30.3 29.9 30 30.2 32.6 33.2 34.1 34.5 34.6 34.6 34.6 33.9 35 35 34.9 34.8 35.2 35.7 36 35.7 35.6 36.4 37.5 37.9 41.4 42.1 44.2 43.1 41.2 39.6 38 36.8 36.1 36.3 37.2 38.7 40.6 44 47.5 50 52.9 56.6 58.9 60.9 61.6 56.6 47.9 48.5 51.8 54.8 57.8 59.3 60 58.8 58.2 58 58.5 60.7 65.6 71.1 72.1 72.8 72.2 72.7 74.5 75.3 77.1 79 80.5 80.9 80.6 78.9 79.9 85.6 89.3 89.3 86.9 87.8 88.3 88.2 88.8 87.4 88.7 92.2 94.9 96.4 97.6 98.3 99.1 99.2 98.7 99.2 100.7 103.4 105.4 104.9 104 104.4 105.8 112 113.2 113.5 112.2 110.3 113.1 113.9 115.7 116.3 116.1 115.9 116.3 117.4 118.9 120.8 123.8 125.9 126.7 127.2 129 130.8 133.4 135.1 137.1 140.2 141.1 145.9 152.9 149 149.4 153.6 156.8 154.1 151 148.5 146.6 147.4 150.1 151.7 150.9 147.1 147 154.2 157.2 158.1 156.4 156 156.1 157.4 159.9 162.8 165 163.4 160.7 161.3 163.3 163.4 165.9 167.9 170.3 169.3 166.2 164.4 168 172 175.4 182.4 188.2 187.3 183.1 177.9 179.6 181.8 184.6 187 190.1 191.3 193.1 197.7 205 210.4 216 215.9 207.6 193.4 164.7 146.1 179.8 187.6 190.1 187.6 185.6 186 186.7 189.2
31.7 31.9 32.5 32.7 29.9 29.9 29.9 32.1 32.6 32.8 33.1 33.1 33.8 34.4 34.4 34.4 34.4 34.1 34.6 34.4 34.8 35.4 35.3 35.5 35.4 35.2 36 36.2 36.3 36.2 40.3 41.1 41.4 40.2 38.9 36.9 35.9 35.8 36 36.6 37.6 39 40.9 43.8 47.3 49.7 51.8 55.5 56.4 58 59.7 55.8 48.1 49.7 54.4 56.8 59.2 60.3 60.5 58.9 57.7 57.7 58.5 60.2 63.9 67.5 69.2 69.9 69.1 69 70.8 72.2 74.1 75.6 77.3 77.4 77.6 77.7 82 87.8 93.2 93.1 88.9 84.9 84.2 85 86.6 87.3 89.4 94.4 96.4 98.3 100.5 101.1 100.4 98.7 98.9 100.8 102.8 103.7 105.1 103.8 103 103.5 105.7 110 112.3 112.7 111.6 108.6 111 113.4 115.6 115.9 116.2 115.4 115.6 116.9 120.9 126.5 130 131.8 132.1 132 133.4 135.4 135.9 136.6 138.3 140.2 140 147.9 150.5 147.7 147.7 149.4 151.7 148.8 147.3 146.6 144.2 145.8 146.9 147.4 145.8 143.7 149.4 151.6 153.2 152.8 153.7 154 154.5 156.4 159 159.3 159.3 157.8 157 157.1 158.4 162.2 165.2 168.8 169.9 166.5 163 158.9 166.2 169.5 171.5 176.5 177.3 176.7 177.2 180.8 185.1 182.2 180.1 180.6 183.7 188.6 191 194.4 200.7 209.5 215.2 213.1 207.7 195 174.2 139.2 156.5 181.6 185.8 183.7 184 184.8 186.3 188.2
32.3 32 29.5 29.5 30.2 31.3 32.3 32.5 32.7 33.3 32.7 33.5 34.1 34.1 34.1 34.1 34.1 34.1 34.3 34.3 35 35.1 34.9 35.1 35 35.2 35.8 35.9 35.8 35.9 36.3 38 37.7 36.3 35.7 35.7 35.2 35.7 36.4 37 38.1 39.3 41 43 46.2 47.7 48.6 51.8 52.9 54.6 55.9 53.4 47.1 50.6 54.5 58 60.4 61 60.3 58.8 57.3 57.5 58.4 60.4 63.7 65.9 67.2 66.4 65.6 66.2 68.9 71.8 73.2 73.4 73.9 74.5 75 76.4 81.7 87.4 93.1 94 88.6 84.3 82.6 84.7 86.5 88.1 93 95 96.9 100.8 102.9 103 102 98.7 98.6 101.1 103.2 104.6 106 104.5 102.3 102.8 103.6 106.7 108.9 111.1 110.7 106.9 109.7 113.8 115.6 116 115.4 116.7 114.8 117.1 123 128.3 134.4 138 139 140.3 141.7 142.8 140.9 138.1 140.6 140.8 140.6 145.2 148.5 149 146.3 145.2 145.4 143.3 145.3 147.4 145.7 141.8 142.1 142 140.9 142.6 146.5 146.9 148.1 150.4 152.1 151.9 153.5 157.1 160.9 161.1 160.6 157.6 155.1 153.6 155.7 159.1 161.5 164.5 163.7 159.9 158.5 156.7 159.6 162 165.6 169.4 166 174.4 180.4 184.4 186.5 183.9 179.6 173.8 177 182.7 187.8 192.9 198.5 206.3 211.1 208.7 204.9 197 188.3 155.3 139.1 175 181 181.9 183.7 185.6 187.4 183.3
29.2 29.8 30.2 31.2 32.2 32.3 32.2 32.1 32.5 32.2 32.9 33.6 33.8 33.8 33.9 34 33.9 33.9 33.9 34.1 34.6 34.5 34.4 34.8 35 35.2 35.4 35.5 35.6 35.6 35.7 35.3 35 34.7 34.8 35 35.5 36.1 36.7 37.4 38.2 39 40 40.8 42.3 43.9 44.9 47.8 48.6 50.9 52.4 49.5 46.5 51.4 55 58.4 61.1 60.5 59 57.7 56.9 57.5 58.3 60 62.1 64 65.1 64.2 65.1 68.8 73.1 76.4 76.9 75 71.7 71.8 72.4 74.7 80.6 85.9 91.2 92.4 87.3 82.2 82.6 88.1 90.8 89.5 93.9 94.9 98.5 101.5 104 104.5 102.9 98 103.8 105.5 105.9 107 108.6 107 101.9 101.3 101.5 102.2 103.6 105.7 107.4 107.6 111.6 113.1 115.5 116.4 116.2 115.3 114.7 115.6 121 126.3 133.1 138.1 141.5 144.1 145.6 144.5 139 139.2 142.6 144.1 142.5 144.8 150.2 151.4 149.3 146.1 144.2 144 141 147.4 145 141.5 137.3 138.7 138.8 139.2 139.9 144.8 147.5 149.7 149.9 150.8 153.3 157.5 161.1 163.1 162.7 158.1 153.1 150.5 152.8 157 161.5 161 158.8 155 154.1 153.5 153.1 154.6 157.3 158.3 168.1 175.1 180 184.3 186.2 182.5 174.4 167.7 170.3 176.9 183.6 187.6 193.8 199.8 204.5 203.9 200.4 195.1 187.3 156 136.1 170.9 178.4 180.5 184.6 185.9 181.8 176.4
31.3 30.9 31.5 32 31.8 31.9 31.9 31.8 32 32.5 32.8 33.3 33.6 33.6 33.6 33.8 33.4 33.6 33.8 34.1 34.3 34.4 34.4 34.7 34.6 34.8 35.1 35.2 35.2 35.2 35.2 35 34.9 34.5 34.8 35.1 35.7 36.4 37 37.5 38.2 38.9 39.5 40.1 40.7 41.2 41.9 43 44.7 47.4 49.1 45.8 46.3 51.5 55 59.9 60.3 59.2 57.7 56.6 56.8 58.8 59.4 60.1 61 62 63.5 64.2 67 72.4 77.8 81.1 81.2 77.7 71.8 69.5 69.7 72.7 78.9 83.5 87.6 88.3 84.9 80.4 82.6 88.4 92.2 90.9 90.5 96.1 100 102 104.1 106 100.5 100.5 108.5 110.4 111 111.5 111.7 108.7 102.3 100.5 100.1 99.2 99.6 102.1 103.7 106.6 110.4 112.9 114.9 115.6 116.7 115.3 112.2 114 117.6 122.7 127.6 132.3 136.7 139.3 140.4 138.6 136.3 142.6 146.6 148.1 145.2 139.7 146.6 150.1 149 147.6 145.8 143.1 138.6 143.7 142.7 139.1 135.6 136.2 136.6 136.5 138 141.4 145.5 148.2 148.9 149.9 151.9 156.7 161.7 162.2 158.6 154.1 150.4 148 151.4 155.7 158.6 157.4 155.2 152.6 149.9 149.5 148.4 147.2 150.4 158.6 165.9 171.1 175.8 180.5 181.8 176 167 162.1 163.2 169.5 178.9 184.2 185.9 193 197.9 199.4 197 190.8 180.5 147.6 134.8 176.2 180.6 183.6 185.2 184.1 174.2 168.3
31.2 31 31.8 31.5 31.7 31.8 31.6 31.5 31.6 32 32.5 33 33.2 33.2 33.5 33.5 33.3 33.4 33.6 34 34.2 34.3 34.3 34.4 34.5 34.5 34.7 34.8 34.9 34.9 34.7 34.5 34.7 34.5 34.8 35 35.7 36.4 37.1 37.7 38.3 38.8 39.3 39.8 40.5 41.3 41.9 42.5 43.5 44.2 45.2 44.7 47.1 51.8 55.3 59.7 59.9 58.1 56.3 56.2 60 63.2 64.2 64 62.7 62.6 63.8 65.5 68.4 74.8 80.9 82.8 81.3 77.5 72.2 68.6 68.9 72.4 76.2 79.9 82.5 82.6 80.8 78.4 81.1 86.1 90.8 93.2 88.4 94.8 99.4 100.9 102.7 105 97.3 101.1 110.7 114.1 115.5 115.3 113.5 109.3 101.8 99.7 99.6 99.1 99.8 101.3 102.9 107.2 110.1 111.8 112.7 112.9 113.8 112.9 112.2 113.4 114.1 118.9 122 124.8 127.2 128.6 130.5 131.1 135.3 140.9 143.5 145.1 144.3 138.2 141.3 146.1 146.3 145.3 143.7 140.6 136.3 140 138.6 135.3 134 134.7 135 135.1 138.6 145.1 149.4 150.1 148.3 148.1 150.5 155.2 158.4 157.3 155.1 151.2 147.3 146.5 150.3 153.8 154.1 153.2 151.7 149.9 148.3 145.7 144.6 144.1 146.2 152.1 157.3 162.9 168.8 174.4 173.4 166.8 159.5 156.7 158 160.9 165.8 174.1 181.2 187 191.3 192.5 192.3 184.9 174.6 137.3 145.5 178.6 183 185.9 187.7 185.6 172.8 163.5
30.7 31.1 31.2 31.2 31.7 31.6 31.3 31.4 31.3 31.7 32.2 32.8 32.8 33.1 33.4 33.6 33.5 33.1 33.6 33.5 33.8 33.9 34.1 34.2 34.3 34.3 34.6 34.6 34.6 34.5 34.4 34.3 34.3 34.4 34.4 35 35.6 36.2 37 38 38.2 39.1 40 41.7 41 41.7 42.1 42.6 43.3 44 44.4 45.5 47.4 52 55.1 58.9 58.1 55.8 55.9 59.8 64.9 67.9 69.3 69 66.3 63.8 63.4 65.1 69 75.6 80.8 81.4 78.7 75.4 71.1 68.3 68.7 70 73 76.1 78 76.9 76.7 76.9 78 82.4 87.2 90.4 87.3 91 95.8 97.2 99.1 99.4 94.1 101.9 108.4 112.7 114.9 116.7 115.6 111.3 103.7 99.3 99 99 99.3 101 103.4 107.8 109.4 110.2 110.1 110.7 110.9 111.3 111.4 111.4 111.9 113.7 116.1 117.9 119 121.5 125.1 127.3 132.5 135.4 136.5 138.1 138.6 134.6 138.4 143 143.3 143.3 141.5 138.6 134.3 136.4 134.9 132.3 132.3 132.5 133.3 134.5 140.5 146.3 148.4 146.8 145.6 147.9 149.7 150.6 152.4 153.6 154.7 149.8 145 145.5 147.9 150.1 150.1 150.2 149.9 149.3 146.9 144 141.4 141.1 141.7 145.5 150.4 155.3 160.9 163.7 162.2 157.7 154.7 152 152.9 154.7 156.9 160.7 172.7 180.4 183.8 185.6 186.4 179.6 170.7 135.9 164.6 180.3 185.2 187.9 188.1 184 176.5 160.2
31.5 31.5 31.1 30.7 31.3 31.1 31.2 31.3 31.2 32.2 32.3 32.4 32.5 32.6 32.9 33.4 32.8 33.2 33.5 33.4 33.4 33.9 34.2 34 34 34.1 34.6 34.6 34.4 34.3 34.2 34.2 34.4 34.7 34.4 34.8 35.4 36.6 37.7 38.9 40.1 41.1 41.4 42.2 42.6 44.1 43.6 42.9 43.8 44.5 45 45.4 46.6 51.2 54.5 57.3 55.6 55.3 59.1 63.6 68.2 70.5 71.2 70.7 68.6 65.1 63.4 65 68.8 74.7 78.1 77.6 75.1 72.7 70.4 68 68.3 69.1 70.7 72.2 72.1 73 73.7 76.1 77.4 79.5 83.2 85.2 83.9 86.1 90.3 92.5 93.6 90.7 94.5 100.3 104.1 108.8 112.7 115.5 116.9 114.6 108.9 101.8 98.3 98.3 99.1 101.1 105.1 108.5 110.7 111.4 111.1 110.5 110 110.3 110.7 110.8 110.5 112.2 112.9 114.3 118 117.6 120.4 123.5 127.8 129.9 130.1 131.3 133.1 132.9 136.3 139.9 141.3 141.3 139.9 137.3 133 132.6 132.3 130.6 130.8 131.5 132.6 133.4 137.2 141.8 143.3 144 147.1 149.2 146.9 144.9 149 153.9 152.6 146.5 143 144.2 145.5 146.3 146.5 147.9 150.2 151.3 149.8 144.1 139.5 138.5 138.5 140.7 145.3 149.1 152.4 154.2 153.9 152.1 150.1 147.1 147.5 149.5 152.6 159.3 165.2 170 176.4 179.3 177.7 169.2 164 131.4 175.5 183.1 187.7 189 186.4 181.9 176.9 163.9
31.3 31.4 31.2 30.8 30.9 30.8 30.8 31.1 31.2 32.4 32.3 32.3 32.4 32.6 32.9 33.2 33.1 33.5 33 33.4 33.4 33.7 34.1 34.1 33.5 34.2 34.7 34.3 34.2 34.1 34 34.1 34.4 34 34.3 34.8 35.8 37.3 38.9 39.7 40.6 41.2 42.2 43.2 45.2 48.7 49.3 47.4 46.4 45.6 45.1 45.6 46.2 50.1 53.1 55.1 53.8 55.2 59.1 64.2 68.4 69.7 69.2 68.7 68 66.1 63.9 65.5 69 72.4 74.4 73.7 72.3 70.8 69.1 67.9 67.9 69.1 69.7 69.9 71.3 74.1 77.8 82.9 82.3 79.6 79.2 80.6 81.3 81 83.4 85.9 87.2 85.8 91.3 95.3 99.1 104.5 109.3 113.9 116.5 116 112.6 107.4 100.5 97.8 98.4 102.8 107 110.6 113.9 116.5 116.4 113.4 110.8 109.9 110.6 111.6 110.2 109 109.7 111.5 114.7 115.9 117.4 120.8 124.8 125.7 126.2 127.2 129.9 131.8 133.5 137.1 138.8 139.3 138.2 135.8 132.1 130.3 129.6 129.1 129.8 132 132.4 132.6 132.7 135.6 139.7 145.2 148.1 145.9 142 143 150 150.8 147.2 142.3 141.6 142.7 143.2 142.9 145.9 150.5 153.8 155.7 154.4 148.7 140 137.1 136.8 138 141.3 144.3 146.9 149.1 149.9 149 146.4 142.5 142.7 145.6 150.5 156.1 158.8 161.1 166 173.2 171.3 156.8 133.8 151.8 176 184.2 188.8 188.1 184.9 180.6 177.3 162.3
31.1 31 31 30.6 30.4 30.8 30.7 30.9 31.1 32.1 32.2 32.3 32.1 32.5 32.8 33 33 32.8 33.1 33.6 33.5 33.5 33.9 34.1 33.7 33.9 33.9 33.9 33.9 33.9 33.8 34.8 34.5 34 33.8 34.5 36.2 37.6 38.8 39.7 40.6 42.1 44.1 46.1 49.9 52.9 52.7 50.8 49.4 49 48.3 47.2 46.7 48.7 51 52.6 52.6 55.1 59.1 64.5 67.5 67.7 67.2 66.7 66.7 65.4 64.2 65.3 67.9 70.2 71.1 70.7 69.9 69.2 68.3 67.3 67.9 69.1 69.6 70.5 74.1 79 85.7 89.7 88.9 82.5 77.8 77.8 78.1 78.4 78.6 80.3 81.3 83.4 84.8 89.6 94.5 100.4 105.7 111.1 114.4 114.8 113.4 110.7 105.8 98.1 98.7 106.4 110.9 116 119.7 120.6 119.4 116 113 110.3 109.7 111.3 112.4 110.8 108.1 108.3 112.7 114.9 116.7 119.6 123.1 124.7 125 125.9 128 129.2 130.4 133.5 135.6 136 135.3 134 131.9 129.2 127.9 127.5 129.7 132.3 132.4 131.1 130.6 132.7 137.9 142.3 142.6 139.8 139.1 143.6 146 143.8 140.5 139.3 140.2 140.7 140 143.9 148.5 152.1 153.8 155.7 154.7 148.8 140.5 135.9 135.2 136.2 138.4 141 143.4 145.5 146.6 144.9 141.8 138.3 139 142.2 146.6 149.4 151.4 157 161.8 164 159.1 144.9 147.3 167.6 175.6 182 184.9 185.2 182.6 179.6 173.4 153.5
30.7 30.5 30.5 30.4 29.8 30.4 30.5 30.7 30.9 31 31.9 32.1 32 32.2 32.6 32.8 32.6 32.7 33.2 33.7 33.6 33.4 33.8 34 33.6 33.7 33.8 33.8 33.6 33.6 33.6 33.6 33.7 33.6 33.7 34.3 36.1 37.7 38.9 39.8 41.5 43.8 45.7 48.1 52.2 55 54.4 52.5 50.6 51.2 51.5 52 48.8 48.6 50 51.9 53.3 54.8 59.5 63.9 66 65.9 65.1 65.1 65.3 64.4 63.7 64.5 65.9 67.5 67.8 68.3 69.2 69.9 68.6 68.1 68.5 69.4 70.4 72.8 77.4 82.4 88.8 93.1 92 86.9 78.8 77.4 77.4 77.7 77.8 77.8 78.5 79.6 82.6 85.5 91.4 97.5 102.6 107.4 110.3 111.4 110.9 109.6 105.8 96.7 100.3 108.8 113.7 117.9 121 121.6 119.6 117 114.3 112 109.9 109.2 110.1 111.2 109.8 106.5 111 114.1 116.7 120.3 125.2 128 129.6 129.6 128.5 124.4 125.6 130.2 131 130.7 130.3 129.8 129.6 128.8 126.6 126.5 130.3 133.1 132.7 129.6 128.2 130 131.3 135.8 135.3 134.2 136.5 138.5 138.3 136.8 136.1 136.6 137.4 136.8 138.9 142.6 145.8 149.2 152.8 154.4 152.6 146.2 139.8 135.3 134.1 134.7 136.1 138.3 140.1 141.7 141.4 139 135.8 135.5 136.5 138.6 141.6 146.4 152.6 159.6 161.1 145.2 137.7 135.8 157 168.1 174.1 178.3 180.6 181.7 180.2 177.9 159.5 142.1
30.7 30.8 30.4 30.2 29.8 29.7 30.3 30.5 30.7 30.7 30.9 31.7 32.2 32.2 32.3 32.4 32.2 32.8 33.5 33.3 33.2 33.2 33.5 33.7 33.6 33.5 33.7 33.7 33.5 33.3 33.3 33.3 33.3 33.4 33.6 34.2 36 37.9 38.7 39.8 41.9 43.7 45.5 47.6 51.6 53.6 53.2 51.8 50.2 51.7 53.8 55 51.8 50.1 51.8 54.7 55.6 56.1 58.9 61.5 62.5 63 63.1 63.5 63.9 63.6 63.8 64.6 65.8 66.9 68.4 72.7 76.5 77.9 73.5 70.1 69.2 70.4 71.7 75.6 78.5 83 88.5 92.9 92.8 89.3 80.5 77.5 77.3 77.2 77.2 77.3 77.6 78.4 82.6 84.3 89.2 93.8 99.1 102.8 104.4 105.9 105.5 104.9 99.7 96 103.3 109.4 113.4 117.1 120.8 122.2 120.5 118.5 116.1 114.2 111.9 110.5 110.6 109.4 107.6 105.6 108.9 112.8 116.1 121.6 127.6 131.5 132.4 132 131.3 126.7 126.7 128.3 127.4 124.7 124.3 123.6 124.8 125.2 124.1 126.4 131.6 133 130.1 126.1 125.8 126.5 127.4 128.7 129 129.6 130.9 131.7 131.8 132.6 132.5 133.4 134 135.3 137.5 139.3 142.5 146.8 150.1 150.5 147.3 141.7 137.3 134.7 133.1 133.5 134.5 135.5 136.2 136.4 135.1 133.1 132.7 133.5 134.5 138.4 142.9 147.7 152.7 156.6 147.7 125.2 130.5 142.4 156 167.4 172.7 174.2 176.2 178.5 179.9 148.9 133.7 131
30.3 30.5 30.8 30.6 30.1 29.7 30.1 30.3 30.5 30.7 30.4 31 31.8 32.1 32.3 32.1 32.3 33.1 32.9 32.9 32.9 33.2 33.4 33.6 33.2 33.3 33.4 33.4 33.4 33.2 33.1 33.1 33.2 33.3 33.6 34 35.6 37.4 38.5 39.9 41.4 41.5 43.1 45.2 48.8 50.1 50.1 49.4 47.7 51.2 54.7 56.9 53 51.1 53.2 56.2 57.4 57.8 60.1 62.9 62.9 62.6 62 62.4 62.8 63.1 64.1 66.5 68.4 69.4 72.3 77.9 81.9 82.2 78.7 72.8 69.9 70.9 72.4 75.3 79.3 83 86.3 89.7 90.4 88.4 81.7 77.6 77.4 78 76.9 77.1 77.3 77.9 83.2 85.3 89.3 91.3 94.2 97 98.1 99.5 99.7 98.1 94.6 99.3 107.4 111.3 114.4 118.1 122.7 125.7 125.9 123.2 119.8 117 113.4 113.1 115.6 115.5 112.7 107.1 105.9 110.8 115.5 121 126.5 129.7 129.9 129.3 128.2 124.4 125.6 127 125.9 122.2 118.9 118.1 124.7 123.1 123.8 125.6 128.9 128.4 126.1 124.9 125.8 125 125.1 125.8 125.9 125.4 125.4 126.7 127 127.7 128.8 130.6 130.4 130.9 132.1 135 139.4 144 146.7 144.7 140.2 136.3 134.4 133.2 132.2 132.8 133.7 133.2 131.5 130.8 130.8 130.8 131.2 131.8 132.9 137.2 141.5 145.6 149.4 146.5 122.9 125.4 134.1 142.8 157.9 169.2 169.8 169.9 172.3 175.7 176.8 133.4 135.2 140.2
30.1 30.2 30.6 30.3 30.3 29.8 29.4 29.9 30.3 30.5 30.2 30.2 31.2 31.5 31.8 31.9 31.6 32.9 32.9 33.2 33.2 33 33.1 33.3 33.2 33.1 33.1 33.1 33.1 33.1 33 33 33.1 33.4 33.7 34 35.5 36.9 37.6 38.8 38.5 38.9 40.2 42.3 45.7 46.7 47.3 46.8 47.8 49.9 54.4 56.5 53 51.1 56.2 61.8 62.1 58.4 60.1 61.5 64.8 64.2 62.6 62.7 62.8 63.8 66.2 69.7 71.2 72.3 74.9 79.6 82.8 82.7 79.3 74.4 70 71.4 73 76.6 80 81.8 84 85.6 86.6 86.3 82.6 79.1 77.9 78 77.4 76.9 80.4 83.1 85.6 87.7 89.7 90.1 90.9 92.2 93.4 94.2 94.1 93.3 94.2 100.1 108.3 112.9 116.6 119.9 123.6 127.1 128.9 127.4 123.2 118.4 112.7 112.7 114.6 113.6 109.4 104.3 103.9 108.3 112.8 117.8 123 125.6 126 124.4 123.5 123.3 125.7 125.6 124.6 123.1 117.9 117.8 119.1 120.7 122.8 123.5 124.6 125.4 124.4 125.1 124.9 124.9 127.2 128.5 127.1 123.7 122.6 122.5 123.1 124.5 126.9 127.6 126.2 125.7 126.8 129.7 136.1 141.2 141.8 138.5 134.5 132.3 131.9 130.8 131.6 133.3 132.5 130.5 129.3 129 129.3 129.8 130.4 131.1 132 135.8 140.5 143.7 145.8 141.8 121.1 123.8 131.3 143 153.3 161.9 163.8 165.9 167.6 170 160.8 131.1 128.5 147.7
29.9 29.8 30.3 30 30.2 29.7 29.5 29.7 30.1 30.4 30.3 30 30 30.6 31.3 31.7 31.6 32.5 33 33.1 32.8 32.6 32.5 33.2 33.1 32.9 32.9 32.9 32.9 33 32.9 32.9 33 33.1 33.4 34.1 35.1 35.6 35.9 36.5 36.2 37 38.3 40.7 43.2 44.7 45.2 45.1 46 48.4 52.4 54.7 52.3 51.8 59 66.8 65.8 60.2 59 61.9 65.9 66.7 65.1 65.7 67.1 67.9 70 72.4 72.9 73.6 74.4 78.3 80.5 81.6 79.2 74.8 70 71.8 73.4 78.2 80.4 81.5 82.1 83 83.9 84.3 84.1 81.7 79.9 79.2 78.5 77.2 80.8 84.2 86.7 89.2 90.2 90.7 90.4 90 91.3 91.2 91.2 91.8 92.1 96.2 103.8 108.9 113 116.6 120.4 124 126.5 126.5 122.6 115.9 109.2 109.7 110.8 107.8 103.5 102.9 103.2 106.4 109.5 114.7 119.2 121.5 122.1 120.8 120.5 122.3 124.7 124.1 123.1 120.7 116.5 117.3 118.5 119 121.1 122 122.3 123.7 125.5 125.4 124.9 125.6 129 125.7 125.3 125.8 123.9 121 121.3 124.1 126.7 124.3 120.9 120.6 122.6 127.5 133.2 137.1 135.6 132.5 129.9 129 128.9 129.8 130.7 130.8 129.5 128.5 128.3 128.8 129.1 129.4 129.7 130.5 131.3 134.4 139.1 142 142.7 139.1 124 120.9 129.5 141.8 150.6 149.1 154.1 155.1 144.3 155.5 132.5 130.8 134.5 155.3
29.8 29.6 30.2 30.2 29.7 29.8 29.7 29.3 30.1 30.2 30.2 30.1 30.2 29.7 30.1 30.8 31.7 32.2 32.4 32.8 32.5 32.6 32.6 32.9 32.8 32.8 32.8 32.8 32.8 32.8 32.7 32.7 33 33 33.2 34.3 34.3 34.6 35.1 35.4 38.2 38.6 39.1 40 41.3 43.1 42.8 43.7 44.9 46.6 50.4 53 51.3 51.2 59.5 67.1 68.3 60.7 57.7 60.5 62.1 63.7 64.7 66.5 69.1 72.1 75.1 75.7 73.9 72.9 73.5 75.5 77.9 79.4 78.4 76.1 70.7 70.4 75.8 79.4 82.2 83.4 83.3 84.3 85.9 85.9 84.2 83.2 81.6 79.1 77.2 78.3 81.1 83.4 85.9 89.5 93.9 95.8 95.3 93.1 91.3 89.7 89.7 90.6 90.6 91.9 97 102.3 106.1 108.9 112.5 116.8 121.1 121.6 116.8 111 106.9 106.1 106.8 103.8 102.2 102.9 103.5 105.6 107.5 111.1 114 115.9 117.2 118.3 119.8 122.1 123.8 123 121 117.3 115.8 116.7 117.8 118.4 118.2 120.4 121.2 124.8 127.7 127.6 126.9 126 128.2 128.9 126.6 121.2 118.3 118.5 119.8 121.4 122 119.3 118.3 119.3 121.2 125.2 128 130 127.4 126.8 126.2 126 127.1 128 127.4 132.5 128.5 129.5 131.4 132 130.5 129.5 129.6 130.5 131.4 132.1 136.5 138.2 137.4 135.8 127 119.9 130.2 139.2 134.8 125.3 127.2 127.4 130.6 130.5 128.9 126.6 142.9 161
29.5 29.4 29.6 29.9 29.5 29.3 29.3 29.5 29.9 29.9 30 29.9 29.8 29.7 29.8 31 31.9 31.8 31.7 32.4 32.7 32.7 32.8 32.7 32.5 32.6 32.6 32.7 32.7 32.6 32.5 32.5 33 32.8 33.8 35.7 34.7 35.1 35 36.2 39.3 40.2 40.9 41.7 41.9 42.6 43 43.8 44.5 45.6 48.3 50.7 48.9 50.7 58.1 63.9 64.5 59.8 56.4 57.2 58.7 59.6 61.1 64.3 69.5 75.5 79 78.6 74.7 71 71 72 75 76.8 75.9 74.7 70.9 70.5 76.7 80.7 84 86.3 87.7 89.3 90.3 89.4 86.6 83 81 77.5 76.7 77.3 79.4 82.8 85.9 89.5 96.2 99.6 99.4 97 93 90.5 89.5 89.3 89.4 89.9 91.5 95.9 99.1 101.3 105 109.6 114.3 115 111.8 109.3 106.7 103.1 103.4 101.7 103.3 105.9 106.1 106.8 107 107.5 108.5 111.1 114.6 118.1 119.9 121.3 121.6 122 119 116.2 115.9 115.6 116.5 117 117.4 118.1 119.9 124.4 129.5 131.7 130 127.3 126.7 126.4 123.6 119.3 117.3 117.1 118 118.4 117.3 115.7 115.2 115.7 118.5 123.7 126.7 127 123.1 122.5 123.4 124.5 125.3 126 127.3 132.9 132.7 127.6 128.9 135.4 132.8 130 129.9 130.9 131.9 132.7 133.7 134.7 135.1 134.7 122.5 118.3 121.9 121.9 118 118.5 122.3 127.5 130.9 125.5 125.4 148.3 157 162.2
29.4 29.4 28.8 29.4 28.9 29.3 29.2 29.8 29.7 29.8 29.8 29.7 29.6 29.6 29.9 31 31.5 31.4 31.9 32.3 32.5 32.7 32.8 32.8 32.6 32.5 32.6 32.6 32.5 32.4 32.5 32.4 33.3 33.4 34.9 35.6 35.5 35.1 35.5 37.2 39.8 40.9 43.3 44.6 43.8 45.3 46.8 48.2 47.7 46.2 46.6 47.4 48.1 49.8 55.1 58.8 60.1 57.6 55.3 55.1 55.4 56.5 57.5 61.3 67.5 74.9 79.8 78.7 73.4 68.7 67.5 68.7 71.5 72.7 72.6 71.8 69.2 70.6 77 81 85 91.4 89 91.5 91.1 90.3 88.1 82.8 79.2 75.8 75.8 79.4 81.6 81.4 83.5 87.3 93.3 98.4 99.2 97.9 93.6 90.9 89.6 89.1 89 89.2 89.6 91.6 93.6 96.3 98.9 102.9 107.3 109.1 108.7 107.7 106.4 102.6 100.8 102.2 106.3 108.1 110.5 111.6 110.7 108.7 107.5 108.1 111.9 115.5 117 118.6 119.9 120.6 118.5 116.2 116.3 114.9 116 116.7 117.4 117.5 118.7 124 130.6 133.3 132.2 128.3 125.2 123.7 122 119.3 117.7 116.7 115.9 115.5 115.9 114.9 114.6 115.5 118 121.5 122.7 121.4 121.3 124.1 126.5 128.3 127.1 127.3 129.2 131.2 133.1 134.8 136 135.2 132.6 129.3 130.2 131 131.7 132.5 133.4 134 133.5 131.1 118.4 117.9 120 116.6 117.8 121 121 119 120.3 129.4 144.6 152.7 157.2 162
29.3 29.3 29.1 28.8 28.5 29 29.7 29.7 29.5 29.5 29.5 29.5 29.5 29.5 30.1 31 31.2 31.6 32.1 32.1 32.3 32.4 32.5 32.4 32.4 32.5 32.5 32.5 32.5 32.5 32.5 32.5 33.4 34.2 35.8 35.3 34.7 35.1 36 37.8 40.3 42 44.5 47.9 49 51.8 52.8 53.7 52.7 50.7 49 49.3 50.1 50.4 53.6 56 57.5 56.1 54.5 54.1 54.2 54.7 55.4 57.7 64 72.5 76.4 76 71.7 65 64 65.6 67.6 68.4 68.4 68.3 67.5 70.5 75 77.7 81.5 85.3 87.4 87.4 86.8 86.7 85.3 80.5 76.6 74.3 76.2 83.6 90.6 89.4 86.9 85.8 87.5 93.6 95.6 94.9 91.8 90.5 89.9 89.2 89.4 89.2 89.4 91.6 92.6 94.4 96.4 100.2 103.3 104.9 104.9 104.2 102.8 100.4 100.5 104.4 107.7 110.3 112.5 113.4 112 109.5 108 106.6 107 110.4 113.3 115.5 118.3 118.7 118.8 118.7 117.6 115.4 114.4 116.7 117.7 118 118 124.1 129.3 131.3 129.4 126 123.4 122.5 121.4 120.6 119.4 117.9 116.4 115.3 115.3 115 114.7 115.2 117.6 119.8 119.1 121 123.4 128 131.6 131.7 129.7 129.3 130 130.4 131.7 133.7 134.6 133.9 132.1 130.8 131.1 131 131.5 132.2 133 132.1 132.1 128.3 117.6 116.4 117 114 121.6 126 132.2 137.1 140.8 150.5 151.2 153 160.6 165.6
29.2 29.4 29.4 29.4 28.8 28.6 29.5 29.4 29.4 29.5 29.4 29.4 29.4 29.4 30.7 31.3 31.2 31.7 31.8 31.7 32.1 32.2 32.4 32.1 32.2 32.3 32.3 32.2 32.2 32.4 32.4 32.5 33.7 34.1 34 33.8 33.8 36.1 36.9 38.8 40.6 43.8 50.1 53.8 54.7 55.9 56.6 57.1 56.5 55 53.3 53.5 54.4 54.2 54.2 54.8 55.5 54.7 54.6 54.3 54.4 54.2 54.9 55.9 61.8 68.7 71.3 70.1 67 61.3 60.7 62.6 64.6 65.3 64.9 65.1 65.3 68.8 71 73.5 76.2 78.9 81 81.9 82.4 81.8 79.7 76.5 74.2 74.4 79.4 86.2 95.6 98.5 95.8 93.1 89 87.7 90.7 90.5 89.1 89.5 90 91.1 91.6 91 90.4 90.8 92.6 94.7 96.3 99.5 101.7 102.4 101.8 100.7 99.8 99.2 100.9 104.5 107.6 110 111.2 111.6 111.7 111.6 110 107.5 105.5 105.8 108.8 113.3 116.6 118 119.6 120.3 119.4 115.3 112.9 117.1 117.3 116.8 116.4 119.9 124.3 125.4 123.8 122.1 121.1 121.3 121.9 122.2 121.4 119.4 116.4 115 114.6 114.2 114.7 114.9 116.1 117.1 119 122.7 126.2 130 131.4 130.2 130 129.8 128.5 128 129.5 131.5 132 131.8 132.2 132.4 132.7 130.9 130.9 131.1 131.5 128.7 128.5 124.5 115.8 115.5 116.7 114.1 125.3 130.1 136.8 142.4 147.6 149.7 149.7 156.3 166.4 170.2
29.1 29.2 29.1 29.4 29.3 28.3 29.6 29.5 29.5 29.4 29.4 29.3 29.2 29.6 30.2 30.3 31.1 31.2 31.5 31.4 31.9 32.1 32.1 31.9 32 32.1 32.1 32 31.9 32.2 32.3 32.9 32.8 33.1 33.4 33.7 35.1 37.8 38.2 39.3 40.8 44.1 50 53.7 54.3 55.6 57.7 59.1 59.1 57.8 55.8 54.8 56.7 59.3 61.9 62.7 63.1 59.5 56.3 55.4 55.2 55.3 55.8 56.7 59 64.5 65.8 64.3 62 59.2 59.2 59.5 62.2 63.5 63.2 63.2 63.6 64.9 65.9 68.3 70.9 73.3 75 77 77.5 77 75.1 73.2 72.4 74.2 81.7 89.9 97.9 103.3 102.2 99.2 95.1 89.6 87.6 88.3 89.1 90.5 92.1 95.7 97.6 96.3 93.1 90.9 92.2 94.7 97.7 100.7 103.1 103.8 102.5 100 98.5 98.3 100.6 103.5 106.6 108.6 110.2 113 114 112.6 109.6 106 105.4 105 105.4 109.2 114.9 117.9 121.6 123.8 121.8 115.1 111.7 114.7 115.4 115.4 115.9 114.6 117.2 118.6 118.2 118.1 118.6 119.8 120.7 121 120.3 118.9 117.4 116.9 116.8 115.7 114 114.8 115.6 115.7 118.8 122.6 125.9 127.3 126.9 127.5 128.2 127.6 125.7 123.9 126.9 129 130.1 131 132.5 134 133.8 131.7 130.4 130.7 130.7 127.8 125.4 122.3 114.7 114 114.6 118.1 131.7 132.7 137.2 143.6 147.3 148.7 155.1 164.2 172.1 174.1
28.9 28.7 28.5 29.3 28.9 28.3 29.6 29.5 29.3 29.1 29 29.1 29.2 29.5 29.8 30.1 30.2 30.6 31.6 31.3 31.6 31.9 31.8 31.7 31.8 31.8 31.7 31.4 31.9 32.5 34.2 33.5 33.3 33.2 33.6 34 35.1 37.2 38 39.1 40.5 42.3 47.3 50 49.5 53.1 57.6 59.8 60.9 60.2 57.6 55.1 58 62.7 67.5 68.5 67.5 63.8 59.3 57.6 57.6 58.6 58.9 59.2 59.5 61.5 62.4 60.2 58.4 58.3 58.8 59 60.1 61.4 61.7 61.9 63 63.3 63.9 64.7 66.6 67.8 69.1 71.1 72 71 70.7 71.2 72.1 73.9 83.1 90.9 97.1 102.8 105.8 104.7 99.9 93 87.9 88.4 91.1 95.6 98.5 100.6 102.5 102.1 98.4 93.5 91.8 93.7 98.4 102.2 104.9 106.1 104.8 100.9 97.9 97.5 99.4 102.6 106.7 109.9 113.1 114.8 113 108.9 105.5 105.2 106.2 105.1 105.1 106.5 113.9 117.7 122 122.9 120.4 113.9 109.9 112.4 114.5 114.7 111.7 110.9 112.8 113.4 114.5 115.1 115.4 116.1 116.7 117.4 116.9 117.3 118.4 119.1 119.2 117.1 113.7 114.4 114.8 115.6 118.2 121.4 122.9 123.1 123.2 124.2 124.7 123.1 121.9 121.5 124.4 128.8 133.6 134.1 134.5 136 134.8 131.1 130.1 128.4 125.2 127.2 120.2 114.6 113 112.8 113.7 125.3 130.9 132.9 137.2 141.8 145.9 151.9 157.9 164.9 174.4 175.3
29.3 29 27.5 29 28.5 28.3 29.1 29.5 29.3 29 29.3 29.1 29.4 29.7 30.3 30.2 30.2 30.5 31.5 31.2 31.2 31.6 31.4 31.4 31.5 31.1 31.5 31.9 32.4 36.1 37.5 36.7 35.7 34.3 34.2 35.2 36 36.1 36 38.1 40.1 40.3 42.5 43.9 44.9 50.3 55.8 59.1 60.5 60.5 58.8 53.1 57.9 63.8 69.5 71 69.3 66.6 62.6 61.1 61.3 62 62.8 62.2 61.9 61.4 60.6 58.7 58.7 58.2 58.6 59.4 59.9 60.7 62.8 63.2 63.3 64 65.2 67.7 70.1 69.9 70 68.9 68.8 69.1 69.8 71.5 72.6 74.9 81.6 87.8 93.5 98.7 103 104.8 102.1 95.1 87.7 89.3 95.6 99.7 102.1 103.7 105 104.2 101.5 97.5 93 93.8 97 102 105.6 107.3 105.6 101.6 97.9 96.9 98.5 104.6 109.3 112.5 113.4 111.8 108.1 103.8 102.4 103.8 104.4 103.8 104.2 105 111.9 116.2 118 117.4 114.1 108.5 108.8 112.6 113.7 111.3 109.9 110.3 110.8 110.3 110.8 111.6 111.6 112.5 112.9 113.3 113.7 116.6 118.6 119.4 119.5 117.4 114.1 113.2 113.3 114 116 118 118.9 118.9 119.3 119.5 118.5 117.9 117.6 120.6 124.9 132.1 135.7 136 136.9 138.6 137.7 134.1 131.2 130.9 126 121.1 114.4 112.2 112.2 109.5 113.8 128.3 131.1 132.8 137.4 142.2 146 152.4 157.1 165.7 174 173.6
29.2 28.8 28.5 28.2 28.2 28.8 28.8 29.3 29.5 29.3 29.1 29.3 29.6 30 30.2 30.3 30.4 30.6 30.8 30.5 31 30.7 31.5 31.2 31.4 31.4 32 33.2 36.4 37.9 38.5 39 39.3 38.6 39 39.7 39.5 39.5 37.6 36.8 38.9 39.5 40 40.5 42.3 47.8 52.7 56.9 58.2 57.9 56.5 50.7 56.4 61.9 67.3 69.1 68.1 67.2 65.3 65.8 67.3 67.5 68.8 68.2 66.4 64.1 61.3 58.7 58.3 58 58.8 61 63.3 63.9 65.1 65.5 66.6 68.4 70.7 73.6 76.9 76.1 75.2 73.6 72.8 71.9 72.1 73.3 74.5 78 80.3 83.7 87.7 92.5 96.8 99.2 99.2 92.5 86.9 90.5 96.7 101.2 103.4 104.9 104.2 102.2 100 97.4 94.9 93.6 96.9 102 106.3 108 105.8 101.5 97.3 96.8 99.8 105 108.9 110.3 109.3 106.2 103 100.7 100.4 101.3 101.5 102.7 102.8 103.5 108.1 111.2 110.9 108.7 106.9 107.1 107.5 109.5 110 109.7 108.4 108.4 109 109.3 110.9 111.9 113.7 112.7 111 111 112.5 115.4 117.7 119 119 117.5 114.9 112.8 111.9 113.6 115.2 115.8 115.5 115.3 115.1 113.2 112.5 112.9 115.7 121.1 126.3 130.3 133.2 134.8 138 140.8 141.7 139.6 137.7 136 130.4 118.6 111 110.5 109.7 112.2 125.6 129.4 131.1 132.9 137.1 141.9 144.3 149.2 154.9 161.5 168.5 169.7
29 28.9 28.5 28.2 29.4 29.2 28.1 29 29.2 29.3 29.3 29.6 29.9 30 30.4 30.5 30.8 31.2 31.4 31.2 31.2 32.9 31.2 31.2 31.4 31.8 33.4 36.4 37.9 38.3 38.6 39.2 39.7 40.7 41.3 41.6 41.9 42.1 40.6 37.8 37 38.9 39.1 38.5 39.4 43.4 48.6 53 53.5 52.1 50.8 48.7 53.1 56.4 61.5 63.5 63.9 65 66.7 68.9 72.1 73 75.5 75.4 73.4 70.4 64.1 59.9 58 57.7 59.8 64.2 68 69 68.5 68.6 69.1 71.3 74.1 77 81.1 81.2 81.2 81.4 80.8 79.8 78.2 78.4 78.2 80.7 81.3 83.8 85.2 86.9 90.2 93.4 92.7 88.7 86.1 89.5 96.3 100.5 102.5 102.8 101.2 98.9 96.5 94.4 93 93.5 96.6 101.6 106.1 107.4 105.2 100.6 96.3 96.5 99.7 103.2 105.7 105.5 103.8 101.6 100 99.5 100.1 100.6 101 101.1 101.8 102.2 103.1 105.6 105.2 105.2 105.2 105.9 106.6 108.4 108.9 108.4 108.5 108.2 108.2 108.7 112.5 115.7 115 112 110 110.2 111.9 114.4 116.5 117.2 117.4 116.7 115.9 114.2 111.1 111.8 113.3 114.3 114.6 112.5 110.2 108.8 108.9 110.7 115.9 121.3 125.6 126.5 128.8 132.9 137.6 140.3 142.5 142.9 142.4 133.5 123.9 114.9 108.9 106.5 111.2 124.7 133.5 129.9 130.3 132.2 138.6 138.9 141.9 146.5 151.3 156.1 162.3 163.4
29.1 28.8 28.5 28.2 29.4 29.1 29 29 28.8 29.2 29.5 29.8 29.9 29.8 30.6 30.9 31.3 31.7 31.7 31.8 30.7 31.1 31.5 31.2 31.6 33.9 37.1 38.1 38.8 39.4 39.5 39.5 40.4 42.9 45.5 45.4 44.4 42.9 42.1 39 36.8 37 37 38 38.6 40 44 47.2 47.2 45.6 45.1 46.1 48.7 50.5 54.2 56.4 58.3 61.2 65.3 69 72.7 75.1 77.1 78.9 78.7 75.5 69.1 62.5 58 57.6 61.5 65 69.1 71.4 72.3 71.4 70.4 72.6 75.4 79.3 82.6 84.4 85.8 86.9 87.6 86.4 83.8 82.9 82.2 82 83 82.9 83.5 84.3 85.3 87.3 87 86.2 85.3 88.3 94.3 97.5 98.5 98 96.6 94.7 92.3 90.3 90.7 93.2 95.8 100.3 104.1 104.7 102.2 98.6 95.7 96.2 98.5 101.6 102.4 101 99.7 98.9 99.5 99.7 100.5 100.8 101.1 101.3 102.1 102.1 102.9 103.4 103.5 103.8 104.3 105.3 108.8 109.7 109.5 109.1 109.1 109 110.1 111.4 113.4 115.5 113.3 110.3 109.9 110 111.6 113 114.4 115.1 115.5 115.6 115.4 114.6 110.8 110 113.3 115.1 114.6 110.9 107 107.2 107.4 111.1 115.6 119.6 121.7 120.6 123 127.5 132.2 136.5 139 140.6 140.1 125.9 112.5 104.6 108.7 110.2 113.9 127.9 132.3 133.3 129.6 134.6 135.4 135.7 138.9 143.7 147.8 151.1 153.7 155.3
28.4 29 28.7 28.4 29 28.9 28.7 28.9 29.1 29.2 29.3 29.4 29.8 30.1 30.6 31.1 31.3 31.9 32.6 33.4 34.4 31.9 31.7 31.6 33.5 36.3 38.7 39.3 42.2 45.5 43.7 43.4 44.6 46.1 48 47.4 46.9 44.9 42.5 39.4 37.2 36.6 38.4 40.7 40 38.6 41.1 42.3 42.1 42.6 42.7 43.2 44.6 45.6 47.8 51.3 53.1 56.8 61.5 65.7 68.2 69.9 71 74.3 76.5 76.1 71.9 64.6 57.8 57.7 61.1 64.6 68.6 71.2 72.4 71.4 70.7 72.8 75.4 79.3 82.7 85.4 87.5 89.6 91.6 91.8 89.3 87.1 87 87.2 84.7 82.4 82 82.4 82.1 83.8 84.4 84.4 84.8 87.6 91.6 94.1 94.6 93.6 91.9 90.2 88.9 88.9 91.1 93.9 96 98.9 101.5 100.6 98.3 95.6 94.3 94.6 95.1 97.8 97.8 99.2 100.7 101.9 101.7 102.2 103.5 104.3 104.8 104.4 103.8 103.2 102.6 102.4 102.5 103.3 104.9 108.6 109.9 110.2 109.6 109.4 109.6 110.3 111.8 112.6 112.3 112 110.3 110.6 110.1 110.2 110.6 110.9 112 112.1 112.8 114 114.4 112.7 109.2 110.5 115.6 116.9 114.1 109.6 105.1 104.4 108.4 111.7 114.1 115.4 115.6 115.9 117.7 120.1 122.9 128.3 131.8 134.4 129.7 113.7 103.5 107.4 108.8 111.3 126.1 127.5 127.8 131.4 132.9 133.3 132 132.2 135.2 139.3 142 143.9 146.2 148.9
26.4 28.7 28.6 28.3 28.9 28.8 28.6 28.9 29 29.1 29.3 29.7 30.1 30.5 30.5 31.3 31.4 31.6 32.3 34.4 38.8 36.8 34.2 34.3 36.9 39.2 40 44.8 49.5 49.5 46.9 46.9 47.1 48.1 49.7 48.5 47.1 44.9 42.7 40.4 37.7 36.9 37.9 40.7 40.2 39.3 39.5 39.7 40.3 41 41.8 42.5 43.5 44.5 45.3 46.7 49.2 52.5 56.6 59.7 61.1 61.7 62.9 65.8 69.8 72.1 70.3 63.6 56.8 57.5 59.7 62.2 66.2 68.7 69.8 69.6 69.6 71.2 73.1 76.2 79.3 82.6 85.3 88.2 91.3 93.6 93.8 91.8 91.1 91.1 89.3 85.6 82.8 82.3 81.9 82.2 82.4 82.5 83.7 87.7 90.8 91.4 91.9 90.8 88.9 87.2 87.2 88.8 93.2 94.8 95.5 97.5 98 96.9 94.4 92.5 92.6 95.2 97.9 100.7 102 102.7 103.7 104.6 104.8 105.9 107.3 109.6 110.2 109.7 108.9 107.2 104.6 103.1 102.7 106.8 110.9 110.1 109.5 111 110.7 110.3 110.9 111.7 111.6 111.4 110 108.3 109.4 110.7 111 111.1 110.7 109.9 109.8 110.3 110.9 111.5 111.3 108.4 107.8 112.8 115.6 115.5 112.9 108.9 104.8 104.5 107.9 111.5 111 111.5 111.8 112.5 115 116.6 117.9 121.1 122.7 123.7 113.7 107.2 105.7 107.7 108.6 124.3 126.2 126.7 126.6 127.2 128.5 130.6 130.6 130.2 131.5 134.1 136.9 138.6 140.8 143.7
26.6 27.9 28.3 28.1 28.9 28.3 28.4 28.7 28.9 29.3 29.7 30.1 30.4 30.7 30.6 31.4 31.5 31.9 32.1 32.8 34.1 35.4 36.6 37.1 39.3 40.7 44.8 52.9 54.6 51.3 48.3 47.5 47.7 48.8 49.9 48.5 46 43.7 43.1 42.1 39.4 38.6 38.1 38.6 39.6 40.7 40.6 40.3 40.4 40.7 41.3 43.1 44.1 44.8 45.5 46.3 47 49.2 51.7 53.4 54.1 54.8 55.5 57.5 61.7 65.9 65.4 59.7 56.4 57.5 58.9 60.4 62.6 64.8 66.2 66.7 67.2 68.7 70.1 71.6 74.6 78 81 84.2 87.3 90.6 92.7 93.4 93.4 92.4 90.7 88.5 85.3 82.6 81.8 81.6 81.6 82 83.8 87.3 89 89.7 90.5 89.5 87.5 86.1 86.1 88.2 93.3 94.6 95 95.4 95.1 92.3 89.6 92.2 93.6 96.1 99.9 103.1 103.6 103.4 104.4 105.4 106.2 107.9 110.8 113.9 114.3 114.6 113.5 108.1 105.5 105.4 107.5 111.7 112.3 110.8 110.5 111.4 110.8 110.3 111.3 111.4 111.3 109.5 107.5 108.2 108.9 110.8 112.4 113.1 111.4 109.1 108.6 109.1 109.7 109.2 106.4 105.7 109.6 112 113.2 112.3 109.9 108 100 100.7 104.1 104 104.1 104.8 105.4 106.3 106.8 105.8 107.5 110.6 108.2 106.9 105.4 103.4 105.9 110.5 121.8 124.6 125.3 125.6 125.9 126.5 127.3 127.7 132.5 130 129.4 131.2 132.6 135 138.5 141.2
26.9 27.7 28.1 28.4 29 28.4 28.7 28.9 29.1 29.6 30.1 30.4 30.7 30.9 30.8 31.3 31.6 32.1 32.3 32.5 33.2 34.1 35.3 37.7 39.6 43.3 52.8 58.7 56.7 51.5 47.9 47.3 48.3 49.3 49 47.1 44.3 44 43.7 43.2 42.4 41.6 40 40.1 41.2 42.5 42.7 42.9 42.5 41.8 42.5 44.5 47.2 47.6 47.4 47.9 48.5 49 49.4 49.9 50.3 51.1 52.1 53.3 56.3 59.4 58.6 56.2 56.5 60 62.3 61.9 61 62.6 63.9 64.7 67.3 67.4 67.4 68.8 70.7 72.2 75.5 78.7 81.9 84.9 87.2 88.9 90 90.1 89.7 88.7 85.4 82.5 81.5 82.5 83.1 84.2 85.3 86.6 88.3 88.7 89.7 88.2 86.5 85.6 85.7 87.2 91.8 94.2 94 94 88.5 89.7 94.3 93.9 94.6 97.2 101.6 104 103.6 101.4 101.8 103.2 105.3 108.9 113 117.2 119.4 119.4 115.2 109.3 107 108 108.6 111.3 111.2 110.8 111.6 110.7 109.9 109.8 110.2 110.1 108.3 107.2 107.6 108.9 110.4 111.6 112.3 111.5 109.4 107.8 107.7 108.2 107.4 105.7 103.1 107.1 108.7 110.1 109.9 108.9 105.9 98.9 98.8 99.1 100.3 100.3 100.8 103.2 103.8 102.9 100.9 101.3 103.2 102.8 103.6 104.1 104.9 101.7 107.4 120.4 122.3 123.9 124.4 124.8 125.2 126.2 126.9 127.3 127.7 132.6 129.1 130.7 134 136.3 138 142.5
26.7 26.6 26.7 27.2 28.1 27.7 29 29.1 29.2 29.8 30.1 30.5 31 31.1 31 31.4 31.9 32.4 32.4 33 33.1 33.9 34.8 38 41.1 48.5 57.5 59.5 54.6 48.9 45.7 45.4 47 48.3 47.3 44.8 44.4 44.2 44.1 43.6 42.8 42.3 41.4 41.3 43.2 44.5 44.7 44.6 44.8 45.2 47.1 47.2 50.1 51.5 52.4 52.5 52.5 53.1 54.4 54.2 53 52.7 52.8 53.9 54.3 54.9 56.2 57.3 60 68.4 70.9 67.7 62.7 63.1 65 65.5 66.6 65.2 65.4 66.6 67.8 68.8 70.7 73.6 75.9 78.4 80.3 82.1 83.9 82.3 84.8 84.4 83.4 82.3 81.2 82.6 84.7 88.3 89.7 89.7 89.6 89.4 89 87.3 85.7 85.1 85 86.7 90.6 93.7 93.4 87.8 90.7 94.3 95.3 94.9 94.9 98.1 102.5 103.5 101.3 99.2 98.3 100.3 104.3 109.8 114.9 119.7 122.7 120.1 113.1 107.9 107.2 108 107.1 108.1 106.8 108.7 109.8 108.7 108.2 108.8 108.5 107.4 106.2 107 108.6 109.8 111 111.4 110.7 109.6 108.1 107.2 106 105.1 103.1 99.5 104.8 106.4 106.1 103.9 102.5 102.2 98.2 98 98.2 98.3 98.7 99.1 99.6 100.7 100.9 99.1 97.9 98.1 98.9 99.4 102.9 103.4 103.3 104.4 118.7 119.3 122.1 123 123.5 124 124.4 125.2 126.2 126.8 127.3 129.2 132.1 134.5 140.6 141.3 141.8 145.3
26.6 28.5 28.6 28.9 29 28.7 28.5 27.2 29.2 29.7 30.3 30.8 31.1 31.3 31.3 31.7 32 32.4 30.8 30.7 33.4 33.7 34.4 36.5 40 51.2 58.2 56.5 50.9 45.4 43.6 43.8 45.1 46.5 45.1 45.1 44.9 44.6 43.4 43.7 43.2 43 42.8 43.3 46.3 47.3 47.6 48.4 50 51.1 52.2 54.5 55.8 55.7 56.2 56 56.5 57.9 60.1 60.9 59.5 57.1 56 57.7 59.7 61 64.4 66.7 69.1 75 77.1 72.8 67.4 64.9 65.4 66.6 67.2 66 66.8 67.5 67.8 68.4 69.4 70.7 71.9 74.2 76.7 78.9 82.4 81.6 81.3 80.9 80.6 80.6 80.9 83.1 87 90.6 92 91.9 90.9 90.1 88.7 87.2 85.4 84.1 84.1 85.8 89.2 93.2 91.1 84.7 92 95.3 96.2 94.7 94.2 96.4 100.4 101.1 97.9 96.6 96.5 99.6 103.9 109.3 115.2 119.8 120.7 116.6 109.2 105.2 106.1 107.2 104 102.4 102.4 103.6 105.5 106.3 107.7 109.8 107.5 105.2 105.5 107.2 109.4 109.5 109.3 109.7 109.4 109.1 107.3 104.6 102.9 99.4 94.5 96 94.6 94.5 94.4 94.6 95.7 96 96.5 96.9 96.8 96.9 97.5 98.1 98.7 99.3 97.5 100.4 101.9 101.9 102.1 103.1 108.1 104.6 107.4 115.9 119.8 121 121.9 122.5 123 123.6 124.5 125 125.7 126.4 127.8 132.5 133.5 136.5 143.9 143.8 144.4 147.2
28.3 28.3 28.4 28.7 28.9 29.1 29.2 29.4 29.7 29.1 28.3 30.3 31 31.1 31.3 31.6 31.5 31.8 32.5 32.8 33.4 31 35 34.5 36.7 43.6 52.9 52.3 45.1 41.2 43.7 43.3 44.5 45.4 44.7 45.2 45.4 44.5 42.6 43.2 44 45.3 45.5 45.7 48.2 49.8 50.5 55.1 57.7 59 60 61.9 61.8 61.1 59.6 58.9 60 63.1 66.6 68.5 66.5 62.3 57.9 58.7 62.4 66.8 70.2 72.4 73.9 78.8 80.5 76.1 71.3 68.9 68.8 70.3 71.2 71.1 70.7 70.6 70.6 69.9 69.4 70.1 72.1 76 79.5 81.7 83.6 80.7 80.4 80.1 79.9 80.1 81.1 83.8 87.5 90.7 92.4 92.4 91.9 91.4 89.6 87.5 85.3 83.7 83.7 85.4 89.2 91.1 83.3 88.7 92.9 95.3 95.5 94 93.3 94.5 97.5 97.9 95.5 94.9 96.3 99.7 103 106.5 112 115.6 114.7 110.5 104.8 102.5 104.8 104.2 99.3 97.4 98 97.7 99.6 101.6 106.8 110.6 106.8 104.9 105.6 108.4 110.3 109.2 106.7 106.9 108.2 108 103.5 95.7 89.9 87.6 88.6 90.1 91 92.5 92.8 94 94.8 95.3 95.7 96.3 96.7 97 97.6 98.4 98.8 98.7 98.1 100.3 101 101.6 102.3 106.1 110 111.5 114.1 117.3 119.5 120.1 121.1 121.7 122.4 123.6 126 126.1 126.1 126.6 127.9 133.4 135.6 139.7 144.3 144.1 145.2 147.9
28.4 28.2 28.2 28.2 28.4 28.7 29.1 29.3 29.8 29.8 30 28.2 29.6 30.1 29.9 30.7 31.3 32.2 32.9 33.5 33.6 34.1 31.3 34.7 35.4 35.6 39.2 39.6 38 38.8 43.8 45.3 45.6 45.3 45.4 45.8 45.9 45.1 45.8 47.3 47.1 47.1 47.9 48.3 50.2 52.6 57.6 63.5 65.3 67.1 68.3 70 70.5 66.9 63.4 62.5 64.3 68.4 72.6 75.4 72.6 67.4 61.7 59.7 64.3 69.1 73.8 75.9 76 78.3 80.2 77.4 73.4 71.5 72.5 74.6 76.6 77.6 76.6 74.9 74.2 72.8 71.4 71.5 74.4 80.7 86.4 89.2 88 84.3 80.7 79.8 79.8 80.3 83.1 85.1 87.8 90.6 91.7 92.8 93.9 93.1 90.9 88.2 84.9 83.3 84 85.1 88.8 86.6 82 88.9 92.6 93.7 93.5 92.7 91.6 93.4 95.5 95.5 94.8 95.8 97.3 98.6 100.9 103.4 106.8 108.8 107.9 104.4 101.8 101.3 101.8 98.1 93.7 93.1 94.1 94.3 96 100.6 107.8 107.6 105.4 105.6 107.9 111.2 112.1 109 105 105.6 107.3 103.3 95.1 86.4 88.5 89.9 90.2 90.8 89.3 91.3 92.4 92.9 93.9 94.9 95.5 96.3 96.9 97.4 98.2 98.7 98.5 98.1 98.5 101.6 103.1 102.3 106.5 108.8 109.6 109.9 115.7 116.2 118.6 119 119.5 120.6 122 126 128.1 128.8 128.3 127.5 128.4 133.2 135.6 138.1 142.1 142.6 144.5 147
28.1 28 27.8 28 28.1 28 28.6 29.2 29.7 29.7 30.2 30.8 31 31.3 31.7 32.5 32.7 33.2 33.6 33.8 34.2 34 31.7 34.3 34.9 35.7 36.4 36.6 37.2 38.3 44.1 51.2 49 46.5 46.1 46.3 46.4 46.2 48 49.4 50.2 50.1 50.5 52.6 54.2 57 62.6 68.9 71.7 73.2 74.4 76 75.9 72 68.4 66 68 71.7 75.3 76.9 74.3 70 65.8 63.6 66.3 70.9 75.4 76.7 75.7 77.2 78.1 77.1 74.6 73.5 74.9 78.1 81.5 83.7 84.5 82 79.4 76.4 74.8 73.9 77.1 83.2 89.5 92.2 91.6 88.7 83.4 79.9 80 81.1 82.7 84.5 87.1 89.6 90.5 92.2 93.7 92.2 89.3 86.4 84 83.8 86 87.7 88.5 83.7 83.7 88.2 90.9 92 92.3 91.3 90.1 90.9 93.1 93.3 93.2 93.2 94.5 95.4 97.2 99.5 101.8 102.4 101.4 99.9 100.2 100.9 98.6 92.9 90.8 90.9 91.3 91.8 93.7 98.2 103.1 104.7 105.7 107.1 107.4 110.3 110.6 107 103.9 105.3 105.7 96.2 87.9 87.4 89.9 90.5 91.5 92 92.8 92.4 91.2 93 93.5 94.2 95.2 96.2 96.9 97 97.5 97.9 98 97 100.1 108.7 107.6 107.7 108.3 108.8 109.2 112.9 116.7 117 117.9 118.4 118.9 119.7 121.4 124 125 127.8 128.7 128.1 128.9 130.4 135.5 137.1 138.6 139.7 141.8 144
27.9 27.8 27.8 28.4 28.4 28.2 28.8 29.3 29.7 29.8 29.9 30.1 30.6 31.1 31.4 32.1 32.9 33.1 33.6 33.9 34 34.1 32.1 34.7 35.3 35.7 36.4 35.5 36.1 36.9 36.8 34.3 35.1 36.7 35.7 46.2 46.6 46.8 51.5 55.5 58.1 57.5 54.9 56.1 57.8 63.5 67.6 71.1 74 75.1 76 76.7 76.8 73.5 69.7 68.5 70.4 73.2 74.8 75.1 73.6 70.2 66.7 66.6 68.8 72.2 74.4 73.7 74.4 74.7 75.8 75.9 74.3 74.5 76.9 81.1 85.4 88.5 90 87.4 84 80.6 77.9 76.2 78.3 82.6 88.1 90.2 90.1 89.6 85.9 80.8 80 80.4 81.1 82.1 84.4 86.8 87.7 89.3 90.2 88.9 85.9 83.4 82.6 84.3 87.7 91.4 89.1 79 82.1 86.3 88.9 90.2 89.9 88.1 89.5 90.2 92.5 92.3 92.6 92.4 92.4 92.4 93.9 95.1 96.6 97 96.6 97.6 99.1 99.1 95.8 92 90.4 89.8 90.2 91.2 93.1 96.2 100.2 107.6 109.4 107.9 105.5 107.3 106.8 103.4 102.5 103.6 98.5 90.2 85.7 88.9 89.8 90.4 91.2 92.6 92.8 93.2 93.8 92.1 92.6 93.6 92.5 93.7 93.8 94.4 94.8 95.4 95.3 101.8 110.4 109.5 107.1 107.3 108 108.6 109.8 114 116 117 117.7 118.4 119 119.7 120.8 121.8 123.5 125.4 126.8 127.8 129.3 130.7 133 136.7 138.6 137.5 139.4 141.3
27.8 28 28.3 28.4 28.3 28.5 28.9 29.5 29.8 30 30.2 30.5 30.7 31.4 31.9 32.2 32.7 32.8 33.2 33.9 34.2 34.6 32.3 34.9 35.6 35.2 34 36.5 36.9 37.3 37.5 38 38.2 38.4 38 42.3 46.8 48.5 57.3 63 64.5 62.4 57.7 57.7 60.5 66.3 69.3 71.5 73.4 74 74.3 74.3 73.7 71.8 68.4 68.8 71 73 73.3 72.6 70.9 68.4 67 69.6 70.6 72.9 73.3 74.2 77.3 78.7 76 75 74.2 74.8 78.1 82.7 87.4 90.8 91.3 89.1 86.3 82.4 79.1 78 79.9 83.1 84.6 84.8 85.4 85.9 85.4 81.1 79.9 80.5 81.1 80.6 81.3 82.6 84.3 84.5 85.2 84.5 81.9 81.5 82.3 85.8 90.5 91.1 84.7 78.6 81.2 83.5 86 86.2 86.6 88.8 89.1 90.8 91.3 91.5 92.1 92 91.9 92 91.9 92.5 92.8 93.5 94.7 96.5 97.9 97.2 94.9 93.8 91.5 89.7 89.7 90.6 92.9 95.2 99 105.8 109 107.5 103.8 103.2 101.8 101 99.8 96.7 90.1 86.5 87.5 89.1 89.5 90.2 92.2 94.8 100.8 97.6 94 94.1 95.3 94 94.1 95 96.1 98.2 103.5 106 108.3 109.4 110.4 107.4 106.9 107.7 109.8 111 113.5 115.2 115.9 117.6 118.9 118.7 119 119.5 120.5 121.7 123.3 125 126.5 127.9 129.3 130.9 132.5 136.6 138.4 138.1 139.5 141.2
27.3 27.7 28.4 28.2 28.3 28.7 29.1 29.5 29.8 30.2 30.5 30.8 31.3 32 32.4 32.6 33.2 33.6 34.1 34.2 34.5 34.8 32.8 34.4 35.4 33.2 36.1 36.5 36.9 37.5 37.9 38.7 39.2 39.1 39 38.8 43.7 47.1 56.9 65.2 65.2 62.4 59.6 58.8 62.3 66.4 69.3 70.3 71.5 71.3 71.1 70.2 69.6 68.2 66.5 68.4 70.5 71.4 69.8 68.7 66.5 66.1 68.7 70.1 72.2 73.8 74.9 77.8 82.3 84.9 82.3 76 74.6 75.6 79 83.5 88.4 91.1 89.8 87 84 81.1 79.7 79.4 80.7 80.2 79.5 79.7 79.7 80.5 81 79.4 81.6 84.3 88.1 84.1 80.8 81.2 81.1 81.1 81.2 81.7 81.2 82.1 83.1 87.8 92.4 89.9 80.7 76.4 80 82 85.1 88.3 91.2 93.8 93.9 92.8 92 92 92.5 93.4 94 93.4 92 91.8 91.7 92.2 93.7 95.4 96.6 95.8 95.8 95 92.2 89.4 89.4 90.6 93.3 95.4 98.1 103.2 105.5 105 100.7 99.3 98.9 98.7 93.7 88.4 88.1 84.4 88 89.1 90.3 94 101.2 105.4 110.5 107.4 104.8 102.8 103.7 100.1 98.5 102.9 108 108.9 104.6 105.2 105.6 106.7 107.6 106.4 107.5 110.1 112.6 114.9 115.9 115.6 116.1 119.2 119.2 118.5 118.6 119.4 120.5 121.8 123.2 124.8 126.4 127.9 129.3 130.7 132.2 135.5 138.4 137.6 140 142.9
27.1 27.5 27.8 28.1 28.6 28.6 29 29.4 29.7 30.1 30.6 30.9 32.6 32.6 32.5 34.2 33.5 33.9 34.7 35.2 35.5 35.4 35.9 33.9 34.4 37.2 37.5 38 38.3 38.5 39 39.3 40 39.9 36.7 39.3 41.2 42.1 53.4 62.2 60.7 58.6 58.3 60.6 64.8 69.1 71.4 70.4 70.1 69 68.2 66.6 65.5 64.9 64.5 67.1 69.1 67.9 66.1 67.2 71 73.4 74.6 74.7 74.8 75.7 77.9 81.3 85.2 89 86.9 79.4 75.1 76.4 80.4 84 87.9 88.2 86.5 83.2 82.7 82.1 82 82.6 82.4 81.4 79.3 77.2 76.7 77.6 79.4 83.5 88.8 93 94.8 90.6 84.7 81.2 81.2 82.4 83.2 82.9 81.5 82.2 83.7 91 94.1 88.6 77.2 76.5 80.1 83.6 87.5 91.4 95.3 97.9 98.5 97.4 96.2 96.2 97 98.2 98.3 97.6 94.7 91.8 91.3 91.6 92.5 94.2 95.4 95.5 95.1 93.2 90.3 89.4 90.1 91.2 94.4 96.3 98.9 102.8 102.4 101.2 98.3 97.5 93.9 93.3 87.1 87.4 86.3 85.7 88.3 93.9 95.1 100.4 106 108.9 108.4 106.1 105.1 105.1 105.5 106.9 107.7 108.4 109.2 108.9 105.2 103.9 104.2 106.3 106.3 106.4 108.9 112.3 116.9 118.2 116.6 115.9 116.3 117.9 118 118.2 118.9 119.8 120.5 121.8 123.4 124.4 126.1 127.3 128.6 129.9 132.8 136.2 139 138.9 143.6 149.6
27.3 27.9 28.1 28.1 28.5 28.5 28.9 29.3 29.6 30.2 30.7 32.5 33.9 33.8 33 33 33.5 34.2 35.4 35.9 36.5 37.2 38.1 37.8 38 37.9 38.1 37.9 38.2 38.5 39.3 39.6 39.9 40 39 40 40.8 41.9 49.9 58.3 56.3 58.4 59.9 65 70 74.2 76.7 74.4 70.7 68.4 65.6 63.7 62.4 61.9 62.5 64.7 65.4 64.8 66.6 72.8 76.7 80.5 81.5 82.1 81.1 80 80.4 82.7 86.7 90.6 88.8 82.1 77.8 78 80.7 83.2 86.2 85.4 82.6 83.1 86.6 87.2 87.5 88.2 87.9 87.2 85 79.4 76.1 80.2 85.6 90 94.3 96.9 96.5 93.4 88.4 83.4 82.2 83.8 85 84.7 82.9 83 87.3 93.7 91.7 86.3 75.8 75.5 80.9 85.2 89.1 92.7 95.9 98.4 99.3 98.9 98.9 100 101.5 102.7 102.4 100.8 96.9 92 91.2 91.3 92.5 94.6 95.2 94.7 93.1 89.9 88.7 90.8 91.1 92.7 94.9 96.9 99 101.1 101.4 100.6 97.4 89.4 86.5 86.3 86.7 86.9 83.7 85.8 91.9 98.2 100.7 101.3 104.5 105.9 105.2 103.8 102.6 102.6 104.3 106.8 107.6 108.1 108.7 107.4 103.9 103.9 104.4 105.2 105.7 107.8 110.8 115.2 117.8 117.9 115.4 115.1 115.4 116.2 117.1 118.1 118.8 120.1 120.9 122.2 123.8 124.9 125.9 127 128.1 129.8 132.9 136.2 139.3 142 147.1 154.8
27.3 27.9 27.7 27.8 28.1 28.3 28.8 29.4 29.7 30.1 30.7 33 37.6 37.8 36.2 36.3 35.2 35.3 36.2 38.1 39.7 40.8 41.8 41.4 42.3 42.5 43.6 44.2 47.8 45.8 42.9 41.8 40.4 36.9 39.2 40 40.9 41.9 47.4 53 54.6 58.4 63.9 70.1 74.4 75.6 77.4 78.2 72.4 69.3 65.9 63.7 62.2 61 61.5 62.4 63.8 65.9 69.6 75.4 80.3 85.1 86.1 87.8 87.6 85.4 84.1 84.8 88 91.3 89.8 84.6 80.4 79.9 78.7 81.2 83.6 81.8 80.6 85.7 90.4 91.9 92.8 94.5 94.8 93.9 90.2 83.6 75.9 82.6 88.3 91.9 94.3 95.7 94.4 92 89.4 86.2 83.9 86.1 87.6 86.4 85.3 87 89.2 91.2 88 84.6 75.2 74.4 82.3 86.7 89.7 92.9 95.1 97 98.1 97.2 97.6 100.2 101.5 101.6 100.3 98.6 95.3 91.8 91.2 91.4 93.1 94.9 94.3 93 90.3 88.1 89.3 92.3 93.2 93.1 94.5 96 98 99.7 103.1 98.4 90.2 85.7 84.4 82.4 83.1 83.8 84.5 91.3 101.3 103.3 102.8 99.5 101.5 102.7 103.1 100.8 99.4 99.7 103.2 106 106.1 105.5 104 103.8 104 104.3 104.4 105 106.6 109.5 112.7 115.1 116.2 115.4 114.2 114.4 114.9 115.7 116.8 117.7 118.7 120.4 121.5 122.8 124.9 125.7 126.5 127.8 129.8 131 133.9 136.4 139.6 142.4 150.3 156.1
27.5 27.8 27.5 27.8 27.9 28.2 28.7 29.4 29.4 31 32.1 35.8 37.7 38.4 38.6 38.9 38.9 38.9 40.4 41.1 42 42.1 42.1 42.9 46.2 52.5 57.7 60 57.2 55.5 53.2 49.9 46.4 41.3 37.2 37.4 37.9 37.7 42.9 46.3 52 58.6 65.2 66.8 65.3 64.7 67.5 73.6 72.6 70.9 68.7 67.5 65.8 63.1 62.9 62.8 66.3 68.7 72.2 76.2 82 84.8 85.4 87.9 90.5 90.4 89.7 88.9 89.3 91.2 89.7 85.6 82.7 81 79.7 78.5 79.4 79.1 80.5 86.8 91.4 94.2 95.4 98.4 99.6 98.1 94.6 86.8 75 82.7 88.3 90.3 91.9 91.5 90.8 89.5 89.7 88.9 88.3 89.4 92 90.7 90.1 90 90.6 88.9 86.3 84.7 78.3 72.5 83.7 86.3 88.3 91.3 92.3 94.9 95.3 95.1 96.1 97.1 97.4 97.2 96.1 94.9 93.7 92.4 92.1 92.2 94.2 95 93.3 89.8 87.1 88.8 91.3 92.6 94 94.9 96.3 96.1 97.5 100.3 104.6 91.1 83.7 82.2 84.9 85.6 86.6 88.9 96 103.9 107.7 107.4 104.2 99.2 99 100.2 100.2 98.1 98.4 99.2 101.8 101.8 101.1 102.2 103 103.6 104.1 104.4 104.7 106.1 107.9 110.2 112.5 113.5 113.8 113.2 113.4 114.3 115.7 116 116.8 117.7 118.7 121.1 125.2 126.9 128.1 129.4 129.7 132.4 134.6 134.9 135.7 137 139.8 142.8 151.1 155.9
27.8 27.3 27.7 28.1 28 28.1 29 29.8 31 30.6 32.4 35.2 37.5 38.9 39 38.1 39.3 40 41 42.7 46.2 45.8 45.6 50.9 56.7 59.9 67.2 69.7 67.1 63.6 60.9 60.1 57.9 51.6 42.2 40.7 41.3 41.4 39.7 42 48 54.1 58.5 53.9 51.7 53.2 55.2 62.4 65 66.8 68.6 69.3 69.2 64.9 62.1 63.6 67.6 70.2 72.5 75.6 77.1 77.7 79.9 81 84.7 90.4 95.2 94.3 91.7 89.7 86.8 81.9 79.6 79 80.5 78.7 76.8 77.1 80.9 87.2 91.3 93.2 93.7 96.8 95.4 93.9 91.6 87.1 72.4 83.5 87.8 88.5 88.5 87.9 87.7 90.9 94.6 95.1 93.5 94.6 99.3 94.8 92.1 89.3 88.3 85.9 83.4 84.1 78 73.3 82 84.1 84.8 86 89.4 91.2 92.2 91.8 91.9 92.4 93.6 95.1 96.9 97.2 96.3 96.2 95.4 93.9 95.2 94.4 90.2 85.7 89.4 89.9 91.6 93.7 97.4 99.7 98.4 96.4 98.8 101.2 103 87.2 81.4 84.3 85.2 86.4 89.9 99 103.1 106.1 106.6 105.4 101.7 98 97.7 97.9 97.4 97.9 98 98.9 99.8 100.5 100.8 102 102.6 103.3 104.1 104.5 105 105.6 107.3 109.4 110.7 111.5 111.1 111.9 114.4 117.9 118.7 117.8 116.8 117.6 118.8 123 127.7 129.8 131.7 135.2 138.6 142.9 143.2 141.9 139.4 139.1 140.7 142.3 150.2 153.8
26.9 27 27.5 27.8 28.1 28.4 28.7 29.4 29.3 29.3 30.4 33.6 36.7 38.1 38.3 37.5 39.5 40.2 41.3 45.3 48.1 45.2 52.4 57 60.9 65.5 71.6 73.5 72.8 68.9 65.8 66.3 66 64.6 57.4 47.1 41.5 41.6 41.8 38.7 41.9 42.7 43.1 43.4 44.4 45 46.2 47.8 51.7 57.2 63.1 65.5 67.2 64.3 60.9 64 67.8 69.3 68.3 66.7 64.7 67 70.5 73.6 79.4 86 94.2 96.3 90.2 81.4 75.2 70.5 68.2 70.4 73.3 77.3 76 77 80.6 83 84.9 86.5 87.6 87.2 88.1 85.9 80.8 77.6 67.9 80.7 82.8 84.2 85.4 84.6 88.2 93.1 97 99.1 99.4 102.5 97.3 94.3 90.1 84.8 81.2 80.8 81.4 80.8 74.5 71.3 77.9 77.9 73.3 75 80 87.1 87.9 87.7 87.7 90.2 95 99.1 101.9 100.4 98.1 97.1 95.2 89.6 91.2 90.6 85.4 89.5 91.4 91.8 93.3 97.1 101.4 103.2 99.4 97.7 98.8 102 101.4 79.8 82.9 84.3 84.7 94.2 99.6 99.9 99.5 101.1 101.4 100.3 97 96.3 96.2 96.8 97.2 97.5 97.6 98.3 99.7 103.4 105.4 106.7 105.7 104.4 104 104.2 104.6 105.5 106.5 107.3 108.3 109.2 110.3 113.1 119 122.6 122.4 119.7 116.9 117.5 118.6 123.7 128.3 131.3 135.6 139.3 143 147.2 148.8 146.3 143.2 140.3 141.4 143.3 147.1 150.8
27 26.9 27.4 27.4 27.9 28.1 28.5 28.4 28.4 28.6 29.3 32.3 35.2 37 37.3 37.7 39.6 40.3 42.2 45.9 46.7 45.7 53.5 58.8 64.5 69.5 73.6 74 72.4 70.1 69.3 70.1 70.2 69.6 67.4 57.9 46.3 41.6 41.9 42.5 42.9 39.2 42 42.8 43 41.5 40.6 43.1 41 45.1 51.2 59.9 63.1 62.3 59.4 62.8 60.9 54.4 45.5 49 48.3 50 58.9 68.3 74.9 81.9 89 82.8 66.7 56.8 53.6 53.5 55.3 57.2 63.4 71.2 74.2 74.5 74.3 73 74.7 77.9 80.6 79.6 78 73.6 61.2 56.5 57.2 70.9 75 77.2 81.3 84.2 88.9 93.4 96.4 97.9 98.2 94 91.3 88.9 83.2 80.6 75.7 74.5 74.2 69.7 67.7 66.1 66.1 66.7 68 68.7 70.4 78.9 83.5 84.3 86.9 91 96.4 96.7 97.3 94.8 91.8 90.8 84 76.3 80.6 83.7 85.6 90.1 92.1 94 95.6 99.6 101.5 100.8 98.2 98.5 100.2 100.8 97.8 78.4 82.7 83.8 84.2 96.2 94.5 91.9 92.2 93.3 93.7 93.8 94.8 95.3 96.1 96.7 96.8 97.1 97.3 97.9 101.1 106.8 108.6 109.7 109.1 109 108.1 105.5 104.8 105.9 106.7 107.2 107.8 108.6 110.9 116.2 120.6 122.9 122.7 120.2 117.3 117.4 118.8 123.3 128.2 133.3 138.3 142.1 145.5 149.2 150.4 148.5 145.5 141.6 141.9 143.6 146.3 148.4
27 26.7 27.4 27.5 27.7 27.7 28.1 28.2 28.6 29.1 29.5 31.1 33.4 35.5 35.9 37.1 38.7 39.4 40.7 43.7 44.5 50 54.3 60.4 66.7 70.7 72.4 72.3 71.7 70.9 72.2 73.8 75.3 75.6 73 66.2 56.5 45.7 43.3 42.9 43.9 44.6 44.6 45.7 47.6 49.9 51.3 53.4 53.4 48.4 44.3 42.3 45.7 46.5 47.7 48.3 45 47.5 53 57.8 59.5 52.5 48.9 59.3 70.2 76.2 80.5 69.4 53 52.9 54.3 54.4 58.5 52.3 50.1 58.5 63.3 63.9 62.2 62.6 62.1 63.6 68.7 70.1 65.4 54 57.7 59.8 59.5 54.6 62 69.8 76.8 82.1 86.8 89.2 92.7 90.8 81.8 76.3 78.2 78.4 73.1 68.8 66.7 66.8 65.9 64.7 61.4 63.1 64.6 65.1 65.4 66.9 68.9 69.6 70 76.1 78.9 79.5 79.7 84.7 86.3 85.4 82.8 78.3 72.4 72.3 73.4 78.5 86 89.6 91.8 94.5 96.1 96.7 96.4 95.7 95.8 98.3 101.2 101.2 98 82.2 81.4 82.9 85.6 90 88.7 91.2 93.3 94.9 95.4 96.2 96.6 96.2 96.3 96.8 96.8 97 97.3 98.3 105.3 108.6 109.7 110.7 111.4 111.7 111.3 108.4 106.4 106.8 106.6 106.9 107.4 107.8 110.7 115.2 118.7 120.5 120.6 119.8 117.8 117.5 119.6 122.5 127.9 133.6 138.7 143 147 150.4 152.5 150.5 145.5 141.8 142.4 144.5 145.9 145.4
26.9 26.7 27 27.5 27.4 27.4 27.9 28.3 28.7 29.3 29.7 31.1 32 33.5 35.7 39.4 40.3 39.2 39.7 40.8 42.8 49.1 54.6 62.1 67.9 69.5 70.4 71.1 71.6 72 75.4 78.5 81.6 82 77.3 70.4 63.5 54.5 47.2 45.5 45.5 46.1 47.9 49.6 51.8 53.1 55 61.5 63 61 55.4 53.9 54 52.2 44.1 44.5 53.1 56 61.2 69.6 75 69 54.5 49 56.8 64.8 74 69.3 50.4 53.9 55.2 58.3 63.7 69 61.9 51.9 55.3 56.2 57 57.3 57.6 58.3 59 57.5 53.2 58.1 61.7 63 63.3 64.7 59.5 57.7 73.9 79.6 82.2 84.4 87.6 80.5 69.3 63 63 64.2 63.4 64.4 62.4 62.2 61.5 63.5 65 65.6 65.3 62.2 64.9 66 66.9 67.5 68.2 68.8 69.2 69.2 68.7 67.2 64.9 65.3 65.8 68.5 68.2 71.7 72.4 77.1 84.6 88.8 89.9 91.7 92.9 93 92.2 93.1 95 98.1 101.3 99.9 95.2 81.1 82 83.2 86.3 88.9 92.3 94.1 97.8 98.9 100.2 102.5 102.6 102 100.9 98.2 97.2 97.4 97.6 100.8 107.3 110.9 112.1 112.8 113.9 113.7 112.7 110.9 109.4 109.7 108.1 106.4 106.6 107.4 109.9 113.4 116.3 117.9 118.9 119.8 118.2 117.9 119.8 122.2 126.8 133.2 138.5 143 146.8 150 152.8 151.5 145.6 141.3 142.4 143.4 143.6 144.1
26.7 26.8 27.1 27.3 27 27.2 27.8 28.3 29.5 30.3 32.7 33.4 33.3 35.2 41 45.8 47.6 45 40.7 40.8 41.8 47 55.3 62.9 67.1 69.1 70.2 70.5 72.3 75.3 79.3 84 87.4 86.9 80.1 71.7 64.8 57.4 57.4 56.6 54.4 51.8 52.7 55.4 58.1 62.2 65.8 68.9 70 70.5 69.8 71.1 73.4 67 58.2 60.8 67.2 67.3 69.9 78.4 82.5 80.7 68.9 54.5 51.2 54.2 58 57.4 48.7 54.9 57.6 62 75.4 80.8 77 65.2 51.7 51.9 52.4 52.6 53.7 52.8 52.9 63.1 67.2 72.5 73.4 76.3 78.3 71.4 66.7 64.3 55.8 72.7 73.6 78.9 83.3 76 63.5 60.7 61.1 58.9 58.9 59.3 62.6 64.7 66.4 65.7 67.1 66.3 66.4 66.7 66.9 63.8 65.2 65.9 66.4 67 66.8 65 67.6 69.4 70.6 71.2 72 72.7 70.8 68.1 73.2 76 82.3 86.4 88.3 89.2 91.1 91.8 92 93.1 95.3 98.1 101 96.6 90.3 77.2 81.7 83.9 90.9 91.8 93.6 96.5 100.8 103.5 105.5 106.4 106.3 105.8 104.7 102.6 98.6 97.5 99.7 105.3 111 113.6 114.9 116.1 116.3 115.4 113.9 111.7 111.9 112 108.4 106.4 106.4 107.5 109.3 111.5 113.9 115.6 116.7 117.3 115.8 118.3 121 123 126.2 132.5 136.9 140.1 142.9 146.3 149.2 148.4 144.4 141.7 141.8 142.4 143 143.8
26.6 27.2 27.4 27.5 26.8 27.3 27.8 29.6 29.8 33.9 36 36.6 36.8 41.2 46.9 51.5 53.4 51.5 45.1 42.5 42.5 48.1 56.9 63.6 68.2 71.3 72.2 73 75.9 79 83 87.7 89.9 86.1 78.3 70.7 63.8 56.5 60.7 64 62.3 60 62.7 65.7 69.7 73 74.9 76.6 77.2 75.8 76.1 76.3 77.2 75.6 70.3 71 70.8 71.4 77.6 83.7 88 88.7 81.6 69.5 54.9 51.1 52.5 48.1 56.3 62 68.1 78.6 88.6 88.6 88.6 86.7 80.3 73.2 64.3 65.7 71.6 76.9 81.7 84.8 86.4 88.5 87.6 88.7 85.7 81.1 76.5 73.1 67 55.7 64.4 69.2 77 66.8 60.4 63.5 62.7 65 73.1 80.9 77.1 69.7 69.2 72 73.1 67.1 67.5 67.6 67.8 67.6 67.2 67.5 68 68.8 69.2 69.8 70.4 70.8 73 78.2 79.7 83.3 76.4 68.8 74 75.9 80.5 85.2 88 88.4 89.8 91.2 92.1 93.9 98.7 100.1 97.8 88.6 81.7 79.7 81.3 82.4 89.7 92.5 95 98.3 104.7 107.8 110.1 110.5 110.3 108.9 107.7 106.1 101 101.1 103.3 108.2 111.9 114.9 117.2 119.2 117.9 115.6 112.8 110.9 111.4 110.7 107.6 106.6 106.5 109.2 111.7 113.4 114 114.6 115.8 115.5 117 121.2 123.8 124 126.4 131.4 134.3 136.8 138.7 141.2 144.3 144.1 142.5 140.5 141.2 141.9 143.1 143.5
26.8 26.9 27 26.8 26.9 27.5 28.3 29.2 32.1 36.6 38.4 38.5 39.8 45.7 51.9 57.1 58.7 55.9 50.5 44.9 44.1 51 58.5 65.5 70.3 69.9 69.3 70.8 74.6 76.6 81.3 85.3 84.8 80.8 72.5 67.3 61.4 59.1 62.3 64.8 66.4 70.7 73.4 76.1 79.7 82.2 82.4 83 81.8 79.5 77.5 75.9 76.9 77.2 76 73 71 73.9 81.6 88.3 92.2 92.7 90.8 82 69.9 57.4 50.7 59.6 69.9 76.7 84.3 91.3 94.6 94 93.7 94 92.3 86.7 77.1 79.5 86.5 90.8 93.7 94.8 95.2 95.5 95.9 97.1 98.8 95.1 87 80.3 74.4 64.6 61 63.2 62.8 57.4 62.2 66.2 68.3 75.7 87.1 92.3 88.6 77.1 75.7 81.1 84.6 74.3 71 69.2 71.2 73.5 75 73.1 71.7 72.3 72.1 73.3 75.8 81.6 91.1 91.9 91.5 90.8 80 70.9 74.5 75.7 79 85.3 87.9 88.1 89.4 92.6 92.7 96.4 98.5 95 88.7 81 76.3 80.8 81.4 83.5 89.7 92.7 95.6 101.7 106.1 109 111.5 114 114 112.1 110 106.7 102.6 103.3 105.5 107.5 110 112.9 115.6 117.3 115.5 112.8 111 109.7 109.5 108.7 106.9 106.6 108.5 111.4 113.7 114.9 115.4 115.8 117.1 117.1 119.1 123.5 125.3 125.5 126.5 129.4 132 133.7 135.6 138.5 140.9 140.7 139.9 140 140.3 141.4 142.6 142.7
26.6 26.8 27.2 26.7 27.1 27.9 29.4 31.1 35.2 38.2 39.2 39.4 41.1 45.5 52.3 57.6 58.6 56.4 52.4 46.7 45.2 50.4 58.2 64.7 64.9 60.1 58.8 61.2 66.1 69.3 73.8 75.8 74.5 71 65.9 62.5 59.1 62.4 68.2 71.9 74.6 77.1 79.8 82.9 86 88.1 87.9 85.6 82.4 79.7 77.1 75.3 75.2 74.9 74.8 73.3 70.7 76.2 84.9 90.2 92.2 93.1 91.5 89.3 82.8 72.4 72.6 78.9 83.7 88.1 93 97.4 99 98.8 99 99.6 97.9 94.1 85.6 88 92.8 96.2 99.6 100.5 100.9 101 102.1 103.7 104.1 102.7 97.8 88.2 81.8 73.5 58.7 61.7 60.7 60.8 66.8 72.7 76.3 86.1 93.4 96.1 97.7 88 84 87.4 87.9 85.3 76.8 78.1 80.6 80.5 81 83.7 82.7 83.5 84.1 85 89.3 95.5 97.1 97.2 97.1 96.2 81.3 71.3 74.2 75.2 77 84.8 89.7 91.1 93.5 94.7 92.8 91.2 86.4 84.3 80.5 80.2 77.1 80.7 81.3 83.2 84.9 90.4 95 101.5 103.6 106.6 110.5 115.9 116 112.9 109.7 106.1 102.3 103.2 104.8 105.3 107.7 110.7 112.6 112.7 111.5 112.1 112.3 110.8 109.6 107.8 107.3 107.4 110.1 113 115.8 116.8 116.2 117.7 119.8 121.6 125.1 128.2 129.3 128.8 127.9 128.5 130.7 133.1 136.1 139.3 139.8 138.5 139.1 139.3 140.4 142.3 142.6 143.7
26.5 26.5 26.6 26.9 27.9 29.6 31.2 33.1 35.3 36.7 38.1 39.5 40.4 43.8 49.5 55.4 56 54.8 51.7 47.8 48.5 50.5 51.9 56 55 54.9 57.1 58.2 58.2 61.1 63.2 64.6 64 62.8 61.6 59.2 60.2 63.4 69.5 73.5 76.2 78.6 80.8 84 87.5 87.2 85.3 82.2 79.5 77.9 77.6 76.7 73.8 72.2 71.8 71.7 70.5 77.8 84.7 86.9 87.7 88.8 89 88.9 86.8 78 76.8 85 89.1 93.4 97.9 101.4 101.8 101.5 102.2 102.5 101.3 97.6 91.1 92.8 97.3 100.7 101.9 102.6 102.8 102.7 104.8 106.1 106 104.7 101.7 96.1 89.2 85.2 76.6 62.6 61.4 70.9 79.7 82.2 85 92.2 96.6 99.9 102.8 99.8 95 93.3 91.6 89.6 85.4 84.5 85.5 85.2 81 86.1 90.7 92.5 94.5 97.3 99.7 101.1 101.8 102.2 102.2 101 79.8 70 73.3 75.5 76 80.1 90.9 95.2 90.5 85.7 81.5 77 77.3 79 79.5 79.8 77.1 79.4 82.1 85.6 85.4 84.9 92.5 98.8 101.1 104.6 109.1 113.7 113.2 110.4 107.2 103.5 101.2 102.2 102.9 103.8 106.1 108.4 109.7 110.4 111.3 113.1 113.8 111.9 110.2 108.4 108.4 109.7 111.9 115 117.9 118.5 118.3 119.4 123.2 126.1 130 132.7 134.5 135.1 132.3 129.4 130.9 135 138.9 141.4 139.9 138.3 138.5 138.9 140.8 143.1 144.1 144.3
26.2 26.6 26.8 28.5 30.1 31.8 34 36.6 38.7 39.5 39.6 40.6 44.9 47.6 50 53.2 54 53.2 52.1 53.4 57.3 59.8 59.8 57.2 59.5 62.7 67 65.9 61 60.1 61.8 62.1 60.4 59.4 59.6 60.5 61.5 64.2 69.6 72.5 74.5 77.1 79.7 82.4 84.3 83.2 80.9 78.8 80.9 83.8 84 81.5 74.6 70.2 69.4 68.9 69.8 76.1 80.4 81.7 82 82.1 82.9 84.2 84.5 77.9 77.4 86 91 96.7 101.5 103.7 103.1 102.2 102.2 102.1 100.5 96.7 92.8 94.8 97.8 100.7 101.2 101.4 101.6 102 103.4 104.8 104.3 102 98.4 96.2 94.5 93.7 88.4 82 72.3 81.7 85.5 86.2 90 94.8 98.6 102.1 102 99.6 96.6 94.1 91.6 87.4 91.1 90.8 90.3 88.4 88.1 85.2 88.8 91.9 95 98 99.1 99.4 100.8 103.2 105.4 101.2 81.5 70.7 70.5 70.9 71.5 69.5 74.8 77.9 77.5 77.5 71.6 74.9 76 76 74.5 74.9 82.1 86 90.3 92.8 92.1 89 86.7 89.7 95 99.7 104.2 109.3 108.4 105.4 101.5 100 100.5 101.7 103.2 106.2 108.6 110.3 110.2 109.9 112.8 114.9 115.2 113.4 111.1 108.7 109 111.3 114.5 117.4 119.6 122.4 121.6 120.7 123.6 127.6 132.5 135.3 137.9 140.6 137.8 131.3 132.4 137.1 141.1 140.7 138.3 137.7 138.3 139.6 141.2 143.9 146.4 146.3
26.5 26.7 28.1 33.3 32.8 35.2 38 41.9 43.8 43.3 45.5 48.8 54.1 56.9 57.6 57.6 58.5 59.5 60.4 63.6 66.6 69.3 69.7 70.2 71 71.8 72.2 67.9 67 70.4 74.2 70.9 65.7 60.8 60.5 61.4 64.1 64.9 68.3 69.4 70.8 73.6 76.1 78.1 79.8 79.1 78 77.9 86.3 92.2 91.3 85.2 76.2 69.4 68.2 67.7 68.5 72.5 74.8 76.2 76.4 76.5 77.1 78.9 80.3 75.1 76 85.4 91.3 97 100 99.6 98.3 98.2 98.3 98.8 97.3 94.5 92.9 94.6 96.9 98.5 98.5 98.7 99.4 99.9 101 101.7 101.8 99.7 96.9 96.1 96.7 96.7 93.5 79.6 79.2 88.4 88 89.3 93.6 97.3 100.6 100.1 98.2 95.6 93.6 91.9 91.5 92.5 94 95.6 95.7 94.4 92.5 91.1 89.7 89.5 91.6 93.6 94.3 95.9 97.8 100.5 103 100.8 83.8 76.5 76 74.5 74.5 74.1 74.2 70.7 72.6 70.9 74.6 79.7 86.3 86.8 88.6 90 92.7 98.1 102.3 100.7 97.2 96 93.5 92 90.9 91.1 99.6 104.6 103.5 100.2 98.9 100.3 103.6 106.4 107.6 109.8 111.9 113.4 113.8 113.1 115.5 115.7 115.6 113.6 112.1 112 110.8 111.1 115.2 119.2 122.4 125.6 123.5 121.1 123.5 127.8 132.3 135.9 139.4 142.4 139 132.7 136.6 140.1 140.1 138.3 137.3 137.1 138.3 140.1 142.9 148.1 149.9 148.6
35 31.1 33.1 35 36.3 39.5 45.9 49.9 50.3 51.5 56.5 60 64.1 69 69.9 69.5 69.8 68.8 69.4 71.3 73.2 74.8 75.3 76.1 78 78.3 75.3 71.4 73.2 80.7 82.2 76.9 71 63.6 62.4 64.6 66.5 66.8 66.4 65.8 67.2 69.6 71.8 74.3 75.6 75.4 75.5 78 87.3 93 90.7 83.7 75.6 67.5 66.3 66.6 67.2 68.4 70.6 71.9 72.3 72.2 73.2 74.9 76.6 72.4 73.6 84.2 90.6 94.3 94.1 93.3 92.5 91.7 91.7 92.2 91.6 92 96.5 98.9 97.8 97.3 97.3 98.5 99.3 99.7 100 100 100 98.5 97.5 98.3 97.6 94.6 91.5 87.7 79.3 89 89.3 91.2 95.7 99 99.7 97.7 95.4 93 92.5 92.7 93.1 95.1 98 99.6 100.2 99.4 98 95.8 93.7 90.6 89.9 90.4 91.6 93.1 95.1 98 99.7 100.2 93.7 84.2 81.6 80.3 79.9 78.5 80 79.5 78.9 79.9 84.3 88.4 91.9 94.7 98.4 100.8 102.3 106.6 107.4 105.4 101.8 100.7 101.8 101.5 100.9 95 92.6 99.2 99 98.5 101.5 106.8 109.6 112.5 114.2 114.8 115.7 116.5 117.3 118.2 118.7 117.8 116.4 115 116.7 117.6 114.4 111.9 117.8 121.3 124.7 126.4 124.2 121.5 122.2 126.9 130.8 133.7 137.2 141.4 139.8 135.7 139.5 142 139.8 136.7 137.2 137.5 139.1 141 146.6 150.3 152.9 151.7
29.3 36.4 37.5 38.2 43.6 50.5 59.2 59.9 56.4 58.9 63.4 68.8 73.1 78.2 79.7 78.5 78 76.6 75.5 76.7 78 79.1 80.1 83.6 85.3 82.9 79 76.1 80.4 87.1 88.6 82.8 74.3 66.8 65.5 68.9 70.1 70.4 67.7 65.6 66.5 67.5 68.6 71.5 72.8 73.6 74.5 77.7 85 89.1 87.1 82.6 74.4 66.3 65.2 65.5 66.2 66.9 67.5 68.3 69 69.5 69.9 71.6 74.1 72 74.6 82.9 87 88.3 86.8 85.8 85.8 85.1 85.3 86.3 92.1 96.9 101.4 103.4 102 100.2 100.5 101.6 103.4 104.9 103.9 101.1 99.7 99.4 100.7 98.9 93.2 90 91 88 77.9 86.6 89.7 91.6 94.8 96.9 96.5 95.5 93.9 93.1 93.5 95.1 96.3 99.5 102.8 103.6 104.1 103.8 103.2 101.4 97 92.7 92 92.7 92.8 94.8 96.4 96.9 97.4 96.8 96.1 94.1 94.1 93.3 93.3 89.3 88.2 87.8 87.1 91.7 97.7 100.1 102.1 104.7 107.7 110.2 112.3 113.3 112 110 107.6 104.9 106.4 107.6 108.4 98.9 92.2 95 97.4 100.5 104.4 110.4 113 115.8 118.8 120.1 119.8 120.2 121.2 122.6 123 120.9 118.6 119 121.7 120.8 118.7 112.9 120 123.3 125.8 126.1 123.9 122.1 123.1 125.6 129.1 131.5 135.9 139.6 139 136 138.6 139.6 137 136 138.9 139 140.4 143.6 149.7 152.9 155 154.4
31.9 34.6 37.6 39 50.5 60.2 65.1 62.8 61.8 66.5 70.3 74.7 78.1 81.2 82.5 83.5 82.7 80.3 78.1 79.1 80.4 82.1 85.1 89.7 89.1 85.3 82.6 79.6 84.4 90.2 90.3 84 75.6 69.6 69.1 74.1 75.8 74.4 70.8 67.6 67 68.6 70.1 72.9 72.4 72.9 74 76.3 80.6 83.1 82.1 79.8 76 68.6 64.9 65.4 66 67.8 68.5 69.3 70.1 70.8 70.7 69.9 70.8 70.3 73 78.2 80.2 81.4 82 83.9 84.8 84 83.3 88.1 93.5 98.6 103.8 105.9 104.9 103 104.2 106.4 107.5 107.9 106.4 103.1 99.6 99.5 99.9 96.2 91.1 90.4 95.8 94.5 88.6 84.9 90.3 91.4 94.1 96.6 98.6 98.1 95.8 94.5 95.3 97 100.6 104.9 106.9 107.6 108 107.9 106.7 104.6 101.1 96.8 95.8 96.1 96.6 97.3 99.1 99.1 97.5 95.9 95.3 96.4 99.6 102.6 103.6 106.3 103.6 102.3 95.9 95.8 103.1 105.3 106.3 108.9 111.5 113.6 115.7 117.3 115.7 113.4 109.7 108.8 111.3 112.7 110.4 104.3 94.8 93.6 96.2 100.6 108.1 112.4 115.2 119.1 122.6 123.8 124.2 124.7 125.3 126.9 128.5 125.7 121.4 123.4 124.8 124.1 120.9 114 121.1 124.6 127 127.2 125.3 126.5 128.9 128.3 127.6 130.5 134.7 137.7 137.5 136.4 138.3 138.5 136.2 136.8 139.5 140.2 142.4 146.8 152.1 154.6 156.5 156.3
35.7 38.6 42.6 38.7 55 61.6 63.2 61.1 65.5 71.6 74.1 75 77.1 78.3 80 82.3 82.3 79.2 78.5 79.9 82.7 85.1 87 89.5 86.9 83.8 81.7 80.1 85.8 90.1 88.2 82.4 75.8 73.1 74.7 78.6 80.7 78.7 74.7 71.9 71.7 73.7 76.9 78.3 75.9 75.1 75.4 75.1 76.8 77.3 77.3 77.1 76.5 70.7 65.3 65.5 68.4 72.6 71.8 73 74.5 77.2 78.6 77.4 75.7 72.4 71.8 74 77.8 85.8 88.5 91.2 92.2 91.1 86 86.4 92.5 98.6 102.1 102.1 101.9 101.2 103.6 105 105.5 105.3 103.5 101.3 98.7 98.6 97.5 93.1 90.2 94 97.7 97.2 92.7 85.9 92.7 94.1 98.1 101.9 103.4 103.1 102.2 98.7 97.9 100.6 105.4 109.4 111.2 113 113.5 112.8 110.3 108.1 104.2 101.3 100.7 100.9 103.1 103.9 103.1 101.6 99.8 97.7 96.8 98.9 103 105.4 109.5 110 109.9 104.8 96.6 104.8 107.4 109.2 109.8 111.5 113.6 116.7 118.9 119.2 116.3 113.4 109.9 111.5 114.6 114.3 111.4 108.5 100.6 94.8 98.5 103.3 109.1 113.3 117.2 120.9 122.5 124.1 125.3 127.5 129 131.4 132.5 128.9 124.9 124.5 125.5 123.9 118.8 115.6 121.8 124.8 127.4 130.3 132.7 137 137.7 135.7 130.5 130.2 134.1 138.7 137.6 134 135.8 135.8 135.6 137.2 140.7 141.8 144.7 150.2 155 156.8 157.9 157.6
38.1 40.1 44.1 48.8 44.5 60.2 58.7 59.2 66.6 72.1 71.3 71.5 73 73.8 75.5 78.5 78.7 76.5 76 78.1 82.1 83.6 84.9 85.8 82.5 79.3 77.3 79.1 85.3 88.5 85.6 80.2 77.3 78.2 79.6 82.2 83 80.6 75.9 74.7 77.3 81 84.3 85 81.7 78.3 77.3 74 71.4 70.6 71.6 71.3 69.9 66.9 65.6 67 71 76.3 75.9 77 79.5 83.2 85.5 84.2 80.9 77.5 73.5 78.1 84.5 90 93.1 95.6 97.1 96.1 91.1 85.7 91.5 96.6 97.5 95.9 96.1 97.2 99.1 99.6 100.1 99.2 97.8 96.9 96 95.2 93.3 91.1 94.6 97.2 98.7 98 93.5 89.1 94.8 97.3 102 106.1 108.2 108.1 106.9 104.6 102.2 105.1 108.9 111.9 113.3 114.4 115 113.7 111.7 109.6 107.2 106.6 105.8 106 107 107.2 106.1 105.1 102.8 100.5 100.1 102.1 105 109.1 112.3 111.2 108 100.6 104.8 108.7 110.3 110.5 110.4 112.2 114.3 117.5 117.6 116 114.5 112.4 110.1 112.6 116.3 116.1 113.8 111.2 105.5 96.2 101.8 106.3 110.6 114.2 117.4 119 120 121.6 123.4 126.2 130.1 132.5 131.1 127.6 124.2 124.3 124.1 121.4 117.3 117.4 122 123.6 126.2 132.4 135.9 139.3 141.3 141 136.6 133 134.6 137.7 135.8 134 134.4 134.9 135.9 137.8 141 142.8 147.1 151.7 156.1 158.8 159.5 158.3
38.1 40.7 45.4 50.6 50.4 51.3 52.8 57.2 65.9 69.4 68 68.4 69.5 69.7 71.5 74.6 74 72.6 73.4 76.4 80.1 80.1 80.5 79.8 76.9 74.2 72.8 77.4 83.1 84.9 81.9 78.5 79.3 80.5 81 82.4 81.3 77.4 73 74.6 81.7 86.1 89.7 89.6 84.9 79.6 77.3 71.9 68.5 65.5 64.9 65.6 67 69 71.6 73.5 76.6 78.9 79.9 81.2 85.3 87.8 89.1 87.4 82.3 78.6 73.7 78.7 86.2 94 97.7 99.4 100.2 97.9 91.8 86.2 89.2 92.5 91.6 91.1 91.9 93.8 95.4 95.9 95.1 93.9 92.8 92.3 92 91.7 93.7 97.1 97.7 99 98.6 97.1 91.1 94.7 96.4 98.5 102.8 106.9 110.3 110 109.1 107.3 106.7 108.6 110.9 110.8 110.9 111.6 112.1 111.7 110.7 109.2 108.6 108.9 109.7 110 110.3 109.5 108.8 108.2 107.2 105.1 105.9 107.4 108.7 112 112.7 110 105.1 101.2 106.6 110.2 109.6 109.1 110.4 110.8 112.2 113.2 112.9 111.7 111.1 110.6 109.9 111.8 115.3 115.9 114.6 112.7 108.1 98.4 102.6 107.1 110.6 114.1 115.7 116.3 117.3 119.2 121.2 123.4 126 127.2 126.8 124 122.1 122.2 121.3 119.3 116.4 118.8 122.8 124.3 126.8 132.6 138 140.1 140.7 139.7 136.3 133.4 133.6 133.7 133.3 137.9 139.2 137 136.1 137.8 140.5 142.7 146.3 151.4 155.4 158.6 159.6 157.7
40.3 42.1 46 51.6 52.3 40.3 49.7 56.8 63.9 66 64.8 66.7 67.3 67.8 69.4 70.6 70.1 70.2 71.6 75 76.9 75.4 74.5 73.5 70.7 69.5 70.5 75.4 79.8 80.1 77.2 75.9 77.3 77.8 77.6 78.5 76.8 72.4 69.6 77.8 83.8 86.3 85.6 84.5 82.4 77.6 74.2 68.3 64.3 62.8 63.5 67.4 72.7 76.1 79 79.9 81.5 83.3 83.8 85.9 89.6 91 91.4 89.2 80.6 74.2 80.9 83.7 88.4 91.5 92.5 94.1 95.4 95 90.2 86.2 86.2 87.3 89.3 93.5 95.7 97.8 99.6 99.5 97.8 95.7 94.1 92.5 93.1 96.3 100 100.4 98.6 98.5 96.6 94.3 88 94.8 96.8 98.6 102.1 105.5 108.6 108.2 107.3 106.4 105.9 107.6 109.1 107.7 107.5 108.6 108.9 109.1 108.7 107.7 107.5 108.6 110.6 113 112.9 112.4 111.7 111.4 111 109 109.9 112.8 113.5 112.9 111.4 108.2 103 102.9 105 107.3 108.8 108.4 108 108.3 109 109.3 110.1 111.7 111.1 108.9 109 110.2 111.4 112.5 112.6 112.8 104.6 101.9 106.3 108.3 111.5 113.7 115.5 115.6 115.9 116.5 118.7 120.5 122 122.7 121.9 121.2 120.3 119.9 119.2 117.7 118.3 121.9 124.1 124.6 126 131 136.9 138.2 137.3 136 133.3 130.6 131 132.7 137.2 140.9 143.2 141 137.8 140.9 141.8 142.6 144.8 149.3 153 155.2 156.2 155.3
