ncols 200
nrows 86
xllcorner 190000
yllcorner 761250
cellsize 50
513.7 495.3 483 463.2 442.2 414.9 376.2 347.5 322.5 298.7 292.4 280.4 253.8 264 297.8 314.9 320.1 321.3 321.2 326.2 312.5 304.5 296 295.1 283 274.3 274.6 265.2 258.6 251.8 253.3 248.1 244.5 245.3 251.4 242.2 248.4 256.8 261.6 275.1 290.3 306.4 299.6 288.3 298.9 301.2 286.6 279.7 246.7 221.6 239.5 279.8 309.5 330.9 333 326.8 318.1 301.3 297.4 291.3 288.5 276.9 270.2 269.3 262.9 250.3 237.3 226.2 214.1 212.3 188.3 167.7 152.9 145.8 140.7 133.1 129 111.5 115.4 133.7 132.5 161.1 167.1 188 189 201 220.6 225.4 240.4 264.7 289.8 314.5 362.1 369.9 364 370.9 395.7 398.3 395 397 398.3 402.3 400.5 399.7 392.5 376.7 356.2 350.7 338.5 324 307.3 299.5 291.7 285.5 287.9 292.1 287.8 295 293.4 287.2 279.3 261.4 245.6 232.5 210.4 205.1 204.3 206.9 211 222.5 236.1 248.3 273.5 319.4 349.1 397.1 423.2 452.3 471 501.7 520.6 529.1 546.1 567.5 585.5 598.5 603.2 614.9 624.9 636 638.3 645.8 653.7 662.1 674.4 687.6 695.6 714.4 719.4 716.7 713.8 708.6 707.3 706.3 701 695.7 682.6 669.9 649.6 629.9 616.9 603 583.5 569.6 560.9 549.2 540.1 537.8 539.7 550.6 563.5 573.7 575.3 582.2 592 605.1 616.5 619.6 623 629.2 637.4 633.1 621.6 605.8 584.2 555.2 532.9 507.1 463.7 429.7
534.3 515.7 497.9 472.8 454 419.5 386.9 347.6 326.1 301.6 282.4 268.4 250.1 252.9 281 289.1 286.1 290.3 287.7 283.2 278.8 270.3 264 259.1 256 247.2 245.6 234 229.2 227 228.7 226.1 225.7 223.3 221.9 219.7 225.8 223.3 229.1 234.3 242.6 255 260.2 262 265.1 277.9 269.1 261.2 239.2 207.2 223.9 263.9 287.3 304 307.2 309.1 297.9 291.9 285.9 283.9 284.6 275.5 266.7 270.1 269.6 259.7 241.1 225 212.5 214.5 188.8 171.9 152.9 141 137.5 129 123 119.7 109.3 105.1 122.4 131.7 153.9 182.3 182.9 183.1 192.6 216.7 218.1 232.6 255.9 282 322.5 356.8 358.7 358.1 378.9 387.6 392.9 395.7 396.3 397.9 398.4 400.4 391.4 386.8 359.2 339.8 337.2 320.4 307.2 295.5 293.5 289.2 282.4 282.2 281.1 283.4 290.8 285.5 272.6 257.9 241 231.3 221.1 212.5 204.2 206.6 209.4 220.5 234 241.3 258.4 299.3 335.3 368.5 400.7 429.5 451.7 472.3 497.8 512.2 526.8 541.8 561.1 569.3 581.9 600 613.6 619.1 632.4 636.7 642.6 656.9 662.3 673.8 683.8 688.8 700.3 710.9 706.8 707.1 705.8 697.5 695.1 688.2 672.4 652.2 621.7 598.8 586.7 576.2 565.6 552.8 540.1 533.7 523.9 522.2 527 532.6 542.2 558 564.2 568.4 577.4 588.6 598.4 601 604.7 611.3 620.1 622.2 613.8 596.6 578.3 559.8 518.7 487.7 450.3 420.8
542.6 522.8 503 470.6 447.9 412.8 381.6 344.9 323.1 305 282.8 262.4 239.7 225.4 259.9 258.8 261 259.7 259.4 255.6 248.4 240.4 234.6 231.8 231.9 225.5 217.3 209.1 204.3 204.3 203.2 203 207.1 207.2 201.5 199 196.2 196.1 200.2 204.6 207.6 214.8 217.7 225.8 236.9 248.1 246.5 241.7 239.1 203.8 197.8 237.1 261.9 248.8 268.7 272.2 268.9 271.3 276 271.8 273.6 268.1 264.5 270.5 271.9 262.5 235.5 221.3 209.4 202 197.7 179.8 155.7 142.9 131.7 123.4 122.6 117.1 99.7 108.2 102.7 108.3 137.8 176.9 179 172.4 174.4 195.5 217.1 212.9 225.6 248.8 285.9 313 333.8 337.6 355.2 373.4 389.5 396 400.9 398 399.8 394.3 395.1 384.9 364.2 334.9 321.4 319.5 309.4 296.9 291.3 284.5 283.2 279.2 276.6 277.1 289.4 289.3 271.4 245.3 239.3 231.8 229 223.2 208.2 203.7 205.5 216 232 243.2 248.2 270.2 308.8 349.5 391 410.8 432.6 451.7 470.4 491 511.3 527.5 539.7 551.7 562.9 576.8 591 594.3 615.5 618.7 625.4 636.6 646.4 657.9 670.2 676.3 677.4 692.1 702.5 703.3 700.4 695.4 687.8 651.7 639 614 590.9 575 565.3 553.2 543 538.4 525.3 514.9 509.8 511.2 515.9 521 528.7 542.3 551.1 557.5 561.9 568 572.8 579.7 585.8 594.6 596.5 597.9 596.7 588.2 575.4 553.3 525.6 483.4 433.8 390.1
539.2 516.6 491.2 465 440.8 412.9 373.3 340 317.3 299.5 279.7 261 244.7 215.2 236.8 236.9 232.7 236.8 233.5 228.4 219.4 214.5 208.8 208 209.5 204.8 196.2 187.5 186.1 187.3 184.6 185.8 190.3 188.5 184 182.6 177 171.4 171.7 175.1 179.3 185.2 190.4 199.4 211.9 219.7 228 226.3 219.8 205.4 176.7 206.1 216.6 212.5 229.3 233.4 233.4 246.8 254.6 256 259.5 259.9 263.3 269.5 259.2 250.5 227.7 223.3 209 189.6 196.1 181.7 164.3 143.1 134.9 118.6 116 114.7 110 104.4 98.5 98 121 155.1 171.4 171.2 168.9 175.4 204.9 206.6 200.1 215.5 242.5 264.9 295.2 330.1 343.8 355.5 378.3 391.9 403.7 405.5 398.9 392.8 386.5 382.5 374.2 348 323.5 301.3 298.3 287.1 290.7 284 282.5 281.8 274.9 274.9 271.6 282.6 261.8 238.6 237.4 227.1 220.4 216.6 213.5 203.6 204.3 213.2 232.4 240.8 248.1 260.5 287.2 327.5 361.4 386 406.7 431.7 451.5 475.2 496.9 511.5 525.7 537.8 550.1 561.3 572.1 579 586.4 597.6 604.7 616.3 628 641.3 649.9 663.7 672 684.6 699.2 698.9 697.2 692 683.7 639.4 608.5 582.2 572.2 551.8 538.8 530.6 525.8 517.5 511.9 503.2 500.8 500.7 503.1 510.9 516.8 522.1 534.9 543.9 548.5 550.8 556 559.7 566 574.4 572.8 573.2 569.6 570.3 562.5 541.9 513.3 480.4 428.4 397.3
518.8 500 476.4 455.5 429.4 398.3 358.6 325.6 308.9 291.2 271.1 254.5 237 215.6 226.3 218.6 213.6 213.5 207.8 202.9 198.1 194.5 189.6 186.4 186.8 188 181 173.7 171.9 172.2 167.8 164.4 170.3 172.5 169.9 168 161 155.7 154.2 158.2 160.1 161.9 168.5 175.8 178.6 185.7 200.7 205.7 195 190.8 175.7 183.2 185.1 187.4 190.5 191.3 198.4 225.9 238.4 244.7 251.7 257.6 252.3 253.7 237 230.4 223.4 213.5 215.2 193.7 195.3 183.1 164.3 148.4 131.8 121.4 112.4 108.5 106.3 96.2 103.3 90.8 105.9 130.8 154.4 159.5 156.4 163.9 188.5 195 192.8 192.6 211.7 239.6 261.4 292.9 319.7 335 346.1 371.6 387.9 400.1 400.5 392.6 382.2 372.6 359.3 336.9 332.5 315.6 290.6 277.2 278.8 277.8 276.6 280 276.3 274.3 266.3 259.3 253.7 243 240.4 223.7 212.6 207.5 206 203.9 205.2 210.9 227.4 239.1 245.4 250.5 271.9 301.6 338.2 375.8 394.5 415.1 437.9 462.2 483.4 499 511 525.6 537.2 549.1 555.8 563.2 569.3 577.2 585.9 594.6 605.1 621.8 631.6 654.8 671.3 683.1 698.7 704.3 701.4 696.2 686.9 642.5 600.7 573.2 552.7 534.8 522.2 518.5 511.9 508.7 505.8 499.8 489.8 485.7 489.3 493.4 502.6 506.6 514.3 524.3 533.8 528.3 534 537.3 536.9 545.8 547.1 548 546.2 541.4 543.7 523.5 496.8 460.8 423.7 397.6
497.5 475.1 455 430.9 405.5 384.3 342.5 314 296.6 279.1 259.5 240 229.5 217.2 208.6 211.4 196.5 192.6 188.1 184.4 180.4 179.3 171.4 170.7 172 170.2 166.2 159.7 155.1 156.8 153.1 151.9 153.4 154.4 155.5 154.6 148.1 143.2 142.7 142.3 142.6 145.2 150.3 159.3 163.1 162.2 167 169.3 175.9 169.1 165.3 164.9 162.5 163.6 164.7 166.8 175.6 196.6 213.8 229.9 234.9 243.2 230.4 231.9 228.9 219.3 212.7 201 206 187 159.8 185.6 167.9 138.4 124.6 116.9 110.1 105.4 104.9 91 94 87.7 92.5 110 135.1 148.2 144.8 147.2 154.2 168.5 174.1 177.1 179.9 203.5 226 252.9 267.9 292.8 322.9 330.4 349.9 372 386.2 388.3 378.9 360.8 346.9 331.1 320.6 301.9 298.4 284.2 266.3 267.7 270.9 270.9 274.5 268.5 260.5 247.2 252.4 257.6 245.2 223.1 207 202.3 202.1 206.1 206.6 209 214.7 231.7 239.4 248.8 260.6 279.2 303.7 347.6 365.3 403.7 421.7 444.2 471.8 487.9 497.5 511 523 534.8 543.5 548.7 556.1 559.7 572.5 581.9 591.7 606.3 626.8 652.4 674.5 680.8 690 699.2 700.1 695.3 689 635.1 601.8 572.6 546.8 528.3 516.5 507.2 507.4 504.2 498.5 493.2 486.1 476.6 476.2 479.9 482.7 490.7 495.4 502 513.8 515.5 510.8 512 511.7 519.7 522.1 522.6 523.9 519.7 507.1 498 474 443.4 419.1 390.4
466.3 452.1 435.1 404.9 386 362.5 326.2 296.9 276.6 259.3 242.3 228.2 218.7 210.4 191.2 196.7 186.5 179.6 170.8 169.5 167.6 164.1 157.7 160 162.9 156.7 152.3 146.4 141.9 144.8 141.5 138.2 140.3 139.5 140.6 139.2 135 131.8 127.6 130.7 130.3 129.1 132.5 139.4 143 146.2 147.8 146.6 150.1 148.3 143.6 145.3 143.2 142.4 139.8 146.4 151 159 163.3 181.1 199.7 216 214.2 195.2 206.5 209.5 217.5 205.5 194.6 177.4 147.3 172.8 166.3 136.2 117.7 106 103.4 99.1 99.2 97.5 86.2 84.2 85.9 96.2 114.8 139.9 136.9 130.3 133 143 151.6 156.3 163.4 168.9 190 211.2 242.3 261.9 283.4 308.3 318.9 329.4 350.7 366.5 365.7 361.7 347 328.4 318.3 306.5 291 281.1 275.1 263.2 264.4 267.2 270.6 270.7 262.3 252.6 242.5 236 230.4 220.8 203.9 201.6 203.9 208.8 209.9 211.1 214.4 224.3 237.1 250.3 258 274.5 299.6 332.4 350 376.6 408.6 427.2 453.9 475.3 486.4 494 506.5 518.8 527.1 537.4 544.6 549.9 558.2 573.4 583.8 599.2 619.2 641.9 660.3 671.4 674 682.9 690.2 689.4 684 636.2 590.7 558.8 537.7 517.4 505.7 501.5 499.5 498.2 494.4 487.9 481.6 472.6 461.6 464.2 464.5 469.4 474.7 483.8 494.3 496.6 491.7 491 497.5 504.1 507.3 508.5 506.6 505.6 498 489.6 472.9 450.3 426.6 389.4
433.4 425.6 407.2 381 358.1 337.4 305 279.4 262.7 243.8 229.7 219.5 205.8 199.4 190.6 186.3 178.1 172.4 163.5 159.5 157.9 153.3 150.7 150.5 150.3 144.7 142 137.9 133.6 132.7 132.2 128.9 125.7 131.5 128.9 130 128 121.7 117 116.3 117.2 116 118.5 122.1 121.7 127.8 132.2 133.1 135.4 128.6 120.3 130.5 124.7 123.7 124.2 134.3 134.4 134.2 127.8 136.6 146.9 160.8 167.3 165.9 171.5 190.1 200.2 209.1 197.1 166.8 142.4 139.5 134.8 120.3 106.1 97.8 93.8 90.1 92.4 94.1 80.5 77.9 73 83.6 97.3 110.2 119.4 116.6 116.5 121.1 130.5 133.8 140.5 153.1 160.1 185.3 209.4 237.9 253.9 276.2 291 298.8 300.2 318.3 333.3 342.4 340.4 325.5 317.9 308.6 279.7 276.9 263.2 257.1 262.5 262.2 266 269.3 269.5 266 255.3 240.3 220.1 206.8 201.4 202.5 205.9 210.6 214.5 213.8 214.8 223.6 239.8 250.5 258.4 268.1 285.7 317.4 333.6 358.7 388.1 409.6 439.3 456.8 469.2 477.2 493.6 501.1 512.4 521.8 529.7 536.6 547.9 559.5 573.9 590.5 602.1 617.4 634.3 652.9 659 667.2 672.6 678.1 673.6 646.2 596.2 564.6 533.3 506.8 491.8 488.9 488.9 491 487.9 483.9 476.2 468.2 458.6 446.8 447.4 448.7 448.9 452.1 457.6 461.2 458.3 465.3 465.5 473 480.1 481.1 481.6 481.9 481.7 466.9 460.7 446.9 425.8 408.7
391.5 382.3 373.9 347.3 325.2 304.9 283.2 261.2 247.8 231.8 216.8 207.6 195.8 191.6 183 174.8 171.9 166.2 161 153.7 152.6 145.1 140.9 138.2 139.7 137.3 134.4 131.3 126.5 123.3 124.5 122.2 122.1 119.5 121.1 120.3 118.8 113.2 108.1 104.6 102.9 105.3 104.3 106.3 106.5 111.1 112.5 117.2 122.1 124.9 111.2 114.4 107.3 103.1 105 112.7 119.4 110.5 106.9 107.9 112.6 118 117.2 123.2 138.3 173.8 193.6 194.5 186.1 146.6 121.8 109.2 122 105.8 92.8 85.9 81.3 79.3 82.3 86.4 78.3 72 69.5 77.8 81.2 93.3 101.8 103.6 101.7 104.2 109.8 118 119.9 131.5 140 157.3 188 211.6 235.2 255.2 263.1 269.6 273.8 275.4 287.7 299 313.4 310.6 299.7 294.7 280.6 252 245.2 247.3 257.8 258.9 262 273.5 276.4 269.9 259.7 239.6 226.7 211.4 199.7 202.5 206.1 212.5 211.3 212.8 215 221.3 234.3 249.5 261.6 268.5 276.3 302.3 318.1 338 359.7 385.4 416.7 448 458.5 467.3 478.1 483.9 492.6 501.1 513.4 528.1 539.9 552.4 564.8 576.3 590.3 602.4 614.9 627.1 641.6 650.6 658.3 655.2 660.8 635.9 591.7 554.4 523.9 498 484.6 478.7 475.2 480.3 479.7 473.2 467.1 459.6 452 441 428 428.5 429.6 428.4 429.6 431.6 432.4 437.8 438.7 440.6 440.9 444.9 453.9 453.3 453 445.7 444.4 434.3 422.6 401
355 344.2 329.3 321.7 303.2 278.3 260.8 237.9 223.1 213.1 203.7 195.8 188.4 181 174.1 170.2 165.4 160.6 155.5 151 145 142.2 137 133.7 134.3 131.4 130 127.5 124 120.7 119.7 118.8 120.4 115.5 112.8 111.2 106.7 103.7 97.8 95.3 93.7 94.7 93.4 95 95.1 97.6 99.8 98 100.9 104.5 101.2 98 91.5 83.5 88.5 85.3 87.5 87.5 86.3 89.6 91.9 94.5 97.8 103.8 110.8 121.5 170.5 180 163.8 138.7 107.5 92.9 95.8 96 83.8 71.2 69.3 67.3 68.1 68.5 69.6 53 63.6 62.7 68.5 75.5 82.8 90.4 92.5 89 91.8 97.5 101.7 110 120.9 131.3 155.3 176.5 199.6 225.7 230 241.1 252.5 254.1 254 268.9 258.8 263.9 263.8 257.2 240.7 232.8 227.6 234.8 247.4 257.8 262.6 267.9 271.4 269.8 257.4 237 225.3 212.7 189.1 201.6 203.8 206.6 208.7 212.2 214.7 219.6 227.6 243.2 259.2 266 273.1 285.2 302.8 312.8 330.6 367.5 395.2 429.6 445.9 454.6 464.9 471.6 478.9 488.8 501.3 513.4 527.8 542.3 555.4 569.4 581 589.1 600.1 609.8 621 633.2 642.7 647.8 641.3 632.3 589 554.6 530.2 507.7 485 469 464.8 467.7 466.3 463.4 455.2 449.1 439.4 434.1 425.1 409.4 407.6 409.5 409.4 408.1 410.2 411.9 414.1 418.1 419.5 424.1 424.5 429.8 428.4 422.5 418.6 417.9 410.1 390.7
318.1 305.5 294.8 284 269 246.7 231.5 219.1 204.2 195.8 189.8 184 178.2 171.8 164.1 162.8 157.8 155.1 151 147 143.1 138.7 136.3 133 131.5 130.4 126.7 124.7 121.8 122.3 120.8 120.8 121.2 122 118.5 119.8 119.1 108.4 97.5 90.8 84.8 86 85.3 86.3 87.6 88.5 87.3 89.9 88.2 88.2 88.7 82.9 80.1 72 74.2 71.1 68.1 69.6 70.5 74 75.7 77.7 83.7 98.7 97.8 98 99.3 128.9 156.3 125.2 100.4 87.2 72.6 73.3 72.1 59.4 57.8 56.4 56.2 61.2 57.5 55 64.9 60 56.2 61 68.6 78.1 87.4 80.6 82.3 83 89.5 96.6 102.4 113.3 123.5 147.9 163.6 185.9 205.2 203.3 221.7 230.2 233.2 228.8 223.3 229.1 220.6 224 223.3 221.3 217.1 220.1 232.4 242.1 258.7 274.6 272.1 268.8 262.3 238.6 216.2 202.5 192.7 187.8 202.5 201.2 203.9 212 216.4 216.2 226.5 233.8 249.4 272.1 273.3 274.6 284.1 296.2 311.9 338.8 372 394.8 415.1 431.7 443.2 456.6 461.2 469.4 484.1 501 518 529.1 543.3 557.6 573 578.9 593.1 600.4 608.1 620.5 631 635.3 634 626.1 598.2 557.7 521.7 500.9 475.5 464.1 455.7 455.4 455.3 452.4 442.7 433.8 428.1 420.6 417.2 412.1 401.4 390.7 390.7 390.2 388.9 389.8 389.2 392 396.3 396.8 404.7 409.8 404.6 400.5 397.5 395.3 388.2 371.5
289.8 275.8 264.6 255.3 242.7 223.5 211.1 200.3 189.4 180.9 176 171.6 170.6 162.2 158.9 156.5 155 151.2 147.5 143.4 141.3 137 134.9 130.6 128.1 127.4 124.7 123.2 124.4 125.6 126.5 131.3 137.5 136.9 135.2 140.9 149.2 120.1 105.3 94.1 89 83.6 74.4 72.4 77.1 79.2 77.5 78.8 78.7 77.9 79.2 75.4 70.6 64.7 63.9 61.6 56.3 54.7 55.2 59.8 60.4 63.4 76.7 91.7 89.6 86.3 88.3 81.2 90.4 111.4 90.6 75.5 61.5 64.5 62.7 52.7 50.2 49.7 48.5 50.4 51.6 62.1 67.6 59.6 55.7 48.3 55.9 64.7 75.2 77.6 72.6 73.2 80.3 87.2 93.3 101.3 107 115.3 134.6 155.3 177.7 187 182.7 188.4 206.1 208.7 197 183.6 183.9 191.3 196.1 197.5 197.7 203.3 206 216.3 228.3 244.3 252.3 267.1 266.4 252.1 231.8 215.1 197.9 193 194.2 198.8 201.6 206.7 216.8 216.2 218 232.9 245.6 264.9 271 270.9 274.7 283.9 296.4 316.3 337.6 354.3 369.2 388 413 433.9 442.2 448.2 468.8 485.4 500.4 512.9 531.3 542.8 557.1 566.9 577.6 586.8 595.9 605 617.3 628 630.7 624 594.7 561.9 524.6 501.1 479.5 463.6 453.9 445.9 443.4 442 436 426.2 420.2 410.4 406.2 402.9 396.1 385.7 375.7 375 376.8 371.2 372.5 368.4 368 367.6 370.5 379.9 383.6 380 373.1 365.1 363.7 348.3
263.2 250.8 240.3 229.5 219.3 202.4 193.1 185.8 175.5 165.6 161.7 155.3 155.1 155.5 154.6 153.3 150.6 146.7 143.1 140.2 138.2 135.2 132.6 129.1 127.6 128 127.8 129.3 129.4 135.2 143.8 151.7 159.3 176.5 152.7 146.7 145.4 116.8 101.6 91.2 86.7 82.2 79.2 75.6 69.3 69.3 70.1 71 71.2 71.6 71.8 68.4 63.4 62.1 58.5 53.4 47.8 48.9 47 48.9 50.8 59 71.5 72.2 70.1 68.6 69.2 68.9 63.9 59.1 58.5 61.7 59.1 49.8 55.4 55.3 47.3 46.6 43.7 40 49.2 55.4 59.2 55 53.1 43.8 47.6 52.5 61.3 67.1 66.2 64.3 67.7 73.9 84.4 85.3 96.5 96.7 105.2 118.6 139.1 159.8 170 161.1 171.2 190.6 187.9 167.2 160.3 157.7 160 171 174.4 177.2 185.9 194.2 203.6 225.8 238 253.5 261.8 247.7 245.5 228.1 215.7 200.4 185.8 195 194.7 200.2 209 213.3 209.7 219.6 234.9 251.5 259.9 269.1 265.8 278 282.1 292.9 309.9 329.2 338.8 353.3 377.3 402.8 419.7 428.7 446.7 463.9 488.2 500.9 514.2 529.3 544 551.6 565.3 570.9 580 594.4 601.5 612.7 617.6 615.1 605.1 571.9 538.6 509.2 487.9 471.6 456.5 448.8 443.1 436.7 429.3 423.4 412.9 406.4 398.7 393.1 387.4 380.6 372.3 363 364.7 359.2 357 351.5 348.1 344.9 339.3 340.6 352.2 349.5 340.9 336 320.2 303.6
237.8 226.8 219.6 209.2 195.2 181.7 176 166.3 161.8 158.6 156.7 153.4 150.1 150.7 152.4 151.6 148.2 144.4 141.5 138.8 135.7 133.7 131.3 130 132.4 133 136.8 138 144.1 152.8 164.5 174.1 181.1 172.2 154.1 143.3 130.9 110.1 94.1 84.8 80.9 77.6 75.4 71.8 65.2 64.9 63.4 63.4 63.5 62.6 62.2 58 54.3 59.9 64.2 56.1 48 41.4 37.1 37.1 43.6 46.8 50.8 54.3 55.1 53.4 51.8 53.8 52.3 50.8 44 48.4 44.9 39 40.5 46.9 47.1 41.7 49.5 43.3 43.8 45.5 47.4 49.8 49.3 44.6 39 44.5 51.3 56.4 58.3 57.4 61.3 62.9 72.2 76 77.7 83 89.8 95.5 105.6 122.5 135.6 141.4 139.5 138 159.3 154 141.7 137.9 136.8 140.2 155.7 166.4 174.7 176.9 184.9 198 214.6 227.5 239.4 250 240.5 226.1 216.6 201.8 188 181.1 185.9 190.6 199.3 210.5 212.8 210.9 224.9 234.2 245.6 254 248.3 264.8 274.7 286.5 291.6 299.6 315.8 324.8 353.7 375.2 388.8 406 429.9 455.1 475.2 487.9 500.6 511.5 524.3 537.5 548.5 560.6 565.2 578.7 586.8 603.8 610.9 615.5 610.9 584.2 552.6 529.2 504.3 482.4 463 450.6 444.5 438.5 433 425 414.5 407.6 399.1 391.8 384.6 374.4 367.6 356.4 350.7 345.4 343 344.6 336.2 321.9 308.4 303.6 313.6 312 302 287 276.4 259.8
209.7 203.6 194.8 183.5 175.7 165.6 160.5 160.5 156 155.1 154 151.3 148.7 147.4 145.5 144.2 142.1 140.8 138.6 136.2 134.4 134.9 137.3 137.3 139.6 142.9 150.1 149.5 155.5 167.3 177.9 185.2 187.6 166.1 156 157.3 139.2 112.5 92.1 84.5 79.7 75.9 73.7 72.4 66.7 60.2 58.5 57.6 56.7 57.4 53.5 51.6 49.8 53.7 64.4 53.6 45.2 40.8 37.2 30.3 35.4 42.3 42.3 46.1 46.5 46.3 46.3 49.5 42.8 40 38.8 35.7 36.8 32.1 35.5 36.6 38.3 44.6 52.3 43.7 36.7 38.2 37.5 37.3 44.2 37.2 28.5 37.5 45 48.1 51.7 50.1 53.6 53.8 62.7 67.6 69.2 70.2 77.1 83.4 84.2 95.7 96.9 104.5 113.4 121.4 125.2 121.2 122.4 120.4 122.4 124.6 130.5 148.5 164.6 167 168.4 174 188.6 200.9 222 233 232.2 216.5 207 202.3 196.4 181 172.6 187 191.3 195.7 197.5 199.3 206.5 215.1 227.7 238.5 235.2 242.7 258.8 269.3 278.7 290.7 298.1 308.9 326.4 345.4 361.5 382.7 413.8 436.3 462.9 476.9 489.8 498.3 508.3 518.5 530.6 540.9 550.5 562 572.7 587.9 600.4 612.9 615.3 597.8 574.1 550.2 528.8 502.3 474.6 458 449.1 440.1 436.6 430.6 421.7 411.7 402.1 395.7 389.4 381.7 372.6 364.9 355.7 344.8 328 322.5 319 302.8 286.5 279.2 280.5 279 262.1 253.9 240.3 220.5
182.7 182.9 175.9 169.8 166.4 160.3 158.4 156 154.3 152.8 152.5 149.6 148.8 146.4 145.8 142.4 140.3 138.9 140.1 142.3 144.4 145.3 148 147.1 151 157.3 167.6 168 170.8 182.4 191.1 194.1 181.3 166.1 159.7 152.5 135.5 112.2 95.3 86.6 83.9 79.9 75.7 71.8 67.1 61.7 57.6 56.6 52.5 51.5 48.7 47.8 45.8 46.5 47.8 46.7 42.3 37.9 34.9 37.9 30.8 30.8 36.3 37.3 39 39.2 39.1 43.3 41.8 33.3 33.4 31.8 29.5 29.6 32.9 28.7 28.3 48.7 50.3 42.9 36.8 29.2 30.8 30.6 31.6 29.4 29.5 30.4 39.8 48.7 42.8 44.6 44.6 49.2 51.2 57.1 63.5 61.4 63 69.4 76.5 73 79.4 86.5 88.3 96 101.4 106.8 106.3 104.6 107.9 111.8 116 123.9 141.1 151.8 162.5 162.3 168.2 185.2 203.8 206.9 202.3 200.3 195.3 191.3 182.3 176.6 177 162.7 175.4 177.5 176.8 181.8 184.5 190.3 199.8 213 221.3 225.1 228.2 254.2 265.7 282.6 293 299.9 306.5 320.6 339.1 362 387.5 420.7 442.3 465.1 477.7 485.2 496.9 506.1 517 525.5 533.7 545.7 556.7 568.8 581.4 595.3 601.6 595.8 580.7 567.3 552.9 531 504.9 479.6 461 448.5 439.6 432.4 423.6 417.3 407.7 400.4 392.3 383.9 378 369.3 356.8 347.5 338.6 321.9 294.5 283 260.5 254.4 247.8 241.3 234.1 225.1 211.9 191.6
174.6 173.5 171.7 166.2 161.7 159.4 156.9 155.7 154.9 153.6 154.6 152.6 150.7 148.7 147.4 147.6 147 145.8 148.4 152.8 157.7 159.9 163.4 163.5 169.7 178.4 189.4 183.5 189 200.2 206.5 206.1 190.8 177.7 165.8 151.3 130.3 115.5 104.4 97 95.5 88.2 80.9 76.8 71.7 64.6 60.5 62.6 57.8 56.1 50.4 50.1 48.3 45.4 44.4 40.3 38.9 35.3 35.4 35.4 33.8 32.5 28 33.9 34.6 34.3 34.2 33.6 32.9 32.9 27.4 29.3 29.1 24.5 28.6 25.7 25 32 48.2 38.1 35.4 32 26.1 26.4 22.9 22.2 22.4 21.9 30.1 37 40.4 40.1 39.1 39.7 43.5 46 52.3 57.3 53 53.3 61.3 66.1 69.9 71.3 71.9 75 83.9 87.1 91.3 91.3 89.6 93.9 103 108.2 118.6 137 150.5 147.5 147.2 165.6 182.2 194.6 196.5 188.6 184.9 184.5 180.7 172.4 164.2 167.9 153.5 165.5 165.3 173.7 172.6 172.1 175.1 184.9 196.6 205.7 211.3 221.5 244.8 266.7 288.7 294.7 290 301.6 319.4 334.4 366.5 398.6 423.5 444.8 463.5 470.4 483.4 493.1 501.1 509.1 518 529.3 541.4 553.9 568.8 581 590 594.9 580.9 572 571.6 561.4 539 517.6 492.8 472.3 457.3 444.3 432.3 420.2 411.9 405.6 397.4 389 378.3 368.5 359.8 348.7 331.7 310.7 294.9 279.4 250.2 236.8 227.1 219.6 208.3 191.1 183.4 156.1
170.8 170.2 166.9 160.9 159.2 158.2 156.2 156.4 154.8 154.2 155.6 154.9 153.6 153.5 154.4 159.9 153.5 154.7 162.1 166.9 174 177.9 180.4 183.8 187.8 196.2 202.4 200.5 203.5 207.9 217.9 218.6 205.9 183.9 171.6 160.3 153.7 130.5 117.3 112.9 110.9 101.4 90.5 83.2 75.9 69 64.6 64.5 59.6 54.9 54.1 53 49.8 47.2 46.4 42.2 38.7 39.9 42 37.6 36.6 33.2 30.8 26.1 30 30 28.5 27.5 25 25.4 26.4 26.5 24.3 23.9 23.5 24.2 22.8 24.7 28.9 38.7 30.1 28.6 24.6 23.7 22.8 18.9 18.3 18.6 21.1 30.3 32.7 32.9 36.9 33.4 37.6 39.2 40.2 43.3 52.3 46.1 48.2 55.5 54.5 55.4 59.3 58.3 62.8 68.2 75.7 73.9 78.8 77.5 81.4 92.9 105.6 115.9 131.9 140.6 138.4 139.5 153.9 167.2 174.4 172.8 182.9 172.2 170.5 168.9 161.5 155.3 157.3 148.6 157.2 161 161.8 161.2 162 165.5 178 187.8 188.6 200.1 217.6 239.4 268.4 282.2 283.8 284.8 299.4 322.6 349.1 374.6 393.5 420.3 439.9 452.4 464.9 476.6 486 495.8 502.8 512.8 527.2 541.6 551.1 558.9 570.9 574.4 574.2 572.8 567.6 566.2 553.6 542.9 531.3 510.6 494.2 481.1 465.5 448.9 433.3 419.9 409.7 397.9 383.9 375.7 367.2 346.4 325.4 302.2 283.3 267.5 243.1 217.6 209.2 199.9 191.1 168.6 149.6 129
171.7 169.4 164.9 163.6 162.7 161.5 160.7 158.6 158.5 159.1 156.8 159.9 159.7 159.9 163.2 165.1 164.5 172 176.1 185.8 193.3 198.8 201.7 206.3 214.8 228.6 225.7 223.5 230 227.3 230.1 229.1 226.6 215.4 187.9 176.1 157 138.3 132.8 126.5 124.4 114.9 104.2 90.9 81.6 74.7 71.4 68.4 65.7 60 61.6 58.3 54.1 51.7 49.2 47 44.6 44 45.8 41.1 36.8 35.3 30.7 27.9 23.3 22.8 23.8 23.2 24.3 23.1 23.7 21 19 19.6 18.8 20 19.4 20.9 21.5 20.9 24.1 29 24 18.3 20.5 17.7 16.1 16.3 16.5 20.7 27.4 27.4 30.3 29.8 31.1 33.8 34.4 36.1 41.9 48.9 39.5 44.9 47.4 44.8 44.6 47.1 52.1 49.9 54.6 58.6 63.2 70.6 66.2 77.4 89.5 102.9 117.3 124.2 129.8 123.4 132.6 140.3 147.9 151.3 158.8 165 157.8 149.5 148.3 147.9 147.2 148.1 145 151.5 152.9 149 151.3 142.6 155.2 167.4 171 173 191.7 210.7 235.8 252.9 253.7 269 288 307.4 317 345.4 365.2 400.3 415.8 436.1 443.7 456.6 473.2 481.8 487.5 497.1 511.2 525.5 535.5 543.1 551.3 560.1 576.2 565.4 558.8 557.6 555.2 544.2 539.6 523.2 512.5 499.1 490.3 485.7 473.1 468.1 454.3 425.4 399.6 382.6 362.1 339.6 318.2 297 271.3 243 229.7 214 175 171.9 163.4 145.4 124.9 111.8
173.1 171.5 169.7 165.1 166.3 165.3 164.2 162.2 163.3 163.4 161.6 162.9 165.9 170.3 178.5 178.6 181.5 189.7 193.2 205.3 214.3 221.1 225.6 234.9 243.9 250.1 250.8 250.8 251.9 246.4 248.4 248.9 256.9 258.9 216.9 197.8 175.3 160.4 146.2 145.3 141.9 132 134 102.9 88.4 83.4 77 75 71.3 67.9 67.2 66.9 62.8 56.9 54.2 52.7 53.1 48.9 51.2 46.8 40.6 36.9 33.7 32.6 33.8 31 33.8 27 21.1 23.8 21.6 21.7 18.5 17.5 16.8 17.8 17.3 16.3 16.6 16 17 18.4 21.8 16.7 17.3 15.7 14.2 14.4 14.9 15 18.9 20 21.1 23.2 26.4 26.9 26.6 32.1 31.9 33.8 38 33 39.7 42 41.1 36.1 41.4 40.2 38 39.8 45.5 50.8 55.6 59.7 73.5 86.8 94.2 102.5 110.8 115.7 116.3 125.9 127.4 131.9 133.7 138.3 140.6 138.4 132.7 133.1 136.8 141.6 136.6 142.4 140.7 140.5 132.1 134.9 137.2 146.2 152.6 155.1 167.6 185.7 207.6 224 236.2 246.8 277 291.5 302.2 317.2 340.4 382.2 406.3 419.9 429 436.9 452.8 460.9 468.2 476.6 494.3 510.8 520.8 527.2 541.1 551.2 554.9 555 552.1 545.9 543.1 544.1 533.6 522.7 514 501.8 494.4 491.4 484.2 482.4 478 458.4 430.3 399.5 376.4 348.9 316.9 280.7 245.3 224.4 201.9 177.9 165.2 148.4 131.6 122.2 109.4 102
173 170.5 168.3 173.4 174.3 172.8 177 175.7 168.9 168.3 166.2 169.3 175.7 181.6 189.3 192.4 203.3 213.2 225.4 235.8 239.4 243.2 257.9 270.5 276.9 293.4 294.6 281.9 278 271.9 275.5 274 283.6 286.9 239 223.7 194.2 176.6 168 161.5 157.9 152.8 133.7 117.7 100.7 89.6 82.6 80.6 77.1 76.7 78.9 80.1 71.8 65.9 63.8 61.3 60.4 58.2 59.9 52.7 49.1 43.8 41.4 40 37 35.7 32.3 29.5 24.1 19.8 22.3 22 20.4 18.6 17.5 17 16.4 15.9 15.4 14.3 14.5 15.1 16.2 16 16.6 14.8 12.9 12.8 13.2 13.7 13.7 14.9 17.5 15.8 17.4 20.6 21.1 23.7 27.1 26.5 25.8 26.9 35.7 35.5 37.2 34.3 25.6 31.2 29.8 28.1 29.1 37.3 39.5 54 62.9 74.7 81.1 86.7 93.6 106.5 104 114.8 118.2 120.2 118.1 122.1 123 125.6 120.7 117.9 122.8 134.4 134.7 132 132.5 136.6 134.5 123.3 126.9 131.8 136.5 138.2 148.7 160.7 176.4 198 211.7 220.6 260.4 278.2 290.9 301.7 325.4 346.5 372.5 390.5 398.9 411.1 422.4 433.1 448.8 456 471.1 490.7 504.3 513.3 523.8 532.6 539.8 538.1 540.7 541 532.9 537.9 531.1 514 505.6 502.9 497.1 489.8 480 467 460.4 447.5 424.1 383.6 367 337.1 312.8 254 225.7 193.2 183.4 156.2 138.9 125.8 102.8 99.8 96.3 95.8
174.2 172.1 172.8 176.5 180.2 182.5 184.3 181 177.9 177.1 179.3 185.5 194.8 198.7 207 214.2 227.6 238 257.8 263.8 267.7 270.3 280.3 306.1 312.3 326 337.4 314 304.2 303.4 308.3 299.7 308.5 302.5 264.4 243.9 223 200.6 190.9 183.6 176.7 162.1 142.6 122.2 105.7 101.3 95.5 88 82.5 84.8 86.5 85.5 83.9 80.5 76.2 71.2 70.8 71.3 68.1 64.4 60.9 54.6 52.2 50.1 44 39.3 34.5 29.5 27.2 22.9 19 21.2 19.8 18.7 17.6 17 16.3 15.9 15.2 14.5 13.7 13 14 12.5 17.4 13.8 12.1 11.9 12.2 12.8 13.3 12.8 13.2 17.2 14.6 14.2 18 17.4 18.4 19 21.3 22 24.1 31 31.9 29.5 25.9 18.2 25.8 24.9 24.4 26.9 30.4 43.2 53.9 62.5 74.8 78.4 79.1 84.3 93.9 87.1 104.3 108.7 107 106.5 108.3 108.8 107.3 111.1 111.7 122.3 124 124.5 127 126.2 127.7 119.3 112.2 123.2 121.2 125.6 133.2 144.1 153.7 170.6 187.3 200 232.4 260.5 279.8 289.4 301.9 319.5 336.1 349 359.4 375.7 394.5 409.6 421 433.2 443.9 460.5 487.2 495.6 502 506.9 515.5 518.9 522.5 525.9 519.8 513.5 523.8 510.5 495.3 490.9 481.7 469.6 457 445 435.9 421.4 392.4 359.5 312.4 311.6 283.5 243.5 202.8 174.5 151.4 135.7 116.2 96.8 76.4 88.7 87.6 95.6
183.7 175.4 176.7 180.4 187.4 191.8 194.5 196.1 193.6 193.4 196.4 203.7 214.9 221.7 227.4 233.3 248.1 262 274.3 287.5 301.3 314.3 314.4 339.2 348.3 364.9 374.7 347.6 337 332.4 331.8 328.1 334.2 325 300.3 279.1 262.2 237.1 216.4 204 189.9 186.8 146.9 131.5 117.2 107.6 104.4 100.5 92.7 97.1 97.1 91 91.4 90.7 89.6 84.5 83.3 84.2 79.5 73.8 73 65.9 63.1 57.3 51.7 44.2 37.3 32.3 29.5 26 23.3 20.1 19.6 17.5 17.6 14.9 15.5 15.8 15 14.3 13.1 12.4 13 11.6 13.1 13.6 11.9 11.1 11.1 11.8 13.2 11.2 10.4 10.2 17 12.4 11.8 14.7 13.7 13.4 13.9 16.3 14.7 22.4 24.7 24.9 20.4 17.4 11.7 22.3 20.4 17.4 25.5 31.9 48 57.2 61 70.4 69.7 69.8 74 76 83.2 92.4 96 95 96 94.4 93.9 93.2 98.7 110.1 112.8 113.4 121.2 121.5 117.7 107.5 100.5 111.2 109.8 105 116.4 127.8 140 142.7 170 188.8 218 233.5 252.6 267 279.4 300.5 312.8 321.5 332 360.6 371.3 381.9 394.7 403.4 412.4 430.4 454 469.6 479.4 481 488.7 495 501.9 503.2 502.8 494.5 500.7 498.5 476.9 469.3 462.5 449.4 443.2 429.2 410.2 386.1 359.6 324 294.3 256.6 251.9 199.9 173.1 151.9 135 115.9 88.3 80.2 66.4 76 84.3 98.4
203.6 188.1 181.8 185.3 192 201.7 204.4 206.3 204.7 205.5 210.5 220.8 234.9 242.7 249.9 261 275.4 290.4 306.7 324.1 339.2 353 371.6 356.1 383.9 396.2 414.8 387.6 364.8 362.6 372.8 361.2 375.3 393.2 355.3 329.8 297.6 263.2 234.7 225.6 209.5 191.2 163.1 143 131.9 120.7 124.4 110.9 104.7 110.7 106.5 102.4 102.1 103.2 99.8 98.7 99.1 98.3 93.2 91.1 86.8 83.7 76.7 69.9 60.2 52.5 44.7 38.8 36.6 32.6 27.4 23.6 19.5 18.5 18.1 16.6 16 14.8 14.8 13.1 12.9 13.3 13.1 12.1 10.8 11.8 11.8 10.6 10.6 10.5 10.3 9.8 9.6 9.2 8.7 13.7 8.5 9.6 9.3 10.5 9.7 9.8 11.4 11.5 14.8 17.8 16 14 10.4 8 10.6 13.6 13.9 23.9 36.7 50.1 55.5 57 65.5 57.2 64.2 66.6 63.7 73.7 82.6 88.3 85.5 85.6 83.6 79.9 86.4 100.3 103.8 105.1 107.3 116.6 108.3 104.2 94.9 95.7 96.2 97.2 101.5 108 123.9 130.3 150.9 169.1 194.6 212.9 230 247 256.6 269.3 291.9 298.1 307.6 331.2 343.6 355.3 367.9 372.6 385 401.6 424.1 440.5 451.4 456.7 461.5 470.9 485.9 484.5 485.8 478.9 467.6 462.1 458.8 457.1 444.2 429.8 407.4 396.4 374.8 352.7 320.6 303.5 276.8 254 216.6 181.2 150.9 115.5 104.2 88.7 75.3 68 63.7 67.2 86.2 91.2
213.6 201.6 194.8 194.6 199.4 208.4 214.8 217.7 217.7 219.3 230.4 243.9 256.2 264.1 274.7 291.1 304.4 326.5 344.6 367.6 379.4 396.8 420.1 393.4 395.3 427.3 444.6 434.9 397.2 390.2 394.3 393.3 419 444.7 402.4 372.2 328.6 283 265.6 247.7 224.8 204.7 177.8 159.5 145.3 135.9 129.9 122.4 117.6 124.5 123.3 114.4 115.5 113.8 110.1 111.4 110.4 118.8 114.5 112.5 106.1 99.4 94 84.3 76.1 64.5 55.6 48.1 45.4 38.9 36.2 31.3 25.4 19.5 19.1 18.3 18.8 17.7 17.2 14.9 13.5 14.1 13.3 12.6 11.8 10.8 10.6 10.4 10.7 9.8 9.3 8.9 8.8 8.2 7.9 7.5 7.5 7.4 7.8 7.4 6.7 6.5 6.5 8.6 10.1 10.3 11.4 10.1 8.1 5.5 5.8 12 11.7 11.5 24.2 37.7 50.1 48.6 47.9 51.9 54.3 60 57.5 58.6 72.7 74.3 73.2 78.1 76.8 72.8 79.5 90 92.6 88.9 92.1 101 95.7 98.2 91.2 81.8 85.5 86.5 89.9 95.3 105.5 115.7 129.9 146.2 167.6 197 216.6 233.7 240.3 248.1 259.7 268.3 281.6 294 314.6 329.6 343.2 353 361.7 371.6 384.9 402.8 419.4 431.4 438.7 452.6 459.3 460 457.7 458.9 451.9 442.7 432.3 421.8 411 396.4 377.5 360.2 340.1 324.7 298.4 273.9 255.9 221.4 201.2 163.9 128.3 101 83.8 72.8 62 58.3 48.3 76.3 87.3 90.1
221.2 219.4 213.7 209.5 210.6 216.6 225.3 230.5 234.5 235.3 245.4 259.6 273.6 287.3 299 316.8 339.4 354.4 378.4 394.5 424.7 446.5 462.4 450.7 432.6 444.4 465.2 462.9 431.2 426.9 424.5 427.2 465 489.1 442.5 401.3 363.5 307.3 295 273.6 260.8 226.2 193.8 179.3 162.9 150.8 142.1 136.5 131.9 137.7 136 132.6 135.7 134.6 125.3 126.9 127.7 135.2 135.7 137.5 126.1 118.5 108.5 102.7 90.1 78.9 69.5 62.7 55.9 50.7 45.8 39.9 31.6 23.9 19.4 20.2 20.4 20.9 19.8 18.1 14.6 13.8 12.9 12.5 11.7 10.9 10.7 10.5 11.5 10.8 10.1 9.8 9.2 9 8.6 8 7.8 7.3 6.7 6.8 6.2 6 5.6 5.4 10.5 7.5 8.2 6.2 6.6 5.3 5.2 5.1 7 8.2 19 27.1 37 39.8 39.2 40.9 44.8 51.5 51.3 52.7 57.7 64.9 71.2 73.7 72 68.1 74.6 79.6 83.5 81.9 81.1 87.8 81.5 94.6 86.5 77.3 71.6 75.5 82.2 87.1 92.9 103.6 115.7 128.8 145.6 179.1 201.4 213.2 226.1 236 238 248.3 262 281.8 298.8 308.3 315.4 327.7 336.7 343.4 353.9 368.7 378.9 389.4 394.8 405.4 421.6 425.5 430.1 429.2 421.3 414.5 408.9 388.6 380.3 378.5 359.4 325.6 308.3 294.3 274.6 242.6 219.6 191.4 166.8 137.9 104 82.9 69.6 58.8 51.7 40.9 65 84.1 94 96.1
238.4 236.1 236.3 231.4 232.5 236 235.8 245.7 252.1 259.7 267.1 281.8 297.5 312.6 329.3 342.9 371.9 385.9 405.3 432.6 464.7 499.2 507.7 514.1 483.3 464.1 487 477.2 456.1 459.5 456.8 462.5 488.5 510.7 462.7 415 359.6 342.2 323.4 305.6 283 256.7 223.6 198.9 182.8 169.1 156.5 149 141.4 144.4 151.7 151.9 151 144.8 140.6 139.5 143.8 153 155.8 158.9 148.9 141 132 122.7 112 102.2 85.3 78 73 64.2 63.6 52.8 43.2 34.4 27.6 24.2 23.8 24.2 23 18.9 16.2 13.9 13 13 11.7 10.9 11.2 11.3 9.2 11.3 10.9 10.4 10 9.6 9.1 8.4 8.1 7.7 7.1 7.2 7.2 6.7 6.4 6.3 6.3 5.6 5.7 5.9 6.1 5.5 4.8 4.4 5.7 9.2 9.9 19.6 24.9 26 28.6 32 35.1 44.8 46.7 43.5 51.8 59.4 70.8 72.9 68.2 58.7 61.9 70.2 77.4 74.6 68.6 67.1 77.5 89.3 78.3 74.2 65.4 69.3 74.2 80.1 80.7 87 101.7 110.3 126.2 153.8 180.2 192.7 207.5 222 224.4 226.5 236 258.3 286 300.8 309.9 312.5 322.1 332.5 339.8 347.6 364.7 368 376.1 386.6 391.8 405.4 409.3 407.9 398.2 385.1 374.4 358 350 353.4 326.4 272.7 269.6 263.3 240.7 212 193.6 171.3 143.3 105.3 83.1 66.2 55.2 39.8 37.5 50.5 70.3 94.5 104.5 103.4
270.6 271.3 270.9 274.2 266.6 258.9 257.3 257.4 268.4 296.9 295 305.6 328.5 345.7 360.3 379.9 399 421.8 439.4 484.2 511.9 542.7 547 546.5 528.5 502.7 495.7 500.1 491.3 497.2 497.2 510.8 522.5 524.2 467.4 422 378.6 371.3 354.9 347.6 308.1 284.8 251.8 220.5 203.7 184.9 173.5 163.2 151.2 162.6 168.2 166.3 166 161.8 156.5 159.8 161.3 161.9 167.3 170.9 168.4 165.6 164.3 153.8 134.6 122.2 102.9 96.8 92.8 78.7 72.9 65.4 58 50.1 38 31.4 27.7 27.4 27.7 23.4 18.9 15.6 13.8 12.7 11.5 10.9 11.1 10.6 9.9 8.8 10.8 10.4 9.8 9.7 9.2 8.7 8.3 7.9 7.6 7.5 7.5 7.5 7 6.6 6.1 6 6.1 5.8 5.5 5.3 4.1 4 5.5 15.8 8.1 11.7 20.4 18.5 20.4 24.2 27.7 28.1 42 38.2 39.1 50.5 67.8 73.8 64.3 53.6 50.2 57.3 62.6 62.4 49.6 57.4 66 70 67.5 66.3 62.2 58.8 62 69 72.3 74.6 83.4 96.5 107.1 126.4 154.4 177.7 193.7 199.8 210.1 212.2 220.5 234.1 251.9 269.2 286.8 300 306.1 317.8 326.3 339.4 342.2 346.8 354.7 371.4 379.9 380.6 386 373.9 360.3 337.9 309.8 318.7 309 307.3 300.3 277.4 232.7 235.4 214.8 188.5 167 146.7 106.8 79.2 62.9 48.3 40.4 29.3 41 55.9 78 91.1 96.4 91.7
310.3 302.9 315.4 324.3 306.3 305 294.8 282.3 284 305 322.2 336.7 352.3 370.6 394.4 412.7 436 457 490.9 510.5 536.3 565.4 562.9 561.3 560 537.5 515.7 516.1 520.4 524.8 533.7 562.3 573.5 560.5 493.8 453 413.4 407.9 378.5 357.4 344.2 334.3 275 246.5 222.6 205.7 190.5 179.5 167.9 183.1 182.8 184.2 180.6 179.9 180.9 183.5 178.6 173.7 186 186.3 181.4 183.4 189.3 186.5 165.9 149.1 125.5 120.4 106.7 101.3 94.7 85.2 78 70.1 54.3 43.8 35.4 33.9 34.4 27.8 23.6 18.8 14.7 12.9 12 10.7 10.3 10.1 10 10.1 8.8 9.9 9.3 9.3 9.2 8.4 7.9 7.5 7.5 7.3 7.3 7.4 7.3 7 6.7 6.5 6.3 5.8 5.5 5.3 4.7 4.6 3.9 4.7 5.3 5.2 13.9 12.7 12.3 18.5 16.9 21.4 27.3 32.2 31.3 37.8 47.7 53.3 53.7 46.4 43.8 47.4 45.8 47.3 39.5 49.4 57.3 57.9 53.9 53.5 53.9 46 48.2 58.5 64.4 62.2 72.1 81.7 93.5 108.6 125.5 151.6 171.3 181.8 189.9 194.6 204.2 214.2 227.8 245.9 266.1 281.9 292.9 302.3 310.5 322.7 326.6 331.5 335.4 347 356.8 357.5 360.3 356.6 325.9 314.9 287.3 278.3 269.7 256.5 252.3 240.5 219.5 196.7 171.9 162.8 148.3 115.9 84.8 59.3 42.5 34.1 32.9 31.1 46.7 63.3 72.1 68.4 61.4 69.6
345.1 341.5 349 341 339.2 326.7 312.1 301.8 307.9 313.3 336.1 359.8 376.8 402 428.7 449 469.4 502.5 530.3 554.9 567.8 579.7 576.8 574.9 572.5 559.2 533.3 524.8 536.4 547.6 570.7 592.9 598.6 587.9 526.9 491 450.5 438.4 410.7 384.8 368.1 349.1 302 262.1 241.1 226.5 212.5 199.9 190.8 197.2 200 204.2 201.4 202.8 202.4 200.4 196.1 191.7 202 201.4 197.3 198 200 198.5 186.7 165.2 145 135.4 120 124.3 115.1 109.1 97.2 85.4 68.6 58.3 49.2 44 45.3 38.4 34.8 30.1 20.7 18.3 12.7 12 11.1 10.8 10.4 11.3 10.8 9.7 8.8 9.1 9 7.8 7.4 7.3 7.4 7.1 7.1 7.1 7.3 7 6.2 5.8 6.1 5.7 5.4 5.2 5.1 4.9 4.5 4.1 3.6 3.5 3.8 9.8 7.4 6.4 10.7 13.8 11.6 22.5 24.8 26.3 29 34.2 37.7 43 38 36.1 35.6 37.9 33.4 40.6 49.8 49.7 47.3 45.8 48.2 38.4 42.2 48.7 52.2 50.7 61.6 74.5 80.9 89 110.2 128.8 145.8 161.2 171 176.8 187.9 199.2 208.6 221.3 242.6 265.5 273.1 285.8 293.3 302.8 302.6 314.6 331.1 335.4 334.7 333.8 331.4 332.2 320.4 288.4 273.2 253.3 244.5 229.1 213.3 193.6 182.7 164.8 148.3 128.1 105.1 92.8 69.2 46.3 33.4 31.1 28.9 26.1 45.9 57.3 57.2 52 44.3 35.5
377.7 373.2 369.7 366.8 360.2 350.5 335 321.2 326 333.4 341.4 372.4 398.3 433.6 462.1 489.3 514.1 540.1 569.2 583.5 591.4 597.8 588.4 583.6 583.9 566.5 550.5 552.7 546.9 570.2 591.7 602.2 615.5 608.9 571.8 523.3 496.4 473.4 442.5 419.8 385.9 353.3 322.1 281 253.9 237.5 220.6 209.2 212.9 219.4 223 223.4 223.5 229.6 225.2 225.3 222.4 212 210 215.2 217.7 220.7 225 217.9 195.3 180.2 163 154.7 157.3 153.7 136.1 145.2 115 96.7 88.2 73.9 63.9 56.6 53.8 53.6 48.2 39.5 33.3 28 19.4 15.6 13.8 12.1 11.8 12.4 12.6 11.2 9.3 9.4 8.7 7.9 7.2 7.3 7.3 6.9 6.9 6.8 8.2 6.8 6.4 6.2 5.9 5.5 5.3 5.1 4.9 5.1 4.7 4.3 4 4.5 4.4 3.8 4.1 3.1 3.3 6.8 6.3 7.5 10 13.3 24 25 26.4 39.5 34.1 29.9 26.5 28.1 28.8 35.8 37.5 39.5 36.4 33.1 45.5 38.1 37.1 42.7 43.6 42 50.4 66 72.3 82.2 91.3 109 123.8 141.5 157 165.4 171.3 183.3 192.7 204.2 225.2 240.8 256.8 271.2 279.7 285.8 287 294.8 304.2 311.1 312.1 306 298.2 296.4 289.9 275.8 250.7 241.6 227.1 221.2 200.5 172 147.2 139.3 121.8 106.5 86.7 79.5 54.9 31.1 29.8 28.6 26.6 29.9 46 49.5 42.3 35.5 27 21.8
416.6 405.9 398.3 394.7 391.1 381.8 351.8 341.4 347 361.6 368.8 372.4 408.7 444.2 493.9 526.2 552.9 576.4 598.2 601.8 610.3 612.2 606.7 599.8 592 573.2 564.2 571.8 567.5 586.5 607.7 617.2 633.2 617 578.7 535.5 511.3 485.6 451.2 434.5 399.4 358.1 331.4 284.6 256.5 238.2 233.9 242.2 246.7 242.4 249.7 248.9 254.4 268.6 260.7 250.6 238.8 230.5 225 238.6 252.1 247.4 245.3 231.9 212.8 200.8 192.4 185.2 184.9 168.9 175.8 169.6 136.1 115.1 103.5 90.5 77.9 70.1 63.4 65.3 60.7 54.1 48.9 39.1 30.7 24.3 21.4 19.7 16.1 16.3 15.5 13.6 10.6 10 9.7 9.2 8.6 8.3 7.2 6.9 6.5 6.4 7.8 7.2 6.7 6.5 5.8 5.6 5.5 5 4.9 4.9 4.9 4.6 4 4.8 4.7 4.5 3.7 3.5 3.3 5 5.7 5.7 4.6 5.2 11.9 17.2 19 20.3 28.1 27.1 22.5 20.6 24.8 28.9 32 28.6 26.4 25.6 30.5 31.8 28.1 32.9 35.3 35 43.5 54.4 67.9 75.1 81 88.8 106.9 122.6 140.3 149.9 154.8 167.8 180.1 193.4 208.9 219.3 236.4 252.1 263.4 268.6 280.1 269.1 276.5 277.2 280.9 285.6 271.6 263.4 250.5 238.9 229.1 193.5 182.1 181.6 164.5 142.3 127.2 112.4 105.3 92.7 74.4 55.3 35 28.5 26.7 25.8 25.1 28.8 33.7 32 25.4 21.7 21.8 22.5
470.4 444.5 431.7 422.9 404.5 382.7 367.9 357.9 361.7 376.6 384.9 402.2 417.7 448.3 492.2 531.3 560.6 584.5 605.6 612.3 614.2 616.4 613 606.8 600.1 584.3 579.6 587.1 599.5 606 625.7 635.5 628.2 600.2 566.2 532.2 502.7 479.4 450.5 418.8 387 351.4 322.9 288.4 257.4 236.2 259.7 276 286.6 282.1 280.9 270.7 284.4 307.9 301.8 278.9 266 256.5 243.2 269.8 273.7 278 268.9 258.1 248.4 236.2 231.6 213.2 205 188 185.3 173.1 158.9 135.1 119.8 106 93.7 86 77.2 74.2 74.3 68.4 61.5 54.2 45.5 36.1 33 33.3 30.7 23.4 24.6 24.5 25.2 23.6 21.8 13.6 10.6 10.2 8.5 9 8.6 6.9 6.5 5.7 6.2 6.7 5.6 6.5 6.1 5.8 5.3 4.7 5 4.7 4.3 4.8 4.6 4.4 4.6 4.4 3.6 3 4.7 5 4.4 4.9 5.6 7.1 11.5 12 17.3 24 21.2 15.6 17.1 21.6 29.3 34.2 26.4 14.7 17.6 19.9 19.6 26.2 29 30.4 39.2 45.8 55 66.5 71.9 79.3 93.2 108 120.4 133.8 141.7 152.5 169.7 179.7 192.4 207 222.6 231.4 239.7 251.6 257.2 260.6 247.5 245.6 245 245.5 237.1 229.3 220.2 212.3 205 177.1 153.7 138 128.3 121.5 107.6 99.1 85.2 73.8 52.7 29.9 29.3 25.6 25 25.1 22.7 24.1 25.8 21.2 20.4 20.5 21.7 23
482.1 469.2 456.4 448.9 438.7 417.2 395.3 382.9 380.4 397.1 409.8 428.4 433.5 457.1 491.2 532.3 572.1 591.7 604.2 610.4 612.1 617.4 618.4 614.9 611.1 597.6 596.6 605.3 625.2 631.4 633.7 642.9 624 587 551.8 513.9 492.9 466.6 440.1 417.1 386.7 348.3 316.8 293.3 267.3 253.2 283.4 304.9 320.5 314.9 309.9 302.1 322 340.3 337.4 313.1 297 287.6 275.1 280 296.3 297.5 291.7 291.1 289.5 273.4 257.3 241.6 228.7 216.8 202.7 199.2 182.2 156 143.8 126.4 112.6 104.5 96.2 87.7 93.1 85.5 77.9 69.3 60.8 53.3 50.6 50.3 50.6 38.4 46.2 47.8 44.2 39.2 38.4 32.4 25 25.2 20 12.9 10.7 11.8 9.5 8.7 7.5 6.3 5 5.7 5.6 4.8 5.6 5 4.7 4.3 3.9 4.6 5.1 4.4 4.6 4.7 4.2 4 3.4 4.7 4 4.7 5.3 5.7 6.1 9.3 11.2 21.3 19.9 14 14.9 17.8 23.3 28.1 33.9 15.1 11.8 14.2 17.3 19.7 23.1 27.1 38.1 41.3 47.1 52.8 63.9 74.4 81.5 92.3 105.2 112.3 126 139.7 154.3 165.8 179.8 196.3 206.6 212.5 215.3 218.8 227.1 236.5 223.8 219.6 217.6 210.4 199.8 195.1 186.9 176.3 171.6 152.1 141.2 126.7 112.3 105.2 94.2 79.3 62.3 49.2 34.2 25 26.3 23.3 23.4 23.6 22.3 21.3 19.2 19.1 19.7 19.6 21.2 22.3
513.2 513.4 503 500.8 481.8 458.7 417.9 396.7 403.1 416.3 437.4 454.9 467.8 464 500.3 536.1 590.7 606.6 614.8 620.8 621.7 628.3 630.3 627 627.6 617.2 612.8 630.7 637.3 642.6 644.2 645.4 606.2 572.8 531 498.5 477.5 465.5 457.6 420.8 386.7 361.1 338.6 307.9 282.7 269.8 300.5 320.3 328.6 336.1 330 327.9 343.3 362.3 371.2 344.2 333.4 317.9 299.7 280.9 315.2 312.8 320.3 323.2 309.7 303 284.7 268.7 250.5 238.3 221.7 223.4 202.6 177.5 165.6 147.8 136.1 125.5 119.7 107.9 106.2 109.3 99 87.4 80.3 76.1 72.2 66.4 64.5 58.3 70.6 71.1 68.1 64.2 61.6 58.4 48.1 45.7 39.4 29.6 24.4 24.6 17.8 21.4 18 12.1 8.5 7 6.4 6.4 5.4 5.4 4.4 4.3 5.2 4.7 4.1 4.5 4.6 4.8 4.7 4.2 4.2 3.1 3.4 3.7 4.8 5 5.3 7.7 10.7 12.9 18.5 14.6 11.7 12.9 15.2 20.2 26.7 14.1 10.3 11.7 19.2 15 15.8 23.6 37.7 40.2 42.7 50.1 57.7 70.8 80.5 88.8 97.1 105.6 115.4 130.1 146.2 159.6 167.1 180.2 185.6 189 192.3 198.8 202.6 211.2 205.3 182.7 192.6 193 177.3 173.7 164.3 157.2 148.7 134.8 123.3 112.5 97.1 95.7 80.4 69 53 36.6 27 22.4 22.9 21.4 21.5 20.8 20.7 18.5 17.1 16.6 18 18.5 20.5 21.4
541.5 536.7 535 525.5 495.8 457.3 429 417.5 426.2 444 464.9 487.6 500.5 503.1 508.1 550.3 600.3 624.6 632 633.5 637.2 643.1 645.4 643.3 643.1 640.3 645.1 654.7 657.5 659.8 659.2 648.3 600.8 558.5 523.3 501.6 491 485.5 458.6 429.4 403.2 372.3 353.3 321.7 295.3 290.3 311.5 331.2 343.7 355 357 354.2 359.1 379.8 386.4 382.5 364.4 347.1 318.8 295.5 324.9 335.6 342.3 351 338.4 320.7 309.8 295.4 281.2 268.5 245.9 241.9 229.5 212.4 187 167.2 155.2 153.6 146.2 142.1 123.2 124.6 121.4 106.8 94.7 92.9 85.8 81.4 74.3 78.8 89.8 93.9 93.8 88.6 88.3 87.9 72 66 64.2 48.4 43.2 40.1 33.3 31.7 32 27 19.3 12.4 11.6 9.9 10 6.7 5.2 6 7.1 5.8 3.9 3.4 3.7 3.3 3.7 4.4 4.4 3.9 2.5 3 4.3 4.7 5.1 5.2 8.9 10 12.7 12.4 7.7 12.7 11.3 14.5 18.2 17.4 9.9 10.3 11.2 13.3 15.1 19.5 34.7 36.9 39.4 47.6 56.7 64.4 72.1 83.8 94.8 101.8 114 126.3 136.9 151 159.6 164.6 172.2 171.3 167.7 174.2 175.5 183.8 177.8 166.3 168.4 173.9 170.5 153.1 147.3 140.4 131.8 118.4 109.3 102.7 93.8 71.6 63.2 50.4 38.1 24.8 23.9 19.9 20.1 20.2 20.3 21.2 20.9 19.6 16.6 16.3 14.7 16.6 19.7 21.2
567 548.9 541.3 529.4 493.2 462.5 449.2 440.2 456.5 474.1 506.2 519 533.7 537.9 544.3 561.2 603 637.2 645.3 651 656.7 661.5 675.6 678.5 674.7 674.7 669.7 669.3 674.9 671.5 669.8 643.6 600.7 569.1 538 531.9 512.4 500.7 470.1 449.1 410.7 386.8 364 338.7 306.8 311.2 327.9 344.9 358.8 379 387.4 384.8 378.2 395.1 402.9 391.5 380.8 364.9 341.9 316.3 336.5 350.1 364.8 366.4 361.8 346.1 334.4 330.4 323.6 302.8 277.3 264.9 246.9 233 209.6 185.8 178.2 196.6 187.9 173.4 148.5 129.5 132.6 121.9 109.8 105.5 99.5 94 86.6 99.3 105.4 110.5 109.5 106.6 108 107.8 92 86.1 81.1 72.2 72.7 64.3 53.9 50.3 50.4 43 38.1 29.4 24.7 20.2 18.5 13.8 10.9 8.8 9.2 7.2 5.3 4.7 4.5 4.1 3 4.1 4.5 4.3 4.2 2.7 4.1 4.4 4.8 4.8 4.9 5.5 5.8 7.5 8 10.3 10.7 10.5 11.3 9.8 9.2 9 9.6 10.1 12.7 16.4 25.8 32.4 35.9 40.8 49.9 61.4 71.9 83.3 99.8 110.8 112.5 120 131.6 144.1 151 151.3 158.2 157.1 146.7 147.6 150.1 156.9 151 150 151.8 152.7 146.3 140.5 128.1 121.5 116.7 106.4 90.2 83.7 76.2 60.4 44 32.2 21.1 18.8 17.7 18.4 19.4 19.4 19.4 20.3 20.3 19.4 19.6 19 17.1 14.4 17.8 19.9
606.7 583.5 551 531.4 502.6 488.9 475.5 463.3 479.2 497.7 529.1 552 565.3 584.9 583 573.1 608.1 651 661.4 672.9 682.7 683.3 689 696.6 690.4 690.7 689.2 692.3 691.9 689.8 687.6 661.5 623 603.3 566.5 548.9 533.7 516.9 485.3 466.1 428.3 412.3 378.9 349.1 322.3 327 343.5 361.8 374.3 396.5 422.5 424.2 412.6 413 433.8 399.3 386.1 375.2 363.3 349.6 354.5 372.3 381.3 379.7 374.5 368.3 354.6 355.6 353.9 342.2 320.7 289.7 274 251.6 226.6 212.1 213.6 219 212.8 192 169.9 144.4 139.5 131.7 121.8 118.7 113.7 110.2 97.9 117.8 121 123.3 123.5 122.3 124 120.4 115 111.7 97.7 95.7 91.8 83.5 80.1 76 71.6 66.3 60.7 51.5 42.5 36.4 34.5 28.8 21.6 14.6 11.8 9.9 6.6 4.8 4.2 4.2 4.3 4.3 2.4 3.8 3.6 3 4.2 3.7 4.5 4.4 4 3.9 5 7.1 8.7 10 10.3 10.6 10.4 8.3 8.5 8.3 8.7 8.4 9 11.2 18.7 30.5 28.2 40.3 49.9 58.3 69.6 82.2 97.8 114.7 118 118.5 124.8 133.6 139.9 136.1 136.1 138.5 131.6 126.2 127.7 132.2 132 130.6 133.6 131.9 128.6 116 106.5 106 97.5 82.6 72.5 61.7 53.1 41.2 31 20.8 17.4 15.7 17.1 17.7 18.5 18.7 19.1 19.2 19.4 18.4 18.9 18.7 18.6 13.9 13 18.8
624.7 607.9 571 537.5 520.3 509.6 495.9 489.5 500.9 518.3 550.5 576.6 598.7 618.9 634.1 628.1 624 658 673.3 683.4 688.9 693.1 695 705.7 709.8 713.4 710 711.9 708.3 706.3 710.9 681.9 660.3 627.5 588 576.9 547.2 527.1 492.9 472.6 449.8 432.5 396.5 362 336.2 345.7 363.4 381.7 397 414.7 450.7 463.2 454.1 437.4 458.1 425.2 391.7 384 379.3 377.3 381.4 387.5 391.6 389.2 384 382.4 366.3 371.4 368.6 356.6 345.5 323.7 306.9 284.4 250.6 235.8 239.6 237.3 236.6 221.2 195.9 166.6 148.7 142.2 133.6 129.7 128.8 127 108.9 125.2 134.4 133.4 142.8 143.9 140.7 135.4 133.3 129.3 119.1 121.8 110.2 99.1 98.4 98.1 96.1 93.3 84.9 73.4 64.4 56.1 54.3 49.6 38.7 27.7 21.9 15.5 10.3 6.4 5.1 4.8 5.1 5 4.5 2.9 2.4 2.8 2.7 3 3.1 3.7 4.3 5.1 7.1 8.1 9 9.9 9.6 9.4 8.7 7.7 7.7 8 8 7.6 8.2 9 11 19.5 30.9 45.7 55.2 62.4 73.1 82.3 93.1 110.7 123.1 126.1 123.3 122.4 127.3 131.8 134.1 133.6 129.8 127.5 124.3 118.3 115 115.2 106.3 110.4 103.7 93.9 82.2 80.7 76.2 63.5 53.5 42.7 33.5 21.8 18.2 16.8 14.9 15 16.5 17.1 17.7 17.7 17.5 18 18.6 17.5 17.4 18.1 18 15.1 11.7 12.3
625.6 616.1 597.7 564 537.8 517.8 511.8 508.8 523.7 545.3 578.7 605.6 633.4 660.3 674.3 675.9 663.5 657.8 661.7 667.3 666.7 668.6 672.5 676.1 685.4 690.9 719.9 728.8 729.3 722.2 720.6 713.1 700.5 634.1 608.9 594.2 557.7 529.1 505.9 480.3 464 441.3 403.3 368.5 348.1 362.7 376.4 405 422 442.4 469.9 499.4 489.7 465.6 481.3 457 438.3 403.3 402.5 409.1 426.6 415.9 408.3 400.7 390.3 390.8 382.1 382.8 379.5 382 366.2 335.5 322.2 293.9 262.4 257.5 255.9 256.8 252 239.8 219.1 195.4 166.9 152.3 152.1 139.3 136.9 134.9 126.6 131.4 148.6 144.8 151.5 156.2 157.2 152.8 144.8 140.7 136.1 137.8 130.1 121.4 124.1 124.5 124 114 104.7 98.9 89.9 75.8 82.6 66.7 54.9 43 37.1 27.4 20.1 12.3 6.7 6.7 7.2 7.2 5.4 4.4 3.7 3.2 2.6 2.5 3.6 3.4 3.9 4.5 6.4 7.8 8.7 10.1 9.3 8.8 8.1 7.3 6.9 6.3 6.5 6.8 7 7.7 11.2 19.5 28.5 36.8 54.3 63.7 78.4 88.4 95.9 105.9 115.9 124.1 126 136 139.3 147.6 151.2 149.5 138.1 127.1 120 114.9 109.1 103.8 88.5 87.2 78.9 68.1 56.9 51.6 48.8 42.6 38.3 29.2 17.8 14 13.5 13.7 14.6 14.6 16 16.3 16.5 16.6 16.9 16.4 17.3 17.1 18 17.5 17.3 16.8 12.3 12
617.3 643.5 639 602.4 569.6 537.4 531.1 540.5 557.3 578.3 607 631.5 658.9 682.3 686.2 672 649.4 646.2 635.6 632.4 631.1 631.8 634.7 636.2 642.2 674.3 700.8 717.4 735 733.6 730.7 727.5 707.6 670.8 634.4 615.3 586.6 543.2 511.8 487.4 459.1 432 404 384.2 370.4 383.7 400.9 413.5 444.1 469.8 498.2 528.4 527.6 495.9 511.8 505.2 474.1 437.6 429.3 432.1 463.4 451.9 433.8 410.9 402.8 404.5 402.5 391.9 395.8 395.4 381.9 355.1 329.3 314.2 296 291.1 277.8 271.9 263.2 248.7 238.9 209.4 183.1 168.8 159.2 155.8 144.8 144.5 139.9 136.3 158.9 160.6 158.3 165.3 167.9 166 158.7 155.6 158.3 154.6 151.3 141.3 147.8 150.8 144.3 139.1 133.7 123.6 106 103.7 101 90.1 71.9 61.6 52.7 45.4 36.7 26.9 12 8.9 9.4 8.3 6.1 4.8 4.6 4.6 3.9 3.3 2.4 2.8 3.7 3.9 5.6 7.4 9.1 9.9 9.1 8.5 8.4 7.3 6.3 5.2 5.2 5.4 5.7 6.3 6.7 14.1 26 35.2 43.8 55.6 65.8 79.3 88.8 99.6 109.7 119.6 128.8 140.3 144.1 149.5 153 154.8 149.8 133.5 121 100.5 103.3 97.5 95.1 79.5 72.9 58.9 43.8 31.7 27.2 26 26.7 22.2 15.3 13.4 13.1 13.8 14.2 14.7 15.3 16.4 16 16.1 16.5 15.7 17.5 17.8 17.8 17.6 17.4 17.5 17.1 14.5
623.7 653.3 658.4 616.8 584.1 565.2 563 570.8 591.9 619 641 661.2 681.7 692.2 663.7 637 614.1 613.3 607.8 603.5 597.9 596.9 598.5 592.4 618.4 649.7 658.5 668.2 690.6 695.1 688.3 712.2 701.7 672.4 641.5 629.9 594.5 559.5 522.6 497.1 464.4 440.5 421 402 395.6 406.5 426.1 445.9 466.8 494.1 526 547.2 551.3 525.7 545.1 537 511.3 472.1 453 453 495.3 479.9 460.4 434.9 416.5 416.6 416.8 407.7 400.4 398.1 388.7 371.9 355.2 332.8 328 318.9 301.5 290.6 274.5 268.9 254.4 236 216 193 167.8 161.7 153.9 152.4 147.8 144.6 163.4 168.4 169.7 183.5 189.5 187.7 189.1 181 175.6 175.2 168.5 169.5 180 182.4 171.4 162.1 158.4 140 126.2 124.7 117 104.6 89 77 70.3 61.9 57.3 40.9 23.8 12.8 13 11.8 8.7 5.3 4.9 4.9 3.8 3 2.4 3 3.1 2.3 3 4.2 3.5 5.1 7.7 11.1 13 7.9 6.5 5 4.5 4.6 4.8 5.2 5.3 10 21.4 32.9 42.3 51.6 65.3 77.2 90.5 105.9 117.2 129.3 131.4 133.6 138.1 146.8 151.6 150.8 148.8 130.8 121.8 102.1 78.6 76.7 74.6 63.8 54.7 40.7 36.1 28.1 18 16 16.5 15.9 13.6 12.8 14 13.8 14.6 14.9 18.7 16.9 15.9 15.7 16.1 15.6 17.3 17.6 17 17.9 17.7 18 17.8 17
623.1 647.2 665.8 652.7 618.6 595.9 607.2 631.7 639.8 661.3 678.8 684.4 687.4 664.8 623.7 603.4 575.9 567.3 575.7 566.8 565.8 564.2 560.9 542.1 580.4 600 607.4 618.9 632.9 634.3 654.2 688.7 680.5 665.7 640.3 622.3 598.6 570.8 541.6 519.6 482.1 457 436.7 425.4 418.3 425.5 455.3 469.7 491.1 511.8 541 561.6 570.4 556.4 569.1 553.4 530.9 489.8 480.3 484.6 522.9 505 475.6 451.7 434.5 424.1 423.4 417.4 407.8 416 404.7 395.8 382.2 378.1 364.8 346.4 319.7 309.7 305.2 295.7 280.8 259.1 235 204.7 186.7 167.7 161.6 158.5 155.9 148.1 160.5 170.2 174.7 192.2 203.4 204.6 205.4 208 197.9 190.5 184.2 192.9 207 209.2 195.5 184.7 171.1 156.6 145.9 155.6 138.8 123.4 108.5 92.4 86.6 85.9 71.6 56.1 41.8 28.6 19.3 19.2 12.4 7.2 5.1 5.1 4 2.9 2.4 3.1 2.4 2.3 2.3 2.3 2.3 3.1 10.4 11.6 20.4 12.3 6.3 5.4 4.4 4 4.5 4.4 4.5 7.2 17.2 30 42.9 53.1 66 80.7 100.9 110.3 120.1 133.6 133 131.1 129.4 136 144.2 136.6 128.1 119.7 109.2 95 78.3 56.7 49.2 48.1 39.6 26.5 20.9 15.8 15.4 14.6 13 12.6 12.5 14.2 14.5 15.6 15.2 18 19 16.7 15.8 15.3 15 15.5 17.2 18.3 16.4 17.6 17.9 17.7 17.4 16.7
634.6 646.8 661.4 660.5 659.2 631.6 648.1 673.1 685.7 688.8 692.5 665 640.7 613.4 582.4 562.8 534.1 523.2 527.2 527.7 522.8 527.1 524.8 510 544.8 559.8 560.1 583.4 587.4 574.8 622.8 650.2 648.2 641.6 629.3 608.3 599.2 580.8 566.6 527.3 505.6 476 464.9 451.7 439.8 443.9 469.4 491.9 510.3 536 557.2 578.8 586.1 578.3 584.6 566.5 549.1 519.8 511.7 520.5 537.5 527.7 496.2 469.5 462.2 440 434.8 435.1 417.3 419.9 415.8 402.7 393.2 399.4 385.5 370.5 353.9 338.6 329.3 315 296.8 269.8 246.2 221.5 196.6 174.6 168 165.1 160.6 149.3 160.3 171 174.4 178.4 202.9 214.4 222.7 226.9 217.7 208.5 209.6 211.8 224.5 229.2 213.7 199.3 183.3 175.2 177.5 173.3 157.3 140.8 127.3 110.2 106.2 100.1 86.8 70.9 56.1 44 30.8 29.4 24 11.8 9 5.4 4.2 3 2.3 2.3 2.3 2.3 2.4 2.3 2.3 2.3 2.3 14.2 16.5 24.7 8.1 5.7 4.9 4.3 4.9 4.2 3.8 6.4 17.4 29.4 46.7 57.6 69 81.9 97.4 108.9 114.3 123.1 126.2 130.7 125.6 118.3 117.3 117.5 112.9 108.2 97.5 91.1 78.7 57.8 33.6 25.3 20.4 15.3 12.9 12.7 12.6 12.7 12.6 12.5 13.6 14.5 14.9 16 15.8 16.2 19.1 17 16.5 16.3 15 15.5 16 14.8 14.8 15 17 16.1 15.1 15.6
636.6 642.7 647.2 665.4 680.4 667.4 666.2 672.1 663.6 654.8 646.3 628.4 608.2 579.1 555.7 514.6 493 480.5 473.1 465.8 464.8 471.5 475.9 472.6 502 515.2 512.6 531.4 539 564.9 614.8 630 621.6 621.6 616.9 596 579.2 576.5 562.9 545.3 528.9 513 501.6 479.7 460.4 467.6 482.8 506.3 527.9 557.7 577.4 590.4 595.8 585.8 593.4 578.9 573.6 566.6 549.9 577.3 560.1 547.9 513.9 496.8 485.9 472.4 445.5 437.7 426.9 422.6 421.6 413.2 404.7 410.4 402.1 394.2 379.3 359.9 342.6 322.1 304.8 282.1 250.6 234.2 202.6 181.2 175.5 172.9 166.6 158.7 163.3 171.3 175.1 177.4 199.8 230 232.8 232.4 229.2 232.1 237.7 239.9 249.3 246.6 232.2 218.4 203 186.8 195.1 195.6 177.3 158.6 143.9 129.8 123.9 113 104.6 91.5 75.1 59.7 46.7 40.4 35.9 23.6 15.7 9.6 7.8 6.1 3.7 2.3 2.3 2.3 2.3 2.3 2.3 2.3 2.3 2.3 4.4 21.2 28 6.2 4.8 3.8 3.1 4.4 3.2 7.2 14.8 24.7 38.4 58.1 70.7 86.9 99.8 107.4 113.3 122.4 129.8 130.5 124.6 118.9 104.6 90.2 96.1 98 90.3 85 79.4 62.3 34.5 16.3 14.6 13.1 12.3 12 11.3 12.1 13.2 12.9 13.8 14.2 14.8 15.7 16.1 15.1 15.1 16.1 16.3 16.8 15.6 14.5 14.4 13.7 12 11.9 11.1 10.1 10.9 12.9
613.5 622.9 631.3 644.1 646 641.6 639.4 637.4 627.7 613.6 599.5 587.8 578.3 540.2 493.4 467.7 456.3 447 433.9 431 429.1 429.4 438 448 459.1 464.6 473.5 480 483.5 528.2 558 569.7 576.8 580.7 584.6 570.9 552.9 553.9 557.1 547.2 536.8 536 517 495.3 480.7 490 504.8 527 554.7 580 595.5 603.1 603.6 595.4 601.2 595 599.3 611.3 602.1 595.4 578.3 569.4 536.6 517.4 507.4 491.1 470.4 450.6 442 431.3 426.4 424.5 421.5 415 416.4 397.7 385.2 372.3 350.9 331.1 317.5 293.1 263.3 240.9 213.1 185.7 184.2 180.1 177.3 168 164.2 172.3 178 181.1 194.8 227.7 233.8 243.5 247 251.3 255.5 264.2 271.1 265.8 256.8 239.5 221.7 210.9 211.4 210.4 197.5 187.3 169.7 149.6 140.8 131.6 114.1 103.6 93.7 75.9 60.7 52.1 51.8 42.4 32.2 23.7 19.7 14.8 10.8 4.5 2.3 2.3 2.3 2.3 2.3 2.3 2.3 2.3 2.3 4.2 6.3 10.4 5.6 3.7 2.9 3.2 3.2 4.1 10 23.2 34.6 46.9 73.4 90.7 100.9 106 105 110.4 113.9 103 87.3 84.3 81.2 67.6 68.5 74.2 72.1 71.5 65.1 50 23.1 16.5 14.9 13.4 12 11 12.5 13.3 13.3 13.2 13.6 14 14.6 15.4 15.8 16.2 16.2 15.8 15.8 15.1 14.8 14 14.7 13 10.5 9.4 9.2 7.1 10.8 8.9
609.8 607.8 611 619.5 603.6 614.9 602.2 620.7 587.3 567 544.5 535.7 515.1 496.5 457.2 437.3 422.5 409.9 404.7 396.5 398.2 395.4 398.7 414.1 422.6 428.5 436.8 442.3 453.2 467.6 478.4 521 532.5 538.7 537 534.7 523.8 519.6 523.9 526.8 533.9 529.6 509.8 490.8 481.5 497.7 514.6 548.8 576.1 594.2 606.3 608.5 605.5 609.2 619 614.3 610.3 613.1 613.1 611.8 591.8 576 561 540.8 528.8 514.6 498.4 466.9 461.2 457.8 439.3 437.3 432.9 424 412 408.6 389.9 379.2 359.4 341.5 320.7 304.1 270.1 241.9 219.2 194.2 187.3 187.1 181.5 176 165.4 171.8 178.6 187.1 194.7 225.5 234.9 248.5 262 266.7 278.8 288.5 289.5 285.1 277.7 262 240.3 234.3 227.2 225.8 214.1 202.4 194.8 169 157 145.2 128 112 101.6 90 76 71.2 68.8 61 47.9 41.9 39.2 31.5 18.4 8.9 2.3 2.3 2.3 2.3 2.3 2.3 2.3 2.3 2.3 2.5 5 5.3 3.6 2.3 2.3 2.3 3.3 5.2 8.5 17.8 25.4 26.9 36.7 56.6 65.9 78.2 87.6 88.3 85.7 69.9 51.3 50.8 53 45.8 43.9 47 49.8 46.4 40 32.7 20 18.2 18.6 15.1 12.6 10.9 13.6 13.6 13.5 13.2 13.3 13.7 14.4 15.4 15.8 16.2 16.1 15.8 15.6 15.1 14.2 13.4 14.1 13.3 9.3 9.4 8.1 10.1 10.9 8
571.2 575.1 570.4 566.4 569.3 579.6 566.2 554.1 537.3 519.1 499.3 485 469.2 448.3 422.5 406 394.6 380.6 378.5 370.6 370.3 373.1 381 384.2 388.3 395.7 403.1 409.5 421.7 430 441.5 446.4 469.7 485.2 492.3 495.2 490.2 477.9 475.6 497.2 510.7 497.1 481.5 470 480.3 509.9 521.9 555.1 578.8 598.3 610.9 613.6 622.1 614.1 626.5 628.3 627.2 622.9 616.3 614 602.8 581.1 570.7 553.7 541.2 524.6 505.7 493.4 467.4 470.5 447.2 434.8 435.4 425.1 418.5 399.9 390.3 375.4 358.1 343.6 321.7 302.5 272.9 248.4 229.7 203.2 186.8 187.5 181.2 177.9 172.8 171.4 177.5 189.7 192.8 213.9 236.1 247.6 267.8 274.4 291.9 302.2 304.8 298.9 291.5 278.2 275.3 266.1 251.3 242.6 238.7 225.9 212.5 189.7 171.6 163.1 144.9 132.2 112.1 100.6 90.9 79.5 81.8 77 69.4 61.5 53 49.2 36.8 26.3 15.3 8.6 6.6 3.7 2.3 2.3 2.3 2.3 2.3 2.3 2.3 2.3 2.3 2.3 2.3 2.3 2.3 3.3 11.6 13.8 14.2 17.5 12 19.9 12.4 21.8 31.6 34.3 35.7 33.1 31.1 33.6 40.5 36.5 33 28.7 36.5 36.2 28.9 19.9 19.4 19.5 19.5 16.3 12.8 12.4 13.2 13.3 13.2 13.2 13 13.3 14.9 15.4 15.8 16.1 16 15.8 15.3 14.6 13.8 13.3 13.3 11 9.1 9.4 9.3 11.1 11.4 10.9
545.2 543.5 540.5 539.3 546.7 539 523.3 512 498.5 487.9 483.5 459.6 439.5 418.4 402.8 391.9 378.5 366.1 359.8 353.3 351.2 354.1 357.4 362.4 365.3 369.5 373.8 371.3 386.8 394.5 399.4 413 417.6 419.6 438.7 450 443.9 444.2 447 462 479.4 450.2 442.1 453.2 484.6 514.7 527.7 538.7 563.1 590.1 604.7 617 621.2 608.2 625.5 635.5 637.7 628.5 625.4 620.3 603.6 587.9 572.2 565.8 550.9 531.4 512.8 501.6 469.4 452.8 437.7 434.9 429 422.1 417.8 401.8 383.6 365.4 345.9 329.2 316.9 303.6 279.5 251.8 229.3 209.4 191.8 181.8 180.1 178.9 175.9 169.9 174.6 184.6 191.4 203.6 221.4 245.3 267.3 284.9 295.8 311.4 314.6 312.8 310 305.5 304.7 289.7 277.9 270.1 264 250.2 235.7 214.8 192 178.5 166.9 152 132.9 119 106.1 93.4 104.4 95.7 87.8 82.2 70.4 68 60.5 51.1 44.2 28.5 24 13.2 5.5 2.3 2.3 2.3 2.3 2.3 2.3 2.3 2.3 2.3 2.3 2.3 2.3 2.1 1.5 0.5 0.6 1.6 5.6 6.9 6.3 6.1 7.7 13.2 15 19.5 21 22.8 22.9 22.9 19.6 15.3 18.4 23.4 19.4 17.8 19.1 19.4 19.5 19.1 17.3 12.6 11.5 12.9 12.8 12.7 12.9 13.1 13.9 15.2 15.6 16 16.2 16 14.9 14.1 13.5 12.8 12.5 13 9.2 9 8.6 10.4 10 9.3
532 533 535.3 534.3 536 529.8 508.9 497.8 484 469.9 449.5 433.6 419.7 403.3 389.4 368 356.3 341.8 337.7 330.6 329.6 330.7 332.9 333.7 336.4 341.6 346.5 353.2 354.3 359.6 365.6 372.6 381.2 388.2 397.7 403.1 407.1 408.6 406.2 417.4 429.3 410.3 407.8 431 482.8 508.8 519.2 513.7 530.3 552.5 586.3 604.4 603.3 597.3 613.9 628.9 645.2 639 638.3 628.7 609.1 592 574.5 562.5 547.7 522.8 506.1 489.3 474.8 449.8 440.3 430.1 427.1 421.2 405.5 400.6 382 365.5 345.9 314.7 309.8 299.9 281 259 230 209.2 190.6 179.6 178.3 178.4 179.4 173.4 179.8 179.4 190.9 199.2 214.1 234.7 262.2 284.1 305.1 308.9 332.7 332.4 338.2 334.6 330.3 314 304.9 293 293.4 283.6 266.9 240.3 212.9 195.9 181.4 165.6 151.4 134.2 120.6 106.4 120.1 120 109 103.2 92.5 96.3 87.5 77.6 67.6 56.5 45.1 37.1 27.4 19.9 12.7 11.7 15.3 11.5 8.1 2.3 2.3 2.3 2.3 2.3 2.6 2.6 3.2 3.7 2.9 0.5 2.2 5.4 4.7 5 7.7 10.5 11.4 11.1 11.2 10.7 11.2 10.6 11.4 12.9 14.8 15.6 17 17.6 18.5 19.3 19.5 19.1 18.2 16.3 12.1 11.2 11.8 13.2 13 13.4 14.1 15 15.3 15.6 16.1 16 15.5 14.2 13.5 12.5 12.8 10.8 9.1 10.8 10.7 9.6 9.2 8.9
536.8 549 541.4 547.8 554.5 556.6 533.7 519.3 502.6 475.7 449.5 429.1 413.7 397.7 377.8 365.4 356 345.2 338.1 329.4 321.4 313.3 310.9 311.2 310.7 315.6 318.8 325.4 327.5 325.4 331.6 340.2 345.6 358.6 364.5 371.9 372.3 376.1 379.3 381.8 379 377.8 381.4 403.3 439.1 456.1 467.8 476 496.4 514.8 543.5 566.9 581 576.1 593.1 615.6 643.7 645.6 639 631.2 610.8 592.9 578.4 558.4 536.2 509.1 488.5 483.6 470.1 455.3 444 431.6 429.7 425.1 421.8 399.8 363.7 335.6 331.8 306.5 283.1 286.5 274.2 251.4 226.4 205.1 186 177.2 173.3 176.8 181.9 178.1 179.2 182.8 192.5 201.2 216.3 230.3 256.1 284.1 311.1 328.5 334 346.1 359.1 366.1 354.2 336.2 328.2 315.6 315.7 311.6 290.9 255.7 231.8 214 197.4 181.5 164.8 148.9 136 122.7 137.3 134.3 126.4 127.2 115.9 122.8 110.8 103.8 89.5 79.1 71.6 66.3 57.6 54.4 41.6 38.2 31.8 28.7 22.2 14.9 8.7 5.7 2.3 4.1 3.3 3 3.9 4 4 3.5 2.7 5.2 4.4 6.5 9.6 13.1 13.5 12.1 10.6 9.8 9.6 10.2 11.3 13.1 14.6 15.3 16.2 17.6 17.8 19.5 18.8 18.1 18.8 17.4 14.5 13 11.1 12.8 13.1 13.7 14.4 14.4 14.9 15.3 15.8 15.5 14.5 14.8 12.6 12.2 10.4 10.3 10.4 10.2 10.6 10 9.4 9.2
566.3 586.3 590.6 580.6 579.2 570 559.2 540.5 510.3 484.2 458.3 437.4 416.6 398.1 386 376.1 366.2 354 344 335.1 324.1 315.3 301 293.4 292 293.1 294.9 297.2 301.9 300.9 302.8 308.3 314.5 327 336.1 343.9 349.5 355.7 349.5 346.3 347.8 348.7 351.8 378.2 387.4 410.9 431.2 448.4 457.9 477.5 504.6 522.9 537.9 555.2 570.6 591.3 620.7 636.4 644.5 630.8 612.3 590.2 581.4 552.1 535.9 500.2 484.7 476.4 469.7 464.7 453.9 435.8 434.9 428.6 434.2 422.2 398 364.5 332.7 296.1 270.4 256.9 261.8 246 225 201.2 180.9 174.4 170.9 175.6 184.9 181.5 180.8 184.7 191 200.2 211.8 229.2 251.1 289.9 321.8 338.9 341.1 354.5 369.2 383.5 376 362.4 354.7 342.6 335.8 328.9 312 274.7 257.1 231.4 212.2 197.1 179 166.9 152.2 142.3 155.8 151.5 145.5 146.2 138.7 147 139.7 128.9 117.7 106.7 102.7 98 93.4 85.9 71.6 67.5 59.4 55.1 47.5 42.8 32.9 27.4 17.4 7.4 3.1 3.2 3.6 4.1 4.5 2.2 2.5 4.9 4.3 5.4 9.1 11.5 11 9.8 9.1 10.9 11.1 10.7 11.2 13.2 14.4 15.2 15.8 16.9 18.1 18.6 18.1 18.3 18.6 18.8 17.4 16.8 13.5 11.7 12.5 13.6 13.9 14.4 14.3 14.2 15 15.4 14.5 13.7 11.6 11.9 10.8 10.5 9.8 10.7 10.7 10.5 10.1 8.1
625.6 625.5 643 615.2 621.8 612.1 586.4 577.3 550.2 518.9 504.8 481.6 437.1 414.3 406.6 400.1 390.4 380.9 365 347 331.6 320.5 310.2 300.4 285.9 269.6 274.8 273.8 276.3 279.1 281.8 282.2 287.9 297.8 307.4 318.2 329.6 335.3 334.6 327.9 319.7 314.1 325.2 341.4 344.9 357.8 386.3 405.2 416 444.7 476.1 495.4 504.5 506.9 547.5 564.1 585.2 611.1 629.7 636 616.3 589.9 565.2 540.4 522 492.9 484.5 487.8 475.8 472.2 458.1 438.3 433.1 436.4 436.3 424.1 406.4 372.5 352.1 314.2 278 253.7 245.6 235.1 218.2 201.2 176.6 171.2 167.7 171.3 183.9 185.5 180.3 185.5 194.3 198.8 207.4 227 249.4 284 327 346.3 352 358.3 376.3 393.2 395.1 385.1 381.4 373.8 357.8 335.1 317.4 288.1 270 240.5 223.6 212.3 200.3 182.8 170.1 165.1 156.9 171.9 163.9 167.2 160.9 169 174.9 161.8 149.3 137.9 134.3 132.5 129.6 130.2 110.2 102.5 99.4 91 80.7 74.8 61.9 52 45 37.2 23.6 13.1 5.3 3 2.7 2.4 1.3 1.1 1 -1.2 -1.2 4.9 4.9 7.9 12.8 12.4 12.9 12.3 11.8 12.9 14.2 14.7 15.2 15.7 16.5 17.3 17.7 17.8 18 18.1 17.3 17.4 16.8 13.2 10.1 12.1 12.6 13.8 14 13.7 14.8 12.8 11.1 11 11.9 10.5 12.2 11.5 11.5 11.6 10.7 10.4 9.6 7.5
655.2 674.3 671.2 663.1 673.3 696.1 657.3 621.9 598.9 557.3 521.8 501.7 478.1 439.4 429.6 425 419.6 413.3 397.4 371.6 352.9 340 325.8 315.1 303.9 285.5 267 255.6 257 257.7 260.9 259.5 262.8 266.4 277.1 289.4 304.1 315.9 313.3 307.7 297.4 296.6 305.2 313.9 322.4 333.1 355.4 372.6 391.4 424.5 446.1 459.9 465.4 479.4 514.6 534.5 555.4 584.8 609.6 617.3 614.3 594.2 567.6 540.6 512.3 492.4 484.6 487.6 476.8 463.8 455.9 434 430.3 435.2 435.7 425.8 403.7 379.7 351.7 322.8 284.5 256.7 226.1 225.9 211.5 197.3 176.9 168.1 166.1 169.8 178 184.6 182.1 183.8 194.6 201.9 209.2 227.6 249.2 274.3 313.7 332.5 366.6 374.1 380.9 398 409.5 406.7 400.8 399.7 379.1 353.9 328.9 298.2 276.8 257 237.2 228.1 214 197.5 189.3 185.6 181.9 187.9 184.3 186.7 183.9 189.3 193.2 194.7 188.7 176.1 163.6 166.1 171.4 157.6 144.1 132.6 129.1 125.4 123.6 103 90.8 82.9 80.4 66 53.7 39.4 23.4 8.1 10 9.7 9.2 7.8 8.2 -1.2 -1.2 -1.2 -1.2 -1.2 -1.2 -1.2 -1.2 -1.2 12.4 12.1 13.4 13.8 13.8 14.2 15 15.8 16.6 17.1 17.2 17 17.2 17.3 17.4 15.8 12.2 9.5 12.2 13.4 13.5 14.5 12.4 10.6 9.6 9.9 10.4 9.1 13.8 12.4 12.4 11.7 10.7 10.6 9.2 7.3
659.9 682.9 691.5 686.9 702 734.2 724.9 668.3 644.7 601.5 557.1 519.8 509.4 468.3 458 450 455.1 438.7 418.6 403.3 371.7 356.1 341 328 318.8 295.5 281.2 261.5 246.4 239 240.1 240.3 242.6 241.4 248.4 264.5 287.3 300.3 297.7 288.1 279.1 270.7 278.3 289.3 299.3 313.2 329.9 344.9 366.9 393.5 421.8 436.3 440.1 458.6 488.7 506.5 535.7 555.6 575.4 598.8 604.8 587.6 561.4 543.4 511.7 492.6 482 476.7 468.6 469.6 453.7 432.8 430.4 429.9 435.3 420.3 397.1 378.7 349.8 315.2 283 256.1 226.2 201.2 196.3 187.1 177.5 168.7 164.9 167.9 177.5 184.3 185.1 186.1 189.3 200 208.3 226.5 243.1 263 296 327.5 356.9 383.8 394 398.8 408.7 415.9 410.2 414.9 401.4 372.5 337.8 311.9 295.8 275.6 253.8 242.1 229.9 216.7 212.1 207.1 203.8 194.4 203.8 207 200.6 213 213 212.8 211.1 206.2 198.3 198 198.5 192.1 179.2 164 181.2 174.6 163.7 147.1 131.8 122.5 109.6 94.2 76.3 60.7 41.3 23.5 22.3 21.1 20.2 15.7 12.6 10.3 7.4 6.9 -1.2 -1.2 -1.2 -1.2 -1.2 -1.2 -1.2 8.8 8.6 10 11.3 12.6 13.7 14.5 15.2 16.1 16.6 16.8 16.9 17.1 17.1 15.8 13.6 11.9 10.1 11.4 11.6 11.1 9.2 9 9.2 9.4 9.7 9.9 14.2 13.7 12.7 11.8 10.7 8.4 5.4 3.7
607.1 639.2 661.7 676.7 695.5 732.4 738.1 709.1 684.7 642.2 605.8 557.9 517 510.9 504.6 480.3 469 457.1 428.1 401.7 380.8 363.2 354.2 337.5 316.2 296.1 279.9 263.7 244.4 230.7 228 224.4 222.5 220.6 227.7 242.6 260.5 287.2 286 274.6 261.8 251 259.7 267.2 277.3 292.2 306.2 320 341 370.2 398.8 411.9 416.3 432.8 457.8 485.9 514.7 537 553 573 591.9 582.3 557.7 536.8 515.7 495.1 483.6 476.1 473.5 479 460.8 437.5 430.9 425.8 418.1 408.9 397.4 378.5 356.6 318.7 283.9 262.9 233.2 203.8 182.1 177 173.3 167.3 163.8 168.1 174.6 183.7 190.1 188.5 191.9 199.5 208.1 224.6 242 257.3 284.5 325.9 359.6 390.2 403.4 407.4 412.3 419.1 418.6 422.3 417.8 392 365.2 340.3 309.3 294.1 276.7 260.1 249.8 241 235.7 236.7 228.5 217.8 223.4 229.4 226.5 229.8 238 235.8 238.4 249.5 235.4 226.5 222.7 220 209.9 210.6 216 213.6 203.8 193.6 177.7 156.8 129.3 114.3 99.7 82.9 61.5 38.4 36.9 38.2 36.1 30.6 24.6 14 11.5 8.8 7.3 7.8 6.2 5.5 5.5 6.3 -1.2 -1.2 6.2 6.6 10.3 10.9 12.3 12.7 14.1 15.1 15.8 16.3 16.7 16.6 16.4 15.5 13.4 12.9 12.3 9.4 9.5 9.5 9.1 8.9 9.4 8.8 9.3 11 13.7 13.5 13 7.7 5 4.1 3.8 1.9
646.5 669.7 678.9 670.6 687.1 720.8 756.4 749.9 724.5 697.1 666.2 591.5 564.8 547.1 527.5 501.7 483.2 458.2 421.5 405.7 380 366.6 354.9 337.4 322.4 298.7 276.4 264.4 244.3 227 216.7 214.3 206.9 205.7 204.9 214 229.6 254.9 259.5 256.3 248.4 236.1 243.9 251.5 261.9 271.3 279.6 294.7 319.5 342.5 365.6 380.9 373.9 411.2 435.5 475.9 495 516.1 535.6 556.3 572.2 574.3 556.2 533.6 511.7 495 481.8 477.8 469.6 467.6 449.8 432.8 428.3 420.9 405.4 393 387.3 381.3 358 318.3 276.3 258.9 227 196.7 177.5 166.3 166.7 164.1 163.6 169.4 177.2 185.1 190.4 191.5 193.3 196.7 210.1 221.3 240.5 255.6 284.7 321 348.6 390.3 410 410.6 418.6 430.5 422.7 426.4 435 419.2 391.7 354.5 336.5 317.5 299 287.7 276.4 267.3 266 263.2 251.9 241.9 228.2 254.3 257.1 248.6 255.8 266.2 270.8 278.7 284.5 267.9 258.4 256.4 253.6 249.8 245.1 247.2 241.3 225.7 203.4 174.5 148.7 133.7 117.9 94 74 49.8 43.6 51.9 51.2 45.6 37.1 22.6 14.3 9.7 7.7 4.9 4.4 4.1 2.4 2.4 2.6 -1.2 -1.2 4.1 4.6 6 8.6 10.8 12.4 14.9 14.7 15.6 15.7 15.9 15.5 14.7 13.8 14 12.8 9.5 9.5 9.3 9 8.7 8.6 8.1 8.6 12.3 13.9 12.8 9.9 5.8 5.4 4.1 2.1 -1.2
670.1 701.1 710.7 693.5 692.3 707.1 766.2 787.8 790.6 728.6 650.7 639.7 617.3 601.3 578.8 557.5 521.2 475.2 440.3 421.8 386.2 365.7 353.5 340.5 326.2 296 276.3 259.2 240.8 225.6 213.7 204.3 197.2 196.2 193 199 207.9 222.8 226.5 226.5 224.7 218.9 228 228.8 242.3 251.5 261 272.8 291.5 311.8 345.8 340.1 355.5 392.9 417.7 444.1 477.5 498.4 515.7 533.6 556.5 563.8 554.7 532.9 509.6 493.8 483.5 481.2 469.9 456.2 446.6 426.3 416.4 415.5 402.1 390.5 384.4 380.1 353.6 322.6 271.7 256.5 233.4 199.3 176.6 163.4 161.7 161.3 162.3 172.8 184.1 189.2 192.5 194.4 198 205.5 208.1 219.9 238.2 256.1 276.7 311.3 340.1 379.2 405.5 412.1 416.9 430.8 433.2 437.4 446.8 433.8 407.9 385.4 364 344.2 324.1 314.2 304.4 295.1 291.5 285.9 281.8 272.4 257.1 273.8 276.8 278 276.6 293.8 305.5 306.7 310.6 304.7 291.9 287 286.8 281.3 269.1 265.5 257.7 247.7 209.6 186.3 161.9 144.9 113 99.6 81.4 58.2 54.3 49.7 60.1 55.3 46.9 33.7 22.6 5.9 2.3 2.2 2.1 2 1.9 1.8 1.7 0.1 -1.2 1.5 2.2 3.7 5.2 5.7 7.7 9.9 12.5 14.8 14.9 15.8 15.9 14.8 14.5 14.4 13.1 9.8 9.2 9.2 8.8 8.7 10.2 9.8 10.4 13.8 14.2 12.3 6.4 3.4 2.2 -1.2 -1.2 -1.2
712.6 724.1 732 707.6 707.2 706.3 738.3 779.9 794.1 719.9 687.8 683.6 672.5 649 622.8 579.5 535 498.4 449.8 432 405.8 379.2 356.9 351.2 337.7 303.4 280.8 260.1 241.7 242.3 233 219.8 202.9 183.8 178.9 181.2 192.2 196.5 204.6 205.5 203.2 206.2 212.4 209.7 221.6 229.5 244.2 253.9 269 287.4 303.3 302.5 339.8 369.5 393.5 419.3 455 473.8 494.4 513.4 538.9 551.1 553.4 531.9 510.3 495.9 486.4 485.9 477.7 458.2 442.9 423.6 418.5 413.4 404.8 395.7 381.7 355 320.7 288.6 274.2 240.7 235.5 203.2 172.3 157.4 158.2 157.8 159.8 171.4 186.5 198.7 194.6 201.5 204.8 213.7 218.4 219.9 235.1 254.3 275.9 300.9 331.5 352.4 383.6 409.6 419.5 425.3 437.3 440.5 450.6 450.8 440.1 414.9 397.7 379.1 364.9 345.4 333.6 329.9 323.3 313.4 307.7 305.4 286.1 278.8 308.7 317.7 314.2 318.8 334 333.6 334 330.8 317.8 308 310.5 304.6 292.2 281.6 271.9 253.9 225.4 204.1 184.8 162.5 141.9 118 94.7 74 65.2 48.8 50.4 40.6 31.2 21.9 4.4 2.1 1.7 1.5 1.4 1.4 1.2 1.2 1.1 0.2 -1.2 0 0.9 1.8 2.2 3.2 4.4 5.7 8.2 10.4 13.2 15.1 14.9 15.4 15.2 14.4 13.3 11 9.2 9.4 9.6 11.3 14 14.4 13.6 14.8 12.6 7.2 -1.2 -1.2 -1.2 -1.2 -1.2 -1.2
740.1 762.6 747.4 727.4 726.5 739.9 747.9 770.5 761 744.3 731.1 692.4 680.8 656.1 653.1 603 545.2 502.9 470.3 446.9 421 400.1 368.1 352 327.8 306.3 277.7 258.6 260.5 266.3 264.8 246 223.1 190.4 171.6 165.8 175.3 175.7 174.4 178.2 179.9 183.7 187.6 193.9 203.7 214 225.5 233 248.2 263.6 271.5 293 319.5 344.6 368.4 397.4 425.2 447.1 474.2 496 516.5 539.3 542.5 536.6 512 499.4 485.5 485.8 484.8 466.7 451.7 435 419.3 416.8 411.7 402.5 387.6 361.4 329.8 283.3 252.6 219.3 232.9 205.1 173.5 155.2 154.4 154.7 156.6 165.1 178 204.5 198.4 204 208.7 215.7 223.7 225.3 236.1 253 272.6 292.4 332.6 363.2 395.9 417.3 428.4 430.3 443.7 451 456.8 464.1 462.6 448.6 431.9 412.6 395.4 380.1 370.5 362.5 356.5 343.4 334.7 332.5 318.7 317.6 333.2 355.7 354.6 347.5 360.2 361.2 356.6 351.4 346.2 339.1 328.7 315.2 301.1 281.9 265.4 259.4 242.8 224.6 196.1 167.6 148.4 124.2 96.8 83.8 80.9 68.6 52.6 30.8 6.8 3.7 2.1 1.5 1.2 0.9 0.8 0.7 0.6 0.6 0.5 -0.4 -1.2 -0.6 0.4 1 1.4 1.9 2.2 3.6 5.1 6.6 8.5 12.7 13.6 14.3 16.4 15 14 12 9.3 12.1 12.4 13.2 14.4 15.7 14.6 13.5 8.8 2.3 -1.2 -1.2 -1.2 -1.2 -1.2 -1.2
778.1 799.5 774.8 756 761.9 767.7 777.5 780.1 796.7 799.5 769.9 711.6 654.4 606.8 574.7 543.1 515 496.9 483.5 449.7 448.5 413.1 368.8 344.6 302.9 287.1 279.3 277.9 278.6 286.2 290 277.3 247.6 212.7 184.3 163.6 156.3 164.4 163.5 164.6 165.2 166.7 170.2 176.6 184.5 192.9 203.8 215.7 228.5 245.6 260.4 280.7 304.6 327.7 354.1 380.1 406 427.8 457.1 484.9 502.9 524.2 530.7 530 514.6 499.3 487.2 487.8 479.8 470.8 451.4 435.5 423 426.4 422 398.2 378.3 354.4 305.8 273.4 251.1 225.4 204.1 189.4 170 153.4 152.5 152.7 153.2 161.4 170.6 192.4 194.8 201.4 209.9 213.7 219 224.2 233.1 251.9 276.5 292.4 333.6 356.4 393.3 414 427.8 432.7 436.8 453.2 463.1 471.3 477.8 479.1 465 451.1 434.5 424.2 407.9 395.3 392.5 379 366.7 358.8 353 358 349.3 373.4 383.7 385.5 377.5 378.9 376.8 367.9 358.8 350.5 345.5 329.8 311 302.9 276.1 246.7 233.1 226.5 190.2 170.1 152.3 135.3 100.6 88 85.4 70.1 59.3 28.3 5.4 2 1.4 1 0.6 0.3 0.1 0 -0.1 -0.1 0 -0.9 -1.2 -1.2 -0.2 0.3 0.8 1.2 1.6 2 2.4 4.7 5.9 8.1 10.5 14.8 16.6 16.3 16.1 14.6 12.7 12.1 12 12.4 11.9 12 13.1 11.4 1.9 -1.2 -1.2 -1.2 -1.2 -1.2 -1.2 -1.2
807 822.8 805.8 792.9 792.7 786.3 790.5 805.2 807.1 771.4 731.4 689.7 651.8 614 568.6 534.6 493.1 472 451.4 439.3 426.9 399.8 349.8 322 317.5 317.3 308.4 293.2 303.7 304.7 308.6 306 277.1 229.9 185.1 169.7 159.1 150.4 151.9 152.6 157.7 152.2 154.1 158.6 167.2 178.3 187 200.8 211.9 224.9 244.2 265.8 290.1 311.9 335.4 362.7 387.2 417 443.1 472.1 493.8 507.5 514.3 518.1 512.7 500.5 490.6 484.9 487.8 471.9 461.9 443.4 427.5 421.7 418.3 397.3 381.5 359 316 272.8 244.6 217.4 189.9 177.9 163.9 151.8 150.3 150.8 151.9 157.8 165.6 184.4 193.6 197.7 206.7 213.3 217.5 227.1 235.1 247.1 275.3 298.3 318 350.9 381.7 403.2 417.5 432 439.6 441.3 466.9 476.2 483.7 486.4 483.2 478 461.6 456.4 440 428.9 419.8 406.9 400.6 393.9 393 390.6 380.7 370.5 395.9 397.3 401 396.4 386.9 371.9 377 369 355.6 333.5 321.8 294.3 269.8 233 216 206.8 180.8 150.8 126.1 119.1 95.7 90.9 81.9 69.5 53.4 24.2 3.8 1.7 0.9 0.4 0 -0.3 -0.5 -0.7 -0.7 -0.7 -0.7 -1.2 -1.2 -1.2 -1.2 -0.4 0.1 0.6 1.1 1.5 2 2.3 2.2 5.7 7.9 9.5 14.5 15 15.1 14.5 11.8 9.8 9.4 10.3 10.6 9.7 9.7 7.6 -1.2 -1.2 -1.2 -1.2 -1.2 -1.2 -1.2 -1.2
820.3 826.7 821.5 813.6 800.9 807.1 818.7 835.8 838.9 790.8 754.4 689.1 633.6 592.8 541.8 508.7 485.4 455.4 431.4 411.5 394.7 371.3 354.3 353.5 355.6 350.9 327.3 321.9 312.7 320 319.1 319.9 294.4 244.5 201.6 170.5 159.9 150.4 140.9 140.5 138.9 141.3 139.6 143.9 150.9 165.1 173.9 186.4 197.1 210.8 232.4 249.4 272.9 301.1 323.2 350.8 373.9 403.4 429.4 457.5 480.8 497.5 503.8 511 512.7 503.2 494.2 484 483.6 474.2 458.1 445 432 422.9 419 396.2 382.7 360 321.8 271 243.3 214.1 187.9 169.1 160.3 152.9 150.8 149.1 150.7 155.5 163.6 176.3 188.4 199.4 204.6 212.9 219.4 228.2 234.7 243.1 261.1 293.8 312.8 336.2 359.8 379.7 400.7 414.8 430.5 437.2 460.2 478.8 487.4 493.2 491.9 488 476.3 469.1 457 451.8 447.5 430.4 420.6 417.4 418.8 416.1 411.6 403.5 396.7 396.1 402.1 395.6 379 371.6 369.3 350.1 333.4 313.8 294.7 282.9 267.7 249.5 220.2 198.2 169.3 150 131.8 106.2 79.1 71.1 67.4 59.1 41.1 9.3 2.6 1.4 0.5 -0.2 -0.6 -1.2 -1.2 -1.2 -1.2 -1.2 -1.2 -1.2 -1.2 -1.2 -1.2 -1.2 -0.3 0.2 0.7 1.2 1.6 1.9 2.3 4.8 6.3 7.8 9.1 9.5 9.9 9.9 9.5 9.5 9.3 11.1 9.4 8.1 7.2 2.1 -1.2 -1.2 -1.2 -1.2 -1.2 -1.2 -1.2 -1.2
833.1 842.8 836 832.1 827.3 836.6 851.7 859.8 848.6 789.2 733.6 699.7 646.7 571.7 532.9 498.6 465.6 446.3 418.5 400.1 385.2 369.9 378.7 397.4 385.8 374.9 356.8 345.2 335.1 335.1 346.1 340.6 313 264.2 205.9 181.9 163.7 155.2 143 133.1 129.9 128.7 129.5 132.8 138.9 147.8 158.8 172.1 185.2 198.8 215.6 237.8 259.4 283 305.6 332.9 362.6 388.9 413.5 445 474.1 489.4 500.8 504.5 505.5 502.1 495.5 481.9 465.9 475.6 465 443.9 428.1 421.5 413.2 402.6 374.7 353.2 322.7 271 236.8 213.2 190.6 172.2 161.1 153.8 151.8 148.4 149.6 154.9 163.1 174.1 186.4 192.6 202.6 211.5 220.9 228 236.3 241.2 247.4 278.6 313.1 322.1 343.5 361.2 379.4 400.8 417.1 432.4 449.4 479.4 489.9 497.9 502.2 495 488.9 489.2 478.4 472.6 465.7 456.1 446.6 437.4 438 434.2 431.4 421.9 417 409.3 408.6 402.7 392 381.4 369.9 354.2 339.5 317.5 289.9 275 257.5 239.5 200.7 181.4 159.5 136.6 116.6 97.1 65.4 63.1 47.4 40.6 23 7.9 2.2 1.1 0.1 -1.2 -1.2 -1.2 -1.2 -1.2 -1.2 -1.2 -1.2 -1.2 -1.2 -1.2 -1.2 -1.2 -0.6 -0.1 0.4 0.8 1.2 1.6 2 2.4 4.5 5.8 7 8 9.1 9.2 9.3 9.5 9.2 7.4 7.8 7.1 3.7 -1.2 -1.2 -1.2 -1.2 -1.2 -1.2 -1.2 -1.2 -1.2
848 856.8 845.2 846.9 850.8 857 863.1 867.3 832.5 798.4 764.8 725.9 656.7 572.8 527.1 493.1 466.6 441.7 417.4 400.6 389.2 393 426.6 431.2 417.5 407.6 388 375.6 369.3 364 373.5 364.1 301.5 255.2 221.8 196.9 178.3 160.8 148.8 135.6 129 122.6 120.3 121 127.7 134 145.2 158.8 175.2 187.4 207.6 224.1 246.2 266.4 286.7 313.7 344.8 378.8 404.6 430.9 463.7 482.6 496.4 501.8 504.8 498.8 489.3 479.4 462.8 461.6 453.7 450.1 428 415.9 412.8 389 364.2 340.8 322 277.8 242.2 211.9 196.1 188.8 161.6 155.4 150.4 148.6 147.4 155.2 161.7 169.2 180.1 191.6 200.1 212.8 219.8 225.3 234.2 241.3 241.7 261.1 285.8 307.8 327.2 337.2 352.7 377.6 393 413.2 437 475.6 489 500.8 501.8 502.6 498.5 489 489.2 488.2 482 476.7 465.2 459.3 451.6 444.8 439.2 437.7 425.9 421.2 409.3 403.5 394 383.6 370.7 361.2 339 325.8 308.2 271.8 247.2 234.7 209.4 179.5 138.6 112.3 90.3 74.8 56.2 40.2 21.1 7.8 3 2.3 1.8 0.8 -0.2 -1.2 -1.2 -1.2 -1.2 -1.2 -1.2 -1.2 -1.2 -1.2 -1.2 -1.2 -1.2 -1.3 -0.9 -0.3 0.1 0.4 0.8 1.2 2 2.4 0.4 4 5.8 7.3 8.2 8.5 8.6 8.4 8.3 8.5 7.5 6.8 3.1 -1.2 -1.2 -1.2 -1.2 -1.2 -1.2 -1.2 -1.2 -1.2
846.6 835.2 837.5 843.3 849.4 852.1 862.1 876.8 872.2 838.2 781.8 701.9 643.1 582.7 540.2 495.6 468.7 443.8 429.1 406.9 403 415.3 433.3 456.7 446.4 433.4 421.6 408.6 405.2 392.8 378.2 351.3 322.1 274.5 239.6 215.2 197.9 175.8 160.9 146.5 127.8 120.4 114.5 113.2 115.6 122.3 134 147.2 160.9 174.6 195.9 214.3 236.3 254.1 272.1 298.8 326 359.7 396.7 430.8 460.6 481.8 495.7 503 504.8 502.7 490.6 473.2 464.5 450.2 446.7 442.2 426.1 413.2 409 395.6 357.1 329.7 313.1 282.9 241.8 217.7 195.5 183.1 167.8 156.6 149.8 147.5 143.1 152.7 159.8 163.6 172.1 186.4 198.3 210.4 216.7 222.3 228.7 238.7 240.1 241.4 254 272.2 310.1 317.2 330.3 352.2 379.2 396.1 414.2 460.4 485.7 504.2 506.5 504 497 494.4 492.5 494.1 494.6 491.1 489.5 474.4 466.8 457.9 446.8 445.4 442.3 434.3 423.8 406 397.2 394.3 367.1 350.9 323.8 304.8 286.4 262.4 242.1 224.4 199.7 172.9 147 128.4 106.9 77 49.1 41.2 19.6 2.2 0.3 0.3 0.7 0.2 -0.3 -1.2 -1.2 -1.2 -1.2 -1.2 -1.2 -1.2 -1.2 -1.2 -1.2 -1.2 -1.2 -1.2 -1.2 -0.7 -0.3 0 0.4 1.2 2.2 2.4 2.4 3.6 4.9 6.2 6.9 7.5 7.5 7.6 7.9 7.8 6.9 6 -1.2 -1.2 -1.2 -1.2 -1.2 -1.2 -1.2 -1.2 -1.2 -1.2
813.4 810.5 819.8 828.3 838.6 848.2 866.5 874.2 883.6 846.4 798.9 722.3 668.1 581.8 542.3 508.8 482.7 453.5 431.1 427 419.6 434 472.5 469.7 472 465.2 455.6 447.1 438.9 428.6 409.6 381.5 358.8 301.5 261.2 246 218.8 198.5 170.5 146.8 133.5 119.4 112.3 108.1 106.9 112.9 121.3 133.9 150 165.2 182.5 203.4 216.7 240.7 257.5 286.1 314.9 348.4 388.6 423.2 462.6 480.6 499 502.6 502.3 498.6 487.8 476.3 466.3 450.7 439.9 429.2 424.6 411.6 401.5 390.8 366.2 324 298.3 274 251.9 229.7 203.5 185.6 171.7 158.9 150.2 145.5 142 151 158.8 161.8 166.3 182 198.6 208.9 213.2 216.2 220.2 226.3 229 229.2 239.6 249.7 276.3 283.8 302.7 329.3 338.8 363.3 396.9 448.3 474.1 492.7 500.6 504.8 501.5 494.9 494.4 498 495.9 500.8 492.8 487 472.5 456.1 451.7 442.2 435.6 429.2 421.7 410.1 394.3 387.2 367.5 360.1 332.3 303.9 271.2 245.6 212.8 199.3 186.8 170 144.7 114.9 89.5 66 39.2 31.7 9.6 -1.2 -1.2 -1.2 -0.5 -0.9 -1.2 -1.2 -1.2 -1.2 -1.2 -1.2 -1.2 -1.2 -1.2 -1.2 -1.2 -1.2 -1.2 -1.2 -1.2 -1.2 -0.7 -0.3 0.5 1.5 2.4 2.4 2.4 3.1 4.1 4.8 5.6 6.5 6.9 7.1 7.2 6.8 6.3 4.4 -1.2 -1.2 -1.2 -1.2 -1.2 -1.2 -1.2 -1.2 -1.2 -1.2
773.9 775.4 797.5 812.8 825 843.2 860.6 848.3 811.7 769.8 739 710.4 651.7 575.4 550 547.5 514.5 474.5 443.5 433.1 431.5 451.4 479.1 492.9 492.2 492.3 492.9 481.8 472.1 475.4 441.3 420 376.1 335.4 301.7 263.9 242.7 217.1 187.7 159.8 137.4 122.4 112.6 105.7 102.6 104 110.6 117.6 134.6 152.2 173.7 186.1 204.7 222.3 249 274.4 304 335.4 367.4 416.1 452.9 477.4 491 508 505.4 496.4 489.4 477.1 464.9 450.2 438 428.7 418.1 409.7 400 384 364.1 334.5 310.8 287.3 267.1 233.6 217.3 198.9 175.5 161.4 152.5 144.4 139.9 149.3 156.9 161.1 160.2 175.4 198.7 205.2 210.9 211.8 211.2 216 216.3 219.1 227 230.3 244.5 266.9 278.5 303.7 330.1 350.4 376.6 428 469.3 475.5 484.2 492.8 501.4 498.2 498.1 495.1 491.8 487.9 478.5 470.8 456.2 448.4 445.9 439.2 432 424.2 416.2 410 394.8 377.5 367.6 357.9 338.1 309.9 272.5 229.2 206.9 180.1 146.5 146.7 126 95.9 75.3 54.4 24.3 8.8 -1.2 -1.2 -1.2 -1.2 -1.2 -1.2 -1.2 -1.2 -1.2 -1.2 -1.2 -1.2 -1.2 -1.2 -1.2 -1.2 -1.2 -1.2 -1.2 -1.2 -1.2 -1.2 -1.2 -0.2 0.7 1.7 2.4 2.4 2.4 2.8 3.4 4.7 5 5.4 5.8 6.2 6 6 5.7 3.6 -1.2 -1.2 -1.2 -1.2 -1.2 -1.2 -1.2 -1.2 -1.2 -1.2
734.8 754.3 782.4 801.5 823.1 828.2 841 838.9 811.4 763.8 728.3 670.7 619.7 589.8 564 551.7 520.6 482.1 462.4 446.5 450.9 465.6 501.9 522.3 519.1 523.6 518.9 514.5 511 500.3 467.3 440.4 411.2 376.7 331.8 307.1 281.9 230.3 197 170.8 146.2 127.4 115.2 105.9 100.9 95.9 100.3 107.4 120.9 142.1 166.2 178.2 193.2 210 242.2 270 294.8 322.9 352.5 393 429.2 456.6 483.5 499.4 504.8 508.3 491.5 476.9 465.3 453.5 437.7 426.5 413.8 408.2 394.7 378.2 360.3 339.9 313.6 298.6 277.5 253 230 203.3 178.7 163.7 158.7 146.9 141.1 144.2 154.4 163.5 157.7 169.3 183.7 195.8 207 207.8 206.4 206.7 210.3 209.5 209 218 225.2 238.5 256.3 275.9 309.5 328 356.4 396.7 454 471.6 475.7 477.1 482 491.3 489.6 488.4 485.8 483 467.5 454 450.6 439.8 430.8 429.6 422.2 414.5 402.4 394.5 385.6 370 358.2 346.1 331.6 302.6 270.7 231.1 198 171.8 131.5 117.1 98.3 74.4 49.6 27.1 7.8 -1.2 -1.2 -1.2 -1.2 -1.2 -1.2 -1.2 -1.2 -1.2 -1.2 -1.2 -1.2 -1.2 -1.2 -1.2 -1.2 -1.2 -1.2 -1.2 -1.2 -1.2 -1.2 -1.2 -1.2 -1.2 1.1 2.1 2.4 2.7 3.3 3.1 3.8 4.1 4.4 4.8 4.9 5.4 5.5 6.1 6.1 -1.2 -1.2 -1.2 -1.2 -1.2 -1.2 -1.2 -1.2 -1.2 -1.2 -1.2
691.6 733.2 755.6 780.2 806.8 813.1 815.6 813.5 805 724.1 681.4 646.9 617.2 594.1 574 560.1 533.6 503.5 487.9 471.7 477.5 487.6 509.3 535 556.4 564.4 549.9 542.3 542.2 539.6 514 469.8 438.6 402.8 360 351.4 309 258.6 212.3 175.8 160.2 133.4 118.8 107.8 101.3 93.2 93.3 98.2 107.5 128.4 155.3 177.2 187.3 202.5 237.2 266 286.3 309.2 338.1 371.9 405.5 433.7 467.5 490.2 493.8 503.3 499.7 486.2 469.8 453 440.4 429.4 422 414.1 395.3 381.8 363.6 342.2 323.1 304.4 290.4 265.1 243.5 204.8 181.3 164.5 155.4 146.5 140 142.7 149.7 158.9 158.2 162.6 173.3 189.5 196.4 202.2 202.8 198.8 205.6 202.9 196.3 203 214.8 218.2 228.6 248 273.7 305.9 329.2 375.9 429.7 455.9 468.2 477.4 474.4 474.5 475.4 470.7 464.5 457.7 443.6 440.8 432.8 427.1 413.3 410 398.7 392.5 382.1 368 358.7 355.2 344 326.1 312.6 282.4 260.8 230.4 200.3 167 136.5 89.5 49 36.9 14.7 -1.2 -1.2 -1.2 -1.2 -1.2 -1.2 -1.2 -1.2 -1.2 -1.2 -1.2 -1.2 -1.2 -1.2 -1.2 -1.2 -1.2 -1.2 -1.2 -1.2 -1.2 -1.2 -1.2 -1.2 -1.2 -1.2 -1.2 1.4 2.7 2.9 3.3 3.6 3.9 4.6 4 4.1 4.3 4.5 4.7 5.3 4.5 -1.2 -1.2 -1.2 -1.2 -1.2 -1.2 -1.2 -1.2 -1.2 -1.2 -1.2 -1.2
669.9 697.8 721 738.6 768.1 800.9 801.4 789.1 779.3 736.6 679.4 651.3 624.8 601.2 585.3 574.3 557.9 555 527.9 516.3 506.9 512.7 522 544.9 575.6 591.5 585.7 580.8 575.1 566.1 527 495.9 469.9 439.6 410.4 381.6 328.5 285.5 219.7 189.4 165.8 145.4 122.7 108.1 98.9 93.2 87.8 88.5 95.2 115.5 148.7 173.6 187.8 191.6 222.1 252.3 273.2 301.2 328.4 360.3 392.7 418.7 450.5 475.5 488.3 493.8 499 495.8 484.2 469.4 453.7 434.8 424.2 417.9 396.5 391.6 374.5 353.2 323.3 306.2 296.5 273.3 245 215.8 187.6 171.1 156.6 143.3 136.1 137.9 144.6 151.6 152.5 153.6 161.5 174.6 184.5 191.9 201.3 192.2 194 197.7 192.3 190.5 198.6 205.2 215.4 231.2 256.7 284.1 314.4 349 398.7 437.2 448.7 462.8 468.6 471.9 469.2 463.2 456.1 438 426.7 421.3 414.6 405.5 396.4 387.7 379.7 370.4 356 344 331.2 323.5 310.1 294.8 274 260 232.8 214.5 199.3 152.6 118.1 73 30.7 8.8 -1.2 -1.2 -1.2 -1.2 -1.2 -1.2 -1.2 -1.2 -1.2 -1.2 -1.2 -1.2 -1.2 -1.2 -1.2 -1.2 -1.2 -1.2 -1.2 -1.2 -1.2 -1.2 -1.2 -1.2 -1.2 -1.2 -1.2 -1.2 0.9 3.2 3.1 2.8 2.9 3.4 4.4 3.9 4.1 4.3 4.6 4.3 2.6 -1.2 -1.2 -1.2 -1.2 -1.2 -1.2 -1.2 -1.2 -1.2 -1.2 -1.2 -1.2 -1.2
641.6 665 692.8 719 737.3 762.6 766.5 762.1 758.9 724.5 695.6 675.9 646.5 625.4 611.3 601.5 594.9 583.6 564.5 546.3 537.5 537.5 545.1 566.5 594.1 619.4 629.1 624.6 612.8 585.5 527.8 477.1 456.8 446.9 415.6 380 340.5 277.4 233.4 194.7 169.4 151.8 130.7 113.4 99.8 90.6 80.2 81.3 86.6 98.2 129.8 153.9 166.1 184.6 200.9 226.9 257.2 285.4 314.2 347.1 379.8 412.9 443.4 470.1 484.6 496.7 492.6 496.8 492.4 482.3 463.1 443.8 426.2 419.7 404 387.5 373.9 361.7 325.4 301.3 283.7 274.9 260.9 224.9 195.5 173.2 157.3 146 135.2 135.4 137 139.5 142.4 146.5 152 163.9 171.9 179 191.7 186.1 182.8 188.5 189.3 176.7 193.1 203.7 211.5 227.1 248.1 271.4 292.3 324.9 378.4 416.2 429.1 440.5 452 458.3 452.3 446.1 437.4 423.1 413.5 399.6 383.3 368.9 359.4 366 362.1 345.4 322 305.7 300.5 294.3 271.9 252.7 238.3 216.8 201.8 192.8 159.3 125.8 85.5 48.1 10.1 -1.2 -1.2 -1.2 -1.2 -1.2 -1.2 -1.2 -1.2 -1.2 -1.2 -1.2 -1.2 -1.2 -1.2 -1.2 -1.2 -1.2 -1.2 -1.2 -1.2 -1.2 -1.2 -1.2 -1.2 -1.2 -1.2 -1.2 -1.2 -1.2 -1.2 2.6 2.7 2.4 2.4 3.1 3.9 4 4.1 4.4 4.2 3.7 -1.2 -1.2 -1.2 -1.2 -1.2 -1.2 -1.2 -1.2 -1.2 -1.2 -1.2 -1.2 -1.2 -1.2
610.2 635.6 664.2 689.2 717.5 733.1 737.5 747 749.4 756 731.1 698.5 680.4 680.9 675.5 663.1 652.3 620.9 597.2 583.4 573 569.6 574.7 611.8 638.9 645 648.2 627.4 612.2 561.2 516.2 488.8 437.2 389.1 372.9 346.5 306 257.7 226.7 196.9 174 158.1 136.6 117.9 103.8 90.4 81.3 76.1 80.7 86.8 108.7 133.8 158.5 176.3 198.3 216.8 244 278.2 306 339.8 372.8 406.7 437.8 463.5 479.5 494.6 491.7 492.2 490.5 480 474.2 451.1 425.4 410.8 405 385.9 378 357.4 329.4 297 285.6 266.4 251.7 230 199.9 177.1 160.5 146.8 134.7 136.8 133 133 133.7 138.4 143.3 153.3 159 164.7 170.1 175 170.8 173.7 177.7 179.2 182.5 193.3 203.7 219.4 242.7 262.6 280.2 302 340.4 387.3 412.8 422.2 429.4 429.5 420 413.1 404.4 392.7 385 369.9 355.9 343.8 352.5 346.1 337.8 328.2 314.1 300.9 278.2 239.2 216.9 209.9 201.7 182.6 169.7 151.9 129 100.7 75.7 39.8 2.9 -1.2 -1.2 -1.2 -1.2 -1.2 -1.2 -1.2 -1.2 -1.2 -1.2 -1.2 -1.2 -1.2 -1.2 -1.2 -1.2 -1.2 -1.2 -1.2 -1.2 -1.2 -1.2 -1.2 -1.2 -1.2 -1.2 -1.2 -1.2 -1.2 -1.2 2.5 1.1 2.4 2.4 3 3.8 4.6 4.2 3.7 3.7 3.1 -1.2 -1.2 -1.2 -1.2 -1.2 -1.2 -1.2 -1.2 -1.2 -1.2 -1.2 -1.2 -1.2 -1.2
578.8 614.9 644.5 672.4 706 723 733 745.4 756.2 764.2 771 764.9 750 739.6 726.6 707.3 689.5 675.1 637.8 623.7 605.5 607.6 632.9 660.1 676.3 675.2 656.2 622.8 595.3 574.7 545.5 502.9 468.7 414.8 355.5 318.2 290.6 257.3 225.7 203.1 182.9 164.7 145.1 123.3 107 91.8 81.2 74.7 71.1 78.3 95.6 114.2 136.9 164 196.3 216.3 237.7 266.4 292.9 330.6 361.2 394.8 434.4 457.8 475.8 492.1 491.7 490.6 494.5 485.1 472.4 454.8 435.4 410.4 388.8 374.7 363.3 345.1 324.1 297.8 271.5 250.5 229 207.6 193 179 162.7 148 135.6 131.3 130.9 126.5 127.2 130.6 133.9 135.9 141.1 145.8 151.7 156.7 154.9 156.9 161.5 167.9 165.4 179.4 191.1 206.7 222.2 243.3 265.9 290 307 340 371.1 400.7 403.5 392.1 380.1 377 368.9 365.8 360.5 356.7 347.7 334.2 329.1 333 323.9 316.5 287.9 275.2 259.3 226.8 190.8 177.1 164.6 150.2 135.7 130.3 100.1 71.6 45.6 14.5 -1.2 -1.2 -1.2 -1.2 -1.2 -1.2 -1.2 -1.2 -1.2 -1.2 -1.2 -1.2 -1.2 -1.2 -1.2 -1.2 -1.2 -1.2 -1.2 -1.2 -1.2 -1.2 -1.2 -1.2 -1.2 -1.2 -1.2 -1.2 -1.2 -1.2 -1.2 2.1 -1.2 2.7 3.6 3.5 4.2 4.5 3.8 2.8 2.5 3.5 -1.2 -1.2 -1.2 -1.2 -1.2 -1.2 -1.2 -1.2 -1.2 -1.2 -1.2 -1.2 -1.2 -1.2
572.9 595.7 620.9 650.7 679.2 704.3 728.8 742.2 752.2 759.2 774.6 784.6 784.7 780.3 760.5 745.8 731.6 704.3 677.1 656.5 686.9 662.2 703.4 685.7 707.7 689.2 665 629.5 587 548 529.2 492.3 464.6 427.9 366.9 322.1 287.2 249.1 226.3 205 186.9 166.6 153.4 127.8 108.3 91 79.6 74.5 65.8 73.2 86.3 105.9 123.7 151.5 192.1 222.5 229.9 254 286.9 320.9 353.6 388.3 423.7 453.1 473 486.2 495.1 490.7 487 485.5 468.3 452.7 442.7 415.8 391.3 366.1 348.8 338 326.3 306.3 277.6 257.8 236.1 214.6 201.2 178.4 159.4 144 134.5 122.5 127.7 122.7 123.3 121.9 124.3 121.2 123.2 129.6 134.8 141.1 145.2 142.9 146.6 152.8 154.3 168.2 182.5 199.5 213.7 224.5 244.2 271.3 294.7 323 331.6 342.3 357.6 359.8 359.9 348.8 352.1 354.5 355 348.4 339.8 326.6 309.1 297.9 290.2 278 253.6 242.3 221.6 192.8 168.6 150.9 146.1 127.1 114 93.2 68.9 30.6 18.2 1.2 -1.2 -1.2 -1.2 -1.2 -1.2 -1.2 -1.2 -1.2 -1.2 -1.2 -1.2 -1.2 -1.2 -1.2 -1.2 -1.2 -1.2 -1.2 -1.2 -1.2 -1.2 -1.2 -1.2 -1.2 -1.2 -1.2 -1.2 -1.2 -1.2 -1.2 -1.2 1.7 -1.2 3 4.2 4.1 3.5 4.4 4 3 2.5 1.9 -1.2 -1.2 -1.2 -1.2 -1.2 -1.2 -1.2 -1.2 -1.2 -1.2 -1.2 -1.2 -1.2 -1.2
547 574.8 602.9 631.8 662.3 689.6 712.4 731 742 757.9 771.6 785.2 803.6 813.2 812.7 791 780.3 744.1 713.9 747.7 735.4 730 738.2 736.3 714 688.9 669.4 627.1 584.7 533 484.6 452.5 439.6 414.5 371.7 327 288.6 261 246.6 232 205.5 187.1 162.1 138.8 106.9 90.8 80 70.7 66.3 69.3 80.8 98.4 117.2 137.3 185.6 210.6 224.8 242.5 274 314.3 350.3 381.8 411.8 449.9 472.6 486.7 492.9 492.7 485.5 484.6 472.6 456.2 441 426.9 396.5 364.5 345.7 328.2 313.8 298 275.4 245.9 223.5 210.6 201 174.9 158 142.7 134.7 124.5 120 118.7 119 117.6 113.8 111.4 109 114.3 118.7 130.6 133.5 132.1 131.9 138.4 145.2 159 174.6 190.3 213.4 228.1 247.4 269.8 296.1 314.2 316 328.5 337 341.7 339.8 332 327.7 320.5 316.9 310.2 301.1 291.7 279.5 264.1 253.6 232.4 227.5 205.7 187.3 159 138.4 127.8 125.3 110.2 103.8 85.9 60.1 26.1 10 -1.2 -1.2 -1.2 -1.2 -1.2 -1.2 -1.2 -1.2 -1.2 -1.2 -1.2 -1.2 -1.2 -1.2 -1.2 -1.2 -1.2 -1.2 -1.2 -1.2 -1.2 -1.2 -1.2 -1.2 -1.2 -1.2 -1.2 -1.2 -1.2 -1.2 -1.2 -1.3 -1.1 -0.8 1.4 3.7 4.1 3.7 4 4.9 4.2 4.6 -1.2 -1.2 -1.2 -1.2 -1.2 -1.2 -1.2 -1.2 -1.2 -1.2 -1.2 -1.2 -1.2 -1.2 -1.2
530 558.4 591.5 624.4 651.6 680.4 707.8 721.7 740.1 754.2 767.6 782 800.1 812 816.1 817.4 816.4 808.4 782.3 777.6 771.8 757.6 752.6 734.2 713.3 692.2 670.3 638.8 558.6 513.1 469 429.6 416.1 394.8 349.5 327 311.3 291.4 270.8 258.7 240.6 202.4 146.3 125.9 100.8 84.5 74.7 69.3 64.4 66 74 90.3 115.3 131.6 156.5 186.5 208.4 230.4 262.4 311.8 355.7 377.6 405.8 439.6 468 480.8 490.2 491.6 480.5 483.2 467.1 457.8 448 422.6 398 365.5 344.9 333.3 305.4 280.9 257.3 235.5 219.4 204 186 175.1 152.5 141.3 133.9 125.9 117.4 115.9 112.9 109.7 107.8 106 103.9 102.7 108.1 114.1 117.9 120.5 119.1 123.6 131.7 141 156 178.3 201.3 224.2 242.8 266.9 288.6 300.6 313 325.4 332.8 335.4 331.8 326.7 319.1 311.5 300.2 287.4 273.1 260.9 242.4 219.8 202.9 187.8 174.9 157.2 137.3 117.2 98.3 96.9 86.3 72.8 72 52.9 16.3 3.8 -1.2 -1.2 -1.2 -1.2 -1.2 -1.2 -1.2 -1.2 -1.2 -1.2 -1.2 -1.2 -1.2 -1.2 -1.2 -1.2 -1.2 -1.2 -1.2 -1.2 -1.2 -1.2 -1.2 -1.2 -1.2 -1.2 -1.2 -1.2 -1.2 -1.2 -1.2 -0.9 -0.6 -0.3 0 1.1 2.8 4.2 3.7 3.9 4.6 5 1.2 -1.2 -1.2 -1.2 -1.2 -1.2 -1.2 -1.2 -1.2 -1.2 -1.2 -1.2 -1.2 -1.2 -1.2 -1.2
518.2 545.1 578.1 612.9 638.8 664.7 693.4 713.3 728.9 747.4 762.4 776 794.8 812.6 813.2 811 807.4 800.2 791.8 773.3 766.4 754.5 746 738.8 712 688 662.6 615 546.5 496.1 460.4 411.9 396.5 381 367.2 352.8 343.5 312.9 291.4 276.9 239.3 211.6 161.7 119.3 100.4 81.8 72.2 65.9 63.1 59.8 68.8 85.2 107.9 127 151.9 178.9 197.9 220 245.1 285.2 343.3 372.6 397.3 428.9 460.9 470 483.2 487.8 476.7 480 466.1 457.5 444.7 430.1 400.7 365.9 344.7 334.2 303.3 279 256.6 224.3 210.9 196.6 179.8 165.1 152.9 143.4 136.2 127.4 124.8 118.3 114 110.5 107.6 102 101.4 100.5 100 101.6 106.4 107.8 109.1 114.6 120.5 131.1 146.4 168.6 190.6 214 234.8 256.6 270.2 284 297.7 307.8 314.6 320.2 323.6 316.6 307.2 295.4 286.5 278.9 264.6 242.9 217.7 205.4 176.6 176.4 154 128 107.3 92 75.8 64.1 38.9 25.1 18.7 7.7 1.6 -1.2 -1.2 -1.2 -1.2 -1.2 -1.2 -1.2 -1.2 -1.2 -1.2 -1.2 -1.2 -1.2 -1.2 -1.2 -1.2 -1.2 -1.2 -1.2 -1.2 -1.2 -1.2 -1.2 -1.2 -1.2 -1.2 -1.2 -1.2 -1.2 -1.2 -1.2 -1.2 -0.6 0.1 0.5 0.8 1.3 2.4 4.3 3.7 4.1 4.4 2.3 -1.2 -1.2 -1.2 -1.2 -1.2 -1.2 -1.2 -1.2 -1.2 -1.2 -1.2 -1.2 -1.2 -1.2 -1.2 -1.2
506.5 534.4 563.5 601.8 630.7 655 683.1 703.8 720.7 738.8 754.8 763.8 778.4 789.5 793.8 796 793 792.2 779.7 769.9 757.5 750.4 744.8 735.2 711.3 681.3 636.5 583.1 531.3 484.6 437.6 414.8 399.3 388.7 384.2 371.7 352.9 327.9 304.1 279 256.7 222.3 164.5 132 96.2 84.4 72.4 63.8 60 56 67.6 74.8 90.5 107.8 132.6 157.6 181.3 213.1 242.3 277.5 321.2 355.9 384.6 419.8 452.4 466.1 472.2 478 465.7 471.4 464 457.8 442.4 429.3 402.8 370.7 344.8 325.4 306.7 285.6 260.3 235.1 215.6 199.3 182.3 165.1 151.7 142.5 139 134.1 128.4 122.3 119.3 115.9 112.8 109.8 101.8 100.3 99.6 98.1 98.4 98.6 101.1 105.6 111.8 126.4 140.4 156.8 181.5 200.6 222.6 247.6 255.2 266.4 282 296.1 310.4 312.2 328.2 318.5 305.5 294.4 277.4 262.2 247.9 228.4 206.1 187.3 172.2 147.3 127.9 114.7 93.8 75.5 60.5 42.4 24.7 9.5 4.6 1.4 -1.2 -1.2 -1.2 -1.2 -1.2 -1.2 -1.2 -1.2 -1.2 -1.2 -1.2 -1.2 -1.2 -1.2 -1.2 -1.2 -1.2 -1.2 -1.2 -1.2 -1.2 -1.2 -1.2 -1.2 -1.2 -1.2 -1.2 -1.2 -1.2 -1.2 -1.2 -1.2 -1.2 -0.4 0.2 0.9 1.5 1.9 3.8 4.2 4.5 4.6 3.2 -1.2 -1.2 -1.2 -1.2 -1.2 -1.2 -1.2 -1.2 -1.2 -1.2 -1.2 -1.2 -1.2 -1.2 -1.2 -1.2 -1.2
487.9 517.8 549 584.5 616.2 647.4 665.8 688 704.6 722.9 738.1 749.7 760.8 766.5 772.3 773.3 772.9 774.1 766.8 757.9 749.9 739 730.7 720.6 697.1 661.5 597.3 558.1 516.3 480.5 469.9 446.6 411.1 401.9 402.9 382.9 350.8 323.2 316.6 295.5 267 233.5 176.9 122.9 99.1 83.8 72.4 64.2 58.3 52.4 58.8 66.5 75.5 95.7 120.6 141.9 165.4 195.5 237.9 267.6 309.6 347.9 384.7 415.5 452.8 464 461.8 452.1 452 456.7 461.7 461 440.2 419.2 393.7 372.3 350.7 322 307.5 284.5 263.2 238.4 216.2 197.4 181.6 169.1 158.6 146.2 145.1 139.8 136 130.4 126.4 127.1 122.9 115.8 109.1 104.5 100.9 99 96.6 97 97.9 100.6 105.2 116.3 130.4 144.9 175 193.7 208.1 226.6 243.8 263 273.3 287.4 294.5 295.6 309.2 306.9 297.7 284.6 266 244.3 226.6 201.8 185.9 168.2 152.7 134.7 114.8 94.6 81.4 70.7 42.7 32.2 13.5 7.2 1.7 0.3 -1.2 -1.2 -1.2 -1.2 -1.2 -1.2 -1.2 -1.2 -1.2 -1.2 -1.2 -1.2 -1.2 -1.2 -1.2 -1.2 -1.2 -1.2 -1.2 -1.2 -1.2 -1.2 -1.2 -1.2 -1.2 -1.2 -1.2 -1.2 -1.2 -1.2 -1.2 -1.2 -1.2 -0.4 0.3 1 1.6 2.3 3.1 4 4.9 4.3 2.7 -1.2 -1.2 -1.2 -1.2 -1.2 -1.2 -1.2 -1.2 -1.2 -1.2 -1.2 -1.2 -1.2 -1.2 -1.2 -1.2 -1.2
472.3 502.3 532.1 569.6 607.8 636.8 655.3 669.6 688.2 705 721.2 731.9 740.4 748.6 755.8 758.9 762.6 754.6 753 748.8 738.6 724.4 717.6 705.4 684.8 634.4 587.7 549.4 528.5 502.3 499.2 475.3 440.8 414.6 399 385.2 359 346.6 332.9 310.5 278.5 231.7 170.3 134 102.9 82 71.7 65.9 59.5 53.4 55 61.4 69.4 85.7 106.4 129.8 149.8 181.9 220.3 261.8 288.5 337.4 373.5 403.2 447.1 460.9 458.6 454.9 448.5 446.6 447.8 438.8 429.9 413.8 394.3 370 348.9 323.2 301.3 280.9 261.9 238 215.6 198.6 179 167.6 164.3 163.4 156.8 151.7 147.8 146.7 142.2 137.9 133.9 125.2 119.2 114.1 109.2 104.1 100.7 99 95.2 98.4 102.8 108.6 116.8 134.6 157.4 180.9 191.6 208.7 233.1 243.5 258.6 269.2 272.9 275.4 284.8 282.5 275 261 242.5 225.6 207.8 196.4 176.3 145.3 136 122.1 108.2 84.2 66.4 54.7 39.5 20.6 11.7 5.1 1.3 -0.2 -1.2 -1.2 -1.2 -1.2 -1.2 -1.2 -1.2 -1.2 -1.2 -1.2 -1.2 -1.2 -1.2 -1.2 -1.2 -1.2 -1.2 -1.2 -1.2 -1.2 -1.2 -1.2 -1.2 -1.2 -1.2 -1.2 -1.2 -1.2 -1.2 -1.2 -1.2 -1.2 -1 -0.3 0.3 1 1.6 2.2 4.2 4.7 5.2 4.2 2.1 -1.2 -1.2 -1.2 -1.2 -1.2 -1.2 -1.2 -1.2 -1.2 -1.2 -1.2 -1.2 -1.2 -1.2 -1.2 -1.2 -1.2
456.4 483.6 516.6 556.6 596.4 619.8 642.9 655.4 671.1 685.4 700.6 712.6 720.1 727.7 734.5 734.6 739.2 740.4 733.5 727.5 722.5 711.9 700.3 687.4 668.2 636.2 592.2 570.8 538.6 530 512.8 493.3 462.8 436.3 407.4 403.7 385 366.2 337.4 312.9 281.1 239.8 176.3 138.3 110.6 85 74.2 64.5 59.2 51.4 53.2 57.5 65.2 80.5 96.8 112.9 135.1 163.4 197 248.3 277.8 319.3 367.1 390.5 422.5 448 460.4 447.7 440.3 446.7 446.1 435.5 426.9 415 401.6 367.9 342.1 316.5 294.8 277.8 257.3 238 218.4 204.6 187 187.5 181.1 180.2 174.7 171.5 166.5 163.6 159.6 154.4 148.4 142.1 133.3 127.4 120.9 113 102.5 97.1 95.5 99.5 105.1 115.7 129.3 140.4 152.9 166.4 189.2 205.3 219.3 225.5 241.8 256.9 261.9 260.9 266.1 267.3 260.4 249.5 229.8 216.4 199.4 183 164.7 143.6 119.8 108.9 91.6 80.3 57.6 38.2 25.3 17 11.8 4 0.8 -1.2 -1.2 -1.2 -1.2 -1.2 -1.2 -1.2 -1.2 -1.2 -1.2 -1.2 -1.2 -1.2 -1.2 -1.2 -1.2 -1.2 -1.2 -1.2 -1.2 -1.2 -1.2 -1.2 -1.2 -1.2 -1.2 -1.2 -1.2 -1.2 -1.2 -1.2 -1.2 -1.2 -1.1 -0.4 0.2 0.9 1.5 2.1 3.3 4.7 5.2 4.3 1.7 -1.2 -1.2 -1.2 -1.2 -1.2 -1.2 -1.2 -1.2 -1.2 -1.2 -1.2 -1.2 -1.2 -1.2 -1.2 -1.2 -1.2
443.2 471.7 503.6 536.1 565.5 600.1 628.9 648 658 666 682.8 690.5 700 707.4 709.1 714 713.3 716.4 715.5 708.9 698.3 692.4 683.5 673.9 653.2 636.6 624.1 588.7 563.8 543.4 522.9 508.4 486.3 454.9 424.2 422.6 402.8 379.9 353 310.7 268.5 227.7 193 145.6 116 88.9 74.8 62.8 56.6 50.5 51.2 53.8 60 71 88.6 105.4 122.8 148.1 181.3 219.6 263.3 299 344.6 372.2 404.3 425.8 441.3 440.1 433.7 443.1 443.5 438.7 435 419.6 414.1 388 362.6 331.6 304.5 283.7 264.5 250.8 233.8 221.6 211.4 207.1 200.2 201.9 193.9 190.9 189.3 179.4 175.1 168.8 162.8 156.3 146.6 135.7 128 116.6 105.1 95.8 93.3 99.2 110.7 123.7 139.6 152.4 163.9 186.1 190.4 199.8 207.2 222.8 241.5 251.4 256.6 254.1 254.4 253.8 248.3 232.5 213.8 189.1 175.9 160.2 145.2 123.2 115.3 103.4 87 59.8 35.8 20.7 16.9 14.4 11 8.6 0.6 -1.2 -1.2 -1.2 -1.2 -1.2 -1.2 -1.2 -1.2 -1.2 -1.2 -1.2 -1.2 -1.2 -1.2 -1.2 -1.2 -1.2 -1.2 -1.2 -1.2 -1.2 -1.2 -1.2 -1.2 -1.2 -1.2 -1.2 -1.2 -1.2 -1.2 -1.2 -1.2 -1.2 -1.2 -0.5 0 0.6 1 1.6 2.2 3.3 4.3 4.4 -1.2 -1.2 -1.2 -1.2 -1.2 -1.2 -1.2 -1.2 -1.2 -1.2 -1.2 -1.2 -1.2 -1.2 -1.2 -1.2 -1.2 -1.2
432.1 461 487.1 515.6 550.1 580.3 612.7 637.9 650.2 654 660 669.6 679 682.6 683.8 684.2 687.5 692.3 690.4 686.8 677.8 668.8 668.6 656.3 642.7 643 633.8 614.9 588 565.2 535.8 513.5 488 462.3 445.7 432.7 415.7 391.1 364.6 324.1 277.2 230.4 185.2 146.2 121.4 96.2 76.5 64 55.7 51.5 48.6 50.6 56.8 64.6 75.1 94.5 113.4 140.8 167.8 204.3 237.8 277.3 312.9 345.8 380.6 417.3 430.8 430.9 425.7 430.3 430.8 431.4 428 424.6 409.5 398.2 371.8 343.8 317.3 295.7 277.4 261.9 248.3 230.9 234.5 227.7 222.1 221.5 216.9 205.4 213 198.1 191 184.1 179.9 172.5 160.5 146.8 134.9 121 109.3 95.3 91.9 101.6 116.5 133.9 141.7 160.1 166.9 179.4 177.2 181.6 198.4 220.9 243.7 251 248.2 243 236.1 232.3 227.6 214.9 198.2 177.3 159.7 143.5 124.8 103.2 95.2 78.2 57.4 32 24.3 21.8 16.2 12.1 9.6 2.3 -1.2 -1.2 -1.2 -1.2 -1.2 -1.2 -1.2 -1.2 -1.2 -1.2 -1.2 -1.2 -1.2 -1.2 -1.2 -1.2 -1.2 -1.2 -1.2 -1.2 -1.2 -1.2 -1.2 -1.2 -1.2 -1.2 -1.2 -1.2 -1.2 -1.2 -1.2 -1.2 -1.2 -1.2 -1.2 -1.2 -0.4 0 0.5 1.1 1.6 1.9 2.6 2.2 -1.2 -1.2 -1.2 -1.2 -1.2 -1.2 -1.2 -1.2 -1.2 -1.2 -1.2 -1.2 -1.2 -1.2 -1.2 -1.2 -1.2 -1.2
421.1 444.7 464.5 502.9 538.1 571.7 609.3 633 647.1 653.4 648.6 649 654.3 659 660.2 657.5 660.5 662 663.2 658.6 649.3 644.9 648.4 645.9 632.3 625.6 627.2 618.5 607 584.5 546.3 512.6 503.5 477.1 463.1 435.8 422.1 399.8 368.4 328.6 288.3 245.2 212.4 171.7 128.5 105.7 80.3 63.7 53.4 48.3 44.3 47.8 52.3 57.8 67.8 81.6 101 130.7 157.2 189.5 226 256.2 293.7 330.8 370.5 402 430.1 428.4 418.9 411.9 426.5 420.5 419.6 421 412.7 402.1 379.6 359.4 340 311.9 293 277.9 261.2 252.6 249.7 244 240.3 237.5 233.8 224.8 219.9 215.3 207.2 201.9 202.8 196.1 176.9 166.8 143 129.6 109.7 95.9 92.6 96.8 117.1 135.7 141.6 142 160.6 166 158 180.1 171.2 195 215.8 232.2 241.4 238.5 219.1 212.3 213.8 191.8 175.6 158.3 141.6 120.6 98.9 85.2 68 46.8 31.3 30.9 26.7 22.4 15.2 9.7 4.5 1.3 -1.2 -1.2 -1.2 -1.2 -1.2 -1.2 -1.2 -1.2 -1.2 -1.2 -1.2 -1.2 -1.2 -1.2 -1.2 -1.2 -1.2 -1.2 -1.2 -1.2 -1.2 -1.2 -1.2 -1.2 -1.2 -1.2 -1.2 -1.2 -1.2 -1.2 -1.2 -1.2 -1.2 -1.2 -1.2 -1.2 -1.2 -0.5 0 0.4 0.5 0.7 0.8 -1.2 -1.2 -1.2 -1.2 -1.2 -1.2 -1.2 -1.2 -1.2 -1.2 -1.2 -1.2 -1.2 -1.2 -1.2 -1.2 -1.2 -1.2 -1.2
398.4 428.4 457 489.1 522.4 564.6 602.4 616 629.9 636.2 636.3 627 634.2 633.4 631.8 631.5 629.2 630.5 631.7 636.9 636.8 633.9 631.1 624.4 616.2 609.3 607.4 612 600.8 585 561.7 539.7 512.3 496.9 479.2 454.6 431 404.8 371.9 347.3 308.3 277.8 253 201.3 143.9 109.5 86 66.1 55.1 50 42.9 46.3 48.5 55.5 64.8 73.7 95.4 122.4 148.4 178.5 211.1 243.5 279.1 311.1 352 396.4 416.4 422.3 418.5 407.4 410.9 416.9 412.5 411.4 406.7 399.6 384.9 371 350.4 328 311.6 290.8 281.3 271.7 269 268.3 265.5 258.8 253 240.7 232 228.4 225.7 217.9 216.9 212.5 198.7 174.1 155.7 131.7 112.9 97.5 91.6 99 105.9 112.3 118.6 120.8 135.9 144.7 143.8 156.5 157.7 165 171.8 189.8 211.3 219.4 203.7 192.8 179.4 158.1 143.3 132.3 119.4 102 78 60.1 42.9 29.4 30.9 39.5 30.8 25.5 12.7 9.4 6.6 1.7 -1.2 -1.2 -1.2 -1.2 -1.2 -1.2 -1.2 -1.2 -1.2 -1.2 -1.2 -1.2 -1.2 -1.2 -1.2 -1.2 -1.2 -1.2 -1.2 -1.2 -1.2 -1.2 -1.2 -1.2 -1.2 -1.2 -1.2 -1.2 -1.2 -1.2 -1.2 -1.2 -1.2 -1.2 -1.2 -1.2 -1.2 -1.2 -0.7 -0.4 -0.5 -0.4 -0.9 -1.2 -1.2 -1.2 -1.2 -1.2 -1.2 -1.2 -1.2 -1.2 -1.2 -1.2 -1.2 -1.2 -1.2 -1.2 -1.2 -1.2 -1.2 -1.2
