ncols 200
nrows 86
xllcorner 270000
yllcorner 230600
cellsize 50
144.4 122.4 126.4 140.7 155.6 159.2 163.6 173.3 187.9 203.6 219.8 234.1 246.6 256.1 263.7 267.3 267.7 266.1 265.3 264.6 263.9 261.1 254.8 246.6 233.8 220.4 211.5 203.2 206.9 213.2 221.1 225.6 227.4 226.1 228.1 220.8 208.6 191.1 174.7 169.1 164.7 161 157.7 154.7 151.8 149.1 145.3 137.2 126.2 117 106 95.5 88.4 94.1 106.1 110.7 118.4 124.1 122.8 118 113.4 110.2 111.8 117.6 125.1 132.3 137.6 141 135.7 131.7 132.5 133.5 133.7 136.4 136.7 142.9 153.8 159.5 161.8 161.6 160.6 159 158.1 154.2 147.6 140.5 135 134.7 131.1 132.6 135.3 140.4 153.8 168.1 181.4 193.9 203.7 208.5 207.3 201.7 194.6 188.2 178.2 173.1 160.9 142.8 125.5 112.5 106.2 102.3 102.4 105.2 104.3 100.6 98.1 94.7 92.2 88.4 85.2 82.2 79.6 75.3 69.5 63.3 67.9 67.7 68.5 69.1 69 68.7 69.6 68.4 68.5 68.4 68.8 69 67.9 68.6 70.5 70.3 69.9 69.4 68.6 66.7 68.2 68.1 69.7 70.2 70.4 70.3 70.1 70.3 70.6 70.9 71.1 71.1 71.3 71.5 71.8 71.6 78.5 94.5 109.7 122.4 135.8 147 153.3 144.1 135 121.9 112.7 103.2 90.9 79.4 78.4 77.3 79.2 81.8 84.6 89.9 87.7 91.3 103.4 117.1 130.8 129.3 134.6 140.6 145.8 151.3 157.3 160.3 159.8 162.3 171.2 181.4 190.7 198.2 204.4 205.8
140.8 124.1 124.2 135.3 143.6 152.6 159.5 171.1 185.8 202.1 215.8 228.7 241.3 251.7 258.4 259 257.9 256.6 256 257.9 259.4 257.6 256 249.1 237.3 228.6 219.9 215.9 226.4 235.9 242.5 241.3 238.1 236.8 230 213 193.9 179.3 173.3 169.5 166.7 164.5 160.9 160 163.4 170.2 163.5 152.9 139.1 125.8 117.1 107.1 96.9 87.4 89.9 100.7 102.3 103.5 103 102.5 103.8 105.5 108.5 114.8 123.3 131.7 139.3 140.1 129.2 128.2 127.9 127 128.6 131.8 133.9 142.2 149.7 155 155.4 154.6 154.8 158.2 159.3 154.9 150.5 145.1 139 137.7 136.1 137.1 141.9 149.1 164.5 174.4 183 197 208.1 206.3 200.5 188.9 185.6 178.6 169.7 165.1 153.4 138 123.2 112.5 106.4 102.6 100.9 103.5 102.6 100.4 97.4 94.2 91 88.1 85.3 82.5 79.7 75.5 68.2 63.3 68.2 68.1 68.2 68.8 69 68.6 68.6 68.4 68.3 68.4 68.7 68.6 67.9 67.9 68.8 69.8 69.3 69.1 68.1 67.6 67.8 69.2 69.7 69.7 69.6 69.9 70.2 70.4 70.5 70.5 70.6 70.9 71 71 71.2 71.9 88.8 106.5 114.6 125 136.1 139 135 128.7 124.2 116.2 106 94.4 83.4 77.6 79.1 81.1 86.2 87.8 89.5 94.7 92.6 101.7 117.1 125.3 124.1 127.6 132.4 135.2 139.4 146.4 150.8 153.7 156.4 160.8 170.7 182.3 191.8 199.7 203.5 196.5
141.1 125.7 120.2 125.5 135.4 147 156.6 169.4 183.5 196.7 211.7 224.8 235.9 243.9 246.8 247.1 246.6 246.4 247.6 252.3 255.1 255.9 255.6 252.2 245 237.9 235.2 238 245.8 251.6 250.4 247.9 244.2 238.6 225.5 201 183.5 179 174.6 171.2 170.2 167.9 169.2 181.3 192.4 191.2 183.1 170.6 156 139.5 126.6 114.7 103.1 92 86.9 91.4 90.5 89.4 93.1 97.1 99.5 102.3 106.6 116.2 129.2 139.2 141.1 132.6 125.4 124.9 124.4 124.6 125.9 126 136.3 142.8 144.6 147 149.5 150.6 150.2 152.7 152.8 151.4 149.8 142.8 137.3 137.8 139 143.9 153.5 161.9 174.6 181 188.7 197.4 205.8 205.7 198.7 185.9 175.8 169.9 164.3 158.5 149.6 138.5 121.6 111.8 103.6 100.1 100.4 102.7 102 98.8 96.4 93.8 90.8 87.7 84 81.8 78.4 73.3 65 67.3 68.3 67.7 67.9 68.4 68.6 68.4 68.7 68.4 68 67.8 67.5 67.8 67.9 67.9 69.3 69.7 69.4 69.1 68.8 66.8 68.7 68.1 68.8 69.2 69.6 69.9 70.2 70.5 70.7 70.8 70.9 71 71.1 71.2 71.5 78.5 100.4 112.7 118.7 122.1 130.8 126.7 119.5 114.9 111.5 106.4 93 84.6 77.4 79.3 82.2 86.3 88.8 89.4 94.5 98.6 99.8 106.4 115 118.5 124.1 128.4 132.7 136.9 140.3 145.3 149.4 152.8 156.4 160.5 169.8 181.8 190.9 199 196.6 187.5
145.9 133.4 120 121.6 125.8 141.3 151.6 162.7 177 192.4 206.7 218.2 227.6 233.5 234.7 235.9 236 239.8 243.6 248 251.2 253.6 254.7 254.2 253.4 252.3 253.3 256 257.3 255.3 252.1 249.2 249.8 243 220.8 192.9 184.2 178.1 178.3 176.6 175.5 177.9 192.1 209.7 211.6 208.6 199.5 190.5 172.3 148.6 133.8 120.3 107.4 92 86.3 83.8 84 84.2 91 93.9 97.1 101.5 112.1 129.2 141.2 145 137.7 125 121 121.8 121.7 120.8 121.7 124.6 132.9 136.1 138.2 142.2 143 144.3 143.9 147.1 147.1 146.4 144.9 138.2 139.5 142.4 145.4 150.5 164.9 173.5 180 186.3 189.8 195.5 198.7 192.2 188.1 179.7 169.7 163.8 157.8 150.5 142.5 130.7 116.3 107.6 102.9 99.2 98.7 99.4 98.2 95.7 94.2 91.7 89.3 86.9 83.9 80.1 76.1 70.8 63.3 67.2 67.6 67.6 67.6 67.8 68.1 68.3 68.4 68 67.7 67.4 67.4 67.6 67.8 68.4 69.3 69.8 69.7 69.1 66 67.5 68 68.9 69.5 69.4 69.6 69.9 70.3 70.5 70.7 70.9 71.1 71.1 71.2 71.3 74 88 108.8 116.5 119.6 119.7 121.9 117.3 109.9 103.4 100.5 90.3 79.4 78.2 77.5 78.9 81.9 85.3 87.3 89.4 94.8 100.1 104.6 109.4 114.9 122.3 129.3 134.3 138.7 141.9 144.6 147.4 150.9 154.7 159.3 164.5 169.2 178.8 190 193.5 187.2 177.7
147.7 141.8 129 117.9 128.8 143.1 149.9 156.9 170.8 185.9 201.6 211.7 219.5 221.9 223.5 226.5 230.9 236.2 239.2 241.9 246.3 251.9 254.5 257.3 259.6 261.4 262.3 263.7 259.7 254.2 253.9 260.7 255.7 244.6 217.7 194.2 187.9 184.7 186.2 189.3 191.3 205.2 220.4 230.9 230.6 224.5 218.3 203.1 180.7 154.8 139.7 124.9 109.1 97.7 88.8 83.6 82.3 82.1 84.4 90.5 95.6 105.7 123.8 142.5 149.6 145.8 131.9 118.5 117 118.7 119.5 117.1 117 120.2 121.5 124.3 130.5 133.6 134.7 139.8 141 141 142.8 142.2 137.9 139.7 144.4 147.6 152.3 158.1 174 180.1 182.8 182.5 181.9 186 184.4 180.7 176.4 167.6 160.9 154.6 146.8 137.5 128.5 119.2 112 105.9 101.4 98.3 95.2 95.4 94.5 93.1 91.2 89 86.7 84.3 82.2 79.3 75 65.8 67 67.2 67.5 67.5 67.5 67.4 67.7 67.7 68.4 67.8 67.4 67.4 67.3 67.5 67.7 68.8 69.3 69.5 69.2 67.9 67.7 68.9 68.1 68.3 69.3 69.7 69.9 70 70.3 70.6 70.8 71 71.3 71.4 71.3 72.3 78.2 90.8 104.2 111.8 116.1 111.4 106.4 103.6 96.5 93.4 86.6 78.1 77.8 77 77.6 79.1 81.5 84.4 87.4 90.7 95.1 103.4 110.5 114.6 118.8 122.9 128.2 134.7 139.8 145 150.3 154 157.6 163.4 169.2 175.9 182.3 188.4 193.3 188.5 178.9 170.2
148.2 143.8 134.7 116.6 129.8 147.7 153.3 160.4 168.5 182.1 197.4 205.2 209.8 212 214.2 221.7 227.2 230.5 233.1 238.9 245.1 250.1 254.7 259.6 262.6 265.2 267.9 264.8 254.9 256.2 265.6 262.5 256.5 246.6 216 200.1 195.6 199.1 207 214.3 220 234.6 249.9 247.3 246.2 240.3 228.8 209.1 182.9 161.4 143.9 129 113.7 102.9 92.6 86.3 82.9 80.5 82.4 88.9 97.2 110.9 133.6 153.5 155.1 145.6 130.6 115.2 112.5 112.3 115.8 111.3 118.2 112.5 115.7 120.3 121.4 124.2 128.8 133.2 134 133.2 134.1 132.1 134.6 144.2 148.2 150.6 152.7 162.8 172.7 180.8 180.6 177.5 176.3 176.6 175.3 171.4 163.7 157.3 151.3 143.4 136 128.2 120.7 113.3 108.4 104.5 100 97 94.2 91.7 90.9 89.8 88.2 86.1 83.7 82.1 80 77.6 70.5 63.3 67.3 66.7 67.6 67.4 67.4 67.2 67.3 67.4 67.7 67.4 67.4 67.3 67.2 67.4 67.6 69.5 69.6 69 68.6 68.1 67.8 68.8 69.5 68.8 69.5 69.7 70.2 70.5 70.6 70.6 70.9 71.1 71.3 71.6 71.9 75.9 91.2 97.4 102.7 109 115.6 100.8 97.5 92 86.7 85.6 76.4 76.5 77 77.2 78.9 81 84.1 86.6 91.1 96.5 101.9 112 118.7 120.8 122.7 128.2 133.8 139.7 145.2 154.1 162.4 167.4 172.4 178.5 185.3 192.6 199.3 200.7 194.1 178.4 172.7 167.2
149.1 144.9 139.7 124.7 125.6 150.4 154.5 161.3 169.4 180.6 193.3 201.4 203.3 203.8 210.4 218.5 223.3 226.3 230.8 237 242.7 248.6 255.7 262 266 268.5 267.8 258.2 261.7 270.1 268.6 263.3 258.1 247.2 225.4 213.3 216.4 228.1 234.4 236.5 251.3 263.1 265.4 259 258.2 246 232.2 211.7 185.6 166.8 149.3 134.9 120.6 106.5 98.9 90.1 84 80.3 81 90.6 99.5 115.8 139.6 158.4 154.2 141.4 126.5 110.7 104.1 106.2 108.9 107.6 110.1 107.1 110.7 116.2 117.4 118.9 124 127 121.4 123.7 128.1 136.5 137.6 139.2 141.5 145.2 159.2 167.3 174.5 177 176.8 173.6 171.9 171.8 168.6 160.3 152.7 149.1 143.1 137.8 130.8 122.9 115.9 109.7 105.7 102.7 98.9 95.1 93.1 91 87.1 86.5 85.3 83.7 81.9 80.1 78 74.7 64.5 66.8 66.9 66.7 67.3 67.3 66.7 65.8 66.3 67.4 67.3 67.3 67.3 67.2 67 67.7 67.8 69.9 69.7 69.1 68.3 68.8 67.2 68.5 68.2 68.8 69.6 69.9 70.2 70.8 70.9 70.9 71.1 71.4 71.7 72 72 79.1 93.4 102.8 105.7 112.9 100.6 93.3 87.8 79.9 80.7 77.7 76.1 74.8 74.9 76.9 81.6 86.2 89.8 92 97.4 105.8 112.7 120.2 125.9 128.2 130.8 133.3 141 145 154.6 166.8 176.2 182.5 187.9 194.7 203.2 209.1 211.1 208.6 195.6 179.2 172 166.5
151.8 149 146.2 133.2 117.9 133.4 150.1 159.9 167 179.8 187.9 191.6 192.7 196.7 208.3 216.2 221 224.5 229.4 234.9 242.7 251.5 258.4 263.8 270.1 266.6 264.4 268 276.5 277.2 271.7 261.8 255.8 242 233 232.3 242 248.4 248.6 256.8 267.4 272.9 272 267.1 257.9 247.7 234.8 216.7 192.8 174.1 159 143.3 124.9 110.9 108.8 97.9 87.7 80.4 82.8 93.1 101.8 116.9 139.5 152.2 145.2 129.8 113.2 100.6 98.8 99.1 100 102.8 100.5 105.7 108.9 114.2 111.9 112.8 118.2 116.1 120.2 129.4 131.6 130.5 134.3 142.9 148 154.6 163.8 171.8 174.4 175.4 175.1 170.2 165.4 161.3 157 150.2 145.7 143.2 140.3 134.3 124.7 117.6 112 107.6 104 100.2 97.3 95 93 90.7 87.6 82.9 82.4 81.3 79.5 77.7 75.1 67.5 66.6 67 66.9 66.7 66.9 66.8 66.6 66.9 66.8 66.8 67.1 67.2 67.1 67 66.8 67.1 67.6 69.1 69.5 68.7 67.9 68.4 67.7 67.9 68.3 68.6 69.6 69.9 70.3 70.9 71.3 71.5 71.7 71.9 72.2 72.5 72.1 75.2 92.4 105.8 110.8 99.6 88.3 77 75.1 74.3 73.4 74.9 75.7 81.7 82.1 82.2 87.9 91.9 95.9 99.4 106.1 113.6 120.4 127.1 134.9 137 139.7 141.6 144.8 152.7 166.6 180.7 190.4 196 201.7 209.2 217.6 222.5 220.8 215.3 201 186.7 182.7 176.2
154.2 153.8 154.5 149.5 123 116.9 133.9 155.8 164.8 176.1 180.7 182.5 188.7 198.3 208.7 213.7 217.7 222.3 228 235.8 245.6 253.6 260 263.4 268.3 265.4 270.1 277 278.8 274.4 266.5 257.7 251.2 244.7 245.8 252.6 252.7 253.1 257.8 265 274.1 279.4 275.3 269.6 259.6 251.8 240.2 225.5 201.3 189.5 171.7 152.1 131.9 122.4 118.1 105.5 92.7 79.6 87 93.9 102.1 118.4 138.5 144.4 132.8 115.3 100 96.4 95.7 94.3 99.1 91.5 91.6 96 97.4 98.9 100.4 105.4 107.8 111 116.9 121.9 125.2 128.5 143.2 147.9 154.6 162.3 168.2 173.9 175.4 174.9 172.7 167.2 159.7 153.9 147.7 143 141.5 139.7 134.2 125.8 120.7 115.4 108.8 104.6 101.9 98.9 96.4 94.5 92.5 89.9 87.2 81.8 78.9 78.9 77 75.3 73 62.2 66.6 66.8 66.8 66.7 66.5 66.4 66.9 66.8 66.6 66.6 66.9 67 66.9 66.8 66.7 66.5 67.2 68.2 68.2 67.8 67.6 68.1 68.1 67.7 68.3 68.3 69.3 69.8 70.3 70.8 71.7 72.1 72.3 72.4 72.7 72.4 72.2 75.5 93.1 106.9 97.9 86.5 76 75 74.2 74.6 76.5 77.6 80.8 88.4 90.1 91.6 93.8 97.9 101.9 106.8 113.8 121.5 129 135.3 142.9 147.2 150.8 154.5 159.4 168 181.7 195 201.8 206.4 212.9 221.1 229.3 230.7 226.7 218 209.1 203 195.9 190.7
152.7 152.7 153.2 155.7 142.8 118.5 121.1 154.5 161.5 168.2 172.3 178.8 187.2 197.4 206 210.4 215.1 220.3 227.5 236.8 246.6 254.1 259.9 268.6 267.1 267.8 277.2 275.3 272.4 265 255.7 254.1 252.6 253.5 255.4 255.8 253.5 257.2 260.9 269.8 278.8 275.9 274.1 268.5 263 255 242.7 226.9 212.1 199 179.8 160.3 140.9 132.9 118.8 106.8 94.4 79.4 87.3 93.4 101.8 115.5 133 130.5 117.5 102.6 92.4 91.7 93.2 91.2 89 88.1 90.7 93.8 98.1 100.3 102.4 103.8 107.4 116.4 119.4 121.9 130.3 140.4 147.5 152.6 160.6 168.7 172.7 174.4 174.4 173.1 169.5 162.3 153.8 147.7 143.1 139.6 137 133.4 127.7 122.4 118.1 113.3 106.1 100.8 98.8 97.3 94.5 92.3 90.4 87.6 84.1 80.3 77.4 75.9 75 74 67.7 65.4 66.6 66.6 66.6 66.5 66.4 66.4 66.5 66.5 66.5 66.4 66.6 66.8 66.7 66.7 66.7 66.4 66.7 67.7 68.2 68.1 66.9 66.9 67.4 68.3 68.1 68 68.9 69.7 69.9 70.5 71.2 72.1 72.3 72.6 73 72.6 72.3 75.4 95.2 92.3 77.3 73.6 73.9 74.1 73.9 80.3 85.1 87.1 90.5 92.8 94.2 95.5 97.3 102.5 107.5 112.8 119.8 128.8 136.6 144.3 151.7 157.1 161.4 165.4 172.7 183.7 196.7 206.1 209.6 213.7 220.4 228 234 233.7 225.8 218.8 215.8 211.6 206.4 200.1
150.6 148.9 148.9 149.6 130.6 114.1 118.7 146.8 156.7 162.3 168.1 175.9 185.9 197 202.5 207.8 211.2 218.3 227.1 235.9 246.8 256.7 262.5 262.1 263.1 271.4 270.9 268.4 259.7 250.3 250.8 252.6 251.9 251.8 251.2 249.4 253.3 257.5 262.6 271.9 275.6 273.5 274.8 269.1 262.2 251.9 238.4 223.3 213.8 201.3 184.5 165.9 149.1 131.3 115.6 105.9 94.9 79.4 87.5 91.9 98.5 110.6 124.9 118.3 104 91.3 88.4 87.1 89.4 89.4 87.1 96.4 105.8 112.7 122.5 123.5 123.2 123.4 126.3 128.9 131.8 139.2 147.4 150.5 153.3 162 168.7 171.7 173.6 173.6 172.5 170.6 165.2 156.9 149 143.4 140 135.8 131.5 127.9 122.8 118.7 115.4 109.5 103.6 97 94.8 95.3 93.4 90.9 88.4 85.9 83.6 79.4 73.8 73.1 73.4 71 65 66.3 66.5 66.5 66.5 66.4 66.5 66.7 66.7 66.3 66 65.9 65.8 66.2 66.2 66.3 66.3 66.1 65.9 65.9 66 66.1 66.6 66.4 65 68.2 67.9 67.8 68.2 69.9 69.9 70.5 71 71.1 71.8 71.9 72.4 72.9 72.9 76.8 87.5 74.7 72.1 73.1 72.5 73.5 75.5 82 86.2 89.6 93 96 98.2 99.5 102.2 107.1 112.8 119 126.6 135.4 143.7 151.1 157 162.7 167.8 174.3 184.5 196.5 207.8 213.2 215.4 218.7 226.1 233.2 236.4 232 223.9 220.1 219 215.2 209.3 205.9
148.4 146.5 145 142.5 119.6 115.3 128.1 147.2 154.2 161.4 169.2 178.2 189.4 197.9 205 209.2 206.3 211.1 221.7 236 248 253.6 254.8 256.9 262.5 264.1 261.7 254 245.8 246.3 247.3 245.3 242 240.9 238.7 243.9 248.5 254.6 262.3 271.3 272.4 274 272 264.6 257.2 244.4 232.3 223.4 213.8 202.5 188.2 168.2 149 128.1 113.6 103.7 92.3 77.4 84.6 88.6 94.1 104.8 115.5 107.7 95 87 85.1 84.5 85.3 85.1 93 108.1 123.4 137 148.1 148.8 143.9 142.6 140.7 139 139.7 142.8 148.1 154.6 162.3 167.9 170.8 173.2 169.8 167.3 167.7 164.5 157.4 150.1 145.1 139.4 134.9 131.9 124.3 121 118.1 114.1 109.1 103.7 99.1 92.2 91.8 92.8 92.1 89.7 87.6 84.7 81.6 78.2 73 70.3 69.9 66.1 61.6 65.9 66.3 66.4 66.4 66.4 66.6 66.9 66.5 66.1 65.8 66.1 65.5 65.5 65.6 65.5 65.5 66.2 66.2 65.9 66.4 66.5 66.5 66.6 66.8 67.1 68.7 67.4 67.5 68 69.3 69.9 70.1 69.5 69.4 70.2 70.6 71.9 73.3 73.7 72.7 71.6 70.2 71.4 74.5 77 83.1 86.4 88.3 91.5 94.4 98.2 101.6 104.1 107 113.2 118.8 124.5 132.7 140.8 147.8 155.3 160.7 167 176 185.8 197.2 208.3 214.6 218.1 220 223.9 233.7 238 234.2 227.2 222.4 221.2 218.7 213.5 209.2 207.6
147.3 142.9 141.3 138.3 113.7 118.6 138.3 146.3 154.2 163.9 173.2 183.3 193.9 204.6 214 213.3 201.3 200.7 217.1 232 240.9 243 245.3 251 254.4 253.4 245.8 240.9 241.1 240.6 236.2 232 229.1 225.8 230.9 235.1 239.7 249.7 262.3 266.3 270.5 269.3 266 257.8 251.2 240.2 229.4 222.2 213.1 202.2 186.6 165 144.7 125.4 112.1 96.2 85.1 76 81.2 84.9 89.6 97.8 101.7 98.6 88.4 84.4 82.5 81.9 82.7 88.3 105.4 121.8 143.2 161.2 171.2 170 165.9 159.9 155.9 148.3 147.7 149.7 154.2 163.7 169.6 172.8 175 173.6 167.6 164.6 161.6 157.2 150.6 145.6 140.4 135 129.6 124.6 118.8 115.5 112 107.2 102.4 98.7 93.1 89.5 89.4 91.4 91.5 89.7 87.3 84.4 80.4 75.7 72.5 68.5 65.6 65.7 63.2 64.5 66 66 66.1 66 66.6 66.5 66.1 65.9 65.7 66 65.6 65.5 65.7 65.9 66.5 67.1 66.5 65.9 66.5 66.8 67.7 64.4 66.6 65.4 65.7 66.5 66.1 68.3 68.6 69 68.6 69.5 69.9 70.6 69 70.6 71.6 71.4 72 72.6 75.5 77.7 78.2 81.3 85.8 89.4 93.5 95.6 99.9 99.6 103.2 106.6 110.5 117.7 124.1 130.4 138.6 145.8 152.9 161 168.2 175.3 184.8 195.4 206.7 214.1 218.6 222.2 224.2 231.1 234.7 231.3 224.3 220.2 219.9 218.1 213.7 209.4 206 204.2
145.5 142.9 138.3 127.6 110.4 120.6 137.1 146.1 155 166.2 178.2 189.1 201.1 210.9 213.1 202.9 190.2 189.9 204.7 218.3 226.3 232 237 241.3 242 236.6 233.8 232.6 230.2 224.8 221.2 218.5 215.8 217.5 223.1 224.6 228.4 243.4 251.5 256.6 260.8 262.8 259.4 254.2 248.1 237.7 226.9 221.1 211.9 201.3 185 163.6 141.8 120.1 107.7 95.1 84 76.5 78.1 81.9 84.4 88 92 91.1 84.8 81.7 80.4 80.9 90.1 100.8 119.4 143.2 165.2 182 188.6 187.9 184.9 182 175.9 166.6 158.7 158.5 168.1 174.7 177.9 178 175.7 171.5 166.1 162.9 157 150.8 144.8 140.6 135.7 130.8 126.1 120.8 115.1 111.3 106.6 102.5 98.8 95.1 91 88.1 88.1 91.1 91.6 89.3 86.4 83.1 78.6 73.3 69 65.1 65.3 64.5 65 65.5 65.9 65.8 65.9 65.5 66.1 65.9 66 65.8 65.6 65.5 65.4 65.4 65.5 66.1 67.7 74.1 67.4 65.4 64.8 65.5 66.8 65.2 67.4 67.6 68 68.3 67.6 65.1 68.7 68.9 67.6 70.1 76.2 72 72.3 70.3 71.5 72.3 74.9 76.5 77.8 81.6 83.1 85.8 90.4 93.3 97.7 99.9 103.3 104.1 105.3 109.1 114.4 123.2 131 136.8 143.9 150.3 158.3 166.9 175.5 183.6 193.3 203.4 211.4 216.4 220.8 224.2 227.7 230.9 228 222.9 213.6 209.8 210.4 207.4 204.1 203 198.2 193.4
144.5 141.4 133.7 121.9 108.2 121 137.4 148.4 158 169.5 183.7 194.5 203.8 208.2 199.7 188.3 182.8 178.9 190.7 203.9 212.5 220.7 224.4 227.3 228.1 229.1 225.2 213.4 210.9 206.4 205.3 205 207.3 212.4 217 215.1 222 237.8 246.1 257.2 260 260.7 257.5 253.4 245.6 234 226.6 218.1 207.8 197.6 180.3 160.1 138.7 119.2 102.3 89.4 81.8 76.6 75.2 77.3 79.7 82.5 86.3 84.9 81.2 79.8 79.4 88.3 102 117.8 140.2 166.1 186.2 198.1 204.7 207.3 205.8 201.7 196.7 189 180.4 176.2 183.6 185.2 181.3 176.4 172.4 167.1 162 155.8 149.5 145.8 141.6 136.4 132.4 128.7 124 118.9 113 107.8 103.3 99.7 96.9 94.2 91.9 89.1 84.5 89.3 90.4 87.9 84.7 79.4 73.5 70.4 64.7 64.7 64.3 61.4 64.7 65.6 65.7 65.7 65.8 65.8 65.7 65.3 65.2 65.3 65.4 65.4 65.4 65.4 65.5 65.8 66.6 64.4 65.2 66.3 65.7 65.2 66.4 66.8 66.9 67.4 69 69.5 70 69.8 68.7 67.5 72.9 77.4 79.1 79.9 79.9 80.8 80.5 81.3 82.9 81.5 80.9 86.3 88.6 87 95.7 100 101.7 105.7 106.7 109.7 111.4 115.9 123.1 132.4 140.2 144.2 148.5 155.9 164.5 173.2 181.9 191.1 199.8 207.6 212.2 216.4 219.7 223.9 230 230.3 226.5 217.6 204.5 198.6 197.5 194.9 190.2 188.5 184.5 176.7
139.6 138.1 130.7 121.8 106.8 122.8 137.8 149 159.7 171.4 184.6 194.9 199.3 195.7 184.5 177.6 173.2 171.7 175.6 193.5 201.7 204.9 210.6 217.2 222.4 221.6 213.2 198.5 194.3 193.8 195.6 197.7 204 211.3 211.9 203.2 215.1 230.3 242.2 252 258.6 257.4 254.5 248.4 237.4 227.6 222.7 214.3 202.8 191 173.9 152.1 129.9 115.1 101 88.4 81.8 76.6 73.9 73.7 76 77.9 78.9 79.8 79.2 80.4 86.2 99.3 115.2 137.8 160 183.8 202.8 213 219.7 224 224.1 221.5 214.9 207.9 200.3 193.8 191.7 186.4 177.5 170.7 163.7 158.7 154.2 149.2 145.2 142.3 138.6 134.5 130.4 126.5 123.3 119.2 113.7 108 102.3 98.3 94.9 92.6 90.5 88.9 85.6 86.9 87.4 85.6 82.3 76.8 71 65 64.4 64.8 63.8 60.7 64.8 65.4 65.3 65.5 65.4 65.3 65.3 65.5 65.5 65.4 65.2 65.3 65.4 65.4 65.5 65.5 65.7 64.6 65.8 65.8 65.8 65.8 65.6 66.2 67.9 68.6 70.2 71.7 71.9 71.9 73.2 73.1 75 78.7 81.3 82.6 84.1 85.4 85.7 85.6 86.3 87.8 83.7 87.7 93.7 92 97.2 103 106.3 109 110.5 114.1 119.9 124.2 131.1 137.9 144.4 148.9 153.6 161.8 170.8 179.8 187.9 197.2 203.5 206.8 210.7 214.3 218.7 225.7 233.5 230.2 227.1 221.7 207.7 194.6 191.9 189.8 182.6 174.5 168.8 160.8
132 126.1 124.1 118.2 105.4 113 134.6 147.2 157.3 168 179.7 186.7 184.8 175.1 170.4 168 166.4 165.6 168.7 181.5 188.2 193.2 201.9 210.6 208.7 206.5 200.2 192.7 189.8 189.2 190.6 195.6 204.8 213.2 206 196 207.3 223.5 237.8 250.1 250.6 250.9 245.7 237.1 232.8 228.5 222.2 213.1 198.1 182.9 164.6 143.2 123.7 109.5 97.7 86.8 80.8 76.7 74.3 71.9 73.2 75.4 77.7 77.4 80.3 86.5 96.5 112.5 132.4 153.7 176.1 199.3 215 224.5 232.7 236.6 236.9 236.9 230.6 223.7 215.6 204.3 193.9 184.7 172 160.8 156.9 152.3 148.2 144.9 141.9 139.3 136.2 133.4 130.7 127.6 124.2 120.3 115.7 108.9 101.5 97.3 94 91.4 89.8 88.4 85.6 80.8 82.8 81.2 78.8 70.7 66.5 63.9 64.8 64.7 63.2 64.5 65.1 65.1 65.2 65.3 65.1 64.9 65.4 65.6 66 65.8 64.8 65.1 65.2 65.2 65.2 65.5 65.6 64.1 64.7 65.3 65.4 65.4 65.7 66.5 69.1 71.4 73.2 74.4 75 74.3 73.6 75.6 79.9 81.4 83.4 84.1 85.4 87.6 88.9 88.9 89.2 90.2 88.8 87.7 94.8 93.9 97.2 104.6 108.6 111.7 113.9 117.6 125.1 131.7 137.9 141.9 146.4 151.6 158 166 175.4 185 191.3 197.4 200.5 203.5 208.3 213.5 222.6 230.6 231.4 230.2 228.1 223.7 214.5 197.1 189.5 185.7 178.9 171 163.9 156.5
138.5 130 121.2 110.6 103.6 104.3 121 138.7 150.7 160.2 169.8 170.7 167.3 166.6 164.3 163.9 163.8 162.1 163.5 169.9 178.1 187.8 199.8 206.7 203.3 196.5 191.7 188.8 186.6 185 186.7 193.3 204.4 207.5 195 190.4 197.5 216.3 232.4 242 242.3 242.4 238.7 235.6 231.8 227 219 209.1 196.6 179.2 155.4 133.9 117.5 107 95.1 87.1 82.4 78.8 75.8 72.1 72.2 74.4 75.1 79 85.8 94.6 108.5 127.4 147.4 166.9 188.3 207.7 222.3 231.6 238.8 243.3 244.9 243.9 240.8 236.5 220.8 202.8 190.3 180.9 165.6 157.4 153.4 149.8 146.8 143.5 140.7 138.1 135.6 132.9 130.6 127.5 123.8 119.8 115.4 110.4 101.9 96.5 92.4 89.8 89.1 87.7 86.4 82.1 77 76.1 71.3 64.3 63.8 64 64.3 63.6 60.3 64.4 64.8 65 64.9 64.8 64.6 65 65 65 65.6 65.2 64.8 64.7 64.6 64.5 65.2 65.7 65.7 64 64.5 64.8 65 65.5 66.5 70.4 72.6 73.9 75 76.8 77.5 77.8 76.2 75.6 80.8 82.9 85.1 85.6 86.4 88.5 90.8 91.8 92.2 93.1 92.9 90.4 95.2 99.8 101.5 105.5 108.6 112.4 116.9 123.1 127.8 134.7 140.7 145.3 148.9 153.6 159.8 167.3 176.6 185.9 192.5 194.7 197.1 202.4 208.5 216.8 225.1 228.3 228.9 229.9 228.5 224.2 217.8 207 195.8 187.1 179 171.8 164 156.5
155.9 137.5 127.5 116.1 102.2 104.1 117.2 127.5 138.9 149.5 156.1 157.2 159.1 161.8 159.9 160.4 161 159.6 160.4 163.7 174.5 188.3 199.3 202.1 199.3 193.8 188.7 185.1 183.9 181 181.2 186.7 194.7 193 190.6 185.3 192.8 206.9 223.2 234.5 237.5 237.9 234.6 230.5 225.1 221.1 217.5 207.9 194.5 173.7 149.9 130.1 118.9 107.9 97.3 90.9 86.4 82.5 78.2 74.3 70.5 72.1 76.6 83.3 91.7 106.3 122.1 141.3 160.6 179.7 197.3 213.3 224.8 234.2 240.3 240.6 241.1 243.3 239.8 224.7 209.3 197.3 189.5 176.5 160 154.9 151.5 148.8 145.8 142.3 139.8 137.4 135 132.7 130.3 127.1 123.2 119.1 114.8 109.7 102.7 97.3 93.3 87.8 86.6 87 84 80.5 72.3 70.2 65.9 63.4 64 63.8 63 61.3 63.5 64.7 64.4 64.3 64.3 64.3 64.3 64.9 64.8 64.5 65 64.7 64.7 64.5 64.5 64.4 65.2 65.1 65 64.1 65.2 65.1 68.7 74.2 75.8 79 80.9 80.2 81.6 82.1 81.2 80.5 79.4 79.5 81.3 84.6 87 88 88.4 90 92.2 95.4 96.9 98.6 98.5 96.5 95.2 102.1 105.4 108.1 110.6 113.2 118 123.9 130.2 137.1 143.8 149.2 152 156.2 161.8 168.1 175.3 184.4 188 189.1 194.7 201.6 208.9 216.7 221.9 225.4 227.7 228.8 227.5 224 221.3 218.4 210 201.2 190 177.5 170.6 161.4
175.6 154.6 139.2 121.6 100.1 105 115 123.9 131.4 137.7 145.6 151.4 154 155.2 154.7 155.5 155.7 156.3 158.9 164.2 177.4 190 197.4 199.7 199 193.4 185.8 182.5 180.5 178.2 177.7 179.6 182.5 186.4 184.9 180.5 186.3 199 217.3 228.4 232.4 230.1 226.9 223.3 220.4 219.3 215.6 205.7 192.4 169.3 146.4 129.1 119.2 108.1 98.5 91.8 87.1 83.9 80.2 74.9 69.6 71.7 79.7 86 98.3 115.8 132.3 151.4 169.6 187.6 201.7 215.2 227.3 237.7 240.8 241.3 236.8 228.7 221.5 212.9 206.2 195.6 178.4 165 157.4 153.4 150 147 144.2 141.6 139.2 136.8 134.5 132.4 130.7 127.7 124 119.3 114.5 109.4 103.5 98.9 94 90.8 80.7 82.3 83.2 71.8 70.2 68.6 63.8 63.5 63.3 63 62.8 62.4 64 64.4 64.3 64.3 64.2 64.1 64 64.2 64.3 64.5 64.5 64.6 64.8 64.6 64.3 64.3 64.5 64.9 65.1 64.8 64.9 67.8 78.1 84.5 87.3 91.7 94.3 92.8 89.4 86 84.9 84.1 83.4 82.4 81.2 86.1 88.9 90.3 91 92 94.8 99.2 101.5 102.5 103.2 103.4 102.9 104.7 108.3 111.5 115.9 120 123.8 124.1 132.1 139.8 145.8 152.5 156.2 161.3 165.8 170.7 175 180 183.4 187.4 191.5 199.1 206.4 212.6 218.4 222.8 226.5 227.2 226.2 225.3 224.6 223.7 220.6 216 206.6 193.6 184.1 171
192.8 172.6 151.4 123.6 99.8 101.2 111.7 121.2 126.6 133.4 141.7 146 147.6 148.6 150.1 151.1 152.7 155.2 158.3 167.7 179.8 189.1 194.3 198.5 200.1 196 182.6 178.3 176.4 174.3 172.7 174.6 177.3 178.8 178 176 180.5 194.2 210.8 223.8 228.6 222.7 220.8 217.9 217.7 215.3 209.6 201.3 186.9 164.1 140.5 127.6 117.2 106.2 96.7 92.1 88.9 85.2 80.9 76.3 70.6 72.4 78.3 86.9 102.9 120.2 137.9 158.1 175.3 190.9 204.2 219 235.2 240 239.3 235 229.2 221 214.7 208 201.9 189.4 170.6 160.8 155.9 152.4 149.1 146.4 144 141.7 139.2 136.9 135 130.4 124.8 127.5 124.5 119.5 114.4 110 104 100.2 93.6 88.6 85.6 79.8 73.2 69.8 67.3 65.6 62.8 63.1 63.1 62.1 60.9 64 64.4 64.3 64.2 64.2 64.3 64.2 64 63.9 64 64 64.1 64.7 64.8 64.5 64.3 64.2 64.2 64.5 65.1 64.6 65.3 79.1 90.9 97.2 102.9 107.1 109.8 107.7 103.9 96.9 90 88.8 87.9 86.9 85.3 85.1 90.4 92.5 94 96.4 97.9 99.5 101.8 103.7 106.7 108 107.5 111.1 112.6 115.8 120.9 124.4 129.7 131.7 131.1 138.3 145.3 153.2 159.6 165.4 170.8 175.3 182.1 184.6 188.9 191.4 194 198.3 202.1 208.4 215.5 220.8 223.4 224.9 225.8 226.5 227 226.2 223.9 220.9 214 205.4 192.3 174.8
206.4 186.5 159.6 127.2 97.5 99 103.8 116.4 122.5 129.6 136.3 139.9 141 143.7 145.5 148.1 151.3 152.6 157.5 168.6 176.2 184 194.2 200.2 201.5 194.9 183.5 176.2 173.1 170.6 169 169.7 172.3 173.6 173.3 171.1 175.5 188.3 203.9 214.7 219.8 215.7 215 212.5 213.5 210.4 203.8 197.2 181.5 158.5 135.2 126.9 116.3 106.4 99.1 95 90.5 85.7 81 76.5 69.7 71.8 77.5 86.3 101.8 119.8 140.9 160.4 176.5 189.9 203.8 218.9 236.4 241.5 235 229.3 224.1 216.8 209.7 203.5 194.9 177.7 165.9 159.7 155.9 152.8 150 147.2 144.9 142.7 140.3 137.8 135.4 132.6 129 127.8 124.8 119.9 114 110.1 105.4 99.8 90.5 82.3 79.9 75.9 73.8 71.7 68.8 63 62.8 63.1 60.9 59.8 63.8 64 64.3 64.2 64.1 64.1 64.2 64.3 64 63.8 63.8 63.9 63.9 64.1 64.3 64.4 64.1 64.3 64.5 64.5 64.9 63.6 83.9 98.7 106.3 114 117.9 121.4 123.6 122.8 118.2 111.2 102.1 94.7 91.6 90.1 89.1 87.4 91.5 95.4 98.2 99.8 101.5 102.1 103.7 106.7 110 111.5 112.7 117.4 118 120.8 125.7 129.6 132.7 136.3 139.9 141.8 143.6 149 157.5 163.5 169.5 178.4 186.1 190.8 193.3 193.8 194.3 196.4 199.3 203.7 211.9 217.2 220.9 223.4 225.8 228.2 227.9 225.7 222.4 217.4 211.7 203.6 186.4 168.4
211 191.6 160.9 129.9 96.6 97.8 99.5 113.5 118.8 125 129.6 133.3 135.5 139 141 144.2 147.7 149.9 155.8 160.4 168.7 181 192.5 199.1 197.6 192.4 184 172.2 165 165 164.4 164.6 167 168.7 168.8 165.7 171.7 184.2 197 204.4 207.4 209.7 215.3 208.7 209.5 206 199.2 191.6 172.1 151.6 134.3 126.6 118.7 112.4 108.3 102.5 94 85.4 81 76.7 71.3 68.5 75.4 82.8 95.6 114.3 141.2 161.7 173.3 187.2 201.3 216.9 233.8 235.9 227.5 223.5 216.3 208.6 204.6 202.6 194.8 176.8 165.8 160.2 156.4 153.8 150.8 148 145.8 143.6 141.2 138.9 136.7 134.6 131.9 129.3 126.3 121.4 114.7 112.2 105.8 100.6 93.8 86.7 86.5 77.3 72.7 70.4 67.6 62.7 62.5 62.2 59.9 63.4 63.7 63.8 64 64.3 64.4 64.4 64.2 64 63.8 63.7 63.6 63.7 63.7 64.1 64.1 64.2 64.1 64 64.1 63.2 77.4 93.1 105 113.6 122.9 127.1 129.2 131.5 135.3 133.8 128.6 119.8 108.6 100.2 96 93.2 91.7 90.4 93 98 101.1 102.7 104.2 105.1 106 109.8 113.1 115.1 116.7 120.1 122.9 126.1 133.5 138.5 141.9 148 154 158.5 163.1 160.8 159.5 162.1 168.2 180 189.7 195.6 198.8 198.7 198.7 199.2 199.5 201.5 206.7 211.9 219.1 224.1 226.7 227.5 225.9 220.4 216.1 211.7 203.8 191.7 174.1 159.7
201.5 182.7 161.9 139.3 105.8 97 97.8 107.1 115.6 120 123.2 128.3 130.9 133.4 136.2 139.2 143.4 145.9 148.2 154.7 167.9 180.1 191 196 193.1 184.6 170.8 161.6 156.8 159.4 158.9 160.4 162.6 163.6 164.3 161.8 171.8 181.1 188.3 194 196.7 201.8 205 203.1 204.1 199.6 194.8 180.8 164.2 148.1 133.7 127.8 122.7 117.9 118.3 113.7 102.5 87.8 81.5 76.2 69.6 68.8 72.9 79 90.1 111.5 140.2 159.2 170.3 183.5 198.2 215.9 230.2 228.7 221.7 215.1 210.2 205.9 204.2 206.3 195.7 179.1 167.6 160.9 157.3 154.8 151.6 148.8 146.6 144.6 142.3 140.2 138.1 135.9 133.1 130 127.1 118.2 111.6 108.5 103.9 102.2 95.3 93.2 87.5 78.3 75 69.2 68 62.6 60 60.4 63.1 63.2 63.4 63.5 63.9 64.1 64.3 64.1 63.8 63.5 63.4 63.7 63.4 63.5 63.5 63.8 64.3 64.4 64.4 64.1 68.7 84.1 96.9 108.3 117.7 127.4 131.7 135 139.3 142.6 144.9 140.2 135.1 125.5 113.7 105.1 100 97.3 95.9 94 92.7 99.2 103.5 105.2 106.7 108.1 109.5 113 116.3 119.1 120.8 123.3 128.2 133.8 141 147.3 153.3 160.4 167.5 175.3 180.2 183.3 180.9 175.3 177.5 186.7 194.9 202.1 204.9 207.2 206.9 204.6 203.2 203.9 207 213.2 220.5 224.3 226.6 225.9 220.8 212.9 208.4 203.5 193.7 178.4 167.7 158.8
184.2 168.5 155.1 141.8 124.3 94.6 96.1 101.4 111.5 116 119.7 124.4 126.8 129.5 132.6 135.2 138.4 141.4 149.2 159.8 171.3 182.3 189.3 188.6 181.2 170.2 156.5 151.2 150.5 153.3 155.4 156.2 158.7 160.3 159.4 160.6 170.4 176.9 181.4 185.4 189.9 193.3 195.7 197.3 196.5 190.9 183.4 171.5 163 147.4 135.3 129.4 127.2 129.8 131.8 126.8 113.3 90.4 81.2 76.5 70.9 66.2 69.6 75.4 87 112.1 137.1 154.4 167 178 196.9 216.1 224.5 221.5 216.2 209.5 206.1 204.8 206.7 206 193.3 178 166.8 162.5 158.7 155.5 153.6 151.8 149.6 146.1 143.8 141.7 139.6 137.1 133 127 120.9 113.5 110.7 110.9 108.3 102.2 97.9 91.7 86.9 85.5 79.2 69.2 62.9 58.7 61.1 61.9 62.5 62.8 63.1 63.2 63.5 64 63.9 63.8 63.6 63.3 63.7 63.6 63.3 63.2 63.3 63.7 64.3 63.7 62.4 67 83.1 96.5 106.2 118.7 127.8 133.9 138.5 143.1 147.2 149.1 148.9 146.1 138.3 129.1 122.6 113.9 111.7 103.5 100.9 99.2 96 101.1 104.9 107.6 109.6 112.1 114.3 117.2 120 123.1 125.6 127.9 133.2 140.1 147.8 155.5 164.1 172.7 181.1 188.3 193.1 198.3 200.7 186.7 186.7 194.7 202.4 208.4 211.9 213.5 214.8 215.7 214.4 214.5 216.3 216.5 222.5 226.6 226.2 222.1 215.5 209 201.5 192.9 183.2 177.4 171.1 154.3
166.2 157 147.8 137.3 126.2 113.4 95.2 97 109 113.1 116.1 120.5 122.7 126 129.7 133.2 136.1 142.1 152.8 163.6 174.1 182.4 184.3 179.8 167.7 157.1 147.6 144.9 146.9 148.2 151 153.3 154.9 154.3 154 161.7 168.8 172.4 174 178 183.3 186.4 186.9 189.2 188 181 175.1 169.3 161 149.8 141.9 141.7 145.2 150 148.2 137.5 121.4 96.2 84 78.5 73.7 67.6 67.6 71.3 84.2 108.4 128.3 144.3 160.6 174.6 193 205.2 210.3 212 209.8 207.4 205.7 207.5 206.9 200.8 190.3 178.6 171.3 166.3 162.3 158.3 156.7 155.5 153.6 147.9 145.2 143 140.7 136.6 131.9 124.4 117.1 114.3 116.5 117.5 107.9 104.7 100.5 93.5 89.7 84.1 76.2 67.2 58.6 60.7 61.9 62.1 62.8 63.4 63.3 63.1 63.3 63.6 63.8 63.6 63.4 63.3 63.7 63.4 63.2 63 63.3 63.9 64 62.2 64 76.6 93.4 105 114.9 125.6 133.9 138.9 144.2 148.5 151.2 153 152.6 149.7 142.3 135.4 128.8 122.8 118.1 110.9 105 103.2 100.1 101 106.8 109.8 112.6 114.8 117.1 120.2 123.7 126.8 129.8 132 138.2 145.9 155.6 163.6 173.3 183.1 192.6 198.7 205.1 213.8 210 194.9 195.4 203.3 210.4 214.4 217.3 219.2 220.8 221.6 221.8 222.8 224.1 223.3 225.7 227.2 223.7 220.1 222 220 214.1 206.6 197.4 183.3 163.2 152.7
153 147.9 139.1 129.3 119.6 108.8 94.1 92.2 104.2 110.6 112.8 115.1 119.2 122.9 126.9 130.8 135.8 146 154.9 163.8 173.8 179.7 182.6 178.8 159.4 142.7 141 141.6 143.7 144.4 146 148.7 149.8 149.7 154.2 160.5 164.7 167.9 166.8 172.1 178.1 181.8 180.9 179.1 181 174.1 169.9 164.9 158.3 152.1 151.5 152.6 156.9 158.3 153.6 140.5 119.3 102 92.4 83.3 77.9 72.4 63.3 73.2 85.6 100.5 112.6 129.8 153.1 175.4 193.9 204.6 211.7 218.6 214.6 209.9 206.6 207.1 202.2 195.8 192.2 183.7 178.7 173.3 170.1 166.3 163.2 160.6 156.3 150.6 146.5 143.7 140.9 135.4 130.2 124.3 117.2 118.3 118.5 113.6 108 106.9 101.8 94.6 88.5 79 70.5 58.9 60.9 61.7 62.4 62.2 62.5 62.9 63.1 62.9 63.4 63.5 63.7 63.4 63.1 63 63.4 63.3 63 62.8 63.5 64.1 62.4 64.8 75.5 89.9 103.2 112.5 122.6 131.6 139.2 143.9 147.6 151 154 156 156.8 155 147.9 139.6 132.8 128.7 123.3 115.8 108.6 106.7 105.5 104.1 108.3 113.3 114.8 116.7 119.4 122.2 125.8 129.3 132.8 135.6 141.4 149.4 160 171.6 181.5 191.2 201.2 209.3 218.4 225 214 203.2 206.2 212.6 217.5 221 222.8 224.4 225.1 224.9 224.5 225.8 226.4 225.6 226.3 224.7 222.6 224 225.3 224 220.9 214.2 196.7 172.5 155.9 156.5
142.3 140 135.5 128.3 119.8 108.7 93.1 91 99 108.3 109.9 112.7 117 120.8 124.6 128.8 135.8 145.5 156.3 163.6 172.7 179.2 184.6 179.7 155.4 137.6 136.8 137.3 139.8 140.9 142.9 145.6 147.2 149.8 153.2 157.3 159.8 158.7 160 167.7 174.4 175.6 175.3 174 171.9 168.2 163.9 159.3 155.3 155.1 156.4 159.7 163.4 161.9 155.1 135.9 117.6 108.9 103.5 94.6 84.2 75.7 65.7 72.8 84.5 93.8 101.9 124.5 148.5 176 193.3 205.2 215.2 219.9 217.7 211.1 207 202.8 199 196.4 193.7 190.7 183.1 181.2 175.6 172.7 170.5 168 161.1 154.2 149.1 145.4 141.1 135.3 128 120.9 114.7 117.2 114.9 107.3 107.7 108.6 98.1 89.8 80.1 69.5 64 58.3 61 62.2 62.7 62.5 62.5 62.4 62.8 62.8 63.1 63.2 63.3 63.3 63.4 62.8 63 63.1 63.2 62.9 62.5 63.8 74.6 80.9 89.5 101.8 111.1 120.3 129.2 138.2 144.3 147.7 150.7 154.1 157.2 160.5 162 159.6 151.4 143.1 138.8 131.3 126.4 119 113.6 110.5 109.4 106 113.8 118.3 117.1 118.4 120.7 125 130.4 134.5 136.6 139.1 143.2 152.1 163.2 177.3 188.4 199.2 209 219.7 230.6 227.4 219.3 215 216.8 220.4 224.8 226.8 227.4 227.2 226.6 224.7 224.3 225.5 225 224.9 223.7 222.6 223.9 227.2 226 221.6 217 205.5 183 162.1 156.9 160.8
137.3 136.4 133.8 126.3 118.6 106.8 92.2 89.1 98.9 105.4 107.3 111 115.3 118.4 120 124.4 133.3 144.9 154.4 163.6 172.8 179.3 182.8 173.8 149.4 134.3 133.6 134 136.9 137.7 139.3 141.8 144.2 147.6 149.7 152.1 151.9 149.9 156.5 164.2 169.6 170.3 170.8 169.3 166.5 163.3 158.4 152 151.1 153.8 158.8 164.8 167.3 160.5 148.3 133.7 120.5 115.2 110.2 102.1 90.6 82 67.8 72.3 79.9 90 101.1 121.3 143.8 170.5 189.2 200.6 208.6 210.8 208.6 203.3 197.9 193.1 191.7 189.1 190 189.9 183.8 181 177.6 175.9 173.8 172.4 166 157.9 153.5 149.7 141.3 134.4 119.5 109.8 109.7 108.5 101 98.6 105.5 99.9 85.3 75.4 64.5 63.1 61.8 58.3 60.9 62.6 62.3 62.2 62.3 62.4 62.5 62.6 62.8 62.9 62.9 62.8 62.8 62.8 63 63.1 62.7 62.7 62.6 65.4 78.3 89.1 97.5 107.6 116.8 127.3 136.3 143.5 146.8 150.2 153.9 157.8 162.9 165.6 166.5 162.2 153.5 147.7 141.7 133.9 126.9 119.9 116.6 114.3 111.8 109 116.1 119.3 117.7 120.9 127 133.6 143.1 147.9 144.7 143.8 146.6 153.8 167.6 179.5 193.7 206.1 219.4 230.4 233.2 226.4 222.4 221.1 222.7 226.8 228.9 228.6 228 227.2 225.5 223.1 222.1 222.6 222.4 222.6 221.5 223.2 225.8 224.9 221.7 217.7 210.5 191.2 168.6 159 160.5 164.7
133.1 131.4 129.2 124.3 115.1 105.8 91.6 88.5 96.9 102.6 105.2 107.6 112.6 115 115.6 121.2 130.6 141.6 153.8 163.9 169.9 174.9 174.4 166.6 143.2 131.1 127.8 132.4 133.9 134.9 136.2 139.2 141.5 143 144.7 146 145.1 146.8 153.3 161 164.8 166.1 168.3 167.4 163.5 156.4 151.9 146.3 147.6 152.7 164.2 165.6 159.7 151.4 142.6 131.6 123.5 118.2 113.6 105.7 95.4 85.8 74 67.1 74.4 87.1 99.9 113.7 135.3 160.4 178.8 188.7 195.2 196.6 193.5 188 181.2 176.3 177.2 179.7 182 182.8 181.9 183.5 180.1 181 179.1 177.5 171.9 162.2 154.6 144.3 135.7 124.9 115 94.4 96 93.2 85.7 93.5 93.8 80.6 65.6 62.9 62.2 61 61.1 57.5 58.7 62.2 61.9 62 62.1 62.2 62.4 62.9 62.5 62.5 62.5 62.6 62.6 62.8 63.1 63.2 63.5 63.6 63.5 70.7 85.2 95.8 103.3 111.6 121.5 131 138.7 144 147.7 152.4 157.8 163.2 167.5 169.8 169.4 163.8 155.3 150.2 143.3 132.5 124.6 119.8 118 116.3 112.5 111.1 112.9 116 119.1 127.1 137.8 146.7 153.9 158.2 158.8 157.7 157 163.5 172.7 184.4 200.2 214 227.6 231.8 229.8 224.7 222.5 222.7 225.3 228.2 228.3 227.9 225.8 224 221.1 219.4 218.5 218.5 219.6 220.1 221.5 222.7 221.3 220.2 218 213.7 201.1 178.1 162.2 160.4 165.2 171.8
129.5 127.2 125.2 120.5 115.4 107.3 95.3 87.9 91 97.6 101.6 103.5 108.6 111.1 109.8 118.5 128.2 141.2 151.9 158.3 164.2 166.7 166.5 157.9 136.3 128 124.6 128.4 130.9 131.9 132.8 134.8 136.1 138.4 139.9 141 141.1 144.4 151.3 156.8 160.4 163.6 166.1 164.5 155.7 148.5 146.1 143.9 143.7 151.7 155.7 154.3 149.5 143.5 136.4 131.6 124.5 120.7 116.4 109.1 99.8 89.4 79.5 68.3 64.5 80.8 95.7 103.3 123.3 146.4 163 170.7 177.4 177.8 175 168.9 162.2 160.5 165.3 171.5 175 173.4 176.5 179.5 181.7 181.6 181.2 178.6 164.5 154.6 143.4 130.5 121.9 109.7 103.2 89.8 78.6 75.8 76.5 81.1 73.1 61.5 61.8 61.9 61.5 62.6 62.7 61.2 58.7 61.2 61.7 61.9 62 62.2 62.5 62.3 62.2 62.3 62.4 62.5 62.5 62.5 62.8 63.2 61.3 63.1 63.4 73.2 89.3 102.1 109 117.9 125 132.6 139.2 144.5 150.6 156.6 162.5 166 169 171.6 171.6 164.5 156.2 146.5 136 127.8 122.4 120.4 119.1 117.6 112.7 113 114.8 117.8 123.6 134.7 146.2 155.1 161.3 166.4 167.9 172.1 172.8 174.4 180.9 192.2 207.8 220 231.9 227 223.3 221.7 223.1 225.8 225.3 225.9 225.5 223.1 221.2 218.1 216.5 215.9 215.1 216.6 218 217.7 218.3 218.1 217.8 217.5 215 208.2 189.9 169.7 161.5 165.7 175.3 181.9
128.8 125.7 122.2 116.7 112.4 108.8 104.2 88.4 86.7 91.1 97.7 99.4 101.4 102.4 106.8 117.1 128.8 133.4 139.2 151.6 159.1 161.1 158.4 148.4 130.4 123.7 123.5 122 125.3 127.4 128.2 128.9 132.5 135.1 136.4 137.1 139.2 143.3 149.1 153.3 156.6 160.7 162.9 160.4 153.2 146.7 144.9 142.1 139 140.9 142 141.1 139.4 136 130.4 126 125.3 123.6 118 111 102.7 93.1 83 70.6 62.7 75.7 83.4 92.5 113 133.8 143.7 149.9 153.5 152.7 151.4 148.4 142.3 142.4 149.1 153.3 154 154.6 159.7 163.2 164 161.4 161.5 155.5 146.4 135.1 124.7 108.5 96.7 90.1 88.3 81.4 67.7 63.1 64.8 64.8 61.3 61.4 61.7 61.6 61.1 61.1 61.5 61.1 59.7 58.9 61.4 61.7 62 62.1 62.1 62.2 61.9 62.1 62.3 62.4 62.5 62.5 62.7 62.8 63.1 63.1 66.8 84.2 101.4 111.8 118 122 127.7 134.7 141.3 147.8 154.1 159.8 163.6 166.9 170.6 173.1 168.4 160.3 149.5 136.9 129.6 125.3 122.7 121.2 119.6 114.9 115 116.7 120.8 124 126.4 139.1 152 160.4 166 170.7 176.3 181.3 184.6 187.1 193.9 202.2 214.7 221.7 223.9 220.6 220.1 221.6 224.7 223 221.9 220.9 220.5 218.1 214.7 212.3 212.3 212 212.9 215.2 215.2 214.4 215.6 216.2 217.5 216.1 211.9 200.5 179.5 167.2 163.3 173.3 185.3 193.7
128.4 125.5 120.9 114.4 109.1 104.7 96.9 91.5 86.9 85.2 90.5 96 96.3 100 107.2 115.8 116 122.7 139.1 149.9 154.2 155 150.9 143 129.9 120.4 120.1 119.4 121.8 123.5 125.1 126.2 129.4 131.6 132.4 132.1 138.1 144.2 147.6 150.5 154.1 159 162.1 159.7 155.3 149.1 146.5 141.2 137.9 134.1 133.1 131.3 130.8 127.1 121.4 123.3 122.8 120.2 117 112 104.2 95.2 85.4 70 62.4 70.9 77.5 84.6 104.7 124.9 134.3 136.8 134.5 131.6 128.6 126.9 127.3 133.7 135.2 134.4 134.2 135.3 141.4 143.5 144.8 140.2 136.7 130.8 120.4 111.1 101.3 84.6 73.3 71.7 70.1 64.4 62.7 61.6 60.9 60.9 61.1 61 60.9 61.8 60.7 60.7 61.3 61.1 59.3 58.7 60.3 61.2 61.2 61.9 62.1 61.9 61.7 61.8 62 62.8 62.9 62.9 62.4 63.4 63 63.3 78.7 96.5 109 116.4 119.9 123.6 130.7 137.8 144.4 150.3 154.1 157.2 161.3 165.1 168.8 168.1 160 149.3 140.1 131.1 127.7 125.3 123.3 121.4 119.2 118.6 121.5 125.5 130.1 133 134.3 137.3 152 162.1 170.1 177.1 182 188.4 194.2 199.7 205.4 211.3 214.5 215.4 215.3 216.4 219.7 221.8 220.5 218.9 217.9 216.7 215.4 213.1 209.4 208.7 208.8 209.3 210.6 211.5 211.4 213 215.2 217.4 216.8 215.6 210.6 194.5 178.2 167.4 167.7 180.5 192.5 200.4
128.2 128.9 133 132.5 127.9 122.3 114.9 109.6 94.8 84.2 83.6 89.2 93.8 98.9 105.4 106.5 114.4 126.5 138.3 145.1 149.2 151 146.3 136.2 123.4 115.5 115.4 117.8 118.8 120.6 120.9 121.7 125.2 127 126 132 136.7 139.9 144.6 148.2 152.2 155.6 157 156.5 153.2 149.1 144.6 142.7 137.7 126 123 124.3 122.4 118.1 119.5 120.1 118.6 116.2 113.3 108.8 103.3 95.2 86.3 69.9 60.4 68.7 75 78.9 96.7 113.6 122.2 124.3 120 114 113 116.5 122.9 128.1 127.1 124.3 122.5 122.4 125.2 126.2 125.3 118.6 111 105.5 95.1 83.7 72.1 62.5 60.5 60.2 60.1 61.1 62.1 61.1 60.5 60.6 60.7 61 60.1 60.5 60.6 60.6 60.5 61 60.2 58.7 60.9 58.4 61.6 61.3 61.2 61.4 61.5 61.9 62.7 62.9 63 63 62.3 63.4 65.9 71.5 84.8 100 108.3 115.1 117.2 125.9 133.1 139.3 144.7 147.1 150 155.1 160.4 165.2 168.6 166.4 154.8 140.2 134.1 128.3 127.4 125.8 123.7 120.7 120.2 123.4 128 133.1 139.6 144.5 144.7 143.2 153.5 166.4 176.9 182.4 188.2 196.2 203.4 210 212.1 211.8 209.3 210.1 211.8 215.9 218.1 218.9 217 214.5 213.1 211.7 209.8 206.7 205.1 206 205.8 206.6 207.7 207.9 210.7 214 216.6 216.3 216.1 215.5 212.5 199.8 182.3 168.5 173.8 187.1 197.4 205.2
142 141.1 147.7 146.3 140.4 138.7 131.2 119 102.7 84.9 82.2 82.7 88.7 95.4 99.6 107 115.9 124.3 133.4 141.4 146.6 146.5 137.7 123.5 108 108.2 113.8 115.2 116.1 116.4 113.1 116 120 121 124.6 130 131.7 134.2 140.1 144.4 148.9 151.9 153.5 153.7 154.2 151.7 147.2 142.2 134.1 126.4 117.3 114.6 114.4 112.1 113.4 113.8 113.3 112.4 109.5 105.6 101.1 94.1 83.2 72.1 62.9 62.5 69.1 72.7 87.2 102.5 106.5 105.9 101.6 100.7 104.9 111.8 118.9 120.5 119 114.7 110.3 107.6 107.8 107.6 101.9 95.2 86.1 78.3 68.6 61.4 59.8 59.7 59.9 60 59.8 60 60.8 60.6 60.2 60.1 60.5 60.7 60.7 60.5 60.6 60.6 60.2 60.9 60.1 58.6 60.8 60.5 59.9 60.4 61.3 61.6 61.5 61.5 63.9 62.6 62.9 62.5 62.4 68 70.7 77.4 88 98.7 106.6 113.4 120 127.1 133.8 137.4 141.6 144.5 148.6 156.8 163.7 167.7 167.7 160.7 145.2 134.5 127.8 126.5 125.3 123.8 122.7 121.9 124.3 127.6 132.5 140.4 148.1 154.8 158.1 155.2 156.5 170.5 180.1 186.8 196.6 206 211.3 210.7 209.9 208.7 206.6 207 210.9 214.3 216.5 215.7 212.4 209.6 207.5 205.9 203.6 201.2 202.4 202.6 202.8 204 205.3 208.8 211.9 214.6 215.7 215.3 214.6 213.3 210.9 205 187.8 171.5 177 190.8 201.6 208.1
157.4 158.4 160.2 153.6 150.8 147 140.4 122.1 101.2 91.2 83 80.9 83.9 91.5 94.3 102.8 110.8 122.6 132.1 138 140.7 135.6 122.2 103.8 100.5 108.2 111.3 112.7 112.5 110.7 109.9 112.5 115.9 120.4 123.9 126.2 128.3 132.1 137.8 142.9 147.1 151.3 152.6 156 157.3 152.6 148.8 139.4 131.8 123.8 116.3 110.6 106.7 107.7 106.4 106.8 108.1 108.3 106.3 102.5 96.6 90.8 82.2 72.7 62.2 60.8 63.5 66.8 78.7 90.5 93.7 92.9 91.3 95.8 100.7 105 105.8 107.9 108.2 102.9 97.9 94.3 91.6 90.5 82.3 72.1 63.7 59.9 58.7 58.8 59.2 59.7 60.1 59.9 59.7 59.4 59.8 60.1 60.4 60.4 60.4 60.3 60.6 60.5 60.4 60.2 59.8 59.9 59.7 57.9 60.9 60.7 59.3 60.7 59.5 61.5 61.5 61.5 64.4 62 59.9 62.8 62.5 70.5 75.5 80.1 87.4 95.9 105.7 115 121 125.2 130.3 134.6 140.2 147.1 152.5 158.9 164.3 166.2 164.1 152.1 138.6 127.8 125.3 124.7 126.5 126.4 125.9 126.6 129 133.9 137.1 145.5 154.9 161.1 164.6 166.9 167.1 172.9 182.8 193.3 203.9 209.1 209 207.9 207.2 206.9 206.7 202.9 208.5 213.3 213 210.5 207.5 204.8 202.1 199.6 198 197.7 198.2 199.4 200.8 202.8 205.4 209 212.3 213.2 213.2 212.9 212.4 212 209.8 205.3 192 176.5 178.7 193.5 204.2 208.7
170 168.8 162.5 158.2 155.9 151.9 139.3 119.7 108.3 100.3 87.2 81.3 79.6 85.4 89.3 95.6 108.7 120.7 128.8 132.5 131.4 122 103.6 95.6 102.3 105.8 108.2 109.1 108.2 105.4 110.5 115.1 118.6 123.2 126.3 130 135.2 140.8 144.6 143.2 148.1 151.2 154.9 159.5 158.6 154.7 150.3 143.8 136.1 125.9 116.1 110.8 102.9 102.4 102.5 101.5 102.7 104.4 102.5 99.6 94.8 85.2 77.7 71.1 60.8 61.6 61.9 63.9 71.3 79.1 82.9 85.7 88.9 92.6 95.5 97.4 99.7 101.3 102 95 88.5 82.7 70.7 67.2 61.9 59.7 58.9 59.2 59.1 58.9 59.2 59.5 59.7 59.8 59.6 59 60.3 59.9 59.9 60.1 60.3 60.1 60 60 60 59.9 59.4 59.2 59.6 57.4 60.4 60.7 59.6 61 60.7 61.4 61.5 61.5 63.7 61.3 62.5 62.4 64.6 73.8 76.9 80.5 87.7 98.2 108.7 118.2 123.4 126.9 131.1 136.3 143.5 150.8 155.9 161.2 163.4 163.1 155.1 138.7 129.4 127 126.9 128.2 129.4 129.4 129.4 131.3 138.3 144.8 147.9 150.6 160.1 165.7 171.4 175.7 174.9 178.8 189.6 198.4 205 205.2 204.7 204.8 204.8 205.5 205.4 200.6 208.4 209.6 208.3 205.7 202 200.1 196.4 194 194.5 194.2 194.7 197 200 202.6 205.2 208.8 211.3 210.6 210.6 211 211.5 209.7 208.5 207.6 198.2 183.1 179.1 194 205.1 210.6
174.7 168.9 162.1 159.2 155 145.5 133.3 122.4 115.5 104 90.7 83 79.4 78.1 85.3 89.2 101.7 116.9 124.7 125.6 120.5 106.3 92.6 91.3 98.4 101.4 103.5 103.2 101.3 107.5 111.6 115.6 121.2 126.4 130.3 133.9 140.7 145.2 147.9 149.4 150.5 154.9 159.9 161 159.2 157.6 152.8 146.7 140.2 133.3 118 113.1 107.7 103.7 97.6 91.9 95.2 99.7 98.5 94.4 87 76.6 73.8 68.6 59.9 61.4 61.6 63 67.1 72.3 78.1 84.5 88.7 89.2 88.4 90.5 92.5 93.3 90 82.3 72.4 66.7 63.1 60.3 59 58.8 59.2 59.4 59 59 59.2 59.4 59.2 59.3 59.4 59.4 59.6 60 59.6 59.8 60.1 60 59.7 59.7 59.7 59.7 59.5 59.9 58.7 60 60.3 60.2 60.2 58.7 61.5 60.1 60.8 61.9 62.6 62.1 62.3 62.1 65.7 69.9 77.6 86.8 95.3 103.9 112.3 120.6 125.2 130.7 136.6 143.1 148.8 154.5 160.1 163.9 162.4 155.7 141.4 128.4 127 127.7 128.8 130.8 132.4 132.8 133.9 140 148.9 154.9 158 159.6 164.8 169.9 176.4 179.9 182.1 188.2 194.7 199.9 201.8 201.8 201.9 202.5 203.4 204.1 204 195.3 203.8 205.3 204.2 201.2 197.2 194.2 190.9 191.3 191.5 191.9 194.1 197.3 200.1 202.7 205.2 207.7 207.8 207.6 207.4 208.5 208.5 208 209.4 209.4 202.8 191.8 178.8 191.9 202.9 211.1
171.8 165.1 159.3 155.5 147.4 139.5 130.7 121.4 110.9 95.5 88.4 82.8 79.7 77.7 77.7 86.3 93.6 109.7 116.5 117 108.9 95.6 91.5 87.4 92.3 96.6 95.9 96 104.8 108.6 113.5 117.9 122.9 128.9 134.3 139 146.2 150.6 153.4 154 157 163 167.1 163.9 160.3 156.1 151.9 148.6 142 134.1 124.3 120.7 110.7 106.2 103.4 98.2 84 86.2 88.8 82.6 77.2 71.2 73.4 68.5 58.9 60.8 61.3 61.8 66.9 71.7 77.4 82.6 84.6 81.6 79.3 80.3 81.6 80.5 77.5 69.9 62.5 61.2 60.4 58.9 58.8 59.1 59.4 59.4 58.8 58.8 59.1 59.3 59.4 59.4 59.4 59.6 59.7 60 59.4 59.5 59.8 59.8 59.4 59.2 59.4 59.7 56.5 58.9 57 60.1 59.2 59.6 57.4 58.1 61.2 61.5 61 61.7 62.6 62.1 61.4 63.2 67 71.5 84.2 92.9 99.4 107.9 116.1 123.2 129.5 136.1 142.5 147.5 155 161.4 161.8 159.6 151.3 136.4 129 127.5 127.5 129 131.5 133.7 135.2 136.5 138.3 147.3 157.4 162.6 166.2 167.1 169.7 174.9 179.6 184.4 190 193.5 197 198.2 198.8 199.6 200.9 201.3 201.8 202.5 201.1 193.4 198.8 200.6 199.2 195.1 191.2 188.1 188 189.6 190.6 192.1 194.5 197.1 199.2 201.5 204.2 204.7 204.9 204.8 204.6 204.8 206 208.1 209.9 209.4 208 199.6 185.5 187.9 200.4 209.7
166.3 162.3 156.6 150.3 144.5 136.9 128.1 121.4 114.6 105.1 98.9 94.1 86.7 77.6 75.5 84.4 88.2 101.2 108.1 107.4 98.2 91.1 89 85.6 85.4 87.3 94.6 100.4 105.3 110.7 116.5 120.2 124.5 131 141.5 151.9 158 158.9 157.5 159.7 166.3 173.4 169.8 164 153.9 147.2 142.6 146.5 143.6 137.4 132.1 126.4 117.3 109.7 105.3 100.9 93.2 85.6 71.8 70.8 69.2 66.2 64.9 62.2 58.9 59.9 60.3 60.8 66.4 72.3 76.3 77.5 76.5 75 73.5 71.9 71.5 70.1 67.3 60.7 59.2 59.1 59 58.3 59.1 59.4 59.1 58.8 58.4 58.7 59 59.2 59.2 59 59.2 59.6 59.8 59.6 59.3 59.2 59.4 59.7 59.3 59.3 59.5 59.6 57.6 56.6 59.5 59.7 56.6 59.9 60.9 60.6 61 62.1 62.3 65.1 63.1 62.8 62.4 66.2 71.8 78 84 91.3 100.8 111.8 118.5 126 133.2 139.9 146.3 153.9 160.3 160.3 151.6 144.1 136.3 129.8 128.4 128.8 129.7 131.8 134.6 137 141.4 147 148.2 149.2 160.6 168.3 172 173.6 174.8 179.8 186.4 192.2 195.1 196.7 195.6 194.7 196.4 198.7 199.6 200 200 199.2 197.3 191.1 193.3 194.4 192.4 188.3 185.4 188.5 190.8 192 192.7 193.7 194.9 196.7 198.4 200.4 201.8 202.5 203.1 202.3 201.7 202.7 204.4 207 208.7 210.7 210.4 204.4 190.8 187.2 198.9 209.2
168.2 165.1 160.3 155.6 151.7 147 144.7 138.7 126.9 118.3 112.4 110.2 98.5 83.6 75.4 76.2 81.6 91.9 99.3 98.6 90.5 87.4 85.5 81.9 88.7 91.2 95.9 100.6 105.4 110 117 123.7 133.2 142.2 152.4 160.7 162.8 165 166.7 171.3 178.3 178.5 171.1 164.2 148 137 134.4 141 144.7 141 138.5 133.3 125.6 117.3 110.9 105.4 98.9 91.7 84.7 80.7 76.4 72.2 64.4 60.9 59 58.5 59.1 59.6 63.3 71.4 75.3 75.4 74.5 72.7 67.6 63.6 63.1 61.3 59 58.9 58.8 58.7 58.7 59 59.2 59.1 58.7 58.3 58.1 58.5 58.7 59 58.8 58.6 58.9 58.8 58.5 58.9 59 59 59.2 59.4 59.3 59 57.3 56.5 56.5 58.8 59.5 59.3 58 61.3 61.7 61.7 62.2 62.6 63.5 63.7 63.8 64.5 67.3 72 75.6 82 87 92.4 103.4 114.3 120.2 129.2 137 144.6 152.2 157.5 156.7 149.9 140.4 132.5 128.8 128.9 129 131 132.5 135.3 143.2 148.2 154.6 161 163.3 161.5 162.5 169.5 175.2 178.4 181.5 186.8 192.2 195.4 198 196 191.9 191.6 194.4 196.7 197 196.9 196.7 195.6 193 186.9 187.7 188.3 185.2 184 188.2 191.2 193.6 195.4 195.4 194.3 194.1 195.3 196.9 198.4 199.1 200.2 200.9 200.4 199 201.7 204.3 207.3 210 211.5 211.8 209 196 189.1 198.2 208.7
174.7 175 172.8 168.1 166.3 161.3 155 143.5 134.1 130.8 122.1 120.2 114.5 96.4 76.3 74.4 76.5 85.2 90.5 88.2 85.4 84.3 80.4 80 85.3 89.5 98 107.7 113 119.8 130.5 138.7 148.7 157.1 161.5 163.1 167.2 169.2 171.5 178.1 182 180.6 172.8 164.2 147.5 133.5 129.4 132.6 144.2 143 141.9 138.5 133.7 129.1 122.9 114.9 108.4 99.2 91.3 86.7 79.6 72.5 64.6 59.9 58.4 55.8 58.7 58.6 63 70.9 75.2 75.3 68.9 62.4 58.8 58.4 58.1 58.3 58.6 58.8 58.8 58.8 58.3 58.6 58.7 58.5 58.2 57.8 57.8 57.8 58.2 58.3 58.2 58.2 58.2 58.2 58.5 58.6 58.8 58.8 59 59 59.1 59.4 56.5 57.1 57 58.4 59.3 57 60.1 61.6 61.8 62 62.4 62.6 64.1 64.2 65.2 67.3 71.2 72.4 74.4 80.2 87.4 93.7 102.9 116.3 124.6 132.3 140.5 150.5 155.7 151.9 144.5 136.5 131.7 129 128.4 128.7 131 133.1 135.9 142.5 153.2 160.4 166.4 171.9 172.5 170.9 171.3 174.5 180.7 185.5 189.6 194 196.5 198.5 197 192.8 188.5 189.1 191.1 193 193.7 193.3 192.7 191.2 188.2 183.1 182.2 181 182.1 186.9 190.7 193.5 195.8 196.7 195 192.8 192.1 193.2 194.7 195.7 196.2 197.8 196.9 195.8 198.7 202.3 205.6 208.5 211.7 212.9 213.5 213.5 197.9 191.2 197.2 206
184.7 183.9 182.1 174.8 168.7 161.8 151.6 141.4 139.4 134.4 125.8 122.1 125.1 111.3 83.3 75.2 73.5 73.9 79.6 81.3 81.5 81.2 75.7 79.5 85.6 93.1 103.4 113.2 124.5 135.2 148.8 158.4 161.4 165.1 167 167.1 170.2 173.6 182.1 186.2 183.6 178.4 171.2 161.9 146.7 127.9 124.4 126 141.1 141.2 140.9 140 138.9 136.1 127.9 120.5 114.9 105.6 96.6 87 79.2 73.8 66.5 59.4 57 56.3 58 58.1 62.3 69.1 69.5 66.3 58.8 57.2 57.4 57.4 57.7 58 58.3 58.7 58.6 58.3 57.5 58 57.8 57.7 57.7 57.7 57.6 57.7 57.8 57.8 57.9 57.9 57.9 58 58.5 58.5 58.6 58.6 58.6 58.6 58.6 58.8 58.4 56.2 56.9 56.2 58.2 60.6 61.2 61.5 61.7 61.9 62.2 63 67.1 65.8 65.7 67.1 69 70.6 72.7 75.1 83.2 95.2 103.3 116.7 128.1 136.5 146.5 151.6 145.6 137.6 132.3 129.9 129.2 128.5 128.8 130.2 133.5 137.2 140.4 148.6 160.9 170.3 175 177.6 177.8 175.9 178.3 182.2 187.4 191 195.7 199.3 200.4 199.2 196.1 191.1 188.5 186.8 186.6 188.6 189 189 188.2 186.6 182.7 177.8 175.9 178.9 183.9 188 191.8 194.3 194.9 194.5 192.1 189.5 189.9 191 191.7 192 192.3 193 192.4 196.3 199.8 203.3 206.9 210.3 213 214.7 216.1 214.4 197.2 193.5 195.2 201.9
195.4 192 184.2 173.3 168.8 161.6 151.2 142 138.8 132.2 125.1 121.7 124.1 118.3 91.1 74.8 73.1 71.4 71.2 72 76.9 75.4 74.2 83.2 90.6 96.3 107 120.5 132.4 143.4 158.4 168 172.8 173 172.1 171.5 176.5 184.4 190.2 190.9 182 174.4 165.4 155.9 142.1 125.4 120.7 120.7 132.3 137.5 136.5 136.1 137.2 134 128.8 124.1 117.6 108 96.2 86.2 76.9 69.9 63.8 58.2 55.4 57.1 57.8 57.5 57.8 62.7 61.6 56.2 56 56.4 56.4 57 57.3 57.6 57.9 58.2 58.1 57.7 57.1 57.5 57.1 57.1 57.6 57.6 57.5 57.5 57.5 57.6 57.6 57.6 57.6 57.7 58.3 58.5 58.5 58.3 58.5 58.5 58.4 58.3 58.5 56 58 60.4 60.5 60.8 61 61.3 61.7 62.2 62.5 64.4 68.2 66.5 67 69.5 72.8 78.7 82.2 83.4 80.9 90.7 103 117.4 132.8 143.7 144.2 139.4 132.9 129.1 128.9 129.8 130.5 131.2 132.3 136.4 142.4 146.6 151.1 157.5 169.5 176.4 179.6 180.7 180.1 183.5 184.8 187.6 191.9 197 201.7 203.1 199.4 196.1 193.9 194.5 193.4 188.6 184.9 183.7 183.5 183.8 183.4 180.7 176.7 171.8 174.3 180.1 184.1 188 191.7 192.1 191 190 187.9 185.6 187.3 188.4 188.4 188.1 187.9 189.9 192.6 196.6 200.6 204 207.5 210.3 212.9 215.5 219.1 213.3 197.8 199.1 201.6 203.4
196.4 187.5 177.7 171.1 167.9 158.8 147.3 141.6 137.4 129 124.7 118.8 121.8 116.8 92.6 75.2 73.3 72.3 71.1 70.4 71.4 73.1 80.2 84.9 91.9 100.6 110.1 123.5 136.4 149.9 164.7 173.7 179.2 183.4 179 177.6 182.2 191.1 193.4 189.3 178.1 169.5 157.9 147.6 136.3 123.1 117.5 116 120.1 129.9 130.2 131.4 132.9 131.4 129.6 124.3 116 106.3 95.8 84.8 73.7 66.1 60.3 57.2 55 57.1 57.4 57.1 56.8 55.9 55.2 55.5 55.9 56.3 56 56.5 56.8 56.9 56.9 57.2 57.8 57.2 56.7 56.7 56.9 57.1 57.5 57.5 57.4 57.3 57.3 57.3 57.3 57.4 57.4 57.6 58 58.4 58.5 58 58.2 58.4 58.5 58.3 56.4 56.6 58.7 60.5 60.6 60.7 60.9 61.3 61.7 62.4 64.7 68.7 70.1 70.3 71 74.6 80.4 86.9 93.2 99 102 92.5 102.5 116.1 127.5 130.1 129.6 126.4 126.4 127.6 129.5 131.5 132.9 134.5 139.7 145.8 152 155 160.9 168.2 174.2 179.7 181.1 182.2 185.9 185.9 187.7 192.3 196.6 201.8 205.8 201.4 195.4 194.8 196.7 197.4 194.1 190.3 186.2 182.6 179.9 179 178 174.8 171.5 169.8 174.6 178.9 182.5 185.2 187 186.5 185.5 184.6 183 183 183.3 183.3 183.5 184.9 186.9 189.1 193.4 197 200.7 203.5 207.4 210.2 213.4 217 219.7 212.8 201.4 202.4 213.9 213.1
186.2 176.6 170.5 168.4 162.3 154.6 145.9 139.9 134.3 127.1 121.9 116.9 119.4 112.3 91.8 78.6 74.8 72.9 70.6 69.7 71.2 75.7 78.9 83.1 91.1 101.5 111.4 125.1 142.1 157.9 168.7 175.9 184.3 187.2 182.1 179.8 183.5 193.3 193.3 184.3 174 165.7 155.1 142.4 131.5 120.3 114.4 111.8 113.9 121.7 122.2 125.1 128.8 131 127.3 121.2 112.9 103.7 93.7 81.3 69.3 62.5 57.7 55.9 55.7 56.9 56.8 56.3 55.7 55.2 55.1 55.4 55.8 56.2 56.2 56.1 56.4 56 55.8 56 56.5 55.5 56.4 56.6 56.9 57.1 57.4 57.2 57 56.9 57 57.2 57.3 57.3 57.4 57.7 57.5 58 58.1 57.9 58.3 58.5 58.4 57.5 56 58.5 59.8 60.5 60.8 60.8 60.9 61.2 61.8 66.5 69.6 72.8 72.8 74.4 77.4 82.8 89 96.4 107.2 118.4 120.4 107.1 99.5 109.3 115.5 119.3 119.9 122.2 125 127.9 130.6 133.1 135.2 141.5 148.5 152.9 157.6 162.3 168.9 176.6 180.9 180.9 181.8 184.5 185 187.4 191.7 195.8 199.7 203.8 203.8 196.8 194.4 196.1 198 195.7 192 188.4 185.2 182.1 178.7 174.3 171.7 169.4 166.9 169.7 172.5 175.8 179 180 180.8 181.3 180.9 178.6 177.7 178.8 183.3 186.1 188.3 190.2 191.5 190.7 193.3 197.7 200.9 203.9 208 211.2 214.8 218.1 220.6 216.9 210.4 200.4 211.9 220.4
174.6 170.2 165.7 161.5 157.1 149.7 142.1 134.1 130.1 124.3 118.6 112.7 107.8 92.1 83.4 82.3 79.5 76.1 71.1 69.2 68.9 68.1 77.5 81.4 89 101.6 116.4 132.7 152.3 164.6 172.3 177.4 183 180.8 176.2 179.2 184.3 192 189.8 183.1 174.8 170.4 159.9 141 126.9 117.6 111.5 106.8 107 112.1 112.8 116.6 121.3 124.8 125 115.3 105 94.2 85 72.9 62 57.7 56.4 56 54.1 56.2 55.6 55 55.1 55.1 55.1 55.2 55.6 56.1 56 55.9 55.9 55.5 55.1 55.3 55.6 55.9 56.3 56.5 56.8 57 57.2 57 56.6 56.4 56.7 56.9 57.2 57.2 57.5 57.4 57.2 57.5 57.7 57.9 57.7 56.7 55.4 56.8 58.5 60.5 60.4 60.4 60.4 60.3 60.9 61.7 69 73.2 73.7 75.2 77.7 82.3 87.4 96.1 104.9 114.3 127.3 135.8 130.6 113.9 106.6 100.9 104.1 110 116.3 121.5 125.2 128.9 132.2 134.6 139.2 145.8 151.7 156.7 162.7 169 175.7 180.2 180.5 179.7 183.5 181.1 184.6 190.7 194.2 197.2 199.7 198.6 195.3 193.7 195.2 196.2 196 193.5 190.5 187.1 184.1 180.7 176.3 170 165.8 163.7 164.5 167.8 170.7 172.6 173.2 174.7 175.3 175.5 174.2 175.4 178.2 184.1 188.2 191 193.1 195.1 196.1 196.4 196 196.7 200.7 205 209.2 213.2 216.9 219.7 221.2 220.9 219.4 210.2 208.1 218.7
167.6 163.7 157.4 154.7 151.2 143.5 137.5 130.4 125.4 116 111.8 102.3 97.9 100.5 99.2 94.7 86.6 81.5 78.5 74.5 67.8 67.4 71.7 81.5 90.7 106.9 123.5 140.4 156 162 165 167.8 168.5 167.9 172.7 177.9 183.6 189 189 184.2 179 165.9 147.5 128.6 114 109.9 104.6 102.4 101.7 104.5 106.3 106.9 109.1 111.9 108.5 98.6 87.6 77.9 66.6 59.5 56.3 56.3 55.7 55.4 55 55.7 55.2 54.9 55 54.9 54.9 55.1 55.6 55.8 55.8 55.7 55.6 55.5 55.3 55.6 55.6 55.8 56.1 56.4 56.7 56.9 57.1 56.9 56.3 56.4 56.5 56.7 56.9 57.1 57.2 57.1 57 57.3 57.5 57.1 56.3 55.3 61.2 61.3 60.5 60.5 60.5 60.4 60.7 60.7 61.8 65.9 71.2 75.5 77.7 81.5 87.1 92.9 103.2 113.5 123.7 133 143 146 132 117.2 115.5 115.9 110 115.7 121.4 124.5 127.6 131 134.6 138.6 143.7 148.2 152.5 157 165.9 173.9 177.8 178.1 176.8 181 177.5 182.6 189.5 191.5 193.9 195 194.2 191.2 190.6 192.9 194.1 192.8 192 190.7 188.6 185.4 182.1 177.4 171.5 165.2 161.6 164.6 167.3 168.6 169.2 170 172.6 174.8 175.8 176.9 178.7 181.4 184.9 188.6 192.7 195.5 197.3 198.8 200 200.5 201.3 202.1 203.4 205.6 209.7 214.7 218.1 220.4 221.8 222.4 222.1 218.7 214.2 221.4
157 154.4 149.5 146.1 140.6 134.7 127.4 121.6 117.6 108.4 101.8 109.5 118.8 119.3 117.4 108.1 96.3 88.4 84.5 80.4 76.6 66.7 65.5 78.5 92.9 110.8 128 140.8 150.5 153.7 155.3 155.9 157.8 163.2 169.7 175.6 181.9 189 188 182 171 156 136.3 118.8 109.7 104.9 100.7 97.3 95.9 97.2 97 93.8 93.8 93.6 88.5 79.1 68.8 60.2 55.4 54.2 54.4 54.6 55.2 54.7 53.6 55.8 55.7 54.9 54.3 54.8 54.7 55 55.5 55.4 55.2 55.2 55.6 55.5 55.7 55.8 55.6 55.6 55.9 56.3 56.5 56.5 56.5 56.3 56.4 56.5 56.6 56.8 56.9 56.9 57 57 57.1 57.4 57.4 57 56.6 57.9 61.6 60.8 60 60.2 60.6 60.9 61.1 62.4 63.9 70.4 76.7 80.6 83.4 89.7 96.2 106.4 117.9 128.7 137.9 144.6 152.8 149.5 134.3 120.7 119.2 119.9 116.8 120.5 124.4 127.3 130.4 134.3 138.3 142.5 146.3 149.8 154.1 159.8 168.4 172.8 174.1 173.3 180.3 173.8 177.7 186.1 189.6 190.7 191.4 190.1 187.4 186.4 186.3 186.3 187.4 188.6 188.2 186.6 184.1 180.8 176 171.1 164.4 162.2 166.1 169.2 171.1 172.2 172.7 174.3 176.1 177.8 178.5 179.8 181.9 185.1 188.4 192 195.1 197.3 198.6 200.1 201.4 203.8 206 207.5 207.6 207.7 210.1 214.5 218 220.1 222.2 224.4 224.7 225 224.4 225.1
147.6 143 140.4 135.8 130.2 121.5 116.2 113.9 109.2 104.5 111.9 124.3 130.5 131.4 132.1 122 108.5 96.1 90.4 84.9 82.4 76.1 66.2 69.6 90.7 110.2 126.4 138.4 144.4 143.9 144.9 146.9 154.7 161.2 168.2 176 183.4 185.6 182.7 176.8 165.2 147.8 131.2 117.2 103.8 98.8 96.6 93.4 91.3 89 85.9 82.2 80.7 76.9 71.6 62.5 55.9 53.1 52.8 53.5 54 54 54.6 55.1 54 53.9 53.9 54.8 54.9 54.8 54.6 54.7 55.3 54.8 55.1 55.6 55.6 55.6 55.6 55.6 55.8 55.6 56 56.2 56.3 56.4 56.3 56.3 56.5 56.6 56.7 56.9 56.8 56.7 56.9 56.9 57.2 57.5 57.1 57 57.5 57.9 59.5 60.1 59.7 59.9 60.4 61.7 62.7 64 68.1 75.1 81.8 85.1 91.3 98.7 108.3 122.2 135 145.8 152.2 156.8 161.2 151.6 136 123.1 121.1 120.3 118.8 122.6 126.7 129.9 133 137 140.9 144.4 147.7 153.6 159.4 163.7 169.8 172 171 173.7 169.4 173.7 179.5 181.7 187 187.8 186.7 185.8 182.4 181.6 180.6 181.5 181.7 183.3 182 178.2 176.8 173.7 167.8 162.6 162.5 168.5 171.1 173 174.5 175.7 175.3 175.4 177.4 178.9 180.2 182 184.8 187.8 190.7 193.1 194.7 196.5 198.6 200.2 203.7 206.8 209.1 210.9 212.1 211.8 211.8 214 216.6 219.5 222.9 225.5 227.1 228.7 231 230.5
144.2 139.3 129.9 128.2 121.8 114.5 112.5 107.9 107.8 111.5 121.4 132 134 136.4 137.5 132.3 119.6 105.7 91.7 90.2 86.5 81.8 69.9 62.3 85.2 103.2 120.3 131 134.4 134.2 136 144.1 150.5 157.8 167.3 177.8 184.9 182.4 177.7 170.2 157.1 141.6 128 110.9 96.3 91.1 89.6 88.3 84.8 82.8 80.6 75.7 72.5 67.7 60.8 54 52.7 52.2 52.2 52.8 53.4 53.3 53.2 52.6 53.2 54.1 53.9 54 54.6 54.6 54.6 54.5 54.2 54.7 55.3 55.5 55.6 55.6 55.6 55.4 55.6 55.7 55.9 56 56 56.2 56.4 56.2 56.4 56.7 56.8 56.6 56.5 56.5 56.8 56.9 57.2 57.2 56.7 57 57.4 57.9 59.2 59.6 59.8 59.8 60.9 64.4 66.9 69 73.5 79.9 85.2 91.7 103.1 114 125.2 139.4 152.6 161.2 164 165.6 163.3 151.6 138.9 127.9 123.4 121.7 121 124.6 127.9 131.4 135 139.2 143 146.7 150.6 157.5 162.8 166.8 166.8 167.1 171.4 169.5 168 173.9 178.2 182.5 184.4 183.7 181.6 178.4 177.1 176.8 176.9 176.6 176.3 176 173.9 169.1 166.6 163.4 159.8 164.2 168.5 172.3 174.2 176 177.4 178.1 176.5 176 176.8 178.3 180.3 183.2 185.6 188.2 190.3 191.6 193.9 196 198.7 202 205.5 209.2 211.8 214.2 216 215.5 215 216.5 218.6 221.2 224.5 228 230.3 232.9 235 235.4
140.5 136.3 124.9 119.7 116.2 112.6 110.3 110.3 113 116.8 127.4 133 134.8 135.4 134.5 131.5 126 112.3 98.6 95.7 90.1 85.8 75.7 63.9 77.8 92.8 109.3 118.1 124.3 126.6 132.9 139.6 149.1 156.4 164.5 176.8 180.6 180.3 171.8 159.3 147.6 137.1 124.1 105 89 84.7 83.1 80.4 78.5 77.6 76.3 72.8 69.1 65.6 56.9 52.9 52.2 52.7 52.6 52.8 52.8 52 53.4 53.6 52.5 53.7 53.5 53.8 53.9 54 53.4 53.7 54.4 54.9 55.1 55.2 54.8 55 55.4 55.1 55.3 55.6 55.7 55.7 55.7 55.9 56.2 56.3 56.1 56.3 56.4 56.2 56.2 56.3 56.6 56.8 56.7 56.4 56.7 57.1 57.5 58 59 59.4 59.5 60.2 64.1 69.4 72 75 80 85.5 91.8 106.6 117.7 128.3 139.8 151.7 161.5 167.2 168 162 154.7 148.1 138.8 129.8 126.6 123.7 123.3 125.9 130 133.3 136.5 140.7 144.2 148.7 155.6 163.1 165 165.2 163 170.2 167.3 168.1 170.6 175.8 179.6 183.4 179 177.4 173.6 172.7 175.4 174.2 173.7 172 169.7 167.3 164.3 159.2 156.7 158.4 163.3 167.7 171.3 174.8 177.4 177.8 177.2 175.8 174.6 175.5 176.3 177.8 180.3 182.9 185.1 187 188.6 191.2 194 196.6 199.7 202.8 206.8 211 214.5 217.2 219.1 219 219.1 220 221.8 224.1 227 230.6 233.2 235.9 237.3 237.5
134.1 128 124.1 120.2 115.6 112.8 112.1 113.7 113.3 117.2 125.1 128.3 130.4 130.7 130.9 131.1 128.3 119.8 108.6 98.8 95.6 89.7 80.8 65.4 69.8 81.7 93.9 103.9 112 121.2 130.9 140.1 145.7 151.7 161 164.9 163.3 164.2 154.5 143.3 133.5 124.3 113.6 99.9 84.1 78.4 76.8 76 74.5 72.7 72.9 70.2 67.2 61.5 52.5 52.8 52.4 52 52.6 53.1 53.5 53.4 52.4 52.9 53.1 52.8 53.2 53.5 53.6 53.8 53.7 54.1 54.6 54.7 54.7 54.8 54.5 54.1 54.7 54.8 55.2 55.2 55.3 55.4 55.4 55.5 56 56.3 55.9 56.2 56.2 56.3 56.1 56.2 56.5 56.7 56 55.9 56.5 57.2 57.6 58 58.7 59.2 60 64.5 71.8 76.9 78.5 82 87.2 94.4 108.1 120.3 130.7 139.5 149.4 159.1 169 170.8 165.1 156.6 152.2 147.2 139.4 132.3 128.9 126.8 125.9 127 132.5 135.3 137.9 141.9 147.6 153.9 161.2 163.4 159.9 158.5 165.2 165.2 164 169.2 170.7 173.7 174.5 175.5 175 169.9 168.6 171.6 174 172.3 170.2 167.1 164.6 161.4 156.5 151.4 156.5 160.9 165.2 169.3 172.8 176.6 179.4 177.9 174.4 172.7 173.2 174.4 175.6 177.3 179.6 181.6 183.9 186.7 189.4 192.2 194.7 197.1 200.1 203.2 207.7 212.2 217.1 220.4 222.3 223.7 224.8 224.8 226 228.4 230.8 233.3 235.5 239 240.9 238.8
127.4 124.3 121.1 118.6 115.4 113.7 112.3 113.2 111.7 114.1 118.9 123.2 126.1 128.6 129.6 130.2 129 123 116 104.2 97 89.1 80.5 70.8 62.8 70.5 81.9 91.8 103.1 115.6 127.1 134.6 140.2 151.8 158.4 155.8 149.7 144.1 136.1 126 118 109.6 98.8 85.1 75.6 72.5 72 71.9 71.2 70.1 68.8 68.1 65.5 56.1 52.3 52.3 52.1 52.3 52.6 53.1 53.6 53.7 53.2 52.3 53.5 53.2 52.9 53.2 53.6 53.7 53.9 54.3 54.4 54.2 54.3 54.4 54.3 54.3 54.6 54.7 55.1 54.9 54.9 55 55.3 55.5 55.7 56 55.7 56.3 55.9 56.3 56.5 56.6 56.7 56.7 55.8 56.6 56.7 57.8 58.9 59.2 59.5 60.5 63.7 72.4 80 83 85.4 89.4 97.8 111.3 123.1 133.6 141.9 150 157.6 164.6 166.8 164.2 158.4 151.5 146.6 142.8 138.5 134.7 130.6 129.2 128.5 128 131.9 137.1 139.3 143.2 150.8 157.5 159.3 156.5 156.5 159 163.1 160.7 164.4 166.4 170.1 170.3 169.5 167.6 165.9 163.8 166.7 171.5 172.2 168.3 164.9 162.8 160.1 156.7 150.3 150.5 158 162.4 166.5 169.6 172.6 176.3 178.5 175.5 172.7 172.1 172.8 173.9 175.5 177.5 180.2 182.9 185.8 188.6 190.6 192.8 194.4 197 200 204 208.5 213.8 218.5 222 224.5 226.3 227.5 228.3 230.2 232.7 235 236.4 238.1 240.5 240.9 235.1
123.5 121.2 118.3 115.5 113.4 111.4 109.7 110.1 110.3 112 114.8 119.9 124.1 126.6 127.6 127.5 125.3 121.9 116.5 109.8 98.6 86.6 76.8 68.3 60.6 64 71.5 84.2 98.1 110.7 121.7 128.9 135.3 146.4 152.6 149.2 140 131.5 117.8 107.7 101.2 96.3 85.8 75 68.9 68.2 68.7 69 68.5 67.7 65.9 65.9 60.8 53 52.2 52 52.2 52.5 52.8 52.8 53.2 53.7 53 52.3 52.6 52.8 53.2 53.5 53.4 53.8 54.1 54.2 54 54 54.1 54 54.1 54.1 54.6 54.5 54.5 54.5 54.6 55.1 55.4 55.4 55.7 55.9 55.8 55.8 55.8 55.8 55.8 55.9 56.6 56.3 55.8 56.3 57.2 60.1 61.8 62.1 63.2 65.9 71.4 79.3 83.8 87.4 91.5 98.6 113.1 127.2 137.3 144.3 150.9 157.3 162.3 163.7 161.2 158.4 152.3 147.2 144.1 140.9 138.4 135.1 133.5 132.7 130.8 129.5 134.5 139.5 141 147.1 154.9 152.8 151.7 153.6 152 157.8 155.6 157.5 162.5 162.5 164.6 165.7 165.7 162.7 162 159.7 164.2 166.8 166.8 163.7 159.6 157.2 155.7 152.2 146.1 150.8 158.7 162.9 166.4 169.4 171.6 174.4 175.7 174.6 173 172 172.5 174.4 177.2 179.9 182.5 184.9 187.5 189.4 190.5 191.3 193.1 196.6 200.4 204.8 210 215.1 219.2 222.6 225 226.8 228.6 231.2 233.1 235.6 234.8 234.4 235.7 235.3 230.2 227.4
119.6 117.7 113.5 111.3 110.1 107.3 106.7 107.8 109.3 110.4 112.7 117.2 120.7 122.9 123.7 123.3 122.9 120.6 118.8 112.6 101.2 86.1 71.9 67.1 61.9 60.9 64.6 81 98.4 112.2 120.4 125.4 138.8 145.3 146.7 142.7 131.6 119.7 101.6 92.3 87.5 85.8 79.3 69.7 63.4 62.4 63.4 65.3 65.5 65.7 65.3 60.6 56.1 52.1 50.7 52.3 52.5 52.7 52.9 52.7 52.6 53 52.1 52.4 52.5 52.9 53.6 53.5 53.3 53.7 54.1 54.2 54.2 54.2 54.1 53.7 53.1 53.1 53.1 54.1 53.9 54.3 54.8 55.2 55.4 55.3 55.7 55.8 55.8 56 56.5 57.1 57.5 55.3 55.8 55.8 56 60.4 64.3 63.6 64.8 65.7 68.5 75.1 78.1 84.9 88.7 94.9 105.1 116.5 129.8 140.2 147.2 152.3 156 160.3 162.5 161.4 157.5 152.4 146.7 144.9 143.9 141.2 138.8 136.2 135.7 134.7 131.5 131.3 138.2 141.8 146.7 154.9 157.1 147.2 147.7 147.3 151.3 152 149.3 156.9 156.7 159.7 163.4 160.2 159.4 159.2 157.2 156.8 159.9 161.7 160.4 157.9 155 153 151 145.8 144.3 150.9 156.8 161.3 165.1 168 169.7 173.7 177.1 178.2 176.6 174.8 172 176.1 179.3 182.4 184.7 186.6 188.2 188.3 188.2 190.2 193.1 197.1 201.8 206.7 211.5 216.3 220 222.8 224.3 226.3 228.5 232.5 234.3 232.7 228.9 227.2 224.9 221.5 225.3 229
114.4 110.2 108.1 107.2 106.9 104.5 105.5 105.4 107 108.3 109.8 113.8 116.8 119.3 119.8 120.7 121.7 120.5 116.9 106.9 94.9 79.4 67.2 64.1 62.7 61.2 60.7 76.9 90.1 106.9 118 125.3 140.9 146.5 145.1 138 125.7 112.5 95.9 80.3 76.9 76.9 70.1 60.9 57.4 56.9 55.3 57.9 60.2 58.5 57.4 55.2 53.1 51.5 50.9 52.6 52.8 53 52.6 52.1 52.1 52.7 52.4 52.2 52.6 53.1 53.5 53.4 53.2 53.6 53.8 53.6 54.2 54.4 54.3 53.7 53.1 53.4 53.9 54.1 54.2 54.7 54.7 55.3 55.4 55.6 55.8 55.8 55.9 56 57.5 58.9 62.3 66.3 61.6 55.8 58.3 66.4 67.2 67.3 68.5 71 75.5 79.9 83.3 88.8 98.5 111.2 124.7 134.2 143 149.9 153.3 156.7 159.5 160.7 160.2 158.6 154.3 149.1 145.2 143.8 143.4 141.1 137.9 137.4 138.3 135.4 132 136.9 142.3 144.5 156 165.6 152.8 140.6 140.5 142.6 145 143.1 148.3 149.9 152.7 156.9 154.8 152.8 153.6 153.5 153 157 159.5 160.3 157.6 152.3 147.3 147.2 144.3 144.3 146.6 149.4 152.8 157.6 161.8 164.7 169.6 174.7 178.9 181.3 180.1 177.3 173.2 176.5 180.7 183.6 185.8 186.9 186.8 186.2 186.8 189.3 192.8 197.9 203.8 210.2 215 218.7 221.8 222.3 223 223.7 225.6 227.2 227.2 222.7 218.4 216.7 215.6 221.5 227 230.4
109.9 103.2 103.4 103.5 103.8 101.6 102 102.8 104.1 105.6 109.5 113.8 114.6 116.4 116.7 116.7 118.3 116.5 107.3 96.8 85.1 74.1 68 63.3 62 61 60.9 76 87.9 98.1 107.9 121.3 134.6 140.2 138.2 130.3 118.2 100.8 85.7 69.8 62.6 62.6 57.7 53 52.2 52.7 52.1 51.9 52.1 52.8 52.6 52.9 53 51.9 50.9 51.4 52 52.3 52.1 51.7 52.3 52.8 52.7 52.7 52.7 53.4 53.3 53.2 52.1 53.5 53.1 52.7 53.1 53.6 54.5 54.1 53.2 53.1 53.1 53.4 53.2 54 54.3 55.3 55.4 55.8 55.7 55.7 56 56.2 57.6 63.7 70 71.9 68.8 64.2 62.1 66.3 68.8 70.4 72.7 76.3 79.2 83.5 87.6 97.6 110.9 124.7 137.8 146 152.2 154.9 156.9 160 160.3 159.5 158.9 155.6 150.6 146.2 144.9 142.9 142.2 138.8 137 138.5 139.9 133.8 134.1 141.2 145.3 156.2 168.5 164.6 144.7 134.1 134.7 139.4 136.7 141.4 145.3 146.6 149.7 149.8 149.1 150 150 151 155.5 158.9 160.4 158.4 154 145.3 141.2 141.3 144.8 145.7 147.5 149.1 151.5 154.6 159.3 164.3 169.6 175.1 179.5 182.9 181.8 178.7 174.2 174.7 179.2 181.9 184.7 185.4 184.5 183.6 186.1 188.9 193.4 198.8 206.7 213.7 218 220.4 221.5 220.8 218.6 217.2 217.3 216.5 215.8 211.7 210.9 213.4 217 222.4 227.2 228.8
105.9 99.3 99.4 100.4 100.7 99.5 100 101.1 103.7 107.3 110.6 113.8 113.4 113.5 110.6 110.3 111.5 106.2 97.8 89.5 81.9 74.8 69.4 64.7 61.3 60.7 63.3 77.5 88.1 97.7 106.3 117.2 126.1 128.8 124.3 115.5 102 86.5 73 59 54.1 53.3 52 51.7 51.9 52.2 51.8 51.4 51.7 51.8 51.9 52.2 52 51.9 50.9 51.9 51.2 51.5 51.8 52 52.3 52.7 52.7 52.7 52.8 53.1 52.7 52.1 50.7 50 50 50.7 51.2 50.1 52.7 53.9 50.7 57.6 63.6 65.9 66.3 62.1 59.2 57 55.7 55.7 55.6 55.5 56.1 56.7 61 68.7 74 74.5 72.6 66.4 64.1 68.1 71.1 73.5 76.2 80.2 83.8 89.1 97.9 109.5 122.7 135.1 145.7 152.8 157 159.3 159.8 160.1 159.8 159.2 156.7 151.4 147 144.3 142 141.3 139.7 136.7 135.4 137.2 136.2 133.6 139.2 143.4 152.4 163.9 161.9 149.6 133.4 128.9 133.4 132.2 133.5 138.9 141.2 143.2 145.1 145.5 147.1 147.9 147.1 152.3 155 156.8 155.8 153.8 144.8 138.8 139.8 144.1 144.8 147.4 149.8 151.5 152.8 156 159.6 164.6 169.1 173.9 178.2 181.9 181 177.6 173.7 172.2 175.3 178.9 181.6 182.5 181.4 183.3 186.2 188.7 192.8 199.9 205.7 209.3 210.2 211.5 214.5 211.7 207.9 209.1 209.4 209 206.7 208.1 211.9 213.8 217.1 221.9 227.7 231.6
102.3 96.4 95.1 97.8 99 98.3 98.9 101.1 105.2 108.8 110.2 111.4 110.4 108.4 106 103.5 101.6 96.1 90.6 85.3 80.1 75.4 69.7 64.1 60.4 59.5 60.6 74.8 87.3 95.9 105 116.6 121.4 120.5 113 99.5 85.2 72.5 60.8 52.2 51.6 51.7 51.3 51.5 51.7 51.6 51.2 51 51.2 51.5 51.5 51.3 51 51.9 50.7 51 51.5 51.6 52 52.3 52.5 52.5 52.9 52.9 53 52.2 49.9 52.5 54.1 54.3 54 53.7 56 58.4 59.5 59.1 61.4 65 68 69.3 68.2 63.5 61.7 55.8 55.2 55 55.1 56.3 58.8 61.5 66.7 72 74.3 74.4 72.4 68.3 68.8 70.5 72.6 75.6 79.6 84.3 90.7 100 109.8 121.7 133.5 142.5 149.9 155 159.8 163.1 162.8 161.8 156.7 156.9 154.3 148.3 145.7 142.9 138.6 138.9 136 133.7 133.6 135.9 134.8 134.8 138.1 143.9 158 156.8 143.1 131.2 125.8 126 127.4 128.5 131.5 134.7 135.6 141.8 141.2 142.4 145.5 144.6 148.4 149.8 149.9 149.7 147.2 143.2 137.2 137.1 141.5 145.1 147.6 150.9 152.7 152.4 152.8 156.1 159.2 163.7 168.5 172.5 177.2 180.1 178.5 174.7 170.2 172.6 173.9 175.7 178.5 180 181 184.1 188.1 189.4 189.7 193.8 195.4 197.2 199.8 201.6 201.8 201.2 201.9 203.4 203.1 206.6 209.2 209.4 212.7 216.8 219.1 222.4 227 230.9
102.5 96.1 91.8 94.7 96.4 97.2 99.4 102.9 106.6 108.2 108.4 107.2 105.6 104.9 102.8 97.9 93.1 88.2 84.6 81.9 77.4 72.9 68.6 61.7 59.8 58.8 60.3 73.3 85.2 95.4 107.4 117.1 117.3 111.7 101.9 85.5 71.4 60.8 53 51 51.1 51 51.1 51.3 51.4 50.9 51 51.1 51.2 51.4 51.1 49.9 50 50.4 51.7 51.4 51.7 52 52.2 52.4 52.3 52.3 52.5 52.9 53.1 49.8 53.4 53.2 53.2 53.5 55.3 58.3 61.5 61.5 60.6 61.3 64.6 69.1 70.5 68.5 66.8 64.5 57.4 56 55.8 55.6 56.6 60.5 64.6 66.5 68.8 71.2 74 73.4 71.9 70.3 72.7 74.1 75.8 79 84.8 93.3 105.1 114.4 122.7 132.8 140.9 147.9 153.7 155.1 157.5 160.4 160.4 159.4 153.3 152.6 150 146.9 144.1 141.1 137.7 132.4 132.1 131.3 132.3 136.3 134.5 137.9 140.1 147.2 152 140.3 127.1 123.6 123.6 123.7 124.2 125.5 126.8 129.5 133.5 135.3 134.9 139.6 141 141.6 146.8 144.9 140.1 138.4 136.5 135.4 135.6 139.6 143.5 147.3 150.3 152.7 152.8 151.6 152.2 155.5 158.7 162.5 167 172.1 176.4 177.3 175.1 171.6 173.4 176.8 179.3 180.5 180.5 180 181.2 184.4 187.2 188 186.5 185.7 190 192 193.4 194.9 196.5 199.1 201.8 205.3 207.9 210.1 212.3 213.5 213.7 218.4 221.8 223.1 224.8 227.9
102.7 92.8 89.2 92.3 94.6 93.3 98.6 101.5 104.6 106.4 105.8 103.5 103.4 102.6 98.8 93.9 87.9 83 79.3 77.2 74 70.4 64.9 60.2 59 57.5 61.4 71.6 83.1 95.5 106.2 111.7 108.6 101.3 88.6 71.7 58.1 52 51.3 51.3 50.5 50.8 50.7 50.5 50.5 50.6 50.9 51 51.3 51.4 49.3 50.2 51.2 51 51.2 51.5 51.7 51.9 52.1 52.2 52.3 52.4 52.7 53 50.3 53.1 53.2 52.9 53.1 54.1 60.6 61.7 63.1 62.4 62.2 66.4 71.7 72.7 70 68.6 68 67 57.2 58.1 57.2 60 64.9 65.6 66.6 68.2 67.6 68.8 71.7 72.4 72.9 72.8 74.3 77.1 80.1 84.8 94.3 108 119.4 128.4 133.7 138 144.9 153.8 153.6 151.8 153.2 155.8 156 156 153.5 147.9 143.5 141.5 140.5 138.9 137.5 130.1 128.4 130.1 132.2 134 139.3 142.4 142.7 145.6 138.4 125.1 122.4 122.7 123.9 125.1 124.8 124.6 125.2 125.5 126.9 127.8 130.3 133.1 135.2 141.8 140.4 135.4 132.6 132.9 133.8 134.4 137.2 142.9 147.9 149.7 151.7 152.4 149.8 149.6 151.1 154.7 157.5 161.7 166.6 171.1 173.9 173.2 171.4 170.6 175.7 180.5 183.3 184.4 183.3 181.5 179.1 180.3 181.7 179.5 185.9 190 192.7 196 196.9 198.7 201.2 204.2 206.7 209.3 211.3 213.3 214.5 215.7 215.5 218.4 221.3 222.4 222.7 224.8
100 89.6 86.1 90.5 91.8 92.3 95.6 98.6 101.3 102.8 102.4 102.2 101.8 99.7 94.8 90.2 85.2 78.4 74.3 71.7 69.1 65.9 61.1 58.8 58.5 56.3 63.2 71.5 80.5 91.7 99.3 100.5 92.5 83.1 69.6 56.6 51.5 51.5 51.5 50.9 50 49.9 50.2 50.3 50.4 50.4 50.5 50.7 50.6 51.3 50.4 50.5 50.7 51.2 51.4 51.4 51.8 51.8 51.8 52 52.4 52.6 52.9 51.7 49.6 52.7 52.6 52.4 54.8 59.2 63.3 64.1 62.7 62.3 67.8 69.7 70.1 70.2 68.8 69.4 66.5 59 58.1 58.4 59.5 64.8 70.7 70 69.5 69.3 69.9 68.2 71.6 73.4 75.4 76.4 76.6 80.2 86.5 93.5 107.6 121.1 131.2 136.8 138.6 140.6 146.9 151.4 150.2 148.5 148.8 151.5 153.4 150.9 150.2 143.8 140.5 138.1 137.3 135.6 132.7 126.5 126.5 130.4 132.2 134.7 138.9 142.6 142.4 137.4 125 121.6 124.8 128.5 134 136.2 137 133.7 128.6 128.5 127.3 126.6 127.2 128.1 131.3 132.7 131.6 132.3 137 139.2 139.4 140 135 142.7 146.2 147.5 148 146 145.9 146.5 147.9 151 154.4 159 163.8 166.8 168.2 167.9 167.3 172.3 177.4 184 185.8 184.8 183 180.7 177.6 178.5 183 185.9 190.1 193.3 196.3 198.2 200 202.5 205.8 208.5 210.9 212.4 214.3 215.7 216.9 217.2 217.1 218.1 220.2 221.8 222.4 224.5
95.3 86.6 83 87.6 87.1 89.5 92.2 94.9 96.3 99.7 100.8 100.5 98 94.6 91.1 87.7 82.6 75.6 69.6 66.4 62 60.8 58.9 58 57.5 57.1 60.3 68.2 74.4 84.4 88 82.9 72.9 61.9 52 50.6 50.3 50.4 50.1 50 49.9 50 50.3 50.4 50.2 50.3 50.3 50.4 50.3 51.1 49.6 49.3 50.8 51.6 51.7 51.4 52 51.6 51.9 51.9 52.4 52.6 53 49.8 52.6 52.9 54.4 57.4 59.3 62.5 62.9 62.7 63.2 66.3 67.9 69.2 68.4 67.1 68 67.9 58.6 59.6 61.8 61.8 64.5 67 72.2 73.4 73 71.9 72.2 71.3 73.7 76.2 78.3 80.2 81.8 87.4 94.9 106.3 119.6 129.4 136 138.2 141.2 143.3 146.5 148.4 148 148.1 148.5 151 150.4 146.4 145.1 140.5 138.8 135.8 134.6 133.3 128.2 123.2 126 130.7 130.4 132.6 137.5 141.9 136.5 127 120.5 125.8 133.7 140.5 145.3 149.1 147.1 141.3 137.7 139 134.9 132.2 130 129.9 129.7 131.2 137.4 141.2 144.1 146.2 144.7 145.9 144.2 139.9 141.3 144.2 145.1 145.5 144.8 144.1 144.8 147 150.8 155.8 160.2 163.3 164.1 164 168.7 172.8 177.5 181.4 181.3 179.9 180 176.9 177.2 183.4 186.7 190.2 193.6 196.8 199.3 201.6 202.9 205.3 208.5 211.4 212.8 213.9 215 216.3 217 217.8 218.6 220.1 222.4 224.3 225.7 229.3
95.6 84.6 80.1 82.7 82.4 86.5 88.1 93.2 97.6 98.4 97.8 96.6 93.8 91.6 89.1 85.3 78.9 73.1 68 63.9 61.3 58.8 57.7 57.2 57.1 57.1 56.6 55.9 67.4 71.6 69.7 61.1 53.8 52.2 50.9 49.9 49.7 49.8 49.8 49.9 50 50.1 50.3 50.4 50.4 50.2 50.1 50.9 50.6 50.8 51.2 52.6 51.3 49.3 50.1 51.3 51.2 52.3 51.9 51.6 52.3 52.5 50.4 51.7 55 60 64.1 65.6 66.2 67.3 65.2 64.6 65.4 68.3 69.6 69.6 69.7 66.6 67.1 60.4 60.6 66.7 67.9 69.5 70.5 72.6 74.8 75.5 75.4 74.9 74.1 72.9 75.5 78.4 81.5 84.3 87.9 96.4 106.2 120 128.1 134 139 141 143.9 147.2 148.8 149.8 149.6 149.7 152.5 154.6 150.3 147.6 140.7 137.7 135.6 132.8 130.8 130.4 122 120.9 126.4 128.8 128.2 131.5 135.3 136.8 130.5 121 120.3 131 140.5 146.8 151.4 154.2 149.9 146.9 148.1 147 144.9 143.8 140.8 138.8 139.2 141.8 145.3 149.4 151.5 152.6 149.6 150.2 149.3 148.3 147.5 147 149.5 150.7 150.1 149.7 149.3 148.9 148.3 152.2 157.6 160.3 159.7 164.6 168.1 171.5 174.2 175.9 175.9 175 172.8 176.4 182.4 186.6 190.4 194.1 197.3 200 202.1 204.3 206 208 209.8 211.2 212.3 213.3 214.6 216.2 217 217.4 218.4 220.5 223.2 226.6 231.3 240.8
94.1 81.3 76.6 78.6 80.7 84 88.8 93.1 94.7 96.2 96.9 96.7 95.9 93.4 90.1 86.6 80 74.1 68.9 64.9 62 58.9 57.2 56.8 57.1 56.8 55.9 55 60.4 59.2 54.6 54.1 51.8 51.6 50.8 50 49.8 49.7 49.8 49.9 50 49.9 50.3 50.4 50.5 50.6 50.4 50.3 50.1 50.3 51 51.7 51.5 51.9 51.8 49.6 49.3 49.2 49.3 49.4 49.6 53.7 58.3 62.1 65 67 70.4 73 72.2 70 66.7 66.3 67.5 69.4 68.2 67.7 66.5 63.5 60.6 60.9 65.3 68 72.2 73.3 73.5 75.1 77.1 77.3 78.2 77.7 75.1 76.9 79.8 82.2 85.6 90 92.5 103.8 116.6 130.2 135 139.5 142.1 142.8 146.1 150.3 152 153.3 153 153.2 153.3 151.8 147.9 148.5 140.9 135.1 132.5 130.5 127.4 124 118.9 121.3 125 126.1 129.7 132.4 134.6 132.1 124.9 120.1 126.2 136.5 145 149.6 153.7 154.7 154 158.3 155.7 151.5 150.8 151.1 149.1 147.4 148.2 149.9 149.8 153.9 154.4 152.4 152.8 154.9 155 154.8 153.2 152.1 154.6 155.5 155 155.3 155.9 155.6 153.5 150.2 152.4 152.8 160.3 164.1 167 169.7 170.9 171 169.1 172.1 176 181.2 186.3 190.7 194.7 198 200.7 203.3 205 206.3 207.9 209 210.2 211 211.9 213.2 214.6 216.1 216.6 216.9 218.2 220.6 224.8 231.4 240.2 247.4
88.3 80 75.8 75.3 78.4 82.4 84.9 89.9 96.4 99 99.9 99.6 97.8 94.7 89.4 83.2 77.9 73.5 69.4 65.5 62 58.8 56.7 56.4 56.6 56.1 55.5 55.3 53.6 53.2 53.3 52 51.9 51.7 50.6 49.9 49.9 49.8 49.8 49.9 49.9 49.5 50 50.1 50 50.1 50.4 50.4 50.3 50 51 50.9 50.8 50.8 51.5 51.3 52.8 52.3 52.9 55.7 61.7 65.3 67.8 73.4 77.6 86.2 85.9 75.4 71.5 69.1 67.3 67.8 67.7 67.1 66.6 64.9 61.9 62.4 63.9 65.1 67.6 70.6 72.9 74.4 76 78.8 79.7 81.4 81 77.6 80 82.3 85.8 90.1 92.9 100.2 103.1 108.2 116.2 129.7 136.8 141.8 141.8 143.3 148.1 151.4 153.9 154.7 154.4 154.1 152 147.9 145.2 143.6 139 130.3 128.6 128.1 125.7 121.3 116.6 118.1 122.5 126.7 135.6 135.3 133.5 126.3 121.4 124.2 132 138.8 144.4 151.8 156.5 157.4 160.7 164.3 159.7 155.5 154.1 154 153.8 152.4 153.8 156.5 154.3 154.3 155.6 155.5 157.6 159.9 162.1 161.8 160.3 158.2 157.8 158.9 158.9 159.3 159.7 160.3 158.7 153.6 155.1 155.8 159.2 162.4 164.3 165.6 162.7 168.6 172.8 176.6 180.7 184.8 190 195 198.3 200.9 203.8 206.2 206.8 207 207.2 208.5 210.4 211.8 213.1 214.9 215.8 216.3 215.6 216 218.4 222.1 228.4 235 242.5 248.1
87.4 77.7 75.2 70 76.5 82.1 88.6 97.4 100.5 101.9 102.8 102.1 98.7 94.9 91 86.2 81.3 75 69.6 65.2 60.8 57.9 56.1 55.7 55.8 55.3 54.9 54.9 54.4 52.5 53.1 51.7 51.4 50.4 50 50.5 49.8 49.9 49.8 49.8 49.4 49.1 49.7 48.6 49 49.5 50.1 50.3 50.5 50.5 51.2 50.6 51.1 50.2 51 52.6 54.4 60.2 63.9 66.7 72.6 76.5 82.1 86.2 89.7 90.3 80.3 72.3 68.8 66.6 65.9 65.6 65.9 66.4 66.7 63.4 63.1 65.8 66.8 67.1 69.2 72.3 74.2 77 80 81.9 82.6 83.5 80.7 82.8 90.1 94.1 97.2 101 104.7 111 116.4 115.2 121.3 127.2 137.7 139.8 141.9 144.6 148.4 151.3 152.4 153.7 153.9 150.7 147.6 144.8 141.9 137.4 132.9 125.8 124.5 124.4 122.2 115.5 114.8 120.1 124.7 130.3 135.7 136.6 130.9 119.5 122.1 130.3 138.1 143.7 148.1 156.1 159.7 161.8 166 165.6 162.9 160 157.5 157.6 157.2 155.5 158.2 158.8 157 159.9 163.1 166.3 167.8 167.9 167.7 166.7 165.4 163.2 161.4 161.7 162 162.3 162.8 162.1 159.7 156.5 159.1 160.3 157.5 160.2 161.8 164.8 168.5 171.7 175.3 179.6 183.6 187.8 192.8 197 200.1 203.3 206.1 206.4 205.2 204.5 206.3 209.5 212.4 214.2 213.9 214.5 214.5 214 212.9 215.7 219 223.5 228.8 233.9 232.4 230.3
80.6 76.6 73.2 70.7 76.3 81.7 90.1 99.9 103.3 105.7 107 105 101.9 98.9 95.9 90.3 82.5 75 69.4 65.9 60.3 56 55.5 55 54.9 54.5 54.3 54.1 54.3 53.3 52.8 52.7 51.6 50.3 51.3 49.7 49.5 49.7 49.7 49.1 50.2 46.9 49.1 48.6 49.2 49.3 49.9 51 50.2 50.8 50.7 50.3 50.5 50.2 54.8 63 69.6 76.6 79.2 81 84.8 85.4 86.5 90.5 90.3 84.2 74.8 70.2 67.3 65.5 65 64.8 65 68.2 66.4 63.8 63.9 66.2 68.1 68.9 70.6 74.3 76.5 80.2 82.8 84.6 86.3 84.5 83.4 88.5 98.2 104.2 107.9 110.4 114.3 118 124.9 124.7 131.7 130.3 135.5 138.9 142.4 147 148.6 150.1 149.8 150.3 150.2 146.8 142.3 139.2 135.1 128.9 125.8 122.6 120.3 118.7 116.2 113.2 115.3 119.7 124.3 129.9 133.4 136.6 126.5 117.9 125.2 134 141.9 146.8 152.4 159.4 163.3 166 167.4 164.2 162.6 160.9 159.2 158.9 158.3 158.6 161.8 163 165.5 169 170.8 172.1 171.9 172 171.4 169.9 167.6 165.2 163.8 163.8 164.4 165 165.6 165.2 163.2 160.5 160 161.1 161.9 162.9 165.6 167.6 169.9 173 177.5 182.4 186.5 190.7 194.9 198.9 202.1 204.8 203.6 201.9 201.5 205.4 209 212.6 214.6 214.2 213.2 213.9 214.5 212.3 210.4 213.3 217.2 222.5 227.1 225.3 216.4 208.6
77.6 75 69.1 74.2 78.6 85.5 95 102.2 106 109 109.3 106.8 103.8 100.2 96.2 88.8 79.2 72.7 68.6 64 58.2 55.8 55 54.5 54.2 53.7 53.8 53.9 54 52.6 50.5 49.9 50.1 50.3 50.9 49 49.2 49.4 49.4 47.4 46.9 46.9 49.4 49.3 49.2 49.2 49.8 50 50.1 50.4 50.2 50.2 62.1 70.7 74.3 78.8 84.3 88.7 88.6 87.2 89.7 88.9 87.4 91.2 86.3 78.6 72.5 68.6 66.3 65.6 65.7 66 66.4 65.5 64.3 63.4 65.4 68 72.1 71.3 72.8 76.1 78.6 83 84.9 86.5 87.1 86.9 90.6 90.9 97.3 104.1 112.9 117.1 120.7 124.8 128.1 130.8 138.5 139.8 136.7 140 145.5 147.3 147.6 147.2 146.8 147 146.7 144.8 139 130.8 125.6 123.4 122.7 120.6 118.3 115.1 113.2 112.6 115.8 121.4 124.8 129.5 133.2 135.4 123.5 118.8 126.7 136.2 143.3 148 156.6 162.7 166.5 168.6 165.8 162.9 161.5 160.2 160 159.7 159.1 161 164.8 169.4 172.3 174.7 176 176.3 175.7 175.2 173.8 171.7 168.5 166.2 165.8 166 167.1 167.7 167.9 167.3 166.8 164.6 163 162.6 163.7 165.3 167.3 169.1 171.1 174.2 179.1 184.4 189 193.2 197.1 200.8 202.5 200 197.5 199 202.7 207.1 211 213.3 212.9 212.7 213.4 215.1 215.5 212 208.1 209.8 214.5 221.4 221.4 213.6 197 188.4
76.5 71.6 69.1 77.2 83.7 89.8 96.5 103.5 105.8 107.2 108.3 107.2 103.9 100.2 94.2 82.3 73.2 70.1 66.5 61.3 55.4 54.2 54.3 53.9 53.6 53.5 53.4 53.5 52.8 50.9 49.5 49.7 49.9 50.1 49.9 49.2 49.3 50.1 47.7 47.9 48.3 48.4 49.4 49.9 49.3 49.3 49.2 49.7 50 50.7 52.8 63.4 73.5 77 80.4 83.5 87.4 87.2 79 78.9 81.9 83.7 83 86.2 82 75.7 71 67.2 65.9 65.8 65.9 66.3 65.9 64 64.2 64.9 66.3 69.3 71.7 71.3 73.5 76.6 80.8 84.5 86.4 87.7 87.6 90.1 91.1 94.7 99.5 104.2 114.5 121.3 123.7 129.5 133.1 137.1 143.6 145.2 144.6 142.5 144.6 147.9 145.5 142.1 143.1 143.2 142.7 138.8 133.2 126.1 120.3 119.3 119 117.5 116.5 113.7 111 113.3 119.1 124.4 126.3 130.4 133.8 129.8 119 119.3 128.5 137.9 144.2 151.1 159.4 165.6 169.9 168.2 163.7 162 161 160.7 160.7 160 160.1 161.5 166.1 171 176.3 179.8 180.7 179.6 178.1 175.9 174 170.7 168.2 167 167.6 168 168.9 169.7 170.4 171 170.6 169.8 167.4 166.1 165.9 166.5 168.2 169.9 172.8 175.6 179.8 185 190.2 195.4 199.1 200.2 199.5 194.9 194.5 201.3 204.5 207.6 209.4 209.6 210.2 212.9 215.1 218.1 219.4 211.8 206.2 204.5 212 216.7 212.2 194.7 183.8 185.5
74.5 63.9 72.4 79 83.5 89 96.2 101 103.2 105.4 106.8 106.2 103.2 98.6 88.3 75.4 69.9 67.1 62 55.5 53.3 53.5 53.1 53.4 53.3 53 53 52 50.2 49.4 49.5 49.5 49.7 49.1 48.6 49 49.1 48.4 46.7 49.6 49.6 49.4 49.1 49.8 49.7 49.9 49.9 50.4 50.6 51 52.7 66 76.1 77.6 76.8 81.1 81.8 75.8 74.8 77.2 72.5 73.9 78.7 82.8 79.3 72.3 67.3 66.5 66.2 66.1 66.1 66.4 65.8 65.1 65.3 66.5 69.7 72.1 72.5 72.9 76.4 79.5 84.2 86.1 86.8 87.4 88.7 91.2 93.9 101.8 102.3 107.2 118.6 127.9 130.6 134.3 139.9 142.9 146.9 148.6 147.7 144.1 142.4 146.9 140.5 135.3 138.2 138.6 140.7 137.6 126.2 118.4 116.6 115.9 114.5 114.8 114.7 112.4 110.4 115.3 125 127.6 133.3 129.9 123.9 117.1 114.3 121.4 131.3 140.3 146.6 154.2 162.8 168.4 170.8 166.1 162.5 160.6 160.1 160.7 160.7 159.9 160.3 161.9 164.5 168.9 174.7 179.5 180.2 178.5 176.4 174 171.6 169.4 167.9 167.7 168.1 169.2 170.2 171.4 172.4 173.3 174.1 174.1 172.2 170.5 168.8 167.9 168.8 171.1 173.5 176.2 179.9 185.4 190.9 196.1 197.8 195.3 193.6 189.1 197.4 201.2 203.7 204.1 206.1 209.6 213.9 217.8 222.5 226.4 224.6 211.6 202.2 197.1 202.7 203.8 191.4 182.9 185.9 188.7
73.6 64.6 73.4 76.6 80.9 87.8 94.7 99 102.1 104.9 105.1 103.6 99.4 92.7 81.9 70.9 66.4 63 59.2 55.5 52.9 52.6 53.4 53.2 52.8 52.4 51 49.1 49.1 49.2 49.2 49.2 48.9 49.2 48.8 49.2 48.7 47.4 49.6 49.5 49.5 49.5 49.2 49.7 49.5 49.6 50 50.3 51.1 57.7 61.5 59.9 68.4 70.8 71.6 74.6 74.6 74.2 73.7 68.9 68.2 69.3 73 73.7 71.3 68.7 67.2 67 66.9 66.8 66.8 67.2 66.9 65.8 66.2 68.2 71.7 73.8 74.9 77.3 82.5 85.5 86.7 87.3 87.7 89.3 90 92.8 97.3 105.9 108.3 111.2 123.5 132.4 135.7 139.7 146 147.8 150 150.8 152 145.1 136.7 137.9 132.5 131.7 133.1 133.6 135.1 133.6 124.8 116 112.6 112.2 111 113.8 115.7 112.3 111.2 119.6 128.2 128.8 127.4 119.4 112.6 109.3 117.3 126.3 136 144.2 150.1 157 162.5 167.6 167.6 163.3 161.1 159.3 159.7 159.8 160 159.7 160.1 161.4 163.4 166.9 171.4 174.1 175.6 175.3 173.1 170.7 168.5 167.9 167.1 167.4 168.5 169.6 170.7 172.2 173.7 175.2 176.3 176.4 175.3 173.6 171.8 169.9 170.3 171.7 173.1 175.2 178.4 183.1 187.4 190.5 190.3 188.3 186 190 194.1 196.9 200 204 208.7 213.9 218.5 224.7 230.6 232.9 230.1 218 201 191.4 187.7 182 179.1 183.8 192.7 202.8
73.9 63 68.9 73.2 82.6 89.5 95.8 100.6 103.1 103.8 101.8 99.3 95.7 88.9 78.8 69.9 64.7 61.1 58 55.3 52.7 52.3 52.3 52.6 52.1 51.1 48.9 48.3 48.7 48.8 48.9 48.8 48.6 49 49 49.2 48.1 48.6 49.2 49.3 49.4 49.3 48.9 49.1 49.7 49.9 53.8 58.3 66.6 68 56.6 67.8 69.7 69.9 69.5 70.1 71.9 71.6 68 67.5 68 68.4 69.5 70.8 69.8 69.9 68.5 68.3 68.9 69.1 69 68.2 67.9 66.7 66.8 68.8 72.4 75.6 78.1 81.9 84.8 87.5 89.1 89.2 89.6 89 90.6 93.6 98.5 108.9 111.3 117.6 126.2 134.6 140.2 145.1 148.7 149.9 150.4 150.7 150.8 142.4 132.9 129 126.7 127.9 130.2 131.4 130.8 130.1 125.1 114.5 108.8 107.7 109.7 114.1 115.9 110.3 115 123.7 127.7 125.3 120.2 111.1 111.1 114.8 122 133.4 140.2 146.7 152.4 156.5 160.2 163.1 163.2 161.2 159.7 158.5 159.4 159.4 159.8 159.5 160 160.5 162.2 164.7 167.8 169.7 170.6 170 168.8 167.1 166.6 166.5 166.6 167.8 169 170.1 171.4 173 174.5 176 177.2 177.1 176 174.3 172.5 171 170.6 170.6 172.1 173.8 175.6 178.9 181.6 182.6 181.6 179.9 181.3 184.9 188.4 194.1 199.1 206.2 211.9 217.6 223.5 231.3 237.3 237.4 234.2 224.8 203.4 187.5 178 177.5 182.3 189.9 202.9 213.2
65.8 60.8 70 76.6 82.7 88.7 95.5 99.2 100.9 101 100.4 97.2 92.6 85.1 74.5 67.6 63.1 59.3 56.4 53.6 52.2 52 52.1 52.1 51.5 48.7 48.2 48.1 48.4 48.5 48.6 48.3 48.7 48.4 47.9 49.2 48.5 48.7 49 49 49 48.6 48.5 49 51.8 60 65.9 68.5 67.4 61.5 69.4 72.9 71 68.5 68.8 70 68.5 67.5 67.9 67.6 68.2 68.9 69.8 70.6 71.3 72.1 71.9 71.3 71.1 72.7 72.9 71.7 69.2 68.2 68.1 68.9 71.8 76.9 79.7 82.8 85.5 87.7 89.4 89.1 88.2 89.1 91.8 94.4 100.9 110.1 112.3 117.2 126.3 135.2 142.2 148.4 151.1 150 149.2 151 149.3 143.3 129.2 123.7 124.8 126 128.1 128.3 128 125.7 123.9 112.3 105.8 104.2 108.3 109.6 111.2 111.7 118.6 125.4 124.5 121.2 117.6 108.9 115.4 121.5 129.8 136.5 144.2 150.4 153.3 154.1 155.5 158.2 158.4 159.1 158.4 158.3 159.8 160.5 159.8 159.3 159.8 160.2 160.8 162.7 164.4 165.4 165.8 166 165.8 165.2 165.4 166.2 167.1 168.3 169.5 170.6 171.8 173.6 175.3 176.8 176.7 175.8 174.4 172.7 171.1 170.9 170.4 169.3 170.3 170.8 171.4 174.4 176 175.7 173.8 176.7 178.2 182.5 188.3 194.7 201.4 208.8 215.6 221.5 230.5 238.9 244.6 241.2 235.8 219.9 199.6 179.4 174.9 180.5 188.2 197.4 207.3 217.9
59.7 63.5 70.9 76.2 82.2 87.9 93.7 96.6 97.3 97.7 97 94.8 89.1 80.4 72.5 64.3 60.4 56.7 54.4 51.1 51.7 51.7 51.7 51.7 50.2 48.2 47.9 48.1 48.3 48.5 49.1 49 49 49.1 48.6 48 47.6 48.7 48.7 48.3 46.5 48.3 49.3 51.3 59.3 70.5 72.6 66.6 62.6 65.9 66.8 69.3 67.8 68.3 69.6 67.9 67.1 67.2 67.4 68.2 69.4 70.2 71.5 73.8 75 75.8 75.7 75.4 75.5 75.9 75.8 75.1 72.5 70 69.7 69.8 72 78.4 82.2 84.8 86.6 87.9 87.7 87.3 87.6 89.8 93.3 95.7 99.8 104.4 112.7 118.6 126.7 135.1 143.7 148.9 148 149.2 150.8 151.5 148.5 137.9 124.1 123.5 126.2 128.4 127.6 125.8 122.8 121.9 120.6 109.2 104.4 102.5 104.4 105.9 107.2 113.3 116.9 118.5 118.9 116.8 110.3 114.2 121.8 126.4 137.2 140.8 143.7 148.1 149.8 151.2 154 156.8 158.1 159.3 157.7 158.5 160.4 160.5 158.8 158.7 158.9 159.4 159.9 160.6 161.3 162 162.5 163.1 163.9 164.4 165.6 166.9 167.8 168.8 170 171.2 172.4 173.7 175 174.8 174.4 172.8 171.7 171.1 171.4 171.8 170.5 167.8 168.8 167.4 166.9 168.9 171.2 170.9 169.7 173 178.8 184.8 191.3 196.5 202.7 209.6 217.7 224.1 237.1 251.2 250.2 240.8 226.7 209.7 190.5 172.9 177.4 185.8 196.5 203.4 210.8 219.7
58 66.9 70.1 75.2 81.3 87 91 92.6 93.6 93.2 92.5 91.7 84.7 76.9 68.3 60.1 56.1 53.4 51.1 50.8 51.1 50.7 50.8 50.2 48.1 47.9 47.8 48 48.2 49 49.1 48.6 48.5 48.6 48.8 47.8 47.8 48.7 48.7 48.5 46.4 48 48.7 61.7 71.3 75.2 70.3 68.6 67.4 65.1 63.4 63.7 66.5 70.7 70.8 68.9 66.7 67.1 67.9 69.1 70.4 72.2 74.5 76.6 78.2 79.1 78.4 78.3 78.7 78.5 78.2 77.4 75.5 72.2 71.6 73 72.7 77.6 81.7 85.6 87.2 86.1 85.3 85.7 89.8 93.2 94 95.5 98.9 103.6 114.9 118.2 126.3 133.8 139 141.5 143.1 143.4 149.4 152.4 147.1 133.5 121.5 120.5 127.7 133.4 130.4 127.1 123 119.4 111.5 104.2 100.2 98.7 99.6 101 104.5 108.6 109.9 111.4 113 107.8 112.6 118.2 127.3 134.3 140.3 145.6 148.3 148.9 152.8 154.4 158.4 160.8 160.4 158.3 157.3 158.6 160.6 159.9 158.1 158 158.3 158.5 159.1 159.8 160 160.6 161.4 162.3 163.6 164.1 165.3 166.6 167.9 168.5 168.6 169.8 170.6 171 171.4 171 170.1 168.9 168.9 171.1 172.8 172.1 169.4 165.6 165.2 164.2 163.4 164.8 166.1 166.9 172.1 176.8 181.4 186.5 191.6 196.7 204.3 210.6 217.4 225.1 247.7 253.4 244.3 229.7 214.3 197.2 178 172.2 181.6 193.2 203.7 211.4 214.7 221.1
55.9 64.9 70.2 74.7 80.2 85.2 86.6 85.6 85.4 85.4 85.5 82.2 75.3 65 55 54.2 53 49.5 48.3 49 49.7 49.9 49.1 47.6 47.6 47.7 47.8 47.9 48.2 48.7 48.4 48.1 48.3 48.4 48.6 47.4 47.1 48.3 48.3 47.8 47.8 53.5 62.5 72.2 80 76.5 73.3 72 71.3 68.1 65.2 64.2 67.7 70.3 69.5 67.7 66.4 67.4 68.4 70 71.9 74.4 78.1 79.7 81.4 82.3 82.9 82.6 81.5 81.1 80.6 79.7 76.8 74 73.8 75.7 77.2 78.5 77.1 82.5 85.6 82.6 84.7 87.9 92.9 95.5 96.1 97.9 101.3 105.6 109.6 116.9 125.6 129.7 133 133.7 133.8 138 145.3 146.4 139.1 124.9 114.3 120.4 130.4 136.5 133.2 129.6 122 114 101.9 97.2 96.3 97.2 98.4 102.4 104.4 104.4 107 103.3 105.7 111.6 118.4 123.9 129.1 139.4 145.6 149 150.5 153.4 157.4 159.5 161.5 161.9 159.2 157.4 157.2 158.8 159.4 158.8 157.6 157.4 157.6 158 158.6 159 159 159.5 160.4 161.9 163.2 164 165.2 166.4 167.2 167.3 167.2 167.1 167.4 167.5 166.8 166.5 166.5 165.5 166.4 168.5 169.6 168.7 166.3 163.7 162.1 162.3 160.4 161.9 166 170.4 174.9 178.7 182.7 185.6 189.4 195.3 206.3 207.2 209.4 225.4 236 232.1 223.4 213.5 200.4 183.6 170.5 176.9 187.9 199.7 209.9 216.1 219.4 223.1
54.6 64 69.1 74.5 79.2 81 79.8 78.2 76.2 73.8 71.8 63.4 54.6 51.3 48.2 47.9 47.9 48.5 48.1 47.9 48 47.8 47.7 47.6 47.5 47.2 47.3 47.4 47.6 47.8 48.5 48.5 48.4 48.4 48.1 47 47.2 48.1 48 46.1 51.2 61.3 72.3 82.3 80.5 78.3 78 75.5 73.4 69 68.3 67.7 69.8 69.1 67.2 66.6 67 68 70.1 73.6 76.8 78 82.1 83.3 84.5 85.5 85.9 86.2 85.1 84.1 83.5 82.2 80.1 76.6 79.1 79.6 79.9 81.4 81.6 80.9 81.1 85.6 89.1 89.9 94.3 95.9 99.1 103.6 106.7 107.4 109.7 118.2 124.1 127.4 130 125.9 122.5 128 133.7 133 125.6 114.1 112.6 123.3 134.4 137.6 130.1 122.9 114.4 103.1 94.1 98 99.3 100.9 104.7 108 110.8 113.5 115.7 116.6 119.7 122.2 127.7 133 134.7 139.9 147.6 151.5 153.3 157.2 159.9 163.7 164.4 160.2 157.6 156.4 156.9 158.7 157.7 157.1 157 157.7 157.6 158 158.6 158.5 158 158.9 160.2 161.6 162.7 163.6 164.4 165.3 165.3 164.9 164.6 164.1 164.1 163.8 163.7 163.6 163.6 163.1 164.1 165 166.8 165.6 164.5 162.9 162 160.4 158.4 162.9 167.1 171 174.8 177.4 179.1 180.7 184.1 186.3 192 196.7 196.4 203.4 211 207.5 202.9 195.6 184.5 170.7 173.2 181.3 189.9 200.7 208.8 214.1 218.6 224.4
54.8 61.5 67.2 71.9 74.4 74.4 74 71.2 67.1 62.7 55 49.3 47.2 47.2 47.3 47.5 47.6 47.9 47.6 47.5 47.5 47.4 47.5 47.6 47.5 47.4 47.1 46.9 47.5 47.6 47.9 48 47.9 47.6 47.2 47.1 47 47.7 47.7 46.1 57.2 70.5 84.1 87.1 80.5 79.2 79.4 76.4 72.3 68.6 68.7 67.1 69.5 66.7 66.6 66.8 68.6 75 80.6 86 89.4 89.2 88.1 87.6 87.5 88.9 90.2 90.1 88.6 87.5 86.6 85.3 83.1 80.3 82.3 82.8 82.6 83.8 84 83.2 81.8 86 92.4 94 94.2 96.9 103.5 108 109.3 110.5 112.7 120.2 124.3 128.2 129 122.4 114.8 114.8 117.6 119.5 114.3 109.2 115.6 128.8 136.3 135 125.4 113.9 105.2 96.1 100.7 106.5 105.7 107 111.6 116.2 117.2 120.4 125.7 126.3 130.3 132.1 137.1 142.7 144.6 141.8 145.3 151.4 156.2 159.3 162 166.8 163.7 159.1 156.5 154.6 155.2 155.6 155.6 156.8 157.9 159.1 159.7 159.7 159.2 158.6 158 159.3 160.6 161 161.7 162.3 162.8 162.9 162.4 162 162.1 161.7 161 161.1 160.9 160.8 160.8 160.8 161.8 163.6 164.4 164.2 163.8 164.1 164.9 162.5 157.5 163.1 166.5 168.7 170.6 171.9 172.1 171.6 171.3 172.6 174.6 178.8 178.8 181.4 186.6 184.8 181.6 175.3 168.4 169.6 171.9 179.5 186.7 194.1 201.8 208.8 215.1 221.1
53.4 58.8 62.9 65.7 67.9 68.9 69.6 65.4 57.5 53.3 47.3 46.9 46.9 46.8 46.9 47.3 47.4 47.4 47.3 47.2 47.1 47.2 47.3 47.4 47.5 47.4 47.3 47.2 47.3 47.6 47.7 47.4 47.2 47.1 47.6 47.3 47 47 49.4 57.3 69 83.8 92 87.5 81.8 80 78.1 74.5 70.7 68.4 67.6 66.6 65.4 66.7 67.6 69.9 77.9 88.8 98.2 104.2 105.7 104.9 96.5 93.9 93.9 93.5 94.5 94.5 91.8 90.7 90.4 90.2 87.8 85.4 85.8 86.4 85.6 86.2 86.5 86 84.6 85.9 93.5 94.1 98.1 99.2 106 109.7 111 115.4 115.4 119.7 122 127.1 128.2 119.9 111.3 103.4 106.9 106.9 105.5 113.4 120.8 133 134.6 129.2 114.7 96.5 92.3 100.8 107.7 110.7 113.2 114 121 125.3 126.5 133.8 140.2 138.2 141.1 143.4 147.5 152.5 153.2 148.2 145.7 151 156.8 159.2 163.3 166.7 161.8 157.9 156.1 153.7 154.7 155.6 156.4 158.5 160.5 161.6 162 161.1 159.8 157.9 158.4 159.6 159.9 159.5 159.9 160 160.1 159.7 159.3 159.7 159.7 158.9 157.9 158 158.2 158 158 158.9 161.6 163.7 163.7 163.3 163.9 165.9 164.9 158.4 158.1 162.4 164.6 164 164.1 161.8 158.4 156.7 157.4 159.5 162 162.4 164.2 165.5 165.6 165.2 165.2 165.3 166.8 171.6 177.1 179.5 185.9 192.8 199.5 207.4 212.8 219
51.8 55.9 59.5 61.2 63.4 64.6 63.8 55.4 50.2 46.7 46.4 46.5 46.5 46.2 46.5 47 46.9 46.7 46.6 46.7 46.9 47 47.1 47.2 47.3 47.1 48.2 47.4 47.5 47.6 47.3 47.1 46.9 47.2 47.6 47 47.5 48.9 60 74.7 88.7 98.2 93.8 86.8 82.4 80.1 77.9 75.6 73.2 70.4 67.6 66.3 66.5 67.4 69.6 77.5 90.6 103.4 116.5 121.7 119.2 116.1 103.2 109.6 110 105.7 102.9 99.6 95.9 94.3 94.8 96.2 94.1 91.3 89.8 89.8 88.7 89.1 89.2 89.5 90 86.8 91.6 93.5 97.5 102.1 106.5 110.7 114.2 117 115.3 118 119.1 121 123.4 118.1 103.6 96.9 100.7 102.4 110.7 122.8 124.5 129.4 123.4 113.4 95.2 97.7 102.7 108.1 112.9 116.1 121.8 125.4 129.3 131.6 137.1 145.2 147.9 150.6 154 156.8 160.3 162.9 159.8 151.7 151.7 150.1 155.6 159.2 163.4 162.4 157.7 155.2 153.8 154.6 156.1 157.3 158.5 160.9 162.8 163.9 163.5 161.6 158.9 157.5 158.8 159.1 158.4 157.7 157.3 157.2 156.8 156.4 156.6 157 156.4 155.4 155.2 155.1 156.6 156.5 156.1 159 161.5 162.5 162.9 163 164.5 167.7 165.1 156 158 161.7 161.8 158.1 153.7 151.8 155.3 157 159.1 159.8 159.4 158.3 159.2 160.4 161.8 164.4 165.8 168 176.8 186.2 190.1 190.5 186.5 191.7 198.5 206.1 210.7 216.5
50.9 52 55 57.7 59.7 59.4 49.3 47.1 46.4 46.4 46.4 46.6 46.1 45.8 46.3 46.8 46.5 46.2 46.4 46.7 46.9 46.8 46.8 47 47.1 46.8 47.2 47.2 47.3 47.3 46.8 46.7 46.9 47.2 46.2 48.2 50.1 60 76.3 86.1 99.4 99.8 90.6 85.9 82.6 80.3 78.1 75.9 73.4 71.5 69.4 67 67 67.7 70.5 79.8 97.1 113.1 130 137.4 132.2 123.8 122.7 126.8 125.8 120.3 118.3 112.6 101 98.3 99 100.4 97.8 95.1 94.2 93 92.4 92.1 92.1 94.5 94.9 92.5 91.6 94.5 98.2 102.4 104.5 105.9 110 112.3 112.8 116.8 112.7 112.7 113.8 105.9 94.6 91.3 94.7 104.2 112.7 117.1 120.6 113.8 104.4 96.8 92.7 101.6 107.8 117 121.8 125.2 129.2 133 135.1 138.1 147.1 154.5 156.4 163.4 166.8 171.1 171.8 169.2 163.1 157.4 154.1 154.2 155.5 158.7 162.4 157.5 152.5 151.4 154.2 156 157.5 158.6 160 161.8 162.7 163.6 162.5 159.4 155.9 156.7 157.7 157.4 156.2 155.2 154.3 154 153.6 153.6 154 154.3 153.6 153.1 152.7 153.4 154.5 154.2 155.9 158.7 160.4 162.4 162.5 163.4 165.6 168.2 162.4 152.8 158 159.2 156.7 149.9 152.5 155.3 158.6 162.7 166 169.6 173.2 173.9 174 174.9 176.8 179.8 182 187.4 196.1 203.7 205 199.7 192.1 189.1 196.2 204 209.8 214.5
48 48.7 50.5 52.4 49.8 47.7 46.4 46.4 46.4 46.4 46.5 46.3 46 45.9 46.3 46.7 46.6 46.2 46.4 46.6 46.9 46.8 46.7 46.7 46.8 47.1 46.7 46.9 47 47 46.4 45.8 45.8 46.7 48.6 54.4 61.3 72.4 84.4 94 100.7 96.5 89.7 85.6 82.8 80.5 78.4 75.8 73.6 71.7 70.2 67.9 67.8 68.6 71.1 79.5 97.7 116.5 135.3 142.7 139.2 131 137.9 140.3 138.7 134 129.5 119 106.7 102.5 103.8 103.8 101.4 99.4 98.7 97.4 96.8 96.9 96.9 97.9 98 96.7 96.8 97 99 101.9 104.3 103.4 104.8 107.6 111 112.6 105.7 104 99.3 91.6 87.2 87.8 94.6 101.6 105.4 103.8 98.5 93.2 91.3 92.3 100.1 112.7 122.9 130.3 131.3 133.1 136.8 141 140.7 146.7 154.8 161.6 166.9 172.4 177.3 180.7 179.1 172.3 163.5 160.3 157.7 158.5 157.8 158.8 158.2 152.7 152.3 154.1 156.1 157.1 157.6 158.3 158.9 159.1 159.7 159.4 158.2 155.9 153.5 155.2 155.9 155 153.3 152.2 151.1 150.2 150.3 150.7 151.3 151.4 151.8 150.9 150.5 151.4 153.3 154.5 155.8 157.7 159.3 161.3 162.3 163.4 167.3 169.6 159.5 152.1 156.5 154.2 147.8 152.8 158.6 161.7 165.9 171.3 177.1 184.7 193.4 197.4 195.5 194.9 196.2 198.9 203.1 207.2 214.7 217.7 212.9 204.7 197.8 195.3 194.2 202.1 210.4 215.1
47.1 46.7 46.5 46.4 46.6 46.2 46.3 46.3 46.3 46.4 46.6 46.2 45.9 45.9 46.3 46.5 46.6 46.3 46.4 46.6 46.9 46.8 46.7 46.6 47.7 46.6 46.3 46.1 46.1 46.1 46.9 49.5 51.8 52.1 55 60.4 69.2 84.1 92.8 99.3 99.6 94 88.2 85.6 83.7 81.3 72.7 72.7 73.8 72.5 70 68.3 69.9 70.6 72.6 78.1 93.8 114.9 133.1 141.6 138.5 147.3 150.6 151.4 147.2 142.4 134.4 123.9 114.3 108.1 108.7 108.3 106.6 105.7 104.6 103.1 102.6 103.1 102.1 101.7 101.1 100.6 100.2 100.1 99.7 99 101.4 101.7 103.8 108.2 109.4 107.3 97.5 92.2 88 83.9 83.6 85.7 86.6 87.6 89.7 89.5 86.8 92.2 95.5 104.2 118.2 130.1 139.3 140 139.7 141.1 145.6 148.1 149 152.6 162.1 167.7 174.1 179.1 185 184.9 182 174 168.4 162.1 163.8 162 160.3 160.1 155.3 147.8 151.8 155.2 156.3 155.8 156.3 157 156.7 155.5 154.8 154.1 152.8 150.8 152.2 153.3 152.6 151.4 150 148.6 147 146.6 146.9 147.7 149.4 151.1 151.2 149.4 148.6 151.5 153.7 154.2 154.8 156.4 158.1 159.8 161.8 165.4 170.7 168.8 157 148.7 151.7 146.7 152.9 157.1 164.3 168.2 175.4 184.5 189.5 196.4 202.7 206.6 206.7 208.2 211.5 216.5 220.6 225.7 228.5 223.7 215.8 206.4 201.5 200.1 201 200.3 207.3 214.3
46.2 46 46.2 46.1 46 45.9 46.1 46.2 46.3 46.4 46.6 46.1 45.8 46 46.2 46.4 46.4 46.4 46.5 46.7 46.8 46.7 46.5 46.4 46.2 46.1 45.9 45.8 45.8 46.7 49.1 52.7 54.8 56.5 61.7 69.6 78.1 87.5 96.2 99.6 97.1 91.6 88.1 86.2 83.7 81.1 78.6 76.4 74.7 73.3 69.6 68.6 69.5 71.3 73.1 76 87 109 130.4 134.7 147.3 161.2 161.8 159.1 153.2 149.2 142 131.1 123.7 116.5 113.7 112.9 111.7 111.4 110.1 109 109.1 108.6 107.2 106.7 105.7 104 103.3 102.2 101.1 99.8 98.4 98.6 101.2 103.4 100.4 98.3 89.6 85.9 84.2 84.1 86.3 86.9 90.9 92.8 94.7 90.7 93.4 99.2 107.7 119.9 132 142.5 147.7 147 147 147.6 151.4 154.9 156.2 159.2 167.2 174.2 179.8 185.3 190.8 189.3 183.4 174.3 170.3 167.7 168.4 164.9 163.5 158.7 152.9 148.3 152.9 154.4 154.6 154.4 156.2 157.3 155.9 153.2 150.7 149.1 149.6 151 151.5 149.9 148.8 146.9 145.4 143.9 142.7 142.9 143.5 145 147.6 149.2 148.8 147.3 148.1 151.1 152.7 152.6 154.4 156.6 159.3 161.5 163.5 167.5 168.6 160.9 152.1 146.6 145.5 151.8 156.1 162.4 168.9 175.7 185.1 191.9 197.5 204.5 207.8 212.8 216.1 219.8 222 227.9 234.8 237.7 235.4 227.1 216 209.9 209.9 212.1 208.6 206.5 206.6 212.5
