ncols 200
nrows 82
xllcorner 280000
yllcorner 262650
cellsize 50
407.7 409 414.4 422.4 424.8 427.5 428.7 429.7 433.9 440 445 451.5 446.6 445.7 452.5 457.1 458.9 457.6 445.1 438.2 436.4 437.3 435.7 437.6 441 437.9 432.8 429.4 424.5 422 417.7 418.6 424.3 430.2 420.6 421.7 426.6 427.7 425.9 417.2 411.8 405.1 402.2 399.3 395 390.9 387.5 381.4 375.1 370 367.7 367.7 367.7 373.3 385.3 400.5 411.4 429.8 439.6 448.5 458.1 461.3 459.4 459 455.7 452.8 449.2 444.8 441.9 438.4 435.3 432.7 430.3 427.3 424.7 421.3 414.3 402 398.7 394.9 396.7 401.7 406 410.3 417 426.6 443.3 457.1 467.9 477.1 483.3 487.2 489.9 491.8 491.9 490.1 487.5 482.5 476.8 465.7 458.8 455.5 450.6 444.3 440 442 445.2 447.8 443.8 433.7 427.1 443.6 455.5 463.9 475.3 487.8 498.6 505.3 509.6 511.9 512.7 513.5 512.8 510.6 508.2 504.4 502.3 500.6 497.8 494.5 490.6 485.7 479.1 473.8 469.2 468.5 465.6 464.6 463.9 459.1 459.5 443.7 439.7 447.4 459.3 467.8 474.7 479.6 483.7 487.4 490.9 494.2 497.3 500 501.9 503.6 504.5 505.3 505.1 505.6 506.5 508 510.2 511.1 510.3 509 507.1 506.5 505.7 504.8 502.8 502.1 500.6 498.9 497.3 495.4 493.8 493.3 492 491 489.9 488.3 488.1 485.8 481.8 474.9 469.3 463.9 458.3 446 415.1 391.1 382.7 375.1 368.8 365.1 361.2 358.9 359 359.5
420.4 417.1 423.7 430.3 431.4 433.3 433.8 438.2 443.3 448.8 453.4 458.3 453.2 451.8 460.5 465.7 468.5 461.1 446.4 442.3 442.3 441.9 442.6 445.1 447.6 438.2 432.2 428.5 426.8 424.7 418.3 424.1 431.4 433.6 428.9 430.1 432.4 431.8 426.4 420.9 415.9 411 407.8 404.5 399.5 395.4 390.9 379.7 376.7 373.3 371.1 367.7 367.7 367.7 369.1 380.9 393.4 407.5 421 431.7 442.9 448.2 450.5 451.7 449.9 447.2 443.7 439.9 437.5 434.1 430.2 426.8 423.4 421.4 418.7 415.6 408 398.4 394.8 393.3 396.9 400 403.8 408 414.9 428.7 442.5 455.7 466.6 474.8 480.6 483.8 487.3 489.8 489.9 489.4 486.4 480.9 473.3 461.8 457.7 454.4 452.2 439 438.7 440.5 442.6 442.3 428.8 417.9 440.1 452.3 460.9 469.3 482.9 493.1 501.9 506.7 509.9 511 511.7 512.4 511.9 508.6 505.8 501.9 500.2 498.5 495.2 490.9 486.3 480.4 473.8 470.2 467.3 461.3 462.2 460.8 460.3 459 450.6 441.3 441.1 456.6 466 474 479.2 483.1 486.4 489.8 493.4 496.4 499.5 502.4 504.2 505.8 506.7 507.4 507.3 508.7 510.4 512.4 513.8 513.7 513 511.9 509.3 508.4 506.7 504.4 502.9 500.5 499 497.4 495.4 493.7 493.1 492.1 491.4 491.2 490.3 489.2 488.2 485.8 481 475.2 471.1 467.6 464 452.9 423.3 400.8 395.3 386.9 377 369.5 365.9 365.2 366.8 368
432.6 429.1 430.5 435.9 437.7 439.8 444.7 451.1 455.1 462.4 466.1 466.7 458.8 461.7 472.2 478.2 474.4 464.3 451.8 451.1 450.8 448.2 451.1 451.8 447.1 436 432.5 430.4 429.6 428 426.3 431.2 438.3 438.2 434 433.6 434.2 433.2 426.8 422.9 418.3 414.9 411.9 408.7 404.1 401.1 396.1 386.7 379.1 374.7 372.1 367.9 367.7 367.7 367.7 367.7 376.4 386.6 398.6 409.3 418.7 431.1 437.6 442.1 442.9 442.2 439.1 435.7 432.7 428.5 425.7 422.2 418.8 415.5 412.1 406.3 398.3 397 394.3 390.8 396.2 399.1 402.2 406.2 416 428.5 441.3 453.6 463.2 470.3 476.6 480.8 484 487.3 488.4 488.3 485.1 478.6 469.5 460.9 457.1 453.1 446.6 435.3 437.3 438.6 438.5 429 414.1 431.4 446.3 455.9 465.9 477 486.9 498.1 503.8 507.7 509.8 510.1 510.7 510.5 507.6 505.3 501.1 499.2 497.9 495.3 491.4 488.1 482.1 476.4 472.1 467.6 462.3 458 458 457.8 457.3 456.6 448.2 433.3 444.1 459.3 470.2 478.4 482.7 487.4 490.3 493.8 497 499.8 502.6 504.8 506.6 508 508.7 508.8 510.6 512.1 514.1 516.2 516.9 516.9 515.5 514.6 511.9 509.2 505.8 503.3 499.9 497.2 495.3 493.8 492.6 491.5 490.9 490.2 489.8 490 489.7 488.9 487.8 484.3 480.1 476.9 473.6 471.2 468.3 459.9 431.9 412.4 404.1 397.9 386.5 380.2 375.9 378.6 379.8 378.8
443.3 440.5 439.1 440.5 443.8 450.2 457 463 468.9 474.9 477.9 478.2 468.5 472.2 480 482.8 478 468.9 459.5 461.3 459 454.8 455.9 453.3 443.3 437.6 434.6 433.2 432.9 426.5 431.7 436.5 440.5 440 437.3 437.4 439.6 436.1 430.6 426.4 421.5 417.9 415 412.5 407.4 403.1 396.1 388.3 380 377.1 375.6 371.6 367.7 367.7 367.7 367.7 367.7 373.4 381.7 390.6 399.6 413.3 425.6 432.2 433.6 434.5 434.6 433.8 430.1 427 423.5 419.7 415.5 411.7 408.1 401.3 397.5 396.5 394.9 390.3 394.7 397.8 400.9 405.4 415.7 426.7 438.5 449.8 459.7 468.4 474.5 478.5 482.4 485.4 487 487 481.8 475.1 465.8 460.8 455.6 447.7 438.2 433.3 435.2 432.4 431.7 412.1 422 438.4 448.8 458.6 471.2 481.6 491.3 500.1 504.3 507.7 508.8 508.9 508.6 506.8 505 502.8 499.4 496.7 493.6 490.7 488.3 483.8 476.6 471.9 468.4 462.5 454.5 453.9 454.6 452.9 452.7 446.7 441.1 425 447.2 463.7 473.8 482.1 486.6 490 493.6 496.4 499.5 502.7 505.3 507.3 508.7 509.6 510.2 511 512.7 515 516.7 517.9 518.5 518.3 516.7 513.4 509.2 505.5 501.9 498.7 494.8 493.3 491.7 490.5 489.3 488 487.5 487.2 487.6 487.6 487.2 486.3 484.8 482.5 480.5 478.7 476.1 473.8 471.3 465.8 447.3 431.5 417.2 410.5 401.2 394.8 391.3 392.4 391.9 392.1
451.8 448.9 450.8 452.9 455.7 464 468.3 480.3 481.1 482.2 487.9 482.5 475.9 481.6 486.2 488.8 485.3 472.9 468.3 472.5 465.7 459.9 458.6 450.4 441.8 438.8 436.2 434.7 433 431 435.4 438.4 441.3 440.7 440.7 440.9 441.3 437.4 434.3 431.5 426.6 421.6 418.9 416.7 410.8 406 397.3 388.7 383.5 382.1 379.3 373.7 371.5 367.7 367.7 367.7 367.7 367.7 368.4 376 385.3 398.9 414 422.7 429.2 432.2 432.3 432.4 429.4 426.6 423.8 419.9 414.9 410.2 404.9 399.7 396.6 395.6 394.1 390.2 393.6 396.4 399.5 402.8 409.8 420.8 433.8 446.6 457.4 465.9 471.5 476.1 480.4 483.6 485.1 481.6 474.3 468.5 465.6 464.2 456.7 442 436.8 432.8 427.8 424.2 418.3 410.4 427.8 442.7 452.5 463.7 475.7 486 495.3 501.4 504.8 506.6 506.9 506.3 504.9 503.3 501.6 499.7 496.6 493.1 489.5 487.3 484.5 478.8 472.6 468 464 457.1 445.2 449 449.1 448 443 441.1 432.5 429.2 452.3 467.7 479.6 486.2 489.5 491.8 494.8 498 501.6 505.1 507.5 509.7 510.3 510.9 511.6 512.6 514.2 516.6 517.8 518.5 518.9 518.2 516.3 512.9 506.5 501.1 496.6 493.3 491.6 490.1 488.9 487.8 486.6 486.2 485.8 484.7 484.6 484.6 484.3 483.4 482 481.3 479.9 478.7 476.9 475.2 473.3 470.4 464.2 456.5 440.8 426.7 417.9 410.1 406.6 405.5 404.9 410.3
451.6 452.2 456.3 462.6 467.3 472.1 474.2 483.1 483.9 484.6 487.5 484.7 481.5 488.5 493.1 494.6 489.9 479 477.3 477.3 470 466.6 459.3 447 442.4 439.3 436.6 435.6 432.7 433.7 436.6 439.4 441.5 443.6 444.3 444.9 442 438.9 436.2 433.3 430.2 426.7 423.6 419.7 414.1 407.9 401.1 391 389.4 387 382.9 378.4 375.7 371.8 367.8 367.7 367.7 367.7 367.7 367.7 375.5 386.4 399 413.4 423.3 425.5 427.4 428.7 428.1 426.4 424.7 422.3 415.5 409.2 403 399.6 397.6 394.4 390.8 387.9 392.2 394.9 397.8 400.6 404.7 410.8 425.3 439.6 452.5 462 468.7 474 478.5 481.1 480.9 474 469 467.3 467 465.5 455.6 440.2 439.3 436.1 429.9 419.7 405.6 420.1 434.4 447.4 456.6 468.2 480.9 490.4 497.4 501.4 503.4 504.6 504.4 503.2 501.4 499.8 498.2 496.4 493.1 488.6 485.6 483.1 479 473.1 467.6 464.8 458.6 448.5 441.8 440.2 438.2 434.7 436.5 433.3 421.7 435.7 458.8 473.1 483.9 488.8 491.4 493.3 496.1 499.5 504 506.9 509.2 510.8 511.6 512.3 513.2 514.2 515.8 518 518.8 519.1 518.7 517.8 516.4 512.3 504.3 497.2 493.4 490.8 489.1 487.7 486.3 485.1 483.4 482 480.7 480.6 481 480.8 480.3 480 479.5 478.7 478.3 477.6 476.8 475.7 474.4 473.1 471.3 469 463.7 454.8 444.3 433.3 427.8 425.5 426.1 429.4
455.3 456.3 459.5 464.6 469.8 472.5 474.5 479.8 484.2 490.2 488.7 485.4 485.7 490.2 493.5 494.3 491.6 482.6 480.8 478.1 473.7 470.4 458.9 445.1 441.8 439.4 437.6 435.5 433.4 435 437.7 440.9 443.6 445.8 447.1 446.8 443.7 441.4 438.7 435.8 432.6 429.4 426.1 422.5 415.5 407 398.7 398.5 397 392.3 389.4 385 380.7 376.4 373 367.7 367.7 367.7 367.7 367.7 367.7 375.1 387.1 401.6 412 417.9 422.5 427.1 427.1 428.3 427.3 423 418.8 411 405.5 400.4 400.7 399.6 396.2 387.3 389.3 392.3 395.2 397.8 400.3 403.4 413.2 429.3 447 458.4 466.6 472.8 477.6 479 474.2 468.2 468.1 469.1 467.5 464.7 451.2 444.4 440.1 436.5 428.8 415.7 403.3 425.3 436.5 451.9 460.7 472.9 484.2 492.4 497.6 500.9 502.1 502.3 501.9 500.4 499 497.7 496 493.4 489 484.4 481.1 478.4 473.2 468.4 463 460.2 453 443.8 439.1 431.9 427.3 433 430.3 416.6 424 447.3 464.9 477.9 486.2 489.8 492.5 495.4 497.7 502 505.9 508.2 510.2 511.9 513.2 514 514.8 516 517.7 519.1 519.5 519.8 519 517.8 515.7 509.6 501.1 494.9 491.7 489.2 486.8 485.4 483.5 482.2 479.4 477.5 476.9 476.5 475.7 475.5 475.6 474.9 475.1 475.1 475.2 475.2 475.3 475 474.4 473.3 473.3 473.3 472.2 470.3 464.6 455.3 451.2 448.3 446.9 447.6
468.6 464.5 463.6 465.6 468.5 471 474.1 478.7 475.1 483.5 479.8 482.5 486.8 490.2 492.1 492.9 488.8 482.7 481.8 477.9 470.2 466.3 457.4 444.5 441.8 439.9 438.3 435.6 436.2 436.7 438.4 440.4 442 443.4 446 447.3 446.2 444 441 438 434.9 431.6 428.2 423.4 414.1 412.7 411.5 408.9 405.1 400.9 395.5 390.3 385.2 380.1 377.7 373.7 367.7 367.7 367.7 367.7 367.7 367.7 377.8 389.2 398.6 405.6 413.4 420.7 425.5 428.6 430.2 426.3 422.7 414.5 408.7 405.7 410.8 408.9 399.1 391.6 386.7 389.4 392 395 397.3 400.8 407.2 422 440.7 455 463.7 470 473.6 472.6 464.6 466 469.3 468.9 466.6 458.8 452.3 450.2 445.9 440.2 430.8 412.9 398.7 419.7 438.9 453.4 463.1 476.7 486.5 492.2 496.8 499.2 499.8 499.8 498.5 497.3 496.6 495.6 493.2 489.3 485 480.4 477.4 473.2 467.1 460.8 456.1 450.6 446.1 439.2 432.3 427.4 428 426.5 415.3 418.2 438.5 455.9 470.9 480.9 487 489.6 492.4 495.5 499.4 503 506.4 509.1 511.2 513.1 515 516.2 517.3 518.7 520.3 520.8 520.6 520.6 519.8 517.4 513.8 506.5 499.4 494.7 490.8 487.6 485.1 482.3 479.8 478.1 475.9 474.3 473.1 472.6 471.9 470.1 469.4 469 469.7 470.4 471.2 471.6 472 472.7 472.1 472.6 473.2 475.5 476.4 476.9 475.2 471.9 468.5 466.1 462.6 461.4
466.6 466.3 465.3 465.6 467.7 469.7 475.6 475.4 471.1 472.8 476.4 482.7 486 488.5 490.2 489.8 485.8 482.2 482.2 477.3 468 458.2 449.8 444.4 442.3 441.2 438.1 438.6 438.8 438.4 439.1 440.2 442.3 443.5 444.9 446.4 446.7 445.3 442.2 439.6 436.5 433.6 429.8 423.5 421.1 421.4 420.7 419.9 414.1 408.7 402.4 397.1 392.1 386.9 382.3 378.3 374.6 368.6 367.7 367.7 367.7 367.7 367.7 376.4 383 394 404.1 415.1 424 430.1 431.8 429.8 425.1 418.4 412.6 411.5 416.6 415 406.8 396.5 391.1 386.4 388.8 391.6 394.4 398.7 403.7 411.7 430.5 446.7 456.6 461.6 465.1 461.7 460.7 464.7 465.7 465 460.8 456.4 455 454.4 451.4 445.9 439.3 417.3 391.5 410.3 433.4 450 464.3 476.4 485.9 490.8 494.7 496.6 497 496 495.2 494 492.8 491.9 488.7 484.9 480.8 477.1 472.8 466.7 461.3 454.4 450.8 444.4 439.9 431.8 420.8 416 413.8 409.2 414.6 431.3 448 462.1 472.9 480.3 484.5 487.9 491.7 495.3 499 502.4 505.8 508.9 511.4 513.6 516.3 518 519.9 520.9 522 522.7 522.9 522.2 521.9 519.4 515.4 507.6 500.9 495.4 491 487.2 483 479.8 477.1 474.9 472 470.7 469.3 469.3 466.8 464.3 462.9 462.3 462.7 464.3 465.4 465.7 466.6 468 469.5 470.1 472.3 475.3 478.9 480.5 481.1 480.7 479.2 479.1 474.4 470.8
469.3 466.3 464.8 464.7 465.8 467.3 471 468.7 469.2 471.3 475.1 480.4 483.3 484.4 484.3 482.6 479 480.4 480.3 476.4 468 455.5 448.2 445.1 442.5 440.6 440.1 440.4 440.5 439.6 439.7 442.6 446.8 445.9 451.1 448.4 449.7 446.7 442.3 439.5 438.3 436 431.1 426.1 428.7 427.2 425.5 424.3 420.3 414.6 409.3 403.6 398.6 393.2 387.8 384 381 377.4 373.7 367.7 367.7 367.7 367.7 367.7 372.5 385 396.6 410.9 419.4 428.5 431.9 431.3 424.5 421 422 422.7 427.4 421.3 407.5 404 395.5 388 385.6 388.1 391.9 396 400 406.4 419.7 435.1 444.1 450.4 453.2 454 457.6 461 462.4 458.8 456.8 459 458.7 458 451 449.6 438.2 424.3 403.2 396.5 423 444.4 459.9 472.5 482.6 487.3 490.7 492.6 493.4 492.4 491.5 489.8 488.9 486.9 484.3 479.5 476.9 472.8 467.6 463.4 457.7 447.7 441.1 437.8 433.5 424.7 411.7 404.9 405.9 408.2 423.7 437.9 451.7 461.9 469.3 475.6 479.6 483.9 488.4 492.4 496.5 500.1 504.3 508.2 510.9 514.3 516.7 518.9 520.5 521.8 523.1 523.7 524 523.9 524 521.6 516 510 505.8 499.9 495.1 491.5 487.9 480.9 476.5 473.3 469.8 467.1 463 464.2 460.3 458 457.7 457.4 457.2 458.5 459.3 460.4 462.1 464.2 465.9 467.7 470.6 474.2 478.3 481.4 483.5 484.2 484.4 484 479.6 476
465.1 465.1 465.2 462.2 463 463.8 464.9 466.9 467.3 470 472.9 476.8 479.1 480.8 475.8 475.1 476.7 477.8 477.7 474 469 456.1 448.2 445.5 443.2 442.4 442.7 442.4 442.1 441 443 447.6 450.6 453.9 457.3 457.1 456.8 447.9 441.7 440.7 439.7 438.2 433.7 432.3 432 431.3 430.3 428.7 424.2 419 414.3 409.4 403.7 398.1 393 387 383.7 380.7 376.9 370.4 367.7 367.7 367.7 367.7 367.7 376.6 389.5 403.5 413.9 427.2 427.8 425.1 422.9 424 428.2 429.5 431.3 418.5 409.6 410.5 399.3 393.2 388.2 385 388.9 393.4 397.1 401.8 410 422.5 432.4 440.2 445.8 450.8 454.6 458.2 458.1 453.5 454.8 458.5 457.8 453.7 449.4 444.3 434.9 421.3 407.1 387.3 413.6 435.9 453.8 466.1 476.1 483.1 485.9 487.5 486.8 486.8 486.8 485.8 484.7 483.3 479.8 476.7 474.6 468.9 463.5 459.1 451.4 441.9 435.1 432.4 427.2 415.4 405 405.2 413.6 420 422.7 433.3 444.1 453.6 461.4 467.1 473 478.2 482.9 487.5 491.8 495.3 500.2 504.3 508.8 513.1 516.4 518.6 520.7 522.6 524 524.9 525.2 525.8 525.7 524.1 520 516.9 514 510.2 506.6 501.4 496.3 491.4 483.7 478.2 472.9 469.7 467.3 462.5 458.5 455.5 451.7 451 451.7 452.8 455 456.8 458.7 460.2 462.6 465.2 468.8 472.9 477 480.9 483.5 484.3 485.6 485.6 481.6 478.1
461.8 460.1 459.5 460.1 460.9 462.2 463.4 464.7 465.5 466.7 469 472.7 475.6 474 472.1 472.7 474.7 476.2 475.8 471.5 463.7 453 448.1 446.1 444.3 444.4 444.6 444.6 443.9 444.1 447.2 451 454.2 458.5 460.7 461.9 458.5 447.3 442.5 442.1 441.3 439 435.7 435.3 434.7 434 432.7 431.2 427.8 422 418.1 413.6 407.5 402.1 395.8 390.4 386.3 382.6 378.5 373.9 367.7 367.7 367.7 367.7 367.7 370 381.6 393.5 406.8 417.6 419.2 419.1 423 429.6 433 434.7 430.2 417.8 417.2 408.1 401 396.6 393 382.6 385.5 391.2 394.9 398.3 403 411.6 422.9 432.3 439.9 444.6 448.9 450.7 448.9 449.4 451.1 453.1 450.7 445.1 441.1 433.8 427.7 412.5 397.3 386.2 407.3 425.6 442 457.8 469.4 476.1 480.1 481.5 483.4 484.5 485 483.3 481.3 479.1 476.5 473.7 470.3 464.1 459.7 454.3 446.7 437.9 430.5 423.7 412.9 401.7 402.1 411.9 419 424 429.5 429.9 432.3 442.7 450.2 457.3 463.6 469.4 474.1 478.8 485.8 490.9 496 501.3 507.2 511.9 515.2 518.8 521.1 523.1 524.8 526 526.7 527.4 527.5 527 524.1 522.6 520.9 518.7 515.8 511.6 506.6 501.3 495.7 489.8 483 474.4 471 466.1 461.6 457 451.6 446.5 446.6 448.3 450.8 453.3 454.6 455.9 458.6 461 464.6 469.6 474.1 478.8 481.7 482.9 484 483.9 480.5 477
457.9 457.1 457.6 458.4 459.2 460.7 462.2 463.2 464 464.9 465.8 466.5 467.6 468.7 469.8 471.5 471.8 470.4 466.4 461.4 456.6 451.8 449 447 446.1 446.3 447.2 448 447.2 447.8 450 452.8 458.1 462.1 464.2 464.3 456.2 447.7 444.5 444.6 442.1 440 438 438.1 437.5 436.6 435 432.9 429.7 425.3 421.7 417 409.9 405.1 399.4 394.2 389.2 383.5 378.1 373.5 368.6 367.7 367.7 367.7 367.7 367.7 375.2 388 399.3 408.2 412.5 417.2 426.7 433.1 436.3 432.3 421.6 420.8 415 404.6 402 399.6 393 386.4 381.9 388.4 392.4 395.4 399.3 405.8 415.8 426.9 434.2 438.8 441.9 444.2 444.9 446 446.7 447.4 445.7 442.9 438.4 432.1 422.1 409.6 393.6 382.3 399.8 417.6 434.7 453.3 465.6 472.2 476.8 478.8 480.9 482.7 481.9 479.4 477.7 475.6 472.6 469.6 464.7 461.5 456.4 450 442.5 434.8 422.8 407.4 398.9 402.2 411.5 418.3 425.4 431.7 437.8 440.3 443.7 448.3 452.6 457.7 464.3 470.8 477.9 485.2 491.1 496.5 500.8 505.8 510.4 513.4 516.9 519.6 521.9 524.2 526.1 527.2 528.2 528.9 529.7 529.5 528.1 527.2 525.5 524.1 520.9 516.7 512.5 507 502 497 492 486.3 478.6 470 457.6 451.9 448.3 446.3 442.8 443.2 446.7 449.2 450.9 452 454.2 456.8 460.6 464.3 468.5 472.1 475.1 477.3 478.6 479 476.8 473.3
457.1 456.4 456.8 457.5 458.2 459.4 461 461.8 462.5 463.4 464.3 465.1 466.3 467.3 469.4 471.2 471.3 470.3 468.4 462.6 457.3 453 450.1 448 447.5 448.2 448.9 449.6 450.4 451.8 453.8 456.6 461.7 464.4 465.4 463.8 455.5 448.3 445.6 445.3 442.9 441.6 440.2 440.7 440 439 437.2 435 432.4 428.4 424.1 418.8 411.3 406.5 401.8 397.4 390.5 383.7 377.3 372.7 367.7 367.7 367.7 367.7 367.7 367.7 368.7 378.1 385.7 397.6 410.2 420.3 428.4 433.1 434.5 423.8 422 419.8 409.9 406.5 404 401.7 392.1 386.8 378.8 384.5 389.3 392.4 396.2 402.3 412.7 424.9 431.5 436.8 440 440.3 441.5 443.8 446.1 444.3 444.6 446.4 441 432.9 424 419.8 401 382.7 391.3 415 435 450.3 461.9 469.2 473.3 476.4 478.5 480.2 478.4 475.8 473.9 471.1 468.1 464.7 460.8 457.6 450.9 444.8 436.3 423.2 408.7 394.3 402.3 413.5 422.8 430.7 438 445 451.4 456.4 458.6 465.5 471.9 477.3 483.6 488.7 493 497.1 502.2 505.7 509 512.9 516 518.7 520.9 522.8 524.3 526 527.3 528.2 529.2 530.1 531.3 531 530.6 529.9 528.7 527.8 523.8 519 514.2 509.3 505 500.2 495 488.5 481.1 472.6 460.3 449.2 446.5 444.9 443.1 439.1 442.6 445.2 446.5 448.4 450.1 451.9 455.3 458.8 462.4 465.5 468.3 470.5 472.1 471.8 469.8 466.8
462.9 456.9 456.1 456.6 457.6 458.9 460.1 460.5 461 461.8 462.7 463.8 465.8 468.5 470.1 471.8 473.5 475.6 476.9 472.3 464.6 454.1 451.5 449.2 448.6 449.4 450 451.4 452.7 455.4 458.1 462 465.6 465.8 465.9 464 456.3 449 446.8 445.7 443.5 442.3 442.1 442.8 442.1 440.7 439.1 436.8 434.1 430.3 425.9 419.8 412.9 407.9 403.3 397.5 390.3 383.6 377.9 373.3 367.7 367.7 367.7 367.7 367.7 367.7 367.7 367.7 377 392.6 409 419.1 425.4 427.8 425.1 420.8 421 415.2 411.9 409.7 408.2 400.9 394.3 387.6 374.1 379.2 388.3 390.3 393.3 399.3 412.8 424 429.5 434.7 435.4 436.3 439.1 442.6 442.5 442 445.6 446.7 439.3 433.3 429.7 422.2 404.6 385.1 387.7 411.9 431.5 446.2 458 465 469.6 472.9 476 476.1 474.2 471.4 469.3 466.1 463.2 460.1 456.8 453.5 446.4 438.9 424.2 408.9 395 398.1 412.6 424.3 433.8 444 452.3 459.4 466.1 471.6 475.3 480.2 485.3 489 493.9 497.3 501.3 505.9 509.7 513 515.5 518.2 520.2 522.8 524.9 526.1 527.4 528.1 528.5 529.6 530.6 531.6 531.9 531.2 531 530.3 529.4 527.5 523.8 519 514.5 510.3 505.8 500.9 495.3 488.5 479.9 470.2 457 450.5 447 443.4 439.5 437.7 438.6 441.4 442.5 443.6 445.7 448 451.6 455 457.6 459.1 460.8 462.8 463.7 463.4 461.8 459.4
468 461.4 457 455.8 457.1 458.1 459 459.4 459.8 460.3 461 462.3 465 468.5 470.6 473.3 476.1 479.2 481.3 478.3 464.6 456 452.5 450 449.7 451.2 453.9 454.7 456.2 459.6 461.7 463.5 465.1 465.6 463.6 460.1 453 449.3 447.7 446.2 444.2 443.1 442.9 444.1 443.6 442.3 440.4 438.1 435.4 432 427.8 421.2 414.4 409.9 406.5 400.6 390.9 383.2 378.4 374.4 368.8 367.7 367.7 367.7 367.7 367.7 367.7 367.7 374.2 388.2 401.8 411.4 419.1 419.7 417.5 419.2 418.7 417 412.6 410.9 404.7 398.2 394.8 386.6 373.9 382.4 386.3 388.1 391 396.6 410.8 421.7 427.1 430.5 431.9 433.9 438.1 441.3 439.3 440.9 444.9 441.5 436.2 433 432.4 422.3 405.6 384.5 384.2 405.7 423.4 438.7 453.6 462.4 467.9 471.8 472.8 471.9 470.1 468.4 465.2 462.3 460 455.5 451.7 446.1 439.6 425 407.5 393.7 393.4 409.1 423.3 434 444.5 455.4 464.3 472.1 478.6 483.6 487.8 490.9 494.2 497.9 501.3 504.7 508.6 512.8 515.8 518.9 521.6 523.2 524 526.6 527.9 528.9 529.1 529.2 529.8 531 532 532.4 531.8 531.2 531 530.1 529.1 526.1 522.3 518.8 514.5 510.1 505.2 500.3 493.8 485 475.3 464.4 457.1 452.1 448.2 443.6 438.6 434.3 434.7 437 438.4 439.8 442.1 445.2 448.1 450.9 453.2 454.8 455.7 456.2 456.8 456.9 456.2 454
472.8 470.1 458.9 455.1 456.2 457 457.8 458.4 458.6 458.4 459.1 460 463.3 466.8 469.1 471.8 475.1 479 482 476.7 464.8 462.4 453.2 449.2 449.8 452.5 455.4 456.9 459.4 461.5 464.1 466.5 468.3 466.4 463.6 458.7 454 450.7 450.1 447.5 445.7 444.9 444.5 445.1 444.6 442.8 440.9 438.9 436.6 432.9 428.8 423.5 419.2 413.9 408.7 401.3 390.4 384.8 380.7 376.3 372 367.7 367.7 367.7 367.7 367.7 367.7 367.7 367.7 379.7 391.8 402.5 409.8 413.3 414.9 416.9 418 418.3 410.8 409.1 402.7 398.4 395.5 386.8 369.8 378.2 383.6 385.8 388.3 395.1 409.3 417.9 424 427.1 430 434.7 439.3 436.8 437.1 440.2 441.5 435.7 433.3 433.9 431.4 421.5 404.8 384.5 378.9 397 416.5 435.8 451.3 461.4 466.7 468.7 469.4 466.6 464.3 462.3 460.5 459.6 455.2 450.6 445 439.1 427.4 409.1 391.2 393 405.1 420.1 432.7 444.1 454.8 465.3 474 480.7 487.3 491.9 495.7 498.6 501.7 504.6 508.1 511.1 514.4 518.3 521.2 523.9 525.9 526.7 527.4 528.9 529.8 530.3 530.8 531.5 531.8 532 532.7 532.2 531.3 530.6 529.6 528.8 527.7 523.2 520 515.7 511.4 507.4 503 497.6 489.8 479.1 468.2 461.5 455.1 450 446.4 442.8 436.8 434.4 431.6 431.8 431.9 432.6 435.8 439.8 442.8 444.8 447.1 450.1 451.5 452.4 452.6 452.7 451.7 449.7
474.9 465.6 456.7 454 455.2 456 456.6 457.2 456.9 456.8 457 457.8 460 462.6 465 467.5 471.7 475 474.1 469.7 468.9 465.9 450.1 449 450.4 454.5 456.3 459.5 462.6 461.2 464.8 468 468 465.5 460.6 458.3 455 453.1 452.7 449.4 447.8 447.2 446.5 446 445.4 443.9 441.9 439.7 437.2 433.9 431.8 428.2 424 417.5 409.2 401.3 395 389.9 385.1 381.6 377.9 374 371 367.7 367.7 367.7 367.7 367.7 367.7 372.2 387.2 397.8 405.3 409.3 411.9 413.2 416.4 409.6 407.5 406.9 400.7 398.7 396.4 383.3 367.7 375 380.2 383.1 386.4 394.9 407 413.7 421.1 425.4 429.7 435.5 433.6 433.8 435 437.8 435.3 433.9 432.2 433.4 428.6 419 404.2 384.7 374.1 394.5 414.6 432.1 447.1 458 462.2 464.7 464 461.1 458.6 456.6 456.1 455.2 449.1 445.9 440.5 430.9 412.2 394.5 389.5 400.9 415.1 429.7 442.1 453.5 464.5 475.1 482.5 489.2 495 499.3 502.7 505.7 508.6 511.3 514.2 517.2 520.1 523.1 525.7 528.1 529.4 530.2 530.2 530.7 531.3 531.9 532.5 533 532.6 532.7 532.2 530.6 529.1 528.3 526.7 525.3 522.9 519.4 516.3 513 508.7 504.8 499.3 493.7 482.3 471.7 464.6 458.4 456.6 451.9 447.7 443.5 439.7 436.7 435 434 430.7 425.8 427.8 430.1 430.7 434.6 439.5 443.1 445.3 447.4 447.7 447.2 446.7 445.1
475.3 466.6 458.3 454.2 453.8 454.1 455 455.4 455.3 455.2 455.1 455.7 456.1 457.5 459.5 463.5 468.6 472.9 477.1 468.8 467.3 457.9 448.9 448.9 451 453.2 454.8 455.5 457.9 461.5 465.2 467.7 467.4 463.5 460.8 458.4 457 456.4 455.1 453 449.7 448.7 448.2 448.7 448.5 446.1 443.8 441.4 439.7 438 436 433.6 429.8 425.4 415.7 406.5 401.3 395.4 389.8 385.2 381 376.7 373.7 367.7 367.7 367.7 367.7 367.7 367.7 367.7 379.8 395.6 402.7 404.3 407.8 408.4 406.9 403.1 403.2 402.2 400.1 398.4 394.5 374.6 367.7 372.6 377.7 380.6 384.9 393.5 403.7 412.6 418.7 424.3 429.8 433 430.8 434.6 432 434.2 426.7 430.1 431.5 430.2 423.6 413.5 400.4 383.2 368 391.7 410.8 429.2 443 452.9 456 457.1 456.2 455.5 454.2 452.1 450.6 449.3 445.3 443.5 436.8 422.2 403.2 385.4 395.4 409.3 424.8 439.2 451.3 462.8 473.9 483 490.1 496.4 501.1 505.4 508.4 511.7 514.7 517.2 519.8 522.4 524.7 526.8 529.3 531.1 532.5 532.5 532.8 534.1 534 533.7 534.1 533.8 533.5 533.2 530 527.1 526.3 524.3 522.3 519.9 517.3 514.9 512 508.6 505.2 500.4 493.4 483.8 473.2 467.2 464.3 463.8 461.2 454.9 450.5 446.6 442.8 441.5 441.5 440.2 437.8 433.7 427.3 415.8 411.4 412.5 424.2 432.7 438.1 439.9 441.7 441.6 441.5 441.4
478.8 475.6 464.7 457 452.9 452.9 454.2 454.4 454.1 453.8 453.4 453.4 453.8 453.9 454.6 456.3 460.8 467 469.5 461.4 459.6 450.3 448.4 448.8 451.3 453.7 452.8 453.4 456.4 459.9 463.2 465.6 464.7 462.1 460.7 459.1 458.4 458.4 456.6 455 453.1 452.9 454.3 454.8 451.2 447.9 445.4 443.5 443.2 441.8 440 438.2 435.2 428.9 419 412.5 407.2 401.5 394.7 389 383.9 378.8 374.9 369.8 367.7 367.7 367.7 367.7 367.7 367.7 368.4 379.3 387.9 397.1 400.5 403.1 400.1 400.1 400.5 400.2 399 395.4 385.5 370.3 367.7 371.2 375.4 377.7 381.8 391.3 400.4 409.2 415.9 424.2 426.3 424.6 427.5 426.2 429.9 423.4 423.6 427.7 430.3 424.6 418.1 412.2 399 381.1 367.7 389.5 408.4 425.6 438.6 446.4 450.9 452.5 453.3 453.3 450.1 448.7 447.6 444.9 444 440.5 433.9 417.7 396.4 384.3 400.6 416.8 433.4 447.4 459.7 471.1 481.6 489.8 496.9 502.2 506.5 510.4 513.5 516.4 519.4 522 524.4 526.9 528.6 529.7 532 533.5 534.6 535.4 536.2 536.8 536.9 536.4 534.7 533.8 533 529.8 525.9 524.1 523.1 520.4 517.6 515.2 512.7 510.7 507.2 504 499.4 491.9 483.6 474 469.3 466.1 467.7 466.7 464.1 459 453.4 450.9 448.2 448.5 448.1 447.2 444.7 441 436.8 427 420.3 412.1 408.3 419 426.3 430.6 433.5 435.4 436.6 437
486.2 480.7 468.3 460.2 453.2 452.1 452.7 453.5 453.1 453.5 452.3 451.6 451.5 451.4 451.8 451.9 454.3 458.3 455.1 453.9 450.6 447.5 447 447.3 448.9 451.3 450 451.6 455.5 458.7 461.6 463.6 461.1 460.5 460.1 459.9 459.7 459.3 458.6 458.1 458.1 458.8 459.8 459.8 453.7 449.8 447.8 446.7 446.6 445.6 443.3 440.3 436.5 428.7 421.4 415.1 409.6 404.1 398.5 392.8 385.8 380.7 376.8 372.5 368.2 367.7 367.7 367.7 367.7 367.7 367.7 367.7 378.6 387.6 390.2 394.1 394.7 397.3 398.3 398.2 396.8 387.8 379.7 369.3 367.7 367.7 371 375.1 378.6 386.1 393 401 408.1 411.9 414.3 417.3 416.9 420 420.9 417.9 421.4 426.6 424.7 421.7 419.5 413.6 397.4 380.6 367.7 386.5 403.6 420.9 433.2 440.5 444.9 447.8 447.8 447.7 447.3 447.5 445.5 443.2 441.7 439.5 431.2 411.3 389.7 387.7 406.1 424.9 441.3 455 467.6 478 487.8 495.8 502.1 506.7 511 514.2 517.5 520.4 522.9 525.1 527.5 529.8 531.1 532.4 534.8 536.6 537.3 537.9 538.1 538.4 537.5 536.6 534.7 532.7 529 525 522.4 520.8 518.4 515.4 513.1 511 509.3 506.2 503.3 499.2 490.1 482.7 474 471.1 469.7 469.5 469.7 468.5 466 461.5 457.6 455.9 455.1 454.5 453.9 452.8 450.7 448.5 445.9 439.6 429.9 419.1 402.8 404.4 412.3 417.9 422.1 426 428.9 431.2
487.4 475.8 463.9 460.1 455.4 450.9 451.7 452.2 452.9 453.1 451.7 450.2 449.6 449.1 448.3 448.4 448.4 449.5 449 448.8 447.4 445.6 444.7 445 445.2 446.3 447.7 449 451.4 453.5 455.3 457.2 457.6 458 459 459.2 459.3 459.5 459.8 459.8 460.6 461.4 461.8 460 454.6 452.3 451.9 451.3 450.2 447.5 444.4 441 436 428.2 422.8 415.7 410.7 405.9 400.8 394.1 388.2 382.9 378.9 376.3 373 370.2 367.7 367.7 367.7 367.7 367.7 367.7 367.7 373.6 378.1 384 389.3 393.8 395.5 395.7 390.2 381.7 378.6 374.8 367.7 367.7 368.1 372.3 376.1 380.3 385.2 391.7 397.1 399.8 400.9 403.2 406.2 408.8 410.8 413.6 418 420.7 419.2 423.2 418.2 408.1 397.1 381.3 367.7 382.3 400.1 416.1 430 435.9 439.5 442.5 443.5 443.2 444.5 445.6 442.7 441.3 439.7 436.8 424.9 403.8 382.8 391.9 410.8 431.4 447.3 461.2 473.4 483.9 493.2 500.8 506.7 511 514.7 517.9 520.6 523.2 525.5 527.5 529.8 531.9 533.7 535.2 537.6 538 538.8 539.2 539.2 539.5 538.1 537 534.1 528.5 523.9 520.6 517.9 516.2 512.8 510.5 508.9 507.3 505.3 503.3 500.3 493.9 484.7 476.3 472.7 471.9 471.7 471 470.9 469.9 467.2 465.1 462.7 462 461.1 460.2 459.5 457.8 455.6 452.7 449.7 445.5 438.9 429.5 413.1 392.3 395.3 398.9 403.9 409.9 415.2 418
479.5 464.7 460.4 459.1 452.9 450.7 450.7 451.8 452.7 454.3 452.4 450.7 449.5 448 446.2 443.9 443.5 445 445.2 444.7 444.5 443.9 442.4 442.6 443.6 444.8 446 447.3 449 450.9 452.6 453.8 455.2 456.1 457.1 457.8 458 458.3 458.8 459.6 461.1 462.1 461.6 457.5 455 454.4 455.2 454.3 452.3 449 445.8 441 433.8 428.7 423.5 418.2 413.9 409.1 403.3 397.2 392 387.8 384.1 381.2 378 375.6 369.4 367.7 367.7 367.7 367.7 367.7 367.7 367.7 367.7 375.5 383.1 388.3 392.4 389.5 381.1 379.1 377.7 375.3 367.7 367.7 367.7 369.5 372.1 374.9 377.4 382.5 386 389.1 392.9 395.2 397.5 399 401.6 405.4 408.2 413 420.4 420.7 408.8 402.2 395.1 379.4 367.7 379.3 396.5 411.7 421.8 428.9 434.7 438 438.8 439.6 442 442.2 440.6 439.3 436.6 432.1 417.9 394.8 379.9 396 416.3 437.1 452.1 466.8 478.7 490.1 498.1 505 509.6 513.6 516.8 520 522.8 525.4 528 530.3 532 534.2 535.9 537.7 538.8 539 539.5 540.1 539.7 538.5 536.2 533.9 528.6 523 518.7 515.3 512.8 511 509.6 507.9 506.2 504.8 502.9 500.1 494.8 489.4 483 476.4 473.3 472.6 472.6 472.7 473.1 472.2 471.2 469.2 467.1 466.4 466.1 465.7 464.5 462.6 459.9 456.4 452.9 448.9 441.8 433.6 423.1 404.6 384.4 379.5 379.1 383.1 393.6 396.5
468.1 456.6 456.8 456.4 452.4 452.4 450 451.3 455 459.4 455.2 453.5 451 449.6 447.2 445.1 441.6 441.2 441.3 441.6 441 440.9 440.8 441.3 442.4 443.8 444.9 446.5 448.2 449.9 451.3 452.1 453.2 454.2 454.9 455.2 455.5 455.8 456.2 458.5 459.7 460.8 459.2 456.3 454.9 455.1 455.3 454.7 451 448.6 444.4 437.9 432.8 428.5 424.9 421.4 417.9 412.9 407.4 401.9 397.6 393.9 389.4 384.4 380.5 376.6 372.4 367.7 367.7 367.7 367.7 367.7 367.7 367.7 367.7 367.7 376.5 384.2 386.2 380.6 376.2 376.9 376.6 372.2 367.7 367.7 367.7 367.7 367.7 367.7 370.5 375.6 379.4 383.2 386.9 389.2 388.5 388.8 390.9 394.9 398.7 403.6 406.2 404.4 398.6 396.2 390.9 377.9 367.7 372.5 389.4 402.8 414.4 422.7 427.6 430.4 434.1 437.8 440.2 439.5 438.5 437.1 434.3 428.8 410.2 387.6 381.7 400.4 420.7 440.3 457.3 471.9 483.8 494.3 501.7 507.9 511.8 515 518.1 521.4 523.9 526.2 528.2 531 534.3 536.1 536.7 537.8 538.3 538.6 539.8 539.9 539.5 538.1 532.9 528.5 521.6 516.6 514 511.5 510 508.4 506.3 505 503.6 502.1 498.7 495.5 491 487.4 482.9 479.1 475.1 473.5 473.6 474.3 475.6 474.8 474 472.3 471 470.5 469.7 469.6 468.3 466.4 463.3 459.8 455.9 451.1 444.1 436.6 428.6 418.6 400.7 382 367.1 350.5 360.9 367.3
454.4 450 451.9 452 451.6 450.5 449.9 451.6 458.4 459.3 457.2 459 456.4 452.3 448.3 445 442.2 440.7 438.3 439.9 439.9 439.9 440 440.2 442.6 443.9 445 446.2 447.5 449.2 450.4 450.9 451.6 452.3 452.3 452.4 452.7 453 453.3 455.1 457.5 458.2 456.1 454.5 454.6 454.9 454.3 452.1 450.1 447.2 442 436.2 432.3 428.4 426.1 423.3 420.3 414.8 408.8 404.4 401 396.7 392.3 386.5 381.1 377.4 373.5 369.6 367.7 367.7 367.7 367.7 367.7 367.7 367.7 367.7 367.7 374.8 375 371.8 372.9 373.7 372.1 367.7 367.7 367.7 367.7 367.7 367.7 367.7 367.7 367.7 373.4 376.6 378.9 379.2 379.1 378.6 382.9 385 388 390.8 393.2 390.4 389.7 386.9 383.9 377.2 367.7 367.7 381.4 393.5 402.9 411.5 419.2 425.8 430.5 434.2 436.8 436.7 436.1 434.7 432.9 427.7 406.9 381.8 385.7 405.5 425.7 444.3 462.4 477 488.3 497.9 505 510.1 513.7 516.3 519.1 521.8 524.7 527 529.6 532.6 535.4 536.6 536.7 538 539.5 538.5 537.9 537.8 538 535 529.8 522.3 515.7 512.1 509.9 508.5 506.3 504.1 502.9 501.6 499.8 498 495.7 493.4 490.3 487.2 484.4 480.9 476.9 474.8 474.9 476.2 477.5 476.9 476.1 475.3 474.9 474.5 473.7 472.1 470.4 468.3 465.8 462.9 458.7 453.1 446.1 439.1 431.4 416 407.5 401.8 389.2 362.8 347.7 341.1
446.7 446 449.7 448.9 448.5 449.4 451.3 452.9 458.3 459 460.1 464.5 463.8 458 450.8 444.6 441.7 439.7 438.1 437.9 439 439.1 439 440.7 442.9 444 445.2 446.3 447.5 448.7 449.3 449.7 450.4 450.4 450.2 450 450.2 450.5 450.6 451.4 452.1 453.1 452.9 453.1 454.1 454.7 454.4 450.1 448 443.8 438.7 435.3 431.5 427.4 425.6 423.4 420.7 416.2 409.4 404.7 401.5 397.7 393.1 387.4 380.1 376 372.9 367.7 367.7 367.7 367.7 367.7 367.7 367.7 367.7 367.7 367.7 367.7 367.7 367.7 367.7 367.7 367.7 367.7 367.7 367.7 367.7 367.7 367.7 367.7 367.7 367.7 367.7 367.7 367.7 367.7 367.7 367.7 370.7 372.3 372.8 374.3 376.8 379.2 380.6 381.1 378.5 376.4 367.7 367.7 373.9 384.6 392.1 401.4 410.5 417.7 425.7 430.9 434.1 434.1 433.3 432.5 431 425.2 404.1 377.6 388.6 409.5 430.3 448.8 466.6 481.3 491.5 500.4 507.2 512.3 515.4 518 519.6 522.3 524.3 526.8 528.8 531.1 532.8 534.7 536.8 538.6 538.8 537.3 536.7 535.8 534.4 528.4 524.4 515.9 512.5 508.7 507.2 505.7 503.8 501.2 499.5 497.6 496.5 495.1 493.7 491.9 490.5 488.1 486 483.2 481.2 479.2 478.3 478.8 479.6 479.6 479 478.4 478.2 477.4 476.1 474.9 472 469.7 467.1 464 459.4 452.7 445.8 437.6 432.3 430 424.1 417.3 404.4 380.7 362.9 348.6
444.1 443.5 447.1 444.3 448.1 451 452.6 454.1 457.4 459.2 462.4 467.1 466.5 457.4 455.6 446.3 441.5 439.9 438.8 436.7 437.8 439.3 440.5 442.1 443.5 444.4 445.4 446.2 447.2 448.1 448.5 448.7 448.7 448.6 448.4 448 447.5 447.5 447.6 448.1 449.1 450.4 451.3 453 454.4 454.9 453.5 446.7 443.2 438.3 432.9 426.8 423.9 422.7 421.1 417.9 415.9 410.5 402.6 398.7 397 395.2 390.6 383.3 377.6 371.7 367.7 367.7 367.7 367.7 367.7 367.7 367.7 367.7 367.7 367.7 367.7 367.7 367.7 367.7 367.7 367.7 367.7 367.7 367.7 367.7 367.7 367.7 367.7 367.7 367.7 367.7 367.7 367.7 367.7 367.7 367.7 367.7 367.7 367.7 367.7 367.7 367.7 367.7 367.7 370.3 371.4 371.5 367.7 367.7 367.7 374.5 382.5 390.6 399.1 411 421.4 427 429.6 430.5 429.9 429.7 429.3 424.1 405.1 380.3 387.3 410.2 431.8 452 469.5 483.1 492.8 501.5 507.7 512.6 516.2 518.2 519.6 520.9 522.9 523.9 525.9 528.1 529.8 532.4 534.2 535.9 535 534.1 533.4 532.1 530.5 521.1 515.7 510.6 508.3 506.5 505 503.7 501.4 498.7 495.1 493.6 493.2 492.6 492.2 491.4 490.5 489.3 487.5 486.2 484.5 482.9 481.7 482 482.3 482.3 482 481.7 481.2 479.9 478.5 476.8 473.9 471 468.2 463.8 457.5 451.3 447.4 446 443.4 439.7 437.2 434.5 420.3 394.5 377.4 358.2
440.9 440.2 441.9 447.1 450.6 451.9 453.3 461 461 461.9 466.4 471 461.8 456.1 460.3 451.9 444.4 439.3 437.6 436.7 439 440.3 441.4 442.6 443.6 444.6 445.5 446.3 446.6 446.7 447.1 447.3 447.4 446.9 446.5 446 445.6 444.8 444.4 443.7 444.8 447.4 449.7 451.7 452.8 453.5 449.1 443.2 438.3 428.8 423 418.3 415.2 413.6 411 404.7 401.4 393.6 381.5 380.5 380.1 383.1 378.8 372.7 367.7 367.7 367.7 367.7 367.7 367.7 367.7 367.7 367.7 367.7 367.7 367.7 367.7 367.7 367.7 367.7 367.7 367.7 367.7 367.7 367.7 367.7 367.7 367.7 367.7 367.7 367.7 367.7 367.7 367.7 367.7 367.7 367.7 367.7 367.7 367.7 367.7 367.7 367.7 367.7 367.7 367.7 367.7 367.7 367.7 367.7 367.7 367.7 373.8 380.5 390.2 403 414.6 422.4 424.8 425.3 426 427.4 426.4 421.4 406 382.3 382.9 406.5 430.4 452.2 469.3 482.3 492.5 500.6 506.9 511.6 514.5 516.3 516.6 518.1 518.8 520.2 522.8 525 526.7 527.8 527.3 528.6 530.1 528.8 527.9 526.5 521.6 512.2 509.6 508.2 505.8 503.9 502.6 500.9 497.4 493 490.5 489.8 490.5 490.5 490.4 490.6 490.4 489.9 489.2 488.4 487.5 485.9 485.4 485.4 484.9 484.6 484.5 484.2 483.2 481.6 480.3 477.3 474.7 472 468.5 463.6 459.8 457.4 454.8 452.1 449.7 447.4 445.3 443.9 425.9 400 388.3 367
437.3 436.4 442.8 446.1 449.1 450.9 456.2 462.4 462.9 466.7 468.9 467.6 455.8 455 461.3 457.1 444.9 439.2 436.8 437.5 439.7 440.8 441.9 443 443.8 444.6 445.3 446.4 447.1 446.7 446.2 446 446.1 445.2 444.1 444.1 443.7 442.8 439.9 438.7 438.7 442.3 445 446.7 448.1 447.5 439.9 437.2 430.4 418.9 416.4 410.3 405.9 403.1 395.4 387.1 379.8 371.4 368.6 375.2 368.6 368.6 367.7 367.7 367.7 367.7 367.7 367.7 367.7 367.7 367.7 367.7 367.7 367.7 367.7 367.7 367.7 367.7 367.7 367.7 367.7 367.7 367.7 367.7 367.7 367.7 367.7 367.7 367.7 367.7 367.7 367.7 367.7 367.7 367.7 367.7 367.7 367.7 367.7 367.7 367.7 367.7 367.7 367.7 367.7 367.7 367.7 367.7 367.7 367.7 367.7 367.7 367.7 375.1 386.5 396.9 408.6 417.5 419 420.7 423.2 425.7 424 419.2 408.9 384.6 374.2 398.2 423.5 446.1 465.2 479.6 489.8 497.9 503.9 508.3 511.6 513.2 513.5 514.2 515.5 517.5 519.3 521.1 522.2 522.5 523.1 524.1 522.4 521.8 521.5 519 510.9 508.7 506.3 503.9 501.6 497.8 496.3 493.3 491 488 486.8 486.6 487.9 488.3 488.4 488.7 489.6 490.5 490.1 489.3 488.6 488.2 487.7 487.2 487 487 486.6 485.9 484.5 482.7 480.8 478.8 476.2 472.6 469.4 466.6 464.2 462.2 460 457.5 454.8 452.1 450 447.2 429.1 410.1 398.6 371.9
433.6 434.4 439.5 443.2 446.8 448.8 454.5 463.5 463.1 467.1 469.4 463.9 454.7 454.4 457.4 456.4 445.1 440 436.9 438.2 440.1 441.2 442 442.6 443.2 444.1 445.1 446.1 447.5 446.7 446.1 445 444.5 443.4 442.2 442 441.4 440.3 437.5 429.1 431.1 434.8 438.5 441.2 441.9 435.3 432.4 431.6 419.4 409.9 408.1 400.8 397.5 386.7 372.5 372.2 373.3 381.2 383 383.1 379.3 370.3 367.7 368.3 367.7 367.7 367.7 367.7 367.7 367.7 367.7 367.7 367.7 367.7 367.7 367.7 367.7 367.7 367.7 367.7 367.7 367.7 367.7 367.7 367.7 367.7 367.7 367.7 367.7 367.7 367.7 367.7 367.7 367.7 367.7 367.7 367.7 367.7 367.7 367.7 367.7 367.7 367.7 367.7 367.7 367.7 367.7 367.7 367.7 367.7 367.7 367.7 367.7 367.7 381.4 392.8 405.8 411.7 414.5 418.4 422.8 424.5 421.7 419.7 411.2 389.5 367.7 388.7 414 437.8 459.8 476.5 487.2 494.5 500.4 504.3 507.4 509.5 510.5 511.3 512.4 513.3 514.8 516.5 518.2 517.8 519.7 519.8 516.9 515.9 515.6 509.5 507.5 505 502.9 500.1 496.9 492.7 490 486.7 484.9 484 483.2 483.9 485.2 485.4 486.1 487.2 488.7 489.7 490 489.8 489.2 488.8 489 488.8 488.6 488.4 488.2 487.5 486.7 485 483 480.9 478.2 474.8 472.1 470.2 467.9 465.6 463.3 460.7 457.8 455.2 453 447.3 432.8 417.1 396.5 365.1
432.1 432.4 436 439.4 442.6 444.4 450.9 459.9 460 471.3 468.8 458.7 451.9 452.8 459 453.7 443.8 441.3 437.9 437.9 439.8 440.9 441.5 442.1 442.7 443.6 444.3 445.3 446.2 447.1 447.7 445.9 443.9 442.2 440.8 439.3 438.2 435.2 431.5 421.9 422.6 427.9 429.3 430.9 428.7 424.4 424.7 419 409.6 402.4 398 395.4 385.4 373.9 374.3 378 382.6 387.2 387.7 386.8 381.9 373.1 375.6 374.2 370 367.7 367.7 367.7 367.7 367.7 367.7 367.7 367.7 367.7 367.7 367.7 367.7 367.7 367.7 367.7 367.7 367.7 367.7 367.7 367.7 367.7 367.7 367.7 367.7 367.7 367.7 367.7 367.7 367.7 367.7 367.7 367.7 367.7 367.7 367.7 367.7 367.7 367.7 367.7 367.7 367.7 367.7 367.7 367.7 367.7 367.7 367.7 367.7 367.7 373.9 386 397.2 404.5 411.3 418.9 423.4 422.8 421 418.8 411.6 395.3 368.5 378.4 402.6 429.2 452 471.1 483.1 491 496.7 501 504.2 506.5 507.9 509.2 510.4 511.1 511.8 513.6 514.3 514.1 513.3 511.1 509.8 510 507.5 504.3 501.5 500.6 498.9 495.8 491.4 486.8 483.9 482.3 481.2 480.9 479.9 481.2 480.9 481.5 483.1 485.6 487.4 488.2 488.8 489.3 489.5 489.5 489.8 489.9 489.7 489.3 489.2 488.9 487.6 486.3 484.6 482.8 480.4 477.4 474.7 472.2 470.2 468.2 465.6 462.8 460.4 458 453.8 444.7 431.7 415.4 381.5 349.5
429.5 430.9 433.6 436.4 438.4 440.7 446.6 452.6 456.6 467.6 460.1 453.4 449.9 450.6 461.2 452.9 444.6 443.7 437.5 436.8 439.1 440.3 441 441.6 441.9 442.3 442.9 444 446.2 448.6 449.7 447.7 444.1 440.9 439.1 438.5 435.8 432 428.1 415.4 409 420.5 419.5 418.3 416.3 413.8 413.8 410.7 402.8 395.2 389.1 386.4 376.4 378.8 382.5 384.8 389.5 390.3 390.4 390.4 389 384.8 381.8 376.7 369.8 367.7 367.7 367.7 367.7 367.7 367.7 367.7 367.7 367.7 367.7 367.7 367.7 367.7 367.7 367.7 367.7 367.7 367.7 367.7 367.7 367.7 367.7 367.7 367.7 367.7 367.7 367.7 367.7 367.7 367.7 367.7 367.7 367.7 367.7 367.7 367.7 367.7 367.7 367.7 367.7 367.7 367.7 367.7 367.7 367.7 367.7 367.7 367.7 367.7 367.7 378.3 390.1 399.4 409.7 418.7 419.8 420.8 419.9 416.8 413.4 401.7 372.7 367.7 390.7 417.7 442.9 463.7 478.6 487.3 492.6 496.8 500 503.2 505.9 507.5 508.8 509.3 510 510.8 510.5 508.9 506 504.7 503.8 502.6 500.1 497.6 495.9 494.6 493.1 490.3 484.7 480.1 479.2 478.7 477.2 476.7 476.4 477.6 476.3 478.6 481.7 484.3 485.9 486.9 487.6 488.6 489.5 490.1 490.3 490.3 490.3 490.2 490 489.3 488.1 487.2 485.5 484 481.6 479.2 477.2 474.8 472.7 470.2 467.3 464.8 461.8 457.1 449.6 439.1 427.1 396.3 363.5 333.4
425.8 429.4 431.8 434 435.9 438.8 443.7 448.2 453.1 461.9 450.9 447 449.1 451.6 454.9 446.7 445.5 444.5 436.8 435.9 438.9 439.7 440.2 440.6 440.9 441 441.1 441.4 443.3 446.2 446.6 444.6 442.3 439 437.1 436.8 434.4 430.6 414.1 404.2 407.6 397.2 413.1 415 412.8 409.4 402.8 399.8 391.1 385.9 382.9 380 374.9 384.7 388.3 389.4 392 392.7 393 393 393.1 392.2 389.5 383.8 374.1 367.7 367.7 367.7 367.7 367.7 367.7 367.7 367.7 367.7 367.7 367.7 367.7 367.7 367.7 367.7 367.7 367.7 367.7 367.7 367.7 367.7 367.7 367.7 367.7 367.7 367.7 367.7 367.7 367.7 367.7 367.7 367.7 367.7 367.7 367.7 367.7 367.7 367.7 367.7 367.7 367.7 367.7 367.7 367.7 367.7 367.7 367.7 367.7 367.7 367.7 367.7 382.1 393.8 404.7 411.5 416.2 415.8 417 415.4 413 403.6 372.5 367.7 381.7 406.3 431.2 454.9 471.7 481.6 488.1 492.6 496.6 500.7 502.9 504.8 506.1 506.2 506.5 505.7 505.3 503.4 500.4 499.4 496.4 495 492.6 490.9 489.7 488.9 486.5 480.8 476 474.7 474.8 474.7 472.8 471.9 471.6 471.2 473.6 477.5 481.1 483.5 484.7 485.8 486.8 487.7 488.7 490 490.3 490.2 490.3 490.4 490.4 489.8 488.7 487.7 486.6 484.6 482.9 481.6 480.1 477.5 474.8 472 469.1 465.8 460.1 453.5 443.7 436.1 426.6 382.6 348.8 322.9
424.6 427.5 430.5 432.5 434.1 438.3 442 441.7 444.2 446.4 441 444.9 446.5 449.8 448.9 445.5 445.1 441.4 435.2 436.8 438.2 438.9 439.3 439.6 439.8 439.7 439.6 439.1 438.8 441.9 442.7 441.5 439.7 433.6 434.3 434.4 432.3 429.4 409.6 419.2 418.2 412.3 393.8 408 407.1 402.5 390.3 386.5 383.9 382.5 379.3 378 380.6 390 393.1 393 394.6 395.3 395.5 395.5 396.1 397.1 396.3 390.9 382.8 372.3 367.7 367.7 371.2 372.6 371.6 371 370.3 368.5 368.9 367.7 367.7 367.7 367.7 367.7 367.7 367.7 367.7 367.7 367.7 367.7 367.7 367.7 367.7 367.7 367.7 368.8 371.9 375.2 373.4 374.4 373.8 371.4 371.4 374.9 367.7 367.7 367.7 367.7 367.7 367.7 367.7 367.7 367.7 367.7 367.7 367.7 367.7 367.7 367.7 367.7 367.7 384.7 397.6 407.2 409.2 408.8 411.7 412.5 410.9 398.8 370.1 367.7 373.4 395.6 418.7 438.7 460.3 472.8 481.1 487.9 493.3 496.8 499.5 500.8 501.6 501.3 501.2 500.1 498.2 496.1 494.4 492.2 491.6 486.8 484.8 484.4 483.5 480.4 474.7 470.7 469.5 469.7 470.1 468.6 466.4 465.3 465.5 469.7 474 477.2 480.4 482.9 483.9 485 485.9 486.8 488.1 489.5 490.3 490.4 490.4 490.5 490.7 490.5 489.3 489.1 488.7 487.2 485.8 484.4 481.9 479.4 476.7 474.5 470 463.7 456.4 448.5 440.6 433.3 407.9 369.2 336.3 322.3
424.3 426.6 429 431 432.6 440.2 439.8 434.5 434.4 437.9 437.3 439.5 445.9 452.7 447.7 446.5 443.5 436.6 434.7 436.8 437.6 438 438.3 438.6 438.5 438.4 437.8 436.9 435.8 435.2 437.4 438.5 437 429.7 429.6 429.6 428.7 414.5 417.2 419.9 419.2 416.1 405.1 389.8 395.2 387.1 385.2 383.6 382.1 379.5 378.1 376.6 387.8 394.7 397.5 396.6 397.6 399.6 400.5 401.5 402 402.5 402.4 401.1 395.5 383.5 379.3 377.4 376.1 377.7 378 377 376.3 374.7 373.5 370.4 367.7 368.7 370.7 369.7 370.1 371.5 369.5 370.7 371.5 371.5 370.6 368.5 369.1 371.5 375.7 380.3 383.7 386.4 388.2 389.9 390.7 386.7 388.5 381.5 368.8 367.7 367.7 367.7 367.7 367.7 367.7 367.7 367.7 367.7 367.7 367.7 367.7 367.7 367.7 367.7 367.7 369 387 394.3 400.1 403.3 406.2 407.6 405.4 392.5 367.7 367.7 367.7 381.9 402.1 422.4 442.8 462.8 478.1 485.5 491 494.2 496.7 497.6 497.9 498.4 497.4 495.2 492.3 489.1 486.8 486.4 482.6 478.4 479.3 478 472 467.1 463.8 464.6 462.5 462.8 460.7 457.6 459 460.3 466.6 470.8 473.9 476.9 480.3 482.2 483.3 484.1 484.9 486 487.4 488.7 489.7 490.2 490.6 490.8 491.3 491.3 491.4 491.3 490.4 489.5 488 486.1 483.7 481.4 479.3 475.4 468 460.5 452.9 446.4 439.3 430.5 405.9 362.9 333.8 324.7
423.7 426.1 428.2 430.5 432.5 439.7 433.3 431.3 432.2 436.9 437.2 440.4 450.2 457.5 448.8 448.7 449 434.5 434.9 436.2 437 437 437.3 437.5 437.4 437.5 436.5 435.2 433.5 431.7 430.9 432.4 430.8 425.8 424.6 423 421.8 408.5 422.9 422.6 420.6 417.7 409.2 396.8 387.4 386.8 392.4 383.7 381.5 380.1 378.7 382.4 390.8 399 402.2 405 408.1 408.7 410.4 412.5 412.5 411.4 412.9 410.8 406.8 398 400.6 397.6 388.9 386.6 385.7 384.1 381.5 378.7 377.2 375.6 372.1 374.3 375.5 374.9 375.3 376.6 376.5 377.4 377.6 378.6 380.7 381 382.8 384.8 388.4 394.3 400.7 402.8 406.2 406.7 405.2 400 403.9 388.6 375.5 369.2 367.7 367.7 367.7 367.7 367.7 367.7 367.7 367.7 367.7 367.7 367.7 367.7 367.7 367.7 367.7 367.7 369.8 380.6 385.1 387.5 393 394.3 393.8 379.8 367.7 367.7 367.7 367.7 384.4 403.9 432.4 458.7 475.3 483.3 488.7 491.4 493.3 492.7 493.1 494.9 492.3 487.7 483.5 480.3 475.8 474.4 472 464.7 457.4 454.8 453.3 454.4 447.4 457.5 449.8 449.2 448.3 452.2 457.1 463.6 468 471.4 474.4 477.5 479.8 481.5 482.9 483.3 483.4 484.1 485.5 486.9 488.4 489.6 490.3 491.3 492.6 493.2 492.6 492.4 492.1 491.4 489.8 487.8 486 484.1 479.6 473.1 465.4 458.1 451.6 445.1 437.5 427.1 409.1 371.9 345.7 337.8
422.8 426.7 429.5 430.7 435.1 441.3 430.4 429.6 432.3 437.4 439.9 444 455 452.2 451 453.3 442.3 433 433.7 435.2 435.9 436.1 436.3 436.5 436.7 436.8 435.7 434.3 431.8 429.8 427.5 425.7 424.1 422.6 421.7 420.1 409.1 423 424.4 424 422.5 419.4 414.6 408.8 399.6 396.3 401.1 397.6 389.6 391.3 392.9 397.2 407.7 413.2 418.5 422.3 424.2 422.4 425.4 426.5 429.6 427.2 426.6 421.7 418.7 416.6 420.8 418.5 416.9 410.6 404.1 387.5 381.2 378.8 376.8 372.4 378.1 379.4 379.9 380.1 379.9 380.9 381.8 383 383.9 385.7 388.8 392.3 396.6 402 407.5 417 427.8 422.9 420.4 416.6 414.9 416.1 414.1 396.3 383.7 377.1 374.7 372.1 367.8 367.7 367.7 367.7 367.7 367.7 367.7 367.7 367.7 367.7 367.7 367.7 367.7 367.7 367.7 367.7 367.7 367.7 367.7 374 367.7 367.7 367.7 367.7 367.7 367.7 367.7 388.7 420.4 446.2 465.1 477.3 483.3 488 489.2 489.4 489.1 487.1 483.5 479.5 473.6 469.8 466.1 460.3 441.9 432.5 425.6 426.3 432 427.2 431.6 433.4 429.9 445.8 454.7 462.5 464 466.2 469.4 471.9 474.3 476.7 479.1 480.8 482.3 482.4 482.4 482.6 483.5 484.9 486.4 488.1 490.4 491.7 493.3 494.6 494.1 494.1 493.9 493.8 492.9 490.5 488.3 484.7 479 471.4 463.6 456.6 451 445.6 439.7 432.2 420 389.2 363.7 352.6
421.6 428.8 430.3 432.1 438 438 426.8 427.8 433.1 437.6 442.4 448.4 457.5 452.1 452.8 455.8 434.8 432.7 432.8 433.9 434.5 435.2 435.6 435.9 436.1 436.1 435.2 433.8 431.7 429 425.4 423 421.5 420.3 418.3 415.4 418.4 423.4 424.7 424.8 424.4 422.8 420.9 419.7 411.8 404.2 407.4 408.5 398.2 402.6 405 415.4 426.8 436.4 443.3 446.9 445 450.9 456 457.5 458.7 450.8 438.8 438.5 434.4 434.6 441.7 439.8 438.4 432.1 405.5 387.1 379.5 377.8 376.6 377.6 381.5 383.2 383.5 384 384.5 385.7 386.9 388.3 389.9 392.5 397.8 404.8 414.4 421.1 428.4 439.1 443.6 442.5 442.1 435 426.4 424.5 421 407.9 392.3 384.9 382 378.1 375 367.7 367.7 367.7 367.7 367.7 367.7 367.7 367.7 367.7 367.7 367.7 367.7 367.7 367.7 367.7 367.7 367.7 367.7 367.7 367.7 367.7 367.7 367.7 367.7 367.7 367.7 367.7 389.9 418.1 447.8 465.9 478.8 484.8 487 486.8 484.7 482 479.8 474.4 469.1 462.8 447.2 426.8 414.2 403.3 397.5 399.3 407.2 409.6 412.8 433.2 448.1 455.3 461.1 466.2 468 469.6 471.1 472.9 474.6 476.2 478.2 480 481.2 481.3 481.2 481.4 481.9 483.4 484.9 487.8 489.9 492 493.6 495.5 496.5 497.2 497.8 497.7 496.3 493.3 489.5 484.9 477.5 470 462.8 458.6 454.7 451.1 445.2 440.5 430.7 408.7 382.1 368.3
423.9 427.3 431.6 438.9 440.8 427.7 423.3 426.9 431.6 435.4 441 449.4 457.9 449.5 452 443.4 429.6 430.5 431.6 432.7 433.5 434.2 434.7 435.2 435.4 435.5 434.8 433.7 432.6 430.5 425.9 421.6 418.6 417.8 414.8 409.8 419.2 423.5 425.5 426.6 427 427.1 426 423.8 417.1 414.8 415.9 419.5 414.2 421.5 426 435.8 447.7 459.2 465.5 468.5 467.2 474.5 478.1 479.8 479 465.1 453 453.8 454.1 455.4 458.4 456.2 455 436.4 412.9 390.7 381.9 381.1 381.4 380.9 386.2 387.9 388.2 389.7 390.7 392.3 394.2 394.5 397 404 410.8 422.1 432.2 439.2 448.4 457.6 457 458.3 455.9 450.3 442.4 435.7 427.4 414.2 401.2 395.4 392 386.2 381 373.7 367.7 367.7 367.7 367.7 367.7 367.7 367.7 367.7 367.7 367.7 367.7 367.7 367.7 367.7 367.7 367.7 367.7 367.7 367.7 367.7 367.7 367.7 367.7 367.7 367.7 367.7 367.7 389.2 412 432.6 457.5 477.5 481 478.9 478.8 478.6 474.8 469.3 461.5 439.7 417 398.3 388.7 378.1 383.7 396.3 406 420.6 438 451.8 458.2 461.5 465.8 469.1 470.7 472.1 473.1 474 474.9 476.2 477.3 479.1 479.9 479.6 479.7 480.1 480.9 482.1 484.3 487.4 489.9 492.2 494.8 497.7 499.7 500.4 500.9 500.3 498.8 496 490.4 483.9 476.4 469.8 466.3 463.5 459.8 456.3 453.2 449.2 442.8 428.1 401.9 386.4
421.6 423.6 430.5 437.6 436.9 421.6 421.6 422.9 427 430.7 436 441.7 444 446.5 449.5 432 427.1 429.1 431.1 431.8 432.5 433.1 433.8 434.2 434.7 435 435 434.2 433.8 432.8 426.8 423.3 419.5 414.8 411.1 412.7 419.1 424.2 427.3 429.5 430.8 431.4 431 428.6 426.7 426.5 426 428.4 430 437.3 445.8 454.8 467.3 477 480.2 480.2 483.9 488.9 491.4 492.4 489.9 478.4 470.9 472 472 472.8 473.4 470 468 456.2 425.5 399.4 392.1 393.7 394.1 391.2 392.3 393.5 394.6 396.6 397.7 398.8 401.4 404.6 408.4 416.8 425.3 437.9 448.2 455.2 463.5 468 466.2 466 462.2 458.4 454.9 446.1 435 427.8 415.9 407.9 402.7 396.3 389.4 379.2 367.7 367.7 367.7 367.7 367.7 367.7 367.7 367.7 367.7 367.7 367.7 367.7 367.7 367.7 367.7 367.7 367.7 367.7 367.7 367.7 367.7 367.7 367.7 367.7 367.7 367.7 367.7 367.7 384.7 405.8 434.4 460.2 469.7 474.6 474.8 472.8 467.7 457.7 437.8 412.7 392.3 377.5 367.7 385.7 402.4 417.5 432.1 444.2 455 460.6 464.9 468.2 471.5 472.7 473.6 474.3 474.8 475.5 475.8 476.3 477.1 477.7 477.8 477.6 477.6 478.3 479.5 481 483.1 486.7 489.4 492.7 495.2 498.8 501.8 502.2 502.1 501.4 499.7 495.6 489.1 482.3 475.8 473.3 470.8 468.2 465.4 463.3 460.9 457.9 452.9 442.4 421.5 405.8
421.6 421.6 426.9 433.1 421.6 421.6 421.6 421.6 425.2 427.7 433.7 439.6 439.5 442.3 432.3 426.9 424.6 427.9 429.9 430.7 431.3 431.7 432.7 432.9 433.9 434.5 434.6 434.3 436 434.2 427.7 424.3 420.1 412.8 411.4 416.2 420.9 425.3 428.5 431.2 433 434 434.1 433 431.4 431.6 432.9 437.7 443.9 451 462.1 473.7 482.1 487.9 487.8 489.9 492.4 495.5 497.6 498.1 493.6 488.8 489.2 485 485.4 486.8 486.7 482.4 479.6 470.8 439.9 419 408.9 408.9 407.7 407 405.4 408.3 407.2 405 405.6 407.2 410.6 415.7 420.9 429.5 442.2 454 462.5 468.4 472.6 471.6 470.8 469.5 466.9 466 461.2 453 449.3 444.4 432.5 420.7 414 406.2 397.3 389.2 379.3 373.8 371 371.3 370 367.7 372.6 367.7 367.7 367.7 367.7 367.7 367.7 367.7 367.7 367.7 367.7 367.7 367.7 367.7 367.7 367.7 367.7 367.7 367.7 367.7 367.7 367.7 367.7 385 416.9 431.4 453.7 467.2 469.3 465.8 456.7 440.7 415 392.5 370.2 367.7 380.7 402.8 421.7 437.2 451.3 457.7 463.1 467.6 471.5 474.3 475.5 476.3 477.2 477.4 477 476.6 476.6 476.9 476.8 476.2 475.8 475.6 475.6 476.9 478.2 479.6 480.4 483.8 487.3 490.7 494.8 498.3 501.2 502.6 502.7 501.6 498.4 492.9 487.1 482.7 480.1 477.7 475.4 473.3 471.9 469.9 467.1 463.4 459.1 450.4 439.1 428.3
421.6 421.6 421.6 423.1 421.6 421.6 421.6 421.6 423.4 425.8 430.3 431.8 430 431.7 425.8 424.2 423.5 427.4 429 429.9 430.4 430.1 430.6 430.6 431.4 432 431.5 432.6 434.5 432.7 430 429.5 416.7 413.6 415.8 418.6 423.2 426.9 430 432.6 434.6 435.7 436.5 436.2 435.7 436.9 440.6 450.3 456.1 466.1 477.5 485.8 490.1 493.1 493.8 495.7 497.2 499.1 500.7 500.8 498.5 498.9 496.6 492.2 493.6 494.7 493.4 489.2 487.4 483.6 465.3 450 430.1 427.5 428.7 428.4 427.9 428.1 426.3 417.7 416.1 417.2 423.7 428.6 433.4 446 458.4 469.6 473.4 476.9 475.7 474.7 475.1 472.8 473 471.6 466.3 463.7 463.1 460.4 450.2 436.4 425.6 415.4 408.3 400.9 395.7 391.9 389.7 387.5 387.4 391.5 392.1 391 391.4 388.1 386.6 372.5 367.7 367.7 367.7 367.7 367.7 367.7 367.7 367.7 367.7 367.7 367.7 367.7 367.7 367.7 367.7 367.7 367.7 367.7 377.2 392.6 415.2 439.5 453.3 452.5 445.9 420.8 398.8 374.9 367.7 369.7 393.8 417.1 437.8 451.7 458.8 464.5 469.1 472.7 475.2 477 478.8 479.4 480 480 479.5 478.8 478 476.9 476.3 475 474.4 474.1 473.8 475.2 476.5 477.5 477.8 477.9 480.6 485.4 490 495.3 499.6 499.8 500.1 499 494.6 490.6 489 488.3 485.1 482.6 480 479.2 477.1 474.7 471.3 466.9 461.4 454.1 442.1 432.3
421.6 421.6 421.6 421.6 421.6 421.6 424 423.5 420.9 424 428.8 427.9 427.8 425.8 423.7 423.1 425.2 427.3 428.4 429 429.2 429.3 428.4 428.3 427.5 426.7 428.1 431.1 432.6 431.7 432.6 425.3 412.9 414.5 417.8 420.3 424.5 428 431.5 434.5 436.1 437.5 438.2 439.1 439.5 443.4 452 462.2 472.7 481.9 489.7 493.6 496.1 497.5 499.7 499.4 499.9 500.9 501.9 502.5 502.9 501.8 497.3 497.7 499.2 499 494.4 492.7 492.1 488.9 483.4 471.7 457.4 453.5 454.4 450.3 448.8 448.4 447.4 445.4 431.7 428.2 435.5 441.2 446.1 462.2 475.2 481.5 482.7 481.7 480.4 480.3 478.6 477.4 478.2 475.3 473.1 472.4 472.7 471.7 465.2 457.4 441.3 427.1 419.8 417 414.9 411.6 407.5 409.8 412.5 415.8 416.3 416.9 416.8 416.4 414.3 406.8 396.8 387.5 383.5 374.1 367.7 367.7 367.7 367.7 367.7 367.7 367.7 367.7 367.7 367.7 367.7 367.7 367.7 367.7 367.7 367.7 376.8 400.3 424.3 432.6 422.6 405.1 383.7 367.7 367.7 381.9 406.1 430.3 452.3 459.2 463.3 467.9 472.8 475.5 477.7 479.7 481.5 482.2 482.6 482.8 482.2 481.5 480.7 478.6 476.2 475.1 474.2 473.3 471.2 473.3 474.9 475.2 474.9 474.4 474.2 477.6 483.1 489.2 493 495 495.1 492 492.2 493.6 494.1 492.2 489.4 486 484.6 480.7 479.6 477.5 473.8 467.1 457.3 449.2 439.8 430.9
421.6 421.6 421.6 421.6 421.6 423.5 424.8 423.9 421.4 422.3 425.6 426.4 427.4 423.3 422.2 421.6 424.5 427 428 428.3 428.3 428.5 427.2 426.2 425.2 424 423.7 424.9 425.7 427.5 426 412.9 415.6 419.2 420.1 422.3 424.8 428.8 432.3 435.1 437 438.8 440.4 442.2 445.4 453.6 464 474.2 486.5 492.2 496.1 498.7 500.1 501.6 501.8 501.1 500.7 501.2 501.4 501.9 501.1 499.6 499.1 499.6 499.9 497.7 495.4 494.7 494.8 493.9 491 487.1 481.9 478.3 477.8 473.8 471.6 472.1 471 472.9 457.9 450.9 449 454.1 463.7 474.7 483.5 485.7 485.5 484 482.8 481.5 481.1 482.4 479.7 478.5 478.3 478.2 479.2 478.2 475 468.7 455.9 444.4 438.4 432.3 435.3 434.8 433.3 435.7 437.6 439.9 441.4 442.1 442.9 441 438.8 436.5 430.3 417.4 408.7 394.1 383.1 377.9 367.7 367.7 367.7 367.7 367.7 367.7 367.7 367.7 367.7 367.7 367.7 367.7 367.7 367.7 367.7 379.8 396.3 404 403.1 391.1 370.1 367.7 367.7 391.1 416.6 440.4 456.1 462.2 466.2 470.7 475 477.7 480.1 482.2 483.8 484.9 485.2 485.5 485.7 486 484.3 482.4 479.7 477 474.9 473.3 472.3 469.6 470.6 471.8 471.1 470.2 470.2 472.8 476.2 479.7 483.8 487.3 490.4 493.7 495.7 495.2 493.1 492.1 489.5 488.1 485 481.3 479.9 476.8 472.5 461.9 451.9 442.9 435 427.5
421.6 421.6 421.6 421.6 423.4 428.6 426.6 424.3 423.7 422.1 421.9 423.7 422.9 421.2 421 422.1 424.6 426.2 427.4 427.8 427.7 427.7 425.6 423.3 422.1 420.1 419 417 417.6 418.1 414.8 415.4 417.8 419.9 424.1 426.6 428 430.2 433.2 436 437.9 439.9 442.4 448 456.6 466 474.3 485.7 493.1 497.1 499.6 501.2 502.8 503.7 502.3 501.2 500.2 499.8 499.5 499 498.2 498.1 498 498.4 497.9 496.8 496.3 496.9 497.8 498.3 497.9 498.8 497.5 495.4 495.1 494.2 493.9 491.7 488.9 487.2 487.5 484 478.5 477.7 481.3 482.7 486 486.9 485.8 485.1 483.7 482.6 482.8 481.5 481.4 480.6 480.7 481.9 482.4 481.5 478.9 473.6 465.2 458.9 455.3 453.2 455 454.4 453.8 452.6 453.7 455.2 457.5 459.4 461.4 459 456.8 453.5 452 444.9 434.8 423 409.2 398.9 382 367.7 367.7 367.7 367.7 367.7 367.7 367.7 367.7 367.7 367.7 367.7 367.7 367.7 367.7 367.7 384.8 394.1 393.2 377.9 367.7 367.7 375.9 400.3 426.4 448.7 458.9 463.7 468.5 473 476.8 479.8 482.4 484.8 486.5 487.8 488.5 489.1 489.7 489.7 488.5 486.7 485.3 483.1 479.2 476.3 472.9 470.7 466.7 467 466.6 466 467.1 470.2 473.6 478.4 483.5 487.7 491.2 492.5 492.7 493.7 493.2 491 489.2 486.6 482.9 480.6 478.7 473.9 464.6 453.7 444.8 437.4 430 421.5
421.6 421.6 421.6 424.5 434.8 433.4 431.5 424.8 424 423.8 423 421.3 420.3 420.2 422 422 424.4 425.3 426.2 426.3 426.4 424.6 422.1 420.7 418.2 415.4 416.1 419 420.4 415.8 418.8 421.7 421.4 422.7 425.2 428.5 430.6 433.2 435.1 437.1 439.7 443 449.8 458.2 466.4 475.5 484.8 494 497.4 500.3 502 502.9 503.6 502.9 501.4 500.5 499.3 498.1 497.4 496.8 496.4 495.8 495.2 495.2 495.1 495.3 495.6 496.5 497.8 499.4 500.9 502.2 502.2 502.2 502.6 502.3 501.8 498.1 495.8 495.9 496.4 494.2 490.9 489.2 488.1 487 487.1 485.8 485.4 485.9 483.2 482.5 482.5 481.7 481.9 482.1 482.7 483.8 483.9 482.5 480.2 476.5 472.1 467.6 464.7 465.5 465.4 464.8 464.9 464.5 463.6 465.7 467.6 469.4 471.6 468.4 465.7 465.2 464.8 457.5 450.6 442.6 432.1 417.8 401.5 386.4 371.5 367.7 367.7 367.7 367.7 367.7 367.7 367.7 367.7 367.7 367.7 367.7 367.7 367.7 374.2 383.4 383.5 367.7 367.7 367.7 385.5 410.4 434.4 453.4 460.4 465.6 470.3 474.3 478.3 481.5 484.1 486.5 488.5 489.7 490.7 491.9 492.6 493.4 493.3 492 492.2 488.9 484.2 479.6 474.7 471.4 468.5 463.6 461.9 462.2 464 468 471.3 475.5 479.5 483.5 486.9 488.5 489.5 490.6 491.2 490.7 486.2 482 481.2 480.2 474.8 464.9 453.1 445.3 437.6 428.9 420.7 412.4
421.6 421.6 422.1 429.7 434.1 434.1 429.2 425.7 426.5 428 426.3 425.4 423 420.1 419.9 422.5 423.6 424.4 424.9 424.6 424.1 420.9 419 419 415.8 420 421.8 421.6 420.8 418.6 422.8 424.1 425.5 426.2 427.3 430.1 432.8 435.5 437.5 439.9 443.6 450.7 459.1 467.1 474.2 482.9 490.9 495.8 499.2 501.8 503.2 504.1 504.1 502.7 501 499.7 497.1 495.2 493.5 492.6 492.8 493 492.2 491.9 491.7 491.7 492.1 493.2 494.4 496.1 497.9 498.8 499.7 500.8 501.3 502.2 501.2 497.2 496.9 497.5 496.4 494 491.8 490.1 488.3 487.8 485.6 484.2 483.8 482.5 480.6 481.2 481.3 481.4 481.4 482.2 483.1 483.8 483.5 482.1 480 478.1 475.7 472.8 472.1 472 471.8 471.4 471.3 471.5 471.9 473.5 475.1 475.1 474.8 473.1 472.5 472 468.8 463.7 460.6 455.3 445.5 436.5 421.4 403.3 380.8 367.7 367.7 367.7 367.7 367.7 367.7 367.7 367.7 367.7 367.7 367.7 367.7 367.7 367.7 379 372.8 367.7 367.7 372.4 396.5 420.4 442.8 454.2 462.1 466.6 470.8 474.9 478.7 482 485.1 487.8 490.1 491.2 492.7 494.4 495.8 497.6 497.7 497 494.2 489.7 484.7 479 474.2 471.2 467.6 463.1 457.7 458.9 460.7 464.6 468.5 471.8 475.8 479.7 483.1 486 488.3 489.8 489.3 483.8 481.6 480.9 479.2 476.3 465.1 452.2 444 436.5 427.8 419.3 406.2 401.6
424.6 421.6 424.9 431.9 436 438 430.9 428.9 432.5 435.7 434.1 433.3 427.8 422.9 422.4 420 422 422.8 423.1 422.6 420.2 419 421.5 422 422.3 423.3 423.6 423.1 422.3 421 423 425.8 427.2 428.7 430.2 432.1 434.8 437.5 440.5 444 450.6 458.9 467.3 474.4 481.2 488.9 494.2 497.1 500.5 502.4 503.6 505 503.8 502 500.3 498.2 494.4 491.4 489.7 488.7 489.2 489.5 489.3 488.8 487.5 487.5 488.2 488.8 489.3 491.2 493.1 494.6 496.4 497.1 498.1 498.8 496.8 494.1 495.1 495.4 493 491.6 491.2 488.8 487.5 485.6 482.9 481.4 479.1 477.4 478.8 480.4 481.6 481.2 481.2 481.2 482.2 482.5 482 481.3 480.2 479.1 477.8 477.4 476.7 476.1 476.2 476 475.9 476.2 476.7 478.2 478.9 478.3 478.2 478.3 477.9 476.2 473.6 469.2 466.4 460.3 451.7 442.7 428.5 408.3 390.3 376.4 367.7 367.7 367.7 367.7 367.7 367.7 367.7 367.7 367.7 367.7 367.7 367.7 367.7 367.7 367.7 367.7 367.7 383.7 408.5 430.2 447 455.2 461.1 466.4 470.8 475 478.8 482.3 485.6 488.4 490.6 492.8 495.3 497.3 499.4 500.4 500.1 498.1 493.9 487.4 481.5 477.2 474.4 470.8 467.3 461.5 457.5 455.8 458.1 461.3 464.1 466.8 470 474 477.6 481 483.2 482.3 480.7 480.3 479.7 478 470.8 461 449.9 441.7 435.5 428.2 421.3 414 405 396.4
430.6 425.6 429 437.7 441.4 438.1 433.3 434.4 440.2 444.7 448.3 449.2 436.1 426.6 424.4 422.9 421.4 421.4 420.3 418.8 420.8 421.7 422.8 423.9 424.4 425 425.4 425.9 424.7 423.7 423.5 427.1 429.2 430.7 432.3 434.2 436.8 439.3 443 448.5 457.9 466.6 474 479.8 485.6 491.1 495.2 498.5 501.8 503.7 505.1 504.6 502.6 500.7 498.9 496.4 490.3 487.3 485.8 484.7 485.3 485.7 485.5 484.1 483.4 483 483 481.8 482.9 484.7 486.6 488.6 490.6 492.5 494 494 490 489.7 490.9 489.7 489 489.8 490 486.7 483.4 480.3 477.8 477.6 474.8 475.4 478.5 480.8 481.4 480.4 480.2 480.3 480.5 480.5 480.7 480.1 480.2 480 479.5 479.3 479.2 478.8 479.3 479.3 479.3 479.3 480.1 480.8 481.5 481.3 481.4 480.9 479.5 477.4 474.3 470.7 465.5 461.2 454.2 444.9 428.2 409.8 397.5 382.4 367.7 367.7 367.7 367.7 367.7 367.7 367.7 367.7 367.7 367.7 367.7 367.7 367.7 367.7 367.7 367.7 367.7 393.5 419.4 439 448 454.3 459.8 465.1 470.7 474.9 478.9 482.7 486.1 489 491.2 494.8 498 500.1 501.8 501.4 498.8 494.5 488.2 482.3 479.3 476.4 474 472.2 468.5 460.4 456.5 453.9 454.5 457 459.1 460 462.6 465.7 468.1 470.9 474 476.7 478.1 477.5 474.3 465.8 454.4 445.3 439.1 433.6 427.7 421.7 416.3 410.2 403.4 396.9
437.1 433.5 434.3 441.1 441.9 439 440 444.8 454 460.8 467.6 460 442.7 430 428 427.4 425.7 421.7 420 421.5 422.7 423.3 423.9 425 425.8 426.8 427.9 428.3 427.1 425.4 424.9 429.1 431.1 432.8 434.4 436.3 439.3 445 450.4 451.3 464.1 471.7 477.2 483.1 488.7 493.6 497.5 501.2 503.7 505.8 507.7 503.9 501.7 499.4 496.9 493.3 489.2 484.7 481 479.5 480.2 480.6 480.2 478.3 477.7 477.8 473.2 474.7 476.7 478.2 480.3 482.4 484.6 486.7 487.4 484.5 480.8 482.5 484 485 486.1 487.4 486.7 479.4 474.9 472.2 470.7 471.7 472.8 475.3 478.5 480.2 479.8 478.8 478.3 478.2 478.5 478.6 478.7 478.8 479.3 479.8 480.3 480.2 480.5 481.4 482.2 481.8 481.3 481.5 483 482.8 483.6 483.4 483.1 481.8 480.4 477.1 474.6 471.2 465.5 461 455.2 444.9 430.1 411.9 397.3 382.5 368.8 367.7 367.7 367.7 367.7 367.7 367.7 367.7 367.7 367.7 367.7 367.7 367.7 367.7 367.7 367.7 378.1 403.4 427.4 440.3 446.9 453.1 459.3 464.6 470.5 475.7 479.7 482.5 486.4 489.8 492.6 497.1 499.8 501.3 501.5 499.4 495.5 489.8 487.1 484.2 480.5 476.7 473.2 469.5 462.4 458.6 455.9 453.4 449.9 451.9 453.8 455.3 457.5 460.2 463.1 465.8 469.4 472.2 474.3 467.6 457.2 449 442.2 436.3 431.1 426.2 420.6 415.4 410.9 405.6 400 395.2
441.7 436.7 443.9 446.7 446 445.4 450.2 457.9 466.4 473.6 471.9 459.1 443.4 432.7 431.5 438.8 431.9 427.5 424 423.8 424.2 424.8 426 427.1 428.3 429.5 430.5 430.4 429.5 429.6 429.1 430.4 433 434.8 437.4 441.7 448.9 454.8 458.9 463.2 464.1 471.5 478.5 484.2 490.1 495.7 499.9 502.7 505.6 507.3 506.2 502.9 501.3 498.6 494.1 491.7 488.8 485 479.9 475 475.3 474.6 472.5 472.2 471.1 468.1 466.4 468.1 469.5 470.7 473.8 476.1 478.3 479.3 475.9 474.3 476.7 478.9 480.6 482 483.9 485.1 478.8 474.4 473.2 469.7 469.4 470.6 472.7 474.8 477.1 478 477.4 477.2 476.7 475.9 476.1 476.3 476.8 477.6 478.3 479.2 480.7 481.9 483 483.9 484.5 485.1 483.3 482.9 483.6 482.4 482.2 481.8 482 480.9 478 476.5 474.3 468.6 464.1 460.8 454.6 443.9 432.5 418.2 403.9 385.4 371 367.7 367.7 367.7 367.7 367.7 367.7 367.7 367.7 367.7 367.7 367.7 367.7 367.7 367.7 367.7 384.9 405.9 425.6 437.8 445.1 451.1 459.6 465.6 471.2 476.2 480 483.4 486.7 490.2 493.8 498.2 500.4 501.5 499.8 496.7 494.6 493.9 491.3 487.1 483 478.7 474.8 470.7 464.9 459.4 456 453.2 451.4 447.9 445.7 448 451.6 455.6 457.7 458.2 459 457.8 453.9 445.9 441.1 436.4 431.8 427 421.1 416.6 412.3 407.7 403.5 399.3 396.2 393.9
449.6 452.2 455.3 456.1 452.1 451.1 459.1 469.6 472.7 474.5 467.3 458.9 450.4 436.7 437.6 440.6 441.7 440.5 430.3 430.1 427.9 427.8 428.3 430 431.2 431.9 432.5 432.8 433.6 433.8 430.8 432 435.4 440.1 444.8 452.9 459.6 464.6 469.2 473.3 477.2 477.7 479.2 483.7 489.8 494 497.7 501.1 503.7 503.9 501.8 501.3 499.9 495.4 491.9 489.7 487.5 482.7 479 474.3 466.5 467.3 465.1 464.9 462.4 458.6 458.1 458.8 460.4 461.8 463.8 465.4 467.2 466.4 467.9 471.1 473.4 475.4 476.9 478.5 481 478 472.9 471.8 470.4 467.6 468.2 470.4 472.3 474 476.1 475.7 475.4 475.1 474.7 473.6 473.5 474.1 474.4 475.5 477 478.9 480.6 482.3 483.5 484.9 485.3 484.5 484 484.1 484.4 481.4 480.4 481.1 481.2 479.6 478.3 476.5 471.8 468.6 464.8 459.6 452.6 441.4 431.5 421.6 410.6 390.2 367.7 367.7 367.7 367.7 367.7 367.7 367.7 367.7 367.7 367.7 367.7 367.7 367.7 367.7 367.7 387.7 410.1 427.2 436.2 442.3 448.4 454.5 459.8 465.1 470.8 476 479.5 483.4 487.2 490.8 494.6 498.2 500 499.5 498.7 499.2 500 496.7 492.4 490 486.2 482.6 481.6 476.8 469.6 461.3 457.4 454.9 455 454.3 450.5 441.1 444.4 445.6 443.3 440.3 438 435.5 433.1 430.5 427.3 423 419.7 415.7 410 404.1 400.6 397.7 395.4 392.3 390.1 393
456.7 463.3 468.4 470.2 463.6 456.9 467.9 472.8 475.3 472.4 465.7 464 456.9 445.3 449 449.3 449.8 447.7 445.8 446.6 444.2 436.7 429.7 433.1 434.3 435.4 435.7 435.9 436.6 436.6 435 435 441.5 446.8 454.3 462.6 468 473.2 477.3 481 481.8 481.2 480 482.7 487.3 490.7 493.2 497 498.1 497.4 497.5 495.7 492.1 490.6 489 486.1 482.3 480.3 477.4 471 462.5 459.5 457.9 456.5 454.8 453.5 452.9 453.1 454.9 456.5 458 459.2 459.8 461.4 464 466 467.9 469.9 471.7 474.6 474.7 472.5 471 469.5 467.8 466.9 467.1 469.4 471.4 473.2 474.3 473.9 473.4 472.9 472.2 471.6 471.1 471.7 471.6 472.7 474.5 476.7 478.9 480.9 482.3 483.8 484.4 484.4 483.9 483.4 481.7 479.9 479.6 480 479.7 478.5 477.3 474.7 471 467.8 463.1 456.1 447 439 431.1 423.5 410.2 388.5 367.7 367.7 367.7 367.7 367.7 367.7 367.7 367.7 367.7 367.7 367.7 367.7 367.7 367.7 379.6 402.5 421.9 430.6 438.5 444.8 451.3 457 462.9 467.1 471.4 476.4 480.8 484.2 487.4 491.5 495 497.5 499.8 501.3 503.2 503.7 502.9 499.3 495.8 493.8 490.3 486.8 484.1 478.7 472 464.1 459.9 460.9 461.6 458.7 454.1 443.8 434.7 433.2 430.4 428.9 427.2 425 422.3 419.7 415.5 412.3 408.8 404.9 397.9 381.2 363.5 367.7 376.2 373.7 372.2 386.1
470.8 474.6 477.7 479.9 476.7 473.5 475.6 477.5 479.8 472.5 471.6 469.4 459.3 458.8 461.7 460.2 458.9 460.9 462.5 459.4 450.5 441.9 434.8 438.4 441.6 443.3 443 441.3 439.3 439.8 440.3 436.9 445.1 450.2 460.5 467.6 472.7 476.7 480.1 481.9 480.6 481.6 480.3 481.8 485.7 487 488.4 489.9 491.1 491.9 490.7 485 485.1 485.2 483.5 476.7 472.1 469.6 465.3 459.2 456.9 455.6 453.9 452.5 451.5 450.1 449.4 450 451.3 452.1 454.3 455.1 456.4 458.3 460.6 462.4 464.2 465.7 467.7 469.7 470.6 470.5 468.9 468.4 468.5 465.9 465.4 467.7 470.2 471.7 472.6 471.8 470.8 470 469.1 468.9 468.7 468.8 468.7 470.2 472.1 474.4 476.8 478.6 480.1 481.7 482.9 482.6 481.9 481.2 479.4 478.2 478.2 478.8 477.7 476.6 474.9 471.9 469 465.5 459.3 450.6 444 437.2 430.5 423.6 410.8 386.2 367.7 367.7 367.7 367.7 367.7 367.7 367.7 367.7 367.7 367.7 367.7 367.7 367.7 367.7 388.3 409.2 419.9 426.5 436.1 444.4 451.1 458.5 464.1 468.9 473.6 478.4 483.1 486.8 490.3 494.5 499.2 502.8 506 508.1 508.2 507.4 505.5 503.1 500.9 497.8 493.7 489.5 486.7 481.8 476.8 472.1 468.6 469.6 467.1 462.7 455.9 445.3 428.1 421.3 420.9 420.9 419.7 417.5 414.2 410.4 406.5 402.9 399.1 392.9 377.8 352.6 321 321.9 341.9 341.4 345 363.2
482.6 488 488.6 487.5 487.7 488.5 484.5 487.1 485.7 477.1 480.2 472.5 464.1 469.1 474.3 467.1 467.7 471.1 470.9 463.8 448.5 437.6 442.6 444.6 446.9 448 448.4 448.6 446.4 444.4 445.2 445.6 445.3 455.8 461.1 468.3 473 476.5 479.9 480.7 480.6 480.7 480.4 483 485.6 485.7 486.8 487.1 488 489.4 486.7 481.9 482.6 482.8 478.9 469.2 465.1 461.8 457.8 456.2 455 452.4 450.8 449.2 447.8 446.7 446 446.6 447.4 447.8 449.8 451.5 453.3 454.9 457.1 458.3 460 462.7 464.8 466.8 468.1 469.2 469.5 470.1 471.4 464.7 463.4 466.7 468.7 470.4 469.9 469.3 468.4 467.3 466.2 465.3 465.1 465.4 465.1 466.7 468.5 470.6 472.9 475 476.7 478.4 479 478.4 478.3 478.2 476.9 476.4 476.7 476.8 476 474.4 471.9 469 466.1 460.9 453.8 447 442.2 436.8 431.8 424.5 413.3 389.8 373.8 367.7 367.7 367.7 367.7 367.7 367.7 367.7 367.7 367.7 367.7 367.7 367.7 372.2 388.3 403 413.8 423.5 433.7 443.7 453.4 461 467.4 472.2 478.3 484.4 488.7 493.1 497.1 501.1 503.7 507.1 510.1 511.6 511.3 510.2 508 505.3 502.5 498.5 494.8 493.2 489.3 485.7 484 479.3 477 476.7 474.1 467.6 455.9 441.3 427 416.6 409.4 411.7 410.3 408 405.5 401.3 398.3 394.9 387.1 377.2 358.7 331.3 319.5 295.6 301.2 303.1 313.1 320.5
493.5 498.8 498.2 496.6 502.9 499.2 492 492.9 487.3 485 486.3 475.1 469.6 475.8 484.1 473.8 472.6 474 472 462.7 445.2 441.8 446.6 449.4 450.8 451.8 451.9 452.7 452.9 450.3 450.5 452.5 454.1 454 462.3 469.1 471.7 475.6 479 481.2 484.5 480.5 482.8 485.6 484.7 485.4 486.1 486.4 486.2 485.2 480.9 479 479 477.8 471.1 464.9 461.1 457.4 455.3 453.4 451.9 449.2 448.1 447.2 445.1 442.8 443.6 443.5 444.2 444.5 446.7 448.8 450.6 452.2 453.1 453.8 455.4 458.4 461.8 464.7 467.1 468.8 469.8 470.9 470.4 462.2 461.9 466 467.8 468.5 467.6 466.8 465.9 464.6 463 462.4 460.9 461.4 461.2 462.4 463.9 465.4 468.3 470 472.2 473 473.8 474.3 474.1 472.9 472.3 472.6 473.5 473.2 472.2 470.3 468.2 464.7 460.7 454.9 449 444.5 441.2 438.3 432.9 426.5 415.4 396.7 384.3 367.7 367.7 367.7 367.7 367.7 367.7 367.7 367.7 367.7 367.7 367.7 367.7 374.2 391.7 405.7 418.2 430.3 442.3 452.2 461.8 468.5 473.9 480.3 486.7 491.4 496.1 499.9 502.6 504.2 506.1 509.2 512.4 513.2 512.9 512.9 511.5 507.1 502.3 499.3 496.6 494.2 493.1 492.3 488.7 486.6 483 480.7 479.7 465.5 452 436.2 426.3 418.4 413.1 408.5 399.6 396.3 392.6 391.2 388.6 382.6 375.3 362 346.5 344.9 333.2 305.9 291.4 283.2 287.8 293.3
497.5 502.7 503.4 506.7 511.7 512 500.4 496.8 493.9 495.5 489.4 480.5 477.7 486.5 493 484.8 477.3 475.4 471.8 459 444.2 448 447.9 452.4 453.8 454.7 455.6 455.9 456.6 456.5 456.7 457.4 459.9 462 462.9 463.7 466.7 471.3 476.5 480.5 480 481.1 488.5 484.4 484.5 486 485.9 485.8 485.1 481.9 479.5 477.1 474.5 471 467.6 461.8 459 456.5 456.8 457.5 454.1 449.8 447.9 446.8 446.8 443.3 441.8 441.3 441.7 441.1 441.8 445 447.5 448.6 449.2 449.4 450 453.1 456.6 459.7 463.3 466.9 468.3 469.6 466.2 462.7 462.3 465.4 467 466.6 465.9 464.9 463.2 461.2 459.4 458.8 456.5 455.7 455.9 456.7 458.6 459.9 462.4 464.7 467 467.4 468 469.3 469.2 468.4 468 467 466.8 466.8 466.6 465.5 462.6 459.3 454.6 449.4 444 442 439.9 435.4 431.8 427.3 417.9 403.4 392.6 381.4 370.1 367.7 367.7 367.7 367.7 367.7 367.7 367.7 367.7 367.7 367.7 374.7 395.9 413.3 427.4 440.3 451.3 461.9 470 476.4 482.7 489.3 495.3 499.8 501.6 503.3 505.6 507.2 509.5 512.7 513.6 514.3 514.8 513.9 509.3 504.8 501.1 498.5 495.6 495.6 498 496.8 495.5 492.7 489 483.7 471.6 459.4 447.9 437.7 428.3 421.5 415.5 409.9 403.4 398.7 392.5 388.4 383 373.2 365.6 357.5 362.1 363.4 354.6 323.9 302.3 296.5 287.9 275.3
506 511.8 511.3 517.6 520.5 517.2 504.6 499.8 500.1 496.3 490.5 485.6 486.8 494.2 495.1 488.8 480 476.9 469.9 453.4 448.4 452.3 451.2 454.9 456.7 458 459.5 459.1 460.4 462 463.9 465.3 465.4 466.5 468.8 468.5 467.6 468.4 472.4 476.6 478.6 484 484.6 484.4 485.6 486.4 486.9 486.4 485.7 483.5 480.6 478.3 475.5 471.8 466.6 464.5 463.6 463.9 466.3 467.8 464.3 462.7 466.7 460.8 458.2 448.3 442 439.8 440 437.7 434.4 438.6 440.4 442 442.3 444 444.9 446.6 449.7 454.3 458.8 461.8 465.3 466.5 463.9 462.3 463.1 464.3 464.7 464.6 464 462.3 459.9 457.9 455.9 455 452.5 450.4 450.2 450.6 452.2 454.1 456.2 458.9 460.8 460.7 461.5 462 462 462.1 462.2 461.6 461.5 462 461.6 459.9 457 453.2 448.9 444.4 442.1 440 435.8 433.4 431.2 427.2 415.1 406.5 399.6 390.4 378.3 367.7 367.7 367.7 367.7 367.7 367.7 367.7 367.7 367.7 367.7 375.1 397.9 418.7 433.8 447.4 459.4 469.9 477.4 484.3 490.6 496.4 500.9 504.5 507.7 509.3 509.7 512.5 514.8 517 515 513 512.8 510.1 506.3 502.4 497.7 494.3 494.9 497.1 500.6 501.5 500.5 496.5 492.5 475.4 461.3 453.1 445.2 436.9 429 422 415.1 407.7 403.5 399.6 396.1 393.2 387.1 377.8 370.6 374 378 377.1 370.4 343 310.1 304.9 305.5 292.6
512.7 515.2 519.4 524.2 520.5 513.4 505.2 503.1 501.2 495.7 491.3 488.8 490.5 493.5 488.6 483.4 478.8 474.6 464.9 450.7 453 454.9 455.4 455.9 459.7 461.4 463.5 463.7 465.6 469.1 469.9 472.6 473.5 477.2 479.2 474.5 472.7 473.1 471.5 474 477 479.9 482.1 484.7 487.1 487.9 488.4 487.9 487.2 485.8 484.1 481.8 479.5 475.9 471.2 471.3 472.1 473.9 476.7 478.9 480.1 481.7 483.1 477.3 474.7 464.7 458.4 450.6 442.3 443.1 441.3 439.1 437.9 432.9 430.6 436.6 438.5 439.1 442.5 447.1 452.6 455.6 460.3 461.2 460.6 453.7 460.2 460.8 459.9 460.8 461 458.7 455.8 453.3 452.2 450.8 448.3 445 444.8 446.5 447.4 448.2 450.4 453.7 454.4 454.6 453.9 455.5 454.8 455.3 455.7 455.5 455.2 455.1 454.3 452.3 449.3 447 443.8 441.9 439.3 435.7 434 432.6 428.4 420.7 415.3 412.2 404.8 395.8 384.9 371 367.7 367.7 367.7 367.7 367.7 367.7 367.7 367.7 367.7 375.7 403.3 423.1 439 452.9 464.8 474.9 482.7 489.2 496.4 500.7 505 508.7 511.9 514.3 515.4 517.3 517.6 516.9 513.9 509.2 506.2 503.8 500.1 495.2 492.1 492.2 494.2 498.7 502.7 503.5 502.1 488.5 473.5 461 455.1 449.1 441.4 433.7 426.5 420.8 414 409.2 404.7 400.2 396.2 395.9 386.2 375.8 384.3 391.1 392.4 389.5 381.9 363.6 331.7 318.4 325.2 314.3
511.5 514.3 521 521.9 514.5 509.8 506.5 504.4 501.6 495.5 494.4 496.9 500.7 493.2 483.9 481.5 477.4 470.6 458.9 453.4 456.2 457.1 458 459.3 462.8 466.4 468.6 469.9 470.8 472.7 473.9 475.1 477.7 480.5 478.9 476.9 476.3 476.1 479.2 478.8 482.5 482.5 484.8 487.7 488.8 489.4 489.7 489.8 489 487.9 486.7 485.2 483 481.2 479.5 479.1 481.9 483.2 485.4 489.5 490.8 493.3 490.2 487.2 484.4 479.7 475.5 471.8 465.2 458 449.8 450.1 448.7 440.3 430 425.1 426.3 429 434.4 438 442.7 447.7 451.7 454.5 454.9 443.7 455 454.2 452.9 452.7 452.1 450.3 449 446.3 446.1 445.7 442.7 440.3 437.5 437.7 438.4 440.2 441.9 441.9 443.5 446.6 448.7 448.4 446 445 446.8 447.8 448.6 447.9 446.2 443.6 442.5 441.3 440.3 438.2 435.4 433.6 431.9 430.7 423.9 417.8 415.6 412.4 407.8 398.9 389.9 378.1 369.6 367.7 367.7 367.7 367.7 367.7 367.7 367.7 367.7 379.3 404.9 424.3 442.6 457.7 468.6 478.9 488.2 495.5 501.9 505.8 507.8 510 513.2 514.8 514.8 514.1 512.3 511.7 509.3 506.5 503.2 500.3 495.1 489.8 487 487.6 492.1 494.5 492 487.5 476.6 463.4 457.6 451.3 446.1 440.6 434 428.5 424.3 418.3 412.3 407.7 402.5 397.3 393.6 388 387.1 385.7 400 404.5 403.7 400.5 397.1 384.7 358.1 348.3 350.8 344.4
506.7 509.8 514.8 512.7 511.7 510.5 506.7 504.8 498.2 495.9 498.8 501.9 496 488 481.8 478.6 473.6 465.2 457.4 455.5 457.1 458.5 459.2 461.2 465.3 468.4 470.6 472.1 473.3 474.7 476.1 477.3 480.1 482.4 481.8 481 480.5 482.8 484.3 483.9 485.7 486.7 489 490.9 492.1 491.8 491.8 491.7 491 490.1 489 487.6 487.1 486.4 484.9 487.9 490 492.6 495.3 496.9 497.6 497.1 495 492.6 488.2 485.7 484.8 481.9 478 471.4 463.2 461.8 458 446.4 439.1 437.3 433.9 423.6 420.7 423.1 427.5 435.4 440.6 444.7 445.2 439.6 447.9 446.7 445.4 446.8 445 442.3 441.4 440.7 440.3 439.7 437.6 435.2 431.2 427.6 427.7 427 428.1 432 432.2 435.6 433.2 433.9 430.6 431.7 434.4 436.4 436.3 436.9 437 436.5 436.5 436.8 435.6 433.8 432.3 430.5 428 423.4 419.9 416.9 414.4 411.9 407.6 401.1 393.8 383.4 374.4 367.7 367.7 367.7 367.7 367.7 367.7 367.7 367.7 377.4 401.5 422.2 443.9 460.3 473 484 492.3 499.6 504.8 508.4 509.6 509.4 510.4 510.9 510.7 509.5 508.8 509 508.2 506.6 501.5 496.6 489.3 479.5 474.7 475.3 477.3 472.1 464.6 457.1 451.4 447.8 443 439.2 436.6 432 427.4 422.1 416.5 412 406.8 402.7 400 404.9 405.3 402.5 402.2 399.9 410.5 414.1 414.8 411.9 408.9 403.9 390.5 383.5 383.2 377.9
506.4 509 513.3 511.4 511.7 506.8 507.2 502 497 498 500.1 499.9 493.5 481.7 478.7 473.7 468.7 460.1 458.1 457.1 457.4 459.3 461.9 464.3 467.3 469.7 471.9 473.4 474.8 476.1 477.8 479.7 482 484.3 484.7 485 485.4 487.2 486.8 488 489 491.3 492.8 494.1 494.5 494.6 494.4 494 493.2 492.8 492.9 494.2 494.8 490.6 492.2 494.9 498.1 499.8 500.6 501.8 500.1 497.9 496.2 494.3 490.5 489.6 488.4 486.3 481.3 473.6 468 465.7 462.7 450.7 450.5 449.5 441.1 435.2 430.8 420 410.6 420.5 427.7 433 433.6 439.5 440.9 440.5 440 438.3 437.5 437.7 436.1 436.5 434 432.6 432.4 429.3 425.8 422.1 412 413.2 416.3 416.1 411.7 411.5 413.2 409.4 412.5 416.3 417.4 419.8 422.3 424.6 426.8 428 428.6 427.9 426.7 425.5 425.1 422.1 418.9 417 415.1 413.6 411.8 409 406.3 401.7 394.7 388.4 381.7 373.4 367.7 367.7 367.7 367.7 367.7 367.7 367.7 378.3 397.8 418 438.8 459 472.3 481.9 490.9 498.2 503 503.5 504.2 507.4 509.1 509.5 509.9 509.5 508.9 508.5 507.2 503.8 495.7 487.1 471.3 458.1 452.5 453.5 449.2 444.5 441.4 438.3 435.7 432.1 429.6 427.7 425.4 422.5 418.4 413.7 410.2 408.8 408.2 408.5 410.8 413.1 413.1 413.2 414.2 413.7 415.8 419.3 422.1 422.6 422 419.6 415.8 413.6 411.9 409.4
509.7 515.2 509.6 506.4 503 502 502 499.9 498.9 499.6 500.4 500.1 488.3 477.9 473.5 469.3 463.3 460.1 459.4 459.5 459.3 460.5 463.9 466.9 469 471.3 473.2 474.7 476.2 477.6 479.7 481.5 483.8 485.9 486.7 487.1 488.4 490.2 491.8 493.4 494.7 496.8 497.1 497.6 497.1 497.6 497.6 496.3 496.2 498.1 499.7 500.7 498.1 497.3 498.5 501.1 502.3 502.5 503.5 503 499.8 498.1 496.6 494.2 490.3 488.7 486.9 484.5 478.3 475.3 469.6 465.8 460.7 454.9 457.9 452.3 444.7 443 442.3 430.1 418.4 405.3 413.8 419.4 416.9 431.2 434.8 435.1 434.4 434.6 434.8 432.2 431.4 428.9 426.8 425.9 426.5 424.3 421.6 416 412.5 393 397.9 394.4 389.2 385.5 384.6 387.1 389.6 394 396.6 402.3 408.2 412.9 416.2 414.7 412.2 411.3 410.1 409.1 409.3 409.5 409.1 408.3 409.2 408.1 407.2 405.8 403.8 400.7 399 398.1 395.3 391 370 367.7 367.7 368.8 368.1 351.2 355.7 374 393.9 415.2 436.8 453.7 466.6 478.3 486.4 493.2 497.8 500 502.4 505 507.3 508.9 508.9 508.2 507.6 505.6 504.5 498.9 485.9 467.7 447.8 436.6 426.7 430 428.9 426.4 425.3 424 422.5 421 419.2 417.6 416.9 416 414.7 414.1 414.9 415.7 416.6 418.2 418.8 419.8 420.4 421.1 422.4 421.6 416.5 423.9 426.8 429.5 430.7 430.1 430.7 431 430.2 429
506.2 504.8 500.2 495.8 497.6 496.3 499.4 498.7 499.2 496.6 494.4 493 479 475.6 469.8 465.7 460.4 460.1 460.5 461.4 462.4 464.1 466.3 468.5 470.5 472.6 474.9 476.3 477.9 480.1 482.4 484.8 486.3 488.1 489.3 491.7 493.7 496.5 498.8 499.5 501.1 501.7 501.9 501.5 501.8 502.4 501.8 503.9 506.3 506.8 507.2 505.5 501.7 501.6 502.1 503.2 503.6 503.9 504.1 500.9 498.3 496.6 492.5 489.3 486.6 484.6 482.7 481.2 479.2 475.7 470 469 464.1 463.6 463.7 453.3 448.3 449.9 442.2 437.5 432.9 420.2 406.7 403.1 410.4 422.8 429.3 428.1 429.7 429.8 428.3 423.8 423.4 421.1 420.9 419.7 419.8 418.8 414.5 411.5 404.3 388.6 379.8 373.2 366 363.4 363 364.4 367.8 373.6 377.4 385.3 390.6 394.3 393.9 388.6 384.3 384.2 386.8 390.1 393.9 395.1 395.7 397.9 400.5 402.5 403.3 403.5 404 405.5 407.7 407.1 405.4 395.3 377.5 373.6 337.2 315 319.5 332.8 351 370 389.4 412.1 435.4 455.4 469.3 477.9 485.5 491.5 496.3 498.6 500.6 502.5 504.9 507.5 508 506.8 504.9 501.2 496.3 485.4 468.9 449.8 431.7 419.7 407.1 412.9 412.1 410.4 409.1 409.5 409.4 409.2 410.9 413.1 415.9 417.7 419.9 423.6 425 424.8 425.8 427.4 426.1 425.9 426.1 426.8 427.4 425.8 420.5 424.7 429.2 432.2 434.6 435.2 436.6 437.1 436.7 435.4
501.5 499.1 489.3 490.3 489.7 490.5 494 492.7 495.9 489.6 484.1 479.8 474.8 471 465.2 459.5 459.2 460.2 461.1 462.2 464 465.8 467.8 470 472.4 474.6 477.7 480.3 483.4 485.6 487.6 488.7 489.8 491 493.4 496.1 499 501.8 504.7 507.1 508.6 509.5 510.8 508.9 510 509.6 511.7 513.6 513.9 512.9 511.2 506.9 503.3 503 502.2 501.9 502.2 502.3 501 497.2 495.4 493.1 489.5 485.6 482.5 479.7 478.8 477.8 475.7 468.1 466 465.9 466.3 467.9 462.2 454.4 450.9 449.5 445.4 444.1 438.6 430.4 416.8 402.6 400.7 412.2 417.4 419.8 419.7 419.8 418.7 417.3 416.5 413.1 413.8 412 411.1 405.6 403.1 397.1 389 380.3 368.3 362.7 366.2 365.3 361.9 356.8 353.7 357.2 360.8 366.8 369.5 366.6 364.3 363.2 363.2 364.3 367 369.8 372.9 376.4 379.8 383.2 387.3 392.7 397.8 401.7 406 409.6 412 413.2 412.7 407 387.4 357.7 334.4 320.7 314.5 325.9 342.3 362.5 382.5 406.3 434.8 455.9 468.8 478.6 484.1 490 492.9 497.3 499.6 501.9 502.7 505.2 506.3 503.6 498.7 487.8 478.1 466.9 451.1 435.6 419.6 406.5 397.2 396.6 396.6 396.1 396.6 397.2 399.3 404.7 410.7 415.8 421.7 426.7 430 430.3 432 434.7 434.8 432.8 430.7 430.1 429.4 430 430.6 430.1 428 426.3 431 433.4 435.5 437.3 438.7 438.8 438.5 436.7
495.3 489.1 482.1 482.6 483.1 484.3 487 489.2 488.2 482.5 477.5 468.5 470.5 465.5 459.2 457.4 458.5 460.6 461.9 463.5 465.5 468 470.6 474.4 477.7 481.2 483.9 486.2 489.4 492.4 494.6 495.5 493.9 494.7 497.1 500.1 503.1 506 508.7 511.2 513.9 516.2 516.4 514.3 513.7 514.3 516.3 517.5 516.7 514.4 511.6 504.5 502.1 501.4 499.8 499.7 499.6 499.4 496.5 493.8 491.8 488.7 485.7 481.6 477.5 475.5 473.5 472.2 467 463.3 464.4 465.9 467.5 462.5 456.4 454.9 453.1 451.7 447.1 449.4 443 433.6 422 410 398.6 397.6 404.7 406.7 408.3 408.7 409.2 406.7 404.4 402.9 402 398.6 395.3 390.1 383.7 377.6 372.1 363.5 368.8 376.4 380 374.8 367 365.6 364.6 359.1 353.8 350.2 351.2 350.5 350.3 350.2 350.4 351.4 352.5 354.1 357.1 360.1 363.5 366.9 371.1 376.7 385.7 396.1 404.1 410.5 415.1 417.1 413.7 402.3 395.6 361.1 335.8 322.1 311.6 321.7 336.9 352.2 370.3 395.9 423 447.2 468.8 477.3 483 487 488.1 492.4 495.5 497.1 498.7 503 501.2 494.6 483.2 469.3 457.6 446.9 434.9 423.3 410.4 393.4 386.7 382.6 382.6 384.4 388.1 393.2 401.3 409.2 416.5 423.3 429.2 434.2 436.3 438.5 442.5 443.4 440.2 436.9 434.4 432.7 431.9 432.2 432.3 431.8 430.5 428 430.5 433.6 435.5 437.5 438.1 438.5 438.7 436
490.8 482.6 474.7 471.2 473 476.5 478.3 481.7 480.7 479 469.1 460 460.4 456.7 455.6 456.5 458 460.7 463 465 468.3 472.1 476.7 481.6 485.8 489.3 492.4 492.2 496.2 499.4 501.1 500.4 498.7 498.5 501 503.6 506.1 509.1 511.6 514.4 516.7 517.4 516.6 515.9 514 514.2 516.2 516.9 515.3 513 505.6 499.1 498.9 496.8 494.8 494.5 493.9 493.3 490.5 488.2 485.7 483.7 480.6 475.6 472 470 467 464 459.7 459.9 461.4 463.3 464.2 453.8 451.6 454.6 454.4 452.7 448.7 448.2 441 431.8 424.6 414.4 408.9 398.3 391.6 394 394.8 395 393.9 390.2 389.6 386.6 382.3 378.6 375 368.5 368.1 371.4 375.9 377.6 384.4 388.1 382.5 372.7 369.1 372.9 373.4 371.2 364.8 360.4 357 349.5 349.3 348.5 347.9 347.1 346.4 346.1 345.4 346.9 348.8 352 357.2 364.5 372.8 382.9 391.4 400.2 406.9 406 402.8 401.1 379.8 353.5 333.8 321.3 313.8 318.5 323.4 334.1 349.1 363.6 386.4 414 440.3 458.6 472.7 476.4 477.6 483 488.4 492.4 490.2 488.6 482.4 472.4 462.4 454 444.7 433.7 423.2 412.2 399 383.4 377.8 371.5 374.3 379.6 389.4 398.9 408.3 416.6 423.9 431.3 436.8 440.4 441.7 444.1 446.2 445.4 442.6 439.5 436.4 434.2 433.4 433.2 432.9 432.7 431.7 429.9 429.7 432.7 435.2 437 437.5 437.7 436.9 436
486.2 471.3 464.7 461.7 462.7 464.7 467.4 469.2 469.3 466.4 456.4 453.3 453.1 453.2 454 455.7 458.9 463 465.5 470 473.6 477.1 482.1 487.5 493.4 498.2 499.5 497.4 500.4 503.3 504 502.6 501.3 501 502.2 503.2 506 508.7 511 513.4 515.3 515.6 515.8 515.1 513.1 512.9 513.8 513.8 510 505.7 495.9 495.4 494.4 489.1 487.7 487.8 487 485.9 484.4 481.6 476.7 474.7 471.9 469.7 467.7 464.4 456.8 453.4 452.6 453.8 454.4 454.9 452 447.8 451.2 454 452.4 447.6 445 442.5 435.7 431.3 421.2 414.2 407.9 398.6 390.5 388.1 392.2 390.7 390.1 388.7 386.5 388.5 386.8 386.1 382.8 383.6 384.8 387.3 392.1 387.4 387.3 383.6 373.7 369.6 374.5 377.6 379.4 377.5 373.3 368 363.7 358.5 353.6 349 347.1 346.9 346.5 345.1 344.7 342.7 343.2 342.9 346.9 352.1 358.1 361.5 366.7 374.8 385 391 386.3 370.4 352.1 336.6 326.4 318.8 314.6 313.6 316.7 317.3 324.3 338.4 356.5 373.6 393.3 411.8 431.6 444.9 454.4 459.9 463.1 463.2 460.3 457.8 454.2 449.8 445 438 429.9 422.1 412.9 401.3 386.7 374.5 368.6 363.1 369.7 379.7 392.1 404.7 415.5 424.1 432.4 439.5 444.9 447.8 448.5 446.5 446.6 446.1 442.2 438.6 435.7 434.1 433.5 433.3 433 432.2 431 429.6 430 433 435.2 436.4 436.9 437.1 436.8 436.3
472.9 461.5 459.5 458.4 457.7 457.7 458.2 458.8 459.3 453 449.2 450.2 451.5 452 453.6 457 462.7 467 470 475.9 479.3 483.1 488.3 494.2 499.3 503 502.7 501.2 504.5 507.6 507.2 505.2 502.5 502.1 502.5 505.2 508.3 510.3 510.5 510.9 512.7 514.2 515.1 513.7 511.9 511.2 510.2 508.2 504.9 497.1 491.9 490.4 486.6 482.8 480.1 479.5 477.4 477.2 476.2 467.2 465 464.7 463.6 462.6 460.8 454.1 446.6 445 447.2 447.9 448.5 446.3 440 443.1 448.5 447.8 448.5 443.2 440.3 437.9 430.3 424.4 416.4 407.9 399.9 391.9 393.5 398.1 402.3 402.2 400 396.8 400.8 401.1 399.9 400 398.2 399.1 400.1 399.8 398.8 393.1 382.6 373.1 372.2 376.1 380.2 382.4 383.3 382.1 379.1 374 368.2 364.4 359.7 355.9 353.3 350.9 350.2 349 347.5 346.7 345.3 344 341.5 339.1 340.2 342 348.7 355.8 361.7 363.5 355.6 343.2 332 326.5 320.8 317.3 315.1 310.4 310.4 314.6 316 316.8 333.9 351.9 366.9 382.8 396.6 411.1 423.5 431.4 435.3 437.4 438.5 438.2 436.5 432.7 428.7 424.1 419.1 411.7 401.9 391.4 378.7 367.4 360 356.1 367.3 381.2 397.1 410.6 421.7 432.4 441.9 449.9 452.2 451.9 450.6 449.1 446.2 444.6 440.7 435.8 434.3 433.7 433.3 432.8 432.2 431.7 430.7 430.6 431.4 433.2 435.4 436.1 436.5 436.7 436.6 435.7
461.5 458.4 456.9 455.4 454.7 454.7 454.2 454.4 452.7 447.8 448.3 449.1 449.9 451 454.1 458.4 463.8 468.2 473.8 480.8 483.8 488.4 493.3 499 503.7 506.6 505.2 505.5 507.8 509.5 508.2 507.1 503.5 502 503.8 507 511.1 512.9 510.3 510.9 512.5 513.2 514 514.5 510.3 508.3 506.5 502.5 498.3 494 489.5 485.7 482.1 477.9 474 470.8 467.7 465.9 462.7 460.9 458.8 457.2 456.2 455.3 451.6 443.7 438.3 438.9 440.3 441.1 440.2 434.2 431.5 437.5 440.4 440.8 440.3 438.1 437.1 431.3 425.1 419.3 405.8 397.5 395.1 402.3 406 411.4 418.4 415.7 409.3 409.4 413.2 414.4 412.3 412.7 413.9 411.9 409.4 402.9 393.3 379.5 374.6 380 384.8 385.7 388.5 389 388.5 387.8 385.6 381.2 375.8 374.3 370.3 367.8 367.1 366.4 366.2 365.4 364.5 363.1 361.5 359.6 352.3 348.9 350.5 347 340.8 336.4 340.8 336.6 334.7 329.4 323.2 318.5 319.7 316.4 315.8 316.3 315.5 311.5 309.8 312.3 316 331.9 347.5 359.3 370.9 386.4 402.1 411.2 416.6 420.2 423 423.9 422.5 421 418.4 415.5 409.7 400.4 392.8 382.2 369 357.6 350.9 353.3 365.2 384.1 402.4 416.2 428.6 438.6 446.9 452.5 452.9 451.5 448.5 445.6 443.3 441.1 438.2 435.1 434.3 433.1 432.9 432.5 432.4 432.1 431.2 431.7 432.7 433.6 435.2 435.7 436.2 436.3 436.3 435.8
456.1 455.6 454.2 452.7 451.9 451.7 450.9 451.1 448.9 446.8 447.1 448.1 449.4 451.2 454 457.6 462.7 468 476.6 482.9 487.2 491.9 496.8 502.1 505.2 508 508.3 506.3 506 506.4 505.1 503.8 501.7 500.6 503.5 506.1 509.6 510.6 510 512.9 513.5 514.9 517.3 513.9 507.7 505.4 502.5 499.5 496.3 493.3 489.7 485.3 480.6 476.5 471.2 466.7 463.9 461.8 459.6 457.6 454.5 451.7 450.2 447.9 441.9 435.8 433.7 431.9 430.9 430.5 427.3 423.7 425.3 430.8 430.7 433.3 435.1 431 425.5 422.3 414.9 403.7 396 399.7 408.4 411.1 417.2 425.7 427.7 424.4 418.1 418.1 423.8 424.8 422.7 421 418.9 417.9 408.2 393.8 377.7 382.9 394.4 397.9 400.3 398.9 398.7 401.7 403.9 401.3 396.5 391.7 389.8 387.3 384.3 383.4 383.8 384.2 384 383 381.5 379.2 376.3 374.4 367.5 367.2 370.1 365.1 360.7 351.5 342.8 341.5 338.2 333.1 327.6 329.5 329.6 326.1 326.1 326.6 323.2 319 316.5 310 310.3 316.4 328.6 339.7 348.7 360.2 374.5 388.8 398.3 403.4 407.1 407.9 409.1 410.4 408.1 406.1 396.3 384.4 376.7 367.4 354.1 345.1 340.6 349.6 364.6 385.8 405.3 421.1 435.3 442.8 450 453.2 453.1 450.4 447.9 444 440.7 438.2 435.9 435 434.3 433.3 432.8 432.7 432.6 432.5 432.1 432.9 433.8 434.7 435.1 435.6 435.2 435.2 435.4 435.4
454.4 453.2 451.7 450.4 449.4 449.4 448.4 447.8 447.3 445.8 446.3 447.9 449.4 450.9 453.2 457 462.3 469.1 478.7 484.6 490 494.7 499.5 503.1 506.1 508.3 508.6 504.8 503.7 503.6 501.9 500.3 499.3 498.6 502.5 504.9 505.9 507 510.6 512.2 511.2 512.4 511.4 506.7 505.3 503.4 501 498.6 495.7 492.8 489.5 485.3 480.4 475 469.9 464.2 461.2 459.7 457.9 455.7 452.8 448.5 444.7 440.9 436.7 431.9 430.7 428.2 425.9 425.5 418.3 419.1 419 420.4 423 425.5 426 420.3 413.3 408.7 400.8 396.2 405.1 413.1 417.6 423.5 429.8 436.7 436.8 431.9 427 429.3 431.6 430.5 429.2 425.6 419.8 407.9 392.2 380.8 388.2 402.9 406.5 408.7 410 411.2 414 421.7 422.1 418.6 413 408.1 406.2 402.2 402.8 401.6 401.8 401.4 400.9 400.4 399.1 395.5 391.3 389.8 388.5 388.7 391.6 386 384.8 378.9 368.3 361.6 356.1 337.9 342.2 347.8 344.7 338.2 337 337.4 334.7 328.7 321 313.8 308.6 311.7 315.9 324.9 332.9 340.4 351.1 364.1 376.3 383.2 387.1 389.7 393 395.6 390.8 383.8 374 364.4 353 344.3 336.1 335.2 337.3 347.9 361.3 385 407.1 422.2 436 444.4 450.9 452.7 454 453 448.2 444.5 441.4 438.3 436 435.2 434.6 433.9 433.4 433.3 433.2 433.1 433 433.5 434.4 434.9 435 435.2 434.8 433.8 433.7 433.2
454.1 452.1 450.4 449.2 447.5 447 446 445.8 445.2 444.5 445.9 447.2 448.5 450.1 453.2 457.2 461.6 468.4 479 486.5 492.1 496.9 500.9 504 507.3 508.8 505.9 501.4 500.8 500.2 498.4 497.3 496.6 497.6 500.6 502.9 504.6 506.8 510.3 511.1 508.5 507.9 506.3 505.2 504.2 502.7 500.3 498.3 495.8 492.8 489.2 483.7 478.7 473.9 469 464.7 460 457.2 455.9 454.2 451.9 448.2 442.5 438.7 434.5 429.7 428.6 430.4 433.7 429.6 420 416.3 417.6 414.2 411.6 412.5 410.8 406.4 403.6 399.8 405.7 410.5 418 422.2 428.5 436.5 442.6 444.3 442.5 440.3 436.3 438.6 435.7 434.7 431.3 422.5 411.5 392.9 386.9 395.9 405.1 411 414.5 416.4 420 424.3 431.8 439.8 442.3 436.3 430 423.4 420.1 421.3 421.3 421.7 422.7 424 423.3 421.8 419 415.1 408.4 404.8 405.9 408.3 408.4 408.2 409.8 411.6 391.9 383.3 364.8 342.4 362.1 366.5 361.4 354.7 346.9 344.4 340.9 334.7 324.8 317.4 313 308.9 311.1 315.2 320.7 328.4 334.7 344.7 355.4 360 363.5 363.5 364.9 369.4 363.9 358.3 351.3 343.4 335.7 330.9 327.5 327 337.3 347.6 362 385.3 406.8 422.3 436.2 445.7 451.5 453.6 453.8 454.1 450.8 447.1 442.5 440.2 439.2 437.4 435.2 434.7 434.3 434.2 433.9 433.6 433.9 434.5 434.7 434.4 434.6 434.7 434.3 433.4 432.5 431.8
454.2 451.6 449.8 448.2 446.3 444.8 444.1 444 443.8 443.4 445.2 446.8 448.1 449.6 452.9 456.7 460.7 467.3 478 487.6 493.3 497.7 501.1 503.2 504.4 505.3 501.9 498.1 497.5 496.2 494.7 494.3 496 498.4 500.4 502.5 505 507.4 509.7 508.4 507.3 506.6 505.8 504.7 503.4 501.7 499.8 497.8 495.3 492.4 488.5 483 477.6 472.9 468.4 464.2 459.8 454.5 453.5 452.2 450.6 445.6 438.5 433.7 434.6 435.2 436.7 439 440.9 433.6 424.1 423 424.5 418.2 420.5 412.3 411.5 410.5 411.7 414.1 419.2 424.7 428.1 432.2 441.6 445.8 447.3 447.5 447.7 447.5 443.6 442.5 437.8 437 428.3 416 396 388.4 395.1 405.6 414.1 416.5 420.2 427.7 436.2 439.5 448.5 453.9 455.8 453.5 445.4 441 439.2 438.5 438.5 438.5 438.6 438.7 437.6 436.7 434.9 431.3 425.2 418.2 417.3 419.6 418.9 421.6 419.8 417 408 390.4 357.4 361.6 379.9 384.1 375.3 369.4 358.1 347.6 340.5 335 327.2 320 317.4 312.6 308.4 307.9 310.5 317.8 324 328.6 334.4 337.6 340.1 341.1 340.9 341.9 341.1 338.1 332 327.8 323.8 322.6 322 328.3 335.9 344.3 358.6 381 402.5 418.2 431.1 441.5 448 450.9 450.9 450.8 449 446 443.8 443.7 443.2 442.7 441 438.9 438.4 437.8 435.1 434.4 434.8 435 434.6 434.1 433.9 433.7 433.2 432.3 431.7 431.1
454.1 451.7 449.8 447.5 445.6 443.7 442 442.1 442.7 443 444.7 446.4 447.5 449.1 451.7 454.6 458.9 464.9 474 484.2 491.8 495.1 497.4 497.3 498.1 498.4 496.3 494.2 493.7 492.4 494.8 497.6 499.8 501.8 503.7 505.5 506.3 507.6 507.7 507.7 507.7 507.3 507.8 505.2 503.1 500.9 499.1 497.2 494.7 491.2 487.1 480.7 476.4 471.9 466.7 463.7 455.5 450.3 449.9 448.9 445.6 438.4 441.8 441.7 441 441.6 446.1 447.6 447.4 434.8 429.3 429.8 427.3 419.4 425.7 423.8 423.6 422.2 424.5 428.4 430.5 433.8 438.4 443.3 450.3 452.7 451.5 450.3 450.7 449.1 448.8 443.9 440.4 434.4 421.1 402 387.1 397.2 401.9 408.1 418.9 424.3 430.6 441 449.1 453.5 460.4 464 464.5 462.7 459.5 455.7 453.3 451.9 450.9 450.3 449.9 449.5 448.2 446.8 444.5 440 434.6 428.9 426.4 427.2 428.9 426 420.4 413.3 404.2 386.3 373.9 386.1 398.4 397 388.8 380.5 368.5 356.3 346.2 334.2 328.3 324.2 320.1 316.5 311.9 308.4 308 306.6 310.7 313.8 317.9 320.3 324.7 326.3 324.9 325.1 325.6 324.7 321.7 318.4 317.3 318.5 321.6 326.9 331.5 338.8 353.2 374.5 398.5 414.7 427.8 436.6 441.4 446 447.3 447.7 447.5 446.9 448.4 449.9 449.6 448 447.6 447.7 446 442.3 439.4 436 435 434.8 434.5 434.1 433.4 432.7 431.7 430.8 430 428.7
454.1 452.2 450.4 448.5 447.1 444.9 442.5 439.1 441.1 443.2 444.6 445.7 446.7 448.3 449.8 451.2 455.4 461.8 468 477.6 485.2 488.3 491.2 491.7 491.6 491.8 489.8 488.2 492.2 495.2 497.7 500.5 503 504.9 506.4 507.6 508.5 508.9 509.9 510.4 510.7 512.7 512.8 509.4 503.6 500.1 498.5 496.4 494 489.3 484.8 481.4 477.8 475 472.2 469 456.1 447.5 445.9 446 439.4 442.9 445.6 446 448.3 451.9 455.1 455.6 450.1 441.2 437.2 433.3 426.8 426.9 432.4 431.1 432.6 433 438.1 438.3 440.1 444.1 447 453 457.6 459.6 456.5 453.9 452.3 451.3 447.5 442.4 437.5 424.4 405 388.7 398.9 404 411.3 420.5 428.1 434.4 443.4 453 459.1 463.7 468.7 470.3 470.3 467.6 466.3 464.1 463.2 461.5 459.3 458.4 457.2 455.6 454.5 452.8 449.8 445.6 439.4 435.9 432.5 430.5 426.1 419.1 417.1 415.7 413.5 405.1 400.9 408.5 415.1 406.8 399.7 388 377.9 369.1 358.1 342.3 333.5 329 323.6 319.7 314.8 310.1 309.1 309.5 306.1 307.3 308.8 310.6 312.4 314.6 316.4 317.3 318 317.2 315.6 312 314.9 317.6 320 322.5 326.4 333.1 346.5 366.4 390.4 407.8 422.4 431.8 438.4 442.8 445 446.8 448.3 450.1 451.4 452.5 453.3 453.3 453.7 451.6 448.6 443.2 438.9 436 435.6 435.2 435 434.3 433.2 431.7 430.6 429.5 427.8 426.3
454.8 452.4 450.7 449.1 447.3 445.1 442.6 439.9 438.3 441.9 443.2 444.1 445 446.9 448.2 449.2 452.1 457.5 462.7 472.2 477.5 479.1 481 482.7 483.9 484.6 486.2 491.5 495.4 498.2 500.3 502.8 505.3 507.3 508.7 509.7 510.5 511.9 513.6 515.1 516.2 517.3 514.4 511.9 506.7 501.8 499.8 499.5 496.9 491.8 488.5 485.3 482.5 480.1 477.3 468.1 453.2 447.3 448.7 449.1 448.9 449.9 450.9 455.2 457.2 460.2 463.1 461.8 456.6 448.3 446.2 436.9 425.8 437.9 439.7 440 442.8 444.8 447 446.8 449 454.3 453.7 458.3 460 459.6 457.9 456.5 455.8 450.3 445 438.1 426.9 408.4 391 398.6 408.4 420 425.7 433.4 438 444 454.3 461.6 465.9 471.6 475.2 474.8 473.5 472.2 471.2 470.3 469.3 467.1 464.8 463.4 461.7 460.2 457.7 455.3 450.7 445.8 443 438.6 433.1 431.8 433.8 431.2 431.9 433.1 429.3 423.5 424.1 428.3 423.5 411.8 403.7 393 385.7 377.3 363.9 345 343.2 337.6 330.6 323.6 317.4 312.6 311.2 311.1 309.7 308.3 307.1 305.2 305.6 305.9 306 307 309.4 310 309.4 310.2 311.6 313.4 314.9 316.8 320.4 325.4 336.7 356.7 380.7 399.1 414.4 426.6 435.9 441.1 442.8 445.9 450.4 452.5 454.2 455.5 456.5 455.9 455.6 453.4 449.9 444.8 440.4 437.3 436.1 435.7 435.6 435 432.9 431.2 429.7 428 425.7 423.9
455.9 452.3 450.4 448.9 447.5 445.3 443 440.9 438.6 439.2 440.4 442.1 443.3 445.3 446.4 447.4 448.8 453.1 459.3 465.1 466.2 464.2 472 478 482.8 487.4 492.6 496.1 498.6 500.2 502.7 505.1 507.2 509 510.1 511.1 512.1 514.1 516.2 518.1 519.3 518.7 517.5 518.1 512.2 508.3 508.5 508 502.3 496.8 493.1 489.8 486.8 483.6 479 463.9 450.8 452.1 452.1 452.1 454.1 455.8 457 461.8 464.1 466.4 464.1 462 457.2 448.8 440.7 438 441.2 443.5 446.7 450.7 455.7 453.7 455.6 456.1 458.8 461.2 465.1 461.4 462.9 460.4 459.7 459.5 456.5 447.4 441.4 429.3 411.4 394.4 394.8 408.8 421.5 425.4 431.8 440.5 446.7 454.1 462.2 467.4 473.5 478 478.9 477.9 476.7 476.1 475.4 474.6 472.3 469.5 467.8 466 464 461.9 458.8 454.6 449.2 446.6 441.5 438.4 438.5 438.5 440.2 443.3 445.5 446.5 444.7 438.1 440.9 438.3 422.6 413.5 406 397.2 388.8 379.8 363.1 359.4 359.5 352.4 342 333.2 324.8 317.5 314.9 314.4 314.4 314.4 314.4 312.6 309.5 308.3 305.4 305.2 305.1 304.2 304.5 304.8 304.8 307.1 309.3 310.8 313.2 316.6 327.3 345.4 365.3 387 406.2 421.3 431.2 436.4 440.2 445 449.6 453.7 456.4 457.2 458.9 459.3 458.9 456.5 453 449.8 445 440.3 436.8 436.3 436.1 435.5 433.8 430.7 429 426.9 423.9 421.7
457.4 453.2 450.6 449.4 447.9 446.1 444.5 443 441.1 438.6 436.6 438.2 440.8 442.5 444 444.5 445.4 449.3 454.7 458.1 455.7 467.1 473.6 477.8 484.1 489.7 493.7 497.2 499.5 500.2 502.2 504.6 506.7 508.7 510.1 511.3 513 515.2 517.6 519.5 520 519.8 520.1 519.2 514.9 515.1 515.4 512.2 506 498.2 494.7 491.4 486.8 481.4 472.3 457.7 452.2 454.3 454.8 457.5 459.8 461.3 463.1 467.5 469.9 470.1 463.2 461.7 451.9 448.2 447.7 446.5 446.4 448 454.9 460.4 466.2 461.9 463.4 463.1 463.8 464.4 465 463.6 462 460.9 461.2 459.8 451.9 446.2 430.4 413.5 396.4 411 406.1 403.6 417.5 428.3 438.6 446.7 453.2 459.5 466.8 474.2 479.3 480.5 481.4 481.2 480.3 479.9 479.2 477.5 474.7 471.5 469.6 467.3 464.6 461 456.4 451.4 448.4 443.3 443.9 445.8 446.4 447.7 450.5 453 455.7 456.3 452.4 449.6 449 437.4 426.1 419.5 409.2 398.2 387.9 372.8 373.1 374.7 373.1 363.7 353.1 343.7 334.9 326.7 321.4 319.7 319.2 319.2 318.8 316.7 313.5 311.2 309.5 307.8 307.1 307.5 307.1 303 305.2 303.3 304.6 305.7 305.8 307.2 313.9 328.6 345.1 367.2 391.5 411.9 425.6 432.5 438.5 444.6 450.5 453.6 459 462.6 465.6 464.9 463.5 460.9 454.6 450 445.8 442.6 439.8 438.8 438 437.4 434.2 431.5 429.2 426.9 423.8 420.7
457.4 453.5 452.1 450.5 448.9 447.4 445.7 444.3 442 438.6 436.2 433.9 437.9 439.7 441.1 441.2 441.9 445.3 449.3 450.3 454.8 463.8 469.5 474.3 479.5 484.4 489.2 493.3 495.7 497.8 500.1 502.6 505.2 507.5 509.4 510.9 512.5 515 516.8 518.6 519.9 520.9 521.8 520 519.4 519.5 518.7 514.3 504 497.4 494.6 490.5 485.3 477.5 467.2 454.5 454.8 456.6 457.9 460.8 463.7 465.4 467.6 470.5 471.6 464.3 461.1 457.3 452.3 449.2 452 450.6 450.7 456.2 463.8 469.2 468.9 469.6 470.2 470.3 469.3 469.4 468.1 465.2 463.4 462.3 463.2 456.8 449.3 437.4 413.6 398.4 408.4 415.7 419 421.6 421.9 434.1 443.6 450.3 457.2 465 472.4 478.5 482 483.6 484.3 484.8 484.8 484 482.8 480.9 478.6 475.7 472.6 469.2 464.3 458.7 454.8 451.8 447 449.6 452.5 453.6 454.3 457.2 459.6 462.5 464.2 463.7 459.4 458.2 449.6 438.3 431.7 421.7 409 395.9 378.3 385.4 385.8 387.1 383.8 373.8 362.6 352.9 344.9 337.1 330.1 325.1 324.2 324 322.9 320.5 317.4 312.6 314 313.1 315.3 314.8 313 310.8 308.3 305.5 302.6 302 301.4 301.1 304.3 308 326.9 348.2 372.5 399.9 420 429.5 435.7 443.5 450.1 453.7 460 464.7 465.7 465 462.6 458.7 452.7 449.2 446.1 442.1 440.8 439.7 438.8 437 434.6 432.3 430 426.8 424.5 421.3
463 457.9 458.3 455.6 451.4 451.5 451.3 449.3 444.8 439.1 436.4 433.9 435.1 436.7 438.1 438.3 438.8 441.3 442.4 443 451.1 458.1 464.3 467.9 471.7 476.2 481.2 486.4 489.5 492.9 496.1 499.4 502.9 505.5 507.7 509 511.3 513.5 515.6 517.5 519 520.9 521.7 521.8 522.1 522.1 519 508.8 500.8 497.5 494.7 490.4 484.7 476 464.1 453.7 456.8 458.8 464.3 467.9 469.2 469 469.3 470.1 466.2 463.7 460.5 457.1 453.2 449.1 454.3 455.1 457.3 466.1 471 475.2 474.5 474.8 474.8 474.2 475.4 475.2 471.3 466.8 464.6 462.3 460.6 454.1 444 426.8 401.7 406.5 419.7 422.6 424.8 428.1 433.2 440.7 448.5 452.8 459 469.1 476.7 481.1 484.7 486.4 487.6 488.2 488.1 487.4 485.8 483.9 481.5 478.7 475.4 470.2 463.7 459.1 456.1 452.5 452.8 454.8 457 459.4 460.6 464.7 468 471.7 473.4 472.2 466.5 457.2 445.7 438.7 431.4 418.2 403.9 389.7 398.5 398.1 400.5 397.7 396.7 384.4 371.9 358.5 351.5 346.6 342.5 331.7 330.2 330.2 327.9 325.2 321.6 316.3 319.9 324.9 329.8 328.2 323.8 317.4 316.6 316.2 310.9 310.3 311.2 307.1 300.1 296.5 313 336.2 362.1 390.7 414.1 426.2 434.5 441.4 448 453.1 459.4 463 464.5 462.2 458.9 456.5 448.6 445.2 442.2 441.6 441.6 440.5 439.3 436.8 434.7 433.2 431.8 428.2 426.1 422.9
471.6 470.1 472.9 470.1 465.8 463 460.1 457.9 455 444.3 437.1 434.6 431.3 433.7 435.5 435.4 436.1 436.5 435.2 437.2 442 451.1 456.2 458.4 462.8 467.7 473.1 480 484.4 488.7 492.5 495.8 499.6 502.1 503.9 506.3 509.5 512.3 514.3 516.3 518.4 520.3 522 522.5 522.7 520.8 514.5 504.3 498.5 494.8 490.6 485.8 480.1 469 459.2 457.8 459.4 464 468.6 472.9 472 471.4 471.4 470.4 467.2 464.7 461.6 457.8 452.3 452.4 456.9 460 466.5 472.3 475.6 477.1 477.7 477.6 478.1 479.2 478.9 477.3 473.2 467.9 465.8 461 457.7 452.4 437 415.4 404 419.7 426.8 430.1 434.7 437.8 443.3 450.5 456.2 461.8 466.1 471.5 479.4 483.9 487 488.9 490.2 491.4 491.1 490.3 488.7 486.8 484.1 481.4 476.8 470.7 466.1 462.1 458.3 454.3 455.6 457.5 460.3 462.9 465.5 468.7 471.7 473.9 474.2 472.4 462.9 451.4 442.7 437.9 427.9 412.9 405.1 411.1 410.3 412.9 412.7 410.9 407 393.8 377.3 366.6 359.2 357.4 348.1 338.5 337.6 336.4 333.8 330 324.8 321.1 327.2 333.6 341.1 342.4 332.2 326.5 324.8 318.8 317.8 318.6 318.4 313.6 306.5 293.1 306.2 331.9 356.6 388.4 413.8 425.5 433.7 438.3 443.4 449.3 455.2 457.5 458.1 457.3 453 449.1 441.2 439.4 440.4 441.1 441.6 441.7 440.5 437.4 435.5 435.6 434.5 431.3 428.2 426.9
