ncols 200
nrows 85
xllcorner 230000
yllcorner 951300
cellsize 50
171.1 173.1 173 170 164.9 161.2 160.3 162.2 162.7 162 162 163.2 163.6 164.2 168.1 168.6 170.1 171.1 168.6 166.9 166.5 167.6 166 162.8 163.4 157.8 155.8 157.1 152.7 149 145.3 144.4 148 149 149.4 148.5 146.5 146.1 140.4 136.7 132 125 120.8 116.9 110.1 104.7 97.7 92.8 83.4 73.9 71.2 72.3 73.6 73.1 73.2 74.6 78.6 79 79.7 79.7 84.6 93.8 95.9 101.2 105.7 113.5 121 122.3 121.8 121.3 124.3 129.8 137.2 156.3 200.5 217.8 226 239.1 254.8 291 328.6 344.1 370.7 383.1 409.8 429.8 452.3 471.9 491.5 510.5 533.1 560.2 584.2 608.4 635 664.9 693.4 713.8 737.8 764.6 795.2 792.2 789.3 780.4 768.5 760.3 744.9 725.9 711.5 664.4 632.1 600.2 571.7 534.4 513.1 496.6 488.5 476.9 472.7 468.7 458.1 446.5 443.2 440.4 440.5 435.7 421 412.4 411.7 415 410.4 406.7 408.5 408.5 404.7 400.7 396.9 392.1 386.7 380.5 374.2 368.9 362.8 355.2 344.7 336.8 331.5 323.7 315.1 305.5 296.8 287.3 268.1 251.3 239.3 231.2 223.7 215.6 206.8 198.7 193.3 185.4 176.9 168.1 159.5 150.3 139.1 125.5 111.7 101.1 90.8 82.9 75.3 69.6 64.9 59.8 55.1 50 44.7 39.2 34.9 31.3 28.3 24.4 18.1 13.1 12.2 10.5 7.3 6.5 2 1 -0.1 -1.6 -0.2 0.4 0.8 4 8.2 0.2
171.6 172 171.5 167.8 166.1 162.4 163.2 166.3 170.3 168.1 165.5 166.3 167.8 167.7 168.8 173.2 175.9 172.1 169 167.4 169.7 170.5 169.4 167.1 163.5 159.5 156.9 158.3 156.2 151.2 147.8 147.2 149.3 151.7 151.8 150 147.7 146.1 141.5 138.2 133.9 125.5 119 115.1 111.8 107.2 100 94.8 89 80.7 73.5 69.6 73.5 73.7 73.5 75.1 75.5 77.5 79.1 81.1 83.8 89.4 95.2 100.9 104.4 109.7 116.4 117.3 118.1 118.4 122.7 127.3 136.1 161.2 184.8 201.6 219.4 244.4 257.9 292.8 333.9 357.3 372.7 386.8 403 424.9 446.1 468.7 488.7 510.5 536.4 562.9 588.7 613.1 642 669 700.1 720.4 745.3 773.5 790.5 789 784.8 774.7 765.7 755.7 740.6 725.5 716.9 714.5 655.3 617.7 581.1 547.4 519.3 500.4 484 481.7 469.1 465.4 453.7 435.3 432.3 427.8 431.8 423.7 405.4 399.3 404.7 408.9 403.2 397 391.5 394 392 389.1 387.4 382.8 378.5 373.9 370 365 357 349.6 343.9 336.2 328.5 319.8 310.5 301.6 292.9 280 257.7 244.5 233.7 224.9 217.9 209.5 202.8 194.8 186 177.3 169.1 160.6 151.8 141.1 128.6 115.8 103.2 92.3 83.7 76.9 70.9 66.4 61.8 57 51.9 46 40.4 35.8 32.6 30.2 26.6 20.5 15.9 13 13.7 7.7 6.8 2.3 1.5 0.6 -0.5 -1.6 -1.6 -1.6 -0.3 1.7 8.1 -1.6
170.4 169.1 166.9 166 167.9 171 165 164.5 167.7 171.3 172 170.7 170.1 172.6 172.4 172.1 173.5 172 169.7 170.8 169.4 172.3 169.8 169.1 165.2 160.5 157 157.4 157 154.6 151.4 148.9 149.1 151.7 150.2 147.6 147.7 146.3 143.4 138.7 134.9 125.2 118.4 113.1 111.2 107.2 100.4 94.4 91.1 84.4 77.1 70.7 73.3 73.4 73 77.3 77.4 78.6 80.2 80.2 83.3 88.3 94.5 100.4 102.1 103.8 111.3 114 114.9 115.2 120.6 124.6 132.4 148.7 172.1 212.5 235.1 250 273.8 300 321.6 348 363.3 380.3 397.5 419.3 441.3 461 486.1 511.8 535.7 562.9 590.7 619 647.9 674.9 701.6 725 747 774.9 785.3 781.6 776.5 769.3 760.6 747.4 739 729.2 717.5 709.9 675.6 632.1 592.9 555.3 524.8 496.3 482.9 470.4 457.8 450.1 443.9 431 416 417.5 418.1 409.7 395.3 395.3 399.2 397.3 396.3 388.1 380.7 377.9 380.9 376.3 373.9 373.6 369.9 366.6 363.2 361.3 355.5 351.8 345.3 337.2 328.7 317.3 305.5 296.7 286.2 267.1 250.1 237.9 228.5 220 212.3 205.7 198.6 188.6 179.2 169.9 162.6 153 142.3 130.9 120 107.6 96 85.3 75.5 71 67.1 62.5 58.2 53.8 48.8 42.9 37.5 33.6 30.3 27 22.8 17.2 15.5 14.2 11.5 6.7 3.5 2 1 0.2 -0.7 -1.6 -1.6 -1.6 -1.6 -1.6 1.5 -1.6
171 168.3 166.1 166.8 171.5 171.9 172.3 167.7 169.2 169.5 175.6 174.1 170.5 172.2 172.9 172 171.3 172.8 172.9 170.4 169 170.9 170.3 169.6 167.3 163.9 161.8 159.2 158.2 157.3 153.6 150.2 147.6 150 148.5 146.9 146.9 146 143.1 138.6 135.4 127.4 117.9 111.8 107.4 104.1 98.8 94.9 90.3 83.6 77.8 71.8 72.1 72.2 73.5 76.1 79.5 78.6 79.1 80.1 81.4 85.5 92.4 100.2 102.7 103.3 105.6 109.9 111.2 113.4 119.1 123.7 128.4 139.5 158.6 190.5 209.8 234.8 267.6 290.8 310.4 330.2 349.4 371.7 393.8 411.8 435.4 455 479.8 503.3 528.5 561.7 592.2 621 650.6 678.9 701.9 726.4 746.6 764.3 773 772 766.1 760.1 747.6 739.5 732.4 723.7 713.8 700.1 663.5 629.9 591.3 552.4 528.2 505.2 467.8 440.1 428.8 423.4 419.6 407.6 399.5 402.3 399.6 401.2 393.6 388.3 390.8 386.3 384.5 375.1 375.1 365 364.2 366 365.4 363.7 362.6 362 359.3 357.1 353.1 347.6 340.5 333.8 324.2 312.5 301.5 291.7 276.7 258.5 242.3 232.4 224.2 215.6 207.7 201.9 192.7 181.9 172.7 164.5 154.8 144.4 132.5 122.4 112 100.3 90 79.7 72.7 68.3 63.3 59.2 55.2 51.5 47.5 39.8 32 30 27.9 24.9 21.6 18.4 15.9 13.7 11 7.1 5.9 1.8 0.7 -0.3 -1.1 -1.6 -1.6 -1.6 -1.6 -1.6 -1.6 -1.6
170.9 167.9 166.6 168.3 172.4 173.7 174.3 173.9 170 169.2 169.7 174.7 171.3 169.4 172.2 172.6 173.3 174.4 173.9 170.8 169.6 168.9 171.5 169.7 168.3 166.1 167.8 163.8 160 157.6 153.6 150.3 149.2 147.6 148.3 148.1 147.2 146.8 142.5 137.6 135.8 127.8 119.3 113.7 106.1 101.3 97.6 95.2 91.7 84.8 77.7 74.9 73.7 73.3 74 74.3 76.7 77.5 78.7 80.5 81.3 85.1 90.4 97.2 100.3 102.4 103.8 105.6 107.4 110.5 116.1 119.8 123.8 132.2 151.3 172.3 193.7 213.7 241.6 267.2 302 323.1 343.2 362.4 383.9 407.9 427.3 452.3 475.7 500.2 529.1 562.8 595 627.2 656.7 684.7 705.7 727.9 747.5 756.8 759.2 757.8 750.4 742.1 735.9 731.1 724.6 714.8 706.4 682.1 645.1 613.9 580.4 549 515.9 490.1 458.5 424.4 407.1 398.3 394.6 392.5 385.4 387.7 395.5 389.8 379.7 380.1 376.9 376.2 373.6 373.2 362.2 356.9 354.6 355.9 358.1 357.8 357.5 356 353.1 348.6 345.1 340.5 334.7 327.3 317.9 304.4 294.5 285.9 267.9 248.6 238.2 228.7 219.4 213 204.4 196.4 185.1 175.9 167.6 158.7 148 135.4 123.6 114.1 103.9 92.8 83.5 74.3 68.7 64.8 60.5 56 52.4 48.9 43.7 36.1 28.8 27 24.2 22.5 20.8 18.9 16.2 14.5 10 7.7 6.2 1.8 0.6 -0.6 -1.6 -1.6 -1.6 -1.6 -1.6 -1.6 -1.6 -1.6
172 169.5 169.5 168.4 171.2 174 176.3 177.8 174.3 166.8 168.2 168.4 168.5 167.1 169.1 171.7 179.6 177 173.7 172.9 172.4 171.2 172.9 173.6 172.5 168.6 167.4 164.7 162.5 158.8 153.2 150.8 149.3 148.4 148.4 147.1 144.4 142.3 135.5 133.6 132.3 128.4 118.8 113.1 107.4 102 99.2 95.8 92 87.9 80.7 75 74.5 72.1 74.6 75.8 74.9 77.2 77.9 80.6 81.2 84.1 88.6 94.2 95.8 98.2 100.1 102 105 106.9 111.1 114.8 121.3 127.7 140.4 155.4 178 201.7 224.7 245.5 279 307.9 328.4 349.7 376.6 398.1 423.6 449.7 474.3 501.3 535 565.7 597.1 629.6 662.4 689.5 712.7 734 752.4 754.8 750.7 739.9 735.5 731.2 727.8 722.7 714 701.9 689.7 657.5 622.8 589.7 562 535.9 506.7 463.2 443 415.1 392 382.8 379.2 378.7 373.5 367.2 378.3 379.3 366.2 369.5 366.8 365.3 356.1 352.8 351.8 353.1 349.6 345.3 346.2 347.2 345.4 343 342.2 340.8 338.1 333.6 327.6 320.3 308.6 296.5 288.8 276.3 256.3 243.1 231.2 223.6 216.8 208.1 200.2 191.3 180.3 171.1 162.8 152.9 139.5 127.3 113.7 105.3 94.6 85.7 78.3 71.1 65.4 60.6 56.7 53 49 43.7 38.2 31.7 26.9 24.4 22.4 20 18.4 17 17.1 14.6 9.9 7.4 5.6 1.8 0.4 -0.9 -1.6 -1.6 -1.6 -1.6 -1.6 -1.6 -1.6 -1.6
174.3 172.2 169.5 168.9 169.4 172 176.8 176.9 177.1 171.9 169.2 169.2 166.8 167.6 167.7 171.3 176.1 177.4 174.5 174.3 179.1 180.1 178.9 180.4 177.5 172.4 166.2 163.7 160.8 156.6 155.3 151.9 147.3 145.6 143.9 139.3 138.3 138.9 136.5 134.5 129.6 126.1 119.9 114.3 107.3 103.1 100.1 98 93.8 89.2 85.4 77 75.5 73.8 73.4 76.8 79.2 78.1 79.1 80.2 81.2 84 86.2 91.6 90.6 95 96.6 97.4 100.3 102.4 107.7 114.4 121 129.7 136.1 147.8 164.1 184.3 214 237.3 259.7 285.3 318.7 347.6 373.6 394.8 422.6 447.4 473 500.6 532.6 567.2 597.8 631 664.9 693.8 716 742.3 760.6 754.1 744.4 736.7 731.8 730.7 722 709.8 698 691.4 675.2 634.3 601.3 566.4 536.1 506.7 472.9 450.8 438.6 416.9 396.9 380.9 376.5 370.6 367.3 361.2 367.5 364.9 359.9 362.9 361.3 361.7 356.9 346.6 344.6 347 344.4 339.5 334.8 333.1 331.4 330.3 330.2 331 330.1 324.7 319.1 310.8 299 291.4 281.3 259.4 245.9 234 225.7 219.4 210.8 201.2 193.7 182.9 175.9 167.5 159 144.5 131.2 118.4 107.3 94.2 86 78.7 73.1 67.8 62.9 57.2 52.7 49.4 45.9 41.2 33.4 26.7 24.5 23.2 18.3 16.7 18.3 18.9 18.2 14 11 9.1 7.2 1.9 0.2 -1.6 -1.6 -1.6 -1.6 -1.6 -1.6 -1.6 -1.6 -1.6
176.9 175.1 172.3 170.1 168.4 167.5 172.5 177 176.9 174.7 168.6 169.2 169.2 167 168.1 170.1 176.7 180.4 177.8 176.7 179.6 184.3 183.6 182.3 178 171.4 165.7 160.9 157.1 154.2 154.8 149.7 145.9 144 144.2 144.2 142.2 139.2 136.7 134 130.4 125.4 119.9 114.3 108 103.2 101.4 99.1 95.3 90.3 87.8 82.2 77.6 74 74.5 76.6 76.8 77.7 78 79 82 82.5 83.5 87 92.6 93.7 94 95.2 97.4 100 105.8 112.6 121.6 132.4 144 148.1 163.3 179.7 204 227.8 252.5 277 305 337.3 368 396.5 423.3 447.8 474.6 502.5 530.8 567.3 598.3 632.3 667.1 696.8 717.9 742.2 765.1 752 738.7 729.1 720.1 714.5 707.1 702.8 692 679.2 656.3 616 581.6 547.3 513.7 483.4 459.1 441.3 425 414 400.1 388.9 376.4 371.4 366.1 363.3 360 358.6 357.2 351.9 354.1 353.7 346.7 343.8 338.2 337.8 336.6 331.4 327.6 321.9 320 320.9 321.1 320.6 318.4 314.8 308.5 298.7 291.2 283 264.2 248.5 236.8 228 222 213.6 202.8 195.1 186.6 178.9 171.7 161.9 148.7 135.7 122.9 112.3 101 92.2 83.6 73.9 67.8 63.6 59.1 54.2 50.3 46 39.2 36 28.8 23 22.1 19.9 15.8 16.4 21.9 18.6 17.9 14.9 12.7 8.4 7.2 2.2 0.4 -1.6 -1.6 -1.6 -1.6 -1.6 -1.6 -1.6 -1.6 -1.6
176.1 176.8 175.2 173.1 170 169.2 171.3 176.1 176.8 176.7 171.3 169.2 169.2 173.3 174.4 174.3 174.9 179 179.7 179.8 181.1 182.2 183.1 179.8 174.2 168.9 164.2 158 152.1 150.6 149.3 148.6 148.2 148.6 147.5 152.7 147.6 142.3 136.8 134.9 130.2 123.3 118.1 113.3 107.1 105.4 102.7 99.1 96.1 94.1 89.8 85.3 80.7 74.2 74.4 73.2 74.6 76.2 77.7 80.4 80.3 81.2 81.4 84.6 87.7 90.8 92.4 95.6 97 99.4 103 109.8 121 134 150.5 160.3 168.6 187 204.6 230.5 250.2 271.1 300 331.6 365.5 397.2 421.2 444.4 473.4 504.1 536 567.6 601.7 634.7 665.6 692.3 711.6 731.9 755.9 751 735.2 725.9 715.1 705.1 694.9 691.6 680 669.4 641.4 601 564 533.2 502.8 472.3 451.2 438 425.6 412.6 400.7 391.3 381.4 375.6 371.8 369.2 366.5 360.8 354.8 352 345.1 345.3 347.4 341.4 333.7 333.8 326.4 323.2 318.8 312.9 310.5 310.7 310.8 309.9 307.8 305.9 300.9 292.9 284.6 269 253.7 241 231.8 221.9 214.6 204.6 196.9 188.2 182 174.8 166.3 152.9 141.5 128 116.3 106.6 96.8 87.2 80.1 73.4 66.8 59.7 53.2 51 44.7 41.5 36.2 30.8 23.8 21.6 18.9 15 13.1 15 16.2 18 18.7 16.4 13.5 9.2 7.2 6.2 1.3 -1.6 -1.6 -1.6 -1.6 -1.6 -1.6 -1.6 -1.6 -1.6
175.2 174 173.7 174.1 173.4 172.4 170.5 174.3 178.9 178.4 175.8 174.4 177.8 179.8 178.6 178.6 178.4 180.6 181.1 182.8 184.8 184.9 181.1 178.9 173.4 165.8 160.4 155 151.4 151.3 151.6 151.9 150.8 148.9 148.2 153.4 154.1 144.7 138.8 134.4 130.4 124.2 117.6 112.1 108 105.9 102.1 98 96.9 95.7 91.2 87.4 84.3 78.3 75 75.5 75.4 77.9 77.5 78.7 80.7 81 81.6 83.2 86 87.7 91.4 95.7 95.8 97.9 103.8 110.4 121 134.2 154.9 168.9 179.7 193.8 211.1 234.6 251.3 274.8 313.4 336.9 371.5 400.7 421.7 446.1 474.1 505.2 537.1 571.6 599.6 630.1 659 681.2 698.1 716.6 732.7 737.7 730.9 727.3 720.7 699.6 689.1 680.3 672.6 661.6 629.2 588 551 514.5 486.9 465.1 449 437.8 428.7 418.7 406.5 399.1 391.4 387.1 383.1 377.4 371.7 366.9 357.9 352.3 342.4 341.5 339 330.4 329.9 327.5 318.4 314.5 311.7 305.1 302 299.6 299.2 300.3 300 298.4 293.8 285.5 273.5 258.7 244 234.3 223.1 213.5 206.6 197.3 188.8 183 175.3 165.4 155.1 143.2 132.7 120.2 110.3 102.2 92.2 84.1 77.3 69.9 63.6 55.9 50.7 46.1 40.8 37.2 32 25.3 20.1 19.2 16.2 11.5 11.5 14.3 15.3 18.4 19.5 18.1 14.7 9.4 8.1 7.1 3 -0.1 -1.6 -1.6 -1.6 -1.6 -1.6 -1.6 -1.6 -1.6
175.7 175.3 176.2 176 179.5 178.8 176.2 177.2 179.2 182.8 184.1 182.5 182.2 182.2 185 187.2 186.7 184.8 182.8 184.4 189 185.1 181.8 178.7 171.5 163.3 156.4 154.3 156.9 156.1 154.7 157.1 155.7 151.2 150.1 152.3 154.6 146.4 140.7 133.4 128 123.1 116.2 111.8 108 105.9 102.1 100.1 98 96.9 94.4 89 86.9 81.1 77.5 77.4 74.4 77.5 78.3 78.8 80 80.5 80.8 82.6 83.9 86.8 91.7 93.2 93.8 96.8 102.7 110 119 137.1 156 175.1 188 199.8 211.4 233.7 263.1 297.4 322.1 341.9 371 395.9 422.8 447 473.5 504.2 536.2 566.9 594 620.6 647 669.8 686.4 700.3 715.5 723.5 725.2 719.6 710.3 695.1 685.4 675.4 666.1 657.6 626.3 584.4 547.3 514.9 486.8 469.1 453.9 444.1 439.4 431.6 422.1 407.8 403.2 395.5 392 388.2 381.8 375.6 369.3 353.3 343.8 340.4 335.3 322.2 317.3 315.5 311.9 306.3 301.6 298.1 292.6 290.6 288.7 289.1 288.8 287.8 282.8 273.7 262.1 246.6 236.9 225.3 215 207.9 200.2 191.3 182.3 173.8 165 156 145.2 134.7 124.1 115.2 105.6 94.1 87.3 80.9 73.3 66.8 56.8 53.5 49.7 43.9 37 34.1 28.5 21.9 19.1 17 12.3 9.5 9.7 10.4 15.1 17.7 20 18.1 14.1 10.2 9 8.2 9.4 1 -1.6 -1.6 -1.6 -1.6 -1.6 -1.6 -1.6 -1.6
177.6 178 177.3 179.5 182.7 182.7 181 181.1 181.2 181.3 184.6 186.9 186.5 186.2 186.7 190.3 192.3 188.8 182.8 181.3 182.4 181.9 179.6 173.4 167.1 159.3 155.4 156.2 159.9 161.9 162.2 162.9 162.1 155.7 153.7 153.9 154.3 152.3 144.7 137 128.3 122.1 116.3 112.9 108.2 105.5 103.1 101 97.7 96.9 95.1 90.6 88.7 85.6 79.8 78.6 78.5 74.5 78.8 79.4 79.3 80.5 81.4 82.5 84.2 87.8 91.6 90.7 92.3 94.5 100.3 107.9 117.1 132.9 147.8 169.1 184.4 194.8 211.1 231.8 256.2 296.8 321.6 344.8 366.7 392.4 424.1 448.2 472.1 499.2 529 557.5 585.1 610 630.5 651.8 670.5 687.9 701.5 708.4 710.9 708.1 698.6 687.1 677 669.2 658.9 644.6 625 587.6 551.8 525.1 503.6 486.2 473.2 462.3 454.5 446.2 438.3 424.9 412.3 403 400.7 392 385.9 380.6 375.3 368.5 344.8 332.3 332.5 318.8 316.3 309 306.4 302.3 293.1 290.8 286.3 281.9 279.2 278.9 277.2 274.7 269.9 260.5 247.1 238.5 227.6 219.4 211 200.8 191.6 183.2 173.7 166.1 157.4 149.3 137.8 128.2 118.9 109.5 98.2 90 83.9 75.1 68.6 62 55.5 50.6 44.5 40.3 35.3 30.4 22.8 19.2 18.3 13.4 10 8.2 8.6 9.5 12 18.3 20.8 18.5 15.1 11.3 9.9 9.2 5.1 -1.6 -1.6 -1.6 -1.6 -1.6 -1.6 -1.6 -1.6 -1.6
179.2 180.8 181.7 183.5 185.6 184.4 183.6 183.6 183.2 183 184.3 186.4 189.4 190.4 189.3 191.3 191.6 188.5 185.9 184.2 178.9 178.7 176.3 168.9 163 160.3 158.1 159 161 164.3 165.1 167.4 166.3 161 158 158.6 157.1 156.9 150.9 142.4 131.5 124.6 120.1 114.9 111.9 107 104.5 103.4 99.4 98.7 96.6 93.7 89.8 89.6 83 79.7 78.8 74.9 77.6 79.2 78.9 82.2 81.2 83.1 84.4 88.4 90.5 89.9 91.5 93.1 98.2 104.9 110.8 124.2 139.3 156.5 173.3 186 202.3 223.1 255.3 283.6 318.9 345.2 363.7 389 421 447.1 469.2 485.6 515.5 543 569.3 594.7 616.2 635.4 655.1 672.7 687.9 696.8 699.8 695.2 691.3 677.3 666.8 657.4 648.8 635.1 617.4 594.4 570.8 556.1 534 514.3 500.4 488.7 478.3 470.6 459.3 449.4 429.6 413 404.6 397.8 383.1 381.2 367 363.2 350.7 324.1 320 317.9 315.4 307.7 305.6 296.4 290.1 285 280.1 274.6 273.7 272.7 270 264.8 259.2 249.4 239.7 230 220.1 213.5 201.4 192.3 185.5 175.7 165.9 158.6 151 141.1 131.1 121.2 111.7 100.5 92.7 86.4 79.7 72.2 65 58.4 53 46.5 41.5 37.1 31.4 25 18.4 17.2 14 10.4 7.9 6.9 7.8 9.1 11.5 18.5 19.7 17.9 16.6 11.6 10.1 9.6 4.8 -1.6 -1.6 -1.6 -1.6 -1.6 -1.6 -1.6 -1.6 -1.6
183.4 183.7 185 186.1 188.2 188.7 188.6 187.9 186.7 188.3 189.7 190 190.3 189.4 189.7 190.2 191.8 189.7 188.1 185.5 181.6 175.5 173.2 171.8 169.5 163.6 160.5 159.6 161.5 165 165.1 165.6 165.1 167.6 167.6 165.6 166.3 159.7 154.6 144 134.3 128.1 125 119 113.8 109.4 105.4 103.7 102.1 100.4 100.2 96.9 92.3 87.1 84.2 81.9 78.8 79.1 76.3 78.4 78.6 79.9 80.8 82.8 85.5 85.7 88.5 88.3 90.3 92.6 96.4 102.1 107 115 128.5 143.7 159.6 173.3 190.9 209.3 235.5 271.7 321.4 337.8 359.8 379.6 410.4 441.2 460.9 476.4 500.2 527.1 552.1 576.5 598.6 617.8 640.4 656.8 675.1 686 688.1 687.3 682 670.4 660.8 648.6 638.1 626.8 613.6 608.2 602.7 592.4 572.7 553.5 536.1 525.5 516.3 507.4 496.2 482.2 463.5 440 415.1 400.4 385.8 377.9 369.5 357.7 347.6 331.2 314.7 317 311.7 309.9 303.3 295 288.5 283 274.5 270.3 269 265.3 262.5 257.5 249.4 239.7 231.4 221 211.6 202.9 195.4 187.6 178.2 169 162.1 154.1 144.5 135.3 123.5 113.3 105 94.9 88.5 82.1 74.3 66.3 58.9 53.2 48.5 42.6 38.7 33.8 27.4 18.8 16.7 14.3 11.7 7.9 6.1 5.9 7.7 9.6 11.9 17.2 18.3 16.9 15.2 10.6 9.8 9.5 -1.6 -1.6 -1.6 -1.6 -1.6 -1.6 -1.6 -1.6 -1.6 -1.6
184.5 186.2 188 188.9 191.4 191.7 192.7 191 193.2 195 195.7 194.4 193.4 193.7 193.6 192 188.6 187.3 187.5 186.3 183.1 177 173.6 175.4 173.4 168.2 163.6 162 164.6 166.4 168 169.8 170.6 171 173.6 173 170.8 165.4 156.7 149.2 145.9 135 131.3 126.7 119.4 113.2 107.7 106.2 106 105.9 102.4 100 92.6 87.2 88.3 86.3 78.6 79.9 79.9 74.7 78.3 79.9 81.3 84.3 83.2 85.1 86.9 87.6 89.2 92 95.6 99.6 104.3 111.9 121.4 132.7 146.6 162.8 180.5 200.5 230.1 266.6 310.4 338.4 354.5 374.7 397.1 425.2 449.5 465.6 480.1 504.1 531.1 555.7 579.5 602.4 625.1 642.7 658.1 671.7 678.4 678.4 673.4 663.2 652.2 641.7 637.5 630 625.3 622.6 612.6 601.9 593.2 585.6 577.6 568.7 558.9 549.4 537.7 519.3 498.4 470.8 449.4 426.7 398.4 378.6 369 358.4 349.2 335.8 327.6 318.5 316 309.1 300.3 294 286.2 278.8 273.9 270.9 259.3 258.5 251.5 249.3 239.5 231.2 220.9 212 205.2 197.1 190.3 181.4 173.1 165.3 157.6 147.6 138.5 128.6 118.1 106.6 99.7 92.1 83.8 76.4 67.5 61.5 54.8 49.1 43.9 40.3 35.1 28.3 21.9 15.4 14.3 12.8 8.8 6.2 6 5.5 8.5 9.9 11.7 17.5 16.9 15.2 11.9 9.6 8.1 2.1 -1.6 -1.6 -1.6 -1.6 -1.6 -1.6 -1.6 -1.6 -1.6 -1.6
184.7 186.7 188.5 191.5 193.4 195 196.9 198 198.3 199.5 199.5 198.6 197 197.5 196.7 193.2 193 190.9 187.3 185.1 182.2 180 179.8 179.4 175 172.3 167.7 164.6 167.1 169.8 171.7 178.6 181.1 183.3 180.6 179.5 177.1 169.9 162.8 154.4 150.5 144.1 138.4 136.7 128.3 119.9 113.4 109.7 110 105.6 104.2 101.3 93.9 93.3 94.2 89 79.6 80.6 80.7 80 76.1 75 76.8 79.5 82 85.4 87.8 88.5 90.4 92.6 95.4 98.7 102.5 108.8 115.5 126.3 139.8 154.8 171.6 191.1 222 249.4 293.6 331.4 347.9 365.9 385.9 412.2 435.1 453.3 469 489.2 512.7 539.2 563.1 583.3 605.4 623.2 640.4 659.4 666.6 668.3 666.1 659.5 656.7 647.3 640.9 634.4 630.2 623.2 612 602.5 592.5 587.6 578.2 569.5 559.1 548.3 537.7 526.1 516.5 504.4 483.8 454.7 425.7 395.4 375.1 361.2 353 343.6 333.1 322.7 316.5 307.6 299.2 290.4 283.5 278.8 274.3 269.5 262.7 254.6 247.2 238 232.3 222.2 213.9 205.1 197.7 191 183.2 174.3 167.9 161 150.7 141 131.1 119.9 107.5 101.5 95.4 86.2 76.3 69 61.5 56.5 52.2 47.1 42.2 36.8 32.3 24.4 17.1 13.7 12 9.1 6.7 4.7 5 5.8 7.1 9.2 13 17.4 15.5 12.8 9.9 8.4 2 -1.6 -1.7 -1.6 -1.6 -1.6 -1.6 -1.6 -1.6 -1.6 -1.6 -1.6
183.3 185.1 187.5 191.1 193.5 195.8 198.3 200.2 200.5 201.6 202.3 203.3 202.2 200.6 198.6 196.3 194.7 194.2 190.4 184.9 181.8 181 182.7 180.6 177.2 174.3 171.1 167.3 169.2 173.4 175.8 180.9 186.3 187.3 187.2 185.3 181.5 172.6 163.8 158.3 154.7 147.8 143.6 141.1 133.3 127.4 119.4 115.6 115 109.6 104.8 101.5 100.4 99.2 94.5 91.8 83.8 81.6 80.8 80.4 80.3 76.7 80.9 83.7 84.3 86.9 87.3 87.7 89.9 92.1 94.9 98.2 102.2 106.2 111.2 120.4 136.2 150.6 163.8 181.5 207 240.8 285.5 323.9 337.7 360.2 386.2 407.1 430.4 450.6 468.4 484.9 502.7 524.7 546.9 567.1 585.9 604.8 624.2 644.6 653.9 659.5 660.6 660 657.8 651.6 643.1 635.5 626.5 613.5 604.3 595.8 589.4 581.6 573.7 563.7 553.6 544.9 535.6 523.3 513.4 504.3 494.7 474.9 447.4 417.5 391 370.6 356 344.3 335.2 326 317.2 307.7 300.5 293.9 288.3 282.2 275.1 267.3 259.8 251.4 243.8 234.9 222.8 214.7 206.1 197.8 191.4 184.6 176.8 169.3 163.1 154.9 144.7 135.3 122.7 112.7 105.5 96.2 88.3 79.5 68.9 61.8 56.8 51.2 48.2 43.6 39.3 35.3 26.7 18.6 12.9 10.5 9.4 7.2 5.3 6.8 8.2 5.8 5.3 -1.6 8.1 14.7 10.1 8.8 8 1.9 -1.6 -1.6 -1.6 -1.6 -1.6 -1.6 -1.6 -1.6 -1.6 -1.6 -1.6 -1.6
185.1 186 188.5 190.7 191.1 194.9 197.9 199.6 200.9 202.5 203.5 204.8 204.2 203.3 201.1 200 197.4 195.5 193.1 187.1 182.6 182.3 181.7 180.3 178 174 173.6 171 170.2 175.2 178.9 182.5 185.2 187.3 188.9 185.6 183 175.3 167.5 162.3 158.7 152.2 146 141.9 138.1 131.7 126.5 123 117.1 112.7 108.2 109 104.8 102.3 95.9 93.6 87.5 82.3 81.4 80.2 75.7 79.3 80.9 84.4 86.3 87.3 86.4 87.7 90.1 92 94.3 97.7 101.4 104.8 108.3 117.3 129 144.2 157.4 173.6 197.5 224.4 253.4 287.6 334 362.3 385.2 407.3 424.7 447.1 465.4 481.8 496.5 512.5 534.2 553.5 573.2 589.9 611.3 637.4 649.1 654.9 658.2 657.6 655.8 650 640.7 629.1 617 602 594 588.6 582 574.1 565 556.1 547.3 538.8 529.5 518 508.8 499.4 489.5 478.6 458.3 432 404.1 380.7 360.6 346.3 335.3 325.6 317.2 308.1 302 296.1 286.4 279.3 272.6 263.6 255.8 247.2 238.6 228.9 219.1 211.4 201.3 187.3 181.1 176.8 170.7 164.3 158.7 148.9 138.5 126.5 115.6 108.7 101.9 92.5 82.8 73.1 65.8 58 51.8 47.8 44.4 39.7 37.1 30.9 23.7 15.4 11 8.7 7.4 7 8.5 9.4 9.8 7.7 5.8 -1.6 -1.6 6.9 7.3 5.3 -1.6 -1.6 -1 -0.7 -0.5 -0.6 -0.6 -0.5 -0.5 -0.6 -0.6 -0.8 -1 -1.6
186.7 189.4 191.3 193.7 196.6 196.9 197.8 199.6 201.8 202.7 203.1 205.2 205.9 203.6 201.8 200.9 199.2 196.9 193.9 190.5 188.6 188.3 184.2 181 179.8 177.9 175.8 174.4 174.7 178.2 181 183.3 185.1 187.2 188.3 186.9 183.4 177.2 172.4 164.7 158.9 154 149.3 143.8 140 136.4 130.7 124.6 122.7 119 117.3 114.5 108.6 106.4 99.3 92.3 86.2 83.4 82.3 75.9 79.5 79.2 80.7 84.4 86.1 86.1 86.3 87.6 90 91.3 93.2 96.7 100.3 103.9 107.3 115.3 129.5 137.9 151 167.4 187.3 211.6 235.6 273.5 322.4 349.6 373.7 400.6 420.8 438.1 455.6 473.4 490.7 504.2 522.6 540.9 560.4 585.7 610.4 634.8 645.3 650.6 653.8 653.6 651.8 642.6 631.1 617.9 606.3 597.7 588.4 579.6 572.3 564.7 556.5 548 538.1 529.8 520.2 510.6 500.5 491.3 481.5 469.9 459.8 440 411 383.4 361.4 346.6 333.7 323 315.1 306.3 299.3 292.9 284.8 276.5 268 259.3 251.3 242.5 232.5 222.3 214.2 207.5 199.7 185.1 171.9 158.5 149.6 151.9 152.7 141.7 129.4 118.8 111 104.5 95.9 86.9 77.6 67.6 59.8 52.9 47.7 43.6 38.6 36.8 32.3 25.8 19.2 11.9 10.2 8.9 7.3 5.3 9.5 9.5 9.7 6.2 4.1 1.3 -1.6 1.8 0.9 -1.6 -1.6 -0.1 0.1 0.4 0.6 0.6 0.9 0.9 0.7 0.4 0.3 0.2 -0.3 -0.8
189.4 192.7 194.7 196.3 198.5 199.2 201.3 203.9 206.9 206.3 208.6 212 209.9 210.6 209 207.1 204.8 201.7 197.6 192.5 190.6 189.5 185.4 183.8 183.5 182.2 182.7 182.6 178.1 181 182.9 184.7 186.5 187.6 188.3 187.9 183.6 178.5 173.3 166.8 161.3 155.3 150.8 147.1 143.4 140.9 140 134.1 129.3 124.8 120.8 116.9 109 105.3 95.8 90.4 87.7 83.4 81.5 76.3 80.9 81 80.7 83.3 83.5 85.9 86.7 88.5 89.5 90.4 91.1 95.7 99.3 104.4 107.5 115 124 132.7 144.2 159.9 177.6 196 221 267.6 301.3 333.2 356.8 377.9 398.3 426.9 453.5 474.4 491.6 507.4 522.8 538.9 557.6 585.1 613.4 634.3 641.3 645.8 647.9 647 642.1 632.3 622.7 613.9 603.6 592.8 582.2 571 560.6 552.9 546.9 536.8 527.3 518.3 509.7 499.4 489.6 479.9 469.1 458.5 450.7 435.8 410 383.3 359.7 344 331.1 322 312.8 303.6 293.5 286.7 281.1 272.5 262.9 254.7 246.2 236.7 225.7 217.1 207.1 200.7 189.9 179.6 169.5 152.3 141.8 135.8 138.4 132.5 123.8 115.5 106.9 99.5 92.3 81.1 75.3 65.7 56.5 51.4 46.2 40.3 35 29.1 25.8 21.6 14.5 11.7 10.2 8.5 7.1 10.8 11.3 9.9 8.4 4.4 2.3 0.6 -1.6 -1.6 -1.1 -1.6 0.8 1.3 1.2 1.5 1.8 2 2.3 2.2 1.9 1.5 1.2 0.9 0.4 0
194.2 196.2 198 200.2 203 203.9 206 209.2 211.4 209.1 211.3 213.5 215.5 215.5 214.8 207 204.3 202.6 201.2 196.9 192.5 189.8 189.3 191.7 189.2 187.3 187.1 187.8 184.3 184.3 186 188 188.5 189.4 188.5 186.6 182.9 179.1 174 167.3 162.9 157.1 152.6 148.9 147.5 144.9 143.7 142.3 139.2 132.1 121.8 110.3 107.9 104.6 104.6 96 93.9 86.5 82.5 78.6 80.9 83.4 80.6 81.4 82.6 86.2 87.5 88 88.4 89.2 90.9 95.6 100.3 104 107.8 112.2 119.4 127 138.1 152.4 169.1 188.9 210.9 236.8 275.2 297.9 341.2 378.3 411.1 427.6 447.5 469.4 487.8 507.1 530.1 543.7 557.9 587.7 617.6 633 638.9 641.9 642.8 641.4 636.8 625.7 619.3 611.3 601.9 590.4 577 566.3 553.1 543.9 535.2 522.2 509.9 500.1 492 483.3 474.2 464.3 456.2 447.2 440.4 427.8 407.2 378.4 355.6 339.8 326.6 317.2 307.8 299 290.1 282.3 275.9 267.6 258.6 249.2 239.9 229.9 219.8 211 201.3 193.5 181.5 163.2 153.3 159.1 158.4 149.6 133.4 116.5 110.1 105.8 99.4 89.5 82.8 76.7 69.5 62.6 56.5 49.8 43.7 38.5 32.1 26.6 21.5 15 12.2 10.5 8.7 6.6 7.7 11.9 11.4 9.1 4.8 5.3 2.3 0.8 -0.1 -1.6 -1.6 -1.6 2.8 9.6 10.6 10 10.6 10.7 10.7 10.1 8.2 5.5 2.1 1.7 1.3 0.8
199.1 200.7 203.8 206.6 209.5 211.6 211.2 215.2 215.8 212.6 215.2 217.5 219.7 218.2 215.2 211 206.1 203.1 199.7 199.4 194.8 194.7 196.6 193.9 193.7 192.5 190.3 192.3 190.5 189.1 189.5 188.6 189 189.3 189.3 186.1 183.6 179.6 175.3 170.7 165.1 158.5 155.5 152.7 151.1 149.4 148 143.9 136.8 128.5 128.5 122 116.4 112.2 107.3 99.5 94.5 91.4 83.5 80.9 79.6 82.5 82.5 82.6 82.5 84.7 86.6 88.4 90 90.6 91.9 94.9 100.3 103.6 106 108.4 114.9 123 130.1 143.7 159.4 176.7 195.7 216.4 245.1 286.7 354.7 389.8 407.9 420.6 439.8 462.8 487.5 506.8 521.4 538.6 560.5 592.4 619.8 631.6 636 638.1 639.2 637.7 630 626.4 620.4 613 603.4 589.3 575.9 564 552.1 540 527.3 509.1 486.2 472.9 468.1 461.8 454.1 446 438.9 432.5 426.4 416.3 393.6 367.2 345 330.5 316.5 306 302.2 295 287.7 278.7 269.2 262.4 253 243.1 233.8 222.5 215.3 205.7 196 186.7 165.8 171 175.4 170.7 162.9 152.5 141.7 129.8 121.7 109.7 102.6 91.1 79.6 67.7 65.1 62.2 55.4 48.7 40.9 38 29.3 21.5 15.2 12.9 11.7 9.9 8 8.3 12 11.9 10.1 9.3 10.1 11.9 12.2 1.8 1.3 -1.6 -1.6 11.7 13.6 12.9 12.8 11.6 10.3 11 11.8 10 7.9 -1.6 2.3 5.4 2.2 1.6
205.5 207.2 210.9 214.7 217.6 219.5 220.4 221.9 220 220.2 225.6 227.4 223.4 221.8 218.6 211.2 207.3 203.3 199 200.1 200 202.9 201.4 202.1 199.6 199.6 196.8 197.4 195.5 193.4 192.5 191.4 192 188.9 189.2 187.3 185.6 183 179.4 174.1 167.9 161.6 157.2 153.5 150.8 147.5 144.2 141.8 140.4 137 129.1 124.5 117 114.1 106.2 99.7 97.5 93.7 90.2 82.5 79 80.3 83.2 83.3 83.3 83.2 85.3 87.4 89.6 90.5 91.5 95.9 100.4 102.6 103.7 105.9 110.8 116 124.3 135.8 148.6 166 180.3 202.6 228.7 270.5 332 342.1 363.4 403.7 427.2 451 474.5 499 517.4 532.8 561.2 593.1 620.4 628.6 633 635.2 636.3 634.4 629.5 626.1 621 611.9 602.3 592.7 581.8 568.7 556.1 542.4 526.6 509.8 488.8 468 449.6 437.1 429.5 418.8 410.5 403.5 397.9 388.1 368.9 347.5 333.4 317.3 308.2 302 296.4 287.4 281.2 273.3 263.3 256 248.6 238.9 227.5 218.8 210.4 201.6 192.5 174.7 183.1 184.4 179.8 174 163.2 149.9 141.3 129.5 117.6 106 96.5 85.9 78 69.7 61.6 52.8 50.4 46.9 38.4 31.8 25.8 19.2 15.7 13.6 12 9.4 6.9 13 12.5 11.5 10.6 11.2 12.6 12.5 11.7 6 13.4 14.1 13.9 14.2 14 13.7 12 10.3 10.3 -1.6 -1.6 -1.6 -1.6 -1.6 2.8 7.7 5.7 4.1
208.7 210.6 215.6 219 222.5 224.4 223 223.2 223.8 226.2 229.1 228.1 226.8 226.6 220.5 212.7 205.9 202.2 202.8 202.5 200.3 201.3 203.8 208.7 206.3 204.6 204.1 202.5 202.3 199.8 197.6 195.1 192.9 190.1 189.6 188.8 187.6 185.8 183.6 177.5 172.2 165 159 151.5 149.5 147.7 146.4 145.6 145.5 139.5 134.4 126.3 122.4 116.9 109.9 103.9 100.8 97.6 97 88.6 83.4 78.5 81.9 83.9 84 83.5 85 86.3 88.6 90.2 91.9 93.7 98.9 101.5 101.6 104 107.6 114.7 120.1 130.7 141.2 156 170.3 190.6 216.6 247.5 274.2 311.8 336.9 369.3 405.5 438.1 469.4 493.6 520.5 539.3 564.1 593 618.8 625.9 630.2 632.6 633.6 631.8 629.3 625.2 615.9 608.8 601.8 595.2 583.6 571.3 557.7 542.6 526.4 508.3 491.3 474.7 456.8 437.8 421.2 407.6 393.7 380.3 369.1 360.7 347.3 333.7 319 309.5 303.1 293.1 285.5 277.3 271.2 265.2 258.6 251.9 242.8 232.4 223.3 215.7 206.2 196.7 181.4 190.3 192.8 187.9 182.5 171.8 159.3 148.7 138 124.7 111.8 101.5 91.3 83.1 73.8 67.3 62.3 52 43.1 41.1 33.9 29.5 23.2 18.1 15 13.2 11 9 8.4 12.7 12.7 12.3 11.5 11.7 9.9 13 13.9 13.9 13.4 13.8 14.8 15 14.4 12.3 10.3 10.3 12 -1.6 -1.6 -1.6 -1.6 -1.6 -1.6 -1.6 4.8 5.4
211.6 213.7 218.3 221.3 225.1 226 225.4 223.9 227 231 232.3 233.3 233.7 231.4 225.5 222.5 210.1 203.5 203.2 207.6 202.7 200.5 205.4 212.4 212.4 211.6 209.7 205.7 205.6 203.5 199.5 194.6 192.3 192 193.8 194.3 191.1 187 184.4 180.2 173.3 169.5 163.2 158.1 155.2 152.9 151.6 148.9 145.7 142.3 134.3 128.3 125.3 121.1 113.8 105.8 102.2 100.7 98 94.4 88.3 82.9 78.8 82 84.7 84.4 84.8 85.7 87.2 89.7 91.7 92.5 96.6 99.1 99.6 101.9 107.3 113.7 120.4 126.1 135 147.9 161.8 179.2 203 227.2 252 287 326.1 367.7 404.4 439.6 470.1 496.2 520.6 544.2 567.5 597.4 617.6 623.3 628.8 630.9 630.8 629.7 626.1 622.8 612.5 604.9 600.6 592.8 581.6 569.7 555.6 539.4 524.4 509.4 493.4 478.7 467 455.9 445 433.2 418.4 399.9 377.9 360.2 342.3 326.9 314.3 301 290.6 282.4 274.8 267.4 262.5 256.9 252.1 245 235.9 227.9 219.3 210.4 202 187.1 192.7 201.5 197.5 191 183.2 169.8 158 147.8 133.8 120.7 110.1 98.7 91 81.9 73.6 65 56.5 50.5 40.3 30.4 29.2 25.1 20.3 18.7 14.3 12.5 11.5 10.3 8.9 9.9 11 11.6 12.9 13.4 9.8 13.2 13.8 9.8 14.6 14.6 16.8 16 15.3 14.7 14.2 13.1 -1.6 -1.6 -1.6 -1.6 -1.6 -1.6 -1.6 -1.6 8.3 6.6
213.2 215.3 219.6 223.3 226.5 229.2 230.3 230 232.8 235.8 238 239 239 234.8 234.7 228.9 218 216.1 213.6 205.7 208.4 216.2 216.3 218 217.9 215.6 214.6 212.3 207 206.6 201.1 199.8 198.2 194.3 196.1 198.9 195.7 189.3 184.7 179.2 174.7 172.2 168.3 164 160 158.2 158.6 154.1 149.1 141.2 135.1 129.6 125.9 122 117.9 110.8 105.4 100.5 99 97.3 91 87.2 83 79.7 79.1 84.2 83.9 85.1 85.6 88.9 91 91.8 92.6 96.8 97.9 99.7 103.5 109.3 114.5 117.8 125.3 138.8 153.9 173 192.9 218.6 250.2 288.4 322.7 358.8 396.6 434.4 469.5 500.8 526.6 551.8 575.5 603 617.4 623.6 627.8 629.5 629.6 628.7 624.6 616.7 606.2 601.9 594.3 587.5 578.3 564.1 549.2 536.7 523.5 509.8 496.5 484.6 474.8 466.7 461.7 453.9 439.5 411.2 383.3 364.1 348.4 327.7 311.2 296.9 286.4 276.8 269.6 264.4 259.9 253.8 246.1 239.1 231.2 221.7 211.9 203.3 193.3 203.3 209.6 208 203.3 193.7 182.2 169.2 157.3 145.3 132.3 119.7 107.1 98.1 89.3 81.9 72.1 63.3 51.5 43 34.2 30.5 26.5 22.3 19.4 17.3 15.5 13.9 12.6 11.2 9.7 7.3 9.6 12 12.6 13.1 9.8 12.6 9.8 9.8 12.6 14.8 13.8 14.4 15.1 14.9 14 13.4 -1.6 -1.6 -1.6 -1.6 -1.6 -1.6 -1.6 -1.6 9.7 8.5
215.8 217.8 220.9 224.4 228 230.9 234.9 240.1 243.8 244.4 246.3 246 244.9 242.7 238.6 233.8 230.7 226.4 218.3 213.9 219.1 225.6 226.6 222.8 220.1 219.7 218.8 215.6 212.1 206.2 207.1 206.5 205 203.1 199.3 200.3 197 189.9 184.6 181.7 179.4 177 175.7 169.4 164.6 162.5 160.3 156.4 147.7 142.9 136.6 130.8 125.8 120.8 116.5 112.1 107.9 101 99.8 98.1 92.1 87.1 83.7 79.8 81.5 78.7 83.3 83.5 84 87.5 89.4 90.6 91.4 93.7 95.2 97.8 99.8 106.2 110.3 114.6 123.4 135.4 149.1 165.1 189 216.4 247.5 282.3 318.1 346.5 393.5 436 474.1 504.4 532.9 558.8 581.2 605.9 618.5 624.9 627.9 629.7 629.3 627.8 621.4 609.4 602.6 598 588 581.7 569.7 555.9 542.7 531.9 520.6 508.7 497.2 486.8 480 471.8 467 459.9 448.5 421.5 389.8 359.3 337.4 318.9 303.2 293 284 275.7 269.1 262.8 255.5 253 248.7 237.9 230.5 221.8 209.4 200.5 213.6 220 220.8 215.4 205.9 196.4 182.6 168 159.1 145.2 132 118.3 107.1 95.2 88.7 80.7 68.3 57.4 48 38.3 31.5 27.1 24 22.1 19.9 17.5 15.8 13.7 12.1 10.8 10 8.8 10.1 14 12.4 9.8 9.8 9.8 14.6 12.8 10.3 14.2 10.3 9.1 9 11.3 12.6 11 -1.6 -1.6 -1.6 -1.6 13.5 10.1 8.3 10.7 10.7 9.9
218.1 220.4 223.8 228.3 230.1 236 241 247.3 252.3 255.2 256.3 255.4 252.2 247 238.2 237.1 239.3 236.5 227.7 227.4 231 227.7 231 228.5 224.8 223.1 220.7 222.4 220.1 213.1 207.7 209.1 208.3 207.7 205.6 198.6 195.5 189.8 188.8 188 185.5 182.1 180 176.2 166.3 161.9 159.2 155.8 151 144 140.8 134.9 129.6 122.6 117.1 114.2 109.5 102.4 98.8 98.6 96.2 87.7 84.9 86.2 80 78.7 78.7 84.8 86.9 87 89.1 90.5 92.4 93.8 94.7 95.5 97.9 102 105 112.2 120.2 129.4 142.4 158.9 183.4 211.3 243.1 273.1 305.4 339.4 375.8 433.5 472.3 508.7 535.9 561.8 580.6 608.9 618.9 624.3 627.4 628.9 627.8 626.2 612.9 606.4 597.6 590.9 581.1 571.9 559.6 546.8 535.7 525.5 516.4 507.6 497.5 490.6 481.1 474.9 466.8 457.9 447.7 409.7 375.4 347.6 326.5 312.2 303 290.4 280.7 274.2 267 261.3 257.6 253.2 246.3 240.3 231.1 220.5 215.9 227.4 231 231.8 226.7 217 209.2 197.4 181.8 170.2 160.3 144.4 129.9 117.3 106.2 97.1 89.6 79.5 67 54.1 44.3 36 32 28 24.3 20.9 18.6 17 14.2 13.1 11.8 10.8 9.7 9.4 11.5 12.6 12.6 9.8 9.8 10.8 13.2 14.2 12.8 9 10.2 8.6 7.6 7.5 10.5 9.4 -1.6 -1.6 -1.6 -1.6 9.9 7.6 7.6 11.9 10.9 9.5
217 220.2 225.8 231.4 236 240.5 248 253.7 257.1 261.6 264.4 262.1 260.3 257.3 251.8 247.5 246 243.1 239.2 236.3 234.7 230.8 228.9 229.8 229.8 224.1 224.5 223.1 222.4 217.3 215.2 212.3 212.8 209 204.8 201.4 195.3 194.2 196.9 196.6 189.9 188.2 181.3 176.7 168.9 163.6 157.8 153.3 149.1 145.2 144.7 138.7 133.6 126 119.6 111.3 109.2 108.1 102.5 103.9 101.3 95.3 86.4 87 81.5 81.9 83.6 83 86.2 88 89.8 92.3 93.4 94.1 94.1 93.6 95.7 98.6 103.6 111.8 116.9 122.7 137.4 154.4 176.8 204.3 235.1 266.6 297.2 330.5 363.4 415.2 472 507.9 536.3 555.1 581.8 609.9 618.2 624.1 626.7 627.1 625.4 619.8 608.9 601.4 588.5 578.9 570.1 560.6 551.8 540.3 531 521.8 512.7 505.7 498.7 490.3 481.2 473.8 464.5 454.8 429.8 393.9 362.3 336.6 321.2 307.8 295.9 286.2 278.7 271.4 265.5 262.8 261.3 256.9 250.8 242.4 228.1 223.2 235.8 240.7 241.4 238.4 228.8 218.8 210.9 194.3 180.1 167.4 156.3 139.8 127.8 112.4 109.7 100.4 90.9 77.9 62.7 50 44.8 38.2 31 25.5 23.2 21.1 18.8 16.3 14.5 12 11.8 10.4 9.7 9.6 10.7 12.5 13.1 10.9 9.8 14.9 12.7 12.6 12.5 10.3 10.2 11.9 8.5 8.5 7 -1.6 -1.6 11.6 15.4 14.9 12.5 7.8 11.1 12.2 11.5 10.2
217.4 223 230.9 236.3 239 245.4 253.6 260.3 265 269.8 272.9 272.6 269.6 265.8 261.7 255.8 250.7 248.7 246.8 245.8 243.1 238.9 235.5 230.5 232.6 231.5 226.7 225.4 222.9 220.8 221.1 220 212.1 208.8 205.8 201.2 198 195.5 195.9 198.9 193.1 188 184.6 177.9 174.1 167.4 162.5 159.5 154.2 148.9 145.6 139.7 135 129.2 125.7 116.9 112.7 110 105.6 101.7 94.4 90.4 88.4 85.7 83.3 85.1 84.8 84.4 86.1 90.1 91 91.9 92.6 93.5 93.8 92.1 95.3 100.1 104.8 107.7 110.4 118.5 132.1 149.5 168 193.1 221.1 255.2 283.5 315.9 351.9 416.9 467.8 496.6 515.1 546.9 581.6 609.9 617.8 623.3 624.3 624.1 619.7 610.2 603 592 583.5 576.1 563.5 554.9 545 536.6 528.3 518 508.4 503 494.8 486.9 478.5 469.2 458.5 439.3 406.6 377 348.6 325.2 312 301.2 292 284.2 277.6 271.6 269.4 267.1 264.6 258 249.5 233.6 244.5 247.4 248 248.1 243 235.3 225.7 219.8 209 193.7 176.6 163.3 152.7 139.7 124.2 123.2 124.4 122.2 107.6 87.7 71.5 56.4 40.4 33.3 28.9 24.2 21.6 19.9 17.8 15.6 13.6 12.5 11.2 10.4 9.3 9.5 8.4 10.8 12.5 11.9 13.2 13.1 12.6 12.7 13.3 11.4 13.5 16.1 13.8 10.3 -1.6 -1.6 12.5 13.9 17.1 14.6 12.3 11.9 12.9 13.3 12.8 11.4
219.8 225.1 234.9 241.4 244.3 251.2 260.8 268.1 274.2 278.2 283.7 282.3 277.1 273.8 270.7 267.4 261.5 254.4 251.5 250.9 250.3 245.4 239.1 235.1 234.8 233.5 231.2 225 223.9 224.9 221.3 219.2 214.1 211.1 211.1 205.8 204.8 200.4 197.8 196.5 192.7 189.7 186.7 182.4 178.8 171.9 169.1 164.5 159.6 152.4 144.4 140.7 136.4 132.2 127.2 121.8 117 111.7 107.1 101.1 93.6 89.1 87.5 84.8 84.2 86.1 86 85.4 84.1 88.7 91.3 91.9 92 92.7 92.7 93.2 96.5 100.9 102.7 102.8 105.7 114.4 126.6 142.2 160.9 184.9 209.5 242.7 276.2 314 349.9 377.4 431.2 475.6 523.4 546.8 579 607.1 615.2 618.6 618.5 612.2 607.5 605.3 600.4 588.2 581.2 571.4 559.7 549 541 535.1 526.6 513.4 499.4 488.5 485.4 480.2 471 460.5 448.5 412.6 384.7 357.6 333.3 319.5 307.9 297.3 289.6 282.8 279.3 275.4 273.9 271.1 267.1 259 241.9 251 254.6 254.3 252.8 246.6 238.1 230.2 224.8 218.9 208.1 192.3 176.1 160.9 149.4 134.7 141.1 145.1 143 138 114.8 93.2 75 57.6 42.3 31.4 26.4 22.5 19.2 18.4 16.6 14.7 12.8 11.9 10.8 10.3 9.6 9.5 9.4 9.6 11 12.1 12.6 11.6 11.5 13.2 18.3 15.1 14.8 14.8 13.2 11 7.8 4.7 10.3 17.8 17.1 15.7 15.8 15 14.6 14.1 13.7 13.1
224.9 231.9 238.6 246 249 257.6 267.8 275.6 280 288.5 293.7 292.3 285.7 280.8 277.5 274.7 270.2 265.4 258.3 253.5 250.7 246.1 243.3 240.9 238.4 232.4 229.6 227 224.1 226.1 226.3 219.3 215.7 214.3 214.8 212.3 212.2 206.7 201.5 200.2 196 194.9 192.8 189.7 182.7 174.5 170.6 166.7 163.5 156.4 147.5 141.7 136.5 132.7 127.8 123.7 119.6 112.2 105.4 98.8 92.6 90.6 88.5 87.7 86.6 92.6 88.2 87.6 85.7 87.5 89.8 91.2 91.4 91.6 90.4 94 96.7 99.1 98.7 99.2 104 111.5 121.7 134.1 150.5 170.9 198.2 226.2 263.5 298.5 327.1 365 424.3 467 507.3 543.8 571.8 601.6 610.4 612.8 609.4 606.7 605.8 604.4 597.6 585.7 575.8 566.2 557.5 545.9 539.8 533.6 523.4 511.7 496 477 467.1 464.4 458.2 445 422.1 388 363.2 339.7 327.5 316.3 303.8 296.3 291.7 288.3 283.9 279.5 276.3 272.8 266.2 252.5 261.1 260.5 257.8 255.6 251.2 243.4 236.6 229.6 223.7 217.4 204.3 188.3 173.2 162.6 141.6 153.1 163 165.1 161.5 148.2 123.3 99.1 76.4 59.2 44 28.5 23.1 18.9 16.4 16.6 15.4 13.8 12.3 11.3 10.5 9.8 9.7 10 9.8 9.6 10 9.8 10.8 9.9 10.4 11 15.8 15.2 14.7 14.8 12.9 10.8 9.2 14.1 16.7 18.3 16.7 15.3 17.3 16.6 14.3 12.5 14.9 16.3
230.2 238.2 245.7 250.4 257.5 266.5 273.1 280 285.7 292.4 298.1 293.5 291.3 288.4 287.2 280.3 275.8 271.1 267.2 262.2 255.4 250.5 249.9 246.2 238.6 236.1 228.3 226.2 231.3 230.2 225.9 221.8 217.3 215.4 216.7 217.8 224.3 220.8 215.2 207.1 204.4 198.7 195 194.9 187.2 177.7 172.2 168.4 163.8 156.5 151.9 144.8 140.3 135.1 129.6 123.6 115.9 111.7 107.1 102.2 98.6 94.8 93.7 93.9 90.7 91.9 91.2 89 84.5 88 89.1 89.5 90.1 90.2 89.5 93.7 95.8 97.5 96.8 97.3 103.7 107.8 117.3 127.2 142.2 160.4 184.7 212.5 239.3 277.4 314.1 351.2 404.1 448.5 492.3 527.3 560.9 584.4 597.8 607.6 607.1 605.5 604.6 599.9 592.8 583.3 574.4 565.5 556.4 547.5 538.7 530.3 519.7 508.4 492.1 478 459.5 446.3 433.7 421.4 398.2 366.2 346.6 331.1 321.6 311.2 304.8 299.7 296.4 291.7 285.7 281.4 276.1 272.1 257.9 266.5 265.1 260.2 256 253.1 248.5 241.7 235 225.8 222 213.5 202.4 186.6 174.1 153.5 156.8 175.8 184.9 185.1 184.2 161 131 105 80.2 62.9 44.5 29.5 19.7 16 14.5 14.4 13.4 12.4 12.1 10.9 10 9.3 9.3 9.8 10.2 10.3 10.1 9.8 9.5 9.3 9.7 10.5 14.3 16.4 14.9 15.4 16.8 15.8 15 20.4 19.3 18.9 21.3 25.8 34.2 31.8 30.6 61.4 59.5 58.8
235.9 243.8 250.6 255.7 265.7 271.5 279.6 287.6 296 297 296.7 297.7 298 301 291.3 285.7 279 273.3 268.4 264.5 260.2 253.9 250.1 245.7 241.6 234.6 238.9 234.4 234.6 230.1 224.6 221.6 220.3 219 220.3 223.8 229 236.4 225 217.5 212.9 204.7 199.6 193.8 187.4 181.7 177.4 171.3 165.1 160.8 152.5 144.7 141.1 137.2 131.4 126.7 120.4 115.5 110.6 107.6 100.6 99.3 98 97.7 98.2 97.4 93.5 90.2 86.5 85.4 85.2 87.9 89 89.1 87.1 91.2 95.1 95.4 94.9 96.3 99.1 105.3 112.7 121.7 138.2 155.9 179.1 203.7 233.5 271.4 310.2 346.7 383.9 438.7 475.5 512.4 539.7 555.9 574.7 598.8 606.7 605.7 601.9 595.3 591 583.1 575.4 565 555.6 544.5 536.8 527.6 515 503.6 493.5 484.5 467.9 451.3 429.5 404.1 371.7 357.1 343 330.6 320.7 311.4 305 301.9 296.3 291.2 284.6 280 272.5 267 272.1 268.1 263.4 259.5 255.1 250 245.7 238.8 229.9 223.4 219.7 213 201.1 186 165.9 155.1 186.1 200.6 206.5 202.7 194.6 168.2 137 111.1 86.1 67.6 46.8 31.2 19.2 13.1 12.8 12.7 11.6 10.7 10.6 10.4 9.7 8.8 10.5 10.2 10.7 9.9 10.9 11 9.7 9.9 9.5 9.8 10.5 11.1 12.2 18.7 19.2 21.7 26.4 35.1 41.6 57.5 68.4 78.5 88.8 84.7 96 92 92.2 83.2
240.8 248.5 253.9 260.2 267.2 274.1 285.3 293.9 304.6 303.8 300 301.8 302.3 302.4 298.2 292.1 284.9 278.3 271.2 265.1 259 253.4 249.8 245.5 242.4 244.9 245.4 240.9 235.4 236.7 234.1 226.2 221.1 223.3 225.7 228 231 234.3 229.1 222.5 216 209.7 201.8 195.8 190 185.5 181.9 175.4 168 162.7 156.8 150.7 145.2 138.4 132.1 125.2 122.4 117.5 114.5 109.4 104 102.5 100.3 100.2 101.3 100.3 97.4 95.3 89.7 88 88.2 89.8 90.1 89.8 87.7 88.5 91.6 92.3 92.5 94.6 96.1 101.6 108.8 117.1 137.9 148.6 169.1 199.4 230.1 273.2 317.5 340 376.2 417.4 457.4 489.4 504.8 527.4 558.8 590.4 609.9 607.3 602.2 592.8 587.5 580.1 571.8 562 550.4 540.2 533.7 523.9 514 502.3 494.2 482 471.6 453.4 422.6 391.5 365.7 352 338.7 329.3 321.7 313.3 305.6 301 296 289.6 282.6 278.7 278.6 276.8 273.1 268.1 267.4 264.2 258 251 240.6 232.5 225.9 221.7 217.8 209.5 196.6 178.6 172.7 189.2 205.9 215.4 217.2 206.8 193 176.7 157.9 129 98.1 72.9 50.6 32.7 20.6 11.7 11 11.1 10.9 10.4 10.4 10.2 10.2 10.7 10.3 10.8 10.4 11.1 11.4 10.8 8.8 10 9.8 9.8 10.1 10.7 13.9 22.8 23.9 31.9 53.3 75.7 100.7 126.1 108.3 124.7 140.1 140.2 123 122.9 134.5 135.8
246.2 252.1 257.5 263.6 269.9 276.4 286.8 297.5 301.9 304.5 302.8 302.5 302.7 303.2 298.6 295.5 288.7 279.4 279.6 275.7 266.6 252.5 249.3 254.5 248.4 248.9 246 245 250.5 246.9 238.5 237.5 238.8 239.5 234.1 232.6 233.1 234.9 231.7 225.7 220 210.9 207.5 200.5 194.2 189.5 185.1 178.6 172 163.9 157.5 150.8 147.6 139.6 133.6 132.7 126.6 121.1 118.3 111.9 107.7 107.1 105.9 102.7 103.9 105.5 101.4 98.8 92.3 91 92.4 91.1 90.4 90.3 89.6 88.4 90.8 91.4 92.7 93.6 96.5 100.3 106 111.7 122.4 137 161.5 198.6 235.1 267.9 306.3 326.7 364.9 397.5 415.9 451.6 493 530.8 560.9 586.9 606.2 603.9 599.3 590 582.4 573.6 566.2 554 542.7 535.7 527.9 518.9 510.1 499.7 491.9 480.7 469.4 448.2 411.4 385.1 361.7 346.8 336.6 327.8 319.9 311.5 306.1 300.8 295.5 288.3 288 287 283.4 278.3 275.5 274.2 269 262.3 256.2 244.7 237.2 231.1 225 219.3 214.7 205.4 185.6 188 201.3 214 222.7 223.1 216.7 206.7 189 175.8 161.4 140.2 105.3 76.4 55 36.1 21.4 11.3 10.6 10.7 10.6 10 11 11.3 11.3 10.6 10.2 10.5 11.1 11.4 11.3 11.1 9.7 9.4 8.8 10.2 9.8 10.1 17.1 24.1 29.1 52.7 93.1 121.3 166.9 184.8 177.3 186.9 177.6 159.8 158.7 158.5 170.5 176.3
250.8 255.7 260.9 266.5 272.6 279.6 288.4 296.1 302 306.5 307.1 306.3 303.8 302.8 300.4 295.7 288 285.5 283.6 272.2 266.6 267 262.6 263.3 263.5 263.2 261.9 252.2 250.7 251.5 252.4 250.2 247.5 244.5 244.4 246.7 240.8 233.8 232.6 225.4 219.3 212.2 205.7 202.7 197.9 194.2 187.4 178.5 175 167.2 158.2 153.5 148.9 144.2 141.1 134.2 128 125.3 121.8 115.8 110.9 110.6 109.5 106.4 105.7 106.9 107.8 104 100.1 95.5 96.9 92.8 91.8 90.9 89.4 91.9 92.8 91.8 91.6 93.9 95.1 98.4 100.4 103.3 116.1 133.5 155.4 188.5 226.5 250.3 288.5 315.7 335 373.6 415.8 457.6 493.5 529.5 560.4 581 592.9 593.4 588.6 583.6 575.1 566.7 556.1 543.2 536.6 528.9 524.1 516.6 507 497.4 487.2 475.9 460.8 431.8 401.5 375.1 357.4 343.4 333.2 325 316.6 310.5 305.1 300.2 296.3 295.4 294.5 291.7 286.4 282 280.5 273.4 265.8 260.6 251.9 244.9 238 229.5 221.6 218 212.7 195.9 190.9 211 218.6 228.6 227.7 223.1 217.6 201.7 186.8 173.6 160.4 144.1 108.1 80.2 58.4 40.1 21.5 11.5 10.9 11.2 10.9 10.9 11.2 12.4 12.2 11.7 11 9.2 10.9 11.3 11.3 10.9 10.6 11.2 10 8.8 9.6 9.6 21.1 27.3 49 93.9 150.6 187.2 209.7 218.7 214.3 209.1 203.2 206.7 204 193.2 191.9 198
255.6 260.4 266 272.5 277.7 282.8 289.1 296.1 302.2 305.8 307.3 307.3 305.8 304 297.1 291.3 287.5 284.3 281.8 273.7 277.7 270.9 265 263.3 263.3 262.2 270 274.9 273.5 266.9 260.7 257.3 253.7 251.7 250.6 251.2 246.4 238.3 229.8 223.7 218.1 212.3 208.4 204.8 197.4 197.2 187 180.5 176.7 174 167.6 160.3 153.2 151 145.3 137.1 130.9 127.8 124.4 119.1 116.3 113.6 111.8 110.4 108.1 108.5 110.1 106.2 106 98.8 100.5 98.2 92.6 91.6 90.7 91.3 92.3 92.9 93.1 93.1 94.4 97.2 97.9 101 110.9 130.1 152.1 177.5 207.4 244.2 268.3 293 328.2 365 412.4 447.1 488.1 519.7 548 568.4 579.7 581.8 580 576.7 572.1 561.5 547.6 537 528.7 525.7 520.8 514.1 504.6 494.4 484.1 471.1 445 413.6 385.7 367.9 353.3 340.4 330 323.6 318.5 313.3 309.2 305.3 304 302.4 299.5 294 291.1 286.6 279.8 271.7 267.1 257.5 251 244.5 237 227.1 222 213.2 198.9 195.9 214.5 221.8 232.1 234.2 231.4 223.8 212 194.3 180.9 171.7 160.2 144.4 120.8 84.1 63.6 44.4 24.1 14.1 12.3 12.7 13.4 13.4 13.3 13.6 13.2 12.5 11.1 7.9 11 11.1 10.9 10.8 10.9 11 10.1 9.8 9.8 9.8 24.6 36.4 66.7 157.1 215.1 236.6 240.3 235.7 229.7 231.7 250.3 238.4 223 215.8 208.1 203.4
258.4 264.2 270.3 275.3 282.2 287 292.4 298.2 303.4 306.7 308.8 308.6 307.6 304.3 301.2 295.7 288.9 283.9 280.6 276 277.4 281.8 276.6 282.4 284.6 283.8 284.8 287.4 286 280.5 274.2 269.1 264.6 260.1 257.4 255.9 251.4 241.1 232.1 223.2 221.1 216.9 217 213 210.9 205.2 199.3 190.5 183.9 180.5 172.6 165.9 159.1 153.3 147.9 141.2 135.5 131 126.5 122.9 120 117.9 116.8 113.8 110.8 109.3 112 110.8 109.2 102.6 100.8 100.5 95.5 93.4 92.1 91.8 90.1 92.7 93.9 93.5 94.2 95.5 97.3 100.7 109.6 128.3 148.8 170 200.6 230.8 253.2 280.8 315.5 360.2 405.9 444.4 474.7 504.7 520.7 543.6 569.8 577.5 576.4 572.5 566.3 556.1 540.2 530.5 527 521 516.6 510.6 499.2 490.6 477.5 456.3 424.4 400.3 379.3 362.7 350.9 341.4 332.7 328.9 322.7 318.6 315.9 312.8 312.7 308.9 300.4 295.2 290.5 287 278.7 273 263.3 254.9 249.8 241.1 235.8 226.5 224.5 222.2 217.6 219.2 224.4 234.9 239.4 236.5 231.1 221.5 208.2 192.6 178.9 168.1 156.7 140.8 120 92.3 65.1 44 27.1 19.3 16.3 15.4 16.1 15.4 13.7 14.7 14.1 12.9 11.8 10.6 10.9 11.5 11.4 11.3 11.2 11.4 8.8 10.1 10.2 12.3 27.7 51.1 92.2 184.8 228.4 234.5 236.1 243.2 250.6 257.4 258.1 248.4 236 226.6 214.6 210.2
261.4 267.7 273.8 278.6 285.5 291.6 295.7 301 305.5 308.5 310.3 311 309.8 309 307 301.6 293.4 285.2 283.7 291.1 292.4 291.6 293.5 295.3 294.8 298.1 301.8 299.4 295.6 288.8 285.4 279.6 273.3 266.7 261.9 262.7 255 246 240.5 234.2 229.6 226.2 225.7 226.4 226.5 223.1 209.3 198.6 191.4 186.2 177.8 169.2 161.9 158.1 150.2 146.1 143.7 135.7 130.4 124.9 122 121.2 118.8 116.6 111.8 110.5 111.3 115.7 113 108.2 102.2 100.9 99.3 94.8 93.9 93.8 92.1 90.6 93.7 94.6 95.5 95.8 97.4 100.7 108.3 123 144.4 170.5 191.6 213.9 239.9 269.5 302.2 349.5 384.6 425.1 464.3 475.1 495.3 526.5 555.6 572.3 566 563.2 558.4 549.8 538.6 529.2 524 518.6 512.4 502.6 491.6 481.3 463.3 436.1 411 388.4 371.8 360.1 349.6 343.5 342.1 336.7 327.3 322.8 320.9 320.7 319.3 313.1 305.2 294.5 293 285.5 278.9 270.1 261.6 252.3 247.2 242 234.6 236.4 234 229 229.8 233 239.2 243.6 241.8 236.4 228.8 217.2 204.3 188.7 175.6 162.2 149.8 138.7 123.4 107.3 73.9 49.5 30.8 25.7 21 19.4 19.4 16.1 16.8 15.2 14.7 13.6 12.3 10.9 11 11.7 11.7 11.6 11.4 10.6 8.8 10.2 10.9 17.2 36.9 65 137.9 204.3 222.7 227.9 236.9 253.8 259.3 279.7 272.8 258.6 243 233.3 220.3 207.9
264.5 269.8 276.4 282.2 288.4 295.1 298.6 303 307.2 310.4 312.6 312.8 311.8 311.1 309.2 305.1 299.3 292.2 291.2 293.3 295.6 296.2 299.8 300 300.9 302.1 304.8 304.5 300.8 296.5 292.3 288.5 278.1 278.5 272.3 266.7 256.1 252.3 241.9 238 237.9 241.9 246.7 243.5 236.8 227.5 218 211.6 203.9 193.5 185.6 176.3 168.6 163.2 154.9 151.5 146.8 141.7 133.8 128.6 123.5 122.1 118.7 116.1 113.9 113.1 112 118.1 119 112.7 105.8 103.1 101.8 98.2 96.8 95.3 93.9 90.5 93.6 94.7 95.6 96.4 96.7 100 108.7 123.2 139.6 156.1 174.9 200.3 231.8 257.8 286.2 318.7 358.7 401 429.1 445 482.9 515.6 545.9 567.7 559.3 554.9 550.3 542.2 534.5 528.2 521.8 514.5 504.9 492 479.5 467 444.8 423.9 403 384.1 369.7 360.6 355 356.7 360.4 352.6 342.3 333.2 327.2 324.6 318.1 310.9 305.3 300.1 292.8 282.9 274.7 266.8 258.9 250.7 247.7 244.7 245.1 248.2 242.4 242.6 242.9 244.6 245.4 246.8 242.3 235.3 228.2 213.4 196.8 181.6 167.5 159.9 150.7 135.3 120.7 107.6 87.4 58.1 39 30.4 24.8 23.9 21.9 22.1 20.3 18 15.7 14.7 13.8 12.2 10.9 11.8 11.9 11.6 10.9 9.2 10.2 10 11.6 21 49 87.3 162 202.3 217.5 218.9 249.5 269.2 283.9 276.6 270.4 250.4 236.7 226.4 210.7 194.9
265.8 272.1 278.9 285.1 290.5 297.6 302.7 305.9 309.9 313 312.5 312.9 313.6 313.8 312.2 309.7 306.3 297.5 294.7 302.2 303.2 304.1 305.1 304.8 306 305.7 305.5 303 299.9 294 290.7 289.9 286 281.3 274 267.9 264 254.6 251 250.4 258.2 257.5 255.7 251 242.8 234.3 227.9 220 210.4 202.6 193.5 181.8 173.4 166.3 159.9 156.6 151 143 136.4 131.9 127.3 123.7 120.2 117.5 114.3 113.4 113.8 115.6 121.3 117.1 110.4 105.2 103.5 103.9 104.6 102.1 96.1 94.4 93.4 94.4 95.4 95.8 96.3 100.3 108.1 119.6 130.7 144.3 162.7 185 218.2 250.5 275.9 300.5 341.1 365.7 400.5 444.5 486.8 509.2 537.2 564 557.1 551.6 547.8 538.2 532.2 527.7 520.2 510.6 501.8 490.8 478.5 460.9 438.8 421.5 403 390.2 378 369.7 373.1 368.1 360.3 354.1 347.3 338.9 331.3 323.4 317.8 312 305.7 298.9 288 276.5 268.4 263.5 256.5 255.4 251.6 253 257.3 258.6 255.2 252.5 253.7 249.2 250.6 249.9 246.1 238.4 226 209.7 189.5 177.7 164.9 155.2 145.8 130.5 116.6 104.2 86.1 62.5 47.4 36.9 30.4 26.5 26.9 25.9 23.8 18.2 15.8 15.1 14.9 17.2 10.7 11.7 11.6 10.8 10.3 10 10.3 10.6 14.5 29.6 63.7 121 177.5 193.6 195.6 209.3 243.6 270.4 272.4 261.3 249.6 237.2 228.4 213.3 202.6 180.6
266.6 274 281.7 289.4 294.8 300.5 305.8 308.9 312.6 315.8 314.8 315.5 315.1 315.3 313.7 311 307.5 303.3 300.4 301.3 301.1 302.1 304.7 309.7 311.1 308 303.8 303.6 301.8 303 301.6 300.4 297.9 291.3 281.5 277.2 271.3 260.3 260.5 259.9 263.8 260.6 258 255.4 250.8 247.3 240.8 229.9 221.4 209.7 197.6 186.2 178.9 170.9 165.5 161.9 155.8 146.8 139.9 134.9 130.4 125 122.4 119.1 116.4 114.8 115.3 117.5 121.3 119.5 115.6 109.6 105.7 105.6 107.3 110.2 101.2 96.1 94 93.5 94.5 95.8 96 98.9 105.4 111.4 125 135.3 155.9 174.9 203.1 235.5 265.3 288.8 316.2 350.5 390.2 441.6 472.3 492.4 521.6 550.6 558.7 552.1 546 534.7 530.8 526.8 517.4 508.2 499 489.6 475.8 457.1 434.4 416.1 403 394.9 385.5 381.8 374.5 364.6 357.3 350.6 343.2 335.8 328.5 324.4 318.6 311.3 301.7 291.8 281.5 270 266.4 264 263.5 261.8 262.2 266.9 264.2 262 259.4 258.7 254.6 253.5 255.5 254.8 248.6 246.2 223.8 203.1 185.7 170.6 159.5 149.5 139.5 122.8 109.6 98.4 75.9 61.1 50.2 39.6 31.7 31.1 30 27.3 22.2 16.9 15.8 14.1 15.4 12.1 10.5 11 11 10.7 10.4 10.5 11.1 11.8 14.9 37.2 96 139.1 175.7 186.2 189.8 205.9 226.4 241.9 245.9 247 241.4 229 222.1 211.5 188.7 172.5
267.7 274.4 282.1 290.9 299.5 304.2 309.9 313 315.1 317.4 318.9 318.8 317.4 317.9 315.5 313.5 308.9 307.6 307.5 303.7 302.3 302.2 302.6 304.5 309.6 313.1 309.3 307.8 307 306.5 307.7 306 302.5 296.9 288.8 285.6 278.5 274.3 269.1 261.7 260.2 262.7 263.5 261.6 254.4 253.5 249.2 239.5 227.9 216.2 204.5 193.3 185.9 177.5 170.8 165 158.7 151.3 143 137.7 133 128.1 124.2 120.7 118.4 117.7 116.5 117.7 119.3 119.5 116.7 112.9 111.7 108 108.2 109.9 106.5 99.1 95.7 93.7 95.6 95.8 95.4 98.2 101.2 107.2 117.5 133.2 146.2 166.9 193.7 224.8 244.7 271.7 301.9 342.6 375.9 414.6 444.9 475.8 507.5 541.9 555.9 551.9 544.5 535.3 529.9 524.8 515.7 505.4 495 484.9 473.9 451.3 427.2 414.3 401.4 391.9 388.4 379.4 369.1 360.5 352.8 346.8 341.4 336.1 332.6 324.1 318.9 307 295.1 284 278.4 271.5 270.6 271.7 269.3 275.5 272.7 268.9 266.4 265.1 266.9 262.7 259.3 258.7 262.1 256.1 256 240.2 221.1 200.5 183.6 168.8 155.5 144.6 131.7 118.7 106.6 93.8 76.9 64 50.1 40.9 35 32.6 30.2 25.7 19.2 16.6 12.9 12.4 12.3 10.2 11.1 11 10.7 10.6 10.6 10.6 10.5 10.4 14.6 45.2 98.4 154.8 169.5 181.4 184.7 197.1 210.3 225.1 233.2 237.5 237.2 230.8 219.7 204.5 185.8 180.3
268.9 275.7 283.4 291.6 301.8 307.7 311.2 314.8 317.4 319 321.1 321.9 320.6 320.2 320.3 320.5 323.7 320.1 316.2 315.1 310.7 306.8 305.7 313.7 318.4 313 312.1 309.3 308.6 310.1 309.6 308 303.9 299.1 292.9 289.5 287.9 281.4 272.8 265.4 260.7 260.2 265.6 266.2 259.8 253.6 248.5 243.8 234.3 222.3 212.2 201.9 191.2 182.9 177.1 168.5 161.1 155.6 147.4 141.3 136.5 131.1 127.1 123.5 121.2 120.4 120.3 118.6 119.2 119.2 119 115.6 112.9 110.3 108.8 109.5 112.2 105.5 96.8 94.1 94.6 95.3 94.7 96.8 98.2 103.3 112.4 128.1 138 156.1 178.8 204.2 224 259 288 321.1 354.2 396.2 438.7 471.7 499.3 530.5 549.9 552.8 545.7 536.9 529.6 521.2 511.9 500.1 490.8 479.4 467.3 442.5 428.4 414.3 401.3 393.3 383.5 374.2 365.9 357.9 350.5 346.9 342.5 339.4 333.1 321.7 315.8 299.8 290.8 285.3 281.8 283.9 284.2 282.9 283.2 279.2 275.1 273.1 271.3 271.6 272.8 269.3 267.6 269.8 262.9 262.7 258.2 238 219.1 201.4 180.9 167.5 153.2 141.7 127.7 112.7 98.4 85.8 73.7 65.1 55.1 44.5 37.9 35 28.7 22.8 17.4 14.8 12.4 11.3 9.1 11.5 11.8 11.4 11.1 10.9 10.6 10.5 10.6 10.7 13.2 42 110.2 142.1 153.6 167.3 171.7 184.5 196.6 209.3 213.8 228.8 226.6 221.7 213.6 204.2 205.3 204.2
269.2 276.1 282.8 290 301 309.3 313.5 316.9 321.4 322 323.8 324.4 323.5 323.6 325.1 324.9 326.1 326 321.1 316.1 315 316.8 312.2 309.7 312.7 316.5 312.7 310.7 310.6 311.3 306.9 304.1 301.3 299.2 295.1 294.1 292 284.4 278.1 270 266.4 265.4 270 270.9 262.6 257.9 250.1 249.3 242.5 231.2 219.1 207.1 196.3 187.4 178.6 171.1 163.7 157.4 151.6 143.6 138.9 134.7 131.2 127.2 125.5 123.7 122.9 119.7 119.7 120.8 120.8 117.8 113.4 112.6 112 112.8 116.6 118.5 108.2 96.3 93 90.8 93.9 94.3 96.8 100.8 108.2 121.8 134.7 144.1 163.1 184.3 215.1 242.7 273.6 304.2 344.5 385.3 434 464.9 488.9 513.7 540.6 548.8 543 534.3 525.1 517.6 506.9 497.1 484.5 476 467.1 441.9 424.6 408.2 398 389.8 380.3 370 361.9 354.4 351.9 350.2 343.5 333.8 326.6 317.7 305.6 296.9 293 294 292.7 292.9 289.2 292.2 286.3 283.8 280.7 278.3 278.3 278.4 278.5 278 275.4 270 270.5 264 256.1 237.5 217.8 199.9 178.9 165.7 154.4 139.3 120.8 104.3 91.8 80.6 68.9 61.9 54.7 47.5 41.3 34.7 26.9 18.8 13.1 12.7 12.5 11.5 11.3 11.8 12 11.8 11.5 11.1 10.7 10.2 10.6 10.9 13.4 40.2 103.5 124.8 132.9 140 149.1 168.9 184.2 194.3 201.4 211.9 216.2 214.6 203.4 200.4 206.9 207.8
267.7 275.2 281.1 287.9 296.5 308.6 315.1 319.3 323.6 324.1 325.9 326.8 326.2 327.2 326.4 327.6 326.1 324.7 323.4 319.9 318.2 318.7 318.3 314.7 311.7 312.4 312 310.6 310.4 307.3 303.7 302.1 301.7 301.6 303.1 301 297.8 290.6 282 277.5 271.8 270.6 271.6 270.7 264.6 258.2 254.2 250.3 247.1 234.4 223.9 211.3 203.5 191.9 183.8 175.8 168.4 161.4 156.1 148.1 142.5 137.5 133.4 130.9 128.2 126.4 124.3 121.5 119.9 121.3 120.6 118.9 116.6 116.1 113 116 116.2 118.7 127.2 100 94.6 94.5 91.7 93.6 95.5 98.8 105.5 114.1 125.6 136.4 149.8 172.4 201.8 232.2 264.3 294.8 336.2 371.6 422.3 440.8 470.2 497 524.7 542.2 538.6 530.3 521.6 513.3 503.6 494.3 487.8 475 461.4 437.9 424.1 412.7 399.8 387.6 376.7 365.7 360.2 358.5 358.4 350.4 338.2 332.9 323.1 314.2 308.5 303.9 305.7 309.4 304 301.7 298.5 292.1 288.4 288.2 287.5 283.4 284.3 284.1 285.2 282.5 279.2 275.4 272.3 264.1 256.3 241.2 216 197.2 177 164.2 152.6 137.6 116.7 97 84.4 72.7 65.2 60.3 53.2 44.3 38.9 29.5 22.4 14.6 12.8 11.7 11.3 11 11.4 11.8 12.1 12.2 11.7 11.2 10.6 10.5 10.8 11.9 16.4 41.1 88.4 112.8 122.3 129.9 135.5 151.7 171.9 183.2 197 206.4 213.8 214.7 199.3 199.1 202.1 205.7
264.1 271.9 278.2 285.2 292.7 306.2 314.6 319.5 322.9 324.9 327.1 330 329.9 331.2 331.3 329.6 328 325.6 324.2 322.2 320 320 319.9 318.2 315.5 314.8 314.1 311.3 308.6 305.8 307.2 306.5 305.3 307.5 307.4 304.1 298.5 294.6 287.7 282.8 276.6 270.6 269 267.7 269.9 261.9 256.7 252 249 240.2 228 219.8 206.9 196 187.3 178.9 172.3 166.4 160.5 151.2 145.8 141.2 137.1 134.4 131 128.2 125.9 123.2 121.1 122.5 121.3 121.1 120.4 120 117 116.9 117.1 116.4 121.8 109.7 97.6 94.9 91.4 94.4 94.4 96.7 101.6 107.9 117 126.7 136.6 159 193.3 228.7 253.3 285.2 328.1 353.6 396.6 437.6 461.4 484.7 511.1 533.3 532.7 526 517 509.5 503.2 495.2 484.5 474.5 453.5 440.8 431.3 417.2 397.2 385.8 371.7 365.4 365.9 357.5 351.3 347.8 341 337.8 330.1 326 321.6 320.4 323.9 321.9 313.3 303.6 295.9 290.9 290.5 290.2 290.5 291 291.4 297.1 291.4 290.6 287.3 279.7 272 264.6 253.9 241.2 217.3 194 177 160.2 149.2 134.7 117.4 97.2 83.1 72.7 62.3 54.6 45.6 38.7 33.2 25.9 18.1 14.2 13 11.6 11.1 11.1 11.6 12 12.4 12.3 11.8 11.2 10.2 10.7 11.1 12 14.4 33.2 64.3 103 112.9 121.2 127.7 134.3 153.2 170 189.4 195.8 209.1 213.6 201.7 207.5 208.3 211
260.2 267.9 275.6 284.6 290.8 300.8 312.5 318 321.7 324.5 326.6 329.4 331.7 332.5 333.4 333.3 330.8 327.8 324.8 323.5 323.6 324.5 326.2 324.4 320.6 319 315.9 313.5 312.1 314.7 319.5 326.1 323.6 326 331.7 329.8 321.9 310.7 300.1 291.1 280.1 273.9 271.9 278.9 293.1 285.1 274 273.7 261.4 249.3 240.2 226.6 211.8 200.1 191.3 183.4 176.4 169 162.5 155.3 149.4 144.7 140.6 137.8 134.6 130.5 127.7 125.8 123.8 123 122.6 123.3 125.3 127.4 121.6 120.6 120.7 118.5 116.3 111.6 101.5 96.4 94 93.7 95.7 95.7 98.2 104.4 110.4 119.9 128.6 151.3 187.4 221.1 242.2 269.5 305 343.4 379.1 425.1 450.7 471.8 497 522.4 528 523.5 513.9 507.8 501.3 491.8 482 471.1 454.8 440.1 432.1 420.9 392.8 378.8 371.9 368.7 364.9 357 352.3 348.6 351.9 346.8 346.2 342.3 340 337.4 329.2 321.1 307.7 301.4 297.2 294.5 294.1 293.3 293.2 299.5 300.6 303.6 299.8 298.6 290 282.6 280.6 268.7 252.5 238.1 213.8 188.6 174.2 157.5 145.6 132.4 114.9 98.3 82.9 70 58.4 51 43.4 36.7 30.1 23.7 16.2 17.6 15.5 13.9 11.5 10.7 11.7 12.3 12.6 12.4 11.8 11.2 10.6 10.9 11.6 12.2 14.3 22.5 45.2 72.4 100.9 112.9 120.7 124.2 132.6 150.1 166.1 181.5 196.3 203.2 199 207.9 218.1 224.5
258.5 266.4 272.6 280.5 286.4 295.2 305.4 315.7 321.2 325.4 327.7 331.6 333.3 335.2 337.2 337.6 335.3 331.9 327.8 324.9 325 329.2 332.8 332 329.2 325.5 321.2 321 328.2 334.3 336.1 342.1 344.7 347.7 345.8 337.1 331.5 320.8 312.8 305.7 297.5 300.1 312.3 327.7 347.5 348.4 339.5 332.4 315.2 283.7 259.8 236.7 220.7 210.4 200.3 189.5 183.5 173.7 167 160.1 153.4 148.1 143.6 140.6 137.7 134.8 131.1 128.1 126.3 125.5 124.8 126.9 132.2 134.5 126.7 125.1 122.5 121.4 118.3 115.5 106.6 99.8 94.8 93.1 94.6 94.3 94.5 96.6 105.2 114.1 125.7 143.6 166 199 234.8 255.9 304.4 333.6 365.9 411.6 439.2 457.7 483.3 507.8 522.2 518.7 512.2 505.1 496.1 488.8 478 460.5 446.4 435.5 426.6 405.7 386.6 379 373.2 368.5 361.9 358 358 361.7 360.3 363 362 355 347.2 338.4 326.8 313.4 306.1 303.6 301 295.6 294.9 296.1 300.3 310.1 308.4 311.3 306.8 300.8 293.3 290.5 285.1 273.3 260.2 236.4 212 184.8 170.2 154.5 141.1 130.7 111.6 97.5 81.4 67.8 55.6 47.4 40.2 34.8 27.7 21.5 18.2 19.4 16.5 14 10.9 11.4 11.4 17.5 17.5 13.6 11.8 11.2 11.2 11.5 12.1 12.7 14.4 23.2 37.1 57.2 84.6 102.9 111.6 114.7 115.4 129.6 136.8 156.8 173.9 187.4 194.7 205.2 219.3 221.6
252 261.3 269.4 277.6 285 297.2 303.1 306.4 318.2 325.9 327.6 330.3 334.2 338.6 342.6 342.8 341.2 339.4 338.1 336.5 344.3 344.3 344.2 339.6 335.6 332.7 334.3 337.6 347.1 355.1 351.8 353 353.4 356.3 356 344.8 339.3 331.6 325.1 319.2 324.1 329.3 350.2 371.2 385.3 379.1 370.8 360.5 350.1 331.9 302.5 289.5 273.8 246.4 222 202.4 186.9 177.4 168.1 164.5 157.4 151 148.3 143.5 141.6 139.2 133.5 131.6 128.7 128.2 129.9 130.8 133.2 132.9 130.4 130 126.3 124 122 117.7 110.3 102.1 99.3 95.8 92.2 93.6 94.3 94.7 100.2 113.4 123.3 134.7 153.4 186 220.1 250.1 287.7 322.5 361.1 393.7 426.8 444.4 468 493.3 512.6 514.2 508.8 501.1 494 489.1 482.5 457.2 440.9 429.6 416.7 398.2 386 376.6 369.6 363.5 360.9 366.5 373.8 373.5 372.9 371.4 363.4 356.3 344.8 333.2 324.5 314.7 309 306.1 304.2 299.6 299.4 305.8 312.2 314.6 319.7 316.6 309.8 301.2 299 289.2 283.2 272.2 261.5 235 215.6 185.7 168.1 156.3 137.5 124.3 109.5 92.9 77.6 67.7 54.7 47 40.4 34 28.6 23.2 20.3 20.1 17.7 14 11.6 11.6 12.4 12.3 14.1 12.2 11.8 11.3 11.1 11.2 12.3 13.1 15.2 26.4 36.8 48.5 63.7 81.2 99.7 105 106.8 114.6 120.6 138.4 162.4 172.8 185.3 199.9 215.1 215.6
250.2 258.1 267.9 276.8 284.8 296.5 301.1 303.1 310.3 320.9 327.4 330.5 333.8 339 343.4 346 344.8 343.7 344.1 345.8 349 352.9 351.4 343.6 341.6 343.5 349.2 359.9 370.6 374.3 368.5 365.5 362.8 366.8 361.4 352.3 349.1 349 347.1 347.5 350.9 365.7 377.4 384.7 399.3 405.4 397.5 384.8 373.3 360.3 345 326.6 317.4 299.8 255.3 217.8 190.5 177.3 171.3 164 158.7 152.5 149.3 146.8 144 140.8 136.8 135.1 133.1 131.8 132.3 133.7 135.1 134.2 133.3 130.7 129.1 125.5 121.7 118.2 110.2 107.2 102.9 99.7 95.5 92.4 95 94.6 96.2 114.3 120.9 127.3 145 174.1 201.8 239.9 274.6 310.2 347.5 379.6 417.1 431.1 452.2 477.9 500.3 507.4 504.1 496.9 491.6 484.2 474.2 461.8 444.9 430 412.2 398.8 386.1 374 366.8 365.9 374.4 381.1 386.6 385.8 382.7 373 364.1 358.6 348.7 335.4 328.5 315.5 312.2 309.6 304.9 303.3 311.6 315.8 315.9 320.6 322 317.6 307.6 306.1 296.2 288.7 279.3 268.7 257.2 231.5 216.9 184.7 166.2 153.3 133.5 120.6 103.9 88.2 74.7 63.2 56.5 48.7 41.6 34 27.5 24.2 21.7 21.1 20.6 17.8 14.7 13.5 13.1 11.5 12.4 12.1 11.7 11.4 11.3 10.5 12.5 13.6 16.3 26.8 37.2 41.3 61.2 73.5 89 95.3 101.5 107.4 113.2 129.1 148 161.6 171.5 180.2 191.2 193.5
246.4 254.4 263.2 272.5 283 293.5 298.7 301.4 306 314.6 321.6 326.4 331.6 336 340.3 344.2 347.4 350.1 353 363.4 358.3 358.8 357.2 354.8 360.3 362.1 361.6 379.6 385 384.6 382.2 380.9 374.3 371 366.8 363.6 367.3 375.2 376.6 376.2 385 395.4 397.4 399.2 407.8 414.7 421.8 411.6 400.5 386.7 373 358.5 350.9 337.4 287.9 240.5 203.1 185.1 181.1 165.8 158.9 154 150.5 148.1 145.8 144.2 141 139.6 137.9 135.1 135.4 137.9 137.7 136.8 134.5 132.1 130.1 125.2 123 118.5 112.8 112.4 105.5 103.6 98.6 94.3 93.8 95.4 96.2 99.7 113.5 122.9 138 167.2 194.6 223.9 267.2 298.5 336.5 366.4 396.3 416.2 436.4 461.5 486.2 500.5 499.2 495.5 488.8 477.9 469.5 464 446.4 427.1 414.5 395.3 384.1 379.6 373.4 379.1 384.5 391.8 395.9 392 385.4 374 364.2 354.7 344.4 335 325.5 317.4 315.1 311.9 316.7 319.6 320.9 320.1 321.9 325.2 325.3 318.7 312.9 303.2 295.1 283.8 276.9 264.3 255.7 229.8 212 186.4 169.9 155.2 140.8 127.4 111.3 97.4 77.8 63 53.4 47.1 40.3 32.9 28.7 25.4 23.2 22.7 22.2 19.8 16.8 14.4 13.2 12.1 12.3 12 11.7 11.7 11.6 11.2 12.6 14.7 17.2 22.8 38 43.7 54 65.6 78.4 88.1 95 100.9 108.7 119.5 134.4 148.3 155.5 158.7 163.4 166.3
244.6 253.3 263 270.4 279.7 288.1 295.2 301.1 305.7 311 316.3 322.2 328.1 335 338.8 340.8 342.8 350.7 357.6 363.3 370.9 367.5 364.9 369.2 370.8 377.2 375.2 388.8 387.1 385.8 386.7 386.7 383.5 379.7 376.2 375 384.4 387.6 392.3 393.9 404.1 409.8 417.8 423.3 427.7 429.4 435.4 434.7 427.2 415.7 397.3 390.9 378.7 362.7 324.4 283.2 233.7 203.8 185.1 171.5 162.4 155.6 151.6 149.2 148.4 146.8 144.4 142.4 140.4 139.4 138.3 139.4 139.8 139.7 135.5 134.8 130.4 129.6 127 119.8 113.8 109.3 106.9 104.7 101.6 96.3 94.1 92.4 95.6 99.2 102.4 114.8 131.6 153.3 178.6 212.9 257.1 285.7 324.5 337 377.2 402.3 421.9 448.5 473.1 494.1 496.3 493.6 487.6 482.1 476 469 451 430.7 410.1 401.7 397.2 390 383.2 389.7 395.1 400.6 404.8 398.1 389.5 380.3 366.2 354 343.4 337.7 332.1 328.1 326.7 326 322.4 321.5 322.7 323.5 329.2 327.8 323.8 321.1 310.8 303.2 292.9 279.9 270.6 261.8 251.1 231.1 213.7 192.6 185.3 178.1 166.3 150.4 134.4 111.5 84.5 66.7 64.3 55.5 47 41.3 32.1 29.2 25 23.2 21.8 19.6 19.8 15.1 13.1 12.1 12.4 12.1 11.8 12 11.7 12.2 12.9 15.7 18 22.6 34.5 41.2 49.1 63 72.9 82.6 89.3 95.2 102.7 110.3 120 135.5 141.4 142.3 146.3 147.3
240.9 251.5 259 267.2 274.7 284.5 293 298.1 304.5 309.6 313.7 320.6 326.4 333.5 338.3 341.9 343.5 351.2 360.7 364.9 369.3 374.1 380.7 380.9 390.3 389.6 390.3 397 398.1 393.8 392.9 395.4 394.1 391.4 385.8 389.2 398 405.4 409.7 409.5 414.7 421.7 429.6 437.5 451.2 458.7 456.4 452.5 451.1 439.1 417 414.2 399 386.8 364.4 326.9 275.9 230.7 201.1 182.6 170.6 159.9 153.4 150.5 150.3 150.3 147.2 145.2 143.3 141.6 141.4 140 140.5 140.3 138.6 137.7 133.8 131.6 128.5 119.8 115.2 110.3 108.5 106.3 105.2 100.9 94.4 93.9 94.3 95.3 101.8 103 121.1 139.6 163.9 195.9 234.6 260.2 282.1 317.8 347.9 376.4 402.1 432.7 459 481.5 490.7 489.3 487.7 481.7 477.2 471.1 451.9 429.2 417.8 404.8 398.6 394.4 393.5 396 400.7 410.6 413.4 405.9 395.5 383.7 372.7 372.5 374 362.5 354 346 336.1 329 326.4 323.6 324.4 326.6 327.1 324.9 324.8 316.8 308.7 298.3 284.7 276.4 269.5 258.3 249.8 237.4 226.3 209.2 203.1 190.4 175.3 160.8 144.2 126.2 99.7 83.8 76.5 68.3 58 49.7 41.3 37.8 30.2 23.3 21 19.4 20.4 16.9 13 12.5 12.4 12.2 12.1 12.2 12 12.1 13.9 15.9 18.5 22.3 33.4 38 44.5 59.6 68.1 75.8 83.4 92 100 111.4 119.8 122.3 127 131.4 136.6 143.3
236.8 249.6 259.7 269.4 277.8 286.5 296 302.6 306.7 311.2 314.8 319.3 328.2 333.2 339.8 345.5 350.6 356.3 372.1 374.7 377.6 379.8 382.1 389.4 395.7 398.2 396.2 399.6 404.6 405.1 399.9 401.3 403.5 403 400.7 406.2 413.5 421.4 425.5 427.7 429.3 439 451.3 474.1 484.9 482.2 478.5 475.5 472.4 455.4 442.4 439 426.9 413.6 388.8 355.2 316.4 262.6 224.5 206.9 191 175.7 162.2 155.3 151.9 152.3 151.4 149.2 146.9 143.8 143.1 141.8 142.3 143 142 141.1 137.8 134 129.5 121 117.7 113.8 109.4 107.2 106 104.2 100.1 95.4 94.2 94.6 95.8 98.7 110 129.9 147 177.8 201.9 227.3 257.5 290.9 326.2 351.3 384.8 414.3 441.8 465 484.8 488.8 487.5 485.7 480.8 469.7 447.5 431.8 419.9 404.7 402 402.7 407.8 408.4 410.6 418.1 417.6 411.4 402.8 398.9 395.7 390.2 380.2 367 356.1 347.1 337 331 328.9 326.6 325.8 326.9 327.5 324.4 321.1 311.5 300.9 288.4 280.2 275.4 266.9 260.2 255.3 252.7 235.7 223.6 213 188.6 173.6 159.5 139.2 121.7 101.3 92.8 84.8 76 63.7 51.5 43.1 36.2 27.6 22.3 19.4 18.6 17.6 17 20.3 17.4 10 12.2 12.4 12.5 12 11.9 13.3 15.2 18.1 22.3 28.3 37.1 45.8 55.3 63.6 71.4 75.7 85.3 95.3 104.9 111.5 114.3 118.9 124.1 128.9 134.3
241.6 252.3 261.4 272 281 290.5 301.3 307.2 313.7 316.4 318.6 320.6 327.2 330.9 347.4 353 360.1 358.4 363.7 373.7 384.3 389.9 389.1 390.4 394.1 398.3 399.8 401.3 403.5 406.4 407.4 412.7 410.1 411.3 411.9 420.3 432.7 435.5 440.6 444.6 456.1 481.6 492.3 511.6 513.9 510.6 508.7 505 497.7 488.1 474.5 466.8 452.8 436.4 409.7 369 336.7 291.3 254 229.7 212.4 195.9 177.8 162.2 154.8 155.1 155.6 154.1 151.8 147.5 145.6 144.1 144 145.8 145.9 144.1 141.1 142.2 142.3 129.2 119.6 115.1 110.7 108.5 106.3 104.7 101.8 97.4 93.2 94.1 94.8 97.5 102.3 116.6 135.6 157.1 180.4 208.2 245.8 279.8 308.6 345.2 380 403.6 425 446.3 466.3 483.6 486.5 485.8 481.5 472.2 447.2 439.8 427.5 419.6 419.9 414.2 412.8 412.7 418.9 423.4 422.9 417.7 415.4 405.8 395.7 385.8 375.7 364.3 352.8 343.6 336.6 333.4 330 328.1 328.6 329.6 327.2 323.6 316 305.7 294.4 291.9 282 280.7 277 276.9 277.7 264.4 248.1 233.4 203.4 183.6 167 145.9 127.6 104.5 90.3 85 77.7 70.2 59.1 46.7 38.9 29.9 24.2 23.1 21.4 16.8 16.9 18.5 21.1 18.7 12.8 12.5 12.2 12.7 12.6 13.1 13.9 15.3 17.8 21.6 30.7 37.4 44.3 50.9 59.8 64 76.5 82.4 89.9 96.8 102.1 106.2 109 113.1 114.5 113.7
244.5 255.5 265.6 275.6 284 293 302.8 310.5 316.2 327.1 330 328.9 341.4 351.9 361.6 376.3 374.6 367.6 371.1 373.2 377.7 389.7 398.3 398 396 398.3 402.2 405.7 406.8 408.2 411.5 414.6 415.7 419.8 425.5 437.3 442 444.5 451.8 464.1 484.3 511.2 529.3 531.1 531.5 527 530.8 528.5 520.7 515.9 503.6 495.9 486.1 471.7 434.9 396.3 364.5 360.4 325.7 280.5 249.7 220.1 200.9 178.6 165.2 161.6 159.4 159.6 156.8 154.1 148.9 146.8 146.6 148.4 149.8 155.3 150 147.9 145.7 133.7 124.1 119.2 113.2 109.9 107 104.9 103.4 100.4 94.7 94.7 94.4 96 99.4 105.5 126.4 146.4 165.3 199.2 233.3 265 302.4 343.7 374.6 396 407.3 427.5 448 469.3 483.1 483.5 481.3 473.4 453.3 443.4 437.5 429 421.3 414.5 417.3 419.4 425.1 429.9 427 424.8 415.1 403.6 390.1 380.7 369.5 359.4 349.6 342 335.9 334.3 334.9 334.3 336.4 330.5 329.6 321.2 312.1 305.8 307.5 300.9 301 299.2 298.8 298.9 291.5 274 259.1 237.6 203.8 177 158.1 139.8 122.2 94.8 82.8 76.1 68.5 59.8 52.1 39 31.2 26.6 24.3 23.6 20 17.8 19.2 22.1 22.8 21.9 14 12.6 12.7 12.5 13 13.8 14.5 15.4 16.8 20.5 25.2 32.3 39.7 46.1 53.5 64.4 70.6 73.6 79.7 87.1 93.5 90.6 93.2 104.1 114.5 127.5
251.8 260.1 272.4 282.4 290.3 296.7 305.6 315.5 324 329.7 338.6 350.8 357.9 366.3 376.3 381.4 379.1 379.3 381.5 383.2 383.2 384.8 394 403.6 407.1 405.7 406.7 408.8 411 415.6 416.8 418.6 420.5 428 439.3 445.6 454.1 467.3 477.3 505.5 520 532.7 541.9 546.8 543.9 544.8 543.6 541.5 541.9 539.6 524.9 523.7 516.8 506.6 479.5 434.3 441.1 426.1 410.2 389.9 332.1 252.7 219 201 183.8 172.9 169 168 163.8 163.7 160.5 156.1 152.3 151.6 155.1 166.1 169.3 163.6 148.7 137 128.9 121.7 116.5 113.9 110.8 104.1 102.4 101.4 96.5 94.2 94.7 94.7 97.9 102.3 114.1 136.5 157 178.7 219.5 257.5 297.6 341.4 371.2 384.3 391.3 410.4 429.8 451.5 474.5 480.1 476.6 467.6 454.9 444 435.8 429.9 421 419.1 422.8 424.9 430.3 431.8 430 426 410.7 394.9 384.4 376.2 365.5 355.6 346.5 341.1 338.4 338 337.9 336.3 334.4 336.4 329.1 319.7 322.8 323.2 319.8 319.1 320.3 321.8 322.6 311 298.5 278.6 265.2 234.9 197.5 169.2 154.4 131.8 109.5 91.2 76.6 69.1 65.8 60.5 51 40.1 30.6 26.8 26.3 26.2 19.1 19.7 20.3 24.4 24 21.8 13.9 12.8 12.8 13 12.4 14.1 15.2 15.9 16.9 18.9 22.1 25.8 33.5 43.6 52.9 64.6 65.1 67.2 68 74.1 78.7 95.5 106.9 115.9 124.7 134.9
262 271 279.1 289 298.7 304.6 310.7 321.6 331.4 339.3 349.5 358.7 364.8 374 380 382.1 382.8 384 388.4 390.3 392.1 392.8 393.9 402.1 407.2 409.8 409.2 413.4 418.8 430.1 431.8 425.4 428.4 443.4 446.7 453.9 470.3 485.3 507.7 524.6 533.2 538.3 546 549.9 550.2 551.4 557.6 556 562.1 558 554.8 547 546.5 548.6 511.8 468.3 459.1 458 448.5 423.5 398.7 333.5 261.4 230.8 211.4 198.8 194.3 189.8 185.3 183.2 180.5 172.4 163.9 159.7 164.1 166.8 165.5 164 158.4 144.7 132.4 125.7 119.6 114.2 109.3 105.4 99.8 99.5 97.5 95 95.3 95 95.5 100.9 106.4 124.8 147.4 162.6 205.2 247.3 278.7 321.4 347.8 370.1 381 392.8 411.5 433.4 456.2 474 472.1 463.3 450.7 441.1 434.7 429.7 421.9 426.5 428.3 429 430.6 431.7 429.1 421.2 405.9 391.7 382.7 372.9 361.2 353.9 347 342.6 338.6 340.9 337.1 337.8 338.1 337 329.8 327.8 333.1 330.8 332.6 332.8 333.4 329.9 318.8 308 291.1 281.2 260.7 221.4 190.5 171.4 148.6 124.7 101.2 89 73 71.2 68.4 62.4 53.8 38.9 29.4 27.3 26.7 22.2 20.9 22.4 24.5 23.7 20.9 17.8 14.7 13.6 13 13.1 13.6 13.2 14.5 16 18.4 20.1 22.8 25.4 36.7 46.4 49.9 56.7 53.6 66 75 81.8 91 100.7 109.7 121 127.6 137.8
274.6 281.8 289.4 298.1 307.5 313.6 319.1 328.3 336.5 346.9 358 367.7 377.4 390.2 403.8 415.8 408.8 401 401.5 407 408.8 408.1 402.3 404.9 408.9 411.9 413.2 419.7 431.9 434.4 436.2 434.8 445.8 453.1 453.6 466.5 490.4 502.9 517.3 528.7 534.7 538.2 541.4 548.7 552 561.4 567.2 569.4 577.8 576.2 578.8 579.4 569.6 553.2 535.3 509.6 480.9 465.2 447 432.5 410.4 376 346.7 300.8 266.9 246.1 233 224.9 223.3 215.6 196.8 185.2 178.2 168.6 171.3 172.7 170.7 165.4 156.7 147.5 135.1 129.8 122.3 117.8 111.4 108.3 101.3 97.5 95.8 96.4 96.1 96.3 94.2 96.5 102.9 112.7 135.9 156.2 183.2 213.8 257.8 289.2 327.2 351.2 368.5 378.8 393.3 415.2 439.6 465.2 466.8 460.4 450.6 442 432.7 429.2 428.7 430.9 432.4 430.8 430.5 429.2 425.3 415.3 402.6 391 381.2 370.2 361.5 353.9 343.9 345.5 344.6 340 341 338.7 344.1 344 343.3 343.1 344.7 341.8 340.7 337.7 334.3 323.6 314.2 300 284.4 273.3 243.6 215 184.9 158.5 142.7 117 96.2 86.7 78 74.7 70.7 62.1 51.4 37.6 29.3 26.1 24.6 21.7 21 20.9 20.5 19.8 19.8 17.9 16.2 14.8 12 13.2 13.6 13.7 14.8 16.3 17.6 20.3 22.9 26.1 34 43 46 48.6 59.9 71.9 80.6 94.2 95.6 102.9 111.2 121.6 132.4 142
290.9 296.5 301.8 307.5 315.4 322.1 329.6 335.9 351.5 364.9 379.9 394.3 410.6 429.2 454.1 463 448.1 451.3 467.9 466.8 449.3 435.3 420.7 409.2 412.3 414.8 419.8 423.7 429.4 438.1 441.5 444.7 455.9 461.1 462.9 479.6 494.2 510.5 515.2 525.9 529.8 533.6 537.7 541.7 551.6 563 569.8 574.2 579 578.7 585.2 580.7 568.2 548.2 527.9 507.3 486.7 461.6 442.6 429.3 408 381.4 369.8 349.1 332.4 314.1 298 283.8 265.3 238.4 217.1 202.6 188.2 182.8 180 175.7 172.1 165.3 155.4 147.1 138.5 131.8 125.5 120.4 114.1 109.5 106.4 97.7 96.8 97.1 96.8 96.6 94.2 95 98.8 106.1 124.7 146.1 169.9 201.1 238.2 273 304.4 333.7 358.7 367.7 377.6 399.5 423.1 449.8 460.3 455.6 451.7 444.1 437.2 434.6 433.9 432.6 433.2 432.6 431.1 427.4 420.7 410.3 399.8 389.3 379.2 370.4 359.1 352.2 350.7 348.9 343.4 346.8 345 350.9 352.7 352.7 352.2 353.1 347.5 349.6 344.1 332.3 323.7 314.9 305.4 292.9 280.3 262.9 235.8 208.2 178.4 151.8 133.7 113.3 97 86.5 80.4 75.7 69.2 59.9 47.3 34.3 29.2 27.5 24.3 22.5 21.1 21 20.4 19.7 19.4 21.3 15.4 15 14.9 13.9 13.7 13.8 15.1 16.6 18.5 20.5 22.8 26.3 29.6 35.1 43.3 53.6 64.2 80.3 87.7 90.6 98.5 104.3 112.6 124.5 134.7 145.8
307.4 312.3 317.2 323.7 327.6 336.1 346.8 355.4 373 389.6 412.8 431.2 449.2 461.6 477 489.6 492.9 491.4 505.9 499.7 481.9 450.9 432.9 423.4 419.3 419.8 425.9 437.1 433.6 436.8 447.3 460.2 466.6 478.7 478.6 485.7 497.7 508 513.8 515.2 522.5 531.2 532.4 539 550.3 557.5 565.3 572.5 572.9 569.8 568 566.8 562.2 546.2 523.7 500.4 484 462.5 442.4 423.4 403.7 382 370.1 356.1 341.3 333.7 321.1 303.2 285.7 261.2 236.6 219 199.8 189.9 182.1 176.3 170 162.5 153.2 146.2 139 131.7 126.8 121.4 115.7 109.3 106.6 101.7 97.9 98 97.3 96.4 95.5 94.6 95.8 101.1 112.1 133.8 157.2 201.6 244.1 266.4 293.7 330.9 354.7 362.5 364.1 379.7 403.3 427.8 452 454.8 449.3 445.8 440.4 437.6 434.3 435.2 434.1 431.9 428 424.5 417.7 407.5 396.2 384.8 375.5 365.8 359.4 357.4 353.9 351.4 355.3 355.4 361.8 358.1 358.6 359.5 359.9 356.3 355.1 345.2 337.6 328.8 316.8 309.8 297.7 287.6 274.3 260.8 230 203.2 180.8 156 132.3 114.3 100.2 89.5 81.1 74.4 66.2 54.5 42.7 33.4 29.6 27 24.7 23 21.7 21.6 26.7 23.8 20.1 19.9 20.3 17 15 15.4 12.5 13.7 14.8 16.4 18.8 21.2 23.5 26.9 30 34.4 44.6 56.4 67.2 80.1 92.5 100.5 102.8 107.8 113.5 128.1 137.5 149.2
333.1 337.7 336.4 342.7 347.9 360.5 370.3 381.7 399.5 420.1 439.8 453.9 469.3 481.9 497.2 515 528.5 526.1 523.7 525.5 502.9 478.4 457.2 437.9 436.9 435.3 442.8 457 444.3 439.7 443.4 454.5 466.7 477.1 478.1 487 495.4 502.2 508.5 513.4 514.2 514.7 524.7 529.3 538.1 546.1 552.5 555.6 557.1 557.5 555.2 555.3 549 536.2 518 495 479.1 463.4 437.2 418.9 395.6 380.7 366.6 355 345.2 331.1 324.3 312.9 295.1 272.3 251.7 229.2 209.6 196 178.9 173.5 168.1 161.9 155.4 147.7 140.4 133.7 127.8 121.8 116.3 109.6 106 101.8 99 98.6 98.6 97.4 97.5 96.2 96 96.6 105 123.1 160.5 203 229 256.8 293 320.4 342.6 352.5 355.1 362.1 385.6 411.4 440.7 449.2 449.4 448.1 441.1 441.5 441.6 438 432.9 431.4 428.4 423.6 414.8 405 394.8 383.5 373.2 368.1 364.5 359.9 356.4 358.8 368.9 374.2 369 366.1 365.8 365.7 365.5 358.7 347.4 340.3 329.9 325.8 317.7 306.5 284.7 270.3 255.9 244.7 227.6 201 175.6 161.7 132.9 115.5 104.8 91.8 81.9 75.2 67.7 57.7 47 35.5 30.6 29 28.4 26.5 25.3 26.8 23.6 19.5 21.1 20.1 18.7 16.5 14.6 16.9 14.8 14.2 15.3 16.5 18.5 20.2 22.8 22.7 26.2 33.1 43.3 50.3 66.5 80.9 91.9 100.8 107.3 109.7 118.4 129.1 139.1 152.4
359.9 359.3 355.8 360.7 366 382.6 390.7 403.7 422.9 441.9 455.1 469.6 483.2 497.9 513.6 530.6 552.8 563.4 561.3 545.3 519.3 501.5 480.3 456.8 458.4 453.6 470.1 473 462.7 455.9 452 453.6 461.1 464.8 473.1 483.2 492.2 499.6 493.1 500.5 504.4 507.8 516.9 523.6 530.6 539.5 542.3 546.6 551.2 549.9 549.5 545.2 534.6 522.4 505.5 488.3 474.7 455.2 438.6 411.3 392.6 372.4 363.5 353.6 341 332.4 320.2 308.8 296.5 279.5 254.4 240.1 217.7 198.9 183.5 174.6 169.8 161.9 155.2 147.6 141.4 134.4 129.4 123.2 117 111.1 106 102.5 100.3 99.8 100 99 98.7 98.4 97.5 94.9 100.5 120.4 160.7 206.8 229.8 253.7 281.4 305.2 324.9 339.6 344.3 352.2 371.6 403.3 433.2 444.5 448.4 445 447.8 445.8 439 436.7 433 433.4 426.8 419.8 412 403.3 394.2 383.4 375.1 370.5 367.6 367.5 371.3 379.6 380.2 375 373.8 374.1 374.2 369.7 360.5 348.9 344.2 340.3 335.2 325 315.1 304.9 293.6 287.1 263 239.4 223.2 200.9 183.2 162.7 148.3 128.9 110.8 102.4 91.1 84 75.9 66.1 53.5 52 45.1 42.5 34.5 27.2 25.4 24.5 24.8 23.1 17.3 17.8 18.1 17.2 17.5 21.3 20.3 14.3 15.7 17 18.4 19.8 21.1 23.2 25.8 32.5 43.8 49.9 64.4 79.2 91.3 101.3 106.7 114.1 121.5 125.7 134.4 155.9
378 377.4 376.7 379.1 386.4 397.8 406.7 416.1 434.8 452.2 468.5 483 497.1 512.1 530.7 548.8 576.4 593.6 598.6 567 539.3 519.7 500.4 485 485.1 484.3 487.4 480.5 488.6 483 476.3 488.1 468.5 465.3 465.5 470.2 476.1 484.9 485.7 488.5 495.7 500.7 508.2 520.7 525.3 527.2 530.4 533.7 537.8 537.7 537 532.3 524 512.1 497.4 481 466.7 451.3 431.5 407.3 384.9 368.9 353.8 347 337.8 324.3 314.6 304.4 291.1 278.6 266.3 242.1 223.9 206.9 185.6 172.8 165.2 159.5 154.1 147 141 134.8 130.4 125.5 118.5 112.7 107.3 104.7 102.4 102.4 100.4 99.5 99.3 99 98.6 97.1 96.5 110.4 136.8 176.3 210.1 236.5 260.8 276.6 303.7 330.9 336.3 344.5 362.8 398 427.1 438.5 445.8 453.1 450.5 445.7 440.2 435.8 433 432.1 427.9 416.2 407.8 398.9 390.2 381.6 377.2 373.4 376.2 379.9 384.6 383.1 382.1 384.1 383.9 377.7 372.9 361.2 358.2 353.5 346.4 341.8 337.7 331.9 321 303.2 299.8 289 270.5 259.7 248.5 232.8 206.5 180 155.8 138.3 124.7 111.9 101.8 96.7 85 74.3 74.4 65.1 57 57.2 39.4 30.3 27.3 26.2 25.1 27.4 25.8 19.6 22.9 19.9 21.4 20.6 20.5 14.3 15.1 16.5 17.7 18.8 20.8 23.5 25.3 32.7 35.8 51.1 62.6 71.7 86.5 94.7 99.4 110.5 117.3 120.6 132.6 161.9
390.5 390.4 389.6 393.9 399 409.7 418.3 428.7 440.2 463.3 477.8 496.7 513.4 528.4 543.2 565.5 585.4 600.2 608.9 590.7 557.2 536.5 515.8 503.1 503.1 506.2 518 523.5 527.8 520.3 527.8 528.2 504.6 473.1 469.5 466.8 470.4 474.7 481.1 483.8 492.1 497.1 502.6 515.3 520.9 520.9 520.4 527 525.5 527 526.1 521.7 512.4 500.3 487 473.5 457.3 443.9 426.1 402.5 384.9 360.9 341.7 334.4 326.6 314.8 301.8 292.5 283.7 272.6 260.7 239.2 220.8 205.4 185 172.2 164.3 158 152.2 147 138 133.2 128.8 124.6 118.2 113.8 108.4 106.7 103.9 102.5 101.7 100.9 100.1 99.2 98.7 98.2 95.2 101.9 121.8 150.7 181.7 207 230.9 268.5 304.2 320.9 326.9 334.2 354.1 384.9 420.3 430.3 449.7 459.3 451.6 443.2 438.4 434 431.4 430.6 425.4 415.5 404.1 396.5 390.6 384.5 381.4 382.8 385.7 388.2 386.8 386.7 390.1 384 379.7 371.6 365.9 363.5 356.6 351.8 347.8 349 340.3 326.8 314.9 312.8 311.5 301 284.7 278.3 268.9 261.7 242.5 207.7 186.5 158.2 144.7 146.2 146.7 137 124.7 123.9 107.5 89.9 76.9 61.4 38.6 25.2 27.7 25.5 25.7 28 25.4 23.2 24.1 21.2 22 20.3 19.7 15.4 15.6 16 17.2 19.6 21.8 23.6 25.9 31.8 37.9 48.5 63.5 77.4 84.9 93.9 99.2 108.4 113.7 118.6 138.8 162.7
396.9 398.4 396.9 404.3 409.9 418 428.5 437.4 447.4 466.2 483.2 506.7 527.1 541.9 560 577.8 595.8 608.7 617.9 616.3 586.5 561.6 543.9 531.2 522.2 545.1 547.6 555.7 562.9 562 557.6 547.9 529.5 509.4 476.5 471.4 478.5 482.4 482.4 485 491.5 502.9 507.7 511.7 512.1 511.5 511.9 513.9 517.5 517 515.2 508.6 498.9 488.6 475.8 461 449 430 418.4 399.7 377.2 361.6 342.4 332.2 321.7 309.5 300.3 288.2 276 261.4 245.6 228.5 214.6 197.7 183.5 173 163.1 155.8 150.7 144.7 137.5 133.7 127.8 123.9 119.7 114.6 108.2 107.7 106.2 103.8 102.3 101.5 100.6 99.5 98.6 97.9 98 97.2 107 130 154.7 179.8 209.6 254.8 296 307.5 316.4 326.1 343.9 379.6 412.9 423.8 453.1 456.6 451.1 444 437.7 434.8 433.5 428.9 421.9 413.5 405.3 399.5 392.1 386.9 389.5 392.3 392.5 391 389.5 393 387.4 381 378.1 376.1 373.1 368.7 363.1 358.9 352.3 349.2 342 334 328.6 324.3 315.1 300.2 298.6 293 283 274 251.3 221.7 204.5 196 189.1 183.2 174.4 156.9 137.9 126.5 102.6 86 65.2 47.6 30.5 23.3 27.7 27.7 25.7 29.9 27.7 23.3 26.8 23.1 20.1 18.1 17.3 15.1 16.2 16.6 17.8 20 21.9 24.3 25.4 30.1 39.5 47.3 65.1 77.1 82.4 96.9 102.2 107.7 114 122.6 136.6 155.1
398.7 403.7 404.1 413.8 417.8 426.8 436.1 445.4 457.5 473.6 493.7 518.6 538.5 554.1 572.8 590.5 605.4 619.3 629.4 635.7 608.6 589.2 574.9 565.4 553.4 565.6 574.6 591.1 595.3 586.4 577 561.2 543.1 530.3 502.7 495.1 504.4 491.4 492.8 487.8 491.8 500.3 506.5 507.1 503.9 503.8 507.4 507.1 502.2 503.5 499.2 495.6 485.6 476.4 464.4 451.8 437.9 421 409.4 397.1 370.4 354.2 342.7 328.5 315.2 306.3 296 278.9 268.8 255.6 235.6 223.7 209.9 194 183.1 174 162.5 154.5 151.6 148.3 138 134.1 128.3 122.7 118.8 113.5 113.4 110.8 106.9 104.9 103.1 102.2 101.3 99.7 98.4 97.4 98.8 96.5 98.8 115.1 138.6 162.1 187.8 227.5 272.4 292.3 306.5 315.4 333.8 373.6 403.7 420.4 450.4 454.6 452.7 445.8 438.2 434.5 433.8 428.7 420.5 410.7 403.7 399.8 394.6 394.9 397.9 397.2 398.2 396.4 395.6 391.4 387.5 387.9 389.6 383.6 378.3 369.9 369.1 362.3 357.5 348.5 343.4 336.9 329.8 323.4 317.7 308.9 302.9 293.7 278.3 265.3 245.5 230.1 210.9 200.3 193.6 184.4 164.6 146.2 129.5 109.3 90.6 75.9 56.3 42.2 30.6 24.8 27.7 27.7 25.6 25.2 27.7 27.4 29.1 20.9 19.6 18.8 22 16.9 16.5 17.3 17.8 20.7 23 24.7 26 28.8 35.1 44.5 62.4 71 84.5 92.7 101.3 108.3 115.2 123.9 138 152.8
399.4 404.8 413 423 423.2 432.8 442 454.8 468.4 488 505.3 524.9 546 565.5 585.8 601.8 616.6 630 642.4 650.4 652.1 633.3 617.9 600.7 581.7 587.4 606.6 620.4 619.7 618.7 616.8 607.3 594.4 566.1 552.9 536.8 528.6 515.3 504.2 500.2 499.6 500.7 495.9 499.5 498.7 496.1 498.7 497.7 492.7 488.2 486.2 481.2 470.6 463.6 455.6 445.7 430.2 417 404.8 386.9 373.1 351 333.5 324 306.8 294.7 284.1 272.7 260.1 245.6 229.2 214.4 202.8 191.7 183.5 174.1 161.5 153.2 149.5 144.9 138.1 131.3 125.1 120.5 116.3 115.9 115 110.8 107.6 105.5 103.9 101.9 101 99.7 98.9 98.2 98.1 99.8 96.7 102.4 120.1 146.7 172.2 194.3 234.8 259.9 290.8 304.3 326.3 355.8 387.4 413.4 443 454.1 453.5 445.4 439.9 435.7 432 423.6 419.9 412 410.4 404.8 401.3 402.9 402.6 405.4 402.8 401.1 398 394.5 397 398.3 394.1 392 383.5 385.6 374.1 362.7 365.2 353.5 346.5 340 336.4 330.2 319.8 307.3 295.9 287.1 272.8 257.7 241.7 222.5 203.8 197.4 185.4 170.7 150.2 130.4 115.9 99.3 83.1 66.8 50 39.1 30.1 26.6 23.7 27.7 25.2 22.7 24.3 30.7 28.8 25.6 29.6 29.5 27.1 17.9 17.1 18.3 18.9 21.1 23.1 25.2 26.3 29.3 33.1 44.4 59.6 71.5 84.7 91.3 99.4 106.4 116.8 126 143.1 158.8
397.6 410.3 418.1 431.7 432.8 436.6 452.1 469.9 479 500.3 517.9 533.1 553.1 578.2 596.6 612.5 626.9 641.6 652.3 660.7 666.8 671.8 657.4 632.2 614.5 620.9 629.4 646.7 650 650.4 646.4 640.7 627.5 615.4 603.9 582.7 553.1 543.6 524 516.2 507 505.4 500.3 491.6 490.9 489.5 485 488.6 484.1 477 473.2 466.9 458.1 451.8 444.4 434.2 422.5 410.7 396.3 378 361.9 346.5 327.5 309.3 290.7 286.4 282.6 270.4 254.6 235.4 223.2 210.5 199.8 192.4 182.9 172.9 161.7 152.5 146.3 143.3 139.3 132.4 129.9 122.7 119.7 117.2 114.5 111.3 108.6 105.9 103.8 102.2 101.6 100.6 99.6 98.6 99 101.3 100.7 96.5 108.6 129.4 154.9 176.3 201.1 241.9 272.1 292.2 310.4 337.5 366.6 398.2 427.2 453.1 449.7 444.5 442.2 432.6 424 422.1 419.2 415.5 411 407.9 406.9 409.2 407.8 411.8 408 405.3 405.4 406 407.2 405.7 403.3 396.7 394.4 385.5 380.6 372.7 362.9 354 350.6 341.5 337.6 330.3 313.7 310.5 297.2 283.4 265.9 246.6 235.3 213.7 206 184.2 169.4 156.1 141.1 126.7 109.6 92 74.3 62.2 53 38.1 29.2 26.8 26.9 27.7 27.7 27.7 24.3 29.6 27.9 33.9 35.2 30.5 26.3 24.2 17.2 18 18.9 20.9 23.4 25.3 27.9 30.1 34.4 43.5 58.9 75 85.1 92.3 97.3 104.8 116.9 129.3 149.6 162.4
394.7 414.4 420.7 437.4 439.7 442.5 462.1 478.8 486.6 503.7 522.4 542 565.1 588.6 607.3 623.8 639.2 652.2 662.2 670.1 676.9 689.2 690.7 664.6 650 653 668.1 679.8 680.7 680.3 673.6 666.2 656.8 646.4 635.4 614.3 592.5 560.3 543.5 535.9 520.3 518.1 512.9 493.4 481.4 479.7 479.7 477.5 473 466.6 461.6 453.4 445.9 438.4 432.6 423.9 410.6 401 388.5 370.4 354.1 341.2 326.3 310.5 288.6 273.5 270.1 263.8 245.5 232.9 220 208.2 201.1 189.4 183.4 175.9 163.8 155.8 153.2 148.7 141.8 136.3 127.6 122.4 119.2 115.9 113.5 111.3 109.4 106.6 104.6 103.6 102.2 100.7 100.1 99 101.4 102.7 102 100.9 97.3 113.2 137.3 156.7 183.1 218 255.9 279.3 295.2 320.2 348.7 379.2 408.7 439.5 443 438.2 436.1 431.9 432.3 425.8 419.9 417.2 418.9 415.9 416.1 416.1 417.6 412.6 412.3 417.1 417.8 417.8 416.9 414.3 409.6 406.6 398.5 392.8 383.9 376.3 366.4 357.1 352.3 350.8 338.7 325.3 318.8 306.8 294.7 275.6 249.9 232.4 217.9 205.4 191.8 175.1 166.4 150.6 142.1 126.5 116.1 100.4 86 70.5 52.3 39.8 26 25.2 23.8 27.7 27.7 27.7 27.3 25.9 28.5 33.2 28.5 24.1 28.7 32.7 26.5 18.7 18.7 20.6 21.7 24.6 29 30.8 33.5 46.7 61.6 77.9 87.7 92 93.6 110.1 121.9 134.4 157.8 167.2
393.8 412.8 425.1 436.2 443.7 450.5 472.6 484.5 497.2 510.2 526.4 545.5 572.5 595.9 617.5 635.6 649.4 661.8 672 683.3 697.5 709.5 712.7 704.5 687.7 696.5 705.9 709.2 710 709 702.1 692.9 686.7 680.6 664.6 637.6 612.1 587.6 566.7 550.2 533.5 518.3 516.7 494.3 481.4 475.5 472.8 473.2 464.9 459.6 450.8 440.3 432.5 426.3 420.4 413 399.1 388.7 381.4 364.5 351.3 340.3 329.4 312.8 288.2 267.7 255.3 248.1 237.7 227.6 215.4 208.5 203.5 197.7 191.3 180.8 169.3 163.5 160.8 152.9 145.2 138.9 132.5 125.4 119.5 115 112.6 110.6 109.4 107.5 106.4 105.2 103.2 101.1 101.3 101.8 102.7 102.2 101.6 99.8 95.4 104.2 123.9 144.3 164.2 191.5 230.3 259.9 280.4 303.5 331.2 359.5 386.4 413.4 433.1 432.8 433.1 435.9 431.3 429 425.6 428.3 426.2 425.8 425.4 421 416.7 417.4 426.1 425.7 425 423.3 420.3 418.5 416.8 407.6 398.4 396 388.1 379.3 376.1 369.3 366.8 354.1 339.9 323.2 307.3 289.2 275.4 259 244.7 226.6 210.6 202.8 191.8 181.2 167 159.2 148.4 138.8 126.6 116.8 101.5 81.8 58.3 39.5 28.9 25 27.7 27.7 27.7 27.6 27.5 29.5 30.2 30.6 24 22.3 24.4 30.9 27.4 17.7 19.4 21.1 21.4 24.1 27.6 32.1 35 51.1 63 71.1 82.8 84.5 95.6 113.8 120.9 139.1 162.4 173.6
391.1 409.9 424.1 438.5 444.7 459.1 480.6 488.6 500.9 515.6 531 550.9 578.3 604.8 626.8 643.6 657.4 668.8 680.5 698.2 712.6 724 732.4 736.6 725.6 730.6 737.7 741.5 740.2 739.2 732.6 723.9 721.8 713.8 692.1 659 628.4 605.3 580.3 564.5 541.8 526.7 514.4 503.5 481.3 473 469.6 466.6 462.1 450.3 441.2 432.7 427.1 420.4 417.5 402.4 388.2 376.9 373.6 361.6 354.5 340.7 326 308.3 285.4 258.5 248 239 229.3 218.6 217.9 214.5 212.2 210.6 205.5 193.1 178.2 175.6 167.9 158.6 147.9 141.9 134.8 129.6 121.5 117.8 114.2 111.2 110.5 109.1 108.2 107.2 103.4 102.2 104 103 103.7 103.7 103.1 96.2 95.3 97.9 112.4 130.5 150.2 174.8 202.8 236.1 258.4 287 311.6 338 361.4 388.4 419 430.4 435.3 436.6 435.9 432 430.4 432.1 436 429.8 424.1 423 427.3 428.2 429.7 433.7 433.2 430.8 423.7 418.8 411 403.6 400.5 392.3 390.1 393.2 387.5 371.7 354.5 335.2 317.9 301.1 283.3 268.8 259.8 243.9 227.6 217.3 209 201.8 193.8 186.5 184.9 183.1 176.5 169.6 161.9 150.2 131.4 99.6 71.1 55.5 50.3 37.4 32.1 32.2 26.7 34.5 39 34.7 31.2 27.3 25.7 24.2 22.3 25.6 23.6 17.3 20.4 24.2 23 23.5 26.7 32.6 35.9 46.8 57.4 67.8 73.8 83.1 95.7 109.8 122.5 139.4 168.9 182.2
395.9 403.2 423 437.2 444.5 465 484.8 494.9 503.4 517.2 532.6 556.4 589.2 613.7 632.7 651.6 666.4 680 694.3 710.7 726.8 740.6 751.2 757.3 761.5 761.4 769.3 774.9 772.2 770.6 764 758.6 752 738 707.9 671 639.8 617.8 588.1 564.3 549.7 528.1 509.3 499.1 491.9 463.4 462.1 459.5 447.8 441.5 437.3 431.4 424.2 415.6 409.8 392.9 380 369.5 363.1 354.2 347.8 334 318.8 300.4 279.5 258.9 239.2 228.8 223.4 228.1 225.1 224.3 228.6 232.9 231 216.2 192.2 187.1 172.8 161.6 152.3 142.5 136.6 130.8 120.9 117.2 114.5 112.8 111 110.5 107.7 106.9 107.3 104.5 108 104.2 107.5 106.1 104.4 96.3 95.8 95.3 101.8 117.9 137.8 166.1 195.2 215.5 246.4 269.6 293.5 316.9 342.9 375.5 404.6 419.2 430.9 432.2 430.9 430.8 431.7 434.2 433.7 431.7 433.6 436 433.7 434.3 437.4 435.2 432.8 427.6 427.5 419.7 410.7 414.9 407 400.1 396.6 386.4 372.8 354.1 343.1 337.3 330 319.1 305 281.9 260.1 239.5 226.8 216.7 209.4 203.2 198 206.6 203.9 194.9 188.5 181 167.4 148.2 130.5 113.5 94.5 78.1 55.7 51.6 51.9 50.9 52.5 46.5 36.1 31.1 29.1 26.7 24.9 21.9 21.4 22.4 20.2 19.3 24.2 28.2 33.1 27 25.8 33.3 37.6 40.8 48 61.1 69.1 77.7 93.5 111.5 123.8 148.8 168.2 189.4
391.3 403.6 419.6 436.4 440.9 457.9 477.9 497.2 508.7 519.2 535.1 565.4 592.8 619.7 638.3 657.8 673.9 689.4 705.1 721.3 741.5 758.9 771.1 780.5 787.3 791 798.3 804.5 802.5 799.8 795.5 789.3 769.2 738.6 709.4 674 640.9 616.7 586.6 561.6 535.3 513.6 500.5 487.7 463.8 452.6 445.6 440.9 438.8 431.6 426.5 427.9 422.5 412 401.2 381.7 376.3 358.5 353.1 351.8 337.9 327.3 313.4 295.6 269.8 252.5 234.3 239.9 237.3 231.3 235.2 234 248.9 257.3 264.2 250.5 212.8 210.2 193.5 196.5 179.9 164.5 144 131.2 124.5 117.7 114 111.8 111 110.9 110.1 108.1 107.1 106.9 112.3 108.8 107.6 105.6 103.8 99.4 96.4 97 96.3 108.5 126.2 149.8 174.7 210.9 236.8 255.5 279.5 304.2 333.1 370.9 394.5 408 423.4 426.2 431.1 432 439.2 435.1 436.4 441.4 440.7 440.3 443.1 444.4 444 439.1 433.4 430.5 428.1 421.6 423.2 412.8 405.4 397.9 388.5 377.1 377.4 377.8 372.3 357.8 343 325.3 312 294.7 273.8 239.3 223.3 215.9 213.8 217.3 212.5 208.6 205.7 198.8 184.4 167.8 151.1 133.8 118.9 107.5 91 74.2 70 75 67.8 59.7 53.1 38.2 30.7 29.4 28.2 27 24.3 21.4 21.3 23.2 19.4 20.1 25.4 28.7 33.1 33.3 30.9 31.2 31.3 38.3 42.3 57.9 69.4 78.4 90.1 107.5 138.1 160.5 174.1 186
390.2 406.4 414.5 428.7 443.6 459.2 476.8 494.9 510.6 522.9 547 567 594.5 619.9 641.1 662.4 682.6 699.8 715.9 735.5 755.7 774.4 787.6 803.4 812.7 817.4 822.5 830.7 831.3 828.5 822.3 789.9 749.1 711.6 680.8 651.2 625.7 599 567.8 547.5 521.1 504.6 486 471.7 453.8 443.9 432.9 430.1 429.4 425.2 414.5 413.6 414.8 407.6 395.6 377.7 363.9 355.5 348 338.6 330.3 315.9 300.7 279.5 261.4 246.3 239.8 245.4 244.2 238.3 247.5 260 274 286.9 287 264.9 243.9 245 261.7 262.5 217.8 191.9 162.1 146.1 135.4 123.9 116.9 114 110.8 112.1 111.8 109.9 106.7 107.7 109.8 108.9 107.7 105.1 101.3 99.2 96.9 98.2 95.3 98.3 114 135.1 160.8 207.1 225.8 245.3 265.9 291.5 320 354.4 380.3 396.8 416.2 423.4 429.4 437.5 433.2 439.1 446 448 445.4 448.9 451 451.6 446.7 440.5 436.7 437.9 435 429.6 421.9 414.4 403.9 396.9 402 406.2 402.1 388.4 362.5 346.6 329.5 312.7 297.9 293 279.5 258.1 237.1 229.6 237.4 234.1 216.7 208.5 194.8 183 167 157.4 142.6 125.8 123.8 119 95.7 85.3 76.5 66.1 55.8 43.9 34.6 32 31.8 30.5 28.5 28.1 23.2 22.4 23.8 19.8 18.5 21.5 22.6 30.5 33.4 34 36.6 38.9 33.6 36.5 41.8 51.7 63.8 76.5 89.2 117.6 138.4 156.6 165.5 172.8
381.2 401 412.5 419.5 439.2 452.5 473.8 487.9 506.1 521.3 546.7 569.5 597.6 618.3 642.3 665.6 685.2 705.5 723.7 743.7 765.2 789.6 807.8 822.1 836.3 842.7 846.4 850.7 853.7 849.9 802.4 756.6 712.1 663.6 636.3 611.7 586.2 562.8 541.9 525 515.4 503.2 472 459.9 446 442.2 437.9 431 424.1 416.9 402.8 390.7 393.2 392.2 381.5 363.1 352.9 348.6 340.3 329.1 314.1 298.5 285.5 269.8 258.1 244.9 248.8 252.1 246.3 251.5 268 287.7 305.8 311.5 312.2 285.2 273.7 293.9 307.6 271.3 268.4 230.9 188.3 167.3 155.1 142.8 131.9 118.5 111.2 112.9 112.2 110.7 107.1 107.8 109.3 110.6 112.4 105.4 99.7 98.2 96.7 98.6 96.9 95.3 104.4 122.8 147.8 190.2 219.4 235.1 252.3 276.2 302.4 333.5 365.8 390.5 412.9 424.7 434.3 434.2 440.4 446.3 447.7 450.1 452.3 456.8 455.6 456.2 449.5 441.1 438 436.3 432.5 427.7 426 413.9 414.1 420.9 421.8 409.5 402 382.3 361.2 338.7 318.8 300.6 288.4 281.9 270.9 257.6 239.1 232.6 238.9 226.6 211.3 195.3 181.3 167.6 163.5 155.5 136.8 123.5 124.7 109.4 94.7 81.2 63.8 48.5 40.6 33.1 32.4 32.9 34.3 34.1 32.1 28.8 23.1 21.9 20.8 20.1 19.4 20.7 22.6 28.4 32.6 37 41.1 40.5 36.2 36.9 40.9 54.4 65.4 74.8 91 117.8 142.5 155.4 159.7 170.2
370.9 388.1 402.3 413.5 429.9 453.3 471 487 502.2 517.8 541.1 568.8 598.2 621.2 643.4 664.8 688 707.9 727.7 752 775.1 799 819.8 837.9 855.2 868.1 869.1 874.7 875.4 824.5 775.9 723.2 657.9 626.9 601.7 573.9 553 540.9 521.6 511.3 509.9 492.1 478.4 460.4 451.1 447.8 438.3 434.3 426.5 403.8 394.3 378 372.2 365.4 357.8 350.4 344.6 340.7 336 316.2 302.4 286.5 270.7 261.9 255.8 256.5 254.4 253 258.4 273.6 295.4 315.8 329.3 344.1 338 318 317.6 323.1 325.9 333.4 332.3 269.2 219.7 200.2 191 178.6 155.3 131.1 117 114.7 112.2 110.1 107.3 107.7 109.6 110.9 111.8 107.3 98.5 97.4 98.4 98.1 98.6 96.3 98.1 111.6 134.2 166.1 197 218.6 239.8 264.8 294.3 333.2 363.2 397.5 424.8 437.8 445.3 444.5 445.3 448.8 460.7 464 462 464.9 460.7 457.5 452.1 448.6 442.1 439.8 438.2 436 434.2 430.4 434.5 430.3 421.5 405 391.7 374.3 351.9 330.5 311.6 293.2 277 264.9 257.6 240.7 230.3 227.7 221.9 210.6 195.2 176.7 166.1 155.8 151.1 137.8 127.5 118.5 108 90.9 74.5 62.9 50.9 41.6 30.7 30.6 30.7 32.7 34.5 35.9 31.5 25.7 22.5 21.9 20.5 18.5 20 21.4 23.9 28.5 33.8 39 43.8 41.8 40.3 36.9 39.8 53.1 61.3 71.1 93.5 112.7 130.4 145.4 157.5 175
366.9 376.4 393.1 403.8 423.2 438.7 462.4 483.7 499.1 517.2 540.6 567.7 597.5 620.9 642.3 663.6 687.2 706.4 730.5 756.3 780.5 806.2 826.9 849.8 869.3 883.2 883.4 885.9 866.6 787.3 739.7 669 629.5 599.2 568.6 545 534.3 525.5 515.8 511.7 510.3 493.4 490.7 475.8 453.6 451.4 445.9 438.9 431.8 416.6 391.1 369.9 355.9 349.1 341.5 334.7 332.8 329.1 323.1 311.3 293.6 282.9 265.6 267.5 266.7 274.8 273.1 274.5 282.4 293.5 321 357.5 372.8 388.2 386.3 351.5 359 360.3 372.7 380.3 349 313.3 289.2 241 251.5 236.4 190.7 146.3 125.8 114.9 113.2 112 107.7 108.2 109.8 112.3 112.8 111.9 100.5 98.1 98.2 98.2 97.7 96.9 96.6 101.9 120.8 144 178.5 204.3 226.6 252 283 318.1 352.8 387.9 423.7 444.9 442.1 444.5 454.1 465.5 462.8 462.1 463.2 461.1 461.9 461.9 456.7 455 448 445.8 445.8 455 457.7 456.5 446.6 437.5 420.3 405.9 390.8 373.3 361.3 337.4 311.7 295.8 281.9 266.5 244.2 232.7 219.6 213.1 205.2 195.9 178.1 158.8 148.8 141.1 134.2 128.1 116.8 102.3 88.1 69.7 57.8 42.2 33.4 30.9 30.6 30.1 30.3 30.4 31.4 31.6 26.4 23 21.6 20.8 20.5 19.8 20.7 27.8 29.8 32.7 36.9 42.5 48.1 46.8 46.5 46.1 47.7 44.4 62.2 80.4 103.5 124.6 135.6 141.4 150 169.4
361.6 364 382.8 396.9 409.9 431.2 457.2 485.1 500.3 514.2 537.8 563.3 593.3 617.3 640.5 661.7 684.4 710.5 731.7 757.2 779.8 805.2 829.9 853.8 879.5 894.3 883 850.7 834.4 777.3 689.9 650 613.7 580.4 546.7 533.4 522.5 517.1 515.1 514.8 512.5 508.9 502.8 479.6 448.3 443.7 447.1 432.2 434.8 426.7 395.4 358.4 332.6 331.8 326.2 321.6 317.7 316.2 313.1 305.9 291.7 285.1 281.9 286.2 293.7 307.2 314.4 311.3 322.8 342.2 368.4 390 416.3 438.5 425.6 402.6 416.8 400.4 415.6 411.8 412.4 387.6 344.6 288.8 291.5 281.8 232.4 164.9 138 120 116.4 113.1 109.8 109.4 110.5 113.7 112.9 117.1 101.9 97.8 98.2 98.2 96.2 96 97.2 97.4 110.4 132.7 161 186.1 214.6 239.9 268.4 301 342.8 374.8 405.8 434.6 441.5 455.7 465.1 465.1 463.6 462.3 458.3 459 460.4 459 463.4 466 461.8 465.8 468 475.5 471.8 463.4 457.3 437.2 421.6 407.3 393.9 387.5 368.7 333.2 310.1 289.2 276.8 257.6 237.1 220.3 209.4 199.3 193 178.9 162.8 144.8 129.3 122.2 116.8 103.9 93.3 80.1 67.6 49.4 43.3 37.7 31.2 30.6 30.5 29.7 25.9 27.3 24.6 23.1 24.1 23 22.1 21.8 23.6 32.8 37.4 38.4 35.7 37.6 42.3 52.6 56.8 54 52.5 51.7 57.4 46.6 64.8 88.4 114.5 128.7 133.1 136.5 141.6 150.6
353.7 357.2 370.4 390.9 401.9 422.6 460.7 487.1 499.5 513.5 533 559.4 589.2 613.5 637.2 657.4 681 708.7 729.6 753.9 777.5 803 832.3 857.3 881.6 897.5 888.4 827.5 774.2 730.8 664.9 633 596.3 559.9 541.6 528 517.5 514.1 516.2 513.1 517.1 512 489.6 469.7 443.2 433.5 430.9 424 427.1 422 402.7 351.6 327.4 316.8 310.5 304.9 303.6 300.7 299.7 298.3 295 300.8 298.5 310.6 317.7 333.1 343.1 349.5 369.3 388.2 407.3 436.3 461.1 474.8 466.9 466.3 443.8 437.3 437.7 442.9 442.1 430.2 383.7 357.4 327.8 305.7 259.2 201.1 149.9 130.9 120.4 117.3 110.9 112.7 113.5 115 113.7 117.5 105.8 97.8 98 98.4 97.9 97.6 97.7 97.4 101 119.3 144.2 175.1 202.5 228.1 254.2 285.5 323.2 358.8 391.6 426.5 459.3 468.9 470.4 467.3 458.8 457.5 463 460.5 461.3 469.4 475.7 474.1 473.6 478.6 483 475.7 470.8 465.2 453.3 436.8 424.7 407 398.1 387.9 368.2 329.5 310.1 282.8 266.4 252.8 226.1 212.5 197.2 187.4 177.7 160 138.9 126.9 117.6 106.4 98 84.6 72.9 61.3 54.2 40.3 30.3 31.3 31.1 30.6 29.7 27.6 27.9 30.8 34.9 35.7 33.4 32.8 38.1 48.2 54.9 56.3 51.7 41.4 46 67.3 75 68.4 69.1 65.1 66.3 66 65.6 63.4 62.8 91 111.9 118.6 129.3 136.9 151.6 171.6
341.7 356.3 358.9 389.7 406 428.5 462.4 481.6 496.5 511.8 531.8 552.2 580.7 609.8 632.3 654.4 679 701.1 727.9 753.6 775.1 802 832.9 856.8 880.4 895 879.6 826.2 743.8 689.5 648.5 609.8 576.3 549.6 538.5 529.7 522.1 517 511.4 511.4 517 512.5 482.5 458.6 434.2 421.5 411.6 407.9 412.6 406.3 391.5 348 319.4 307.7 301 296.7 298.3 298.3 298.3 299.3 310 308.7 320.1 337.3 349.7 377.3 374.1 391.7 403.8 428.8 451.8 471.5 488.6 484.1 480.9 474.3 456.1 451.8 452.5 454.6 446.7 440.9 422.4 394.1 362.8 337.3 287.3 227 167.3 142.3 126.9 118.5 115.2 113.7 114.7 116.3 114.7 115 106.7 98.1 97.9 98.3 98.2 97.5 97.6 97.4 96.1 110.8 132.7 161.9 190.7 216 242.5 272.2 307.5 343.9 376.7 414.9 451.5 466.7 463.7 456.4 454.8 457.8 465.9 469.2 476.3 478.4 477.8 476.8 480.3 479.7 476 469.5 472.7 465.4 443.8 424.8 413.2 404.6 393.5 382.7 365.5 329 297.5 279 258.6 245 218.7 200.8 183.8 170.8 161.5 139.5 123.9 117.9 102.7 92.5 79.2 67.6 57.7 45.9 31.7 30.6 29.3 30.7 30.8 30.3 28.9 27 28.9 34.8 42.9 47.8 48.9 61 86 94.2 83.2 81 73.2 62.2 79.6 105.6 96.7 87.3 92.6 89.9 83.9 80.8 77 76.1 81 89.3 103.1 120.3 132.7 150.3 168 182.3
336.8 346.4 353.9 383.6 409.4 432.6 458.9 472.1 494 509.1 527.5 548.9 574.5 605.8 630.6 650.7 677.6 699.6 724.6 750.4 777.2 803.3 830.7 853.3 876.5 890.4 875.1 810.8 747.8 673.6 616 587.9 559.7 547.8 537.6 532.5 533.3 524.2 516.1 522.8 527.3 514.4 492.4 471.5 454.6 421.4 397.2 389.1 385.7 379.3 362.9 331.5 311.3 301.5 299.1 297.3 298.3 298.3 299.8 310.6 318.6 319.4 336.9 363.5 390.8 413.4 416.5 429.1 452.5 469.6 485 494.7 493.6 484.3 479.8 472.4 463.8 459.8 463.3 453.1 444.2 432.5 420.9 408.9 387.2 356.9 309.3 259.2 193.3 154.8 133.8 123.5 118 114.2 115.6 116.7 111.6 110 105.8 97.8 97.9 98.9 98.7 98.2 97.6 96.1 97.2 104.1 123 148.2 176 203.2 230.6 258.9 293.1 328.5 362.8 399 430.9 456.1 452.7 456.8 458.1 456.3 468.6 481 481.3 479.9 476 481.3 477.2 470.1 468.5 468.2 464 445.9 428.7 414 404 395.9 384.8 373.5 357.7 321.1 287.2 270.2 243.2 218.7 202.4 182.8 168.7 155.2 136.2 125.6 118.5 105.5 94.4 80.4 67.1 54.3 41.7 31.2 30.9 29.3 29.1 29.9 30.4 30.2 27.5 31.2 48.6 69.2 114.3 91.8 90.3 108 116.3 126.2 105.1 97.5 105.9 121.9 133.5 162.1 168.6 149.8 137.9 141 120.4 102.9 94.2 87.6 85.6 92.9 115.4 123.8 135.1 154 180.4 197.6
332.3 339.9 348.8 374.8 400.4 423 447.5 470.5 491.1 505 526.5 548.7 574.8 605 630 650.5 676.1 700.2 725.2 751.5 776 801.8 828.8 850.9 873.4 886.9 870.1 823.1 729.8 650.9 612.8 577 556.7 553.6 549.2 546 541.8 522 533.2 547.9 545.2 525.7 507.4 480.8 459.9 431 396.8 372.8 366.9 358.2 345.7 327.3 312.5 301.2 297.2 295.6 298.3 296.6 312.8 322.7 335.4 328.9 348.1 370.4 398.4 421.1 436.2 456.1 472.8 483 494.2 494.7 487.2 487.4 477 469.4 464 461.9 459.5 451.5 439.9 427 416.5 404.4 395.1 372.3 334.5 274 232.5 172.6 143.7 129.7 118.8 116 116.7 117.3 115.1 111.9 105.1 98.4 98 98.4 99.1 99 98.6 97.9 97.6 96.1 114.6 136.7 162.9 189.9 220.2 248.3 281.6 313.8 348.2 384 412.2 439.5 442.1 448.8 455.4 460.9 478.6 482.9 477.8 475.1 477.4 472 467.1 464.4 463 456.8 447.7 431.4 418.5 400.9 391.4 383.6 372.1 362.6 347.8 309 270.9 253.9 230.3 204.2 182.7 166.9 151 139.7 128.7 118.8 103.5 95.4 79.1 67.2 53.5 42.6 33.2 31.5 29.5 27.3 29.6 29 27.2 26.8 33.3 57.2 106.7 145.9 160.3 135 155.7 166.4 167.4 155.5 151.6 156 156 164.3 170.6 178.1 175.6 162.6 145.7 134.9 127 119 115.7 93.5 88.3 98 124.3 141.1 148.8 164.3 188.6 202.9
