ncols 200
nrows 82
xllcorner 240000
yllcorner 751400
cellsize 50
305.3 311.7 314.2 313.6 315.6 315.8 315.9 318 319 319.5 319.6 319.5 318.6 318.2 317.3 316.6 316.1 313.2 311.9 311 312.3 313.9 316.8 317 318.1 317.7 315 313.9 313.7 312.3 311.6 313.6 311.6 309.7 309.3 309.9 311.3 312 312.1 310.8 309 309.2 311.8 313.2 310.2 308.7 308 307.7 309.2 308.4 305.9 302.7 302.5 303.6 303.9 301.8 300.4 299.1 298.7 296.7 295.5 293.8 293.1 291.7 289.6 287.8 286.4 285.8 287 287.2 283.4 284.1 287.7 292.5 291.7 292.2 296.6 302.9 304.3 310.1 313.5 315.5 317.5 320.8 323.5 327.3 329 330.4 332.5 334.7 335.9 334.4 335.3 336.6 336 335.2 334.4 334.9 335.5 335 334 330.8 326.9 322.6 320.5 317.2 314.7 310.4 305.7 301.4 300.4 298 296.5 290.4 288.4 274.3 267.9 275.8 286.6 291.2 284.5 293.8 303.7 309.7 311.2 315.2 316.3 325.5 331.8 334 338.3 341.1 347.3 353 352.9 351.9 351.5 357.1 365.3 367.5 368.7 370.6 370.3 370.5 368.4 374.6 377.4 376.5 376.4 378.9 380.5 385.5 390 394.8 401.4 407.6 417.8 420.4 426.9 435 433.5 429.8 428.6 432.4 432.6 425.8 422.5 424.7 418.7 408.3 400.7 394.4 378.6 367 354.6 341.4 326.2 309.2 294.4 296.2 275.5 269.9 261.7 255 253.5 253.8 254.7 254.7 256.9 259.2 260.2 258.9 256.9 252 243.1 250.7 253.6 254.9 259.1 256.5
305.3 309.4 310.8 312.9 314.9 315.7 317.4 319.3 320.4 321.2 321 324 322 320.2 317.6 315.1 312.9 314.5 311.8 312.1 312.8 313.8 318.4 319.1 318.4 316.3 314.9 313.6 312.8 312.3 310.8 311.5 310.9 309.7 312 316.9 314.7 310.8 309.6 309 309.4 310 310.9 311.8 310.5 310 310.3 310.3 310.7 307.5 304.5 303 308.1 310.5 304.5 302.9 301.5 299.8 299.4 297.8 298 297.9 296.9 295 292 290.4 289.1 288.2 288.3 285.7 285.7 285.5 294.3 294.8 293 295.1 298.6 300.7 306.5 315.1 316 320 322.6 323.6 324.2 325.9 329.9 331.7 334 336.2 335.5 334.7 338.1 336.9 335.8 335.1 335.8 336.7 336.9 335.8 334.8 331.8 327.3 323.8 321.8 319.9 322.3 313.9 306.8 303.8 300.7 300.5 297.2 290.3 285 275.8 267.9 275.8 282.1 283.8 288.1 297.5 305.1 312.1 315.3 324 325.5 328.6 334 337.8 339.7 342.4 347.2 351 352 355.7 354.7 358.2 367.2 372.7 375.2 375 372.1 370.1 373 383.4 381.2 381.1 385.4 384.1 385.2 387.4 392.6 397.8 400.3 404.6 407.7 409.9 415.9 416.7 419 419.2 415.3 412.4 409.7 406.7 401 397.9 401 394.8 380.9 366.1 356.3 343.3 332.2 327.2 313.3 288.9 288.8 280.4 272 262.9 261.3 256.5 253.7 254.1 256 256.2 257.5 258.8 258.8 257.9 256.7 250.6 249.2 253.6 255.5 260.8 260.4 259.7
309.8 310.6 311.4 314.3 315.3 318.7 318.9 320.4 321.5 320.5 320.2 319.5 319.1 318.8 318.1 315 312.9 312.4 312.5 313.6 314.1 320.6 320.6 318.7 317.7 316.4 315.9 314.6 314.5 314.9 313.6 311.1 310.7 313.7 313.8 317.8 314.2 310.7 309.2 309.1 310.8 311.6 310.5 312.8 311 312 311.4 311.9 309.1 307.2 304.3 305.4 309.2 308.2 305.9 304.1 302.5 299.9 299.7 297.8 299.5 300.7 299.4 296.6 293.7 292.4 290.7 288.7 290.5 290.2 289.6 291.7 299.2 295.7 295.4 299.6 306.1 304.9 310.2 315.3 318.9 322.7 324.9 324.4 325 326.9 329 332.7 335.3 335.9 335.1 334.5 335.1 337.2 337.4 338.1 338.3 338.5 337.8 336.6 335.7 331.9 327.7 325.1 322.9 323.2 328.8 311.6 306.8 302.7 304.9 303.3 297.9 292.6 284.4 269.7 268.9 278.1 284 285.9 290.1 300.6 308.6 316 326.3 328.7 330.8 332.4 334.6 337.3 339.5 342 346.3 348.6 352.8 357.9 358.5 359.7 364.1 370.9 371.5 372.8 372.3 371.6 376.2 377.1 376.4 377.9 380.9 383.9 388.1 390.2 390.1 395 398.1 402.5 403.3 402.4 403.7 405.1 406.2 407.8 405 403.4 397.7 391.3 383.6 380.2 374.7 366.9 356 349.3 339.2 331.4 315.2 299.9 284.8 283.6 278 270.8 263.4 263.1 266.5 258.4 254.2 255.6 256.1 257.8 258.5 259.6 258.7 257 250.8 247.7 253.5 256.7 261.3 265.1 262.4 262.8
313.2 313 313.1 315.7 317.6 318.4 320.2 321.5 322.6 320.7 319.5 318.9 320.9 319.4 318.6 314.9 314.5 317.3 314.2 313.9 317.2 320.5 321.1 318.6 317.2 316.8 316.3 315.8 319.6 316.1 314.7 312.9 314.1 315.1 314.4 313.8 311.8 311.3 309.7 309.5 311.2 312.2 311.5 312.4 312.8 311.5 314.2 310.9 309 307.5 305.9 308.6 309.8 309.6 308.6 305.8 302.6 301.1 299.9 299.5 299.3 302.9 300.4 297.3 295.3 293.2 290.7 288.6 290.3 294.4 294.1 296.8 301.7 299.1 301.3 306.5 307.9 308.9 312.8 314.9 320.6 322 324.6 324.3 325.8 327.6 330.6 334.2 336 335.6 335 335 336.1 338 339 339 339.1 339.3 338.1 336.8 334.9 331.7 327.7 325.5 323.1 321.8 316.9 311 305.8 309.5 309.6 305.3 298.6 294 281.7 267.9 270.1 280.6 282.1 284.9 295 305.1 314.1 324.7 328.4 331.6 331.9 332 333.5 334.8 336.6 341.3 345 351.1 358.6 361.4 361.9 365.9 366.2 368.5 370.9 373.6 375.4 375.7 375 374.6 375.7 380.5 383.3 383 385.9 387.5 388.9 390.4 395.2 398.5 397.7 396 395.1 392.8 399.8 404.1 401.1 395.6 390.7 381.6 371 366.7 361.5 356.9 343.8 326.9 317.2 313.1 306.5 285.8 280.7 281.5 269.2 263.1 261.9 260.8 260.4 261.2 254.1 255.5 257.7 258.6 260 259.4 259.7 253.2 252.9 254 259.2 260.5 266.9 264.2 264.3 266.7
314.4 315.3 315.9 319.1 320.7 320.2 321 321 322.8 320.9 319.6 319.1 319.9 318.9 319.3 317.6 317 315.7 314.4 314.3 317.1 320.6 322.9 319.6 317.7 317.4 317 316.6 317 317 316.3 314.8 316.7 317 315 315.4 313.3 312.6 311.5 309.6 311.6 311 311.1 311.4 313.4 312.8 312.5 312.2 310.1 308.2 307.4 311.8 312.9 311.2 309.7 307.5 305.2 301.5 299.7 299.8 299.2 298.6 298.8 298.4 295.4 292.6 290 289.8 293.2 296.6 297.7 300.1 300.2 303.7 308.4 306 309.7 313.4 314.6 316.9 319.3 321.6 323.8 324.4 326.3 329.8 331.5 334.3 334.8 335.6 335.3 336 337.3 338.4 339.4 339.7 340.4 338.9 338.9 336.8 332.6 329.9 326.2 323.9 320.6 316.4 309.4 306.1 310.6 311.8 311.2 306.5 298.7 295.3 277.8 267.9 273.7 278.2 280.3 290.1 300.4 310.5 319.5 324.9 330.7 330.9 329.5 330.6 329.9 332.8 335.7 340.8 346.8 352.1 358.2 362.1 364.9 367.1 370.8 374.5 377 378.2 379.2 378.9 377.6 378.5 385.1 389 387.8 387.3 389.9 391.1 393.8 393.3 398.1 400.2 395.6 387.4 386.6 392.6 395.4 392.9 385.8 378.9 373.8 369.1 363.7 353.3 348.7 341.1 325.9 311.2 304.5 294.4 276.6 270.1 268.8 270.6 264.4 261.1 260.7 260.2 259.1 259.5 254.1 258.3 258.3 259 259.7 259.1 256.7 258.9 256.1 259.5 262.2 265.1 266.5 264.7 270.4 269.9
316.6 317.4 318.9 320.4 321.9 324.3 324 321.9 321.6 321.4 323 319.8 318.2 318.3 318.9 320.6 317.4 316 314.8 314.2 316.1 321.1 321.6 320.3 318.2 317.9 317.6 317.6 317.7 317.5 317.6 318.7 320.4 318.4 316.6 316.9 315.4 313.7 311.6 310.4 309.1 309.8 310.2 311.3 317.2 313.3 312.6 312.5 310.8 308.4 309.1 312.4 314.4 312.2 311.8 308.4 306.6 300.9 299.3 297.1 296.9 297 297.5 297.4 294.8 292.1 292.6 296.3 297.6 298.9 303.2 305.9 304.2 310.1 309.4 308.7 311.2 316.5 318.4 318.7 319.6 321.8 323.4 324.5 328.9 330.6 332.4 335 334.6 335.2 336.1 337.1 338.2 339.9 340.2 340.3 340.6 338.4 338.1 335 330.8 328.2 324.2 320.6 315 308.6 309.1 308.8 311.5 311.8 309.7 307.6 297.6 286.9 271.4 270.7 276.3 276.7 283 296.2 306.4 315.5 320.8 323.5 326.7 329 328.7 330.7 332.9 334.6 337.6 342 348 354.1 357.8 361.7 366.7 370.1 374.9 379.4 381.5 381.7 382.7 382.8 380.7 382.6 386.5 388.1 388.7 394.4 398.1 393.2 401.1 399.4 402.5 401.4 388.5 383.7 381.7 388.3 387.6 385.4 374.6 368.4 364.6 360 354.7 345.5 335.1 334.1 313.9 299.9 289.7 274.1 270.8 260.7 259.6 259.6 260.3 260 259.5 259.5 258.8 257.3 255 256.5 257.8 259 259.7 262.9 263.4 261.1 261.7 261.5 265.9 267.8 267.5 271.3 274.9 274
318 318.8 321 322.3 323 326.5 323.3 322.2 322.2 324.6 321.6 318.4 318 318.3 318.3 319.2 317.5 316.3 315.4 314.8 315.2 320.4 321.7 320.7 319.8 318.3 318 319.5 319.2 319.1 318.8 320.9 320.2 317.3 318.2 318.2 316 312.1 310.8 309.4 309.2 309 309.5 310.8 312 312.9 313.9 315.7 312 310 312 311.4 313.2 311.2 311.4 306.4 302.2 300.2 300.9 298.4 298.3 297.5 295.4 294.8 293.6 293.8 298.7 303 303.1 304.8 309.5 309.7 309.5 308.9 308.2 310.1 313.6 316.1 320.9 319.5 320.1 321.4 322.9 325.3 328.1 330.1 335.6 332.1 332.8 335.3 335.9 336.1 338 340.1 340.5 340.5 339.2 337.7 335.4 330.8 328.1 326.8 323.1 318.5 310.8 309.7 310.5 310.7 311.1 311 307.1 298.3 288.6 274 268.7 271.6 275.1 277.9 292.3 304.8 312.9 319 321 322.3 327.1 329.2 331.2 334.5 335.9 335 337.3 343.5 352.1 357.5 362 367.7 372.6 374.2 379.1 382.3 384.1 385.4 387 385.1 384.4 385.5 388.9 388.8 389.8 391.5 392 393 398.1 400.6 399.3 387 387.2 378.5 376 375.2 374.3 373.7 372.5 367.2 360.7 354.4 351.4 335.5 330 318.4 304.2 290.7 276.3 265.1 262.8 261 258.5 259.2 259.1 259 258.3 257.9 258.3 256 255.6 256.3 259.1 260.2 262.7 264.8 265.1 265.3 265.7 264.3 270.5 272.5 270.6 276.1 279.2 276.8
318.9 320.4 321.2 323.2 325.9 323.7 322.6 321.8 322.5 323.2 320.6 319.1 317.4 318.3 321.8 319.9 317.1 316.2 315.9 317.2 315.5 322.8 324 321.6 321.4 319.5 322.2 320.5 319.4 319.3 320.3 318.8 317.5 316.4 315.5 316.3 314.5 311.6 310.6 309.6 309.4 309.3 310.6 309.9 310.9 313.6 315.2 314.8 313 311.7 311.5 311.6 310 308.6 306 304.5 306.3 304.3 301.9 302.5 298.2 296.3 294.3 294.6 295 298.6 304.6 307.9 310.2 308.8 311.9 311.4 311 310.1 310 311.8 315.3 317 319 319.7 322.6 323.7 323.7 326.4 328.2 329.2 328.8 329.6 332.3 334.5 336 336 337.6 339.4 340.4 340.1 338.3 334.8 330 326.8 325.2 323.8 321.4 316.4 313.1 310.9 311.3 312.1 311.9 311.4 304.7 300 280.9 269.1 274.5 277.6 279.6 280.8 303 309.4 317.6 323.4 325.3 327.2 331.9 334.9 336.3 337.2 336.7 336 338.3 347.6 355.3 361.4 366.5 371.8 376.7 377.4 381.7 383.5 384.2 384.8 388.6 390.3 390.1 396.6 398.9 396.6 394.6 390.7 389.3 389.4 388.7 388.9 388.5 379 377.3 374.4 373.1 372.4 371.3 370 366.7 366.1 364.7 355.2 349 333.5 317.5 298.9 291.3 281.7 273.5 264.7 261.1 259.6 258.3 258.6 257.3 258.3 257.2 256.3 254.9 254.6 258.5 258.6 261.1 262.4 264.6 265.4 266.9 267.1 267.4 268.3 275.5 274 273.8 282.2 279.7 285.3
318.8 320 321 324.1 323.7 322.3 322.1 321.6 321.9 322.1 321.3 319.9 321.5 318.9 319.3 318.6 316.2 316 317.1 317.3 317.6 319.2 321.2 320.7 321.5 322.2 323.9 321.9 320.2 319.4 320.6 317.5 317.3 316.2 315 314.2 313.5 312.1 310.6 310.6 309.8 310.9 310.9 309.8 310.8 312.6 314.9 313.8 313.2 312.2 311.8 311.4 308.8 306.8 308.6 311.3 309.5 304.6 302.6 299.1 295.9 295 296.9 297.1 299.3 304 310 311.1 310.6 309.8 310.9 313.1 311.8 311 312.7 314.4 316.6 319.1 320 321.8 323.7 323.8 324.3 326.9 329 327.8 328.3 330.9 333.5 335.7 336 336 339 339.6 340.2 339.4 337 332.5 330.8 329.3 327.2 325.1 323.1 320.1 316.4 310.7 311 314.1 310.9 309 293.3 281.7 277.2 277.5 275.9 284.6 289.5 287.8 306.9 313.9 322.5 326.7 327 329.3 333.5 337.5 338.8 338.9 337.7 336.6 340.9 349.9 357.9 364.3 367.8 371.5 376.5 378.3 384.3 386.2 385.3 390.2 392.8 393.8 399.3 400.7 399.5 397.2 393.7 388.6 387.7 384.2 381.5 381.7 379.5 376.2 373 368 367.1 367.5 366.5 364.4 360.9 359 355.9 350.3 338.6 318 303.4 288.4 282.2 278.5 273.6 268 261.5 259.4 259.1 259.7 256.9 255.5 255 253.9 254.2 254.5 257.8 259.8 262.6 264.2 266.1 268.1 268.4 268.9 270.2 273.3 275.3 275.4 277.5 281.4 282.2 283
317.9 319.2 320.7 321.1 320.7 320.3 321.5 321.9 323.2 323.7 322.3 321.5 321.8 323.1 320 318.3 315.5 313.2 315.3 318.2 319 318.9 319.9 321.9 323.2 325.7 324.2 321.6 319.9 318.7 317.7 317.6 317.2 315.6 313.9 313.8 313.1 311.4 310.5 311.3 312.1 310.6 310.5 312.3 311.7 313.6 314.1 313.7 313.3 313 312.9 312.7 312 309.2 313.9 309.9 309.6 303.8 299.9 295.8 296.2 299.2 300.7 301.4 304.9 306.8 308.5 310.4 310.6 310.8 312.6 313.2 312.5 313.3 314.9 317.3 319.3 320.1 321.2 323.6 322.6 323.2 323.6 327.3 327.1 328.1 330 332.1 333.7 335.4 336.4 337.8 339.5 340.2 341 340.1 338.2 334.8 332.9 331 328.9 327.6 325.8 323.3 319.3 317.2 316.9 317.9 310.9 302.9 282.5 279.8 274.8 278.1 280.6 288.7 288.3 294 307.4 316.8 325.8 330.2 331.1 331.4 333.3 337.5 339.7 340.4 337.7 340.1 346.9 355.5 362.9 367.3 371.2 374.7 375.4 378.3 387 388.9 388.7 391.9 394.6 397.7 401.2 400.2 398.6 396.8 393.6 386.7 386.1 390.3 395.8 393.8 392.7 387.7 379.6 379.3 371.7 363.3 362.8 355.9 350.2 350 337.5 330.9 322.3 301.4 289 280.4 279 277.4 273 267.8 262.4 260.5 261.1 260.6 258.4 256.6 254.7 255.3 256 259.8 262.3 265.7 266.5 267.3 268.4 269.9 271.5 271.6 275.2 277.6 277.8 278.9 279.3 284.4 284.3 286.1
316.2 318 318 318.4 318 319.4 321.6 322.7 324.9 322.7 321.9 320.2 322.9 323.3 319.1 316.3 314.4 312 312 318.4 320.9 319.9 319.2 320.7 324.1 324.3 324.6 321.3 319.1 317.8 317 317.2 317 314.7 313.1 313.7 312.2 310.4 310.4 313.7 311.2 310.9 313.7 313.4 313.1 312.7 313.9 315 314.6 314.4 314.2 314.3 315.3 310.5 310.9 307.5 302.6 300.2 297.1 298.2 307.8 307.1 303.7 303.9 304.8 306.4 309.5 310.4 311 312 312.6 313.7 313.8 314.1 316.9 318.2 319.7 322.2 322.5 323.9 323.4 323 324.9 326.6 327 329.1 331 332.5 333.8 335.1 336.9 339.4 339.9 340.4 340.9 340.4 338.5 336 332.9 330.5 328.3 326.7 325.5 324.1 320.9 319.8 318.8 317.4 305 283 280.9 278.6 274.9 279 289.1 290.1 288.8 299.4 310.2 322.7 329.5 333.8 335.7 336.3 336.2 337 341.1 342.7 340.5 342.8 353.3 360.8 366.4 370.6 374.5 376.7 379.8 382.2 385.1 390.4 394 395.6 395.9 397.2 397.4 401.2 399.2 393.8 391.6 387.1 393.8 400 399.6 395.2 388.2 389.4 384.4 385.1 370.7 359.6 355.5 345.8 339.6 338.5 325.2 314.1 302.1 293.5 286.2 281.6 280.4 277.3 272 265.4 261.8 262.5 261.9 262.2 260.8 256.7 255.3 256.7 257.6 261.2 265.8 267.4 268.9 271.4 270.9 273.4 274.5 276.6 280.2 280.1 281.3 279.5 282.9 287.3 288.9 285.7
314.6 314.8 314.7 314.8 317 320.4 322.1 323.3 324.3 324.9 322.1 318.4 327.4 321.9 317.2 316.1 313.5 312 312.5 318 322.4 320.5 319.4 319.2 320.3 322.9 323.9 320.4 318 317.4 317.2 317 315.8 313.8 312.4 311.6 310.7 311.5 313.2 311.5 310.9 311.6 313.6 313.2 312.5 313.4 314.8 315.7 316.6 316.7 316.7 314.5 312.8 310.1 306.7 303 301.2 298.1 300 307.6 310.1 306.6 304.1 304.3 306.4 309.1 310.9 311.5 312.9 313.9 313.9 314 316.7 316.7 318.5 320.7 323.4 323.2 323.4 324.3 324.2 324.2 325.9 327 327.6 329.6 330.8 332.5 334.2 335.9 337.5 339.7 340.4 340.5 340.5 340.5 338.8 331.8 330.7 329.3 325.7 323.3 322.5 320 318 319 320.1 311.7 291.5 282 280.6 277.5 277 279.7 294.3 290.1 291.3 302.5 314.8 324.9 331.2 335.3 338.9 340 339.8 339.3 342.9 345.5 345 348.6 358.3 365.5 370.5 373.9 376.7 379.2 383 385 387.9 394.3 396.6 396.7 396 396.3 395.6 397 393 389 387.7 396.5 395.6 399.3 394.5 390.9 385.6 385 378.7 376.3 357.9 347.3 346.1 338.9 328.9 323.5 322.4 316.5 304.8 297.3 292.8 284.8 282.1 276.9 270.6 264 259.8 260.9 258.8 259.9 256.9 257.3 258.3 259.3 261.7 264.4 267.8 269.4 270.6 271.4 273.7 275.8 276.8 281.7 282.1 282.2 282.2 283.4 288.2 288.3 288.2 287.7
310.9 312.3 312.2 313.2 317.6 320.4 323.3 327.5 327.4 324.1 319.2 317.3 320.1 318.4 317.3 314.4 314.1 313.8 315.5 320.6 321.3 320.4 319.4 318.6 319.2 321.1 319.4 317.4 317.4 317.4 317 318.3 316.5 314 312.4 312 312.3 315.3 313.2 312.4 314 313.6 313.3 313.9 313.4 314.6 316.2 317 317.8 316.1 316.1 318.2 310.7 306.2 303.2 301.4 300.8 301.1 305.2 310.8 308.1 306.1 305.1 304.6 307.9 310.7 311.6 312.1 313.2 314.5 314.8 315.4 318.9 318.8 318.6 321.4 323.5 323.7 323.9 324 324.5 324.6 325.3 327.1 328.3 330.1 330.1 331.9 333.7 335.4 336.8 339 340.2 340.4 340.3 339.2 331.2 330.7 329.6 325.8 321.2 319.5 317.4 313.1 310.4 310.7 304.2 305.1 283 281.3 279.8 275.9 279.2 281.9 289.8 288.6 297.2 306.9 316.3 327.8 333.1 336.9 340.2 342.4 342.6 342.4 346 350 353 356 364.6 369.7 373.7 377.6 379.1 382.6 387.8 388.1 389.2 397.3 397.1 396.2 394.8 393.2 391.6 392.2 391.5 391.5 389.2 391.2 393.8 390.8 387.9 383.8 379.2 369.5 360.9 353.4 344.4 342.1 339.3 336.3 331.5 328.7 324.4 313.4 310.2 304.2 285.5 283.5 278.7 272.7 266.7 261.8 258.1 259.1 259.4 257.6 259 261.3 261 261.8 263.1 266.5 269.8 271.9 271.9 272.6 276.4 277.3 280.8 283.3 283.9 284.5 285.7 286.7 289.3 290.3 291.1 291.2
309.3 312.1 311.3 314.5 318.6 324.4 326.4 328.8 324.5 319 315.3 314.8 316.9 317.1 315.6 313.9 313.1 313.2 317.4 320 320.1 320.3 319.2 318.1 317.4 317.4 317.4 317.4 318.3 317.8 318.8 317.6 316.6 314.2 313.5 315.6 315.7 314.2 313.3 317.3 317.9 315.5 315.5 314.6 313.7 314.2 314.7 314.9 315.3 315 317.9 313.9 308 303.8 301 300.1 304 306.9 304.8 306.1 306 306.3 306.6 306.2 308.5 310.2 311.2 310.7 311.4 313 313.5 317.9 320.8 321.5 320 320.9 321.8 322 322.2 322.3 323.7 324.1 325.2 326.9 327.3 329.4 330.1 331.4 333.2 334.9 337.1 338.3 338.4 338.4 337.3 334.4 330.9 329.3 326.5 322.2 316 314.1 310.6 306.2 307.9 309 287.5 284.6 284.5 280.7 279.6 276.2 282.6 285.5 289 289.3 302.9 309.1 316.9 327.2 336 338.5 341.4 344.3 344.2 345.9 352 356.2 358.4 359.2 365.5 371.4 375.6 377.2 380.1 383.4 387.5 388.6 390.1 398.3 397.8 396.3 393.6 391.1 389.9 390.2 392.7 389.2 388.5 391.4 389.7 384.5 385 373.9 368.6 361.3 355 346.8 340 343.1 337.1 335.5 326.4 321.3 315 310.3 305.9 287.1 280.8 275.4 273.5 268.9 261.1 256.7 258.9 263.6 263.3 262.8 263.5 262.3 261.8 265.6 267.4 267.3 271 272.7 274.6 275.9 279.3 281 284.2 285.4 285.9 286.8 287.8 290.2 291.7 294.9 294.6 295.7
305.2 307.8 312.2 315.2 317.4 323.2 323.4 324.3 317.8 314.2 313.9 313.9 314 314 313.8 312.9 312.4 315 319.2 320 319.8 319.1 318.4 317.5 317.4 317.4 317.4 318.2 319.5 318 317.7 316.9 316.4 314.8 317 316.1 313.6 313.3 314.2 316.2 316.6 316.9 316.7 314.9 314.7 313.3 311.6 312.8 313.7 315.1 312.6 308.5 306.4 302.6 300.6 301.2 303.3 306.1 305.2 305.3 305.4 305.9 306.3 307.1 308.5 309.6 310.3 310.4 310.6 312.3 314.3 318.8 321.7 321.3 320.7 320.9 321.2 320.4 320.4 320.6 322.7 323.5 324.9 325.2 326.2 328.8 330.3 331.3 332.2 333.7 334.9 335.7 336.3 335.8 333.5 330.8 327.9 325.4 321.7 317.2 310.7 307.4 303.5 302.8 303.6 295.9 284.7 286.9 281.6 277.6 276.8 278.4 279.3 290.1 290.2 293.7 306.2 314.8 320.5 329.1 337.7 342.1 345.1 347.9 348.2 349 354.8 358.5 360.3 361.8 369.2 373.4 377 379.3 382.3 384.3 388 389.3 390.6 398.1 396.5 395 391.6 389.4 388.7 387.6 389.9 389.2 383.2 381.2 381.2 380.7 382.4 371.9 367 355.4 348.6 339.6 333.7 333 331.1 328.7 319.2 321.3 312.7 303.5 288.2 281.4 274.9 271 269.4 265.5 261.7 261.8 258.1 260.6 260.9 262 263.1 263.3 263.6 266.6 269.2 269.2 273.6 275.3 276.3 278.6 282.4 283.3 285.3 286.7 287.7 289.5 288.5 294.3 301.9 300.4 298.4 298.2
306.7 309.5 315.9 315.4 314.3 318 320.2 318.5 315 313.9 313.9 313.9 316.1 314.5 313 312.2 313.3 317.2 319.8 319.3 318.6 317.9 317.2 316.6 317.4 317.4 317.4 317.6 319 319.5 318.9 317.8 317.3 317 314.8 313.8 313.7 314.5 314.1 317.3 317.5 319.4 316.3 314.3 314.8 314.7 312.9 312 311 309.2 308 306.1 303.3 300.8 300.5 304.5 304.9 305.7 306.9 305.1 305.2 305.7 306.2 306.8 307 308.2 310.1 310.2 312.3 314 315.2 320.1 321.1 320.6 320.3 320.2 320.5 319.1 319 319 321.6 323.3 323.1 324.2 324.5 328 329.1 329.5 328.9 329.3 329.8 331.1 331.9 332 329.4 325.9 322.7 318.2 314.2 310 303.6 300.2 296.2 303.9 296.3 283.4 280.6 280.1 278.1 280 280.7 279.8 279.7 294.7 294.2 299.6 310.5 321.1 327.1 333.3 337.2 344.9 351.7 352.5 352.2 351.8 356.8 360.7 361.5 365.2 370.6 374.9 377.9 381.2 385.4 387.1 389.4 390.1 391.9 394.3 393 390 387.5 386.1 385.9 384.7 382.8 378.4 376.8 377.4 378.4 379.5 375.6 365.7 359.4 352.1 343.3 332.8 326.1 321.8 321.6 315.3 311.1 300.8 290.7 279.3 276.2 275.7 276.9 273.4 268.3 263.4 263.3 262.6 258 260.7 262.8 263.8 264.6 264.3 264.6 268.1 271.6 272.6 276.9 277.7 277.2 281.3 282.1 283.5 286 288.1 288.9 291.8 289.9 299.6 301.2 302.8 300.9 301.5
309.6 309.7 310.1 311.4 312.2 313.2 314.7 314.8 314.4 313.9 313.9 314.3 317.1 314 312.7 312.1 313.8 317 317.9 318.1 317.4 316.7 316.8 317.2 317.1 317.4 317.4 318.4 319.2 319.7 319.2 317.6 317.8 316.7 314.7 317.2 316.9 316.6 317.1 317.8 318.5 318.4 317.5 315.4 316 315.5 313.5 313 310.1 308.3 309.2 303.7 301.1 300.8 304.1 308.1 305.2 304.7 308.3 305.6 305 305.5 306.1 306.6 306.6 307.2 309.9 311.3 312.9 315.6 315.7 319.8 320.1 319.9 319.9 319.8 319.8 318.7 317.6 319.8 322 324.5 323.3 323.8 322.8 324.3 326.3 328.3 325.7 325.3 325.3 326 325.2 325.8 324.6 319.7 316.8 311.6 307.5 302 297.3 292.1 291.8 295.2 281.5 279.8 281 280.4 280.4 284.7 287.1 284.6 281.7 290.3 295.3 305.9 316.8 324.6 331.5 337 340.8 345.2 353.4 354 355.3 355.6 357.9 360.7 361.5 364.3 371.3 377.6 381.6 385 388.5 389.3 390.9 391.2 388.9 391.3 390.6 386.4 384.5 383.4 382.9 380.1 377.6 372.6 370.6 372.4 373.1 371.3 365.6 361.3 354.6 345.7 335.4 323.8 317 311.2 308.5 300.8 298.5 290.7 281.8 278.2 277.9 277.9 276.6 273.6 268.6 262.4 260.3 260.2 259.4 261.9 264.5 266.2 266.9 267 268 271.3 275.1 276.9 277 278.1 280.5 278.4 281.1 282.5 285.8 288.6 292 293.6 294.4 300.3 302 305.5 306.5 303.5
309 308.7 310.1 311.7 312.3 313.1 313.4 314.4 314.4 314.9 314.6 313.7 315.2 313.4 312.2 312.2 313.1 313.5 314.1 316.4 317 317.4 317.9 318.4 318.8 317.8 318.5 318.9 319.5 319.9 318.8 318.1 319.1 318 319.5 319.6 319.2 317 317.8 318.7 319.3 319 318.3 316.4 316.6 317.8 314.8 313.4 308.3 307.2 307 305.3 301.3 301.5 305 307.9 311.3 307.9 311.2 306.8 304.6 305.4 306 306.5 307.4 309.4 312.4 313.8 314 314.5 315.8 318.6 319.2 318.9 319.5 319.8 320 319.2 317.7 318.6 318.7 320.2 322.2 322.6 320.5 321.2 325.8 326.7 323.6 319.8 320.6 319.9 320.2 319.5 318 312.5 309.5 306.5 301.2 296.3 292.9 287.4 283.3 280.2 283.1 283.2 285 286.5 286.9 290.2 298.1 292.7 290.7 291.6 298 309.7 320.5 328.5 333.4 339.5 343.3 348 354.9 356.2 357.1 358.1 359.5 360.6 361.9 364.4 371.5 377.9 383.3 386.3 392.3 391.7 388.4 385 382.2 388.5 386.7 386.9 382.1 380.7 379.8 376.2 372 368.3 363.3 365.6 365.9 364.9 362.9 356.4 347.5 334.7 327.8 318.5 310.4 304.1 300 297 294.3 286.4 279.2 278.6 278.5 277.5 275.4 272.4 266 261.2 259.9 258.3 261.9 264.1 266.2 267.6 268.6 269.1 273.1 275.4 276.1 277.3 277.8 279.9 282.6 282.6 284.7 286.8 287.9 291.2 292.7 297.8 299.8 300.7 302.5 304.3 304 302.5
306.3 307.4 310.2 311.2 312.4 314.6 314.4 313.9 315.4 317.9 315.1 314.4 313.9 312.7 311.6 312.8 313.6 313.4 313.6 315.2 316.6 317.6 319.1 320.1 322.1 320.6 320.3 319.6 319.4 318.8 318.6 320 319.7 319.1 320.9 321.2 320.3 319.8 319.2 319.6 319.9 319.4 317.9 317.1 317.7 316.8 313.7 309.7 307.6 305.4 305.3 304.6 303.7 304.6 307.5 309.4 310.2 308.6 306.5 306.6 306.8 303.7 306.6 310.2 310.4 312.5 313.8 314.1 313.8 312.9 316.1 318 317.7 318.1 319 321.9 316.4 315.1 313.2 316 316 318.2 318.2 315.9 315.7 318.1 323.9 323.4 319.7 313.2 314.4 311.9 312.1 311.4 310.3 307.5 303.8 301.9 299 293.7 289.9 284.3 280.1 283.4 284.2 285.5 286.4 290.2 291.9 297.6 306 295.4 292.4 291.9 297.2 311.3 321.6 331.9 337.9 344.3 347.9 351 354.4 356.2 358.2 359.2 361.1 361.4 362.7 367.2 374.1 379 383.8 385.4 386.4 382.9 380.9 379.8 379.7 381.2 383.1 384.2 380.3 377.9 375.4 371.4 366.7 364.8 361.3 362.4 360.5 355.6 353.6 345.6 335.2 330 318 312.6 305.3 302.3 298.5 294.7 289.5 282.8 276.3 277.5 275.9 273.7 273.3 270.3 264.7 259.7 260.1 259.8 262.7 264.1 265.7 268.6 269.3 270.1 271.2 273.1 275.9 277.5 278.3 280.5 284.1 286.2 292.3 294 291.7 295.6 295.8 300.1 302.2 303.5 304.9 305.8 306.2 304.9
305.8 306.7 308.5 312.9 314.1 314 313.5 313.3 315 315.4 315 315.3 314.3 311.9 312.4 317 314.8 314.7 314.6 316.2 317.8 318.8 324.5 324.3 323.9 323.4 322.2 321.3 323.5 320.5 321.3 320.9 320.7 322.3 321.5 319.9 320.6 318.8 318.4 324 324 320.5 318.4 316.2 318.9 314 311.3 307.8 311.1 309 308 308.4 308.6 309.3 312.5 309.7 313.5 307.5 306.5 309.9 306.9 303.1 302.8 304.8 310.5 310.6 311.8 312.8 311.7 314.4 317.7 316.8 315.7 315.7 316.2 314.2 311 309.7 308.9 313.1 313.9 314.1 311.2 311.2 314.3 316.5 318.8 317.4 313.8 309.9 306.7 303.8 302.6 303.5 304.9 303.3 300.4 296.5 293.9 290.9 283.9 280.4 283.5 284.6 285.8 286.2 292.1 300.7 301.7 304.5 300.8 293.9 292 295.1 303.7 313.5 324.7 334.3 341.1 346.2 350.8 354.7 355.6 357.4 358.1 359.3 358.9 358.2 365.8 368.6 371.8 374.9 376.3 377.2 378 377.3 377.2 378.6 378.1 376.4 376.4 377.7 378.6 374.8 371.2 368 364.6 360.7 356.9 359.2 355.7 345.1 341.7 335.3 328.4 326.7 310.7 302.4 302.3 299.3 299.7 295.2 283 276.5 272.2 270.6 272.2 271.3 270.6 267.4 263 259.6 258.5 258.7 260 263.4 265.5 269.5 270.5 272.2 272.8 274.6 275.4 277.7 279.2 281.3 285.7 288.7 294.3 295.2 297.1 298.1 298.4 301.8 305.1 307.7 309.6 310.4 310.3 311.8
306.2 306.3 309.3 312.4 311.6 315.7 314.1 315.2 314.9 317.3 316.9 314.3 312 311.9 314.1 317.4 316.1 316.1 316 318 320.1 320.5 322.8 323.8 323.1 322.8 322.3 323.1 323.9 322.1 325.3 319.4 321.6 323.3 322.9 320.8 318.8 318.8 321.6 322.1 320.5 317.9 317.9 316.3 313.9 312.8 310.6 314.5 312.7 312.7 312.7 313.1 311.9 311.8 314.6 308.9 308.8 308 307 306.9 304.1 302.7 302.3 302.2 305.9 306.6 307.6 309.6 312.4 315.9 311.8 313.8 314.5 316.8 312.4 309.9 307.4 306.6 310.9 311.7 308.7 309.9 309.2 309.8 311.3 313.2 312.6 308.2 307.5 301.2 300.9 298.3 297.3 300.4 300.7 299.7 295.3 294.1 291.8 284.6 280.4 283.2 285 285.4 286.4 288.2 292.3 299 303.3 300.6 296.6 294.2 292.1 297.5 312.4 319.6 328.3 336.5 343.3 347.3 353.5 355.9 357 357.9 358.6 359.5 358.7 356.1 358.4 366.2 369.6 371.7 374.4 374.2 374.6 373.6 374 375.3 375.5 373.8 374 376.9 374.7 371.9 368.7 365.2 360.3 356.2 351.5 348.3 343.5 335.7 332.4 323.4 316.8 309.8 301.8 295.5 288.5 288.6 290 281.8 275.1 273 270.4 269.7 269.5 268.8 268.1 264.8 261.8 260 259.7 259.6 260.9 264.6 266.4 270.8 273.4 274 274.2 276.5 278.9 280 281.3 285.3 289.9 294.8 297.8 298.9 300.8 302.6 303 307.1 311.3 316.9 315.1 314.3 316 317.1
306.9 306.1 309.1 310.1 309.7 309.8 310.3 312.8 312.4 313.1 313.1 312.5 310.8 312.6 315.8 316.6 316.9 318 320.1 321 320.2 325.2 324.1 323.6 324.4 327.1 325.2 323.9 323.9 322.1 320.6 323.4 324.6 324.6 321.2 318.5 318.8 319.1 319.9 318.8 318 319.7 318.8 317.6 315.2 313.6 310.7 313 313.9 316.6 315.4 314.3 312.6 313 313.8 309 309 307 306.1 305.1 302.9 302.6 302.1 302.4 303.4 303 304.9 308.2 310.9 309.2 307.3 308.2 314.5 310.3 309 307.7 302.3 302.7 310.1 307.8 303.9 302.1 305.6 304.4 304.6 307.8 305.3 302.1 300.8 295.7 293.6 293.2 296.2 296.9 295.6 296.4 293.7 291 288.1 281.1 283.4 285.5 285.9 285.9 285.9 288.3 290.8 296.4 303.4 302.7 298.9 295.6 293.5 302.8 315 322.9 332.6 340.2 344.3 348.1 353.7 356.2 357.3 358.2 358.9 359.2 358.7 356.8 356.5 361.4 369.8 371.6 373.2 372.2 372.1 370.3 370 372.3 372.7 367.8 369.5 370.4 368.9 367.3 364.9 360.2 353.3 348.6 350.5 346.6 340.7 328.9 323.2 316.5 311.1 304 294.7 289 286.1 283.5 278.3 275.9 273.9 271.9 270 267.3 266.7 266 265.1 262.5 261.2 259.6 258.9 259.4 261.9 266.9 270.2 273.7 275.4 275.7 276.1 278.9 281.6 281.2 285.3 290.9 294.4 300.9 302.2 304.6 304.3 307.3 311 312.6 320.8 324.3 320.9 319.7 321.9 323.7
309.8 309.9 309.3 310.2 309.5 309.8 309.5 310.3 310.3 310.6 310.8 311 312.2 314.1 317.4 318.4 319.1 320.5 323.1 322.6 321.3 325.4 329.5 326 325.9 327.7 327 325.7 324.4 323.1 320.8 323.2 323.6 322.3 321.3 319.8 322.5 319.7 318.3 318.2 318.9 319.6 319.1 317.9 315.2 312 315.5 318.7 319.8 318.8 315.5 313.8 312.6 313.3 314.9 312.8 309 304.8 304.6 303.5 302.6 302.3 302 301.8 302.2 303 305.8 306.7 307.5 306.9 304.9 303.3 304.8 305.6 304.4 305.8 298.6 301.4 301.1 296.3 296.3 295.9 301.3 302.4 300.8 302 298 295.9 294.9 293.7 289.7 289.7 295.1 292.5 292.8 291.6 292.5 285.7 280.7 283.2 285.9 285.6 286.2 285.7 285.4 288.1 294.3 301.7 304.2 304.2 301 298 297.2 303 316.1 325.2 333.2 341.3 346.1 346.8 351.5 355.8 357.6 358.3 358.9 359.4 358.5 356.8 356.7 362.4 369.5 370.7 371.7 370.7 369.7 368.5 368.3 369.6 366.1 362.5 364.6 365.4 364.3 362.2 359 353 344.5 346.9 344.3 339.1 331.4 322.1 314.6 312.1 303.2 297.5 292.1 288.1 284.5 280.8 277 274 271.3 269 267.5 265.9 263.8 263.2 262 259.7 260.3 259.2 262.3 262.4 262.7 268.2 273.2 276.1 277.6 277.9 279.4 281.1 282.6 283.9 288.6 294.4 299.7 302.9 307.1 310 311.7 311 316.8 319 326.5 327.2 326.4 325.5 327.5 330.7
312.3 313.1 312.5 312 311.1 310.6 311 310.3 309.9 310.5 312.8 312.3 313.7 315.1 318.4 320.5 320.6 325.9 326.3 324.6 323.7 325.8 330.2 327.1 325.7 327.9 327.8 325.6 324.8 322.7 323.4 322.2 322.6 322.8 321.8 325 321.1 319.9 323 319.7 322.8 321.2 319.7 317.5 313.3 315.6 317.6 320.3 321.3 316.1 314.7 313.4 312.7 313.7 311 308.9 308.7 305.5 303.1 302.7 302.4 302 301.7 302.8 305.4 305.8 306.3 307.2 306.4 305.1 304.4 302.7 303 302.9 302.1 299.9 297.6 296 292.9 293.2 294.6 294.4 297.3 297.3 297.9 301.1 294.6 293 291.7 291.9 289.2 289.8 292.3 291.8 291.5 291.2 285.4 280.9 284.2 286.1 286.9 287.4 287 285.3 285 292.7 300.1 306.6 307 306.2 302 303.6 303.7 306.7 319.4 328.7 335.3 340.6 342.7 344.8 348.5 352.8 355.6 357 357.8 358.5 358.1 356.9 356 360.9 366.8 367.7 368 368.3 368.3 366.1 367.1 366.1 362.2 357.9 359.6 360.2 359.4 356.6 352.2 347.4 344 344.2 336.8 327 319.9 320.8 310.8 303.9 295.8 291.4 288.2 285.8 283.5 280 275.4 274.3 273.2 270.8 268 265.6 262.8 261 261.8 262.4 261 262.3 266 269.1 266.8 269.9 273.6 276.1 277.8 280.3 282.4 283.7 284.5 287 291.3 296.8 305.2 307.3 308.7 311.9 313.1 316.9 320.7 325.6 328.4 329.5 332.1 332.5 337.4 341.7
316.9 316.8 316.5 317.2 313.8 312.7 311.5 310.9 311.6 312.4 313.5 313.6 314.9 316.4 319.5 321.9 322.7 325.4 329.8 326.8 327.6 328.9 333.4 328.3 325.8 327.5 327.4 325.9 326.4 329.8 330.8 321.2 323.2 325.8 320.8 328.4 320.8 322.2 320.9 321 321.4 320.2 318.8 315.9 318.2 319 318.5 317.6 316.4 314.8 315.7 318 307.9 309.5 308.1 307.5 306.5 303.2 303.5 303.2 302.1 301.8 302.3 303.3 304.5 305.1 305.8 306.6 304.1 301.5 300.9 299.3 302.9 307.5 300.6 295.3 293.4 291.9 290.6 292.3 293.9 293.4 292.7 291.5 290 297.5 299.7 294 291 289.5 288.5 285.9 291.4 290.7 292.1 285.7 281.8 284.3 285.3 287.1 288.8 289.2 288.8 287.2 288.4 294.2 303.3 307.7 307.1 305.4 303.7 305.8 309.7 313.3 322.5 332.1 341.4 341.5 343.7 347.5 348.6 350.7 354.7 355.1 355.5 356.2 356.3 356.7 355.4 360.2 364.5 363.8 364.4 365.8 365.1 362.4 363.9 362.4 358.7 352.6 352.7 354 352.7 349.9 345.3 340.6 340.3 333.8 327.9 320 317.4 312 305 300.2 294.4 293.1 292.7 287.4 283.3 279.9 277.4 275.7 273.9 271.7 269.6 266.8 263.6 261 262.1 264.2 265.1 266.5 270.5 273.3 272.1 274.8 275 276.6 280 283 284.6 284.9 286.8 289.6 295.1 302.2 308.2 310.6 311.9 316.2 318.3 321.4 324.8 331.1 334.2 336.6 339 342.4 346.1 350
317.7 316.7 316.5 315.2 315.1 314.1 312.8 312.1 311.7 313.9 316.1 316.5 317.8 318.6 323.1 326.9 328.2 326.8 328.8 329 329.4 330.8 329.5 328 328.3 329.6 328.3 325.5 325.9 327 329.3 324 320.3 319.7 320.1 323.2 320 323.3 320 323.3 319.9 319.2 318.3 318.2 323.2 321.6 318.8 318.6 315.4 315.1 318.1 314.1 313.2 306.2 305.2 307.1 304.2 305.1 304.3 303.8 302.7 304.1 303.4 303.9 304.1 303.8 308.1 304.8 300.5 297.8 296.3 297.1 300.7 299.4 297.7 294.7 291.6 290.5 290.4 290.3 290.8 289.4 289.4 291.5 294.2 291.8 297.1 293.6 290.5 286.7 286.1 284.4 286.5 288 285.3 282.6 284.5 286.2 286.5 287.1 287.6 290.4 291.3 294 295 294.2 301.1 308.7 308.5 307.7 306.4 310.7 316.7 318.9 323.6 333.5 339 343.2 346.1 347.7 348.7 352.7 353.9 355.1 355.3 354.6 353.7 354.4 355.7 356.8 358.4 359.8 360.8 361.5 360.7 357.5 358.4 357.4 352.6 346.6 346.9 345.8 343.7 341.6 337.1 333.9 331.6 327.3 321.1 315.6 309.6 304.9 299.4 295.3 294 292 289.1 286.5 282.4 279.5 277.1 275.9 273.8 271.6 269.6 267.1 264.3 261.5 264.6 267.8 268.5 268.2 273.5 276.4 277.2 278.1 279.1 279.4 283.3 286 287.5 287.9 291.6 296.8 300.1 305.7 314 315.2 317.2 322.7 324.1 327 331.7 336.9 341.9 349.5 349.4 353.5 356.2 357.8
319 317.9 317.4 317.1 315.6 314.8 315.5 314.4 313.8 316.1 322.4 322.1 321.5 323.8 327.4 327.3 332.8 329.1 332 331.2 330.6 331.3 328.6 328.9 330.7 329.7 328.2 326.5 325.7 326.5 328.6 323.4 322.4 320.9 321.2 322.7 319.6 319.5 320.8 321.5 319.9 318.4 319.4 321.3 321.9 320.9 318.5 316.3 313.5 311.5 314.8 312.8 312.4 312.1 309 307.7 307.5 305.1 303.9 303.5 303.4 302.8 303.1 303.2 302.8 303.2 302.2 299.9 297.7 296.2 296 297 296.4 296.5 295.5 297.3 297.8 297.8 296.8 295.2 295.1 290.7 295.8 294.1 293.3 288.6 286.7 289.5 285.4 285.2 283.1 283.1 283.6 282.4 282.6 285 286.1 288.1 288 289.7 290.3 294.9 297.5 309 301.6 299.5 306 308.6 311.9 312.1 314.3 315.7 316.5 320.6 327.5 335.2 339.5 342.4 344.7 347.4 350 352 352.8 354.3 355.3 353.9 350.6 354.5 355.9 354.6 353.4 355.6 357.3 356.5 355.5 351.9 353 349.5 344.4 337 340.3 339.3 335.7 332.2 328.3 326.8 328.2 319.8 312.8 308.2 302.2 295.1 293.3 291.5 290.2 289.8 287.7 284.5 281.7 278.6 276.4 274.8 273.3 270.6 268.1 266.3 263.7 262.9 266.6 269.9 269.4 270.5 276 278.7 285.2 286 288 286.2 285.8 289.2 292 294.4 299.4 302.4 305.5 308.5 314.4 318.7 326.2 327.3 329.6 334.4 339.4 348.8 351.8 358.2 357.9 364 366.5 369.3
322.2 322.5 320.6 318 318.3 318.4 318.6 318 316.9 317.7 320.9 320.9 323.8 326.4 329.8 329.6 331.7 330.1 332.4 331.3 330.8 330.5 331.3 333.2 331.1 330.7 330.5 328.5 326.3 329.7 327.3 324.7 323.6 322.1 319.8 319.5 319.4 319.7 320.9 320.9 321.5 320.9 322.3 322.1 321.4 320 318.5 315.2 312.4 310.8 313.4 312.6 312.1 312.3 310.4 307.7 306.6 305.8 306.3 306.4 300.4 300.5 301.4 302 301.9 301.6 299.2 296.3 299.4 299 298.2 295.6 295.1 294.9 299.5 298.7 297.2 300.9 301 299.7 299.9 299.1 296.1 295.5 300.1 295.3 293.9 287.6 287.7 288.9 286.1 284.9 282.7 281.3 284.7 287.4 287.2 291.1 293.9 294.8 294.7 297.6 303 311.7 310.4 311.2 311.3 312.8 315.2 315.1 318.3 319.2 320 324.7 331.9 336.4 340.1 341.7 343.3 347.2 350.3 350.1 350.8 352.2 352.3 352 348.2 348.4 349 348.7 349.9 350.9 351.2 351.3 347 344.5 345.2 343 336.7 332.3 333.5 333.1 329.9 325.5 322.6 322.2 314.9 307.3 303.3 301.8 296 292.1 290.3 289.8 289.3 288.2 285.5 282.1 279.6 278.3 276.1 274.5 273.5 270.4 269.6 267.5 264.4 263.1 267.8 269.5 270.4 270.2 274.3 285.9 284.9 282 284.3 284 287.5 291.2 298.2 300 304.2 307.7 312.1 314.1 320.5 326.5 330.4 334.1 337.9 341.1 349.9 352.5 361.7 364 368.1 373.8 377.6 381.3
326.4 324.6 319.2 324.2 323 322.1 321.1 320 319.1 319.2 322 322 324.8 328 334.5 331.2 331.7 331.1 331.1 331.3 331.9 332.6 333 332.5 332.3 334.4 329.5 326.3 325.7 326.4 323.5 323.9 326.6 323.3 320.5 319.5 319.6 319.2 320.3 321.6 322.5 321.2 322.2 323.2 319.8 318.7 316.6 314.6 314 312.3 313.9 312.6 310.4 308.6 307.3 307.6 307.4 307.5 309.6 306.5 300.1 300.2 300.3 299.9 300.8 300.3 297.6 301.7 301.7 299.5 298.1 296.7 294.9 300.7 300.5 301.4 306.4 308.7 306.3 303.5 301.2 301.4 296.5 295.8 302.2 299.6 297.1 292.6 292.6 290.1 287.1 284.1 282.9 281.6 281.2 287.1 287.7 292.1 299.3 299.6 299 305 309.3 315.9 316 316.9 316.8 317.7 319 317.4 317.4 319.3 320.3 327.4 331.9 336.2 340.4 340 341.9 348.5 348.5 347.5 348.7 349.7 349.3 348.7 345.8 343 342.2 342.6 345.8 345.5 346 345.1 342 339.8 337 335.9 330.4 324.7 325.1 324.7 321.8 317.4 315.5 309.9 305.3 300 296.8 294.4 289.5 288.4 288.5 287.9 287.4 285.8 283.3 280.5 279.1 277.5 275.8 274.8 273.8 271.9 271.3 268.4 264.9 264.8 266.6 271.2 274.2 275.4 277.3 278.6 284.3 288 288.4 288.2 290.5 292.9 298.5 302.3 308 314.6 319.6 321.4 330.3 335.3 337 340.8 345.2 348.6 357.6 362.6 368 373.8 379.8 386.8 391.1 396.4
326.6 321.9 323.2 326.4 326.7 325.1 322.7 321.4 322.4 321.3 324.7 329.6 325.6 329 331.7 331.8 331.4 332.1 332.8 332.6 333 333.6 334 332.4 332.9 329.7 328.3 329 325.6 326.3 324.5 321 322.5 327 321.7 320.5 319.4 319.6 320.7 322.7 323.2 321.5 323.2 320.5 318.6 317.5 316.4 314.5 313.1 310.5 309.7 311.5 308.6 309.9 307.3 307.3 305.6 305.7 301.9 301.4 302.1 301.8 304.3 300.5 299 299.1 298.3 304.9 300.6 299.1 298.3 298.6 298 299.6 299 303.4 305.3 309.4 312.1 306.9 304.6 302.9 298.4 297.5 303.2 298.4 296.9 294.2 291.4 288.3 286.2 283.7 282.5 282.6 283.1 285.1 286.5 294.8 299 304 308.4 309.2 319.5 319 319.4 321 322.6 321.7 321.5 318.9 316.4 316.3 319.1 327.6 332 336.2 339.6 340 340.5 344.6 345.5 344.3 345.3 345.6 345.3 344.3 341.6 339.2 338.4 339.2 339.7 340.5 339.1 338.8 337.8 333.1 331.2 327.8 323 318.3 317.4 314.6 311.6 313.1 310.2 305.3 300.5 296.6 291.5 289.1 287.8 286.9 286.3 286 284.9 283.2 281.9 281.3 279.9 277.8 276.1 275.1 274.2 272.8 270.7 267.5 265.3 266.6 270 273.7 276.8 279.5 280.7 285 289.1 291.6 293.2 293.2 294 299.5 302.9 307.5 312.8 320.8 327.7 329.4 336.7 342.5 345.7 347.6 352.9 356.2 365.2 372.4 376.8 384.8 392.6 398.2 404.1 405
324.6 322.4 327.3 326.3 325.5 324.8 323.2 324.4 324.6 323.9 329.5 333.7 329.6 328.5 329.4 332.1 334.2 335.5 335.8 335 335 334.2 333.2 331.6 331.6 329.8 328.2 327 326.5 324.6 321.8 319 321.3 319.2 318.5 318 319 320.1 320.6 322.1 323.5 321.4 320.3 318.4 317.2 315.8 315.7 313.1 312.2 312 313.2 311.5 309.2 310.9 305.4 302.3 301.7 301.7 303.5 303.7 304.9 306.3 302.3 300.7 299.1 297.2 307.2 303.4 300 300.6 301.7 301.6 300.5 301.2 304.9 305.1 307.5 312.2 309.9 307.8 306.4 302.4 298.4 302.4 298.3 298.4 295 291.4 288.3 285.8 285.8 283.6 282.7 282.2 283.3 285.2 287.1 291.4 301.6 303.3 313.1 315.4 319.9 323.9 325.6 322.6 323.8 325.5 319.7 317.3 314.9 313.3 321.8 330.4 331.9 337.7 338 338.2 338.8 339.6 340.7 340.9 341.6 341.2 340.1 338.6 335.5 334.7 334.3 335.4 335.6 333 330.2 332.2 331 326.4 323.8 321.1 315.4 312.6 308.8 306.3 303.3 302.5 300.1 296.8 294.2 290.5 288.5 287.7 286.7 286.1 285.6 283.9 282.4 282.3 282.3 282 280.9 278.3 276.4 275 274.2 272.5 270.1 268.5 266.4 270.7 274.5 277.1 279.9 282.4 283.6 287.8 290.7 294.8 297.5 295.9 303.4 304 308.6 312.8 318.4 324.7 330.6 336 342.6 349.2 350.4 354.6 359.5 364.4 374.5 381.7 387.7 395.5 400.2 408.7 415.3 410.8
324.5 324.1 330.3 329 326.6 325.8 325.1 325 325 324 326.2 328.3 329.2 330 330.3 331.1 333.5 336.8 338.7 337.4 335.7 333.5 332.7 331.8 331.3 330.7 328.4 326.3 323.7 321.3 319.4 319.7 318.3 317.5 317.3 321.6 320.7 321.1 321.9 321.9 322 320.8 320.5 318.6 314.9 312.2 312.2 312.2 314.1 314.3 313.9 311.5 309 306 304.1 302.1 301 302.7 304.6 304.9 304.1 303.6 301.1 299.2 297.6 300.7 303.9 302.4 302.3 302.9 303.1 303.8 303.4 303.5 306.6 309 310.8 311.4 310.6 308.8 307.8 302 300.5 298.1 302.6 300 293.4 289.4 288.2 287.9 287.3 284.3 283 282.8 283.6 284.4 286.8 292.3 297.1 304.2 310.9 315.7 318.6 324.4 323.5 321.6 319 319.7 317 315 313.7 317.3 324.8 327.8 331.6 334 335.2 336.4 337 337.2 337.1 338 336.5 334.2 333.9 332.8 332.8 332.8 331.8 331.6 329.1 327.2 327.4 325.3 325.3 319.5 313.4 309.9 309.3 305.6 303.4 299 296.5 293.3 291.6 290.2 288.6 288.4 288.3 286.9 285.5 285.4 284.6 283.4 282.7 282.6 281.8 280 278.1 275.5 276.6 276 274.2 271.9 269.6 268.2 267.7 274.4 277.9 280.1 282.6 284.6 286.8 290.6 293.1 297.2 300.2 302.6 303.8 309.6 315.6 320.9 325.5 330.8 337.3 344.1 349.9 354 356.5 362.2 366.9 374.2 382.9 388.1 396.1 403.5 407.6 416.8 417.5 412.2
327.8 329.2 330.2 328.6 327.9 327.1 328 326.7 326.7 327.7 327 328.3 331.2 334.7 335.3 332.6 336.5 338.4 337.6 336.2 334.4 332.4 331.1 332.7 336.8 330.6 324.7 322.5 321.1 321.5 323 320.4 318.7 317.4 317 315.8 321 323.6 322.3 320.6 320.7 321.4 319 315.8 310.9 312.2 312.2 314.8 314.5 314.3 311.9 307.3 307.4 308.1 304.1 301.1 305.5 305.9 306.4 304.3 302.6 300.6 297.6 300.6 303.6 310.1 305.5 304.4 304.2 304.4 306.3 308.4 308.3 307.5 308 310.5 312.3 312 310.2 307.4 307.4 304 299.9 302 304.8 299.7 292.8 296.3 293.8 290.9 288.6 285.4 284 284.2 283.2 285.9 286.3 290.1 293.3 302.8 312 311.7 322.2 325.8 321.3 320.8 315.4 314.2 315.8 314.5 313.7 322.4 327.3 326.9 329.8 331.3 331.1 332.5 336.2 335.6 334.3 333.1 332.4 328.7 328.5 332.4 328.9 327.2 327.4 325.6 324.1 321.2 322 321.6 316.8 311.8 306.4 300.5 303.3 299.6 296.4 292.2 290.9 290.6 289.6 289 288 288.3 288.1 286.7 285.7 285.5 284.2 283.5 282.2 281.4 279.6 278.9 277.5 277 274.2 273.9 273.6 270.7 271 269.9 271.2 278.1 280.4 282.7 285.4 286.8 288.9 292.4 295.1 300.6 305.7 308.5 310.3 315.5 321.8 326.7 331.9 339.6 343.7 350.6 354.8 358.5 364.2 370.3 377.5 387.1 394.5 398.5 404 410.8 420.2 425.3 421.7 414.1
327.4 328.4 331.7 331 330.5 329.8 328.7 329.7 330 329.7 328.6 329.6 334.1 335.4 338.4 335.3 338.7 341 337.3 335.5 334.2 333.3 330.8 329.1 328.1 323.8 324.6 324 323.5 323.3 323.7 326.3 320.3 317.7 323.5 316.3 315.9 322.1 322.9 319.3 319.7 318.8 314.5 313.1 311.8 312.4 312.9 313.4 314.4 310.6 306.6 303.5 302.7 302.8 302.9 304.2 309.2 305.4 304.9 303.5 302.6 300.6 302.2 305.4 305.6 307.8 306.8 306.5 306.2 307.3 312.1 308.9 310.7 307.3 310 312.5 313.6 311.6 309.5 305.3 310.8 306.6 304.1 306.6 303.3 292.6 294 297.6 293.1 292.1 289.9 287.2 284.9 283.5 282.4 282.7 286.5 291.4 291.8 297.9 305.4 311.1 317.4 317 318.7 315.2 311.9 315.3 316.6 312.9 317 327.5 327.8 325.4 324.3 324.3 325.5 330 329.6 328.4 328.6 331.2 329.2 326.4 325.1 328.2 323.4 321.4 322 319.4 317.7 315.2 312.7 313.6 309.1 304.9 300.3 296 296.7 297.4 292.1 289.1 288.1 288.4 288.4 288.7 288.5 288.2 287.9 286.8 285.2 284.3 281.8 281.1 280.7 281.5 281.7 280.4 279.6 279.6 278.7 277.6 275.5 274.3 273.7 270.5 274.1 278.8 282.1 284.9 288.7 290.3 291 294.8 298.7 303.3 309 311.7 315.2 323.6 330.1 333.4 339.4 346.1 351.2 355.7 359.6 366.7 374.2 380.1 387.2 395.8 401.7 406.9 413 420.3 432.6 431.8 421.5 408.2
329.7 331.8 335 334 331.5 330 330.1 331.6 331.2 332.9 331.1 329.1 335.3 335.8 339.7 336.9 336.7 337.7 338 336.6 334.3 332.9 330.5 328 327.7 328.1 326.5 324.5 322.9 322.5 323.7 322.7 318.6 318.1 321.4 313.8 313.8 316.8 319.3 319.4 314.3 314.1 312.3 311.7 312.5 318.4 311.9 310.6 310.3 307.1 305.4 302.8 304.3 306.5 307.3 306.3 306.9 303.9 304.1 303.5 302.8 298.3 301.7 305 306.3 308.1 308 308.7 310 311.3 311.1 309.6 311 310 311.8 314 313.8 312.9 310.9 312.1 318 316.3 304.9 301.2 293.6 295.5 297 296.2 295.5 291.9 288.6 286.6 284 284 284.5 284.5 285.4 287.7 290.7 295.2 300.3 310.4 313.4 314.1 315.4 313.4 309.4 317.3 316 311.9 321.6 327.1 324.4 323.9 323.1 322.4 323.5 324.5 326.8 325.2 327.3 327.7 326.7 325.3 323.6 321.4 319.2 317.6 316.9 313.7 314.4 313.1 304.3 300.4 299.9 299.8 296.4 293 292.2 290.5 288.3 287.1 287.2 288.5 288.5 288.1 288.1 288.1 286.8 285.2 283.8 282.9 284 283.9 284.5 282.8 282.4 281.9 281.6 281.4 281.2 280.3 279.2 276.5 272.6 271.5 278.3 282.2 285.1 287.4 291.5 291.3 294.3 298.4 302.4 306.9 312.2 317.7 322.2 329.4 336.8 342.1 346.3 352.1 357.4 361.7 366.3 375.8 383.4 388.8 394.9 405.3 410.9 415.8 421.6 431.8 435.6 422.5 413.2 403.4
332.3 333.9 334.4 333.5 331.6 331.1 331.8 331.2 333.4 337.2 333.4 331.1 334.1 337.3 338 340.5 337.9 337.4 338.5 335.7 333.6 330.8 327.2 329.7 330.9 328.5 325.7 323.1 321.4 319.9 319 318.2 319.7 318.5 317.9 319.6 313.4 316.2 318.5 314.1 312.2 311.1 311 319 311.8 315.7 309.5 306.6 305.6 306.4 303.4 303.7 309.5 308.6 306.7 305.5 304.4 303.6 310.4 303.5 298.7 301.6 304.1 305.9 308 310.6 311.1 312.1 312.9 312.2 311.6 311.4 311.8 312.4 314.2 313.9 313.6 313.3 312.7 317.4 316.2 310.9 302.6 294.9 296.5 298.1 299.4 299.2 293.1 290.5 288.4 284.7 287.4 289.5 290.7 289.5 286.3 288.5 292.3 296.5 300.3 308.4 313.5 310.7 309.7 308.5 305.7 311.2 311 313.9 323.2 324.3 322.2 321.4 321.1 320.9 322.3 323.4 323.9 323.7 323.5 323.1 323.2 322.4 319.7 317.2 313.8 311.1 306.1 303.2 302.3 302.2 300 298 296.8 295.8 293.8 292.2 291.1 288.1 287 286.3 287.7 288.7 288.5 288.1 287.7 287.6 286.2 284.6 283.3 283.8 286.5 287.3 284.9 283.1 282.5 282 282.5 282.8 282.6 281.6 279.5 276.3 272.3 279.9 281.6 285.6 288.4 290.1 292.3 294.9 298.3 302.5 306.7 311.6 317.3 322.6 328.4 335 343.4 349.5 353.6 358.1 363.3 369.8 375 383.6 389.6 399.7 408 413.3 419.8 426.1 428.8 432.2 425.7 415 405 398.2
336.4 335.3 334 333.3 331.9 335.3 337.2 332.2 333.8 334.2 332.6 332.4 335.3 337.5 337.4 338.1 338.4 337.8 335.7 332.7 331.2 329.2 332.8 332.6 331.8 329 326 323.9 322.8 320.6 319.9 321 321.2 322.3 316.7 319.8 312.4 312.6 311.9 312.3 311.4 310.9 313.8 314.7 308.3 306.9 305.1 304.8 304.4 304.3 307.5 307.2 307.7 308.7 307.2 305 302.8 299.2 300.9 302.6 306.8 304.6 307.4 308.5 310.8 313.2 313.4 313.7 313.5 312.4 311.8 311.2 312.3 313.5 314.4 314 313.5 313.1 313.1 314.4 310.2 302.6 295 296.6 298.2 300.1 293.4 293.3 292.1 292.9 289.2 288 292.9 295.3 292.4 292.5 291.5 289.1 295.8 297.1 299.9 301 306.7 308 304 303.4 304.9 307.9 307.6 315.8 324.6 321.4 319.8 318.4 318.3 319.9 321.8 321.9 321.9 321.4 319.2 317.5 318 319.2 315.9 310.9 308.3 305.3 301.7 298 298.7 301 298.4 296 294.4 293.6 292.5 290.7 289 287.8 286.7 286.8 289 289 288.6 288.2 287.8 287.4 286.2 284.5 284.7 286.7 290.2 287.7 285.3 282.5 282 281.8 281.5 281.6 281.3 278.7 276.7 273.9 277.1 280.3 286.6 290.4 292.8 294.7 297.9 301.1 303.4 307.3 312 316.6 322.9 329.4 336.9 342.9 349.7 356.7 361.4 365.1 370.8 379.6 383.5 392.7 399.7 407.3 415.3 421.2 427.1 431.8 433.4 428.4 419.4 410.9 399.3 387.5
336.5 336.3 336.3 334 338.7 334.6 337.4 338.9 334.2 334.5 334.7 334.8 334.2 337.7 336.5 337.7 337.7 334.9 333.5 331 330.6 332 333.6 332.9 330.7 328.8 328.2 325.9 324.4 323.7 323.7 322.3 320.5 319.2 317.3 316.7 314.9 313.3 311.5 311.2 309.1 309.4 308.7 306.8 306 305.1 306.4 311.5 306.2 309.2 309.7 311.6 309.9 310 306.9 303.3 300.6 301.2 306.4 302.9 306.2 307 309.3 312 314.2 314.3 314.4 315.1 315.2 314 313 312.1 312.7 313.8 313.9 311.8 311.4 310.9 312.8 310.8 301.5 297 297.3 298.6 299.2 302.8 299.1 298.9 295.9 299.1 290.6 289.9 293.7 294.2 293.4 293.9 293.2 292.6 293 296 295.7 299.5 304.1 302.1 301.6 302.2 302.5 306.9 311.9 316.6 318.3 318.1 317.9 317.8 316.6 317.9 318.3 316.3 315.5 315.6 313.3 312.1 311.9 310.4 308.9 304.8 300.8 298.6 298.7 297.2 296.5 297.8 296.1 294 292.4 292.4 290.2 290.1 288.7 287 285.7 290.4 290.8 288.3 288.3 288.5 288.3 287.5 286.5 285.6 285.9 288.2 288 287.1 283.4 281.6 280.3 279.8 278.9 278.5 278.7 278.1 279.1 279 281.5 286.2 289.4 294.8 296.5 299.2 303.5 306.8 311.4 314.6 317.8 323.2 330.4 335.2 344.2 351.2 356.9 363.7 367.6 372.1 379.3 387.1 393.1 401.7 409.2 417.6 424.4 433.4 435.5 437 434.1 427.8 417.7 409 398.5 393.2
337.6 339.4 339.4 337.7 339.6 335.6 337.2 337 336.3 337 337.5 334.2 334.1 334.8 334.6 337.8 337.9 333.6 331.2 330.8 332.5 334.5 335.2 333.3 332 330.9 330.4 329.3 327.6 328 325.4 322.1 320.6 318.8 317.7 316.3 314.5 312.1 309.5 307.9 308.5 307.8 306 305 305 308.3 311.3 310.3 309.3 311.5 312.7 310.6 315.2 308.4 307.1 302.3 298.8 303.1 309.6 307.6 306.4 307.9 311 313.9 315.1 315.1 315.3 316.9 317 315.6 314.3 313.1 313 314 313.4 311.4 309.3 309.5 310.4 298.8 295.6 299.4 299.3 299.3 300.9 299.9 297.2 298.4 305.1 297.7 291.5 289.6 293.5 294.8 295.1 295.8 297 295.7 293.9 294.4 293.9 296.1 299.1 299.8 301.3 303.5 306.3 310 313.8 316.4 316.5 316.2 316.1 314.9 312.8 313.6 311.8 309.3 309.4 308.6 309.6 308.4 309.8 306.8 303.5 300.7 299.6 299.5 299.8 299.3 296.4 296.5 294.9 294.5 293.5 291.4 288 287.1 289 291.6 285.5 286.6 288.9 288.6 288.5 288.5 288.3 288.1 287.1 287.5 287.7 287.3 286.7 284.1 281.7 280.6 279.4 279.2 279 280.4 281.9 282.3 282.9 285 288 290.8 294.2 298.3 299.7 304.9 308.6 311.9 318.5 322.6 327.2 330.9 337.4 343.1 351.9 358 363.4 370.7 375.5 378.7 387.6 393.5 401.4 410 419.8 425.4 434.7 443 444.6 442.3 433.9 424.4 414.9 406.9 398.5 390.8
339.3 339 338.1 339.5 339.2 337.8 338.1 337.4 338.7 337.8 334.5 333.5 337.3 334.8 333.8 333.3 333.5 331.4 331.3 332.1 335.5 336.2 336.7 335.9 335.4 337 334.2 336.5 330.3 326.1 329.5 323.6 319.7 317 317.2 315.3 313.3 310.1 308.2 307.6 307.8 306.2 306.4 305.4 306.3 309.4 312.1 313.2 313.2 312.3 311 309.6 307.5 305.5 307.5 308.2 298.6 303.5 306.9 306.4 307.3 309.6 312.2 315.2 316 316 317.3 318.9 318.3 317.2 315.7 314.1 313.4 313.6 313 311 309 306.2 299.1 297.6 299.9 300.5 298.7 298.9 306.3 298.9 295.7 298 301.2 299.6 296.6 288.5 293.3 295.6 296.2 297.9 297.7 296.6 295.7 296.3 295.1 297.3 301.1 301.6 306.2 307.9 309.1 311.7 314.6 315.1 314.6 314.4 313.1 312.5 311.3 309.8 307.3 306.8 307.7 307.4 306.7 305.1 304.8 303.4 301.9 300.3 301.8 301.5 301.7 301 300 298.2 296.8 294.3 293.4 291.4 288.7 287 286.2 288.2 285.5 285.4 287.3 288.6 288.5 288.3 288.1 288.4 288 288.5 287.6 286.7 284.9 282.3 280.6 279.6 279.2 282.7 282.7 287.8 285 284.6 286.5 289.3 291.9 295.5 298.7 301.8 303.6 308.1 312.7 321.3 325.4 329.8 335.8 340.8 344.6 352.4 359.8 364.5 370.6 377.5 382.5 385.4 395.6 402.1 411.1 423 430.1 432.1 442 450 445.8 439.9 431.2 421.9 412.4 405.7 400.5 391.3
340.8 340.3 341 341.3 340.8 340.9 339.8 339.7 341.5 337.8 335 335.5 336.4 335 335.2 335.1 335.8 336.3 332.9 335.6 337.3 338.3 338.2 341.4 341.3 337.9 336.9 335.5 331.1 325.4 323.3 320.8 319.2 315.7 316.4 314.3 311.4 311.3 308.7 307.7 309.7 310 306.1 309.4 311.6 309.3 313.8 314.4 312 311 310.2 307.8 306.7 305.4 307.8 307.8 299 303.3 305.4 307.4 308.6 311.2 313.8 316.4 317.2 318 319.7 319.9 318.9 318 316.3 314.9 313.6 313.3 312.7 311.2 307.3 302.6 297.5 302.5 300.8 300.8 299.7 300 299.2 297.9 297.6 299.7 300.8 298.9 296.5 291.9 294.7 296.4 297.1 297.7 297.1 297.3 296.6 295.8 296.3 297.5 304 304.4 306.7 310.7 312.1 314 314.9 315.2 314 312.9 312.4 311.4 310.2 308.4 306.3 306.3 306.7 307.2 306.3 304.3 302.4 302.8 302 303 304 303.8 303.2 301.9 303.4 301.3 296.6 293.6 292.4 288.8 288.1 288.4 285.6 286.6 285.4 285.8 287.3 287.6 287.2 287 287.9 288.2 288.4 287.8 287.1 285.9 283.4 280.7 279.4 279.8 280.9 282.6 283.9 285.7 287.7 288.6 290.2 293.2 296.6 300.1 303.4 306.4 310.7 315.4 321.5 327.4 333.1 338 345.1 350.5 353.6 359.9 366.8 372.2 378.5 384 388.2 392.1 401.1 409.8 421.1 432.6 435.1 437.5 447.5 456.7 450.7 440.3 428.9 419.3 409.4 405.1 399 388.7
343.9 343.4 344 344 342.2 341.6 344.3 344.2 341.3 338.6 339.8 340.5 335.7 335.2 336.5 337.6 339.5 338.3 335.8 340.1 342.5 346.8 349.8 346.4 341.9 338.3 340 335.5 328.1 325.2 322.9 320.6 317.7 318.2 315.7 313.9 312.5 311.1 308.5 310.7 311.3 307.8 308.3 310.2 311.3 313.1 314.3 313.8 312.2 312.8 309.2 306.6 306.3 305.7 308.2 308.1 300.6 304.5 307.6 308.8 311.2 314.1 317 318.6 318.8 320.6 321.1 320.6 320 319.4 316.6 314.7 313.8 313.3 312.1 308.4 307.3 304.7 302.5 303.6 301.9 300.1 299.5 300.9 300.7 303.5 301 301.1 299.6 298.7 294.7 296.4 296.8 297.4 297.7 297.7 297.6 297.3 296.3 297 297.2 298.7 305.2 307.2 309.2 312.1 315.4 316.3 317.7 315.5 313.7 312.6 311.6 310.3 309.1 307.4 306 305.8 305 305.5 305.9 303.8 305.4 304.8 303.5 303.5 305 305.9 304.8 303.6 302.3 299.3 295.6 292.9 290.5 289 287.5 287.2 287.7 285.7 285.4 286.7 287.6 286.4 286 286.7 286.4 287.2 288.2 286.1 284.7 281.7 280.4 280.3 281 281.8 284.3 285.3 286.7 287 293.1 291.6 294.4 298.8 302.5 304.5 307.5 313.2 319 323.7 330.6 335.7 340.6 345.2 353 359 361.5 366.3 373.6 380.4 385.1 389.1 394.4 400.9 406.6 417.4 428 436 440.3 442.5 447.3 448.5 442.1 431.2 421.9 413.3 408.5 399.8 392.8 388.6
345.1 345 345.1 345.6 346.5 344.4 342.8 343.4 344.5 339 339 338.6 337.4 338.3 338.9 340.7 341.9 340.1 340.6 344.5 351.8 354.7 350.2 344.9 340.2 337.9 334.3 330.1 326.4 322.8 321.8 321.9 319.8 318.4 317.4 315.8 311.9 310.1 311.3 314.4 309.3 306.8 308.2 310.6 310.1 310.8 314.2 313.8 313.4 312 308 304.4 303.7 304 304.1 304.3 301.1 307.8 309.9 311 314.5 317.4 318.9 320.1 321.3 322.5 321.8 322 321.4 319.8 317 315 314.3 311.4 311.7 311.7 311.9 311.5 309 308.2 303.7 307.2 307.1 304 299.5 302.9 302.5 300.9 299.1 297.6 293.4 298 299 298.9 298.7 298.4 298.2 297 298.5 297.8 300.1 301.8 307.2 309.9 312 315.6 317.6 321 318.7 316.1 314.4 312.7 310.5 309 307.8 307.3 309.8 309.9 310.1 307.7 307 309.3 308.9 307.3 305.2 303.3 304 305.5 304.9 304.5 301.8 298.2 295.5 292.9 290.9 289.2 287.8 286.2 285.9 284.8 285.1 285.3 286.3 285.7 287 287 286.7 286.1 288 283.5 280.8 281.5 282.6 282.5 284.2 284.6 288.6 288.1 289.4 289.5 290.7 293.9 298.5 303 308.3 311.5 315.7 320.7 328.7 332.1 337.3 341.7 347.2 352.3 359.1 364.9 369 374.1 381.5 386.6 390.5 395.1 401 407 412.9 424.4 433.5 440.4 445.5 445.7 445.4 442.8 435.1 428.8 421.5 413.3 405.9 400.5 394.5 388.8
345.4 345.4 347.5 348.1 347.5 344.4 345.2 343.8 341.8 339.3 340 340.4 342.8 343.1 343.6 343.3 343.6 343.8 345.7 352.1 354.2 352.7 348.9 344.7 339.5 335.6 332.2 329.1 327.1 327 325.8 323.8 322.3 320.1 316.6 314.1 311.2 314.1 314.2 313.4 308.6 309.1 308.8 309.3 309.6 313.2 312.2 312.7 311.9 308.6 303.7 303.7 302.2 303.3 302.9 301.3 309 313.2 312.4 313.7 316.8 319.3 320.8 322 323.2 324.4 323.2 322.8 322.7 320.6 318.2 316.8 313.8 312 314.8 315.6 314.7 314.3 312.3 309.1 305.2 303.6 301.8 300.7 300.3 303.3 303.9 300.3 298.5 296.3 297.2 299 299.3 299.1 299 298.8 298.5 297.6 297.8 300.5 304.5 305 309 311.8 314.6 317.2 319.8 320.7 319.8 317 314.7 312.9 309.4 307.7 307.5 307.7 312.8 313 313.5 312.1 312.5 315.7 312.8 309.9 308.7 307.7 307.8 308.7 307.8 306.6 302.9 299 296.3 293.8 291.3 289.6 288.2 286.7 286.2 285.2 285.5 285.7 285.4 286.8 287.2 286.4 285.5 284.2 282.2 283.1 283.3 283.5 284.2 285.6 288.1 284.3 288 291 291.8 293.6 294.8 299.6 303.9 310.1 315.9 320.6 324.3 329.3 338.2 341.3 345.2 349.7 354.5 359.6 365.5 372.4 377.3 380.7 385.8 391.7 397.5 403.4 408.2 414.2 419.1 430.3 437.2 442.3 446.4 446.6 445.3 440.9 435.7 432.5 427.1 417.9 408.6 401.9 394.2 389.3
346.7 346.3 347.1 347.1 349.4 345.6 345.5 347.6 342 338.8 341.3 341.2 341.1 341.5 345.5 346.2 346 348.4 350.6 352.1 357.4 352 345.9 342.3 338.1 334.3 333.3 330.7 329.9 330.6 327.9 325.1 324 319.3 317.2 313 313 314.6 312.9 310.6 307.5 308.4 309.1 309.7 310.9 312.9 314.4 310.8 308.1 303.5 303.5 305.1 302 301.4 301.5 306.8 313.6 312.9 313.9 315.8 318.4 320.8 322.4 323.9 325.1 326.2 325.5 324 323.3 321.7 319.1 317 315.5 317.9 321.3 319 318.1 316.6 315.1 305.7 304.4 303.7 302.2 302.5 301.5 302.6 302.4 299.5 297.8 294.9 297.3 299.2 299.6 299.3 299.2 299.6 298.8 300.2 301.4 304.1 306.1 307.8 311.8 310.4 316.6 319.5 321.5 320.7 320.7 318.1 315.3 312.6 310.7 309.4 309.6 309.4 313.8 315.4 315.8 314.7 314.3 315 316.5 315.5 315.6 314 313.3 312.4 311 307.8 305 302.1 299.8 296.3 293.7 291.2 289 287.7 286.3 286 285.9 285.1 284.3 287.1 285.7 284.1 283.4 283.5 284.2 284.6 284.8 285.7 286.5 287.5 288.8 287 289.5 291.9 295.7 299.4 301.1 307.2 311 317.5 321.6 325.6 332 336.5 346 350.9 354.4 357.7 363 367.5 375.8 382.1 387 390.6 394 400.5 406.7 411 416.1 422.4 426.1 431.7 439.9 446.6 449.4 450.2 447.7 444.8 438.2 435.6 429.9 418.9 410.9 402.9 393.7 390.8
349.4 350.4 349.7 345.9 345.8 344.4 343.2 343.8 342.9 341.8 342.1 343.6 343.2 347.6 347.2 349 349.2 350.7 352.7 353.5 352.3 349.7 345.5 340.7 339 338.9 336.4 336.3 333.9 331.9 326.5 324.3 323.5 321.7 319 313.5 314.1 312.5 310.1 309.9 311.4 310.2 310.1 310.2 312 312.8 311.8 308.1 304.8 306.2 305.1 305.5 304.9 303.8 305.3 310.8 313.5 315 316.6 318.1 320.4 321.8 323.4 326.5 326.8 327.1 326.2 324.2 322.4 320.8 318.4 317.4 319 320.8 320.5 319.8 318.6 316.8 312.9 305 304.6 303.7 303.6 305 304.2 303.4 300.7 299.7 296.9 294.7 297.8 299.3 299.8 299.6 300.1 300.4 302 302.8 305.1 305.9 309.3 312 314.9 314.3 318.9 320.7 321.7 322.4 322.1 319.7 318.2 316.4 314.6 313.2 315.8 314.7 316.3 318 318 318.3 319 320.4 322.2 322.3 321.5 320.4 320.3 317.1 314.9 312.1 310.7 308.5 304.1 300.6 297.2 294.2 291.7 289.3 287.1 287.6 286 284.9 284 284.9 283.6 284.5 284.5 285 285.4 286.3 287.8 288.6 289.2 290.2 293 293.3 295.2 297.9 302.5 308.4 307 311.7 315.9 325.1 331.2 333.4 337.1 343.5 352.6 357 362 367.2 371.1 375.8 382.7 390.4 394.9 397.5 401.6 409.3 414.5 420.2 424.9 430.5 434.4 437.4 445 451.3 452.6 453.3 453.3 452.8 443.8 439.1 431.2 422.6 410.9 401 394 391.1
351.2 352.2 350.1 347.9 350.5 345.3 343.8 344.7 343.6 344.4 345.1 345.5 346.2 347.5 349.3 350.2 350.2 353.1 354.3 353.3 353.4 346.9 344.5 343.8 343.5 342.5 340.4 339.2 335.9 330 324.6 322.8 320.1 318 317.7 313.6 317.2 316.8 309.3 313.2 310.5 310.4 312.6 311.8 315.3 312.4 309.8 306.5 307.1 307.2 306.7 307.2 312.3 305.8 307.8 312.9 315.3 317.3 319.1 320.8 322.4 323.7 325.3 326.9 327.3 327.5 326.4 323.2 321.3 319.9 320 319.4 319.2 319.7 318.8 317.2 315.7 314 313.1 308.9 305 304.3 304.2 306.7 301.8 300.7 299.8 296.4 298.1 299.4 299.9 301.4 302.7 302.4 303 302.2 302.8 304 309.5 310 313.8 316.8 318.6 317.4 319.5 323 323.4 324.2 324.4 323.3 321.6 320 316.5 316.2 321.7 321.3 320.4 324.1 324.5 325.2 326.2 327.1 328.4 330.2 329.5 326.3 325.6 322.6 320.3 318.8 317.7 314.3 309.7 305.7 303.5 301.7 298.4 294.6 292.1 290.5 291.6 290 287.7 285.8 285.3 285.9 285.7 286.7 286.7 288 290.1 291.7 293.3 293.7 297.8 297.3 301.2 305.4 309.9 314.6 315.7 319.5 327.2 332.6 338 341.5 347.9 353.4 358.8 365.4 371.1 375.2 379.8 384.3 390.3 396.3 400.8 403.1 413.1 418.4 424.2 428.8 434.5 438.3 441.8 443.6 452.1 457.4 459.5 459.5 460.4 452.6 443.2 436.1 432.6 424.4 412.4 402.7 394.5 392.3
351.5 351.1 349.1 348.1 348.2 347 346.9 347.9 346.8 346.3 346.9 350.3 351.7 349.5 350.6 351.2 352.8 356.4 355.8 354.1 349.6 347 347.1 349.3 345.3 344.4 344.2 339.9 332 327.4 325.5 324.6 324 318.1 315.5 312.8 312.5 312.6 313.1 311.6 311.2 313.7 316 314.3 313.2 310 309.7 305.9 308.4 308.6 309 309.9 311.6 306.6 313 316.2 317.1 319.4 321.2 322.9 324.7 326.3 327.4 327.7 327.7 328 325.4 322.6 321.2 320.8 320.5 320 319.4 318.2 317.4 315.3 313.5 313.4 312.1 309.8 306 303.9 307.5 305.2 302 300.3 297.2 296.3 300.2 299.8 299.6 301.7 303.8 303.7 303.6 304.3 306.1 308.6 312.5 312.8 315.4 317.9 320.3 320 321.8 325.6 329.4 328 327.8 326.5 323.9 323 320.2 323.3 328.3 322.6 327.2 330.6 330.2 331.1 331.5 333.5 336.9 339 338.3 336.8 333.5 331.4 329.4 326.5 324.6 323 319.5 315 312.2 310.3 306.4 302.6 298.2 296.5 295 292.8 289.2 288 287 289.9 288.4 288.9 291.4 291.9 294 294.8 296.4 297.8 300.4 302.2 308.5 311.8 318 319.9 321.3 326 332.2 338.8 345.7 350.9 356.7 361.6 367.5 374.8 380.7 384.8 389.3 394.5 398.8 403.1 407.1 414.3 420.6 425.2 432 438.1 443.5 445.4 448.5 450.7 457.1 462.9 464 466 462.3 453.7 447 441.3 435.4 423.6 412.1 402.3 394.4 392.9
350.2 349.5 349.2 348 347.7 348.2 348.6 348.3 348.2 348 352.5 356.3 355.8 352.9 353.3 353.4 355 356.9 355.9 354.2 353.3 355.1 353.3 352.5 344.8 342.8 339.8 335.3 331 329.4 326.7 325.4 327.8 320.1 315 313.5 313.1 314.5 312.8 314.3 314.6 314.3 315.2 313.9 312 311.7 310.4 309.6 308 310.9 311.2 311 311.8 311 316.3 317.8 319 321.5 323.3 325.1 326.9 328.1 328.5 328.4 328.3 327.4 324.4 322.4 321.1 321.6 321.6 320.2 318.6 317.6 317.5 315.6 315.2 314 312.7 309.6 306.5 306.4 307.8 304.5 301.5 299.2 297.9 296.7 299.7 300 300.6 301.9 303.1 304.3 304.4 304.3 309.9 314.1 313.9 314.7 316.8 319.3 321.8 321.7 325.5 332.2 334.7 333.4 332.2 328.9 326.3 325.8 325.9 325.6 326.1 327.1 331.9 335.2 336.3 338.5 339.7 341.8 345.1 347.6 348.6 348.2 346.6 344.6 340.6 339.8 335.1 331.1 326.9 322.9 320.2 317.8 314.8 309.9 305.8 303.4 300.7 298.6 294.9 291.7 291.6 292.8 291.8 291.8 297.4 296.7 298.5 299.3 300.7 302.5 303.9 305.1 315.1 321.8 322.5 324.6 329.1 335.6 342.4 349.3 352.3 359.6 365.2 370.7 376.3 383.6 389.6 393.8 398.6 403.1 405.6 409 414 421.1 427.9 434 439.7 446 449.6 453.2 457.3 458.1 464.2 467.2 468.9 468.2 463.3 455.5 449.7 440.8 430.6 419.4 408.2 398.8 395.2 393.4
349.1 351.1 350.9 348.7 348 351.8 352.5 350.9 351.5 352.4 354.4 357 360.6 358.3 358.3 356.7 356.5 357.7 358.6 359.4 356.1 353.8 355 349.2 343.8 341.3 337.4 335 333.2 329.8 326.8 324.7 322 319.5 321.9 314.2 315.3 314.9 318.2 320.5 318.7 316.4 316.2 315 313.9 312.9 318.1 309.6 307.7 310.4 312.6 314 313 313.8 316.6 318.5 320.8 323.4 325.1 326.9 328.4 328.3 328.2 328.1 326.7 324.8 323.4 322.2 321.9 322.3 322.6 321.6 319.7 319.4 318.9 316.8 316 314.7 311.9 307.8 305.8 307 305.4 302.2 300.4 298.5 296.4 297.9 300.6 302.2 305.4 304.5 304.7 305.4 309.5 310.8 315.4 317.4 316.3 317 319 321.7 323 323.8 325 330.8 334.6 334.3 334.3 331.5 330.8 335.7 334.1 333.7 334.8 334.1 334.7 340.1 344.1 347.1 350.8 352.8 354.2 356.1 357.8 359.8 358.8 356.3 350.7 348.1 343.2 337.7 334.1 331.5 328.7 327.2 323.2 317.9 313.8 310.2 307.8 304.9 302.9 301.5 300.4 298.3 299.9 301.9 299.5 301.5 303.3 304.2 305 307.5 308.2 308.8 319.2 325.6 329.8 332.6 337.8 346.4 351.2 358.3 363 367.1 374.3 379.7 386.8 392.7 397.6 401.9 404.7 408.2 412.4 417.9 424.4 430 435.9 441.8 447.7 453 457.2 460.3 465 466.4 471.1 471.7 472.5 470.2 466.4 458.7 448.7 438.8 425.7 414.5 404 397.8 395.7 393.9
348.8 351.2 350.4 348.6 353.7 354.1 354.9 353.2 352.9 354.5 356.1 356.6 361 359.2 358.5 357.4 359.2 363.3 363 358.6 357.1 354.1 350.8 346.1 343.3 340.5 341 336.3 332.9 330.1 327.2 324.9 323.4 324 320.1 316.5 316.5 318 323.7 322.7 320.1 319.6 316.7 319.6 316.4 314.8 312.1 310.7 314 308.6 312.9 315 314.5 314.4 316.3 320 323.2 325.4 326.4 327.2 328.1 327.5 326.8 326.1 323.8 323 323.4 322.7 322 321.9 323.1 328 320 318.8 318 317.5 315.6 310.8 307.6 304.7 305.1 304.9 303.5 301.7 301.4 300.6 296.9 298.5 300.7 305.4 305.8 304.8 305.5 306.9 312.8 316.8 319.1 321.3 320.1 319.6 322.3 323.4 324.6 325.5 326.7 333.3 338.2 336.8 336.5 334.8 336 341.5 339.9 339.8 340.9 339.5 342.5 350.7 355.3 358.2 361 364.5 367.3 371.4 368.6 368.6 367.4 363.6 358.7 352 351.3 350.4 345.4 339.5 338.4 336.8 333.1 328.8 323.6 320 316.2 312.4 310.8 306.7 304.7 303.5 307.3 306.4 301.6 307.2 305.6 307.7 309.9 314 315.9 317.5 318.1 326 332.5 341.6 349.3 356.2 360.4 364.8 371.2 377.6 383.9 391 396.4 402.2 405.4 409.4 413.4 416.2 419.4 426.9 433.4 438.1 443.9 450.2 454.8 460.1 463.5 465.2 468.5 475.9 477.4 475.9 472.6 470.4 464.9 460.1 449.3 433.3 423.6 411.7 402.8 397.5 396.7 394.9
351.9 353.3 351.8 350.8 357.2 357.9 355.7 355.1 357.4 357.5 356.6 357.5 360.8 357.5 362 357 358.5 358.7 359.2 356.4 355.4 353.5 349.1 346.4 343.6 344.8 342.3 337.6 334.1 329.9 328 327.1 323.3 320 318.8 319.2 318.9 320.5 320.7 322.8 321.6 319.1 321.1 322.5 320.9 315.7 312.8 317.4 318 311.3 309 315.1 315.2 316.1 318.5 321.9 325.6 327.3 328.2 327.9 326.8 325.6 324.6 323.4 322.6 322.5 323.1 322.7 322.3 321.9 321.8 321.9 319.1 317 316.3 315.5 311.5 306.2 306.2 306.5 305.8 304.2 302.8 301.3 300.9 300.1 297.3 299.8 301.9 303.3 304.3 305.8 308 312.6 315.9 318.5 321.1 324.6 323.6 322.8 326 324.4 325.6 327.1 330.2 338.3 339.5 339.2 338.6 339.6 341.8 346 346.7 348 351.9 353.3 355.3 358.7 364.9 368.9 372.4 374.7 377.9 379.2 379.1 378.4 376.1 372.7 367.8 365.1 362.8 362 358.4 353 350.5 348.9 342.5 339.5 336.5 330 326 321.2 318.4 313.3 311.6 312.6 312.9 308 309.4 311.8 310.5 312.8 314.5 319.3 322.3 325.5 326.9 334 340.9 349.6 358 364.8 368.7 371.3 379.5 387.9 392.9 398.6 403.4 408.1 413.7 417.7 420.8 423.7 427.8 435.6 440.3 446.7 452.9 458.9 462.2 465.2 467.5 470.4 477.1 482.1 481.5 475.9 471.2 467.4 465.5 456 440.1 429 417 407.6 401.6 398.6 397.8 399.7
352 353 353.4 351.7 356.3 361.7 356.9 357.7 363 360.1 358.3 360.2 359.5 355.8 356.2 355.6 355.7 356.9 356.9 355 354 353.4 350.1 346.7 344.6 343.4 341.2 337.7 332.8 329.4 327.1 325 322.3 322.9 322.1 321.6 321.6 321.1 322.2 323.8 322 319.1 318.3 318 318.9 320.5 315.5 318.2 320.2 312.2 309.8 315.9 316.3 318.3 321.4 324.6 326.8 328.8 328 326.9 325.9 324.8 323.8 322.8 321.8 321.7 321.8 322.6 322.2 321.8 320.7 319.7 318.6 315 310.9 309.4 306.9 308.5 308.2 307.4 305.3 303.5 302.4 300.4 300.3 300.3 297.8 300 303.6 305.5 306.5 308.9 311 314.6 318 320.1 324.4 327.6 326.4 325.7 326.7 326.3 329.5 329.5 332.8 339.1 339.1 340.6 343.1 348.6 351.3 351.4 353.5 354.8 358.7 362.4 366.8 369.8 373 376.4 379.4 383.3 387.3 390.4 389.7 387.7 385.5 380.9 373.7 374.4 375.7 372 368.3 364.8 365.1 360.5 351.9 347.9 343.6 339.1 333.3 327.4 322.1 318.6 318.3 316.5 314.6 310.2 314.6 314.3 317.6 319.1 320.9 329.3 330.1 333 336 343.6 352.4 357.9 366.9 371 376.8 379.6 388.5 395.7 400.8 406.1 411.2 415.2 421.8 424.9 427.5 429.9 435.2 444.6 451.4 456.3 461.3 464.7 467.8 470.3 472.5 477 480.9 483.5 482.1 476.8 469.7 464 457.6 444.8 430.5 422 409.8 404.5 401.5 401.2 402.4 402.8
352.9 353 352.1 352.8 355.2 358.4 357.3 360.7 361.5 359.3 357.1 356.5 355.8 355.6 355.2 356.1 356.3 355.8 355.6 356 357.3 352 348.5 346.5 344.6 343.5 340.6 337 331.7 329.1 326.4 325.8 329 326.9 324.1 324.5 330 327.7 325.5 324.8 322.4 319.3 318.4 317.6 316.4 316 318 320.9 319.6 312.5 309.8 315 317.4 320.7 323.7 325.5 326.8 327.9 328 327 326 324.6 323.7 322.7 321.8 321.1 320.5 321.3 322.3 321.3 319.4 318.1 316.4 312.4 307.7 307.8 306.4 311.4 308.9 307.4 305 302.2 298.3 297.5 297.2 297.5 298.7 300.9 302.5 307.3 308.5 312.3 316.5 320.4 321 322.6 327.7 330.4 326.3 326.3 328.4 329.2 332.2 333.5 333.8 337.1 341.7 346.2 348.8 354 355.5 357.9 360.3 362.8 367.9 373.3 377.9 379.6 385.8 387.4 396.5 404.4 406.4 401.4 398.9 396.8 393.5 391.2 387.6 386.1 386.3 382.9 379 376 373.8 366.9 361.7 353 344.7 339.2 335.8 330.9 326.9 323.7 323.3 320.7 315.8 321.6 322.2 321.6 323.3 324.9 330.9 336.3 337.7 342.7 346.4 354 361 367.9 372 378.8 384.1 390.6 397.4 403.1 408.6 413.3 419.7 424.9 428.4 432.9 434.4 437.5 444.7 453.9 459.1 464.1 468.9 472 473.6 475.6 476.6 477.4 478.1 480 480.2 473.8 465.2 459.5 448.8 434.1 425.5 416.3 406.9 404.9 402.6 403.4 404.5 405.4
352.7 351.9 351.3 352.1 356 359 358.5 361.3 362.8 355.8 354.1 354.6 354.7 353.9 354 354.8 354.9 355.4 356 358.7 353.9 351.4 348.2 347.6 344.9 345.6 340.3 334.1 330.8 328.7 327.3 329.5 328.6 326.4 325.4 326.3 327.9 328 328.8 324.3 322.1 319.5 318.4 317.7 317.1 319.5 318.8 318 317.3 310.4 315.3 316.4 320.1 322.6 323.6 325 325.9 326.8 326.8 326.6 325.9 324.3 323.5 322.7 321.8 321 320 324.2 322.1 317.9 316.6 314 311.4 308.9 308.4 308.4 309 308.5 306.3 304.9 301.8 298.6 299.6 301.9 301.7 300.1 301.5 301.2 302.9 309.5 316.2 320.3 321.2 321.5 322 323.5 327.5 330.2 328.3 326.9 331.1 332.2 333.9 335.9 338.6 344.4 347.2 351.8 355.3 359.9 362.8 363.2 370.3 374.6 379.3 385.4 387.7 389.4 393 397.7 404.1 410.7 412.8 409 408.5 408.4 407.3 401.7 402.2 399.4 397 393.5 389.6 386.1 381 374.7 368.1 357.7 348.6 344.4 339.4 334.1 328 325.8 323.2 318.3 323.4 327.7 328.2 327.1 329.2 333.7 337.1 339.6 342.9 349.3 355.1 363.6 367.5 375.1 381.6 386.3 391.4 398.9 405 411 416.5 421.6 428.2 434.6 439.8 442.7 442.8 447.4 455.4 462.7 468.6 473.7 477.2 477.6 477.2 476.2 474.3 475.2 473.2 474 471.8 467.3 460.8 451.2 439.7 429.1 422.1 411.3 406.3 407.2 406.2 409.6 412.4 415.1
350.7 349.4 350.7 354.5 359.1 358.7 357.5 357 354.5 351.9 351.7 356 355.3 351.8 352.9 355.2 355.3 355.1 356.5 356.2 352.7 351 347.2 345.4 344.4 341.3 336.6 333.8 330.6 328.9 330.8 329.2 328.5 328.4 324.2 323.6 326.4 326.2 324.2 325.2 323.7 319 318.3 317.3 320.3 320.6 318.8 314.5 310.7 314.4 318.3 320.9 323.8 324.6 323.7 324.3 325.7 327.1 327.1 326.8 326.1 324.4 323.6 322.6 320.6 320 318.9 319.5 317.4 316.1 314.8 312.3 311.3 309.8 308.9 308.7 307.5 305.1 303.6 302.2 299 299.4 301.1 303.3 303.8 303.3 303 304.1 308.7 314.3 318.8 321.7 322.1 322 324.4 326.6 329.1 330 330.1 329.7 333.5 339.8 341.2 341.4 344.8 348.9 353.8 358.9 362.5 366.8 368.6 373.7 379 386.5 392.4 395.6 397.5 398.5 400.7 407.5 413.5 415.4 414.5 414.4 415.7 420 422.5 417.8 411.6 408.7 405 399.7 394.7 391.6 385.8 378.8 369.4 360.7 351.5 344.4 340.4 334.8 328.4 324.6 319.5 323.3 329.7 330.7 331.9 333 334.8 341.4 344.5 346.6 348 353.9 363 370.4 376.7 383.1 390 394.5 400.2 407.7 411.2 417.9 425.5 432.1 438.8 443.7 448.4 451.3 453.7 458.3 463.5 471.4 477.9 482.1 479.9 479.4 477.7 474.9 471.3 467.2 464 463.4 462.5 461.5 453.6 441.1 431.6 426.2 417.7 408.9 411.7 411.4 414.4 418.1 421 424.7
348.4 350.3 352.3 354 357.3 357.4 354.4 352.8 350.5 348.6 352.2 356.7 352.6 352.4 348.9 351.2 354.2 354 355.6 352.4 350.3 346.1 345.3 342.1 340.8 339 336.4 334.8 332 332.2 331.6 329.2 329 331.4 324.8 323.5 323.9 324.4 323 326.2 321.8 318.9 321.4 317 321.7 319.1 315.7 311.1 315.9 317.7 319.7 322.2 324.5 325.5 325 324.5 326.1 327.6 327.6 327.1 326.4 326 323.9 322.8 320.4 318.3 318.1 315.7 315.4 314.3 314.8 313.3 311.6 309.9 308.1 307.7 306.7 304.3 302 299.8 300 300.5 302.6 303.3 304.3 305.8 307.3 310 315.1 317.3 321.6 324.1 325.1 325.2 323 330.2 332.7 332.8 333 332.6 338.6 345 345.7 347.9 351.4 354.4 360.9 365.9 371.2 376.9 379.1 379.6 387.3 394.5 399.2 402.4 402.9 406 409.6 414.8 419.6 420.3 421.3 421.8 430.3 434.4 435.8 428 418.5 412.4 408 404 399.7 398.2 389.5 380.1 368 360.4 350.7 342.7 336.7 330.6 329.6 328.9 332 330.4 333.4 336.4 336.8 338 341.2 348.7 351.4 353.2 354.9 358.4 368.9 377.1 384.6 391.2 397.3 401.9 407.2 414.1 419 424.9 432.2 439.9 446 448.3 454.5 456.6 462.2 468.9 474.1 479.7 486.5 488.4 484.9 482.2 479.2 473.8 468.3 463.9 456.1 454.2 454 451.1 442.6 434.7 427.7 423.2 417 414.8 417.1 419.4 422.7 426.9 431.5 437.5
351.9 351.5 351.1 352.6 353.6 355.1 351.2 350.5 351.7 346.9 348.6 351.8 351.6 349.9 348.2 348.9 351.6 351.6 350.8 348.8 345 342.9 341.2 340.5 340.9 339.1 336.8 335.1 336 333.8 329.4 327.5 330.3 331.7 326.2 324.2 324.6 323.4 321.9 320.5 319.2 321.2 321 316.7 319.1 321.6 312.6 314.6 317.6 318.9 320.2 322.7 324.9 325.7 326 325.5 326.3 328 328.4 327.9 328.9 327.6 325.5 322.3 319.5 318 316.7 314 314.1 316.9 311.3 311.1 308.7 308.9 306.8 306.7 305.6 303.7 301.8 305.3 306.5 305 303.1 303.3 306.6 309.1 312.5 317.2 320.8 321.7 324.3 327.3 330.1 328.5 327.5 332.5 333.3 333.9 335.6 332.7 340.8 347.4 349.8 352.1 355.1 358.8 363 370.3 376 379.9 386.6 389.8 394.1 400 404.4 407.9 408.6 411.7 415.6 421.1 427.5 431.1 433 429.8 431 439.1 437.9 430.3 419.2 413.1 408.9 405.4 403.7 399.4 384.6 372.9 363.8 357.8 349.1 339.5 343 340.8 339.5 332.5 336.7 339.3 342 344.3 344.5 345 347.9 354 358 360.2 362.4 368.3 375.6 383.6 392.5 399.3 404.4 409.7 415.2 421.8 428.1 433.2 438.6 445.3 451.4 455.8 460.3 468 474.9 478.6 481.7 487.5 493.9 494.9 489.8 485.7 482.9 475.5 467.8 462.3 456.8 446.1 446.8 442.3 437.1 432.4 423.4 419.3 416.1 420.8 424.6 427.4 431.8 437.5 444.6 454.7
349.8 350.9 351 351.8 352.7 351.1 348.9 353.3 351.1 349.5 346.6 348.6 349.7 349.6 348.3 348 349.1 347.2 346.2 342.5 341.6 340.8 339.3 338.8 338.9 338.4 338.9 337.7 335 330.4 327.9 325.9 325.9 325.1 323.7 323 323 322.5 320 319.6 319.9 323.3 321.7 316.1 316.1 320.1 314.3 317.6 318.7 319.6 320.7 323.1 325.2 325.8 326.2 326.6 327.4 327.6 328.4 329.1 334.5 325.8 324 320.7 318.8 317.7 316.4 315 314.7 312.4 309.9 308.7 308.1 307.2 306.9 306.2 304.7 303.2 301.6 302.1 306.6 306.3 304.3 303.9 309.5 311.9 316.1 318.5 321.7 323.1 327.5 331 330.9 329.7 330.8 333.3 333.9 334.4 337.2 335.4 347.7 348.4 355.4 355.4 358.8 364 369.6 374 378.8 384.1 391.4 395.6 398.9 404.3 408.9 411.8 413.6 416.6 420.4 426.3 431.9 437.8 439.4 436.9 436.4 433.7 429.3 423.5 418.7 414.2 409.5 406 401 390.9 380.3 369.7 361.6 355.2 344.1 347 347.2 345.1 340.9 338.3 343.9 345.6 344.5 349.5 351.4 350.1 354.6 360.5 365.2 368.2 370.3 377.6 384.9 391 400.5 406.7 412.2 417.3 422.9 428.8 436.2 441.4 445.8 450.7 459.5 463.9 468.6 476.1 480.4 485.7 489.3 495.2 501.2 499.1 496.8 491.4 483.5 474.5 472 463.9 452.9 445.8 439.6 435.1 431.5 429.2 424.7 420.5 424 425 430.1 434.9 442.1 449.1 459.5 472.2
346.3 349 349.2 348.6 350.5 349.8 347.1 346.2 346.1 345.6 345.7 346.8 346.4 345.7 342.2 343.7 343.1 342.5 341.4 343.6 342.1 339 339.7 338.5 338.3 338.8 339.8 332.9 331.6 329.1 326 323.8 321 319.3 321.4 322.7 322 322 322.8 321.3 317.7 319.6 321.2 316.9 313.2 313.4 316.2 323.3 319.1 320.4 321.4 322.8 325 325.1 325.3 325.6 326.3 327 328.4 329.9 327.9 324 322.1 320.2 318.5 316.9 315.7 314.3 312.4 309.5 307 305.8 307.8 307.9 307.5 306 304.4 302.4 300.9 302.7 305.9 307 306.1 308.2 311.3 314.5 317.6 320.2 321 321.5 329.6 330.4 330.8 330.9 331.3 332.7 334.9 336.8 339 341.7 349.8 351.6 356.7 361 362.9 368.7 374.8 379.8 384.5 389.8 395.9 400.8 404.6 408.6 413.2 415.6 418.8 421.9 424.9 430 434.4 438.8 443.4 439.4 435 432.6 427.8 422.5 417.6 412.9 407.2 400.1 393.7 382 377.6 368.5 361.9 355.3 346.9 351.9 351.2 349.4 347.7 344.4 348.6 350.5 356.8 354.5 356.6 358.4 362.4 366.7 371.8 376.2 378.8 383.8 391.3 400.7 411.7 415.4 419.1 425.3 431 436.8 442.6 448.9 453.3 457.7 465.3 471.1 478 482.9 488.5 493.1 497.4 502.9 508 504.5 502.4 493.2 482.1 481.7 476.3 468.9 461 452.8 445.4 442.4 437.7 430.5 423 427.8 429.6 431.8 436.4 442.9 451 459.8 474.7 483.5
349.8 348 348.8 347.6 349 349.3 348.4 347.3 345.5 346.3 345.8 347.4 344.1 341.8 341.3 341.8 342.5 341.5 341.7 343.1 339.4 337.9 339 336.5 337.3 335.2 335.3 330.6 329.1 331 324.7 321.4 317.3 316.2 319 322.4 322.4 323.5 323.2 320.5 318 316.7 322.2 319 313.7 312.6 315.4 322.9 320.2 320.7 321.9 322.2 323.3 323.9 324.4 324.7 325.5 326.5 326.6 325.9 324.9 322.6 320.7 319.7 318.1 316.6 315.1 314.5 313.4 310 306.4 305.7 308.3 309.3 306.6 305.4 302.8 301.1 304.6 306.4 306.7 306.7 309.2 311.5 315.2 317.3 319.4 321.9 322.2 323.2 328.3 330.4 331.9 334 335.2 335.6 338.2 340.1 343.1 347.6 351.9 356.1 360 363.8 368.1 372.6 378.8 384.9 390.1 395.1 400 404.3 408.1 411.3 414.8 417.7 422.4 427.1 429.8 432.2 436.5 436.6 436.1 435.2 432.8 430.1 425.4 420.6 414.8 409.6 401.6 393.6 385 380.3 379.3 366.6 359.7 353.1 355.8 356 355.6 356.9 354.3 352 349.3 357.8 360 361.9 363.1 364.8 368.3 372.2 378 382.8 387.2 391.7 402.9 411.1 419.9 423.3 426.7 433.3 440.5 446.8 450.9 456.3 460.2 466.3 473.6 478 485.7 491.2 498.2 502 504.9 512.6 510.5 507.6 497.5 493.5 493.6 492 484.4 476.6 467.1 456.8 448.9 444.2 439.3 432.8 430.5 433.6 434.8 439.2 444.4 450.7 459.6 470.3 478.8 480.2
351.7 351.3 350.3 348.4 349.2 354.5 350.7 347.2 345.2 345.7 346.7 347.4 341.5 341.2 340.7 340.8 341.2 340.7 343.5 339 338.9 341.4 340.4 340.2 335.5 331 328.3 330.9 326 323.6 320.6 316.9 314.7 318.3 321 322.7 325 322.8 324.7 321.3 316.8 314.2 313.7 318.2 316.5 315.6 313.1 328.6 322.6 320.6 321.1 322.9 322.5 322.4 322.9 324.7 325.2 325.4 325.8 324.7 323 321.2 319.8 319.1 317.3 315.8 314.8 314.9 311.9 308.2 307.8 310.1 305.8 306.3 305.2 303.6 301.7 304.3 308.8 308.9 307.5 309 311.9 315.5 317.7 319.3 321.6 324 324.9 326.9 329.7 332 334.9 337.6 339.2 340.3 341 343.3 348 351.7 353.7 357.5 362.2 367.1 371.7 375.9 381.9 387.3 392.4 397.5 402.7 407 410.3 413.1 416.2 420.9 425.6 430 431.9 434.3 435.3 435 434.8 433.1 430.1 426.7 422 416.3 410.8 404.5 396.5 387.4 380.9 377.5 372.7 363.2 356.9 355.8 360.6 361.6 359.8 357.7 358.8 359.9 358.1 364 365.2 365.7 368 371.1 375 380.1 384.6 386.2 392.6 399.7 408.9 416.7 425 429.4 435.4 444.2 449.4 455.8 459.5 464.6 468.5 474.7 480.8 485.2 493.3 498.4 504.7 507.5 511.1 511.6 507.1 501.8 503.1 507.1 509.1 506.7 498.9 487.9 474.9 465.2 456.8 448.8 438.9 432.9 436.5 436.3 441.3 445.6 453 457.2 466.5 472.3 474.6 476.5
353.3 353.9 353.3 352.5 351.6 354.8 353 350 346.1 344.9 344.3 342.9 342.8 341.8 341 340 339.7 340.4 342.6 340 342.2 345.1 340.9 339 334.7 330.2 327.2 324.5 322.2 319.1 317.3 315.3 315.3 318.8 321.7 317.4 319.8 320.8 316.5 313.8 313.1 312.9 312.8 312.9 314.9 316.5 312.6 322.4 321.8 320.5 320.1 322.7 322 321.5 322.7 324.1 323.4 324 324.3 324.1 322.1 319.8 318.9 318.2 316.9 315.4 314.7 314 310.6 311 305.3 306.2 308.3 306.2 304.4 303.7 302.7 306.8 309.4 309.7 309.7 310.5 314.9 318.4 319.7 322.6 324.9 327 328.5 330.7 332.3 335 338.1 340.8 342.6 341.5 342.2 346.1 353.1 356.4 358.2 361.8 367 371.2 374.8 380.6 385.4 389.6 394.3 399.3 404.5 409.7 412.4 415.2 419.7 424.2 428.5 431.7 433.3 435 434.8 434.5 433.5 429.9 425.4 421 416.3 410 402.8 398.1 389.7 383.3 379.1 372.9 366.8 368.6 366.6 365.1 367.3 368.2 366.2 365.6 363.3 365.1 364.2 369.6 372.4 371.3 374.1 377.1 381.5 386.9 393.2 397.4 400.8 409.3 419.3 426.6 433.2 436.6 443.9 452.2 455.8 463.6 468.2 472.4 478.1 480.7 484.9 492.4 499.5 506.7 510.8 512.2 514.2 518.3 516.9 514.8 517.5 525.2 529.2 529.9 514.7 495.1 478.9 466 461.2 449.9 445.6 435.3 442.6 444.5 448.1 454.2 460.4 466.2 469.3 470.9 473.3 475
358.5 359.2 358.6 358.3 356.4 354.7 353.4 351.3 348.2 347.2 346.8 345.6 345.2 342.6 343.6 342 341 340.3 343.1 345.7 345.3 344 340.5 338.1 334.9 331.6 327.5 323.7 318.4 316.1 315.2 315.5 315.5 317 317.5 315.7 314.8 315.4 313.5 313.3 313.1 312.9 312.8 312.7 313.8 315.5 314.1 327.5 321.2 322.4 320.6 318.7 320.7 320.6 321.1 322.4 322.3 323 323.2 323.3 322.8 320.3 317.1 316.3 314.6 313.4 313.2 312.1 310.7 306.3 304.5 305.3 306 304.5 302.4 302.7 306.2 308.7 311 313 314.2 314 316.6 320.4 323 325.7 327.2 329.5 332 333.6 335.2 337.6 340.7 342.1 342.9 343.9 343.3 350.9 357.4 361.7 365.4 365.8 370.7 374.7 377.4 383.4 388.9 391.1 395.1 400.8 407.2 412.1 415.9 418.5 422.8 427.3 430.7 432.5 433.5 434.2 433.4 433.2 430.2 425.4 420 414.7 410.9 406.4 401.1 391 384.9 382.4 377.6 373.1 374.2 376.1 374.1 372.1 374.3 376.1 373.6 370.5 369.5 370.1 369.1 375.5 376.7 378.7 381.6 383.5 388.5 396.7 402.5 408.4 411.3 420.7 427.6 433.4 438.7 444.4 450.3 458.7 464.3 472.9 477 479.5 484 487 490.6 499.9 505.7 511.7 516.7 518.9 523.2 526 521.1 529.9 539.1 544.5 551.3 549.5 524.3 496.1 477.4 462.1 453.1 450.5 441.8 431.2 446.4 452.5 456.7 461.2 469.5 474.6 475.5 474.9 474.9 476.6
362.5 366.2 365.4 362 360.5 356.9 355.6 353.3 350.9 350.5 350.1 346.3 343.1 345.7 346.1 344.4 344.1 344.1 344 342.9 340.4 339.4 336.7 334.7 332.3 330.8 326.9 321.7 316.6 315.4 315.3 315.1 315.1 315.2 315.3 314.2 314 312.6 312.9 314 313.9 313.8 313.6 313.6 313.8 314.5 314.9 324.6 318.8 319.6 318.7 319.2 319.3 319.9 320.4 320.9 322.3 323.7 323.8 323.2 324 321.2 315.7 314.3 313 311.4 311.1 309.8 309.2 308.1 305.5 304.6 305.3 303.4 304.4 306.4 307.3 308.3 311.5 315.5 318.2 319.5 321 324.1 327 328.8 330.2 331.6 333.5 336.8 338.8 340.9 342.9 344.5 345 345.3 347.1 353.8 360.4 364.3 368 369.8 374 377 380.6 384.9 388.9 393.3 397.1 403.9 409.7 414.4 418.4 422.1 425.3 428.6 431.3 432.4 433 433.3 432.5 430.6 427.5 420.5 414.2 406.4 404.6 401 391.8 386.9 386.2 383.9 380.9 381 381.6 381.2 378.5 378.1 379.7 381.3 379.1 377.1 374.1 376 376.1 380.1 383.6 386 389.3 389.4 397.6 404.1 410.1 415.3 421.4 427.6 433.7 439.1 445.6 451.3 457.2 468 474.8 480.6 483.6 486.1 489.4 493.6 500.9 506.9 513.5 518 522.6 528.9 536.9 533.4 539 551.9 562.2 571.6 562.6 549.9 519.8 492.4 474 461.6 453.4 448.3 441.6 443 449.7 457.6 462.4 467.4 473.3 477 477.5 477.4 477.7 477.2
368.8 372.4 371.4 369.6 365 360.7 357.8 355.3 353.6 351.2 348.8 345.9 345.5 346.8 346.6 347.9 347.4 347.3 347.1 344.4 340.4 336 333.8 331.6 327.9 327.9 322.7 318.9 316.4 315.9 315.4 315.4 316.4 316.6 316.4 315.1 314.7 312.7 313.5 314.7 315.1 314.7 314.5 314.7 314.4 315.5 314.4 318.3 315.9 316.7 318.8 319.6 319.3 319.6 320.1 320.2 321.9 323.9 323.5 322.7 322.2 319.7 315.2 313.2 311.8 310 309.1 307.6 307.2 306.3 305.9 305.2 303.2 305.7 307.7 309.8 311 311.5 314.1 317.7 320.5 321.8 321.6 325.5 327.7 329.7 330.8 332.2 334.5 337.8 341.1 343.9 345.4 346.1 346.7 347.1 347.2 357.1 361.6 367.1 370.8 373.7 376.7 379.4 382.8 387.6 392.6 397.2 401.8 406.5 412.1 417.2 421.3 423.8 425.6 429.5 431.4 432.2 432.7 432.5 432.7 431.2 422.2 415.2 408.2 410.7 406.3 401.9 391.9 388 386.2 385 383.6 385.6 386.5 385.1 383.3 384.2 382.3 383.7 385.1 384.6 381.9 383 384 385.6 388.6 393.1 396.1 396 405.6 410 416.9 421 428.7 433.2 440.5 447.8 453.7 457.1 464.8 475.1 481.5 486.4 490.8 492.8 496.9 501.4 508.8 514.3 519.8 527.9 532.8 539.2 544.5 548.1 560.3 572.4 582.5 578 558.9 537.7 509.5 483 468.7 460.1 454.6 449.1 438.6 449.2 456.4 463.8 466.3 470.5 475.7 481.6 481.4 481.6 480.6 479.9
374.1 378 377 374.1 368.9 364.4 359 355.7 352.6 350.1 348 352.4 347.6 348.6 350.9 350.9 349.3 349.7 352.4 345.1 340.9 334.4 329.6 328.8 326 324.7 319.9 317.6 316.6 316.1 315.8 315.9 316.5 316.2 316.6 315 314.8 312.7 313.7 315.3 315.6 315.6 315.7 315.9 315.1 315.5 315.1 315.4 316.1 317.6 319.4 319.5 320.4 320.8 319.9 319.8 320.3 320.7 320.3 319.5 317.4 315.2 314.2 312.6 310.9 309.2 309 309.4 306.7 306.1 304.6 304.4 304.9 307.4 309.7 311.6 314.2 315.5 317.3 319.8 322.1 324.6 325 325.5 327.8 330.6 331.7 332.6 335.5 339.8 343.3 345.6 346.8 347.4 348.5 350.7 353.9 358.1 362.1 368 373.6 376.5 379.1 381.5 385.4 390.5 395.6 400.5 404.7 409.5 414.8 419.4 422.8 424.2 425.3 429 431.3 431.1 430 430.1 430.2 422.5 416.9 414.5 422.3 418.3 407 398.6 391 392 392.6 393.8 391.9 392.1 392.7 393.3 393.6 391.5 389.6 390 392.3 391.8 389.2 390.9 391.7 391.3 394 397.5 399 403.6 411.4 419.8 423.1 427.4 434.3 439.5 447.6 454.9 460.6 465.5 472.4 482.4 491.5 494.7 498.5 501.6 503.6 507.1 514.5 521.6 529.6 536.6 540.9 548.5 553.5 565.8 577.7 589.5 584.6 569.6 550.3 525.1 498.3 479 467.7 459.2 454.1 449.2 445.7 454.1 463 467.2 471.9 476.2 482.2 487.3 487.5 486.6 486.8 486.8
384.4 383 380.3 376 370.8 365 359.7 355.4 351.9 349.3 351.4 350.3 350.3 349.8 350.4 349.9 349.2 348.6 344.9 340.9 338 334.6 329 327.3 324.6 322.6 319.1 317.3 316.7 316.3 316.7 316.9 316.9 316.1 315.8 315.9 315.3 313.2 312.6 315.8 316.2 316.4 315.7 315.2 316.4 315.2 317.6 315.9 316.7 318.5 319.7 320.5 321.4 322.2 321.3 320.2 319.2 317.6 317.3 316.2 315.3 314.5 313.6 313.2 310.4 308.6 308.2 309.8 308 305.7 308.5 306.5 307.3 309.6 311.5 313.2 315.5 318 320.6 322.2 324.6 327.5 329.4 331 329.1 330.7 333.2 334.8 337.2 341.8 344.7 346.4 347.9 348.7 349.2 350.1 355.3 361.6 365.8 370.9 375.8 379.6 382.4 383.7 389.1 393.4 398.4 402.6 405.3 410.5 415.7 419.8 423 424.1 425.6 429.1 430.8 430.3 428.4 424.7 420.9 422.5 423.1 422.7 423.2 415.4 406.7 399.3 398.4 396.9 398.3 398 398.3 399.1 398.1 399.4 400.8 399.3 397.6 398.1 399.2 399 398 400.5 399.7 399.2 400 405.7 411.4 417 415.4 425.4 430.2 435 442.3 448.6 452.7 461.4 467.2 474.9 482.6 492.5 499.2 501.5 505.5 510 510 516.2 522.3 530.7 539.8 544.6 549.1 559.6 569.7 582.8 597.6 598.3 587.7 569 545 514.5 490.9 477.1 467.4 460.4 455.7 449.9 452.1 461.5 467.3 474 478.8 482.9 486.8 490.5 491.7 492.6 493.1 495.9
390.5 387.7 383.9 376.4 372 366.4 359.8 355.1 351.2 355.1 359.5 357.3 353 354.7 355.8 353.5 348.5 346.5 342.3 338.4 335 333.3 327.8 324.9 321.8 318.6 318.8 318.3 317.1 316.6 316.7 317.7 317.3 316.9 316.5 315.6 314.2 312.7 315.5 316 316.4 316.5 316.6 316.6 316.7 317.6 318.2 317.1 317.2 319.3 320.4 321.1 321.9 322.2 321 320 320.6 317.7 317.4 318.3 317.1 314.5 312.9 312.2 310 308.4 308.6 310.2 312.6 314.3 305.4 309.4 308.5 309 310.6 313.2 316.5 319.4 322.6 325.8 328 331.5 334.6 336.3 335.4 333.6 335 337.2 339.9 344.3 346.3 347.7 349 350 351.4 351.1 358 363.6 368.4 372.1 378.5 382.6 385.2 388.4 394 396.3 400.9 404.6 408.2 412 417.1 421.3 423.7 425.1 427.3 430.1 432.2 431.9 427.2 424.1 428.9 428.8 427.1 425.6 422.4 412.1 403.3 400.3 403.5 400.7 402.5 401.9 403.6 404.4 403.5 406.2 407.3 406.4 407.8 406.9 407 406.5 407.7 408.7 408.8 407.8 401.7 413.1 419.8 425.4 430.2 434.9 435.6 442.2 448.8 456.8 462.3 468 475.7 482.5 489.4 496.9 503.9 509.3 512.4 516.1 516.4 524.4 534 543.6 550 553.7 566.6 575.5 585.5 598.2 610.9 608.1 586.9 560.9 535.8 507.6 491.1 478.5 468.1 462.6 457.4 447.5 460.7 467.9 475.8 481.3 487.4 492.3 491.3 492.8 496.6 499.8 507.3 511.8
395.1 390.5 382 378.3 372.6 365.2 360 355.1 356.7 360.1 363.4 360.1 358.3 356.7 358.8 356.6 349.6 345.4 343.7 339 334.4 330.4 325.6 323.6 320.6 318.1 318.3 318.3 317.6 317 316.7 317.1 316.7 315.9 314.9 315 313.3 313.2 315.2 316.3 316.5 316.6 316.7 316.8 317.6 317.5 317.9 319.7 319 320.9 321.9 322.6 322.6 321.9 320.7 319.9 319.1 319.4 320 319.3 316.2 313.1 310 309.8 309.3 311.9 313.7 313.3 314.9 314.5 308.3 311.2 309.9 310.7 311.5 313.2 317.2 321.6 324.8 328.1 331.4 336.5 340.1 341.7 339.6 334.7 336.4 339.6 343 346.6 347.8 349 352.2 352.7 352.6 354.7 360.9 365.7 370.5 375.6 381.3 384.9 388.7 392.3 397.8 399.3 401.8 404.8 410 414.9 419.9 423.9 426.1 427.8 429.4 431.4 433.3 429.6 429.2 434.8 436.8 436.1 432.1 425 419.5 412.1 405.3 404.3 405.1 407.2 407.5 409.7 409.9 410.9 411.9 415 415.9 417.1 416.6 415.2 414.2 414.7 416.2 417.3 416.7 415.2 418.1 419.8 425.9 431.6 435.7 441.1 443.4 448.3 455.5 462.3 467.5 476.2 482.9 491.2 497.3 506.6 509.9 514.3 516.2 520.9 526.9 535.3 543.8 551 558.6 569.7 585.9 591.1 599.3 608.3 615.6 601.2 578.7 552.7 533.2 507.6 489.4 478.7 471.9 465.9 457.1 457.6 465.5 474.4 485.3 488.8 491.2 496.1 496.4 498.5 505.7 515.8 517.8 522.4
396.4 388.9 379.7 376.2 371.3 365.5 361.7 362.6 363.6 367.6 366.2 362.9 359.7 357.7 355.5 352.8 351.4 349 345.2 341 335.4 329.5 325.3 322.1 319.6 318.3 317.8 317.8 317.8 317.4 317.1 317 314.4 314.5 315.2 314.2 313.6 313.1 315.7 316.5 316.9 317.1 317.3 317.1 319.6 317.4 318.1 320.1 320.2 322.5 322 324.8 324.1 321.8 321.1 320.3 320 320.5 320 318.6 315.4 312.9 311.8 311.5 313 315 317.2 316.2 314.6 311.4 309.5 313.4 311.7 312.7 313.8 316.1 318.4 322 326 330 334.9 340 344.8 346.2 344.6 343.1 342.7 341.5 343.1 346.6 348.9 352.4 354.6 355.5 354.1 358.1 364.2 368.8 372.7 376.7 382.5 388.6 392.2 394.5 398.5 401.8 405.2 408.1 412.2 417.5 422 425.2 428.1 430.9 433.6 433.4 434.6 433.3 437.9 438.8 438.9 436.5 432.7 427.8 420.7 413.5 409.6 406.8 411.2 416.1 416.5 417.2 414.4 417 421.3 424.4 425 424.6 424.4 422.9 421 420.2 422.1 424.3 424.5 423.3 420.9 425.9 432.2 437.1 441.1 446.2 449.1 452.2 460.2 468.4 475.2 483.2 487.7 497.1 505.5 511.5 517.6 520.6 521.9 527.9 538.1 548.7 555.2 562.3 574.6 588.4 605.4 610.7 611.4 617.2 619.6 599 574.2 549.2 528.1 505.5 489.7 478.3 471.9 465.5 454.7 462.3 470.3 482.8 489.6 493.2 496 498.8 502.8 506.8 514.2 520 524.8 529.7
394.8 385.8 378.2 373.7 370.7 366.6 367.7 369.8 368.9 369.5 368.6 365.6 362.4 359.2 357.6 356.3 353.1 349.7 344.5 339.9 333.8 330.7 329.3 325.6 323.2 319.9 317.4 317.5 317.7 317.2 317.1 316.3 315.3 315.3 315.4 315.4 314.6 313.3 316.1 316.7 317 317.5 317.9 318.2 319.5 319.2 320.4 321.1 325.1 324.8 324.7 326.2 323.4 322 321.5 320.8 321 320.9 320.6 320.1 317.2 314.8 315.7 315.3 316 317.8 317.4 316.9 315.3 313.2 310.3 315.9 313 314 317.1 320.8 323.3 323.4 325.1 330.3 337 342.8 346.4 346.4 346.6 345.3 345.4 343.8 343.3 346.2 350 353.3 356 357.7 356.9 359.1 364.7 372.8 375.4 379.1 384.3 390.2 395.1 398.1 401 404 408.7 410.2 413.8 419.1 422.9 427.3 433 437.1 437.2 435.7 437.2 439.3 441.6 443.8 442.3 438.7 436.4 432.9 426.8 420.5 415.7 413.8 418.5 422.5 424.7 424.1 420.6 425.5 429.8 431.7 431.5 431.4 431.1 429.4 426.5 426.2 429.4 431.5 432.3 430.9 431.1 432.4 441 442.8 447 451.1 456 459.4 467.1 474.7 481.6 489.2 494.6 503.9 511.1 519.5 522 526.6 526.8 535.2 547.2 556.4 566.1 579.7 598 610.6 624.4 624.1 622.7 622.5 620 598.5 572.2 544.3 525.8 506.8 490.6 480.7 474.1 463.2 462.5 471.5 480.3 488.2 493.1 499.1 501 505.2 509.8 517.8 523 526.4 530.9 535.2
395.8 388.3 380.2 374.7 372.6 375 376.2 375.5 372.5 372.2 370.1 367.1 364.6 362.3 361 358.5 353.7 347 342 338 337.1 336 334.1 329.7 323.6 321.7 319.7 318.1 317.6 316 316.2 315.6 314.9 316.3 315.5 315.8 315.7 314.1 316.5 316.9 317.2 317.9 319.9 320.1 320.8 320.6 321.4 322.2 326.2 329.2 326.1 325.9 323.2 322.2 321.8 321.2 320.7 320.2 320.1 320.3 319.1 318.7 319.5 319.8 319.3 319.3 319.9 319.2 316.3 315.5 309.9 316.5 314.5 315.3 320.2 325 328.1 329 327.7 332 338.7 343.6 346.2 345.7 345 344.3 346.6 346.1 346 350 351 354 357 358.6 360.2 361.5 367.5 376.4 377.9 383 389.7 394.2 398.1 400.5 403.8 407.3 410.7 413.3 416.7 421.9 426.3 431.1 437.5 442.8 443.2 441.8 441.4 446.1 446.7 447.7 449.6 448.8 446.4 440.5 433.6 427.6 422.9 424.1 424.9 428.1 430.7 430.3 428.9 432.8 436.6 438.4 438.3 437.8 437.3 434.3 433 433.8 436.6 439.3 439.5 437.5 442.7 438.5 444.2 448.4 453.3 457 462 465.4 470.6 481.7 488.1 493.6 503.5 509.7 516.8 523.4 525.6 528.8 534.5 547.7 557.8 566.3 582.8 600.8 614.7 623.9 636.3 634.6 625.3 621.8 608.8 590.3 572.1 539.9 522.9 504.5 492.2 481.3 477.6 461.5 471.7 480.2 488.8 491.4 497.2 501.4 507.1 513.3 518.3 524.7 528.8 532.2 534.8 540.2
394.4 386.8 384.6 383.4 382.5 380.5 379 378.7 375.6 374.6 372.1 368.8 368.4 367.6 362.5 356.6 349.6 342.4 341.8 338.9 338.9 338.4 336.8 331.2 325.1 321.2 318.9 318.3 318.1 318 316.2 316.1 316.3 315.6 315.2 315.9 315.4 313.6 317.2 317 318 319.7 320.2 321.6 322 323.3 324.2 330.6 330.8 329.7 328.9 327.7 324 322.7 321.1 320.9 319.8 318.9 319.2 319.5 320.9 321.5 322.5 323.3 322.7 321.4 321.6 321.3 317.4 312.6 316.7 316.7 317.1 319.9 324 327.2 330 331.7 331.5 332 338.7 341.5 342.4 343.4 343.5 344 346.7 348.1 349.3 351.6 353.3 354.9 357.5 359.7 362.6 366.2 371 378.4 381.1 387.5 393.9 397.9 400.7 403 406.6 411.6 413 417.9 421.8 427.8 431.1 435.7 443.2 446.2 446.2 445.3 451 454.3 453.8 456.7 460.2 462.1 454.3 448.1 440.9 433.5 424.8 432 433.9 436.5 438.3 438.4 436.1 439.8 442.8 444.7 444.9 442.6 442.3 442.2 441.5 442.1 445.2 446.4 446.3 443.9 445.8 444.1 447.4 454.3 459.7 463.1 466.9 470.9 474.9 486.8 494.4 498.7 508.8 517.9 521.2 526.7 529 532.8 545.3 556.6 565.6 580 596.7 613.8 624.9 633.1 638.9 639.5 621.2 613.7 603.7 581.6 567.5 539.5 519.9 502.8 491 483.9 481.8 469.8 475 488.7 493.6 495.5 502.6 508 517.3 521.3 522.6 528.9 532.1 536.4 542.7 547.9
395.3 391 390.3 389.5 388.5 384.6 383.5 381.5 378.4 376.7 375 371.5 369.8 365.6 359.2 353.5 349 348.4 346.7 344.2 341.7 340.8 337.7 330.9 326.9 323.6 321.4 320.2 321.1 318.9 319.1 316.8 316.9 316.8 315.6 315.9 315.8 313.5 317.8 318.6 319.6 320.7 320.5 321.5 324.4 327.1 331 333.3 333.2 332 330.3 327.2 325 323.3 321.9 320.4 318.1 317.9 318.3 320.7 322.9 323 323.3 324.7 326.2 324.3 322.9 321.7 318.3 314.2 318.5 318.9 320 323.8 328 329.5 331 332.7 333.7 333.1 334.2 336.3 339.8 344.1 343.7 343.9 347.4 348.1 351.7 354 356.1 357.5 359.7 360.8 365.5 370.6 375.4 382.9 386.3 389.9 394.9 399.5 402.2 404.9 408.6 415.1 417 419.6 426 431.4 435 443.3 448.4 446.9 449.7 455.8 459.8 463.1 467 466.5 467.1 468 462.7 453 441.6 435.3 438.6 439.1 441.3 443.3 444.4 444.7 444.8 448.9 451.9 451.8 451.2 449.9 451.3 451.2 451 451.6 451.9 453.5 453.1 451 444.7 449.4 451.6 458.6 464.5 469.3 473.4 477.5 483.1 489.2 499.5 507.1 514.3 517.8 524.2 530.5 533.1 541.6 554.2 564.2 576.8 593.5 612.7 625.5 631 641.1 644 637.6 618.2 605.7 591.2 574.9 559.2 536.1 516.8 504.1 491.1 485.8 474.4 467.4 481.9 491 498.3 502.5 509.4 514.4 520.8 524.4 530.4 536.6 539.9 543.3 549.7 561
398.1 394.4 392.7 391.4 388.5 387.7 388.1 383.6 379.6 378 376.9 373.6 368.4 362.8 357.6 355.4 353.9 353.1 348 347.3 344.4 341.2 338 335.1 332.2 328.1 324.6 323 324 323.6 322.3 319.2 316.3 317.2 315.9 316.7 316.9 316.3 317.5 318.9 321.3 320.4 320.7 324 327.9 331 338.6 335.8 332.9 331.8 330.8 328.7 326.3 324.8 322.5 320.8 318.5 318.6 319.3 321.8 324.1 324.5 325.3 327.7 327.9 329.7 324.4 322.5 320.2 319 319.4 321.1 322.6 326.1 328.6 330.4 333 334.1 336 336.2 335.9 338 341.6 345 346.4 347.1 349.1 350.6 352.5 356.1 360.2 361.8 362.4 364.5 367 371.6 376.8 382.5 388.6 391.6 396.9 400.8 403.5 408.2 411.3 416.4 418.7 422.5 429.8 433.5 443.1 452.4 450.9 451.4 458.1 464.1 469.5 472.1 475 477.1 475.4 469.4 465.1 454.4 443.1 440.8 441.4 445.9 447.4 449.8 449.5 450.8 453 457.7 461.2 462.6 459.3 459.8 458.3 459.1 459.3 458.4 459.8 460.6 459.6 457.4 453.8 453.1 457.1 463.6 467.3 473.2 478.4 483.7 489.1 495.1 501.5 510.2 519.8 521.7 527.8 536.2 537.7 550.9 562.6 572.2 584.2 599.2 618 633.1 639.8 644.5 645.4 642.4 616.8 599.4 583.9 566.4 553.5 536.8 517.8 503.4 492.2 482.4 473.6 476.5 488.9 493.8 499.6 505.8 509.8 518.1 521.7 528 531.9 536.5 542.6 549.8 556.1 561.6
401.9 398.1 394.7 392.4 390.5 390.7 391 385.7 380.2 378.7 375.9 371.7 366.9 363 362 359.8 358.6 357.5 354.5 350.2 346.7 343.4 338.6 335.4 334.1 332.4 328.4 325.4 325 324.8 322.7 319.8 316.9 316.9 316.8 316.4 315.4 314.5 317.5 318.7 320.9 322.2 325.7 325.4 330.3 337.4 336.3 333.8 331.9 331 329.7 328 326.1 324.1 323.3 322.1 320.6 320.7 322 323.5 325.2 326.4 327.5 328.7 329.9 328.9 325.4 323.8 324.1 319.4 320.4 322 323.1 325.9 329.3 333.3 335.8 336.4 337.2 338.3 339.2 341.3 342.6 345.9 346.3 351 352.5 354.1 356.1 359.6 362.6 364.8 366 367.5 371 374.5 378.6 385.2 388.8 392.6 395.9 400.9 406.3 410.7 412 415.6 419.6 426.6 441.1 448.2 453.6 454.2 452.1 459.4 466.5 472 477.5 478.6 481.5 479.7 473.5 468.7 461.8 454.7 450.2 450.4 449 450.9 455.1 457 455.9 460.4 463.9 468.4 468.8 467.6 469.1 467.8 465.3 465.3 466 465.5 466.3 466.8 464.7 462.6 459.7 459.3 463.9 467.2 474.3 481.9 481.7 489.4 496 499.8 506.2 512.3 521 528.9 534.6 537.9 545.8 558.8 570.5 580.3 591.6 605.3 623.4 637 645.1 653 648.7 633.2 615 592.5 577.1 560.5 545.9 534.2 517.6 500.9 494 481.6 475.7 488.4 496 501.4 501 506.8 514 518.9 525.5 530 538.6 543 551.1 556.5 562.4 567.7
403.8 399.7 397.1 394.5 392.2 390.8 391.1 386 380.8 378.7 376.2 371.9 366.5 366.8 366.1 362 361.4 358.5 356.6 352.1 349.5 345.2 340.2 336.3 334 331.8 330.1 325.3 324.8 323.8 320.1 319 317.5 316.5 317.5 315.5 314.6 317.2 317.7 319.4 320.8 326.7 326.9 327.9 331.2 333.6 335.1 333.8 333 330.9 328.5 326.6 325.6 324.6 326.7 322.1 324.3 325.7 327 328.5 328.4 328.2 328.1 328.5 328.1 325.9 324.9 324.2 321.2 321.7 322.4 323.1 324.3 328.4 330.6 333.1 337.1 339.1 340.6 341.2 343.2 345 346.6 349.7 348.4 352.1 357.6 359.3 361.9 361 363 365.7 368.6 372 375.5 378.9 379.9 385.7 390.5 394.5 397.6 402.9 409.3 412.9 415.1 420 425.5 436.6 444 447.7 451.7 452.4 462.5 469 474.9 477 481.4 484.8 487.1 483.4 476 470.4 462.8 457.5 459.1 457.2 457.6 459 461.3 461 463.7 469.4 469.2 475 472 476 476 476.5 470.5 472.9 473.4 473.1 472.6 470.5 472.2 468.6 462.7 467 470.7 472 475.5 482.8 489.2 499.7 501.6 505.1 510.1 515.7 522.3 532.9 539 541 551.5 563.3 573.6 584.7 597.2 608.2 624.9 638.4 647.8 654.8 645.5 633.9 609.1 584 569.8 553.8 537.8 527 512.6 500.8 493.2 483.7 481.7 494.7 499.1 505.4 509.7 512.4 519.7 524.9 533.9 540 548.8 555.1 562.3 569.7 575.5 577.1
405.4 400.5 398.2 396.1 394.6 392.2 391.2 386.7 381.9 378.1 375.4 372.2 372.2 373.1 371.4 367.3 362.9 358.5 357.3 354.7 352.8 347.5 342.9 338.8 334.4 330.6 328.2 324.5 322 321.4 320.6 318.5 316.4 318.5 316.7 315 317.5 317.2 319.1 319 320.8 325 326.1 328.3 331.2 332.3 332.2 332.4 331.2 329.6 327.3 327.3 327.5 324.5 328.7 329.3 329.5 330.3 330.7 330.4 330.1 329.8 329.6 329 329.2 326.6 324.6 325.8 321 322.8 323.4 324.6 328.6 332.3 334.4 336.1 338.4 340.8 344.4 346.1 347.5 348.9 351.9 353.3 354.3 356.9 361.7 364.5 364 363.5 365.5 369.9 372.6 375.3 379.3 382.6 383.7 386.4 391.4 396.3 399.6 405.3 410.7 416.3 419.7 425.9 431.6 438.3 442.6 448 454.4 463.5 470.4 475.9 481.9 485.1 488.5 492 492.8 488.2 481.4 472.1 467 460.9 466.3 463.4 462.1 462.6 466.7 469.7 474.3 476.6 474.8 478.9 480.7 482.1 479.3 479.3 476.4 480.4 480.6 480.4 479.4 477.6 474.7 473.5 470.4 473.9 477.7 478.9 481.7 486.3 492.2 501.4 506 511.9 516 520.4 526.6 535.4 542 549.3 556.2 565.5 577.2 588.8 601 613.4 626.6 640.6 647.5 650.2 644.3 629.5 603.1 580.2 562.5 550.2 532.8 520.4 509.3 500.1 495.1 486.7 485.2 499 505.7 513.3 517.6 522.3 534.1 540 547.9 557.5 567.2 573.4 578.5 584.8 592.4 591.9
406.5 401.1 399.1 397 396.2 394.6 390.8 387.1 382.4 378.6 377.3 375.5 377.1 378.4 375.6 370.4 367.4 362.3 360.1 356.7 354.8 349.9 345.8 341.2 336.2 331.5 328 322.3 321.3 320.3 319.8 318.5 317.5 318.8 316.8 315.7 318.2 317.4 319.3 321.1 321.9 324.4 326.9 329.3 331 330.8 330.7 330.8 330.9 329.7 329.8 328.9 328 331 331.9 333 333.3 333 332.2 331.9 331.5 331.2 331 330.3 328.6 327.1 325.8 323.4 323.6 325.5 326.7 328.8 332.5 336 338.1 340.5 343.4 345.3 347.8 348.5 350.4 353.4 354.6 355.8 358.2 362.1 364.7 366.3 365.9 366.3 367.2 371.6 376.7 379 382.6 386.1 386.4 388.2 392.3 397 404.4 408.1 416.9 420.2 424.2 431.5 433.9 439.3 446.3 453.4 462.8 470.4 476.4 483.4 488.9 494.2 495.4 496.3 495.1 487.8 483.6 476 471.8 470.9 470.5 466.2 468.7 467.7 473.3 478.9 482.1 483.6 482.9 485.8 485.6 485.6 482 479.1 481.4 485.3 484.3 484.1 484.7 482.9 474.8 471.8 475.3 480 483.9 484.4 492.1 493.3 495.5 502.9 510.8 518.7 521.9 526.1 531.4 537.7 546.4 555.7 560.2 569.4 581.8 593.3 603.9 615.5 628.5 639.8 646.8 646.5 635.2 620.3 600.4 574.8 555.6 541.4 526 515.4 506.8 499 495.4 481 500.7 506.5 514.3 522.2 528.9 535.7 551.3 560.1 569.5 577.2 584.1 593.4 600 607.9 609.4 608.8
406.7 402.5 399.8 397.4 395.4 394.7 390.2 387 383.6 381.4 380.2 380.1 381.4 381.3 379.5 376.5 372.5 366.3 362.7 359.4 355.7 350 344.2 339.6 335.6 332.1 329.6 325.4 320.2 320.2 319.1 318 317.5 317.8 317 316.9 314.9 317.1 318.6 321.2 323.9 325.7 328.1 330.7 330.8 330.9 331 331.2 331.9 330.7 330 331 335.3 338.2 337.1 336.4 336.8 335.4 334.6 333.3 332.7 332.6 332.4 332.5 328.9 328.4 327 326 327.5 328.2 330.2 333.1 336.1 339.5 342.1 344.8 347.1 348.7 349.5 350.4 352.4 354.5 357 358.2 361.2 364.8 366.8 368.2 367.9 368.6 369.9 373.3 378.8 383.4 385.5 387.9 388.9 392 395.6 400.1 405.6 413.5 419.9 425.8 430.2 434.9 437.6 441.6 452.3 460.3 469.1 476.5 483.3 490.7 495.3 496.5 496.6 495.6 492.7 491 480.4 478.2 474.2 473 471.2 472 477 477.7 480.7 486.5 488.4 485.5 492.2 492.3 490.8 489.1 484.8 482.5 486.5 488.2 488 488.6 486.7 479.8 479.4 475.3 481.5 485.2 490.1 489.7 491.7 496.3 503.1 504.6 511.8 519.4 529.5 531.9 534.9 543.3 553.1 559.5 566 573.9 586 596.9 607.6 617 631.3 639.9 648 641.8 625.4 613.1 592.2 569.5 550 537.1 522.5 512.6 503.4 496 489.1 490.2 507.2 515 522.3 531.7 546.1 560.7 570.5 581 591.4 599.4 606.1 613.9 622.8 631.5 639.3 637.1
406.2 401.9 398.6 397.2 394.8 392.5 390 387.5 386.9 385.8 384.2 383.1 383.9 382.4 381.2 378.9 374.2 367.3 362.6 358.8 353.8 348 342.5 337.6 333.3 331.7 330.3 328.6 324 320.4 319.2 318.1 317.9 317.4 317.6 317 315.4 316.6 320.2 323 326.3 327.4 329.6 332.3 332 332.1 332.1 332.4 332.5 332.5 332.7 336.8 339.8 342.1 341 340.2 338.2 337.8 336.9 336 334.5 332.9 333 330.6 330.7 330.7 327.9 324.7 329 330.8 332.9 335 338.8 342.4 345.1 347.5 349.8 350.2 350.3 351.9 353.8 356.2 359.7 363.3 365.1 369.3 369.5 368.2 368.5 371.4 374.4 377.4 380.2 384.6 388.4 390.6 391.9 395.7 399.4 406.6 411.2 419.5 421.7 430 434.7 438.3 441.1 449.4 458.3 466.5 474.5 481.7 489.3 492.4 495.3 496.7 496.5 494.9 491.1 480 479.4 480.1 477 475.3 476.4 480.3 484.9 487.9 489.1 491.4 489.4 492.8 498 495.5 496.3 492.5 487.5 489.6 491.4 490.2 487.4 487.6 484.4 483.4 487.3 481.3 487.1 491.8 494.9 494.8 496.7 502.6 506.9 508 515.1 520.1 527.9 537.4 540.7 547 555.1 561.6 570.9 579.2 591 600.3 610.4 622.2 634.2 638.4 643.5 626.5 613.7 601.5 584.7 565.1 548.4 532.4 521.8 513.2 501.4 491.8 487.4 504 516.7 524.5 533 544.9 560.6 574.9 586.2 600.2 618.3 628.4 632.2 645.3 655.5 655.8 662 663.6
