ncols 200
nrows 83
xllcorner 260000
yllcorner 952000
cellsize 50
154.5 164.5 172.9 183 191.5 199 202.8 209.8 214.2 219.4 227.6 235.7 248.2 257.8 259.2 257 256 255.6 253.4 252.9 251.4 249.2 251.1 254.1 257.2 253.5 247.4 245.1 251.9 262.3 265.3 255 237.5 233.5 222.8 207.1 194.5 189.1 182.2 172.1 167.8 159.9 152.4 151.9 146.8 143.2 143.3 143 145.6 148.2 142 141.4 141.4 144.6 149.3 148.7 140.2 139.9 143.8 144 146.4 147.4 144.3 148.2 148.4 146.5 142.1 134.4 134.3 137.8 135.7 134.9 133.2 132.3 130.8 128.1 124.6 120.3 117.2 117.3 116.1 115 114.5 116 111.1 106.5 107.8 112.8 113.9 113.1 111.7 111.3 110.9 110.9 112.9 112.9 112.6 112.3 111.7 111.1 109.9 110.4 111 112.1 114.8 117.7 118.9 119.7 118.1 116.9 115.1 112.1 109.3 108.7 107.3 105.4 102.6 97.5 93.1 89.4 83.2 79.8 72.1 69.6 65.2 59 56.9 56.3 54.8 54 56.6 59.4 65.8 72.6 79.4 86.2 94.3 98.8 99.5 99.6 104.3 108.4 112 115.1 115.7 116.3 118.6 112.2 107.9 107.3 106.3 106.5 108.9 108.4 107.5 106.9 105 111.4 113.8 119.3 120.2 118.1 117.1 115.2 118 112.8 113.6 113.2 119.7 127.5 129.4 140.8 149.6 143.9 142.8 141.4 143.2 149 156.4 159.4 154.8 157.8 157.4 162 164.4 166.9 161.6 160.6 159.1 158.1 157 155.1 152.6 149.3 146 137.2 128.8 126 124.8 124.4
156 165.3 173.3 183.6 194.2 197.5 200.9 206.5 211.2 216.8 223.8 230.2 238.5 248.9 253.8 250.3 247.5 247 244.5 241.8 244 246.8 246.9 248.7 247.7 245.3 245.2 249.7 266.5 280.7 280.7 271.3 249 243 230.9 210.4 199 191.5 186.5 174.7 170 161 153.2 149.6 149.3 144.9 145.5 145.2 150.2 151.1 142.4 141.1 140.5 139.3 147.3 144.5 140.5 142.6 148 146.3 149.1 148 149.5 154.9 152.2 148.5 146.3 137.4 135.9 138.3 141.1 145.2 139 135.8 134.6 131.6 127.9 122.8 120.8 119.7 120.3 115 113.7 111.9 109 105.6 106.2 107 109.8 112.8 113.1 113.6 112.8 112.3 112.6 112.7 112.3 111.5 111.5 110.9 109.7 110 111.1 112.4 115.6 116.9 118.1 119 118.3 117.2 114.2 111.9 109.7 108.1 106.9 104.7 100.8 96.7 92.5 88.3 83.3 78.4 72.4 69 62 58.6 57.6 55.6 55.3 55 56.6 58.9 64.2 72.4 78.2 85.2 92.4 95.8 97.1 98.6 105 107.6 113.7 115.8 116.6 117 120.3 115.7 109.5 108.2 106.8 107.2 108.4 109.5 108.3 110.1 105.2 106.3 113.7 117.3 122.6 119.5 118.9 117.8 118.3 118.4 118 118.5 119.6 124.8 126.9 130.4 136.3 140.8 138.2 135 139.2 146.3 153.8 156.1 155.2 154.2 154.7 162.7 163.7 163.8 161.8 160.8 159.6 158.1 157.1 155 151 148.7 143.8 138.4 131.7 125.8 122.8 120.5
158.3 167.8 175.4 185.7 196.1 200.3 203.1 204.2 207.3 213.9 220.4 226.5 231.6 238.5 244.9 244.7 240.9 240 237.6 235.4 236.4 239.5 242.5 245.8 244.3 245.3 246.4 255.5 274.5 284 285.9 272 261 251.8 237.1 215.9 202.9 195.2 189.3 179.9 170.5 165.1 159.2 159.8 154.2 148.4 146.5 147.1 153.4 152.3 147.7 140.3 137.5 136 144.6 141.2 142.4 146.5 146.7 146.9 147.6 153.1 151.8 155.3 153.3 151.6 148.7 145.4 138.7 138.1 144 147.8 146.8 145.7 139.6 136.5 133.6 126.5 123.5 122.2 121.4 114.7 112 108.8 106.4 104.5 105.2 105.9 108.2 111.1 116 114.3 110.8 111.1 112 112.2 112.2 111.9 111.4 110.7 110 110 112.6 113.2 116.9 116.9 117.8 118.7 119 117.2 114 112.1 110.1 108.7 107.4 105.4 100.1 96.5 91.2 86.8 82.3 75.9 73.6 68.6 62.5 58.4 58 56.5 55.6 55.9 57.2 59 63 69.3 77.1 83.8 90.9 94.5 95.1 97.7 100.8 111.5 115.3 117 117.6 118.2 120.5 117.9 112.3 109.4 108 107.9 108.2 111.1 111.6 110.3 107.2 108.5 109.7 116.9 122.7 121 119.7 120.1 119.5 119.3 120.2 120.8 116.9 120.1 122.1 123 124.9 126.5 128.1 132.1 138.5 144.6 151.1 155.5 154.6 153.7 153.6 162.7 164.5 163.7 162.2 161.4 160.5 158.7 157.5 156.1 149.6 146.3 143.9 140.4 135.9 126.4 122.9 120.4
160.6 169.2 176.9 187 195.3 200.6 202.4 203.4 206.2 211.3 215.8 222.8 227.4 232.2 238.6 238.7 236.5 233.8 231.9 230.6 231.6 234.4 237.2 241.7 243.6 245.4 248.1 259.7 280.9 293.6 291.3 282.2 271.3 259.3 243.5 223.6 207.9 199.2 191.1 183.1 180 174 164.7 163.6 159.6 153 148.8 148.2 157.3 150.7 145.7 139.5 134.2 133.5 138 141.7 143.8 144.3 146.8 148.1 147.7 151.2 152.9 154.2 153.7 152.7 151.7 151.3 150 143.9 140.5 148.5 149 149.6 142.4 137.2 135.5 133 126.8 125.4 119.5 115 111.5 107.3 105.5 104.2 103.7 104.4 105.2 105.6 106.8 106.2 106.8 109.5 110 111.5 111.3 111.2 110.8 110.3 109.2 111.1 113 113.8 115 116.8 117.6 118.5 119.9 117.6 114.5 112.5 110.4 109.1 108 101.7 98.8 98 89.8 86.3 81 79.4 71.4 65.2 61.8 59.6 58.6 56.3 56.2 56.8 58.4 59.8 63.1 68.1 75.7 82.4 89.4 92 92.8 96 99.9 112.6 115.1 118.1 119.6 120.4 123.6 120.8 114.5 111.3 109.5 108.8 109.1 111.9 112.7 113.2 110.6 111 110.7 113.1 122.4 123.8 122.8 121.4 122.8 122.4 122.1 122.7 119.4 118.2 119.6 120.6 121.1 121.4 122.7 127.9 134.5 142.4 151.7 156.7 154.8 153.4 153.3 162.8 165.2 164.1 162.8 161.7 160.5 159.5 158.4 158.2 157.7 144.2 142.3 140.3 136.7 129.5 123.8 122.6
161.7 170.1 177 187.8 196.9 201.1 201.2 203.9 207.9 210.9 214.3 219.4 223.3 226.2 230.9 232.9 230.9 228.2 225.7 225.2 227.9 230.9 233.9 238.7 242.5 245.6 251.6 264.7 288.9 297.8 295.2 287.4 282.2 266.2 246.7 227.9 212.2 203.2 194.5 186.8 186.3 181.2 169.2 166 162.7 154.9 150.6 157.5 151.5 148.8 146.6 141.1 131.8 131.5 132.6 139.2 142.7 143.6 146.1 146.8 147.4 148.3 153.3 160.7 154.1 153.4 153.6 156 156.5 151.1 143.7 142.1 149.9 154 147 138.5 139 134 128.1 127.1 120.6 115.8 110.7 107.3 104.2 103.8 103.1 102.3 102.3 102.3 102.3 102.3 106.6 108.4 109.2 110.9 111.2 111.2 110.8 110.1 109.6 112.1 112.8 113.9 115.2 116.3 117.4 118.4 118.9 117.4 115.2 111.6 110.8 109.8 107.1 103.5 104.2 98.5 88.5 85 79.5 79.1 71.5 62.9 60.1 60 59 56.7 56.8 57.9 61.4 64.2 62.2 67.6 75.3 81.9 87.7 91.2 91.8 93.3 100.8 113.4 117.5 118.9 121 121.2 123.5 120 116.1 113 111 110.6 112.4 113.2 112.6 112.9 112 111.6 114.9 115.1 121.8 127.8 129 126.1 126.4 125.4 124.8 124.1 122.5 118.6 118.9 119.8 120.4 121 121.5 125.3 134.9 143.4 148.1 155.6 156 156 156.5 156 168.9 164.2 162.8 161.9 161.1 159.7 158.2 156.9 158.9 152.1 141.5 138.4 136.3 131.3 123.5 125.1
161.9 170.2 177.4 189.7 193.3 201 200.7 200.6 207.3 212.4 214.2 216 219.2 221.6 223.2 224.4 224.8 222 221 221.5 225.8 229.3 232.4 236.6 241.4 246.3 253.5 268.2 289.4 299.9 298.8 293.3 288.9 278.2 254.1 233.2 215.9 206.4 198.3 190 186.7 181.6 173.5 170.2 161.9 153.9 152.2 159.8 151.7 148.3 143.6 140 130.7 128.8 128.8 135 143.4 143.9 144.9 145.7 146.8 147.8 151.7 162 154.4 153.5 154.2 158.2 160.3 157.7 152.5 144.2 142.4 151.6 149.7 144.5 139.5 138.8 132.2 127 120.8 117.6 112.2 111.8 107.3 103.8 102.9 102.3 102.3 102.3 102.3 102.3 104.4 108 109.3 110.9 111.2 111.2 110.9 110.3 108.2 112.6 113.8 114.5 115.2 116.5 116 117.4 118 115.5 113.2 110.8 108.8 106 104.8 106 102 89.1 86.8 87.4 79.2 74.6 65 61.1 60.7 59.5 58.4 56.7 57.3 58.7 64.5 65.7 66 64.2 71.6 80.9 86.8 90.3 90.9 90 101.7 109.3 119.2 120.2 122.4 122 123.7 121.8 116.2 114.3 113.2 113.2 115.9 115.1 113 113 113.8 116.3 118.3 118.6 122.7 126.8 129.7 131 131.2 130 128.8 124.7 121.4 119.8 119.4 120.2 121.7 122.2 122.7 125.5 132.5 142 148 150.3 154.5 155 156.5 156.5 160.2 163.8 161.8 161.8 161.2 160.3 156.8 154.2 156.5 148.9 140.7 134.7 131 127.1 125.5 127.8
163.6 170.4 177.1 190.9 189.7 197.3 199.3 198.5 206.2 210.4 213.3 213.9 217.2 216.9 217.3 217.4 219.3 217.6 216.1 219.4 224.1 230.4 233.6 235.2 240.4 247.4 255 270.4 287.8 300.1 304 299.3 291.5 282.6 260.9 246.6 221.9 210.7 201.5 190.9 186.7 180.9 174.2 171.4 168.3 157.9 153.4 157.7 157.9 149.5 140.9 136.2 130.5 129.9 128.5 130.1 142.1 142.4 143.5 143.3 145.2 149.9 151.7 158.9 158.6 152.9 152.6 160.8 159.5 158.3 157.9 149 142.1 142.2 145 146.1 141.9 135.9 133.2 124.5 121.2 120.7 117.4 112.9 106.7 104.4 102.7 102.3 102.3 102.3 102.3 102.3 106.4 108.8 110.3 111 111.2 111.5 111.3 110.4 109.3 107.4 108.6 109.5 115 117.7 113.8 115.7 116.8 114.4 112.4 107.4 107.4 107.2 104.1 97.3 90.8 81.8 79.1 79.5 73.6 69.9 64.2 61.6 60.4 59.4 58.8 56.3 57.7 61.2 62.8 67.8 69.2 69.5 71.1 77.1 84.8 88.1 88.5 91.1 104.7 112.1 120.9 120.4 122.4 122.8 122.9 122.8 120.3 116.3 115.3 114.6 116.4 117.4 114.4 114.7 119 118.5 121.6 123.3 124.4 127.4 133.7 136.8 134.8 135.2 133.3 130.2 124.4 121.2 120.8 121.4 124.6 127.3 129.3 131.5 131.5 139.2 149.8 151.2 153.1 154.2 156.5 156.5 156.5 156.7 160.1 161.3 160.7 159.2 155.4 151 149.7 146.8 137.8 134 129.6 127 127.3 130.2
164.3 171.3 177.3 182.9 187.8 190 198.4 197.3 203.6 208 209.9 210.6 212.9 214.4 213.2 211.2 214.2 215.5 213.3 215.8 222.7 227.4 229.2 231.9 238.6 246.6 254.7 268 281 292.7 309.8 299.4 293.3 284.4 265.6 252.6 228.9 214.6 204.5 193 185.9 180 174 170.8 168.2 158.8 154.9 159 158.1 149.1 143.2 132 131.2 132.7 129.2 127.8 134.9 138.9 139.8 141.5 143.9 148.8 151.8 153.4 157.8 153.7 151.5 152.3 159.5 162.9 159.8 151.4 143.4 141.3 139.3 140.3 138.5 134.2 135.8 128.9 121.8 121.6 121.3 113.3 108.2 106.2 102.4 102.3 102.3 102.3 102.3 102.3 106.8 110 110.3 110.7 110.9 111 111.2 110.7 109.8 108.8 108 106.9 104.8 104.6 105.9 103.8 106.9 115.3 107.1 110.4 105.5 98 93.3 87.6 84.3 86.3 78 72.9 71.8 64.7 62.9 61.4 60.3 59.6 57 58.6 59 65.4 64.9 71.5 72.7 71.6 68.5 80.1 83.1 86.5 91 96.1 109.2 113.1 120.9 119.5 123.4 124 123.1 122.5 121.7 119.7 116.1 115.7 116.6 118.4 118.2 118.4 121.6 121.2 124.2 128.7 126 127.8 137 142.4 141.6 142.8 142.5 134.2 128.6 124.8 122.2 123.8 128.2 130.5 133.9 135 135.7 136.5 152.1 154 153.9 153.9 154.3 156.5 156.5 156.5 158.3 161.7 160.4 158.1 155.3 151.5 145 139.7 134.3 132.3 130 129 129.8 133.4
163.2 171.8 177.3 179.6 182 182.2 193 194.6 200 204.3 205 206.5 207.4 209.8 211.1 207.1 210.4 211 211 213 217.7 222.8 225.8 230.3 236.3 243.4 254.5 262.5 272.5 281.8 297.7 296.4 292.5 287.5 268.8 250.5 235 217.1 206.9 193.6 185.2 176 175.5 170 167.1 162.9 158.9 157.2 167.7 156.4 141.9 133.6 130.4 134.2 131 129.3 132.5 137.3 137.9 139.2 143.7 147.4 151.6 152.4 157.4 154.1 150.6 151 157.7 164 159 149.7 144.2 142.2 138.8 133.4 130.9 129 129.7 126.6 122.2 121.6 120 112.8 109.1 106.9 106.1 102.3 102.3 102.3 102.3 102.3 107.6 110.6 110.9 110.8 109.4 109 109 109 110.7 114.1 111.9 108 109.9 105.6 105.3 105.7 101.6 103.6 102.6 105.7 97 90.2 87.4 86 88 89.3 74.8 72.8 69.4 64 63.6 61.5 60.8 59.9 59.1 59 62.9 67.2 72.2 77.3 77.3 73.2 70.7 72 84.7 87.8 90 99.1 109.5 115.9 114.6 117.7 122.6 123.2 123.5 123.2 122.7 119.6 117.4 117.2 117.6 118.4 120.1 121.2 123.3 126.3 123 126.3 129.3 128.4 140.3 148.2 148 149 150.2 139.9 134.2 129.3 126.1 128.8 131.1 132.3 136.3 138.5 139.5 136.6 150.7 154.5 154.7 154.6 153.9 156.5 156.5 156.5 156.5 159.5 163 159 155.2 152.2 144.6 145.4 137.5 133.7 131 130 130.7 135
161.5 170.2 175.6 176.9 177.1 178.3 181.3 187.2 193.9 198.9 201.7 203.6 205.6 206.2 207.6 206.9 206.6 208.8 209.3 210.9 218 221 224.4 228 233.3 239.9 251.5 259.8 263.7 273.6 284.2 289.2 288.9 287.6 271.2 252.7 231.3 219.9 207.4 197.3 186.7 178.8 175.6 169.4 166.5 163 158.5 157.2 167.9 166.6 145.2 135.4 130.1 125.7 126.3 125.7 129.6 135.3 137.8 139.6 142.8 144.7 145.9 151.4 154.3 151.1 149.9 149.8 151.8 156.3 152.8 146.6 143.7 141.9 134.1 129.7 128.1 127.7 127.6 123.8 122 121.3 121.7 114.6 110 108.9 107.7 105.7 103 114.3 110.8 102.3 107.8 110.8 111.6 111.2 110.8 110.8 110.8 111.4 111.4 114.4 110.1 111.3 112.6 112.1 111.8 112 108.7 105.1 98 100.2 92.4 89.2 87.1 82.8 84.9 80.8 74 69.7 65.8 65.1 63.9 62.2 60.9 60.8 59.2 60.3 66.9 72.9 76.4 80.1 82.9 81.6 75 72.3 80.2 87.8 90.8 92 113.3 120.9 120.4 115.2 117.2 120.5 123.4 124.6 122.7 121 120.1 118.6 119.3 120.4 120.8 123.3 127.5 128.7 126.2 125.4 127.9 128.7 136.1 151.1 153 153.9 151.3 149.5 138.1 136.7 132.6 132.6 134 135.2 141.8 141.4 140.9 141 144.9 154 154.3 154.2 155.4 153.1 156.5 156.5 156.3 156 164.3 162 159 151.6 148.1 149.7 141.2 135.1 133.4 131.3 132.6 136.4
161.1 169.2 173.6 175.5 176.9 177.4 178.4 180.8 187.3 193.9 197.7 200.5 202.2 202.6 201.3 201 201.6 206 207.9 209.8 216 219.3 222.4 226.6 231.4 237.7 246.5 254.5 258.4 265.3 274.7 279.5 277.3 277.8 267.4 252.3 232.2 217.9 205.2 196.4 188.6 179.8 176.2 170.9 167.2 163.9 159.5 155 164.7 168.8 153.7 136 129.5 124.8 124.2 123.6 125.5 134.4 137.4 139.2 139.6 142.1 142.1 144.3 148.8 150.2 148.6 146.8 146.7 150.3 145.2 142.7 141.6 134.7 133.9 130.9 129.4 126.7 126.6 126.5 118.8 121.1 117.6 112.7 111.2 110.8 110.1 106.1 105.3 109 102.9 102.2 109 111.2 111.7 111.8 111.7 111.6 111.8 112 111.9 111.1 110.8 113.4 113 112.5 112.5 112.6 111.6 110.3 104.5 96.5 89.3 80.5 76.9 74.1 71.5 69.2 69 67.8 66.6 65.1 62.9 61.9 61.1 60.2 61.1 64.4 72.6 78.2 82.2 83.5 87.6 90.8 83.4 79.8 74.6 88.3 93.8 94.6 111.5 117.9 125.2 121.3 117.2 119.2 124.1 123.8 123.5 122.3 121.7 120.6 121.9 122.9 123.4 126.9 128.1 130.5 131.4 130.5 128.2 130.2 134.2 146.2 152.8 155 155 148.5 142.7 139.9 138 135.8 137.8 141.3 144.6 145 143.2 143.1 140.9 147.8 152.1 154.1 155 155.4 155.3 155.4 154.9 153 156.5 163.7 159.6 151 148.7 152 142.5 138.1 136.8 134.4 139.3 142.4
158.6 166.7 173.5 175.8 178.4 177.8 177.9 178.7 181.1 187.3 192.6 196.1 198.3 198.8 196.8 195.4 198.2 202 206.8 208.7 212.9 217.7 220.8 224.9 229.9 234.6 240.4 248.1 252.5 258.3 266 270.2 269.2 265.6 257.3 245.2 229 213.6 201.8 192.6 188.2 180.4 174.4 171.8 166.7 163.3 157.9 153.8 153.8 161.9 156.6 144.6 129.2 124.5 123.9 123 123.3 125.9 130.7 133 138.1 143.2 143.5 144.4 145.2 147.3 144.8 143.1 142.1 140.7 138.6 138.1 136.3 134.7 133.7 130.2 126.5 126 127.3 121.9 114.9 113.2 111.4 112.5 112.6 112.6 112.3 107.4 104.8 103 102.6 102.3 108.4 111.1 111.7 111.8 111.8 112.1 113 113 113.1 112.5 112.3 114.8 114.6 115.6 112.3 111.6 107.8 105.8 103.9 101.4 91.2 80.3 75.9 73.1 70.2 74.1 75.9 68.3 67.2 64.3 62.9 62.3 61.5 59.2 62.1 68.4 76.6 82.3 86.5 88.3 91.1 95.1 93.2 88.7 84 75.6 90 95 102.7 113.3 119.4 121.6 121.7 121 124.3 124.5 124.4 123.4 122.2 122.1 122.8 124.5 125.9 129.2 131.6 133 133.4 135.4 131.9 132.9 134.9 140.3 152.6 156.3 157.2 152.3 146.5 143.5 143 139.7 144.1 146.9 147.1 147.9 144.7 144.5 144.3 145 148.8 152.9 154.6 155.3 155 156.3 156.2 154.9 153.3 161.7 159.8 150.6 150.6 149.5 142.8 143.9 143.9 139.3 147.7 150.7
156.5 165.1 172.9 176.7 180.1 179.5 178.2 178.2 178.3 182.4 187.6 193 195.6 195.9 195.1 193.8 195.2 198.7 204.3 207 211.9 216 220.1 223.3 228.1 231.8 236.4 242.2 246.6 251.5 258.2 261.6 260.4 254.3 245.6 231.6 219.3 208.4 198.5 191.4 183.5 176.4 170.8 169.1 165.3 159.5 157 152.3 151.4 154.4 150.8 145.1 137.8 127 124 123.6 123.1 124.3 127.6 131.8 135.2 143.8 144.9 144.4 144.4 144.2 142.9 141.8 141.3 139.9 140.3 142.5 137.7 135.2 133.9 130.6 126.4 122 118 113.5 112 113 113.3 113.5 113.5 114.3 112.7 111.5 105.6 102.8 102.8 104 107.3 110.9 111.6 111.8 111.9 112.3 113.4 113.9 113.8 113.6 113.7 114.3 117.9 112.8 111 109.9 106.7 102.7 98.2 94.5 89.4 80.5 74.7 73 80.9 81 76.1 68.4 66.3 64.2 63.5 63.3 61.8 59.4 65.6 74 81.9 87.1 91.8 92.4 95.4 100.1 98.5 98.8 90.7 86.5 91 95.6 99.9 105.2 112.3 116.6 118.8 121.3 123.8 123.7 123.9 123.2 123.1 122.6 124 127.1 127.9 133.4 135.7 135.2 135.8 136.2 136.5 134.7 135.8 138 144.7 158.1 159.3 155.7 148.9 146.8 145.9 144.3 149.2 151.5 152.4 154.7 148.2 146.5 146 143.7 145.8 149.7 153.9 155.7 156.6 156.3 156.3 156.3 156.4 159.7 158.5 149 150.8 151.3 146.8 146.6 151.3 146 152.2 152.8
155.3 161 166.2 173.9 175.9 177.6 176.8 176.8 177.3 179.1 184.1 189.4 192.9 193.7 193.4 192.8 193 196.1 201.8 205.3 209.5 214.3 219.4 222.7 226.4 229.7 233.2 236.5 241 244.9 248.5 252.4 252.7 245.3 236.4 221.8 210.7 202.8 195.2 186.4 180.7 175.9 167.6 165.4 162.4 157 152.4 151.1 149.1 147.5 146.2 143.5 135.4 128.5 124.4 123.8 123 123.5 125.9 127.8 135.5 140.8 142.7 142.5 143.1 142.6 141.2 140.4 139.9 138.2 138.3 139.5 140.5 135.3 132.6 130.5 125.6 120.9 117.7 114.4 114 113.8 113.8 114 114.2 114.2 113.7 112.2 107 102.8 103.1 104.3 108 110 111.4 111.5 111.9 112.5 113.2 113.8 114 113.9 113.3 112.7 112.2 111 110.8 108.8 105.8 100.3 103.7 95.5 87.6 89.2 85.7 82.7 84.1 82.2 73.8 68.3 65.7 64.8 64.6 63.6 61.7 63.1 69.1 76.1 86.3 93.2 96.9 99.6 99.7 102.8 101.7 102.9 96.2 94.3 84.9 91.2 100.4 103.1 110.2 113.2 117.8 119.7 122.2 122.2 121.9 122.7 123.2 123.3 124.5 128.6 131.2 137.6 138.1 138.4 139.4 135.7 137.9 138.8 140.5 142.2 142 147 156.3 155.7 150.6 150.2 153.3 149.4 153.9 156.9 157.3 160.1 154.9 148.5 147.4 146.8 145 146.8 150.5 156.2 157.2 156.3 156.3 156.3 156.5 156.6 154.4 148.5 149 154.4 149.9 150 152.9 151.3 153.3 152.7
155.2 159.9 164.5 167.4 172.5 173.8 174.7 176 176.7 177.3 180.9 185.1 189.2 191.2 190.6 190.4 191.5 195.2 200.3 205.5 208.9 212.8 218.3 221.2 225.5 227.5 230.2 232.3 235.8 238.7 241.2 244.1 245.1 237.3 226.6 214.3 206.1 199.3 190.1 184.5 180.8 171 166 162.4 158.5 155.4 152.7 150.3 147.2 145.1 142.7 140.4 135.9 133 124.7 123.9 122.8 123.6 126 127.8 131.7 135.6 136.8 137.4 138 138.1 137.5 138.1 136.8 137.6 137.2 138.5 141.9 137.1 131.2 125.7 123.7 122.4 119.8 116.3 114.9 114.4 114.3 114.3 114.6 114.7 114.6 111.8 103.3 102.8 102.7 104.9 108.7 110 111.1 111.5 111.7 112.3 113 113.6 114 114.1 112.9 112.2 111.4 109.9 109.1 106.7 102.3 100.9 95.2 89.5 89.1 90.3 86.7 86.1 86.9 82.6 70 68.7 66.3 65.2 65.8 63.2 60.5 67.5 71.9 80.7 87.1 96.2 100.8 105.7 104.3 107.2 105.3 106.1 102.2 97.8 95.3 83.8 92.5 104.8 105 109.7 114.7 116.8 118.8 118.9 118.9 121.9 121.9 122.5 125.1 128.9 135.2 141.7 142 139.6 139.3 137.9 139.5 140.4 143 146.5 147.5 145.9 149.7 151.6 152.2 152.6 156 162.7 160.4 161.4 161.3 161 156.8 151.4 149.7 148.4 147.1 147.1 150.1 157.1 157.8 157.3 156.3 156.3 155.3 154.7 148.9 148.9 148.9 155.4 152.5 151.7 153 155.2 155.4 154.4
157.6 158.2 161.1 164.1 169.5 171 172.4 173.4 175.2 176 176.9 180.8 185.3 187.7 187.3 188.4 188.9 191.7 197.5 203.5 206.8 211.5 217 220.2 223 225.2 226.8 228.8 231.7 232.9 235.2 235.3 235.9 229.3 219 208.3 201.2 195.9 187.8 182.2 177.1 167.8 162.3 157.7 155.1 153 151.6 149.4 146.8 144.8 142.3 141.3 135.8 131.5 126.9 124.3 122.8 124.3 129.7 130.2 132.4 134.6 135.5 136.3 137.3 137.5 136.5 135.8 135.7 135.8 136.3 136.1 134.8 132.8 128.7 127 124.6 123.8 122.7 117 115.7 114.5 114.5 114.5 114.4 114.5 114.2 112 103.2 102.5 102.6 105.3 109.2 109.9 110.5 110.9 111.4 112 112.7 113.3 113.8 114.1 113.1 111.2 110.8 108.6 106.8 105.9 98.5 93.1 94.3 90.9 91.1 87.3 85.9 86.8 86.4 78.5 70.2 68.2 66.3 65.5 64.2 61.3 62.7 69.8 74.9 84.2 89.5 95.9 104.5 110.2 112.1 108.6 109.7 109.1 107.7 104.8 100.8 94.7 90.5 100.3 106.9 107.2 110.8 112 112.1 113.8 117.4 121.1 120.8 121.8 124.6 129.3 137.7 145 147.1 147.9 142.6 141.1 142.5 146.4 145.8 149.7 149.4 149.8 148.9 151.3 152.4 153.6 159.7 165 165.4 166.5 166.3 163.2 158.7 157.6 156 152.7 150.7 148.6 155.2 161.2 158.4 157.8 156.9 155.5 156.1 151.2 148.9 148.9 148.9 148.9 152.3 152.6 153.5 155.6 154.7 156.9
156.4 160.5 163.9 163.8 165.2 166.2 168.9 170.7 172.3 174 175.4 177.2 181.4 184.1 184.6 186.5 187.8 189.6 196.8 202.7 207.5 211.9 216 219.8 221.3 222.7 223.4 225 227 228.1 228 225.6 225.8 219 211.4 202.1 196.8 191.2 183.6 179.1 176.7 166.7 158.8 159.1 156.2 152.7 150.7 147.9 146.3 144.7 143.1 139.9 137.2 132.9 128.5 124.5 122.7 128.4 129.8 132.4 134.4 134.8 135.4 135.3 138 138.1 136.8 134.9 134.5 133.9 134.2 134.3 134.7 129.5 128.7 128.9 127.9 126.5 119 117.2 114.9 113.7 115.1 113.8 113.8 113.7 113.2 109.4 103.4 102.3 103.3 106.1 107.7 109.1 110.1 110.5 111 111.5 112.4 113 113.3 113.2 111.3 109.9 107.8 105.8 104.2 101.7 97.2 93.8 92.1 91.2 90.3 86.1 83.3 85.2 82.2 71.2 70.2 67.7 66.9 65.4 64.3 62.9 66.3 72 79.5 89.5 92.4 98.4 106.8 112.7 115.5 113.9 112.3 111.8 112.2 109.5 104 98.8 94.3 88.8 103.5 106.5 108.6 109.5 111.5 110.9 115.6 117.8 120.1 121.6 125.5 131 140.8 148 149.7 151.7 148.1 144.7 142.6 146.8 149.4 153 152.5 151.7 151.6 152 152.8 154.7 164.7 167.5 169.9 169.2 170.6 166.3 163.3 160.6 156.5 154.6 154.5 151.1 154.9 161 161.9 156.7 156.4 155.7 155 152.1 148.9 148.9 148.9 148.9 151.6 151.4 151.8 155.1 154.2 157.4
154.4 159 161.4 162.5 163.4 164 166.5 168.5 170.5 171.4 173 174.9 178.3 180.9 181.7 184.1 186.4 189.6 194.9 201.1 206.8 209.7 213.6 216.8 219.1 219.5 219.6 220.9 224.3 223.2 223 217.7 211.3 207.5 203.3 195.2 192.4 187.2 180.1 173.1 166.8 162 159.6 158.2 153.4 152.2 150.6 148.3 147 145.6 143.2 139.9 135.6 131.6 130.4 127.6 122.8 121.9 124.8 131.5 134.2 135.2 135.5 134 142.2 145 139.6 135 134.3 133.6 132.8 132.6 134.2 129.1 128.2 126 122.5 120.2 116.6 113.7 110.4 110.9 110.9 112 113 112.6 111.6 109.3 102.9 102.2 102.8 105.1 108 108.9 109.7 110.1 110.6 111.2 112.1 114.4 112.5 113.9 110.3 108.7 106.5 105.5 103.4 101.1 101 91.7 93.8 90.7 86.6 81 82.6 82.5 72.1 71.1 69 67.8 66.7 65.5 63.3 63.6 72 75.6 83.4 94.3 97 101.1 107.7 114 118.2 119.1 118.1 116.7 119.3 114.9 109.2 103.5 94.5 90.9 94.7 101.2 105 108.9 112.9 109.2 111.1 116.8 119.4 122.1 126.7 133.4 145.4 153.4 152.5 157.4 151.3 154.1 149.8 147.4 152.8 154 155.5 154.9 153.4 153.8 155.7 154.5 167.3 172.7 172.7 172.8 175.3 172 164.2 161.6 156.9 156.7 157.5 155.3 155.6 160.5 166.2 157.8 155.7 154.6 153.3 151.6 148.9 148.9 148.9 151 151.1 148.9 148.9 152 153.3 156.9
152 157.4 160.1 160.9 159.9 161.9 163.3 166.2 168.1 170.1 171.1 172.4 175.6 178.5 178.9 180.4 184.3 186.1 192.1 198.1 204.1 206.6 211.4 214.2 216.9 216.3 214.9 217 218 216.9 215.3 211.3 202.4 198.1 196.4 191.2 185.3 182.6 178.5 171.9 168.4 160.3 157.7 154.2 152.5 151.3 149.7 148.5 146.8 146 145.1 143.6 139.5 138.2 135.3 132 124.7 122.6 121.4 125.2 133.6 135.7 136.1 136.6 137.1 142.2 142.5 137.4 134.4 134 133.4 133 133.6 127.4 121.3 118.6 116.7 115 112.5 110.8 109.9 109.1 108.6 108.6 112.2 112.2 111.4 106.4 102.9 101.8 102 104.5 108.1 108.7 109.3 109.7 110.2 110.7 111.7 113.4 111.2 111.1 110.1 108.6 103.1 100.8 97.7 95.1 93 89.8 92.7 87 80.2 78.7 77.2 72.6 67.7 68.5 67.3 66 66.4 65.3 64.4 69.9 73.7 78.2 88.7 98.6 99.9 104.1 111.1 114.6 119.9 123 120.2 118.1 117.2 117.7 114.7 108.7 99.1 91.6 93.1 102 102.1 105.7 108.1 107.5 107.6 112.4 117 123.3 128.3 134.6 151 158.2 159 162.2 159.2 154.6 152.3 149 154.9 156.6 157.2 158.9 155.9 155.8 157.4 156.4 166.9 173.5 174.3 175.2 176.3 178.1 170.2 163.7 158.7 159.7 159.4 157.1 157.8 159.1 166 168.5 153.6 152.7 151.8 149.1 148.9 148.9 148.9 149.4 148.9 148.9 148.9 148.9 151.5 156.1
150.5 153.8 156.3 156.7 155.9 157.5 161.2 163.6 164.9 167.4 169.7 170 172.1 176 176.8 178.4 180.6 184.3 190.9 196.6 202.6 205.2 207.4 209.5 212.2 212.1 213.2 212 213.8 212.3 207.6 204 195.9 191.2 189.2 185.7 182.2 178.6 174.6 169.4 167.3 159.7 156.3 154.1 152.8 150.5 149 147.9 146.8 147.4 147.2 146.3 145 139.3 136.2 132.3 126.7 123.2 121 123.4 137.7 138.2 138.7 138.5 138.8 139.6 142 137.1 137.2 134.6 131.4 132.7 132.3 122 119.8 118.9 113.2 112 111.9 110.8 110.3 109.6 107.6 106 109.2 110.9 111.2 105.9 102.3 101.6 101.7 104.2 106.7 108.1 108.9 109.5 109.9 110.3 111.2 110.7 110 110.2 108.7 105.9 102.3 95.7 88.6 84.5 83 79.7 88.4 83.4 78.1 76 72.9 69.3 68.4 67.2 66.5 67 65.3 65.5 64.3 73.2 75.3 79.2 91.1 99.8 103.6 106.1 111.2 116.8 121.6 123.7 122.3 117.8 115.8 114.2 115.6 111.9 108 98.3 94.6 94.3 100.6 103.5 106.5 107.5 107.2 111.3 113.4 121.8 128.2 134.8 154 164 163.1 165.3 162.6 157.6 156.8 152.3 154.1 158.4 159.5 162.8 161.8 161 161.7 161.5 166 174 175.5 176.7 178.6 180.1 174.3 167 163.2 163.7 163.9 159.8 159.5 160 165.4 169.8 161.4 151.2 151.2 149.8 148.9 148.9 148.9 148.9 148.9 149.3 151.3 151.8 153 156.6
147.7 151 152.5 152.2 151.2 154.3 158.4 160.5 161.1 164.2 168.2 169.3 171.8 174 174.3 175.5 176.8 180 185.9 193.5 200.8 201 201.8 204.8 207 206.4 206.5 206.6 206.7 204.8 198.7 196.7 191.3 185.1 182.5 180.6 178.5 176.3 171 167 162.9 159.9 156.9 154.6 152.4 150.7 149.6 148.6 148.5 148.2 148 148 145.2 137.5 136.2 134.3 135.5 126.6 122.6 121.1 127.7 134.6 138.4 138.7 139 143.6 137.4 135.9 138.1 135 127.6 122.8 120.6 119.1 118 113.9 112.3 111.9 111.4 111 111 109.6 109.3 108.6 104.7 109.4 109.3 107.3 102 101.4 101.3 104.1 106.7 107.8 108.6 109.3 109.5 109.7 109.7 109.1 108.5 108.3 107 103.5 100.6 94.8 88.5 93.9 94.7 86.9 78 78.2 76.1 74.5 72.1 69 69.6 69.4 68.5 67.7 65.8 66.4 69.5 73.9 78.2 82.4 90.9 100 105.5 109.6 113.5 119.6 123.5 125.5 123.6 118.9 114.7 113.4 113.2 113.5 108.9 103.7 99.1 95.7 102.7 103.6 106.8 108.1 107.9 113.3 115.2 121.2 126.3 134.9 152.6 168.6 168.3 171 165.2 160.7 164.1 158.8 156 162.3 161.7 164.5 168.2 164.6 165.1 165.5 169 172.9 177.4 179 181 183.2 181.2 176.4 169.2 168.2 168.5 161.7 160.9 161.2 161.7 168.5 166.7 152.9 151.1 150.1 148.8 151.3 151 148.9 148.9 153.3 153.1 153.2 153.7 156.3
144.3 147.3 147.7 148 148.7 152.4 155.1 161.2 161.4 165.2 169.3 170.4 172 172.8 172.8 172.4 172.4 174.7 182.4 189.4 196.7 197.4 196.3 198.6 203 204.1 203.1 202.8 202.6 199.8 193.8 191.2 187.4 181.7 179.3 175.3 174.1 172.1 167.9 165.2 163.3 159.5 156.1 151.2 151 150.8 150.3 149.7 149.3 148.7 148.1 147.4 143.4 138.2 137 136.5 136.8 131.6 123.5 120.5 120.9 120.3 119.1 118.6 118.2 119.5 119.2 120.9 126.9 123.4 118.1 117.2 114.3 112.8 112.8 112.5 111.9 111.8 112 112.3 110.2 109.1 109.4 109.8 107 103.9 105.3 105.6 101.9 101.1 101.4 105.2 106.5 107.6 108.4 109.1 109.4 109.2 109.5 108.8 108.1 105.8 104.7 104.6 99.7 96.1 95.2 93.3 91.5 90.7 82.2 77.9 76.8 75.2 69.4 70 69.8 69.7 68.8 67.6 66.9 70.8 71.9 75.9 80.7 85.8 93.6 101.8 107.3 112.7 118.8 122.5 126 127.9 128.2 122 116.8 113.2 113.1 113.1 110.1 105.1 102.7 100.9 103.7 105 105.3 109.3 109.5 113.1 116.2 121.2 125 134.3 151.3 173.4 173.9 174.7 171.1 163.3 167 165.1 159.9 165 166.8 166.8 174 168.8 168.1 169.5 170.9 175 178.4 179.2 180.7 184.6 186.2 183.2 174.4 171.7 173.2 166.3 162.1 162.2 162.2 163.5 166.8 158.2 151.8 151.1 150.6 152.3 152.4 149.6 150.6 156.3 158.3 155.5 154.4 156.3
140.7 144.4 145 145.9 146.5 148.7 152.1 158.7 161.2 164.3 168.5 171.8 171.9 171.3 170.6 170.3 170.5 171.6 177.7 187.1 193.1 195.4 192.9 193.6 193 199.5 198.9 200.4 198.1 193.2 190.4 187.1 183.3 178.9 176 174.3 170.3 168.9 166.2 163.9 160.2 158 155.2 152.5 151.9 151.4 150.8 150.1 149.5 149 148.5 147.6 145.5 139.3 137.5 137 137.2 134.1 126.8 123.5 120.9 121.5 123.8 123.3 127.5 129.4 126.8 119.1 115.6 114.7 115.5 113.5 111.8 112.1 111.3 111.2 111.5 111.4 111.1 109.7 108.9 108.7 108.8 109.1 107.5 103.6 103.7 104.8 103 100.8 101.6 105 106.3 107.5 108.3 109.1 109.2 109 108.7 108.2 108.4 105.8 104.5 102.6 99.7 99.1 93.7 93 93.6 87 83 82.6 76.9 69.3 71.3 70.9 70.4 69.9 69.2 67.6 67.5 71.9 75.2 77.9 84.1 89.2 96.1 102.5 108.7 114.2 121.1 124.9 128.5 129.8 130 128.4 118.2 115.8 113.4 113.5 111.4 106.6 105.7 102.1 100.5 106.9 105.8 109.6 111.1 115.4 118.1 123.2 125 129 154.6 173.4 176.7 177.6 177.7 168.1 170 170.6 166.4 169.3 173.7 172.3 174.4 172.7 171.8 174.2 175.2 177.2 179.6 180.1 180.8 182.1 186.9 186.5 180 174.2 174.5 171.8 163.2 162.8 162.8 165.5 162.8 159.5 154.8 151.7 150.7 156.5 153.9 152.7 152.3 159.2 164.7 158 157.4 156.8
128.9 140.3 141.2 141.8 145.4 148.6 153.2 159.6 162.7 165.1 169.5 171 169.2 169.6 169.3 169 170.1 171.5 173.7 183.5 188.8 192.2 189 186.9 190.7 192.8 194.9 195 193.8 192.4 188.6 182.5 177.7 174.4 172.7 172.4 171.2 168.1 163.6 160.2 159 158.3 155.6 152.9 152.4 151.9 151.2 150.5 149.8 149.2 148.6 147.9 147 142.1 137.5 137 137.2 136.8 130.3 123.9 123.4 130.8 131.8 134 133.6 134.2 128.7 128.7 124.6 118.2 114.4 110.6 110.2 109.7 110.2 110.5 111 111.7 111.3 108.4 108.2 108.2 108.2 108.1 107.4 106.5 103.6 102.8 101.9 100.3 102.2 103.7 105.7 106.8 108 108.9 109.2 109.2 108.8 107.9 106.9 106.3 105.3 103 100 98.9 92.9 91.9 88.2 83.5 83.6 81.5 71.2 71.6 71.9 70.9 70.3 69.6 68.8 67.7 70 72.7 76.9 77.5 86.2 93 99.6 105.2 111.5 116.6 121.4 125.9 129.2 130.4 131.1 130.5 121.3 117.1 114.6 112.4 112.7 107 106.3 103.5 101.3 103.8 105.4 107.3 112 113 120.8 122.4 126.3 128.4 153.2 173.5 178.2 178.8 178.8 175.6 171.9 173.3 171.5 172.1 174.2 176.6 177.1 177.2 176.4 177.5 179.6 180.4 182.2 181.1 181 182.2 185.7 187.2 186.6 175.5 174.2 173.2 164.6 163.5 163.1 165.1 163.1 161.4 157.6 152.6 151.9 157.7 159.8 155.9 154.7 158.9 165.2 160.4 158.8 158.8
135.7 133.7 135.9 144.1 145.2 148.5 152.2 157.7 161.1 164.3 167.7 168.4 167.3 167.9 169.7 169.5 170.4 171.5 171.3 179.5 184.3 186.9 183.8 184.9 187.8 188 189.4 191.7 192 188.8 183.1 178.3 173.8 170.5 167.8 167.1 166.8 161.7 161.7 159.2 156 156.4 152.9 153 152.8 152.4 152 151.3 150.2 149 148.2 146.7 143.5 141.1 137.2 135.4 135.4 131.9 125.7 124.5 125 127.6 130.2 133.8 133.5 132.4 129.9 128 125.3 127.4 116.4 113.7 108.6 108.4 109.1 108.9 109.5 113.4 112.8 107.5 107.3 107.4 107.8 108.6 107.7 107 106.8 102.1 101.6 99.9 101.7 103.2 105.1 105.9 107.7 108.8 109 109.2 109.2 107.3 106.7 109.2 106.5 104.2 99.2 96.6 91.7 91 86.8 81.9 82.5 72 71.5 72.6 72.4 71.3 72.5 69.7 69.1 68.5 71.2 73.1 77.2 80.5 87.9 96.2 103.7 109.7 115.2 120.6 122.3 127.5 131 132.1 132.5 132.2 127.2 118.4 115.5 114.1 112.9 107 105.7 103.6 101.5 103.6 105.5 108 112.9 113.4 121 124.1 126.9 128.2 141.5 169.2 186.9 182.9 180.7 179 175.7 174.9 173.6 175.9 178.4 184.7 184.9 184 178.2 179.7 182 183.1 184.2 183 181.8 182.9 184.6 185.6 185.8 178.9 173.5 171 167.1 164.4 163.4 163.5 163.9 161.5 158.6 156.9 153.9 159.5 163.3 159.8 157.7 159.1 162.4 163.3 160.6 161.3
136.6 138.2 140.9 143.5 144.9 147.5 150.5 156 160.2 159.2 165.3 167.4 168.7 168.9 169.1 171.5 170.6 171.4 172 178.9 181.8 181.9 180 183.3 186.1 186.8 187 186.2 185.7 185 179.6 175.2 171.9 167.7 165.6 164.2 164.3 162.9 160 157.7 154.6 154.3 154.7 153.2 153.1 152.9 152.6 151.9 150.9 149.8 148.7 147.2 145 143 141.3 135.8 132.6 128.4 126.6 126.6 127.3 128 130.3 133.3 133.4 130.9 129.3 127.2 121.1 119.5 118.5 113 112.5 107.1 109.2 107.9 107.2 106.7 106.2 106.1 105.7 105.7 106.6 109 108.3 107.2 105.8 104.1 101.5 100.6 100.7 102.8 105.2 105.1 106.2 108.8 108.9 109 108.9 106.8 105.5 108.8 105.1 104.2 99.4 96.7 90.4 87.6 83.4 80 78.8 72.5 72.4 72.8 72.4 72.4 72.1 70.7 69.1 69.3 71.1 73.6 76.1 81.9 90.3 99.5 107.1 113.3 118.1 123.9 126.2 131.4 133.2 133.7 133.9 133.4 130 120.2 116.2 114.4 114.2 108.9 104.6 104.6 102.2 103.9 106.5 106.7 109.7 112.8 121 124.9 125.9 129.3 139.8 156.9 184.4 187.6 182.5 181.9 180.9 179 176.4 177.8 180.8 187.3 190.3 190.2 184.4 183.8 183.9 184.8 186.3 186.1 183.7 190.5 184.9 183.8 183.1 177.3 172.1 170.6 168.3 165 163.8 162.8 163.1 161.2 158.5 155.9 157.5 164.3 165.9 166.8 161.1 161.2 165.4 171.9 168.7 166.1
136.2 138.8 141.5 142.8 145 148.2 152.4 156 160.2 163.7 167.6 169.6 170.1 170.2 172.2 173.1 170.1 171 172.7 178 180 178 178.4 183.8 185.1 186 186.6 185.6 182.7 179.9 178.4 172.3 167.7 165.8 163 160.8 159.5 156.4 156 155.5 155.5 154.3 153.9 153.4 153.5 153.4 153.3 152.8 151.7 150.8 149 147.3 146.4 144.9 143.4 137.4 133.6 128.8 127.7 127.9 128.1 128.6 130.7 128.9 129.7 129.9 127.8 122.1 120.7 118.9 116 111.7 109 107.3 106.8 104.6 105.6 105.4 105.2 104.7 104.3 104.2 104.7 107.6 107.6 106.8 105.7 104.1 101.4 100.3 100.2 101.2 103 103.9 106.5 108.3 108.6 108.8 108.8 105.4 103.9 104.6 102.6 99.8 103.6 95.8 89.8 82.4 79.6 75.3 72.4 73 73.4 73.5 73.2 72.3 71.7 70.4 70.5 70.8 71.9 73.6 77.8 83.1 92.1 102.1 110.2 116 120.2 128.4 128.6 133.9 134.6 134.7 134.9 134.2 133.1 124.6 117.2 115.1 114.8 110.1 104.8 104.1 104.3 104.5 106.1 107.5 111.3 112.3 119.7 125.5 127.4 130.9 139.5 149.5 165.6 185.3 184 183.2 184.5 180.7 179.2 179.3 184.6 188.1 192.4 194.9 191.6 186.7 187.4 188.4 189.5 188.7 185.7 194.2 189.6 183 180.5 175.3 172 170.7 169.9 166.4 162.7 162 161.4 161 158.9 159 159.8 165.4 171 168.6 163.9 165.5 172.6 173.6 172.7 170.8
137.5 139.9 140.9 142.3 144.2 150.1 157 157.9 162.4 165.9 169.6 171.3 171.9 172.2 172.7 176.1 173.1 170.6 171.5 176.1 176.9 176.2 177.2 181.3 184.2 185 185.7 185.7 183.5 181.2 173.3 169 165.1 163.1 160.5 160.2 157.9 155.5 155.3 155 155.5 155.5 155.1 154.9 154.5 154.2 154.2 153.6 152.7 152.3 151.5 147.2 146.2 145 145 138.2 133.9 130.7 129.2 129.1 128.6 128.9 128.8 128.7 127.4 125.7 124 122.2 121.9 121.3 115.1 109.7 108.4 109.9 110.2 111.3 112.8 102.1 102.4 103.3 103.3 102.4 102.5 106.6 106 105.4 103.8 102.2 100.9 100.3 98.8 100.3 101.7 102.9 106.3 107.4 108 108.5 109.4 104.9 102.2 101.9 101.7 98.4 93.6 92 85.6 81 79.1 74.6 74.2 74.3 74.2 73.9 73.7 72.8 72 70.7 71.5 71.7 72.5 73.8 79 85.3 95.5 104.7 115.2 119.9 124.3 128.5 132.8 136.9 136.8 136.8 136.6 135.6 134.7 126.8 119.3 116.3 114.8 111.8 105.4 104.5 105.4 106.2 107.2 109.1 112.5 116.6 116.2 127.5 128.9 133.2 140.1 145.4 155.3 176.6 182.7 183.2 186 188 182 183.3 185.9 191.6 194.4 196.9 194.9 189.7 190.8 191.8 191.8 191 187 185.8 191 187 181.6 174.8 171.7 170.8 171.3 171.5 162.6 161.8 161.1 160.4 158.8 160 162.7 170.6 174.8 175.4 166.7 167.4 178.8 180.4 175.1 176.3
136.8 136.7 140.9 142 144.2 150.7 156.7 160.6 167.7 172 172.9 172.5 173.4 173 173.5 176.1 173.4 171.7 171.8 173.1 174.9 175.2 176.5 176.2 176.8 175.6 181.9 180.3 179.8 177.4 172.2 166.1 163.9 161 159.2 157.7 156.9 155.5 154.4 154.3 155.5 155.7 155.5 155.4 155.4 155.1 154.8 154.2 153.8 153.1 151.7 147.8 146.4 145.6 143.6 137.9 132.8 132.7 131.7 130 129.4 129.1 129.2 129.5 129.3 128.4 125 125.4 122.8 120.5 115 109.3 109.5 110.8 113.9 114 112.7 111.4 101.6 99.7 99.4 100.2 100.4 100.5 99.2 98.5 98 97.9 98.5 98.5 98 99.5 101 103.8 105.8 106.7 107.1 107.5 107 107.3 101.7 98.5 103.2 94.7 91.8 86.7 83.1 81.6 74.3 75.4 74.8 75.1 74.8 74.5 74.9 72.9 71.5 71.4 72 72.3 73.8 74.3 80.4 87.6 97.3 107 117.7 123 127.2 130.8 135.9 140.6 140 139.5 138.6 137.3 136.5 131 123.6 118.5 115.8 114 106.8 106.1 108.1 106.7 110 108.8 113.2 116 123.9 124.5 130.8 133.2 146.6 148.8 155.1 168.5 179.7 181.5 185.2 186.2 185 185.7 188.5 195.5 199.2 199.5 197.6 193.2 194.4 195 194.5 194.2 189.5 186.8 186.1 187.9 185.2 182.5 171.5 170.7 171.4 174.1 164.8 162.4 160.9 160.1 159.2 160.9 166.1 173.2 177.4 178 174.3 171.7 178.2 181.8 180.6 177.6
134.5 136.8 140.5 142.1 145.8 151.1 157.6 165.1 173.6 176.6 178.1 175.4 174.3 174.1 175.7 176.3 173.6 171.3 172 173.5 174.2 174.8 174.4 175.2 174.4 170.4 169.7 173 175.5 170.8 167.1 165.3 162.5 162.5 160.2 158.4 157 155.7 154.5 153.5 155.4 155.5 155.9 155.8 155.8 155.8 155.5 154.8 154.1 153.3 151.2 149.1 146.7 145.9 143.6 137.9 133.6 132.8 131.6 130.9 130.7 130 129.6 129.7 129.4 126.3 124.8 123.9 121.7 116.9 110.8 117.6 110 110.8 103.9 101.1 102 100.4 100.9 102 102.3 101 98.6 98.7 98.7 98.3 97.5 96.8 95.9 96.1 96.8 98.4 99.4 100.4 104.8 106.4 106.5 106.3 106.9 106.3 100.4 97.2 94.5 92.1 87.4 84.3 82.9 78 76.5 75.9 77.4 77.5 75.7 75.4 74.9 73 71.8 72.7 72.6 73 73.8 77.1 81.8 90.5 98.9 107.6 118.6 124.6 129.7 132.7 138.3 142.9 143.2 142.4 141.2 140.4 138.7 135.8 127.3 121.2 117.1 116 108.8 106.1 109.2 108.1 108.3 110.1 113.4 116.2 121.6 126.7 132.9 135.2 144.9 151.3 154.5 165.7 173.5 178.5 184.1 186.3 186.4 187.5 190.7 195.5 200 200.7 197.5 195.3 196 196.7 197.5 198.1 196.7 188.2 184.4 183.3 184.8 182.2 175.3 170.2 170.2 172.4 166.4 163.4 161.1 159.6 160.2 163 166.9 174.5 179.8 180.1 179.6 174.5 177.5 180.6 181.2 178.5
133.5 138.5 139.9 142.4 147.4 152.1 157.9 168.3 175.6 178.2 179.8 180.1 179.7 175.6 176.4 175.5 174.4 172.4 172 173.3 174.6 174.9 174.1 176.8 177.5 172.9 170.6 167.9 168.1 167.5 164.8 163.3 163.2 161.9 160.7 156.9 155.1 155.1 154.4 154.1 155 155.3 155.9 156.3 156.4 156.4 156.3 155.4 155.1 153.5 151 150.2 146.7 146 144.2 137.3 133.9 132.9 131.2 132.2 132 131.8 130.5 130.1 133.3 124.9 124.9 125.7 120.6 110.6 115.2 105.3 103.8 103.6 103.1 103.3 103.1 103.3 103.2 102.2 102.3 101.3 100.3 98.6 97.7 99.6 99 98.3 97.4 95.6 95.5 97.1 98.1 99.2 104.3 106.3 106 105.7 104 103.2 101.1 96.3 91.4 87.4 84.8 82.5 79.4 76.5 77.4 76.4 80.1 78.3 76.6 75.8 74.9 72 73 73.3 73.2 73.8 74.8 80 82.7 92.1 102.2 109.9 121.7 124.6 132.9 136 141.8 144.4 145.8 145.2 144.5 143.7 142 138.2 130.9 123.2 119.1 117.2 111.2 107.6 112.2 110.4 109.9 112 113.7 117.8 120.3 129.9 132.1 138.7 142.9 152.7 155 160.9 170.8 175 177 184.9 188.6 188.9 191.7 195.3 197.8 203.8 200.5 197.8 197.9 198.3 198.7 199.2 197.5 193.2 189 181.2 180.5 179 174.1 169.6 168.7 171.6 167.3 164.9 161 160.8 161.6 162.7 165.5 174.7 182.1 183 181.5 178 178.7 180.2 181.7 179.9
132.3 138 141.3 144 150 152.8 160.1 170.8 178.7 180.7 183.9 185.8 187.2 183.8 182.1 179.8 175 173.1 172.4 173.6 174.7 175.2 175 175.7 181.1 177 176.5 172 166.6 164.4 163.9 161.2 159.6 157.8 156.8 156 155.2 154.3 153.9 154.1 154.7 155 155.4 156.4 156.6 156.8 157 156.5 156.2 153.1 149.9 147.4 145.6 143.7 143.1 135.1 134 133.7 133 133.2 132.8 131.6 131.3 127.2 125.9 122 119.4 124 119 108.1 106.5 105.5 105.2 105.5 105.8 105.4 105.1 104 103.4 102.9 101.7 100.8 100.1 100.7 101.5 103.9 103.9 104.6 99.2 96.3 94.2 94.4 97.1 97.9 104.9 106.3 105.9 104.7 103.2 101.5 99.9 93.9 87.4 83.4 80.5 79.2 78.5 78.4 77.5 79.2 80.1 79.2 77.1 76.4 75.8 73.8 72.7 73.9 73.9 74.7 75.3 81 84.6 95.6 103.7 110.7 123.4 127.7 136 138.2 144 146.5 147.4 147.7 147.7 147.3 147.1 144.2 135.5 128.1 122 118.3 114.2 110.1 114 111.9 111 110.8 114.5 118.6 120.8 131.5 134.7 139.5 146.1 151.2 158.2 160.9 163.6 166.3 169.5 180.1 185.5 189.4 191.7 193.5 194.7 200.4 202.1 199.7 202 200.6 199.5 198.1 195.3 192.6 188 181 178.7 176.8 173.2 169.1 166.4 166.3 165 164 161.8 161.6 162.2 162.9 164.8 174.7 179.6 183.7 184 180.4 180.5 180.7 182.1 181.7
136.7 140.8 141.5 146.9 152 156.3 163.1 175 181.3 185 188.3 190.2 189.8 190.8 189.9 182.8 175.1 173.6 171.7 173.4 174.9 175.4 177.4 177.3 177.5 175.7 173 171.4 167.4 163.9 160.4 160.5 159.2 158 156.6 155.2 154 153.4 153 153 154.3 154.9 155.6 156.3 156.5 156.9 156.8 156.3 156.6 152.9 149.2 146.7 144 142 137.2 135 134.3 135.2 134 132.9 132.6 127.7 111 108.1 107.7 107.4 107.2 106.9 106.7 106.4 107.4 107.3 107.2 107 106.7 106.6 106.5 105.7 104.6 104.3 103.5 102.4 103 102.9 106.4 107.4 106.4 105 103.1 101.4 98.5 95.9 95.7 98 105 105.9 105.2 104.1 103 100.4 89.3 83 82 79.5 79.4 79.4 79.4 78.6 80 80.1 80.2 79.1 78.3 77.3 76.5 74.8 74.2 75 75.5 75.6 76.7 82.4 85.6 97.3 106.3 113.8 126.3 131.1 136.5 139.8 145 148.2 149.5 150.8 151.7 151.9 152.1 151.6 144.3 131.8 126.1 120.5 115.3 114.2 110.8 114 114 111.5 113.4 117.2 122.6 125.1 133.5 137.5 147.3 152.1 157.5 160.7 164.6 168.4 173.8 173.7 180.3 185.4 189.2 193.3 194 196.9 198.9 200.7 200.7 201.2 199.3 197.7 195 191.2 186.7 182.3 177.8 176.4 173.2 170 165.9 165.4 164.5 163.2 162.2 162.4 162.7 163.4 165.3 171 179.4 183.9 184.3 182.5 181.4 181.5 182.9 183.6
136.5 141.9 143.6 148.8 152.7 157.9 165.7 178.3 185.4 190.5 191.9 194.4 196.8 193.7 190.3 183.6 174.9 177.3 177.3 177.3 174.8 176.5 178.3 178.1 175.8 173.5 172.8 169.2 166.9 164 160.6 158.3 156.4 156.6 154.5 152.9 152.2 152.6 152.7 151.8 153.3 153.9 155 155.9 156.5 157 156.1 155.7 155 151.8 148.5 146.2 141.4 137.8 136.4 134.9 132.1 131.4 133.5 131.1 119 110.1 108.1 108 110.9 115.3 109.2 109.4 108.7 108.8 108.9 109.7 110.5 110.5 109.1 107.8 107.5 107 105.5 106.3 105.7 105.3 105 106.7 108.6 109 109.1 106.2 104.1 103.6 103.1 101.8 91 93.3 100 103.7 102.3 95.2 95.7 88.6 82.8 81.3 81 80.6 82.4 84.1 82.4 81.5 81 80.5 79.9 79.2 78.5 78 77.3 74.9 75.1 75.4 76.1 76.5 79.2 83.9 89.6 100.8 108.5 113.6 125.2 134.5 138.3 141.9 145.1 148.9 151.7 153.3 154.6 155.8 156.5 156.7 150.4 138.8 130.3 124.3 118.4 115 110.5 115.2 115.4 112.7 115.9 118.3 122.3 126.4 130.1 137.7 143.2 153.1 157.9 162.1 166.4 169.2 172.3 182.1 182.1 183.5 185.6 192.9 193.5 194.4 200.8 203.3 199.3 198.1 197.4 196.6 194.5 192.5 185 181.6 179.1 176.5 176.5 173.6 168.1 165.6 164.7 163.4 162.6 162.8 163.1 163.9 165.8 170.1 179.7 185 186.4 184.5 182.4 182.3 185 187.5
138.1 143.3 147.3 151 153.9 159.9 169.1 181.5 191.5 195.3 198.3 200.4 200.7 195 190.7 187.2 176 177.3 177.3 175.4 174.7 176.2 179.2 180.2 175.4 173.6 169.2 167.9 165.5 163.5 162.1 160 157.4 156.1 155.3 156.1 154.7 151.6 151.6 152.1 153.3 153.9 154.6 155.3 155.8 155.7 154.8 154.2 152.7 150.8 147.8 144.1 137.6 133.9 133.1 131.9 128.4 128.5 125.4 121.2 109.3 108.8 115.9 115.6 114.4 114.6 113.7 111.7 110.6 115.7 122.1 118.1 113.4 112.5 111 109 108.2 107.5 106.7 107.3 107.1 106.9 106.9 108.9 110.3 110.3 109.5 106.8 104.7 104.1 103.6 103 99.9 97.7 92.2 89.1 87.4 90.9 84.6 82.4 82.4 82 81.3 86.4 87 84.3 86.2 83.6 81.2 81 80.2 79.6 79.4 79 77.9 75.6 75.6 75.9 76.7 77.5 81.5 84.7 93.5 101.7 109.6 115.8 125.9 134.1 140 143.2 146.7 150.6 154.4 155.3 156.7 158 159.6 160.4 154.4 144.1 136 129.1 121.7 116.3 113 116.4 118.5 114.4 116.8 118.9 122.9 127.9 133.1 136.2 143.4 154.5 159.7 163.5 167.6 170.3 174.3 181 185.2 184.6 184.8 185.8 190.3 191.8 198.4 201.8 200.6 196 194.5 195.5 193.5 191.6 190 183.4 181.5 177.4 177.5 177.6 172.6 166.4 165 163.8 163.5 163.8 164.6 165.1 167.2 170.8 181.7 185.7 188.4 188.6 186.8 186.8 190.6 192
141.9 144.4 150.1 153.6 157 161.8 170.5 184.2 194.4 201.8 203.9 203.1 202.5 195 189 180.9 176.4 177.3 177.3 177.3 176.5 178.3 178.9 176.4 175.1 172.5 168.1 166.3 165.1 163.8 162.2 160.6 159.9 159.7 158.3 157.1 156 153.7 150.5 151.3 152.5 153.7 154.3 155.2 154.4 153.5 153.2 152.3 150.9 148.7 145.3 142.7 137.2 128.9 125.3 122.4 120.8 116.5 114.1 109.5 114.2 114.7 127.1 124.1 119.7 115 114.2 113.8 114.3 115.7 115 114.1 113.2 112.4 110.6 109.2 108.7 107.8 108 108.2 108.1 108 109.3 110.5 111.2 110.7 110.1 107.3 105.2 104.5 104 103.3 102.2 102.2 100.5 99.6 97.8 100.6 95.5 90.1 83.2 89.1 89.8 88.5 86.9 86.5 84.9 83.6 82.1 81 80.8 80.3 80.1 79.5 78.3 77.1 76.4 76.8 77.9 80.1 82.7 86.6 96.6 103.9 110.1 116.1 125.2 134.3 140.6 146 148.5 154.5 156.9 157.6 158.7 160.2 163 161.9 156.2 147.9 141 133.9 126 118.9 115 114.4 115.3 116.2 117 120.9 125.2 128 134.1 136.5 143.3 155.6 160.9 165.1 169.3 171.9 174.3 182.2 185.2 185.4 186 185.6 186.3 187.5 193 199.7 200.7 194.4 193.5 193.4 192.6 191.1 189.9 188.1 185.6 181.2 177.9 181.6 175.5 170.4 167.7 164.4 165.1 166 168 167.3 167.3 171.3 177.9 184.6 188.6 194.6 190.4 191.1 189.6 198.4
142.5 145.9 149.4 154.2 159 163.3 171.7 184.7 195 205.7 205.4 205.2 202.3 193.4 186.1 178.6 174.5 177.3 177.3 177.3 174.9 178.6 178.7 175.6 173.7 171.1 167.6 166.4 165.8 164.3 162.8 161.9 161.4 160.7 158.4 157.7 155.6 152.5 151 150.1 151.4 152.8 153.9 154.6 153.3 152.4 151.6 149.3 149 146.3 142 140.9 135.2 125 122.6 118.4 117.2 115.3 110.9 113.3 120.2 122.2 124.6 123.5 121.3 116.5 115.5 115 114.8 115.2 114.9 113.7 113.2 113 110.1 109.6 108.9 108.8 108.9 109 109 109.2 110.8 112.2 111.6 110.7 109.6 108.2 106.5 104.7 103.8 103.4 102.7 102.6 102 101.3 101.1 96.6 95 87.7 83.3 91.8 92.7 92.1 87.6 88.6 84.4 82.5 81.8 81.3 81.2 80.9 80.6 80.1 79 77.8 75.6 77.8 79.1 82.8 85.1 90.1 99.3 105.7 113.1 117.5 126.4 139 143 146.5 151.1 157 159.6 159.3 159.6 160.6 162.1 160.4 156.2 150.3 144.9 137.2 130 123.6 115.7 114.4 115.4 117 117.6 120.1 125.2 129.1 134.5 137.8 145.6 157.7 161.9 166.8 171.3 173.4 175 180.1 184.1 185 186.3 186.6 188.6 186.9 188.1 196.1 196.7 193.5 191.2 191 190.7 190.4 190.2 189.4 187.2 184.5 182.3 184.1 179.3 172.8 168.7 165.3 168.2 167.8 173.5 172.5 170.8 173.4 178 185.2 198 205.4 203 198.7 198.8 206.2
145 147.9 151.1 156.8 161.6 165.1 170.6 183.6 193.7 203.8 208.3 207.4 201.1 190.7 183.9 179.1 174.6 173.8 174.8 174.3 178.1 179.3 178 177.4 175.6 172.7 169.2 167.5 166 164.4 163.4 162.9 162.2 162.3 159.5 157.3 155.1 153 151.9 148.8 150 151.9 154.2 154.8 152.7 151 148.7 144.6 142.6 142 135.9 130.6 128 122.7 118.3 116.4 115.1 113.9 110.1 120.6 123.1 119.1 124.8 123.7 123.5 123.1 122.5 115.9 115.1 115 114.6 114.4 114.8 110.1 109.8 109.7 109.7 110 110.1 110 110.4 110.7 111.5 111.9 111.6 111.1 110.2 108.9 107.1 104.6 103.5 103.3 103.2 102.9 102.5 101.5 99.5 96.4 93.4 83.9 91.4 93.1 93.3 93.3 92.9 86.8 85.6 83 81.9 81.5 81.4 81.3 81.1 80.7 79.6 78.3 77.8 78.5 80.8 86 86.6 94.5 100.8 107.3 114.7 122.6 126.8 139.6 145.8 149.5 153.2 157.7 160.4 160.6 161.4 161.8 161.9 160.7 157 152.2 147.5 141.1 133.7 128.2 122.3 118.2 114.6 117.2 118.8 120.7 124.8 130.2 135.2 138.9 145.2 157.8 162.2 166.5 171.4 173.6 174.7 176.3 182.3 184.6 186.5 186.7 187.8 187 186.7 186.3 190.2 188 186.7 188.5 189.3 189.6 189.9 190.1 187.4 185.5 183.2 181.9 179.1 173.4 169.2 168.8 172 172.7 177.1 180.1 178.6 179.2 183.1 189.2 206 213.2 211.3 208.6 207.6 214.9
146.9 150.5 152.8 158.2 163.9 166.8 171.5 183.4 192.3 203.1 208.8 205.3 199.7 190.2 183.9 176.3 175.4 174.9 174.2 175.3 179 180.3 180.5 179.1 176.2 174.5 169.8 168.6 167.6 165.7 163.9 163.4 162.9 162.8 160.2 157.6 154.3 152.8 151.4 149.2 147.7 150.8 154.1 153.3 152.1 149.5 145.5 140.8 133.9 130.8 128.9 125.1 120 117.2 115 111 110.8 113.2 113.8 118 119.4 125.2 125.8 123.8 122.7 121 119.4 116.5 114.7 114.9 111.4 113.6 112.4 110.9 112.7 111.8 111.3 111.2 110.9 111.8 111.7 111.8 112.1 112.5 112.6 112.5 112 110.8 108.1 105.8 103.8 103.5 103.2 102.8 102.4 101.3 99.4 96.1 88.6 87.9 95.6 94.1 94.1 94.4 93.8 91.6 87.6 83.5 82.3 81.9 81.7 81.6 81.4 81.1 80.4 78.7 78.3 79.1 82.1 87.2 88.1 96 103.6 109.5 116.4 125.9 128.3 137.2 148 152.4 155.8 160.2 162.6 163.6 164.4 164.8 163.8 161.9 158 154.1 149.6 143.5 136.2 131 126.3 124.4 117.2 117 118.6 121 125 127.1 131.5 136.2 146.5 156.1 162.1 165.3 169.2 172.8 174.9 176.9 181.4 181.5 185.4 186.8 187.8 187 186 185.9 185.6 185.2 185.1 186.4 188.3 188.7 189.6 191.3 190.7 185.8 183.8 178.7 179.1 175.5 172.4 171.8 176.1 178.6 180.5 187.6 184.6 182.2 189.9 200.3 211.7 216.5 217.9 216.8 214.8 219.9
147.9 151.7 154.2 159.1 164.6 167.6 172.9 182 191.3 200.7 204.7 201.7 197.7 190.6 179.9 176.6 175.4 175 175.4 176.3 181.8 180.6 181 179.4 177.1 174.2 171.1 169.5 168.5 165.7 163.9 163.6 163.2 161.8 158.5 156.8 153.7 152.2 150.8 149.6 148.7 146.7 150.8 152.7 151.5 149.2 143.9 135.3 132.3 127.8 124.3 120.3 117.9 114.7 111.1 114 114.5 115 116 119.7 123.2 125.8 127.8 125.1 123.3 126.2 124.1 117 114.7 114.6 114.9 115.1 114.8 114.2 114 113 112.8 112.7 112.5 112.3 112.3 112.3 112.6 113.8 115.6 116.7 113.9 111.2 108.7 106.7 103.6 103.3 103 102.6 102.1 101.1 98.6 91.1 86.7 91.9 97.6 96.2 98.9 95.6 93.3 93.8 91.7 85.9 83.3 82 82 81.9 81.7 81.5 80.9 78.1 78.6 82.5 86.4 85.5 89.9 99.9 106.3 112.5 118.6 126.5 130.2 136.8 148.8 153.8 158.5 162.9 165.7 166.7 167 166.8 165.7 163.3 159.6 153.7 150.5 145.8 139 134.3 129.8 125 120.4 118.4 118.2 121.6 129.2 133.7 137.7 141.6 140.6 150.6 157.8 164.1 168.3 170.8 173.5 175.9 179.4 180.3 183.6 185.8 187.8 186.7 185.7 185.8 185.2 184.8 183.3 184.7 187 188.3 189.6 192.9 193.6 187.3 183.8 178.7 178.7 178.5 176.3 175.9 179.3 182.1 186.6 193.6 193.6 191.8 195 201.5 210.3 214.6 221.9 219.1 219.9 218.6
148.1 151.3 155.2 159.9 165.4 168.7 174 183.5 190.3 196.9 199.5 198.9 193.4 189.6 178.5 177.6 178 175.7 176.2 178.8 181 181.4 181.5 179 177 174.4 172.1 170.2 169.1 166.7 163.3 162.8 162.2 161.1 158.6 156 152.5 151.2 149.7 149.2 148.4 148.1 144.2 142.5 142.5 139.2 135.3 139.6 130.8 124 121.9 119.6 117.7 113.8 111 115.9 115.5 115.6 119.7 128.7 127 126.1 126.8 124.6 123.7 123.9 121.3 118.2 118.2 118.5 117.9 116.7 116.1 116 114.8 113.9 113.5 113.2 112.9 112.9 112.9 112.9 114.2 116.6 116.7 117.8 114.9 111.8 109.7 107.4 103.6 103.1 102.8 102.4 101.8 100.1 96.3 89.6 87.4 95 96.8 97.6 99.8 101 95.9 93.7 90.4 87.3 85.3 83 82.4 82.4 82.1 81.9 79.7 79.5 79.6 83 87.9 87.1 90.5 102 108.6 113 118.2 128.5 133 139.1 149.5 156.9 161.2 165.2 168.6 169.5 169.6 169.4 168.7 166.7 161.6 155.5 151.8 147 141.1 137 131.7 127.1 123 121.6 121 120.9 127.8 135.7 138.9 142.3 147.4 152.6 157.1 159.4 166.6 168.9 170.5 174.6 177 178.8 179.7 183.3 184.8 185.2 184.9 186 184.7 184.2 183.6 184 185.3 187.2 189.7 194.6 197.8 189.6 183.5 178.5 178.7 181.2 182.5 179.1 182.7 186.4 187.9 192 197.6 195.9 200 205 207.6 215.8 221.9 221.9 221.6 217.5
149.6 152.5 156.5 162.6 167.6 171.7 176.1 185 191.3 193.7 193.9 192.7 192.6 188.3 178.1 178 178 178 177.5 179.7 181.6 182.1 181.3 179.6 178.9 176.4 173.8 171.2 169.5 166.5 162.3 161.1 161 159.4 156.5 153.4 151.8 150.6 148.5 147.7 146.7 147.7 145 140.2 138.4 133.7 129.2 128 125.6 123.5 121.2 119.2 117.6 111.5 116.1 117.2 116.6 116.6 117.9 125.8 126.9 129.1 125.3 126.6 125.1 127.3 122.2 120.5 122 121.7 119 117.7 116.9 116.4 115.5 114.5 113.9 113.7 113.4 113.3 113.4 113.5 116.9 117.9 118.8 117.4 115.1 112.1 109.5 107.2 103.8 103.3 102.7 101.9 100.9 98.4 92.5 88.6 88.9 97.6 97.6 100.7 100.6 106 100.7 94 91.3 89.1 87.2 85.4 83 82.8 82.5 82.2 80.4 80.4 80.3 84.8 87.9 90.2 92.7 100.4 109.6 113.4 117.5 128.4 134.1 141 149.8 159.2 163.4 168.1 171.7 172.4 172.1 171.9 171.7 169.9 166.3 161.2 155.2 148.6 143.6 140.1 135 130.3 127.7 126.1 123.5 123.1 123 135.8 140 144.7 150.1 157.9 160.2 158.6 162.5 166.5 168.9 171.8 174.8 176.8 177 178.1 181.4 184.2 185.9 183.4 182.9 183.5 182.8 183.3 184.4 184.5 187 191.9 200.2 195.1 186.9 178 178.7 178.8 186.9 185.4 188.5 192.8 192.2 195.5 198 200.8 202.8 206.6 212.9 216.8 218.7 220.6 222.5 217.5
152.3 154.5 158.4 163.9 169.5 177.8 179.6 188.2 192.3 194 192.5 191.1 191.2 187.7 177.4 178 178 178 182.7 181 181.5 184.3 183.4 181.2 180.6 178.2 176.4 171.5 169.4 165.8 161.1 160 159.2 158.5 155.7 153.6 151.3 149.7 147.1 145.6 143.9 141.2 137.9 138.3 137 128.5 125.6 123.6 121.6 120.5 118.1 117.2 112.5 112.6 116.6 117.9 119 124.8 122.5 127 127.1 127 126.5 127.4 128.2 126.8 124 124.5 124.8 123.1 121.7 119.5 118.5 116.8 115.8 114.8 114.3 114.1 114 113.8 114.1 114.7 117.5 118.8 119.4 117.9 115.8 112.9 109.9 106.6 103.8 102.9 101.9 100.9 99.9 97.9 91.6 87.6 93.3 96.9 98 99.5 103.5 102.9 100.4 96.3 93.8 92.1 90.3 87 84.7 83.4 82.8 82.5 80.7 81.1 82.5 88.5 88.5 91.4 98.9 104.7 107 113.8 117.9 124.9 135 140.5 150.7 160.3 166 172.9 175.2 174.7 174.3 174.2 173.9 172.9 169.6 163.7 157 150.6 146.3 142.9 138.6 133.7 130.2 128.2 126.8 129.6 134.6 134.2 137.7 147 154.3 159.5 163.5 165.2 166.8 169 167.7 170.6 171.6 174.2 174.9 177.2 180.9 180.9 182.5 182.2 181.9 181.6 182.4 183 183.4 182.7 183.4 190.8 199.7 197.8 192 183.3 178.7 178.7 186 191 194.6 199.2 197.5 198.3 198.9 201.5 201.7 210.2 216.6 217.9 218.6 218.8 221.3 218.6
153.9 156 160 166.9 173.5 179.2 185.2 189.8 191.4 192.8 191.4 190.5 188.1 183.5 177.2 177.8 178 177.1 183.7 181.9 182.3 183.5 183.9 182.5 180.4 178.9 175.3 171.9 167.6 164.1 161.1 159.4 158.4 156.1 153.5 151.5 149.6 148.2 146.1 144.9 143.3 142.8 138.7 133.6 130.3 128.2 128.3 123.5 120.4 118.4 116.5 112.5 115.9 116 117.5 119.3 122.5 126.8 126.2 127.4 127.6 127.8 127.7 131.7 131.7 128.6 127.9 128.1 129 127.9 124 122 120.5 120.1 116.6 115.9 115.2 115.1 114.9 114.6 115.1 116.6 118.6 119.5 119.8 118.3 116.2 112.8 109.5 106.6 104 102 101 99.9 98.8 95.6 90.2 90.4 96.2 96.9 98.2 99.3 102.5 102.9 100.5 98.4 96.2 94.7 92.8 90.8 85.6 83.8 83.3 82 81.9 81.7 83.2 89.4 89.4 94.1 102.9 108.7 111.8 114 118.5 123.7 135.2 141.5 153.1 161.3 169.1 175.5 177.6 177.1 175.6 175.7 175.8 174.5 170.6 164.7 158 152.6 148.6 145.5 140.7 134.9 132.6 130.7 127.8 131.8 138.7 141 136.9 143.8 155.9 161.9 169.1 170.4 171.6 172 172.4 170.7 171.6 172.5 173.8 178.4 180.8 180.9 181.5 181.8 181.4 181.3 184.5 183 183.7 180.6 179.6 185.3 194.1 197.7 194.6 187.4 178.6 178.4 184.5 192.1 198.4 205.6 207.5 205.5 200.9 202.3 203 203.8 218.5 219.6 219.9 218.6 215.7 217.4
155 156.6 161.1 167.8 173.6 178.4 186 189.1 190.8 191.1 190 189.7 187.2 180.1 176.9 176.3 176.6 178.1 179.8 182 182.9 183.8 184.4 182.3 180.9 179.9 178 171.5 167 164.4 160 158.1 157.1 157 154.8 151.6 148.9 146.8 144.7 143.7 140.3 136.8 134.8 134.4 128.6 127.3 125.4 119.8 115.7 114.9 116.5 113.8 116 117.8 119.3 120.4 121.8 130 127.3 128.3 128.3 129.5 130.4 133.1 132.1 130.8 131.3 133.2 134 131.5 128 126.8 124.8 124.2 121 117.6 116.2 116 115.9 115.6 116.4 117.8 119.4 120.1 120.2 118.7 116.1 112.8 109.3 106.9 104.4 101.7 100.3 98.9 96.7 92.5 90.3 93.3 96.3 98.6 99 101.8 102.9 103.8 101.9 101.4 99.8 97.6 97.5 91.1 87.8 84 83.8 82.8 82.5 82.7 83.9 89.6 90.5 98.8 104.8 111.2 115.4 115.5 118 122.4 134 142.3 153.3 162.8 170.9 177.9 180.1 180 177.2 177.2 177.3 176.1 171.6 165.8 159.3 154.3 150.7 147.4 142.3 136.8 133.7 131.2 129.9 137.3 137.8 144.3 146.8 143.8 153.2 161.2 169.5 175.7 175.7 175.1 174.1 173.5 174.4 174.8 174.9 176.8 180.3 181.1 181.3 181.2 180.7 180.3 180.6 182.4 182 178.8 178.8 186.7 190.3 192.8 192.8 188.1 182.8 179.8 187.2 195 201.7 207.5 211.2 211 207.9 202.7 203.7 204.2 207.5 215.7 218.5 218.9 213.9 211.4
156.2 158.7 161.9 167 174.8 177.6 182.9 185.5 186.1 187.5 189.1 188.4 184.7 178.9 177.1 176.7 177.1 178.7 180.9 183 183.5 184.7 184.9 183.5 182.1 180.8 177.7 169.3 167 163.4 159.8 157.8 156.7 157.7 153.9 150 142.6 140.8 138.4 133.5 132.3 129.6 132.2 133.2 127.8 125.8 121.4 118.6 116.7 112.7 116 114.5 117.9 119.3 120.2 120.7 122.3 124.6 128.3 129 129.7 130.8 130.9 132.5 132.4 132.7 134.4 135 135.2 133.9 131.2 130.2 130.6 127.6 125.7 123 119.4 117 116.7 116.2 116.8 118 119.8 120.7 120.8 118.9 116 112.3 109.3 107.1 104.7 101.9 100.5 98.9 95.3 90.4 92.3 95 99.4 100.1 100.8 102 102.9 104 103.6 103.2 102.4 101.4 101.1 94.9 90 85 83.6 83.5 83.3 82.2 84.7 89.7 92.3 101.1 107.6 112.9 116.5 117.8 118.7 124.7 134.5 143 151.2 164.1 171.8 179 181.8 182.4 178.3 178.4 177.9 177 173.2 167.1 161.2 156.8 153.2 149.5 144.3 139.1 134.7 133 133.8 136.5 142.6 146.5 148.8 152.7 149 155 165.2 177.7 178.4 177.6 176.3 175.4 175.2 176.1 177.1 178.5 178 180.1 180.4 179.7 178.8 181.1 178.8 182 178.8 178.8 179.2 186.6 190.6 191.7 191.3 189.8 184.5 181.7 184.7 196.7 201.9 207.2 210.2 212.1 212.5 209 205.6 205.9 205.9 209.7 217.5 219.8 214 210.5
159.7 160.5 162.3 169.9 175.7 177.8 179.7 183.4 184.5 188.7 186.9 184.2 183.2 178.2 177.3 176.8 177.5 180.1 180.8 184 183.7 184.4 185.5 183.8 181 179.8 175.7 170.1 165.5 162.2 159.9 156.5 154.2 151.8 148.6 145.8 147.6 143.2 138.1 138.7 136.5 134.3 126.5 128.8 127.3 123 118.5 114.9 114.8 114 116 116 115.9 118.8 120.8 120.9 122 124.6 127.1 129 130.4 130.8 131.3 134.3 134.8 135.7 136.8 136.6 136.1 135 133.1 132.6 131.6 129.4 128.2 126.2 124 121.9 118.1 117.1 117.5 119 120.5 121.1 120.9 118.9 115.8 112.3 108.9 106.1 103.7 102.1 100.9 98.9 93.3 92.6 94.1 96.5 100.7 100.9 101.6 102.6 103.5 106.7 104.4 104.2 103.7 103.5 103.2 97.4 92.4 87.2 84.7 84.5 83.9 84.7 86.2 89.1 93.5 103.9 109.3 114.8 119.6 120.8 120 126 132.6 140.9 148.9 163.8 172.6 179.8 183.7 184 179.8 179.2 179.3 178.8 175.2 168.9 163.6 159.6 156.1 152.9 148.6 141.1 136.4 134.4 135.8 138.4 145.4 149.5 152.2 154.6 158.7 152.2 156.6 174.6 178.8 180.1 178.9 177.4 176.9 177.1 178.9 181.1 180 181.2 181.8 178.8 178.8 178.8 178.8 179.9 178.8 178.8 178.8 182 190.9 192.2 192.5 190.4 187 184.4 181.6 191.2 201.1 204.5 208.7 211.1 211.4 213.5 210.3 208.5 207.6 206.3 211 217.2 215.4 211
159.8 161.2 162.6 170.7 175.1 177.3 179.2 182.7 182.9 189 189 189 181.5 177.9 177.2 176.9 178.2 179.5 180.9 184.3 182.7 183.3 184.9 183.2 182.3 179.1 174.3 169 166.4 163.4 157.6 155.5 152.8 150.1 148.9 148.3 145.2 142.3 140.7 138.5 135.7 134.1 127.9 124.8 123.7 122 116.5 112.9 116 116 116 113.2 116.2 119.1 120.5 121.3 123 125.1 127.8 128.4 131.6 130.2 131.6 132.4 137.3 137.1 137.7 137.8 137 135.9 134.7 134.2 133.2 129.5 127.5 125.5 121.7 119.8 118.6 117.9 118.2 119.6 120.7 121.3 120.9 118.2 115 111.6 108.6 105.7 103.8 102.4 98.9 95.6 92.2 94.4 94.9 98.8 100.7 101.9 102.7 104.4 105.2 106.7 105.6 105 104.4 103.8 101.5 97 93.5 89.4 86 85 84.7 85.6 86.6 90.3 93.3 104.9 111.9 117.4 122.4 124.4 120.7 126.3 134.6 139.2 149 163.8 172.6 179.3 185 185.7 183 180.7 180.7 180.4 176.7 171.3 166.8 162.6 159.5 156.6 152.1 142.9 139.6 136.6 135.3 139.2 147.3 149.4 152.5 157.2 162.9 161.2 166.4 165.2 174.2 180.3 181.3 179.5 178.9 179.4 182.1 182.7 181.9 183 182.8 182.2 178.8 178.8 178.8 178.8 178.8 178.8 178.8 183.8 190.9 192.8 196.1 195.2 192 185.7 183.2 184.7 195.9 203.1 205.3 207.8 210.3 215 214.4 211.9 208.9 205.6 205.6 214.2 216.6 211.9
158.8 160.3 164.2 170.1 174.8 177.7 180.5 183.7 182.5 187.7 189 185.8 179.6 177 176 176.5 178.2 179.1 178.2 182.5 179 179.3 180.5 180.7 180.5 177.8 172.5 169.8 165.8 161.3 158.4 156.4 155.5 153.9 150.8 147 144.1 140.7 138 136.8 133.9 128.8 125.8 125.3 123.5 120.5 117.8 116 116 116 116 116 116.5 117.8 120.6 122.3 123.1 123.9 126.9 128.4 127.4 127.5 130.1 132.7 135.2 137 138 138.4 137.5 136.8 136.3 136.3 136.3 130.1 126.4 124 120.4 118.9 118.6 118.5 118.5 120 121 121.6 120.8 118.4 114.6 111.5 108.7 105.8 104.1 102.5 96.6 93.6 94.5 96.2 98 100.1 101.7 102.7 103.7 104.8 105.9 106.4 106 105.5 105 104.5 101.9 96.6 94.4 89.5 86.7 86.3 85.1 86.9 87.8 92.9 93.8 107.1 113.5 118.1 124.1 126.9 123.1 127.2 133.9 138.8 146.3 162.9 172.8 179.7 186.3 186.7 183.9 181.3 181.1 181 177.9 173.6 169.7 165.7 162.5 158.7 153 144.9 141.8 139.5 137 141.1 146.4 153.9 155.2 157.1 162.2 166.1 165 171.9 168.7 174 183.6 181.9 180.9 181.1 183.1 184.3 189.3 186 183.8 183.5 184.2 178.8 178.8 178.8 178.8 178.8 178.8 182.2 190.4 191.2 195.1 196.6 194.9 190.3 184.8 183.9 189.7 196.7 202.1 204.7 205.3 214.1 216.1 214.4 210.6 205.7 204.7 211.4 213.8 213.7
157.2 159 164.3 169 173.8 176.5 179.2 180.1 180.7 182.1 182.2 179.6 178.1 177.3 176.4 176.1 175.1 175.3 175.2 176.2 176.4 177.2 178.1 177.8 176.6 175.1 173.4 169 164.1 162.6 159.1 157.3 155.2 152.5 148.8 143.7 137.9 130.5 129.4 128.3 127.7 126.6 124.1 125.3 124.3 120.2 112.8 116 116 116 116 119.4 121.4 121.1 122.3 122.9 123.4 124 126.4 128 128.8 128.8 127.9 132.2 134.9 136.5 137.4 137.9 137.7 137.8 137.6 136.9 135.6 131.6 126.5 123.3 119.5 118.5 118.2 118.5 118.5 120.3 121.5 121.7 120.7 117.8 114.6 111.4 109.2 105.6 104 98.6 94 95.2 96.4 97.9 99.2 101.3 102.5 103.5 104.4 105.2 106 106.5 107.7 106 105.2 105.1 102.9 97.3 94.6 89.8 87.6 87.1 85.6 87.1 88.9 96.9 94.6 108.2 114.5 119.9 125.6 128.5 126 127.9 132 136.8 144.2 162.1 172.9 180.9 186.4 186.8 184.9 181.5 181.5 181.5 179.5 175.6 171.6 167.8 163.3 158.9 153.4 146.5 141.4 139.2 140.5 141.5 145.3 155.9 159.7 160.7 163.9 166.7 167.1 171.8 177.6 170.5 173.1 182.5 182.1 182.5 183.7 184.6 188.8 189.6 185 184.6 187.9 178.9 178.8 178.8 178.8 178.8 178.8 181.8 185.5 187.9 189.8 192 193.9 193.1 186.4 184.2 186.7 190.3 194.2 197.8 201.8 205.8 211.2 214.2 211.1 206.9 203.6 205.1 211.6 213.6
156 157.8 162.6 167.8 171.5 174.2 176.2 176.1 178.8 180.7 181.6 179.8 178.1 177.2 176.2 175.6 175.1 173.7 175.2 175 174.7 174.9 175.4 176.2 176 175.7 170.8 166.9 165.6 161.9 157.8 153.6 145.8 141.5 136.1 138 137.6 135.7 131.3 130.1 127.8 122.7 122.5 122.7 119.1 114.9 116 116 116 116 114.6 122.5 122.4 122 122.3 123.2 123.7 124.1 124.9 126.6 125.4 128.8 129.1 132.7 134.4 135.9 136.8 137.4 137.4 137.4 137.3 136.7 134.3 131.7 128.2 123.6 118.9 118.2 117.7 118 118.5 120.5 121.7 121.4 119.8 116.6 113.7 111 107.9 105.1 98.9 96 95.3 98 98.2 100.5 102.2 102.6 103.2 104.1 105.1 105.6 106 107 107 107.5 105.2 104.2 103 99.3 97.1 97 88.4 88 85.8 88.4 90.2 98.1 97 108.4 116.1 122.5 127.1 131.2 127.5 127.8 132.9 137.4 144.3 159.3 170.7 179.6 186.5 187.1 185.2 181.7 181.5 181.6 180.6 176.8 173.6 169 163.7 158.9 154.2 148.2 142.8 144.5 143.5 144.4 148.3 157.1 160.6 162.8 165.3 170.3 170.5 175.9 181.8 182.4 179.2 181.3 182.2 183.8 184.2 184.8 185.4 188.4 188.6 184.8 190.2 184.7 178.8 178.8 178.8 178.8 178.8 178.8 183.4 187.2 188.1 188.8 187.6 189.7 188.9 185.3 185.8 187 189.5 194.3 198.3 200.5 205 209.5 207.9 205.2 203.1 202.8 203.8 212.3
154.7 157.3 161.8 166 171.1 172.1 171.4 170.5 174 180.7 182.8 180.4 180.8 177.9 176.5 175.8 175.1 175 174.4 174.2 173.3 173.5 172.7 172.6 172.5 171.5 169.6 168 161.4 157.2 148.2 145.6 152.6 148 145.4 142.9 137.7 133.3 131.3 129.6 126.3 120.6 119.2 119.5 113.6 113.2 116 116 116 116 114.1 122.3 122.2 122.2 122.2 123.7 124 123.9 125 123.4 124.4 129.1 129 131.7 133.7 134.8 135.6 136.3 136.2 136.2 135.8 135 132.5 129.2 126.3 122.9 118.7 117.7 117.1 117.4 118.8 120.2 121.1 120 118.6 115.3 113.2 110.2 103.8 99.5 96.1 96.2 99 99.4 99.7 101.6 102.6 103.2 103.6 104.4 105.3 105.6 106 106.5 105.7 108.5 105.3 104.2 103.1 101.2 96.3 94.3 89.6 88.6 87.6 88.8 91.3 98 100.6 105.4 118.6 124.5 129.1 133.9 131.5 129.6 134.6 139.9 145.8 158.4 169.4 178.1 185.2 186.7 184.7 181.6 180.8 181.3 180.8 177.1 173.2 169.4 164.1 158.9 154.9 149.2 145.9 144.9 145.4 148 151.3 154.9 161.8 165 168.5 174.8 174.1 178.9 185.3 190.2 188.2 180 177.9 184.1 185.3 185.2 185.3 185.3 184.8 184.7 190.8 186.4 182.3 178.8 178.8 178.8 178.8 181.3 185.2 186.8 187.3 188.1 187.3 185.4 185.7 185.6 187.3 188.1 194.4 192.9 193.4 197.7 201.8 207.1 206.1 204.6 203 202.3 200.9 206.8
153.3 156.7 160.6 164.9 168.6 163.7 164.5 170.2 170.2 180.4 183.1 181 179.8 178.3 176 175.4 174.4 174 174.3 174.2 173.7 172.7 171 171.2 171.3 171.2 170.9 165.7 152.6 155 156.6 155 151.6 149.4 144.7 140.7 132.5 130.9 129.4 128.1 124.6 117.7 116.2 113.7 113.9 116 116 116 116 116 114.5 123.3 123 122.4 121.9 122.2 125.6 124.1 123.6 122.8 123.3 124.9 126.6 129.1 131 132.7 134 134.5 134.8 134.9 134.3 132.6 129.7 127.2 124 121.3 117.9 116.9 116.3 116.4 116.9 118.2 118.9 118.7 118.2 114.6 112.2 107.3 100.1 97.1 98.5 100.3 100.2 100.7 101.2 102.3 103 103.7 104.2 104.8 105.2 105.2 105 105.4 105 105.2 104.8 104.1 103.2 101.8 97.7 95.8 92.8 88.9 88.1 89.7 92.2 98.9 100.7 104.4 119.3 126.6 131.1 136.7 134.7 133.4 139.6 143.7 148.7 157.2 166 176.4 184.1 186.2 184.5 180.9 179.3 179.8 179 175.5 172.1 168.1 163.8 159.4 156.2 150.6 146 144.9 145.5 148 153.2 157 161.4 165.1 171.9 175.6 175.9 181.4 189.7 195.6 193 190.3 179 183.1 189.7 185.8 185.4 184.7 183 178.8 183.9 185.5 183.3 180.7 178.8 178.8 178.8 181.6 184.4 185.4 186.5 187.4 185.4 185.4 185.4 185.4 187.7 188.1 195.9 194.8 193.8 194.1 196.3 202 202.3 201.4 201.2 199.9 200 202.1
152.9 153.8 156.3 158.6 161.1 159 158.9 166.2 171.3 182.7 182.9 181.9 182.1 189.5 175.6 175.4 175.9 175.1 175.3 175 174.4 173.4 170.8 169.4 171.6 169.2 160.7 155.1 153.7 159.6 155.8 149.1 145.2 139.1 134.2 133.1 131.9 131.6 129.5 126.6 123.3 117.1 116 116 116 116 116 116 116 116 116 122 122.4 122.1 120.8 121.8 123 126.2 123.2 122.6 122.6 123.7 124.2 124.5 127.6 129.9 131.6 132.5 133.2 133.4 132.9 131.5 128.3 124.8 121.1 117.4 115.6 115.3 114.9 115.3 115.8 116.5 117.8 118.1 115.3 113.9 110.9 100.2 99.1 99 101.3 101.5 101 101.9 102.2 102.9 103.8 104.2 104.7 105.8 104.7 104.4 104.1 104.7 104.2 105.7 104.3 103.6 103.2 101.9 101.9 99.4 94.3 89.7 89.1 90 92.8 98.2 102 106 118.4 126.6 132.7 136.8 137.2 136.3 140.8 145.5 151 155.8 167.7 177.6 183.3 184.5 183.4 178.9 176.9 177.2 176.4 173.3 170.3 166.6 163.1 160.5 157.2 152 148 146.5 147.1 148.3 152.8 156.3 159.6 166.2 171.3 177.9 178.2 182.4 192.2 196.5 204.5 202.7 192.8 183.8 188.7 188.9 185.7 184.5 182.5 178.8 178.8 181.5 181.1 181.9 178.8 178.8 178.6 181.3 182.5 185.1 185.6 185.4 185.4 185.4 185.4 185.4 186.5 189.1 194.6 200.1 194.7 194 193.7 193.4 195.8 195.3 198 198.2 197.5 197.1
151.3 150.4 151.4 152.8 154.4 153.1 152.4 165.4 181.9 183.6 184.4 185.6 191.2 191.5 177.9 176.6 176.6 176.9 175.8 175.3 174.7 173.3 170.6 166.3 165.4 164.8 156.7 160.2 162.4 154.6 145.6 137.5 135.8 134.1 136.1 135.5 133.8 133.2 131.4 125 118.5 116.1 114.5 113.4 113 116 116 116 116 116 116 116 116 115.9 120.3 121.8 122.8 122.2 120.9 118.9 118.1 121.6 123.5 122.2 123.2 124.5 128.1 129.7 130.9 132.2 130.7 129.2 126.5 121.4 117.8 114.8 113.4 113.5 113.4 114.1 115 115.3 116.9 116.3 114.4 109.4 100.7 99.6 98.5 102 103 103.6 102.1 102.5 103.1 103.9 104.9 105 104.8 105.3 104.4 104.1 103.9 103.9 103.9 104.2 103.6 101.4 101.4 100.4 101.9 99.7 97.8 89.7 89.5 91 93.6 96.6 102.7 113.3 115.2 124.9 131.9 138.5 140.5 140 142.9 148.1 152.4 157.2 165.5 174.3 181.6 182.7 180.5 176.1 172.8 173.7 174.2 171.3 168.4 165.3 163.3 161.3 158.2 152.3 147.6 148.4 149.6 151.2 154.7 156.8 159.2 168.4 173 175.9 180.2 185.3 191 201.6 209.1 211.5 203.9 195.2 183.4 187.8 186.8 184.6 183.6 182.3 178.8 178.8 178.8 178.8 181.7 178.8 178.8 182.7 183.7 185.2 187.2 185.4 185.4 185.4 185.4 185.4 186.7 189.9 192.8 200.9 200 195.1 193.6 192.3 191 190.5 192.5 192.9 195.5 194.6
149.3 148.9 149.2 150.4 151.3 151.7 159.4 173.3 176.7 181.7 187.9 190.6 196.5 194.1 181.9 177.7 178 177.5 177 175.4 174.7 173 170.4 166.5 162.2 158.8 157.8 163.9 156.4 146.6 139 136.5 142.3 141.1 138.2 136.2 135.1 134.9 133.9 124.5 118.3 117.2 117.3 116.3 115.6 116.1 116 116 116 116 116 116 116 114.3 117.3 120.9 121.7 119.5 118.6 117.9 116.8 116.6 114.8 116.8 120.2 121.3 123.6 126 127.1 127.4 126.1 125.8 124.3 122 116.7 113.9 112.4 112.3 111.8 111.6 111.6 110.8 110.4 107.6 102.8 101.6 100.2 99.6 102.8 103.2 105.9 105.3 103.4 103.3 103.9 105.5 105.9 105.8 105.3 104.6 104.1 103.9 103.7 103.7 103.7 104 102.3 99.8 98.5 98.3 95.4 94.6 91.3 90.1 91.1 91.7 94.4 98.2 105 114.9 120.2 127.8 133.3 139.8 142.9 143.5 149.3 152.4 155.2 158.2 164.1 174.1 180.8 180.4 176.8 172.6 169.2 169.8 171.8 170.7 167.8 163.3 160.7 159.5 156 149.6 148.8 151.4 153.1 154.7 158.1 159.5 161.1 169.1 174.7 179.7 182.8 184.1 193.2 201.6 212.2 215 214.3 205.3 193.9 189.6 189.5 185 183.9 182.8 178.8 178.8 178.8 181.8 182.1 181.9 182.9 183.4 184 184.7 187.9 185.5 185.4 185.4 185.4 185.4 185.4 189.2 190.6 194.2 203.5 197.9 193.7 192.9 191.5 189.8 188.3 188.4 189.5 188.1
148 148.4 149.1 149.3 150 152.7 166.1 177.3 183.6 188.6 194 199.1 201.4 198.6 185.7 180.8 180.8 180.3 178 177.6 174.7 173.5 172.1 169.3 167.3 167.2 163.8 156.1 149.1 144 138.5 144 143.6 140.6 137.7 136.5 135.2 134.9 133 128.5 121.7 121.6 124.2 121.9 115.3 113.9 116 116 116 116 116 116 116 117.3 118.1 118.4 119.1 118.9 119.2 119.2 119.1 117.5 114.6 113.4 113.2 120.3 119.2 122.1 122.5 124.5 122.6 121.1 120.9 117.1 114.4 112.4 110.9 111.4 108.9 107 105.7 103.7 102.4 101.9 101.6 100.1 103.2 104.7 103.4 104.8 107.3 106.7 104.8 104 104.7 106.7 106.8 106.5 105.3 104.4 103.8 103.7 103.5 103.5 103.4 104 104.1 98.9 97.2 97.6 94.7 93 91.3 90.5 91.6 92.9 95.4 99.1 108.6 117.4 123.1 129.6 136.3 139.1 145.8 146.9 148.9 155.6 161.8 163.1 164.3 173.5 179.2 177.4 172.2 167.7 166.1 165.7 169.1 169.7 166.4 160.5 156.4 156.7 157.2 151.3 150.4 151.3 155.8 157.9 160.2 160.9 163.7 169.7 175.2 182.1 187 184.9 198 204.3 214.6 217.7 217.5 215.7 205.2 194.3 190.9 190 184.5 183.8 182.9 178.8 178.8 178.8 181.6 182.5 183.6 184 184.4 185.2 186.8 185.8 185.4 185.4 185.4 185.4 185.4 187.2 191.3 194 199.7 200.2 193.8 193.3 192.8 191.5 191 189.3 188.5 183.8
145.8 148 150 150.6 150.9 152.6 169.6 183.9 192.7 201.4 203.7 204.9 206 202.5 193.1 187.5 186 183.5 180.2 178.7 178 174.6 173.7 170.4 164.7 160 154.1 144.9 142.2 139.7 140.5 146 142.4 140.3 138 136.9 135.4 133.6 132.5 127.2 125.6 125 127.6 124.1 124.7 119.2 114.1 114.1 114.1 115.2 117.2 119.6 113.4 117.2 118.3 118.7 119.2 119.5 122.2 122.7 122.2 120.1 116.3 115.1 113.5 112 112.8 113.1 113 114.4 111.4 110.9 110.3 109.7 109.2 108.1 108 107.9 107.1 105.8 104.2 102.2 102.8 101.4 102 104.2 106.2 105.6 104.7 108 108.5 108 106.3 104.8 107.2 107.6 107.4 107.1 105.8 104 103.6 103.4 103.2 103.2 102.8 100.9 99.7 98.6 102.7 98 95.9 93.6 92.2 91.2 91.9 93.4 96.3 102.3 108.7 118.2 124.5 130.5 137.5 142.4 147.2 148.5 152.5 154.9 162 163.8 165.1 171.8 177.7 174.1 170.5 163.6 162.5 161.9 164.2 167.5 164.9 158.1 154.9 153.5 155.1 151.7 152.2 153.8 154.2 158.6 162 161.8 165.3 168.7 176.9 181.8 190 190.9 195.3 204.5 211.3 220.1 220.8 222.1 210.3 200.7 190.8 190.9 187.4 184.2 183.9 182.9 178.9 178.8 182.2 183.8 184.7 185.4 185.2 186.9 187 187.1 185.4 185.4 185.4 185.4 185.4 187 188.6 191 197.7 197.2 193.8 193.3 192.9 192.5 192 191.8 191.8 192.7
144.5 147.3 151.5 152.3 151.4 160.6 175.9 186.7 200.6 217 215.8 215.5 214.4 209.7 202.2 193 191.2 187.9 183.2 181 178.6 175.3 174.5 168.8 162.9 158.4 151.6 143.5 141.8 142.4 144.4 144.9 142.4 139.5 137.9 137.8 134.3 131.1 125.5 119.7 120.6 118.7 121 123.9 119.6 116.6 116 118.1 117.1 117 117.3 118.1 119.6 118.8 119 119.4 120 124.8 124.5 123.8 122.9 121.6 119.9 116.8 115.3 114 112.3 112.3 111.3 110.8 110.3 109.7 109.3 109 108.8 108.9 108.4 106.5 105.9 104.8 105.1 106.2 106.5 107.5 106.6 107.1 106.8 106 105.9 109.3 109.8 109.1 107.6 105.2 108 108.4 108.3 108.8 106.2 104.6 103.3 102.8 102.6 102.2 101.2 100 99.5 101.3 100.5 101.1 98.4 95.7 93.4 91.9 93.2 94.9 97.1 103.6 106.7 114.1 124.7 131.7 138.8 144.9 147.9 148.8 154.1 156.6 158.9 161.4 164.8 170.7 176.2 173.2 171.5 168.6 161.5 160.3 160.2 164.9 163.1 156.3 153 152.8 153.1 152.9 153.7 155 157.2 160.8 164.6 162.4 168.5 169.8 178.8 182.8 187.2 195.4 195.4 203.9 213.3 217.2 223.2 221.3 218.1 208.4 202.7 193.5 191.7 185.4 184.4 184.7 184.4 180.8 183.7 184.8 185.9 185.9 186.2 188.4 187.5 185.6 185.4 185.4 185.6 185.5 185.4 187.3 188.4 189.7 195.2 196.7 194 193.4 193 193.2 193.1 192.8 193.3 193.1
150.8 154.7 158.5 153.6 152.4 166.8 178.6 200.8 219.9 243.3 232.6 238.9 230.7 222.6 211.5 200.4 196.5 193.2 187.5 184.5 179.8 176.2 171.8 165.4 159.1 152.9 146.5 143.4 144.4 145.7 146.2 144.8 142.5 138 136.8 135.8 133.1 127.9 121 113.9 115 114.7 115.3 116.6 119.5 116.8 117.4 123 118.9 119 119.1 117.6 120.5 121.7 121.3 125.7 126.2 126.3 125.6 125.1 125 124.7 123.7 122.4 120 115.8 114.3 112.4 112.2 113.1 112.5 111.9 111.1 110.3 110 109.8 109.3 108.1 106.6 104.2 108.9 109.1 108.3 108.6 108.1 107.9 107.6 107.1 106.6 110.3 110.8 110.1 107.9 105.8 109 109.2 109.3 110.5 106.5 104.7 103.4 102.7 102.6 102.6 103.6 102.4 101.5 100.7 100.1 99.7 99.6 97.1 93.8 92.4 93.6 95.2 97.1 101.8 106.8 113 119.8 131.1 138 145 148.5 149.7 156.6 159.7 162.4 161.6 163 169 175.6 173.9 172.4 170.9 166.3 159.7 158.7 159.2 159.6 155.3 152.6 153.2 153.7 153.6 154.4 156.3 159.3 162.7 168.9 165.7 167.3 176.4 179.7 184.6 187 193.5 198.8 202.2 213.9 219.9 220.2 221 217.8 210.2 207.7 203.5 193.7 188.4 186.7 186.4 185.4 183 184.4 185.1 188.1 188 187.6 187.5 187.4 186.6 185.4 185.4 186.2 187.3 185.4 185.4 186.8 189.1 189.9 192.4 193.2 193.5 193.2 193.7 193.4 193.1 193.1 193.8
154.7 150.3 151.1 151.5 156.9 170.9 192.8 214.8 242.2 266.7 268.1 259.7 258.1 252.3 226.6 209.9 203.2 198 191.8 187.6 181.8 175.6 170.6 162.5 154.9 148.9 146.7 152.1 151.6 147.8 146 143.5 139.9 135.4 134.1 132.6 128.9 122.9 116 116 116 116 116 116 116 116.2 114.4 121.4 119.9 121.9 119.8 119 122.2 123.2 126.4 127.2 127.7 129.6 131.1 129.5 128.2 127.7 127 126.6 124.7 122.5 120.3 118.2 119.2 117.4 114.3 113.2 112.4 111.6 110.7 110.3 109.5 107.7 105.8 109.4 110 109.8 109.5 109.5 108.5 109.1 108.4 107.6 107.8 110.3 111.5 110.7 108.7 106.4 109.5 110 110.1 110.7 108.5 105.4 103.5 103.1 103 103.5 103.3 102.9 102.8 102.9 101.4 99.1 98.5 96.9 95.4 93.4 94.3 95.8 97.4 102.5 107.3 117 120.8 131.1 138.3 144 147.8 149.9 150.5 158.7 163.9 165 164.1 167.1 174.4 176 173.3 174.2 172.1 164.7 158.1 156.9 155.9 155.2 154.7 154.1 154.7 155.1 155.6 157.4 159.7 164 167.4 168.8 167.9 177.8 179.1 185.1 187.9 191.3 202.7 204.9 211.6 214.3 220.1 218.6 215.9 213.1 210.4 207 205.6 191 186.7 185.1 184.7 183.5 184.3 185.3 192.2 190 188.6 188.1 187.7 187.1 186.3 185.4 187.2 187.5 186.7 185.4 186.6 189.8 188.8 190.5 192.2 193.4 193.6 194.4 194.2 193.2 192.7 192.8
143.1 131.3 136.1 157.1 164.9 180.3 207.6 238.4 263.6 286.9 287.5 277.5 278.5 277.9 251.4 223.9 209.1 202.6 195 189.4 181.9 179.5 169.8 161.7 151.6 149.6 153.8 154.1 150.8 146.3 143.1 139.7 136.2 134.6 133.4 131.1 126.3 119.2 116 116 116 116 116 116 116 116 113.6 119.5 119.9 120.8 120.2 122.2 126.6 127.5 128 128.9 130 132.6 135.3 134.2 133 132 131.6 130.4 128.2 125.5 123 121.7 121 119.6 118.6 116 113.7 112.7 111.6 110.5 109.6 107.4 108.1 110.1 110.6 110.2 110.6 110.6 109.4 109.7 108.9 108.3 108.7 111.5 112.5 111.6 109.9 106.7 109.6 111 111.4 111.2 109.1 106.1 104.2 104 103.7 103.9 104 105 103.9 103.6 101.9 100.1 99.1 98.3 96.8 94.3 94.9 96.7 98.5 102.3 109.1 116.1 122.3 129.4 137.4 144.2 147.6 150 152.1 158.4 162.6 167.2 166 165.9 173 177.3 172.6 172.5 172.4 169.2 162.2 156.1 155.2 154.3 154.4 155.2 156.1 156.9 158.2 158.9 162.6 167 169.8 170.5 172.6 177.8 181.3 183.1 188.1 192 202.7 207.3 212.1 213.4 218.7 220.8 216 214.4 213.4 209.8 206.3 201.1 188.9 185.3 184.5 183.1 185.1 185.5 193.7 192.1 189.5 188.9 188.1 187.9 187 186.6 187.2 187.5 185.4 185.4 185.4 185.4 187.8 190.4 191.8 193.2 193.6 194.1 194.4 192.7 191.8 191.2
124.4 125.5 145.7 164.4 164.4 191.9 219.8 256.5 286 303.8 303.2 292.3 293 291.8 276.8 237.4 214.6 209 197.8 189.4 179.8 172.4 165.4 159.3 152.1 152.9 155.2 151.9 148.4 144.1 139.4 136.2 133.9 133.5 131.4 126.6 120.9 116 116 116 116 116 116 116 116 116 116 118.4 119.4 122.1 127.1 128.3 129.4 130.6 131.1 131.5 133 136.4 139.8 138.9 140 137.4 138.6 135.6 131.5 128.5 125.5 123.6 122.8 121.5 119.7 117.4 115 113.7 112.1 110.1 109 107.2 107.8 109.8 111.1 110.9 111.4 110.5 110.5 111 109.3 109 109.5 113.3 113.9 113 111.7 108.4 110.7 113.1 114.2 113.8 111.9 107.6 105.9 105.1 104.8 104.9 105.1 105.8 105.9 104.4 102.8 101.3 99.7 98.9 98.1 95.3 95.1 97.1 99.2 102.5 108.6 114.6 122.1 126.2 137.9 143.3 147.3 149.7 150.9 156.9 159.8 161.2 163.5 165.5 170.4 175.7 171.7 171.1 171.4 171.4 165.1 159.3 156 154.9 154.4 154.6 157.2 159.7 162 162.7 163.8 170 175.8 174.9 176.9 177.3 182.3 185.3 186.5 191.1 199.9 207.5 213.6 213.9 215 222.3 219.4 214.6 214.8 211.5 206.7 202.7 197.2 185.2 184.4 184 185.1 185.8 188.5 191.2 191 189.3 188.5 187.8 187 188.1 187.3 186.3 185.4 185.4 185.4 185.4 190 191.2 192.2 193.9 193.5 193.9 197.5 194.5 191.2 188.5
115.8 137.4 158.3 165.5 165.8 194.5 231.5 262.9 293.5 311.1 312.1 304.5 302.8 298.5 286.3 250.5 219.8 213.1 201.4 190 177.6 169.1 160.7 155.4 156.7 157.6 154.6 150.1 145.4 140.2 136.7 131.8 129.4 128.7 126.7 121.3 115.8 116 116 116 116 116 116 116 116 116 116 116.4 122.1 132.3 134.3 140.5 138.6 136.2 134.7 135.6 137.5 140.2 143.1 143.8 145 142.9 143.9 141.1 136 133 128.8 126.4 124.7 122.9 120.6 118.2 115.1 114.2 113 109.8 108.1 109.7 110.7 109.5 110.7 111.5 111.6 110.8 111.1 111.7 110.7 110.1 110.8 115.2 115 114.1 111.9 108.7 112.5 114 115.7 115.5 113.5 111.5 108.3 106.5 106.3 106.8 107.1 109.1 110.1 105.3 103.7 102.3 100.9 100.6 99.3 96.7 95.8 97.6 99.4 101.3 102.2 112.7 121.4 125.2 135.3 142.2 146.1 148.3 150.1 153.1 159.8 160.4 162.3 164 166.6 174 171.6 169.8 169.4 170.8 167.4 162.3 157.8 155.7 155.8 155.2 155.3 159.7 164.3 167 169.5 171.6 178.2 179.6 178.9 184.3 185.6 187.6 188.7 189.4 196 206.3 210.2 212.7 215 217.6 218.7 214.2 213.5 211.4 207.5 202.2 197.1 187.8 184.4 184.5 185 185.7 187.1 190.4 193 189.8 189.1 188.7 188.1 187.4 186 185.4 184.2 185.4 186.5 186.5 191.8 193.4 193.2 193.2 192.5 192.3 194.8 193 190.4 186
124.8 143 152.5 167.4 172.3 196.6 225.4 263.8 297.3 313.6 316.7 311 304.1 297.6 290.2 260.9 229.5 211.4 204.1 187.7 175.3 168.2 161.1 157.8 161.3 156.6 153.5 148.4 141.6 136.9 133.9 128.7 126.6 125.1 123.4 115.6 116 116 116 116 116 116 116 116 116 116 114.6 120.3 131.6 140.1 144.8 148.2 150.1 150.6 148.4 146.4 147.8 145.3 146.7 146.5 149 148.2 146.4 143.9 141 137.3 133 129.8 127.6 124.9 122.2 119.5 116.4 114.9 113 109.8 109 110.2 111.7 111.3 110.7 111.5 111.2 111.5 112.4 112.8 112.1 111.6 112.4 116.8 116.3 114.8 110.5 111.5 114.4 115.4 116.7 116.6 115.1 113.1 111.9 109.5 111 109.6 111.9 110.7 110.3 106 105.1 104.2 104.5 103.5 101.2 100.8 97.2 98.3 100.3 102.4 107.4 107.6 121.2 126.7 131.2 139.8 145.2 146.3 147.4 149.3 157.3 159.4 160.7 162.8 165.2 170.6 171.3 168.5 167.9 167.3 165.9 162.8 160.5 158.4 157.1 155.8 157.4 158.1 163.3 170.1 174.3 175.6 181.7 183 183.1 186.4 188.9 189.5 190.3 192.2 195.9 205.7 209.7 210.2 213.1 214.1 215.1 213.3 211.9 210.2 204.1 201.1 195.8 189.3 185.3 184.4 185.4 185.7 186.3 191 194.4 190.5 189.4 189.1 188.7 187.9 186.8 185 185.4 185.4 187.9 190.4 196.3 195.1 195 193.4 192.3 190.1 191.5 190.7 188.8 184.9
129.9 142 154.7 166.7 173 197 226.3 258.2 296.5 306.7 316.3 309.6 297.7 294.4 286.8 270.3 236.6 209.9 201.8 179.9 172.7 166.8 158.9 161.2 160 155.8 150.8 143.6 138.3 134.4 130.8 126.3 122.4 120.8 115.6 116 116 116 116 116 116 116 116 116 116 116 122.4 129.6 136.1 144.7 149.2 152.2 155.2 157.1 158.8 159.4 160.7 157 154.7 152.4 151.6 152.2 149.7 147.1 143.8 139 135.4 133.1 130.4 126.9 124.1 121.2 117.3 116.1 114 111 110.3 112 112 112 111.3 112.1 112.8 112.7 112.6 113.2 113.2 113.1 113.6 118.2 116.7 115.4 112.1 114.4 116.7 118.6 119 118.4 117 115.6 114.2 113.1 112.8 111.7 112.2 111.5 110 107.3 107.1 107.5 107.2 107.6 105.2 102.1 98.5 99.3 101.4 104.4 111 107 119.8 126.5 131.8 138.3 143.6 143.3 144.9 146.9 156.2 157.2 158.9 160.8 164.1 166.5 171.7 168.6 167.7 167.2 164.7 163.1 162.1 161.2 161.4 160.7 157.1 160.3 164 168.9 177 178.2 183.1 185.7 186.7 188.5 190.8 191.8 192.2 194.3 200.2 204.8 210.6 210.3 210.4 211.2 211.7 214.9 210.3 207.5 204 201.1 193.3 190.1 186.5 184.6 185.1 185.3 185.9 187.6 190.5 190.4 190 189.5 189.2 188.6 187.3 186.5 185.6 184.6 187.7 192.3 195.3 195.5 196.4 193.9 191.4 188.1 186 187.8 186 183.6
127.8 137.1 156 163.8 174.7 200.1 226.2 256.9 286.1 299.4 310.3 297.7 292.8 290.2 285.9 271.7 234.5 208.6 195.6 177.8 170.5 162.3 163 162.8 156.7 150.9 145.8 141.3 135.8 131.7 129 126.1 122 113.4 116 116 116 116 116 116 116 116 116 116 115.9 122 127.2 135.3 141.8 149.1 154.2 156.2 158.7 161.6 163.2 164.6 165.2 165.2 164.2 162.6 159.7 156.7 154.1 149.9 145.1 140.1 136.9 133.8 131.1 128.3 125.8 122.8 118.4 117.1 115.7 113.7 111.7 112.6 112.5 112.5 112.4 113.1 114.5 114.6 113.8 114.2 114 113.9 114.4 118.7 119.3 118.3 114.6 117.8 119.9 120.8 122.3 121.4 119.9 119.3 117.5 116.9 114.8 113.7 113.7 112.6 112 109.6 110 111 113.2 109.9 107.3 105.5 100.5 99.5 102.2 105.9 110.5 112.9 112.5 123.7 128.7 139.1 140.9 141.7 142.6 146.1 150.8 155.4 155.5 159.1 162.1 166.5 168 169.6 168.7 168 164.9 163.2 163.3 164.3 165.2 164.4 162.5 164.1 165.3 170.2 176.6 179.3 183.6 187 188.4 190.5 193.1 192.7 196 198.6 206 208.4 213.4 213.8 210.8 211 210.8 208.8 210.6 205.9 201.9 197.5 192 189.2 185.6 185.2 184.9 185.4 185.9 186.6 189.6 189.7 189.8 192.4 195.5 189.6 188 187.5 187.1 187.4 191.3 193.7 194 194.6 196.4 194.5 190.8 186.3 183.1 180.6 182.9 180.4
123.7 134 152 159.2 175.1 200 229.5 255.2 267.9 282.5 295.3 293.3 288.4 285.6 281.5 270.1 240.1 205.5 188.3 172.1 166.3 163.5 163.6 161.6 154.2 150.5 142 136.8 133.2 128.8 127.8 126.1 118.6 116 116 116 116 116 116 116 116 116 123.1 123.5 123.5 127.4 135.4 143.1 147.8 153.3 157.2 159.4 162.1 164.9 167.6 169.1 170 170.7 169.5 167.7 166.7 164.6 161.9 158.9 154.2 147.2 140.2 136.9 132.1 128.7 125.5 122.7 119.4 118.4 117.5 115.9 115.1 113.9 113.2 113 112.9 114.5 114.1 115.6 115.2 115.2 114.8 115.2 115.4 118.9 119.9 119.2 115.4 120.9 123.4 125.1 125.4 124.6 124.3 123.1 120.9 120.4 122.4 118.8 116.5 115.2 112.6 112 113.1 114 112.9 112.6 111.8 108.4 105.3 98.8 103.5 106.7 110.8 119.7 117.3 119.9 121 129.3 140.4 138.2 139.9 143.6 145.1 148.8 148.8 154.2 158.7 163.3 166.9 169.4 173.3 168.7 165.3 164.1 163.9 164.9 167.6 166.2 166.2 165.9 165.8 172.9 174.3 177.6 182.3 185.2 186.8 192.1 194.6 194.9 196.8 201.5 208.2 216.1 220.1 219.8 212.6 210.9 210.1 208.2 207.3 204.9 201.8 195.5 190.2 187.7 186.9 185.6 185 185.5 186.3 186.6 187.6 188.9 190.2 192.5 194.9 191.7 189.1 188.6 188.4 188.7 190.5 194.7 194.1 194 194.4 194.3 188.3 185.2 182.8 179.3 178.9 177.9
127.3 136.2 152.8 159.7 178.6 204.9 230.7 250.1 261.7 269.8 276.8 283.8 280.7 278.9 275.5 264.5 225.9 202.4 187.6 169.5 165.8 164 159.7 156.1 151 145.7 138.3 133.1 129.9 126.1 125.4 118.5 116 116 116 116 116 116 116 116 116 120 123.4 125.3 128.7 131.6 141.7 149.1 153.7 156.3 160.9 163.2 165.9 168.9 171.5 172.7 174.3 174.2 173.2 173.1 173.2 172.5 166.9 162.4 158.1 153.9 148.9 144.9 138.1 133.1 127.8 123.9 120.7 119.3 118.8 117.5 115.1 115.6 114 113.7 113.6 116.4 114.4 116.7 116.7 116.5 116.3 115.8 116.3 120.2 121.6 121.2 119 124.4 128 127.5 129.2 127.7 127.8 126.5 125.8 125.5 125.2 121.9 119.9 118.3 115.5 113.7 114.8 115.8 114.5 117.4 113.8 110.8 108.2 102 104.4 106.8 112.6 119.1 121.1 121.2 127.9 127.6 127.8 136.5 136.6 138.3 139.1 144 148.8 153.2 157.1 159.3 166.3 169.8 172.4 175.2 167.3 163.6 163.1 163.9 167 171.1 167.3 166.8 167.2 171.9 176.5 178.7 181.6 182.2 184.4 191.4 194.5 195.7 195.7 201.3 215.9 225.8 223.6 222.5 218.1 213.3 211.5 208.8 206.3 203 200 195.5 189 187.8 187.3 186.6 185.8 185.4 186.7 186.3 186.6 188.3 189.9 193.3 198.3 201.5 193.5 189.6 189.7 189.6 190 196.5 194 192.8 191.4 188.9 185.8 184.4 180.8 178.6 177.7 177.6
130.7 141.8 149.4 160.6 180.5 203.7 232 246 255.6 264.2 268.3 272.7 272.7 272.9 269.3 259.4 216.5 198.6 180.7 167.5 166.2 160.7 158.1 152.3 146.7 140.6 134.7 130.2 127.5 125.5 118.3 116 116 116 116 116 116 116 116 116 116 124.9 125.6 129.9 133.5 139.9 146 153.6 158.3 162.1 164.5 166.6 170.3 174.8 175.7 176.2 177.6 177.3 176.4 175.5 175.7 173.8 169.8 165.6 161.7 157.8 153.7 148.6 144.2 138.6 131.8 126.8 122.7 121.4 120.5 118.2 116.1 116 114.6 114.3 114.2 116.1 117.1 116.8 117.9 117.6 117.3 116.8 117.2 122.1 124.2 121.4 123.2 132.2 134 136.4 134.3 133.1 130.8 130.5 129.6 129.5 126.1 123.7 121.8 119.5 116.7 116.2 117.4 118.4 118.4 119.4 117.4 115.7 114.6 105.3 104.1 107.6 112 121.2 122.2 122.8 126.2 133.6 134.1 140.3 138.7 138.4 138.8 140.1 144.5 152.1 155.4 158.6 163.2 169.4 172.1 169.4 169.3 162.9 162.4 162.3 162.9 171.4 170.9 168.5 167.9 169.6 174.8 179.2 181.1 181.9 183 186.1 192.3 194.3 195.4 197.7 219.8 228.2 227.3 225.4 221.2 215.1 211.9 209.3 206.1 201.6 197.4 195.2 189.3 187.8 187.4 187.1 186.7 186.5 187.2 186.3 185.9 188.3 189.5 198.2 207.8 207.5 201.2 190.8 189.9 190.3 189.3 189.9 192.7 192 189.9 186.7 185 183 179.6 179.1 178.5 178.7
132.7 140.7 145.8 160 180.8 202.1 224.3 241 249.5 256.4 263.3 267.9 266 264.9 261.5 249.6 208.5 188 174.9 165 160.9 159.8 156.8 148.7 141.7 136.7 131.2 127.5 126.1 120.5 116 116 116 116 116 116 116 116 116 116 116.1 126.6 128.8 132.6 138.5 143.6 149.5 155.8 160.6 165.4 167.5 169.8 174.2 178.3 180.7 180 180.6 180 179.5 179 177.7 174.6 171.5 167.9 163.8 159.9 156.1 152.3 147 140.7 134.9 128.8 125.5 123.9 122.5 121 118 116.3 115.5 115.4 115.9 115.6 118.3 118.6 119 118.8 118.4 118.4 119.1 125.3 127.1 123.9 127.8 134.2 136.9 139.6 138.7 137.9 135.2 134.7 133 132 129 126.5 124.6 121.6 119.3 118.5 118.7 119.2 120.3 120.9 122.1 119.1 119 110.8 103.7 108.6 114.2 120.2 121.3 121.6 125.3 131.1 137 139.9 138.7 138.4 138.7 140.5 148.6 152.2 154 156.9 160.6 168.1 171.1 168 162.1 160.9 161 161.6 161.6 163.8 169 167.8 167.2 168.5 172.6 179.1 179.6 180.8 183.5 183.7 185.6 188.9 199 203.6 212.1 228.8 231 227.5 224 220.2 212.5 207.7 203.7 200.5 196.4 193.8 189.4 188.4 187.7 187.3 186.3 187.2 187.8 188.1 187.9 188.9 189.3 198.4 211 211.7 207.4 198.4 189.2 188.3 187.3 188.9 188.7 189.6 187.1 185 183.6 181.5 181.6 181.6 181.4 181.9
134.8 140.3 147.7 161.6 181.6 199.9 217.5 234.6 245.2 250.6 255.9 259.7 259.6 255.9 251.8 233.3 198.6 180.2 168 159.5 156.1 154.9 150.8 143.7 137.3 132.7 128.3 124.3 123.2 117.5 116 116 116 116 116 116 116 116 116 116 120.7 128.1 133.2 136.2 141.4 146.8 153.5 159.3 162.6 167.6 170.6 172.8 176.4 178.7 180.7 182.9 181.5 179.9 180.3 180.4 179.1 176.2 173 169.6 166.4 162.7 158.1 153.5 148.6 142.1 134.4 130.7 127.3 125.2 123.7 122 118.6 118.6 117.1 116.2 116.8 118.3 118.9 119.9 119.3 119.5 120 119.3 120.1 126.6 129.7 130.1 129.1 135.9 142.4 143.8 143 141.4 139.3 139 138.2 136.1 132.3 128.8 125.8 122.9 122.5 121.5 120.7 121 122 123.9 123.5 122 115.7 109.7 105.1 106.7 110 114.8 120.1 118.8 121.5 122.9 128.6 133.6 135.3 138.1 138.9 139.2 145.3 151.5 153.7 155.1 157.3 165.3 170.5 168.8 161 161.3 160.9 160.5 161 162.3 163.3 166.5 166.5 167.1 169.9 173.2 175.9 181.4 184.3 184.5 186.7 189.1 199.5 201.7 210.7 225 230 229.8 223.4 219.1 215.5 208.4 205 200.6 196.4 192.1 189.8 189 187.3 187.2 186.6 187.9 188.6 189.6 189.4 190.3 191 199 208.8 213.7 210.5 204.7 191.9 188.4 188.4 188.9 188.9 187.5 186 184.5 184.3 184.9 183.4 182.9 183.7 185.7
137.3 143.7 150.9 166.3 179.2 192.3 209.5 228.8 240.8 246.9 251 253.4 252.9 246.7 240.1 212.4 187.1 173.9 161.6 153.8 150.8 148.7 144.7 139 133.7 129.2 124.6 119 116.7 116 116 116 116 116 116 116 115.8 115.6 115.7 115.3 123.8 130.8 135.9 139 143.8 149 154.9 160.6 164.9 168.8 171.3 172.9 174.3 175.8 178.4 178.6 177.1 177.3 178.3 178.2 179 176.5 174.5 171.2 167.4 164 160.3 155.9 148.3 140.9 136.1 133.5 127.6 125.9 124.6 122.9 120.8 120.7 119.4 119 119.2 120.8 119.7 121.2 120.7 120.6 120.7 120.7 122.2 130.3 133.2 135 131.8 135 142.3 144.6 144.3 143.3 142 140.3 139.8 141.5 136.1 132.6 126.5 124.9 124.1 124.4 123.9 124.9 124.8 125.5 124.6 121 112.2 109 105.9 108.6 110.7 115.8 115.7 118.3 122.3 130.2 136.7 137.3 141.4 140.1 140.3 143.5 146.6 144.5 151.9 154.5 157 160.2 167.6 168.7 161.1 161 160.2 161.3 160.9 160.9 161.6 161.6 165.9 167.1 167.6 169.6 173 175.7 180 183.3 184.9 190.9 195.6 198.5 207.1 218.7 226.4 231.3 224.3 216.4 211.9 210.1 205.5 200.9 196 192.1 189.6 189.2 188.3 187 187.5 187.8 189.4 190.9 191.4 192.2 192.5 197.9 207.2 212.9 214.2 207.8 200.2 189.3 189.1 188.6 188.9 187.5 186.8 186.5 185.2 185.2 184.6 184.1 186 189.6
140.7 146.6 154.3 166.3 176.7 192.4 205.4 220.8 233.3 240 245.4 247.9 247.7 235.9 221 196.5 181.4 164.5 154.4 147.6 145.1 144.1 138.7 134 130 125.7 119 116 116 116 116 116 116 116 116 116 117.2 117.8 117.7 117.8 123.9 131.6 137 139.9 144.9 150.5 155.4 160.6 165.1 167.7 169.9 171.3 171.7 171.3 171.5 169.5 168.7 169.6 171.6 173.9 174.9 174 172.1 170.2 169.3 166.1 162.4 156.4 148.2 144.7 136.7 133.4 129 126.9 125.2 123.8 122 122.8 122.1 120.4 121.7 122.4 121.9 121.7 121.8 121.6 121.5 121.9 127.1 131.8 136 137.9 135.3 138.2 144.6 145.4 144.6 143.4 142.3 141.8 139.7 138 135.5 130.7 128.2 126.4 125.8 125.7 126.3 126.9 127.9 129.2 130.3 125.4 114.4 110.6 105.6 109.3 116.4 118.4 121.9 122.3 125.6 129.5 134.2 137.7 138.3 143.8 141.6 149.9 153.2 152.9 154.2 149.7 153.5 157.6 165.1 167.5 161.1 159.5 159.6 161.1 161.6 161.8 161.8 161.6 163.7 164.8 166.7 169.5 169.8 172.6 174.2 179.8 184.6 188.2 195.2 194 199.4 210.6 224.5 229.1 227.1 218 212.7 210.2 206.1 201.7 197.9 193.3 189.7 188.9 187.8 187 187.7 190 191.5 193.3 193.3 193.6 194.1 196.9 205.7 211.8 216.9 211.8 204 196 193.4 189.8 188.9 188.5 189 188.6 185.8 185.4 184.9 184.9 187.9 191.6
144.6 149.4 155.4 164 177.4 191.7 201.2 214.3 225.3 232.6 237.1 240.7 238.4 224.7 203.9 186.5 173.8 155.8 146.8 144.1 141.7 138.5 133.2 129 126.6 125.6 115.2 116 116 116 116 116 116 116 116 116.3 117.7 118.7 121.1 119.7 124.9 131.8 137.2 140.5 145.9 151.2 156.3 160.3 163.8 166.3 167.9 168.8 168.6 167.5 166.4 164.3 163 163.2 165.8 169.4 171.5 172.3 171.4 169.6 166.6 165 161.4 155.3 150.6 143.9 144.5 137.1 131 128 126.4 124.6 123.8 124.2 124.7 123.2 123 123.4 122.9 122.2 123.3 122.8 122.8 122.7 131.1 134.9 138.6 140 139.9 136.6 147.7 146.4 145 144.1 142.5 141.1 139.8 137.8 134.5 131.2 129.6 128.1 127.5 126.9 126.7 127.4 128.7 127.1 126 121.1 114.4 112.1 108.5 109.5 113.5 118.8 124 124.7 127.1 131.9 136.4 140.1 140.5 140.4 147.6 151.8 153.8 154.4 155.1 156.4 156.2 152.5 158.6 164.5 160.8 159.2 160.3 161.8 162 163.1 164.2 163.9 163.9 164.6 166.5 169 170.2 170.4 170.3 176.1 177.6 181.5 189.1 194.7 195.9 205.7 217.2 223.4 226.1 221.9 215.2 211.8 206.8 202.9 198 195.3 190.8 189.3 188.2 186.9 187.8 191.5 193.6 196.7 194.7 195.6 196.5 197.3 205.2 213.1 216.7 213.1 206.3 198.1 194.4 191.1 189.8 190.6 189.8 189.6 188.8 185.5 185.4 185.5 188.8 193.5
144.4 150 156.6 168.7 177.9 190.1 200.5 209.8 217 223.2 227.2 225.9 224.6 204.2 192.5 177.8 161.2 149.5 139.5 138.8 139.1 133.5 128.2 125.7 125.4 123.9 116 116 116 116 116 116 116 116 116 116.9 118.3 119.5 121.8 122.5 127.9 132 136.9 141.2 146.2 151 155.5 159.6 162.5 164.8 165.7 165.9 165.4 164.5 163.6 162.2 161.4 161.4 162.8 165.7 167.9 168.4 168.8 168.4 167.1 164 161.2 157.3 154 151.5 145.1 136.7 131.5 129.3 127.7 125.9 125.2 125.2 126.1 125.2 124.3 123.9 123.7 123.7 123.9 124 123.8 125.9 132.9 137.6 141.5 142.9 143.3 140.8 147.5 148.7 146.6 144.4 142.5 141.4 140.1 137.1 134.5 132.2 131.3 131 130.1 128.5 127.8 127.9 128.3 122.5 120.4 117.2 113.9 111.4 109.5 109.6 112.6 118.4 124.5 127 129.2 133.6 136.7 140.3 142.6 141.9 142.7 148.4 152.9 154 158.1 158.1 157 155.6 155.2 161.3 160.1 160.2 161.3 161 162.6 164.3 165.1 165.6 164.7 163.6 165.8 168.1 169.7 170.1 170.5 171.2 175.4 183 188.6 191 198.7 199.1 206.4 217.9 223.2 225.4 216.8 212.9 207.2 202.6 198.2 194.1 191.4 190 188.6 187.4 188.1 192.3 195.1 199.4 197.3 198.1 199.6 199.7 202.2 212.3 214.7 212.6 206.4 200.2 195.2 191.7 190.3 191.2 191 190.4 191.5 186 185.8 186.1 189.9 190.8
147.1 152.4 160.6 170.6 176.7 187.1 198.5 205.3 210.9 216.2 216.6 213.8 209.6 201.4 184.3 169.6 157.3 144.7 134.4 131.5 133.1 130.7 128.5 126.2 121.7 116.4 116 116 116 116 116 116 116 116 116 113.8 118.8 120.3 122.6 125.4 129.6 133.3 137.5 141.7 146 150.3 154.4 158.2 160.8 162.6 163 162.8 162.4 161.5 160.7 160 159.3 159.3 160.6 162.8 164.3 164.8 165.3 165.3 165 163.6 160.5 158.6 156.5 150 143.5 136.4 132.4 130.6 128.4 126.8 126.4 125.9 127.3 126.6 124.7 125.5 124.8 125.2 124.4 125 127.7 129.5 135.9 141 144.5 144.9 145.4 144.8 145.6 152.1 148.2 147.3 143.8 141.9 140.2 137.8 135.3 133.4 132.1 131.7 131.1 131.4 129.6 129.6 126.8 123 121.6 116.6 113.9 112.1 110.6 111.2 115 119.9 125.4 128 130.2 134 137.7 140.2 143.4 143.9 143.1 145.1 146.8 152.6 155.1 157 157.1 156.7 156.9 157.4 158.8 160.6 161.8 162.7 164 165.4 166.3 166.8 167.1 164.3 165.7 169.5 171.2 170.4 169.3 169.3 172.5 177.2 184.1 190.7 193.1 196.6 195.6 204.9 214.3 223.5 218.7 211.2 204.1 200.3 197.5 193.8 193.7 193.4 192.9 187.8 188.5 191.5 196.7 199.6 201 202.4 202.5 202.1 204.9 208.7 213.7 209.4 204.5 200.6 196.6 192.1 190.9 193.7 191.4 191 192.9 187.6 186.2 187 190.4 188.4
150.3 156.6 161.7 169.8 175.5 185.4 195 202 206.5 208.7 211.9 208 201.7 194 176.5 162.8 152 140 128.9 127 127.7 128 129.4 129.1 119.8 114.5 116 116 116 116 116 116 116 116 116 113.8 118.8 121 123.2 126.6 131.1 133.9 138.4 142.1 145.9 149.6 153 156.7 158.8 160.2 160.3 159.8 159.4 158.6 157.9 157.2 156.8 157.4 158 159.5 160.6 161.1 161.8 162.1 161.8 161.3 159.9 158.1 155.1 151.4 145.5 138.9 132.9 131.6 129.2 128.5 128.1 125.7 127.8 127.7 127.1 126.7 125 126 126.2 126.9 132.8 133.4 138.3 145.1 147.1 147.4 148.2 148.2 146.9 152 152.9 153.4 149.3 144.1 142.5 139.3 136.5 134.4 133.1 132.6 132.3 131.9 131.9 130.6 125.8 125.5 119.1 116 113.8 112.2 111.4 112.4 119.4 122 127.3 129.2 131.1 134.7 137.5 140.3 143.2 144.5 145.3 146.1 146.7 153 154.9 156.7 157.8 158.4 159.2 159.6 161.1 161.3 162.9 164.1 165.6 166.7 167.5 167.9 168.2 168.6 164.8 172 171.8 170.8 168.1 168.1 169.5 170.2 176.5 188.1 191.5 194.7 197.1 195 201.8 207.9 209.1 207.3 201.1 196.5 192.4 193 193.8 194.1 195.9 194.6 188.2 190.3 194.8 200.1 204.7 205 206.4 204.5 207 209.2 210.1 208.3 202.2 199 195.2 193.1 191.8 193.2 192.2 191.5 191.9 189.7 188.7 187.9 187.4 187.5
150.6 156.9 163.8 170.8 175.6 182.6 191.8 198.3 201.6 202.6 204.2 201.9 198 185.8 170.3 157 145.5 133.4 126.6 124.7 125.9 126.3 128.8 125.4 119.6 116 116 116 116 116 116 116 116 116 116 113 119 121.9 123.8 127.2 130.8 134.5 139 142.3 145.8 149 151.7 154.8 156.4 157.9 157.6 157.2 156.5 155.9 155.3 154.7 154.6 155 155.7 156.3 157.3 158.1 158.8 158.9 158.7 158.5 158 156.7 153.7 149.5 144 138.1 134.2 132.2 130.1 129.9 129.7 128.8 128.4 128.4 126.9 127.1 125.9 126.3 127.9 128.7 133.7 136.8 140 148.6 150.1 149.4 148.7 148.3 146.6 151.7 152.5 155.4 148.2 145.6 143.5 140.3 137.7 135.8 134 133.8 133.2 132.4 131.7 131.3 128.2 122.7 120.2 116 114.2 112.5 111.7 115.2 122.1 125.3 128.8 130.9 132.2 135.5 137.9 139.9 144.1 145.4 146.3 149 147.7 156 154.6 156.7 157.9 158.5 159.3 160.7 161.7 162.9 164 166.3 167.8 168.7 168.6 169.3 169.5 169.6 167.3 166.6 169.4 169.9 168.1 168.1 168.1 166.8 169.5 177.1 187.4 192.2 193.3 196.2 193.3 197.8 201.4 193.6 195.7 193.2 191.8 192.2 193.6 194.5 196.1 197.7 193.3 191 194.1 198.4 214.1 206.7 207.9 206.5 206.3 208 209.2 208.3 202.3 198.6 196.6 193 193.1 193.3 193.1 192 191.2 190.6 189.4 187.9 187.5 187.2
152.8 158.1 165.4 173.1 175.6 179.9 188.7 195.2 197 197.2 193.3 196.9 190.9 178.6 164.4 150.5 138.5 130.5 123 122.1 124.5 124 123.7 120.6 117 113.7 116 116 116 116 116 116 116 116 116 116 118.5 123 124.8 127.7 131.4 135 139.1 143.1 145.7 147.8 150.3 152.8 154.2 155.1 154.8 154.3 153.9 153.3 152.9 152.3 152.6 153 153.4 154 154.8 155.4 156.2 156.5 156.6 156.4 156.1 155.8 154.1 149.7 144.7 138.4 134.1 132.5 131.1 131 130.7 130.4 128.5 129.5 128.4 128 127 128.2 129 130.3 136.5 138.1 142.9 149.8 151.7 151.5 150.2 148.8 148.7 151.7 152.7 150.8 148 146.8 145.1 141.8 139.2 137.5 135.3 135.5 134.1 133.3 132.2 129.5 130.3 123.3 119.5 117.1 115.5 113.9 112 117.2 120.8 125.1 129.6 131 133.3 135.9 137.9 140.6 143.3 147.1 147.6 148.4 148.1 149.8 158.2 156.7 157.9 159 160.5 162.3 164 164.2 165.8 168.8 169.2 170.2 171.1 172.1 170.6 170.2 169.3 166.3 168.2 170.6 168.1 168.1 168.1 166.5 169.6 176.7 180.4 187.3 188.3 195.4 191.9 190.4 194.3 192.9 190.6 189.3 190.3 190.1 191.2 192.5 196 198.4 197 192.9 193.4 198.5 216.5 212.1 208.8 208 206.6 205.8 207.9 206.5 202.2 198.9 195.9 192.8 193.7 193.6 193 192.2 191.5 190.4 188.7 187.9 187.4 186.9
154.7 159.6 166 174 176.3 177.6 184.3 191.2 192.9 191.9 186.7 189.7 182.3 170.1 157.1 145.1 132.7 125.4 120.8 120.2 121 122.4 117.8 112.9 116 116 116 116 116 116 116 116 116 116 116 116 118.8 124.4 125.4 128.4 132 135.8 139.5 143.1 145.6 147.3 148.8 150.9 152.1 152.3 152 151.6 151.3 150.8 150.4 150.1 150.5 150.9 151.3 152.2 153 153.5 154.1 154.5 154.7 154.4 154 153.6 152.8 149.6 144.8 138.8 134.2 132.5 131.8 131.7 131.7 131.5 129.6 129.9 130 129.1 129.1 130 130.4 131.4 138.6 140.1 143.5 148.9 151.3 152.2 151.7 150.1 150.9 154.5 156.2 150.9 148.5 147.6 147.7 144.4 142.2 138.8 137.2 136.6 135.5 134.5 133.2 129.4 126.6 123.3 121 119.2 116.7 114.3 114.5 114.8 118.6 123.6 128.8 131.4 132.5 137 138.8 140.2 143.3 147.7 148.7 149.6 149.1 148.8 157 159.1 158.9 159.9 161.7 164.1 167.3 166.3 170 171.7 171.6 171.9 172.1 171.7 171.3 170.1 169.1 167.6 167.3 170.1 168.1 168.1 168.1 168.5 169.8 171.2 181.4 181.8 186.7 184.7 190.8 184.3 183.5 185.7 192.4 188.6 188.1 188.6 189.2 189.7 195.6 197.8 201.7 200.1 196.6 197.7 213.3 214.1 212.2 210 207.1 206.7 206.8 204.5 201.4 199 196.2 193.8 194.5 194.3 193.3 193.1 193.2 191.5 188.5 187.9 187.4 185.6
155.4 159.5 169.2 173.5 176.1 176.6 179.4 185.5 188 186.3 179.8 179.3 171.9 161.7 152.2 141.5 127.8 120.5 119.4 119.3 119 116.7 115.9 116 116 116 116 116 116 116 116 116 116 116 116 116 119.4 123.4 125.5 128 132.6 137.2 140.1 143.3 145.6 147.2 148.1 149.2 150.1 149.8 149.7 148.7 148.5 148.1 147.2 147.3 147.6 148.8 149.6 150.5 151.3 151.9 152.6 153 152.9 152.6 152.3 151.5 150.8 148.8 144.9 140.5 136.1 133.2 132.6 132.5 132.3 132 130.1 130.5 130.1 130.5 131.1 131.4 131.8 132.6 139.4 141.7 146.2 149.3 150.7 152 151.8 151.7 152.5 156 158 155.4 151.1 149.8 148.7 146.9 144.1 141.6 138.9 140 137.6 134.8 133.3 132.5 129.1 125.9 122.5 119.7 118 118.4 119.8 119.2 117.9 121.6 126.1 129.9 131.9 136.4 138.6 140.3 141.4 147 150.7 150.5 149.6 149.5 151.5 160.3 160.3 160.5 161.6 164.8 169.3 170.1 172.8 174.9 174.5 173.6 172.6 172.2 171.5 170.1 168.6 168 168.1 167.8 168.1 168.1 168.1 168.1 168.1 169.2 176.5 178.5 182.1 183.8 184.3 184.6 183.5 183 183.4 188.2 187.3 187 188.4 189.6 194.5 196.8 201.6 203.4 200.4 200.2 211.9 214.7 215.4 213.6 211.3 207.1 206.2 204.5 202.8 197.6 195.8 195.2 197.1 194.8 194.1 193.6 192.9 192.6 188.7 188.1 187.4 186.4
157.5 163.1 170.7 173.8 175.8 175.1 175.2 179.5 180.4 177.3 174.7 170.8 165.5 156.3 144.1 135.3 123.4 120 118.4 118.5 117.6 116 116 116 116 116 116 116 116 116 116 116 116 116 116 116 117.9 123.1 125 128.2 134.4 139.1 141.8 143.5 145.6 146.7 147.5 148.1 148.4 148.4 147.5 146.1 145.5 145.2 144.8 144.7 145.6 146 146.8 148.5 149.7 150.5 151.3 151.9 151.7 151.6 151 150.2 149 147.4 145.4 141.8 137.3 134.6 133.7 133.3 132.9 131.6 130.5 131.9 131.1 131.8 132 132.3 132.7 133.9 140.2 143.4 145.8 149.5 152 152.3 152.5 153 153.8 156.5 158.7 155.2 152.8 152.5 150.6 149.3 146.9 145.2 141.6 140.6 139 135.2 133.9 131.6 133.2 126.8 122.6 122.7 121.3 123.2 121 121.1 121.8 123.7 125.2 127.9 131.5 136.7 139.2 139.8 140.9 145.9 151.1 154.2 153.1 153.9 155.3 159.2 160.2 161.4 161.5 163 169 172.9 175.2 177.6 176.4 174.8 173.1 172.6 171.7 169.8 168.3 167.5 168.1 168.1 169.9 167.5 168.1 168.1 168.1 168.1 167.6 176.3 178.9 182.2 183.6 184 183.5 183.1 183.1 182.6 184.7 184.9 187.7 188.6 191.6 196.7 202.7 205.2 202.5 203.1 211.2 214.7 217.8 216.5 214.8 209.2 205.7 204.9 204.2 202.7 194.9 195.5 197.2 195.1 194.1 193.5 192.6 191.9 189 188.4 186.5 189.1
