ncols 200
nrows 86
xllcorner 220000
yllcorner 120550
cellsize 50
-2.5 -2.5 -2.5 -2.5 -2.5 -2.5 -2.5 -2.5 -2.5 -2.5 -2.5 -2.5 -2.5 -2.5 -2.5 -2.5 -2.5 -2.5 -2.5 -2.5 -2.5 -2.5 -2.5 -2.5 -2.5 -2.5 -2.5 -2.5 -2.5 -2.5 -2.5 -2.5 -2.5 -2.5 -2.5 -2.5 -2.5 -2.5 -2.5 -2.5 -2.5 -2.5 -2.5 -0.6 1.7 1.9 6.9 12.7 19.9 19.6 39.1 82.9 86.4 88.1 88.6 89.1 87.8 87.4 87.3 86.5 85.9 85.8 85.4 85.1 84.6 83.7 82 79.5 76.7 72.4 67.3 63.2 60.8 56.2 51.5 51.2 49.5 51.2 49.4 53.9 54.4 51.1 52 52.7 52 52.2 48.5 44.3 45.6 46.6 50.7 55.1 57 59 53 55.8 58.2 59.6 58.7 64 69.2 75.4 80 80.5 78.3 75.3 70.2 66.1 68.2 68 66.5 66.9 67.7 68.1 69.1 70.2 70.8 71.9 73.5 76.3 80.1 84.1 88.5 93.9 99 101.7 103.7 105.3 106 104.5 97.6 103.2 102.9 98.9 91 90.1 90.5 92.1 93.3 94.2 97.4 99.4 100.8 102 101.4 101.4 101.7 103 105.4 106.4 105.9 104.9 104.5 105.5 107.5 107.6 107.3 107.7 110.8 115.8 120.8 124.2 125.3 126.3 125.5 131 135.7 140.3 142.9 145.8 147.7 148.7 147.4 146.8 146.6 149.1 153.1 155.7 155.7 152.8 149.9 145.9 144.6 142.3 138.7 133.5 127.1 128.4 128.9 128.8 128.1 128.9 129 126.7 119.4 96.6 80.2 77.9 87 105.2
-2.5 -2.5 -2.5 -2.5 -2.5 -2.5 -2.5 -2.5 -2.5 -2.5 -2.5 -2.5 -2.5 -2.5 -2.5 -2.5 -2.5 -2.5 -2.5 -2.5 -2.5 -2.5 -2.5 -2.5 -2.5 -2.5 -2.5 -2.5 -2.5 -2.5 -2.5 -2.5 -2.5 -2.5 -2.5 -2.5 -2.5 -2.5 -2.5 -2.5 -2.5 -2.5 -2.5 0.6 13.6 14.7 31.7 36.9 52.8 65 68 82.9 85.4 86.5 86.4 86.3 86.1 85.4 85.9 86.4 87 87.4 87.9 88.7 88.7 87.8 87.5 86.7 85.5 83 78.7 73.6 69.6 59 67.4 68.1 70.6 69.2 67 68.5 68.2 67 64.2 64.2 66.7 67.1 65.5 51.4 46.4 46.1 48.3 48.4 50.2 49.7 51.2 52.5 53.3 55 56.8 57.8 56 57.8 59.1 60.1 61 61.4 62.4 66.7 67.6 69.4 71 73.4 74.7 75.3 74.7 75.2 76.4 77.5 78.8 83 85.4 89.8 94 99.2 102 105.5 107 108.5 109 107.8 102.3 103 107 106.3 103.8 98.1 96.3 97.9 99.9 97.3 102.8 105.7 108.7 112.7 114.3 114.7 114.4 115.1 115.6 115.7 114 108.5 110.1 112.8 112.1 111.1 110.6 110.7 109.8 110.4 113.5 116.2 117.7 119.3 125.1 132.2 136.3 140.4 144.2 147.1 148.8 151 152.5 153.8 154.8 156.5 160 161.8 162.7 161.3 158.5 155.7 154.1 151.1 145.8 140.2 135.4 137.5 139.3 139.5 139.2 138.3 137.2 135.3 129.2 113.8 92.9 79.6 82.8 101
-2.5 -2.5 -2.5 -2.5 -2.5 -2.5 -2.5 -2.5 -2.5 -2.5 -2.5 -2.5 -2.5 -2.5 -2.5 -2.5 -2.5 -2.5 -2.5 -2.5 -2.5 -2.5 -2.5 -2.5 -2.5 -2.5 -2.5 -2.5 -2.5 -2.5 -2.5 -2.5 -2.5 -2.5 -2.5 -2.5 -2.5 -2.5 -2.5 -2.5 -2.5 -2.5 -2.5 1.5 4.8 17.2 36.6 40.3 56.5 65.8 73.6 80 83.6 82.8 82.4 82.7 82.5 83.6 84.2 85.3 86 86.9 88.1 89.4 90.5 90.7 90.8 90.9 89.5 87.6 84.5 79.7 74.4 69 75 75.8 77.2 78.3 78.8 79.4 79.4 77.8 76.5 76.8 78.8 80 79.8 73.9 61.3 51.9 48.7 49.1 52.8 60.4 63.6 54.7 55.5 61.4 66 65.4 64.9 65.1 58.7 60.4 61.7 63 66.8 71 73.3 75.5 78.1 81.9 83.5 87.8 89.9 89.3 88.4 88.4 90.2 92.4 94.6 97.5 101.5 103.7 106.5 109.5 110.9 112.3 112.1 111 107.2 103.7 109.5 110.4 109.1 105.4 100.9 101.8 104.2 103.6 103 109.5 111.1 114.5 117.5 119.6 120.2 120.1 120.3 119.7 117.6 111.2 113 117.3 118.4 118.1 116.6 115.2 114.8 113.8 113.2 113.1 114.7 115.8 121.5 128.3 134.9 139.7 143.5 147.9 151 153.8 155.9 158 159.1 161.3 164 165 166.6 165.9 164.5 162.4 158.9 155.6 150.2 145.9 143 144.9 146.9 147.7 147.4 146.5 145.8 143.1 137.6 128.1 106.1 85.5 82.4 95.6
-2.5 -2.5 -2.5 -2.5 -2.5 -2.5 -2.5 -2.5 -2.5 -2.5 -2.5 -2.5 -2.5 -2.5 -2.5 -2.5 -2.5 -2.5 -2.5 -2.5 -2.5 -2.5 -2.5 -2.5 -2.5 -2.5 -2.5 -2.5 -2.5 -2.5 -2.5 -2.5 -2.5 -2.5 -2.5 -2.5 -2.5 -2.5 -2.5 -2.5 -2.5 -2.5 -2.5 0.9 2.5 2.9 17.4 45.5 58.8 66.3 73.1 78.7 80.5 78.8 78.4 78.5 80.7 81.8 82.9 84.5 86 87.2 88.5 90 91.6 92.2 92.3 92.6 91.7 89.7 86.4 81.7 79.5 80.2 81.1 81.3 82.1 82.7 83.2 83.7 84.1 83.9 83.7 83.5 84.7 86.5 87.7 85 77.6 74.6 77 76.8 76.4 77.2 77.3 67.4 55 66.9 74.4 77.9 80 80.5 78.2 74.9 72.5 72.5 74.7 77.7 79.7 81.6 84.4 86.9 90.2 93.7 95.9 96.4 96.9 96 97.9 100.6 104 106.8 107.5 108.8 111.3 113.2 114.9 115.8 115 113.7 110.5 105.5 111 113.2 113.6 112.8 111.5 111.3 110.9 109.1 106 111.5 113.8 116.1 119 121.5 122.6 123.6 123.5 123.2 120 112 112.6 119.8 122.7 123 120.9 118.7 119.3 118.7 117 115.5 115.5 115.4 118.3 125.1 133 138.3 142.9 148.2 151.8 154.7 157.2 159.8 162.4 164.9 167.4 169.5 169.7 169 167.6 166 163.7 160.2 153.1 151.1 150.6 151.7 152.5 153.7 153.7 153.1 150.6 147.3 142.7 134.7 112.9 94.4 85.1 97.7
-2.5 -2.5 -2.5 -2.5 -2.5 -2.5 -2.5 -2.5 -2.5 -2.5 -2.5 -2.5 -2.5 -2.5 -2.5 -2.5 -2.5 -2.5 -2.5 -2.5 -2.5 -2.5 -2.5 -2.5 -2.5 -2.5 -2.5 -2.5 -2.5 -2.5 -2.5 -2.5 -2.5 -2.5 -2.5 -2.5 -2.5 -2.5 -2.5 -2.5 -2.5 -2.5 -2.5 -2.5 0.3 2.8 2.9 41.2 50.5 59.6 65 69.7 72.5 74 77 77.7 79.7 81.4 83.1 84.6 86.1 87.7 89.3 90.9 92.4 93.7 93.9 94.2 93.8 92.4 89.8 87.9 85.5 84.5 84.8 86.2 87.8 88.3 88.9 89.5 89.9 89.9 90.1 90.4 91.2 92.9 94.6 94.5 94.8 95.1 96.1 96.1 94.6 94.5 89.8 75.7 59.4 69.8 80.2 84.9 86.7 87.4 87 85 83.8 83.3 83.1 84.7 86.1 87.5 89.1 91.6 95 97.9 100.8 102 103.2 104.3 106.3 108.3 108.8 111 112.4 113.5 115.7 116.6 118.2 118.6 117.8 116.4 114.4 111 112.7 114.8 116.7 117.2 116.6 116.3 115.1 113.7 109.5 113.8 116.5 118.1 120.4 123.1 125 125.7 125.6 125 121.5 112.9 114 123.2 126.1 126.9 126 122.6 124.1 122.3 120.5 119.8 118.6 116.8 117.8 121.1 129 133.1 139.7 144.4 150 154.1 157 160 163.4 166.4 168.7 170.3 170.4 170.3 168.8 167.9 166.2 163.4 160.8 159.7 158.5 157.4 157.6 158.4 158.4 155.6 152.9 149.2 144.7 132.1 111.3 92.5 92.7 90.7
-2.5 -2.5 -2.5 -2.5 -2.5 -2.5 -2.5 -2.5 -2.5 -2.5 -2.5 -2.5 -2.5 -2.5 -2.5 -2.5 -2.5 -2.5 -2.5 -2.5 -2.5 -2.5 -2.5 -2.5 -2.5 -2.5 -2.5 -2.5 -2.5 -2.5 -2.5 -2.5 -2.5 -2.5 -2.5 -2.5 -2.5 -2.5 -2.5 -2.5 -2.5 -2.5 -2.5 -2.5 -0.8 1.8 2.9 49.8 55.4 58.4 62.9 68.5 73.1 77.6 79.2 79.8 80.4 81.6 83.2 84.6 86 88.3 90.3 91.9 93.5 95.5 96.3 96.4 96.1 94.8 93 91.4 89.6 89.6 88.9 90 91.5 93.5 94.1 94.8 95.3 96.6 97.1 97.4 98.6 100.6 101.6 101.3 101.1 102.8 104.7 105.6 105.1 103.1 99.4 85.3 58.7 68.3 80.3 88.6 90.9 91.8 91 90.5 89.7 89.1 89.5 90.9 92 93.3 94.3 95.4 98.7 101.2 103.5 105.1 106.7 108.8 110.3 111.3 112.3 113.5 115.4 116.7 118.4 119.6 120.4 121 120.5 119.2 117.2 114.5 114 116.5 118.9 120.7 121 120 118.7 116 112.5 113.1 117.7 119.8 121.9 124.2 126 126.5 126.7 126 123.7 118.6 115.4 123.8 127.3 129.2 128.7 126.7 128.8 128.1 128.7 129.3 127.3 125.5 122.4 120.8 124.2 126.9 132.1 134.9 142.8 149.2 153.1 156.9 160.8 164.1 166.7 168.4 169.8 169.7 169.7 169.1 168.5 167.8 166.4 165.5 164.5 163.5 163.4 163.1 160.7 156 151.1 145.6 140.9 119.3 100.7 106 107.5 98.2
-2.5 -2.5 -2.5 -2.5 -2.5 -2.5 -2.5 -2.5 -2.5 -2.5 -2.5 -2.5 -2.5 -2.5 -2.5 -2.5 -2.5 -2.5 -2.5 -2.5 -2.5 -2.5 -2.5 -2.5 -2.5 -2.5 -2.5 -2.5 -2.5 -2.5 -2.5 -2.5 -2.5 -2.5 -2.5 -2.5 -2.5 -2.5 -2.5 -2.5 -2.5 -2.5 -2.5 -2.5 1.1 2.8 23.2 48.6 63.4 69.2 73.9 76.7 78.5 81.9 82.7 83.3 83.5 82.9 83.1 84.4 86.1 88.5 91.4 93 94.6 97 99 99.1 98.9 97 95.8 95.7 94 94 93.9 95.9 97 97.7 99.1 100.3 101.2 102.4 104.1 105.3 106.5 107.5 108.2 107.7 106.7 107.5 109.3 109.8 109.4 107.9 105.1 99.2 67 71.5 78.3 89.6 94 95.2 95.3 95.1 95.3 95 95.3 96.1 97.2 97.9 98.4 98.5 101.4 103.9 105.9 108.4 109.8 111.5 111.9 112.8 113.7 115.5 117.5 119.5 120.9 121.8 122.6 123.4 123.1 122.4 121.8 119.2 116.8 119.4 121.7 123.1 123.2 122.4 120.7 116.4 115.5 116.8 116.2 120.2 123.6 125.1 127 127.9 128.2 127.9 125.8 121.4 117.3 124.8 128.6 131.4 131.9 131.9 131.7 133.6 135 136 135.8 133 129.3 120.8 132.2 136.1 138.9 140.1 139.9 140.7 144.6 149.6 154.3 159.4 162.3 165.7 167.2 168.2 168.4 169.6 170.5 170.6 170.2 170.5 169.4 168.8 168.3 165.4 161.1 154 144.9 133.4 122.9 107.7 124.2 127.1 128.1 114.1
-2.5 -2.5 -2.5 -2.5 -2.5 -2.5 -2.5 -2.5 -2.5 -2.5 -2.5 -2.5 -2.5 -2.5 -2.5 -2.5 -2.5 -2.5 -2.5 -2.5 -2.5 -2.5 -2.5 -2.5 -2.5 -2.5 -2.5 -2.5 -2.5 -2.5 -2.5 -2.5 -2.5 -2.5 -2.5 -2.5 -2.5 -2.5 -2.5 -2.5 -2.5 -2.5 -2.5 -1.3 2.8 15.8 20.9 37.1 64.3 73.5 80.2 84.3 86.4 86 86.2 85.7 84.2 82.7 82.9 83.4 86.2 88.6 91.8 94 95.9 98.4 100.6 101.5 101.6 101.9 101.3 100.9 101.4 102.3 102.7 103.6 105 105.3 106.2 106.9 107.7 108.6 109.3 110.3 111.3 112 112.9 112.6 111.9 111.7 112.8 113.5 113.4 111.7 109 102.1 78 66.2 74.5 85.8 94.6 97.8 98.9 98.7 98.8 99.1 99.7 100.3 100.8 101.3 101.1 102.6 104.7 105.5 107.9 110.6 112.5 113.9 114.7 114.7 116.1 117.4 119 120.3 122 123.1 124.1 125 125.1 124.8 123.5 121.7 120 121.8 123.5 124.7 124.9 123.5 121.2 116.8 119.3 120.6 121.2 120 124.3 126.5 129.3 130.5 130.8 129.8 126 120.3 119.1 126 130.2 132.9 134.4 134.7 134.9 137.2 138.3 138.6 138.5 136.9 131.1 123.7 133.5 138.2 141.6 144.3 147.3 148.8 149.4 150.7 152.4 152.6 157.8 162.1 164.7 166.6 167.7 169.1 170.6 172.4 173 174.6 174.6 174.2 173.3 169.6 164.7 161.3 156.1 149 124.1 123.1 141.7 142 141.1 128.9
-2.5 -2.5 -2.5 -2.5 -2.5 -2.5 -2.5 -2.5 -2.5 -2.5 -2.5 -2.5 -2.5 -2.5 -2.5 -2.5 -2.5 -2.5 -2.5 -2.5 -2.5 -2.5 -2.5 -2.5 -2.5 -2.5 -2.5 -2.5 -2.5 -2.5 -2.5 -2.5 -2.5 -2.5 -2.5 -2.5 -2.5 -2.5 -2.5 -2.5 -2.5 -2.5 -2.5 -2.5 -2.5 2.9 2.8 24.2 47.1 68.1 79.2 85.5 89.7 90.3 88.4 86.6 84.4 82.2 80.2 82.5 85.8 88.7 91.9 95.1 97.4 99.8 102 103.5 104.3 104.9 104.8 105.4 105.9 106.7 107.7 108.5 108.9 108.6 109.2 110.1 110.4 111.1 112.6 113.9 114.7 115.4 116 115.9 115.8 115.9 116.4 116.6 116 114.6 111.8 106.3 92.8 74 67.7 78.3 90.2 97.7 101.5 102 101.8 102.5 103.1 103.8 104.3 104.7 105.3 106.5 108 110 111.5 112.4 113.2 113.7 114.2 114.2 115.7 116.8 118 120.1 121.2 123.2 124.8 125.8 126.5 126.1 125.4 124 122.8 123.3 124.9 126 127.1 125.3 122.8 118.7 122.8 123.9 124.1 124.7 126.2 129.6 132.1 133 132.8 131.8 128.9 124.4 119.5 127.6 132 135.1 136.9 137.5 138.1 139.9 140.8 141 139.8 137.5 129.6 127 134.9 140 143.5 147.8 151.7 153.3 155 157.1 158.7 160 160.7 160.3 161.4 164.6 167.4 169.2 170.8 173 175.1 177 178.2 178.4 176.4 173.5 168.7 164.6 158.4 142.2 125.8 141.3 148.7 150.3 147.6 140.6
-2.5 -2.5 -2.5 -2.5 -2.5 -2.5 -2.5 -2.5 -2.5 -2.5 -2.5 -2.5 -2.5 -2.5 -2.5 -2.5 -2.5 -2.5 -2.5 -2.5 -2.5 -2.5 -2.5 -2.5 -2.5 -2.5 -2.5 -2.5 -2.5 -2.5 -2.5 -2.5 -2.5 -2.5 -2.5 -2.5 -2.5 -2.5 -2.5 -2.5 -2.5 -2.5 -2.5 -2.5 -2.5 2.8 7.7 24.6 28 46.5 61.7 74.1 84.5 86.8 86.9 85.2 82.9 80.9 78.1 81.6 84.8 88.4 92 95 97.2 99.4 101.6 103.5 104.9 105.9 106.5 107 107.6 108 108.9 109.7 110.3 110.9 111.3 112 112.7 113.2 114.4 115.9 117 118 118 117.9 117.9 118.1 118.3 118.3 117.5 116.3 113.7 109.8 101.6 86.1 70.6 74 83.2 89.2 99.3 104.1 105 105.1 105.7 106.2 106.5 106.9 107.3 108.1 108.7 110.7 111.9 112 111.6 110.7 109.8 109.9 111.2 114 115.6 118.4 121 123.3 125.3 126.7 127.5 128.2 127.4 126.4 125.5 126.2 127.9 129.4 129.6 128.3 125.7 122.3 125.8 127.3 127.6 127.7 129.5 132.7 134.3 135.7 135.3 134 131.9 127.5 122 129.5 133.1 136.8 139.2 140.5 141.1 142.3 142.7 142.6 141.4 136.3 128.3 128.6 134.6 138.9 143.1 147.2 150.9 154.1 156.8 158.8 160.9 162.6 163.5 163.8 163.7 165.6 167.8 169.9 171.2 173.4 175 177.2 178.9 178.9 177.7 174.2 169.3 161.7 153.7 132.4 141.8 153.4 154.9 154.6 151.5 144.6
-2.5 -2.5 -2.5 -2.5 -2.5 -2.5 -2.5 -2.5 -2.5 -2.5 -2.5 -2.5 -2.5 -2.5 -2.5 -2.5 -2.5 -2.5 -2.5 -2.5 -2.5 -2.5 -2.5 -2.5 -2.5 -2.5 -2.5 -2.5 -2.5 -2.5 -2.5 -2.5 -2.5 -2.5 -2.5 -2.5 -2.5 -2.5 -2.5 -2.5 -2.5 -2.5 -2.5 -2.5 -2.5 1.8 2.6 2.9 24.4 26.4 32 47.8 64.2 79.1 83.5 82.9 80.6 74.4 75 78.9 81.5 85.8 90.1 92.7 95.6 97.8 99.8 101.8 103.4 105.4 106 106.5 107.3 108.5 109.4 110.2 110.8 111.6 112 112.1 112.8 114.1 115.5 117.2 118.6 117.6 119.1 119.1 118.8 119.1 119.3 119.1 118.6 117.2 114.9 111.4 106.7 95.8 82.5 71.7 71.9 79.5 88.9 98.4 103.9 105.3 105.6 104.9 106.7 107.5 107.3 107.3 107.1 105.9 102.9 99.9 97.3 98.1 97.1 99.1 102.2 106.2 110.1 113.4 117.8 121.4 123.6 126.6 128.2 129.3 129.8 129 128.4 129.6 131 131.7 131.6 130.3 128.7 126.1 128.7 130.6 131.2 132.1 133.1 136.1 137.5 138 137.7 136 133.8 129.3 122.3 130.6 135.3 139 141.3 143.2 144.2 144.7 144.9 144.5 143 138.5 132.4 129.2 136.4 139.9 143.7 147.1 151.1 154.9 157.5 160.1 162.5 164.4 165.8 166.1 166 167.2 168.8 170.9 172.3 174.3 175.4 176.5 177.7 177.7 177.6 174.1 169.5 157.8 141.9 147 155.6 158.3 159.8 158.5 154.6 149.8
-2.5 -2.5 -2.5 -2.5 -2.5 -2.5 -2.5 -2.5 -2.5 -2.5 -2.5 -2.5 -2.5 -2.5 -2.5 -2.5 -2.5 -2.5 -2.5 -2.5 -2.5 -2.5 -2.5 -2.5 -2.5 -2.5 -2.5 -2.5 -2.5 -2.5 -2.5 -2.5 -2.5 -2.5 -2.5 -2.5 -2.5 -2.5 -2.5 -2.5 -2.5 -2.5 -2.5 -2.5 -2.5 -2.5 -2.5 0.6 2.3 10.1 27 29.2 44.5 65.6 77 78.6 76.8 69.3 72.4 75.5 79.7 84.5 89.4 91.5 93.9 96.1 98 100 101.8 104.5 105.3 106.5 107.5 108.8 109.7 110.2 110.9 111.4 111.3 111.2 112 113.1 114.8 116.8 117.5 117 118.2 118.1 118.7 118.9 119.2 119 118.4 117 114.6 110.1 104.6 98.1 91.6 86 73.1 71.6 78.2 87.5 94.9 98.7 100.7 99.9 98.5 96.5 93.5 93.2 91.4 89.9 90 94.4 98.2 100.9 101.8 101.4 101.5 100.9 104.6 110.7 114.6 118.4 121.1 124 128.7 131 131.7 131.5 132.2 132.9 133.7 133.6 132.9 132 131.1 130.9 132.4 133.6 135 136 137.9 139.6 140.1 140.7 141.3 139.6 135.9 131.4 125.3 129.5 135.6 139.8 142.6 144.6 146 146.4 146.4 145.9 144 138.7 131.3 130.6 137.5 142.3 146.3 149 152.4 155.9 158.8 161.9 164.3 166.1 167.4 168.1 168.1 169.5 170.7 172 173.5 174.9 176.1 176.9 176.5 177.2 176.1 173.9 168.8 156.9 146.7 158.7 162.9 164.5 165.5 164.4 160.6 155.9
-2.5 -2.5 -2.5 -2.5 -2.5 -2.5 -2.5 -2.5 -2.5 -2.5 -2.5 -2.5 -2.5 -2.5 -2.5 -2.5 -2.5 -2.5 -2.5 -2.5 -2.5 -2.5 -2.5 -2.5 -2.5 -2.5 -2.5 -2.5 -2.5 -2.5 -2.5 -2.5 -2.5 -2.5 -2.5 -2.5 -2.5 -2.5 -2.5 -2.5 -2.5 -2.5 -2.5 -2.5 -2.5 -2.5 -2.5 0 1.7 6.6 38.4 29.3 31.4 50.1 67.2 67 62.8 64.6 66.7 73.1 79.5 87.2 89.3 89.6 91 93 95 98 100.8 103.5 105.2 106.3 107.3 108.2 108.6 109.1 109.6 109.4 109.1 109.3 109.8 111 112.7 114.5 115.1 116 116.6 116.7 117.6 118.2 118.5 118.5 118.2 116.8 114.7 111.2 107.1 102.5 99 94.6 86.5 72.8 70.1 78.1 84.1 88.1 89.7 84.7 80.4 81.4 84.8 89.5 93.3 97 101.9 106.1 108.3 109.5 109.5 108.9 107.9 104.4 103.2 107.3 113.2 118.4 123.1 127 130.4 133 133.9 134 135.5 136.8 137.2 137.2 137.5 136.3 135.2 134.7 135.4 137.3 139.2 140.6 141.6 142.2 143.1 144.6 144.4 144.3 140.5 136.1 127.5 132 136.9 139.8 142.9 145.6 147.2 148.2 147.4 146.9 144.3 140.3 133.2 128.9 135.3 141.6 146.3 150.5 154 157.9 162.1 164.4 166.2 167.6 168.8 169.9 170.2 170.8 171.7 172.9 174.6 175.7 176.9 177.1 176.5 175.6 174.3 171.6 167 155 156.1 164.5 167.8 169.3 169.7 168.4 164.4 160.7
-2.5 -2.5 -2.5 -2.5 -2.5 -2.5 -2.5 -2.5 -2.5 -2.5 -2.5 -2.5 -2.5 -2.5 -2.5 -2.5 -2.5 -2.5 -2.5 -2.5 -2.5 -2.5 -2.5 -2.5 -2.5 -2.5 -2.5 -2.5 -2.5 -2.5 -2.5 -2.5 -2.5 -2.5 -2.5 -2.5 -2.5 -2.5 -2.5 -2.5 -2.5 -2.5 -2.5 -2.5 -2.5 -2.5 -0.2 1 2.3 23.7 62.7 33.6 31.3 39.9 48.1 47.6 52 54.4 58.7 66.6 74.6 79 81.3 84.9 86.5 90.6 94.3 97.3 100 102.6 104.7 105.7 106.4 107.4 107.6 107.9 107.8 107.4 106.9 107 107.6 108.8 110.4 112.1 113 114.1 114.8 115.6 116.4 117.3 117.8 117.8 117.5 116.4 114.2 111.3 107.8 104 100.5 94.3 86.1 73.1 71.3 72.4 73.5 76.9 77.8 77.9 84.4 89.7 94.1 98.7 101.8 104.2 107.3 109.7 111.3 112.2 112.4 111.8 111.2 109.7 104.7 105.2 112.5 118.8 125.5 130.7 133.6 135.8 137.2 138.9 139.7 140.3 140.4 140.8 140.7 140 139.2 138.7 138.9 140.2 141.1 142.1 143.5 144.5 146.6 146.5 147.3 146.8 144.8 141.1 132.6 132.1 138.6 142.4 145.1 147.7 149.3 150.5 149.5 147.7 145.1 141.4 134.3 134.7 132.4 139.4 144.3 148.7 152.5 156.9 161.1 164.1 166.4 168.6 169.9 171.2 172.2 172.8 173.5 174.6 176.1 177.3 178.1 178.3 177.4 175.2 172.2 169.5 164.9 153.9 160.7 166.8 170.2 172.6 172.8 170.7 167.9 164.6
-2.5 -2.5 -2.5 -2.5 -2.5 -2.5 -2.5 -2.5 -2.5 -2.5 -2.5 -2.5 -2.5 -2.5 -2.5 -2.5 -2.5 -2.5 -2.5 -2.5 -2.5 -2.5 -2.5 -2.5 -2.5 -2.5 -2.5 -2.5 -2.5 -2.5 -2.5 -2.5 -2.5 -2.5 -2.5 -2.5 -2.5 -2.5 -2.5 -2.5 -2.5 -2.5 -2.5 -2.5 -2.5 -0.4 1.7 2.5 8.6 51.8 69.1 36.2 33.1 34.6 42.5 56.3 65.6 69 69.2 66.3 68 71.6 77.5 81.1 85.9 89.2 92.7 96.7 99.7 102.4 104.5 105.8 106.2 106.6 106.4 106.2 106 105.3 104.6 104.6 105.2 106.5 107.8 109.4 110.3 111.2 112.7 114.3 115.3 116.2 117.1 117.3 117.1 116.7 115 112 109.4 106.3 102.7 98.1 86.8 73.2 80 86.9 84.9 83.7 82.7 78.9 86.5 93.7 97.6 100.8 103.4 106.6 109.6 111.8 113.6 114.4 114.7 114.6 115 113.1 109.6 108.4 108.2 121.7 128.6 133.1 135.7 138.1 139.8 141.2 141.9 142.5 143.2 142.5 142.2 142.3 141.4 141 141.4 142.3 143.5 145 146.8 148.2 148.6 149.7 149.2 148.4 146.3 142.3 137.3 133.5 138.6 142.8 146.1 149.2 151.5 153.3 152.9 151 147.9 144.8 140.6 134.1 133.6 143.7 148.5 151.8 155.2 158.6 162.4 165.2 167.6 169.4 170.6 171.8 172.8 173.8 174.9 176.4 177.7 178.8 179.6 179.3 178.5 176.4 174 169.2 162.4 160.4 166.4 169.4 172 174.6 174.8 173.1 169.4 165.9
-2.5 -2.5 -2.5 -2.5 -2.5 -2.5 -2.5 -2.5 -2.5 -2.5 -2.5 -2.5 -2.5 -2.5 -2.5 -2.5 -2.5 -2.5 -2.5 -2.5 -2.5 -2.5 -2.5 -2.5 -2.5 -2.5 -2.5 -2.5 -2.5 -2.5 -2.5 -2.5 -2.5 -2.5 -2.5 -2.5 -2.5 -2.5 -2.5 -2.5 -2.5 -2.5 -2.5 -2.5 -2.5 -0.6 1.3 2.1 2.8 31.1 54.3 31.6 33.3 36.5 38.9 56.8 67.5 73.1 75.5 76.2 77.2 78.4 80 82.5 86.2 90 93.7 97.4 100.5 102.6 104.7 106 106.3 106.2 105.5 105.2 104.4 103.9 102.3 102 103 103.9 105.2 106.6 107.3 107.9 110 112.7 114.7 115.4 116.2 116.9 116.8 116.4 115.7 114 111.6 108.2 104.9 98.9 79.7 81.2 89 96.6 96.4 94.9 93.8 90.5 82 93.4 98 101.9 105.3 108.4 111 112.9 114.9 116.4 117 118.1 119.5 120.2 119.4 116.1 111.6 119.7 128.1 133.7 136.7 138.6 140.6 142.1 143.3 143.9 144.9 143.2 144.7 144.9 145.5 145.4 144.9 145.4 146.7 148.7 150.5 151.1 152.2 152.7 152.1 150.5 148.9 143.8 138.8 134 136.5 141.1 145.7 149.1 151.5 153.8 154.1 153.3 150.9 147.7 145.3 140.2 131.9 141.5 151.7 155.8 158.9 161.8 164.3 166.5 168.3 169.3 170.5 171.8 173.1 174.4 176 177.5 179.4 180.6 181.3 181.5 180 177.9 175.2 170.1 164.8 167.4 171.2 172.9 174.9 176.1 175 171.6 167.4 163
-2.5 -2.5 -2.5 -2.5 -2.5 -2.5 -2.5 -2.5 -2.5 -2.5 -2.5 -2.5 -2.5 -2.5 -2.5 -2.5 -2.5 -2.5 -2.5 -2.5 -2.5 -2.5 -2.5 -2.5 -2.5 -2.5 -2.5 -2.5 -2.5 -2.5 -2.5 -2.5 -2.5 -2.5 -2.5 -2.5 -2.5 -2.5 -2.5 -2.5 -2.5 -2.5 -2.5 -2.5 -2.5 -2.5 -0.5 0.2 1.4 2.7 36.5 31.9 38.9 52.6 44.4 40.4 56.9 72.8 77.4 79.1 80.9 81.5 80 81.9 86 90.5 94.5 98.1 101 103.2 104.6 105.6 105.6 104.8 103.5 102.5 100.8 98.2 96.3 97.2 96.5 98.2 100.1 101.4 103.2 106.2 108.8 111.5 113.5 114.4 115.3 116.2 116.2 115.9 115.1 113.6 111.4 108.8 105.5 94.7 79.5 87.7 95.8 100.5 100.2 99.7 98.7 94.5 85.6 88.4 96.4 101.2 105.2 109 111.5 114.4 117.2 119.7 121.1 124 125.9 127 126.1 124.4 119.4 116.4 125.2 131.7 135.1 137.9 140.1 142.3 143.9 145.2 146.2 146.9 147.3 148.2 148.3 148.8 149.7 150.7 152 153.6 155.2 156.2 156.4 156.9 155.7 153.6 151.5 147.5 142.8 137.6 140.8 144 146.7 149.6 152.1 154.7 155.9 155.3 153.5 151.2 149.6 146.6 141 132.4 147 153.6 158.3 162 164.6 167 168.2 169.1 170.4 171.8 173.1 174.4 176.1 178.4 180.8 182.3 183.1 183.1 181.3 179.5 176 172.4 170.9 170.9 174.5 176.8 176.9 176.4 174.6 169.9 164.5 158.5
-2.5 -2.5 -2.5 -2.5 -2.5 -2.5 -2.5 -2.5 -2.5 -2.5 -2.5 -2.5 -2.5 -2.5 -2.5 -2.5 -2.5 -2.5 -2.5 -2.5 -2.5 -2.5 -2.5 -2.5 -2.5 -2.5 -2.5 -2.5 -2.5 -2.5 -2.5 -2.5 -2.5 -2.5 -2.5 -2.5 -2.5 -2.5 -2.5 -2.5 -2.5 -2.5 -2.5 -2.5 -2.5 -2.5 -2.5 -2.5 -0.2 1.2 2.7 34 49 60.7 64.7 52.7 43.8 56 63.2 67.4 70.9 70.1 68.5 75 81.4 86.9 90.8 94.7 96.9 98.6 99.8 101.6 101.6 100.8 97.9 95.3 91.1 88.4 92.1 93.8 97 98.9 100.3 99.8 101.6 105.6 108.1 110.5 112.4 113.7 114.7 115.2 115.2 114.8 113.6 111.1 108.5 105.5 101.6 90.4 83 92.8 100.4 102.8 102.9 102.5 101.5 97 87.3 93.6 92 97.2 104.8 110.1 113.1 117.6 121.5 123.7 125.9 127.9 129.1 130.2 130.8 129.1 127.7 120.4 121.5 128 133.1 136.8 139.3 141.5 143.3 145.4 147.1 147.9 149 150.6 152 153.4 154.4 155.2 156.8 158.9 159.8 160 160.4 160.3 159.1 156.8 154.6 150.7 145.9 138.7 142.9 147.1 150 152.6 154.8 157 158.1 158.1 157 155.5 153.3 149.8 144.1 139 135.2 147.1 153.2 158.1 161.9 164.5 166.2 167 168.2 169.4 170.9 173.4 176 178.5 181.2 183.2 184.2 183.8 182.9 181.1 179.1 176.9 174.5 174.9 176.7 179.1 179.7 176.9 173.6 167.6 161.7 151.8
-2.5 -2.5 -2.5 -2.5 -2.5 -2.5 -2.5 -2.5 -2.5 -2.5 -2.5 -2.5 -2.5 -2.5 -2.5 -2.5 -2.5 -2.5 -2.5 -2.5 -2.5 -2.5 -2.5 -2.5 -2.5 -2.5 -2.5 -2.5 -2.5 -2.5 -2.5 -2.5 -2.5 -2.5 -2.5 -2.5 -2.5 -2.5 -2.5 -2.5 -2.5 -2.5 -2.5 -2.5 -2.5 -2.5 -2.5 -2.5 -1.7 0.1 1.8 34 55.6 65.1 72.9 75.3 62.5 48.9 51.4 54.8 54 56.1 58 59.6 66.1 75.2 81.6 86.1 85.1 87.5 88.6 89.9 90.3 89.5 87.2 86.3 93.3 98.4 100.7 102 102.6 103.7 104.7 103.5 102 104.2 107.3 109.8 112.3 113.2 114.1 114.5 115 113.6 111.2 108.4 105.5 102.4 99.4 89 86.4 95.4 99.3 102.5 103.3 103.9 102.4 97.1 88.8 99.4 99.8 97 101.3 110.3 115.8 120.1 123.5 125.7 128.1 129.9 131.6 133 133.7 133.4 132 126.9 120.9 122.8 130.9 134.9 137.9 140.6 142.8 145.1 146.6 149.2 150.2 151.8 153.5 155 156.3 157.5 159.1 161.6 162.2 162.6 163.2 162.9 161.7 159.9 157.8 154.5 148.9 141.7 141.5 148.8 152 154.8 157.2 159.7 160.9 160.9 160.6 159.1 156.3 153.2 149 143.8 140.2 135.8 145.3 152.3 157.2 160.7 162.9 162.9 164 166.6 170.1 173.3 176.1 178.9 181.6 184.3 185.6 185.8 184.7 183.6 182.1 180.5 178.7 177.7 179.2 180.7 180.7 178.1 174.4 169.1 160.7 159.3
-2.5 -2.5 -2.5 -2.5 -2.5 -2.5 -2.5 -2.5 -2.5 -2.5 -2.5 -2.5 -2.5 -2.5 -2.5 -2.5 -2.5 -2.5 -2.5 -2.5 -2.5 -2.5 -2.5 -2.5 -2.5 -2.5 -2.5 -2.5 -2.5 -2.5 -2.5 -2.5 -2.5 -2.5 -2.5 -2.5 -2.5 -2.5 -2.5 -2.5 -2.5 -2.5 -2.5 -2.5 -2.5 -2.5 -2.5 -2.5 -1.6 -0.1 1.4 5.3 54.5 69.2 75.8 79.3 79.8 77 72.9 70.2 68.3 68.5 71.1 67.9 68.7 74.6 74.1 73.4 73.7 74.4 78.4 77.7 79.7 84.7 89.4 88.6 96.6 100.6 103 105.1 106.1 106.6 106.8 106.2 105.2 103.3 106.4 109.3 112 113.1 114.1 114.7 114.5 113.1 110.6 107.5 103.6 99.6 95.9 87.2 87.7 94.5 99.8 103.5 105.2 105.4 103.6 98.5 92.7 103 105.2 105.9 104.2 108.8 114.6 119.9 123.4 126.4 129.1 131.3 133.1 134.9 136.1 136.5 135.4 132.1 125.7 121.2 124.4 131.6 136.1 139.5 141.9 143.9 145.8 148.9 151.2 153 155 156.6 158.7 161 162.2 163 164.2 165.1 165.1 165.1 164.1 162.4 160.1 156.9 152.2 145.5 143.6 149 153.1 156.7 159.3 161.7 163.2 163.6 163.4 162.3 160.2 157 153.6 147.9 144.1 139.6 138 147.1 152.8 157.1 159.3 159.6 163.7 167.7 171.6 175.1 178.1 180.9 183.7 185.8 187.2 187.8 187.7 186.6 186 185.2 184.3 184.7 185.8 184.6 182 179 175.1 170.5 162.3 167.7
-2.5 -2.5 -2.5 -2.5 -2.5 -2.5 -2.5 -2.5 -2.5 -2.5 -2.5 -2.5 -2.5 -2.5 -2.5 -2.5 -2.5 -2.5 -2.5 -2.5 -2.5 -2.5 -2.5 -2.5 -2.5 -2.5 -2.5 -2.5 -2.5 -2.5 -2.5 -2.5 -2.5 -2.5 -2.5 -2.5 -2.5 -2.5 -2.5 -2.5 -2.5 -2.5 -2.5 -2.5 -2.5 -2.5 -2.5 -2.5 -2.5 -1.1 0.5 4.8 45 72.1 77.6 82.1 85 85.8 85.1 83.8 82.4 82.6 83.6 80.4 70.7 84.6 86.7 88.8 90.2 90.1 89.6 90.2 91.1 94.5 97.1 94.6 94.8 101.5 104.8 107.2 108.4 108.7 108.9 108.6 107.8 107 105.8 108.8 111.6 113.2 114.2 115.3 114.8 112.8 110.3 106.2 102 97.6 91.5 87 85.3 93.2 99.7 104.2 106.6 110.1 110.1 106.7 92.9 107 111.2 112.1 112.5 111.6 113.8 117.7 120.7 124.3 127.6 130.6 133.8 136.2 138.6 139.6 139.1 136.9 133 125.7 121.9 126.9 134.4 137.9 140.9 142.8 145.1 148.1 151.4 153.4 155.8 157.5 159.6 162 163.5 164.6 166 167.2 167.1 167 166.4 164.8 162.6 160.4 156.1 150.5 146.2 150.3 154 158.4 161 163.8 165.4 166.9 166.4 165.4 163.6 161.5 158.1 153.1 149.2 144.4 140.2 141.1 144.2 151.8 154.6 158.5 163.2 168 172.4 175.9 179.6 183.1 186.1 188.3 190.2 190.7 191.4 190.9 190.3 189.8 189.7 189.8 189.4 187.6 185.3 181 176.4 171.3 166.4 171.3
-2.5 -2.5 -2.5 -2.5 -2.5 -2.5 -2.5 -2.5 -2.5 -2.5 -2.5 -2.5 -2.5 -2.5 -2.5 -2.5 -2.5 -2.5 -2.5 -2.5 -2.5 -2.5 -2.5 -2.5 -2.5 -2.5 -2.5 -2.5 -2.5 -2.5 -2.5 -2.5 -2.5 -2.5 -2.5 -2.5 -2.5 -2.5 -2.5 -2.5 -2.5 -2.5 -2.5 -2.5 -2.5 -2.5 -2.5 -2.5 -2.5 -2.5 -0.1 13.4 46.1 76.1 81.7 85.7 89.3 90.9 91.2 91.1 90 89.2 89.3 87.1 74.5 90.2 94.4 96.8 98 98.4 98.2 98.6 98.3 100.1 101.8 100.7 97.4 102.4 106.3 108.8 110.5 110.8 110.7 110.4 109.9 109 108.1 109.6 112 114.2 115.4 116.1 115.9 113.7 111.1 107.2 102.2 96.6 94.7 94.2 89.9 91 98.1 103.7 107.8 112.3 114.1 113.2 101.1 106.8 114 115.7 117.1 117.3 116.4 116.1 116.4 121.3 125.8 130.4 134.4 137.4 139.8 141.4 141.6 140.8 137.8 134.6 128.2 124.6 127.3 134.6 138.6 142.1 145.2 148.4 151.4 154.5 156.5 158.7 160.8 163 164.9 166.5 167.9 169.2 169.1 168.8 168.1 167 164.9 162.3 158.8 154.5 148.3 154.2 157.9 160.7 163.3 166.1 167.7 169 168.5 168.1 166.1 163.4 159.6 154.5 151.3 147.9 145.8 142.2 141.4 144.9 151.6 157 162.4 167.2 171.9 176.7 180.6 184.7 187.8 190.3 192.1 192.9 192.9 192.8 191.9 191.6 191.5 191.7 190.2 188.8 186.8 183.4 179.7 175.8 173 176.2
-2.5 -2.5 -2.5 -2.5 -2.5 -2.5 -2.5 -2.5 -2.5 -2.5 -2.5 -2.5 -2.5 -2.5 -2.5 -2.5 -2.5 -2.5 -2.5 -2.5 -2.5 -2.5 -2.5 -2.5 -2.5 -2.5 -2.5 -2.5 -2.5 -2.5 -2.5 -2.5 -2.5 -2.5 -2.5 -2.5 -2.5 -2.5 -2.5 -2.5 -2.5 -2.5 -2.5 -2.5 -2.5 -2.5 -2.5 -2.5 -2.5 -1.7 1.1 13.9 50.7 78.3 83.8 88 91.5 93.1 93.9 94 93.7 93.6 93.6 91.7 83.4 91.2 98 101.7 103.2 103.4 103 103.7 104.6 105.5 105.4 105.1 100.7 103.3 108.3 110.6 112.7 113.2 112.7 112.3 111.5 110.7 110.1 110.3 112.6 114.8 116.9 117.6 118 116.5 113 109.2 105 97.7 100.6 99 94.2 94 97.5 104.3 108.7 113.7 116.4 116.2 107.4 107.2 116.9 119.2 121 121.4 122.1 123.1 122.6 120.6 125.3 129.8 134 137.4 140.4 142.5 143.3 143.2 141.3 138.8 136.8 131.3 129.4 127.7 133.6 138.2 142.3 146.2 150 153.4 155.8 158.1 160.3 162.5 164.4 166.4 168.4 169.9 169.9 169.6 169.1 168.4 166.9 164.2 161.1 156.7 151 156.7 159.6 162.8 165.7 167.8 170 170.8 170.5 170.4 168.2 166.4 162.7 158.5 153.9 151 149.9 147 143.5 142.6 147.6 155.2 161.5 167.2 171.3 176.6 181.4 186 189.6 192 193.9 195 194.6 194.2 193.7 193.4 193.5 194.1 193.1 190.4 188.5 185.5 182.3 179.4 179.7 182
-2.5 -2.5 -2.5 -2.5 -2.5 -2.5 -2.5 -2.5 -2.5 -2.5 -2.5 -2.5 -2.5 -2.5 -2.5 -2.5 -2.5 -2.5 -2.5 -2.5 -2.5 -2.5 -2.5 -2.5 -2.5 -2.5 -2.5 -2.5 -2.5 -2.5 -2.5 -2.5 -2.5 -2.5 -2.5 -2.5 -2.5 -2.5 -2.5 -2.5 -2.5 -2.5 -2.5 -2.5 -2.5 -2.5 -2.5 -2.5 -2.5 -1.1 7 27.7 59.7 79.9 85.7 90.7 94.1 96.3 97.5 98.6 98.8 99.2 99.7 98 94.6 90.3 99.1 103.4 106.5 108.3 108.6 109.1 109.7 110.5 110.5 109.7 105.8 105.8 111.7 114.4 116.5 116 114.7 114.8 114.3 113.9 113.4 112.4 114.8 117.4 119 119.9 119.4 117.3 113.2 110.1 104.3 105.1 104.8 102 98.3 96 99.3 106.7 112 115.4 117.5 118 114 108.5 117.7 122.2 123.8 124.9 125.3 125.6 125.2 124.6 124.9 128.6 133 136.1 139.9 142.6 144.1 144.5 144.4 142.7 140.5 139.1 135.2 132.1 129.9 132.5 136.7 140.7 144.9 149.4 152 154.9 157.2 160.2 162.7 165.2 167.1 168.8 169.4 169.1 168.8 168 166.3 163.8 160.7 156.7 150.9 156.9 159.5 162 164.6 168.6 169.8 171.3 171.9 171.7 170.5 169.3 166.5 162.9 158.1 156.5 155.4 154 150.8 146.2 142.6 155 162.8 168.9 171.3 177.2 182.3 187 191.3 193.9 196.6 198 197.5 196.9 196.4 196.2 196 196.6 196.2 193.9 192.8 189.2 186 183.4 184.2 185
-2.5 -2.5 -2.5 -2.5 -2.5 -2.5 -2.5 -2.5 -2.5 -2.5 -2.5 -2.5 -2.5 -2.5 -2.5 -2.5 -2.5 -2.5 -2.5 -2.5 -2.5 -2.5 -2.5 -2.5 -2.5 -2.5 -2.5 -2.5 -2.5 -2.5 -2.5 -2.5 -2.5 -2.5 -2.5 -2.5 -2.5 -2.5 -2.5 -2.5 -2.5 -2.5 -2.5 -2.5 -2.5 -2.5 -2.5 -2.5 -2.5 -2.5 7.4 39.7 54.2 74.6 84.9 91.6 95.9 98.8 100.5 101.8 102.7 103.2 103.9 103.5 100.2 97.6 100 106.8 110.8 112.4 113.5 114.9 115.2 115.3 115.1 115.5 112.6 109.4 115.4 118.3 120 119.6 119.4 118.2 117.8 117.4 116.4 115 117.1 119.2 120.4 121.1 120 117.7 114.5 109.6 107.2 110 108.9 106.1 102.8 100.3 100.2 108.1 113.6 118.6 120.8 121.5 119.9 104 118.8 124.4 126.7 127.9 128.1 128.8 128.8 128.4 128.2 128.8 132.3 135.7 138.8 142.1 144.1 145.1 145.7 145.3 143.9 142.9 141.3 138.9 137.2 135.3 133.4 137.3 140.1 145.3 149 152 155.2 158.3 161.4 164 165.9 167.7 168.6 168.6 168.4 167.2 165.8 163.9 160.4 157 153.8 157.4 157.7 160.4 162.4 165 168.6 170.6 171.5 172.1 171.7 171.1 169.1 166.2 163.3 161.4 160 157.8 154.7 148.9 144.7 149.3 161 166.8 171.7 175.8 181.4 186.1 189.8 193.9 197.4 199.1 199.6 199.4 199.4 200.3 200 199.7 199.3 198.4 196.3 193.9 191.4 189 188.5 189
-2.5 -2.5 -2.5 -2.5 -2.5 -2.5 -2.5 -2.5 -2.5 -2.5 -2.5 -2.5 -2.5 -2.5 -2.5 -2.5 -2.5 -2.5 -2.5 -2.5 -2.5 -2.5 -2.5 -2.5 -2.5 -2.5 -2.5 -2.5 -2.5 -2.5 -2.5 -2.5 -2.5 -2.5 -2.5 -2.5 -2.5 -2.5 -2.5 -2.5 -2.5 -2.5 -2.5 -2.5 -2.5 -2.5 -0.1 1.5 3 19.8 32 25.9 42.3 63.2 80.3 90.1 96.2 100.1 102.9 105 107.3 107.8 108.1 108.4 107 104.4 98.1 108.1 113.6 116.1 118.4 119.6 120 120.2 120 118.4 116.3 113.5 118.1 120.8 122.1 122.3 122.1 121.5 120.7 120.2 119.1 118.2 119.6 120.8 122.2 122 120.5 117.8 115.2 111.2 112.2 114.5 113.2 110.8 108 105.1 103 108.7 115.4 120 122.7 123 122.5 108.3 117.9 125.7 128.6 130.1 130.7 131.1 131.3 131.4 131.5 131.6 133.5 135.8 138.8 141.5 143.5 145.5 146.5 146.6 146.7 146.5 145 144.5 143.5 142.4 140.6 138 137.9 140.8 144.5 147.8 151.8 155.3 159 162.1 164.1 166 167.3 167.9 167.7 167.3 166.4 164.7 162.4 160.1 157.1 158.2 158.9 159.3 161.5 164.2 167.2 169.4 170.8 172.1 172.7 172.3 171.7 170.5 168.7 167 165.7 163.3 160.4 154.3 148.3 144.4 156.8 163.8 169.9 173.1 177.5 183.4 187.9 192.4 196 198.2 199.2 199.3 199.1 199.5 199.2 199.3 198.9 198.1 196.7 195.3 194.3 192.3 191.3 192.2
-2.5 -2.5 -2.5 -2.5 -2.5 -2.5 -2.5 -2.5 -2.5 -2.5 -2.5 -2.5 -2.5 -2.5 -2.5 -2.5 -2.5 -2.5 -2.5 -2.5 -2.5 -2.5 -2.5 -2.5 -2.5 -2.5 -2.5 -2.5 -2.5 -2.5 -2.5 -2.5 -2.5 -2.5 -2.5 -2.5 -2.5 -2.5 -2.5 -2.5 -2.5 -2.5 -2.5 -2.5 -2.5 -1.9 0.1 2 2.7 14.4 48.8 40.2 41.5 53.8 69.9 83.3 92.4 98.7 103.7 107.4 110.4 111.8 112.1 111.8 110.9 109.8 108.2 110.4 115 118.2 120.1 121.4 121.4 121.7 121.8 120.9 118.2 114.5 119.8 122 123.2 123.8 123.6 123.2 122.7 122.1 121.5 120.9 122 122.8 123.5 123.7 122.3 121.1 118.2 115.1 116.4 119.1 118.8 118.4 115.6 112 105.7 106 115.4 120.5 124 125.6 125.4 119.5 112.1 124.7 129.1 131.4 131.8 131.7 132.4 132.6 133.4 133.9 134.9 136.5 139.1 141.1 143.3 145.1 146.8 147.7 148.6 148.8 148.5 147.9 147.7 147 145.7 143.9 141.4 140.3 140.5 143.2 148 152.6 156.4 159.4 162.2 164 165.9 166.8 167.5 167.5 167.4 165.7 163.5 161.5 161.4 162.4 162.8 162 162.6 164.7 166.6 168.8 170.7 172 173.3 173.4 173 172.8 172.1 171.2 170.3 168.7 166.1 160.8 153.3 148.4 151.6 160.7 166.9 170.4 176.5 182.4 187 191.1 194.1 196 197 196.9 196.9 197.1 197.1 197.1 197.3 196.9 196.6 195.8 194 193.3 193.3 193.6
-2.5 -2.5 -2.5 -2.5 -2.5 -2.5 -2.5 -2.5 -2.5 -2.5 -2.5 -2.5 -2.5 -2.5 -2.5 -2.5 -2.5 -2.5 -2.5 -2.5 -2.5 -2.5 -2.5 -2.5 -2.5 -2.5 -2.5 -2.5 -2.5 -2.5 -2.5 -2.5 -2.5 -2.5 -2.5 -2.5 -2.5 -2.5 -2.5 -2.5 -2.5 -2.5 -2.5 -2.5 -2.5 -2.5 -1 0.1 1 3.4 41.8 43.1 43.2 44 62.1 78.4 90.4 98.5 103.8 107.9 110.7 112.8 113.9 113.8 113.6 113.1 112.4 112.5 116.1 119.1 121.2 122.6 122.6 122.2 121.7 121.1 120.2 118.6 120.8 122.2 123.6 124.5 124.9 124.5 124.3 123.9 123.4 123.1 123 124.1 125.1 125.7 124.9 124 122.5 120 120 123.7 124.7 124.1 121.2 117.4 110.8 107.1 113.2 118.9 123.8 125.9 126.8 124.2 114.1 117.9 125.2 130.8 131.4 131.8 132.5 133.1 134.6 135.3 136.2 137.7 139.4 141.3 143 144.7 146.4 147.9 149.5 150.8 150.8 150.7 150.3 150.5 150 149 147.3 145.3 142.6 142.2 147 152.2 156.2 159.4 162.2 164.4 166.2 167.2 168.2 168.5 168.5 166.7 165.4 163.7 163.9 164.7 165.4 164.8 165.4 167.1 168.2 170.3 172 172.5 173.5 174 174.3 174.2 173.9 172.6 172 171.3 170 165.4 159.3 152.4 147.7 160 166.6 172.3 177 182.1 186.5 189.1 190.4 190.6 191.9 189.2 192.9 193.3 193.6 193.6 193.7 193.6 194.7 193.7 191.7 189.9 191.7 193.1
-2.5 -2.5 -2.5 -2.5 -2.5 -2.5 -2.5 -2.5 -2.5 -2.5 -2.5 -2.5 -2.5 -2.5 -2.5 -2.5 -2.5 -2.5 -2.5 -2.5 -2.5 -2.5 -2.5 -2.5 -2.5 -2.5 -2.5 -2.5 -2.5 -2.5 -2.5 -2.5 -2.5 -2.5 -2.5 -2.5 -2.5 -2.5 -2.5 -2.5 -2.5 -2.5 -2.5 -2.5 -2.5 -2.5 -2.5 -2.5 -0.5 3.7 46.5 46.9 43.9 44.5 53.9 71.6 85.5 95.7 103.4 107.9 110.6 112.7 114.5 115.4 115.8 115.5 115.4 116.3 118.1 120 121.1 121.8 122.4 122.1 121.7 121.6 121 121.1 121.5 123.2 124.2 125.1 125.7 125.7 125.6 125.5 124.8 124.9 125.2 126 126.8 127.6 127.1 126.8 126 125.1 125.7 128 128.8 128 125.9 123.1 118.5 111.9 110.6 119.4 123.8 127.2 128.4 127 123.6 117.4 115.8 123.1 127.9 128 129.7 133.2 135.3 136.5 137.3 138.3 139.7 141.2 142.7 144.3 146 148.1 149.1 151.1 151.9 152.9 153 153.3 153.4 152.8 152.2 150.6 149.3 146.1 146 153.7 156.7 159.7 162.2 164.5 166.1 167.7 168.8 169.5 169.5 168.6 167.4 165.7 166.5 167.2 167.5 167.5 166.7 168.1 169.6 171.3 172.8 173.5 174.1 174.3 174.5 174.5 174.2 173.5 172.1 171 169 165.2 158.3 155.2 151.1 152 163.7 170.4 175.9 180.1 182.9 184.6 184.3 183.9 184.1 183.8 183.8 185.5 186.9 186.4 187.9 187.8 187.7 187.6 186 184.5 185.9 187.7
-2.5 -2.5 -2.5 -2.5 -2.5 -2.5 -2.5 -2.5 -2.5 -2.5 -2.5 -2.5 -2.5 -2.5 -2.5 -2.5 -2.5 -2.5 -2.5 -2.5 -2.5 -2.5 -2.5 -2.5 -2.5 -2.5 -2.5 -2.5 -2.5 -2.5 -2.5 -2.5 -2.5 -2.5 -2.5 -2.5 -2.5 -2.5 -2.5 -2.5 -2.5 -2.5 -2.5 -2.5 -2.5 -2.5 -2.5 -2.5 -2.5 6.2 47 57.8 45.1 44.7 50 67.5 81.4 93.2 101.3 106.5 109.8 112.5 114.2 116 117.9 118.3 118.6 118.9 119.7 120.9 121.6 121.8 122.3 122.1 122 122 121.8 122.4 122.9 123.3 124.3 125.3 125.9 125.9 126 126.1 126 126.2 126.3 127.5 128.2 129 129.4 129 129.1 128.3 128.8 130.2 131.2 130.7 129.7 128 125.1 115.3 115.2 121.4 126.1 129.3 130.6 130.3 128.5 126.9 123.8 120.2 121.7 124 127.7 132.6 135.5 136.9 137.3 137.8 138.4 141.2 142.6 144.2 146.6 148.3 149.8 151.4 153 154.2 154.9 155.5 156.2 156.2 155.8 155.2 154.1 151.1 147.7 150.9 155.1 159.3 161.3 163.5 165.9 167.5 168.8 169.4 169.8 169.1 169.4 168.3 169.4 170.3 171.3 172.2 171.3 171.7 170.4 172.6 173.8 173.4 173.6 173.9 173.9 173.8 173.7 173.2 171.2 169.3 166.6 162 155.8 160.7 159.9 153 153.1 165.1 171.5 175.7 177.8 179.3 179 178.7 177.9 176.2 176 176.5 177.4 178.5 180.2 180.4 180.8 181.8 180.9 180.4 181.8 182.8
-2.5 -2.5 -2.5 -2.5 -2.5 -2.5 -2.5 -2.5 -2.5 -2.5 -2.5 -2.5 -2.5 -2.5 -2.5 -2.5 -2.5 -2.5 -2.5 -2.5 -2.5 -2.5 -2.5 -2.5 -2.5 -2.5 -2.5 -2.5 -2.5 -2.5 -2.5 -2.5 -2.5 -2.5 -2.5 -2.5 -2.5 -2.5 -2.5 -2.5 -2.5 -2.5 -2.5 -2.5 -2.5 -1.1 -0.3 0.8 1.7 15.2 58.4 76.5 50.8 45.9 45.9 60.3 73.9 85 95.8 103.4 108.1 111.3 113.7 115.5 117.2 118.7 120 120.5 120.8 121.6 121.9 122 122.1 121.8 121.7 121.6 121.5 122.3 122.6 123.6 124.6 125.6 126 126.6 126.8 126.9 127.2 127.1 127.5 128.5 129.4 129.9 130.8 131.2 132.1 131.2 132.1 132.6 133.1 132.8 132.5 130.8 128.3 121 116.9 120.4 126.4 130.2 132 132.1 131.5 130.6 129.7 127.3 128.1 131 132 131.2 132.8 135.1 135.2 135.9 137.1 139.7 142.8 144.9 146.6 148.2 150.1 151.8 153.5 155.2 156.1 156.8 157.9 158.4 158.3 157.7 156.9 154.5 150.5 148.3 152.4 158.5 160.6 163.3 165.8 167.1 168.4 169 169.6 169.8 170.1 170.2 171.2 172.2 173 173.8 173.5 174 173.5 174.5 175.3 174.3 173.9 172.7 172.6 172.6 172.4 171.7 170.4 168.1 163 158.6 162.2 165.2 164.7 159.4 153.4 152.1 160.6 165 167.9 170.7 172.9 172.7 171.1 170.2 171.8 171.5 171.3 172.2 172.9 175.2 175.8 176.9 177.3 177.4 178.4 179.4
-2.5 -2.5 -2.5 -2.5 -2.5 -2.5 -2.5 -2.5 -2.5 -2.5 -2.5 -2.5 -2.5 -2.5 -2.5 -2.5 -2.5 -2.5 -2.5 -2.5 -2.5 -2.5 -2.5 -2.5 -2.5 -2.5 -2.5 -2.5 -2.5 -2.5 -2.5 -2.5 -2.5 -2.5 -2.5 -2.5 -2.5 -2.5 -2.5 -2.5 -2.5 -2.5 -2.5 -2.5 -1 0.2 1.5 2.8 17.1 48.2 76.3 92.1 70.4 49.7 46.4 48.4 63 76.1 87.7 95.2 102.3 107.8 110.7 114.2 116.6 117.9 119.3 120.2 120.9 121.6 122 122 121.5 121.1 120.9 120.1 120.3 121.6 122.9 123.9 124.8 125.7 126.6 127 126.9 126.7 127 127.3 128 129 130.4 130.9 131.4 132.5 133.5 133.2 133.7 133.9 134.3 134.4 133.8 132.9 130.2 125.1 119.8 120.1 126.2 130.3 132.7 133.1 131.8 130.8 130.8 131.1 132.4 133.8 135.1 136.3 136.9 137.7 137.7 138.5 138.1 139.1 142.6 144.8 146.3 148.4 150.5 152.2 153.9 155.7 157.3 158.4 159.4 160.3 160.5 160.3 159.4 158.1 155.9 151.5 150.8 157.4 161.1 164 166 167.1 168.2 168.7 169.2 170 170.3 171.2 172.2 173.2 174.8 175.5 176.2 176.7 176.6 176.2 176.7 175.4 173.9 171 170.2 169.8 168.9 167.9 166.8 165.1 162.3 161 166.8 168.6 168.9 166.2 161.1 157.3 156.1 155.4 160.7 161.1 165.7 166.8 166 164.4 166.2 168.8 168 172.8 172.7 170.7 171.6 172.7 173.2 173.6 175.6 176.5
-2.5 -2.5 -2.5 -2.5 -2.5 -2.5 -2.5 -2.5 -2.5 -2.5 -2.5 -2.5 -2.5 -2.5 -2.5 -2.5 -2.5 -2.5 -2.5 -2.5 -2.5 -2.5 -2.5 -2.5 -2.5 -2.5 -2.5 -2.5 -2.5 -2.5 -2.5 -2.5 -2.5 -2.5 -2.5 -2.5 -2.5 -2.5 -2.5 -2.5 -2.5 -2.5 -2.5 -2.5 0 1.2 2.4 33.3 59.9 85 93.9 97.1 85.4 58.4 49.8 48.2 48.7 52.3 66.3 75.8 80.7 87.2 95.5 103.8 111.7 114.7 117.2 118.8 119.9 121.1 121.7 121.7 121 120.3 119.4 118.5 119 120.1 121.5 122.8 124.1 125.1 125.8 125.9 125.9 125.9 126.4 127.1 128 129.4 130.9 132.1 132.8 133.7 133.8 135 135.2 135.3 135.6 135.2 134.7 133 130.5 127.5 121.2 119.8 124.3 128.8 131.3 131.8 131.4 131 131.5 132.8 134.1 135.3 136.6 137.6 138.3 138.9 140 140.9 140.5 139.8 142 144.4 145.7 148.5 150.8 152.5 154.2 155.8 157.2 158.8 160.5 161.5 162.2 162.5 162 160.9 158.8 156 152.3 154.9 159 162.5 164.6 165.9 166.4 167.3 168.5 169.7 170.7 171.9 173 174.2 175.8 177.1 178 178.8 179.5 179.5 178 176.6 174.4 171.4 168.9 166.8 166.5 166.6 162.9 162.1 161.9 165.3 169.8 171.7 172 170.3 167.2 164.3 162.5 162.8 162 159.4 159.7 159.4 160.2 161.2 164 165.1 164.7 166 167.5 168.9 168.4 169.6 170.4 171.7 172.9 173.5
-2.5 -2.5 -2.5 -2.5 -2.5 -2.5 -2.5 -2.5 -2.5 -2.5 -2.5 -2.5 -2.5 -2.5 -2.5 -2.5 -2.5 -2.5 -2.5 -2.5 -2.5 -2.5 -2.5 -2.5 -2.5 -2.5 -2.5 -2.5 -2.5 -2.5 -2.5 -2.5 -2.5 -2.5 -2.5 -2.5 -2.5 -2.5 -2.5 -2.5 -2.5 -2.5 -2.5 -0.9 0.7 2.3 2.8 53.5 85.2 94.6 100.7 89.5 68.9 53.8 64.6 57.2 51.6 50.3 51.4 52.7 53.7 61 70.3 80.6 89.2 105.2 113.6 115.5 117.5 119.3 120.4 120.3 119.5 118.1 116.1 115.3 115.5 117.6 119.4 121.2 122.7 123.7 124.3 124.2 124 124 124.5 126 128.2 129.7 131.2 133 134 134.8 135.2 135.2 136.4 136.4 136.2 135.7 135.1 134 132.2 130.8 127.6 122.3 120.9 124.3 126.9 128.4 128.6 130.1 132 133.6 134.9 136.1 137.9 138.8 139.5 140.4 141.9 142.8 143 142.6 142.2 143.9 146.2 148.9 150.6 152.5 154.3 155.8 157.6 159.1 160.7 162.3 163.5 164.1 164 163.5 161.7 159.7 156.6 155.5 156.8 159.6 160.9 161.1 162.5 164 165.6 167.9 170.5 172 173.5 175.8 176.6 178.7 180.3 180.9 181.3 181.5 180.7 179.4 179.4 175.1 171.9 167.9 167 167.5 165.3 164.2 166 168.3 172.1 174.7 174.9 174.2 172.9 170.6 168.8 167.6 166.4 164.3 162.2 162.9 164.9 165.8 166.2 165 165.4 167.8 169.6 171.5 171.9 172.5 173.5 174.8 175.6 176.2
-2.5 -2.5 -2.5 -2.5 -2.5 -2.5 -2.5 -2.5 -2.5 -2.5 -2.5 -2.5 -2.5 -2.5 -2.5 -2.5 -2.5 -2.5 -2.5 -2.5 -2.5 -2.5 -2.5 -2.5 -2.5 -2.5 -2.5 -2.5 -2.5 -2.5 -2.5 -2.5 -2.5 -2.5 -2.5 -2.5 -2.5 -2.5 -2.5 -2.5 -2.5 -2.5 -2.5 1.2 2.5 23 47.9 74.6 98.1 98.7 91 72 58.8 66 84.4 82.5 68.1 60.7 58.3 58.7 57.4 55.1 55.9 59.8 72.7 92.9 105 108.9 112.5 115.5 116.7 117.2 116.6 114.8 112.6 111.2 112.1 114 116.3 118.7 120.6 121.7 121.9 121.6 121.4 121.6 123.6 125.7 128 129.9 131.9 134.3 135.1 135.8 136.3 136.2 136.4 136.9 136.5 136 135.4 134.8 132.9 132.5 131.5 128.3 123.2 121.5 123.7 126.5 129 131 132.4 134.3 135.7 136.9 139 139.9 140.7 142 143.2 144.1 144.5 144.1 143.9 144.6 147.1 149.6 151.6 153.5 155.3 156.9 158.6 160.1 161.6 163.2 164 164.8 165 164.5 163.6 162.3 160.2 157.8 157.2 158.5 160.4 162.9 164.7 166.1 167.4 167.6 168.8 171.3 173.9 176 177.7 180 182.1 182.7 183.1 183.2 182.7 181.4 180.1 179.6 175.9 170.2 170.5 171.6 170 167.3 171 172.7 175.9 178.9 180.9 181 180 177.9 175.5 174 172.7 169.4 165.1 166.7 167.7 168 168.3 167.7 168.2 168.7 171.5 174.5 175.9 176.3 177.2 178.2 178.5 178.6
-2.5 -2.5 -2.5 -2.5 -2.5 -2.5 -2.5 -2.5 -2.5 -2.5 -2.5 -2.5 -2.5 -2.5 -2.5 -2.5 -2.5 -2.5 -2.5 -2.5 -2.5 -2.5 -2.5 -2.5 -2.5 -2.5 -2.5 -2.5 -2.5 -2.5 -2.5 -2.5 -2.5 -2.5 -2.5 -2.5 -2.5 -2.5 -2.5 -2.5 -2.5 0.2 1.7 7.9 34.3 61.3 81.2 96.1 99.8 92.2 74.7 63.6 70.1 85.8 95.5 97.3 94.9 85.2 76.5 71.9 71.5 69.3 65.9 61.1 60.4 71.5 86 98.4 105.3 111 113.5 114 113.1 110.6 105.8 103.4 106.4 110.5 113.5 116.4 118.3 119.4 119.9 119.1 118.8 120.5 123.1 125.5 128.4 130.8 133.8 135 135.7 136.2 136.7 137.1 137.4 137.2 136.8 136.3 135.7 135.2 134.4 133.2 131.8 129.9 127.1 125.2 125.7 129.2 130.7 132.8 134.1 135.5 136.8 138 139.4 140.7 142 143.2 144.4 145.1 145.5 145.4 145.9 145.9 147 149.4 151.8 153.8 155.8 157.8 159.6 161.1 162.5 164.1 164.8 165.7 165.8 164.9 164.3 163.3 162.1 160.5 159.1 159.9 161.9 163.9 166.1 168.1 168.8 169.6 170.5 172.3 174.8 176.9 179.3 181.6 183.5 184.5 184.5 184.7 184.3 182.1 180.6 180.5 177.7 174.3 175.8 176.3 175.9 173.2 175.9 178.3 180.4 183.4 185.6 187.2 187.2 185.6 184 181.1 178.7 173.6 169.6 170.5 171.9 171.4 171.2 170.4 170 169.5 174.1 177.1 179.1 181.1 182.1 183.1 183.1 183.2
-2.5 -2.5 -2.5 -2.5 -2.5 -2.5 -2.5 -2.5 -2.5 -2.5 -2.5 -2.5 -2.5 -2.5 -2.5 -2.5 -2.5 -2.5 -2.5 -2.5 -2.5 -2.5 -2.5 -2.5 -2.5 -2.5 -2.5 -2.5 -2.5 -2.5 -2.5 -2.5 -2.5 -2.5 -2.5 -2.5 -2.5 -2.5 -2.5 -2.5 -2.5 0.9 6.9 35.5 60.8 80.1 83.9 103.8 99.5 85.5 68.2 73.3 88.9 96.8 99.9 101.9 102.6 100.1 96.1 91 85.6 80.1 79.8 71 59.1 62.5 72.7 90.5 101.5 107.8 111 112.1 111.6 109.6 104.8 98.3 106.8 110.3 112.8 114.9 116.2 117.1 118 117.3 117 120 122.8 125.2 128.6 132 133.7 134.8 135.5 136.2 137.1 137.6 137.8 137.4 137 136.5 136.2 136.1 135.4 133.5 132.9 131.9 130.9 129.1 128.7 130.4 132.9 134.2 135.6 137 138.4 139.6 140.9 141.9 143.1 144.3 145.4 146 146.4 146.5 146.9 147.9 148.1 150.1 152.4 154.5 156.8 158.9 160.4 161.9 163.4 164.9 166.2 166.9 167.4 166.9 166.1 164.7 163.4 162.1 160.9 161.1 162.7 164.9 167 169.1 169.8 171.1 172.2 174.5 176.9 178.2 180.6 183 185.1 186.1 187.1 187.7 187.3 185.6 181.6 181.6 178.9 178 179.3 179.6 179.5 176.4 180 182 185.1 187.6 189.3 191.8 191.4 191.3 190.4 188.1 183.3 177.2 176.3 177.1 177.2 176 175.6 174.7 172.1 171 174.6 179.4 182.9 185 186.8 187.9 188.2 187.9
-2.5 -2.5 -2.5 -2.5 -2.5 -2.5 -2.5 -2.5 -2.5 -2.5 -2.5 -2.5 -2.5 -2.5 -2.5 -2.5 -2.5 -2.5 -2.5 -2.5 -2.5 -2.5 -2.5 -2.5 -2.5 -2.5 -2.5 -2.5 -2.5 -2.5 -2.5 -2.5 -2.5 -2.5 -2.5 -2.5 -2.5 -2.5 -2.5 -2.5 -2.5 -1.2 0.8 3.7 27.2 50.2 62.8 87.4 92.4 71.6 79.4 91.2 98.5 101.5 103.3 104.8 105.4 105 103.2 100.3 96.9 92.1 89.7 86.1 69.9 60.3 64.2 74.3 93 103 107.3 109 109.1 106.3 98.6 93.9 104.6 108.5 110 112.9 113.6 114.7 115.7 114.5 116 118.4 121.5 125 128.7 130.6 131.9 133.4 134.9 136.3 137.4 138.2 138 137.6 137.3 137.2 137 136.9 136.1 134.5 133.5 132.4 131.4 131.4 131.1 132 133.6 135.1 136.6 138.3 139.8 141 142.6 144.2 145.4 146.5 146.6 147 147.3 148.1 149 149.7 150.1 151.4 153.4 155.6 158.1 159.7 161.2 162.7 164.2 165.4 166.7 168.1 168.7 169 169 168.1 166.2 164 162.9 162.4 163.7 165.8 168 170.1 171.6 172.6 173.7 175.1 176.9 179.6 182.1 184.5 186.8 188.2 189.1 189.9 190.3 189.1 183.6 184.8 182.7 181.7 182.3 182.8 182.7 182 184 186.1 188.5 190.4 192.3 193.7 194.1 193.9 192.7 190.2 186.7 181.4 181.6 183 182.9 182.8 182.1 178.9 175.6 173.6 174.8 181 184.9 188 189.7 191 191.6 191.3
-2.5 -2.5 -2.5 -2.5 -2.5 -2.5 -2.5 -2.5 -2.5 -2.5 -2.5 -2.5 -2.5 -2.5 -2.5 -2.5 -2.5 -2.5 -2.5 -2.5 -2.5 -2.5 -2.5 -2.5 -2.5 -2.5 -2.5 -2.5 -2.5 -2.5 -2.5 -2.5 -2.5 -2.5 -2.5 -2.5 -2.5 -2.5 -2.5 -2.5 -2.5 -1.5 0.4 2 4.6 23 58.3 100.8 85.7 82.9 95.5 98.9 101.9 103.9 105.7 107.3 107.7 107.8 106.8 105.1 102.6 98.6 97.7 94.4 81.1 60.8 61.7 66.2 78.2 94.9 100.9 103.5 104.1 95.2 82 91 94.4 96.1 103 105 107 107.9 110.1 113.3 116.6 119.6 121.9 125.3 127.8 130.4 132.2 134.2 135.5 136.8 137.8 138.7 138.5 138.4 137.9 137.3 136.9 136.4 135.4 134.8 134.1 133.5 133.4 133.4 133.4 134.1 135.2 136.7 138.3 139.9 141.5 143.4 145.2 146.4 147.6 148.5 148.8 148.9 149.9 150 150.6 151.8 152.6 153.5 155.7 157.1 159.1 160.7 162.2 163.4 164.8 166 167.2 168.6 170.1 170.5 170.9 170.7 169.8 168.2 165.5 164.2 166.1 167.7 169.7 172 173.5 175 176.5 177.2 178.5 181.1 183.7 186.6 188.9 190.4 191.7 192.6 191.9 190.7 189.2 187.8 186.5 185.7 185.8 186.1 186.2 186 187.5 189.1 191.4 193.3 195.2 196.8 197 196.2 195 193.1 189.8 187.2 187.6 188.6 188.7 188.4 187.8 185.7 179.9 177.5 177.2 179.4 186.4 190 192.6 193.9 194.9 194.8
-2.5 -2.5 -2.5 -2.5 -2.5 -2.5 -2.5 -2.5 -2.5 -2.5 -2.5 -2.5 -2.5 -2.5 -2.5 -2.5 -2.5 -2.5 -2.5 -2.5 -2.5 -2.5 -2.5 -2.5 -2.5 -2.5 -2.5 -2.5 -2.5 -2.5 -2.5 -2.5 -2.5 -2.5 -2.5 -2.5 -2.5 -2.5 -2.5 -2.5 -2.5 -2.5 -0.5 0.4 1.8 4.6 74.4 96.7 81 88.9 96.9 100.6 103.8 106.3 108.1 109.7 110 110.2 109.7 108.3 106.2 104.1 103.1 100.6 94 73.5 61 62.8 67.5 78.7 93.4 98.7 90.6 76.6 91 100.8 103.7 105.5 106.9 108.3 109.4 110.4 113.5 115.6 118.2 120.8 123.6 126.4 128.5 131.3 133.2 135 135.8 136.7 137.7 139.1 139.3 139.3 138.8 138.2 138.2 137.9 137.1 136.5 135.8 135.3 135.1 135.3 135.7 136.4 137.1 138.5 140.2 142.2 144 145.7 147.2 148 149.2 150.2 150.9 150.9 151 151.3 151.7 152.7 153.9 155.4 157 158 159.5 160.8 162.2 163.7 165 166.4 167.7 169.1 170.9 171.9 172.4 172.5 171.6 170.7 169.2 167.5 170.3 171.9 174.1 175.2 177.3 178.5 179.5 179.8 180.8 182.6 185 187.8 190.6 192.5 193.7 194.4 193.7 193.1 192.3 190.6 189.8 189.4 190 190.5 190.4 190.1 191 192.3 194.1 196 197.6 198.7 199.6 199.3 198.4 196.6 194.2 193.4 193.5 193.5 193.1 192.4 191 189.1 183.7 181.3 183.5 183.9 184.8 190.8 195 196.6 198 198.6
-2.5 -2.5 -2.5 -2.5 -2.5 -2.5 -2.5 -2.5 -2.5 -2.5 -2.5 -2.5 -2.5 -2.5 -2.5 -2.5 -2.5 -2.5 -2.5 -2.5 -2.5 -2.5 -2.5 -2.5 -2.5 -2.5 -2.5 -2.5 -2.5 -2.5 -2.5 -2.5 -2.5 -2.5 -2.5 -2.5 -2.5 -2.5 -2.5 -2.5 -2.5 -2.5 -2.5 -2.5 0.4 2.4 49.7 93.1 84.1 85.9 94.6 99.6 104.2 107.6 110.1 111.5 112.4 112.8 112.1 110.9 109.2 107.8 106.2 104.6 100.3 84.3 66.9 62.2 63.9 68.4 78.8 87.9 87.7 77.8 95.4 103.5 106.5 108.6 109.4 110.4 111.7 113 115.1 117.1 119.2 121.6 124.3 127.5 129.8 132.1 132.4 134.9 135.5 136.7 138 139.3 139.8 140.1 140 140.1 140 140.3 139.9 139.9 139.3 138.8 138.5 138.4 138.3 138.8 139.6 140.9 142.9 144.4 145.8 147.3 148.8 149.7 150.6 151.5 152.4 152.3 152 151.6 152.4 153.5 154.4 156.4 157.9 159.7 160.6 162 162.7 164 165.3 166.6 168.1 170 171.9 173.1 174.2 174.2 173.7 172.8 171.9 170.7 171.5 173.6 175.9 178.1 179.6 181.3 182.8 183.4 183.7 184.5 186.8 188.9 191.4 193.9 194.9 195.5 196.3 195.9 195.1 194 193.3 193.3 193 193.3 193.1 193 193.8 194.9 196.1 197.9 199.2 200.2 200.9 201.3 201.4 200.5 198.9 197.7 197.7 197.6 196.6 195.3 193.9 191.4 185.4 187.4 189.4 189 187.9 190.9 195.9 198.4 200 200.4
-2.5 -2.5 -2.5 -2.5 -2.5 -2.5 -2.5 -2.5 -2.5 -2.5 -2.5 -2.5 -2.5 -2.5 -2.5 -2.5 -2.5 -2.5 -2.5 -2.5 -2.5 -2.5 -2.5 -2.5 -2.5 -2.5 -2.5 -2.5 -2.5 -2.5 -2.5 -2.5 -2.5 -2.5 -2.5 -2.5 -2.5 -2.5 -2.5 -2.5 -2.5 -2.5 -2.5 -2.5 0.1 2.3 40.5 93.1 93.7 89.5 91.7 99.6 103.9 107.7 110.5 113.2 114.2 114.4 114 113.1 112 110.9 109.8 107.8 103.3 95.6 82.2 70.7 65.4 64.8 66.3 68.7 68.6 72.7 83 93.7 105 108.1 109.3 110.7 112.2 114 115.9 117.9 120 122.6 125.9 128.5 130.7 132.5 132.9 134 135.2 135.5 136.6 137.7 138.2 139.4 140.4 140.9 140.7 141.1 141.5 141.5 141.4 141.2 141 140.8 141 141.3 142.1 142.9 143.8 145.3 146.7 147.2 149.1 150.1 150.6 151.6 152.3 151.9 151.6 151.4 152.4 154 155 156.9 158.8 160.5 161.8 163.1 164.6 166.2 166.9 167.2 168.7 171.1 172.9 174.4 175.7 175.7 175 174.2 173.4 173.2 173.5 175.4 177.3 179.3 181.2 182.6 184.8 185.2 185.9 186.8 188.8 190.9 193.1 195.2 196.3 197 197.6 198.3 198 197.8 197.4 197.3 197.1 196.8 196 195.3 196.7 197.7 198.2 199.2 200.4 201.6 202 202.3 202.5 202.2 201.9 201.6 201.1 200.4 200.2 198.4 196.5 193.4 189.2 192.5 193.6 193.9 193.1 190.8 196.7 199.7 201.4 201.8
-2.5 -2.5 -2.5 -2.5 -2.5 -2.5 -2.5 -2.5 -2.5 -2.5 -2.5 -2.5 -2.5 -2.5 -2.5 -2.5 -2.5 -2.5 -2.5 -2.5 -2.5 -2.5 -2.5 -2.5 -2.5 -2.5 -2.5 -2.5 -2.5 -2.5 -2.5 -2.5 -2.5 -2.5 -2.5 -2.5 -2.5 -2.5 -2.5 -2.5 -2.5 -2.5 -2.5 -2.5 0.6 8.2 70.9 97.9 98.5 96.7 91.4 92.9 99.7 105.6 110.1 113.6 115.1 115.6 115.8 114.8 113.7 112.7 111.9 110 107.4 104.1 95.3 78.9 71.1 70.1 70.4 70.8 72.8 74.3 70.6 74.6 88.8 101.6 105.8 108.7 110.8 112.8 115.2 117.6 120.2 123.2 125.8 127.4 129.5 131.2 132.4 132.6 133.7 134.1 134.5 135.6 136.5 137.6 138.9 139.5 140.1 140.6 140.8 141 141.6 141.4 141.5 141.8 142.3 142.5 143 143.9 144.7 145 146.2 146.5 147.6 149.4 150.3 151 150.9 150.6 150.7 150.7 151.4 152.8 155.2 157 159.2 161 163.2 165.2 167.2 168.8 170.4 171.1 173 174.2 175.7 176.4 177 177.1 176.4 175.8 174.8 174.2 174.6 176.1 178.3 180.3 182.3 184.2 186.2 187.6 188.2 188.9 190.6 192.7 194.6 196.6 197.7 198.5 199.1 199.7 200.1 200.3 200.3 200.2 199.6 199 197.9 198.1 197.4 198.1 198.3 199.2 200.5 201.3 201.9 202.4 202.9 203.5 203.5 203.2 202.7 202 201.2 199.6 198 194.4 193 196 196.9 197.2 196.8 194.1 195.8 199.1 200.8 202.3
-2.5 -2.5 -2.5 -2.5 -2.5 -2.5 -2.5 -2.5 -2.5 -2.5 -2.5 -2.5 -2.5 -2.5 -2.5 -2.5 -2.5 -2.5 -2.5 -2.5 -2.5 -2.5 -2.5 -2.5 -2.5 -2.5 -2.5 -2.5 -2.5 -2.5 -2.5 -2.5 -2.5 -2.5 -2.5 -2.5 -2.5 -2.5 -2.5 -2.5 -2.5 -2.5 -2.5 0.9 2.8 53.8 85.7 101.9 102.1 101 98.2 94.5 100.4 106 110.5 114.5 116.9 117.1 117.1 116.4 115.4 114.6 113.9 111.4 108.5 104 92.2 84.7 86.2 82.4 79.2 80.9 82.8 83.3 81.6 71.3 73.3 86.3 97.2 103.9 106.9 108.3 111.9 115.3 119.9 123.1 124.9 126.5 128.3 129.3 130.1 130.7 131.1 131.1 132 132.8 134.4 135.8 137.2 138.2 139.5 140.7 141.2 141.5 142.3 142.2 142.3 142.6 143.1 143.3 143.6 144.4 145 145 145.1 146 147 148.1 148.6 149 148.9 148.2 148.2 148.7 149.9 151.5 153.5 155.5 158 160.8 163.9 166.4 168.8 171.1 172.9 174.3 175.6 177 178.3 179.4 179.8 179 178.3 177.5 176.4 175.8 176.1 176.9 178.8 180 182.2 184.6 186.9 189 189.8 191.5 193.2 194 195.9 197.5 198.4 199.4 200.1 200.8 201.6 201.5 202 201.6 201.2 200 198.7 197.9 198.2 197.9 197.6 198.1 199.3 200.4 201.3 201.8 202.3 203.3 203.8 203.9 203.5 202.8 201.9 200.8 198.8 195.7 197.4 199.3 200.1 199.9 199.6 198.1 198.2 199.1 201.4 203.1
-2.5 -2.5 -2.5 -2.5 -2.5 -2.5 -2.5 -2.5 -2.5 -2.5 -2.5 -2.5 -2.5 -2.5 -2.5 -2.5 -2.5 -2.5 -2.5 -2.5 -2.5 -2.5 -2.5 -2.5 -2.5 -2.5 -2.5 -2.5 -2.5 -2.5 -2.5 -2.5 -2.5 -2.5 -2.5 -2.5 -2.5 -2.5 -2.5 -2.5 -2.5 -2.5 2.4 4.7 48.9 88.5 105.6 105.3 105.4 104 103 100.7 100.4 107 111.4 114.5 116.8 117.5 117.6 117.5 116.8 115.5 114 110.3 107.2 97 95.7 100.3 96.9 93.6 90.8 91.2 91.7 93.5 94.1 91.3 76.3 75.7 82.8 97.2 100.7 101.6 104.4 111.6 115.9 119.4 121.3 123.3 124.2 124.9 125.2 126.5 127.6 127.7 126.6 127.8 129.3 132.4 135.6 137.3 139.1 140.2 141.3 142.2 143 143.1 143.1 143.3 143.6 143.7 144 144.8 145.3 145 144.7 145.3 146.2 146.6 146.6 146.3 145.5 145.1 145.9 147 148.1 149.8 152.3 154.8 156.7 159.8 163.3 166.5 169.2 172.2 174.6 176.9 178.6 179.8 181.1 182 182.4 182.2 181.9 180.9 179 178.4 177.9 178 179.1 181 182.6 185.2 187.3 189.4 191.1 193.1 194.6 195.9 197 197.8 198.6 199.7 200.8 201.2 202 201.8 201.6 201.2 200.5 199.8 198.4 197.6 197.5 197.2 196.8 196.9 198.1 199.2 200.3 201.2 201.9 203.2 203.9 204 203.7 203.7 202.5 201.2 198.9 197.8 199.7 201.3 201.7 201.9 201.9 201.5 200.9 201.8 203.2 204.9
-2.5 -2.5 -2.5 -2.5 -2.5 -2.5 -2.5 -2.5 -2.5 -2.5 -2.5 -2.5 -2.5 -2.5 -2.5 -2.5 -2.5 -2.5 -2.5 -2.5 -2.5 -2.5 -2.5 -2.5 -2.5 -2.5 -2.5 -2.5 -2.5 -2.5 -2.5 -2.5 -2.5 -2.5 -2.5 -2.5 -2.5 -2.5 -2.5 -2.5 -2.5 -2.5 -0.3 2 31.9 68.4 108.7 108.6 108.2 106.8 105.4 101.1 100.9 106.3 109.9 113 115.9 117.4 118.3 118.1 117 115.9 113.3 109.4 106.2 106.1 106.9 106.3 104.5 101.4 98.4 97.4 96.8 98.5 99.4 99.1 93.9 74.6 77 79.2 84.6 87.5 90.8 97.4 102.9 107.6 112.7 117.4 120.4 121.4 122.3 122.8 123.4 122.7 121.7 124.5 128.5 131.5 134.2 135.7 136.3 138 139.8 141.7 143.4 144 144.2 144.6 144.6 144.7 144.7 145.2 145.7 145 144.4 144.3 143.9 142.4 143.2 143.2 142.4 142 143.3 145.5 146.7 148.2 150.5 152.7 155 158.7 162.2 165.3 168.4 171.6 174.2 176.4 179 180.4 181.4 182.5 183.5 183.8 183.5 182.8 181.5 180.3 180.1 180 181.2 182.5 183.6 185.7 187.6 189.4 191 192.8 194.5 196 197.1 198.1 198.9 199.9 200.4 200.6 201.1 200.9 200.5 199.9 198.8 197.7 196.9 196.3 196.1 196.2 196.1 195.9 197 198 198.9 200.6 201.5 202.9 203.9 204.3 204.4 204.4 203.4 201.8 199.9 200 201.4 203 203.5 204 204.2 204.2 203.7 204.5 205.3 206.7
-2.5 -2.5 -2.5 -2.5 -2.5 -2.5 -2.5 -2.5 -2.5 -2.5 -2.5 -2.5 -2.5 -2.5 -2.5 -2.5 -2.5 -2.5 -2.5 -2.5 -2.5 -2.5 -2.5 -2.5 -2.5 -2.5 -2.5 -2.5 -2.5 -2.5 -2.5 -2.5 -2.5 -2.5 -2.5 -2.5 -2.5 -2.5 -2.5 -2.5 -2.5 -2.5 -1.7 0.5 2.8 50.3 91.8 110.8 110.1 108.2 105.7 103.7 101.1 104.4 108.5 112 114.2 116.6 117.8 117.9 117.5 116.8 113.8 112.3 111 111.4 111.7 111 108.9 106.2 103.4 101.6 101.3 102.7 102.9 102.7 96 74.6 82.3 90 95.3 93.4 90 83.5 90.5 95.1 99.3 102.4 103.7 106.2 104 104.6 107.2 111.8 115.4 121.8 125.3 128.2 130.4 132 132.6 134.3 137 139.7 141.5 142.9 144.5 144.9 145.6 145.6 145.7 145.8 145.6 144.9 144.2 142.1 140.7 140.7 137.3 138.4 140.9 142.9 143.6 144.1 145.7 147.1 148.7 150.7 153.7 156.6 159.7 163.1 166.7 169.9 172.5 175.2 177.8 179.9 181.6 182.8 184.3 184.4 184.1 183.8 182.7 182 181.8 181.8 182.3 183.6 184.8 185.9 186.9 188.5 190.1 191.4 192.8 195.4 197.3 198.1 199.1 199.9 200.2 200 199.9 199.7 199.3 198.8 197.8 196.9 195.7 195 194.5 194.5 194.6 195.1 195.8 196.9 197.5 199.2 200.6 201.6 203.8 204.9 205.1 205.2 204.3 202.9 202.3 201.8 203.3 204.7 205.6 205.9 206.1 206.3 206.4 207.2 208.1 208.7
-2.5 -2.5 -2.5 -2.5 -2.5 -2.5 -2.5 -2.5 -2.5 -2.5 -2.5 -2.5 -2.5 -2.5 -2.5 -2.5 -2.5 -2.5 -2.5 -2.5 -2.5 -2.5 -2.5 -2.5 -2.5 -2.5 -2.5 -2.5 -2.5 -2.5 -2.5 -2.5 -2.5 -2.5 -2.5 -2.5 -2.5 -2.5 -2.5 -2.5 -2.5 -2.5 -2.5 -0.9 1.6 13.1 72.2 106.7 111.6 110 109 107.6 105.4 103 107 110.4 113.7 116.1 117.5 118.5 117.9 117.2 115.1 114.1 114.3 114.3 115.3 114.7 113 110.9 109.5 108.5 106.3 105.3 104.9 97.1 89.1 79.1 78.2 90.3 101.3 104.6 104.9 104.1 99.3 96.4 98.5 93.9 95.7 99.2 101.2 100.5 97.5 98.4 107.2 114.7 120.9 124.1 126.3 127.8 128.8 130.8 133 135.5 138 139.5 140.9 142.9 143.9 144.7 145 145.6 145.2 144.9 142.4 141.5 138.7 136.1 139.2 141.5 142.8 144.2 144.8 145.6 146.7 147.2 148.2 150.2 152.6 155.8 157.8 161.4 164.9 168.4 171.3 174.2 176.6 178.7 180.6 182.4 183.6 184.4 184.7 184.3 183.8 183.5 183.3 183.1 182.4 182.6 183.7 184.8 185.1 186.4 187.8 189.2 190.6 192.8 195.4 197.4 198.8 199.6 199.7 199 198.7 198.4 198.2 197.8 196.9 195.9 194.8 193.7 193.3 193 192.9 193.9 194.6 195.7 195.8 198.4 200.4 201.8 203.7 205.3 205.5 205.8 205.3 204.3 203.8 203.8 205.4 207.1 207.9 208.4 208.7 208.9 209.3 210 210.8 211.1
-2.5 -2.5 -2.5 -2.5 -2.5 -2.5 -2.5 -2.5 -2.5 -2.5 -2.5 -2.5 -2.5 -2.5 -2.5 -2.5 -2.5 -2.5 -2.5 -2.5 -2.5 -2.5 -2.5 -2.5 -2.5 -2.5 -2.5 -2.5 -2.5 -2.5 -2.5 -2.5 -2.5 -2.5 -2.5 -2.5 -2.5 -2.5 -2.5 -2.5 -2.5 -2.5 -2.5 -1.5 0.6 2.8 50.1 91.3 113.5 112.5 111.6 110.1 108.7 107.5 108.6 111.7 114.5 117.2 118.6 119.6 119.7 119.1 118.1 117.3 117.5 118 118.6 118.3 117 115.5 113.3 110.7 108.7 107 95.9 88.1 83 91 87.9 79.9 97.2 105.7 107.3 109 108.7 108 107.8 106.9 106.4 108 110.6 111.4 109.9 108.3 100.6 102.4 109.6 117.9 121.6 123.3 124 126.3 128.8 131.4 133.7 135 136.3 138.3 140.1 141.2 142.7 143.3 143.3 142.5 141 140.2 136.4 135.6 141.9 144.6 146.5 147.2 147 147.5 148.2 149.1 149.1 150.2 152.3 154.4 157.3 160.1 163.3 166.6 169.8 172.9 175.3 177.6 179.5 181 182.4 183.2 183.7 183.8 184 184.3 183.9 184 183.3 182.4 182.7 183.3 183.7 184.4 185.5 186.6 188 190.6 192.8 194.7 196.8 198 198.4 198 198.4 198.1 197.8 197.1 196.2 195 193.8 192.9 192.1 192 192.4 193.5 194.5 195.4 196.3 197.6 199.9 201.9 203.7 205.2 206 206.1 206.6 205.8 205.6 206.5 208.1 209.6 210.3 210.9 211.6 211.9 212.3 212.8 213.5 213.4
-2.5 -2.5 -2.5 -2.5 -2.5 -2.5 -2.5 -2.5 -2.5 -2.5 -2.5 -2.5 -2.5 -2.5 -2.5 -2.5 -2.5 -2.5 -2.5 -2.5 -2.5 -2.5 -2.5 -2.5 -2.5 -2.5 -2.5 -2.5 -2.5 -2.5 -2.5 -2.5 -2.5 -2.5 -2.5 -2.5 -2.5 -2.5 -2.5 -2.5 -2.5 -2.5 -2.5 -0.6 1.2 13.8 54.7 93.3 116.2 115.6 114.8 113.6 111.6 110 109.1 113.1 116.5 119.6 121.2 121.7 122.5 122.3 122.3 121.9 122.4 122.5 121.8 120.5 119.1 116.6 112.8 109.7 106.7 102.6 88.3 86.8 92.4 99.2 100.9 86.5 82.8 100.9 107.1 110.7 111.9 112 111.6 112.8 113.3 114.1 115.9 117 117.3 117.2 116.4 112 106.7 105.9 103.7 105.6 110 117.8 123.4 126.9 129.3 131 132.5 134 135.7 137 138.7 139.7 138.8 137.3 134.7 129.5 132.5 138.5 143.8 146.5 148.7 150.5 150.7 150.9 150.9 151.1 150.7 151.1 152.5 154.2 156.8 159.6 162.5 165.3 168.3 171.4 174 175.9 178.3 179.7 181.1 181.9 182.6 182.9 183.1 183.3 183 182.8 182.8 183 182.1 181.8 181.7 182.8 183.7 185 186.3 187.8 190 192.6 194.4 196 196.3 196.3 197.7 198 198 197.2 196.3 195 193.7 192.3 191.5 191.3 192.5 193.8 194.6 195.5 196.4 197.8 199.4 202.5 204 205.4 206.7 207.5 208.1 208.6 208.9 209.7 210.6 211.8 212.8 213.4 214 214.5 215 215.5 215.6 215.5
-2.5 -2.5 -2.5 -2.5 -2.5 -2.5 -2.5 -2.5 -2.5 -2.5 -2.5 -2.5 -2.5 -2.5 -2.5 -2.5 -2.5 -2.5 -2.5 -2.5 -2.5 -2.5 -2.5 -2.5 -2.5 -2.5 -2.5 -2.5 -2.5 -2.5 -2.5 -2.5 -2.5 -2.5 -2.5 -2.5 -2.5 -2.5 -2.5 -2.5 -2.5 -2.5 -0.9 0.7 2.5 38.7 83.3 119.3 118.8 118.2 117.6 117 114.7 112.5 112 115.3 119 121.8 123.6 124.5 125.4 125.7 125.8 125 125.2 124.4 123.7 122.4 119.9 116.6 113.5 109.5 103.7 92.4 89.9 94 99.1 105.1 106 99.4 85 88.2 106.1 111.5 113.8 115 116.5 117.5 118.6 119.5 120.2 121.4 122 122.1 121.2 119.3 117.3 117.4 116.1 114.1 116.3 111.2 109.2 115.5 119 121.8 127.4 130.2 131.6 132.5 134 135.3 134.5 128.7 126.8 133.9 137.9 141.4 145.1 146.7 149.1 150.4 151.5 151.7 152.1 152.4 152.4 152.2 153.6 155 156.7 159 161.3 164.1 167.1 170.1 172.5 175 176.9 178.3 179.7 180.6 181 181.9 182 181.8 181.6 181.4 181.4 181.6 180.4 179.9 180 180.7 181.1 182.5 183.8 186.1 187.6 189.9 191.2 193 193.8 195 196.3 196.9 197.1 197.1 196.3 195.4 194.3 192.8 191.4 191.2 193 194.1 195.1 196.7 197.8 199.1 200.8 203.5 205.1 206.6 207.8 208.6 209.3 210 210.9 211.8 212.2 213.9 214.9 215.7 215.9 216.2 216.4 216.5 216.5 216.6
-2.5 -2.5 -2.5 -2.5 -2.5 -2.5 -2.5 -2.5 -2.5 -2.5 -2.5 -2.5 -2.5 -2.5 -2.5 -2.5 -2.5 -2.5 -2.5 -2.5 -2.5 -2.5 -2.5 -2.5 -2.5 -2.5 -2.5 -2.5 -2.5 -2.5 -2.5 -2.5 -2.5 -2.5 -2.5 -2.5 -2.5 -2.5 -2.5 -2.5 -2.5 -1.9 0 1.9 29.5 61.5 100 122.5 122.3 122.1 120.5 119.6 119 116.5 116.6 118.2 121.5 124 126.2 127.2 128.1 128.6 128.8 128.1 127.3 126.4 125.5 124 121.6 119.3 116.1 112.3 107.9 91.4 93.7 100.1 104.1 108.9 110 107 97.7 86.4 94 107.2 112.6 115.3 117.7 119.7 121.2 122.4 123.5 124.1 125 125.4 125.1 124.4 124.8 125.8 126.6 127.2 127.4 126.8 122.6 120.6 115.9 113 113.1 114.9 117 117.3 118 118.6 121.2 122.6 131.7 135.6 139.6 142.6 145.2 146.7 148.4 149.7 150.9 151.6 152 152.4 152.7 153.1 154.1 155.7 157.6 159.4 161.1 163 165.8 167.9 170 172.9 174.6 176.5 178.2 179.2 179.7 180.6 180.6 180.3 180 179.9 180 179.4 178.8 178.1 178.4 178.2 178.9 179.8 181.6 183.5 185.8 188.2 189.6 190.7 191.8 192.9 194.2 195.6 196.2 196.3 195.4 194.5 193.6 192.1 189.9 191.4 193.7 195.4 196.9 198.3 199.7 201.5 202.2 204.8 206.3 207.4 208.4 209.3 210 210.8 211.9 212.9 213.7 215.2 216.1 216.9 216.6 216.4 216.1 216.5 216.3 216.6
-2.5 -2.5 -2.5 -2.5 -2.5 -2.5 -2.5 -2.5 -2.5 -2.5 -2.5 -2.5 -2.5 -2.5 -2.5 -2.5 -2.5 -2.5 -2.5 -2.5 -2.5 -2.5 -2.5 -2.5 -2.5 -2.5 -2.5 -2.5 -2.5 -2.5 -2.5 -2.5 -2.5 -2.5 -2.5 -2.5 -2.5 -2.5 -2.5 -2.5 -2.5 -1.7 0 1.5 2.6 49.6 85.8 125.3 126.1 125.5 125.1 123.5 122.5 121 120.3 121.7 124.2 125.8 127.8 128.7 129.6 130.3 130.5 130.2 129.6 128.4 127.3 125 123.5 121.4 116.4 112.6 103.3 93.3 97.9 104.1 109.1 113 113.2 110.8 106.6 96.5 87.5 97.5 107.8 113.5 117.7 120.3 122.6 123.8 124.9 125.9 127.1 128.1 128.4 128.5 129.2 129.9 130.7 130.9 131.3 131 129.9 128.4 126.3 123.4 120 116.9 117.3 120.1 122.5 123.1 124.4 122.4 121.3 127.5 134.7 138.9 142.6 145.1 147.3 148.9 149.8 150.6 151.3 151.7 152.2 152.6 153.7 155.4 157.6 159.2 161.1 162.9 164.5 166.3 168 170.8 172.2 173.6 175 176.5 177.1 178.7 178.7 178.5 178.4 177.9 178.4 178.1 177.1 176.3 175.7 175.7 176.1 177.6 179.6 181.7 184.1 186.1 187.5 188.6 189.6 191 192.5 193.6 194.9 195.4 194.6 194.4 193 190.3 189.4 192.3 194.7 196.9 198.7 200.1 201.6 203.6 204.5 206 207 208 209 209.9 210.5 211 211.8 212.5 213.1 214.8 215.7 216.1 216 215.4 214.8 215.1 216 216.3
-2.5 -2.5 -2.5 -2.5 -2.5 -2.5 -2.5 -2.5 -2.5 -2.5 -2.5 -2.5 -2.5 -2.5 -2.5 -2.5 -2.5 -2.5 -2.5 -2.5 -2.5 -2.5 -2.5 -2.5 -2.5 -2.5 -2.5 -2.5 -2.5 -2.5 -2.5 -2.5 -2.5 -2.5 -2.5 -2.5 -2.5 -2.5 -2.5 -2.5 -2.5 -2.5 -1 0.1 1.9 11.8 65.7 115 128.4 128.5 128.5 127.6 126.2 124.7 124.9 125.2 126.1 127.1 128.9 129.6 130.6 131.6 131.7 131.3 130.7 129.6 127.9 125 122.1 119.5 114.4 99.7 98.2 98.2 100.1 109.2 114.2 117.3 117.5 115.8 110.8 105.1 97.2 89.1 103.7 112.5 117.9 122.1 124.3 125.8 127.8 128.7 130 131.3 132 132.9 133.5 134 134.2 134.2 134.7 134.2 133.2 131.9 129.7 127.7 126.4 123.9 120.7 125 127.6 130 131.5 131.5 128.7 126.2 124 129 136.2 140.4 143.7 145.7 147.5 148.5 149.7 150.3 150.8 151.6 152.7 154.2 156.7 158.4 160.4 162.3 163.8 164.8 166.6 167.5 169.2 170 171.4 172.2 174.1 175.5 176.1 175.8 175.1 175.8 176.8 177.1 176.2 174.3 171.9 173.7 175.9 178.1 179.3 180.6 182.3 183.8 185.4 186.7 188.2 189.8 191.1 192.3 193.4 194.4 194.4 194.2 193.3 192.4 192 193.3 194.8 197 199.3 201.6 203.6 204.7 205.8 206.8 207.5 208.1 208.7 209.3 209.9 210.6 211.2 211.9 212.5 214 215 214.9 214.3 213.3 213 213.3 214.4 215.6
-2.5 -2.5 -2.5 -2.5 -2.5 -2.5 -2.5 -2.5 -2.5 -2.5 -2.5 -2.5 -2.5 -2.5 -2.5 -2.5 -2.5 -2.5 -2.5 -2.5 -2.5 -2.5 -2.5 -2.5 -2.5 -2.5 -2.5 -2.5 -2.5 -2.5 -2.5 -2.5 -2.5 -2.5 -2.5 -2.5 -2.5 -2.5 -2.5 -2.5 -2.5 -2.5 -2.5 -0.3 1.8 19.9 73.3 130.5 130.3 130.3 130.3 129.3 128 127.4 130 128.3 128 128.7 130 130.6 131.5 132.1 131.7 131.5 130.5 129 127.1 123.9 120.2 111.3 101 103.1 106.6 108.7 105.9 112 118.3 120.9 122.5 121.4 116.5 110.5 107.1 99.7 92.3 109.6 117 121.6 124.2 127.1 129.4 131.3 133 134.2 134.9 135.8 136.6 137.2 137.5 137.7 137.6 137.2 136.2 134.4 133.6 131.3 129 124.7 126.9 126.7 128.7 132.2 133.8 135.3 135.4 134.3 132.3 129.9 127 133.1 139.3 141.9 144.1 145.6 146.9 148 148.7 149.4 151.2 152.7 154.4 156.8 158.9 160.9 162.1 162.8 163.2 164.2 164.8 166.1 167.8 167.9 170.4 172.1 173.1 172.1 171.4 173.9 174.8 174.6 173.6 172 172.7 175.2 176.4 178.8 181 182.6 183.7 184.6 185.5 186.5 187.9 188.9 189.9 191 192.3 192.9 193.3 192.7 191.9 187.5 191.6 193.8 195.9 198 200 202 204 205.3 206.4 207 207.5 207.9 208.3 208.5 209.1 209.7 210.3 211 211.6 212.3 212.7 212.5 211.9 211.2 211.1 212.1 213.2 214.1
-2.5 -2.5 -2.5 -2.5 -2.5 -2.5 -2.5 -2.5 -2.5 -2.5 -2.5 -2.5 -2.5 -2.5 -2.5 -2.5 -2.5 -2.5 -2.5 -2.5 -2.5 -2.5 -2.5 -2.5 -2.5 -2.5 -2.5 -2.5 -2.5 -2.5 -2.5 -2.5 -2.5 -2.5 -2.5 -2.5 -2.5 -2.5 -2.5 -2.5 -2.5 -2.5 -2.5 -1.6 1.2 14.4 117.9 132 131.7 131.7 131.5 130.6 129.8 129.6 130.1 130.5 130.2 130.9 131.3 131.7 132 132 131.5 131.1 129.9 128.3 125.3 121.9 110.5 102.8 108.4 112.5 114.1 115.2 114.1 112.8 120.3 123.8 125.2 124.5 122.8 118.6 111.9 107.9 96.9 99.3 113.1 119.3 123.7 126.7 129.3 131.8 133.8 135.6 137 137.4 138.6 139.4 139.7 140.3 140.2 139.8 138.7 136.9 135.7 133.4 130.8 128 129.8 131.4 130.3 132.7 135.8 137.8 138.3 138.3 138 136.4 133.7 130.6 130.8 136.4 140.3 142 143.4 144.3 145.2 146.3 148.4 150 151.6 153.9 156.1 158.3 158.6 158.3 158.8 158.6 159 161 161 162.8 165.6 167.6 165.4 166.8 165.5 167.9 170.1 168.4 168.9 165 166.5 174.8 176.5 178.6 180.6 182.9 184.5 185.1 185.7 187.1 187.9 188.5 189.3 190.7 191 191.7 191.7 190.6 189 186.4 191 193.4 195.7 197.8 199.9 202 203.4 204.5 205.6 206.6 207.4 207.4 207.2 207.2 207.5 207.9 208.3 208.7 209.1 209.8 210.2 209.9 209.3 208 208.2 209.6 210.9 211.4
-2.5 -2.5 -2.5 -2.5 -2.5 -2.5 -2.5 -2.5 -2.5 -2.5 -2.5 -2.5 -2.5 -2.5 -2.5 -2.5 -2.5 -2.5 -2.5 -2.5 -2.5 -2.5 -2.5 -2.5 -2.5 -2.5 -2.5 -2.5 -2.5 -2.5 -2.5 -2.5 -2.5 -2.5 -2.5 -2.5 -2.5 -2.5 -2.5 -2.5 -2.5 -2.5 -2.5 0.8 2.7 73.9 130.1 132.9 133.3 133.2 133.2 132.6 132.1 131.9 132.1 132.1 132.4 132.5 132.4 132.8 132.7 132 131.5 129.8 127.7 124.5 119.9 115.4 104.2 111.8 116.6 119.1 120.3 120.3 119 116.3 122 125.4 127.4 126.6 125.3 122.4 117.4 112.4 105.8 95.2 107.4 116.3 120.8 125.5 128.5 131.3 133.9 136.2 137.3 139.2 140 141.2 142.3 141.9 141.7 141.5 141 139.4 137.7 135.8 132.8 130.9 131.9 133.6 134.5 134.1 135.8 138.3 140.2 141 141.1 140.6 139.1 136.2 133.4 130.6 133.7 136.2 139.1 140 140.5 143 145.1 146.9 148.1 150.4 153.3 155.1 152.3 148.9 153.8 154.7 152.6 155.4 154.1 153.6 155.2 158.6 159.4 162.6 167.1 167.5 166.1 168.2 168.8 169.1 165.9 173.5 176 178.3 180.4 182.3 184 185.3 186.2 187 187.7 188.2 188.8 189.7 190.1 190.3 190 189 187 185.5 189.4 191.7 194.1 197.2 199.4 201.5 202.8 203.8 204.8 205.4 206.2 206 206.2 205.6 205.2 205 205.5 206 206.5 206.8 206.7 206.1 205.3 204.6 203.2 205.4 206.4 206.7
-2.5 -2.5 -2.5 -2.5 -2.5 -2.5 -2.5 -2.5 -2.5 -2.5 -2.5 -2.5 -2.5 -2.5 -2.5 -2.5 -2.5 -2.5 -2.5 -2.5 -2.5 -2.5 -2.5 -2.5 -2.5 -2.5 -2.5 -2.5 -2.5 -2.5 -2.5 -2.5 -2.5 -2.5 -2.5 -2.5 -2.5 -2.5 -2.5 -2.5 -2.5 -2.5 0.6 21.5 27.8 65 114.3 132.9 134.4 135 134.9 134.6 134.6 134.4 134.3 134.3 134.1 134.1 134.1 133.8 133.6 132.7 131.9 130 127.2 124.5 119.9 109.1 109.6 115.7 120.1 122.3 123.7 123.3 121 119.2 124 127.6 128.4 129.1 128.2 125.8 122.2 118.3 111.6 100.4 105.1 115 120.8 125.5 128.5 131.5 134.1 136.5 138.3 140.2 142 142.8 144.3 144.2 143.8 143.4 142.6 141.5 140.2 138.6 136.5 135.4 136.4 136.4 137.2 137.6 137.4 139.4 141.7 142.7 143.3 143.1 142 139.9 138.1 136.4 133.5 133.7 133.6 135.2 135.3 138.2 139.4 141.6 143.4 145.8 147.9 150.3 150.1 150.4 153 155.4 156.7 157.9 159.1 160.3 162.1 167.8 168.7 170.4 169.6 170.6 171.1 172.5 172.4 171.6 169.8 171.4 173.5 175.6 177.7 180.8 183.4 184.8 185.8 186.7 187.5 187.8 187.7 187.5 187.3 187.6 187.5 186.8 185.3 185.7 187.9 190.1 192.5 195.8 198.8 200.8 202.2 203.1 203.6 204 204.1 203.8 203.2 202.5 202 202 202.5 203 203.3 202.9 202.8 202.2 199.9 197.7 198.9 201.7 202.1 201.9
-2.5 -2.5 -2.5 -2.5 -2.5 -2.5 -2.5 -2.5 -2.5 -2.5 -2.5 -2.5 -2.5 -2.5 -2.5 -2.5 -2.5 -2.5 -2.5 -2.5 -2.5 -2.5 -2.5 -2.5 -2.5 -2.5 -2.5 -2.5 -2.5 -2.5 -2.5 -2.5 -2.5 -2.5 -2.5 -2.5 -2.5 -2.5 -2.5 -2.5 -2.5 -2.5 -2.5 0.2 2.8 34.5 65.8 134.4 134.8 135.9 136.4 136.8 137.2 137.1 136.9 136.5 136.2 136.1 135.8 135.3 134.7 134 133.1 131.7 129.2 127.7 123.3 110 114.4 119.9 123.6 125.4 126.9 126 122.6 123.7 127.2 129.3 130.1 130.6 130.9 130 128.2 124.8 115.7 104.3 101.2 110.9 116.9 122.6 126.7 130.3 133 135.9 138.3 140.4 142 143.3 145 145.4 145.4 144.8 143.9 142.8 141.6 140.5 139.6 139 138.9 139.7 140.1 140.5 140.9 141.8 143.7 144.6 145.4 145.5 144.5 142.9 141 139 137.7 137.6 137.8 137.7 137.8 138.8 138.7 138.9 140.4 142.6 144.2 146.1 147.4 151.7 155.4 158.4 160.7 162.4 164.2 164.6 165.4 170.1 170.5 170 170.3 174 176 176.3 175.6 173.9 172.3 172.6 172.5 174.3 177 180.2 183.1 184.2 185.2 185.7 186.2 186.7 186 185.8 185.8 185.6 184.5 183.3 183.5 185.6 187.9 190.1 192.7 195.2 197.8 200 199.5 199.5 201.2 202.3 201.8 201.2 200.7 199.9 199 198.7 199.1 199.5 199.8 199.2 198.9 198.2 196.8 194.7 197.5 197.7 197.8 198.4
-2.5 -2.5 -2.5 -2.5 -2.5 -2.5 -2.5 -2.5 -2.5 -2.5 -2.5 -2.5 -2.5 -2.5 -2.5 -2.5 -2.5 -2.5 -2.5 -2.5 -2.5 -2.5 -2.5 -2.5 -2.5 -2.5 -2.5 -2.5 -2.5 -2.5 -2.5 -2.5 -2.5 -2.5 -2.5 -2.5 -2.5 -2.5 -2.5 -2.5 -2.5 -2.5 -2.5 -0.5 1.8 6.7 76.5 133.8 135.7 137.4 138.3 138.6 139.3 139.5 139.7 139.5 138.3 137.4 137.5 136.8 136 134.4 133 130.3 128.1 126 113.1 114.9 121.5 125.6 126.9 128.4 129.4 128.7 125.6 126.9 130.3 131.2 131.9 132.6 132.8 132.2 130.8 128.3 121.5 107 99.6 113.8 119 122.4 125 128.1 132 134.3 137.2 139.1 141.3 143.8 144.6 145.1 146.1 146.1 145.1 144 142.8 142.2 141.7 141.2 141.1 141.8 142.5 143.3 144.2 145.1 146 146.9 148.1 148.1 147.5 146.1 144 142 140 140.6 139.4 140.8 141.8 141.9 142.2 142 143.4 145.6 148.1 150.6 152 152.8 155.6 160.2 163.5 166.1 168.5 170 169.7 171.8 173.2 175.2 178.2 179.7 180.1 179.8 178.6 176.7 174.8 172.9 172.8 174.6 177.8 180.8 183.4 184.6 185.7 185.6 185.4 185 184.4 184.1 184 183.3 182.6 181.6 184 185.9 187.8 190.3 192.8 195 197.2 198.9 196.4 199.1 200.2 201.7 200.3 198.6 198.2 197.5 196.3 196 195.7 195.6 195.8 195.6 194.8 193.8 192.5 191.3 192.9 190.7 192.6 193.9
-2.5 -2.5 -2.5 -2.5 -2.5 -2.5 -2.5 -2.5 -2.5 -2.5 -2.5 -2.5 -2.5 -2.5 -2.5 -2.5 -2.5 -2.5 -2.5 -2.5 -2.5 -2.5 -2.5 -2.5 -2.5 -2.5 -2.5 -2.5 -2.5 -2.5 -2.5 -2.5 -2.5 -2.5 -2.5 -2.5 -2.5 -2.5 -2.5 -2.5 -2.5 -2.5 -2.5 -0.5 1.7 7.1 125.8 129.9 133.9 136.7 139.8 140.7 141.4 141.5 141.6 141.1 140.2 138.8 136.6 134.3 132.8 131.4 129.8 128.1 124.8 118.2 116.4 122.9 126.7 129.5 130.3 131.6 132 130.6 127.6 128.2 132.1 133.8 134.8 135.2 135 134.3 132.8 130.5 125.2 113 99.2 115.1 122.1 125.8 128.6 131.3 133.8 136.2 137.7 139.5 140.2 142.6 143.7 145.1 146.5 146.7 146.6 146.8 145.4 145.3 144.9 144.8 144.6 145.3 145.8 146.7 147.1 147.7 148.7 149.6 150.5 151 150.5 149.2 147.2 145.2 143.5 142.6 142.5 143.3 143.9 144.6 145.2 145.4 144.6 147 149.9 152.4 154.3 156 157.3 160.9 165.6 168.1 171.4 173.3 173.8 175.1 176.6 180.4 182.7 184.5 184.1 183.3 181.4 179.5 176.6 175.5 174.5 176 177.7 180.9 183.7 185 185.7 184.6 185.4 184.3 183.3 183.2 182.3 181.9 181.4 181.7 183.3 185.2 187.2 189.5 191.7 193.9 196 198 198.5 198.7 200 201 198.8 196.8 195.6 195 193.7 193.3 193.3 193.1 192.7 191.7 190.8 189.5 188.9 187.9 187.7 187.8 187.6 188.5
-2.5 -2.5 -2.5 -2.5 -2.5 -2.5 -2.5 -2.5 -2.5 -2.5 -2.5 -2.5 -2.5 -2.5 -2.5 -2.5 -2.5 -2.5 -2.5 -2.5 -2.5 -2.5 -2.5 -2.5 -2.5 -2.5 -2.5 -2.5 -2.5 -2.5 -2.5 -2.5 -2.5 -2.5 -2.5 -2.5 -2.5 -2.5 -2.5 -2.5 -2.5 -2.5 -2.3 -0.6 1.7 6.5 112.7 130 134.9 138 141.1 142.6 143.4 143.6 143.3 142.6 141.5 139.3 137.1 136.5 136.1 134.8 134 132.6 130.5 120.8 122 128.2 130.9 132.8 133.8 134.7 134.5 132.9 130 130 133.9 135.9 137.1 137.5 137.1 135.5 133.8 131.4 126.6 118.6 104.3 110.2 121.1 126.5 131 133.7 136 138.2 139.5 140.7 141.5 143.3 145 145.5 146.1 147.5 146.8 147.8 147.7 147.6 147.6 147.4 148.4 149 149.1 150.3 151 151.3 151.9 152.6 153.3 153.8 153.5 152.4 150.4 148.4 146.5 145.9 145.8 146.1 147.2 148.2 148.5 148.1 147.7 149.7 153.6 155.4 157.6 160.2 162.1 163.4 167 171.5 175.5 178 178.7 180.5 184 184.8 187.6 188.7 188.5 187.5 185.1 183 180.8 179.9 179 179.4 178.5 181.4 184.7 185.8 185.7 186.2 184.2 183.3 182.5 181.8 181.3 180.9 180.4 180.8 182.1 183.7 185.5 188 190.5 192.7 194.7 196.8 198.6 198.5 200.4 200.9 198.9 195.2 193.9 192.5 191.7 191.1 190.9 190.2 189.7 188.1 186.4 185.2 185.4 184.2 184.1 183.9 184.5 184.8
-2.5 -2.5 -2.5 -2.5 -2.5 -2.5 -2.5 -2.5 -2.5 -2.5 -2.5 -2.5 -2.5 -2.5 -2.5 -2.5 -2.5 -2.5 -2.5 -2.5 -2.5 -2.5 -2.5 -2.5 -2.5 -2.5 -2.5 -2.5 -2.5 -2.5 -2.5 -2.5 -2.5 -2.5 -2.5 -2.5 -2.5 -2.5 -2.5 -2.5 -2.5 -2.5 -1.1 0.4 1.8 8.4 119.2 133.5 137.5 140.6 143.1 144.5 145.1 145.4 144.8 144 142.9 141.1 140 139.4 138.9 138.3 137.4 135.4 131.6 120.8 128.1 132.3 134.1 135.5 135.9 136.9 136.2 134.7 131.8 132.8 135.8 137.9 139.2 139.3 138.4 136.4 132.4 127.3 119.8 115.4 111.2 103.9 120.1 127.8 132.3 135.3 137.7 139.5 141.3 142.4 143.3 144.1 144.4 145.3 146.6 147.2 147.9 148.3 149 149.3 149.5 149.8 150.7 151.8 152.6 153.8 154.9 155.6 156.6 157.5 158.2 158.1 157.4 155.8 153.3 151.1 149.8 149.2 149.4 150.4 151.5 152.9 153.6 153.7 152.4 152.4 156.3 159.3 161.7 164.3 167.5 169.8 170.4 176 179.4 182.4 184.2 187.2 189.4 191 192.1 193.6 193 192 189.8 188 186.4 184.8 183.4 182.1 181.6 183.1 186.1 186.2 186.3 186 184.6 183.3 182.1 181.7 180.9 179.3 179.4 180.2 180.8 182.2 184.6 187 189.5 192.4 194.8 197.3 199 199.5 199 197.1 196.6 194.6 192.5 191 190 189.2 188.8 187.9 186.8 185.8 183.3 182.2 182.2 182.2 181.8 181.8 181.5 181.8
-2.5 -2.5 -2.5 -2.5 -2.5 -2.5 -2.5 -2.5 -2.5 -2.5 -2.5 -2.5 -2.5 -2.5 -2.5 -2.5 -2.5 -2.5 -2.5 -2.5 -2.5 -2.5 -2.5 -2.5 -2.5 -2.5 -2.5 -2.5 -2.5 -2.5 -2.5 -2.5 -2.5 -2.5 -2.5 -2.5 -2.5 -2.5 -2.5 -2.5 -2.5 -2.5 -1.8 -0.1 1.7 37.3 106.8 136.6 139.5 142.1 144.3 145.7 146.4 146.8 146.3 145.4 144.3 143.3 142.5 142 141.4 140.3 138.4 134.5 128.8 124.1 132.5 135.6 137.2 138 138.4 138.7 137.2 135.8 134.3 135.6 138.5 140.2 141.2 141.5 140.4 138.3 135.4 132.5 129 126.5 118.9 108.7 113.1 126.7 132.4 135.7 138.2 139.9 141.2 142.3 143.4 142.9 143.8 144.4 144.8 145.8 146.9 147.8 149 150.5 151.6 152.8 154.1 155.3 156.2 157.2 158.2 159.9 160.7 161.1 161.3 161.6 160.8 159.5 157.6 155.1 153.8 153.1 154.5 155.3 156.1 157.7 158.7 158.7 157.4 155.5 160.1 163.8 166.9 169.5 172.6 175.4 177.3 179.4 183.3 186.5 189.5 191.6 193.8 196.1 197.2 198 197.4 196.4 195.4 194 192.7 191.9 190.1 188.4 186.4 186.6 187.8 187.9 187.6 186.1 184.6 183.2 181.9 180.4 179.7 178.5 178.8 178.3 178.4 181.3 183.8 186.9 189.9 192.7 195.4 197.9 199.2 200.2 199.2 197.5 196.1 194.2 192.5 190.6 189.2 188 187 186.1 184.9 184.8 185.3 185.5 184.9 184.8 183.7 182.4 180.1 179.3
-2.5 -2.5 -2.5 -2.5 -2.5 -2.5 -2.5 -2.5 -2.5 -2.5 -2.5 -2.5 -2.5 -2.5 -2.5 -2.5 -2.5 -2.5 -2.5 -2.5 -2.5 -2.5 -2.5 -2.5 -2.5 -2.5 -2.5 -2.5 -2.5 -2.5 -2.5 -2.5 -2.5 -2.5 -2.5 -2.5 -2.5 -2.5 -2.5 -2.5 -2.5 -2.5 -2.5 -0.7 1.8 10.6 94.9 134.9 139.2 142.6 144.9 146.4 147.4 148.3 147.9 147.7 146.6 145.7 144.7 143.5 142.5 141.4 139.4 134.7 127 128 133.4 136.7 138.3 139.4 140.2 140.5 139.3 137.9 136.8 138.1 141.5 143 143.9 144.5 143.2 141.5 138.7 136.8 134.1 130.1 124.7 114.7 105.6 120.1 128.4 133.5 136 137.2 138 138.5 137.5 138.1 138.1 139.4 140 141.8 143 144.7 146.8 149.6 151.4 153.2 155.2 156.8 158.3 159.4 160.7 162 163.1 163.7 164.2 164.6 164 162.9 161.8 161 159.8 158.8 159.7 160.1 160.7 162.4 163.7 163.5 162.4 160.3 164.2 167.9 171.3 174.4 177.6 180.3 182.3 184.5 187.3 190.3 193.4 195.9 197.9 199.6 200.4 201.3 201.2 200.7 199.9 199 198.1 196.4 194.6 192.9 191.2 189.3 190 189.3 188.2 186.8 184.6 183.2 182 180.3 179 178 178.2 177 176.9 180.4 183.5 186.5 189.7 192.8 195.6 198.4 199.3 200.1 199.4 198.2 196.3 194.2 192.7 191 189.2 188.2 187 186.7 186.3 186.5 187.1 188 188.1 187.8 187 185.2 183.8 183
-2.5 -2.5 -2.5 -2.5 -2.5 -2.5 -2.5 -2.5 -2.5 -2.5 -2.5 -2.5 -2.5 -2.5 -2.5 -2.5 -2.5 -2.5 -2.5 -2.5 -2.5 -2.5 -2.5 -2.5 -2.5 -2.5 -2.5 -2.5 -2.5 -2.5 -2.5 -2.5 -2.5 -2.5 -2.5 -2.5 -2.5 -2.5 -2.5 -2.5 -2.5 -2.5 -2.5 -0.6 2 15.6 74.8 108.2 139.8 143.3 145.8 147.9 149 149.9 149.6 149.4 148.9 148.1 147.3 146.1 144.9 143.3 140.2 136.2 132 125.8 133 137 140.9 141.5 141.7 142.3 141.1 139.9 139.6 140.9 144.5 145.7 146.6 147.2 146.6 145.7 143.9 141.8 139 135 129.8 122.3 113.2 110.1 117.6 123.4 129.9 133.3 133.7 133.1 128.7 123.3 123 125.1 127.8 132.9 137.4 140.8 144.6 148.8 151.6 153.7 155.6 157.2 159 160.2 161.9 163.1 164.4 165.6 166.6 167.4 167.9 167.9 167.1 166.3 164.5 163.8 163.4 164.2 165.3 167.2 167.8 168.1 168.2 166.6 166.9 171.9 175.2 178.3 181.8 184.6 186.8 189 191.5 194.5 197.3 199.4 201.2 203.1 203.7 204.8 204.5 204 203.2 202.4 201.2 199.5 198.1 196.4 194.8 193.2 191.6 190.7 189.3 187.7 185.2 183.4 182.3 180.9 179.6 178.6 177 177.2 176.9 179.5 182.4 185.3 189 192.7 195.7 198.2 199.3 200.1 199.8 198.4 196.2 194.9 193.1 191.3 189.8 188.5 188.1 188.1 188 188.3 189.4 190.3 190.4 191 191 189.4 187.6 186.4
-2.5 -2.5 -2.5 -2.5 -2.5 -2.5 -2.5 -2.5 -2.5 -2.5 -2.5 -2.5 -2.5 -2.5 -2.5 -2.5 -2.5 -2.5 -2.5 -2.5 -2.5 -2.5 -2.5 -2.5 -2.5 -2.5 -2.5 -2.5 -2.5 -2.5 -2.5 -2.5 -2.5 -2.5 -2.5 -2.5 -2.5 -2.5 -2.5 -2.5 -2.5 -2.5 -2.5 -0.1 2.3 60.2 78.8 110.9 141.7 145.3 147.9 149.3 150.5 151.4 151.2 151.1 151 150.4 149.7 148.8 147.5 145.4 140.9 137.4 133.6 127.1 133.5 138.5 143.3 145.1 145.5 144.8 143.5 143.3 143.9 145.7 147.5 148.8 149.6 150.1 149.9 149.4 148.3 146.3 143.8 140.2 136.5 131.4 123.7 116.7 114.5 113.3 111.8 113.8 116.3 117.6 119.1 123.1 126.4 126.8 125.6 125.1 129.8 137.4 142.3 146.7 150.3 152.3 154.8 157.3 159.2 160.8 162.6 164.4 165.8 167.2 168.1 169.1 170.8 171.5 170.5 169.7 167.7 167.4 168.1 169.3 170.6 171.3 172.1 172.9 172.3 171.6 171.1 173.3 178.2 181.6 184.9 188 191.2 193.5 195.7 198.5 200.7 202.7 204.6 206.1 206.6 207.1 206.9 206.6 206.2 205.4 204 202.3 200.7 198.9 197.2 195.8 194 192.2 190.1 188.1 186.1 184.2 183 182 181 180 178.4 174.5 176.9 178.1 181.1 184.3 188.3 192.4 195.2 198.1 199.6 200.1 200 199 196.2 194.7 193 191.3 190.7 190.1 189.9 189.7 189.6 190.3 192 193.9 195 196.1 196 195.1 193.4 192.4
-2.5 -2.5 -2.5 -2.5 -2.5 -2.5 -2.5 -2.5 -2.5 -2.5 -2.5 -2.5 -2.5 -2.5 -2.5 -2.5 -2.5 -2.5 -2.5 -2.5 -2.5 -2.5 -2.5 -2.5 -2.5 -2.5 -2.5 -2.5 -2.5 -2.5 -2.5 -2.5 -2.5 -2.5 -2.5 -2.5 -2.5 -2.5 -2.5 -2.5 -2.5 -1.2 0 1.4 11.2 66.9 112.1 142.6 143.5 146.5 149 150.6 151.9 152.5 152.7 153 152.8 152.2 151.3 150 150.1 147.8 143.2 142.1 139.3 132.7 134.8 141.4 145.3 147.5 147.9 147.3 146.6 146.6 147.4 148.5 150.3 151.4 152.2 152.7 152.8 152.5 151.4 150.2 147.6 144.7 140.9 136.9 131.9 125.1 120.9 121.1 116.9 120.4 122.3 124.8 129.1 133 134.9 135 134.4 130.9 127.2 132.3 140.4 143.9 147.9 150.7 153.1 155.6 157.8 160 162.3 163.7 165.3 167.1 168.5 170.4 171.9 172.9 174.2 173 173.6 174.2 176.7 177.7 178 178.2 178 177.7 177.1 176.5 176.3 177.1 180.2 184.1 187.5 190.3 193.9 197.2 199.2 202 204.1 205.8 207.4 208.3 208.1 209.4 209.1 208.8 208.6 207.7 206.4 204.7 202.7 200.8 198.9 197.5 195.6 193.2 191.2 189.1 187.1 185.6 184.3 183.3 182.1 181.1 179.6 177.5 175.1 177.8 180.1 184.1 188.6 192.7 196.2 198.6 200.2 201 201.3 199.5 197 195.1 193.5 193.6 192.4 192 192.1 192.1 192.1 193.1 194.9 196.8 198.4 199.2 199.5 198.7 197.9 197.3
-2.5 -2.5 -2.5 -2.5 -2.5 -2.5 -2.5 -2.5 -2.5 -2.5 -2.5 -2.5 -2.5 -2.5 -2.5 -2.5 -2.5 -2.5 -2.5 -2.5 -2.5 -2.5 -2.5 -2.5 -2.5 -2.5 -2.5 -2.5 -2.5 -2.5 -2.5 -2.5 -2.5 -2.5 -2.5 -2.5 -2.5 -2.5 -2.5 -1.7 -1.2 0 1.3 2.8 62.9 108.6 146 146.7 147.3 148 149.8 151.5 153.3 154 154.2 154.6 154.9 154.7 154.2 153.3 152.1 150.2 145.4 144 145 139.5 137.2 144.1 147 149.2 149.9 149.6 149.1 149 150 150.8 152 153.2 154.1 154.6 154.6 154.2 153.2 152.2 149.4 145.9 141.7 137.4 132.2 129.8 129.2 126.9 119.8 123.5 129.9 132.6 135.6 137.4 139.1 140.2 139.4 138.4 134.4 129.9 133.8 142.1 146 149 151.6 154.2 156.4 158.8 161.1 163.3 165.6 167.2 169.2 171.1 173 174.6 176.1 176.7 178.8 180 181.9 183.4 184.5 184.1 184.1 184 183.3 182.6 182.5 182.4 183 186.3 189.2 192.2 195.3 198.4 201.3 203.8 205.7 207.4 209 209.8 210.4 210.8 210.8 210.8 210.1 209.2 207.9 206.3 204.6 202.5 200.4 198 195.8 194 192.2 190.1 188.3 187 185.8 184.6 183.4 182.1 180.4 178.6 173.9 176.2 181.7 186.6 190.8 194.6 198.1 200.5 202 202.6 202.3 201.3 198.9 196.9 196.5 196.4 196.3 196.2 196.4 196.4 196.4 196.7 198.1 200.1 201 201.9 202.1 201.7 200.9 200.2
-2.5 -2.5 -2.5 -2.5 -2.5 -2.5 -2.5 -2.5 -2.5 -2.5 -2.5 -2.5 -2.5 -2.5 -2.5 -2.5 -2.5 -2.5 -2.5 -2.5 -2.5 -2.5 -2.5 -2.5 -2.5 -2.5 -2.5 -2.5 -2.5 -2.5 -2.5 -2.5 -2.5 -2.5 -2.5 -2.5 -2.5 -2.5 -2.5 -0.6 0.3 1 2.5 52.4 90 122.7 148.2 148.3 149.3 150 151 152.5 153.5 154.5 155.5 156.1 156.5 156.7 156.4 155.7 154.8 153.7 152.9 152.7 149 144.5 137.6 144.3 148.3 150.3 151.8 151.7 151.8 151.9 152.1 152.6 153.7 154.8 155.6 155.9 155.9 155.9 154.8 153.8 150.8 147.8 143.8 139.9 137 134.9 133.1 128.4 121.2 125.7 130.5 132.8 136.7 139.7 142 142.5 142.7 142.4 138.1 135.3 131.2 136.8 144.5 147.9 150.6 153.2 155.2 157.6 159.9 162.6 165.4 167.9 169.9 172 174.2 176 177.5 178.7 180.9 182.3 183.9 186.1 187.5 188.3 189.3 189.1 188.5 186.9 186.2 187 187 188.9 191.8 194.4 197.2 200.1 202.3 204.4 206 207.4 208.3 209.6 210.4 211.1 211.5 211.2 210.6 209.5 208 206.6 204.7 202.6 199.8 197.3 195.8 193.2 191.6 190.5 189.3 187.9 186.6 185.2 183.4 182 180.3 178.6 174.6 176.5 181.4 186.3 190.8 195.2 198.7 201.4 203.4 204.1 204.6 203.5 202.2 200.5 200.1 199.7 199.4 199.1 198.7 199.2 199.2 200 201.2 202.2 202.7 203.2 203.7 203.7 203.4 203.1
-2.5 -2.5 -2.5 -2.5 -2.5 -2.5 -2.5 -2.5 -2.5 -2.5 -2.5 -2.5 -2.5 -2.5 -2.5 -2.5 -2.5 -2.5 -2.5 -2.5 -2.5 -2.5 -2.5 -2.5 -2.5 -2.5 -2.5 -2.5 -2.5 -2.5 -2.5 -2.5 -2.5 -2.5 -2.5 -2.5 -2.5 -2.5 -1.2 0.1 1.4 2.3 24.4 47 94 140.8 149.2 150.2 151.2 152.1 153.1 153.8 154.2 155.2 156.2 157.1 157.8 158 157.8 157.6 157 155.9 154.9 153.2 150.6 145.9 140.4 141.6 147.3 150 151.7 152.6 153.1 153.4 153.6 154.4 155.4 156.2 157 157.1 157.3 157.3 156.5 154.7 152.3 150 147.3 144.3 140.9 138.5 135.9 128.5 126.6 131.9 133.8 135.5 137.9 141 143.6 144.8 145.1 144.8 143.5 136.9 136.8 135.2 136.3 142.7 147.8 150.7 152.5 154.8 158.2 160.6 163.3 166.8 169.9 172.3 174.7 176.7 178.5 180.3 181.5 183.7 185.2 186.6 188 190 191.1 191.8 191.4 190.7 189.8 190.2 190.3 192 194.4 196.8 199.5 201.4 203.2 204.7 206.1 206.7 207.6 208.6 209.2 209.7 210.4 210.5 210 209.4 208.2 206.8 204.7 202.1 199.7 196.6 194.5 192.4 189.5 187.5 186.4 185.3 184.1 182.5 181.1 180.1 178.5 177.2 174 176.4 181 186.6 191.2 195.7 199.1 201.9 203.6 204.7 205 204 203.4 202 201.6 201.1 200.7 200 200 200.7 201.4 202.1 202.6 203.5 204 204.5 204.8 204.9 204.2 203.6
-2.5 -2.5 -2.5 -2.5 -2.5 -2.5 -2.5 -2.5 -2.5 -2.5 -2.5 -2.5 -2.5 -2.5 -2.5 -2.5 -2.5 -2.5 -2.5 -2.5 -2.5 -2.5 -2.5 -2.5 -2.5 -2.5 -2.5 -2.5 -2.5 -2.5 -2.5 -2.5 -2.5 -2.5 -2.5 -2.5 -2.5 -2.5 -0.5 0.7 1.9 17.5 55.8 72.9 90.2 120.1 151.4 152.2 153.2 154.1 154.9 155.5 155.3 155.9 157 158 158.7 159.1 158.8 158.6 158.4 157.2 156.4 154.4 152 149.8 146.4 141.4 145.4 149 150.6 151.7 152.3 153.3 153.7 155.1 156.2 157.1 157.9 158.7 158.8 158.7 158.4 157.4 155.4 153.4 150.8 148.1 145.1 142.1 138.8 129.6 134.2 136.1 137.3 139 141.8 144.7 145.8 147.4 147.8 147.2 144.8 139.2 142.3 143 140.4 138.3 139.5 143.4 144.4 149 153.2 156.1 159.4 164.2 167.8 171.1 173.3 174.9 177.1 179.1 181.1 183 184.1 185.4 187.4 188.9 190.3 191.3 191.6 191.3 191.6 192.4 193.7 194.5 196.3 198.7 200.3 201.8 203.2 204.7 205.5 206.1 206.8 207.2 207.3 207.9 208.7 208.8 208.7 208.8 208 206.9 205.5 203.5 201.1 199.1 196.6 193.8 191.3 189.2 187.5 185.7 184.5 182.6 181.6 179.1 177.6 175 172.9 175.2 180.2 185.8 190.4 195.2 199.3 201.9 203.6 204.6 204.8 204.4 203.4 202.1 201.9 201.6 200.9 200.3 200.4 200.6 201.5 202.6 202.8 203.7 204.2 204.5 204.6 204.3 203.6 202.9
-2.5 -2.5 -2.5 -2.5 -2.5 -2.5 -2.5 -2.5 -2.5 -2.5 -2.5 -2.5 -2.5 -2.5 -2.5 -2.5 -2.5 -2.5 -2.5 -2.5 -2.5 -2.5 -2.5 -2.5 -2.5 -2.5 -2.5 -2.5 -2.5 -2.5 -2.5 -2.5 -2.5 -2.5 -2.5 -2.5 -2.5 -1.3 -0.1 1.4 2.7 48.4 80.4 108 120.3 140.3 152.3 153.6 155 156.2 156.6 156.1 155.9 156.5 157.5 158.6 159.4 159.7 159.6 159.5 158.4 158 157.7 155.4 154.4 153.1 150.5 146.8 142.7 145.6 147.5 148.8 150.1 151.2 153 154.3 155.6 156.9 158.2 159.6 160.5 160.4 160.5 159.4 158.1 156.1 153.6 151.2 148.3 145.1 141.7 130.5 139.8 141.7 142.3 143.7 145.6 148.1 148.9 150.4 150.4 149.1 145.2 141.5 145.1 146.3 145.4 144.5 144.9 147.5 149.8 148.1 144.7 149 153 159 163.5 167.2 170.1 171.7 173.8 176.7 179.2 181.1 182.6 184.1 186 187.5 188.9 190.1 190.8 191.1 191.8 193 194 196.1 197.7 199.2 200.1 201 202.5 203.2 204.1 204.5 204.6 204.8 205.5 205.9 206.3 207.2 207.6 207.7 207.6 206.9 205.7 203.9 202.6 201.2 199 196.5 194.2 192.7 191.2 189.7 188.4 186.5 184.6 182.1 179.4 176.5 172.8 172.6 178 183 188 192.6 196.5 199.7 201.7 202.9 203.5 203.3 202.5 202.4 201.7 201.3 200.6 199.2 199.7 200.5 201.6 202.8 203.4 203.9 204.2 204.4 204.3 203.8 203 202.3
-2.5 -2.5 -2.5 -2.5 -2.5 -2.5 -2.5 -2.5 -2.5 -2.5 -2.5 -2.5 -2.5 -2.5 -2.5 -2.5 -2.5 -2.5 -2.5 -2.5 -2.5 -2.5 -2.5 -2.5 -2.5 -2.5 -2.5 -2.5 -2.5 -2.5 -2.5 -2.5 -2.5 -2.5 -2.5 -2.5 -2.5 -0.4 0.8 2 20.1 49 99.4 139.4 142.4 144.8 150.1 154.3 155.9 157.1 157.3 156.4 156.1 156.7 157.6 158.6 159.6 160.3 160.3 160.2 159.8 159.4 158.9 157.8 156.8 155.2 152.8 150 147.2 144.6 144.2 146.5 150 150.2 152.4 154.3 156.2 158.1 159.9 161.4 162.3 162.5 162.3 161.5 160.1 158.8 156.3 153.9 150.7 147.4 138.8 137.2 145.6 147.2 147.2 147.9 149.8 151.7 153.2 154.6 154.8 152.6 146.5 143.7 147 148.1 148.6 148.4 149.2 148.8 152.8 154.2 154.3 152.8 152.6 151.3 155.2 161.4 165.1 167.9 169.7 173.9 177 178.9 180.5 182 183.6 185.3 186.7 187.5 188.5 189.6 191.5 192.4 193.6 196.1 197.7 199.3 200.2 200.5 201 201.8 202.3 202.3 202.4 202.3 202.9 203.7 204.8 205.7 206.4 206.6 206.6 206.3 205.9 204.7 203.3 202.2 200.4 198.6 196.7 194.9 193.4 191.8 190.5 188.6 186.4 184.2 181.3 178.5 174.8 171.2 174.3 178.5 183.6 188.5 193.1 196.6 198.8 200.1 200.8 201.4 201.7 201.6 201.1 200.3 199 197.2 197.3 199.1 200.8 202.1 203 203.5 203.9 204.2 204 203.2 202.2 200.8
-2.5 -2.5 -2.5 -2.5 -2.5 -2.5 -2.5 -2.5 -2.5 -2.5 -2.5 -2.5 -2.5 -2.5 -2.5 -2.5 -2.5 -2.5 -2.5 -2.5 -2.5 -2.5 -2.5 -2.5 -2.5 -2.5 -2.5 -2.5 -2.5 -2.5 -2.5 -2.5 -2.5 -2.5 -2.5 -2.5 -0.8 0.5 1.7 3 35.7 61.7 92.4 138.4 148.5 148.1 149.7 155.4 157.4 158.1 156.7 156.6 156.3 157.1 157.9 158.7 159.7 160.6 160.7 161 161.2 160.9 160.3 159.7 158.9 157.3 154.8 153.1 150.7 147.7 145.9 148.1 150.4 151.3 152.6 154.8 157 159.3 161.2 163.1 164.2 164.8 164.6 163.7 162.3 161 158.6 155.5 152.2 148.7 138.6 142.2 149 151.5 152.8 153.9 155 155.8 156.5 157.8 158.4 156.9 145.5 147.7 152.7 152.9 153.1 152.7 152.8 152.9 153.8 156.3 157.8 158.8 159.3 159 157.6 156.2 155 159.3 164.5 169.3 172.9 175.1 177.1 178.6 180.4 182.8 184.2 185 186.2 187.6 190.1 191.8 193.5 195.2 196.7 197.9 199 199.3 199.9 200.3 200.4 200.5 200.3 199.9 200.7 201.7 202.7 204 205.1 205.6 205.6 205.2 204.7 204.2 203.7 202.8 201.3 199.5 197.7 195.5 194 192.7 190.6 188.6 186.9 184.9 182.6 179.9 176.7 172.7 170.4 175.7 178.9 183.5 188.3 192.4 195.1 197 198.3 199 199.6 200 199.8 199.2 197.4 195.7 195 197.7 199.5 201 201.6 202.3 202.9 203.3 203.1 202.6 200.9 198.9
-2.5 -2.5 -2.5 -2.5 -2.5 -2.5 -2.5 -2.5 -2.5 -2.5 -2.5 -2.5 -2.5 -2.5 -2.5 -2.5 -2.5 -2.5 -2.5 -2.5 -2.5 -2.5 -2.5 -2.5 -2.5 -2.5 -2.5 -2.5 -2.5 -2.5 -2.5 -2.5 -2.5 -2.5 -2.5 -2.5 -0.4 0.9 2.2 25.9 60.2 84.3 107.3 131.8 150 151.6 152.7 154.7 155.4 155.9 155.9 156.6 156.6 157.4 158.2 159 160 160.8 161.3 161.6 162 162.1 161.7 161.1 160.1 158.5 156.2 154.7 152.6 150.1 147.2 149.3 151.8 153.2 154.2 155.9 157.9 160 162.3 164.5 166 167 166.9 166 164.7 163 160.3 157 153 147.7 139 148.1 153.2 155.9 158 159.3 160.1 160.5 160.9 161 160.5 157.8 148.5 152.9 156.9 157.4 158.4 158.9 159.6 159.5 159.2 159.8 160.1 161.2 161.8 162.2 162.1 161.4 161.4 160.2 158.1 162.6 165 166 167.9 170.8 173.8 177.5 180.5 181.2 183.3 185.6 188.1 190.7 192.3 193.7 195.4 196.3 197.4 198.1 198.4 198.5 198.5 198.4 197.9 197.5 198.2 199.4 200.7 202.1 203.5 204.1 204.5 204.2 204 203.7 202.9 201.5 200.7 199.5 197.7 196 193.9 191.9 190.2 188.2 186.5 184.6 182.5 180.3 177.6 174.2 169.8 171.5 176.1 179.7 183.7 187.2 190.3 192.6 194.6 196 197 197.8 197.7 197.3 196.6 194.6 192.4 195.5 196.9 198.6 200.1 201 201.2 201.5 201.3 200.5 199.3 197.5
-2.5 -2.5 -2.5 -2.5 -2.5 -2.5 -2.5 -2.5 -2.5 -2.5 -2.5 -2.5 -2.5 -2.5 -2.5 -2.5 -2.5 -2.5 -2.5 -2.5 -2.5 -2.5 -2.5 -2.5 -2.5 -2.5 -2.5 -2.5 -2.5 -2.5 -2.5 -2.5 -2.5 -2.5 -2.5 -1.4 0 1.3 2.7 30.7 74.1 107.9 129.8 133.7 151.4 151.2 152 153.5 154 154.3 155 155.7 156.8 157.6 158.4 159.6 160.8 161.6 162.5 163.3 163.7 163.6 163.2 162.6 161.5 159.8 157.6 155.3 153.3 151.4 150 150.9 153 154.9 156.1 157.9 159.5 160.9 163 165.2 167.4 168.7 168.8 168.3 167 164.9 161.9 158.4 154.3 151.1 146.6 148 154.3 159.3 161.9 162.9 164.1 164.7 164.8 164.5 163.2 159.2 151.1 155.2 159.2 160.9 161.8 162.3 162.8 163.1 163.9 164.8 166.1 166.2 167.2 167 166.8 165.6 165.9 165.3 164.7 163.4 166.7 167.8 168.2 168.3 168.7 171.6 172 175.1 178.7 183.7 186.2 188.5 190.3 192.3 194.2 195.1 196.1 196.8 196.3 196 195.9 195.6 195.3 195.1 195.6 196.9 198.3 199.9 201.3 202.1 202.7 202.4 202.1 201 200.8 200 198.2 196.6 194.9 193.2 191.7 190.4 189.1 187.3 185.4 183.4 181.8 179.8 177.5 174.7 170.1 168.7 172.4 175.9 179.6 183.1 186.3 188.9 190.9 192.3 193.7 194.7 195 194.6 193.7 192.2 189.8 192.8 194 195 196.2 198 198.5 199 199.2 198.4 196.7 195
-2.5 -2.5 -2.5 -2.5 -2.5 -2.5 -2.5 -2.5 -2.5 -2.5 -2.5 -2.5 -2.5 -2.5 -2.5 -2.5 -2.5 -2.5 -2.5 -2.5 -2.5 -2.5 -2.5 -2.5 -2.5 -2.5 -2.5 -2.5 -2.5 -2.5 -2.5 -2.5 -2.5 -2.5 -2.5 -1.5 0 1.5 3.5 61.7 89 105.4 126.9 137.9 142.9 150.5 151.4 152.3 153 153.7 153.9 155 156 157.8 159.1 160.4 161.6 162.5 163.3 164.3 164.6 164.2 164 163.3 162.2 160.9 159.2 156.9 154.8 153 151.3 153 154.6 156.7 158.4 160.3 161.8 163.1 164.4 166.2 167.9 169.6 170.2 169.9 168.8 166.3 163.1 161.7 159.3 156.8 153.1 150.2 157 161.6 164.3 166.5 167.4 168.3 168.1 167.6 166.2 161.6 153.6 157.7 161.7 163.8 165 165.4 165.8 166.5 168.2 169.2 170.1 170.8 171.2 171.7 171.7 171.2 170.7 170.5 169.4 167.7 170 172.4 173.2 173.9 172.3 173 175.8 177.4 178.7 181.1 184.4 186.2 188.7 190.8 193 193.9 195.2 196 195.5 194.6 194 193.2 192.9 192.7 193 194.1 196 197.6 198.8 199.7 200.2 199.9 198.3 198 197.6 197.1 195.2 193.8 192 190.5 189 187.5 185.8 184.3 182.8 181.4 179.5 178.5 176.3 174.3 170.6 167.5 169.3 172 175.8 179.4 182.4 185.1 187.1 188.5 190.3 191.4 191.7 191.4 190.8 189.5 187.3 189.9 191.1 192.4 193.7 194.7 195.3 196 196.7 196.4 195.4 193
-2.5 -2.5 -2.5 -2.5 -2.5 -2.5 -2.5 -2.5 -2.5 -2.5 -2.5 -2.5 -2.5 -2.5 -2.5 -2.5 -2.5 -2.5 -2.5 -2.5 -2.5 -2.5 -2.5 -2.5 -2.5 -2.5 -2.5 -2.5 -2.5 -2.5 -2.5 -2.5 -2.5 -2.5 -2.5 -0.7 0.8 2.3 6.5 56.5 80.9 111.1 132.5 147.8 148.6 149.3 150.2 150.4 151.3 152.1 152.8 154.3 155.7 157.3 158.9 160.5 161.7 162.6 163.5 164.3 164.6 164.6 164.4 163.6 162.6 161.3 160.1 159.1 157.1 155.5 154.3 155.6 157.6 158.7 160.7 162.7 164 165.3 166.5 167.9 169.5 171.2 171 171.2 170.3 169 166.5 164.7 163.2 161 157.9 154 158.6 164 167.8 170.7 172.1 172.8 172.6 171.8 169.1 165.4 158.4 158 163.6 166 167.8 169.2 169.8 171.1 173 174.5 176 176.8 177.3 178 177.7 176.4 175.6 175.4 174.2 172.3 173.5 175.6 177 177.7 175.7 173.9 177.6 179.7 181.3 182.6 184.1 185.1 186.8 189.3 191.4 192.9 194.1 194.5 194 192.9 192.4 191.5 190.5 190.3 190.5 191.5 192.8 194 195.5 196.4 196.1 195.9 195.3 194.7 194.4 193.8 192.6 190.8 189.3 187.8 186.3 184.5 182.7 181.3 179.5 178.2 178.3 177.4 175.9 174.3 171.8 168.2 166.7 170.2 173.1 175.5 178.4 181.1 183.4 185.2 186.9 188 188.4 188.1 187.8 186.6 184.3 186.7 187.8 188.9 190.4 191.5 192.3 193 194.2 194.2 193.5 191.7
-2.5 -2.5 -2.5 -2.5 -2.5 -2.5 -2.5 -2.5 -2.5 -2.5 -2.5 -2.5 -2.5 -2.5 -2.5 -2.5 -2.5 -2.5 -2.5 -2.5 -2.5 -2.5 -2.5 -2.5 -2.5 -2.5 -2.5 -2.5 -2.5 -2.5 -2.5 -2.5 -2.5 -2.5 -2.5 0 2.4 8.4 24.6 62.9 102.5 118.4 139.5 147.7 147.6 147.1 147 147.6 148 150.7 152.7 154.5 155.2 156.8 158.4 160 161.3 162.6 163.1 163.8 164.1 164.3 164.2 163.7 163.1 162.1 161.2 160.5 159.9 158.3 158.1 159 160.2 161.8 163.5 164.9 166.1 167.4 169 170.4 171.8 172.7 173.2 172.8 173.2 171.7 169.9 169.1 168.2 165.6 162 156.7 159.7 165.2 170.1 173.5 175.8 176.8 177.1 174.7 171.7 168.1 162 156.8 164.3 168.1 170 172.2 174.1 176.3 178 179.4 181 182.5 183.7 183.9 183.8 181.9 180.9 179.4 177.9 176.9 177.1 178.6 180 180.2 179 176.3 179.2 182 184.3 186 187.2 188.3 189.5 190.2 191.2 192.5 193.7 192.8 192.3 192.3 190.7 189.6 188.4 188.3 188.8 190 191.3 192.3 192.9 193.5 193.2 193 192.7 192 191 189.9 188.8 187.1 185.9 184.7 183.8 182.2 179.8 178.1 177.4 175.8 175 174.4 173.8 172.8 170.9 168.9 165.6 167.6 170.6 172.8 174.9 178.4 180.4 182.2 184 184.7 184.9 184.6 184.2 183 182.7 183.8 184.6 185.5 187.9 188.6 189.5 190.8 191.6 191.7 191.6 190.6
-2.5 -2.5 -2.5 -2.5 -2.5 -2.5 -2.5 -2.5 -2.5 -2.5 -2.5 -2.5 -2.5 -2.5 -2.5 -2.5 -2.5 -2.5 -2.5 -2.5 -2.5 -2.5 -2.5 -2.5 -2.5 -2.5 -2.5 -2.5 -2.5 -2.5 -2.5 -2.5 -2.5 -2.5 -2.5 -0.1 2 28.5 68.8 96 142.1 143.6 144 146.1 147.1 145 144.6 146.9 148.9 151.2 153.3 155.3 156.8 158.3 159.6 160 161.3 162.7 163.1 163.7 164.1 164.3 163.8 163.5 163.6 163 162.3 161.8 161.1 160.5 160.3 160.6 161.7 163.1 165 167 168.3 170.1 172.1 173.6 174.9 175.4 175.2 175.6 176 174.4 174 173.2 172.4 170.2 166.9 162.8 164.1 167.4 172.5 176 178 179.4 179.9 177.7 173.6 170.2 166.5 161.7 156.2 168.8 171.8 174.8 177.1 179.1 181.1 182.9 184.6 186.3 187.6 188.6 188.8 188.5 186.8 184.1 182.1 180.9 180.6 181.7 182.1 182.1 181.1 179.2 180.2 183.7 185.8 187.2 188.6 189.7 190.6 191.3 191.9 192.7 192.8 192.3 192 191.2 189.8 188.4 186.8 186.6 187.3 188.6 189.5 190.4 191 190.7 190.7 190.3 189 187.8 186.7 185.5 184.4 183.4 182.9 182.4 181.4 180.2 178.8 177.1 175.8 174.6 173.3 172.9 172.4 171.4 170.4 168.6 165.7 165.4 168.6 171.1 173.1 175.4 177.3 179.2 180.7 181.4 181.5 181 180.6 179.2 180 182.1 182.8 183.8 184.5 185.5 187 187.8 188.7 189.4 189.6 188.8
-2.5 -2.5 -2.5 -2.5 -2.5 -2.5 -2.5 -2.5 -2.5 -2.5 -2.5 -2.5 -2.5 -2.5 -2.5 -2.5 -2.5 -2.5 -2.5 -2.5 -2.5 -2.5 -2.5 -2.5 -2.5 -2.5 -2.5 -2.5 -2.5 -2.5 -2.5 -2.5 -2.5 -2.5 -2.5 0.2 2.3 56 101.9 134.5 141.9 143.9 144.2 145 144.5 142.7 146.1 148.2 149.7 151.6 153.3 155.2 157 158.8 160.5 161.4 162.1 162.6 163.3 163.8 164.3 164.4 164.2 164 164.1 164 163.6 163.1 162.4 162 162 162 163.1 164.2 166 168.3 170.4 173 174.9 176.5 177.9 179 179.6 179.4 179.1 178.6 178.3 177.9 176.8 174.9 171.6 167.3 168.5 170.5 174.9 178.6 180.9 183.3 183.1 180.9 176.3 171.9 168.8 166.6 165.5 165.3 169.8 173.4 176.5 178.9 181.2 184.1 186.1 188.3 190.2 191.7 192.5 191.8 190.3 188.7 186.5 185.4 183.5 184.4 184.1 183.5 182.9 181.1 182.1 185 187.1 188.4 189.7 190.3 190.6 191.1 191.5 191.7 191.4 191.3 190.7 189.9 189 187.2 185.7 185 185.6 186.5 186.4 186.7 186.5 186.7 186.7 185.9 184.8 183.6 182.4 181.8 181.3 180.8 180.4 179.9 178.6 177.1 176.5 175.6 174.3 173 172.2 171.8 171.1 170.2 169.6 168.5 166.4 163.9 167.2 169.7 171.4 172.8 174 175.5 176.5 177 177.4 176.6 176.4 175.9 178.4 179.2 179.4 180.6 181.6 182.4 183.5 184.5 185.5 186.3 186.7 186.3
-2.5 -2.5 -2.5 -2.5 -2.5 -2.5 -2.5 -2.5 -2.5 -2.5 -2.5 -2.5 -2.5 -2.5 -2.5 -2.5 -2.5 -2.5 -2.5 -2.5 -2.5 -2.5 -2.5 -2.5 -2.5 -2.5 -2.5 -2.5 -2.5 -2.5 -2.5 -2.5 -2.5 -2.5 -2.5 1 12.1 61.8 108.2 131.6 141.9 142.1 142.1 141.4 139.9 141.5 145.2 147.4 148.7 150.6 152.7 155 157.3 159.1 161 162.2 162.7 162.6 162.7 163.5 164.2 164.4 164.8 164.7 164.7 164.4 164.1 163.7 163.6 163.4 163.4 164 164.8 166.4 167.5 170.1 173 174.9 176.7 178.4 180 181.7 182.8 183.1 183 182.6 181.6 181.6 180.7 178.7 175.5 172.7 173.4 175.3 179.5 182.3 184.5 186.2 186.1 184 180.7 174.3 171.6 170.3 169.3 168.1 170.5 173.3 175.4 178.2 181.4 184.6 187.8 190 192.3 194.3 195.1 194.6 193 190.4 188.5 187.5 186.9 186.8 186 185.4 185.6 184.1 184.2 186.7 188.3 189.1 189.8 190.3 190.6 190.8 190.6 190.2 189.7 189.3 188.5 187.8 186.8 185.4 184.2 183.5 183.3 183.2 183.2 183.1 183.8 183.2 182.4 181.4 180.3 179.2 179.7 179.3 178.8 178.3 177.9 177.4 176.4 174.5 173.5 172.4 171.1 170.7 169.9 169.7 168.6 168.5 168.1 167.3 166.1 163.2 165.3 167.8 169.2 170.4 171.4 172.2 173.2 173.8 174.4 174.1 172.5 174.7 175.2 175.1 175.2 176.2 177.2 178 179.2 180.3 181.5 182.3 182.6 182.4
-2.5 -2.5 -2.5 -2.5 -2.5 -2.5 -2.5 -2.5 -2.5 -2.5 -2.5 -2.5 -2.5 -2.5 -2.5 -2.5 -2.5 -2.5 -2.5 -2.5 -2.5 -2.5 -2.5 -2.5 -2.5 -2.5 -2.5 -2.5 -2.5 -2.5 -2.5 -2.5 -2.5 -2.5 -0.5 1.8 44 74.3 107.4 139.2 140.4 140.5 140.1 138.3 136.6 140.9 143.5 145.5 146.8 148.1 151.7 154.1 155.8 157.7 159.8 160.9 161.6 161.8 162 162.7 163.4 164.1 164.6 165.2 165.2 164.8 164.6 164.6 165.3 165 165.8 166.8 168 169.4 171.4 173.5 175.6 177.7 179.7 181.5 183.2 184.5 185.5 186.6 186.6 186.4 186.2 185.9 184.7 182.1 178.8 176.8 177.5 180.5 183.7 186 187.8 189 188.9 186.9 184.9 180.3 174.8 173.5 172.1 171.9 174.1 175.3 175.5 178.9 181.4 184.9 188.8 192 194.8 196.9 197.7 197.4 195.7 193.5 191.9 190.1 189.5 189.1 188.5 188.1 187.5 187 186.9 187.6 189.6 190.5 190.7 190.7 191 191 190.6 190 188.8 187.8 186.9 186 185 183.8 183.4 182.6 181.7 181.4 181.3 180.9 181.2 180.6 179.3 178.1 177.4 176.6 176.1 176.2 176.3 175.8 175.3 174.9 174 172 170.1 168.6 168.2 167.8 167.1 167.1 165.7 165 165.1 164.5 163.9 163.5 162.7 165.1 167 167.9 168.8 169.5 169.9 170 170.1 170.2 169 169.6 171.1 171 171.1 172.1 172.2 172.6 173.7 175 176.3 177.2 177.5 177.6
-2.5 -2.5 -2.5 -2.5 -2.5 -2.5 -2.5 -2.5 -2.5 -2.5 -2.5 -2.5 -2.5 -2.5 -2.5 -2.5 -2.5 -2.5 -2.5 -2.5 -2.5 -2.5 -2.5 -2.5 -2.5 -2.5 -2.5 -2.5 -2.5 -2.5 -2.5 -2.5 -2.5 -0.7 1.1 2.8 47.7 78.3 113.7 134.6 138.3 137.8 137.2 132.8 133.9 139.2 141.3 142.9 144.3 145.8 148.2 152.2 154.3 156.3 157.7 158.4 159.1 159.6 159.9 160.6 161.8 163 164 164.8 165.5 165.5 165.7 165.6 166.4 167.4 168.1 169.1 170.3 171.9 173.7 175.6 177.7 179.1 180.9 183 184.7 185.4 186.3 187.4 187.8 188 188 187.7 187.2 185.1 182.1 181 182.6 184.3 187.3 189.4 190.5 191.5 191.8 191.5 189.3 185.6 179.7 177.2 175.6 176 176.7 177.6 178.5 180.4 182.5 186 190.4 193.9 196.5 198.9 200.3 200.1 199 197.3 196.5 194.6 192.7 191.8 191.1 190.8 190.4 189.7 189.6 189.8 191 191.6 191.3 191.2 191.4 191.2 190.5 189 187.9 186.9 186 185.1 184.2 183.4 182.5 181.5 180.6 179.7 179.3 179 178.7 178.5 178.1 176.7 176 174.9 173.9 173.8 173.7 173.8 172.9 172.4 171.6 169.6 168.2 167.3 166.5 165.7 165.3 164.8 164.5 163.9 163.5 163 162.9 162.7 162.1 162.7 163.1 164.2 164.7 165.5 165.7 165.7 166 166.4 166.4 166.6 166.8 167 167.1 168.3 168.4 168.6 169.3 169.6 170.4 171.9 172.6 172.8
-2.5 -2.5 -2.5 -2.5 -2.5 -2.5 -2.5 -2.5 -2.5 -2.5 -2.5 -2.5 -2.5 -2.5 -2.5 -2.5 -2.5 -2.5 -2.5 -2.5 -2.5 -2.5 -2.5 -2.5 -2.5 -2.5 -2.5 -2.5 -2.5 -2.5 -2.5 -2.5 -0.6 0.9 2.5 39.8 66.3 100.1 129.3 137.9 137.8 136.1 134.9 128.9 130.1 135.8 137.9 139 141 143.3 145 147.5 150.4 153.2 154.3 155.3 155.6 156.8 157.5 158.5 159.8 161 162.2 163.6 164.5 165.2 166.1 166.3 166.6 167.9 169.1 170.3 172.1 173.8 175.5 177.2 178.4 179.8 181.7 183.2 184.4 185.7 187 187.7 188.2 188.4 188.2 188.7 188.5 188.1 186.9 186.2 186.4 187.9 190.9 192.3 193.3 193.9 194 192.9 191.4 188.3 184.4 181.1 178.9 179.2 179.8 181 181.6 182.1 184.6 187.2 191.7 194.8 197.3 199.8 202.2 202.8 203.4 203.1 202.1 201.2 199.2 197.4 196 195.5 193.7 192.9 193.1 192.6 192.2 192.4 192 191.7 191.8 191 189.8 188.8 187.7 186.7 185.7 184.8 183.7 182.5 181.6 180.7 179.9 179 178.2 177.2 177.2 177.5 175.9 175.1 174.2 173 171.7 171.8 171.9 172 171.2 170 169.2 167.9 167.2 166.1 166.2 166 165.2 163.9 163.1 163 162.5 162.6 162 160.8 161 161.4 161.5 161.2 161.6 161.9 161.7 162.1 162.6 163.4 163.8 164.1 164.6 164.8 165.3 165.8 166 166.1 166.3 166.6 166.9 167.7 168.3 168
