ncols 200
nrows 82
xllcorner 260000
yllcorner 91600
cellsize 50
204 203.2 203.2 205 202.4 200.8 200.3 199.9 200.7 204.1 206.4 206.1 203.8 203.8 203.5 201.1 199.7 200.8 207.9 215.1 220 223.2 225.8 225.7 225.4 224.1 221.4 218.3 215.4 212.7 211.8 211.3 213.7 214.5 214.6 215.3 213.9 208.5 215.1 216.8 217.6 217.7 217.9 215.7 213.1 212.2 209.9 210.1 214.4 216.1 216.6 219.4 223.4 226 226.8 226.2 224 222.2 221.3 221.4 221.1 220.3 220 220.3 220.2 217.8 213.3 209.9 208.3 206.8 206.8 207.5 210.2 210 207.4 207.2 204.6 201.1 196.9 192.9 188.9 184.6 179.4 176.3 174 169.8 169.5 171.5 174.1 175.7 176.1 175.9 175.2 173.8 172.7 171.5 169.9 168.3 163.5 161.4 161.7 161.3 163 165 183.7 192.3 191.7 189.6 186.3 182 175 163 160 158.5 159.9 165.3 171 174.1 175.3 176.3 176.8 177 180 183.9 189.2 195.9 202.8 208.9 214.4 217.4 217 216 213.5 211.3 208.1 205.6 203.5 200.6 199.3 197.7 196 194.1 192.1 188.6 186.5 192.3 193.9 192.8 190.2 186.7 182.8 179.9 177.2 175.3 175.8 173.7 168.9 166.8 167.4 170.5 171.7 171.2 168.6 165.3 163 161.6 162.6 163.8 164.9 165.1 165.4 162.9 165.5 169.9 173.2 176.1 178.4 181.8 185.3 188.5 190.7 191.9 191.6 191 189.4 188.8 187.2 184.7 182.1 177.3 169 167.8 172 176.6 177.8 178.1 178.9 179.8 182 184.6
208.7 209.3 209.5 208.9 208.4 209.3 212 210.5 209.5 209 207.6 207 206 208.9 207.9 207.3 205.8 205.2 206.7 213 218.2 222.4 224.6 225.9 225.7 224.2 223.6 221.4 220.9 219.7 221.1 222.3 223.9 223.5 223.6 223.9 221.8 217.5 222.1 222.9 223.4 223.2 223.3 220.5 217.4 217 214.4 213.7 217.4 220.9 222.1 223.1 225.1 226.9 226.2 224.6 221.7 219.3 217.8 216.4 215.9 214.5 213.4 212.5 212.3 210.9 207.8 203.2 202.5 200.1 199.3 199.4 201 201.2 199.2 200.8 199 196 192.3 188.2 184.7 180.8 176.6 172 170.4 170.6 174 177.1 178.6 179.2 179.2 178.3 176.9 175.3 173.4 172.2 170.9 169 164.5 160.6 162.4 162.1 163.2 166.7 188.9 194.7 194.3 192.9 190.8 186 178.6 167.2 160.9 159.3 160.6 167.5 173.4 177 178.8 179.5 180 180.6 181.7 185.5 189 194.7 201.9 207.9 212.9 216.4 216.9 215.3 213.1 211 208.7 206.4 204.5 203 201.5 200.1 198.5 196.2 193 190.2 184.3 191.4 193 191.5 188.4 185.1 182.3 178.9 176.5 174 171.2 168.7 167.7 170 174.3 175.5 174.8 172.6 169.3 165 162.3 164.5 166.2 166.4 167.8 169.1 169.5 166.4 168.4 174 177.7 180.7 183.9 187.1 190.2 192.7 194.1 194.9 194.9 194.7 193.7 192.7 191 188.4 184.9 179.4 170.9 167.8 169.3 171.5 172.6 172.4 173.8 175.1 177.1 179.5
212.1 213.4 216.9 217.2 216.7 217.3 215.4 215 212.4 211.5 208.6 208.9 208.1 214.2 213.8 216.4 216 210.8 208.2 214.9 219.6 223.4 225.9 226.7 227.2 227.6 227.9 228.5 229.5 229.7 230.5 231.6 232.1 231.4 230.9 230.9 229.5 229.1 228.7 230.7 230.9 229.6 228.2 224.5 222.8 221.9 218.6 216.2 220.8 225.1 226.7 226.8 227.9 228.4 226.8 224.6 221.9 218.4 215.6 213 210.4 209.2 207.1 204.7 202.7 200.8 198.2 196.6 193.3 191.4 189.6 189.4 190.8 191.8 190.8 192.1 190.6 187.9 184.2 180.2 175.6 173.4 172.2 171.4 172.5 172.9 177.5 180.4 181.3 181.9 181 179.9 178.1 176.5 174.7 172.6 171.1 168.1 164.7 162.6 163.2 162.8 165 172.3 193.2 197.6 197.1 195.9 193.4 188.9 181.3 171.2 162.2 159.7 161.4 170.5 177.3 180.8 182.2 182.7 182.6 183.2 184.3 187 190.7 194.9 201.1 206.8 211.5 215 216.2 214.8 212.5 210.6 208.4 206.1 204.8 203.6 202.5 200.6 198.4 194 191.7 188.7 181.7 188.3 188.9 187.7 184.3 180.4 178.1 176.2 174.8 172 169.5 169.4 171.8 176.3 178 177.8 176.1 172.9 168.5 164.2 165.2 168.3 169.8 170.8 171.3 172.4 173 170.5 168.9 176.3 180.3 183.6 186.8 190.2 193 195.7 197 197.4 197.6 197.1 196.4 193.8 191.5 188.3 183.9 177.8 172.2 169.1 174.1 176 176.2 176.9 178.2 180 181.5 181.4
216.7 218.2 219.5 219.3 218.5 218.1 217.6 216.4 214 211.2 210.4 208.3 214.3 216.9 217.2 218.2 219.4 219.5 212.5 218.5 222.9 225.1 227.6 228.9 230 231 231.9 232.9 233.9 235.3 236.9 237.9 238.3 238.4 237.7 237.5 236 232.3 235.5 237.9 238.6 237 233.6 231 229.1 228.4 224.7 221.5 225.8 229.9 230.7 231 231 230.5 229 226.6 223 219.3 216.4 213.5 211.9 209.8 209.7 207.8 206.2 203.9 201.7 199.5 198.4 196.1 194 189.6 186.8 182.4 182.5 182.7 181.7 178.3 176.3 174.5 174.5 174.2 175.2 176.7 174.9 174.8 179.9 183.4 184.4 184.2 183.2 181.6 179.6 177.6 175.6 172.9 171 166.3 165.1 163.7 164.2 165.2 167.3 185.4 196.9 199.9 199.3 197.8 195.3 190.4 183.3 175.1 163.9 160.4 161.1 172.4 180 184.2 185.8 186 186.3 186.8 187.4 190.3 196.8 201.2 204.1 207.4 211.9 214.1 214.4 213.4 211.3 209.7 207.5 205.4 203.4 202.1 200.7 198.7 195.6 191.8 189.1 186 180.8 180.2 179.6 179.1 176.9 174.6 174.3 173.1 171.5 170.2 172.2 174.3 178 180.4 180.9 179.3 176.7 171.7 167.2 164.7 167.3 170.8 172.4 173.7 173.8 175.4 175.9 173.9 168.6 176.1 181.6 185.3 188.9 191.8 194.7 196.6 198 197.4 197.7 197 195.5 192.8 190 186.5 183.2 178.8 172.9 169.6 177.1 182.1 184.1 183.7 184.4 187.2 187.4 184.9
218.8 220.1 220.1 218.7 218.7 218 217 216.6 215.5 214.9 208.7 216.4 217.4 217.7 218 223.1 223.2 221.8 222.4 221.3 225.6 227.8 229.5 231 232.2 233.5 234.7 236 237.4 239.4 241.1 242.4 242.9 243.2 243.4 243 241.6 239.4 242.3 244.1 244.8 243.5 240.7 238.1 236.8 235.1 231.5 226.2 230.7 233.9 234.4 234.7 234.3 233.1 231.8 229.3 225.8 221.9 218.5 218.2 216.4 215.6 216.6 217.6 216.4 215.3 212.8 207.8 203.2 201.5 199.6 196.6 192.1 187.3 182.7 179.7 178.7 177.3 178.2 178.5 180.1 179.6 179.9 180.3 177.2 177.4 183.9 186.2 187 186.3 184.8 182.7 180.9 178.2 175.5 172.9 169.8 166.6 165.6 164.5 164.1 166.3 175.1 196 202.4 202.7 201.5 198 193.6 188.6 182.9 176 168 161.6 160.7 169.5 180 185.8 188.7 189.3 189.9 190.5 191.8 197.2 202.3 205.6 208.5 211.3 213.8 214.9 214.5 213.2 211.2 208.6 205.4 203.3 199.1 197.7 196.4 193.9 190.2 186.8 183.5 183.3 183.3 182 181.1 180.9 179.9 178.9 177.3 175.2 173.1 172.9 176.9 180.5 182.5 183.8 182.9 181 177.4 172.6 166.8 166.6 170.6 174.1 175.6 176.8 177.3 177.4 178.8 177.2 172.7 172.4 179.5 184.7 188.1 191.1 193.9 195.5 196.6 197.5 197.1 196.3 194.5 191.6 188.2 183.9 179.8 176.7 172.8 170.6 179 185.6 189 190.9 190.9 191.2 191.1 189.3
219.3 220.4 220.6 219.6 219.2 219 217.1 216.8 216.6 215.1 218 219.2 219.9 224.8 224.6 226 226.4 226.4 225.6 223.2 227.1 229.2 230.5 232 233.4 234.6 235.7 237.5 240 242.5 244.2 245.3 246.2 247 247 247 246.1 246 247.1 248 248.8 248.6 248.5 246.3 244.6 241.9 237.6 233.7 238.4 238.6 241.1 241.4 240.4 238.2 235.7 232.5 229.7 225.3 224 221.9 223.3 224 225 224.5 222.8 221.4 219.3 215.4 210.1 206 203.5 200.2 196.2 191.2 182.7 178.9 179.6 182.3 182.7 180.7 183.2 183.3 183.5 183.2 179.2 181.1 187 188.7 188 187.1 185.2 182.9 180.2 177.8 174.7 171.6 168.7 166.9 165.8 164.7 166 167.9 180.8 201.6 206.7 204.2 199.9 194.6 187.9 182.3 177.8 174 167.2 162.4 160.1 165.7 176.4 185.1 189.8 191.6 191.8 193.6 196.5 200.9 205.3 209.1 211.5 213.2 213.3 214.8 214.5 212.8 210.3 207.5 204.7 202.5 199.6 196.9 193.3 190.9 188 185.8 187.6 188.7 189.5 189.2 187.9 187.1 184.9 182.5 178.9 176.1 172.6 177.9 181.9 185 186.5 186.5 184.9 181.5 177.5 172.6 166.9 169.8 174.8 178 179.3 180.6 181.3 180.9 181.8 180.6 178.5 174.8 175.7 182.2 185.5 188.3 191.3 193.6 195.4 196.8 196.8 196.5 194.9 192.6 189.5 186.4 182.6 178.4 174.2 171.1 179.5 186.9 191 193 193.7 193.8 193.5 192.3
220 220.6 220.5 219.5 218.7 218 217.7 217.3 216.4 218 219.3 220.4 224.3 224.5 226.7 227.4 228.6 229 229.8 229.4 229.2 230.8 231.5 233.3 234.4 235.7 236.9 238.7 240.9 242.9 245.1 247.3 248.1 249 248.7 248.9 249.1 249 250 251.1 252.2 253.4 254.4 253.5 250.4 247.3 244.9 243.1 244.7 247 247.9 247.9 247.7 245.5 242.7 238.4 235.3 233 231.7 231 231.1 233.1 233.5 231.7 228.7 225.3 222.5 220 216.7 211.4 205.4 201.6 196.5 188.9 180.6 182.8 187 187.5 186.7 183.8 185.7 186.3 185.8 185.2 181.4 181 187.9 188.6 187.2 186.1 184.2 181.6 178.5 174.9 173.6 170.7 168.9 167.3 166.4 164.1 167.7 170.5 188.8 202.7 205.1 202.5 196.3 190 182.9 177.3 173.3 169.2 165.5 163.2 161.6 164.2 173.3 181.1 186.6 189.7 188.8 193.2 197.7 202 205.9 208.9 210.6 211 211.7 212.8 213.1 211.5 208.8 205 201.8 200.5 198.1 195.2 192.4 189.2 187.6 189.2 192.4 194.5 195.3 194.9 193.6 191.8 189.1 185.7 180.9 176.2 175.1 181.5 185.4 188 188.8 188.1 185.6 181.9 176.7 172.5 169.1 175.7 178.9 181 182.5 183.9 185 185.2 184.7 184.1 182.3 179 176.2 178.7 182.2 185.3 188.3 190.8 194.4 196.7 197.2 197.2 195.7 194 191.3 188.3 184.8 180 175.1 172.7 181.3 188.2 192.6 195 195.4 195.7 195.8 194.7
221.1 220.9 220.1 219.7 218.4 216.4 216 216.2 217.9 219.2 220.6 223.3 225.6 225.8 228.5 230 229.6 230.3 230.2 230.2 231.1 231.5 232 234.4 235.9 236.7 237.1 238.9 240.9 243.3 245 246.3 248 248.8 248.4 249.3 249.9 251 252.5 253.9 255.3 256.7 257.8 257.2 254.3 251.8 251.2 249.6 252.5 254.1 255.6 255.9 255.2 253.1 249.9 246 242.4 240 237.8 236.8 237 238.4 237.4 234.4 230.8 228 226.3 224.1 220.3 214.1 204.3 199.1 194 183.5 183.1 190.8 192.8 192.7 190.9 189.2 189.8 188.9 187.6 185.3 182 186 188.9 188.2 186.9 185 182.6 180.4 179.1 177.9 175.4 170.9 169 168.1 166.9 166.1 169.3 178.9 200.2 207.2 205.3 199.9 193.6 187.5 182.3 181.3 179.7 176 171 178 162 162.9 168 173.8 177.1 180.9 180.5 185.5 191.8 196.8 200.6 202.6 202.4 202.9 205 208.8 210.4 208.7 206.6 203.8 200.2 198.2 196.5 193.2 191.3 190.1 190.5 193.1 196 197.8 198.6 198 196.7 194.1 190.5 185.9 180.9 175 179.1 183.4 187.4 189.3 190.3 188.6 185.5 181.1 177 171.6 171 179.2 182.7 185.2 186.4 187.3 188.2 187.6 187.5 186.9 185.3 182.9 180.4 179.5 182.9 185.2 187.7 190.3 194.7 196.7 197.6 197.6 196.5 195 192.3 189.5 185.8 181.3 175.7 174.1 183.5 190.1 194.5 196.9 197.8 198.1 197.9 197.3
223 222.7 221.4 220.3 217.9 215.6 215.2 215.4 209.9 219.9 222.8 225.9 229.4 232.1 233.6 233.1 232 230.7 229.7 229.5 229.4 230 230.6 231.8 233.6 234.8 235.7 237.2 239.2 241.3 243.6 245.8 247.1 246.5 248 248.9 250.4 251.4 253 254.4 255.7 256.3 256.6 255.5 254.5 253.6 253.9 255.3 257.9 261.2 263 263 260.7 257.7 254.9 252.2 248.9 245.9 243.1 241.2 239.2 237.3 235.1 233.2 232.1 230.1 227.5 224.3 219 212.1 203.2 195.2 196.4 198.8 198.5 197 196.1 194.9 193.8 192.5 191.5 190.5 189.5 188.3 187.3 186.7 187.1 189.6 188.8 187.1 185.5 183.8 181.8 179.1 176.2 171.4 169.2 168.5 165.1 169 169.9 184.4 202.8 207.6 203.4 197.3 192.5 187.6 188.1 188.8 186.6 181.4 173.9 181.5 162.1 163.5 165.1 167 169.1 171.3 172.4 176.7 183.6 188.5 192.5 192.6 193.3 196.7 202 206.7 209 208.5 206.3 203.4 199.6 197.3 195.1 191.6 192.9 193.1 193.7 196.8 199.1 199.9 200.2 199.7 198 195.2 190.7 184.2 178.5 176.4 181 185.2 188.9 190.6 191 188.7 185.1 181.2 176.5 171.9 170.4 179.7 184.6 187.4 189.2 190.2 190.9 190.7 190.1 189.6 187.8 185.6 183.1 182.7 183.8 186.6 189.2 192.5 195.2 197.6 198.1 198 196.9 195.4 193 190 185.7 180.8 176.4 174.9 183.2 190.5 195.4 198.7 200.3 201.3 201 199.9
225.2 223.5 221.9 218.8 216 214 213.5 213.9 216.7 219.9 223.3 226.8 229.3 230.6 230.8 230 227.8 227 226.4 226.1 226.8 227.8 228.9 231.6 232.8 233.6 234.8 236 237.2 238.4 239.5 240.7 241.8 243.3 248.6 248.1 249.1 250.9 251.7 252.4 252.9 253.5 253.1 253 252.8 253.6 255.2 258.2 260.9 263.7 265.5 265.2 263.3 260.1 257.6 255.3 253.1 251.8 249.2 245.9 241.6 236.5 233 230.9 229.6 227.2 223 217.3 210.7 206.7 204.7 199.4 194.9 191.5 196 198.2 199.4 199.5 198.7 197.2 195.3 193.2 190.3 187.3 191.4 192.9 192.1 188.5 183.6 181.2 180.6 183.5 182.7 179.1 176 171.3 169.7 167.1 169.1 169.9 170.6 188.7 204.2 205.1 201.1 196 193.5 191.7 192.6 192.1 188.3 181.9 176.8 180.4 162.8 166 171.5 173.7 174.6 176.8 178.5 177 176.2 181.2 184.5 186.3 190.9 196.1 202.4 207.7 209.5 209.3 206.8 204.1 200.9 197.6 195.2 195.4 195.4 196.2 197.2 199.2 200.9 201.4 201.1 199.6 197.5 194.3 189.4 181.6 177.6 180.7 184 186.6 189.4 190.4 190.1 187.4 183.5 179.5 175.4 177.6 173.5 174.6 183 187.9 190.9 193 194.5 194.7 193.8 191.9 190 187.3 185.7 185.7 186.3 187.8 190.8 193.8 197.8 199.5 199.8 198.5 197.3 194.9 191.7 187.3 183.8 181.6 178.3 175.3 184.3 191.5 196.9 200.1 202.1 203.4 203.3 202.4
226.1 222.6 219.8 217.3 214.4 212.1 211.7 213.5 216 218.9 221.4 223.9 225.7 226.6 226 225 223.4 223.1 223.8 225.9 227 228.4 230.2 232 234.2 235.2 236.2 236.5 237.4 238.4 240.2 241.1 243.3 246.7 248.9 247.5 245.3 245.8 246.8 250.7 251.6 251.6 251.7 251.8 252.6 253.7 255.4 257.9 260.5 262.9 264.9 264.5 263.5 261.7 259.8 258 255.3 252.5 249.1 244.7 238.2 232.8 228.5 225.7 221 214.5 212.6 208.4 199.5 191.9 189.3 189.8 190.6 193.4 196.7 199.7 201.6 201.8 201.2 199.8 197.4 194.8 188.2 193.1 194.8 194.3 193.4 192.1 190.8 189.3 187.5 184.2 179 178.6 176 171.8 170.4 169.5 168.3 170.3 171.7 189.3 202.1 202.7 200.2 196.9 195.6 194.7 194.6 192.9 186.8 179 180.6 177.7 163 168.6 176.2 178.6 182.3 184.8 186 184.7 182.9 182 182.7 187.8 192.8 198.3 203.8 209.4 211 210.4 207.8 205 201.7 198.6 198.6 198.4 198.6 199.7 201 201.5 202.3 202.1 201.1 199.1 196.6 192.2 185.5 179.1 181.1 186.7 188.3 189.5 189.9 189 187.6 184.3 179.5 177.5 179.8 180.9 178.2 172.6 178.2 185.5 190.2 193.6 195.9 196.2 195.6 194.6 193.3 191.8 189.6 189.5 190.1 191.1 193.2 195.8 199.3 201.3 200.9 199.3 197.7 194.3 188.5 188.4 187.7 184.3 179.8 176.4 183.1 190 195.5 199.9 203.1 204.9 204.9 204
225.5 222.1 218.6 215.6 212.9 210.7 210.1 212.9 215.9 217.9 220 221.9 221.7 221.9 221 219.3 221.6 222.6 224 226.5 228.3 230.6 233.3 234.9 236.5 237.2 238 238.5 239.1 240 240.5 241.5 242.9 244.1 245.6 250.5 251.3 249.9 250.7 248.3 247.9 249.8 250.9 251.1 251.7 252.7 253.4 255.3 257.4 259.7 261.4 260.5 258.4 256.4 254.8 252.7 249.4 245.9 242 237.3 232.2 224.1 220.5 218.3 214.1 207.3 198.9 193.2 194.3 196.5 198.6 197.9 193.1 195.3 198 199.9 202.4 204.2 203 201.1 198.4 194.9 194.4 196.6 196.7 196.1 194.6 192.7 190.9 189.3 186.9 184 180.5 175.8 177 178.9 179.6 172.2 170 172 174.4 193 201.4 201.2 200.2 199 197.7 196.2 194.1 189.8 184 176.9 183.7 174.3 163.8 172.5 181.9 185.3 188.8 191.3 191.8 191.3 189.5 186.5 186.2 190.1 198.6 205.5 210 212.6 212.9 211.7 209 206 202.6 201 201.1 201.5 203.2 204.1 204.3 203.8 202.7 201.6 200.3 197.7 194.3 189.1 181.3 181.5 189.4 192.4 192.9 192.4 190.4 188 185.6 181.3 180.5 182.3 184.2 184.2 181.8 177.4 174.5 182.5 187.5 191.5 194.3 195.5 196.8 196 196.1 195.5 194.3 194.6 194.7 194 194.4 198 201.5 202.8 202 200.5 197.3 192.6 192.1 191.7 189.9 184.8 179.5 177.6 185.7 191.5 196.8 200.4 204.1 206.2 207.5 207.1
224.9 221.4 218.5 215.9 213.2 211 209.5 212.6 216.2 218.6 220 220.3 219.4 217.3 218.4 219.1 222.7 225.1 226.8 229.3 230.6 232.7 236 237.8 239.3 240 240.3 240.8 241 241.3 241.7 242.5 243.6 244.9 246.6 249.3 251.2 250.2 250.5 249.9 249.7 249.4 248.6 248.3 250.1 251.2 253.8 253 253.7 254.4 254.4 252.5 250.5 248.8 246.5 244.7 242.2 234.6 228.5 226.6 223.4 220.8 215.5 208.7 200.4 196.7 196.5 200.9 204.5 206.8 206.2 203.5 196.7 197.1 199.2 201.1 203.5 204.9 204.1 201.9 199.3 195 199 199.1 198.8 197.1 193.7 192 190.2 188.5 186.6 183.5 180.6 176.2 175.2 174.6 173.6 179.1 182.2 183.3 180.9 190.5 197.5 199.8 199.8 199.6 197.7 194.9 190.2 185.3 180.8 183.1 173.2 166.5 162.3 162.3 173.9 194 196.6 197.5 197.4 196.1 194.7 193.7 192.7 188.1 198.2 206.6 212.2 214.6 214.4 212.7 209.7 206.9 204.4 205.7 206.7 207.1 208.2 207.8 207.3 205.7 203.6 201.2 198.5 195.1 191.4 184.9 183 190 194.7 196.2 195.5 193.5 190.6 187.8 183.8 184.2 186.3 187.7 188.4 187.6 184.5 180.9 175.4 178.2 184.1 187.6 191.4 194.4 196.4 198.2 198.7 199.6 199.2 199.6 200.2 199.9 199.7 201.6 203.6 204.3 203.3 201.5 197.4 196.1 195.8 194.2 190.7 184.2 178.4 180 184.6 192.1 198.4 203 206 208.4 209.5 210.6
224.6 221.7 219.4 217.1 214.4 212.8 206.4 211.9 215.5 217.5 217.1 215.7 214.6 215.8 220 224.6 226.4 227.6 229.3 231.9 233.2 236 239.2 241.5 242.4 243.1 242.7 242.6 241.8 241.9 242.6 243.6 245 245.9 247.3 249.5 250.6 251.1 250.5 248.9 249.1 248.8 249.3 249.7 250.3 248.7 248.3 247.2 246.5 245.7 246.3 243.9 242.4 238.9 236.4 234.9 232 228.7 223.7 217.9 212.4 206.9 202.5 202.3 201.9 203.1 206.8 212.8 215 214 211.8 208.7 200.6 200.4 201 202.4 205.5 206.1 205.1 202.8 202.2 202.3 201.9 201.6 200.4 197.9 194.1 191.2 189.2 187.7 185.3 182.9 181.3 176.4 174.2 172 168.5 172.2 177.1 182.5 186.5 188.2 188.7 189.2 189.9 190.4 190.4 190.6 189.3 189.1 186 180.9 175.5 171.9 171.8 175.3 175.3 190.9 190.9 198.1 201.6 200.3 198.6 198.5 197.9 195.7 197.2 203.8 210 213.7 214.6 213.7 211.6 209.3 211.3 212.3 213.2 213.5 212.6 211.7 210.5 207.7 204.1 200.7 197 192.1 187.8 183.4 188.9 195.8 198.8 199 197.3 194.3 190.8 188.3 186.4 187.6 190.1 191.7 191.9 190.5 187.8 184 179 177.7 182.7 186.7 190.3 194.3 197.5 199.9 201.9 203.6 204.2 204.3 204.5 203.6 203.8 204.7 206.1 206.2 204.9 202.5 200.8 199.8 198.3 196 191.7 184 179.4 184.8 191 192.1 199.5 204.7 208.1 210.5 212.8 214
226.1 223.4 220.7 218.2 215.6 212.8 206.1 207.1 211.6 212.1 208 213.2 213.2 221.8 225.2 228.4 229.9 230.8 232.4 233.2 234.4 236.4 239 241.3 243 244 245 244.3 242.2 242.2 243.8 245.9 246.8 247.1 247.7 247.9 248.4 248.9 248.2 247.3 247 248.3 248.8 249.6 250.5 251.1 253.1 251.9 251.1 249.2 244.7 239.4 232.9 227.6 223 220.2 217.3 214 212.1 211.6 211.6 211.6 212.1 210.9 210.9 215.3 220.7 222.3 221.2 219.5 216.4 212.4 203.5 204.4 204.5 205.6 207.4 207.8 207.3 205.9 205.5 204.8 204.1 202.6 200.7 197.1 193.3 189.4 188.1 186.8 184.9 183.5 181.8 176.6 173.8 171.7 172.5 174.2 175 179.6 189.2 199.9 202.6 203 201.6 198.7 194.6 190.2 184.5 183.7 185.9 187.2 187.5 187.1 186.6 186.7 187.9 195 201.8 199.6 195.2 202.7 201.1 201.9 202.1 201.4 199.7 199.2 207.6 213.1 215.4 215.5 215.1 214.4 215.8 217.1 217.6 217.6 216.4 214.5 211.8 208.7 204.7 199.6 196 191.8 185.7 188.1 194.6 199.2 201.9 202.5 199.8 195.7 192.1 191.4 190.2 191.6 193.4 195 194.5 192.8 190.3 186.5 180.9 178 184.9 189.6 192.4 195 198.4 200.9 203.9 206 207.6 207.9 207.9 208 208 208.2 207.9 207.4 206.3 205.1 203.7 202.2 200.2 197.4 190.9 183.3 181.7 190.2 197.2 199.9 201.1 207.1 210.7 214.1 216.6 218
228.9 225.7 221 217.3 214 210.4 203.2 206 204.9 203.6 210.2 213 218.8 222.6 225.9 228.2 229.6 229.9 230.8 231.3 232.1 233.1 234.1 236.5 239.2 242.2 243.8 242.4 240.3 240.8 243.5 244.4 244.4 244.4 244.2 244.5 245.5 246 245.9 244.8 246 247.5 248.8 249.8 251 251.4 252.6 252.4 251.6 249 244.2 234.6 235 235.8 235 233.8 228.6 219.7 221.9 217.4 222.6 226.3 226.6 224 222.4 226.1 228.7 229.4 227.6 224.9 219.7 214.4 209.1 209.1 208.4 208.6 209.3 209.4 208.7 208.5 207.7 206.9 205.4 202.7 199.5 195.6 191.3 189.1 187.5 186.1 184.6 183.3 180.9 176.7 174.4 173.5 170.5 175.5 176.7 182.3 193.8 203.2 205.7 204.8 202.3 198.3 194.8 189.5 183.5 192 164.1 168.3 168.3 174.3 200 197 194.6 189.9 188.2 189.7 189.1 193.7 200.5 202.8 204.9 205 204.7 205.7 203.8 211 215.3 217.8 218.8 219.3 220 221 220.6 220 218 214.8 211.6 207 202.9 198.7 194.4 189.8 188 192.4 198 202.8 205.2 206 204.2 199.6 197.9 198.1 196.5 196.1 197.4 198 196.7 195.1 191.9 187.1 181.7 179.8 186.7 190.7 193 194.6 196.6 199.7 203.4 206.1 208.5 209.3 209.7 210 209.8 209.7 209.4 208.8 208.4 207 205.6 204.1 201.9 199 192.8 183.7 183.3 194.3 200.3 204.2 207.1 209.6 214.2 217.6 220.1 221.2
229.6 224.5 218.1 211.4 207.8 205.6 198.3 203.7 201.3 208.5 209 213.3 217.5 221.1 222.8 223.5 225 227.2 227.1 227.2 227.8 228 228.8 229.8 230.6 231.5 231.1 231.3 232.7 234.9 237.2 238.3 238 238.9 238.7 239.7 241.3 242.7 243.7 245.1 246.8 248.2 249.4 250.9 252.2 253.4 253.4 253.9 254.2 251.4 244.5 245 246.2 245.7 244.4 241.2 232.3 229.2 230.3 226.6 235 237.5 236.7 235 233.8 234.9 236.5 236 234 230.3 224.1 214.3 217 214.4 212.2 211.5 211.3 210.5 209.6 208.9 209.1 208.2 205.7 202 197.9 193 191.1 189.5 187.6 185.9 183.8 181.6 179.3 176.2 174.7 172.4 176.1 177 179.5 188.7 200.1 207 208.6 206.8 203.1 198.8 193.4 188.2 189.7 178.7 163.1 172.3 167.9 177.4 201.8 186.2 185.7 185.4 181.4 180.6 188.6 193.4 196 201.8 206.5 208.1 209.5 210.8 210.9 213 217.6 221.1 222.8 224.1 224.5 224.6 223.5 221.5 218.5 214.6 209.6 204.8 199.7 195.1 191.4 187.2 192.2 195.8 201.9 207.2 210.1 210.6 209.1 208.2 207 205.2 202.4 201.5 200.6 200.4 198.6 196.1 192.5 186.9 182.4 182.9 183 186.8 188.8 190.7 193.1 196.8 200.6 205.2 207.8 209.5 209.8 210.2 210.4 210.5 210.3 210.1 209.8 209 207.5 205.8 203.5 200.1 193.1 183.3 185.2 194.9 200.7 206.4 210.4 213.7 217.1 219.8 221.7 222.7
229.4 218.6 206.4 194.3 190.8 191.9 194.2 201.6 206.4 203.3 207 210.4 213.5 215.5 215 214.6 214.7 214.6 215.9 216.4 217.5 218.2 220.1 221.2 222.7 224.9 226.1 227.5 228.6 230.4 231.7 233.4 235.3 237.5 238.7 239.8 240.6 241.8 243.8 246 247.9 249.6 250.9 252.5 254.1 255.5 256.4 258.5 259.2 256.3 255 254.7 254.3 253.1 250.5 242.9 238.3 241.6 239.8 241 245.5 245.9 245.5 244.7 244.5 244.9 243.3 241.2 239.1 235 225.8 222.7 223.8 220.2 215.5 214.3 212.6 211.3 210.1 209.1 208 206.4 204.4 200.7 196 193 190.9 189.7 187.4 184.8 182.9 181 179.2 175.9 175.7 176.8 178.4 179.9 184.4 198.3 206.4 211.5 212.5 208.1 203.2 198.1 191.4 186.8 184.7 176.1 180.1 174.5 170.6 168.9 185 190.5 190.5 188.2 187.5 178.9 177.3 186.4 194.1 199.2 205.6 209.3 211.4 214.1 216.3 217.9 221.2 224.2 227.1 228.4 228.4 227.3 225.6 222.2 218.1 213.2 207.4 203.1 199.4 194.6 191.7 192.3 195.7 199.6 206.1 211 214.1 215.5 215.1 214.3 212.9 211.2 209.4 207.3 204.8 203.2 200.2 196.8 191.9 185.6 183.1 185.7 188 189.2 189.7 192.6 195.5 200.2 202.9 204.3 207.5 209.4 209.8 210.1 210.4 210.7 211 210.7 210.4 209.6 207.8 205.7 202.3 197.1 188.2 185.6 187 190.3 198.6 205.6 211 214.7 217.9 220.6 222.3 223.8
223.1 197.7 184.9 185.9 188 189.5 205.4 203.5 205.9 203.9 201.4 203.6 204.2 204.7 206.1 207.4 209.3 214.2 215.8 217.3 219 221.4 223.9 225.3 226.5 227.8 229.3 230.4 232.4 233.5 234.4 236 237.5 238.1 240.1 241.3 242.3 242.9 244.6 247.3 249.3 251.1 252.6 254 256.2 259.1 261 263.7 265.1 263.5 262.8 262.8 261.8 260.2 257.4 246.6 250.8 252 249.5 252.4 253.4 253.8 253.3 253.1 252.8 251.7 250.6 248 244.2 239.9 230.8 229.2 229 225.5 218.5 215.8 214 211.8 210 208 205.2 203.6 201.8 198.8 194.5 193.7 192.1 189.7 187.3 184.3 182.4 180.9 179.1 176 176.8 178.1 180.4 184.1 196.1 208.6 215.3 216.7 215.8 210 204.4 196 192.1 189.3 172.5 165.9 165.9 186.9 188.8 176.3 174.5 197.8 196.5 198.2 196.6 191.8 178.9 188.9 191.7 196 202.2 206.5 212.1 216.2 219.5 222.3 224.8 227.8 230.8 232.3 231.9 229.9 227.2 222 218.1 211.4 209.5 206.1 201.5 198.2 191 196 198.7 204.8 212.2 217.5 219.8 220.7 220.3 219.6 217.7 215.8 213.6 211.3 208.3 205 200.6 194.9 188.3 187 186.1 188.5 192.1 193.3 193.6 194.8 200.2 203.8 205.5 206.8 208.2 209.4 209.7 209 209 209.3 209.8 210 209.9 209.1 207.7 205.6 201.1 191.7 185.4 191.7 195.4 193.6 193.2 203.3 209.3 213.6 217.3 220 222 223.6
204.2 182.3 184.7 189.7 195.2 191.8 192.1 203.4 200.6 197.3 198.3 199.9 202.8 208.5 213.2 215.5 218.2 219.7 222 223.6 225.6 227.4 229 230.4 231.9 234 234.9 236 237 237.9 238.7 239.8 240.8 241.6 241.5 243.6 244.4 244.8 245.4 248.6 250.6 252.7 254.3 256.3 260 264 266.9 269.3 270.9 270.3 270.3 269.8 268.9 267.8 265.3 260.9 259.4 259.1 259 260.4 261.4 260.5 260.3 260.9 258.6 257.1 255.9 254.1 249 244.5 235 235.4 234.1 228.5 220.4 217 214.6 212 210.1 208 205.4 202.7 200.3 197.5 195.9 194.3 192.7 190.3 186.3 184.1 182.5 181 179 175.3 176.9 180.4 182.7 190.9 203.2 216.7 222.6 220.8 216.1 210.6 203.3 195.9 195.3 191.1 170.1 165.9 177.5 182.2 176.4 168.6 177.2 192.5 179.5 178.3 191.2 187.1 190.2 194.8 194.2 195.9 204.5 205.4 211.6 217.2 222 225.4 228.4 231.8 234.3 235.6 235.1 232.5 227.8 222.5 219.5 216.6 212.9 208.1 204.2 196 197.9 201 204.8 211.3 218.4 223.8 226.3 226.4 224.9 223.7 221.3 218.3 215.3 211.6 208.1 203.6 196.7 191 191.1 193.3 189.9 189.2 195.1 197.4 198.2 198.1 203.8 206.2 207.3 208.1 208.5 208.6 208.8 207.6 207.7 207.8 208.3 208.5 208.7 208.4 207.2 205 197.8 187.7 192.5 200.8 203.4 202.5 199.5 196.9 205.5 210.7 214.4 217.3 219.9 222.1
183.4 182.7 189.3 198.6 201.7 202 192.8 194.1 195.9 198.3 199.2 200 201.7 210 215.2 219.4 222.2 224.8 227.1 229.4 231.9 234.1 235.9 236.8 237.4 240.4 241.7 242.5 242.9 243.2 243.9 245.1 245.4 245.9 246.6 245.5 246.2 246.8 246.9 249.8 251.9 254.1 256.5 259.3 263.3 267.8 271.7 274.6 275.3 276.7 276.9 275.8 274.8 273.9 271.9 269.1 266.6 265.6 265.9 267.1 268.4 268.6 269.2 267.8 264.8 262.8 261.3 256.5 251.9 246.4 240.5 239 234.4 229.3 222.5 218.2 215.5 213.2 209.9 207.3 205 202.6 200.2 197.9 196.8 195.2 193.2 190.3 186.4 184.7 183 180.8 179.3 177.2 176 181.6 187.7 201.4 218 226.4 225.9 221 214.6 208.3 202.4 199.4 196.1 191.8 187.3 183.5 180 175.1 173.3 169.5 169.2 172.8 179.3 182 182.3 185.7 187.9 194.4 197.6 200.7 206.9 211.3 209.3 216.9 224.4 229 232.8 235.7 238.4 239.2 238.4 235.5 230.3 226.4 222.8 218.5 214.8 210.4 203.6 197.5 202.3 205.6 209.9 216.7 224.8 229.9 232.6 232.8 230.7 227.5 223.7 219.1 213.3 206.4 200.1 196.4 197.1 197.9 200 198.4 194.3 189.9 196.3 200.4 202.5 204 205.7 208 208.9 209 208.8 208.3 207.5 206.5 206.1 206.4 207 207.4 207.3 206.9 205.4 201.8 191.2 190.8 201.7 207.7 209.7 209.6 207.6 204.5 201.9 204.5 209.8 212.6 215.7 220.5
179.5 184.6 197.2 202.7 206.9 207.2 194.3 195.6 195.7 198.8 200.7 201.4 201.6 210.1 216.8 222.8 226.4 229.6 232.5 234.9 238.1 240 241.7 242.7 243.5 245.6 247.2 247.8 248.3 249.3 249.9 250.2 249.9 250.4 250.5 249.1 247.3 249.3 249 252 254.2 256.6 259.2 262.1 265.8 272.2 275.7 278.7 280.3 282.3 282.3 280.8 279.8 278.8 276.3 275.4 275 273.6 272.5 272.9 273.6 274.2 274 271.6 267.9 265.5 262.5 258.4 252.7 248.8 244.8 241.6 236.5 229.9 225.3 218.7 215.5 212.7 210.4 207.8 205.1 203.1 200.9 198.7 197.4 195.9 193.1 190.4 187.3 185.3 182.8 180 179.1 177.8 180.7 183 198.6 217.6 230.9 234.3 230.5 222.6 213.4 207.6 202.7 199.8 194.9 192.5 189.8 184.9 181.3 180.6 177.3 171 169.4 173.9 182.5 186.5 188.2 187.4 202.4 205.2 206.1 202.7 206.8 210.1 215.6 212.8 223.3 231.7 236.1 239.7 242.5 243.5 241.5 238.4 233.9 229.9 225.9 221.3 217 212.2 204.9 199.8 206.6 210.6 215.8 223.3 229.9 234.7 237.6 237.6 234.8 230.8 224.7 218.8 211.5 202.2 202 203.4 204.7 205.9 205 202.1 198.1 193.2 195.5 202.1 205.3 207 208.2 209.5 210.2 209.9 209.2 208.2 207.2 205.5 204.4 205 205.6 206.2 205.9 204.9 202 193.5 191.4 199.4 207.2 212.3 213.8 214.1 214 213.5 213.1 211.2 213.8 216.9 218.8 221.7
182.6 194.4 204.3 208.9 209 217.6 217.7 215.2 196.9 196.6 201.4 203.1 203.1 208.1 217.1 226.1 230.4 234.1 237.8 241.2 243.6 245.8 247.2 248.2 249.7 251.3 252.6 252.8 253.5 254.6 255 254.7 254.2 254.3 254.1 253.4 250.4 251.4 252.5 255.1 256.9 259.2 261.9 265.1 269.4 277.4 281.3 283.3 286.5 287.6 286.9 286.4 285.7 283.9 282.6 281.6 280.8 279.8 277.9 277.8 277.6 277.2 275.1 271.3 268.6 265 261.7 258.6 254.8 251.1 248.8 245.1 239.9 233.6 228.3 219.2 215.6 214.1 210.6 208.1 205.7 203.7 201.5 199.1 197.9 196 192.8 190.3 187.7 185.7 182.5 180.7 178.3 181 182.7 188 205.8 224.5 237.3 238.3 233.2 226.2 216.2 207.5 203.1 202.3 198.3 194.7 190.9 190.8 187.7 184.1 179.1 172.4 169.4 173.5 183.9 188.9 190.3 189.9 202.2 203.1 197.1 200.7 204.4 208.6 214.5 220.3 216.5 226.2 238.4 242.1 244.8 245.8 244 240.5 236.4 232.1 227.4 222.6 217.6 213.7 205.1 201.7 207.9 214.8 220.5 227.5 233.5 237.9 240.4 239.1 235.9 231.3 224.5 218.1 210.5 206.2 209.6 210.3 210.7 210.7 208.9 205.7 200.1 194.5 196.4 202.3 206.3 209.2 210.5 211.4 211.4 210.7 209.7 208.2 206.5 204.9 203.3 202 203.5 204.2 203.1 200.6 193.1 193.6 198 205.2 212.2 216 217.7 218.5 218.6 218.6 218.5 217.8 218.2 220.2 222.2 223.8
199.5 209.5 212 216.2 225.1 231.7 235.2 235.5 226.2 206.8 201.1 203 204.6 208.7 217.1 227.5 233.9 238.4 243.7 248.4 250.4 252.2 253.6 254.8 255.9 257.2 257.9 258.6 259.5 260.3 260.7 260.6 258.9 258.6 259 256.8 253.7 254.2 255.8 260 261.7 262.1 266.1 270.7 278.4 284.2 289.1 292.4 294.4 293 291.3 290.6 289 287.4 285.8 284.9 283.8 282.3 280.9 280.2 279.6 277.5 275.2 273.8 271.7 266 263.3 260.6 258.1 255.5 252.9 250.1 246.1 239.2 233.6 225.8 224.2 213.6 211.3 208.8 206.2 204.3 202.4 200.5 198 196.8 193.6 190.3 188 185.4 182.9 179.8 183.7 184.1 185.3 191.7 211.3 228.6 238.5 239.8 233.7 226.2 217.2 209.7 208.7 205.5 199.5 196.6 196 193.6 189.1 185.5 180.7 173.9 170.1 172.7 182.2 188.3 190.6 191.2 192.2 194.2 197.2 200.3 203.2 207.1 212.9 218.6 224.2 220.2 228.8 240.6 244 245.4 243.8 240.5 234.7 230.8 225.4 220.6 216.2 210.6 208.4 209.1 205.6 214 222.1 229.3 235.3 239.2 241.1 240 236.5 230.9 224 218.5 211.3 212.5 214.6 215.4 215.3 214 212 208.1 201.6 197.3 199.3 200.5 206.8 210.4 212.4 213.1 212.9 211.8 210.2 208.6 206.6 204.4 202.4 200.1 199.3 200.3 196.6 194.2 196.5 200.2 204.8 210.9 216 219.6 221.2 221.8 222.2 222.4 222.6 222.5 222.6 223.6 225.3 225.8
217.2 218.2 226.8 233.3 240.4 244.8 246.3 247.3 243.9 231.8 214 203.1 206.3 210 218.3 229.6 237.7 243.7 251.5 256.7 259.2 260.8 261.9 261.9 262.6 264.1 265.9 266.3 266.5 266 266.1 265.5 265.2 264.5 263.7 261.4 258 257.1 259.6 264.7 266.9 267.8 269.8 275.5 281.6 286.8 293 296.7 299.2 297.1 294.1 292 290.5 289.1 287.6 286.2 285 283.7 282.4 281.2 280 277.9 275.5 272.5 271.3 267.6 265.4 263.5 261 258.7 258 255.7 252.3 248.5 240.7 225.5 218.5 214.5 212.1 209.9 207 205 202.6 201.1 199.5 197.7 194.8 190.1 188.2 184.7 182.4 184.4 185.5 186.6 187.9 197.8 216 229.7 236.8 235.7 230.2 224.6 218 214.9 212.1 206.8 201.6 199.2 198.1 193.6 191.3 185.4 182.2 174.5 170.8 171.5 180.1 186 187.6 188.3 190.9 193.1 196.6 201.2 204.8 208 212.3 216.1 220.4 225.8 223.8 227.6 239.5 241 239.2 236.2 232.1 226.8 220.5 218.1 215.2 216 216.2 214.7 212.3 210.2 217.5 226.4 233.8 239 241.3 240.1 236 229.6 224.8 218.8 211.2 217.3 219.8 220.7 220 218 215.1 209.9 202.2 203.5 204.8 204.9 207.3 212 214.6 215 214.6 213.4 211.6 209.1 207.1 204.6 202.6 200.4 198.6 196.4 197.2 200.2 202.7 205.5 210.2 215.9 220.4 223 224.8 225.5 226 226.2 226.5 227.2 227.4 228.2 228.6 229.2
236.6 241.7 246.1 249.8 253.7 255.9 258.4 259.2 256.6 251.4 241.5 219.4 205 209 218.1 231.7 239.7 250 257.8 263.1 265.9 268.2 268.9 269.2 269.7 270.9 272.5 272.3 272.6 273.4 273 272 271.1 270.2 269.2 267.3 263.5 258.8 261.4 269 271.7 273.2 273.5 276.5 282.3 288.6 293.3 296 298.3 297 294.2 292.1 291 289.6 288.2 287.3 286.1 284.8 283.5 282.1 280.8 278.5 275 273.1 270.7 269.3 268.3 267.5 265.3 263.6 262.7 261.3 263.2 254.6 252.3 231.6 221.4 215.4 212.4 210.2 207 205.1 203.5 201.9 200.6 198.3 194.9 190.9 187.5 185.1 186.2 186.4 187.7 190.3 195.1 208.6 223.3 231 234.7 233.2 229.1 225.1 221 217.8 214 208.4 204.7 202.5 198.5 195.9 191.9 188.1 183.3 174.9 171.1 170.6 175 177.6 180.9 184.8 188.8 192.1 194.1 199.3 203.8 208.2 210.2 211.7 213.6 217.3 222.1 227.3 228.7 232.3 233.8 233.8 230.4 228.2 226.4 224.6 223.2 222.2 221.6 220.1 217.8 218 215.7 220.8 229.3 234.5 238.2 238.8 235.8 229.9 224.5 219.9 217.3 221.9 224 225.1 224.9 222.7 219 211.8 204.3 209 210.4 210.5 210.2 214.6 217.3 217.4 217.2 215.2 213.1 210.4 208 205.9 203.8 201.9 199.4 196.7 201.4 203.8 207.1 211.3 216 220.6 223.8 226.4 227.8 229.1 229.6 229.7 229.6 230.2 230.6 230.9 231.3 231.3
256.9 259.9 262.1 265.1 267.2 267 267 269.1 269.8 268.3 261.5 230 206 210.5 217.4 233.1 242.6 255.2 264.7 270.7 274 275.5 277 277.3 276.4 278 278.7 279 279.7 279.8 278.9 277.8 276.7 275.2 273.8 272.3 268.3 262.4 264.2 272.4 276.8 278.5 279.5 280.8 284.1 288.4 292 293.8 295.4 294.3 293.3 291.8 290.6 289.2 288.2 287 286.2 284.8 283.5 282 280 278.1 274.7 272.7 271.1 270.5 270.3 270.4 270.6 270.5 270.2 268.2 258.2 253 252.8 237.3 223 218.5 215.6 210.2 206.9 204.8 203.3 202.6 200.3 198.1 192.8 190.8 188.3 186 187.3 188.1 191.6 197.5 200.5 210.7 222.2 231.7 237 235.8 231.8 227.8 223.8 219.5 215.7 211 205.5 202.4 197.9 193.9 190.1 186.4 182.4 175.6 172.2 171.4 173 180.1 185.7 189.8 192 194.5 197.5 200.4 203.7 206.9 208.6 208.4 208.9 209.7 213.6 217.4 224.5 232.5 232.7 234.2 234.2 234.8 233.2 231.3 230 228.1 226.3 224.8 223.4 223.7 223.7 221.5 223.7 230.3 235.1 237 235.7 231.9 227.4 220.3 221.9 226.8 228.1 229.1 228.9 226.2 221.4 212.2 211.2 213.6 215.1 214.9 216.3 219.6 219.8 220.2 219.7 217.8 216.1 212.4 208.6 206.5 204 201.9 199.4 200.3 203.3 206.6 211 215.4 219.2 222.7 225.4 227.9 229.5 230.4 230.5 230.6 230.9 231 231.3 231.6 231.6 231
273 274 275 274.2 276 278.3 280.2 281.6 281.6 280 272.9 241 207.9 212.2 214.7 233.3 248.4 259.9 271.4 277.6 280.6 282.8 283.8 284 283.9 284 284.7 285.9 285.6 285.5 284.3 283.1 282 280.7 279.1 276.4 273 266 267.3 274.6 279.9 282.6 283.8 284.6 287 289.3 291.1 292.6 293.3 292.8 292.3 291.2 289.6 288.2 286.3 285.4 284.6 283 280.9 279 277.1 275.1 273.2 272.6 271.7 271.4 271.2 271.4 272.1 273.2 273.7 273.7 253.8 253.3 257.3 242.1 225.8 216.3 214.4 209.8 207.1 204.9 203.1 201 199 196.2 194 191.8 189.2 186.6 188.2 194.3 204.1 209.6 211.6 217.7 226.1 236.6 241.4 238.7 234.2 229.8 225.1 219.5 212.9 204.9 202.4 196.7 191.1 189.2 185.2 181 177.2 175.3 173.6 171.8 172.4 180 186.6 192.2 196.3 198.7 200.3 201.4 202.9 203.6 204.8 203.2 201.7 203.6 206.5 212.6 219.3 226.6 233 236.7 237.8 239.5 238.6 237.9 235.4 234.5 232 230 229.4 229.7 229.4 229 227.3 227 231.2 234.3 235.2 232.4 228.8 220.5 228 231.8 233.6 234.1 232.3 228.7 221.3 215 216.2 219.6 220.4 221.3 220.8 221.2 223.2 222.9 221.9 219.7 218.3 214.7 210 206.6 203.7 201.9 198.8 201.4 204.3 207.8 212.4 216.2 220.3 223.5 226.3 228.3 230 230.5 230.7 230.9 231 231.2 231.5 231.5 230.6 229.2
281.1 281.7 283.3 283.7 284 284.8 287.1 288.7 289.2 288.4 282.4 250.8 219.4 212.6 214.5 233.4 250.6 262.3 276 282.4 286.5 288.4 289.6 289.5 289.5 289.3 290.1 290.5 290.7 289.8 287.9 286.5 285.1 284.7 282.9 280 276.1 270.1 270.7 277.1 282.3 285.7 286.4 288.2 289.6 291.4 292.5 293 293 292.2 291.5 290.7 289.2 287.2 284.5 283.1 281.8 279.4 277.8 276 274.5 272.8 272 271.3 270.8 271.1 271.1 271.7 272.6 273.5 274.8 276 274.3 267.8 260.2 247.5 225.4 216.1 212.1 209.2 207.2 204.1 202.1 200.5 198.6 196.6 194.8 191.4 190.9 187.7 190 210.7 216.9 218.7 220.5 226.4 234.8 241.2 241.4 238.6 235.4 230.9 224.6 218.3 211.5 204 198.2 195.4 192.7 189.9 187.7 185.6 181.8 176.3 173.8 172.4 177.8 180.9 186.9 192.7 197.3 200.7 202.5 202.9 201.8 199.4 199 198.2 197.6 199 204.2 210.9 218.1 226 233.8 238.8 242 243.7 240.6 241.3 241.5 238.6 236.4 236.1 235.6 237.2 236.5 235.1 231.4 230.9 232.1 234.8 234.7 232.5 227.5 224 230.3 235.2 237.2 237.2 234.8 230.6 222.6 222.8 222.7 226 227.2 228 226.8 227 226 225.3 223.2 221.4 218.5 215.6 211.9 207.1 205.6 204.2 201.8 202.6 205 209 212.9 216.2 220 223.5 226.2 228.3 229.2 229.7 229.9 230.1 230.3 230.3 230.1 229.8 228.3 226.1
292.3 294 295.4 295.7 296.5 297.8 297.4 297 296.3 293.7 286.6 263.3 237.9 215.1 216.3 230.7 248.7 264.4 279.9 287.5 291.3 293.4 294.2 294.2 294.4 294.7 295 295 294.4 293.5 291.7 289.8 288.1 286.8 285.1 282.1 276.3 274.5 275.9 282.4 285.9 288.7 289.3 291.6 292.4 293.1 293.9 294.3 293.6 292.8 292.1 291.5 289.7 288.1 286.1 283.6 281.5 279.2 276.9 275.1 273.4 271.7 269.9 269.3 269.3 269.4 270.7 272.3 273.9 274.9 275.8 276.5 274.3 268.6 261.5 249 230.6 216.1 210.2 207.6 205.2 203.8 201.8 200.3 198.3 197 195.2 193.5 191 189.9 199.7 222 224.4 225.8 228.8 233.8 239.7 242 240.2 237.8 234.5 228.8 222.7 216.4 210.4 205.2 201.9 199.4 196.6 193.8 191.1 188.1 184.8 179 174.3 172.8 174 183.8 192.2 197.3 199.9 202.8 205.9 203.5 199.6 195.5 193 191.8 194 198.2 201.4 209.2 215.9 223.6 232.7 241.4 246.2 248.1 249.3 248.6 245.8 242.5 242.9 245.5 247.9 246.8 244.8 240.8 236.6 237 236.6 235.8 235.2 233.6 229.9 231.9 234.7 237.7 239.8 239.2 236 231.5 225.8 229.2 229 231.3 231.8 232.8 231.8 230.9 228.9 226.9 224.6 221.7 218.6 214.7 210.5 209.7 208.1 205.5 205.6 206.7 206.3 206.5 211.2 215.4 218.7 222.1 225.1 227.2 228 228.1 228.2 228.3 228.5 228.4 228.1 226.5 224.7 221.6
301.7 302.3 302.4 302.5 302.6 302.6 302.3 301 299.4 296.4 290.4 279 250.9 221 217.2 229.5 248.5 268.8 285.2 291.7 294.8 296.4 297.3 297.5 298.1 298.3 298.5 298 297.3 295.8 294.3 292.6 291.4 289.1 287.2 284.6 282.1 279.4 282.1 286 288.9 291.2 292.5 293.5 294.1 294.7 295.3 294.9 294.1 293.3 292.6 292.6 291.1 289.5 287.2 284.7 282.5 280.1 277.6 275.8 273.9 271.8 269.7 267.2 267.1 267.9 269.4 271.7 273.5 274.8 275.8 275.9 274.4 270.7 265.4 254.9 234.6 213.5 208.5 206.3 204.2 202.8 201.2 200.4 198.1 196.4 195.9 193.6 190.9 186.2 209.7 224.8 226.7 228.4 231.3 236.6 239.3 238.7 236.5 233.5 229.7 224.4 219.2 214.8 210.5 206.5 204 201.6 199.4 197.2 194.5 191.2 188.3 183.5 175.7 173.7 173.6 180.1 188.9 195.2 197.7 201 205.1 202.9 196.2 189.7 188.5 189.4 191.4 195.3 200 204.8 211.4 217.2 226.5 237.4 243.5 249.4 253.5 254.5 252.5 251.4 249.9 249.2 243.8 244.2 248.1 243 241.5 241.3 240 238.7 236.7 235.9 235.7 237.8 239.9 241.1 241.4 240 236.4 232.1 233.5 233.8 233.9 234.9 235.5 235.6 234.6 232.7 230.4 228.1 224.8 221.9 218 216.1 214.9 213 210.4 207.3 209.2 211 212 213.1 212.7 211.1 216.1 219.6 222.4 224.7 225.9 226.5 226.6 226.3 225.1 224.9 224.4 222.9 220 215.8
306.1 306.9 307.3 307.8 307.4 307.1 306.4 304 304.1 303.7 301.3 285.3 252.1 222.9 219.5 222.3 248.8 276 291 296.3 297.9 298.8 299.6 299.7 301 301.3 301.5 301.1 300 298.4 296.8 295.8 294.6 292.3 290.3 288.2 286.2 283.9 286.4 289.4 291.5 293.2 294.3 294.8 295.2 295.7 295.6 295.1 294.3 293.7 293.3 293.9 292.1 290.4 288.3 285.8 283.4 280.9 278.5 276.4 274.7 272.6 270.1 266.7 264.5 265.1 267.8 270.1 272.4 274.1 275.3 276 274.5 268.3 262.9 254.7 237.3 215.9 207.1 204.4 202.9 202 200.3 199 197.8 196.2 194.5 193.2 189.7 197.3 218 223.5 225 226.6 228.8 231.9 235.2 233.9 231.2 228.2 225.6 221.9 217.5 213.3 209.3 206.7 205.3 204.6 203.4 201.6 199 195.7 191.1 185 174.6 174.6 175.1 174.7 180.1 185.9 188.5 188.9 192.2 193.8 186.1 183.4 185.2 186.2 189.2 192.9 195.8 199.9 205.9 212.4 219.2 229.7 237.2 243.3 248.7 250.7 249.6 247.4 245.8 244.9 247.4 248.7 249.4 245 245.4 244.7 242.6 241 240.4 240.3 241.1 242.5 243.4 244.4 244 243 241.2 239.1 237.9 237.4 237.3 237.2 237.1 236.5 235.4 233.6 231.7 229.8 226.6 223.3 221.3 219.4 217.1 214.6 210.6 210.9 213.3 215.3 216.5 217.4 217.4 217.3 215 216.8 219.6 222.2 224.4 225.4 224.3 223 220.3 221.2 221.2 219.4 215.8 207.3
311.5 311.9 312 312.5 314 312.6 310.1 306.7 307.1 308.3 303.5 285.3 257.6 229.2 223.8 222.7 246.1 270.4 297.7 303.4 302.8 302.4 302.6 304.1 304 304.5 304.7 304 303.3 302.4 301.5 299.9 297.7 295.7 293.4 290.3 288.4 288 289.6 291.6 293.7 294.6 295.3 295.8 295.9 295.7 295.5 295.3 294.8 294.4 294.1 295.4 294.6 292.4 290 287.1 284.3 281.9 279.4 276.9 275 273.3 270.8 266.3 262.1 260.7 264.4 268 270.6 272.6 273.8 274.3 272.8 263.5 252.4 240.6 225.2 210.5 206.1 204.2 203.1 201.4 200.6 197.1 197.7 196.1 195.1 192.7 188.1 207.7 216.8 219.5 221.3 222.2 223.6 226.7 229.2 229.8 228.1 223.8 221.8 217.7 214.1 210.1 206.5 204.8 206.4 207 207.6 206 202.7 197.8 190.8 180 174.6 179.7 179.6 178.8 178.2 177.7 178.6 178.8 179.5 180.3 182.3 183.7 183.2 183.8 187.1 191.4 194.2 198.1 202.8 208.6 212.7 218.7 228.3 234.9 239 240.5 239.9 236.9 235.6 238.2 242.3 246.2 249.2 251.5 251.2 246.7 246.2 246.5 243.7 243.9 245.9 246.7 247.5 247.4 246.5 245.1 243.9 242.3 240.9 239.6 239 238.6 237.8 237.2 236 234.8 233.2 231.5 228.3 225.6 223.7 221.4 218.8 216 212.2 214.6 217 218.4 219.6 220.7 221.2 221.1 220.8 220.3 221 222.4 224.2 224.7 224.5 222.7 218.4 215.4 218.1 217.7 215 211
317.6 315.9 315.1 314.8 314.1 309.1 301.9 295.6 288.8 285 278.8 266.8 247.8 229.5 234.3 223.9 246.9 271.3 291.8 304.5 306.6 305.6 306 307 307.5 307.6 307.7 306.8 306 305.2 304.2 302.6 300.5 298.1 294.7 291.9 290.5 290.3 291.5 292.7 293.7 294.2 295.3 295.3 295.3 295.2 295.3 294.9 294.6 294.6 294.7 295.3 295.3 293.8 291.5 288.8 285.8 282.8 279.9 276.8 274.6 272.3 269.9 264.8 260.7 255 259.4 264.2 267.6 269.2 269.4 266.8 261.3 251.1 237.8 224.3 210.6 206.2 205.6 201.2 202.8 200.9 198.6 195.6 195.1 194.1 192.7 191.2 193.6 210.6 214.1 215.9 216.6 217.6 219.7 223.1 225.8 225.9 222.9 220.7 217.4 213.4 209.4 205.3 202.5 202.5 206.2 210.6 211.4 208.5 203.4 195.4 182 176.3 177 181.4 183.9 182.6 182 183.4 182.9 182.6 181.5 185.6 188.7 190.4 188.9 186.7 185.1 189 192.6 195.5 200.4 202.5 206.4 210.6 216.6 223.5 229.8 228.9 228.5 227.9 229.3 233.8 238.6 243.5 248.9 252.8 254 252.2 250.6 251.2 251.4 249.2 248.2 248.2 247.8 248.3 249 247.4 246.1 244.1 241.9 239.5 238.1 238 237.4 236.9 237 235.7 235 233.1 230.7 227.9 225.4 222.4 219.4 216.2 213.7 217.2 219.2 220.6 222.2 223.1 223.3 222.7 223.1 222.3 222.8 223.3 224.2 225 224.5 222.5 218.9 206.3 213.3 213.7 211.5 207.4
321.7 318.4 315.6 308.6 300.6 289.8 277.9 269 261.2 253.4 248.4 239.9 235.1 241.7 243.2 227.5 250.6 272.7 291.1 304 307.7 308 308.3 308.9 309.3 310.3 310.9 309.6 308.8 308 306.1 304.2 301.9 299.3 295.9 294.6 293 293.1 293.6 294.1 293.5 294.3 294.8 294.9 294.8 294.9 295.1 294.6 294.7 294.5 294.2 294.2 294 293.2 291.8 289 285.9 283.2 279.1 276 272.4 269.9 266.3 263.3 259.4 247.1 254.4 260 260.7 261.9 259.6 251.2 242 232.2 217.3 211 207.3 217.4 235.6 215.5 198.5 199.1 198.2 196 195.7 196.8 195.6 195.1 197 200.5 205.2 207.9 210.8 216 220.2 222.9 224.5 222.8 220.6 217.9 214.7 209.8 208 205.1 201.1 198.8 203.3 206.2 207.4 203.2 195.2 180.3 177.3 178.3 181.1 186.3 188.4 189.5 190.1 190.8 189.9 186.8 184.4 191.2 193.9 195 193.6 189.1 188.3 187.5 187.7 189.5 190.1 192.5 197.2 201.3 205.8 212.7 219.5 218.6 218.7 221.2 227.7 233.9 239.7 245.6 252 255.1 255 254.8 255.1 256.8 258 257.4 256.6 256 255.4 254.3 251.9 250 247.4 243.6 242.2 240.7 236.8 235.6 235.9 235.7 235.6 235.1 234.3 233.4 231.5 228.4 225.5 222.4 219.9 216.9 217.2 219.2 220.2 221.5 222.8 223.6 223.9 224 224 223.4 223.2 223.6 224.4 224.3 223.6 221.6 218 205.6 204.9 207.2 204.6 197.2
322.5 318.6 310.8 296.4 280 270.2 265.3 262.4 259.8 257 251.9 250.8 253.6 260.8 248.6 234.7 255.4 274.3 291.8 299.8 305 307.3 308.5 309.7 311 312.2 312.8 312.8 311.6 310.7 308.2 304.5 302.8 300.4 298.2 296.2 295.3 295 294.7 295 294.4 294.8 294.6 294.7 295.4 294.6 294.9 294.5 294.3 294.3 294.2 293.9 293.3 292.1 290.8 288.7 286.1 283.1 279 274.6 270.5 267.6 264.2 261.1 255.1 240.7 239.2 242.2 242.3 242.1 240.3 232.8 222 213.7 210.4 210.6 222.8 239.3 252 240.9 213.9 201.7 199.3 195.3 198.2 198.1 196.6 195.9 198 201.3 209.2 213.7 217.6 221.5 224 225.5 224.8 222.5 219.7 215.9 213.8 211.5 209.3 206.9 202.4 195.9 197.9 198.8 197.1 190.8 180.5 178.5 179.6 182.5 188.4 192.3 194.3 195.6 196.5 196.9 196 191.3 186 193.8 196.7 197.5 196.2 192.6 190.1 190.6 191.4 192.5 194.1 193.8 193.2 195.6 198.2 202.1 206.6 209.3 213.3 220.9 228.5 236.1 242.6 247.7 251.2 252.9 253.6 253.5 257.1 259.6 261.3 261.2 260 258.5 257.2 255.9 254 251.4 248.7 245.5 242.7 240 237.1 235.2 234.3 232.8 232.7 232.9 232.2 231 230.5 227.6 225.4 223.2 221.4 220 219.7 220.6 221 221.4 222.1 222.4 222.7 222.9 223.2 223.3 223.1 223 223.1 222.4 220.6 217.9 214.6 206.1 193.4 200.5 196.8 188
322.1 316.5 306.1 287.8 286.5 286.9 288.4 287.9 286.9 284.3 282.4 280.6 281.4 280.1 259.7 234 259.3 277.7 292 298.3 302.9 305.7 307.2 309.7 311.7 313.3 314.8 314.9 313.6 311.4 309.4 306.3 303.9 301.5 300 298.7 297.4 296.5 296 296 295.3 295.4 295.1 295.2 295.4 295.5 295.4 295.1 294.7 294.8 294.3 294.1 293.3 292 290.4 288.5 285.9 283.4 280.1 274.1 267.7 253.9 249.6 241 235.8 228.6 227.1 224.7 223.9 222.6 221.2 218.3 212.7 218.5 227.2 235.9 248.6 259.6 262.4 255.7 237.7 214.4 200.3 199.5 199.1 200.2 199.1 203.4 200.9 201.7 216.7 221.2 223.6 225.8 226.9 227 225.7 223.7 219.4 216.6 213.5 210.4 208.3 206.3 201.9 195.9 189 190.9 189.4 180.7 179.5 182.8 189.1 192.7 196.1 198.6 200.6 201.4 202 202 200.5 195.2 188.3 195.8 198.4 199.1 198.1 194.6 192.3 194.3 197 198.7 198.5 199 199 195.8 195 198 199.9 204.9 211.5 219.2 228.2 235.4 240 243.1 244.8 245.7 245.6 249.9 255.3 259.1 262.1 262.4 261.5 259.8 258.3 256.3 254 251.6 248.6 245.7 242.8 239.9 237.1 234 230.4 227.9 229.2 228.2 227.2 227.7 227.9 227.7 226 225.3 224 222.7 220.9 220.6 220.5 220 219.3 219.4 220.1 220.5 220.9 221.2 221.7 221 220.8 219.5 217 213.7 210 204.6 192.5 190.6 187.1 178
319.2 311.8 302.1 288 298 302.3 301.9 302.3 303.2 301.9 300.7 298.5 297.1 290.2 266.2 236 257.6 275.8 289.1 296.3 300.7 303.9 306.5 308.7 311.4 314.4 316 316.4 315.2 313 310.4 307.1 304.7 303.3 302 300.6 299.4 298.7 297.9 296.8 297.2 296.5 296.3 296.7 296.3 296.2 296.6 296.5 295.7 294.8 294.3 294 293.1 292.1 290.8 288.6 284.1 278 271.7 263.5 252.4 239.1 227.8 227.2 222.5 222 220.5 219.9 218.1 219 216.9 215.8 231 248.6 257 262.7 269.4 271.5 271.5 266.6 255.6 238.8 216 205.5 205.3 206.8 208.5 206.8 202.7 203.9 220.1 224.4 227.3 228.5 229.2 227.7 226.1 223.6 220.5 216.2 213.1 209.5 204.2 201.3 197.3 193.7 189.6 185.2 181.5 181.1 183 190 196.1 199.9 201.5 203.4 204.8 205.8 205.8 205.5 203.9 199.6 190.7 199.1 200.7 201.1 199.9 196.6 195.1 198.3 202.4 205.6 205.5 204.2 202.3 201.2 199.1 197.2 198.5 201.6 207.3 216 223.7 229.3 233.6 235.8 237.4 237.2 236.6 246.9 252.8 257.1 260.9 262.1 261.5 260.2 258.5 256.1 253.6 250.9 247.9 244.6 241.4 238.3 235.6 232.7 228.5 224.7 223.5 222.8 223.2 222.5 222.8 222.4 225.6 226.6 225.2 223.5 221.8 220 218.3 217 215.9 215.2 215.6 215.8 216.8 216.2 215.4 218.4 217.9 215.9 213.4 208.8 203 195.9 186.8 180.9 179.5 186
309.7 300 290 294.5 304.7 307.3 308.8 310.5 311.6 312.1 311.3 309.4 305.4 296.9 270.6 239.9 258 275 284.9 292.9 299.5 303.8 306.8 309.5 313.1 315.9 317.4 318.1 316.9 314.6 311.9 309.1 307.7 306.3 304.5 303 302.1 301.4 300.4 299.2 298.8 297.7 297.1 297.1 296.7 296.2 296.3 296.4 296.3 295.6 295 293.8 292.9 291.7 289 284.5 275 266 257 242.5 235.2 231.4 228.4 247 251.6 251.4 248.1 241.4 233.2 230.5 237.9 241.9 259.6 276.1 276.8 278.2 277.6 276.9 275.1 271.4 263.4 253.8 239 224.5 217.8 213.5 211.9 209.6 207.2 207.2 221.7 227.2 230.1 231.7 231.4 228.7 224.5 223.7 218.7 214.5 211.4 207.7 202.5 197.1 192.6 190 185.4 182.5 182.3 182.2 187.2 193.9 200.2 203.5 205.1 206.5 208.1 209.2 209.1 208.3 206.2 202.1 194 201.6 203.1 203.6 202.4 199.6 197.5 203.4 208 211.6 212.2 211.2 209 205.8 203.9 202.2 200.7 200.5 203.2 209.9 216.6 221.1 224.6 227.4 229.2 228.6 231.3 239.5 246.1 252.5 256.7 259.4 259.8 259 257.2 254.8 252.4 249.4 246.4 243.5 239.9 236.9 233.8 230.4 227.8 224.9 221.1 220.4 219.8 217.3 215.1 220.2 220.8 219.4 224.2 223.5 222.2 220.2 216.6 212.8 210.4 209.7 210.2 208.7 212.3 214.8 215.7 215.3 214.5 212.1 209.2 204.9 192.9 183.2 182.5 187.1 192 201.2
296.5 296.1 300.5 303.8 306.9 310.7 313.1 314.8 315.7 315.5 315.4 313.6 309.5 296.9 268.1 243.4 262 277.8 287.6 294.2 301.2 304.6 308.4 311.9 315.6 317.6 319.6 321.2 319.6 317.7 315.8 312.5 311.3 310.2 308.7 306.9 304.7 303.8 302.8 301 300.4 299.1 298.6 297.9 296.7 295.4 294.7 294.9 295.6 295.8 295.1 293.4 290.5 287.5 283 271.6 258.2 245.2 235 234.5 238.9 244.3 256.1 271.8 276.9 280.1 279.5 272.7 268.9 263.1 270.7 271.1 283.8 286.4 285.6 285.2 284.6 281.8 278.8 274.3 266.9 258.8 248.6 236.9 225.5 217 214 211.8 209.8 210.9 222.3 227.9 230.8 232.5 231 226.3 223.1 216.9 215.5 210.6 207.6 204.4 199.9 196.2 192.1 186.6 183.8 182.8 183.7 183.8 188 195.6 199.8 203 205.1 205.7 207.7 209.4 209.3 208.2 205.7 201.6 195.3 204.1 206.4 206.6 205.9 202.5 200.3 207.5 212.8 216.7 218.2 217.8 217.5 215.8 212.7 209.7 206.6 204.7 204.9 204.1 208.2 212.9 216.4 219.4 221.6 221.5 226.2 232 240.3 247.4 253.3 256.1 257.7 257.4 255.8 253.3 250.7 247.8 245.4 242.9 240.7 237.6 234.6 231.6 228.5 223.4 224.7 225.1 224 222.4 219.4 213.8 214.4 223.3 218.4 217.5 221.6 220.9 218.6 215.1 210.2 204.3 203.9 202.8 207.5 214.1 216.6 213.9 210.2 207.2 202.5 195.5 183.9 185.5 194.2 201 209.2 215.8
301.1 301.2 304.9 307.3 309.9 312.5 315.1 316.8 317.5 317.5 316.6 314.2 309.7 299.2 271.5 247.1 264.5 281.9 291.6 298 303.8 307.3 311.3 315.6 318.8 321.5 322.9 323.5 322.7 320.9 319.2 317.4 315.8 313.9 311.8 310.3 308.2 306.6 304.9 303.2 301.3 299.8 298.3 296.6 293.9 292 290.9 291.6 292.8 293.7 293.5 292.3 288.9 284.1 273.2 256.2 239 237.9 242.4 255.6 268.5 276.7 281.5 288.3 293 296 295.5 293.5 290.2 286.8 288.7 290.2 291.5 291.8 291.2 289.9 288.6 285.5 281.4 276.4 268.6 258.1 253.4 245.3 233.7 222 215.8 212.8 212.4 212.7 218.6 223.9 226.7 226.3 225.7 224.2 220.8 216.7 209.8 206.6 204.1 201.2 197.6 194.2 189.1 185.7 184 184.2 186.2 188 186.5 192.3 197.3 199.3 200.5 202.1 205 207.4 208.3 207.8 205.3 201.9 198 205.6 209 210 209.7 205.8 204.3 215.2 220.6 223.2 224.8 224.9 225.7 224.1 221.8 218.3 214.3 208.7 207.3 207.1 207.3 208.1 210.4 211.5 215.1 217.4 222.6 227.9 234.9 243 248.9 251.8 254.3 254.7 253.8 251.9 248.9 247.1 244.5 242 239.1 236.1 232.8 231.1 227.7 228 230.3 230.3 228.9 226.9 224.1 219.9 214.1 211.9 217.5 217.9 215.8 221 219.7 216.8 212.3 207.4 202.5 198.9 204 206.8 206.1 204.6 203.4 200.3 192.1 184.1 185.9 192.6 205.6 212.4 219 223.8
306.2 307.4 308.9 310.4 313.1 314.9 316.8 318 318.5 318.6 317.4 314 307.8 298 278.9 261 268.8 283.5 294.8 302.3 307.4 311 314.9 318.9 322.7 324.9 326.9 327.4 326.7 325.4 324.1 322.5 320.4 318.6 316.7 313.6 311.3 308.7 306.3 304.1 300.7 299 296.7 293.2 290.3 288.3 286.7 288.1 289.8 291.2 291.5 289.8 285.4 273.5 262.7 243.1 248.1 254 268.1 277.6 285.5 289.5 293.8 297.1 301.7 304.5 305.8 303.4 300.4 299.3 298.9 299.1 298.2 297.8 296.6 294.5 292.7 289.6 285.3 280.6 275.4 269.3 262.1 254.2 241.4 227.1 219.3 218.4 215.5 215.1 217.9 220.4 221.4 222.1 221.9 221.2 218.5 215 211.3 205.7 200.8 199.2 194.9 191.6 187.2 185.4 185.2 186.5 190.3 191.1 190.7 190.2 192.7 196.5 200.1 202.8 206.1 208 209.7 209.2 207.7 205.3 200.2 207.8 212.4 215.3 214.9 211.4 208.3 220.1 225.8 229.2 231.5 233.5 233.7 230.8 227.2 223.1 218.3 212.3 210.8 210.1 209.4 210.4 211.7 213.6 217.5 220.5 223.1 224.6 228.6 233.6 238.2 243.3 247.5 249.3 249.8 248.3 246.4 244.7 242.5 240.2 236.9 234.1 231.9 229.5 229.1 230.5 232.7 233.8 232.6 231.1 228.4 224.5 220.5 214.8 208.6 207.1 212.3 214.1 216.7 216.9 213.3 209 204.9 199.1 195.6 197.7 195.8 193.6 191.2 187.2 185.3 191.6 193.9 188.1 203 213.5 220.6 226
311.1 311.4 312.8 316.2 317 318.6 319.5 320.8 321.6 321 319.2 316.2 308.2 294.4 277.7 261.9 269.4 285.2 298 305.2 309.7 313.5 317.3 323.4 327.2 329.3 331.4 333 333.2 332.1 330.2 329.3 326.3 323.9 321.5 317.3 314 310.5 307.8 303.9 300.4 296.3 293.5 289.8 287.4 282.8 277.7 278.3 278.1 274.9 271.3 268.8 261.7 252 245.9 243 259.8 269 278.2 286 291.7 295.7 300.1 304.4 309.5 311.7 312.3 310.7 308.8 309 307.7 307 307.2 304.8 303.6 302.5 299.6 295.2 290.7 286.1 280.1 274.7 267.8 261.2 250.2 231.8 221.6 218.7 219.1 219.6 219.5 220.1 218.9 217.4 216.2 215.1 213.9 212 209.3 206.3 203 196.8 193 188.9 186.8 186.4 188.6 193.1 195.2 194.7 192.8 194.3 198.3 202.7 205.8 209.3 211.8 212.9 213.6 213.1 211.1 208.6 203.3 212.4 217.5 220.9 220.1 216 214.3 219.5 226.5 231.5 237 238.8 238 234.5 230.3 224.7 218.8 215.3 214 213.7 213 212.9 213.9 215.1 218.7 225.4 230 232.1 232.4 233.8 235.5 239.1 243.3 245.9 247.2 245.7 243.6 241.6 239.8 237.9 235.5 233.2 232.5 232 231.4 231.5 232.9 232.7 232.2 230.9 228.5 226.1 224 220.4 215.4 213.8 207.2 211 213.3 213.3 212 208 203.9 198.7 191.3 188.7 187.2 187.3 188.2 189.7 195.1 199.3 198.5 193 193 206.7 217.9 224.7
314.8 316.7 318.7 320.4 321.5 322.8 324.3 326.3 326.8 326.2 322.6 318.7 311.1 295.7 273.8 261.5 267.2 286.7 300.3 307.4 311.7 315.8 322.9 329.6 334.3 338.3 339.7 339.9 339.4 339 337.9 335.9 333.8 329.8 325.8 321.8 317.2 313.5 308.7 304.8 299.8 294.3 289.1 285.4 277.3 270.3 262 260.4 258.5 256.1 253.6 251.5 249.5 247.9 243.4 255 275.8 281 286.9 294.8 300.4 306.2 311.1 315.4 319.5 321.9 324.5 325.7 325.2 324.5 323.6 322 320.6 318.1 314.6 311.1 306.4 302.2 297.7 292.6 286.7 280.8 274.9 268.2 259.1 241.9 228 223 223.7 223 221.8 221 218.5 215.2 212.4 209.6 207.1 206.4 205.8 204 199.6 195.1 190.3 187.9 187.8 188.8 193.1 199.1 200.4 199 195.7 198.6 204 210.3 214.6 218.3 220.3 220.3 218.5 218.1 215.7 207.3 210.4 218.3 223.6 226.8 226.5 221.6 219 219.1 223.9 230.1 235.4 238.8 238.2 235.7 231 225.9 222.1 219.7 218.5 217.4 216.8 217 217.2 218.3 219.7 225.3 231.5 236.5 239.6 242.3 243.4 244.3 245.5 246 246.6 244.6 242.9 241.1 239.3 236.7 235.3 234.1 233.2 232.1 231.4 230.7 230.3 230 229.6 228.7 227.3 225.4 223.6 221.7 220 217.2 212.5 202.8 210.7 212.6 209.5 204.7 199.6 192.3 190 195.5 198.2 197.9 195.9 197.1 200.4 203.6 203.3 201.4 195.6 195.3 210.6 220.2
320.2 321.8 323.8 325.9 327.9 329.8 329.6 332.7 333.2 332.2 328.8 324.6 318.1 299.5 271.7 264.4 270 289.2 300.9 310.1 315 320.8 330.3 337.5 342.8 347 348.5 349.1 347.2 344.5 342.2 342.5 337.6 333.4 329.4 324.7 319.8 315 310.1 305.3 299.5 291.6 281 270.3 262.1 259.6 259.3 255.7 254.1 251.9 250.4 250.3 254.3 254.2 259.5 276.7 289.3 292.5 291.6 300.5 307.6 312.6 318.9 323.9 328.7 332.6 334.4 336.2 336.5 335.4 335 333.6 330.6 327.5 323.5 319.1 314.5 310.6 305.2 299.4 293.4 287.4 281.8 275.2 267.7 254.7 236.4 227.6 230.1 228 225.6 222.7 219.6 216.3 212.6 208.2 205.1 202.1 198.8 195.6 193.5 191.1 191.2 188.7 188.6 190 204.8 208.3 207 200.8 201.7 205.1 210.6 218.9 223.9 227.6 228.8 228.2 224.9 222.2 215.1 210.4 219.2 224.6 229.5 233.1 232.8 228.3 226.8 228.4 229.8 233.5 237.5 240.7 240.2 237.2 232.5 229.3 226.2 224 222.2 221.6 221.7 221.2 221.2 222 222.6 224.2 226.9 230.5 236.1 242.2 245.9 248.4 248.4 248.4 247.1 245.4 242.9 241.2 239.5 236.9 235.4 234 232.9 232 231.1 229.7 228.1 226.7 226.1 225.9 225.5 224.4 223.1 221.6 220.1 217.6 214.8 209 204.3 208 211.3 200.6 191.8 193.9 196.2 200.8 204.8 205 204.5 206 206.2 208.1 208.5 207.7 205.1 198.5 204.3 215.5
326.4 327.8 329.8 332.3 334.3 336.5 338.6 339.7 339.9 339.2 335.7 330.9 323.4 307.3 279.5 266.3 269.1 287.7 305.8 314.5 319.5 328.8 339.7 345.8 349.6 353.9 355.9 355.9 353.5 350.4 347.6 345.6 344.8 338.5 333 327.8 322.4 317 311.7 305.5 299.5 287.5 266.9 264.1 264.5 262 259.7 263 273.2 275.6 277.3 279.1 284.2 283.5 288 296.4 300.2 301.7 300.4 307.5 313.4 319.2 325.2 331.7 337.6 341.2 343.3 344.6 344.8 345.1 344.4 343.1 340 336.7 332.5 327.9 323.3 319.7 314.1 307 301.3 294.8 288.9 283.3 275.8 265 241.5 240.7 237.7 234.1 230.2 225.9 222.5 218.1 213.7 208.8 205 201.7 199.2 198.7 195.9 193.8 191.9 191.5 191.9 206.6 215.3 215.2 211.7 204.1 206.6 211.8 216.3 224.1 230.8 234.3 234.7 233.4 229.4 222.5 215.2 215 224.8 229.6 233.9 236.8 237.3 236.1 235.6 236.2 237.4 239 241 243 242 239.2 235.5 232.6 230.3 228.5 227 226.3 225.8 226 225 225.8 226.6 228.2 230.1 235.8 240.7 244.1 247.1 250.1 250.3 248.5 245.1 242.6 240.1 238.1 235.8 235 232.6 232.1 231.5 231.2 231.2 230.2 228.5 226.4 223.1 220.4 221.9 221.9 220.6 219.2 217.8 216.9 214.9 209.7 202.2 205.4 200.2 211.5 199.6 204.9 200.7 203 208.2 210.1 211.1 211.7 212.1 212.7 212.3 210.9 208 199.2 201 209.3
333 335 337.2 339.7 341.6 343.2 344.7 345.2 344.4 342.6 340.2 336.8 331.1 319.8 295.7 270 270.1 286.3 306.8 317.9 322.7 334.5 342.8 350.2 356 359 361.8 361.7 359.8 357.4 353.5 349 346 341.7 336.2 331.3 325.9 319.9 314.2 307.8 300.7 283.5 265.9 266.9 272.4 276.4 276.9 283.9 291.3 294 298.1 301.3 303.1 304.8 305.9 307.7 309.7 311 310.7 313.4 320.1 328.3 333.7 340.6 346.8 350.2 353.4 355.3 355.6 355 355 353.5 351.7 349.8 345.3 341.5 335.5 328.8 323 317.3 309.1 301.9 294.8 288.8 281.5 268 247.4 251.4 246.4 241.8 235.4 231 226.3 221.4 217.6 216.8 212.5 208 204.7 199.7 195.9 194.1 192.4 193.7 201.7 216.2 221.6 218.9 213.7 209.7 216.9 220.5 223.1 229.8 234.5 238 238 236 231.5 225.5 219.4 218.2 227.3 233.1 237.7 240.6 243.4 242.8 243.1 243.6 244.3 245.1 245.2 245.4 243.9 243.4 240.3 237.2 235 233.2 232.2 231.9 231.3 230.2 229.9 230.3 231.9 234 236.9 242 248.3 251.8 253.2 254 252.3 248.6 244.5 240.6 237.4 234.7 231.7 229 227.4 226.5 226.6 226.4 226.7 226.4 225.7 224.6 223.7 221.2 216.1 218.5 217 214.6 212.4 211.6 210.5 207 198.7 197.2 197.8 206.6 212.2 208.9 201.4 206.9 211.5 213.9 215 215.5 216.1 215.6 213.9 212.6 204.3 204.3 206 204.8
339.6 341.4 343.4 345.4 346.7 347.2 347.8 347.5 348 347.5 346.5 343.4 337.7 327.9 309.7 278.4 271.2 284.7 303.4 316.6 326.2 336.2 344.1 352.4 358 361.7 364.6 365.8 363.4 360.9 358.6 354.7 351 346.3 341.5 336 329.8 323.3 317.2 311.4 302.5 281.2 269.5 274.7 277.7 283.8 288.8 295.4 301.2 306.5 308.8 311.9 315 316.3 317.4 317 317.6 318.8 318.8 320.1 329.7 337.1 344.4 352.3 357.8 361.9 366 367.2 368.3 368.7 368 366.1 363.1 359.4 355.1 349.8 344.4 336.9 329.6 321 313.7 306.7 300.5 293.4 286.2 269.9 261.8 259 255.3 249.5 242.2 236.3 232.7 228.1 228.3 224.1 217 210 204.3 200.2 197.2 194.8 195.7 199.4 213.8 224.3 227 224.5 216.2 216.5 225.2 229.6 232.4 236.4 239.1 241.5 241.2 239.5 235.5 229.9 226 223.6 230.4 235.9 241.7 248.9 252.4 252.6 252.1 251.1 251.4 249.8 250 250.8 249 248.6 245.2 242.6 241.6 240.6 238.3 237.7 237.6 237.2 237.1 236.6 240 242.1 246.3 250.5 255.2 258.9 259 259.2 256.5 252.3 247 241.6 239.6 237.7 236 232.8 228.6 225.3 221.3 219.8 218.1 217.9 217.7 217.7 218.6 218.9 215.2 214.8 213.9 211.5 208.3 205.5 201.4 198.1 196.2 196 203.5 209.2 212.6 210 202.9 210.6 214.5 217.2 218.4 218.5 217.7 215.7 211.2 208 209.9 209.3 212.7 213.4
346.5 348.6 349.8 351 351.8 351.7 352.3 351.5 351.2 349.6 348.3 344.4 338.6 330.1 309.3 284.1 273.7 284.3 299.6 313.4 325.8 337.3 345.5 353.3 359.4 363.2 366.4 368 367.6 365.1 363 360.1 356.9 352 347.1 340 333.5 326.6 320.4 314.3 305.6 284.4 273.7 273.4 278.3 284.8 293.3 305 310.2 315.7 320.6 323.1 324 324.4 325.2 325.6 326 327.6 327.7 328.6 336.7 344 350.8 360.2 367.1 370.6 374.3 376.5 378.1 377.3 375.5 373.4 370.2 366.5 361.2 355 348.9 340.7 333.5 324.9 317 309.8 303.6 296.5 286.9 271.4 271.5 267.4 262.8 258.1 250.4 243.6 239.8 235.7 230.7 223.7 216.3 208.9 205.2 202.3 198.8 196.4 198.5 212.5 227.5 232 231.5 227.7 219.3 221.4 229.9 234.9 238.1 242 244.3 245.7 245.6 243.7 239.4 236.3 232.1 230.6 233.6 241 246.4 257.8 262.3 262.4 262.1 260.9 261.1 259 258.7 258.1 257.7 257.2 254.3 253.2 251.3 250.2 249 247.9 248 248.2 248.3 249.3 252 254.6 256.2 259.2 263 266 265.4 265.3 262.3 257.6 250.1 245.7 244.7 242.5 241.1 238.3 234.4 229.9 226.3 222.6 219.7 217.3 214.8 212.7 210.6 209.9 208.4 209.3 208.3 205.3 202.1 199.9 201.3 204.2 204.2 199.7 202.8 211.8 213.7 214.6 208.1 212.3 216.8 219.6 220.9 220.7 217.8 215.5 216.3 217.3 218.8 216 218.9 220.3
355 355.7 356.9 357 357.2 356.8 356 355 353.9 351.5 348.5 344.1 338 328.9 309.5 287.4 273.7 285.3 299.1 313.1 327.5 339 348 355.9 361.9 365.6 369.1 371.7 372.2 371 368.6 366 362.8 358.3 352.8 345.7 336.9 330.7 324 317.6 306.8 294.9 280 275.1 275.7 278.6 290 306.9 318.9 324.7 328.2 328.9 331.3 331.6 331.4 333.4 334.2 334.9 335 335.5 343.8 349.4 356.4 365.2 370.8 376.9 380.1 382.7 383.8 383.1 381 378.4 374.7 370.6 365.8 359.4 352.3 344.3 336.4 328.3 320.7 312.4 304.7 296 287.5 282.2 279.7 275.4 270.2 264.8 258.8 252.2 245.4 239.6 231.3 224.2 216.4 209.7 206.2 202.9 199.3 200.5 211.5 231.4 236.4 237.6 239 232.1 223.1 226.6 235.1 240.5 243.6 244.8 247.6 250 250.6 249.1 246.2 243 241.4 240 238.4 245.8 252.7 266.5 271.4 272.6 273.2 273.4 273.5 273.3 270.1 268 266.8 265.5 264.2 262.8 261.7 260.6 259.6 257.9 257.7 259 259.8 261 260.3 264.2 265.3 267.8 270.4 272.9 274.1 272.7 270 263.7 255.3 254 254.2 250.6 247.8 244.1 240.7 237 232.9 228.5 225.3 221.1 219.1 215.9 214.2 211.4 209.7 205.5 204.9 204.7 206.4 210.4 212.5 212.2 209.5 200.7 204 213.1 214.9 211.3 217.2 213.6 218.2 221.6 223.3 222.3 219.3 222.3 223.3 224.8 225.5 224.2 224.8 226
362.7 364.6 364.6 363 362 360.9 359.4 358.8 357 354.5 350 345.4 338.7 328.2 311.7 292.1 276.8 283.9 298.7 314.7 329.9 343.2 352.7 359.8 364.9 368.6 371.9 374.6 376 375.7 374.1 372.4 369.8 365.5 359.3 350.2 341.7 332.6 323.8 317 305.3 294.6 278.5 276.8 278.7 279.5 283.5 307.6 323.8 332.9 336.2 339.6 339.8 339.2 339 340.2 341.3 342.1 343.5 346.3 350.7 356.1 362.7 369.5 375.1 379.7 384.9 387.6 388.1 388.3 387.9 383.3 379.7 374.2 368.9 362.6 355 346.7 338.5 330.4 321.1 312.6 305.9 299.8 293.8 289.6 286.4 282.7 277.9 271.3 265.5 259 251.9 244.8 238.4 227.6 217.4 210 206.3 203.8 202.2 205.6 221.2 237.7 243.9 245.4 242 239.7 233.5 233 240.6 246.2 249.9 253.3 255.6 257 256.7 255.3 253.1 251.1 250.1 250.6 250.7 251.3 259.3 270.1 274.7 275.6 276.3 276.6 277.9 278.7 278 276.7 274.8 273.9 272.5 271.5 270.3 270.1 270.4 268.7 267.8 268.5 269.4 270.3 269.3 272 274 275.2 278.4 280.4 281.1 281.1 278.6 267.8 264.2 267.5 267.9 262.5 260.5 257.1 253.2 248.7 243.4 237.9 229.9 225.8 223.2 222.7 220.3 218.3 217.9 216.8 214.3 215.1 213.4 214.7 215.6 214.6 210.8 203.6 210 215.3 216.4 213.5 209.7 217.6 220.2 223.5 225 222.9 223.9 225.6 228.4 230.3 231.5 231.4 231.3 231.8
370.4 370.6 370 368.2 366.4 365.5 362.7 362.6 360.5 357.3 353.2 348.2 342.1 334.8 322.9 299.3 279.8 282.6 298.2 315.3 333.8 348.8 357.7 363.7 368.2 371.3 374.3 377.8 381.1 382 381.5 379.9 374 370.1 362.6 351.9 343.5 332.8 322.5 309.8 299 287.3 281.4 281.3 281.3 284.5 286.7 307.7 326.8 336.9 343.9 346.2 345.4 345.4 345.5 347 348.3 350.1 352 354.8 357.8 362.6 368 374.8 380.7 386.1 390 392.7 394.7 394.4 392.8 389.3 385 379.1 371.8 365.2 358.7 350.7 342.1 331.9 322.3 315.8 310.2 304.9 301 296.8 293 288.8 283.2 276.9 270.5 264.9 258.8 252.2 244.1 233.4 221.4 210.4 205.5 206.8 209.4 221.2 233.3 248.3 251.6 250.8 247.8 244 239.5 246 247.9 252.1 255.3 258.2 261.1 263.4 263.7 262 260.5 259.7 259 259.9 261.6 259.5 263.6 271.9 275.1 276.1 276.8 278.1 279.5 280.5 280.3 279.7 279 278.3 279.2 279.7 280.3 280.2 280.6 280.8 280.8 281.7 281.7 280.7 278.5 280.5 282.4 283.7 284.9 286.3 287.9 287.6 284.4 275.8 279.2 278.9 279.8 277.1 274.7 272.4 267.7 261.6 255.2 246.9 234.4 231.7 234.8 233.5 229.8 228.1 228.1 226.5 224.2 222.2 219.6 218.8 218.2 215.8 209.8 204.9 214.3 217.8 218.5 214.7 215.6 222 223.6 225.6 226.6 224.3 226.9 229.3 232.6 235.7 237 236.9 236.5 237
375.9 375.8 375.1 373.3 371.8 370 368.5 366.9 364.8 360.4 356.7 351.8 346 338.7 327.4 303 281.3 282.7 299.7 314.8 334.8 351.5 361.1 367.1 370.5 373.7 376.9 381.6 384.6 386.2 385.7 383.8 377.5 370.8 362.7 352.9 341.6 332.6 317.5 304.6 305 292.9 281.3 281 283.8 284.1 285.3 310.4 328.1 341.6 347.1 349.8 351.2 351.6 352.8 354.2 356.6 358.4 360.1 362.8 365.6 369.2 374.3 379.5 384.7 390.8 395.9 398.4 398.8 399.1 397.3 393 388.7 383.9 377.1 370.4 362.8 354.9 343.4 333.3 326.5 321.1 315.4 311 306.7 302.5 298.1 293.1 287.1 281.2 276.2 269.9 264.9 258.9 250.9 241.9 225.2 214.7 210.1 219.8 233.6 245.2 250.5 255.9 258.8 259.4 257.7 254.1 246.8 253.5 257.5 261 264.7 266.8 269.1 269.9 270.1 270.2 269.6 269.8 268.9 268.8 269.6 269.3 268.8 271.8 274.8 276.1 277.2 278.2 279 280.3 280.7 281 281.2 281.1 281.6 282.5 283.3 284 284.6 285 285.2 285.4 285.4 284.7 284.5 285.7 285.9 289.8 291.3 291.7 292.4 290.8 287.9 283.2 284.8 286.5 287 285.2 282.1 279.4 275.2 270.1 260.4 248 246.2 244.4 249.6 247.1 242.2 240.7 237.3 234.3 230.9 228.1 224.8 222.4 220.1 216.5 209 208 219.6 221.2 220.9 216.5 218.6 223.3 227.9 227.6 229.1 228.1 230.4 233.9 237.1 239.8 241.7 242.1 242.1 242
381.1 381.1 380.3 378.5 376.3 374.5 373.3 371.1 367.8 364.1 359.5 354.3 348.5 341.3 328.4 294.5 285.7 287.1 301.2 317.2 334.2 350.7 361.4 368.8 372.2 375.2 378.9 383.1 386.6 387.4 385.8 382.1 376.8 369.1 361.4 350.9 340.8 329.1 321.7 317.7 315.5 309.7 297.2 287.1 288.9 289.6 287.7 314.8 330 343.1 350.5 354.4 357.4 358.5 360.9 362 363.5 365.1 367.1 370.1 373.6 377.6 382.2 386.6 391.7 397.4 400 401.7 403.1 403.2 401.5 398.3 393.7 389.3 382.9 375.3 366 357.7 348.1 340 334.7 328.2 321.2 316.7 311.7 306.9 301.7 296.6 290.7 284.8 280.1 275.7 270.9 266.1 258.3 249.3 226.6 213.8 214.1 230.8 242.9 252.7 257.2 261.1 264.1 264.5 263.2 258.7 253.9 261.1 265.1 267.6 270.1 271.5 273 273.7 273.9 273.9 273.9 274.1 273.9 273.6 273.9 274.1 274 274.1 274.9 275.8 276.8 277.8 278.9 280 280.9 281.6 281.7 281.5 282 283.4 284.5 285.6 286.2 286.6 286.9 287.3 286.8 285.7 285.3 286.5 288.2 290.3 293.3 294.9 294.8 292.1 289.1 288 288.1 289.6 290.8 289.5 287.3 283.6 279.2 272.1 260.9 262.5 255.5 259.9 260.8 258.3 254.3 249.8 245.2 240.7 236.7 232.8 229.3 225.5 220.6 215.8 208.1 216 223.9 225.7 224.6 220.8 219.7 224.1 229.3 229.6 231.3 232.7 233.9 238.2 242.2 244.9 246.7 246.8 247.2 247.6
386.8 386.5 385.2 383.3 380.9 379.4 377.2 374.7 370.9 366.9 361.8 355.9 349.8 341.7 326.5 298.7 289.8 294.5 303.7 319.4 333.8 349.7 361 368 372.7 376.6 380.3 383.9 386.4 386.6 384.4 380 373.9 367.1 358.9 349.3 337.9 331 326.8 324.5 322.2 316.3 308.7 300.8 292.8 292.3 304.6 318.5 332 345.2 355.1 359.9 363.1 365.4 367.5 369 370.9 373.2 374.7 377.1 380.2 384.2 389.5 394.3 398.6 401.8 404.7 406.7 407.8 407.3 405.4 402.1 398 392.9 387.6 380.5 372.2 364.8 357.5 350 342.8 336.8 330.1 322.9 317.3 311.2 305.5 299.6 293.4 287.9 283.8 279.8 274.7 270.9 265.2 254.4 228.8 216.3 214.4 231.9 242.5 252.9 258.3 261.9 264.3 265.6 265.1 262 259.9 266.6 270.6 272.4 274.1 275.3 275.6 276 276.4 276.2 275.9 275.7 275.7 275.6 275.4 275.6 275.4 274.3 274.7 275.3 276.1 277.3 278.6 279.9 281 282.1 282.7 283.1 283.2 283.6 284.5 285 285.8 286.3 286.7 287 286.8 285.8 285.6 286 287.4 289.6 292.2 294.9 295.8 293.6 289.9 289.5 291 292.1 292 290.8 288.8 285.3 279.8 271.3 273.1 272.2 264 268.5 268.7 266.5 262.9 257.7 251 245.7 241.3 236.5 232.4 228 222 214.4 209.3 221.1 226.3 228.7 227.9 224.8 219.8 227 231.3 233.9 232.8 234.4 239.8 244.4 243.5 248.9 250.7 252.3 251.9 251.2
391.5 390.4 389.1 387.3 385.1 382.8 380.3 377.9 373.7 368.8 363.4 356.5 349 338.9 323.8 299.3 292.1 303.5 312.6 322.6 335.3 348.5 359.6 367.3 372.5 376.9 380.1 383.5 384.5 385.1 382.6 378.3 373 364.9 355.7 347.3 341.3 336 333.2 330.9 327.6 322.2 312.9 305.4 295.5 303.2 311.1 324.2 334.4 345.6 357.4 364.4 368.9 372.5 373.8 376.6 379 381.1 383 385.4 387.8 390.9 394.6 399.2 402.9 405.9 409 411.7 412.2 411.6 409.8 406.8 403.2 398.8 392.6 386 379 372.3 366.5 360.3 353.4 346.1 338.4 330.2 323.9 317.4 310.2 303.3 296.7 291.6 286.5 282.1 278.2 274.6 269.9 259.4 235.9 220.3 215.9 223.4 237.1 246.9 254.3 258.2 261.1 264 265.4 265.5 266.5 269.6 273.5 275.4 276.5 277.2 277.3 277.3 277.2 277 276.7 276.8 276.5 276 275.1 275.1 274.6 274.5 274.3 274.7 275.5 276.6 277.8 279.1 280.6 282.4 283.4 283.5 283.1 283.6 283.8 284.2 284.8 285.6 286.1 286.1 285.9 285.4 284.9 286.1 287.6 289.1 291.6 293.3 294.8 293.7 291.5 292.1 292.5 292.8 292.2 290.8 288.6 285.5 279.8 276.6 279.9 276.2 273.9 275.3 275.3 271.9 267.6 262.8 256.3 249.4 243.8 238.8 234.3 228 219.6 210.9 213.4 222.2 228.2 230.5 229.7 226.9 224.2 230.7 233.9 236.7 238.7 235.7 244.9 246.6 247.4 249.5 252.8 255.9 256.5 257.1
395.7 394.2 392.8 390.7 388.5 385.9 383.1 379.8 375.8 369.3 364.5 355.7 346.1 334 320.3 300.3 296.5 311.4 319.7 327.6 337.6 349.6 357.6 366.2 372.6 377.1 381.4 383.4 385.5 384.7 382 377.6 371.2 364.3 357.5 351.1 346.4 343.2 341 338.7 334.2 326.5 316.4 308.2 296.3 307.2 316.5 325.9 336.5 347 359.6 369.5 375.1 379.1 381.4 384.5 386.6 388.6 390.6 392.3 395.2 397.8 401 404.2 408 411.4 415.7 418.1 418.4 416.4 414.6 412.1 408.3 404.7 398.2 391.5 386.3 380.8 375.1 370.1 363.3 356.8 348.7 340 333 325.3 317.3 309.1 302.1 295 288.8 283.7 279.8 276.6 272.1 261.2 246.7 229 221.6 218.5 226.5 238.5 249.5 254.8 259.8 263.5 265.8 267.6 269.3 271.6 275.1 277.3 277.8 278.2 277.6 277 276.4 276.2 276.2 276.2 276.3 275.5 273.9 272.7 272.3 273.4 273.6 274.3 275.1 275.9 277 278.4 279.8 281.4 283 283.4 283.1 283.3 283.4 283.7 284.2 284.6 285.1 285.3 285 284.2 284 285 286.8 288.7 290.5 292 293.4 293.2 292.4 292.5 292.8 292.6 291.7 290.2 288.3 285.8 283.2 282.6 281 279 280.3 279.1 274.7 270.3 267 262.1 256.2 251 245.4 240.1 233.4 221.3 214.8 217.5 217.7 222.4 230 232.7 232.5 229.5 227.3 232.2 237.6 240.8 243 243.3 238.1 241 241.3 244.4 247.8 251.6 254.1 257.7
399.6 398.2 396.6 394.1 391.4 388.6 385 380.8 376.2 369.6 362.7 353.5 340.6 329.4 317.6 301.9 300.9 317.3 325.6 332.6 341 349.8 358 366.3 372.9 378.3 382.2 384.8 386.2 385.2 383 378.2 373.9 366.3 360.7 357 354.5 352.7 349.9 346 339.5 328.7 318.1 310.4 302.7 311.5 319.2 328 337.8 348.2 363.5 373.6 380.2 384.3 387.2 390.3 392.7 394.6 396.9 399.8 402 403.7 406.4 408.8 413.4 417.6 420.5 422.5 424 423.6 422.2 418.7 414.6 408.9 404.5 398 392.9 388.4 383.8 378.8 373.2 366.6 358.4 351.4 344.4 336.4 327.2 318.9 309.8 300.8 290.7 284.3 281.2 277 272.1 267.2 257.3 240.8 226 221.5 220.6 229.1 236.6 247.7 258.2 263.1 266.8 269 270.5 272.5 274.6 276.8 278.9 279.2 277.8 276.8 275.9 275 274.6 274.6 274.3 272.9 271.4 271 271.5 272.4 273.4 274.4 275.3 275.9 276.9 278.1 279.3 280.9 282 282.7 282.2 281.8 282.2 282.2 282.7 283.1 283.4 283.4 283.1 282.8 282.8 283.7 285.4 287.1 289.2 290.2 291.1 291.3 291.1 291 291.8 291.5 290.7 289.2 287.4 286.8 285.6 284.5 282.8 281.5 280.5 279.8 274.5 269.2 262.7 254.9 249.5 244.2 238.7 233.6 225.4 220.3 221.7 224.9 223.5 229.7 234.1 235.2 235.2 231.6 231.3 235.5 241.3 243.6 246.3 247.3 241.7 240.2 240.8 247.8 250.6 254.6 258.3 260.9
404.1 402.3 400.3 397.8 395.4 391.3 387 381.7 375.5 368.1 359.4 348.1 336.9 326.2 314.1 304.4 306.3 321.9 330.4 337.8 344.4 352.3 360.3 367.3 374 379.3 383.6 386.3 387.5 388.1 385.9 381.7 378.1 369.8 367 365.4 365.1 361.6 358 352 343.7 330.2 319.8 312.1 303.9 313.9 318.8 329.8 338.8 347.7 364.5 375 383.6 387.8 391.3 394.9 397.7 400.2 403.2 405.8 407.2 409.4 411.2 415.5 420.3 423.3 425.8 428.3 429.7 429 427 423.3 419.2 413.9 409.4 404.9 400.6 397 392.6 387.1 383 377.9 371 363.2 355.1 347.8 338 327.3 317.1 305.3 294.1 285.3 282.4 279.4 276.4 270 262.4 249.8 228.1 224.4 221.8 223.2 229.8 240 254.4 262.8 267 268.5 269.9 270.6 272.9 275.6 277.9 278.3 277.5 277 275 273.4 272 271.2 271.8 270.5 269.6 270.4 271.7 272.9 274.3 275.4 275.8 276.4 277.1 277.8 278.8 279.8 280.7 281.1 280.8 280.3 280.4 280.5 280.8 281.1 281.3 281.3 281.1 280.9 281.2 281.9 283.5 285.4 286.7 287.7 288.4 288.8 288.7 289.3 290.2 289.7 289 287.8 285.9 285.9 285.8 285.1 283.9 282 279 276.3 271.4 264.3 254.4 247.2 239.1 232.3 228.1 224.4 225.3 231.5 229.4 229.7 229.2 235 239.1 238.8 239.4 238.2 237.7 243.3 242.7 243.4 248.4 246 241.8 241.5 242.1 243.3 244.1 250.2 255 257
407.9 406.2 404.4 402 399.4 395.3 390 383.1 375.2 365 354 341.9 333.4 322.9 309 315.2 319.9 324.9 333.9 340.5 347.1 354.4 361.7 369.4 375.5 381.4 386.2 389 391.9 392.3 390.7 387.2 384.1 381.6 381.4 379.7 375 370.8 365.3 356.2 345.4 331.6 321.6 315.6 306.5 317.5 324.3 330.5 338 348.5 361.5 376.6 384.5 389.9 394 398 401.6 404.7 407.9 410 412.2 414.1 417.8 421 425.9 428.2 431.7 433.2 434.1 433.5 430.9 427.9 424 419.1 414.9 411.5 407.9 404.2 400.9 396.4 392.3 387.6 381.9 375.8 368 359.5 349.4 336.9 323.2 309 296.3 288.3 285.2 282.3 279.3 272.4 266.1 258.6 241.3 228.6 228.8 223.1 224.8 232.8 245.1 256.6 262.6 264.8 267 268.9 271.1 272.6 273.8 274.4 273.7 272.3 270.2 269.4 268.7 268.7 268.7 268.2 268.7 270.3 273 274.3 275.7 276.3 276.6 276.9 277.7 278.3 278.6 279.4 280 279.8 279.3 278.5 278.1 278.5 278.8 279 278.9 278.7 278.7 278.6 279.1 279.7 281.1 283 283.9 284.3 285.3 286.2 286.9 287.7 288 287.7 287.1 286.5 285.9 285.1 284.6 284.1 283.1 281.3 278.1 273 265 260 255.1 250.8 246.4 241.4 232.5 228.9 236.6 236 236 235.9 235 240.2 243.8 244.2 244.2 243.2 242.9 243.7 246.5 248.7 245.5 244.2 244.4 241.1 236.9 240.4 245.4 245.4 245.8 249
411.4 409.6 407.7 405.1 401.8 397.1 391 383.3 373.9 361.3 349.3 338.3 327.8 313.8 322 331.3 333.3 332.2 338.8 343.6 351.4 358 364.2 372.3 377.8 384.3 391 396.6 402.8 400.7 398.2 396 394.8 394.1 392.2 389.3 385.7 380.8 372.1 359.9 345.3 333.5 324 317.8 309.1 319.2 327.4 335.3 343.5 352.5 360 372 382.6 389.6 395.2 400.2 404.1 407.6 410.7 413.7 416.4 419.2 423.3 426.9 430.5 433.1 435.6 437.4 437.8 437.6 435.2 432.5 429.2 425.5 421.3 418.7 415.8 413.3 411.8 409.1 405.4 400 393.7 386.9 378.9 369.9 358.7 345.1 330.6 312 299.8 293.1 290.7 287.3 282.6 275.3 269.7 263.8 251.3 236 232.2 227.9 224.4 229.2 238.3 248.2 254.6 259.9 263.2 266.2 268.3 269.3 269.5 269.8 269.2 268.3 268 267 266.5 266.2 266 266.5 269.1 272.2 275.4 276.7 277.6 277.8 278.2 278.7 278.6 278.5 278.9 279.1 278.5 277.9 276.5 276.2 276 276.1 276.1 276.2 276.3 276.2 276.1 276.7 276.9 277.6 278.6 280.3 281 281.4 281.7 282.6 285.4 285.8 285.8 285.1 284.8 284.5 284.2 284 283 282.7 282.3 280.7 278.9 275.2 272.6 271 268 262.1 258.1 249.2 234 240 243.7 243 242.3 242.2 242.5 246 248.6 248.7 248.4 247.2 246.1 246 245.2 246 246.8 243.6 240.1 236.8 232.5 233.5 234 235.9 239.7 243.5
414.7 413 410.9 407.9 403.9 398.8 392.2 383.8 372.7 358 345 331 321.3 330.1 337 341.7 341.7 340.7 343.1 347.7 354.4 361.9 367.3 374.9 381.5 388.3 395.3 402.2 411.6 413.4 411.1 408.2 405.4 403.6 403 400.7 395.6 388.2 377.3 362 347.8 335.4 326.2 319.7 310.9 323.1 332.4 340 347.9 358.1 367.4 374.7 382.5 387.1 395 401 405 408.9 412.4 416.2 419.3 423.1 426.8 430.5 434 436.7 439.3 440.9 441.5 441.2 439.9 437.5 435.1 431.9 428.8 427.1 424.9 424.3 424.9 423.5 415.9 410.4 403.5 396.9 389.3 379.7 367.4 351.8 337.4 316.2 303.1 298.9 299 295.1 287.1 280.7 276 270.1 260.4 247.9 236.7 231.6 229.6 227.5 233.9 241.1 249.1 256.5 261.3 264.1 266 267 267.2 267.2 266 265.3 264.7 263.8 263.8 263.9 264.1 264.1 268.5 273.4 276.5 278.3 279.5 280.2 280.6 280.6 280 279.5 278.8 277.8 277.1 275.9 274.9 274.5 274.1 273.6 273.2 273.5 273.5 273.7 274.1 275.3 276.1 276.1 276.9 277.6 277.6 278 278.5 280.1 282.7 284.3 284 282.9 282 281.7 281.4 281.2 280.5 280.5 280.1 279.4 279 278.2 276.9 274.5 271.8 267.5 260.3 244 240 245.9 250.4 249.5 248.5 247.3 248.5 251 250.8 250.9 249.7 248.8 247.3 245.2 243 241 241 239.9 235.9 231.3 227.8 228.2 228.8 229.7 233.3 236.1
417.7 416.4 413.7 410.4 406.1 400.5 393.1 383.9 370.7 357.8 341.9 323.7 333.8 344.8 350.2 348.7 346.9 345.4 347.9 351.6 358 364.9 370.8 377.1 384.3 391.3 398.5 407.7 415.5 424.5 422.1 420.7 416.9 415.4 412.7 410.1 403.4 393.5 380.6 363.9 351.1 340.6 327.1 320.5 314.1 330.2 337.7 344.7 353.2 363.3 373.5 382.9 388.4 393.2 395.8 400.9 405.5 409.4 413.2 417.4 421.2 424.7 428.9 432.5 436.2 439.4 441.8 444 445.1 445.1 444.6 443 441.7 440.3 437.9 437.9 437.3 436.3 435.3 432.3 427.9 421.8 414.7 406.1 398 387.3 374.4 358 342.4 320.5 310 308.8 306.5 302.7 299 290.9 286.5 278.1 270.4 258.9 250.4 239.9 235.7 229.6 233.3 239.2 244.8 253.4 258.9 261.9 263.3 264.4 264.1 263.2 263.6 263 262.2 261.6 261.8 262 262 263.4 268.1 272.2 275.6 278 279.9 280.6 280.8 280.3 279.5 278.9 278.1 277.2 276 274.8 273.7 273 272.4 271.1 271 270.9 270.7 271.1 273.5 274.5 274.8 274.6 274.5 274.7 274.5 274 275.1 278.8 280.3 281.9 281.9 280.7 280 278.6 278.3 278.6 278.3 278.2 278.5 278.8 279.5 279.4 278.2 276 273.5 268.8 258.9 255.8 253.6 246.9 256.4 256.3 254.8 251.9 251 253.3 253 250.8 249 247.3 245.8 243.7 240.4 236.1 234.3 232.6 231.2 227.5 222.9 223.8 224.4 224.2 224.2 227.4
420.9 419.5 416.4 412.4 407.4 401.7 393.6 383.2 370.8 357.4 340.2 332.3 347.3 353 357.5 354.2 351.5 350 350.8 355.1 360.9 367.4 372.9 379.2 387 393.9 401.4 411 419 426.6 431.4 430.7 427.2 423.2 419.7 416.1 409.9 398.8 380.1 363.7 353.5 345.3 330.6 321.2 318.2 334.7 341.3 350 360.5 371.5 381.3 389.7 394.9 398.9 401.2 401.4 406 409.6 413.8 417.9 421.7 425.6 429.8 433.7 437.6 441.1 444.6 446.8 448.2 448.9 448.9 447.8 448 447.7 447.2 448 447.8 446.4 444.5 442.1 437 430.2 422.3 414.1 404.4 393.3 380.1 363.2 345.7 327.1 318.7 318.1 312.8 310.3 307.5 302.6 296.1 288.7 281.8 271.1 261.3 248.4 240.3 232.7 234 236.6 240 247.4 255.7 258.8 260.6 261.8 260.7 261.4 260.4 260.2 260.1 259.2 259.3 259.3 259.4 263 267.1 271 274.3 276.9 278.5 279.2 279.2 279.3 278.8 278.2 277.5 276.6 275.4 274.2 273 271.2 270.1 269.5 268.6 267.8 266.9 270 272.4 273.5 273.4 273 271.9 271.1 269.8 269.6 272.5 275.5 278.5 279.8 279.4 278.3 277 275.9 275.6 275.1 275.4 275.7 276.4 277.8 277.9 278.5 278.3 276.8 274.5 271.9 267.8 264.5 261.1 252.6 260.9 262.1 259 255.2 253 251 249.2 247.8 245.6 242.6 241.3 240.1 237.7 233.3 229.6 225.6 224.4 222.7 218.5 217.5 220.3 217.8 218 219.1
423.9 421.6 418.3 413.5 408.3 402 393 382 369.8 357.3 340.1 343.8 353.7 357.9 360.7 357.6 354.7 352.2 354 358.2 364 369.2 375 381 388.3 396.5 404.8 413.1 421.8 429.6 435.4 437.7 435.1 430.2 426.1 421.8 414.9 401.3 382.7 364.4 355 344.2 335.8 321.8 328.5 338.8 346 355.5 367.3 377.6 389.7 396.6 401 403.9 405.3 402.5 406.5 410.5 414.2 418 421.7 425.1 429.3 434.5 438.7 442.4 446.7 450.2 451.9 454.9 455.1 455.6 456.3 456.9 458.7 458.7 457.9 455.7 453.4 451 445.6 438.1 429.5 420 409.7 398 383.4 366.3 348 331.7 326.2 325.4 321.2 317.1 314.6 312.2 306.5 299.3 291.2 280.6 270.3 257.7 246.1 235.7 236.3 237.4 238.1 242.4 248.1 254.4 257.2 258.5 258.9 258.4 257.6 257.2 256.5 256.5 256.6 256.7 257.2 261.8 265.8 269.7 272.6 274.5 276.1 276.7 277.2 277.6 277.4 277.1 276.5 275.8 274.9 273.6 272.4 271 269.1 267.8 265.4 264.1 266 269.3 271.6 272.1 272.1 271.6 270.6 268.7 266.2 267.7 270.4 273.3 276.3 277.5 277.3 276.3 274.5 273.3 272.7 272.2 272.7 273.5 274.9 276.6 278.8 279.8 279.5 277.7 275.5 274.1 272.6 270.4 268.4 267.5 265.4 265.6 263.5 259.8 254.7 249.3 243.4 240.1 238.9 235.8 233.9 232.8 231.9 229.7 225.7 221.8 218.8 216.7 215.2 212.8 214.9 207.8 207.8 210.8
425.5 423.1 418.1 413.4 408 401.4 392.1 380.7 370.1 357.1 336.7 348.3 356.2 360.5 361.6 359.3 356 355.2 357.3 361.4 365.6 371.7 376.5 383.4 390.2 399.1 407 415 423.5 432.6 440.2 446.5 439.7 434.1 430.1 425.5 418.9 401.7 382 365.3 354.7 348.8 342.4 331.4 331.2 343.6 350.3 361.8 374.4 384.2 394.8 402.2 406 408.2 408.7 407.3 406.4 410.8 414.1 417.7 420.8 425 428.3 434.2 439.9 444.5 450.4 455.5 459.3 462.7 463.9 465.9 467.1 468 468.4 467.9 467.3 465.1 462 458.4 453 445 435.1 425.1 413.3 401.1 385.6 368.1 348.9 335.4 331 331.3 326.5 323 320.8 318.1 314.7 307.5 299.3 288.8 278.8 266.3 254.5 238.1 239.1 240.9 240.4 240.8 244 247.7 251.9 255.5 256.2 255.8 254.7 254.1 253.9 253.9 253.9 254.4 254.9 259.9 264.4 268 270.7 272.4 273.6 274.4 275.1 275.6 275.5 275.3 275.8 275.2 274.8 274.2 273.3 272.1 271 268.9 265.1 261.7 265.1 268.5 270.1 270.1 270.6 270.3 269.3 267.9 265.5 266.1 268.7 271.2 273.9 274.9 274.6 273.9 272.5 270.7 270 269.4 270 270.7 272.5 274.9 277.4 278.8 278.9 278.3 277.4 275.4 274.3 272.3 269.6 268.4 267.6 266.7 265.4 263 258.5 253.1 248.2 241.9 235.3 230.8 228.1 224.5 222.3 221 219.2 216.3 213.4 213.2 211.8 210.7 209.9 209 206.6 202.3
425.2 422.4 417.2 412.6 407.4 400.1 391.1 381 369.2 357.8 342.1 350.4 357.2 361 361.6 360.2 356.7 357.7 360.7 364.4 368.9 374 379.6 385.9 393.9 401.5 409.1 417 426.2 437.8 446.4 456.7 441.1 434.5 429.7 425 415.9 397.1 385.1 366.4 356.2 349.6 343.4 336.8 328.3 348.6 356.4 366 378.5 390.2 401.4 406.8 410.2 412 411.2 409.2 407.1 411.1 414.5 417.8 421.1 424.7 428.8 433.8 440.6 446 455.8 461.5 466.1 469.5 471.9 473.6 475.3 476.3 477.2 477.2 476.2 473.6 470.1 465.3 459.1 450.4 440.2 429.1 417 403.3 388.7 369.3 352 341.6 337.4 336.1 331 328.2 326.8 323.3 319.7 314.2 306.1 297.1 286.4 274 261.8 247.3 245.6 245.4 245.7 242.6 243.1 244.4 248.4 251.2 252.5 253 252.3 251.9 251.3 251.1 250.8 251.5 252.6 257.5 261.8 266.1 268.1 269.5 270.9 272 272.8 273.4 273.5 273.8 274.4 274.8 274.8 274.6 273.9 273.5 272.3 270.4 267.2 260.3 263 266.7 268 268.8 269.3 269.1 268.7 266.8 264.9 263 266.8 269.3 271.3 271.8 271.6 271.1 270.5 268.8 267.4 266.7 267.2 268.2 271 274.1 276.5 278 278 277.9 277.9 276.9 275.2 273.3 271.5 270.2 268.4 266.8 265.6 263.3 260.8 256.3 248.7 243.9 241.2 236 232.8 229.6 228.1 226.6 223.4 219.1 217.5 217.3 215.7 214.4 213.8 212 209.5 206.6
423.8 420.8 414.6 409.4 404.9 398.8 390.4 380.6 371.1 357 342.6 350.8 356.9 360.1 361 359.5 358 359.7 362.8 366.5 371.4 375.8 381 388.6 396.9 405.2 413 421.1 432.8 444.4 449.8 451.4 441.1 431.2 425.9 420.4 410.5 395.4 382.5 365.1 357.6 351.6 344.7 338.2 331.8 351.5 361.3 370.8 383.1 396.1 404.1 410.1 413.5 415 414.3 411.1 409.2 412.4 415.5 418.7 422 425.8 429.9 435.1 442 449.6 459.1 466.3 471.6 475.7 479 481.6 483.8 485.2 485.7 485.6 484.3 482.5 477.4 471.7 464.4 455.6 445.8 434 422 408.7 390.7 371.3 356.2 349.4 345.3 342.4 339.8 334.6 332.7 329.9 325.1 320.1 313.8 302.8 293 284.3 271.1 261.6 254 250.7 249.3 246.3 245 244.4 244.9 249.9 250.8 250.4 249.8 249.8 249 248.3 248.5 248.6 250 254.4 258.3 262.5 264.9 266.5 267.8 268.8 269.8 271.1 272 272.3 272.7 273.8 274.3 274.6 274.4 273.8 272.8 270.7 267.5 261.5 259.5 264 266.5 267.6 267.9 268 268 266.4 264.1 261.1 264.6 266.7 268.6 269.5 269.3 269.1 268.4 266.7 265.4 264 264.1 266.7 270.2 273.5 275.4 276.7 277.1 277.8 277.9 277.6 275.9 274.1 272.5 270.9 268.8 267 265.4 263.2 261.7 258.9 256.3 252.9 248.1 242.5 241.7 237.9 234.6 231.3 226.2 222.6 223.5 222.1 220.8 218.2 216.6 213.9 210.8 207.4
421.1 416.5 411.9 407.4 403 397.3 389.2 378.9 370.9 359.4 345.6 350.4 355.3 358.4 359.8 358.6 359 360.8 364.2 368.5 373.5 377.3 383 392.7 400.3 408.2 416.5 426.3 441.3 449.7 451.4 447 436.9 427.2 420.8 413.9 404.6 393.6 379.5 365.3 358 352.4 345.9 335 346.1 357.5 364.4 374.5 387 399.8 407.5 412.9 416.4 417.5 416.6 413.5 412 413.7 416.6 419.7 423.1 427 431 436.7 443.2 452.8 462.4 470.7 477.3 482 485.7 488.5 491.1 492.8 493.6 493.1 491.8 488.8 484 477.6 470.3 461.1 450.9 439.7 428 413.9 392.2 376.3 362.8 357 353.2 350.5 346.6 344.2 339.3 335.9 331.8 326 319.4 310.2 298.3 288.3 279.6 267.1 261.3 257.3 253.2 249.7 248 246.4 246.4 246.8 247.2 247.9 247.8 247.4 246.6 245.8 246 245.9 247.2 250.5 254.1 258.1 261.2 262.9 264 265.3 266.7 268.2 269.3 270.1 271 272.5 273.6 274.5 274.1 273.1 272.1 270 267.1 260.9 256.1 261 264.1 266.1 266.7 267.1 266.7 265.8 263.4 258.1 260.9 263.7 265.5 266.7 266.9 266.5 265.7 265.1 264 262.7 261.4 264.6 269.2 272.2 274.3 275.2 276.1 276.9 277.9 277.9 276.3 274.3 272.6 270.9 268.7 266.7 264.4 262.1 260.7 260.9 260.1 258.8 254.8 253.2 250 246.1 241.1 234.1 227.9 229.8 229.3 227.8 224.8 222.2 218.5 215.5 211.5 208.1
417.8 414.3 410 405.8 401.2 395.6 387.8 377.9 370 360.8 353.8 349.5 354.5 356.9 358.4 358.9 360 361.8 365.6 370.6 374.9 379.3 387 396.8 404.4 412.2 423.4 435.5 450.9 455 453.1 444 432.2 422.7 415.5 407.5 399.3 388.6 376.8 364.9 357.9 352 346.4 339 352.6 360.6 367.9 377.8 391.2 401 409.5 414.8 418.5 419.5 418 415 413.6 412.5 417.9 421.4 424.4 428.6 433 438.6 445.5 454.9 465.8 475.3 482.3 487.9 492.2 495.4 498.1 499.8 500.7 499.9 498.2 495 490.3 483.7 475.8 466.8 457.5 446.2 433.9 419.5 397.3 383.1 370.7 363.9 360.9 357.2 353.4 349.4 347.2 342.6 337.7 332 325.1 316.5 305.4 294.3 285.7 274.5 263.4 261.6 256.9 255.5 252.1 249 246 243.7 243.5 243.8 245.1 245 244.3 243.8 243.6 243.5 244.1 246.5 249.6 253.4 256.3 258.7 259.8 261.5 263.7 265.2 266.1 266.9 268.5 270.3 272.1 273 273.1 272.4 271.5 269.7 267.1 262.5 255.1 257.7 262.1 264.4 265.4 265.3 265.3 264.5 262.6 258.3 256.7 260.8 262.8 263.8 264.2 264 263.8 263.1 262.9 261.6 259.6 263.4 267.4 270.9 273.2 274.7 276.1 277.2 277.9 277.8 276.7 274.6 272.7 270.8 268.5 266.1 263.7 261.2 258.9 259.3 261 261.8 260.8 259.6 257.1 252 245.3 235.4 237.8 236.6 234.6 232.7 228.7 225 221.7 217.4 213.4 209.5
414.4 411.4 407.2 403.4 399 393.3 385.6 376.3 368.6 360.4 355.7 350.6 352.6 355.5 356.5 358.5 360.3 363 367.4 372.2 376.1 382.1 391 400.9 409.9 419.1 431.4 444.8 459.3 460.8 455 440.5 428.2 418.5 410.4 402.4 394.2 384.2 374.3 364.6 358.5 352.3 346 341.9 357.3 362.6 370.7 379.8 392.5 403.3 410.7 415.8 419.3 420.5 418.5 416.4 416 416.2 419.5 423 425.9 430.8 434.8 441 448.2 457.3 468.5 478.6 485.3 492.6 497.2 501.3 504 505.8 506.7 506 504.1 500.7 496.3 490 482.1 472.9 463.4 453.5 440.5 427.5 406.1 391.2 378.4 371.7 367.3 364.2 360.3 356.9 353.9 349 344 338 331 321.8 311.6 300.2 289.6 280.4 270.8 263.4 260.6 258 256.2 254.6 252.9 251.4 246.9 241.7 240.4 241.8 242.3 242 241.4 241.1 241 242.7 245.7 248.1 250.7 253.1 255 257.5 259.6 261.1 262.3 263.6 265.8 268 270 271.2 271.4 271.1 270.6 269.3 266.8 263.3 256.5 253.4 258.9 262 264.2 263.3 264.9 262.1 260 258.4 253.2 257.1 259.4 260.5 261.2 261.6 261.6 261.6 261.2 259.2 258.2 262.1 265.9 269.7 271.9 273.9 275.6 277.1 278.1 278 276.3 274.3 272.4 270.5 268.1 265.7 263.2 260.5 257.1 257 259.2 260.6 262 262.4 262.6 258.1 250.2 248.8 247.5 244.5 240 237.5 233 228 223.3 219.1 214.9 209.1
410.7 407.9 404.1 400.4 396 390.8 383.1 374.5 365.3 358.9 355.5 351.4 350.9 354.1 355.3 357.7 360 363.4 367.6 373.8 379.2 386.2 394.9 404.6 414.2 426.8 437.9 454.7 468.8 465.4 455 440.6 424.8 414.4 405.2 396.5 388.6 379.6 370.5 363 358.3 352.1 343 353.3 359.9 365.5 374.9 382.5 393.1 404.7 411.1 416.5 419.6 420.8 419.5 417.9 416.3 418.3 421.2 424.7 428.4 432.9 437.3 443.4 451.6 460.8 470.5 480.6 488.2 496.4 501.5 505.4 508.9 511.1 512.1 511.8 509.8 506.6 501.9 495.9 488.1 479.2 469.7 459.7 446.9 435 420.4 402.6 388.1 379.4 374.2 370.9 367.6 363.3 359.8 354.5 349.1 342.9 335.6 326.6 316.4 306.2 293.9 283.8 275 267.3 262.7 260.4 258 256.5 254.3 252.4 250 246.8 244.6 242.2 237.7 240.2 239.4 238.9 238.3 237.9 240.9 243.4 245.2 248.2 250.9 252.8 255.3 256.7 258.5 260.5 262.5 264.9 267 268 268.9 268.8 269 268.2 266.6 263.5 256.7 249.5 255 258.9 260.9 261.2 259.6 260.2 259.7 258.4 253.4 251.6 254.9 256.9 257.5 258.2 259.1 259.4 259.4 257.6 257 260.7 265.1 268.4 271 272.7 274.4 276 276.8 277.1 275.2 273.4 271.7 269.6 267.1 264.6 262.4 259.5 256.2 254.7 257.1 260.2 262.9 264.6 264 262 255.2 250.6 256.1 253.1 246.7 241.6 236.2 228.4 224 218.4 213 210.1
407 404.6 400.7 396.8 393.1 387.9 378.4 367.9 359.8 356.5 352.7 351.9 351.7 352.8 355 357.9 361.2 365.4 369.9 376.2 383.1 389.9 398.3 407.6 421.3 436.1 447.2 462 473.8 469 454.4 436.8 422.7 410.9 400.4 392 383.8 375.8 368.4 362.2 356.2 351.9 344 356.7 362.8 368.6 376.3 385 393.9 403.2 410.2 416.5 419.6 420.7 420.3 419.2 417.7 421 423.8 426.6 430.6 434.6 439.9 446.7 454.3 463.8 472 481.6 489.8 498.7 504.2 509.4 513.2 516 517.6 517.2 515 511.8 507.1 500.9 493.5 484.4 475.3 465 453 439.8 427.8 413.8 397.3 387.3 382.2 378.8 375.1 370.1 365.1 359.8 354 347.7 340.6 331.6 321.5 310.6 299.3 287.6 277.8 269.7 264.9 262.5 260.3 258.3 256.2 253.6 251 247.8 245.2 243 240.8 235.7 237.7 236.6 236.6 235.6 236.5 238.9 241.5 243.5 246.2 249 250.7 252.3 253.9 255.9 258.2 260.7 263.5 265 265.8 266.4 267 266.6 265.7 263.1 258.3 250.7 250.5 255.5 257.7 258.9 259.6 259 258.8 259.1 254.6 249.8 249.2 252.1 253.7 254.7 256.5 256.8 255.8 253.4 255 259.1 263.4 266.5 268.9 271.2 272.9 274 275.3 274.9 274 272.4 270.4 268.3 265.3 263 260.9 258.5 255.3 252.9 256.3 259.6 262.5 265 265.6 264.6 261.7 264.4 262.2 259.6 253.5 245.4 238.2 228 219.6 217.5 216.2 216.3
403.3 400.8 395.8 392.6 388.9 383 371.2 359.1 356.5 354.4 354.4 353.7 352.7 352.4 355.2 359.2 363.1 367.6 374.2 381.4 388.4 395.7 403.8 411.7 427 443.4 455.2 466.5 475.6 467.8 457.6 438.6 420.6 406.9 395.7 387.6 379 373.3 367 360.8 355.8 350.3 353.9 359.5 364 369.6 377.8 387 394.3 402.3 410.1 416 420 421.5 420.9 420.8 418.8 422.6 426.1 429.7 434.4 437.9 443.6 450.6 458.3 465.5 473.8 483.1 491 499.9 506.8 512.7 517.1 520.2 522.3 522.3 520.1 516.1 510.8 504.6 497.2 488.4 479.2 468.8 458 444.1 431.6 419.1 407.9 398.9 390.3 385.6 381.4 376 370.6 364.6 358.8 352.3 344.9 335.7 326.8 316.1 304.9 292.1 281.3 271.9 266.8 263.1 260.8 259.5 257.5 254.8 251.5 248.8 246.2 240.9 238.2 238.3 233.9 234.6 234.9 233.7 233.1 235 236.9 239.8 242.6 245.1 246.1 247.5 249.3 251.8 253.8 256.3 259 261.9 263.2 263.9 264.5 264.8 264 261.6 257.9 252.7 244.1 250.9 254.3 255.6 257 256.8 256.4 255.4 253.4 249.9 245.3 247.5 248.7 251.3 253.4 252.6 250.3 250.4 254.3 257.7 261.7 264.7 267 269.6 271.2 272.3 273 273.1 272.3 270.7 268.7 264 263.6 261.3 259 257 254.5 250.8 254.4 257.8 261.3 264.6 267.1 268.7 255.3 250.2 267 265.9 255.9 242.6 232.5 229.9 229.9 228.3 224.3 220.3
399.1 396.7 391.7 387 383.6 376.2 369.3 363.2 358.9 358 357.3 354.7 353.2 353.1 355.9 360 364.2 369.8 376.8 385.1 391.1 398.8 408.6 417.4 430.3 447.4 460.7 470 473.9 465.8 454.9 439.7 421.8 403.6 392 382.8 376.2 370.2 364.3 358.9 354.9 353.5 356.9 361.1 365.4 370.1 379.1 388.6 395.8 403 411.3 416.7 420.5 422.4 422.4 422 420.9 424.9 428.1 431.7 436.4 441.2 447.1 453.9 460.9 468.6 476.7 484.3 492.5 501 508.6 515.1 520.6 523.9 526.4 526.3 523.4 519.4 514.1 507.5 499.6 491.2 482.2 472.5 460.3 447.2 436.2 422.9 412.5 405.8 397.7 393 387.9 382.1 376.3 369.8 363.4 357 349.6 341 331.1 321 309.2 295.8 283.4 272.3 267.4 264.9 262.8 260.9 258.4 256.1 253.5 250.1 247.4 243.3 238.3 236.4 233.9 233.7 231.4 230.6 229.9 228.7 232.5 234.6 237.2 238 240 242.1 243.3 246.9 249.8 252.5 255.3 257.9 259.6 260.9 262 262.4 261.9 259.6 256 247.3 241.3 246.6 250.2 252.4 253.8 254 253.4 252.8 250.6 247.8 244.1 243.3 244.9 247.6 247.7 246.8 247.4 250.9 254.8 258.1 261 263.6 266 268 269.7 270.4 271.2 271.4 270.5 268.8 266.6 264.6 261.9 259.3 256.8 254.2 251.8 249.3 252.8 256.9 260.2 263.9 266.7 269.3 271.1 270.5 259.3 260.1 248.9 247.4 246.2 242 237.6 233.6 228.9 223.9
398.1 396.7 398.5 397.7 396.3 392 387.1 380.4 368.4 363.2 360.3 356.5 353.8 353.7 357.5 361.2 365.5 373.8 382.5 390.9 396.9 403.5 413.2 422.8 436 449.9 464.4 474.8 472.2 463.8 452.3 436.5 418.3 401.3 388.9 379.6 373.5 367.8 362.9 357.6 355.3 354.9 357.9 361.6 365.7 370.5 379.5 390.1 397.4 403.9 411.7 417.3 421.3 423.3 424 424.1 422.3 427.2 430.2 433.8 438.2 444 450.4 457.9 465.8 472.4 478.8 487.3 495.6 503.4 510.7 517.5 523.6 527.9 529.8 529.3 526.8 522.1 516.5 509 501.3 492.5 483.2 474.2 462.2 449.7 438.6 428.8 416 410.1 404.1 399.2 394.1 387.8 380.7 373.8 367.6 361.5 354.5 345 335.9 325.1 314.4 299.9 284.1 273.1 268.7 266 263.2 261.7 259.5 257.5 255 251.4 248 246.5 243 237.9 235.2 233.2 232.2 231.6 229.1 227.7 227 228.7 231.4 234.8 235.8 237.5 239.5 243 244.4 248.4 251.2 253.9 256 257.7 259 259.8 259.7 257.7 253.5 243.7 238.9 242.5 246.5 248.6 250.3 250.7 250.4 249.4 247.6 245.1 242.3 240.3 242.3 243 243 244.5 248.1 252.2 255.1 257.6 260.1 262.3 264.3 266.2 268 268.5 269 269.1 268.5 266.4 263.3 260.6 258.4 256 253.9 251.5 249.4 247.2 250.4 255.4 259.7 263.1 266.1 269.3 271.3 271.8 269.2 263.8 258.2 255.6 252.1 247.4 241.2 236.3 231.7 226.4
398.6 401.3 402.4 401.6 400.2 398 394.7 388.8 381.2 371.1 363.5 359.6 355.6 354.4 360.6 364.3 370.4 379.1 387.5 395.5 399.4 408.2 419 428.7 441.1 454 465.3 475.9 470.3 461 448.8 434.3 417.9 401.8 387.1 376.9 370.8 365.9 358.9 356.7 354.3 356.5 358.9 361.4 365.7 372.1 381.4 391.6 399.6 406.2 412.8 417.3 421.8 424.4 425.2 425.8 424.2 428.9 431.9 436 440.2 446.5 454.1 462.2 470.3 476.7 483.4 491.3 498.3 506.5 514.1 521.4 526.8 531.1 532.8 531.9 529.2 524.8 518.2 510.1 501.6 492.8 483.4 474 463.9 451.2 441 432.3 420.8 414.4 409.4 404.8 399.8 393.9 386.2 378.7 372.5 366.1 359.9 351 341.4 329.1 318 302.8 285.6 275.2 270.3 267.1 264.2 262.6 260.6 258.4 255.8 252.5 250 247.8 244.6 241.6 235.5 234.6 232.9 230.6 229.5 229 227.3 225.9 226.4 229.4 230.5 232.8 235.8 238.4 240.3 242.9 245.7 248.7 251 253.8 256 257.1 257.1 255.7 252.2 243.4 236.1 237.8 242 244.6 246 246.7 246.7 245.9 244.4 242.4 240.6 238.2 239.4 240.5 243.4 247 249.7 252.1 254.5 256.6 258.7 260.5 262.5 264.5 266.1 266.7 267.1 266.6 265.7 264 261.1 258.9 255.4 252.9 251 249.1 247.2 245.5 249.7 254.5 258.3 261.6 264.9 269.6 271 271.8 271.4 269.4 265.4 259.1 252.1 247.4 243.5 238.2 232.8 227.5
400.3 404 404.9 404.5 403.4 401.3 398.9 394 386.8 377.9 369.2 364.8 356.9 356.5 364.1 367.6 375.1 384 393.8 401.5 407.7 413.6 423.6 434.4 446.2 457.2 464.5 469.5 466.6 454.8 443.1 432.1 415.4 400.2 385.3 375.2 368.7 363.1 357.5 355.6 350.2 356.4 358.5 360.7 365.5 374 385 394.4 401.7 407.2 412.7 417.9 422 424.8 426.3 427.2 425.6 430.9 433.7 438 442.6 448.9 457 466.5 474.3 481.5 488.4 496 503.6 511.1 518.1 525 530.9 534.4 536.2 534.8 531.3 526.2 519.6 511.3 501.5 492.2 482.4 473.2 463.4 451.9 442.3 433.7 425.5 418.9 414 408.9 404.2 399.5 390.9 383.9 377.9 371.4 364.5 355.8 346.6 335.7 321.8 305.2 289.4 278.2 271.8 268 265.2 263.3 261.3 259.1 256.8 253.9 252.1 249 246.6 243.5 237.6 235.3 233 230.8 231.5 229.5 227.8 226.4 224.9 223.8 226.3 228.1 230.6 232.7 234.4 236.6 240.3 242.7 245.8 250 252.4 253.9 254.3 253.1 250.5 245.3 236.1 233.7 236.6 239.6 240.9 241.7 242.9 241.2 239.9 237.6 235.7 236.3 239.4 242.6 245.7 247.7 249.5 251.3 253 254.6 256.2 257.9 260.1 262.4 264.1 264.7 264.9 264.3 262.3 260.6 257.4 255.2 253.1 251 248 245.9 245 244.8 249.2 253.4 256.8 259.8 262.8 266 269.3 271.4 273.5 271.7 268.3 261.6 250.9 242.6 237.9 232.1 226.3 219.2
401.7 405.4 407.2 407.3 406.3 404.4 401.8 397.9 391.3 384 377.2 371.7 364.3 359.2 368.2 372.2 380.1 389.1 399.2 407.6 413.8 419.9 429.1 437.7 448.1 458.3 464.5 465.1 464.2 451.6 439.7 427.6 413.7 398.8 383.4 373.1 366.9 359.5 356.8 355.4 350.7 356.1 358 360.8 367.8 377.2 389.3 399.3 404.6 407.3 413 418.3 422.7 425.1 427 427.8 426.9 432.2 435.7 440 444.7 451.3 459.6 469.8 477.8 486.1 493.2 501.3 508.5 516.4 523.5 529.6 534.7 537.6 538.8 537.5 533.1 527.2 520.1 511.3 501.4 492 481.8 471.6 461.6 452.2 442.1 434.5 427.4 421.7 417.5 412.3 407.6 402.6 395.7 388.4 382.7 376.6 370 361.2 351.8 342.2 329 310.2 296.6 284.7 274 269.1 266.2 264.4 262.2 260 257.7 255.4 253.3 250.3 248 245.3 241.9 237.8 232.5 234.9 232.3 231.3 229.9 228.2 224.6 223.7 223.1 222.7 223.6 227.4 230.1 231.9 234.8 238.4 242.8 246.2 249.3 250.7 251.1 250.4 248.1 245 239.7 231.7 231.3 235.2 237.2 238.6 239.2 236.8 235 233.5 238 239.1 240.7 243.6 246.1 247.4 248.6 249.7 250.8 251.8 253.3 255 256.4 259.2 261.4 262.4 262.6 261.3 259.2 256.7 253.4 252.1 250.5 247.8 245.8 243.8 242.6 244 248.6 251.6 254.1 256.8 260.1 263.1 265.9 268.5 270.4 270.9 269.4 263.5 254.1 246 240.9 232.7 226 222.9
403.7 406.5 408.8 409.6 409.1 407.2 404.5 401.3 395.9 389.2 383 378 371.5 362.5 372.8 378.1 385.2 393.7 403.5 412.4 418.2 424.7 433.4 440.3 449.8 464.6 461.9 461.2 459.1 448 434.5 423.5 409.9 396.7 382 371.9 364.3 359 355.4 350.9 352.8 356.4 358.2 362.2 370.3 380.3 393.2 402.3 407.7 410.9 415.2 418.7 423.3 425.5 427.6 428.4 429.7 434.3 438 442.3 447.1 453 461.3 471.8 480.7 489.9 498.8 507.3 514.8 521.4 528.8 533.5 537.9 540.6 541.8 539.4 534.3 527.8 519.5 510.5 500.8 491 481.2 469.1 459.7 450.4 440.9 433.3 428 424 419.7 415.4 410.8 405.7 399.8 392.4 386.8 381.2 374.5 366.4 357.3 348.2 337.8 323 309 296 281 272 268.5 265.9 263.4 261.2 259.2 257.3 254.9 252.8 249.5 246 241.4 240.3 238.6 236.1 234.2 232.1 230.3 227 224.9 223.6 222.8 221.5 221.2 222.8 226 228.1 229.5 234.5 238.6 243.1 245.9 247.4 247.4 246.8 244.8 241.8 238.7 233.4 229 229.8 231.6 235.4 236 232.9 232.6 233.5 243.1 244.1 242.6 244.9 245.6 246.8 247.6 248.3 248.9 248.9 250.2 252.4 253.7 256 258.2 259.7 260.1 258 254.9 251.9 250.6 249.9 248.2 245.6 243.2 241.9 240.5 242.4 247.5 249.9 251.2 253.4 257.1 259.8 261.7 264.2 267 269.1 268.5 265 260.9 256.5 250.5 238.9 240.3 231.7
404.5 407.8 410.4 411.6 411.7 410.1 407.3 404.5 399.3 392.2 386.4 381.6 376.3 364.7 376.2 381.9 387.6 396.5 406.5 416.8 422.4 429 435.3 441 451.4 457.2 457.6 455.6 452.7 442.6 429.9 419.4 407.3 393.3 379.7 368.8 361.2 357.6 355.4 351.6 355.6 355.3 358.7 363.3 371.4 383 396 404.9 410 413.8 416.6 420.2 424.2 426.5 428.8 429.4 430.3 435.2 439.7 444.3 449 455.2 463 472.7 482.3 492.8 503.8 513 520.1 527.8 533.5 537.3 540.4 542.6 543.4 540.4 535.4 528.3 519.6 509.5 500.1 489.8 478.6 468.6 458.3 448.1 437.4 431.1 428.6 425.5 421.6 417 413.2 408.3 403.2 396.4 390.6 385 379.3 371.6 362.7 354.1 344 332.7 319.6 306.6 294.1 281.3 271.2 268.1 265.2 263 261.1 259.1 257.1 254.6 251.3 246.2 244.4 242.9 240.3 237.4 234.6 232.1 228 226.3 224.8 223.4 222.9 221.7 220.8 220.3 220.8 223.2 226.2 229 232.9 239.2 242.2 243 242.8 242.2 240.8 238.8 236.7 233 228 227.1 228.5 232 233.2 233 232.9 234 244.4 245.9 244.7 244.6 245 245.9 246.2 246.2 246.6 246 247.6 249.5 251.1 253.1 254.6 256.2 256.1 254.3 249.9 249.5 248.3 247.1 245.9 244.2 242.2 240.3 240 240.3 244 245.5 247.5 249.7 252.3 255 257.2 259 261.7 264.1 266.4 265.5 261.1 258.7 254.4 251.6 248.9 240.3
405.4 408.7 411.9 413 413.6 412.8 410.2 407.2 402 395 388.3 383.4 377 368.4 379.8 384.6 389.8 396.9 409.1 419.9 425.7 430.8 435.5 440 450.8 452.7 452.5 450.1 445.6 437.2 424.8 413.7 402.2 389.4 378 363.7 360.2 357.1 351.9 352.5 355.6 356.2 358.7 364.1 372.7 385.4 399.5 407.1 411.7 414.9 417.8 421.5 425.3 427.5 429.5 431.5 431.7 434.5 441.4 445.6 450 456.6 464.6 473.9 483.4 495 508.6 518.3 525.8 531.9 537.1 540.8 543.3 544.1 544.3 541 535.6 528.9 520.2 509.8 498.4 488.1 478 467 455 443.8 435.3 430.5 428.6 426.4 423.1 418.7 414.8 410.6 405.4 399.6 393.8 388 382.2 376 368.9 359 348.6 338 327.6 316.5 301.6 290.2 277.3 270.5 267.7 265.3 263.3 261 258.7 256.5 252.3 248.4 247 244.2 241.3 238.3 235.3 232.5 230 227.2 224.7 223.9 223 222.2 220.8 219.4 219.3 220 222.9 225 229 235.3 237.9 237.2 236.8 236 235.5 234.9 233.9 230.8 226.4 224.7 225.7 228.4 230.7 228.1 228.9 232 244.7 246.5 245.4 244.3 244.3 244 243.9 243.8 243.5 243.2 245 245.7 248.1 249.7 250.7 251.3 250.4 247.3 245.8 246.3 246 244.7 243.4 242.2 240.4 238.7 238.1 238.9 240.5 242.9 244.8 246.6 248.3 251 252.6 252.5 254.8 257.4 257.4 258.1 256.9 256.7 256.2 254.7 253.4 249.1
