ncols 200
nrows 95
xllcorner 390000
yllcorner 234550
cellsize 50
36.7 38.1 39.7 41.2 42.6 43.1 43.6 43.4 43.2 44.4 45.3 44.1 42.3 40.4 40.4 40.9 40.1 39.6 39.2 38.9 38.6 38 37.4 36.1 33.8 31.1 28.3 25.9 24.8 21.7 21.1 20.3 19.5 18.6 17.9 16.1 11.5 11.5 11.8 12 11.7 11.6 11.6 11.6 11.6 11.8 12.6 13.5 14.3 14.9 18.5 18.4 19.8 23.5 25.9 28.5 31.3 33.6 34.2 34.7 36.1 37.7 38.6 39.5 40.3 41.5 43.6 46.2 50.3 52.6 54.7 59.3 66.5 73.3 80.5 87.8 92.7 102.4 113.5 124.6 134.9 149.8 156.9 164.2 170.8 176 185.1 190.7 197.1 207.6 213.7 216.6 219.5 222.8 224.6 225.1 224.1 222.4 220.4 221.9 222.3 221.5 222.4 223.8 224.4 227.7 228.5 229.6 231.3 234 233.4 236.7 238.9 241.6 243 244.2 243.8 243 241.4 240 238.7 236.8 230.6 235.2 236.7 238 238.6 239.1 238 238.9 239.8 238.4 240.7 244.9 242.7 245.5 250.8 251.9 251.4 251.9 254.1 256.8 258.2 258.7 259.1 258.4 258.7 258.6 259.2 261 264.7 267.3 269 270 270.9 272.1 272.9 272.9 271.1 255.1 246.4 243 232.2 228.3 222.6 218.7 211 204.5 201.2 196.8 191.6 189.2 186.7 180.9 175.1 173.1 173 172.9 170 158.3 143.4 133.9 124.1 113.3 101 94.9 90.3 87.3 84.1 81.2 80.7 80.6 78.4 74.2 69.2 66.8 64.3 62.4 60.9 59.5
36.6 38.6 41.7 42.7 43.1 43.7 43.4 43.2 43.2 44.1 45 45.7 38.9 41.6 41.8 40 39.8 39.5 39.2 38.8 38.5 38.1 37.5 36.3 33.7 30.8 27.9 26.2 24.7 22.2 20.8 19.9 19 18.2 17.5 16.6 12.4 11.4 11.6 11.6 11.8 11.7 11.7 11.7 11.7 11.7 12.3 13 13.7 14.3 17.8 17.2 19.3 23.2 26.9 29.7 32.4 34.1 35.2 35.5 36.8 38.6 39.9 40.8 42.5 43.9 44.5 44.6 47.5 49.8 53.6 60.8 69.4 74.8 82.7 87.2 93.4 98.5 108.4 120.2 128.3 139.6 145.7 155.1 165.9 174.1 180.3 186.3 193 198.4 207.7 213 215.3 218.7 220.9 221.8 221.3 219.2 216.8 218.1 218.4 219.3 220.1 220 221.7 224.1 225 225.8 229.2 231.1 228.8 234.2 237.2 239 240.5 241.7 241.9 240.8 238.9 236.1 235.4 229.8 229.5 234.2 235.9 235.5 235.9 235.7 234.5 234.1 235.2 236.2 239.9 238.6 240.3 245.6 249 246.9 248 248.3 250.8 252.5 254 254.4 255.3 255.2 254.8 255.1 255.8 258 260.4 262.9 265.1 267.1 268.1 269.1 269.1 269.1 269.6 269.5 262.4 251 241.4 233.4 225.8 220.1 214.6 208.6 204.3 201.2 199.9 197.9 193.2 185.9 178.8 171.6 171.6 172.6 168.7 157.2 144.4 126.4 115.5 106.5 100.9 98.6 92.6 87.8 84.8 83.3 83 82.5 78.1 74.1 70.1 66.5 64 61.6 60.1 58.6
37.1 39.2 42.1 43.4 43.6 43.6 43.4 43 43 44.1 44.9 43.9 39.3 42.1 37.7 39.6 39.5 39.4 39.1 38.7 38.3 37.1 37.3 36 33.6 30.6 27.7 25.9 24 22.2 20.3 19.4 18.6 17.7 17.1 16.4 13 11.3 11.5 11.6 10.8 11 11.1 11.2 11.3 11.7 12.1 12.7 13.4 13.8 17.5 16.3 17.8 21.5 24.6 28.1 30.8 32.9 34.4 36.7 37.4 39.4 41.1 42.5 44.6 46.6 47.3 47.7 50.1 51.6 54.5 61.3 69.4 75.7 82.7 86 92.6 96.9 104.7 112.6 122.2 132.5 138.1 148.4 161.1 165.9 173.9 181.5 186.4 193.5 205.5 203.4 206 213.5 216 218.2 217.8 216.1 213.7 214.3 214.4 215.6 216.9 217.4 219.7 220.2 220.6 222.5 225.1 226.4 225.6 230 232.8 235.1 237.4 238.3 238.7 238.6 237 234 230.7 225.8 226.4 231.5 233.6 231.6 231.3 232 231 230.1 229.3 234.1 237.1 234.6 237.7 241.8 242.9 242.8 243.8 245.7 248.3 249.6 250.3 250.9 251.3 252.1 251.4 251.4 252.7 255.1 257.6 259.5 261.1 263.1 264.8 265.2 265.3 265.6 266.7 267.3 266.6 260.3 247.9 236.9 231.9 224.4 220.8 215.1 211.9 209.8 207.9 202.1 196.6 188.4 179.5 171.2 168.8 167.3 163.4 154.9 143 129.7 118.9 110.8 107.3 103.7 97.4 91.3 87.5 87.3 86.4 83.4 78.2 73.7 69.8 66.1 63.6 61.1 59.2 57.8
37.3 39.9 41.8 42.7 43.2 43.7 43.5 42.9 42.3 43.1 43.8 43.5 41.5 42 37.2 39.1 39 38.8 38.7 38.6 37.2 35.8 35.9 35.5 34.2 31.1 28.2 25.7 23.6 21.5 19.9 19 18.2 17.3 16.7 16 12.8 11.7 11.9 12 10.9 11.2 11.9 12.2 12.5 12.8 13.1 13.4 13.6 13.8 16.6 16.6 19.7 21.7 23 26.3 28.8 31.3 34.8 36.4 36.9 39 39.7 42.7 45 48 48.7 51.4 54.5 57.5 60.5 65 69.2 74.4 80.6 86 90.9 96.2 104.1 111.6 118.9 127.6 133.1 142.8 153 162.3 170.8 178.4 180.8 188.8 198.2 202.8 207.9 210.2 212.3 213.8 214 214.5 210.7 210.7 211.5 212 213.1 214.6 216.3 216.4 216.6 218.3 220.6 222.9 221.4 224.9 229.1 231.8 233 234 234.9 235.3 234.6 231.7 227.2 217.8 222.4 227.2 228.6 228.1 227.8 228 227.1 225.7 225.5 228.8 228.8 229.2 233.6 237.3 237.6 239.3 239.8 242.1 244.8 246.7 247.6 247.9 247.6 248.9 248.2 248 250 252.3 254.8 256.6 258.1 259.6 260.3 260.9 261.6 262.7 265.6 265.5 265 264.8 259.9 244.6 234.7 231.5 227.3 221.2 218.7 217.5 210.9 203.8 196.8 190.4 180.5 171.4 156.9 154.1 152.9 144.1 134 126.7 120.2 116.2 111.5 107.9 101 95 90.2 89.7 89.7 85.3 79.3 74.4 69.8 66.2 62.8 60.8 58.9 57.1
35.6 38.1 40 41.5 41.8 42.6 42.3 42.4 42.1 41.6 42.5 42.6 41.5 38.4 41.5 37.2 37.9 37.9 37.8 37.2 36.4 35.1 34.6 34.2 33.8 31.7 29.2 26.5 24.1 21.8 19.7 18.8 17.8 16.9 16.2 15.6 12.6 12.1 12.2 12.3 12.3 12.2 12.5 12.8 12.8 12.6 12.7 12.8 13.2 13.6 17.7 17.3 20.9 25.8 26.7 26.3 28.9 32.2 34.8 35.9 37.3 38 39.3 42.2 43.6 47 49.6 53.1 56.6 60.1 63.8 66.6 69.1 72 78.6 84.5 89.7 95.5 103.1 108.9 115.7 125 132.8 140.7 149.3 156 163.7 171.4 174.4 183.6 192 201.2 205 206.1 207.8 209.4 210.6 211.2 209.1 206 210.2 211.5 211.7 212.8 212.8 212.1 213.2 214.9 216.6 217.6 217.7 221.5 225.3 228.2 229 230.1 231.4 231 230.8 229.4 222.1 214.3 221.9 222.2 222.1 222 222.6 223.5 223.7 221.6 220 223.1 223.5 227.7 231.4 233.8 234.2 236.2 236 239.1 241.3 243.9 244.2 244.3 244.8 246.8 246.6 245.5 247.5 249.7 252 253.6 255.4 255.9 256.4 257.9 259.8 254.3 260.7 263.6 262.2 261.3 261.2 254.6 241 234.6 230.3 229.3 223.7 216.8 209.1 204.1 194.9 187.1 179 171.2 159.7 151.6 145.8 139.4 132.2 127.7 122.9 119.5 116.2 111.3 103.1 96.2 94.6 93.2 91.7 87.2 81.4 77.1 71.6 68.1 63.6 61 59.1 57.3
34 35.8 38 39.7 40.7 41.5 41.6 41.7 41.9 41.4 40.9 41 40.1 35.7 41.4 34.2 36.2 36.2 36.1 36.1 35 34.2 33.3 32.9 32.8 32.1 29.7 26.9 24.2 22.1 20.2 19 18.6 17.7 15.7 14.6 13.3 12.2 12.2 12.1 12.1 12.7 12.5 12.1 12.2 12.3 12.3 12.2 12.7 13.2 17.4 18.3 22 27.1 30.2 29.4 30.2 32.2 34.2 36 36.5 37.9 40.6 43 45.6 47.9 49.4 53.1 56.5 59.8 63.5 65.3 68.8 73.2 78.7 83.2 88.2 93.9 98.9 106.2 114.8 122.1 131.9 141.4 148.1 152.8 159.9 167.2 170.2 179.3 188 197.3 200 201 203 205.5 207.6 207.9 206.4 201.1 204.9 208.9 208.1 209.4 209.1 208.9 210.4 211.5 212.6 213.5 215.3 219.3 222.9 224.1 225.9 227.2 228.3 227.6 226.9 223.3 217.2 212.2 218.3 218.3 217.7 217.3 217 217.6 217 217.4 214.5 215.4 218.1 223.5 226.6 228.3 229.5 231.3 233.2 236.4 238.6 240.5 240.8 241.1 243.1 244 243.5 244.2 246.1 248.1 249.8 251 251.6 252.2 254.4 255.3 256.8 258 259.9 261 261.1 260.2 260 258.8 255 249.6 241.9 233 225.6 218.6 208.4 204.3 195.2 187.7 179.1 169.6 162 155.2 148.5 140.1 132.6 127.2 123 125.8 121.4 112.8 101.8 98.2 99.2 98.7 95 90.3 84.6 78.4 73.6 68 64.4 61.2 59.4 57.7
32.4 34.7 36.8 39.2 40.2 41.1 41 41.1 41.2 41.1 39.9 38.9 38.3 34.9 40 37 33.5 35.1 34.7 34.4 34.4 33.3 32.3 32.6 32.7 31.4 28.9 26.6 24 21.1 20.2 19.6 19 18.6 17.1 16.3 13.9 12.1 12.1 12.1 12.1 12.9 11.7 11.7 11.8 11.9 11.9 13 13 12.8 15.8 17.6 21.7 27.2 31.1 32.1 31.6 31.7 33.6 35.8 35.7 36.9 39.1 40.9 44.4 45.9 49.1 52.6 55.9 57.9 61.5 66 70.8 75.4 78 80.6 85.1 92 98.2 104.4 112.2 120.8 128.7 139.4 143 148.1 155.2 161.7 167.2 174.4 181.7 191.9 194.2 196.8 199.3 201.9 205.1 205.6 204.5 196.2 203.6 206.6 204.7 205.9 205.6 206.6 208.3 209.9 211 209.4 213.1 217 219.2 221.2 222.8 224.3 225 224.1 222.7 219.3 211.3 210 215 214.9 213.9 213.5 213 212.6 213.1 213.9 211.3 210.6 216.6 218.7 220.6 222.9 224.2 226.8 231 233.6 236.2 236.6 237.1 239.1 240.9 240.6 240 240.4 244.6 246.5 247.2 247.5 248.2 250.5 253.2 254.2 255.1 255.5 255.7 256.9 256.8 257 255.9 255.1 254.4 252.6 249.4 233.6 225.7 219 207.8 203.6 195.9 188.7 181.8 173.7 166.2 159.7 151.1 143.4 139.5 138 139.2 138.8 128.2 115 109.7 107.4 106.6 105.1 99.6 92.9 87.1 79.6 73.4 68.7 65.2 61.6 59.6 58.1
32.2 33.6 36.3 39.5 41.1 40.7 40.5 40.5 40.6 39.9 38.6 37.7 37.1 34.2 36.1 32.6 32.5 34.3 33.4 34.3 33.6 32.9 31.6 30.6 31 29.4 28 25.9 23.8 22.5 21.7 20.8 20 19.2 18.3 17 13.5 11.9 12 12.1 12.2 12 11.7 11.9 12 12.1 12.2 12.8 12.6 12.5 15.3 17.3 20.2 25.4 30.6 32.4 33 33.4 34.2 36.3 36.3 37.4 39.5 42.3 44.6 47.2 49.9 52.8 54.9 56.4 59.9 64.5 67.5 70.9 71.3 75.1 80.5 88.2 96.2 103.8 111 118.4 125 133.7 142.5 144.5 150.8 157.7 163.7 170.7 177.1 187.8 191.3 194.1 196.2 198.2 199.7 199.9 197.8 191.3 200.7 204.9 202.1 202.7 202.5 204.3 206 207.7 208.4 207 211.3 214 216.1 218.3 219.9 221.4 221.8 221.1 219.4 210.2 204.2 204.1 212 212.4 210.9 209.8 209.4 209.1 209.6 210.6 208 207.7 211.5 212.8 214.1 217.8 221.3 225.2 229 231.5 233.3 232.8 235.1 237.1 237.9 237.6 237.3 238.1 242.1 243.4 243.7 244.1 246.4 249.3 252 253.1 253.9 254.1 254.1 254 253.7 252.9 252.2 251.6 251.1 250.6 249.7 236.2 226.4 220.2 212.4 205.1 201.1 192.6 185.6 178.9 172.1 166.4 162.4 160.2 156.2 155.1 154.7 149.3 139.8 127.9 123.2 119 118.2 112.4 105.3 97.5 88.3 79.2 73.1 68.8 65.5 62.2 60.1 58.5
30.9 32.4 35.5 39.1 40.7 40.3 40.1 40.1 39.7 38.5 37.3 36.4 35.7 33.4 33 38.5 34.9 31.5 33.2 33.3 32.4 32.3 29.5 28.2 28 26.9 26 23.9 22.4 21.8 21.4 20.6 19.7 18.9 18.2 16.6 13.8 11.6 11.7 11.7 11.7 11.6 11.7 12 12.2 12.3 12.4 12.6 12.4 12.6 15.1 17.7 18.5 23.2 28 32.2 34.1 35.1 35.6 36.9 37.6 39.1 40 41.8 43.8 46.6 49.7 51.9 52.3 54.2 57.7 61.4 63.1 63.6 65.9 71.9 79.4 87.4 95.3 102.7 108.7 116.8 122 131.2 139.1 143.5 146.9 153.4 159.4 166.5 174.3 184.9 188.5 191.9 193.9 194.6 194.8 194.4 189.7 186.1 194.1 199.3 196.1 201.1 198.8 202.1 204.4 205.4 205.5 205.9 208.4 210.9 213.7 216.2 217.8 219.3 220.9 219 213.3 202.5 192.9 201.6 208.7 209.4 207.9 206.4 205.8 205.6 206.4 206.8 205.3 202.5 206.5 210.3 213.8 216.7 220 223.1 225.3 228 229.3 231.1 233.3 234.9 235.6 235 234.2 236.9 239.4 239.8 240.6 243.1 245.4 248.1 250.8 251.8 252.3 252.3 252.2 252.1 251.8 251 251 249.3 247.9 247.8 247.3 245.9 231.9 222.6 216.4 207.6 202.9 197.1 190.7 186.4 178.8 171.8 164.1 161.7 160.8 162.4 162.8 159.5 153.3 140.7 136.6 133.4 129.8 121.8 112.2 101.7 89.3 79.9 74.7 69.5 65.6 63 60.5 59
29.4 31 33.8 36.3 38.5 39.9 39.7 39.3 38.4 37.2 36.5 35.3 34.6 31.3 32.1 36.5 35.8 30.2 32.1 34.1 31.4 30.5 28 26.6 25.9 25.6 24 22.4 21.4 20.8 20.5 20.2 19.4 18.6 17.9 16.3 13.1 11.4 11.5 11.6 11.6 11.4 11.4 11.4 12.1 12.5 12.7 12.8 12.5 12.4 13.7 18.6 18 21 25.7 31 34.2 35.5 36.5 37.3 37.4 37.5 39.2 41.1 43 45.8 48.2 50.4 49.8 50.1 52.9 55.3 56.2 58.8 64 70.1 77.3 83.9 90.9 98.2 103 110.4 118.4 124.7 132.3 139.8 145.8 148.2 156.4 165.2 168.9 183 185.6 189.2 190.2 190.9 191.1 190 183 181.7 187.6 190.4 189.2 193.1 193.9 199 201.7 202.7 199.8 202.6 206.8 209.8 212.8 214.3 215.6 217.2 218.1 214.5 206.1 195.5 188.7 199.3 205.2 206.4 205 203.4 202.4 202.1 203.6 202.8 201.4 199.8 208.3 211.2 214.1 216.7 218.6 220.8 222.7 224.7 226.2 227.9 230.9 232.4 233 233.2 232.1 236.4 236.8 236.9 240.9 243.2 244.9 246.1 248.5 249.7 250.2 250.4 250.3 249.5 248.3 247.2 247.5 246.8 245.2 244.6 243.4 242.9 241.1 229.3 221.3 214.2 207.8 202.2 196.8 189.8 183.9 175.4 167.3 161.4 159.5 160.7 161.8 162.8 161.7 159.3 153.1 148 137.3 125.5 114.5 102.5 89.6 81.4 74.9 69.3 66.2 64 61.5 59.5
28.5 29.8 31.5 33.9 35.8 37.8 38.8 38.4 36.9 34.8 36.4 34.4 32.1 30.7 30.1 33.6 35.5 28.4 32 34.6 29.5 28.6 27.4 25.8 24.6 23.9 23.4 21.4 20.5 19.9 19.5 19.2 18.9 18.3 17.4 15.3 12 11.8 11.9 11.9 11.6 11.3 11.3 11.3 11.4 11.9 12.5 12.6 13.1 13 13.8 18.7 17.2 20.3 25.5 30 33.2 33.9 34.5 35.2 35.5 36.7 38.4 40.4 42.6 44.9 47.3 48.9 47.8 47 48.3 49.5 51.5 57.2 64 71.4 76.8 82.8 88.2 93.2 99.1 104 111.8 119.8 126.9 136.6 144.1 146.9 153.7 159.7 169.1 180.6 182.3 183.4 184.7 186 187.3 185.5 177.2 178.3 183.3 183.6 184.8 185.6 189.7 194.6 196.6 193.5 193.8 202.2 207.2 210.6 212.8 213.5 213.5 214.5 213.7 208.9 198 187.9 185.1 196.3 202 203.4 202.1 200.4 198.9 199.3 200 199.4 195.2 196.6 203.5 207.4 211.2 214.3 215.4 217.9 219.8 221.4 223.9 223.9 227 228.6 229.1 228.3 231.6 235.6 234.2 235.7 239.8 242.1 244.2 244.5 246 247.7 247.9 248.1 248 247.5 246.6 245.2 243.9 243.4 242.2 241.1 240 238.6 238.1 236.5 224.4 218 213.3 205.2 199.3 193.2 185.2 177.8 169.1 161.1 157.4 157.8 159.7 160.7 162.4 162.3 162.9 154.3 138.8 124.2 112.2 99.9 87.5 80.2 74.3 69.7 66.8 64.5 62.4 60
27.7 28.8 30.4 32.2 34.2 36.3 37.3 36.6 34.5 32.4 30.9 30.4 30.5 31.2 31.1 28 31.5 31.1 31.9 31.3 26.8 26.7 26.6 26.1 25 24.3 22.4 21 19.6 19 18.6 18.3 17.9 17.6 16.2 14.4 11.9 12.2 12.1 11.8 11.5 11.3 11.3 11.3 11.6 11.8 12.2 13 13.3 13.7 13.7 20.2 17.1 20.1 24.5 28.9 30.5 31.1 31.6 32.6 34.4 36.4 38.3 39.9 42.3 44.3 45.8 45.7 44.8 43.8 44.8 47.3 50.9 55.7 63 69 75.1 81.3 84.8 90.9 98.4 99.9 107.7 115.7 124.2 134 141.1 146 151.9 158.1 167.4 178.9 179.9 176.8 177.4 174.4 182 179.4 170 174 178.5 178.7 180.7 180.5 185.9 189.1 188.2 186.1 192.7 196.9 204.4 206.7 208.4 209.2 208.2 209.4 207.4 201 190.2 182.6 182 192.8 197.7 198.8 199 199 195.9 196.4 197.6 190.1 189.1 199.6 201.4 204.1 207.5 209.5 210.8 213.3 215.8 219 220 219.8 223.8 225 223.5 224.5 230.8 233.1 232.8 234.3 238.2 240.2 241.7 242.4 244 245.5 245.5 245.4 245.4 245 244.1 242.8 242.3 240.3 239.3 238.4 237.3 235.9 234.6 233.8 232.2 224.8 215.6 209.8 201 193 185.5 178.1 169.1 161 155.1 155.1 155.6 159 159.7 161.2 159.5 148.4 133.9 117 106.4 94.1 85.8 79.5 74.6 70 67.5 65 62.9 60.7
28.2 28.7 29.7 31.4 33.2 35 35.1 33.8 32.2 31.5 36.4 34.4 32.6 33.7 33 33.3 30.8 32.4 31.8 28.6 25.8 25.4 25.7 25.9 25.6 24.2 22.6 20.9 19.2 18.3 17.7 17.4 17.1 16.8 14.6 13.8 12.8 12.2 12.1 11.7 11.4 11.2 11.2 11.5 11.8 12.1 12.1 13.5 13.8 14 14 20.8 17.6 20.7 24.6 27 28 28.3 29.5 31.8 34.1 36.5 38.1 39.8 41.4 42.2 42 41.6 41.1 42.8 45.3 48.3 51.4 56.2 60.5 64.9 70.8 76.1 81.7 87.1 92.9 97 103.9 110.5 119 127.2 133.7 141.5 148 155.5 162.3 173.2 176.9 170.6 172.2 172.5 177.7 168.4 163.8 171.7 174.2 174.7 177.3 177.2 180.8 180.6 179.2 186.6 190.5 193.5 197.5 200.1 200 198.2 202.3 203.7 200.9 193.5 185.4 177.1 178.4 188.4 192.3 192.9 193.6 194.6 194.6 192.7 191.2 183.2 193.1 197.6 199.8 201.7 203.7 204.7 206.6 209.7 212.9 215.7 216.1 217.1 220.5 221.2 217.6 225.1 228.7 228.9 228.9 234 236.6 238.6 240 240.3 242 243 243 242.9 242.8 242.6 241.5 240.4 239.2 237.6 236.3 235.4 234.5 233.2 231.5 229.8 228.6 227.5 215.6 208.9 199.1 193.5 183.6 175.9 168.5 160.3 150 146.1 146.2 148.1 150.1 151.4 154.2 143.1 126.9 109.6 99 91.2 83.6 79.4 74.7 70.6 68.1 65.6 63.4 60.6
28.9 29.3 29.7 30.7 32.3 33.7 33.2 32.1 32.5 32.8 35.4 35.3 34.6 34.1 33.2 33.2 28.9 31.2 29.7 28.5 27.1 24 24.7 25 24.4 23.8 22.3 20.4 18.9 18 17.1 17.1 17.1 16.7 13.9 12.3 11.9 12 12.2 11.9 11.4 11.2 11.5 11.7 12 12.3 12.7 14 15.1 15.2 15 19.1 16.9 20.9 23.2 24.2 24.3 25.5 27.9 30.5 33.2 34.9 36.1 37.2 37.5 37.6 37.5 37.9 40.1 43.3 46.5 49.5 52.5 56.9 59.2 61.1 67 74.1 79.3 83.9 89.1 93.1 96.9 104.4 114.2 118.5 127.6 137.2 143.1 150.7 156.8 167.2 173.3 172.8 172.3 174 169.7 159.2 158.4 168.6 167.5 173.4 172.6 173.4 175.7 172.4 178.8 183.3 186.9 188.1 189.4 191.9 189 191.3 196.8 198.2 193.4 186 180.8 170.5 173.6 183.5 188.7 188.7 189.2 190.3 190.6 187.1 183.1 181.1 190 195 197.6 199.8 200.7 201.7 204.2 206.7 209.9 212 212.1 213.6 216.5 216.4 216.7 222.7 223.1 224.3 229.6 233.1 235.1 237 237.5 239.1 239.9 240.6 240.6 240.5 240.4 239.7 238.8 237.8 236.5 234.8 233.4 232.4 231.9 230.5 228.6 226.9 225.4 223.2 213.1 205.7 195.9 192 182.5 175.3 167.4 159.2 150.9 138.4 132 133.6 133.6 138.8 141.5 137.1 124.5 109.9 99.8 90.4 83.9 78.8 73.3 70.1 67.5 64.6 62.5 60.4
29.5 30 30.7 31 31.4 33.4 33.2 33.4 33.8 34.4 35.3 35.4 35 34.5 33.6 32.6 32.4 30.4 28.7 26.8 25 23.3 22.7 23.3 23.3 22.4 21.5 19.9 18.5 17.6 16.7 16.4 16.6 15.6 13.7 11.5 11.6 11.7 12 12 11.3 11.2 11.3 11.5 11.8 12.1 12.9 13.2 13.8 13.7 14.3 22 17.5 21 21.7 22.1 23.1 24.4 26.2 28.6 31.3 31.7 32.8 33.2 33.9 34.5 35.7 37.7 40.8 43.5 46.7 50 53.2 55.9 57.8 58.1 66.7 71.6 75.1 79.3 83.2 89.7 94.3 101.3 108.3 113.2 120.2 131.6 139.9 147.5 152.9 163.8 168.1 168.6 169.3 169.2 161 153.8 154.5 160.2 165 169.1 167.1 171.3 169.8 168.7 176.6 179.6 182 182.5 183 184.3 185.2 188.2 190.3 191.3 186 179.6 171.5 164.2 169.7 177.9 182.4 183.9 182.7 184.8 184.5 179.6 174.5 175.8 185.9 191.6 195.2 196.3 196.4 199.5 200.9 203.9 206.1 208.3 208.9 210.2 211.7 209.2 215.4 219.5 218 224.5 228.5 231.5 233.4 234.7 235.1 236.6 237.9 238.1 238.2 238.1 237.5 236.8 236 235 233.9 232.2 230.5 230.1 229.3 227.8 225.7 223.9 222.3 221.1 210.1 203.3 194.3 189.2 180.8 174.3 166.2 158.1 150 146.3 134.4 123.1 119.9 121.3 128.1 140.2 126.8 113.7 103.6 94 84.5 78.3 73 68.3 66.1 62.9 60.7 59.8
30.7 31.4 32.1 32.1 34.9 34.5 34.5 34.6 35.1 35.6 35.7 35.9 34.7 34.9 34.2 32.6 32.3 28.2 29.2 27.6 25.5 24.6 22.1 21.7 22.1 21.5 20.6 19 18.5 17.9 16.9 15.4 15.7 14.1 11.9 11.2 11.6 11.8 12.1 11.8 11.2 11.2 11.2 11.2 11.4 12.1 12.9 13.2 13.3 13.6 13.9 22 18.4 21.2 23.8 24.5 24.7 25.3 26.1 27.2 29 29.7 31.7 33.9 34.8 35 36.4 38.2 40.7 43.4 45.6 48.4 51.4 53.6 53.8 56.3 63.5 65.3 69.7 74.7 80.6 86.5 93.4 99.1 102.7 107.8 116.5 126.8 135.6 143.2 149.6 156.5 159.1 161.8 162.8 162.8 154.4 147.3 149.9 153.5 160.5 163.5 161.9 166.5 163.5 166.6 172.4 175.8 176.5 177.3 178 177.9 178.5 180.9 182.3 183.6 179.6 172.3 165.4 157.3 163.3 172.9 174.7 177.7 176.7 173.6 170.1 170.3 169.4 175.8 184.8 188.4 190.2 190.8 193.4 196.4 199 199.1 200.5 202.7 205.7 202.7 203.9 206.9 213.5 213 217.3 223.2 226.7 228.6 231 232.1 233.7 234.4 235.6 235.7 235.7 235.2 234.5 233.8 233.1 232.3 231.2 229.6 228.2 227.8 226.6 225.2 223.1 221 219.3 217.9 208.2 201.5 192.2 186.1 179.5 171 164 156.6 148.6 145.7 143.3 132.6 120.2 113.3 118.9 129.8 126.9 114.3 105.7 96.5 86.1 78 72.1 67.8 64.7 62.6 59.8 58.1
32.1 32.8 33.5 35.3 35.7 36.1 36 36 36.2 36.5 36.4 36.5 35.9 35.3 34.6 34.1 33.4 33.3 27.9 27.6 26.2 24.2 22.8 21.1 20.7 20 19.3 18.1 17.6 18.1 17.2 14.3 13.3 12 10.9 11.1 11.7 12 12.2 12.2 11.3 11.2 11.2 11.3 11.8 12.6 13.3 13.3 13.9 14 14.3 22 18.2 21.7 24.5 25.8 27.1 28.8 29.4 29.9 30.9 32.2 33.7 35.5 36.8 37.1 37.7 39.6 41.1 43.1 45.2 47.2 48.8 49.9 50.9 54.1 56.5 59.3 64.2 70.6 76.5 82.2 87.5 93.4 95.5 102.5 111.8 121.4 131.4 137.6 143.6 151.2 153.9 156.2 156.5 157 149.3 142.2 143 146.7 156.1 155.8 158.4 160.4 155.8 162.7 169.1 172.2 173.9 174.2 174.5 174 173.4 173.9 175.4 176.2 174.6 166 157.1 150.4 157.9 166.4 164.9 169.4 169.6 162.9 162.1 162.8 163.3 179.4 183 184.6 185.4 188 190.5 192.8 194.2 196.1 197.5 199.3 201.1 197.6 196.2 207.4 209.2 206.7 215.7 219.5 223.6 225.7 227.5 227.2 231.1 232.4 233.2 232.9 232.7 232.3 231.6 230.8 230.1 229.4 228.5 227 226.1 225.1 224 222.5 220.4 218.3 216.1 214.9 207.9 198.8 191.3 181.9 176.4 169.1 162.2 153.4 146.3 144.8 144.3 135.7 122.3 108.5 110.2 120.7 121.4 113 104 96.1 87 79.8 73 67.6 65.1 61.4 59.2 57.4
33.5 34.9 35.7 36.2 36.9 37.7 37.6 37.4 37.4 37.3 37.2 36.9 36.3 35.6 34.9 34.7 34.3 32.9 26.7 25.7 24.8 23.3 22 20.8 19.7 18.5 17.6 16.9 16.7 17.4 17.1 14.5 12.6 11.1 10.8 11 11.3 12.1 12.4 12.4 12.3 11.2 11.3 11.4 12.3 13.1 13.1 12.7 13.3 13.9 14.5 21.9 17.1 20.3 23.5 26 28.7 30.7 31.9 32.7 33.8 35.7 36.8 37.6 38.5 39 39.4 41 43 44.3 42.9 44.1 44.8 46.6 50 53 55.2 57.4 60.4 66 72.2 77.3 83 88.3 91.4 97.4 106.7 118.4 127.1 132.8 138 144.9 149.5 151.2 152.7 151.4 147.5 138.6 136.8 141.5 148.5 149.5 156.4 152 149.3 157.1 165.6 169.1 170.6 172.1 173.1 172.4 171.5 170 171.6 172.1 170.1 159.4 150.9 144.6 148.9 156.9 158.2 161.2 162 155.1 154.2 160.8 172.2 178.3 177.5 179.5 183.6 185.9 188.2 190.2 190.4 192.3 194.3 195.8 196.4 192 195.6 204.3 203 205.5 211.6 215.5 220.1 223.8 226.3 227.1 228.9 230.2 230.2 229.9 229.7 229.4 228.7 227.9 227.2 226.5 225.8 224.4 223.5 222.4 221.3 219.9 218 216 214 208.3 203.9 196.9 188 180.7 173.5 166.9 159.8 150.1 141.2 135.4 140.9 133.7 120.4 107.3 101.4 105.2 105 103.3 98.9 92.7 84.5 79 73.7 69.1 64.6 60.9 58.6 56.7
36.1 36.3 36.7 37.5 38.2 39 39.2 39.7 40.1 39.8 39 37.3 36.7 36 35.3 34.9 34.1 33.3 29.2 25.5 24.3 22.7 21.5 20.3 19.2 18 17 16.3 15 15.6 16.4 14.8 12.7 11.7 11.1 11 11.2 11.6 12.5 12.4 12.1 11.8 11.3 11.8 12 12.1 12.1 12.2 13 14.2 15.4 21.1 16.8 17.9 21.1 24 28.1 30.8 33.5 35.2 36.5 37 37.7 38.5 39.3 40.3 41.3 42.3 43.7 43.2 41.4 41.1 42.7 44.9 48.3 51 53.2 54.2 56.7 61.4 68.2 71.8 77.8 83.7 89.6 93.4 103.4 113.5 119.6 126.5 133.9 140.3 145.7 147.6 149.6 149.2 145.8 136.4 131.1 136.9 142.9 145.3 151.7 144.6 143.7 150 160.7 164.6 168.2 170 171 171 169.8 166.7 167.7 167.8 164.3 152.9 144.7 137.8 141.9 152.1 152.8 155.9 151.8 144.3 155.9 164.4 172.3 172.1 171.9 176.1 181.1 183.7 185.8 186.8 186.6 188.5 190 190.8 189.9 183.5 194.9 200.2 196.4 200.4 207.8 212.9 217.3 220.4 222.1 223 225.7 227 227 226.9 226.7 226.4 225.7 225 224.3 223.5 222.8 221.9 220.8 219.6 218.4 217.1 215 213 204.2 200.6 197.7 193.5 185.9 179.9 172.4 164.5 156.7 148 138.5 124.5 127.8 128.9 119.1 105.5 97.4 95.2 93.3 93.5 89.7 86.7 83.2 78.3 73.2 69 63.9 60.7 58.1 56
37.6 38.5 40 40.7 41.5 42.3 42.5 43.3 42.9 41.8 40.3 38.4 37 36.3 35.6 34.6 33.6 32.3 30.9 24.4 23.8 22.1 20.9 19.8 18.6 17.5 16.4 16 15.6 14.1 12.8 12.2 11.7 11.8 11.7 11.2 11.2 11.4 12.6 12.4 12.1 11.7 11.4 11.4 11.5 11.7 11.8 12 12.8 13.9 15.1 20.7 18.4 19.6 20.6 20.9 24.5 28.8 32.1 35 37.1 37.3 37.8 38.9 40.1 40.8 41.3 41.8 41.3 39.4 38.7 39.7 41.1 43.1 46 48.7 50.8 52.2 53.6 57.4 64.4 69.2 73.9 79.5 86.6 92.8 99.1 107.6 113.9 121.5 129.7 136.1 140.5 143.3 144.6 146.1 144.2 133.7 125.7 130.6 134.9 137.9 140.2 137.2 138 144 156.7 161.7 165.1 167.2 168.1 167.2 165.9 163.2 165.2 164.4 159.4 149.3 140 132.8 137.1 145.4 145.6 148.3 141.7 137.5 155.6 163.3 167.3 166.8 168.9 173 177.4 180.6 182.4 182.4 183.2 184.2 185 185.8 181.7 178.5 193.6 195.8 189.4 198.8 204.4 208.4 213 215.9 217.6 219.8 222 222.9 223.5 223.7 223.6 223.4 222.8 222.1 221.4 220.6 219.8 219 217.7 216.5 215.3 214.3 212.4 204.4 198.2 193.9 191 187 183.7 177.7 170.7 162.9 155.3 146.3 138.5 126.5 116.9 116.7 111.8 105.4 97 91.7 88.9 84.5 82.2 80.9 80.3 76.5 71.5 68.6 63.9 60.5 57.9 56.2
41.1 42.4 44.1 45.4 46.2 46.5 46.7 46.3 45.3 43.6 43 40.9 38.1 36.7 35.9 34.1 31.9 30.5 29.1 24.8 23.4 21.6 20.4 19.3 18.1 17 15.9 15.5 15.1 14.3 13.8 12.5 11.8 11.4 11.5 11.6 11.4 11.8 12.5 12.3 11.9 11.5 11.3 11.3 11.4 11.5 11.7 12 12.5 13.6 14.7 20.5 19.4 21.4 21.9 23 21.1 24 28.2 32.3 34.8 35.6 36.6 37.6 38.6 38.5 38.7 38.9 37.5 37.9 37.9 39 40.9 42.3 44.6 46.4 48.3 50.4 51.6 54.5 58.4 63.4 70.2 77.1 85.2 90.5 96.3 104.3 112.6 120.8 127.1 130.7 133.9 137.3 140 139 135.3 128.1 120.9 123.7 127.9 131.6 132.2 130.2 134.7 143 153.2 157.8 160.6 163.5 164.5 163.1 159.9 159.9 162.4 162.2 154.8 147.2 138.4 130.9 132.9 137.7 140.1 135.4 131.3 135.7 152.5 157.7 160.3 161.9 166.2 170.3 174.1 177.5 178.6 178.8 180.1 181 181.3 181.3 173.5 177.7 186.9 185.7 187.8 196.2 200 203.7 207.8 211.5 213.9 216.2 217.9 218.6 219.2 219.9 220.4 220.4 219.9 219.2 218.3 217.3 216.2 216 214.7 213.4 212.4 211.5 207.7 196.3 191.7 188.8 183.1 180.4 177.6 174.8 168.5 161 153.2 143.6 135.5 128.8 115.1 109.3 102.8 99.1 97.7 93.1 92.6 86.2 79 76.5 74.4 75.9 72.1 68.5 64.4 60.9 58.2 57
46.7 47.7 48.7 50.1 50.5 50 49.6 49.1 46.8 44.4 43.3 41.2 39.2 37.2 35.2 33 30.7 28.5 27.1 23.3 22.8 21 19.9 18.7 17.6 16.5 15.4 15 14.6 14.3 13 12.2 11.4 11.4 11.4 11.4 11.4 11.5 11.8 12.1 11.7 11.4 11.3 11.1 11.3 11.4 11.6 12 12.5 13.4 14.7 20.1 21.1 22.7 24.2 24.5 23.5 23.5 25 27.9 31.1 33 34 35.5 36.5 35.9 34.8 34.9 34.3 36.3 38.5 40.8 43.1 44.3 45 47.1 47.7 48.3 50.4 53.8 56.9 61.9 69.3 75.7 81.6 88.7 98.3 104.7 112 117.9 122.5 125.4 127.6 131.4 134.2 134.1 128.6 121.6 115.5 118.2 122.6 123.8 124.7 125.3 131.5 142.5 149.6 153.9 156.4 159.3 160.6 159.1 154 157.5 159.7 159.7 151.7 144.5 135.4 127.4 126.3 130.4 132.4 128.7 130.6 136 147.4 150.8 156.9 162.9 164.9 167.4 170 172.5 175.4 176 177.5 178.7 178.1 175.6 167 175.2 176.2 176.9 189.9 193.2 196.6 200 203.2 207.4 209.9 212.2 213.6 214.2 214.9 215.6 216.2 216.8 216.9 215.8 214.8 213.7 213 213 211.6 210.3 209.6 208.5 197 190.5 187.6 181.5 176.5 173.9 172.6 169.2 163.8 158.6 150.2 140.7 133.3 126 119.6 116.4 108.7 99 93.7 91.6 89.9 85.6 77.7 74.2 72.2 72.1 67.9 66.5 62.7 60.4 58.7 58.1
51.5 52.3 52.8 53.6 53.3 52.9 52.4 51.8 49.1 45.4 43.6 41.5 39.2 36.4 34.2 31.9 29.6 27.3 25.1 23.2 22.4 21.7 20.2 18.8 17.3 15.9 14.9 14.5 14.2 13.8 12.2 11.5 11.4 11.4 11.4 11.4 11.4 11.5 11.7 11.8 12.7 11.4 11.2 11 11.2 11.3 11.6 12.1 12.5 13.1 15.5 20.1 21 24 26.5 28.2 28.8 27.2 26.1 25.8 26.2 28.4 28.9 30.4 30.9 31.4 31.1 33.3 36.1 37.9 39.8 42.7 45.3 46.7 47 47.8 47.7 48 51.1 54.8 58.8 63.1 68.8 75.1 81.9 89.9 97.6 102.5 107.6 112.4 117.7 119.5 121.5 125.2 128.2 128.6 122 115.5 110.5 114.6 116 116.6 117.1 122.3 130.1 138.6 142.6 145.1 149.7 154.1 154 149.7 147 153.2 154.6 153.8 148.5 140.9 132.3 124.8 117.5 119.7 121.3 122.3 131.8 142.9 147.3 151.9 155.3 158.4 161.1 162.8 164.9 166.5 170.1 171.6 172.7 174.7 174.5 168.2 162.2 168.4 168.4 178.5 186.2 189.6 193 196.1 197.3 202.6 204.6 208.1 209.6 210.3 210.8 211.3 211.9 212.5 213.1 212.2 211 209.8 207.2 204.6 208.6 206.6 205.2 200.9 189.9 186.1 182.8 175.2 170.7 166.9 166.8 164.2 159.9 155.1 146.1 137 130.7 129.6 130.2 129.7 118.3 103.8 92 88.2 85.1 80.9 77.5 76.5 72.8 68.8 66.3 64.5 62.6 61.3 59.9 57.8
54.8 55.8 56.2 56 55.5 54.7 52.3 51.1 48.4 45.3 42.9 40.5 37.1 33.8 31.7 29.5 27.2 24.9 23.1 21.8 21.3 21.7 19.9 18.4 16.9 15.4 14.9 14.5 14 13.5 12.9 11.4 11.5 11.4 11.4 11.4 11.4 11.6 11.7 12 12.8 11.5 11.2 11 11 11.2 11.7 12.1 12.5 13.5 16.2 19.9 22.7 24.5 28.5 30.7 32.1 31.6 30.5 30.1 29.4 29.6 30.9 31.1 32.5 32 33.1 34.5 36.5 38.2 40.7 43.5 45.2 46.9 47.8 47.1 47.5 49.7 52.9 57.2 63 68 72.3 76.2 80.9 89 94.1 96.9 101.8 106.4 112.7 113.5 115.5 119.4 122.2 123.4 117.3 110.8 106.1 111.3 112.5 110.2 112.7 119.4 128.1 134.8 140.9 143.7 142.3 141.5 140.6 139.7 143 149.2 150.1 149.2 143.9 136.8 129.4 121.2 115.1 110.5 116.7 124.9 136.8 143.3 147 148.9 151.1 154.2 156.6 158.4 161.4 163.1 166.7 166.8 167.1 168.5 165.6 158.4 155.3 161.5 169.8 180.3 183.2 186.4 189.9 193.5 195.8 197.5 199.4 202.3 204.3 206.5 207.3 207.9 208 209.1 209 208.8 207.6 206.7 204.8 204.5 205.5 201.8 196.7 190.2 186.4 181.1 176.8 170.6 164.9 159.5 159.4 157.6 154.6 149.8 142.1 133.9 128.3 128.7 129.4 129.9 124.7 112.7 99.1 89.6 84.7 81.5 83.8 80.4 74.9 70.1 65.8 63.6 62.1 60.8 59.4 57.3
55.8 55.9 55.7 55.1 54.7 52.9 50.9 48 44.9 40.5 36.9 34.3 31.8 31 29 26.5 24.2 22.5 21.5 20.9 21.1 21.4 20 17.9 16 15.5 15.1 14.8 14.3 13.8 12.2 11.5 11.4 11.4 11.4 11.3 11.4 11.6 11.7 12.4 11.9 12 11.4 11 10.9 11.3 11.7 12.1 12.7 16.2 18.3 20.6 22.9 27.5 30.5 32.7 34.3 34.7 34.2 33.4 32.7 33.3 34.5 35 35.4 35.4 34.6 35.8 37.7 38.8 41.1 42.2 43 43.4 45.3 47.2 49.1 52 55.5 59.7 65.8 71.3 75.4 77.6 81.9 85.1 89.9 94.7 100.9 104.4 107.3 107.1 109 113.5 114.7 115.7 113.1 106.2 100.5 105.6 107.2 105.1 109.8 118.1 126.5 130.5 135 135.6 132.6 132.5 132 133 138.8 144.1 144.3 143.7 139 133.2 124 118.1 110.6 109.7 116.5 125.2 133 136.5 139.8 142.8 145.3 149.5 152.5 155.2 157.9 159.6 161.8 162.5 162 159.8 155.6 150.4 154 161.9 173.1 178.5 180.8 183.4 186.7 189.5 191.4 192.9 194.3 195.6 198.5 200.8 202 203.3 203 205.8 206.7 205.8 204.9 203.1 202.2 202.3 197.6 191.4 186.5 184.5 180.8 174.5 170.1 164.7 159.9 152.9 150.6 150.7 148.7 142.4 136.9 129.9 127.1 127.8 128.5 129.2 128 122.3 111.4 103.2 95.6 93.9 88.5 81.1 75.3 69.9 65 63 61.8 59.2 58.8 57.1
55.2 54.8 54.2 53.4 52.6 50.1 47.2 43.9 39.5 35.5 31.2 29 27.7 26.8 25.5 23.6 22.3 21.6 20.9 20.8 21 20.8 19.4 17.2 16.7 16.1 15.5 15 14.6 13.2 11.6 11.4 11.4 11.3 11.3 11.3 11.5 11.6 11.6 12.2 11.6 12.5 11.9 11 10.9 11.4 11.9 12.3 16.1 17.7 19.6 22.1 26.1 29.6 32.8 34.5 35.4 35.7 35.9 35.8 36.6 35.8 36.3 36.9 37.3 37 36.8 36.6 37.3 38.1 40.4 40.4 40.3 41.7 43.7 47.6 50.1 54 56.5 59.8 63.8 68.2 72.2 76.5 79.4 79.7 84.8 90.5 95 98 100.9 100.6 102.9 106.8 107.6 108.4 108.2 103.5 97.7 98.1 101.1 101.1 108.1 114.8 121.3 125.2 127.2 125 124.6 124 123.9 129 135.4 136.9 137 137.2 135.3 129 120.8 113.1 105.5 106.1 113.8 120.2 126.5 129.5 132.5 136.5 142.9 147 148 151.1 154.7 155.9 156.9 157.2 156 152.9 146.1 146.6 153.7 162.3 171.4 175.2 177.7 178.8 180.8 183.4 185.3 186.8 189 189.5 191 192.2 192.8 194.4 196 199.6 202.7 203.5 203.1 198.8 195.1 194.7 190.7 184.8 179.5 176.8 172.8 166.7 163.7 158.8 153.3 146.7 141.6 142 139.5 133.3 129.2 126.5 126.1 126.7 127.3 127.9 128.1 127.1 121.6 117.2 109.3 101.3 92.2 82 75.1 69.5 64.4 61.9 60.6 58.6 57.7 57.3
53.3 53.2 52.5 51.5 50.1 47.9 45.9 41.8 36 31.8 29.4 28 26 24.4 24.2 22.8 22.1 21.1 20.4 20.6 20.3 20.1 20 18.7 16.9 16.5 15.8 15.2 14.2 12.5 11.3 11.2 11.3 11.3 11.3 11.4 11.4 11.5 11.5 11.6 11.6 12.1 11.2 11.1 11.2 11.7 12.4 15.9 17.9 19.7 23.1 25.4 28.6 32.7 34.3 35.7 36.2 36.5 36.7 36.6 37.1 37.6 37.7 37.5 37.3 37.1 36.8 37 37 37.5 38.6 38.8 39.9 42.7 45.5 48.5 51 55 55.5 57.5 61.2 64.3 69.7 71.5 72.8 76.6 82.4 86.6 89.7 92.3 94.6 94.6 98.5 101.7 102.8 104 103.5 99.4 94.2 92.8 95.5 97.5 106 110.7 114 117.5 118.9 117.6 116.6 116.4 120.8 125.4 129.3 131.5 133.3 131.1 128.9 123.2 114.9 106.7 103.1 102.9 108.6 115.3 120.4 123.5 127.1 132.3 131.5 141.9 144.1 146.6 149.7 150.7 151.9 152.1 150 144.6 140.1 147.7 155.9 163.6 167.2 170.7 173.9 174.5 175.1 177 178.8 181.5 184 185.3 184.7 184.7 185.9 186.5 187.7 190.5 192.9 194.4 195.1 189.9 184.1 186.7 182.9 178.8 173 171.4 166.1 159.9 156.8 153 148.8 141.8 134.7 131.4 129.1 126.6 124.8 123.3 123.2 124.4 125.2 125.9 126.4 126.7 124.7 122.7 114.2 102.7 93.3 83.9 76.3 68.3 63.2 59.4 59.4 58.5 56.7 56.3
51.2 50.8 50.1 48.6 47.2 45.9 43.2 39.5 35 32.8 30.8 28.4 26.2 24.1 22.9 22.1 22.2 20.5 20.3 20 19.7 19.4 20 17.6 16.3 16.1 15.5 14.8 13.5 12.1 11 11.1 11.2 11.2 11.3 11.3 11.4 11.4 11.5 11.5 11.5 12.6 11.4 11.3 11.4 12.1 15.7 18 19.4 23.1 26.8 29.5 31.9 34.1 35.1 35.7 35.5 36.2 37 37.2 37.4 37.6 37.6 37.4 37.2 37 36.8 37.2 37.7 37.2 38.1 39.2 40.2 43.1 45.9 48.4 50.2 51.6 52.7 55.3 58.2 62.3 65 66.6 70.9 75.7 79.5 82.4 85.6 86.4 88.6 89.7 95.9 96.2 95.9 97.2 97.2 92.8 89.3 86.6 89.5 95.6 102 105.2 108.7 111.4 111.4 110.2 109 112.3 117.3 120 123.1 124.6 125.9 124.3 122.6 116.8 109.3 102.4 98.7 99.8 105.7 111.7 117.3 122.3 127 130.4 130.8 135.9 138.7 139.6 141.5 143.2 146.7 145.6 141 135.4 138.4 146.5 155.5 159 162.6 166.1 169.5 170.6 171.4 173.3 175.2 178.3 180.4 181.2 181.2 181.2 181.2 181.6 181.2 182.9 184.5 185.6 183.1 178.9 175.2 176.8 177.1 172.8 166.4 164.8 160.5 154.6 150.1 144.3 141 134.9 127.7 123 122.8 123 122.1 120.9 121.2 122 122.8 119.4 120.3 123.7 123 119.2 109.9 99.4 92.3 84.3 75.4 66.6 61.8 58.2 57.7 57 56.3 55.2
50.7 49.6 47.7 45.9 44.8 43.7 40.9 37.7 39.7 38.5 35.8 31.9 27.2 24 22.4 21.9 21.8 20.1 19.3 18.9 18.5 18.2 19.9 18.9 14.6 14.1 13.6 13.7 12.7 11.6 10.9 11 11.2 11.3 11.2 11.5 11.7 11.8 11.9 11.9 12 11.7 12.2 11.3 11.9 12.3 17.2 18.6 23 26.8 30.1 32.7 30.7 34.5 35.1 35.7 35.7 36.4 36.9 36.9 37 37.4 37.4 37.3 37.1 36.9 36.8 36.7 36.8 37.7 38.5 39.5 40.6 43.4 46.1 47.1 49.2 50.7 52.7 55 57.2 59 61.4 65.3 71 74.1 77 78.9 79.3 80.1 81.3 86.4 90 89 88.7 89 89.6 88.8 85.5 83.8 86.7 91.3 95 97.6 101.7 104.6 104.1 102.9 103.5 106.3 109.8 114.2 116.9 118.9 119.3 117.8 115.9 108.8 102.4 97.7 94.8 98 106.8 111.4 116.9 120.3 123.4 126.5 128 130.3 132.4 133.7 133.8 136.4 139.5 137.8 134 130.7 137.9 146.3 152.2 155.4 159.6 163 165.7 166.4 167.9 169.9 172.1 173.8 176.3 176.9 175.7 175.3 175.3 175.6 175.1 175.4 177 178.1 173.8 169.2 167.6 166.5 166.9 164.7 158.2 157.7 153.9 150.1 143.7 137.8 131.3 125 121.1 118.6 119.7 120.6 120.4 120.3 119.6 118.8 117.1 112.1 113.1 117.2 114.4 110.3 103.4 96.5 90.9 81.1 71.8 64 58.9 56.1 56 55.3 54.6 53.9
50.8 49.2 47.3 47 45.3 42.2 41.9 44.2 44.5 43.8 39.9 33.5 28 23.5 22 21.6 20.5 19.6 18.7 17.8 17.3 17 18.8 19.6 13.6 12.9 12.2 12.5 11.8 11.3 11.2 11.4 11.5 11.4 11.3 11.4 11.6 11.8 12 12.2 12.4 12.3 12.9 11.3 12.1 12.1 18.3 21.2 26 30 32.6 33.9 29 35 34.9 34.9 35.2 36.5 36.5 36.5 36.7 37.2 37.2 37.1 36.9 36.8 36.6 36.5 36.5 37.7 38.9 39.9 41 43.6 44.5 45.5 46.8 48.8 50.7 52.7 54.5 56.1 59.3 62.3 66.8 71.4 73.9 74 74.2 73.9 75.9 79.7 82 81.3 81.5 82.2 82.4 81.7 80.9 80.6 81.9 84.9 88.2 92 94.7 96.7 96.7 95.4 96.9 100.8 103.9 105.9 108.6 111.7 112.6 111.1 107.4 101.6 97.6 92.7 91.2 99.9 107.1 111 114 117.1 120.5 122.9 123.5 124.3 125.9 128.7 127.9 131.1 132.4 132.3 124.8 129.8 138 143.7 148.4 152.3 156.8 159.9 161.2 163 165.2 167.5 168.3 169.1 172.1 171.9 171.1 170.5 170.1 169.8 169.4 169.6 170.8 168.8 166 162 157.9 156.4 156.9 155.1 151.7 149.2 145.8 144.8 138.8 131.5 124.3 119.3 115.9 115.8 117.1 118.6 120 119.6 118 114.9 109.2 104.9 104.4 109.1 105.9 97.6 91.8 88.1 83.2 75 68.5 61.6 56.4 53.8 54.2 53.6 52.8 52.3
50.8 49 49.4 48.3 46.9 45.8 46 46.7 46.9 44.8 40.5 33.7 28.2 23.8 21.6 21.1 20 19.2 18.2 17.3 16.6 16.2 15.8 19.5 15.1 14.1 13 12.4 11.6 11.6 11.6 11.6 11.5 11.4 11.3 11.3 11.5 11.7 11.9 12.1 12.3 11.9 12.5 11.6 11.6 12.3 19.4 23.2 27.7 31.8 34 35.1 28.2 35.6 34.9 35 35.3 35.8 36 36.1 36.5 36.9 37.1 36.9 36.8 36.6 36.5 36.4 36.3 37.7 38.9 40.1 41.2 42.3 43.3 44.4 46.1 48 50.3 51 53.2 55.4 58.5 60.4 62.9 67.5 69.5 69.5 68.9 69.6 71.1 74.1 74.9 74.5 74.7 75.7 76 77.4 77.5 77.2 78.1 79.5 82.5 85.4 87.7 89 88.3 87.8 91.5 94.9 97.2 99.6 100.7 103.9 104.7 103.1 99.8 96.1 92.9 88.3 91 99.7 106 108.9 111.5 114.5 118 119.8 120.2 120.8 120.8 121.3 122 125.5 127.7 126.5 123.1 128.7 134.7 139.5 144 149.8 152.7 153.8 156.1 160.2 162.8 163.7 164.4 165 168 167.8 167.5 166.5 166 166.2 164.6 164.8 165.9 164.7 157.6 153.4 149.4 147.9 147.3 144.3 143.4 141.5 137.5 135.8 133.2 126.6 119.3 114.9 114.1 108.7 112.8 115.8 117.5 116.9 118.1 111.1 102.8 96.5 95.4 98.9 94.8 87.9 82 78.8 74.3 68.2 63.3 58.6 54.2 51.9 52.4 51.8 51.1 50.7
51.1 49.9 49.6 49.1 47.8 47.4 47.5 48 45.4 42.9 38.9 33.2 27.6 24.1 21.5 20.3 19.6 18.7 17.8 17.2 16.6 16.2 15.9 18.4 18.3 15.3 14 13.1 11.3 11.6 11.8 11.7 11.6 11.5 11.4 11.3 11.4 11.6 11.8 12 12.2 12.4 11.6 12 11.7 15.3 22.9 26.2 30 32.9 34.6 35.8 26.8 34.9 34.5 34.9 35.6 36.2 36 35.8 36.2 36.7 36.9 36.8 36.6 36.5 36.3 36.1 35.9 37.3 38.4 39.5 41.1 42.2 43.2 44.1 45.8 48.2 49.1 50.3 53.1 54.1 56.7 58.6 60.5 63.1 64.4 65.3 64.8 65.7 66.9 68.3 68.8 69.2 70.3 71.4 72.9 74.6 74.7 74.5 75.2 75.8 77.2 79.3 80.5 81.2 79.9 81.5 85.9 87.7 90 93 94.3 97.5 97.7 97.2 94.5 89.7 86.5 84.7 90.1 98.2 102.7 106.2 109.8 111.4 115 117.2 117.9 118.5 117.8 117.5 118.6 119.6 121.8 119.1 121.2 127.7 130.4 134.1 140.1 144.7 145.2 146.6 152.3 157 159.1 158.6 158.3 161.3 163.5 164.1 164.2 162.5 161.2 162.9 159.4 159.7 161.3 157.6 150 145.5 142.4 141.5 140.1 137.3 135.5 133.5 130 127.2 124.5 122.9 117.2 112.4 110.3 107 103.3 106.1 108.6 108.9 110.9 106.3 99.7 90.7 87.2 89.8 89.1 83.2 76.2 72.9 67.6 63.3 59.6 55.8 52.7 49.9 50.5 50.2 49.4 49
50.9 50.6 49.8 49.8 48.8 48.8 48.9 48 45.4 40.6 34 29.8 26.1 23.6 21.5 20 19.2 18.4 17.8 17.2 16.5 16.1 15.8 16.1 19.6 16.3 15.1 13.3 11.5 11.2 11.5 11.8 11.7 11.5 11.4 11.3 11.3 11.5 11.7 11.9 12.1 12.3 12.1 11.4 13.1 16.4 25 28.2 30.6 33.3 34.5 35.5 26.1 34.8 34.6 34.4 35.1 35.4 36 36.1 36.2 36.5 36.7 36.2 35.6 35 35.2 35.2 35.9 36.6 37.8 39.4 41 42.1 43.2 44.4 46 46.2 48.1 49.8 50.9 52.2 55.6 56.9 58.8 59.2 60.1 61.4 61.9 62.8 63 63.8 64.7 65.9 67.5 69.1 70 71.3 72.4 72.3 72.9 72.8 73.5 71.8 73.7 73.1 73.4 76 78.3 80.4 83 86 88.4 91.6 92.8 91.7 88.7 83.3 81.8 83.2 88.1 94.3 99.4 104.6 108 109.4 111.6 113.6 115.6 116.1 115.5 115.4 115.4 116 115.9 115 120.3 122.9 125.2 128.9 133.5 136.9 136.7 142.9 148.3 151.8 153.8 151.7 153.5 156.4 159.2 160.6 161.2 156.8 153.1 154.5 151.4 151.3 153.8 152.1 144.6 137.2 136.8 135.3 133 131.1 128.3 128.3 125.1 120.8 116.8 114.9 115.9 108.7 105.2 103 98.6 96.4 96.8 98.2 99.6 99.5 96.1 90.3 83.9 81.5 84.1 77.2 71.6 66.6 63.4 59.9 56.8 54.6 51.3 50.1 50 49.9 49.9 48.5
52 51.5 50.1 49.9 49.7 48.9 48.7 48 44.5 37.9 31.5 26.8 24.5 22.4 20.9 19.5 19 18.4 17.8 17.1 16.5 16 15.9 16.2 19.4 18.1 14.7 12.7 10.9 10.8 11 11.3 11.6 11.6 11.5 11.4 11.3 11.4 11.6 11.8 12 12.2 12.3 11.6 11 16.9 26.7 29.1 31.3 33.4 33.8 34.1 25.3 34.2 34 34 34.9 35.7 36.1 36.2 36.4 36.5 36.5 36 35.3 34.7 34.4 35 35.6 36.3 37.9 39.4 40.6 41.8 42.9 43.8 45.2 46.6 47.8 48.8 49.6 50.7 52.9 55 56.5 57.3 58.6 59.1 59.7 60.2 60.3 61.5 62.5 63.7 65.7 67.4 68.4 68.7 69.6 70.4 70.1 69.8 69.5 68.3 67.9 68.8 69.2 69.6 72.4 73.8 75.1 78.1 80.9 84.2 85.2 83.4 81.6 79.4 79.3 82.3 87.8 94.2 98.8 103.1 105.6 107.3 108.4 110.3 112.2 113.6 112.9 113.3 113.8 113.7 112.7 114 116.8 119 121.2 123.3 124 127.4 130.9 138.4 143.3 145.9 146.8 144.8 150.9 153.5 155.3 156.4 156.6 150 144.6 144.9 141.9 145.7 146.5 144.8 138.8 132 129.6 128.2 127.5 126.5 123.6 120.1 120.1 114.7 110.4 107.1 108.3 106.4 100.6 98.3 95.1 89.9 90.6 90.5 90.7 90.3 88 85.4 79 74 74.3 71.5 66.3 63.5 60.2 56.9 56.1 52.1 49.5 48.5 48.2 48.4 48.5 47.6
53.8 53.6 53 50.8 48.4 46.8 45.3 41.9 38.6 32.3 28.3 24.4 22.8 21 19.6 18.9 18.7 18.2 17.7 17.1 16.5 16 16.1 16.2 18.3 19.3 14.6 11.7 10.7 10.8 10.9 10.9 11.1 11.4 11.6 11.5 11.3 11.3 11.5 11.7 11.9 12.1 12.2 11.5 10.2 19.4 26.8 29.1 31.5 33.6 34 34 25 32.8 33 34.1 35 35.6 35.8 36 36.1 36.3 36.2 36 35.5 34.8 34 34.7 35.3 36.2 37.9 39.3 39.9 41.3 42.6 43.3 43.5 44.7 45.9 47.1 48.4 50.3 51.9 53.2 54.1 54.9 56.2 58.1 57.3 57.5 58.7 60 60.9 61.8 63.1 65.3 65.7 66.6 67.8 68.2 68.6 68.3 67.7 66.9 65 65.6 66 65.9 66.1 67.5 69.3 71.8 74.4 76.9 78 76.8 76.2 76.6 78.5 81.1 86.6 92.4 96.6 99.4 102.4 104.6 106 107.8 109.7 109 109.3 110.9 112 109.8 107.9 110.2 114.2 115.8 117.9 119.7 119.8 121.4 126.9 130.4 134.7 138.6 139.2 138.6 145.8 148.4 150 151.1 151.1 144.6 138.5 135.8 134.9 136.8 141 140.2 134.5 127.5 122.3 122.1 121 119 117.9 115.2 112.5 110.5 105.7 101 99.6 101 100.8 93.6 90.2 83.4 84.2 86 87.7 86.2 83.8 79.4 75 71.2 68.8 65.8 63 60.1 57.5 55 52.4 49.8 48.5 46.6 47.3 46.8 46.6 46.6
55.1 54.9 54.6 52.3 49 44.6 38.8 35.5 32 28.9 25.8 23.5 22.1 19.7 19 18.6 18.4 18.1 17.5 17 16.4 16 16.1 16.1 16.2 20 14 11.2 10.8 10.8 10.9 10.9 11 11 11.2 11.5 11.4 11.3 11.4 11.6 11.8 12.1 12.2 11.5 13 20.7 25.9 29 30.9 32.2 32.6 32.7 25.3 32.1 33.2 34.3 35 35.3 35.6 35.8 35.9 36 35.8 35.7 35.6 34.8 33.7 34.4 35.7 36.6 38 38.6 39.3 40.7 42 43 43.4 43.9 45.1 46.3 48 49.5 50.8 52.1 53.1 53.9 54.7 55.2 55.3 56.3 57.5 58.4 59.4 60.4 61.3 63.6 64.3 65 65.6 66 66.4 66.8 66.7 64.5 62.3 62.5 62.7 62.9 63.4 65.1 66.7 68.8 71.1 72 74.3 73.6 73.7 74.9 76.7 80 83.7 87.1 90.4 93.7 98 101.3 103.6 105.4 105.3 104.5 105.2 107.6 108.1 104 105.4 110.7 113.6 115.5 117.2 116 115.8 118.2 122.1 125.4 128.4 131.7 131.3 133.8 139.1 142.3 144.1 145.5 145 137.6 132.2 130.4 130.2 131.8 133.3 135.7 136.2 125.2 118.6 115.2 114.5 113.5 110.8 110.4 106.2 104.6 101.9 97.3 92.9 95.3 93.5 91.5 85.1 78.8 78.1 80.5 82.4 81.8 79.7 75.2 70.4 66.8 64.7 62.2 60.7 58.1 55.1 53.2 50.5 48.8 47.2 45.5 44.6 44.6 45.1 45.5
54.8 54.9 54.3 52.6 50.2 45.8 38.3 30.6 27.3 25.3 23.7 22.4 20.7 20.2 19.4 18.3 18.1 17.9 17.4 16.8 16 15.9 15.8 15.9 16.3 20 14.5 10.9 10.8 10.8 10.9 10.9 11 11 11.1 11.1 11.3 11.4 11.3 11.5 11.7 12 12 11.7 14.5 22 25.8 27.8 29.5 30 30.7 31.2 25.3 32.1 33.4 34.4 34.8 35 35.3 35.6 35.7 35.7 35.5 35.3 35.2 34.2 33.4 34 35 36.6 37.5 37.7 38.8 40.4 41 41.9 43.1 43.7 44.3 45.5 47.1 48.5 49.8 51 52.1 52.7 53.2 53.6 54.2 55.7 56.1 57.6 58.6 59.3 60.7 62.2 63 63.7 63.3 63.1 63.2 64.4 64.1 61.7 60 60.4 61.1 61.4 61.9 63.6 65.3 66.9 69.8 71.5 70.7 71.3 72.3 74 76.3 78.3 79.4 81.7 85.2 89.5 92.8 96.4 100.8 102.1 101.3 101.3 101.6 104.2 101.2 99.4 105.4 108.8 110.8 112.8 112.8 111.5 112.1 116 117.6 120.5 124.1 126.7 124.8 129.3 133.3 135.8 137.6 139.3 138.5 133.7 126.3 122.2 122.4 124.8 127.9 133.1 136.7 126.4 118.6 111.2 108.3 106.7 103.8 102.8 100.7 98.1 95.5 92.7 87.6 89 89.7 87.1 83.5 77.2 74 74.6 77.3 76.3 74.6 72.6 69.1 64.7 61.3 59.2 57.1 55.1 52.9 51.1 49.2 48.7 46.7 44.7 43.5 43 43.9 43.7
53.8 53.3 51.4 47.6 44.3 39.5 33.3 28.3 25.3 23.7 22.9 21.6 20.4 20.1 19.6 18.2 17.9 17.6 17.2 16.3 15.2 16.2 15.6 16.1 16.4 13 19.2 11 10.8 10.9 10.9 10.9 11 11 11.1 11.1 11.2 11.2 11.3 11.4 11.6 11.7 11.3 11.1 14.6 19.3 23.9 25.8 27.5 29.1 29.9 29.6 26.5 29.6 33.6 34.2 34.5 34.7 35 35.3 35.5 35.3 35.2 34.7 34.4 33.6 33.1 33.2 33.9 35.3 35.8 36.5 37.5 38.2 39.6 40.5 41.6 42.8 43.9 44.7 46.1 47.3 48.3 49.4 50.6 51.2 51.5 51.9 53.5 54.7 55.2 56.8 57.4 57.8 58.9 60.7 61.6 61.7 61.2 61 61 62.9 61.3 58.8 57.8 58.4 59.2 59.9 60.5 62.2 64 65.6 67.6 68.9 69.2 70 71.5 73.1 74.2 75.7 76.3 77.2 80.5 83.1 86.3 89.8 94.6 95.6 94.7 95 94.9 96.7 94.8 99.9 102.7 105.7 107.9 108.6 108.1 107 108.8 113.7 114.4 115.9 118.8 118.7 119.7 123.8 126.2 127.5 130.6 131.7 132.4 128 121.5 116.6 115.5 118.3 126.5 132.6 126.8 121 113.4 108.8 103.1 98.8 97.1 95.6 92.8 91.5 87.3 84.9 82.5 83.3 84.9 82.4 80 74.8 71.1 70.4 72.3 70.7 69.4 68.4 65.6 62.9 60 56.4 54.8 52.8 51.6 49.9 48.2 47.7 45.9 44.2 43.2 42.5 42.9 42.2
48.9 46.6 41.9 38.2 33.2 30.6 28.5 26 23.6 22.9 22 20.7 20.3 19.6 19.1 18.8 17.7 17.4 16.8 15.6 14.8 15.6 15.7 16.2 13.9 11.6 19.2 11 10.8 10.9 10.9 11 11 11 11.1 11.1 11.2 11.3 11.3 11.5 11.7 11.7 11.3 13.6 20.9 24.1 24 24.3 25.5 27.1 29 30.2 27.7 32.7 33.9 34.2 34.4 34.7 34.9 35.1 34.6 33.3 32.2 32.4 32.7 32.9 32.4 33 33 33.8 34.9 35.9 36.9 37.6 38.4 39.3 40.4 41.6 42.7 43.9 45 46.1 47.1 48.1 48.9 49.8 50 51.5 52.3 53 53.7 55.8 56.3 56.6 57.3 59.2 60.3 59.6 59.8 59.2 59.5 60 57.9 57.2 56.2 56.7 57.4 58.1 59.2 60.8 62.2 63.6 64.9 65.7 66.8 68.5 71 72.6 73.8 73.2 73.6 73.9 74.3 76.6 79.8 84.2 88.2 89 87.8 88.3 89.6 91 93.1 98 100.6 103.1 104.9 104.6 104.1 104 105.3 107.9 110.2 112 113.7 112.7 116.2 118.8 120 120.5 122.9 124.7 124.2 121.8 117 112.8 108.7 114.8 123.8 123.4 120.8 117.8 113.6 107.2 100.8 94.6 90.4 87.4 84.7 82.1 80.8 79.2 76.7 77.9 78.6 77.8 75.6 72.3 68.5 67.8 66.4 65.6 64.2 63.2 61 59.8 58.3 55 52.6 51.4 50.2 48.8 46.7 45.3 44.2 43.1 42.6 41.6 41 40.8
42.1 36.7 34.8 31.6 27.4 26.3 25.6 24.6 22.2 21.6 21 20.4 19.8 19.1 18.7 18.3 17.6 17.3 17 15.7 14.9 15.8 15.7 14.3 11.9 10.8 11 10.9 10.8 11 11 11.1 11.2 11.2 11.3 11.3 11.4 11.4 11.5 11.5 12 10.4 11.5 17 25.4 26.1 25.9 25.6 26.5 28 29.8 30.8 28.8 33 33.7 34.3 34.4 34.2 34 33.7 32.8 31 30.3 31 31.8 32.4 32.9 33.5 34.2 34.4 34.2 35.4 36.4 37.1 37.8 38.7 39.8 40.9 42 43.2 44.3 45.4 46.5 47.4 47.7 48.6 49.5 50.6 51.6 52.3 52.8 53.8 55.1 55.4 55.8 57 58.5 59 59 57.7 57.9 57.1 56.2 56.1 55.6 55.2 55.9 57 58.2 59.5 61.1 62.9 64.3 64.4 65.4 67.8 70.7 71.8 70.9 70.7 71 71.1 70.6 72.3 74.7 78.3 81 81.7 82.4 83.3 85 87.7 92.5 95.8 98.9 101.5 102 101.7 101.4 100 102.3 104.4 108.7 109.3 108 109 113.3 115.1 115.5 115.3 117.1 119 118.3 116.9 113 106.3 105.3 112.1 116.6 115.1 113 112.1 108.1 103.6 96.7 91.5 88.7 85.3 79.5 75.2 73.8 72.6 72.1 73 74.4 73.6 71.4 69.5 67 64.1 62 60.8 60.6 58.5 57.3 56.5 55.7 53.3 50.9 49.4 48.2 46.8 46 44.1 42.9 42.5 42.3 40.9 40.4 40.5
38.3 32.5 29.4 26.9 25.4 23.9 22.9 21.9 20.8 20.2 19.6 19.6 19.3 18.6 18.2 17.9 17.5 17.2 16.9 15.8 15.6 14.5 14 11.5 11.1 10.8 10.8 16.4 10.7 10.9 11.1 11.3 11.3 11.4 11.5 11.5 11.6 11.6 11.7 11.5 12 11.3 12 18.5 22.6 26.4 26 26.3 27.6 29.9 30.9 31.8 28.9 33.1 32.4 34.2 33.7 33.1 32.7 30.8 30.4 30.6 31.6 32.4 32.6 32.6 33.1 33.7 34.5 34.8 35.1 35.3 35.8 36.6 37.3 38.2 39.2 40.3 41.5 42.3 43.6 44.7 45.8 46.6 46.9 47.5 48.5 49.7 50.9 51.3 52.4 52.8 53.9 54.2 56 57.8 58.8 58.3 57.5 56 55.7 55.2 55 54.9 54.5 54 54.8 56.1 57.3 58.6 59.8 61.4 62.4 63.7 65.6 68.4 69 69 68.9 68.7 68.3 68.4 68.3 70.6 71.8 73.9 76.2 77.5 78.9 81.8 84.2 87.6 90.1 94 97 98.7 97.6 97.1 96.5 95.2 96.6 103 105.7 104.4 104 108.4 110.3 111.5 111 110.9 112.4 112.6 113 112 107.2 100.2 101.1 108.4 110.5 109.1 107.6 105.7 102.8 96.2 91.4 87.9 84.9 82.8 77.5 71.9 69.5 68.9 68.2 68.8 69.9 69.4 67.6 66.1 64 61.2 59.8 58.4 57.2 55.8 54.6 53.8 53.2 51.6 49.5 47.5 46.1 44.8 44.7 43.5 42 42 42.2 40.7 41 41
40.4 35.7 30.5 29.2 26.1 24.5 23.9 22.5 20.1 19.1 18.6 18.6 18.6 18.2 17.8 17.4 17 16.1 15.7 15.8 14.5 11.9 11.1 11 11.2 11 12.1 20.2 15 10.8 11 11.2 11.4 11.6 11.6 11.7 11.7 11.8 11.9 11.5 12 12.3 12.8 14.2 17.5 20.7 26 27.3 28.7 30 30.5 31.2 28.8 31.2 32.5 33.1 32.4 30.4 30.1 29.4 30.9 32.1 32.9 33.1 33.4 33.1 33.3 34 34.7 35.1 35.4 35.7 35.9 37.5 38.4 38.7 38.7 39.9 41.1 41.8 42.6 43.3 45.2 45.8 46.4 46.5 47.4 48.9 50 50.1 51.9 52.2 52.6 54.2 56 56.7 57.2 56.5 55.8 54.2 53.8 53.6 53.9 53.8 53.1 53.2 53.7 55.1 56.4 57.6 58.9 60.1 60.9 64.8 67 67.9 68.5 67.6 66.9 66.6 66.2 65.9 67.1 69 70.1 72.5 74.3 75.8 77.3 80.2 82.4 83.7 88.1 91.3 93.9 95.5 93.5 92.2 91.8 90.5 94.2 99.1 99.8 99.3 102.2 105.3 107.1 107.5 106.8 106.9 107.8 108.1 107.1 105.3 100.6 94.3 98.7 104.5 104.8 103.1 100.3 98 93.5 88.6 84.6 81.1 79 78.9 74.3 69.1 68.9 66.1 65.3 65 66.2 65.3 63.8 62.9 62.1 59.9 58.4 56.8 55.1 53.7 52 51.1 50.7 49.6 47.5 46 44.6 43.8 43.4 42 41.2 40.6 41.3 40.8 41.1 41.5
40.8 38.3 35.6 30.5 27.3 26.8 24.4 22 19.6 18.3 17.7 17.7 17.6 17.6 17.3 16.9 16.5 15.8 14.4 14.2 13.8 11.6 11.6 11.5 11.3 11.1 10.8 19.1 18.7 10.8 10.9 11.1 11.3 11.5 11.7 11.9 11.9 12 11.7 10.4 11.7 14.3 15.8 14.5 12.8 14.5 18.2 23.2 26.6 28.7 28.2 27.9 29 30.2 29.3 30.5 29.8 27.2 28.1 29.5 32.4 33.2 33.5 33.8 34.1 33.8 33.5 34.3 35 35.4 35.7 35.9 36.2 37.7 39 39.3 39.2 39.8 40.7 41.4 42.2 42.9 43.6 44.7 45.3 46.2 47.2 47.8 48.5 49.6 51.4 51.5 51.9 53.4 54.9 55.5 55.5 55.1 54.2 53.3 52.2 52.2 52.5 52.8 51.9 52.9 53.4 53.8 55.5 56.7 58 59.8 61.8 64.8 66 66.6 66.5 65.8 65 64.8 64.8 64.8 65.7 67.1 68.7 70.7 72.5 74 75.6 78 78.6 82 85.7 87.5 90.2 92.5 90.9 88.6 88.5 87 89.2 91.7 92.8 96.1 99.3 100.8 101.5 101.7 101.7 101.8 101.8 103 102.6 98.2 94 90.7 94.9 99.8 97.8 95.4 93.6 90.3 85.1 81.8 78.1 73.2 70 71.1 67.6 65.2 62.7 61.4 62.4 62.2 63 62.6 61.6 60.3 59.5 58.2 56.6 55 53.4 52.4 50.5 48.7 48.1 47.5 46 44.4 43.4 42.8 42.1 41.2 40.6 40.4 40.6 41.1 41 41.5
40.3 39.4 36.5 34.3 30.3 26.2 24 21.6 19.2 17.6 16.8 16.9 17 16.8 16.6 16.4 16 15.4 14.1 12.8 11.9 11.3 11.2 11.1 11.1 11 11 14.5 20.2 12.4 10.9 11.1 11.2 11.4 11.6 11.8 11.3 10.9 11.3 12.8 15.2 20.7 22 21.8 20.1 17.5 15.3 16.5 18.8 21.1 21.5 22.5 24.2 25 26.8 25.9 25.4 28.2 29.9 31.8 33.2 33.7 33.9 34.3 34.7 34.8 34.9 34.9 35.3 35.7 35.9 36.1 36.4 37.8 38.7 39.3 39.3 39.6 40.3 41 41.7 42.4 43.2 44.3 45.4 46.5 47.2 47.7 48.2 48.7 49.5 50.3 51.4 52.7 53.8 54.3 54.1 53.4 52.5 51.6 50.6 50.7 50.8 51.3 51.6 52.6 53.1 53.5 53.9 56 58.2 60.4 62.4 64 65.1 65.3 64.7 64.1 63.6 63.2 63.3 63.8 64.8 65.7 67.1 69 70.6 72.3 73.7 74.9 78.1 80.4 81.2 83.4 85.3 87.2 86.1 86 88.6 84.6 83.1 85 89.9 95.5 97 96.8 97.3 97.8 97.1 96.1 96.1 98.1 96.9 91.5 87.6 89.8 94.1 96.4 91.4 88.4 85.8 83.1 79.4 74.9 71.5 65.8 63.4 63.4 62.6 61.2 60.7 60.3 59.4 59.4 59.8 59.3 59.1 57.9 57.4 56.2 54.9 53.2 51.6 50.9 49.3 47.5 46 45.3 44.3 42.9 42.3 41.6 41 40.7 40.3 40.1 40.3 40.5 41.4 42.9
37.6 36.4 35.2 34 32 28 23.3 21.1 18.7 17 16.2 16.3 16.2 16 15.8 15.6 15.4 15.1 14.1 13 11.2 11 11 11 11.1 11.1 11.1 10.8 20.2 15 11 11.1 11.3 11.5 11.7 11.3 10.5 12.1 14.8 19.5 22.6 22.6 24.7 24.9 24.6 23.9 22.2 21.7 21.4 22.2 22.9 25.1 26 25.3 25.9 25.8 28.2 28.7 29.7 32.7 33.5 33.9 34.2 34.6 34.1 34.6 34.9 35.1 34.8 35.6 36.2 36.4 36.6 37.5 38.5 39.3 39.3 39.2 39.8 40.5 41.2 41.9 42.9 44 45.1 46 46.6 47.4 47.9 48.4 49 49.5 50.8 52.1 51.7 52.2 52.6 51.7 50.7 49.8 49.3 49.3 49.2 49.8 50.5 51.8 52.9 53.5 54.1 55.4 58.1 60.3 62.3 62.8 63.6 63.7 63.2 62.7 62.2 61.5 61.7 62.6 63.7 64.7 66.2 68.9 69.9 71.6 72.9 72.9 75.4 75.8 78.2 79.4 80.8 82 81.6 82.8 86.2 82.6 79.3 83 91 94 95.2 93.5 94.6 95.2 93.5 90.8 91.2 91.9 90.6 87.7 84.2 91.8 95.2 94.9 91.1 84.2 79.6 76 72.5 68.7 64.9 60.3 58.8 57.6 57.2 57.2 57.1 57.8 57 57.1 56.6 56.3 56.8 56.2 55.2 54 52.8 51.5 49.9 49.1 48 46.3 44.5 43.2 42.5 41.6 40.8 40.2 40.1 40.1 39.9 39.9 40.3 40.8 41.4 42
35.4 34.2 33.4 33.3 32 29 24.2 20.4 18 16.6 16 15.7 15.5 15.3 15.2 15.1 14.9 13.9 13.2 11 11.2 11.1 11.1 11.1 11.1 11.2 11.1 10.9 16.8 12.4 11.3 11.4 11.5 11.5 11.5 13.5 15 20.6 23.4 24.3 24.1 24.6 25.7 25.7 25.1 26.5 25.4 24.9 26 26.4 26.1 28.2 27.6 27.6 28.1 28.5 28.7 29.6 30.9 33 33.7 34.1 34.5 34 33.6 34.3 34.6 34.8 35.3 35.8 36.4 36.6 36.1 36.7 37.8 38.7 38.2 38.6 40 40 40.7 41.5 42.6 43.7 44.6 45.2 45.7 46.4 47.2 48 48.6 49.1 50.2 50.4 49.7 49.7 50.1 49.9 48.9 48 48.1 48.5 47.6 48.3 49.4 50.5 51.9 52 53.2 55.8 58.1 60.3 61.2 61.6 62.2 62.1 61.7 61.2 60.7 60.1 60.7 61.8 62.8 63.9 64.9 67.6 69.8 71.5 70.9 71.6 73.3 74.3 74.7 75.7 77.1 78.7 78.3 79.1 81.5 78.5 77.2 83.9 89 90.4 90.5 90.6 92.3 92.2 89.5 86.7 86.4 87.2 84.6 80.7 85.5 89.6 91.5 91.6 90.2 84.8 78.1 73.8 68.7 64.4 60.6 57.6 56.1 55 54.7 54.9 54.9 55.4 54.8 55.3 53.9 54.1 54.4 54 53.1 51.8 50.6 49.4 48.1 47.4 46.4 44.8 43.1 42.1 41.5 40.5 39.6 39.5 39.5 39.5 39.7 40.1 40.6 41.2 42.1 42.9
32.9 32.2 31.2 31.2 30 26 23.6 19.2 16.7 16.1 15.5 15.1 15.1 15 14.9 14.7 13.6 12.7 11.2 11.3 11.4 11.3 11.2 11.2 11.2 11.2 11.2 11 11.1 10.9 11.4 11.8 11.8 13.8 16.1 19.2 21 21.5 23 25.1 25.6 25.3 25 25.7 25.6 26.7 26.9 27.1 28.2 28.4 29.4 30.3 30.2 30 29.7 30.7 30.6 30.8 31.4 32.2 33 33.5 34 33.4 33.2 33.9 34.4 35.8 36.4 36.8 36.4 35.7 35.4 35.7 36.6 37.2 38.6 38.3 39.3 40.8 40.5 41.2 42.4 43.2 43.9 44.4 44.9 45.5 46.3 47.1 47.9 48.7 49.2 48.6 48 47.3 47.4 47.3 47.1 46.4 46.9 47.5 46.8 47.7 49 50.3 51.2 51.5 52.5 54.8 57.2 59.7 59.5 60.3 60.7 60.6 60.2 59.7 59.1 58.9 59.5 60.7 61.9 63 64.1 66.1 68.5 70.2 69.4 70.4 71.1 71.8 72.5 73.2 75.2 75.7 76.2 77.3 76.7 74.4 74.3 82 86.3 87.1 87.3 87.6 89 89.3 87.9 83.5 82.4 81.9 79.9 78.3 83.8 86.9 87.2 87.7 86.4 81 75.7 73.1 70 63.6 58.9 55.9 54.1 53.2 52.6 52.7 52.9 53.1 53.7 52.7 51.6 50.9 51.9 51.7 50.9 49.5 48.3 47.1 45.9 44.8 43.8 42.6 42.2 41.9 41.2 39.6 39.4 39.2 39.2 39.9 40.6 40.2 40.8 41.7 43 43.8
31.6 29.6 28.5 28.4 27.5 23.2 21 18.8 16.2 15.5 14.9 14.3 14.6 14.6 14.5 13.5 12.7 11.4 11.7 11.3 11.7 11.5 11.4 11.3 11.3 11.3 11.6 11.6 11.6 11.7 11.1 13.5 16.1 18.6 20.7 22.3 22.1 22.4 24 24.5 25.2 25.2 25.3 25.6 26.7 25.4 25.9 27.5 28.7 29.9 31 32 31.7 32 31.3 32.4 32 32.1 32 31.8 31.6 32.4 32.9 32.8 32.8 33.5 34.4 36.1 36.7 36 35.9 35.3 34.7 36.5 36.4 36.6 38.9 38.5 38.5 39.3 40.3 41 41.8 42.5 43.1 43.6 44 44.5 45.3 46.1 46.9 47.7 48.1 47.4 46.7 45.9 45.5 45.1 45 45.4 46 46.6 46.3 46.7 48 49.3 49.9 50.1 52.2 54 56.5 58.3 57.8 58.5 59.2 59 58.5 58 57.5 57.8 58.4 59.6 60.7 61.9 63 65.5 68.3 68.2 67.8 68 68.7 69.3 70 71.3 72.7 71.8 74.4 75.8 73.3 70.5 72.3 79.2 83 84.3 84.6 84.8 84.9 84.1 84.4 80.5 78.6 77.2 75.8 78.4 82.4 83 83.3 83.3 82.4 79.9 74.9 69.9 69.4 62.8 58.2 54.8 53.5 51.8 50.8 51 51.3 51.3 51.7 50.5 49.8 49.9 50 49.8 49.1 47.3 45.9 44.7 43.7 43.1 42.3 42.2 41.9 40.5 39.4 39.3 39.1 39.1 39.6 40.2 40.8 40.4 41.5 42.7 43.8 44.6
29 27.5 25.3 24.6 23.4 21 19 17.2 15.4 14.8 14.2 13.7 13.9 14.2 13.5 12.7 12 11.5 11.9 11.5 11.9 11.8 11.6 11.4 11.7 12 12.1 12.2 12.2 13.5 20.2 16.1 19.3 20.3 21.1 22 22.4 22.5 22.5 23.5 24 23.6 23.5 24.5 24.2 25.9 26.7 29.7 30.8 31.8 32 31.8 31.2 30.9 32.2 32.9 32.4 32.3 32.2 32.2 32.1 32 31.9 31.8 32.3 33 33.5 34.7 35.6 35.3 35.1 34.8 34.4 35.9 35.7 37.2 38.6 38.4 38.6 39.4 40.1 40 41.1 41.8 42.3 42.8 43.2 43.7 44.4 45.2 46 47 47 46.2 45.1 44.1 44.6 44.5 43.7 44.6 45.2 45.2 45.7 46.2 46.9 48.3 47.7 50.1 52.3 54.1 55 57.1 56.9 56.8 57.3 57 56.7 56.4 55.9 56.2 57.1 58.2 59.3 60.4 61.7 64.8 67.1 67.2 67.1 65.7 66.2 66.9 68 69.3 69.7 68.7 71.5 71.8 70 67.5 70.1 75.9 80.2 81 81.9 82.6 82.1 81.9 81.5 78.8 75.8 75.7 73.1 77 79.9 79.1 77.5 77.3 77.3 76.4 72.3 65 62.9 60.9 59.3 56.4 53.7 51.7 49.5 49.5 49.5 49.5 49.6 48.7 48.1 48 47.1 46.6 46.8 46 43.7 43 41.9 41.4 41.5 41 41 39.1 39 38.9 39 39.3 39.7 40.2 40.8 40.7 41.8 43.4 44.5 45
25.3 25.8 23.6 21.9 21.5 19.3 18.1 16 14.9 14.4 13.9 13.5 13.5 13.5 12.8 12 11.4 11.8 12.1 12.2 12.2 12 11.8 11.8 12.2 12.5 12.6 12.5 12.9 14.1 20.2 18.1 19.3 19 19.8 21 21.9 21.8 21.4 21.6 21.5 23.2 23.5 24.8 26.4 26.4 28.9 30.2 31.5 32.5 32.8 32.8 28.9 31.9 32.8 32.9 32.3 32.3 32.2 32.1 32.1 32 31.9 31.6 31.4 32 32.6 33.5 34.6 34.4 33.9 33.5 33.7 35.3 35.6 37.3 38.2 38.3 38.7 39.3 39.1 38.9 40.4 41.1 41.5 42 42.4 42.9 43.4 44.2 45.1 46.2 45.9 44.3 43.4 42.5 43.2 43.4 43 43.6 44.4 44.6 45.2 45.7 46.2 48 47.8 49.7 51.9 53.7 54.5 55.8 56 56 55.7 55.3 55 54.7 54.4 55.3 56.1 57.1 58 59 61.1 63.1 65.2 65.6 65.5 64.8 64.2 64.6 65.8 67 66.2 65.3 65.1 65.2 65.2 64.6 68.3 73.9 76.9 77.6 78.4 78.1 79.6 79.2 79.1 75 73.3 73 72 76.4 78.3 75.3 73.1 71.4 73.7 73.2 68.4 62 59 60.4 62.5 58.4 53.7 50.9 48.3 48.3 48.1 47.8 47.6 47.1 46.5 46 45.3 44.6 44.6 43.4 41.4 40.6 40.5 40.5 40.7 39.9 39.2 38.5 38.5 38.8 39.2 39.5 39.9 40.3 40.8 41 42.3 44 45.1 46.2
21.3 22.2 20.6 20.5 18.6 16.9 16 15.9 14.2 13.9 13.7 13.3 13.2 12.9 12.4 11.7 11.7 12.2 12.4 12.5 12.7 12.7 11.7 12 11.5 11.5 11.5 12.1 13.3 14.5 19.2 19.1 18.6 18.1 18.5 19.9 21.3 21.2 22.3 23.4 23.5 24.7 25.6 26.4 27.1 28.9 29.8 30.9 32 33.2 33.4 33.4 30 28.8 33.4 32.5 32.3 32.2 32.1 32.1 32 32 31.9 31.7 31.3 31.2 31.9 32.6 33.5 33.5 32.4 33 33.2 34.5 36 37 37.7 38.2 38.5 38.3 38.1 38.5 39.9 40.3 40.7 41.2 41.6 42.1 42.5 43.3 44.4 45.1 44.2 43.2 41.7 41.7 41.8 42.1 42.5 43 43.5 44 44.7 45.2 45.6 46.4 47.8 49.4 51.4 52.5 53.6 54.4 54.9 55.1 54.7 54.2 53.7 53.4 53.5 54.3 55.1 56 57 58.1 59.2 60.7 62.8 64 63.6 63 62.5 63.1 64.5 64.9 63.6 61.7 61.4 61.6 62 64.5 67.8 71.5 73.5 74 73.4 73.8 76 76.5 76.3 73.9 70.4 69.5 70.1 74.3 75.8 74.5 71.3 67.7 70.9 71.2 68.1 61.2 57.4 60.5 63.8 59.5 53.7 49.3 47.2 47.3 47.1 46.9 46.6 45.6 44.9 44.3 43.6 43 42.9 40.9 39.9 39.5 39.8 40.1 39 38.7 39.2 39.3 39.4 39.5 39.6 39.9 40.2 40.5 40.9 41.3 42.9 44.6 46 47
20.8 20.2 19.7 18.7 18.1 17.3 16 14.6 13.8 12.8 11.4 12.1 12.7 12.8 12.2 12.6 12.3 11.6 11.5 11.4 11.2 11.2 11.2 11.2 11.2 11.3 11.4 12 13.3 14.6 15.7 19.2 16.6 17.6 18.8 20.2 21.1 22.7 23.7 24.8 25.3 26.3 27.2 27.7 28.3 29.5 30.9 32 33 33.5 33.6 33.8 29.6 29.1 33.2 32.3 32.3 32.2 32.1 32 32 31.9 31.8 31.3 31 30.5 31.2 31.6 32.3 31.8 32.6 33.4 33 34.3 35.6 36.5 37.1 37.8 37.5 37.3 37.5 38.8 39.5 40 40.3 40.7 41 41.4 41.8 42.5 43.6 42.8 40.9 41.7 41.7 42.2 42.9 43.5 43.3 43.7 44.3 44.6 44.3 44.9 45.5 46.5 48.2 49.8 51.1 52.1 52.7 53.1 53.6 54 53.5 53 53 52.4 52.1 53.3 54.1 55.1 56.2 57.3 58.4 59.6 60.9 62.3 61.9 61.4 61.7 61.6 63.1 63.3 62.2 60.1 59.1 59.4 59.9 62.9 66.6 68.4 68.9 68.7 67.6 70.7 73.1 74 74.3 72.9 68.7 65.8 67.1 70 71.8 71.4 67.9 64.8 68.1 67.7 65.1 61.1 56.3 58.5 60.4 56.7 51.2 47.8 46.1 45.9 46.2 46.1 45.8 44.8 43.8 42.6 42 41.5 40.1 39.4 38.8 38.4 38.4 38.7 38.3 38.8 39.3 39.4 40 40.7 40.4 40.6 40.8 41.1 41.4 41.7 42.9 44.6 47.3 47.5
20.6 19.9 18.8 17.5 16.9 17.2 16.9 15.8 14.4 13.1 11.6 12.3 12.5 12.5 12.2 11.4 11.1 11 11 11.1 11.1 11.1 11.2 11.1 11.2 11.2 11.3 12 12.9 13.3 13.8 19.3 19 19.1 20 20.8 21.5 23.3 25 25.9 27 28.2 29.3 29.3 30.3 30.5 31.9 32.8 33.7 33.4 33.6 33.6 30.7 29.9 32.8 32.3 32.2 32.2 32.1 32 31.9 31.9 31.5 30.8 30.5 30.2 30.2 30.7 30.7 30.4 31.6 32.7 32.7 34.1 34.9 35.7 36.5 37.1 36.7 36.7 37.7 38.6 39.2 39.8 39.9 40.2 40.6 41 41 41.5 42.5 41.4 40.3 41.2 42.3 44.1 45.3 46 45.2 45.6 46.3 46.8 46.6 46.1 46.3 47.2 48.9 50.2 51.3 51.4 51.6 52 52.5 52.7 52.3 51.9 51.4 50.8 50.8 52 53.2 54.3 55.4 56.5 57.7 58.8 60 61 60.5 59.9 60.2 60.8 61.7 62.1 61.3 59.2 57.3 57.4 57.8 61.3 64.3 64.7 65.1 64.1 64.5 67 69.5 70.6 71.4 70.9 68 63.4 64.1 63.8 66.1 67.4 64.2 61.8 65.4 65.1 63 59.5 54.5 53.2 54.2 52.1 49.5 46.3 44.6 44.5 44.5 43.8 43.9 44 42.5 42.4 40.3 39.5 38.9 38.2 37.6 37.6 37.2 38.1 38.4 38.9 39.4 39.6 40.3 41.8 41.7 41.4 41.5 41.8 42 42.3 42.8 44 46.2 47.6
20.1 19.5 17.8 16.4 15.8 16.5 17.2 15.5 15 12.2 11.9 12.5 12.7 11.5 11.3 11.2 11.1 11 11 11.1 11 11.1 11.1 11.1 11.1 11.2 11.4 12.9 14.3 15.1 15 18.9 19.7 19.5 19.9 21 21.9 23.7 25.6 27.4 28.7 30 31.3 32.2 31.2 31.8 32.6 33.1 33.3 33.4 33.2 33.1 30 31.6 32.4 32.2 32.2 32.1 32 32 31.9 31.8 31.2 30.5 29.5 29.5 29.7 29.4 29.2 29.4 30.4 31.5 32.5 33.3 34.1 34.9 35.7 36.5 36.8 37.1 37.6 38.2 38.8 39.5 39.7 39.8 40.2 40.1 39.9 40.6 40.3 40.5 39.9 41 43.3 44.7 46.1 46.9 46.6 47.4 48.3 48.4 48.1 47.6 47.5 48.1 49.4 50.1 50.2 50.2 50.4 50.8 51.3 51.4 51.1 50.7 50.3 49.8 50 51.3 52.6 53.7 54.7 55.8 56.9 58 59.1 59.8 59.3 58.7 58.8 59.7 60.6 60.9 60.5 58.5 56.9 54.7 55.7 59.5 62.2 62.9 61.7 60.5 62.2 63.8 65.4 66.9 67.5 67.3 64.3 61.3 63.3 65.4 65.1 64.2 61.3 59.2 62 61.9 58.9 55.8 51.1 49 49.2 48.6 47.2 45.5 44 42.8 42.9 42.1 41.7 41.4 41.3 40.9 39.9 39.2 38.1 37.1 36.5 37.5 38.1 38.7 39 39 39.5 39.9 40.7 42.2 42.9 42.6 42.3 42.4 42.7 42.9 43.2 43.9 45.7 46.7
19.6 19 17.1 17.1 17.2 15.6 15.2 15.2 14.8 11.8 12.2 12.7 11.4 11.3 11.3 11.2 11.1 11 10.9 10.9 11 11 11 11.1 11.1 11.2 12.2 14.8 16.2 16.6 16.8 17.1 19.9 18.7 19.4 20.2 21.4 23.8 26 28 29.6 31 32.1 32.9 32 32.5 32.9 33.3 34 33.5 33 32.5 30 32 32 31.4 31.3 31.6 31.9 31.9 31.8 31.5 30.6 29.7 28.7 28.6 28.9 29.4 29.3 29.8 30.3 31.4 32.3 33.2 34 34.8 35.5 36 36 36.4 36.8 37.4 38.3 39.1 39.5 39.4 39 38.6 38.9 39 38.1 39 40.9 41.6 43.1 44.4 45.6 46.6 47.4 48.3 48.8 49 48.8 48.8 48.9 48.8 48.8 48.9 48.9 49 49.3 49.7 50.2 50.1 49.8 49.4 49 48.6 49.3 50.6 51.9 53 54.1 55.2 56.3 57.4 58.3 58.6 58.2 57.6 57.1 57.9 58.9 59.7 59.3 57 54.8 54.4 54.4 56.5 59.4 60.4 59 58.3 59.7 60.5 61.4 62.7 64.3 61.7 60.8 58.7 61.6 63.2 63 60.8 58.4 55.7 58 57 54 51.5 50.1 48.3 46.7 46 45.1 44.7 43.7 42.5 42 40.6 40.8 40.7 40.3 39.7 39.4 39.3 38.4 36.9 36.3 37.3 38.3 39.2 39.6 39.8 39.7 40.2 41 42.5 43.8 43.5 43.2 43.2 43.2 43.5 43.8 44.3 45 45.9
18.9 18.5 17.5 16.4 16.5 17 17.5 16.3 12.9 11.5 11.8 11.2 11.1 11.2 11.2 11.2 11.1 11 10.9 10.9 10.9 10.9 11 11 11.1 11.8 14.1 16.2 17.2 17.7 17.8 18 20.2 18.7 18.3 18.3 20.1 23.2 25.9 27.5 29 30.7 31.8 32.6 32.3 32.6 32.9 33.4 33.3 32.9 32.3 31.9 30.7 32.2 31.7 31 30.4 30.4 30.7 30.9 31.4 30.5 29.5 28.7 28 27.8 28.4 29.4 29.6 30.2 30.7 31.2 31.9 33 33.8 34.4 35 35.4 35.3 35.6 36.1 36.7 37.2 38.4 38.6 38 37.7 38.3 38.5 38 36.8 38 40.5 41.9 42.9 44 45 45.8 46.5 47.3 48.2 48.5 48.5 48.3 48.2 48 47.6 47.7 47.7 47.8 48.2 48.5 49 48.8 48.5 48.1 47.7 48 48.7 49.9 51.2 52.4 53.5 54.5 55.4 56.4 57.3 57.4 57 56.5 56 56 57.4 58.1 57.9 58 56.3 54.4 54.4 54.7 56.1 56.6 55.7 56.7 57.5 58.4 58.6 60.1 61.5 59 58.6 56.7 59.5 60.1 59.3 57.4 55.3 52.7 53.4 53.9 51.5 49.2 47.2 46.3 45.9 45.2 44.4 43.1 41.7 40.9 39.8 39.2 38.9 38.6 39 38.8 38.8 37.6 37.6 36.2 37.1 37.7 39 39.2 39.6 40.1 40.8 41.1 41.4 42.4 43.4 44.2 44.2 44.2 44.2 44.2 44.3 44.7 45.4 46.3
17.4 17.1 15.6 15.7 15.5 16.9 17.2 17.3 12.2 11.6 11.4 11.6 11.1 11.1 11.1 11.1 11.1 11 10.9 10.9 10.9 10.9 10.9 11 11.5 12.9 16 16.5 17.6 18.1 18 18.6 19.4 20 19.4 18.8 20.1 22.4 24.4 26.3 28.1 29.8 31.3 32.1 32.2 32.5 32.7 32.7 32.6 32.3 31.9 32 29.2 31.3 31.2 30.7 30.1 29.5 29.5 30.2 29.8 29.3 28.6 27.9 27.3 27.4 27.6 28.5 29.2 30 30.9 31 31.4 31.9 32.5 33.5 34.4 34.9 35 35.3 36.2 36.2 37.3 38.4 37.6 37.5 37.7 37.9 37.2 35.7 36.1 38 40.4 41.4 42.5 43.4 44.2 44.9 45.7 46.4 47.3 47.5 47.5 47.5 47.3 47.2 46.7 46.4 46.5 46.7 47 47.4 47.8 47.6 47.2 46.9 46.8 47.5 48.1 49.3 50.6 51.7 52.6 53.5 54.4 55.3 56.3 56.3 55.7 55.3 54.8 54.5 55.6 56 56.5 56.8 55.3 54.4 50.9 50.8 51.9 52.6 53.1 54.9 56.1 55.9 56.5 58 58.4 56.7 56.5 54.9 56.8 57.2 56.1 55.1 52.7 49.9 50.8 51.6 50.3 47.9 46.9 44.6 43.6 43.6 42.5 41.6 41.2 40.8 38.7 38.3 37.8 37.5 37.6 37.2 36.7 36.2 36.7 37 37.3 38.5 37.8 38.6 39.3 39.7 40.7 41.6 41.9 43.2 44.2 44.7 44.9 45 45.1 45.1 45.4 45.5 46.1 46.8
16.6 16.6 15.4 14.4 13.5 15.4 16.5 15.2 12 11.5 12 11.8 11.3 11 11 11 11 10.9 10.9 10.9 10.9 10.9 10.9 11.1 11.5 12.5 14.7 15.6 17 17.3 18.2 18.8 18.3 20.1 19.3 18.4 20 21.3 22.4 24.3 26.1 27.8 28.9 30 31.6 31.9 32.2 32.1 31.9 31.7 31.5 31.2 29.8 30.4 29.7 28.9 28.2 27.6 27.7 28.5 28.2 28 27.3 26.8 26.9 27.2 27.4 27.6 28.5 29.8 30.6 30.8 31.3 32.2 31.9 31.4 32.3 32.9 35.6 35.1 35.2 36.3 37 37.1 36.7 37.2 37.6 37.2 36 34.1 35.8 38.3 39.8 40.4 41.4 42.3 43.2 44 44.8 45.6 46.4 46.5 46.5 46.5 46.5 46.3 45.9 45.3 45.3 45.6 45.9 46.3 46.6 46.3 46 45.6 46.5 47.1 47.7 48.6 49.6 50.6 51.6 52.5 53.4 54.3 55.3 55.1 54.5 54 53.6 53.4 54.1 54.5 55 54.9 54 53.1 50.2 48.8 49.3 50 50.9 52.1 53 53.2 54.3 55.2 55.2 54.1 54 53.8 54.3 54.1 53.6 52.6 50.6 47.7 48.8 49.2 48.3 46.6 44.2 43.4 42.8 42 41.1 40.3 39.8 38.4 38 37.5 37 36.5 36.4 36.3 36 35.9 36.3 37.5 38.2 37.6 38.2 39 40.3 40.7 40.9 41.3 42.1 44 44.5 45 45.5 45.5 45.6 46.1 46.5 46.9 47.2 47.5
15.9 16.5 16.5 15.4 14.1 14.7 16 15.4 11.8 11.4 12.9 12.2 11.6 10.9 10.9 10.9 10.9 10.8 10.8 10.9 11 11.2 11.2 12.3 13.6 12.1 12.1 13 13.8 15.9 17.2 17.9 18.2 20.2 19.5 18.4 19.6 20.5 21.2 22.3 23.5 24.8 26.1 27.3 29.4 30.3 30.4 30.3 30.3 30.4 30.3 30 29.1 29 28.3 27.5 26.9 26.6 26.6 26.9 26.8 26.5 26.2 26.7 27.1 27.6 27.9 27.8 28.8 30.3 30.1 30.3 30.7 30.3 31.3 30.3 29.6 32.5 33.6 34.1 34.8 35.6 36.3 35.8 36.1 36.5 36.1 35.7 34.3 35.4 36.5 38.8 38.8 39.3 40.3 41.2 42 42.9 43.8 44.6 45.5 45.6 45.5 45.5 45.5 45.5 45 44.5 44.1 44.4 44.8 45.1 45.3 45 44.7 45.2 46 46.7 47.3 47.7 48.6 49.6 50.6 51.5 52.4 53.3 54.2 54 53.3 52.8 52.3 52.4 52.9 53.3 53.9 53.5 52.6 51.7 50 48.2 47.2 47.6 48.9 50.3 50.7 51 51.8 52.2 52.3 52.9 51.6 51.9 51 51.3 50.6 49.7 47.4 45.7 45.7 46.1 44.6 43.1 41.7 40.8 40.9 40.5 39.6 38.8 38.2 37.7 37.5 37 36.5 35.9 35 35.6 35.9 37 38 37.5 37.4 37.8 38.4 39.3 40.2 41.4 41.8 42.2 42.7 43.9 45.3 45.6 45.9 46.3 46.8 47.2 47.6 48 48.3 48.7
15.3 14.9 14.8 15.2 15.2 13.1 14 13.5 11.6 12.2 12.4 11.5 10.9 10.9 10.9 10.8 10.8 10.8 10.8 11 11.4 11.6 13.1 15.7 16.8 15.2 13.6 13.2 13 14.7 15.6 16.3 16.9 17.4 20 18.6 19.5 19.9 20.6 21 21.7 23 24.5 25.5 26.7 27.8 28.1 28 28.1 28.2 28.2 28.2 27.9 27.7 27.1 26.7 26.2 25.8 25.7 26.4 26.1 25.5 25.9 26.3 26.6 26.9 27.3 28.1 29 29.4 29.2 29.7 30 30 30 30 30 30.7 31.4 32.4 34.1 34.9 34.8 35.2 35.5 35.6 34.7 33.8 33.3 36.1 37.2 37.8 37.7 38.3 39.2 40.1 40.9 41.8 42.7 43.8 44.6 44.6 44.6 44.6 44.6 44.5 44 43.4 43.4 43.4 43.7 44 44.3 44.2 44 44.9 45.7 46.4 46.6 47.1 47.7 48.5 49.5 50.5 51.4 52.3 53.2 52.9 52.1 51.6 51.1 51.3 51.7 52.3 52.9 52 51.1 50.3 49.2 47.5 45.8 46.3 47.8 48.6 48.6 49.1 49.6 49.8 50.5 50.2 50.4 49.6 49.7 49.5 48.7 46.6 44.6 43.4 42.7 42.9 42.2 41.4 40.6 39.2 38 38.1 38.2 37.4 37.1 37.3 37 36.5 36 35.3 34.9 35.6 36.7 38.1 38 37.4 37.7 38 39 40.3 40.2 41.4 42.5 43.1 43.6 44.1 45.5 46.7 46.5 47.3 47.9 48.3 48.7 49.1 49.4 49.7
14.8 14.4 14.5 15.4 15.9 13.5 12.3 12.1 11.8 11.4 10.9 10.9 10.9 10.9 10.9 10.8 10.8 10.8 10.8 10.8 11.2 14.8 17.3 19.1 18.5 17.7 16.6 15.5 14.3 13.5 14.9 15.5 15.9 16.2 15.9 18.9 19.2 19.4 19.9 20.2 20.5 21.3 22.5 23.2 23.8 24.9 25.7 25.7 25.7 26.2 26.1 25.6 26.3 26.1 26.2 25.8 25.4 24.9 24.9 25.3 24.9 24.8 25.4 26 26.3 26.6 27 28 29.1 29.2 30.1 29.9 30 30 30 30 30 30 30.2 30.4 33.3 34 34.2 34.5 34.9 34.2 33.4 33.9 34.4 35.2 35.8 36.4 36.7 37.2 38.1 39 40.1 41.1 42.2 43.2 43.7 43.6 43.7 43.7 43.6 43.5 42.9 42.8 42.8 42.6 42.6 43 43.2 43.5 43.5 44.5 45.4 46 45.9 46.5 47.1 47.7 48.4 49.4 50.4 51.3 52.2 51.8 50.9 50.4 49.9 50.1 50.7 51.3 51.4 50.5 49.7 48.8 47.8 46.7 44.9 44.9 45.8 46.6 46.4 46.9 47.1 47.3 47.6 47.8 48.2 48.1 48 46.9 46.6 44 42.3 41.1 41.1 41.3 40.7 40.2 39.3 37.9 36.4 35.1 35.2 36.2 36.6 37 36.5 36 35.6 35.3 35.7 36.5 37.7 37.6 37.4 38 38.3 39.9 40.6 41.1 41.8 42.2 42.9 43.7 44.4 44.9 45.5 47.1 47.1 48 48.9 49.4 49.7 49.9 50.2 50.4
14 14.4 14.8 15.1 15.5 14.9 13.8 12 12.2 11.5 10.9 10.9 10.9 10.9 10.9 10.9 10.8 10.7 10.7 10.8 14.4 18.4 20.5 20.5 19.9 19.2 18.1 17.1 15.9 14.1 14.2 14.8 15.1 15.3 20.7 18.6 18.8 18.9 18.7 19 19.3 19.8 20.3 20.8 21.4 22.1 23.1 23.3 23.4 24.4 24 23.3 24.4 23.9 24.5 25 24.5 24.1 24 24.1 23.8 24.3 24.9 25.5 26 26.3 26.7 27.8 28.9 29.5 29.7 29.7 30 30 30 30 30 30 30.2 30.2 30.1 33.4 33.7 34 34.1 33.7 33.1 34.3 35 35.5 35.5 35.2 35.7 36.4 37.4 38.5 39.5 40.6 41.7 42.7 42.7 42.7 42.7 42.7 42.7 42.4 42.2 42.2 42.2 42.1 41.9 41.9 42.1 42.7 42.9 44.1 45.1 45.3 45.2 45.8 46.5 47.1 47.7 48.4 49.3 50.3 51.2 50.8 49.8 49.3 48.8 49.1 49.7 50.3 49.9 49.1 48.3 47.4 46.4 45.4 44.1 43.4 43.8 44.3 44.5 44.7 45.1 45.4 45.7 46 46.3 45.8 47.1 45.1 44.8 42.9 39.9 39.6 39.4 39.8 38.9 39 37.7 36.3 34.9 33.8 33.7 35.3 36.6 36.6 36.4 35.4 35.1 35.4 35.9 37.1 37.5 37 37.3 38.7 39.6 40.3 41 41.6 42.3 43 43.4 44.3 44.7 45.5 46.2 47.8 47.5 48.6 49.6 50.2 50.4 50.7 50.9 51.4
14 14.1 14.4 14.7 15.1 15.3 14.4 12.9 11.4 11 10.9 10.9 10.9 10.9 10.9 10.9 10.9 10.8 10.7 12.9 18.1 21.2 21.6 21.6 21.3 20.7 19.7 18 17 15.5 14.5 15 15.6 16.1 18.6 20.4 17.9 17.8 17.9 16.8 17.1 18.7 20 20 19.9 19.8 20.3 20.9 21.6 22.6 22 21.3 25 22.3 22.4 22.9 23.4 23.3 23 23 23.3 23.9 24.5 25.1 25.6 26 26.4 27.6 28.7 29.2 29.1 28.7 29.6 30 30 30 30 30 30 30.2 30.5 31.7 33.2 33.6 33.3 32.9 32.4 33.4 34.2 34.8 34.6 34.9 35.4 36 36.6 38 39 40.1 41.1 42.1 41.7 41.7 41.7 41.8 41.8 41.6 41.6 41.6 41.6 41.5 41.3 41.2 41.2 41.8 42.4 43.5 44.6 44.5 44.5 45.2 45.9 46.5 47.1 47.7 48.3 49.2 50.3 50.2 49 48.4 47.9 48 48.8 49.3 48.5 47.7 46.9 45.9 44.9 44 43.2 42 42.9 43.3 43.4 43.3 43.3 43.6 43.9 44.2 44.5 44.8 44.9 44.2 43 41.8 38.2 37.9 37.6 38.3 38 36.6 35.2 34.6 34.1 34 35 36.3 36.6 36.6 35.4 34.9 35.1 35.4 35.7 36.3 37.2 37.8 38.3 38.8 39 40.5 41.4 42 42.7 43.2 44.2 45.1 45 45.7 47.4 47.4 48.4 49.4 50.4 50.8 51.2 51.4 51.8 52.4
14.7 14.8 14.8 14.9 14.9 15.1 14.7 11.9 11.7 11.4 11.2 11 11 11 10.9 10.9 10.9 10.9 11.2 16.5 20.6 21.6 21.6 21.7 21.7 20.8 19.4 18.4 17.4 16.4 15.7 16.4 17 16.9 16.2 21.5 16.8 16.3 16.6 16.9 16.4 17.7 18.9 19.9 19.8 19.6 19.5 19.6 19.9 20.6 20.6 21.2 24.3 21.8 22.2 22.4 22.6 22.9 22.9 23.2 23.5 23.7 24 24.6 25.2 25.7 26.2 27.3 27.8 28.3 28.7 28.2 29.1 30.3 29.1 30 30 30 30 30.2 30.5 31.4 32.3 32.8 32.4 32 31.5 31.2 32.5 34.1 34.4 34.7 34.8 35.5 36.4 37 38.1 39.5 40.6 41.1 40.7 40.7 40.8 40.9 41.1 41 41 41 41 41 40.8 40.7 40.8 41.2 41.9 42.7 43.7 43.7 43.9 44.6 45.2 45.9 46.5 47.1 47.7 48.3 49.1 49.3 48.4 47.5 47 46.8 47.3 47.4 46.9 46.3 45.5 44.6 43.9 43.1 42.3 40.6 41.9 42.3 42.3 42.2 42 41.9 42.1 42.5 42.7 42.8 39.9 40.8 41.2 40.5 36.5 36.7 36.7 36.5 36.4 34.7 34.7 34.7 35 35 35 35.1 36.4 36.1 35.5 35.3 35.3 35.5 35.6 37.3 37.5 37.8 38.4 39.3 39.6 40.2 41 42.4 42.9 43.4 44.7 44.3 45.8 45.8 47.9 48.1 49.2 50.3 51 51.5 51.9 52.3 52.8 53.4
15.3 15.3 15.2 15.2 15.2 15 14.3 11.7 11.8 11.8 11.6 11.4 11.2 11 11 11 11 11 16.2 20 21.5 21.6 21.5 21.5 21.5 21.5 20 19.1 18.1 17.1 17 17.7 18.3 18.6 17.1 21.4 20.1 18.1 17.4 17.6 17.2 16.9 17.8 19.1 19.6 19.5 19.4 19.9 20.7 20.9 21.6 22.3 25 24 22.9 22.9 23.1 23.4 23.7 23.8 24 24.2 24.4 24.6 24.8 25.3 26 26.5 27.2 27.9 28.3 28 28.4 29.4 30.6 30.5 30 30 30 30 30.7 31.1 32.1 32 31.8 31.6 30.3 30.6 31.6 32.7 33 33.2 33.4 34.1 35.2 36.3 37.3 38.2 39.8 40.3 40.1 40.1 40.2 40.3 40.5 40.2 40.7 40.6 40.6 39.8 40.4 40.3 40.5 40.9 41.4 42.1 42.8 42.8 43.3 43.9 44.6 45.3 45.9 46.5 46.6 47.1 47.7 48.3 47.5 46.7 45.2 45.7 44.7 46.3 45.3 44.5 43.9 43.3 42.5 41.7 40.5 37.6 39.3 41 41.2 41.1 40.9 40.8 40.7 40.7 41 40.5 40.1 40 40 40.1 36.1 34.9 34.3 34.5 34.7 34.7 34.7 34.7 34.9 35 34.9 34.7 35.6 36 35.4 34.9 35.5 35.2 35.8 37.2 37.2 37.8 39 39.8 40.6 40.4 41.9 42.2 42.5 44 44.5 45.2 45.8 46.4 47.5 48.7 50 51.1 51.7 52.2 52.7 53.4 53.8 54.4
15 15.2 15.2 15.2 15.2 13.8 13.7 11.6 12 12.3 12.2 12 11.7 11.3 11.1 11.1 11 14.1 17.8 20.3 21.5 21.6 21.5 21.4 21.3 21.3 20.6 19.7 18.8 18 18.2 18.9 19.6 19.2 18 20.9 20.3 18.6 19.1 19.3 18.8 18.2 18 18 19.3 19.3 19.4 20.2 21 21.6 22.3 23 25.1 24.2 23.8 23.6 23.8 23.9 24.1 24.3 24.6 24.8 25 25.1 25.3 25.5 25.6 26.3 27 27.7 27.5 27.8 28.1 28.5 29.1 29.6 30.2 30 30.1 30.6 30.9 31.2 31.6 30.7 30.8 29.6 29.7 30.1 31 31.1 31.4 31.6 32 32.7 33.8 34.9 36 36.9 37.6 37.9 38.5 38.4 38.5 38.8 40 39.1 39.9 39.9 39.1 38.6 39.8 39.9 40.4 40.8 40.9 41.9 42.3 42.7 42.7 43.4 44 44.7 44 43.6 43.8 45 45.4 46.7 46.4 44.9 43.8 44.8 42.7 44 44.7 42.9 42.3 41.7 41.1 39.7 36.9 37.2 38.4 38.5 39.5 39.5 39.4 39.3 39.3 39.3 41 39.6 39.8 39.6 39.8 38.7 34.1 33.7 33.8 34.9 34.9 34.7 34.6 34.3 34.4 34.5 34.5 34.3 34.8 35.9 35.3 34.9 35.7 36.4 36.7 36.4 37.2 38.4 39.5 40.3 41.1 40.9 41.5 43 42.9 44.3 45 45.7 46.4 47 48.1 49.4 50.7 52.1 52.5 53 53.5 54.8 55.2 55.6
14.6 14.5 14.7 15.2 14.6 12.6 11.4 11.5 12.2 11.8 11.8 11.8 11.6 11.5 11.3 11.2 12 14.8 17.6 19.9 21.6 21.6 21.6 21.5 21.4 21.3 21.3 20.6 19.7 19.3 19.5 20.2 20.8 20.4 19.4 20.5 20.1 20.3 20.8 21.1 20.4 19.7 19.2 19 18.8 19.2 19.7 20.6 21.5 21.6 22.1 23 25 25.1 24.6 24.4 24.5 24.7 24.8 25.1 25 25.2 25.4 25.5 25.7 25.9 25.5 26.2 26.9 27.1 27.3 27.6 27.9 28.2 28.7 29.2 29.5 30 30.6 30.7 30.9 31.1 30.2 29.6 28.9 28.8 29.1 29.5 29.7 29.8 29.9 30.3 32 31.9 32.8 33.7 34.3 35.2 36 36.3 36.4 36.6 36.8 37.1 38.2 38.9 39.6 38.7 37.7 37.4 38.6 39.5 40 40.8 41.9 42.4 42.6 42 42 42.8 43.4 42.8 42.1 41.6 41.6 41.9 42.9 42.6 44.1 43.8 42.4 42.8 41.8 43.7 42.7 41.2 40.4 39.7 38.9 36.4 35.8 34.9 34.7 36.7 38.1 38 38.1 38.1 38.1 38.2 39.6 38.9 39.1 38.4 38.3 36 33.6 33.1 33.3 35.1 34.9 34.7 34 33.6 33.8 33.8 33.8 33.9 34 35.1 35.1 34.9 35.4 36.4 37.5 37.6 37.7 39 39.9 40.6 41.2 41.2 41.8 42.2 43.9 44.6 45.3 46 46.7 47.4 48.3 49.3 50.4 51.4 52.3 53.3 54.2 55.8 56.3 56.8
14.8 14.6 14.6 14.6 13.5 12 11.5 12 12.3 11.3 11.4 11.4 11.4 11.2 11.1 11.7 12.8 14.4 16.9 19.6 21.3 21.7 21.6 21.5 21.6 21.9 21.6 21.5 21.3 21 20.7 20.7 21.2 21.3 20.7 20.7 20.6 22.1 22.6 22.7 22 21.3 20.6 20.2 20 19.6 20.6 21.2 21.4 21.5 21.7 22.3 24.5 25.6 25.5 25.1 25.3 25.4 26.1 26.7 25.5 25.2 25.2 25.5 25.8 26.1 25.4 26 26.7 26.9 27.2 27.4 27.7 28 28.4 28.8 29.1 29.9 30.3 30.3 30.5 30.5 29.4 28.7 28.6 28.5 28.7 29.1 29.2 29.2 29.2 30.2 31.4 32 32.1 33 33.7 34.1 34.5 35.1 36 35.3 35.6 36.4 37.7 38.2 38.4 37.6 36.5 36.7 37.5 38.1 38.6 39.8 41.4 41.9 41.7 40.6 41.1 42.1 42.2 42 41.7 41.6 41.5 41.3 42.2 41.9 42 41.6 41.3 41.3 41.3 40.8 40.5 39.7 38 37.3 36.1 35 34.7 34.1 34 35.5 37.4 37.5 37.3 37.2 37 37 37.3 38.5 38.3 37.9 37.4 36.9 34.4 32.5 33.2 34.9 34.9 34.6 33.4 33 33.1 33.2 33.3 33.5 33.7 33.9 34.2 34.6 35.4 36.6 37.4 37.8 38.6 38.7 38.9 39.7 41 41 41.2 42.8 43.8 44.8 45.7 46.4 47 47.7 48.6 49.6 50.7 51.8 52.9 53.8 54.7 56 56.5 56.9
14.4 14.4 13.8 13.6 11.9 11.3 11.5 11.8 11.8 11.2 11.1 11 11 10.9 11.6 12.9 14 14.3 15.1 19.1 20.9 21.7 21.8 22.1 22.4 22.3 22 21.9 21.7 22.3 22.2 21.8 21.7 21.7 22.3 21.6 20.3 23.8 24.5 24.4 23.7 23 22.3 21.6 21.1 20.2 21 21.1 21.3 21.4 21.6 21.7 23.5 25.3 26.1 26 26 27.1 28.7 28.3 27.1 26 25.7 25.4 25.4 25.1 24.8 25.5 26.4 26.7 27 27.3 27.5 27.8 28.1 28.4 28.7 29.7 30 30 30.1 29.5 29 28.3 28.3 28.2 28.3 28.6 28.6 28.7 29.2 30 31 31.1 31.5 32.4 33.2 33.5 33.7 34.9 35.2 34.9 35.1 36.1 37.1 37 36.8 36.2 35.4 36 36.2 36.6 37.3 38.8 40.2 40.3 39.7 39.7 40.1 40.9 40.5 40.1 40.5 41.1 41.3 41.2 41.6 41.4 41.4 41 40.2 40.1 40.5 39.8 38.7 37.8 36.2 34.9 34.1 33.9 33.6 33.3 33.2 34.7 36.5 36.4 36.1 35.8 35.6 36.8 37.1 37.2 37 36.8 36.5 35.4 34.3 33 33.5 34.7 34.7 33.8 32.9 33.7 33.1 33.2 33.4 33.5 34.1 33.8 34 34.5 35.8 37.1 37.3 37.5 38.2 39.2 39.4 38.8 40.3 41.2 41.5 42.7 43.7 44.7 45.7 46.7 47.4 48.1 48.9 49.9 51 52.1 53.3 54.3 55.3 56.2 56.6 57.1
13.9 14.2 13.7 12 11.3 11.6 11.8 11.8 12.2 11.5 11.1 11 10.9 11.3 12.5 13.9 14.2 14.3 15.7 18.8 21.2 21.9 22.6 22.9 23 22.7 22.4 22.2 22.4 23.1 23.7 23.4 23.2 23.5 24.2 25.2 20.6 26.4 27.3 26.4 25.9 25.2 24.5 23.8 22.1 21 21 21.2 21.3 21.5 21.7 21.7 24.1 24.9 25.7 26.5 28 30 30.2 29.8 28.8 27.2 26.5 26.2 25.3 24.6 24.3 24.7 25.8 26.6 26.9 27.1 27.4 27.7 27.9 28 28.2 29.2 29.6 29.6 29.3 28.4 28.2 28.1 27.9 27.9 27.8 28.1 28.2 28.8 29.3 29.9 30.7 30.6 30.9 31.8 32.5 32.5 32.6 34.4 34.3 34.2 34.1 35.8 36.3 36.2 35.8 35.1 35.3 35.3 35.6 35.9 36.4 37.8 38.7 39.2 38.7 38.9 38.9 38.9 39.3 38.7 39.2 39.7 40.3 40.9 41 41.1 40.8 40.4 39.7 38.2 37.4 37.4 36.3 36 35 33.6 33 32.7 32.5 32.2 32 32.7 34.1 35.3 35 34.7 35.3 35.1 36.6 35.5 35.6 35.4 35.1 34.2 33.4 33.3 33.2 32.5 32 32 32.3 32.6 33.7 33.3 33.4 33.6 34.3 33.8 34.2 35.1 36.2 37.1 37.3 37.4 37.9 38.8 39.3 39.8 40.2 41.2 42.2 42.8 43.7 44.6 45.6 46.6 47.6 48.5 49.2 50.2 51.3 52.4 53.6 54.7 55.8 56.3 57.3 58.4
13.1 13.4 12.1 11.2 11.5 11.8 12.1 12.4 12.4 11.7 11.1 10.9 11.3 12.2 13.3 14.2 14.3 14.3 16.2 18.6 20.6 21.8 22.9 23.7 23.4 23.1 22.8 22.6 23.1 23.8 24.6 24.2 24.9 25 25.9 26.8 20.2 29.8 29.7 28.5 28.2 27.7 27 25.1 23.2 22 21.5 21.4 21.7 21.7 21.6 21.6 23 23.1 24.2 25.4 27.8 30.7 31.1 31.3 30.5 28.7 26.4 25.7 24.8 24.1 24.8 25.2 25.4 26 26.7 27 27.3 27.5 27.6 27.7 28.1 28.4 29.2 29.2 28.7 27.9 28.4 28.5 28.2 27.7 27.5 27.7 28.3 28.9 29.4 29.9 30.4 30.2 30.6 31.3 31.9 32 32 32.6 33.2 33.5 33.7 33.8 33.5 34 34.4 34.5 35.8 34.7 35 35.4 35.9 36.7 37.3 37.7 37.8 37.8 37.7 37.5 37.3 37.3 37.8 38.4 39 39.5 39.9 40.3 40.2 39.9 37.7 36.9 36 35.4 35.2 35 34.1 32.7 31.9 31.6 31.3 31.2 31.2 31.2 33.2 34.1 33.4 33.6 33.6 34.7 34.9 34.2 35.3 33.9 33.9 33.3 31.6 31.6 32 31.6 31.6 32.2 32.3 32.6 32.8 33.6 33.5 33.6 34.6 34.2 34.5 35.5 36.6 36.9 37 37.1 38.4 39 39.9 40.9 41.5 42.1 43 43.5 44.1 45 45.9 46.8 47.7 48.6 49.5 50.5 51.6 52.8 53.9 55.1 56.2 57.6 58.6 59.7
12.4 12.5 11.1 11.1 11.3 11.6 11.9 12.2 12 11.6 11.1 11 11.3 11.9 13.3 14.3 14.2 14 16.7 19.8 21.9 22.6 23.7 23.6 24.1 23.5 23.2 23.2 23.9 25.1 26.2 25.9 26.6 27.7 28.2 29.1 20.1 30 32 30.8 30.1 30 28.4 26.2 24.3 23.2 22.2 21.7 21.6 21.6 21.5 21.5 24 22.3 23.3 24.6 27 29.4 31.2 31.6 30.7 28.8 26.1 24.7 24.2 23.6 25 25.1 25.1 25.5 26.2 26.9 27.1 27.3 27.2 27.4 28.1 28.3 28.5 28.8 28.1 27.5 28.3 28.2 27.7 27.3 27.2 27.9 28.5 29 29.5 30 29.9 29.9 30.6 31.2 31.6 31.5 31.5 31.5 32.3 32.8 33.2 32.9 32.8 33.9 34 34.6 35.1 34.1 34.4 35 35.5 34.6 35.5 35.6 36.6 36.5 36.3 36.2 36 35.9 36.2 36.6 37 37.5 37.9 38.6 38.7 37.6 36.5 36 35.5 35 34.8 34.3 33.2 31.9 31 30.6 30.5 30.5 30.5 30.4 31.6 33.2 32.5 33 33.3 32.4 32.9 33.1 34.4 34.2 33.9 32 31.5 32.2 32 32.4 32.2 33.4 32.5 32.7 33 33.2 33.6 33.8 34.8 34.2 34.7 35.4 36.4 37.4 37.1 37.5 37.5 38.6 39.8 40.9 41.9 42.9 43.8 44.4 44.8 45.4 46.3 47.2 48.1 49 49.7 50.6 52 53.2 54.3 55.5 56.6 57.6 59.1 60.7
11.5 11 11 11.1 11.2 11.5 11.8 12.1 11.7 11.3 10.9 10.6 11.9 12.5 14 14.2 14.3 12.9 16.1 21.3 22.6 23.5 23.4 23.2 23.5 24.1 24.2 24.5 25.6 26.7 27.7 27.7 28.2 29.3 30.4 31.6 19.8 27.4 33.1 32.7 32 30.1 28.1 26.8 25.2 24.4 23.7 23.1 22.3 21.6 21.5 21.4 24 21.9 22.8 23.7 25.4 27.1 28.5 29 28.9 27.2 25.4 23.4 23.1 23.5 24.7 25.3 25.1 25.4 25.9 26.5 26.9 26.9 26.8 27.4 28 28.2 28.1 28.1 27.5 26.9 27.8 27.2 26.7 26.8 27.2 27.9 28.6 28.9 29.1 29 29.3 29.9 30.4 30.9 31.3 30.9 31 31 31.5 31.9 32.3 32.5 32.4 33.4 33.5 34.2 34.2 33.6 33.2 32.7 32.2 31.9 31.6 32.5 35.1 35 34.8 34.9 35 35.2 35.3 35.6 35.9 36.1 36.4 36.8 36.3 35.5 35.3 35.2 35 34.7 34 33.2 32.3 31.2 30.5 30.2 30 29.9 29.9 29.9 32 32.7 31.6 32 32.4 31.6 31.9 32.4 32 31.7 31.8 31 32.1 32.4 32.2 32.4 32.9 33.4 32.7 32.9 33.2 33.5 33.6 33.9 34.4 35.1 34.8 35.3 35.9 37.1 36.6 37.2 37.6 38.4 39.6 40.7 41.9 42.9 43.9 44.7 45.6 46.2 46.8 47.6 48.5 49.2 49.6 50.5 51.9 53.3 54.6 55.8 56.9 58 59 60.6
11.2 11 11 11 11.1 11.3 11.6 11.8 11.4 11.1 10.8 10.6 12.4 13.3 14.3 14.3 14.3 13.4 17.5 21.4 22.2 22.8 23.2 22.9 23.1 23.7 25.2 26.7 27.4 28.3 29.3 29.1 29.4 30.4 31.5 32.2 19.6 25.9 32.9 32.3 31.1 29.6 27.5 26 25.7 25.5 25.3 24.6 24.1 23.3 22.5 21.7 24.2 21.6 22.2 22.9 23.4 24.8 25.8 26.8 27 25.2 23.4 22.3 22.1 23.5 24.3 25.1 25.2 25.6 25.5 25.3 25.4 26 26.3 27 27.1 27 26.9 26.9 26.7 26.3 26.9 26.2 26.5 26.8 27.1 27.9 27.9 27.9 29.1 28.9 29.1 29.6 30.1 30.5 31 30.7 30.4 30.5 30.7 31 31.3 31.6 31.7 32.4 32.9 31.6 31.1 30.9 31 30.5 30.4 30.8 31.3 30.6 34.1 33.8 33.9 34 34.2 34.5 34.4 34.7 35 35.3 35.6 35.3 34.6 34.2 34 33.8 33.7 33.3 32.7 32.2 31.3 30.6 30.1 29.9 29.8 29.6 29.5 29.3 30.2 30.1 30.6 31 31.5 31.7 30.7 31.6 31.2 31.1 31 31.6 31.5 31.9 32.8 33.2 33.4 33.4 32.8 33.1 33.4 33.7 33.9 34.2 34.4 34.7 35 35.9 35.9 36.5 36.9 37.3 37.8 38.4 39.3 40.5 41.7 42.9 43.9 44.8 45.7 46.5 47.4 48.1 48.8 49.1 49.5 50.5 51.8 53.2 54.5 55.9 57.1 58.4 59.4 60.5
11.1 11 11 11 11 11.2 11.5 11.7 11.4 11.1 10.9 11 12.5 12.7 13.5 14.3 14.1 14.1 17.7 20.1 20.9 22.1 23 22.5 22.8 24 25.8 28.5 29.5 29.7 30.7 31.1 31.2 31.3 32.1 33.1 19.3 24.5 32.3 30.7 29.5 28.2 26.8 25.9 25.8 25.6 25.7 26.5 25.9 25.1 23.7 22.5 23.9 21.6 22 22 22.3 22.9 24.1 25.5 24.8 24.4 22.3 22.9 22.7 22.7 23.3 25 25.3 24.7 25.2 24.5 24.9 25.2 25.8 26.3 26.2 26.1 26.1 26 26.2 26.6 25.9 26 26.4 26.7 27.1 27.1 27.2 27.3 28.7 28.9 28.9 29.3 29.7 30.2 30.7 30.6 29.9 30 30.2 30.3 30.5 30.7 30.9 31.6 31.7 30.3 31.3 30.7 29.8 30.1 30.6 31.1 31.3 30.7 34 33.7 33.4 33.2 33.5 33.8 33.6 33.8 34.1 34.4 34.7 34.5 34.5 34.1 33.1 32.4 32.5 32.1 31.2 31.2 31.2 29.9 29.8 29.7 29.5 29.3 29.1 29 29.2 29.6 30.2 30.9 31.7 31.7 31.2 30.8 30.8 31 31 31.5 31.3 32.5 32.7 33.6 33.6 33.1 33 33.4 33.8 34.2 34.4 34.8 34.9 35.1 35.3 36.2 36.5 36.5 37.1 37.6 38.1 38.6 39.2 40.3 41.4 42.6 43.8 44.5 45.4 46.2 47.1 48 48.7 49 49.4 50.5 51.7 53.1 54.4 55.4 56.6 58.1 59.4 60.7
11.2 11 11.1 11.1 11 11 11.1 11.4 11.7 12 10.9 11.3 12.7 12.7 12.7 12.7 12.9 13.8 16.2 18.9 19.7 21.4 22.8 22.2 22.8 24 27.8 29.5 31.1 32.4 32.9 32.7 32.9 33.1 33.3 32.1 19.2 24 30.4 29 27.4 26.2 25 24.9 25.1 26.2 27.8 28.8 28.3 26.3 24.4 23.1 23.7 22.2 22.3 22.6 22.2 21.9 22.6 23.3 22.6 22.2 22.7 23.4 23.6 23.9 23 24.2 24.1 23.6 24.7 24 24.7 25.5 26.3 26.7 26.2 25.7 25.6 25.6 25.9 25.1 25.1 25.3 26 26.6 26.7 26.3 26.7 26.7 28.9 29.3 28.9 29.2 29.5 29.9 30.3 30.5 29.5 29.7 30 30.1 30.1 30.2 30.4 31.7 31.1 29.8 28.8 29.6 29.8 30.3 30.8 31.3 31.4 31 33.8 33.8 33.7 33.4 33.2 33 32.8 33 33.3 33.5 33.1 33.8 33.5 32.2 31.3 31 31.1 31.4 30.6 30.7 31.1 29.8 29.6 29.6 29.4 29.2 28.9 28.7 29 29.7 30.4 31.1 31.9 31.8 31.2 30.7 30.6 30.8 30.9 31.1 31.8 32.1 32.8 33.1 32.6 33.3 34.1 34.7 34.8 35 35.1 35.4 35.8 36.2 36.3 36.4 36.9 36.7 37.3 37.7 38.5 38.9 39.4 40 41.2 42.4 43.5 44.2 44.9 45.7 46.5 47.4 48.1 48.8 49.3 50.4 51.6 53 54 54.9 56.3 57.7 60.2 62.1
10.7 11.1 11.6 11.9 11.8 11.6 11.2 11.2 11.5 11.8 12 12.3 12.7 12.7 12.7 12.7 13 15.4 17.6 19.1 20.3 21 22.9 22.5 23.4 24.9 28.4 30.2 32 33 33.4 33.5 33.5 33.7 33.6 32.6 19.2 23.6 28.3 26.9 25.5 24 23.7 23.9 24.4 26.3 28.1 29.3 28.2 26.2 24.6 24 23.1 21.9 22.1 22.5 22.1 21.6 21.4 21.5 21.9 21.2 22.5 23.4 23.6 23.9 23.4 23.1 22.7 22.9 23.5 23.8 24.5 25.3 26.1 26.4 26 25.6 25.2 25.4 25.9 24.9 25.6 25.3 25.3 25.3 26.1 25.7 26.3 26.3 27.4 28.2 28.9 29.3 29.6 29.9 30.2 30.4 29.5 29.5 29.9 29.9 29.9 29.9 30 30.6 30 29.3 29.6 29.6 30.5 31 31.4 31.5 31.4 31 32.8 32.8 32.8 32.7 32.6 31.3 32 32.1 31.8 31.7 31.5 31.3 31 30.3 29.8 29.6 30.3 30.4 30.2 30.2 31.2 30.2 29.4 29.4 29.3 29.1 28.8 28.7 29.1 29.8 30.6 31.4 32.1 32 31.3 31.7 31.8 30.8 30.9 31.2 31.9 32.6 33.2 32.5 33.1 33.7 34.3 34.5 34.8 35.2 35.5 35.6 36 36.7 35.9 36.3 36.9 37 37.5 37.9 38.9 39.3 39.7 40.1 40.9 42.1 43.2 43.9 44.6 45.3 45.9 46.9 47.8 48.4 49.3 50.6 51.6 53 54.5 56.1 57.7 59.5 61.7 64
11.2 11.7 11.8 11.9 11.8 11.8 11.6 11.3 11.5 11.8 12 12.4 12.6 12.7 12.7 12.7 13.2 16.4 19.6 20.7 21.8 22.8 22.4 22.8 23.9 25.5 28.8 30.5 32.2 33.2 33.7 34 34.1 33.8 32.5 31.2 19.2 23.1 26.2 24.8 23.3 22.3 22.3 22.5 23.4 25 26.7 27.5 26.3 24.4 23.4 22.4 23.1 21.1 21.6 22.1 21.6 21 20.7 20.4 20.7 22.2 22.5 22.9 23.2 23.6 23.5 22.7 22.6 23.2 23.8 24 24.1 24.7 25.5 26 25.6 25.2 25 24.5 26.2 24.7 25.2 26 25.5 25.5 26.3 25.1 25.4 24.8 25.7 27.1 28.2 28.9 29.4 29.7 29.9 29.9 29.7 29.5 29.7 29.8 29.8 30 30.6 29.7 30.2 29.7 29.8 30.8 31 31.2 31.3 31.4 31.3 30.9 31.8 31.6 31.5 31.4 31.3 31.2 30.6 30.1 30 29.4 28.4 27.9 28 29.5 29.1 29.2 29.5 29.7 30.6 31.2 31.2 30.6 29.1 29.1 29.1 29 28.7 29 29.4 29.7 30.5 31.6 32.3 32.1 31.3 32.7 32.7 32 31.1 31.2 31.8 32.4 32.2 32.5 33.1 33.8 34 34 34.5 34.8 35.2 36 36.2 35.7 36.1 36.4 37 37.6 37.6 38.1 39.1 39.7 40.1 40.5 40.9 41.9 42.9 43.7 44.3 45 45.6 46.6 47.9 49 49.5 51 52.1 53.7 55.5 57.2 58.8 61.3 64.5 69.1
11.5 11.7 11.8 11.9 11.8 11.8 11.8 11.6 11.6 11.8 12.1 12.7 12.7 12.7 12.7 12.7 12.7 17.9 20.8 22 22.8 23.5 23.7 24.1 24.1 26.5 28.3 30.4 32.3 33.3 33.9 34.4 34.4 33.4 32.1 29.8 19.2 23.5 24.2 22.7 21.7 20.8 20.8 21.4 22.4 23.8 24.2 24.6 24.5 23.2 22.2 21.3 21.7 20.8 21.4 21.5 21.2 20.5 20.2 20 20.7 21.8 22.4 22.7 23 22.7 23 22.2 22.6 23.4 24 24.1 24.2 24.3 24.8 25.5 25.2 25 24.8 24.2 24.8 25.3 24.8 26 26.2 26.5 26.5 24.8 24.7 24.3 24.4 25.5 27.3 28.1 29 29.2 29.1 29.4 29.8 29.7 29.6 29.6 30 30.2 30.3 29.3 30.3 30.6 29.6 29.6 30.3 30.7 30.9 31.1 31.3 31.1 31.3 30.8 30.3 30.4 30.5 29.7 28.9 28.4 27.8 27.6 27.6 27.7 27.7 28.7 28.7 28.9 29 31.1 28.6 28.6 28.6 30.9 29.3 28.9 28.9 28.9 28.9 29.3 29.7 30 30.4 31.2 32.4 32.1 32.1 32.8 32.2 31.8 31.4 31.1 31.6 31.9 32.3 32.7 33.2 33.8 33.4 33.6 34.1 34.5 35.4 35.2 35.5 35.9 36.2 36.5 37 37.6 37.8 38.3 39.3 40.1 40.5 40.9 41.3 41.7 42.6 43.4 44.1 44.8 45.5 46.8 47.8 49.1 49.7 51.2 52.7 54.2 56 57.7 59.9 63.3 66.7 71
11.5 11.6 11.7 11.9 11.8 11.8 11.8 11.8 11.6 11.9 12.3 12.9 12.8 12.7 12.7 12.7 12.7 16.4 20.6 21.9 22.4 22.9 23.6 24.3 24.5 25.9 27.6 29.5 31.8 33.5 34.1 34.6 34.4 33 30.6 28.2 19.2 23.9 22.5 21.1 20.2 19.6 19.8 20.3 21.3 22.2 22.6 23 22.6 22.2 21 20.2 21.9 21.7 21.1 21.5 20.7 20 19.7 20.3 20.9 21.5 22 22.5 22.9 22.7 22.2 21.8 22.6 23.3 24 23.9 23.8 24 24.7 25.1 24.9 24.1 23.5 24.7 25.1 25.8 25.3 25.5 26.2 26.6 26.5 25.1 25.2 25.2 24.9 24.8 26.3 27 27.8 28.7 28.5 28.8 29.6 29.7 29.3 29.5 29.6 29.8 29.6 29.9 29.9 29.4 29.1 29.5 30 30 30.2 30.4 30.6 30.8 30.7 30.3 29.9 30 29.6 28.8 28 27.4 27.4 27.4 27.6 27.8 27.8 28.5 28.2 28.4 28.6 28.6 28.6 28.6 29 30.2 29.3 28.9 28.9 29 29.3 29.6 30 30.3 30.7 31 31.9 31.6 32.8 32.8 32.3 32.1 31.8 33.1 31.2 32.1 32.4 32.8 33.2 32.6 32.9 33.7 34.1 34.5 34.7 35.2 35.6 36 36.3 36.7 37.1 37.7 38.2 38.5 39.5 40.5 40.9 41.3 41.7 42.1 42.3 43.1 43.9 44.7 45.4 46.8 47.9 48.8 49.9 51.4 53 54.7 56.4 58.3 61.3 64.6 69.1 76.9
11.5 11.6 11.7 11.8 11.8 11.8 11.8 11.8 11.8 11.8 11.5 13 13 12.5 12.6 13.3 15.4 18.5 20.5 21.7 22.1 22.5 23 23.7 24.3 25.6 27 28.8 31.4 33.3 34.4 34.7 34 31.9 29.5 26.2 19 23.8 22.7 19.9 19.3 18.8 19.1 19.8 19.9 20.5 21.2 21 20.6 20.2 19.8 19 22.7 21.3 21.1 21.1 20.2 19.5 19.7 20.7 21.1 21.3 21.5 22.2 22.7 22.6 22.1 21.7 22.4 23 23.6 23.4 23.3 23.9 24.6 24.7 24.5 24.3 24.1 24 25.4 26.5 26.1 25.7 26 26.9 24.6 24.6 24.7 24.7 24.7 24.8 25.2 25.9 26.7 27.5 28.3 28.8 29.2 29.4 28.2 28.8 29.3 29.4 28.9 28.9 29.5 29.1 28.8 29.2 29.4 29.4 29.5 29.6 29.8 29.8 29.5 29.2 29.5 29.3 28.8 27.9 27.1 27 27.2 27.3 27.3 27.4 27.7 28.8 27.7 27.8 27.6 28.7 28.5 28.3 28.8 29.8 29.1 29.3 29.4 29.4 29.7 30 30.4 30.7 31.1 31.4 32.2 30.9 32.1 32.9 32.5 32.4 33.6 33 32.1 31.6 32.8 33.2 32.8 32.6 33.7 34.4 34.8 34.9 34.9 35.1 35.6 36 36.5 36.8 37.1 37.7 38.4 38.7 39.6 40.6 41.3 41.7 42.1 41.9 43.3 44.5 45 45.2 45.5 46.5 47.7 48.9 50.3 51.9 53.5 55.1 56.8 59.5 62.7 66.2 72.9 81.7
11.5 11.6 11.7 11.8 11.4 11.3 11.2 11.2 11.5 11.8 11.8 12.6 13.2 12.4 13.1 13.9 15.5 18.6 21 21.6 21.4 22 22.5 23.2 24.4 25.8 27.2 29.1 31.1 32.9 34.5 34.3 33.2 30.8 28 25.2 18.7 20.1 22.6 21.4 19.1 18.1 18.7 19.5 19.6 19.6 19.4 19.1 18.8 18.5 18.2 18.4 21.5 20.5 20.6 20.6 19.8 19 20 21 21.3 21.1 21.1 21.7 22 22.5 20.9 21.5 22.2 22.7 23.2 23 23.2 23.9 24.3 24.2 24.3 24.2 24 24.2 25.3 26.3 26.7 26.2 25.9 27 24 24.2 24.3 24.4 24.5 24.7 25.1 25.4 25.8 26.3 26.9 27.3 27.5 27 27.5 28.1 28.6 28.7 27.5 28.1 29.2 28.8 28.5 28.9 28.7 28.7 28.8 28.9 29.1 28.5 28.1 28.1 27.7 28.7 27.4 26.9 26.2 25.7 26.1 26.7 27 27.1 27 27.1 27.5 27.7 27.8 28.4 28.7 28.5 28.7 29.3 29.1 29.5 29.8 29.9 30.2 30.5 30.8 31.1 31.5 32.2 32.3 32.8 33.4 32.6 32.7 33.8 34.3 33.8 34 33.6 32.9 32.4 32.4 32.5 34 34.5 34.9 35 35 35.4 35.6 36 36.4 36.9 37.2 37.8 38.4 38.9 39.8 40.8 41.7 42.1 41.7 42.6 43.9 44.8 45.5 45.8 45.8 46.8 48 49.2 50.4 52.4 54 55.5 57.9 60.8 64.2 68.5 74.9 84.9
11.5 11.6 11.6 11.2 10.9 10.7 10.8 11.1 11.5 11.8 11.8 12.1 12.8 12.7 13.7 14.6 15.7 18.3 19.4 19.8 20.5 21.7 22.9 23.5 24.7 25.9 27.6 29.8 31.9 33.5 34.4 33.6 32.3 30 27.1 24.2 18.6 21.8 22.1 22 20.2 18.9 18.6 18.3 18.2 16.8 18.3 18 17.7 17.7 17.9 18 21.5 19.2 18.5 19.2 18.6 18.7 19.9 21.2 20.5 20.1 20.5 20.9 21.1 21.8 20.6 21.4 22.1 22.6 22.9 22.9 23.2 23.8 23.6 23.4 23.6 24 23.9 24.2 25.3 25.8 25.9 25 26.1 24.5 24.7 24.8 24.1 24.2 24.4 24.7 25.1 25.4 25.8 26.1 25.4 25.6 26 26.4 26.8 27.5 28.2 27.9 26.1 27.4 28.9 28.4 28.2 28.4 28 28 28.1 28.1 28 27.2 26.7 27 26.5 26.7 26 26 26.4 26.4 26.7 27.1 27.1 26.9 27 27.9 27.9 28.2 28.4 28.7 28.7 28.6 28.8 29.1 29.1 29.7 30.2 30.4 30.7 31 31.3 31.6 31.7 31.6 32.1 32.6 33.2 33.7 34.1 34.2 35.1 34.5 34.4 33.4 33 33 33.3 32.8 33.7 34.6 35 35.1 35.2 35.7 35.7 36.1 36.5 36.9 37.3 38.1 38.9 39.2 39.9 40.8 41.3 42.5 42.1 43.2 44.1 45.1 46 46.3 46.2 47.3 48.4 49.6 50.7 52.1 54.9 56.8 58.8 61.8 65.9 71.6 78.5 89.1
11.4 11.5 11.3 11.1 10.9 10.9 11 11.2 11.5 11.8 11.8 11.8 11.6 12.1 13 14.4 16.4 16.9 19.1 20.6 21.7 22.5 23.2 23.9 25.1 26.2 28.7 30.8 32.5 34 34 32.8 31.2 29.4 26.4 23.4 18.5 20.3 20.6 20 18.4 19 18.5 16.9 16.6 16.8 17.1 17.1 17.2 17.4 17.6 17.7 20.6 18 17.6 17.7 18.3 19 19.8 19.7 19.2 19.6 20 20.5 21.1 19.9 20.3 20.9 21.5 22.2 22.1 22.9 23.1 23.3 23 22.7 22.5 23 23.6 24.1 24.9 24.5 25.4 24.2 27.3 24.2 24.4 24.8 24.4 24.1 24.3 24.7 25 25.4 25.7 26.1 24.9 25.1 25.3 25.8 26.2 26.8 27.1 27.3 26.1 27.1 28.1 28.1 27.9 27.7 27.4 27.4 27.5 26.3 25.6 25.9 26 26.2 26.5 26.4 26.3 26.8 27.2 27.6 27.9 28.3 28.5 28.1 28 28.3 28.5 28.8 29.1 29.4 29.7 29.5 29.4 29.8 30 30.2 30.5 30.8 30.7 30.7 30.7 30.9 31.1 31.3 31.8 32.6 33 33.3 33.8 34.4 34.2 34.8 35 34.7 34.4 34 34.3 33.3 33.2 34.7 35.1 35.2 35.6 36.1 36.1 36.2 36.6 37 37.5 38.1 39 40.1 41.3 41.3 42.3 43 42.5 43.5 44.4 45.4 46.3 46.8 46.7 47.8 48.8 49.9 51 51.8 54.7 57.7 60.1 62.7 68 73.8 80.7 93.6
11.3 11.5 11.3 11.1 11 11.1 11.2 11.3 11.6 11.8 11.8 11.8 12.4 12.2 13.1 15.5 17.6 19.4 20.5 21.7 22.7 23.7 25.5 26.4 27.2 27.3 29.7 31.5 33.2 33.9 33.3 31.8 30.1 28.5 25.7 22.4 18 18.4 19.2 16.7 17.4 17.7 18.1 16.9 16.6 16.8 17.1 17.3 17.7 18 18.2 18.4 20 18.1 18.3 18.1 18.1 18.2 18.8 18.6 18.7 19.1 19.6 20 20.4 19.1 19.5 20.1 20.8 21.8 22.3 22.7 22.8 22.7 22.4 22.1 21.9 21.9 22.8 24 23.5 23.8 25.1 25.8 26.1 25.3 24.7 24.6 24.2 24 24.5 24.8 25.2 25.6 25.9 26 24.8 25.1 25.3 25.5 25.6 25.7 25.6 25.6 25.5 26.7 26.9 27.1 26.9 26.6 26.3 24.9 25.1 25.2 25.6 26 25.9 26.3 26.7 26.9 27.1 27.5 28 28.5 28.6 28.5 28.4 28.4 28.6 28.9 29.2 29.5 29.8 30 30.3 30.6 30.5 31.2 31.4 31.7 31.6 31.4 31.1 30.6 30.2 29.9 30 31.5 31.9 32.2 32.5 32.8 33.4 34.9 35.8 35.7 36.1 36 35.8 34.9 34.9 33.9 32.8 34.3 35.2 35.4 35.9 36.4 36.9 36.2 36.7 37.1 37.7 38.3 39.4 40.8 40.9 41.3 42.2 43.4 42.9 43.7 44.7 45.6 46.6 47.2 47.2 48.2 49.3 50.4 51.6 53 54.9 57.7 60.5 63.5 68.7 74.1 82 93
11.2 11.4 11.4 11.2 11.3 11.4 11.4 11.5 11.7 11.8 11.8 11.8 12 12.8 13.7 15.4 17.7 20 20.7 22 23.3 24.7 26.7 28.2 29 30.2 30.9 32.2 33.5 33.6 31.4 29.4 28.2 27.1 24.5 19.9 18 18.3 18 16.1 16.7 17.1 17.5 16.9 16.6 16.9 17.5 18.4 18.6 18.8 19 19.2 21.3 19.7 19.5 19.3 18.7 18.4 18.8 19.1 19 18.9 18.9 19.4 19.8 19.1 19.3 19.5 20 21.2 21.8 21.8 21.9 21.9 21.8 21.6 21.3 21.9 23 23.6 23.7 23.6 24.4 25 23 23.2 23.5 23.8 23.4 24 24.4 24.7 25.2 25.7 26.3 25.5 24.6 24.8 24.9 25.1 25.2 25.3 25.4 25.5 24.4 25.5 27 25.5 25 24.9 25.2 25.2 25.2 25.5 26.7 27.7 28.1 28.3 28 27.9 28.1 28.2 28.7 29.1 29.4 29.5 29.4 29.5 29.6 29.7 29.9 30.1 30.4 30.7 31 31.3 31.5 32.3 32.8 32.6 32.5 32.3 32.1 31.7 31.4 31.1 30.8 31.1 31.7 32 32.3 32.7 33.9 36 37.4 37.5 37.5 37.4 37.2 35.9 35.4 34.4 33.4 33.9 35.3 35.8 35.7 36.6 37 36.8 36.9 37.4 38.6 39.6 40.7 41.1 41 41.4 42.7 43.9 43.5 43.9 44.9 45.9 46.5 48.1 48 49.1 50 50.8 51.9 53.7 55.8 58.3 60.5 63.5 67.4 73.4 82.5 99.3
11.2 11.3 11.4 11.4 11.5 11.6 11.4 10.7 10.8 11.8 11.8 11.8 11.9 12.6 13.4 15.1 17.4 19.7 21.4 23.2 24.9 26.6 28.3 30 31 31.5 32.1 32.6 32.3 30.3 28.3 26.3 24.6 23.4 22.4 19.6 17.6 17.2 16.6 16 16.1 16.5 16.9 17.1 18.5 18.8 19.1 19.2 19.4 19.6 19.8 20 21.1 20.1 19.6 19.3 19 18.7 19.3 19.5 19.4 19.3 19.2 19.1 19.2 19.2 19.3 19.5 19.7 19.8 20.1 20.6 20.9 20.9 20.9 20.9 20.7 22.1 22.7 23.2 23.6 23.2 22.9 25.5 23.2 23.1 23.3 24 23.6 23.9 24.5 24.8 25.1 25.4 25.7 24.8 24.2 24.3 24.5 24.6 24.7 24.8 24.9 25 24.1 24.4 24.2 24.3 24.6 24.6 25.1 25.8 26.3 26.7 27.5 28.5 28.8 29 29.1 29.1 29 29.2 29.4 29.8 30.1 30.4 30.5 30.6 30.6 30.6 30.5 30.4 30.9 31.1 31.4 31.6 31.9 32.7 33.4 33.4 33.2 33.1 32.9 32.7 32.2 31.8 31.4 31.3 31.5 31.8 33.2 34.5 34.5 37 39 39.8 41.2 40.6 38.9 36.9 36 34.9 33.9 33.5 35.3 35.8 36.3 36.6 36.9 37.2 37.6 38.7 39.2 39.8 40.4 40.8 42.4 43.1 43.5 44.2 43.9 44.7 45.9 46.8 47.3 48.8 48.8 49.5 50.3 51.2 52.2 53.8 56.1 58.3 60.8 63.8 68.7 73.7 81.7 96.7
11.3 11.4 11.4 11.3 11.6 11.6 11.7 11.8 10.9 11.8 11.8 11.8 11.8 12.3 13.3 15.8 18.3 22.2 23.9 25.6 27.3 29.2 30 31.3 31.8 32.3 32.8 32.6 29.5 27.5 25.5 23.7 22 20.4 19.7 16.9 17.3 16.8 16.2 15.9 16 16.9 17.9 18.9 19 19.3 19.7 20.1 20.3 20.4 20.5 21.3 22.2 20.3 19.9 19.6 19.3 19 19.8 20 19.9 19.8 19.7 19.6 19.5 19.5 19.6 19.8 19.9 19.8 20.1 20.3 20.2 19.9 20.1 20.3 20.5 20.8 21.5 22.2 23 22.4 22.2 23.4 23.7 23.3 23.6 23.8 23.3 23.9 24.7 24.9 25.2 25.3 25.2 24.9 23.7 23.9 24 24.1 24.2 24.3 24.4 24 24.5 24.5 24.8 24.9 25 25.2 26 26.4 27.3 28 28.5 29.2 29.5 29.7 29.8 29.3 29.6 29.1 29.5 29.9 30.2 30.5 30.7 30.7 30.6 30.6 30.5 30.3 30.7 31.5 31.7 32 32.2 33 33.9 34.1 33.9 33.6 33.3 33.4 32.9 32.4 31.9 32 32.1 32.5 32.9 34.6 37.1 39.3 43.2 45.1 44.9 44 41.6 38.8 36 34.8 33.8 33.9 34.7 35.5 36.3 36.5 36.8 37.2 37.5 38.5 38.8 39.3 41 42.1 42.9 43.3 43.2 44.1 44.1 45 46.3 47.2 47.7 49.1 49.9 50.1 50.7 51.5 52.6 54.2 56.3 58.7 61.1 64.1 68.9 73.8 81.2 96.9
11.4 11.3 11.3 11.2 11.4 11.2 11 11 11.8 11.8 11.8 11.8 11.8 12.2 13.5 16.6 20.8 24.6 26.5 28.5 29.8 30.7 31.4 32.1 32.6 32.9 33.3 31.6 28.3 24.8 22.9 21.2 19.6 17.9 19 16.3 16.8 16.7 16.1 15.8 16.7 18 18.9 19.2 19.4 19.8 20 20.2 20.6 21 21.1 21.3 21.5 21.9 20.9 19.9 19.6 19.3 20.1 20.4 20.3 20.2 20.1 20 19.9 19.8 19.9 20.1 20.2 20.1 20 20.3 20 20.1 20.3 20.5 20.6 20.7 20.9 21.6 22.1 21.9 21.6 21.9 23.1 23 23.2 23.6 23 23.9 24 24.3 24.6 24.2 23.7 23.8 23.6 23.4 23.5 23.6 23.7 23.9 24 24.1 25 24.8 25.7 25.8 25.8 25.9 26.5 26.8 27.2 28.1 29 28.8 29.6 28.8 29.2 29.4 29.8 29.2 29.3 29.8 30.2 30.5 30.7 30.6 30.6 30.5 30.3 30.1 30.1 30.9 31.7 32.3 32.6 33.4 34.2 34.6 34.2 33.9 33.8 34 33.7 33.2 33.4 32.9 31.6 31.3 32.8 34.2 36.8 39.5 45.5 49.6 48.6 46.8 44.5 41 37.4 35.3 33.4 33.7 34.4 35.2 36.3 36.6 36.8 37.1 37.8 38.1 38.7 39.6 41.2 42.1 42.9 43 43 43.7 44.3 45.4 46.4 47.5 48.2 49.3 50.4 51.1 51.5 51.9 53 54.9 57.1 59.3 61.5 64.4 69.2 74.2 80.8 90.3
11.4 11.2 11.1 11.1 11 10.4 11.2 11 11.8 11.8 11.8 11.8 11.7 12 14.6 19.4 24.2 27.7 29.5 30.5 31.4 32.1 32.8 33.3 33.5 33.1 32.1 29.6 26.4 23.1 20.4 18.9 17.3 15.7 15.2 17.4 13.8 15.7 15.7 16 17 18.4 19.2 19.5 19.6 19.6 19.7 20.4 20.8 21.1 21.4 21.8 22.2 21.9 21.4 20.8 20.3 19.6 20.4 20.9 20.8 20.6 20.5 20.4 20.3 20.2 20.2 20.4 20.4 20.3 20.2 20.3 20.5 21 20.4 20.8 20.8 20.9 21.2 21.8 22.2 22.3 22.1 21.8 22.8 22.4 22 22 21.9 22.2 22.4 23.1 23.7 22.9 23.3 23.2 23.3 23.9 23.8 23.8 23.8 23.7 23.7 24.3 25.2 25.8 26.6 26.6 26.6 26.5 27 27.3 27.7 28 28.5 29.4 29 29.3 29.9 29.3 29.5 29.7 30.1 30.2 30.2 30.5 30.7 30.6 30.5 30.4 30.2 30 29.8 30.4 31.2 32 32.8 33.5 34.2 34.9 34.8 34.3 34.4 34.5 34.3 33.8 33.4 32.9 32.4 31.8 32.6 34 36.3 39 44.1 48.3 49.9 49.3 46.8 43.2 39.6 36.2 34 33.4 34.1 35 36.1 36.8 37 37.1 37.6 38.2 38.9 39.5 41 41.4 42.1 42.4 43.1 43.8 44.5 45.2 46.5 47.8 48.7 49.3 49.7 50.1 50.6 51.7 53.3 55.5 57.7 59.8 62 64.4 69.2 73.9 79.6 89
11.1 11.1 11 11 10.9 10.8 10.2 11.3 11.1 11.8 11.8 11.8 11.8 12.2 15 20 25.8 29.3 30.9 32 32.8 33.2 33.5 33.6 33.1 31.3 29.4 27.1 23.8 21.4 19.6 16.7 15.2 15.2 15.4 17.4 20.4 16.3 16.6 16.2 17.2 18.8 19.1 19.1 19.2 19.2 19.9 20.6 21 21.2 21.5 21.9 22.3 21.9 21.4 20.8 20.3 19.9 20.5 21.3 21.2 21.1 20.9 20.8 20.7 20.6 20.5 20.6 20.6 20.6 20.5 20.7 21.2 21.3 21.7 20.9 21 21.1 21.2 21.7 22.1 22.6 22.6 22.4 22.1 22 21.8 22.2 22.6 22.9 22.6 22.3 22.8 22.6 23.7 23.4 23.4 24.7 24.6 24.6 24.6 24.6 25 25.7 26.4 27.1 27.4 27.4 27.5 27.1 27.4 27.8 28.1 28.4 28.4 28.3 28.4 28.6 29.1 29.2 28.5 28.5 28.8 29.1 29.5 29.8 30.6 30.5 30.4 30.2 30 29.8 29.6 29.8 30.6 31.4 32.7 33.5 34.2 34.9 35.3 34.9 34.9 34.8 34.7 34.1 33.4 32.8 32.3 31.8 32.4 33.7 35.4 38.5 41.8 46.6 49 49.7 48.7 45.1 41 36.8 34.6 33.5 33.7 34.7 35.8 36.9 37.1 37.4 37.8 38.3 39 39.6 40.1 41.5 41.8 42.6 43.3 44 44.7 45.4 46.1 47.6 47 47.4 48.1 48.8 49.5 50.8 52.8 55 57.1 59.3 61.5 63.9 67.5 72.3 77.9 85.2
11 11 10.9 10.9 10.8 10.7 10.5 10.8 10.8 11.5 11.8 11.8 11.7 11.9 14.6 20.8 27.3 31 32.2 33 33.3 33.6 33.7 33.2 31 28.1 25.3 24.5 22.1 20.6 18.9 16.1 14.9 15.1 15.4 17.4 20.5 18.2 17.5 16.9 17.3 18.3 18.2 18.7 18.8 19.4 20.1 20.8 21.1 21.4 21.7 22 22.3 21.9 21.4 20.8 20.5 20.5 20.6 21.4 21.5 21.5 21.4 21.3 21.2 21 20.9 21.3 21.4 21.2 21.5 21.8 21.6 21.2 20.7 21.3 21.5 21.7 21.7 21.8 22 22.5 22.9 22.8 22 21.8 22 22.3 22.9 22.6 22.4 22.4 22.2 23.1 24.1 23.8 23.6 24.9 25.4 25.4 25.4 25.5 26.2 26.9 27.5 27.4 27.9 28.3 28.1 27.6 27.9 28 28.2 28.4 28.5 28.6 27.8 28.2 28.5 28.2 27.6 27.4 27.5 27.9 28.2 28.4 29.6 30.5 30.3 30.1 29.9 29.7 29.5 29.3 30.1 31.2 32.5 33.3 34.1 34.9 35.5 35.2 35.1 35 34.8 34.6 33.9 33.2 32.5 31.9 32.7 33.8 34.9 37.4 40.7 45 47.4 48.5 48.3 45.2 41.6 38.1 35.3 34 33.4 34.5 35.6 36.6 37.4 37.7 38.1 38.5 39.1 39.7 40.3 41.6 42 42.9 43.5 44.2 44.9 45.6 46.3 46.9 47.4 47.4 48 48.5 49.3 50.5 52.3 54.4 56.6 58.8 60.9 63.6 66.4 70.7 76 81.9
10.9 10.8 10.8 10.7 10.7 10.7 10.5 10.4 10.7 11 11.4 11.3 11.4 12.1 16 22.4 29.3 31.6 32.8 33.2 33.5 33.2 32.6 31 28.2 25.1 22.4 21.9 20.2 18.3 16.6 15.3 14.7 14.8 16.4 17.4 20.3 17.7 17.1 17.1 17.3 17.1 18.3 18.7 19 19.6 20.3 21 21.3 21.6 21.8 22.1 22.3 21.9 21.4 21.2 21.1 21 20.9 21.9 21.6 21.8 21.9 21.8 21.6 21.5 21.8 22.4 22 21.9 22.2 22.3 22.4 22.2 22 22 22.4 22.3 22.2 22.2 22.4 22.6 22.9 23.3 22.7 22.5 22.4 22.3 22.1 22.1 22.1 22.1 22.3 23.9 24.9 25 25 25.4 26.2 26.3 26.3 26.7 27.5 27.4 27.3 27.5 27.9 28.3 28.5 28.6 28.6 28.6 28.6 28.5 28.6 28.3 27.9 28.1 27.6 27.1 26.6 26.3 26.4 26.6 26.8 27.2 28.6 29.6 29.7 29.6 29.5 29.4 29.3 29.2 29.8 31.1 32.3 33.2 34.1 34.9 35.5 35.4 35.3 35.2 35 34.9 34.3 33.7 33 33 33.1 34.2 35.3 37.6 39.6 43.3 46.3 47.7 46.4 44.3 40.7 37.8 35.6 34.9 34.7 34.9 35.7 36.4 37.2 37.9 38.4 38.8 39.2 39.8 40.5 41.3 42.2 43.1 43.7 44.4 45.1 45.7 46.3 46.1 46.9 47.3 47.8 48.2 49.2 50.4 52.2 53.9 56.1 58.2 60.4 63.2 66 69.1 73.5 78.4
10.8 10.7 10.7 10.6 10.6 10.5 10.5 10.4 10.5 10.6 10.9 10.8 11.4 12.8 18 25.2 29.6 31.7 32.6 33.1 33.4 32.3 30.2 27.6 24.8 22.4 20.8 20.1 18.3 16.3 15.3 14.4 15.6 16.4 18.8 17.4 18.2 17 17.3 19.2 18.6 18.6 19 19.2 19.5 19.8 20.4 21.1 21.4 21.7 22 22.1 22.3 21.9 21.8 21.7 21.6 21.6 21.5 21.9 21.8 21.9 22.1 22.2 22.1 22.1 22.5 22.7 22.7 22.6 22.8 22.8 22.9 22.9 22.8 22.9 22.9 22.8 22.8 22.7 22.7 22.9 23.2 23.4 23.5 23.7 23.6 23.6 23.3 23.8 24.2 24.1 23.7 24.2 24.9 25.5 26.4 26.6 26.9 27.1 27.2 27.4 27.4 27.3 27.2 27.6 28 28.2 28.2 28.2 28.2 28.2 28.2 28.2 28.1 27.6 27.1 26.3 26 26 26.3 25.9 25.8 26.4 27.8 27 27.9 29 28.8 28.5 28.5 28.4 28.3 29 29.3 30.5 31.5 32.7 34.1 34.8 35.3 35.5 35.4 35.3 35.2 35.1 34.8 34.1 34.1 32.8 33.5 34.5 35.6 37.3 39.2 41.9 45.1 46.9 45.7 43 40.3 37.8 36.3 35.9 34.8 34.6 35.3 36.1 36.9 37.6 38.3 39 39.4 39.9 40.6 41.4 42.4 43.3 44 44.6 45.3 45.9 45.8 45.4 46.1 46.6 47 48 49.1 50.8 52.6 54.2 55.9 57.7 60.1 62.8 65.5 68.2 72.2 76.2
10.6 10.5 10.4 10.5 10.6 10.7 10.9 11.7 11.4 11.1 10.8 11 11.6 14.6 20.7 28 30.5 31.9 32.5 33 32.3 30.5 27.5 24.5 22.5 21 19.4 18.2 16.5 15.3 14.9 14.8 16 16.9 18 17.4 17 17.1 17 17.5 18.5 19.2 19.5 19.8 20 20.3 20.6 21.3 21.6 21.8 22 22.1 22.2 22.4 22.3 22.2 22.2 22.1 22 22 21.9 22 22.2 22.3 22.5 22.7 22.9 23.1 23.3 23.3 23.3 23.4 23.4 23.5 23.5 23.5 23.4 23.4 23.3 23.2 23.2 23.2 23.5 23.1 24 23.5 23.5 23.4 23.2 23.8 24.3 24.6 25 25 25.6 26.3 26.7 26.9 27.1 27.3 27.4 27.3 27.2 27.2 27.2 27.7 27.8 27.7 27.8 27.8 27.7 27.7 27.7 27.7 27.5 27 26.9 26.4 25.7 25.8 26.3 26.6 26 25.6 25.9 26.3 27.1 28.4 28.2 27.9 27.7 27.7 28.5 29.2 29.1 30 30.6 31.6 33.1 34.4 35 35.6 35.6 35.5 35.3 35.2 35.1 34.7 34.1 33.4 33.6 34.9 37.2 39.9 42.5 45 45.9 45.7 45.1 42.8 40.2 39.3 37.2 36.3 34.9 34.7 34.9 35.7 36.5 37.2 37.9 38.6 39.3 40 40.3 41.3 42.6 43.5 44.2 44.7 45.2 45.6 45.4 44.7 45.2 45.9 46.9 48 49 50.9 53.1 54.6 56.1 57.9 59.8 62.4 65 67.7 70.8 74.9
