ncols 200
nrows 85
xllcorner 150000
yllcorner 721250
cellsize 50
63.3 68.3 72 74.5 75.8 76.6 73.9 75.2 79.8 83 88.3 93.2 101.9 99.4 100.2 105.8 111.1 122.5 124.2 122.6 122.3 116.1 107.8 108.6 108 102.6 105.9 106.2 107 107.3 108.2 109.1 109.4 107.7 107.2 106.3 110.4 112.2 114.3 113.2 109.9 104.9 108.3 107.5 106.2 104.4 100.6 88.2 78.4 97.6 110.3 118.1 130.3 143.3 161.8 176.1 188.7 199.9 207.8 214.8 221.7 228.5 238.1 245.3 249.6 251.8 254.4 258.3 260.1 262.4 266.1 273.3 280.8 281.3 277.1 277.2 277.1 276.8 280.5 287.2 290.3 293.4 297.8 300 302.2 301.4 305.2 311.6 312.9 315.5 318.8 321.8 326.3 328.4 330.7 331.9 333.8 334.7 340.1 345.3 344.9 343.6 349.1 356.1 359.2 367.8 374.1 386.3 403.7 410.1 425.1 427.1 431.1 435.3 440.3 444.3 449.3 452.4 449.6 451.1 446.6 443.9 447.2 434.6 425.9 409.9 401.7 390.6 380.8 370.3 361 352.5 343.1 328.3 313.9 299.4 288.8 275 256.1 239.7 221.9 201 181.8 151.2 154.7 174.1 196.1 221.2 249.6 270.6 295.9 305.4 304.7 309.1 313.9 326.8 343.6 368.8 389.8 383 374 366.1 361 352.7 341.6 332.5 325.8 318.2 308.2 300.7 294.8 288.3 285.4 279.7 270.8 260.5 251.8 240.1 232.1 221.8 231.4 240.6 254 261.4 262.3 255.7 248.7 239.4 228.3 219 205.1 194 188.8 184.4 179.7 172.4 163.6 153.7 156.1 157.6
70.8 74.1 76.7 78.1 80 80.7 82.7 86.2 83 81.1 84.5 91.5 95.8 105.5 112.4 110.8 120.3 131.4 134.2 128.7 126.3 122.8 118.5 122.2 116.6 116.2 109.9 111.9 111.9 109.9 110.8 114.5 114.7 113.4 113.5 114.1 114.6 117.3 119.9 121.1 115.9 115.4 112.1 110.5 113.1 111.1 108.8 99.2 83.3 92.9 104.7 117.4 124.1 139.7 156 174.3 186.3 199.3 210.1 215.6 222.2 229.2 238.6 245.6 250.2 253.1 256.4 258.9 260.8 263.6 266.7 272.2 278.2 283.2 280.3 279.1 279.4 279.7 278.9 284.1 286.8 290.5 294.6 296.3 299.4 298.5 304.8 306.2 310.1 314.6 317.2 319.8 323.9 328.6 332.2 333 336.1 340.4 344.3 352.1 353.6 354.3 360.4 363.2 367.4 373.3 381.3 398.5 412.2 421.5 436.1 436.7 439.2 442.4 451.4 454.3 456.6 459.3 459.6 457.1 451.9 448 452.3 441.2 428.8 413.6 404.8 392.2 380.5 371.3 359.1 347.8 335.3 324.2 311.8 295.5 280 266.3 240.5 217.4 206.4 191 169.8 147.5 139 158.8 179 202.5 232.9 255.4 275.2 293.4 298.8 301.6 308.3 318 332.3 355 379.1 385.2 377.8 369.1 365.2 356.8 346.9 335.4 327.9 318.2 309.9 300.8 291.9 283.3 277.1 273.6 266.6 255.8 243.2 232.3 223.7 210.2 221.1 227.5 235.4 245.3 253.2 257 248.5 235 223.1 214.7 204.4 195.1 188.6 181.3 174.1 169.4 164.8 158.1 151.8 152.2
78.4 82.1 83.4 82.3 83.9 87 97.2 102.9 96.1 96 102.8 111.6 115.3 111.8 117.5 117 123.9 130.1 132.3 133.4 127.7 126.4 128.2 129.5 124.4 118.5 112.5 114.9 113.7 113.3 115.2 117 116.1 116.7 117.6 117.2 115.9 120.4 125 130.6 128.6 122.6 121.8 120.1 117.1 116.4 113.7 107.5 93.6 84.7 101.7 114.2 122 137.5 153.4 169.4 184 197.2 209.2 217.4 223.4 230 238.6 245.8 252.2 256.4 259 261.3 263.5 265.6 267.7 272.2 276.1 284 281.9 280.9 282.7 283.1 283.8 285.4 286.3 289.7 289.2 294.2 298.6 299.9 303.9 305.3 308.2 310.5 313.2 317.9 322.4 328.1 332.3 337.6 338.2 345.1 350.8 357.8 360.7 361.8 366.3 369.4 375 378.7 398.4 403.6 421 432 443.3 449.5 450 453.3 459.7 464.8 465.1 468.6 468.4 464.5 456.9 453.4 450.1 445.7 432 417.2 406.4 394.1 379.9 370.4 358.7 348.7 334.9 321.9 309 293.9 278.2 259.3 225 207 179.4 171.2 159 144.5 124.2 147.5 164.3 184.7 213.6 237.3 259.1 275.4 289.7 291 298.7 311.1 322.9 340.3 368.5 387.9 381 374.2 368.2 361.1 351.9 340.8 329.9 321.8 312.2 303.2 291.8 284.8 274.8 260 255.1 248.5 236.9 225.3 212.9 200.9 210 218 220.9 227.8 236.1 237.1 238 227 216.1 208.3 199.5 191.9 183.5 179.6 174.5 168 161.4 157.6 153.1 147.6
95 91.7 98.1 92.1 88 90.3 98.5 105.2 117.1 121.3 119.9 123.1 121.7 121.6 122.9 123.4 125.6 129 131.5 133.5 130.8 128.5 130.4 132.6 123.2 120.3 119 118.9 122.9 119.5 120.6 121.8 126.7 128.4 124.3 122 123.2 126.3 133.9 132.6 130.9 129.1 130.7 127.8 118.4 124 120.9 112.1 104.2 83.8 98 107.3 118.8 131.7 149.3 166.5 181.6 195.7 206.8 216.7 224.2 231.1 240 249.5 254.4 258.9 260.6 262.4 264.6 267.4 269.9 273.6 277.7 282.2 285.4 283.4 284.3 286.5 288 289.1 287 289.8 291.5 295.5 299.8 302.2 306.2 306.9 307.3 309.4 315.6 318.5 325.8 331 332.8 336.7 340.8 346.7 356 361.5 367.9 373 377.4 381.7 382.8 385.8 407 421.8 429.7 443.4 453.1 460.8 460.4 464.7 467 472.6 471.5 474.2 475.6 471.2 465.8 458.5 454.1 443.5 430.5 421.5 408.1 394.3 380.5 370.4 359.2 345.4 328.2 320 306.9 295.2 280.4 254.6 229.8 201.9 176.7 151.5 143.7 136.5 119.3 135.9 151.7 169.7 192.6 219.9 240 255.8 272.8 280.5 296.4 299.9 313.7 329.6 352.1 375 380.8 379.9 373.1 364.5 356.6 345.7 333.9 325.5 315.9 305.4 294.2 283.3 273 261.3 237 226.5 216.2 217.9 208.4 198 200 204.9 210 213.6 216.3 219.2 218.4 207.9 204.1 194.9 189.5 184.8 181.9 181.3 174.5 163.2 158.2 155.1 151.1 145.5
96.3 98.5 101.6 99 97.8 99.7 104.5 114.8 124 125 128.8 133.9 137 131.9 130.9 126.3 123.9 130.7 133.8 135.2 133.2 131.3 130.9 130.1 129.4 127.6 127.3 126.5 129.9 129.6 135.8 129.9 134 134.2 134.2 134.1 135.8 136.8 138.9 141.1 139.3 133.5 132.9 132.3 131.6 127.2 126.8 118 114 99.3 92.3 104.7 117.5 128.8 147.1 165.5 178.3 194.7 207.2 216.6 224.7 232.4 241.5 250.8 256 259.2 261.1 263.1 265.3 268.2 272.1 278 280.6 282.9 286.4 287.1 287.8 290.6 291.4 294.2 294.1 290.9 295.6 298.7 302.5 303.6 306.1 311 307.5 310.9 315.2 322.7 327.1 330.8 332.9 341.8 352.3 354.9 361.5 367 375.5 382.4 388.2 391.3 393.9 397.8 415.2 430.8 445.4 451.5 459.4 469.6 470.4 474.2 477.2 479.6 479.8 478.7 478.7 479.4 475.6 468.2 457.4 444.2 435.6 421.5 412.2 398.7 388.8 373.7 361.2 347.6 333.5 317.2 306.5 294.8 289.3 259.7 223.3 199.1 176.1 153.2 135.9 120.1 109 125.2 138.6 154.3 173.3 201.3 223.5 240.2 258 270.2 282.7 292.5 304.2 320 341.5 373 379 381.5 382.9 371.5 363.3 352.7 339.9 330.5 321.4 309.1 298.4 287.4 277.5 266.8 255 238.9 222.5 203 196.6 184.1 179.7 190.1 192.7 193.9 198.8 200.2 201.3 197.5 192.1 192.6 187.6 181.8 178.9 173.9 167.9 161.9 157.6 151.2 147.4 147.2
100.4 103.3 105.8 110.8 110.7 115.4 116.5 125.8 128.5 133.3 136.3 140.8 142 137.3 135.6 127.9 128 133 136.3 136.8 135.4 133.3 137.8 139.3 138.8 139.9 142.6 140.7 140.7 145.4 143.9 144.8 147.6 146.6 149.3 146.8 144.5 140.1 141.1 143 143.2 140.5 135.6 137 137.1 132.1 131.1 124.7 119 110 94.9 103.2 116.1 128.9 145.4 163.7 175.6 190.1 206.6 217.1 224.9 230.4 238.9 249.1 256.4 259.4 261.4 263.3 265.6 270.2 274.9 279.7 285 286 287.5 288.7 289.9 292.4 295.6 299.8 297.3 294.2 297.2 300.4 303.6 305.9 307.1 315.5 310.9 313.9 317.7 323.2 328.8 332.2 336.7 348.2 359.8 364.3 368.7 375.3 386.1 393.2 395.6 403.9 405.9 409.1 428.2 439.6 448.1 464.3 469 473.4 478.3 480.9 484.1 486.6 487.5 482.2 484.6 484.2 479.7 477 463.6 448.6 441.6 424.7 413.5 405.7 393.8 379.6 365.5 356 345.5 327.6 311.3 300.6 300 268.9 234 206.8 180.3 157.8 139.4 121.3 105.4 109.9 127.1 140.5 156.5 178.6 205.1 224.9 245.1 260.2 268.3 286 296.2 312.4 338.4 361.4 379.4 385.8 385.5 383.2 377.8 365 350.3 337.2 328.4 313.7 303.6 291.9 279 268 256.4 238.3 221.6 206 183.7 183.1 168.8 176.8 183.5 187.9 190.2 196.3 198.6 197.8 193.1 186 188.6 175 166 164.7 161.5 154.9 146.7 146.4 142.5 134.1
109.9 115.6 119.3 121.9 120.4 121.2 125.4 132.2 137.1 142.2 146.5 143.4 142.1 139.3 138 133 134.3 133.3 137.5 140 138.3 141.2 142 142.9 143.8 144.9 149.7 152.7 151.9 152.5 153.6 155.4 162.2 165.6 166 164.9 160.1 151.6 145.2 145.1 144.5 145 147.4 143.8 141.8 137.4 135.2 131.9 123.9 115.4 103.4 103.4 115.9 128.4 140.4 157.3 172.7 187.8 201.1 212 223.7 228.5 239.1 246.8 254 257.8 260.4 262.7 266 270.8 275.6 280.5 287.3 289 289.7 291.1 292.9 296.7 300.3 302.4 303.1 300.9 299.1 301.2 304.1 306.6 308.5 313.5 316.3 316.2 318.4 322.9 329.9 334.5 340.9 358 367.5 371.6 377.2 386.4 398 403.6 405.9 413.5 415.6 422.9 434.4 441.7 457.1 467.5 474.8 477 483.9 486.8 489.9 489.5 490.4 484.6 489.6 488.9 486.2 479.8 468.6 451.8 448.1 429.9 416.3 407 397.1 384 368.4 359.2 355.8 341.1 323.3 312.5 302.4 273.9 243.3 214.9 187.5 163.9 144.4 128.1 113.1 97.7 114.9 130.4 143.2 159 184.8 211.3 230.9 248.3 258.1 271.1 286.9 305.6 324.7 358.6 372 393.9 396 388 386 380.9 373 354.5 338.6 324.3 311.8 299.1 284.4 272.9 261.1 241.4 222.8 205.8 190.5 176.2 156.9 166.8 171.4 181.1 180 180.2 183.1 188.4 181.1 172.5 173.8 170.3 151.5 152.6 155.7 148.6 144.8 138 135.8 127.5
120.4 122.6 124.5 121.1 121.8 129.2 135.1 140.1 144 150.1 149.7 148.4 149.7 145.3 145.8 144.3 139 136.2 143.9 146.8 144.6 146.4 147.7 147.2 151.9 154.5 153.9 157.1 158.2 159.6 161.2 162.7 164.8 168.9 171.9 169.4 166 161.7 163.4 159.2 154.2 150 151 150.2 145.2 141.5 139.5 137.3 128.5 121.5 107.8 103.3 116.6 128.4 140.2 152.4 169.5 185.6 198.3 209.8 220.7 227 234.5 241.5 247.4 253 258 261.6 265.4 270.6 275.3 279.8 290 291.9 292 293.2 294.3 295.5 302.7 302.8 305.4 305 302.3 303 305.7 308.1 309.1 313.1 317.1 311.9 319.8 323.5 329 337 347.4 365 372.5 374.8 381.6 394.4 407.7 412.6 416.4 422.1 426.6 435.1 444.2 450.9 461.5 469.8 476.3 482.7 490.9 489.5 492.1 489 489.9 487.4 494 500.1 492.1 484 473.8 464.3 444 437 416.9 408.8 399.4 382.2 370.3 358.3 351.5 344.1 331.1 319.1 300.9 282.6 252 220.3 190.3 165.1 148.6 129.1 116.4 105.2 106.2 115.6 125.8 145.7 167.3 193.4 215.6 231.8 248.5 261.6 275.2 293.2 310.7 338.8 362.2 389.4 396.2 395.5 393.9 390.6 381.1 373.9 360 335.9 316.6 302.2 287.6 275 255.2 240.2 227.7 205.7 188.4 174.9 151.7 159.4 163.1 165.9 170.3 167 163.4 167.6 159.5 155.6 149.2 140.9 133.3 134.4 132.8 132.7 132.5 125 116.8 112.7
115.3 121.9 124.3 123.7 127.9 133.9 138 141.7 149.5 152.8 152.5 153.1 155.4 154.2 151.8 148.9 147.7 143.3 151 151.3 153 153.6 155.6 158.9 162.5 166.5 167.8 170.9 165.6 163.6 165.6 168.1 171.4 175.6 178.2 178.1 174.3 164.6 164.8 165.4 164 160 152.5 155.9 150.3 146.2 143.6 141.9 134.7 124.3 114.1 99.9 112.6 125.6 136.6 148.2 164.1 180.3 193.8 207.1 217.6 225.3 228.6 235 243 250 255.1 259.9 264.5 269.4 274.1 279.9 285.3 289.5 292.9 294.3 295.4 298.4 302.4 304.9 305.3 306.3 304.3 304.6 306.1 307.8 309.3 313.1 317.6 313.8 318.4 324.6 329.3 338 353.2 363.9 372.6 378.3 386.7 400.3 415.4 423.8 423.8 429.7 438.8 442.7 450 456.2 464.6 471 476.9 480.7 490.4 495.7 492.9 488.4 488.6 492.9 489 493.7 499.9 490.4 477.7 464.7 449.5 430.2 417.7 404.1 392.9 382.7 371 360.3 353.6 344 331.7 317.1 302.9 285.5 263.1 226.9 203.8 176.4 151.1 134.3 117.7 105.3 96.7 106.4 120.6 134.9 152.9 173.6 197.9 221 240.8 257.1 265.8 282 297 320.5 353.2 384.2 400.6 400.5 402.7 395.1 387.5 379 365.2 351.8 322.9 316.7 297.1 271.4 252 239.7 227.7 209 190.2 176.8 158.7 152.4 152.6 157.3 159.8 151.2 150.5 151.7 149.2 142.6 131.2 121.9 113.6 108.8 105.8 103.3 107.1 97.4 91.2 81.9
122.9 124.3 126.9 128.6 135.7 140.7 144.9 152.8 158.2 156.2 155.4 157.4 158.3 157.9 158.4 156.8 154.8 150.1 154.5 158.7 163.3 166.8 166.5 170.3 170.7 172.6 173.7 174.5 173.5 175.3 175.4 176.6 182.8 186.8 186.5 189.2 187.5 183.5 179.8 173 170.2 168.8 167 163.6 157.9 153 149.8 147.1 137.6 128.1 119.5 107.3 105.6 121.4 136 147 161.5 178.9 190.2 203 214.3 223.6 225.7 233.6 240.7 247.3 252.5 257.5 262.5 266.7 272 277 281.1 285.8 291.7 295.3 297.6 300.3 303 304.6 304.9 304.7 305.2 304.6 305.8 307.1 308.8 310.6 317.1 317.3 317.4 325.3 332.2 337.3 355.6 366.5 374.9 381.7 390.9 403.1 421.5 433.3 433.3 435.6 444.5 448.2 454.5 460.2 465.6 472.7 479.6 482.7 491.3 496.7 492.4 487 484.6 488 485.2 494 499 493.3 478.5 465.7 454.2 438.3 417 406.8 392.1 380.8 371.9 363.4 358.7 348.1 331.6 320.1 306.3 287.6 272.2 248.9 221.5 187.2 156.5 133.6 117.3 104.6 93.5 101.3 109.5 122.2 136.1 154.3 179.3 206.2 232.5 250.3 258.2 272.2 284.8 302.7 329.2 361.3 399.7 410.2 408.9 413.1 408 397.8 381.2 358.9 330.4 318.1 291.5 271.8 258.6 244.9 233.9 214.4 192 173.4 154 143.5 145 148 141.3 133.3 132 134.1 133.3 127.3 118 108.1 91.5 87.7 84 72.1 69.7 67.6 60.2 55.4
123.4 133.8 129.9 136.2 144 148.2 154.8 166 175.9 167.4 161.5 162.3 164.3 164.4 164.3 165.7 162.5 156.1 159.1 167.2 170.6 171.2 173.8 175.3 175.6 177 178.1 178.9 180.6 183.1 183.1 194.4 191.7 195.5 197.8 197.5 199.5 197.2 194.7 188.9 174.7 172.3 170.1 168.5 165.4 160.9 155 151.5 143.4 131.4 123 110.4 105.2 117.7 131.8 144.1 157.6 173.5 188.1 196.8 209 214.4 220.3 227.3 235.1 242.9 248.3 255.9 261.4 264.4 268.2 272.6 277.9 282.6 286.8 290.9 295.1 299.1 303.5 305.6 304.8 304.9 304.1 304.5 305.4 307.1 309.1 310.5 315.4 322.1 318.7 328.2 333.7 343.9 355.4 366.2 377.5 384.9 392.9 401.6 418.8 439.9 439.8 440.5 447.8 450.9 457.2 461.2 465.7 469 476.3 487 488.7 490.4 488.8 483.5 481.1 482.5 481 494.1 492.8 491.1 477.3 464.2 451.2 438 421.8 406 392.9 382.9 372.3 365.9 355.7 349.1 332.7 320 309.9 292.7 280 260.6 234.7 192.9 162.5 137.4 119.4 102.6 93.8 91.9 102.2 112.4 125.1 141.2 162.7 189.9 216.9 240.4 253.6 261.7 271.5 286.2 307.1 332.8 359.6 399.3 417.5 421.9 411.6 404.5 394.3 368.1 341 319.1 291.1 269.7 256.7 247.8 238.4 217.3 195.1 174.1 151.5 129.9 129 129.9 125.1 118.8 115.5 118 121.9 113.2 105 93.4 77.3 70.5 70 68.1 58.5 53.8 51.8 45.1
119.9 132.7 133.6 137.6 144.5 155 160.5 171.4 173.3 168.3 166.2 168 168.9 170.2 170.8 170.7 173.2 161.3 168.2 172.5 175.5 177.6 176.8 177.9 182 182.2 189 194.3 200.3 201.9 197.4 197.4 197.7 205.6 206.8 209.6 205.3 200.7 200.8 199.3 189.1 177.2 175.4 175.7 170.4 168.6 158.7 156.1 150.4 143.3 123.9 114 104.4 116.9 125.9 140.5 154.9 170.4 181.6 191.3 203.3 211.2 216.8 220.8 229.6 237.6 243.3 248.1 255.4 262.5 264.8 268.8 274.8 278.5 282.1 285.5 290.9 295.8 301.7 305 305.1 304 303.6 302.6 304.7 306.1 309.2 311.1 313.1 321.3 321 327.1 334.3 344.6 356.6 365.5 376.3 388.4 395.2 402.7 416.6 439.6 443.1 446.1 451.6 453.8 457.7 460.5 465.4 467.7 468.3 479.4 482.8 491.1 484.7 479.2 476.4 479.4 474.8 482.4 486.5 487 475.2 458 449.8 440.6 421.4 406.8 393.5 384.3 371.7 362.1 353.6 344.5 335.9 321.3 311.5 301.2 284.5 266.6 229.1 196.5 164.8 144.4 122.6 105 91.4 84.7 93.8 103.9 114.6 128.6 146.4 171.3 203.6 227 241.8 250.4 259.4 273.7 292.7 310.3 333.8 357.1 383.5 427.1 426.2 419.3 398.7 380.1 347.9 312.4 290.6 271.7 261.6 246.1 227.7 214.6 197.3 170 152.8 123 104.9 113.8 110.8 107.3 103.1 106 106.6 101.5 89.4 79.6 68.4 59.6 51.3 43.3 44.5 43.4 29.1 28.3
116.4 131.2 136.8 139.2 146.3 153.2 160.5 175.8 179.6 174.6 174.8 174.7 175.5 173.5 175.8 177.5 172.4 169.2 179.5 176.4 182.1 180.8 182.3 188.1 193.5 197.8 198.7 213.2 223.7 223.4 219.7 216.9 217.5 218.4 221.5 229.8 222.5 208.2 206.2 204 201.2 185.9 185 179.6 175.2 173 167.1 159.9 154.1 147.5 130.7 119 107.7 114.8 121.1 135.1 150.3 164.8 176.5 185.7 198 205.6 212.5 217.2 224.5 231.8 236.9 241.9 247.8 255 258.1 261.9 267.2 272.4 278.2 281.7 284.7 287.7 294.8 299.7 303.5 302.2 303.3 304.6 305.2 305.7 308.7 311.9 314.5 317.6 327.8 326 332.9 343.2 356.7 365.8 373.2 387.6 396.3 405.1 415.3 431.4 443.7 444.7 450.1 452.5 455.4 457.2 461.1 465.5 465.2 471 484.1 483.6 481.4 477.9 471.9 470.8 471.7 475 476.3 482.4 469 451.8 444.3 439.3 419.1 400.7 391.3 384.6 372.1 357 349.5 345.4 338.3 326.8 312.2 301 288.4 268.2 237.8 201.6 174.3 146.4 124.4 104.6 92.3 82.3 87.3 97.4 103.8 117.8 130.1 151.4 185 213 231.8 238.8 250.7 263.5 280.2 299 316 336.9 355.5 382.4 425.2 432.7 417.1 392.8 357.5 316.1 293.6 278.7 263.6 248.8 231 211.7 195.2 179.7 151.8 123.5 101.2 100.8 97.9 94.7 93.6 95.4 93.8 88.4 77.4 63.7 50.8 46.6 43.6 34.2 33.5 30.1 25 24.5
123.4 135.3 138.3 141.5 146.8 153 161.4 175.1 184.5 176.2 174.9 176.5 176.8 177.6 178.9 181.4 180.7 176.7 182.1 183 185.1 187.8 195.3 204.4 212.1 218.8 218.6 226 228 231.6 233.4 226.3 221.3 222.5 225 233.8 229.2 220.8 211 207.3 205.7 203.8 198.3 190.6 178.8 176.6 177 164.6 157.2 150.7 139.3 121.7 110.5 112.4 119.9 130.8 146.1 160.7 172.1 180.8 194.4 202.9 208.6 213 219.2 224.9 230.4 235.7 242.8 249 252.1 256.9 262.6 267.7 272.3 276.2 280.1 282.2 285.2 291.6 295.1 302 304.7 305.8 307.5 309.3 312.7 315.1 318.3 321.4 326.9 332.7 335.2 347.9 356.6 365.3 377.7 386.2 398.8 405.1 410.3 423.6 430.9 439.4 443.9 451.3 451.8 453.3 454.5 460 459.7 461.4 475.5 483.7 477.9 470.2 465.9 461.7 465.2 463.8 463 472.4 465.2 449.9 439.5 428.8 417.8 402.4 393.4 379.8 370.7 353.5 340.5 335.4 337.8 319.7 311.5 302.6 286.8 269.9 239.6 208.2 179.4 150.6 124.2 105.5 91.5 81.8 82 85.7 96.4 107.6 121 135.8 160.9 191 218.2 233.2 242.6 253.6 268.6 287.2 301.9 320.3 338.2 355.7 379.6 421.7 415.6 384.2 357.3 317.9 301.8 284.4 266.4 250.2 231.2 221.1 208.3 185.9 152.9 126.3 104 83.2 86.5 84.2 83.4 83.9 79.8 75 68.7 54.7 43.1 30.6 28.9 24.9 23.4 23.3 19.3 15.8
125.9 133.7 136.5 143.3 150.9 154.8 159.9 171.3 177.9 173.5 174.4 176.7 177 178.7 180.7 182.8 183.1 181.4 183.7 188.3 197.7 201 205.5 214.2 217.5 226.5 229.7 228.9 231.6 238.2 231.1 228.7 224.3 224.9 226.8 232.7 232.6 227 227.4 218.2 211.5 210.4 212.2 211.1 194.7 182.5 180.8 172.1 160.6 152.2 140.8 127.3 114.1 110.6 118.8 128.5 143.1 156.8 167.4 178.4 188.1 196.7 203.9 208 213.3 220.2 224.6 228.5 232.6 240 245.8 251.1 257 261.1 264.4 268.1 271.7 273.3 282 288.5 295.9 300.8 306 308.3 310.6 314.3 316.5 317.5 322.4 324 334.7 340.3 342.6 348.8 357.5 364.1 376.8 388.3 394.9 404.1 408.7 418.9 426 431.9 436.7 443.6 447.1 450.4 448.9 451.9 455.6 457.6 467.9 477.9 471.5 463.9 460.9 453 455.1 458.4 461.1 460 455.5 443.9 432 420.4 409.9 402.1 388.7 375.7 363.2 354.8 340.5 330.9 317.9 313.2 303.1 296.5 283.6 267.4 242 208.9 179.5 150.3 124.2 105.4 90.5 82.1 76.1 74.9 86.2 95.4 109.4 123.4 142.4 168 197.1 222.4 234.4 245.7 259.1 274.9 291.7 305.6 321.9 335.4 352.2 367.2 376.8 361.8 342.8 323 307.4 288.2 274.6 255 243 236.3 204.8 179.5 153.4 124.4 100.2 82.8 68.4 76.3 73 73.8 73.3 67.6 54.1 44.1 32.9 21.9 16.5 10.6 11.2 9 9 6
126.7 131.5 135.3 147.6 153.9 156.6 160.7 162.4 168.3 169.5 174.6 174.6 174.8 176.5 180.2 183.8 186.4 187.3 186.2 197.3 205.3 205.9 210.2 215.2 221.3 226.5 231.7 233.6 233.3 233.4 231.3 227.4 223.7 223.5 224.5 234 235.4 231.5 230.1 227.9 217.9 214.6 214.6 214 207.9 193.3 182.8 178.9 166.5 159.4 146.4 131.5 121.3 111 117.3 126 139.6 149.4 161.5 175.4 183.1 191.3 198.6 202.5 207.3 213.3 218.7 222.6 225.9 232.7 238.5 242.9 249.5 252.9 255.3 258.7 263.1 271 284.9 291.3 296 300.5 306.1 309.6 313.2 319 321.8 322.9 329.6 327.3 340.2 344.9 348.5 350.1 355 364.9 374.2 385.7 394.8 403.4 408.7 415.3 422 424.7 432.5 434.6 443.4 443.8 443.3 445 447.9 447.5 460.2 467 464.9 457.2 454.5 447.1 449.4 448.9 453.9 452.3 442.8 437.9 425.3 414.7 407.9 397.4 378.9 369.5 362.6 347.7 341.4 329.5 318.6 307.1 294.5 288.2 283.5 266.7 241.2 219.4 189.2 153.3 126 101 89.5 80.8 77.4 73.2 78.2 90.7 99.8 109.5 125.6 146.5 170.1 200.2 220.4 237.3 250.9 264.5 278.6 292.1 302.6 316.9 339.7 347 348.7 343.1 335.7 330.5 324 307.3 285.7 267.7 258.7 236.8 207.6 181.2 142.5 114.8 91.4 77 68.9 62.1 59.7 59.8 55.1 52.5 47.1 37.4 24.2 10 5.7 5.8 3.1 2.9 2.5 2.5
123.1 128.1 135.6 145.4 151.4 156.5 161.5 160.6 161 164.4 170.2 171.4 172.8 177.6 179.3 180.9 185.6 187.9 191.9 200.4 209.5 209.4 211.7 221.3 229.3 231.9 235.3 237.6 240 239.9 239.4 238.4 230.9 226.8 227.8 232.7 235.2 234.1 230.8 228 225.1 217 216.4 216.8 210.7 199 190.1 180.5 172.1 166.4 156.9 138.1 125.4 116.5 112.8 121.2 133 143.5 155.2 166.8 175.4 184.4 189.1 194.9 201.2 206.6 212.1 218.5 221.9 226.7 231.4 235.5 241.1 242.5 252.1 256.7 262.8 272.6 283.6 293.8 299.3 303.9 309.5 311.9 315.7 323.4 327 331.7 333.9 333.6 343.5 349.1 351.9 356 358.2 367.7 376.3 386.7 395.3 400.3 406.1 409.9 418.6 422.1 425.5 427.4 438.2 438.3 436 438.7 443 443 450.9 461 456.2 450.2 445.4 439.1 435.3 437 437 438.5 435.8 430.8 418.5 410 399.4 381.5 373.5 364.2 356.9 345.4 338.3 331 322.2 310.2 300.8 291.3 284.6 274.7 258.2 229.9 188 152.8 126.6 106.1 89.5 82.2 74.5 72.1 71.4 80.4 90.3 100.4 111.4 126.3 146.7 170.7 195.3 216.8 236.2 255.7 266.5 279.3 288.6 298.3 312.6 325.4 345.6 348.7 340.8 336.8 331 310.7 283.8 276.6 255.4 238.9 209 160 127.1 104.3 83.9 72.3 65.9 57.7 56.8 50.5 47 45 40.3 32.5 11.5 5.4 1.9 1.4 0.3 -1.3 -1.3 -1.3
123.6 127.7 135.1 144.3 147.4 149.6 154.8 158.2 158.8 160.6 167.2 170.4 172.9 176.9 177.5 180.9 186.7 189.1 193.6 203.1 206.6 209.2 214.3 221.5 227.5 230.7 235.1 236.8 242 241.7 241.5 241.1 238.7 234.4 236.9 239.2 242.3 237.3 232.3 228.2 227.7 225.5 214.4 214 214.4 207.4 198.8 186.1 179.7 171.5 163.7 149.9 132.9 122 113.2 118.5 127.8 132.9 143.2 153.8 166.8 177.1 182.3 189 195.4 200.9 206.6 212 216.5 220.6 224.6 228.6 231.2 241.8 251 258.1 263.2 272.5 281.8 294.5 301.7 307.2 312.1 315.6 319.1 323.2 328.5 338.1 339.3 341.2 347 351.9 355.2 362 366.2 365.9 378.2 387.3 394.4 399.5 400.7 402.9 410.6 415.6 416.6 420.2 427.7 432.4 429.9 434.2 437.2 433.6 444.1 450.8 446.2 441 438.2 430.8 426.3 420.2 416.8 416.7 424 421.1 410.4 397.7 386.6 376.3 367.4 357 347.2 344.3 337.1 329.2 322.9 312.1 300.6 288.8 284.1 276.4 262 238 196.1 161.3 131.6 109.6 91.1 79.5 72.4 70.5 66.2 72.1 79.6 90.9 100 111.4 125.7 145.5 167.4 195.4 214.4 235 254.6 265 275.7 289.5 295.6 299.3 307.5 322.2 333.1 323.3 319.4 299.3 274.7 259 244.1 204 173.8 137.4 113.6 96.3 73.9 67.2 65.5 56.8 50.9 47.4 46 47.1 37.9 28.5 9.8 2.3 -1.3 -1.3 -1.3 -1.3 -1.3 -1.3
118.3 124.9 134 143 144.3 145.9 147.8 149.4 153.8 158.5 165.5 170.9 173.1 182.4 184.9 182.5 189 189.7 195.4 203 208.1 219.3 223 230.9 235.7 236.6 239.2 236.6 239.9 243.6 241.5 241.6 243.4 242.3 244 243.7 245.8 242.6 241.9 237.8 236.2 228.9 216.5 216.2 216.6 211.9 202.9 190.4 186.2 174.9 166.5 158.5 140.1 127.4 117.5 113.5 122.5 125.4 131 143.1 156 165 177.1 182.6 189.2 194.3 199.6 203.3 207.7 209.9 213.4 220 229.7 239.2 250.2 257.9 263.7 273.3 283.2 288.7 298.6 307.4 312.6 319.4 323.2 325.2 330.9 341.8 344.6 345 348.5 354.5 362.1 364.5 370 372.7 376.6 388.9 392.9 397 399.1 400.4 404.2 407.4 408.5 415.1 416 422.6 424.7 426.9 429 429.5 435.8 439.7 438.8 433.9 426.8 420.6 418.4 415.9 403.8 412.7 410.3 410.9 401.5 389.5 380.5 370 361.2 351.4 344.1 335.7 335.8 328.9 318.5 313.2 301.7 289.5 282.2 275.6 266.8 247.6 209.1 173.2 137.7 110.1 94.8 80.1 72.9 68.2 67.8 66.4 73.6 77.7 88.4 96.6 107.6 122.7 141.3 165.3 190.9 211 231.9 252.2 263.5 273.3 278.1 283.2 285.9 293.6 304.7 302.5 283.9 257.9 231.5 211.9 194.5 175.6 148.9 124.4 106.2 88.9 69.8 64.5 60.2 52.6 46 44.9 47.1 50.3 40.2 30.9 10.9 4 -1.3 -1.3 -1.3 -1.3 -1.3 -1.3
123.2 126.1 126.6 137.1 143.9 141.8 145 148.4 150.9 155.7 160.6 167.8 173.4 181.6 188.3 189.3 187.5 190.6 200.9 210.6 226.5 229.8 235.6 237.5 238.8 240 235.7 235.1 238.4 239 240 243.4 243.3 241.8 241.8 244.2 244.6 244.6 243.5 243.1 240.2 234.4 225.7 219 219.7 214.7 204.9 194.7 189.5 180.7 170.9 163.1 152.8 140.1 127.9 123.8 121.9 119.9 126.5 133.5 147.2 156.7 163.3 171.8 180.9 186 188.5 193.7 199.4 204.8 207.1 219.6 225.4 237.2 248 257.3 264.1 272.3 279.4 284.9 292.7 304.6 311.7 318.1 324.9 328.6 334.7 342.4 347.4 348.3 350.6 360.9 365.1 366.1 371.5 373.5 375.3 387.5 391.7 393 396.5 398.2 400 401.7 403.4 406.6 407.6 412.8 417.7 421.7 420.5 424.2 426.5 432.2 429.8 424.7 419.7 412.7 409.2 405.6 399.9 396.4 402.2 397.3 390.5 383.7 374.8 364.9 357.6 350.9 343.7 338.8 328.8 320.3 318.5 311.8 301.2 290.4 283.2 276.5 267.5 251 226 179.2 153.5 125.6 105 89.1 75.9 68.9 66.4 63.5 64.9 70.2 73.6 84 92 103.5 118.5 136.5 160.3 183.1 206.4 225.6 245.6 260.1 264.1 263.7 265.7 266.5 272.2 269.3 248.8 227.6 208.1 192.1 172.9 157.4 138.2 117.7 98.7 82.9 65.8 62 53.6 48.7 42 41.4 44.5 43.9 32.1 19.5 9 4.9 -1.3 -1.3 -1.3 -1.3 -1.3 -1.3
124.5 127.7 127.7 130.7 135 139.3 143.2 147.3 150.7 154.8 156.8 162.1 164.3 169.2 176.3 185.6 186.9 190.2 206.3 220.4 229.4 232.3 231.6 227.8 227.8 227.4 228.8 232.5 233.8 235.6 237.4 242.2 245 242.8 241.8 245 246.2 246.3 246.1 245 244.2 235 228.9 225.6 223.2 219.2 209.6 198.8 190.8 184.1 177.9 168.7 163.6 153.4 142 137.6 134 122.8 124.8 130.9 141 151.2 154.9 161.1 169.4 174.3 179.6 184.6 188.1 199.7 209.6 216.4 223.7 233.9 242.6 251.8 258.6 266.3 274.4 280.7 286.2 297.8 305.6 310 319.2 328.4 334.2 344.4 350.9 350.7 349.8 360.5 366.2 368.6 370.3 373.7 377.4 380 387.2 389.7 392 396.1 396.9 397.5 401 401.3 399.5 405.1 412.3 412.5 413.9 417.1 420.4 423.6 421.5 416.9 409.6 404 399.7 397.2 394.3 393.1 388.9 386.2 382.1 376.2 371 361.5 354 347.8 342.8 338 330.9 322.9 316.5 309.6 298.7 287.6 283.2 277.9 271.3 256.3 237.3 207.9 172.5 140.1 119.1 100.6 82.3 70.9 66.5 63.2 60.2 63.2 68 70.9 80 89.1 100.9 113.4 131.4 151.7 175 194.9 218.9 239.7 252.8 254.8 254.8 252.6 249.6 241.8 227.3 214.3 196.6 176.5 159.2 143.6 126.3 110.7 95.2 80.6 62.7 53.9 50.5 41.8 39.2 39.8 39.7 39.2 34.4 18.8 6.8 2.3 -1.3 -1.3 -1.3 -1.3 -1.3 -1.3
124.4 129.9 129.7 133.2 135.6 138.3 142.1 145.9 149.4 152.7 154.6 156.7 161.4 166.9 175.8 177.3 183.1 196.8 201.9 214.8 224.4 225.5 226.3 227.3 227.8 228.9 233.6 231.9 232.2 234.6 236.3 239.1 243.4 244.7 243.3 248.3 247.3 251.6 243.5 245.4 243.8 236.5 232.1 229.6 228 224.6 215.6 202.4 194.4 190.4 181.3 175.5 169 162.6 152.9 147.5 147.2 140.7 131.7 127.2 135.6 143.2 147.9 153.8 161.9 164.8 169 177.2 188.6 198.6 205.8 212.8 221 231.1 236.7 245.1 253.6 261.5 271.8 279.8 283.9 291.1 303.3 305.1 315.1 319.3 325.6 334.5 347.2 351.8 348 355.7 362.6 365.1 366.6 370.6 375.9 380.9 380.9 386.3 389.6 391.4 392.4 393.1 397 396.6 396 399.4 402.3 403.2 406.5 411.6 414.5 414.6 411.9 405.5 399.6 395.7 389.6 387.7 385.6 387.1 383.8 378.8 373.2 367.6 362.6 358.1 350.8 346 341.4 335.4 329.4 324 317.4 312.3 305.8 294.7 287.1 279.2 270.6 258.9 251.1 235.1 195.5 157.3 133 112.6 93.4 75.7 68.4 62.8 61.5 59.1 62.1 62.7 69.6 77.9 87.9 99.2 113.2 130.1 147.7 169.6 192.2 219.4 238.6 241.4 239.4 237.4 233.8 228 215.7 199.4 185.1 167.6 150.7 134.3 120.7 106.4 91.4 77.2 61 49.4 48.6 45.4 36.6 40.5 38.9 29.6 30.9 29.3 9.4 -1.3 -1.3 -1.3 -1.3 -1.3 -1.3 -1.3
130.2 131 132 133.2 134.7 136.2 138.5 141.5 145.4 146 153 154.3 158.6 167.1 177.5 182.9 188.8 199.8 211.8 213.8 215.8 218.6 227.3 230 231 231.8 233.7 236.1 234 236.2 238.7 239.5 243.1 247.6 255 258.7 251.9 246.8 243.9 242.7 241.5 243.6 242.2 237.2 229.2 226.5 218.4 205 198.9 194.3 186.8 180.3 173.9 170.9 166.6 152.6 150.6 149.7 143.8 137.1 128.7 134.8 141.1 147.3 154.6 158.1 168.2 177.4 186.3 195.7 204.4 212.3 218.3 225.5 233.4 238.9 247 254.1 264.3 272.8 280.4 288.3 295.6 302.3 307.4 312.5 314.5 329 339.1 346.7 344.2 344.8 352.2 356.4 359.7 365.9 372.5 377.9 376.3 380.1 385.6 387.8 388.2 385.4 392.3 391.3 389.4 393.7 390.5 394.4 394.3 402.5 408.8 406.4 401.3 394.6 389 384.5 380.1 377 377.6 376.6 374.7 368.6 363.8 359.2 356.2 353.8 348.7 344 339.7 334.7 327.9 323.7 317.5 312.1 305.8 299.6 291.8 284.1 276 269.9 265.2 252.3 214.8 178 146.6 124.5 103.9 85.2 71.3 64.5 62.3 59.1 59.9 58.8 58.7 66.8 74.2 86.9 96.2 113.5 126.9 145.8 164.9 187.6 210.1 229.4 228 225.4 219.7 212 203.5 195.3 186.6 171.1 149.2 132.4 116.8 101 87.5 71.9 57.7 45.3 50.4 42.8 30.6 22.8 26.4 21.3 20.5 28.8 10.4 -1.3 -1.3 -1.3 -1.3 -1.3 -1.3 -1.3
132.2 132 132.8 133.6 134.6 136.5 139.3 140.6 142.6 147.9 150.9 152.7 159.6 168.7 178.7 181.9 194.1 206.5 218.2 217.3 217.6 220.3 231.6 232.3 235.8 238.7 238.8 236.4 237.6 236.9 237.1 243 244 247 252.1 251.6 249.5 247.4 246.5 244.1 244.6 251.5 245.3 237.7 229.3 226.4 219.8 204.8 200.6 197.7 194.3 185.9 179.4 177.2 175.3 171.3 156 154.9 151.4 147.2 136.6 132.5 134.6 141.7 150 159 168.7 175.9 183.4 191.4 199.9 209.2 216.7 222.4 229.9 235.7 241.4 248 256.2 263.6 273.3 281.4 286.9 295.9 301.1 309 315 318.3 324.7 333.8 340.2 335.7 339 341.1 351.1 358.5 364.2 369.2 367.8 368 379.7 383 381.9 381 381.6 382.8 384.2 385.9 385.6 384.9 382.7 391.9 400.9 396 388.4 382.6 377.6 375.4 370 360.9 365.1 363.9 362.1 360.5 356.9 347.5 347.7 345.3 344.3 341 334.1 332.6 327.5 321.5 317 311.3 307.7 305.4 301.7 294.1 285.8 278.2 274.5 267.6 237.1 197.1 164.2 137.5 117.6 98.1 82.2 69.4 65.7 63.7 59.5 55.9 55.2 56.4 64.9 72.6 86.1 96.2 111.2 126.5 141.6 157.9 177.8 201.3 222.9 219.7 211.6 205.3 195.9 185.3 174.3 162.7 141.9 129 109.6 97.4 80.5 61.4 58.2 48.8 41.8 34.7 14.6 4.4 7.6 6.4 8.3 7.9 3.9 -1.3 -1.3 -1.3 -1.3 -1.3 -1.3 -1.3
133 132.4 133.6 134.5 136.3 138.9 140.7 142 145.5 148 151.5 152.4 157.8 167 176 180 193.7 206.7 219.6 219.3 219.5 221.1 224.1 227.4 236.3 237.5 239.5 239.9 238.5 237 236.1 237.6 244 246.9 251.5 251.5 250 248.2 246.3 245.6 244.8 244.1 240.3 234.1 230.8 228.1 221.3 212.9 205.3 199.3 194.7 192 188.5 183.4 182.3 177.6 167.7 164.4 157 151.9 151.6 142.5 137.5 140.6 147.4 158 165.6 172.7 178.8 186.2 194.6 204.4 209.2 217.8 224 230.7 236.3 242.5 247.4 255 261.6 268.4 275.6 284.4 290.8 300.4 304.7 306.7 311.4 316 322 323.8 327.5 328.2 334.6 342.7 349.8 355.7 357 357.2 360 372.3 373.3 370.8 370.9 373 372 375.3 379.3 381.9 374.6 376.5 385 382.9 378.3 372.3 367.4 363.1 358.7 349.9 351.5 352.3 352.1 350.6 346.4 337.7 340 336.1 336.7 335.5 334 329.5 323.8 318.9 315.4 313.4 311 308.8 310.7 308.9 302.1 286.2 282.9 275.7 246.5 217.2 181.8 155 129.5 111 93 77.1 69.6 64.4 60.7 60.1 57.7 53.2 58.7 66.6 73.8 85.6 96.5 106.8 123.1 136.8 151.4 169.9 186.9 207.9 217.3 213.1 203.8 191.9 181.2 165.2 146.9 125.2 110.4 93.6 80.5 63.9 49.2 31.6 19 11.4 6.1 -1.3 2.6 2 1.9 2.3 -1.3 -1.3 -1.3 -1.3 -1.3 -1.3 -1.3 -1.3
128.4 130.8 131.9 134 136.8 139.5 141.3 142.7 146.8 146.8 151.6 154.4 160.5 168 174.9 182.8 193.9 200.3 213.1 217.5 220.1 221 222.4 224.5 227.3 228.6 230.4 230.9 234 234.9 234.3 235.1 241.8 248.4 252.3 253.4 249.7 249.2 247.8 247.3 247.3 242 237.9 235.1 232.7 229.4 224 217.9 207.3 200.8 198.3 196.8 196.6 189.9 186.4 182.6 172.2 171.7 162.1 155.9 157.4 154 144.9 138.8 148.1 155.1 162.7 169.5 175.5 183.6 191.1 199.9 206.3 212 217 224.2 229.9 235.4 239.9 243.3 251.1 256.8 265.2 271.9 278.6 287.7 292.6 292.4 294.3 295.8 300.1 304.6 311.2 315.4 325.2 332.1 343.4 349.5 353.5 355.2 356.7 356.5 363 362.2 362.6 358.8 357.1 363.3 362.2 363.5 361.2 362.2 364.6 367.6 369.2 362.1 356.1 351.9 345.7 341.3 339.5 342.3 340.5 342.1 338.4 335.9 332.2 329.7 330.1 330.2 329.5 326.7 323.5 319.8 316.4 313.6 311.8 310.2 312.4 314.9 312.7 302 293 284.1 258.6 232 199.3 170.1 141.6 119 100.4 90.4 79.3 68.2 68.5 63.8 58.2 52.5 51.1 56 69.6 77.1 84 92 106.1 118.2 128.2 139.4 157.4 169.9 185.2 199.6 202.7 195.9 187.2 170.2 151.2 133.8 116.2 96 59.2 42.5 27.8 11.5 3.8 6.4 1.3 -1.3 -1.3 -1.3 -1.3 -1.3 -1.3 -1.3 -1.3 -1.3 -1.3 -1.3 -1.3 -1.3
129 128.7 129.1 133.1 132.4 135.2 139.9 142.9 143.1 146 147.1 152.2 155.3 167.8 175.9 179.3 188.9 195.9 208.9 215.5 218.8 221.1 222.2 223.2 224.2 225.4 226.8 228.8 230.4 231.7 233.1 233.7 236.6 242.6 244.2 245 245.1 248.3 247.6 252.4 251.2 244.3 239.2 234.7 234.5 231.3 228.7 224.9 216.5 208.6 203 200 200 196.3 188.3 184.6 183.3 176.8 174.8 163.6 159.4 157.4 154.4 145 141.9 151.3 162 167.6 173.4 179 185.7 193.1 201.1 206.1 209.6 215.8 220 223.8 227.9 233.3 238.1 244.9 253.7 257.1 262.7 267.3 272.4 274.6 275.1 276.6 283.4 286.9 290.7 302.3 309.7 318.2 324.2 332.2 336.3 349 351.8 351.4 348.9 350.2 350 351 347.2 349.8 350.5 346.4 345.9 351.3 355.1 352.3 355.7 352.1 346.3 340.8 335.6 331.6 330.8 332.4 330.5 329.9 330.4 329.7 327.3 326.1 326.1 325.6 324.7 325 325.2 320.9 318.4 316.5 314.2 310.5 313.9 317.2 318.5 313.3 301.7 292 265.4 231.8 209 180.4 155.7 132.3 117.1 101.6 91.1 79.8 73.8 72.6 61.6 55.8 51.8 49.8 56.5 68.5 73.6 80.6 92.8 100.8 111.9 121.4 130.1 139 153 167.8 189.3 196.9 191.2 178 162.9 140.4 114.3 88.8 52.4 14.6 3.9 3.6 1.7 -1.3 -1.3 -1.3 -1.3 -1.3 -1.3 -1.3 -1.3 -1.3 -1.3 -1.3 -1.3 -1.3 -1.3 -1.3
123.3 124.8 130.9 131.3 131.1 135.6 137.4 137.6 139.7 142.6 146.2 151.8 155.2 165.3 173.5 177.8 180.7 187.4 200.1 211.9 215.9 221.1 221.9 221.9 222.1 225.4 226.1 228.6 230.4 231.2 231.7 234.9 237.1 239.5 241.7 241.9 242.3 243 244.4 249.5 255.6 254.3 246.8 236.9 234.9 232.8 229.2 226.2 221.6 214.2 210.9 203.1 202.2 198.4 192.1 186.7 187.6 182.3 179.3 171.9 169 162.7 159.4 153.3 141.9 147.8 157.4 164.8 173.1 173.8 180 186.7 193.4 199.6 203.6 205.8 211.4 213.8 215.3 218.6 224.4 230.1 236.7 240.7 246 250 253.9 256.7 258.1 261.4 264.6 266.6 272.1 283.5 291.3 300.2 307.8 313.2 323.5 329.9 340.2 341.7 339.4 340.4 338.6 338.6 337.2 335.5 339 334.4 335 339 339 341.4 336 340.7 335.2 329.4 325 322.1 320.7 321.8 320.5 322.3 322.6 324.3 323.1 322.6 323.5 323.3 323.6 324 323.9 320.6 318.9 316.7 315.4 312.1 314.4 317.2 320.2 320.6 318.3 306 280.6 244.6 213.2 192 167.4 149.5 131.9 119.2 106.7 94.2 83.1 75.6 64 57.7 51.3 48.7 53 59.7 65.8 73.4 80.5 90.8 97.8 106.9 111.3 117.7 125.1 140.7 162.8 186.6 184.3 171.7 141 122.7 95.4 63.4 41.6 12.3 1.5 -1.3 -1.3 -1.3 -1.3 -1.3 -1.3 -1.3 -1.3 -1.3 -1.3 -1.3 -1.3 -1.3 -1.3 -1.3 -1.3 -1.3
126.5 129.2 131.5 130.4 129.6 131.6 134.3 135.8 139.8 147.1 150.4 152.6 156.2 164.1 168.6 175.1 179.9 182.4 191.4 201.5 210.7 215.1 219.5 220.1 221.8 223 225.6 228.3 231.3 232.7 233.5 235.3 237.3 238.9 240.7 240.5 240.8 241.4 242.7 245.5 246.8 250.6 246.6 239.7 236.5 234.1 231.9 230 225.2 221.1 217.6 209.8 202.3 196.7 192.6 190.4 190 189.2 183.7 177 176.9 170.7 166.5 160 150.6 142.1 154.4 158.3 168 170.7 175.2 179.7 183.9 188 190.7 194.6 199.7 202.1 207.4 209.4 212 218.3 223.6 227.7 231.6 235.2 238.9 241.7 244.9 246.7 249.6 253.6 259.9 265.4 270.8 279 288.3 296.1 304.1 314 320.8 327 332.1 329.4 327.6 324.1 324.1 326.5 325.5 323.8 322.8 326.8 332.6 333 327.8 316.1 321.6 319.4 316.9 313.1 310.8 312.5 312.2 315.4 317.8 319.3 318.1 320.1 321 321.8 322.5 322.8 322.4 319 315.6 314.8 314.5 316 316.6 318.6 322.3 326.8 325.7 315.8 293.7 261 227.2 202.5 178.9 164.1 151.9 139.2 126.7 112.3 95.2 83 73.2 61.6 53.8 49.8 48.5 52.6 60.5 67 72.3 79.5 88.1 94.8 99.3 102.4 105.9 115.3 138.8 156 152.4 131.3 95.1 67.8 43.7 33.6 24.3 7.1 -1.3 -1.3 -1.3 -1.3 -1.3 -1.3 -1.3 -1.3 -1.3 -1.3 -1.3 -1.3 -1.3 -1.3 -1.3 -1.3 -1.3 -1.3
126.7 127.5 129 131.7 132.2 133.2 137.4 136 141.5 145.4 150.2 150.8 158.6 166.9 171.9 174.8 180.7 185.2 187.8 192.7 198.5 208.7 216.2 219.7 222.6 225.1 228.2 230.2 231.4 233.4 234.2 235.6 236.9 238.8 240.3 240.4 240.2 240.1 241.6 242.6 244 245.8 244.6 242 238.9 236.5 234.5 233.3 226.7 223.4 217.6 211.8 204.2 200.9 197.2 192.3 191.8 190.3 186.7 181.8 179.3 177.2 172.3 166 156.1 142.2 152.1 155.7 163.6 168.9 172.2 175 176 180.7 182.9 184.8 190.8 189.9 193 197.7 202.9 207 212 215.1 217.9 221 225.4 231.2 234.7 235.7 239.3 241.2 247.7 252.5 258.5 261.3 267.9 275.8 281.9 293.5 304.1 309.2 316.3 319 318.6 316.2 317.2 306.4 313.6 313.9 312.1 316.9 321.6 321.7 319.3 312.5 308.8 307.1 308.1 305.7 306.9 306.1 307.9 310.3 313 314.9 314.9 317.6 318.2 320 321.3 321.7 321.1 319.9 316.3 315 315.6 317.6 319.4 321.8 326 328.1 330.9 323.7 312.4 274.8 241.5 212.6 197.5 180.1 169.3 155.7 142.3 129.4 110.1 93.2 84.2 72.3 57.7 51.6 47.2 46.2 53 61.4 67.1 73 78 83.7 90.2 90.1 93.6 97.3 106.3 115 112.5 85.7 57.1 34.7 11.4 2.7 2.1 -1.3 -1.3 -1.3 -1.3 -1.3 -1.3 -1.3 -1.3 -1.3 -1.3 -1.3 -1.3 -1.3 -1.3 -1.3 -1.3 -1.3 -1.3 -1.3
130.4 133.4 133.6 133.8 134.9 134.7 136 138.5 143 146.2 146.2 150 155.7 164.8 168.7 173.4 179.5 183.8 188.6 195.3 202.5 203.7 215.6 219.8 224.8 226.8 229.6 230.4 231.8 233.5 234.5 235.4 236.5 238.4 239.9 240.3 240.5 239.6 241.5 240.6 241.6 242.8 243.2 242.6 240.7 239.3 236.5 233.2 229.4 224.4 213.5 212.7 205.5 204.4 200.8 195.5 194.2 193 188.4 187 181.3 182.5 177.7 172.5 163.9 149.6 150.3 154.1 158 162.5 166.4 170 171.5 173.3 174.4 178.2 179 178.7 184.2 187.8 195.7 198.3 203.3 208.1 212.3 212.4 215.5 220.8 226.4 227.4 229.2 231.6 235.1 241 245.2 248.7 254 259.2 266.5 272.7 279.5 286.1 293.2 303.4 307 307.1 308.2 301.1 299.8 301.7 304.3 305.9 310.3 307.4 303.6 302 296.9 297.5 300.7 301.7 302.2 302.4 303.5 306.9 308.9 311.1 315.8 317.5 319.1 319.5 320.6 321.7 321 319 319 315.3 317.3 320.3 321.4 326 330 333.4 336.2 327.8 313.3 292.1 260 234.5 222.6 206.4 187.7 177.3 159.5 143.3 126.4 107.2 93.6 79 65.1 54.4 48.7 43 47.9 52.2 59.8 68.9 72.1 75.5 80.1 81.2 80.1 80.6 83.3 80.6 68.6 55.8 29.9 7.6 3.7 -1.3 -1.3 -1.3 -1.3 -1.3 -1.3 -1.3 -1.3 -1.3 -1.3 -1.3 -1.3 -1.3 -1.3 -1.3 -1.3 -1.3 -1.3 -1.3 -1.3 -1.3
139.9 137.5 137.8 138.4 137.9 139.8 139 140.7 138.9 143.9 148.2 152.4 154.5 162.3 165.8 171.9 178.4 183.2 188.5 196.5 201.2 205.9 216.2 220.2 224.9 227 228.6 231 232.2 232.8 234.2 235.2 236.2 238.8 239.3 241 240.7 239.5 239.4 240.4 240.6 241.1 240.3 241.2 240.8 240.9 238.3 234.7 231 224.6 223.3 210.4 206.5 205.7 205.4 200.2 196.9 195.7 192.5 186.5 186.3 186.2 182.3 176.8 169.5 157.2 147.9 151 154.3 156.1 157 162.1 164.2 164 166.2 167.8 171.5 173.7 172.9 180.8 187.1 193 195.3 200.2 203.6 204.9 207.5 210.6 215.3 219.1 220.1 224.3 227 231.6 235.3 239.2 243.8 249 255.9 260.9 264.1 269.5 269.4 285 290.4 291.9 294.3 291.1 290 289.9 293.2 295.1 300.7 296.6 297.3 295.9 293.1 292 292.4 297.1 296.2 299.9 304.5 305.1 306.6 314.2 318.4 320.2 321.6 321.7 322.4 322.5 322.1 319.5 317.1 317.1 319.3 321.8 326.2 330.8 334.6 334 338.2 334.7 319.7 301.3 280.7 268.9 249.5 231.4 206.9 200.3 181 160.5 139.9 118.5 101.4 88.7 73.2 59.4 49.8 41.4 43.8 46.6 51.3 57.4 64.2 69.4 71.6 74.6 71.2 69.3 66.6 58.8 51.8 30 12.3 5.5 2.3 -1.3 -1.3 -1.3 -1.3 -1.3 -1.3 -1.3 -1.3 -1.3 -1.3 -1.3 -1.3 -1.3 -1.3 -1.3 -1.3 -1.3 -1.3 -1.3 -1.3 -1.3
147.3 147.1 146.4 144.6 144 144.2 143.9 144.9 145 141.3 144.9 149.1 153.6 158.5 163.3 169.9 177.3 180.5 185.6 193.1 197.5 200.9 209 216.3 221.6 226.4 228.2 230.6 231.2 231.6 233.4 234.5 235.3 237.6 237.8 238.5 238.9 238.4 238.9 241 241.1 241.6 242 242.3 240.2 241.8 239.5 237.4 234.3 231.5 225.5 224.1 215.3 210.2 205 205.3 199.1 197.4 195.8 195.1 190.3 191.6 184.9 179 173.6 163.5 153.8 150.9 150.9 151.6 151.8 153.3 156.8 165.6 169.6 170.7 170.1 174.8 178.9 181.4 177.4 190.2 190.2 192 198 200.6 201.7 204.9 206 209.7 212 216 220.4 223.6 226.9 233.3 237.4 239.2 244.1 249.8 254.5 259.5 262.1 266.6 269.8 275.7 279.3 281.4 279.9 285 284.6 285.3 288.6 292.6 290.1 290.9 289 289.2 289.4 293.9 299.7 304.4 307.3 310.2 313.8 316.5 322.2 324.3 325.4 324.6 324.5 323.8 323.4 321.8 319.5 320.9 321.4 323.2 329.1 332.5 334.7 336.7 337.1 338.7 333.6 316.2 298.5 289.3 274.5 254.9 229.6 223.4 203.5 181.3 156.8 134.4 109.7 93.9 80.9 68.3 54.1 42.1 34.7 38.5 45.4 51.9 62.2 59.7 63.8 65.4 64.9 60.4 54.1 49.3 39.5 21.9 7.3 3.6 0.8 -1.3 -1.3 -1.3 -1.3 -1.3 -1.3 -1.3 -1.3 -1.3 -1.3 -1.3 -1.3 -1.3 -1.3 -1.3 -1.3 -1.3 -1.3 -1.3 -1.3 -1.3
154.8 155.8 153.8 152.3 151.1 151.3 153.4 153.2 154.3 151.2 154.5 153.9 154.4 154.5 161.4 166 173.2 177.8 183.5 186.2 190.6 195.8 200.1 203.7 214.4 222.5 224.9 227.4 228 229.3 231.3 233.6 234.8 236.5 237.3 237.3 237.8 238.3 239 240.2 241.8 242.1 243.3 244.2 242.8 242.8 241 239 236.9 234.4 232.1 229.3 222.7 215.8 210.4 205 202.1 199.5 198.7 198 194.6 194.1 187.6 182 178.5 169.8 157 155.2 152.5 152.7 155.9 156.6 157.8 162.5 173 176.6 177.9 182.9 185.6 189.6 192.5 195.7 199.6 201.7 203.9 202.9 202.4 203.6 204.5 203.6 206.2 206.2 214.7 215.8 224.3 228.3 231.2 231.3 235.7 240.4 245.1 248.2 253 255.2 257.3 260.4 264.4 269.5 270.9 273.2 274.5 278 278.9 285.9 283.8 286 289.4 292.5 295 300.4 299.2 307.2 311.6 315.4 317.2 322.9 328.3 329.7 331.3 329.3 328.9 327.6 326.3 324.4 323.6 323.2 322.5 322 331 337.8 337.3 336.9 337.1 337.1 337.7 329.3 314 310.4 291.7 274.9 253.8 239.6 222 200.4 176.7 150.7 123.3 101.7 86.6 74.8 61.5 46.6 36.5 28.1 37.1 43.3 51.5 57.4 51.9 53.2 54.2 52.7 51.4 45.3 37.4 30.7 11.6 2.6 -1.3 -1.3 -1.3 -1.3 -1.3 -1.3 -1.3 -1.3 -1.3 -1.3 -1.3 -1.3 -1.3 -1.3 -1.3 -1.3 -1.3 -1.3 -1.3 -1.3 -1.3 -1.3
159.7 162.1 161.9 159.4 159.8 158.8 158.8 160 161.4 162.1 162.2 162.1 159.6 160.9 162.1 168.4 169.1 176.1 181.2 183.9 185.9 190.5 199.2 202.1 205.9 208.2 216.3 220.5 222.1 227.9 230.6 233.9 234.8 236.1 237.4 238.3 238.9 239.9 240.2 240.5 241.3 242.6 244.4 244.7 243.8 243.7 242.2 240 239.2 239 237.1 235.2 230.9 219.6 212.9 207.6 203.8 201.4 201 201.1 195.9 196 189 184.6 180.9 175.2 159.5 160 159 154.7 158.6 162.3 161.2 170.4 166.7 181.3 186.7 189.4 196.7 197.4 203 200.8 204.7 209.4 212 213.1 211.6 212.2 210.7 211.1 209.5 210.6 209.2 210.2 218.5 221.3 224.8 225.6 229 233.4 235.9 240.3 241.2 242 245 247.4 249.1 254.1 260.9 260.4 265.8 270.4 273.2 279 284.4 289.3 293.3 297.4 300.3 307.5 311.2 309.4 316.5 321.8 326.5 331.3 333.9 336.1 336 336 334.5 332.8 330.2 328.1 325.8 325.7 323.6 320.7 322.8 333.3 336.7 337 338 335.7 333.7 334 322.3 321.5 312.8 293.4 273.3 255.4 236.1 213.3 190.1 166.3 136.1 110.6 94.3 81.6 65.7 51.7 39.4 31.5 27 34.7 41.3 44.6 45.2 44.4 46.3 44.5 43.6 36.4 24.7 7.5 2.3 -1.3 -1.3 -1.3 -1.3 -1.3 -1.3 -1.3 -1.3 -1.3 -1.3 -1.3 -1.3 -1.3 -1.3 -1.3 -1.3 -1.3 -1.3 -1.3 -1.3 -1.3 -1.3 -1.3
168 167.3 167.8 166.9 166.7 169.9 168.2 167.7 168 169.9 169.8 172.6 170.8 171.8 173.8 173.7 174.1 172.3 176.1 180.1 182.9 188.9 193.1 197.6 204.1 210.1 218.1 222.1 226.6 230.1 233 235.4 237.7 239.6 239.5 240.1 241.2 241.6 241.9 242.4 243.1 243.9 245.7 245.3 245.4 244.9 242.8 242.2 242.3 242.4 241.2 238.7 234 228.5 220.4 216.7 209.2 202.8 203.4 202.6 198.1 197.5 193.2 187.8 183.7 178.8 163.1 164 162.7 160 161.2 166.9 165.7 176.7 181.8 184.6 193 191.8 206.2 209.9 212.6 212.5 212.9 217.1 222.4 222.1 222.9 222.8 220.7 222.8 220 216.3 214.2 215.4 217.2 217.5 220.8 223.1 224.2 225.5 226.4 228.9 232.7 236.7 238.9 244.4 247.6 255.1 255.6 257.8 260.4 270.8 275.9 280.1 286.2 293.5 300.5 305 307.6 314.9 318.1 321 327.5 329.9 335.1 337.8 342.1 345.2 345 344.2 341.8 338.9 334.4 331.2 328.8 326.5 323.8 321.3 320.3 327.2 332.8 332.9 333.6 334.4 331.2 328 317.7 322.1 319.7 304.7 289.9 267.8 246.3 225.3 200.1 174.6 146.2 120.1 100.7 86.1 70.7 55.8 41.5 33 17.2 25.4 31.7 34 38.3 35.8 35.5 34.4 32.5 16.6 8 4.7 1.2 -1.3 -1.3 -1.3 -1.3 -1.3 -1.3 -1.3 -1.3 -1.3 -1.3 -1.3 -1.3 -1.3 -1.3 -1.3 -1.3 -1.3 -1.3 -1.3 -1.3 -1.3 -1.3 -1.3
178.8 179.9 179.8 180.2 180.4 177.7 181.7 181.5 182.2 180.3 175.1 177.6 179.4 179.2 181.8 180.7 183 177.8 180.1 180.3 181.5 187.6 190.9 198.2 204.5 210 217.5 225.5 226.8 230.6 235 237.1 240.3 243.7 242.8 245.1 244.7 244.6 244 244.6 244.9 245.9 247.1 247 247 245.9 245.4 244.5 245.1 245.5 245.4 241.5 237.5 233.7 228 220.7 214.5 210.1 205.7 205 201.6 198.4 192.7 189.4 187.2 182.5 171.6 166.8 165.6 165.9 165 168 172.5 175.1 187.7 191 196.8 206.3 206.6 214.5 219.7 226 225.5 224.9 230.8 234.1 234 236.7 231.5 230.8 229 224.9 223 222.2 224.7 225.3 225.8 224.7 228.8 231.2 232.3 236.8 239.3 243.9 247.9 252.7 255.9 261.9 265.7 268.1 271.6 279.8 283.2 288.7 292 299.5 303.1 312.9 315.4 323.8 325.7 324.2 337.3 339.5 338.2 345.4 350 356.1 354.9 353.4 351.1 346.3 339.4 334.7 331.6 329 324.3 320.7 316.7 322.4 326.4 329.5 330.9 331.3 327 323.6 317.7 303.3 308.6 305.4 297.4 279.9 259.4 232.7 207 185.7 156.8 130 105.8 91.2 74 60.7 46.9 35.1 24.6 13.9 20.3 24.3 28.3 28.9 29 25.1 15.3 6.3 2.5 1.5 -1.3 -1.3 -1.3 -1.3 -1.3 -1.3 -1.3 -1.3 -1.3 -1.3 -1.3 -1.3 -1.3 -1.3 -1.3 -1.3 -1.3 -1.3 -1.3 -1.3 -1.3 -1.3 -1.3 -1.3
189.2 191.1 191.2 193.1 193.8 194.7 195 195.6 192.3 190.8 185.3 189.7 196.2 189.7 190.3 189 192.3 188.5 186 185.5 184.6 187.8 191.4 198.8 204.4 212.1 220.6 225.7 227.7 232 237.4 240.2 245.3 247.3 249.5 251.3 251.7 251.3 249.1 249.7 248 248.1 249.6 250 250.7 248.8 248.1 247.2 247.4 247.3 246.9 245.1 242 238.9 232.8 231 220.4 213.8 210 207 199.9 200.5 194.3 191.5 189.8 188.1 178.3 168.4 169.4 169.3 170 169.4 177.1 175.9 186.6 195.3 200.2 211.2 211.2 220.5 225.4 232.6 236.4 238.8 239.4 242.9 250.2 248.8 247.9 243.8 242.2 238.2 234.8 232.6 231.1 234.9 232.6 233.2 234.9 238.7 241.3 245.1 248.1 251.9 256 258.4 262.4 270.8 274.2 277.3 282.7 287.4 293.9 299.5 302 303.7 315.8 325.4 329.8 335.1 335.5 333 347.3 348.5 352.2 348.9 358.6 364.5 364.7 360.8 361.1 358.9 345.9 340.2 334.2 330.5 326.5 320.8 316.7 317.2 320.9 324.3 323 326.1 327.8 322.2 315.7 305.9 299.2 300.9 299.5 287.9 267.1 241.3 215.2 190.3 165.7 141.8 115.9 97.6 80 64 50 37.4 28.8 18.6 8.1 14.7 17.8 17.7 14.8 9.2 6 4.4 2.9 -1.3 -1.3 -1.3 -1.3 -1.3 -1.3 -1.3 -1.3 -1.3 -1.3 -1.3 -1.3 -1.3 -1.3 -1.3 -1.3 -1.3 -1.3 -1.3 -1.3 -1.3 -1.3 -1.3 -1.3 -1.3
195.2 200.5 202.3 205.8 209.3 211 207 202.8 203.6 200.1 195.7 198.3 199.8 198 198.6 201.1 196.9 197.8 196.7 192.4 189.4 191.5 193 197.8 205.9 211.7 217.7 223.4 228.5 234.2 239.3 244.8 247.7 251.3 252.8 255.5 260.4 258.2 255.1 251.9 252.9 254.2 252.1 252.9 253.2 251.6 250.7 249.9 250.2 249.9 249.3 249.3 247.4 244 239.5 231.6 225.8 222 214.9 209.5 202.8 198.8 196.5 191 189.6 188 182.1 173.7 173 172.5 173.2 171.6 179.3 181 189.1 194.8 199.5 210.9 218.4 224 231.7 239.7 245.8 246.1 252.2 254.3 256.1 260.5 260.5 258.2 258.6 255 250.1 246.8 245.7 243.1 239.8 241.1 242.3 247.4 250.8 253.9 259.4 263.6 266.2 270.6 276.5 281.8 287.1 290.4 291.3 293.9 303.1 310.7 314.7 320.8 326.5 332.1 337.8 342.5 343.5 338.7 350.1 356.8 361.3 364.8 367.8 373.3 370.7 367.9 366.1 362.3 356 346.1 338.2 331.9 327.8 323.1 317.6 315.4 315.8 313.7 314.7 318.1 322.9 325.6 316.6 306.6 298.9 299.1 296.8 289.2 276.2 257.4 227.5 202.2 175.8 145.8 123 103.3 92.6 76.4 56.9 45.1 31.7 21 14.9 6.6 9.3 7.9 6.4 4.2 3.1 1.9 -1.3 -1.3 -1.3 -1.3 -1.3 -1.3 -1.3 -1.3 -1.3 -1.3 -1.3 -1.3 -1.3 -1.3 -1.3 -1.3 -1.3 -1.3 -1.3 -1.3 -1.3 -1.3 -1.3 -1.3 -1.3 -1.3
203.9 207.7 212.5 210.7 216.1 217.8 215.5 215.1 214.6 212.5 211.9 205.7 207.3 204.8 203.3 208.5 205.5 206.6 205.8 201 196.3 192.6 196.8 199.2 207.1 213.4 217.4 220.1 231.2 234.6 241 245.8 248.9 252.1 253.5 259.4 261.8 261.1 258.2 257 256.9 259.1 259.1 257.2 255.8 254.3 254 254 253.3 252.6 252.1 252.1 251.8 246.9 238.3 232 228.1 225.8 219.6 211.2 205 197.1 196 192 188.5 186.9 178 174 173.3 174.7 175.7 178.6 179 184 190.7 199.2 201.7 205.7 219.4 231.8 238.2 245.2 250.8 256.3 262.2 263.2 271.9 274.3 278.7 276.2 275 269.3 266.3 262.6 256.8 253.5 250 249.2 252.6 258.8 264.1 266.7 269.7 276.5 277.9 280.8 286.7 293.7 297.7 303.2 306 309.3 314.3 320.4 326.9 332.3 337.9 343.4 349.7 350.1 349.6 348.6 351.2 362.9 368.2 373.8 375.9 383.3 376.8 374.1 370.7 368.7 360.6 352.7 345.6 337.7 328.9 322.7 317.5 308.1 310.1 303.9 308.8 310 314.9 315.6 311.2 303.4 300 294.7 294 288.1 279.5 269 246.2 217.6 184.9 155.2 136.3 114.7 103 86.9 67.7 51.1 34.7 24.6 14.5 8.8 3.4 -1.3 2.3 1.5 -1.3 -1.3 -1.3 -1.3 -1.3 -1.3 -1.3 -1.3 -1.3 -1.3 -1.3 -1.3 -1.3 -1.3 -1.3 -1.3 -1.3 -1.3 -1.3 -1.3 -1.3 -1.3 -1.3 -1.3 -1.3 -1.3 -1.3 -1.3
209.9 211.3 215.4 216.7 221.2 221 221.2 224.3 230.3 225.3 223.3 214.8 214.3 214.4 212 216.5 215.3 214.6 213.8 210.4 205.7 197.8 199.5 199.8 207.7 213.9 218.4 221.4 230.9 235.6 240 243.4 248 250.4 254.4 260.3 259.7 259 258.3 259 259.9 262.2 265.8 262.7 260.6 259.2 259.4 258.4 256.6 255.4 255.1 254.3 252.6 248.8 241.9 234.7 231.8 227.5 221.1 217.6 206.7 198.8 198.7 188.3 186.2 182.3 175.9 175.1 175 177.7 181 184.5 180 190.2 195.5 203.6 208 207.5 219.4 235.2 244.6 252 257.8 259.9 267.4 278 284.7 291.2 296.7 296.6 290 285.6 280.2 274.2 267.8 261.8 261.8 262.3 263.7 267.9 273.1 276.7 281.2 284.8 292 295.6 301.4 305.8 312.1 316.1 323.4 324.6 321.6 333.7 338.1 339.2 346.7 351.3 358.1 359.2 358.5 355.9 361.8 358.9 371.9 376.3 382.9 382.5 379.5 375.4 371.7 363.5 362 359.2 354.3 343.1 336.8 326.5 316.4 303.2 298.2 301.4 296.8 297.4 298.6 300.2 300.7 299.7 296 296.5 288.1 284.7 280.9 269.7 256.3 234 198.8 169.8 146 130.5 113.7 103.1 82.5 59.4 36.9 27.1 14.7 7.7 2.9 -1.3 -1.3 -1.3 -1.3 -1.3 -1.3 -1.3 -1.3 -1.3 -1.3 -1.3 -1.3 -1.3 -1.3 -1.3 -1.3 -1.3 -1.3 -1.3 -1.3 -1.3 -1.3 -1.3 -1.3 -1.3 -1.3 -1.3 -1.3 -1.3 -1.3 -1.3
226.6 227.2 223.1 225 225.6 225 226.1 227.7 230.9 230.3 227.8 222.4 224.6 225.4 225.1 225 223.9 223.4 219.2 215.9 213.3 208.6 202.8 201 208.2 213.8 218.5 221.7 225.1 237 239.8 240.7 245 249.4 252.9 257.1 258.4 259 259.2 261.4 263 264.8 265.6 267.7 266.7 265.1 263.5 263.5 261.8 259.7 257.1 256.4 255.8 250.7 244.5 239.3 232.8 228.6 220.9 218.5 209 198.6 191.2 185.9 183.6 180.1 179.1 178.3 177.1 179.6 185.8 190 184.9 195.4 204.9 206.2 209.3 216.2 225.6 246.4 251.4 260 270.8 272.2 284.1 290.4 298.9 314.6 315.7 312.4 306.4 300.4 292 284.7 278.4 271 274.5 272.7 275.2 276.4 280.6 286.1 292.8 300.7 307.1 311.2 313.4 318.8 326.3 332.8 338.9 340.2 340.1 343.1 353.2 348.6 354.7 363.1 364 366.6 365.5 365.8 372 369.5 365.1 371.2 384.8 384.1 380.8 377.1 372.9 364.5 353.3 356 355.4 345.5 337.9 335.4 321.3 302.7 297.4 290.7 289.8 290.2 291.1 287 286.2 282.1 282 286.4 284.7 276.1 276.5 264.5 255.4 239.6 214 190.5 160.1 131.9 114 109 93.5 71.8 49.9 34.6 13.6 10 2.3 -1.3 -1.3 -1.3 -1.3 -1.3 -1.3 -1.3 -1.3 -1.3 -1.3 -1.3 -1.3 -1.3 -1.3 -1.3 -1.3 -1.3 -1.3 -1.3 -1.3 -1.3 -1.3 -1.3 -1.3 -1.3 -1.3 -1.3 -1.3 -1.3 -1.3 -1.3
230.2 230.1 229.7 227.1 230.3 229.4 230.6 230.7 233.6 232.6 230.8 228.9 232 231.5 233 233.9 231.2 229.4 226.2 223 218.8 215.7 207.9 209.7 212.1 215.2 219.3 221.2 223.3 235.8 238.6 239.9 241.2 243.5 250.4 255.3 258.5 259 260.6 261 262.8 264.2 265.6 266.4 267.7 267.4 266.5 265.7 264.2 262.8 258.3 256.8 255.9 251.1 246.5 241.5 231.6 229.2 222.8 219.3 212.6 205.4 196.6 186.1 183.4 182.9 184.4 180.9 180.8 183.7 187.9 193.1 193 196.6 207.5 216.8 222.2 221 228.2 245.1 263.7 267.3 275.7 286.8 297.7 307 316 331 331.8 325.2 320.7 312.2 306.7 294.6 288.6 282.6 284.2 285.1 285.4 285 288.6 299.8 304.9 313.6 321.8 323.4 331.9 336.6 341.3 346.4 351 347.1 351 352.8 357 355.5 355.2 368.4 368.6 374 373.6 370.2 375.7 376.2 374.6 371.1 373.4 381.5 379 374.2 371.2 362.9 348.6 342.4 351.4 344.2 336 332.9 320.8 304.5 295.4 287.7 283.7 279.6 278.4 276.1 273.2 268.8 265.6 259.7 271.7 271 262.2 256.2 247.3 232.4 216.8 196.7 165 141.2 121.5 102.2 93 77.5 61 40.3 13.5 2.3 1.2 -1.3 -1.3 -1.3 -1.3 -1.3 -1.3 -1.3 -1.3 -1.3 -1.3 -1.3 -1.3 -1.3 -1.3 -1.3 -1.3 -1.3 -1.3 -1.3 -1.3 -1.3 -1.3 -1.3 -1.3 -1.3 -1.3 -1.3 -1.3 -1.3 -1.3 -1.3
244.4 238.3 234 228.9 231.2 231.5 233.3 234.2 236.7 236.8 236.1 237.8 236.1 235.9 237.1 240.3 241.7 236.7 235.9 231.8 228.6 221.2 215.6 214.7 215.9 216.2 219.1 222.1 224.1 230.1 238.3 240.8 242.7 243.2 246.7 250.7 253.6 255.9 257.9 258.5 261 264.3 266 264.5 264.5 264.5 264.5 264.5 264.8 265.9 263.5 259 255.6 250.5 244.5 241.2 234 228.2 221.8 218.1 215.2 207.2 195.9 193.5 185.3 183.1 184.2 185.4 188.8 189.5 198.4 202.8 203.2 210.2 220.5 229.6 236 237.3 242.1 255.2 268.7 283.8 294 299.2 306.9 321.8 336.7 351.7 346.7 340.2 331.9 326.8 315.7 307.3 299.5 292.6 294.7 295.9 295.4 296.2 300.1 307.7 317.1 325.4 327.5 334.5 347 347.6 351.1 355.1 358.3 354.3 355.7 364.2 361.6 359.2 358.7 367.7 369.8 376.6 379.4 378.9 379.8 381 382.4 377.4 372.3 366.5 371 375.3 368.9 358.3 350.1 336.4 338.4 334.5 328.7 322.5 311.5 299.5 289.6 282.5 278.1 278.7 265.8 267.9 263.4 264.4 257.7 254 255 262.5 258.7 246.1 241.1 230.3 219.5 202.7 178.2 157.7 136.7 110.6 95.4 78.7 52.3 26.1 8.1 2.2 -1.3 -1.3 -1.3 -1.3 -1.3 -1.3 -1.3 -1.3 -1.3 -1.3 -1.3 -1.3 -1.3 -1.3 -1.3 -1.3 -1.3 -1.3 -1.3 -1.3 -1.3 -1.3 -1.3 -1.3 -1.3 -1.3 -1.3 -1.3 -1.3 -1.3 -1.3 -1.3
248.8 246.4 235.6 231.2 231.3 232.7 238.5 239.2 240 239.2 240 242 242.9 243.5 245.9 247.5 247.7 243.5 246.3 240.1 232.7 226.8 221.6 218.7 217.3 217.5 216.1 221.7 227.1 230.3 235.1 239.8 243.4 243 245.4 247.8 251.1 252.8 255.4 256.6 260 263.2 263.7 265.9 264.5 264.5 264.5 264.5 264.9 265.4 263.6 258.8 255.3 249.8 244.6 239.6 231.4 229.1 220.8 218.2 212.7 207.8 205.1 195.4 185.7 184.3 184.3 186.9 191.8 197.5 205.7 213.8 222 227.6 223.9 233.8 244.7 254.6 254.7 263.2 273.3 298.2 308.7 314.1 318.1 329.4 351.4 364.4 365.2 356.3 347.8 337.7 327.5 319.7 313.3 304.2 302.8 304.9 305.3 304.7 304.2 312.5 325.9 336.1 343.6 356.4 361.6 358.9 353.4 360.1 366 362.1 360.2 366.7 360.7 364.7 363.9 365.6 368.9 375.8 382.7 387.5 390.6 390.2 388 384.7 379.7 373 362.7 357.7 359.7 356.6 346.4 337.6 327.8 325.5 317.3 306.6 291.8 289.6 285.3 275.7 272.8 271.6 264.5 255.7 253.2 253 249.9 245.3 243.1 251.3 252 244.6 237.9 227.7 222.7 208.2 183.1 165.2 143.4 119.2 80.7 81.3 49.8 6.2 2.3 0.8 -1.3 -1.3 -1.3 -1.3 -1.3 -1.3 -1.3 -1.3 -1.3 -1.3 -1.3 -1.3 -1.3 -1.3 -1.3 -1.3 -1.3 -1.3 -1.3 -1.3 -1.3 -1.3 -1.3 -1.3 -1.3 -1.3 -1.3 -1.3 -1.3 -1.3 -1.3 -1.3
251.4 246.8 242.2 237.1 241.2 246 243 248.6 248.7 247.3 245.8 247.7 247.3 248.1 251.5 253.6 253.4 251.7 250.9 243.8 239.8 235.9 228.8 225.8 223.8 222.3 222.1 220.5 223.5 228 233.1 237.1 241.4 241.4 244.3 246.3 249.3 250.8 252.6 255.1 258.8 262.2 263.3 265 264.5 264.5 266 264.5 264.2 264 261.9 259.4 255.3 249.7 245.3 239.8 232.1 229.7 227.9 219.6 218.6 211.3 207.8 196.3 193.6 184.8 184.4 186.1 193.2 208 219.8 229.7 237.7 240.3 247.8 258.7 266 273.2 276.5 286.1 287 306.3 321.5 330.1 332.9 345.3 362.6 375.6 378.3 367.9 360.4 350.3 341.3 335 324.9 317.3 317.4 318 318.5 320.4 324.2 331.7 335.2 343.8 352.7 371.2 369.7 362.7 360 366.8 372.8 369.1 364.3 367.3 363.8 363.8 367.4 367.3 370.4 375.5 382.1 390.4 396.9 401.1 401 391.8 385.2 380.8 371.6 359.8 349.2 339.3 341.3 333.1 317.6 306.1 294.8 283.1 281.2 281.6 279.6 270 260.8 261.8 261.4 260.4 244.7 241.3 242.6 243.3 238.4 235.2 241.7 242.7 236.1 228.1 224.5 204.5 175.4 166.7 151.7 123.5 90.5 49.5 7.6 2.6 0.8 -1.3 -1.3 -1.3 -1.3 -1.3 -1.3 -1.3 -1.3 -1.3 -1.3 -1.3 -1.3 -1.3 -1.3 -1.3 -1.3 -1.3 -1.3 -1.3 -1.3 -1.3 -1.3 -1.3 -1.3 -1.3 -1.3 -1.3 -1.3 -1.3 -1.3 -1.3 -1.3 -1.3
257.1 253 253 253 252.3 255.6 256 252.6 260.1 260.3 254.7 256.2 258.6 253.8 253 255.9 256.2 254.8 254.1 252.8 246.8 244.4 239.4 231 227.3 224.9 224.8 224.9 221.8 224.5 226.4 232.1 235.4 239.4 243.5 246.7 248.8 249.9 251.9 253.6 256.5 259.4 262.6 265.8 268 266.9 269.8 267.5 262.6 261.8 260.2 257.1 254.8 250.8 247.3 243.6 235.9 234 229.5 226.9 221.1 211.2 208.2 193.4 192.2 185.3 185.1 186.5 195 220.7 231 238.5 244.1 249.9 258.8 268.7 272.7 282.4 288.6 294.5 311.3 319.8 335.4 342 352.3 359.7 374.5 386.9 388 382.8 372.4 364.2 355 347.1 339 331.7 330.6 329.1 332.9 336.9 336.1 347.3 351.5 355.6 361.8 374.2 383.6 364.9 368.1 376.2 378 372 366.3 368.4 366.8 362.4 368.3 371.1 368.8 374.5 381.6 388.7 397.1 404.3 410.4 404.6 396 385.6 376.4 366.8 356.3 342.6 320.8 313.7 305.4 272.1 266.8 265.3 263.4 267.6 264.5 256.8 246.9 243.6 247.6 244.1 236.4 230.2 243.1 241.3 233.8 222.4 226.4 235.5 232 222.9 207.1 188.8 168.2 156.6 131.3 96.2 54.1 10.4 2.8 1.2 -1.3 -1.3 -1.3 -1.3 -1.3 -1.3 -1.3 -1.3 -1.3 -1.3 -1.3 -1.3 -1.3 -1.3 -1.3 -1.3 -1.3 -1.3 -1.3 -1.3 -1.3 -1.3 -1.3 -1.3 -1.3 -1.3 -1.3 -1.3 -1.3 -1.3 -1.3 -1.3 -1.3 -1.3
264.8 260.3 261.3 260.8 262 264 262.6 261.7 268.1 269.5 263.9 263.1 264.4 261.6 260.5 258.7 258 257.5 259 261.7 253.2 251 248.3 240.3 233.2 230.1 227.8 227.4 226.4 224.3 228.3 232.2 235.3 239.4 242.4 247.1 248.8 250.4 252.2 253.2 254.8 256.6 260.5 266.8 271.2 271.2 268.9 266.5 261.9 258 256.8 255.5 254.3 252.3 248.4 249.7 244.3 240.6 233.9 229.3 221.9 214.4 204.9 194.9 187.7 187 186.2 191.1 200.3 228.2 237.8 243.1 246.6 249.3 269.5 282.6 288.2 296.2 303.7 314.4 328.9 333.1 347.9 357.7 366 376.1 383.6 390.1 400.2 398.8 387.4 377.1 366.9 362.1 354 349.3 345 351 354 354.1 349.4 359.3 364.6 366.2 373.3 378 377.4 372.9 372.3 375.1 376.2 377 372.3 371 368.1 368.8 373.7 373.5 371.6 374.6 378.1 387.6 393.8 399.2 409 412.7 407.3 396 388.6 375.2 359.1 347.7 336.9 316.1 301.8 289 263.6 240.2 239.6 238.5 237.7 233.8 231.9 225.5 226.8 228.5 227.5 231.8 237.8 236 223.2 211.2 210.2 219.7 220.4 197.6 188.1 177.9 168.4 152.8 104.3 66.6 24.6 5.3 2.2 0.5 -1.3 -1.3 -1.3 -1.3 -1.3 -1.3 -1.3 -1.3 -1.3 -1.3 -1.3 -1.3 -1.3 -1.3 -1.3 -1.3 -1.3 -1.3 -1.3 -1.3 -1.3 -1.3 -1.3 -1.3 -1.3 -1.3 -1.3 -1.3 -1.3 -1.3 -1.3 -1.3 -1.3 -1.3
269.6 268.7 270.4 268.9 266.8 271.2 274.3 271.9 273.1 274.2 268.2 265.3 267.3 267.3 268.6 266.7 262.9 260.7 262.2 262.8 259.3 258.1 256.2 254.2 246 239.1 232.4 230.9 228.5 224.5 228.2 232.2 234.5 237.6 240.7 246.3 248.8 250.3 252.6 253.5 254.3 255.9 256.8 259.9 264.5 266.9 265.2 260.6 258.8 257.1 255.5 255.7 254.9 253.3 252.1 251.3 250.2 246.6 240.6 233.4 223.6 214.9 207.3 195.9 189.2 185 186.8 194.1 206.9 233.9 241.2 246.7 251.2 260.2 279 292.2 294.8 302.7 316 326.9 338.3 346.2 351.8 370 370 385 391.2 398.9 406 409.5 404.8 394.9 385.7 376 370.9 366.9 364.4 367.7 369.2 371.8 369 370.4 376.6 388.8 392.7 389.1 386.8 389.3 384 379.1 380.7 387 379.2 373.6 370.9 369.8 375 377.7 373.1 373.6 376.5 382.7 389 390.5 396.2 402.7 410.6 402.8 390.8 382.2 365.2 350.6 337.8 321.7 294.2 282 266.3 239.7 218.4 221.8 215.3 221.6 209.6 207 203.9 209.9 214.3 221.4 220 215.3 216.4 207.1 198.1 190.4 182 176.2 177.4 173.8 161.2 125.7 82 46 9.4 2.4 1 -1.3 -1.3 -1.3 -1.3 -1.3 -1.3 -1.3 -1.3 -1.3 -1.3 -1.3 -1.3 -1.3 -1.3 -1.3 -1.3 -1.3 -1.3 -1.3 -1.3 -1.3 -1.3 -1.3 -1.3 -1.3 -1.3 -1.3 -1.3 -1.3 -1.3 -1.3 -1.3 -1.3 -1.3 -1.3
275.5 275.1 275.3 273.9 272.5 274.5 277.5 276.7 277 275.3 270.2 268.8 271.2 275.2 277.2 272.7 271.1 265.4 266.2 265 264.6 263.6 260.6 260.1 255.4 253.9 246.2 236.7 232.6 229.9 227.5 231.3 234.9 237.4 239.1 242.3 244.2 248.4 252.9 253.9 254.7 255.6 257 258.2 258.7 257 257.4 256.3 255.9 255.2 254.4 254.7 254.9 254.4 253.8 254.1 252.9 252 253 250.9 232.6 219.4 209.7 198 187.8 184.6 191.7 196.2 212.5 238.5 244.5 253.6 261.9 266.4 291.7 300 302.1 310.1 320.1 335 347.8 354.9 354 362.7 378.1 385 394.8 406.6 406.3 412.4 411.7 406.3 403.6 393.5 388.1 386.6 385.1 383 389.2 388.6 386.9 382.9 386.4 402 403.6 400.6 393 396.7 392.1 387.2 381.9 382.9 376 374 371.4 368.3 372.5 375.1 373.2 374.5 375.9 380.5 384.3 387.2 385.8 388.7 397.7 401.2 392 382.2 369.9 346.3 314.6 298 284.2 265.7 243.1 230.6 221.6 206.4 202.5 205.3 191.1 184.1 190.9 192.8 194.1 198.5 200.9 199.2 198.9 191.2 179.5 178.4 177.5 162 148.6 142.4 130.2 90 62.4 37.7 7.2 2.8 -1.3 -1.3 -1.3 -1.3 -1.3 -1.3 -1.3 -1.3 -1.3 -1.3 -1.3 -1.3 -1.3 -1.3 -1.3 -1.3 -1.3 -1.3 -1.3 -1.3 -1.3 -1.3 -1.3 -1.3 -1.3 -1.3 -1.3 -1.3 -1.3 -1.3 -1.3 -1.3 -1.3 -1.3 -1.3 -1.3
284.1 278.2 277.5 276.9 276.4 277.2 280.2 280 277.7 274.7 271.2 274.4 276.7 278.9 281.5 282 280.5 276.8 272.5 270.4 270.3 268.9 268.1 264.4 262.8 260.6 254.6 249.5 243.3 236.7 237.2 234.3 235.6 238.5 239.9 242.6 245.3 248.9 253.6 254.7 255.5 256.4 257.2 257.7 256 253.7 253.8 255 254.2 254.2 253.3 253.1 253.9 254.1 255.3 257.3 260.6 258.4 259.9 265.4 237.9 223.4 212.4 191.6 181.7 184.6 199.2 203.8 218.4 242.9 249.9 260.6 274.7 283.7 289.9 301.9 307.1 310.8 325 335.6 347.9 357.2 364.8 363.1 370.5 384.6 387.6 401.4 407.1 405.1 403.3 407.2 414.8 413.9 416.9 418 407.3 397.1 402.9 405.1 402.7 396.9 403 407.3 405.6 404.2 401.9 401.3 400.5 399.6 388.6 384.3 377.5 377.6 372 366.4 354.1 355.2 361.3 370.7 378.9 381.8 385 384.3 382.4 380.1 380.9 393.8 389.6 379.1 351.7 323.1 310.7 300 286 269.9 253.3 238.6 227.7 219 200.8 176.4 186.1 176.1 171.5 175.7 174.5 183.2 188.3 187.5 181.3 173.8 165.8 161.1 166.5 150.8 133.8 117.5 105.1 80.4 18.6 4.2 3.1 1.5 -1.3 -1.3 -1.3 -1.3 -1.3 -1.3 -1.3 -1.3 -1.3 -1.3 -1.3 -1.3 -1.3 -1.3 -1.3 -1.3 -1.3 -1.3 -1.3 -1.3 -1.3 -1.3 -1.3 -1.3 -1.3 -1.3 -1.3 -1.3 -1.3 -1.3 -1.3 -1.3 -1.3 -1.3 -1.3 -1.3
285.9 281.6 279.7 279.3 281.5 280.4 280.6 281.7 279.7 277.1 275.1 274.5 277.8 280.7 283.9 291.4 296.5 287.3 281.1 276.9 277.1 275 276.4 274.7 272.1 264.4 259.4 255.9 253.8 248.3 244.6 240.4 238.3 238.5 241.9 244.2 248.1 251.6 255.2 256.4 256.8 257.4 258.3 254.6 253.3 252.6 253.3 252.9 252.9 252.7 252.5 251.6 251.9 252.1 256 260.4 268.3 271.9 264.9 267 245.6 224.7 210.8 189.3 178.8 178.6 196.3 210.4 225 243.3 250.1 261.6 280.4 291 296 306.8 310.5 315.6 322.4 332.4 343.4 355.9 363.1 368.5 368 371.5 386 391.9 395.3 391.6 389.8 387.6 392.4 397.2 405.3 417.1 422.7 414 407.2 417.8 420.1 408.7 409.2 411.4 409.4 407.8 406.1 406.8 404.3 401.3 401.7 392.1 385.6 384 370.7 354.9 351.8 345.8 344.4 352.3 378.6 390.2 388.8 387 384 377 368.3 370.6 370.5 360.2 344.5 334.6 323.2 307.1 292.6 276.9 259.3 241.8 227.9 221.7 205.9 188.1 162.7 162.2 161.5 159.6 162.4 159.3 163.8 163.7 163.7 155 152.5 141.4 145.5 146.4 130.9 75.5 57.1 32 4.5 3.1 -1.3 -1.3 -1.3 -1.3 -1.3 -1.3 -1.3 -1.3 -1.3 -1.3 -1.3 -1.3 -1.3 -1.3 -1.3 -1.3 -1.3 -1.3 -1.3 -1.3 -1.3 -1.3 -1.3 -1.3 -1.3 -1.3 -1.3 -1.3 -1.3 -1.3 -1.3 -1.3 -1.3 -1.3 -1.3 -1.3 -1.3 -1.3
289.6 286.3 284.6 283.6 288.4 285.3 282.7 283.4 283.6 278.6 276.3 276.9 278.5 283.3 288.7 295 299.1 297.4 291 284.3 282 280.8 283.1 281.7 279.2 273.3 267.6 260.8 257.7 256.4 252.6 248.1 245.2 239.5 243.2 245.5 248.9 253.1 257 259.7 260.5 260.8 259.5 255.1 253.6 253 253.3 252.6 251.1 251.6 252.1 249.6 249.1 248.4 251.1 258.8 267 271.3 267.4 266.1 258.4 227.2 211.8 185.8 176.5 175.3 194.2 213.4 228.6 238.2 250.1 259.4 273.3 288.3 292.7 297.9 314.6 315.4 318.8 327 337.6 349.5 355.1 361.4 366.6 368.2 375.1 376.6 371.3 369.5 382 377.4 374.6 383.8 385.8 392.9 402.3 414.3 417.2 417.3 428.3 416.3 406.7 406.9 411.8 412.2 408.3 409.8 410.8 401.4 406.5 398.1 393.2 395.6 365.6 347.3 345.8 342.6 341.8 342.2 359.8 367.6 385.1 374.7 374.8 369 363.8 358.8 354.7 348.2 335.9 328.6 322.9 314.6 300.1 282 267 248.3 231.3 216.3 209.6 194.2 176.3 155.6 142.2 144.4 137.4 133.5 137.7 143 141.4 137.8 131.9 130.2 117.3 120.2 117.4 65.1 31.2 5.2 2.4 -1.3 -1.3 -1.3 -1.3 -1.3 -1.3 -1.3 -1.3 -1.3 -1.3 -1.3 -1.3 -1.3 -1.3 -1.3 -1.3 -1.3 -1.3 -1.3 -1.3 -1.3 -1.3 -1.3 -1.3 -1.3 -1.3 -1.3 -1.3 -1.3 -1.3 -1.3 -1.3 -1.3 -1.3 -1.3 -1.3 -1.3 -1.3 -1.3
291.1 291 288.6 290.1 290.7 286.3 285.4 286.1 285.2 283.1 281.5 281.7 279.9 285 295.9 300.2 302.7 302.9 300.4 298 290.7 285.9 287.5 290.6 287.9 279.8 274.3 269.3 262.4 262.2 255.6 251.8 248.9 246 245.3 245.7 250 254 259.1 262.3 263.6 263.1 260.9 257.6 256 254.2 253.4 252.1 251.1 250 250 247.8 246.8 246 245.2 246.5 256.6 256.4 259.6 254.3 249.3 225.8 201 184.3 173.6 176.7 192 207.5 221.4 235.9 247 257 265.2 278.7 276 278.3 283.5 300.3 320.6 321.3 327.9 340.6 346.5 351.7 355.7 362.7 367.9 371.8 364.6 361.2 361.9 370.6 372.8 377.6 380.6 383.2 397.9 401.9 421 431.9 426.3 420.4 413.4 408.1 412.2 408.2 398.2 388.8 391.1 385.8 382.7 377.7 383.2 378 358.6 347.5 337.5 331.3 336.2 338.2 333.2 335.9 352.5 369 364.5 354 359 357.2 355 343 329.2 315.6 312 307.6 299 285.4 268.7 253.5 238.3 224 205.8 196 179 162.2 143 131.6 130.4 126.6 124.6 124.7 117.2 120 117.9 113.9 97.8 71.7 48.7 26.4 2.8 2.3 -1.3 -1.3 -1.3 -1.3 -1.3 -1.3 -1.3 -1.3 -1.3 -1.3 -1.3 -1.3 -1.3 -1.3 -1.3 -1.3 -1.3 -1.3 -1.3 -1.3 -1.3 -1.3 -1.3 -1.3 -1.3 -1.3 -1.3 -1.3 -1.3 -1.3 -1.3 -1.3 -1.3 -1.3 -1.3 -1.3 -1.3 -1.3 -1.3 -1.3
290.9 294.4 293.3 292.9 292.9 294.5 291.3 292 297.2 295.2 293 289.8 286.5 290.4 293.5 300.7 307.1 304.7 304.1 302.7 301.6 292.8 292 293.2 293.8 286.6 279.3 276.3 272 265.7 260.6 257.6 253.3 252.9 251.5 257.1 258 255.9 260.4 266 265.7 265 261.5 259.5 257.5 255.2 253.7 252.5 251.6 250.6 249.8 250.5 248.2 246.8 246 240 245 241.7 236.9 233.8 225 218 193.5 183.1 169.7 172.5 189.4 203.2 217 229.6 233.5 254.1 259.5 262.7 266.3 267.2 273 284.2 305.9 310.6 321.3 328 336 343.5 344 351.2 353.3 358.7 359 356.5 353.9 356.3 368.1 372.9 375 379.7 387 389.6 405.9 431.4 431.6 424.2 420 409 403.1 398 393.4 390 384.6 380.7 380.1 377.7 370.3 358.6 350.9 341.3 330 325.3 328.2 327.4 329.6 328.3 331.4 333.2 344.5 347.2 334.2 348.2 347.4 337.2 327.3 314.2 299.7 297.7 289.8 281.4 268 253.3 237.9 226.8 214 198.6 183.4 165.1 141 125.8 117.4 118.2 111.6 108 107.9 105.9 104.6 101 83.4 51.4 11.3 3.1 2.3 -1.3 -1.3 -1.3 -1.3 -1.3 -1.3 -1.3 -1.3 -1.3 -1.3 -1.3 -1.3 -1.3 -1.3 -1.3 -1.3 -1.3 -1.3 -1.3 -1.3 -1.3 -1.3 -1.3 -1.3 -1.3 -1.3 -1.3 -1.3 -1.3 -1.3 -1.3 -1.3 -1.3 -1.3 -1.3 -1.3 -1.3 -1.3 -1.3 -1.3 -1.3
284.7 291.7 293.2 291.7 290.2 296.9 298 303.6 310.6 309.2 303.2 295.7 294.7 296.4 302.2 303.7 306.2 309.8 312 310.9 307.4 298 296 295.8 293.4 288.6 285.7 281.8 279.2 276.7 271.5 263.3 263 264.1 262.7 261.2 262.9 261.9 264 267.2 268.5 267.5 264.7 259.7 257.5 256.7 254.2 252.7 252.7 252.5 251.5 251.8 251.1 250.2 250.2 244.8 235.1 232.4 228.7 220.5 211.6 198.3 185.9 181.7 168.7 163.5 183.8 199.6 207.4 213.8 223.7 246.9 255.5 259.2 262.4 265.2 270.6 280.1 292.5 307.1 302.5 317.9 322 332.2 329.4 334.5 342.7 348.9 350.5 353.8 349.2 349.9 360.5 365.8 373.6 377.8 380.5 391.8 397.7 423.1 436.3 433.1 429.2 414.7 408.7 399.2 394.1 388.5 382.1 369.9 371.7 370.7 363.2 359.7 349 332.7 323.7 318.9 313.6 319.6 325.7 322.5 324.5 327.8 320.5 325.2 326.4 319.2 322.4 324.9 319 303.2 294.2 283.8 279.5 273 265.2 252.2 236.3 225.1 213.2 204.7 189 173.1 148.5 127.1 110.3 109.7 106.2 102 97 86.6 89.2 90.7 84.9 66.5 3.7 1.6 -1.3 -1.3 -1.3 -1.3 -1.3 -1.3 -1.3 -1.3 -1.3 -1.3 -1.3 -1.3 -1.3 -1.3 -1.3 -1.3 -1.3 -1.3 -1.3 -1.3 -1.3 -1.3 -1.3 -1.3 -1.3 -1.3 -1.3 -1.3 -1.3 -1.3 -1.3 -1.3 -1.3 -1.3 -1.3 -1.3 -1.3 -1.3 -1.3 -1.3 -1.3 -1.3
278.2 281.6 284.7 290.1 289.6 295.6 297.6 306.8 313.8 313.7 312.6 304.8 303.8 302.7 307.5 307.2 310.6 311.3 315 314.7 316.2 312.6 302.7 300.6 295.4 294.5 293 291 288.8 284.3 280.4 275.2 275.8 274.6 269.9 271.5 271.6 270.5 271.8 273 273 269.9 263.5 260.3 259.1 256.3 254.3 254 254 253.5 253.3 252.9 252.6 253.9 252.8 248.8 234.6 225.3 218.5 212.8 203.7 188.2 182.1 172.4 165.4 157.2 175.3 192.1 198.8 206.9 215.6 226 240.9 256.8 261.1 264.4 269 276.2 284.6 297.6 298.5 300.9 300 307.4 318.1 316.5 315.2 319.4 324.3 333.9 347.6 345.1 346.1 358.5 372.3 376.3 379.1 386.5 401.5 424 445.8 439 439.1 423.4 408.2 400.7 397.5 389.4 370.7 358.5 358.1 354.5 355.8 351.2 338.1 321.6 319.3 315 307.3 308.4 315.2 319.2 318.9 319.8 315.9 317.9 316.7 315.4 312.6 304.6 301.6 286.6 284.2 281.4 269.1 264.4 258.9 248.7 236 220.1 208.6 203.4 193 177.4 154.5 129.8 110.8 100 98.8 96.4 91.7 85.8 82.9 80.8 61.5 2.7 3.9 0.7 -1.3 -1.3 -1.3 -1.3 -1.3 -1.3 -1.3 -1.3 -1.3 -1.3 -1.3 -1.3 -1.3 -1.3 -1.3 -1.3 -1.3 -1.3 -1.3 -1.3 -1.3 -1.3 -1.3 -1.3 -1.3 -1.3 -1.3 -1.3 -1.3 -1.3 -1.3 -1.3 -1.3 -1.3 -1.3 -1.3 -1.3 -1.3 -1.3 -1.3 -1.3 -1.3
273.4 275.3 284.1 287.5 291.9 293.4 298 303.9 309.7 314.4 315.9 314.5 311.8 311.5 313.1 315.1 313 315.4 317.9 318.1 319 316.7 308.5 308.2 304.5 303.4 305.1 300.5 297.2 294.6 289.7 285.7 287.8 290.7 282.5 281.6 280.4 279.5 279.5 278.2 276.5 271.1 270.1 266.7 261.4 258.9 257.2 255 254.5 254 253.5 254.1 250.7 250 248.5 246.2 230 217.5 207.5 201.6 186.4 181.5 176.6 166.2 163.3 156.5 166.8 186.5 191.2 200 214.7 218.9 225.2 247.8 260.1 265 269.7 281.8 286 291.3 290.1 287.9 300.9 302.6 310.5 307.4 305.2 302.7 307.9 316.3 336.1 334.4 337.8 348 358.5 371.4 375.5 378.2 400.8 422.9 445.3 445.1 442.5 435.3 410.4 397.6 390.7 375 350.7 344 339.1 336.4 334 328.8 320.8 323 315.4 308.1 306.3 296.7 301.5 307.1 307.8 308.3 311.7 312.1 314.4 313.7 308 296.6 285.5 281.8 273.4 276.2 266.8 252.9 249.7 241.9 231.2 213.4 201.3 195.6 188.4 174.1 158.4 127.6 109.2 93.7 94.4 92.3 87.8 80 76.5 75 66.1 3 1 -1.3 -1.3 -1.3 -1.3 -1.3 -1.3 -1.3 -1.3 -1.3 -1.3 -1.3 -1.3 -1.3 -1.3 -1.3 -1.3 -1.3 -1.3 -1.3 -1.3 -1.3 -1.3 -1.3 -1.3 -1.3 -1.3 -1.3 -1.3 -1.3 -1.3 -1.3 -1.3 -1.3 -1.3 -1.3 -1.3 -1.3 -1.3 -1.3 -1.3 -1.3 -1.3 -1.3
270.8 274.9 281.4 288.6 292.2 294.9 295.2 298.6 309 312.4 316.3 317.1 317.5 317.9 319.6 319.3 321.7 326.1 326 323.7 324.6 324.5 318.3 315 312 310.5 310.5 310.6 307.8 307.2 297.7 295.5 298.1 299.3 294.3 290.5 290 290.3 290.3 285.2 281.2 277.2 276.2 272.4 267.9 264.7 260.9 259.1 255.2 254.6 251.3 250 246.6 242.4 232 233.9 218.2 216.8 202.7 188.5 185.3 179.7 166.5 161.7 155.5 145.8 160.6 181.9 190.4 188.3 210.6 216.9 221.8 234.6 256.6 267.5 271.9 280.4 280.9 282.6 284.9 271.8 286.7 290.8 300.1 306 302.7 302.7 302.7 306.1 329.7 327.9 327.2 332.7 340.9 359.2 371.1 375.6 385.2 413.1 425.5 447.6 443.3 435.4 410.2 394 383.9 361.2 348.6 343.8 335.5 318.6 311.1 307.8 311.7 309.3 309.6 299.3 298 296.5 298 291.4 301.2 302.2 302.2 300.7 315 314.4 304.6 295.8 290 281.6 267.8 261.3 259.3 251.2 236.9 230.8 221.5 205.2 195.1 186.4 182.7 173.2 157 129.3 113.6 89.9 81.6 81.2 81.1 78.7 71.5 69.3 47.5 2.3 -1.3 -1.3 -1.3 -1.3 -1.3 -1.3 -1.3 -1.3 -1.3 -1.3 -1.3 -1.3 -1.3 -1.3 -1.3 -1.3 -1.3 -1.3 -1.3 -1.3 -1.3 -1.3 -1.3 -1.3 -1.3 -1.3 -1.3 -1.3 -1.3 -1.3 -1.3 -1.3 -1.3 -1.3 -1.3 -1.3 -1.3 -1.3 -1.3 -1.3 -1.3 -1.3 -1.3 -1.3
269.7 272.4 282.3 286.4 288.5 291.9 295.8 296.6 304.6 311.7 315.9 319.4 323.1 324.6 325.3 325.6 328.4 334 340.9 337.7 332.3 327.7 325.4 322.1 318.7 316.9 315 314 314.8 315.4 313.2 308.7 304.8 302.6 302.8 298 295.5 296.3 297.1 293.3 285.9 283.5 279.4 277.3 272.4 269 265.8 264.7 261.7 257.3 250.1 243.8 243.4 240 240.3 234.8 220.6 210.1 203.2 193.6 188.2 182.9 176.5 165.5 142.1 136.9 137.5 167 177.4 179.6 196 214.7 215.6 223.9 239.7 253.8 267.3 273.7 279 277.5 266 258.9 271.6 283 289.2 297.7 304.4 302.7 302.7 302.7 313.7 328.7 317 323.1 338.3 343.6 359.1 373.5 375.7 399.3 421.8 428.1 448.1 441.9 412.6 390.8 376.1 364.1 347 339.9 321.1 318 310.1 295.2 297.9 294.5 292.4 292.6 290.9 283.7 277.8 284.1 279.2 285.1 296.8 299.1 301.8 308.8 302.1 287.7 276.3 270.6 261.3 256.2 245.2 235.1 227.7 218.3 210.9 194.8 184.8 177.8 173.5 170.5 154.9 128.6 115.7 91.8 81.8 66.1 72.2 74.9 72 62.7 3.9 2 -1.3 -1.3 -1.3 -1.3 -1.3 -1.3 -1.3 -1.3 -1.3 -1.3 -1.3 -1.3 -1.3 -1.3 -1.3 -1.3 -1.3 -1.3 -1.3 -1.3 -1.3 -1.3 -1.3 -1.3 -1.3 -1.3 -1.3 -1.3 -1.3 -1.3 -1.3 -1.3 -1.3 -1.3 -1.3 -1.3 -1.3 -1.3 -1.3 -1.3 -1.3 -1.3 -1.3 -1.3
268.6 269.9 277.2 284.4 286.1 288 294.6 294.8 296.9 313.1 315.9 317.6 320.5 323.6 325.4 326 329.1 336.2 346 346.7 344.6 341.7 334.6 331.2 328.1 326.5 323.9 321.1 319.9 320.7 321.3 318.5 310 309.1 307.8 304.8 301.4 301.7 300.4 299.2 294.7 290 285.5 283.3 279.6 276.2 273.8 272.7 265.9 255.9 252.8 249.6 247.7 245.9 243 236 222.9 213.5 205.6 203.3 190.1 187.7 183.3 168.8 144.8 118.7 119.8 143.1 176.3 182 185 204.4 208.2 218.6 226.9 240.7 243.9 245.1 247.4 250.1 249.1 249.8 254.2 272 280.6 289.5 297.6 301.4 302.7 302.7 302.7 321.9 318.7 312.9 323.9 336.4 342.8 367.5 376.1 381.7 405.5 424.3 428.6 431 415.1 385.9 370.7 359.8 346.9 328.3 322.6 314.3 301.6 289.9 278.4 285.3 282.2 282.1 279 281.6 270.9 270.8 272.8 274.9 278.6 286.7 298.8 296.9 291.3 284.2 278.1 270.9 257.1 244.7 236.5 224.7 208.6 195.1 193.8 179.6 171.3 166.8 164.2 161.4 151.1 138.5 122.8 100.5 82.6 74.2 51.3 68 63 5.9 2.4 -1.3 -1.3 -1.3 -1.3 -1.3 -1.3 -1.3 -1.3 -1.3 -1.3 -1.3 -1.3 -1.3 -1.3 -1.3 -1.3 -1.3 -1.3 -1.3 -1.3 -1.3 -1.3 -1.3 -1.3 -1.3 -1.3 -1.3 -1.3 -1.3 -1.3 -1.3 -1.3 -1.3 -1.3 -1.3 -1.3 -1.3 -1.3 -1.3 -1.3 -1.3 -1.3 -1.3 -1.3 -1.3
274.2 277.6 281.7 284.2 284 286.2 288.4 291 294.6 306.9 312.8 313 314.7 317.1 320 323.6 326.1 334.1 343.4 350.7 350.6 347 348 343.1 341 343.5 338.8 335.3 333.8 328.3 327.2 324.7 317.9 315.2 311.7 311.4 308.4 305.2 302.9 301.1 299.6 296.1 289.6 286.8 285.4 282 278.3 273.6 269.7 258.9 257 252.8 252.2 250.2 244.9 237.5 227.5 221.7 210.8 205 195.1 191.3 185.1 171 147.6 132.8 97.5 126.4 152.2 179.4 182.8 188.7 207.3 213 218.1 225.7 229.2 235 239 239.1 243.1 247.1 252.9 257.4 269 280.2 290.8 294.5 301 305.8 310.1 318.1 313.7 309.2 312.7 322 338.5 361.3 377 377.5 386.4 410.4 417 422.2 413.9 388.4 366.1 359.8 340 330.4 322.4 311.5 300.7 288.4 269.3 271.1 272.9 274.1 270.5 264.8 264.2 251 262.9 269.3 273.5 270.3 281.8 283.2 294.6 288.7 280.5 271.4 255.6 236.9 224.9 213.7 210.5 196.3 172.8 161.6 159 155.1 152.6 148.2 145.9 140.3 128.4 112.5 90.5 83.7 68.4 26.5 6.8 2.8 1.2 -1.3 -1.3 -1.3 -1.3 -1.3 -1.3 -1.3 -1.3 -1.3 -1.3 -1.3 -1.3 -1.3 -1.3 -1.3 -1.3 -1.3 -1.3 -1.3 -1.3 -1.3 -1.3 -1.3 -1.3 -1.3 -1.3 -1.3 -1.3 -1.3 -1.3 -1.3 -1.3 -1.3 -1.3 -1.3 -1.3 -1.3 -1.3 -1.3 -1.3 -1.3 -1.3 -1.3 -1.3 -1.3
277.9 286.5 285.7 284.4 283.7 283.9 285.3 288.2 293.2 295 301.5 305.3 310.9 311.6 315.9 317.6 321.1 325.9 330.4 332.7 338.3 343.3 351.7 354.4 351.2 354.4 351.7 345.4 343.8 344.2 339.7 336.6 331 330.2 325.1 319.9 314.1 311.7 308 306.1 304.8 300.3 297.5 291.8 289.7 285.1 281.7 279.1 274.7 267.9 260.3 256.6 254.1 250.6 249.8 238.8 234 226 221.8 213.9 204.7 196.7 179.1 174 155.7 126.2 101.4 113.4 136.9 161.3 175.4 176.9 204.2 209.5 213.6 218.9 227.4 232.6 235.8 233.8 241.4 248.8 252 257.4 262.5 267 277.6 285.5 291.1 297.2 301.8 311.4 312.5 305.8 313.3 313.6 327 346.1 363.3 377.6 376.5 386.8 405.4 405.5 404.6 387.4 370.4 350.9 336.3 317.3 316.6 302.8 295.3 279 265.2 263.7 263.7 263.9 260.2 255.8 255.3 250.5 245 251.8 258.2 256.9 263.3 270 277.4 281.1 279 269 248.1 239.7 229.7 214.5 204.6 197.8 181.5 170.9 152.8 138 139.1 134.8 134.2 136 128.6 114.2 94.8 84.5 61.8 48.4 3.4 2.3 -1.3 -1.3 -1.3 -1.3 -1.3 -1.3 -1.3 -1.3 -1.3 -1.3 -1.3 -1.3 -1.3 -1.3 -1.3 -1.3 -1.3 -1.3 -1.3 -1.3 -1.3 -1.3 -1.3 -1.3 -1.3 -1.3 -1.3 -1.3 -1.3 -1.3 -1.3 -1.3 -1.3 -1.3 -1.3 -1.3 -1.3 -1.3 -1.3 -1.3 -1.3 -1.3 -1.3 -1.3 -1.3 -1.3
275.9 285.4 286.2 284.8 281.3 282.4 281.8 284.5 288 292.7 295.5 302.5 304.9 304.5 307.2 313 315.5 318.6 320.2 322.8 326.6 333 347.1 350.4 353 355.7 356.2 352.8 351.7 353.2 350.1 346.7 341.8 337.6 334.6 329.1 324.6 314.2 311.8 311.1 308.5 305.6 302 296.5 292.2 289.6 284.4 285 280.7 277.3 271.6 267.8 260.5 257.3 253.4 249.4 240.9 231.5 227.5 227.9 214.1 203.7 189 170.8 159.8 125.4 102 97.6 120 137.6 155.7 166.6 185 201.2 200 208.9 213.9 221 229.9 231 233.1 237.1 241.1 248.5 256.4 260.4 264.9 277.6 279.8 289.7 297.7 304.5 309.3 302.9 310.3 309 321.7 329.3 346 371.9 375.4 375.2 385.7 397.2 397.1 384.6 364.8 352.2 328.8 320 306.2 303.2 295.3 275.3 269.5 264.6 257.4 249.2 248.1 243.1 244.4 244.4 231.4 234.7 240.4 241.9 254.1 259.7 266 270.5 270.1 261 249.4 235.7 224.3 215.3 206.7 195.9 185.4 177 170.1 150.6 127.9 110.7 119 120.6 120.5 111.2 94.4 52.9 50.5 4.9 2 -1.3 -1.3 -1.3 -1.3 -1.3 -1.3 -1.3 -1.3 -1.3 -1.3 -1.3 -1.3 -1.3 -1.3 -1.3 -1.3 -1.3 -1.3 -1.3 -1.3 -1.3 -1.3 -1.3 -1.3 -1.3 -1.3 -1.3 -1.3 -1.3 -1.3 -1.3 -1.3 -1.3 -1.3 -1.3 -1.3 -1.3 -1.3 -1.3 -1.3 -1.3 -1.3 -1.3 -1.3 -1.3 -1.3 -1.3
263.4 277.3 280 277.2 277 278.1 284.3 288.4 289.2 289.9 293.1 295.8 301.8 300.6 301.8 307.9 311.1 310.6 314.3 316.6 320.7 323.1 327.7 333.8 342.1 350.7 355.9 355.7 355.8 356.6 356.1 348.5 349 350.6 346 336 328.1 319.4 318.4 316.1 313.2 312.8 307.3 301.6 294.9 291.6 288.7 289.1 288.4 286.7 283.1 278.6 271.8 265.8 258.5 255.3 249.5 236 229.3 226.8 223.8 216.9 199.5 174.6 164.9 133.1 103 87.2 104.5 115.8 140.3 161.7 167.8 175.5 179.5 188.8 198.4 203.2 204.4 215.6 230.2 233 238 242 244.2 244.6 256.5 265.9 272.3 282.6 291.6 299.9 305.3 302.4 304.5 302 309.8 324.8 340.4 358.4 371.9 374.7 378.6 385 381.1 377.5 365.7 349.3 331.6 312.4 304.8 302.5 294.7 283 268.9 262.7 252.5 240.8 239.7 225.1 231.8 236.4 231.8 214.6 229.5 233.2 240.8 247.1 252.1 258.5 262.5 254.8 246.1 236.3 222.1 214.9 206.2 197.8 186.9 178.3 169.5 159.5 146.4 127.3 97.9 76.6 82.1 95.7 84.6 37.7 7.6 2.4 -1.3 -1.3 -1.3 -1.3 -1.3 -1.3 -1.3 -1.3 -1.3 -1.3 -1.3 -1.3 -1.3 -1.3 -1.3 -1.3 -1.3 -1.3 -1.3 -1.3 -1.3 -1.3 -1.3 -1.3 -1.3 -1.3 -1.3 -1.3 -1.3 -1.3 -1.3 -1.3 -1.3 -1.3 -1.3 -1.3 -1.3 -1.3 -1.3 -1.3 -1.3 -1.3 -1.3 -1.3 -1.3 -1.3 -1.3 -1.3
253.4 263.1 270.7 272.5 271.6 277.2 283.2 289.6 290 291.1 289.1 290.2 293.3 298.2 300.4 303.1 308.4 302.8 303.2 306.7 312.8 314.3 320.3 324.1 329.8 339.4 347.8 350.9 353.3 355.5 355.7 352 357.5 362.4 356.3 341.6 330.8 328.8 323.3 326 319.2 316 312.4 308.3 299.4 297.6 296 294.2 293.4 292.1 289.6 286.2 278.6 270.2 264.8 261.2 258.7 254.5 231.3 228.7 226.3 218.6 207.1 181.2 167.4 141.4 113.5 83.5 88.5 98.4 118.5 139.8 146.9 151.7 161 178.2 182.5 186.5 187.9 191.8 206 214.6 235.8 236.4 236.3 236.3 240.8 259.3 268.7 276.1 287.6 295.4 299.4 294.8 298.8 298.4 303.8 316.6 331.5 345.7 361.5 373.1 382.9 385.2 380.5 377.3 366 347.9 322.6 316 311.8 302.6 292.7 283.2 268 256.5 246.8 230.9 225.1 217.3 216.7 219.4 222.9 212.3 206.8 217.5 229 235.3 243 246 250.3 250.2 246.5 236.5 226.4 216.2 207.4 196.4 187.6 178.4 172.9 161.6 149.6 139.1 126 109.3 82.3 35.5 27.9 11.6 2.3 1.4 -1.3 -1.3 -1.3 -1.3 -1.3 -1.3 -1.3 -1.3 -1.3 -1.3 -1.3 -1.3 -1.3 -1.3 -1.3 -1.3 -1.3 -1.3 -1.3 -1.3 -1.3 -1.3 -1.3 -1.3 -1.3 -1.3 -1.3 -1.3 -1.3 -1.3 -1.3 -1.3 -1.3 -1.3 -1.3 -1.3 -1.3 -1.3 -1.3 -1.3 -1.3 -1.3 -1.3 -1.3 -1.3 -1.3 -1.3 -1.3
244.7 250.9 254.7 262.4 266.4 267.8 273.4 277.7 282.7 282.7 286 288.8 289.8 292.9 300.4 300.4 301.7 298.5 301.1 303.6 308.9 308.5 311.3 316.3 322.4 328 337 344.4 347.3 349.8 351.2 353.1 362.7 361.7 360.1 348.9 335.9 332.4 331.7 328.2 320.4 316.4 313.2 310 304.8 302.1 301.7 297.7 296.5 294.6 294.2 291.2 280.9 276.2 271.5 266.8 264.1 260.9 242.5 231.6 226.9 219.9 215.3 190.6 169.5 146 121.5 82.6 76.1 85.1 91.7 106.7 124.4 135.4 142.7 161.8 176.7 184.4 186.7 190.4 192.4 196.5 217.2 222.6 227.7 238.9 254.2 261.4 256.3 272.6 280.7 290.1 295.5 294.4 291.5 294 304.4 307 320.1 334.1 351.8 369 376.1 383.8 381 376.3 364.3 347.6 325.2 314.6 309.2 303.8 291.9 278.9 259.7 252.2 239.9 226.6 219.4 214.1 193.4 201.2 203.2 199 179.3 194.1 207.3 218.5 230.4 231 234.6 236.3 236.3 233.3 225.5 216 206.6 199.8 188.4 179.2 166.6 156.5 143.8 137.9 126.5 116.5 100.2 61.6 21.6 3.4 0.8 -1.3 -1.3 -1.3 -1.3 -1.3 -1.3 -1.3 -1.3 -1.3 -1.3 -1.3 -1.3 -1.3 -1.3 -1.3 -1.3 -1.3 -1.3 -1.3 -1.3 -1.3 -1.3 -1.3 -1.3 -1.3 -1.3 -1.3 -1.3 -1.3 -1.3 -1.3 -1.3 -1.3 -1.3 -1.3 -1.3 -1.3 -1.3 -1.3 -1.3 -1.3 -1.3 -1.3 -1.3 -1.3 -1.3 -1.3 -1.3 -1.3
237.5 236.8 241.3 252.8 254.6 259.1 262.2 268.2 271.8 275.7 281.8 286.2 286.4 285.5 285.5 294.7 294.7 297.2 301.9 301.3 302.4 305.4 304.6 306.2 312.6 322 326.3 334.7 342.1 347.3 348.2 351.1 361 364.2 361.2 357 352.4 341.1 338.1 333.8 327.1 320.2 316.8 314.5 310.4 306.8 306.4 301.9 299 296.5 294.1 292.8 292 287.9 282.3 278.2 270.3 266.1 248.6 235.3 230.6 224.8 215.2 196.3 171.3 152.1 125.1 85.8 46.6 50 62 79.2 90.5 107.5 129.9 135.2 151.9 156.6 162.6 177.6 191.6 193.7 201.7 207.3 221.9 235.1 255.6 262.5 267 269.1 272.2 274.7 280.8 286.5 287.4 290.7 300 303.8 308 318.4 339.8 361.5 368.6 371.4 373.7 371.4 364.5 342.6 322.8 315.4 296.1 295.6 287.3 263 257.3 248.2 233 223.3 217.2 190.2 188.5 186.7 184.2 179.1 174.6 173.2 185.6 194.1 205.6 218.5 217.6 223.4 221.9 220.5 213.6 208.6 202.1 193.4 185.8 174.3 162.3 147.2 139.9 136.7 126.1 116.9 101.3 71.4 23 3.6 -1.3 -1.3 -1.3 -1.3 -1.3 -1.3 -1.3 -1.3 -1.3 -1.3 -1.3 -1.3 -1.3 -1.3 -1.3 -1.3 -1.3 -1.3 -1.3 -1.3 -1.3 -1.3 -1.3 -1.3 -1.3 -1.3 -1.3 -1.3 -1.3 -1.3 -1.3 -1.3 -1.3 -1.3 -1.3 -1.3 -1.3 -1.3 -1.3 -1.3 -1.3 -1.3 -1.3 -1.3 -1.3 -1.3 -1.3 -1.3 -1.3 -1.3
234.2 232.9 234.7 235.2 238.5 249.7 251.9 259.6 265.8 270.7 275.5 282 279.4 279.6 280.4 284.2 288.9 292.6 295.6 297.4 299.9 302.7 302.5 302.1 307.3 313 318.1 323.5 331.1 340.6 344.9 349.1 354.5 361.3 361.3 360.7 362.7 355.9 348.4 345.5 335.7 329 325.4 322.6 319.2 311.4 308.3 305.7 300.7 299.2 297 294.1 292.6 292.1 289.7 286 278.8 271.4 268.6 246.1 231.7 227.4 222.7 201 178.3 164.6 140.6 93.7 53.8 27.9 39.5 43.8 59.9 73 85.9 104.7 126.9 121.8 127.3 140.5 154.5 169.7 183 208.6 223.4 232.2 250.9 261.9 266.1 267.8 269.5 269.4 275.1 281.5 291 293.6 299.8 303.6 307.8 308.6 317.8 344.1 367.2 371.4 367.2 363.9 359.6 337.4 321 317 296.8 289 282.8 263.1 256.4 237.5 232.2 219.5 207.2 190.5 182.3 179.6 173.1 166.7 160.6 152.9 160.8 168.1 180.4 193 202 208.5 205.6 201.6 202.5 200.8 196.4 187.1 178.6 165.7 154.2 143.1 133.5 127 123.5 119.1 99.7 51.9 5.6 2.3 -1.3 -1.3 -1.3 -1.3 -1.3 -1.3 -1.3 -1.3 -1.3 -1.3 -1.3 -1.3 -1.3 -1.3 -1.3 -1.3 -1.3 -1.3 -1.3 -1.3 -1.3 -1.3 -1.3 -1.3 -1.3 -1.3 -1.3 -1.3 -1.3 -1.3 -1.3 -1.3 -1.3 -1.3 -1.3 -1.3 -1.3 -1.3 -1.3 -1.3 -1.3 -1.3 -1.3 -1.3 -1.3 -1.3 -1.3 -1.3 -1.3 -1.3
227 229.5 230.3 233 235.5 236.3 239.1 249.5 260.2 267.6 273.6 275.4 274.8 276.2 279 280.9 285.3 290.2 287.8 283.6 289.4 298.4 300.5 296.3 299.5 305.9 312.3 317.1 323.6 334.2 343.8 350.7 357.9 366.5 364 365.3 367.5 366.3 364.1 361.6 349.5 337.8 332.8 327.7 324.7 316.9 311.6 308.6 303.6 300.8 298.4 295.7 293.9 292.6 290.6 286.7 280.8 277 273.4 251.3 233.9 231.3 227.9 208 181.6 162.7 137.9 91.5 54.5 28.6 17.9 34.3 39.3 42.6 55.8 70.1 87.4 98.8 108.6 118.4 125.8 132.3 157.1 175.9 196.5 225.4 239.6 257.1 268 268.8 270.4 270.8 279.3 282.8 289.9 297.6 297.9 300 305.7 310.1 311 324.8 348.8 360.5 361 352 338.6 320.4 310.4 301 292.5 286.3 278.6 263.1 245.7 234.3 229.5 217.8 203.5 185.8 178.5 169.8 161.7 151.9 146.9 141 143.5 150.2 153.6 164.1 180.6 197.9 197.7 193.5 185.7 188.2 188.1 181 171.1 152.7 141.9 133.9 127.1 118 120.2 110.8 78.6 8.1 2.4 -1.3 -1.3 -1.3 -1.3 -1.3 -1.3 -1.3 -1.3 -1.3 -1.3 -1.3 -1.3 -1.3 -1.3 -1.3 -1.3 -1.3 -1.3 -1.3 -1.3 -1.3 -1.3 -1.3 -1.3 -1.3 -1.3 -1.3 -1.3 -1.3 -1.3 -1.3 -1.3 -1.3 -1.3 -1.3 -1.3 -1.3 -1.3 -1.3 -1.3 -1.3 -1.3 -1.3 -1.3 -1.3 -1.3 -1.3 -1.3 -1.3 -1.3 -1.3
224.3 225.7 228.2 231.5 232.7 233.5 237.4 242.3 256 261.3 267.1 269.5 266.9 267.9 270.1 273.7 281.1 286.6 284.8 275.9 281.6 286.3 286.7 289.1 294.4 299 304.2 314.3 320.6 331.9 344 350.5 361.7 365.8 370.1 368.8 370.3 371.3 371.8 370.8 358.5 349.3 337.6 331.6 329 324.6 315.6 312 308.1 303 299.7 296.3 293.5 291.6 291.6 289.6 284.5 281.4 274.9 256.2 235.9 235.5 232.7 212.4 182.9 152.1 108.2 77.8 45.3 24.9 19.5 16 30.3 31.7 35.6 43.6 51.4 60.5 67.1 85.7 93.7 114.7 130.7 144.9 157.8 181.3 205.1 234.1 249.7 266.7 271.6 273.9 276.6 281.4 290.4 298.2 296.8 298.4 306.5 308.6 308.6 311.1 328.3 347.6 351.3 338.9 318.3 311.2 299.6 290.5 289.9 282.4 267.5 264.8 245 232.9 224.2 205.5 193 184.9 172.5 157.2 144 140.8 134.6 127.6 124.4 130.5 139.2 144 154.5 174.8 182.2 181.1 179.4 173.2 171.6 167.6 157.5 141.1 131 124.6 115.6 110.5 106.7 75.7 17.7 3.8 2.3 -1.3 -1.3 -1.3 -1.3 -1.3 -1.3 -1.3 -1.3 -1.3 -1.3 -1.3 -1.3 -1.3 -1.3 -1.3 -1.3 -1.3 -1.3 -1.3 -1.3 -1.3 -1.3 -1.3 -1.3 -1.3 -1.3 -1.3 -1.3 -1.3 -1.3 -1.3 -1.3 -1.3 -1.3 -1.3 -1.3 -1.3 -1.3 -1.3 -1.3 -1.3 -1.3 -1.3 -1.3 -1.3 -1.3 -1.3 -1.3 -1.3 -1.3 -1.3
221.9 222.9 224.5 227.2 230.6 232.7 233.9 235.7 249 255.8 261.8 261.6 259 260.2 263.6 268.2 270.9 276.6 279.1 271.6 273.4 282.2 290.8 296.2 296.7 295.4 300.7 309.3 317.8 325 335.2 346.8 358 368.7 369.4 368.8 369.8 372.6 374.8 373.7 365.5 349.7 341.2 336.9 334.3 327.5 318.4 314.4 311.5 307 302.1 298.1 292.8 290.9 291.9 291 287.2 284 275.7 257.5 236.5 235.5 231.4 212.4 179.4 147.8 103.2 70.2 41.2 24.4 20.4 12.8 19.7 24.9 23.9 26.5 31 32.9 42.6 48.5 56.9 78.3 94.5 108.7 128.8 149.6 176.1 200.4 225.6 258 268.4 274 277.1 280.5 284.8 287 300.9 300.4 307.2 312.4 311.1 308.5 314.6 335.3 332.5 319.4 305 287.3 288.4 282.6 280.5 264 261.8 262.7 253.6 230.2 219.7 199.3 187.4 181.5 170.6 158.5 146.9 134.7 126.7 120.7 114.9 108.3 120.2 129.1 133.7 143.8 159.7 170.9 168.1 161.5 157.9 154.6 142.4 132 119.3 106.8 96.9 85.5 52.4 39.7 4.8 3.1 -1.3 -1.3 -1.3 -1.3 -1.3 -1.3 -1.3 -1.3 -1.3 -1.3 -1.3 -1.3 -1.3 -1.3 -1.3 -1.3 -1.3 -1.3 -1.3 -1.3 -1.3 -1.3 -1.3 -1.3 -1.3 -1.3 -1.3 -1.3 -1.3 -1.3 -1.3 -1.3 -1.3 -1.3 -1.3 -1.3 -1.3 -1.3 -1.3 -1.3 -1.3 -1.3 -1.3 -1.3 -1.3 -1.3 -1.3 -1.3 -1.3 -1.3 -1.3 -1.3
218 217.1 223 224.3 227.4 228 230.8 231.8 236.2 242.9 251 251.4 251.5 253.3 260.7 262.9 262.7 264.8 265.1 271.5 278.8 284.9 287.7 289.2 294.2 297.2 299.2 303 308 319.5 333.9 349.4 357.9 365.2 366.7 366.3 367.7 369.1 373.7 374.3 365.6 348.5 340.4 337.6 335.1 324.3 318.6 316 311.4 307.9 301.8 298.3 291.6 287.2 290.9 288 287.1 284.2 266.9 256.5 239.1 233.2 229.7 192.8 174.8 139.7 99.6 66.5 37.9 23.2 18.3 14.1 10.3 21.6 20.9 22 23.4 23 25.2 32.1 39.5 53.2 63.7 78.4 93.1 116.8 136.9 161.2 191.4 214.9 222.9 240.8 245.1 254.4 247.8 262.9 272.1 281.3 287.8 304.3 315.5 309.5 305.2 305.5 302.3 296.9 286.9 279.2 279.5 279.6 264.3 262 251.4 240.6 245.1 232.9 212.3 199.2 186 180.4 169.7 161.9 150.3 137.6 123.4 114.9 106.6 105 103.8 106.3 115.3 117.4 128.6 135.1 146.5 148.4 140.9 136.7 127.9 117.2 101.5 90.7 68.7 46.4 27 7.8 2.4 1 -1.3 -1.3 -1.3 -1.3 -1.3 -1.3 -1.3 -1.3 -1.3 -1.3 -1.3 -1.3 -1.3 -1.3 -1.3 -1.3 -1.3 -1.3 -1.3 -1.3 -1.3 -1.3 -1.3 -1.3 -1.3 -1.3 -1.3 -1.3 -1.3 -1.3 -1.3 -1.3 -1.3 -1.3 -1.3 -1.3 -1.3 -1.3 -1.3 -1.3 -1.3 -1.3 -1.3 -1.3 -1.3 -1.3 -1.3 -1.3 -1.3 -1.3 -1.3 -1.3
210.6 211.7 216 221.4 225.2 224.7 226.9 229.2 231.5 231.5 232.5 239.5 242.7 246.7 249.4 251.4 247.9 247.3 252 267.3 273.3 279.1 281.2 284.4 289 299.5 300.6 302.7 309 321.6 330.8 348 362.2 364.2 366.8 367.2 368 368.4 374.4 376.1 362.4 346.5 342 337.7 331 325.5 314.6 314.1 311.4 305.3 301.9 298 293.1 285 281.9 284.7 283.9 269.4 246.8 237.5 235.9 231.7 221.8 183.1 172.2 144.8 110.5 68.2 37.1 20.4 17.5 14.2 8.9 16.3 18.3 20.1 15.5 21.8 24.4 29.3 38.3 45 53.7 62.9 71.9 83.9 103.3 129.4 156.2 169.2 182.3 190.6 201.5 206.6 214.5 227.4 233 244.5 262.8 277.4 291.2 310.6 302.1 289.7 285.1 279.8 277.2 270.4 267.4 270.1 261.8 253 240.9 234.4 233.7 235 226.8 202.6 189.2 180.2 170.5 161.3 153.4 143.4 131.1 119.8 109.1 98.4 95.8 97.1 100.7 102 106.9 108.6 111.4 117.1 115.7 115.6 111.3 105.7 97.2 89.1 57.2 20.9 4.9 2.8 -1.3 -1.3 -1.3 -1.3 -1.3 -1.3 -1.3 -1.3 -1.3 -1.3 -1.3 -1.3 -1.3 -1.3 -1.3 -1.3 -1.3 -1.3 -1.3 -1.3 -1.3 -1.3 -1.3 -1.3 -1.3 -1.3 -1.3 -1.3 -1.3 -1.3 -1.3 -1.3 -1.3 -1.3 -1.3 -1.3 -1.3 -1.3 -1.3 -1.3 -1.3 -1.3 -1.3 -1.3 -1.3 -1.3 -1.3 -1.3 -1.3 -1.3 -1.3 -1.3 -1.3 -1.3
197 209.8 210.1 213.1 215.2 216.9 220.3 222 223.6 226.1 228.1 230.8 236.9 236.9 238.1 238.3 239.2 242.3 245.7 257 260.2 262.3 268.8 274.6 286.2 290.5 301.1 306.5 310.7 323.2 327 344.5 359.9 367.3 367.4 367.8 368.1 370.5 372.4 374.4 362.8 347.9 342.9 340.3 334.2 323.1 314.4 307 303.6 300.9 300.2 295 292.1 286.1 280.4 273 275.9 260.6 238.2 233.8 230.2 226.6 206.5 180.2 166.6 152.6 118.1 83.7 40 21.5 16.4 8 5.7 14 14.7 15.9 13.2 18.8 20.8 26.1 36.9 44.2 52.1 62.3 72.6 78.4 86.9 108.3 129.2 145.7 154.6 163.4 166.3 176.3 184.6 189.2 195.2 209 229.4 256.7 276.6 282.5 291 278.8 274 272.7 271.6 273.2 262 260.4 256.1 244.4 233.7 230.3 227.6 226.9 226.1 214.1 199 184.8 174.4 164 155 150.4 141.1 127.5 117.1 103.8 90.2 77.2 88.6 90.3 91.8 95.6 90.8 95.2 100.3 102.2 100.5 99.7 90.2 71.9 43.8 6.9 2.2 -1.3 -1.3 -1.3 -1.3 -1.3 -1.3 -1.3 -1.3 -1.3 -1.3 -1.3 -1.3 -1.3 -1.3 -1.3 -1.3 -1.3 -1.3 -1.3 -1.3 -1.3 -1.3 -1.3 -1.3 -1.3 -1.3 -1.3 -1.3 -1.3 -1.3 -1.3 -1.3 -1.3 -1.3 -1.3 -1.3 -1.3 -1.3 -1.3 -1.3 -1.3 -1.3 -1.3 -1.3 -1.3 -1.3 -1.3 -1.3 -1.3 -1.3 -1.3 -1.3 -1.3 -1.3 -1.3
194.7 198.9 201.4 202.8 206.1 208.9 213.2 216.8 221.5 220.7 222 222.8 224.3 226.5 228.3 229.5 232.2 236.3 239.9 246.3 249.7 255.1 262.9 272.2 283 286.6 291.8 301.7 313.2 322.8 329 340 360.1 371.9 370.8 367.6 368.5 370.2 372.3 376.7 361.9 348.2 342.8 340.8 336 323.3 318.4 309.9 302 296.8 296.4 292.6 290.1 286.1 280.3 267.1 248.4 240.5 234.8 234.4 225 213.5 201.1 177.7 168.1 143.7 111 85.6 42.2 18.8 17 15.2 5.3 6.8 8.7 6.3 15 16.2 17.1 24.2 32.6 42.3 50.8 63.4 75.3 78.3 79 102.1 118 132.2 140.8 145.8 152.4 167.6 166.8 166.6 171.6 179.4 200.5 228.5 255.5 271 279.2 283 275.3 269.9 266.9 259.1 254.7 255.1 246.5 232.1 232.7 227.4 222.5 219.6 219.9 213.7 200.5 190.1 179.5 171.4 159.4 154.6 144.6 135 122.7 110.9 98.6 82.1 71.9 79.8 79.7 81.8 82.4 82.2 82.6 85.3 85.2 65.9 58.4 48.6 15.4 3.6 -1.3 -1.3 -1.3 -1.3 -1.3 -1.3 -1.3 -1.3 -1.3 -1.3 -1.3 -1.3 -1.3 -1.3 -1.3 -1.3 -1.3 -1.3 -1.3 -1.3 -1.3 -1.3 -1.3 -1.3 -1.3 -1.3 -1.3 -1.3 -1.3 -1.3 -1.3 -1.3 -1.3 -1.3 -1.3 -1.3 -1.3 -1.3 -1.3 -1.3 -1.3 -1.3 -1.3 -1.3 -1.3 -1.3 -1.3 -1.3 -1.3 -1.3 -1.3 -1.3 -1.3 -1.3 -1.3 -1.3
190.4 191.8 197.7 200.7 202.2 201 204.5 210.6 214.5 217.5 211.6 211.6 214.7 218.2 222.6 225.3 230.7 230.3 236 240.9 246 252.5 257.9 272.2 282.1 286.4 292.2 300.5 311.3 320.9 330.3 335.7 352.1 371.7 375.5 373.9 369.2 369.2 372 376 358.5 346.6 341.1 339.9 333.5 321.2 318.6 309.4 299.6 296 288.8 284.8 281.1 277 271.8 254.3 239.3 233.4 230.8 230.4 221.1 211.2 198.8 176.7 160.5 125.8 100.8 79 35.9 17 14.5 6.2 4.9 4.9 5.4 4.6 5.2 7.1 10.8 21.6 29.1 38.3 48.8 62.2 69.7 72.2 71.5 92 108.7 123 134.6 137.5 144.6 145.2 155.9 161.6 166.4 166.7 172.8 197.7 225.8 249.2 258.7 275 269.8 266.9 262.3 258.1 250.8 245.4 242.6 238.2 228.2 225 218.3 213 210.5 201.7 196.7 186.4 179.8 172.5 163.3 157.7 149.7 138.7 124.6 113.5 103.2 87.7 68 63.7 71 72 72.6 70.9 67.4 64.9 54 41.8 7.6 3.6 2.3 4.2 -1.3 -1.3 -1.3 -1.3 -1.3 -1.3 -1.3 -1.3 -1.3 -1.3 -1.3 -1.3 -1.3 -1.3 -1.3 -1.3 -1.3 -1.3 -1.3 -1.3 -1.3 -1.3 -1.3 -1.3 -1.3 -1.3 -1.3 -1.3 -1.3 -1.3 -1.3 -1.3 -1.3 -1.3 -1.3 -1.3 -1.3 -1.3 -1.3 -1.3 -1.3 -1.3 -1.3 -1.3 -1.3 -1.3 -1.3 -1.3 -1.3 -1.3 -1.3 -1.3 -1.3 -1.3 -1.3 -1.3
186.9 189.2 190.4 193.2 196.2 196.8 196.5 197.5 199.3 202.9 204 204.9 206.3 211.4 213.3 218.4 224.1 223.4 230.3 237.2 241.5 248.9 260.6 275.5 280.7 287.6 291.7 301.5 310.3 320.5 326.8 337.2 347.3 367.4 372.1 373.9 370.8 370.6 372.3 373.4 358.8 348 342.3 335 326.8 320.7 311.3 306.3 297.3 294.3 289.1 281.1 274.2 274.2 258.1 243.2 239.1 234.1 233.1 223.1 220.5 207.3 189 175.7 142.8 112.3 87.9 56.6 23.7 13.6 5.6 3.6 -1.3 1.9 1.9 -1.3 2 2.3 4.2 5.7 13.1 17.9 25.2 35.6 54.8 63.3 62.1 74.8 88.7 110.3 119.5 119.2 119.3 116.5 136 156.6 155.1 164.9 160.9 170.3 192.6 217.3 241 256 264.1 258.6 262.1 253.5 245 242.1 236.6 237.2 232.9 219.2 214 208 201.6 194.5 192.4 182.7 169.4 166.8 167.4 159.5 149.4 135.8 126.5 115.2 106.1 90.9 70.3 48.1 53.8 63 64 59.9 56.3 50.6 44.4 13.6 2.5 3.3 1 -1.3 -1.3 -1.3 -1.3 -1.3 -1.3 -1.3 -1.3 -1.3 -1.3 -1.3 -1.3 -1.3 -1.3 -1.3 -1.3 -1.3 -1.3 -1.3 -1.3 -1.3 -1.3 -1.3 -1.3 -1.3 -1.3 -1.3 -1.3 -1.3 -1.3 -1.3 -1.3 -1.3 -1.3 -1.3 -1.3 -1.3 -1.3 -1.3 -1.3 -1.3 -1.3 -1.3 -1.3 -1.3 -1.3 -1.3 -1.3 -1.3 -1.3 -1.3 -1.3 -1.3 -1.3 -1.3 -1.3 -1.3
182.2 184.9 186 186.2 187.2 190 191.6 192.5 193.5 190.4 193.8 197 199.6 203.4 211.1 215.6 217.8 221.9 228.5 236.2 245.1 252 261 268.1 278.6 285.5 288.7 293.9 306.3 317 324.7 332.4 336.9 357.3 372.2 370.1 370.2 370.9 372.9 371.3 361.5 346.5 340.7 336.7 326.3 318.8 309.1 300.4 296.4 292.3 285.1 279.2 271 262.7 248.9 241.5 238.6 233.2 231.2 225.9 217.3 192.7 179.4 151.5 127.1 95.2 64.1 40 12.7 6.3 2.2 1 -1.3 -0.1 -0.1 -1.3 0.2 0.5 1 2.1 2.9 6 9.9 25.8 40.6 47.4 48.2 48.6 60.6 80.6 94 97.3 102 109.1 123.1 141.4 144.8 149.4 151 147.1 160.2 188.2 210.4 232 252.5 249.1 247.7 247.2 245.2 232.1 231.4 231.7 228.8 214.8 208.3 206.2 198.8 190.6 181.7 178.9 171.8 163 156.2 139.8 139.2 132.9 124.5 114.9 101.5 88.8 76.2 61.3 37.8 40.6 54.4 56.1 50.4 43 22.3 2.9 2.8 -1.3 -1.3 -1.3 -1.3 -1.3 -1.3 -1.3 -1.3 -1.3 -1.3 -1.3 -1.3 -1.3 -1.3 -1.3 -1.3 -1.3 -1.3 -1.3 -1.3 -1.3 -1.3 -1.3 -1.3 -1.3 -1.3 -1.3 -1.3 -1.3 -1.3 -1.3 -1.3 -1.3 -1.3 -1.3 -1.3 -1.3 -1.3 -1.3 -1.3 -1.3 -1.3 -1.3 -1.3 -1.3 -1.3 -1.3 -1.3 -1.3 -1.3 -1.3 -1.3 -1.3 -1.3 -1.3 -1.3 -1.3 -1.3 -1.3
177.5 179.7 181.6 180.8 182.6 185.1 187.6 190.3 189.5 187.6 189.7 191.8 194 198 201.6 206.7 212.8 219.1 224.3 231.4 238.9 249.2 258.8 263.9 270.3 276.1 286.8 285.5 296.1 310.1 319 326.6 333.6 340.4 354.8 364.4 368.5 370.3 367.1 360.8 354.8 342.8 336.2 327.9 323.1 317.5 308.1 299.8 296.2 294 289.5 282.6 272.1 266.4 249.4 237.6 234.1 230.6 226.3 225.2 210.1 195.1 177.4 149.7 105.5 66.5 44.8 26.8 9.9 2.3 -1.3 -1.3 -1.3 -1.3 -1.3 -1.3 -1.3 -1.3 -1.3 0.6 1 1.7 2.4 5.6 15.2 21.5 13.4 25.3 36.8 57.8 66 72.5 81.7 97.9 114.3 124.2 133.2 136.2 127.8 133.1 142.9 166.5 198.5 210.6 237.7 243.1 246.7 240.6 241.4 214.9 201 186.4 180.3 191.6 202.3 199.5 192.2 182 175.8 170.7 157.4 135.5 122.9 118.4 108.4 107.5 112.6 107.8 97.9 81.1 58.8 48.3 33.1 31.4 38.8 46.1 50 39.5 7.3 3 -1.3 -1.3 -1.3 -1.3 -1.3 -1.3 -1.3 -1.3 -1.3 -1.3 -1.3 -1.3 -1.3 -1.3 -1.3 -1.3 -1.3 -1.3 -1.3 -1.3 -1.3 -1.3 -1.3 -1.3 -1.3 -1.3 -1.3 -1.3 -1.3 -1.3 -1.3 -1.3 -1.3 -1.3 -1.3 -1.3 -1.3 -1.3 -1.3 -1.3 -1.3 -1.3 -1.3 -1.3 -1.3 -1.3 -1.3 -1.3 -1.3 -1.3 -1.3 -1.3 -1.3 -1.3 -1.3 -1.3 -1.3 -1.3 -1.3 -1.3
173.6 174.8 178 178.4 179.6 182.5 185.7 186.4 181.8 179.1 182.1 181.8 186.3 189.3 191.9 201.8 211.1 216.5 219.4 222.5 227.8 235.9 243.3 247.5 250.4 256.7 265.4 272.6 284.7 302.9 311.9 323.4 324.2 328.3 334.4 346.1 353.7 358.1 365.6 355.6 348.8 332.8 327.2 323.4 318.8 315.8 309.6 301.2 298.6 295.8 291 281.9 271.4 264.5 246.5 240.2 232.7 223.5 218.5 216.1 204.9 189.7 170.4 128 90.7 58.9 39.6 12.1 4.5 1 -1.3 -1.3 -1.3 -1.3 -1.3 -1.3 -1.3 -1.3 -1.3 -1.3 -1.3 -1.3 0.1 0.8 2 2.6 3.5 6 23.5 34.5 52.4 59.3 62.4 85.3 101.5 117.2 120.6 117.5 122 111.1 120 140.4 164.8 196.1 211.6 229.3 243 231.5 223.1 196.4 170 160.7 151.9 158.1 178.8 193.9 172 158.1 170.5 136.7 116.1 100.3 90.3 95.4 95.8 94.9 98.6 96.2 77.9 55.8 39.4 34.1 26.7 21.3 22.8 27.4 10.3 5.6 2.9 1.9 -1.3 -1.3 -1.3 -1.3 -1.3 -1.3 -1.3 -1.3 -1.3 -1.3 -1.3 -1.3 -1.3 -1.3 -1.3 -1.3 -1.3 -1.3 -1.3 -1.3 -1.3 -1.3 -1.3 -1.3 -1.3 -1.3 -1.3 -1.3 -1.3 -1.3 -1.3 -1.3 -1.3 -1.3 -1.3 -1.3 -1.3 -1.3 -1.3 -1.3 -1.3 -1.3 -1.3 -1.3 -1.3 -1.3 -1.3 -1.3 -1.3 -1.3 -1.3 -1.3 -1.3 -1.3 -1.3 -1.3 -1.3 -1.3 -1.3 -1.3
166.6 171 174.9 175 176.9 178.2 176.8 175.1 172.6 172.9 173.9 178.5 181 187.2 191.6 199.8 206 211.6 212.9 222.5 221.7 228.6 230.7 236.1 242.2 248.3 248.4 254.2 267.2 283.1 298.6 308.8 314 316.4 321.6 324.8 333.4 338.6 340.1 338.5 330.9 327.5 322.6 318.8 315.3 313.1 308.4 300.9 298.9 295.6 289.8 278.9 263.9 257.8 248.7 238.7 229.1 223.2 215.3 208.2 198.2 187.8 156.4 117.2 77.2 47.8 29.8 8.7 2 0.1 -1.3 -1.3 -1.3 -1.3 -1.3 -1.3 -1.3 -1.3 -1.3 -1.3 -1.3 -1.3 -1.3 -1.3 -1.3 0.3 0.7 -1.3 5.2 14.1 35.6 55 56 73 91.9 97.2 102.1 100.6 95.9 88.3 86.4 110 139.4 168.2 185.2 209.7 215.1 208.4 189.4 170.9 151.1 145 146.4 148.6 148.5 145.2 135.6 127.1 117.6 104.6 89.1 77.5 73 78.2 79.4 72.9 71.9 60.4 50.3 44.4 41.8 36 29.3 20.5 14.9 14.5 6.8 3.9 -1.3 -1.3 -1.3 -1.3 -1.3 -1.3 -1.3 -1.3 -1.3 -1.3 -1.3 -1.3 -1.3 -1.3 -1.3 -1.3 -1.3 -1.3 -1.3 -1.3 -1.3 -1.3 -1.3 -1.3 -1.3 -1.3 -1.3 -1.3 -1.3 -1.3 -1.3 -1.3 -1.3 -1.3 -1.3 -1.3 -1.3 -1.3 -1.3 -1.3 -1.3 -1.3 -1.3 -1.3 -1.3 -1.3 -1.3 -1.3 -1.3 -1.3 -1.3 -1.3 -1.3 -1.3 -1.3 -1.3 -1.3 -1.3 -1.3 -1.3 -1.3 -1.3
163.8 167.3 171.7 171.6 172.1 171.8 170.1 171.1 170.3 171.5 170.7 173.4 178.1 182 184.7 195.4 200.3 208.5 212.1 216.5 216.9 217.7 221.7 227.8 232.3 238.6 243.6 245.2 250.8 262.4 279.5 294.4 300.9 306.7 312.8 318.8 323.6 325.1 327.1 326.9 322.5 318 315.6 309.1 308 305.6 303 294.7 295.7 294.5 286.4 273.3 260.2 257.5 249.9 237.1 228.5 223.3 219 208.7 198.6 184.1 148.2 95.2 59.8 36.5 15 6.5 2.2 -1.3 -1.3 -1.3 -1.3 -1.3 -1.3 -1.3 -1.3 -1.3 -1.3 -1.3 -1.3 -1.3 -1.3 -1.3 -1.3 -1.3 -1.3 -1.3 -1.3 7.3 21 44.4 50.5 59.5 66.5 61.1 66.6 78.3 75 64.6 65.6 81.1 108.2 127.8 147.6 176.7 200.4 184.2 169.5 149.3 134.2 131 128.8 133.6 131.6 129.4 124.4 108.7 105.4 92.2 75.1 70.3 66.4 55.4 50 52.8 52.6 49.3 45 47.8 43.4 32.2 23.6 21.1 11.7 6.2 5.6 2.8 -1.3 -1.3 -1.3 -1.3 -1.3 -1.3 -1.3 -1.3 -1.3 -1.3 -1.3 -1.3 -1.3 -1.3 -1.3 -1.3 -1.3 -1.3 -1.3 -1.3 -1.3 -1.3 -1.3 -1.3 -1.3 -1.3 -1.3 -1.3 -1.3 -1.3 -1.3 -1.3 -1.3 -1.3 -1.3 -1.3 -1.3 -1.3 -1.3 -1.3 -1.3 -1.3 -1.3 -1.3 -1.3 -1.3 -1.3 -1.3 -1.3 -1.3 -1.3 -1.3 -1.3 -1.3 -1.3 -1.3 -1.3 -1.3 -1.3 -1.3 -1.3 -1.3
160.5 161.9 165.3 167.7 168.8 166.8 169.6 170.1 169.1 169.7 169.3 169.5 170.7 177.7 183.7 188.1 193.4 198.1 205.2 211.5 212.6 215.2 218.2 221.5 222.5 228.2 233.6 238.6 243.7 248.6 259.3 267.5 274.7 281.1 296.3 308.8 316.3 314.8 314.5 308.9 304.5 302.4 302.8 300.3 294.8 283.3 280.1 277.1 282.1 283.3 275 262.1 258.7 256.4 247 235.5 227.8 225.4 223 217.7 208.2 197.7 152.2 104.9 66.6 39.2 10.3 4.2 -0.9 -1.3 -1.3 -1.3 -1.3 -1.3 -1.3 -1.3 -1.3 -1.3 -1.3 -1.3 -1.3 -1.3 -1.3 -1.3 -1.3 -1.3 -1.3 -1.3 -1.3 3 8.4 24 37.1 41.5 36.6 31.8 33.9 46.5 54.8 55.8 51.4 57.2 73.8 91.2 114.3 145.7 159.6 145.3 134.3 127.5 108.1 100.8 100.9 110.6 121.2 120.9 114.1 108.8 95.6 85.4 70.6 63.8 48.6 41 35.3 35.6 35 43 39.7 31.8 34 21.3 15.9 7.4 3.2 2.3 2.5 1.4 -0.7 -1.3 -1.3 -1.3 -1.3 -1.3 -1.3 -1.3 -1.3 -1.3 -1.3 -1.3 -1.3 -1.3 -1.3 -1.3 -1.3 -1.3 -1.3 -1.3 -1.3 -1.3 -1.3 -1.3 -1.3 -1.3 -1.3 -1.3 -1.3 -1.3 -1.3 -1.3 -1.3 -1.3 -1.3 -1.3 -1.3 -1.3 -1.3 -1.3 -1.3 -1.3 -1.3 -1.3 -1.3 -1.3 -1.3 -1.3 -1.3 -1.3 -1.3 -1.3 -1.3 -1.3 -1.3 -1.3 -1.3 -1.3 1.3 4 5.6 34.9
157.9 158.6 162.7 163.9 164.6 167.4 169.5 169.9 169.5 167.9 167 167 169.9 171.8 177 182.8 189.8 193.5 197.1 204.7 208.7 208.8 213.1 212.9 214.3 217.6 220.1 226.8 234.2 238.6 245.2 253 255 264.8 275.6 283.5 296.8 299.6 296.5 282.8 277.6 277.6 277.2 274.9 271.6 273.1 276.9 272.8 270.9 268 260 258.9 258.5 254.9 254 241.6 230.9 230.4 225.7 221 214 199 153 100.8 61.6 35.5 9.9 3.2 1.2 -1.3 -1.3 -1.3 -1.3 -1.3 -1.3 -1.3 -1.3 -1.3 -1.3 -1.3 -1.3 -1.3 -1.3 -1.3 -1.3 -1.3 -1.3 -1.3 -1.3 -1.3 -1.3 9.8 15.8 15.8 9.1 11.5 15.7 21.2 25.7 26 39.6 39.9 50.7 63.9 86.5 103.5 124.1 112.6 103.5 93.1 81.1 67.8 68 71 69.3 70.6 74.8 83.1 94.9 82.9 53.8 43.1 39.5 29.1 30.7 30.7 32 6.1 3.1 2.4 2.5 3.3 3.3 3.3 -1.3 -1.3 -1.3 -1.3 -1.3 -1.3 -1.3 -1.3 -1.3 -1.3 -1.3 -1.3 -1.3 -1.3 -1.3 -1.3 -1.3 -1.3 -1.3 -1.3 -1.3 -1.3 -1.3 -1.3 -1.3 -1.3 -1.3 -1.3 -1.3 -1.3 -1.3 -1.3 -1.3 -1.3 -1.3 -1.3 -1.3 -1.3 -1.3 -1.3 -1.3 -1.3 -1.3 -1.3 -1.3 -1.3 -1.3 -1.3 -1.3 -1.3 -1.3 -1.3 -1.3 -1.3 -1.3 -1.3 -1.3 -1.3 -1.3 -1.3 -1.3 2.4 5.4 43.9 65.9 71.9
