ncols 200
nrows 82
xllcorner 290000
yllcorner 311400
cellsize 50
375.3 376.4 371.3 357.6 337.2 371.2 389.8 398.9 402.9 409.3 401.5 394.8 381.1 416.7 429.9 440 446.1 456.9 449.6 412.6 387.6 370.1 356 378.6 411.4 442.8 459.4 477.6 487.7 495.1 499.9 500.7 501.6 499.3 497.6 503 501.5 502 502.5 493.8 479.3 468.1 456.8 459.1 471.9 483.1 487.7 494.1 495.8 499.8 503.3 505.6 508.4 510.8 509.7 503 491.5 477 467.7 461.3 461.3 461 459.7 456.8 454.5 451.7 448.8 448.2 448.1 445.9 443.2 442.9 437.6 424.4 423.6 424 424 426.6 428.1 430 430.7 432 429.9 430.5 432 430 425.5 424.4 424.6 428.7 430.7 428.6 422.8 423.3 424.7 420.4 417.3 415.3 418.2 419.5 420.5 415.5 411.2 411.3 407.2 409 411.7 412.5 414.5 411.3 404.9 399.2 389.2 380.2 380.5 389.1 383.8 377.3 379.6 379.1 378.3 377.5 374.6 372 364.8 354.5 347.6 340.5 331.9 318.6 309.2 303 301.6 299.2 293.6 292.4 288.3 278 267.6 260.8 266.4 274.6 284.7 296.8 309.1 331.1 352.6 371.7 398.2 404.8 404.9 401.8 397.7 391.7 383.5 375.3 371.8 370.6 372.5 375.9 379 383 386.9 391.1 395.5 398.3 399.2 399.5 400.7 399.7 396.4 390.2 382.4 370.6 363.8 358.3 349.7 337.9 338.1 333.1 328.9 323.9 324.7 324.3 322.8 318.9 315.8 318.3 315.8 316.4 315.2 312.1 310.7 305.9 296.4 287 281 272.2 258.8 254.2
397.2 395.4 394.5 385.3 367.5 390.9 410.9 415.7 422.7 430.3 426.6 425.9 416.5 423.7 435.3 444.9 451.9 463.7 467.2 433.9 403 381.5 375.8 386.1 394.8 427.1 458 482 489.8 500.2 499.9 501.3 501.4 503.5 501.8 496.8 498.5 500.6 497.7 493 473 459.2 457.6 467.5 479 488.2 493.6 497.3 497.1 499.7 504.2 508.4 512.2 514.4 511.2 507.6 491.1 474.1 465.1 460 460.6 457.7 454.3 447.6 447.5 445.1 444.2 443.6 440.9 440.4 439.3 435.7 429.5 423.7 421.6 423.6 425 427 428.6 430 432.4 432 432 435.9 432.6 431.8 433.6 430.5 430.9 432.3 431.5 429.6 429 426.4 427.2 424.7 421.9 421.6 422.6 422.6 422.5 420.9 415.7 413.5 412.6 414.8 416.5 416.8 416.4 412.3 407.7 401.4 390.6 382.2 389.3 389.8 380.2 373.3 372.8 370.1 369 367.7 364.9 359.6 354.3 347.5 340.9 333.4 325.7 319.1 312.2 307.2 304 302 297.3 294.7 289.6 275 268.1 259.5 262.2 271.5 281.2 293 305.6 328.9 351.5 378.3 396 400.4 400.1 396.9 394.2 387.3 381.6 375.9 373 372.2 371.4 373 376.9 380.7 385.1 389.3 393.4 397.4 399.8 400.1 398.4 394.8 390.1 386.7 374.9 365.1 359.6 357.3 355.7 348.7 337.9 332.5 326.4 329.8 329.9 331 331.6 329.4 322.8 314.7 313.2 308.1 301.6 303.7 306 300.6 293.5 279.8 273.5 268.9 273.5 277.2
410.7 414.4 416.9 408.4 399.9 410.8 428.3 432 436.9 438 445 443 432.7 437.7 444.5 451.9 459.8 469.1 473.9 451.4 421.2 392 391.4 411.3 427 432.3 462.7 480.9 494.1 505.7 502.2 499.1 499.4 500.9 501 498.3 494.6 498.3 495.8 486.7 471.2 455.8 460.5 471.4 484.8 494.8 498.8 499.9 499.8 503.9 506.7 508.7 510.8 509.2 507.5 502.9 480.7 471.8 459.9 461.4 455.1 452.1 447.4 440.8 440.4 441.7 437.5 437 436.2 434.1 431.7 427.6 422.6 419.1 418.2 425.5 426.5 426 426.8 427.5 430.7 433.9 435.9 434.8 434.3 433.7 436.6 437.1 436.3 433.2 431.3 430.6 428.4 428.3 426.6 427.3 423 423.8 425.9 424.4 424.2 423.4 419.8 420.8 417.5 418.8 418.5 418.5 419.9 416.2 409 399.9 390.4 383.8 388.3 385.9 376.2 369.6 366.5 363.6 362.2 359.7 354.8 350.3 346.5 340.2 332.6 325.1 319.9 315.4 309.8 304.5 299.4 296.6 293.2 287.7 286.1 276.5 263.3 258.1 257.8 269.5 277 287.3 303 326.7 354.8 378.3 391.4 396.3 395.9 392.8 388.9 386 380.2 374.9 373.2 373.1 372.3 372.2 374.6 377.9 380.3 383.8 387.6 390.8 392.4 392.3 391.1 388.2 383.1 377.3 367.2 358.9 354.3 352.2 347.8 340.4 336 333.2 332.7 333.6 335.4 337.2 337.5 337.6 336.2 328.7 321.7 319.5 315.9 307.1 295.6 290.7 288.4 290.9 288.3 286.8 287.1 288.3
425.9 433.1 428.6 421.7 418.9 421 431.6 440.4 443.9 446.7 448 443.1 438.5 444.6 448.6 458.4 470 478.9 481.8 474.5 453.9 425.6 425.9 443.8 451.2 457.3 471.9 483.3 499.9 504.4 503.4 497.9 496.2 494.3 495 491.2 486.8 491.8 490 483.4 466 456 461.2 472.4 490.7 497.9 498.9 497.8 501 504 506.7 510.4 507 503.6 497.3 484.4 468.8 463.2 455.8 453 447.8 445.2 441.7 436 437.9 434.7 431.3 430.9 429.8 424.5 421.7 419.5 411.9 408.5 414.4 420.5 423.8 425.7 427.4 427.6 428 435.5 437.7 437.7 436.7 435.7 435.3 432.4 432.1 429.1 428.7 427.3 426.7 428.5 424 425.3 422.2 424.7 425.6 426.5 425.2 425.2 421.6 420.8 422.4 422.8 422.5 420 416.8 412.3 405.7 395.7 387.7 387 384.5 379.7 375 371.4 368.7 362.2 358.1 355.6 353.3 352.4 350.5 348.3 336.7 332.1 324.8 315 305.2 299.9 294.6 290.8 284 280.4 277.5 271 262.2 255.5 256.7 264.3 273.6 284.4 300.2 323.9 351.7 373.7 381.6 385.6 386.8 386.4 382.7 378.3 373.5 372.3 370.3 370.8 370 371.4 372.2 374.1 375.3 376.4 380.6 382.7 382.3 380.4 378.4 377.4 373.6 366.9 358.3 351.2 346 344.4 339.5 335.4 334.1 335.2 336.8 338.9 339.6 342.3 344.2 345.6 345.9 343.2 337.9 332.7 324.8 316.5 310.4 305.9 301 298 296.7 298.2 300.2 301.7
433.5 437.4 436.6 433.5 432.6 430.9 436.2 447.7 451.1 450 448.7 446.8 447 449.3 451.7 465.8 476.1 486.4 490.3 490 481.1 468.6 463.1 472.7 463.2 479.3 481.9 492.1 499.4 502 503.4 495.9 487.1 489.7 486.8 481.5 482.2 480.7 485 476.8 462.9 455.8 459.4 471.4 480 488.5 490.6 494.7 498.6 498.6 500.7 502.1 499.7 496.1 481.6 470.8 463.3 461.3 457.2 445.4 440.9 440.6 433.3 430.7 425.8 424.1 424.9 419.6 412.6 409 408.1 406 405.2 407.4 415.9 420.3 423.6 425.1 426.4 426.2 428.2 433.2 438.2 439.2 442.9 440.9 432.9 429.2 425.6 424.4 423.5 423.7 424.8 425.9 423.6 420.6 420.7 424.2 425.2 426.6 425.3 424.5 422.4 422.4 421.8 420.7 417.1 408.6 402.1 395.7 393.4 391.8 390 388.9 387.7 378.4 376.1 376.5 369.5 360.9 359.2 355.4 353.2 350.9 347.6 343.2 340.7 338.8 333.5 323.6 311.5 303.6 299.4 294.5 287.5 277 266.5 263 260.6 256.8 253.7 255.3 271.1 280.4 301.7 325.8 348.8 366.1 372.2 375 375.7 374.3 373.9 369.5 365.3 366.4 364.6 364.7 365.9 365.5 367.9 369.8 368.8 370.8 374.3 374.8 371.2 368.8 367.9 367.1 362.5 355.9 346.9 343.1 340.2 338.1 336.9 336.6 338.3 340.7 343.6 346.6 348.8 350.7 351.4 353 353 352.1 349.1 342.7 340.3 333.8 328 322.9 316.6 312.8 312.7 314.8 318.8 316.8
440.7 440.7 438.8 436.6 436.2 444.9 443 451.1 453.4 452.3 451.2 449.4 450.8 454.6 456.7 471.7 482.7 493.3 498.7 498.8 494.3 486.2 474.9 483.5 477.7 486.9 489.1 494.9 499.7 502.6 498.8 489.1 484.8 480.1 475.3 471.7 470.3 466.3 477.5 474.8 457.2 453.6 460.9 471.8 480.7 484.8 488.4 487.9 492.9 494.8 491.7 490.6 487.5 476.6 466.2 463.6 459.4 458.2 452.1 444.7 438.9 429 422.7 418.4 412.7 411.7 411.4 404.7 403.2 403.9 404.2 402.9 404.1 408.7 415.9 425.4 424.8 424 424.8 425.4 426.1 433 434.9 438.5 440.8 434.1 431.4 429.2 424.5 422.1 421.3 418.8 418.7 420.7 418.3 418.5 419.7 421.2 423.2 423.9 420.4 418.2 417.7 415.9 415.2 412.7 407.4 402.6 399.5 396.3 394.3 394.6 394.4 389.1 385.3 380.8 378.4 378 369.8 361.5 359.2 357.4 357.6 357.5 353.1 347.9 346.4 343.1 338.3 328 319.9 310.9 304.4 299.4 294.5 283.6 271.9 265.3 258.7 256 253.9 253.9 265.1 275.5 303.2 339.9 364.1 365.8 367.4 368.3 368.9 367.2 366.2 364.4 362 358 354.7 353.5 354.6 356 355.7 356.9 356.8 360.4 364.1 361.1 357.6 357 355.2 352.9 350.6 347.8 344.6 342.1 341.6 342.1 342.5 343.2 343.8 346.7 350.1 353 356.7 359.6 360.4 358.8 359.9 359.2 356.6 353.2 349.8 345.1 340.6 336 329.4 325.6 323.9 323.3 322 316.1
444.9 444.2 442.6 442.9 446.1 453.4 453.7 451.9 453.8 452.7 452.8 452.1 454.7 457.1 463.4 474.3 486.8 499 503.5 502.6 497.9 491 484.2 489.3 486.4 493 495.2 501.5 505.5 505.7 495.1 488.4 484.2 478.8 469.6 464.9 458 454.9 460.3 469.2 449.1 453.7 463.4 476.1 479.8 482.8 482.9 486.3 489.8 489.5 484.2 479.3 471.5 461.3 458 458.3 458.5 454.2 447.5 438.5 429.9 422.9 414.9 407.5 405.1 403.8 400.3 400.3 401.5 405 405.5 401.4 400.7 409.3 413.2 420.1 424 423.9 422.7 421.1 421.3 423.5 427.5 430.5 430.3 426.1 426.4 423.5 418.7 416.1 417.5 417 416.1 415.7 415.4 416 417.7 418.4 418.7 417.9 415.2 414.3 412.6 412.4 413.4 411.5 405 402.3 401.4 399.7 400 399.2 398.1 393.1 389.4 386 382.2 379.4 370 363.5 361.8 363.5 363 360.6 357.1 353.7 353.1 350.7 347.8 333.6 325.5 319.3 310.5 303.3 297.4 288.3 278.7 265.6 256.1 253.7 252.3 253.2 261.1 272.4 299.7 332.8 361.4 365.9 365.8 364.4 367.3 365.1 365.6 366.2 366.4 364.6 360.4 356.4 350.7 351.1 352.1 353.5 353.1 352.6 352.4 352.6 351.9 350.9 350.6 350.1 347.9 347 348.1 348.4 348.2 348 348.2 348.9 349.2 352 355 358.6 362.5 365.7 367.9 368.4 368.7 365.5 363.3 360 357.5 355.1 351 346.2 340 335 329.4 325.3 319 322.6
446.4 445.3 444.7 447.2 454.1 460.6 462.8 455.7 454.5 454.4 454.1 455.3 459.3 460.3 467.7 478.5 491.9 503.9 507.4 505.8 500.1 494.5 491.5 495.4 494.9 499.3 501.6 508.4 509 507 491.6 489.2 483.4 478.1 470.5 466.4 452.9 449 446.5 456.8 442.4 454.2 466.5 472.9 477.2 478.4 481.5 487 491.1 485.8 479.6 469.1 460.5 456.6 456.2 457.2 456.7 449.2 439.5 435.5 427.4 417.1 405.8 402.8 400.5 399.7 399 400 403.5 401.7 398.6 395.6 396.6 402.4 406.8 413.7 423.4 421 420.4 420.2 418.8 420.5 416.2 415.9 419.7 421 418.8 413.6 414 414.3 414.9 415.9 414.8 414.9 414.7 414.3 413.5 414.7 416.8 415.7 410.6 410 410.9 409.9 411.8 410.4 403.6 402.2 403 404.1 405.2 404.4 404 400.8 394.6 390 384.5 379.9 371.4 366.6 367 366.2 363.6 362 360.6 360 356.6 354.8 355.5 341.9 337.5 330.5 318.1 309.9 305.8 291.5 281.5 268.5 253.9 251.9 250.9 251.7 258.3 269.6 291.3 324.2 355.1 361.4 363.9 362.2 361.9 363.4 364.4 363.9 362.3 361.1 357.7 352.7 349.6 353.8 359.3 357.5 353.6 352.2 348.8 348.1 348 347.8 349.2 350.6 354.7 356 355.7 355.2 352.7 351.4 352.3 354.2 355.2 355.7 358.3 360.9 363.8 366.5 369.2 370.8 372.3 372 370 368.2 366.7 362 359.8 357.1 349.2 341.2 332.8 329.3 326.8 325.2
450.5 446.5 446.4 449.8 458.4 463.5 467.1 461 457.2 456.3 455.3 458 461.4 461.5 472 481.3 496 507.6 508.9 505.9 501.8 498.8 499.8 501.2 499.3 500.8 505.2 510.9 513.4 506 494.2 489.9 482.6 474.8 468.6 465.3 459.2 451.6 437 435.9 442.4 457.3 466 472.3 473.2 477.3 482.4 486.9 485.8 481.3 478 463.3 458 454.4 455 455.4 449.2 443 434.2 427.3 419.6 413.7 401.3 398.7 397 396 398.1 401.9 398.3 395.4 394.3 392.6 393.8 397 396.9 404.7 420.2 416.1 415.3 414.6 417.4 415.6 412.6 414 418.3 416.9 413.4 412.4 412.6 412.7 412.3 413 414.8 414.5 414 413.5 411.6 411.8 410.3 408.9 408.4 409.1 408 407.3 408.9 406.9 402 401.7 403.6 406.8 409.1 409.5 409.6 406.9 401.3 394.9 387 380.7 375.3 370.4 367.7 365.7 364.9 364.4 360.3 358.9 358.2 359.5 358.2 349.9 340.9 336.6 328.8 315.7 307.9 296.8 285 271.2 258.9 250.6 248.6 250.7 254.2 265.7 284.3 313.8 346 355.9 358.6 359 358.3 357.5 357.6 355.8 353.4 350.1 345.9 345.3 345.6 354.1 365.3 364.8 357.4 356.1 353.7 349.2 346.7 350.4 349.1 349.1 351.2 352.7 352.6 352.2 351.4 350.1 350 352.3 354.3 354.8 356.9 359.6 361.7 364.5 366.8 368.4 370.1 371.5 371.5 370.7 369.7 366.4 362.3 357.3 347.8 341.1 340.3 337.9 334.2 330.3
448.7 448.3 448.7 450.7 462.6 465.9 468.2 467.6 462.5 458.2 456.9 459.1 460.8 462.4 478.6 485.9 498.1 506.7 508.8 506.3 503.3 503.3 505.3 505.9 501.7 506.6 511.5 516.2 516.7 510.2 505 494.6 493.8 483.9 473.7 466.2 464 453 444.2 434.5 437.1 458.3 466.3 468.9 470.9 479.5 482.4 485.9 484.8 480.5 475.5 465.2 456.6 453.2 452.9 450.2 444.2 436.3 429.2 422.9 418.2 412.6 405.4 396.1 394.6 393.1 394.8 395.8 394.5 392.5 391.4 391.4 388.3 394.5 391.8 395.6 401 405.4 411.1 412.1 415.5 410.2 411.3 412.9 413 414 410.3 410.6 411.3 411.1 411 411.2 412.8 413.5 413.4 412.7 411.9 410 408.7 407.1 405.9 406.1 404.6 403.7 404.2 402.2 397.2 398.8 402.5 406.4 409 411.3 414.4 411.1 405.3 398.2 389.5 380.5 374.3 369.9 365.7 364.1 362.5 362.3 362.3 362.9 363.7 363.8 361.4 353.5 348.2 342 334.6 325.6 311.4 300.1 288 272.7 258.6 250.1 249.3 251.9 253.5 260.1 276.5 301.4 333.7 347.6 352.1 353.1 352 351.1 348.8 346.2 344.6 344 342.5 342.2 348.3 358.3 367.3 365.7 359.5 357.9 354.9 351.4 347.2 345.1 346.6 346.2 347.9 349.8 350 349.1 347.8 347.3 347.6 347.9 348.7 349.6 352.6 355.3 357.5 359.5 361.6 363.9 366.2 366.8 366.3 365.4 364.5 362.1 359.2 353.1 347.3 347.1 346.6 345 342.6 339.6
448.6 448.8 448.6 451.1 457.8 463.8 465.9 467.2 464.6 460.6 460.1 458.6 461.2 464.9 477.5 488.3 500.3 505.8 507.4 506.3 505.4 507.9 508.6 510.2 506.6 513.5 520.2 520.6 517.5 516.1 511.5 503 494.9 488.1 478.3 466.2 463 456.6 442.1 433.4 434.3 451 463 464 469.9 476.7 482.9 483.6 482.7 480.3 475 464.5 453.1 453.9 454.3 446.9 440.9 432.4 424.6 418.4 412.5 404.8 396.9 395.6 395.1 395.5 392.4 390.5 390.8 389.5 389.4 390.7 383.7 387.4 387.8 388.7 393 396.8 402.7 409.6 409.9 409 409.7 412.5 412 408.7 408.9 409.1 410.3 410.4 409.9 409.3 409.6 410.7 411.4 412.4 413.5 413 410.2 406.3 402.4 401.7 400.5 399.6 398.9 397.1 393.8 397.2 401.7 404.7 407.3 409.4 411.7 408.8 403.3 398.5 391.5 380 371.8 366.8 363.8 362.2 360.5 361 361.8 363.2 363 365.2 362.5 356.4 354 345.3 340.7 331.2 318 301.7 289.5 273 260 249.5 248.2 250.1 251.7 258 269.2 290.8 318.8 338.4 344.8 345.4 344.7 343.8 343.4 342.3 342.4 342.6 339.2 343.4 353.1 362.7 368.4 365.5 359.8 358.2 354.8 351.2 348.2 345.2 341.7 341.7 343 345.8 347.1 346.1 345.7 345.6 345.1 344.7 346.1 346.8 349 351.2 353.8 356.1 356.8 357.6 359.7 361.5 360.6 359.7 359.3 358.3 353.8 350.5 351 352.4 353.6 353.6 349.8 345.4
448.7 448.9 448.6 450.2 456.8 461.2 464.3 469.3 466.1 459.6 457.3 456.8 458.5 464.9 475.9 487.6 498.3 502.4 504.1 505.6 507.6 512.4 511.4 512.2 513 515.1 521.2 523.3 524.6 523.7 517.4 505.4 493.3 484.6 473.1 466 460.5 454.4 444.3 433.1 435.4 439.5 452.2 461.9 468.8 477.8 482.2 482.9 481.6 480.8 476.3 464.4 452.7 452 450.1 444.3 439.4 429 427.3 423.8 410.1 398.1 396.5 396.3 395.4 394.9 393.9 391.5 388.9 385.7 385.5 387.3 379.8 383.5 388.1 388 387.6 388 396.7 406.7 406.2 407.4 411.2 410.7 409.2 407.6 408.3 408.7 408.7 408.4 407.2 407.5 406.8 407.5 408.7 410.4 411 412.1 413 411.9 406.1 400.4 397.1 394.9 393.8 391.8 390.8 393.6 398.5 402.1 404.5 406.7 408.8 408.3 402.3 397.1 391.2 382.8 371.1 362 358 356 354.4 353.8 355.4 357.4 359.2 358.5 356.5 355.9 352.4 346.2 341.5 334.4 324.5 308.5 291.9 275.3 260.2 248.6 247.3 248.5 250.8 253.7 263.3 277.8 294.9 312.4 320.5 326.7 329.6 332.8 334.9 336.7 338.9 339.4 336.1 343.8 352 357.3 360.1 360.6 357.6 356.1 353.8 350.1 348.2 348.4 346.4 342.3 338.9 339.5 343 343.7 343.6 343.9 343.6 343.4 345.2 345.9 346.7 347.9 350.1 352.2 353 354.1 354.7 355.8 354.6 353.5 353 352.6 351.2 352.4 355.1 358.1 358.9 358.4 353.1 348.7
448.4 448.8 447.8 448.9 450.6 455.1 459.2 465.1 462.8 457.8 456 455.7 457.6 471.2 476.1 486.5 494.3 501.5 504.1 506.5 510.9 513.4 513.5 513 513.2 519.5 523.5 526.4 526.7 524.5 515.8 507.2 497 486 474 467.2 459.2 454 443.3 432.4 434.6 440.3 444.5 459.5 470.1 479.2 482.9 482.9 482.3 479.4 472.9 463.4 455.8 454 448.3 443.4 431.8 426.9 424.7 422 410.2 400 397.8 397.6 396.2 394.9 393.1 391.5 389.7 388.4 385 380.4 376.4 378.7 385.5 382.3 380.7 381.7 394.8 399.2 400.4 402.6 407.8 406.8 403.9 405 408.1 408 408.6 408 408.3 406.8 405.8 404.9 405.8 407.8 409.1 410 410.6 410.3 409.8 408.1 401.9 393.3 389.6 389.8 388.9 388.9 395.2 398.4 401.2 403.7 404.9 404.6 400.8 394.7 388.8 380.8 373.7 361.8 356.3 353.1 351.7 351.4 351.4 353.1 354.7 354.3 351.9 349.7 345.5 343 341.3 337.2 331.5 318.7 299.3 280.3 266.2 250.9 246.8 247.8 249.9 251.2 261 270.6 299.9 320.9 320.8 321.6 324.6 327.1 333.3 333.8 333.1 334.6 333.8 341.6 351.4 355.3 358.1 357.4 353.5 351.4 348.9 346 344.8 343.9 343.5 341.4 341 336.3 338.7 339.8 340 340.7 340.5 341.7 343.6 344 345.5 347.3 349.2 350.5 351.8 353.2 354.3 355.3 354.6 353.1 352.4 351.7 352.2 354.4 357.6 360.4 364.2 360.5 356.2 350
449.9 445 446.1 447.8 448.8 449.8 455 459.4 461.4 456.1 456.8 455.1 459.8 473 480.4 488.1 497.4 501.7 504.7 510.3 514.7 514.7 514.2 512.3 512.3 518.6 521 525.7 527.2 525.4 517.5 502.1 496.1 486.4 483.2 470.1 457.3 445.5 432.9 432.2 434.2 445.6 451.2 454.8 469.6 480.6 484.1 483.4 482 479.1 469.2 464.3 461.1 457.5 451.1 443.3 433.2 430.6 426.7 420.3 414.2 409.8 401.9 402.3 399.1 396.6 392.4 390.8 390 387.8 385.3 381.1 376.2 372.3 376.3 373.1 374.7 376.6 386.2 390.9 393.9 400.4 402.3 401 401.2 404.2 407.9 407.1 408.4 408.3 407 404.1 404.5 403.2 402.4 404.7 406.5 407.4 407.5 407.2 405.8 405 404.2 401.6 389.8 386.5 384.7 386.3 393.7 394.9 398.1 399.6 401.2 399.6 396.7 391.3 383.7 376.4 370.5 361.3 353.8 350.1 348.5 348.6 349.8 348.8 347.6 349 348.4 350.2 351.6 351.6 347 342.2 335.7 325.3 316.1 297.5 275.3 259.2 245.2 247.1 247.7 249.5 259.1 273.8 302.6 320.3 322 324.3 323.7 324.3 324.7 324.8 326.5 329.6 330.8 336.8 344.8 352 354.8 353.7 348.6 347.5 345.3 342.3 342.1 341 339.8 338.8 336.7 334.8 336.5 336.5 337 336.7 337.6 339.4 341.1 342.1 343.8 346.8 349.7 351.4 353 354.2 355.4 355.9 354.8 352.7 350.8 350.4 351.5 353.3 355.1 356.1 357.2 358.6 356.1 350.4
444.6 444.5 444.8 445.9 447.1 447.2 448.1 452.4 454.4 454 457.6 452.8 459.5 466.3 478.5 488.1 496.1 500.6 504.5 510.1 515.9 517.8 515.3 510.4 511.1 516.6 521.4 527.9 529.9 528.8 521.2 508.2 498.8 488.6 482.7 473.3 458.9 444.4 432 431.8 434.7 449.7 454.6 454.2 469.3 476.7 480.7 483.7 483.1 480 475 469.6 466.7 460.2 452.9 442.3 436.2 434.9 431.7 425.3 421.3 418.2 413 408.8 400.8 395.5 393.1 391.1 389.4 388.2 385.6 381.6 375.6 368.6 371.3 371.6 371.9 370.8 372.5 379.8 386.4 394.8 395.5 394.9 400 405.6 405.3 405.9 406.8 407.2 404.7 402.5 402 401 401.1 402.6 403.2 403.7 403.7 403.2 402.6 401.8 400.9 401.1 398.9 388.8 383.8 381 388.1 390.4 395 397.9 397.9 396.2 391.4 384.9 378.3 373.3 368.2 359.8 352.3 348.4 346.7 344.1 343.4 343.6 345.6 351.8 352.5 354.2 357 353.7 348.3 341.6 333.6 323.3 314.6 302.2 283.9 264.1 248.7 244.8 246.4 248.1 253.9 271.5 297.4 314 319.2 323.8 324.6 324 323.8 322.8 324.2 322.8 323.3 325.7 331.6 338.6 344 343.6 341.7 339.6 340.1 337.7 336.2 337.7 337.2 335.6 332.6 334.9 335.7 334.5 334.3 335.8 336.9 337.5 338.6 342 345.2 348.1 350.9 352.2 352 352.1 352.6 354 352 349.9 349.6 348.5 347.4 348.2 349.8 352.2 352.2 352.7 352.7 349.1
445.3 444.3 443.9 444.3 445.5 445.7 445.4 447.9 449.7 450.4 450.6 453.2 459.8 466.9 475.9 488 494.3 498.9 503.8 507.9 515.3 519.6 518.1 508.7 509.5 516.5 521.3 527.4 530.3 530.3 521.3 507.9 495.5 489.4 481.2 472.4 461.9 433.9 431.3 431.9 437.8 448.6 451 455.4 467.8 477.9 479.3 479.6 481.5 480.4 477.5 474.6 469.2 463.2 452.8 444.8 441.4 439 434.3 430.9 429.4 423 416.5 413.2 406.2 400.6 396.4 394.3 391.8 389.9 385.7 382.1 376.7 369.3 368.2 366.2 370.5 366.5 363.3 367.6 380.7 386.2 385.5 391.4 398.4 401.5 403.2 406.7 406.6 404 401.5 401.9 400.2 398.7 398.2 398.6 397.9 397.6 398.7 399.2 398.6 397.3 397.2 397.7 397.1 391.8 386.3 380 379.6 384.5 392.6 398.5 396.7 393.8 386 383.6 377.5 371.9 365.9 358.7 354 348.1 344.8 343.1 342 343.6 346.4 350.5 355.3 354.8 352.4 351.9 347.6 342 336.2 327.1 311.8 295.9 285.9 270.1 256.5 244 245 244.5 246.9 265.5 289.1 303.5 309.8 318.1 322.2 322 319.5 320.1 321.2 320.2 319.4 323 325.1 324.7 325.3 325.2 327 328.9 332.8 334.7 333.2 333.8 333.4 330 333.3 336.5 335.3 333.8 337.1 336.4 336.7 338.3 339.8 342.3 346 351 353.1 354.8 354 351.3 348.8 348.4 345.7 345.3 344 342.8 342.9 344.4 345 346.2 346.7 346.4 347.2 345.4
442.3 443.4 442.2 443.5 443.5 443.8 444.2 444.2 445.4 447.9 445.3 452.6 459.5 465.4 475.6 485.1 493 497.9 502.4 511.7 515.1 518.1 512.1 506.2 508.7 514.7 520.6 528.2 531.3 528.7 519.9 511.3 501.7 491.5 479.1 467.9 460.6 431.3 431.2 432.2 441.4 442.7 449.3 456.3 459.3 472.9 475 482.7 482.6 480.7 480.7 480 470 461.4 453.3 448.3 445.7 440.9 435.5 433.9 431.9 427 423.2 416.6 410.9 407.7 404.2 401.6 397.4 394.8 386.8 386.3 373.3 374.1 370.6 362.3 360.5 361.7 358.6 354.6 369.7 376.9 380 388.3 395.1 398.6 401.7 404.6 403.6 402.4 399.8 399.1 397.3 396.6 395.7 394.9 394.7 395.4 395.3 393.9 393.9 393.3 393.2 393 390.9 388 384.2 381 375.9 380.3 388.8 393.2 394.6 392.2 384.5 382.5 375.5 370.9 363 358.3 355.5 350.4 345.7 343.6 342.8 339.7 342.7 344.7 350.4 352.1 354.3 349.2 348.5 345.9 339.8 325 313.1 299.8 283.7 268.6 258.1 245 243.2 242.7 245.3 262.2 280.8 295.7 303.5 311.8 314.7 316.1 316.4 318.5 318.7 318.8 317.1 319.3 320.8 322.4 322.5 322.8 323.7 324.9 329.2 333.6 330.9 330.9 332 328.7 329 332.4 332.9 331.7 334.7 334.3 335 336.9 337.4 341.1 345.5 351 354.9 358.5 359.5 357.6 354.2 350.1 342.8 337.1 336.4 335.6 337.2 339.9 341.4 341.9 342.2 342 341.5 340.3
437.5 438.5 441.5 441.5 442 443 440.6 442.3 443 442.9 443.6 449.9 459.4 463.8 472.8 483.1 491.4 498.1 506 511.8 516.3 513.3 504.5 503.8 507 512.4 520.9 529.1 530.5 522.7 517.2 512.5 504.2 495.6 481.3 468.5 446.1 431.3 431.4 432.9 440.4 440.9 444.8 450.9 456.5 463.9 472.2 481.4 483.7 484.2 487.1 484.8 473.4 461.9 457.1 452.7 447.9 443.1 438.2 436.8 433 428.9 426.9 422 418.3 417.4 411.9 407 403.7 399.9 393.4 382.2 381.3 381.5 373 364.2 359.3 359 354.3 354.3 350.6 371.4 377.2 382.2 390.2 396.8 399 403.2 400.5 397.9 395.3 396.7 394.5 394.7 394.9 393.8 393.8 393.8 393.7 390.5 388.6 389.2 389.6 387.9 384.4 382.1 378.7 374.9 374.1 378.8 385.4 389.5 389.9 383.3 382 377 374.5 371.5 365.4 358.8 356.4 353.3 349.6 345.1 344.1 340.2 339 341 345.3 346.9 351.2 348.9 348.8 346.1 336.3 324 311.4 301 290.1 276.6 261.3 248.5 242.1 241.9 245.2 259.6 271.6 288.2 299.1 306 309.2 312.3 310.8 313.1 314.2 315.1 314.8 316.8 317.5 318.9 319.6 322.1 323.3 323.8 326.9 330.1 328.5 328.9 330.1 328 326 327.2 329.3 320.1 329.7 329.3 329.5 332.7 335.2 339.4 344.1 348.7 351.6 355.6 360.3 361.7 359.4 357.1 353.2 345.3 335.2 332 333.2 335.1 335.8 337.1 336.8 337.4 337.3 336.7
431 432.4 439.1 437.8 440.5 440.1 436.9 438.6 439.7 435.2 444.1 448.2 457.4 460.8 474.1 480.9 491 495.6 506.6 510.7 512.1 511.1 498.1 501.5 507.6 511.8 519.7 524.6 527.1 519.8 515.1 509.2 502.9 491.7 480 467.6 435.1 430.7 431.8 433.4 438.2 439.8 443.4 448.8 453.5 459 467.6 479 484.9 489.6 493.1 489 474.7 465.8 457.9 454.7 449.2 443.2 440.3 437.9 436.5 430.9 429.1 425.8 422.6 422.3 419.7 416.4 410.7 406.4 396.5 386.9 388.2 389.1 372.5 366.2 363.4 357.3 356.5 352.5 338.5 363.7 369.8 378.2 385.4 392 398.1 397.7 394.9 391.6 391.3 391.4 390.1 388.8 388.8 391.6 393 393.6 392 388.4 387.4 386.8 386.1 384.5 381 378.2 374.9 372.9 372.9 378 383.6 383.8 383.7 377 378.8 370.9 369.8 368.7 364.5 359.1 355.5 354.4 350 345 341.5 339.7 336.7 336.6 338.7 338.6 341.2 341.6 342.1 339.2 330.5 319.9 311.1 294.7 288 277.9 267.1 253.5 252.2 244.7 240.7 254.2 264.5 279.9 294.6 300 307.8 311.2 307.7 309.2 310.2 311.4 310.4 312.4 313.9 314.9 316.4 318.4 320.1 321.2 324.2 325.4 325.4 326.3 327 327 325.3 322.9 322.6 316.9 324.1 325.3 324.5 326.8 332.6 337 341.2 345.3 348.1 351.6 355.9 361.4 362.4 360.5 356.6 351.8 344.5 332.2 328.8 330 331.4 331.7 331.8 331.7 331.5 331.3
423.9 427.5 431.4 433.6 436.6 437.3 433.6 434.7 436.6 432.6 439.3 444.8 453.7 462.3 473.4 483.1 486.3 494.1 503.6 509.2 509.2 494.7 491.7 497.7 504.2 509.5 517 520 518.2 512.4 509 506 501.3 486.5 479.5 459.3 433 431.1 430.8 432.9 436.6 439.8 441.7 445.4 453.1 457.9 466.6 477.9 485.1 494.1 497.5 486.3 476.3 469.7 464.9 456.3 449.4 445.6 443.8 442.3 437.6 432.6 431.9 427.4 426.7 425.1 422.8 419.5 414.7 412.2 401.4 395.8 394.9 386.3 378.8 370 370.7 358.5 354.2 351.5 344.8 342.9 360 368.7 377.9 388.3 394.4 392.7 389.6 387.1 387.7 386.3 384.2 383.1 383.4 389.9 392 392.2 391.4 387.1 386.4 385.8 382.5 382 380.5 379 378.1 371.6 372.5 376.2 379.9 378.6 377.2 371.4 368.2 363.7 361.6 360.3 359.5 356.2 358.1 353.2 349.7 346.1 342 338.3 335.5 332.3 329.8 329.2 327.6 329.4 330.2 327.8 323.2 310.2 293.4 283 282 275.5 275.7 267.3 251.2 244.6 241.9 242.3 258 269.8 281.7 291.6 307.6 304.8 305.3 308.5 308 309.2 308.7 307 311.4 311.5 313.7 314.8 316.2 317.3 321.3 321.7 323.9 325.6 326.4 326.4 326.2 325.1 323.3 318.8 309 309.1 309 317.6 329.4 333.1 336.5 340.8 345.9 349.3 352.8 357 361.6 363 359.3 353.6 344.7 334.4 327.3 324.8 325.9 326.4 326.2 325.6 324.4 325.6
414.7 423.2 427 433.7 435.7 431.9 431.1 430.5 431 432.1 435.9 440.9 452 464.4 476.7 483.4 485.8 490.7 498.9 503.8 499.9 485.9 488.4 494.4 499.3 505.9 511.6 513.7 509.5 506.2 501.8 497 492.8 484.8 473.4 450.8 435.7 434.6 430.6 432.8 437.6 439.3 442.4 444.1 448.3 457.1 464.7 471.8 482.7 493.7 493 484.4 476 472.7 467 456.4 448 446.3 446.4 441.4 437.5 434.8 433.2 430.1 429.6 427.5 424.3 421.6 415.7 412.5 402.9 401.9 402.1 389.1 379.3 376.8 370.2 360.8 355.6 350.1 340 334.9 347.4 361.4 372.6 388.4 389.7 387.4 383.8 382.3 382.6 380.3 377.6 377 379.4 387.8 391.6 391.3 388.9 386.2 385.1 384.5 382.8 381.3 380.6 380.5 378.4 372.5 369.9 371.3 375.5 373.6 369.9 364.8 361.4 358.5 356.8 355.8 351.2 351.1 351.5 347.6 346 341.5 338 335.9 334 334.3 336.9 336.4 335.8 333.3 327.9 311.3 302.9 303.7 307.7 302.6 289.5 283.5 274.5 259 252.2 254.4 245.2 239.8 247.5 260.6 270.3 282.5 289.2 294 297.9 300.6 302.8 307.4 306.2 306.5 310.5 310.4 312.2 312.8 313.1 315.1 315.6 319.2 322.1 324.6 326 326.9 327.2 326.2 324.8 322.7 318.7 313.6 302 308.7 322.6 327.4 331.9 337.3 341.8 345.6 348.4 351.7 355.4 358.1 357.7 354.8 350 340.2 329.8 322.1 321 321.7 322 322.4 320.1 320.2
406.1 410.4 416.3 427.3 428.6 428.7 430.5 427.9 427.4 428.4 432.8 441.4 449 465.9 477.3 482.4 484.4 489.3 493.3 496 487.3 481.5 486.5 491.9 494 500 503.6 502.1 499.4 500.8 495.4 491.7 480.9 472.3 462.3 446.8 438.2 434.4 430.4 432.6 436.5 439.6 441.9 442.5 445.5 451 456.8 466.7 480.6 491.6 487.3 479.6 472.4 471.8 465.1 456.2 446.1 445.5 442.9 439 436.2 435.3 434.1 431.8 430.3 428.2 425.6 421.5 413.4 406.2 403.2 401.7 397.5 387.6 382.5 381.2 373.9 364.6 358 350.5 344.2 333.9 333.7 352.7 366.6 382.1 381.9 380.3 376.5 377 377.7 374.5 370 372.5 375.4 382.8 389.3 389.1 387 385.7 384.1 383.6 382.4 381.5 381.2 380.7 378.1 374.1 372.7 368.9 367.5 367.1 364.2 361.7 360.1 359 358.6 357 352.7 350.5 350 349.3 347.6 349.5 348.4 343.7 339.1 339 338.3 339.3 341 338.5 334.3 329.5 324.4 318 313.9 308.8 300 288.4 275.2 266.3 260 255 252.3 239 242.1 249.8 265.8 276.6 292.3 300.1 298.5 298.5 299.2 300 299.3 304.3 306.1 306.3 309.2 309.5 310.6 311.3 314.9 317.9 321.3 324.9 327.5 328.9 329.2 327.3 325.6 322.6 319.5 312.9 305.8 304.6 316 321.4 327.4 332 337.3 340.4 343.2 347.1 350.6 352.6 353.7 353.6 348.9 343.4 337.8 323.1 317.7 316 316.9 316.8 315.9 315.8
387.9 397.8 412.9 423 424.2 424.7 427.6 427.1 425.3 428.5 431.4 437.3 444.9 462 476.2 481.5 484.9 485.2 486 484.1 474.8 478.1 483.9 485.6 489.5 489.4 490.1 491.8 490.2 486.7 482.7 477.9 469.2 459.3 450 443.2 440.8 435.7 430.7 431.7 434.4 438.7 440.3 442.1 444 444.9 443.4 451.1 467.4 480.1 475.1 471.5 468.5 463.1 459.6 453 443.9 441.5 438.3 436.2 435.5 435 433.5 431.6 430.8 428.9 425.4 422.1 414 404.6 402.7 399.8 391.7 387.3 386.9 381.2 372.6 367 364 353.8 346.7 343.2 324 342.8 358.9 372.3 372.8 370.9 368.1 371.4 371.6 369.1 366.4 368.7 373.5 378.7 378.1 379.2 380.6 380.6 381.2 382.1 381.6 382.5 384 384.3 379.7 378.8 377.2 373.4 369.6 369.4 366.6 367.2 362.8 363.2 362.9 360.4 358.1 354.8 355.4 356.1 358.3 359.6 354.2 351.1 346.9 338.1 337.1 337.5 340.6 341.2 337 334.2 328.5 323.9 319.3 314.3 308.6 299.5 283.5 266.6 256.6 252.3 249.3 238.8 240.1 246.4 259.9 271.7 285.6 298.7 301.1 297.1 307.5 299 300 300.5 300.6 303.1 304.5 306.3 306.7 307.6 310.4 313.4 317.3 321.9 323.8 324.5 324.7 324.5 322.3 319.7 317.6 310.4 301.9 302.8 310.1 316 321.1 326.1 330.8 334.4 338.2 342.7 344.1 345.9 348 348.5 345.5 341.3 336.4 331.6 317.1 312.5 312.8 312.1 311.7 312.2
368.9 390.9 408.2 415.3 415 420.2 421.6 423.1 422.6 426.6 429.2 436.4 444.8 457 472 478.5 483.8 485.1 482.3 472.7 468.6 474.6 479 477.9 479.1 479.7 478.5 474.3 474.8 470.3 462.7 451.3 442 440.5 444.8 443.5 439.4 434.6 427.1 432.7 438.2 438.2 439.6 441 440.9 438.6 438.5 433.6 438.2 448.7 455.2 453.6 455.5 455.6 450.2 443.4 441.3 439.1 435.2 433.8 432.7 433.7 432.1 431.1 430.5 427.9 423 419.2 415.3 405.2 402.4 398.7 393.7 387.8 389.6 382.6 375.8 374.5 368.9 358.2 351.6 343.6 323.4 334.6 342.2 359.7 361.7 361 360.5 363 362.9 362.1 362.3 365.8 367.9 369.8 371.5 371.7 371 372.6 374.8 376.9 379.9 383.8 386.9 387.5 384.1 384.2 379.4 373.8 373.2 373.6 372.4 372 371.5 370 368.5 367.2 363.5 362.3 361.8 364.2 367.6 365.1 362.2 359.2 352.6 344.4 337.4 334.4 336.6 339.1 339.3 337.7 332.9 328 323.3 318.4 312.3 303 287.3 275.4 260.8 251 249.4 239.9 238.4 239.8 253.9 266.4 275.5 285.3 292 292.7 295.9 285.8 298.7 301 298.7 302.5 303 303.6 303.5 303.8 304 308.2 313.2 315.8 317.3 318.1 317.9 317.5 315.6 313.9 311.9 307.4 297.9 299.5 303.8 311.7 316.4 321.1 326.1 330.1 333.8 336.8 340.4 342 343.1 344.4 343.3 338.1 332.9 328.4 315.7 309.6 309.3 309.6 311.3 310.9
365.9 385.1 397.9 403.3 409.4 414.9 416.9 416.9 419.5 423.9 427.3 432.1 441.9 450.3 468.8 474.6 480.9 485.9 487.7 469.6 462.7 466.1 469.1 469.7 466.1 466.1 463.7 459.9 456.3 455.5 448 439.4 431.6 437.4 443.9 444.1 434.7 429.4 427.3 433.6 434.5 437.2 439.6 439.9 439.5 438.3 430 421.5 413.5 423.7 432.6 436 442.2 439.2 435.5 437.7 439.2 434.3 429.9 427.8 430.2 430.4 428.9 429.1 429.5 426.7 420.3 417.1 413.9 403.5 402.3 394.3 390.3 388.6 390.5 384.4 381.1 376.7 374 365.5 357.1 346.3 335.1 320.2 326.6 338.6 345 347.7 350.3 351.4 353.7 356.9 360.2 362.9 362.6 363 362.5 362.1 364.3 367.6 366.6 371.5 378 381 386.1 388.2 387.9 388.5 382 375.2 376.1 374.7 374.8 375.6 376.9 377.3 377.3 375.7 375 373.2 371.9 371.1 372.6 371.9 372.7 367.7 359.4 351.3 343.7 336.6 332.5 333.9 336.5 337.7 335.7 330.9 326 319.1 312.4 301.5 288.1 272 261.6 254.1 252.5 242.7 237.2 237 248.3 259.3 266.5 270.4 272.9 277 283.4 284.7 291.4 293.8 294.4 297.4 298 298.8 299.9 301.1 298 304.2 309.5 311 312.1 312.8 312.3 309.7 307.9 306.1 304.2 302.2 292.2 293.5 299.1 305.3 310.9 317.3 320.7 324.2 327.5 330.5 333.8 337.5 338.7 337.5 337.1 333.3 327.3 323.5 317.8 309.2 307.2 307.5 308.6 309.7
354.4 374.7 389.2 396.7 405.9 412.2 414.9 414.3 412.6 420.8 423.7 432 441.5 449.9 459.6 471.2 475.7 485.6 485.8 473.3 453.6 455.5 459 458.1 454.5 453 452.8 446.8 442.3 437.4 434.5 424.3 428.2 436.6 445.5 443.3 430.4 416.6 425 430 433 438.4 439 439.5 439.6 439.1 430.4 418.2 403.2 398.5 411 421.9 428.1 426.1 422.4 419.5 421.8 419.7 413.1 421 427 427.1 425.5 426.7 427.9 425.4 419.8 415.1 410 394.5 391.1 389.1 383.9 386.7 387.2 382.5 379.8 376.9 371.9 365.9 360.2 349.2 338.2 334.5 321.7 311.5 331.9 336.8 340.4 341.9 350.2 355.1 359.2 362.1 361.7 361.3 359.8 359.4 360.5 361.4 361.6 365 372.4 376.3 382.8 387.3 388.3 389.2 380.6 375.8 375.7 375.6 377 378.9 381.4 383 382.8 381.7 382.1 380.5 382.1 381.9 380.6 381.4 379.7 372.4 366.5 359.3 350.6 341 333.2 330.8 332.4 333 332.9 329.4 324.4 318.3 309.1 300.2 288.4 273.1 259.9 254.1 251.7 244.8 239.3 234.8 239.8 248.9 256.6 259.2 258.7 259.8 263.5 268.2 271.6 276.2 280.6 289.2 292 292.9 293.4 292.7 297.4 304.1 307.9 309.8 310.8 310.7 308.3 303.8 299.9 298.4 297.8 289 282.6 289.5 293.6 298.7 305.7 311.3 314.5 317.2 320.7 324.9 327.8 330.5 331.2 332.2 331.6 328.3 325.3 321.6 318.7 311.3 307.5 306.6 307.2 311.1
334.6 357.9 372.7 392.2 403 410 412.3 413.3 406.5 414.4 419.1 433.5 440.8 450.9 456.2 466.4 471.7 481.1 478.2 460.1 448.2 447.5 446.8 445.5 441.6 438.6 436 432.4 428.2 421.9 414.1 418 429.8 438 443.1 438.3 426.3 416.6 427.6 429.3 433.1 435.6 437.5 439.3 441.1 444 439.4 425.1 412.1 396.6 385.4 399.6 403.2 406.9 406.2 409.6 408.2 402.1 398.7 406.7 416.7 419.4 420.5 424.1 425.3 423 417.9 412 396.8 378.6 372.8 378 371.5 376.5 379.2 377.7 376.3 374.7 366.3 362.1 354.8 346.1 338.6 335.7 331.6 311 323.7 329.2 333.8 341.3 346.7 352.3 357.6 361.8 362.4 359.7 358.6 358 357.5 357.4 357.6 360.5 367.3 371.4 378.4 384.1 387 387 379.5 373.8 374 376 377.9 381.3 384.7 387.4 388.6 387.8 388.9 388.5 388.5 387.9 386.7 388.8 384.6 377.5 373.2 363.1 352.8 340.7 334 332.4 331.3 330.7 327.1 322.7 320.6 312.6 303.4 292.4 279.1 266.6 258.9 251.3 247.3 243.1 238.4 235.5 235 236.5 240.7 246.5 247.4 248.8 239.6 255.8 260.3 267.4 276.6 283.3 284.6 286.3 285.6 287.1 294.4 301.6 303.8 306.7 307.7 308.3 308.8 304.9 299.8 289.9 287 282.2 276.4 287.9 291.2 295.1 301.2 304 307.4 311.9 315.8 320.2 321.7 323.3 324.9 326.6 324.7 323.3 321.6 319.5 318.1 316.1 313.5 306.3 308.8 315
323.7 341 367.8 385.1 396.6 409.8 411.7 411.7 400.1 409.5 417.7 434.8 446 453.7 459 462 470.1 473.2 462.6 450.8 447.1 441.4 439 436.8 433.2 433.2 429.1 423.2 417.7 409.7 408.4 418.8 427.6 434.4 438.1 431 422.8 416.6 424.1 428.7 433.5 433.7 436.1 440.2 444.7 449.6 449.8 440.5 427.7 411.4 382.1 373.8 374.6 381.1 389.3 397.6 396.5 386.8 387.3 401.1 411.1 412.6 416.2 418.6 420.1 418.1 412.5 395.9 372.7 357.4 353.5 353.7 355.6 360.4 361.5 369 365.5 363.6 357 358.2 349.1 343.3 339 334.4 331 311.7 316.5 314.8 327.4 337.9 344.2 349.5 355.2 360.5 361.9 358.4 354.2 354.3 353.8 353.5 354.3 358.9 363.8 369.1 373.8 380.6 384.1 384.1 377.9 369.9 370.4 373.9 376.6 379.5 383.8 387.4 389.7 390.8 391.8 391.7 391.9 392.2 391.7 392.9 386.6 382.8 376.1 366 355.3 342.9 337.4 333.9 332.6 333.6 332.4 330.1 325.6 319.7 311.9 302.5 287.6 276.9 266.4 253 245.9 244.8 242.8 234.8 234.4 233.6 233 232 232 230.9 230.5 233.7 246.6 262.2 270 273.9 277 277.7 278.6 285 292 296.2 298.5 301.5 301.7 301.7 301.6 299.9 295.6 289.9 284.9 279.6 273.3 280.3 285.9 290.4 294.9 299.6 304.1 309.5 313 314.9 315.6 317 318.9 320 318.7 318 317.5 315.9 314.7 315.1 313.9 305.7 312.7 321.3
319.8 335.9 354 376.2 395.5 402.8 404.7 402.3 395.9 404.1 419.2 432.9 444.2 457.1 463.7 462.8 462 461.9 449.3 446.7 441.3 437.5 432.4 429.9 429.1 425.8 421.9 416.7 412.8 407.3 408 417.3 424.3 431.7 433.8 423.6 418.5 409.8 422.7 429.1 429.8 431.6 436 440.7 450.1 453.9 457 456.8 445.6 418.3 389 367.3 357.7 360 370.4 377.3 378.1 373.2 380.3 396.3 400.6 402.1 409.3 407.3 408 403.1 383.7 369.7 353 343 341.1 339.5 339.2 341.3 339 344.6 347.7 345.3 339.7 341.6 338.6 340 337.5 333.3 328.3 314.6 297 313.9 323.8 331.2 342.4 347.7 350.9 353.6 355.2 356.1 353.7 351.3 349.6 348.9 350.2 355.2 360.8 365.9 370.3 374.5 376.1 376.6 370.5 365.8 367.2 371.4 373.9 376.6 380 383.1 385.1 386.4 389.3 392.5 392.4 393.7 394.3 390.3 387 385.8 377.5 369.1 360.7 350.9 340.5 337.1 335.8 337.6 338.1 336.5 333.5 326.5 319.8 310.1 296.7 283.4 270.3 259.2 246.7 248.5 249.3 249.2 233 230.5 232.9 239.7 237.4 230.8 229.9 227.9 241.7 250.1 254.9 263.9 273 276.1 278.7 281.1 286.2 290.5 292.5 293.6 294.8 294.2 294.5 294.3 291.1 286.5 282.4 279.3 265.9 275 281.3 285.9 291.1 297.1 301.3 305.6 310.4 309.8 310 311.2 312.3 313.7 313.5 312.4 310.4 310.1 307.7 308.6 304.9 310.1 321.2 329.8
302.2 324.8 345.7 364.7 381.6 394.3 396.6 374.3 391.4 401.5 414.1 430.9 446.7 456.2 463.7 463.5 454.4 451.1 449 447.6 438.9 433.8 430.2 426.1 424.5 420.7 415.4 412.3 406.2 406.2 412.1 416.2 420.7 426.2 424.4 415.4 410 399.9 420.6 425 426.9 429.5 435.8 444.9 452.6 457.9 459.5 461.6 447.1 404.9 384.1 364.9 347.9 346.7 355.6 359.9 359.5 360.3 375.4 379.8 377.6 388.9 395.1 388.7 383.9 377.3 358.9 345.3 336.3 329.2 327.2 323.9 325.7 325.7 321.9 328.1 333.2 326.1 319.9 319.3 323.6 324.6 326.5 326 318 306.3 298.6 313.6 317.6 323.5 336.7 342.5 344.8 346.6 347.6 348.9 349.7 349.9 348.7 346.7 347.3 351.4 356.3 361.4 364.9 367.6 368.4 368.5 362.5 359.9 361.8 366.1 369.8 373.2 375.4 377.8 379.8 380.8 386.4 392.3 392.4 394.2 394.2 390.8 391 383.5 377.4 370.6 362.4 352.9 344.4 340.8 341 340.6 340.6 342.8 341.6 331.9 324 313.8 300.3 285.9 272 257.9 248.7 254.9 259.4 258.3 257.4 254.2 251 254.6 254.7 240.3 237.4 230.3 229.3 245.4 263.1 269.6 275.1 276.5 275.9 277.4 281.2 283.2 282.8 284.7 285.8 286.9 286.4 289 285.9 280 277.8 273 262.8 271.2 274.3 281.9 288.5 294.7 298.9 301.4 304.5 302.8 302.7 305.7 305.7 305.7 306.4 303.8 300.5 296.7 302.1 305.9 309.8 319.8 327 336.1
284.1 304 326.8 349.9 363.8 375.1 379.1 367.9 379.6 394.8 412.1 429.9 441.8 453.4 459.8 458.1 451.8 450.4 449.1 448.7 440.3 432 427.2 421.8 420.6 417.2 411.8 407.6 404.3 405.6 410.4 414.3 416.5 415.9 409.2 391.1 383 407.7 416.6 420.3 424.7 429.2 439 448.7 453.3 456.7 460.2 454.4 429.6 396.5 376.7 354.6 340.2 335.5 334.5 340.4 343.4 348.6 350.7 354.4 358.5 363.2 366.5 362 353.5 345.6 335.4 324.1 318.8 315.5 312.4 308.3 307.4 306.8 305.8 309.9 311.7 306.5 302.7 301.7 305 307.6 309.5 311.7 307.5 288.8 302.2 308.3 312.2 316.5 329.8 336.7 339.4 340 341.6 342.3 343.3 345.1 345.7 345.7 344.6 348.1 351.6 355.4 358.5 361.1 362.8 364.4 361.6 356.2 356.4 359.5 364.7 370.5 370.8 372.5 372.7 371.6 375.8 389.5 386.8 386.3 386.3 387.4 390.4 383.5 378.5 372.3 364.6 355.4 349.9 345.9 344.6 342.5 342.5 344.1 342.1 335.2 328.3 317 303.5 289.1 270 255.8 258.5 265.4 267.1 269.8 268.6 268.6 266.3 263.2 262.2 255 249.8 243.9 225.5 256.6 263.3 267.5 271.1 273.9 272 270.3 275.2 274.1 275.6 275.6 276.8 278.7 280 282.2 279.8 275.9 271.6 264 254 265.4 269.7 280.2 286.7 291.6 295.1 297.2 298.5 298.4 298.4 299.4 298.3 298.1 298 295.4 293.7 299.7 305.4 309.4 314.6 324.6 333.8 340.4
265.8 283.1 301.5 323.3 343.1 357.9 358 345.9 363.2 378.8 401.7 430.6 441.9 446.8 454.5 452.5 451.7 451.4 448.5 451.5 446.5 434.1 428.4 423.3 419.8 412.1 409.1 407.2 404.7 404.3 403.1 406.8 407.3 405.1 395.1 370.8 393.8 408.8 414 417.8 422.9 431.4 441.3 447.5 451.5 454.8 446.2 422.8 400.9 385.3 360 342 337.1 331.9 316.1 319.1 325.9 328.4 326.8 330 334.1 336.4 339.4 335 328.8 319.4 311.7 307.7 305.3 301.9 299.4 296.5 296.9 293.9 291.2 294.2 294.3 291.9 287.4 286.2 289.4 292 295.6 298.1 298.7 288.4 298.8 302.5 306.9 311.2 318.8 327.4 330.9 332.9 333.9 334.1 336.3 337.8 339.3 340 337.8 343.1 347 349.2 352 354.4 355.8 357.4 355.5 352 350.1 352.2 357.7 361.3 362.4 365.9 365.7 363.2 366.2 375.1 378.3 378.3 376.7 378.7 382.2 380.3 375.5 371.3 367.3 359.3 355.1 351.6 347.2 344.5 341.8 338.6 336.3 331.5 324.3 314.8 302 288.5 272.7 260 267.3 271 273.5 277 276.4 276.8 276.1 272.5 270.1 268.2 260.3 251.2 227.8 243.7 260.6 259.1 263.3 266.7 266.2 264.3 267.1 268 264.2 266.2 267.2 271 271.1 273.9 271.5 267.2 256.4 246.1 257.2 267.2 274.2 280.2 285.7 289.2 291.4 292.2 290.9 294 294.2 293.6 292.9 292.3 288.5 289.6 295.2 301.4 307.3 311.8 318.2 326.1 334.1 341.7
252.3 261.9 277 292.6 307 320.7 324.5 320.3 344.6 366.7 389 412.7 435.8 446 448.6 448.9 450.3 453.1 447.7 446.5 447.8 441.9 435.8 427.4 422.5 413.2 409.4 407.9 407.6 408.1 404.1 400.4 393.1 380.1 357.9 374.5 395.7 406.5 411.5 416.6 423.5 430.4 437.8 443.7 447.1 442.5 418.1 398.5 379.2 368.6 341.7 326.8 328.4 319.7 312.1 302.5 303.2 303.3 303.8 305 310 312.3 315.8 313.7 310.5 305 293.5 292.2 292 291.5 290.3 288.1 286.8 284.8 285 286.3 285.8 282.7 280.3 279 281.3 286.1 291.4 293.9 291.2 282.8 293.6 297.5 300.3 305.2 307.2 315.1 319.1 323.7 326.1 326.1 329.1 331 332.3 332.5 331.4 336.7 339.1 342.6 346.4 350.7 351.4 350.4 347.5 344.7 342.6 345.3 347.8 351.4 351.7 353.1 352.8 353.6 359 366 366.7 367.4 368.7 368.2 367.6 373.7 370.1 367.8 364.6 360.8 357 352 345.9 341.1 337.7 333.9 329.7 326 317.7 308.8 299.3 289.9 278.3 269.8 270.1 274.7 278.2 282.7 283.4 283.7 283.9 281 276.7 271.7 263.9 252.6 229.5 227.5 254.2 252.1 254 256.7 255.7 253.7 256.5 257.3 257.5 258.3 260.4 262.9 262.6 262 260.2 252.3 241.2 251 258.1 266.5 273.1 280.2 284.9 286.4 288 288.8 287.6 287.8 290.8 290.8 287.5 284.2 282 291.1 296.5 301.9 308.2 315.5 321.2 328 337.8 346.2
246.8 248.5 254.3 264.6 275.2 288 282.5 303.9 329.4 352.9 376.4 398.3 421.3 432.4 441.9 446.6 451.1 455.1 446.8 445.1 444.7 445.8 441.9 434.5 431.3 421.7 416.8 410.7 409.1 406.9 400.1 392.6 364.6 361 335.1 373.4 395 404.3 409.7 417.4 422.7 430.2 436.6 436.1 431.7 429.2 398.2 376.4 358.8 345.4 325.9 316.8 313.8 304.9 297.4 286.9 288.8 288.9 289.4 290.7 291.5 295.6 294.1 293.7 292.2 291.6 289.4 290.6 292.8 291.9 289.2 286.8 285.2 283.4 283.5 283.1 282.5 281.2 277.7 276 278.3 283.4 287.4 288.8 288.6 278.9 289.6 291.6 293.8 300.2 302.4 303.6 309.2 314.3 317.1 320.4 321 324.7 326.8 325.2 324.5 329.1 330.6 333.7 338.9 346.3 345.7 344.8 340 335.9 335.1 340.1 340.5 341.4 340.1 341.8 341.8 343.6 346.4 354.5 358.4 359 359.4 359.7 358.9 356.5 356.1 357.7 358.1 357.2 354.1 349.2 344.3 339.7 334.6 329.3 323.8 317.3 310.9 304.6 297.7 289.5 281.8 275 277.8 279.4 280.2 281.8 284.3 286.1 285 279.7 273.2 267.5 260.7 247.8 235.9 222.8 246.4 247.8 246 245.3 245.1 245.8 247 246.7 248.8 252.4 254.1 252.5 252 247.2 245.6 240.4 242.2 252.4 258.8 265.9 271.3 276.6 280.3 282.1 282.1 283 284.1 283.4 286.7 287.8 281.9 278.2 288.6 291.5 295.4 299.9 307.9 313.5 318.9 323.8 332.3 336
236.7 237 242 243.4 248.9 260.9 269.3 288 313.7 332.7 361.6 383.2 410.9 429.4 438.7 444.8 455.7 457 447.8 444.1 439.5 440.7 445.7 442.2 437.9 430.3 420.1 413.5 410.4 405.5 395.2 386.9 362.7 339.9 330 363.2 385 399.3 408.5 415.6 423.1 428.9 425.7 416.9 414.9 402.1 377 357.1 341.4 328.1 315.1 312.9 309.8 297.4 292.6 280 279 280 281.7 284.2 286 286.5 287 287.8 288.2 289 289.4 292.7 295.3 295.9 292.4 291.1 289.6 286.8 284.2 283 280.5 279.3 275.3 272.7 274.8 280.7 284.3 285.4 285.6 277.5 284.1 286.1 286.9 290.7 295.1 297.3 301.3 307.4 311.2 314.9 315.9 316.7 320 319.8 320.1 323.3 321.6 325.1 330.6 337.6 335.8 338.8 333.3 327 328 330.6 330.1 327.5 328.3 330.2 330 333.9 333.7 337.6 339.9 343.2 347.8 349.8 348.6 347.1 347.9 348.5 349.5 350.9 349.8 347 343.7 340 336.8 329.3 322 313.5 307.2 301 294.9 288.5 282.7 281.6 282.3 283.9 283 281.5 279.8 279.6 278.7 275.3 268.8 261.8 253.9 244.8 232.7 226.8 225.2 234.2 235 234.3 235 235.7 236.3 240.2 243.8 245.5 247.3 240.5 242.3 235.3 231.9 231.9 242.5 252.4 257.1 263.1 269 271.5 274.5 276 276.2 277.9 279.4 279.7 282.2 284 275.1 281.4 285.8 290.4 294.6 298.6 305.9 310.5 315.1 318.8 322 324.8
233.2 228.2 232.8 235.9 243.1 246.9 251.8 270.6 292.8 312.2 347.9 385.1 416.8 429.4 436.5 445.9 454 449.3 445.9 440.9 436.3 432.3 434.3 435.6 434.5 426.9 418.7 414.5 406.7 402 392.3 372 347.9 329.8 315.2 354.5 380.5 398.6 405.6 411.5 417.7 420.4 411.3 400.6 395.4 375.3 356.8 339.8 324.7 313.6 302 297.5 294.4 287.9 281.5 274.8 274.7 276.6 283.4 289.1 293.3 294.9 294.4 292.6 291.7 292 294.1 298.2 299.6 300.6 294.9 293.7 292.3 288.9 285.8 283.7 281.7 280.9 279.6 275.6 271.8 275 281.7 281.8 282.3 280.7 275.5 281.3 280 283.4 287.4 291.3 296.4 301 306.6 310.1 311.4 312.3 313.6 314.6 316.9 318.1 317.2 317.1 320.3 321.8 324.1 326 323.1 318.7 316.2 321.9 321 317 316.6 317.5 319.3 322.2 323.2 326.7 328.3 332.1 333.6 335 338.6 341.3 342.5 343.8 343.7 344.3 343.4 342.5 340.7 338.4 336.1 331.3 324.3 314.6 306.8 300.5 294.7 289.8 285.6 282.7 281.1 281.3 280.3 278.4 275.2 272.4 271.9 267.7 259.3 250.8 245 238.4 231.3 227.3 223.4 224.2 224.6 225.4 227.5 229.1 232.6 234.5 238.5 240.3 236.8 234.1 234.5 228.6 227.6 233.4 242.9 249 253.8 258.7 261.3 265.7 267.6 265 265.5 271.1 274.7 275.9 278.7 278.6 265.8 279.1 282.9 287.4 292.4 298.1 303.9 308.2 310.3 314.2 317.6 320.1
244 231.2 226.5 232.1 240.5 241.4 245.7 262.2 273.3 307.1 340.2 378 404.2 421.6 429.9 442.8 446.8 442.9 440.7 438.4 435.5 429.7 427.3 425.5 423.4 421.3 420.4 415.6 408.4 401.1 388.3 360.5 340.1 318.3 314.6 351.5 380.4 393.6 401.6 403.5 397.9 396.3 384.4 374.6 369 350.3 341.1 322.9 313.4 300.1 287.9 283.2 280.6 278.5 273 272.5 272.9 273.3 281.2 289.4 295.7 299.4 300.6 300.1 300.4 301.6 302.3 305.1 306.5 305.4 301.1 297.1 294.2 291.1 286.8 285.4 283.5 282.7 280.1 276.2 271 268.9 269.9 271.7 272.4 272 271.8 276.3 273.1 278.5 282.3 287.4 291.2 295.7 297.6 299 304 307 313.3 317 320.1 321.4 320.8 317.4 316 314.2 312.7 312.5 311 309.9 308.6 308 307.7 309.2 309.6 312.1 314.3 314.2 314.8 317.6 320.9 322.2 325.1 327.3 333.1 335.9 338 339 338.8 337.5 337 335.4 335 334 331.9 328.9 323.7 315.3 307.2 300.8 294.7 288.6 284.2 282 280.3 278.9 277.5 276.6 276.9 276.1 271 268.5 265.1 257.8 248.1 239 233.4 227.2 220.7 222.9 223.1 222.7 222.2 222 228.6 231.4 234.7 234.6 233 227.5 229.7 225.6 224.2 233.8 242.4 246.4 250.2 253.2 257.2 260.5 258.2 259 265.6 269.6 271.6 272 274 269.4 270.2 277 280.5 282.4 287.8 293.2 300.2 304.4 306.8 311.2 316.6 320.6
263.9 241.9 224.6 226.6 236.7 235.6 240.2 246.6 266.1 291.9 322.5 355.6 388.2 414.5 426.1 433.9 434.4 432.6 433.9 435.4 433.4 425 419.9 420.5 422.3 417.2 413.7 411.1 405.1 396.7 381.2 352.1 335.8 308.6 310.1 344.1 373.2 386.5 395 391.4 377.6 361.6 357.4 354.4 337.7 322.7 314.8 309.7 303.5 287 276.8 272 272.2 270.9 270.5 270.6 271.2 273.7 279.5 287.6 295.1 300.6 303.7 305 305.8 307.4 310.1 312.8 313.9 311.9 306.4 302 298.3 293.4 291.1 291 286.9 286.2 283.8 279.5 276 273.8 270 266.9 266.2 266.6 262.3 268.1 267.6 273.6 277 280.9 280.7 294.4 300.4 307.5 308.6 312.4 315.9 319.9 322.9 325.5 327.2 328.1 324.1 318.1 315.3 313.7 309.2 306.9 305.2 303.5 302.6 302.6 304.4 307.7 309.3 309.5 310.1 311.2 314.7 318.4 319.3 320.4 324.7 326.8 328.6 332.4 331.2 331.6 330.4 330 329.4 328.8 326.5 324.4 319.1 312.6 306.4 300 293.8 287.9 284 282 280.6 281.2 282.3 283.2 282.1 280.4 276.7 272.8 267.3 256.3 247.4 238.9 231.6 227.9 223.3 222.5 222.1 221.3 220.8 220.6 221.2 226.3 230.4 230.3 227.2 222.8 225 221.5 224.9 230.2 238.8 245.5 248.4 251.3 254 253.2 254 259.5 262.8 265.7 266.7 266.7 267.6 258.5 268.1 272.1 277.7 280.1 282.4 288 294 296.9 304.3 311.6 317.5 326.8
283.9 258.3 233.4 222.1 231.7 232 235.6 237.5 256.2 278.8 311.6 342.9 377.4 405.5 422 424.7 423.7 422.5 424.6 427.1 426.6 415.4 411 411.2 411.7 410.2 405.9 403.3 397 388.1 373 347.7 329 291.5 300.8 327.1 353.7 371.9 371.3 363.6 347.1 331.5 326.5 322 308.2 299.6 294 293.6 285.4 275.5 270.2 268.6 268.4 268.7 269.1 269.6 270.5 272.1 280.3 291 299.4 304.4 310 313 317.7 317.9 321 321.6 321.9 319.1 314 307.7 303 299.5 300.1 297.6 292.8 291.9 290.3 287 285.7 283.8 279.6 275.7 269.2 263.7 262.9 259.5 261.1 267.7 271 273.1 271.4 289.2 297.1 300.5 304.3 309.9 316 321 324.7 328.5 331.8 334 331 326.7 321.3 318.2 315.3 310.9 307.9 306.3 303.4 297.6 299.6 302.4 305.3 305 306.2 308.4 310.7 312.9 313.7 314.9 316.6 318.8 321.5 322.9 325 324.1 323 323.3 323 323.6 322.5 319.8 315.4 308.2 301.8 296.5 290.6 287.7 283.9 282.6 282.3 284.7 287.4 290.9 291.4 286.9 281.9 277.7 269.4 259.6 249.5 243.8 237.6 230.8 231.4 222.4 221.4 220.5 219.5 218.9 219 218.5 220.2 224.7 219.8 219.4 219.2 218.6 219.4 226.2 232.9 242.2 244.4 247.4 250.9 248.3 252.6 257.3 259 260.5 261.8 261.6 259.4 256.8 261.9 266.9 272.7 277.7 280.4 283.6 291.2 298.2 304.5 311.5 317.7 327.7
300.8 270.7 242.9 222.7 221.7 228.4 231.1 233 247.4 269.4 298.5 330.4 365.4 391.7 414 418.5 415.1 412.3 412.8 415.6 411.1 405.5 403.8 403.2 403.5 399.6 394.4 390.6 386.9 378 362.3 341.2 323.4 300.6 280.6 306 328.5 341.6 339.1 328.7 316.3 305.4 299.6 294.7 285.9 278.1 274.1 275.2 268.3 264.5 264.1 265.1 266.1 266.8 268.7 269.3 271.2 275.7 288.8 302.5 311.2 318.3 325.2 329 331.4 332.4 333.8 336.3 336 334.3 327.1 320.6 312.7 310.5 307.4 304.7 307.2 305.6 301.4 298.7 297 294.8 294.5 289.5 275.5 271.6 268.6 263 257.8 261.3 262.1 265.8 269.5 276.4 288.4 294.1 299.5 307.4 316 323.1 328.5 332.3 333.8 334 331.8 329.4 325.3 321.6 317.6 313.5 310 308 306 302 295.3 298.6 301.1 300.6 301.6 301.3 303.7 305.6 306.5 308.7 310 313.4 315 316.8 318.2 318.5 317.4 318.2 317.8 318 317.6 317.2 316.1 312.2 305.8 298.4 292.5 288.5 285.7 284.7 285.5 287.8 289.4 292.4 294.7 291.2 287.4 281.7 275.5 269.4 261.5 255.5 247.1 235.7 236.8 232.6 218 221.1 219.5 218.8 216.6 217.2 217.7 216.8 216.1 215.2 216.8 217 215.6 223.6 228.8 235.5 240.6 243.3 245.6 247.3 250 252.4 254.4 255.3 255.9 255.3 253.5 242.4 254.9 261.7 268.3 273.5 279.5 286 291.7 296.6 303.1 308.9 315.7 327.7
319.4 281.6 253.3 238.4 218.6 220.6 226.2 230.2 235.2 258.5 286.7 316.5 355.7 377.2 404.5 407.5 404.6 403.6 400.7 400.2 394.7 394.5 396.3 396.8 394.4 391.7 385.8 384.9 379.1 366.8 353.4 334.8 324 297.9 270.8 291 309.2 314.4 307.3 298.1 288.7 279.1 274.5 270.4 265.7 263.6 260.2 257.5 258.1 259.9 264.1 266.4 267.3 268 269.2 271.5 276.5 286.5 302.6 315.2 319.3 324.2 326.6 329.1 333.6 338.3 339.3 340.3 349.5 344.8 337.2 332.5 325.6 322.6 318.5 318.4 320.6 319.1 315.6 309.4 306.5 301.4 298.7 289.5 282.1 275.1 271.6 264.4 257.5 255.3 256.8 259.2 265.3 273.1 280.5 288.1 296.6 313.5 321.6 326.7 332.5 334.3 334.4 332.6 331.3 328.7 325.1 321.8 318.6 315.4 313.3 310.6 308.2 306.9 298.2 294.3 294.8 294.4 293.5 294.5 295.4 297.9 299 301.1 301.3 307.2 310.5 311.9 312.2 311.4 312.5 312.9 313.1 313.5 312.7 312 312.8 311.9 308.2 299.6 292 287.1 284.7 282.8 283.5 285.4 286.8 288.4 290.2 287.3 284.4 281.6 277.1 272 264.1 254 240.9 242.1 241.5 239.9 229.8 238.2 235.9 229.3 223.7 219.3 218.1 212.1 214.1 214.2 214 214.6 213.2 212 225 229.4 236.3 238.6 239.9 244.7 246.3 247.2 250 250.6 248.8 246 245.2 236.2 251.9 258 263.6 271.3 277.7 285.3 290.8 295.6 300.7 307.1 317.6 328.9
327.5 290.9 269.1 252.2 227.8 219.5 216.3 230 234.8 253 279.6 307.3 340.9 365.4 389 393.7 395 393.4 388.8 382.7 382 386.2 394.4 393.3 386.5 377.9 377 379.7 377.6 365.3 342.6 323.8 315.3 290.4 267.5 282.4 290.2 286.2 280.6 272.8 265.6 259.1 255.5 253.4 253.7 254.1 254.4 255.6 257 260.7 263.2 263.9 264.2 265.9 268.2 274.1 283.9 297.8 309 318.1 321 325.2 326.1 327.7 329.4 331 331.6 334.8 341.1 340.4 338.9 336.5 334.5 333.2 329.6 326.4 327.5 328 325.9 322.3 316.9 315 309.8 298.9 296.6 287.3 277.4 264.7 256.7 253.4 250.8 256.5 262.3 269.1 275.5 282.6 292 308.2 316.4 323.6 331.2 333.8 335 334.1 331.3 328 325 321.5 318.5 316.6 314.8 312.9 311.1 308.4 303.5 294.7 288.5 288.1 286.9 286.9 288.5 290.6 290.8 292.4 294.7 299.4 302.4 304.3 305.3 306.8 307.3 307.4 308.7 309 307.6 307.7 308.3 309.6 309.4 304.4 295 288 282.6 280.4 280.4 281.9 282 282.1 280.6 278.7 276.6 275.3 273.1 269 252.2 254.7 252.5 249.1 247.9 246.2 246.6 246.1 244 234.9 231.9 229.8 223 217.3 215.6 214.2 212.8 211.7 208.2 211.5 213.6 226.9 232.3 234.6 238.3 240 242.1 244.7 244.7 241.7 239.3 239 233.2 238.2 249.5 250.3 260.6 272.3 280.4 285.8 288.9 294.2 302.1 311 318 327.9
326.1 301.4 280.7 260.8 240.7 216.9 221.3 232.1 236.2 247.2 271.5 298.6 335.4 355.9 375.8 381.1 387.9 384.1 376.5 370.4 372.4 381.7 394.3 388.9 375.6 365.8 355.5 357.5 364.6 353 336.4 326.1 314.8 282 259.4 267.7 271.9 268 260.4 248.1 246.2 254.6 257.5 256.2 255.4 256.6 257.6 259.8 261.4 262.2 263 263.7 265 266 268.6 279.5 291.3 304.9 310.6 313.9 315.4 317 317.3 317.9 319.2 321.3 322.4 324.5 328.1 330.3 333.7 334.1 335.6 335.5 334.4 335.1 334.6 335.1 333.2 328.3 324 323.4 313.3 308 306.5 295.6 279.6 265.7 256.4 254.3 252.2 251.7 257.7 263.2 268.8 274.4 283.7 293.9 302.6 310.7 319.8 326.8 330.7 338.1 336.1 332.2 326.4 321.4 318.5 316.2 314.4 312.7 311.3 308.6 304.6 299.4 296.8 293.5 291.2 281.1 282.7 285.1 284.9 286.6 287.8 290.3 292.5 294 297.3 299.9 299.1 300.1 302.8 301.7 301.7 303.1 304.3 304.8 306.6 303.6 297.1 288.1 284 283.2 279.1 277.9 277.1 275.6 273.5 272.4 271.8 270.5 265.6 264.3 265.3 262.5 262.5 258.2 254.7 252.9 252 251.7 250.2 242.5 236.8 234.6 230.2 225.9 216.9 214.8 213.4 212.5 211.7 211.4 208.2 224.6 228.1 227.6 233.5 234.4 238.1 239.7 237.5 236 233.1 233.6 228.7 238.4 239.9 252.2 271.5 284.1 289.5 291.6 292.5 293.1 301.6 311.7 320.4 327.9
325 314.5 289.8 264.8 244.8 220 217.7 234.4 237.9 248.1 266.3 291.7 320.7 345.5 361.9 370 370.5 366.6 363 362.8 367.5 381 380.8 371.5 360.7 346.9 332.4 327.6 331.1 323.1 315.5 309.5 302.1 280.5 260.1 250.1 252.9 253.9 244.6 248.4 254.4 260 264.1 267.1 269.4 269.3 268.8 267.5 266.6 265.7 266.5 266.6 266.3 267.2 269.3 276.7 292.1 301.4 307.2 310 311.5 312.5 313.2 313.1 313.7 314 314.5 315.3 316.9 319.4 321.7 323.4 328.7 333.9 338.7 344.6 341.5 341 338.2 337.6 330.1 320.4 310.6 303.4 297.7 288.7 278.5 269.5 260.3 253.4 251.8 250.4 249.3 255.5 261.5 266.5 274.7 280.9 288.2 294.9 303.4 312.6 318.9 326.8 332 331.5 329.5 325.3 319.7 315.9 314.2 311.6 309.5 307.2 304.2 299.5 295.5 292.3 288.7 284.5 278 279.9 280.8 284.9 288.3 289.9 290.7 291 290.8 290.6 291.5 292 295 293.7 298.4 298.6 299.5 300.3 301.8 301.4 295.9 290.3 289 287.7 283.6 283.8 276.6 274.3 272.4 272.3 272.2 273.2 272.7 271 271.6 271 267 263 260.5 257.4 257.9 256.2 256.1 252.9 245.6 242.2 236.1 230.5 222.5 219 214.7 211.6 210.9 210.6 210 216.2 218 222.2 225.4 229.5 232.2 234.2 231.3 231.1 225.5 224 234.2 246.1 258 274.9 284.9 293.5 297.1 298 298.1 298.7 301.5 310.5 319.7 330.6
319.4 307.8 288.5 261.7 244.8 227.4 208.2 229.4 239.1 254.5 275.3 293.3 315 337.2 348.9 355.8 355.9 356.6 356.9 354.1 359.5 365.1 363 353.2 345.6 326.9 315.8 299 298.1 294.9 295.1 290.1 283.4 269.1 254.3 241.8 243 243.6 241 251.2 258.9 265.2 270.7 274.5 276.4 276.2 275.4 275 275.6 275.3 273.7 272.3 269.6 271 271.7 275.9 282 290.1 297.4 300.8 305.1 307 307.7 308.2 308.1 308.1 309.8 309.7 310.1 312.1 314.9 317.7 321.3 325.9 332.4 336.4 342.8 349.3 352.2 349.3 341.8 333.8 326.4 315.4 300.8 289.1 277.5 271.7 261.3 255.9 256 254.9 248.1 247.8 251.8 258 267.4 272.9 279.3 284 289.5 296.1 301.8 312 320.4 322.6 323.2 321.5 318.3 315.4 313.7 312.2 309 306.1 303 300.3 296.6 291.7 284.7 281.2 277.4 275.3 282.3 287.3 291.9 293.6 293.7 291.8 286.4 285.6 285 284.4 283.4 285.2 291.2 292.8 294 293.7 295 296.2 295.1 294.1 293.7 293.1 292.8 291.1 286.1 277.7 272.5 272.9 274.3 275.7 276.1 276.3 275.7 274.5 269.1 267 264.4 263.4 263.5 262.9 261.8 259.2 255.1 248.4 242.6 236 232.5 225.4 214.8 212.5 210.3 209.9 210 210.5 212.7 217 221.8 225 225.9 226.5 225.9 227.4 220.2 238.4 248.7 260.6 272.7 287 300.6 306.9 305.4 302.6 303.1 304.1 309.4 319.7 323.3 324.7
314.9 293.8 277 259.1 244.4 228 209.6 219.3 237.3 258.9 282.2 312.3 327 332.9 340.2 346.5 351 354.7 352.7 348.6 346.9 339.1 330.5 320.5 313.2 304.1 294.4 278.1 275.5 275.5 273.9 269.7 262 252.9 247.4 242.5 237.5 236.1 242.7 255 260.7 268.2 275.8 279.1 280.5 280.7 280.4 280.1 281.8 280.9 279.3 278 274.2 275.3 275.5 277.7 279.4 278.9 284.6 288 292.2 296.3 300.1 303.7 304.8 304.9 303.9 303.2 306 308.5 311.9 314.9 318.2 323.1 327.9 332.8 333.9 334.9 335.5 338 341 344.2 336.4 324.6 311.2 298.2 290.8 278.8 267.7 265.8 266.7 270.2 260.4 247 245.6 250.6 258.4 267.2 274 278.8 282.9 287.1 291.2 291.9 304.7 308.3 309.5 309.9 309.2 310.1 311 310.8 310.2 307.6 304.5 303.2 300 296.9 289 281.9 279.6 269.1 282.2 286.6 291.4 294.5 295.7 293.3 288.8 283.3 279.5 276.9 276.4 278.3 279.3 284.4 286.2 287.2 288.3 289.4 292.3 294 295.7 297.5 298 296.3 294 285.6 274.1 275.1 276.8 277.9 278.6 278.7 278.5 277.8 273.8 270.9 267.7 267.7 268.4 267.4 265.8 264.5 261.5 255.7 253.1 252.9 248.8 231.6 217.5 216 211.9 209 209 208.7 208.8 210.4 215.2 214.7 217.3 220.5 223.6 216.6 234.8 248 259.9 269.1 279.5 295.9 308.7 310.2 310.1 309.3 309.8 311.5 314.1 319.5 327.8 329.9
305.7 287.6 269.1 254.7 242.3 230.2 216.4 206.5 230.2 255.3 278.7 315.4 337.9 352.2 355.1 356.3 364.5 361.7 358.4 348 331.7 322.1 303.8 294.3 282.7 276.7 267 258 251.7 255.2 254.1 251.5 245.2 238 229.4 232.5 233.7 233.2 244.7 252.9 258.2 265 272.9 276.3 278.8 279.8 280.2 280.4 281.2 281.9 281.5 279.7 278.9 278.9 280.4 284.1 290.5 292.7 292.7 292.9 294 293.3 293.9 294.9 295.4 296.6 297 298.8 301.5 305.6 309.1 312.1 314.9 319.4 323.5 325.2 327.7 329.8 331.9 336.3 342.6 343.5 335.7 319.5 316.4 307.5 297 286.1 282.8 278.6 275.4 279.2 267.6 254.7 245.6 247.4 255.3 261 267.4 273.2 278.1 281.5 283.7 284.8 289.5 293.5 294.9 296 296.1 302.3 306.2 307.3 307.9 306.7 305.4 303.9 301.6 298.4 291.8 285.8 281.3 268.5 278.9 283.6 287.6 288.7 289.5 288.3 286.8 283 277.2 269.5 269.3 270.1 268.2 271.4 274.6 279.5 282.1 284.8 289.2 293.1 296.2 299.2 301 301.4 299.2 294.2 283.2 279.8 280.7 281 281.1 281 281.6 282.2 280.8 276.1 272.8 271.4 272 270.8 270 268.5 267.4 267.8 265.1 261.5 251.6 231.4 224.9 224.1 221.5 215.8 207.5 208.1 207.6 207.1 209.6 211.4 213.8 217.7 214.4 226.8 239.7 254.3 260.9 270.1 284.9 299 305.3 307.2 308.3 309.1 310.4 313.5 319 333.3 334.8 339.5
297.7 284.3 263.6 250.7 241.3 233.1 224.8 202.5 221.5 247.1 271.1 304.1 328.5 352.2 372.2 370.8 367.6 359.9 354.3 342.5 326.8 304.5 281.3 268.9 261.6 254.3 246.4 238.5 235.8 234.4 232.6 231.8 226.4 222.6 223 227.3 228.8 231.4 238.5 247.1 254.9 259.9 265.4 270.4 274.1 276.2 279.2 281.3 282.7 283.2 284.7 283.7 283.9 285.3 287.4 292.9 299.4 301.7 305.9 307.7 304.8 302.6 297.9 295.5 295.2 295.6 296.1 296.9 298.9 302.6 306.5 309.6 312 316.4 319.3 321.4 322.7 323 322.8 324.5 327.5 328.4 319.8 311.9 310.3 306.4 298.1 288 284.4 279.1 280.9 287 272.9 259.6 249 243.6 253.6 258.1 263.5 270.4 273.5 275.8 277.8 277.9 278 280.7 282.5 282.7 285.6 290.6 294.4 299.6 305.3 306.8 304.9 303.2 300.8 296.7 289.5 283.4 273.4 260 275.5 280.2 281.3 283.4 284.4 282.7 280.9 278.6 272.3 262.5 259.6 257.7 260.5 264.6 268.1 271.6 275.6 281.1 286.1 290.1 293.3 294.8 298 298.6 297.7 294.3 289.9 286.9 284.7 283.1 283 284.5 285.5 286.2 286.7 285.2 282.2 280.1 278.6 277 275.9 273.6 272.9 270.7 267.1 262.6 246.7 232.7 229.3 227.8 225.6 223.2 208.7 207.5 207.2 206.9 206.5 208.8 210.4 211.7 214.5 224.6 233.2 243.6 251.3 263.3 284.5 293.1 299.6 303.6 306.7 309.3 311.9 316.1 326.2 336.2 342.7 347.1
289.6 281.2 268.4 254.7 241.5 231.6 220.9 199.5 221.6 240.4 265.3 295.8 321.7 345 360 359.9 353.9 347.8 338.2 324.1 302.6 288.9 263.6 248.6 242.9 235.4 226 216.9 216.9 215 214.9 215.6 217.3 232.3 236 235.8 240.4 250.9 255.7 257.9 260.1 257.5 261.7 267.4 271.5 277.3 282.9 291.3 292.2 291 290.7 289.8 288.3 290.4 298.9 314.3 314.8 315.4 319.5 320.3 321.3 317.4 317.4 308.8 302.2 300.3 297.4 297.8 298.1 300.4 304.2 307.1 310.1 312.6 315.3 316.5 316.2 315.4 313.3 308.5 311.3 311.2 303.8 305.8 303.5 301.5 299.4 287.2 276.8 274.7 280.2 282.1 271.1 260.2 250.5 242 250.1 254.8 259.7 264.6 266.4 268.9 273.4 274.6 273 270.9 270.4 270.2 273.7 278.2 285.4 293.4 298.9 301.5 301.6 301.1 299.4 294.4 285.4 276.6 249.9 269.7 274 275 276.5 278.1 278.7 276.4 273 270.4 263.5 251.4 249.1 249.3 253.9 256.9 259.9 264.1 269.5 276.1 281.8 286.2 289.5 292.1 293 294.6 294 293.4 292.3 290.5 290.5 289 288.1 288.9 290 290.4 290.6 290.3 288.5 285.2 285.9 283.2 281.1 277.6 273.1 268.6 264.8 256.5 237.8 233.5 232.5 230.5 228.2 225.2 221.2 213 206.4 203.6 206.9 207.5 209 210.2 213.7 219.1 227.2 235.4 243.7 257.4 269.6 288.5 298 305 308.1 310 318.5 324.1 327.4 337.6 349.6 352.1
286.1 275.5 264 248.5 232.8 215.2 209.6 196.6 221.6 242.9 263.6 287.8 312.9 334.2 341.9 337.4 330.5 321.2 314.1 295.2 279.2 264.9 248.7 233.7 231.2 226.8 212.6 208.9 209.7 212.9 215.1 222.9 232.9 239.9 243.4 248 252.2 257 261.7 265.1 266.2 266.4 262.2 270 279.3 285.3 290.4 295.9 298.3 297 296.4 294.7 293.6 301.9 314.7 323.6 325.5 330.8 336 338 336.3 332.4 328.5 321.1 312.5 304.5 301.7 302 299.1 299.7 301.1 303.7 306.2 308.6 311 310.5 310.2 307.3 304 299.3 299.8 298.7 289.7 292.3 291.5 291.9 287 279.9 272.6 268.9 267.9 263.8 260.7 257.1 248.5 238.4 242 250.8 254.7 257.8 259.2 262 265.1 268.9 268.7 267.8 264.2 261.9 262.3 265.2 270.4 280 289.7 293.1 296 295.3 295.1 290.3 280.8 271.8 265.9 247.6 266 269.3 269.8 270.5 271 268.6 263.1 258.2 251.2 242.3 241.1 243.8 244.8 250.6 255.2 258.9 265.1 271.7 276.7 280.9 284.2 287.1 289.1 291.5 292.9 294.8 295.4 295.3 295.7 295.2 293 292.8 292.8 292.8 293.4 293.2 291.5 290.4 290 288.4 285 280.3 272.7 267.9 264.1 252.1 238.1 236.2 235.7 230.9 227 224.1 219.6 216.9 214.6 205.6 205.7 203.9 207.1 208.2 210.9 219.8 227.6 238.8 254.3 265.6 279.4 296 302.9 306.2 311.6 317 321 329.2 336.4 337.9 350.9 354.8
289 273.8 264.3 253.7 238 203.9 197.5 216.2 233.8 249.6 265.2 285.7 305.3 319 320.5 315.3 308.6 297.9 284.1 268.4 253.6 242.1 233.5 227.2 223.2 212.2 206.2 209.4 215.1 223.3 228.1 233.6 237.3 242.5 246.9 251.6 256.7 261.4 265.6 278.1 283.5 281.9 273.1 275.3 280.5 289.5 296.3 300.9 302.5 301.7 300.5 299.4 305.1 319.8 335.4 341 345.1 342.4 345 345.6 342.4 337.3 331 322.8 316.7 313.7 310.6 309.5 305.3 302.4 302 303 304.2 306.2 306.6 306.7 306.4 302.7 295.6 291.5 291.3 287.8 281.5 281.4 280.8 277.7 272.4 267.9 264.5 260.9 258.1 256.3 253.6 252.9 247.2 240.5 237.5 244.7 247.7 250.7 252.8 256 257.8 261 260.7 261 260.1 257.1 256.1 258.7 264.9 274.1 278.1 281.3 285.5 286.3 284.8 280.1 273.4 264.4 261.1 241.1 258.6 262.3 262.6 263.3 261.4 258.3 252.1 247.9 243 236.5 231.8 237.7 240.7 244.2 250 254.5 260 267.7 273 277.1 280.6 284.4 288.4 291.7 294 296.4 298.2 299 299.8 298.8 297 296.9 295.8 295.7 296 295 293.2 293.3 293.3 290.5 287 283.2 275.1 267.8 261 243.7 238.4 234.5 231.2 228.1 225.6 223.2 218.8 213.7 207.1 205.1 205.1 205.5 205.6 207.6 217.8 223.7 230.3 251.2 266.4 279.7 297.3 303.6 307.3 308.9 314 318.5 320.8 327.7 335.2 342 347.6 351.3
297.1 277.5 262 249.8 231.8 204.2 194.3 218 240.9 260.1 274.5 288.3 296.7 303.2 301.3 295.8 288 274.8 259 244.4 232.5 224.5 221.8 217.5 211.9 204.5 206 211.1 214.8 227.4 231.6 237.5 241.5 245.4 249.5 255.2 262 272.8 288.8 301 302.5 300 280.9 281.2 290.9 297 300.9 302.7 305.3 305.4 305 307.3 315.2 326 341.9 347.1 356.4 356.3 355 352.8 345.4 340.2 338.3 334.7 328 320.5 318.1 312.1 308.3 306.5 305.6 306 305 305.5 306.7 305.5 303.3 297.5 291.8 289.3 285.4 278.7 272.1 269.4 268.9 267 261 260 256.8 253.3 251.3 248.5 246.5 248.4 245.6 238.7 235.9 235.9 240.1 245.2 247.5 248.7 253.6 253.4 253 253.4 253.7 252.4 249.7 251.7 257.6 262.2 263.7 267.8 272 274.6 272.6 266.3 260 252.1 251.8 235.2 254.3 255.3 255.7 256.5 253.6 249.3 244.4 241.9 237.7 229.6 230.9 233.5 234.7 235.7 243.2 250 257.2 263 269.4 274.2 278.5 282.3 286.6 290.3 293.2 296.3 299 301.5 302.1 302 301 300.6 300.4 299.6 298.1 296.3 295.2 295.3 295.1 291.8 287.9 281.9 268.7 263.6 254.3 245 234.8 230.7 225.4 222.1 218.2 217.7 214.5 210.7 205.3 204.6 204.6 205.2 204.7 212.6 220 226.4 235.1 256.2 276.4 292.8 302.1 307.2 311.4 311.4 314.5 318.3 320.2 322.6 333.7 345.1 347.6 348.1
306.9 285.5 268.7 247.8 226.5 209.4 187.8 216 238.4 260.2 275.9 288.9 294.8 292.8 289.5 281.6 271 254.9 237 221.2 216.4 206.5 194.1 200.3 201.3 204.7 208.6 212.3 216.8 227.8 235 242.4 248.2 251.4 258.4 267.8 282.9 295.6 310.3 308.7 308.4 305 282.5 287.5 299.5 304.5 307.1 307.5 307.8 309.2 309.9 311.7 318.4 329.4 342.2 354 361 361.4 358.1 354.9 360.4 361.8 354 346.8 337.5 332.1 326.5 324.3 316.3 312.2 309.1 308.2 307.3 307.2 307.5 305.6 304 296.7 291 288 282.2 275.1 271.3 268.1 262.4 260.2 260.4 257.7 256.1 259.1 259.6 259.5 258.8 256.4 256.6 252.2 241.3 238.3 234.5 233.7 240.1 243.1 245.6 246.5 246.6 247.1 246.5 246.5 246.1 247.3 247 252.1 250.5 255.4 257.3 257.1 254.1 250.4 246.5 244.3 243.7 228.9 246.8 246.7 248.2 250.2 248.4 244.4 239.3 236.4 233.4 222.7 225.4 230.1 230.1 234.7 240.8 247.1 256.8 262.2 268.4 273 277 281.3 284.6 287.8 291.6 296.3 299.6 302.5 304.5 304.3 304.9 304.4 303.8 302.5 301.7 301 298.2 297.5 296.1 292.7 287.3 275.9 266.3 261.3 257.8 252.2 237.2 232.2 228.6 225 219.9 213.3 209.8 206.8 204.9 204.1 204.1 204.1 203.8 215.7 222.4 229.1 238.7 263.6 283.2 298.4 307.3 312.4 314.6 317.3 318.8 316.2 315.8 321.6 329.4 338.7 343 347.5
311.2 292.7 272.7 249.5 225 204.4 186.7 215 236.2 252.4 264.5 271.6 274.2 275.3 274.9 270.1 258 237.2 218.3 210.4 193.3 192.8 201.6 197.7 209.8 211.7 210.6 214.4 221.8 234 243.7 254.9 268.1 277.9 287.5 295.7 299.7 305.3 309.5 311.6 309.1 305.5 289 293.4 300 307.3 310.3 311.3 312.1 313.5 316.7 319.9 319.2 329.3 341.8 351.4 357.9 362.4 366 372.3 374.7 375.3 367.4 359.7 358.5 354.5 345.7 336 322.7 312.9 309.2 308.3 307.6 307.2 306.4 307 304 297.8 290.1 280.5 286.3 284.1 277.5 275.8 271.9 268.8 267.8 265.5 265.6 264.9 264.8 265.8 265.5 263.2 264.2 261.1 251.5 246.7 242.5 234.8 230.2 231.4 236.2 239.6 239.4 239.4 240.4 240.2 240.4 238.5 238.6 238 236.3 237.4 240.6 240.1 240.3 236.5 236.4 238.1 235.9 228.2 237 237.7 242.1 245 244.7 238.9 235.4 231.7 222.2 222 222.7 225 225.5 230.6 238 244.3 252.4 260.4 266.2 272.4 276 280.2 284 287.6 291.1 296.6 299.2 303.4 306.7 306 306.6 306.7 305.5 305.3 306 305.6 302.4 300.4 298.5 294.3 286.9 275.1 269.6 265.1 261.3 253.6 247.9 241.2 233.8 226.2 217.7 213.8 210.6 208.3 205 204 203.3 203.4 201.6 217.4 224.2 229.2 240.3 271.2 292.7 304.3 313.2 318.2 317.7 318.9 320.2 317.5 315.3 316.6 328.1 333.6 342.1 341.1
314.1 296.6 274.5 248.2 222.9 197.7 188.5 217.6 234.4 246.3 253.8 256.8 259.6 262.2 261.1 253.2 236.9 218.1 207.4 186.7 202.3 206.4 210.3 212.8 215.1 218.5 218 219.8 236.8 252.6 262.6 275.4 285.5 294.8 300.9 305.4 312.7 316.2 314.7 313.7 311.7 307.5 297.3 295.1 304.8 309.1 313.2 315.3 317.2 320 321.8 324.3 325.2 331.4 338.5 355 363.5 366 369.7 375.8 381.3 381.7 378 375.1 374.5 366.5 359.8 350.6 334.6 322.2 311.7 308 306.4 306.5 304.9 303.4 299.5 293.3 295.6 294.5 292.5 290.2 284.4 282.5 280.1 275.4 273.1 272.1 271 271.1 270.2 271.2 271.6 270.6 271.4 269.6 261.8 257.3 254.1 239.8 238.1 234.3 230.1 223.8 230.6 230.6 230.9 234.2 234.8 235.2 232.3 230.5 226.9 228.9 229.3 228.1 227.8 228.2 230.9 233.5 231.4 224.4 229 232.4 235.1 239.8 243.4 234.2 232.7 228.7 219.8 214.4 220.7 219.1 223.4 230.9 236 242.2 251.1 259.3 264.8 270.6 276.2 280.7 284.9 288.5 292.2 297.3 300.7 304.8 306.4 307.1 307.3 307 306.1 307.6 309.1 309.6 308.9 306.7 301.9 293.5 286.5 278.5 274.9 271.5 265.1 261.9 259.4 259.3 251.4 231.2 221.7 216.2 216.6 212.8 209.5 204.2 203.2 202.8 200.8 215.2 220.1 225.3 243.7 274.8 291.8 307.2 317.2 322.1 322.9 326.7 326.7 324.6 318.2 314.3 317.3 324.5 333.1 333.2
312.7 296.5 279.2 250.7 222 191.5 192.3 214.4 226 239.2 245.5 244.8 245.2 248.5 245.8 236.3 218.7 204.9 191.3 198.5 205.3 208.6 212.9 217.6 220.7 224 220.3 229.5 246.7 264.4 278.9 295.1 308.4 313.3 318.1 318.7 320.2 321.6 321.4 321.5 319.5 314.4 311.2 298.6 308.4 313.8 316.4 318.9 321.6 324.1 328.1 331.2 339.3 345.4 348.3 356.1 367.9 371.9 381.7 384 383.6 380.5 374.3 373.4 375.7 371.5 365.8 354.1 342.7 325.8 315.8 312.7 309.3 306.3 301.5 302.8 302.6 302.4 300.9 299.5 297.4 295.8 293.1 289.8 286.8 283.3 283.5 280.5 281.4 279.1 278.2 277.6 278.2 277.1 280.3 277.5 270 265.5 263.1 250.8 245.3 238.5 237.5 235.7 229.7 223 220 226.3 227.9 228.3 227.3 226.4 224.3 221.8 220 218.8 219 223.8 226.3 229.5 231.2 221.5 222 227.4 229.4 234.1 236.7 231.2 226.2 222 216.2 209.4 213.2 217 221.3 227.8 230.5 237 247.2 254.1 259.9 264.5 270.7 276.7 282.1 287.5 293.2 300 305.1 308.8 309.7 310.5 311.3 309.7 308.5 310.1 311.8 312.8 313 311.2 304 295.2 290 283.4 278.1 275.1 272.9 278.5 277.3 266.6 249.8 236.7 228.6 225.1 223.7 221.2 217.7 216.1 212.5 201.9 202.6 201.5 208.3 214.6 234.3 257.9 284.6 312.2 323.5 326.9 328.4 331.6 330.2 326.6 320 314.2 319.8 326.1 330.4 333.4
306.3 289.5 273 250.1 222.2 191.4 184.8 203 210.2 223.4 231.8 234.2 235.6 236.3 231.4 220.7 208 181.1 183.3 201.8 205.2 209.5 214.1 217.9 223.9 229.7 227.8 236.5 252.9 271.6 289.8 305.8 315 321.4 326.1 329.3 336.2 337.9 335.2 332.1 329.8 322.7 319.5 310.6 305.2 319.7 320.7 322.4 327.4 332.2 344.3 345 350.2 357.6 361.3 368.4 377.6 380.6 386 386.9 386.2 382.3 375.3 370.7 369.5 366.2 361.5 349.8 338.6 327.4 319.8 313.3 310.8 309.9 309.9 310 309.2 308.3 307.7 304.8 303.4 301.9 299.9 299.6 298.3 298.3 295.6 295.6 293.9 292.4 287.9 288.3 286.6 285.3 288.6 288 278.9 272.3 268.6 256.7 246.7 242.3 237.8 235.7 230.1 224.3 221 219.2 220 219.6 220 220.3 220 218.9 217.5 215.7 215.2 220.1 222.1 224.8 227.4 226.4 215.6 222 223.9 226.8 226.9 224.9 220.6 217.5 211.3 206.7 210.7 213.6 217.2 220.4 221.6 227.4 236.7 242.6 251.5 256.2 263.3 270.2 276.1 284.9 293.4 302.9 310.9 314 315.1 316.8 316.8 314 312.3 314.4 315.6 316.8 316.2 313.2 303.9 297.5 292.4 287.1 282.9 280.1 285.9 289.9 285.1 274 257.7 237.4 228.3 227.9 227.4 226.9 226.3 226.2 220.7 212.8 205.9 205.9 200.6 206.8 221.6 243.6 270.4 301.2 325.3 331.3 333.2 332.3 328.6 324.4 317.7 310.6 324.8 329.3 332.6 335.7
297.1 280.1 263.7 248.4 229.3 204.4 177.8 182.8 194.6 202.7 215.4 219.4 220.9 218.2 212.4 207.6 187 185.2 195.3 203.5 208.6 212.6 216.5 225 234.4 236.3 236.9 246.8 257.4 271.7 289.3 310.4 324.8 330.9 331.7 339.4 351.3 354 352.4 349.8 345.3 339.1 332.3 328.9 325 318.1 326.8 329.5 336.7 346.8 355.2 359.9 360.6 364.7 367.4 376.4 387.1 392.6 394.1 387.8 383.8 378.2 369.6 365.7 364.2 357.5 351.9 342.6 331.8 323 318.8 311.9 314.4 317 318 317.3 316.5 316.1 314.7 311.9 309.8 309.8 311.9 309.8 311 310.8 307.4 306.8 305.8 303.5 296.8 297.6 291.7 290.4 295 295.9 284.5 276 270.4 258.1 249 242.8 239.7 235.1 226.3 223.2 220.9 219 216.1 212.9 215.3 214.7 214.3 214.8 215.7 214.7 212.6 214.5 217.3 219.2 221.9 221.1 219.9 212.8 218.8 221.2 221 220.2 215.3 208.9 204.4 204.9 206 209.9 211.6 213.8 213.2 219.8 227 235.9 241.2 249.3 257.2 263.1 272 284.6 298.6 308.5 316.7 317.9 317.4 316.5 315.7 313.9 315.1 317.1 319.2 320.5 318.9 315.5 310.1 303.3 296.6 291.4 286.7 289.6 299.2 296.3 291.3 278.1 255 238.5 231.3 230.7 231.4 232.8 232.9 232.3 225.9 217.8 215.8 209.8 202.2 196.9 215.8 231.5 256.5 289.8 320.1 327.7 326.8 326.1 322.9 318.2 313 310.3 325.5 330.9 336.2 331.8
287.9 268.8 249.8 235.7 225.3 218.6 198.9 178.5 176.6 191.7 199.7 202.7 203.9 203.1 199.9 189.8 178.6 189.5 196.7 203.2 211.9 217.6 226.2 241.2 251.7 251.4 239.1 251.7 261.1 272.9 287.5 304.6 323.3 337.3 342.1 356.3 366.4 366.4 365.9 363.2 360.5 354.4 348.2 344 338.1 333.6 334.9 338.6 344.3 356.9 363.1 368 372.3 372.7 377.3 383.7 389.2 390.2 386.7 382.3 377 371.4 362.7 360.6 361.1 352.9 345.7 338.5 325.2 326.8 323.8 315.1 320.2 322.2 323.5 323.9 329.1 323.9 321.5 319.1 318.5 321.3 322.2 322.3 325.3 325.6 323.7 325.2 323.8 320.7 310.3 308.3 300.1 294.3 296 294.5 284.2 272 263.1 252.8 246.1 242.5 236.6 228.7 226.9 225.3 223.6 224.2 223 219.4 215.7 214.1 210.6 212.2 211.3 210.7 209.7 208.8 208.1 213.8 215.4 215.6 214.4 211 214.8 217.2 216.2 214.2 209.3 202.8 201.8 202.7 203.5 205.3 206.1 207.6 206.4 211.8 215.1 225.8 232.1 241.3 250.3 259.3 277.3 292.1 300.2 303.7 307.4 311.8 313.3 313.1 312.4 312 315.3 318.4 319.5 319.2 317.1 314.2 309.8 304.4 298 293.8 294 299 305.2 303.8 297.7 284.4 260.7 241 235.5 236.8 239 239.8 239.9 236.3 226.6 223.8 220.4 212.9 203.1 199.3 212.3 224.7 246.9 280.4 308.1 315.9 318.1 316.2 312.1 307.6 303.9 307.6 323.5 331.3 329 324
271 254.9 238.6 224.4 215.1 214.1 210.1 192.5 173.9 179.1 192.7 194.3 193.7 191.9 188.6 174.3 184.2 190.6 198.6 203.4 213.4 222.7 233.8 252.2 264.5 268.7 260 250.4 267.7 278.6 291.3 301.2 318.2 337.3 354.8 374.6 382.5 379 377.7 375.8 372.6 366.9 361.8 356.2 351.4 341.1 347.2 348.7 356.1 366.9 374.8 374.9 375.8 378.6 382.3 386 387 383.7 377 373.5 369.5 364.5 357.2 353.5 348.4 341.8 340.9 337.6 333.8 329.6 325.2 323.7 325.7 327.8 334.2 335.3 339.9 338.3 338.7 339.5 335.6 332 332.6 335.9 338.3 339.4 339.4 342.1 341.5 337.9 325.6 320.5 308 299.9 298.5 295.4 273.9 258.7 247.6 240.7 237.8 239.3 232 229.8 228.5 226.8 225 223.9 223 222.5 220.6 218 213.7 212.3 210.2 206.6 206.3 208 207.4 206.4 206.6 207.6 207.6 207.5 210.1 212.5 212.3 210.3 205.5 200.2 201 200.2 200 200.2 200.2 200.1 200.9 204.1 210.8 214.4 227.5 236 241.7 263.1 280.9 289.8 292.2 285.8 298.6 305.6 308.7 310.2 308.3 311.3 316.3 317.3 316.4 315.3 313 309 304.2 301 298.7 298.5 298.9 309.1 313.7 314.8 305.2 283.8 259.8 246 242.7 243.7 244 245.9 244.1 237.8 231.9 229.5 223.5 214.1 204.5 197.8 210.3 221.9 239 269.8 292.7 301.2 304.2 302.9 299 291.4 294.6 301.5 319.5 321.3 318 314.1
246.7 239 226.7 209.3 204.4 203.7 201.7 194.8 178.8 168.6 192.5 193.5 190 189 177.8 176.2 184.4 192.2 199 205.8 215.6 225.5 241.3 262.2 273.5 280.4 279 261.6 274.3 284.8 297.5 315 334.2 350.8 357.9 371 382.8 379.3 384.3 382.4 378.3 378 373.3 365.9 352.6 358.5 355.8 356.3 362.7 373.5 380.2 380 381.9 380.9 382.8 384.1 380.9 376.6 372.4 372.7 368.6 366.1 368.6 368.2 363.6 360.9 354.9 343.7 337.9 333.6 332.8 331.6 332.6 342.3 346.7 347.6 351.9 354.7 355 354.4 352.1 343.9 344.7 346.6 351.5 353.1 349.6 348.9 352.7 346.9 335.4 328.8 316 306.4 301.1 289.6 267.7 250.3 256 258.6 254.2 252.2 240.8 234.9 227.4 225.9 224.6 223.1 221.9 222.2 219.3 216.2 215.5 214.2 212.2 210.7 209.6 208.1 207.2 205.7 205.4 204.4 204.8 206 207 207.9 207.7 206.1 202.1 199.1 198.7 198.2 197.6 197.3 197 196.6 197.9 198.1 202.7 208.3 220.5 225.5 240 261.6 271.1 276.7 271.7 274.6 291.7 301.1 303.3 302.9 306.6 311.1 313.8 314.3 314.4 313.2 308.8 302.8 298.1 298.4 300.5 301.3 302.2 316.8 318.9 315.1 302 277.3 261.4 252.1 246.8 250.7 251 249.6 246.2 242.7 240.9 236.9 228.3 218.7 205.9 197.4 208.7 219.4 233.9 261.7 284.8 291 291.8 286.9 278.3 285.3 289.1 294.5 308.8 311.4 313.4 310.8
216.4 210.8 206 196 190.7 189.5 187 185.2 178.5 167.4 187.3 187.3 185 186 180.8 172.7 187 192.7 200.1 208.5 218.4 229.9 245.4 267.8 287.1 296 296.7 274.3 275.1 293.2 302.3 318 345 365 370.5 373.2 374.3 377.5 379.5 384.7 385 384.1 378.4 366.1 366 365.6 363.4 363.5 373.5 386 391.3 385.8 384.8 383.3 385.2 383.3 377.5 373.7 373.3 375.8 376.4 380 388.2 387.3 380.8 379.8 373.1 360.2 355.8 340.8 341.5 340.4 343.2 351.5 357.1 363 364.1 369.8 368.9 367.5 363 359.9 354.9 357.4 361 363.6 361 361.1 355.3 348.9 337.8 330.6 314.5 303.2 295.1 276.7 260.7 265.8 277.6 279.7 265.2 255.9 247.6 237.7 226.3 224.6 223.6 222.6 220.9 219.5 218.2 217.8 217.7 217.3 215.9 215.2 213.6 212.6 211.2 207.5 205 204.2 203 204 203.8 202.5 201.4 200.8 199.4 199.2 198.4 198 197.1 196.4 195.7 193.6 194.8 195 195.9 199.8 207.6 215.8 233.1 248.9 257.4 257.8 256 271.9 289.5 293.7 294.4 297.1 305.4 311.7 313.2 313.7 313.7 312.8 308.2 300.8 294 299.7 305.3 301.8 305 313 313.7 305.4 289.4 275.7 264.6 256.7 252.6 256.7 256.1 255.9 252.2 248.7 251.1 248.2 240 226.2 205.2 196.6 206 215.8 228.9 256.1 279.2 280.4 268.8 273 274.6 280.7 284.1 288.1 299.6 307.8 309.1 306.2
191 185.7 182.9 182.6 177.5 174.8 175.6 173.2 168.4 163.1 167.5 177.3 177.6 171.3 174.5 183.2 193.2 206.7 217.6 229.7 241 251 259.8 274.6 297.7 311.2 309.2 287.2 293.2 301.2 309.1 324.4 354.7 376.1 379.8 381.1 380.3 379.9 383.4 395.1 397 391.5 383.5 369.4 375.2 374.3 371.5 380.9 393.6 401 400.5 391.1 387.2 384.3 383.3 381.2 376.2 376.5 378.3 380.1 383.7 395.4 400.4 399 392.4 395 384.4 369.9 367.2 353.9 350 348.2 351.6 358.3 363 371.9 378 378.6 375.7 372.3 370.1 367.9 366.4 365.9 365 367 366 363.1 358.6 350.1 338.5 323.9 305.3 301.4 293 273.1 266.8 280.2 292.6 291.5 281.7 264.2 253.2 241.3 226.8 224.9 224 222.6 221.3 220.6 220.1 220.7 221.5 221.4 221.1 220.7 218 216.2 214.5 212.2 209.7 208.9 203.1 202.3 202.7 201.7 200.9 199.8 199.1 198.7 198.5 197.8 196.6 195.9 193.4 195.2 193.7 194.2 193.9 195.1 200.8 208.9 223.8 239.3 243.3 241.8 252.2 275.1 286.7 288.3 290.6 292.6 302.4 308.4 309.5 309.3 305.6 297.6 293.5 280.9 290.3 297.2 293.9 294 296 299.5 297 288.6 282.6 276.1 269.3 259.3 256.6 259.6 261.9 261.4 258.4 258.2 259.3 254.9 246.2 234.4 209.6 195.4 204.6 214.7 224.8 253.4 264 255.6 265.5 276.4 274.9 265.4 273.8 281.9 294.8 306.8 305.2 300.1
165.7 164.7 166.1 163.5 165 166.7 168.7 167.1 167.1 162.7 158.9 158.7 168.9 175 187.6 206.7 215.5 229.4 242.8 255.7 266.7 277.1 285.1 292.7 304.3 319.4 317.7 308.2 302 307.4 320.3 344.5 371 387.5 398.9 402.5 401.7 400.8 399.7 407.2 404.3 396.5 389.8 381.3 382.2 383.4 382.1 391.1 404.3 412.3 410.8 399.7 393.9 391.2 383.9 380.6 378.9 380.1 383.1 389.4 398.4 408 412.4 409.8 405.4 404.9 394.7 379.8 373.1 362.1 360.7 358.4 360.1 366.4 373.6 379.9 382.1 383.1 380.1 378.6 376.8 372.3 370.7 369.4 368.9 369.4 367.6 363 357.6 349.1 337.6 323.3 304.5 302.4 294.3 269.6 286.4 291.7 301.1 300.8 293.7 276.1 263.9 243.5 228.8 227.6 226.2 224.3 223 223.1 223.5 223.8 225.3 225.9 226 226.2 224.8 222.1 217.8 214.7 212.3 209.4 208.3 207.7 206.3 201.9 200.9 200 199.7 198.9 198.3 197.8 197 196.1 195.7 195.1 194.5 192.3 193.9 193.5 194.8 200.8 210.4 224 230.2 237.5 256.6 271.2 277.1 281.7 277.5 286.6 293 300.3 302.4 297.5 284.9 270.6 267.8 271.8 277.7 279 282.2 288.8 291 289.8 286.2 282.8 279.2 275.3 269.7 263.1 258.5 260.6 265 263.7 263.5 267.4 265 260.8 252.4 235.4 214.3 195.9 199.9 212.5 221.2 235.9 242.1 251.8 273.4 272.8 260 246 265 278.2 295.2 300.2 297.4 293.1
148.1 151.9 155.3 157.5 160 161.4 158.2 162.1 161 169.4 178.5 181.4 187 200.3 219.5 232.8 243.1 255 269.4 284.1 295.5 306 313.7 320.2 323.5 327.9 325.1 323.1 317.7 328.7 352.8 375.4 390.6 406.7 420 420 417.4 415.4 408.3 408 405.3 398.6 395.9 390.6 390 389.9 390.9 397.9 412.5 421.4 418.4 406.6 399.1 396.8 385.1 381.1 386.9 391.9 396.5 403 408.8 415.5 420.3 418.8 416.6 413.7 398.7 384.5 378.7 370.1 370.7 363.8 370.8 376.5 383.1 389.2 391 386.4 384.2 384.7 382.5 377.4 375.2 372 369.7 368.1 365 360.9 355.5 346.3 336.8 324.8 300.9 299.9 291.1 269.4 298.8 310.5 312.3 310.4 301 285.9 267.7 244.5 236 231.4 229.1 227.1 225.9 225.9 227.2 227.7 229.4 230.4 230.8 230.1 229 226 222.9 217.2 214.5 214.2 214.1 212.6 212.3 208.9 205.9 202.9 202.4 202 202.4 204.3 200.8 197.7 197.4 195.1 193.7 193.2 193.1 190 192.3 192.7 201.6 210.4 214 231.2 244 255.2 254.5 258 262.3 274 282.2 291.3 288.8 273.9 258.6 250.1 250.5 255.6 262 269.8 276.8 288.9 288 285.9 283.8 280.5 277.3 276.9 272.3 263.6 261.2 262 264.9 267.6 271.7 271.9 268.3 263.2 253.5 236.1 214.6 201.8 195 203.6 214.2 225.2 235.8 261.2 263 250.6 237.5 255.3 262.9 276.5 287 289 286.3 281.9
152.6 155.6 159.8 161.3 163.3 169.1 172.9 177.1 178.4 185.7 191 196 212.6 230.2 246.1 256.7 268.8 282.1 298.2 313 327.7 338.8 343.5 349.1 351.5 349.5 336.6 339.6 332.4 357.6 378.5 393 405.3 420.1 431.6 429.7 426.1 422.7 418 411.2 404.6 401.3 399.2 395.9 396.5 397.7 397.9 406.7 420.1 424.2 423.1 413.6 406.7 397.8 391.2 388.4 398.9 404.2 409.4 411.3 418.1 423.3 426.5 422.5 422.9 418.9 400.7 389.3 386.5 382.3 380 373.7 378.2 383.1 390.5 396.4 397.7 392.1 389.4 388.4 385.3 380.8 376.7 373 369.3 365.9 362.4 357 350.1 341 331 320.6 298.8 285.7 278.2 288.9 308.8 317.8 323.1 320.3 309.8 292.2 269.4 248.7 238.4 236.9 235 231.9 230.3 231.4 230.9 232.1 233.8 235 236.7 234.8 233.4 231.8 228 222 225.4 223.2 222.6 218.7 217.7 215.6 210.6 208.6 208.8 209.1 209.4 208.5 208.3 206.7 202.8 200.1 194 193.2 193 192.2 191.8 189.9 196.6 202.3 204.8 208.8 218.8 224.1 226.6 236 243.4 254.5 263.5 270.5 263.8 251 237.4 237.2 236.8 241.7 250.6 259.3 269.4 285.3 293 287.9 284.2 282.5 277 272.7 269.8 265 263.8 266.4 269.2 273.4 274 272.2 266.9 253 234.3 220.4 207.1 194.1 199.5 208.7 216.7 232.7 252.9 256 240.3 234.9 236.7 250.9 260.1 271.9 283.7 282.4 273.8 270.5
154.6 160.1 169.1 176.4 184.1 189.7 195.9 199.5 201.5 204.1 209.2 214.3 229.7 249.6 266.8 281.5 296.4 310.3 326.9 346.6 357.8 369.2 378.6 383 381.6 376.6 368.3 360.2 353 364.5 380.5 398 411.1 421.9 427.1 427.9 427.6 425.4 423.2 414.7 409.1 405.5 403.4 399.2 401.1 401.8 403.9 410 424 428.6 427.7 420.7 414.5 409.1 404.8 396.9 407.3 413.4 417.5 421.4 425.1 427.8 428.5 425.4 424.7 419.2 401.1 394.8 391.4 387.9 386.3 385.1 383.6 386.8 393.3 398.6 398.7 393.9 389.8 387.5 384.4 381.9 378 373.6 368.5 363.7 359.2 353.1 345.8 335.8 325 314.7 288.9 282 294.6 305 316.3 322.1 326.3 325.9 314.4 301 279.7 254.1 247.3 250 247.7 239.7 237.9 237.2 236.4 238.8 239.6 240.4 241.2 241.3 238.2 236.8 234.5 232 231.3 234 230.4 225.9 222.9 220.8 217.1 214.6 215.1 214.8 214.8 213.4 212.5 210.6 205.9 201.4 196.2 193.1 192.7 192.2 191.8 191.5 190.9 196.6 198.2 197.3 199.8 203.9 208.3 211 221.3 228.2 237.5 245 239 227.9 222.7 225.7 220.3 228.7 236 247.6 269 279.9 284.8 285.1 281.5 277.2 272.6 271.1 267.5 266 265 266.1 273.2 274.8 271.8 266.7 256 235.4 217.9 202.7 196.2 197.1 204.4 210.5 225.7 246.7 250.3 234.9 227 227.2 239.7 247 255.1 260.3 267.7 263.8 260.1 259.7
173.8 180.1 189 190.6 200.9 206 210.3 215 220.2 222.7 224.7 232.4 237.7 265.2 283.5 300.9 318.1 335.1 353.1 374.9 386.9 394.6 400.2 402 400.1 393.1 388.4 385.1 377.7 375.6 381.2 392.9 402.6 415.7 421.9 424.7 427.5 429.1 425.4 417.1 413.8 409.9 406.6 405.3 404.9 406.6 410.5 417.4 427.4 432.4 433.1 423.7 418.5 414.8 406.8 407.8 417 427.8 432.2 435.2 435.4 434.7 433.2 429 427.1 420.4 400.8 397.8 395.3 392.3 390.9 390.4 390.1 392.2 396.1 400.5 399.3 394.5 389.3 385.5 382 379.8 376.7 372.4 367.7 362.9 357.2 349.9 341.1 332.2 320.5 297.5 287.7 295.2 302.6 314.4 321.9 325.2 329.4 326.5 319.2 307.5 291 267.7 267.2 259.2 255 251.7 248.3 244.3 240.4 243.7 247.1 247.4 247 247 245.4 243.2 242 239.5 243.9 243.9 239.6 235.5 236.2 234 229.3 226.5 225 223.4 220.3 217.3 216.2 214.4 210.2 203 196.2 193.1 192.3 192 191.7 191.4 191.3 192.9 193.1 190.7 188.8 187.1 197.2 200.8 204.4 208.6 214 216.5 213.1 210.5 210.3 212.8 209.3 211.2 215.5 226 243.8 261.2 272 280.8 277.4 267.8 268.1 269.2 266.8 266.8 267.4 268.2 272.7 271.6 265.9 257.9 240.2 223.3 205.3 196.4 191.5 200.5 209.1 223 246.2 249.3 232.6 222.3 220.7 219.1 220.6 231.6 235.6 243.6 249.9 248.5 247.9 249.6
194.7 200 204.9 208.9 214.9 221.9 228.8 235.8 245.8 247.7 250.6 257.5 256.2 269.6 298.6 315.6 336 357 374.3 396 406.2 414.7 413.6 411.7 405.3 399.4 402.1 399.9 398.6 397 404.1 409.8 413.6 420 423.2 425.1 430.2 433 426.3 420 416.3 414.4 412.1 411.3 414 430.9 431.2 433.8 437.4 438.6 437.9 427.5 422.8 418.8 418.5 414 427.3 438 441.1 441.5 441.2 442.7 438.8 433.7 429.1 422 405.2 401.9 399.9 398 395.3 395.2 395.3 397.4 397.5 398.7 396.6 393.3 388.3 383.4 379.4 377.6 374 370.3 365.7 360.8 354.9 348 339.5 328.7 314.7 292.3 298.4 305.5 310.1 317.1 325.7 329.1 330.8 330.8 323.1 312.9 301.3 288.4 281.7 274.8 269.6 265.3 260.4 251.8 249.4 249.4 253 254.2 254.4 254.2 249.9 249.4 248 245.7 248.6 250.5 246.8 245 245.2 244.8 240.6 238.2 234.8 233.2 227.6 221.8 219.8 218.6 215 207.4 194.8 193.4 191.8 191.5 191.3 191 190.8 190.7 188.8 188.7 189.5 188.6 188.7 187.5 190 194.8 195.4 195.8 195.2 193.6 196.7 198.3 196.8 198.8 198.7 203.3 215.6 228.5 241.6 252.5 260.6 259.9 263.9 268.2 265.5 270.2 270.6 266.3 270.3 268.1 258.9 240.6 225.8 213.1 201.7 194.1 188.3 198.6 215.7 242.3 256.8 241.8 228.7 218.5 213.5 211.4 210 212.7 218.9 225.9 232.1 237.1 236.6 233.2
217 218.2 220.8 224 225.8 234.3 247 257.9 264.3 265.2 272.5 279.6 285.6 295.5 310.4 337.3 356.5 375.7 396.6 417.1 425.1 426.6 420.8 415.2 407 409.7 412.3 408.8 407.2 409.4 420 423.4 422.4 429.7 430.8 427.9 430 428.2 423.6 421.1 420.3 417.9 419.9 420.7 423.2 436.4 441.2 445.2 446.7 445.9 442.1 435.4 428.9 422.8 427.7 423.3 434.7 443.7 447 446.9 445.7 446.3 443.1 437.4 432.7 425.1 408.4 405.5 405.2 404.6 401.3 402.9 400.9 402 401.4 399.6 396.1 391.9 386.8 381.8 377.2 374.5 371 365.4 361.7 357.8 351.7 343.8 334.2 319.4 301.7 295.8 307.5 311.3 319 327.8 328.3 331 333.5 334 326.7 319.3 308.6 299.5 293.2 291.1 285.4 277.9 268.3 261.6 260.2 260.2 261.5 261 260.3 260 256 257 255.5 252.7 255 256.8 252.8 254.6 252.8 250.2 248.9 248.5 246.1 242.9 235.4 227.1 224.7 223.3 219.3 211.9 198.1 194.2 192 191 191 191.1 191.8 190.9 190.2 189.6 189.2 188.7 188.6 188.4 187.5 187.4 187 186.7 186.6 186.3 186.1 186 185.4 189 188.4 188.1 195.1 205.1 216.5 223.6 233.5 246.1 257.9 257.4 257.7 258 259.3 254.8 248.8 240.9 230.6 218.5 206.7 199.6 196.5 190.4 183.4 205.5 210.3 248.4 245.6 233.7 226.7 220 210.2 206.7 205.1 199.6 202.9 211.8 215 219.7 224.4 219.1
244.2 243.4 240.1 239.4 241.6 247.8 260.6 271.8 279.1 288 295.6 302.9 315.5 328.4 340.6 354.6 374.4 396.5 419.9 431.2 434.8 430.1 422.7 416.5 411.3 412.5 413.6 413.1 412.8 420.3 433.3 439.9 438.3 437.5 434.3 432.5 432.6 431.6 433 427.5 423.1 423.7 423.7 429.9 434.2 441.9 448.7 451.5 453.9 453.8 446.7 441.4 435.3 429.1 437 437 440.3 448.3 451.5 450.8 449.2 448.3 444.9 438.5 434.7 427.1 412.3 409.6 410.9 411 409.6 408 406.3 406.8 406.4 403 396.7 391.1 385.5 380.8 376 372.8 368.6 362.9 356.8 348.7 342.8 337.1 323.7 305 309.4 317.6 324.6 325.4 326.3 332 334.3 333.9 336.1 337.5 332.3 324.7 319.1 312.6 302.4 298.9 296.8 289.9 281 271 272.1 269.4 273.6 272.1 270.8 267.8 266.1 264.8 261.7 259.7 261.3 261 259.3 261.5 259.9 259.2 257.4 255.4 253.7 249.5 240.4 234.4 229.5 227.1 222.7 208 198.9 194.5 192.1 191.9 191.7 192.4 192.6 192.3 191.1 190.4 190 189.6 188.8 188.3 188.2 187.7 187.1 186.8 187.1 186.3 185.8 185.8 185.6 185.1 184.9 185.1 189.1 194.3 201.3 208.3 216.6 223.3 231.7 238.9 236.9 237.4 236.4 230.7 223.1 214.6 207.2 199 195 192.9 190.8 186.5 193.5 211.4 224.3 227.3 227.4 227 223 216.4 210.3 207.4 204.1 197.7 194.3 197.6 203.4 207.4 207.2 204.9
266.6 263.9 256.3 252.5 250.9 253.9 268.6 287.2 298.6 306.7 317.2 328.6 341.6 354 368.6 379 398.3 420.2 439 440.5 437.7 430.5 423 416.9 414.5 415 415.5 415.6 418.2 424.7 429.5 437.2 441.2 442.3 439.9 445.1 447.2 445.7 446.1 440.9 431.7 430.1 430 434.3 438 444.9 451.2 453.9 457.1 457.3 451.5 444.7 439.8 437.6 444.9 445.1 443.8 451.9 455.1 454.2 452.9 450.7 445.5 440.2 434.9 424.3 413.8 412.6 413.5 413.7 413.6 411.9 410.3 410.6 410.3 406.4 399.7 389.7 384.2 378.1 374.6 370.5 366 360.2 349.2 334.3 326.5 317.5 311.3 319.8 323.2 330.8 340 338.9 335.7 338.9 338.6 337.9 338.9 340.2 338.8 332.7 324.6 321 309.1 308.5 303.1 298 288.1 281.3 288.2 288.1 287.8 283.5 283.4 279.4 274.2 270.7 268.1 266.3 266.9 271.7 266.7 268.2 268 266.7 265 262 259.2 255.9 248.6 242.2 235.3 232.2 224.1 208 200 194.6 192.6 192.6 192.4 193.1 193.7 193.2 192.5 191.2 190.8 190.7 189.7 189.4 188.7 188 187.4 186.8 186.9 186 185.7 185.9 185.2 184.4 185.3 183.9 183.6 188.3 194 202.4 207.1 213.8 219.1 223 221.4 222.4 218.1 210.6 203.6 202 199.2 195 191.9 189.4 186.9 187.8 200.3 221.9 224.6 225 225.6 227.3 225.3 217.5 212.5 209.4 206.7 203.7 196.2 191.2 194.9 199.9 199.9 198.5
288.5 274.8 265.8 260.5 262.8 274.8 292 304.9 317.2 328.1 339 348.3 362 372.4 388.2 405.2 426 438.7 443.7 442.8 440.4 431.8 423.1 416.7 415.4 416.3 416.7 417 419.7 422.2 432.9 446.8 449.2 445.4 447.3 457.8 456 454.7 451.3 445.7 437.7 436.8 433.7 436.5 440.2 446.4 453.4 456.8 460.4 457.2 452.4 447.4 439.8 446.5 452 451.4 447.5 455.3 456.9 456.8 456.6 455.9 452.3 445.8 440.1 427.9 416 416.6 418 417.6 417.4 415.6 414.2 413.8 410.5 406.1 399.8 392.8 382.9 376.3 372.3 368.1 360.9 353.2 346.4 335.4 329.9 330.8 315.2 325.5 330.7 338.5 348.6 350.9 350 345.9 343.7 342.2 343.8 344.2 343.7 343.5 337.9 328.3 319.7 322.5 321.2 313.8 309.5 299.2 305.6 310.6 299.9 297.4 299.4 295.1 287.9 279.5 275.1 275.2 278.4 280.1 274.9 274.6 274.9 276.4 273.2 269.3 266.8 262.5 255.4 246.9 241.4 236.4 223.3 213.1 204.9 195.2 193.5 193.5 193.5 194.2 194.6 194.4 193.1 192.3 191.7 191.3 190.2 189.9 188.8 188.2 187.6 187 186.5 186.2 185.9 185.1 185.6 184.9 184.4 183.9 183.3 183.2 182.3 189.5 191.7 197.5 205.8 217.5 216.9 217.4 207.9 200.7 194 196.3 193.6 189.5 187.3 186.4 183.1 188.2 204.5 223.4 227.3 233.5 240.8 244.9 235.1 223.8 215.7 212.8 211.1 208.6 203.9 195.9 189.6 188.9 188.7 187.4
300.3 285.7 273.9 277.5 288.7 302.2 318.6 329.7 340.3 353.7 361.5 367.7 378 395.6 411.6 429.2 442.5 442.6 441.9 441.6 440.5 430.8 422 417.7 416.5 416.4 417.4 418.3 420.1 424.8 443.1 457.4 456.2 451.9 459.6 465 462.4 461.7 456.6 449.4 441.9 438.6 437.6 439 443.1 450.4 457 460.6 461.7 456.8 453.8 449.6 445.3 455.1 458.5 456.7 456.8 456.6 459.8 460 460.9 461.2 457.5 451.4 446.8 433.8 423.9 424.3 423.1 420.5 420.5 419.2 418 416.2 412.2 406.5 396.7 390.3 382.7 377.7 373.7 369.4 363.7 349.3 347.7 343.4 339.3 335 317.3 333.4 338 345.3 353.2 356.3 357.9 356.3 350.7 348.8 353.4 352.5 349.4 349.9 345.9 332.3 336.7 337.6 338 336.8 328.8 319.9 323.2 323.3 319.1 314.8 315.9 310.1 303.2 294.9 286.1 283.9 287.6 289.5 286.7 284.9 283.2 286.2 284 279.4 274.7 270.2 263 253.5 246.8 240.8 234.9 219.2 209.3 198.5 194.3 194.5 194.9 195.6 195.6 195 194.2 193.3 192.6 191.8 191.3 190.3 189.4 188.5 187.9 187.1 186.5 185.9 185.7 185.5 185.5 185 184 184.3 184.1 183.7 183.2 181.8 182.7 188 190.9 197.1 199.3 205.6 199.4 191 186.8 187.9 186.8 186 185.7 185.2 184.3 193.4 216.6 228 237.2 246.5 254 252.5 245.6 234.2 220.9 215.4 214.1 211.8 207.6 202.2 194.8 190.8 187.6 184.8
306.5 291.5 297.3 303.3 313.1 326.9 338 352.2 361.3 372.7 377.6 383.4 398.1 413 430 445.1 447 443.5 439.4 438.7 437.3 427.5 418.8 416.8 415.7 416.7 417.7 419 421.9 436.4 450.6 460.6 458.4 456.5 466.4 468.8 465.8 465.3 460 449.8 444.6 440.1 439.3 441.3 450.5 459.7 463.5 466 461.5 457.2 454.4 450.5 453.3 461.8 463.2 462.7 461.1 458.3 462.8 464.3 463.5 465.1 461.6 455.5 451 437.6 431.4 429.7 426.2 423.4 424.3 422.8 420.2 416.8 413 408.6 394.9 388.8 383.4 378.3 373.9 369.4 357.8 354.1 351.5 345.9 341 335.7 320.8 340.1 348 354.5 358.7 364 363.8 362.9 358.7 355.2 359 358.7 359.8 357.2 341.6 350.2 352.6 349.1 348.4 347.6 343.9 339.4 339.3 339.7 335.5 331 328.7 325.8 320.5 311 303.5 298.8 298.9 296.7 292.5 291.4 291 292.6 290.9 287.9 284.2 279.7 272.4 260.9 249.2 244 237.6 223.9 214.5 200.2 195.8 195.5 196.2 196.9 196.6 196.4 195.4 194.4 193.4 192.3 191.5 190.9 190 189.1 188 187 186.4 185.8 185.3 185.1 184.9 184.7 184.4 184.1 183.8 183.5 183.4 182.6 182.5 183.4 182.7 185.8 187.6 188.7 188.4 184.5 183.9 184.9 184.8 185 185 183.3 185.9 199.3 227.4 232.1 240.3 252.5 259.6 257.6 252 242.5 228.6 215.1 210.4 208.1 204.6 201.2 198.6 196.6 194.5 191.8
311.3 311.7 324.1 333.6 341.6 352.3 360.2 366 375 384.7 389 402.8 419.3 429.6 438.2 448.6 445.3 442.7 438.3 434.8 429.7 421.1 416.6 415.4 415.4 416.4 417.8 420.2 430 442.9 453.9 463.1 461 462.1 469.9 470.4 468.7 467.9 462.7 452 446.9 442.8 442.7 454.8 462 470.5 472.8 472.4 464.1 457.6 454.4 452.6 459.4 465.7 466.3 465.2 462.8 459.5 464.1 466.1 466.1 466.9 464.9 459.9 455 442.5 436.5 433 429.5 427.5 427.6 425.9 422.2 418.2 413.9 409.9 403.7 390.3 383.6 377.5 371 364.3 362.1 356.9 353.7 345.2 340.9 327.8 334.2 350.4 358.8 361.3 365.7 374 372.2 369.3 364.7 360.8 362.4 363 362.5 359.5 350.4 365.6 363.2 360.4 356.6 354.4 352.2 350.5 352.3 351.9 349.5 344.8 341.7 338.4 334 326.4 320.1 315.5 309.7 308 304.2 302.4 300.1 299.9 298.5 295.3 291.8 286.6 281 270.3 258.7 247.8 240.6 228.1 215.8 205.7 199.5 197.5 197.5 198.5 197.9 197.5 196.5 195.4 194.2 193.1 192 191.2 190 189.1 188.1 187.1 186.3 185.7 185.2 184.9 184.7 184.4 184.2 183.9 183.6 183.3 183 182.7 181.7 182.6 181.8 181.8 182.2 182.9 183.7 184.1 183.6 183.9 184.5 184.5 184.8 180.9 188.2 202.7 225 228.3 239.3 252.1 257.1 256.2 250 239.7 231 215.2 204.3 200.3 198.2 195.9 193.9 192.3 191.1 189.8
337.3 338 345.4 355.2 363 371.3 374.7 379.9 388.3 398 405.4 418.4 428.8 435.5 443.1 445.7 441.8 437.6 432.7 427.4 421.7 415.8 414.4 413.6 413.6 416 417.7 422.1 433 444.3 456.1 463 463.8 466.3 474.2 473.3 471.6 468.4 463.1 454.4 450 447.7 453.5 468.2 476.3 480.4 482.9 473.3 463 456.4 454.2 457.2 464 467.4 467.8 466 463.7 462.2 463.9 466.6 468.5 468.8 465.3 462.1 455.1 446.1 440 436.3 432.8 431.4 430.1 427.5 423.9 419.5 415.4 411 402.8 395.1 384.1 381.8 375.8 370.8 364.9 360.3 357.9 353.1 345.4 332.9 345.7 358.9 367.4 367.9 369.4 377.6 377.5 373.3 368.8 364.4 363.7 366.2 363.7 362.7 360.3 363.5 364.2 363.3 362.3 360.2 357.6 356.7 357.8 358.7 357.8 354.7 351.2 348 344.1 340.4 335.4 330.9 324.7 322.7 315.9 312.9 309.4 306.9 305.2 304.5 301.6 296.7 290.7 282.2 271.2 257.7 247.4 232.2 221.3 213.3 205.8 202.5 200.2 199.9 198.9 198.4 197.4 196.1 194.9 193.8 192.7 191.4 189.7 189 188.1 187.7 186.9 185.6 184.6 184.8 184.5 184.1 183.9 183.5 183.4 183.1 182.7 182.4 181.3 181.8 181.5 181.5 181.6 182 182.5 183.3 183.5 183.6 184.1 184.1 183.9 180.6 184.2 198.6 217.3 217.1 228.9 237.1 246 245.9 240.4 231.5 219.2 205.9 196.6 191.8 191.3 189.8 188.4 187.4 187.5 186.1
358.9 360.2 361.8 372.5 380.2 381.9 384.6 387.5 395.9 404.2 412.6 419.2 424.6 428 433.9 437.8 432 425.4 423.5 419.2 413.9 408.8 410.4 412.6 411.5 413.3 416 423.3 436.8 446.9 461.2 465.9 464.9 469 474.2 474 472.3 468.8 463.1 457.5 455.5 461.9 470.7 481.6 487.9 489.6 485.5 470.1 459.4 456.2 455.4 461.6 468.6 471.8 469.9 468 465.9 464.9 464.6 467.4 467.5 465.6 462.4 458.5 451.9 444.7 441.2 439 438.7 436.5 433.1 429.7 425.9 420.1 415.9 410.1 400.5 392.6 391.8 384.8 377.1 373.2 367.9 364.6 363.5 358.9 345 350.3 356.7 363.8 370 375.5 378 377.6 380.8 377.7 370.2 367.3 367.4 368.8 365.7 364.1 363.5 364.2 365.2 364.7 363.4 362.4 361.5 360.5 362 361.7 361.2 360.2 357.9 355.8 353.3 349.2 347.3 344 339.8 334.2 328.7 324.6 321.1 322.2 317.2 313.9 309.3 304.1 299.1 292 279.7 266.5 249.2 236.1 226.3 219.5 212.7 207.8 206.7 201.6 198.3 199.7 198.3 196.9 195.6 194.6 192.8 191.8 192.1 191.4 191.2 190.7 190.8 190.5 189.3 188.3 186.3 183.3 183.4 183.2 183 182.8 182.4 182.2 182.2 181.7 181.3 181.8 181.6 181.8 182.4 182.5 182.7 183.5 183.6 183.6 183.5 180.2 183.1 192.4 207.7 207.5 211.1 216.8 223.1 230.5 226.1 216.8 207.2 197.4 189.1 185.3 184.8 184.2 183.6 183.3 182.5 181.5
374.6 373.5 376.9 384.1 395.1 399.3 397.9 395.8 397.7 399.8 400.1 405.8 412.9 417.1 417.1 414.3 410.1 405 400.9 400.5 395.5 389.6 393.8 398.3 403.5 407.2 414.5 425.8 434.6 445.7 458.2 463.8 463.2 466.4 471.5 471.8 470.6 469 464.8 462.2 463.1 471.7 482.4 490.3 491.8 489.3 477.7 464.1 457.6 457.1 459.1 466.6 473.3 474.9 473.8 470.8 467.3 466.4 466.2 468.5 467.7 466.1 461.1 455 449.9 446.7 441.9 439.6 438.5 436.8 433.9 430.7 426.3 421 415.3 405.4 405.1 401.5 394.2 385.9 378.6 375 373.4 375.7 370.2 362.9 350.8 358.4 365.9 369.9 376.5 381.6 382.8 382.9 382 380.6 373 370.4 368.6 368.2 365.9 365.2 364.9 364.5 364.2 363.9 364.6 363.8 363 363 365.6 364.5 363.7 363.6 362.8 360.4 359.2 356.7 354.4 351.8 348.4 343.7 339.4 338 337.2 335.9 332.7 326.5 319.7 312.4 305.1 295.7 285.7 275.8 262 246.5 233.8 225.8 219.5 213.3 208.6 203.5 202.5 201.4 200.2 198.2 196.5 195.3 195.1 200.3 199.5 198.4 196.3 196.5 196.3 196.3 197.2 196.6 192.7 187.8 184.4 182.8 182.6 182.5 182.4 182.1 181.9 181 181.2 181.6 181.2 181 181.9 182.1 182.3 182.8 182.9 182.9 182.5 179.3 182.7 188 193.4 199.1 199.3 201.2 205.2 213.8 216.4 206.5 198.4 190.5 184.4 180.2 177.8 177.6 181.1 180.5 179.9 179.1
383.9 382.5 386.6 391.8 396.7 401.2 398.6 395.7 393.8 392.8 394.6 397.7 402.3 397 390.4 383 377.8 373.4 371.5 370.7 367.6 363.8 366.7 372.5 381.6 394.3 404.6 418.8 432 446 455.2 458.7 459.6 462.9 466.6 468.3 467.9 469.5 467.2 467.3 470.2 479.6 490.6 496.7 493.2 486.1 473.3 463 458.3 458.1 463.6 472.2 477 478.5 475.4 471 468.7 467.7 467.4 468.9 469.1 468.1 466.6 462.5 454.9 449.8 445.9 440.1 437.9 435.6 432.7 429.6 424.5 420.6 417.7 413.6 410.6 404.5 397.5 389.9 381.3 376.2 377.8 376.8 374 364.6 359.6 364.4 370.9 374 382.6 386.2 387.2 387 386.2 383.6 378.6 377.1 372.2 368.8 368.3 366.4 365.6 363.9 363.4 363.2 363.4 363.9 363.7 364.6 366.4 367 364.8 364.5 364.4 362.6 360.1 358.9 358.3 356.4 352.8 348.9 347.2 348.7 344.1 341.5 338.3 331.9 325.3 318.2 310.3 303.4 296.3 285.2 272.8 258.1 242.2 235.4 230.6 223 214.4 203.2 205.5 204.3 202.4 202.9 202.1 201 205.3 210.2 206.7 206 203.5 203.6 202.6 204 205.6 206.6 201.2 194.8 189.1 184.2 183.7 182.8 181.6 180.9 181.5 181.4 180.9 179.8 180.5 179.7 181.1 181.7 181.9 182.3 182.3 182.3 181 181.9 182.5 182.7 185.7 188.9 191.5 194.2 196.2 197.8 196.8 193.4 189.6 183.4 180.7 179 176.7 173.9 172.9 172.4 172.8 174.7
384.1 383.3 385.9 388.2 388.1 386.4 382.9 377.2 371.4 370.4 372.4 371.1 370.3 366.1 360.6 355.7 346.8 340.8 337.4 335.2 332.5 331.1 339.2 344.1 354 367.4 379.9 401.9 422.8 439.2 449.3 452.8 454.9 458.7 459.8 464.4 464.3 467.6 468.1 469.2 473.7 484.3 493.1 497.6 491.2 480.7 469.9 460.1 459.6 462.1 470.5 477.5 481.6 481.2 475.4 472.3 469.8 469.5 468.6 470.8 471.8 472.2 472.9 468.9 462.1 453.4 447.9 443 438.8 434.8 432.4 430.7 427.8 423.6 420.5 416.9 414 405.9 394.4 388.5 384.1 378.2 379.7 379.8 378.7 372.1 369.7 370.9 381.7 385 389.9 391.7 390.8 390.5 388 385.5 381.2 378.8 376.7 372.5 370.1 367.2 364.7 363.2 362.9 362.5 362.1 362.8 362.3 362.1 364.7 365.7 365.4 364.7 364.4 363.1 359.6 358 356.6 354 351 349.8 349.1 349.8 345.2 340.9 337.4 332 326.2 320 313.1 309.2 303.3 295.4 285.9 266.5 252.4 245.4 238.6 231.8 225.3 205.8 213.4 211.6 212.1 208.7 209 211.3 216 217.1 214.4 216.3 214.9 214.7 212 213.2 217.8 216.3 210.7 203.7 197 190.3 187.7 187.6 186 186 185 181.1 180.6 180.7 180.4 180.6 181.2 181.2 181.5 181.7 181.7 180.7 180.3 181.4 181.9 181.3 181.7 185.2 186.5 188.9 192.3 193.1 192 188.3 182.7 179.1 176.4 174.6 174.3 172.6 172 171.6 172.1 171.6
375.8 375.1 375.8 375.7 373.8 369.2 360 348.6 342.7 342 343.7 343 340.6 335.5 330 323.3 315.7 309.5 307 304.6 303 308 312.2 317.5 328.2 341.6 358.4 374.6 395.8 425.8 441.9 445.7 447.9 451.3 453.3 460.7 462.1 465.8 468.9 471.5 479.4 489.8 495.4 496.3 486 476.4 467 462.8 463.2 468.5 476.4 483.9 486.9 483.2 476.8 474.7 470.9 470.3 470.9 473.4 475.7 476.6 478.4 475 466.7 457.6 450.9 448.2 441.7 438.1 435.3 434 429.9 426.6 423.1 418.9 416.1 410.8 404.7 397.4 392.5 386.6 381 384.7 388 377.7 376.3 373.9 387.2 390.5 393.6 395.1 393.2 392.4 390.2 387.6 381.6 379.2 375.7 371.6 368.6 366 364.1 362.9 362.3 362.1 360 360.3 360.1 360 361.3 363.6 363.1 362.1 362.3 359.4 355.7 353.8 352.5 348.8 346.6 345.7 345.9 346 339.2 337.4 333.1 328.1 323.4 316.2 311.2 308.4 304.4 298.4 289.1 268.8 256.5 248.2 233 230.9 209 217.5 220.9 221.2 220.8 216.3 217 219.8 224.2 224 227 228.2 226.3 224.9 225.9 226.7 228.2 225.8 221.8 213.3 205.3 198.9 193.7 194.4 197.8 195.3 195.2 191.1 185.3 185.7 184.4 180.5 180.8 180.4 180.7 181.1 181.4 178 181.2 181.4 181.1 181 180.7 182 183.5 185.4 187.4 187.3 184.9 182.1 179.5 177.6 175.6 173.7 173 172.6 172.2 171.9 171.9 172
