ncols 200
nrows 82
xllcorner 470000
yllcorner 504350
cellsize 50
165.3 159.2 149.2 141.3 136.1 131.1 128.2 126.1 125.6 125.6 125.2 128.5 128.3 128.4 128.1 129 134.2 135.6 135.9 137.9 139.6 142.6 144.3 141.9 142.4 143.9 146.9 146.8 146.9 145.4 141.4 137.7 130.4 126 122.1 125.3 129.9 132.1 133.7 137.6 146.1 154.7 160.8 163.9 168.8 174.6 179.4 189 198.1 203.7 208.1 213.3 218.4 222.9 226.3 228 232.1 234.8 236.9 240.7 244.2 246.2 247.8 248.6 248 247.5 245.9 243.1 239.7 236.9 233.5 229.1 228.4 229 230.3 233.4 237.1 238.2 238.3 238.5 238.5 237.7 236.6 233.8 230.1 226.7 222.8 219.4 216.9 213.5 208.6 203.8 201.2 196.1 192.2 187.4 181.3 178.1 174.7 171.1 166.5 161.3 152.8 149.3 148.6 146.4 145.1 144 142.6 144.8 147 148.3 147.6 146 143.8 140.1 137.6 139.1 144.9 155.5 161.8 165.9 169.8 174.6 180.2 186.6 190.9 197.4 200.2 201.4 202.4 203.2 204.6 206.2 207 207.3 207.6 207.9 208 206.9 205.9 204.9 203.5 203.1 203.7 203.7 202.6 200.5 197.4 187.5 164.3 141.3 137.3 158.6 166.6 157.6 145.6 141.5 139.3 137.3 133.7 131.9 139 146.4 153.9 160.3 165.7 167.6 174.1 180 187.4 193.5 197.4 200.5 203.6 206.7 209.2 211.2 212.2 213.5 215 216.9 219.8 221.5 223.6 224.1 224.5 224.2 222.9 221.6 219.9 218 216.7 216 215.2 213.9 212.3 210.9 209.8 209.6
153.7 146.2 139.5 134 129.4 127.5 126 127.5 126.2 125.4 125.1 126.1 125.5 126.3 127.4 129.9 128.9 127.4 128.1 129.7 134.9 137.3 138 136.1 135.4 132.6 130.1 130.8 132.5 129.5 125.5 124.5 125.8 124.3 122 123.7 127.4 129.5 130.5 133 139.8 148.2 153.6 157.8 162.5 168.9 175.3 183.3 189.2 196.1 202.4 207.9 211.9 214.8 218.3 221.6 225.7 227.5 230.7 233.9 237.7 239.8 241.1 242.8 243 241.6 239.8 236.1 233.2 229.7 226.2 222.6 220.7 219.9 221.7 224.7 227.4 229.7 231.1 231.1 231.2 231 230.1 227.6 222.6 219.2 214.7 209.9 206.7 202.8 198.5 193.6 190.1 185.1 179.4 174 169.7 166.9 164.2 162.2 160.6 158.2 152.7 144.2 143.1 139.3 137.4 136.4 136.7 141.2 146.1 148.2 148 147.3 145.9 144.4 141.3 135.7 140.8 147.9 154.1 159.8 164 169.4 174.3 179.1 184 188.4 194.5 197.3 198.8 199.6 201 202.2 202.8 203.2 203.2 204.3 204.6 204.3 203.5 202.7 202 202.5 203.3 204 202.6 200.3 197 171.8 145.4 136 159.3 171.3 166.8 155.8 144.7 139 135.2 134.5 132.8 125.3 131.9 135.5 150.1 161.7 167.7 171.9 176.2 182.5 187.7 191.7 196.4 199.5 202.3 204.9 207.5 209 209.6 211.2 213 215.9 219.2 221.7 223.5 224.2 224.4 224.3 223.5 222 220.6 219 217.6 216.9 216.2 215.6 215.2 213.7 212.6 211.6
138 133.9 130.6 128.2 126.4 126 125.3 124.9 125.2 124.1 125 125.7 125.2 126.1 125.3 125.2 124.8 124.7 123.8 121.5 127.3 128.1 128.9 128.9 127.7 126.2 126.3 125.6 125.1 122.2 121.2 121.5 122.3 123 122.1 121.8 124.5 127 127.5 129.7 134.4 140.2 146.4 151.8 156.9 163.5 169.7 176.9 183.2 190.2 196.9 201.4 207.1 210.6 214 215.8 218.1 219.7 223.5 227.7 231.5 234 235.1 236.5 236.3 234.2 231.3 229 226 222.9 218.8 215.3 212.5 212.1 213.3 215.5 218.3 221.1 222.1 222.7 223.6 222.5 221.1 217.6 214.3 210.7 203.7 201 198.4 194.8 188.3 182.2 177.9 173 169.5 166 162.3 160.5 158.9 156.9 155.8 154.5 154.5 148.9 145.3 141.7 137.5 132.1 131.3 135.2 139.6 144.5 146.6 146.4 146.1 145.5 143.5 138.9 134.2 141.3 147.9 153.7 158.7 163.5 168.2 173.3 177.3 181.9 185.9 190.2 193.8 195.8 197.6 198.5 198.8 199.1 200.1 200.9 201.3 201 201.5 201.4 201.1 201.4 202.6 203 201.7 199.4 196 167.5 139.2 142.6 170.7 175.5 165.7 156.4 144.8 137.5 130.4 131.7 126.7 122.5 131.4 139.2 148.1 156 168.2 174.8 179.3 182 186.9 190.1 194.7 197.6 200.1 202.7 205.2 206.3 206.9 208.6 211.6 215 218.4 221 222.6 223.6 224.4 224.1 223.5 223 221.8 220.5 218.7 217.1 216.5 215.7 214.8 214.3 213.9 212.9
127.7 126.6 126.5 125.7 125.8 125.7 124.2 126.3 130 124.5 123.9 124.3 124.8 123.6 127.7 125.1 124.9 122.3 124.6 123.1 124.3 128 125.6 123.7 125.1 123.8 125.6 125.4 122.2 119.3 122.5 122.6 119.2 121.3 122 121.5 122.5 126 126.9 128.2 130.1 132.5 138.7 145.4 150.6 156.4 163.3 171.4 177.6 184.6 191.6 196.7 201.2 205.4 207.8 209.3 212.2 214.1 216.3 221.3 225.2 226.9 227.1 227.6 228.4 226.9 224.4 221.7 218.5 216.3 213.4 208.4 205.1 204.4 205.7 207.5 210.3 211 212.2 213.3 212.6 212.1 210.7 207.6 204.8 200 195 191 186.7 181.3 177.3 174.4 171.2 167.1 163.3 159.5 156 154.4 153.1 152.5 151.5 150.1 152.9 152.7 151.1 148.7 141.2 134 127.9 129.6 133.6 138.2 143.6 144.4 144.2 143.9 143.7 141.8 135.6 133.6 142.9 147.4 152.4 156.8 161.4 166.4 171 175.1 179.7 183.1 188.1 192.3 193.5 194.3 195 195.3 196.4 197.5 198.1 198.9 199.6 199.9 199.6 200.3 201.4 201.6 200.7 197.8 194 166.7 138.8 144.2 164 173.2 166.1 156.5 144.9 134.8 126.4 124.8 118.7 127 132.6 140.3 148.5 153.1 161.1 173.4 178.2 181.3 185 188.1 191.9 195.3 197.9 200.3 202 203 204.7 208 210.9 214.1 216.5 219.8 222.5 223.4 224.2 224.1 223.6 223.1 222.5 221.2 219.9 218 217 215.8 214.6 213.7 213.3 212.9
126.4 126.4 127.5 126.3 125.8 126.3 128.4 135.5 135.6 132.6 128.7 126.2 128 133.9 130.8 126.7 126.5 125.6 124.7 124.1 121.4 124.2 123.7 123.4 122.2 119.6 124.2 123.8 118.5 122.5 122.8 122.5 121.3 117.9 122.2 122.3 121.2 125.5 125.7 127.1 127.8 127.2 131.4 138.7 145.2 152.3 158.9 166.9 174 180.8 186.8 192.7 197.4 201 202.8 204 205.7 208.1 209.7 213.1 216.5 218.2 218.2 218.1 217.5 216.6 214.6 211.9 210.4 207.1 204 200.7 197.8 197.3 199.5 202 204.1 204.8 204.3 204.4 203.7 202.1 200 198 195.5 192.1 186.8 182.1 179.2 174.8 171.4 168.7 165.3 162.2 159 154.5 151.8 149.3 145.6 147.6 146.7 149.9 151.2 150.5 149.2 148.1 141.5 135.8 128.7 124.5 127.9 131.8 135.8 140.5 141.6 141.9 142.4 142.5 138.2 126.5 137.4 141.7 143.9 149.2 156.3 160.8 165 169.4 173.3 178.6 181.5 187.5 186.8 187.7 191 191.5 192.8 194.3 195.2 196.1 197.2 198.4 197.9 198.8 199.8 200.4 199.1 196.6 192.7 181.5 153.8 127.7 136.1 151.9 161.2 154.5 141.6 133.2 125.4 113.8 116.3 127.1 133.9 139.2 145.8 151.6 158.9 169.3 175 178.6 182.5 185.2 188.8 192.7 195.5 197.8 199 200.2 204.3 206.9 209.4 212.3 215.8 219.2 222.7 223.7 224 224.2 223.8 223.4 223 221.9 220.4 218.5 217.3 216 214.7 213.4 212.7 212.1
125 127.3 129 128.2 128.7 129.8 131.2 139.6 139.3 134.8 135.1 136.8 140.2 136.9 129.6 132.3 131.5 128.2 123.8 119.6 123.4 123.4 123.5 123.6 122 123.2 122.5 121.2 126 118.9 122.3 121.5 121.4 121.1 117.6 121.5 122.7 124.5 125.1 125.6 124.9 125 126 132.1 139.8 147.7 155.5 162.6 171.7 179.3 184.2 188.5 191.5 195.3 197.2 198.3 200.2 202 204.8 207.4 210.2 210.8 210.6 209.8 208.8 207.9 205.8 203.8 202.3 198.8 196.3 193.4 191 190 193 196 197.7 198.3 197.6 197.9 195.9 194.3 193.2 190.2 188 184.6 180.2 175.1 173 170.2 166.3 163.4 160.8 158.4 154.3 149.4 146.6 144.2 141.9 146.6 148.4 148.8 149 148.2 147.3 146.6 140.2 134 128.5 123.7 122.4 125.5 128.1 132.4 137.6 138.7 140.3 141.5 137.8 129.6 123.6 130.2 137.1 142.9 148.8 154.6 158.9 163.5 168.3 172.1 176 178.9 182.2 185.7 186.3 188.6 190.5 191.7 193.3 194.6 195.7 196.4 196.7 197.5 198.6 198.3 198 196.1 192.7 185.9 179.5 154.6 133.2 130.7 143.7 151.6 144 133.4 119.1 115.1 116.3 123.7 130.8 136.6 142.6 147.8 157 165 169.4 176.4 179.2 182.6 186.3 189.9 193 194.2 196.6 200.6 203.5 205.6 208.3 211.3 214.7 218.2 221.3 223.1 223.3 223.7 224 223.6 223 222.3 220.7 218.9 217.5 215.5 214.2 213 212.4 212.3
130.4 133.5 133.9 134 136.4 136.1 137.4 143.2 141.9 141.3 141.5 141.1 139.9 135.7 132.5 138.7 136.3 133.2 128.8 126.7 124 120.6 122.6 122.3 124.6 122.5 119.7 119.6 122.8 124.2 121.1 123.4 121.2 120.6 121.2 121.1 121 120.7 123.5 123.2 122.4 122.8 124 126.5 131.8 141.5 150.9 157.8 167 176.3 180.3 183.9 187 190 191.7 192.4 193.8 195.1 196.7 198.4 199.1 199.1 199.2 199.2 198.7 197.6 196.1 194.8 192.4 190.1 187.8 186.9 183.4 181.7 184 188.4 190.6 191.1 189.8 189.1 187.3 188.2 186.2 183.3 180.4 176.7 173.2 170.4 166.6 166 163.9 160.2 156.6 152.2 148 143.6 139.8 137.9 144.3 145.7 146.9 146.8 146.8 146 144.7 144.9 138.3 133.7 127.9 122.5 119.3 120.7 123.7 127.8 131.7 136.3 136 136.3 137.5 138 134.6 123.5 125.5 134.9 140.6 147.2 153.5 158.1 163.5 166.7 170 172.4 174 177.2 179.5 183.6 187.2 188.6 190.5 193.1 194.2 194.9 195.3 196.6 196.9 196.6 196.2 194.9 192.7 185.9 181.1 176.4 151.7 135.9 122.4 135.6 135.6 127.1 119.5 119.6 111.5 120.5 126 132.9 139.1 148.1 154.6 158.7 167.5 172.5 176.1 178 182.3 186.2 189.4 193.2 196.3 198.9 201.8 204.3 207.2 209.8 212.8 216.5 219.8 221.8 222.4 222.7 223.1 223.4 222.8 222.2 220.8 218.6 216.8 214.9 213.7 212.6 211.7 211.5
137.6 140.9 140.8 142.2 147.7 145.8 146.1 147.2 145.5 142.2 138.8 141.3 141.2 140.2 142.8 144.7 141.8 139.7 135.1 132.8 129.7 126.4 127 129.9 127.1 122.4 122.5 122.3 122.4 122.3 125 127.1 121 120.7 117.6 121 121.5 121 120.7 121.7 120.5 121.2 123.5 125.7 128.9 132.1 140.8 152.2 160.6 167.6 172.4 175.5 179.1 180.9 183.1 185.5 187.7 187.9 189.6 190.8 191.6 191.6 191.4 190.9 189.4 188.3 186.4 185.6 184.7 182.5 181.8 179.5 175.2 172 173.1 176.7 178.9 181.6 182.2 182.1 180.8 182.8 181.4 178.1 174.2 170 167.7 165.9 163.1 162 161.4 157 149.6 144.7 139.4 135.3 133.3 139.8 142.8 143.2 143.6 143.8 144.3 143.3 142.4 142.5 139.6 133.1 127.2 123 117.3 116.9 119.8 124.1 126.2 132.2 131.8 130.8 131.6 131.8 133.9 130.8 122.5 124 133.7 138.7 144.8 152.5 157.7 161.8 162.9 165 166.6 168.8 172.1 175.4 178.5 179.9 187.5 191.6 192.6 193.2 194.2 194.9 195.1 194.9 194.7 194.6 192.2 186 181.5 176.4 168 152.1 133 121.4 120.3 123.6 133 125 108.9 115.3 120.4 127.3 135 144.4 151.3 154.8 162.3 170.3 173.9 173.4 178.2 181 186.1 191.3 194.7 197.1 200.1 202.9 205.2 207.8 211.1 214.6 218.2 220.2 220.3 220.9 221.7 222.3 223 221.9 219.5 217.2 215.5 214 212.5 211.3 210.6 210.7
144.7 148 145.6 147 150.4 150.1 150.2 147.6 142.4 139 142.2 145.6 145.5 142.7 147.2 148.4 147.1 143.6 140.9 138.4 138.3 136.8 134.5 135.6 130.2 123 121.6 121.1 120 124.4 129.6 123.8 126.6 125.4 121.2 120.7 120.2 121.1 120.7 118.7 119.9 120.8 122.2 125.5 127.8 131.2 134.6 141.6 153.4 159 163.9 168.6 171.6 174 175.5 177.5 178.5 179.2 180 181 180.9 181.4 181.4 180.2 179.6 179.5 178.7 177.9 177.5 176.8 174.7 172.5 166.5 157.3 156.1 162.3 165.9 171.9 175.1 176.8 176.7 178.3 177.1 174.8 170.6 166.8 164.7 162.4 160.3 157.2 152.8 147.8 142.1 135.8 131.1 129.8 136 139.8 140.1 140.4 140.6 141.2 141.2 140.4 140.4 140 139.5 133.7 128.2 122.8 117.8 113.4 116.4 119 122.3 126.2 126.1 125.7 125.7 125.6 126.3 129.5 128 116 123.6 130.8 136.9 144.5 151.6 155.7 156.7 157.7 158.9 162.2 165.7 169.6 171.9 175.6 180.5 186.1 188.6 191.9 192.8 194 194 193.8 193.3 192.8 190.9 185.7 181.6 176.3 173.1 168.6 150.8 142.2 140.6 147 136.7 127.1 118.5 110.1 116.7 125.9 132.8 139.1 145.7 152.3 158.1 165.8 169.5 169.7 170.9 177.6 182.6 188.6 193.3 195.6 198.5 201.2 203.7 206.4 209.7 213.2 215.6 217.4 217.3 217.5 218.7 219.3 220.4 220 217.9 215.7 214.1 213.3 212 209.7 209 209.3
151.9 152.1 147.7 151.5 153.4 151.5 149.5 142.5 141.8 145.8 148.8 150.6 149.1 144.7 150.8 152.7 149.5 145.9 143.9 141.9 140.7 139.6 138.9 137.9 133.8 131.3 128.8 125.7 124.8 129.9 128.4 127.1 132.5 129.3 124.4 120.4 120.1 120 120.9 120.3 118.9 120.2 123.5 124.3 126.9 129 131.4 133.6 137 150.6 154.5 160 163.8 165.5 167.7 168 170.3 171.6 173.2 173.9 172.2 170.8 170.9 169.3 168.5 168 167.9 168.5 168 166.6 163.9 158.1 150.5 144.8 145.2 149.8 152.9 157.6 163.8 170 172.2 173.7 172.6 170.6 167.8 164.2 162.1 159.7 157.2 153.5 143.8 136.3 131.3 128.5 126.7 131.3 135.6 137.6 138.4 138.7 138.8 138.9 138.4 138.2 138.7 138.4 138.3 136.9 129.4 124.5 118.7 112.9 112 114.6 117.9 119.7 122.2 121.7 120.6 119.5 119.1 121.4 124.3 120.8 113.4 123 130.2 135.6 140.6 147.2 149.6 152.2 153 155.1 159.1 162 165.2 170.6 174.7 176.7 180.9 186 190.4 191.8 192.6 192 191.9 190 188 184.5 181.4 177.1 173.7 172 168.2 161.9 157.3 148.7 138.5 128.3 119.7 106.1 115.2 125.3 130.3 134.8 140.9 143.6 150.6 159 164.3 165.6 168.3 173.4 180.5 186.2 191.9 195 196.8 199.6 202.3 205.1 208.1 210.5 212.9 214.6 214.5 214.3 215.3 216.2 216.7 216.5 215 213.7 212.3 211.9 210.9 209.4 206.9 207.6
153.6 152.3 153.3 154.4 154.9 151.8 144.1 142.3 148.7 150.4 154.4 155.3 151.2 147.2 153.3 154.9 152.2 148 146.4 143.9 142.9 141.3 139.8 137.3 133.9 136.3 136.5 132.7 134.5 133.9 128 132.2 133.7 133 131.3 126.7 120.9 120.7 120.9 119.1 119.7 120.3 123.7 124.1 125.7 127 128.5 130.4 132.9 136.2 140.2 143.5 144.2 147.9 151.5 152.5 155.2 156.9 157.7 156.5 157 157.4 156.1 156.3 156.6 155.1 154.6 153.3 155.2 152.7 146.5 140.9 139.5 139.2 139.7 141.8 143.2 144.5 148.5 153.8 158.7 163.5 166.8 165.8 164.1 160.5 155.3 150.3 146.3 141.7 135.5 131.7 128.1 126.6 124.8 129.2 132.7 136.1 136.7 136.6 136.5 137.4 136.9 137 136.4 136.4 136.8 135.9 131.2 124.7 118.8 113.9 108.8 110 113 114.6 116.4 117.3 116.5 116 115.8 116.5 116.5 116.4 114.7 116.2 122.2 128.7 131.8 137.5 141.8 144.7 146.8 148.5 152.3 154.8 158.9 164.3 166.6 171 176.2 179.9 182.6 184.9 186.1 185.9 185.4 184.4 183.3 181.6 180.1 178 176.6 175.9 173.3 168.9 162.5 152.2 140.8 131.1 122.4 108.9 111.4 119.2 123.7 126.9 132.6 136.7 144.5 152 153.6 157.3 167.6 171.7 178.8 184.3 189.9 193.6 195.2 197.8 201.1 203.8 205.9 208.1 210.5 211.6 211.4 210.9 211.6 212.3 212.9 212.7 212.6 211.4 210.2 209.5 209 208.2 205.6 205.5
154.3 154.4 154.7 154.9 153 144.6 143.3 149.7 153.5 157.1 159.9 159.3 153.5 150 153.5 155.7 153.5 150.9 148.4 146 144.1 142.8 142.3 140.2 139.3 139 138.3 136.7 135.5 132.1 128.3 133.9 134.4 134 133.1 131.3 129.1 126.2 120 119.8 119 120.6 123.5 123.9 124.2 126 127.5 129.5 131.1 133 134.5 135.3 135.4 134.5 135.7 136.2 137.1 137.5 136.5 137.6 140.9 140.1 138.2 138.4 138.3 137.8 137.2 138.2 137.6 136.2 135.4 135 134.3 134.7 135.2 137.7 137.5 138 139.3 141.8 143.7 148.3 152.4 151 148.9 147.9 146.7 144 141.5 137.2 134 132.5 131.2 129.3 124.6 125.7 130.7 133.9 134.3 134.4 134.1 135 135.7 135.7 134.8 135.3 135.2 134.5 133.1 126.7 121.2 116.6 111.9 111.2 117.1 114.6 109.6 112.1 110 108.1 107.1 106.6 106.5 110.4 113.6 108.7 114.9 121.6 130.7 136.7 138.6 138.2 138.8 141.1 143.9 148.2 152.9 157.4 160.4 165.2 170.6 174.7 177.4 179 179.9 179.7 180 180.4 179.5 178.6 178.5 177.2 178.1 177 175.6 174.4 167.2 156.6 143 134.1 125.6 114.9 108.1 113.1 115.6 120.7 126.9 132.2 140.2 141.4 152.9 162.9 167.3 171.6 177.2 182.1 186.2 191.6 193.9 197.1 200.1 202.7 204.8 206.9 208.5 208.6 208.4 207.9 208.9 208.8 208.8 209.1 209.6 209 208.1 207.1 206.2 205.4 203.4 202.6
154.7 154.1 153.2 153.1 145.6 143.6 149 154.2 157.8 161.3 164.5 162.9 156.2 152.1 153.4 154.8 154 151.4 149.4 147.7 145.3 144.5 143.7 142.4 140.9 140.6 139.4 132.6 132.5 129.5 129.4 133.8 134.1 133.7 133 132.1 131 128 121 119 124 125.6 125.4 124.1 124.3 124.5 126 128 129.6 130.2 131.4 131.4 130.4 129.7 128.3 128.3 128 126.2 126.3 126.9 127.9 128.8 130.2 131.6 132.1 132.3 132.3 132.2 132.4 132 131.9 132 131.4 131.9 132.3 133.7 134.6 135 134.8 135.8 137.6 137.5 139.2 140.9 140.8 141.1 139.8 140.1 138.6 137.4 136.3 135 133.3 129.8 126.3 122.5 127.4 130.9 132.6 131.7 131.9 133.4 134.5 134.8 134.3 134.2 134.4 134.2 133.8 130.4 124.1 119.9 117.3 111.6 109.4 105.1 102.7 106.4 102 99.1 99.3 98.6 96.9 102.9 109.2 111.7 114.8 119.8 127.4 131.5 133.6 132.5 130.8 134 137.3 140.9 145.9 150 156 162.1 167.1 168 171.3 173.2 174.5 175.2 176.9 179 178.9 177.8 176.7 176.8 177.5 177.4 177.2 176.3 165.8 155.3 143.3 136 132 123.3 105.2 105.2 106.7 115.3 121.3 127 130 142 153 164.8 169.4 171.4 172.9 178.5 181.4 189.3 193.5 196.1 199.1 201.6 203.7 205.3 206.2 206.7 206.9 205.9 206.4 206.5 205.7 205.7 205.9 205.5 205.6 204.1 203.4 202.6 200.6 199
152.7 151.4 151 146.9 143.6 149.9 154.1 159 161.6 166.1 169.1 167 160 155.6 154.7 153.6 152.8 151.8 150.2 149 146.9 145.6 144.6 143.5 141.9 141.4 140.6 136.2 133.6 130.4 132.4 134.5 135.3 134 133.4 132.6 131.4 126.7 121.2 120 120.1 120.1 122.7 123.7 123.9 123.4 125.2 126.4 127.1 126.9 126.5 126.7 127.2 126.7 126.2 125.7 125.3 123.8 123.9 124.1 124.3 125.6 126.8 129.5 129.5 129.6 129.3 129 129.3 129.1 128.9 129.1 128.9 128.3 129.6 130.1 131.1 131.5 132 132.4 133.4 133.7 134.6 134.8 136 136 135.6 136.1 135.5 135.1 135 134.7 133.6 131.4 127.9 121.8 125.3 127.7 130.2 128.2 130.7 131.8 133.1 133.7 134 132.7 133.6 133.4 133.2 133.4 126.5 119.7 119.3 114.5 111.4 107.4 99.3 101.1 96.3 95.3 94.6 93.9 93.5 94.5 101.4 104.4 108.1 111.7 120.8 125.1 127.1 126.5 123.6 127.1 130.4 134 135.4 144.8 152 160.4 162.2 163.3 169.5 173.6 176.5 178.2 178.7 179.2 178.5 177.8 172.5 173.5 176.8 177.3 177.6 173.9 162.5 155.4 145.5 138 133.3 127.9 116.2 110.3 102 110.4 112.9 117.1 129.6 140.5 152 161.2 169 169 170.2 175.1 181.7 187.4 193.5 195.6 197.9 200.2 202 202.9 203.4 204.1 203.9 202.9 203.2 203.4 202.4 202.7 202.7 202.2 201.4 200.9 201.2 200.3 198.1 195.5
150.6 148.7 147.4 143.5 146.4 155.1 158.9 162.6 165.9 169.7 172.7 170.9 164.9 160.2 156.5 153.4 150.6 149.8 150.1 149.8 148.4 146.5 145.4 144.4 142.4 141.6 140.9 137.6 132.1 132.3 133.1 136.2 136.3 134.8 133.5 132.2 130.6 126.9 120.8 119.7 120.3 119.9 120.5 123.3 122.9 122.7 123.5 125.8 126.4 127.3 127.4 125.4 125.3 124.7 124 124.2 123.9 122.3 123.6 125 123.7 123.9 125.3 127.5 127.2 126.9 126.5 126.5 126.6 126.7 126.9 127.1 124.4 127.6 127.4 128.7 129.1 129.2 129.3 129.6 129.8 130.2 131 131.5 131.4 131.3 132.3 133.2 133.5 133.7 133.5 133.2 132.8 131.9 129.1 125.3 120.5 124.6 126.5 125.8 129.2 130.7 132.2 132.8 133.4 132.6 132.8 132.7 132.1 123.9 126.4 126.3 122.4 119.8 116.5 112.3 105.2 98.1 96.1 95 94.2 94.3 93.8 93.2 95.4 99.3 106 112.4 114.5 115.6 120.1 118.7 117 120.6 126.6 132.2 139.1 140.8 147.7 153.3 156.7 165.9 173.2 176.7 177.8 178.9 178.6 178.7 177.9 176.2 173.6 170.7 174.6 174.7 177.2 175.4 171.9 159.9 150.8 139.9 136.2 131.1 124.6 120.9 108.1 101.5 107.1 118.5 126.6 135.8 149.8 157.8 166.2 167.1 167.3 172.3 180.6 186.8 192.3 194.9 196.9 197.7 199.1 200 200.3 200.8 200.3 199.7 200.6 200.1 199.6 199.6 199.8 199.7 198.6 197.8 198.1 197.7 195.5 191.3
147.9 145.5 144.1 144.7 149 156.9 162.4 166.2 169.6 172.9 175 174 171.3 166.4 160.1 155.3 151.2 147.6 146.5 148.3 148.9 147.5 146 143.7 140.6 139 137.4 133.3 134.4 135.2 134.3 137.3 138.1 137.3 136.3 135.3 133.6 127.2 122.4 116.4 119.2 119 119.1 118.9 119.3 120.1 122.2 122.9 124.6 125.8 126 124.1 123.5 123.1 122.5 123.2 123.2 120.6 120.5 121 122.4 123 125.5 126.6 125.5 124.7 125.2 125.3 124.8 125 125.2 125.2 122.3 126.2 126.1 127 127.5 127.9 127.6 127.7 128.4 127.8 128.7 129.6 130.2 130.1 130.4 131.3 131.5 131.7 132.1 132 131.6 130.7 129.2 126 119.8 121.7 122.4 124 125.3 125.4 130.3 132.1 132.6 131.6 131.4 126.1 125.3 131.1 134 131.8 128.9 125.2 120.4 115.9 109 102.3 97 95.7 94.3 94.8 94.4 92.7 92.5 94.2 103.8 107.1 111.3 111.4 110.2 110.5 112 119.8 129.2 133.7 141.8 145.8 147.7 153.7 158.7 163.3 168.8 173.3 175.6 176.1 176 176.1 174.2 166 158.8 167.6 169.3 167.5 176.8 177.9 173.1 158.7 151.3 148.7 143.8 135.5 129.5 122.9 110.1 102 106.7 115.9 128.6 134.9 145.5 154.9 162.2 164.2 166.7 170.3 180.1 185.6 190.6 193.2 194.5 195.3 196.2 197 197.7 197.9 196.7 196.1 197.7 197.2 196.8 196 196.2 196.2 195.5 195.5 196.1 195 189.8 181.1
144.8 145.9 146.3 145.5 149.3 154 161.8 168.7 173.3 176.9 179 178.6 177.2 173 165.2 158.2 153.2 149.6 146.3 144.6 144.3 143.5 142.8 139.4 138.2 138.8 135 137.7 140.3 139.9 138.8 138.3 140 139.1 137.5 136.1 134.7 128.7 124.6 121.9 118.8 118.9 115.5 119.2 119.4 118.7 119.9 119.2 120.4 122.2 123.3 121.3 120 120.2 121.6 121.4 120.8 119.9 119.7 120.5 121.7 123.8 124.9 124.5 123.5 123.6 124.3 124.9 124.6 124.2 124.6 124.7 120.8 123.8 124.5 124.6 125.4 125.6 126.2 125.8 126.3 126.3 127.5 128.5 127.9 125.9 129.1 129.9 130.1 130.1 125.4 123.9 124.2 127.3 126.7 123.3 120 117.4 118.4 119.6 120.6 121.9 124.5 124.2 124.5 127.1 130.2 129.8 130.7 134 135.3 134.4 131.9 127.1 121.5 115.7 109.3 103 97.9 95.4 95 95.2 93.8 92.7 90 92.8 98.8 101 103.9 105.7 103.4 108.7 108.2 118.5 125.3 130 135.4 143.5 149.9 151.7 154.2 159.5 164.4 170.4 174.1 174.2 172.6 172.2 169.6 154.3 151.3 161.3 158.7 162.1 173.1 175.9 174.5 167.1 160.9 160.8 148.5 137.1 130 123.3 114.7 100.2 108.7 117 129.7 133.4 139.7 152 159.1 165 164.4 169.1 177 183.7 188.9 190.9 192.4 193.1 193.9 194.8 195.5 196.2 194.6 192.9 193.9 192.9 192.7 192 192.7 192.6 192.3 192 192.1 190.4 177.3 179.9
145.9 148.6 147 147 150 153 160.3 170.9 176 181.7 183.2 183.5 183.4 178.7 171.8 164.9 156.2 152 148.6 146.5 144.6 144.1 142.8 141.5 141.3 139.4 139.6 143 146.1 146.9 145.7 143.5 142 140.8 139.7 139.3 136 129 124.8 121.8 119.8 119.6 120 119.6 118.8 116.6 119.6 118.8 118.5 119.1 118.4 118.4 118.7 118.4 120.4 121 119.1 118.4 119.1 119.7 121.3 123.7 124.1 123.6 123.4 123.2 122.1 121.7 122.7 123.5 124.2 124.3 121.6 120.6 121.3 118.4 120.1 123.4 124.8 124.3 124.2 124.3 124.8 125.2 120.7 119.8 122.1 127.1 128.7 124.6 121.1 118.4 116.6 119.7 126.5 121.2 119.6 114.7 114.2 113.6 114 116.5 122.7 126.3 129.9 127 129 126.6 131.4 134.3 136.8 136.6 134.8 129.8 124.6 118.6 110.9 102.1 97.9 96.9 95.8 93.9 92.2 90 93.2 92 94.1 94.5 95.3 96.2 96.8 99.9 107.4 112 118 124.3 132.7 137.2 146 145.2 149.5 153 155.1 160.3 171.7 172 168.5 167.3 165.9 152.6 147.6 152.3 151.9 164.5 171.9 173.3 172.4 170.8 168.8 161.2 145.8 137.3 130 123.3 112.7 101.7 104.1 114.1 122.6 129.3 136.5 148.3 155.7 161.5 159.4 166.5 172.5 181 186.1 188.6 190 190.9 192 193.6 193.6 193.4 191.9 189.3 189.7 188.5 188.1 187.7 188.7 189.3 187.4 183.3 184.5 181.2 173.4 181.6
148.6 149.6 148.3 146.9 149.9 153 159.1 168.5 177.8 182.7 187.3 189.1 189.1 184.1 177.8 172 162.1 155.2 152.2 150.4 148.8 146.8 145.5 145 144.3 141.7 145.1 149.1 152.2 152.5 152.1 152.2 149.7 148.3 145.4 142.3 140 133.2 126.8 122.3 121.4 121.1 121.5 120.4 117.9 119.1 119.2 118.8 118.4 118 118.2 118.5 116.6 118 118.5 120 117.8 117.3 117.8 117.2 120.9 121.2 120.9 119 120.3 120.3 119.6 119.4 119 120.9 121.8 120.9 121.1 119.6 117.7 115.7 116.5 118.3 118.7 118.8 121.5 123.6 123.1 120.3 116 114.4 117.9 124.9 125.2 120.9 116.6 114.2 114 113.3 116.4 115.2 116.1 112.7 111.2 113.3 112.9 113.1 117.7 121.2 125.2 126.1 127.3 132.8 135.3 136.8 138.3 138.7 138.1 134.2 129 122.8 114.7 106.2 101.3 99.5 95.4 92.5 92.5 90.1 93.2 92.2 90.5 91.9 89.3 89.5 91.1 95.1 102.6 107.7 115.4 121.4 128.1 132.1 136.3 136 143.9 151.3 144.2 155 165.5 165.8 163.4 163 162.1 152.8 142.6 144.1 151.8 161.5 163.9 168.7 169.4 170.2 167.5 148 136.9 131.2 127.1 121.9 114.3 103.5 100.1 110 121.2 126.1 135.4 141.7 147.4 149.2 155.8 165.6 169.9 176.7 183.2 185.7 187.5 189 190.8 190.9 190.5 189.8 189.1 185.5 186 185.8 184.9 184.3 185.9 185.3 184.7 181.5 177.5 173.2 171.7 176.6
149.4 150.1 146 148.5 150 153 158.5 166 173.2 180.5 188.2 193.9 193.7 189.3 184.7 178.4 168.2 159.4 155.2 152.8 150.6 148.2 147.2 147.3 147.6 146.2 151 155.7 158.2 158.4 158.4 155.5 155.6 154.9 151 145.7 139.8 136.4 132.1 125.1 122.3 122.4 121.9 122 119.2 119.2 118.7 116.8 117 115.5 118.7 118.5 117.9 117.6 118.2 118.7 117.7 116.8 117.6 116.4 117.8 118.8 116.7 116.9 116.3 117.3 116.5 116.8 116.6 116.4 117 116.2 116.3 117.1 115.9 115.4 115.4 115 115.8 115.9 117.6 117.1 116.8 117.9 114.9 114.5 116.8 124 119.5 118.2 114.9 114 113.6 112.7 111.1 114 113.6 113.6 111.1 113 112.8 113 113.7 115.9 120.5 122.4 125.6 132.3 137.2 138.2 138.3 138 137.8 134.6 131.1 125.5 118.2 112.3 106.2 100.4 95.2 93.1 91.9 93.8 93.5 92.1 91.5 91.1 88.9 91.8 89.2 93 98.6 104.1 108.3 114.8 122.7 127.5 130 134.3 145.3 143 136.5 145.3 155.1 160.5 158 158.4 157.3 153 139.7 139.3 144 147.5 155.2 165.3 166.5 170 165.9 146.5 137.1 128 121.9 119.2 114.9 105.5 98.5 104.4 114.4 121.4 124.9 131.5 134.1 146.9 152.7 162.2 168.4 172.5 179.4 184.5 186.6 188.2 188.8 187.8 187.2 187.1 186.2 183 182.6 183.9 182.6 181.8 182.7 182.3 181.8 180.3 176.8 170.8 171.8 177.8
150.1 150.8 149.8 148.4 150.3 153.4 158.3 164.9 171.1 177.9 185.8 194.7 197.3 193.6 189.4 184.6 175.1 164 157.9 154.6 152 150.2 149.3 149.5 150.7 150.6 155.5 160 163 164.2 164.1 162 159.7 159.3 156.9 151.5 144.5 138.1 133.2 127.5 123.9 123.1 122 122.7 121 118.4 117.5 119.4 118.3 118 118.8 119.4 117.8 117.9 117.8 118.2 117.3 117.2 119.1 116.8 116.6 116.6 115.7 117.2 116.7 116.6 116.6 117 116.4 116.7 116.3 115 116.4 115.7 115.6 115.5 115.1 114.5 114.4 115.1 115.3 115.3 114.8 114.2 114 111.4 117.4 118.5 116.4 114.7 114.2 111.9 113.9 113.7 114.1 113.6 113.6 113.1 113.5 112.7 112.6 109.9 112.6 112.6 116.9 118.5 124.4 133.3 138.8 138.9 138.2 136.5 135.6 133 129 126.1 120.8 114.2 110.2 97.6 93.4 91.6 95.5 100.2 92 91.4 91.6 91.3 90.8 91.4 91.1 89 91.8 98.6 105.9 118 118.1 121.7 127.6 133.4 138 133.2 134.9 141.7 145.2 148.2 150.3 151.4 152.6 148.2 140 135 140.1 156.7 164.8 160 167.3 167.2 162.6 143.8 134.4 126.1 119.5 115 113.1 106.2 96.3 102.9 110.3 120.3 131.5 135.6 141.8 152.7 159.2 159.9 166.8 170.1 177.2 182.9 185.5 187.2 187.5 185.3 184.3 183.7 183.7 181.5 179.2 180.5 180.7 179.1 180.6 180.3 179.7 178 172.3 169 172.8 177.1
150.9 151.7 150 149.8 150.9 154 159 164.6 170.5 177.1 185.4 193.7 200.7 199.7 195.6 191.1 180.8 169.3 160.3 156.7 154.5 152.7 151.6 152.9 154.4 155 159.6 163.9 168.1 170.7 170.8 168.8 166.4 163.8 160.8 155.2 148.3 141.9 134.6 131 125.6 124.1 123.9 123.9 123.1 120.4 119.6 122.6 122.6 122.4 121.2 123.5 119.3 115.2 117.2 117.6 117.5 116.7 118.8 117.6 118.5 116.3 118.9 118.8 117.8 117.7 113.4 116.3 115 113.2 116.7 115.4 115.4 115.1 115.2 115.1 117.6 116.6 114.6 115.1 115 115.1 114.6 114 113.7 113.1 112.1 115.4 114.4 114.3 113.6 114.8 113.8 113.3 113.5 113.3 111.1 113.4 113.3 110.9 112.4 112.8 112.8 112.8 114.3 120.5 129.9 137.1 140.4 140.3 140.5 138.7 135.7 132.3 127.4 123.5 119.3 115 109.6 96.1 102.8 102.5 104.7 102.1 95 91.6 91.1 91.6 93.2 93.7 91.3 90.3 89.4 91.6 104.2 111.6 120.1 126.9 128.2 131.5 130.7 125.6 132.3 139.6 139.7 141.6 142.4 141.9 142.4 138 133.7 132.1 136.9 141.8 147.1 154.2 164.9 162.9 156.6 143.1 132.5 124.2 117 114.6 110.3 102.8 97.6 107 117 128.2 135.9 144.2 146.9 160.2 165.6 164 167.2 170.7 175.4 181.7 184 186.6 186.9 185 181.8 179.7 179 178.8 175.9 178 178.1 176.6 178.8 179.1 179 174.9 169.4 168 172.1 174.4
151.7 151.7 149.7 149.8 151.6 154.4 158.6 165.4 172.5 177.6 184.3 196.8 202.8 205.9 202.3 198.6 189.2 173.1 165 160 156.7 155 154.3 155.9 157.2 160.4 170 174.8 177.2 177.5 178.3 174.7 171.5 168.9 163.8 158.7 153.3 144.9 136.8 132.3 126.5 125.7 126.4 126.2 125.1 123.4 125.1 127.7 128.7 127.4 126.1 125.7 124.1 118.5 117.1 116.9 116.1 119.2 122.3 119 117.8 117.6 120.4 119 118.5 120.9 118.5 116.3 118.7 118.3 117.2 118 116.1 116 115.4 118.7 119.5 118.3 116 112.8 114.7 114.9 114.6 114.3 114 114.8 113.9 115.3 114.2 114.3 115.5 117.3 116.7 113.7 113.2 115 116.7 114.3 113.8 114.4 112.8 112.3 112.6 109.9 114.8 130.1 138.1 141.1 142.4 142.6 142.6 141 137.9 133.9 129.7 125 118.1 111.8 96.9 109.8 112.2 113.9 111.1 103.9 98 92.3 91.4 92.4 99.4 104.6 91.1 87.6 90.3 89.7 97.3 105.6 116.8 126.5 126.8 126.9 124.6 120.8 128.2 131.4 131.3 132.1 132.9 133.1 131.1 128.9 125.6 130.8 136.2 144.8 154 156.9 158.1 158.2 148.6 137.1 130.2 125.8 120.4 115.6 110.2 100.7 98.3 111.5 118 129.9 140.5 153.1 158.1 164.9 166.3 166.5 167.9 170.2 174.1 178.8 181.7 183.4 185.6 185 181.7 176.4 176.2 176.8 173.7 175.5 175.7 174.7 177.8 178.5 178.6 173.7 167 167.5 170 172
152.7 152.6 150.4 151 152.7 154.5 159.1 165.5 173 178.9 184.5 196.8 205.5 209.6 207.8 205.5 197.1 180.3 168.9 162 159.3 158.5 159.2 159.7 164.3 171.8 183.2 193.1 192 189.1 186.9 180 176.6 173.2 169.4 163 156 150.1 140.7 134.8 128.8 128.2 128.2 127.3 127 126.8 130.1 130.2 129 128 127.5 126.9 122 119.3 120.5 117.8 119.1 122.8 125.2 122.7 121 121.9 124 123.9 124.2 123.5 123.6 123.2 123.8 122.8 122.4 121.5 118.5 118.5 118.6 122.5 122.9 123.1 120.8 119.2 116.4 115.6 116.3 117.1 114.8 115.1 112.3 114.1 115 122.5 122.2 122 122.6 115.9 114.7 122.8 121.5 118.7 117.6 117.2 114.2 114.4 112.7 112.9 127.6 140.5 142.2 144.3 144.9 146.1 145.8 144.5 140.4 135.9 130.8 125.1 114.6 97.8 110.8 114.9 117.2 117.9 115.3 108.6 102.8 96.4 93.9 98.8 105.9 103.2 87.8 90 87.7 88.3 93.5 105.2 114.8 120.3 122.1 121.2 119.9 116.4 124 125.3 124.9 125.2 125.3 124.5 122.4 119.9 124.4 131.4 138.3 153.7 154.8 152.5 152.6 148.6 140.3 131.1 124.3 120.6 115.1 110.7 103.8 93.7 100.6 110.3 118.1 129.4 141.1 149.5 160.6 164.7 166.4 166.9 168.5 169.6 171.5 175 178.3 180.5 182.8 182.6 179.7 174 175.2 175.7 172.2 172.4 173.5 173.6 175.3 175.7 176.2 169.9 164.3 168 169.4 172.1
151.4 152.9 151 152 153.6 155.5 159.9 165.3 172.4 179.3 185.4 195.1 208.8 212.8 213.2 210.1 201.9 185.9 174.1 168.3 163.1 162.8 165 167.9 175.6 186.6 201.4 210.3 208.5 202.6 196.9 190.2 181.9 177.4 173.4 168.3 158 151 144.7 137.3 131.5 130.7 129.9 128.7 128.9 131.1 132.5 132.3 130.8 128.5 127.9 126 121.3 122.2 124.5 121.8 122.4 125.3 126.5 125.1 125.7 125.7 126.4 126.3 126.4 126.3 125.3 125.9 125.1 125.4 124.5 123.9 119.1 123.4 124.4 125.7 125.9 125.7 125.7 125.4 122 121.6 122.9 123.9 121.3 114.9 113 114.3 118.3 125.9 126.1 126 127.1 122.9 123.5 127.6 127.1 124.3 123.2 122.7 120.6 120.2 113.5 113.9 137.5 144.5 146.2 147.7 149.2 150.1 149.7 147.9 144 139.5 133.9 120.8 98.3 116.4 119 118.9 120.9 122.6 118.8 112.4 106.7 103.8 102.6 108 109 102.9 87.4 90.5 86.8 89.5 90.3 97.1 104.7 115.5 117.6 118.4 114.7 112 117.3 116.3 116.8 117.3 116.3 114 121.1 124.3 124.6 127.7 133.3 144.6 148.3 146.9 144.4 137.8 131.5 125.4 119.1 114.8 111.4 107.6 98.3 93 103 111.3 120 130.3 141 149.2 158.8 165.1 166.5 167 168.4 169.9 170.8 172.4 174.6 176.4 177.9 177.1 174.5 171.3 173.2 174.1 173.5 169.2 172 171.4 173.6 174.3 171.6 163.3 164.1 167.1 168.3 171.2
153.7 152.5 152.1 153.1 154.5 157 160.6 165.5 172.4 179.3 187.4 194.4 209.6 216.4 217.1 213.8 206.3 192.2 179.7 171.2 167.4 168.1 171.8 176.3 185.9 203.3 216.3 218.3 217.5 216.5 213.1 206.4 193.4 185.9 178.9 171.6 162.5 153.9 150.6 140.6 134.4 132.8 130.8 130.9 132.5 134.1 132.9 132.6 131.4 128.9 127.7 123.2 123.4 123 125 126.4 127 127.5 127.5 127 126.4 126.6 126.3 126.5 127 127 127.4 127.2 127.4 127.1 125.4 124.9 120.8 125.4 126.8 127.2 127.2 126.9 126.5 126.4 125.8 125.2 124.5 122.4 117.2 114 114.1 114.7 123.7 127.1 127.6 128.1 128.7 129.1 129.7 129.4 129.6 129.2 129.1 128.6 126.2 124.5 115.6 119.5 144.4 148.6 151.1 152.6 153.6 154.2 153.7 151 145.4 138.7 129.5 109.1 119.1 125.8 125.8 123.8 126.4 121.5 115.3 110.8 107.5 104.6 102.5 106.2 106.7 101.8 95.1 89.2 88.5 88.9 89.3 91.3 105 106 112.4 114.5 110.9 111.6 106.9 106.3 105.8 109.3 112.5 116.5 118.6 118.3 120.3 124.6 126.8 135.4 141.8 142.2 137.7 132.2 128.7 120.8 115 110.4 108.5 105.7 97.6 92.2 103.1 110.3 120.9 132.3 143.7 145.4 153.5 163.1 165.2 165.7 167.3 167.6 168.7 170.7 172.2 174.8 174.8 174.9 171.8 170.7 171.7 172.2 168.7 169.3 170 170.2 171.2 170 164.2 158.4 163.4 164.8 167.3 170.1
153.7 153.6 154.1 155 155.7 158.4 160.9 166.7 173.8 181.1 188 197.5 209.8 220.3 221.2 217.5 209.2 194.8 184.9 175.9 173.8 176.4 179.8 186.1 200.8 214.9 221.4 223.9 223.2 222.4 220.9 218.4 209 195 187.8 178.1 169.1 157.7 153.7 142.4 136.3 134.9 134.4 135 134.7 134 133.1 132.3 130.5 128.7 124.5 124.3 124.4 123.2 126.7 127.3 127.9 128 128.3 127.7 127.6 127.7 128.1 128.3 128.5 128.9 129.4 129.9 129.3 128.9 127 123.8 126.1 127.1 128.5 128.2 127.8 127.8 127.3 126.8 126.2 124.9 123.6 117.9 114.1 118.7 122.2 125.2 128.1 128.6 129.3 129.8 130.5 131.1 131.5 131 130.7 130.5 130.4 129.3 125.1 120.4 113 119.2 132.9 141.8 151.6 156.2 157 156.7 154.7 146.7 137.3 124 110.5 106 131.5 132.7 132.6 130.5 124.9 118.1 109.4 102 103 96.2 98.3 93.5 96.1 97.1 92 89.2 89.6 90.3 89.9 86.4 97.9 105.5 103 109.3 107.5 108.7 99.4 99.5 107.5 109 110.1 110.1 111.5 112.7 115.7 118.2 118.8 131.4 137.1 137.1 129.6 127.2 123 113.6 109.5 106.1 101.9 97.9 95 94.3 103.7 110.6 112.8 124.8 130.5 139.9 145.9 155.7 157.5 158.8 164.2 165.7 166 168.4 170.4 173 174.3 173.9 172.5 168.3 168.9 168 167.3 169.5 168.1 168.7 168.4 164.2 160.9 154.4 162 163.8 165.8 167.9
155.3 155.8 155.7 157 158.1 161.1 164.3 168.9 175.3 183.2 190.7 200 213.8 225 224.3 221.9 215 202.4 191.7 183.4 184.8 187.8 191.8 202.1 214.5 224.4 227.7 230.1 232.2 234.3 231.8 226.3 223.8 208.5 192.8 179.9 173 165.7 156.8 144.8 140.5 138.6 137 135.3 134.5 133.8 133.6 131.8 129.3 125.1 124.3 126.4 126 127.7 128.6 129.5 130 130 130.6 129.7 130.2 130.5 131 131 131.2 131.6 132 131.8 131.6 131.3 129.8 127.5 129.1 129.3 129.6 129 129 128.7 128 127.4 126.1 124.1 121.2 115.5 114.5 121.4 124.8 127.3 128.3 129.3 130.3 131.2 131.9 132.5 132.6 132.4 132.2 131.9 131.1 127.7 122.6 122.1 117.5 110.9 109.6 113.7 123.5 133.8 136.4 132.5 121 113 108.8 102.3 117.7 137.1 138.1 138.5 134.9 129.1 122.9 115.5 109.3 112.2 114.1 110.1 107 102.4 96.7 91.9 96.1 94.4 90.1 89.8 89.3 88.9 91.4 99.9 101.7 104.3 102.4 101 99.9 96.9 95.5 93.9 94.3 97.8 98.7 104.3 108.7 110.9 114.8 124.2 128.9 132.6 122.9 121.5 117.2 109.7 104.8 100.1 95.2 93 92.2 96.1 109 121.4 126.5 128.2 131.3 136 141.7 152.7 159.4 162.7 159.8 164.3 168.3 169.8 171.2 173.4 174.3 174.3 171.9 167.6 167.1 163.5 170 169.6 167.3 164.1 163.9 161.6 158.5 152.4 159.2 164.1 163.9 164.6
157 158 158.3 160 161.2 164.7 168.8 171.4 178 186.7 194.2 203.1 218.4 230 228.6 227.3 222.1 211.3 199.3 191 198 201.6 208.8 219.1 226.9 231.7 232.9 234.3 238.8 239.4 238.5 236.4 229.8 222.7 205.9 186.6 176.8 168.3 158 144.9 141 139.8 137 135.3 134.1 132.7 132 131.1 126.7 124.1 127.5 127.3 128.2 129.7 130.3 131.1 131.9 132.6 132.9 132.8 133.3 134.2 135.4 135 134.2 134.3 134.2 134.6 134.6 132.9 129.9 130.7 132 131.7 130.8 130.2 130.5 129.1 127.3 126.2 125.4 123.1 120.8 117.2 113.7 120.8 124.8 127.1 128 129.5 130.8 131.6 132.4 133.6 133.8 133.5 133.8 133.1 130.5 129.7 128.3 127.5 133.7 132 136 133.4 119.1 108.5 110.1 106.9 116 124.3 130.7 134.6 144.6 144.5 142.7 138.9 132.6 125.9 119.8 111.3 117.3 123.2 122 119 114.6 111.6 105.3 103.1 105.3 100.9 95.2 89.3 86.4 88.6 89.6 92.7 93 93.9 94 92.6 91.7 91 90.6 89 88.5 88.3 90.7 96.5 101.7 105.3 112.9 121.1 122.8 127.9 120.5 117.6 114.6 105.8 99.7 94.7 91 91.6 94.3 103.3 115.6 125.3 134.1 143.5 147.6 148.7 146.3 155.2 164.7 166.1 161.1 165.9 168.9 170.3 172.9 174.6 174.6 173.3 170.7 162.5 166.4 160.7 172.7 170.3 165.9 163 161 160 156.2 151.2 155.8 161.1 161.1 164.2
159.9 159.6 162.6 163.4 164 167.5 171.4 176.4 182.2 190.1 198.1 208.7 223.6 231.1 234.7 232.3 228.7 224.5 209.7 204.3 211.6 215.5 222.6 228.5 234.6 236.8 237.5 238.1 243 243.3 243.8 243.4 239.8 230.9 212.8 189.2 178.1 168 152.2 144.2 141.5 139.7 137.2 135.4 134.4 133.1 131.8 129.7 126.4 127.4 128.2 128.7 129.8 130 131.7 133.7 135.2 136.1 136.9 136.6 138.6 139.5 140.6 139.5 138.9 138.2 137.3 137.7 137.6 136.2 134.1 133.9 134.8 134.1 133.6 133.2 132.3 130.8 128.8 126.5 125.3 123.6 121.2 117.1 114.8 120.9 125.8 127.1 128.3 129.8 131.3 132.7 133.4 134.5 135 135.3 134.6 132.4 132.5 132.3 132.9 137.8 145.4 149.9 153.1 155.9 152.3 145.6 140.5 141.7 151.6 160.3 159.4 155.3 150.3 146.9 142.9 137.4 129.7 123.8 117.9 119 125.1 129.1 125.9 122.8 119.2 115 109.2 111 111.4 108.1 100.3 91.9 86.4 89 89 89.1 89 88.7 88.2 88.5 90.2 88.9 89 89.1 87.4 86.8 87.1 90.1 92.8 99.5 110.8 119.4 119.3 121.3 116.9 112.1 109.3 102.4 96.2 89.9 96 98.2 100.9 109.1 118.3 126.5 136.6 151.6 159 151.8 149.6 160.3 164.8 166.1 164.1 164.2 166.9 170 173.7 174.9 173.8 171.7 167.2 157.7 162.2 161.1 173.3 170.6 164.7 162 159.5 157 148.5 150.5 156.7 155.3 159.7 164.1
162.2 162.3 165.6 167.6 167.5 170.7 176 180.2 185.7 194.4 204.3 213.8 230.6 240 240.3 239.8 237.2 233.1 226.2 215.4 224.1 227.4 232.8 237.8 240.1 240.6 240.8 242.4 245.9 248.1 248.3 247.4 244.5 239.1 209.5 188.3 177 167 149.8 144.8 142.8 140.2 136.7 135.3 133.6 132.9 132.2 130.6 126.3 127.6 129.8 131.1 131.7 133.5 135.8 138.9 141.2 143.7 143.9 143.7 144.9 145.2 146.1 148.8 149.1 148.5 147 144.4 143.2 140.4 137.7 137 137.8 137.6 138.3 138.5 136.5 134 130.9 127.3 125 124.1 121.9 118.1 115.3 119.4 123.8 126.9 128.8 130.2 131.5 133.1 134.3 135.4 136.4 136.2 136 136.2 135 136.8 141.9 148 151.2 154.1 156 158.1 159.9 162.3 164.2 165.2 166.3 163.9 161.4 157.7 152.1 148.5 144.2 137.3 131 125.6 121.5 122.9 129.8 131.1 129 126.4 123.4 117.5 113.5 116.8 116.9 112.6 103.6 98.7 89.8 89 88.8 86.1 88.2 88.2 86.3 85.4 84.9 84.8 86.8 87.2 86.5 84.7 84.8 86.2 86.5 95.7 107.2 112.5 113.5 115.6 113 109.6 101.9 96.6 90 90.1 96.2 99.7 106.8 115.2 119.5 125.7 132 144.2 158.1 155.9 160.7 165.4 168.9 169 167.7 168.1 166.2 170.3 173.1 173.9 172.8 171.4 168.4 157.9 154.6 161.4 172.3 171.8 167.9 163.3 158.1 153.1 144.1 153 152.4 155.3 155.3 156.4
165.5 167 167.4 171 172.1 174.7 179 184 190.2 199.9 209.3 219.2 234.9 245.4 247.6 246.6 244.3 239.1 234.4 229 234.3 237.4 239.8 243.4 244.4 244.4 244.5 245.9 249 251.5 252.9 250.8 246.1 228.3 201.6 187.2 176.3 163.9 150.2 144.6 142.4 140.1 136.9 135.5 134.3 133.5 132 127.8 127 128.4 130.6 131.5 132.6 135.4 142.2 146.8 150.2 154.4 158.4 157.9 156.6 154.8 154.5 161.7 163.8 163.4 160.1 156.5 152.2 148.6 147.4 144.3 146.4 151.4 153.7 150.1 144.3 136.4 131 127.5 125.1 124.1 122.1 118 115.6 121.5 125.7 124.6 128.3 129.2 130.9 132.6 134.8 137.3 138.4 138.9 139.5 139 138.4 143.7 149.7 153.4 154.6 156.4 158.6 160.9 161.7 162.8 161.5 162 163.6 164.5 162 157.5 152.9 149.8 144 138.1 133.7 132.5 126.5 124.5 132.1 132.2 129.6 128 124.3 117.8 119.4 122.8 122.2 116.7 110.4 105.6 97.4 93.1 92.8 92 92.1 91.8 94.1 93.4 90 89 88.1 88.6 90.2 90.5 87.6 86.9 84.6 95.1 97.3 105.4 107 106.1 106.2 104.4 98.2 92.5 88.8 89.8 96.8 102.1 109.5 116.7 125.4 131.2 133 139.5 156.7 165.5 166.5 167.4 170.7 168.8 169.6 168.9 168.4 170.5 172.5 172.2 171.5 169.6 164.8 159.9 148.5 157.8 166.3 172.3 172 167.9 159 149.1 139.3 150.6 146.1 144.1 141.6 144.8
170.4 171.7 171.5 174.4 176.2 179.2 183.2 187.9 193 202.4 212.5 224.1 239.6 249.4 252.4 251.5 249.6 244.4 241.9 241.4 242.7 243.6 246 248.4 249.1 248.9 249.8 252.2 253.1 253.3 254.3 252.3 234.9 213.6 197.1 184.3 173.3 161.1 149.7 143.5 142.3 139.1 137.6 136.2 135 133.4 129.6 128 128.2 129.7 131.2 132.7 136.4 144.5 150.4 158.1 165.1 169.1 173.1 173.9 173.8 167.5 166.2 167.5 168.9 166.9 164.1 160.5 157.3 156.4 154.8 159.4 162.6 163.9 167.3 161.1 148.4 138 132 129.4 125.6 124.4 121.1 117 117.2 122.6 125.6 127.7 128.1 129.3 130.3 131.4 135 137.8 140.2 141.7 142.4 143.3 144.3 149 153.5 156.8 157.7 159.3 161.2 163.6 164.8 166.5 168.9 165.1 160.6 161.1 160.4 157.8 153.6 150.1 145.2 141.9 140.5 137.3 130.4 127.3 134.6 134 131.4 128.6 125.9 123.7 124.5 126.2 125.8 123.1 119.3 111.3 106.3 103.4 101.9 100.8 101.4 102 108.8 110.2 106.5 101.5 92 93.4 99 97.5 87.7 87 84 90.5 94.6 99.5 101.5 101.6 100.5 98 94.1 88.4 88.3 93.5 97 102.6 112.4 123.9 133.4 134.8 150.2 151.4 159.8 164.1 169.2 158.9 156.8 156 163.5 160.2 161.7 167.8 165.2 169.2 171.1 168.7 162.8 154.2 141.2 151.8 157.2 164.2 170 167.1 161.2 150 136.9 142.6 138.6 137 142.6 151.2
174.7 176.2 175.3 179.3 181.1 183.3 187 190.5 196.6 206.8 216.3 227.7 245.3 254.6 257.3 257.3 255.6 250.4 248.7 248.5 248.4 250.1 252.5 254.7 255.9 256.4 257 257.8 258 257.5 256.7 241.3 220.6 203.9 191.2 180.8 169.4 158.8 148.8 143 141.1 138.9 137.6 136.3 135 131.3 128.7 129.4 130.3 131 133.9 137.9 146.1 153 162.6 169.8 178.9 186.6 189.4 190.9 190.8 187.7 183.2 176.3 173.1 170.7 167.4 167.7 169.4 169.1 173.6 174.8 175.1 177.6 172 166.2 148.2 140.9 133.4 129.3 126 124.7 120 116.6 116.6 123.3 125.5 127.8 129.2 130.4 131.6 133.4 135.7 138.8 141.9 144.4 147 151.1 152.3 154.9 157 159.2 161.3 163.3 165.3 166.6 168.2 170.8 170.9 168.4 163.9 159 157.1 156.5 154.7 151.1 148.3 145.4 143.3 136.6 129.1 131.7 137.9 137.3 134.8 132 130.1 129.1 130.8 131.7 130.7 130.3 125.2 116.7 114.2 113.8 114.3 113.9 114.2 115.2 119.2 116.6 111.5 99.6 100.7 105.6 106.1 99.3 92 87.1 86.2 87.7 88.9 93.1 94.4 95 95.4 94.1 88.1 86.3 87.8 93.1 100.3 110 115.8 114.6 118 125.1 145.3 149.8 143.8 149.5 159.6 147.5 139.2 142.9 147 145.1 148.5 152.2 154.4 161.6 168.1 169.8 165.6 154.7 138.5 144.7 149.7 154.1 166.3 164.9 159.8 152.5 136.6 131.3 132.2 144 153.7 153.8
176.6 178.6 177.6 182.8 186.1 188.6 189.2 192.7 201.3 208.8 220.3 232.4 248.5 258.9 262.8 263 261.6 258.6 255.2 255.7 255.3 256.4 257.6 259 262 263.1 262.7 262 261.4 258.3 247.1 227.8 209.5 196.7 186.8 175.1 164.8 156.5 146.9 142 140.1 138.5 137.3 136.1 133.1 129.5 129.6 130.1 131.3 134.7 138.7 143.4 152.7 160.7 170.9 181.4 192.5 206.7 212 214 214 213.9 213.4 205.7 190 191.2 190.7 194.9 199.2 196.1 194.1 190.6 188.8 185.7 174.6 169.2 148.9 141.8 133.8 130.4 126.1 124.6 120.8 116.4 119.5 122.3 124.3 125.9 128.7 130.2 132.3 134.4 137.4 140.7 143.9 148.6 153 157 159.3 160.9 162.2 163.6 165.3 168 169.4 170.7 172.7 173.9 172.8 169.6 166.2 161.8 157.9 156.1 155.6 153.1 149.7 147.3 145.6 139.1 130.1 140.2 144.1 144.5 141.5 138.6 136.2 134.9 137.2 137.2 136.1 136.9 133.5 127.1 123.9 123.2 125.9 127.8 127.2 123.5 119.9 116.8 105.2 102.3 108.2 111.8 109.4 105.3 100.3 96.2 84 87 87 88.5 87.6 88.8 91 89.2 86.7 86.2 87.8 93.7 101.7 105.5 107.9 112.2 115.8 122.3 132.7 131.2 133.4 151.4 143.2 135.7 128.2 129.4 130.7 132.2 137.3 138.8 142.4 151 165.3 167.9 167.8 155.3 141.4 133.8 142.9 147.7 159.8 160.1 152.9 147.2 134.2 130.3 135.9 153.8 161.8 158.9
177.6 178.8 179.4 185.4 190.1 192.7 195.4 198.5 204.2 213 223.5 236.7 254.6 266.2 268.2 267.9 266.7 264.7 262.6 261.4 260.9 262.2 263.2 263.7 266.7 267.4 266.5 265.6 261.8 252.3 232.9 214.9 201.2 191.3 182.1 171.9 161.9 153 144.2 140.8 139.5 137.8 136.4 135.1 131.7 130.4 130.8 131.9 134.6 140.3 146 150.9 158.8 168.1 178.9 189.7 205.9 227.5 229.8 231.8 227.7 223.9 221.9 218.9 214.6 212.8 210 205.6 202.7 199.5 197.7 195.4 192 183.7 170.4 166.3 149.4 143.1 132.8 128.6 125.3 123.5 121.4 116.8 118.8 124.2 126.3 128.2 129.6 131.2 133.1 135.6 138.5 142.5 147.6 155.9 160.7 162.5 164.3 165.8 167.3 167.9 170.3 172.8 175 177.9 179 178.2 174.8 171.5 168.7 165.6 162 159.1 157.5 154.3 151.6 149.5 146.2 136.1 131.7 146.8 150.8 154 152.6 149.3 146.1 144.2 141.8 142.4 141.5 142.4 141.9 137.7 133 130.3 130.6 129.9 123.4 117.7 107.3 103.1 103.2 109.5 117 114.7 111.3 108.6 105.8 104.5 94.7 90.5 88.4 87.3 86.4 83.9 85.5 86.2 86.3 86.2 87.2 93.6 99.3 102.9 108.2 111.4 111.2 118 121.5 123.6 129.1 134.7 132.1 125.8 120.8 122 124.5 126.1 131.6 131.7 135.5 147.6 159.3 157 156.1 154.7 145.1 127.6 135.5 140.5 147.8 146.2 143.2 136.6 129.1 138.1 148.3 163.1 166.7 164.3
179.8 181.3 182.2 186.8 192.3 196.5 201.8 204.7 209.5 219.1 229 242.1 261.3 273.2 273.1 272.5 270.9 269 267.8 266.3 266.7 266.9 267.7 268.3 268.8 271.2 270.5 266.2 258.1 237.9 221.4 209.5 195.9 186 177.3 168.5 158.4 150.4 142.2 139.3 138.4 136.8 133.9 132.7 131.7 131.7 131.9 133.3 138.6 144.5 151.1 156.8 164.2 174 186.2 199.8 223.3 232.7 237.2 238.5 236.3 230.3 225.5 222.1 218.9 215.8 212.3 208.1 204.3 201.4 198.7 198 189 173.2 164.5 159.3 149.3 136.4 130.6 127.2 125.3 123.2 118 116.9 121 125 127.5 129.3 130.2 132.2 134.8 137.4 140.8 144.6 153.9 162.5 165 167.3 168.8 170 170.9 171.3 173.6 176.4 179.5 184.9 184.7 187 178.2 174.7 171.4 167.7 164.7 162.2 158.1 156.1 154.9 150 138 141.7 147.8 152.9 155.9 159.9 160.6 158.9 156.3 151.3 148.5 147 145.4 145.5 144.2 140.7 140.2 134.7 128.8 123.8 117.1 102.4 112 108.6 112.4 118 119.9 117 113 109.1 106.2 107.6 108.6 106.6 102.5 99.6 91.2 89.2 86.3 86.6 85.9 85 88.8 95.5 97.9 100.3 104.2 107.2 111.4 114.2 114.8 119.5 121.7 128.3 124.7 119.2 117.8 115.1 116.3 119.2 123.5 126.5 136.5 147.4 147.1 145.3 144.2 144.8 141.9 130.9 127.7 134.3 133.4 134.2 131.8 129.1 137.5 150 161.9 168.3 169.8 169.4
181.1 185.7 187.9 188.4 193.4 198.5 204 210.3 216.9 224.1 233 246.1 269.3 277.8 277.2 276.4 275 273.6 272.2 271.6 272 272.8 272.8 272.3 272.7 274 270.2 263 242 225.8 214.3 204.3 193 181.8 172.5 164.4 156 148 140.6 138.5 137.2 135.8 133.7 132.6 132.5 132.2 133.3 138 142.6 148.5 154.7 161.7 169 180.1 192.5 210 234.4 236.2 241.6 242.6 240.4 235.8 230 225.7 221.6 218.5 214.6 210.5 206.2 202.6 200.1 193 173.5 162.6 156 146.2 138.1 131.9 128.1 126.1 125.3 122.1 118 119.2 123 125.9 128 129.8 131.2 133.3 136.7 140.3 143.3 150.1 159.6 166.3 168.8 170.6 172.1 173.1 173.4 173.9 175 176.8 179.2 183.2 184 182.5 179.3 175.9 172.1 168.5 165.8 162.9 159.6 159.1 157.4 146.9 144.7 152.5 155.5 157.7 161.4 164.8 166.1 164.5 161.6 156.5 154.6 151.5 149.2 147.3 145.4 143.2 135.8 128.4 123.5 117.4 105.7 117 121.6 113.8 122.3 124.1 123.2 119.2 114.5 109.8 106.6 109.2 109.4 109.1 106.7 103.6 92.9 92.2 90 86.4 86 85.6 86.9 93 96.8 97.8 101.6 103.4 107.1 108.2 112.8 114 122.1 127.1 118.7 113.5 112 109.7 110.7 115.9 122.9 131.6 135.2 130.6 130.5 130.9 131 132.6 131 127.2 121.6 126.2 125.9 125.6 127.8 134.2 146.8 160.4 167 172.2 171.5 170.9
181.9 185.1 190 194.4 194.6 201.7 207.4 216.1 223.9 230 238.1 250.6 273.6 280.4 280.2 279.4 278.3 277.5 276.6 275.9 275.7 276.8 277.2 277.8 277.9 275 268.4 248.1 230 219.2 207.3 198.3 188.9 179.3 170.4 162.1 155.2 144.6 139.8 138.7 136.7 133.8 133.2 134.2 133.3 133.5 137 141 146.3 154.2 161.6 168.4 175.4 186.4 201.6 224.9 237.3 240.2 244.6 246.4 244.6 241.5 236 229.4 224.1 220.2 217.1 212.6 207.7 203 191.9 176.4 165.2 155.5 146.2 137.6 134.5 130.7 127.8 125.8 123.1 119.4 118.2 120.6 125.9 127.7 128.5 130.2 132.4 134.4 136.9 139.8 148.5 157.3 165.4 169.3 171.4 173.4 174.8 175.9 176.8 177.8 178.3 179.3 180.9 182 181.5 179.9 178 174.7 171.7 168.3 166.8 162.9 162.4 161.5 160.4 150.4 147.5 159.4 162.2 164.6 166.7 169 169.4 168.3 164.9 161.6 157.6 153.1 150.8 148.4 145.3 139.5 132.5 126.5 118.2 108.9 118.6 124.5 124 118.3 120.8 125.7 126 123.2 118.3 111.5 107.1 109.5 110.7 110.3 108.3 103 96.3 91.8 91.2 87.7 85.7 85.5 85.4 90.8 94.6 95.7 98.6 100.2 102.9 108.8 117.9 118 116.3 115.8 112 107.6 105.6 108.5 116.5 121 129.7 125.1 124 126.5 125.8 125 124.9 126 125.6 120.6 123.2 125.7 128.1 131 136 140 146.2 153.9 166.7 173 172.2 170.8
184.6 186.1 188.4 194 196.8 204.1 211.1 220.3 229.1 236.4 244.7 254.7 277.1 282.7 283.1 282.9 281.8 280.9 279.9 279.3 279.2 280 280.7 281.4 279.4 274.2 256 235.2 222.8 213.1 201.9 193.8 184.7 176.2 167.9 161.3 154.3 143.8 139.2 138.2 136.8 135.3 136.1 135.3 134.4 135.1 140 145.6 150.1 158.2 165.1 172.6 181 194.7 212.8 237.9 240.2 244 248.8 251.7 250.3 247.4 241.2 233.1 226.2 222.2 218.9 214.7 207.7 194.8 178.9 167.1 156.9 147.5 138.6 135.1 133.1 130.6 127.2 125.7 124.5 120.6 118.4 121.9 126.9 128.3 129.8 131.2 132.8 134.6 138 148.5 158.1 164.4 170.5 172.7 174.5 176.1 177.5 178.7 180 181.1 182 182.4 183.1 182.1 180.2 178.2 176.3 172.8 171.3 169 167.1 165 164.3 163.3 162.1 151.2 154.3 164.7 169 171 172.2 172.1 172.1 170.4 168.1 162.5 157.6 152.3 149.4 145.6 140.3 136.3 129.2 122.5 110.3 118.8 123.5 129.9 124.8 117.8 120.8 125.9 127.8 124.2 120.1 113.5 108.6 109.1 110.7 111.6 109.2 103.8 97.3 90.9 86.7 86.1 85.6 85.3 85.4 87 90.9 91.5 94.7 103 115.3 119.2 122.5 127.1 110.6 107 106.4 102.3 102.6 112.8 124.3 120.2 118.7 116.4 116.4 118 117 117.3 118.6 117.9 116.8 117.6 129.7 136.5 137.8 141 145.8 150.3 154.3 160.9 169.2 172.2 170.4 169.3
186.3 188.9 190.1 194.4 200.2 207.2 214.4 223.4 232.4 243 250.9 265.7 281.7 284.6 285.9 285.8 285.1 284.6 283.7 283 282.1 282.8 283.6 283.2 281.4 268.4 242.9 227.8 217.7 207.4 198.5 190.1 181.2 172.1 165.5 159.3 152.3 142.9 138.1 136.2 135.2 134.6 136.2 136.4 135.8 137.9 143.5 149.8 154.2 162 168.9 177.1 188.4 202.4 226.7 241.7 243.8 249.2 254.1 255.2 253.2 250.3 244.7 235.8 228.1 223.5 219.8 216 197.4 182.2 170.6 158.8 148.2 139.4 135.9 134.6 132.6 129.8 127.5 126.8 123.9 119.4 120.7 125.5 127.8 128.9 130.4 132.1 134 136.6 145.9 159.3 163.3 170 173.9 176.6 178.3 179.9 180.9 183 185.3 187.1 186.3 186 184.9 182.4 180.1 177.2 174.8 172.5 170.8 168.9 167.3 165.6 164.7 161.3 150.8 153.2 164.2 170.4 176.3 177.1 176.4 175.8 174.3 172.6 169.7 164.6 158.4 153.5 149.1 145.1 138.1 130.2 121.7 120.2 116.7 123.9 131.7 133.2 127 122.4 119.7 125.6 128.4 124.6 119.9 114.9 110 109 110.7 111.6 109.9 104.3 97.8 89.7 84.6 84.3 85 85.5 85.4 84.8 87.1 89.5 95.6 103.9 109.5 113.5 115.7 122.3 109.9 102.1 100.6 97.3 105.2 111.1 112.9 113.4 110.8 107.5 109.7 110.2 111.8 112.2 110.2 107.5 113.7 121.8 134.2 142.3 145.8 150.5 156.1 165.3 165.2 169.2 171.8 172.7 170.1 166.8
187.2 191.5 195 199.8 205.3 210.3 216.1 227.8 237.8 246.6 257.3 273.4 286 287.7 288.7 288.6 288.2 287.4 286.9 286.6 285.4 285.7 286.5 285.4 279.6 254.2 235.4 221.5 212.9 203.4 192.9 185.8 177.4 170.6 164.3 158.3 148.6 141.3 136.6 137.1 136 136.2 137.3 137.8 137.6 144.1 149.2 152.8 158.5 165.8 173.5 183.9 197.2 212.1 237.9 244.8 246.8 254.7 258 258.8 256 252.4 247.6 237.9 230.3 224.6 219.6 204.4 187.2 175.3 164.4 152.5 142.3 137.5 135 133.3 131.3 128.2 126.4 123 120.4 119.3 121 127.4 128.8 129.8 131.1 133.2 135.8 142.6 157.5 163.7 168.6 173 177.4 180.8 182.4 183.4 185.1 188.1 190.8 190.9 190.5 189 186.1 183 179.7 177 174 171.7 169.4 168.3 166 163.2 159.2 149.8 154.8 162.2 166.4 172.1 179.3 181.6 182.5 180.6 178.1 175.3 172 166.9 160.8 154.4 149 141.4 130.4 130.9 131.1 125.7 116.7 126.5 137.3 134.9 130.2 124.8 121.9 123.1 130 127 122.5 116.7 111.7 109 110.8 111.4 109.5 104.4 97.5 88.4 84.5 84.9 85 85 85.1 82.6 90.4 95.8 99.6 107.1 105.5 109.3 113.2 116.4 105.9 99.9 93.6 99.2 106.4 103.5 104.9 106.4 103.1 104.8 105.7 106.4 104.6 104.2 106.5 108.9 116.9 125.8 138.1 144.7 158 165.4 167.4 166.1 165.6 169.2 171.1 170.8 168.8 166.4
188.9 192.9 197.7 202.2 207.9 216.2 225.7 233.9 242 251.2 264.2 278.5 288.6 290.4 291.6 291.7 291.3 290.8 290.3 289.8 288.9 288.9 288.9 286.4 265.5 243.3 228.6 218.4 207.3 197.2 188.3 181.2 174.1 168.1 161.6 155.5 146.2 139.4 138.1 139 138.1 138.5 139.3 139.5 141.9 149.1 153.4 157.8 162.9 170.1 179.7 189.6 203.5 221.8 243.6 248 250.9 258.2 262.1 262.5 259.9 255.3 248.5 240 231.9 224.8 211.9 191.6 180 169.1 159.7 146.1 138.5 135.8 134.3 132.4 130.1 128.5 127 124.6 119.7 121.5 124.2 128.4 129.8 130.6 132.1 134.2 138.9 149.6 163.2 168 172 175.5 181.3 184.6 186.9 186.8 189 192.6 194.5 195.4 194.6 191.6 188 183.3 179.5 177 175 172.3 169.4 165 161.1 158.4 152 158.6 160.2 164.5 170.5 175.6 181.9 185.1 185 183.3 181.4 179.1 176 170.7 163 156.3 150.5 141.8 137.1 138.8 134.9 128.3 121.7 128.4 136.8 136.1 133.4 128.5 127 121.3 126.8 130.7 125.8 121.4 113.7 110.4 111.5 113.7 109.8 103 93.6 85.4 84.2 84.5 83.6 84.5 84.7 82.6 94.1 101.4 100.9 102 104.1 110.9 118.5 112.8 100.3 95.3 91.1 96.6 97.9 99.3 99.4 100.1 98.8 98.3 98.9 97.2 97.6 101.1 108.5 113.7 120 129.5 139 143.9 160.3 162.6 163.5 163.1 164.2 167.9 168 166.1 162.9 162.3
189.8 194.7 196.4 202.1 207.4 214.2 225.2 236 245.9 257 275.2 285.8 291.4 293.2 294.6 294.7 294.7 294.4 294 292.9 291.9 291.9 290.9 275 252.3 237.3 225 212.5 202.8 192.6 184.8 179.5 172 165.7 160.3 151.8 143.5 138.3 139.5 141.3 139.5 140.1 140.6 141.6 147.9 153.5 158.6 163.3 170.8 177.1 185.8 196.4 210 233.6 245.5 250.5 257.2 262.3 264.8 263.8 261.7 255.8 248.7 240.4 232.2 221.2 198.2 184.2 173.1 163.5 154.3 141.4 136.1 134.5 133.4 131.5 129.7 129.3 126.8 122.1 120.5 124.7 126.4 129.2 130.5 132 133.9 135.9 143.2 162 167.9 172 175.5 178.9 184.4 189.9 191.4 191.4 193.9 196.1 198.4 197.3 195.4 192.3 188.2 183.8 181.4 178.1 175.6 173.1 170.4 163.8 156.5 156.2 158.2 164.4 166.1 170.9 174.8 180.1 186.7 187 185.5 183.3 182.1 180.2 177.2 172.2 165.7 158.7 151.7 143.4 142.6 141.4 136.6 131.4 126.5 131.7 135.4 134.2 132.3 129.2 125.5 123.4 128.7 135.2 130.9 123.4 116.9 111.3 114.2 117.7 112.6 101.9 91.5 84.8 84.2 84.2 85 89.5 89.8 94.3 99 100.4 101.9 107.5 107.3 117.2 119.8 107.4 98.8 94.4 87.6 89.9 91.1 92.2 92.1 93 92.5 93.8 95.1 99.2 102.2 105.8 114.1 119.9 126.4 132.8 139.5 152 158.3 159.7 159.3 159.3 159.3 154.2 151.9 152.9 154.6 156.3
185.5 190.6 196.8 203.5 209.7 218.4 229.7 238.8 250.4 263.3 280.2 289.5 294.2 296.1 297.3 297.6 297.8 297.3 296.4 295.5 294.5 293.6 282.6 259.5 243.1 229.9 217.4 206.8 198.4 191.1 181.7 175.8 168.6 163.1 157.2 147.2 140.1 139.9 140 141.3 142.4 142.3 142.7 148.9 153.9 157.8 163 169.7 176.3 183.1 192.3 204.9 220.9 245 249.2 253.5 260 265.7 267 266.1 262.2 256 248.3 240 224.3 206.1 189.7 177.7 167.7 158.7 147.5 138.6 135.1 134.3 132.5 130.7 129.4 128.7 127.3 121.5 123.2 127.9 129.1 130.1 131.9 133.6 136.2 138.5 152.8 165.9 172.2 175.8 179.4 183.7 188.1 192.6 195.7 197.7 198.7 201 202 199.9 197.2 193.6 189.2 185.4 182.5 178.6 175.9 173.5 167.3 160.8 156.5 161.9 164.1 170.2 172.5 175.1 179.1 185.7 188.9 187.8 186.1 183.7 182.4 179.3 175.9 170.8 166.3 162.5 154.5 148.4 146.4 142.1 137.9 132.9 129.6 136 136.1 133.7 129 125.5 124.1 133.4 145.2 142.6 136.5 129.3 120 112.2 117 121.1 112.3 101.4 89.9 84.1 83.6 84.8 86.1 90.9 92.1 94.7 97.8 100.5 105.4 114.5 116.6 120.9 114.5 101.4 96.3 90.2 84.4 85.2 87.1 88.9 88.8 90.4 93.3 98.9 103.1 109.7 114.1 117.9 125.1 131.9 133.8 137.2 149.9 155.7 156.8 157.2 154.6 151.1 143.9 144.1 144.6 144.3 144.4 147
186.4 190.7 195.3 203.6 212.3 221.9 230.6 241.4 253.1 266.1 283 293 296.4 298.8 299.9 300.1 300.1 299.8 299 298 295.9 287.3 266.4 248.5 235.4 222.6 214.1 204.5 196.6 188.9 182.3 174.2 165.8 159.7 152.7 144.1 140 141.7 141.7 143.1 144.5 144.7 149 155.1 158 162.5 167.5 174.1 180.7 188.9 198.3 212.2 233.9 248.7 252.6 257.2 265 268.8 271.6 267.1 261.4 254.5 246.9 234.5 216 198.2 183.5 171.3 162.4 152.6 141.5 137.2 134.6 133.7 132.2 129.8 128.3 128.1 125.3 122.1 123.2 127.3 130 130.1 132.5 134.8 137.4 142.1 155.7 167 175.1 179.5 183.4 187.9 191.4 196.1 200.2 203.4 205.6 207.4 206.8 203.6 199.1 194.1 190.4 186.3 181.7 178.2 175.6 171.6 164.5 156.9 161.5 168 169.9 174.1 176.8 179.9 183.1 190.1 191.3 188.8 185.1 182.3 180.1 178.1 174.6 170.3 166.2 162.7 157.4 151.5 147.8 143 139.6 133.8 133.8 139.3 140.7 137.1 132.7 129.1 124.9 138.1 151.5 147.9 143.3 138.3 122.6 115 122.4 120.3 112.1 101.9 91.4 84 85.3 85 88.1 90.2 91.6 96.1 101.8 106.2 110.7 117.4 122.8 118.9 108.2 97.8 93.4 85.6 86 92 93.6 95.3 95.7 97.9 104 109.5 113 121.2 126 130.4 134.5 142.1 148 150.3 152.6 154.1 153.5 153.8 148.8 142.8 139.9 138.7 138.4 138.9 140 140.9
189.2 192.5 198.1 204.7 212.3 221.4 232.4 242.9 255.7 268.3 284.6 295 298.8 301.1 302.4 302.5 302.5 302 301.3 300.4 296.8 273.5 254.5 241.1 228.4 218.4 209.9 201.3 194.5 187.4 178.6 170.1 163.8 159 151.2 143.7 141.1 143 144.4 144.9 146.5 152.2 156.3 157.9 163.2 167 173.6 180.4 187.2 195.4 208 222.1 246.8 252.9 257.1 263.7 269.1 271.9 271.6 266.3 260.6 254.9 241.9 226.3 208.1 191.9 178.8 166.6 156.9 147.3 139.4 135.9 134.8 133.6 132 130.1 127.8 127 123.3 122.6 122.1 126.9 130.3 132.6 132.9 135.8 138.8 146 156.9 170 179.6 185.4 189 191.9 197.1 201 204.7 209.7 212.3 212.3 212.1 206.9 199.1 194.8 191.2 185.5 180.8 177.1 173.2 167.8 161.3 163.3 169.7 173 175.1 177.2 180.3 183.3 187.5 192.2 192.1 188.4 184.4 180.8 177.9 175.1 172.5 169.2 165.2 161.5 157 154.1 149.8 145.1 140.9 133.9 136 144.3 146.4 142.9 144.6 143.9 131.2 128.2 140.4 144.4 140.3 129.3 118.9 126.3 126.8 119 112.6 106.9 95 84 84.4 84.7 85.9 89.8 90.8 93.8 101.4 109.9 114.3 118.1 115.2 106 98.9 96 89.5 82.8 89.1 98 110.1 108.7 108.2 110.5 116 119.7 123.1 127.4 136 140.1 145.9 148.2 149.1 150.1 150.6 151.6 150.9 148.9 144 138.9 135.9 134.6 134.5 135.4 136.2 136.6
191.6 195.7 200.7 207.8 216 225.2 234.5 243.5 254.7 270.1 286.2 296.4 301.1 303.3 304.7 304.9 304.6 304.1 303.3 301.1 285.7 263.1 246.8 235.8 223.9 214.6 206.8 198.3 191.9 185 173.4 167.5 162.1 156.4 149.7 143.6 142.6 146.2 147.7 149.1 152.4 156 160.2 164.2 167.3 172.6 178.5 184.7 191.8 202 216.3 235.8 252 256.5 262.4 268.4 273.1 275.2 271.1 265.7 259.5 251.2 235.2 216.5 199.5 186.5 174.2 162.5 152.3 142.1 137.6 135.4 134.3 132.7 131.1 129.7 128.9 128.1 123.7 127.3 126.5 128.1 129.5 132.2 135.1 136.6 143.6 152.6 162.3 175.8 185.7 192.5 194.8 198.9 202.9 207.8 213.2 217.1 218.4 216.6 212 205.3 199.8 195.7 190.4 184.6 179.8 176.7 172.6 165.5 162.6 170.1 172.9 177 179.1 180.8 183.6 187.5 191.3 194.2 190.7 187.1 184.1 179.9 176.4 173.3 169 166.2 163.2 161.1 161.6 156.2 151.7 147.3 142.5 140.3 141.8 151 147.5 149.9 153.9 154.2 143.3 132.5 126.9 127.8 124.7 124.2 133.5 140 132 124.2 117.9 109.5 96.5 84.4 83.5 84 85.1 90.6 91.7 94.9 101.4 110.4 106.2 106.3 105 98.8 96.1 89.5 84.8 84.9 92.3 99.3 112.9 120.7 122.3 121.5 125.6 128.1 134 138.5 141.7 144.8 147 148 147.7 145.8 146.5 147.9 145.6 145.6 140.4 135.8 132.9 131.6 132 132.8 132.9 133.5
192.4 196.4 200 205.5 214 223.2 232.4 245.6 259.8 274.1 288.7 299.1 303.2 305.6 306.8 306.8 306.4 306.1 304.6 294.3 272.1 255 241.7 230.6 220.5 210.8 203.8 198.2 191.1 180.5 172.5 168.3 162.8 157.6 150.4 144.1 145.9 150 153.7 154.8 156.6 160.4 164.9 168 171.8 178.5 183.6 190.4 199.5 211.3 226.4 249.8 255.3 260.1 268.5 273 277.3 275.3 270 264.5 257.3 244.8 224.3 205.8 194.2 182.1 169.8 159.1 147.6 139.2 137.3 135.5 134.2 132.7 131.3 129 127.6 126.1 123.8 127.2 129.1 130 131.2 132.6 134.9 140 151.2 159 170.1 182.6 193.8 197.3 200.9 206.3 209.4 216.4 222.4 224.7 221.5 216.9 211.4 205.4 201.2 196.3 189.5 184.7 180.6 176.5 169.8 163.3 168.8 174.1 177.2 180.9 182.3 183.6 186.7 191.4 194.3 195.4 190.8 186.8 182.7 179.5 176.6 172.6 172.4 170.6 169.7 168.3 165 158 153.8 149 142.3 145.6 149.3 155.3 155.7 156.9 157.9 158.6 157.2 147.5 130.2 128.4 131.8 143.1 148.1 144.7 139.3 131.9 122.8 113.7 101 85.6 83.4 86.5 84.7 95.5 97.4 99.3 100.5 100.5 99 97.5 98.7 93.1 88.8 83.3 81.6 89 98.1 106.1 116.2 123.6 130.8 133.4 135 137 140.6 142.1 143 144.8 144.9 144.8 144.9 141.4 142.8 143.1 138.4 139.5 135.9 133.6 131.3 129 129.5 130 129.6 130.3
189.9 193.7 199.8 206.2 211.7 223.6 233.4 245.8 261.2 276.3 290.7 301.7 305.4 307.2 308.4 308.8 308.4 307.6 304.2 281 261.2 248.6 237.1 227 217.9 209.6 203 196.8 186.5 177.6 172.3 166.6 162 156.3 147.5 146.6 148.9 154.8 157.9 160.5 160.9 165.7 170.1 173.7 177.6 183.2 188.6 196.1 207.8 221.6 242 255.9 258.2 265.9 272.6 277.6 278.4 273.8 268.6 262.3 253.4 233.5 211.3 198.9 187.1 176.7 164.8 153.7 142 137.7 135.8 135.7 133.5 132.5 130.5 129.9 127.1 125.8 126.8 129.1 130.6 131.6 133.4 134.4 136.7 146.8 155.8 166.4 179.4 191.4 200.5 203.7 208.1 212.9 220.8 227.1 230.2 227.4 222.2 216.9 211.2 206.1 201.8 195.7 189.9 185.5 181.1 175.8 168.7 167 173.7 177.5 180.9 184.7 186.9 187.8 191.2 194.7 196.4 195.8 192.1 188.6 184.7 182.4 178.9 176.4 175.8 173.9 172 170.3 166.3 161 154.2 149.5 149.3 152.3 156.9 158.9 160.4 161.7 162.4 162.5 161.2 158.1 150.6 153.2 154.9 153.8 150.8 148.1 142.7 136.4 128 118 109.4 91.8 83.2 84 88.3 99.8 101.1 98.4 95.9 93.2 90.3 90.7 91.6 88.5 82.8 79.1 88 95.7 102.2 113.4 122.7 128.5 132 135.2 137.9 139.6 141.5 141.8 141.2 140.7 140.1 140.7 140.2 137.2 138.7 138.3 135.5 135.1 132.6 131.4 128.3 125.6 126.7 127.3 126.2 127.5
193 195.8 198.5 206 213.8 224.8 234.4 246.6 261.3 276.4 293.5 304 307.1 309.3 310.2 310.6 310 308.7 292.2 270.8 254.3 243.8 233.3 225.5 215.7 208.7 202.5 194.8 186.4 180.3 175.2 169.5 162.8 158.3 149 150.2 153.3 159.5 162.9 163.4 166.1 171.2 174.1 177.6 182.4 188.7 194.9 205.5 217 234.9 256.9 260 263.3 271 276 279.4 276.6 271.8 266.3 258.4 240.2 216.1 202.7 192 181.2 170.2 161.1 149.5 139.2 137 136.5 135 133.5 131.6 130 128.7 126.1 126.5 129.1 130.3 131.5 132.3 133.8 136.1 141.2 153.8 162.2 176.2 187.3 201.3 207.5 210.5 215 220.6 229.7 235.2 236.7 228.7 222.5 217.9 212.2 207.7 202.2 195.6 190.3 185.8 181.2 175.1 169.6 171.5 176.9 180.9 184.5 188.5 191.2 194 196.8 198.1 198.6 196.9 193.1 190.9 187.6 185 181.9 179.2 177.6 175.6 173.6 170.1 167.1 162.4 156.8 150.8 158.2 160.3 160.9 163.4 165.3 167.5 168.1 166.6 165.2 162.5 159.2 159 158.7 157 155 150.7 146.6 140.7 131.7 118.5 103.7 87.7 88.1 88.8 88.5 98.8 92.2 89.1 87.5 84.6 81.6 81.9 82.2 82.1 77.1 85.8 96.5 106.6 115.5 121 127.2 132.1 134.8 137.3 138.8 138.6 139.9 139.4 138.1 136.6 135.5 135.5 134 132.7 134 134.2 132.9 131.1 130.7 126.9 123.3 120.7 120.9 122.4 122.4 125.2
197.4 200.3 204 210.1 217.9 226.1 236.4 247.2 264.3 279.1 298.2 305.7 308.7 310.8 311.7 312.1 310.9 301.4 278.9 262.8 250.5 239.4 229.2 221.9 214.6 206.6 200.7 194.9 187.1 181.6 176.2 170.8 162.5 154.9 153.2 154.1 159.4 161.1 165.2 166.9 170.8 174.6 178.2 183 188.1 195.1 202.1 212.2 226.3 248.6 261.6 264.1 269.8 274.3 277.1 277.1 273.1 267.8 260.4 244.6 221.3 207.2 195.8 185.2 174.4 164.3 156.1 143.5 138.6 136.8 136.1 134 132.6 131.1 127.5 127.6 126.3 129 130.9 131.7 132.6 133.4 135.4 137.7 148.8 158.8 169.9 182.7 195.8 205.8 212.9 217.6 222.9 230.9 241.9 244.7 239.7 230 222.9 218 212.5 208.1 202.4 195.8 190.3 185.9 180.9 175.4 170.8 175.4 179 183 187.8 192.5 197.1 201.3 203.7 204 203.3 199.3 195.4 192.2 190.8 187.8 184.9 182.2 179.3 176.8 174.4 169.5 165.8 162.5 155.6 158.6 164.3 165.9 166.4 169 170.8 172.4 172.2 170.9 169 165.6 163.1 160.7 159.4 158.3 157.6 155 146.4 137.3 119.4 102.8 90.1 80.9 107.4 101.2 93 89.8 84.9 81.6 79.6 77.2 75.9 75.7 75.7 76.4 81.5 87.7 95.5 105.3 115.4 123.1 128.4 132.8 135.8 137.3 137.4 138.1 138.2 136.8 135.3 133 131.8 130.6 129.9 129.6 129.2 129.5 128.7 127.4 127.6 125.1 119.4 116.3 113.5 113.8 116 123.6
200.4 205.2 209.7 214 222.7 229.1 239.2 250.3 266.4 281.8 304.1 307.7 310.2 311.8 312.9 313 308.4 287.4 268.4 255.3 244.5 236.4 225.6 218.9 212.9 206.4 200.8 192.5 185.5 180.6 176.9 169.5 159.7 155.4 158.1 158 161.6 166.7 168 170.6 176.4 178.7 183.1 188.2 194.1 200.9 209.4 220 234 258.9 265.4 269.9 274.9 277.7 277.5 274.2 268.5 261.7 245.8 226.1 209.6 198.2 188.1 177.9 168.6 160 149.7 140.7 138.1 136.3 135.3 133.8 132.4 130.3 127.9 127.8 127.5 130.6 132.2 133.3 134.2 135.9 137.5 144.3 157.7 165.2 177.3 190.2 202.3 209.2 217.4 222.5 229.5 242.2 249.5 248.1 240.5 229.8 223.2 217.8 212.6 208 202.3 196.8 191 186.2 180.8 176.1 172.9 178.3 181.5 184.8 189.7 196 201.6 206.7 210.8 208.9 206.4 202.1 198.5 194.7 193.3 191.2 188 184.7 180.6 177.3 173.1 169.2 164.1 159.9 157.2 164.6 168.6 170 170.7 173.2 175.6 178 177.7 176.6 174.1 170.9 167.2 164.1 162.3 159.7 157.9 156 144.5 121.4 105.4 87.6 80.2 98.4 110.9 103.4 94 84.5 79.4 76.6 76.3 76 75.2 75.4 73.2 73.2 75.9 80.5 90.6 100.8 114.1 123 128.9 131.5 133.5 134.3 136.4 136.4 136.1 135.1 133.3 130.3 128.5 127.2 126.4 126.1 125.7 125.4 124.8 123.6 123.4 120.1 116.8 110.3 104 104 109.6 119.8
203.9 209.4 217.1 226.4 228.2 236.1 245.6 256.2 272.2 293 307.3 309.1 311.4 312.9 313.9 312.8 297.7 275.2 260.7 250 240 231.3 223.6 216.8 209.8 204.8 197 188.7 184 180.6 176.4 166.5 158.5 160.2 161.2 162.4 163.3 168.9 171.5 175.7 180.4 183.5 186.7 191 197.5 207.3 217 227.4 244.5 264.6 269.6 274.1 278.1 278.5 276.1 271 264.2 250.5 230.6 213.9 200.2 190.7 181.3 171.3 162.6 155.2 143.6 139.1 137.6 135.7 134.8 133.6 131.7 130.7 127.2 126.2 129.2 132 133.2 134.6 135.2 136.7 139.4 150.9 160.3 170.6 185.2 198.2 208.7 212.9 220.7 227.3 238.3 249.2 252.7 247.4 237.3 229.3 222.6 217.4 212.3 207.2 202 196.7 191.2 185.4 181 177.5 177.1 181.2 184.4 187.6 193.1 199 204.2 210.6 214.3 214 209.8 205.1 200.5 197.3 195.7 193.7 189.2 185.6 181.6 177.1 172.5 167.5 161.9 160.1 164.9 169.7 172.5 173.9 176 177.8 180.5 182.6 183.9 183 181 176.6 171.8 168.4 165.8 162.1 159.6 157.5 142.4 114.9 98.5 84.1 88.7 109.7 107.7 99.1 87.9 83.6 80.7 75.7 76 76 75.4 75.3 75.1 74.8 74.9 78 86 96.6 108.4 124.6 129.2 128.9 130.4 133 135.4 135.3 133.6 132.2 131.5 129.4 126.4 123.9 122.9 122.2 122 121.5 119.6 117.1 117.2 115 110.8 103.4 96.6 95 102.6 107.7
210.1 217.3 230 237.1 236.6 240.3 251.9 263.4 282 304.3 309.2 310.9 312.9 314.1 314.4 307.8 285.3 266.7 255 245.5 235.5 228 220.4 214 208.6 202 194.3 187.2 183.5 180.3 173.7 163.6 160 163.2 164.9 166 168.4 169.2 174.4 180.5 184.5 187.9 191.9 196 201.6 209.1 221 233.2 256.2 267.8 271.8 276.2 279.5 277.7 273.3 267.5 259 238.1 218.5 205.2 193.9 184.2 174.8 166.5 158.4 148.2 141.4 138.2 136.7 135.4 134.6 133.2 132 130.8 128 129.9 131.7 133.3 134.1 136.4 136.8 138.9 145.5 156.1 166.2 178.2 194.2 207 212.2 217.7 225.1 233 245.3 254.1 254 247 236.2 228.4 222.7 217.1 212 206.1 201.3 196.6 190.6 185.3 181.9 182 182.3 183.9 187.8 191.1 196.6 202.1 206.5 212.1 215.9 215.7 212.3 207.3 203.1 198.8 195.1 192.1 188.3 185 180.7 176.2 171.7 165.4 166.4 166.6 170.8 173.6 176.4 178.1 180 182.9 185.6 187.2 187.9 187.8 186.7 182 176.8 173.6 170.2 165.7 162 158.4 152.7 117.6 97.7 80.9 97 109.6 102.5 93.2 86 80.7 77.7 77 78.7 76 73.6 75.4 75 74.4 74.6 77.2 86.5 96 108 122.6 131 128.6 129.2 132.3 135 134.4 133.7 129.4 128.6 127.1 125.9 123.7 120.3 116.8 115.9 113.9 112.6 112 111.4 110.2 105.4 98.6 90.5 84.7 92.8 94
222 231 238 242.9 244.4 255.5 264.9 278.5 299.5 308.9 310.8 312.7 314.1 315.2 314.1 294.8 274.7 261.2 249.7 241.2 233.3 225.1 217.7 213.2 208.2 198.1 190.2 185.3 180.4 176.6 168.8 163.7 163.6 167 169 170.1 172.1 174.7 177.5 184.5 187.5 191.4 196.2 201.1 207.8 214.5 225.2 238.5 263 270.3 274.8 278.9 279.3 276.4 270.2 263.8 245.8 225.1 211.2 198.7 187.5 177.7 168.5 160.7 150.3 144.2 140 137.5 136.4 135.4 134.6 133.3 129.4 128.7 128.4 131.3 133.2 135.5 135.8 137 138.1 140.9 149.9 162.3 172.9 184.3 201.6 212.5 215.7 221.6 229.4 240.5 253.5 257.5 253.5 246.1 235.5 228 222.1 216.2 210.5 205.3 200.1 195.5 189.7 184.8 186.6 186.8 187.5 188.4 191 195 199.8 204.4 208.6 214.2 216.8 216.2 213.5 210 205.7 200 195.1 191.4 187.7 183.2 178.2 174 170.2 170.5 171.7 171.2 175.1 178.6 180.4 182.6 184.5 188 188.9 190.8 192.3 191.6 190.3 185.4 181.5 177.8 173.1 167.2 162.6 156.3 148.6 133.9 108.7 84.2 94.3 102.1 95.9 86.6 79.3 80.3 78.1 76.7 76.5 76.4 75.5 75.8 75.3 74.7 74 76.8 89.3 96.7 110.5 122.4 130.4 128.1 128.3 131.2 134.5 135.1 133.6 130.7 126.3 124.1 123.5 122 119.9 112.4 104.9 104.5 106.1 105 105.9 104.8 100 92.7 83.8 77.9 86.6 88.8
233.4 238.4 243.1 250.3 256.6 273.1 285.7 300.3 308.3 310.7 312.6 314.6 315.4 316.1 305.7 283.7 269.3 257.4 247.2 238.7 230.3 223.5 217.8 211 204.1 196.8 191.4 185.6 180.1 173.9 168.4 166.9 166.7 169.6 172.2 174.1 176.3 179.2 182 188.8 192.4 196.3 201.7 206.3 211.6 220.3 230.6 246.3 264.2 273.4 279.8 282 279.6 274.7 267.3 253.1 232.9 217.1 204.8 193.2 182.2 172 161.2 151.7 146.9 142.1 138.5 136.9 136.2 135.4 134.2 133.3 130.8 128.4 131.1 133.6 135.5 136.9 137.4 137.6 140.1 145.7 157.9 166.6 179.2 197.3 209.7 216.6 220 225.9 234 246.6 256.1 258.3 253.9 246.5 236.1 228.5 221.6 215.4 209.7 205.5 200.3 195.5 191.4 191.5 191.5 191.6 192.9 193 194.3 198.3 202.4 206.6 211.1 216.7 218.9 218.1 215.7 212.3 206.6 200.6 195.7 191.4 188 185 182.8 177.1 173.9 176.8 177.1 176.7 179.1 181.7 183.9 186.9 189.2 193.2 194.3 194.9 195.9 194.6 192 188.6 185.6 179.6 173 166.2 161 152.4 144.9 137.4 122.3 97.6 81.2 86.9 87.3 84 80.8 78.6 77.5 76.6 76.4 76.1 77.5 77.5 78.6 75.6 74.2 77.3 95.5 103.1 114.4 124.1 129.2 127.4 128.6 131.1 133.3 132.6 130.9 128.3 125.4 122.7 121.1 119.7 117.9 115.3 109.5 98.2 93.1 95.7 98.8 98.1 97.8 87.1 79.1 70.9 79.1 80.4
238.2 250.7 259.1 267 273.1 289.3 305 308.6 310.7 312.7 314.5 316.4 317.2 316.4 295.1 276.8 264.3 253.1 244.2 235.4 228.2 222.2 216.5 211.8 205 198.4 192.5 186.9 181 174.1 169.9 170.1 169.8 173.5 175.9 177.9 180.4 183.9 188.7 193 197.5 202.1 207.3 212.1 218.4 226.6 237.8 254.4 269.6 279.1 285.4 283.8 279 271.2 260.8 240.4 222.7 210.3 198.6 188.4 177 167.6 159 150.6 145 140.2 137.3 136.5 136.1 134.8 133.7 133 130.5 130 132 135 136.9 138 138.4 139.9 142.2 150.8 163 173.5 187.8 206.4 214.4 221.1 224.2 230.9 240 256.6 260.9 260.8 255.9 248.7 237.8 229 221.8 215.7 210.4 205.4 202.1 198 197.3 196.4 196.4 196.7 198.1 198.6 199.8 201.1 205 209.1 213.8 220 221.8 220.7 218.1 214.4 209.1 202.3 198 194.4 190.9 188.5 183.4 181.8 180.1 181.3 181.3 182 184.1 185.9 188.8 191.8 195.1 199.5 198.5 198.8 198.8 196.8 194 190.9 186.7 178 171.8 164.2 156 149.6 143.9 136.8 128.7 111.3 87.8 79.7 78.7 78.5 78.2 77.8 77.1 76.2 76.2 76.1 73.7 84.2 80.6 78.7 72.2 81 103.7 109.5 119.8 129.3 128.2 127.6 129.5 131.4 131.1 130.4 128.8 125.4 122.6 121.6 120 114.6 111.2 110.7 110.1 104.3 93.9 83.7 87.5 90.1 91.4 89.9 78.1 66.5 70.8 70.3
246.5 260 271.5 286.9 301.3 307.1 310.3 311.4 312.5 314.6 316.6 318 318.7 312.7 287.5 273.3 260.7 249.2 240.6 233 226.5 219.6 214 207.8 201.5 196.8 192.5 187.3 179.8 173.5 173.1 173.6 172.9 177.1 179.8 181.9 185.2 189.6 193.7 197.4 200.6 205.7 211.9 217.9 226.5 236.5 249 267.3 281.5 289.6 288.6 284.8 277.7 267.8 246.9 227.7 214.8 203.2 192.9 183.4 173.3 163.7 155.7 149.3 141.6 138.5 137.5 136.6 135.1 133.7 131.5 130.8 130.4 132.9 134.7 136.1 138.1 138.8 140 142.3 146.2 157.9 169.7 180.5 198.8 212.5 218 224.2 228.6 235.1 245.9 258 264.4 263.4 258.8 251.3 238.5 228.5 222.7 216 210.9 207.3 204.1 201.6 201.3 200.9 201.2 201.8 203.1 204.4 205.3 206.6 208.7 212.9 216.6 222.6 224.2 222.7 220.3 215.9 209.8 204.2 199.8 196.7 193.7 189.8 187.4 185.7 184.7 185.5 185.6 186.7 188.6 191.4 194.1 197.5 202 203.7 202.8 202.1 200.8 198.2 194.7 191 185.4 178 169.2 161.2 154.8 148.4 142.8 134.6 125.8 117 106.3 83.3 77.4 77.1 75.9 75 74.3 73.4 73.9 75.4 76.6 87.6 83.8 79.8 74.1 80.8 107.3 114.3 120 128.7 126.5 129.1 131.9 132.4 131 129.7 127.5 124.1 124.2 111.3 112.5 110.4 100.9 100.8 104.5 102 95.9 84.1 75.8 81 84.5 82.5 76.1 64.4 61.2 71.1
256.9 267.5 280.9 303 311.4 312.1 313 314.1 315.1 316.4 318.4 319.4 320.3 302.9 283.1 270.3 257.4 247 237.6 231.9 225.6 219.1 212.6 205.2 198.7 194.2 188.6 182.9 178.2 176.3 178.4 176.6 176.8 181.2 184.2 185.4 190.6 195.3 199.3 202.2 206.5 211.6 217.5 224.9 235.7 247 265.3 284.9 293.4 295.1 292.4 284.3 273.8 253.1 232.5 218.9 206.3 195.8 187.4 178.9 169.6 160.7 153.5 146.1 140.3 139.1 137.7 135.8 133.9 132.5 131 132.6 131.9 134.5 135.6 136.9 138.5 140.2 142.7 150 156.6 163.6 174.8 187.4 205 216.3 222.6 228.5 232.5 240 249.8 262 265.3 263.9 259.8 253.1 238.4 230.7 223.9 218.4 213.4 210 206 206.1 205.7 205.4 205.9 206.7 207.9 209 210.3 212.4 214.5 216.1 219.5 225.4 226.6 225.5 222.6 217.5 211.8 206.2 202.5 199.3 195.9 193.5 191.5 190.2 189.2 189.6 190.2 191 193.1 195.9 199.2 203 207.1 208.2 206.6 205.1 202.1 197.3 192.7 189.1 182.5 174.6 167.4 161.2 156.1 150.7 140.3 131.7 123.6 111.6 100.4 90.1 82 76.4 82.5 80.2 80.6 79.6 80.4 79.6 84.8 78.9 74.4 74.2 73.8 81.3 107 123.3 123.7 126 127.4 131.8 134.3 134.4 133.5 132.4 129.9 126.1 124.9 121 108.8 98 94.7 91.6 95.2 96.1 90.8 85.1 76.1 69.8 77.5 70.9 64.3 63.2 57.6 63.6
262.2 277.5 292.5 313.4 314.7 315 315.8 316.9 317.8 318.5 320.1 321.7 321.5 295.7 280.8 268.4 254.7 244.7 236.8 230.7 223.5 217 209.3 203.3 198.3 194.2 188.5 183.8 180.9 180.7 181.8 178.9 182 184.7 187 190.5 195.5 199.8 203.3 207.1 212.1 217.6 224.6 233.6 244.4 259.9 283.6 297 298.4 297.3 289.1 280.9 260.3 237.6 222.4 209.3 198.7 190.3 181.6 173.9 165.1 157.4 149.6 142.4 140.3 139 138 136 133.8 131 134.2 134.9 135.5 136.5 136.9 138.3 139.7 141.6 146.4 155.3 162.6 171.6 180.4 192.8 209.3 218.4 225.2 230.8 237.3 244.4 255.6 265.4 266.4 265.7 261.5 253 239.8 232.3 225.7 220.3 216 212.8 211.6 210.4 210 210.3 210.7 211.6 212.7 213.7 216.7 217.7 218.7 220 222.3 225.8 228.8 228.4 225.8 220.2 214.7 210 205.7 202.3 199.5 197.6 195.6 194.8 193.6 194 195.2 195.9 197.1 200.4 204.2 207.7 212.5 212.4 210.4 206.3 200 195.2 190.9 185.4 178.6 172 166.3 162.2 158 149.5 137.2 128.1 115.3 103.4 94.5 85.4 83.5 84.9 85.9 85 86.8 89.5 88.3 91.3 86.8 77.1 80.5 81.7 73.4 83.1 109.7 126.8 125.6 129.9 133 135.6 137 137 136.5 133.9 130.7 127.9 124.5 119 108.5 99.7 93.1 82.5 86.1 88.3 85.9 82.2 77.3 69.3 66.6 64.1 61.4 57.4 56.2 58
269.6 284.1 307.4 316.3 317 317.7 318.6 319.6 320.6 322.4 323.1 323.6 320.7 296.6 277.6 263.9 252.6 242.5 234.7 228.3 223 217.3 211.2 205.7 201.2 195.4 189 185.6 184.8 185.8 185.2 181.7 185.4 187.5 191 196.2 201.2 204.6 206.8 211.9 219.2 223.9 232.8 243.4 256.4 277.6 299.8 303.8 301.4 293.2 288 266.4 241.8 226.2 212.9 202.1 192.2 184.3 176.6 167.6 160.2 153.3 145.9 141.3 139.9 138.6 137.3 135.6 133.4 132.6 136.3 136.2 137.2 137.2 137.7 139.9 141.6 145.7 153.7 159.4 166.5 176.1 185.5 199.3 217.8 224.1 229.3 233.2 241.4 249.5 260.5 267.6 268.4 267.6 260.8 248 239.7 234.2 227.5 223.1 218.8 215.9 214.7 214.5 213.8 214.2 215 216.9 218.4 221 222 223.7 223.7 225.6 226.4 227.9 230.5 231.5 228.8 222.9 218.2 213.9 209.7 206.1 203.3 201.5 200.1 199.4 198.1 198.3 199.5 200.6 202.2 206.6 208.5 212.3 216.8 216.3 212.6 205.5 199 194 188.8 184.2 178.2 171.3 165.4 158.9 150.1 142.2 132.8 121.1 107.3 97.3 89.9 85.3 87.4 90.9 88.6 88.1 90.9 93.9 96.3 95.5 87.8 77.3 90.4 93.2 72.7 82.4 107.4 126.1 126.3 131 137.1 138.9 140.2 140.6 139.5 135.3 131.3 127 122.4 117.1 109.1 103.2 96.5 88.6 78.2 74.5 78.8 74.6 73.8 70 60.5 60.7 56 54.4 51.5 52.1
274.1 287.8 312.9 318.4 320.5 321.8 322.6 325.2 328.5 330 327.1 324.9 318.1 295.2 274.8 262.1 248.8 239.4 233 228.2 222.1 215.6 210.4 206.3 201 195.3 190.8 190.2 188.9 188.3 186.3 186.8 187.3 191.1 193.4 201.5 206.5 209 212.4 219 225 231.8 242.7 253.7 271.3 297.1 305.9 304.5 296.9 288.8 271 246.2 231.6 217.3 206.6 195.6 186.7 179.2 170.9 162.6 155.8 147 143.1 141.6 139.7 138.6 136.6 135 133.1 134.3 137.1 137.9 138.1 138.4 139.7 141.3 147.2 152.9 157.8 165.4 172.5 181.2 191.7 209.5 226 229.3 233.6 238.1 245.6 255 264.7 269.7 270.2 268.3 258.5 247.2 241.5 235.3 229.7 224.9 222.1 220.5 219.1 218.2 217.8 218.6 219.5 221.2 223.3 226 227.4 229.9 231.2 233.5 235 235.8 236.4 235.6 233.4 227 222 218.7 214.5 210.8 207.3 205.7 204.7 203.6 203.9 203.8 205.2 206.2 208.3 212.3 213.1 215.4 219.6 218.9 213.9 205.6 200.9 195.4 189.5 183.1 177.7 172.1 163.2 152.1 143.6 136.1 127.7 112 102.4 93.3 89.9 91.9 94.7 96.6 97.4 98.6 100.7 103.6 103.9 98.6 92.2 80.1 89.5 99.3 71.7 77.7 96.8 107.6 120.3 120.2 136.1 140.1 142.9 141.8 143.2 138.1 134.4 130.8 126.8 123.4 119.8 116.6 107.8 101 93 83.1 71.5 66.2 66.7 62.9 63.6 57.1 53 49.7 47.4 46.6
273.6 289.2 314.5 320 323.3 326.4 331.6 336.4 338.3 335.9 330 326.2 316.2 295.8 280.2 262.5 248.5 237.8 228.5 224.9 219.5 213.8 209.5 204.3 199.6 194.5 195.7 193.4 192.3 190.8 190.6 190.1 190.3 194.4 198.6 204.1 207.8 213.7 218.2 224.1 231.5 241.3 251.6 262.6 286.7 305.7 307.2 299.3 290.4 269 249.8 235.5 222.2 209.2 198.1 190.2 180.9 174.5 168.7 160.1 151.4 145.2 143.3 140.2 138.6 137.3 135.8 133.6 135 136.4 138.3 139.1 139.5 140.4 142.2 145.7 152.2 157.3 163.4 170.6 178.9 187.7 202.2 221.7 231 235.3 239.7 245.9 251.4 261 270 271.4 271.8 268 256.5 248.3 242.5 236.5 230.8 227.3 226.2 225.1 223.9 222.8 222.5 223.3 224.9 226.6 229.3 231.3 232.7 235.6 241.9 244.6 243.6 242.2 241.9 241.6 238.7 234.2 228.1 223.1 220 216.7 213.1 211.1 210.6 210.1 210.3 209.7 211.6 213.2 215.3 218 219 220.1 220.9 220.5 215 207.8 201.1 194.8 189.5 183.6 178.5 173 158.6 145.9 137.8 127.4 116.7 106.4 98.7 95.7 96.8 98.3 98.5 99.2 103.7 105.5 108.6 109.2 106.9 103 96.9 80.2 93.9 106.7 76.7 74.2 83.6 92.6 101.6 111.8 128.4 140 133.3 125.3 125.8 130.9 135.2 132.9 129.2 127.2 124.9 121.6 118.2 113 107.2 97.5 84.4 67.7 62.7 53.9 54 52.7 49 45.8 44.1 43.9
274.8 292.5 316 321.2 327.3 334 339.8 340.7 341.5 336.3 330.8 326.7 312.5 289.6 278.6 265.3 251.3 241.1 229.2 221.5 217.4 213.3 208.7 206.8 201.2 200.7 199.4 197.4 196.4 194 194.6 193.8 192.7 195.8 202 208.9 212.1 214.2 220.8 228.7 239.2 249.5 258.6 273.9 300.3 309.6 301.1 287.2 269 250.6 238 224.3 213 201.8 192.4 185 177.7 170.7 166 157.8 147.2 144.6 141.5 138.6 136.5 136.2 134.7 134.5 137.5 138.6 138.9 139.5 141.3 142.9 147.2 152.2 158.8 166.5 171.9 179.4 188 197.6 217.7 232.8 237.3 242.4 248.4 252.6 257.5 266 271.7 273.4 271.1 263.1 255 249.5 243.5 237.2 233.5 231.4 230.8 230.2 229.5 228.2 228.4 229 230.8 233.5 235.5 235.6 238.8 241.9 249.9 253.3 252.5 251.4 249.2 248 244 239.6 235.2 228.1 225 221.8 219.4 217 216.3 216.4 218.7 216.8 215.8 218.9 220.8 222.7 223.6 222.9 220.1 218.9 213.9 206.8 199.6 193.5 187.9 183.4 172.3 166.1 152 141.4 131.4 121 112.4 107.6 102.4 102.6 104.5 106.2 106 105.4 111 114.2 113.5 112.3 110.9 108.2 96.1 80.7 96 116.9 90.5 72.2 77.7 89 101 115.9 125.7 125.5 107.1 103.7 103.4 107.2 111.3 123.9 129.4 129.4 127.3 126 123.4 119.3 114.8 108.1 84.4 64.1 54.1 50.2 39.5 39.5 40.3 43 43.1 41.7
277.5 298.6 318.5 323.3 331.1 339.3 342.8 343.3 343.1 336.7 331.3 325.4 302.4 296 282.7 272.5 256 245.1 232.6 227 221.8 216.9 212.2 207.8 206 205.1 203.4 202.8 200.8 198.4 198.3 196.4 196.9 198.9 203.6 210.1 215.3 219.5 224.3 231.9 244.8 255.8 264.2 284.9 306.3 303.6 284.6 268.3 251.8 240 228.4 216.1 204 193.9 187.2 180.2 174 169.4 159.8 150.6 144.5 142.4 139.4 137.9 135.8 133.4 134.3 135.1 137.4 138.9 139.5 140.5 142.3 147.7 152 159.2 166.7 172.6 179.5 188.3 198.6 214.1 233.5 241.4 244.9 248.8 255.3 259.7 267.5 270.9 273.1 272.3 266.4 258.4 253.7 248.8 244.4 239.6 237.7 236.4 236.2 236.3 236.3 235 234.8 236.1 237.4 238.3 239.4 241.4 243.2 244.8 250.2 255.1 256.3 256.8 255.3 252.7 249.2 244.6 240.2 234.1 229.7 226.6 224 222.1 221.4 223.8 226 222.6 219.9 222.9 225.3 227.2 227.5 224.2 220 216.3 210.9 203.6 197.9 192.4 186.7 179 169.3 157.2 145.1 136.6 127.8 121.5 119.4 113.5 112.3 112.5 112.9 113.2 110 113.9 118.8 119.1 117.1 115.7 111.9 104.4 92.4 78.4 103.1 128.7 102.8 70.4 75 83.5 98.5 109.2 109.9 102.9 101.4 100.8 99 92.6 84.9 90.2 106.7 120.3 127.1 127.4 125.3 118.9 119.3 94.9 76.5 63.9 41.4 44.2 44.2 43.7 42.6 39.5 41.8 41.9
283.6 302.6 322 327.4 334.8 342.9 344.5 344.8 344.1 337.5 332.5 326.8 302.2 293.6 289.8 278.9 263.2 252.9 237.1 231.6 227.3 220.5 214 210 210.3 209 208.3 206.8 203.1 201.6 201.2 202.2 202.8 204.3 207.5 211.7 216.3 221.2 228 234.6 244.6 256 269.7 293.7 306 287.4 268.7 252.3 240.9 229.6 217.5 206.7 199 190.1 182.3 176.4 170.7 163.5 153.7 147 142.7 139 137.4 136 134.9 133.9 134.9 135.8 137.4 139.3 141 143.8 147.7 154.4 158.8 166 172.7 179.7 189.1 199.6 212.5 234.6 246.5 247.9 250.2 255.5 261.7 269.9 274.1 275.5 274.1 268.9 262.9 257.3 252.3 248.1 246.4 243.8 242.8 241.6 241.5 242.1 241.9 241.9 241.6 242.5 243.1 244.3 245.1 246.7 247.6 248.4 251.7 255.6 258.3 259.8 258.9 256.2 253 248.2 242.6 237.6 233.1 230.1 227.7 226.3 227.8 228.1 230.6 230.2 225.6 225.3 229.2 229.9 228.4 223.5 218.8 213.8 208.6 202.4 196.6 190.9 182.3 171 159.2 148.4 142.1 135 127.4 128.9 127.2 122.2 122.1 122.9 125.5 123.8 121.9 124.7 124.5 122.7 120.7 116.3 108.4 100.2 84.1 85.1 116.6 122.7 103.3 82.2 72.9 69.8 81 92.5 91.4 91.9 87.9 69.4 68 80.8 81 77.4 81.9 89.8 98 120.1 117.1 103.6 97.2 85.7 64.7 46.5 46.2 47.2 46.1 46 43.9 43 42 46
285.9 309.3 326 330.6 336.9 344.1 345.7 346.1 345.4 337.9 333.5 329.8 310.8 294.4 287 278.8 270.9 261.7 247.3 235 229.5 222.6 215.5 214.3 214.6 213.3 212.8 212 207.5 206.9 206.8 209.3 210.2 209.7 210.3 211.3 215.3 219.9 228.2 234.7 244.4 257.7 275.8 298.5 289.4 265.4 252.6 240.4 230.4 219.7 210.1 201.7 193.6 185.8 179.1 172.3 164.2 157.3 147.6 143.7 140.1 138.5 137.2 135.7 134.5 135.5 136.5 136.8 137.9 139.7 143.2 148.4 154.3 158.7 163.9 171.1 178.6 187.7 198.2 210.4 228.5 248.5 252 253.4 256.6 263.1 269.3 276.5 278.6 278.3 273 266.4 260.2 255.9 251.7 250.5 249.3 248.1 246.9 246.7 247.5 248 248.5 248.6 247.9 247.7 248.6 249 249.4 249.8 250.6 251.7 255.5 259 260.7 262.3 261.2 258.8 255.3 250.1 244.9 241.1 238.3 233.9 231.7 231.8 232.3 233 233.5 233.5 229.5 226.6 232.1 232.1 229.5 223.8 217.7 212.2 207.9 201.9 195.7 185.3 173.5 163.3 151.7 145.6 138.6 134.1 133.5 135.9 132.9 132.4 132.3 129.8 126.1 124.2 127.4 127.7 127.3 126 124 116.2 108.4 98.8 83.4 86.3 117.8 125 106.3 91.8 81.7 76.1 70.1 74.7 79.9 82.5 65.3 64 67.5 64.4 66.6 73.5 82 95.1 103.9 103.8 98.7 89.9 81.3 65.4 49.7 43.6 47 47.2 46.3 46.5 45.7 45 44.1 47.9
287.7 311.5 331.1 333.9 339.3 345.2 346.8 347.2 346.2 339.2 334.8 332.2 321.8 299.3 286.1 284.2 276.8 267.1 250.5 240.9 231.7 223.4 220.8 219.4 221 221.4 220.2 219.7 216.8 214.3 214.5 215 214.8 215.4 214.6 211.6 211.9 215.8 224.3 231.9 239.5 253.1 270.9 276.8 263.8 251.8 241.5 230.3 220.3 212.5 203.7 196.4 189.4 181.7 175.3 166.1 156 150.7 146.7 142.7 139.6 137.6 137.2 136.2 136.1 136.6 137.5 137.7 138.8 143.1 148.1 155.3 157.8 162.9 169.1 177.9 185 195.6 207.5 224.3 247.3 255.6 256.3 257.6 263.8 270.3 278 282.5 281.7 277.3 270.1 264.1 260.4 256.4 254 253.5 252.3 251.3 250.8 251.3 252.5 253.8 254 253.2 252.3 251.5 252.2 252.2 252.6 253.2 254 255.3 259.6 262.2 263.4 264.4 263.4 260.6 257.3 251.9 247.4 243.6 241.6 237.6 237.4 237.2 237.3 236 235 235.3 231.7 228.1 233.4 234.6 231 224.5 218 213 207.7 202.5 189.6 178.2 166.4 153.9 147.6 142.5 140.9 140.4 137.1 137.8 136.9 135.4 132.8 128.6 127.8 127.3 130.5 130.3 130.6 129.3 126.6 115.6 108.4 98.9 85 85.5 119.5 132.4 115 99.7 89.8 83.2 76.1 69.1 73.2 71.4 64.1 74.2 74.7 71.3 67.6 60 65.7 82.3 96.4 98.9 87.7 77.8 69.7 53.6 47.7 47 48.7 48.1 47.4 47 46.2 45.3 50.6 53.3
287.3 308.6 332.2 336.2 340.7 346.4 347.7 348.1 346.8 340.4 336.1 333.7 328.2 310.1 294.1 293.2 283.7 273 262.1 248.2 236.6 228.5 227.8 228.8 229.9 229.9 227.2 225.3 222.7 219.2 219.2 221 222 226.3 219.2 211.5 209.5 213.2 217.7 225.8 234.4 242.6 252.7 255.7 250 240.2 229.8 220.1 212.6 204.9 199.4 192 185 180.1 172.8 162.2 151.7 148.3 144.5 141.3 139 137.2 137.1 136.2 136.7 137.3 138.7 140.7 141.9 148.2 154.3 159.1 163.1 167.9 175.2 182.4 193.4 202.8 215.8 240.1 256.2 258.2 259.6 263.2 270.7 278.9 286.1 285.2 281.4 274.6 268.2 263.9 260.5 257.1 257 256.4 255.8 255.5 255.3 255.9 258 258.3 256.5 256 255.5 255.2 255.7 255.7 256.8 257.9 258.8 260.2 262.7 264.5 266.8 266.6 264.6 261.5 258.2 251.9 248 245.3 243.2 239 239.9 239.4 239.2 238.3 236.7 235 232.5 227.7 233.8 234.5 230.2 224.9 219.3 213.6 207.8 199.3 182.4 170.4 157.1 151.9 148.1 145.8 143.9 141.3 139.4 139.9 138.8 136.1 132.2 130.4 132.3 131.1 133 132 132.6 132.2 128.6 118.8 115 104.7 84.5 93.7 122.9 147.9 130.7 103.8 98.8 92.2 84.1 74.2 67.4 68.3 75.5 88.1 88.5 83.4 74.3 69.8 62 63.5 82.2 83.9 77.8 66.7 54.4 49.1 44.4 48.8 49.9 49 48.5 48.3 47.9 52.3 56.5 57.4
286.2 304.9 332 337.5 341.8 347.2 348.5 349.5 348 342.2 337.4 334.4 330.8 319.4 308.8 304.6 294.6 287.7 273.7 260.8 245.9 235 236.2 237.5 237.5 237.6 237.9 233.9 232.4 225.7 231.2 231.9 234.1 232.7 221.8 211.6 208.1 210.1 213.6 220.4 227.6 233.2 238.4 239.6 235.2 228.4 220.6 212.9 204 198.5 193.8 188.5 183.4 176.7 167.8 157.3 148.2 144.1 142.4 140.6 138.6 137.1 137 137.1 136.7 138.6 140.1 141.6 146.2 151.3 158.4 161.5 166.5 172.3 179 188.1 196.7 209.7 229.4 250.3 257.2 261.3 264.4 270.4 278.9 285.3 289 286.4 279.7 272.8 268.1 263.8 261.8 259.6 259.9 259.7 259.1 258.7 259.3 261.3 261.8 260.7 259.1 258.6 258.6 258.4 259.2 260.9 262.7 264.2 263.8 264.5 265.1 266.3 268.6 267.7 263.9 259.4 255.2 250.4 246.9 244.7 241.5 240.2 240 239.3 238.5 237.4 236.2 233.8 230.4 227.9 232.8 230.9 227.6 223.6 218.8 214 206.4 186.5 172.7 162.1 155.1 151.6 149 146.5 144.4 142.3 140.4 140.9 139.4 135.5 133.4 132.6 133.9 134.6 135.5 134.1 134.1 130.8 121.6 112.9 106.1 95.2 83.7 105 130.8 154 156.3 126.1 102.9 99 93.1 87 84.7 85.4 92.3 96.3 94.6 90.3 82.3 75.4 68.3 56.6 67.3 69.1 65.1 53.1 52.3 49.7 45.2 60.4 58.2 51.1 51 48.4 51.4 59.1 66.4 69.6
285.4 300 328.2 338.1 342.2 347.7 349.3 350.6 350.2 345.2 340.1 336.2 333.4 328.8 317.2 310.5 300.4 290.1 285.5 266.7 253.4 251.4 247.4 247 250.2 249.3 247.4 245 241.3 235.9 241.2 252.9 245.8 234.3 221.8 211.6 207.8 206.8 210.5 214 218.5 224.6 228 227.4 223.2 218.5 212.8 205.8 199.3 192.2 189 184.5 178.1 169.1 157.5 148.9 143.6 141.8 140.6 139.4 138.5 137.2 137.1 137.4 138 139.7 141.9 144.7 149.6 155.6 161.1 164.3 170.8 177.6 185.4 193.6 203.7 216.7 239.6 252 256.9 264.4 270.5 277.9 287 291.1 291.6 286.4 277.5 272.4 268.4 265.1 263.3 262.2 262.4 262.7 262.7 263.5 264.1 264.6 264 262.6 261.5 260.8 260.8 261.3 263.2 266 269.3 269 267.2 266.2 266.3 266.2 266.2 265.3 259.3 254.5 251.7 247.9 245.4 243.5 241.9 240 238.5 237 236.3 235.2 233.3 231.6 227.8 225.7 226.5 222.2 219 217 213.7 202.9 190.7 174.9 163.4 157.5 153.6 150.1 148.1 146 144.9 142.9 142.4 141.8 139.3 136 136.8 135.6 136.9 137.3 137.1 136.1 134.5 127.1 118.2 105.9 95 83.7 87.6 107 128.6 159.6 162.5 147.9 122.4 106.7 104.6 103.9 102.1 103.3 103.7 101.6 100.4 100.1 92.6 82.7 69.7 56.6 56.3 58.7 54.7 53.9 53.2 51.2 46.5 66.3 58.6 51.8 52 51.6 58.9 69 77.1 82.2
283.7 298.8 322.3 335.9 340 345.6 350.5 352 352.7 349.8 344.1 338.8 336.3 334.5 331.2 326.6 315.3 300 283.5 274.9 268.6 268.8 271.6 266.8 260.9 258.6 257.3 255.3 249.8 242.8 242.5 249.6 245.6 232.1 218.5 211.3 208.5 204.1 206.4 209.1 212.3 214.9 217.1 215.6 213.2 209.8 204.5 199.8 194 187.6 182.8 178 170.8 162.4 150.3 146 142.6 141 139.2 138.7 138.4 137.6 137 138.1 139.4 140.9 145.3 149.2 152.4 159.6 163.4 167.7 173.2 182.1 190 200.3 210 224.2 248.2 256.1 260.9 269.9 277.3 288.3 293.7 293.9 291.8 284.8 278 272.9 269.7 267.1 265.1 264.5 264.9 265.3 265.5 265.9 265.6 265.9 265.8 264.5 263.8 263 263.3 264.3 267.6 269.4 273.1 272.3 267.7 266.1 265.8 262.1 261.4 258.4 253.6 250.3 247.8 245.7 243.5 241.4 240.7 238.5 235.6 233.5 231 229.4 226 224.7 223.7 219.5 216.4 208.6 205.9 205.1 201.7 193.9 178.9 165 157.8 154.4 151.8 148.8 146.9 145.4 144.4 143.8 143.2 142.2 140.3 138.3 138.6 138 138.9 138.8 138.1 136.4 131.2 122.7 111.5 97.1 84.8 94.9 101.2 114.8 138.7 163.6 166.4 167.6 152.8 135.1 119.5 113.1 110.8 113.8 117.8 107.3 104.1 102.9 101.9 93.9 75.7 54 55.1 55.9 55.2 53.4 50.8 50 58.3 63.3 54 54.3 56.5 60.1 70.4 80.4 92.2 98.7
280.2 297.9 321.3 334.4 338.9 344.7 351.7 353.9 354.8 355 349.1 343.6 339.6 337.3 334.8 331.5 324.2 312.6 298.4 294.1 290.1 292.7 296.8 291 282.6 280.6 277.4 269.6 256 249.2 243.9 242.3 235.8 226.5 216.8 211 207.7 201.3 201.8 205.3 207.5 208.1 208.3 207.3 205.2 203.3 198.8 194.4 189 182.6 176.8 171.9 165.4 155.2 146.7 144.1 141.8 140.4 139.5 138.2 138.3 138.3 138.2 138.7 140.8 144.1 148.8 153.1 155.8 161.8 165.9 170.8 177.6 185.2 194.3 207.7 216.5 232 255.4 260.7 266.9 277.1 285.3 296.5 299.2 296.7 293.5 285.4 279.3 274.3 271.1 268.9 267 266.9 267.3 267.6 267.4 267.5 266.9 266.7 266.6 266.2 265.4 264.6 265.2 266.7 270.1 270.1 269.6 267.5 264.9 261.1 259.3 254.9 253.3 252 250.1 247.1 243.8 240.6 238.3 237.4 235.9 233.3 229.2 225.8 222.7 218.7 216.5 212.6 211.9 206 199.2 195.6 190.3 186 183.3 175.5 165.4 157.1 150.5 149.9 148.3 146.6 145.4 144.4 143.6 143.1 143.1 142.5 141.5 140.9 140 139.6 140.3 139.8 139 136.5 131.1 118.6 105.8 92.6 95.5 107.8 115.3 127 149.8 167.8 169.9 171.5 172.1 169 153.5 145 140.5 143 147.2 129.1 108 102.5 102.1 97.9 84.9 65.5 53.3 53.6 52.3 49.7 51.4 61.6 67.8 60.6 56.6 60.6 62.1 71.5 83.5 97.8 103.6 105.3
278.5 297.3 320.2 333.6 339 345.7 353.5 355.7 356.7 357 354.9 349.7 343.7 340.1 337.5 334.1 328.6 320.7 311.8 305.6 310.2 314.7 321.1 323.1 312.9 308.5 297.5 282 264.9 254.5 246 239.5 232 222.8 217.8 213.3 209 207.5 192.5 199 204.4 203.9 202.5 200.9 198.8 196.7 192.6 185 180.4 174.1 170.1 164.9 160.3 149 144.6 143.2 141.3 140.1 139.7 138.6 138.9 138.8 140.1 142.2 144 147 152.7 156.7 160.6 165.6 169.3 173.7 180.7 187.9 197.6 211.2 222.4 242.2 260 266 276.5 283.5 294.4 303.8 302.9 299.3 294.3 287.8 280.7 275.8 272.5 270.6 269.1 269.3 269.8 270 269.6 268.8 268.1 267.6 267.6 267.6 266.4 265.4 266.5 266.8 267.2 265.4 264.4 263.8 258.9 254.5 251 247.8 246.2 245 243.7 241.4 238.6 234.4 231.2 229 227.5 224.5 221.8 218.3 208.9 202.9 198.8 195.6 193.2 190.1 184.2 178.6 173.6 170.8 169.2 163.1 154.4 145.5 141.8 143.2 144.4 144.1 143.6 142.7 141.6 141.5 142 142.3 142 141.8 141.1 140.7 141.1 140 138.4 133.7 123.2 112.4 102 91.2 107 122.8 136.9 134.9 163.5 171.9 174.1 175.8 177.6 176.2 176.3 173.8 169.9 167.7 161.8 151 129 108 101.1 98.2 90.3 79.3 67.2 56.4 59.7 66.3 71.6 67.4 62.6 56.7 59.3 62.9 69 81.2 97.8 105.1 109 110.3
279.3 297 316.1 335 339.7 348.2 355.4 357.7 358.6 358.7 357.7 354.8 349.9 345.2 340.4 336.9 331.3 326.9 321.6 319.1 321.7 325.9 329.7 331.6 332.6 330.9 308.9 288.7 271 259 250.8 239.8 230.1 221.7 216.6 213.4 211.3 208.9 203.7 186.5 199.1 198.2 193.2 191.5 188.6 183.6 181.9 179.5 174.9 169.8 165.2 158 151.3 145.8 143.7 141.5 140.4 140 139.3 139.4 140.9 141.8 142.5 145.9 147.1 150.9 156.7 160.6 165.1 169.8 173.3 177.9 184.7 192.2 200.8 215.6 228.2 252 264.3 271.6 282.3 289.3 298.7 304.5 304.8 301.5 296.7 289.1 282.3 277.5 274.2 272.5 271.5 271.6 272.2 272.3 270.6 269.4 268.7 268.3 269 269.7 267.3 265.3 266 264.8 263.5 259.6 256.1 255.1 253.9 249.2 242.9 238.4 234.7 233.2 233.1 231.5 230.8 229.2 227 225 222.9 211.5 209.9 200 193.1 186.2 182 180.3 178.1 176.1 172.7 166.8 163.3 160.7 157.9 150.7 141.9 135.1 133.5 135.5 136.8 139.1 140 138.7 138.3 137.6 139.9 140.2 140.9 141.4 141.9 142 141.8 140.7 138.5 125.9 114.5 106.2 97.4 90.1 113.8 131.6 140.3 145 174.9 175.7 177.8 180.3 182.9 179.9 178.5 175.4 171.8 168.2 163.7 158.7 151.3 131.5 113.5 99.7 93.2 84.9 83.6 90.8 88.7 82.3 73.4 64.1 60.6 61.7 65 67 77.4 93.4 108.2 112.1 116.2 118.2
279.8 296.6 315.1 336.6 341.7 351 357.6 360.3 361.9 361.4 359.9 357.9 354.6 349.8 345.3 340.6 335.1 330.2 327 326.9 329.3 332.7 334.5 335.4 334.2 320.2 297.8 282.7 270.9 258.2 248.8 240.6 230.9 223.3 219.1 215.8 213 208.1 202.5 195.9 181.6 187.4 186.8 183.6 181.6 179.2 177.8 175.2 171.4 166.9 158.1 150.2 146.6 144.5 142.2 141.1 140.2 140.1 139.8 141.1 142.4 144.7 146.6 150.5 153.4 155.9 158 163.8 168.2 172 176.4 181.9 187.6 196.6 207.5 220.8 235.7 257.7 265.8 273.6 285 294.7 302.4 305.3 306 303.3 299.1 291.9 285.2 279.8 276.7 274.9 274.1 274.2 275 274.7 272.3 270.4 269.6 267.9 267.9 266.9 263.8 263 262.7 262.1 258.3 252.8 246.6 245.5 245.8 240.4 234.5 230.3 225.4 223.9 223.9 223.9 225.9 225.1 222.9 219.6 207.3 197.6 190.6 183.7 178 174.8 172 169.9 166.1 164.8 160.5 156.2 154.1 151.9 144 136.4 130.8 128.2 128.3 130.4 130.8 133.3 136.1 134.7 134.2 132.9 135 135.6 137.9 140.5 141.3 142.1 142.1 141 137.1 126.5 114.1 102.1 92.9 104.9 125.3 141.4 144.5 172.4 178.8 179.6 180.4 181.7 184.5 183.4 179.7 175.1 172.7 170.1 167 160.6 155.7 151.5 140.1 123.8 109.4 101.7 103.5 100.5 90.4 79.4 68.4 62.3 67.9 66.3 69.8 73.3 84.8 100.7 112.5 120.9 125.3 127.1
278.4 294.8 314.3 336.9 343.3 354 359.2 362.6 365.4 364 362.2 359.9 357.5 354.6 350.1 345.4 341 335.9 334.1 333.7 334.7 336.9 337.6 337 332.9 306.3 289.3 275.3 264.2 254.3 246.1 236.8 229.6 223.9 218.8 215.7 210.5 204 198.1 193.4 189 178.4 178.6 181 180.3 178 174.8 171.7 166.5 162.1 153 146.3 144 142.7 141.3 141 140.9 140.8 141.6 143.7 145.7 147.4 151.1 154.5 157.4 159.9 163.3 165.4 170 176 180.4 185.4 191 201.6 215.1 227.3 243.2 262.6 268.9 276.2 288.6 299.4 305.8 307.6 306.9 304.7 301.2 295.2 288.2 282.6 279.8 278.2 276.9 277.3 277.5 275.4 273.2 270.7 268.4 265.7 261.8 259.2 255.9 252.5 253.4 253.8 248 239.1 234 233.8 236.2 234.1 229.2 223.7 218.5 216.1 216.5 217.3 219.6 218.9 206.4 198.1 188.7 182.8 176.6 173.3 168.8 162.6 160.3 156.3 154.2 150.8 151 144.4 141.3 136 130.9 126.7 124.2 124.5 125.2 126.1 127.6 128.3 130.4 130.2 128.1 125.9 127.2 128 130.1 134.9 138.7 140.7 141.2 140.6 133.8 123.3 111.7 98.3 98.7 118.8 132.9 149.4 169.9 182 182.9 184.2 186.2 187 184 185.3 181 175.7 172.8 170.5 166.9 160.6 154.4 149.9 147.8 143.6 134.8 124 111.8 100.8 88.6 78.4 67.2 67 73.3 76.5 76 80 91 105.5 118.5 129.3 133.1 133.5
280 293.8 315.4 336 343.3 355.1 360 363.7 366.6 366.4 364.9 363 360.7 358.4 355.5 352 347.8 344.2 340.9 339.9 339.2 339.8 339 336.6 327.3 297.6 282.6 267.7 258.1 249.6 241.3 233.8 228.2 223.6 218.8 215 210.5 202.2 195.6 192 188.7 188.1 184.5 174.1 168.8 170.6 171.1 168.2 159.4 152.6 146.7 143.6 142.6 141.8 141.8 141.5 141.2 141.8 143.6 145.5 148.4 150.5 154.1 158.1 160.6 164.1 167.5 171 171.7 178.6 186 190.8 198.6 207.3 221.4 233 250.5 265.3 270.9 280.9 294.1 304.5 307.5 309.3 308.9 306 303.2 299 292 287.1 284.1 281.9 280 278.7 278.5 276.3 273.5 269.8 265 259.5 252.4 246.6 243 238.8 237.7 237.6 233 227.8 223 221 223 222.6 221.6 216.4 207.6 202.2 201.1 200.7 199.7 194 188.7 183.2 176.8 171.9 167.6 162.9 159.2 152.8 148.8 146.1 143.1 139.7 136.8 132.4 129.5 125.7 123 120.5 120.9 121.2 121.8 122.5 123.9 124.5 125.3 123.7 121.9 120.4 120.1 121.1 124.5 127.2 133.5 138.1 140.1 139.5 135.7 122.9 107.2 93.2 107.9 123.7 138.6 155.2 178 185.8 186.9 189.3 191.2 191.6 188.5 186.9 182.1 176 172.7 169.7 166.4 160.2 153.4 148.7 145.2 142.6 135.8 122.8 108.6 97.1 85.9 75.8 64.6 70.7 77.7 84.6 78.9 86.2 96.4 109.2 123.6 135.1 137.2 139.4
280.9 295.1 314.5 335.9 342.8 353.7 360.7 365 368 370.8 370.9 368.2 364.9 362.1 359.5 357.9 355 350.7 348 345.2 343.5 342 339.3 335.6 320.7 294.4 276.1 263.6 253.3 245 235.8 230.5 226.2 221.8 217.7 212.5 208 200 194.9 192.2 189 187 183.1 178.4 172.1 158.6 155.3 157.5 156 148.1 145.3 143.6 142.9 142.3 142.3 142.5 142.4 144.7 146.9 149 151.7 153.9 158.2 161.3 163.7 167.7 171.6 175.4 177 182.5 188.8 197.5 206.8 217.1 228.9 239 256.1 266.7 274.2 285.2 300.1 308.4 310.1 311.8 310.3 307.3 305.1 302 296.5 293.1 289.5 285.2 282.4 280.8 278.7 274.8 271.6 263 253.7 247 241 236.7 231.8 226.3 223.6 221 214.2 208.9 205.5 200.9 199.9 198.5 197.3 195.1 190.5 188.8 184.6 184 182.6 180.6 178.3 174 167.6 163.7 157.5 151.9 147.9 142.3 139.3 135.7 132.6 130.7 129.4 125.5 122.8 120.7 119.5 118.8 117 118.1 120.4 119.9 119.4 119.2 119.5 118.2 116.6 114.5 112.8 115 118.6 122 128.5 134.2 137.1 136.7 135.1 129.5 110.8 93.6 113.5 128.6 143.2 158.3 184.2 189.6 190.9 194.3 196.2 194.8 191.1 188.3 183.3 176.8 173.1 170.1 165.9 162.1 156.1 149.8 147.2 144.3 135.4 120.9 108.8 93.8 84.3 74.9 68.2 75 80.5 83.3 85.5 91.2 101.8 111.1 125.1 135.4 141.5 148
282.8 295.6 313.1 336.7 343.9 354.1 359.9 364.2 369.3 373.1 373.6 373.2 370.8 367 362.7 360.5 358.6 356.8 354.3 351.4 347.2 343.1 339.8 334.6 315.4 289.3 272.5 257.4 248.7 240.4 233.2 226.6 223 219.4 213.5 207.4 202.1 196.8 193.7 191.1 186.2 181.2 177.9 173.7 169.2 164.2 156.8 150.8 148.1 145.8 144.4 143.4 143.3 142.7 143.2 143.7 145.6 147.5 149.5 152.7 155.3 158.6 161.5 165 167.7 170 174.8 179 181.9 186.5 193.2 201.9 213.5 223.8 234 249.6 263.6 269.2 278 292.2 306.7 312.3 313.7 314.3 311.8 308.9 306.5 303.4 300.2 296.6 292.3 286.7 283.9 281.3 276.8 271.6 262.6 251.5 242.7 237.6 230 226.1 218.8 211.7 206.5 201.9 197.4 194.3 190.7 188.8 187.4 185.5 185.3 182.8 179.8 177.6 175.5 174.3 173.1 170.7 168.1 163.8 159.3 152.8 145.8 143.7 140.5 136.5 134.5 132.3 130.9 129.4 127.4 124.2 121.1 119.1 117.6 116.8 115.6 116.8 116.6 116.1 115.1 113.8 114 112.7 111.4 110.2 104.9 109.9 113.9 117 123 129.5 132.8 134.1 132.8 129.9 114.2 96.4 106.5 124.4 145.9 162.9 189.9 193.3 196.4 199.4 199 196.7 192.5 190.9 185.2 178 173.5 171 167.6 163.8 156.7 151.5 149.8 146.2 136 120.7 109.4 96.3 87.1 78.4 70.5 77.8 84.7 90.6 94.9 95.8 106.9 114.8 124.1 135.7 143.1 149.2
282 296.2 313.3 339.5 345.3 352.3 359.3 363 368.4 373.6 374.8 374.8 373.5 370.8 365.5 362.8 360.2 358.3 357 354.8 349.7 344 339.9 333.6 308.2 285.3 268.7 255.8 246.1 237.3 229.9 224.1 216.3 210.3 205.6 202.6 198.3 195.4 192.6 189.9 185.6 177.7 169.5 163.5 160.4 158.4 155.2 150.5 146.6 145.1 144.1 142.8 143.6 144.3 145 146.4 149.9 151.9 154.3 156.5 160.4 162.4 164.8 168.2 171.8 173.8 176.3 182.5 188.9 189 197.2 205.9 216.4 229.8 241.8 258.7 268.1 274.3 285 300.4 313.1 315.4 316 315.9 312.8 309.9 307.8 304.1 301.5 298.1 291.5 287.2 284.1 279.6 274 263.2 253.1 243.3 235.3 228 218.6 212.1 205 199.5 193.8 189.9 186.5 184.1 180.7 179.5 177.3 176.1 174.6 174 171.6 168 165.8 164.3 163.4 161.9 158.1 154.4 150.7 143.5 141.8 140.2 138.6 134.6 132.9 130.8 129.3 127.5 125.7 124 120.7 118.4 116 114.8 113.1 112.6 110.9 111.1 110.6 107.9 107.7 107.6 105.1 103.5 101.1 104.9 108 112 119.6 125 129 127.9 120.3 112.7 102 97.5 110.8 125.6 146.8 171.4 189.8 197 201.6 202.9 201.8 199.1 195.8 192.4 188.3 178.6 174.5 171.8 167.4 161.2 155.6 155.8 153.2 148.8 138.8 123.4 111 103.4 94.8 82 74.3 81.9 90.4 97.8 104.5 105 108.2 115.7 126.1 135.1 143.2 147.9
