ncols 200
nrows 82
xllcorner 270000
yllcorner 310100
cellsize 50
396.7 402.1 399.8 397.2 393 398.3 406.3 405.2 409 407 409.7 428.1 433.2 435.3 432.4 434.6 428.8 419.3 414 412.5 412.4 412.5 412.5 415.1 419.1 423.9 436.5 450.9 461.7 473.3 481.7 488.3 492.1 494 498 501.8 504.6 506.3 506.3 505.2 504.7 508 512.5 519 525.7 533.4 541.4 552.6 556.1 566.9 577.6 580.4 582.8 581.1 575.6 567.5 554.8 546 541.3 537.8 532.8 525.8 516.4 500.6 490.6 488.3 491.1 489.4 484.8 480.1 475.5 470.7 473.1 477.6 481.6 487.5 494.4 503 524 542.1 559.5 584.5 611.8 628.3 638.1 647.9 648.4 650.3 624.8 615.8 630.6 599.6 543.6 503.1 471.6 439.8 422.1 404.8 393.4 387.4 387.5 393.5 401.5 407 409.8 412 406.2 389.3 364.9 335.7 312.2 290.9 273.8 265.4 265.9 285 304.5 323.1 345.7 362.8 360.2 348.1 330.2 312.7 299.2 299.8 311.1 324.4 333.1 348.8 363.9 378.6 399.8 424 448.5 470.6 480 486 489.1 493.5 494.2 493.9 499.6 502.5 499.5 503.7 517 529.1 534.7 539.3 540.8 535 518.7 513.1 505.7 505.7 511.6 514.9 524.2 539.6 556.2 572.5 595.8 614.5 631.1 633.9 615.4 574.6 545.6 529.5 517.4 504.8 491.7 469.2 444.9 432.9 431.8 428.4 422.4 417.1 409.1 399.7 389.8 379.5 369 357.8 346.4 332.6 338.1 349.9 368.3 388.6 413.6 434.6 449.3 454.6 458.7 487.3 513 538.5
409.6 417.7 415.4 412.6 413.9 411.3 425.9 422.9 420.4 424.9 425.2 433 440.5 445.4 449.7 443.9 438.7 430.2 422 412.5 412.5 412.5 412.5 412.4 417.8 424.4 434.6 446.6 460.1 474 486.2 494.6 499.8 502.6 506.3 510.8 515 516.4 516.4 516.1 514.4 516.5 519.7 524.4 533.4 540.6 548.4 557.1 564.1 580.9 597.3 599.4 601.2 605.7 605.9 583.6 568.5 557.5 552.4 548.4 544.5 542.7 536.4 512.3 498.6 496.7 496 492 487.6 481.4 477.7 475.6 478.7 484.6 488.3 497.5 509.8 526.2 541.4 566.1 585.4 603.2 631.8 646 653.7 659.6 662.9 665.8 673.8 664.4 631.3 576.5 527.9 492.6 470 452.8 426.6 411.7 402 398.4 398.3 406.1 409.7 416.8 420.8 417.9 404.8 383.9 354.5 328.5 308.6 291.1 278.4 266.5 272.6 294.7 311.9 334.1 351.4 364.4 365.9 346.6 327.6 308.7 299.8 308.2 320.2 333.7 344.4 356.9 370.7 390.6 413.9 440.3 463.2 478.2 487.9 493.4 499.8 509.1 515 523.8 524.8 524.2 526 524.3 528.7 546.4 550 555.9 560.6 562.5 552.7 537.4 539.1 540.3 544.9 546.3 551.4 563.2 580.1 593.7 607.8 625.3 631.7 630.1 619 577.3 542.6 523.7 511.2 500.4 488.3 474.6 451.4 424.7 401 403.8 400.5 395.2 388.5 379.2 370.8 360.1 349.2 341.4 331.4 329 341 348.2 368.8 388.2 409.2 425.1 426.1 448.7 474.9 499 525 552
421.4 427.1 430.3 433.6 432 431.2 446.2 444.9 443.2 442.3 448.1 457.1 465.2 465.9 467.8 463.7 457.6 445.6 433.8 422.1 414.6 412.5 412.5 412.4 416.5 423.6 433.1 442.1 458 474.6 486.6 497.5 503.8 508 515.1 520.4 524.7 527.9 529.3 529.4 530.3 531.1 532.5 541.1 555.2 558.4 568.2 573.3 577.6 597.7 612 621.6 626.6 627.5 626 612.4 593.8 576.2 567.9 563.6 568.7 564.2 556.3 529.2 515.8 507.5 502.9 495.6 489.5 481.1 478 480 485.5 490.8 498.2 505.6 524.9 542.6 570.8 594.5 615.8 630.6 647 653.1 660.4 667.7 672.7 676.4 680.9 664.9 619.7 568.9 526.9 495.7 479.1 451.5 428.8 419.7 411 408.2 410.8 415.1 423.8 430.6 428.5 423.4 408.9 384.4 356.6 330.7 309.9 292.7 278.5 273.7 283.8 297.4 319.5 343.3 350.9 361.2 353.5 336.3 321.5 311 304.2 316.4 330.6 341.4 353.6 369.4 387.9 409.2 435.8 462.3 474.9 487.7 496.6 506.8 514.8 524 534.4 537.5 537.4 543.4 545.7 546.3 552.5 556.8 570.7 579.4 584.3 587.6 580.1 567 573.7 575.8 575.8 572.9 579.3 583.7 595.9 599 602.3 609.8 615.3 617.5 609.4 582.6 544.8 522.6 505.4 495.1 483.4 473.1 454.5 431.3 402.8 368.9 369.8 369.3 366.8 360 351.1 338.3 333.2 326.3 325.2 340.6 354.8 365.2 366.4 382.9 397.5 406.2 437.5 463.6 486.3 511 536.8 563.7
424.8 430.4 436.6 441.6 442.3 446.7 449.3 460.3 463 468.5 470.4 478.8 484.6 490.9 501.4 488.2 472.1 464.8 454.8 440.1 428.1 413.4 411.5 412.4 415.6 424 432.4 441.8 455.8 470.3 485.6 496 504.6 511.7 519.2 526.8 533 536.3 538.6 542.3 544 546.7 551.5 568.3 583.5 584.1 588.7 593.7 598 611.8 628.4 642.6 653 656.3 653.4 635.3 609.2 588.2 581.1 576.7 582.1 580.4 570.1 550.7 527.1 516.5 505.6 497 490.9 482.3 482.1 485.9 489.7 495.4 506.5 517.8 541.9 569.5 598.8 623.8 645.5 650.4 657 659.7 665.4 671.4 677.8 682.9 679.4 666.5 617.4 572.9 532.1 504.8 482.7 456.9 436 426.1 421.3 421.3 423.1 430.8 438.4 438.8 437.6 430.4 413.3 384.8 357 333.2 315.5 300.4 290.1 280.1 285.7 300.7 333.2 351.9 355.6 358.3 349.6 336 325.4 314.7 317.6 328.3 339.5 349.8 365.4 382.7 410.2 436.9 454.8 472.5 487.5 494.4 507.2 518.8 526.1 537.3 543.8 545.7 550.8 557.1 559.8 567.2 575.6 585.8 592 594.3 594 591 581.7 577.8 577 571.5 572 572.2 580.3 583 582.2 577.4 578.3 581.7 593.7 598.9 594.5 584 558.8 528.6 511.3 496.1 483.1 473 459.5 437.1 407.9 377.7 345.2 343.5 343.1 339.9 330 323.1 321 316.3 335.5 353.5 370.4 385.6 396.9 394.4 406 425.5 451.4 477.1 500.1 526.3 552.8 577.9
431.3 438 444.7 449 453.8 458.8 460.9 467.3 478 481 485.4 492.6 495.7 505.1 512.9 499 492.9 484.9 479 464.1 446.6 429 423 417.1 421 430.3 437.8 445.7 456.1 471.4 483.7 493.1 504.2 515 523.5 532.4 538.2 544 549.9 557.9 562.9 565.4 576.8 586.9 600.5 606.7 607.4 610.7 617 627.2 649.6 670.5 690 693.7 678.6 659.7 636.1 616.9 605 594.2 598.9 594.6 571 548.3 532.8 516.1 502.6 493.5 487.9 482.4 486 489.4 495.1 503.4 514.6 531.1 559.9 587.9 624.3 654.4 654.9 660.9 666 668.6 669.3 671.8 676.5 678.8 672.8 658.9 615.7 577.2 536.7 507.6 482.4 458.2 445.8 436.7 433.6 430.8 440.1 443.8 438.8 433.2 429.5 422.3 415 392.3 365.2 343.8 325.1 312.7 302.9 292.2 294.2 310.3 342.7 355.4 357.6 355.3 347.1 337.7 325 323.6 330 335.7 351.4 364 381.4 400.3 428.8 455.5 467.4 481.2 495.4 505.6 517.8 525.7 537.9 543.8 549.1 556 562.3 571.7 580.3 591 599.1 599.5 598.8 596.3 586.1 574.6 559.5 545.4 550.9 551.2 548.2 548.9 549.5 551.1 549 546.2 553 560.6 575.3 581.3 581.7 574 559.7 540.6 520.1 500.5 483.9 471.2 456.3 434 409.8 384 358.9 330.4 321.7 322.3 314.5 304.6 320.9 337.5 354.4 371.5 388.6 405.8 421 434.1 440.1 452.2 470.9 492.3 514.9 540.7 563.7 575.6
448.6 450.5 451.1 459 464.4 467.7 478.6 481.4 488.1 505.2 505.7 513.2 515.6 516.8 523.5 517.4 512.7 510.9 511.6 503.3 487.1 455.5 444.2 444.7 442.9 445.1 443.9 452.3 460.8 471.4 482.9 494.4 504.2 515.7 525.3 535.1 541 548 558.3 571 575.7 582.6 591.6 599.4 609.1 619.7 625.1 632 636.7 658 678.2 705.8 725.1 732.6 715.9 679.7 658.2 639.2 617 609.1 612.7 617.5 587.1 549.4 531.2 510.3 495.1 486.2 488.4 488 488.8 490.8 499.8 512.8 525.1 557.7 584 613.3 639.8 661.7 663.8 665.5 667.6 666.2 667.1 668.2 668 670.3 665.9 658.4 631.7 581.5 542.5 516.6 495 466.7 453.7 447 445.9 447.4 446.4 439 424.9 419.6 419.2 417.2 409.8 399.7 378.9 358.3 339 325.3 310.8 293.4 292.3 319.3 347.6 354.2 357 354.7 347 338.9 332.3 338 340.8 346.8 362.4 381.3 399.6 425 453.2 467.3 480.7 494.7 504.9 516.2 525.9 536.7 542.7 547.7 554.5 563.7 575.2 583.8 595.3 603.3 601.2 601.1 595.9 589.9 563.6 541.9 527 515.7 518.2 518.9 518.6 518.2 519.5 521.5 522.4 525.2 531 540.8 553.6 562.6 563 556.5 544.5 530.8 514.7 496.6 478.2 462.1 445 423.7 403.4 381.9 358.7 332.2 311.2 307.4 299.2 316.5 335.5 354.3 373.8 391.2 408.2 425.4 442.6 459.2 471.8 482.7 496.3 513.8 531.7 551.1 561.1 559
467 465.6 460.4 467.9 472.2 488.9 499 497.5 506.7 517.3 530.2 532.1 535.8 532.8 535.2 538.5 535 527 526.8 524.5 511.5 494.2 492.4 473.5 466.8 462.1 460.1 459.7 468.8 478.2 488.2 498.7 507.7 516.9 528.5 536.9 543.9 552.7 559.1 571 578 587.2 595.7 606.5 612.9 620 629.7 636.1 652.6 679 713.8 738.6 766.1 780.1 762.8 715.3 687.2 664.7 638.2 625.8 625.9 642.1 619.7 560.1 537.4 512.1 496.7 490 488.4 488.4 486.5 495.7 506.2 524.7 540.8 574.1 606.6 636.9 652.5 661.6 664.2 664.1 662 662.7 663.3 663.4 662.5 663.1 657.6 649.4 628.6 591.3 550.3 525.5 495.2 473.6 460.1 458.6 452.9 448.6 439 425 409.1 403.3 399.8 401.8 395.5 379.9 364 345.3 328 311.6 295.3 285.7 306.9 337 344.6 352.2 362.4 357.5 350.9 343.2 343.1 348.2 353.2 362.8 377.9 401.9 423.5 455.2 464.7 478.8 490.6 503.4 516.2 526 536.3 540.1 547.1 552.9 565.2 574.5 581 590.1 600.1 599.8 596.6 594.1 587.4 574.7 542.9 516.8 500.2 489.8 486.9 487.6 488.6 489.6 491.3 493.6 496.9 498.6 505.9 521.2 534.9 545.6 544.1 536.9 526.1 512.5 497.6 482.7 465.4 448.9 430 408.3 389.4 370.2 347 323.5 306.2 293.7 308.5 327 348.9 368.7 389.1 408 426.9 447.4 465.5 483.5 499.4 513.1 526.4 538.4 549.5 548.6 539.6 535.9
490.8 481 472.5 476.2 480.7 491.5 508.1 514.2 514 530.3 541.7 548.7 550.5 553.4 560.7 549.6 556 550.7 544 539.5 530.4 525.8 517.9 502.5 490.1 482.3 477.5 479.3 479.5 486.8 497.4 506.3 515.9 525.1 530.2 537.2 544.5 551.1 557.5 570.1 581.7 588.8 596.9 604.9 618.3 636.1 641.1 645.9 664 696.1 733 770.3 795.4 813.3 829.1 744.3 723 694.9 674.6 659.1 662.7 650.7 603.7 566.9 539.4 518.7 508.3 487.9 489.3 493.6 490.5 496.2 517.5 537.6 562.8 594.1 627.2 648.5 656.6 661 661.8 659 653.4 657.3 658.9 659.8 658.3 655.2 653.7 641.5 605.9 569.6 540.4 516.7 488.8 470 466.6 457.5 448.6 434.4 420 407.4 393.8 383.7 378.5 379.3 369.2 347.9 332.5 316.3 302.5 280.7 281 291.1 317.8 331.1 350.7 369.1 367.5 361.9 355.5 349.2 349.7 356.8 362.7 374.9 390.6 412.8 451.1 464.2 474.5 486.1 502.8 515.1 526.5 532.5 536.4 544.4 551.6 562.5 574.1 579.8 584.5 589.6 590.1 589.5 586.2 579.6 574 554.9 525.3 501.8 481.9 468 459.1 460.1 460.3 462.2 464.8 468.6 473.1 477.7 487.7 504.7 519 526 524 518.1 505.4 493.2 478.5 464.5 450.6 430 411.7 392.1 372.8 353.5 333.6 313.7 296.9 296.5 317.4 338 359.3 383.1 405.9 426.7 447.9 468.4 488.5 506.8 527.2 543.6 555.5 562.5 549.6 527.7 513.9 508.2
489.4 485.9 482.3 486.3 497.6 503 507.8 515.7 529.4 537.3 550.1 561.5 567 574.1 565.8 556.2 562.8 571.3 565.3 564.7 559.7 552.4 548.1 532.5 516.6 505.8 505.5 501.8 501.2 505.2 511.6 518.7 524 529.9 535.6 539.5 544 556.8 567.8 575.4 580.5 586.2 599.4 612.2 626.3 640.1 652 661.7 681.9 708.6 740.7 779.2 812.7 831.8 847.5 776.6 756.6 729.9 705.8 687.7 672 631.4 595.7 565.1 546.2 533.7 512.4 497.2 493.9 500.5 507.3 520.7 540.9 565.7 592.5 630.7 649.1 658.4 658.5 656.7 649.6 646 644 645.5 650.5 650.5 650.9 648.7 643.2 615.8 576 547.4 519.8 495.9 474.4 465 457.9 448.3 433.5 420.5 402.5 393.3 373.9 365 362.1 356.1 337.4 319.1 304.9 291.5 276.2 274.3 284.9 296.2 324.7 352.4 378.8 380.8 373.9 367.3 361.2 358.7 358.9 362.4 369.9 381.5 400.6 438.8 456.6 467.3 479.6 494.1 508.2 524 531.9 538.5 542.4 548.9 557.5 568.4 577.3 582.7 587.6 584.6 580.4 577 572.9 565 560.6 544.5 510.4 485.8 465.7 453.4 439.4 435.6 433.6 436.9 438.7 443.5 447.3 453.2 470.2 491.2 501.7 506.2 502.3 494.2 484.9 473.7 458.5 445.1 429.2 409.2 391.7 373.6 354.7 335.7 318.9 302.6 286.6 304.8 325 347.9 375.6 398.9 420.5 444.1 468.1 489.2 509.9 532.1 552.3 566.6 571.6 556.8 527.5 505.6 492.6 484.9
501.8 496.2 493.8 497 506.3 514.3 520.4 531 537.4 542.3 553 558.1 563.8 568.9 565.1 558.5 556.5 571 587.1 583.1 581.3 570.5 567.2 557.5 541.6 531.9 530.8 529.3 527.6 525.2 527.8 532.6 537 541.9 539.6 545.3 555.4 575 589.2 595.1 588.1 590.9 597.1 616.6 627.7 641 661.4 680.4 703.8 729.5 755.3 793.5 827.9 846.1 842.1 810.9 781.1 759.1 737.6 701.3 664.8 631.8 607.8 596.8 565.6 555.5 541.8 518.3 518.1 529.7 542.4 558.7 606.9 617.2 636.7 647.1 660.1 657.4 653.6 642.7 639.5 638.6 628 631.1 636.4 638.6 645.3 630.8 609.3 573.5 547.1 518.5 494.1 472.2 458.9 451.4 443.3 432.8 420.4 406.2 389.7 379.4 356.5 348 348.4 337.2 311.9 295.2 282.9 272.8 269 287.9 293.7 314.6 344.1 378 392 386.9 379.5 372.4 368.9 368.3 369.4 371.8 375.4 390.4 412.9 442.2 460.7 471.2 486.9 500.9 513.8 527.5 532.3 541.5 549.7 557.4 563.8 570.2 575.7 582.7 583.2 576.5 569.5 560.6 551.1 544.2 541.9 534.8 498.1 469.3 447.2 434.9 421.1 414.4 413.9 415.9 416.6 419.3 425.4 433.4 453.8 477.8 484.7 483.6 478.1 471.4 462.9 450.3 437.1 420.6 404.1 388.8 372.1 354.5 335.5 319 305 290.4 293.4 312.5 335.8 361.8 386.6 412.1 436.8 461 486 509.6 533.1 554.3 569.3 573.4 568.6 543.4 512.4 489.4 472.1 463.7
530.5 523.5 518.1 521 529.3 540.9 539.9 547 546.4 544 548.6 553.6 557.3 559.5 561.4 557.7 557.8 565.5 582.8 590 587.8 585.5 586.8 580.7 569.4 557.8 557.9 556 553.8 550.1 546.8 549.5 553.1 558.9 561 566.9 578.5 602.8 624.7 623.5 611.1 604.6 608.8 619.8 639.7 654.3 676.4 696.8 728.9 764.8 787.5 814.7 843.7 855.7 860.4 845.5 811.5 793.1 766.1 710.7 673.7 647.7 632.1 641.1 614.6 586.4 573.2 566.4 552.8 562.7 583.1 627.6 650.5 654 665.8 658.7 655.8 649.4 637.2 626.3 629 613.9 605.2 610.8 615 607.9 610 595 574.5 539.1 515.2 486.2 466.9 451.3 443.2 435.4 427.4 413.9 401.2 389.2 375.1 359.3 339.3 333.4 332.7 311.6 294.7 277.3 266.7 264.8 275 295.6 310.4 332.6 372.4 401.8 397.5 396.9 382.9 377.6 375 375.8 377.5 379.8 385.1 395.5 418.4 444.3 462.8 475.9 489.7 504.8 520.5 527.8 534.6 542.5 555 565.4 568.6 571.8 572.7 575 572 565.7 554.1 537.2 525.6 521.8 521.1 519.2 494.3 456.2 434.1 419.5 403.3 392.9 392.4 394.3 398.5 401.5 399.4 427.2 444.4 461.3 458 455.3 453 446.7 437.5 424.6 411 395.4 379.7 366.5 351.4 335.2 318.8 304.9 291.4 282.2 300.6 323.7 347.5 372.5 398.7 425.3 452.2 478.9 504.4 530.2 555.1 564 570.2 568.6 556 528.5 501.1 476.5 450.4 438.9
563.4 550 552.1 556.1 556.8 574.6 566.6 571.2 570.8 564.5 556.7 560 557.3 562 557.8 557.8 557.8 560.9 573.9 588.7 592 595.7 602.7 604.3 597.4 590.4 584.6 587.2 583 572.9 565.4 571.2 574.2 583.8 590.4 597.8 616.7 651.3 657 654.4 638.4 630.4 631.7 644.8 662.2 678.7 697.4 726 768.3 791.2 821.9 847 854.2 853.7 855.9 854.3 850.2 834.8 783.8 734.4 690.8 663.4 675.7 679.1 666.6 615.6 610.5 611.4 602.3 598.1 620 657.5 683.4 674.1 660.2 650.3 645.4 638.3 625.9 619.7 596.7 579.9 561.3 575.7 572.2 570.7 576.7 555.8 529.6 503.4 476.1 456.3 442.1 433.7 426.4 418.2 406.6 394.2 376.5 364.4 353.1 339.8 328.7 321.7 316.5 298.9 277.5 264.5 262.2 268.7 289.9 313.2 336.8 363.4 408.1 404.8 401.3 393.7 387.5 382.3 382 384.1 385.7 389.1 398.4 413 422.4 448 461.8 478.7 491.8 511.5 521.4 528.9 536.6 546 556.5 565.7 570.8 569.5 570.3 568 561.4 551.1 532.9 515.2 501.5 498.3 498 499.2 494.4 450.5 425 407 391.9 377.6 369.7 372.1 376.2 378.2 394.4 422.5 437.5 440.1 436.3 432.2 427.8 421.1 409.8 397.4 384.4 370.2 353.3 343.1 331.5 317 303.3 289.7 278.5 294.8 312.7 335.2 360.2 385.2 413 440.8 469.2 497.2 524.4 546.7 559.7 564.8 566.1 564.4 552 518.4 491.7 466.3 442.5 422.1
627.2 620.4 616.7 601.6 639.9 609.8 604.1 605.4 605.5 595.1 578.9 571.8 568.5 556.7 557.8 557.8 557.8 559.6 573 588 597.8 604.8 630 641 633.4 625.5 619.1 617.5 615.2 602.9 592 593.9 600.4 614.2 622.4 648.5 718 719.5 708.2 694.3 686.3 662.7 664.6 675.4 689.4 711.7 741.5 768.5 812 835.4 842.3 846.3 847 847.2 846.6 846.4 842.9 835.2 800.2 764 717.6 709.4 729.1 739.8 695.4 662.2 644.8 658.9 654 662.9 653.9 679.6 672.1 661.7 653.1 641.8 635 629.3 606 584.9 567.3 538.3 524.7 535.2 531.8 529.4 538 509.5 495.9 465.9 442.3 427.7 417.6 413.8 407.3 396.7 373.8 364.8 355.9 346.6 329.9 326 320.6 311.1 296.6 275.9 261.3 260.4 271.3 288 308.3 336.3 365.9 398.9 413.3 407.8 400.8 395.5 390.6 387.9 389.3 392 395.6 399.4 405.9 421.1 434.1 446.5 466 484.4 499.7 513.6 522.7 530.4 539.5 549.4 557.3 564.1 568.6 567.4 564.2 558.6 550.8 536.2 515.2 495.6 478.2 473.6 477.2 479.9 479.1 455.5 419.7 395.7 379.6 362.1 346.3 349.8 352.8 363.3 393.1 412.7 419.7 419.5 416.2 409.4 400.8 392.9 382.7 370.4 359 345.3 333.5 322.3 312.1 300.2 288 273.7 290.6 309.9 329.7 352.5 372.7 401 430.9 459 487.7 516.1 534 546.6 556.7 558.7 561.5 563.2 555.6 516.4 486.1 459.1 433.3 416.9
650.8 673.6 680.5 688.8 702.4 644.9 686.6 667.2 642.3 626.8 606.1 596 580.1 560.9 557.8 557.8 557.8 559.4 575 587.1 598 612.6 646.1 683 678.9 671.9 668.1 659.4 654.1 634.3 620.9 621.5 630.2 645.7 667.6 700.7 749.6 765.1 767.4 753.5 726.2 717.3 711.6 710.2 729 750.6 776.9 809.9 824.8 830.3 834.3 836.6 837.2 835.8 835.9 836.2 832.9 827.7 818.3 790 756.1 756 760.6 739 721.3 706 695.5 686.3 689.6 693.3 679.6 670.3 660.2 652.7 640.4 634.1 630 625.6 605.7 546.7 525.1 505.9 492.7 488.6 496.5 493.6 491.6 472.8 452.5 429.2 412.5 401.9 394.2 392.7 386.4 371.2 357.2 354.4 337.7 319.6 312.7 317.1 307.8 292.6 275.2 260.8 261.6 276.7 295.9 314.8 333.9 360.7 408.5 419.8 415.6 405.6 401.6 397.5 393.6 397 398.8 399.9 402.2 405.7 411.2 422.1 438.3 456.4 470.1 488.6 508.5 518.6 527.1 535.5 542.1 550.7 558.1 560.5 560 557.1 547.6 539.2 530.5 519.5 499 479.7 459.2 446.7 455.5 461.5 463.9 455.7 420.8 394.1 373.2 354.3 333.8 330.2 336.7 364.6 380.3 392.7 395.8 394.9 391.4 383.7 374 366.9 356.8 346.1 337.1 324.4 313.1 307.6 296.6 285.2 272.4 286.1 306.5 325.2 346.2 370.2 394 418.4 447.6 477.5 506.2 524 533.4 544.2 552.8 558.4 559.8 558.9 552.9 525.1 487.5 459 434.6 410.5
687.2 698.2 711.9 722.6 719.6 723.8 753.9 719.1 696.3 686.6 654.1 612.4 584 560 557.8 557.8 557.8 559.7 574 591.8 611.1 627.7 657.6 692.7 719 717.9 709.9 706.3 693.3 676.1 653.9 656.1 661.2 678.9 699.5 727.7 772.5 809.1 806.7 784.6 764.2 764.9 768.8 790.3 777.5 802 811.6 813.3 816.7 818.2 821.1 823.7 824.6 825.3 825.3 824.2 823 819.8 814.8 809.4 800.8 785.9 765.6 742.7 723.7 707.3 694.9 688.9 686.4 671.2 661 655.9 654.2 643.7 632.2 628.5 624 615.3 564.1 517.6 496.2 472.7 461 454.6 458.2 451.6 449.2 437.6 408.9 397.1 384.2 379.6 373.9 368.8 358.8 346.8 347.3 336.6 319.7 297.5 293.4 298.2 290.4 274.5 257 260.8 273.6 308.8 329.7 345.9 376.7 398.5 430.9 421.2 412.2 406.2 402.1 399.7 397.6 402.5 403.9 405.4 408 411.8 419.7 427.6 443 458.3 475.6 498 513 523.5 533 542 547.6 553.1 554 549.3 544.4 530.1 518.9 512.2 506.6 495.1 482.4 465 446.1 424.7 436.6 445 452.4 451.4 431.1 396.4 369.7 348.2 325 316.2 337.8 353.7 365.3 371.4 375.5 372.8 367.1 359.3 347.3 340.9 332.8 324.5 316.2 303.1 296.6 288.3 280.3 268.9 282.3 295.3 318.5 344.5 368 389.8 413.9 439.7 468.7 494.3 510.6 524 533.3 544.4 550.3 552.2 551.3 548 540.9 529.6 493.6 461.9 432 409
712.5 720.7 732.5 742.3 755 765.3 784.1 791.3 767.6 708.9 670.1 632.5 598 564.7 557.8 557.7 557.8 564.6 576.8 592.3 614.1 640.4 663.5 698.8 731.3 758.3 759.1 745.9 737.6 716 701.6 693.1 698.2 713.8 732.5 772 802.4 812 806.7 799.9 797.3 796.6 799.6 801.8 801.8 803.6 803.9 804.1 803.2 804.2 805.6 807.6 808.5 810.2 810.4 811.3 812.9 812.2 811.4 805.8 798.6 784.8 765.3 742.1 713 696.5 686.9 682 664.1 656.3 652.8 643.2 632.2 626.4 625.6 619.7 615.5 594.5 536.9 503.4 473.7 450.1 435.6 428.9 425.2 420.2 407.9 388 372.8 364 357.5 358.5 353.7 341.1 334.5 334.7 324 311.2 297.4 288.4 275.6 274.1 266.7 250.4 266.2 271.5 307.3 342.5 388.8 407.7 417.6 447.1 432.4 420.6 411 406.7 401.2 399 399.9 402 403.7 407.2 410.8 417.5 424.6 434.9 446.5 465.3 484.2 507.2 520.5 530.5 542.2 550.2 554.5 552.6 539.8 524.9 512.4 501.2 491.7 484.6 479.5 474 462.9 448.3 433.1 411.4 420.2 431.8 439.2 444.3 436.5 403.2 370.1 338.6 305.7 306.6 324.4 342.1 349.7 352.2 352.8 348 343.4 334.9 322.6 316.8 309.4 300.4 293.7 285.9 277.7 269.5 262.4 278.3 299.3 317 337 362.3 385.3 409.3 433.9 461 487.2 506.4 519.7 528.6 533.8 539.4 542.1 542.5 539.9 536.7 530.4 521.6 510 465.4 432 406.7
726 736.4 748.2 757 770.5 782.8 796.2 804.4 767.9 713.3 671.5 632.8 598.2 571.5 557.8 557.8 562.4 573.8 581.8 598.3 619.3 651.8 685.9 707.1 736.5 771.7 802.2 788.1 788 766.3 742.2 733.2 733.6 745.3 785.2 816.8 816 809.5 800.9 792.2 788.3 789.3 791.2 795 796.7 796.3 792.7 791.6 785.7 779.1 783.8 787.5 790.6 794 797.3 801.7 803.6 803.2 804.6 800.9 794.6 780.5 762.7 739.2 709.6 688.2 672.4 668.7 653.9 646.7 638.6 627.6 623.8 618.6 617 612.7 602.5 570.1 523.2 484.4 454.7 429.1 411.1 402.5 389.1 386.9 371.6 357.4 341.8 335.6 331.2 329.7 326.7 316.3 319.7 307.8 299.5 289.5 281.7 270.1 258.5 253.9 244.7 261.8 287.7 321.2 353.7 383.9 430 459.4 456.8 446.4 428.9 419.1 409.5 404.6 400.5 399.5 400 401 405.8 408.6 414.4 421.6 428.2 440.6 454.7 472.7 499.3 515.3 527.2 540.2 553.2 561.3 557.9 535.9 513.9 499.7 485.6 474.2 464.9 458.8 454.2 451.1 442.8 433.7 421.5 402.4 404.1 418.2 430.7 436.2 433.3 416.8 377.5 344.8 310.9 293.9 309.6 323.1 330.5 331.7 328.4 324.3 318.1 309.5 299.7 291.4 284.6 281.7 274.9 265.7 258.8 268 282.8 300.7 319.3 339.1 359.5 380.8 404.2 429.6 456.3 478.8 498.9 517 528.1 531.2 528 526.9 526.9 526.9 525.1 521.8 516.4 508.7 500 482.6 437.7 406.8
737.9 746.1 756.8 767.1 774.7 784.1 795 808.5 770.1 722.1 679.1 642.1 607 583.5 575.2 563.8 571.7 581.2 592.7 606.5 638.5 680.7 717.4 741.7 761.5 779.2 809.5 835.2 832.9 816.3 801.1 782.6 794.5 805.9 820.4 819.4 812.6 804.1 791.8 782.4 771.8 777.2 779.3 784.2 784.7 783.2 781 774.3 763.1 760.6 762.6 764.7 774 777.1 783.9 787.8 792.9 796.7 796.8 794.6 788.1 775.1 757.8 735.1 712.1 688.6 659.1 657.7 646.9 633.2 624.3 620.2 613.3 614.4 610.6 609.1 593.5 569 547.3 480.4 443.6 416.9 390.8 372.1 358.2 348.9 344.4 326.2 318 315.6 308.7 302.7 299 288.5 290.5 285.7 279.1 269.4 259.7 242.6 228.3 238.6 258.9 283 311.7 354.4 392.4 428.9 456.1 458.5 456.1 439.2 426.5 416.1 406.5 402.3 400.2 397.9 398.3 399.7 402.8 408.2 419.7 427.1 436.5 449.4 465.4 489 507.3 523.7 536.9 551.7 562.7 564.7 549.4 521.5 498.1 478.5 461.7 449.1 441.4 435.5 430.9 427.7 422.5 414.8 407.1 391.5 390.6 406.2 420.7 428.9 428.1 415.2 383.1 349.6 317.9 283.2 289.1 298.6 304.7 305.4 303.7 297.9 290.8 284.9 277.7 273.5 264.8 262.3 256 260.9 275.7 289.5 302.5 322 341.7 361.7 381.1 402.7 425.3 451.4 476.3 494.4 511.7 528.4 527.2 520.3 516.4 512.3 511.2 511.3 509.7 506.1 500.7 494.8 486.3 476 447.7 408
741.5 748.1 758 765.3 772.1 781.4 791.9 802.4 778.1 735.6 690.2 653 623 602.6 590.3 582.1 589.6 603 610.5 631.8 666.5 706 742.4 774.9 797.1 814.3 828.1 843.2 846.9 848.3 847.2 843 836.8 830.8 821.1 813 804.4 791.1 775.2 764.2 756.5 762.4 763.5 766.6 767.8 764.3 759.7 756.3 740.8 730.2 734 740.7 754.3 763.5 771.3 777.2 779.9 784.4 786.3 784.6 778.3 767 749.4 728.1 703.2 685.3 653.7 643.7 634 623.2 615.2 611.9 606.3 604.8 605.1 586.4 574.3 569 546 480.4 440 404.4 377.4 352.4 332.9 322 315.6 305.9 296.5 293 278.7 277.2 271.4 265.1 262.9 261.4 255.9 247.5 227.5 216.8 233.8 256.4 278.9 310.9 360 388 419.6 446.7 454.6 459.4 446.7 433.4 422.8 412.6 404.3 400.6 398.9 397.2 396.6 398.5 402.7 409.4 420.5 431 443.6 461 477.7 498.8 516.2 532.3 547.8 560.5 567 567.3 542.6 510.8 486.6 464 442.6 425.4 413.8 412.6 408.9 405.1 400.5 395.3 390.4 384.1 378.2 393.9 409.4 420.5 422.3 409.7 387.5 352.6 323.7 291.2 268.4 279.3 281.9 280.4 277.8 272.9 271.5 265.6 260.3 253.7 249.9 262.4 266.9 285.1 297.8 310.6 324.7 341.9 362.2 382.6 402.7 426.2 450.1 471.2 490.4 507 522 518.2 514.3 508.6 500.7 494.3 492.8 494.3 492.9 489.2 483.5 477.6 471 463.3 454.1 417.8
737.2 744.7 753.7 759.7 765.9 774.6 782.8 790.3 792.9 752.9 704.4 671.3 641.6 623.2 614.9 617.5 633.1 630.8 635.9 653.8 685.2 756 790 824.1 841.2 849.7 846.1 845.7 845.1 844.7 842 837 831.3 824.8 815.4 807.1 793.9 780.1 757.8 738.2 735.5 750.3 743 749.7 748.3 744.1 742.7 741.4 723.6 715.5 709.7 725.1 736.8 749.4 757.3 764.1 766.9 770.5 772.6 771.7 765.4 753.9 733.5 706 689.2 682.2 656.6 621.8 616 615.9 610.3 603.4 592.2 593.3 579.4 563.6 564.1 564.7 549.5 480.5 432.1 394.9 364.2 338.9 319.2 301.7 289.1 284.5 276.9 272.3 257.2 255.8 247.5 243.8 238.8 230.3 222.7 210.8 211.3 231.6 258.3 288.1 333.8 354.8 386.3 421 443.4 464.1 463.6 454.4 440.8 431 419.3 411.1 401.9 398.9 397.2 395.9 395.9 397.8 404.2 413.5 421.6 435.2 450.9 471 491.3 505.6 523.2 540.7 555.6 561.5 568.7 563.7 543.1 503.5 476.7 454.7 434.2 412.2 395.8 390.5 386.9 382.9 379.6 379.2 375.3 371.8 367.3 382.7 400.6 412.7 415.6 402.7 383.7 351.5 320.8 291.3 262.6 262.9 267.7 261.1 257.8 254.1 249.5 245.5 242.6 257.6 271.4 284.4 295.2 306.7 319.8 333.5 349.6 365.7 383.5 404 426.3 449.1 470.4 490.4 509.2 514.7 510.3 505.7 497.9 489.6 478.7 470.6 468.3 470.3 472 469.4 464.9 460.3 455.2 449.1 443.4 430.7
728.6 736.4 745.4 751.7 757.1 763 773 780.9 785.4 769 723.8 693.8 665.1 651.7 647.9 647.4 643.4 645.5 658.2 676.8 750.2 796.4 821.8 863.4 863.8 853 848.9 844 841.6 840.1 836.7 831.3 825.6 817.4 807.9 799.1 783.7 771.3 748 728.1 705.1 710.6 715.7 724.4 733.5 731.5 719 716.6 708.8 705.7 705.8 712.3 713.7 732.6 742.8 750.1 754.4 757.2 757.1 753.7 746.1 735.8 716.2 688.2 675.9 661.3 635.8 606.7 606.9 601.7 594 586.6 576.5 561.9 553.3 553.6 558.5 558.2 529.8 475.3 426.8 390.7 356.2 331.7 307.9 288.4 274.3 264.2 254.9 252.1 236.7 234.1 227.3 223.6 218.1 208 192.5 204.9 225.9 253.6 282.8 316.4 367.2 396.9 417.9 446.4 460 460.4 457.7 448.4 439.1 427.1 416 408.4 399.9 396.9 396.4 395.2 394.1 397.9 403.1 413.7 425.4 440.7 459.4 482.5 499.6 513.6 531.3 545 556.8 563.5 565 561.9 542.9 504.6 476.8 454 433.7 413 388.3 370.6 366.1 362.7 360.8 360.4 360.4 360 357.1 375.9 392.7 403.2 403.6 392.9 376.8 342.4 312.6 285.4 262.5 242.5 250.9 242.5 234.5 231.9 242.1 257.4 268.3 280.8 294.8 307.8 320.1 332.3 345.9 359.9 374.8 390 408 427.5 448.5 467.5 489.3 508.9 510.4 504.7 494.5 484.8 475.3 466.6 457.3 444.8 439 443.5 447 447.6 447 442.5 439.8 436.4 431.5 425.4
718.9 726.5 733.2 740.3 748.1 754.3 761 769.9 777.3 782 753.5 716.4 693.4 683.8 677.6 669.1 666.2 672.8 687 718.2 765.2 824.4 875.5 882.1 869 855.1 846.1 841.1 835.8 832.5 827.3 822.4 818.2 811.3 802.3 791.5 776.7 758.1 724.9 701.1 683.2 671 678.3 689.3 696.2 703 700.9 696.3 695.6 695 697.3 700.6 703.6 714.9 726.2 735.1 740.5 736.6 735.6 727.8 720.8 711.2 695.6 669.2 641 625 607.3 593.1 588.1 581.4 572 560.6 551.9 546.2 544.2 543.5 548.1 547.6 531.5 497 422.7 387.4 346.9 323.4 308.2 288.8 264.4 253.2 240 232.4 225.5 212.2 208.5 205.6 200.6 183.8 198.3 222.2 249.8 278.4 307.4 366.9 392.2 412.8 434.4 453 457.2 458.8 456.3 444.4 433.1 423 413.3 405.7 398.1 394.7 392.9 391.8 393.1 399.3 404.6 415.2 430.6 447.1 472.8 491.8 509.2 524.9 537.7 548.6 554.5 557.2 558.8 557.6 547.8 512.9 478 456.4 436.4 416.5 395.5 373.4 350 345 342.9 343 345.3 347.9 356.1 368.8 382.6 391 389.5 379.5 363.4 333.1 304.5 277.5 255.8 232.2 234.1 218.8 236.8 251.3 265 278.2 291.6 306.1 320.5 334 347.3 359.3 374.9 388.9 402.3 417.1 434.2 451.7 470.3 488.6 508.4 508.7 497.6 486.5 476.4 467.5 456.9 443.1 430.8 417.9 411.1 416.6 422.1 426.3 426.3 427.1 426.5 424.9 423.7 420.4
708.8 716.9 724.4 730.3 736.6 743.8 750.9 758.5 768.2 775.3 778.8 748.9 727.9 720.5 716.9 703.7 696.2 710.7 727.1 760.5 808.1 872.1 884.1 878.2 863.3 849.9 840.6 832.9 827 822.6 817.7 812.7 807.5 801.9 791.7 773.5 753.5 729.1 700.1 672.3 645.7 632.7 639.1 645.5 647.1 659.8 670.3 684.1 685.6 684.7 670.5 671.4 683.1 698.2 702.5 711.6 715.5 710.8 705.6 702.5 693.4 679.4 670.2 646.8 618.2 597.8 582.6 569 565.3 556.5 550.7 549.5 546.1 540.3 536.7 531.7 531.5 531.9 520.3 471.4 448.2 367.9 334.4 319.7 302.7 288.1 265.5 242.5 229.8 217.7 209 195.4 187.1 191.4 177.8 190.4 211.3 241.6 270.7 305.1 343.9 394.8 415.7 429.7 447.1 454.9 457.9 459.1 450.7 440.6 427 418 408 398.6 394.9 391.2 389.4 388.4 393.8 400 405.3 420.4 436.5 458.4 481.1 496.5 513.1 528.6 535.1 543.5 546.7 547.8 548.2 544.5 538.9 529.1 490.6 461.6 438 421.8 406.5 382.6 357.9 336.9 326.5 326.1 327 329.2 348 354.4 366.7 376 375.6 360.8 344.2 317.5 293.5 270.3 246.6 227.4 209.7 230.7 245.3 258.6 276.8 293.7 316.1 333.3 349.3 364.2 379 391 406.4 420.7 433.1 447.3 461.1 477.3 496.7 509.9 505.5 493.2 480.9 470.9 460.5 449 436.8 421.8 409.3 398.5 388 393.8 397.5 404.2 407.6 410.3 412.9 413 413.7 414.1
694.6 703.6 712.7 718.7 726.1 734.6 741.8 748.4 755.1 765.2 775.2 783 787.4 776.2 764.2 756.9 754.5 756.6 784.7 792.7 847.3 883.1 888.3 872.9 860.6 841.6 835.7 821.5 815.8 810.3 805.6 800.5 794.7 788.9 778.7 749.6 713.9 694.5 659.4 632.7 609.8 598.2 595.6 601.6 606.4 618.8 641.6 658.6 668.1 663.2 628.3 635.5 659.8 670.4 687.6 691.9 688.6 693.9 692 688.9 674 661.9 647.9 626.6 602 578.5 568.9 553.5 548.1 541.7 547.5 546 531.2 527.2 523.2 514.7 514.3 517.2 501.9 467.3 407.3 367 333.3 315.4 298.8 285.2 264.1 240.8 222.1 208.2 198.2 183.3 174.5 170.9 182.5 203.8 228.9 271.9 314.7 335.4 388.7 411 427.2 439.2 449 454.3 460.1 454.9 446 436 422.8 411.2 400.9 394.6 392.6 387.4 385.2 384.9 391.2 396.2 402.7 418.1 437.6 464.4 485.2 506.7 518.6 527.3 530.2 531.1 534.8 532.4 531.4 526.5 526.2 521.1 512.4 475.1 442.9 425.4 415.5 396.3 371.1 348.8 330.4 309.6 306.7 319.9 332.8 339.9 348.3 357.3 355.7 344.4 325.1 301.7 280.9 260.6 238.2 219.6 215.8 231.3 247.1 264.6 285.3 310.4 333.5 355.4 376.1 392.5 408.5 422.6 435.3 451.2 464 476.5 488.2 503.6 515.5 506.1 492.3 480.2 465.3 455.3 443.4 429.7 417.3 404.9 391.2 380.8 369.8 373.5 376.7 381.5 387.8 393.8 399.1 401.2 404.5 406.7
683.8 693.3 701.4 707.2 715.4 722.4 730.9 739.7 747.3 756 766.7 776.3 786.7 795.5 805.6 811.5 802.2 807.5 827.6 845.4 857.8 867 864.6 855.9 849.4 824.6 818.6 807.5 801.3 797 789.9 782.3 775.8 773.8 765.5 710.8 690 668.1 627.8 601.8 584.4 567.8 561.4 562.2 570.6 582.8 606.7 613.3 625.7 608.9 591.4 619.4 626.8 640 666.2 671.8 682.1 690.2 684.5 674.5 658 645.2 627.9 606.8 581.4 567.3 549.6 539.4 529.4 529.7 518.5 511.8 509.1 507.2 508.9 502.2 497.5 493.2 490.7 433.9 394.8 361.7 329.8 314.6 297.7 278.9 253.9 232.5 215.8 188.9 187.6 175.5 168.8 171.3 191.9 216.5 252.7 282.5 318 369.4 412.7 419.9 433.8 441.5 448.3 458.3 461 453.7 444.9 430.3 418 406.5 397.9 393.4 388.9 383.6 379.3 382.6 385.8 389.9 400.4 415.1 438.6 458.2 482.1 503.9 514.5 518.4 517.1 516.5 516.4 514.2 511 510.4 506.4 506.7 505.2 499.6 454.2 426.7 417.9 408.2 383.8 362.3 341.9 323 300 307.4 316.8 323.7 330.7 336.4 335.6 325.8 308.2 289.4 268.9 250.3 230.1 213.9 216.7 230.3 247.5 267.8 290.2 315.3 342.8 370 391.3 410.3 427.8 443.9 461.3 476.1 489.5 500.7 512.1 518 507.1 495.6 484 467.8 453.3 439.1 425.2 411.8 400.4 389.5 378.6 368.5 362 354.5 357.1 364.6 371 377.9 384.4 389.4 397.4 401.6
670.9 681.2 689.2 696.3 702.2 709.8 718.5 729.6 738.1 747.3 759 768.5 781 791 801.2 808.7 816.9 829.6 836.2 841.7 839.4 839.8 844.3 834 817.8 802.3 791.6 788.2 783.2 781.8 772.7 755.1 747.3 753.5 745.3 689.5 647.1 632.6 604.2 574.9 557.3 544 529.2 526.1 532.8 555 567.7 570.8 574.4 551.9 562.4 575.6 586.3 615.6 633.5 642.8 658.6 673.8 665.4 652.8 635.9 623.4 611 592.1 568.4 549.8 539 535.1 517.8 511.2 499.4 494.4 491.4 488.9 488 488.8 492 486.9 454.6 423.9 374.8 346.7 320.6 303.2 285.2 264.2 239.7 220.9 198.3 175.7 177.6 164.6 162.1 184 209.5 240.9 272.2 314.1 372.8 403.1 413.3 426.2 433.6 438.8 449.8 463.3 460.4 450.4 439.1 424.3 411.8 403 399.3 395.2 386.4 380.3 372.9 375.1 376.8 383.9 395.8 409.8 428.6 448.5 472.3 491.7 501.6 501.8 499.5 498.5 495.9 492.9 491.3 491.2 488.3 489.4 492.3 495.9 476.5 434.9 419.4 410.1 393.2 372.9 352 329.5 308.2 292.9 302.4 309.3 313.9 317.6 315.7 305.9 294.7 275.5 257.9 241.3 224.2 213.6 214.8 229.7 248.8 269.9 293.3 318.6 345 373.6 398.2 419.4 437.5 459.7 475.3 487.7 504.6 513.1 512.4 505 495.7 486.2 471.9 459 445.2 428.9 412.5 398.9 386.5 375.9 368.1 359.6 351.9 347.5 345.2 349.9 357 363.7 371.1 380.2 389.1 397.5
660.4 669.6 674.4 681.7 688.8 700.9 709.1 717.4 727.2 738.1 749.3 761.3 772.1 783.4 792.1 799.6 805 813.6 819.4 823.4 814.9 805 802.5 788.7 783.3 770.4 764.8 763 753.8 756.8 748.2 722.4 713.4 717.1 714 653.4 621 599.6 557.7 540.8 530 522.2 505 493.4 487.7 512.4 528.5 511.3 510.5 512.8 523.2 533.7 562.5 576.9 587.9 610.9 621.5 642.8 639.7 629.4 615.6 603.2 592.8 571.8 551.2 539.4 525.9 521.3 509.9 495.4 479.3 478.8 478.7 481.2 482.3 483.6 487.8 472.7 422.6 381.6 349.7 328 305.3 283.8 261.8 242.8 223.9 205.6 185.5 164.5 164.3 155.6 178 200.6 234.3 272.6 310.8 357.7 388.4 405.9 413 428.3 435.6 443.4 465 465.2 456.1 449.4 430.2 418.5 407.6 401.8 400.4 386.8 378.9 375 361.7 363.7 367.6 375.7 389.9 400.7 418.4 437.5 458.1 472.5 479.7 480.5 478.1 478.3 476.1 473.9 471.9 470.9 471.7 474.7 480.8 487.1 489.4 450.6 421.4 409.7 398.6 379.6 358.3 335.9 313.5 293.7 285.5 294.8 298.3 300.6 299 290.1 280.3 262.6 247.4 228.3 215.6 202.5 217.1 230 249.3 272.4 296.1 322.9 349.4 377.4 403.5 424.6 447.3 464.2 479.7 498.8 505 503.9 500.1 494.3 484.7 475.6 463.7 451.7 438.4 425.5 409.4 392.8 380.2 374.6 369 366 360.2 354.8 349.5 343.8 346.5 352.2 361.4 370.6 380 391.1
649 657 663.2 669.7 678.4 686.1 693.3 703.1 717.2 728.3 739.9 751 763.2 775.3 781.2 786.5 791.7 799.9 811.8 818.4 798.7 761.8 754.2 749.2 743.3 735.8 732.9 728.3 713.1 731.4 712.3 689 664.4 675.7 668.5 624.4 584.2 554.6 524.9 506.7 500.6 498.9 489.4 452.8 455.2 461.1 464.7 472.5 472.6 480.5 490.9 506.7 523.8 529.6 539.8 564.3 581.5 594.7 608.4 607.6 598.8 587.5 572.3 553.6 537 521.1 510.9 503.8 491.6 479.7 472.4 470.7 468.6 472.2 469 473.3 462 430.1 389.3 357.6 333.2 308.2 285.9 263.2 239.8 225 206.3 189.2 172.8 154.5 150.7 164 189.9 219 264.9 308.8 344.2 377.3 397.4 415.2 428.3 435.1 439.7 459.8 467.8 465.4 457.8 440.3 425.9 415 405.1 401 396.3 383.7 373.4 366.3 353.9 353.7 357.6 365.5 378.5 388.9 404.5 423 440.7 450.8 456 457.6 457.5 458 456.6 455.5 453.9 453.1 455.6 462.2 472.2 482.5 492.9 464.2 425.4 408.7 400 384.8 363.7 340.2 320.1 303.4 284.4 278.2 283 286.5 284.6 278.1 267.2 251.5 234.6 218.3 206.6 204.8 216.4 231.7 250.4 274.5 298.6 324.9 352.5 381.9 408.8 432.2 449.3 462.2 482.5 491.5 494.3 493 486.7 479.9 470.6 464.1 456.3 448.3 437.7 428.8 414 401.4 393.5 387.5 381.6 375.7 368.6 362.2 354.9 348.1 343.8 343.8 349 361 373.9 384.4
643.5 650.2 656.4 662 666.3 672.4 681.6 691.9 707.3 719.6 729.1 738 747.9 759.6 763 768.9 778.9 786.8 797.6 796.8 769.1 729.3 720.2 705.4 702.6 699.3 700.9 689.4 680.7 682.9 662.3 654.4 634.9 638.5 630.8 585.9 549 521.1 501.8 475 471.1 467.2 449.6 426.4 427.9 422.3 429.7 431.9 440.8 449.1 458.4 472.6 482.6 495.9 510.1 520.7 536.4 552.4 567.9 576.6 580.3 571.6 555.9 536 520.7 508.4 497.1 486.2 473.2 464.4 458.4 451.2 454 458.8 455.9 459.7 419.5 397.3 360 332.9 310.3 289.8 266.6 243.5 221.4 203.9 188.7 174.5 159.3 146.7 160.2 182.7 214.7 251.5 295 309.3 367.5 389.3 407.6 417.1 431.8 448.7 455.5 461.7 470.2 468.5 450.3 437.9 425.5 414 404.3 401.3 394.9 379.6 366.5 356.4 344 345.2 347.9 351.5 360.6 373.4 390.8 406.8 421.7 430.7 434.5 435.9 437.3 437.8 436.9 435.8 434.6 433.9 439.5 452.7 467 479.2 493.5 481 433 411.8 399 387.7 367.9 346.7 328.3 310.5 296.1 277.2 269.1 275.4 272 264.7 254.3 237.8 223.1 209.1 203 203.5 217.1 233 252 275.2 301.1 328.2 358.2 386.9 413.9 434.7 448.8 469.9 480.3 486.3 485.8 480.5 472.1 466 458.7 454.2 453.1 448.7 442.5 437.6 430 421.5 413.2 405.5 396.2 387.9 380.4 371.7 362 353 344.7 343.6 341.6 353.7 367.7 377.9
635.2 641.9 647.7 652.2 656.5 658.9 672.5 684.3 695.9 708.1 715.2 722.2 730.7 745.2 750 755.5 762.6 769.9 760.7 737.9 717 689.7 673.3 668.2 665.2 664.6 667.1 648.4 645.9 639.8 620.7 610.3 605.7 596.8 585.2 546.6 516.2 493.1 471.7 454.4 443.4 436.4 429.2 410.2 407 400.9 400.9 406.2 413.6 423.3 434.7 438.1 449 464.9 474 486.1 497.3 512.9 523.4 540 557.2 552.9 536.8 520.5 508.2 498.1 489.6 471.5 458.5 449.1 445.3 441.1 446 451.4 442.6 435.7 393.6 363.9 330.4 310.4 290.7 268.2 244.6 224.3 205.3 187.2 172.5 159.8 144.1 155.9 176.7 202.1 239.6 281.4 311.5 342.6 381.3 403.3 415.1 427.5 436.7 451.1 452.3 468.5 473.7 465.9 454.5 442.7 429.5 415.2 402.7 401.1 391.7 376.3 360.4 347.3 335.1 335.5 337.4 330.6 339.7 353.4 373.3 389.5 402.5 410.3 413.1 415 417 418.8 417.8 415.6 415 414.1 431.8 448.1 463.8 478.3 494 503.2 451.9 416.4 396.8 381.9 366.9 353.1 335.6 317.7 303.1 292.5 273.3 259.1 261 253.4 241.5 227 212.9 202.7 198.9 203.7 217.2 234.3 254.4 277.3 304.6 333.4 363.7 391.5 418.5 436.1 455.7 469.8 477.8 477.6 471.3 462.9 457.2 450.9 448.9 450.8 451.2 449.7 450.5 448.3 444.2 439.7 432.7 424.6 413.8 402.7 392.8 380.7 368.2 357.4 346.7 333.5 334 345.9 360.5 367.1
630.3 634.6 639.3 644.1 644.5 650.3 658.4 669.6 682.3 687 698.1 706.3 715.6 728.6 737.1 743.9 750.7 756.4 733 690.5 671.7 643.9 633.3 631.5 626.8 626.6 617.8 609.7 612.4 588.9 585 578.1 568.5 554.1 532.9 511.3 489.9 479.1 448.3 432.5 419.9 412.9 403.8 395.3 392 392.2 390.9 388.5 391.4 400 406 409.5 422.6 435.4 441.4 454.1 462.6 474.9 489.2 505.4 528.9 528.3 517.3 506.6 495.3 485.5 476.4 459.9 448.8 434.8 429.9 431.9 435.9 439.7 422.1 385.9 369.7 337 310.2 288.2 268.3 245.9 227.1 207.1 186.5 171.4 156.9 144.9 147.6 170.2 194.7 225.3 255.7 297.2 331.9 362.3 390.3 395.9 410 423 438.3 442.6 460.1 469.4 475.7 470.5 461.1 448.2 434.2 419 405.9 403.1 393 378.2 360.9 343.1 330.2 325 318.2 316.5 323.5 334.9 353.6 370.7 383.7 389.9 392.7 394.9 397.7 396.8 394.5 393 392.2 411.8 429.8 447.7 463.6 480.5 494.9 505 480.3 438 403.9 382.7 364.1 352.6 339.7 326.2 313.5 300 282.3 260.5 234.7 238.6 225.8 215 204.8 199.4 196.2 200.6 217.1 235 256.5 280.5 308.3 339 368.5 397.3 419.4 439.5 459.2 466.7 467.6 462.1 454.1 445.8 439.6 434.8 442.6 445 448.2 453.8 454.3 458.9 463.2 455 447.2 439.2 427.8 416.1 400.1 386 371.4 357.3 345 333.9 326.5 338.1 349.5 353.1
622.5 625.9 630.4 633.6 631.9 638.3 644 654.1 664.7 676.7 684.4 685.4 688.1 707.5 720 728.5 737.8 738 699.9 662.7 642.6 606.7 596.6 595.9 592.6 594.6 591.1 576.5 571.5 565.2 556.3 540.7 536.2 525.8 511.1 503.6 496.8 487.6 469 415.6 402.3 396 391.8 389.9 389.3 388.3 382.5 380 382.3 386.9 389 393.7 403.8 408.2 412 422.9 429.8 443.7 456.7 473.5 490.5 496.1 497.7 490.8 482.5 475.8 457.8 442.8 428.7 415.6 417 423.7 430.5 425.8 409.3 368.1 315.1 306 288.3 267.7 245.6 226.2 206.4 188.8 172.6 156.5 141.7 142.5 163.5 188.3 226.5 255.4 283.7 334.2 359.2 367 380.2 394.7 401.7 420.4 429.8 447.6 456.8 471.6 477.4 474.4 466 454.1 441.8 422.9 406.4 411.2 397.4 381.8 363.7 344.6 330.6 307.7 305.3 304.5 307.1 318.3 332.8 352.2 363.7 369.8 373.8 376.7 376.5 376.4 374 376.5 397.9 416.8 434.8 452.9 469.4 485 500.2 503.5 497.7 464.7 422.6 394.3 373.1 355.9 346.3 336.1 322.7 307.9 287.5 264.1 237.6 211.3 213.6 205.2 199.5 196.8 193.5 205 217 235.1 257.7 282.7 312.2 342.5 371.9 400.8 423.3 444.5 453.1 458 457 448.2 439.4 430 423.7 429.4 434.5 441.9 449.1 455.2 466.4 467.9 464 462 454.4 441.9 425.8 407.9 392 379.6 368.8 355.5 344.3 332.7 324.8 332 338.2 338.7
614.9 615.5 620.4 624.4 619.6 625 639.3 641.7 651 658.2 659.4 672.7 680.1 688.4 698.2 708.9 719.6 722.2 680.6 653.5 623.1 599.6 570.1 568.6 563.4 564.3 565.7 539.1 529.8 526.6 521.2 508.7 502.7 502 498.4 487.6 483.2 482 459.8 433.3 416.8 399.2 396.4 391.6 391.1 389.3 386.4 380.5 378.9 382 384.8 387.6 391.8 390.6 388 391.4 399.3 414.6 425.8 441.1 458.6 467.2 471.2 470.2 469.2 463.8 451.5 431.9 402.4 395.9 411 423.2 427.3 408 375.7 332.9 292.6 276.9 261.6 242.9 224.1 204.3 188.1 171 157.9 141.5 139.5 156.7 184.1 216.5 249.6 282.4 320.1 343.1 358.4 365 379.1 388.3 402.9 419.8 438.9 451.9 463.5 470.9 479 477.3 469.7 459.8 448.6 423.4 410.1 417.3 401.5 387.2 366.7 347.9 328.8 311.1 291.7 293.4 295.5 299.8 314.8 331.4 342.6 349.1 353.5 356.5 358.4 354.2 362.8 384.7 404.3 424.2 443.5 461.8 476.5 492.8 500.5 499.7 494.2 481.7 464.5 423.6 393.3 371.3 357.3 345.5 331.5 315.1 291.3 261.9 235.6 215.8 198.1 200.2 194.5 193.7 195.3 205.1 216.5 235.3 257.3 285.1 314.2 343 374.2 402.4 426.3 442.9 449.7 447.9 442.5 431.7 425.7 417.6 418.2 421.6 431.3 439.7 451 458.2 464.7 464.8 466.3 460.3 445.1 428.5 407.4 391.1 377.8 367.1 358.9 349.9 341.2 327.9 305.6 319.1 329 324.7
606 600 601.2 600.2 603.2 606.3 621.2 623.6 627.4 633.5 644.1 654.9 662.3 670.2 679.7 693.8 702.3 720 677.6 634.2 610 583.9 554 544.1 542.5 537.7 523.2 509.1 494.1 492.4 488.5 478.3 478.6 478.2 475.6 471.4 468.1 465.3 455.8 432.4 420.8 408.3 407.8 398.6 395 395.3 391.1 389.1 380 379 379 369.8 372.8 378.3 366.3 369.4 371.4 385.9 396.6 411.9 428.7 436.6 438.2 440.4 450.6 440.4 426.8 410.5 387.3 388.7 404.6 416.6 414.5 396.2 336.5 303.8 277.4 255 240.2 216.1 200.9 186.1 168.2 156.9 143.8 135.8 152.4 179.8 205.5 241.2 269.1 310.8 333.3 343.1 353 366.6 377.2 393.5 409.3 423.9 436.2 454.1 467.4 474.7 484.1 480.5 471.4 461.6 451.7 431.4 418 415.8 404.7 392.9 374.7 357.3 339.2 322.8 304.4 286.6 282.9 288.8 299.5 309.8 318.3 326.2 334.2 340.1 338.9 353.5 375 394.3 414.3 435 452.9 469.4 484.1 494.1 497.9 493 486.5 476.9 465.1 450.5 427.6 399.2 374.5 356.7 339.1 319.5 293.5 260.1 236.4 218.4 205.4 194 190.6 196.1 196.1 203.8 216.6 235.6 257.6 286.9 317.6 348.2 375.3 406.3 425.6 434.9 436.5 433.4 424.1 418.5 411.8 409.7 410.5 416.7 426.8 440.2 452.1 454.9 456.9 459.6 455.7 444.8 425.3 407.7 394.2 382.8 370.2 355.5 348 341.4 335 325.2 319 319.4 318.4 312
579.7 583.3 583.6 582.9 589.5 595.9 604.5 606 611.2 620.2 627.5 634.2 645.8 650.4 667.2 683.8 702.3 712.5 695 643.1 596.4 569.7 540.8 525.5 521.1 525.1 500.3 478.5 473.1 473.1 473.1 473.1 473.1 473.1 473.1 473.1 467.6 464.9 456.5 430.6 421.9 418.8 416.8 410.2 404 406.2 398.5 388.1 388 387.6 379.9 364.7 350.7 358.2 355.8 355 356.9 363.8 373.2 384.5 403.9 408.9 411.3 417.8 428.6 420.1 395.5 383.7 365.8 385.2 402.3 397.8 369.1 365.3 304.9 281.1 256.2 231.2 217.8 199.2 183 166.1 152.8 140.2 132.1 143.1 170.6 199.9 229.1 249.9 291.1 315.5 325.2 332.3 355.2 368.6 383.4 397.6 412.2 429.8 449.8 466.7 476.1 482.8 485 479.5 470.5 460.4 449.3 433.7 418.5 411.9 403.3 398 384.3 367.8 351.9 333.5 315.8 298.1 282.1 280.3 284 287.9 293.8 304.5 314.3 319.5 344.7 365.9 385 403.8 424.8 443.7 461 477 491.7 494.3 492.5 486.8 475.6 469.2 461.9 453.6 441 427.7 404.4 370.6 345.5 322.1 293.3 259.1 234.8 214.4 204.7 191.1 190.9 197.9 199.1 203.4 215.6 235 258.6 287 319.7 349.5 379 408.3 419.5 425.3 426.6 420.8 415 409.3 406.6 405.2 407.1 414.8 427.7 435.8 442.7 448 452.1 451.5 440.3 424.7 407.2 393.3 385.9 377.1 366.9 356.6 345 334.4 327.9 318.8 309.1 308.2 305.6 296.4
561 567.7 572 572.5 577.4 585.5 592.5 597.6 603.2 609 614.3 621.7 633.9 651.2 665.5 682.7 686.1 700.4 717.3 675.2 609.8 561.5 530.1 510.8 500 490.5 486 473.1 473.1 473.1 473.1 473.1 473.1 473.1 473.1 473.4 471.4 465 449.5 441 434.1 429.7 428.2 418.2 410.1 406.4 398.8 389.2 391.1 392.1 384.1 369.7 352.8 338.2 336.2 339.5 341.8 346.7 356.7 370.2 382.3 385.9 388.8 397.4 404.6 392.4 348.4 341.1 363 380.5 387.7 384 343.2 324.6 280.7 253.6 230.6 208.9 192.9 175.7 164.6 149.5 139.6 130.8 143.4 161.9 188.9 218.3 243.1 273.6 296.5 305.8 315.3 341.9 354.5 370.2 387.5 403.1 415 434.5 450.6 467.2 478.4 482.4 482.4 476.5 467.1 457.2 445.3 430.9 416.2 407.7 403.3 399.5 392.4 379.9 363.3 344.6 324 306.1 287.9 271.3 273.3 270.7 275.9 288.5 300.5 328.7 352.6 375.3 394.5 415.2 435.3 451 467.2 483.7 491.4 487.4 483.8 478 467.9 461.7 455.4 448.7 439.3 428.7 417.8 391.5 347.9 320.9 292.1 259.3 235.2 212.6 198.3 189.8 189 196.5 197.6 203.6 217.1 234.9 259.5 288.9 321.3 353.9 386.5 406.5 414.1 416.1 415.9 411.1 405.4 402.5 401.6 401.9 406 417.3 428.7 437.3 445.9 448.5 447.9 436.2 421.1 404.9 392.4 384.7 379.4 373 362.8 353.2 342.4 331 323 314.5 301 297.5 297 286.1
550.3 557 566.2 574.4 580.7 584.1 589.4 595 602.1 609.4 617.2 624.5 634.7 648.4 657.6 665.2 678.1 700.3 713.9 723.3 645.3 575.8 538.9 504.9 487.3 473.5 473.1 473.1 473.1 473.1 473.1 473.1 473.1 473.1 473.1 474.3 476 473.5 469.6 476.1 454.5 450.9 447.8 437.4 423.7 417.5 407.9 397.7 396 394.7 386.2 372.2 358.7 342.5 331.1 325.9 330.5 336.6 346.2 362.6 365.8 367.4 375.1 382 388.4 369.9 333.2 328.9 351.6 369.5 370.8 338.4 321.3 284.7 259.8 233.2 207.1 191 172.8 157.7 140.2 134 128.5 142 155.9 179.3 207.6 231.2 256.5 281.2 290.3 308.8 330.1 347.3 361.6 375.4 390.8 407.1 424 438.2 453.8 468.8 478.2 479.8 478.6 473 461.2 451.5 438.6 423 410.4 406.9 405.3 401 395.6 387.2 373.5 356.6 335.3 312.9 293.6 271.4 265.5 263.8 265.1 273.9 302.1 328.8 355.9 379.9 404.4 426.4 441.5 455.7 471.3 484.4 484.9 481.1 475.9 468.7 459.1 451.6 444.9 439.6 431.6 426.6 421.8 404.9 353.3 319.6 291.9 260.9 236.4 213.7 195 189.9 188.9 194.9 196.7 205.1 217 234.6 259.6 289.4 324.2 360 386.2 399 404.8 405.1 404.7 401.3 398.3 395.5 395.3 402.6 413.9 422.8 431.6 440 446.1 446.6 437.9 418.4 402.5 389.9 382.2 378.2 374.1 370.2 362.8 352.8 343.8 331.5 321.1 312.1 304.3 280 278.9 272.8
549.3 554.7 566.3 576.5 578.9 584.2 592.3 598.8 603.6 608.2 612.2 618.3 626.7 634.4 646.6 659.3 689.1 702.6 723 741.2 660.8 600.4 570.9 502.7 481.9 473.1 473.1 473.1 473.1 473.1 473.1 473.1 473.1 473.1 473.1 476.5 482.6 483 477.2 474.9 475.6 468.8 477.1 470.1 452.8 446 420.6 410.6 405.1 403.5 393.5 376.6 364.1 347.1 329.7 323 320.7 332.9 343.6 355.2 365.2 360.7 361.9 364.8 373 362.8 317.7 307.3 329.3 343.5 324.2 295.6 272.2 250.9 234.7 212.3 189.9 181 166.6 145.9 132.2 124.9 131.2 150.1 172.2 201.2 225.8 250.1 266.6 276.1 293.6 319.9 338.3 355.2 370.2 386.6 403.4 417.1 433.4 455.4 466.7 475.1 478.5 479.4 476.6 467.7 457.6 444.7 427.7 413.8 405.8 403.7 401.9 398.6 393 386.6 375.5 362.2 344.4 320.3 298.2 277 256.5 256.8 261.3 281 298.9 326.4 355 381 406.7 429.4 441.6 456.3 472.3 479.4 477.2 474 468.8 461 451.8 442.2 435 430.4 425.9 427.6 419.2 407 361.5 321.3 290.8 263.6 238.9 214.6 197.6 190.7 187.1 193 196.5 204.9 215.8 232.3 256.9 289.5 327.7 359 378.6 388.1 392.8 395.1 395.4 395.5 392.3 396 400.2 409.1 418.8 426.8 434.3 441.2 443.3 435.7 419.2 401.4 384 373.4 371.6 370.1 370.5 369.1 362.8 354.2 345.2 335.5 327.5 320.9 313.6 301.7 286 271.6
560.5 559.3 562.6 566.1 571.1 580.3 587.4 596 603.8 607.1 612 619.3 631.7 637.8 650.7 669.7 700.7 720.8 737.4 759.8 699.2 617.6 559.9 516.3 480.8 473.1 473.1 473.1 473.1 473.1 473.1 473.1 473.1 473.1 473.1 476.8 485.9 490.2 493.1 494.2 500 504.6 494.4 494.3 478.8 471.7 440.2 424.7 412.4 404.7 395.6 383 366.8 344.8 331.5 317.2 316.6 333.3 345.2 362.1 367 358.4 353 352.3 354.1 344.4 292.7 278.6 301 306.9 298.9 262.7 245.1 221.8 206.6 190 176.9 171.9 155.7 135.9 124.2 130.4 148.3 166.6 193.5 220.3 240.4 256.7 263.1 284.6 309.2 325.8 344.4 361.2 383.8 401 416.9 430.9 448.4 462.6 471 479.4 482.5 482.9 474.6 464.9 455.3 439.5 419.9 406.8 400.6 398.4 395.4 391 385.9 383.1 374.2 367.2 348.5 324.7 302.2 281 263.4 250.1 259.6 277.9 297.2 323.5 352.6 380 406 427.5 438.3 454.8 468.9 472.4 470.8 467.5 460.4 452.6 440.3 432.7 426.8 422 417.5 415.8 410.3 401.3 381.9 329.7 292 262.2 237.1 212.1 198.1 190.3 186 188.3 196.6 204.6 214.4 229.4 256.4 289.1 329.3 356.4 370.5 377.1 380.5 383.9 385.6 388.1 390.8 398 406.1 415.7 421.5 429.9 438.2 439.4 435 422.7 403.1 382.4 368.9 363.8 362.1 364.3 365.4 368.6 364.8 356.7 349.8 344.6 340.6 335.8 329.5 321.3 311.2 301.9
544.3 552 557.2 564.2 573.1 581.8 594.8 597 606 610.4 625.6 639 651.8 660.7 668 680 708.1 729.4 751.9 767.7 770.2 640.6 583.5 539.6 486.5 473.1 473.1 473.1 473.1 473.1 473.1 471 479.5 473.1 473.1 476.8 487.5 496.6 506.2 515 528 536.3 532.2 522 504.8 495 458.2 440.6 419.1 409.1 397.9 386 371 342.8 322.8 312 312.6 329.5 347.1 367.6 366.2 360.7 351.7 341 333.1 327.1 274.6 261 269.9 259.2 252.1 226.3 215.9 199.7 182.4 173.2 165 157 142 128.3 126.6 144.5 163.4 190.3 207.8 227.4 244.6 251.8 279.1 300.4 320.6 338.4 357.4 380.2 393.1 414.5 429.2 445.1 464.4 472.4 475 481.7 483.5 481.6 471.2 461.3 449.6 432.2 412.1 401.7 394.8 390 385.9 382.2 378.8 377 371.5 362.5 345.5 324.3 302 281.8 264.3 252.6 254.6 271.8 292.8 321 349.4 375.9 400.7 417 433.3 450.7 464.2 465.4 465.2 463.4 458.2 450 436.7 420.3 412.5 409.3 407.3 404.3 399.9 393 377.7 341.7 296.2 261.4 234.2 210.3 196.9 190 185.6 186 196.2 203.2 212 226.6 252.8 287.2 326.1 349.5 358.9 365.1 368.6 370.7 382.6 386.7 394.1 404.3 414.1 418 421.9 427.6 429 433.4 424.3 410.9 388 370.8 357.6 353 351.2 359.3 369.1 371.7 370.3 367 362.1 358.8 355.3 352.4 348.3 342.3 334.8 328.2
546.9 552.7 556.5 569.1 574.1 591.4 598.4 611.2 612 621.9 634.6 653.8 666.7 673.8 689.9 700.1 722.1 744.1 758.7 772.4 782.7 750.7 651.9 577.5 509.9 488.7 479.5 474.2 474.2 475.6 490.4 490.9 489.7 486.8 497.8 480.9 493.6 509.2 521.5 537.1 558.6 564.1 556.6 545.9 532.1 510.9 490 459.6 438.1 416.2 399.2 383 377.5 352.2 329.4 312.8 309 328.1 348.4 366.5 365.9 352.9 347.6 336.3 322.7 297.5 256.9 243.1 238.1 222.2 204.9 193.6 187.4 175.2 164.7 157.2 147.8 140.7 129.6 121.7 136.4 160 183.4 206 229.9 242.5 252.3 270.6 292.9 315 336.7 357.8 377.5 394.4 412.4 429.3 440.9 456.1 467 473.7 479.5 483.3 483.7 476.7 467.2 456.9 442.3 423.6 405.3 394.5 386.8 380.5 377.1 375.9 374.5 371.9 365.2 354.9 338.5 320 300.2 281.2 263.4 250.6 252.4 267.8 292.5 318.9 343.7 368.7 394 407.9 426.3 445.2 455.7 460.1 460.9 460.7 456.8 448.7 434.3 415 393.4 389.8 391.1 390 387.6 382.3 368.5 346.4 296.8 262.7 234.3 211.4 194.7 189.2 184.3 186.2 193.6 199.9 209.2 223.1 249.9 289 324.3 339.9 346.1 350.3 363.3 372 380.6 386.1 395.4 405.6 415.9 417.7 418.2 423.7 421.4 417.3 407.6 391.7 376.1 362.9 348.6 341 342.7 360.5 372.4 375.4 375.3 376.5 374.8 372.4 370.9 369.9 366.6 362.1 356.4 351.1
546.8 552.5 555.1 563.5 572.2 586.8 596.9 607.4 623.9 639.5 653.2 668.5 677.3 685.4 701.6 716.7 733.9 751 763.7 773.7 785.3 784.6 655.5 583.9 539.5 518.9 508.5 497.3 504.5 514.3 520.5 519 512.5 516.6 537.8 509.1 521.9 540.7 555.6 561.1 568.2 555.6 549.4 535.6 524.2 499.9 479.7 463.9 447.9 407.7 399 372.9 358 339.4 325.1 305 306.9 326.2 347.3 359.3 358.3 345.9 342.8 326.9 312.7 263.4 238.1 218.2 204.7 189.5 173.4 164.7 161.2 152 147.2 142.7 133.1 126.8 118 130.8 154.8 178 198.6 218.2 239 254.9 270.6 281.6 308.9 330.5 352.1 374 394.4 412 430 447.7 457.4 463.4 471.9 479.7 482.4 483.1 479.4 470.6 461.2 449.8 432.7 410.4 395.9 386.2 377.7 370.7 369.5 369.5 367.1 360.5 356.6 345.4 329 311.2 292.3 275 259.8 245.9 249 266.4 292.5 315.1 337.9 361 382.4 400.1 419.4 436.7 447.2 451.9 455.2 457.2 455 449.4 435.4 414.8 386.9 372.4 373 374.3 372.1 365.8 357.1 338.6 302.9 264.7 235.7 210.7 192.7 187.9 183.5 184.1 190.7 198.4 207.8 222 250.4 286.2 313.5 325.8 338.6 350.5 359.7 368.9 378 385.4 393.2 402.8 408.2 410.4 413 415.1 411.4 405 393.5 379.5 368.6 351.6 339.6 332.9 338.3 358.2 371.7 375.5 380.5 387 386.2 381.8 380.6 381 377.5 376 371.6 366.5
548.6 552.4 555.7 559.5 577.1 587.7 600.4 609.2 623.5 650.1 664.1 680.3 693.8 706.6 718.5 734.1 747.9 759.5 766.1 775.9 777.2 772.4 681.4 685.4 590.2 551.5 540.9 550.3 550.5 556.3 560.1 556.2 558 557.4 568.8 574.5 565.2 579.5 576.1 568.4 551.8 542.6 529.3 516.9 500.2 483.5 463.8 448.9 439.8 397.3 383.9 361.7 341.9 317.8 303.2 291.2 300.2 317.6 330 345.5 346 336.7 324.9 297.8 286.7 257.6 212.8 191.9 174.1 160.7 151.2 146.8 137.6 135.7 131.1 128.5 120.3 118.1 125.2 143.9 167.2 190.3 210.8 233.4 248.7 265.9 282.5 302.4 324.8 346.9 369.3 393 415.2 433.9 448.6 458.2 466.9 473.4 477.6 482.6 483.5 482.6 472.9 463.5 453.8 439.7 422.6 400.5 388.8 379.7 371.8 363.8 361.4 360.6 357 349.3 345.2 335.5 317.7 299.3 282.9 267 251.7 238.4 248 267.6 293.2 311.7 332.6 353.9 374.7 395.1 413.4 429.2 440.2 445.4 450.5 454.5 453.9 449.7 437.1 416.2 384.6 362.6 357.4 358.5 356.3 351.4 344.7 330.6 302.7 265.9 236.3 210.9 191.7 187.1 183.8 182.9 187.1 196.5 203.7 222.7 250.7 274.2 301.6 322.4 337.6 347.2 355.8 365.5 373.7 381 388.3 395.6 399.5 402.5 405.8 405.9 401.6 393 382 371.9 356.1 340.5 329.5 323.7 337.4 358.1 366.2 376.2 385.7 388.6 389.5 384.8 379.2 376.1 372.7 373.6 371.8 369.5
550.7 558.9 559.1 569.1 582.6 590.7 605.1 618.5 638 659 679.5 695.6 714.9 725.4 737.6 750.1 757.7 762.8 767.2 762 758.1 754.1 718.3 714.7 621.2 591 589.9 591.4 603 611.3 606.2 614.5 608.7 615.7 621.1 617.3 602.1 588.6 576.3 560.9 542.4 522.8 508.2 500.7 483.5 465 447 423.9 425.5 391.8 361.7 353.4 339.1 300.6 277.8 277.5 282.8 289.4 309.5 327.1 322.2 315.2 290.8 265.2 235.1 223.2 189.8 168.8 145.8 138.5 137 131.1 124.9 124 117.9 115.3 119.9 124 132 156 182.3 202.5 226.3 239.4 256 275.8 295.4 317.9 339.9 363.7 387.9 411.3 437.5 449.6 458.7 467.8 475 482.9 486.4 487.6 486.3 477.5 466.7 454.9 441.8 427.7 407.2 390.1 379.4 373.9 369.9 364.8 357.1 351.1 345.1 341.2 334.3 319.9 306.5 289.5 271.8 257.8 244.8 236.7 244.3 265.5 293.1 309.9 327.6 348 369.9 389.6 407.1 422.3 431.5 440.8 446.7 452.8 453 450.8 438.5 416.4 387.6 365.4 347.5 346.3 344.2 342.8 335.1 325.4 304 265.7 235.5 210.8 191.8 186.3 182.8 183.2 187.4 194.1 199.4 224 252.6 284.9 307.8 321.8 332.7 342.7 352.4 361.8 366.2 373.4 379.7 388.8 391.5 396.2 398.2 397.9 392.4 383 371.9 355.7 341.4 331.4 317.7 318.1 332.4 346.9 360.1 373.3 383 384.7 384.1 378.7 372.6 366.3 362 358.5 359.3 362.3
557.6 560.1 564.2 572.6 583.8 594.6 615.8 630.5 652.8 673.6 694.5 710.3 725.4 738.1 750.9 758.2 762.6 760.5 749.5 742.5 732.5 730.1 729.8 698.1 647.5 643.2 638.1 636.2 647.9 660.4 650.8 667.8 652.8 649.3 640.1 614.9 596.1 580 567.5 557.7 533.7 518 502.2 484.2 470.2 448.5 425.6 401.4 404.3 368.7 348 344.3 308.9 284.1 261.5 267.9 267 269.1 281.3 302.3 283.6 286.9 278.9 236.9 202.4 182.8 161.6 147 133.5 125.4 122.2 116.7 114.7 113.3 114.3 119.7 124.3 127.9 145.7 174 196 215.5 225.9 245.5 266.7 288.7 311 332.8 356.9 383.4 406.5 432.5 451.6 464.1 475.5 484.9 492.7 496.7 496.6 487.9 480.2 469.8 456.6 442.9 428.9 415.4 393 377.2 370.1 365.3 364.6 359.2 352.3 342 335.8 329.2 322.4 308.7 290.2 276.6 259.1 248.1 240.7 230.3 241.1 266.6 293.3 308.9 324.2 343 364.3 383 398.8 412 420.9 435.7 446.6 453.3 453.9 451.6 439.3 417.9 390 368.5 350.1 337.6 336.4 332.4 325.6 318.1 302.2 265.1 231.5 207.1 189.6 185.2 182 182 189.8 195.7 209.1 231.8 255.1 277.3 301 314.1 322.3 335.4 342.9 349.3 354.6 363.3 373.3 378 383.1 390.7 391.7 390.1 383.8 371.7 353.8 342.2 330.7 318.6 309.2 311.3 323.4 339.5 360.1 371.3 378.4 378.8 375.5 371.1 363.7 354.3 346.7 340.8 343.7 350.6
569.8 573.8 578.4 585.5 605 614.1 633.7 649 666.2 692 713 731.4 744.1 752.3 755 756.2 758.4 737 718.4 714 709.3 706.3 707.1 708.4 696.9 686.2 694.1 671.3 683.1 688.2 679.8 668.7 656.2 645.5 636.8 604.3 581.7 568.9 564.5 553.4 521.5 507.2 495.1 487.3 460.2 432.4 410.7 384.8 376.7 354.2 334.7 326.6 295.2 264.2 238.6 258 264.1 255.4 265.6 263.2 245.9 243.3 217 191.9 174.8 156.4 138.4 127.3 119.8 119.3 115.8 110.8 114.3 117 118.2 125.1 132.2 137.1 155.6 183.9 203 211.2 232.2 256.5 279.7 303.5 326.9 350.6 376.1 400.2 426.3 450 465.2 477.2 490.9 500.1 502.2 500.2 490.6 479.5 467.8 454.6 440.6 426.8 413.1 395.7 376 367.2 363.2 357.7 353.8 348.7 344.3 337.8 329.4 316.5 310.9 294.3 276.1 261.9 246.2 240.6 232.9 221.1 241 267.3 291.4 306.1 319.8 336.9 355.1 372.4 392.1 406.5 423.6 438.5 449.4 456.1 456.2 452.7 440.8 419.1 392.3 371.4 353.2 338 327.8 322 318.9 309.7 293.8 263.5 228.3 204.2 187 182.5 180.3 180.8 186.2 196.2 211.6 229.1 249.5 268.2 285.7 301.7 315.2 324.9 326.8 334 341.8 355.9 355 371.6 380.2 386.1 389.2 382.1 372.9 357.9 344.6 330.1 317.8 309.7 302.5 310.6 325.8 347.1 363.9 372.3 372.9 371.6 366.8 359.9 349.5 336.1 328.7 320.2 330 342.2
581 590.7 599.3 613 626.5 644.8 663.5 678.4 696.7 722.2 740.6 751.4 756.5 754.7 740.3 724.6 724 694.2 680.7 678.7 676.9 675.6 682.1 691.9 693.1 688.3 682.1 681.8 685.7 688.2 681.5 669 648.6 628.3 609.7 576.4 556 552.6 549.3 530.9 511.7 487.8 483.5 485.7 457.2 427.2 406.1 377.2 365.2 347.1 324.9 302.8 289.6 245.1 222.5 237.1 231.8 224.7 236.9 226.1 211 197.6 182.2 161.6 143.3 132.2 120.6 111.8 110.2 110.8 110.4 114.1 117.7 120.1 123.6 125.4 129.1 139.4 160.4 178.1 195.6 221.2 245.1 270.1 294.2 318.8 344.1 368.7 393.3 419.9 445.2 465.6 480.7 491.5 499.7 505.2 507.6 498.4 483.9 470.3 454 436.9 422.6 408.9 392 376 367.5 363.5 358.7 353.1 344.2 341.1 337 331.1 324.2 314 296.3 280.4 259.4 243.9 230.7 224.3 219.6 217.3 241.3 267.6 285.5 299.2 320 341.9 361.1 380.4 396 413 429.9 443.3 454.2 460.4 460 455.9 442.2 422 396.3 373.5 356 339.1 324.3 315.5 309 299.3 283.8 260.3 227.3 199.5 185.1 179.1 179.7 180.1 187.1 198.5 213.5 228.4 242.9 264.3 274.7 290.9 300.6 317.7 322.3 322.6 335.2 347 355.1 369 380.4 386.3 384.9 374.9 360.4 346.4 331.7 316.4 309.1 301.5 296 309.9 330.2 348 359.6 365.1 366.9 364.7 358 341.7 326.1 314.7 306.9 300.2 315.6 336.5
599.1 611.7 624.7 636.5 651.2 672.5 695.6 714.8 732.5 751.4 763.3 765.2 749.7 726.5 708.9 681.7 674.6 652.4 642.5 639.9 640.1 642.6 657.1 671.8 673.6 670.8 673.2 681 685.5 685.7 676.2 665.4 640.3 608.2 578.1 548.9 531.9 531.4 521.2 498.3 482.4 473.1 461.8 461.9 447.6 430.4 408.2 381.8 359.4 329.1 301.7 275 253.4 230.4 208.9 198.7 208.8 201.8 196.9 189.9 180.4 168.5 150.6 134.2 120.2 112.6 107 104.7 105.5 105.5 107.9 115.8 118.9 120.6 124.4 130.1 140.2 155.3 173.4 192.6 212.3 232.2 259.1 283.7 309.4 332.7 359.9 385.6 412.2 438.9 461.1 476.8 488.7 498.1 503.6 509.1 508.2 495.2 479.3 463.8 442.1 420.4 400 388.1 375 368.2 364.4 359.8 352.9 345.4 337.5 334.8 329.8 322.4 315.6 307.9 289.9 265.6 238.1 223.9 214 210.4 205 224.6 248.5 272.8 290.7 308.3 328.7 350.9 370.3 389.1 404.8 422 437.2 451.9 461 465.9 463.2 457.2 444 424.9 400.5 373.1 354.5 338.5 324.9 314.4 297.8 288.8 273 254.3 222.6 194.4 183.4 179.9 178.9 181.5 186.4 198.4 211.9 223.7 238.1 255.6 267.5 276.7 285.4 293.5 302.9 300.9 321.8 348.7 364.3 374.4 382.2 384.6 379 368.2 352 336.1 319.7 308.3 300.7 294.2 293.3 311.4 330.2 344.6 355.1 360.9 360.5 358.1 349.5 327.7 298.5 290.8 284.2 293.8 314 330.6
617.4 636.5 654 673.1 688.7 707.4 726.4 743.3 757.9 764.5 765.8 756.6 715.4 694 674.8 647.9 634.6 625.7 608.6 599.2 599.5 612.5 623.8 636.8 647.2 653.5 664.9 677.7 682.3 673.8 662 649.7 616 576 547.6 530.5 505 507 495.6 471.1 458.2 445.7 444 446.9 440.6 426.1 416 393.9 367.1 344.6 317.7 266.3 238.7 212.1 195.1 176.6 170.5 162.6 159.2 154.2 149.7 138.8 126.6 115.2 104.8 103 103.1 109.4 111.8 113.1 110 113.7 117.7 121.8 128 139.3 151.8 166.7 185 205.7 226.8 248.9 270.2 296.3 321.5 348.2 375.4 401.5 429.8 454.3 467.4 477.3 493.5 497.6 506.4 511.6 507 491.9 475.3 456.6 430.9 406.8 385.4 370.5 362.7 359.5 355.5 351.7 346.5 343 336.7 326.5 315.9 311.3 306.1 297.9 280.4 257 226.1 206 202.2 196.7 206.2 230.6 254.1 276.7 294.5 313.9 335.1 357.7 378.5 395.8 412.1 427.8 443.5 460.5 466.6 469.4 465.8 458.4 445.2 426.5 403.4 374.9 355.2 338.3 326 313.9 295.4 271.2 263 239.1 215.1 195.2 182.4 178.6 178.2 181.1 189.7 198.3 209.7 225.7 241.5 253.8 257.4 263 268.9 282.2 296.2 318.2 341.5 360.9 373 383.7 389.2 384.6 373.8 359.6 346.8 329.2 312.2 301.9 292.9 286.5 293.8 309.8 327.9 342.2 351.4 354.1 353.1 349.5 340.3 319.7 296 269 274.8 288.8 309.2 322.1
645.9 667.1 686.5 704.2 720.1 735.5 747.2 755.5 761.3 763.5 763.6 737.4 694 665.2 649.3 622.8 604.9 592 568.3 560 576.3 575.7 587.9 598.4 612 632.4 652.7 669.6 673.1 661.4 658.2 639.6 599.4 561.5 539.7 517.7 488.7 485.3 472.5 448 433.9 428.3 427.1 435.7 429.4 421.7 420.9 398.9 364.9 340 322.1 296 242.1 207.6 185.3 170 154.4 144.8 143.5 132.1 124.9 119.1 109.6 101.7 100.1 106.5 106.6 110.2 112.6 115.3 110.5 116.2 119 122.5 134.6 146.4 159.1 176.9 194.9 215.4 236.8 258 284.1 307.9 336.2 361.1 386.1 417.4 444.3 458.5 467 480.7 490.1 500.6 509 512.7 504.3 490.5 476.7 455.8 434.5 407.1 385.4 376.5 371.3 365.2 358.2 351.6 344.1 335.5 331 325.6 317.4 305.2 293.7 286.9 265.7 242.4 215.2 196.7 190.8 186.7 211.6 237.1 259.3 279 298.9 319.2 340.6 363.6 384.3 402.1 418.9 436 452.3 468.7 472.7 472.4 467.5 459 445.5 426.2 404.6 379.8 355.1 340.4 328.1 314.3 296.8 273.2 246.5 225.1 203.7 189.2 180.4 177.4 177.2 180.7 191.4 199.9 215.2 233.1 252 266.6 277.1 287.8 296.3 311.7 329 347.2 362.5 372.6 384.8 395.2 392.5 380.7 368.4 354 339.5 324.1 305.8 294.2 285.7 278.9 293.9 310.7 326.6 337.1 345.1 346.7 345.4 340.9 331.7 314.5 283.2 259.9 271.4 285.2 300.1 307.5
682.1 701 717.2 730.7 741.4 747.4 752.5 757.3 760.5 759.3 753.3 727 691.1 646.2 621.1 597 575.7 563.6 558 546.3 546.1 541.5 548.6 560.6 580.4 605.7 624.7 647.4 654.6 651.9 639.1 620.4 589.1 550.6 518.9 494.7 475.1 466.5 450.7 431.8 417.6 417.7 413.2 413.2 422.3 402.8 412.6 384.8 364.7 332.4 316.2 280.3 244.5 208 176.4 154.6 142.3 128.8 122.7 111.9 106.5 102.7 99.3 99 104.1 106.5 108 110.9 113.3 117.6 118.4 115.8 120.3 128.4 137.7 150.5 166.4 185.6 203.7 221.8 243.7 268.2 289.7 317 345.8 371.8 396.4 425.5 442.8 452.1 463.5 474.2 485.1 498.2 506.8 504.3 496.9 491 477.6 463.8 448.1 421.7 398.4 386.3 377.2 374.6 371.9 364.6 353.6 341.9 329.8 320.7 316.4 309.6 297 279.8 253.4 219.9 202.3 189.7 182.4 193.8 213.7 236.4 259.7 281.7 303.3 325 347.7 371.6 389.1 407.4 426.4 446.3 459.9 471.7 474.7 472.9 466.5 456.8 445.1 426.7 405.9 382.4 359.5 343.2 329 317.5 302.1 277 253.7 238.7 205.1 187.3 179.2 175.3 177.1 184.7 194 206.6 224.6 244.5 265 279.4 295.1 312.7 327 340 355.2 367.3 376.5 384.5 394.7 395.5 385.4 375.6 365.4 351.7 334.4 319.3 303.2 289.2 279.7 274 289.4 306.5 322.3 332.5 338.3 338.2 337.3 333.1 321.2 299.4 260.8 259 269.1 281.7 290 290.1
707.9 721.6 731.7 741.9 743.9 736.9 738.2 741.9 747.6 745.1 738.6 727.7 679.2 635.1 604.5 580.7 560 550 550.5 526.1 521.4 515.2 524.4 533.3 563.8 576.7 595.1 618.6 628.6 627.9 615.9 600.3 577.8 544.1 502.8 481.9 465.3 452.1 430.8 415.9 410.2 403.4 401.1 402.6 399.1 384.8 386.3 370.4 354 314.5 300 265.2 241.8 197.6 168.9 142 124.4 110.9 107.7 104.5 101.1 99 98.7 101.1 104.3 106.5 108.6 110.9 114.8 118.7 121.7 115.1 114.1 127 136.2 156.3 173.3 190 208.8 224.7 245.1 266.8 292.8 324.1 350.6 375 397.6 423.4 434.1 446 456.8 466.8 476 483.7 488.6 495.9 490 491.1 477.7 466.5 452.5 429.3 411.1 395.1 385 384.2 385.1 377.4 366.1 354.2 346 331.5 318 305.4 291.6 270.9 248.9 223.7 203 184.8 176.1 194.7 211.8 236.7 261.8 286 308 330.4 352.9 374.7 392.4 410.8 430.8 450.4 463.1 471.8 471.9 469.4 463.9 455.6 443.5 426.3 404.4 382.8 361.4 349.8 338.7 323.6 299.9 296 266.8 223.5 194.8 181 176.7 174.8 182.8 191.6 200.5 214.7 235 258.6 277.6 296.1 314 331 347 358.6 369.5 378.6 387.8 396.6 395.5 389.6 382.3 373.8 365.7 355.6 338.2 320.1 300.9 283 272 272.5 286.6 305 320.1 327.4 329.1 329.6 328.8 323.1 312.4 285.7 248.8 256.3 271.3 273.7 278.1 267.6
718.6 727.7 718.2 707.8 696.7 697.2 698.9 705.6 713.4 723.1 719.4 713.8 684.6 630.6 596.3 568.4 550.8 538 530.7 508.3 496.3 499.4 506.7 521.7 541 555.5 572.6 589.4 607.3 604.8 596.4 582.5 568.4 540 501.4 475.4 453.8 448 420.6 402.8 399.2 389.4 383.9 379.7 371.6 371.2 368 352.8 333.4 297.2 267.7 248.4 223.9 181.2 152.1 128.2 112.8 102.7 102.7 101.5 99.2 96.9 98 101.6 104.1 106.4 108.2 112.3 115.5 119.5 123 126.8 132.3 124.1 144.9 163 176.5 189.3 207.1 226.9 248.6 271.8 301.1 330.1 355.2 373.6 391.1 406.8 423.1 433.3 445 451.8 461.7 466 474.1 479.1 485.1 487.3 477.2 465.2 446 429.4 413.3 396.9 393.5 394.4 401 394.7 382.8 370.4 356.6 343.6 326.3 305.9 286 263.1 242.4 220.5 196.6 182 174.7 193.4 211.6 235.1 264.3 288.1 310.5 333.6 356 377.6 395.3 414.2 433.1 451.7 464.4 469.5 469 466.1 460.5 452.9 442.5 425.5 402.9 383.6 375.6 361.5 335.7 329.8 306 273 237.6 210.2 187.4 176.7 173.8 175.3 181.6 201 216.7 225.6 248.1 268.8 292.5 310.6 330.1 349.8 362.6 372.1 381.2 390.9 399.2 393.8 387.2 383 376.3 370.6 363.3 351.8 335.8 317.5 297 279.1 266.2 267.9 276.9 300.9 313.1 318.7 320.1 318.5 316.5 312.8 301.4 277.1 240.8 253.9 260.2 258.9 254.2 243.5
703.6 688.7 678.6 662.2 655.3 655.2 659.6 667.3 678.6 698.9 698.9 697.1 690.5 638.3 600.7 571 545.9 514.4 499.5 483.6 484.1 497.5 506.7 514.2 521.3 541.3 557.6 571 578.8 589.7 578.5 565.1 551.3 529.4 496.4 473.4 451 435.9 406 388.6 386.7 373.2 366 357.4 347.3 340.2 335.9 326.8 295.6 252.1 246.5 222.1 194.6 161.6 131.5 112.7 101.6 97.7 99 98.5 98 95.8 97.8 101.5 103.9 106.2 109.2 111.8 115.8 119.3 123.5 132 142.6 151 147.1 167.3 182 198.9 213.2 232.7 255.8 281.6 310.2 336 347.1 366.4 379.4 394.8 400.3 419.1 427.7 439.4 449.6 453.1 465.5 467.8 479.5 478.3 470.3 457.5 439.7 431.1 414.7 401.2 394.7 399.3 403.2 399.2 389.6 381.1 367 353.5 337.8 312.4 286.2 265.7 238.3 213.4 189 175.9 168.7 190.5 210.6 236.6 265.6 288.7 311.5 334.7 359.1 377.4 396.2 415 433.4 449.8 460.6 464.6 464 462.1 455.8 448.4 437.6 421.1 408.9 399.1 373.9 369.1 347 313.6 281.5 245.4 220.6 197.6 182 175.5 174.2 177.6 188.8 201.7 218.7 237.3 259.4 285 307.9 330 347.3 362.6 373.2 380.7 389.4 390.4 389.6 383.9 380.6 376.1 370.1 363.4 356 344.6 331 314.5 294.5 276.7 263.1 262.1 275.6 295.1 303 309.5 310.9 309.4 308.3 303.5 291.2 272.2 239.9 240.1 240.9 237.6 233.8 246.1
669.1 651.9 637.2 625.8 623.1 622.5 627.3 633.4 646.9 670.6 679.1 682.4 677.2 647.8 603 571.2 544.3 517.7 493 476.8 480.1 492.3 498.5 507.8 519.4 527.9 534.4 557.1 573 583.1 562.9 550.1 533.4 518.8 490.1 471.3 450.7 423.5 383 360.7 354.9 350.2 347.3 336.7 322 311 298.9 288 237.6 218 202.5 190 165.2 138.7 114.3 102.2 95.6 95.4 95.2 96.8 95.8 95.8 98 100.8 102.3 104.8 108.5 111.1 113.9 119.4 129.1 142.5 155.8 166.8 162.8 167 183.6 199.2 218.8 241 265.8 287.8 314 322.8 330.8 352.1 363.7 375.1 389.8 403.2 418.9 434 440.3 451.1 455.2 462 464.3 465.4 463.7 446 431.9 422.6 409.3 398.4 391.5 398.4 396.4 386.6 384 381.3 369.7 350.8 339.3 315.8 288.3 259.2 229.8 202.5 179.2 166.3 175.2 190.5 210.6 238.8 266.1 289.3 312.1 334.7 360 376.6 394.3 413.8 431.7 446.1 453.9 458.3 458.6 457.3 450.6 442.3 430.7 422.1 408.1 404.7 398.6 374.4 330.6 287.8 257.1 230.8 206.5 188.7 177.9 172.8 173.1 182.1 194.1 211.1 229.3 249.9 277 303 324.3 343.1 358.7 368 375.5 381 381.6 379.9 376.4 374.2 371.9 367.1 359.6 353.5 344.5 334.3 322.2 305.5 290.1 274.8 260.3 256.6 271.7 290.6 300.6 302.6 300.4 299.6 296 288.3 273.4 257.7 239.1 219.2 219.8 233.8 251 263.2
631.4 613.8 601.2 594.8 594.3 594.7 599.3 606.5 619.8 640.7 663.7 672.5 667.5 649 596.8 565.6 539.3 514 493.6 477.7 473.6 480.4 486 498 510.9 523.7 527.7 550.4 570.1 572.7 547 533.2 519.1 501.6 481.6 464.6 448.2 410.1 370.5 342.2 331.8 323.3 325.3 309.8 293.3 279.1 256.1 232.9 207.8 190.1 175.7 161.7 142.7 117.3 103.9 93.4 92.9 93.4 91.8 93.7 95.8 97 99.2 101.2 102.7 103.8 106.5 109.5 116 128.5 142.6 157.8 172.5 185.1 184.8 173.7 179.5 199.1 221.6 249.5 269.8 285.9 297.9 303.7 325.6 336.5 347.8 366.1 385 396.4 412.7 420.5 434.4 440.5 442.7 451.6 453.4 454.7 444.9 434.2 422.9 414.9 403.3 391.3 384.9 387.5 380 374.7 375.3 373.8 359.8 351.3 339.8 313.7 277.9 250.6 219.1 190.5 170.3 156.2 173.9 194 215.3 239.7 264.2 288.1 311.2 334.9 357.9 378 395.2 414.3 428.4 440 446.6 452 454.3 450.5 442.6 436.7 428.2 419.1 420.2 410.1 386.7 354.4 316.5 274.5 244.1 219 197.4 181.8 174.4 172.1 174.8 187.8 201.7 221.7 239.7 263.2 290.4 316 334 346.4 357 360.2 361.8 365.1 366 365.7 365.3 365.8 362.3 358.7 351.4 343.5 334.4 325.1 315 302.1 285.8 272.5 258.2 253.6 268.4 287.8 299.2 294.7 292.5 291.3 286.4 273.4 254.3 236.7 220.3 216.4 230.5 248.6 264 278.2
597.9 582 571.9 567.9 567 566.8 572.5 582.2 595.8 619.6 650.7 662.2 661.1 641.7 590.1 557.7 531.4 510.6 491.4 474.5 465.8 469 477.3 495.6 507.8 519.2 524.3 536.1 548 545.7 527.6 516.7 501.4 482.6 468.7 454.9 438.6 395 360.2 332.6 304.7 293.9 293.2 282.8 265.6 250.3 231.9 204.4 188 168.8 153.7 136.9 119.9 106.3 95.5 91.2 91.7 91.8 91.9 92.6 94 96.2 98.2 99.8 101.3 103.6 105.9 113.2 126.3 141.4 158.3 175 190.2 203.4 202.6 194.8 189.6 193.5 220.2 247.9 266.8 279.5 286.6 301 316.8 325.7 342.8 361.1 373.9 385.7 397.5 409.6 421 431.6 439.9 446 447.9 447.8 440.3 425 414.6 402.4 389.3 378.4 366.8 366.7 361.7 357.7 356.5 355.5 353.7 348.7 335.5 302.8 270.1 238 207.2 180.9 161.8 157.3 176.1 195 212.8 236.9 261.7 286.1 310.3 335.9 358.5 378 396.7 412.9 426.1 435.9 443.4 447.8 448 443.1 437.7 431.8 427.3 426 416.2 399.4 365.2 327.5 294.6 255.8 226.9 199.6 184.7 177 170.6 170.9 182.1 195.3 211.5 232.1 251.7 276.9 303.6 322.6 328.6 331.7 335 340.7 346.1 347.8 350 354.5 359 358.8 354.7 349.6 341.7 334.3 325.3 316.2 304.7 293.3 280 267.8 255.9 247.6 264 279.4 289.5 284.1 280.5 281.2 276.6 259.6 236.7 216.8 213.1 227.8 248.5 262.8 275.3 290.7
569.1 554.9 546.2 542.9 542 537.6 545.7 559.5 582.4 611.5 632.6 648.7 650.6 636.2 587.1 548 521.7 501.1 484.3 471.1 463 467.3 479.3 493.1 500.2 507.9 519.2 526.7 529.5 523.5 514.6 497.2 480.6 465.3 451 440.6 419.4 383.4 352.2 327.7 304.1 279.1 270.4 258.9 244.2 223.5 198.7 171 155.9 140.4 131 121 109.5 99 92.2 90.5 91.1 91.7 92 92.6 92.9 95 97.1 98.2 100.3 104.3 111.1 124.7 140.1 156.4 174.2 193.3 212 229.5 223.1 222 220.4 224.7 232.5 248.6 256.2 272.2 288.1 290.2 312.3 327.3 331.3 347.3 361.5 374.8 390.9 404.5 419.1 429.9 438.3 443.1 448.2 444 424.8 407.6 394.8 383.3 371 361.9 352.2 349 350.4 347.1 346.2 343.2 336.8 333.4 314.2 289.2 259.2 223.9 196.6 172.4 152 163.1 179.8 200.9 220.4 243.4 267.2 291 315.4 339.1 358.9 378.1 397.2 412.7 425.1 434 440.2 442.9 442.3 437.7 432.5 432.8 427.3 420.7 406.7 369.9 335 301.1 268.4 236.3 214.3 192.2 176 170.2 172.1 177.5 189.6 204.4 223.2 242.7 265.9 290.7 307.6 310 308.2 308.5 313.5 324.2 328.5 331.2 339.2 347 352.6 351.8 346.7 341.4 334.3 326.3 317.3 305.9 294.4 283.4 271.6 263.4 253.3 233.7 249.7 267 275.3 269.6 268.3 273.5 262.2 241.2 219.1 206.9 225 248.5 263.7 274.7 291.9 309.2
544.2 530.2 520.5 518.6 518 515.9 525.3 552.1 578.2 604.5 625.6 636.6 641.3 633.7 581.7 541.6 514.9 492 477.2 468.9 462.5 468.9 480.9 489.7 497.7 508.1 514.8 520.1 521.1 511.8 495.4 479.1 463.4 448.9 433.4 423.9 400.7 371.9 348.4 321.8 297.9 273.8 249 241.8 215.3 190.6 168.7 150.7 136.3 125.8 116 108.7 99.3 92 90 90 90.7 91.3 91.9 92.3 92 94.3 96.2 97.1 101.1 107.9 122.6 137.8 155.1 173.2 192.4 214.8 240 249.5 246.4 246.5 248.7 256.4 263.2 278.9 294.9 307.9 319 329.2 338.3 350.5 362.5 371.8 383.4 392.7 408.3 422.1 431.7 441 450.2 454.6 443.8 423.3 405.5 393.2 381.6 368.9 352.8 341.4 334.4 337.6 341.2 335.6 331.8 327.4 319 311.3 295 273.4 244.4 212.5 186.2 164.9 145.2 164.3 178.7 198 220.3 244.4 270.9 297 321.8 344.4 363.7 381.8 398.7 413.8 424.6 432.3 436.9 439.2 437 433.8 431.8 427.1 419.8 409.5 393.3 352.9 310.2 281.6 250.9 227.9 206.5 184.4 172.9 170.3 175.3 182 195.2 213.8 233.2 254.2 276 291.5 291.1 290 288.9 290 297.2 307.3 313.7 321.7 333.6 344 347.6 344.8 336.6 333.5 327.2 320.5 309.5 296.7 284.8 273.7 262.4 255.1 242.1 226.1 235.9 252 260.8 259.4 259.5 261.7 245.6 223.4 204.3 219.2 244.3 265.4 278.1 298 314.1 325.2
519.9 507.5 498.6 496.4 495.7 496.6 520.5 549.7 575.5 601 616 625.9 630.5 627.9 580.4 540.1 511.4 487.1 473.6 463.4 455.4 475.7 483.2 488.8 500.2 507.8 513.6 516.3 511.5 494.4 479.1 464.9 449.9 432.1 416.3 405.5 384.4 364.6 341.9 319.1 294.3 272.1 244.4 219.9 198.5 180.3 155.3 138.9 127.8 116.9 102.5 95.9 90.3 89.5 89.4 89.8 90.4 91 91.4 91.2 91.1 92.7 94.2 97.4 106.3 118.3 134 152.4 171.2 193.3 220.7 243.5 264.7 277.8 269.5 272 274.7 277.9 288.9 304.5 321.5 338.3 350.1 361 371.8 381.3 391.1 400.8 411 420.7 428.3 442.5 453.4 454.5 455.6 442.3 425.9 411.3 396 380.8 369.2 351.9 346.6 337.1 322.6 322.4 322.5 319 311.9 303.9 300.1 288.4 274.7 254.8 229.4 201.1 175.9 158.3 143.4 158.8 175.8 192.9 217.3 242 269.8 296.8 324.6 348 366.6 384.1 401 414.7 425.9 431.4 437.1 438.7 435.4 434.3 430.3 422.2 411.2 398.2 365.7 329.8 292.4 263.7 240.2 219.8 200 182.7 172.3 168.8 176.7 187.1 200.1 218.8 243.7 265.2 280.3 279.9 275.9 273.6 273.4 275.4 288.7 301.9 314.5 327.7 340.9 344.9 343 338.7 333.8 329 324.5 316.4 306.4 291.3 276.7 266 255.1 242.4 234 215.9 224.4 242.5 249.1 250.3 251.5 251.7 228.9 208.4 210.2 235 259.1 277.6 297 315.2 330.2 342.7
499.3 490.1 481.4 477.8 475.6 495 520 548.6 573.4 594.5 611.9 617.9 621.2 619.1 586 543.5 507.4 481.8 465.3 456.4 455.7 474.3 482.6 490.8 499.7 506.6 510.2 509.1 494.8 481.3 468.5 452.6 436.3 419.3 406 392.5 377.4 358.3 336.9 317.7 299.3 281.5 261.4 234.8 211.1 186 166.5 153.2 138.1 119.5 95.9 90.7 89 88.8 88.8 89.5 90.2 90.3 90.2 90 90.7 92.6 93.9 101.3 111.3 129.3 148.1 169.6 192.6 216.1 239.5 261.3 287.5 302.6 291.4 292.6 296.5 301.5 317 335.5 352 371.9 387 397.9 406.8 415.1 423.6 428.6 434.9 442.1 450.4 459.5 465.2 464 449.5 430.3 414.1 403.2 386 371.6 359.5 358.5 342.8 328.7 312.3 310.4 307.7 303.1 290.4 284 280.3 268.8 252.8 233.1 211.3 187.8 164.5 150.8 140.2 156.3 168.9 186.8 212.1 235.7 261.9 293.1 323.2 349.8 369.8 386.2 402.5 416 426.6 433.9 438.1 436.7 438.2 434.6 422.8 411.3 400.9 379.5 347.5 308 276.8 249.3 226.4 209.8 194.1 178.7 170.8 167.3 180.5 191.2 208.4 228.9 253 273.3 274.7 266.2 263.1 262.1 263 283.9 300.2 314 327.8 340.1 344.8 340.9 337.5 334.9 330.6 327.6 323.7 319.2 309.6 295.9 281.6 267.8 253 237.1 224 206.1 220 236.2 244.5 245.2 242.7 238.6 213.2 201.8 226.3 252 273.2 292.8 312.2 330.1 344.7 352.9
482.1 474.3 466.3 464.4 474.5 495.2 522 547 566.6 586.3 598.3 609.8 616.8 618.7 591.8 547.6 506.5 478.9 457.5 444.4 454.6 465.9 476.7 488 496.5 500.2 500.8 494.9 478.8 466.4 451.5 439.6 422.9 405.6 396.3 380.1 368.2 352.8 337.9 314.6 294.8 275.6 256.5 236.9 213.1 187.2 165.8 148.4 133.2 113.6 94.2 88.5 88.4 88.6 88.1 89.3 89.3 89.3 89.3 89.4 89.9 93 96.6 107.5 124.2 144.4 164.9 187.7 210.9 233.2 254.2 276.9 303 320.4 330.3 323.4 324.1 335.7 352.4 371.6 388.8 403.3 415.2 422.5 428.7 436.6 446 450.1 456 463.1 473.9 481.6 479.8 466.7 441.6 419.8 409.8 406 388.5 376.8 366.1 352.9 334.2 319 296.8 295 294.8 291.3 279 266.3 261.3 250.9 231.7 216.1 197.3 174.9 157 145.9 136 149.7 162.6 179.5 202.9 225.8 251.9 281.9 314.5 348.6 371.2 387.5 403.2 416.7 427.3 435.2 437.9 438.9 440.5 428.2 416.2 402.9 387.9 366.4 326.1 291 263.4 237.2 216.5 201.7 187.8 175.4 168 168.2 182.3 198.7 214.9 239.2 264 268.6 259.7 256.7 253.1 249.7 272.2 294 311.7 327.9 343.3 344.5 341.5 337.1 332.8 330 328.1 325.6 325.2 321.2 310 299.1 283.7 268.4 250.1 229.4 220.5 198.2 218.6 236.3 243.2 239.4 231.3 220.5 197.4 216.8 239.8 265.4 284.4 305.1 325.9 343 351.4 357.3
466.3 462.7 458.6 452.1 474.2 496.7 515.2 530.6 551.4 570.9 582.2 598.5 612.1 624.8 588.8 545.5 508 480 457.5 443 442.5 456.1 468.8 478.8 485.7 487.9 485.4 476.5 461.1 447.8 434.9 422.8 407 393.9 382.5 372.5 368.3 351.3 333.2 310.2 285.3 261.4 246.5 228.9 207.4 181.1 160.7 142.2 125 108.7 94.9 87.8 88.3 88.1 87.9 88.6 88.7 88.7 88.8 89.1 89.3 92.7 102.5 115.4 136.1 157.4 179 203.4 225.3 247 270 296.3 322.6 342.6 360.2 368.8 369.8 377.4 395.1 414.3 423.9 433.7 437.8 442.3 449.1 458.2 462.7 468.1 474.4 483.2 490.1 493.5 489.7 470.1 443.7 422.1 417.5 407.9 390.5 378.1 362.5 345.7 326.5 309.7 292.5 280.6 278.2 275.1 262.2 254.7 249.6 236.1 213.8 198.9 185.3 164.7 151.2 142.3 134.8 144.9 155.8 169.6 188.8 212.8 242 273 308.8 341.6 370.4 387.2 403.4 416.7 427.3 432.5 438.6 445.1 436.9 423.3 409.5 393.5 374.3 347.2 312.1 278.3 253.1 229.4 208.2 193.2 181.3 170.4 164 172.6 187.7 203.4 223.8 251.5 263.3 255.7 247.7 242.4 237.1 258.9 282.3 307.2 326.7 344 342.3 342 338.3 333.9 327.9 324.5 322.9 321.8 320.8 317 307.9 297.1 284 266.4 248.6 228 211.5 198.8 221.7 231.1 234.3 232.3 222.3 205.1 206.9 231.9 256.1 275.9 294.7 315.3 334.7 349.1 350.8 352.5
453.2 450.8 447.9 455.2 471.1 488.2 505.9 521 536.6 551.1 570.6 588.7 607.2 615 586.9 546.7 507.3 477.1 453.6 440.3 429.2 441.3 459.4 468.5 471.1 470.6 464.1 451.6 441.2 430.5 418.8 405.7 393.8 380.7 374.9 367.3 354.5 342.2 323.2 303.5 278.7 256.5 237.8 214.2 192.5 170.9 152.4 133.5 120.7 106.3 90.7 87.4 87.7 87.3 87.5 87.9 88.1 88.2 88.4 88.7 88.9 95.7 107.1 126.4 147.6 170.6 193.2 215.6 238.4 261.2 286.5 319.8 345.5 369.2 388.5 406 412 420.1 429.7 436.5 440.9 446.9 452.4 460.1 468.8 472.8 479 484.4 492.3 503.5 510.6 510.7 501.9 476.1 449.7 428.3 416.4 404.1 392.7 377.8 357 338.2 321.3 306.6 291.1 284.8 278 267.5 261.8 260.5 248.4 223 214.3 196.1 171.7 153.6 143 135.5 133.4 138.9 144.5 161.1 181.9 201.6 229.9 262.1 297.6 324.9 356.4 384.1 400.7 415.5 424.3 428.8 445.9 442.5 432.8 420.2 405.3 387.7 365.1 337 303.2 270.1 244.9 223.1 204.5 188 175.2 166.4 163.1 180.6 194 211.1 233.9 254 250.1 239.6 234.1 222.7 243 269.8 295.3 319.7 335.9 336.8 337.7 337.7 334.8 330 322.3 316.8 316.2 315.6 314.6 311.3 303.5 293.5 280.3 263.6 246 228.5 206.8 202.2 222.7 223.8 227.1 222.5 210.7 189.1 219.9 244.4 266.5 279.2 301.9 320.1 334.8 343.4 343.4 344.8
437.2 437.4 434.6 455 467.1 484.8 496.6 506 516.2 533.5 547.4 577.1 597.8 600 583.6 550 509.5 476.9 451.3 436.3 428.7 434.9 448 455.5 453.9 444.6 433.7 424.2 418.5 410.6 399 389.1 377.6 365.2 358.1 350.7 340.5 328.4 309.4 290.4 267.6 251.3 231.3 205.8 182.5 163.6 140.5 125.2 113.7 106.7 91.7 86.8 87.1 86.5 86.7 87.2 87.6 87.8 87.9 88 89.2 99.7 111.7 135.9 158.7 181.7 204.5 227.9 252.5 277.7 308.1 345.4 374.7 390 407.5 416.2 425.3 434.3 442.1 447.4 451.5 459.2 467.9 476.8 482.1 487.9 494.6 501.9 519.9 535.1 534.3 526 516.6 491.8 459.9 438 419.9 406.9 395.6 378.3 355.9 337.4 319.5 307.2 295.8 288 286 280 277.8 269.8 251.8 243.4 220.1 195.1 168.4 148.6 139.6 134.1 132.6 135.1 145.6 157.8 171.6 189.5 212.5 241.3 270.2 298.5 328.2 365 386.7 406.9 409.5 434.2 441.7 440.9 432.7 418.3 400.4 383.1 359.8 331.1 297.4 268.7 241 217.1 198.8 183.3 171.3 163.1 165.4 182.4 196 216.3 244.4 241.7 234.4 224.1 218.1 225.7 255.2 282.8 306.8 324.2 326.4 329.2 329.3 330.3 329 323.9 316.4 311.3 306.2 307.5 305.8 300.8 293.4 283.7 272.1 254 238.9 226.9 208.3 200.1 211 215.4 215 213.4 198.2 194.2 226.6 249.1 269.9 284.1 299.5 315.1 326.1 329.7 327.7 328.7
415.6 421.4 444.8 454.9 464.7 473.7 481.3 489.8 499 516.2 542.5 567.1 583 582.2 566 540.6 509.3 475.7 450.7 434.2 424.6 424.4 434.4 437.4 427.1 410.4 405.1 399.5 394.5 387.6 379.2 373 361.5 355.4 350.1 342.6 333.6 319.8 294.1 278.8 255.3 240.9 223 194.1 175.3 157.6 140.2 125.2 113.4 99.7 89.9 87.4 86.3 85.7 86 86.3 86.6 86.9 87.6 87.8 90.7 104.6 123.8 146.2 169.9 191.6 215.2 240.1 266.6 294.5 326.3 370.1 388.4 403.4 412.6 423.9 434.3 443.5 450.2 455.1 462.9 470.6 478.7 487.2 492.5 498.5 509.1 524.8 530.7 536.5 542 537.6 528 508.6 478 448.6 425.9 407.1 392.3 376 361.4 344.7 327.2 316.7 308.2 302 298.6 293.5 293 283.7 277 257.3 221.1 194.5 168.4 149.6 143.4 138.2 131.1 133.2 143.1 152.4 162.7 177.4 196.3 221.2 248.7 280.1 310 336.3 364.8 381.9 406.3 429 439.7 444 434.5 416.6 398.4 380.1 356.1 326.8 293.6 264.1 239 213.9 192.5 177.9 167.9 159.4 168.3 181.2 195.5 221.2 237.7 229.8 217 208.5 210.3 241.3 273.4 295.2 311.4 311.3 314.2 318.4 319.4 319.5 316.6 310.5 307.9 299.9 292.3 287.7 288.6 289.6 283.7 269.9 254 240.1 232.9 222.9 209 191.5 198.1 205.9 206 202.4 186.4 201.9 229.6 250 266.7 277.4 290.2 303.3 309.4 312 311 310.4
411.6 432.2 442.9 449.5 455.5 462.4 465.8 471.2 486.9 505.3 531.3 557.8 561.2 553.9 541.7 526.6 504.9 476.5 449.9 431.5 418.7 405.1 404.6 403.6 396.6 386.6 378.8 373.8 369.9 368.6 361.8 354 350.1 350 342.4 331.2 311.2 295.7 276.4 263.7 240.8 223.5 203.2 181.8 171.8 147.9 130.6 117.8 105.4 96.4 86.9 85.2 85.2 85.3 85.3 85.4 85.6 86 86.2 86.6 91.1 111 132.9 155.6 179.3 201.4 226.4 253 281.6 312.6 349.3 384 395 405.8 417.6 429.9 439.7 448.5 454 462.1 470.2 477.7 484.4 491.5 499.7 514.6 531.7 528.1 530.3 540.5 540.4 538.9 531.2 524 505.8 479.7 454.4 427.3 402.4 387.6 372.4 358.7 346.7 337.7 328.4 323.4 316.1 310.9 305.4 300.8 294.1 265.2 226.5 200.8 170.1 152.5 142.7 136.2 131.7 131.4 137.5 145.4 153.9 167 182.3 202 226.7 253.7 281.2 312.4 344.8 358.9 386.2 418.2 443 449.1 437.5 413.9 395.1 377.7 353.6 324.1 292.3 260.3 234.2 210.9 186.9 172.9 164.5 156.6 171 179.9 197.6 224.7 231.6 217 202.6 203.2 230.5 257.7 282.1 292.7 294.6 296 299.5 304.8 304.1 303 298.4 294.2 288.3 277.8 269.2 269.1 274.1 274.4 270.9 258.6 240.1 230.5 223.8 211.8 200.5 188.2 188.1 192.2 188.6 183.3 179.8 201.4 225.4 242 258.6 270.1 279 286.9 288.8 292.8 293 292.6
415.1 427.7 435 440.4 444.2 442.3 442.9 455.2 476.6 500.6 523.2 541.2 541.8 535.5 522 514.5 499.9 474.6 454.6 431 407 361 369.8 372.1 371.7 363.5 357.8 352.8 351 348 343.2 341 340.3 332.9 328 308.5 289.9 272.9 258.6 241.1 220.1 201.4 182.8 169.8 151.9 136.9 121.1 107.5 97.2 89 85.7 85.3 85 85.2 85 85.1 85.2 85.4 85.5 86.8 94.1 115.2 139.8 163.7 187.3 212 238.9 266.7 297.1 331.2 369 384.7 397.7 410.2 420.8 431.8 440.6 446.6 454.3 462.7 469.6 479.1 488.2 498.8 515.8 527.2 528.9 525.1 530.4 534.5 532.3 524.4 516.3 513.8 514.8 501.9 479.3 457.3 440.7 416.8 392.4 377 370.1 362.9 354.3 346.8 338.3 329.6 323.2 317.1 303 275 235.5 206.1 178.7 157.7 142.3 135.7 131.3 129.2 133 139.5 145.1 154.5 167.2 181.6 203.6 228 257.5 289.5 318.4 330.7 384.5 427.8 438.3 447.6 438.3 415.8 397.6 379.7 353.9 324.7 293.3 261.7 233 207.6 188.5 173.3 160.1 158.2 169.5 179.7 201.2 227.8 215.9 205.4 183.3 201.6 227.3 254.3 264 267.1 268.2 273.9 281.7 282.4 283.3 281.1 277.1 276.2 265.5 255.1 247.3 252.8 254.2 254.1 250.1 243.4 224.9 208.1 203.7 194.1 185.8 179 173.4 173.7 182 189.5 182.1 196.2 212.8 233.4 245.9 260.2 268.8 273.3 274.6 275.7 278.3 278.1
411.1 419.2 423.1 427.2 423.6 421.8 433 450 469.2 490.8 512.1 523 523.7 520 508.8 502.4 486.7 466.7 454.4 435.6 411.7 351.2 331.7 340.9 346.8 346.2 330.3 328.6 328.4 334.2 328.3 332.6 322.9 312.3 300.1 286.7 273.3 252.6 236.1 217.5 200.5 182.3 166.7 148.5 139.1 127 109.8 98.9 90 84.6 85.2 85.1 84.8 85 84.6 84.8 84.9 85.1 85.5 87.1 97.7 119.6 145.1 171.8 197.2 222.9 250 279 310.1 348.6 370 380.5 398.1 409.3 419.6 430 436.2 442.8 452 460.4 468.5 482.7 501.8 512.5 518.6 522.7 523.2 522.4 532.3 529.5 523.6 515.5 509.1 510.5 513.1 500.8 494.8 479.7 471.8 460.2 427 407.7 397.6 390.7 382.1 374.6 364.2 354.2 338.3 332.4 323.4 282.8 243 209.6 186.1 165.4 146.3 136.1 132.5 126.8 129.3 132.6 139.1 147.1 157 168.9 183.9 206.8 231.2 262.6 283.9 326.7 371.6 411.7 421.9 422.8 426.6 418.1 396.3 376.9 352.6 323.4 291.2 261.2 235.5 210.1 193.9 176.2 159.1 158.7 167.2 179.9 207 208.1 194.4 188.8 174.3 194.2 219.7 233.8 239.9 242.5 243 248.1 254.7 258.9 263 260.6 256.5 251.3 244.1 232.9 230.8 233.4 230.5 233.2 227.4 216.8 208 188.7 183.1 172 169.9 174.3 179.6 192.6 200.3 207.5 196.7 185.5 203.7 222.3 236 246.6 252.9 256.1 257.7 259.4 260.6 261.6
400.2 405.1 406 406.1 401.3 408.2 424.8 442.9 459 478.7 500.1 509.2 511.2 508.8 500.8 487.9 470.5 459.5 454.5 435.2 416.6 365.9 316.5 292.7 313.6 316.2 301.4 298 306.6 310.3 307.6 312.8 295.8 283.9 272.8 261.4 246.5 226.7 207.8 191.6 177.7 164.5 150.3 132.6 121.8 111 99.3 91.3 84.4 84.7 84.8 85.1 84.6 84.9 84.3 84.5 84.7 85.1 85.6 87.3 103.6 125.1 153.5 180.5 206.2 232.5 261.1 292.6 327.4 352.8 361.4 378.1 393 405.1 418.3 422.3 425.7 434.4 445.5 454.5 465 489.1 500.1 507.1 511.3 520.8 520 523 521.5 518.3 511.7 508.2 512 509.6 501.6 497.3 486 476.1 474.2 471.4 472.7 459.5 439.3 433.6 425.7 411.4 396.6 375.9 363.4 357 346.4 301.8 258.1 222.5 198.4 175 156.7 141 132.7 128.4 127.1 127.6 132.5 140.7 148.9 157.4 168.1 185.3 208.4 232.4 257.2 294.2 342.6 371.8 371.8 379.9 389.2 403.8 388.6 369.9 345.8 320.8 291.2 263.8 239.8 217.6 201.2 177.4 161.6 156.3 165 180.9 199.4 183.8 178.7 174.9 164.8 184.3 202.1 209.2 209 212.1 216.9 227.5 235.9 241.5 242.6 243.3 241.2 231.4 222.5 210.4 212.1 212.1 207.3 205.1 201.2 196.6 188.9 174.2 161.1 175.7 183.6 185.6 193.5 207 217.1 222.8 218.2 201.1 189.5 207.9 217.7 227.2 233.2 235.6 235.6 238.7 241.3 244.6
383.4 388.7 386 386.1 383.9 404.2 419.2 432.8 447.4 462.8 486.3 498.7 498.5 494.2 492.7 472 454.2 447.7 446 428.5 423.6 376.2 343.5 295.2 271.9 279.9 274.1 272.1 284.8 283.3 284.2 277.6 269.9 261.5 252 234.5 217.6 198.8 184.7 170 157.7 145.2 131.3 115.3 103.9 95.7 85.8 84.5 84.3 84 83.8 83.9 84.2 84.3 84.5 84.3 85 85.7 86.3 88.5 110.1 134.4 159.2 186.3 213.7 243.4 279.2 312.4 334 343.4 357.2 373.2 385.5 399.2 408.9 411.4 414.9 425.3 433.3 444.8 470.1 484.8 490 494.6 509.2 517 517.9 514 510.5 508.2 507.3 511.5 507.4 500.1 494.1 487 477.5 473.6 474.4 485.3 486.1 485.9 486.1 475.3 462.8 446.5 429.1 408.5 399 383.7 371.3 312.9 263.7 234.3 211.8 187.2 169.3 151.8 139.2 133.6 126 125.7 128.9 135.5 141.7 148.5 155.4 172.3 192.6 211.2 234.5 266.7 298 320.7 331 339 354.2 373.3 371.8 358.1 341.2 320.3 296.2 271.7 248 225.3 199.9 181.6 157.8 155.4 159.3 178.6 182 168.7 166.1 163.4 161.2 172.3 190.3 189.3 188.2 194.5 194.4 199.9 212.2 222.6 221.8 224.1 221.8 208.7 198.2 190.2 184.7 189 187.6 185.2 180.6 174.3 165.7 168.4 183.3 196.5 205.3 209.7 209.4 218 230.2 240.9 242.5 234.1 208.6 204.3 197.5 197.6 203.2 209.1 214.7 220.3 222.9 229.2
367 369.1 369.8 367.2 381.1 395.5 408.4 418 426 449.7 469.5 477.6 475.8 478.1 470.5 452.7 438.2 435 426.3 425.2 432.8 422.2 362.3 305.6 258.9 235 247.8 249.5 258.4 259.6 258.4 250.8 243.6 235.6 222.6 207.9 189.3 175.4 163.2 149.9 138.5 125 110.8 99.9 89.6 83.8 83.7 83.9 83.6 83.4 83.8 83.6 83.7 83.8 84.3 85 85.3 86 86.2 90.4 116.6 139.5 162.8 189.3 221.5 261.2 290.7 307.6 322.5 334.4 349.5 362.5 375.5 388 395.4 388.8 398.5 409.9 416.5 441.4 462.6 473.2 476.6 493.4 511.6 513.1 512.6 502.4 494.8 495.2 503.8 509.1 498.1 491.7 486.8 473.7 467.5 466.2 472.8 480.4 484.6 498.6 505.4 495.3 481.1 467.2 448 436.3 424.2 405.2 383.9 334.7 282.2 247.1 224.8 203.8 183.9 165.3 149 138.6 130.4 125.2 123.9 128.2 133.9 139.4 146.4 159.1 173.8 187.9 205.5 223 250 272 286.5 301.6 311.9 330.1 333.5 331.9 339.1 330.8 307.4 283.2 257.5 231.4 206.2 183.8 159.2 156.8 161.2 175.1 166.2 161.6 158.2 154.5 151.8 161.3 171.6 170.8 172.4 177.1 175.1 181.3 190.8 201.6 204.1 203.7 193.4 182.5 168.6 164.1 162.9 162 154.6 161.4 166.8 177.3 184.1 197.6 209.1 219.5 226.4 229.3 228.3 237.3 243.9 259.2 260.9 262.4 252.7 242.5 229.9 226.6 222.3 213.2 203.5 206.4 209.1 219.5
351.4 353.2 354.2 361 368.3 380.6 389 401.3 411.3 428.1 446.1 448.8 452.4 453.9 443.7 429.5 420.6 414.3 416.9 430.8 420.6 405.9 364.6 309.7 266.6 228.3 214.2 220.4 228.6 235.8 229 220 218.5 207 194.6 178.2 164.4 153.3 141.3 129.9 118.6 107 92.4 82.4 83.7 83.5 83.5 83.5 83.8 84 84.3 83.5 83.6 84.2 85.1 85.9 86.2 86.5 87.6 96 118.8 138.5 163.3 190 225.9 264.3 283.6 296.2 312.6 324.2 337 349.7 362.7 372.7 378.3 358.4 379 385.6 405.9 426.5 449.1 455.2 471.8 494.1 501.1 500 491.5 483.9 479.4 485.1 497.9 495.2 486.6 480.3 472.6 464 457.3 462.4 469 470.9 483.8 502.9 503.4 496 482.9 466.9 455.9 444.2 429.6 414.9 400.2 368.5 307.5 265 238.7 220.1 199 177.9 159.7 150.5 138.1 127.8 124.5 123 125.8 129.6 134.9 143.5 154 165.4 175.7 185.8 205.8 225.9 249.6 258.2 269.3 288.7 301.1 301.6 319.7 336 326.7 295.3 262.5 238.4 216.4 194.9 169.9 154.9 162.8 161 157.9 155 151.2 147.2 147.4 148.8 153.3 156.1 159.1 161.4 161.9 168 178.1 187.6 193.5 178.8 167.8 151.2 155.9 168.3 175.8 180.4 186.7 193.2 201.7 210.1 218.5 226.7 236.7 247.2 256.8 258.5 252.7 259.4 258.5 272.4 279.7 288.7 285.1 282.1 273.6 264.3 251.9 241.6 215.5 213.9 214.7 234.5
331.6 339.3 346.5 351.5 355.3 361.8 371.5 385.7 395.9 410.8 424.9 426.6 426.9 427.4 416.9 403.7 396.6 407.9 418.5 415.2 410.7 379.6 351.7 312.5 275.3 238.8 202 190.9 201.7 201.5 194.4 183.5 182.6 180.6 167.9 154.7 141.7 131.4 122.1 112.5 98.7 88.8 82.4 82.6 83.1 83.1 83.1 83.2 83.5 83.8 84 84.2 83.8 84.3 85.6 86.6 87.2 87.5 88.8 98.8 116.3 136.3 161.8 188.8 224.5 252.8 269.2 283.8 293.8 304.4 317.7 328.1 339 348.5 352.3 342.5 360.5 371 392 408.9 425.9 444.9 462.4 483.1 487.1 483.4 477.1 469.2 481.6 488.7 489 484 472.2 464.7 456.9 446.9 441.1 448.3 453.4 463.2 481 497.2 499.3 491.9 482 469.7 458 447 433.6 423.6 406.4 391 337.5 287.7 256 236.3 215.7 192.7 178 167.4 153.9 141.5 129.6 125.5 122.2 120.6 127.6 129.4 135.5 143.6 152 158.7 172.1 185.3 204.1 214.4 230.3 244.9 264.1 276.6 297.1 327.3 325.7 303.5 276.4 252.8 229.6 205.9 181.4 151.9 154.3 151.6 153.7 151.6 140.7 138.4 139.5 138 140.6 143.5 146.7 143.5 143.6 151.5 165 176.8 172.7 155 146.9 162 177.9 194 207.4 215.1 222.5 230.1 234.9 241.6 248 256.1 266.1 270.9 278.6 278.9 273.9 278.9 280.8 289.9 302.6 307.7 304.3 308 306.1 305.1 288.5 263.6 225.5 231.3 231.6 234.4
322.3 335 340.5 343.1 344.9 347.5 353.4 367.8 380.6 394.6 402.4 404.6 406.5 400.3 391.5 382.9 396.4 405.4 406.6 401 385.1 349.4 326.1 305.7 282.2 245 213.9 182.2 171.7 173.5 159.8 149.4 144 150.8 143.7 132.1 122.2 113.2 104.2 94.9 83.6 82.1 82.7 83 83 83 83 83 83.4 83.6 83.8 84 84.1 84.5 85.7 87.1 88.2 89 89.6 101.2 117.5 138.9 159.1 180.3 211.9 235.6 248.2 258.4 269.5 282 294.9 304.9 317.6 323.9 323.6 320.5 341.1 356.2 372 392 411.1 429.4 453.3 473 474 467 460.2 465.9 471.7 474.6 475.7 466.7 459.1 450.9 440.5 429.4 428.6 432.6 439.5 461.1 476.2 485 492.1 486.3 479 468.2 456.1 445 435.1 429.1 415.2 399.9 367.6 317.2 285.7 258.1 235.8 217.1 202.9 187.8 172.4 160.2 146.3 137.3 129.7 124.5 120.1 122 123.6 126.7 133 139.4 147.7 157.1 168.6 185.7 200.5 214 221.6 250 273.6 302.7 302.2 301.4 294.7 270.9 242.3 217 191.3 168.8 139.4 145.6 149.2 144.5 129.6 127.7 130 128.4 132.4 129 133.4 144.5 147.7 140.7 135.5 157.7 150.4 151.3 168.5 183.9 202.7 220.8 234.4 241.1 248.3 255.7 261.8 267 272.5 281.1 288.6 296.4 300.9 299.7 300.4 306.1 309.4 313.5 323.2 325.6 326.1 327.8 326.4 321.3 307.5 271.1 245.3 250.3 252.9 255.7
314.8 327.6 331.7 332.4 331.2 334.1 342.1 353.4 367 375.3 382.9 384.8 384.6 377.4 365.7 377.1 385.4 390.2 390.5 372 344.5 324.4 310 298.8 286.3 247.1 216.9 190.6 172.4 146.1 129.2 124.9 116.8 120.3 116.9 111.6 104.5 97.2 88.1 83.1 82.1 82.8 83 83 83 83 83 83 83.1 83.3 83.6 83.8 84.1 84.8 85.8 87.2 88.5 90.3 89.9 107.4 121.8 134.6 151.6 175.3 196.2 213.9 227.5 236.7 247.1 259.9 271.4 285.9 295.4 300.3 291.9 313.8 325.6 336.2 364 386.1 405.3 421.6 445.7 460.2 459.5 457.2 453.7 457.6 460.6 462.4 457 450.5 443.1 435 423.6 416.1 413.6 417.2 434 451 468.9 478.4 484.7 479.8 472.6 463.6 452.5 445.3 437.6 430.2 419.8 407.4 390.7 365.1 329.6 295.3 264.1 246 231 214.4 193.6 179.3 161.6 153.8 143.8 130.2 125.4 119.3 117.9 118.4 119.4 122.4 127.8 136 146.9 157.4 169.1 179.9 201.6 225.3 220.3 262.5 275 288.3 283.6 266.8 249.1 228.4 203.9 184 168.2 140.5 134.7 136.8 144.3 131.5 123.3 133 136.9 144 156.7 167.5 174 174.4 162 137.8 144.2 166.8 190.9 211.1 232.3 247.1 256.2 262.7 270.4 277.1 282 288.6 297.2 306 311 316 318.2 318.6 317.6 328.3 334.1 334.2 342.3 344.8 343.9 345 341.4 330.9 310.2 279.5 272.4 278.9 276.7 270.7
310.8 321.9 323.4 323.7 320.6 325.8 334.7 346.1 354.7 359.3 364.7 362.7 363.2 350.8 354 366.1 373.2 372.6 364.5 350.6 318.1 305.8 303.9 295.2 282.7 253 216.1 187.5 168.2 155.1 138.5 111.2 105.6 100.7 97.1 94.1 92.6 86.7 83.1 82.9 82.3 83 83 83 83 83 83 83 83 83.1 83.4 83.7 84.1 84.6 87 89.3 99.6 104.7 101.1 111.2 119.9 130.3 146.5 164.4 182.4 197.3 204.7 213.9 223.3 238.5 254.8 268.9 275.6 274.5 287 293.4 313.8 341.7 365.3 384.5 403.7 427.2 446.3 449.1 450.2 449.9 445.7 447.5 449.4 445.5 440.6 435.4 430 416.5 404.3 398 397.8 409.2 427.6 447.4 461.4 470.5 474.5 471.6 465.8 456.5 448.2 444 438.5 432.2 423.3 412.9 399.2 384.1 360.2 327.6 306.4 288 269.7 248.1 227.5 206.1 191.6 177.1 162.1 149.8 139.5 128.8 120.9 117.2 116.5 116.7 116.7 119.5 127.9 136.7 146.7 157 185.5 195.4 224 222.3 241.7 263.8 262 252.5 236.5 216.8 204.4 189.9 184.2 169.1 158.5 163.9 159.1 130.3 127.4 135.8 143.1 154.2 169 181.9 189.3 194.5 192.5 171.4 146.3 184.6 207.5 230.4 250.8 260.1 267.4 273.9 283.2 292.4 300.1 305.9 314.6 323 329 331.7 335.9 337 335.9 348.2 352.8 354.6 359.8 361.4 360.1 361.3 359.3 348.3 328.6 315.1 306.5 307.6 300.7 286.6
309.5 314.3 311.5 311.1 315 319.9 326.9 334.6 340.2 343.7 342.7 342.8 340.4 336.4 341.6 347.8 357.7 347.4 345 324.4 298.4 296.1 297 284 268.6 248.4 218.2 190.8 163.9 146.5 136.9 117.3 99.3 96.8 93.5 90.7 87.7 85 83 83 83 83 83 83 83 83 83 83 83 83 83.3 83.6 84.9 86.3 95.1 103.1 112.7 120.4 126.7 116.9 127.6 124.7 134.8 149 163.1 174.8 182.6 187.4 202.5 227.7 240.9 251.8 261.2 259.6 279.3 300.3 324.8 350.5 366.8 387.7 405.2 431.8 438.4 442.4 443.4 441.8 437 437.9 436.4 429.1 423.2 417.7 409 395.3 386.9 377.4 390 406.5 425.9 446.1 457.7 466.1 469.1 465.8 460.6 450.8 445.1 440.8 437.8 433.5 426.6 419.5 406.3 393.2 378.2 368.7 355.4 337.2 322.6 294.6 269.8 241 219.5 200.5 185.6 170.8 155.4 139.3 126.4 120.8 116.7 115.9 115.2 115.1 117.4 120.8 127.4 139.9 158.6 170.2 185.9 188 213 233.2 242.2 226.1 207.1 192.6 181.9 180.2 181.2 168.5 166.2 170.3 159 129.8 126 133.6 147 163.3 181.1 192.3 200.9 206.6 206 178.2 153.9 188.1 211.1 235.5 252.7 264.6 276 284.6 293.4 302.7 312.1 322 327 332 338.4 346 348.7 351.5 351.5 364.1 363.5 371.9 376.8 377.5 375.4 376.2 371.2 361 356.8 343.1 344.7 340.5 325.5 306.1
301.6 302.1 302.3 305.2 310.6 317.7 318.2 324.5 328 328.9 333.5 328 326.9 331.9 336.3 333.7 328.8 327.1 318.5 298.2 294.3 290.7 282 269.8 250.6 229.4 214.2 196.6 166.1 141.7 127.4 113 95.3 92 90.5 88.7 86.4 84.9 83 83 83 83 83 83 83 83 83 83 83 82.8 82.4 87.3 94 102.7 113.3 122.9 130 137.4 144.3 149.2 150.1 148.2 126.5 129.7 147.2 152 162.1 169.1 190.9 213 225.2 237.5 240.6 257.7 282.2 305.5 331.5 350.4 373.1 388.4 414.5 425.3 430.7 435.4 435 431.8 426.7 426 421 413.3 405.1 400.1 392 380.8 370.9 360.4 384.9 404.6 423.5 438.5 453.4 458.7 460.5 458.7 451.6 443.4 440.9 437.7 434.7 431.2 426.7 418.7 409.5 400.6 390.8 390.8 383.4 381.3 374.1 342.9 298.7 271.1 256.4 232.3 212.7 194.1 176.1 159.9 145.4 129.8 122.2 115.1 114.7 116.4 118.4 116.4 118.9 123.1 130.8 146 168.7 168.2 188.3 205 205 196.2 180.5 168.1 163 158.4 157.2 154.9 154 162.7 157.3 129.5 122.2 133.1 145.3 166.1 184.2 195.3 206.9 214.7 217 188.6 161.8 185 208.8 231.2 250.1 263.4 271.7 280.8 290 302.9 316 324.2 329.3 333.2 339.6 346.3 350.5 354.5 364.3 373.9 380.9 386.6 390.6 392 391.5 390.1 384.4 375.3 367.6 368.1 369.1 367.5 350.1 323.3
296.5 296.6 298.1 300.7 305.5 307.9 313.5 316.1 316.8 318.3 319.8 322.8 324 325.7 325.4 315.7 310.4 301.5 294.4 290.7 284 272.6 266.3 251.5 233.9 216.5 203.5 182.1 158.7 134.8 116 101.4 89.9 89.3 87.7 86.7 85.2 83.6 83 83 83 83 83 83 83 83 83 83 83 84.5 93.9 104 113.9 124.7 134.1 142 149.8 157.3 171.6 178.2 184.5 178.9 164.4 155.9 151 146.1 152.9 164.3 182.9 196.8 206.8 220.9 241.5 260 287.4 310.8 335 351.4 368.6 388.6 409.7 419.2 426.3 427.6 424.8 420.7 411.9 410.9 400.1 397.1 392.9 385.3 376.5 364.7 355.9 359.5 383.6 402 418.9 436.4 443.8 448.7 448.3 446.4 439 437.8 436.2 432.3 426.2 427.3 424.8 421 414.5 407.4 404 403.3 404.2 395.3 388.5 373.7 349.5 325.6 313.5 266.5 244.6 225.3 206.5 187.7 169.4 151.4 137.2 128.9 127.6 115.5 121.6 117.1 116.2 118.8 121.9 141.4 139.8 149.4 167.6 179.7 177.4 168.1 157.2 149.5 143.1 138.3 138.9 140 146.2 157.6 151.8 127 118.3 130.3 146.3 164.9 182.1 201.1 215.3 226.1 231.3 202.6 180.6 176.3 199 221.6 241.7 253.5 258.2 268 282.2 299.7 313.9 318.5 324.8 329.8 334.6 340.9 347.1 354.9 369.6 381.2 390.1 396.3 400.9 402.9 403.7 401.7 392.1 382.9 378.9 381.8 383.4 383.7 376.4 347.3
293.7 293.8 293.8 295.5 298.5 301.6 307.9 310.3 312.7 315 318.9 319.8 319.7 322 315.8 306.4 301.2 294.2 286 279.8 270.2 259.6 247.3 232.2 217.4 199.9 185.9 163.1 142.4 122.2 100.4 86.8 87.1 86.2 85.8 84.4 83.2 83 83 83 83 83 83 83 83 83 83 83.2 88.5 102.8 113.9 124.9 136.3 147.1 157.4 163.2 174.3 182.2 195.8 206.4 210.2 203.6 192.3 181.3 173.1 158.9 154.6 163 174.5 186 202.9 223.1 251.6 269.8 290.4 315.2 331.7 347.1 367.8 382.4 399.2 414 422.3 418.7 412 406.4 401 395.5 385.9 381.4 378 369.7 358.7 348.4 339.7 363.9 383.8 400.1 415.3 431.3 439.5 439.5 440.2 436.2 432.8 431.3 429.4 423.7 422 423.6 423 422 419.4 418 417.5 418.1 414 408.8 410.5 407.4 399.3 382.6 344.3 305.3 288.2 267.2 248.6 223 205.3 178.5 163.6 152.3 141.7 135.2 127.2 116.3 116.2 112.5 115 129.5 125.2 138.1 153.6 160.5 153.6 147.2 142 133.5 127.3 124.5 125.4 126.9 135.6 151.4 143.9 122.7 116.5 124.5 145.6 167.5 187.5 204.5 222.4 239.4 250.7 223.6 199.5 175.5 189.9 214.6 228.7 236.4 249.4 259.3 271.7 290.5 304.7 311 319.8 322.5 325.3 333.1 342.4 354.8 372 384.2 393.2 400.3 405 405.3 408 404.1 394 387.2 385.6 390 393.6 397.4 387.5 380.4
290.9 291.4 292 295.7 301.6 303.5 308.4 312.1 314.5 317.1 319.3 319.4 317.2 313.4 308.2 302.2 296.4 284.7 271.9 265.4 252.6 240.6 228.7 215.6 200.5 184.5 166.4 143.5 121.6 102.1 84.2 85 84.9 84.5 84.2 83.4 83 83 83 83 83 83 83 83 83.2 83.8 85.9 98.9 111.1 123.5 135.8 148.9 162.5 173.2 180.7 192.2 204.8 213.8 225.9 229 225.6 220.3 213.2 204.5 192.6 188 174.1 157.6 173.4 183.8 200.2 222.9 252 263.6 282.9 305 317.7 339.4 364 378.2 395.5 411 414 404.3 395.2 391.4 381.4 374.8 373.9 368.5 364.6 355.2 346.4 334 344.5 365.3 385.1 403.3 417.6 425.7 425.5 428.1 430 427.9 425 422.2 417.8 415.8 421.8 422.5 425.9 425 426 427.1 430 429.4 427.2 427.7 424 420.5 413.4 406.8 384.9 358.2 339.1 319 287.8 266.5 248.8 228.8 192.7 181.1 176.9 164.9 136.9 117.3 115.1 112.2 113.9 111.9 117.6 128.9 142.8 142.5 138.9 133.3 127.1 121.6 119.4 117 115.8 120.1 126.7 138.7 135.8 119.5 115.7 124.2 147.8 172.1 195.4 215.5 232 247.6 256.1 252.1 225.7 196.2 184.4 202.2 213.8 221.9 237.9 255 260.7 275.4 291.1 303.8 315.6 315.5 314.8 324.1 336 351 371.1 381 390.3 397.5 400.2 402.8 405.9 400.4 393.1 386.9 385.4 392.4 398.1 403.6 398.1 389.2
