ncols 200
nrows 101
xllcorner 200000
yllcorner 81450
cellsize 50
-2 -2 -2 -2 -2 -2 -2 -2 -2 -2 -2 -2 -2 -2 -2 -2 -2 -2 -2 -2 -2 -2 -2 -2 -2 -2 -2 -2 -2 -2 -2 -2 -2 -2 -2 -2 -2 -2 -2 -2 -2 -2 -2 -2 -2 -2 -2 -2 -2 -2 -2 -2 -2 -2 -2 -2 -2 -2 -2 -2 -2 -2 -2 -2 -2 -2 -2 -2 -2 -2 -2 -2 -2 -2 -2 -2 -2 -2 -2 -2 -2 -2 -2 -2 -2 -2 -2 -2 -2 -2 -2 -2 -2 -2 -2 -0.8 1.8 27.5 30.2 28.4 36.4 41.6 47.7 52.3 60.6 39.5 30.1 29.6 31.1 34 36.1 39.8 42.9 53.6 61.2 66.3 70.6 66.1 66.2 70 77.7 86 92.2 95.4 99 102.6 111 118.1 123.8 130.7 136.5 143.2 147.1 152.2 159.2 165.9 171.7 176 181.4 186.8 193.3 198.7 201.7 199.6 189.3 199.6 208.9 214.6 220.5 225.5 230.2 234 238.1 241.7 245.1 248.6 251.9 254.7 256.4 257.7 259 259.7 259.5 258.4 257.3 256.1 255.7 254.9 253.4 251.1 249.7 250.6 252.6 255 256.8 257.7 258.2 258.4 258.5 259 259 259.2 260 261.1 262.7 264.2 266.1 268 269 269.3 268.8 267.6 266.5 265.3 263.6 261.9 260 258.2 256.4 255
-2 -2 -2 -2 -2 -2 -2 -2 -2 -2 -2 -2 -2 -2 -2 -2 -2 -2 -2 -2 -2 -2 -2 -2 -2 -2 -2 -2 -2 -2 -2 -2 -2 -2 -2 -2 -2 -2 -2 -2 -2 -2 -2 -2 -2 -2 -2 -2 -2 -2 -2 -2 -2 -2 -2 -2 -2 -2 -2 -2 -2 -2 -2 -2 -2 -2 -2 -2 -2 -2 -2 -2 -2 -2 -2 -2 -2 -2 -2 -2 -2 -2 -2 -2 -2 -2 -2 -2 -2 -2 -2 -2 -2 -2 -2 -2 -2 10.8 8 13.1 14.9 16.8 21.4 26.3 26.5 26.3 32.2 39.1 54.4 64.4 59.9 52.9 52 50.7 49 50.9 51.6 58.9 71.4 74.2 77.5 78.2 75.2 81.4 77.7 85.9 94 98.8 109.6 118.8 128.1 136.5 142.7 148.5 154.5 160.6 166.6 170.4 174.6 180.1 186.5 192.6 196.5 190.1 188 201.3 208.6 214.3 219.6 224.4 228.3 232.8 236.2 239.3 242.3 245.7 249 251.6 253.6 254.8 255.8 256.7 256.9 255.4 253.5 251.2 249.2 247.8 246.1 244.7 244.1 245.9 248 250.3 251.8 253.2 253.5 253.6 253.9 254.5 254.7 255.5 256.7 258.4 260.3 262.4 264.3 266 267.3 267.8 267.4 266.3 265.2 264 262.5 260.8 259.1 257.4 255.6 253.9
-2 -2 -2 -2 -2 -2 -2 -2 -2 -2 -2 -2 -2 -2 -2 -2 -2 -2 -2 -2 -2 -2 -2 -2 -2 -2 -2 -2 -2 -2 -2 -2 -2 -2 -2 -2 -2 -2 -2 -2 -2 -2 -2 -2 -2 -2 -2 -2 -2 -2 -2 -2 -2 -2 -2 -2 -2 -2 -2 -2 -2 -2 -2 -2 -2 -2 -2 -2 -2 -2 -2 -2 -2 -2 -2 -2 -2 -2 -2 -2 -2 -2 -2 -2 -2 -2 -2 -2 -2 -2 -2 -2 -2 -2 1.4 1.3 -2 18.5 20.3 27.5 38.3 44.6 40.5 42.5 37.4 36.8 46.3 59.3 54.9 73.3 80.8 86.2 80.3 77 72.1 74.6 80 90.2 99.2 99.5 106.1 107.1 103.4 97.4 90.4 88.5 84.9 84.1 92.7 106.2 115.4 126 134.1 141.2 147.4 154.2 159.5 164.5 168.6 172.2 177.8 185.5 189.4 191.2 177.4 199.7 207.2 213.4 218 222.2 226.2 229.9 232.6 235.8 239.1 242.7 246.2 248.7 251.1 252.5 253.3 253.1 252.4 250.4 247.2 242.2 239.8 238.9 238.6 238.7 239.3 241.2 243.2 245 246.8 248 248.2 247.9 248.6 249.2 251 252.8 254.6 256.8 259.2 261.2 263.2 265.5 266.2 266.5 265.7 264.9 264 262.8 261.4 259.9 258.1 256.4 254.7 252.6
-2 -2 -2 -2 -2 -2 -2 -2 -2 -2 -2 -2 -2 -2 -2 -2 -2 -2 -2 -2 -2 -2 -2 -2 -2 -2 -2 -2 -2 -2 -2 -2 -2 -2 -2 -2 -2 -2 -2 -2 -2 -2 -2 -2 -2 -2 -2 -2 -2 -2 -2 -2 -2 -2 -2 -2 -2 -2 -2 -2 -2 -2 -2 -2 -2 -2 -2 -2 -2 -2 -2 -2 -2 -2 -2 -2 -2 -2 -2 -2 -2 -2 -2 -2 -2 -2 -2 -2 -2 -2 -2 -2 -2 0.6 13.1 35 43.1 43.5 46.4 49.7 65.4 66.7 67 67.4 66.1 60.7 69.9 70.7 72.8 72.5 82.6 89 95 99.3 97.6 100.8 105.4 108 109.3 111.7 113 115.4 117.3 119.9 112 107.4 103.8 102.4 97.1 92.1 99.1 107.8 117.9 128.8 136.7 146.2 153 156.2 156.9 159.5 164.8 173.1 181.4 176.4 166.9 191.4 204.6 210.9 213.1 215.3 220.3 223.1 228.8 232.2 234.7 238.3 241.3 243.6 245.7 246.5 247.1 246.9 244.7 240.7 234.9 230.8 229.2 230.7 231.6 233.3 234.6 236.7 238.4 240.5 242.4 242.7 243.4 243.8 245.5 247.1 249.4 251.7 254.1 256.2 258.5 260.9 263.3 264.6 265.3 265.4 264.7 263.9 263 261.7 260.2 258.8 257.2 255.6 254.1 252.1
-2 -2 -2 -2 -2 -2 -2 -2 -2 -2 -2 -2 -2 -2 -2 -2 -2 -2 -2 -2 -2 -2 -2 -2 -2 -2 -2 -2 -2 -2 -2 -2 -2 -2 -2 -2 -2 -2 -2 -2 -2 -2 -2 -2 -2 -2 -2 -2 -2 -2 -2 -2 -2 -2 -2 -2 -2 -2 -2 -2 -2 -2 -2 -2 -2 -2 -2 -2 -2 -2 -2 -2 -2 -2 -2 -2 -2 -2 -2 -2 -2 -2 -2 -2 -2 -2 -2 -2 -2 -2 -2 -2 0.2 1.5 6.4 44.6 68.3 69.2 70.8 69.8 72.6 76.3 77.6 79.1 80 79.2 77.8 78.2 80.6 82.4 85.3 91.4 98.9 104.3 107.1 109.5 111.3 112.8 114 115.7 117.6 119.9 122.4 125.2 125.3 122.9 123.3 125.3 121.6 111.8 105.3 102 101.1 110 118.9 133.4 138.2 135.5 137.5 141.4 148.9 161.2 161.3 172.7 185.3 193.9 201 206.6 209.5 211.5 212.8 217.9 223.5 226.8 226.7 231.5 232.7 234.7 235.9 238.1 238.1 236.8 234.3 228.2 223.5 220 221 224.1 227.3 228.6 230.3 233.7 234.4 236.1 237.6 239.2 240.9 242.5 244.6 247.3 249.8 252 255.3 257.9 260 261.9 263.5 264.3 265 264.9 264 263.1 262.1 260.7 259.4 258 256.5 254.9 253.4 251.4
-2 -2 -2 -2 -2 -2 -2 -2 -2 -2 -2 -2 -2 -2 -2 -2 -2 -2 -2 -2 -2 -2 -2 -2 -2 -2 -2 -2 -2 -2 -2 -2 -2 -2 -2 -2 -2 -2 -2 -2 -2 -2 -2 -2 -2 -2 -2 -2 -2 -2 -2 -2 -2 -2 -2 -2 -2 -2 -2 -2 -2 -2 -2 -2 -2 -2 -2 -2 -2 -2 -2 -2 -2 -2 -2 -2 -2 -2 -2 -2 -2 -2 -2 -2 -2 -2 -2 -2 -2 39.7 64.8 75.4 2.6 2.7 26.9 60.7 95 91.4 89.8 85.1 82.6 85 85.9 87 87.6 86.3 83.7 83.1 84.4 86.8 90 94.5 100.9 105.5 108.6 111 113.3 115.4 117.4 119.3 121.2 123.6 126.9 130.2 131.2 130.6 131.6 133.8 136.4 137.2 133.1 129.3 123.5 114.1 114.4 118 128.3 122.9 123.3 129 133.3 146.9 154.5 174.7 183.2 190 195.6 199.8 201.9 203.4 208.2 212.2 215.2 217.5 223.3 223.5 225.4 228.8 227.3 227.6 226 224.2 220.9 215.6 219.1 220.3 220.2 222.5 223.9 226 228.5 230.6 232.1 234.2 236.2 238.1 240.1 242.4 245.7 249.1 252.3 255 258.2 260.3 262 263 263.5 264 264.8 264.7 263.7 262.8 261.7 260.3 259 257.7 256.1 254.4 252.7 250.7
-2 -2 -2 -2 -2 -2 -2 -2 -2 -2 -2 -2 -2 -2 -2 -2 -2 -2 -2 -2 -2 -2 -2 -2 -2 -2 -2 -2 -2 -2 -2 -2 -2 -2 -2 -2 -2 -2 -2 -2 -2 -2 -2 -2 -2 -2 -2 -2 -2 -2 -2 -2 -2 -2 -2 -2 -2 -2 -2 -2 -2 -2 -2 -2 -2 -2 -2 -2 -2 -2 -2 -2 -2 -2 -2 -2 -2 -2 -2 -2 -2 -2 -2 -2 -2 -2 -2 -2 -2 55.1 79.5 90.4 89.9 92.6 72.3 97 98.8 98.2 97.1 94 87.8 89.1 92.4 93.1 92.4 92.9 88.4 86.6 87.4 90.1 93.1 98.5 103 106.8 109.6 112 114.3 117 119.1 121.2 124.1 127.7 131.9 135.6 138.3 139.5 139.7 141.3 144.7 146.7 149.5 151.5 150.1 142 116.1 118.1 123.8 127.8 132.7 127.3 143.3 151.8 161.2 168.2 175.9 182.6 186.9 191.4 194.5 195.4 198.1 202 204.2 202.2 203.7 208.5 210.8 211.8 211.2 210 211.2 212.8 217 224.9 226.3 224.7 224.8 225.1 225.8 227.1 228.8 230.6 232.2 234.2 236.5 238.6 240.5 242.9 247.1 251.8 255.4 258.8 261.4 263.3 264 264.1 264.5 264.8 264.9 264.5 263.6 262.7 261.4 260 258.7 257.4 256 254.1 252.3 250.2
-2 -2 -2 -2 -2 -2 -2 -2 -2 -2 -2 -2 -2 -2 -2 -2 -2 -2 -2 -2 -2 -2 -2 -2 -2 -2 -2 -2 -2 -2 -2 -2 -2 -2 -2 -2 -2 -2 -2 -2 -2 -2 -2 -2 -2 -2 -2 -2 -2 -2 -2 -2 -2 -2 -2 -2 -2 -2 -2 -2 -2 -2 -2 -2 -2 -2 -2 -2 -2 -2 -2 -2 -2 -2 -2 -2 -2 -2 -2 -2 -2 -2 -2 -2 -2 -2 -2 -2 47.8 69.6 86.3 90.5 93.6 95.6 98.3 99.1 99.3 99.4 98.2 97.4 92.1 88.5 89.1 89.2 90.6 90.8 87.7 87.5 88.2 90.9 95.2 100.8 104.3 108.1 110.7 112.9 115.2 117.7 120.3 123.7 127.7 131.8 136.6 141.4 144.3 145.4 145.5 147.5 151.9 154.4 156.7 158.7 160.7 159.6 150.2 129.2 124.7 144.2 134.3 138.9 148.1 147.3 152 157.3 165.6 169.5 173.4 174.3 176.4 185.9 189.8 184.2 179.2 183.8 193.8 198.5 204.2 206.8 211.1 215.8 220.5 231.9 237.5 237 236 235.4 233 229.3 229.1 229.2 230.8 232.6 234.8 236.7 238.5 239.8 242 244.6 249.1 253.8 257.7 260.7 263.2 264.9 265.2 265.1 265.1 265.2 264.9 264.4 263.4 262.5 261.1 259.7 258.5 257.2 256 254.1 252.2 251
-2 -2 -2 -2 -2 -2 -2 -2 -2 -2 -2 -2 -2 -2 -2 -2 -2 -2 -2 -2 -2 -2 -2 -2 -2 -2 -2 -2 -2 -2 -2 -2 -2 -2 -2 -2 -2 -2 -2 -2 -2 -2 -2 -2 -2 -2 -2 -2 -2 -2 -2 -2 -2 -2 -2 -2 -2 -2 -2 -2 -2 -2 -2 -2 -2 -2 -2 -2 -2 -2 -2 -2 -2 -2 -2 -2 -2 -2 -2 -2 -2 -2 -2 -2 -2 -2 -2 -2 20 65.8 73.6 77.9 84.8 93.3 97.9 99.7 99.2 97.6 95.7 95.5 85.1 82.1 80.4 81.1 82.8 83.1 82.9 83.7 87.1 91.7 95.8 101.8 106.3 109.4 111.6 113.9 116.7 119.2 122.5 126.3 131.7 136.9 142.1 146.7 149.6 151.9 153.7 156.5 158.6 159.8 162.2 164.9 165.2 164.2 160.6 148 132.3 151.8 150.6 145 138.1 140.7 148.9 148.9 151.9 151.5 151.9 153.7 160.4 165.5 166.3 180.6 198 209.8 217.7 223.1 226.9 229.5 233.1 237.4 239 240.5 241.6 241.9 241.3 240.9 238.8 234.3 231.9 231.9 233.7 235.8 237.9 240.1 241.1 242.5 244.9 247.4 250.9 255.6 258.7 261.1 263 264.7 265.9 265.9 265.5 265.2 264.9 264.4 263.4 262.2 260.8 259.5 258.3 257 255.8 254.2 252.7 251.9
-2 -2 -2 -2 -2 -2 -2 -2 -2 -2 -2 -2 -2 -2 -2 -2 -2 -2 -2 -2 -2 -2 -2 -2 -2 -2 -2 -2 -2 -2 -2 -2 -2 -2 -2 -2 -2 -2 -2 -2 -2 -2 -2 -2 -2 -2 -2 -2 -2 -2 -2 -2 -2 -2 -2 -2 -2 -2 -2 -2 -2 -2 -2 -2 -2 -2 -2 -2 -2 -2 -2 -2 -2 -2 -2 -2 -2 -2 -2 -2 -2 -2 -2 -2 -2 -2 -2 -2 1.6 41.7 51.4 59.8 68.4 77.5 84 87.1 85.3 81 79.4 78.6 71.9 71.2 72.5 72.4 74.2 75.4 75.6 79.6 85.6 91.5 97.2 102.5 106.4 109.8 112.7 115.3 118.5 121.7 125.2 130.1 136.4 141.9 147.1 151.1 154.2 158 160.4 162.3 163.5 165.9 167.9 169.4 169.3 167.7 164.4 147.1 143.9 157.8 158.5 159.6 160 165.5 168.1 151.6 153.3 153.6 153.6 165.7 169.6 175.8 188.8 202.5 214 223 228.5 232.2 235.5 238.3 240 241.4 242.5 243.7 244.6 245.2 245.1 244.2 242.4 238.8 236.5 235.6 236.7 238.7 240.1 241.6 243.2 245.4 247.6 249.6 252.1 255.7 258.6 260.4 262.1 263.8 265 265.6 265.4 265 264.6 264.3 263.3 262.2 260.8 259.4 258 256.8 255.7 254.3 253.1 251.9
-2 -2 -2 -2 -2 -2 -2 -2 -2 -2 -2 -2 -2 -2 -2 -2 -2 -2 -2 -2 -2 -2 -2 -2 -2 -2 -2 -2 -2 -2 -2 -2 -2 -2 -2 -2 -2 -2 -2 -2 -2 -2 -2 -2 -2 -2 -2 -2 -2 -2 -2 -2 -2 -2 -2 -2 -2 -2 -2 -2 -2 -2 -2 -2 -2 -2 -2 -2 -2 -2 -2 -2 -2 -2 -2 -2 -2 -2 -2 -2 -2 -2 -2 -2 -2 -2 -2 -2 0.2 20.4 28.4 36.5 44.4 52.1 58 60.5 58.2 55.3 53.3 55.2 56.3 58.6 61.4 62 63.8 65.3 68.3 75.9 83.9 91.9 97.6 102.8 106.8 109.9 113.2 117.6 121 124.7 129.4 134.6 140.6 146.2 151.1 154.7 158.3 162.2 165.2 167.1 168.3 170.4 171.4 171.9 171.7 171.1 165.7 143.5 153.7 160.9 162.7 164.9 166.3 169.1 170.9 153.8 180.7 183.3 186.9 191.8 194.6 200.5 209.9 218.1 224.4 228.9 233.3 236.5 238.9 240.7 242.5 243.8 245 246.3 247.4 248.4 248.2 246.9 245.2 242.4 240 239.7 239.6 240.7 242.3 243.9 245.9 249.2 250.2 251.3 253.2 256.1 258.3 260.1 261.3 262.5 263.7 264.1 264.1 263.7 263.3 263.1 262.8 261.7 260.2 259 257.7 256.6 255.4 254.2 252.9 251.2
-2 -2 -2 -2 -2 -2 -2 -2 -2 -2 -2 -2 -2 -2 -2 -2 -2 -2 -2 -2 -2 -2 -2 -2 -2 -2 -2 -2 -2 -2 -2 -2 -2 -2 -2 -2 -2 -2 -2 -2 -2 -2 -2 -2 -2 -2 -2 -2 -2 -2 -2 -2 -2 -2 -2 -2 -2 -2 -2 -2 -2 -2 -2 -2 -2 -2 -2 -2 -2 -2 -2 -2 -2 -2 -2 -2 -2 -2 -2 -2 -2 -2 -2 -2 -2 -2 -2 -2 2.6 2.7 15.5 18.6 24 30.5 34.9 37.2 36.2 35.4 38.4 41.6 45.3 47.6 49.6 55.2 57.2 58.7 63.3 66.9 81 91.7 98.4 103.5 107.6 111.6 114.6 119.5 125.2 129.5 134 139.4 144.7 149 154 158 162.4 166.3 169 171.2 172.7 174 174.9 175.2 174.8 173.1 165.6 155 153.5 162.2 166.1 170 172.1 175.3 179.3 187.6 194.3 199.9 204.8 209.3 214.1 217.8 222 225.9 229.8 233.5 236.5 238.4 240.1 242.1 243.6 245.6 247.4 248.7 249.8 250.7 250.7 249.5 247.2 244.6 243.1 242.2 241.7 242.7 244.5 246.3 248.2 251.4 253 253.7 254.3 255.7 257.8 259 259.8 260.9 261.3 261.7 262 261.9 261.7 261.7 261.3 260.5 259.1 258 257.1 256.3 254.9 253.7 251.8 249.8
-2 -2 -2 -2 -2 -2 -2 -2 -2 -2 -2 -2 -2 -2 -2 -2 -2 -2 -2 -2 -2 -2 -2 -2 -2 -2 -2 -2 -2 -2 -2 -2 -2 -2 -2 -2 -2 -2 -2 -2 -2 -2 -2 -2 -2 -2 -2 -2 -2 -2 -2 -2 -2 -2 -2 -2 -2 -2 -2 -2 -2 -2 -2 -2 -2 -2 -2 -2 -2 -2 -2 -2 -2 -2 -2 -2 -2 -2 -2 -2 -2 -2 -2 -2 -2 -2 -2 2.5 48.4 43.3 36 26.5 20.8 24 26.3 28.5 32.4 35.9 41 42.1 47.1 51.8 57.4 66.3 72 73 73.6 75.6 73.8 87.9 97.3 104.1 108.9 112.8 117.7 122.6 127.8 133.4 138.8 143.6 147.7 152.3 157.6 161.6 165.6 169.4 172 173.6 175.2 176.3 177.3 178 177.7 175.3 170.5 160.1 152 152.5 167.9 173.9 177.2 181.5 187.2 194 200.2 206 211.8 216.6 220.5 224.1 227.3 230.1 233 235.9 238.2 239.7 241.2 243 245 247.1 249.1 250.6 251.7 252.5 252 251.3 249.4 247.6 246.4 245.1 244.9 245.6 247.4 248.4 249.7 252.1 254.8 255.6 256 256.5 257 257.3 258 258 258.8 259.2 259.5 259.5 259.4 259.4 259.5 258.8 258.2 257.5 256.7 255.6 254.2 252.7 250.9 248.2
-2 -2 -2 -2 -2 -2 -2 -2 -2 -2 -2 -2 -2 -2 -2 -2 -2 -2 -2 -2 -2 -2 -2 -2 -2 -2 -2 -2 -2 -2 -2 -2 -2 -2 -2 -2 -2 -2 -2 -2 -2 -2 -2 -2 -2 -2 -2 -2 -2 -2 -2 -2 -2 -2 -2 -2 -2 -2 -2 -2 -2 -2 -2 -2 -2 -2 -2 -2 -2 -2 -2 -2 -2 -2 -2 -2 -2 -2 -2 -2 -2 -2 -2 -2 -2 -2 -2 19 68.4 69.1 64.6 55.3 38 25.7 37 45.8 49.9 55.4 59.4 62.1 65.9 68.4 73 77.2 80.7 81.2 83.8 87.7 84.6 80.7 95.2 102.8 109.1 114.3 119.9 124.6 130.4 135.9 142.3 147.2 152.8 157.2 161.7 164.9 168.6 171.9 174.3 176 177.6 178.9 179.9 180.4 180 178.9 174.8 168.6 160.2 156.7 169.5 176 181.5 186 192.7 199.8 205.3 210.8 215.9 220.6 224.4 227.4 229.9 232.6 234.6 237 239.5 241 242.5 244.3 246.3 248.3 250.1 251.9 253.2 253.9 253.3 252.6 251.7 250.9 250.4 249.7 249.2 249.1 249.9 250.4 251.2 253.2 256 256.6 256 255.5 255.1 254.8 254.8 255.2 256 256.3 256.4 256.8 256.7 256.9 257.2 257.1 256.7 256.3 255.6 254.6 253.4 251.8 250 247.3
-2 -2 -2 -2 -2 -2 -2 -2 -2 -2 -2 -2 -2 -2 -2 -2 -2 -2 -2 -2 -2 -2 -2 -2 -2 -2 -2 -2 -2 -2 -2 -2 -2 -2 -2 -2 -2 -2 -2 -2 -2 -2 -2 -2 -2 -2 -2 -2 -2 -2 -2 -2 -2 -2 -2 -2 -2 -2 -2 -2 -2 -2 -2 -2 -2 -2 -2 -2 -2 -2 -2 -2 -2 -2 -2 -2 -2 -2 -2 -2 -2 -2 -2 -2 -2 -2 -2 49.3 84.1 86.5 84.6 75.7 48.7 28.6 44.3 69.1 78.4 85.2 85.3 83.2 84.7 83.9 85.9 87.2 87.6 88.5 92.2 97.1 97.4 84.5 89 101 109.2 115.9 121.1 126.5 132.7 138.8 144.6 151.6 157.8 162.7 166.3 168.6 171.5 174.7 177.1 178.6 180 181.4 182.5 182.8 182.7 182.6 180.6 176.1 170.4 164.5 168.9 177.7 184.8 189.2 195.5 202.9 208.9 214.6 219.8 223.8 227.1 229.7 232 233.7 235.5 237.9 240.7 242.2 243.7 245 246.9 248.7 250.6 252.5 254 254.8 254.4 254.3 254.4 255 254 253.2 252.9 252.4 252.4 252.6 252.8 254.9 257.1 256.8 255.4 254.3 253.1 252.5 252.1 252.6 253.1 253.1 253.3 253.8 254.3 254.6 254.7 254.2 253.9 253.7 253.7 252.9 251.8 250.3 248.5 246.2
-2 -2 -2 -2 -2 -2 -2 -2 -2 -2 -2 -2 -2 -2 -2 -2 -2 -2 -2 -2 -2 -2 -2 -2 -2 -2 -2 -2 -2 -2 -2 -2 -2 -2 -2 -2 -2 -2 -2 -2 -2 -2 -2 -2 -2 -2 -2 -2 -2 -2 -2 -2 -2 -2 -2 -2 -2 -2 -2 -2 -2 -2 -2 -2 -2 -2 -2 -2 -2 -2 -2 -2 -2 -2 -2 -2 -2 -2 -2 -2 -2 -2 -2 -2 -2 -2 -2 58.2 83.6 88.3 88.4 73.8 49.3 31.1 47 74.9 87.6 90.6 89.6 88.9 91.2 91.2 91.8 92.5 93.2 95.8 100.5 102.2 100.6 93.8 87.5 99 109.7 116.6 122.8 128.3 134.2 140.7 147.3 153.6 159.7 164.2 168.4 171.6 174.1 176.7 178.9 180.9 182.4 183.8 184.6 184.9 185.2 185.2 184.6 184.1 181.6 176.4 167 177.4 185.8 191.1 196.3 205.2 211.6 216.9 221.6 225.5 228.3 230.4 232.6 234.6 236.4 238.8 241.2 243.1 244.5 245.8 247.3 249.2 251 252.7 254.1 255.3 255.4 256.4 257.1 257.5 256.5 255.5 254.4 254.1 254.1 254.2 254 255.3 256.8 256 254.7 253.6 251.5 250.1 249.5 249.8 249.6 249.7 250.6 251.6 251.8 251.1 250.8 250.3 250.1 250.9 251 250.1 249.1 248 246.3 244.3
-2 -2 -2 -2 -2 -2 -2 -2 -2 -2 -2 -2 -2 -2 -2 -2 -2 -2 -2 -2 -2 -2 -2 -2 -2 -2 -2 -2 -2 -2 -2 -2 -2 -2 -2 -2 -2 -2 -2 -2 -2 -2 -2 -2 -2 -2 -2 -2 -2 -2 -2 -2 -2 -2 -2 -2 -2 -2 -2 -2 -2 -2 -2 -2 -2 -2 -2 -2 -2 -2 -2 -2 -2 -2 -2 -2 -2 -2 -2 -2 -2 -2 -2 -2 -2 -2 -2 59.3 81.1 90.4 89.6 75 50.6 33.5 48.6 76.8 88.4 90.2 91.2 92 93.7 95.1 95.5 96.6 99.4 102.9 104.7 104.3 103 99.7 92.3 93.8 108.1 116.1 123.6 130.2 136.1 142.4 148.8 154.9 160.1 164.7 168.5 172.5 175.4 178 180.3 182.5 184.4 186.2 186.7 187 187.3 187.4 187.8 187.9 188 184.6 176.2 172.7 185.2 191.5 196.6 205.4 213.1 218 222.4 225.8 228.3 230.9 233.3 235.4 237.3 239.3 241.3 243.2 244.7 246.3 247.9 249.5 251.1 252.7 254.1 255.3 256.7 257.9 258.1 257.9 257.4 256.4 255.2 254.6 254.7 254.4 254.2 254.8 256.3 255.1 253.5 250.9 249.8 248 246.8 246.4 246.1 246.9 248 247.2 247.3 247.3 247 246.6 247 247.2 247.2 247 245.9 245 243.8 241.7
-2 -2 -2 -2 -2 -2 -2 -2 -2 -2 -2 -2 -2 -2 -2 -2 -2 -2 -2 -2 -2 -2 -2 -2 -2 -2 -2 -2 -2 -2 -2 -2 -2 -2 -2 -2 -2 -2 -2 -2 -2 -2 -2 -2 -2 -2 -2 -2 -2 -2 -2 -2 -2 -2 -2 -2 -2 -2 -2 -2 -2 -2 -2 -2 -2 -2 -2 -2 -2 -2 -2 -2 -2 -2 -2 -2 -2 -2 -2 -2 -2 -2 -2 -2 -2 -2 -2 60.6 80.1 89.9 90.7 79 56.3 36.7 47.7 75.4 89.1 90.9 92.1 93.6 95.1 96.4 97.5 99.8 102.3 106.1 108.5 107.6 105.8 104.2 100.8 94.5 104.6 115.7 124.8 131.8 138.1 144.3 150.2 155.5 160.6 164.5 168.1 172.6 176.2 178.9 181.7 184.1 186 187.5 188.5 188.9 189.3 189.9 190.4 190.5 191.1 191.1 186.7 176.7 181.2 189.8 195.6 203.9 211.5 217.7 221.8 224.7 227.6 230.1 232.9 235.2 237.2 239.1 241 242.7 244.4 246 247.5 249.3 251.1 252.7 254.1 255.4 256.9 257.7 257.7 257.2 256.6 255.4 254.6 254.1 254.3 254.6 254.4 254.9 255.5 253.9 252.4 250 248.2 246.2 244.2 242.9 243 242.7 242.3 242.9 243.5 243.5 243.2 243.5 243.8 243.6 243.3 243.2 242.8 241.9 240.9 239.6
-2 -2 -2 -2 -2 -2 -2 -2 -2 -2 -2 -2 -2 -2 -2 -2 -2 -2 -2 -2 -2 -2 -2 -2 -2 -2 -2 -2 -2 -2 -2 -2 -2 -2 -2 -2 -2 -2 -2 -2 -2 -2 -2 -2 -2 -2 -2 -2 -2 -2 -2 -2 -2 -2 -2 -2 -2 -2 -2 -2 -2 -2 -2 -2 -2 -2 -2 -2 -2 -2 -2 -2 -2 -2 -2 -2 -2 -2 -2 -2 -2 -2 -2 -2 -2 -2 -2 26 79.5 89.2 92.2 86.1 61.6 41.1 44.4 69.5 86.9 90.3 92.5 94.1 96.1 97.6 99.3 101.6 103.5 106.5 108.4 108.5 107.5 107.9 108.1 102.9 102.8 114 125.7 133.5 139.9 145.4 150.9 156.5 161.8 165.7 169.3 172.8 177.1 180 183.1 185.6 187.4 189.2 189.9 190.7 191.3 192.1 193 193.4 193.6 193.4 192 185.7 178.9 185.7 193.8 201.7 209 214.4 218.6 222.3 225.9 228.9 231.6 233.9 236.2 238.4 240.2 241.8 243.4 245.2 247 248.7 250 251.9 253.7 255.5 256.2 256.3 256.2 255.6 254.5 253.5 252.9 252.5 253.4 254.1 254.4 254.3 254.6 253 251.4 250 248.2 245.9 243.1 238.7 237.8 237.6 238.1 239.2 239.8 240.3 240.2 240.6 240.1 239.8 239.8 239.8 239.4 239 238.5 237.8
-2 -2 -2 -2 -2 -2 -2 -2 -2 -2 -2 -2 -2 -2 -2 -2 -2 -2 -2 -2 -2 -2 -2 -2 -2 -2 -2 -2 -2 -2 -2 -2 -2 -2 -2 -2 -2 -2 -2 -2 -2 -2 -2 -2 -2 -2 -2 -2 -2 -2 -2 -2 -2 -2 -2 -2 -2 -2 -2 -2 -2 -2 -2 -2 -2 -2 -2 -2 -2 -2 -2 -2 -2 -2 -2 -2 -2 -2 -2 -2 -2 -2 -2 -2 -2 -2 -2 25 79.3 86.9 92.3 90.3 70.1 48.4 43.6 62.3 81 87.1 91.7 94.6 96.8 98.6 100.7 102.7 104.9 106.5 107.7 108.2 109.6 111 112.4 112.9 104.7 112.8 125.7 134.1 140.8 146.5 152.4 158.4 163.5 167.5 170.9 174.2 178.1 181.3 184.4 187 188.8 190.6 191.6 192.9 193.4 194.9 196.1 197.9 198 198.3 196.8 192.7 186.1 183.6 189.5 197.5 205.5 210.6 215.2 219.1 222.8 226.2 229.4 231.8 234.1 236.9 239 240.7 242.4 244.2 246 247.3 249 250.9 252.7 254.1 254.4 254.3 254.1 253.4 252.1 251.6 251.4 251 251.8 252.4 253.3 253.3 253.1 251.5 250.8 250.3 247.5 245.2 240.7 236.1 233.1 233 234.2 235.4 236 236.6 236.7 236.5 236.3 236.1 236.2 236.6 237.1 236.6 236.1 235.7
-2 -2 -2 -2 -2 -2 -2 -2 -2 -2 -2 -2 -2 -2 -2 -2 -2 -2 -2 -2 -2 -2 -2 -2 -2 -2 -2 -2 -2 -2 -2 -2 -2 -2 -2 -2 -2 -2 -2 -2 -2 -2 -2 -2 -2 -2 -2 -2 -2 -2 -2 -2 -2 -2 -2 -2 -2 -2 -2 -2 -2 -2 -2 -2 -2 -2 -2 -2 -2 -2 -2 -2 -2 -2 -2 -2 -2 -2 -2 -2 -2 -2 -2 -2 -2 -2 -2 27.7 82.1 90.6 93.8 92.6 79.6 57.5 44.3 55.4 75.8 86.9 92.6 95.1 97.1 99.2 101.2 103.1 105 106.3 107.9 109.7 111.2 113.7 116.2 117.4 119 112 124.4 134.7 142.5 148.1 154 160.5 165.8 169.3 172.5 175.7 178.6 182.1 185.4 187.9 190.1 192 193.3 194.9 195.9 197.9 199.9 201.6 202.8 203.4 202.1 199.4 195.1 191.1 188.4 192.6 200.3 206.8 211.2 215.7 219.6 222.9 226.1 229 231.8 234.8 237.3 239.6 241.3 243 244.4 245.9 247.7 249.5 251.3 251.9 251.5 251.4 250.7 250.3 249.5 249.1 249.1 249.1 249.4 250.5 251.5 252.3 249.6 249.8 249.7 252.5 246.4 243.2 238.5 234 230.5 228.9 230.1 231.5 232.2 232.7 232.8 232.7 232.5 232.6 233.1 233.5 234 234.3 234 234.2
-2 -2 -2 -2 -2 -2 -2 -2 -2 -2 -2 -2 -2 -2 -2 -2 -2 -2 -2 -2 -2 -2 -2 -2 -2 -2 -2 -2 -2 -2 -2 -2 -2 -2 -2 -2 -2 -2 -2 -2 -2 -2 -2 -2 -2 -2 -2 -2 -2 -2 -2 -2 -2 -2 -2 -2 -2 -2 -2 -2 -2 -2 -2 -2 -2 -2 -2 -2 -2 -2 -2 -2 -2 -2 -2 -2 -2 -2 -2 -2 -2 -2 -2 -2 -2 -2 0.1 36 87.5 91.8 93.8 93.4 87.6 71.9 50.1 55.4 76.4 88.9 93.4 95.6 97.2 98.9 101.1 103.3 105 106.8 108.7 110.8 113.4 117.1 118.7 120.8 122.8 116 123 135.1 143 149.2 155 161.3 166.2 170.8 174.1 177.3 179.9 182.6 185.5 188.6 191.1 193.1 195.3 197 198.8 200.8 202.6 204.4 205.7 206.4 206 204.5 202 198.5 196.2 191.2 195.9 202.4 208 212.8 216.7 219.9 223.4 226.7 230.2 232.6 235.4 237.8 240.1 241.7 243.3 244.6 246.2 247.6 249 248.8 248.5 248 247.2 247.2 246.7 246.5 247.2 247.7 248.2 248.8 249.8 250.7 249.8 247.5 247.6 250.7 245.2 241.8 236.9 231.9 228.1 225.6 226.2 227.7 228.5 229 229.2 229.1 229 229.8 230.4 230.9 231.5 232.2 232.6 232.8
-2 -2 -2 -2 -2 -2 -2 -2 -2 -2 -2 -2 -2 -2 -2 -2 -2 -2 -2 -2 -2 -2 -2 -2 -2 -2 -2 -2 -2 -2 -2 -2 -2 -2 -2 -2 -2 -2 -2 -2 -2 -2 -2 -2 -2 -2 -2 -2 -2 -2 -2 -2 -2 -2 -2 -2 -2 -2 -2 -2 -2 -2 -2 -2 -2 -2 -2 -2 -2 -2 -2 -2 -2 -2 -2 -2 -2 -2 -2 -2 -2 -2 -2 -2 -2 -2 1.5 48.3 87.6 92.1 93.9 94.2 92.3 81.9 55.9 54 74.4 87.5 91.1 93.8 94.4 96.7 99.8 102.8 105.3 107.6 109.7 112 114.9 118.1 120 123.2 125.4 124.6 122.8 133.2 142.5 150 155.7 160.9 165.9 170.2 174.3 177.4 180 182.5 184.8 188.2 191.7 194.4 196.8 198.9 201.3 203.5 205.1 206.3 207.2 208.1 208.6 208.4 206.6 205 203.1 200.1 197.5 200.1 204.6 210.3 214.3 218.5 222.1 225.5 229.4 232 234.2 236.3 238.5 240.6 242.1 243.2 245.1 245.5 246.3 245.9 244.7 244.2 243.8 244.1 244.2 245 245.8 246.5 247 247.6 248.2 248.4 248.2 247.4 248.6 245.4 243.3 240.1 235.2 229.7 225.8 225.1 223.5 224.1 225.1 225.9 225.6 225.2 225.9 226.8 227.8 228.4 229.1 230.1 231.1 231.6
-2 -2 -2 -2 -2 -2 -2 -2 -2 -2 -2 -2 -2 -2 -2 -2 -2 -2 -2 -2 -2 -2 -2 -2 -2 -2 -2 -2 -2 -2 -2 -2 -2 -2 -2 -2 -2 -2 -2 -2 -2 -2 -2 -2 -2 -2 -2 -2 -2 -2 -2 -2 -2 -2 -2 -2 -2 -2 -2 -2 -2 -2 -2 -2 -2 -2 -2 -2 -2 -2 -2 -2 -2 -2 -2 -2 -2 -2 -2 -2 -2 -2 -2 -2 -2 1.6 67.6 81.3 88.4 92.6 94.4 94.4 93.7 85.7 58.8 54.1 61.4 69.8 76 81.1 84.9 90 97 101.3 104.9 108 111 113.6 116.6 119.4 121.8 125.2 128.3 131.4 128.9 129 138.3 147.9 154.8 160.2 164.9 168.9 172.7 175.9 178.8 181.2 184.7 188.8 192.6 195.8 198.3 200.5 202.7 204.9 206.9 207.8 208.6 209.7 210.7 211.6 210.8 210 208.4 206.8 201.2 201.9 205.4 210.2 214.7 218.9 222.9 225.8 228.6 231.2 233.3 235.3 237.3 237.9 244.4 240.9 242.1 243 243.3 241.6 240.2 240.3 240.5 242 242.8 243.4 244.2 245.2 245.9 246.5 247.1 247.2 246.8 246.2 245 243.4 241.2 238.1 233.1 227 224.2 219.5 218.6 220.2 220.9 221.7 221.9 222 222.7 223.8 224.9 225.9 227.3 228.4 229.5 230.9
-2 -2 -2 -2 -2 -2 -2 -2 -2 -2 -2 -2 -2 -2 -2 -2 -2 -2 -2 -2 -2 -2 -2 -2 -2 -2 -2 -2 -2 -2 -2 -2 -2 -2 -2 -2 -2 -2 -2 -2 -2 -2 -2 -2 -2 -2 -2 -2 -2 -2 -2 -2 -2 -2 -2 -2 -2 -2 -2 -2 -2 -2 -2 -2 -2 -2 -2 -2 -2 -2 -2 -2 -2 -2 -2 -2 -2 -2 -2 -2 -2 -2 -2 -2 -2 1.8 82.1 86.2 89.2 92.4 93.4 93.5 91.2 75.7 57.7 61.6 65.6 64.3 69.8 70.6 73.6 83.5 93.3 100.2 104.6 109.2 112.5 115.3 118.2 121 123.9 126.8 129.8 133.3 135.2 134.5 134.4 142.2 150.7 158.4 163.5 166.9 170.4 173.8 176.6 180.7 184.6 189 192.8 195.9 198.8 200.6 202.9 205.8 207.9 209.1 209.9 211.2 212.8 213.8 214.4 213.9 212.6 211.1 207.1 205.4 208.3 213.4 216.8 220.4 223.2 226 228.2 230.7 232.6 234.5 236.4 239 240.1 240.2 241.2 239.8 238.6 237.7 237.3 237.8 238.8 239.6 241 241.8 242.8 243.9 244.7 245.3 245.9 245.7 245.4 245 243.8 241.9 239.4 235.8 229.8 223.8 218.7 215.9 215.2 216.4 217.2 216.9 217.8 218.9 219.8 221.7 222.9 224.7 226.2 227.5 229 230.9
-2 -2 -2 -2 -2 -2 -2 -2 -2 -2 -2 -2 -2 -2 -2 -2 -2 -2 -2 -2 -2 -2 -2 -2 -2 -2 -2 -2 -2 -2 -2 -2 -2 -2 -2 -2 -2 -2 -2 -2 -2 -2 -2 -2 -2 -2 -2 -2 -2 -2 -2 -2 -2 -2 -2 -2 -2 -2 -2 -2 -2 -2 -2 -2 -2 -2 -2 -2 -2 -2 -2 -2 -2 -2 -2 -2 -2 -2 -2 -2 -2 -2 -2 -2 -2 2.3 88.7 89.3 91.2 92.4 92.2 90.8 86.5 66.6 66.4 81.2 84.9 85.5 86.9 82.5 90.2 84.2 88.9 95.9 106.2 110.1 113.7 116.3 119.5 122.4 125.3 128.2 131.3 134.7 137.6 140.3 138.8 137.8 144.7 150.9 157 163.5 168.9 172.8 176.1 180.2 184.6 188.9 192.5 195.4 197.8 200.1 202.8 205.6 208 210 211.3 212.8 214.3 215.6 216.7 216.5 215.7 214.2 212 211.5 212.5 215.9 218.4 221 222.9 225 227.5 230.2 232.1 234 235.9 237.1 238.6 238.5 237.8 235.6 234.2 234.4 234.7 235.4 236.5 237.4 238.7 240.5 241.5 242.7 243.4 244.1 244.5 244.1 243.9 243.5 242.1 240.2 236.8 230.8 225 218.8 215.8 213 211.8 213 213.7 213.1 213.8 215.7 218 220.2 222.4 224.2 225.8 227.5 229.4 231
-2 -2 -2 -2 -2 -2 -2 -2 -2 -2 -2 -2 -2 -2 -2 -2 -2 -2 -2 -2 -2 -2 -2 -2 -2 -2 -2 -2 -2 -2 -2 -2 -2 -2 -2 -2 -2 -2 -2 -2 -2 -2 -2 -2 -2 -2 -2 -2 -2 -2 -2 -2 -2 -2 -2 -2 -2 -2 -2 -2 -2 -2 -2 -2 -2 -2 -2 -2 -2 -2 -2 -2 -2 -2 -2 -2 -2 -2 -2 -2 -2 -2 -2 -2 2.2 73.4 93.9 93.5 93.2 92.6 92.2 89.7 84.7 70.2 85.4 90.4 92.2 93.9 94.1 95.1 99.6 98.8 95.7 104.5 104.1 109.1 113.9 117.4 120.7 123.9 126.9 129.9 133.3 136.6 139.8 143.2 135.6 142.6 142.1 144.9 151.8 159.9 166.3 171 174 178.2 182.6 186.3 189.9 192.8 195.3 198.6 201.8 205.3 207.8 210.1 211.8 214.6 216 217.3 218.5 218.7 217.6 215.8 215.2 215.2 215.7 217.5 219.3 221.3 223 225.3 227.6 229.7 231.6 233.5 235.1 236 236 234.8 232.4 229.9 230.2 230.6 231.2 233 234.3 236.1 237.9 239.6 240.5 241.4 242.2 242.9 243.1 243 243 241.8 240.2 237.8 233 225.7 220.7 216.5 213.2 210.4 209.4 208.8 209.3 210.2 213.3 215.6 219.2 221.3 223.1 225 226.9 228.3 229.8 230.9
-2 -2 -2 -2 -2 -2 -2 -2 -2 -2 -2 -2 -2 -2 -2 -2 -2 -2 -2 -2 -2 -2 -2 -2 -2 -2 -2 -2 -2 -2 -2 -2 -2 -2 -2 -2 -2 -2 -2 -2 -2 -2 -2 -2 -2 -2 -2 -2 -2 -2 -2 -2 -2 -2 -2 -2 -2 -2 -2 -2 -2 -2 -2 -2 -2 -2 -2 -2 -2 -2 -2 -2 -2 -2 -2 -2 -2 -2 -2 -2 -2 -2 -2 0.3 31.3 93.5 94.9 95.2 94.3 92.5 91 89.3 84.8 75 87.7 92.7 96.1 98.7 100.3 101.6 104.4 105.7 107 108.8 110.5 111.7 115.5 119 122.2 125.3 128.5 131.6 134.6 137.8 141.2 144.9 147.8 149.4 148.2 147.5 148.3 153.8 161.2 165.7 170.1 173.9 177.4 180.9 184.4 187.8 192.3 196.8 201.3 207.8 216.1 211.4 213.8 214 218.1 218.9 220.1 220.2 219.3 217.4 217.5 217.8 218 218.7 219.9 221.6 223.7 225.6 227.1 229.2 231 232.6 233.9 234.4 232.6 228.6 225.8 226.7 228 229.1 231.1 232.7 234.4 236 237.7 239.1 240.1 240.9 241.5 242.4 242.5 242.3 241.5 240 238.4 235 229.9 223.2 218 214.2 210.9 208.2 206.8 205.9 207.8 209.5 213 216.7 220.3 223.2 225.2 227.2 228.7 229.9 230.4 231.3
-2 -2 -2 -2 -2 -2 -2 -2 -2 -2 -2 -2 -2 -2 -2 -2 -2 -2 -2 -2 -2 -2 -2 -2 -2 -2 -2 -2 -2 -2 -2 -2 -2 -2 -2 -2 -2 -2 -2 -2 -2 -2 -2 -2 -2 -2 -2 -2 -2 -2 -2 -2 -2 -2 -2 -2 -2 -2 -2 -2 -2 -2 -2 -2 -2 -2 -2 -2 -2 -2 -2 -2 -2 -2 -2 -2 -2 -2 -2 -2 -2 -2 -2 8.9 54.1 93.2 94.9 95.5 95.3 93.2 91.5 90.1 86.8 79.9 87.2 95.2 99.2 102.4 104.2 105.8 107.4 109.1 110.5 112.1 114.4 115.7 117.7 120.6 123.7 126.7 129.8 133.2 135.9 138.5 142.1 146.4 149.9 152.7 154.1 154.6 153.9 152 154.3 158.5 165.6 170.8 174.6 177.1 181.3 186.4 190.9 195.6 200.7 204.6 209.3 205.2 209.5 226 225.3 220.3 221.2 221.6 220.9 219.8 219.2 219.4 219.5 219.9 220.7 222.3 223.6 224.9 226.8 228.2 229.4 230.8 231.7 231.5 226.8 223.7 223.9 226.1 228.6 230.7 232.5 233.7 235.2 236.2 238.1 239.4 240.2 240.8 241.5 242.1 242.2 241.4 240.5 238.9 236.2 231.8 226.3 220.8 216.4 212.3 208.9 206.1 204.2 204.6 207.4 209.8 213.6 217.5 220.8 224.3 226.2 228 229.6 230.4 231.1 231.8
-2 -2 -2 -2 -2 -2 -2 -2 -2 -2 -2 -2 -2 -2 -2 -2 -2 -2 -2 -2 -2 -2 -2 -2 -2 -2 -2 -2 -2 -2 -2 -2 -2 -2 -2 -2 -2 -2 -2 -2 -2 -2 -2 -2 -2 -2 -2 -2 -2 -2 -2 -2 -2 -2 -2 -2 -2 -2 -2 -2 -2 -2 -2 -2 -2 -2 -2 -2 -2 -2 -2 -2 -2 -2 -2 -2 -2 -2 -2 -2 -2 -2 1.7 23.2 76.3 93.9 94.6 95.4 96.1 94.6 93.4 92 90.6 87.3 88.9 97.4 102.5 105.2 106.8 108 109.6 111.3 112.9 114.7 116.4 118 120 122.8 125.9 129.1 131.7 134.4 137 139.8 143.9 148 152.3 155.4 157.8 159.2 160.8 159.7 158.1 156.7 161.2 167.1 169.7 174.5 180 185.8 191.1 196 200.9 204.5 210.8 205.2 206.8 198.2 220.3 221.6 222.4 222.7 222 221.3 220.5 220.7 221 221.5 221.9 222.7 223.6 224.9 226.1 227 227.9 228.8 228.8 226.3 221.4 221.9 225 227.8 230.3 232.5 234.4 235.5 235.7 237 238.9 240.3 241.1 241.5 241.2 241.8 241.9 241 240 238.5 235.2 230.7 225.2 220.7 215.6 211 207.1 204.2 201.8 202.2 206.2 209.2 213 216.9 220.1 222.9 224.7 226.4 228.4 229.6 230.4 231.6
-2 -2 -2 -2 -2 -2 -2 -2 -2 -2 -2 -2 -2 -2 -2 -2 -2 -2 -2 -2 -2 -2 -2 -2 -2 -2 -2 -2 -2 -2 -2 -2 -2 -2 -2 -2 -2 -2 -2 -2 -2 -2 -2 -2 -2 -2 -2 -2 -2 -2 -2 -2 -2 -2 -2 -2 -2 -2 -2 -2 -2 -2 -2 -2 -2 -2 -2 -2 -2 -2 -2 -2 -2 -2 -2 -2 -2 -2 -2 -2 -2 -2 12.6 40.7 88.2 93.1 95 95.7 96.4 96.2 95.1 94.1 93.3 92.5 90 100.9 104.4 106.5 108.4 109.8 111.2 112.7 114.3 116.3 118.2 119.9 122.3 124.9 128.4 131.5 133.6 136 138.5 141.9 146 149.8 154.3 157.6 160.3 162.3 164 164.4 162.6 160.4 158.9 162.5 168.6 174.6 180 185.8 191.1 196.3 200.7 204.7 207.8 215.7 198.7 206.7 220.8 222.1 223 223.3 223 222.7 221.9 222 222.5 222.5 222.3 223 223 223.9 224.9 225.6 226.1 226.4 224.2 218 219.1 222.6 226 228.7 231.4 233.8 234.7 235.1 236.9 238.3 240.2 241 242 242.2 241.8 241.6 241.5 240.5 239.5 237.8 234.9 230.6 226.3 220.8 215.2 209.1 205.7 202.5 200.1 200.4 204.7 207.7 211 215 217.3 219.8 222.1 223.9 225.7 227.6 229.8 231.7
-2 -2 -2 -2 -2 -2 -2 -2 -2 -2 -2 -2 -2 -2 -2 -2 -2 -2 -2 -2 -2 -2 -2 -2 -2 -2 -2 -2 -2 -2 -2 -2 -2 -2 -2 -2 -2 -2 -2 -2 -2 -2 -2 -2 -2 -2 -2 -2 -2 -2 -2 -2 -2 -2 -2 -2 -2 -2 -2 -2 -2 -2 -2 -2 -2 -2 -2 -2 -2 -2 -2 -2 -2 -2 -2 -2 -2 -2 -2 -2 -2 -2 -2 43.3 87.5 93.1 96.2 97.5 98 97.8 97.3 96.8 97 96.8 94.2 101.3 105.4 107.7 109.5 111.3 112.6 114.1 115.8 117.8 119.8 122.2 124.6 127.4 130.8 133.2 135.6 138.1 140.7 144.1 147.8 151.2 155.5 159.7 162.7 164.7 166.5 167.4 166.2 164.1 161.6 163 168.1 173.6 179.6 185.5 190.7 196 200.7 204.8 209.1 213.4 216 219.5 221.1 222.5 223.3 223.3 223.3 223.4 223.4 223.3 223.2 223 222.8 222.9 222.9 222.7 223.1 223 223.1 222.7 214.6 215.5 219.8 223.5 226.7 229.3 231.7 232.8 234.3 236.1 238 239.7 240.7 241.5 242.4 242.5 242.1 241.3 240.7 239.9 239 237.2 234.2 230.2 226.1 220 214.8 208.9 204.4 200.9 198.4 198.8 202.1 205 208 211.3 213.8 216.1 219.1 221.5 224.1 226.9 229.7 231.6
-2 -2 -2 -2 -2 -2 -2 -2 -2 -2 -2 -2 -2 -2 -2 -2 -2 -2 -2 -2 -2 -2 -2 -2 -2 -2 -2 -2 -2 -2 -2 -2 -2 -2 -2 -2 -2 -2 -2 -2 -2 -2 -2 -2 -2 -2 -2 -2 -2 -2 -2 -2 -2 -2 -2 -2 -2 -2 -2 -2 -2 -2 -2 -2 -2 -2 -2 -2 -2 -2 -2 -2 -2 -2 -2 -2 -2 -2 -2 -2 -2 -2 -2 36.5 79.5 93.5 96.6 98 99.4 99.5 99.6 100.1 100.6 101.2 101.1 101.9 106.9 108.9 110.7 112.4 114.1 115.4 117.4 119.4 121.4 124 126.8 129.5 132.4 134.8 137.7 140.4 143.3 146.4 149.8 153.5 158.6 162.9 166.9 169 171.7 172.4 170.5 168.3 165.7 165.4 169.1 174 179.3 185.2 190.2 195.5 200.3 205.1 209.3 213.6 217.2 219.8 221.1 222.4 223.4 223.5 223.6 223.7 223.9 224.1 223.9 223.5 222.9 222.3 222.1 221.5 220.5 220 217.8 212.7 212.3 216.9 221.6 225.5 227.2 229.6 230.5 233 235.1 237 238.5 240.2 241.1 241.9 242.3 242.4 241.3 240.3 239.5 238.7 237.9 236.2 234.1 230.8 225.9 220.1 215.3 209.7 204.4 200.1 196.3 197.3 199.7 202.4 204.9 208 211.4 215.2 218.4 221.8 224.2 226.8 229.5 231.7
-2 -2 -2 -2 -2 -2 -2 -2 -2 -2 -2 -2 -2 -2 -2 -2 -2 -2 -2 -2 -2 -2 -2 -2 -2 -2 -2 -2 -2 -2 -2 -2 -2 -2 -2 -2 -2 -2 -2 -2 -2 -2 -2 -2 -2 -2 -2 -2 -2 -2 -2 -2 -2 -2 -2 -2 -2 -2 -2 -2 -2 -2 -2 -2 -2 -2 -2 -2 -2 -2 -2 -2 -2 -2 -2 -2 -2 -2 -2 -2 -2 -2 -2 36.5 79.3 95.6 97.9 99.2 100.4 101.3 101.6 102.8 103.9 104.8 106.2 107.1 108.3 109.9 111.6 113.3 115.1 116.8 118.9 120.9 122.9 125.5 128.7 131 134.3 137.8 141.4 144.2 146.8 150.1 153 157.8 163.9 168.6 172.8 175.2 176.5 176.9 175.1 173 169.6 169.3 172.6 177.5 181.6 185.8 190.7 195.3 200.2 205.4 209.6 213.8 216.8 219.1 220.5 222 223.4 223.7 224 224.1 224.3 224.4 224.1 223.4 222.6 221.9 221.2 219.4 218.1 214.3 209.5 209.2 213.8 219.3 222.9 225.7 227.1 228.2 230.8 233.3 235.4 237.1 238.5 239.8 240.7 241.1 241.4 241.2 240.5 239.5 238.3 237.5 236.6 235.1 233.7 232.1 226.5 220.9 216.7 211.5 205.8 201.1 195.2 195.5 198.7 202 205.5 209.2 212.6 216.3 219.1 222 224.8 227.5 230.1 231.9
-2 -2 -2 -2 -2 -2 -2 -2 -2 -2 -2 -2 -2 -2 -2 -2 -2 -2 -2 -2 -2 -2 -2 -2 -2 -2 -2 -2 -2 -2 -2 -2 -2 -2 -2 -2 -2 -2 -2 -2 -2 -2 -2 -2 -2 -2 -2 -2 -2 -2 -2 -2 -2 -2 -2 -2 -2 -2 -2 -2 -2 -2 -2 -2 -2 -2 -2 -2 -2 -2 -2 -2 -2 -2 -2 -2 -2 -2 -2 -2 -2 -2 -2 25 92.1 96.7 98.9 100.1 101.3 102.5 103.4 104.3 105.5 106.7 107.6 108.6 109.5 110.9 112.6 114.3 116.1 118.3 120.5 122.5 124.6 127.4 131.2 131.5 137.6 141.8 145.4 148.3 151.3 154.6 158.5 164.2 170 173.8 177.1 184.6 179.3 179.5 178.8 176.6 172.8 173.5 176.3 180.3 184.1 187.6 191.7 196.1 200.9 205.9 209.7 213.6 216.7 219.2 220.6 222.1 223.1 223.3 223.7 224.1 224.3 224.4 223.8 222.9 222.1 220.7 219.2 216.7 213.8 207.9 205.6 210.3 215.5 219.2 222.2 224.5 225.3 227.5 230.1 232.9 234.7 236.1 237.5 238.8 239.4 239.8 240.1 239.6 239.2 238.7 237.2 236.2 235.4 235 233.6 232 228.7 223.7 220.1 214.7 209.1 202.4 194 194.5 200.1 204.4 208.4 211.6 214.8 217.4 220 222.7 225.3 228 230.5 232.3
-2 -2 -2 -2 -2 -2 -2 -2 -2 -2 -2 -2 -2 -2 -2 -2 -2 -2 -2 -2 -2 -2 -2 -2 -2 -2 -2 -2 -2 -2 -2 -2 -2 -2 -2 -2 -2 -2 -2 -2 -2 -2 -2 -2 -2 -2 -2 -2 -2 -2 -2 -2 -2 -2 -2 -2 -2 -2 -2 -2 -2 -2 -2 -2 -2 -2 -2 -2 -2 -2 -2 -2 -2 -2 -2 -2 -2 -2 -2 -2 -2 2.4 12.6 43.9 94.4 96.8 99.3 101.1 102.2 103.5 104.7 105.7 106.9 107.8 109 110 110.9 112 113.7 115.6 117.9 120.1 122.1 124.4 126.9 129.5 132.3 137.4 142.4 146.7 150.5 153 156.6 160.3 165.3 170.5 174.7 178.7 186.4 191.3 182.6 182.7 181 178.3 176.5 178.5 178.8 182.4 185.6 189.2 194.2 198.5 203 207.9 211.7 214.5 216.4 218.9 220.7 222.2 222.8 223.1 223.4 223.6 223.6 223.4 222.7 221.8 220.4 217.8 215 212.6 209 202.8 204.7 210.5 215.2 218.4 221.1 222 224.3 227.2 229.6 231.8 233.5 235.1 236.5 237.3 237.4 237.7 238 237.8 237.5 237.3 236.1 235.2 234.7 234.2 233.4 231.9 229.6 226.1 221.7 216.2 212.1 204.9 194.2 193.9 201 206.3 209.8 212.9 215.7 218.1 220.7 223.2 225.9 228.3 230.6 232.6
-2 -2 -2 -2 -2 -2 -2 -2 -2 -2 -2 -2 -2 -2 -2 -2 -2 -2 -2 -2 -2 -2 -2 -2 -2 -2 -2 -2 -2 -2 -2 -2 -2 -2 -2 -2 -2 -2 -2 -2 -2 -2 -2 -2 -2 -2 -2 -2 -2 -2 -2 -2 -2 -2 -2 -2 -2 -2 -2 -2 -2 -2 -2 -2 -2 -2 -2 -2 -2 -2 -2 -2 -2 -2 -2 -2 -2 -2 -2 -2 5 32.9 54.5 84.9 94.3 96.8 99.4 101.7 103.2 104.4 105.6 106.6 108 109 110.1 111.3 112.4 113.5 115.2 117.3 120.1 122.5 124.9 126.5 129.1 131.9 135.8 141.2 146.3 151.1 155.5 159.3 162.4 166.5 170.9 176 183.3 191.4 186.6 181.5 192.5 185.2 182.9 179.8 180.1 181.6 182.7 184 187 191.3 195.7 200.6 205 209.3 212.8 215.2 217.3 218.6 220.8 222.3 222.5 222.8 222.9 222.9 222.9 222.4 221.6 220 218.3 214.2 211 208.7 204.1 199.6 204.5 209.4 214.6 216.9 218.7 220.1 223.2 226.1 228.7 230.6 232.3 233.8 235.1 235.1 235.1 235.4 235.4 235.6 235.7 235.3 234.5 234.4 234.2 233.7 232.8 231.5 229 226 222 216.5 213.4 208 196.9 191.6 200.6 206.6 210.2 213.2 215.7 218.4 221 223.6 226.1 228.4 230.7 232.8
-2 -2 -2 -2 -2 -2 -2 -2 -2 -2 -2 -2 -2 -2 -2 -2 -2 -2 -2 -2 -2 -2 -2 -2 -2 -2 -2 -2 -2 -2 -2 -2 -2 -2 -2 -2 -2 -2 -2 -2 -2 -2 -2 -2 -2 -2 -2 -2 -2 -2 -2 -2 -2 -2 -2 -2 -2 -2 -2 -2 -2 -2 -2 -2 -2 -2 -2 -2 -2 -2 -2 -2 -2 -2 -2 -2 -2 -2 -2 -2 36.2 57.7 79 91.2 94.2 96.8 99.7 102.1 103.6 104.8 105.7 106.7 108.1 109.6 111.2 112.4 113.6 115.5 117.1 120.3 122.4 125 127.2 129.2 131.9 135.8 140.4 146 151.7 156.8 161.3 165.2 168.8 172.7 177.1 183.1 191.7 194.9 181.1 182.7 193.3 189.1 185 182.3 183.4 184.7 185.4 186.2 189 193.3 197.3 201.7 206 210 213.5 215.9 218 219.4 220.7 222 222.2 222.1 222.1 222.2 221.7 221.1 219.8 218.3 215.4 211.6 207.9 203.2 198.8 199.3 203 208.6 213.3 214.2 214.9 219 221.9 224.7 227.1 229 230.6 232.1 232.9 233 232.8 232.9 232.9 233 233.1 233.2 233.1 233.1 233.1 232.9 230.6 230.5 228.3 225.4 221.2 217 213.7 209 198.6 190.5 200.1 205.9 209.5 212.3 214.9 217.6 220.5 222.9 225.5 228.1 230.7 233
-2 -2 -2 -2 -2 -2 -2 -2 -2 -2 -2 -2 -2 -2 -2 -2 -2 -2 -2 -2 -2 -2 -2 -2 -2 -2 -2 -2 -2 -2 -2 -2 -2 -2 -2 -2 -2 -2 -2 -2 -2 -2 -2 -2 -2 -2 -2 -2 -2 -2 -2 -2 -2 -2 -2 -2 -2 -2 -2 -2 -2 -2 -2 -2 -2 -2 -2 -2 -2 -2 -2 -2 -2 -2 -2 -2 -2 -2 -2 -2 -2 30.4 69.6 87.6 94.1 98 100.8 102.5 103.6 104.8 105.8 106.8 108.3 109.9 111.7 113.4 115.6 117.7 119.7 122.1 124.5 127.1 129.7 132.1 135.9 141 146.6 152.9 157.5 163.4 166.6 170.4 174.4 179.2 183.6 193.7 184.1 182.9 183.5 185.1 196.8 193.5 188.9 185.4 186.3 187.5 188.7 189.3 191.6 195.3 198.8 202.5 206.5 210.5 214.1 216.7 218.7 220.5 221.5 221.5 221.4 221.4 221.4 221.3 220.7 219.8 218.1 216.5 213 209.2 203.3 197 195 199 203.3 206.9 208.5 210.5 214.7 218.2 220.5 222.8 225.1 226.9 228.7 229.8 230.3 230.5 229.9 229.7 229.6 229.7 229.9 230.3 231.3 231.8 231.8 231.7 231.4 230 227.6 224.3 220.1 216.6 212.8 207.3 196.6 189.6 198.4 204.6 208.3 210.4 214 217.1 220.4 223.2 225.7 228.2 230.7 232.9
-2 -2 -2 -2 -2 -2 -2 -2 -2 -2 -2 -2 -2 -2 -2 -2 -2 -2 -2 -2 -2 -2 -2 -2 -2 -2 -2 -2 -2 -2 -2 -2 -2 -2 -2 -2 -2 -2 -2 -2 -2 -2 -2 -2 -2 -2 -2 -2 -2 -2 -2 -2 -2 -2 -2 -2 -2 -2 -2 -2 -2 -2 -2 -2 -2 -2 -2 -2 -2 -2 -2 -2 -2 -2 -2 -2 -2 -2 -2 -2 -2 2.5 24.4 70.1 93.8 98.3 100.3 102 103.3 104.6 105.9 106.9 108.5 110.2 111.8 114.2 117.1 119.4 121.5 124 126.3 129 131.8 135.8 141.1 146 151.8 157.7 164.1 169.7 173.1 176.2 180.3 185 188.6 192.1 184.5 182.9 184.9 197.2 200.6 197 192.4 188.6 189.7 191.5 192.4 192.9 194.9 197.5 200.7 204.3 207.7 211.4 215.1 217.7 219.7 221.4 222.2 221.3 220.9 220.7 220.7 220.2 219.5 218.5 216.8 214.6 211.1 207.1 200.6 194.8 193.4 197.4 201.9 203.9 206.5 210.5 214.1 216.8 219.1 221.3 223.3 224.8 226.4 227.5 227.8 227.9 227.3 226.5 226.1 225.9 226.2 227.2 229.1 230 230.3 228.8 230.1 228.6 226.6 222.9 218.6 216.1 211.9 207.5 197.8 188.4 194.9 202.6 206 207.9 212.5 216.8 220.5 223.5 226 228.5 230.5 232.9
-2 -2 -2 -2 -2 -2 -2 -2 -2 -2 -2 -2 -2 -2 -2 -2 -2 -2 -2 -2 -2 -2 -2 -2 -2 -2 -2 -2 -2 -2 -2 -2 -2 -2 -2 -2 -2 -2 -2 -2 -2 -2 -2 -2 -2 -2 -2 -2 -2 -2 -2 -2 -2 -2 -2 -2 -2 -2 -2 -2 -2 -2 -2 -2 -2 -2 -2 -2 -2 -2 -2 -2 -2 -2 -2 -2 -2 -2 -2 -2 -2 -2 16.8 75.9 93.5 97.1 99.2 101.5 103.1 104.4 105.7 107 108.5 110.1 112.1 114.8 117.7 120.5 123.4 125.9 128.1 130.9 135 139.1 144 148.9 155.6 163 169.7 175.5 179 182.4 186.3 189.5 192.7 195.9 198.2 200.5 201.8 203.2 202.5 199.1 195.6 192.1 192.5 194.4 195.4 196.4 197.6 199.9 203.2 206.3 209.6 212.9 216.4 218.7 220.6 222.3 222.4 221.2 220.2 219.9 219.6 219.2 218.2 217.2 215.6 213.5 209.9 205.8 200.1 194.4 190.9 194.2 198 202.4 207.2 210.8 213.1 215.3 217.6 219.8 222 223.4 224.5 225.2 225.4 225.5 224.6 223.1 222.4 221.6 222.3 224.2 226.6 227.7 225.7 228.9 228.3 226.7 225.5 222 218.2 215.4 211.7 207.7 201.9 191.1 188.8 198.3 201.3 205.5 211.8 216.7 220.6 223.8 226.3 228.3 230.4 232.6
-2 -2 -2 -2 -2 -2 -2 -2 -2 -2 -2 -2 -2 -2 -2 -2 -2 -2 -2 -2 -2 -2 -2 -2 -2 -2 -2 -2 -2 -2 -2 -2 -2 -2 -2 -2 -2 -2 -2 -2 -2 -2 -2 -2 -2 -2 -2 -2 -2 -2 -2 -2 -2 -2 -2 -2 -2 -2 -2 -2 -2 -2 -2 -2 -2 -2 -2 -2 -2 -2 -2 -2 -2 -2 -2 -2 -2 -2 -2 -2 -2 -2 5.6 67.3 76 84.6 93.3 100.1 102.6 104.4 105.5 106.7 108.7 110.2 112.7 115.7 119 122.2 125.3 128 130.6 134.4 138.6 143 148 153.5 160.2 167.6 174.9 180.3 184.3 187.1 189.8 193.2 196.4 198.7 201 203 204.3 204.9 203.6 201.8 199.2 195.6 195.2 197.1 198.2 199.2 200 202.6 205.2 208.4 211.7 215 218.2 220.2 222.2 223 222.4 220.9 219.5 218.8 218.2 217.1 216.2 215.3 214.3 212.2 208.4 204.4 203.6 205.7 193.2 192 198.8 203 207.3 210.2 212.1 213.9 216.2 218.4 220.6 221.9 222.7 223.1 223.4 223.3 222 219.8 218.2 217.6 219 221.7 224.1 224.7 226.3 226.4 226.3 225.2 224.2 220.8 217.6 214.4 210.7 205.6 200.7 192.5 183.8 190 197.4 206.2 212.4 217.1 220.5 223.2 225.9 228.2 230.3 232.9
-2 -2 -2 -2 -2 -2 -2 -2 -2 -2 -2 -2 -2 -2 -2 -2 -2 -2 -2 -2 -2 -2 -2 -2 -2 -2 -2 -2 -2 -2 -2 -2 -2 -2 -2 -2 -2 -2 -2 -2 -2 -2 -2 -2 -2 -2 -2 -2 -2 -2 -2 -2 -2 -2 -2 -2 -2 -2 -2 -2 -2 -2 -2 -2 -2 -2 -2 -2 -2 -2 -2 -2 -2 -2 -2 -2 -2 -2 -2 -2 -2 -0.3 2 38.3 52.1 69 87.9 98 101.6 103.5 105.1 106.3 108.8 110.8 113.9 117.3 120.7 123.9 127.5 132.2 136.3 139.7 143.9 148.3 153.6 159.6 166.4 173.3 179.8 184.8 188.5 191.6 194.3 197.2 199.3 201.2 202.9 204.7 205.9 206.4 205.2 203.6 200.8 198.8 197.8 199.4 201 201.8 202.4 205 207.4 210 213.5 217 219.9 221.9 222.9 223.4 222.3 220.7 219.2 217.7 216.1 215 214 213.2 212.5 210.9 207.6 204.3 207.6 209.1 207.1 204.1 202.3 203.9 207 209.3 211.2 213 214.8 217 219 220.4 221 221.6 221.5 220.8 218.6 216.1 214.6 214.2 216.5 220.7 221.8 223.7 224.6 224.8 225.4 224.3 222.8 220.5 218 215.4 212.2 207.5 203 195.4 181.2 187.8 202.5 210.4 214.4 217.4 220.1 222.7 225.3 227.8 230.2 233.1
-2 -2 -2 -2 -2 -2 -2 -2 -2 -2 -2 -2 -2 -2 -2 -2 -2 -2 -2 -2 -2 -2 -2 -2 -2 -2 -2 -2 -2 -2 -2 -2 -2 -2 -2 -2 -2 -2 -2 -2 -2 -2 -2 -2 -2 -2 -2 -2 -2 -2 -2 -2 -2 -2 -2 -2 -2 -2 -2 -2 -2 -2 -2 -2 -2 -2 -2 -2 -2 -2 -2 -2 -2 -2 -2 -2 -2 -2 -2 -2 -2 -0.2 2 1.4 42.6 57.2 77.3 92.5 99.3 102 104.3 106 109 111.6 114.7 118.2 121.8 125.8 130.7 135.7 140.9 145.4 149 154.1 159.2 166 173.4 179.4 184.2 188.8 192 194.9 197.8 200.1 201.4 203 204.7 206.4 207.4 207.2 206.3 205.4 203.6 201.7 200.6 201.4 203.2 204.3 204.9 207.2 209.6 212 214.9 218.1 220.9 223 223.9 223.9 222.4 220.7 218.9 216.8 214.7 212.7 210.7 210.3 209.6 209.3 206.9 205.3 204 200.1 195.6 195.4 200.6 203.4 205.8 208.3 210.1 212 213.8 215.7 217.4 218.8 219.7 219.8 219.4 217.6 216.3 217.1 217.6 214.7 214.7 217.2 219.7 221.6 222.8 223.5 224.3 224 222.6 222.3 220.1 217.7 215.3 211.8 208.1 201.9 182.5 189.7 203.2 210.5 214.2 217 219.7 222.3 224.9 227.8 230.5 233.3
-2 -2 -2 -2 -2 -2 -2 -2 -2 -2 -2 -2 -2 -2 -2 -2 -2 -2 -2 -2 -2 -2 -2 -2 -2 -2 -2 -2 -2 -2 -2 -2 -2 -2 -2 -2 -2 -2 -2 -2 -2 -2 -2 -2 -2 -2 -2 -2 -2 -2 -2 -2 -2 -2 -2 -2 -2 -2 -2 -2 -2 -2 -2 -2 -2 -2 -2 -2 -2 -2 -2 -2 -2 -2 -2 -2 -2 -2 -2 -2 -2 0.5 2.6 10.8 41.4 60.9 68.4 82.6 88.2 93.9 100.9 105.4 109.5 112.7 115.8 119.2 123.1 128.5 133.6 138.8 144.1 149.2 152 158 164 170.5 177.5 182.7 187.1 191.2 194.8 198.3 200.6 202.2 203.7 205 206.6 208.1 208.9 208.5 207.9 207.3 206.2 204.5 203.2 203.5 205.2 206.4 207 209 211.1 213.5 216.1 218.7 221.6 223.5 224.5 224.1 222.3 220.3 218.5 216.2 213.9 211.1 207.5 205.7 206.8 205.8 204.1 199.8 190.3 190.1 189.8 195.1 200.2 203 205.3 207.2 209 210.8 212.7 214.5 216.2 217.6 218.3 218.2 216.9 213.6 209.9 208.5 207.7 210 212.5 215.4 217.9 219.9 221.4 222.6 223.2 223.5 223.2 223.3 221.7 220 218 215.1 212.1 200.7 180.7 186.2 201.7 210.1 213.9 216.6 219.3 221.9 224.5 227.7 230.7 233.6
-2 -2 -2 -2 -2 -2 -2 -2 -2 -2 -2 -2 -2 -2 -2 -2 -2 -2 -2 -2 -2 -2 -2 -2 -2 -2 -2 -2 -2 -2 -2 -2 -2 -2 -2 -2 -2 -2 -2 -2 -2 -2 -2 -2 -2 -2 -2 -2 -2 -2 -2 -2 -2 -2 -2 -2 -2 -2 -2 -2 -2 -2 -2 -2 -2 -2 -2 -2 -2 -2 -2 -2 -2 -2 -2 -2 -2 -2 -2 -2 -2 1.4 6.2 36.8 55.8 77.2 65.2 73.8 83 93.1 98.8 104.9 109.4 113.2 116.6 120.3 124.9 130.3 136.3 141.6 147.7 152.4 156.6 161.7 167.3 173.7 180.7 185.4 189 193.3 197.1 200.6 202.5 204.4 205.9 207.2 208.5 209.6 210.2 209.9 209.6 208.9 208.2 207 206.5 206.1 207 208.3 209.1 211 213 214.3 216.7 219.3 221.9 223.7 224.9 224 222.6 220.2 217.9 215.5 213.3 210.7 207.2 202.3 202.8 203.2 198.2 186.5 175.8 179.1 183.2 191.9 199.8 202 203.9 205.9 207.7 209.6 211.4 213.2 215.7 216.6 217 216.4 213.3 209.2 205.8 204.6 205.6 208.2 211 213.9 216.4 218.5 220.2 221.4 222 223.1 224 224.2 222.7 221.1 218.6 215.6 212 192.8 176.5 189.9 204.4 210.5 213.5 216.2 218.8 221.5 224.1 227.5 230.7 233.5
-2 -2 -2 -2 -2 -2 -2 -2 -2 -2 -2 -2 -2 -2 -2 -2 -2 -2 -2 -2 -2 -2 -2 -2 -2 -2 -2 -2 -2 -2 -2 -2 -2 -2 -2 -2 -2 -2 -2 -2 -2 -2 -2 -2 -2 -2 -2 -2 -2 -2 -2 -2 -2 -2 -2 -2 -2 -2 -2 -2 -2 -2 -2 -2 -2 -2 -2 -2 -2 -2 -2 -2 -2 -2 -2 -2 -2 -2 -2 -2 -0.7 1.4 10.8 41.9 52 65.5 80.9 83.7 83.6 87.6 97.1 104.3 109.7 113.5 117.2 121.4 126.1 131.4 137.7 144.8 151.2 156.9 161.5 166.2 171.1 177.9 182.6 186.7 190.9 195.4 198.9 202.5 204.7 206.6 208.1 209.4 210.7 211.6 211.7 211.2 211 210.9 210.2 209.6 209.1 208.7 209.2 210.1 211.2 212.9 214.2 215.3 217.3 219.6 221.9 223.5 224.8 223.9 222.7 220.5 217.5 214.9 212.7 210.2 205.8 200.4 201.7 200.9 146.4 136.5 145.8 145.1 166.6 179.7 191.9 200.6 202.6 204.5 206.5 208.3 210.1 212.1 214.4 215.5 215.3 212.8 207.8 205.3 202.3 201.8 204.5 207.8 210.2 212.9 215.2 217.6 219 220.2 221.9 223.4 224 223.7 222.4 220.8 217.5 214.2 207.1 187.1 175 193.7 204.5 209.5 212.6 215.5 218.4 221.1 224 227.3 230.2 232.6
-2 -2 -2 -2 -2 -2 -2 -2 -2 -2 -2 -2 -2 -2 -2 -2 -2 -2 -2 -2 -2 -2 -2 -2 -2 -2 -2 -2 -2 -2 -2 -2 -2 -2 -2 -2 -2 -2 -2 -2 -2 -2 -2 -2 -2 -2 -2 -2 -2 -2 -2 -2 -2 -2 -2 -2 -2 -2 -2 -2 -2 -2 -2 -2 -2 -2 -2 -2 -2 -2 -2 -2 -2 -2 -2 -2 -2 -2 -2 -2 -0.1 1.7 21.6 34.2 47.7 66.9 89.8 97.9 97.7 93 95.8 103.6 109.8 114.1 118.2 122.6 127 132.7 139.9 147.1 154.2 161.4 166.7 170.9 175.8 180.5 184.3 188.4 193.3 197 200.4 203.8 206.6 208.8 210.3 211.5 212.8 213.4 213.5 212.8 212.5 212.4 212.3 212.2 211.7 211.2 211.7 212.3 213.2 214.4 215.4 216.5 217.9 220.2 221.9 223.4 224.5 223.9 222.7 220.4 217 214.4 212.1 209.2 205.4 199.9 198.8 157.4 129.6 121.3 118.9 116.2 141.1 171.2 183.4 199.6 201.2 203.2 205.2 207.1 208.6 210.8 212.8 214.1 213.7 209.5 204.7 202 199 200.3 204.4 208.2 210.7 212.9 215.1 216.8 218 220.1 221.9 223.3 223.4 222.2 220.7 218.7 215.7 211.8 204.1 184.3 175.7 189.9 201.6 207.8 211.1 214.2 217.2 220 223.3 226.3 229.1 231.6
-2 -2 -2 -2 -2 -2 -2 -2 -2 -2 -2 -2 -2 -2 -2 -2 -2 -2 -2 -2 -2 -2 -2 -2 -2 -2 -2 -2 -2 -2 -2 -2 -2 -2 -2 -2 -2 -2 -2 -2 -2 -2 -2 -2 -2 -2 -2 -2 -2 -2 -2 -2 -2 -2 -2 -2 -2 -2 -2 -2 -2 -2 -2 -2 -2 -2 -2 -2 -2 -2 -2 -2 -2 -2 -2 -2 -2 -2 -2 -2 0.3 2 43.7 59.5 74.3 87 101.9 102.6 103.7 103.9 100.4 101.9 108 113.7 119.8 124.3 128.4 134.4 141.6 148.8 156.9 164.3 170.8 174.7 178.3 182.2 186.1 190.1 194.6 197.9 201.2 204.6 207.4 210.1 212 213 214.2 214.5 214.5 214.3 214.2 214 213.9 213.8 213.7 213.6 213.9 214 214.6 215.6 216.7 217.7 218.7 220.4 222 223.6 224.3 223.7 222 219.4 216.2 213.8 211.4 208.4 205 201.3 190.5 133.8 117.7 113 103.4 103.4 124.8 156.1 176.4 195.5 200.4 202.3 204.1 205.5 206.9 208.7 211 212.7 211.1 206 202.7 199.1 196.3 199.7 204.4 207.9 211.4 213.4 215.6 216.5 217.8 220 221.8 222.1 221.5 220.2 218.6 216.1 213.6 209.8 200.1 182.4 171.6 181.9 194.2 202.5 208 211.8 215.2 218.6 222.1 225.1 227.9 230.6
-2 -2 -2 -2 -2 -2 -2 -2 -2 -2 -2 -2 -2 -2 -2 -2 -2 -2 -2 -2 -2 -2 -2 -2 -2 -2 -2 -2 -2 -2 -2 -2 -2 -2 -2 -2 -2 -2 -2 -2 -2 -2 -2 -2 -2 -2 -2 -2 -2 -2 -2 -2 -2 -2 -2 -2 -2 -2 -2 -2 -2 -2 -2 -2 -2 -2 -2 -2 -2 -2 -2 -2 -2 -2 -2 -2 -2 -2 -2 -0.6 0.9 2.4 20.9 64.8 93.7 103.9 105.4 106.7 107.6 108.5 109.1 110 110.6 113.2 120.1 125.3 129.9 136.1 143.6 150.1 158.8 166.1 172.5 176 179.4 183.4 187.1 190.9 195.2 198.7 201.6 204.6 207.7 210.5 212.9 214 214.6 214.6 214.7 215 214.9 214.9 215.2 215.3 215.2 215.4 215.5 215.5 216.1 216.8 217.7 218.7 219.6 220.8 222.4 223.4 224 222.9 220.8 218.3 215.5 213.2 210.7 207.8 204.7 199.4 169.9 131.6 115.5 103.4 99.1 101.8 126.5 160 176.5 195.8 199.9 201 202.3 203.3 204.7 205.9 208.3 209.2 207.1 202.9 198.8 194.2 195 199.5 203.7 207.3 211.1 214.1 215.5 216.6 217.7 219.6 220.5 220.1 219.1 217.9 216.1 214 211.6 207.6 201.2 185.1 168.6 173.5 185.7 199 206.1 210.3 213.9 217.5 220.9 223.6 226.5 229.2
-2 -2 -2 -2 -2 -2 -2 -2 -2 -2 -2 -2 -2 -2 -2 -2 -2 -2 -2 -2 -2 -2 -2 -2 -2 -2 -2 -2 -2 -2 -2 -2 -2 -2 -2 -2 -2 -2 -2 -2 -2 -2 -2 -2 -2 -2 -2 -2 -2 -2 -2 -2 -2 -2 -2 -2 -2 -2 -2 -2 -2 -2 -2 -2 -2 -2 -2 -2 -2 -2 -2 -2 -2 -2 -2 -2 -2 -2 -2 0 1.5 2.7 4.2 54.4 93.3 106.2 108.4 109.8 110.6 111.5 112.9 114.7 116.5 117.9 121.6 126.6 131.8 139 146.2 153.4 160.6 166.6 172.2 176.2 179.5 183.4 187.3 191 194.5 197.8 201.1 204 207.2 210.2 212.2 213.2 213.6 213.9 214.8 215.2 215.7 215.8 216 216.3 216.4 216.5 216.8 217.1 217.6 218.2 218.8 219.4 220.5 221.6 222.4 222.9 223.1 221.2 219.3 217.4 215 212.7 210 207 204 200.9 163 129.3 112.5 91.9 90 102.1 140.5 163.4 178.4 197.8 199.7 199.3 200.2 201.1 202.4 203.5 204.9 204.6 201.1 197.1 191.9 190.9 194.2 198.9 203.2 207 210.8 213.7 215 216.3 217.4 218.2 218.4 217.6 216.6 215.5 213.7 211.7 209.5 206 201.7 190.1 171.4 168.6 180.8 195.5 203.3 208.1 212 216 219.3 222.1 224.6 227
-2 -2 -2 -2 -2 -2 -2 -2 -2 -2 -2 -2 -2 -2 -2 -2 -2 -2 -2 -2 -2 -2 -2 -2 -2 -2 -2 -2 -2 -2 -2 -2 -2 -2 -2 -2 -2 -2 -2 -2 -2 -2 -2 -2 -2 -2 -2 -2 -2 -2 -2 -2 -2 -2 -2 -2 -2 -2 -2 -2 -2 -2 -2 -2 -2 -2 -2 -2 -2 -2 -2 -2 -2 -2 -2 -2 -2 -2 -0.3 0.9 2.1 6.9 53.2 77.4 99 107.6 109.7 111.5 113 114.5 116.2 118.1 119.8 121.9 124.7 129 134.4 141.9 149.4 155.4 161.6 166.7 171.6 175.7 179.4 183.1 186.8 190.4 193.8 197 200.2 203 205.8 208.5 210.5 211.7 212.6 213.2 214.2 215.2 215.8 216 216.1 216.3 216.8 217.1 217.3 217.4 218.3 218.9 219.5 220.1 220.9 221.6 222.3 222.7 222.1 220.2 218.2 216.3 214.6 212.3 208.9 205.4 202.3 200.9 163.2 130.2 112.3 90 90 111.2 157 175.1 181.2 200.4 198.4 196.8 197.7 198.9 200.1 201.2 201.4 200.2 197.1 189.2 186.7 189.8 194.2 199.4 204.3 207.5 210.6 213 214.2 214.8 215.7 216.2 215.8 215.2 214.1 212.8 211 208.7 206.6 203.8 200.7 194.8 178.4 164.5 175.1 191.7 200.7 206.2 210.2 214 216.9 219.3 221.8 224.4
-2 -2 -2 -2 -2 -2 -2 -2 -2 -2 -2 -2 -2 -2 -2 -2 -2 -2 -2 -2 -2 -2 -2 -2 -2 -2 -2 -2 -2 -2 -2 -2 -2 -2 -2 -2 -2 -2 -2 -2 -2 -2 -2 -2 -2 -2 -2 -2 -2 -2 -2 -2 -2 -2 -2 -2 -2 -2 -2 -2 -2 -2 -2 -2 -2 -2 -2 -2 -2 -2 -2 -2 -2 -2 -2 -2 -2 -2 2.3 2.4 20.1 45.1 71.6 99.6 107.2 109.1 111.1 112.8 115 117.2 119.7 121.5 123.6 125.9 129.4 133.2 137.4 144.4 152 158 163 166.9 171.3 175.5 179 182.6 186.2 189.7 192.6 195.7 198.7 201.5 203.8 206.2 208.7 210.3 211.5 212.4 213.5 214.7 215.4 215.7 215.9 216.3 216.9 217.1 217 217.6 218.7 219.4 220 220.7 221.5 222.2 222.3 222.3 221.2 219.2 217.3 215.6 214 211.9 208.6 204.4 201.7 200.8 182.9 135.7 107.5 90 116.2 141.1 171.7 182.5 197 202.5 196.8 193.2 194.9 196.4 197.7 198.2 197.6 196.8 190.8 183 185.3 191.7 197.1 201.8 205.3 208.2 210.4 211.9 213.1 213.6 214.2 214.3 213.6 212.7 211.4 209.9 207.8 204.9 202.8 200.9 198.8 195 185 166.3 171.5 188.9 199.5 204.3 207.6 210.9 213.8 216.1 218.6 221.4
-2 -2 -2 -2 -2 -2 -2 -2 -2 -2 -2 -2 -2 -2 -2 -2 -2 -2 -2 -2 -2 -2 -2 -2 -2 -2 -2 -2 -2 -2 -2 -2 -2 -2 -2 -2 -2 -2 -2 -2 -2 -2 -2 -2 -2 -2 -2 -2 -2 -2 -2 -2 -2 -2 -2 -2 -2 -2 -2 -2 -2 -2 -2 -2 -2 -2 -2 -2 -2 -2 -2 -2 -2 -2 -2 -2 -2 -2 8 32 52.6 84.7 106 107.2 108.9 110.6 112.4 114.2 116.5 119 121.9 124.9 128.7 131.3 135.9 140.3 143.5 147.3 154.7 160.3 164.7 168.6 172.3 175.9 178.8 182.2 185.7 189 192 194.6 197.2 199.8 202.1 204.4 206.6 208.3 209.9 211.1 212.3 213.5 213.9 214.3 214.6 215.6 216.2 216.7 216.7 217.8 218.9 220.1 220.5 221.2 222.1 222.8 222.8 222 220.3 218.3 216.6 214.6 212.7 210.4 207.6 204 201.5 200.9 190.9 145.4 123.6 110.5 137 159.8 184.5 195.2 203.9 207 191.3 189.4 190.9 192.9 194 194.4 191.7 190.4 181.6 180.7 188.6 194.4 198.1 201.8 205 207.5 208.1 209.9 211.6 212.2 212.9 212.2 211.1 210.2 208.9 207 204.1 201.4 198.9 197.4 193.6 189.7 180.9 166.3 170.4 188.1 197.8 201.9 204.9 207.4 210.2 212.8 215.5 218.9
-2 -2 -2 -2 -2 -2 -2 -2 -2 -2 -2 -2 -2 -2 -2 -2 -2 -2 -2 -2 -2 -2 -2 -2 -2 -2 -2 -2 -2 -2 -2 -2 -2 -2 -2 -2 -2 -2 -2 -2 -2 -2 -2 -2 -2 -2 -2 -2 -2 -2 -2 -2 -2 -2 -2 -2 -2 -2 -2 -2 -2 -2 -2 -2 -2 -2 -2 -2 -2 -2 -2 -2 -2 -2 -2 -2 -2 2.7 1 32.1 65.4 96 107.3 109.1 110.7 112.3 113.9 116.2 119.5 122 125 129.7 133.2 137.4 142.3 146.6 150.8 152.5 157 162.5 166.4 170.2 173.6 176 178.7 182.1 185.4 188.2 191.4 193.7 195.6 198.1 200.4 202.6 204.5 206.4 207.9 209.2 210.5 211.7 212.5 212.7 213.1 214.6 215.4 216.3 216.9 218 219.1 220.3 221.2 221.7 222.3 222.7 222.7 221.8 219.8 217.8 215.6 213.1 211 208.7 206.4 203.3 201.4 200.8 199.2 158.2 140.8 145 154.8 178.9 194.2 202.9 207.9 201.8 182.7 183.8 185.4 186.9 188.5 189.7 186 181.8 177.5 181.8 189.7 193.8 196.9 200.4 203.1 204.9 205.7 208.1 210.2 211 211.1 210.3 208.8 207.7 206.2 203.9 200.4 196.5 194.6 191.4 185 177.8 172.3 162 173.7 187.5 195.3 198.8 201.3 203.7 206.8 209.7 213.6 217.5
-2 -2 -2 -2 -2 -2 -2 -2 -2 -2 -2 -2 -2 -2 -2 -2 -2 -2 -2 -2 -2 -2 -2 -2 -2 -2 -2 -2 -2 -2 -2 -2 -2 -2 -2 -2 -2 -2 -2 -2 -2 -2 -2 -2 -2 -2 -2 -2 -2 -2 -2 -2 -2 -2 -2 -2 -2 -2 -2 -2 -2 -2 -2 -2 -2 -2 -2 -2 -2 -2 -2 -2 -2 -2 -2 -2 0.2 2.7 14.1 46.9 69.1 97.9 109.2 111.1 112.7 114.4 117 119.9 123.2 125.9 130.5 135.6 139.6 143.5 148.1 152.7 156 158.3 159.5 163.4 167.5 170.3 172.9 175.7 178.8 182 185 187.6 190.4 192.5 194.3 196.4 198.6 200.8 202.5 204.3 205.4 206.7 208 209.4 210.3 210.9 212.1 213.6 214.8 216 217.1 218.2 219.3 220.5 221.7 221.9 222.2 222.4 221.8 220.5 219 217.2 214.1 211.7 209.5 207.5 205.4 203.4 201 199.8 200 170.2 154.9 163.8 177.8 193.6 199.7 205.4 209.7 198.5 178.1 177.5 178.6 179.8 182.5 185 180.9 177.1 174.5 183.4 188.3 191.6 195.2 198.6 200.5 202.7 204.4 206.9 208.8 209.7 209.7 208.3 206.6 205.4 203.6 200.7 195.6 191.5 189.6 183.9 171.3 160.8 158.9 166.7 178.6 185.8 190.6 193.6 195.8 199.3 203.7 207.8 211.9 216
-2 -2 -2 -2 -2 -2 -2 -2 -2 -2 -2 -2 -2 -2 -2 -2 -2 -2 -2 -2 -2 -2 -2 -2 -2 -2 -2 -2 -2 -2 -2 -2 -2 -2 -2 -2 -2 -2 -2 -2 -2 -2 -2 -2 -2 -2 -2 -2 -2 -2 -2 -2 -2 -2 -2 -2 -2 -2 -2 -2 -2 -2 -2 -2 -2 -2 -2 -2 -2 -2 -2 -2 -2 -2 -2 -2 1 2.5 28.7 67.8 97 110.4 112.1 113.5 115.2 117.5 120.3 124.5 128.6 133 138.4 142.7 146.3 149.7 153.5 156.9 160.1 162.2 163.3 165.1 168.3 170.8 173 175.7 178.8 181.7 184.4 186.9 189 191 192.9 194.7 196.9 199.1 200.5 202.2 202.8 204 205.3 206.6 207.9 208.9 210.3 212 213.7 214.9 216.7 218.4 219.5 220.4 220.9 221.4 222 221.6 220.3 219.1 217.8 216.2 212.5 209.4 207.4 206.1 204.2 202.3 200.3 198.6 197.7 198.7 195 194.8 198.8 199.9 201.8 205.7 209.8 210 193.8 173.7 173.1 174.6 177 178.7 175.5 170.7 174.3 181 185.4 188.7 192.5 196.3 198.7 200.9 203.3 206.1 208.3 208.8 209 207.1 205.1 203 200.6 197.2 189.9 184.7 180.4 169.8 157.9 155.9 163.1 174.2 178.7 182.1 185.5 188.8 191.4 195.4 201 206 210.2 214.3
-2 -2 -2 -2 -2 -2 -2 -2 -2 -2 -2 -2 -2 -2 -2 -2 -2 -2 -2 -2 -2 -2 -2 -2 -2 -2 -2 -2 -2 -2 -2 -2 -2 -2 -2 -2 -2 -2 -2 -2 -2 -2 -2 -2 -2 -2 -2 -2 -2 -2 -2 -2 -2 -2 -2 -2 -2 -2 -2 -2 -2 -2 -2 -2 -2 -2 -2 -2 -2 -2 -2 -2 -2 -2 -2 -2 0.9 7.1 39.2 72.6 110.9 112.8 115 116.8 119.1 121.4 124.6 129.2 133.6 138 142.9 147.6 151.7 155.7 159 160.8 163 165.5 167 168.5 169.7 172.2 174.1 175.9 178.3 180.9 183.4 185.9 187.9 189.8 191.4 193.1 195.2 197.4 198.8 199.8 200 201 201.9 202.6 204.4 206.6 208.7 210.4 212.1 213.6 215.4 217.1 218.6 219.5 220 220.2 220.6 220.2 218.6 217.2 215.4 213 208.9 206.6 205.3 204.2 203.1 201.1 199.8 198.3 196.9 199.4 199.9 200.2 199.9 199.7 201 206.6 209.4 209.9 206.9 189.5 172 170.9 171.5 171.2 167.5 166.3 171.1 177.6 182.3 185.9 190.6 194.3 196.9 199.6 203.1 205.7 207.7 208.4 207.9 206.1 203.7 199.9 197 193.8 186.9 181.9 173.9 159.7 155 158.3 166.1 171.4 175 178 180.7 184.1 188.7 193.3 197.5 203.2 207.7 211.8
-2 -2 -2 -2 -2 -2 -2 -2 -2 -2 -2 -2 -2 -2 -2 -2 -2 -2 -2 -2 -2 -2 -2 -2 -2 -2 -2 -2 -2 -2 -2 -2 -2 -2 -2 -2 -2 -2 -2 -2 -2 -2 -2 -2 -2 -2 -2 -2 -2 -2 -2 -2 -2 -2 -2 -2 -2 -2 -2 -2 -2 -2 -2 -2 -2 -2 -2 -2 -2 -2 -2 -2 -2 -2 -2 2.7 2.7 44.2 67.2 94.4 113.3 115.4 117.5 120.2 122.5 125.5 129.2 133.5 138 142.4 147.2 152 156.1 160.2 163.3 164.8 165.5 167.6 169.5 171.3 172.4 173.1 174.7 176.3 177.9 180.2 182.4 184.8 186.8 188.3 189.9 191.6 193.6 195.7 197.1 197.9 197.8 197.8 198.3 199.7 200.8 203.9 207.1 209 210.7 212.4 214.1 215.6 216.6 217.9 218.6 218.5 218 216.9 216 214.3 211.2 207.7 205.4 203.8 203.1 202.3 201.8 200.5 199.5 198.3 197 198.8 199.5 200 199.7 198.3 199.2 203.3 206.2 208.4 209.9 204.4 193.1 171.2 164.9 162.3 161.5 166.4 172.9 178 182.5 186.7 190.8 194.4 197.2 200.1 203.3 205.7 207.5 207.6 206.3 204.2 200.8 196.3 192.8 188.9 181.4 177.9 170 156 154.3 159.1 163.7 166.8 170.9 173.8 176.9 181.3 185.3 190.1 195.6 200.7 204.5 208.4
-2 -2 -2 -2 -2 -2 -2 -2 -2 -2 -2 -2 -2 -2 -2 -2 -2 -2 -2 -2 -2 -2 -2 -2 -2 -2 -2 -2 -2 -2 -2 -2 -2 -2 -2 -2 -2 -2 -2 -2 -2 -2 -2 -2 -2 -2 -2 -2 -2 -2 -2 -2 -2 -2 -2 -2 -2 -2 -2 -2 -2 -2 -2 -2 -2 -2 -2 -2 -2 -2 -2 -2 -2 -2 -2 19.9 42 66.6 103.3 112.2 115.1 117.9 120 122.8 125.6 129.9 133.8 138 143 147.7 151.3 154.4 158.2 162.3 165.3 167.4 167.8 169 171.2 172.7 173.7 174.6 175.3 176.7 178.3 179.9 181.4 183.6 185.3 186.9 188.4 190.2 192.2 194.2 195.5 195.7 195.5 195.1 195.4 196.2 198.8 202.1 205.4 207.8 209.5 211.2 212.7 213.6 214.7 216.1 216.6 215.9 214.8 212.7 211.4 208.6 205.1 203 201.8 201.5 200.9 200.3 199.9 199.6 198.8 197.8 195 197.6 199.4 199.3 199.6 199.7 199.1 197.3 200 200.9 203.5 202.3 184.6 160.2 155.5 157.8 163.5 169.8 175.8 180.6 184.6 188.5 192.3 195.7 198.5 201.4 203.9 206.2 207 206.5 204.6 202 195.4 192.3 189.1 180.5 175.1 170.7 161.2 152.7 154.1 157.6 161.2 164 167.5 170.6 174.4 178.7 182.8 186.9 193.1 198.4 202.2 206
-2 -2 -2 -2 -2 -2 -2 -2 -2 -2 -2 -2 -2 -2 -2 -2 -2 -2 -2 -2 -2 -2 -2 -2 -2 -2 -2 -2 -2 -2 -2 -2 -2 -2 -2 -2 -2 -2 -2 -2 -2 -2 -2 -2 -2 -2 -2 -2 -2 -2 -2 -2 -2 -2 -2 -2 -2 -2 -2 -2 -2 -2 -2 -2 -2 -2 -2 -2 -2 -2 -2 -2 -2 -2 2.7 21 71.6 103 112.1 114.3 117.1 119.9 122.5 125.4 129.7 134 137.1 141.8 146.5 150.2 153.9 156.8 159.8 163.6 166.6 168.9 169.5 170.1 171.5 173.2 174.2 175 175.8 176.8 178 179 180.2 182.1 184 185.5 186.9 188.1 190.4 192.3 193.8 194.1 193.2 191.9 192 193.9 196.9 200.8 203.8 206 208.1 209.7 211.1 211.9 212.4 213.7 213.8 212.7 210.8 208.2 206.1 203.2 201.2 199.8 199 198.8 198.6 198.4 198.1 197.8 197.7 196.4 197.2 199.6 198.7 199.2 199.4 198.9 198.9 190.3 184.5 172.6 178.3 187.7 182.5 153.8 154.5 159.9 166.3 172.9 178.1 182.4 186.3 190.1 193.9 197.6 200.4 203.1 205.4 206.6 206.7 205.4 202.9 195.7 190.3 187.5 183.6 176.8 170.7 164.4 156 151.1 155.2 160 162.7 165 167.7 170.7 174.1 177.7 180.9 185 190.2 195.9 200.2 204
-2 -2 -2 -2 -2 -2 -2 -2 -2 -2 -2 -2 -2 -2 -2 -2 -2 -2 -2 -2 -2 -2 -2 -2 -2 -2 -2 -2 -2 -2 -2 -2 -2 -2 -2 -2 -2 -2 -2 -2 -2 -2 -2 -2 -2 -2 -2 -2 -2 -2 -2 -2 -2 -2 -2 -2 -2 -2 -2 -2 -2 -2 -2 -2 -2 -2 -2 -2 -2 -2 -2 -2 -2 11.8 53.8 79.9 102 111.5 113.5 116.3 119.1 121.8 125.2 128.8 133.3 137.5 140.1 143.9 148 151.7 155.2 158 161 164.3 166.8 169.2 171 171.7 172 173.2 174.2 175.2 176 176.8 177.4 178.1 179.1 180.8 182.6 184 184.7 185.6 187.8 190.1 191.5 191.4 190.1 188.4 189.5 191.9 195.9 199.3 202.2 204.5 206.6 208 209.3 209.8 210 211.1 210.2 208.3 206.4 204 201.8 199.9 198.1 197 196.2 195.7 195.8 195.9 196.2 196.2 195.8 191.6 199.3 199.7 197.1 199 198.8 196.9 184.2 161.4 150.4 143.7 146.9 160.5 165.6 152.1 156.4 161.7 168.9 175.1 180.2 184.1 187.8 191.7 195.5 199.3 202.9 205.7 206.5 206.6 205.9 203.8 199.4 191.1 186.1 182.9 179.1 174.7 169.1 162.3 153.7 150.1 155.7 161.5 164.9 168.2 171.5 174.4 177 180 183.1 187.2 190.8 194.8 198.6 202.4
-2 -2 -2 -2 -2 -2 -2 -2 -2 -2 -2 -2 -2 -2 -2 -2 -2 -2 -2 -2 -2 -2 -2 -2 -2 -2 -2 -2 -2 -2 -2 -2 -2 -2 -2 -2 -2 -2 -2 -2 -2 -2 -2 -2 -2 -2 -2 -2 -2 -2 -2 -2 -2 -2 -2 -2 -2 -2 -2 -2 -2 -2 -2 -2 -2 -2 -2 -2 -2 -2 -2 -2 -2 2 26.2 65.6 107.8 111.8 115 117.9 121.1 124 128.1 132.3 136.8 140.9 143.8 146.8 150.9 154.1 156.5 159.2 162 164.7 166.9 169.3 170.8 171.6 172 172.7 173.8 174.9 175.9 176.4 177 177.5 177.8 178.9 180.6 181.6 182.3 183.1 185.3 187.6 188.5 188.4 187.8 185.9 187.6 190.8 194.9 197.8 200.6 202.8 204.6 205.8 206.9 207.1 207.7 206.8 205.5 203.7 201.7 199.8 197.8 196 195 193.9 192.9 192.6 192.8 192.9 193.5 193.8 193 187.7 199.3 201.7 202.2 200 195.4 180 155.9 140.2 139.9 142.3 144.8 147.8 151.5 156 159.9 165.1 172 177.8 182.1 185.5 189.1 193.1 197 200.9 204.1 206.3 206.8 206.2 204.5 201.5 194.4 188.2 182.5 178.7 175.5 172.9 168.4 162.3 152.3 148.8 153.9 159 163.8 168.1 172.2 175.8 179.1 182.2 185 189.3 192.7 195.8 199.3 202.4
-2 -2 -2 -2 -2 -2 -2 -2 -2 -2 -2 -2 -2 -2 -2 -2 -2 -2 -2 -2 -2 -2 -2 -2 -2 -2 -2 -2 -2 -2 -2 -2 -2 -2 -2 -2 -2 -2 -2 -2 -2 -2 -2 -2 -2 -2 -2 -2 -2 -2 -2 -2 -2 -2 -2 -2 -2 -2 -2 -2 -2 -2 -2 -2 -2 -2 -2 -2 -2 -2 -2 -2 1.6 16.7 39.3 63.6 92.3 112.4 116.1 119.5 123.1 127.7 132.7 136.9 141 144.1 147 149.9 153.4 155.9 157.5 159.9 162.5 165 166.9 168.5 169.4 170.1 171.3 172 173.1 174 174.8 175.9 176.2 176.2 175.9 177.2 178.4 178.9 179.4 180.3 182.1 184 185 185.1 185 183.3 186 189.6 193.1 196.1 198.7 200.9 202.4 203.5 204.6 205.1 204.3 202.6 200.6 198.8 196.5 194.9 193.5 192.5 191.4 190.3 189.5 189.2 189.2 189.4 190.1 187.8 183.5 183.5 190.7 196.6 195.6 189.2 174.8 152 138.4 137.6 140.9 143.9 146.9 149.8 154 158.9 163.9 169.2 175.2 179.5 183.4 187.1 190.3 194.4 198.3 201.7 204.4 206.2 206.3 205.3 203.1 197.8 191.5 185.1 178.7 174.9 172.2 169.9 168 163.5 155.4 147.3 150.5 153.8 158.9 164.1 169 173.6 178.2 181 183.1 187.3 191.8 195.6 198.8 201.9
-2 -2 -2 -2 -2 -2 -2 -2 -2 -2 -2 -2 -2 -2 -2 -2 -2 -2 -2 -2 -2 -2 -2 -2 -2 -2 -2 -2 -2 -2 -2 -2 -2 -2 -2 -2 -2 -2 -2 -2 -2 -2 -2 -2 -2 -2 -2 -2 -2 -2 -2 -2 -2 -2 -2 -2 -2 -2 -2 -2 -2 -2 -2 -2 -2 -2 -2 -2 -2 -2 -2 1.2 13.1 41.6 63.1 85.3 107.8 112.2 116.1 121.5 126.4 131.7 137.1 142.2 145.7 147.7 149.3 151.4 153.9 155.9 157.4 159.5 161.8 163.5 165 165.9 166.5 168 169.8 171.2 172.1 172.9 173.7 174.3 174.6 174.2 173.4 174.7 175.6 175.7 176.2 176.9 178.8 180.5 181.4 182 181.4 181.4 185 188.8 192.2 194.8 197 198.7 200.3 201.3 201.5 201.2 200 198.1 196 193.7 192.4 190.8 189.2 188.8 187.8 186.9 185.8 184.7 184 184 182.5 178.4 174.5 178 183.1 187.2 182.4 162.4 145.4 133.9 136.1 139.5 142.7 146 149.2 153.7 159 164.1 167.8 172.6 177.5 181.4 185 188.5 191.7 195.5 199 201.9 204 205.1 204.9 203.4 200.7 194.8 188.4 180.9 173.6 171 168 166.8 166.1 162.4 152.4 146.9 151.2 155.1 158.4 160.9 164.2 168.5 172.9 177.7 181.8 186.6 191.6 195.7 199.4 203.1
-2 -2 -2 -2 -2 -2 -2 -2 -2 -2 -2 -2 -2 -2 -2 -2 -2 -2 -2 -2 -2 -2 -2 -2 -2 -2 -2 -2 -2 -2 -2 -2 -2 -2 -2 -2 -2 -2 -2 -2 -2 -2 -2 -2 -2 -2 -2 -2 -2 -2 -2 -2 -2 -2 -2 -2 -2 -2 -2 -2 -2 -2 -2 -2 -2 -2 -2 -2 -2 -2 -2 4 37.4 62.3 79.2 103.4 108.9 111.9 116.4 122.7 129.1 134.7 140.4 146.1 149.5 150.7 150.7 151.7 153.1 154.6 156.3 158.4 160.2 161.5 162 162 163.4 165 166.7 168.2 169.5 170 170.6 171.6 172.2 172.7 171.1 170.8 172 171.8 171.1 172.5 174.6 176.3 177.5 176.3 177.4 180.7 184.2 188.1 191.3 194 195.8 197.1 198.4 199 198.5 197.1 195.5 193.9 191.4 189.4 187.8 185.9 185.3 184.5 183.4 182.2 181 179.3 178.4 178 176.7 173.5 169.6 170.8 167.1 152.7 148.7 135.2 130.9 134.7 137.9 141.3 144.6 148.6 152.9 159 164.2 168.6 172.2 175.7 179.5 183 186.2 189.4 192.7 196.3 199 201.7 203.1 203.7 203 201.4 198.1 191.8 184.9 176.5 171.1 166.9 163.9 162.7 162.1 153.1 144.8 148.8 155.8 161.7 164.4 165.8 167.9 170.7 174.8 180 184.8 189.4 193.8 198.1 201.5 204.9
-2 -2 -2 -2 -2 -2 -2 -2 -2 -2 -2 -2 -2 -2 -2 -2 -2 -2 -2 -2 -2 -2 -2 -2 -2 -2 -2 -2 -2 -2 -2 -2 -2 -2 -2 -2 -2 -2 -2 -2 -2 -2 -2 -2 -2 -2 -2 -2 -2 -2 -2 -2 -2 -2 -2 -2 -2 -2 -2 -2 -2 -2 -2 -2 -2 -2 -2 -2 -2 -0.3 2.6 26.3 53.9 80.4 100.1 105.2 108.5 111.5 116.1 122.6 128.9 135.4 142.7 149.5 153.8 153.2 151.3 150.9 151.7 153.2 154.6 155.7 156.9 158.2 158.1 158.2 159.7 160.7 162.5 164.4 165.5 166.5 167 167.5 168.5 169.3 169.1 165.9 167.4 165.6 165.1 165.9 167.8 169.8 171.3 174.3 178.4 184.2 186.9 189.3 191.4 193.3 195.5 196.5 197.4 196.6 195.3 194 192.2 190.3 187.3 185.3 182.7 181.3 180.5 179.8 178.6 177.4 175.7 173.6 172.9 173.1 172.2 169.1 165.9 160.8 150.2 136.4 128.9 128.7 133 136.9 140 143.3 147.4 152.9 159.2 164.4 169 172 175.1 178.7 181.6 184.1 187.1 190.4 193.8 196.6 199 201.5 202.1 202.3 201.4 199.2 194.4 188.4 181.3 175 169.8 164.8 158.8 156.1 152.5 144.4 145.5 153.4 161.6 169.1 171.8 172.6 174.3 177 179.7 183.7 187.5 193.2 198 201.7 204.9 207.4
-2 -2 -2 -2 -2 -2 -2 -2 -2 -2 -2 -2 -2 -2 -2 -2 -2 -2 -2 -2 -2 -2 -2 -2 -2 -2 -2 -2 -2 -2 -2 -2 -2 -2 -2 -2 -2 -2 -2 -2 -2 -2 -2 -2 -2 -2 -2 -2 -2 -2 -2 -2 -2 -2 -2 -2 -2 -2 -2 -2 -2 -2 -2 -2 -2 -2 -2 -2 -2 -2 2.4 20 43.6 76.8 100.5 104 107.2 110 115.1 121.5 128 134.5 142.5 150.9 154.1 154 151.3 148.6 149.3 150.4 151.2 151.8 152.1 150.3 150.9 153.7 153.6 155.2 157 159.1 160.5 161.8 162.8 163.4 164.1 164.6 164.7 162.3 159.7 158.9 160.8 165.1 167.8 170.6 174.1 178.2 181.9 187.4 190 191.1 192.4 194.2 196 197.3 197.3 195 192.7 191.3 188.9 186.1 182.6 180 177.8 176.7 176 175.5 174.5 172.7 170.7 169 168.6 168.3 167.4 165.1 162 154.9 143.2 130.9 127.1 130.7 135.5 138.9 142.2 146.5 152.6 158.6 164.1 168.2 171.1 174.4 177.8 180.4 183 185.5 188.4 191.3 194.4 196.9 199 200.4 201 200.6 199.3 196.6 191.2 185.2 178.7 173.4 168.5 163.5 153.4 147 142.4 143.5 146.7 160.4 169.7 174.2 176.8 178.7 180.6 182.9 185.1 187.4 191.9 197.6 201.8 205 207.5 209.9
-2 -2 -2 -2 -2 -2 -2 -2 -2 -2 -2 -2 -2 -2 -2 -2 -2 -2 -2 -2 -2 -2 -2 -2 -2 -2 -2 -2 -2 -2 -2 -2 -2 -2 -2 -2 -2 -2 -2 -2 -2 -2 -2 -2 -2 -2 -2 -2 -2 -2 -2 -2 -2 -2 -2 -2 -2 -2 -2 -2 -2 -2 -2 -2 -2 -2 -2 -2 -2 -2 2.7 13.8 45.5 75.2 99.2 102.3 105.1 108.2 113.2 119.1 125.1 131.3 138.6 144 147.7 149 149.2 145.7 143.6 145.5 146.4 145.3 143.4 143.3 142.1 142.6 144.7 147.1 150.3 152.8 154 155.3 156.7 158.3 159.4 159.4 158.5 155 152.7 155.7 159.9 166.9 172.2 175.4 178.9 181.7 185 188.4 191.1 192.6 194 195.9 197.2 198 196.5 193.5 190.7 187.7 183.7 179.9 176.9 174.1 172.7 171.8 171.4 171 170.3 168.6 166.8 165.2 164.3 164.5 163.4 160.6 156.2 147.3 135.1 125.7 127.5 133.3 137.7 140.7 145.6 151.9 157.8 162.6 166.6 169.4 172.3 175.6 178.5 181.4 184.2 187 189.7 192.3 194.7 197.2 199.2 199.7 199.8 199.2 197 193 187.7 182.2 175.4 171 166.9 158.5 145.1 139.8 140.3 145.1 156.1 169.7 173.8 177.7 180.5 182.8 185.6 188.1 190.3 193.2 197.5 201.1 204.4 207 209.2 211.4
-2 -2 -2 -2 -2 -2 -2 -2 -2 -2 -2 -2 -2 -2 -2 -2 -2 -2 -2 -2 -2 -2 -2 -2 -2 -2 -2 -2 -2 -2 -2 -2 -2 -2 -2 -2 -2 -2 -2 -2 -2 -2 -2 -2 -2 -2 -2 -2 -2 -2 -2 -2 -2 -2 -2 -2 -2 -2 -2 -2 -2 -2 -2 -2 -2 -2 -2 -2 -2 45.1 43.5 52.2 74.1 91.3 98.1 100.9 103.8 107.5 112.1 117.5 121.8 127 132.2 136.5 139.8 139 135.3 132 131.7 135.7 135.3 131.5 128.8 128.4 128.4 129.4 132 135.9 138.9 141.8 143.7 144.2 146.1 149.1 150.5 150.9 148.2 148.6 150.8 154.6 158.4 165.7 172 176.4 180.2 183.2 186.4 189.1 191.7 194 195.6 196 197.2 197.3 194.8 191.7 189.2 186.2 182.6 178.7 173.5 169.4 168 167.2 166.8 166.8 166.3 165.1 163.6 161.8 160.8 160.7 158.8 154.7 147.7 136.4 124.5 125.3 132.3 139.2 142.5 146.4 150.7 155.9 160.5 164.3 167.7 170.3 173.4 176.3 179.2 182.1 185 187.9 190.2 192.5 194.8 197.6 199.2 199.2 198.9 197.4 194.1 188 182.7 177.8 172.5 168.5 163.5 150.8 139.1 138.9 143.6 152.6 162.7 170.4 176.6 181 184.2 187.1 190.1 193.1 195.3 197.8 200.3 203.4 205.7 208.4 210.2 212
-2 -2 -2 -2 -2 -2 -2 -2 -2 -2 -2 -2 -2 -2 -2 -2 -2 -2 -2 -2 -2 -2 -2 -2 -2 -2 -2 -2 -2 -2 -2 -2 -2 -2 -2 -2 -2 -2 -2 -2 -2 -2 -2 -2 -2 -2 -2 -2 -2 -2 -2 -2 -2 -2 -2 -2 -2 -2 -2 -2 -2 -2 -2 -2 -2 -2 -2 -2 -2 31.8 49.8 67.7 81.4 90.8 95.7 99.3 103.1 106.7 110.6 115.9 120.2 124.3 128.2 131.2 129.6 120.8 112.6 107.1 109.8 111.8 111.4 111.5 113.6 113.3 113.9 116 119.4 122.4 125.9 128.6 131.7 132.5 134.5 136.6 139.2 141.6 144.8 148.6 152.2 155.9 159.2 164.7 171.2 176.1 180.7 184.2 187.1 189.9 192.2 194.4 195.4 195.1 195.6 195.6 193 190 187.7 185.2 181.8 176.5 170.9 166.4 163.2 162.5 163.5 163.7 162.9 161.9 160 158.4 157.3 156.9 154.7 148.5 137.8 125.5 123 128.1 138.8 143.3 146.5 150 153.5 158.1 162.1 165.3 168.5 171.3 173.9 176.4 178.9 181.7 184.9 187.8 190.2 192.6 195 197.2 198.6 198.6 197.9 195.9 190.5 183 177.1 173.2 169.8 166.2 159.9 146.3 137.5 140.9 149.7 159.1 165.8 172.2 178.4 183.6 187.2 190.2 192.6 195 197.3 199.9 202.5 204.8 206.9 208.8 210.3 211.9
-2 -2 -2 -2 -2 -2 -2 -2 -2 -2 -2 -2 -2 -2 -2 -2 -2 -2 -2 -2 -2 -2 -2 -2 -2 -2 -2 -2 -2 -2 -2 -2 -2 -2 -2 -2 -2 -2 -2 -2 -2 -2 -2 -2 -2 -2 -2 -2 -2 -2 -2 -2 -2 -2 -2 -2 -2 -2 -2 -2 -2 -2 -2 -2 -2 -2 -2 -2 -2 22.4 39.2 57.7 73.9 86.4 89.2 94.4 100.5 104.9 109 114.2 118.5 121.7 124.5 119 109.1 99.7 87.9 84.4 93.4 96.6 103.5 112.2 117 120.4 125.8 131.1 137.7 133.7 133 134.3 137 139 143 144.7 145.5 147.1 150 153.4 157.5 158.6 160.9 164.4 170.3 175.2 179.6 183.6 186.8 189.6 191.7 194 194.2 193.7 193.2 192.3 190.8 188.4 185.9 183.4 180.2 175.4 169.5 164.1 160 156.3 159.4 159.7 159 158.5 156.6 155 153.6 153 151.1 140.8 124.9 120.8 124.5 134.6 141.5 145.5 149.2 152.2 155.7 159.2 162.5 165.6 168.3 170.8 173.6 175.8 178.3 181.3 184.3 187.3 189.7 192.1 194.4 196.6 198 197.8 196.5 193.9 186.2 177.9 172.7 169.3 165.8 160.9 153.4 139.1 137.7 143.3 152.1 162.1 169 174.8 180.3 184.7 188.4 191 193.4 195.9 198.1 201.3 204.2 206.5 208.5 209.9 211.4 212.6
-2 -2 -2 -2 -2 -2 -2 -2 -2 -2 -2 -2 -2 -2 -2 -2 -2 -2 -2 -2 -2 -2 -2 -2 -2 -2 -2 -2 -2 -2 -2 -2 -2 -2 -2 -2 -2 -2 -2 -2 -2 -2 -2 -2 -2 -2 -2 -2 -2 -2 -2 -2 -2 -2 -2 -2 -2 -2 -2 -2 -2 -2 -2 -2 -2 -2 49.3 56.7 42 21.5 28 43.6 56.9 61.9 66.6 74.9 85.3 96.5 105.4 109.4 114.6 118.2 109.3 98 88.4 79.9 81.3 97.9 116.5 119.6 125.5 136.8 141 146.4 149.6 151.6 152.5 151.3 149.6 149.5 151.4 153.4 156 158 159.2 159.7 160.1 160.6 164.1 165.7 166 166.3 169.2 173.6 178.2 182.5 186.2 189.2 191.2 192.4 193.1 192 191 190 188.7 186.9 184.4 182 178.3 173.3 167.1 161.6 157.2 152.2 153.9 155 155.4 155.1 153.4 151.5 149.3 148.2 146.2 133.4 120 121.7 132.8 139.4 143.6 147.3 150.5 153.4 156.4 159.4 162.5 165.3 167.7 170 172.6 175 177.6 180.5 183.5 186.4 189.2 191.5 193.7 195.9 196.8 196.6 194.7 189.8 181.2 174.1 167.9 161.9 157 150.8 140.2 135.6 139 145.9 157.2 167.3 170.9 175.7 181.6 185.3 188.8 191.5 194 196.5 199 202.3 205.3 207.7 209.7 211 211.7 212.4
-2 -2 -2 -2 -2 -2 -2 -2 -2 -2 -2 -2 -2 -2 -2 -2 -2 -2 -2 -2 -2 -2 -2 -2 -2 -2 -2 -2 -2 -2 -2 -2 -2 -2 -2 -2 -2 -2 -2 -2 -2 -2 -2 -2 -2 -2 -2 -2 -2 -2 -2 -2 -2 -2 -2 -2 -2 -2 -2 -2 -2 -2 -2 -2 31.9 48.8 74.3 75.2 66.2 44 28.7 26.8 33 38.1 44.8 54.2 63.4 73.6 79.6 84.8 93.2 93.2 88.9 75.9 70.4 77.8 95.1 115.1 132.5 141.7 148 153.1 155.6 158 159.7 160.9 161.8 162.4 162.6 161.5 162.3 164.5 167 168.5 169.6 170.4 170 170.3 171.2 172.4 172.9 172.6 173.2 176.3 179.8 183.3 185.7 188.5 190.8 192 191.9 191 189.4 187.8 186.4 184.8 183 179.8 175.6 170.2 164.7 159.2 155.5 149.7 147.3 149.1 150.4 151.2 150.5 149.4 146.5 143.9 140 127.1 119.1 124.5 136 141.5 145.4 148.2 150.4 152.7 155.5 158.6 161.4 164.1 166.5 168.5 170.9 173.4 176.7 179.7 182.7 185.6 188.5 190.9 193.2 194.7 195 194.2 190.9 183.9 176.3 171.4 162.6 153.2 146.1 139.1 133.2 135.7 142.2 151.5 162.1 168.9 172.6 177.2 182 185.3 188.4 191.1 193.5 196.5 199.3 202.4 205.3 208 210.4 211 211.5 211.6
-2 -2 -2 -2 -2 -2 -2 -2 -2 -2 -2 -2 -2 -2 -2 -2 -2 -2 -2 -2 -2 -2 -2 -2 -2 -2 -2 -2 -2 -2 -2 -2 -2 -2 -2 -2 -2 -2 -2 -2 -2 -2 -2 -2 -2 -2 -2 -2 -2 -2 -2 -2 -2 -2 -2 -2 -2 -2 -2 -2 -2 -2 -2 -2 -2 27.5 79 81.1 78.2 69.8 51.1 43.4 40.9 37.1 34.9 37.9 44.2 49.1 55 61.2 65.6 68.4 66.7 63.9 75.8 91.4 110.4 127.8 142.9 149.4 155.3 159.5 162.6 165.5 167 168.2 168.9 169.2 169.7 170.1 171.2 173.2 175.2 176.1 177 178 177.6 178.1 178.9 179.6 179.4 179.3 179.4 180.7 183 184.9 186.8 188.3 190.6 191.5 191.1 190.2 188.5 186.8 184.3 182.9 181.3 177.2 172.4 166.9 161.4 156.4 153.4 147.7 141.9 142.9 144.4 146.3 147 145.2 142.3 140.1 136.9 122.1 117.9 124.1 135.7 141.1 145.1 147.4 149.6 151.8 154.5 157.4 160.2 162.8 164.9 167.1 169.2 172.1 175.2 178.6 181.9 184.9 187.7 190.3 192.4 193 193.1 191.1 185.4 179.1 174.3 166.9 154.6 144.9 137.6 132.4 133.9 140.6 150.6 157.8 164.5 169.4 173.7 177.5 180.5 183.4 186.7 189.5 192.1 195.5 198.9 201.9 204.8 207.7 210.1 211.2 211.6 211.4
-2 -2 -2 -2 -2 -2 -2 -2 -2 -2 -2 -2 -2 -2 -2 -2 -2 -2 -2 -2 -2 -2 -2 -2 -2 -2 -2 -2 -2 -2 -2 -2 -2 -2 -2 -2 -2 -2 -2 -2 -2 -2 -2 -2 -2 -2 -2 -2 -2 -2 -2 -2 -2 -2 -2 -2 -2 -2 -2 -2 -2 -2 -2 -2 -2 11.5 80.9 84.2 81.5 79 76.8 68.8 66.1 64.9 59.7 55.8 50.8 50.1 48.7 49.2 52.5 56.8 64.2 77.4 94.1 112.2 129.8 139.9 147.7 154.3 159.9 164 167.2 169.7 171.8 173 173.9 174.5 174.9 175.4 177.1 178.9 180.9 182.2 183.5 184.1 184.6 184.3 185.3 185.6 185.4 185.2 185.2 185 186.5 187.3 188.1 189.5 190.8 191.5 190.6 189.8 188.1 185.8 182.9 180.8 178.5 174.5 168.9 162.8 157.4 153.6 150.8 145.7 140.2 137.8 138.4 140.3 141.6 140 136.3 135.9 131.6 117.1 118 123.5 133.9 139.4 143.3 146.3 148.3 150.6 153.1 155.9 158.5 160.9 163.1 165.3 167.3 170.5 173.7 177.1 180.5 183.5 186.5 189.2 191.1 191.5 190.1 186.8 181.7 176.4 170.8 162.1 149.3 138.5 131.7 130.9 138.3 150.8 157.2 161.3 165.8 169.8 173.1 176.2 178.9 181.6 185 188 191 194.7 198.2 201.3 204.3 207.3 209.4 211 211.4 210.7
-2 -2 -2 -2 -2 -2 -2 -2 -2 -2 -2 -2 -2 -2 -2 -2 -2 -2 -2 -2 -2 -2 -2 -2 -2 -2 -2 -2 -2 -2 -2 -2 -2 -2 -2 -2 -2 -2 -2 -2 -2 -2 -2 -2 -2 -2 -2 -2 -2 -2 -2 -2 -2 -2 -2 -2 -2 -2 -2 -2 -2 -2 -2 -2 -2 14.1 82.4 85.1 84.4 84.6 84.1 83.7 84.6 86.1 84.5 83.4 79.7 77.4 73.4 71.8 71.3 73.2 81.7 95.9 114.2 130.4 137.6 144.7 151.3 157.3 162.2 166.4 169.9 172.2 174.2 176 177.2 178.7 179.7 179.9 181.4 183 184.8 186.3 187.8 188.8 189.4 189.9 190.3 190.8 190.8 190.4 190.2 189.7 189.4 189.6 190.3 190.4 191.4 191.6 190.7 189.5 187.4 184.8 182.2 179.7 175.5 170.5 165.7 159.1 153.1 150.5 148.4 145.1 140.1 135.4 131.8 131.4 133.2 132.5 130.1 132 125.6 114.9 118.1 123.8 132.2 137.4 140.9 144.2 146.7 148.8 151.2 153.8 156.5 158.8 160.8 162.8 165.3 168.8 172.2 175.6 178.9 182.2 185.2 188 189.3 189.1 187.4 184.1 179 172.9 166.2 157.7 144.1 131.8 129.8 133.4 146.7 154.7 159.3 163.2 166.1 168.9 171.7 173.5 175.6 178.9 182.7 186.8 190.1 193.7 197 200.3 203.6 206.3 208.6 210 211 210.3
-2 -2 -2 -2 -2 -2 -2 -2 -2 -2 -2 -2 -2 -2 -2 -2 -2 -2 -2 -2 -2 -2 -2 -2 -2 -2 -2 -2 -2 -2 -2 -2 -2 -2 -2 -2 -2 -2 -2 -2 -2 -2 -2 -2 -2 -2 -2 -2 -2 -2 -2 -2 -2 -2 -2 -2 -2 -2 -2 -2 -2 -2 -2 -2 1.5 34.3 82.6 84.6 86.9 89.1 90 90.4 91 92.2 94.4 97 100.1 102.6 101.6 99.5 99.9 101.9 106.7 120.5 130.1 134.8 141.1 147.9 154.1 159.5 163.3 166.9 170.2 172.9 175.3 177.6 179.7 181.4 182.9 183.6 185 186.6 188 189.4 191 192.5 193.1 193.4 194.2 194.7 194.7 194.1 193.7 193.1 192.1 191.8 191.1 190.3 190.3 190.7 190.4 188.8 187.1 185.3 182.8 180.3 175 167.8 160.7 155.2 149.7 147.5 146.6 144.4 140.7 135.8 130.8 127 123.5 122.9 127.4 133.5 122 113.6 118.1 123.8 130.4 135.4 138.8 141.4 143 145.2 148.1 150.7 153.3 155.8 158.3 160.3 163.3 166.8 170.7 174 177.5 181.1 184.1 186.5 188.1 186.9 184.9 181.1 175.7 169.1 162.3 151.5 136.6 128.2 130.8 140.9 150.8 156.3 160.5 163.7 165.9 167.1 168.3 169.6 172.5 176.3 180.3 184.3 188.5 192 195.4 199.3 202.5 205.3 207.8 209.5 210.5 209.9
-2 -2 -2 -2 -2 -2 -2 -2 -2 -2 -2 -2 -2 -2 -2 -2 -2 -2 -2 -2 -2 -2 -2 -2 -2 -2 -2 -2 -2 -2 -2 -2 -2 -2 -2 -2 -2 -2 -2 -2 -2 -2 -2 -2 -2 -2 -2 -2 -2 -2 -2 -2 -2 -2 -2 -2 -2 -2 -2 -2 -2 -2 -2 -2 2.7 52.6 80.4 83.9 86.5 89.4 91.9 93.5 95.4 97.3 99.2 101.4 103.9 107.6 111.2 114.6 118.3 122.1 125.7 129.5 133.7 137.9 143.9 150.1 155.2 159.9 163.6 167.3 170.5 172.8 175.1 177.8 180.4 182.8 184.6 186.3 187.8 189.3 190.7 192.2 193.7 194.8 195.6 196.7 197.9 198 197.9 197.1 196.1 195.2 194.3 193.1 191.5 189.9 189.5 189.4 188.9 187.7 186.2 184.4 182.6 180.5 176.7 170.5 160.3 152.5 147.7 144.1 142.9 142.2 139.9 136.8 132 127.5 122.7 118.5 121.1 123.7 114.4 113.7 119.9 124.1 129 133.2 135.8 137.5 138.9 141.4 144.4 147 150 152.5 155.2 157.8 161.3 164.8 168.7 172.6 176.2 179.9 182.4 184.5 186.4 185.1 183 178.3 171.3 164.7 157.7 148.6 131.7 127.2 135.9 147.4 153.1 156.9 159.8 162.6 163 162.2 163.4 163.9 169.8 173 178.6 181.9 186.3 190.7 194.8 198.7 201.5 204.7 207.2 209 209.9 209.3
-2 -2 -2 -2 -2 -2 -2 -2 -2 -2 -2 -2 -2 -2 -2 -2 -2 -2 -2 -2 -2 -2 -2 -2 -2 -2 -2 -2 -2 -2 -2 -2 -2 -2 -2 -2 -2 -2 -2 -2 -2 -2 -2 -2 -2 -2 -2 -2 -2 -2 -2 -2 -2 -2 -2 -2 -2 -2 -2 -2 -2 -2 -2 -2 11.1 72.7 76.9 82.1 86.7 90.7 94 96.1 98.4 100.7 102.8 104.7 107.5 110.2 113.8 117.5 121.3 125 128.8 133.4 136.5 140.8 145.8 150.7 155.8 159.8 163.3 166.5 169.6 171.9 174.7 177.5 180.1 182.7 185.7 188.1 189.6 191 192.4 194 195.6 197 198.3 199.6 200.3 200.4 200.1 199.3 198.1 196.8 194.9 193.3 191.1 189.3 188.9 188.3 187.3 186.1 184.9 183.7 182.2 180.3 177.1 172.5 164.9 155.7 147.2 141.9 138.7 137.9 136.3 133.8 131 127.5 122 116.4 114.1 112.3 111.6 116 120.3 123.3 126.6 129.7 130.5 132 134.4 138.1 141.2 143.4 146.7 149.7 152.7 155.9 159.4 163.1 167.1 171.3 175 178.6 181 183 184.3 183.4 181 175.3 168 161.1 153.4 142.8 128.3 127.9 138.6 148.5 152.9 154.8 156.5 156.4 155.9 158.6 165.3 168.3 168.9 173.2 177.4 180.9 185.4 189.9 194.1 197.8 200.9 204 206.5 208.4 209.3 209.4
-2 -2 -2 -2 -2 -2 -2 -2 -2 -2 -2 -2 -2 -2 -2 -2 -2 -2 -2 -2 -2 -2 -2 -2 -2 -2 -2 -2 -2 -2 -2 -2 -2 -2 -2 -2 -2 -2 -2 -2 -2 -2 -2 -2 -2 -2 -2 -2 -2 -2 -2 -2 -2 -2 -2 -2 -2 -2 -2 -2 -2 6.4 0.8 25.2 18.3 66.3 74 80.5 85.3 90.3 95.2 98.1 100.5 103 105.9 108 110.1 112.3 115.9 119.8 123.4 127.6 131.5 135.6 138.9 142.8 147.7 152.1 155.6 159.5 162.5 165.5 168.4 171.4 174.3 177.2 179.8 182.5 186.1 189.5 191.2 192.5 193.8 195.4 196.9 198.3 199.6 200.8 201.7 202 201.9 201.3 199.6 197.4 195.3 193.4 190.8 188.2 187.2 186.6 185.9 184.6 183.3 182.3 179.8 179.1 176.1 172.2 166.5 159.5 152.5 142.7 135.4 133.3 131.8 130.2 127.7 125 118.4 114 111.4 110.1 111.1 116.1 119.4 121.8 123.6 125 126.8 128.9 131.5 134.8 138.1 141.3 144.4 147.4 150.6 154 157.6 161.6 165.6 169.8 173.8 177.4 180 182.7 183.3 182.6 179.6 172.8 165.2 157.1 151.7 143.7 128.8 130 138.7 145.4 149.4 149.8 148.9 151.3 158 164.2 168.3 171.2 173.3 176.3 179.1 182.3 185.9 190.4 194.2 197.3 200.2 203.4 205.9 207.6 208.6 208.9
-2 -2 -2 -2 -2 -2 -2 -2 -2 -2 -2 -2 -2 -2 -2 -2 -2 -2 -2 -2 -2 -2 -2 -2 -2 -2 -2 -2 -2 -2 -2 -2 -2 -2 -2 -2 -2 -2 -2 -2 -2 -2 -2 -2 -2 -2 -2 -2 -2 -2 -2 -2 -2 -2 -2 -2 -2 -2 -2 -2 -2 2.6 17.1 29.8 44.7 59.4 69.9 76.6 81.6 87.1 92 96.2 101.3 105.6 108.2 109.8 112 114.5 118.2 121.8 125.4 129.6 133.6 136.4 139.8 143.8 148.5 152.6 155.8 158.7 161.6 164.6 167.5 170.8 174 176.9 179.5 182.9 186.3 189.3 191.7 193.1 194.9 196.7 198.2 199.5 200.9 201.8 202.3 203 203.2 202.6 200.7 198.5 196.3 193.9 190.5 187.3 185.6 184.5 183.6 182.4 181.7 180.5 179 177.3 174.9 171.1 166.7 160.4 153.9 143.6 134.4 129.6 127.7 125.8 123.9 120.3 115.8 112.6 109.9 108.7 111.4 115 117.3 119.1 120.6 122.1 123.9 126.4 129.1 132.5 136 139.4 142.7 146 149.4 152.9 156.7 160.8 164.7 168.6 172.6 176.7 180.1 182.3 183 181.1 177.8 170.6 164.1 155.6 149.8 142 130.3 127.2 136.3 141.1 143.4 143.6 145.8 154.8 161.3 165.7 169.1 172.8 175.6 178.5 181.7 184.4 187.3 190.4 194 196.9 199.9 202.8 205.1 207.1 207.8 208.3
-2 -2 -2 -2 -2 -2 -2 -2 -2 -2 -2 -2 -2 -2 -2 -2 -2 -2 -2 -2 -2 -2 -2 -2 -2 -2 -2 -2 -2 -2 -2 -2 -2 -2 -2 -2 -2 -2 -2 -2 -2 -2 -2 -2 -2 -2 -2 -2 -2 -2 -2 -2 -2 -2 -2 -2 -2 -2 -2 -2 1 6.4 13 20 33.1 47.9 61.9 70.2 77.5 84.6 90 95.6 101.2 105.5 108.9 111.6 114 117.2 120.6 123.8 127.5 131.8 134.8 137.8 140.7 144.6 148.7 152.4 155.4 158 160.7 163.6 166.7 170.2 173.3 176.4 179.5 182.4 185.4 187.9 190.7 192.6 194.7 196.8 198.9 200.6 201.6 202.3 202.9 203.4 203.9 203 201.3 199.2 197 194.6 190.7 186.6 183.9 182.2 181.2 179.4 178.5 176.5 176.3 174.2 172.2 168.5 164.1 160.3 153.1 144 134.5 128.4 124.4 122 119.2 116.8 114.1 111.9 108.9 107.8 110.3 112.2 114 116.3 118.7 120.8 122.6 125.2 129.3 132.2 135.5 139.3 142.2 145.5 149 152.6 156.5 160.6 164.9 169.2 173.5 177 179.5 180.6 180.9 179.1 174.9 169.1 162.2 153.4 144.6 131.9 124.7 127.2 133 135.7 138.2 142.2 148.8 156.7 161.9 166.2 170.1 173.7 177.1 180.1 182.7 185.4 188.3 190.8 193.9 196.5 199.5 202.2 204.2 206.4 207 207.7
-2 -2 -2 -2 -2 -2 -2 -2 -2 -2 -2 -2 -2 -2 -2 -2 -2 -2 -2 -2 -2 -2 -2 -2 -2 -2 -2 -2 -2 -2 -2 -2 -2 -2 -2 -2 -2 -2 -2 -2 -2 -2 -2 -2 -2 -2 -2 -2 -2 -2 -2 -2 -2 -2 -2 -2 -2 -2 -2 -2 0.1 28.5 32.2 19.2 22.2 35.9 51.6 64.2 74 81.6 88.9 95 100.6 105.3 108.9 112.7 116 118.8 122.1 125.6 130 133.8 136.1 138.3 141.6 145.1 148.7 151.8 154.7 157.3 160 162.7 166 169.6 172.3 175.2 178.3 181.1 183.6 186.1 188.9 192 194.2 196.6 198.6 200.1 201.1 202.1 203.1 203.9 204.2 203.4 201.9 199.8 197.7 195.2 191.4 187.6 183.6 181.3 178.8 175.5 171.7 174 172.3 169.9 166.9 163.7 162 158.6 151.4 143.4 134.9 127.8 123 119.2 116.3 113.9 112.5 110.4 106.9 107.2 109 110.7 113 115.5 117.8 121.4 123.7 126.3 130 133.4 136.1 139 142.2 145.5 148.8 152.6 156.7 161.1 165.5 169.8 174.1 176.6 178.3 178.8 178.4 175.9 171.3 165.1 157.6 148.8 132.1 121.3 122.8 127.5 130 134.9 141.1 146.9 152.2 157.4 161.9 165.9 170.1 174.3 177.5 180.5 183.4 186.2 188.7 191.2 194.1 196.1 199 201.8 203.6 205.6 206.4 207.1
-2 -2 -2 -2 -2 -2 -2 -2 -2 -2 -2 -2 -2 -2 -2 -2 -2 -2 -2 -2 -2 -2 -2 -2 -2 -2 -2 -2 -2 -2 -2 -2 -2 -2 -2 -2 -2 -2 -2 -2 -2 -2 -2 -2 -2 -2 -2 -2 -2 -2 -2 -2 -2 -2 -2 -2 -2 -2 -2 -2 1.5 44.9 48.5 39.5 28.1 25.6 39.7 55.7 68.6 79 87.4 95 100.3 105 108.9 113.2 116.7 119.4 123.4 128 132 134.7 137.3 139.6 141.9 144.9 148 150.5 153.3 156 159.1 161.8 165.1 168.5 171.2 174 176.8 179.6 182.1 184.7 187.9 190.8 193.4 195.4 197.2 199 200.6 201.7 202.8 203.4 203.7 203.2 201.7 199.7 197.8 195.5 192.5 188.6 184.4 180.9 178.7 175.6 174 163.9 164.1 162.4 161.7 160.5 159.2 154.4 146.9 140.2 132.6 127.3 122.6 118 115 112.8 111 108.6 105.6 106.6 108.5 110.5 115.3 118.5 120.9 123.6 125.8 128.4 131.4 134.4 137.2 139.8 143.3 146.7 149.7 153.4 157.4 161.6 166.1 170.4 173.7 175.7 177.4 177.1 176.1 173.1 167.3 160.1 151 138.2 121.6 120.3 124.3 130.3 135.9 142.2 147.7 150.6 153 157.7 161.8 164.8 169.9 174 177.6 180.3 183 186.1 188.5 190.9 195.2 196.6 199.3 201.5 203.2 204.8 206 206.7
-2 -2 -2 -2 -2 -2 -2 -2 -2 -2 -2 -2 -2 -2 -2 -2 -2 -2 -2 -2 -2 -2 -2 -2 -2 -2 -2 -2 -2 -2 -2 -2 -2 -2 -2 -2 -2 -2 -2 -2 -2 -2 -2 -2 -2 -2 -2 -2 -2 -2 -2 -2 -2 -2 -2 -2 -2 -2 -2 0.9 25.1 52.9 55.2 55.2 47.4 36.2 33.4 45.3 60.6 75.3 86.7 95.2 100.1 104.6 108.6 112.4 116.2 120 124 128.6 132.5 134.9 136.9 139.4 141.7 144.1 146.2 149 151.6 153.8 157 160.5 163.9 167.3 169.8 172.5 175.1 178 180.8 183.6 186.6 189.1 191.7 193.9 195.9 197.4 199.6 201.1 202.3 202.7 203 202.7 201.4 199.5 197.4 195 192.4 189.2 184.9 181.2 177.9 174.6 170.3 165.2 154.9 153.1 155.1 153.8 152.2 146.2 139.4 134.3 129.9 126.7 122.7 118.8 115.2 112.6 109.6 107.2 104.5 106.1 110.4 115.9 119.3 121.5 123.5 125.3 127.3 130.4 132.5 134.9 137.9 141 144.2 147.9 150.9 154.7 158.8 162.8 167 169.9 173.3 175.1 175.5 175.5 173.9 171 165.5 158.3 146.2 129.2 118.1 120.4 127.8 131.6 137.8 141.5 146.5 149.1 151.8 155.1 159.5 163 168.2 172.8 177.2 179 182.1 184.6 187.2 189.8 192.2 195.4 197.1 200.6 202.8 204.7 205.9 207
-2 -2 -2 -2 -2 -2 -2 -2 -2 -2 -2 -2 -2 -2 -2 -2 -2 -2 -2 -2 -2 -2 -2 -2 -2 -2 -2 -2 -2 -2 -2 -2 -2 -2 -2 -2 -2 -2 -2 -2 -2 -2 -2 -2 -2 -2 -2 -2 -2 -2 -2 -2 -2 -2 -2 -2 -2 -2 -2 30.8 54.1 59.2 62.2 64.9 63.5 57.6 44.8 37.6 52 69.1 84.6 94 100.6 103.9 106.8 110.5 115 119.1 123.4 127.7 131.7 134.7 136.7 138.8 140.7 142.7 144.7 146.7 149.4 151.7 154.6 157.9 161.5 165.1 167.7 170.5 173.3 176.2 179.3 182.1 184.7 187.3 189.9 192.1 194.3 196.4 198.5 200.2 201.6 202 202.1 201.8 200.7 199.1 196.8 194.3 191.3 188.2 184.2 180.4 176.2 172.3 167.6 162.8 153.2 146.8 148.6 148.7 144.4 138.5 132.9 129.5 127.2 124.8 122.3 119.9 117.1 114.5 109.5 104.9 103.7 106.7 111.9 116.3 119.3 122.2 123.6 124 128 130.6 133 135.8 138.9 142.1 145.2 148.9 152.3 156.6 160.8 164.5 168.3 170.6 173 173.7 174.2 173.5 172.1 169.1 165.2 158.5 146.9 128.1 116.8 120.9 128.7 134.1 139 142.3 144.4 146.7 148.8 152.6 156.9 160.8 166.5 171.3 175 177.7 180.1 182.6 184.7 187.4 190.2 193.2 196.7 199.9 202.5 204.4 206.2 207.5
-2 -2 -2 -2 -2 -2 -2 -2 -2 -2 -2 -2 -2 -2 -2 -2 -2 -2 -2 -2 -2 -2 -2 -2 -2 -2 -2 -2 -2 -2 -2 -2 -2 -2 -2 -2 -2 -2 -2 -2 -2 -2 -2 -2 -2 -2 -2 -2 -2 -2 -2 -2 -2 -2 -2 -2 -2 11 38.7 59.3 62.1 63.8 67.9 71.8 73 74.1 67.9 55.2 43 55 67.8 79.4 89.2 98.7 104.2 108.7 113.6 118 122.4 127 130.6 133.7 135.6 137 138.5 140.1 142.3 144.4 146.8 149.3 151.8 155 159 162.7 166.1 168.9 171.5 174.2 177.3 180.3 182.9 185.5 188.1 190.4 192.8 195 197.1 199.2 200.7 201.3 201.2 200.5 199.2 197.2 195.1 192.6 189.7 186.9 183.6 179.5 174.2 170.7 165.3 159.7 150.4 143.7 141.3 139.5 134.9 130.5 127.7 125 123.3 121.9 120.9 120 118.2 115.9 110 103.3 103.4 107.5 111.8 115 117.7 120.2 121 122.5 127.4 130.2 133.4 136.7 139.7 142.9 146.5 150.1 154 158.4 162.6 166.7 169.4 171.3 172.3 173 168.9 169.7 170.1 167.6 163.7 158.2 148.1 126.5 117.2 121.2 127.5 131.9 136.6 139.7 141.3 142.5 146 150.1 154.1 159.2 164.1 167.9 171.1 174.8 177.3 179 181.1 183.9 187.7 191.6 195.8 199.4 202.3 204.5 206.4 207
-2 -2 -2 -2 -2 -2 -2 -2 -2 -2 -2 -2 -2 -2 -2 -2 -2 -2 -2 -2 -2 -2 -2 -2 -2 -2 -2 -2 -2 -2 -2 -2 -2 -2 -2 -2 -2 -2 -2 -2 -2 -2 -2 -2 -2 -2 -2 -2 -2 -2 -2 -2 -2 -2 -2 -2 27.9 36.5 50 57.1 61.6 66.2 70.8 75.3 79.8 83.4 86.4 81.3 70.3 60.3 53 58.6 71.3 82.4 93.2 100.9 107.3 113.7 119.3 125.9 129.7 132.1 132.9 134.1 135.8 137.3 139.4 141.4 143.5 145.2 147.7 151.9 156.1 160.3 163.7 166.7 169.3 171.8 175.3 178.3 181.1 183.7 186.3 188.8 191.3 193.7 195.7 197.8 199.7 200.5 199.9 198.5 197 195 192.8 190.8 188.6 186 183.2 178.9 172.8 171.3 161.7 153.8 146.6 141.1 137.1 133.7 129.8 126.6 123.7 121.5 119.2 117 117.3 117.7 118.5 116.7 110.1 102.5 102.6 106.3 110 113 115.3 117.4 119.4 123.1 126.8 130 133.3 136.7 140.3 144.3 147.9 151.3 155.5 160.1 164.4 167.9 170 171 171.8 171.6 172.8 168.3 166.1 164 160.1 154.6 143.8 123.2 115.5 119.6 125.1 129 132.7 134.8 136.9 139.3 142.9 146.8 150.8 156.2 160.4 163 167.1 170.2 172.8 175.4 179.6 183.4 187.3 192.5 196.5 199.2 201.9 204.1 205 203.5
-2 -2 -2 -2 -2 -2 -2 -2 -2 -2 -2 -2 -2 -2 -2 -2 -2 -2 -2 -2 -2 -2 -2 -2 -2 -2 -2 -2 -2 -2 -2 -2 -2 -2 -2 -2 -2 -2 -2 -2 -2 -2 -2 -2 -2 -2 -2 -2 -2 -2 -2 -2 -2 -2 25.9 13 20.8 33.6 44.3 53.6 60.4 66.3 72.7 79.2 84.9 90.8 95.5 94.7 91.3 87.1 78.8 71.6 68.7 63.9 70.2 78.2 87 99.6 113.2 122.2 127.4 128.7 128.7 129.6 131.8 133 135 137.4 138.4 141 140.2 148.4 153.2 157.6 161.2 164.4 167.2 169.5 173.1 176.3 179.3 182.3 185.2 187.5 189.8 192.3 194.3 196.5 198.5 198.9 198.3 196.5 194.8 193 190.8 189.4 187.7 185.7 183.4 179.8 174.5 171.8 163.1 155.7 148 141.9 136.5 132.2 128.2 125.1 122.3 119.6 116.9 114.1 112.6 114.5 117.3 116.1 109.5 101.5 101.6 104.1 108.1 110.1 111.9 115.3 119.4 123 126.7 129.9 133.2 136.7 140.4 144.3 148.5 152.4 156.9 161.5 165.6 168.2 169.5 170.1 170 168.1 166.2 162.7 160.2 157.1 153.7 148.2 134.6 118.2 115.1 117.7 121.6 124.7 128 130.4 132.6 134.7 139.5 142.3 146.3 150.6 155 157.9 161.9 166.6 172.5 177.1 180.9 184.9 188.9 193 197.3 199.5 201 202.5 201.6 196.3
-2 -2 -2 -2 -2 -2 -2 -2 -2 -2 -2 -2 -2 -2 -2 -2 -2 -2 -2 -2 -2 -2 -2 -2 -2 -2 -2 -2 -2 -2 -2 -2 -2 -2 -2 -2 -2 -2 -2 -2 -2 -2 -2 -2 -2 -2 -2 -2 -2 -2 -2 -2 -2 -2 32.2 28.3 16.3 22.8 35.4 47 57.6 66.6 74 81.8 86.5 93.1 99.7 100.3 99.5 97.5 98.1 97.4 90.2 87.9 88 89.7 88.1 80.6 97 109.3 115.8 114.3 115.8 126.9 126.1 124.9 124.7 123.1 122.1 133.1 137.3 144.2 149.5 154 158.4 161.5 164.9 167.3 170.6 174.5 177.7 181 184.2 186.4 188.6 190.8 192.9 195.3 196.9 197.2 196.3 194.5 192.8 191 189.4 188 186.6 184.7 182.8 180.4 177.2 172 168.8 162.9 156.5 148.6 140.1 134.5 128.7 125.3 122.7 120 117.5 114.8 112.4 109.9 110.7 110.9 106.4 101.4 100.6 102.5 105.6 107 110.6 114.8 119 122.3 126 129.8 133.1 136.8 140.5 144.3 148.6 153.3 157.8 161.9 165.2 167.5 167.8 167.8 165.9 163 159.9 156.3 152.5 149.2 145.5 137.7 123.1 114 113.5 117 119 120.5 122.9 125 129.7 132.8 136.4 139.2 143.7 148.5 155.2 159.8 165 170.2 174.7 179.1 183.3 187.2 191.3 195.1 197.8 199.7 200 199.4 195.6 188.9
-2 -2 -2 -2 -2 -2 -2 -2 -2 -2 -2 -2 -2 -2 -2 -2 -2 -2 -2 -2 -2 -2 -2 -2 -2 -2 -2 -2 -2 -2 -2 -2 -2 -2 -2 -2 -2 -2 -2 -2 -2 -2 -2 -2 -2 -2 -2 -2 -2 -2 -2 -2 -2 -2 1.8 41.4 32.8 20.9 24.4 36.2 48.2 59.2 67.9 76 81.8 90.3 98.2 100.4 101.1 101.1 102.7 104.9 104.7 107.6 109.5 110.4 108.5 102.2 95.9 90.4 94.3 96.9 100.8 106.7 116.8 118.3 118.6 118.5 115.8 115.8 138.7 144 148.8 152.9 156.2 159.2 163.2 167.1 170.7 174.3 177.7 180.6 183.2 185.2 187.3 189.5 191.8 194 195 194.9 193.9 192.1 190.4 188.5 186.9 185.6 184.3 183.3 181.5 180.1 178.4 174.7 171.6 167.1 161.3 153.7 145.7 138.8 131.2 127.1 124 122.1 119.9 116.9 113.5 109.7 107.1 104.9 103.5 101 99.4 101.6 103.4 106 109.8 114.3 118.4 121.9 125.6 129.4 133.3 136.9 140.7 144.2 148.5 153.1 156.9 160.1 162.7 163.9 163.7 162.3 159.8 156.3 152.6 148.8 143.8 139.7 134.4 124.6 113.5 111.1 116.1 119.6 121.9 123.4 125.6 127.5 129.2 132.8 137.1 141.3 146.3 152.2 158.6 164.4 169.1 173.3 177.3 181.2 185.2 189.2 192.4 195.8 198.1 199.5 198.2 195.4 189.8 183
-2 -2 -2 -2 -2 -2 -2 -2 -2 -2 -2 -2 -2 -2 -2 -2 -2 -2 -2 -2 -2 -2 -2 -2 -2 -2 -2 -2 -2 -2 -2 -2 -2 -2 -2 -2 -2 -2 -2 -2 -2 -2 -2 -2 -2 -2 -2 -2 -2 -2 -2 -2 -2 -0.6 1.7 23.2 49.5 41.1 29.9 25.4 35.1 46 55.4 64.6 72.1 81.1 89.5 92.2 94.7 97.3 101.3 106 109.4 112.8 117.5 122.4 125.1 124.5 121.9 119.1 117.5 120.2 127.2 130.8 133.3 131.1 123.7 124.4 127.9 135.2 142 146.5 151 155 158.7 162.1 165.1 168.2 171.3 174.3 177 179.7 182.3 184.3 186.2 188.2 190 192.2 192.9 192.8 191.4 189.7 188.2 186.2 184.8 183.4 182 181.1 180.1 179.2 178 175.3 172.5 168.6 163 156.1 148.9 142 134.4 128.8 127.3 125.2 123.1 119.9 115.4 110.6 106.7 103.6 101.9 99.6 98.6 100 101.9 104.5 108.3 113.1 117.5 120.8 125.1 130.2 133.9 136.8 140 144 148 151.5 154.2 156.2 157.6 158.4 157.5 154.9 152 149.1 145.2 140.7 135.3 128.5 121.3 112.8 110.5 114.7 119.4 122.9 125.3 127.8 130.7 132.1 132.5 134.9 138.7 144.8 150.5 156.2 162.2 167.2 171.9 175.9 179.9 183.3 187 190.3 193.7 196.4 198.5 198.8 195 191 186 177.3
-2 -2 -2 -2 -2 -2 -2 -2 -2 -2 -2 -2 -2 -2 -2 -2 -2 -2 -2 -2 -2 -2 -2 -2 -2 -2 -2 -2 -2 -2 -2 -2 -2 -2 -2 -2 -2 -2 -2 -2 -2 -2 -2 -2 -2 -2 -2 -2 -2 -2 -2 -2 -2 0.2 2.5 2.7 33 61.1 51.2 39 30.4 31.6 38.7 46.3 55 63.4 71.7 78.7 85.4 92.7 99.5 105.2 111.2 116 120.9 126.5 129.7 131.5 132.9 133.7 135.3 137.6 140.7 143.8 145.5 145.7 144.7 138.5 131.4 136.4 140.7 146.3 150.9 155.6 159.1 162.6 165.5 168.4 170.9 173.8 176.3 178.2 181.2 183.2 185.3 187.4 188.8 190.3 190.8 190.5 189.4 188 186.5 184.3 182.6 180.6 179.6 178.6 178 177 169.7 174.2 171.9 168.6 163.4 156.9 150 143.5 137.1 132.2 131.1 130.5 127.6 122.8 118.1 112.6 106.8 102.9 100.9 98.8 97.8 99.1 100.8 103.6 107.6 112.2 116.2 120.6 124.9 129.7 133.3 136.1 139.3 142.6 145.8 148.8 150.7 151.9 152.2 151.9 150 147.9 145.3 142 137.6 132.1 124.7 118.1 111.3 110.1 112.5 117.9 123.2 127.3 130.9 134.9 138.4 140.5 138.9 138.8 141.8 147 154 159.8 164.8 169.4 173.9 178.1 181.6 184.9 187.9 191.4 194.2 196.8 198 196 192.4 188.7 182.3 170.4
-2 -2 -2 -2 -2 -2 -2 -2 -2 -2 -2 -2 -2 -2 -2 -2 -2 -2 -2 -2 -2 -2 -2 -2 -2 -2 -2 -2 -2 -2 -2 -2 -2 -2 -2 -2 -2 -2 -2 -2 -2 -2 -2 -2 -2 -2 -2 -2 -2 -2 2.2 1.8 9.6 2.7 2.7 18.6 53.3 77.4 69.2 53.8 39.8 42.4 41 44 44.9 47.2 55.5 61.8 73.2 85 94.5 103.3 110.7 116.3 121.9 127.9 130.2 132.4 135 139.4 142.3 144.9 148 151.4 154.1 155.4 155.8 154.8 148.1 138.1 138.9 146.5 151.1 155.4 158.6 161.4 163.9 166.6 169.7 172.8 175 177.6 180.2 182.7 184.8 186.6 187.9 188.9 189.2 188.7 187.6 186 184.5 182 179.7 177.9 176.7 175.8 175 174.5 173.7 172.2 170.6 167.4 163 156.4 150.1 145 138.8 136.4 136.3 134 131.4 126.5 119.9 114 108.3 103.8 100.1 97.4 97.3 98.5 100 104.4 108.4 112.8 116.9 121 125 129.2 132.7 135.8 137.8 140.2 142.6 145 146.7 147 146.5 144.8 143.1 141.9 139.2 135.2 128.6 121.4 115.2 110.1 109.8 112.5 114.7 120.7 127.5 132 135.3 138.1 141.3 145 147.4 146.5 146.2 150 156.1 161 165.6 170.8 174.6 178.3 181.6 185.2 189 192.1 194.8 196.1 195.9 193.8 190.9 186.7 180 165.8
-2 -2 -2 -2 -2 -2 -2 -2 -2 -2 -2 -2 -2 -2 -2 -2 -2 -2 -2 -2 -2 -2 -2 -2 -2 -2 -2 -2 -2 -2 -2 -2 -2 -2 -2 -2 -2 -2 -2 -2 -2 -2 -2 -2 -2 -2 -2 -2 -2 19.4 40.8 44.5 33.2 48.4 57.5 56 73.8 86.5 80.9 65.1 47.5 58.5 61.1 59.9 59.6 54.7 55.4 55.1 61.7 74.4 86.7 97.3 106 113.1 119.1 124.9 127.7 131.4 135.9 140.7 145.1 148.7 152.4 156.2 159.1 160.7 162.2 163.1 159.8 153.8 143.9 141.6 148.5 150.6 154 158.2 163.3 167 171.3 174.2 176.8 179.1 181.3 182.8 184.7 185.5 186.6 187.2 187.4 186.8 185.1 183.7 181.9 179.6 177.1 175.5 173.9 172.7 171.1 168 171 170 168.8 165.7 161.8 156.3 151 145.8 141.9 141.1 140.3 138.3 134.4 128.9 121.9 114.7 109.3 103.5 99 95.8 96.8 98 100.8 106.2 110.1 114.1 117.6 121 124.9 128 131.2 134.2 136.1 137.2 139 141.2 142.1 142 141 139.4 136.2 132.5 129.3 126.3 117.8 111.1 108.1 108.1 112 115.8 117.7 119.5 126.2 132.7 136.2 139.2 142.5 146.8 150.2 152.1 151.7 152.2 156.8 161.1 165.8 169.9 173.5 177.3 181 185.6 189.1 192.2 194.3 194.4 193.4 191.4 189 185.9 181.4 163
-2 -2 -2 -2 -2 -2 -2 -2 -2 -2 -2 -2 -2 -2 -2 -2 -2 -2 -2 -2 -2 -2 -2 -2 -2 -2 -2 -2 -2 -2 -2 -2 -2 -2 -2 -2 -2 -2 -2 -2 -2 -2 -2 -2 -2 -2 -2 -2 2.7 34.2 74.3 49.9 45.9 69.1 84.4 90.7 91.9 89 84.4 75 59.5 65.6 76.1 77.9 75.7 68.7 70.3 72.1 69.6 67.8 74.2 84.1 92.4 100.5 110 118.3 125.2 130.5 135.3 141.5 146.2 150.4 154.5 157.8 161 163.6 166.2 168.5 167.2 163.1 156.6 151.6 149.8 153 158.4 163.8 167.6 171.3 174.9 177.2 179.2 181 182.3 183.5 184.1 184.9 185.5 185.8 185.4 184.7 182.6 181.1 178.8 176.5 174.2 172.5 170.7 168.8 166.7 166.9 167.7 167 166.3 163.5 159.9 155.9 151.7 147.6 145.2 144.1 142.8 141.2 137 131.5 125 117.3 109.3 102.6 98.3 95.4 95.9 98.6 102.9 106.9 110.7 114.2 117.2 120.1 123.2 125.7 128.5 131 132.7 134.1 135.4 136.6 136.9 136.8 135.7 130.8 124.1 120.3 118.7 113.6 107 106.1 106.8 110.3 115.6 120.8 123.4 123.9 124.9 129.8 134.7 138.5 143 147.7 151.6 154.4 156.1 156.9 158.3 161.9 165.2 168.9 172.8 176.1 180.8 184.5 188.2 191.1 192.1 191.8 190.9 188.6 185.6 182.4 177.8 161.7
-2 -2 -2 -2 -2 -2 -2 -2 -2 -2 -2 -2 -2 -2 -2 -2 -2 -2 -2 -2 -2 -2 -2 -2 -2 -2 -2 -2 -2 -2 -2 -2 -2 -2 -2 -2 -2 -2 -2 -2 -2 -2 -2 -2 -2 -2 -2 -2 2.7 40.7 75.4 57.8 55.2 80.7 92.9 95.1 95.8 93.1 89.5 84.7 69.3 73.4 85.2 89.3 89.3 83.5 78.2 90.6 90.1 84 81.7 81 80.6 86.4 96.2 110.3 121.6 129.8 136.2 141.4 146.1 150.3 155.4 159.9 163.1 166.3 169.3 171.9 172.2 169.1 166.6 163.5 160.1 161.8 165.5 170.1 173.3 175.9 179.1 180.9 182.2 183.1 183.7 184 184 184.3 184.9 184.5 183.7 182.3 180.2 177.9 175.6 172.9 170.5 168.9 167.3 165.9 162.8 162.6 163.9 164 163 160.6 157.3 154.2 151.2 148.5 147.3 146.3 144.6 141.9 137.6 132.6 125.7 117.4 109.3 102.6 97.4 94.7 95.7 98.4 102.9 106.4 109.4 112.4 115.4 117.8 120.9 123.1 124.9 126.7 128 129.3 130.6 131.7 131.3 129.6 124.6 117.8 113.6 111.3 109 105 103.8 106 109.6 115.1 120.8 127.9 130.9 130.1 128.6 129.7 133.3 137.9 142.9 147.4 151.4 156.1 159.4 160.1 161.1 163 165.3 169.3 172.9 176.2 180.2 183.6 186.7 189.1 189.6 189.7 188.4 185.7 181.7 173.3 165.3 157.5
-2 -2 -2 -2 -2 -2 -2 -2 -2 -2 -2 -2 -2 -2 -2 -2 -2 -2 -2 -2 -2 -2 -2 -2 -2 -2 -2 -2 -2 -2 -2 -2 -2 -2 -2 -2 -2 -2 -2 -2 -2 -2 -2 -2 -2 -2 -2 -0.1 2.3 44.8 84.7 71.2 57.5 82.3 96.1 100 100.5 98.4 95.7 91 74.9 82.5 93.7 97.4 98.3 97.8 87.9 98.2 104.5 105.9 104.6 101.7 99.2 97.8 92.9 102.6 119 129.3 136.3 141.9 146.6 150.8 155.1 160.6 164.4 169.2 172.2 174 174.6 173.2 172.5 171.4 171.1 171.7 173.5 175.6 177.6 179.9 181.2 182.7 183.5 183.9 184.4 184.5 184.3 184.4 184.1 183.5 182.5 180.1 177.1 174.6 171.6 168.8 166.8 165.1 163.7 161.4 157.9 157.7 157.3 160 159.3 157.4 154.7 152.5 150.2 148.6 147.9 147.1 145.9 142.1 138.2 132.7 125.5 117.4 109.4 102.4 97.2 94.5 94.1 97.6 101.2 103.7 106.7 109.7 112.3 114.3 116.8 119.5 121.1 121.7 122.8 123.9 125.1 125.6 124.9 120.4 114.3 109.5 106.6 104.9 103.1 102.7 105.2 108.9 115.5 121.2 129.6 134.3 135.7 135.3 133.5 132.7 134.8 138.3 142.5 146.7 151.3 157.6 161.3 163.8 165.3 167.1 168.8 170.5 173.7 176.5 179.6 182.9 185.9 188.1 188.6 188.6 186.9 182.8 177.3 164.7 158.3 158.1
-2 -2 -2 -2 -2 -2 -2 -2 -2 -2 -2 -2 -2 -2 -2 -2 -2 -2 -2 -2 -2 -2 -2 -2 -2 -2 -2 -2 -2 -2 -2 -2 -2 -2 -2 -2 -2 -2 -2 -2 -2 -2 -2 -2 -2 -2 -2 2.6 43 95.9 96.6 85.4 63.3 82 96.5 101.8 104.5 104.9 103.5 97.1 82.8 92.4 101.4 105.2 106.2 105.8 100.7 99.7 110.4 115.3 118.3 118.6 118.4 116.1 110.8 100.4 117.2 130.2 137.1 142.2 146.9 151.3 155.3 160.2 164.8 169.3 172.2 173.8 174.8 174.7 175.5 176.1 176.3 176.9 178 179.4 180.4 181.6 182.6 183.5 184.1 184.5 184.3 184.2 184.1 183.7 183.3 182.3 180.6 178.1 174.5 171.2 167.7 165 162.8 162.9 157.9 156.9 153.8 152.3 155.2 155.6 154.7 152.9 151.3 150.6 148.6 147.9 147.1 146.2 144.9 141.7 137.7 132.2 125.3 117.5 109.6 102.5 97.3 94.3 93.8 95.1 98.7 100.9 103.8 106.7 108.8 110.8 113 115.4 117.2 117.5 117.7 117.9 118 117.9 116.1 111.7 105.7 102 100.8 101.3 101.9 104.6 109.6 116.4 123.4 131.5 136.6 139.3 140.1 139.5 137.9 136.4 137.4 140.8 144.8 148.4 153.3 159 163.5 166.9 169.1 170.9 172.3 173.6 175.6 177.9 180.6 183.4 186.1 187.9 188.4 188.1 186.4 181.9 172.1 157.8 156.9 162.3
-2 -2 -2 -2 -2 -2 -2 -2 -2 -2 -2 -2 -2 -2 -2 -2 -2 -2 -2 -2 -2 -2 -2 -2 -2 -2 -2 -2 -2 -2 -2 -2 -2 -2 -2 -2 -2 -2 -2 -2 -2 -2 -2 -2 0.5 1.2 2.6 44.7 69.8 102.7 101.5 94 73.9 87.7 100.1 105.2 109.3 110.6 110.3 105.4 94.6 98.2 106.8 111.8 114 114.6 112 97.5 114.1 121.4 125.2 126.9 128.1 127.3 122 111.8 113.1 126.6 135.4 142 147 151.6 155.6 159.4 163.4 167.5 170.5 172.3 174.2 175.8 176.8 177.6 178.4 178.8 180 181 182 183 183.5 184 184.3 184.3 184 183.7 183.6 183.1 182.5 181.2 179.3 176.3 172.6 167.3 163.3 160.8 161.5 155.8 152.5 151.3 149.5 147.1 150.4 150.4 149.9 148.6 148.1 147.7 146.6 145.8 145.1 144.3 143.1 140.8 136.6 131.2 124.7 117.5 109.2 102.8 97.5 94 93.3 93.9 95.9 98.2 100.8 103.2 105.4 107.4 109 110.2 111.9 112.1 111.9 111.6 110.1 107.8 106.3 101.9 99.6 99.7 100.2 101.8 105.9 111.8 118.8 126.4 132.8 136.9 139.9 142.5 143.4 143.7 142.1 140.8 142.5 146.2 149.1 153.3 156.5 161.3 165.9 169.4 172 174.4 175.7 177.1 178.9 180.4 182.9 185.5 188 189.3 189.5 189.5 187.8 183.1 168.8 156.5 160.5 170
