ncols 200
nrows 86
xllcorner 170000
yllcorner 771250
cellsize 50
329.4 331.1 342.4 355.3 346 349.8 358.4 367.1 360.4 351.7 350.5 355.5 356.7 363.7 385.2 395.6 410.4 414.2 426.4 414.6 392.8 396 390.9 391.6 391.6 393.4 397.1 393.6 408 427.2 444 443.4 444.5 431.4 417.5 417.6 409 388.2 375.1 376.2 361.2 353.1 354.6 353.4 349.8 355.8 353.5 341.9 332.7 327.7 344.1 360.6 368.1 374.7 367.7 379.9 383.1 390.2 392.4 378.3 380.5 396.2 414.5 434.8 459.5 485.1 489 514.7 542.4 565.2 583 596.2 605.1 609 609.1 614.6 616.5 602.6 595.8 576.2 574.4 576.7 588.7 600.9 617.4 623.6 631 625.3 588.4 557.5 521.4 497.7 478.5 457.5 427.5 393 367.2 347.5 330.6 314.9 289.3 265.7 246.2 234.6 218.8 201.3 181.7 166.8 149.8 133.7 115.4 98.9 82.3 71.6 60.8 55.4 50.6 48.9 48.6 48.3 46.4 46.1 43.8 43.1 41.8 39.6 39.2 42.2 50.2 54.7 59.9 56 67.9 76.7 86.4 93.9 100.9 105 108 115.3 123.9 129.1 134.6 143.7 152.7 163.3 173.1 184.2 190.1 197.7 207.9 230.7 230.1 239.6 249 262.5 275.4 282.4 284.7 293.4 297.4 305.4 306.3 313 329.1 339.6 351.2 355 358 359.7 364.5 383.2 381.8 382.1 390.4 403.4 422.3 443.1 459.4 476.5 482.4 490.4 488.9 498.7 508.8 522.2 527.6 532.2 540 541.7 559.6 556.9 558.1 555.1 551.9 554.1 549.7 535.6 524.8 521.1
323 325.6 335.7 351.5 347.5 349.5 359.8 358.9 359.4 353.2 344.4 348.1 349 364.8 381.5 401.2 406.3 413 427.6 417.7 404.6 400.9 397.1 402.1 405.2 406.4 415.4 411.7 425.2 436.4 456.7 455.3 448.1 432.4 428.4 419.1 409.3 394.5 392.1 397 381.8 361.2 358.2 356.5 356.1 366.2 359.9 347.6 333.3 339.6 346.7 364.3 376.5 384.6 379 387.9 388.3 396.9 405.9 402.7 407.5 421.7 419.3 423.9 445.5 474.1 484.3 517.1 537.9 558.5 580.3 593.6 600.7 604.3 607.6 617.8 621.3 617.7 611.3 589.4 576.9 574.4 574.6 589 596.1 611.1 609.3 569.8 543.3 529 496.2 471.1 453 433.4 405.2 377.7 355.8 335 314.1 295.7 279.1 260.7 245.1 226.5 208.4 192.7 174.1 161 143.5 122.6 107.3 90.3 73.2 64.4 55.5 49.7 47.4 45.4 44.8 44.3 43.9 43 42.4 41.8 40.6 41.2 41.8 44.9 50 54.5 65.5 81.3 94.6 101.3 110.1 122.1 129.5 136.4 138.6 151.5 159.4 161.7 168.4 185 196.3 204 214.6 219.2 216.6 226.6 240.2 251.4 271.2 279.9 288.6 297.9 304.4 310.5 319.7 324.4 327.6 333.1 343.5 354.1 367.2 374.2 386.5 388.2 400.6 412.5 428.5 434.6 422 413.1 427.6 439.2 455.2 474.4 491.9 516 523.8 532 534.9 538.6 542.3 555.1 559.1 563.3 568.2 568.3 564.1 563.7 558.7 555.6 553.4 556.6 550 536.5 526 524.3
315.7 316.3 326.5 340.9 345.7 348.7 352.6 355.8 357.7 350.2 337.3 340 351.5 365.9 378.8 403.8 410 410 416 420.5 407.4 418.8 418.8 424.8 425 420.5 424.6 443.8 438.6 445.7 455.5 457.3 449.4 441.1 436.2 426 417.9 406.1 410.5 407.3 396 381.9 384.8 372.2 359.4 361.5 355.6 345.2 337.8 346.6 355.9 369.5 384.9 395.1 390.8 400.1 393.8 402.1 411.4 412.4 421.1 444.3 441.1 430.3 434.7 457.7 477.1 505.3 528.1 545.6 564.6 578.9 584.7 597.8 604.4 620.5 623.9 618.6 614.6 605.2 591.4 582 574.4 576.6 572.4 576.5 568.3 540.4 507 483 457.7 438.2 422.7 408.7 383.8 366.4 341.1 321 302.5 287.6 276 260.9 242.5 223.2 204.8 187.5 166.6 151.3 136.2 115.1 99.1 82.2 66.7 59 51.4 44.7 42.6 43.3 43 41.9 41.8 41.8 41.6 41 41.1 41.7 50.3 60.4 65.2 75.3 91.2 105.5 115.5 130 140.6 150.9 159.2 165.2 171.2 183.7 187.3 195.5 206.8 228.1 237.4 243.8 250.8 262.4 254.6 264.3 277.2 291.5 304.4 310 334.2 340 340.4 341.5 345.9 352 360 375.5 386.3 394 405.5 414.8 423.5 430.7 441.9 465.5 481 478.9 457.6 453.4 462.5 471.3 485.1 501.4 521.9 537.5 552.3 560.4 562 576.1 581.9 580.8 590.3 590.5 582.8 582.6 578.5 568.1 565.7 562.7 558 555.2 550 542.2 528.7 526.8
310.3 314 321.7 334.2 341.2 345.7 342.3 348.6 353.4 351.8 337.2 332.5 354.7 362.8 369.8 394.8 406 409.6 412.9 415.3 421 432.9 431.2 437.3 433.6 428.4 429.6 453.2 463.7 452.7 453.9 454.9 446.2 442 437.1 424.3 416.8 412.6 417.3 415.7 402.8 399.9 392.6 396 388.4 361.7 351.8 344.2 341.1 348.5 361.1 379.3 396 395 395.1 401.2 398 404.2 414.3 416.6 432.7 454.2 463.5 452.9 435.2 447.5 467.6 489.5 512.9 528.4 543.3 558.2 567.2 580.6 595.2 611 613.9 608.5 605 603 598 593.5 582.8 577.6 560.6 530.6 527.8 513.4 483.3 457.3 437.8 415.3 396.6 379 361.1 341.4 323.7 307.6 291.8 277.3 267.2 251.3 235.3 218.1 199.2 181.7 164 145.7 127.1 108.5 94 77.3 65.2 54 44.8 41.2 41.8 42 41.4 41 41.1 41.1 40.9 40.4 41.2 44.5 59 72.5 91.7 105.2 116.9 130.2 144.8 156.4 171.6 185.1 193.3 194.5 201.8 207.3 218.8 230.8 253.4 267 277.4 290.2 296 296.6 290.1 297.3 325.8 338.5 344 350.4 368.2 376 370.6 370.5 378.8 391.1 405.4 415.9 425.7 440.6 445.7 451.4 466.4 475.8 485.6 498.2 507 514.1 489.8 485 497.1 514 510.2 524.7 542.2 562.9 576.9 579.6 591.5 601.4 596.5 599.1 606.4 602.8 599.3 591.2 587 575.8 569.7 565.8 559.8 556.9 552.9 547 538.5 527.4
300.7 306.2 317 329.1 334.4 342.1 330.6 336.1 342.3 341.9 335.5 327.5 345.9 356.9 368.8 397.7 401.8 403 412.2 424.1 436.3 446.9 444 446.3 442.4 434.7 434.5 447.7 465.8 464.4 450.8 448.3 444.1 443.1 438.5 421.5 416.2 414.2 417.6 413.5 415 422.8 424.8 412.4 394.2 377.8 352.3 346.9 343.3 349.1 363.3 377.5 392.9 389.4 394.5 398.1 401.4 406 417.8 428.1 442.2 463.1 470.4 467.3 453.9 445.3 456.4 469.5 491.7 512 528.6 532.8 550.8 564.3 586.7 600.7 609.1 607.3 598.6 591.6 593.4 590.3 580.9 577.6 572.3 542.7 512.9 489.1 481.6 450.3 422.9 403.4 381 360.8 344.8 328 312.6 298.3 283.3 269.7 255.7 239.3 226.3 206.5 188.7 173.5 156.6 140.3 120.1 102.6 87.8 75.1 64 53.3 42.9 41 40.8 41 40.9 41 40.7 40.5 41 41.3 44.8 61.6 79.5 90.3 110.4 128.3 144.7 160.1 175.2 190.5 209 222.7 221.1 227.6 226.6 234.8 260.3 273.8 290.6 307.6 324.9 334.7 335.7 329.9 339.4 348 377.9 387.7 388.8 391.5 403.4 403.7 398.8 400.9 414.8 433.6 446.5 468.3 485.7 499.6 508 519.4 526.7 522.7 521.6 537.4 546.8 540.8 533.5 517.5 526.9 540.1 553.6 565.4 574.1 579.3 587.6 588.8 597.2 602.5 600.4 601.1 603.8 607.1 602.2 591.9 586.3 577.7 569.6 566.9 559.9 558.1 554.2 549.4 540.5 527.7
294.8 301.9 314.7 323.2 332.4 332.8 320.5 324.1 331.2 332.6 326.2 325.5 338.9 351.6 368.7 404.9 401.9 400.2 409.7 423.5 436 447.4 449.6 449.1 441.6 439.4 438.7 451.9 459.6 469.2 461.5 445.5 445 444.3 433.9 420.6 411.5 406.3 409.2 407.4 417.9 425.8 431.4 412.7 404.6 384 366.4 353.3 348.5 351.2 354.2 361.8 364.6 374.5 385.6 389.5 399.1 408.3 416.2 434.2 446.6 462.8 465.5 468.6 458.1 447.8 446.7 460.3 482.5 498.3 513.5 528.5 546 564.4 583.7 603.9 607.3 598.1 598.8 586.6 584 580 584.8 590.7 594.5 570.5 520.6 488.4 461.3 437.5 418.4 392.4 370.2 349.7 335.9 324.5 312.7 292.1 278.9 264.6 245.9 232.5 216.2 199.3 179.9 167 147.3 132.9 113.5 94.8 80.3 70.6 61.5 52.4 42.4 40.5 40 40.2 40.6 41 40.8 38.3 41 42.6 57 81.3 93.9 106.9 128.5 157.4 173.4 193.4 205 222.3 241.9 249.3 246.3 249.9 258.6 286.7 307.5 319.2 337.2 353.8 362.7 370.5 364.6 370.9 385.8 406.3 414.1 422.3 431.5 423.3 428.5 422.4 434.6 447.5 450.9 465.9 498.1 533.3 553.2 560.6 571.5 574.1 575.9 576.1 563.8 579.1 597.8 595.8 581.3 564.8 562.1 576.1 577.4 587.7 592.8 589.4 595.6 599 593.3 593.2 598.3 599.3 606.1 608.7 599.9 589.4 583.3 579.2 569.7 572.1 561.2 561.4 556.5 551.6 540.3 528.1
293.1 297.8 307.7 309.3 316.1 322.5 317.5 316.6 319.1 320.6 319.5 327.2 335.1 346.9 361.8 400.8 403 400.3 409 417.8 429.8 440 442.5 441.1 441.1 439.8 446.9 441.1 442.5 457.3 461.5 442.4 438.2 434 424.3 414.1 406.3 406.3 406.3 406.3 420.3 426.4 428.4 420.6 407.8 393.7 370.6 361.9 356.2 360.7 358.8 354.5 354.5 359.5 372.1 373.1 386.7 394 402.8 423.3 442.7 450.3 451.5 458 465.6 459.8 452.8 453.1 475.3 489.1 498.9 518.4 546.1 558.4 578.7 590.9 590 584.2 582.2 580.7 577.4 582.6 584.9 589.5 582.9 577.4 533 491.4 463.3 432.5 413.7 391.1 368 349.1 336.4 327.8 308.1 290.3 275 258.1 240.6 224.8 207.6 193.8 174.4 159.7 142.7 127.2 108.4 92.8 82 72 59.6 49.7 43.2 40.4 39.4 38.3 40 40.6 40.5 40.9 42.1 58.4 71.4 91.7 98.9 119.6 153.8 185.2 207.1 221.4 235.9 255.2 265.9 271.8 275.5 290.1 317.7 331.2 355 367 383.8 395.5 404.8 399.7 400.8 416.1 437.9 457.3 473.9 470.4 469 456.5 455.5 464.2 474.2 485.2 500.8 520 560.7 578.5 604.3 614 613.9 617.8 615.9 611.3 608.8 609.8 613.6 607.9 609.7 601.5 592.1 594.7 597.4 599.7 602.7 595.4 599.2 592.9 588.1 591.3 604.5 603.4 602.3 604.6 596.2 587.7 586.1 576.1 569.2 566.3 558.5 561.8 559.6 550.9 543.1 528.8
293.7 296.9 308.7 312 310.4 310.4 306.6 310 309.9 306.7 314.3 323 332.5 338.3 359.2 388.2 394.3 400.2 405.9 412.4 424.6 429.1 431.6 433.9 437.8 436.3 449.8 441.6 431.4 443 446.3 444 431.7 426.1 410.4 406.3 406.3 406.3 407.2 406.3 415.8 419.4 424.9 413.2 404.3 387.8 377.3 369.6 361.4 356.8 354.3 354.5 354.5 354.5 356.1 359.2 366.2 379.5 393.5 410.7 429.6 440.2 440.7 448.9 457.9 461 463.4 454 467.9 485.5 510.5 513.9 525 540.1 555.5 564.1 573.4 574.6 573.4 574.7 573.7 580.9 570.7 570.9 562.1 548.8 540.3 493.9 459.6 439.5 411.1 386.5 371.1 354.4 338.7 321.6 301.8 284.4 268.1 251.7 236.2 219.3 202.4 184.8 168.5 154.5 137.9 122.1 106.6 94.1 80.2 69.6 57.9 49.6 42 40.2 39.6 40 40.1 40.2 40.5 41.3 50.3 63.5 82.6 92.2 107.8 134 181.1 214.1 225.9 246.9 263.9 276.2 284.7 293.6 306.1 329.7 357.5 371.6 393.9 407.8 421.6 425.1 433.9 439.3 450.7 476 498 498.9 501.2 497.8 500 496.1 499.8 511.3 518.9 534.9 546.9 573.9 587 613.2 628.9 628 627.3 629.5 633 635.7 630.6 626.9 625.9 617 613.7 606.4 607.8 608.2 605.4 604.9 605.9 599.7 591.9 584.2 585.8 591.7 607.4 607.1 605.2 596.6 593 585.8 581.5 570.5 563.1 563 556.9 556.4 558.7 550.2 543.6 529.7
292 298.6 303.1 307 308.7 305.7 296.7 300.4 302.2 297.7 300.3 304.5 308.4 320.3 344.2 360.4 382.3 397.7 408.5 412.1 423.4 432.4 430.8 427.9 427.8 430 446 448.8 438.2 429.6 430.9 431.6 422.3 415.9 406.5 406.3 407.5 406.3 412.4 412.9 413.4 405.9 401.7 398.4 393.3 388.5 377.4 368.1 359.6 356.3 354.5 354.5 354.5 354.5 354.5 354.5 361.3 370.8 384.3 404.7 424.9 428.6 426.4 432.1 451.8 463.1 478.7 465.3 465.5 487.3 503.4 520.1 526.6 529.3 545.4 561.5 564.4 570.2 565.2 565.6 570.6 567.8 557.3 553.3 549.4 543.3 529.7 510.6 471.2 441.2 422.2 391.7 373.9 354.5 338.5 321.7 302 278.3 262.6 248.2 236.6 219.6 200.7 186 168.4 148.5 128.8 117 103.1 91.8 77.7 67.4 57.5 46.6 41.1 38.5 40.4 40.4 40.3 40.5 40.8 44.6 57.5 71.7 83.5 97.5 120.8 151 204.7 228.3 238.2 265.8 294.6 296 310.1 323 341 368.3 387.2 405.9 427.4 451.1 442.9 439.7 464.4 473 486.6 509.6 512.5 510.8 515.5 536.4 547 548.9 563.5 584.2 599.3 597.6 613.8 615.1 619.8 625.8 631.5 641.5 644.7 641.2 644.8 649.4 646.8 640.1 627.2 619.5 613.5 607 606.7 610.2 609.3 605.1 599 595.9 583.7 581.3 585.4 588.5 602.1 607.3 602.6 597.4 592.8 583.4 577.4 566.8 560 562.2 553.8 550.8 557.1 549.7 542.8 529.4
292.7 295.7 301.7 302.7 303.5 297.8 293.2 293.8 294.1 293.6 295.1 298.6 300.2 315.7 333.9 352.7 376.6 389.3 406.4 403.7 416.7 429.1 419.6 414.6 418.5 421.8 439.5 444.9 445.2 424.9 424.7 428.9 416.8 408.2 406.3 406.3 407.4 406.6 409.3 411.1 407.4 399.7 397.8 392.1 390.1 384.9 381.3 371.9 361.1 358.4 356.6 354.5 354.5 354.5 356 359.2 371 376.1 396.3 410.3 424.4 430.3 426.1 427.5 449 465.1 482.7 475.5 461.6 473 491.9 503 509.5 523.5 536.7 552.3 549.6 552.3 549 559.2 564.7 556.9 548.9 549.3 547.4 537.2 523.3 509.9 489.7 471.6 440.6 407.5 385 360.7 344.1 317.3 298.7 278.4 258.9 245.5 230.6 215.4 199.2 182.1 168.1 151.1 132 115.4 102.8 89.2 74.5 63.6 54.2 43.9 42 40.4 40.6 40.6 40.7 41 43.7 51 63.8 78.8 97.1 107.2 135.8 168.9 205.2 226.8 252.9 298.6 314.1 322.8 337.3 350.5 368.4 398 424.2 446.6 462.6 460.4 444.6 450.9 464.2 483.8 504.4 517.8 516.7 519.9 546.5 568.8 589.6 594.4 607.8 618.6 630.2 628 621.7 628.3 626.7 629.2 634.9 636.9 643.1 648 642.5 645.2 642.2 636.7 624.9 616.9 612.6 613.1 606 605.8 605.9 599.9 596.9 588.3 582.9 578.7 581.1 591.7 591.9 596.3 596.9 597.2 591.8 583.1 575.7 561.9 556.4 557.6 550 544.1 555.3 550.7 541.9 532.3
292.9 295.7 302.3 301.5 296.9 288.2 286.6 290.8 292.2 293.1 296.3 305 299 311.1 327 348.2 364.7 381.8 397.4 393.7 403.5 418.8 412.5 403.6 403.7 410.4 429.4 438.8 440.4 429.9 420.9 423.7 410 406.5 406.3 406.3 406.3 406.9 405.2 401.9 401.9 402 396.1 392.1 392.5 393.9 383.5 373.6 368.9 365.5 360.7 359.5 355.5 354.5 354.5 360 376.7 395.5 406.6 424 429.8 427.8 420.9 423 442.5 460.3 481.6 481.7 463.2 463 475.4 496.5 503.4 517.8 525 537.9 531.7 535.5 531.5 551.5 555.6 546.8 538.6 536.3 530.6 517.6 508.4 507.1 514.6 506 494.4 447.5 413 377.9 345.5 319.5 296.9 276.1 260.1 248.5 231.9 213 196.6 178.9 163.9 146.6 127.6 113.8 99.3 84.1 72 60.2 50.8 43.4 41.6 40.6 40.4 40.8 41.1 42 46.8 58.9 71.9 89.7 105.8 120.8 156.5 173.9 207.1 235.8 274.3 322.1 343.5 341.2 363 370.8 390 427.1 456.1 478.8 471.1 455.2 439.6 457.2 471.6 491.6 503 512.1 508.4 544.7 564.7 589.6 602.9 611.8 613 623.7 636.5 632.3 626.1 625.1 629.3 639.5 643.1 640 639.7 639.7 638.3 641.5 636.3 629 618 617.9 613.9 606.7 603.8 601.5 596.4 589.1 585.2 588.5 577.7 579.6 577.6 587.5 592.3 588.2 589.6 588.7 584.9 580.5 575 561.5 551.7 550.8 544.8 538.5 551 549.3 539.7 526.9
293 296.1 299.4 296.8 293.5 285.5 285.4 293.7 292 293.8 295.2 300 296.4 303.7 318.6 335.4 354.2 365.7 379.3 381.3 390.9 405 400.7 395.1 385.2 392.4 408.5 426.1 430.3 425.7 423.9 409.9 406.3 406.3 406.3 406.3 409.8 408.9 405.8 401.9 401.3 405.3 401.2 401.1 398.1 395.6 390.1 377.9 376 372.1 365.1 363.9 365.7 354.5 354.8 360.6 384.8 402.7 421.9 427.3 431.8 425.6 416.1 419.7 435.2 449.1 470.7 484.2 468.2 465.3 481.5 483.1 502.6 509.1 512.9 521.2 516 520.5 532.6 543 536.8 526.1 519.7 526.9 515.4 507.5 506.6 518.8 521.1 515.5 500.2 471.2 444.9 405.9 371.4 340.5 312.6 288.8 264.8 248.6 229.8 211.3 200.1 179.9 157.8 140.6 124 107.8 91.7 77.6 65 55.7 45.7 41.6 40.9 39.8 40.4 42 43.3 47.6 56.1 72.7 84.8 98.1 118 139.3 166.6 187.8 224.8 249.2 294.3 348.6 356.1 360.3 375.9 386.2 415.7 445.4 481 476.4 464.8 443.9 441.4 465.8 475.2 484.9 500.5 501.4 526.7 555.2 579.3 602.3 611.2 617.4 617.7 627.3 638.8 641 625.6 637.2 636.5 644.5 651.1 650.2 643.2 642.8 638.2 637.7 634.4 623.8 614 613 612.3 604.8 600.7 595.9 585.5 578.6 574.3 582 568.4 571.9 575.2 584.8 588.8 579.4 583.6 582.8 582.3 575.7 572.8 561.5 554.8 552.2 542.9 538.5 543.7 545.8 532.8 518.3
293.9 301.1 300.8 293.8 294 289 284.5 298.3 291.2 293.6 300.4 289.2 284.6 292.8 312.7 323.9 339.7 354.5 368.5 372.8 380.3 393.2 391.4 378.7 372.5 378.9 387.9 408.6 421.7 425.1 425.2 407.2 406.3 406.3 406.3 408.6 417.1 419.4 417.7 406.1 401.3 401.3 403.2 404 402.3 395.8 388.9 381.8 374.9 372.4 371.3 365.2 363.5 364.2 356.1 370.6 386.9 407.6 429.2 436.3 429.1 421.6 415.5 420.2 430.3 439 466.6 479 477 475.5 478 481.7 492.9 500.5 502.1 509.5 515.8 509.1 532.3 531.7 518.2 507.6 502.6 511.2 514.1 509.9 516.2 526.6 521.2 508 492.4 463 440.5 404.8 371.9 348.1 320.5 297.6 275.1 255 229.6 213.5 197.7 177.8 156.4 141.4 122.7 102.9 87.1 72.6 58.3 51.3 43.8 40.8 40.4 40.6 40.8 43.2 49.4 55.1 74.1 87.4 96.6 110.4 139.7 157.3 181.5 214.6 237 269.6 310.5 363.7 358.1 365.7 389 411.6 452 480.8 477.4 464.4 448.2 448.2 452.9 460 469.8 484.4 482.9 498.1 539.6 564.3 585.7 605.3 615.6 619.8 624.1 633.3 633.7 635.5 638 641.8 646.4 651.7 659.5 653.1 646.4 638.3 635.8 637.6 632.2 624 611.4 609.2 604.9 600.6 590.1 588.2 575.5 566.4 566.7 565 557.3 559.2 572.6 579.2 581.5 571.9 573.5 572.8 573.5 572.1 569.5 558 559 554.1 548.5 539.5 535.9 532.9 530.4 517
294.4 301.7 296.6 292.1 288.2 282.8 284.8 291.4 284 291.6 299.9 287.2 281.3 276.8 292.2 312.3 329.8 342.3 358.8 370.7 376.2 384.1 382.3 366.6 363.1 367.5 380.6 403.8 416.2 426.5 425.6 411.1 406.3 406.3 406.3 420.5 417.7 423.1 420.6 418.9 412.4 405.6 403.3 405.4 404.8 397 393.2 378.8 380 376.3 369.1 366.5 368.1 362.3 359.9 377.9 389.1 408.3 429 434 431.5 412.9 414.3 420.8 426.5 437.6 458 470.5 475.4 471.2 469.2 481.9 499.1 495.3 493.8 492.6 504 495.4 513.8 510.2 497.8 495.7 496.6 500.1 511 513 515.9 532 514.6 495.5 480.5 449.1 416.9 382 361 341 320.1 302.1 273.7 249.3 234.6 217.8 193.7 171.6 151.9 133.5 116.5 98.2 84.2 70.4 57.1 45.2 41.3 40.3 40.5 40.4 41.3 49.8 57.1 66 86.1 97.8 111.7 124 150.6 169.4 200.4 230.3 261.9 290 339.6 360.8 367.1 381.3 402.6 435.6 473.5 481.3 468.7 456.6 448.7 452 455.2 463.7 467.7 469.6 477.7 515.5 546.1 566.1 591.9 606.7 617.2 621.2 630.1 640.5 647.9 644 641.6 643.5 651.2 654.7 662.2 642.7 634.4 633.3 635.4 637.9 629.1 617.3 607.3 603.8 594.3 594.8 583.8 568.3 562.7 562.3 553.8 553.6 553.6 548.8 563.4 572.2 563.2 563.6 567.8 569.4 565.5 566.9 550.9 547.8 548.3 548.6 548.7 541.8 536.7 539.2 527 516.1
285.7 299.7 293.7 287.3 289.1 278.1 277.1 278.2 274.8 286 294.9 284.2 272.2 272.2 279.6 304.9 323.8 336.8 347.5 353.4 369.3 376.6 369.4 353.8 353.8 361.5 371.5 391.5 410.6 419.8 428.8 413.7 406.4 406.3 406.3 419.5 425.2 419.5 419.6 415.5 413.7 416.3 405.9 401.7 399.7 398.3 391.9 386.3 391.7 383.6 380 375 377.3 365.3 366.6 383.4 388.9 409.3 425 430.9 425.8 408.7 413.5 418 423.3 428.9 448.5 461.4 475.2 465.7 467.3 475.8 492.7 497.5 490.8 484.5 491.9 487 492.4 487.4 485.1 486.2 489.7 485.3 515.2 513.2 512.9 516.1 496.3 474.5 456.7 427.6 398.4 368.9 353.8 337.1 313.6 294.6 273.4 250.7 227.3 208.7 190.1 169.4 147.7 128.9 113 91.7 76 63.2 52.1 43.2 40.8 38.1 40.8 40.6 44.1 53.8 66.3 87.5 92.9 106 121.7 144.7 166.1 190.4 222.3 247.2 280.9 316.5 347.8 365.4 377.5 406.3 423 441.4 474.4 475.1 457.8 453.1 465.3 455 453.9 461 467.1 470 489.7 522.5 550.5 568.5 589.7 607.4 613 619.7 629.2 652.5 653.1 640.3 638.2 640.1 649 647.7 640.3 630.9 629.8 632.6 628.6 635.5 625.4 608.3 603.3 601.2 589.9 583.6 573.3 557.6 545 544.9 550.3 544 542.5 538.9 558.1 548.5 545.8 556.2 558.6 557.5 559.1 552.8 538.9 543.2 546.4 543 544.3 536.6 531.3 542 528.2 520.9
282 292.3 290 282.4 277.7 276.5 274.3 275.8 272.2 276.7 282.9 275.2 272.2 273.6 276.1 293.1 317.2 328.9 343.9 346.5 366.5 371.8 357.9 353.8 354.4 360 371 387.3 406.6 422.5 430.9 413.6 406.4 406.3 407 412.9 419.5 426.1 422.1 419.3 415.1 416.1 416.9 409.4 399.1 397.4 395.1 390.9 388.2 390.2 389.1 386.3 374 365.4 378.6 378.7 386.9 403.7 420 422.6 418.1 403.3 412.4 414.1 418.2 423.1 445.9 456.9 467.9 464 467.7 478.7 481.5 497.3 487.3 476.8 479 476.8 474.7 474.8 471.2 470.5 472.3 497.6 505.5 507.4 499.6 492.3 472.5 453.7 437.4 408.2 377.9 355.4 349.2 330 317.3 297.6 267.8 245.7 222.4 200.7 182 160.7 144.2 125.5 102.3 84.6 69.2 55.5 47.7 41.5 40.5 40.5 40.5 42.2 50.7 63 82.2 94.5 106.7 117.7 144.6 162.7 188 212.6 248.9 278 314.8 350 358.8 380.8 393 423.5 443 461.4 468.2 464.1 453.9 464.8 464 460.5 458.7 472.8 470.8 474.7 500.9 531.7 552.3 571.7 588.8 603.4 606.7 616.4 625 645.1 651.9 640.2 631.5 632.2 640.1 636.5 635 628.5 624.7 630.2 624.1 624.8 611.9 601.6 597 594.7 588.1 579.6 561.3 545.2 540.3 547.3 539.4 535 532.7 532.5 535.2 540.5 540.5 543.6 542.9 544.9 550 539.5 526.8 534 536.4 537.4 539 530.6 526.8 528.1 525.7 521.7
274.5 288.1 280.7 279.1 273 276.1 275.1 272.2 272.2 272.2 276.5 272.2 272.2 272.2 278.8 283.1 308 329.2 333.5 347.2 363 359.3 353.8 353.8 355.4 358.6 377.6 387.3 405.5 424.4 434 416.6 421.7 424 415.6 402.9 404.5 422.6 416.4 416.9 415.4 418.8 421.4 402.9 400.7 399 397.5 391.4 384.6 384.7 393.4 388 369.7 366.5 380.3 385.3 382.9 400.4 412.6 408.7 401.3 399.5 405.5 411.1 411.9 413.4 433.4 445.5 460.3 461 466.4 473.3 475.8 477.6 475.2 473.3 478.8 468.8 464.6 462.6 459.9 456.6 467.7 504.1 503.8 505.6 493.7 471.9 449.1 431.7 418.6 398.9 370.7 355.2 340.4 325.5 310.5 286.7 263.5 239.5 214.9 195.8 181.8 161.2 140.7 119.3 96.9 79.4 66.1 54.6 43.3 41.1 40.7 38.7 40.4 48.1 59.2 71.9 91.8 103.4 118.9 130.2 153.9 172.1 199.9 234.4 265.2 304.8 335.4 359.4 374.9 402.2 420.7 443.4 454.5 467.5 465.9 459.8 455.2 462.1 461.2 459.5 468.9 476 476.4 501.6 519.8 530.9 552.9 568.8 587.6 595 588.8 601.9 625.9 628.3 635.4 635.6 629.6 628.4 627.3 631.9 627.1 625.4 623 614.9 616.9 607.8 602.2 601.8 595.2 584.9 580 569.3 550.8 544.3 539 538 529.4 523.6 524 527.8 525.8 527 526.2 528.5 535.9 540.7 536.2 523.3 522.1 527.2 529.8 531 535.7 525.6 523.9 519.5 518.2 514.7
264.7 271.3 274.8 274.9 270.8 276.6 272.2 272.2 272.2 272.2 272.2 272.2 272.2 275.5 289.1 285.4 298.9 321.2 326.8 341.3 354.2 355.7 358.5 353.8 360.1 358.5 372.9 394.3 407.3 420.7 426.6 417.9 423.3 438.2 431.9 422.7 408.5 405.7 410.8 412.7 416.5 416.1 409.5 403.4 406 402.8 403.6 405 388.8 380.8 386.2 377.7 369 374.2 383.6 389.9 383.8 396.8 404.9 396.5 391.8 393 400 407.1 407.9 404.8 420.7 437.1 452.6 453.5 462.3 471.8 469.3 463 457.6 456.8 472.2 465.9 465.4 464.7 457 454.8 469.4 495.7 500.1 496.9 479 449.6 423.4 413.4 402.1 382.1 367.2 348.7 330.6 320.9 301.6 282.2 255.6 232.7 212.2 199 177.4 156.9 135.5 112 91.6 74.9 61.7 50.6 41.2 40.6 38.2 39.8 41.4 50.9 65.8 89.6 103.5 115.4 130.9 154.7 171.3 184.1 212.4 242.1 276.9 316 352.2 373.4 397.5 418.6 449.7 463.9 468.3 470.1 465.9 457.6 460.9 461.7 461.1 465 478.8 478.9 483 508.8 523 528.9 553.1 568.7 582.4 591 588.7 587.7 601 614.8 620.1 628.8 621.8 623.7 624.8 624 618.8 619.5 614 612.5 604.4 601.1 598.7 600 590.3 578.3 572.4 559.2 554 544.3 535.4 528.9 522.7 518.3 513.2 513.4 517.8 516 522.2 521.4 521 520.2 514.1 513.9 516.7 521.2 524 525.4 523.4 518.1 519.3 516.3 511.2 511.1
264.7 275.9 269.1 267.9 272.8 271.8 273.5 272.2 272.2 272.2 272.2 272.2 272.2 283 294.8 299.7 302.2 317.3 326 341.2 354.9 357.2 357.4 355.9 361.2 361.4 373.1 392 399.1 416.2 422.9 412 424.9 442.8 444.4 440.4 426.5 412.6 402.9 405 415.2 410.2 410.7 412.8 406.8 409.9 415.3 401.8 397.8 389.1 377.1 372.4 369.6 374.8 385.6 394.7 382.9 395.7 394.9 385.6 383.2 386.8 396.7 400.1 400.2 401.9 406.9 432.5 444.5 446.1 460.7 464.9 461.3 452.1 447.5 443.7 455.7 476.2 472.7 467.8 455 456.6 478.7 492.1 480.1 474.5 451.2 426.5 409.2 394.2 384.6 373.7 359.3 346.1 330.4 317.6 297.2 271.2 250.3 229.1 215.3 193.6 173 150.6 129.9 109.6 87 70.7 57.2 48.3 41.5 39.1 38.4 40.3 42.4 58.7 74.8 99.7 111.4 129.9 147.4 165.2 182.4 201.7 225.2 252.5 286 326.7 363.3 387.8 416.8 439.1 458.4 468.5 477.1 474.5 463.8 455.1 462.6 464.7 464.5 466 478.2 477.4 500.1 510.1 516.4 528.4 553.2 566.3 574.7 583 581.6 584.2 587 601.4 608.9 615.7 624.1 622.1 613.6 618 610.5 608.3 604.6 596.5 593.9 595.5 594.4 592.5 577.6 571 561.5 556.1 555.6 552 535.4 525.6 518.6 513.8 509.1 509.6 514.9 512.3 513.5 515 510.9 507.4 501.7 496.7 510.3 510.2 516.8 518.6 513.6 509.7 509.7 518.1 518.8 512.3
264.7 267.2 267.4 267.4 276.9 285.1 283.7 272.2 272.2 272.2 272.2 272.2 274.5 282.8 301.2 312.3 310.1 321.4 336.7 343.3 354.8 360.1 360.9 356.9 363.9 365.6 373.8 396.7 400 405 417.3 405.2 422.3 442.7 449.1 447.4 435.5 417.3 409.1 404.4 405.9 406.2 405.5 415.5 414.4 421.4 419.8 407.2 396.6 399.1 384.9 373.9 373.3 376.9 389.3 398.7 383.5 393.2 389.2 381.8 380.1 385.3 392.5 394.8 394.1 397.5 404.1 424.2 435.8 438.3 451.4 455.4 450 439.5 438.7 444.9 467.5 476.9 470.1 459.8 453.6 463.7 488.6 494.2 470.9 458.3 436.1 415.9 398 383.4 374.6 361.6 348.3 333.8 323.3 303.8 281.3 263.5 248.3 229.6 210 187.1 165.9 148.4 132.4 104.1 82.1 71 59.8 44.9 40.8 38.2 39 40.3 51.1 61.9 86.1 101.1 116.5 144.1 156.1 172.8 193.8 214.8 242.3 277 302.3 344.2 367.2 401 429.3 454.8 463.8 467.5 473.4 465.3 453.7 456 460.7 462.6 469.9 467.6 472.1 485.3 500.5 510.4 519.4 544.8 554.9 565.1 571.6 573.1 579.3 577.4 581.4 590.5 604.2 600.9 595.5 594 596.4 599.5 600.9 594.7 584.3 584.3 591.6 588.7 587 577 573.9 564.3 560.5 561.1 557.8 551.7 536.7 519.3 511.5 504.2 502 512.6 510.9 503.3 505.4 510.8 496.2 487.9 482.5 490.9 489.4 499.4 507.5 510.8 503.1 501 504 514.3 517.7 506.5
269.6 272.2 273.4 278.8 294.3 293.1 293.2 283.9 272.2 272.2 275 279.7 282.4 292.3 305.7 315.3 316.5 325.9 351.5 356.3 357.7 366 362.2 358.3 374 367.3 372.3 391.7 400.2 402.7 410.2 401.4 420.1 436.3 447.7 448.5 441.8 430.5 426 416.4 404.9 405 408.6 420 422.7 423.2 418.3 415.2 399.9 392.3 385.6 379.2 378.7 380.2 383.9 389 381.2 389 381.7 380.2 377.5 385.3 389.2 392.1 391.2 394.7 399.3 416 433.3 434.3 440.8 447.3 441.5 438.1 438.5 456.1 478.3 479 467.8 454.6 453.2 467.9 490 484.3 461.4 437.9 417.9 401.7 395.9 377.2 371.7 356.8 345 330.8 313.1 293.2 277.2 262.7 248.1 225.7 205 185.9 165.4 149.4 122.4 99.8 82.8 69.4 53.9 41.8 39.6 38 39.8 41.2 49.5 67.1 87 104.3 131.9 149 170.2 179.2 206.1 232.2 260.2 292.5 324.5 353.6 378.5 413.3 437.2 451.1 454.9 455.1 449.9 453.6 442.7 455.9 458.7 462.4 469.7 468.1 474.4 487.2 497 505.7 523.7 543.7 558 562.3 566.1 565.8 571.1 573.7 581.5 597.4 609.1 600.4 593.3 584.1 583.4 585.4 580.9 580.8 581.1 586.8 599.9 584.1 579.6 567.6 565.4 568.2 567.4 554.5 556.8 545.4 528.4 515.7 504.9 496.8 499.9 499.9 500.2 497.7 497 500.2 485.8 474.3 473.5 475.9 482.3 491.1 496.6 493.6 492.9 489.6 499.6 510.8 507.6 479.1
267.6 274.1 278.3 285.1 301.4 297.4 297.6 294 284.3 278.2 287.7 291.4 294.4 299.7 303.1 321.3 321.6 332.5 359.8 370.3 371 373.4 367 361.1 376.7 370.1 372.3 390.1 395 404.1 408.6 394 413.4 432.2 445.8 444.8 442.5 432.9 433.7 426.1 420.9 410.2 404.4 414.2 419.7 421.9 419.3 412.5 401.9 387.2 383.4 385.9 384.2 387.2 387.4 388.5 377 373.8 375.6 375.6 376.8 386.1 390.4 390.1 385.7 392.6 396.5 419.6 437.2 434 434.7 439.6 434 439.2 442.8 467.1 478.5 478.1 461.8 452.7 458.7 476.3 474.4 470 443.7 415.3 394.4 392.6 382.2 370.1 364.8 346.9 341.9 327.9 305.4 293.3 278 262.1 240.5 222.3 201.3 183 159.7 139.9 115.1 95 77.6 62.6 48.2 40.6 39.6 38 39.9 42.2 50.9 67.6 91.1 108.7 135.9 154.6 175.4 191.9 216.2 246.7 278 308.5 342.7 364.7 395.5 417.8 435.1 441 444.6 443.8 443.7 439.7 446.7 455.2 462.5 462.2 470.8 467.7 480.6 494.4 500.4 508.5 521.9 544 558.3 566.3 564.9 565.9 569 575 590.8 594.6 601.4 596.2 596.3 591.4 581.6 583.5 580.9 585.2 589.6 590.4 588 576.7 566.5 557 548.7 558 549.2 537.2 538.6 534.4 521.1 511.3 498.9 483.2 488.2 493.5 492.3 485.8 486.5 478.2 470.3 465 474.9 469.4 468 485.8 484.8 481.1 481 485.7 495.8 500.6 481.8 460.4
269 270.8 280.5 293.7 299.7 296.4 295.1 293.2 288.9 284.1 289 294.1 310.6 316.5 321.2 323.3 334.6 343.7 360.9 378.4 392.5 382.4 373.9 368.6 383.5 378 374.9 389.1 394.4 400.2 405.4 391.4 406.9 421.7 428.7 430.2 430.8 431.2 429.8 429.6 429.4 418.1 409 403.1 408.7 412.1 415.2 413.3 399.8 387.2 382.6 386.4 386.3 386.2 386.8 384.1 375.4 372.1 372.1 374.3 376.8 376 384.5 388.7 383.2 390.1 393.8 420.9 443.1 443.1 434 434.3 434 441.1 456.2 469.9 479.4 466.7 455.3 451.4 459.4 464.1 454.6 444.6 418.6 396.2 381 370.5 366.9 358 351.2 335.8 331.8 313.7 304.7 294.7 280.8 264.2 243.4 221.9 200 183.8 158.8 135.4 114.2 89.9 73 59.4 49.1 40.4 39.2 38 40.1 42.4 50.2 73.2 95 115 139.9 161.7 180.1 206.6 232.2 263 294.8 329 355.3 379.2 408 419.7 433.1 441 437.5 434.3 433.2 430.8 442.5 451.6 455.1 464.2 470.4 464.9 481 492.4 501.9 514.9 532.2 546.3 555.2 561.6 565.7 565.8 566.4 574.5 594.1 593.6 592.6 598.2 597.8 598.7 587.1 573.5 578.3 581.9 587.9 581.1 567.8 563.1 555.3 545.3 538.9 536.2 527.7 526.1 528.8 519.8 516.2 501.8 490.1 483.3 477.1 484 479.4 473.1 475.3 463.8 453.6 452.6 458.9 460.5 467.9 473.7 466.1 471.7 475.6 482.2 490.1 486.1 453 445.3
270.4 271 281.3 299.4 301.5 292.4 289.8 294.8 287.7 288.7 289 302.6 323 339.3 334.7 331.2 332.9 343.7 358.2 382.6 392.6 392.7 385.5 379.3 387.2 386.2 382.9 391.3 391.1 392.8 400.6 391 410.5 408.8 421.8 418.9 421.2 423.1 428.1 428.1 423.4 420.7 418.5 413.3 406.5 399.7 398.4 397.8 389.9 380.9 375.2 385.1 388.3 388.4 387.4 384.9 375.7 372.1 373 372.1 372.1 373 376.3 384.4 383.4 388.8 394.2 423.9 442.6 456 440.5 434 434 440.5 463.1 478.8 478.4 461.6 453 450.4 457.4 451 430.8 414.1 397.9 378.3 362.9 348.2 349.5 340.4 335.8 324.5 317.9 311 308.3 294 281.8 267.4 248.3 223.2 200.6 178.7 154.6 135.8 111.1 89.1 71.5 57.8 43.7 40.4 39 38.3 40.2 42.8 58.6 81.5 97.9 121.3 143.5 165.6 190.7 222.5 250.9 285.1 320.6 357.1 362.1 384.2 399.9 415.1 419.9 425.9 424.4 419.1 415.6 424 434 443.6 449.3 458.5 464.9 467.2 482.1 498.3 508 518.2 537.2 548.2 561.5 555.9 565.1 569.8 567.8 573.7 582.2 589.3 594.4 595.2 591.1 593.9 584.8 579.6 567 570.3 569.3 559.3 559.6 547.3 540.7 535.2 526.6 523.6 525.5 519.8 517 509.1 504 497.4 483.3 475.2 470.4 464 462.3 465.7 454.5 448.8 449.3 449.4 453.8 452.2 463.6 457.1 456.9 459.5 466.4 471.1 471 448.8 438.2 428.4
268.8 273.6 283.5 296.7 300.5 291 285.5 296.5 290.9 295.2 300.1 317.8 326.8 341.6 346.3 342.7 343 348.2 361.8 381.8 392.8 401.6 398.5 386.2 389.3 395 386.6 400 394.8 391 391 393.1 407.6 413.3 412.8 418.1 416 412.6 421.6 423.3 424.4 421.1 418 415.5 406.1 398.1 394.9 389.1 382 374.9 372.1 382.9 386.8 389.3 387.2 381.7 375.1 372.1 372.1 372.1 372.1 372.1 379.9 383.5 382.1 389.4 398 428.8 448.8 453.2 440.6 434 434.9 444.4 471.2 475.9 475.7 457.8 452.6 447.4 449.4 435.1 414.4 393.3 382.1 362.8 341.7 329.9 328 325.4 321 320.1 309.5 308.4 306.2 292 277.3 262.2 243.4 224 202 173.4 152.9 132.1 109 88.7 67.8 55.7 43.3 39.7 38.2 38.8 40.5 48 67.6 87.9 109.5 133.4 152.5 176.6 203.7 234.2 275 301.3 329.3 349.2 360.6 380.5 390.9 402.5 406.3 410.6 406.2 405.2 398.3 413.8 430.6 442.5 455.1 466.8 472.3 473.3 487 499.3 508.7 518.4 535 545.2 552.1 552.1 547.5 556.4 562.8 570.3 570.9 576.6 575.3 589.2 586 577.8 581.5 568.7 555.6 552.3 544 551.9 538.6 535.7 533 512.9 510.8 516.7 522.7 515.2 509.6 497.9 494.5 489 475.3 468.9 461.3 453.9 451 447.1 448.2 448.3 448.8 448.4 448.6 449.7 451.7 454.9 452.5 451.2 453.2 452.5 438.9 421.1 413.9 400.3
268.7 274.6 280 302.6 301.7 285 285.3 296.1 287.4 302.1 312.7 325.8 341.3 355.4 360.1 358.6 359.4 358.1 364.9 376.2 386.5 407.8 409.8 398.4 401 405.8 392.9 404.9 401.1 391 391 396.8 412.7 418.6 419.9 425.1 419 417.3 416.7 425.9 417.3 418.6 420.7 414.3 401.1 396.9 390.1 383.6 379.2 372.1 372.1 378.5 384.9 387.1 387.1 380.9 375.3 372.1 372.1 372.1 372.1 374.3 379.1 385.6 387.4 390.5 400.9 434.1 448.3 451.5 437 434 444.5 473.5 481.6 480.1 478.2 458.2 447.6 442.5 438.8 419 398 380.8 362.6 343.2 334.4 325.5 312.4 311.7 308.1 309.9 305.5 303.7 295.2 287.6 273.9 258.4 237.4 216.8 192.7 172.4 151.7 128.9 105.7 85.5 67.6 52 41.2 38.5 38.4 40 42.6 55.1 82.1 99.4 122.4 146.3 162.3 188.6 216.3 245.9 276.7 310.2 342.3 343.7 355.4 374.9 379.7 388.5 390.7 387.9 384.6 388.2 387.8 416.6 433.9 446.8 465.9 471.7 479.2 490 496.9 511.3 509.2 519.7 528.5 537.9 541.4 548.6 547.8 561 559.2 564.9 571.6 569.7 575.1 568.5 572.9 570.3 561.5 548.4 534.9 537 537.7 532.2 522.1 524.4 513.3 497.5 504.7 512.9 508.1 499.9 497.4 495 489.5 475.8 465.2 456.6 448.2 446.6 446.6 446.6 450.3 449.8 449.1 448.4 448.5 449.2 450.6 453.2 447 442 440.4 423.3 408.2 404.2 391.5 383.2
269.8 276.9 277.6 302.1 297.9 290.9 282 292.4 288 302.5 314.9 336 351.9 365.1 377.7 378.4 371.9 372.9 363.5 365 381.4 406 414.1 415 411.8 410.2 399.8 413.5 410.5 395.3 391 402.3 418.9 425.2 429.2 424.5 415.6 417.9 413.2 413 415.1 414.7 418.7 404.5 398.5 395.6 391.9 392 375.5 372.1 372.1 375.1 387.4 391.6 387.8 384.7 379.5 375.5 372.8 372.1 372.1 377.3 381 385.3 391.3 396.6 413.8 429.1 447.2 442.4 434 434.3 449.9 486.3 493.3 479.8 473 456.2 442.4 441 426.5 399.8 378.3 365 352.9 329.3 322.2 312.4 299.8 295.9 305 300.9 303.2 294.1 288.1 280.4 264.2 250.4 231.3 211.4 189.7 168.6 147.2 123.2 100.8 83 65.8 53.8 41.9 39.4 38.8 41.6 46.9 60.9 96 109 137.8 157.8 179.9 204.2 228.7 257.9 286.8 310.3 328.5 330.8 335 356.7 356.6 355.6 370.4 370.2 363.7 370.8 380.2 418.3 437.2 455.6 468.3 482.3 490 498.2 499.7 506.8 507 521.8 528.9 529.3 535.2 543.9 557.6 555.8 554.6 560.4 556 561.4 566.6 568.7 567.3 564.4 553.6 531.3 527.4 520.8 520.2 504.7 502.9 498.8 494.3 486.5 493.8 486.8 491.2 490.1 493.1 485.2 477.1 465.6 453.1 444.9 444.9 446.3 453.1 448.9 453.5 462 455.6 458.5 450.4 451.7 460.5 457.5 449.8 437.2 419.2 399.6 395.3 385.3 377.2 376.5
271.3 274.2 277.4 299.8 288.6 287.1 283.6 291.3 289.2 304.2 324.4 348.2 363.8 372.2 381.9 386.8 389 383.8 372.8 364.1 366.5 392.8 409.1 411.2 412.8 417 407.7 419.4 417.7 399.4 391.5 419.5 423.4 427.9 436.7 427.3 412.5 413.6 407.6 403.1 405.2 404 409 399.7 396.7 390.4 386.1 387.8 375.1 372.1 372.1 372.1 375.1 386 379 379.9 377.7 378.2 372.1 372.1 375.4 377.7 384 386.8 395.2 403.3 420.9 431.9 430.5 438.5 434 440.9 451 473.2 479 476.2 467.3 452.4 438.3 428.5 406.3 381.8 367.6 352.8 336.3 319 307.8 296.2 284.8 284 293.6 300.9 293.6 286.7 282.5 271.6 257.5 244.3 228.5 210.5 191.2 166.7 142.3 121 100.3 81.8 63.4 50.6 43.9 41.8 38 43.9 50.2 74.4 101.1 120.2 150.3 173.1 197 218.4 238.4 262.6 286.6 302.7 305.9 309.4 317.8 329.9 330.9 330.7 335.5 359.3 353.1 352.9 386.5 421.6 447.1 471.8 487.1 510.7 506.4 516.2 512.6 508.3 513.3 515.3 523 524.9 530.5 534 550.1 549 552.6 553.7 561.3 550.6 552.1 555.5 562.9 556.2 541.1 519.7 520.5 496.1 490.3 482.2 476.6 478 471.8 467.5 467.2 468.3 470.4 484.7 480 473 459.5 448.2 444.9 447.3 444.9 446.2 453.5 453.6 453.5 474 464.2 460.8 456.8 453.2 456.7 459 451.8 419.7 401.2 394.7 381.2 373.2 367.2 370.2
264.7 273.2 276.6 295.9 286.8 281.7 280.8 281.2 289.3 310.9 329.2 353 362.9 375 384.4 389.6 396.8 393.8 383.6 378.7 375.2 382.3 400.2 406.7 407.5 411.7 412.1 423.3 420.7 407.8 400.8 432.7 429.1 436.7 435.4 424 423 416.7 405 401.4 398.1 393.6 398.1 393.3 392.6 385.4 382.4 377.6 374.2 372.1 372.1 373.1 373.6 372.1 372.1 372.6 374.9 378.4 372.1 375.3 378.9 383.7 383.7 389.3 399 406 428.9 442.3 434.3 434 434 434 448.9 466.8 463.8 466 454.3 440.6 422.3 403.1 386.3 370 353 341.8 322.7 302.4 298.1 284.6 276.2 274.3 287.4 285.9 279.6 277.5 273.1 265 256.1 242.6 227.5 213.6 185.5 161.1 138.8 119.1 101.9 83.8 66.2 51.5 43.4 41.7 39.5 42.9 50.7 74 106.4 134.4 160.5 188.6 203.3 225.4 238.7 260 274.6 279 280.3 289.9 293.3 302.4 306.6 306.4 312.1 323.6 337 349.9 399.9 447.5 458.9 479.1 499.9 518.7 516.9 527.8 523.5 511.1 516.8 509.5 514.2 522.7 524.7 534.4 544.8 547 536.1 532.3 537.6 539.5 531.8 530.7 520 523.5 517.1 498.7 495.9 484.1 454.9 447 443.2 451.1 454.1 451.1 446.9 454.4 464.4 472 465.3 452.7 443.6 444.9 447.2 447 449 447.3 454.8 459.7 463.9 472.6 472.7 468.5 465.1 451.1 454.7 451.3 428.2 403 393.3 385.5 371.9 365 360.5 361.8
264.7 269 279.3 290.1 289.5 281 277 279.7 301.3 320 343.8 356.7 363.6 379.2 385.8 389.6 395.4 398.4 395.8 395.2 392 386.9 384 396.4 404.5 409.1 412.1 423.8 419.2 415.9 416.3 437.1 435.1 435 438.3 430.9 432.5 426.7 411.1 406.6 398.9 387.5 395.2 386.5 390.2 380.2 373.5 372.1 372.2 372.1 372.1 372.1 374.1 374.4 372.1 372.1 377.1 372.1 372.1 381.5 384.4 383.5 387 391.7 404.9 410.1 433.6 445.3 448 434 434 434 450.3 462.9 458.4 454.8 438.5 421.2 404.5 389.8 364.2 352.8 339.7 324.6 309.8 291.9 281.5 272 267.4 268.6 275.6 273.8 268.7 271 264.3 258.9 251.9 239.9 222.1 205.7 180.2 157.6 136 118.3 99.1 78 60.6 51.9 47.1 41.5 42 44.7 52.2 77.2 106.5 134.1 156.4 184.2 208.5 227.2 237.2 247.4 244.8 245.4 248.3 262.9 261 264.4 278.5 275.3 281.8 299.3 301.4 333.3 366.9 413.9 455.7 469.8 491.9 512 509.8 519.4 517 517.4 515.8 504.7 501.2 503 504.9 523.6 513.9 525.6 506.2 506 520.7 521.1 515.9 502 494 493.2 476.7 469.2 456.3 448.1 436.3 422.9 419.8 426.5 424.3 425.5 439.3 442.6 446.3 452.1 447.2 441.4 449 451.7 454.8 454 455.8 454 461.4 472 473.8 476.3 479.3 468.3 466.3 452.4 445.8 435.2 409 396.6 389.6 378.6 363.8 357.5 351.1 347.7
267.4 270.8 279.7 285.2 287.3 279.5 274.8 278 300.3 321.7 353.7 362 370.1 382.1 385.9 393.4 397 400.6 397.2 406.4 405.9 399.6 392.7 387.9 399.5 403.7 409.9 421.4 421.6 417 417.5 436.2 435.5 437.7 431.9 433.3 433.2 423.2 411.2 406.5 400.1 396.9 385.7 382.8 383.4 376 372.1 372.1 372.1 372.1 372.1 372.1 372.5 372.1 372.1 372.1 373.3 372.1 372.2 372.1 377.8 383.3 395.5 404.1 408.6 420.6 440.2 445 443.4 434 434 434 444.1 444.9 444.8 435.5 425.9 408.2 390.7 373.6 357.6 339.7 323.7 310.6 297.8 278.9 270.9 261 253 256.6 257 257.4 256.3 261.5 255.8 247.6 240.1 231.4 218.6 198 176.6 154.6 134.1 114.6 94.8 74.5 60.4 48 42.3 39.7 45.5 48.7 65.6 86.4 97.8 122.8 149 176.5 204.4 220.5 227.9 226.4 222.6 217.8 222.2 224.3 229.5 231.5 243 253.6 261.2 264.2 294.6 311.4 359.5 381.6 420.9 446.4 466.3 481.8 480.6 486.7 493.1 494.6 500.1 493.7 490.5 490.3 487 485.5 489.4 489.4 480.1 479.2 476.4 479.1 477.9 463.5 452.9 447.4 441.4 439.7 428.3 416.1 409.3 402.5 400.4 406.6 410.3 407 431.1 443.5 451.4 445.9 440.8 441.1 455 460.4 468.2 462.6 458.3 460.8 476.7 482.4 484.4 486.8 486.4 477.4 476.9 456.2 435.4 418.2 403.2 395.1 390 368.4 360.9 350.7 338.8 337.5
271.4 271 281.8 277.4 277.5 277.4 276.5 276.2 298.8 321.6 354.8 366.7 371.4 379.4 386.1 394.2 395.5 402.5 400.5 414.1 414.2 406.3 405.6 389.7 394.7 402.6 403.8 418.2 420.4 418.8 419.8 434.8 435 434.2 429.6 431.7 429.2 415.1 413 408.1 401.4 399.4 387.6 378.9 375 372.1 372.1 373.3 372.1 372.1 372.1 373.1 372.4 372.1 372.1 373.6 373.7 372.1 374.7 372.1 375.6 383 396.4 406.2 422.2 434.7 452.3 456.7 446.3 447.1 434.5 448.3 451.6 449.7 442.6 421.5 408.4 408 384.2 365 344.6 333.2 314.5 304.9 288.6 273.6 266.4 253.8 239.6 245.3 247.7 245.3 250.7 257 252.5 242.5 232.5 226.3 209.7 190.6 168.4 150.1 135.3 111.8 92.3 72.2 59.2 47.5 42.4 38.9 44.5 53.2 71.7 96.9 110.2 119.1 136.5 173.9 192.5 197.2 200.4 200.5 195.4 195.6 197.2 196.7 197.9 202.9 213.7 223 223.8 250.3 277.9 280 340.1 349.7 382.3 404.6 425.9 449.6 443.2 449.7 466.6 471.4 482.9 480.4 475.6 474.8 471.9 464.5 461.4 453.8 447.3 445 440.9 434.1 429.2 426.8 424.6 421.1 419.8 406.4 396.9 395.4 385.8 379.5 376.6 380.7 381.5 388.4 397.7 424.7 438.3 434.4 437 441 447.3 469.3 469.4 469.8 465.7 469.7 474.5 481.4 487.9 483.6 478.9 472.9 471.7 446.2 424.5 411.6 403.8 402.8 383.8 366.6 358.5 344 337 333.8
277.8 276.8 280.7 278.2 276.1 272.5 269.6 272 297.6 323.1 354.8 356.9 368.7 373.4 382.1 386.2 395.8 404.9 400.2 409.9 414.5 412.9 408.9 402 393.4 400.1 398.2 412.9 417.5 413 421.3 437.4 434.9 440.7 444.6 439.5 425.7 416.1 412.9 410.3 411.1 397.8 387.9 381.4 375.8 372.1 372.1 372.1 372.1 372.1 372.1 373.9 376 374.7 372.1 372.1 372.1 376.8 373.8 375.2 379.1 391.5 408.1 416 431.9 446.9 460.3 470.1 462.2 457.2 453.5 455.5 465.7 464.5 442.9 422.8 406.8 392.9 377.8 353.2 335.6 322.6 306.2 296.3 281.5 269 256.1 242.8 229.9 229.8 235.2 241.1 242 246.8 244.4 239.2 228 225.1 209.3 187.6 165.6 145.4 126.8 110.6 89.2 72.5 57.9 46.2 42.1 39.2 46.3 60.2 81.8 103.2 104.1 121 134.3 152.8 164.2 174.8 168.6 165.4 158.6 159.5 171 178 174.2 178.4 180.5 187.3 228 229.8 242.5 251.7 272.6 331.9 337.1 356.5 391.2 416.4 412.4 430.3 440.1 447.8 444 443.8 448.1 457 452.1 443.9 442.2 432.2 423 421.9 415 411.7 410.1 404.9 400.4 391.9 385.6 377.7 369.3 360.3 359 354.9 355.2 356.5 361.1 368.3 384.6 388.9 414.7 406.7 434.4 435.2 447.9 468.6 470.7 473.9 471.5 472 482.1 482.8 483.4 486.1 482.7 473.2 454.3 437.5 420.2 411.9 405.7 394.5 371.4 365.8 361.4 343.8 335.2 332.8
281 275.1 280.3 274.1 274.8 265.6 263.5 267.4 287.7 321.6 346.5 352.6 364.6 370.3 376 377.2 392.4 398.5 398 404.3 407.6 412.1 405.3 401.9 393.6 391.3 394.7 412.6 416.9 408.4 426.3 434.9 439.1 439.7 447.9 439.1 425.5 418.2 422.7 412.4 405.6 398.1 390.1 381.4 381.1 380.1 374.5 372.1 372.1 372.1 372.1 372.1 374.6 373 372.1 372.1 372.1 372.1 376.6 379.4 388.8 406.5 411.6 428.6 449.6 449.5 457.3 466.2 469.2 466.8 456.9 453.2 462.1 449.8 433.4 424.1 413.6 392.6 371.5 343.7 327.7 308 297 286.4 268.9 257.6 246.8 232.2 221.6 220.5 224 237.4 239.9 242.9 238.9 225 223.9 215.2 205.8 183 158.8 141.9 123 106 87 70.3 55.6 44.7 40 41.9 48.2 62.5 79.6 88.7 94.8 108.4 125.3 146.4 146.1 143.8 149.5 143.8 143 140.3 143.8 149.1 158.7 157.4 154.5 166 184.7 204.8 222.7 226.1 248.2 272.2 296 327.4 337.1 359.1 383.1 391.1 403.9 413.5 416.8 416.4 414.2 434.6 434.5 424.4 414.9 406.5 398.3 398.6 395.9 390.2 383.4 383.4 380.5 369.6 361 351.2 339.3 336.9 330.2 327.4 323.1 320.5 327.8 342.6 363.8 370.4 373.4 396.8 420.5 424.6 447.1 466.6 470 469.3 471.6 474.9 476.3 484.1 494.3 499.3 499.3 479.8 454.6 431.1 423.7 418.1 401.9 382.5 363.7 355.6 353.4 338.6 333.4 333.7
268.4 268 270.6 270.1 271.3 265.6 250.8 265.7 289.8 306.5 325.8 347.4 355.7 366.5 368 372.2 382.7 388.8 389 396.7 402.5 408 405.1 404.4 397.4 387.3 393.1 410.4 415 405 417.4 436.9 436 444.7 448.2 438.8 423.2 420.4 422.9 414.8 413.1 401.3 393.3 387.1 382.6 377.2 372.1 372.1 372.1 372.1 372.1 375 375.2 372.2 372.1 373.7 372.1 372.1 378.6 381.7 393.8 408.5 422.3 441.2 452.5 454.3 453.1 456.2 460.6 459.1 455.5 444.7 445.2 439.2 422.5 414.5 406.3 383.8 364.3 349.3 332.5 311.8 291.7 275.6 264 252.4 240.3 220.5 210.4 212.9 215.1 228.9 233 234.6 228.7 219.3 218.1 208.2 196.7 174.9 152.8 137.2 119.6 105.5 84.8 70.8 55.7 46.6 38.4 43.4 46.2 54.4 65.1 73.8 86.2 103.4 123 123.2 125 118.1 125.3 131.2 136.3 133 134.6 135.7 139.1 136.4 141 151 167.6 191.8 213.7 210 221.2 238.8 274.6 291.6 312.2 330.5 346.3 353.1 376.2 387.6 389.6 380.2 381.4 387.5 404.3 401.1 382 382.9 377.1 371.2 367.9 358 347.2 346.8 347.2 346.6 337.7 328.4 320.9 313.8 306.6 299.5 293 295.7 304.3 313.4 329.6 350.2 372 395 404.5 421.2 444.4 451.8 462.4 478.7 482.8 490.6 490.6 498.7 503.9 500.6 493.8 475.9 445.3 430.2 420.9 413 395 375.9 363.1 349.5 338.3 335.9 332 334.5
259.4 255.8 261.7 262.7 274.4 261.9 250.8 261.1 290.9 305.5 325.3 333.1 344.5 352.7 357.7 358.1 371.3 377.1 379.7 388 396 400.3 404 404.1 393.1 387.3 391.1 407.1 412.5 398.8 408 429.9 430.6 436.7 444.6 438.5 425 425.1 419.4 425.6 413.3 401.7 392.3 385.2 379.1 376.9 372.1 373 372.1 372.1 372.8 376.3 375.4 372.1 372.1 372.1 372.1 373.9 378.9 373.3 388 402.6 424.7 446.6 454.3 448 440.8 451.3 446.1 443.5 440.9 430.6 429.6 424.4 407 400.6 391.2 378.6 351.7 343.2 331.3 314.6 297.6 280.9 263 253.9 235.3 217.2 198.2 193.8 203.4 214.5 221.1 225.5 219.4 214.9 207.3 201.2 191.2 166.4 148.2 129.4 116.3 102.9 84.5 69.6 56.5 48.1 37.6 43.4 44.2 47.9 55.8 71.9 86 105.5 119 115.1 111.5 111.3 118.8 127.3 127.4 124.7 127.2 124.3 126.8 127.2 135.5 147.6 160.7 172.2 191.7 191 200.1 212.1 227.8 247.7 273.1 309.5 327.8 327.4 332.2 357.3 363.9 362.6 353.1 353.4 358.2 361.2 355.7 344 329.4 325.9 328.2 314.4 307.1 306.6 306.8 314.3 319.2 300.2 295.6 294.2 287.9 284 283.7 276.7 288.4 298.1 317.7 338.7 352.7 370.8 382 402.5 431.8 451.2 471.5 493.8 499.4 501.2 495.1 501.7 496.5 487.1 475 455.9 443.2 429.1 413.3 403.2 386.5 369.5 360.2 343.8 334.7 332.8 330.2 327.9
250.1 246.7 254.5 251.4 272.9 260.7 250.1 267.2 290.5 306.6 318.5 331.5 336.4 341 350.3 348.6 355.4 359.5 365.4 380.8 392.6 397.7 405.9 399.6 389.8 387.3 390.9 394.4 402.5 387.9 399.2 420.8 417.3 423.7 433.4 424.9 429.3 424.6 432.6 431.3 416 402.9 391.6 381.8 374.3 374.3 375.1 373.5 372.1 372.1 372.1 376.2 373.3 374.1 372.1 372.1 377.2 371.6 366.3 363.1 366.7 387.4 413 437.4 442.9 431.9 432.4 436.9 431.1 424.7 419 414 416.4 412.9 393.9 391.7 383.5 363.5 339.8 338.1 321.8 307.7 292.7 286.4 274.6 248.5 230.5 211 194.2 183.8 186.2 200.2 207.4 214.1 207.3 203.3 197.5 190.8 179.1 156.7 140.7 124.2 114.4 100.9 84.2 72 55.7 47.1 37.4 41.6 39.5 41.1 55.2 64.8 88.9 106.5 111.9 110.3 112.8 113 114.9 124.5 123.9 117 116 116 119.6 121.2 127.2 146.4 157.8 168.2 169.3 170.9 171.3 181.9 196.5 223.3 239.7 280.9 292.4 307.4 300.8 321.3 327.7 334.7 332 319.8 326.7 330.9 327.6 318.2 313.6 303.8 294.4 291.2 282.6 280.8 280.1 286.6 275.7 268.9 266.7 271.2 266.2 263.5 265.9 267 278.1 290.7 305.3 316 332.4 353.3 369.7 395.8 445.8 469.3 481.7 492.1 493.7 498.2 501.2 496.9 489.4 468.9 457.1 448 440.6 427.3 401.7 388.7 378.4 362.7 349.4 339.1 332.2 328.9 324.3 323.7
238.3 243.4 249.8 236.5 261.7 260.6 249.5 267.6 293.7 306.8 313.2 325.4 332.9 337.1 348 342.4 347.2 350.2 364.9 376.5 383.6 390.6 398.7 395.2 386.9 388.5 389.9 402.9 393.1 379.7 391.1 410 406.8 408.2 427.6 415.2 429.4 428.8 439.1 436.5 424 408.7 393.2 377 374.3 376.4 374.7 375.4 372.1 372.1 372.1 376.5 374.9 372.1 373 375.4 376.4 372.6 366.6 356 356.6 361 393.9 410.8 413 412 419.3 424.4 419.2 409.5 401.1 402 408.9 399.3 385 385 367.2 342.4 321.1 318.6 306.1 294.8 284.4 284.2 272.1 249.9 229.8 206.7 192.2 182.1 174.3 188.5 197 201 195.4 199.9 192.3 187.7 168.1 152.8 134 117 116.2 101.3 82.6 67.9 55 45.8 34.9 38.9 37 39.1 45.5 59.9 86.8 96.3 113.6 114.6 114.9 113.8 113.5 116 116 116 116 116 116 116.3 121 133.3 143.5 156.9 160.8 154.8 149.1 151.8 172.9 192.6 222.3 253.7 264.9 275.5 272 276.3 286.8 298.1 298 290.8 293.4 298 288.4 282.5 277.8 274.3 267.1 259 254.7 248.6 251 249.6 243.9 239.5 238.9 240.4 245.2 249.5 253.8 261.5 269.6 279.7 289.3 300.2 320.7 343.5 362.9 386.6 425.2 454 475.4 483.3 489.8 486.7 495.5 491.7 477.4 447.7 436.9 433.3 423.5 414.6 395.8 382.4 372.2 352.6 345.6 337.1 331.1 327 318.4 309
235.5 239.1 241.6 233.4 253 257.5 250.3 263.6 293.8 304.3 312.4 323.6 327.2 331.4 342.5 338.7 340 340.3 355.1 367 377.3 382 391 386.4 381.2 378.1 386.5 405 392.8 377.3 388.9 397.1 386.7 395.7 415.9 409.5 415.8 434.2 434.8 432.8 419.6 402.8 386 373.1 374.9 386.4 383.7 373.4 372.1 372.1 372.8 379.3 376.2 372.1 375.3 375.3 377.9 374.2 367 356 356 367.5 381.8 385.5 391.3 393.6 406.9 403.6 400 397.8 387.7 392.9 389 381.1 373.5 369.2 353.5 324.8 306.2 289.8 286.9 281.5 276.9 277.2 260.1 244.4 224.8 209.3 191.6 181 166.3 176.6 188.4 189 187.9 193.6 184 176.9 160.4 148.2 124.9 110.6 110.7 100 79.1 64.8 54.3 44.3 37.8 35.1 35.1 34.5 40.5 55.4 72.2 91.8 121.7 125.4 123.5 119.9 116 116 116 116 116 116 116 116 116 124.6 133.7 138.3 146.2 142.7 138.1 139.2 150.5 170.2 207.2 220 236.5 248 250.6 249.4 252.5 258.1 269.1 255.3 254.5 263.5 260.7 258.2 253.7 249.5 244.8 239.2 236.4 230.3 226 221.3 221.3 224.7 226.4 230.9 235.9 245.8 249.3 256.2 266.2 275.2 283.3 294.4 313.4 338.5 362 380.3 413.9 435.5 469.5 475.4 483 474.8 473.4 469.8 455.5 432.2 423.3 412.5 412.6 403.7 390 372.8 369.2 352.6 344.4 339.3 334.4 325.6 311.1 315.1
234.1 239.4 239.9 223.9 251.8 258 245.3 253.5 286.9 300.7 304.6 319.5 322.9 332.3 333 337.2 336.1 332.5 347.7 358.1 363.9 370.7 379.8 373.3 367.9 372.1 384.4 402.5 392.9 378.2 378.8 398.1 387.4 390.5 403.7 402.3 412.1 418.8 420.6 420.5 407.8 397 375.9 365.3 371.7 378.4 389.5 379.1 372.1 372.1 377 384.8 383.8 382.5 377.7 372.7 371.3 370 367.8 360.9 353 360.7 363.8 375 374.7 381.1 386 383 383.2 381.5 376.9 376.2 368.7 356.7 357.1 351.4 327.9 306.4 286.6 270.3 267.9 263.7 269.1 261.8 246.2 229.8 213.3 204.3 194.7 178.9 163.6 167.5 182.4 178.7 178.5 184.4 175.2 162.6 148.4 135.1 118.2 104.2 103.4 91.5 75.8 60.6 53.4 40.9 37.7 33.4 35.7 35.9 37.9 55.7 69.6 90.6 108.7 131.6 125.3 118.8 119.2 116 116 116 116 116 116 116 116 118.5 128 131.9 134.8 131.8 132.4 132.8 141.3 161.4 185.2 199.7 205 215.7 221.1 228.8 227 228.8 229.8 226.1 225.5 231.8 235.6 232.3 231.9 224.6 220.6 219.8 216.9 215.3 205.4 204.4 213.5 222 227.6 235.6 242.9 253.3 261.3 269 272.1 275.9 285 299 311.6 330 350 376.7 407.8 431.6 452 462 470.8 464.3 460.7 455 434.1 422.9 412.1 401 394.6 394 386.8 372.2 360 348.8 346.7 342.1 334.1 317.8 300.4 305.6
227.2 234.5 236 221 249.1 256.5 245.2 237.3 262.8 289 293.9 310.7 316.1 329.6 335.1 334.2 329.4 327.6 345.9 355.9 354.3 359 372.6 369.5 363.8 369.9 381 396.1 392.1 369.5 378.6 394.6 375.5 381.3 383.2 385.3 398.4 408.7 409.7 413.8 396.9 382.1 364.8 359.8 367.2 377.8 392.5 390.8 376.9 379.4 385.7 394.5 383.5 383.1 370.7 374.7 365.5 363.9 364.9 355.8 347.4 354.8 358.2 365.7 363.8 370.7 369.1 368.9 370 366.5 359.1 357.8 340.8 332 337.9 328.2 312.1 293.8 270.9 254.9 253 252.8 255.3 247.2 230.7 219.5 194.2 195.2 190.8 180.4 160 158.4 172.7 169 172 179 165.7 151.7 136.8 123.1 112.9 98 91.4 83.8 71.8 55.4 52.1 39 36 35.7 35.4 35.8 40.8 61.4 70.6 87 112.2 120.2 115.6 130.9 133.7 131.4 122.8 124.1 121.4 116 116 116 116 119.5 127.2 129.1 126.2 125.8 127.5 129.3 131.9 149.6 169.4 179.9 182.9 194.7 201.9 199.9 198.1 201.5 200.7 202.9 199.8 209 210 207.9 201.1 198.2 196.4 199 199.5 195.8 202.4 210.1 221.9 233.7 242.2 253 257.8 266.4 271 278.1 280.2 287.2 295.2 311.1 329.3 346.4 372.4 379.4 394.2 416.2 440.4 453.8 453.9 448.4 448.9 431.5 420.1 412.2 406.2 399.4 387.9 381.8 380.6 371.2 362.2 344 344.1 334.9 323.6 304.7 294.9 299
218.9 224.2 227.2 218.5 246.2 249.2 243 233.2 247.8 280.4 285.3 305.4 310.2 315 326.8 327.1 324 326.7 347.5 353.9 349.2 350.2 363.6 364.7 356.6 361.6 374.5 387.2 383.6 364.3 374.1 383.8 366 368.7 379.5 381.8 382.8 386 398.7 395.7 379.2 363.9 353.7 350.9 361 379.6 391.1 390.2 376.6 389 399.6 391.2 387.8 374.8 368.6 367.7 357.1 357.6 355.6 349.5 338.2 346.9 363.1 360.3 356.5 357.3 355.6 354.1 355 354.7 349 335.1 322.8 311.3 319.2 311.4 296.6 279.3 262.9 242.3 246 250 242.9 233.4 217.1 203.9 184.9 187.8 183.9 171.4 157.3 150.7 168.3 159.4 160.6 168.6 155.6 145.3 131.8 112.7 101 89.7 82.3 76.8 64 50.2 44.6 36.8 36 35.3 35.4 35.8 45.9 58.9 69.7 79.6 94.1 114.8 144 156.2 164.7 160 148 140.9 133.8 131.6 123 119.3 117.9 125.2 126.3 125.9 126.3 126.6 126.8 126.8 128.2 137.7 156 162.7 165.7 172.9 173 176.5 178.5 179.3 182.2 182.5 182.8 179.4 179.9 180.1 173.7 179.1 180.7 182.2 184.5 193.3 203.7 217.6 233.1 251.1 266.5 275.1 275.5 276.4 277.7 284.2 293.3 305.2 314.3 332.3 355.9 377.4 399.2 403.1 405.8 412.3 415.5 422.7 433.8 432.9 423.8 406.4 398.8 395.1 394 395.8 383.8 377.3 374.3 372.5 357.4 341.6 338.2 333.6 316.7 296.3 281.3 288
218.4 219 214.3 215.6 238.3 243.5 239 226.2 232.8 269.4 275 301.8 304.8 312.6 316.8 316.8 316.7 319.5 341.6 353.4 349 347.7 356.7 362.8 352.9 356.8 371.5 372.7 370.7 358.5 360.7 365.7 358.2 355.2 366.8 372.6 373.5 377.9 380.9 380.3 364.3 349.2 342.9 341.6 353.5 373.3 382.5 380.3 371.5 393.1 393.3 381.9 376.9 368.4 365 356.2 349.1 344 340.4 334.2 330.4 344.3 357.6 354.2 350.5 349.9 339.9 352.2 345.6 345.5 337.3 326.3 302.7 295 296.9 291.8 278.4 265.2 245.5 234.4 240.4 242.8 235.6 224.5 204.9 190.2 177.3 176.6 172.7 159.2 144.4 150.9 153.9 150.5 148.8 158.1 144.3 134.7 124.3 103.9 88.4 78.1 75.6 64.6 52.9 46.5 39.6 38.5 36.1 35.6 33.2 37.2 45.7 54.3 61.3 78.8 109.5 153 171.8 183 191 181.9 174.8 166.9 159.6 152.5 143.7 139.5 138 134.2 142.7 131.1 127.3 126.9 127 127.4 128.4 133.8 141.9 145 150.2 154.1 158.4 158.2 157.4 160.2 164.3 168.7 169.3 164.1 165.5 165.8 166.9 168.6 169.6 176 184.5 195.7 212.5 234.5 246.2 267.9 283.3 290.2 291.5 290 291.5 299.4 312.3 322.7 330.1 361.9 391.3 407 416.8 418.9 416.2 414.9 412.9 412.8 408.6 403.6 394 392 380.3 377.7 378.9 382.4 377.3 372.9 367.1 362.1 351.3 343.3 331.8 309.9 299.8 290.8 267.3 278.5
213.9 208.9 204.5 210.1 233.1 236.1 233.8 223.6 217.1 260.3 266.9 283 289.2 298.7 301.7 302.2 304.4 311.6 327.2 341.6 342.8 346.9 353.1 348.5 347.1 350.7 362.5 356.5 358.6 344 344.5 344.9 347.7 349.6 354 356 363.3 367.1 372.3 364 349.8 339.9 331.4 332.1 344.6 358.2 366.6 369.3 366.8 384.9 389.4 371.9 366.2 363 361.5 349.8 340.3 337.4 330.1 328 329.1 336.5 346.2 344.8 338.7 341.8 333.4 341.2 336.2 328.6 322.3 306.9 289.3 284.4 278.8 275.8 264.3 247.7 236 223.5 230.5 237.4 228 214.6 196.3 178.7 169 167.5 154.4 143.3 134.6 143.5 153.1 143.7 132.4 140.9 133.1 123.2 115.2 96.4 78.3 72.4 63.3 55.4 48.1 40.2 37.6 37.4 37.1 37.5 35.9 40 47.5 55 69.7 91.9 123.8 163.9 199.2 217.1 226.8 213.1 203.8 197.5 189.8 181.5 175.1 171.3 165.5 155.8 156.2 137.5 132.2 128.2 128.1 128.6 131.3 132 135.9 139.7 142.7 146.7 151.2 148.4 148.5 149.3 152.6 160.5 160.5 162.8 164.8 163.4 165.3 166.6 170 177.1 188.9 203.2 228.6 251.2 263.7 276.2 305.7 312.8 314.1 313.1 312.7 323.3 343.6 344 354.6 402.7 415.5 427.3 427.9 428.4 426.7 424.1 418.3 414.3 400.3 394.2 381 370.9 367.5 374.3 374.6 377.9 370.3 367.1 355.2 359.4 348.3 333.3 316.3 293.3 284.4 268 264.8 276.4
201.7 191.9 188.5 203.4 222.7 227.8 225.4 217.2 205 241 246.4 268.8 264.4 284.9 288.1 290.7 289 291.5 311.9 324.4 331.7 336.1 344.7 343.6 340.1 342.2 350.4 348.3 350.1 336.6 327.1 323.3 327.3 331.7 336 340.4 353.8 366.2 373.3 364.8 344.7 326.6 325 320.6 333.3 338.8 341.8 351.5 358.6 371.1 368.1 363.3 357.2 352.2 347.8 340.1 329.4 325.4 324.1 325.7 318.1 336.1 336.2 333.8 329.8 330.1 324.9 323.6 323.8 313.1 305.5 294.3 279.3 274.6 265.7 261.4 254.6 242.2 227.4 214.5 226.6 232.9 223.2 208.4 190.7 171.2 162.9 153.1 147.8 131.2 132.1 141.5 148.5 141.1 124.9 123.7 123.2 115.2 96.5 84 68.3 62 55.2 50 43.9 37 36.5 36.7 38 38.5 33.5 39.1 48.6 69.1 90.2 111.8 142.1 182.8 242.9 255.8 254.6 243.5 230.1 223.3 217.3 228.1 206 208.8 203.5 187.6 165.6 148.1 136 131.6 130.8 133.1 138.3 143 148.4 147.7 143.5 142.4 143.2 146.8 151 154.4 156.3 157.5 161.4 168.1 174.1 170.3 167.8 168.7 172.1 183 194.2 203.8 229.7 242.5 266.4 297.7 320.6 334 339.3 337.6 336.9 344.7 363.5 370.8 387 422.8 427.4 429.4 432.4 430.8 432.1 429.1 418.5 407 400.2 386.8 370.2 367.7 355.8 351.8 363.6 364.8 360.6 353.5 347 345.8 337.7 327.2 304.9 277.3 252.6 242.2 256.4 268.9
182.5 181.7 167.9 190.6 197.3 213.9 210.8 202.3 198 223.9 230.7 232.4 244.5 260.9 272.9 274.8 280.8 273.4 289 303.9 310.3 320.9 332.2 336.7 336.7 330.6 335.5 336.3 340 324 320.1 322.8 329.7 326.2 344.3 344.2 343.7 354.7 364.9 367.8 341.8 326.7 317.8 316.2 330.6 334.7 339.5 353.2 363.9 372.2 371.9 366.3 357.7 355.2 346 336 334.2 326.3 323.2 315.8 313 332.1 320.2 322.8 320.9 319.7 313.3 298.5 298.2 294.6 288.6 280.9 281.6 263.4 251.5 248 240.1 227.5 217.3 208.7 223.7 234 222.3 204.8 182.7 165 152.7 143 137.1 122.4 123.8 125.5 127.7 128.1 117.8 99.1 100.9 94.7 79.9 67.7 64.7 55.3 51.3 46.8 38.5 36.1 35.5 36 36.8 38.7 32.8 42.1 69.4 95.1 125.7 149.4 167.2 205 259.1 271 289.6 301.2 291.6 270.5 255.6 248.1 240.1 227.9 222.2 205.6 173.8 159.6 145.4 140.2 136.6 142.3 149.5 152 160.6 154.2 150.5 149.7 151.3 155.6 166.6 173.1 168.9 167.4 168 180.7 193 186.2 177 176.5 183.2 190.2 203.6 219.1 227.7 245 273.9 306.4 347.6 356.8 361.7 364.8 365.8 374.4 387.7 388.5 402.7 430.2 440.9 436 433.1 430.4 425.5 421.9 415.8 408.6 391.2 382.8 362.9 359.5 352.6 343.4 339.8 338.1 340.1 331.6 319.6 319.4 315.8 309.4 285.1 260.8 227.4 235 249.2 261.5
162.2 164.6 152.5 174 174.2 187.6 198.1 190.9 180.9 182.8 201.7 199.5 214.3 230.9 240.7 247 263.5 259.7 266.1 280 291.2 307.6 315.7 319.7 324.8 322.3 323.6 317.3 332.4 326.4 312.5 305.8 317.5 317.8 320.9 331.3 332.1 343.5 350.3 359.1 347.3 336.3 319 313.6 318.4 336.3 335.8 346.4 355.8 366.1 356.9 361 350.3 350 340.5 335.5 337.8 320.3 313.5 306.1 313 316.5 308.1 315.1 320.5 315.1 305 296.8 286.5 280.6 273.3 261.2 261.5 249.1 237.6 225.6 215.7 213.3 212.8 198.4 224.2 223.9 211.6 194.7 176.5 159.1 145.6 131.6 126.6 115.1 115.8 110.7 109.7 110.5 106.1 92.3 75.9 66.9 60.8 57.2 57.1 49.1 45.9 41 36.9 35 35 34.4 32.4 32.4 39 58.5 82.5 115.5 154.9 171.9 195.1 236.9 292.1 317.4 322.5 317.8 314.6 302.6 293.6 274.8 258.9 239.6 226.9 208.5 185.1 169.7 166.5 149.4 146.7 153.1 157 158.8 162.2 157.9 154.8 154.7 160.5 166.8 177.6 190.4 192.5 185.1 179.2 189.8 203.7 202.6 190.5 186.1 195.3 203.3 213.6 235.1 246.3 260.6 281.6 321.1 370.8 389 386.9 394.6 397.3 403.5 404.9 412.3 419.2 446.7 445.1 441.8 436.1 429.8 420.1 415.7 404.9 398.7 386.4 371.9 358.7 358.7 353.5 341.9 340.6 332.7 317.4 314.6 294.6 279.1 276.4 281.8 269.4 238.6 209.1 211 224.8 243.8
129.7 147.9 145.2 154 144 162.2 170.2 165 159.1 157.7 160.3 166.3 176 193.3 200 207.6 227.6 226.3 229.9 243.7 266.3 285.4 295.8 303.4 306 292.4 301.8 300.3 312 318.1 305.1 300.2 305.6 307.1 306.1 325.7 325.4 329.1 335.2 351.6 349.6 336.3 319.4 308.1 311.2 328.2 330.6 337.6 345.7 359.2 348.7 350.6 343.8 341.8 336.3 328.3 328.8 310.9 307.1 295.5 306.8 310.2 299.5 302.7 304.6 298.1 293.1 288.7 282.9 266.9 259.4 248.9 252.9 242.7 232.6 214.5 200.2 198.1 199.7 191.2 215.8 211.8 203.2 187.5 169.8 151.7 138.2 124.3 115.2 105.6 101.5 97.5 92.7 91.2 88.3 84.2 66.8 54.2 50.6 48.7 48.1 42.4 40.7 36.5 36.2 32.4 34.3 35.3 37.4 41.4 49.6 72.8 95.5 140.5 165.4 184 218.7 283.9 319.6 343.2 340.5 334.8 322.6 306.4 297.6 284.2 272.6 258.4 231 215.2 194.3 181.2 178.8 163 155.3 158.9 164.6 167.8 165.9 161.1 159.7 161.9 174.7 179.2 188 201.7 206.2 203 202 209.4 226.9 222.8 208.2 200.8 210.7 222.7 237.2 254.2 262.7 283.1 304.6 335.3 384.9 402.4 399.2 401.7 410.2 418.2 423.5 424.2 426.2 444.5 442.9 441.2 434.6 427.7 420.4 408.6 401.4 395 381.5 361.6 361.6 353.3 346 338.8 328.7 317.2 312.3 295.5 281.8 260.1 251.2 239.6 233.6 212 195.5 189.9 205.6 213.2
111.7 109.7 124.8 124.1 115.2 130.2 137.3 139.8 134.3 131.4 132.9 142.2 153.4 165.3 172.9 180.5 188.7 199.9 208.8 208.4 234.3 246.7 260.9 264.9 274 264.6 258.5 272.4 287.5 295.5 294.2 287.6 285.2 294.9 293.4 302.5 312.8 315.1 325.2 333.1 340.7 328.8 310.2 303.9 305.2 311.5 321.1 335.3 346.3 359.6 345.8 344.4 339.3 333.9 333.2 323.5 317.7 303.3 297.1 284.8 300.5 302.1 291.8 294.6 293.8 284.9 282.9 276.7 268.1 257 241.1 232 236.6 234.1 217.4 202 189.7 189.8 192.5 185 203 201.1 190.6 178.3 162.3 145 127.9 114 103.8 88.5 91.9 89.6 80.4 74.8 72.6 66.8 57.5 49.6 44.5 41.1 41.2 39.7 36.9 35.2 34.8 34.9 35 36.1 40 48.5 59.1 86.2 109.4 145.1 175.6 194.8 229.7 292.8 334.3 345.3 338.3 329.9 316 295.6 284.7 279.5 268.9 251.9 232.7 209.5 201.3 195.6 185.3 174.8 167 171.1 176 172.8 169.7 175 178.1 176.2 195.8 201.3 201.2 212.3 218.5 224.4 221.7 234 247.6 244.8 232.9 221.8 225.6 243.6 262.8 276.5 287.7 309.8 322.5 362.4 390.6 402.7 402.7 409.4 423.6 425.9 430.7 427.5 434.9 442.3 444.9 435.2 427.9 422.4 415.6 408.6 398.6 393.5 384.4 362.7 367.7 360.3 343.7 337.5 326.3 318 305.7 282.8 266.9 254.7 231.5 218.8 210.5 193.9 178.6 172.2 184.8 184.6
98.7 92.8 91.4 88.9 85.3 91.9 103.3 107.6 102.3 107.6 115.8 109.2 124.2 127.7 137 147.9 154.5 176.9 176.4 178.6 190.7 208.4 221.6 228.2 224 221.7 228.9 247.4 255.9 275 278.2 273.5 272.7 271.8 277.8 285.2 295 300.5 304.2 310.4 322.3 315.8 301 289.5 288.3 292.7 314 321.5 334.3 349.6 341.3 335.9 330.5 329.4 328.7 314.9 311.1 294.7 282.3 273.8 284.9 293 280.5 277.3 277.1 273.7 273.9 260.1 248.7 241.9 229.2 227.5 219.2 217.9 202.2 193.3 176.7 178.8 185.6 172.8 190 190.3 177.7 166.6 159.7 136.5 117.7 104.1 92.6 81.1 85.8 80.7 71.3 67.3 59.7 54.6 48.7 44.9 40.2 37.2 36.8 36.9 37.5 35.4 34.8 34.8 35.9 36.6 43.1 56.9 68.3 95 121.9 147.4 179.9 207.2 250.9 286.6 332.7 345.6 347.3 341 326.4 318.1 295.5 275.1 258.4 244.3 230.7 219.4 216.2 205.1 199.5 195.3 180.8 180.8 183.3 183.3 182.8 189.5 197.6 200 221 225.7 224.1 231.9 239.5 243 258.9 265.1 269.5 263.2 247.8 238.2 240.7 264.7 289.1 307.5 323 335.7 335.1 378.1 400.6 406.9 407.5 412.5 420.6 427.1 429 424.6 430.7 432.2 431.8 427.2 425.8 421.5 415.5 412.9 401.5 391.9 381.3 361.4 359.4 352.5 345 336.9 325.3 309.1 293.9 267.1 248.8 238.3 220.7 207.5 191.4 183.8 181.7 143.2 158.1 158.5
80.7 81.4 78.3 64 58.6 65.6 75.5 76.2 79.7 81.4 83.6 85.8 87.1 92.9 98.1 110.1 120.8 134.5 140.2 146 154.1 169.5 183.2 184 180.9 196.4 205.7 220.6 232.9 242.4 259.5 256.2 233.3 245.6 247.6 266.1 274.4 277.4 285.8 279.8 303.6 299.3 285.2 279.8 274.9 279.7 305.7 307.8 319 340.6 333.4 333.9 325 319.7 314.3 307 299.9 280.1 271.1 258.4 280 282.4 276.9 268.7 261.9 257.2 253.7 248.9 230.3 221 214.4 214.1 204.7 196 189.5 180.7 166 161 167.3 161.2 174.6 177.4 168 161.8 153.2 127.9 106.8 92 80.5 79.3 79.5 71.2 60.8 57 49 44.6 40.4 37.5 36 36.1 35.6 35.5 34.9 32.4 34.5 34.7 36.5 41.4 50.1 67.1 81.2 112.1 143.1 164.5 192.7 226.8 272.8 323.9 380.1 383.1 374.4 364.5 342.5 322.4 297.5 279.1 259 251.6 239 232.2 229.9 213 216 214.5 200.3 195.8 198.5 194.2 204.9 202.7 210.1 223.4 251.9 256.4 254.8 262.9 270.9 272.2 294.8 300.8 297 280.3 266.2 264 265 290.1 314.9 330.9 349.6 359.3 353.8 379 400.4 406.1 404.9 408.7 415.1 414.1 414.6 415.6 414.9 414.5 414.3 415.4 418.5 420.9 416.6 413.7 404.9 387.1 370.7 359.2 353.1 341.5 336.9 329.9 319.4 297.3 273.9 254.9 238.2 229.3 209.2 199.7 190 179.5 166.9 145.7 128.1 135.3
62.8 78.7 79.4 58.5 42 39.1 50 51.8 48.8 43.3 51 51.8 63 62.7 64.6 66.2 86.7 88.2 101.7 106.4 115.8 125 134.4 131.6 150.1 171 182.9 190.6 206.6 214.4 224.2 220.6 212.9 216 225 235.8 247.7 253 255.7 255.2 276 276.7 268.8 263.8 265.2 268.8 291.9 296.3 311.4 328.7 322.4 318.4 314.8 307.3 299.7 292.8 286.4 267.3 259.5 243.5 259.8 271.1 261.5 253.7 253.9 240.3 237.1 242.9 220 203.9 192.9 195.3 191.2 180.8 175.3 167.3 152.7 145.2 147.8 150.8 159.4 163 161.1 158.6 148.4 120 93.7 78.2 75.2 71.8 69.9 57.9 52.1 44.3 39.8 39.1 39.3 36.6 35.6 35.3 35 35 34.8 34.5 34.8 35.9 39.4 50.3 62.8 79.1 99.9 133 170.7 186 228.7 281.6 316.1 366.1 398.1 400 391.7 376.8 350.1 324.5 302.7 282.8 269.5 264.4 246.3 238.8 236.3 230.6 231 229.7 221.6 224.7 222.3 213.2 220.5 223.4 228.8 248.9 279.8 284.1 288.9 293.8 299 310.5 325.7 330.9 318.3 307.3 301.8 297.2 308.5 326.9 337.5 348.5 367.4 383.6 379.2 378.2 394 397.2 405.1 407.9 406.4 404.8 405.1 407.1 403.4 402.4 408.8 414.4 410.8 411.9 409.3 410.5 404.2 387.3 362 350.6 346.5 325 318.2 316.5 294.7 271.2 252.2 240.3 232.6 218.8 198.2 188.4 182.9 163.2 148 137.5 104.6 110.9
46.4 52.3 71.5 57.7 22.6 27.7 22.8 26.5 24.7 19.4 20.9 26.7 27.7 30 33.8 36.3 47.8 52.4 61 70.3 78.2 91 96.6 103.7 120.4 132.5 147.3 159.7 178.4 188.5 197.2 190.1 189.1 187.2 194.7 204.3 209.6 214.8 222 227.4 244.8 254.1 248.6 250.4 256 263.1 278.9 286.6 297.7 315.8 308.5 302.6 299.5 293.8 290 279.7 272.1 254.2 242.9 222.1 236.9 252.4 252 238.1 232.3 225.3 216.4 224.5 209.9 192.8 187.8 180 175.7 170.6 159.4 155.8 142.3 126.7 135.2 137.7 144.6 156.1 156.9 158.4 140.6 114.9 87.7 69.6 65.4 66.2 62.5 52.6 43.8 40.4 38.7 38 37.8 35.8 35.3 35 34.5 32.4 34.4 34.7 35.7 38.5 47.5 61.5 77.9 92.5 116.9 150.2 187.4 209.8 257.2 307.7 359.6 403.2 420.4 418.8 412.4 384.6 357.1 328.7 310.5 296.4 279.5 269.8 259.9 252.8 242.7 242.8 254.4 255.9 255.1 260.1 247 248.6 258.8 257.4 262.1 283.7 293.7 307.2 318.2 330.4 332.3 340.6 354.2 353.7 343.2 338.4 336.2 345.9 367.1 366.6 368.7 376.9 397.8 398.6 399.6 392 400.3 397.8 403.2 403 400.2 399.9 400.5 403.4 399.4 398.3 400 404 404.9 405.5 400.5 397 388.8 376.7 361.3 336.9 323.4 312.5 303.1 283.1 267.9 248.3 238.6 231.9 219.6 208.7 193.6 173.3 160.4 146 129.3 116.8 110.5 91.9
26.9 27.7 41.4 35 13.3 7.8 6.6 7.1 6.7 7 7.9 11 15.6 17.1 11.9 9.6 26.7 27 32.2 35.9 55.7 68.5 77.5 78.8 92.9 106.1 122.9 129.2 140.8 157.7 169.9 163.5 163.8 155.2 160 173.1 186.2 185.2 192 187 208.8 235.4 229.3 232.1 236.6 248.5 265 272.2 282.2 299.3 297.9 291.5 287.2 287.6 279.6 270.8 264 241.2 228.2 212.9 211.2 222.3 229 220.3 210.1 204.4 198.3 201.1 192 178.8 175.3 168.9 162.8 159 150.1 140.4 131.4 115.4 121.1 126 132.4 147.6 142.9 142.4 132.5 103 79.4 63.5 60.7 57.5 56.7 45.9 42.4 38.3 37.4 36.8 36.3 35.3 33.8 33.2 34.9 34.7 35 35.3 36.9 45.1 62.2 78.1 91.2 108.9 133 159.4 197.8 226.3 273 328.6 397.5 417.6 426.2 425.5 408.9 388.1 376.4 360.3 336 307.8 291.9 281.3 270 264.6 252 259.1 268 275.9 291.2 285.7 270.1 274.2 285.2 287.5 302.9 307.5 321.4 346.4 359.3 369.9 370.6 378.3 377.1 373.2 375.3 367.8 380 391.4 400.4 398.2 395.6 398.3 400.7 407.2 405.2 410.6 411.1 401.7 402 400.3 399.1 394.9 393.3 392.3 397 394.7 385.6 383.9 390 387.5 386.4 378.8 375.1 360.5 346.5 323.7 318 310.4 289.7 267.7 253.9 242.8 235.1 226.4 212.1 205.3 182.3 171.7 161.5 147.9 137.1 125.5 109.3 89.3
8 8.2 14.2 8.3 6.3 4.9 4.4 5 4.9 5.8 6.3 6 6.3 14.9 8.1 7.2 10.9 14.2 18.8 20.6 26.9 41.1 50.7 52.1 55.9 68.2 94.8 97.9 108.2 123.9 143.8 141 144.9 148.4 132.8 133.6 153 166.9 164.7 162.1 185.5 205.9 204.6 210.2 216.4 232.6 239.8 248.4 261.2 275 275.3 270.2 271.9 275.9 263.9 256.3 249.6 227.7 216.2 204.2 199.8 200.1 204.9 200.2 192.3 182.7 183 177.6 171.6 162.7 162.7 158.7 151.2 146.5 138.3 123.8 114.6 106.1 113.8 115.2 123 122.3 126.3 120.9 116.3 88.4 67.9 53.7 53.5 52.6 49.7 41 39.7 37 36.2 35.7 35.2 33.1 33.1 33.9 35.2 35.2 35.5 38.6 44.4 57.1 76.9 90.5 105.9 124.6 149.2 180.4 211.8 242 287.1 357.2 408.4 424 425.6 427.8 418.8 398.6 392 378.5 354.4 338.4 326.3 306.7 299.1 294.2 275.4 279.6 291.9 303.8 305.5 303.9 299.4 305 307 308.2 323.4 338.5 357.4 376.4 398.7 400.6 402.5 407.4 394.9 400 402.2 405.7 414.3 414.8 418.6 414.6 412.3 414.3 407.8 410 405.9 406 401.8 398.3 399.8 395.3 387.9 389.2 390.5 385.1 391.6 390.3 381.2 369.6 362.9 361.3 368.7 374.9 366.7 345.4 324.7 314.2 304 282.5 266 257.9 240.7 233.7 226.8 217.1 207.4 204.4 196.2 178.5 152.6 143.8 130.5 116.5 103.1 82.6
5.5 6.4 8.3 6.7 4.7 3.6 5.6 5.1 4.7 4.8 5.3 5.2 5.2 5.3 6.9 7 7.1 6.2 11.4 15.2 9.8 14.5 24.3 29.6 32.8 41.7 49 67.7 77.5 88.6 110.8 118.6 118.5 121.4 125.8 115.8 126.8 127.9 133.3 139 147.5 167.3 176.9 181 195.7 209 213.4 223.7 237.3 242.7 250.1 250.2 255.2 254.8 250.1 243.6 240.5 217.8 207.6 195.7 176.2 185 183.7 177.3 173 165.6 170.1 168.2 158.3 154.2 152.7 146.5 140.9 134.4 124.9 112.4 101.4 97.5 100.8 99.1 96.2 103.9 114 109.9 82.6 62.9 54.6 46.2 45.1 45.4 43.3 37.1 35.7 36.1 36 34.5 33.1 34.3 34.6 35.3 35.7 36.5 38.3 46.6 55.2 71.1 92.2 108.4 125.2 147.4 172.4 207.3 237.4 265 308.8 346.7 379.4 421.1 447 455.5 440.6 418.7 404.1 376.1 360.4 351.8 343 321.6 317.4 307.6 299.1 297.3 301.5 308.5 324.8 317 314.7 323.8 321.7 346.8 357.8 390.2 395.3 406.5 429.2 427 423.7 420.2 417.8 423.8 431.6 435.7 434.9 430.5 429.1 428.3 418.6 424.3 417.1 408.7 404.2 402.3 399.7 388.9 384 384.2 383.5 385.1 386.7 377.2 370.6 365.3 362.3 353 351.6 349.8 356.7 355 343.2 325.5 309.3 297.2 273.6 259.5 247.7 240.1 234.1 234.5 233 228.4 219.2 200.3 184.7 161.8 143.2 133.3 112.2 98 86.9 67.2
2.4 3.5 5.3 4.8 4.3 3.3 3.9 4.9 4.5 4.5 4.7 4.7 4.8 5.2 5.2 4.9 4.7 4.3 4.1 4.6 6.6 10.6 7 8.1 11.1 21.6 25.5 38.9 52.9 60.5 76.2 95.1 99 93.1 99.3 102.4 115.8 107 107.5 125.9 132.2 132.2 138.3 149.1 171.9 184.6 187.2 192.1 203.3 219.1 233.6 232.3 233.1 234.3 232.5 229.3 226.3 208.1 196.9 181.3 166.3 170.1 173.8 166 157.4 154.9 157.7 158.7 150 146.9 140.3 137.7 134.2 127.1 115 103.6 89.7 87.1 89.8 85.5 86.6 91.5 95.7 85.9 65.9 44.7 38.6 35.2 35.5 35.9 35.2 34.6 35 35.6 35.6 34.4 33.1 34.1 36.4 37.5 38.2 38.6 47 57.7 71.5 88.2 103.6 123.7 146.5 172.2 206.6 236.1 262.8 292.6 328.5 363.5 421.1 439.7 462.9 467.9 458 441.8 419.4 393.5 379.4 365.8 352.5 347 335.2 329.5 336 327 335 326.2 333.8 330.7 324.3 330.9 345.5 369.9 394.5 406.6 423.4 433.1 434.8 437.2 431.9 429.2 437.8 447.5 446.7 449 446.5 446.1 445 433.6 425.4 422.2 418.9 413.9 399.8 398.8 397.6 388.5 386.6 374.8 373.4 373.1 366.1 362.1 359.1 354 349.5 335.4 329.5 341.7 337.6 331.7 315.5 293.5 280.1 271.5 262 248.8 241.1 235.3 234.1 239 238.1 219.9 199.1 187.1 171.2 141.3 121.4 99.5 96.6 79.3 55.4 50.8
2.1 2.4 2.6 3.6 3.7 -1.7 3.3 4.3 3.8 3.2 3.6 4.6 4.7 5 4 3.4 2.8 2.7 2.7 2.9 4.6 4.6 4.5 4.2 4.6 5.4 7.5 27.1 30.5 33.5 45.5 66.6 69.9 71.7 79.6 78.7 88.5 92.6 96.6 96.8 104.3 109.6 104.2 117.9 131.5 145.8 158.3 160.7 167.5 190.4 213.3 211.9 211.1 209.8 215.3 213.4 208.9 195 186.7 172 158 155.6 160 153 151.1 149.7 153.3 157 149.5 131.9 130.3 125.4 125.7 115.8 105.3 88.7 78.8 76.4 77.3 75.6 69.5 77.3 83.8 73.1 48.2 34.8 33.9 33.3 32.5 32.5 32.5 32.5 32.5 32.5 32.7 34.1 33.3 34.7 38.1 40.9 44.5 48.3 61.8 69.2 86.3 110.7 131.2 145.8 167.7 199.6 232.8 255.7 287 323 357.1 392.7 440.8 450.2 464 476.2 463.6 456 436.1 418.7 394.9 381.4 367.1 363.9 351.4 355.5 365.2 356.1 360.6 353.7 340.6 336.1 344.8 355.3 372.8 410 423.5 439 430.6 429.3 440.4 435.5 425.6 432.5 435.7 442.7 443.7 446.9 442 446.5 438.4 436.6 424.3 415.1 414.5 409.6 401.6 390.8 392.3 384.5 368 366.6 363.5 361.8 354.4 348.5 344.2 343.3 331.3 318.9 322.6 317 315.2 305.5 308.7 291.2 277.9 262.4 254 237.6 233.4 232.8 236.2 235.9 222.7 197 181 160.4 135.5 123.5 103.9 80.4 60.2 48 32.5 31.6
2.2 2.2 1.6 1.6 2.3 -1.7 3 4.1 4.3 2.7 4.1 4.4 4.5 4.1 3.2 2.9 2.5 2.6 2.9 2.6 4.1 4.1 3.9 4.1 4.6 5.1 5.3 11.5 17.9 20.3 30.3 46.4 55.8 61.1 46.2 63.5 63.1 71.3 70.3 79.7 78 87.9 85.8 90.9 103.5 112.4 132.5 133.9 138.7 165.4 176.1 185.6 187.8 184 191.9 193.9 193 189.3 164.8 160.4 157.4 137.3 141.1 141.7 143.4 137.9 145.4 156.7 146.8 125.1 122.5 114.2 110.6 100.1 86.1 76 68.8 61 59.2 56.6 53.1 60.2 61.4 57.7 39.8 34.2 34.3 32.5 32.5 32.5 32.5 32.5 32.5 32.5 32.5 33.4 34.8 37.3 41.6 48.8 52.1 59.5 71.2 85.9 109.5 137.2 155.8 179.8 204.9 225.8 262.8 281.3 310.3 361.6 387.6 437.9 458.1 467.2 469.5 472.6 471.5 461.4 444.6 435.1 422.6 398.6 390.7 381.7 380.9 385.1 393.7 392.9 387.3 379.9 360.9 349.8 359 386.1 394 426.4 446.3 455.9 454.2 449.6 430.2 428.2 425.7 414.6 422.9 431.9 431 430.3 425.7 420.7 434.2 428.5 419.1 407.9 394.6 393.9 392.4 385.9 386.7 370.8 356.3 353.9 349.2 336.3 335.6 332.6 321.9 316.7 314.3 299.9 299 302.1 306.4 307.3 300 269.8 260.6 246.2 234.3 229.5 228.9 217.5 229.7 223.4 203.9 172.7 161.3 132.8 107.1 93.3 79.4 57.2 40.7 31.6 21.6 21.6
2.2 1.8 1.2 0.2 0.3 -1.7 3.2 3.9 3.9 2.9 3.4 3.8 3.7 3 2.4 2.4 2.3 2.5 2.3 2.6 2.7 2.7 3.3 3.8 4.3 5 5.7 7 7.3 11.1 17.2 31.8 40.4 46.6 27.9 47.8 45.8 50.5 64.5 62.2 68.3 69.8 76.5 71.1 85.6 87.7 94 102.7 112.2 138.1 145.6 154 166.6 160.4 167.5 174.9 172 170.4 160.9 149 144.3 129.5 131.5 131.2 134.3 130.5 136.5 141.4 132.8 122.1 110.5 105.3 101.9 91.5 74.6 64.5 59.3 56.8 45.9 43.8 40.9 41.9 43.3 31.9 32.5 33 33.1 32.5 32.5 32.5 32.5 32.5 32.9 34.2 33.4 34.4 37.4 48 58 65.8 64.1 72.8 85 105 128.8 162.4 185.4 203.9 228.6 254.6 290.8 312.9 344 392.7 416.3 464.5 473.6 480 488.4 484.9 482.5 470.2 458.3 448.9 444.6 428.1 415.8 403.6 406.3 415 420.9 417.6 412 405.9 385.4 366.6 380.1 403 417.4 439.8 450.5 449.9 454.5 449.3 440.6 424.8 407.8 396.4 394.7 396.3 409.8 408.8 408.7 406.2 403.7 407.1 405.3 395.4 382.8 380.4 382.3 377.3 362.4 338.5 330.1 333.1 325.3 313.1 314.2 308.9 305.1 296.7 294.4 297.2 302.4 308.5 305.7 298.3 267.2 245.7 237.4 230.5 228.3 226.9 216.6 198.6 194.7 189.8 166.9 140.4 125 118.7 82.3 58.5 45.3 29.7 26.1 24.5 14.6 9.2
2 1.4 0.9 -0.2 -1.2 -1.7 3.3 3.8 3.8 3.8 -1.7 -1.7 2.9 2.9 2.6 2.3 2.3 2.3 -1.7 2.3 3.1 3.5 3.8 3.8 4.3 5 5.7 6.9 7.2 8 10 27.7 28.8 21.4 18.7 24 35.3 32.9 47 50.3 49.6 50.2 56.3 56 64 68.3 69.2 78.5 80.2 107.2 118.7 136.9 142 143 161.5 155.9 154.1 151.9 148.9 140.3 127.1 122.7 119.7 124.8 124.5 121.4 120.1 125.8 127.9 116.6 106.9 97.6 92 78.9 67.7 63.2 62.2 58 44.4 29.2 28.3 31.4 34.5 35 38.7 35 36.8 32.6 32.5 32.5 32.5 32.5 34.7 34.9 35.1 39.5 49.9 66.2 79.4 82.6 84.3 89.8 102.4 120.7 147.5 177.2 202.2 230.2 266.6 288.6 321.6 341 388.3 421.3 436.2 464.6 478.7 488.9 495.2 493 481.6 477.9 466.9 459.8 448.2 443.1 438 428.6 425 427.8 433.1 432.6 431.1 422.5 407.2 389.4 388.7 416.1 430.2 439 446.3 450.8 448.9 440.5 430.2 421.1 404.4 390.4 386.7 378.1 369.8 372.8 378.7 372.8 371.1 366.5 374 366.3 355.8 360.5 361.5 349.7 336.9 327.5 315.3 307.4 297.7 295.1 294.2 300.9 291.3 293.7 293 305.1 310 309.4 299.8 283.2 249.1 230.3 219.8 217.7 207.3 207.2 189 178 167.2 144.8 129.2 116.5 101.4 79.6 59.1 34.1 23.2 16 17.1 15.8 8.5 2.5
1.6 1.1 0.5 -0.5 -1.6 2.4 3.2 3.1 3.2 -1.7 -1.7 -1.7 -1.7 -0.1 -1.7 -1.7 -1.7 -1.7 -1.7 2.7 2.9 3.5 3.9 4 4.5 5.1 5.6 6.6 7.3 8.1 9.1 10.8 13.4 14.4 14.5 13.7 13.1 15.8 24.7 37.4 36.6 36.8 44.3 48.4 54.8 55.3 52.6 61.6 65.6 92.3 103.6 115.8 133.7 139.1 151.3 149.7 146.5 142.2 138.3 135 124.7 113.2 116.4 119.9 117.2 111.9 104.9 107.5 111.5 105.2 101.3 89 87 70.8 65.9 66.8 67.2 53.5 27.2 28.8 30.4 39.1 41.3 61.1 48.8 38.4 40.8 35.4 35.7 35.4 35 36.1 44 43.3 56.1 65 76 85.2 97.4 100 104 112.7 112.9 140.3 165.8 198.5 221 255.4 289.7 321.1 346.2 371.2 420.9 429.7 442.8 443.6 465.6 482.3 491.3 490.4 481.6 469 467.5 466 456.5 454.2 440.4 442.1 441 445.7 450.6 452.2 450.7 436.6 418.6 410.9 409.1 407.8 419 433.9 439.7 434.4 429.7 425.5 419 403.4 394.2 382.4 376.7 363.1 360 356.4 355.2 353.8 349.4 343.6 344.5 335.3 335.2 330.9 328.4 328.5 324.7 309.2 300.2 296.6 288.2 282.4 280.3 281.2 281 286.8 300.3 310.1 313.1 297.1 280.8 260.1 229.2 211.6 202.9 197.5 187.3 184 169.4 157.9 142.7 123.6 107.3 83.8 68.4 51.3 32.2 13.4 7.9 2.5 3.2 5.7 2.5 2.5
1.3 0.7 0.1 -0.9 -0.5 2 2.2 2.4 3 -1.7 -1.7 -1.7 -1.7 -1.7 -1.7 -1.7 -1.7 -1.7 -1.7 2.3 2.7 3.8 4 4.2 4.8 5.2 5.8 6.6 7.3 8 8.9 9.9 10.7 11.5 11 11.9 12.7 14.8 25.7 31.2 35.7 40.9 41.9 44.9 45.6 47 40.6 48.6 52.1 74.9 91.1 105.9 121.3 122.5 131.9 133.1 136.1 134.3 131.6 127.9 116.2 104.3 108.3 110.7 109.7 106.7 101.3 102.2 103 101.2 99.2 86.1 76.4 64.9 61.1 68.3 63.3 48.8 27.6 28.8 32.9 55.9 51.2 48.4 44.7 43.4 41.9 36.8 36.4 37.6 38.7 43.7 56.3 62.2 74.5 83.6 102.9 107.7 113.4 118.2 123 139 143.7 158 186.8 215.4 239.5 274.2 298.7 353.4 372.1 384.2 416.2 433.7 439.3 437 446 456.3 465.6 472.7 466.6 462.4 457.4 448.3 439.6 460.9 454.9 446.7 454.1 452.7 459.2 459.6 453.2 444 432.7 429.1 418.5 410.7 409.3 433 434.2 430.5 418.6 412.2 404.2 391.6 378.5 365.5 363.9 358.6 346.9 346.1 339.7 334.1 330 331.9 328.2 317.3 306.2 305.1 311 314.8 308.8 294.7 291.9 293.6 286.2 278.4 285.6 280.9 272.4 284.8 298.7 300.3 287.4 273.9 259.6 236.8 210.5 197.9 191.1 185.2 169.2 156.1 146.3 131 111.4 93 72.8 61.4 48.6 29.9 11.9 4.5 2.5 2.5 2.5 2.5 2.5 2.5
0.9 0.4 -0.3 -1.3 1.1 1.4 1.2 0.8 -1.7 -1.7 -1.7 -1.7 1.5 2 2 -1.7 -1.7 -1.7 -1.7 2.4 6.8 4.2 4.8 4.4 4.8 5.2 6.2 6.5 7 8 8.3 9.5 10.3 10.4 10.6 12.2 13.1 15.6 25.1 40.8 50.5 57.8 59.2 57.5 46.1 39.6 29.7 42.7 44 60.9 86.6 110.2 113.9 110.4 118.1 115.2 124 123.9 120.7 112.6 106.1 92.2 96.9 104.5 103.5 101 99.7 106.1 101.2 91.9 90.9 79.8 62.2 51.4 53.9 59.2 54.3 38.4 25.9 27.6 30.6 46.5 46.7 51.5 46 48 46.9 41.9 39.7 41.3 45.7 56.6 76.1 86.7 94.1 104.6 115.6 131.4 139.1 139.5 144.4 167.5 172.7 183.8 205.3 235.7 259.3 278.8 325.1 357 373.2 380.3 409 426.1 431.5 431.9 430.8 427.3 430 430.4 431.4 432.8 435.5 444.6 441 456.3 463.7 464.7 461.9 459.9 470.4 471.5 467.6 455.4 444.6 441.1 438.1 434.3 414 423.4 426.5 430.2 422.6 409.8 402.9 389.3 371 358 343.4 339.4 339.4 333.8 329.5 322.2 314.4 309.9 306.4 301.9 302.3 314.3 314.7 312.4 294.5 274.2 276.2 271 283.9 287.7 293.2 282.9 275.1 273.9 277.8 276.5 263.2 254.4 236.4 212.2 189.3 172.7 166.8 161.5 150.6 134.5 124.8 106.8 84.8 64 48.6 42.7 27.1 8 2.5 2.5 2.5 2.5 2.5 2.5 2.5 2.5
0.6 0 -0.6 -1.7 0.6 0.7 0.3 -0.2 -1.7 -1.7 -0.3 1.1 2.4 2.4 2.4 2.5 -1.7 -1.7 -1.7 -1.7 -1.7 4.3 4.3 4.5 4.8 5.5 5.1 5.6 6.9 8.1 8.4 9.9 9.8 8.3 9.7 15.9 30.6 42 59.2 51.2 62.5 59.4 58.5 50.1 46.2 36.4 23.5 31.5 34.9 51.6 78 105 107.6 99.7 93.9 106.5 120.4 118.1 110.8 103.9 89.4 75.7 79.9 91.2 97 89.5 92.2 102.5 94.1 86.7 79 68.7 50.2 41.1 45.5 51.9 48.7 34.6 25.9 26.1 28.3 38.4 43.4 54.9 60.3 68.4 67.5 58.6 56.4 49.1 60.9 75.8 93.8 116.5 114.4 119 131.5 148.4 152.7 156.8 166.5 191.6 197.8 211.4 221 238.1 269.7 290.1 329.4 347.7 369.8 375.3 398.3 420 426.6 428.1 418.5 415.9 415.9 415.9 415.9 428 454.5 454.3 448.2 449.6 459.2 465.2 464 466 473.6 473.3 474.9 467.7 466.5 465.7 458.5 452 432 416.1 423.5 426.7 419.2 407.1 397.9 386.2 372.2 350.3 332.6 323.9 327.7 325.8 319 318.1 313.7 303.8 295 296 292 302.9 290.3 282.1 272.9 256.2 269.2 269 271.3 282 279.4 273.6 270.9 254.7 250.1 241 239.4 223.4 199.3 175.4 162 155 147.2 139.3 127.2 109.6 100.3 79.9 53.9 36.1 28.4 19.5 4.3 2.5 2.5 2.5 2.5 2.5 2.5 2.5 2.5 2.5
0.2 -0.4 -1 -0.5 0.1 -0.3 -0.7 -1.7 -1.7 -0.7 0.5 1.6 2.4 2.4 2.4 2.3 -1.7 -1.7 -1.7 -1.7 -1.7 3 2.7 3.5 4.1 5.6 5.5 5.8 6.5 6.8 8.5 11.2 8.8 7.1 6.5 21.9 15.2 18.1 38.7 51.9 59.6 64.8 60.7 44.4 38.5 26.5 17 20.1 23 44.5 71.8 87 88.7 83.8 82.4 97.6 107 112.4 100.1 91.5 82.6 69.4 60.3 62.9 77.7 81.5 75.8 85.7 81.9 77.2 75.5 59.9 43.5 35.4 41.3 43.3 37 28.4 25.8 23.9 27.2 34.5 51.2 75.8 87.2 86.2 83.6 82 78.8 63.8 87.1 107.5 112.7 122.1 125.4 138 150.1 167 174.9 179.2 192.1 212.1 231.8 248.6 253.2 265 289 304.9 320.6 339.5 362.1 370.7 383.9 405.8 418.5 421.5 419.2 415.9 419.8 415.9 415.9 435.7 456.2 458.5 455.5 448.6 458.8 461.9 461.9 468.3 470.8 474.7 483.8 474.2 474.7 476.8 466.2 460.6 440.7 418.3 418 426 417.5 403 385.5 372.8 349.6 328 318.1 315.9 319.9 317.4 314.4 298.2 287.8 285.6 291.8 284.5 270.5 274.8 264.2 256.6 255.9 248.5 256.9 261.2 262.1 263.6 265 262.9 265.3 251 229.2 218.1 204.9 198.4 170.5 151 138.6 134.9 125.1 115.4 102.7 85.2 64.8 47.2 32.6 19.5 7.7 2.5 2.5 2.5 2.5 2.5 2.5 2.5 2.5 2.5 2.5 2.5
-0.2 -0.7 -1.4 -0.8 -0.8 -1.2 -1.6 -1.7 -1.7 -0.3 0.9 2.1 2.4 2.4 2.4 2.3 2.7 -1.7 -1.7 -1.7 -1.7 -1.7 -1.7 3.1 4 5.4 5.5 5.4 5.1 6.4 8 13.1 6.9 6.5 5.9 5.9 5.4 6.5 24.8 35.1 45 52.8 51.5 39 27.7 16.8 11.1 13.4 20 51.8 65.9 68.8 78.5 65.9 69.6 79.5 89.2 97 89 81.1 72.8 64.5 44.7 47 52.6 64.4 56.5 59.3 66.8 58 60.2 47.1 30.7 35.1 41 47.8 37.1 28 24.5 23.3 26.7 39.1 64.3 87.7 103.8 109.5 102.6 97.4 85.3 85.2 108.5 121.8 137.4 139.8 148.5 166.8 185.2 197.4 200.5 207.3 225.6 245.7 268.1 278.9 290.3 302.1 315 326.7 341.5 364.5 376.5 377.2 389.7 392.1 412 418.8 416.2 415.9 415.9 421.6 421.9 421.8 454.9 457.3 455.7 448.4 453.7 452.8 456.1 460 464.8 471.7 478.1 477.2 479.7 482.4 471.3 459.6 444.1 425.6 406.7 412.5 401.6 389.7 368.3 355 336 316 304.4 294.9 295.7 293.4 290.2 281.7 275.2 270.5 274.2 265.9 262.4 248.2 246.5 249.2 252.2 242.2 245.3 254.4 248.8 253.4 256.8 255.2 248.7 243.7 231.4 214.1 189.7 171.2 149.8 137 123.2 111.9 96.9 91.8 74.7 60.1 45.3 28 20.7 2.5 2.5 2.5 2.5 2.5 2.5 2.5 2.5 2.5 2.5 2.5 2.5 2.5
-0.5 -1.1 -1.7 -1.7 -1.7 -1.7 -1.7 -1.7 -0.8 0.2 1.3 2.4 2.4 2.4 2.4 2.4 2.4 4.7 6.6 -1.7 -1.7 -1.7 -1.7 2.4 3.9 5.4 5.5 5.4 4.6 6.7 7.3 10.6 6.8 6.3 5.9 6 5.2 5.6 4.9 17.2 25.9 32.1 41 29 19.5 9.5 8 9.4 13.7 40.6 53.8 58.4 58.2 54.4 67.1 72.5 81.9 80.9 77.5 70.8 62.7 51.3 34.7 27.8 29.8 47.2 45.9 47 45.5 40.5 39.9 34.2 27.5 30.4 45.8 49.9 38.3 27 23.5 22.1 36.6 56.6 83.9 107.5 122.7 127.5 119.8 113.2 106.1 111.2 129.7 144.5 156.4 174.1 183.4 191.4 216.4 226.4 237.7 239 255.8 280.2 304.5 315.7 326.8 325.8 330.4 344.4 351.7 368.3 385.6 391.9 387.5 389.8 394 400.6 426.5 426.1 415.9 415.9 429.3 423 446 451.6 445.5 444.4 450.5 455 462.4 463.9 456.7 453.5 468.9 470.2 470 473.9 464.5 453.3 441.3 412.3 401 385.6 381.5 374.9 360.6 341.7 317.2 300.9 285.1 274.7 268.7 275.1 275.7 275 264.4 251.7 253.1 242.1 238 245 241 244.5 239.5 231.1 233.1 235.3 235.4 236.1 247.1 240.6 246 240.7 231.8 203.9 185.2 154.4 118.4 119 102 90.8 80.4 68.9 55.7 39.5 25.7 13.1 2.5 2.5 2.5 2.5 2.5 2.5 2.5 2.5 2.5 2.5 2.5 2.5 2.5 2.5
-1.7 -1.7 -1.7 -1.7 -1.7 -1.7 -1.7 -1.7 -0.5 0.9 1.8 2.4 2.4 2.4 2.4 2.4 2.4 4.3 14.4 22.9 15 -1.7 -1.7 -1.7 -1.7 5.1 5.4 5.4 4.5 7.3 10.4 15 7 6.4 5.5 5.3 5.1 5.3 5.7 5.1 6.3 16.7 18.6 13 8.8 7 7.6 8.5 11.2 37.8 48.6 38.3 44.1 49 62 70.6 76.4 76.3 72.7 67 59.8 41.8 25.7 16.5 18.6 24.2 27.4 32.3 30.4 25.5 23.9 23.3 23.7 26.5 34.7 36.6 27.7 22.6 22.1 35.1 58.6 77.1 110.6 127.2 138.6 137.6 140.9 132.9 130.7 136.2 157.9 176.8 190.3 199.5 207.8 222.5 241.8 262.8 269.2 269.1 280.3 313.5 341.2 345.6 344.7 337.2 335.7 350 367.3 368.6 374.1 384.6 397.4 398 396 408.2 411.5 431.1 424.2 415.9 432.3 431 425.2 444.1 442.9 436.7 438.1 444.3 454.8 457.9 449.9 444.3 454 455.2 448 444.6 427.5 429.2 424.7 412.6 402.9 387.1 361.9 351.7 341.3 331 312.4 292.2 282.1 263.8 256.8 254.6 257.5 249.7 241.2 236.7 235.3 235.9 240.6 240.2 231.8 231.4 226.7 219.8 219.9 214.6 219.7 232.5 237.4 236.7 240.2 228.6 208.4 197.7 168.6 136.2 114.9 97.1 89.7 76 65.9 54.7 38 24 12.8 2.5 2.5 2.5 2.5 2.5 2.5 2.5 2.5 2.5 2.5 2.5 2.5 2.5 2.5 2.5
-1.7 -1.7 1.6 7.6 -1.7 -1.7 -1.7 -1.7 0.3 1.3 2.2 2.4 2.4 2.4 2.4 2.4 2.4 2.7 10.4 14.9 13.4 7.5 3.8 -1.7 -1.7 1.5 2.4 3.7 4.1 6.1 11.1 18.1 10.1 6.2 4.1 4.4 4.6 4.5 4.5 4.9 5.4 6.8 8.9 7 6.4 6.6 7 7.3 9.4 23.6 35.4 25 28.6 40.9 58 67.9 71.8 72 69.5 58 48 38.9 19.7 15.7 17.4 18.2 18.8 19.6 18.5 18.9 19.9 19.4 21.2 21.6 20.5 21.9 27 30.7 32.3 46.7 78.1 101.3 126.3 144 152.2 151.8 155.8 154.7 153.6 160.4 175.9 204.1 206.8 214.9 234.8 246.2 265.2 283.5 290.1 303.5 315.9 344.6 360.8 362.4 360.1 351.4 345.3 346.1 362.5 367.1 366.3 370.6 386.5 400.9 408.6 407.9 416.6 415.2 421.2 420.1 422.3 427.3 423 427.4 436.9 434.6 444.3 441 447.3 438.9 437.7 433.2 430.8 431.8 429.7 428.6 427.3 425.5 424.7 417.8 409.5 395.1 372.2 345.8 332.7 319.3 300.4 285.1 270.5 254.1 245.6 241.3 240 234.2 233.8 234.3 238.8 235.2 228.1 223.6 224.7 217.9 214.9 207.2 212.6 214.1 220.4 225.1 228.3 235.8 218.4 203.8 198.2 169.6 143.9 129.8 105.3 94.8 79.4 66.5 50.8 44.8 28.7 13.7 2.5 2.5 2.5 2.5 2.5 2.5 2.5 2.5 2.5 2.5 2.5 2.5 2.5 2.5 2.5 2.5
2.1 6.2 10.2 20.9 16.8 18.1 2.3 1 1.9 2.4 2.4 2.4 2.4 2.4 2.4 2.4 2.4 2.3 7.3 11.9 12.4 10.3 5.5 3.8 4.6 9.6 9.1 1.5 2.6 3.9 6.4 10.7 7.5 5.5 4 3.8 4 4.5 4.5 4.5 4.8 5.5 6.7 6.5 6.6 6.5 6.7 7.1 8.7 14.4 19.1 21.1 38.4 54.2 68.6 75 70.8 68.7 61.1 48.3 36.3 26.8 14.4 14.5 15 15.1 16.7 17.1 18.2 16.7 16.2 16.2 16.5 17.4 26.1 37.8 38.4 36.7 41.7 57.4 85.3 116.2 149.3 174.3 169.7 167 178.2 183.9 180.2 186.8 196.7 205.6 212 225.1 247.4 264.7 287.3 302.5 319.8 326.2 330.6 360.6 368.1 373 371.8 360.2 351.6 348.2 354.3 358.3 370 367.1 394.3 409.4 418.4 419.1 420.7 433.3 430.2 426.9 425 430.8 424.3 428.8 426.9 420.9 444.8 447.5 438.4 428.9 425.2 416.1 419.9 430.8 426.7 426 425.7 431.6 428.3 417.2 408.3 391.7 374.4 349.5 325.5 308.7 289.8 272.6 262.5 250.4 239 233.8 232.9 234.1 234.9 238.2 235.8 226.5 219.8 223.4 220.6 214.7 202.9 202.4 204.6 212.3 217.2 224.3 223.5 202.4 193.3 181.7 167.2 146.3 134.9 118.8 100.4 87 68.8 57.7 41.7 24.7 15.8 9.3 2.5 2.5 2.5 2.5 2.5 2.5 2.5 2.5 2.5 2.5 2.5 2.5 2.5 2.5 2.5 2.5
24.8 30.9 41.4 44.3 32 34.2 20.5 2.5 2.4 2.4 2.4 2.4 2.4 2.4 2.4 2.1 2.3 2.4 2.1 3.8 10.6 16.5 5.8 4.7 7.7 9 17.8 12.1 1.8 3.6 4.7 6 4.5 3.7 4.2 4.1 4.4 4.9 5 5.1 5.1 5.1 5.6 6.2 6 6.2 6.7 7.1 7.8 9 10.1 11.6 26.7 42 52.4 60.5 58.2 53.3 52.5 38.9 31.2 19 14 16.6 15.2 18.8 21.9 25.5 24.9 24.3 22.8 23.1 23.7 29.4 39.9 53.3 54.1 45.3 54.5 73.1 100.3 133.9 168.3 190.7 191.7 192.8 207.5 208.9 199.1 205.3 206.8 217.5 229.3 240.9 269.3 284.6 306 329.2 341.8 347.4 353.8 366.4 377.9 379.6 375.7 365 354.3 353.8 353.5 360.8 366.1 372.9 386.6 416.6 417.5 435 438.8 431.8 443.6 438.2 437.1 422.6 424.7 426.5 428.2 417.7 412.4 422.6 417.7 403.1 409.3 415.1 414.8 406.3 417.7 418.9 419.2 427.6 421.1 410.9 402.9 384.1 364.9 344.1 319.5 297.2 276 262.4 253.2 239.3 233.9 232.8 234.5 236.1 236.5 229.5 223.5 211.4 210.6 215.9 211 199.5 190.1 196.7 200.9 208.2 192.1 196.2 186.8 174.6 167.8 153.4 138.8 132.6 122.8 103.5 91.3 74.4 62.2 47.5 27 16.8 12 8.7 3 2.5 2.5 2.5 2.5 2.5 2.5 2.5 2.5 2.5 2.5 2.5 2.5 2.5 2.5 2.5
45.6 60.9 61.2 55.5 63.2 48.4 37.7 21.6 7.6 3.1 2.4 2.4 2.4 2.4 2.4 2.4 2.4 2 2.4 1.9 3.2 5.6 5.1 5.4 7.9 20.5 24.9 16.1 4.5 1.8 3.5 3.9 3.6 4 4.5 4.8 4.9 5 5 5 5.4 5 5.1 5.5 6 6.5 6.7 7.1 7.5 8 8.6 9.1 14.6 30.1 31.6 25.8 36.5 36.9 26.1 20.2 14.7 13.1 15.9 17.5 17.9 23.1 32.5 35.4 33 30.5 29.6 30.7 32.3 36.8 48.6 65.3 70.5 57.7 67.1 84.8 109.3 139.2 178.5 197.8 207.5 208.4 226.9 221.7 215.2 218.2 217.5 237.3 258.4 264.6 286.6 316.7 335.8 347.3 358.3 366.7 373.8 379.4 393.8 396.4 387.7 378.3 368 366.1 355.6 356.6 365.6 374.7 384.6 408.2 427.2 433.7 445 445 443.6 457.9 443.8 435.1 426 430.2 424.7 419.8 411.9 400.6 398.5 395.8 387.9 394.4 403.2 389.1 381.7 392.5 393.1 406.2 399.2 384.6 381.4 361.8 348.7 334.5 318.1 296.3 266 256.9 238.7 233.3 241.5 237.4 237.1 242.8 236 224 206.8 199 200.1 198.3 193.7 192.1 182 180.8 185.3 182.2 169.5 158.6 153.8 144.1 142.1 133.2 130.9 121.4 108 89.3 79.8 67.7 48.6 38.3 29.8 16.5 12.4 5.2 2.5 2.5 2.5 2.5 2.5 2.5 2.5 2.5 2.5 2.5 2.5 2.5 2.5 2.5 2.5 2.5
81.9 92.2 76.4 73.2 76.4 66.5 53.1 40.3 34.5 18.4 5.6 5.6 4.1 2.4 2.4 2.4 2.4 2.4 2.4 2.4 2.9 9.7 5.9 6.3 16.7 27.1 37.6 30.2 23.3 9.9 2.1 3.8 4.1 4.4 4.8 4.8 4.7 4.9 4.9 4.9 5.3 5.1 5.3 5.6 6.2 6.6 6.9 7.7 7.8 7.9 8.4 8.4 10.3 12.4 12.3 10.9 13.8 14.5 12.7 11.6 12.2 14.8 16.2 17.8 19.1 28.8 42.7 44.4 40 39.9 43.9 41.2 42.6 45.5 61.9 76.4 78.2 77 78.8 91.9 117.6 142.3 175.4 205.8 219.1 235.9 232.1 225.9 223.6 229.2 240.4 252.2 278.5 281.8 306.5 340.8 357.7 365.8 369.5 378.2 379.7 389.5 399.7 398.8 399.8 395.6 388.4 380.5 370.8 364.8 370.8 376.1 387.1 392.5 417.1 435.2 443.6 452.3 448.3 451.5 457.6 446.5 435.2 432.1 427.3 415 400.1 384.5 379 373 370.8 376 383.9 374.8 367.9 363.1 350.9 358.1 365 351.3 353.6 339.5 322.8 313.1 295.7 272.6 253.6 231.2 230.8 243.2 246.1 241.4 234.9 227.7 216.1 212.7 204.8 187.6 185.3 189.1 184 171.6 165.9 161.5 158.6 150 134.9 133.6 132.9 131 121.7 120.4 112.1 99.1 82.8 77 67.1 49.9 37.4 25.5 20.1 8.2 2.5 2.5 2.5 2.5 2.5 2.5 2.5 2.5 2.5 2.5 2.5 2.5 2.5 2.5 2.5 2.5 2.5 2.5
93.4 99.2 97.3 92.6 87.8 78.9 65.3 51.5 48.4 35.6 19.4 11.8 14.1 8.9 6.8 7.8 8.1 9.9 3.5 2.4 1.4 5.9 5.8 6.3 16.2 26.2 34.8 32.4 34.7 29.1 12.4 5.7 2.1 4.5 4.4 4 3.9 4.3 3.6 3.3 4.9 4.6 4 5.7 5.5 6.3 6.7 7.7 8.9 9.6 10.3 10 9 9.6 9.4 10.2 12.2 12.9 14.2 16.7 16.8 15.5 17.5 19.1 26.2 33.7 60.6 62.5 52.4 49.8 51.4 48.7 57.1 60.8 70.3 81.5 82 87.6 92.8 101 134 152.4 175.7 208.9 222 222 223.2 228.7 235.3 241.8 257.2 276.9 288.5 296.5 325.9 350.2 368.5 381.3 386.4 384.9 388.9 391.9 395.2 398.7 402 403.9 397.7 398.3 384.1 379.6 380.9 384.3 401.6 400.3 421.2 431.5 437.6 450.6 456.5 449.7 455.4 449.9 433.6 420.3 415.5 403 390.5 378.3 366.1 358.4 355.8 353.1 360.1 362.6 346.4 342 332 326.2 324.8 319.5 307.4 298.8 292.9 277.3 263 242.5 231.1 223.2 217.1 229.6 239.4 237 226.3 208.5 198.4 196 186.9 174.6 172.2 169 168.9 151.8 148.7 146.6 136.4 132.6 124.9 126.2 121.1 111.8 110.2 99.9 91.6 86.4 84.7 71.1 49.4 34.2 22 21 2.8 2.5 2.5 2.5 2.5 2.5 2.5 2.5 2.5 2.5 2.5 2.5 2.5 2.5 2.5 2.5 2.5 2.5 2.5 2.5
100.9 103 114.9 114 100.2 86.1 75.1 65 60.3 51.3 31.3 30.3 26.9 25.7 25.8 24.2 23.4 31.7 24.7 11.8 2.9 3.1 3.3 4.3 13.6 22.4 29 36.5 45.6 45.1 33.5 23 13.8 7.7 3.7 4.3 4 4.8 7.2 6.7 5.2 5.3 6.3 6.8 6.9 7 7.3 7.4 8.8 9.8 10.4 10.8 9.9 9.9 11.1 13.8 15.8 17 18.6 19.3 22.2 20.3 19.6 25.3 29.4 34.5 57.4 75.8 70.5 74.1 70.9 63.9 72.2 75.8 81.1 82.1 88.2 92.3 101.2 111.9 139.9 163.5 185.6 204.7 212.7 214.6 222.6 237 244.4 254.9 270.9 289.2 293.9 304.8 331.2 355.4 376.5 389.8 396 392.8 395 395.8 395.7 401.4 400 396.6 398.1 403.2 396.7 394.3 395.4 394.3 403.1 407.2 424.9 447.8 444.1 449.1 458.2 462.7 453.6 453.8 437.4 421.5 406 395.3 382.6 371.6 364.4 353.3 343.8 339.6 344.1 342.1 335.9 324 314.6 311.5 308.3 298.6 289.1 279.1 261.5 247.5 232.1 227.5 222.5 213 203.7 197.8 196.3 204.8 201.3 191.5 188.2 185.9 169.4 163.2 156.1 157.2 143.1 140.1 132.3 130.1 125.2 120.5 121.2 116.8 106.7 98 85.4 75.8 64.3 53.9 51.7 45.5 30.3 22.6 16.8 2.7 2.5 2.5 2.5 2.5 2.5 2.5 2.5 2.5 2.5 2.5 2.5 2.5 2.5 2.5 2.5 2.5 2.5 2.5 2.5 2.5
108.7 110.7 113 116.3 105 99.7 82 79.1 68.6 60 48.6 51.3 45.8 38.3 37 40.1 36.5 50.8 45.4 37.6 22.2 9.7 5.4 2.9 7.5 17.5 31.1 35.3 43.1 50.8 41.6 33.2 34.7 21.5 7.2 4.5 5.2 5.6 7.2 14.8 6.2 5.8 6 6.5 9.8 8.6 8.6 9 9.1 9.8 10.5 10.9 11.2 10.3 11.8 12.3 13.6 14.6 16.7 20.3 21.5 24.2 27.4 29.7 34.4 41.4 68.9 88.3 86.1 90.5 90.3 86.8 96.1 111.8 107.9 98.1 97.6 108.1 113.4 122.6 145.7 173 194 203.5 207.9 212 227.8 240.5 250.1 265.1 275.9 300 303.1 312.4 328.2 367 392.5 396.3 401.2 398.5 399.8 396.7 401.8 409.3 402.4 396.6 396.6 402.6 405 398.7 402.7 406.6 406 413.2 420.7 443.4 457.2 456.1 464.2 465.8 464.1 448.6 444.8 429.1 403.4 387.3 377.8 371.1 368.2 358.5 348.5 333.4 328.1 328.7 326.4 317.5 306.5 294.4 290.6 280.2 269.7 257.8 243.6 231.6 223 218.5 211.6 207 198.9 190.9 183.8 180.6 183.5 177.5 170.6 166.8 160.5 151.6 144.2 144.9 136.5 131.4 127.7 127.5 126.3 124.5 115.9 97.2 88.8 76.9 65 72.1 69.7 64 45.1 32.3 26.6 23.4 4.3 2.5 2.5 2.5 2.5 2.5 2.5 2.5 2.5 2.5 2.5 2.5 2.5 2.5 2.5 2.5 2.5 2.5 2.5 2.5 2.5 2.5
109.5 112 113.3 113 106.5 99.3 91 82.5 77.1 66.5 56.6 73.7 74.7 60.4 54.7 51 48.4 56.6 60.6 57.9 42.7 28.2 14.3 9.8 8.7 7.3 17.9 29.1 37.9 45 40.6 39.2 37.2 27.1 16 4.8 5.2 5.9 7 10 7.3 6.5 6 6.9 8.3 8.4 7.3 8.8 9.1 9.9 10.1 10.2 11.6 13.6 21.6 22.3 15.1 14.8 15.7 16.7 20.7 26.3 30.2 35.4 45.8 48.2 65.8 106.8 101.9 100.6 105.8 110.1 120.6 135.7 137.3 124.8 125.4 120.1 128 134.1 152.2 176 187.7 203.5 214.9 232.9 238.3 255.8 263.1 281.2 280.1 302.5 310.7 321.7 346.8 374.9 385.8 393.8 396.6 400.2 410 404.9 409.5 417.8 410.5 403.7 402.4 406.4 403.4 404.4 412.2 410.1 409.6 417.3 417.2 432.3 454.4 463.2 460.9 473.7 470.5 463.2 441.1 427.1 411.8 395.5 379 368.1 371.8 364.5 353.6 334.2 321 317.2 311.9 305.2 297.4 283 274.6 263.1 247.3 245.6 237.6 227 218.5 218.1 207.6 205 203 198.7 187.8 177.8 169.8 165.8 160.4 158.1 155.6 155.3 157.2 149.3 142.8 141.2 137.2 133.7 127.4 118.3 108.7 95.4 100.1 108.6 93.4 85.8 71.7 59.5 51.7 27.5 14.8 11.1 2.5 2.5 2.5 2.5 2.5 2.5 2.5 2.5 2.5 2.5 2.5 2.5 2.5 2.5 2.5 2.5 2.5 2.5 2.5 2.5 2.5 2.5
111.2 113.7 114.7 114.3 107.8 104.4 95.2 88.8 83.6 68.7 69.2 80.1 83.4 72.3 67.4 71.2 65.2 65.6 71.5 71.3 62.2 46.7 41.2 38 30.2 21.3 12.4 15.1 29.4 46.5 47.6 41.7 38.9 30 21.5 5.8 5.8 6.3 7.9 11.2 11.9 6.1 7 6.8 7.9 8.4 8.2 8.7 9.5 9.9 10.3 10.2 17 19.3 31 40.6 30 16.6 18.7 19.5 22.6 24.8 31 41.9 54.6 61.4 83.7 116.8 116.8 113.3 124.8 127.9 134.7 148.2 158.6 148.2 151 149.4 150.1 151.3 163.6 180.7 202.6 228.3 248.4 252.9 255.5 278.4 279 289.6 298.5 316.4 321.5 335 355.2 376.5 386.1 392.3 401.3 402.4 408.4 404.8 407.3 409.4 404.8 406.8 402.4 401.8 406.3 403.4 412.8 416.5 415.4 412.5 419.5 423.8 434.3 454.9 465.2 466.8 468.7 461.9 454.4 434.1 420.4 407.6 390.1 373.8 359 356.9 347.7 333.8 321.5 311.8 303.7 296.5 285.8 271.9 255.1 244.3 242.8 241.4 231.8 226.1 221.2 215.9 209.8 208.1 204.2 198.4 189.5 180.6 174.6 171.4 172 167.3 160 161.8 159.7 158.8 153.8 148.9 146.1 141.3 134.9 127.8 119.3 117.2 121.3 107 88.2 78.8 64.9 46.7 30.8 11.9 6.5 8.5 2.5 2.5 2.5 2.5 2.5 2.5 2.5 2.5 2.5 2.5 2.5 2.5 2.5 2.5 2.5 2.5 2.5 2.5 2.5 2.5 2.5 2.5
121.7 114.6 118.6 116.4 112.1 104.8 100.2 97.1 91.8 79.3 73.8 89.8 94 86 83.1 84.7 81.3 81.3 80.3 79.1 76.6 69.1 63.7 63.1 59.7 47.3 32.7 18.1 25.9 42.1 48.3 46.8 43.6 35.2 23.2 8.9 5.7 6.1 13.8 14.1 13.3 8.8 6.9 7.8 8 8.6 8.9 9.5 10.2 10.9 13.8 14.3 23.1 27.9 43.3 63.2 52 35.5 30.8 26.3 30.5 27.2 35.6 46.3 58.6 73.7 85.9 120.2 124.4 120.2 134.2 138.1 144.5 153.5 164.1 161.8 167.4 168.5 168.1 169.7 177.1 198.3 227.9 258.3 271 271.6 278.5 291.8 294.4 297.4 308 322.9 333.2 349.9 366.7 382.1 392.9 397.3 398.6 405.8 404.8 398.1 394.2 393 399.3 400.2 399.6 399.4 404.8 403.4 407.7 410.6 414.6 413.8 415.6 419.2 432.8 446.9 459.8 467.9 471 465.8 457 440.4 425.5 411.2 399.5 383 373.2 358.1 347.5 333.4 321.2 310.6 300.2 289.9 275 261.3 250.2 236.8 229.4 224.4 220 222.5 220.1 217.6 215.9 213 205.2 198.3 191 183.6 181.6 177.1 179.8 174.7 171.3 171.3 172.4 172.2 165.5 159.6 152.8 149.6 139.3 133.7 134.1 126.8 113.4 96.3 82.3 60.2 48.2 26.2 8.2 6 2.5 2.5 2.5 2.5 2.5 2.5 2.5 2.5 2.5 2.5 2.5 2.5 2.5 2.5 2.5 2.5 2.5 2.5 2.5 2.5 2.5 6.7 11.2 16.5
117.6 116.8 118.6 121.7 118.1 116.9 101.6 104.3 102.4 88.8 80.9 100.5 103.7 99.8 102.1 99 96.2 97.8 93.6 90.1 88.1 86.2 81.1 82.7 84.1 76.5 58.9 40.4 28.1 37.8 50.4 55.7 52.8 42 28.4 10.7 7.5 9.9 22.7 25.4 22.4 15.6 9.6 8.6 8.3 8.9 8.7 9.3 12.2 14.7 17.5 13.4 27.5 32.7 41.3 66.3 71.4 60.3 48.1 39.3 38.1 39.6 48.1 56.3 65 77.6 92.5 120.6 124.9 129.4 144.5 149.1 150.9 160.9 166.5 171.3 179.6 183.3 189.3 209.6 201.7 225.9 265.5 287.2 293 290.6 298.6 293.4 300.9 304.5 314.8 330.2 343.8 361.1 369 379.8 388.3 395.9 399.8 399.8 393.3 386.1 388.9 390 389 392.1 394.8 396.7 399.6 402.5 404.3 405.7 406.2 409.6 418.6 417.7 420.8 446.3 449.8 459.5 465.7 467.4 457.8 444.2 428.1 408.1 406.1 389.4 382.4 366.8 345.9 334.8 325.6 308.4 290.6 281.6 276 262.9 247.3 235.5 221.4 213.2 215.7 219.4 219.6 218.4 222.2 212.4 202.7 201.1 192.1 193.7 192.2 184.1 182.8 177.7 174.4 175.9 177.4 177.3 167.8 157.9 152.5 151.3 144.9 137.7 126.7 113.7 109.5 88.2 65 47.1 25.9 11.1 2.5 2.5 2.5 2.5 2.5 2.5 2.5 2.5 2.5 2.5 2.5 2.5 2.5 2.5 2.5 2.5 2.5 2.5 2.5 2.5 2.5 3.6 12.8 17.7 20.6 34.4
116.3 116.3 117.3 119.7 124.5 124.3 118.7 114.4 110.7 95.9 93.6 113.7 120.3 116.3 118.4 113.7 113.2 115.4 111.3 104.4 101.2 98 94.5 94.3 96 93.3 84.6 70.2 49.1 34 43.3 60.4 61.1 52 36.4 18.9 10.6 12.3 29.3 36.6 30.5 26.3 19.2 17.5 16.5 14.4 11.6 11.1 20.6 29.3 24.3 22.8 24.2 29 35.8 61.1 75.7 82.8 72 58.9 50 42.8 56.5 65.5 78.4 91.5 95.5 110.8 123.7 135 145.9 157.3 161.7 168.9 171.9 177 186.6 203.1 212.8 228.6 230.9 245.1 288.3 300.1 305.6 305.4 306.5 301.5 304 308.4 325.3 338.9 351.4 361.2 372.9 379.1 387.5 392.7 391 384.8 383.8 385.1 382.4 382.4 385.8 386.4 381.7 385.9 390.3 396.2 398.1 401.8 402.4 407.8 410.9 415.7 414.1 426.4 439.4 445.1 445.2 454.3 449.5 442.4 436.5 419 401.2 396.4 383.6 363.5 346.2 331 312.8 304.1 287.8 280.9 276.2 254.2 240.4 229 217.3 208.5 211.7 213.1 215.1 214.6 210 204 199.7 197.4 195.5 191.3 190.7 194.1 186 179.6 176 177.1 178.9 176 162.2 159.9 157.4 152.6 148.4 134.5 127.2 119.4 104.6 70.8 44.4 21.2 5 2.5 2.5 2.5 2.5 2.5 2.5 2.5 2.5 2.5 2.5 2.5 2.5 2.5 2.5 2.5 2.5 2.5 2.5 2.5 2.5 2.5 8.8 13.8 15.7 27.3 32.2 49.9
115.2 117.3 116.9 125.2 129.3 131.9 126.9 118 113.7 102 94 128.6 138.5 136.3 131.2 123.9 123.7 127.5 125.2 113.4 111.3 109.8 107.6 106.8 108.7 109.4 104.2 96.5 82.4 59.7 44.6 56.7 62.7 60.6 47.5 27.2 14.8 15.5 34.6 44.3 38 31.4 27.7 27.5 24 25.4 24 15.3 27.7 37.3 36.5 31.6 29.1 31.7 30.4 46.3 65.9 76.7 81.7 72.1 61.2 48.7 50.3 63.6 81.7 102.9 108.8 121.9 128 139.8 149.1 164.1 174.2 177.2 183.9 189.3 208.5 229.3 234.2 246.3 255.2 272.7 303.1 310.5 317.9 315.9 315.2 309.7 307.7 313.6 329.2 334.4 343.5 355.2 365.2 371.8 377.8 380.7 375.8 375.3 375.5 373 376.3 387.4 388.6 383.1 375.9 375.9 377 390.7 397.6 398.7 397.6 400.4 401.7 406.4 410.6 408.9 419.2 425.5 422.3 424.2 426.9 430.6 421.2 416.2 406.2 384.1 360.7 339.3 330.7 328.1 323.1 301.8 284.2 277.1 263.9 245.9 233 220.4 206.2 198.3 198.2 199.7 197.4 198.7 201.4 200.2 198 196.2 196.1 197.4 199.9 192.7 187.1 178.6 178.8 179.6 179.7 170.3 158.7 160 159.7 153.4 141.5 138 123.8 113.9 76.4 54.8 31.8 4.6 2.5 2.5 2.5 2.5 2.5 2.5 2.5 2.5 2.5 2.5 2.5 2.5 2.5 2.5 2.5 2.5 2.5 2.5 2.5 2.5 2.5 2.5 11 18.8 25.2 40.4 46.9 53.9
114.7 117.2 118 121.4 132.2 139.1 137 127.9 121 109.6 99.1 126.6 144.5 150.4 145.1 137.9 128.9 132.6 131.6 124.7 119.6 119.6 118.3 116.7 122.2 122.9 115.4 109.7 105.1 89.1 68.4 51.4 55.7 60.1 52.4 32.4 26.2 20 37.9 50.3 45.8 38.7 38 33.6 36.8 36.2 36.8 27.4 38 44.8 43.8 43.8 40.3 44.9 35.9 33.1 43.8 53.7 62.4 69.4 68.1 58 56.6 59.1 69.4 96.2 109.1 129.4 140 146.4 149.7 159.6 183.2 194.7 200.6 202.1 224.2 239.9 249.3 255.2 267.9 285.3 317.7 317.1 318.7 316.1 312.9 309 308.8 311.4 325.6 326.2 330 346.2 356.9 359.8 368.9 364.8 350.6 356.9 351 368.2 376.7 391.2 389.4 384.3 380.9 377.1 373.6 377.9 386.2 388.6 393.2 395.2 401 402.3 402.2 402.5 403.5 415.7 414.2 412.7 409.7 413.2 401.2 393.5 382.3 362.5 347.9 335.1 330.1 325.1 310.4 294.5 283.3 275.8 256.3 235.7 223.7 212.2 199.3 193.1 191.6 193.7 195.9 202.1 202.8 196.6 199.8 205.3 200.7 202.1 204 191.8 189 181.8 190.1 177.3 173.2 157.5 151.8 154.8 150.7 147.7 139.3 126.6 110.2 86.3 60 35.4 8.4 2.5 2.5 2.5 2.5 2.5 2.5 2.5 2.5 2.5 2.5 2.5 2.5 2.5 2.5 2.5 2.5 2.5 2.5 2.5 2.5 2.5 2.5 2.5 11.1 25.3 34 43.9 54.5 53.4
114.7 114.7 121.6 122.2 130.4 138.6 139.2 134.4 125.2 117.4 103.3 127.7 141.8 151.5 150.8 148.7 137 139 136.4 132.5 126.1 125.9 123.5 122.1 125.3 130.2 122.3 117.1 112.5 105.8 93.6 76.1 61.6 57.1 49.8 35.8 30.3 29.5 40.5 49.8 49 44.7 42 41.8 42.7 44 47.2 36.1 50.7 59.5 62.2 60 56.8 52.5 43.4 38.2 34.9 39.9 45.3 56.3 65.3 63.1 65.1 63.6 69.9 81.7 97.3 120.5 135.1 144.3 156 170.5 189.2 199.1 209.4 219.6 228.9 243.8 255.9 259.6 271.3 292.4 321.1 323 322.4 313.1 308.4 309.3 309.4 311 322.4 315.5 322.3 344.5 347.4 357.2 357.8 338.6 330.4 330.8 335.5 355.2 363.7 376.8 383.3 377.9 383.4 383.7 376.7 373.6 375.9 375.9 379.7 392.1 405 398.8 399 401.9 399.6 400.6 406 400 392.1 380.6 379.3 367.5 366.3 364.2 346.7 335.3 315.9 305.1 298.8 286.6 274.8 258.1 242.6 228.1 216.6 200.4 193.7 187.1 187.1 192.6 202.2 201.6 193.1 190.5 205.3 205.1 195.4 196.4 195.8 190.2 187.1 191.4 179.2 170.1 165.7 137.6 138.4 131 135.5 137.3 120.8 111.4 82.3 58.8 37.1 14.2 2.5 2.5 2.5 2.5 2.5 2.5 2.5 2.5 2.5 2.5 2.5 2.5 2.5 2.5 2.5 2.5 2.5 2.5 2.5 2.5 2.5 2.5 2.5 2.5 10.2 25.6 33.5 43 39.5 53.4
115.5 114.7 118.3 122.2 129.6 140.4 139.9 135.9 127.8 122.8 104.8 124.3 140.3 149.4 154.6 155.5 144 145.2 139.6 139.1 132.5 132.7 129.7 128.8 130.8 131.8 129.2 123.9 118.8 112 106.8 93.5 74.7 62.7 50.2 40.3 38.9 36 43.3 54.7 51.2 48.3 49.1 49.3 55.7 57.8 60.9 45.7 62.7 70.5 72.8 72.6 71.8 64 60.6 52.7 43.4 39.7 43.5 45.6 59.9 65.2 69.1 78.2 74.6 82.8 107.7 123.7 135.8 147.1 170.3 186 201.1 213.6 217.9 220.2 228.6 234.8 256 261.3 266.7 285.3 310.9 326.1 319.8 309 299.8 301.9 307.1 314.6 308.9 308.7 321.4 342.1 338.1 336.6 326.7 315.7 319.6 321.6 329.6 349.3 351.3 361.8 373.9 371.7 372.6 383.7 379 376.2 377.4 375.2 373.9 384 387.5 388.7 390.8 385.3 385 382.8 382.4 378.6 371.2 362.3 362.7 367.5 368.5 361.5 348.9 336.8 322.8 307.7 298.5 292.6 269.4 250.8 232.9 220.5 204.9 195.6 190.7 187.3 184.4 188.9 187.6 185.1 186.2 197.5 205.9 198 184 180.5 179 189.1 186.7 184 176.5 159.3 131.2 119.6 117.9 123.4 129.6 127.7 117.3 92.8 58.4 31.2 13.8 2.5 2.5 2.5 2.5 2.5 2.5 2.5 2.5 2.5 2.5 2.5 2.5 2.5 2.5 2.5 2.5 2.5 2.5 2.5 2.5 2.5 2.5 2.5 2.5 10.7 11.8 22.1 27 22.7 40.6 55.5
