ncols 200
nrows 91
xllcorner 220000
yllcorner 53300
cellsize 50
137.4 135.5 133.2 130.4 126.6 120.9 117.8 115.3 112.1 108.9 102.6 95.7 88.8 79.3 66.2 49.4 60.7 82.1 102.9 110.7 114.5 116.7 117.4 117.5 116.3 114 111.8 108.8 105.3 100.6 94.1 87.3 78.7 69.7 56.7 40.8 23.9 21.8 33.8 47.8 60.6 70.9 79.5 84.8 87.8 87.7 86 83.1 79.5 70.4 52.5 52.3 70.8 90.8 105.4 115.2 119.7 120.2 120.4 121.2 122.9 125.4 126.8 127.2 126.1 124.7 123.7 123.4 123.1 123 124 125.6 127.7 129.2 129.4 128.2 127.1 126.6 126.3 126.2 123.2 117.8 110 98 82.3 69.1 69.9 79.8 84.8 86.8 89 90.2 89.2 86.8 81.4 71.4 53.2 31 11.1 7.6 21.5 34.5 47.7 61.1 74.1 86.8 98.5 109.3 115.3 117.8 120.1 122.6 123.9 123.5 123.3 122.2 120.4 118 116.9 117.6 119.4 121.6 122.9 124.2 125.6 126.7 127.5 128.3 127.6 126.3 124.3 121.3 118.1 110.9 97.9 89.5 89.9 97.1 107.7 118.8 128.9 138.6 148 157.1 165.4 172 178.1 184 188.4 192.3 196.3 199.2 199.8 199.3 196.7 194.9 193.5 190.5 187.8 182.6 178.3 174.6 170.2 166.1 162.1 159.6 154.4 150.4 146.9 144 144.3 145.3 146.1 146.9 148.2 149.9 151.7 152.3 152.7 153.1 153.3 153.2 152.7 152.2 151.6 150.7 148.6 148.4 146.9 145.9 144.6 143.3 141.7 139.6 138 135.2 131.6 128.1 125.4 121.4
136.4 134.4 132.8 130.3 127.7 125.4 123.1 121 118.9 116.1 112.2 107 99.8 89 72.8 53.1 58.4 78 96.1 103.5 107.7 110.5 112.8 114.3 114.7 114.4 113.1 110.8 108.1 104.3 99 93.6 86.1 78.6 65.8 45.7 26.6 19.8 24.4 35.9 48 59.3 67.8 72.3 72.4 69.2 67.4 64.7 61.2 55.1 44.1 56.3 77 98.5 116.2 125.4 126.8 125.8 124.2 124.2 124.6 124.9 124.3 122.9 120.9 119.2 117.1 115.4 115.2 114.9 115.5 119 123.5 127.2 128.5 129.2 129.2 130.2 130.5 130 127.9 123.5 116.6 106 89.5 72 61 66.5 70.7 76.3 81.9 84.5 84.3 81.1 73.9 59.9 44.5 28.5 12.4 8.6 26.9 43 58.3 72.2 88 101.9 112.8 118.5 121.1 123.1 124.7 125.7 125.6 124.9 123.3 121.2 118.3 114.9 113.6 115.5 118.8 121.7 123.8 125.8 127.3 128 128.6 128.6 127.4 125.6 122.6 119.2 114.5 102.2 89.1 84.2 91.4 99.7 112.9 126 137 146.6 155 162.7 169.3 175.8 181.6 185.5 189.8 194.7 197.6 199.8 198.2 196.2 194.5 193.3 190.6 187.5 182.7 176.5 172.4 168.8 165 161.3 158.1 154.7 151.8 148.3 144.7 140.9 139.5 140.6 141.6 142.1 142.6 143.3 145 147 147.7 148 148.5 149 148.7 147.9 147.1 145.9 145.2 143.2 141.7 139.9 138.5 137.2 135.5 133.5 131.3 129.3 126.8 125.2 122.6 119.9
134.5 132.4 130.6 128.5 126.7 125.3 123.9 122.1 119.4 116.7 113.3 109 102.6 91.3 74.6 55.8 52.5 72.5 87.5 95.3 99.4 103.5 106.8 109.4 111 112.1 112.3 111.4 109.6 108.1 105 102 97.6 91.1 76.2 54.5 30.4 20.2 19.4 26.2 37.4 48.7 55.6 56.7 53.2 49.3 49.6 48.3 44.4 40.3 48 64 83.9 105.3 121.4 128.2 128.5 126.5 124.1 122.9 121.5 120.6 118.7 117 114.8 111.1 106.9 105.7 105.7 104.3 105 111.4 117.7 123.2 126.3 129.1 131.3 132.8 133.7 133.1 130.9 127.8 122.9 113.8 99.2 81.6 65.9 55.3 58.7 64.6 71.4 74.2 75.4 73.8 65.1 46.7 33 22.6 11.5 14.7 33.3 51.4 68.2 85.6 102 112.9 119.3 122.3 124.1 125.2 126.2 126.4 125.8 124.3 122.4 119.9 116.8 112.4 109.8 112.8 115.6 121.2 124.1 126 127.3 127.7 127.7 127.4 125.3 122.2 118.9 114.8 107.6 92.9 82.9 85.6 93.7 105.3 120.5 132.7 143.1 151.5 158.9 165.4 171.7 177.4 181.6 185.5 190.5 194.3 197.1 196.9 194.7 192.7 190.6 189.5 186.4 180.8 174.1 168.4 165.2 162.8 159.8 156.8 153.7 150.6 148.3 145.5 141.9 137.9 135 135.1 135.4 135.4 135.5 137.2 139.3 141.2 142.6 143.4 144.1 144.5 144.5 143.4 142 142 140.2 137.3 134.5 133.1 131.7 130.3 128.8 126.9 125.3 123.4 121.7 121 119.8 118.3
130.8 128.6 127 125.4 123.9 122.3 120.4 118.8 115.9 113.1 110.3 106.7 101.4 88.3 69.6 53.4 51.5 69.8 80.5 86.4 91.1 95.7 99.5 102 104.9 107.3 109.2 110 110.3 110 108.8 106.4 103.3 98.7 87.9 67.8 44.1 25.7 18.1 18.6 27.9 38.2 43.7 40.7 36.6 34.8 35.7 37.7 42.8 51.1 61.8 77.6 94 111.9 123.8 127.2 126 123.4 120.3 117.7 115.7 113.3 111.2 109.3 106.6 102.5 97.7 95 93.5 92.7 96.3 103.6 110.7 116.9 123.9 129.7 133 134.7 135.2 134.2 132.7 129.8 125.1 117.7 107.1 91.9 77.4 65 52.9 51 57.3 57.4 56.2 55.6 50.4 33.9 20.6 12.9 4.3 26.8 44.9 62.3 79.9 98.1 113.7 119.8 122.9 124.5 125.2 125.4 125.3 125 124.1 122.8 121 118.7 115.6 111 105 110.6 114 119.5 123.1 124.9 126.1 126.2 125.5 124.8 122.2 118.3 114.5 109 98.5 84 80.3 88 98.3 112.1 126.4 138.4 147.3 154.5 160.4 166.6 171.9 175.9 180.5 185.2 189.3 193.1 196.2 194 191.5 190.8 188.1 183.3 177.8 171.4 165.4 161.6 159.7 157.9 155.6 152.5 149.9 147.2 144.7 141.6 138 133.4 129.2 128.2 127.5 127.1 127.4 129.7 132.4 135.5 137.6 139.4 140.3 140.5 140.8 139.6 138.4 136.4 134.6 131.7 128.2 125.9 124.5 123.1 121.7 120.6 119.2 117.8 116.5 115.8 115.7 115.2
127 123.4 121.4 120.1 118.6 116.9 115.2 112.9 110.3 108 105.9 102.1 97.4 85.3 65 48.8 51 64.1 72.2 78.6 84 88.3 91.1 94.3 98 101.8 105.4 108 109.3 110.1 109.8 108.6 106.5 103.5 97.5 83.2 61.2 38.7 23 18.4 16 28.2 29.4 26.6 34 41.4 47.2 53.2 60.9 68.6 79.3 91.2 104.9 118.2 123.3 123.7 121.6 118.2 114.1 109.8 107.1 104.8 102.9 100.9 99.6 96.4 90 82.4 83.8 88.6 96.5 103.3 108.3 114.9 124.4 130.4 134 135.8 135.9 134.9 133.3 130.2 125.2 118.7 109.4 98.9 89.1 76.1 62.8 53.5 42.4 36.4 34.4 34.7 31.9 20.1 8.1 4.7 20.9 40.6 58.5 74.8 91.2 109.2 121.4 124.7 125.5 125.8 125.1 124.5 123.2 122.6 121.6 120.4 119 117.3 114.6 109.7 100.8 106.1 112.3 118.1 121.9 124 124.4 124.6 124.1 122.5 119.3 114.9 106.9 100 90.5 78.3 81.9 92 105.3 119.5 133 142.7 149.5 155.7 161.4 165.8 169.5 174 178.3 181.9 185.8 189.8 192.2 190.5 188.3 185.4 179.7 173.6 167.4 162.7 159.1 157.2 155.4 153.6 151.7 149.1 146.7 143.5 140.6 137.3 133.8 128.8 123.7 120.8 119.2 119.9 120.9 123.3 126 128.8 131.9 134.8 136.8 137.4 137.4 136.4 134.8 132.8 129.7 125.9 122 118.2 115.9 115.4 114.9 114 112.7 111.3 109.8 109.6 110.7 111.4
121.8 117.7 114.9 113.9 112.5 110.8 108.7 105.6 102.7 100.4 98.6 96.1 92.9 82.9 64.1 44.8 47.7 58.6 66.5 71.7 75.3 78.4 80.5 84.5 90 96.7 102 104.9 107.4 108.6 108.9 108.7 107.5 105.2 101 92.5 72.8 53 34.4 20.8 17.1 18.3 26.2 39 49.7 60.1 68.1 74.9 81.8 87.8 96.2 105.5 114.6 119.1 120.1 118.8 115.9 110.6 105.7 100.6 97.5 94.9 93.4 92.2 90.3 86.3 78.9 77 85 96.2 105.1 111.1 115.1 120.1 126.1 131.2 134.6 136.6 136.8 136.1 133.5 130.5 125.9 120.2 112.3 103.7 93.6 83.7 72.8 61.8 55.1 47.6 37 21.3 12.2 5.9 4 16.9 35.7 55 72.3 86.7 100.7 115.7 125.7 127.4 126.7 125.8 124.5 122.4 120.3 119.2 118.6 117.4 116 114.4 111.8 107.1 98.1 107.4 113.9 118 121.5 122.8 122.6 122.1 121.7 119.9 116.7 112.1 98.8 88.4 82.8 75.2 85.7 99.9 115.1 128.6 137.8 144.1 150 155.5 159.7 163.1 166.7 171 174.9 177.8 179.9 183.1 185.5 176 178.8 174.6 168.6 164.5 160.8 156.9 154.5 152.8 151 149.4 147.9 145.7 143.5 139.9 136.4 133.2 129.7 124 118.1 115 113.5 114.1 115.8 119.2 121.1 123.4 126.7 130.3 132.6 133.9 134.1 133.5 131.5 128.8 125 120.5 116.5 112.8 110 108.9 108.2 107.4 105.5 103 101.1 102.1 104.1 105.8
116 110.5 107.9 106.8 105.3 103.6 100.8 96.8 92.8 90.5 89.4 87.6 84.4 78.2 63.8 43.3 43.5 53.4 61.3 64.9 68.8 73.5 71.8 74.2 85.5 93.7 98.9 101.9 104.6 106.1 106.3 106 104.9 102.8 98 89.8 73.4 56.2 45.8 29.8 18.2 17.1 28.9 42.9 58.9 73.7 83.4 90.2 97.7 105.1 110.9 114.4 116.5 117.2 115.1 111.8 107.9 102.6 96.6 89.5 85.6 84.8 83.4 82.1 76.3 70.3 69.4 77.2 91.1 101.8 107.8 113.5 118.9 124 128.5 132.3 135.6 136.6 137.1 136 133.5 130.3 125.8 120.4 112.9 104.4 95.3 85.3 74.6 65.4 62.9 58.5 48.8 34.1 16.4 4.7 6.5 30 49.4 68.1 84.8 96.9 107.8 119.3 126.1 126.5 125.2 123.4 121.2 118.4 116.1 114.8 113.9 112.9 111.8 110.6 108.6 104.7 95.6 106 112.1 115.9 119.4 120.4 119.6 119.1 118.4 116.8 115 111.5 103.4 85.8 74.2 79.1 92.2 109.5 125 133.1 139 144.5 149.4 153.4 157.1 160.4 164 167.8 171 172.2 172.7 173.2 173.2 171.2 169.9 165.8 162 158.9 155.9 153 150.2 148.5 147 145.5 144.3 142.6 140.5 137.1 133.2 128.9 125.1 120.1 114.4 109.8 108.1 108.3 111.9 115.2 116.4 117.7 121.2 124.4 128 129.4 130.3 129.9 128.4 125.3 120.1 115.6 111.9 108.9 105.5 102.5 101.3 99.8 97.1 95.6 92.6 91.9 95 96.6
108.7 103.2 99.5 98.6 97.6 95.6 91.8 87 82.7 80.3 79.2 77.9 77 75.2 64.9 49.3 36.5 45.2 54.7 59.1 57.8 58.2 63.6 73.8 84.2 91.5 96.2 99 100.7 101.8 102 101.4 98.9 94.4 84.4 72.9 61.1 49.9 42.5 33.6 23.4 16.6 17.6 32.6 52.2 74.4 88.8 98.1 106.7 112.7 114.9 114.5 113.2 111.2 107.1 101.6 96.5 91.5 85.9 76.2 71.7 72.4 72.6 69 63 66.8 70.5 75.3 84.4 94.2 104.8 113 120.2 125.7 129.9 133.7 136.3 137 136.7 135.7 133 129.9 125.5 119.9 112.8 104.6 96.2 87.2 78.2 73.4 72.2 67.8 50.3 30.4 11.8 -1.7 16.6 39.3 58.1 77.5 94.4 105.5 115.5 121 122.7 121.8 120.1 117.6 114.8 112.4 110 108.7 108.3 107.5 106.7 105.6 105.1 102.3 92.5 103.4 109.3 113.2 116.2 117.1 116.6 115.4 115 114.2 112.7 110.6 104.6 83.9 70 80.9 96.3 114.6 126 132.3 137.9 142.6 146.3 149.8 153.5 157.1 160.5 164.2 166.8 167.7 167.9 167.7 167 165.6 162.7 160.2 157.1 154.4 152.3 149.5 146.5 144.5 143 141.7 140.8 139.4 137.5 134.3 129 124.3 120 114.7 109.9 104.8 102.8 103.9 107.8 110.8 111.4 111.8 114.6 118.7 123.3 125.5 126.2 125.8 124.9 122.5 117.5 112 108.4 105.3 102.3 97.6 92.4 88.7 86.5 86.4 84 81.6 82.2 83.9
98.2 93.3 88.8 89.6 90 88.1 83.8 78.8 73 71.5 71.8 72 72.3 71.8 67 57.2 41.7 36.7 45.1 51 46.9 57.4 66.6 75.3 83.7 90.1 93.3 94.9 96 95.9 95.4 92.5 85.7 75.7 64.6 54 44.9 36.6 30 23.1 18.9 16.3 15.8 20.1 44 65.2 81.1 94.5 103.1 109.3 110 107.8 103.9 98.4 92.4 86.1 82.3 78.6 73 64.8 58.4 59.3 59.3 57.2 66.1 77.6 83.3 84 83.2 86.1 97.5 110.1 119.7 126.7 131.3 134.1 136.1 137.1 136.5 135 132.2 128.5 124.2 119.1 113.4 106.7 100.6 96.2 92 88.9 86.1 71.6 48.2 24.7 -1.7 -1.7 27.1 45.6 61.1 80.5 100.7 109.5 113.9 115.7 115.5 114.2 112.5 109.8 107.1 104.7 102.2 100.7 101.2 100.9 100.5 100.6 100.5 98.5 88.5 99.4 105.3 109.4 112 112.8 112.6 112 111.5 111.2 110.8 109.5 104.1 83.4 68.3 78 97.5 114.8 123.7 130.1 135 139 142.1 145.1 149.1 153.3 156.6 160.4 162.7 163.4 164.1 163.8 162.7 160.9 158.1 156.2 154 151.3 148.7 146.2 143.4 140.5 139 137.9 137.3 136.4 135.2 131.9 127.1 120.8 113.8 104.7 100 97.6 95.8 99 103 105.5 105.6 106 108.5 113.7 118.5 121.4 122.9 122.9 121.5 119.9 116.8 112.2 107.4 104.6 98.3 93.1 89.4 87.8 83.3 78 74.2 71 69.4 68.8
87.6 82 79 80.7 81.8 81.3 77.8 72.2 65.7 64.7 66 66.7 67.3 66.9 63.9 59 49.4 37.5 35 41.7 43.4 56.9 67.6 75.8 82.9 87.2 89.4 90.5 90 87.2 83.8 75.7 66.3 56 45.3 36.7 27.3 19.7 21.3 23.5 25.1 20.4 15.6 15.7 34.4 54.8 70.5 84.2 92.6 97.2 95.4 88.7 82.6 78 72.9 67.7 65.4 63.7 59.2 51.7 48.8 51.6 56.1 65.6 77 90.2 99.7 103.3 100.8 95.7 94.6 106.3 118.8 126.3 131.6 134.1 135.8 136.6 136.2 134.4 130.9 127.2 123.8 120.1 116.6 113.5 110.8 108.2 104.6 100.2 95.5 79.1 52.5 24.2 -1.7 13.4 31 45.6 60.8 79 95.6 103.4 106.8 107.6 107.7 106.6 104.6 101.6 98.5 95.6 92.8 91.3 92.2 91.5 92.5 92.1 92.4 90.7 83.9 94.9 100.1 104.4 107.4 108.6 108.5 108.5 107.6 107.4 108.3 107.1 102.5 82.9 66.8 78.8 98.1 111.1 118.8 124.3 129.5 134.2 136.5 139.8 143.8 148.9 152.4 155.7 158.1 159.2 160 160 158.7 156.6 154.1 152.3 150.7 148.4 145.6 143.1 140.7 137.5 135.3 134 134 133.4 131.6 128.8 124.5 118.4 111.4 104.6 96.2 88.2 89.6 93.6 98.2 99.9 100 100.8 104.3 109.9 113.7 116.7 119 120.2 120.1 118.9 117.3 113.8 110.7 107.9 104.2 100.1 99.1 97.3 92.1 85.8 82.2 78.9 74.8 72.5
79.4 71.8 70 72.1 73.1 73.6 71.4 67 60.1 57 59.7 59.7 60 58.2 56.6 55.8 53.5 46.4 36.7 31.5 40.1 55 67.1 74.6 80.2 83.7 85 84.9 82.5 74.9 67.7 58.5 47.6 37.4 28 19.6 24.4 31.2 38.9 45.6 46.6 35 20 14.9 27.4 43.8 58.3 72.3 81.2 80.4 72.5 65.3 60.3 56.3 51.8 47.9 46.6 47.6 46.1 47.9 57.3 58.3 66.8 77.7 91.4 101.9 107.8 111.7 114 112.4 103.6 102.1 115 124.2 130.1 133.5 135.7 136.4 136.4 135.2 132.4 130.1 127.7 125.3 122.6 119.7 116.6 115 111.3 106.1 99.5 82.6 56.4 27 -1.7 11 24.3 37.5 53 72.7 89.7 95.9 98.2 98.9 98.6 98.4 96.4 93.3 90 86.3 81.8 78.8 81.4 81.9 81.4 83.2 84.7 79.7 81.4 89.3 93.7 98.4 101.6 104.2 104.5 104.8 102.8 103.5 105.8 104.6 97.9 79.4 64.8 72 92.8 107.2 112.8 117.9 122.7 127.2 131.2 134.9 138.9 143.8 147.8 150.9 152.8 154.2 155.2 155.5 154.4 152.9 150.6 149.3 147.8 145.8 143.5 141.2 138.3 134.9 132.7 131.1 130.9 130 128.3 126 122.2 117 111.4 105 98.3 86.7 84.2 87.7 92.1 93.9 93.6 96.3 102.2 106.8 109.8 111.3 114.1 117.5 118.9 119.1 118.1 116.4 114.8 112.7 110.4 107.7 106.1 103 97.6 92.8 89.4 84.5 81.5 83.8
71.4 63.1 63.2 65.2 66.6 67.2 65.5 62.3 56 49.7 51.8 52.3 52.3 50 51 49.7 50 48.8 42.9 33.4 36 52.5 64.7 71.9 77.1 79.5 79.8 77.4 70.7 63.2 51.7 39.6 29.3 20.6 25.8 32.9 41.3 49.9 57.9 65 61 45.2 28.6 15.8 20 33.9 45.8 58.6 65.7 58 48.9 41.7 37.6 35.8 36.6 40.4 42.2 45.3 50.9 62.9 73.8 70.9 69.4 84.2 97.9 106.7 112.3 115.9 118.9 120.9 118.5 111.5 113.1 122.4 128.1 132.5 135.4 137.2 138.1 137.9 136.9 134.7 132.5 130.4 128.4 125.6 122.5 119 114 109 100.9 83.7 58.4 32.4 -1.7 5.8 15.8 28.9 45.8 67.8 83.2 88.4 90.3 90 89.3 89.3 88.3 85.1 82.2 77.8 71.3 67.1 68.9 70.5 71.6 73.9 74.9 69.8 75.8 81.4 86.6 91.7 96.3 98.5 101 99.8 96.9 100.2 104.4 101.3 89.3 71.1 60 69.3 87.4 101.2 106.5 110.8 115.5 120.5 125.3 130.1 134.6 139.2 143 146 147.8 149.2 149.9 150.6 150.2 149.1 147.5 146.3 145 143.2 141.2 139.2 136.5 132.7 130.1 128.6 127.6 126.6 125.2 123.9 120.7 116.1 111.7 105.7 99.6 89.8 79.2 80.5 84.2 85.9 86 94.8 99.5 102.5 104.3 106.6 110.1 115.4 118.9 120.1 119.7 119.1 118.1 116.2 113.7 111.8 109.5 105.2 100.7 97.8 93.5 89.1 88.8 90.6
62.8 54.9 57.6 59 59.8 60.2 59.2 56.5 52.5 46.7 44.2 45.7 45.2 44 40.7 39.4 40.1 38.8 39 33.3 30.8 50.2 60.4 68.4 73.2 74.4 73.2 69.6 59.1 46.2 32.7 22.3 25.4 29 40.7 49.9 57.9 67 76.2 77.4 70 55.8 38.8 22.1 15.1 22.7 33.2 43.6 45.6 34.9 28.4 30.5 39.4 46.3 51.7 56.4 58.9 61.9 68.9 80.9 90.3 90.7 85.3 84 95.3 108.1 114.6 119.1 123.2 123.9 124.3 122.7 119.3 123.7 128.1 132.4 136 138.4 140.2 141.1 140.4 139.3 137.3 134.8 132.3 128.8 124.4 119.7 114.5 108.7 101.1 89 66.4 42.5 18.7 -1.7 5.6 19.1 39.6 61.2 76.7 81.2 82.6 82.5 81.7 81.1 80.2 77.4 74.6 70.2 62.3 57.1 57.1 58.7 59.9 61.9 62.5 63 68.6 72.9 78.6 84.8 90.2 93.9 96.1 93.9 89.6 95.5 99.5 96.3 84.1 64.7 56.6 65 81.6 91.9 97.6 102.2 107.5 112.9 118.1 124 129.5 133.8 137.6 140.4 143 144.5 145 146.2 146.5 146.1 145.2 143.7 141.9 140.1 138.3 136.7 134 129.8 127.3 126.2 124.9 123.2 121.8 121.5 119 115.9 112.3 106.9 101.8 97.7 85.7 74.2 75.9 77.1 84.2 92.5 95.7 97.3 97.7 103.1 109.6 115.7 119.2 121 121.2 120.4 119.3 118 116.6 114.5 111.1 108.3 106.6 103.1 100.5 96.5 96.1 99.6
46.4 48.1 51.6 51.9 52.5 52.9 52.4 50.5 47.4 43.2 39.1 39.3 37.5 32.9 30.6 31.1 30.9 29 27.8 27.2 30.1 42.6 51.9 61.3 67 68 65.9 60.5 45.1 28.7 27.5 32.3 39.2 44.2 50 61.9 72.5 83.2 89.6 88.9 81.8 68.5 52.1 35.6 19.9 14.5 20.7 29.8 26.2 26.6 37 48.9 59.5 66.8 71.2 74.7 77.4 80.9 89.3 98.6 103.1 105.3 105 101.7 98.7 108.5 115.5 119.9 120.3 123.9 124.5 124.8 126.4 128.7 131 134.1 137.2 138.9 140.3 141.4 141.7 141.6 140 136.5 133.2 129.9 125 119.6 113.8 107.5 100.1 90.9 73.5 53.4 32.6 -1.7 -1.7 8.3 32.2 55.5 69.5 73.8 75.1 75.2 73.2 71.2 69.8 68.6 66.2 62.7 56 49.4 48.8 50.2 52.1 53.6 56 58.1 62.9 67.5 73.3 80.2 85.5 89.6 90.8 84.4 84.3 92.4 93.4 89.6 81.5 61.4 53.7 63 73.7 82.3 89.3 95 99.7 105 111.2 117.6 123.7 128.1 132.3 135.6 138.4 140.3 141.1 142.2 142.6 142.7 142.2 140.7 138.7 136.9 135.3 133.1 130.4 127 124.5 123.4 122 118.4 117.8 118.6 117.4 115 112.5 109.7 106 102.7 96.1 83.1 70.2 72.5 83.4 87.7 88.4 89.8 96.5 106.9 114 117.3 119.2 121.1 120.9 120.2 119.6 119 117.2 115.3 114.3 114.1 113.6 112 108.6 103.8 105.2 108.7
46.5 38 40.5 43.1 44.5 45.8 45.8 44 40.4 37.8 34.6 31.7 31.6 35.5 38.6 41.2 41.1 37.5 34.6 30.6 26.3 29.8 39.6 47.1 54.3 59.3 58.3 51.1 33.9 27.5 38.7 48.3 55.7 61.3 62.6 68.6 83.6 93.9 97.9 98.2 93.7 83.4 68 51.6 34.1 18.2 14.6 18.8 20.5 35.7 50.5 64 76.4 86.4 89.9 91 94 98.2 103.3 108.4 111.4 112.4 112.3 111.3 108.6 111 116.1 119.7 124.2 123.9 124.4 126.6 128.8 130.9 131.9 133.9 136 137.4 139.2 140.5 141.1 140.8 138.8 135.9 132.8 128.8 123.9 118.1 111.8 105.3 98.3 90.3 78.2 60.3 42.4 20.6 -1.7 -1.7 22.8 46.8 62.3 66.1 67.7 67.7 64.7 58.4 55.2 53.5 52.9 51.4 46.2 40.6 43.2 44.9 46.6 49.4 52 55.3 60.3 66.1 71.6 76.8 81.8 84.8 80.5 76 84.7 89.6 87.8 81.8 71.6 56 52.9 60.2 67.6 74.2 82.6 90 94.8 99.3 105.2 111.1 117.2 122.5 126.7 130.7 134.3 136.6 137.4 138.2 139.5 139.4 139.1 137.6 134.7 133.3 131.6 129.6 127.2 124 120.4 120.3 118.5 114 113.7 115.7 115.8 114.3 112.5 110.4 108.6 106 101.8 89.6 73 66.8 75 77.4 78.5 89.3 102.9 111.8 115.9 118.3 119 119.5 119.6 119.2 118.8 118 117.2 117 118.8 120 119.9 117.8 114.5 112.3 113.2 114.6
63 55.4 48.6 41.4 36.1 35.7 35.4 34.7 34.2 32.4 34.4 40.5 45.3 50.5 54.3 54.4 51.5 46.4 44.8 40.6 33.9 29.9 26.2 31.3 38.6 46.4 49 41.6 27.3 34.6 51.2 62.5 70.3 76.2 78.9 77.8 89.1 100.1 104.5 104.3 100.6 93.6 81.1 66.3 50.6 31.2 18.8 14 22.4 40.1 57.8 73.9 84.2 90 93.7 96.2 100 103.7 107.1 110.5 112.3 113 114.5 114.8 115.1 115.4 117.1 119 120.7 121.7 123.6 126.6 129.4 131 131.9 133.1 133.9 135.1 136.8 138.1 138.6 138.5 136.4 133.8 130.2 125.8 120 114.1 108 101.6 95.1 88.7 79 63.4 45.8 26 6.4 -1.7 15 38.7 55.7 59.8 60.7 60 52.9 42.8 36.6 36.1 37.1 38 37.1 46.2 51.2 50.7 51.3 52 51.2 56.2 60.8 66 69.8 72.9 76 74.6 69.9 75.5 84.2 86.6 82 71.5 56.7 49.5 54.6 60.9 66.3 72.9 81.3 87.9 91.8 95 99.3 104.3 110.4 116.5 121.6 126.1 130.3 132.7 133.7 134.5 136.5 136.7 135.7 133.8 131.3 129.3 127.7 126.1 124.4 122 117.9 116.4 114.7 110.7 109.4 112.7 113.3 113.2 112.2 110.8 109 107 105.1 94.7 78.3 66.1 63.7 69.4 83.3 98.8 107.6 112.3 115.1 116 116.3 115.9 115.7 116.7 117.3 118 119 121.1 122.2 122.2 122.1 120.8 119.1 117.5 117.9 118.2
74.7 69.1 63.4 57.5 51.5 46.5 45.2 45.2 42.3 37.1 42 54.7 61.4 66 67.5 65.8 60.3 58.2 56.9 54.2 48.3 42.6 36.6 31.7 26.5 30.5 32.9 28.2 26.2 40.8 60.4 73.7 83.1 90.7 93.1 91.4 96 105.1 108.5 107.4 103 96 87.1 75.6 63.4 47.2 28.7 17.6 15.3 29 49.2 69.8 80.6 86.8 91.6 96.1 99.7 103.5 106.3 108.4 110.3 112.7 114.3 115.4 116 116.4 116.8 118.3 118.7 119.2 121.6 125 128.3 129.9 129.8 130.1 131 132.3 133.4 134.5 134.7 133.9 132 129.4 125.5 120.7 114.7 108.5 102.3 96.6 90.7 85 76.9 65.1 47.3 26.3 7.6 -1.7 11.3 34.6 50.7 53.3 53.8 46.5 34.2 26.9 27.3 31.8 34.8 38 46.8 58.8 59.7 60.7 61.1 59.1 56.9 59 62.3 65.7 68 68.4 67.6 65.2 64.1 73.2 83.6 84.8 76.2 60.4 47.3 48.4 58.3 67.6 73.7 79.1 83.2 86.7 89.1 91.1 93.4 97.1 103.8 110.9 117.7 123 126.9 129.1 129.6 130.8 133 133.5 132.4 129.6 127.6 125.4 123.9 121.8 120.4 119.3 115.7 110.5 108.4 106.1 105.4 108.6 110.2 110.8 110.8 109.4 107 103.6 101.4 96.9 86 69.5 58.6 70.4 88.2 100.5 105.4 109 110.7 110.7 110.1 110.5 110.4 112.9 116.5 119.1 121.8 122.7 122.7 122.5 122.9 122.8 121.8 120.6 120.6 119.1
79.9 74.8 70.7 66.9 63.8 60.5 56.9 52.4 42.1 40.4 53 67.9 73.6 76.3 76.7 74.2 71.6 71.6 71.8 70.7 65.9 59 51.5 45.6 40.4 33.8 28.7 30.7 30.8 44.8 63.9 82.5 95.6 101.2 103.2 102.6 104 108.8 109.8 107.8 102.7 95.5 85.6 74.6 63.2 49.6 33.2 22.7 16.5 16.9 38.5 57.8 72.8 80.9 87.9 93.1 97.5 100.5 102.8 104.9 107.1 110.7 114.1 116.3 116.5 116.5 115.9 115.7 115.7 116.4 119.9 124 126.6 127.2 126.9 125.5 125.5 126.8 128.4 129.2 128.9 127.8 125.8 123.5 119.8 114.9 108.6 102.4 95.9 90.3 85.1 80 73.6 62.8 48 28.8 -1.7 -1.7 10.2 35.1 45.6 45.9 40.7 29.2 21.7 29.5 39.9 45.8 45.3 49.1 59.4 67.5 71.8 72.2 69.6 63.3 58.4 57.8 59.4 62.2 63.7 63.9 60.3 58.4 67.9 79.6 85 81.6 72.2 53.2 43.5 48.8 62.8 70.6 74.5 77.8 80.3 82.7 84.4 85.4 87.7 92.4 100.1 108.4 115.4 120.7 124.1 125.4 125.5 126.9 129.4 129.8 128.2 126.6 123.5 121.2 118.9 116.8 116.6 115.8 113.3 107.4 102 101 99.8 102.9 104.9 106.5 106.8 104.7 101.7 98 94.9 90.8 82.7 69.1 56.2 65.6 84.2 94.9 99.6 102.6 103.7 103.7 103.1 97.6 104 111.6 115.8 119.9 121.9 121.6 121.7 122.3 123.7 124.3 123.9 123.1 121.9 118.4
84.4 79.6 75.7 72.1 68 63.3 58.3 48.7 39.1 51.8 66.2 78.4 82 83.7 83.6 81.6 81.1 83.8 86.1 86.4 83.5 76.3 67.5 60.3 54.8 47.9 48.1 53.1 51.2 48 62.9 85.6 100.1 106.4 109.2 109.8 110.3 111.2 110.1 106.3 99.3 88.8 76.4 62.5 48.7 38.6 32.1 25.4 18.7 15 21.9 44.4 61.6 74.7 83.2 89.5 92.9 95 96.9 98.9 103.1 110 115 117 117.1 116 112.8 110.1 112.1 115.3 120.2 122.7 124.3 123.8 123.3 121.1 119.4 120.4 121.5 122.4 122 121.2 118.9 116.4 112.9 108.1 101.8 94.6 86.5 81.5 79.7 74.8 68.8 59.7 45.9 29.8 9.6 -1.7 10.1 30.7 41.7 34.7 23.9 19.8 31 43.8 55.1 62.3 64.9 66.3 70.2 77.9 83.7 80.1 72.7 64.5 57.2 53.7 54.4 57.3 59.5 59.8 53.8 63.5 77.5 84.5 82.7 78.2 69 48.4 40.9 50 62 66 69.5 72.2 74.9 76.8 78.1 79.9 83.9 92.2 100.5 108.8 114.5 119.3 121.4 120.7 120 123.7 125.9 126.2 125.4 123.8 120.8 117.5 113.6 113.2 113.1 111.6 108.8 105.1 98.2 94 91.3 90.7 92.9 96.7 98.7 94.2 92.3 89.1 81.5 73.7 68.3 62 54.6 61.3 78.9 88 92.3 94.8 95.9 95.9 91.9 87.2 100.7 109.6 114 117.2 118.8 119 119 120.5 122.4 123.2 123.5 122.8 121.7 117.8
86.2 81 76.5 72.4 68.3 63.2 55.9 42.3 46.9 62.1 78.5 88.2 90.7 91.9 93 92.1 94.8 99.7 101.8 100.2 95.9 91 84.1 77.3 70.1 62.2 67.4 74.3 71.4 60.7 64 87 102.5 109.9 114 115.2 114.6 112.7 110.5 105.8 99.3 89.6 77.8 61.8 46.9 43.9 40.5 32.2 21.9 16.2 13.9 31.2 53.2 69.7 78.4 83.2 86 87 85.3 92.6 104 110.9 115.6 117.7 117.3 115 109.1 108.4 115.7 119.4 121.3 121.7 121.5 121 119.7 117.3 113 113 114.5 115 114.7 113.9 111.8 109.2 105.6 99.8 93.1 85.5 79.2 76.8 74.2 69.8 63.3 54.7 43.3 30.3 13.2 -1.7 8.7 28.4 35.5 24.3 14.2 29.4 44.2 58.3 69 74.4 77.4 79 81.3 85.2 85.3 79.1 70.4 61.7 53.4 49.6 50.2 54.4 54.7 51.9 51.9 67.1 78 81.2 77.2 70.4 56.1 40 40.7 48.9 53.7 56.2 61.5 65.3 67.6 68.9 70.7 75 84.9 93.7 101.9 108.3 113.9 117.7 114.7 110 115.1 120.9 123.6 123.8 123.7 121.6 118.9 115.9 112.6 110.4 109.2 106 101.9 98.3 96.7 94.6 90.3 86.3 82.8 83.2 80.3 75.5 74.4 75.6 68 62.6 58.3 53.5 49.9 57.2 71.4 78.2 82.9 85.4 86.3 85.4 74.5 86.2 100.2 106 109.7 112.1 113.8 114.5 115 116.8 119.3 120.9 121.9 121.6 120 115.9
85.5 80.1 75 68.7 63.7 58.5 52.9 43.1 54.4 72.5 88.8 96.6 100.6 103.7 106.3 107.8 110.3 113.3 113.4 110.9 106.5 102 97.8 93.3 86.9 79.6 81.6 87.4 85.4 74.7 71.1 89.9 104.7 113 117.2 118.1 117.2 115.1 112.2 108.8 102.7 94.2 82.4 66.6 62.2 59.3 49.6 36.7 23.7 16.9 12.8 25.4 48.8 62.4 69.1 72.5 74.5 73 84.5 97.7 106.6 111.8 116.1 118.3 117.2 113.1 104.4 109.8 120.4 122.1 121.6 120.5 119.1 117.8 116.5 113 108.9 105.9 107 107.2 106.7 106.1 104.3 101.9 97.4 91.5 85.3 79.6 75.9 71.7 68.3 60.8 51.6 43.7 35.3 27.5 16.9 -1.7 4.7 20.8 25.5 14.1 18 32.6 48.7 63.7 73.8 80.5 85.1 88.3 88.1 86.5 81.9 73.7 65.2 56.5 48.9 45.3 47.2 51 48.5 46 53.2 66 75.4 74.2 64.5 53.1 40.2 35.5 38 41.7 43.9 46.2 51.7 56.3 60.2 61 66 75.8 83.9 90.8 99.6 106.3 109.1 106.9 103.2 104.4 114 120 123 123 122.2 119.8 116.7 113.1 111 109.1 107.5 106.1 106.1 105.8 106.1 103.6 99.6 91.7 83.1 79.7 76.3 73 68.7 65.6 63.3 64.8 68.3 64.4 53.8 48.8 58 64.2 68.9 73.6 75.1 66.3 67.7 84 95.3 100.1 102.8 105 107.7 108.1 108.9 111.7 115.7 118.8 120.3 120.1 117.2 112.2
83.1 78.1 72 65.1 56.5 51 45.5 44.1 58.4 78.7 93.4 102 107.5 112 115.3 117.4 119.9 121.8 121 118.7 115.2 111.4 107.7 103.9 100.3 97.5 96.6 98.1 98.1 90.6 83.7 88.2 102.9 113.2 117.6 119.2 118.9 118 115.6 112.6 106.5 98.9 87.3 79.4 76.5 69.7 57.3 40.2 25.3 17.2 11.3 19.6 36.4 44.9 49.6 56.2 61.1 72.8 89 100.5 108.1 113.3 117.5 119.3 117.7 110.5 100.5 110.5 120.2 122.2 121.7 119.3 116.8 115.4 113.9 111.8 108.7 102.5 98.9 98 97.6 97.3 96 94.4 89.4 85 81 76.4 72.3 67.6 61.2 50.4 43.8 39.1 36.2 34 27.7 -1.7 -1.7 10.9 11.9 5.2 19.4 32.1 51.4 66.5 76.9 85.2 90.4 92.5 89.5 84.7 76.1 67.7 58.5 51 45.1 41.2 43.7 45.7 42.4 42.4 50.5 61.2 68.4 60.5 47.8 36.2 37 41.4 46.3 50.6 54.8 56.2 53.2 49.7 52.8 56.5 64.6 73.3 78.5 85.3 93.7 99.3 100.6 94.8 102.8 113 118.8 121.9 123.3 123.6 121.6 118.6 115.2 113.8 114 114.3 113.6 113.1 112.5 110.8 108.1 105 101.8 95.3 93.5 91.3 88.6 81.5 72.4 71.8 73.7 79.4 82.9 76.6 61.4 46.5 45.5 47 50.4 56.8 57.4 51 67.2 82.8 88.1 91.1 92.4 94.6 96.9 99.1 101 107.3 113.5 116.6 117.4 116.5 113.8 107.6
78.4 73.6 68 61.9 59.7 60 47.6 49.8 64.2 81.1 94 102.8 108.8 114.1 118.2 121.8 125.4 127.2 126.6 124.5 121.8 118.5 115.5 112.8 111.2 110 109.2 109.1 108.3 106.5 101.7 98.9 103.4 110.9 116 118.9 119.9 120.7 119.5 117.1 112.1 105.9 98.2 93.5 87.1 77.8 62.9 44 25.9 16.6 11.8 16.1 29.9 41.2 52 59 68.8 82.6 95.3 103.2 110.1 115.7 120.3 120.4 116.8 105.4 97.7 109.3 118.9 122.3 121.6 118.6 114.4 112.1 111.4 110.7 108.5 103.7 97.3 89.6 85 84.8 86.8 85.6 83.3 80.6 76.7 72.9 68.4 66.4 65.6 62.3 57.4 51.3 48.8 46.1 39.2 22.4 -1.7 4.2 4.3 10.3 21.3 36.6 54.7 70.5 82.5 89.1 92.7 92 87.6 80 70.7 61.8 53.4 46.7 42 40.2 39.1 39.4 38.2 39.5 47 54.6 52.4 44.5 33.4 37.1 47 55 61.6 68 71.8 73.1 72.2 69.2 63.5 59.4 58.4 64 68.7 73.5 82.2 89 89.3 92.9 108.6 119.1 123.6 124.9 125 123.9 121.4 119 117.5 117.3 118 118.7 119 118.1 115.8 112.4 111 109.5 106.1 104.3 101.7 98.3 90.6 82.1 80 84.4 86.1 88.6 87.2 80.3 67.8 55 47.8 42.7 40.2 41.6 41.6 44 60 75.2 79.5 78.5 76.9 77.2 80.7 86.2 96.5 105.1 109.4 112.3 113.5 112.7 109.5 103.7
77.5 70.6 64.7 63.1 69.5 71.4 53.7 52.4 66.5 80.4 93.4 102.2 108 113.8 119.3 123.9 128 130.2 129.1 126.3 124 122.6 121.2 119.8 118.9 118.5 118.4 118 117.5 116.3 114.8 113.5 114.4 115.8 118 120 121.9 123.4 123.2 121.5 118.1 112.6 107.3 101.8 94.8 84.6 67.1 45.2 27.6 17.1 11.8 18.8 39.4 55.3 66.3 76.7 86.6 95.7 102.3 108 113.5 118.6 120.5 119.2 113 98.8 95.9 109.1 119.8 122.2 120.7 116.8 112.3 107.5 107.5 107.5 105.8 102.8 99.3 94.5 86.5 73.6 72 76.6 77.2 75.1 71.6 68.6 62.8 63.5 67.2 69.2 66.4 61.6 56.4 50.6 43.1 29.6 -1.7 -1.7 7 17.3 27.6 42.9 61.2 77.2 86.3 91.8 92 89.5 83.5 75.8 66.9 58.4 50.8 46 45.2 48.8 43.3 37.9 35.2 36.3 42.1 46.4 43.7 32.4 34.8 47 59.6 70 79.1 83.8 86.6 88.1 87.7 84.8 79.3 77 75.2 73.6 73.6 75.3 76.6 80.2 89.1 102.4 116.3 124.8 128.6 128.9 127.9 125.5 123.2 122.3 121.3 121.1 123.2 124.5 124 121.6 118.1 116.4 115.5 113.7 110 106.2 103.5 97.5 93.3 89.6 86.1 89.7 92.4 91.8 88.4 83.6 79 71.7 64.6 58.8 55 51 40.3 34.9 44.4 62.7 67 62.9 59.1 62.2 70.5 81.8 95.3 103.3 108.3 108.6 107.8 107 105.4 101.4
75.5 67.9 63.9 72 78.1 72.4 58.2 50.4 65.8 81.6 93.4 102.5 109 115.3 120 124.5 127.2 128 126.4 123.9 123 123.3 123.5 123.9 123.8 123.7 124.4 124.8 124.2 122.7 121.2 120.3 119.8 120 120.1 122.2 123.7 124.6 125.3 124.9 122 117.7 112.6 107.3 100.1 88.1 66.5 45.8 29.9 17 10.3 24.8 47.6 68.8 83.5 92.5 99.2 105.7 110.6 114.1 117 118.3 118.1 114 102.4 91.4 95.4 110.3 119.2 120.2 117.7 114.4 109.3 102.5 101.6 102.4 101.2 98.3 95.2 91.7 87.2 73 58.2 65.7 68.8 68 64.9 61.5 57.1 59.9 66 69.1 67.2 63.3 57.7 50.3 41.5 30.2 13.2 -1.7 6.3 22.1 37.2 53.2 69.5 81.2 87 89.9 89.2 85.8 79.6 72.8 64.8 57.3 50.7 50.7 53.7 55.2 47.1 39.1 34.6 31.6 33.5 37.1 35.1 30.4 41.6 56.4 71.4 83.9 88.9 89.9 91.6 92.6 91.6 89 87.2 88.1 90.1 92.4 94.4 95.4 96.7 99.8 106.1 115.7 122.3 127.4 130.2 130.1 129.3 128 126.7 126.2 125 125.1 128 128.8 126.4 123.1 121.8 120.6 118.7 115.6 112.2 107.9 105.1 104.4 102.1 94.2 94.3 96 96.8 96.4 96.4 96.5 96.1 92.9 85.5 80.3 74.5 68 57.3 43.2 30.8 47.9 48.7 46.9 58.3 67.9 77.5 87.3 97.1 102.9 105.7 104.7 102 100.5 98.7 95.5
66.9 73.8 78.2 81 80.8 71.1 57.4 52.6 67.7 81.3 94.3 104 110.2 115.8 120.3 123.4 124.8 123.8 121.2 118.2 118.3 120.7 122.2 123.6 124.6 125.6 126.7 126.8 126.3 125.3 123.8 123.1 122.2 121.8 122.3 122.9 123.2 123.6 124.5 124.3 122.5 119.7 115 110 102.1 87.9 65.8 47.3 31.6 17.6 15.5 31.7 54.1 77.5 90.8 97.9 104.2 110.4 114.4 116.3 116.1 114.9 110.8 99.3 89 87.6 99.2 112.8 118.2 117.6 114.6 111.1 105.9 96.4 94.1 95.8 94.9 91.6 88.3 86.4 82.9 73.1 54.1 55.8 60.4 59.7 56.8 51.3 50 57.1 64 66.8 65.9 62.8 55.8 47.1 36 24.7 13.7 -1.7 3.9 25.1 45.4 65.4 76.2 81.9 85.1 86.9 85.8 81.3 77.5 73 67.2 61.5 56 58 58.7 55.6 48.3 39.9 36.7 35.7 32.3 30.4 27.9 31.3 46.3 63.8 80.4 88.3 89.8 90.7 92.7 93.7 92.4 90.5 90.1 91.3 94.3 98.3 102.1 105.4 108.4 112.7 116.3 121 124.5 127.5 129.7 130.9 130.7 130.3 130.2 129.8 128.4 128.6 129.8 129.3 126.1 126.4 125.5 123.6 121.1 117.7 114.7 113.2 112 109.5 104.5 100.9 101.6 102.4 103.4 105.2 106.3 106.3 106 103.9 101.5 97.3 90.8 79 62 47 29.6 32 45.2 58.2 70.5 81.6 91.4 97.8 101.4 101 100.2 97.1 92.6 90.4 89.7 87.4
84.5 84 83.6 80.9 72.7 61.5 54.7 63.5 66.1 77.8 92.4 103.1 110 115.3 119.4 121.6 121.7 118 115.1 111 111.7 116 117.7 120.3 122.9 126 127.5 127.6 127.1 126.1 125.1 124 122.6 121.1 121 120.8 121.2 121.4 121.7 121.7 120.7 119.3 116.8 112.5 106.5 95.8 73.2 52 34.3 18.2 17 35.9 59.2 81.8 92.8 100.5 107.2 113.2 115.9 115.6 113.2 108.4 96.1 83.6 81.1 91 104.6 116.9 118.8 115.7 111.9 107.4 101.9 90.2 83.8 86.9 87.1 84.6 81 78.2 75.7 70.6 53.2 47 51.2 50.9 49.1 42.4 44.4 54.5 62.4 64.9 64.8 61.6 53.5 41.5 26.8 15.6 8.1 -1.7 4.2 26.8 51.5 70.3 77.1 79.9 81.9 82.4 81.4 79.1 76.6 74.1 70.5 65.3 62.6 62.8 60.5 56.2 49 41.9 47.2 49.2 46.6 38.7 30.2 28.1 45.1 63.8 79.8 84 86.9 90.5 92.8 92.6 91.4 90.1 89.5 91 93.9 97.8 101.9 105.3 109.7 114.1 117 120.4 123.6 126.8 129.7 131.9 133.7 133.9 133.7 132.5 131.9 131.3 131.1 129.9 129.6 129.9 128.5 127 123.9 121.2 119.8 119.1 116.5 112.4 107.6 107.2 107.6 108.7 110.7 112.7 113.3 112.9 111.6 109.9 107 101.2 94.3 78.9 59.1 42.9 28.3 39.4 57.2 72.5 86.1 97 102 104.2 102.2 96.9 94.2 88.3 80.7 74.8 73.7 74.7
90.4 85.3 81 75 66.2 58 67.1 79.8 82.7 81.7 88.2 101.8 109.1 114.3 117.6 119 117.1 112.5 108 101.7 105.6 109.2 111.8 116.1 122.2 126.3 127.7 128.1 127.4 126.4 125.1 123.4 119.8 116.7 115.4 116.5 116.7 117 117.3 118 118.2 117.9 117.3 114.6 110.2 102 82.5 59 37.6 18.9 17.1 36.1 59.8 80.7 92.5 101.1 107.7 112.8 114.9 113.8 108.6 101.2 84.1 74.6 81.5 95.5 109.6 119.8 119.1 113.4 107.4 102.2 97.3 90.8 77.6 74.9 78 76.2 71.5 67 64.5 61.1 49.6 39.2 39.2 41.9 41.1 35.4 40.8 54.4 61.8 63.8 65.1 60 49.4 31.2 15.2 7.8 -1.7 -1.7 4.3 34.1 56.2 72.4 74.7 76.2 77.8 78.7 78.4 78 76.9 75.2 72.3 68.8 68.9 67.6 64.2 59 51.8 50 59.8 62 58 48.5 35.7 26.3 40.5 59.7 74.6 79.5 84.2 88.4 90.4 90.3 88.9 86.8 85.3 87.1 90.2 92.7 97.6 102.2 107.3 111.9 114.4 117 121.2 125.9 130.2 133.1 135.5 136.3 135.7 134.4 133.6 132.8 132.4 132.7 133.1 133.1 131.6 129.7 126.9 125.3 124.7 123.1 119.6 116.2 114.4 113.8 113.2 113.9 116.3 117.8 117.5 117.5 114.2 111.6 107.1 101.1 90.2 71.7 51.8 35.2 26.7 44.1 65 82.5 96.1 103 104.9 105 101.3 95.4 88.3 79.6 70.3 62.1 56.4 55.8
90.2 84.7 81.3 80.5 73.9 63.1 70.4 88.9 95.5 95.1 95.5 100.3 108.2 112.9 115.2 115.2 113.7 108.1 101.3 93.9 95.1 98.1 103 112.8 120.3 124.9 126.7 127.9 127.7 126.4 125 122.7 117.9 112.5 110.1 110.6 110.6 111.5 112.7 113.8 114.7 116 116.2 114.9 111.7 106.3 88.2 63.7 41.7 21 15 33.4 57.3 75.8 88.6 99 106.3 110.6 111.8 110.4 104 95 77.9 71.5 83.9 98.3 114.5 119.9 116.9 112.2 104.9 98.1 93.2 86.9 77.2 64.2 66.3 64.1 58.8 53.7 50 47.9 46.3 39.5 30.3 31.3 30.1 31.7 44.4 55.7 60.1 61.5 60.7 55.7 40 18.3 3.5 -1.7 -1.7 5.2 25.6 43.5 61.8 68.4 69.6 71.5 73.8 75.6 76.6 76.9 76.9 76.4 75.1 74.7 76.7 75.4 71.3 65.7 61.9 64.9 70.5 72.9 69.8 56.3 39.2 25.3 35.6 56.1 70.6 76.4 80.5 83.8 85.2 85.3 84 81.2 78.2 79.2 81.5 83.3 88 93.3 100.1 105 106.1 110.4 117.2 123.8 128.9 132.4 135.4 136.3 136.9 135.9 134.7 134.1 134 135 136.1 135.6 134.1 132.2 130.2 129.5 128.6 126.7 123.5 121.9 120.6 118.7 116.8 117 117.5 118.2 117.8 116.4 112.8 108.3 103.4 96 82.4 63.8 45.8 28.7 28.6 46.9 67.1 86.3 98 102.6 104.1 103.9 100.7 94.6 88.2 82.8 77.5 68.2 57.8 49.1
97 95.4 95.3 94.1 85.4 70.3 71.2 92 101.4 103.2 104.7 105.3 108.4 111.2 112.6 112.1 110.6 105.8 98.6 88.5 85.5 88.7 97.9 107.8 116.1 121.9 125.5 127.2 127.6 126.6 125.1 122.6 118.1 111.8 106.5 102 102.8 105.5 107.3 109.3 111.2 112.7 113.4 113.3 111.2 107 94.2 69.6 47.5 25.1 14.3 27.9 48 66.2 81.8 94.7 103.7 107.3 107.3 103.3 95.2 85.4 74.1 68.3 84.6 101.2 115.9 117.5 114.9 110.6 103.5 95.9 89.5 80.9 71.4 58.2 54.5 52.2 47.4 41.4 37.6 35.2 37.2 34.3 26.3 23.8 22.5 30.3 42.6 50.7 54 54.2 54.2 48.9 29.5 -1.7 -1.7 -1.7 18.5 38.3 47 53.8 59.4 61.3 63.5 66.7 69.9 72.3 74.2 75.7 76.8 77.2 77.8 81.2 82.6 81.3 78.3 75.8 74.4 75.7 79.1 78.5 75.2 59 39.7 24.2 33.4 53.5 67.4 72 74.7 75.7 76.7 77.8 77.3 73.6 67 67.4 67.8 68.5 72 78 86 89.8 95.1 106.2 114.5 122.4 128.4 132.6 135.1 136.3 137.3 136.8 135.9 135.2 135.1 136.3 137.2 136.9 135.7 134.6 133.9 133.3 132.2 130.3 128.4 126.2 123.5 119.9 116.7 115.5 115.3 115 114.1 111.4 107 102.2 96.7 89.3 76.8 58.8 41.1 26.8 29.1 46.5 66.8 86.3 96.4 100.9 102.8 102.4 100.1 96.8 93.9 93.3 88.7 80.9 70 58.7
108.9 106.7 103.8 100.1 90 71.6 76.8 95.4 103.9 107.3 108.5 109.2 109.5 109.8 109.2 108.5 107 104.4 99.3 89.4 78.9 82.4 90.8 101.1 111.3 118.7 123.1 125.7 126.4 125.9 124.4 122 118.3 113 107.8 99.6 94.2 98 101.7 104.4 106.3 107.9 108.9 109.8 109.1 106.3 98.4 77.7 54.3 32.4 15.7 20.3 37.2 54.5 71.5 88 98.9 101.9 98.6 89.2 79.2 72.8 66.4 68.3 86.7 105.3 116.2 115.6 112.8 108.2 100.5 92.2 84 76.3 67.8 57 47.6 43.2 38.5 35.9 34.9 33.1 30.2 26.8 24 21.9 19 20.1 31 38.7 43.1 44.8 45.8 42.8 23.9 -1.7 3.4 10.5 30.5 46.9 51.8 49.6 50.6 53.4 56.6 61.2 65.6 69.7 72.8 73.2 74.9 77.2 79.8 83.9 84.8 84 83 83.2 83.4 83.1 83.1 80.3 70.2 52.4 35.6 22.8 34.4 49 56.9 59.4 59.3 59.3 59.8 63.6 64 62.1 55 52.3 55.3 60.9 65.5 71.2 79 90.6 103.8 114.8 121.4 126.1 130.7 133.2 134.5 135.5 135.1 135 134.4 134.4 135 135.8 136.6 136.6 135.9 136.5 137.3 137 135.7 133.8 132.1 128.1 123.4 119 114.9 111.7 110.3 108.3 106 102.6 98.4 93.5 87.9 81.1 69.8 55.3 42.1 24.8 27.2 44 64.4 83.5 92.8 97.1 99.2 99.9 100.7 101.1 99.7 97.7 93.7 87.5 81.8 71.8
118.1 113 106.7 97.9 82.4 73.7 84.5 98.7 105.8 109.5 110.6 110.3 108.5 105.7 103.3 103.3 102.9 101.6 98.4 91.3 76.3 75.7 83.3 96.8 107.8 115.2 119.8 123 124.6 124.3 122.7 120.3 117 113.8 109.7 102.5 93.5 90.5 95.2 97.4 99.9 102 103.8 105.1 105 103.7 98.3 82.5 59.2 38.1 19.7 13.7 25.7 41.8 59.5 79.2 92 94.9 85.3 72.9 62.8 57.7 59.8 73.9 92 109.2 115.7 113.7 109 103.4 95.6 88.1 80.5 73 62.7 54 46 41.6 40.1 40.3 40.5 40.3 38.2 34.4 30.9 35.9 35.3 25.8 16.1 20.1 25.3 29 31.7 27.4 15 -1.7 -1.7 10.9 27.8 40.3 39.9 35.2 37 40.6 45.4 51.6 59.2 65.9 69.3 70.3 72.6 76.2 80.1 82.7 84 85.1 86.8 87.8 88 86.3 82.9 75.7 61.3 44.7 28.6 20.5 32.4 39.2 42.1 43.1 42.4 42.4 42.7 44.6 47.5 48.6 47 54.3 69.2 77.9 84 89.3 94.6 104.2 114.7 119.4 122.8 126.8 129.7 131.6 132.3 132.5 132.6 132.6 132.6 132.6 133.2 133.8 134.3 134.8 136.5 138.9 140.4 140.3 138.6 136.5 132.7 127.4 121.9 116.2 110.4 105.7 102.9 98.4 93.2 88.2 82.4 76.7 71.2 64.3 56.7 47.2 37.8 25.6 24.7 40.5 59.7 77.7 86.8 91.7 95.3 98.6 100.5 101.9 101.1 98.8 95.3 91.2 85.9 77.9
123.3 117.1 106.5 88.9 79.2 87.1 88.9 98.4 106.5 110.2 111.9 110.8 107.2 100.3 94.7 94.4 97 96.3 94.7 90.8 79.1 69.5 79.6 92.9 102.8 110.3 115.8 119.9 121.7 121.4 119.7 117 114.8 112.2 108.3 103.5 96.1 86.1 83.6 85 87.3 91.2 95.3 97.7 99.1 98.9 95 85.6 65.8 45.3 26.4 13 15.2 28.4 46.7 67.4 82.5 84 71.1 57.5 48.5 56.4 69.3 85.1 101.2 113.4 115.4 111.3 105.8 99.6 92.5 85.7 77.6 67.3 57.1 50.4 45.4 45 46.7 48.5 50.3 50.6 48.4 44.6 41 48.5 48.8 41.9 29.4 20 14.1 12.2 12.6 10.6 5.9 -1.7 -1.7 3.7 17.9 25.2 23.9 29.6 34.5 38.5 42.6 45.9 50.1 58.1 63.4 66.1 69.8 74 78 81.1 83.7 86.7 89 90.3 89.4 83.9 76.7 64.3 50.7 35.9 22.3 18.4 22.3 24.8 27.9 29.5 31.7 34.6 39.6 41.3 40 41.2 46.7 57.7 73.1 81.9 89 96.2 104.1 111.5 116.2 118.7 122.5 125.6 127.4 128.3 128.4 128.5 128.3 128.7 129 129 129.4 130 130.8 132.5 135.5 138.4 140.6 140.7 138.6 135 129.8 123.5 116.3 109.5 103 96.7 91.7 83.1 73 68.1 63.7 58 51.8 45 38.4 31.6 27.7 23.4 20.5 35 51.9 68.3 79.1 85.4 91.2 95.7 97.8 99.3 99.3 98.4 96.2 92.8 87.8 79.7
125.5 117.6 101.8 83.1 90.7 96.4 95.5 103.3 106.9 110.9 113.5 112.6 108.6 101.8 92.3 86.2 88.3 88.5 86.8 85.4 80.2 66.6 74.1 87.1 96.6 104.7 111.5 115.3 116.6 116.5 115.3 113.3 111.1 108 105.7 102.4 97.4 89.9 83.6 76.3 70.2 73.7 78.6 83.8 88.8 92.4 91.3 85.7 72.4 53.8 35.8 19 9 16.6 33.2 53.5 70 70.8 56.3 43 48.4 66.3 82.2 97.7 110.8 116.4 114.9 110.1 102.7 96.1 88.2 78.8 69.8 60.8 54.8 50.3 51.8 55.7 59.3 61.2 64.4 64.5 59 52.8 53.2 55.2 55.6 52.9 45.9 37.5 28.9 22.2 20.8 18.5 9.6 2.7 -1.7 -1.7 7.4 19.7 33.4 42.3 46.4 50.8 53.8 56.3 56.3 54.9 57.8 62.5 66.9 71.6 76.6 79.9 83.1 86.7 89.8 90 82.7 73.2 63.3 51.4 38.3 25.4 18.4 29.9 37.8 42.4 44.9 46.3 47.4 50.1 56.2 58.5 55.9 52 51.1 63.5 75.4 83 89.4 97.1 104.9 111.3 114.6 116.4 120.4 122.6 123.6 123.7 123.5 123.4 123.8 124.1 124.3 123.2 123.8 124.5 125.2 128.6 131.7 134.7 137 137.4 135.5 131.3 125 115.9 106.1 95.5 88.9 84.3 75.8 65.9 57 52.8 49.3 44 37.5 30.1 31.2 33.3 33.7 30.3 20.5 23.9 41.4 55.7 69.8 78.8 86.3 90.1 91.8 93.9 95.2 96.6 96.7 94.9 90.6 82.6
125.3 115.9 97.4 88.6 101.6 105.9 106.1 110.9 113.3 114.3 115.4 113.9 109.7 103.4 95 83.8 77.6 78.5 76.5 73.7 70.8 64.2 69.9 81.1 90.3 99.1 105.7 109 110.5 111.1 110.1 108.3 104.2 102.2 102.4 101.3 99.6 98.1 95.7 88.4 79.3 67.8 60.3 63.7 71.6 82.6 86.8 84.9 77.9 62.5 45.1 28.9 14.8 8.8 20.4 41.2 56 55.2 42 39.9 56 75 92.9 109.1 115.8 115.4 111.6 106.5 99.6 92.3 84.3 73.5 65.3 60 55.3 53.6 60.2 64.4 67.8 71.5 71.9 69.8 64.7 62.1 61.8 61.4 61 60.4 59.2 55.2 47.7 40.8 38.3 33.2 23.2 10.7 2.6 -1.7 9.6 30 48.5 55 57.5 60.6 63.7 64.6 64 61.4 59.4 61.4 65.8 71.3 76.3 79.1 82.1 85.9 87.9 80.7 69 58.7 47.9 36.8 24.6 17.4 26.2 41.9 54 59.5 62.6 65.3 68.2 70.6 74 74.9 72.5 63.8 55.2 63.2 74.5 81.8 89.1 96.6 104.2 109.8 112 112.5 117.2 118.5 119.2 118.8 118.2 117.9 118.7 118.9 117.8 115.1 114.2 114.5 117.3 121.2 124.6 128.5 131.5 133.1 131.9 127.8 121 110.2 103.4 96 86.4 76.3 68.8 61.4 54.8 47.5 40.5 39.2 44.5 47.2 49.5 51 51.3 48.1 34.8 19.4 25.6 43.6 58.3 70.6 78.7 82.1 84.4 87.2 91.4 93.9 96.2 96.6 92.6 84.8
124.8 111.4 96 96.1 110.2 114.8 116.3 117.7 118.8 118.2 116.5 113.5 108.2 99.6 89.5 80.5 71.8 68.7 66.4 63.2 59.6 57.7 65.3 74.5 83.5 92.2 98.4 102.4 104.8 105.4 103.8 98.4 92.5 95.3 100.7 102.6 103.9 104.9 103.6 99.4 91.8 81 65.1 47.8 54.5 69.5 81.5 84.1 80.5 72.8 59.7 43.2 26.9 12.7 12 27.9 39.2 38.6 32.5 45.3 64.2 83.7 102.3 113.8 115.2 112 107.3 101.8 95.4 89.3 81.3 71.3 64.7 61.1 58.8 60.8 66.5 70.3 74.3 76 75.8 74.1 71.6 70.5 68.4 67.4 66.4 64.8 63.7 61.3 54.6 47.3 39.3 34.1 28.5 17.6 -1.7 -1.7 13.2 39.6 57.8 62.9 65.4 67.2 68.6 68.1 67.6 66.1 64.2 64.7 68.2 72.8 76 79.2 82.7 85.5 79.3 66.4 54.4 43.2 32.4 21.6 16.1 24.5 40.7 55.3 68.6 75.8 81.5 86.5 88.3 89.2 87.5 85.8 80.6 72 64.4 66.8 73.3 81.1 88.2 95.6 103 107.2 108.8 111.1 113.9 114.9 114.8 113.7 112.3 112.1 113.2 113.3 110.3 101.6 98.6 101.2 106.8 112.8 119 123.9 127.9 130.8 130.3 127 123.6 119.4 114.1 106.3 96.8 84.7 78 72.2 62.6 53.4 44 50.1 58.7 63 65.2 66.9 67.2 63 52 37.4 17.4 28.4 44.1 56.4 63.9 70.5 74.1 79.9 86.3 89.3 92.9 95.3 93.2 86.6
119 105.8 97.8 99.2 114.9 121.9 123.7 123.9 123 121.2 116.8 110.2 101.1 90 80 71 70.3 71.8 73.1 72 71.2 63 57.3 66.3 75.4 84 90.3 94.6 97.5 97.3 91.7 83.1 84.6 96.3 101.5 104.7 107 108.3 107.9 105.9 101.3 93.8 78.4 56.6 41.8 58.6 74.6 81.7 82.2 81.3 72.7 58.2 41.6 24 10.1 14.7 24.5 26.4 35.7 53.5 72.4 91.4 108 111.9 110.5 106.6 102.2 97.1 92.6 86.3 79 71.4 67.3 64.3 63.4 66 71.3 75.9 79.2 81 81.7 81.5 80.6 78 75.1 72.7 69.5 66.2 62.5 58.5 52.3 43.4 33.1 24.4 19.7 11.8 -1.7 -1.7 22.2 47.9 64.6 69.7 72 72.3 71.4 71.9 71.5 70.1 68.5 69.6 71.8 74.2 77.4 80.2 82.7 76.4 63 50 38.4 28.2 18.1 13.8 24.8 38.7 54.6 70 82 90.5 98.2 101.9 100.3 97.8 95.8 91.7 84.8 76.2 69.9 67.1 70.1 78.3 86.6 94.5 101.1 104.3 106.1 108.8 110.2 111.3 111.7 109.4 103.8 104 105.8 102.9 95.1 90.5 97.8 103.5 108.5 115.9 123 126.6 128.4 130.9 131.7 130.2 128.4 125.4 120.4 112.1 103.2 91.4 81.8 70.7 59 49.9 54 64.1 74.6 78.2 79.1 78.8 77.9 74.7 61.1 44.8 28.5 15.7 28.2 36.7 43.5 51.2 59.6 67.8 74.9 80.9 86 90.3 91.2 86.4
123.6 122.4 111.4 100.4 115.8 126.7 128.1 127 126 121.9 114.9 103.9 91 78.5 78.9 83.3 85.8 86.9 88.9 87.1 81.5 72.4 61.8 55.2 65.4 73.3 80.1 83.4 85.3 82.6 75.6 72.8 88 97.3 102.1 105.9 108.8 110 109.9 109.4 105.7 98.8 84.1 60.9 39.5 48.4 67.6 77.4 80 80.2 78.6 70.5 55.8 36.5 20.4 7.1 11.7 19.8 34.5 55.5 77 96.5 106.6 106.9 104.3 100.5 95.9 92.1 88.4 83.4 77.1 73.2 70.1 67 68 70.9 76.4 82.1 85.6 87.3 89.1 90.1 87.7 84.1 80.7 76.9 72.8 67.9 62.5 57.2 50.7 44.6 39.5 28.8 14.3 3 -1.7 6 30.4 56.4 70.8 76.3 77.1 75.2 74.3 73.8 73.6 72.9 72.7 73.4 74.4 76.5 78.9 79.9 73.2 59.5 44.8 31 20.2 14 15.3 26.3 36.3 50.1 67.1 81.6 92 99.8 104.6 106.5 103.6 101.3 98 90.7 82.4 74.5 69.5 64.5 65.8 75.5 83.8 93.2 97.3 97.7 100.5 105.3 107.9 109.3 108.5 103.6 91 90.5 90.6 88.5 86.7 93.1 106.6 113.6 117.6 122.5 127.4 129.4 130.5 133 134 132.5 129.9 125.4 118.8 111.2 102.7 89 75.6 63.3 58 62.9 69.9 81.8 88.6 88.4 85.3 80.5 77.6 73.2 57.5 40.8 23.7 20.3 18.4 12.7 21.8 32.8 41.1 49.1 57.2 66.4 74.8 80.8 84.7 81.2
135.7 132.1 122 107.7 120.4 131.1 132.3 129.9 126.4 120.8 109.4 93.4 84 86.4 93.4 101.5 102.6 101.7 98.4 94.7 89.7 82.9 71.5 59.2 52 61.6 66.1 67.8 69.5 68.7 61.3 71.3 87.9 96 101.8 106.6 109.9 110.3 109.5 108.3 105.5 99.4 87.3 64.4 42.8 39.2 57.3 69.7 73.1 73.8 74 71 58 42.6 27.8 14.7 5.1 13.1 24.8 46.4 70.7 91.8 100.1 100.1 97.6 94.2 90.9 88.6 86.3 82.8 79.2 75.7 72.1 70.2 71.3 75.2 81.5 87.9 92.1 94.6 95.9 95.6 93.6 90.1 85.5 80.9 76.2 71.3 65.6 59.2 52.9 48.2 41.7 29.4 10.8 -1.7 -1.7 11.6 37.8 62 71.6 76.3 77.7 75.4 75 74.4 74.2 74.5 75.1 75.7 77.1 79.1 80.2 71.8 57.3 40.4 24.7 14.7 8.8 21 32.2 40.9 48.4 62.2 77.6 89.7 97.8 103.4 105.4 105.3 103.8 100.9 95.9 86.4 75.7 67.3 63.6 59.6 60.3 71.1 81.6 89.1 94 93.6 97.9 103 107.1 107.1 101.4 87.4 76.5 76.9 80.2 83.8 90.4 97.2 105.1 113.4 120.6 125.4 128.8 130.5 131.9 133.3 132.5 129.5 125.2 120.9 114.8 107.1 94.3 79.3 68.1 67.2 73.7 81.5 91.1 97 95.1 90.4 83.3 75.2 69.8 61.5 44.7 25.4 33.6 38.3 35.9 29.7 19.4 11.2 21.4 28.2 38.2 47.1 56.1 64.3 70.8 68.6
141.3 137.6 129.5 115.8 127.7 134.4 134.2 130.6 123.5 111.7 100.2 95.2 93 96.4 107 111.3 112.4 110.6 106.6 101.9 97.1 91.8 83 71.6 59.5 48.1 49.8 51.3 51.8 52.1 51 63.5 76 88.9 97.2 104.1 108.7 108.8 106.5 104.2 102.1 96.9 87.2 66.6 44.9 30.8 46.2 59.1 62.8 62.3 61.2 57 43.6 29.6 17.6 11.3 13.1 5 13.9 32.9 56.6 80.5 91.6 91.2 89.3 87.9 86.4 84.9 84.6 82.9 80.8 77 74.1 73.9 75.8 80.2 86.5 92.8 97.8 99.1 100.2 100 98.8 95.9 91.1 85.1 79.7 74.4 68 61.1 54.4 46.5 35.5 20.2 5.6 -1.7 -1.7 15.4 43.4 59 65.1 69.3 70.8 71.4 72.5 73.8 75 76.2 77.3 77.9 80 82.4 76 60.2 41.4 20.7 9.2 13.7 27.7 40.4 49.5 58.5 66.9 76.1 86.8 94.4 100.1 104.3 104.2 103.7 102.7 99.7 94.3 87.2 76.1 62 55.7 52.4 56.1 65.2 74.3 80.6 87.3 93 96.9 101.9 106.2 105.6 92 72.4 72.8 82.7 89.7 95.3 104.3 112.3 115.9 116.9 120.3 125.5 128.9 130.5 132.1 132.5 129.5 125.5 121.1 114.8 107.8 100.4 85.8 72.8 70.6 82.4 91.3 100.4 104.4 102.6 97.7 91.1 82.6 71.3 56.9 45.9 30 39.8 49.9 57.3 56.7 50.9 40.8 30 16.3 10.9 9.2 20.6 33.6 44.9 54.9 54.9
143.6 141.3 136.9 133.8 136.7 137.1 135.1 128.3 119.7 114.5 109.2 106.8 104.2 107.6 113.7 117.7 120.7 121.4 117.9 112 104.9 96.9 88.4 78.9 62.1 54.7 58 57.3 53.2 47.6 42.6 49.5 59.6 73.4 86.4 96.5 102.7 103.9 101.9 98.8 96.6 92.2 84.7 68.1 48.5 30.9 35.2 45.2 45.7 41.1 39.6 38.5 27.6 15.1 20.6 27.1 23.1 13.3 6.3 20.8 41.5 69 80.3 81 80.2 80.2 80.2 81.6 82.5 82.3 80.3 78.3 77.2 77 80.8 86.9 92.4 98.8 101.8 102.4 103.3 102.5 101 98.5 93.9 88.3 82.2 75.6 69.1 62.5 55 43.5 27.8 11.3 2.8 -1.7 1.8 17.3 38 48.5 52.7 56.4 60.7 65.7 70 73.7 76.2 77.9 79.2 80.4 81.3 77.4 64.7 47.1 24.6 10.8 15.5 30.2 44 57.6 69.3 77.9 83.3 86.9 91.4 96.1 100.2 102.4 102.7 101.9 100.1 97.8 94.7 88.8 78.5 60.4 50.1 47.4 51.6 57.7 63.7 75.5 84.2 90.6 96.7 101.7 103.8 97.2 83.3 66.7 81.1 97.8 104.9 110.2 116.4 121.7 123.5 123.9 123.4 125.5 128.5 130.5 132.1 131.3 127.2 120.4 112.5 102.9 94.4 90 80.4 70.2 81.7 95.1 106.7 110.7 109.4 105.6 100 93.2 86.1 71.8 53 36.8 41.3 50.2 63.3 72 74 69.8 61.5 51.2 42 35 26.7 13.1 8.2 21.3 33 41
144 143.6 143.1 143.1 142.3 141 137.8 133.4 130.4 126 119.9 116.3 115.3 118.1 120.9 124 126.9 127.3 125.2 119.6 111.2 101.4 90.9 75.3 58.4 66.8 74.6 75.2 71 64.1 55.1 43.3 45.4 55.4 70.3 84.4 93.5 96.6 95.7 92.4 89.1 85.8 78.8 65.1 51 35.1 22.9 25 23.6 21.3 19.7 17.7 14.2 25.2 38.8 38.4 27.5 16.8 7.8 10.6 32.9 59.1 68.6 70.8 71.3 71.2 72.4 77 79.5 79.2 80.6 81 80.2 81.2 85.8 93.1 98.4 103.3 105.7 106.9 105.7 104 101.7 99.2 94.7 88.5 82.3 76.1 70.2 64.1 55.8 44.1 29 13.5 1.7 -1.7 -1.7 14.1 27.2 33.3 36.5 43.3 54.7 64.2 70.9 75.9 78.4 79.8 81.3 81.3 74.9 64.7 50.3 33.1 14.6 9.1 26 43.5 59.6 74.1 85.5 88.9 89.9 90.8 93.3 95.9 98.8 100.4 100.7 100.5 98.4 95.9 92.6 88.1 77.5 60.1 46.8 42.9 45.7 52 62.9 74.6 82 89.4 95.8 100.4 93.6 82.8 70.3 65.4 84.2 101 107.8 112.9 118.9 124.9 126.5 127.2 126.9 127.2 129.1 130.5 131.8 131.4 127 122.3 116.7 108 97.2 82.4 72.9 79.6 94.1 107.1 113 114.1 111.8 107.7 102.6 95.8 83.8 64.3 43.7 47 51.8 61.6 74.7 85 88.1 86.8 79.7 70.3 63.7 59.2 50.7 36.2 20.4 7.8 7.1 18.7
143.6 144.7 146 146.9 146.7 145.1 142.5 140.4 138.4 136.1 132.5 130.7 129 129.8 130.9 131.7 132 132.8 131.2 124.7 116.3 104.9 90 72.3 60.1 78.4 90.5 93.3 88.2 79.9 69.7 57.6 45.8 42.9 54.2 70 84 90.3 88.9 84.9 79.2 75.1 65.3 51.2 40.5 29.7 22.7 29.5 30.2 31 32.4 30 23.3 31.7 43.6 42.5 32.5 21.4 11.2 5.6 26.2 46.8 56 59.2 60.8 60 65.8 73.3 75.6 78.9 82.4 84.4 85.9 90.1 95.1 98.1 102.4 105.7 107.2 107.9 106.6 104.3 101.3 97.7 92.4 86.4 81.5 76.3 71.1 66 59.5 50.9 39.9 22.6 1.8 -1.7 -1.7 6.1 12.8 18.3 26.7 40.5 52.7 64.5 73.4 78.7 81.5 81.5 81 77 65.1 51.6 36.3 20 8.3 18 35.2 56.1 75.1 88.5 94.1 94.6 93.3 91.9 92.7 94.6 96.2 97.7 98.3 97.8 96.7 94.5 91.1 86.6 78.9 62.5 46.9 38.8 42.2 52 61.2 69.5 77.5 85.2 88.8 86.3 77.6 67.3 60.9 72 76.9 89.7 100.5 108.9 115.9 122.1 124.6 126.8 127.6 128.5 130.7 132.5 133.7 133.8 130.4 126.4 121.7 115.5 105 84.5 74.1 87.6 102.7 112.9 117.6 118.6 116 111.3 105 95.4 76.4 56.8 53.5 59.5 67.4 76.9 88.6 96.2 99 99.3 95 87.9 85.5 81.5 70.9 56.5 42.5 26.4 11.8 5.2
142.2 145.6 147.8 148.6 149.1 148.6 147.9 146.7 145.9 145.2 143.6 141.7 140.2 140.6 140.7 139.7 139.2 138.3 136.5 129.9 120.2 109.6 94.7 75 63.3 81.7 98 103.7 101.5 93.6 83.2 71.6 58.9 46.2 42.7 58.1 75.3 83.1 81.4 76.2 67.2 57.6 47.3 35.1 25.8 27.3 38.1 47.2 47.9 48.9 48.2 41.8 28.4 34.5 45.8 47.4 42.1 32.5 17.5 6 18.2 33.8 43.8 47 47.9 49.7 59.9 66.7 72.5 79.8 85.5 90.6 96.3 103.5 105 105.1 106.3 107.4 107.4 105.8 104.5 102.3 99.1 94.4 89.2 83.8 79.4 75.3 70.5 67.1 63.4 59.9 52.5 37.7 13.4 -1.7 -1.7 2 3.8 8 18.9 30.8 44.7 61.9 74 80.7 82.3 80.6 77.8 67.7 53.9 39.3 22.5 10.3 11.2 25.6 45.4 67.9 86.6 96.5 99.3 96.7 92.2 89.8 89.9 91 92.8 94.5 94.5 94.7 94.2 92.6 89.9 84.9 77.4 63 48.6 37.5 38.2 47.7 54.5 61.2 68.7 75.4 75.2 67.5 61.8 58.8 74.2 88 89.8 81.2 90.2 100.1 108 114 118.9 122.9 127.8 129.8 133.1 136 138 137.2 133.7 129.3 124.5 118.8 106.5 85.9 84 96.1 109 115.6 120.7 122.7 120 114.4 105.3 90.6 71 54 64.6 73.6 83.3 92.8 100.7 105.6 108 108.6 106.4 104 101.8 96.4 87.7 73.1 60.6 34.2 14.3 7.9
141.7 145.3 147.7 149.3 150.2 150.8 150.7 150.2 149.6 149.8 149.4 148.4 147.4 147 145.9 144.9 143.4 141.8 138.2 132.1 125.1 114.9 99.7 78.1 67 85.2 101.7 107.5 106 100.7 92.9 82.7 69.5 55.1 39.8 46.5 64 73.3 71.5 63.9 51.7 39.8 31.1 25.7 32.8 41.4 52.7 57.4 58.7 58.7 56.1 41.8 33.5 43.4 49 53.2 52.5 43 28.7 12.2 7.7 21.6 31.6 35.8 36.6 43.1 52.9 62.1 71 81.4 90.2 98.1 108.6 113.1 112.7 112.4 111.6 110.8 108.7 104.9 101.7 98.8 95.3 90.3 84.9 79.5 75.6 72.3 70 67.3 66.4 66.2 61.6 50.6 26.6 -1.7 -1.7 1.8 1.8 1.8 7.5 18.5 34.5 55.2 68.7 78.4 81 77.1 69.8 56.4 42.7 25.5 9.6 6.4 23 40.1 59.9 76.8 91.5 97.6 95.7 92.6 87.8 85.3 85.9 87.6 89.4 91.6 90.8 92 91.2 90.3 88.4 84.6 77.4 65.6 51.7 39.2 33.1 39.8 45.5 49.2 54.3 57.9 55.6 51.3 57.4 70.3 88.9 105.2 108.4 104.5 99.1 98.1 100.4 104.9 110.9 119.8 127.1 131.8 135.6 139.1 140.1 139.4 136 131.4 126.4 120.3 108.4 89.7 90.8 104.3 110.8 116.6 122.8 124.6 121.9 115.6 106.4 91.8 73.6 62.6 75.9 88.6 98.4 105 109.5 112.6 115.2 115.1 113.8 111.6 108.3 103 95.4 85.7 58.9 35.2 19.8 9
140.5 143.6 146.8 149 150.4 151.3 151.5 151.5 151.6 151.6 151.4 151.3 150.8 150.6 150 147.9 145.3 142.7 139.1 134.8 127.7 114.5 96.2 77.8 72.6 89.6 104.7 109.9 109.5 105.2 98 89.7 79.2 64.2 47.6 38.4 52 58.3 57.5 49 36.7 27.3 33.7 40.5 46.8 52.7 59.3 62 63.7 62.5 55.8 41.5 43.1 50.4 53.2 62.5 64.3 53.3 39.8 22.2 5.9 8.4 16.7 24.6 26.4 34.9 47.3 59.6 71.9 84.2 95.5 106.9 115.2 117.4 117.7 117.6 116.5 114.1 110 104.4 99.1 94.5 89.8 85.1 78.9 73.6 71.2 69.9 68.1 66.2 65.1 63.2 57.9 45.9 26.7 9.2 -1.7 -0.1 -1.7 -1.7 2.3 7.1 24.4 44.8 62.9 70.9 75.1 69.7 58.2 41.4 26.1 11.1 4.3 18.8 34.3 47.8 66.3 80.6 88 90.1 88.3 86.1 82.1 80.8 81.7 84.8 87.7 88 88.4 88.7 88.3 87.7 86.1 83 76.9 67.8 56.2 42.1 30.3 30.9 33.7 35.6 38.9 42.6 49.4 57.3 68.8 85.8 104.4 118.9 123.7 123.4 117.4 113 112.6 113.7 115.5 122.1 127.9 132.8 136.4 139.3 140.2 139.3 136.9 132.5 127.1 118.1 105.6 95.5 92.9 102 111.6 118.8 124.7 125.7 122.8 117.5 109.9 98.2 83.1 67.3 82.3 98.1 110.3 114.3 117.2 120 120.6 119.5 117.6 114.2 110.4 105 97.6 86.9 59.6 36.2 34.3 10.9
138.7 141.6 144.7 147 149.5 151 151.4 151.6 151.8 152 152 152.2 152.2 152.2 151.5 149.4 146.2 143.2 139.8 135.1 126.4 107.3 88.1 72.5 81.6 96.5 107.4 111 110.9 107.1 101.4 93.4 84.4 70.3 53 37.9 37.9 40.8 40.5 35.7 33.3 41.7 49.8 57.9 62.7 62.6 63.8 65.5 65.6 63.5 53.1 45.8 52.8 58.2 65.1 72.3 69.3 61.5 51.2 33.4 11.4 2.2 8.1 14.7 21.2 32.1 44.1 58.3 73.6 87.5 101.4 110.3 115 117 118.2 118.2 116.4 113.4 108.2 102.2 95.3 88.2 82.7 76.8 72.1 69.5 67.4 66.8 65.6 63.1 60.9 57.6 47.6 31.7 13.5 3.5 4.9 10 1.4 -1.7 -1.7 -1.7 12.6 33.3 53.1 63.7 64.7 59.1 45 28 11.9 3 13.8 29.3 44.4 59.4 70.1 74.7 76.3 78.1 77.6 77 76 77.8 81.6 84.2 84.7 85.1 84.6 84.9 85.2 85 83.7 81 75.9 63.3 47.1 31 29.1 38.2 42.7 47.8 52.7 57.9 64.1 71.7 85.1 101.7 118 125.4 129.3 130.9 129.8 127.9 125.5 124 123.7 125.4 129 133.5 136.6 138.9 139.7 138.5 136.2 132.5 126.7 119.3 113.7 107.1 96.9 104.3 115.8 123 127.3 128.1 125.2 119.8 113.6 103.3 86.3 71.5 86 104.1 117.6 120.8 122.6 123.9 123.7 121.6 118.7 115 109.5 103.1 95.4 79.7 59.5 63.1 49.7 24.8
136.3 139.4 142 145 147.9 149.9 150 151 150.9 150.8 151 151.4 151.6 151.8 151.7 150 146.6 142.6 138.2 129.3 113.2 94.3 79.9 80.9 92.9 104.7 111.5 113.5 112.1 108.4 102.6 94.4 85.1 69.1 51.4 37.2 42.4 42.4 41 38.4 42.9 56 67.3 72.2 71.7 70.2 69.6 69.3 67.9 63.4 56 56 64.6 70.5 77 75.1 68.8 61.1 52.1 38.6 19.3 6.8 3.1 9.7 18.7 29.8 42.2 56.6 74.2 90.2 101.9 108.2 112.4 114.1 114.8 115 113.4 110.2 104.9 98.6 91.2 83.6 77 72.2 69.2 66.3 63.5 63.5 62.8 59.6 54.4 48.2 35.7 17.4 12 19.7 24.4 26 18.8 1.7 -1.7 -1.7 3.1 20.2 38.7 53.4 54.7 49 32.9 16.5 3.3 9.3 24.9 41.1 55.8 61 60.8 58.3 57.3 61.4 65.9 71.5 76.8 82.7 85.9 86.1 84.9 82.5 80.3 79 80.1 81.1 79.9 77.7 72.3 56.7 37 24.3 31 44.6 54.8 62.9 71.4 78.3 85.3 92.7 102.8 114.4 123.4 128.4 131.9 133.5 133.7 132.9 131.6 127.8 126.5 127.7 129.8 133.7 136.2 138.5 139.2 138.1 136.5 133.4 130 125.3 119.8 111 102.4 109.5 118.8 125.4 129.3 129.3 126.7 120.8 113.6 101.5 85.5 77.4 91.1 109.1 121 123.7 124.6 125.3 124.4 121.9 118.7 114.3 107.4 99.8 90.6 84.7 83.2 84.2 67.3 43.4
133.3 136.5 140.2 143.6 146.1 147.8 147.1 148.7 148.9 148.9 149.4 150.1 150.6 150.8 150.2 148.3 144.5 138.6 129.4 115.9 100.7 86 84.8 94.5 104.9 113 116 115.4 113 109 102.1 91.8 76.9 62.6 48.7 47 57.2 61.1 58.9 50.6 50.5 66.4 78.3 80.3 78.8 76.7 74.6 71.8 68.6 64.6 64.9 69 75.7 79.8 79.7 73.7 66 57.7 48.2 36.1 20.4 7.8 3.1 5.4 16.8 27.6 41.2 56.8 76.6 90.7 99 104.4 107.9 109.9 111.2 111.5 109.6 106.5 102.4 96.3 88.9 82.1 75.9 71.2 67.1 63.7 60.9 58.7 58.1 56.5 51.4 41.6 26.9 15.2 28.7 40 44.4 43.4 34.3 18.3 1.4 -1.7 -1.7 9.4 28 47.1 48.8 42.3 25.7 7.2 3.8 15.8 34.6 48.8 58.4 53.2 44.6 47.3 56.5 63.8 73.1 80.4 85.6 89.1 89.9 88.4 85.4 81.4 76.7 73.7 73.2 73.7 73.3 73.2 69.5 55.9 36 23.4 30.5 46 64.7 79.6 90.8 98.6 104.3 109.9 115.5 120.7 125.6 129.6 133.1 134.7 134.8 134.2 132.9 129.2 127.5 128 129 132.7 135.6 137.7 139.3 139.1 137.8 135.7 133.6 129.6 123.6 114.8 109.5 115.6 122.7 128.2 131.4 130.9 127.3 119.2 107.2 93.8 78.8 86.2 100 117.2 124.4 126.3 126.6 125.8 124.6 121.9 118.7 113 105.2 99.4 97.1 95.6 93 93.4 87 64
130.6 134.9 138.8 141.3 143.1 144.4 144 145.4 145.6 146.1 147.1 148 148.7 149.3 148.4 145.5 138.8 128.3 116.3 105.1 93.7 88.8 98.3 108.6 118.3 120.7 119.9 117.8 114.3 108.4 99.3 86.3 74 59.7 48.2 58.1 71.1 78.2 73 60.3 60.3 74.7 84.4 86.8 85.3 82.8 80.1 75.8 71.5 69.8 73.6 79.2 83.6 81.9 76 68.4 59.8 50 38.1 27.3 18.5 6.7 3.3 3.7 13.9 25.8 42 61.5 78.6 88.6 95.3 100 104.3 107 108.2 108.5 106.8 103.7 99.6 93.8 87.4 82.6 77.6 72.7 67 60.7 56.7 52.6 51.6 53.1 50.3 37.3 19.6 28.9 44.7 56.3 60.1 55.2 44 27.3 5.6 -0.1 -1.7 3.1 24.6 44.2 45.1 39.2 24.4 4.9 5.1 17.8 34.9 42.3 43.8 36.6 38.8 53.6 65.9 75.5 84.7 88.2 91.9 93.8 92.9 89.5 86.7 83.1 78.4 73.9 69.5 67 67.2 68.4 67.8 53.8 36.4 22.9 31.2 50 71 90.3 101 105.9 109.7 114.1 118.7 122.4 125.8 130 133.7 135.1 134.1 132.9 130.6 128.2 126.3 126.2 127 129.9 133.2 136 138.6 139.6 139.4 138.3 136.7 133.7 128.2 122.5 117.9 122.9 129.4 133.5 134.6 131.5 125.7 112.9 98.3 87 87 93.8 107.4 122.3 127.9 129.8 128.8 126.8 124.3 121.9 118.4 113 109.4 107.3 104.2 101.4 98.8 96.8 89.2 74.9
131.2 135.4 138.1 138.9 139.9 140.5 140.8 142.2 142.4 142.9 144.1 145.7 147.1 147.8 146.6 143 134.3 124.7 117.1 105.7 93.6 103.4 113.1 122.5 128.7 127.7 124.4 121.2 116.3 109.1 99.2 88.5 77.3 60.9 51.6 67.3 81.1 87.5 84 72 73.1 85.1 90.3 91.2 90.5 88.3 84.9 79.5 75.1 74.5 77.1 82.3 83.9 77.9 68.5 58.4 48.3 38.6 28.8 21.9 16.1 7.2 3.3 2.9 10.6 27.3 46.5 65.4 77.4 85.1 90.7 96.3 101.3 104.5 106 106.3 104.4 100.8 96.6 91.5 86 81.4 76.7 71 63.2 55.3 48.1 45.5 43.8 45.9 39.4 28.1 25.9 41.2 56.4 68.3 67 61.9 50.5 33.7 13.8 0.6 -1.7 -1.7 24.7 39.2 42.2 40 26.5 5.7 4.4 9.8 24 28.1 28.4 27.5 42.8 59.9 73.9 82.7 87.9 90.6 93.1 93.2 91.3 89.2 86.5 84.1 80.8 77.6 73.5 67.3 61.5 58.9 56.2 48.7 31.7 19.9 32 50.1 71.3 90 100 106 110.5 114.7 118.3 121.5 124.9 128.6 131 130.7 130.1 128.3 125.8 123.7 122.3 121.2 121 122.5 127.4 133.6 137.1 138.7 139.5 138.5 137.7 135.7 132.9 128.3 126.1 128.4 133.5 136.4 135.7 131.4 122.7 107 93.8 102.6 102.9 96.3 107.2 122.2 129.6 131.1 129.7 127.3 124.1 121.7 118.4 115.9 114 111.8 108.3 105.7 103.1 99.4 94.2 84.4
132 135 136.4 136.8 136.4 137 136.5 137.9 138.7 140.1 141.6 143.9 145.5 146.5 145.4 143.7 139.4 134.7 129.3 115.3 102.5 116.5 128.6 134.7 135.1 132.3 128.1 123 117.4 109.5 100.5 91 76.1 60 58.1 75.3 88.4 94 92.1 84.9 89.3 96.7 98.6 98.3 96.7 93.7 89.1 84.5 80.4 77.8 79.7 81.4 79.1 67.9 55.8 44.2 35 25.6 14.9 10.3 7.3 3.9 2.8 2.5 10.6 27.5 49.4 63.9 72.4 79.1 87.1 93.4 99.8 103.5 105.4 104.9 103.1 100.3 95.7 90.5 84.7 77.6 71.3 64.1 54.9 50.6 47.1 41.5 35.7 33.2 27.3 28.5 37.4 52 66.8 73.6 73 67.4 55.3 38.8 18.5 0.9 -1.7 -1.7 21.6 33.4 37.7 32.9 20.6 4.3 4.7 6.8 9.1 15.2 19.9 30.9 46.9 64.5 76.1 82.6 86.1 89.5 92 91.5 88.4 86.9 84.9 82.9 81.6 80.4 77.1 72.1 65.7 55.3 42.9 37.2 25 19.9 31.4 47.8 70.2 87.3 96.6 103.3 107.8 112.1 116 119.3 122.8 126.2 126.9 125.9 123.7 122.1 119.3 116.9 114.7 112.3 106.7 105.8 119.6 131.7 135.2 136.4 137.8 137.3 136.6 136.3 135.4 133.6 133.4 134.5 136.4 138.8 138 134.1 126.4 109.7 105 115.3 119.4 112.8 107.7 122.5 129.1 129.8 129 126.8 123.9 120.8 117.9 115.8 114.1 112.7 110.8 108.9 107 103.4 99.3 93.6
132.3 133.6 134 133.6 133 132.9 133.5 134.8 135.4 137.2 139.3 141.8 143.7 144.8 144.9 143.9 141.9 139.5 135.5 123.3 109.2 123.2 137.5 139.1 137.1 133.9 129.3 124.2 118 109.3 100.5 88.2 71.3 60.3 68.2 83.3 94 98.1 97.8 96.5 100.9 105.1 106.4 105.5 102.4 97.5 92 87.5 84.7 81.9 79.3 74.1 64.4 50.2 37.2 27 19 10.9 12.1 13.8 9.7 4.6 2.9 1.4 9.2 25.5 44.3 57.1 62 75.6 85.9 93.5 99.3 103.5 105.9 105.2 103.5 100.5 96.2 90.3 83.3 75.2 67.9 61.8 60.8 59.8 54.9 46 37.6 35 35.9 39.9 49.7 62.8 71.8 76.8 78.5 75 65.1 47.6 25.1 1.3 -1.7 2.7 14.9 24.5 19.7 13 4.3 1.6 11.5 16.9 18.7 19.7 22 35.5 52.5 65 72.6 78.4 82.7 86.8 88.6 87.9 85.7 83.4 80 78.8 79.4 80.7 78.5 75.5 71.8 64.7 51.1 34.9 22.7 18.6 28.8 45.1 67.9 82 90.4 96.9 102.2 106.7 111.7 115.5 119.5 122.9 122.1 119.6 118.1 116.1 109.9 106.1 98.7 93.5 91.2 103.6 120 129.6 132 133.6 134.7 134.4 135.1 135.9 136.5 137.3 139 140.7 141.7 141.6 140.4 137.2 129.9 112 115.5 126.5 128.4 125.3 120.8 123.6 127.9 128.9 127.3 125.7 123.3 120.5 118.9 116.6 113.7 111 110.3 109.6 109.5 106.5 102.8 98.9
130.4 130.9 130.6 129.3 129.2 130.6 130.6 131.6 132.3 133.6 135.6 139.4 141.2 142.8 142.9 143.1 142.1 141.4 139.1 127.3 117.5 126.7 138.5 140.9 139.3 135.7 130.7 124.5 116.5 107.6 96.7 82.8 69.1 67.7 80.4 92.2 99.7 102.1 102.6 104.2 106.6 109 109.4 107.9 104.4 98.6 92.3 87.1 83 79.5 73.1 60.9 45.8 32.7 22.4 15.9 17.7 24 27.9 27.8 24.6 15.1 4 2 6.9 19.7 34.4 43.5 55.8 75.1 88.1 95.3 100.2 104.4 106 105.6 103.7 100.5 95.5 88.8 82.4 76.3 69.1 66.4 65.8 61.9 54.7 47.9 46.4 49.3 50.8 55.1 62.8 71.6 78 82.9 85.2 82.6 74.1 57.3 35 6 -1.7 1.3 8.2 6.5 1.8 1.8 1.8 9.8 21.7 27.6 31.9 34.2 33.9 36.7 47 57.4 65.4 72.5 78.3 82.8 85.9 85.7 83.6 79.3 73.5 70.6 72.6 75.5 75.4 74.9 72.6 67.1 57.3 41.5 26.1 16.8 24.6 44 62.9 75.2 82.1 87.2 92.4 99 106 111 115.2 118.4 117.1 114 111 107.9 98 86.8 80.8 84.5 94.2 109.5 122.3 126.8 128.1 130.2 131.6 130.8 132.2 134.6 137.2 139.8 143.1 145.3 145.6 144.8 143.1 138.6 128.9 122.1 129.4 133.9 133.7 131.5 129.2 128.1 129.4 129 127.6 126.1 124.1 123 122 119.9 116 111.1 108.7 109.1 109.7 108.8 105.1 100.5
127.6 128 127.1 125.9 126.4 128.9 128.7 128.1 128.6 130.3 132.2 135 137.5 139.6 140.6 141.8 142.5 142.5 141.1 136.3 134.6 134.6 141.2 143.9 142.1 137.9 132.1 125.3 116.6 104.6 88.4 79.1 81.2 86.8 95.2 102.5 105.4 106.4 106.5 107.7 110.1 111.2 110.5 108.7 104 97.5 91.3 85.8 79.6 69.2 56.1 42 30 22.3 20.7 24.7 29.3 33.4 37.6 40.9 40.1 31.4 14.1 -1.7 -1.7 11.2 22.7 35.5 51.4 71.8 88 96.5 102 105.9 106.3 105.2 103 99.3 94.7 89 83.5 76.8 72.8 70.3 67.4 61.8 57.7 59.2 59.2 64.1 67.7 70.4 73.3 78 84.1 88.4 89.7 87 80.1 67.4 47.3 13.8 -1.7 0.4 -1.7 1.8 1.8 5.7 17.5 25.6 33.8 41.5 47.8 51.1 52.8 48 46.7 52.1 59.4 65.7 72.8 79.4 83 83.5 81.7 77 68 58.4 60.9 66.8 70.7 71.6 70.4 66.2 58.3 43.5 26.4 15.6 26 42.6 52.4 61.5 67.2 73.5 79.5 90.5 99.2 106.5 111.1 113.6 113.2 109 102.4 98.1 85.9 73.4 80.8 93.3 105.1 115.1 121.4 122.8 123.8 126.3 128.3 127.1 128.3 131.9 136.9 142 145.6 147.8 148.2 147.3 144.4 138.5 132.1 135.5 137.7 138 137.1 135.8 134.5 133 131.9 130.6 128.9 127.2 125.9 125.1 124.3 122.6 119.3 114.8 108.6 106.7 107.4 106.7 102.9 96.8
125.7 125.7 124.6 122.9 125.1 127.9 126.9 125.9 125.5 126.6 128.8 131.3 134.1 136.7 138.9 141.2 142.7 144.4 144.8 144.1 143.7 142.8 146.1 146.9 144.9 140.8 135.1 128.5 120 110.1 100.9 98.1 99.5 103.1 106.7 108 108.5 108.9 109 109.7 111.1 111.7 110.1 106.6 101.1 94.7 89 82.7 72.9 55.9 41 31.1 23.6 29.6 33.1 34.5 36.3 40.3 47.1 53.2 54.8 50.5 37.2 -1.7 -1.7 -1.7 12.5 26.7 44.6 66.9 85.1 95.3 102 105 105.1 103.8 101.8 98.3 95.1 89.8 83.1 80.7 79.2 75.7 72 69.8 69.6 69.6 70.9 74.1 77.7 79.4 81.3 84.5 88.1 91.1 90.9 88.5 82.4 72.7 56.8 29.9 -1.7 -1.7 -1.7 1.8 13.1 25.1 34.5 38.5 47.2 58.1 64.2 65.9 65.2 62.1 59.2 60.6 62.5 65.8 71.7 77 80.8 81.6 79.7 75.7 68.1 56.6 48.9 55.3 65.4 67.5 66.8 64 58 47.7 27.9 13.7 22.6 30.2 36.5 44.3 51.1 58.1 67.3 82 93.2 100.5 106.6 109.6 107.1 101.3 92.9 83.4 70.9 69.3 84.8 100.6 107.2 111.2 114.9 116.1 117.3 121.2 123.7 122.1 121.9 129.5 137.2 143.6 147.2 149.8 150.5 148.6 144.4 140 140 141.3 141.5 140.1 139.1 138 136.6 135.3 134.2 131.9 129.3 126.7 125.3 125 124.8 123.9 122.4 119.3 114.1 106.1 102.1 101.6 97.8 91
123.7 123 120.8 119.5 122.1 124.6 125.6 123.2 122 123.2 127 130.2 133 136.1 139 141.7 144.2 146.3 147.9 148.8 149.4 150.5 151.6 150.4 147.8 143.9 139.1 134 128.1 121.9 117.7 114.5 114 113.4 112.2 111.2 110.8 109.7 108.5 107.9 108.1 108.1 106.5 101.9 96.7 91.1 85.5 77 60.6 43.8 32.9 29.6 37.5 41.7 42 41.8 43.4 48.4 58.5 65.6 66.3 61.3 53.6 41.6 25.2 -1.7 1.8 15.2 37.1 60.4 81.4 92.5 99.1 102.3 103 101.7 100.8 98.8 95.7 91.4 89.2 88.2 85.5 82.3 80.7 82.1 83.2 83.8 82.9 83.5 85.6 86.6 88.2 89.5 90.3 91 90.3 86.7 81.4 73.3 56.9 32.4 -1.7 -1.7 1 9 21.1 33.8 42.4 48.5 59.2 70.1 74.2 74.4 72.4 70.8 70.3 70.9 71.9 72.8 75.4 78.6 80.5 81.1 78.6 74.8 67.2 57 44.5 46.5 59.4 61.5 61.4 59.6 54.4 46.2 27.7 14.1 25.5 36.6 42 44.7 49.3 60.7 73.3 84.4 92.7 99.9 104 103.6 100.3 94.6 85.2 69.4 60.5 71.5 86.6 95.7 94 95.2 100.6 104.4 108.7 114.9 117.7 116.1 120.8 129.5 137 143.6 148.1 150.5 151.1 149.4 147.1 146 145.1 144.8 143.5 141.5 139.6 137.9 136.9 135.5 133.9 131.8 129 124.8 122.4 123 123.8 124.2 123.8 122.7 119.1 113.3 105.5 99.2 93.3 88.6
120.6 119.7 116.8 116.8 119.5 120.6 120.6 119.8 120.2 122.5 126.7 130.8 134 137.5 140.6 143.5 146.1 148.3 150.3 151.8 153.5 154.5 154.3 153 150.1 146.7 142.9 138.6 134 130.1 126.6 124.3 122.1 118.7 116.3 113.6 111 108.2 105.5 103.4 103.1 101.4 99.1 95.2 91.6 86.4 81 65.5 47.5 35.4 34.7 44.8 52.3 53.2 52.5 52.5 55.7 62 69.7 75.5 74.6 67.6 58.3 50.4 34.4 14.4 -1.7 6.5 31.3 56.9 78.6 88.6 95.2 99.2 100.7 100.6 99.8 99.4 97.4 95.6 95.1 94.6 94.5 95.2 97.3 98.4 98.6 97.6 94.9 92.4 91.9 91.2 90.4 88.1 87.3 88.1 87.3 83.9 77.3 67.1 51.5 30.5 6.7 -1.7 -0.1 9 21.8 35.5 47.6 56.9 66.3 74 77.4 77.8 76.9 76.9 77.5 79.3 80.1 80.3 81.9 81.7 82.1 81.5 79.6 76.1 71.5 64 47.8 39.4 51.9 54.7 54.8 52.9 47.7 40.3 24.2 13.5 30.4 47.1 57 60.6 65.7 75.3 83.5 90.4 96.2 99.4 99.4 97 93.3 87.4 77.1 60.3 56.3 66.2 76.1 77.2 76.7 84 91 94.6 99.3 104.5 107.5 110.7 120.2 129.5 136.9 143.4 148 150.4 151.9 151.8 151.1 150 148.6 146.8 144.5 142 138.9 136.9 135.6 134.4 132.8 131 128.3 124 120.1 119.8 121.4 122.5 123.6 123.9 123.1 120.8 116.4 111 107.1 104.3
115.4 114.3 112 112.1 113.9 116.4 119.8 122.3 123.4 124.8 127.8 131.5 135.4 139.2 142.4 145.2 147.6 149.9 151.8 153.6 154.8 155.2 154.7 153.6 151.1 148.1 144.7 141 137 133 129.4 126.1 123.2 119.6 116.3 112.2 107.8 104 101.2 98.1 94 91.6 89.6 88.2 85.6 80.7 70.5 52 38.4 39.4 49.8 59.6 66.2 66.8 66.2 69.9 72.1 74.4 77.7 80.3 77.5 67.6 57.5 48.6 33.5 15.3 -1.7 -1.7 30.4 57.5 74.7 84.3 91.5 95.9 98.7 99.5 99.7 99.8 99.2 99.3 100.7 103.7 106.1 107.8 108.2 108.1 106.5 103.3 100.4 97.3 95.3 91.7 87.6 83.9 83.1 84 82.4 78.8 72.9 57.7 37.3 24.6 12 -1.7 -1.7 1.5 18.1 32.9 47 57.1 65.1 71.9 76.6 79 80.3 82.2 84.3 86.5 88.5 88.5 88.8 87.7 85.2 84.8 82.1 78.1 73.7 67.3 50.9 33.4 41.1 45.1 46.6 42.6 34.3 24.2 14.4 14.4 37.5 55 66.3 71.6 76.8 83.4 87.4 91.7 95.3 95.7 93.8 90.9 86.2 78.4 66.4 51.4 51.8 58.6 64.3 71.6 84.1 97 103.3 105.4 105.7 107.3 110.8 113.4 118.9 128.4 136.5 142 146.8 150.4 152.8 153.8 153.8 152.9 151.2 148.7 145.6 141.1 136.6 133.9 132.7 132.5 131 129.3 126.7 123 118.7 115.5 117.3 119.6 121.5 123.1 123.6 123.9 122.6 120.5 118.4 114.1
109 108.4 108.8 112.8 117.7 122.4 126.7 130.4 131.4 128.5 129.9 133.7 137 140.8 144 146.5 148.9 151.2 153 154.2 154.3 154.6 154.2 153.3 151.1 148.9 145.9 142.3 138.1 133.9 129 124.2 120 116.4 112.6 108.4 104.3 100.8 96.1 87.4 81 77.3 74.1 72.8 72 67.4 55.8 40.9 43.6 52.3 61.6 70.9 76.7 80.2 81.6 84 84 82.2 82.6 81 73.9 62.2 51.6 39.6 24.4 10.2 3.6 -1.7 33.4 54.5 70 81.1 88.9 93.6 97.2 98.9 100 101.8 103.1 105.3 108.9 111.1 113 113.7 112.7 111.1 108.7 105.7 102.9 100 96.5 91.3 85.7 80.5 78.3 75.8 75.5 73.5 65.9 50.4 27.9 9.6 1.8 -0.2 -1.7 -1.7 12.2 27 39 48.1 56.9 67.8 75.2 79.6 82.7 85.8 89.5 93.9 95.5 95.2 94.1 92.1 89.6 86.4 81.5 76.1 69.9 59.8 44 28.3 26.8 30.5 33.1 27.9 18.4 13.2 10.2 17.6 35.5 51.5 62.1 71.6 79 84.4 87 90.3 92.2 89.8 85.9 81.7 72.5 62 52.9 48.2 60.1 68.1 76.5 87.8 101.1 107.4 112.4 115.5 117.4 120.4 122.2 122.1 120.9 125.8 133.8 140.4 145.7 149.5 152.3 154.1 154.9 154.5 153.3 150.3 146.2 140.8 135 130.9 128.9 129.5 128.4 126.3 124 120.8 116.5 111 112.5 115.1 117.9 120.3 122 123 122.9 121.5 119.3 114.1
105.3 108.8 113.2 117.5 120.7 125 129.2 131.3 132.8 132.7 131.8 135.1 137.4 141 144.4 146.9 149.1 151 152.3 152.6 152.2 152.1 151.9 151.4 150.5 148.4 146.3 142.5 138.1 133.3 127 120.5 113.5 110.5 108 103.6 99.6 92.8 81.9 72.6 66.7 62.2 57.3 54.5 53.7 48.5 40.9 47.1 54.8 61.8 71.9 81.8 89.7 93 93.1 91.7 89.1 86 83.5 78.4 67.6 55.9 44.9 31 17.1 6.4 -1.7 -1.7 34.1 50.7 63.9 76.4 86.1 92.1 96.5 100 102.5 105.3 108.8 112.7 114.6 115.1 115.4 114.5 112.6 110.5 108.3 106.3 104.3 101.4 98.7 93.3 88 79.4 71.4 67.5 64.8 63.1 55 36.8 19.1 13.7 1.9 0.5 -1.7 -1.7 3.3 15.2 25.7 38.2 52 64.1 73.1 79.7 86.4 91.5 93.8 98.4 100.9 101.4 99 93.6 89.9 83.3 74.9 66.1 56 43.2 34.5 34.2 31.5 25.3 25 26.8 28.4 24.1 15 12.6 25.9 41.4 56.1 67.6 75.6 80.6 83 87.4 85.7 80.4 75.6 67.4 56.4 46.1 47.8 58.1 75.3 82.9 92.8 102.9 110.1 113 116 119.4 123.1 126.4 128.8 128.6 129.3 128.9 132.6 139 144.2 148.4 151.3 154.1 155.1 155.6 154 150.8 146.9 141.2 136 131.6 126.7 125 124.3 122.4 120.2 117.6 113.5 107.7 106.2 110.1 113.1 116 118.1 119.4 119.7 117.9 114.5 109
109.8 113.9 117.8 121.2 124.4 126.5 128.8 130.6 131.9 133 133.9 134.3 137.2 140.2 143 145.6 147.7 149.2 149.8 149.4 149 148.7 148.6 148.3 147.3 145.6 143.7 140.3 135.7 129.7 121.8 112.8 106.5 102.9 100 94.4 84.4 73.1 65.2 58.3 55.3 56.5 54.2 50.3 47.5 49 52.9 58.1 65.5 73.2 83.6 92.7 98.8 98.6 97.2 94.6 91.9 87.8 83 75.6 64.9 52.1 41.9 29.6 18.4 8.1 -1.7 14.2 33.3 43.5 54.5 69.6 83.1 90.9 96.8 100.7 104.5 108.2 111.4 113.7 114.7 114 112.6 111.2 109.4 107.5 106.1 105.1 104.2 102.7 98.3 94.6 89.4 82.1 71.8 63.3 54.4 46.7 38.9 31 28.7 30 27.9 1.6 -0.1 -1.7 -1.7 11.3 31.2 47.5 59.9 70.4 77.1 82.3 88.6 94 97 100.2 102.2 101.3 99.2 93.4 86.7 74.4 61.5 50.8 42.6 42.7 47.1 50.9 49.2 48.1 47.6 47.8 47.1 38.2 23.4 12.9 19.1 30.6 46.3 59.1 67.4 71.5 74.5 78.1 74.4 67.6 59.4 50.7 39.7 42.6 56.9 74.3 85.1 92.7 100.3 107.3 110.8 112.4 116.2 121.2 125.8 129.3 132.6 134.8 137.1 138.4 137.9 140 143.6 147.9 150.9 153.6 155 155.3 154.2 151.8 147.9 143.8 139.9 135.7 130.8 123.9 118.6 117.1 114.5 112.6 109.1 104.3 99.4 104.3 106.9 110.2 112.7 114.3 115 111.4 107.7 102.4
112.3 115.8 119.2 121.8 123.8 125.6 127 128.7 130.2 131.6 132.5 132.4 133.5 137.8 140.9 143.7 145.3 146.2 146.5 146 145.2 143.9 143.2 143.2 142.7 141.2 139 135.1 130 122.6 114.7 106.3 95.8 88 83.6 74.1 67.5 63 62.1 67.1 70.9 73.1 70.1 63.3 57.6 59.6 63.7 70.7 80.5 89.5 97.7 103.5 103.4 102.1 99.9 96.9 93.6 88.2 81.4 74 66 56.6 51.1 44.5 32.1 8.7 -1.7 10.9 25.1 31.4 42.9 60.6 77 86.8 94.3 99.2 103.2 105.8 107.9 109.5 109.7 108.8 107.4 105.8 103.6 101.6 100.1 101 101.2 99.4 96.8 94.9 91.8 86.8 78.6 70 60.1 49.1 44.8 46 45.7 46.2 36.6 14.8 0.9 -1.7 -1.7 13.8 41.7 60.5 71 79.3 84.5 88.4 92 96.8 99.8 101.8 102.9 102 98.2 92.6 83 72.5 63.6 54.8 50.6 58.1 63.1 67.1 66.8 66.5 66.9 65.7 61.9 51.9 35.3 18.5 14 24.7 37.3 47.7 56.1 59.7 63.9 65 61.3 51.6 43.2 35.8 35 44.9 59.7 72.7 81 88.3 95.6 102 105.6 108.2 115.7 122.1 127.1 131.6 135 138.2 141.4 144.6 145.6 146.1 146.7 148.2 150.5 151.6 152.6 153.3 154 152 148.8 145.6 142.3 139.7 136.6 130.5 120.7 110.5 106.2 103.2 101.4 98 94.4 97.3 98.9 102.1 104.8 107.1 108.2 102.8 97.5 93.5
112.4 115.2 117.9 119.7 121.1 122.5 124 125.7 127.4 128.5 129.6 129 130 134.8 138.5 141.3 142.8 143.4 143.1 142.1 140.5 138.9 137.7 138.3 138.6 137 133.4 127.9 121.9 115.3 107.6 96.5 83.3 75.1 70.1 66 65.6 70.1 75.1 80.5 85.6 84.2 79.7 73.5 69.1 70.2 76.1 85.6 97.5 105.8 109.4 107.5 105.2 102.5 100 97.4 94.1 88.7 83.3 79.7 75.5 70 63.9 55.6 44.7 22.2 -1.7 5 11.8 17.7 27.4 43.4 62.3 76.9 85.9 92.9 97.4 99.4 100.9 102.5 102.9 102 100.4 98.7 96.1 93 91.4 92.2 93.6 93.7 93.5 93.2 91.4 89.4 84.6 80.6 74.6 63.8 61.7 62.9 62.2 56 38.4 17 1.1 -1.7 -1.7 12.9 45.5 65.2 77.5 85.1 89.8 93.6 96.9 99.4 101.9 103.4 104 102.6 99.4 94.4 87.3 83.9 78.2 61.8 60.8 71.3 78.4 82.5 82.5 81.7 79.4 74.6 70 61.2 40.3 19.6 9.1 19 28 29.9 38.1 43.6 49.6 49.5 43.1 34.8 30 34.8 45.2 49.8 54.6 62.4 69.5 77.7 85.2 92.7 99.5 107.1 114.9 121.9 128 132.9 137 140.6 144.2 146 145.7 144.3 143.1 144 143.6 140.9 143.5 146.6 150.3 149.7 146.3 144.1 143.2 141.8 139 134.4 126.5 115 103.7 94.8 90 88.3 84.2 87.2 85.7 87.3 91.3 96.4 97.5 93 85.5 80.3
110 113.2 115.5 116.7 117.4 118.3 119.5 121.3 123.2 124.8 125.6 125.3 126.8 131.2 135.6 139 140.3 140.6 139.5 137.7 135.5 134.1 133.8 134.7 135 132.4 128.2 121.4 114.5 106.6 96 84.8 75.7 69.6 69.4 71 76.9 83.9 89 93.8 94.4 91.7 86.3 82 81.6 83.3 89.7 98.9 108.3 110.2 109.4 107.3 104.5 101.9 99.5 97.3 94.9 92.2 89.4 86.4 83.8 81.2 75 64.7 54.2 37.5 -1.7 -1.7 3.5 -1.7 -1.7 20.7 39.3 58.2 72.2 79.8 85.2 87.6 90.2 92.6 93.8 93.1 90.8 87.8 83 77.4 74 76.1 77.6 82.4 86.2 88.8 91.6 91.9 88.5 84.3 79.4 74.9 73.9 73.5 70.6 60.9 39.4 15 0.5 -1.7 -1.7 21.2 44.7 64.4 79.8 88.6 94 98.1 100.6 102.4 103.4 104.3 104.6 103.2 101.2 98.1 95.7 93.8 85.9 70.1 72.2 85.3 94.9 95.7 93.4 89.3 82.8 75.7 68.2 57.6 38.9 18.6 8 10.5 12.8 14 16.9 23.2 30.8 31.3 25.5 27.8 38.3 56.6 66.2 69 71.8 76.1 81.5 87.4 92.2 95 99.3 106.8 115.1 122.7 128 133.4 137.1 140.6 142.9 143 140.5 136.8 131.2 128.4 125.9 125.9 129.7 135.7 140.5 141.6 139.8 138.9 141.2 142.4 139.4 134.9 128.6 120.2 112.1 101.4 91.6 82.6 76.9 73.1 70.1 68 72.2 78.1 83.5 81.5 72.3 65.8
103.6 108.5 111.9 113 113.3 113.9 115.6 117.2 119.3 120.9 121.1 121.8 124.5 128.2 133.4 137.2 138.6 138.7 137.5 135.3 132.8 128.8 130 130.8 131 129.1 124.2 118.6 111.1 101.2 87.6 79.2 71.1 75.5 79.4 82.6 88.7 95.5 101.5 102.5 100.7 98.9 96.6 94.3 94.6 96.2 100.5 106.1 107.7 107.6 106.6 104.7 101.7 99.4 98 96.5 95.9 94.9 93.6 92 88.9 85.7 81.8 71.6 56.8 44.1 20.1 -1.7 1.9 -1.7 -0.1 -1.7 -1.7 39.3 56 63.7 68.3 72.7 75.6 76.8 78.6 79.1 75.5 70.9 65.6 58 52 53.1 56.2 61.9 71.2 79.8 86.4 89 87.8 84.7 82 80.4 78.6 76.5 73.7 65.4 45.4 18.8 -1.7 -1.7 2.1 23.4 42.9 62.5 80.1 90.7 97 101.1 103.5 104.5 104.5 104.8 104.6 103.9 103.4 103.7 102.1 99.4 92.3 80.1 83.8 97.9 103.2 101.4 97 91.7 84.3 75.9 66.3 51.6 31.4 13.3 9 13.8 21.2 22.6 22.6 22 23.2 25 32.7 44.4 59 76.7 81.2 84.2 88.9 94 98.9 103.2 105.2 106.9 107.9 110.2 117.4 124.3 128.4 132.3 135.4 137.6 137.7 134.6 129.6 125 118.1 114.2 107.1 104.5 109.4 119 128 130.1 130 130.2 131.9 136.5 135.5 132.2 126.4 119.8 114.2 106.9 100.6 93.5 86.8 80.7 76.4 70.3 59.9 55.7 59.2 61.4 60 53.8
105.6 103.9 106.9 108.5 108.9 109.5 111.3 113.1 115.4 117.3 117.3 119.1 122.4 125.8 131.2 135.3 136.6 136.8 135.4 133.2 130.5 129.5 125.9 124.1 125.5 124.6 121 116 108.5 97.3 85.4 76.3 80.9 87.6 91.2 94.6 101.1 107.2 111.1 109.6 108.3 107.4 106.1 105.4 105.2 105.1 104.9 105.7 105.5 104.6 103.1 100.5 97.7 95.6 94.7 95.6 96.4 96 95.3 93.1 88.4 83.9 79.9 68.7 53.9 38.6 17.8 3.5 -1.7 17.7 10.3 2.7 -1.7 -1.7 39.2 46.4 50 51.6 52.6 53.7 55 55.6 55.3 52.4 45.8 38 33.6 32.5 33.7 37.8 49.7 63.1 77.2 83.3 83.8 85.7 84.7 81.7 78.5 75.7 73.7 69.2 55 28.8 -1.7 -1.7 1.8 21.6 41.2 60.4 79.1 91.6 97.5 102.2 104.7 104.4 103.1 103.2 104.2 105.6 108.3 108.7 107 104.5 99.9 92.8 96.2 104.4 105.6 103.5 98.7 92.3 84.3 75.1 64.2 46.1 26.1 9.7 9.7 24.8 37.6 44.3 45.2 44.9 46 48.5 57 67.8 79.5 87.6 91.5 94.1 98.3 103.6 107.5 110.2 111.9 113.2 113.9 115.3 120.6 124.6 127.9 130.4 130.9 131.2 130.2 123.3 115.2 109.4 103 96.4 86.8 85 90.2 97.5 105.9 112.7 115.2 119.3 121.1 123.5 125 124.5 120.8 116.7 113 110.4 107.4 101.6 96.2 90.8 90.5 87.1 76.3 61.2 46 38.3 40.7 42.7
108.5 105.6 104.5 105.2 106.2 107.6 108.5 110.1 111.4 113.1 114.8 117.7 120.8 124.5 129.1 133.3 134.6 134.7 133.3 130.9 126.9 125.5 119.8 118.3 118.5 117 113.5 108.2 102.4 94.1 85.3 83.1 92.3 99.9 103.5 108.6 113 114 115.5 115.1 115.3 114.9 113.7 112.8 111.3 109.3 106.7 104.5 102.7 100.6 97.7 93.8 91.7 90.2 89.9 92 94.4 93.7 90.9 87.2 83.3 79.3 72.7 58.9 43.4 26.6 7.4 19.8 33.7 34.5 26.5 14.1 -1.7 -1.7 22.1 28.8 30.9 29.6 29.1 29.6 29.9 30.8 31 30.5 26.3 20 16 13.6 14.5 18.7 29.1 42.6 57.5 70.1 80.1 85.3 84.5 81.6 76.8 73.5 70.6 67.1 57.3 33 -1.7 -1.7 1 17.5 38.4 57.9 76.6 88.2 94.6 99.5 102.3 101 100.3 101.3 104.9 108.8 111.2 111 110.1 108.7 105.8 104.2 104.3 105.4 104.9 102.5 97.2 90.8 83 72.4 60.4 40 20.4 7.2 11.8 30.4 48.7 61.5 68.1 70.8 73.5 76 81.1 87.3 90.9 93.6 97.2 99.8 103.6 107.6 110.6 113.6 115.4 115.9 115.1 117.1 120.3 123 124.6 122.5 121.8 122.2 120.2 113.6 104.3 96.4 88.1 77.2 65.3 63.8 67.4 71 73 76.3 90.2 100.9 106.6 107.5 107.9 109.6 109.1 107.3 104.9 103.3 101.1 98 97.1 94.5 96.3 96.7 87.1 74.5 54.2 41.8 32 26.2
110.1 109.2 108.8 107.7 110.4 112.6 112.9 113.1 111.6 111.2 114.1 118 121.2 124.8 128.3 131.5 132.6 133 132 129.5 125.7 124.1 116.7 113.2 107.7 103.3 99.6 96.1 94.2 90.8 83.2 93.2 103.3 112 115.7 118.8 118.5 118.4 118.9 119.2 120 119 118 116.6 114.4 110.8 106.8 103.1 98.9 94.5 90.3 85.1 82.2 80.8 81.5 84.6 84.2 79.6 75.2 73.9 69.5 61.5 53.6 46 32.8 14.1 20.5 38.7 49.1 50.7 41.4 28.8 14.2 -1.7 -1.7 10.7 10.3 6.6 4.3 -1.7 -1.7 3.4 3.5 5.8 4.9 1.7 1.6 1.2 1.1 -1.7 -1.7 23.5 39.3 58.7 78.2 84 83.4 80.5 75.8 70.4 64.8 58.9 50.1 33.3 9.6 -1.7 -1.7 11.2 31.7 51.8 70.2 82.4 89.3 93.7 96.1 95.9 96.9 100.3 105.6 109.6 111.5 112 111.1 109.5 107.6 106.3 105.1 104.1 102.5 99.3 94.1 87.8 79.9 68.9 56.1 33.5 14.8 6.7 13.2 33.1 51.3 69.3 80.2 84.9 87.9 91 93.9 96 95.5 96.6 100.5 102.9 105.6 108.8 111.4 114.3 115 114.8 114 113.4 113 113 111.4 111.9 112.9 110.9 106.8 103.2 91.2 80.1 70 58.3 45.5 38.1 41.4 45.4 42.9 49.1 59.8 73.4 83.7 85.6 86.6 88.2 87.7 87.6 87.8 88.9 85.4 83.2 86.1 89 94.4 95.5 82.8 68.6 53.8 54.5 49.9 44.2
112.6 112.4 111.8 111.3 112.9 114.8 115.6 115.5 114.1 112.2 114 117.8 120.7 124.2 127.5 129.9 131.6 131.8 131.1 128.8 125.3 121.2 115.7 110.5 104.5 99.1 94.2 89.6 87.3 86.6 92.6 103.6 115 121.7 123.4 122.9 122.6 121.6 121.6 121.1 120.6 119.3 118.2 116.8 114.1 111 106.3 101.3 94.5 87.1 84.8 85.2 83.6 79.3 72.5 72.2 68.8 61.8 57.1 54.2 48.6 43.1 38.1 32.1 28 20.2 36.4 52.9 65.4 66.6 57.2 43.9 28.2 -1.7 -1.7 0.6 -0.6 -1.7 -1.7 -0.8 -1.7 -1.7 -1.7 -0.7 -0.3 -0.4 -0.5 -1.7 -1.4 -1.2 -1.7 7.4 32 55.3 76.2 82 82.1 79.8 75.6 70.1 62 49.6 36.1 23.9 7 -1.7 -1.7 3.1 25.4 46.1 63.5 75.8 83.2 87.9 89.6 90.1 93.6 98.5 103.3 107.1 109.8 111.8 111 109.5 107.8 106.2 104.3 101.3 98.7 95.9 90.5 83.6 75.2 65.1 50.6 27.8 11 6.6 12.4 31.8 52 70.6 79.7 84.7 89 92.2 94.2 95.4 96.1 98.5 101.5 103.7 105.9 107.9 110.2 111.2 109.6 108.1 104.4 100.6 100.5 99.1 98.1 99.9 97.3 96.9 95.9 84.7 67.7 58.1 48.9 33.3 24.5 6.5 8 10.4 11.1 16.8 30.4 43.4 56.4 60.1 60.5 61.4 62.6 62.3 63.5 63.1 63.9 65.2 69.6 71.6 80.5 85 76.2 59.1 44.4 42 40.8 40.6
114.1 114.3 114.4 114.7 115.6 116.5 117.2 117.3 115.8 114.6 113.8 116.6 119.3 122.5 125.7 127.5 129.5 130.4 130.1 128.2 125.6 122.2 118.2 113.7 107.8 101.7 95.5 86.9 92.6 98.4 105 115.9 124.1 126.3 126.8 126.3 125.3 124.1 123 121.5 119.6 117.7 115.9 114.3 111.7 109.4 105.5 99 89.6 89.4 93 96.2 95.1 89.6 83.7 76.2 67.4 63.2 62.4 59.6 57.3 54.2 53 52 45 27.5 42.6 63.5 77.1 78.1 72.6 60 44.7 28.9 -1.7 -1.7 -1.7 -1.7 11.3 9.1 8.1 6.4 3.3 -1.7 -1.1 0.5 -1.7 -1.7 7.8 1.7 -0.1 -1.7 26.8 51.6 72.1 79.3 80 78.1 74.8 70.2 62.6 50 36.3 24 8.9 -1.7 -1.7 -1.7 23.7 48.4 66.2 75 80.9 83.6 83.5 86.3 90.6 95 100.2 105 108.7 110.5 111.4 110 107.6 105.2 101.7 98.1 93.8 90.9 86.4 79.3 70.2 60.2 42.1 22 7.1 5.8 12.9 30.1 49.2 65.6 74.2 80.7 84.9 87 88.5 87.6 88.1 91.3 91.9 96 97.8 98.4 102.8 103.4 98.5 90.7 87.2 83.9 84.5 83.6 83.6 75.6 70.1 66.5 70.5 57.7 34 27.7 23.8 1.4 0.9 0.5 0.5 0.4 0.3 0.8 1.5 4.2 18 26.9 22.4 19.3 23.7 31.4 41.9 40.3 39.8 42.7 39 44.2 51.7 61.9 58 44.1 32.7 28.1 26.1 25.5
115.5 116.1 116.7 118.4 119.8 120.8 120.3 119.5 118.2 117.1 116 116.2 117.5 119.6 122.3 124.7 127 128.4 128.8 128.3 126.7 124.2 120.4 115.8 110.4 102.6 91.5 95.6 104.7 112.4 118.2 123.8 127.5 128.7 128.5 128 126.7 125.2 123.7 121 118.5 116 113.8 111.5 109.9 108.3 105.2 95.4 92.3 97.9 103.3 104.7 103.3 99.8 95.5 90.1 82.8 79.2 78.7 77 73.4 70.1 69 69.9 59.2 38 45.7 66.3 83.6 86.2 83.6 76.6 60.3 44.6 31.1 28.8 31.7 33.3 32.9 31.8 30.4 29.3 29.4 29.5 30.5 31 30.9 28.9 16.8 5.3 0.2 -1.7 22.1 44.5 62.8 74.7 77.5 78.2 74.7 68.3 61.1 50.6 37.8 23.8 9.4 0.3 -1.7 -1.7 21.5 52.7 72.8 78.4 79.3 79.8 76.9 81.9 85.6 92 97.9 102.9 106.9 110.9 112.2 110 105.7 102.2 98.3 94.4 89.2 84.6 80.6 73.2 63.8 53.5 31.7 14 5.1 5.4 12.2 27.5 44.6 60.5 69.4 70.9 70.5 65.6 65.1 71.3 73.4 78.2 83.8 86.3 82.4 78.2 75.6 76.7 74 67.2 64 61.4 63.7 61.1 58.6 47.7 38.9 30.7 33.5 22.1 2.9 1.1 -1.7 -1.7 -1.7 -1.7 -1.7 -1.7 -1.7 -1.7 -1.7 -0.2 0.5 0.9 1 0.9 1 1.3 1.6 4.5 5.7 3.4 4.3 10 18.2 34.6 30.3 24 18.3 16.6 15.4 3.9
116.6 118.8 121.3 123.4 125.3 126.2 125.9 124.9 123.5 122.9 120.6 119.7 120.9 121.7 121.9 123.8 125.9 127.9 128.7 128.6 127.1 124.9 121 116 108.5 96.5 98.1 106.2 115.4 120 123.7 126.7 128.9 129.6 129.7 128.9 127.5 126.1 124 121.3 118.3 115.8 112.9 109.7 106.4 105.2 100.2 95.7 101 105.8 108.5 109.6 111 110.4 109.5 105.3 100 96 95.8 94.9 91 86.4 85.1 81.8 67.9 44.5 49 68.6 85.9 90.3 89.1 82.7 67.9 50.6 44.9 46.4 49.1 50.4 50.5 50.2 49.4 48.9 49.5 49.4 49.2 49 49 38.8 21.8 6.1 -0.2 -1.7 19.2 38.8 54.5 67.9 75.5 78.1 75.3 67.1 58.6 47.7 33.8 19 2.2 -0.1 -1.7 -1.7 22.1 54.8 76.3 77.3 75.3 72.9 66.8 75.2 82.3 89.6 97 102.6 105.6 110 111.2 108.1 102.7 98.8 94.8 89.9 83.9 76.6 70.5 65.5 55.7 41.3 22.2 9 4.5 6.4 17.9 31.8 44.2 54.6 59 50.2 40.5 37.3 40 48.1 47.9 43.2 54.9 57.3 58.5 51.7 55 51.8 52 45.2 45.2 40.8 32 32.6 31 19.5 4.7 1.3 1.4 -1.7 -1.7 -1.7 -1.7 -1.7 -1.7 -1.7 -1.7 -1.7 -1.7 -1.7 -1.7 -1.7 -1.7 -0.4 -0.4 -1.7 -1.7 -1.7 -0.1 0.3 0.5 0.1 -0.1 0.2 0.8 1 1.3 1.5 1.7 2.2 1.5 0.9
117.3 120.1 123.5 126.7 128.6 129.7 129.8 129.8 129.4 128.3 126.4 125 125.1 125.3 125.3 126.2 127.4 128.5 129.3 129.2 127.5 124.6 120.5 115.3 103.4 100.4 108.5 113.6 118.7 122.8 126.1 128.1 129.3 130.3 130.2 129.4 128.2 126.6 124.5 121.7 118.8 116 112.9 108.7 104.5 100.8 101.5 105.7 109.2 111.3 113.6 116.8 120 121.7 121.2 119.1 116.3 112.6 109.7 106.1 101.9 97.4 92.9 83.4 68 46.1 55.7 73.5 88.9 90.8 87.4 81 66.8 54.7 59.2 63.2 65.9 67.1 67.8 67.5 67.2 66.7 66.4 64.9 62.8 60.8 56.2 41.8 24.1 3.2 -1.7 -1.7 14.4 31.5 47 61.7 72.8 77 74.8 66.6 58.1 47.2 31.7 10.8 1.1 -0.1 -1.7 -1.7 29.3 58.5 72.1 70.5 66.3 60.8 59.5 68.7 81.5 87 95.7 102 105.1 107.8 108 104.3 98.9 94.4 89.7 84.8 77.9 68.5 57 55 45.2 34.8 21.4 7.6 4.2 8.7 24.2 41.9 49.7 47.3 38.4 27.7 22 19 24.1 21.8 18 7.7 14.9 17.3 14.2 14.3 15.9 25.5 25.9 17 11.5 5.9 3.1 5.3 1.7 -1.7 -1.7 -1.7 -1.7 -1.7 -1.7 -1.7 -1.7 -1.7 -1.7 -1.7 -1.7 -1.7 -1.7 -1.7 -1.7 -1.7 -1.7 -1.7 -1.6 -1.7 -1.7 -1.7 -1.7 -1.7 -1.7 -1.7 -1.7 -1.7 -1.7 -0.7 -0.5 -0.5 0.2 0.4 -0.1 -1.7
117.8 120.4 124 126.9 129.1 130.9 132.5 132.7 132.1 131.5 130.4 128.9 128.4 128.3 127.8 128.3 129.6 129.9 130 129.8 128.1 125.5 121.9 112.4 100.6 109.9 115.6 119.3 122.1 125.3 127.2 128.5 129.6 130.5 130.5 129.5 128.5 126.9 124.2 121.6 118.6 115.4 111.4 107.8 107 107.6 110.3 113.6 116 117.5 119.9 123.6 127.3 128.6 126.9 125.2 121.9 118.1 114.3 110.1 104.9 98.3 90.5 77.6 63.3 45.4 62.6 80.1 85.6 86.2 83.8 78.2 68.8 66 72.9 78.7 81.9 83.7 83.8 83.7 83.5 82.1 81 78.6 74.9 69.5 57.5 43.5 26.6 8.6 -1.7 -1.7 6 22 37.5 52 66.4 73.6 72.6 65.4 57.6 47.3 29.8 3.1 0.5 -0.6 -1.7 -1.7 35.1 56.2 62 55.7 48.4 46 56.4 71 79.7 87.1 95.8 101.4 103.8 105.3 103.3 99.4 93.2 88.6 83.2 77.7 71.1 63.4 49.3 42.7 42.6 38.8 27.5 10.8 4.7 8.8 25.9 45.8 42.7 31.9 20.9 6.2 2.8 1.6 1.7 1.2 0.8 0.4 -1.7 -1.7 0.7 0.3 1 1.6 1.7 1.4 0.9 0.1 -0.3 -1.7 -1.7 -1.7 -1.7 -1.7 -1.7 -1.7 -1.7 -1.7 -1.7 -1.7 -1.7 -1.7 -1.7 -1.7 -1.7 -1.7 -1.7 -1.7 -1.7 -1.7 -1.7 -1.7 -1.7 -1.7 -1.7 -1.7 -1.7 -1.7 -1.7 -1.7 -1.7 -1.7 -1.7 -1.7 -1.7 -1.7 -1.7 -1.7
117.2 119.2 122.2 125.7 128.5 131.4 132.9 133.9 133.6 132.7 131.8 130.9 130.8 130.6 130.5 130.5 131.1 130.8 130.9 130.1 128.8 126.2 121.1 109.1 109.4 118.6 121.8 124.2 125.7 126.7 127.8 128.7 129.7 130.5 130.8 129.7 128.3 125.9 123 120.4 117.3 113.2 108.9 108.3 112.2 114.5 116.7 119.7 121.8 123.6 125.3 128.7 130.4 130 128.9 126.4 123 118.6 113.6 108.1 102.3 94.9 82 68.4 55.2 51.4 65.1 76.5 80.2 82 82.6 81.2 78.5 77.4 80.6 86.1 90.6 92.8 92.6 93.2 92.5 89.6 87 84.9 81 71.6 56.5 43 30 14.3 -1.7 -1.7 0.7 7.3 24.6 39.2 53.7 65.6 67.6 61.3 54 44.3 26.5 1.4 0.1 -1.7 -1.7 15.8 32.8 44.1 42.5 35.6 34.1 49.1 65.8 75.9 83.2 89.9 95.5 100.3 102.8 102.3 98 92.2 85.4 80.1 74.2 68.9 61.9 55.8 45.9 35.5 41.6 40.9 31.1 3.5 -1.7 1.4 23.1 12.5 11 13.1 2 1.3 0.4 -1.7 -1.7 -1.7 -1.7 -1.7 -1.7 -1.7 -1.7 -1.7 -1.1 0 0 -0.4 -1.7 -1.7 -1.7 -1.7 -1.7 -1.7 -1.7 -1.7 -1.7 -1.7 -1.7 -1.7 -1.7 -1.7 -1.7 -1.7 -1.7 -1.7 -1.7 -1.7 -1.7 -1.7 -1.7 -1.7 -1.7 -1.7 -1.7 -1.7 -1.7 -1.7 -1.7 -1.7 -1.7 -1.7 -1.7 -1.7 -1.7 -1.7 -1.7 -1.7 -1.7 -1.7
113.3 116 119.4 123.2 127 129.6 131.7 133.1 133.3 132.6 132.1 131.7 132.3 132.2 132 132.4 132.6 132.2 131.3 129.6 127.4 124.7 119.7 109.4 117.6 123.1 124.9 125.9 126.6 127 127.9 128.8 129.7 130.6 130.5 129.2 127.7 125.6 122.2 118.7 116.1 112.5 111.4 114.5 117.3 119.1 121.1 123.8 126.6 127.6 129.2 130.3 130.8 130.2 128.6 125.6 121.9 116 110.3 104.4 97.3 84.8 72 58.2 60.7 61.2 64.5 71.9 76 80.4 83.9 85.6 85.4 85 87 92.6 99.4 101.9 101.3 100.3 98.2 95.3 92.7 87.3 78.9 67.4 54.4 41.7 31.3 21.7 -1.7 -1.7 -1.7 0.7 6.2 25.3 39.4 51.7 55 53 45.3 35.6 20.9 1.2 -0.3 -1.7 -1.7 12 23 22.5 20.3 22.2 39.5 57.4 68.8 75.9 83.1 89.9 94.9 98.9 100.5 98.3 92.7 85.8 76.8 69.1 61.2 57.3 51.3 43.6 36.5 28.4 37.5 39.3 17 0.7 0.8 1 1.7 1 0.9 1.1 0.5 -0.6 -1.7 -1.7 -1.7 -1.7 -1.7 -1.7 -1.7 -1.7 -1.7 -1.7 -1.7 -1.6 -1.7 -1.7 -1.7 -1.7 -1.7 -1.7 -1.7 -1.7 -1.7 -1.7 -1.7 -1.7 -1.7 -1.7 -1.7 -1.7 -1.7 -1.7 -1.7 -1.7 -1.7 -1.7 -1.7 -1.7 -1.7 -1.7 -1.7 -1.7 -1.7 -1.7 -1.7 -1.7 -1.7 -1.7 -1.7 -1.7 -1.7 -1.7 -1.7 -1.7 -1.7 -1.7 -1.7 -1.7
108.5 112.2 115.8 119.8 124.1 127.4 129.8 131.7 132 132 131.9 131.5 131.7 132.8 134.3 134.9 135.3 134.6 132.1 129.6 125.8 121 116.2 114.5 121.4 124.5 125.7 126.3 126.4 126.5 127.1 128.2 129.3 129.5 129.3 128.5 127.1 125.5 122.5 119.4 117.4 115.5 115.2 117.6 120.6 123 125.2 127 128.7 130 130.7 131.2 131 129.9 127.8 124.1 120 114.2 108.1 99 86.7 73.3 64.9 69.1 74.2 75.1 73 74.2 76.9 81.3 86 89.1 90.7 92 95 101.8 107.5 109.6 108.4 106 102.4 98.8 93.7 84.7 73.3 63.2 54.7 47.6 40.8 34.1 26.2 13.2 -1.7 -1.7 0.1 7.9 24.4 35.3 38 36.5 30.4 23.1 13.5 0.4 -1.1 -1.7 -1.7 3.5 5.8 9.3 20.9 29.5 43.4 54.4 66.4 74.8 82.7 90.2 94.8 97 96.8 94.3 87.7 79.4 69.6 56.4 44.6 40.3 39.4 32 24.6 25 33.5 36 5 0.7 0.4 0.3 -0.4 -1.7 -1.7 -0.4 -1.7 -1.7 -1.7 -1.7 -1.7 -1.7 -1.7 -1.7 -1.7 -1.7 -1.7 -1.7 -1.7 -1.7 -1.7 -1.7 -1.7 -1.7 -1.7 -1.7 -1.7 -1.7 -1.7 -1.7 -1.7 -1.7 -1.7 -1.7 -1.7 -1.7 -1.7 -1.7 -1.7 -1.7 -1.7 -1.7 -1.7 -1.7 -1.7 -1.7 -1.7 -1.7 -1.7 -1.7 -1.7 -1.7 -1.7 -1.7 -1.7 -1.7 -1.7 -1.7 -1.7 -1.7 -1.7 -1.7 -1.7 -1.7
105 108.6 112.3 116.8 121 124.7 127.6 129.8 130.4 130.4 130.2 130.4 131.1 133.4 135.4 136.3 136.5 135.7 133.3 129.5 125.4 120 116.3 119.1 123.6 125.5 125.9 125.9 125.4 125.2 125.6 126.6 127.4 127.8 127.9 127.5 126.5 124.7 122.4 120.1 117.9 116.8 118.1 120.9 124.1 126.5 128.2 129.3 130.5 131.3 132.1 132.3 131.5 129.9 127.2 122.9 118.2 112.4 105 95.5 86.8 76.1 72 79.7 81.5 82 80.2 81 83.5 86.5 89.7 94 97.7 100.9 106 110.8 113.4 114.5 113 109.9 105.3 98.7 91.5 85.5 79.7 74.9 70.3 64.1 56.7 48.8 40.5 31.1 18 -1.7 -1.7 -1.7 8.9 16.5 18.4 16.7 12.6 7.2 -1.7 -1.7 -1.7 -1.7 -1.7 -1.7 5.7 21.5 34.5 44.7 53.8 60.9 70.4 77.5 85 91.1 94.1 94.3 93.7 88.7 80.6 71.5 62.7 52.5 38.1 26.7 23.7 20.3 14.7 11.3 1.6 1.1 0.6 -0.6 -1.7 -1.7 -1.7 -1.7 -1.7 -1.7 -1.7 -1.7 -1.7 -1.7 -1.7 -1.7 -1.7 -1.7 -1.7 -1.7 -1.7 -1.7 -1.7 -1.7 -1.7 -1.7 -1.7 -1.7 -1.7 -1.7 -1.7 -1.7 -1.7 -1.7 -1.7 -1.7 -1.7 -1.7 -1.7 -1.7 -1.7 -1.7 -1.7 -1.7 -1.7 -1.7 -1.7 -1.7 -1.7 -1.7 -1.7 -1.7 -1.7 -1.7 -1.7 -1.7 -1.7 -1.7 -1.7 -1.7 -1.7 -1.7 -1.7 -1.7 -1.7 -1.7 -1.7 -1.7
101.3 107.3 110.6 115.3 119.7 123.7 126.6 128.7 128.9 128.4 128.1 129.4 131.1 133.4 135.7 137.4 138.2 137 134.1 129.7 125.6 121.9 122.8 124.8 126 126.3 126.3 125.5 124.8 123.5 123.2 124 124.8 125.4 125.8 125.5 125.5 123.9 123.1 121.7 119.8 120.2 122.4 125.1 127.6 129.4 130.8 131.2 132.2 133.2 134.1 134.1 133.1 131.2 128.2 123.9 118.9 113.6 107.4 101 94 83.4 80.3 85.7 90.1 93.8 94.6 94.2 94 97.6 100.3 104.8 109.6 112.3 114.4 117.1 119.6 119.3 116.5 113.3 107.4 101.9 98.5 95 93.1 91.4 88.2 82.2 75 65.6 57.1 49.2 36.8 21.8 1.4 -1.7 -1.7 1 0.8 -1.7 -1.7 -1.7 -1.3 1.1 0.4 -1.5 -1.7 -1.7 3.7 25.1 42.8 62.6 68.6 72.7 75.7 80.7 87 90.9 93 93.1 89.7 82.6 73.9 63.6 53.8 46 34.9 20.4 11.6 6.6 1.6 -0.2 -1.7 -1.7 -1.7 -1.7 -1.7 -1.7 -1.7 -1.7 -1.7 -1.7 -1.7 -1.7 -1.7 -1.7 -1.7 -1.7 -1.7 -1.7 -1.7 -1.7 -1.7 -1.7 -1.7 -1.7 -1.7 -1.7 -1.7 -1.7 -1.7 -1.7 -1.7 -1.7 -1.7 -1.7 -1.7 -1.7 -1.7 -1.7 -1.7 -1.7 -1.7 -1.7 -1.7 -1.7 -1.7 -1.7 -1.7 -1.7 -1.7 -1.7 -1.7 -1.7 -1.7 -1.7 -1.7 -1.7 -1.7 -1.7 -1.7 -1.7 -1.7 -1.7 -1.7 -1.7 -1.7 -1.7 -1.7 -1.7
104 108.3 111.3 115.6 119.2 122.8 125.8 127.6 127.7 127 127 129.6 131.9 134.1 136.5 138.9 139.5 137.8 135.1 131.8 128.3 126.2 125.6 126.2 126.9 126.5 125.9 125.1 124 122.5 121.2 121.3 122 122.7 123.4 124.4 124.5 123.8 124 123.5 123.8 124.4 126.4 128.2 130.3 132 133.1 133.6 134 135.1 136.3 136.2 135.1 133.6 131.2 127.4 123.6 119 115 111.1 103 96.6 89.3 96.3 102.2 104.2 104.9 105 107.6 111.8 116.1 117.8 119.3 120.2 121 124.4 125.1 123.8 120.1 116.6 112.2 109.1 107.3 105.9 103.5 99.8 95.1 90.7 85.4 78.2 70.6 61.6 48.4 29.7 14.9 -1.7 -1.7 -0.9 -1.7 -1.7 -1.7 2.6 2.5 1.3 1.3 1.3 -1.7 -1.7 -1.7 16.3 43.2 66.3 75.9 78.9 79.9 83.6 88 90.7 91 89.9 83.9 75.4 66.6 54 46.3 38.1 28.2 21.1 17.9 1 -0.4 -1.7 -1.7 -1.7 -1.7 -1.7 -1.7 -1.7 -1.7 -1.7 -1.7 -1.7 -1.7 -1.7 -1.7 -1.7 -1.7 -1.7 -1.7 -1.7 -1.7 -1.7 -1.7 -1.7 -1.7 -1.7 -1.7 -1.7 -1.7 -1.7 -1.7 -1.7 -1.7 -1.7 -1.7 -1.7 -1.7 -1.7 -1.7 -1.7 -1.7 -1.7 -1.7 -1.7 -1.7 -1.7 -1.7 -1.7 -1.7 -1.7 -1.7 -1.7 -1.7 -1.7 -1.7 -1.7 -1.7 -1.7 -1.7 -1.7 -1.7 -1.7 -1.7 -1.7 -1.7 -1.7 -1.7 -1.7 -1.7 -1.7
106.6 109.1 112.2 116.1 119.7 123.1 125.8 126.8 126.4 124.7 126.1 129.5 132.5 135.2 137.6 138.9 138.9 137.4 134.7 131.7 128.6 126.1 126 126.3 126.3 126 125.5 124.7 123.5 121.9 120.2 119.1 119.5 120.4 121.5 122.7 123.8 124.4 124.7 125.8 126.7 127.6 128.8 130.8 132.7 134.4 135.5 136.4 136.3 137.5 138.6 138.3 137.5 136 134.1 131.2 127.7 123.3 119 114.3 109.7 105.1 99.5 107.2 110 111.1 112.3 115.3 118.1 122.7 125.2 126.5 127.1 127 128.5 130.5 130.3 127.5 124.2 120 115.9 114.4 112.9 111.6 107.8 102.4 96.5 90.9 83.4 74.8 63.2 50 38.6 24.2 12.6 5.8 -1.7 -1.7 2.6 3 3 3.3 3.3 2.9 1.3 3.1 2.6 -1.7 -1.7 6.4 37.2 62.8 78.6 83.9 85.2 87.2 89.4 89.7 88.7 85.2 78.8 69.5 60.8 51.5 43.5 36 28 22.9 4.9 -1.7 -1.7 -1.7 -1.7 -1.7 -1.7 -1.7 -1.7 -1.7 -1.7 -1.7 -1.7 -1.7 -1.7 -1.7 -1.7 -1.7 -1.7 -1.7 -1.7 -1.7 -1.7 -1.7 -1.7 -1.7 -1.7 -1.7 -1.7 -1.7 -1.7 -1.7 -1.7 -1.7 -1.7 -1.7 -1.7 -1.7 -1.7 -1.7 -1.7 -1.7 -1.7 -1.7 -1.7 -1.7 -1.7 -1.7 -1.7 -1.7 -1.7 -1.7 -1.7 -1.7 -1.7 -1.7 -1.7 -1.7 -1.7 -1.7 -1.7 -1.7 -1.7 -1.7 -1.7 -1.7 -1.7 -1.7 -1.7 -1.7 -1.7 -1.7
110.1 111 113.7 117.3 120.6 123.9 125.6 125.7 124.8 123.3 125.1 129 132.2 135.1 137.2 138.1 137.2 135.6 133 130 127 124.9 124.9 125.5 125.7 125.4 125 124.1 122.6 121.1 119.5 117.8 117.7 118.4 120 121.9 123.4 124.5 125.2 126.5 127.8 129.6 131.2 132.7 134.4 135.8 136.8 137.8 138.7 139.8 140.2 140.4 139.6 138.3 136.4 134 131.2 126.8 122.1 117.7 112.9 107.1 109.3 113.3 115.7 117.6 121.1 124.5 127.2 129.4 130.6 131.8 132.1 132.7 133.6 134.3 132.7 130 127.1 123.1 119.3 117.2 114.8 111.5 106.9 100.6 93.1 83.2 71 58.5 46.3 34.3 24.6 14.8 6.4 4.6 6.2 7.1 5.2 4.2 7 11.8 11.6 10.3 6.5 4.2 3 -1.7 -1.7 5.3 35 63 80.7 86.1 86.8 87.6 89.2 88.7 86.1 82 75.6 66.7 57.9 50 42.1 32.6 1.7 1 -1.7 -1.7 -1.7 -1.7 -1.7 -1.7 -1.7 -1.7 -1.7 -1.7 -1.7 -1.7 -1.7 -1.7 -1.7 -1.7 -1.7 -1.7 -1.7 -1.7 -1.7 -1.7 -1.7 -1.7 -1.7 -1.7 -1.7 -1.7 -1.7 -1.7 -1.7 -1.7 -1.7 -1.7 -1.7 -1.7 -1.7 -1.7 -1.7 -1.7 -1.7 -1.7 -1.7 -1.7 -1.7 -1.7 -1.7 -1.7 -1.7 -1.7 -1.7 -1.7 -1.7 -1.7 -1.7 -1.7 -1.7 -1.7 -1.7 -1.7 -1.7 -1.7 -1.7 -1.7 -1.7 -1.7 -1.7 -1.7 -1.7 -1.7 -1.7 -1.7
113.7 114.2 116 119.3 122.4 125.2 125.5 124.5 123 120.9 123.5 127.8 131.8 134.6 136 136.3 134.9 132.7 129.9 127 124.6 122.9 123.3 124.1 124.7 124.8 124.4 123.4 121.7 119.8 117.7 115.9 116.3 117.9 119.4 120.9 122.9 124.3 125.5 126.6 127.8 129.9 131.6 133.7 135.4 137.1 138.8 139.8 140.9 141.7 141.6 142.3 141.2 140 138 135.9 133.2 130.2 126.9 121.2 116.9 112.7 115.7 119 122.6 125.8 129.3 131.9 133 132.8 133.7 134.3 134.4 135.1 135.7 135.1 133.4 130.7 127.7 123.7 120.3 116.3 112 107 99 88 79.8 68.3 54.1 40.3 28.7 18.1 8.5 7.9 8.8 9.8 16.7 24.5 21.5 14.5 23.5 29.1 28.3 27.6 22.9 12.1 4.1 -1.7 -1.7 9.3 41.2 66.5 81.1 84 84.2 86.4 88.5 88.7 85.2 80.1 74.2 65 55.1 43.9 27.3 2.7 -1.7 -1.7 -1.7 -1.7 -1.7 -1.7 -1.7 -1.7 -1.7 -1.7 -1.7 -1.7 -1.7 -1.7 -1.7 -1.7 -1.7 -1.7 -1.7 -1.7 -1.7 -1.7 -1.7 -1.7 -1.7 -1.7 -1.7 -1.7 -1.7 -1.7 -1.7 -1.7 -1.7 -1.7 -1.7 -1.7 -1.7 -1.7 -1.7 -1.7 -1.7 -1.7 -1.7 -1.7 -1.7 -1.7 -1.7 -1.7 -1.7 -1.7 -1.7 -1.7 -1.7 -1.7 -1.7 -1.7 -1.7 -1.7 -1.7 -1.7 -1.7 -1.7 -1.7 -1.7 -1.7 -1.7 -1.7 -1.7 -1.7 -1.7 -1.7 -1.7 -1.7 -1.7
118.5 119.6 121.8 124.1 126.3 126.7 124.9 123.4 120.8 118.5 121.2 125.4 129.4 132.5 134.1 133.7 132.2 129.5 126.5 124 121.7 120.3 121.6 123.1 123.9 124.2 124.1 123 120.7 118.5 115.9 114.5 116.1 118.4 120.8 122.8 124 125.3 125.9 127.3 128.8 130.3 133.1 137 139.4 140.2 141 142.1 143 143 142.9 142.4 141.7 139.7 138.4 136.5 135.1 133.2 130.1 125.8 121.9 120.8 122.8 126.2 129.3 132.2 134.5 135.6 134.9 134.1 134.5 134.4 134.8 135.1 135.2 134.1 132.4 130.3 127.1 123.5 119.1 114.1 105.4 94.2 80 67.4 61.7 52.4 39.5 24.5 20.6 22 22.6 24.6 27.3 30.8 35.5 39.6 37.1 34.6 38.9 43.8 42.7 40.8 33.9 25.7 10 -1.7 -1.7 13.5 42.2 66.2 76 78.5 82.2 85.7 88.8 88.5 84.6 79.8 72 63.1 50 30.5 6.3 0.1 -1.7 -1.7 -1.7 -1.7 -1.7 -1.7 -1.7 -1.7 -1.7 -1.7 -1.7 -1.7 -1.7 -1.7 -1.7 -1.7 -1.7 -1.7 -1.7 -1.7 -1.7 -1.7 -1.7 -1.7 -1.7 -1.7 -1.7 -1.7 -1.7 -1.7 -1.7 -1.7 -1.7 -1.7 -1.7 -1.7 -1.7 -1.7 -1.7 -1.7 -1.7 -1.7 -1.7 -1.7 -1.7 -1.7 -1.7 -1.7 -1.7 -1.7 -1.7 -1.7 -1.7 -1.7 -1.7 -1.7 -1.7 -1.7 -1.7 -1.7 -1.7 -1.7 -1.7 -1.7 -1.7 -1.7 -1.7 -1.7 -1.7 -1.7 -1.7 -1.7 -1.7 -1.7
124.2 124.8 126.2 127.9 128.3 127.2 124.5 122 118.7 116.2 119.4 123.2 126.5 130 131.3 131.1 129.3 126.7 124 121.6 119 118.7 121 122.7 123.8 123.8 123.6 122.3 120.1 117.5 115.4 113.5 115.6 119.5 123.2 125.8 127.7 128.2 128.2 129.2 131.1 133.7 136.2 140.1 141.7 141.8 141.7 142.1 142.6 142.6 141.9 141 140.5 139.6 138.7 137.9 136.9 135.5 132.9 129.3 125.7 126.4 129.2 131.8 134.3 136.4 137.4 136.8 135.7 134.8 133.6 132.8 132.8 133.3 133.7 132.9 131.4 129.4 126.3 121.6 116.1 108 93.2 76.3 59.7 48.5 43.3 34.1 27.3 33 39.1 40.8 43.5 45.7 47.4 49.9 52.2 52.9 53 51.2 51.7 53.1 54.1 53.3 44.5 34 13.7 1.8 -1.7 8.5 37.2 58.9 66.9 72.3 81.1 86.3 89.6 86.6 83.9 75.4 62.7 49.7 33.5 10.3 0.6 -1.7 -1.7 -1.7 -1.7 -1.7 -1.7 -1.7 -1.7 -1.7 -1.7 -1.7 -1.7 -1.7 -1.7 -1.7 -1.7 -1.7 -1.7 -1.7 -1.7 -1.7 -1.7 -1.7 -1.7 -1.7 -1.7 -1.7 -1.7 -1.7 -1.7 -1.7 -1.7 -1.7 -1.7 -1.7 -1.7 -1.7 -1.7 -1.7 -1.7 -1.7 -1.7 -1.7 -1.7 -1.7 -1.7 -1.7 -1.7 -1.7 -1.7 -1.7 -1.7 -1.7 -1.7 -1.7 -1.7 -1.7 -1.7 -1.7 -1.7 -1.7 -1.7 -1.7 -1.7 -1.7 -1.7 -1.7 -1.7 -1.7 -1.7 -1.7 -1.7 -1.7 -1.7 -1.7
128.9 129 129.5 129.9 129.1 126.9 123.4 119.5 115.7 113.3 118.1 122.1 125 127.6 128.6 128.2 126.6 123.9 121.2 118.7 116.4 118 121 123.1 124.4 124.1 123.4 121.9 120.1 117.8 115.3 113 115.3 120.7 125.1 128.7 130.9 131.7 131.3 131.9 134.1 136.1 138.5 140.9 141.3 141.1 141.1 141.1 141 140.6 139.9 139.2 138.9 138.6 138.4 138.3 137.6 136.1 133.6 131.4 130.6 131.5 133.7 136.1 137.4 137.7 137.7 137.3 136.2 134.3 131.8 130.3 129.9 130.7 131.5 130.9 129.6 127.2 123.1 117.1 110.5 99.4 80.7 60.1 45 39.3 38.2 41.3 46 52.1 58.9 61.7 63.5 63.8 65 67.4 70.5 69.5 67.6 65.4 60.4 61.9 62.9 60.5 55.2 41.9 15.8 0.5 -1.7 4.8 29.7 47.3 53.2 66.6 79.5 85.4 86.2 82.5 75.9 61.4 43.3 31.9 11.6 1.3 -0.5 -1.7 -1.7 -1.7 -1.7 -1.7 -1.7 -1.7 -1.7 -1.7 -1.7 -1.7 -1.7 -1.7 -1.7 -1.7 -1.7 -1.7 -1.7 -1.7 -1.7 -1.7 -1.7 -1.7 -1.7 -1.7 -1.7 -1.7 -1.7 -1.7 -1.7 -1.7 -1.7 -1.7 -1.7 -1.7 -1.7 -1.7 -1.7 -1.7 -1.7 -1.7 -1.7 -1.7 -1.7 -1.7 -1.7 -1.7 -1.7 -1.7 -1.7 -1.7 -1.7 -1.7 -1.7 -1.7 -1.7 -1.7 -1.7 -1.7 -1.7 -1.7 -1.7 -1.7 -1.7 -1.7 -1.7 -1.7 -1.7 -1.7 -1.7 -1.7 -1.7 -1.7 -1.7 -1.7
131.1 131.6 132.1 131.4 130.1 127.1 123.7 118.5 114.2 111.3 116.7 120.9 123.8 125.6 125.8 125.2 123.1 120.7 117.6 116.3 115 117.9 121.1 123.7 125.7 125.8 124.3 122.5 120.5 118.1 115.1 111.4 115.7 122.1 127.7 131 133.2 133.7 133.2 134.2 135 135.9 138.4 139.8 139.8 139.4 138.7 139.2 138.9 138.2 137.5 136.5 136.1 136.4 137.6 137.9 137.9 136.5 134.6 133.9 134.4 136 137.3 138.4 138.8 138.2 137.6 136.7 134.9 132.9 130.1 127.3 126 126.9 127.4 127.3 126 123.5 119.5 113.1 102.2 88.4 71.5 52.8 50.8 52.6 56.8 60.5 67.8 72.5 73.7 76.4 79 80.1 82.1 84.8 84.2 81.3 77.3 73.4 70.3 69.4 70.2 68 61.2 44.5 16.9 0.8 -1.7 2.8 17.4 34 44.4 65.6 79.6 82 78.7 72.8 59 43.5 31.3 25.5 1.5 0.2 -1.2 -1.7 -1.7 -1.7 -1.7 -1.7 -1.7 -1.7 -1.7 -1.7 -1.7 -1.7 -1.7 -1.7 -1.7 -1.7 -1.7 -1.7 -1.7 -1.7 -1.7 -1.7 -1.7 -1.7 -1.7 -1.7 -1.7 -1.7 -1.7 -1.7 -1.7 -1.7 -1.7 -1.7 -1.7 -1.7 -1.7 -1.7 -1.7 -1.7 -1.7 -1.7 -1.7 -1.7 -1.7 -1.7 -1.7 -1.7 -1.7 -1.7 -1.7 -1.7 -1.7 -1.7 -1.7 -1.7 -1.7 -1.7 -1.7 -1.7 -1.7 -1.7 -1.7 -1.7 -1.7 -1.7 -1.7 -1.7 -1.7 -1.7 -1.7 -1.7 -1.7 -1.7 -1.7 -1.7
132.4 132.7 132.4 131.9 130.4 127.7 124.3 119.7 114.8 110.4 114.1 118.5 121.3 122.3 121.4 120.3 117.4 115.1 114 112.9 115.1 118.8 121.9 124.8 127 127.1 125.1 122.7 119.8 117.1 113.3 109.6 117.3 122.8 127.5 130.4 132.8 133.3 133.6 134.1 135.1 136.2 136.9 137.2 137.4 137 136.9 136.8 136.2 135.1 133.9 132.1 132 134.4 136.1 136.7 136.9 136.1 136.2 136.4 137.6 139.1 140.2 139.8 139.2 138.5 137.2 135 132.9 130.9 127.8 125.2 121.7 120.1 121.4 122.7 122.3 120.2 115.6 106.8 93.4 78.3 62.8 60.5 66.8 72.1 75.8 80.8 87.7 89.7 88 92.4 94.9 96.4 98.1 98.9 95.9 90.3 85.3 80 77.2 76.7 76.6 72.4 64.2 45.7 21.8 1.2 -1.7 -1.7 6.8 23.7 46.4 66.6 78.4 77.8 69.6 59.5 42.8 30.9 9.3 2 0.6 -0.6 -1.7 -1.7 -1.7 -1.7 -1.7 -1.7 -1.7 -1.7 -1.7 -1.7 -1.7 -1.7 -1.7 -1.7 -1.7 -1.7 -1.7 -1.7 -1.7 -1.7 -1.7 -1.7 -1.7 -1.7 -1.7 -1.7 -1.7 -1.7 -1.7 -1.7 -1.7 -1.7 -1.7 -1.7 -1.7 -1.7 -1.7 -1.7 -1.7 -1.7 -1.7 -1.7 -1.7 -1.7 -1.7 -1.7 -1.7 -1.7 -1.7 -1.7 -1.7 -1.7 -1.7 -1.7 -1.7 -1.7 -1.7 -1.7 -1.7 -1.7 -1.7 -1.7 -1.7 -1.7 -1.7 -1.7 -1.7 -1.7 -1.7 -1.7 -1.7 -1.7 -1.7 -1.7 -1.7 -1.7
131.4 132.1 131.8 131 129.3 127.3 124.2 121 118 113.2 106.6 114.2 117.9 118.8 117.3 114.8 112.7 111.3 110.8 112.6 116.5 120.3 124 126.7 128.3 128.3 125.7 122.2 119.2 115.4 110.8 109.4 116.6 121.9 125.8 128.6 130 131 131.9 133 133.8 134.7 134.7 134.6 134.3 134.1 133.8 133.9 133.3 131.7 129.3 127.2 129.6 132.7 134.1 134.7 135.1 135.9 136.5 137.9 140.4 142.2 142.4 141.2 139.4 138.1 135.6 133 130.7 127.8 125.3 122.9 119 113.5 114.9 117.3 118.2 116.3 109.1 97.4 83.7 68.7 66.7 75.3 84 89.8 93.9 100.4 104.5 106.4 107.2 109.4 110.9 110.6 109.6 107.3 102.8 97.8 91.3 85.8 82.6 80.3 78 71.9 61.3 44.8 21 1.5 -1.7 -1.7 4.1 20.8 44.8 65.6 77.1 73.3 60.8 43 14.4 1.5 0.9 0.8 -0.1 -1.7 -1.7 -1.7 -1.7 -1.7 -1.7 -1.7 -1.7 -1.7 -1.7 -1.7 -1.7 -1.7 -1.7 -1.7 -1.7 -1.7 -1.7 -1.7 -1.7 -1.7 -1.7 -1.7 -1.7 -1.7 -1.7 -1.7 -1.7 -1.7 -1.7 -1.7 -1.7 -1.7 -1.7 -1.7 -1.7 -1.7 -1.7 -1.7 -1.7 -1.7 -1.7 -1.7 -1.7 -1.7 -1.7 -1.7 -1.7 -1.7 -1.7 -1.7 -1.7 -1.7 -1.7 -1.7 -1.7 -1.7 -1.7 -1.7 -1.7 -1.7 -1.7 -1.7 -1.7 -1.7 -1.7 -1.7 -1.7 -1.7 -1.7 -1.7 -1.7 -1.7 -1.7 -1.7 -1.7 -1.7
128.9 129.7 129.4 128.9 127.6 126.1 123.8 122.2 120.2 117.2 109.3 104.4 113 113.9 112 110.8 109.7 109.7 111.8 116.1 119.5 123.3 126.4 128.6 129.4 129 125.9 121.6 118.6 114.2 109.8 109 113.9 119.5 123 125.1 127.2 128 129.6 132 133.1 133.1 132.9 132 131.6 131.3 131.2 131.1 130.5 128.9 125.2 124 128.5 130.2 131.2 131.2 131.4 134.3 137 138.7 141.7 143.3 143.5 141.7 139.4 136.9 133.5 130.8 128.2 124.8 122.4 119.6 117 111.6 106.5 110.4 112.5 109.7 98.5 86.5 74.2 73 83 92.4 100.1 105.7 110.8 116.4 119.2 120 118.9 118.1 117.4 115.5 113.1 110 106.2 101.1 95.1 88.2 85.3 82.1 77.4 67.9 50.9 37.2 18 2.1 -1.7 -1.7 4.4 16.5 38.3 58 70.6 63.8 51 32.3 1.6 0.2 -0.6 -0.6 -1.2 -1.7 -1.7 -1.7 -1.7 -1.7 -1.7 -1.7 -1.7 -1.7 -1.7 -1.7 -1.7 -1.7 -1.7 -1.7 -1.7 -1.7 -1.7 -1.7 -1.7 -1.7 -1.7 -1.7 -1.7 -1.7 -1.7 -1.7 -1.7 -1.7 -1.7 -1.7 -1.7 -1.7 -1.7 -1.7 -1.7 -1.7 -1.7 -1.7 -1.7 -1.7 -1.7 -1.7 -1.7 -1.7 -1.7 -1.7 -1.7 -1.7 -1.7 -1.7 -1.7 -1.7 -1.7 -1.7 -1.7 -1.7 -1.7 -1.7 -1.7 -1.7 -1.7 -1.7 -1.7 -1.7 -1.7 -1.7 -1.7 -1.7 -1.7 -1.7 -1.7 -1.7 -1.7 -1.7 -1.7 -1.7
