ncols 200
nrows 89
xllcorner 250000
yllcorner 270350
cellsize 50
-1.2 -1.2 -1.2 -1.2 -1.2 -1.2 -1.2 -1.2 -1.2 -1.2 -1.2 -1.2 -1.2 -1.2 -1.2 -1.2 -1.2 -1.2 -1.2 -1.2 -1.2 -1.2 -1.2 -1.2 -1.2 -1.2 -1.2 -1.2 -1.2 -1.2 -1.2 -1.2 -1.2 -1.2 -1.2 -1.2 -1.2 -1.2 -1.2 -1.2 -1.2 -1.2 -1.2 -1.2 -1.2 -1.2 -1.2 -1.2 -1.2 -1.2 -1.2 -1.2 -1.2 -1.2 -1.2 -1.2 -1.2 -1.2 -1.2 -1.2 -1.2 -1.2 -1.2 -1.2 -1.2 -1.2 -1.2 -1.2 -1.2 -1.2 -1.2 -1.2 -1.2 -1.2 -1.2 -1.2 -1.2 -1.2 -1.2 -1.2 -1.2 -1.2 -1.2 -1.2 -1.2 -1.2 -1.2 -1.2 -1.2 -1.2 -1.2 -1.2 -1.2 -1.2 -1.2 -1.2 -1.2 -1.2 -1.2 -1.2 -1.2 -1.2 -1.2 -1.2 -1.2 -1.2 -1.2 -1.2 -1.2 -1.2 -1.2 -1.2 0.7 26.5 41.2 43.4 57.2 76.6 84.4 98.9 109.4 119.9 125.6 112 127.5 137.3 135 144 146.6 146.2 152.3 157.7 164.1 169.6 170.9 169.4 164.6 158.2 157.7 160 162.2 160 159.3 160.5 160.6 159.2 156.6 153.9 150.8 147.5 144.4 142.6 141.1 139.6 139.3 140.2 143.2 150.3 157.6 160.2 159.1 158.3 156.5 157.3 161.8 170.5 179.5 179.5 173 151.3 143.3 137.9 132.6 128 124.4 120.8 122 126.2 133.4 141.2 142.3 122.2 95.8 83.5 77.8 95.6 103.2 107.3 111 114.1 118.5 121.7 124.5 115.8 111.8 112.7 114.9 117.1 117.5 119.2
-1.2 -1.2 -1.2 -1.2 -1.2 -1.2 -1.2 -1.2 -1.2 -1.2 -1.2 -1.2 -1.2 -1.2 -1.2 -1.2 -1.2 -1.2 -1.2 -1.2 -1.2 -1.2 -1.2 -1.2 -1.2 -1.2 -1.2 -1.2 -1.2 -1.2 -1.2 -1.2 -1.2 -1.2 -1.2 -1.2 -1.2 -1.2 -1.2 -1.2 -1.2 -1.2 -1.2 -1.2 -1.2 -1.2 -1.2 -1.2 -1.2 -1.2 -1.2 -1.2 -1.2 -1.2 -1.2 -1.2 -1.2 -1.2 -1.2 -1.2 -1.2 -1.2 -1.2 -1.2 -1.2 -1.2 -1.2 -1.2 -1.2 -1.2 -1.2 -1.2 -1.2 -1.2 -1.2 -1.2 -1.2 -1.2 -1.2 -1.2 -1.2 -1.2 -1.2 -1.2 -1.2 -1.2 -1.2 -1.2 -1.2 -1.2 -1.2 -1.2 -1.2 -1.2 -1.2 -1.2 -1.2 -1.2 -1.2 -1.2 -1.2 -1.2 -1.2 -1.2 -1.2 -1.2 -1.2 -1.2 -1.2 -1.2 -1.2 0 1.3 42.3 42.5 45.5 59.3 71.9 96.5 108.7 118.6 129.9 144.2 147.6 136.4 138.3 145.6 153.1 149.7 148.2 150.7 154.9 160.8 162.8 164.5 160.8 156.2 153.6 152.8 152.1 152.3 157.2 159.7 162.2 160.5 157.4 154.3 151.3 147.7 144.6 141.5 139.8 139.1 138.6 139.2 141.7 147.7 156.4 161.9 160.2 158.3 156.9 156 157.6 163.2 171.9 177.2 174.8 158 149 142.3 136.8 131.7 127.9 125 122.9 124.3 129 137.3 143.9 141 120.7 96.5 82.2 84 95.3 101.8 106.2 110.7 116 120.7 123.9 126.1 118.4 115.2 117.6 120.5 122.4 123.1 122.1
-1.2 -1.2 -1.2 -1.2 -1.2 -1.2 -1.2 -1.2 -1.2 -1.2 -1.2 -1.2 -1.2 -1.2 -1.2 -1.2 -1.2 -1.2 -1.2 -1.2 -1.2 -1.2 -1.2 -1.2 -1.2 -1.2 -1.2 -1.2 -1.2 -1.2 -1.2 -1.2 -1.2 -1.2 -1.2 -1.2 -1.2 -1.2 -1.2 -1.2 -1.2 -1.2 -1.2 -1.2 -1.2 -1.2 -1.2 -1.2 -1.2 -1.2 -1.2 -1.2 -1.2 -1.2 -1.2 -1.2 -1.2 -1.2 -1.2 -1.2 -1.2 -1.2 -1.2 -1.2 -1.2 -1.2 -1.2 -1.2 -1.2 -1.2 -1.2 -1.2 -1.2 -1.2 -1.2 -1.2 -1.2 -1.2 -1.2 -1.2 -1.2 -1.2 -1.2 -1.2 -1.2 -1.2 -1.2 -1.2 -1.2 -1.2 -1.2 -1.2 -1.2 -1.2 -1.2 -1.2 -1.2 -1.2 -1.2 -1.2 -1.2 -1.2 -1.2 -1.2 -1.2 -1.2 -1.2 -1.2 -1.2 -1.2 -1.2 0.2 2.6 36.7 40.5 46.4 61.6 88.1 111 121.5 128.6 139.8 154.2 163 157.9 153.9 164 164.9 160.8 153.4 150 152.4 156.9 158.3 158.1 156.1 155.2 155.2 159.5 158.2 149.4 152.4 157.7 160.3 158.7 154.7 151.5 148 144.6 142 139.9 138.5 138.4 138.6 140.8 146.3 156.5 164.7 163.8 161.1 158 156 156.2 159.4 164.8 172.4 174.7 170.4 154.7 148.1 142.2 136.7 132.1 128.6 126.4 125.6 127.6 133.5 141.6 144.5 139.8 115 94.5 81.8 87.8 96.2 101.2 105.9 109.7 114 118.2 123.1 128.5 121.6 120.4 122.6 124.6 125.7 126.6 125.4
-1.2 -1.2 -1.2 -1.2 -1.2 -1.2 -1.2 -1.2 -1.2 -1.2 -1.2 -1.2 -1.2 -1.2 -1.2 -1.2 -1.2 -1.2 -1.2 -1.2 -1.2 -1.2 -1.2 -1.2 -1.2 -1.2 -1.2 -1.2 -1.2 -1.2 -1.2 -1.2 -1.2 -1.2 -1.2 -1.2 -1.2 -1.2 -1.2 -1.2 -1.2 -1.2 -1.2 -1.2 -1.2 -1.2 -1.2 -1.2 -1.2 -1.2 -1.2 -1.2 -1.2 -1.2 -1.2 -1.2 -1.2 -1.2 -1.2 -1.2 -1.2 -1.2 -1.2 -1.2 -1.2 -1.2 -1.2 -1.2 -1.2 -1.2 -1.2 -1.2 -1.2 -1.2 -1.2 -1.2 -1.2 -1.2 -1.2 -1.2 -1.2 -1.2 -1.2 -1.2 -1.2 -1.2 -1.2 -1.2 -1.2 -1.2 -1.2 -1.2 -1.2 -1.2 -1.2 -1.2 -1.2 -1.2 -1.2 -1.2 -1.2 -1.2 -1.2 -1.2 -1.2 -1.2 -1.2 -1.2 -1.2 -1.2 -1.2 0.9 22.4 36.6 43.6 53.3 75.2 106.6 124.6 129.2 135.9 148.1 160.2 163.3 161.3 162.8 168.6 167.5 164.4 155.1 151.2 154.7 158.8 159.1 157.4 158.4 159.4 159.2 163.1 157 147.7 148.3 151 154.2 153.8 151 147.8 144.5 142.4 141 139.5 138.5 138.2 140 143 151.4 163.3 170.2 166.1 159.8 156.8 155.5 156.8 161 167.1 173.4 174.7 166.1 153.3 148.4 142.9 137.2 132.5 129.6 128.3 128.4 130.3 138.1 143.5 142.7 128.1 107.8 95.3 83 92.5 97.5 102.2 106.8 110.3 113 116.1 119.2 123 123.2 124.8 126.2 127.6 128.7 129.2 128.7
-1.2 -1.2 -1.2 -1.2 -1.2 -1.2 -1.2 -1.2 -1.2 -1.2 -1.2 -1.2 -1.2 -1.2 -1.2 -1.2 -1.2 -1.2 -1.2 -1.2 -1.2 -1.2 -1.2 -1.2 -1.2 -1.2 -1.2 -1.2 -1.2 -1.2 -1.2 -1.2 -1.2 -1.2 -1.2 -1.2 -1.2 -1.2 -1.2 -1.2 -1.2 -1.2 -1.2 -1.2 -1.2 -1.2 -1.2 -1.2 -1.2 -1.2 -1.2 -1.2 -1.2 -1.2 -1.2 -1.2 -1.2 -1.2 -1.2 -1.2 -1.2 -1.2 -1.2 -1.2 -1.2 -1.2 -1.2 -1.2 -1.2 -1.2 -1.2 -1.2 -1.2 -1.2 -1.2 -1.2 -1.2 -1.2 -1.2 -1.2 -1.2 -1.2 -1.2 -1.2 -1.2 -1.2 -1.2 -1.2 -1.2 -1.2 -1.2 -1.2 -1.2 -1.2 -1.2 -1.2 -1.2 -1.2 -1.2 -1.2 -1.2 -1.2 -1.2 -1.2 -1.2 -1.2 -1.2 -1.2 -1.2 -1.2 0.6 26.6 30.7 38 49.7 65.2 91.2 120.2 130.7 135.7 142.6 154.8 163.9 164.2 163.8 167.7 168.3 165.6 159.5 153.3 152.6 156.8 159.9 160.2 166.2 166.5 166.2 165.9 163.3 152.2 145.5 144.7 145.8 147.6 148 146.4 144.2 142.1 140.3 139.6 139.1 138.5 138.3 140.1 146.3 155.7 167.4 168.9 163.7 156.5 154.7 154.5 156.6 161.3 167.4 170.4 168.1 157.9 154 150.6 143.5 137.4 132.5 130.2 129 129.1 132.8 137.9 138.3 131.5 118.3 105.1 96.6 83.7 95.1 100.3 104.5 108.8 111.8 113.6 115.9 118.7 121.8 124.6 127.2 129.5 131 132 132.1 131.9
-1.2 -1.2 -1.2 -1.2 -1.2 -1.2 -1.2 -1.2 -1.2 -1.2 -1.2 -1.2 -1.2 -1.2 -1.2 -1.2 -1.2 -1.2 -1.2 -1.2 -1.2 -1.2 -1.2 -1.2 -1.2 -1.2 -1.2 -1.2 -1.2 -1.2 -1.2 -1.2 -1.2 -1.2 -1.2 -1.2 -1.2 -1.2 -1.2 -1.2 -1.2 -1.2 -1.2 -1.2 -1.2 -1.2 -1.2 -1.2 -1.2 -1.2 -1.2 -1.2 -1.2 -1.2 -1.2 -1.2 -1.2 -1.2 -1.2 -1.2 -1.2 -1.2 -1.2 -1.2 -1.2 -1.2 -1.2 -1.2 -1.2 -1.2 -1.2 -1.2 -1.2 -1.2 -1.2 -1.2 -1.2 -1.2 -1.2 -1.2 -1.2 -1.2 -1.2 -1.2 -1.2 -1.2 -1.2 -1.2 -1.2 -1.2 -1.2 -1.2 -1.2 -1.2 -1.2 -1.2 -1.2 -1.2 -1.2 -1.2 -1.2 -1.2 -1.2 -1.2 -1.2 -1.2 -1.2 -1.2 -1.2 -1.2 1.3 29 34.4 46.2 65.4 84.8 103.9 124.3 133.5 139.7 148.3 158.8 166.9 170.2 167.9 169.8 167.9 165.3 158.1 154.2 156.7 160.6 162.9 169.8 170.5 169.3 169 167.3 159 147.9 143.1 142.6 143 144.6 146.9 145.3 142.3 139.7 138.4 138.3 138.4 138.7 138.2 140.8 149.3 157.9 165 162.8 157 153.6 153 153.9 155.9 160.2 163.6 165.6 162.7 154.6 152.1 148.6 142.5 137.5 133 131.3 129.8 128.8 130.4 131.7 127.6 117.9 110.3 102.3 95.8 87.2 95.9 102 106.2 110.5 113 114.5 116.6 119.4 122.7 126 129.6 132.6 134.4 135 135.2 134.6
-1.2 -1.2 -1.2 -1.2 -1.2 -1.2 -1.2 -1.2 -1.2 -1.2 -1.2 -1.2 -1.2 -1.2 -1.2 -1.2 -1.2 -1.2 -1.2 -1.2 -1.2 -1.2 -1.2 -1.2 -1.2 -1.2 -1.2 -1.2 -1.2 -1.2 -1.2 -1.2 -1.2 -1.2 -1.2 -1.2 -1.2 -1.2 -1.2 -1.2 -1.2 -1.2 -1.2 -1.2 -1.2 -1.2 -1.2 -1.2 -1.2 -1.2 -1.2 -1.2 -1.2 -1.2 -1.2 -1.2 -1.2 -1.2 -1.2 -1.2 -1.2 -1.2 -1.2 -1.2 -1.2 -1.2 -1.2 -1.2 -1.2 -1.2 -1.2 -1.2 -1.2 -1.2 -1.2 -1.2 -1.2 -1.2 -1.2 -1.2 -1.2 -1.2 -1.2 -1.2 -1.2 -1.2 -1.2 -1.2 -1.2 -1.2 -1.2 -1.2 -1.2 -1.2 -1.2 -1.2 -1.2 -1.2 -1.2 -1.2 -1.2 -1.2 -1.2 -1.2 -1.2 -1.2 -1.2 -1.2 -1.2 0.4 25.1 31.5 39.7 54.7 78.4 100.1 115.8 132.8 142.5 145.9 152.2 164 171.4 171.1 170.1 169.3 167.1 163.1 156.7 157.5 161.5 164 168.6 171.8 170.3 169.5 169.2 164 154.1 145 142.2 142.1 143.1 145.7 146.7 144.2 140.3 138.6 137.9 138 138.1 138.2 138.5 145.2 155.1 162.5 163.1 156.7 150.9 150.6 151.2 152.7 155.4 158.9 159.5 160.3 156.6 152.3 149.4 146.3 141.1 136.1 132.6 130.3 128 126.4 126.4 121.4 113.9 110.2 106.2 99.9 91.6 88.5 96.9 101.4 106.7 110.8 113.2 115.5 117.2 120.3 123.9 127.5 131 135 137.8 139.5 139.2 137.8
-1.2 -1.2 -1.2 -1.2 -1.2 -1.2 -1.2 -1.2 -1.2 -1.2 -1.2 -1.2 -1.2 -1.2 -1.2 -1.2 -1.2 -1.2 -1.2 -1.2 -1.2 -1.2 -1.2 -1.2 -1.2 -1.2 -1.2 -1.2 -1.2 -1.2 -1.2 -1.2 -1.2 -1.2 -1.2 -1.2 -1.2 -1.2 -1.2 -1.2 -1.2 -1.2 -1.2 -1.2 -1.2 -1.2 -1.2 -1.2 -1.2 -1.2 -1.2 -1.2 -1.2 -1.2 -1.2 -1.2 -1.2 -1.2 -1.2 -1.2 -1.2 -1.2 -1.2 -1.2 -1.2 -1.2 -1.2 -1.2 -1.2 -1.2 -1.2 -1.2 -1.2 -1.2 -1.2 -1.2 -1.2 -1.2 -1.2 -1.2 -1.2 -1.2 -1.2 -1.2 -1.2 -1.2 -1.2 -1.2 -1.2 -1.2 -1.2 -1.2 -1.2 -1.2 -1.2 -1.2 -1.2 -1.2 -1.2 -1.2 -1.2 -1.2 -1.2 -1.2 -1.2 -1.2 -1.2 -1.2 -1.2 0.5 24.4 36.7 46.4 62.4 86 101.8 118.7 139 146.1 149.5 156.3 170.1 172.8 170.1 169.3 168 165.6 160.2 158 160.1 163.7 166.3 169.8 170.1 168.8 167.4 165.8 158.9 149.2 144.2 141.8 141.8 144 146.6 144.4 141.4 138.9 139.4 138.1 138.1 138.1 138 140.5 150.3 160.3 166.8 165 155.5 150 150.1 150.2 152.4 155.8 156.7 157.2 156.9 154.5 151.4 148.7 145.4 139.8 135.2 131.7 128.4 125 121.7 117.1 111.7 107.9 105 101.8 96.4 87.1 91.8 96.1 100.2 105.6 110.6 112.7 115.1 117.9 121.5 125.1 128.7 132.3 136.7 140.6 143.3 142.5 140.7
-1.2 -1.2 -1.2 -1.2 -1.2 -1.2 -1.2 -1.2 -1.2 -1.2 -1.2 -1.2 -1.2 -1.2 -1.2 -1.2 -1.2 -1.2 -1.2 -1.2 -1.2 -1.2 -1.2 -1.2 -1.2 -1.2 -1.2 -1.2 -1.2 -1.2 -1.2 -1.2 -1.2 -1.2 -1.2 -1.2 -1.2 -1.2 -1.2 -1.2 -1.2 -1.2 -1.2 -1.2 -1.2 -1.2 -1.2 -1.2 -1.2 -1.2 -1.2 -1.2 -1.2 -1.2 -1.2 -1.2 -1.2 -1.2 -1.2 -1.2 -1.2 -1.2 -1.2 -1.2 -1.2 -1.2 -1.2 -1.2 -1.2 -1.2 -1.2 -1.2 -1.2 -1.2 -1.2 -1.2 -1.2 -1.2 -1.2 -1.2 -1.2 -1.2 -1.2 -1.2 -1.2 -1.2 -1.2 -1.2 -1.2 -1.2 -1.2 -1.2 -1.2 -1.2 -1.2 -1.2 -1.2 -1.2 -1.2 -1.2 -1.2 -1.2 -1.2 -1.2 -1.2 -1.2 -1.2 -1.2 -1.2 1.1 30.3 38.8 49.3 65.4 83.1 102.6 122.4 142.8 145.3 152.1 162.6 173.8 172.2 168.9 167.6 166.2 162.3 157.3 159.2 161.6 164.4 166.6 167.5 167.2 165.3 163.5 159.2 152.3 148.7 144 141.7 140.7 142.3 143.3 140.7 139.9 139.9 140.7 138.8 138.3 138.1 139.6 144.8 154.9 161.9 168.3 160.5 151.1 149.7 149.9 150.5 153.1 155.6 155.8 156.2 156.6 153 149.6 146.9 144.3 137.9 131.8 128.9 124.8 121.4 116.2 110 106.4 103.4 100.5 97.8 93 91.1 88.9 94.8 98.6 102.6 108.1 111.5 114.3 117.8 122 125.7 129.4 132.6 136.6 140.4 144.4 145.5 143.3
-1.2 -1.2 -1.2 -1.2 -1.2 -1.2 -1.2 -1.2 -1.2 -1.2 -1.2 -1.2 -1.2 -1.2 -1.2 -1.2 -1.2 -1.2 -1.2 -1.2 -1.2 -1.2 -1.2 -1.2 -1.2 -1.2 -1.2 -1.2 -1.2 -1.2 -1.2 -1.2 -1.2 -1.2 -1.2 -1.2 -1.2 -1.2 -1.2 -1.2 -1.2 -1.2 -1.2 -1.2 -1.2 -1.2 -1.2 -1.2 -1.2 -1.2 -1.2 -1.2 -1.2 -1.2 -1.2 -1.2 -1.2 -1.2 -1.2 -1.2 -1.2 -1.2 -1.2 -1.2 -1.2 -1.2 -1.2 -1.2 -1.2 -1.2 -1.2 -1.2 -1.2 -1.2 -1.2 -1.2 -1.2 -1.2 -1.2 -1.2 -1.2 -1.2 -1.2 -1.2 -1.2 -1.2 -1.2 -1.2 -1.2 -1.2 -1.2 -1.2 -1.2 -1.2 -1.2 -1.2 -1.2 -1.2 -1.2 -1.2 -1.2 -1.2 -1.2 -1.2 -1.2 -1.2 -1.2 -1.2 -0.1 1.3 30.9 40.5 52 69.8 87.8 112.8 135 141.7 145.3 156.3 170.7 175.1 170.3 167 166.6 164.2 159.1 156.9 159.2 162.1 165 167.1 167 165.6 162.6 157.7 152.5 148.9 145.3 141.6 140.6 139.8 140.1 139.7 139.6 140.8 142.2 142.3 139.1 137.6 138.3 142 151.9 160.1 161.3 157.3 152.9 150.3 150.2 150.1 150.6 153.5 153.7 153.1 154.1 154 150.9 147.6 144.6 139.5 133.8 128.9 125.5 120.8 116.8 109.4 104.5 101.8 98.8 96.1 93.6 89.8 93.8 94.6 90.9 95.8 98.3 104.6 109.4 113.6 117.6 121.7 126.1 129.2 131.5 135 139.1 142.7 144.2 142.8
-1.2 -1.2 -1.2 -1.2 -1.2 -1.2 -1.2 -1.2 -1.2 -1.2 -1.2 -1.2 -1.2 -1.2 -1.2 -1.2 -1.2 -1.2 -1.2 -1.2 -1.2 -1.2 -1.2 -1.2 -1.2 -1.2 -1.2 -1.2 -1.2 -1.2 -1.2 -1.2 -1.2 -1.2 -1.2 -1.2 -1.2 -1.2 -1.2 -1.2 -1.2 -1.2 -1.2 -1.2 -1.2 -1.2 -1.2 -1.2 -1.2 -1.2 -1.2 -1.2 -1.2 -1.2 -1.2 -1.2 -1.2 -1.2 -1.2 -1.2 -1.2 -1.2 -1.2 -1.2 -1.2 -1.2 -1.2 -1.2 -1.2 -1.2 -1.2 -1.2 -1.2 -1.2 -1.2 -1.2 -1.2 -1.2 -1.2 -1.2 -1.2 -1.2 -1.2 -1.2 -1.2 -1.2 -1.2 -1.2 -1.2 -1.2 -1.2 -1.2 -1.2 -1.2 -1.2 -1.2 -1.2 -1.2 -1.2 -1.2 -1.2 -1.2 -1.2 -1.2 -1.2 -1.2 -1.2 -1.2 -0.2 1.3 31.5 42.1 55.5 74.5 100.1 121.8 134.7 139.4 149.8 163.9 174.9 171.2 166.7 166.4 166.4 161.2 157.2 157.2 158.8 161 165.8 166.7 165.7 163.9 159.5 153.1 148.1 145.2 141.5 140.4 139.6 139.7 139.8 139.9 140.4 141.5 142.7 140.2 137.7 137.3 138.1 145.1 156.2 160.8 158.1 153 150.5 150.3 150.8 150.4 149.1 150.7 150.1 151.2 153.1 152.9 149.6 146.4 142.8 136.7 130.8 124.6 119.7 113.5 108 102.7 99.6 97.6 95.5 93.6 90.7 92.6 94.7 97.3 98.3 99.6 99 99.9 107.5 114.1 118.5 121.6 125.2 127.7 130 132.8 136.8 138.7 139.8 140.2
-1.2 -1.2 -1.2 -1.2 -1.2 -1.2 -1.2 -1.2 -1.2 -1.2 -1.2 -1.2 -1.2 -1.2 -1.2 -1.2 -1.2 -1.2 -1.2 -1.2 -1.2 -1.2 -1.2 -1.2 -1.2 -1.2 -1.2 -1.2 -1.2 -1.2 -1.2 -1.2 -1.2 -1.2 -1.2 -1.2 -1.2 -1.2 -1.2 -1.2 -1.2 -1.2 -1.2 -1.2 -1.2 -1.2 -1.2 -1.2 -1.2 -1.2 -1.2 -1.2 -1.2 -1.2 -1.2 -1.2 -1.2 -1.2 -1.2 -1.2 -1.2 -1.2 -1.2 -1.2 -1.2 -1.2 -1.2 -1.2 -1.2 -1.2 -1.2 -1.2 -1.2 -1.2 -1.2 -1.2 -1.2 -1.2 -1.2 -1.2 -1.2 -1.2 -1.2 -1.2 -1.2 -1.2 -1.2 -1.2 -1.2 -1.2 -1.2 -1.2 -1.2 -1.2 -1.2 -1.2 -1.2 -1.2 -1.2 -1.2 -1.2 -1.2 -1.2 -1.2 -1.2 -1.2 -1.2 -1.2 -0.3 1.3 34.2 43.4 60.4 83.3 110.9 121.7 132 143.5 156.5 170.6 170 167.4 165.9 166.4 165.7 159.1 156.9 157.9 158.4 159.7 163.1 164.1 163 160.9 155.6 148.7 143.9 141.5 140.3 139.6 140.1 140.7 141.1 141.5 141.9 141.4 139.7 137.9 137.2 137.1 138.9 148.3 157.8 158.3 154.2 150.4 149.2 151.5 153.1 149.1 145.7 145.4 147 149.7 151.7 151.4 149.2 146.9 143.9 137.4 130 121.8 114.1 107 102.2 99 96.9 95.1 93.4 90.2 92.7 93.3 95.5 97.5 99.4 101.9 103.3 103.1 102.8 103.9 116.6 120 123.8 126.2 128.6 130.9 132.7 134.3 135.7 136.9
-1.2 -1.2 -1.2 -1.2 -1.2 -1.2 -1.2 -1.2 -1.2 -1.2 -1.2 -1.2 -1.2 -1.2 -1.2 -1.2 -1.2 -1.2 -1.2 -1.2 -1.2 -1.2 -1.2 -1.2 -1.2 -1.2 -1.2 -1.2 -1.2 -1.2 -1.2 -1.2 -1.2 -1.2 -1.2 -1.2 -1.2 -1.2 -1.2 -1.2 -1.2 -1.2 -1.2 -1.2 -1.2 -1.2 -1.2 -1.2 -1.2 -1.2 -1.2 -1.2 -1.2 -1.2 -1.2 -1.2 -1.2 -1.2 -1.2 -1.2 -1.2 -1.2 -1.2 -1.2 -1.2 -1.2 -1.2 -1.2 -1.2 -1.2 -1.2 -1.2 -1.2 -1.2 -1.2 -1.2 -1.2 -1.2 -1.2 -1.2 -1.2 -1.2 -1.2 -1.2 -1.2 -1.2 -1.2 -1.2 -1.2 -1.2 -1.2 -1.2 -1.2 -1.2 -1.2 -1.2 -1.2 -1.2 -1.2 -1.2 -1.2 -1.2 -1.2 -1.2 -1.2 -1.2 -1.2 -1.2 0.1 1.7 39 47.7 61 78.8 100.8 120.1 134.7 149.2 165.3 167 166.6 165.4 166.3 167.8 165.9 158.6 157.1 158.2 158.2 159.7 161.4 161.3 160.5 157.3 150.1 144.2 141.1 139.5 139.3 141.2 142.3 143.7 145.3 143.2 139.9 138.3 137.3 136.9 136.9 137.2 143 154.7 160.4 154.3 148.7 146.6 146.7 149.1 149.1 145.9 142.5 142.8 145.3 148.1 149.8 150 149.4 148.3 145.9 140.2 132.9 122.4 110.7 104 99.7 97.3 95.1 93.5 92.4 92.6 92.9 93.1 95.7 97.7 100.5 104.2 111.2 118.1 119.5 106 112.7 118.4 122.4 124.9 127.1 129 130.6 131.8 132.9 134
-1.2 -1.2 -1.2 -1.2 -1.2 -1.2 -1.2 -1.2 -1.2 -1.2 -1.2 -1.2 -1.2 -1.2 -1.2 -1.2 -1.2 -1.2 -1.2 -1.2 -1.2 -1.2 -1.2 -1.2 -1.2 -1.2 -1.2 -1.2 -1.2 -1.2 -1.2 -1.2 -1.2 -1.2 -1.2 -1.2 -1.2 -1.2 -1.2 -1.2 -1.2 -1.2 -1.2 -1.2 -1.2 -1.2 -1.2 -1.2 -1.2 -1.2 -1.2 -1.2 -1.2 -1.2 -1.2 -1.2 -1.2 -1.2 -1.2 -1.2 -1.2 -1.2 -1.2 -1.2 -1.2 -1.2 -1.2 -1.2 -1.2 -1.2 -1.2 -1.2 -1.2 -1.2 -1.2 -1.2 -1.2 -1.2 -1.2 -1.2 -1.2 -1.2 -1.2 -1.2 -1.2 -1.2 -1.2 -1.2 -1.2 -1.2 -1.2 -1.2 -1.2 -1.2 -1.2 -1.2 -1.2 -1.2 -1.2 -1.2 -1.2 -1.2 -1.2 -1.2 -1.2 -1.2 -1.2 -1.2 0.8 25.9 47.4 54.2 69.7 95.4 108 127.2 148.1 158.2 163.4 165 165 166.2 168 168.2 163.8 159.1 157.8 158.3 158.4 159.5 160.5 160.9 160.9 152.7 145.8 141.9 139.3 138.8 141.3 143.2 145 145.7 144.7 142.2 139.1 137.1 136.9 136.8 136.7 137.4 146.7 162.3 162.9 151.2 145.3 143.1 143.2 144.7 143.2 141.2 140.6 141 143.6 146.4 148 148.2 147.6 146.8 142.4 136.3 127.8 116.5 106 100.9 98 96.2 93.7 93.4 93.5 93.7 93.5 94 95.5 100 104.8 110.5 121.8 127.6 126.8 118.8 106.6 116.8 121.1 123.3 125.5 127.1 128.5 129.8 130.5 131.2
-1.2 -1.2 -1.2 -1.2 -1.2 -1.2 -1.2 -1.2 -1.2 -1.2 -1.2 -1.2 -1.2 -1.2 -1.2 -1.2 -1.2 -1.2 -1.2 -1.2 -1.2 -1.2 -1.2 -1.2 -1.2 -1.2 -1.2 -1.2 -1.2 -1.2 -1.2 -1.2 -1.2 -1.2 -1.2 -1.2 -1.2 -1.2 -1.2 -1.2 -1.2 -1.2 -1.2 -1.2 -1.2 -1.2 -1.2 -1.2 -1.2 -1.2 -1.2 -1.2 -1.2 -1.2 -1.2 -1.2 -1.2 -1.2 -1.2 -1.2 -1.2 -1.2 -1.2 -1.2 -1.2 -1.2 -1.2 -1.2 -1.2 -1.2 -1.2 -1.2 -1.2 -1.2 -1.2 -1.2 -1.2 -1.2 -1.2 -1.2 -1.2 -1.2 -1.2 -1.2 -1.2 -1.2 -1.2 -1.2 -1.2 -1.2 -1.2 -1.2 -1.2 -1.2 -1.2 -1.2 -1.2 -1.2 -1.2 -1.2 -1.2 -1.2 -1.2 -1.2 -1.2 -1.2 -1.2 -1.2 0.9 27.6 52.9 63.3 79.9 106.3 130 144 160.2 163.9 167 167.1 166.2 166 166.5 164.2 159.8 158.8 160.1 159.1 156.5 157 158.5 160.9 158.1 148.4 143 140.7 138.3 140.3 143.5 145.4 146.2 145.3 142.7 140.3 137.8 136.9 136.8 136.7 136.8 139.5 150.3 165.3 164.3 149.3 142.9 141.6 141.4 141 139.8 138.8 138.3 139.6 142.5 145.3 145.5 145.1 143.6 139.6 133.7 125.2 116.4 107.3 102.7 99.4 97.1 95.4 94.3 94.5 94.9 95.1 95.1 96.6 99.8 104.5 114.6 128.6 137.1 135.4 129.5 120 110.3 111.5 118.7 121.6 123.8 125.2 126.6 127.8 128.3 128.4
-1.2 -1.2 -1.2 -1.2 -1.2 -1.2 -1.2 -1.2 -1.2 -1.2 -1.2 -1.2 -1.2 -1.2 -1.2 -1.2 -1.2 -1.2 -1.2 -1.2 -1.2 -1.2 -1.2 -1.2 -1.2 -1.2 -1.2 -1.2 -1.2 -1.2 -1.2 -1.2 -1.2 -1.2 -1.2 -1.2 -1.2 -1.2 -1.2 -1.2 -1.2 -1.2 -1.2 -1.2 -1.2 -1.2 -1.2 -1.2 -1.2 -1.2 -1.2 -1.2 -1.2 -1.2 -1.2 -1.2 -1.2 -1.2 -1.2 -1.2 -1.2 -1.2 -1.2 -1.2 -1.2 -1.2 -1.2 -1.2 -1.2 -1.2 -1.2 -1.2 -1.2 -1.2 -1.2 -1.2 -1.2 -1.2 -1.2 -1.2 -1.2 -1.2 -1.2 -1.2 -1.2 -1.2 -1.2 -1.2 -1.2 -1.2 -1.2 -1.2 -1.2 -1.2 -1.2 -1.2 -1.2 -1.2 -1.2 -1.2 -1.2 -1.2 -1.2 -1.2 -1.2 -1.2 -1.2 -1.2 6.1 42.7 59.9 77.9 97.1 119.9 137.9 159.3 172.3 170 171.3 169.2 168.2 168.4 168.7 164.8 159.3 160.9 163.1 160.9 156.1 154.3 154.1 154.2 149.9 143.2 140.3 138.2 137.3 138.8 141.7 143.4 143.8 141.9 140.2 138.7 137.3 136.5 136.5 136.6 137.4 145.2 152.3 160.8 157.3 145.1 141.5 139.9 139.6 138.4 137.7 137.2 136.2 138 140.6 143 142.3 139.3 136 129.9 122.9 115.1 109 103.2 100 98.4 96.1 95 94.6 94.7 95.8 97.4 99.1 101.4 106.8 117.9 132.4 144.9 144.8 139.8 131.9 123.8 118.9 107.3 114.7 119.2 121.8 123.2 124.4 124.7 124.8 125.3
-1.2 -1.2 -1.2 -1.2 -1.2 -1.2 -1.2 -1.2 -1.2 -1.2 -1.2 -1.2 -1.2 -1.2 -1.2 -1.2 -1.2 -1.2 -1.2 -1.2 -1.2 -1.2 -1.2 -1.2 -1.2 -1.2 -1.2 -1.2 -1.2 -1.2 -1.2 -1.2 -1.2 -1.2 -1.2 -1.2 -1.2 -1.2 -1.2 -1.2 -1.2 -1.2 -1.2 -1.2 -1.2 -1.2 -1.2 -1.2 -1.2 -1.2 -1.2 -1.2 -1.2 -1.2 -1.2 -1.2 -1.2 -1.2 -1.2 -1.2 -1.2 -1.2 -1.2 -1.2 -1.2 -1.2 -1.2 -1.2 -1.2 -1.2 -1.2 -1.2 -1.2 -1.2 -1.2 -1.2 -1.2 -1.2 -1.2 -1.2 -1.2 -1.2 -1.2 -1.2 -1.2 -1.2 -1.2 -1.2 -1.2 -1.2 -1.2 -1.2 -1.2 -1.2 -1.2 -1.2 -1.2 -1.2 -1.2 -1.2 -1.2 -1.2 -1.2 -1.2 -1.2 -1.2 -1.2 0.4 26.8 52.3 71.3 93.7 113.6 131.6 149.6 167.5 171.8 172.9 172.9 170.7 169.9 170.6 170.4 160 158.9 162.7 166.1 164 156.4 153.1 151.1 146.8 142 138.8 136.8 136.8 136.9 137.1 139.1 140.8 140.8 139.8 138.2 137.3 136.4 136.5 136.6 137.4 142.9 152.4 157.9 156.8 149.6 141.8 140 138.9 137.4 136.2 135.6 135.3 133.9 133.8 136.7 138.9 137.3 132.7 126.5 119.8 113.8 108.3 103.6 100.1 98.3 96.8 95.7 95.8 96.9 97.8 100.2 103.2 109.7 116.5 125.1 137.6 146.1 150 146.5 139.5 132.2 126.1 121.4 116.6 110.7 115.3 117.3 119.7 122.3 122.3 122.1 121.8
-1.2 -1.2 -1.2 -1.2 -1.2 -1.2 -1.2 -1.2 -1.2 -1.2 -1.2 -1.2 -1.2 -1.2 -1.2 -1.2 -1.2 -1.2 -1.2 -1.2 -1.2 -1.2 -1.2 -1.2 -1.2 -1.2 -1.2 -1.2 -1.2 -1.2 -1.2 -1.2 -1.2 -1.2 -1.2 -1.2 -1.2 -1.2 -1.2 -1.2 -1.2 -1.2 -1.2 -1.2 -1.2 -1.2 -1.2 -1.2 -1.2 -1.2 -1.2 -1.2 -1.2 -1.2 -1.2 -1.2 -1.2 -1.2 -1.2 -1.2 -1.2 -1.2 -1.2 -1.2 -1.2 -1.2 -1.2 -1.2 -1.2 -1.2 -1.2 -1.2 -1.2 -1.2 -1.2 -1.2 -1.2 -1.2 -1.2 -1.2 -1.2 -1.2 -1.2 -1.2 -1.2 -1.2 -1.2 -1.2 -1.2 -1.2 -1.2 -1.2 -1.2 -1.2 -1.2 -1.2 -1.2 -1.2 -1.2 -1.2 -1.2 -1.2 -1.2 -1.2 -1.2 -1.2 -1.2 0.7 37.2 60.9 86.6 109.2 118.2 140 164.4 171.1 172.3 172.6 172.3 171.7 171.6 170.2 163.8 156.2 159.2 164.7 166.8 164.3 155.7 152.9 149.6 143.5 138.8 137 136.3 136.6 136.8 136.9 137.9 140.4 141.3 139.7 137.7 136.7 136.4 137 137.7 142.7 150.3 157 156.1 150.3 142.8 140.8 139.4 137.9 136.4 134.3 134 132 130.6 130.3 132.6 133 128.9 124.2 119 112.3 108.7 105 101.7 99.4 98.3 96.9 96.2 98.2 99.4 102.1 104.9 110.9 121.4 130.1 138.9 144.7 146.8 148.1 145.7 139.5 132.9 128.4 123.6 120.5 116.1 111.7 113.6 114.5 118.7 121 119.8 120
-1.2 -1.2 -1.2 -1.2 -1.2 -1.2 -1.2 -1.2 -1.2 -1.2 -1.2 -1.2 -1.2 -1.2 -1.2 -1.2 -1.2 -1.2 -1.2 -1.2 -1.2 -1.2 -1.2 -1.2 -1.2 -1.2 -1.2 -1.2 -1.2 -1.2 -1.2 -1.2 -1.2 -1.2 -1.2 -1.2 -1.2 -1.2 -1.2 -1.2 -1.2 -1.2 -1.2 -1.2 -1.2 -1.2 -1.2 -1.2 -1.2 -1.2 -1.2 -1.2 -1.2 -1.2 -1.2 -1.2 -1.2 -1.2 -1.2 -1.2 -1.2 -1.2 -1.2 -1.2 -1.2 -1.2 -1.2 -1.2 -1.2 -1.2 -1.2 -1.2 -1.2 -1.2 -1.2 -1.2 -1.2 -1.2 -1.2 -1.2 -1.2 -1.2 -1.2 -1.2 -1.2 -1.2 -1.2 -1.2 -1.2 -1.2 -1.2 -1.2 -1.2 -1.2 -1.2 -1.2 -1.2 -1.2 -1.2 -1.2 -1.2 -1.2 -1.2 -1.2 -1.2 -1.2 -1.2 0.9 52.7 78.9 104.3 115.6 124.6 144.6 168.7 172.4 173.1 171.8 171.2 171.5 170.1 165.5 156.1 154.9 160.4 164.9 164.3 157.9 154.9 152.2 147.3 140.3 137 135.9 136.2 136.4 136.7 137.1 139.5 141.8 142.5 140.5 137.7 136.7 136.3 136.9 139 144.3 150 153.5 148.8 145.2 140.9 141.1 140.9 138.5 135.7 132.2 130 128 126.4 124.8 125.9 122.9 120.7 117 112.4 108.8 105.4 102.9 100.7 99.3 98.3 97.3 99.8 101.4 103.2 105.5 109 116.8 125.3 132 137.3 141.4 144.2 145.8 144.2 140.2 134.3 130.3 126.1 122 117.7 116.1 116.9 118.5 116.9 117 117.3 118.7
-1.2 -1.2 -1.2 -1.2 -1.2 -1.2 -1.2 -1.2 -1.2 -1.2 -1.2 -1.2 -1.2 -1.2 -1.2 -1.2 -1.2 -1.2 -1.2 -1.2 -1.2 -1.2 -1.2 -1.2 -1.2 -1.2 -1.2 -1.2 -1.2 -1.2 -1.2 -1.2 -1.2 -1.2 -1.2 -1.2 -1.2 -1.2 -1.2 -1.2 -1.2 -1.2 -1.2 -1.2 -1.2 -1.2 -1.2 -1.2 -1.2 -1.2 -1.2 -1.2 -1.2 -1.2 -1.2 -1.2 -1.2 -1.2 -1.2 -1.2 -1.2 -1.2 -1.2 -1.2 -1.2 -1.2 -1.2 -1.2 -1.2 -1.2 -1.2 -1.2 -1.2 -1.2 -1.2 -1.2 -1.2 -1.2 -1.2 -1.2 -1.2 -1.2 -1.2 -1.2 -1.2 -1.2 -1.2 -1.2 -1.2 -1.2 -1.2 -1.2 -1.2 -1.2 -1.2 -1.2 -1.2 -1.2 -1.2 -1.2 -1.2 -1.2 -1.2 -1.2 -1.2 -1.2 -1.2 40.3 72.5 97.7 114.2 125.6 138.7 158.5 173.9 174.4 172.7 171.1 170.3 169.2 166.6 156 153.8 157.4 162 163.6 158.8 155.5 152.3 149 143.7 138 135.8 135.2 135.6 136.4 136.8 137.9 141.5 143.3 142.9 140.3 137.1 136.5 136.4 136.9 138.5 142.2 144 141.1 138.8 139.1 141.1 144.4 144.7 141 135.2 130.4 127 123.9 121.9 120.4 119 117.4 115.2 112.3 109.6 106.5 104 100.9 99.1 98.8 100.4 103.2 108.5 111.6 108.7 108.2 111.2 115.9 123.6 128.2 130.8 135 139.5 141.6 141.6 137.6 134.5 130.9 127.1 123.3 119.8 118.5 120.1 120.5 119.7 117.6 114.9 117.6
-1.2 -1.2 -1.2 -1.2 -1.2 -1.2 -1.2 -1.2 -1.2 -1.2 -1.2 -1.2 -1.2 -1.2 -1.2 -1.2 -1.2 -1.2 -1.2 -1.2 -1.2 -1.2 -1.2 -1.2 -1.2 -1.2 -1.2 -1.2 -1.2 -1.2 -1.2 -1.2 -1.2 -1.2 -1.2 -1.2 -1.2 -1.2 -1.2 -1.2 -1.2 -1.2 -1.2 -1.2 -1.2 -1.2 -1.2 -1.2 -1.2 -1.2 -1.2 -1.2 -1.2 -1.2 -1.2 -1.2 -1.2 -1.2 -1.2 -1.2 -1.2 -1.2 -1.2 -1.2 -1.2 -1.2 -1.2 -1.2 -1.2 -1.2 -1.2 -1.2 -1.2 -1.2 -1.2 -1.2 -1.2 -1.2 -1.2 -1.2 -1.2 -1.2 -1.2 -1.2 -1.2 -1.2 -1.2 -1.2 -1.2 -1.2 -1.2 -1.2 -1.2 -1.2 -1.2 -1.2 -1.2 -1.2 -1.2 -1.2 -1.2 -1.2 -1.2 -1.2 -1.2 -1.2 1.6 66.8 88.1 102.3 120.9 137.2 154.6 169.4 174.5 173.5 171.6 169.6 168.2 166.4 157.6 152.1 152.8 157 161.2 161.3 157.4 154.1 150.2 145.4 140 136.5 135.2 134.6 135.1 135.8 137 140 144 147.2 143.6 139.6 137 136.2 136.3 136.3 136.5 137 137.1 136.5 136.9 140 144.9 149.4 149.3 144 135.7 128.6 124.9 121.9 119.1 117.1 114.9 113 110.9 109.1 106.7 103.8 103.9 104.6 104.2 105 107 115.2 118.6 115.4 112.2 110.6 112.9 116.6 122.3 125.3 128.4 134.1 137.6 138.4 137.2 134.9 132.5 130.5 127.5 123.8 120.1 121 122.3 122.5 122.4 120.6 118.7 117.8
-1.2 -1.2 -1.2 -1.2 -1.2 -1.2 -1.2 -1.2 -1.2 -1.2 -1.2 -1.2 -1.2 -1.2 -1.2 -1.2 -1.2 -1.2 -1.2 -1.2 -1.2 -1.2 -1.2 -1.2 -1.2 -1.2 -1.2 -1.2 -1.2 -1.2 -1.2 -1.2 -1.2 -1.2 -1.2 -1.2 -1.2 -1.2 -1.2 -1.2 -1.2 -1.2 -1.2 -1.2 -1.2 -1.2 -1.2 -1.2 -1.2 -1.2 -1.2 -1.2 -1.2 -1.2 -1.2 -1.2 -1.2 -1.2 -1.2 -1.2 -1.2 -1.2 -1.2 -1.2 -1.2 -1.2 -1.2 -1.2 -1.2 -1.2 -1.2 -1.2 -1.2 -1.2 -1.2 -1.2 -1.2 -1.2 -1.2 -1.2 -1.2 -1.2 -1.2 -1.2 -1.2 -1.2 -1.2 -1.2 -1.2 -1.2 -1.2 -1.2 -1.2 -1.2 -1.2 -1.2 -1.2 -1.2 -1.2 -1.2 -1.2 -1.2 -1.2 -1.2 -1.2 -1.2 57.4 82.9 101.3 107.1 128 151.1 167.8 172 172.6 171 169.3 167.7 166.1 160.7 152.2 150.2 153.6 161 164.7 161.2 157.2 152.6 148.4 142.6 138.3 135.5 134.4 134.5 135 136.3 138.2 141.8 146 147.2 144.2 139.5 137.1 136 135.7 135.7 135.8 135.7 135.9 135.9 136.3 139.8 147.1 151.5 151.7 146.3 135.6 128.5 123.4 120.7 117.6 114.6 112.7 110.9 109.1 106.2 106.9 107.5 107 107 107.3 109.2 115 123.2 120.6 116.9 113.7 112.8 114.7 117.6 120.6 124.5 131.4 138 141.4 136.6 134.5 132.1 130.3 128.4 126.4 124.4 123.7 124.1 125 125.9 125.9 125.4 123.7 121.7
-1.2 -1.2 -1.2 -1.2 -1.2 -1.2 -1.2 -1.2 -1.2 -1.2 -1.2 -1.2 -1.2 -1.2 -1.2 -1.2 -1.2 -1.2 -1.2 -1.2 -1.2 -1.2 -1.2 -1.2 -1.2 -1.2 -1.2 -1.2 -1.2 -1.2 -1.2 -1.2 -1.2 -1.2 -1.2 -1.2 -1.2 -1.2 -1.2 -1.2 -1.2 -1.2 -1.2 -1.2 -1.2 -1.2 -1.2 -1.2 -1.2 -1.2 -1.2 -1.2 -1.2 -1.2 -1.2 -1.2 -1.2 -1.2 -1.2 -1.2 -1.2 -1.2 -1.2 -1.2 -1.2 -1.2 -1.2 -1.2 -1.2 -1.2 -1.2 -1.2 -1.2 -1.2 -1.2 -1.2 -1.2 -1.2 -1.2 -1.2 -1.2 -1.2 -1.2 -1.2 -1.2 -1.2 -1.2 -1.2 -1.2 -1.2 -1.2 -1.2 -1.2 -1.2 -1.2 -1.2 -1.2 -1.2 -1.2 -1.2 -1.2 -1.2 -1.2 -1.2 -1.2 -1.2 56.4 90.3 104 122.8 139.7 160 168.3 170.8 170.4 168.7 166.5 165.1 163 157.5 149.3 149.6 154.4 162.3 167.6 162.6 156.2 150 144.4 139.5 136.6 134.6 134.3 134.9 137.3 140 141.8 144.6 147.2 146.3 143.8 140.4 137 135.8 135.3 135.5 135.7 135.8 135.4 135.3 136.3 140 148.1 152.3 153.3 148.4 135.3 127.9 123.7 120.6 117.8 115.1 113.1 111.2 107.9 108 109.7 109.9 109.6 109.5 110.9 113.8 121 124.7 120.5 117.6 115.6 115.1 116.7 119.9 123.5 130.3 138.1 145.2 146.9 138 131.8 130 128.2 126.3 125 124.8 126.3 128 128.8 130.1 131.8 131.5 130.5 127.4
-1.2 -1.2 -1.2 -1.2 -1.2 -1.2 -1.2 -1.2 -1.2 -1.2 -1.2 -1.2 -1.2 -1.2 -1.2 -1.2 -1.2 -1.2 -1.2 -1.2 -1.2 -1.2 -1.2 -1.2 -1.2 -1.2 -1.2 -1.2 -1.2 -1.2 -1.2 -1.2 -1.2 -1.2 -1.2 -1.2 -1.2 -1.2 -1.2 -1.2 -1.2 -1.2 -1.2 -1.2 -1.2 -1.2 -1.2 -1.2 -1.2 -1.2 -1.2 -1.2 -1.2 -1.2 -1.2 -1.2 -1.2 -1.2 -1.2 -1.2 -1.2 -1.2 -1.2 -1.2 -1.2 -1.2 -1.2 -1.2 -1.2 -1.2 -1.2 -1.2 -1.2 -1.2 -1.2 -1.2 -1.2 -1.2 -1.2 -1.2 -1.2 -1.2 -1.2 -1.2 -1.2 -1.2 -1.2 -1.2 -1.2 -1.2 -1.2 -1.2 -1.2 -1.2 -1.2 -1.2 -1.2 -1.2 -1.2 -1.2 -1.2 -1.2 -1.2 -1.2 -1.2 1.1 38.6 97.6 113.4 131 154.3 162.8 169.3 170.7 168.1 166.4 164.3 162.1 157.5 149.7 148.5 149.8 153.6 160.5 163.6 159.7 154.3 147.2 141.2 137 135.6 134.4 134.6 136.9 141 144.8 146.5 147 146.3 145.1 142.6 139.4 136.5 135.6 135.3 135.4 135.5 135.7 135.6 135.3 136.4 141.5 150.1 153.7 156.3 150.3 136.3 128.5 124.3 121.6 119.1 116.3 113.8 111.6 107.2 109.3 111.3 111.7 111.6 112.6 115.8 122.2 126.6 126.1 121.9 119.3 117.4 117.1 118.9 122.6 128.3 135.8 143.4 150.5 150.4 139.4 132.5 129.7 126.8 125.8 125 125.9 127.5 131.7 134.9 137.4 139.6 138.8 138.4 135
-1.2 -1.2 -1.2 -1.2 -1.2 -1.2 -1.2 -1.2 -1.2 -1.2 -1.2 -1.2 -1.2 -1.2 -1.2 -1.2 -1.2 -1.2 -1.2 -1.2 -1.2 -1.2 -1.2 -1.2 -1.2 -1.2 -1.2 -1.2 -1.2 -1.2 -1.2 -1.2 -1.2 -1.2 -1.2 -1.2 -1.2 -1.2 -1.2 -1.2 -1.2 -1.2 -1.2 -1.2 -1.2 -1.2 -1.2 -1.2 -1.2 -1.2 -1.2 -1.2 -1.2 -1.2 -1.2 -1.2 -1.2 -1.2 -1.2 -1.2 -1.2 -1.2 -1.2 -1.2 -1.2 -1.2 -1.2 -1.2 -1.2 -1.2 -1.2 -1.2 -1.2 -1.2 -1.2 -1.2 -1.2 -1.2 -1.2 -1.2 -1.2 -1.2 -1.2 -1.2 -1.2 -1.2 -1.2 -1.2 -1.2 -1.2 -1.2 -1.2 -1.2 -1.2 -1.2 -1.2 -1.2 -1.2 -1.2 -1.2 -1.2 -1.2 -1.2 -1.2 -1.2 34.3 83.4 101.2 118.8 143.5 160.3 168.6 171.8 170.2 167.3 164.2 162.1 160.1 153.7 148.6 148.4 149 153.6 158.7 159.3 155.4 149 140.9 136.6 135.5 135.3 134.2 136.4 139.6 143.1 146.1 147 145.9 144.7 143.5 141.2 138.2 136 135.4 135.3 135.4 135.4 135.6 135.7 136.2 139.3 145.6 152.2 155.2 156.2 149.5 136.8 129.1 125.4 122.9 120.3 117.6 115.1 112.3 108.8 110.7 112.4 112.9 114.7 120.2 124.5 128.2 131.8 128.3 124.6 121.5 119.5 119.7 122.1 126.7 134.2 141.7 148.6 154.4 147.7 138.5 133.4 130.2 127.2 125.9 126.4 128.2 131.6 136.5 140 143.8 147.8 150.5 147.8 141.7
-1.2 -1.2 -1.2 -1.2 -1.2 -1.2 -1.2 -1.2 -1.2 -1.2 -1.2 -1.2 -1.2 -1.2 -1.2 -1.2 -1.2 -1.2 -1.2 -1.2 -1.2 -1.2 -1.2 -1.2 -1.2 -1.2 -1.2 -1.2 -1.2 -1.2 -1.2 -1.2 -1.2 -1.2 -1.2 -1.2 -1.2 -1.2 -1.2 -1.2 -1.2 -1.2 -1.2 -1.2 -1.2 -1.2 -1.2 -1.2 -1.2 -1.2 -1.2 -1.2 -1.2 -1.2 -1.2 -1.2 -1.2 -1.2 -1.2 -1.2 -1.2 -1.2 -1.2 -1.2 -1.2 -1.2 -1.2 -1.2 -1.2 -1.2 -1.2 -1.2 -1.2 -1.2 -1.2 -1.2 -1.2 -1.2 -1.2 -1.2 -1.2 -1.2 -1.2 -1.2 -1.2 -1.2 -1.2 -1.2 -1.2 -1.2 -1.2 -1.2 -1.2 -1.2 -1.2 -1.2 -1.2 -1.2 -1.2 -1.2 -1.2 -1.2 -1.2 -1.2 1.8 73.1 99.7 107.9 128.1 152 166.6 168.9 168.2 166.9 165.2 162.4 160.3 159.1 154.7 149.2 149.2 152.5 158.2 160 154.1 149.5 141.1 136.6 133.8 132.8 133.6 135.5 139.6 142.9 144.5 146.2 145.3 144.2 143.2 141.4 139.6 137.5 135.7 135.3 135.3 135.4 135.4 135.5 135.7 137.9 142.6 148.7 153.8 155.7 155.7 148.5 136.1 129.8 126.7 124 121.4 118.3 115.7 113.1 109.5 111.3 113.1 115.9 119 126.2 131 133.6 134.1 130.6 126.8 124.3 122.4 123.9 127.3 133.5 140.5 146.9 153.2 154.2 144 137.7 133.8 130.6 127.8 127.7 128.8 131 135 140.9 145.7 148.7 151.1 153.5 151.9 145.7
-1.2 -1.2 -1.2 -1.2 -1.2 -1.2 -1.2 -1.2 -1.2 -1.2 -1.2 -1.2 -1.2 -1.2 -1.2 -1.2 -1.2 -1.2 -1.2 -1.2 -1.2 -1.2 -1.2 -1.2 -1.2 -1.2 -1.2 -1.2 -1.2 -1.2 -1.2 -1.2 -1.2 -1.2 -1.2 -1.2 -1.2 -1.2 -1.2 -1.2 -1.2 -1.2 -1.2 -1.2 -1.2 -1.2 -1.2 -1.2 -1.2 -1.2 -1.2 -1.2 -1.2 -1.2 -1.2 -1.2 -1.2 -1.2 -1.2 -1.2 -1.2 -1.2 -1.2 -1.2 -1.2 -1.2 -1.2 -1.2 -1.2 -1.2 -1.2 -1.2 -1.2 -1.2 -1.2 -1.2 -1.2 -1.2 -1.2 -1.2 -1.2 -1.2 -1.2 -1.2 -1.2 -1.2 -1.2 -1.2 -1.2 -1.2 -1.2 -1.2 -1.2 -1.2 -1.2 -1.2 -1.2 -1.2 -1.2 -1.2 -1.2 -1.2 -1.2 -1.2 53.4 83.9 103.8 124.2 145.3 162.5 170.8 167.2 165.7 164.5 162.5 160.2 158 154.5 150.4 149.7 150.6 154.1 157.5 153.9 146.1 140.9 135.7 133.1 131.3 131.7 134.2 137.6 141.7 143.3 144.2 144.6 143.5 142.4 141.1 139.3 137.8 136.7 135.6 135.2 135.3 135.4 135.4 135.5 136 139.2 144.8 150.2 152.3 153.9 153.5 144.1 134.6 129.8 126.8 123.8 120.4 117.6 115.1 112.9 110.8 112.6 114 117.2 122.6 130 134.4 136.7 135.4 131.9 128.4 125.6 125.1 128.1 132.2 139.1 145.9 151 153.6 148.5 140.4 135.7 133.2 130.1 128.4 129.4 131.9 134.4 138.1 144.7 150.5 153.8 154.8 153.7 152.2 147
-1.2 -1.2 -1.2 -1.2 -1.2 -1.2 -1.2 -1.2 -1.2 -1.2 -1.2 -1.2 -1.2 -1.2 -1.2 -1.2 -1.2 -1.2 -1.2 -1.2 -1.2 -1.2 -1.2 -1.2 -1.2 -1.2 -1.2 -1.2 -1.2 -1.2 -1.2 -1.2 -1.2 -1.2 -1.2 -1.2 -1.2 -1.2 -1.2 -1.2 -1.2 -1.2 -1.2 -1.2 -1.2 -1.2 -1.2 -1.2 -1.2 -1.2 -1.2 -1.2 -1.2 -1.2 -1.2 -1.2 -1.2 -1.2 -1.2 -1.2 -1.2 -1.2 -1.2 -1.2 -1.2 -1.2 -1.2 -1.2 -1.2 -1.2 -1.2 -1.2 -1.2 -1.2 -1.2 -1.2 -1.2 -1.2 -1.2 -1.2 -1.2 -1.2 -1.2 -1.2 -1.2 -1.2 -1.2 -1.2 -1.2 -1.2 -1.2 -1.2 -1.2 -1.2 -1.2 -1.2 -1.2 -1.2 -1.2 -1.2 -1.2 -1.2 -1.2 -1.2 66.2 86.4 103.3 130.7 160.2 172.1 170.2 166 163.9 162.9 160.3 158 155.4 149.7 147.5 146.4 146.9 149.1 149.5 146.4 141.1 135.8 132.6 130.4 129.8 131.2 134.1 138.6 141.8 142.9 142.8 142.7 141.8 140.5 139 137.3 136.1 135.8 135.3 135.2 135.2 135.3 135.4 135.8 137.9 142.6 148.3 150.2 151.8 152.4 151.2 139 132.7 128.9 126 123.1 119.7 117.3 115.4 113.4 111.4 113.4 115.3 119.3 125 130.8 134.6 136.9 135.4 132.1 128.6 126.8 127.6 130.5 135.2 141.8 148.9 153.3 155.2 146.9 137.6 133.3 131.1 129.8 128.8 130.8 133.9 135.9 140.9 148.1 153.4 157.8 158.6 157.2 153.4 148.9
-1.2 -1.2 -1.2 -1.2 -1.2 -1.2 -1.2 -1.2 -1.2 -1.2 -1.2 -1.2 -1.2 -1.2 -1.2 -1.2 -1.2 -1.2 -1.2 -1.2 -1.2 -1.2 -1.2 -1.2 -1.2 -1.2 -1.2 -1.2 -1.2 -1.2 -1.2 -1.2 -1.2 -1.2 -1.2 -1.2 -1.2 -1.2 -1.2 -1.2 -1.2 -1.2 -1.2 -1.2 -1.2 -1.2 -1.2 -1.2 -1.2 -1.2 -1.2 -1.2 -1.2 -1.2 -1.2 -1.2 -1.2 -1.2 -1.2 -1.2 -1.2 -1.2 -1.2 -1.2 -1.2 -1.2 -1.2 -1.2 -1.2 -1.2 -1.2 -1.2 -1.2 -1.2 -1.2 -1.2 -1.2 -1.2 -1.2 -1.2 -1.2 -1.2 -1.2 -1.2 -1.2 -1.2 -1.2 -1.2 -1.2 -1.2 -1.2 -1.2 -1.2 -1.2 -1.2 -1.2 -1.2 -1.2 -1.2 -1.2 -1.2 -1.2 -1.2 1.7 71.6 86.9 101.4 122.1 146.9 162.9 165.4 163.2 161.6 160.8 159 156.9 152.6 149 151.1 152.3 146.4 142.9 144.1 140.6 138.1 134.3 130.4 128.9 129.1 130.7 134.8 139.4 142.2 142.8 141.5 141 140 138.6 136.8 135.8 135.7 136 135.8 135.7 135.5 135.6 135.7 136.8 141.3 146.5 150.1 152.1 151.7 152 147.7 137 131.9 129.6 127.3 124 120.2 117.7 116 114.3 113.2 113.9 116.6 120.8 126.2 131.7 135.6 137.2 135.4 132.2 128.8 127.6 129.3 132.7 139.3 146 151.3 155.3 153 143 133.8 130.8 129 127.9 128.6 130.9 134.3 137.3 143.9 151 156.9 160.7 161.3 159.6 155.9 150.5
-1.2 -1.2 -1.2 -1.2 -1.2 -1.2 -1.2 -1.2 -1.2 -1.2 -1.2 -1.2 -1.2 -1.2 -1.2 -1.2 -1.2 -1.2 -1.2 -1.2 -1.2 -1.2 -1.2 -1.2 -1.2 -1.2 -1.2 -1.2 -1.2 -1.2 -1.2 -1.2 -1.2 -1.2 -1.2 -1.2 -1.2 -1.2 -1.2 -1.2 -1.2 -1.2 -1.2 -1.2 -1.2 -1.2 -1.2 -1.2 -1.2 -1.2 -1.2 -1.2 -1.2 -1.2 -1.2 -1.2 -1.2 -1.2 -1.2 -1.2 -1.2 -1.2 -1.2 -1.2 -1.2 -1.2 -1.2 -1.2 -1.2 -1.2 -1.2 -1.2 -1.2 -1.2 -1.2 -1.2 -1.2 -1.2 -1.2 -1.2 -1.2 -1.2 -1.2 -1.2 -1.2 -1.2 -1.2 -1.2 -1.2 -1.2 -1.2 -1.2 -1.2 -1.2 -1.2 -1.2 -1.2 -1.2 -1.2 -1.2 -1.2 -1.2 -1.2 16.4 58.1 80.8 96.4 112.1 128.1 139.1 150.5 155.5 157.7 157.1 157.4 157.3 152.8 152.3 155.2 154.9 146.7 141 137.7 137.3 135 131.2 128.6 128.1 128.9 131.5 135.7 139.2 142.2 141.2 139.9 139.3 138.3 136.9 135.7 135.7 136 136.3 136.7 137 136.6 136.5 136.8 139.2 144.2 149.9 152.7 152.2 151.2 151.9 142.4 134.2 131.4 129.9 128.8 126 120.6 118.8 117.1 115.6 114.2 115 118.3 122.7 128.2 133.1 137.3 138.1 135.5 132.2 129.4 129.1 131.3 136.2 144.1 152.3 156.3 156.2 149.6 138.6 131.5 129 127.9 127.8 128.5 130.4 133.5 139.2 146.4 153.9 160.7 163.2 163.2 161.8 158.6 152.5
-1.2 -1.2 -1.2 -1.2 -1.2 -1.2 -1.2 -1.2 -1.2 -1.2 -1.2 -1.2 -1.2 -1.2 -1.2 -1.2 -1.2 -1.2 -1.2 -1.2 -1.2 -1.2 -1.2 -1.2 -1.2 -1.2 -1.2 -1.2 -1.2 -1.2 -1.2 -1.2 -1.2 -1.2 -1.2 -1.2 -1.2 -1.2 -1.2 -1.2 -1.2 -1.2 -1.2 -1.2 -1.2 -1.2 -1.2 -1.2 -1.2 -1.2 -1.2 -1.2 -1.2 -1.2 -1.2 -1.2 -1.2 -1.2 -1.2 -1.2 -1.2 -1.2 -1.2 -1.2 -1.2 -1.2 -1.2 -1.2 -1.2 -1.2 -1.2 -1.2 -1.2 -1.2 -1.2 -1.2 -1.2 -1.2 -1.2 -1.2 -1.2 -1.2 -1.2 -1.2 -1.2 -1.2 -1.2 -1.2 -1.2 -1.2 -1.2 -1.2 -1.2 -1.2 -1.2 -1.2 -1.2 -1.2 -1.2 -1.2 -1.2 45.6 62.9 77.3 84.7 104.5 120.8 136.5 149.7 152.6 149 153.9 156.8 156.5 155.6 153.9 153.3 155 154.7 152.8 144.9 137.7 135.9 134.1 131.6 129 127.6 127.7 129.2 132 135.4 138 139.9 139.5 138.5 137.5 136.4 135.8 135.7 137.1 138 138.6 138.5 138.3 138.4 139 139.8 142.7 148.3 152.8 153 151 150.7 150.4 140.2 133.3 130.7 129.5 128.3 124.1 121.4 119.9 118.2 116.8 116.8 116.6 120.4 125.5 130.7 135.5 138.1 138.3 135.8 132.4 130.8 131.5 135 141.5 150.9 159.7 164.7 163.2 150.3 137.2 131.1 128.9 128.3 128.1 129.1 130.7 133.1 140.9 147.6 155.7 162.9 164.4 164 162.1 159.2 153.5
-1.2 -1.2 -1.2 -1.2 -1.2 -1.2 -1.2 -1.2 -1.2 -1.2 -1.2 -1.2 -1.2 -1.2 -1.2 -1.2 -1.2 -1.2 -1.2 -1.2 -1.2 -1.2 -1.2 -1.2 -1.2 -1.2 -1.2 -1.2 -1.2 -1.2 -1.2 -1.2 -1.2 -1.2 -1.2 -1.2 -1.2 -1.2 -1.2 -1.2 -1.2 -1.2 -1.2 -1.2 -1.2 -1.2 -1.2 -1.2 -1.2 -1.2 -1.2 -1.2 -1.2 -1.2 -1.2 -1.2 -1.2 -1.2 -1.2 -1.2 -1.2 -1.2 -1.2 -1.2 -1.2 -1.2 -1.2 -1.2 -1.2 -1.2 -1.2 -1.2 -1.2 -1.2 -1.2 -1.2 -1.2 -1.2 -1.2 -1.2 -1.2 -1.2 -1.2 -1.2 -1.2 -1.2 -1.2 -1.2 -1.2 -1.2 -1.2 -1.2 -1.2 -1.2 -1.2 -1.2 -1.2 -1.2 -1.2 30.5 49.2 64.9 74.7 87 104.5 122.6 140.1 153.6 160.6 160.6 161.9 161.6 161.4 159.3 156.5 154.5 153.9 154.2 153.9 150.8 142.4 136.7 134 131.9 129.7 127.9 127.1 128 130.5 132.4 134.6 136.5 137.5 137 136.6 135.9 135.3 135.8 137.1 138.7 140.4 141.7 140.7 139.8 139.8 140.1 141.8 146.5 150.5 151.7 150.7 149.2 149 144.3 136.2 132.5 130.5 129.1 127.2 124.3 122 119.9 119.3 119.6 120.2 120.8 123.7 129.1 134.6 139.1 140.3 139.2 137.2 135.2 134.2 136 141.1 149.1 158.1 167.2 173.7 166.6 153.7 140 132.4 130.3 129.7 129.8 130.3 131.8 141 146.6 151.2 156.1 161.8 163.6 163.1 161 157.4 151.6
-1.2 -1.2 -1.2 -1.2 -1.2 -1.2 -1.2 -1.2 -1.2 -1.2 -1.2 -1.2 -1.2 -1.2 -1.2 -1.2 -1.2 -1.2 -1.2 -1.2 -1.2 -1.2 -1.2 -1.2 -1.2 -1.2 -1.2 -1.2 -1.2 -1.2 -1.2 -1.2 -1.2 -1.2 -1.2 -1.2 -1.2 -1.2 -1.2 -1.2 -1.2 -1.2 -1.2 -1.2 -1.2 -1.2 -1.2 -1.2 -1.2 -1.2 -1.2 -1.2 -1.2 -1.2 -1.2 -1.2 -1.2 -1.2 -1.2 -1.2 -1.2 -1.2 -1.2 -1.2 -1.2 -1.2 -1.2 -1.2 -1.2 -1.2 -1.2 -1.2 -1.2 -1.2 -1.2 -1.2 -1.2 -1.2 -1.2 -1.2 -1.2 -1.2 -1.2 -1.2 -1.2 -1.2 -1.2 -1.2 -1.2 -1.2 -1.2 -1.2 -1.2 -1.2 -1.2 -1.2 -1.2 -1.2 0.3 55.1 69.1 78.9 87.5 101.4 113.9 133.3 151 160.5 163.5 164.8 164.9 163.7 164.2 163.4 159.8 156.5 153.6 153.5 153.1 147.1 138.7 136.2 133.8 131.3 128.7 127.3 127.2 128 129.8 131.7 133.6 134.7 135 134.6 134.3 134.2 134.8 136.5 138.5 140.4 142.1 143.1 142.5 141.7 140.4 140.5 143.6 147.1 148.2 148.2 147.3 146.8 146.2 140 135.2 132.5 131.1 129.6 126.9 124.8 123.2 122.6 122.2 123 123.7 124.2 128 133.2 138.8 141.8 142 141.1 140.4 140.2 139.7 142.8 148.6 155.6 163.3 173.1 174.8 165.2 152.3 140.2 135.5 132.8 132.4 132.2 132.9 144.7 154.7 159.5 165.1 168 167.2 165.2 163.3 160.1 155.9 151
-1.2 -1.2 -1.2 -1.2 -1.2 -1.2 -1.2 -1.2 -1.2 -1.2 -1.2 -1.2 -1.2 -1.2 -1.2 -1.2 -1.2 -1.2 -1.2 -1.2 -1.2 -1.2 -1.2 -1.2 -1.2 -1.2 -1.2 -1.2 -1.2 -1.2 -1.2 -1.2 -1.2 -1.2 -1.2 -1.2 -1.2 -1.2 -1.2 -1.2 -1.2 -1.2 -1.2 -1.2 -1.2 -1.2 -1.2 -1.2 -1.2 -1.2 -1.2 -1.2 -1.2 -1.2 -1.2 -1.2 -1.2 -1.2 -1.2 -1.2 -1.2 -1.2 -1.2 -1.2 -1.2 -1.2 -1.2 -1.2 -1.2 -1.2 -1.2 -1.2 -1.2 -1.2 -1.2 -1.2 -1.2 -1.2 -1.2 -1.2 -1.2 -1.2 -1.2 -1.2 -1.2 -1.2 -1.2 -1.2 -1.2 -1.2 -1.2 -1.2 -1.2 -1.2 -1.2 -1.2 -1.2 -1.2 25.1 77.1 82.4 86.8 100.2 114.3 130.3 144.8 156.3 161.2 163.3 163.9 162.4 162.4 163.1 162.8 161.9 158.3 154.6 151.8 149.4 141.2 137.8 136 133.8 131.6 128.7 127.2 128 128.6 129.5 130.8 132.3 132.6 132.8 132.3 132.5 133.1 135.5 137.8 139.6 141 143 144.8 144.8 142.3 140.9 142.5 145.9 147.2 146.3 144.8 143.8 144.6 143 137.6 133.2 132.5 131.9 130.3 128.2 126.8 126.2 125.4 125.4 126.2 127.2 128.5 131.4 136.2 142.9 144.6 145 144.7 144.2 144.1 145.3 148.7 154.7 160.8 168.2 175.6 174.2 163.6 152.4 143.9 141 138.3 135.8 135.3 141.6 153.5 162.8 170.8 177.4 178.3 173 168.7 164.1 161 157.6 155.1
-1.2 -1.2 -1.2 -1.2 -1.2 -1.2 -1.2 -1.2 -1.2 -1.2 -1.2 -1.2 -1.2 -1.2 -1.2 -1.2 -1.2 -1.2 -1.2 -1.2 -1.2 -1.2 -1.2 -1.2 -1.2 -1.2 -1.2 -1.2 -1.2 -1.2 -1.2 -1.2 -1.2 -1.2 -1.2 -1.2 -1.2 -1.2 -1.2 -1.2 -1.2 -1.2 -1.2 -1.2 -1.2 -1.2 -1.2 -1.2 -1.2 -1.2 -1.2 -1.2 -1.2 -1.2 -1.2 -1.2 -1.2 -1.2 -1.2 -1.2 -1.2 -1.2 -1.2 -1.2 -1.2 -1.2 -1.2 -1.2 -1.2 -1.2 -1.2 -1.2 -1.2 -1.2 -1.2 -1.2 -1.2 -1.2 -1.2 -1.2 -1.2 -1.2 -1.2 -1.2 -1.2 -1.2 -1.2 -1.2 -1.2 -1.2 -1.2 -1.2 -1.2 -1.2 -1.2 -1.2 -1.2 32.3 68.4 94.4 96.1 105.7 113.6 128.5 144 156 162.7 163.6 165 163.9 161.7 161.6 164 163 161.5 158.1 154.4 149.5 144.1 138.2 136.3 134.8 133.7 131.9 128.9 126.3 127.6 129.2 130.2 129.5 130.8 130.6 130.5 130.6 132.2 134.5 136.9 139.4 140.8 141.5 143.6 145.7 145.4 143 141.1 143.4 146.2 145.6 143.8 142.1 141.9 143.7 141 134.8 131.1 130.2 131.1 131.1 130.9 130.3 129.6 128 128.4 129.9 131.8 134.1 135.4 139.3 143.5 146.1 147.9 147.5 147 149.2 150.9 155.3 158.6 165 172.7 176.3 171.9 163.3 154.9 149.1 145.4 141.7 139.5 141 149.7 160.6 169.9 178 182.7 180.1 173.9 168.6 165.1 161.9 159.1 158.6
-1.2 -1.2 -1.2 -1.2 -1.2 -1.2 -1.2 -1.2 -1.2 -1.2 -1.2 -1.2 -1.2 -1.2 -1.2 -1.2 -1.2 -1.2 -1.2 -1.2 -1.2 -1.2 -1.2 -1.2 -1.2 -1.2 -1.2 -1.2 -1.2 -1.2 -1.2 -1.2 -1.2 -1.2 -1.2 -1.2 -1.2 -1.2 -1.2 -1.2 -1.2 -1.2 -1.2 -1.2 -1.2 -1.2 -1.2 -1.2 -1.2 -1.2 -1.2 -1.2 -1.2 -1.2 -1.2 -1.2 -1.2 -1.2 -1.2 -1.2 -1.2 -1.2 -1.2 -1.2 -1.2 -1.2 -1.2 -1.2 -1.2 -1.2 -1.2 -1.2 -1.2 -1.2 -1.2 -1.2 -1.2 -1.2 -1.2 -1.2 -1.2 -1.2 -1.2 -1.2 -1.2 -1.2 -1.2 -1.2 -1.2 -1.2 -1.2 -1.2 -1.2 -1.2 -1.2 -1.2 -1.2 68.5 97.7 105.1 111.7 119.1 129.3 143 153.9 161.7 163.2 163.5 161.7 159.7 159.9 162.1 163.2 162.2 159.6 156.1 151.7 146.8 140.8 136.3 134.2 132.9 132.1 130.9 128.1 126.3 128.6 130.7 130.9 130.6 129.8 128.2 128.9 130.8 133 135.5 138.1 140.2 141.3 142 143.8 145.8 143.5 140.1 139 140.9 143.1 143.3 141.3 139.6 140.5 143.4 137.5 130.6 128.3 127.7 129.1 130.6 131.6 132.3 131.9 130.7 131.5 134 137.7 139.8 139.9 141.2 143.1 145.8 148 148.2 149.8 152.4 155.5 159 163.1 169.2 173.7 173.9 168.5 161.1 154.3 149.7 147.1 144.4 145.4 150.6 158.9 167.8 176 182.3 181.7 176.5 171.7 168.2 165.3 162.6 160.1 158.7
-1.2 -1.2 -1.2 -1.2 -1.2 -1.2 -1.2 -1.2 -1.2 -1.2 -1.2 -1.2 -1.2 -1.2 -1.2 -1.2 -1.2 -1.2 -1.2 -1.2 -1.2 -1.2 -1.2 -1.2 -1.2 -1.2 -1.2 -1.2 -1.2 -1.2 -1.2 -1.2 -1.2 -1.2 -1.2 -1.2 -1.2 -1.2 -1.2 -1.2 -1.2 -1.2 -1.2 -1.2 -1.2 -1.2 -1.2 -1.2 -1.2 -1.2 -1.2 -1.2 -1.2 -1.2 -1.2 -1.2 -1.2 -1.2 -1.2 -1.2 -1.2 -1.2 -1.2 -1.2 -1.2 -1.2 -1.2 -1.2 -1.2 -1.2 -1.2 -1.2 -1.2 -1.2 -1.2 -1.2 -1.2 -1.2 -1.2 -1.2 -1.2 -1.2 -1.2 -1.2 -1.2 -1.2 -1.2 -1.2 -1.2 -1.2 -1.2 -1.2 -1.2 -1.2 -1.2 -1.2 58.5 89.1 104 114.5 124.2 131.4 139.8 150.9 159.7 162.1 161.9 159.6 157.3 159.4 160 162.1 162.6 159.9 157.1 153.8 149.2 144.4 138 134.2 132 130.5 130.1 127.9 126.1 128.5 130.3 132.3 131.6 130.8 128.8 126.6 128.4 130.2 133.2 136 138.3 140 141.6 142.6 144.1 143.4 140 137.2 136.3 137.9 139.2 138.8 138.9 136.9 137.9 138.8 132.5 127.6 126.4 126.6 126.9 128.4 129.3 130.4 131.3 132.8 136 139.8 144 144.4 142.5 142 142.6 144.7 147.2 149.8 152.7 155.3 158.8 162.7 166.7 171.6 173.6 171.1 165.5 159.8 153.6 149.6 147.9 151.1 156.9 162.5 168.4 174.8 180.9 182.4 179 174.7 171.5 169.5 167.1 164.4 161.2 160.1
-1.2 -1.2 -1.2 -1.2 -1.2 -1.2 -1.2 -1.2 -1.2 -1.2 -1.2 -1.2 -1.2 -1.2 -1.2 -1.2 -1.2 -1.2 -1.2 -1.2 -1.2 -1.2 -1.2 -1.2 -1.2 -1.2 -1.2 -1.2 -1.2 -1.2 -1.2 -1.2 -1.2 -1.2 -1.2 -1.2 -1.2 -1.2 -1.2 -1.2 -1.2 -1.2 -1.2 -1.2 -1.2 -1.2 -1.2 -1.2 -1.2 -1.2 -1.2 -1.2 -1.2 -1.2 -1.2 -1.2 -1.2 -1.2 -1.2 -1.2 -1.2 -1.2 -1.2 -1.2 -1.2 -1.2 -1.2 -1.2 -1.2 -1.2 -1.2 -1.2 -1.2 -1.2 -1.2 -1.2 -1.2 -1.2 -1.2 -1.2 -1.2 -1.2 -1.2 -1.2 -1.2 -1.2 -1.2 -1.2 -1.2 -1.2 -1.2 -1.2 -1.2 -1.2 -1.2 45.6 84 98.4 109.9 130.7 138.5 144.8 152.2 158.6 160 157.6 156.4 154.3 153.3 155.7 158.3 160 159.8 157.9 156.1 152.7 147.9 142.1 136.6 132.8 129.4 128 125.9 124.7 127.5 130.3 132.3 133.8 132.3 129.7 127.6 125.2 127.4 130.5 134.3 137.5 138.3 139.9 141.6 143.1 143.4 140 136.5 135.7 135.6 135.7 136.3 138 136.4 134.3 133.6 132.1 128.1 125.4 126 126.8 126.1 125.6 127.3 128.8 132.2 135.3 139.5 143.7 146.4 145.1 142.7 140.8 141.2 142.7 144.7 148.6 151.9 155.8 161.1 166 170.4 173.1 171.6 168.5 164.7 160.2 154.7 151.6 154.3 163 169.1 172.3 175.6 180 182.1 181.7 179.2 176.3 174.7 171.7 168.5 166.1 163.5 161.8
-1.2 -1.2 -1.2 -1.2 -1.2 -1.2 -1.2 -1.2 -1.2 -1.2 -1.2 -1.2 -1.2 -1.2 -1.2 -1.2 -1.2 -1.2 -1.2 -1.2 -1.2 -1.2 -1.2 -1.2 -1.2 -1.2 -1.2 -1.2 -1.2 -1.2 -1.2 -1.2 -1.2 -1.2 -1.2 -1.2 -1.2 -1.2 -1.2 -1.2 -1.2 -1.2 -1.2 -1.2 -1.2 -1.2 -1.2 -1.2 -1.2 -1.2 -1.2 -1.2 -1.2 -1.2 -1.2 -1.2 -1.2 -1.2 -1.2 -1.2 -1.2 -1.2 -1.2 -1.2 -1.2 -1.2 -1.2 -1.2 -1.2 -1.2 -1.2 -1.2 -1.2 -1.2 -1.2 -1.2 -1.2 -1.2 -1.2 -1.2 -1.2 -1.2 -1.2 -1.2 -1.2 -1.2 -1.2 -1.2 -1.2 -1.2 -1.2 -1.2 -1.2 -1.2 50.2 76 92.7 105.7 124.8 140.4 147.3 149.4 151.6 152.7 151.5 150.1 150.4 149.7 150.6 153.3 156.1 156.7 155.1 155.3 155.7 153.6 146.6 139.3 134.5 130.7 126.9 124.5 122.7 125.2 128.3 131 133.7 134.7 132.3 128.5 125.9 124.2 127.6 130.7 134.8 137.6 138.3 139.9 141.5 142.1 140.3 137.1 136.4 136.2 135.5 136 137.6 138.8 135.6 132.6 130.5 128.7 126.1 123.6 125.1 125.5 124.4 124.6 125.9 129.3 133.1 139.2 143.8 146.4 145.1 142.5 140.3 138.9 139.4 140.9 143.8 147.3 151.6 156.5 162.3 168 172.8 171.6 169.5 168.7 166.1 160.9 156.2 156.6 164.1 172.5 176.9 178.5 181.4 182.7 181.9 180.5 180.3 179.8 179 175.8 172.5 168.5 166 164.4
-1.2 -1.2 -1.2 -1.2 -1.2 -1.2 -1.2 -1.2 -1.2 -1.2 -1.2 -1.2 -1.2 -1.2 -1.2 -1.2 -1.2 -1.2 -1.2 -1.2 -1.2 -1.2 -1.2 -1.2 -1.2 -1.2 -1.2 -1.2 -1.2 -1.2 -1.2 -1.2 -1.2 -1.2 -1.2 -1.2 -1.2 -1.2 -1.2 -1.2 -1.2 -1.2 -1.2 -1.2 -1.2 -1.2 -1.2 -1.2 -1.2 -1.2 -1.2 -1.2 -1.2 -1.2 -1.2 -1.2 -1.2 -1.2 -1.2 -1.2 -1.2 -1.2 -1.2 -1.2 -1.2 -1.2 -1.2 -1.2 -1.2 -1.2 -1.2 -1.2 -1.2 -1.2 -1.2 -1.2 -1.2 -1.2 -1.2 -1.2 -1.2 -1.2 -1.2 -1.2 -1.2 -1.2 -1.2 -1.2 -1.2 -1.2 -1.2 -1.2 -1.2 -1.2 41.5 63.8 92.2 116 139.3 148 151.6 152.9 154.4 154.6 151.6 149.5 149.6 149.8 151.1 154.1 156.1 153.3 152.6 154.1 155 151.7 143.7 137.2 132.4 128.3 124.1 121.5 122.2 125.3 128.3 131.2 134.1 133.9 130 126.2 123.7 123.9 127.2 131.1 135.2 137.3 138.3 140 141.2 139.5 137.1 136 136 136.1 137.6 140.5 143.6 141.6 137.2 133.3 130.2 127.2 124.1 122.6 122.2 122.7 123.1 123.8 125.8 129.2 135.4 141.8 144.7 146.3 143.2 140.3 138.8 138.5 138.5 141.1 144.1 148.4 152.4 159.2 163.1 168.8 170.8 169.4 168.3 168.9 167.8 160.7 158 163.2 171.8 178.4 180.9 183.3 184.4 183.1 181.6 180.5 181.8 182.7 182.2 179 175 170.9 168.3 167.2
-1.2 -1.2 -1.2 -1.2 -1.2 -1.2 -1.2 -1.2 -1.2 -1.2 -1.2 -1.2 -1.2 -1.2 -1.2 -1.2 -1.2 -1.2 -1.2 -1.2 -1.2 -1.2 -1.2 -1.2 -1.2 -1.2 -1.2 -1.2 -1.2 -1.2 -1.2 -1.2 -1.2 -1.2 -1.2 -1.2 -1.2 -1.2 -1.2 -1.2 -1.2 -1.2 -1.2 -1.2 -1.2 -1.2 -1.2 -1.2 -1.2 -1.2 -1.2 -1.2 -1.2 -1.2 -1.2 -1.2 -1.2 -1.2 -1.2 -1.2 -1.2 -1.2 -1.2 -1.2 -1.2 -1.2 -1.2 -1.2 -1.2 -1.2 -1.2 -1.2 -1.2 -1.2 -1.2 -1.2 -1.2 -1.2 -1.2 -1.2 -1.2 -1.2 -1.2 -1.2 -1.2 -1.2 -1.2 -1.2 -1.2 -1.2 -1.2 -1.2 -1.2 -1.2 68.6 90.2 102.5 124.5 140.1 149.4 155.1 156.3 154.2 152.7 150.7 149.6 149.9 150.7 152.6 153.5 150.3 148.1 150.4 153 154 148.6 140.6 135.4 130.3 125.2 120.8 122.1 123.6 125.3 128.2 131.5 133.9 131.1 127.1 123.3 121.2 122.9 127.6 132.3 135.4 137.4 139.2 139.8 139.8 137.7 136.2 135.5 135.6 135.7 139.9 144.2 145.7 141.2 137 132.9 128.5 123.9 121.1 120.8 121.2 121.6 122.8 124.3 125.7 131.6 138.1 141.4 142.6 144.2 140.4 139.3 137.2 137.3 139.7 142.4 146.8 151.1 158.3 164.3 168.2 168.5 167.1 166.3 166.7 168 164.7 159.2 161.6 168.7 177.6 180.9 184 185.9 185.2 183 181.6 180.7 182.2 183 182.3 179.4 176.7 173.4 170.7 169.4
-1.2 -1.2 -1.2 -1.2 -1.2 -1.2 -1.2 -1.2 -1.2 -1.2 -1.2 -1.2 -1.2 -1.2 -1.2 -1.2 -1.2 -1.2 -1.2 -1.2 -1.2 -1.2 -1.2 -1.2 -1.2 -1.2 -1.2 -1.2 -1.2 -1.2 -1.2 -1.2 -1.2 -1.2 -1.2 -1.2 -1.2 -1.2 -1.2 -1.2 -1.2 -1.2 -1.2 -1.2 -1.2 -1.2 -1.2 -1.2 -1.2 -1.2 -1.2 -1.2 -1.2 -1.2 -1.2 -1.2 -1.2 -1.2 -1.2 -1.2 -1.2 -1.2 -1.2 -1.2 -1.2 -1.2 -1.2 -1.2 -1.2 -1.2 -1.2 -1.2 -1.2 -1.2 -1.2 -1.2 -1.2 -1.2 -1.2 -1.2 -1.2 -1.2 -1.2 -1.2 -1.2 -1.2 -1.2 -1.2 -1.2 -1.2 -1.2 -1.2 -1.2 55.6 71.1 99.8 119.4 141.7 149.3 153.6 154.2 152.5 151.1 150.3 150.5 150.5 150.7 152 153 151 145.4 147.5 149.7 152.8 150.9 144.6 139.4 133.8 128.3 123 117 121.2 124.1 126.2 128.6 132.4 131.8 126.9 123.4 120.7 119.8 123.9 129.2 133.1 136.5 140 141.8 141.1 139.3 137 136.4 135.8 135.8 137 142.9 148.4 146.6 140.9 136.6 132.4 126.6 121.9 120.1 120.1 120.5 121 122.6 124.1 127.2 134.3 139.8 140 139.2 138 136.9 136.2 135.7 138 140.6 144 149 156.4 164.6 168 168.4 166.9 163.8 163.6 164.6 166.7 161.5 160.6 163.3 169.9 177.4 181.3 184.6 186.1 184.6 183 181.4 181 181.5 181.9 180.8 179.3 176.9 174.1 172.1 170.7
-1.2 -1.2 -1.2 -1.2 -1.2 -1.2 -1.2 -1.2 -1.2 -1.2 -1.2 -1.2 -1.2 -1.2 -1.2 -1.2 -1.2 -1.2 -1.2 -1.2 -1.2 -1.2 -1.2 -1.2 -1.2 -1.2 -1.2 -1.2 -1.2 -1.2 -1.2 -1.2 -1.2 -1.2 -1.2 -1.2 -1.2 -1.2 -1.2 -1.2 -1.2 -1.2 -1.2 -1.2 -1.2 -1.2 -1.2 -1.2 -1.2 -1.2 -1.2 -1.2 -1.2 -1.2 -1.2 -1.2 -1.2 -1.2 -1.2 -1.2 -1.2 -1.2 -1.2 -1.2 -1.2 -1.2 -1.2 -1.2 -1.2 -1.2 -1.2 -1.2 -1.2 -1.2 -1.2 -1.2 -1.2 -1.2 -1.2 -1.2 -1.2 -1.2 -1.2 -1.2 -1.2 -1.2 -1.2 -1.2 -1.2 -1.2 -1.2 -1.2 -1.2 68.7 89.4 100.1 115.9 136.7 149.1 151.7 151.2 149.2 150.5 150.8 151.4 152.1 151.7 152.1 151.2 149.7 149.1 149.7 151 152.3 148.6 142.2 138.3 132.9 126.2 119.4 118.5 123.1 125.3 127.7 130.5 132.8 127.7 122.8 119.6 118.1 120.4 126.3 131.3 134.6 138.9 143.8 143.7 140.9 138.3 136.9 136.6 136 136 139.6 146.8 150.4 145.6 140.2 136.6 130.6 124.9 120.8 119.4 119.4 119.9 120.8 122.4 125.6 129.1 134.5 137.3 135.9 135.1 134 134.6 134.1 135.9 138.7 141 144.4 150.4 160.3 166.7 167.4 165.2 161.4 159.4 160.2 161.9 162.2 156.8 159.1 162.7 167.3 174.3 179.8 181.9 182.5 181.9 181 181.1 181.4 181.3 180.7 179.8 178.3 176.6 175 173.6 172.2
-1.2 -1.2 -1.2 -1.2 -1.2 -1.2 -1.2 -1.2 -1.2 -1.2 -1.2 -1.2 -1.2 -1.2 -1.2 -1.2 -1.2 -1.2 -1.2 -1.2 -1.2 -1.2 -1.2 -1.2 -1.2 -1.2 -1.2 -1.2 -1.2 -1.2 -1.2 -1.2 -1.2 -1.2 -1.2 -1.2 -1.2 -1.2 -1.2 -1.2 -1.2 -1.2 -1.2 -1.2 -1.2 -1.2 -1.2 -1.2 -1.2 -1.2 -1.2 -1.2 -1.2 -1.2 -1.2 -1.2 -1.2 -1.2 -1.2 -1.2 -1.2 -1.2 -1.2 -1.2 -1.2 -1.2 -1.2 -1.2 -1.2 -1.2 -1.2 -1.2 -1.2 -1.2 -1.2 -1.2 -1.2 -1.2 -1.2 -1.2 -1.2 -1.2 -1.2 -1.2 -1.2 -1.2 -1.2 -1.2 -1.2 -1.2 -1.2 -1.2 1.6 85.1 100.9 119.5 130.8 139.7 143.3 145.1 144.9 145.4 146.4 144.3 146.7 152.3 151.8 149.6 148.9 148.6 148.1 149.7 150.6 149.2 144.9 141.6 137.4 132.9 127.2 114.7 123.4 125.3 127.6 131.1 134.1 130.6 123.9 119.3 116.8 118.7 122.4 127.9 131.9 134.7 140.3 143.2 142.1 138.2 135.6 135.2 135.8 135.1 136.3 142.7 149 147.6 142.9 138.4 133.3 127 122.7 119.2 118.5 118.8 119.2 120.3 122.8 126 129.2 131.3 131.3 131.1 131.1 130.7 131.3 131.8 133.7 136.6 139.6 143.7 153.3 163.6 165.9 163.8 160.7 156.6 155.3 156.4 158.2 155.2 156.4 157.1 158.6 165.8 173.7 177.8 177.4 176.5 176.4 177.3 179.1 180.2 178.7 177.8 176.8 175.9 177.1 177.5 176.2 174.3
-1.2 -1.2 -1.2 -1.2 -1.2 -1.2 -1.2 -1.2 -1.2 -1.2 -1.2 -1.2 -1.2 -1.2 -1.2 -1.2 -1.2 -1.2 -1.2 -1.2 -1.2 -1.2 -1.2 -1.2 -1.2 -1.2 -1.2 -1.2 -1.2 -1.2 -1.2 -1.2 -1.2 -1.2 -1.2 -1.2 -1.2 -1.2 -1.2 -1.2 -1.2 -1.2 -1.2 -1.2 -1.2 -1.2 -1.2 -1.2 -1.2 -1.2 -1.2 -1.2 -1.2 -1.2 -1.2 -1.2 -1.2 -1.2 -1.2 -1.2 -1.2 -1.2 -1.2 -1.2 -1.2 -1.2 -1.2 -1.2 -1.2 -1.2 -1.2 -1.2 -1.2 -1.2 -1.2 -1.2 -1.2 -1.2 -1.2 -1.2 -1.2 -1.2 -1.2 -1.2 -1.2 -1.2 -1.2 -1.2 -1.2 -1.2 -1.2 -1.2 25.1 93.8 112.3 132.6 142.8 147.4 147.4 145.6 143.8 143.3 143.9 145.6 151.1 150.8 148.8 146.5 146.1 146.3 147.2 149 149.1 145.5 142.6 139.5 136.1 131.7 124.3 113.2 125.9 127.1 128.2 131.7 132.4 126.3 120.1 116.6 115.1 118.5 121.3 124.5 127.3 131.7 136.8 141.2 139.7 135.6 133.2 132.5 133.2 132.4 138.1 143.8 147.8 144.4 137.8 132.8 127.9 123.4 119.9 118 118 118.4 118.8 120.6 123.1 125 125.8 125 125.1 125.6 126.6 128.8 130 130.6 132.3 134.8 138.3 142.8 153.5 161.1 161.9 159.4 156.1 152.1 151.5 151.2 149.9 156.9 161.4 163.2 159.6 164.3 172.2 173.9 172.5 170.6 171.5 173.6 175.7 176.2 174.8 173.7 173.7 175.6 179.3 179.4 177.4 175.4
-1.2 -1.2 -1.2 -1.2 -1.2 -1.2 -1.2 -1.2 -1.2 -1.2 -1.2 -1.2 -1.2 -1.2 -1.2 -1.2 -1.2 -1.2 -1.2 -1.2 -1.2 -1.2 -1.2 -1.2 -1.2 -1.2 -1.2 -1.2 -1.2 -1.2 -1.2 -1.2 -1.2 -1.2 -1.2 -1.2 -1.2 -1.2 -1.2 -1.2 -1.2 -1.2 -1.2 -1.2 -1.2 -1.2 -1.2 -1.2 -1.2 -1.2 -1.2 -1.2 -1.2 -1.2 -1.2 -1.2 -1.2 -1.2 -1.2 -1.2 -1.2 -1.2 -1.2 -1.2 -1.2 -1.2 -1.2 -1.2 -1.2 -1.2 -1.2 -1.2 -1.2 -1.2 -1.2 -1.2 -1.2 -1.2 -1.2 -1.2 -1.2 -1.2 -1.2 -1.2 -1.2 -1.2 -1.2 -1.2 -1.2 -1.2 -1.2 46.4 78.9 107.9 126.7 139.5 146.3 148.1 146.1 144.3 142.2 141.6 143.4 146 148 147.3 145.6 143.2 143.2 144.4 146.3 146.9 144.4 141.7 141.1 137.2 133.1 128.1 115.2 120.2 124.2 124.7 126 128.7 126.6 120.5 116.1 112.4 111.4 114.7 115.3 115.9 118.3 124 131.4 137.7 135.2 132.7 131 130.2 129.9 130.8 136.3 147 143.4 137.5 131.1 126.8 122.8 120.5 118.6 117.9 117.8 118.2 118.6 120.5 122 122.8 122.8 125 130 130.6 128.2 127.3 128.8 130.5 131.7 133.2 136.4 143.6 154.5 158.7 157.9 155 151.3 147.5 150.6 153.5 156.9 160.9 163.6 162.1 159.5 163.3 168.8 169.7 169.2 168.1 169.1 171.5 174.2 173.4 172.1 171 172.5 177.1 181.2 180.3 177.4 175.2
-1.2 -1.2 -1.2 -1.2 -1.2 -1.2 -1.2 -1.2 -1.2 -1.2 -1.2 -1.2 -1.2 -1.2 -1.2 -1.2 -1.2 -1.2 -1.2 -1.2 -1.2 -1.2 -1.2 -1.2 -1.2 -1.2 -1.2 -1.2 -1.2 -1.2 -1.2 -1.2 -1.2 -1.2 -1.2 -1.2 -1.2 -1.2 -1.2 -1.2 -1.2 -1.2 -1.2 -1.2 -1.2 -1.2 -1.2 -1.2 -1.2 -1.2 -1.2 -1.2 -1.2 -1.2 -1.2 -1.2 -1.2 -1.2 -1.2 -1.2 -1.2 -1.2 -1.2 -1.2 -1.2 -1.2 -1.2 -1.2 -1.2 -1.2 -1.2 -1.2 -1.2 -1.2 -1.2 -1.2 -1.2 -1.2 -1.2 -1.2 -1.2 -1.2 -1.2 -1.2 -1.2 -1.2 -1.2 -1.2 -1.2 -1.2 -1.2 55.2 90.1 114.3 131.5 139.2 144.3 145 143.8 142.2 139.1 138.3 139.6 141.6 141.8 142.4 142.2 140 139.8 141.4 142.9 142.9 140.7 139.7 137.6 133.6 129.5 125.2 106.2 119.7 121.5 122.1 123 124 120.7 116.3 111.9 108.3 106.7 106.7 106.7 108.4 112.1 118.2 128.9 131.8 126.9 126.9 126.2 126.2 125.3 127.3 136.4 139.2 134.4 130 125.3 122.3 120.9 119.7 118.5 117.8 117.7 118.1 118.5 119.3 121.1 120.2 123.8 128.6 132.8 133 131.7 130.8 131 129.7 130.6 132.3 136.2 142.5 150.4 153.9 152.2 150.3 146.6 149.7 154 155.9 158.8 163.4 163.2 160.4 159.7 161.4 164.9 165.9 166.4 165.6 167 170.8 171.3 170.4 169.4 169.8 172.6 178.5 179.8 177.8 174.9 173.9
-1.2 -1.2 -1.2 -1.2 -1.2 -1.2 -1.2 -1.2 -1.2 -1.2 -1.2 -1.2 -1.2 -1.2 -1.2 -1.2 -1.2 -1.2 -1.2 -1.2 -1.2 -1.2 -1.2 -1.2 -1.2 -1.2 -1.2 -1.2 -1.2 -1.2 -1.2 -1.2 -1.2 -1.2 -1.2 -1.2 -1.2 -1.2 -1.2 -1.2 -1.2 -1.2 -1.2 -1.2 -1.2 -1.2 -1.2 -1.2 -1.2 -1.2 -1.2 -1.2 -1.2 -1.2 -1.2 -1.2 -1.2 -1.2 -1.2 -1.2 -1.2 -1.2 -1.2 -1.2 -1.2 -1.2 -1.2 -1.2 -1.2 -1.2 -1.2 -1.2 -1.2 -1.2 -1.2 -1.2 -1.2 -1.2 -1.2 -1.2 -1.2 -1.2 -1.2 -1.2 -1.2 -1.2 -1.2 -1.2 -1.2 -1.2 -1.2 46.2 91.7 107.8 126.2 136.6 141.8 142.8 142.5 138.9 134.4 134 134.8 135.4 138.1 139.2 138.3 138.2 138.8 138.3 138.3 137.2 136.4 135.8 133.1 129.4 125.6 121.3 101.5 117.4 118.4 119.3 119.4 120.2 116.7 112.3 107.9 104.7 102.8 102.4 104 105.6 109 114.4 128.4 123.1 120.5 120.9 121.2 120.5 119.7 122.4 136.8 130.4 127.6 124.4 121.7 121.5 120.8 119 116.8 116.7 116.8 118.1 118.4 120.3 121.3 123.4 126.9 131.9 135.6 135.2 134.3 134.2 133.9 133.8 133 132.3 134.5 139.2 144.1 147 147.5 145.4 147 152 155.2 157.6 160.9 162.8 161.1 160 159.9 161.1 162.7 162.9 163.6 164 165.1 167.4 167.5 167.1 167.7 168.5 173.4 177.6 175 172.4 171.7 171.6
-1.2 -1.2 -1.2 -1.2 -1.2 -1.2 -1.2 -1.2 -1.2 -1.2 -1.2 -1.2 -1.2 -1.2 -1.2 -1.2 -1.2 -1.2 -1.2 -1.2 -1.2 -1.2 -1.2 -1.2 -1.2 -1.2 -1.2 -1.2 -1.2 -1.2 -1.2 -1.2 -1.2 -1.2 -1.2 -1.2 -1.2 -1.2 -1.2 -1.2 -1.2 -1.2 -1.2 -1.2 -1.2 -1.2 -1.2 -1.2 -1.2 -1.2 -1.2 -1.2 -1.2 -1.2 -1.2 -1.2 -1.2 -1.2 -1.2 -1.2 -1.2 -1.2 -1.2 -1.2 -1.2 -1.2 -1.2 -1.2 -1.2 -1.2 -1.2 -1.2 -1.2 -1.2 -1.2 -1.2 -1.2 -1.2 -1.2 -1.2 -1.2 -1.2 -1.2 -1.2 -1.2 -1.2 -1.2 -1.2 -1.2 -1.2 41.9 71.5 100.6 111.6 124.9 131.3 131.6 133 132.3 130.5 129.9 129.5 131.9 134.9 137.8 139.6 137.7 138.5 140.1 138.3 135.8 134 133.6 132.6 130.1 126.3 122.8 118.7 109.7 113.8 115.9 115.9 116.1 116.4 113.2 108.3 104 101.4 100 102.1 105 103.8 104.3 108.8 112.3 113.3 113.7 113.4 112.1 112.5 115.5 123.3 132 127.5 125 122.8 122.6 122.8 119.2 116.3 115.8 116 116.9 118.1 119.7 121.2 122.7 125.7 129.5 140.5 138.1 138.6 140.5 143.7 140.5 138.8 136.5 134.9 133.4 136.5 140.1 142.5 143.2 143.9 147.6 153.2 155.6 158.7 162.9 164.2 162.6 161.3 161.2 162.6 163.2 164.1 163 162.7 163.6 164.2 164.5 164.8 165.4 166.9 169.8 169.6 168.8 168.3 168.5 169.6
-1.2 -1.2 -1.2 -1.2 -1.2 -1.2 -1.2 -1.2 -1.2 -1.2 -1.2 -1.2 -1.2 -1.2 -1.2 -1.2 -1.2 -1.2 -1.2 -1.2 -1.2 -1.2 -1.2 -1.2 -1.2 -1.2 -1.2 -1.2 -1.2 -1.2 -1.2 -1.2 -1.2 -1.2 -1.2 -1.2 -1.2 -1.2 -1.2 -1.2 -1.2 -1.2 -1.2 -1.2 -1.2 -1.2 -1.2 -1.2 -1.2 -1.2 -1.2 -1.2 -1.2 -1.2 -1.2 -1.2 -1.2 -1.2 -1.2 -1.2 -1.2 -1.2 -1.2 -1.2 -1.2 -1.2 -1.2 -1.2 -1.2 -1.2 -1.2 -1.2 -1.2 -1.2 -1.2 -1.2 -1.2 -1.2 -1.2 -1.2 -1.2 -1.2 -1.2 -1.2 -1.2 -1.2 -1.2 -1.2 -1.2 -1.2 43.7 76.7 98.4 107.3 116.7 124.9 130.6 130.7 127.6 127.8 125.6 129.2 133.4 138.1 142.8 142.1 139.8 141 142.2 138.7 134.6 132.1 130.9 129.5 127.2 123.4 119.8 116.8 113.4 105 112.9 114.5 114.4 115 113.2 105.3 100.8 98.9 98.5 102.6 104.1 102 100.7 101.8 108 108.4 107.1 106.3 108 110.2 113.4 129.6 128.7 126.3 124 123.5 124.2 121.7 117.6 114.9 115.7 117.2 118.9 122 123.1 123.1 124.8 127.9 132.3 136.4 139.5 142.7 148.8 148.7 145.5 142.4 140.5 138.7 136.4 135.2 137 138.4 139.9 144.5 148.1 152.4 155.7 160.3 164.9 165.7 164.8 163 164.5 166.2 165.9 165.2 163.9 163.2 163 163 163.3 163.4 163.8 164.5 164.9 166 166.4 166.1 166.7 167.8
-1.2 -1.2 -1.2 -1.2 -1.2 -1.2 -1.2 -1.2 -1.2 -1.2 -1.2 -1.2 -1.2 -1.2 -1.2 -1.2 -1.2 -1.2 -1.2 -1.2 -1.2 -1.2 -1.2 -1.2 -1.2 -1.2 -1.2 -1.2 -1.2 -1.2 -1.2 -1.2 -1.2 -1.2 -1.2 -1.2 -1.2 -1.2 -1.2 -1.2 -1.2 -1.2 -1.2 -1.2 -1.2 -1.2 -1.2 -1.2 -1.2 -1.2 -1.2 -1.2 -1.2 -1.2 -1.2 -1.2 -1.2 -1.2 -1.2 -1.2 -1.2 -1.2 -1.2 -1.2 -1.2 -1.2 -1.2 -1.2 -1.2 -1.2 -1.2 -1.2 -1.2 -1.2 -1.2 -1.2 -1.2 -1.2 -1.2 -1.2 -1.2 -1.2 -1.2 -1.2 -1.2 -1.2 -1.2 -1.2 -1.2 36.5 47.6 68.1 99.1 119.2 128.9 135.8 137.1 132.2 128.8 126.7 128 131.4 135.3 139.8 141 139.9 139.7 140.3 138.1 135.3 132.1 130.6 128.8 126.8 124 120.8 116.9 109.4 100.7 108.2 113.5 114.9 115.1 114.3 106.3 99.1 97.6 96 98.4 103.2 102.6 99.9 98.6 101.8 104.3 103.9 103.4 105.4 108.4 109.7 111.6 135 126.5 125.7 123.8 128.2 126.1 120.5 113.7 116.7 118.8 120.3 123.2 127 126.6 125.9 126.9 130.5 134 138.1 141.9 146.3 150.4 150.4 149.2 146.6 143.8 140.9 138.6 137.9 138.4 140.2 142.8 145.4 149.1 152.7 157.8 162.7 165.5 165.8 165.4 165.6 167.8 168.9 168.3 166.8 165.3 164.7 164.5 163.7 163.6 163.6 163.8 164.4 164.8 165.2 165.6 166.1 166.3 166.9
-1.2 -1.2 -1.2 -1.2 -1.2 -1.2 -1.2 -1.2 -1.2 -1.2 -1.2 -1.2 -1.2 -1.2 -1.2 -1.2 -1.2 -1.2 -1.2 -1.2 -1.2 -1.2 -1.2 -1.2 -1.2 -1.2 -1.2 -1.2 -1.2 -1.2 -1.2 -1.2 -1.2 -1.2 -1.2 -1.2 -1.2 -1.2 -1.2 -1.2 -1.2 -1.2 -1.2 -1.2 -1.2 -1.2 -1.2 -1.2 -1.2 -1.2 -1.2 -1.2 -1.2 -1.2 -1.2 -1.2 -1.2 -1.2 -1.2 -1.2 -1.2 -1.2 -1.2 -1.2 -1.2 -1.2 -1.2 -1.2 -1.2 -1.2 -1.2 -1.2 -1.2 -1.2 -1.2 -1.2 -1.2 -1.2 -1.2 -1.2 -1.2 -1.2 -1.2 -1.2 -1.2 -1.2 -1.2 -1.2 -1.2 37.4 58.7 82.6 109.4 129.4 138.9 144.2 138.8 134.5 130 127 130.5 134.3 137.6 137.6 138.2 139.2 140.1 138 135.9 133.5 130.9 129.6 128.7 127.4 124.9 122.1 119.2 114.7 103.1 99 110.5 112.7 110.7 103.2 98.5 96 94.4 94.8 98 100.8 99.7 97.4 98.1 100.9 100.9 101.1 102.9 105.3 107.4 108.6 112.6 120.3 123.8 122.3 123.2 127.3 123.3 116.4 115.5 119.1 122.4 124.5 127.6 128.4 129 128.5 130.3 133.7 136.5 140.3 145.8 152.8 154.4 153.5 153.3 152.1 147.5 143.1 140.2 139.8 140.9 142.8 144.8 148.4 151.9 155.6 159.6 163.6 165.9 166.3 166.8 168.7 170.9 171.3 170.7 168.9 166.9 166.1 164.9 164.5 164.3 164.9 165.1 165.5 165.8 166.3 166.7 167.5 170.1 169.7
-1.2 -1.2 -1.2 -1.2 -1.2 -1.2 -1.2 -1.2 -1.2 -1.2 -1.2 -1.2 -1.2 -1.2 -1.2 -1.2 -1.2 -1.2 -1.2 -1.2 -1.2 -1.2 -1.2 -1.2 -1.2 -1.2 -1.2 -1.2 -1.2 -1.2 -1.2 -1.2 -1.2 -1.2 -1.2 -1.2 -1.2 -1.2 -1.2 -1.2 -1.2 -1.2 -1.2 -1.2 -1.2 -1.2 -1.2 -1.2 -1.2 -1.2 -1.2 -1.2 -1.2 -1.2 -1.2 -1.2 -1.2 -1.2 -1.2 -1.2 -1.2 -1.2 -1.2 -1.2 -1.2 -1.2 -1.2 -1.2 -1.2 -1.2 -1.2 -1.2 -1.2 -1.2 -1.2 -1.2 -1.2 -1.2 -1.2 -1.2 -1.2 -1.2 -1.2 -1.2 -1.2 -1.2 -1.2 -1.2 -1.2 39.6 65.6 94.4 119.5 138.8 144.8 142.5 136.3 132.9 129.9 130.2 133 136 136.1 136.5 138.3 140.3 139.8 136.3 133.3 131.4 131.3 131.3 130.4 128.6 126.3 123.5 119.8 115.5 107.6 99.6 93.3 91.6 99.3 98.4 94.2 92.4 91.5 94.9 97.9 95.1 95.2 95.4 96.3 97.5 94.6 95.2 98.7 102.3 103.7 106.3 114 119.3 120.5 120 121.7 120.5 116.3 113.1 120.1 125.3 127.7 127.3 129.1 129.6 130.6 130.8 133.3 136.4 138.8 143.2 150.1 154.5 156.2 157.8 158.5 154.7 149.1 145.1 142.8 141.8 143.4 145.3 148.6 152.3 156 159.1 161.8 165.4 166.5 168.3 170 171.8 174 173.9 173.3 171.5 168.6 166.6 165.4 165.2 165.2 166.8 167.6 168.4 169.5 170.5 172.3 175.2 177.4 173.4
-1.2 -1.2 -1.2 -1.2 -1.2 -1.2 -1.2 -1.2 -1.2 -1.2 -1.2 -1.2 -1.2 -1.2 -1.2 -1.2 -1.2 -1.2 -1.2 -1.2 -1.2 -1.2 -1.2 -1.2 -1.2 -1.2 -1.2 -1.2 -1.2 -1.2 -1.2 -1.2 -1.2 -1.2 -1.2 -1.2 -1.2 -1.2 -1.2 -1.2 -1.2 -1.2 -1.2 -1.2 -1.2 -1.2 -1.2 -1.2 -1.2 -1.2 -1.2 -1.2 -1.2 -1.2 -1.2 -1.2 -1.2 -1.2 -1.2 -1.2 -1.2 -1.2 -1.2 -1.2 -1.2 -1.2 -1.2 -1.2 -1.2 -1.2 -1.2 -1.2 -1.2 -1.2 -1.2 -1.2 -1.2 -1.2 -1.2 -1.2 -1.2 -1.2 -1.2 -1.2 -1.2 -1.2 -1.2 -1.2 -1.2 17.3 65.7 88.5 114.5 142.8 142.8 139.2 136 131.5 129.8 131.8 133.8 134.3 134.7 136.8 139.1 140.1 137.4 133.8 131.7 131.9 132.9 133.2 131.7 129.8 127.6 123.9 119.3 114.9 111.1 108.1 109.3 104.6 94.9 92.5 89.9 88.5 87.6 89.7 89.1 92.6 89.8 95.8 97.3 98.8 100.6 102.7 104.3 102.9 99.9 104.2 116.3 123.3 114.7 110.1 108.7 107.7 115 118.4 125 130.9 131.2 130.3 130.3 131.1 132 133.9 135.5 137.6 140.7 146.1 151.6 154.9 157.1 159.1 158.7 154.2 150.2 147.7 145.6 144.1 145.7 148.6 152 156.8 159.6 161.9 164.3 166.6 168.2 170.7 172 174.8 175.9 176.5 175.5 172.9 169.5 167.4 166.2 166 167.1 168.7 170.3 172 173.3 174.3 176.4 179.4 181 175.3
-1.2 -1.2 -1.2 -1.2 -1.2 -1.2 -1.2 -1.2 -1.2 -1.2 -1.2 -1.2 -1.2 -1.2 -1.2 -1.2 -1.2 -1.2 -1.2 -1.2 -1.2 -1.2 -1.2 -1.2 -1.2 -1.2 -1.2 -1.2 -1.2 -1.2 -1.2 -1.2 -1.2 -1.2 -1.2 -1.2 -1.2 -1.2 -1.2 -1.2 -1.2 -1.2 -1.2 -1.2 -1.2 -1.2 -1.2 -1.2 -1.2 -1.2 -1.2 -1.2 -1.2 -1.2 -1.2 -1.2 -1.2 -1.2 -1.2 -1.2 -1.2 -1.2 -1.2 -1.2 -1.2 -1.2 -1.2 -1.2 -1.2 -1.2 -1.2 -1.2 -1.2 -1.2 -1.2 -1.2 -1.2 -1.2 -1.2 -1.2 -1.2 -1.2 -1.2 -1.2 -1.2 -1.2 -1.2 -1.2 -1.2 56.9 71.9 94.3 122.2 137.4 137.5 138 135.3 130.2 130.6 131.5 132.2 133.1 134.1 137 138.7 135.9 132.3 129.8 130.8 132.1 133.5 133.5 131.6 129.6 127.9 123.3 119.2 115.5 111.5 107.8 104.3 99.6 94.4 90.8 85.9 86.3 88.3 92.4 97.8 104.3 104.9 104.6 104 104.9 105.4 107.3 111.7 116.6 110.5 104.4 111.1 108.1 104.5 118.3 121 120 120.5 123.3 131.2 135.3 135.1 134.3 133.3 133.3 135.1 137.5 139 140.5 144.1 149 153.9 156.3 157.8 159 157.6 154.3 152 150.4 148.6 146.8 148.1 151.3 156.1 161 163.4 165 166.4 168 169.3 171.1 172.8 174.3 175.3 176.1 174.7 172 169.6 167.5 166.8 167 168.3 170 171.7 173.4 175.2 176.6 178.4 181.6 181.2 176.9
-1.2 -1.2 -1.2 -1.2 -1.2 -1.2 -1.2 -1.2 -1.2 -1.2 -1.2 -1.2 -1.2 -1.2 -1.2 -1.2 -1.2 -1.2 -1.2 -1.2 -1.2 -1.2 -1.2 -1.2 -1.2 -1.2 -1.2 -1.2 -1.2 -1.2 -1.2 -1.2 -1.2 -1.2 -1.2 -1.2 -1.2 -1.2 -1.2 -1.2 -1.2 -1.2 -1.2 -1.2 -1.2 -1.2 -1.2 -1.2 -1.2 -1.2 -1.2 -1.2 -1.2 -1.2 -1.2 -1.2 -1.2 -1.2 -1.2 -1.2 -1.2 -1.2 -1.2 -1.2 -1.2 -1.2 -1.2 -1.2 -1.2 -1.2 -1.2 -1.2 -1.2 -1.2 -1.2 -1.2 -1.2 -1.2 -1.2 -1.2 -1.2 -1.2 -1.2 -1.2 -1.2 -1.2 -1.2 -1.2 1 58.6 77 102.4 124 130.6 131.6 132.7 131.3 131 131.9 132 132.1 132.6 133.5 136 132.8 129.1 127.8 127.5 129.1 131.6 133.1 132 130 128.1 126 122.4 118.8 113.8 107.7 102.7 98.9 95.4 92 89.9 82.6 87.4 91.2 94.7 103 112.6 116 118.4 117.8 114.6 109.2 114.1 121 124 121.2 114.6 109.9 113.4 122.1 125.1 124.1 123.6 125.2 132 138.8 139.1 138.9 138.3 136.8 137.3 139.3 141.3 142.9 144.2 147.8 151.9 155.9 158.8 159.7 158.1 156.3 155.1 154 152.7 151.4 149.4 149.8 152.9 158 162 164.3 165.7 166.1 166.4 167.2 169.7 170.5 171.5 173.1 174.4 173.5 171.4 169.1 168 167.5 168.2 169.2 170.8 172.4 174.1 175.5 177 179 180.4 180 177.8
-1.2 -1.2 -1.2 -1.2 -1.2 -1.2 -1.2 -1.2 -1.2 -1.2 -1.2 -1.2 -1.2 -1.2 -1.2 -1.2 -1.2 -1.2 -1.2 -1.2 -1.2 -1.2 -1.2 -1.2 -1.2 -1.2 -1.2 -1.2 -1.2 -1.2 -1.2 -1.2 -1.2 -1.2 -1.2 -1.2 -1.2 -1.2 -1.2 -1.2 -1.2 -1.2 -1.2 -1.2 -1.2 -1.2 -1.2 -1.2 -1.2 -1.2 -1.2 -1.2 -1.2 -1.2 -1.2 -1.2 -1.2 -1.2 -1.2 -1.2 -1.2 -1.2 -1.2 -1.2 -1.2 -1.2 -1.2 -1.2 -1.2 -1.2 -1.2 -1.2 -1.2 -1.2 -1.2 -1.2 -1.2 -1.2 -1.2 -1.2 -1.2 -1.2 -1.2 -1.2 -1.2 -1.2 -1.2 -1.2 1.4 65.1 95.6 118.4 129 129.4 128.6 128.3 128.9 130.6 132.5 132.6 132.5 130.4 130.4 128.4 126.3 125 124.6 126.4 128.8 131.3 131.6 130.1 128.3 126.6 123.1 118.7 114.2 108.3 102.4 97.6 91.5 86.2 78.7 83.8 87.3 91.4 95.2 100 116 121.8 127.3 129.9 125 119.1 117 120.9 128.6 131.5 130.4 130.2 132.4 128.5 126.5 127.8 128.7 133.7 135.1 141.4 143.6 143.3 142.7 141.5 141.5 143 145.1 146.4 147 149.5 153.4 157.1 159.1 161.2 160.2 158.1 156.6 155.9 154.8 153.6 152.8 151.9 151.5 154 157.2 160.4 162.7 164.3 163.8 163.2 163.8 164 166.6 168.3 170.1 172.8 172.6 170.5 169 168 168.1 168.8 169.8 171.4 172.9 174.5 176 177.6 179.2 180.3 180.3 180.1
-1.2 -1.2 -1.2 -1.2 -1.2 -1.2 -1.2 -1.2 -1.2 -1.2 -1.2 -1.2 -1.2 -1.2 -1.2 -1.2 -1.2 -1.2 -1.2 -1.2 -1.2 -1.2 -1.2 -1.2 -1.2 -1.2 -1.2 -1.2 -1.2 -1.2 -1.2 -1.2 -1.2 -1.2 -1.2 -1.2 -1.2 -1.2 -1.2 -1.2 -1.2 -1.2 -1.2 -1.2 -1.2 -1.2 -1.2 -1.2 -1.2 -1.2 -1.2 -1.2 -1.2 -1.2 -1.2 -1.2 -1.2 -1.2 -1.2 -1.2 -1.2 -1.2 -1.2 -1.2 -1.2 -1.2 -1.2 -1.2 -1.2 -1.2 -1.2 -1.2 -1.2 -1.2 -1.2 -1.2 -1.2 -1.2 -1.2 -1.2 -1.2 -1.2 -1.2 -1.2 -1.2 -1.2 -1.2 -1.2 18.8 94.8 118.2 129.1 133.1 131.4 129 127.4 128 130.9 132.7 133.3 131.8 128.9 126.2 125.1 124 120.7 124.5 127.1 128.6 129.8 128.9 127.4 125.8 123.6 119 114.4 108.7 103.3 98.2 84.5 80.8 87 91 91.1 93.5 98.6 104.9 113.3 128.2 131.1 134.9 134.1 126.9 119.2 122.4 128 134.4 136.6 138.8 145.4 145.3 143.7 143.3 143.4 145.1 146.6 146.6 146.7 147.8 148 147.3 148.3 149.6 152.1 153 152.2 153.4 155.9 158.5 160.8 162.8 163.5 161.7 159.9 158.1 157.1 156 155.4 154.8 154.1 153.9 154.7 156.2 158.9 160.6 162.1 161.4 160.6 160.9 161.9 164.2 166.9 170.5 172.3 171.8 170.5 169.2 168.7 168.9 169.4 170.4 171.9 173.4 174.9 176.6 178.6 180.6 181.7 181.7 182.1
-1.2 -1.2 -1.2 -1.2 -1.2 -1.2 -1.2 -1.2 -1.2 -1.2 -1.2 -1.2 -1.2 -1.2 -1.2 -1.2 -1.2 -1.2 -1.2 -1.2 -1.2 -1.2 -1.2 -1.2 -1.2 -1.2 -1.2 -1.2 -1.2 -1.2 -1.2 -1.2 -1.2 -1.2 -1.2 -1.2 -1.2 -1.2 -1.2 -1.2 -1.2 -1.2 -1.2 -1.2 -1.2 -1.2 -1.2 -1.2 -1.2 -1.2 -1.2 -1.2 -1.2 -1.2 -1.2 -1.2 -1.2 -1.2 -1.2 -1.2 -1.2 -1.2 -1.2 -1.2 -1.2 -1.2 -1.2 -1.2 -1.2 -1.2 -1.2 -1.2 -1.2 -1.2 -1.2 -1.2 -1.2 -1.2 -1.2 -1.2 -1.2 -1.2 -1.2 -1.2 -1.2 -1.2 -1.2 -1.2 78.9 109.3 124.5 131.7 132.4 129.3 126.8 125.1 126.4 129.9 131.6 132.9 131.5 128.3 126 125.3 123.2 116.7 126.1 128.5 128 126.8 126.2 124.7 123.2 120.1 116.3 111.4 105.3 99.2 91.6 76 96.4 98.3 97.9 97.3 100.3 114.4 124.1 130.1 134.8 137.6 137.2 131.7 125.5 122 129 134.4 138.5 142.1 146.7 151.7 151.5 150.7 151.1 151.2 152.5 152.2 151.2 150.6 151.6 152.5 152.6 154.6 156.7 158 158.6 158.2 160.5 162.6 163.7 164.8 166 166.4 164.8 162.6 160.5 158.7 157.3 156.7 157.1 157 157 156.1 156.3 156.9 159.1 159.1 159.6 160.3 161.6 163.2 165 168.6 171.7 173.2 172.6 171.4 170.5 170.1 170.6 170.9 171.8 172.9 174.4 176 178.2 180 181.9 182.9 183.3 183.4
-1.2 -1.2 -1.2 -1.2 -1.2 -1.2 -1.2 -1.2 -1.2 -1.2 -1.2 -1.2 -1.2 -1.2 -1.2 -1.2 -1.2 -1.2 -1.2 -1.2 -1.2 -1.2 -1.2 -1.2 -1.2 -1.2 -1.2 -1.2 -1.2 -1.2 -1.2 -1.2 -1.2 -1.2 -1.2 -1.2 -1.2 -1.2 -1.2 -1.2 -1.2 -1.2 -1.2 -1.2 -1.2 -1.2 -1.2 -1.2 -1.2 -1.2 -1.2 -1.2 -1.2 -1.2 -1.2 -1.2 -1.2 -1.2 -1.2 -1.2 -1.2 -1.2 -1.2 -1.2 -1.2 -1.2 -1.2 -1.2 -1.2 -1.2 -1.2 -1.2 -1.2 -1.2 -1.2 -1.2 -1.2 -1.2 -1.2 -1.2 -1.2 -1.2 -1.2 -1.2 -1.2 -1.2 -1.2 19.1 89.6 114.2 128.7 131.7 127.7 123.9 122.8 121.2 121.6 123.9 128 130.8 128.8 123.8 125.6 126.4 117.9 116 127.6 128.3 124.9 123.1 122.8 123.4 122 119.2 115.1 110.8 105.8 89.3 74.3 85.3 100.2 104.6 101.7 101.9 110.6 127.9 134 137.5 140.4 140.8 135.4 129.7 125.6 128.7 134 139 142.3 144.5 148.8 152.3 152.9 154.3 155.5 156.4 157.4 156.4 155 153.9 154.8 155.5 156.8 158.9 160.2 161.2 162.2 163.7 165.7 167.5 168 169 169.9 169.4 167.6 165.5 162.5 159.7 158.5 160.5 161.7 163.2 163.1 161.1 159.3 159.1 158.4 159.1 159.9 160.9 162.5 164.5 166.5 170.6 174.1 175.4 173.7 173 172.2 172.3 173 173.6 174.4 175.5 177.2 179.6 181.3 182.6 183.8 184.6 184.4 184.3
-1.2 -1.2 -1.2 -1.2 -1.2 -1.2 -1.2 -1.2 -1.2 -1.2 -1.2 -1.2 -1.2 -1.2 -1.2 -1.2 -1.2 -1.2 -1.2 -1.2 -1.2 -1.2 -1.2 -1.2 -1.2 -1.2 -1.2 -1.2 -1.2 -1.2 -1.2 -1.2 -1.2 -1.2 -1.2 -1.2 -1.2 -1.2 -1.2 -1.2 -1.2 -1.2 -1.2 -1.2 -1.2 -1.2 -1.2 -1.2 -1.2 -1.2 -1.2 -1.2 -1.2 -1.2 -1.2 -1.2 -1.2 -1.2 -1.2 -1.2 -1.2 -1.2 -1.2 -1.2 -1.2 -1.2 -1.2 -1.2 -1.2 -1.2 -1.2 -1.2 -1.2 -1.2 -1.2 -1.2 -1.2 -1.2 -1.2 -1.2 -1.2 -1.2 -1.2 -1.2 -1.2 -1.2 1.6 54.7 97.3 117.9 124.9 125.7 122 120.8 119.5 118.2 119 120.5 122.9 126.5 122.9 120.8 124.8 123 111.1 119.5 128.4 125.6 122 120.2 121.5 122.5 120.9 119 116.2 112.5 106.7 84.9 79.5 95 98.2 97.7 99.2 104.1 124.3 135.6 140 142.2 142.3 138.3 133.1 129.5 127.4 131.6 137.5 141.7 143.6 146.1 150.5 153.2 155.1 156.9 158.8 160.2 160.6 159.3 157.9 156.4 157 157.9 159.4 160.9 162.2 163.3 164.2 166.9 168.5 169.7 170.9 171.8 172.3 171.7 169.4 166.7 163.9 161 160.5 162.6 166.7 169.2 169.3 166.5 164.2 162.5 161.4 162.3 162.6 162.2 163.5 165.7 168.6 172.8 176.6 177.7 175.2 175.3 174.3 174.6 175.5 176.4 177.3 179.3 181.5 183.7 185.8 186 186.4 186.3 185.8 185.6
-1.2 -1.2 -1.2 -1.2 -1.2 -1.2 -1.2 -1.2 -1.2 -1.2 -1.2 -1.2 -1.2 -1.2 -1.2 -1.2 -1.2 -1.2 -1.2 -1.2 -1.2 -1.2 -1.2 -1.2 -1.2 -1.2 -1.2 -1.2 -1.2 -1.2 -1.2 -1.2 -1.2 -1.2 -1.2 -1.2 -1.2 -1.2 -1.2 -1.2 -1.2 -1.2 -1.2 -1.2 -1.2 -1.2 -1.2 -1.2 -1.2 -1.2 -1.2 -1.2 -1.2 -1.2 -1.2 -1.2 -1.2 -1.2 -1.2 -1.2 -1.2 -1.2 -1.2 -1.2 -1.2 -1.2 -1.2 -1.2 -1.2 -1.2 -1.2 -1.2 -1.2 -1.2 -1.2 -1.2 -1.2 -1.2 -1.2 -1.2 -1.2 -1.2 -1.2 -1.2 -1.2 -1.2 19.7 66.8 109.7 118.5 121.4 120.7 120.4 119.4 118 117 117.4 116.7 117.9 119.5 116.8 117.4 120.7 110 109.7 128.1 124.4 121.8 119.3 118.1 119.9 121.3 121.2 119.1 116.4 113 106.9 80.6 77.7 89.2 93.5 96.3 99.8 113.3 131.1 139.4 143.5 144.2 141.4 137.4 133.4 129.2 129.5 133.9 140 143.1 144.5 147.4 152 154.7 157 158.6 159.7 161 160.9 159.7 158.3 157.3 157.5 158.8 161 162.4 164.1 165.3 166.9 168 168.5 169.6 170.8 171.8 171.6 170.5 168.6 165.4 163.1 160.5 160.9 164.8 169.3 172.3 172.5 170.7 169.1 167.5 165.6 165.4 164.5 163.7 165 167.4 170.8 175.2 178.6 181.1 179.2 178 176.8 177.3 178.3 179.7 181.6 184.5 187.8 190.7 191.2 190.1 189.2 188.8 188 186.9
-1.2 -1.2 -1.2 -1.2 -1.2 -1.2 -1.2 -1.2 -1.2 -1.2 -1.2 -1.2 -1.2 -1.2 -1.2 -1.2 -1.2 -1.2 -1.2 -1.2 -1.2 -1.2 -1.2 -1.2 -1.2 -1.2 -1.2 -1.2 -1.2 -1.2 -1.2 -1.2 -1.2 -1.2 -1.2 -1.2 -1.2 -1.2 -1.2 -1.2 -1.2 -1.2 -1.2 -1.2 -1.2 -1.2 -1.2 -1.2 -1.2 -1.2 -1.2 -1.2 -1.2 -1.2 -1.2 -1.2 -1.2 -1.2 -1.2 -1.2 -1.2 -1.2 -1.2 -1.2 -1.2 -1.2 -1.2 -1.2 -1.2 -1.2 -1.2 -1.2 -1.2 -1.2 -1.2 -1.2 -1.2 -1.2 -1.2 -1.2 -1.2 -1.2 -1.2 -1.2 -1.2 1.7 58.4 101.9 114.8 119.5 123 123 122.6 120.8 117.9 116 114.4 112.9 112.9 113.3 111 110.4 109.6 105.1 118.5 119.8 117.5 114.7 114.5 116.5 118.4 119.5 120.4 119 116 112.1 92.5 72.5 78.7 85.8 92.6 98.9 105.2 121.8 134.3 141.9 145.1 144.2 140.8 136.3 132.6 130 131.3 135.9 140.3 142.9 144.3 148.4 152.2 155.4 157.4 159.2 159.9 159.6 159.1 158.5 157.8 157.3 157.7 159.6 161.8 163.9 165.2 166.5 166.8 166.9 167 167.9 169.2 169.5 169.9 168.4 166.1 163.4 161 160.2 162.2 166.6 171.3 173.8 175 173.6 172.2 171.1 169.6 167.9 166.8 165.8 167.1 168.4 170.8 174 177.2 179.4 181.2 180.2 179.8 180.8 181.9 183.8 186.2 188.9 192.5 196 195.4 193.6 192.4 191.3 189.8 188.6
-1.2 -1.2 -1.2 -1.2 -1.2 -1.2 -1.2 -1.2 -1.2 -1.2 -1.2 -1.2 -1.2 -1.2 -1.2 -1.2 -1.2 -1.2 -1.2 -1.2 -1.2 -1.2 -1.2 -1.2 -1.2 -1.2 -1.2 -1.2 -1.2 -1.2 -1.2 -1.2 -1.2 -1.2 -1.2 -1.2 -1.2 -1.2 -1.2 -1.2 -1.2 -1.2 -1.2 -1.2 -1.2 -1.2 -1.2 -1.2 -1.2 -1.2 -1.2 -1.2 -1.2 -1.2 -1.2 -1.2 -1.2 -1.2 -1.2 -1.2 -1.2 -1.2 -1.2 -1.2 -1.2 -1.2 -1.2 -1.2 -1.2 -1.2 -1.2 -1.2 -1.2 -1.2 -1.2 -1.2 -1.2 -1.2 -1.2 -1.2 -1.2 -1.2 -1.2 -1.2 -1.2 41.2 77.2 109.5 119.5 124.9 129.9 132.1 127.9 122.8 117.3 115.2 113.5 112 110.1 107 104.2 103.2 101.3 106.2 110.2 108.3 108.5 108.6 111.8 114.7 116 115.9 117 116 111.8 99.2 77 69.4 80.1 84.1 92.1 99.8 114.9 131 137.9 141.9 144.8 143.9 139.6 134.9 131.8 130.4 133.2 136.8 140.4 142.3 144.5 146.8 150.6 153.9 155.6 156.9 157.4 157.1 156.8 156.7 156.8 157.6 158.7 160.8 162.9 164.3 165.7 166.2 165.9 165.4 165.1 166.1 167.5 168.7 168.5 166.7 164 161.3 160.7 161.3 165.1 168.9 172.7 175.5 176.7 176.5 175.5 174.3 173.2 171.4 169.5 168.1 168.3 169.1 170.9 173.3 176.4 179 180.6 182.5 183 184.4 185.3 186.4 188.1 191 195 197.5 196.6 195 194.7 193.2 191.6 190.5
-1.2 -1.2 -1.2 -1.2 -1.2 -1.2 -1.2 -1.2 -1.2 -1.2 -1.2 -1.2 -1.2 -1.2 -1.2 -1.2 -1.2 -1.2 -1.2 -1.2 -1.2 -1.2 -1.2 -1.2 -1.2 -1.2 -1.2 -1.2 -1.2 -1.2 -1.2 -1.2 -1.2 -1.2 -1.2 -1.2 -1.2 -1.2 -1.2 -1.2 -1.2 -1.2 -1.2 -1.2 -1.2 -1.2 -1.2 -1.2 -1.2 -1.2 -1.2 -1.2 -1.2 -1.2 -1.2 -1.2 -1.2 -1.2 -1.2 -1.2 -1.2 -1.2 -1.2 -1.2 -1.2 -1.2 -1.2 -1.2 -1.2 -1.2 -1.2 -1.2 -1.2 -1.2 -1.2 -1.2 -1.2 -1.2 -1.2 -1.2 -1.2 -1.2 -1.2 -1.2 1.2 63.7 89.4 109.8 122.5 130.5 132.9 133 126.8 120.3 116.7 114.6 112.8 110.9 108.8 104.9 98.8 96.7 96.7 98.7 100.1 102.2 103.5 107 110.2 112.1 111.4 111.7 111.9 108.7 103.1 89.9 65 74.5 79.5 83.1 89.3 97.8 120.4 130.6 136 142.6 144.2 141.9 137.8 133.4 130.1 131.8 136 138.6 140.5 142.6 144.9 146.8 148.7 152 154.1 155.2 154.9 154.9 155.4 156.2 157.1 158.2 159.7 161.7 163.6 164.7 165.9 165.6 164.8 164 164.2 165.5 166.6 167.9 167.1 165.5 162.7 160.4 160.3 162.3 165.9 170.7 173.9 176.4 178 178.6 178.2 177.3 175.8 174.1 172.4 170.9 170.8 171.1 172.1 173.7 175.8 178.3 180.5 181.7 184 185.9 186.7 187.7 189.1 191.7 194.7 196.8 196.4 196.4 197.5 197 194.9 192.2
-1.2 -1.2 -1.2 -1.2 -1.2 -1.2 -1.2 -1.2 -1.2 -1.2 -1.2 -1.2 -1.2 -1.2 -1.2 -1.2 -1.2 -1.2 -1.2 -1.2 -1.2 -1.2 -1.2 -1.2 -1.2 -1.2 -1.2 -1.2 -1.2 -1.2 -1.2 -1.2 -1.2 -1.2 -1.2 -1.2 -1.2 -1.2 -1.2 -1.2 -1.2 -1.2 -1.2 -1.2 -1.2 -1.2 -1.2 -1.2 -1.2 -1.2 -1.2 -1.2 -1.2 -1.2 -1.2 -1.2 -1.2 -1.2 -1.2 -1.2 -1.2 -1.2 -1.2 -1.2 -1.2 -1.2 -1.2 -1.2 -1.2 -1.2 -1.2 -1.2 -1.2 -1.2 -1.2 -1.2 -1.2 -1.2 -1.2 -1.2 -1.2 -1.2 -1.2 -1.2 6.5 75.7 94 115.7 124.2 129.8 133.9 127.1 121.8 119 117 116.3 115.8 112.1 109.8 102 95.8 93 91.4 93.8 98.5 101.1 104.7 107.7 109 107.5 106.4 105.8 103.9 99 88.7 76 66.6 76.1 79.2 82.8 88.6 100.6 114.4 126.2 134.7 141 142.2 140.8 137.4 133.3 131.6 134.6 139.2 140.7 141.6 143.2 145.3 146.9 148.3 151.5 153.5 154.2 154.2 154.5 155.6 156.5 157.9 159.3 160.9 162.7 164 165.1 165.7 165 164.3 163.8 164.7 166.2 167.9 169 168.3 165.3 161.7 160.4 160.4 162.2 166.2 170.6 174.3 177.2 178.9 180.3 180.2 179.1 178.2 177 175.4 173.9 173.7 173.6 173.6 174.9 176.2 178.1 180.3 182.9 185.2 186.6 187.6 188.6 189.4 192.1 194.9 197.4 197.9 199.5 201.7 200.7 197.5 194.8
-1.2 -1.2 -1.2 -1.2 -1.2 -1.2 -1.2 -1.2 -1.2 -1.2 -1.2 -1.2 -1.2 -1.2 -1.2 -1.2 -1.2 -1.2 -1.2 -1.2 -1.2 -1.2 -1.2 -1.2 -1.2 -1.2 -1.2 -1.2 -1.2 -1.2 -1.2 -1.2 -1.2 -1.2 -1.2 -1.2 -1.2 -1.2 -1.2 -1.2 -1.2 -1.2 -1.2 -1.2 -1.2 -1.2 -1.2 -1.2 -1.2 -1.2 -1.2 -1.2 -1.2 -1.2 -1.2 -1.2 -1.2 -1.2 -1.2 -1.2 -1.2 -1.2 -1.2 -1.2 -1.2 -1.2 -1.2 -1.2 -1.2 -1.2 -1.2 -1.2 -1.2 -1.2 -1.2 -1.2 -1.2 -1.2 -1.2 -1.2 -1.2 -1.2 -1.2 4.6 33.6 84.7 114.6 125 127.8 127.8 127.7 125.1 122.7 121.4 122.1 123.3 121.6 116.8 108.7 100.2 93.9 90.1 89.5 95.5 100.1 104.7 107.3 108.7 106.2 103.2 100.2 96.2 92.2 87 76.3 65.8 71.8 75.1 78.3 82.9 88.5 98.2 112.2 122.4 133.4 137.8 139.9 140 136.9 133.1 133.2 137.2 141.3 140.9 142.2 144.2 145.6 147.2 148.8 152.7 154.2 154.5 154.3 154.5 156 157.6 159 160.6 162.2 163.5 164.7 165.3 165 164.5 163.8 164.2 165.6 166.9 168.4 169.3 166.8 163.5 161.6 160.4 160.4 162.6 167.9 172.7 175.3 178 180.2 182.2 183.3 181.5 179.5 179.5 178 177 176.6 176.7 176 176.3 177.5 179.7 182 184.4 186 187.5 188.5 189.5 191.2 194.1 197.6 199.6 200.6 203.2 204.8 202.9 199.4 195.3
-1.2 -1.2 -1.2 -1.2 -1.2 -1.2 -1.2 -1.2 -1.2 -1.2 -1.2 -1.2 -1.2 -1.2 -1.2 -1.2 -1.2 -1.2 -1.2 -1.2 -1.2 -1.2 -1.2 -1.2 -1.2 -1.2 -1.2 -1.2 -1.2 -1.2 -1.2 -1.2 -1.2 -1.2 -1.2 -1.2 -1.2 -1.2 -1.2 -1.2 -1.2 -1.2 -1.2 -1.2 -1.2 -1.2 -1.2 -1.2 -1.2 -1.2 -1.2 -1.2 -1.2 -1.2 -1.2 -1.2 -1.2 -1.2 -1.2 -1.2 -1.2 -1.2 -1.2 -1.2 -1.2 -1.2 -1.2 -1.2 -1.2 -1.2 -1.2 -1.2 -1.2 -1.2 -1.2 -1.2 -1.2 -1.2 -1.2 -1.2 -1.2 -1.2 -1.2 53.2 74.7 96.3 113.7 126.3 132.2 132.6 129.1 126.1 125.3 125.8 127.3 126 121.5 115 107.3 99.3 93.5 83 92.6 98.1 103.3 108 109.5 107.4 103 99 93.7 87.9 82.2 78.3 61.2 70.1 76 78 79.1 81.8 89.5 96.1 104.2 116.7 129.4 134.5 137.6 137.6 134.5 132.7 135.2 141.2 141.5 140.5 141.8 143.3 144.9 146.9 149.8 153 153.6 153.6 153.7 154.6 156.6 158.7 160.2 161.8 163.4 164.5 165 164.7 164.3 163.9 163.6 164.7 165.9 167 167.5 167.6 165.3 163.6 162 161.2 161.6 164.1 169.8 174.2 176.9 179.5 182 184 186 184 184.5 185.7 185.8 182.4 181.6 180.3 178.6 178.2 179 181.2 183.7 185.2 186 187.4 188.2 190.1 192.4 196.6 199.9 201.5 203 204.7 204.1 201.3 197.8 194.3
-1.2 -1.2 -1.2 -1.2 -1.2 -1.2 -1.2 -1.2 -1.2 -1.2 -1.2 -1.2 -1.2 -1.2 -1.2 -1.2 -1.2 -1.2 -1.2 -1.2 -1.2 -1.2 -1.2 -1.2 -1.2 -1.2 -1.2 -1.2 -1.2 -1.2 -1.2 -1.2 -1.2 -1.2 -1.2 -1.2 -1.2 -1.2 -1.2 -1.2 -1.2 -1.2 -1.2 -1.2 -1.2 -1.2 -1.2 -1.2 -1.2 -1.2 -1.2 -1.2 -1.2 -1.2 -1.2 -1.2 -1.2 -1.2 -1.2 -1.2 -1.2 -1.2 -1.2 -1.2 -1.2 -1.2 -1.2 -1.2 -1.2 -1.2 -1.2 -1.2 -1.2 -1.2 -1.2 -1.2 -1.2 -1.2 -1.2 -1.2 -1.2 1.3 8 68.9 100.8 117 123.5 126.4 127.2 128.8 130.1 129.9 128.6 126 125.4 123.6 120.5 115.5 108.4 99.2 84.4 90.1 93.9 100.4 104.8 106.9 106 102.5 98.5 92.6 85.2 77.8 72.5 67.7 66.6 73.5 78.9 81.4 83.1 83.6 86.8 92.1 100.6 107.5 116.1 123.7 128.6 130.2 128.9 130.7 135.8 139.9 138.9 137.5 138.3 140.8 143.6 146.9 149.8 152.1 152.5 152.6 153.1 154.2 156.7 159.3 161.5 163.2 164.4 165.2 164.9 164.6 164.3 163.4 163.7 164.6 165.7 166.3 166 165.8 165.6 164.7 163.1 162.4 162.4 165 170.4 173.8 177.5 180.5 183.2 185.8 188.4 186.7 189.5 192.4 190.2 186.2 184.3 182.5 181.2 180.8 180.5 182.6 183.6 184.8 185.4 186.1 186.8 189.5 192.4 197.2 200.1 201.9 203.2 203.5 201.8 199 194.4 191.7
-1.2 -1.2 -1.2 -1.2 -1.2 -1.2 -1.2 -1.2 -1.2 -1.2 -1.2 -1.2 -1.2 -1.2 -1.2 -1.2 -1.2 -1.2 -1.2 -1.2 -1.2 -1.2 -1.2 -1.2 -1.2 -1.2 -1.2 -1.2 -1.2 -1.2 -1.2 -1.2 -1.2 -1.2 -1.2 -1.2 -1.2 -1.2 -1.2 -1.2 -1.2 -1.2 -1.2 -1.2 -1.2 -1.2 -1.2 -1.2 -1.2 -1.2 -1.2 -1.2 -1.2 -1.2 -1.2 -1.2 -1.2 -1.2 -1.2 -1.2 -1.2 -1.2 -1.2 -1.2 -1.2 -1.2 -1.2 -1.2 -1.2 -1.2 -1.2 -1.2 -1.2 -1.2 -1.2 -1.2 -1.2 -1.2 -1.2 -1.2 0.3 45.9 64.9 89.5 117.9 128.7 131.2 129.6 128.6 126.9 129 128.7 124.3 123.6 121.7 120.9 120.7 116.3 106.4 95.9 77.5 86.5 90.1 95.4 98.8 100.1 98.4 95 88.7 81.4 72.9 66.1 63.4 62.8 72.3 78.7 82.9 85.6 88.4 90.8 93.4 95.9 99.8 101.7 98.1 107.5 114.6 114.2 117.8 128.3 132.5 135.3 134.4 134 136.2 139.5 144 146 148.4 149.7 150.6 151.3 152.7 154 157.1 159.4 161.7 163.7 165.3 165.2 164.8 164.4 163.5 162.8 163.7 164.7 165.4 165 165.4 165.9 166.4 167.1 165.3 163.9 164.4 168.1 172.4 174.2 177.8 180.3 182 184.2 186.2 187.1 188.8 189.2 186.9 184.3 182.7 181.1 180.9 181 181.1 181.6 182.5 182.7 183.2 183.8 185.4 188.2 192.1 197 198.4 200.9 202 201.7 199.5 194.7 190.4 187.7
-1.2 -1.2 -1.2 -1.2 -1.2 -1.2 -1.2 -1.2 -1.2 -1.2 -1.2 -1.2 -1.2 -1.2 -1.2 -1.2 -1.2 -1.2 -1.2 -1.2 -1.2 -1.2 -1.2 -1.2 -1.2 -1.2 -1.2 -1.2 -1.2 -1.2 -1.2 -1.2 -1.2 -1.2 -1.2 -1.2 -1.2 -1.2 -1.2 -1.2 -1.2 -1.2 -1.2 -1.2 -1.2 -1.2 -1.2 -1.2 -1.2 -1.2 -1.2 -1.2 -1.2 -1.2 -1.2 -1.2 -1.2 -1.2 -1.2 -1.2 -1.2 -1.2 -1.2 -1.2 -1.2 -1.2 -1.2 -1.2 -1.2 -1.2 -1.2 -1.2 -1.2 -1.2 -1.2 -1.2 -1.2 -1.2 -1.2 -1.2 1.3 55.6 77.7 105.4 127.8 129.7 128.6 126.8 126.9 126.7 126.5 121.9 114.5 112.3 113.6 115.8 116.4 110.7 103.8 93.7 80.5 77.7 83 88.9 92.2 93.4 90.9 84.3 75.4 68.7 64.1 58.2 60.8 68.4 77.5 85.3 90.2 92.3 95.2 102.1 106.1 107.2 110.1 111.1 113.5 121.4 124.6 124.6 126.2 128.2 122 129.7 131.8 132.6 135.4 139.9 142.5 143.9 145.5 146.7 147.7 148.6 150.4 152.8 155.6 158.3 160.7 163.4 164.7 165 164.4 163.5 162.7 163 163.9 164.7 165.2 164 164.6 164.9 167.9 168.8 167.2 166 167.8 171.5 173.7 175.6 178.2 178.9 179.9 180.6 182.2 185.2 187.3 185.3 183.2 181.8 181 180.4 180.2 180.1 180.2 180.5 180.2 180.4 180.7 181.2 183.6 188.6 194.4 195.7 196.2 198.1 198.1 196.8 194 188.7 185.2 184.2
-1.2 -1.2 -1.2 -1.2 -1.2 -1.2 -1.2 -1.2 -1.2 -1.2 -1.2 -1.2 -1.2 -1.2 -1.2 -1.2 -1.2 -1.2 -1.2 -1.2 -1.2 -1.2 -1.2 -1.2 -1.2 -1.2 -1.2 -1.2 -1.2 -1.2 -1.2 -1.2 -1.2 -1.2 -1.2 -1.2 -1.2 -1.2 -1.2 -1.2 -1.2 -1.2 -1.2 -1.2 -1.2 -1.2 -1.2 -1.2 -1.2 -1.2 -1.2 -1.2 -1.2 -1.2 -1.2 -1.2 -1.2 -1.2 -1.2 -1.2 -1.2 -1.2 -1.2 -1.2 -1.2 -1.2 -1.2 -1.2 -1.2 -1.2 -1.2 -1.2 -1.2 -1.2 -1.2 -1.2 -1.2 -1.2 -1.2 13.5 30.5 72.8 101.3 115.8 122.5 123.2 119.6 117.8 117.9 113.3 109.2 103.8 102.7 104.9 107 109.9 110.9 107.5 102.2 93.8 86.4 70.7 77.9 83.8 88.1 87.9 81 72.4 66.5 62.4 56.2 61.2 66.1 74.5 84.5 92.7 99.1 104.4 111.4 114.6 117.1 119.5 120.1 120.2 122 124.8 126 127.2 128.8 130.3 129.2 126.5 130.6 132.8 136.7 140.6 140.9 141.1 142.4 143.7 144.8 146.1 148 150.6 153 155.5 159.1 162.3 163.5 163.6 163.2 162.5 162.1 163.1 164.5 165 164.2 163.1 163.1 165.1 170.4 170 168.3 169.5 172.2 174.7 175.5 177 178.3 178.6 178.7 180 181.1 183.6 184.4 181.2 180.7 180.6 180.2 179.7 179.5 179.2 179.2 178.3 177.1 176.5 177.4 179 183.3 189.8 194.3 192.9 192.4 192.8 192.5 191.3 188 184.2 182.3 181.5
-1.2 -1.2 -1.2 -1.2 -1.2 -1.2 -1.2 -1.2 -1.2 -1.2 -1.2 -1.2 -1.2 -1.2 -1.2 -1.2 -1.2 -1.2 -1.2 -1.2 -1.2 -1.2 -1.2 -1.2 -1.2 -1.2 -1.2 -1.2 -1.2 -1.2 -1.2 -1.2 -1.2 -1.2 -1.2 -1.2 -1.2 -1.2 -1.2 -1.2 -1.2 -1.2 -1.2 -1.2 -1.2 -1.2 -1.2 -1.2 -1.2 -1.2 -1.2 -1.2 -1.2 -1.2 -1.2 -1.2 -1.2 -1.2 -1.2 -1.2 -1.2 -1.2 -1.2 -1.2 -1.2 -1.2 -1.2 -1.2 -1.2 -1.2 -1.2 -1.2 -1.2 -1.2 -1.2 -1.2 -1.2 -1.2 1.4 42.2 76.7 101.3 114 116.1 116.1 113.6 105.9 99.3 96.8 95.2 95.9 97.4 99.2 101.6 104.7 109.7 111.4 107 101.6 94.7 87.8 74.7 72.3 79.9 84.5 79.4 71.8 64.6 60.3 58 57.6 62.5 67.4 78 89.2 99.1 106 112 117.1 119.5 121.2 123.6 126.2 127.7 128.4 127.9 128.7 129.9 130.5 130.4 129.3 127 129.5 132.6 136.8 139.6 139.3 139.1 140.3 141.4 142.7 144 145.8 147.7 149.6 152.9 156.9 159.9 161.9 162.1 162.3 161.6 162.1 163.2 164 163.5 163.1 162.5 163 164.8 167.4 168 169.6 172.5 175.1 177.4 178.1 177.9 178.1 178.4 178.6 180.2 178.8 179.8 180.5 178.2 181.4 181 179.9 179.1 178.9 178.5 177.4 174.9 173.1 172.3 174.2 176.4 182.2 187 188 185.4 184.2 183.8 183.5 182.7 181.7 180.2 178.9 178.4
-1.2 -1.2 -1.2 -1.2 -1.2 -1.2 -1.2 -1.2 -1.2 -1.2 -1.2 -1.2 -1.2 -1.2 -1.2 -1.2 -1.2 -1.2 -1.2 -1.2 -1.2 -1.2 -1.2 -1.2 -1.2 -1.2 -1.2 -1.2 -1.2 -1.2 -1.2 -1.2 -1.2 -1.2 -1.2 -1.2 -1.2 -1.2 -1.2 -1.2 -1.2 -1.2 -1.2 -1.2 -1.2 -1.2 -1.2 -1.2 -1.2 -1.2 -1.2 -1.2 -1.2 -1.2 -1.2 -1.2 -1.2 -1.2 -1.2 -1.2 -1.2 -1.2 -1.2 -1.2 -1.2 -1.2 -1.2 -1.2 -1.2 -1.2 -1.2 -1.2 -1.2 -1.2 -1.2 -1.2 -1.2 0.9 32 53.4 107.2 121.5 120.1 119 117.4 109.8 97.4 94.6 94.3 94.4 94.2 95.8 97.9 100.6 104.2 107.2 106.9 103.5 99.6 94.7 87.5 77.2 62.9 70.4 74.8 69 62.8 56.4 53.7 55.4 59.6 64.1 69.1 80.1 90.9 101.5 108.8 115.4 120.7 123.6 125.3 127.4 130.2 132.2 131.8 130.9 131 131.4 131.8 130.2 128.1 127.7 129.1 131.7 135.4 138.3 138.3 139.3 139.9 141.8 142.8 143.6 144.6 146 148 150.5 155.1 157.7 159.9 161.2 161.7 160.8 161.9 163.3 164.1 163.3 162.9 163 165.9 168.3 168.8 170.3 172.9 175.1 177.6 179.9 180.3 179 178.1 177.6 176 176.1 176.3 177.8 180.3 182.4 183.3 181.5 179.6 178.9 177.8 176.1 173.2 170.4 168.5 167.5 169.5 172.4 178.9 181.9 179.9 176 176.3 178 178.2 178.1 177.7 176 175.3 174.4
-1.2 -1.2 -1.2 -1.2 -1.2 -1.2 -1.2 -1.2 -1.2 -1.2 -1.2 -1.2 -1.2 -1.2 -1.2 -1.2 -1.2 -1.2 -1.2 -1.2 -1.2 -1.2 -1.2 -1.2 -1.2 -1.2 -1.2 -1.2 -1.2 -1.2 -1.2 -1.2 -1.2 -1.2 -1.2 -1.2 -1.2 -1.2 -1.2 -1.2 -1.2 -1.2 -1.2 -1.2 -1.2 -1.2 -1.2 -1.2 -1.2 -1.2 -1.2 -1.2 -1.2 -1.2 -1.2 -1.2 -1.2 -1.2 -1.2 -1.2 -1.2 -1.2 -1.2 -1.2 -1.2 -1.2 -1.2 -1.2 -1.2 -1.2 -1.2 -1.2 -1.2 -1.2 -1.2 -1.2 -1.2 18.5 52.7 75.7 118.3 125.1 117.6 111.2 104 98.1 94.4 93.9 94 94.3 93.7 93.4 94.1 95.2 97.5 100 101.2 99.7 98.3 91.6 81.7 70.7 62.2 61.2 64.2 60.2 54.6 56.2 57.2 57.8 60.1 63.7 69.2 79.2 91.2 102.7 112 119.4 123.7 127 129.4 131.2 133.1 134.4 134.1 133.4 132.4 133.2 133.1 130 127.3 127.6 129.2 133.7 138.2 137.6 138.5 142.9 144.5 144.7 145.4 144.9 144.8 146.3 149.3 153.6 155.6 156.4 158.4 159.3 160 160.5 163.1 165 164.6 164.4 165 167.8 171.2 173.4 172.9 173 176.3 176.7 179.6 181.2 177.5 176.9 176 174.2 172.6 172.8 174.8 178.1 182.9 183.4 182.7 180.3 178.1 176.7 175.3 172.6 168.4 165.5 163.5 163.3 163.2 167.1 172 171.3 170.1 168.6 170.9 172.6 174.2 174.1 173.9 173.5 173.2 173
-1.2 -1.2 -1.2 -1.2 -1.2 -1.2 -1.2 -1.2 -1.2 -1.2 -1.2 -1.2 -1.2 -1.2 -1.2 -1.2 -1.2 -1.2 -1.2 -1.2 -1.2 -1.2 -1.2 -1.2 -1.2 -1.2 -1.2 -1.2 -1.2 -1.2 -1.2 -1.2 -1.2 -1.2 -1.2 -1.2 -1.2 -1.2 -1.2 -1.2 -1.2 -1.2 -1.2 -1.2 -1.2 -1.2 -1.2 -1.2 -1.2 -1.2 -1.2 -1.2 -1.2 -1.2 -1.2 -1.2 -1.2 -1.2 -1.2 -1.2 -1.2 -1.2 -1.2 -1.2 -1.2 -1.2 -1.2 -1.2 -1.2 -1.2 -1.2 -1.2 -1.2 -1.2 -1.2 -1.2 1.1 58.3 89.9 114.7 125 114.4 108.2 102.6 99.5 97.5 95.8 95.2 95.1 95.9 96.5 95.1 88.2 88.5 88.2 89.8 92.1 93.5 93 82 68.8 58.5 55.5 57.3 57.1 53.8 53.3 57.9 57.5 58.8 61 64.9 70 79.4 92.7 106.7 117.3 121.3 124.7 128.8 132 133.2 134.5 135.8 136.2 136.3 135.8 134.9 132.5 128.3 127 127.3 130.1 138 140.4 139.2 142.8 150.1 151.4 150.2 149.1 145.9 145.2 148 152.6 156.4 157.5 157.6 158.3 158.6 159.3 161.4 165 165.9 165.9 166.5 168.2 171.7 174.6 175.2 171.2 171.7 175.3 177 176.5 172.6 171 171.7 171.4 170.5 169.9 171.8 173.7 178.4 181.1 180.9 180.3 179 175.8 172.8 170.4 167.5 163 161.2 160.5 159.6 159.8 162.2 165.2 164.7 162.9 164.6 166.5 169 171.4 172.2 172.5 172.7 172.6 172.3
-1.2 -1.2 -1.2 -1.2 -1.2 -1.2 -1.2 -1.2 -1.2 -1.2 -1.2 -1.2 -1.2 -1.2 -1.2 -1.2 -1.2 -1.2 -1.2 -1.2 -1.2 -1.2 -1.2 -1.2 -1.2 -1.2 -1.2 -1.2 -1.2 -1.2 -1.2 -1.2 -1.2 -1.2 -1.2 -1.2 -1.2 -1.2 -1.2 -1.2 -1.2 -1.2 -1.2 -1.2 -1.2 -1.2 -1.2 -1.2 -1.2 -1.2 -1.2 -1.2 -1.2 -1.2 -1.2 -1.2 -1.2 -1.2 -1.2 -1.2 -1.2 -1.2 -1.2 -1.2 -1.2 -1.2 -1.2 -1.2 -1.2 -1.2 -1.2 -1.2 -1.2 -1.2 0.5 1.4 25.5 56.8 106.3 115.6 112.3 108.4 108 110.5 113.8 107.4 101.3 99.1 98.8 98.8 97.7 95.1 90.2 83.5 80.4 79.2 81.8 81.7 75.9 69.5 60.5 54.3 52.2 52.2 50.9 51.5 54 56.6 56.6 58.7 61.9 65.7 70.4 82 94.3 108 119.5 122.8 125.3 129.7 132.9 133.9 135.5 137.9 140.5 140.8 139.4 138 129.8 127.3 127.2 129.2 137.5 142.5 142.4 142.2 147.8 152.4 153.2 153.1 150.8 145.4 145.5 151.1 155.6 158.5 160.1 159.4 159.3 158.6 159.3 161.9 164.2 164.4 164.7 166.5 169.2 172.2 174.2 172.6 167.6 168.6 172 173.5 169.9 169.3 170 172.1 172.3 170 170.7 169.1 170.5 174.2 175.4 176.4 176 174.7 170.2 166.2 163.9 160.8 156.9 157.9 157.6 156.8 156.7 156.7 157.4 157.6 158.1 161.3 163.3 166.7 169.3 169.9 170.6 171.3 171.1 170.1
-1.2 -1.2 -1.2 -1.2 -1.2 -1.2 -1.2 -1.2 -1.2 -1.2 -1.2 -1.2 -1.2 -1.2 -1.2 -1.2 -1.2 -1.2 -1.2 -1.2 -1.2 -1.2 -1.2 -1.2 -1.2 -1.2 -1.2 -1.2 -1.2 -1.2 -1.2 -1.2 -1.2 -1.2 -1.2 -1.2 -1.2 -1.2 -1.2 -1.2 -1.2 -1.2 -1.2 -1.2 -1.2 -1.2 -1.2 -1.2 -1.2 -1.2 -1.2 -1.2 -1.2 -1.2 -1.2 -1.2 -1.2 -1.2 -1.2 -1.2 -1.2 -1.2 -1.2 -1.2 -1.2 -1.2 -1.2 -1.2 -1.2 -1.2 -1.2 -1.2 -1.2 1.8 23.9 54.5 65.3 77.8 117.1 113.4 111 114.4 122 125.2 122.1 115.2 107.6 104.2 104.3 104.9 102.9 99.2 93.7 88.1 80.5 69.2 70 68 64.3 59.9 55.4 51 49.5 48.3 50.2 52.2 53.7 55.3 57.1 59.9 63.9 69.4 76.5 86.7 98.6 112.5 123.2 125.9 128.6 131.7 132.2 134 137.2 140.4 144.6 143.5 141.5 135.8 129 128.3 129.7 133.2 139.4 144.3 143.4 146.2 152.2 153.2 154.3 154.7 148.5 145.2 146.9 153.4 155.4 159.1 162.4 161.4 159.1 158.7 160.6 164.2 163.3 162.9 163.8 165.9 169 172.6 173.8 170.2 164.8 164.8 166.2 168.3 172 172.4 174.3 176.2 175.3 175.2 173.9 171.1 168.2 165.6 167.3 168.7 170.8 169.5 164.8 159.9 155.7 150.9 152.2 153.5 154.7 155.5 156.1 153.1 149.9 148.1 153.3 158.6 155.4 159.7 165.5 165 167.1 167.5 167.8 166.7
-1.2 -1.2 -1.2 -1.2 -1.2 -1.2 -1.2 -1.2 -1.2 -1.2 -1.2 -1.2 -1.2 -1.2 -1.2 -1.2 -1.2 -1.2 -1.2 -1.2 -1.2 -1.2 -1.2 -1.2 -1.2 -1.2 -1.2 -1.2 -1.2 -1.2 -1.2 -1.2 -1.2 -1.2 -1.2 -1.2 -1.2 -1.2 -1.2 -1.2 -1.2 -1.2 -1.2 -1.2 -1.2 -1.2 -1.2 -1.2 -1.2 -1.2 -1.2 -1.2 -1.2 -1.2 -1.2 -1.2 -1.2 -1.2 -1.2 -1.2 -1.2 -1.2 -1.2 -1.2 -1.2 -1.2 -1.2 -1.2 -1.2 -1.2 -1.2 -1.2 2.5 50.9 66.6 82.8 98.6 113.5 110.9 111.5 119.1 123.1 124.8 127.9 128.2 121 113.6 111.9 112.2 113.1 111.5 106.5 102.5 95.8 84.1 67.3 62.8 61.7 58.5 54.5 50.2 48 45.7 48.6 52.4 54.1 55.8 58.6 61.8 65.8 70.8 79.7 89.3 97.5 107.6 120.7 126.1 128.6 131.4 132.7 129.9 134.3 138.4 144 147 144.4 139.2 132.7 132.2 132.6 137 140.4 141.8 142.8 145.5 148.5 151 156 155.8 152.8 147.9 146.1 148.7 151.6 154.3 159.5 163.2 161.6 159.3 160.1 164.9 164.9 163.5 162.4 163.6 166 170.8 175 174.1 163.1 161.8 163.4 167.6 172.6 175.2 176.5 177.2 176.9 176.4 177.2 175.4 172.7 171.2 163.4 160.3 160 163.3 165.5 159.8 153.3 144.1 141.8 148 152.2 151.4 152.2 147.7 138 134.9 138.8 145.2 147.5 143.2 146.3 150.1 155.4 161.7 160.5 160.1 164
-1.2 -1.2 -1.2 -1.2 -1.2 -1.2 -1.2 -1.2 -1.2 -1.2 -1.2 -1.2 -1.2 -1.2 -1.2 -1.2 -1.2 -1.2 -1.2 -1.2 -1.2 -1.2 -1.2 -1.2 -1.2 -1.2 -1.2 -1.2 -1.2 -1.2 -1.2 -1.2 -1.2 -1.2 -1.2 -1.2 -1.2 -1.2 -1.2 -1.2 -1.2 -1.2 -1.2 -1.2 -1.2 -1.2 -1.2 -1.2 -1.2 -1.2 -1.2 -1.2 -1.2 -1.2 -1.2 -1.2 -1.2 -1.2 -1.2 -1.2 -1.2 -1.2 -1.2 -1.2 -1.2 -1.2 -1.2 -1.2 -1.2 -1.2 -1.2 4.1 56.3 67.8 82.6 98.9 105.4 104.9 111.1 122.9 125 124.3 123.5 123.9 122.3 119 116.5 115 115.3 116.8 116.3 114.9 114.3 106.8 80.6 65.3 58.8 57.5 53.8 49.6 47 47.1 49.4 50.1 54.5 60.1 61.9 65.1 67.7 72.8 81.1 91.6 99.8 110.6 120.7 126 128.6 130.9 132.4 132.4 132 134 139.6 147.6 145.3 142.4 133.8 134 136.1 138.6 145.5 146.8 146.6 147.1 147 150.1 156.2 157.2 153.3 149.8 147.8 148.7 151.7 151.8 155.4 160 165.9 160.6 159.8 162.5 166.7 165.2 163.7 162.9 165.7 168.7 170.8 174.1 163.3 160.8 160.8 165.1 171 171.5 173.7 176.1 175.9 176.2 178.1 178.3 175 172.8 168.9 161.6 143.6 154 157 156.2 143.2 132 130.4 142.2 133.5 129.5 127.7 124.2 118 115 117.3 125.1 132.8 133.7 133.6 134.5 133 138.3 147.8 148.6 146.6 148.4
-1.2 -1.2 -1.2 -1.2 -1.2 -1.2 -1.2 -1.2 -1.2 -1.2 -1.2 -1.2 -1.2 -1.2 -1.2 -1.2 -1.2 -1.2 -1.2 -1.2 -1.2 -1.2 -1.2 -1.2 -1.2 -1.2 -1.2 -1.2 -1.2 -1.2 -1.2 -1.2 -1.2 -1.2 -1.2 -1.2 -1.2 -1.2 -1.2 -1.2 -1.2 -1.2 -1.2 -1.2 -1.2 -1.2 -1.2 -1.2 -1.2 -1.2 -1.2 -1.2 -1.2 -1.2 -1.2 -1.2 -1.2 -1.2 -1.2 -1.2 -1.2 -1.2 -1.2 -1.2 -1.2 -1.2 -1.2 -1.2 -1.2 -1.2 21.7 60.4 75.3 86.9 96.1 98.7 94.6 99.6 112.9 119.4 119.4 118.7 118.5 118.9 118.3 117 116.2 114.9 116 117.1 116.8 117.9 114.7 98.4 71.9 63.4 56 51.3 49.1 45.6 45.8 50.8 59.9 70 65.8 63.9 65.2 67.9 71.8 78.6 88.9 98.7 106.7 118.6 125.8 129.1 130.8 131.4 130.6 129.9 129.5 131.3 137.8 141.8 139.9 136.5 132.1 133.7 136.4 141.9 147.5 148.2 146.3 147.2 149.1 154 158.2 155 151 148.8 149.8 152.4 152.6 153.5 158.4 161.1 161.2 157.9 160.2 164.8 164.1 163.7 162 162 167.3 170.5 167 160.5 157.5 158.9 160.5 163.4 166.5 169.3 172.5 175 173.4 174.9 178.3 176.1 173.3 170.7 164.4 149.4 131.9 144.5 140 127.2 116.9 111.4 111.4 113.6 112 106.5 108 108.9 114.9 114.6 113.6 115.2 117.4 118.6 120.1 120.5 119.5 119 123.7 129 129 126.7
-1.2 -1.2 -1.2 -1.2 -1.2 -1.2 -1.2 -1.2 -1.2 -1.2 -1.2 -1.2 -1.2 -1.2 -1.2 -1.2 -1.2 -1.2 -1.2 -1.2 -1.2 -1.2 -1.2 -1.2 -1.2 -1.2 -1.2 -1.2 -1.2 -1.2 -1.2 -1.2 -1.2 -1.2 -1.2 -1.2 -1.2 -1.2 -1.2 -1.2 -1.2 -1.2 -1.2 -1.2 -1.2 -1.2 -1.2 -1.2 -1.2 -1.2 -1.2 -1.2 -1.2 -1.2 -1.2 -1.2 -1.2 -1.2 -1.2 -1.2 -1.2 -1.2 -1.2 -1.2 -1.2 -1.2 -1.2 -1.2 -1.2 -1.2 8.9 63.4 80.5 92.5 90.5 85 87 99.4 106.3 110.6 113.6 113.6 115.6 116.1 116.4 117.2 116.8 114.4 116.4 118.5 118.5 116.8 106.9 88.7 67 60.3 52.4 47.1 45.9 44.2 41.1 54.4 65.5 64.7 62.8 63.4 66.6 70.9 75.8 84 93.6 101.8 111.7 122.6 129.2 131.5 132.6 129.5 127 126.1 128.1 133.1 134.3 134.3 134 132.9 132.8 135.2 138.5 143.6 147.5 147.8 146.4 148 151.7 155.3 155.1 152.7 150.6 148.7 151.8 152.6 152.5 156.3 160.5 159.1 157.5 157 159.4 162.7 159.5 158.8 159.3 157.9 158.9 162 157.1 156.4 159.3 162.3 161.2 162 163 165.9 172.1 172 170.6 173.8 177.7 173.6 170.3 162 147.6 137.4 116.4 130.3 112.6 105.1 102.9 108.5 111.3 113.8 121.6 129.4 136.7 142.6 143.5 141.9 139.1 132.1 124.9 114.3 115.9 116.8 115.7 118.7 120 117.6 120.1 120.1
-1.2 -1.2 -1.2 -1.2 -1.2 -1.2 -1.2 -1.2 -1.2 -1.2 -1.2 -1.2 -1.2 -1.2 -1.2 -1.2 -1.2 -1.2 -1.2 -1.2 -1.2 -1.2 -1.2 -1.2 -1.2 -1.2 -1.2 -1.2 -1.2 -1.2 -1.2 -1.2 -1.2 -1.2 -1.2 -1.2 -1.2 -1.2 -1.2 -1.2 -1.2 -1.2 -1.2 -1.2 -1.2 -1.2 -1.2 -1.2 -1.2 -1.2 -1.2 -1.2 -1.2 -1.2 -1.2 -1.2 -1.2 -1.2 -1.2 -1.2 -1.2 -1.2 -1.2 -1.2 -1.2 -1.2 -1.2 -1.2 -1.2 -1.2 21.2 70.7 80.2 81.5 77.1 77.5 92.6 102.8 107.9 111.7 113.9 114.8 115.4 116.5 115.8 115 113.9 113.8 117.5 121.6 123.5 117.6 102.1 82.8 62.5 56 51.3 45.8 43.6 43.2 46.4 55.3 61 59.9 60.9 64.7 68.2 73.1 81.5 89.8 97.5 103.9 114.9 125.4 131.6 133.5 131.1 127 123.9 124.6 128.8 132 134.1 132.9 133.3 135.7 136 139.7 141 145.9 148.8 146.9 146.2 148.7 152.8 152 152.2 148.5 148.1 149.1 151.3 151.7 154.2 159.5 160.8 159.5 157.5 157 156.3 154.8 155.4 156.4 156.5 154.9 152.4 152.6 153.7 155.4 160.5 162.1 160.7 160.6 160.7 162.9 170.5 167.1 164.3 172.7 167.1 158.1 145.3 131.5 120.8 113.5 111.1 118.5 104 105.1 115 135.7 142.3 145.9 147.7 152.2 157.6 156.7 151.9 149.7 148.3 145.8 141.7 137.3 125.6 124.9 129.1 131.5 131.9 122 122.2 121.9
-1.2 -1.2 -1.2 -1.2 -1.2 -1.2 -1.2 -1.2 -1.2 -1.2 -1.2 -1.2 -1.2 -1.2 -1.2 -1.2 -1.2 -1.2 -1.2 -1.2 -1.2 -1.2 -1.2 -1.2 -1.2 -1.2 -1.2 -1.2 -1.2 -1.2 -1.2 -1.2 -1.2 -1.2 -1.2 -1.2 -1.2 -1.2 -1.2 -1.2 -1.2 -1.2 -1.2 -1.2 -1.2 -1.2 -1.2 -1.2 -1.2 -1.2 -1.2 -1.2 -1.2 -1.2 -1.2 -1.2 -1.2 -1.2 -1.2 -1.2 -1.2 -1.2 -1.2 -1.2 -1.2 -1.2 -1.2 -1.2 -1.2 4.6 55.9 67.5 64.5 63.1 65.8 80.7 95.3 101.3 106.2 113 118.8 118.9 118.6 116.9 115.2 113.5 111.9 113.3 118.4 121.9 122.1 112.6 97.9 77.2 57.5 54.1 47.1 43.5 38.4 42.1 46.3 53.9 55.7 57.2 60.8 65.6 70.9 77.3 87.2 96.7 103.7 107.7 116.5 124.8 129.7 130.7 128.1 124.5 121.3 125.6 137.1 137.6 134.8 135.3 141.8 144.1 145.6 145.6 144.3 147.2 147.8 145.1 145.5 149.4 151.1 148.8 148 147.3 148.4 149.3 150 154 160.3 159.9 159.7 155.9 157.5 157.4 154.9 154.9 156.5 155.9 154 152 149.1 148.8 150.1 153.8 160.4 159.8 157.4 156.4 154.1 153.5 145.6 141.6 141.2 136.1 129.2 123.3 112.7 102.4 100.2 101.7 104.2 104.5 102.4 111.2 137.4 140.5 143.4 146.7 150.3 156.2 164 160.9 157.5 155.8 153.6 151.3 146.5 142.6 138.4 136.4 135.4 133.8 131.7 122.2 124.4 124.3
-1.2 -1.2 -1.2 -1.2 -1.2 -1.2 -1.2 -1.2 -1.2 -1.2 -1.2 -1.2 -1.2 -1.2 -1.2 -1.2 -1.2 -1.2 -1.2 -1.2 -1.2 -1.2 -1.2 -1.2 -1.2 -1.2 -1.2 -1.2 -1.2 -1.2 -1.2 -1.2 -1.2 -1.2 -1.2 -1.2 -1.2 -1.2 -1.2 -1.2 -1.2 -1.2 -1.2 -1.2 -1.2 -1.2 -1.2 -1.2 -1.2 -1.2 -1.2 -1.2 -1.2 -1.2 -1.2 -1.2 -1.2 -1.2 -1.2 -1.2 -1.2 -1.2 -1.2 -1.2 -1.2 -1.2 -1.2 -1.2 0.8 32.4 52.3 51.2 48.8 63.5 79.2 91.2 98.9 102.3 107 112.3 116.7 118.3 115.7 114.9 113.1 111.2 110.1 113.5 115.3 112.2 107.9 101.1 88.4 63.2 53.7 48.2 43.8 41.9 40.7 42.6 45 49.4 53 56.6 62.3 68.9 76.5 83.7 94.6 104.1 108.7 110.9 116.1 122.5 127.8 128.8 125.3 121.2 120.6 134.3 140.9 139.6 136.8 139.1 146.1 148.4 150.2 147.3 145.3 144.6 144.3 143.5 145.2 148.9 149.5 147.2 146.8 149.1 149.5 149.8 152.2 160.4 159.2 157.3 153.5 153 156.4 154.5 154 155.7 155.8 151.9 147.6 145.6 135.2 121.3 144.5 148.7 149.7 145.2 145.6 137.9 129.4 121 108.1 102.8 101.4 96.6 97.9 97 100.8 101.6 107.4 112.8 107.5 107.3 113.3 121.5 136.1 140.1 143.1 146.3 149.9 155.2 159.1 158 157.8 159.5 157.7 154.6 150.6 146.8 143.6 140.3 138.9 136.7 131.1 123.1 131 131.4
-1.2 -1.2 -1.2 -1.2 -1.2 -1.2 -1.2 -1.2 -1.2 -1.2 -1.2 -1.2 -1.2 -1.2 -1.2 -1.2 -1.2 -1.2 -1.2 -1.2 -1.2 -1.2 -1.2 -1.2 -1.2 -1.2 -1.2 -1.2 -1.2 -1.2 -1.2 -1.2 -1.2 -1.2 -1.2 -1.2 -1.2 -1.2 -1.2 -1.2 -1.2 -1.2 -1.2 -1.2 -1.2 -1.2 -1.2 -1.2 -1.2 -1.2 -1.2 -1.2 -1.2 -1.2 -1.2 -1.2 -1.2 -1.2 -1.2 -1.2 -1.2 -1.2 -1.2 -1.2 -1.2 -1.2 -1.2 -1.2 6.7 37.1 39.7 42.5 59.3 77.6 87 96.3 101.2 105.9 108.8 111.2 113.5 114.4 111.1 108.8 107 105.7 106.1 104.6 102.4 98.3 91.2 82.4 69 53.2 48.9 43.9 41.4 37.9 39.9 42.5 45.6 49 50.1 56.8 70.5 77.9 81.2 88.9 99.1 107.3 111.9 114.3 116.6 121 127 123.1 118.9 117.6 119.9 136.1 143 139 137.2 139.9 145.4 148.6 147.7 146 146 144.5 143.1 143.4 146 147.7 146.7 146.3 149 150.3 148.9 150.9 157.4 158.1 156.8 154 149.8 152.6 153.8 151.4 152.4 152 138.3 129.2 124.5 118.8 117.1 107 114.6 118.1 114.1 110.5 109.1 104.6 93.4 91.9 90.9 96.1 101.5 103.3 106.4 119.4 124.4 121.3 118 125.6 128.9 129 130.3 133.5 136.3 139.7 142.7 145.6 147.7 150.6 151.9 153.4 155.4 157.4 157.2 154.6 151.6 148.2 146.4 144 143.5 143.6 136.8 129.6 138.7 138.3
-1.2 -1.2 -1.2 -1.2 -1.2 -1.2 -1.2 -1.2 -1.2 -1.2 -1.2 -1.2 -1.2 -1.2 -1.2 -1.2 -1.2 -1.2 -1.2 -1.2 -1.2 -1.2 -1.2 -1.2 -1.2 -1.2 -1.2 -1.2 -1.2 -1.2 -1.2 -1.2 -1.2 -1.2 -1.2 -1.2 -1.2 -1.2 -1.2 -1.2 -1.2 -1.2 -1.2 -1.2 -1.2 -1.2 -1.2 -1.2 -1.2 -1.2 -1.2 -1.2 -1.2 -1.2 -1.2 -1.2 -1.2 -1.2 -1.2 -1.2 -1.2 -1.2 -1.2 -1.2 -1.2 -1.2 -1.2 -1.2 27.5 30.9 39.1 46.7 58 69.9 82.7 90.9 98.3 104.8 109.8 112.6 113.1 112.2 107.6 102.9 100.7 99.2 97.3 95.2 91.4 87.1 77.1 64.9 52.2 46.7 44.3 40 36 39.3 41.6 44.9 47.9 50.6 53.3 56.6 64.6 69 77.4 87.2 97.1 106.2 114.1 113.9 115.2 117.9 118.4 115.8 114.2 114.7 127.8 141.5 141.1 135.7 134.6 136.5 141 144.5 144 145.5 145.9 144.7 143.2 145.3 147.6 146.2 145.4 147.2 148.4 147 145 148.6 153.7 152 150.6 147.7 138.6 142.5 141.8 136.1 142.7 121.7 100.3 88.6 96.1 92.5 90 89.8 88.4 92.1 89.5 90.8 90.3 91.6 91.8 104.7 115.2 133 134.8 134.2 134.1 138.4 139.3 138.7 139.3 140.1 138.6 137.6 136.2 135.7 137.2 140.1 142.2 144.8 146.7 148.2 149.9 150.9 151.6 153 152.8 151 149.7 147.9 146.1 145 145.7 145.3 139.9 132.4 142.6 146.8
-1.2 -1.2 -1.2 -1.2 -1.2 -1.2 -1.2 -1.2 -1.2 -1.2 -1.2 -1.2 -1.2 -1.2 -1.2 -1.2 -1.2 -1.2 -1.2 -1.2 -1.2 -1.2 -1.2 -1.2 -1.2 -1.2 -1.2 -1.2 -1.2 -1.2 -1.2 -1.2 -1.2 -1.2 -1.2 -1.2 -1.2 -1.2 -1.2 -1.2 -1.2 -1.2 -1.2 -1.2 -1.2 -1.2 -1.2 -1.2 -1.2 -1.2 -1.2 -1.2 -1.2 -1.2 -1.2 -1.2 -1.2 -1.2 -1.2 -1.2 -1.2 -1.2 -1.2 -1.2 -1.2 -1.2 -1.2 14.2 30.8 43.7 55.8 66.9 75.6 80.9 86.7 91.7 97.6 105.2 111.4 115.5 116.2 112.3 105.9 100.2 97 94.5 91.9 89.1 85 73.5 60.9 49.9 43 40.2 37.7 36.3 38.3 40.7 44.1 48.1 51.2 55.8 60 64.7 67.7 70 72 83.1 96.5 106.3 107.6 106.6 108.3 109.6 109.1 108.9 110.3 115.6 132.6 141.3 136.1 131.1 131 132.8 135.5 138.8 142.4 144.6 145.1 144.8 144.6 146.8 147.7 145.3 144.4 146.2 141 128.4 124.1 126.8 122.5 113.8 116 114.3 107.4 105.7 108.3 108.7 102.1 88.6 83.6 83.3 88.6 85.1 83.7 86.6 84.6 87.4 92.2 97.7 94.5 95.8 105 133.3 137.6 141.6 139.8 139.1 143.5 150.7 155.1 157.2 154 148.8 144.6 141.8 139.4 139.5 140.6 141.8 143.5 145.2 145.9 147.2 148.4 149.2 148.3 148 148.1 148.1 146.9 145.8 145 144.6 144.9 145.1 136.4 137.3 147.3 156.5
-1.2 -1.2 -1.2 -1.2 -1.2 -1.2 -1.2 -1.2 -1.2 -1.2 -1.2 -1.2 -1.2 -1.2 -1.2 -1.2 -1.2 -1.2 -1.2 -1.2 -1.2 -1.2 -1.2 -1.2 -1.2 -1.2 -1.2 -1.2 -1.2 -1.2 -1.2 -1.2 -1.2 -1.2 -1.2 -1.2 -1.2 -1.2 -1.2 -1.2 -1.2 -1.2 -1.2 -1.2 -1.2 -1.2 -1.2 -1.2 -1.2 -1.2 -1.2 -1.2 -1.2 -1.2 -1.2 -1.2 -1.2 -1.2 -1.2 -1.2 -1.2 -1.2 -1.2 -1.2 -1.2 -1.2 -1.2 28.3 43.7 57.6 68.5 78.4 87.7 92.3 94.3 95.9 98.9 105.3 111.6 114.4 115 111.2 105.1 98.5 94.9 92.1 87.9 83 71.8 59.6 47.1 40.1 37.1 36.1 36 36.2 38.6 41.9 46.5 50.9 57.8 63.7 68.8 73.6 77 80.3 81.7 82.1 94 99.9 98.6 99.3 100.4 102.5 103.6 104.4 111.9 124.6 134.4 135.4 131.5 127.9 128.1 130.8 134.1 138.4 142.3 144.3 145.7 144.7 143.9 144 144.8 142.6 141 127 110.9 98.9 94.5 93.7 93.1 89.7 88.9 77.6 78.6 79 80.3 79.4 80.6 80.6 85.9 105.2 113.1 113.8 115 119.2 121.2 126.5 133.1 136.7 121.3 109 117.3 134.9 139.5 141.7 141 142.2 150 157.8 165 162.1 157.8 154.8 151.5 149.9 147.3 145.1 144 144.4 145.5 146.5 147.5 147.9 147.1 146.7 145.6 144.7 145.7 146.1 144.9 143.6 143.8 144.3 144.9 145.2 136 144.2 152.2 160.1
