ncols 200
nrows 83
xllcorner 360000
yllcorner 272250
cellsize 50
416.9 413.9 412.6 411.2 412.5 413 413.6 414.1 414.6 413.9 413.3 413.7 411.6 409.2 407 405.3 404.4 404.4 405.1 403.4 402.5 401.2 397.9 393.4 387.2 379.6 368.3 361 356.3 348.8 345.5 341.2 335.2 325.8 319.5 313.9 308.5 304.4 300.4 295.7 291.6 287.8 283 278.1 273 268.4 264 260 256.3 253.9 251.2 246.1 241.3 240.8 240.3 239.6 237.9 234.7 230.7 226.8 223.3 219.9 217 214.1 210.5 207.2 202.8 196.8 191.2 185.7 180.7 175.6 170.3 166.9 162.4 162.8 163.3 160.4 160.4 164 168.2 173.4 178.6 183.9 188.8 191.2 193 195.3 196.3 196.8 196.3 195.6 195.7 197.9 201 203.9 206.1 207.4 208.6 209.4 209.5 208.9 207.8 205.2 202.3 203.6 205.8 205.7 205 202.7 200.3 198 196 194 191.3 187.8 184.2 180.9 177.6 175.1 172.5 171.2 169.7 165.3 159.2 156.7 156.4 154.8 151.9 148.5 143.5 137.8 133.6 130.5 128.3 126.6 124.4 125.4 123.2 120.7 118.8 116.6 118.4 123.8 122.7 119.1 113.8 109.7 100.1 103.4 110.8 108.1 106.2 102.6 100.8 100.4 101 96.2 100.6 107.5 106.6 108.9 116.7 126.7 136.5 141.3 143.3 141.7 138.8 138.2 140.5 145.1 149 150.6 151.7 152.1 153.3 154.5 154.5 154.1 153.5 151.3 148.6 144 140.2 139.6 137.8 133.7 131.7 130.4 132.4 129.8 125.2 121.3 117.9 114.9 114.3 111.6 111.3 113
413.9 409.8 406.9 406.6 408 409.5 410.4 411.3 412 411.9 411.4 410.4 408.7 407 405 403.3 402.4 401.3 402.1 399.4 397.8 395.6 391.4 384.6 378.2 371.2 362 353.3 349.3 345.6 341.7 336.3 330.5 323.1 317 311.5 306.9 302.8 298.4 293 288.8 285.5 280.9 276 270.6 266.2 261.5 256.7 252.1 247.8 243.7 239.6 235.4 234.5 234 233.5 232.5 230.8 228.4 224.9 221.1 217.2 213.7 210.5 207.4 204.8 201.6 196.6 191.5 186.4 181.1 176 170.2 166.1 161.8 159.1 160.3 157.7 160.6 168.5 174.3 178.9 184.4 188.5 192.6 195.1 196.3 197.2 197.8 198.2 197.8 198.1 198 199.3 201.5 203.3 205.6 207.8 210 210.9 211.6 210.7 210 208.8 206.8 206.3 208.1 207.6 206.3 204.9 203 200.9 199.1 196.6 193.2 190.2 186.3 182.8 179.3 176.9 175.1 173.6 170.6 164.9 163.1 161.7 159.3 156.4 153.8 150.5 145.4 142.1 139.2 137 136.1 133.2 130.4 128.9 127.5 127.7 128.1 119.1 122.5 131.7 132.6 129.6 123.4 115.7 101 102.2 103.2 103.2 101.7 99.5 104.7 107 107.2 106.3 102.6 98.7 99.3 102.7 107.9 121.1 135.5 140.1 140.7 139.7 136.9 138.1 142.3 146.2 149.6 151.8 153.5 154 154 154.9 155.2 154.9 154.4 152.9 150.9 147.9 143.5 139.3 135.9 132.8 126.8 124.6 126.7 124.2 120.5 117.7 115.1 113 113.1 114.5 116.8 119.8
413.6 407.1 402.3 402.5 403.5 406.5 409.8 408.9 409.4 409.3 409.3 409.2 407.2 405.5 403.6 401.5 399.3 398.1 396.2 394.5 391.2 386.5 380 374.2 368.7 362.6 355.9 347.1 344.9 341.3 335.9 331.1 325.7 320.3 314.6 311 305.9 301.7 297.1 291.6 287.3 283.3 278.7 273.7 267.8 263.5 258.8 253.9 249.1 244.7 240.8 236.7 231.8 229.2 227.8 227.2 226.6 225.2 224.9 222.8 219.1 215.1 210.6 207.2 203.9 202 198.5 194.4 189.1 184.7 179.5 174.6 169.7 164.8 160.5 156.9 156 155.3 163.3 172.6 179.1 183.7 187 189.8 193.5 196.1 197.7 198.5 199.4 200 201.1 200.9 199.1 200.2 201.7 203.4 205.3 207.6 210 211.5 212.8 213 211.9 210.5 208.8 209 209.4 209.4 208.4 207.2 205.4 203.4 201.2 198.1 194.7 191.3 188.1 184.7 181.4 179.6 176.7 173.5 169.5 166.3 165.6 163.7 160.3 157.5 154.7 152.3 148.7 145.6 143.8 144.5 145 144.4 140.2 135.8 130.8 125.7 123.4 122.9 127.5 132.5 135.1 135.6 132.9 124.4 111.9 99.5 99.2 103.8 112.4 113.1 114 113.9 113.8 113.6 110.5 106.7 101.1 97.9 99.1 109.6 125.8 136 137.2 135.7 135 139 143 147 150.5 152.7 154.6 155.7 155.6 155.7 155.6 154.9 153.9 152.6 150.9 149 146.1 143.3 139.8 136.1 130.3 124.3 123.1 121.3 118.6 118.7 116.1 114.5 115.8 118.4 123.1 126.9
413.8 407.9 398 398.2 400.1 402.2 405.2 406.3 407.3 407.5 408.5 409 406.1 404.1 402.2 400.1 397.7 393.8 391.1 391.9 387.2 375.2 371.3 367.1 362.2 355.7 348.3 343.1 341.4 336.9 331.3 326 321.8 316.6 312.4 309.2 305.3 300.6 295.8 291.1 286.5 281.7 277.1 271.5 265.8 260.5 256 250.4 245.3 241.8 238 232.7 228.2 223.8 221.4 220.6 219.9 220.6 221 219.4 216.1 212.2 207.3 203.1 201.6 199.1 195.3 191.2 186.7 182.3 177.9 172.7 167.7 163.2 159.6 156.2 153.8 157.9 166.5 176 181.1 183.1 185 188.4 191.8 194.7 197.1 198.9 200.8 202 203.1 203.6 203.5 203.5 204.1 204.7 206.1 208 210.2 211.9 213.1 213.4 212.8 211.6 210.5 210.8 211.2 211.2 210.5 209.1 206.7 204.4 201.5 198.6 195.9 192.6 189.5 186.4 183.7 180.8 177.9 175.1 170.8 167.1 166.1 163.6 160.3 157.7 155.2 153.4 151.3 149.4 148.9 148.9 148.4 146.5 142.7 136.5 128 124.5 128.7 132.2 137.1 140.7 139.8 138.4 137 133.2 130.1 127.3 126.2 124.7 122.6 120.8 120.3 120.3 119.1 116.8 112 107.6 106.6 102.9 99.3 103.1 120.9 131.6 133.5 132.5 134.3 139.1 143.7 147.9 151.3 154.1 155.5 156.1 156.3 156 155.2 154.5 153.2 151.8 150 148.3 146.7 145 141.7 137.7 132 126 125.3 124.6 123.6 121.5 117.5 117.7 120.1 124.8 128.8 129.9
412.7 404.6 394 394.2 395.7 397.8 400.8 403.2 404.5 405.5 406.1 405.2 403.6 402.5 400.3 397.4 394.4 390.3 385.4 379.1 373.9 368.3 363.4 359.4 353.4 347.4 343.5 340.1 336.9 331.5 326.5 322.6 317.6 312.7 309.8 306.8 303.1 299.3 295.3 290.8 286 280.3 275.4 270 263 257.1 252.1 246.1 241.9 237.9 233.3 228.6 224.8 220.7 214.4 213.4 213.7 214.5 215.6 214.5 211.8 207.9 203 199.2 198.6 196.3 192.4 188.4 184.5 180.3 176.1 171.4 165.9 161.5 158.5 154.5 152.4 161 170.2 177.1 177.3 179.6 183.9 185.7 189.1 191.9 194.8 197.4 200.1 202.8 204 204.6 204.6 204.4 205.3 206.4 207.3 208.5 210.4 212.4 213.7 213.7 213.9 213.5 212.7 212.9 213.2 212.5 211.3 210.1 207.7 205 202.3 199.6 196.8 194.1 191.7 188.3 185.2 182.9 179.9 176.2 172.2 168.3 165.5 162.8 158.9 155.1 153.5 152.4 151.7 150.4 149.3 148.5 146.9 144 140.4 132.1 134.8 138.9 140.4 142.6 146.2 145.6 144.1 142 140.2 136.6 134.4 132 130.2 127.3 124.8 123.5 122.1 121.2 119.7 117.5 112.4 108.8 107.9 103.3 99.8 99.2 117.9 128.5 129.6 131.2 134.6 138.5 144.2 148.6 151.5 154.4 155.5 155.9 156.3 155.5 154.8 154.1 152.9 150.9 149 147 145.2 143.6 140.6 135.7 130.2 128 131.4 129.6 127.2 122.8 119.2 122 125.1 129.5 131.3 131.9
410.6 405.1 389.6 389.5 391 394.8 398.7 401.3 402.7 403.3 403.4 402.2 400 398.2 395.6 392.3 388.6 383.8 375 369.5 366.1 361.9 355.9 350.7 345.4 341.3 337.9 334.9 330.5 325.7 321.6 317.5 313.2 308.7 305.8 303.5 301 297.5 293.8 289.7 285.9 280.4 274.5 268.3 261.5 254.9 248.9 242.8 238.3 234.3 229.4 224.5 218.9 215.7 210 207.2 207.5 208.8 210.2 208.7 206.1 202.9 198.3 194.4 194.5 192.6 189.2 186.7 183.6 180.2 176.6 172 164.6 159.6 156.3 150.3 148.5 163.5 168.2 171.6 174.5 182.1 188 190.2 190.8 190.7 192.3 195.2 198.6 201.5 203.3 203.6 203.3 202.3 205.7 207.1 208.2 209.4 210.9 212.6 214.4 214.5 214.9 215.3 214.9 215 214.5 213.6 212.3 210.8 208 205.2 202.4 199.7 196.8 193.8 190.9 188.4 186 183.2 180.4 176.9 173.2 169.3 165 160.4 155.9 152.8 151.2 150.3 150.5 149.6 148.3 147 145.1 142.6 137.4 132.5 141 143.2 145.5 147.3 148.7 147.9 146.2 144.8 142.9 139.5 135.6 131.6 129.3 126.7 124.1 122.6 121.4 120.1 118.5 115.2 110.8 106.4 103.3 100.9 97.8 104.8 118.1 124.8 127.3 130.4 134.1 137.1 142.1 147.2 150 152.3 154.3 154.8 155.2 154.9 154.1 153.4 152.6 150.3 147.9 145.6 143.8 140.8 137.7 132.2 128.9 132.6 134.9 131.8 127.6 122.6 122.4 125.7 129.6 131.4 132.1 132
402.3 392.2 384.4 384 388.4 393 396.3 401.4 401.6 401 400.9 399.2 393.3 388.9 384.9 381.5 377.3 371.5 366.7 364.2 359.6 355.1 349 342.8 338.5 335.5 332.4 328.9 325.3 321.1 317 312.7 309.1 305.3 302.2 299.6 297.3 295.5 291.7 288.7 285.1 280.5 275 269.6 263.2 256.6 249.7 243 235.8 230.7 225.3 220.2 215.4 210 205.4 201.1 200.6 201.9 203 201.6 199.6 196.5 191.7 189.2 190.6 186.4 183.9 184.8 182.7 180.5 176 170.2 163.5 158.1 154.2 145.8 158.1 161.9 165.3 168.9 175 182.8 187.7 192 193.8 194.3 194.2 194.2 197 199.5 201.4 202.5 202.3 202.8 205.2 206.9 208.7 210.3 211.9 213.4 214.9 215.6 216.1 216.5 217 216.2 215.7 214.7 212.9 210.6 207.9 205.1 202.3 199.4 196.3 193.3 190.4 187.5 184.9 182.4 179.6 176.9 172.7 167.8 163.7 159.6 155.5 151.7 149 147.9 148.4 148.3 147.3 145.4 143.4 140.1 134.5 139.6 145.7 145.9 147.8 149.7 149.9 148.7 147.3 145.9 143.5 140.3 136.2 132.4 129.2 125.4 122.6 120.6 119.2 117.4 115.9 110.2 100.8 98.3 97.3 96.5 107.3 122.3 123.9 123.6 126 128.1 131.5 134.5 139 143.3 147.1 149.2 151.1 152.6 153.6 152.7 153.4 152.8 152.1 149.7 147.1 144.8 142.2 138.8 134.7 130.7 132.8 136.4 136.4 132.1 127.8 123.9 125.6 129.3 131.9 132.3 132.5 129.7
393.4 383.2 379.6 380.7 386.7 391.8 395.4 398.3 399.3 398.2 396.4 390.5 384 379.9 377.5 373.6 370 365.3 360.8 357.1 352.5 347.8 342.5 337.2 333.4 330.6 327.5 323.8 320.2 316.5 312.5 309.1 305.6 301.3 298.3 295.7 293.5 292.1 289.5 285.9 283.1 280.2 276 270.8 264.8 259.2 252.9 246.4 238.8 230.6 221.5 216.3 211.5 206.8 202.4 197.9 194.5 194.3 196 195.4 193.8 190.7 185.6 185.6 185.7 179.9 178.5 180.3 178.8 178.1 174.8 169.3 162.3 157.3 152.9 144.8 156.6 159 163.3 168.9 175.4 181.1 187.1 191.5 194.1 196.3 197.5 196.8 195.9 198.2 199.3 200.4 201.8 203.1 204.6 206.7 208.5 210.1 211.7 213.3 215.5 216.6 217.6 218.1 218.6 218.1 216.9 215 213 210.3 207.3 204.4 201.6 198.8 195.8 192.9 190.3 187.7 183.9 182.2 178.6 175.3 171.1 168.2 166 163.2 160.1 154.2 149.2 146.7 146.2 145.8 145.5 143.8 141.5 138.5 138.2 142.8 145.7 146.5 147.9 150.4 150.4 149.5 148.2 146.7 144 140.4 136.8 133.6 130 125.4 121.2 118.2 115.5 113.5 110.7 102.4 96.7 98 103.1 116.7 122.8 125.7 122.9 120.8 122.5 124.7 128.1 130.4 134.5 138.5 142.6 144.7 146.5 148.8 150.8 150.3 151.4 151.9 151 148.8 146.4 144 142.1 139.7 136.4 134.1 136.6 139.5 137.6 134.3 130.3 127.3 129.6 133.1 133.9 132.5 129.8 125.9
389.9 382.3 378 378.4 385.6 390.2 393.4 394 392.8 388.5 383.3 378.1 374.3 371.4 369 366.9 364.2 359.6 355.5 350.7 347.1 342.5 337.6 332.8 329.3 326.5 322.7 318.9 315.4 312.5 309.1 305.8 302 298 294.8 292.3 290 288.5 286.2 283.1 280.5 278 274.7 270.8 267.1 261.9 256.9 249.5 242.1 233.5 224.4 215.1 208.4 203.8 199.9 195.4 191.3 188.3 188.6 189.2 187.9 184.9 179.7 182.1 180.1 173.8 172.6 174.5 174.8 174.5 172.2 168.4 162.6 157.5 150.9 148.2 154.8 160.9 165.9 171.6 177.5 182.9 187.7 190.7 194.3 196.7 198.6 199.1 197.6 197.6 199.2 201.4 203.5 205.1 206.2 206.8 208.5 210.1 211.9 214.1 216.1 217.1 218 218.5 218.6 217.5 215.5 213.4 211 208.6 205.6 202.6 199.8 197 194.9 192.5 190.2 187.9 185 182.2 179 176.9 173.9 171.3 169.3 166.6 162.8 157.1 150.4 146.2 143.9 143.3 142.8 141.7 139.3 138.2 143.5 143.7 146.1 146.9 147.5 149.6 149 148.3 147.7 145.8 143 139.7 136 132 127.9 123.9 120.2 115.9 112.7 111.3 110.5 101.1 96.3 97.9 110.6 115 120.2 121.6 119.4 117.7 119.2 121.4 123.1 124.6 128.3 132.6 137.5 140.6 143.6 146.1 146.5 147.5 150.1 150.9 149.9 148 146.3 144.9 143.7 141.5 139.1 136.8 139.6 141 138.9 136.5 132.7 132.1 134.7 136.2 134.3 130.7 126 122.1
389.3 381.2 370.6 375.4 380.4 382.6 381 384.3 380.5 376.6 370.7 370 367 364.6 362.7 360.8 357.8 353.9 349.1 344.8 341 336.7 331.9 327.6 324.3 321.1 317.6 314 311.2 308.2 305.7 302.4 298.9 295.2 291.7 289.1 286.5 284.5 282.4 279.8 277 274.4 272 269.1 265.6 261.9 257.3 250.8 243.7 236.7 227.9 219.2 212.5 205.6 199.5 194.8 190.3 186.1 182.8 181.8 181.1 178.4 175.5 177.3 174.8 169.6 168.6 169.3 169.3 169.8 168.8 166.7 163.1 158 149.8 144 155.6 162.3 168.7 174.6 180.8 186.8 191 194.3 197.8 199.3 199.7 200.4 200.6 199.7 201.6 203.7 205.7 207.7 208.5 208.8 209.9 211.7 213.2 214.8 216.6 217 217.1 216.8 216.1 215.6 213.5 210.9 208.4 205.3 202.2 199.9 196.9 194 192.6 191 188.9 186.7 184.6 182.5 180.5 178.5 176.1 174.1 171.1 167.4 162.5 156.7 150.5 146.2 143.6 141.5 140.7 140 138.4 140.6 142.6 144 145.9 147 147.7 147.6 147.4 146.6 145.9 143.7 140.8 136.9 133.7 128.8 125.4 121.5 117.7 115.2 116.8 117.9 115 107.9 99.2 96.4 109.1 113.1 117 117.7 116.1 115.1 115.8 116.5 117.3 118.6 120.9 124.7 128.7 132.4 135.2 137.7 141.2 145 148.7 150 149.3 147.9 147.5 146.4 145.2 142.8 140.3 140.1 141.2 142.7 140.8 138.9 135.3 137 138.9 136.3 131.9 127.9 123.9 120
382.8 373.1 361 364.2 365.1 367.1 365.9 371.4 369.4 367.5 365.4 362.3 359.9 358 356.1 353.6 348.6 344.8 341.5 338 334.6 330.4 326 321.8 318.7 315.6 312.2 309.5 306.9 304.1 301.7 299.1 296.2 292.4 288.5 285.8 283 280.8 278.6 276.2 273.5 270.7 268.2 266 263.1 259.8 256 250.9 244.8 238.4 232.1 224 216.7 209.1 202.2 197.2 193.3 189.8 185.7 181.3 177 174.3 172.3 171.3 168.8 166.1 165.4 165.1 164.8 164.8 165.2 165.4 162.8 157.2 151.1 145.4 155.3 162.9 169.6 176.3 183.8 190.5 195.1 198.6 201.7 202.9 202.4 202.8 203.4 202.5 204.3 206.3 208.3 210.3 211.6 212 212.4 214.1 215.1 215.7 216.4 215.8 215.5 215 214.6 213.9 212.4 210.3 207.8 204.3 200.3 197.6 194.9 191.7 190.4 188.6 187.1 184.6 182.4 180.2 177.6 176 173.5 171.8 169.7 165.5 160.6 155.4 152.2 149.4 145.2 142.3 141.2 140.9 141.8 143.4 144.8 145.9 146.4 146.5 146.5 146.1 145 144.7 143.7 141 137.4 134.4 130.5 125.4 122.3 118.5 118.7 121.6 122.9 122.1 118 110.4 100.7 96.2 108.6 112.2 114.8 114.3 113.1 112.4 112.8 111.7 112 113.2 114.3 117 120.8 124 127.6 131.3 136.3 142.8 148.3 149.3 148.9 148.9 148.5 147.8 146.3 144.4 141.9 141.1 142.7 143.7 142.9 140.5 139.1 139.4 137 133 128.8 125.6 121.8 120.8
372.8 365.8 357.8 352.8 353.7 357.5 360.9 363.7 363.6 360.7 358 355.4 353.1 351.4 348.9 345.9 341.5 337.6 334 331 327.9 323.7 319.1 315.7 312.8 310 307.2 305.1 302.8 300.5 297.9 295.3 292.8 289.7 285.9 282.6 279.4 277.1 274.8 272.4 269.9 267 264 261.8 259.6 256.5 252.8 249 244.3 239.3 233.3 226.2 217.8 211.3 207.7 202.9 197.6 193.9 189.4 184.9 178.7 173.4 169.9 167.7 165 163.3 161.7 161.2 160.6 160.2 161.9 163.8 162.5 157.1 149.2 145.2 155 162.9 170.5 177.8 185.6 193.7 199 203.2 206 207.2 207.2 207 207 206.9 207.3 209.3 210.8 212.9 214.7 215.1 215.6 215.5 215.4 214.8 215.6 213.7 212.7 212.1 211.7 211.8 211.2 210 207.6 204.7 202 198.6 195.5 193.2 191.6 189.8 188.7 185 182.5 179 176.2 173.9 171.8 169 166.2 163.6 162.2 160.5 159.5 156 150.1 145.7 144.1 145.1 145.7 146.4 147.3 147.2 145.7 145.8 141.9 142.4 142 142.3 141.5 139 135.8 131.7 127.1 122 119.9 119.6 124.9 127.1 125.3 123.2 118.6 110.5 100.3 93.6 108.8 112.8 114.1 113.1 111.5 110 110.4 109.3 108.4 109.2 109.3 111.1 115.4 120.1 125 129.5 134.7 141.8 147 148.3 148.1 149.2 149.5 148.8 147.1 145.4 143.7 143 143.5 144.5 144.3 142.2 140 137.5 134.2 130.5 128.1 126.8 125.6 124.4
366.9 362.3 354.1 344.7 344.5 351.2 354.8 355.8 355.8 354.5 351.5 349.3 347 344.5 341.5 338.1 334.6 331 327.2 323.9 320.9 316.6 312.4 309.4 306.3 303.7 301.8 300.7 298.4 296.1 293.7 291.5 289.2 286.1 282.9 279.6 276.5 273.8 271 268.5 266 262.9 259.7 257.4 255.1 252.3 249.1 246.1 242.3 238 233.4 228.2 221.5 217.4 213.1 208.6 203.5 198.9 194.6 189.5 182.5 175.8 171.8 167.8 163.1 160.9 159.3 157.8 156.9 157.2 159.5 162.1 162 157.9 150 141.1 153.4 162.1 170.9 179.3 188 196.5 202.2 206.5 209.3 211.3 211.8 211.5 211.1 210.4 210.6 212.9 213.2 214.9 215.9 216 215.1 214.1 213.7 213.1 212.3 210.7 209.5 208.9 209.2 209.4 209.3 208.3 207 205.2 202.6 200.2 198 195.8 194.3 192.5 190.4 187.5 185 182.3 179.5 177.1 174.8 172.1 170.7 169.1 167.4 165.9 164 160.6 155.6 150.3 147.8 147.6 148.9 148.8 147.9 146.6 144.9 140.9 140.3 139.3 139 139.3 139.2 137.1 133.6 129.5 125.4 121.2 122.5 125.1 130 129.9 127.5 123 117 109.5 98.2 95.3 108.4 110.8 112.1 112.1 110.5 108.4 108.3 107.4 105.8 102.5 100.7 103.4 107.5 114.4 122.5 129.6 136.6 142.4 145.5 146.7 147.8 148.9 149.3 149.6 148.3 146.7 145.5 144.9 145.2 145.7 145.7 143.6 140.9 138.1 135.7 133 131.9 131.4 129.7 128.3
364.6 359.1 351.5 342.6 327.9 343.1 347.1 347.7 347.2 346.2 344.7 342 339.4 336.9 333.4 330 326.5 323.2 320 316.8 314.5 310.6 307.4 304.3 301.1 297.8 296.4 295.7 293.9 291.5 289.1 287 284.8 282.1 279.2 276.2 273.1 270.3 267.5 264.7 261.7 258.5 255.4 252.1 249.8 247.5 245.3 242.2 239 235.8 232.1 227.8 224.6 220.4 216.3 212.6 208.6 204.7 200.5 195.2 188.5 180.7 175.3 170.8 166.6 162.7 159.2 156 153.9 154.1 156.2 159.3 158.2 155.3 149.6 141.5 155.8 163.2 171.3 180.7 189 197.5 203.6 206.8 208.9 210.7 211.7 212.6 213.3 213.3 215.7 213.9 213.1 213.5 213.7 213 212 210.7 209.5 209 208.6 207.7 206.5 206.1 206.5 206.8 206.9 206.5 206.1 205.1 203.5 201.7 199.7 197.5 196.2 194.1 191.5 188.8 186.3 183.7 181.1 179.2 176.9 174.6 173 171.4 169.1 167.6 165.3 162.7 158.2 154.4 152.5 151.1 149.2 148.6 146.6 144.6 140.6 139.1 138 136.9 136.5 136.4 136 134.1 131.4 128.1 124.3 122.9 127.1 131.3 134.4 132.9 128.8 124.2 118.8 111.1 96.8 99.7 106.1 108.4 109.9 110.9 109.8 107.5 105.7 106.1 100.4 88.8 88.9 89 93 105.6 122.3 130.9 139.4 144.7 143.1 144.6 146.2 147.5 149.6 151 150.5 148.4 147.5 146.8 146.9 146.8 146.7 145.2 142.4 140.4 138.2 136 135.2 135.1 133.1 130.3
363.2 357.3 349.7 341.4 321 329.1 336.5 338.1 338.4 337.4 336.1 334.4 331.8 328.8 325.4 321.9 318.4 315 312.4 310.4 308.3 305 301.8 298.5 294.9 292.1 290 289.3 288.2 286.4 284 282.1 280.2 277.9 275.1 272.1 269.1 266.5 263.9 260.9 257.6 254.2 251 247.4 244.4 242 240.4 237.9 235.2 232.4 229 224.8 222.6 220 217.1 214.1 210.9 206.8 202.8 197.2 193.7 186.9 180.9 176 171.5 167.6 163.3 159.9 156.6 152.5 149.7 152.7 153.3 151.4 146.4 144.3 157.1 165.7 173.3 182.1 190.6 196.9 201.6 204.2 206.3 207.9 209.4 210.8 212.3 213.4 212.4 211.7 211.1 210.1 209.6 208.4 207.2 205.9 204.6 204.1 203.6 202.8 202.1 202.7 203.4 203.7 204.1 204.5 204.2 203.9 203.7 202.4 200.8 198.8 197 194.4 191.5 188.8 185.3 182.2 180.4 178 175.6 173.2 171.2 169.9 168.8 167.1 164.7 162.8 159.5 156.3 154.5 152.8 150 146.4 144.3 142.2 140.5 138.6 137.1 135.5 134.7 134.3 133.2 131.6 129 126.6 124 125.4 130.5 134.9 136.8 135.2 131.4 126.5 121.1 112.5 96.4 97.5 102.5 105.5 108.1 109.2 108 106.3 103.5 99.8 90.1 95.1 97.5 97.8 92.5 92.6 112.1 134.6 142.1 139.3 139.1 142.3 144.5 148.3 150.8 151.8 151.5 149.7 148.9 148.5 148.4 148.5 147.9 146.1 144.5 142.6 140.7 138.8 137.6 135.7 132.9 129.5
363.4 357.9 350.4 340.3 322.7 313.4 322.5 327.2 329.5 328.7 327.3 325.8 323.3 320.6 317.6 314.1 311.4 308.3 305.2 303.7 302 299.1 295.8 292.5 288.4 286.1 283.7 282.8 281.7 280.6 279.1 277.2 275.3 273.3 270.5 267.6 264.6 262.3 260 256.9 253.6 250.2 246.6 242.8 239.3 236.6 234.9 232.9 230.3 227.7 224.8 221.9 219.1 217.5 215.5 212.4 209.4 206.4 203 198.5 194.3 189.9 184.6 180.5 176.6 172.5 168.4 164.4 159.9 153.7 147.7 148.2 149.4 146.7 139.1 151.7 162.3 168.1 175.3 183.9 191.8 196.3 198.5 200.6 202.6 204.4 206.2 207.7 209 210.5 209.9 208.7 207 205.9 205.2 204.7 203.5 202.1 200.5 199.1 198.6 197.9 198.5 199.2 199.8 200.7 201.4 201.9 202 202.5 203.2 202.4 201.2 199.5 197.3 194.4 191.4 188.2 184.3 181.1 178 175.1 172.7 170.5 168.9 167.7 166.7 165.5 163.9 162.5 161.1 158 154.9 151.5 148.8 144.9 142.2 141 140 138.3 136.1 134.4 133.4 131.5 130.3 129.1 127.2 127.2 129.5 133.1 137.2 140.3 141.3 138.4 133.7 127.6 120.6 112.7 95.4 95.3 98.2 100.9 103.8 104.8 105.4 103.5 98.2 90 97.8 102.3 105 102.9 97.3 86.6 101 123.8 127.5 130.8 135.7 141.1 145.1 148.2 151.4 151.6 151 151 150 149.6 149.6 149.3 148.8 147.3 146.3 144.3 142.5 140.5 138.7 135 131.6 128.2
363.4 356.6 348.5 337.3 321 296.4 305.8 316.5 320.1 319.4 318.2 315.7 312.4 310.1 309.2 307.5 305 301.6 298.6 296.9 295.5 292.8 289.9 286.1 281.9 279.7 277.8 276.3 275.6 274.9 273.7 271.9 269.9 267.2 265.2 262.7 259.5 257.3 255.4 252.5 248.7 244.8 241.3 237.7 234.2 230.8 228.2 226.3 223.8 222 219.6 216.8 214.9 213 211.5 210.1 207.3 205.1 202.3 198.3 192.9 187.7 182 178.7 177.3 175 170.7 165.3 158.1 151.2 147.4 145.2 145.1 138.3 151.7 160.2 164.7 170.8 178.1 185.1 191.3 193.1 195 197 198.9 200.6 202.2 203.4 204.5 205.9 206.3 204.9 202.6 201.3 200.3 200.5 199.9 198.7 196.5 195.1 193.7 194.3 195 195.5 196.5 197.3 198 198.7 199.4 199.8 201.4 201.9 200.8 198.9 196.2 193.7 190.6 187.4 183.6 178.6 175.2 172.4 169.6 167.4 166.2 165.4 164.6 163.5 162 162.3 161.8 158.8 154.3 150.1 145.7 142.2 141 140 139.4 137.8 135.3 133 132.2 130.6 130.5 132.4 133.5 135.9 139.1 143.9 146.6 145.9 143.6 139.9 134.9 128.6 122 116.5 96.5 92 91.6 89 89 89 88.7 92.9 97.1 104.7 107.7 108.4 107.5 105.6 98.2 91.3 94.7 110.2 121.8 127.9 135.6 142.2 146.1 148.6 151 151.3 150.8 150.5 150.6 149.5 147.2 147.3 147.7 147.5 146.8 146.1 144 141.1 137.8 133.9 130.4 127.7
358.7 351.9 344.2 334.2 320 300.2 289.3 300.6 308.9 310.1 309.1 301.8 297.9 300.8 302.1 302.2 299.9 296.3 292.8 290.9 289 286.5 283.9 279.9 276.3 274.3 272.4 270.6 270.1 269.5 268.3 266.5 263.8 261.1 259.5 257 254.3 252.1 250.5 248 244.9 240.3 236 231.9 228.4 224.7 221.2 218.6 217.1 215.7 213.8 210.5 207.7 205.8 205.7 205.5 204.6 203 200.5 196.8 191 183.9 177.1 173.1 170.9 168.8 167.1 163.4 155.4 149.2 145.7 141.1 140.3 150.3 159 164.6 168.9 173.5 179.3 185.9 190.1 192.1 192.8 193.4 194.9 196.6 198 199 199.2 200.6 201.6 200.9 198.5 196.7 195.4 195.9 196.1 195.4 192.7 190.5 189.3 189.6 190.7 191.9 193.2 194 194.6 195.5 196.3 197.7 199.3 199.7 199.2 197.4 194.6 192.2 189.7 186.6 182.1 176.4 172.9 170 167.2 164.6 163.6 162.9 162.3 160.8 158.1 157.4 158.1 154.7 152.5 148.2 143.3 140.4 138.8 139 138.5 137.1 134.3 132.5 131.2 132.5 136.2 138.6 140.2 142.5 145.3 148.8 150.9 149.2 146 139.1 137.2 133.2 129 124.2 120.2 112.1 107.4 103.8 103 103.7 108 111.4 114.1 114.1 112.1 110.6 108.6 106.5 99.1 91.4 91.9 108.1 119.8 126.3 133.7 140.8 145.4 148.7 149.1 148.6 148.1 148.9 149.4 147.1 143.5 143.4 144.4 145.8 146.5 148 144.1 140.5 136.6 132.4 131.6 127.4
353.8 346.8 338.8 330.4 318.3 300.4 279.2 283.3 296.8 298.6 296.9 290.2 291.9 296.1 297.7 297.5 294.9 291.4 287.9 285.3 283.4 280.8 278.2 274.3 271.2 269 267.1 264.3 264 263.9 263.3 261.7 259 256.2 254.3 251.6 248.9 247.2 245.8 243.4 241.3 237.6 232.6 226.8 222.5 218 214.7 211.3 209.5 208.3 206.4 203.9 200.3 198.4 198.3 198.7 199.3 198.5 196.8 194 188.7 181.5 174.7 168.5 163.9 161.6 160.8 158.5 152.2 145.9 140.7 135.4 150.9 158.5 164.1 169.3 174.3 177.9 181.5 184.9 188.4 190.1 190.5 191.1 192.3 194.2 195 195.1 193.5 194.5 195.5 195.9 194.3 192.4 190.9 191.3 191.8 191.3 190.5 188 185.6 184.5 185.2 186.8 188.9 190.6 190.4 191.7 193 194.6 196.7 197.2 196.9 195 193.1 190.9 188.6 185.4 181.4 177.3 172.6 168.7 165.2 162.5 161.4 160.2 158.9 156.4 154.8 152.7 151 150.2 148.9 144.7 140.9 138.8 137.1 137.3 137 135.9 134.7 134.2 135.6 136.7 141.1 144.3 145.7 147.5 150 151.7 153.1 151.4 149 145.2 141.7 138.5 134.7 131.1 126.9 125.6 121.2 118.8 118.4 119.2 118.9 117.8 117 115.5 113.1 110.4 107.9 105.8 100.5 91.8 90 111.6 119.4 124.5 130.9 140.1 146.4 147.7 147.1 146.2 144.5 144.4 144.4 142.2 139 138.9 142.2 147.3 148.5 146.8 143.6 140.3 137.2 134.1 130.1 126.3
347.5 340.2 333.4 324.6 314.5 297.9 278.7 263.1 276.2 289.1 286.9 284.9 288.8 292 293.5 292.6 289.7 286.3 283.1 280.4 277.8 275.2 272.6 269.5 266.6 264.9 262.9 260.5 256.8 257.4 258 256.2 253.9 251.6 249.2 247 244.8 242.9 241.3 239.8 237.8 234 229.9 224.6 218.5 213 209.6 206.5 202.4 199.5 198 195.6 193.1 192 192.2 191.3 191.4 191.9 191.6 189.7 186.6 181.3 176.5 171 165.3 159.7 155.8 152.6 147.7 144.1 130.7 136.7 151.7 162.3 167.9 173.2 177.6 180.8 181.6 183 185.9 187 188.4 189.5 191.5 192.9 193.9 191.5 189.3 188.3 188.2 189.1 188.7 187.9 186.6 187.4 188 188.4 187.4 185.9 183 180.5 180.7 182.3 184.5 187.1 186.8 187.1 189.7 191.6 193.7 194.6 194.2 192.5 191.4 189.8 187.6 184.6 181 177.8 172.7 167.7 163.9 162.1 161.6 161.9 162.1 161.3 160.6 158.1 155.3 152.9 150.3 146.4 142.9 140.2 139.3 138.8 138 137.5 137.1 138.8 141.2 141.9 145.4 149.1 150.4 151.9 153.1 154.3 153.7 152.3 150.4 147.6 144.3 140.9 137.5 134.4 133.1 131.1 129.8 127.3 124.6 121.4 119.1 117.8 116.2 114 111.2 108.4 106.3 104.6 100.9 91.9 90.5 116.8 125.1 131.2 135.4 142.7 146.8 146.7 145.3 143.7 141 139.2 138.4 136.9 134 135.8 141.2 147.6 148.1 144.6 141.7 139.2 136.5 133.7 130.2 126.3
340.1 333 325.8 316.4 305.1 296.2 280.6 261.2 263 273.2 276.6 280.2 283.2 286.7 288.2 287.3 285 281.8 278.2 275.3 272.7 270.2 267.6 265.1 262.7 261.1 260.2 257.4 252.6 251.8 252.3 250.7 248.4 246.2 243.7 242 240.3 238.6 236.8 235.5 234.3 230.5 225.7 222 216.9 211.4 207.7 202.4 197.3 193.1 190.4 188.3 187 186.1 186.2 184.7 183.9 184.2 185 185.8 184.2 180.8 177.5 173.3 169.8 164.8 158.7 153.3 148.8 144.2 137.8 134.8 151 161.5 168.1 173.1 175.1 176.4 179.7 181.7 183.7 185.3 187.6 190 192.4 193.5 193.2 186.6 184.8 188.2 181.6 182.2 183.2 182.4 181.4 182.5 184.2 185 184.7 183.7 181.9 178.8 176.5 178 180 182.4 183.2 183.6 186.7 189 190.6 192 191.6 190.7 189.4 187.8 186 183.8 180.5 177.1 173.3 168.6 165.3 164.1 164.3 165.1 166 165.5 164.8 163.4 161.7 159.7 156.5 152.9 148.8 145.6 144.2 144.2 143.8 142.7 142.3 144.7 146.9 149.1 151.2 152.8 153.3 153.3 153.2 152.7 151.4 150.4 148.4 147 144.8 142.2 139.7 137.7 135.4 133.9 131.7 128.8 125.8 122.4 119.5 116.6 115.1 112.5 109.5 106 100.9 95.6 92.1 86.1 96.4 122.2 131.4 138.4 143 147.5 148.4 146.5 143.6 141.5 138.3 134.8 132.2 130.7 129.9 132.6 137.9 145 147.7 144.5 140.1 137.6 134.9 132.4 129.3 125.3
333.6 325.7 319 310.1 300.1 290.4 278.3 265.4 254.2 264.1 267.5 271.4 276.7 281.5 281.9 282 280.8 277.5 273.9 270.4 268.4 265.7 262.9 261 258.8 257.2 256.4 252.4 247.6 245.8 246.7 245.2 243 240.8 238.3 236.2 235.3 233.8 232.3 231.1 230.4 228.5 225.4 222.1 216.1 211.1 206.1 200.6 195.4 191 186.9 183.7 180.9 180.5 180.3 179.2 178.3 177.6 177.7 178.6 178.7 176.3 173 172.7 171.7 167.8 161.9 156 151.1 146.1 138.4 132.3 150.2 159.5 165.3 167.6 169.6 172.8 178 182.7 184.8 186.5 188.1 190.4 192.6 193 191.2 186.5 185.1 187 178.7 175.8 176.8 176.5 175.3 176.9 179.6 181.7 182.4 181.6 180.9 178.4 174.8 173.6 175.4 177.6 178.7 180.1 183.4 186.4 188.3 189.8 189.6 188.8 187.4 185.7 184 182.1 179.7 176.7 173.8 171.7 168.9 167.8 168.1 169.5 169 168.5 167.9 166.8 165.1 162.7 160.1 157.4 154.1 152.1 151.6 151.2 149.4 147.7 148.2 149.6 151 152.7 152.8 152.3 151.4 150.1 148.8 148.6 147.1 145.7 144.3 143.1 141.4 138.3 136.9 135.3 133.4 131.5 129.5 127.7 123.7 121.5 118 115.2 112.4 110.8 108.4 101.5 87.1 82.5 86 93.3 112.4 129.6 138.1 143.4 147 148.7 148.3 147.1 143.5 139.8 136.2 132.2 128.5 126 126.7 132.3 134.1 140.5 145.2 145.1 141.5 137.1 133.2 130.8 127.4 124.6
326.8 320.1 313 304.8 294.8 283.2 269.5 257.5 247.4 253.3 255.6 262.8 270.3 275.1 274.5 275.9 275.7 273.2 269.6 266.2 263.1 261.4 258.4 255.8 254.5 253.7 252.3 247 243.3 240.9 241.5 241 238.9 236.1 232.3 231.3 230.1 228.5 227.2 225.8 225.4 225 223.5 221.4 218.1 213.7 208.8 202.2 195.4 190.9 187.4 183.7 180.1 176.3 174.3 173.9 172.6 171.5 171.2 170.9 169.8 167.7 165.9 167.1 168.7 166 161.2 157.5 153.1 147.5 138.7 129.8 149.5 155.6 159.8 162.7 167 173.2 179.1 184.1 186.4 188 188.7 190.7 191.5 191.8 191 189 185.8 182.4 178 172.7 170.2 170.2 168.8 171.7 174.4 177.8 180.1 179.3 178.3 177.9 174.8 171.3 171.1 172.7 173.8 175.8 179.7 183.6 186 187.7 187.8 186.8 185.3 183.5 181.7 180.4 178.5 177 175.3 174.1 172.4 171.7 171.2 170.9 170.2 169.7 168.4 167 165.4 163.9 161.7 159.9 158.1 156.2 156 155.6 153 151.9 152 153.1 153.3 151.6 149.7 147.6 146.5 144.4 143.2 140.9 138.3 136.8 136 134.2 132.4 131.5 131.1 129.7 128.6 126.4 124.5 122.5 120.1 117.3 114.3 111.3 108.9 106.6 104.2 84.3 94.5 105.3 113.4 121.3 129.9 138 144.9 147.1 148 148.9 148.8 147.1 143.2 139.2 134.7 130.4 126.1 122.8 124 128.1 132.5 135.2 140.7 142.7 140.3 137.3 133.9 131 128.7 126.3
320.1 313.8 307.4 298.6 288.2 271.5 260.9 251.1 242.6 240.2 245.4 253.5 261.4 265.3 267.3 268.9 270.6 268.8 265.8 262.7 259.1 256.5 254.5 251.7 247.5 248 248.8 244.7 240.3 237.4 236.7 236.5 234.6 231.3 227.5 225.3 224.1 223.3 222.1 220.7 219.6 219.3 218.7 217.1 215.7 212 208.3 203.1 197.7 192.7 188.6 184.8 181.1 177.1 173.3 170.4 168.3 167.2 165.7 164.4 162.8 161.2 160.9 161.8 163.2 162.8 159.9 157.4 154.5 148.4 139.2 126.7 145.5 150.1 156.5 162.4 168.2 173.2 178.1 183 187.1 187.5 188 188.5 189.8 189.3 188.6 186.5 184.5 182.3 179 174.3 168.7 164.4 162.7 165.3 168.6 172.6 175 175.8 174.8 175.6 174.9 170.9 167.5 168.3 169.8 172.4 176.7 181 183.3 184.7 185.2 184.5 183 181.2 180.2 178.8 177.8 176.6 175.4 174.2 173.4 172.4 171.5 170.6 169.8 168.7 167.6 166.2 164.6 163 160.9 158.7 158.2 157.5 156.9 156.1 155.6 153.7 153.6 153.3 151.5 148.9 146.1 143.1 140.7 138.4 136.7 133.1 129.8 127.6 126.8 125.1 123.5 121.7 121.8 123.4 124.2 122.2 119.2 116.4 113.4 111.2 108.2 107.3 104.8 100.6 94.5 87 100.8 112.8 121.4 128.2 135.1 141.7 144.7 146.8 147.6 147.9 147.9 146.5 143 138.8 133.3 128.9 123.7 119.1 120.4 127.1 131.9 133 136.6 139.3 140.9 137.8 135.7 133 130 127.5
312.8 306.9 300.6 289.3 275.7 264.6 256.9 246.1 237.8 234 236.6 244.3 250.7 256.1 258.5 262.5 264.8 264.3 262.1 259 256 253.3 250.1 248.5 245.4 242.8 244.2 243 239.1 235.2 232.1 231.5 229.3 227 223 220.4 218.8 218.8 217.5 215.9 214.4 213.3 212.7 212 210.5 208 205.9 204.6 201.7 199.6 195.1 190.6 185.5 180.2 176.1 172.3 168.7 165.5 162.1 159.8 157.6 157 157 157.6 158.8 159 157.4 155.6 154.2 147.7 140.2 124.6 140.1 150.5 158.6 162.2 165.2 169.8 174.9 179.9 184 184.6 183.9 184.3 185.5 185.4 185.3 183.9 182.3 180.7 177.8 174.4 169.5 163.9 159.9 158.7 161 164.2 167.2 169.9 171.3 173.3 173 170 164.9 164.3 167.2 169.9 174.8 177.7 179.2 180.5 181.2 180.6 179.8 179.1 178.2 177.3 176.2 175.4 174.1 173.2 172.5 171.5 170.2 169 167.9 166.8 165.6 164.1 162.5 160.6 158.4 156 155.3 155 154.7 153.9 153.4 153.3 152.3 149.8 147.4 144.7 141 138.3 136.2 133.5 132.2 131.1 131 130.1 128.7 128.6 128.1 126.6 123 118.8 119.4 119 114.9 108.1 102.6 104.9 103.4 94.7 97 91.3 84.5 93.9 109.5 116.3 121.2 127.7 133.8 138.6 141 143.1 145 146.1 146.4 144.8 141.8 137.9 132.6 127 121.3 116.1 116.1 125.6 132.5 135.8 139.2 141.5 141.6 139.9 137.8 133.8 129.6 125.8
305.4 299.5 290.8 278.5 265.4 255.1 246.5 239.8 234.8 230.1 230.2 236 242 247.7 251.6 255.2 258.4 258.9 257.4 255.5 252.6 249.8 246.3 244.7 243.1 238.7 239 240.7 240.2 235.8 231.4 226.7 224.1 222 218.8 216.4 214.3 214 212.8 211.2 209.6 208.1 207.1 206.6 204.9 204.2 204.1 205.4 205.6 206.6 203.8 198.6 192.9 187.2 181.9 177.1 172.9 168.3 165 161.7 158.2 154 153.8 153.8 154.5 154.8 153.1 152.7 149.8 145.4 140.5 128.8 137 149.1 154.2 157.1 160.5 165.4 170.3 174.7 178.7 179.8 177.9 177.7 179 180.6 181.3 181.4 180 178.3 175.8 173.6 171.1 166.8 163.7 159.7 155.4 155.6 158.1 160.9 164.9 169.7 171.1 168.9 164.2 161.3 165.2 169.7 173 175.4 176.2 176 176.8 176.9 176.5 175.8 175.4 174.8 174.5 173.6 172.5 171.7 171 169.3 167.9 166.8 165.6 164.4 162.9 161.4 159.7 158.1 155.8 153.5 152.4 151.4 150.7 149.9 149.4 148.7 146.9 144.9 143.1 140.8 137.8 136.5 136.6 136.7 139.5 141.7 143.5 141.3 138.1 137.9 136.7 134 128.8 120.7 112.9 110.2 108.3 117.2 120.4 116.9 108.3 98.7 83.8 90.5 94.7 108.5 113.2 115.1 119.9 125.7 130.5 134.8 136.8 139.3 141.6 143.1 142.9 142.2 139.7 135.9 131 125.2 118 112.1 113.5 124.6 133.5 139.7 142.4 144.2 143.2 141.3 138.4 134.4 130.3 126
297.6 290.9 281.2 269.8 257.7 246.7 240.2 235.5 230.7 226.5 224.6 228.7 234.3 240.4 244.9 249.6 252.5 252.8 252.7 251.2 248.8 246 242.3 239.9 240.5 235.6 235 238 240.5 237.8 233.6 228.6 224.5 220.1 217.5 211.2 210.2 209.1 209.5 207.5 205.6 203.9 202.3 201.2 200.5 200.1 201.2 203.8 207.4 209.4 207.4 204.5 199.6 193.8 188.6 184.5 178.3 172.4 168.1 164.7 161.1 157.7 153.6 149.2 149.9 150.2 148.8 146.7 143.4 139.7 138.1 129.4 133.1 144.2 149.1 152.7 156.1 160.3 164.7 169.1 172.6 174 172.2 171.1 173.5 175.1 177.6 178.3 177.8 176.9 175.6 174.5 173.7 172.2 169.8 165.8 161.1 155.4 150.9 152.5 156.8 161.6 164.8 165.8 163.5 159.1 164 168.2 170.3 172 172.4 171 171 172.9 173.1 172.5 172.3 172.6 172.9 171.9 171.1 170.3 169.1 167.4 165.7 164.4 163.2 161.7 160.2 158.7 157 155.4 153.3 151 150.5 149.1 148.1 146.8 145.4 143.5 142.7 143.3 145.6 146.9 146.5 146.6 146 146.8 149.5 150 148 146.2 143.7 141.5 138.5 134.4 128.1 123.1 123.7 123 124.6 125 122.6 115.3 106.5 87.1 92.9 103.6 108 112 112.3 113.2 116.9 121.3 125.6 128.6 132.4 134.8 136.6 138.2 138.5 138.1 136.9 133.8 128.6 121.9 113.8 106.8 116.5 126.6 134.3 140 144.3 145.6 144.3 142.7 140.1 136.1 131.7 128.1
290.1 280.4 270.3 261.3 250.8 240.8 235.4 231.2 227 223 221.3 222.1 228 233.3 237.3 243.7 247.5 247.8 247.4 246.6 244.8 241.9 238.4 234.8 235.1 232.7 231.1 234.3 238.7 240.4 237.6 235.1 232.1 227.3 222.5 216.5 209.6 204.2 204.3 203.2 202 200.4 198.7 196.9 195.9 195.8 198.8 201.9 205.7 209.2 209.5 207.1 204.9 200.1 195.9 191.2 184.4 177.8 172.2 167.2 163.5 160.3 156.9 153 149.4 149.6 147.1 147.6 143.5 139.4 136 132.7 124.5 138.2 145.3 148.8 152.2 155.9 159.8 162.8 165.2 166.6 167 166.8 168.7 171.4 173.9 175.4 176.8 177.5 177.1 176.7 175.7 174.9 172.9 170.5 166.7 162 155.7 149.2 148.9 152.7 157.2 160.8 161 156.4 158.3 161.2 163.3 164.9 167.5 166.5 166.5 167.9 169.4 169.7 169.7 170.4 171.3 170.4 169.6 168.8 167.3 165.6 163.8 161.7 160.6 159.1 157.8 156.6 154.8 152.8 151.2 152.6 154.4 153.9 152.3 149.9 147.5 146.2 145.8 148.9 152.8 155.8 156.7 156.6 156.1 154.9 154.4 152.4 150.4 147.7 144.1 139.7 135.7 131.2 128.2 130 133 132.3 128.6 126.9 122.7 113.6 104.5 83.8 92.9 106.3 108.4 109.1 109.4 109.6 111.6 114.3 118.7 123.3 126.6 128.6 130.7 133.5 134.2 133.5 132.7 131.2 126.3 118 109 110.4 119.3 127.3 131.6 136.7 143.3 146.7 145.9 144 142.2 138.3 135.3 132
281.2 269.9 262.3 253.3 242.7 236 231.8 227.9 223.9 220.1 217 217.4 221.5 224.7 231.4 239.2 241.6 242.1 242.1 241.6 240.8 237.9 234.4 229.6 230.1 228.4 227.8 232.8 236.9 239.1 239.7 239.5 237.7 234.2 228.2 220.6 213.5 208.4 203 197.3 198.4 196.8 195.2 193.3 190.9 191.1 194.7 199 203.6 207 209.3 208.9 207.3 204.7 201.2 196.8 191 185 178.2 172 166.2 162.4 159.2 157 155.8 156.8 157.2 156.5 151.1 145.5 140.2 136.4 127.1 128.8 138.2 145.4 149.5 153.2 157 157.7 158.7 160.3 162 166.7 170.6 173.6 176.2 178 178.7 179 179.5 178.8 177.6 175.8 173.5 171.1 168.2 164.7 159.2 151.4 146 147.5 151.8 156.3 159.2 156.3 154.1 154 156.1 157.8 159.2 160 161.1 162.4 164.2 164.8 166.3 167.9 169 169.4 168.3 167.1 165.4 163.6 161.9 160 158.5 157.3 156.1 155.2 154.1 153.3 154.9 157.4 158.7 159 157.1 155 152.5 152 152.7 155.7 158 159.4 159.7 159.7 158.8 157.5 155.4 152.9 150.1 146.6 142.6 138 137.5 135.6 136 138.4 138.8 136.2 132.8 128 121.6 112 101.2 83.8 98.5 104.4 105.7 106.3 105.5 105.6 106 107.1 111.6 115.3 118.5 120.7 124.4 127.1 129.3 128.7 128.2 127.5 123.7 115.5 106.3 107.7 117.2 122.6 127 133.8 140.7 144.4 145.3 144.1 143 140.1 137 134
275 267.2 258.8 245.5 237.8 232.3 228.2 224.3 220.5 217.1 213.8 213.7 215.6 219.3 228.7 235 234.7 233.4 235.2 236.7 236.6 234.3 230.7 226.5 223.3 222.8 225 231 234.7 236.5 237 239.5 239.3 236.2 231.1 224.3 218.5 213.5 208.1 201.4 193.5 188.8 191.4 190 187 186.5 190 194 199.2 204 206 206.4 205.6 204.4 203.1 200.1 196.3 191 184.9 177.1 170.1 166.4 163.6 161.8 163.4 163.4 163.1 160.2 153.6 145.2 140 136.4 129.7 121.8 136.9 142.7 146.6 150.1 152.8 152.9 153.5 157.4 162.7 167.2 171.4 176.1 178.7 179.2 179.5 179.5 179.3 178.6 176.7 174.6 172.6 169.7 166.4 162.9 158.2 152.6 146 143.7 147 151.6 155.5 155.4 152.3 150.4 150.4 152.7 153 154.3 155.4 156.6 158.9 160.4 162.4 164.5 166.7 167.6 168.1 167.5 166.2 164.4 162.8 161.3 160.2 158.7 157.3 156.4 156 157 158.6 159.6 160.4 161.1 161.2 160 158.5 159 159.9 160.9 161.2 161.6 161.8 160.6 159.4 158.1 155.5 152.4 149 146.2 144.9 144.8 144.7 144.7 144.2 142.7 140.7 137.3 133.5 129.2 121.5 113 100.7 83.8 103.3 103.2 103.7 103.7 103.4 103.1 102.8 100.2 98 93.9 99.8 111.3 117.6 120.2 124 123.5 123.3 122.5 119.7 113.2 103.4 108.9 117.5 121.6 126.3 133.1 137.1 141 143 144.6 143.8 142.8 139.4 136.5
268.9 259.3 251.3 238 233.4 229.3 224.9 220.9 217.2 213.9 210.9 210 211.2 217.6 226.6 230.5 229.9 226.7 227.5 231.3 232.8 231.1 228.1 223.7 219.3 218.2 222.4 227.8 230.3 231.7 233.2 237 238.9 236.2 232.5 227.7 224.4 221.9 217 212.2 207.3 202.6 197.3 193.6 188.2 180.6 184.7 187.8 192.4 197.2 200.7 202.2 203.6 202.7 201.8 200.3 198.7 194.6 189.7 183.9 179 174.9 172 170.1 171.1 170.6 166.8 162.2 153.3 144.6 139.3 135.8 130 118.8 136.6 140.8 143.3 146.1 148 148.5 152.3 157.4 162.4 167.9 172.6 176.8 178.6 178.4 177.6 177 176.9 176.4 174.7 172.6 170.2 167.3 163.7 159.9 155.5 149.8 144 141.6 143.1 147.1 150.8 154 151.6 149.1 146.9 148.1 148.7 150.3 152 153.5 155.4 157.7 160.3 163 165.5 167.5 168.5 168.4 167.8 166.7 165.2 164.2 163.5 162.5 160.9 159.6 160 161.1 162 162.6 163.1 163.7 164.1 163.9 163.6 163.6 163.3 163.5 163.6 163.1 162.4 161.2 160.2 158.7 156.4 154.6 151.4 151.2 150.7 149.4 147.6 147.3 145.6 143.5 140.3 137.2 133.7 129.6 123.7 117.3 106.5 86.1 90.5 87.7 89 90.7 91.7 89.6 87.4 86 79.7 83.9 81.3 91.7 114.8 119.8 120.6 120.5 118.5 118.3 115.1 110.1 98.9 110.6 119.4 122.9 126.1 130.1 135.7 138.8 142.6 145.1 145 144.3 142 140
261.1 256.6 242.5 233.3 229.6 225.9 221.8 217.5 214 210.6 208 206.2 208.7 215.4 222.4 225.2 224.9 220.6 221.1 224.2 227.9 228.5 225.3 220.6 216.3 213.9 219.6 223.6 224.8 225.8 230.5 234.4 236.8 237.1 235 231.8 228.9 226 223.5 219.4 215.7 211.9 205 198.7 192.6 186.4 180.7 182 186 190 194.7 197.9 199.8 201.1 200.5 199.2 198.2 195.7 193.9 190.1 187 183.9 180.6 178.8 179 175.7 170.4 162.5 153.6 145.1 138.2 134.1 127.7 122.2 137.2 138.6 140.9 143.2 144.5 145.1 151.6 156.7 162.3 168.8 174 176.6 177.7 176.5 175.7 174.7 174.1 174 172.6 170.3 168 164 159.7 155.9 151.6 146.9 142.8 139.8 140 143.9 148.8 151 149.8 147.4 145 144.8 146 148.4 151 153.1 155.5 157.8 160.4 163.3 166.1 168.5 169.2 169.7 169.5 168.9 168.9 168.2 167.5 166.6 165 164.2 164 164.4 164.8 165.1 165.6 166.2 166.5 166.2 165.8 165.3 165.1 164.7 164.3 163.6 162.9 162 161 159.3 157.9 156.6 155.9 155.1 153.9 152.3 150.3 148.2 145.1 142 138.4 135.2 132.3 128.1 124.5 119.4 112.3 85.6 83.2 87.2 90.2 87.4 81.4 81.3 80 85.2 93.7 93.6 86.9 84.2 112.1 119.7 120 118 114.9 113.7 112 105.1 96.1 109.1 120.9 123.5 124.9 127.3 133.3 140.2 143.4 144.7 145.8 145.6 143.9 142.7
254.1 251.4 237.3 228.8 225.3 221.9 218.4 214.3 210.8 207.6 204.8 202.9 206.3 212.3 217.3 220.1 219.6 216.1 215.1 220.4 224.7 225.2 221.8 217.9 213.5 211.3 216.1 218.6 218.7 221.1 226.5 231.7 234.3 235.6 234.7 233.3 230.4 227.7 224.8 221.6 217.8 213.4 207.7 201.3 195.9 189.7 184 176.7 179.2 184.8 189.3 193.1 195.3 197 198.8 198.9 198.2 197 195.8 194.3 191.6 188.1 185.4 183.1 181.1 178.2 172.8 165.9 157.1 147.8 139.7 133.3 126.1 120.1 137.2 140.5 144.3 147.9 150.5 153 156 160.6 165.5 171.5 175.6 177.6 177.1 175.7 174.1 172.9 172.1 171.8 170.7 169.2 166.8 163.2 159.7 156.2 152.7 149.9 146.7 141.2 137.7 140.5 146 147.5 145.4 144.2 142.9 143.5 146.5 148.3 151.4 154.8 157.9 160.8 163.1 165.8 167.4 170 170.9 171.9 172.2 172.4 172.4 171.9 171.2 170.1 169 168.4 167.1 166.9 167.6 167.8 168.1 168.2 167.9 166.9 166.2 165.2 164.6 164.3 163.3 163.1 162.7 162.2 161.6 160.7 159.3 158.6 158.7 157.3 156.1 153.9 151.6 149.5 146.6 142.8 138.4 134.5 131.3 126.6 122.4 118.7 114.1 99.2 100.1 101.5 101.9 101.4 99.8 101 103 105.1 104.1 94.7 85.1 87.5 108.8 119.3 118.4 115.3 112 105.2 106 98.4 99.9 112.2 120.9 121.8 121.4 124.5 130.3 138.3 144.2 144 144.2 145.4 144.8 144.1
242.2 241.9 230.4 224.9 220.9 217.6 214.9 211.2 208.7 204.1 202 199.6 203 210 212.9 215 214 212.2 214.7 220.3 221.1 220 217.9 214.3 210.6 208.9 210.9 212.5 214 218.4 223.2 228.1 232 232.8 232.4 231.1 229.3 227.2 224.3 221.1 217.3 212.9 207.5 201.8 195.8 190.4 185.2 178.7 166.4 178.4 182.2 185.7 189.4 192 195.1 196.1 196.5 196.7 196 194.3 191.3 187.4 183.6 181.2 179.4 177.7 174.9 168.6 161 152.1 142.2 133.6 123.6 124.3 137.7 143.6 150 154.9 160.1 162.7 166 167.8 171.1 174.7 177.1 177.8 176.6 175.2 173.3 171.6 170.2 170.9 171.8 171.3 169.8 167.3 165.6 163.6 161.2 156.9 151.1 141.6 136.8 141.2 146.9 145.3 141 141.8 143.1 146 148.8 151.5 154.5 158.1 161.3 164.7 166.4 167.5 169 171.2 172.5 173.1 173.1 172.8 172.4 172.3 172.3 172.1 171.2 170.6 170.5 170.3 169.9 169.5 169 168.2 167.4 166.2 164.4 163.3 162.5 162.3 162.1 161.7 161.3 161.6 161 160.5 159.7 159.7 159.3 158.4 157.1 155.4 153.1 150.8 148.1 144.4 140.4 135.6 132.1 128.1 124.2 119.6 115.8 113.1 110.9 111.3 111.2 111.5 113.9 113.7 110.4 108.2 102.8 77.7 82.8 89.6 105.7 117.4 115.9 111.1 106.3 100.7 93.6 93.2 107.3 116 119.3 119.6 118.8 120.4 124.7 133 138.7 140 138.5 140.4 143.4 144.2
238.9 231.7 226.6 221.1 217.2 215.9 212.4 207.3 204.1 201.2 198.7 196.5 199.8 204.6 208.1 209.7 208.2 209.4 215.3 217.9 217.8 215.2 213.1 210.7 207.5 205.9 206.6 208.4 211.4 215.4 220.2 224.9 228.5 229.2 228.4 227.7 226.3 224.7 222.7 219.7 216.5 212.3 207.8 201.7 196.1 190.8 185.3 179.9 175.5 172 175.1 178.8 182.6 186.5 189.2 191.1 192.5 193.4 193.9 192.6 189.4 185.1 181 176.9 174.2 173.8 173 169.6 162.9 155 144.5 133.9 120.8 128.8 138.3 145.3 152.2 160.1 164.9 168.7 171.4 173.4 174.6 174.9 176.4 176.5 175.5 174.1 172.2 170.1 167.9 169.7 172 172.2 170.3 167.5 164.4 162.6 160.6 157.1 149.4 138.7 135.4 142.6 146.6 143.4 140 146.6 152.6 155.6 157.4 160.9 163.4 164.9 166.5 166.7 168.7 169.3 169.6 170.3 170.6 170.7 170.5 170.7 170.7 170.3 171.3 171.4 171.6 171 171 170.7 170.1 169.6 168 166.6 164.7 164 161.8 160 158.9 158.2 158.7 158.8 158.6 157.8 157.5 157.1 157.2 157.4 157.4 156.5 155.5 154 152 149.2 145.9 144 140.3 136.8 132.7 128.3 123.4 119.2 116.4 114.5 114.2 114 114.1 113.9 114.3 112.8 111.4 108.8 106.1 93.8 77.2 88.8 100.3 113.4 112.3 106.6 100.7 93.2 96 104.8 110.9 115.7 116.9 116.5 115.2 115.4 118.3 125.8 132.3 133.6 134.7 137.4 140.2 139
242.7 234.2 226.7 220.7 216.5 213.8 208.9 203.3 200.6 198.2 195.7 194 195.2 199.7 202.7 204.1 202.2 207.2 212.7 214.9 214.3 212.2 209.5 207.5 204.3 202.4 202.5 204.4 207.4 211.8 216.8 220.3 223.3 224.3 223.3 222.3 222.1 221.2 220 218.4 215.4 211.7 207.7 203.2 198 192.9 187.8 182.8 177.3 171.6 163.5 172.3 176.7 180.1 183.1 185.4 187.8 190.8 192.2 191.2 188.2 184.2 179.2 174.3 169.9 166.8 167.8 165.7 160.8 153 143.5 133.5 121 130.1 138.8 146.9 154.3 159 163.2 166.6 168.4 170.1 170.6 171.7 172.9 173.9 173 171.6 169.6 167.4 165 166.7 168.4 169.1 167.6 165.4 162.1 158.9 156.6 153.6 146.8 136.3 132.6 138.8 139.2 138.3 142.2 153.8 160.6 164.4 166.8 167 167 167.5 167.9 168 167.3 167.2 166.9 167.3 167.1 167 166.5 167 167.6 168.3 168.8 169.3 169.2 169.1 169.1 168.5 167.8 166.4 164.8 162.5 159.8 158.6 154.4 152.2 151.6 152.7 153.4 152.8 151 150 148.9 148.8 150 151.1 151.7 153.6 152.7 152.4 150.1 145.7 141.6 136.1 130.9 130.7 130.3 126.3 121.9 117.3 115.1 113.3 112.6 112.2 111.3 110.5 109.7 109.3 108.7 106.5 105.6 103 77.2 84.8 93.9 109.2 107.6 102.8 93.5 90.6 99.4 107.9 111.7 114.4 113.9 113 111.8 110 112.1 118.8 123.8 127.7 130.5 132.5 130.8 129.8
248.1 237.5 228.8 222.3 216.9 211.9 206.9 201.8 198.4 195.4 192.7 190.7 192.1 194.5 197.1 197.5 198.4 203.1 208.1 210.5 211 209.4 207.3 204.8 202.2 200.4 198.9 200.6 202.5 206.5 210.3 213.9 217.6 219.6 218.3 217 216.6 216.2 215.9 214.8 213.1 211.1 207.6 203.6 199 194 188.7 183.8 178 172.5 167 167.6 170.8 174.3 177.1 179.7 183.9 188.8 190.4 189.7 187.8 184.5 179.6 174.1 165.6 160.5 159 159 156.3 150.5 141.2 132.5 119.8 128.6 138.5 146.5 151.9 155.5 159.1 161.7 163.3 164.4 165.9 167.1 168.4 169.6 169.5 168.2 166 162.9 160.3 162.9 164.8 165.4 164.3 163 160.3 156.4 152.5 148.4 143.9 135.2 130 132.5 135 140.4 148.3 157.6 162.1 163.9 164.4 164.4 164.2 164.5 164.5 164.1 163.4 163.1 162.2 163.2 162.9 161.9 162 161.4 161.9 162.7 163.4 164 164.5 164.8 164.9 165 163.7 162.3 160.6 157.5 154.9 149.4 144.7 141.1 143.5 147.2 149.2 146.2 140.7 137.9 137.4 137.4 139.5 141.5 144.1 147.5 148.1 143.7 137.8 131.3 124.5 117.2 113.1 115.7 121.8 121.9 118.5 115.3 112.5 110.8 110 109.4 108.3 107.1 106.2 105.7 105.2 104.2 102.8 101.3 91.3 79.8 86.6 98.4 101.7 97.7 88.3 91.6 101.4 106.5 108.5 111.8 110.7 111.1 108.9 106.2 107.6 113.3 118.6 122.2 123 123.8 122.5 123.3
255.6 242.9 231.3 223.3 217.7 212.5 207.4 202.3 196.9 192.9 189.9 187.7 188.2 189.7 191.2 191.9 193.8 197.8 201.9 205 206.3 205.5 204.4 202.7 200.9 199.2 197.5 196.5 198.1 199.7 202.3 206.3 210.8 213.5 212.9 211.6 211.3 211.2 211.8 211.2 210 208.5 207 203.8 199.5 195.4 191.5 187.6 182.6 176.8 171 165.9 164.5 167.7 170.3 175.6 181.7 186.2 188.2 187.5 186.1 183.6 179.7 174.1 166.5 156.7 150.1 150.2 149.1 145.6 139.1 131.9 123.7 123.9 138.7 144.7 147.9 151.2 154 156.1 157.6 158.6 160.6 162.8 164.3 165.2 166 165 162.4 159.5 156.5 158.6 159.9 160.2 160.7 159.8 157.3 153.8 149.2 141.7 136 130.1 128.3 134.4 140.7 148.6 154.3 159.8 161.6 161.5 161.1 160.7 160.5 159.9 159.8 159.2 158.3 157.1 156 156 155.8 155.2 155 154.8 155.4 156.4 157.3 157.6 158 158.3 159 159.9 159.5 158.1 156.1 152.9 147.5 139.4 132.8 131.3 137.3 143.2 142.5 135.2 128.8 126.9 126.7 128.6 131.1 132.2 134.4 137.4 131.3 123.8 117 108.2 102.2 97 94.6 100 109.1 116.4 115.9 113.2 110 108 107.2 106.5 105.5 104.3 102.8 101.2 96.7 90.9 86 86.6 84.9 80.5 81.4 86.6 91.8 87.2 84.9 90.1 95.7 98.5 101.6 103.3 103.3 106.3 103.1 103.1 107.5 111.1 114.3 116.2 115.4 114.8 116.9 118.6
265.1 247.8 235.9 225.2 219.2 213.3 208.2 203 197.4 192.3 187.5 184.9 184.7 185.4 186.4 187.4 189.1 191.9 194.8 198.2 200.5 201.4 201.3 200.3 199.5 198.7 196.2 194.8 194.2 194.1 195.8 198.8 202.1 204.4 205.7 206.3 206.2 206.3 207.5 207.6 206.9 206.7 206 203.9 200.5 197.6 194.6 191.1 187.1 182.1 176.4 170.1 158.1 163.4 166.2 170.9 176.8 182.5 184.7 184.2 183 181.5 178.6 172.9 164.8 154.1 144.6 141.1 141.3 139.2 135.7 129.3 120.2 122.8 135.9 140.5 142.6 145.2 147.7 149.2 150.7 152.6 155.2 157.5 159.2 161 161.9 160.9 159.5 157.3 154.9 151.9 152.8 154.1 154.7 154.4 153.4 148.8 144.7 136.1 128 124.2 132.1 138.4 146.8 153.2 156.5 157.5 156.9 156.3 155.8 155.9 155.8 154.9 155 153.3 152.5 150.6 149.3 148.7 148.5 147.4 147.2 147.4 148.5 149.8 150.3 150.6 150.6 151.6 153.3 154.4 154.2 153.2 151.2 146.8 141 132.7 125.4 124.8 131.3 132.9 131.4 124.4 119.4 118.3 119 121.9 121.6 120.3 117.7 117.4 111.5 104.8 96.8 79 78.5 80.2 79.4 82.3 91.6 102.1 110.8 111.7 107.8 105.5 104.5 103.7 102.7 100.8 98.4 89.8 82 77.5 81.3 75.9 75.5 79.4 78.7 84.6 82.3 85.8 93.5 94.6 93.9 93.9 93.9 93.8 96.8 93.9 95.4 96.3 97.2 98.6 102 106.6 109.4 108.7 111.3 114
268.7 254.3 241.6 229.7 221.3 214.9 208.9 203.6 198.1 192.6 187.9 183.4 181.7 182.1 183.1 184 184.2 184.7 187 191.5 194.1 195.2 196.2 196.4 197.8 198.7 197.5 194.6 191.5 190.5 191.8 192.9 195 196.6 198.1 199.5 199.7 201 202.9 204.7 204.1 204.3 204.1 202.9 200.9 197.8 195.7 193.3 189.9 186.9 181.3 175.3 168.3 154.9 160.3 163.9 169.6 176.6 179.9 180.2 179.1 178.6 176.6 171.5 162.5 151.2 139.5 135.3 134.6 133.6 130.9 124.7 116.4 120.6 131 134.6 137.3 139.1 141.1 142.4 143.7 146 148.8 150.9 153.3 155.3 156.3 155.2 155.6 156 153.8 147.9 146.2 148.5 148.8 149.7 149 144.5 139.1 131.6 121.2 131.5 139 144.5 148.2 150.2 150.8 150.2 149.7 149.5 149.2 149.7 149.2 148.6 147.7 146.2 143.8 141 139.5 138.5 139.3 138.3 138.8 138.4 139.8 141.8 140.4 140.3 141.5 144.4 147.6 148.5 148.3 147.1 144.5 140 134.3 127.9 120.5 117 120.1 121.1 119.6 116 113.6 112.9 113.1 115.8 115 113.2 107.6 101.1 95.3 88.6 79.1 77.3 74.4 77.2 77.9 78.1 78.9 85.8 99.1 103.6 104.9 102.4 102 101.8 101.4 99.7 91 75.8 81.1 81.6 81.6 89.4 89.3 85.2 91.6 96.3 96.5 95.5 100.1 100.2 102.8 102.6 101.5 105.7 105.2 101.4 105.6 105.2 102.2 97.8 107.1 104.3 107.9 111 113.2 111.4
263.8 257 244 238.8 227.3 216.4 210.1 203.8 197.7 192.2 187.7 182.2 179.8 179.8 180.7 180.1 179.3 179.2 180.6 184.9 187.6 189 189.4 191.8 195.9 199.7 199.1 195.9 192 188.7 188 187.9 189.1 190.4 191.8 193.2 193.7 196 198.9 201.8 201.4 201.6 201.6 201.1 199.7 197.7 196.3 194.1 191.5 188.6 185 180.4 174.2 167.4 159.5 157.3 163.3 170.1 173.8 174.6 174.2 174.5 173.6 169.8 162 149.7 138.5 132.4 130 128.4 125.9 121.7 114.6 116.9 125.2 130.7 132.6 134 135.5 136.6 137.4 139.4 141.5 142.5 144.4 146.4 147.2 147.2 148.5 149.2 149.8 146.1 140.2 143 143.9 144.7 143.9 140.4 135.2 125.9 124.7 133 140.5 143 142.9 142.6 142.8 141.3 141.1 141 141 141.1 140.7 140.7 139.3 135.9 131.6 127 124.4 124.1 125.6 126.3 125.9 126.9 130.1 129.8 126.6 129 131.5 135 140.1 142.3 141.1 139.3 137.1 132.6 127.2 122.1 117.6 114.3 111.1 111 112.4 109.7 108.7 108.5 108.9 110.5 109.2 107.8 100 92.3 86.8 77.9 75.5 77.2 78.7 76.7 77.7 77.9 78.1 76.6 77.5 87.1 94.5 97.8 98.5 100.3 98.6 94.8 80 80.6 81.7 83.3 87.6 87.3 92.1 97.8 99.4 101 102.3 100.7 103.2 106.9 109.6 109.7 110.8 112.2 113.7 113.2 114.1 113.7 109.5 102.9 111.4 115.6 116.1 115 119.1 122.2
254.5 252.5 242.9 236 233.3 219.5 209.7 202.1 195.3 190.7 186.6 181.3 177.6 177.4 178.3 177.5 176.4 175.5 176.4 178.6 181.1 182.6 183.1 186.9 193.9 197.2 197.8 196.5 192.6 188.7 186.4 185.4 184.9 185.9 187.1 187.8 188.7 191.2 195 198.3 198.7 198.4 198.8 198.1 197.1 195.9 195.2 193.6 191.6 188.9 184.6 179.7 174.4 168.2 161.6 151.9 157 163 166.5 168.9 168.9 170.5 171.7 168.5 164.3 153.7 144.3 136.2 130 127.7 124.3 119.9 114.4 114.4 120.3 128.6 129.8 130.1 130.8 131.6 132.6 133.5 134.6 135.5 136.9 138.6 138.8 138.3 141.2 141.7 141.8 139.6 135 135.7 137.4 138.5 138.9 136.3 131.7 122.2 122.1 133.8 136.2 136.7 136.1 135.4 134.6 133.2 132.9 132.7 132.9 133.2 134 134.6 131.1 127.8 120.8 113.5 109.6 109.1 108.4 108.6 108.1 112.4 118.5 115.7 112.3 116.7 122.3 127.4 132.4 134.7 132.8 130.7 129.1 124.7 119.4 117.4 114.9 112.1 109.9 107.5 106.4 107.1 106.1 105.6 105.9 106.4 105.5 103 94.1 87.3 81.6 74.2 76.6 77.4 78.1 73.2 75.6 74 78.1 78.2 78.2 77.5 82.5 89.2 94.6 96.2 93.9 84 75.9 80.4 82.5 87.8 93.9 99.1 95.1 94.4 99.8 103 105 106.7 110 114 116.3 117.6 117.2 118.4 121 117.1 116.2 116 107.3 108.5 112.5 106.2 108.3 112.2 112.3 119.6
244.9 241.6 236.6 226.9 234.9 222.1 209.1 199.7 191.9 187.4 184 179.5 175.9 175.5 175.9 175.3 174.3 173.2 173.1 173.7 174.2 175.3 178.5 183.8 187.9 187.6 190.7 195 193.3 188.9 185.2 182.8 182.2 182.9 183.2 183.6 184.1 187.1 191.5 194.8 195.7 195.4 195.6 193.8 192.2 192 192.2 191.4 190.4 188.3 184.7 179.8 174.6 167.6 161.6 155 150.6 156.5 159.3 162 163.5 166.6 168.4 168.8 167.1 163.4 154.3 144 136.9 132.9 126.3 119.9 114.2 110.9 120.1 127.5 128.3 128.6 128.8 129 129.6 130 130.5 131.2 131.3 131.8 131.5 131.7 133.7 134.1 133.8 133.1 130.6 128.2 129.2 130.8 132.4 131 127 121 114.3 122.9 130.2 129.7 128.6 127.8 126.8 126.2 126.7 127 127.9 129.1 130.6 132.2 128 124.3 120.4 118.1 114.2 110 105.9 102.4 99.4 100.7 106.9 103.8 100.6 108 115.4 120.2 122.9 123.9 121 120.7 121.9 118.2 114.8 113.4 112.9 110.5 108.2 106.8 104.7 102.5 104.5 103.4 102.9 104.8 103.6 99.4 91.1 83 79.9 71.8 76.6 76.7 77.3 80.1 81.2 79.8 78.6 78.1 75.3 79.2 79.2 82.7 88.9 89.6 83 80 77.2 81.2 88.3 94.3 99.6 103.7 99.9 98.1 103.5 108.4 111.7 113 117.7 120.5 122.1 123.1 123.1 123.7 123.9 121 118.3 116 105.2 111.6 116.8 116 114.6 115.3 118 116.4
242.8 235.5 229.7 224.2 224.4 220.2 206.8 197.4 190.7 186.3 182.9 179.8 176 174.1 173 173.4 172.5 171.6 170.7 169.3 169.5 173.3 179.3 183.1 179.9 178.9 183.2 189.3 193.5 190.7 186.9 182.8 180 180.1 180.1 180.5 181 183.3 188.7 192.1 192.4 191.2 191.2 188.8 184.8 184.2 186.2 187.2 187.2 185.5 183.4 181.1 176.1 172 166.6 159.2 149.5 150 152.6 154.8 157.9 162.3 165.2 167.8 169.2 167 160.1 150.8 142.5 135.5 127.4 121.6 116.1 113.5 116.7 124.5 127.1 127.6 127.8 127.8 127.5 127.5 127.8 128.1 127.6 127.4 127.5 128.4 129 129.6 130.2 129.6 128.2 125.2 125.4 125.9 125.1 124.5 122.7 119.1 108.7 108.2 118.8 123.5 123.3 122.9 121.8 121.3 122.8 123.9 125.9 128.2 130.5 132.1 130.7 128.5 126.5 123.5 122 118.7 113.6 109.6 105.3 100.1 96.9 95.1 93.5 101.4 113.8 113.8 113.1 112.8 112.2 115 114.9 114 112.4 111 110.6 108.9 107.4 105.8 104 101.5 101.8 102 100.2 102.2 101.3 101.1 90.2 80.7 78.6 77 75.9 76.5 79 82.8 84 83.5 81 78.5 75.9 78.2 79.2 79.5 79.3 79.2 79.2 79.8 78 85.4 86 97.8 103.5 103.8 103 104.1 109.1 114.1 116.1 116.6 117.5 120.1 121.1 126.9 127.9 127.7 125.4 123 120.5 116.6 103.7 114.3 118.4 119.4 119.8 121.2 123.4 124.9
251.2 241.8 233.3 224 218 209.2 202 195.9 189.9 185.9 182.4 179.5 175.8 172.5 171.1 170.5 171.1 170 168.3 166.1 168.3 173 177.9 179.4 173.4 172.3 176 183.6 191.2 192.1 188.1 183.9 180.6 177.5 176.9 177.4 178.4 179.4 188.5 190.8 188.4 186.4 186 184.1 179 174.9 176.5 178 179.2 179.3 178.6 178.9 177.3 173.6 169.6 163.5 156.7 148.8 144.7 147.9 153.4 158 162.4 165.8 169.3 169.9 165.2 157.5 148.1 139.9 133.2 126.6 120.1 112.7 112.6 117.5 123.5 126.2 126.7 126.5 126.4 126.2 126.1 126.1 125.6 125.1 125.4 126.6 126.8 127.1 127.7 128.3 127.6 124.9 122.9 121.7 120.2 120 120 118.6 112.7 106.8 116.7 119.1 118.3 117.8 118.5 121.5 122.3 126 128.9 129.7 130.5 130.9 131.8 131.1 128.4 126 125.3 121.4 119.1 116.6 112.5 107.3 102.2 96.9 91.5 100.3 108.2 110.7 110.7 98.7 109.3 112.1 111.6 110.7 109.2 108.7 108.5 107.4 105.6 104.5 103.2 101 99.8 100.1 98.3 98 98.8 100.2 90.1 80.2 78.4 77 71.6 76.4 79.6 83.6 84.6 85.5 83.9 81.2 79.6 74.8 78.5 75.9 77.4 74.8 77.2 80.8 92.4 97.4 88.9 89.6 99.2 103.7 107 107.1 108.8 111.3 113 113.9 116.4 118.8 120.7 125.5 130.5 131.1 129.3 127.3 121.9 114.5 101.5 116.2 121.6 122.5 123.6 124.6 127.2 130.2
263.8 251.5 239.2 227.6 219.6 210.1 200.8 195.7 189.7 185.5 181.8 179.1 175.4 173.2 170.4 168.2 168.1 168.4 166.6 165.3 164.6 168 172.2 173.5 168.8 166.2 171.9 178.5 185.5 188.9 187.6 184.9 181.3 177.9 175.1 174.8 176 179.9 185 188.9 184.7 181.3 180.5 176.1 171.9 169 168 168.5 168.5 167.4 168.5 170.5 171.3 167.9 165.5 161.6 159.1 150.5 148.4 140.7 149.3 153.7 157.5 161.2 165 168.3 165.6 156.8 145.7 141.7 139.1 132.9 124.3 115.4 111.4 112.1 117.9 125.2 125.5 125.4 125.3 125 124.8 124.9 124.6 123.9 124 125 125.6 125.8 126.2 126.6 126.1 125.5 123.3 120.4 117.5 116.3 117.1 117.9 112.9 104.2 114 115.9 115.9 118 122.4 123.8 124.9 127 128.6 129.4 128.9 128.1 129.2 128.6 128.6 127.5 126.8 123.3 120 120.4 119.3 114.6 109.8 103 95.7 91.6 94.6 100 100.6 96.3 108.3 109.1 109.1 107.8 106.2 106.5 106.8 105.8 104.2 103.5 102.2 100.4 98 98.2 96.4 95.9 97.5 100.7 90.6 80.9 78.1 77.3 76.2 76.1 77.6 81 84.1 85.8 87.1 88.5 87.6 85.9 81.5 81.2 76.4 94.6 99.7 97.9 103.6 100.1 93.7 94.7 96 102.4 107.9 111.6 113.5 112.6 113.6 116.9 119.4 122 124.1 125.5 129.1 131.4 132.7 130.8 126.5 115.6 108.6 124.2 127.6 127.3 123.9 125.5 131.3 135.8
274.7 260.8 246.8 230.4 222.3 215.1 203.2 198.2 192.5 187.7 184 180.4 177.4 174.6 171 167.4 165.6 165 165.4 164.3 163 163.3 167.8 167.9 163.3 165.7 170.9 174.8 177.5 180.1 182.1 183 181.5 178.2 174.9 173 173 175.2 179.5 183.6 181.2 177.8 175 172.6 167.4 164.9 163.9 163.3 160.2 159.4 159.9 161.6 161 159.2 157.4 155.3 153.3 150 148.2 143 143.6 149.2 152.4 155.6 157 153.5 151.7 144.2 138.7 134.6 132.1 128.9 125.3 119.6 112.9 107.2 113.1 121.8 124 124.3 124.1 123.8 123.7 123.6 123.6 122.3 122.7 123.5 124.3 124.4 125 125.3 125.1 124.7 122.3 120.7 118.1 117 116.5 115.3 113.6 104.5 110.4 116.7 121.1 125.2 128.7 125.4 126.9 127.6 126.8 125.6 124.9 125.6 125.5 125.2 125.4 126.2 127.4 124.8 120 117.5 118.5 119.3 115.3 109.6 102.9 97 91.5 89.3 88.9 100.6 106.6 107.3 107 106.2 104.3 104.6 105 104.1 102.8 102.1 101.6 100.4 97.8 96 94.5 93.5 95.6 98.3 93.3 83.9 78.3 76.8 76.1 73.1 76.5 78.2 82.5 86.3 89.3 93.1 93.3 90.5 91.4 95.6 99.4 101.7 103.1 105 106.4 103.4 100.4 99.2 103.8 98.6 107.2 114.9 117.3 118.1 118.4 121.6 124.7 126 127.6 128.6 129.2 131.9 132.8 130.7 124.9 112.7 110.8 119.1 128.4 132.6 135.3 132.1 135.6 142.1
280.2 268 254 236.9 226.3 218.5 207.7 200.3 194.5 189.3 184.8 181.4 178.2 175.2 172.5 168.9 165.4 162.9 161.9 162.4 161.6 159.8 162.5 165.1 160.4 164.9 169.2 168.5 169.2 171.9 175.3 177.9 180.9 178.2 174.9 171.7 170.5 171.6 174.9 179 178.9 175.2 170.7 168.4 164.9 161.7 159.8 159.6 156.6 155.9 157.2 158.3 157.2 155.2 153.2 151.1 149.1 148.1 146.4 144.2 138 145.4 148.1 150.4 151.7 146.1 141.6 138.2 134.5 132.9 130.6 126.3 124.3 121 115.6 109.8 109.8 116.8 120 122.7 123.2 123.2 122.9 123.4 122.4 121 121.5 122.9 123.8 124.6 125.7 125 124.6 124.1 122.7 123 122.5 121.5 119.1 115.3 112.2 104 110.6 123 124.7 123.3 127.4 127.2 127.9 126.9 123.1 121.4 122.1 124.1 123 122.7 122.2 123.5 124.1 124.7 121.1 115.4 111.9 114.7 118.4 114.9 108.7 104.4 97.5 91 86.7 96.9 105.6 105.4 105 104.6 102.8 103.1 103.4 102.8 101.6 101.1 100.5 100 98.9 96.2 92.3 90.3 90.6 92 92.9 89.1 82.2 76.4 76 76.2 72.1 77.2 80.7 84.8 88 94.5 95.9 92.3 91.7 93.9 97.3 100.6 103 106.3 107.8 106.5 103.9 102.5 106.7 101.9 106.3 111.3 115.9 117.9 121.6 125.6 129.3 130.9 131.9 132.4 132.8 133.4 134.1 132.3 125.4 112.4 118.9 122.7 120.1 118.7 133.4 136 139.8 143.2
283.7 273.4 258.7 244 235 222.3 207.6 199.7 193.6 188.8 184.3 180.8 177.5 174.2 171.5 168.8 166.1 162.8 159.8 158.9 159.5 158.8 157 160.2 157.8 160.9 163.2 162.2 163.2 166.7 170.2 174.3 177.6 177.6 174.6 171.4 169.2 168.6 171.6 175.8 177.1 176.3 172.4 167.4 163.1 159.9 156.6 155.8 153.1 153.6 155 156.3 156.5 154.9 152.1 149.3 147.4 146 145.2 144.5 139.4 140.3 144.9 147.6 149.3 149.7 147.3 144.5 144.3 143.2 139.2 136.1 131.9 125.8 118.4 112.6 108.4 110.6 116.2 119.3 121.5 121.9 121.7 121.6 119.5 121.7 123.8 125.5 126.4 126.2 126.4 125.4 123.6 122.9 122.6 122.6 122.8 121.3 119.1 117.1 113.3 107 105.6 120.8 123.9 126.9 126.4 125.1 125.6 125.2 120.6 118 120.7 122.2 121.1 120.8 120.3 120.3 120.9 121.4 120.3 116 110.8 107.3 112.3 117.5 112.9 109.2 102.2 95 88.2 91.4 103.2 103.7 103.2 102.8 101.4 101.3 102.1 101.5 100.8 100.1 99.8 99.3 97.1 93.3 90.2 88.3 87.3 88.7 89.7 89.6 86.6 77.8 75.2 75 75.3 75.7 76.4 79.2 81.7 89.9 95 92.5 91.1 92.9 95.7 99.1 102.1 104.5 105.8 105.4 106 106.1 108.3 111.1 115.2 116 117 119.2 122.2 127.3 132.3 135 135.9 136.1 135 135.2 133.8 130.7 125.1 112.8 125.5 128.8 128 126.3 125.2 124.7 130.7 133.7
285.1 275.9 261.9 237.8 240.2 229 211.5 199.4 193 188 183.2 179.3 175.9 172.7 170 167.4 165.1 162.5 159.6 157.2 156.2 156.6 155.1 157.7 156.5 154.5 155.8 155 159.9 163.8 168.1 172 175.7 176.2 173.8 170.9 168.5 166.7 169.4 172.9 175.5 176.2 175.2 172.5 168.9 163.7 159.6 156.1 152.7 150.7 151.4 154.5 156.1 155.4 152.9 150 147.8 145.6 144.6 143.6 140.7 137 142.4 144.9 144.6 145.6 147.2 148.6 150.1 151.5 145.8 142 135.2 128 121.1 114.7 109.2 107.1 109.1 115.8 118.7 120.7 120.1 117.9 117.3 120.8 122.9 124.4 126.3 126.1 126.2 126.7 124.3 122.8 122.2 121.4 117 115.5 114.7 115.5 114 108.9 106.3 117.3 123 128.2 127 122.5 123 122.7 119.3 115.8 118.2 119.5 119.2 119 118.6 117.8 117.4 118.2 117.6 115.8 110.3 105 106.2 113.8 113.7 109.7 103.1 97.1 89.9 86.8 101.2 102.5 101.9 101.7 100.5 99.3 100.7 100.4 99.4 98.2 97.4 95.5 92 88.6 88 86.9 84.8 85.5 87.4 88.1 85.7 77.5 75.2 74.7 74.6 74.9 76.9 82 84.3 84 93.3 93.4 91.3 92.1 94.5 97.7 100.7 101.6 102.9 104.7 106.4 108.5 112 115.5 118.9 121 122.2 121.8 122.4 127.6 132.5 135.5 136.4 137.6 137 136.4 134.7 131.3 125.1 116.1 128.4 131.4 134 134.8 133.9 131.5 130.9 131.5
284.2 276.4 265 244.6 246.8 229 211.4 200.8 193.9 187.6 182.3 178.3 174.4 171.2 168.4 166.1 163.9 161.7 160 157.9 155.1 153.9 152.8 152.6 151.9 150.9 151.6 154.7 160.2 165.1 169.9 173.8 174.7 174.2 172.9 170.4 168 165.5 166.3 170 172.9 174.9 175.2 174.6 172.3 168.1 164.7 160.7 155.7 150.8 147.8 151.4 154.1 153.8 151.6 150.3 148.1 145.3 144.3 143 141.4 133.3 138 141.8 141.5 141 141.1 141 141.6 143.1 143.4 142.1 135.8 129.9 124.1 118.4 112.3 106.7 107.1 111.9 114.9 118.1 118.2 113.8 116.5 118.8 120.2 120.7 121.8 122.1 123.7 126 126 125.5 124.5 121.7 118.7 116.2 112.4 111.6 112.3 109.2 103.9 117.5 124.7 127.1 125 121.5 121.1 119.7 116 113.5 115.7 116.4 117.3 116.7 117.6 116.6 115.1 113.7 113.7 112.8 110.1 104.2 102 108.7 113 108.3 102.9 98.5 91.6 85.3 91.3 101.7 100.5 100.8 99.7 98.1 98.4 99.1 98.3 97.2 96.1 92.2 88.5 87.1 86.6 85.8 82.7 83.8 85.8 86.4 85.1 79.1 75 74.6 74.8 75.4 76.5 81 90.4 81.7 90.4 94 92.3 92 93.6 96.6 99.2 101.1 102 104.5 107.8 111.7 115.9 119.4 122.5 124.8 126.3 124.7 125.6 127.9 131.2 133.9 135.4 136.8 138.1 137.5 135 131.2 123.6 115.3 128.5 135.4 138.8 140.4 139.2 136.9 136.9 138.2
280.5 273.5 262.3 245.3 243.3 224.7 213.2 202.8 194.9 188.2 183 177.5 173.4 170.5 167.8 164.9 163 160.6 158.7 157.8 156.4 153.9 151.4 150.3 149.3 149 152.1 155.8 160.3 166.8 171 171.3 171.4 171.4 170.8 169 166.6 164.5 164.8 168.1 171.4 173 173 171.9 170.5 168.7 165.9 162.1 157.7 152.7 148 147.8 150.5 151 150.1 148.6 146.6 144.5 143 141.7 140.8 138.9 133.2 137.9 139.4 139.1 138.5 138.3 136.4 136.4 136.5 135.5 131.6 127.3 123.4 120.4 115.6 105.5 105.2 107.3 109 111.9 114.3 110.8 115.4 117.1 117.3 118.1 118.5 119 120 121.7 123.9 125.9 125.4 120.4 112.8 111.9 111.3 108.8 107.8 105.8 102.9 118.3 122.8 123.1 120.4 117.7 119.9 117.2 113.6 110.7 113.2 112.7 114.2 115 116.6 115.4 114.3 111.6 108.9 107.3 106.5 103.3 100.6 103 109 106 101.6 98.5 93.4 86.2 82.8 87.2 94.7 99.1 98.8 95.1 92.5 94.8 90 89.8 90.2 91.3 86.9 85.4 85.2 81.5 78.2 79.5 83.6 84.9 84.1 80 74.7 71.7 75.4 75.5 75.9 80.4 91.7 87.1 86.7 93.6 92.6 91.8 93.5 97.2 100.3 103.1 104.6 106.4 109.2 113.4 117.9 122.5 125 127.4 128.9 127.8 128.9 131.4 132.6 133.5 134.9 135.2 134.3 132.1 129.4 125.8 122.6 119.8 121.7 133 140.4 141.1 141 140 140.2 142
274.2 264.1 247.4 251.7 237.4 221 210 201.3 194.6 188.9 183.4 178.8 176.1 173 169.4 164.6 162.5 159.8 157.5 156.6 155.8 154.1 151.5 149 147.5 147.1 149.6 155.1 160.6 167 168.6 166.1 166.2 166.7 168 167.4 165.2 162.9 163.4 167.2 168 169.3 169.2 167.8 166.3 164.8 162.3 159.3 156.5 152.9 148.3 145.1 147.2 148.2 147.5 145.7 144.6 142.8 141.5 140.6 139.7 138.8 129.2 133.7 138.3 138.3 136.6 136.5 134.4 131.6 132.5 134.2 132.6 127.7 124.5 122.5 121.7 119.6 104.4 101.8 103.3 105.3 106.5 106.3 107.7 107.5 108.5 113.1 116.7 117.2 117.3 117.8 118.9 120.4 119.6 116.6 114.4 111.9 110.8 108.2 105.4 103 99.6 110.3 118.6 118.1 114.7 116.4 117.5 115.8 113.9 108.2 106.7 111.5 114.6 116.2 115.5 114.3 113.8 112.7 110.4 107.6 105.1 102.1 100.5 99.7 101.9 101.5 97.5 94.1 91.6 85.5 83.3 81.1 84 90.6 92.4 88.4 85.5 83.3 79.4 77.9 79.1 81.6 85 83.4 80.8 74.1 73.8 73.9 75.7 80 78.6 75.2 74.4 74.8 71.1 75.4 75.6 80.8 95.8 90.6 85.4 93.1 91.5 91.7 93 97.2 101.2 103.3 106.3 108.7 111.8 114.5 118.9 122.2 125.1 128.5 131 130.5 131.6 133.8 134.9 134.8 133.6 131.7 129.1 126.3 125.3 125.1 126.5 127.9 120.1 129.2 136.2 138.7 139.5 141.8 142.6 144.2
259.7 251.5 256 244.1 230.2 217.1 207.7 199.1 193 188.2 183.7 180.5 176.5 172.9 169.3 165.4 162 159.3 156.5 155.3 154 152.6 150.7 148.2 146.4 145.4 146.2 153.6 161.2 165.7 163.3 160.1 160 161.9 163.5 165.1 163.2 160.5 163.1 164.9 165.4 165.6 164.9 163.8 162.2 160.6 158.7 156.3 153.8 151.3 148.7 144.8 144.4 145.4 144.5 143.3 142.2 141 140.1 139.4 138.6 137.7 135.4 129.4 134.3 136.6 135.2 133.7 130.9 128.7 128.8 130 130.5 128.7 127.4 126.3 125.2 124.6 123.8 116.2 100.1 99.8 99.4 102.6 102.3 101.5 101.4 106.8 112.6 115.7 116 116.1 116.3 116.9 115.7 113.5 112.4 111.9 111.5 110.9 108.3 103.5 96.5 106 115.2 114.2 111.4 114.9 115.4 114.2 112.5 105.6 105.8 112.1 114.4 115.1 115.4 112.3 112.7 114.3 112.5 109.3 106.7 106.5 106.3 103.6 100.5 99.4 98.2 94.6 93.3 95.3 89.7 87.4 82.3 80.4 81.8 80.8 81.6 77.5 72.6 72.4 72.6 70.7 75.3 76.6 73.2 73.2 73.4 73.5 73.4 73.7 73.8 74 74.4 74 75.5 76.8 78.4 86.4 96.9 93.2 88.1 88.3 89.7 91 93.5 96.2 99.2 101.8 104.7 108.2 110.9 114.1 117.2 121.1 126.2 129.6 132.7 132.8 134 136 136.6 135.5 133.3 131.2 128.7 128.3 129.4 132.1 134.5 135.5 129.1 127.5 132.3 136 139 142.1 144.5 147
250.9 254.5 249.1 236.3 224.8 213.4 204.9 196.7 190.3 185.4 180.9 176.9 173.8 171.4 168 164.7 161.5 158.7 155.9 153.1 151.9 150.5 149.6 149 146.7 144.2 144.1 151.4 159.3 162.9 158.5 156.1 155.4 157.2 159.9 162.2 161.3 159.6 161.1 162.7 163 162.6 161.5 160.5 158.8 157.1 155.5 153.7 151.9 150 147.9 144.3 141.6 142.6 141.4 139.8 138.8 138.9 138.9 138.4 137.8 137.2 136.3 130.8 129.5 132.7 134.1 132.9 130.7 127.9 124.4 125.1 123.7 124.5 126.7 126 125.2 124.1 122.5 119.4 115.1 106.8 103.8 102.2 99.5 99.4 99.4 100.1 104.6 109.9 111.7 114.1 114.3 114.8 114.5 113.7 112.6 110.7 109.1 109.1 109 103.8 96.2 104.6 112.8 110.5 108.4 110.9 110.3 110.8 110 103.5 103.6 108.4 109.6 108.8 108.9 109.8 113.1 115.7 115.9 114.9 113.6 113.6 113.6 111.3 107.2 105.2 103.1 102.1 99.9 95.3 95.5 96 91.3 86.1 81.6 77.1 80.2 72.4 71.9 72.3 72.7 72.5 70.4 73 70.6 68.1 68.3 68.4 74.1 72.6 73.5 73.4 74.2 73.2 80.8 84 88.3 93.9 97.3 93 90.2 89.2 90.7 92.9 96.2 96.9 98.4 100.6 103.7 107 110.3 114.1 118 121.5 126.1 130.8 133.9 135.4 136.4 137.2 136.7 134.8 132.7 131.1 131.1 132.9 136.1 140.4 143.2 140.1 134.5 127 133.7 136.9 140.2 143.1 145.3 148
255.3 248.6 240 229.7 219.9 210.5 201.5 193.7 187.8 182.9 178.7 174.4 170.7 168.5 166 163.5 160.8 158.1 155.1 152.5 149.7 149 149.8 151.7 149.9 143.5 141.9 148.8 156.5 157 153.6 151.4 152.1 153.7 157 160.1 160 158 158.8 160.1 159.9 159.5 158.5 157.2 155.6 154 152.4 150.9 148.9 146.9 145.6 142.7 139.4 138.9 138.3 136.2 134.9 134.1 134.1 135.1 136.8 136.1 135.4 133.3 125.8 129.9 132.3 131.5 130.4 127.7 122.3 116.5 115.4 116 116.8 120.2 122.3 118 117.1 112.4 105.1 106.7 108.5 108.7 110.8 110 103.2 99.7 98 99.8 105.5 109.6 110.8 112.4 113.2 113.6 114.7 112.8 110.5 108.4 107.5 102.7 95.4 109.3 111.3 110.2 106.9 105.3 105 104.3 104.9 101.6 101.2 103.9 104.6 103.8 106.8 111.5 116.2 119.6 121.5 122.7 120.7 119.4 116 115.6 114 112.6 110.5 107.9 104.3 101.3 99.9 99.1 97.4 94.8 88.7 81.4 73.5 71.9 66.8 73.1 73.6 73.7 72.5 72.7 72.8 73 73.3 73.8 74.8 74.1 74.5 69.2 71.9 81 88 92.1 97 100.2 98.9 95.3 91.8 90.5 92.2 95.4 99 100.1 100.3 102.1 103.5 106.7 110.5 115.5 120.3 123.9 127.7 131.6 135 136.8 138.3 138 136.4 134.6 133.5 133.6 136.2 139.4 142.9 148 144.9 140.3 135.3 127.7 133.3 137.8 141.3 144 146.2 149.6
247.8 239.8 232.6 225.5 217.2 206.9 196.7 189.5 184.4 180.5 176.5 172 167.7 164.9 163.6 162 159.6 157.4 153.9 151 148.8 148.5 151.1 152.3 152.9 146 140.2 145.1 151.1 151.6 147.9 146.4 150.3 154.6 158.3 159.4 159.2 157.6 156.7 157.7 157.5 156.7 155.8 154.8 152.9 150.9 149.3 147.2 145.2 143.2 141.3 139.5 137.5 135.7 133.9 129 130.1 129.4 130 129.6 131.2 133.1 132.3 131.1 128.1 124.6 129.3 128.9 126.2 120.6 117.1 113.6 115.6 114 113.5 111.1 112.5 110.9 108.9 107.5 111.6 116.9 112.6 108.7 110.4 117 115.4 104.3 99.1 97.3 99.2 104.1 105.2 106.8 108.8 110.7 111.7 115 112 110.7 107.9 103.3 96.2 96.7 111.2 110.2 110.3 108.3 105.6 101.9 99.8 99.1 100.5 101 101.5 102.8 105.4 113 121 126 126.8 121.3 117.1 114.7 111.5 111.4 116.6 120.2 116.9 112.2 108.6 103.4 101.1 99.5 98.8 97.7 95.4 86.3 75.5 69.4 72.2 72.6 74.3 75.6 73.8 72.9 73.3 74.5 74.5 75.2 75.9 76.1 77.6 82.5 85.2 91.4 97.4 100.8 104.1 102.7 101.2 98.4 95.2 92.6 95.2 99.6 101.7 102.2 102.7 104 105.1 106.8 110 114.4 119.6 124.2 128.3 132.4 136.7 138.5 138.7 137.5 136.3 134.7 134.9 137.7 141.6 145.9 149.3 148.7 145 142 136.9 131 128.6 135.6 141.1 144.8 147.7 150.6
237.9 232.1 227.7 222.8 216.2 205.3 194.3 184.9 181.2 177.6 174.1 170 166.1 162.7 161.1 160.8 158.6 156.7 153.6 149.5 147.2 148.7 150.7 151.5 151 147.2 139.7 139.3 141.1 141.8 142.9 148.1 152.2 153.1 155.2 156.1 157.4 156.5 154.7 155.5 155.6 154.9 153.3 151 149.4 146.2 144.7 142.5 140 140.5 140.3 141 142.8 144.3 145.6 144.6 142.2 139.4 135.6 132.7 130 124.9 126.1 125.6 123.9 123.1 124.9 123.2 121 117.1 118.3 124.5 123.5 127 123.6 119.1 114.4 114.8 116.9 119.7 121 121.1 117.3 111.6 107.5 109.5 114.6 109.7 99.9 97.1 94.1 99.3 100.1 98.5 98.7 103.3 106.6 111.7 113.4 111.5 110.6 107 99.9 94.5 107.6 110.1 108.4 108 107.6 103.8 98.6 102.3 107.1 107.6 107.2 109.7 110.5 111.7 118.4 124 123.3 119 115.5 111.3 107.5 108.4 113.2 118.9 119.5 116.6 110.9 105.1 101.3 99.6 99 98.4 96.1 88.8 74.8 72.4 71.4 71.8 73.9 76 77.8 78.8 79.4 80.9 80.1 80.1 79 79.6 86.2 92.9 97 101.8 108.2 108.3 108.1 105.7 103.7 101.2 99.3 95.7 97 101.1 103.5 104.8 105.4 106.7 108.2 110.1 112.4 112.4 116.6 122.1 127 131 135.2 136.9 136.9 135.9 135.7 136.3 138 142.5 146.7 150.8 151.8 150.2 146.9 143.7 138.6 135.1 135.6 134.5 139.6 143.4 147.9 151.8
228.5 225.5 222.4 219.6 213.7 205.4 193.4 182.6 178.1 174.7 171.3 167.7 163.9 160 157.9 158.4 157.5 155.5 153.1 148.4 144.7 147.4 149.5 149.9 148.4 146 140.4 136.8 137.1 138.2 145.4 152.5 149 147.8 150.8 153.4 155.6 154.9 154 152.8 153 152 149.8 146.4 144.1 144.8 144.8 145.3 145.8 149.7 151.5 152.5 152.9 151.9 149.5 146.9 144 141 138 136.8 135.2 133.1 132.1 129.4 126.9 123 121.9 118.7 118.2 119.3 128.3 125.4 129.6 133.6 131.3 130.7 127.5 124.2 125 126.5 124.8 122.7 119.8 115.4 110.2 106.8 108.1 112.8 109.5 98.4 95.1 93 95 92.6 90.7 90.4 89.7 96.7 109.7 111.6 111.1 109.5 103.9 96.9 98.4 109.5 107.4 105.2 104.2 100.5 99.5 102.3 106.5 110.2 113.4 115.6 116.6 116.9 118.6 120.2 118.4 114.6 113.7 108.4 105.8 103.7 107.4 112.7 113.4 112.6 109.2 104.9 101.2 99 98.4 97.2 94 88.4 77.5 68.2 71.7 71.3 73.7 77 78.9 81 83 84.3 86.4 88.2 87.8 84.2 88.5 98.7 107.4 108.4 110.4 111.1 110 107.6 105.2 103.1 99.9 96.6 97.5 101.5 105.8 108.3 109.5 111 111.9 114.6 117.9 116.9 116.3 120.5 125.2 128.2 131.5 134.1 134.4 134.3 135.5 137.6 141.9 145.2 150 153.4 152.6 150.7 148.3 144.1 140.3 139 140 142 142.9 145.1 150.1 153.7
222.7 218.5 215.6 213 210.3 206.4 196.9 187.2 179.1 170.2 167.7 164.7 161 157.3 154.8 155.5 155.3 153.7 151.9 148.2 142.8 146 148.3 147.2 145.9 144.6 140.8 135.8 135.6 136 141.9 146.4 142.8 147.4 154.5 156.7 156.7 155.5 153.9 152.6 150.4 148.7 147.3 147.1 150 152.6 155 155.9 156.3 156.9 156.4 154.2 151.2 149 146.7 144.3 142.4 140.4 138.6 137.5 137.4 136 135.1 132.9 131.3 126.9 124.5 125.8 125.6 128.2 129.8 128 132.4 137.1 137.6 137 133.7 132.3 131.2 128.9 125.7 122.6 120.1 117 113.8 109.3 105.6 108.8 113.9 110.9 100.4 89.9 91.2 91.8 89.5 90.1 88.2 89.6 106 109.5 110 109.5 107.1 102.2 95.4 96.2 101.1 104.3 98.2 97.8 101.1 105.9 109.5 111.6 113.3 113.6 114.4 113.6 115.3 116.4 115.7 113.5 112.6 108.4 104 100.9 102.5 104.7 105.6 105 104.6 102.5 100.5 98.8 98.1 97 94.1 89.3 81.5 72.7 71.5 71.2 73.6 76.9 80.6 83.1 85.8 89.4 92.9 97 96.3 91.6 87 92.3 101.3 107.4 110.3 110.4 109.2 107.9 106.6 103 99.3 97.6 100.1 103.3 107.4 111.1 113.3 115 116.2 117.7 122.9 121.8 119.8 120.8 124.3 126.9 129.4 131.5 132.4 133.7 136.2 140 144.9 148.9 151.4 153.3 152.8 151.3 148.1 144.5 142.6 142.6 143.9 145.6 147 146.4 151.7 155.2
219.8 214.8 209.8 205.3 202.8 202.6 201.3 193 184.3 173.8 165.4 163 158.6 155.4 152.6 151.8 150.7 150.2 148.3 146.2 142.9 144 146.4 146.3 144.5 144.4 143.5 136.8 134.2 134.3 136.9 139 145.1 151.7 160.7 158.6 155.9 155.6 155 153.9 150.8 148.4 149.4 151.4 153 156.6 160 162.9 164.7 162.1 157.3 153.2 150 148.1 145.9 143.8 141.6 139.3 137.8 137.5 137.7 137.6 136.9 136.6 135.9 134 132.6 132.9 133.4 135.8 135.2 132 134.1 140.2 140.2 138.9 136.8 134.7 132.9 131 128.2 125.4 122.2 118.4 116.9 114 108.3 104.5 105 105.5 101.2 97.3 95.1 92.7 94.8 95.8 90.8 89.6 93.2 107.1 109 109.3 108.7 106.3 102.5 97.3 92.3 90.1 91 98.5 106 108.3 109.5 110.6 111.7 111.1 110.6 110.3 112.8 114.9 116.4 115.3 113.1 108.6 104.1 100.6 96.2 94.3 98.5 98.9 98.7 99.3 99 98.6 97.9 95.8 92.2 87.4 82 75.2 71.8 71.4 73.6 78.2 84.1 87.6 90.6 96.2 101.4 105.5 104.7 99.3 92 92.9 97.6 103.3 105.8 106.3 108.3 108 106.1 102.2 101.3 99.6 101.3 105.7 109.7 113.4 116.7 118.3 118.9 121.5 126.7 125.5 123.6 123.7 125.1 126.1 128.3 129.8 131.5 134.5 137.5 141.3 146.1 151.4 152.2 153.1 152.5 151.4 149.6 147.6 146.5 146.5 148 149.7 151.4 154 154.1 157.1
219.8 215.1 207.5 199.4 193.2 193.9 196.6 191.4 185.7 178.4 169.9 162.9 158.5 157.3 156.6 154.7 151.5 147.2 144.9 143.8 142.1 143 145.3 144.9 144.4 144.1 142.9 137.6 133.8 132.4 133.7 141.4 149.8 154.6 154.1 152.3 152 151.4 153.7 154.6 151.4 148 148.3 149.2 152 155.8 158.3 158.1 160.1 159.6 157 154.1 151.9 150.2 147.7 145 142.2 139.6 136.6 135.2 135.6 136.2 137.5 138.8 139.8 140.4 142.6 144.4 147.7 146.1 139.6 135.9 135.4 141.1 141.3 140.1 138.8 136.2 134.5 132.5 130.1 127.3 123.4 121.3 122.1 118.6 111.6 106.7 104.3 102.8 103.8 106.4 104.7 106.9 107.8 102.9 96.3 89.4 91.1 102.4 106.9 108.3 108.7 108 106.1 104.5 101.2 96 90.9 94.9 107.3 109.5 108.6 106.8 108.7 107.9 105.4 106.1 110.6 113.5 116 116.1 114.4 112.2 108.8 104.4 102.9 100.1 95.5 84.8 94.7 96.9 97.5 97.6 96.9 95.9 92.6 84.9 79.3 76.4 66 71.2 74.7 82.5 91.7 93.1 95.2 101.8 107.4 109 108 102.3 96.2 97.4 99 99.2 102.1 103.5 107.4 109.1 106.3 104.7 104 102.1 103.9 107.8 110.9 114.3 118.1 121.7 122.2 124.6 129.7 128.8 126.5 126.2 126.3 126.7 128.4 130.6 133.2 137.2 141.3 143.8 147.3 152.3 153.7 152.1 152.5 152.7 150.2 148.4 148.5 149.5 150.7 152.6 154.5 155.6 157.3 158.6
219.7 215.6 207.7 198.5 190 184.8 187.2 189.4 186.2 178.2 171.7 168.4 164.9 165 163 157.8 154 150.4 145.9 142.1 139.9 141.8 144.5 143 141.2 142.4 142.1 138.1 132.9 130.6 131.4 139.5 148.5 149.3 148.8 145.8 146.5 149.4 152.9 152.7 150 146.8 145.3 146.3 150.4 154.1 153 150.9 151.3 152.5 155 154.3 152.2 148.6 144.5 141.6 139.8 138 135.4 133 133.2 134.5 136.6 138.8 140.9 143.1 146.8 152.3 157.9 152.4 145.5 140.3 137.6 141.4 142.4 141.1 139.7 137.8 135.9 133.9 131.9 129 125.8 125.7 124.3 119.4 115.1 116.8 116 114.5 116 118.2 117.5 115.2 113.7 109.4 99.9 92 87.8 95 102.4 106.1 107.3 107.8 107.7 107.1 105.1 100 92.5 90.5 102.5 103.1 104.1 102.7 104.2 102.8 104.3 107.9 111.6 113.7 114.7 115.5 116.4 115.4 113.6 110.7 108.1 104.4 100 95.7 85.1 83.5 94.1 94.9 93.8 90.7 87.3 80.5 76.7 74.1 71.4 71.7 78.8 88.2 100.7 101.6 100.3 105.6 109 110 108.4 103.5 100.8 103 104.5 102.1 101.8 105.3 108.3 110.4 108.6 107.3 106.6 104.1 106.6 111.4 113.3 115.4 120.1 124.3 126.3 128 131.6 130.6 127.7 127.4 127.6 128.1 129.6 132.3 135.6 140.2 145.7 147.3 148.9 150.9 151.6 150.5 151.5 151.7 149.7 147.9 149.4 150.7 151.8 153.7 156 157.8 159.5 161.1
218.4 215.5 208.7 199.9 191.4 183.3 179.5 184 188.5 182.7 177.3 174.9 170.3 168.9 164.6 159.5 155.1 151.4 147.8 143.2 139.2 140.1 142.5 141.8 139.7 138.8 138.7 136.9 131.6 129.3 130.2 139.9 146.8 144.4 145.1 141.6 143.4 147.4 149.3 148.5 146.8 143.7 141.2 142.3 146.5 150.1 147.2 144.9 143.8 145.9 150.1 149.6 146.1 143.3 141.2 138.3 136 135.2 132.7 131.2 131.3 132.8 134.6 136.1 138.2 140.5 143.8 149.5 157.4 156.5 149.9 145 141.3 142.6 143.4 142.3 140.7 139.2 137.3 135.4 133.4 131.5 129.6 127.5 125.1 122.3 122.9 123.9 123 121.2 121.6 120.8 119.6 118.4 116 106.3 98.1 97.1 87.2 85.4 87.7 96 103.3 106.6 107.2 107.1 106.4 102.5 94.7 88 92.6 98.7 100.4 98.7 101 99.9 102.6 106.5 112.1 114.9 114.9 115.1 116.1 117.1 119.6 117.5 114.2 109.6 104.9 99.5 93.9 82.8 73.5 78.6 75 74.3 73.7 74.2 73 72.5 65.6 73.7 85 93.6 105.1 106.4 105.6 107.4 110 110.1 108.5 104.1 103.4 106.2 107.2 105.7 104.5 107.3 109.8 112 110.7 109.9 107.9 105.9 107.6 113.2 116.7 119.2 121.7 126.9 130.1 132.1 133.1 131 129.1 128.6 128.2 128.4 131.2 135 139.3 144.9 149.3 148.2 147.6 147.2 146.6 148.8 150.2 150.1 148.8 147.5 148.2 149.8 151.8 153.8 156.4 159 160.9 162.9
216.8 214.5 208.2 200.4 191.6 183 177.6 177 181.9 182.6 179.4 174.6 169.8 168.5 165.4 160 155.2 151.1 147.2 143.7 140 137.8 140.4 141.1 141.3 138.1 135 134.2 130 127.5 131 141.7 143 140.5 140.8 138.1 140.8 144.5 146.1 145.4 144.8 142.3 139.3 138.5 141.8 143.8 143.3 140.7 138.9 141.1 143.5 143.9 141.7 139.8 137.9 135.9 134.3 132.7 131.1 129.2 128.3 130.2 132.4 133.5 134.8 136.8 142.1 145.6 150.3 153.4 153.5 149.1 145.6 145.5 145.7 143.6 141.8 140.4 138.6 136.6 134.5 132.5 130.6 128.4 126.8 125.8 125.4 124.5 123.8 123.2 121.7 120 119 118.7 116.3 106 100.6 107.2 94.7 86.4 85.7 86.7 90.1 99.2 103.8 104.8 106 104.2 98.8 90.9 89.2 94.2 93.3 96.3 98.6 100.9 104 108 110.4 113.1 114.5 113.8 114.8 118.7 123.2 127.7 123.7 118 110.1 102.7 96.3 86 74.2 64.7 67.7 70.4 70.7 64.7 65.5 66.9 75.6 84.5 90.6 97.1 106.1 108.8 108.9 109.7 110 108.2 106.2 104.4 104.8 107.4 109 107.4 106.7 109.1 111.3 113.3 113.5 112.4 110 109.3 108.9 112.8 118.8 124.1 125.9 129 133 134.4 132.3 130.1 128.8 128.2 127.4 128.3 134.1 140.4 144.6 148.5 148.1 145.2 144.7 144 143.9 146.4 148.6 149.3 147.5 146.2 147.5 149.5 151.6 153.8 156.6 159.3 161.3 163.5
214.6 212.4 208.1 201 192.8 183.7 176.1 171.9 172.4 176 176.8 171.8 167.1 165.9 164 159.2 154.9 150.7 146.7 143.1 140.1 135.5 138.3 140.9 140.8 138.4 135.2 131.8 128.2 127.1 132.1 139.1 139.4 138 136.2 136.6 141.8 145.9 143.7 142.6 143 141.3 137.8 136 138.3 140.4 140.2 137.7 135.2 140.4 144.1 143.7 142.4 140.4 138.4 136.9 135.4 134 132.1 130.3 127.9 126.9 128.8 130.4 131.6 133.8 136.9 140.5 144.5 151.2 156.7 153.4 151.6 151.2 149.5 146.3 143.8 141.7 139.8 137.6 135.4 133.5 131.5 129.3 126.5 124.2 123.4 124 123.4 122.8 119.4 116.2 115.9 118 114.8 105.8 105.7 114.4 109.4 100.1 94.4 91.2 84.7 86.9 92.9 98.7 102.9 103.7 103 96 89.2 92.3 93.9 101.6 106 107.6 109.3 112.1 113.3 113.4 112.9 111.7 114 117.4 122.6 132.1 134.1 129.1 118.1 106.2 93.2 80.7 68 70.6 71.6 71.7 72.2 75.2 78.1 83.5 90.2 94.5 98.1 102.7 108.4 109.5 109.1 109.1 108.6 105.9 104.8 106.1 105.9 106.4 108.1 108.7 108.2 109.7 112.5 114.9 116.3 114.5 112.8 112.4 111.9 114.3 119.4 126 129.4 131.8 133.4 134.2 132.1 130 128 126.5 125.8 129.5 137.6 144.4 148 146.9 145.8 142.4 142 140.8 140.8 142.8 144.2 145.9 145.6 144 146.1 148.8 150.9 153.6 156.5 159 161.2 163.6
211 209.4 206.8 200.7 193.1 185.6 176.8 169 166 169.4 171.1 167 162.7 161.8 161 159 154.8 150.4 146 142.8 139.9 136 136.7 139 139.8 138.9 135.8 131.9 127.4 127 131.2 134.2 135.2 134.6 133.6 137.9 144.2 146.4 142.9 139.9 139.3 139.1 135.4 133 135.3 137.1 137 134.5 135 139.9 142.4 142.7 142.4 140.8 138.4 137.4 136.4 135.2 133.8 131.5 129.2 126.7 122.5 126.1 129.1 131.7 134.5 136.9 141.1 149.3 158.4 159.1 158.2 156.2 153.2 149.6 146.1 143 140.8 138.5 136.4 134.4 132.5 129.9 126.8 124.2 122 119.4 117.8 116.8 115.9 112.8 110.5 109.9 107.9 105.3 111.6 117.7 115.1 109.9 102.7 96.6 83.9 84.5 85.1 85.3 85.4 89.2 95.9 101.9 96.5 91.8 95.7 101.8 108.4 111.6 113.7 115.1 114.5 113.1 111.6 109.9 111.5 115.5 119.2 125.5 129.7 127.8 119 107.7 93 78.1 68.5 72.3 74 74 73.1 68.7 82.5 90.7 98 104.2 107 106.7 109.9 109.5 109.1 108.8 107.8 106.5 107.2 108.2 108.4 108.4 108 108.2 109.6 110.6 112.9 115.3 116.6 115.6 115.8 116.1 115.8 117.7 120.4 126.5 131.6 134.3 134.8 133.9 131.9 129.4 126.6 124.9 125.4 128.6 136 140.7 142.6 142.7 143.1 141.9 140 137.2 137.8 138.4 138.9 139.7 140.5 143.3 145.5 146.7 148.8 151.9 154.8 157.5 159.9 162.1
207.3 205.8 203.1 200 193.9 186.9 177 168.3 163.5 163.2 163.7 161 159.3 157.9 158 156.7 153.8 149.9 145.2 142.2 139.3 136.4 135.4 137.3 138.5 137.8 135.4 130.7 126.2 125.7 128.1 129.7 130.8 133.5 136.6 140.8 144.6 145.9 143.3 139.9 136.4 134.3 131.9 130.1 131.6 133.6 133.2 131.9 135.5 136.5 135.8 137.5 138.7 138 137.4 136.4 135.9 134.8 133.8 132.7 130.9 128.7 122.6 124.4 127.7 129.7 131.5 134.8 141.1 150.3 160.5 163.4 162 159.1 155.9 151.9 148.6 145.1 141.5 139.3 137.3 135.3 133.4 130.8 127.7 125.3 122.2 119.8 117.3 115.1 115.9 116.4 112.7 109 109.2 110.9 116 118.7 118.3 114.8 108.8 101.9 95.7 84.8 83.9 83.8 81.9 82.2 82.4 94 97.3 88.6 90.8 97.9 103.6 108 111.7 114.1 113.7 112.2 110.3 108.5 110 113.1 116.2 119.1 121.9 120.7 114.3 105.9 94.4 75.9 70.2 75.3 78.9 80.2 78.2 73.6 73.2 85.6 94.1 100.6 106 107.8 108.6 109.7 109.4 109.1 108.2 107 108.7 109.3 109.7 109.9 109.4 109.5 110.2 110.8 112.4 114.6 114.5 111.7 113.6 116.9 119 120.8 123.2 127.1 129.8 132.4 134.2 132.9 131.2 128.6 125.9 123.7 123.5 126.4 130.3 133 135.3 137.6 139.1 137.7 135.7 133.8 133.2 132.2 131.7 131.1 135.1 142.2 143.9 144 146 149.3 152.4 154.7 158.2 162.3
204 202.6 200.8 198.6 194.7 189.2 178.8 169.9 163 159.3 158 156.6 155.2 154.3 154.2 153.5 151.2 148.4 144.5 141.6 138.6 135.7 133.4 135.5 137 135.7 133.4 129.2 124 123.9 125.7 127.7 131.6 136.3 139.8 144.4 148.6 147.2 143.8 140.5 136.8 134.3 132.3 127.7 127.9 129.1 128.5 129.4 132 132 131.6 132.6 135.2 135.9 135.2 134.2 133.4 132.6 132 131.3 130.2 128.2 125.5 119.3 125.1 127.3 129.5 134 140.2 151.7 162.1 165.4 163.9 161.2 158 154.2 150.8 147.1 143 140.1 138.1 136.2 134.2 131.7 129 126.3 125.2 122.9 120.3 117.7 119.5 118.8 115.8 113 114.4 115.7 116 115.3 115.8 116.2 111.8 107.3 99 91.3 93.7 92.2 88.9 84.5 83.2 82.4 87 85.4 89.1 95.1 99.6 103.8 108.7 111.8 113 112.1 110.2 107.7 107.8 110.7 113 114.6 115.4 113.5 110.3 104.3 95.3 71.7 73.7 79.9 86.8 86.9 85.3 83.2 77.8 71.7 75.4 80.5 86.9 100.9 107 109.1 109.5 109.4 108.5 107.3 108.6 107.8 106.5 107.6 108.9 108 107.6 108.8 110.5 112.2 110.4 107.7 110 113.4 116.5 120 124.8 126.9 128 129.2 131.4 131.4 129.7 127.2 124.8 122.5 121.5 123.3 125.3 127 129.3 131.4 133.7 132.5 130.2 128.6 128.4 129.3 134.2 142 143.4 142.4 140.7 142.4 147.6 151.5 152.3 154.2 157.3 161.3
200.2 199.3 198.3 196.9 194.5 190.9 185.6 176.5 168.7 162.2 156.7 153.4 151.8 150.7 150.3 149.2 147.7 145.4 142.8 139.9 137.3 134.8 131.9 132.7 134.7 134.3 133.1 133.1 130.4 122.6 122.8 126.6 131.9 136.9 141.1 145.8 148.3 147.7 145.6 142.5 140.3 138.6 136.8 132.8 128.3 123.9 122.3 124.6 127.7 128 127.7 128.2 130.3 131.5 130.2 128.8 128.2 127.5 127.9 128.9 129.6 127.9 126.2 116.3 121.5 124.9 128.1 132.8 138.6 149.7 159.7 165.6 165.5 162.8 160.1 156.6 153 148.8 144.7 141.1 138.9 136.9 135 133.6 131.8 130.4 128.5 126.1 123.4 121.1 124.4 122.3 119.3 118.3 118.4 116.7 114.9 111.3 110.5 108.9 106.6 104.2 103 104 107.2 103.5 98.3 92.1 86.5 80.6 80.1 79.4 84.9 91.4 94.7 98.7 103.4 108.1 110 111.5 110.1 108.2 105.6 107.8 108.6 109.3 110.1 109.2 107.5 103.9 97.1 70.8 74.7 85.8 93.5 94.8 95.8 91.8 87.2 81.7 77.9 76.7 72.9 87.4 102.5 107.4 108.1 108.6 109.2 108.1 109 105.1 97.6 102.1 105.6 104.2 103.1 104.9 106.9 106.1 106.1 108 108.6 108.4 111.5 118.7 122.1 123.4 124.7 125.9 128.7 129.2 128.7 126.5 124.3 121.7 119.9 120 120.7 121.8 123.7 126.4 127.8 126.8 124.8 124.2 127.8 132.3 137.7 142.6 145.6 145.5 145.7 145.9 149.1 153.1 155.4 157.5 159.4 161.2
197.3 195.7 194.7 194.1 193.1 190.5 186.2 180.4 174 166.2 159.8 154.3 150.6 147.2 147.3 145.9 144.1 142.3 140.3 138.4 136.7 134.4 131.5 130.2 133.3 133.3 131.3 131 132 129.2 121.2 122.2 128.6 133.7 138.9 142.6 145.5 146.6 146.7 144.7 141.7 138.5 136.1 133.1 129.3 126.9 122.2 120.1 122.8 123.5 123.7 124.1 125.9 127.1 125.4 124.2 124.3 124.4 125.8 127.6 128.8 128.5 127 123.8 118.1 124 128.3 132.2 137 146.6 157.3 164.3 165.5 163.9 161.2 158.3 154.4 149.9 145.7 141.8 139.2 137.3 136.2 134.6 133.2 133.1 130.9 128.9 126.4 124.6 127.7 127.1 124.6 122.3 119.9 117.3 114.7 111 108.6 107.3 108.9 111.1 113.8 114.3 114 111.6 107.6 102.1 94.2 87.5 83.7 82.3 79.8 83 83 93.9 100.7 106.2 109.4 110.5 109.7 108 105.4 104.1 103.6 104.3 107.2 106.6 103.7 95.8 85.2 70 70.6 81.9 97.8 103.9 105.8 102.8 98.4 92.6 90.5 86.3 75.9 77.6 95.4 101.2 105.7 106.8 108.5 109.3 100.5 96.9 93.5 96.3 99.5 99.7 99.5 101.9 102.8 103 107.6 113.3 110 106.1 109.9 114.9 118.5 120.3 122.8 123.6 126.4 126.5 127 125.6 123.8 121 118.7 118.4 117.6 117.4 119.6 122.1 122.7 122.4 123.2 125.7 129.3 133.5 140.4 145 146.4 147.8 148.2 148.7 150.6 153.9 157.3 159.8 161.7 163.5
194.4 193.9 192.1 191.2 190.1 188.7 184.9 179.3 174.1 167.7 160.3 155 150.6 149.1 147.2 145.1 143.1 141.4 140 141.5 139.5 136.3 132.1 129.3 131.7 133.3 130.5 128 128.8 126.9 122.2 119.5 125.7 132 135.9 140.4 142.9 143.5 143.4 143.7 141.4 138.8 135.9 134.3 132.8 129.2 124.8 120.8 120.2 119.6 119.6 120 121.6 123.6 122.8 121.2 121.4 122.4 124.1 125.9 127 127 125.9 122.3 112.3 124 129.5 133.3 139.5 148.4 158.2 163.3 164.9 163.3 161.6 158.4 154.8 149.9 144.4 141.4 140 138.6 137.2 135.4 133.9 132.9 132.4 130.4 128.8 127.9 128.1 128.4 127.2 123.3 120.5 117.6 115 112.6 110.6 112.4 114.6 115.9 116.1 115.2 114 112.5 111 108.7 104.2 98.7 90.5 85 81.1 77.5 83 92.6 104.5 108.1 108.5 107.6 107 106.6 105 104.5 101.4 101.2 104 104.4 100.8 93.1 81.5 71 66.1 74.3 86 98.7 108.4 110.5 110.3 106.7 102.3 95.7 82 78.3 94.6 98.9 103.6 105.8 101.2 96.6 92.6 91.2 90.7 88.8 89.4 90.6 96.2 100 101.1 100.8 107.3 110.8 106.4 103.7 108.1 112.9 115.3 117.7 121.1 121.4 123.9 124.2 123.7 122.7 122.6 120.2 117.9 117.4 113.3 112.8 115.3 118.6 120 122.3 125.3 128.5 132.8 135.7 141.5 145.1 146.2 147.5 148.5 149.9 153 155.9 158.9 161.2 163.1 164.7
191.7 191.6 189.2 188 186.1 183.5 181.4 178 174.6 170.6 162.1 155.8 149.1 148.8 148.4 146 143.4 144.8 147 145.7 142.5 138.2 133.1 128.5 129.9 133.9 132.4 127.3 125 122.8 119.8 120.1 134 137.1 138.5 139.1 141 139.9 138.5 139 139.4 138.7 137.1 135 132.7 130.3 128 123.7 117.9 116 115.9 117.2 119 120.9 121 117.9 118.7 120.6 122.4 123.8 125 124.3 123.3 120.6 114.5 123.9 129.6 135.3 141.3 148.6 157 162.6 164 162.5 159.9 155.8 152.2 146.5 143.1 142.4 141.5 140.9 138.7 136.4 134.4 133 131.8 130.4 130.3 129.4 128.4 127.8 126.9 123.8 120.6 118.3 116.4 114.6 113.7 115.6 117.7 117.2 116.5 115.3 113.4 111.4 110.1 108.4 105.7 102.3 94.7 87 82.2 79.3 78.3 93.3 104.3 107.7 107 104.9 105.6 106.5 106.2 106 103.3 99 99.5 99.1 95.3 94.2 83 71.6 64.4 70.2 73.1 85 106.9 111.4 113.9 117 113.4 105.9 89.8 74.1 90.2 101.7 102.3 94.8 87.9 81.1 78.8 81.1 85.1 81.8 81.1 82.6 89.5 94.2 95.8 98.5 106.8 108.7 107.8 100 107.9 110.5 113 116.7 119.4 118.9 121.2 120.7 119.5 120.7 120.4 118.4 116.6 111.3 113.5 117 118.2 120.7 122.5 124.5 127.9 132.9 137.2 140.8 143.5 145.3 145.7 146.9 148.3 150 152.8 155.7 160.3 161.3 163.2 164.8
189 188.8 184.3 182.6 180.7 177.1 176 174.1 172 167.8 161.3 154.9 148.2 143.8 144 141.6 141.5 144.9 149.1 148.6 144.5 140 135 129.4 127.3 131.8 132.4 127.8 121.2 119.1 119.5 127.8 136.1 138.5 137.8 138.4 138.7 136.9 135.3 135 135.5 136 136.1 135.5 133.3 130.9 128.3 125.3 120.3 114.1 112.7 113.3 115.3 117.1 116.7 115.3 116.9 118.8 120.5 121.3 123 122.1 120.4 118.6 115.8 124 129.5 134.9 141.1 148.4 155.4 161.5 162.4 159.8 155.4 147 140.3 137.2 140 140.2 140.8 142.1 140.3 137.8 135.4 133.4 132.1 130.4 129.6 129 128.1 127.3 125.7 123.9 122.6 120.8 119.1 118 118.2 118.6 118.4 117.3 115.8 113.3 111.3 109.3 107.8 106.3 104.1 101.7 94.9 87.8 84.4 80.7 82.4 98.8 106.4 107.3 104.5 102.2 103.9 106.3 106.6 106.4 105.8 101.4 96.1 92.7 90.4 91.2 86.2 72.4 63.6 68.7 69.5 73.9 97.9 110.3 112.8 114.7 114.3 110.1 96.7 81.7 75.5 88.5 85.5 78.7 83 89.4 83.6 80.3 84.9 85.6 87.9 89.2 92.3 82.8 89.1 91.8 102.4 101.3 104.2 103.8 107.9 108.7 113.4 115.6 117.2 116.6 117.8 113.3 110.9 114.8 111.5 114.9 109.6 113.7 117.7 119.7 121.5 124.1 125.6 127.8 130.8 134.6 140.6 143.9 145.7 145.7 145.6 146.6 148.1 149.8 152.6 155.8 159.6 161.2 162 163.4
186 186.1 181.9 176.5 174.3 170.5 170.5 171.1 166.4 161.1 156 152.3 146.9 141.9 139.1 137.3 138.9 142.8 148.1 149.2 145.9 142.2 137.6 131 124.9 127.7 130.4 128.3 120.5 114.5 128.3 133.3 136.1 136.5 136.2 137 136.8 135.3 132.8 132.2 132.5 132.8 133 134 133.3 131.3 129.1 126.5 123 117.4 113.1 109.6 112 114.2 113.5 113.3 114.9 117.4 118.3 118.9 120.6 121.1 119.4 115.4 114.4 121.9 128.4 134.1 137.8 140.9 146.9 153.5 155.5 154.9 149.5 141.4 131.8 126.8 130.7 131.4 135.4 139.4 140.2 139 136.7 134.2 132.1 130 129 128.5 127.7 126.8 126 125 124.2 123.3 121.8 120.3 120.1 119.3 118 116.6 115 112.4 109.7 107.3 105.9 104.3 103 101.4 95.8 88.1 84.3 78.8 85.9 100.4 105.2 105 102.4 100.8 102.8 105.8 106.3 106.4 106 104.3 100.7 97.5 93.5 89.1 86.7 79.7 66.9 66.1 68.7 69.3 86.8 106.2 111.8 114.8 114.8 112.4 104.9 91.9 82.7 76.3 80.4 88.2 95.9 95.3 84.2 84 98 101.3 99.7 99.5 99.8 96.1 96.1 90.9 85.2 86.3 90.8 97 106.9 108.4 110.9 113 114.3 114.1 110.4 102.2 98.7 97.8 99.5 109.8 116.5 118.7 119.4 120.9 122.8 125.9 128.7 130.6 133.6 136.4 140.7 144.1 145.6 145.8 145.9 146.1 146.1 147.7 150.3 154.4 157 159.3 159.8 162
181.3 184.6 182.3 175.1 169.9 164.4 164.4 167.7 161.5 155.5 151 148 145.2 139.9 135.6 134.4 136.4 140.1 145.8 149 147.4 144 139.7 134 127.2 123.1 126.5 128.1 122.7 113.3 124.7 130 130.9 132.5 133.9 135.5 135 133.3 131.2 129.6 129.7 130.4 131.7 133.4 133.6 132.6 130.5 127.8 124.4 121 116.4 112.5 109.2 110.6 111.4 112.3 115.7 117.4 117.5 117.2 118.9 120.1 119.3 113.9 115.5 123.8 127.4 130.9 129.8 135.1 139.6 140.9 142 143.5 141.1 136.7 129.4 122.7 120.5 122.4 129.4 134.9 136.4 136.3 136.4 134.3 131.7 129.2 128.3 127.7 126.8 126.2 125.7 124.2 123.6 122.8 121.6 120.8 119.6 118.8 117.2 115.2 113 110.9 108.2 106.5 105.2 103.8 102.4 99.9 95.2 88.2 82.6 75.4 90.5 106 108.4 103.8 100.7 100 102.2 105.4 106.4 106.5 105.8 105.3 103.3 100.8 97.9 94 89.7 81.6 75.7 69.2 63.8 70.1 100.6 109.6 113.3 115.7 116.7 116.1 113 102.2 93.8 86.6 95.5 99.2 102.6 97.6 88.8 85.3 103.9 109.3 109.2 109.2 105.7 101.1 101.6 101.5 96.8 94.2 89.3 88 93.5 97.7 105.3 109.8 111.2 106.1 95 103.8 108.7 115.2 108.7 102.7 102 108.7 116.4 120.2 123 126.1 129.5 133.9 137 137.6 140.2 143.8 145.2 145.8 145.4 144.5 144.3 145.5 148.7 151.5 153.5 155.5 157.8 160.1
174 179.6 182.5 177.9 170.3 160.7 154.9 159.3 155.5 149.2 145.9 144.8 143.2 139.2 133.9 131.6 134.5 139 143.7 147.4 147.1 145.1 141.2 136.4 130.8 124.3 122.8 125.3 126.6 122.3 113.8 119 124.5 128.3 131.5 132.7 131.7 130.1 128.8 127.5 128.1 129.3 131.8 133.7 134.1 133.2 131 128.5 125.4 122.3 119.5 116.5 111.9 108.6 108.6 111.1 115.2 117.4 117.4 116.5 117.1 118.7 118.7 113.5 115.5 121.2 121.8 121 124.4 131 133.5 130.9 130.4 132.1 132.2 129.7 126.4 121.6 117.3 119.9 126.1 128.7 130.8 129.3 131.9 129 128.3 128.8 127.8 126.8 126.2 125.7 125.2 123.3 121.7 119.9 119.3 118.1 117.3 116.4 114.8 113.2 111.1 109 106.9 105.6 104.4 103.1 101.3 98.9 93.8 87.8 82.8 77.5 88.9 99 108.5 103.3 99.8 99.5 102.2 105 106 106.3 106.1 105.8 104.8 99.7 93.7 87 81.1 73.8 65.7 64.6 66.9 82.4 105.1 111.8 116.2 120 122.4 121.2 117.9 109.7 102.2 100 102.7 104.9 104.9 101.8 94.7 85.8 103.4 111.8 111.7 112.7 111.3 109.1 107.8 106.4 104.7 106.3 102.4 100 95.7 89.6 95.7 99.6 99.2 94.6 103.2 113.6 117.8 120.5 120.5 115.4 116.2 104 113.3 117.1 122.8 126.2 129.5 133.9 138.7 140.3 141.5 144.2 145.1 145 143.8 142.9 142.3 143.5 145.7 148.5 150.1 153.5 157.7 160
169.6 175.2 180.9 180.2 172.7 162.4 152.6 152.3 147.6 143 141.2 139.6 138.9 136.7 132.4 129.3 132.5 136.2 140.8 145.4 146.2 144.8 142.2 137.7 133.9 127.4 122.9 120.2 122.7 124.5 118 113.8 116.6 124.2 127.2 128.3 127.8 126.8 125.6 125.8 127 129.3 131.2 133.2 134.8 134 131.5 129.4 126.1 124.7 123.5 120.2 115.9 112.6 108.3 109.9 112.8 115.1 117.5 115.4 114.7 116.9 117.1 111.7 112 114.5 116.8 122.3 126.7 131.5 130.3 125.6 125 126.4 127.2 124.8 121.3 118.9 114.2 118.8 121.1 121.9 125.1 123.1 126.8 123.4 124.2 126.6 125.9 124.6 124.7 124.8 124.6 123.7 121.5 117.7 113.8 112.7 112.1 111.6 111.6 111.1 109 106.3 105.5 104.8 103.4 101.9 100.9 99.3 94.5 87.3 82.3 77.5 89.5 101.6 108.4 102.1 98.3 99.1 102.4 103.7 104.1 105.6 105.4 104.9 100.5 90.5 82.9 76.4 70.3 64.5 67.5 69.2 95.8 98.8 104.9 114.3 123.2 127.6 129.1 124.8 120.8 113.5 108.4 105.5 106.8 107.7 106.3 103.7 100.6 93.2 87.4 100.8 109.5 111.5 113.9 114.1 112.7 110.9 110.4 112.9 115.3 107.9 105.9 104.2 100.3 100.4 104.6 107.2 103.4 115.9 121 124.9 122.5 120.3 120.3 115.1 103.7 111.8 119.3 124.6 128.7 133.2 138.5 140.5 143.2 144.7 144.9 143.5 142.3 141.4 140.6 141.8 143.6 144.4 149.3 154.1 157.3 159.3
165.9 171.7 177.3 178.9 174.4 164.1 153.3 146.5 141.3 138.2 136 135.8 134.7 133.4 129.6 127.8 130.9 134.2 137.9 142.9 144.5 144.1 141.5 138.6 135.1 130.8 127.8 124.2 120.8 119.5 117 114.2 110.3 114.4 122.9 123.8 123.3 123.4 124.1 124.8 125.8 127.4 129.7 132.3 134.4 134.1 133.3 132 130.2 129.9 127.8 124.2 120.6 115.8 109.2 106.6 108.9 110.4 113.6 114.7 112.6 114.3 115.9 109.4 109.3 113.3 117.8 124 127.5 129.2 128.3 124 120.7 121.9 124.2 121.1 118.3 116 111.3 113.3 115.6 118.4 119.1 118.8 120.8 117.7 118.9 123.6 123.6 121.4 120.8 120 118.8 119 120 119.5 112.6 107.6 106.4 106.3 107.4 108.2 106.2 101.7 103.5 103.9 102.2 100.9 99.9 98 92.2 84.6 78.8 82.5 91.4 100.7 106 100.1 97.4 98.9 101.3 99.6 99.7 100.2 100.5 97.9 89.7 79.9 72.5 68 62.7 72 81.5 89.9 94.7 100.6 107.9 117.1 129.3 135.2 132.1 127 122.4 118.5 113.7 108.4 109.1 110.9 109 107 105 101.3 94 89.4 104.3 110.7 113.1 115.5 116.4 115.2 115.5 117.4 118.1 117.9 114.9 114 116.6 119.2 119.2 118.3 103.7 113.6 123.6 125.7 124.1 121.5 120.6 119.5 112.8 110.1 113.4 120.7 126.8 131.8 136.2 139.2 141.9 143 141.6 140.8 138.9 139.7 141.5 139.7 142.1 144.9 149.1 152.6 154.3 157.1
163.9 170 176.2 178 173.6 164.4 154.5 148 144.5 142.1 137.4 132.2 131.1 130.3 127.5 126.5 129 132.1 135.8 140.3 143.3 142.6 140.5 137.8 135 132.5 130.5 128.4 126.8 124.6 122.6 119 113.8 108.4 119.9 122 121.8 121.9 122.8 123.4 123.7 125.4 128.4 131.1 133.6 135.1 136 135.9 135.6 134.7 131.6 127.5 123.1 117.7 113.3 107.7 104.5 106.4 109.6 113.3 112 112.7 114.4 108.2 108.6 115.1 120 123.1 124.7 126.3 125.7 122.2 118.7 118.3 120.1 116 113.8 114.3 108.3 107.8 112.3 117.6 116.3 114.4 113.2 112.1 115.1 120.1 122.5 121.5 119.3 116.9 114.6 111.5 110.5 111.4 111.4 108 104.2 102.4 103.5 105.1 103.2 101 99.8 101.3 100.6 99.3 99.1 95.7 88.3 80.7 75 82.7 91.9 100.1 101.9 97.7 96.3 98.5 97.6 92.4 90.1 89.6 89.3 84.7 76.1 69 66.8 68.7 72.2 77.2 83 87.5 93 99.8 108.3 117.9 132.2 139.2 134.3 129.4 125.8 123.1 118.2 114.3 112.4 113.6 111.7 109.9 108.7 106.9 104.2 96 102.4 111 113.2 115.4 116.7 118 120.2 121.2 121.1 120.8 120.2 120.4 123.1 125.2 124.4 122.4 117.4 109.8 119 124.9 124.8 123.9 122.3 119.9 117.2 110.1 110.2 116.1 123.7 129.9 134.6 130.8 128.9 127.4 123.7 122.3 123.7 132.3 139.6 133.4 140.6 143.1 146.4 149.3 150.6 152.9
163.4 169.3 176.2 177.9 172.2 162 152.6 146.9 144.3 142.6 140.6 135.1 128.8 127.7 126.2 125.4 127.5 130.1 133.3 138.1 141.8 141 139 136.7 133.9 132.1 130.8 128.8 128.2 127 125.4 122.1 116.9 110.2 113.3 121.7 121 121.2 122.3 122.2 121.3 124 127 129.8 132.4 135.1 138.4 140.3 139.6 138.2 135 129.4 123.5 119.1 115.4 109.8 104.5 104 108.4 110.8 110.9 110.9 110.5 107.4 107.4 113.8 118.7 121.2 122.5 122.8 122.4 121 117.5 114.5 114.7 112.9 106.5 110.7 106.7 104.3 111.8 117.5 116.3 109.4 108.6 109.3 111.5 116.9 123 124 121.9 119.8 116.6 113.3 110.8 105.7 103.5 102.8 101.1 98.5 99.6 101.8 100.6 98.6 96.9 95.7 98.1 97.2 96.5 91.7 84 77.4 80.7 89.8 94.9 99.2 97.5 94.9 92.5 94.2 91 85 81.4 80.6 78 67.7 67 66.9 68.6 73.1 76.5 79.4 81.9 85.9 90.5 98.1 108 119.2 133.9 140.4 136.9 132.3 129.2 126.3 123 119.3 116 115.6 114.2 112.6 111.2 110.1 108 100.5 91.4 103.5 111.7 113.5 115.8 118.3 120.8 121.7 122.4 122.7 123.8 124.3 127.2 128.7 127.4 124.5 118.8 111.2 116.6 120.6 123.5 124.2 123.9 124.9 122.4 116.6 110.9 111.9 117.6 123.7 121.6 121 120 120.1 124.1 139.1 141 134.5 128 131.2 137.3 139.8 143.1 144 148.4 152
164.5 171.8 177.3 177 169.9 159.6 150.5 144.7 142.2 140.7 140.6 137.3 131.3 125.7 124.7 123.2 125.2 127.7 131 135.4 139.2 138.9 136.8 134.7 132.8 131.7 130.4 129.1 128 127.2 126.3 123.6 118.9 111.7 107.1 120.3 119.6 120.9 121.7 120.8 120 122 125.8 129.3 132.4 135.7 139.9 143.6 142.7 140.2 135.3 128.7 123.6 116.1 114.4 111.6 107.7 102.6 105.9 108.4 110 109.3 108.3 105.1 107.8 113.1 115.9 118.5 119.3 119 119.4 117.9 116.4 113.6 109.5 109.2 108.5 106.5 103.7 102.9 110.6 114.4 112.1 107.3 105 106 110.4 115.4 119.2 123.9 124.1 120.8 116.5 113.2 110.5 106.1 102.7 99.5 98.1 95 95.7 97.3 96.3 94.2 94.1 91.4 93 94.5 92 87.4 75.4 79.3 88.1 97.6 101.2 101.6 98.7 94.5 89.1 86.5 83.8 79.6 77.8 75.5 70.5 66.8 66.4 67.6 73.4 76.1 77.8 79.3 81.3 84.7 89.8 96.9 107.8 121.8 138.6 142.2 139.6 136.5 133.5 130.4 127 123.3 119.4 117.7 116.7 114.8 112.9 112.1 110.6 107.9 100.5 95.6 105.8 111.4 113.8 115.9 118.4 120.7 122 122.9 124.7 126.1 128.5 130 128 124.9 119.8 115.6 115.6 118.8 122.5 124.5 127.3 128.7 127.9 122.6 117.3 113.4 112.4 116.7 116.4 116.8 126 136.6 141.6 143.7 143.7 142.1 138.8 135.7 129.3 135.9 137.6 141.7 145.5 154.1
164.8 173.4 178.9 177 168.9 159.6 147.9 142.2 139.5 137.8 137.9 135.2 131 127.7 124.1 121.1 122.9 125.3 128.8 132.3 136.6 136.4 134.6 132.7 130.8 129.7 128.7 127.8 127.2 126.6 125.8 124.5 120 112.3 104.8 114.1 118.7 119.8 119.8 118.9 119.4 121.9 125.6 129.4 132.9 136 141.3 147.6 151.1 145.8 137.4 130.3 122.8 120.3 119.7 115.6 110.8 104.4 103 105.4 108.8 107.8 106.1 101.9 108.2 111.7 113.6 114.9 114.1 114.8 115.7 115.2 113.6 112.6 108.3 104.2 107.6 103.9 101.2 101.2 108.3 108.7 106.9 104.9 102.6 105.8 110.9 112.1 118.1 125.7 124.4 120.1 115.1 112.3 110.1 107.5 107.4 103.4 100.8 97.2 94.7 93 92.7 90.6 89.4 86.2 87.4 89.6 88.2 81.9 74.9 80.3 101.1 107.7 106.9 102.8 99.3 95.3 88.9 83.8 80.4 77.8 76.5 73.7 66.9 70.5 67.5 69.9 73.6 76.1 78 79.6 81.2 84.7 91.2 100.3 112.5 127.4 142.4 145.7 143.2 140.4 137.3 133.9 130.5 125.9 122.7 121 118.2 116.6 114.9 113.2 111.4 109.4 108 94.3 100.4 109.5 111.8 113.6 115.8 117.9 119.8 121.7 124.4 126.9 130 131 128.8 124.5 119.3 116.5 116.7 118.9 122 125.8 130.3 133 131.7 128.7 125.1 120.9 116.4 116.8 122 127.9 138.2 140.9 143.8 146.2 147.5 146.4 144.5 141.9 136.3 132.3 130.9 134.4 135.4 138.1
