ncols 200
nrows 82
xllcorner 210000
yllcorner 800950
cellsize 50
281 282.6 286.6 291.4 289.1 289.9 290.2 290.2 291 291.4 288.1 289.8 286.9 289.4 296 297.9 298 299.7 300.9 294.1 287.6 285.6 282.1 274.9 270.3 269.3 265.9 262 261 256 251.4 247.1 248.9 246.9 243.6 241.4 239.2 239.7 239.2 237 237.2 241.8 240.3 240.6 238.4 235.2 230.4 229.1 227.1 227.1 227.1 227.1 227.1 227.1 227.1 227.1 227.1 227.1 227.1 227.1 227.1 227.1 227.1 227.1 227.1 227.1 227.1 227.1 227.1 227.1 227.1 227.1 227.1 227.1 227.1 227.1 227.1 227.1 227.1 227.1 227.1 227.1 227.1 227.1 227.1 227.1 227.1 230.7 230.8 231.6 234.2 233.1 234.7 235 235.5 236.3 235.9 236.4 234.6 233.3 233.8 234.5 237.1 236.7 233.8 231.5 227.3 227.1 227.1 227.1 227.1 227.1 227.1 227.1 227.1 227.1 227.1 227.1 227.1 227.1 227.1 227.1 227.1 227.1 227.1 227.1 227.1 227.1 227.1 227.1 227.1 227.1 227.1 227.1 227.1 227.1 227.1 227.1 227.1 227.1 227.1 227.1 227.1 227.1 227.1 227.1 227.1 227.1 227.1 227.1 227.1 227.1 228.7 230.3 232.6 233.2 235.4 237.9 238 239.4 243.1 247.8 253.4 260.7 267.3 273.9 275.7 280.5 285.5 290.9 294.7 299.4 308.6 315.3 322 331.9 342.6 351.9 366.2 371.6 379.6 385.3 387.3 387 388.8 392.2 393.9 400.4 400.5 397.2 406.2 413.1 421.4 432.2 439.6 449.1 459.3 467 472.1 474.7
291 292.2 293.2 294.1 294.1 300.8 299.6 300.4 298.3 300.7 296.4 298.8 298.7 303.8 303.2 304.1 308.5 311.2 308.6 301.9 303.3 295.3 289.3 283 281.7 280.4 275.4 269.7 263.9 257.5 255.2 251.1 253.2 249.7 246 245.1 245.6 247.3 244.9 242.2 241 240.9 239.9 241.6 240.6 237 232.7 230.6 227.1 227.1 227.1 227.1 227.1 227.1 227.1 227.1 227.1 227.1 227.1 227.1 227.1 227.1 227.1 227.1 227.1 227.1 227.1 227.1 227.1 227.1 227.1 227.1 227.1 227.1 227.1 227.1 227.1 227.1 227.1 227.1 227.1 227.1 227.1 227.1 227.1 227.1 227.1 227.8 227.8 227.1 231.3 229.4 231.2 232.8 232 235.8 234.9 233.3 232 230.7 231.3 232 231 231.3 230.7 228.8 227.1 227.1 227.1 227.1 227.1 227.1 227.1 227.1 227.1 227.1 227.1 227.1 227.1 227.1 227.1 227.1 227.1 227.1 227.1 227.1 227.1 227.1 227.1 227.1 227.1 227.1 227.1 227.1 227.1 227.1 227.1 227.1 227.1 227.1 227.1 227.1 227.1 227.1 227.1 227.1 227.1 227.1 227.1 228.7 231.4 231 233.7 238.7 240 240.6 241 240.8 242.6 246.8 251.5 254.7 258.7 268 273.5 278 283 287.2 290.4 294.6 299.8 304.5 313.5 323.5 332.1 342.2 349.3 358.2 367.6 374.4 382.4 387.2 390.8 390.7 390.8 392 391.3 391.7 390.3 395.8 404.2 414.7 423.8 434.2 440.8 448.1 455.8 464 468.1 471.2
302 304.9 304.7 303.5 304.6 308.4 312.6 311.6 310 307 306.1 306.9 305.3 309.7 311.3 317.3 316.5 317.8 312.8 315.7 313.4 310.8 302.1 293.8 288.8 287.5 279.8 273.1 268.5 264.3 262 258.1 257.8 254.3 254.5 258 256.8 256.8 250 246.3 245.7 244.3 243.1 241.8 239.6 237.3 235.6 232.6 230.4 227.1 228.5 227.1 227.1 227.1 227.1 227.1 227.1 227.1 227.1 227.1 227.1 227.1 227.1 227.1 227.1 227.1 227.1 227.1 227.1 227.1 227.1 227.1 227.1 227.1 227.1 227.1 227.1 227.1 227.1 227.1 227.1 227.1 227.1 227.1 227.1 227.1 227.1 227.1 227.1 227.1 227.2 227.1 229.1 228.5 230.4 231.2 232.8 232.5 230.3 228.2 229.8 231.4 227.4 227.1 227.2 227.1 227.1 227.1 227.1 227.1 227.1 227.1 227.1 227.1 227.1 227.1 227.1 227.1 227.1 227.1 227.1 227.1 227.1 227.1 227.1 227.1 227.1 227.1 227.1 227.1 227.1 227.1 227.1 227.1 227.1 227.1 227.1 227.1 227.1 227.1 227.1 227.6 228.1 231.8 229.8 230.9 231.6 232 233.3 235.9 236.1 239.9 246.9 249.7 245.4 245.2 245.6 244.9 247.8 250 256.2 263.6 267.1 274.9 280.2 284.3 288.7 293 295.3 301.9 308 314.8 323.8 334.6 340.9 351.7 357.3 364.6 369.9 376.2 380 383.5 385.4 386.3 388.5 387.8 385.3 382.7 388.3 398.6 407.1 415 423.7 432.2 439 444.7 452.2 458.8 463.6 467.3
314.6 317.8 316.1 316.9 317.6 320.6 325.4 328.3 321.9 318 314.5 313.8 315.3 321.6 315.3 318.9 320.9 319 317.8 316.1 313.2 308.2 303.3 304 298.8 295.9 289.3 281.6 279.5 274.5 269.3 268.4 268.5 271.9 270.2 266.6 262.7 259.8 254 249.3 249.2 248.1 246.7 244.3 242.9 238.5 234.9 233.4 231 230.2 228.6 227.1 227.1 227.1 227.1 227.1 227.1 227.1 227.1 227.1 227.1 227.1 227.1 227.1 227.1 227.1 227.1 227.1 227.1 227.1 227.1 227.1 227.1 227.1 227.1 227.1 227.1 227.1 227.1 227.1 227.1 227.1 227.1 227.1 227.1 227.1 227.1 227.1 227.1 227.1 227.1 227.1 227.1 227.9 229.6 232.2 231.2 230.7 229.9 228.2 229.5 227.3 227.1 227.1 227.1 227.1 227.1 227.1 227.1 227.1 227.1 227.1 227.1 227.1 227.1 227.1 227.1 227.1 227.1 227.1 227.1 227.1 227.1 227.1 227.1 227.1 227.1 227.1 227.1 227.1 227.1 227.1 227.1 227.1 227.1 227.1 227.1 230 230.1 229.9 231.6 235.8 236.6 236.3 234.7 237.3 239.2 237.7 239.4 240.9 246.8 253.8 254.5 251.5 249.5 249.3 249.9 252.6 254.4 255.9 263.3 272.5 275.3 279.6 284.5 289.9 292.7 298.6 304.4 311.5 317.3 325.2 336.9 341.4 347.1 358.5 365.3 369.2 375.2 376.7 378.3 378.9 381.8 383.1 380.8 380.2 380.8 381.7 394.2 401.9 407.4 415.4 423.2 429.3 435.7 440.7 447.2 455.5 462.3 468.5
330.2 332.9 334.8 331 329.6 329 336.1 340.6 334.2 328.4 324.5 323.8 319.2 322.2 322.6 324 328 326.8 323.6 320.7 317.8 318.4 316.1 312 309.9 304.1 298 291.2 290.2 286 281.9 282 282.3 281 277.2 272.3 269.4 263.4 258.6 256.6 252.8 250.1 248 246 242.2 240.6 239.6 235.6 233.3 231.7 230.6 229.6 228.3 227.1 227.1 227.1 227.1 227.1 227.1 227.1 227.1 227.1 227.1 227.1 227.1 227.1 227.1 227.1 227.1 227.1 227.1 227.1 227.1 227.1 227.1 227.1 227.1 227.1 227.1 227.1 227.1 227.1 227.1 227.1 227.1 227.1 227.1 227.1 227.1 227.1 227.1 227.1 227.1 227.1 227.1 228.3 231.3 230.2 228.3 227.1 227.1 227.1 227.1 227.1 227.1 227.1 227.1 227.1 227.1 227.1 227.1 227.1 227.1 227.1 227.1 227.1 227.1 227.1 227.1 227.1 227.1 227.1 227.1 227.1 227.1 227.1 227.1 227.1 227.1 227.1 227.1 227.1 227.1 227.1 230.7 229.7 232.3 233.7 234.6 235.2 243.1 243.2 246 243.4 239.4 241.4 243.4 243.9 246.3 249.9 251.3 255.5 255.7 254.2 252.5 253.1 254.4 260.3 263.1 265.2 275.6 283.4 284 290.2 290.9 296.1 299.2 305.8 312.5 318.6 325.3 329.8 342 343.6 351.2 362.3 370.3 380.1 380.4 376.9 377.5 373.6 369.4 369.9 370.2 370.9 377.5 384 392.3 399.1 405 413.7 419.3 423.6 430.8 438.1 446 454.8 457.8 463.2
341.7 340.7 337.4 336.5 339.3 336.7 339.2 345 340.8 336.4 338.9 331.6 329.8 331.6 333.9 329.6 330.9 332.6 331.3 329.9 331.6 330.5 329.4 325 319.7 314.6 313.7 308.8 304 300.2 298.8 298.4 294.4 289.9 284.2 278.8 273 265.5 263.3 260.3 256.9 252.7 250.4 249.3 245.5 242.9 241.1 239.4 237.9 236 232.9 234.9 237 233 230.4 229.7 230.3 232.2 229.9 228.5 227.1 227.1 227.1 227.1 227.1 227.1 227.1 227.1 227.1 227.1 227.1 227.1 227.1 227.1 227.1 227.1 227.1 227.1 227.1 227.1 227.1 227.1 227.1 227.1 227.1 227.1 227.1 227.1 227.1 227.1 227.1 227.1 227.1 227.1 227.1 227.1 227.1 227.2 227.1 229.8 227.1 227.1 227.1 227.1 227.1 227.1 227.1 227.1 227.1 227.1 227.1 227.1 227.1 227.1 227.1 227.1 227.1 227.1 227.1 227.1 227.1 227.1 227.1 227.1 227.1 227.1 227.1 227.1 227.1 227.1 229.1 231.5 233.3 229.3 230.1 232.9 238.6 238.1 238.3 242.7 247.9 251 251.7 253.8 255.3 255.5 253.6 257.1 259.3 258.8 259.8 262 259.9 259.5 257.6 259.6 265 271.3 275.9 280 287.6 292 298 298.5 297.3 302.7 306.5 311.4 320.4 329.8 331.7 333.1 338.9 347.5 357.7 365.7 371.4 374 373.9 368 362.7 360.4 359.6 363.1 364.9 369.2 375.8 382.8 389.4 395.6 400.2 410.2 414 418.9 425.8 433.6 440.2 450.1 455.1 462
350.4 352.2 346.6 345.5 346.1 349.2 346.4 343.1 342.6 343 349.7 344.7 338.9 340.4 340.2 339.1 339.2 341.1 341 341.7 344.1 342.3 338.1 336.2 331.4 330.3 327.2 324.4 319 316.6 314.5 310.6 304.9 295.4 288.8 285.1 282.5 274.8 270.6 266.8 262.7 260 257.1 255.9 254.8 250.9 250.4 246 245.2 243 242.3 239.7 238.9 236.7 237.2 235 234.6 235.6 232.3 229.9 227.6 227.1 227.1 227.1 227.1 227.1 227.1 227.1 227.1 227.1 227.1 227.1 227.1 227.1 227.1 227.1 227.1 227.1 227.1 227.1 227.1 227.1 227.1 227.1 227.1 227.1 227.1 227.1 227.1 227.1 227.1 227.1 227.1 227.1 227.1 227.1 227.1 227.1 227.1 227.1 227.1 227.1 227.1 227.1 227.1 227.1 227.1 227.1 227.1 227.1 227.1 227.1 227.1 227.1 227.1 227.1 227.1 227.1 227.1 227.1 227.1 227.1 227.1 227.1 227.1 227.1 227.1 227.1 227.1 227.1 233.6 235 235.2 234.6 235.2 239.1 244.2 243.4 245.7 250 252.8 254 255.4 254.2 259.7 260.9 264.1 268.4 268.6 265.9 266 268.1 265.5 265.1 265 268.6 274.9 287 296.5 295.2 295.4 298.5 301.5 300.9 300.4 306.8 312.9 318.9 324.3 335.3 337.9 338.4 339.9 347.9 354.2 356.8 364 362.4 358.8 358.4 358.8 358.2 360.9 363 363.1 367.4 372.1 378.7 383.8 391.9 397.6 403.7 411.6 416.3 422 429.2 435.8 446.1 453 460.4
360.3 360.5 357.7 351.4 349.6 348.5 348.6 349.4 347.9 352 357.6 355.8 350 347.8 348.3 349.6 352.3 352.2 354.1 357.8 357.6 357.4 356.1 353 343.7 341.1 337.5 337.3 341.3 333.9 328.7 320.5 318.7 310.8 302.7 299.3 295.3 289.8 282.3 278.2 274 271.1 268.4 267.4 262.1 257.6 255.7 255.3 252.2 252.2 252.3 246.5 242.2 243.5 242.9 241.1 242.5 240 237.4 234.4 231.9 227.1 227.1 227.1 227.1 227.1 227.1 227.1 227.1 227.1 227.1 227.1 227.1 227.1 227.1 227.1 227.1 227.1 227.1 227.1 227.1 227.1 227.1 227.1 227.1 227.1 227.1 227.1 227.1 227.1 227.1 227.1 227.1 227.1 227.1 227.1 227.1 227.1 227.1 227.1 227.1 227.1 227.1 227.1 227.1 227.1 227.5 227.1 227.1 227.1 227.1 227.1 227.1 227.1 227.1 227.1 227.1 227.1 227.1 227.1 227.1 227.1 227.1 227.1 227.1 227.1 227.1 227.1 228.8 228.8 232.7 235.2 238.3 237.6 240.4 246.4 250.5 249.5 253.6 254.5 258 261.6 261.2 262.6 269.9 270 267.8 273.2 273.2 271.8 272.4 276.5 276.8 275.6 273.8 276.7 283.3 292.3 296.8 297.4 298.5 300.8 303.5 304 304.9 310.6 318.5 329.7 333.7 338 341.7 340.3 342.9 346.4 347.8 348.4 351.6 355.4 357.6 359.3 359.1 359.4 360 360.6 361 364.3 369.5 375 377.5 383.6 394.5 400.6 407.4 414.2 419 424.9 431.7 440.5 448.7 460.2
378.5 375 368.4 359.7 355.9 351.4 351.8 353.1 358 358.4 359.5 358.8 360.5 359.7 360.6 362.7 366.9 369.2 370.5 374.5 374.4 374.4 371.1 364.3 359.4 357.3 358.2 356.2 354.3 348.4 342.3 337.8 337.6 328.2 318.9 311.3 309.3 305.5 301 294.1 294.2 289.8 283.9 279.5 271 268.4 263.6 261.1 258.5 259.1 259.4 256.8 251.7 255.5 250.8 250.3 247.5 245.6 243.6 238.8 235.8 233.3 230.8 228.2 227.1 227.1 227.1 227.1 227.1 227.1 227.1 227.1 227.1 227.1 227.1 227.1 227.1 227.1 227.1 227.1 227.1 227.1 227.1 227.1 227.1 227.1 227.1 227.1 227.1 227.1 227.1 227.1 227.1 227.1 227.1 227.1 227.1 227.1 227.1 227.1 227.1 227.1 227.1 227.1 227.1 227.1 227.1 227.1 227.1 227.1 227.1 227.1 227.1 227.1 227.1 227.1 227.1 227.1 227.1 227.1 227.1 227.1 227.1 227.1 227.1 227.1 227.1 227.1 227.8 231 233.7 240.6 246 243.8 243.2 248.9 251.8 257.4 258.6 261.3 268.4 270.4 269 271.3 277.3 275.3 281.3 283.2 281.2 279.9 282.4 283.4 286.2 283.6 282.6 286.7 292.1 296 301.7 303.4 305.5 308.4 312.6 314 315 317.3 325.7 333.3 335.5 340.9 339.1 339.9 341.9 345.4 345.6 348 355.9 364.5 364 361.4 360.5 360.1 360.6 360.1 359.3 360 365.2 371.1 373.1 383.4 389.7 396.3 406.2 412 417 421.7 427.5 434.2 444 454
392.9 387.1 378.8 378.5 369.2 364 362.1 358.1 360.3 366.7 369.8 373.6 374.5 372.3 373.5 378.4 384.7 385.6 387.3 389.3 390.5 385.7 382.9 378 373.9 374.6 370.5 368.6 367.4 360.9 356.9 356.4 345.5 339.4 329.4 324.6 320.8 317.4 314.7 308.9 301.9 300.7 297.1 286.8 279.3 279.7 274.4 271.7 271.4 272.3 271.2 266.6 263.3 266.8 260.7 261.2 259.3 258.8 256.8 251.5 246.9 243.9 241.2 237.1 234.6 230.2 228.8 227.1 227.1 227.1 227.1 227.1 227.1 227.1 227.1 227.1 227.1 227.1 227.1 227.1 227.1 227.1 227.1 227.1 227.1 227.1 227.1 227.1 227.1 227.1 227.1 227.1 227.1 227.1 227.1 227.1 227.1 227.1 227.1 227.1 227.1 227.1 227.1 227.1 227.1 227.1 227.1 227.1 227.1 227.1 227.1 227.1 227.1 227.1 227.1 227.1 227.1 227.1 227.1 227.1 227.1 227.1 227.1 227.1 228 227.1 227.1 229.3 232.5 232.2 235.8 242.2 243 251.8 252.9 259.1 264.7 266.1 264.5 270.5 274.4 274.5 276.3 282.9 281.4 285.9 289.6 289.3 290.5 292.1 290.8 290.3 290.4 293.1 293.5 299.3 301.3 305 309.3 310.6 312.3 314.1 316.7 322.6 323 322.3 328.6 331.3 334 333.4 332.7 340.5 345.7 346.7 347.5 355.2 363 365.6 364.4 361.7 361.2 360.2 359.2 358.7 358 356.9 359.1 363.7 370.9 378.2 386.1 392.8 399.6 406.6 414.8 421.3 425.1 429.2 438 446.3
407.5 404.5 395 386.4 379.9 376.6 367.3 363.9 371 379 380.9 382.4 384.8 385.7 388.1 395.6 399.2 400.2 401.6 401.4 399.2 401.3 398.8 395 388 387.2 379.1 379.2 377.6 377.8 367.7 364.2 355.4 340.6 336.6 332.9 330.9 329.9 326.2 319.9 316.4 310.6 305.7 293.1 291.5 291.8 287.7 282.9 282.4 283 277.8 277.7 276.8 279.4 279.3 278.4 270.2 275.2 269.7 268 262.9 256.6 256.9 251.4 250.2 239.2 234.6 230.9 227.1 227.1 227.1 227.1 227.1 227.1 227.1 227.1 227.1 227.1 227.1 227.1 227.1 227.1 227.1 227.1 227.1 227.1 227.1 227.1 227.1 227.1 227.1 227.1 227.1 227.1 227.1 227.1 227.1 227.1 227.1 227.1 227.1 227.1 227.1 227.1 227.1 227.1 227.1 227.1 227.1 227.1 227.1 227.1 227.1 227.1 227.1 227.1 227.1 227.1 227.1 227.1 227.1 227.1 227.1 229.9 231.6 231.7 231.1 230.4 234.1 236.2 240.3 244.7 252.1 257.7 258 259.8 265.3 270.6 271.5 275.4 278.1 284.7 288.3 289 291 298.9 296.2 296.8 299.4 296.7 296.8 295.3 300.4 303 300.6 301.4 304.9 309.4 311.5 313.6 316.4 317.1 321.7 325.5 326.6 326.2 325.4 327.9 330.8 331.4 337.7 348 350.9 349.2 350.4 354.6 357.9 360.6 362.5 359.7 359.9 358.8 357.8 357.4 356.5 355.7 356.7 362 367.6 373.3 382.2 390.2 394.1 399.8 408.8 418.9 422.2 424.9 430.4 440.3
417.5 409.9 396.2 391.4 387 383.7 377.7 372.4 378.6 386.5 388.4 393.6 399.3 400.1 403 409.5 412.2 415.5 418.3 418.2 418.2 416.7 413.7 411.4 406.6 402.9 391.7 386.6 382.4 377.5 375.4 368.8 365.3 358.3 357.3 358.2 352.2 350.4 343.8 333.7 330.5 326.4 317.2 305.3 304.6 300.3 300 293.8 292.9 294.3 294.5 295.1 297.8 292.1 291.3 291.6 289 287.7 288.1 281.7 278.7 276.8 269.3 262.7 256.5 246.9 240.8 238.3 233.3 230.8 228 227.1 227.1 227.1 227.1 227.1 227.1 227.1 227.1 227.1 227.1 227.1 227.1 227.1 227.1 227.1 227.1 227.1 227.1 227.1 227.1 227.1 227.1 227.1 227.1 227.1 227.1 227.4 227.1 227.1 227.1 227.1 227.1 227.1 227.1 227.1 227.1 227.1 227.1 227.1 227.1 227.1 227.1 227.1 227.1 227.1 227.1 227.1 227.1 227.1 227.1 230.5 232.6 233.3 234.2 234.2 233.8 234.2 235.8 240.3 244.8 252.6 256.9 256.5 260.6 262.5 267.1 275.3 277 278.6 286.5 295 297.9 297.5 295.7 298.2 296.9 297.9 300.6 300.8 303.2 309.8 307.5 306.2 307.9 304.6 304.9 308.9 313.5 322.4 321.2 325.8 328.1 328.9 328.8 328 327.7 328.3 330.5 335.2 340.2 345 347.2 348.4 351.4 352.8 354.9 355.6 352.7 349.9 353.7 354.6 353.6 351.3 349.2 354.3 355.2 358.4 363.4 369.8 380.2 389.9 390.9 393.1 401.7 411.3 416.4 419.4 422.9 432.2
417.5 408.4 402.4 392.4 389.4 391 382.7 380.6 381.9 391.2 396.8 401.8 408.9 414 419.8 427.7 430 434.6 435.8 432.3 435.3 432.5 429 423.7 419.3 416.5 412.6 402.6 393.1 390.9 388.8 386.6 380.7 377.1 375.4 377.3 372.4 369.1 361.9 349.4 342.7 329.7 319.8 317.2 316.9 316.2 319.5 312 310.4 311.7 312 315.1 315.5 308.4 309.7 310.5 307.3 306.4 310.9 310.3 300 297.1 281.3 271.5 262.5 256.6 249.1 244.7 239 233.8 229 227.1 227.1 227.1 227.1 227.1 227.1 227.1 227.1 227.1 227.1 227.1 227.1 227.1 227.1 227.1 227.1 227.1 227.1 227.1 227.1 227.1 227.1 227.1 227.1 227.1 227.1 227.1 229.5 230.3 228.7 228.1 229.4 227.1 227.1 227.1 227.1 227.1 227.1 227.1 227.1 227.1 227.1 227.1 227.1 227.1 227.1 227.7 228 230.2 227.9 232.5 234.5 235.3 236 235.8 235.4 236 238 243 247.7 251.6 256.9 258.1 262.2 265.4 273.7 277.3 278.9 282 290.6 297.1 303.7 304.8 301.8 303.6 306.9 305.7 305.1 306.9 307 310.1 311.1 307.4 307.3 307.4 307.7 310 317.3 318 322.8 325 327.8 329.3 330.1 330.3 329.9 330.2 333.1 337.5 340.7 342.7 346.6 349.4 350.3 350.1 350.7 350.7 349.7 345.8 343.4 345.9 347.6 344.2 347.4 350.4 350.9 354.6 362.8 371.8 376.6 381.3 382.1 387.5 396.1 405.1 412.7 415.6 418.6 426.9
419.3 412.2 404.6 402.5 395.9 394 387.9 387.1 390.1 395.4 403.1 411.8 419.3 429.8 439.4 445.1 447.6 450.3 448.7 448 448.2 440.2 433.3 428.9 427.3 424.8 419.9 406.6 409.3 404.8 399.8 396.9 394 393.6 392.1 385.3 382.3 379.1 369.3 365 347.9 350.9 337.1 338.1 334.8 336.1 329.6 333.3 330 333.9 334.3 340.3 339.8 330.9 332 332.1 331.5 334.9 344.2 337 330.9 315.6 301.2 291.1 280.9 271.4 255 248.8 241.4 235.5 229.3 227.1 227.1 227.1 227.1 227.1 227.1 227.1 227.1 227.1 227.1 227.1 227.1 227.1 227.1 227.1 227.1 227.1 227.1 227.1 227.1 227.1 227.1 227.1 227.1 227.1 227.1 227.1 229.2 230.5 230.6 230.1 230.4 228.4 228.5 231.3 232.3 230.5 230.4 228.5 227.1 227.1 227.1 227.1 227.1 227.1 231.4 231 232.9 233.4 233.3 234.7 236 236.8 236.8 236.8 237 237.5 241.1 246.3 250.7 254.8 259.1 260.2 263.3 274.5 277.9 279.2 286.9 290 292.5 297 302.3 306.7 305.9 308.6 309.8 311.5 313.4 311.2 307.3 309.4 312 307.8 306.5 307.5 306.9 307 308.7 314 319.8 328.1 333.5 334.9 332.3 329 331.1 332.9 336.5 338.7 341.4 344.9 348.9 347.4 346.7 347.4 347.9 349.3 347.8 343.1 338 337.4 342.8 340.5 343.6 344.5 346.1 354 362.5 367.3 372 374.4 378.4 380.1 387.9 398.7 403.4 406.6 413.9 418.8
433.9 424.3 415.6 404.1 402.8 394.7 389.2 386.3 389.1 404.1 412.9 415 434.5 440.8 446.1 453.8 458.8 465.4 465.7 461.3 459.5 451.2 440.1 434.4 429.1 425.6 419 414.2 414.3 411.5 408 407 405 404.7 402.3 394.4 389 387.4 383.7 371.4 365.4 356.8 355.7 356.6 356.1 354.9 354.8 351.5 356.9 360.5 360.1 364.7 363.1 353.2 352.6 350.2 354.8 360.5 366.5 367.5 360.9 339 340.4 316.5 293.9 278.4 267.2 258.9 248.3 236.2 229.8 227.1 227.5 227.1 227.1 227.1 227.1 227.1 227.1 227.1 227.1 227.1 227.1 227.1 227.1 227.1 227.1 227.1 227.1 227.1 227.1 227.1 227.1 227.1 227.1 227.1 227.1 227.1 227.1 228.3 229.5 230.4 230.4 230.7 232.7 234.9 237.3 237.9 237.3 233.1 228.9 227.1 227.1 227.1 227.1 227.1 227.1 231.1 238.8 238 236.4 236.8 237.5 238 238.4 238.8 238.6 241.7 246.2 251.4 254.3 258.6 259.9 262.1 274.3 280 282.7 287.6 290.8 294.9 295.3 300.1 304.4 307.5 309 312.1 312.5 316.8 320.5 323.8 321.3 314.1 309.4 305.8 302.5 302.6 306.2 307.9 312.5 318.7 335.6 338.9 334.2 329.9 327.5 327.7 328.4 329.3 333.6 338.7 344.1 346.8 347.5 345.4 344.7 343.6 346.5 347.9 345.7 342.1 337.2 332.8 334.6 338.5 340.2 340.5 340 347 354.3 359.2 362.9 363.4 370.8 376.3 380.4 386.7 391.9 398.1 405 410.1
448 442.9 430.1 417.2 406.2 399.6 394.4 393.8 392.8 406.3 414.8 424.6 436.2 446.8 451.9 463.4 477.1 486.7 481 475.9 467.8 458.6 447.8 443.7 440.9 432.1 428.8 424.3 422.1 424 424.1 422.9 416.8 416.8 413.3 405.2 395.9 399.8 396.9 389 382.1 378.1 375.5 370.4 375.3 382.7 381 380.2 382.9 380.7 377.8 378.2 373 371 367.7 368.8 371.5 384.4 386.9 393.3 377.9 379.2 362.6 342.6 308.7 291.4 281.8 267.1 250.8 236.7 229.2 227.7 228.4 228.6 228 227.4 227.1 227.1 227.1 227.1 227.1 227.1 227.1 227.1 227.1 227.1 227.1 227.1 227.1 227.1 227.1 227.1 228.5 233.3 233.5 231.3 227.1 227.1 227.1 227.1 227.1 229.2 230.1 233.4 235.5 238.4 243.7 249 245.4 241.3 236.5 234.2 229.4 231.3 231.7 230.4 229.8 230.7 236.5 238.5 238.3 238.1 238.3 238.6 239.6 240.8 243.5 246.7 249.5 252.5 256.8 262.2 262.1 267.5 278.3 283.9 286 290.1 295 298.7 301.9 304.5 308.2 311.3 310 315.1 320 324 329 331.4 324 317.2 306.9 302.5 302.5 303.3 307.1 313 316.3 320.5 319.5 319.1 321.4 329.3 325 325.9 325.4 328.8 336.8 342.1 345.7 345.8 345.2 343.5 341.5 340.3 340.9 341.2 338.9 338.1 333.7 330.6 333.3 335.2 338.1 340.4 339.1 341.7 344.8 349.8 360.8 362.5 367.8 373 375 379.9 383.9 389.4 396.6 401.9
476 467.3 450.9 429.3 420.1 407.5 405 402.5 402.5 410.8 421.9 432.4 443.1 457.7 461.4 466.3 479.1 485.3 492.1 488.2 482.9 473.3 462.6 453.4 447.7 441.9 439.7 430.2 428.5 427.9 430.2 429.9 428.4 417.6 411.7 410.1 404.9 406.3 400.7 399.7 400 402.4 402.5 396.8 391.5 397.7 400.7 401.8 395.8 388.7 386 387.4 391.2 388.3 390.9 391.3 399 401.2 407.1 403 406.3 405.3 378.4 346 323.3 306.5 293.7 276.3 255.2 240.9 234.2 234 236.7 234.7 232.4 230.9 229.4 232 227.1 227.1 227.1 227.1 227.1 227.1 227.1 227.1 227.1 227.1 227.1 227.1 229.1 231.3 235.1 237 239.2 238.8 240 235.3 227.1 227.1 229.3 230.6 232.9 236.1 240.3 244 248.7 254.1 249.9 249.5 242.9 238.8 237.2 234.2 235.1 234.2 236.5 233.1 234.2 239 238.3 238.5 238.7 238.9 238.9 239.4 242.3 251 251.4 252.7 258.5 263.9 266.2 275.2 278.2 285.3 288.2 293.1 297.4 302.7 307.2 312 315.7 317.4 318.1 325.2 329.5 330 329 325.7 322.7 313.9 310.3 306.7 302.5 302.5 306.2 308.2 308.7 307.7 312.3 315.8 320.1 321.7 323.8 324.5 325.5 326.8 335.1 338.9 342.3 342.8 341.1 339.1 336.7 336 337.3 339.8 339.1 334.4 329.5 329 329.7 331.1 334 336.7 337.5 341.8 347.9 354.8 361.1 364.2 367.8 370.3 372.9 378 384.9 388.8 396.4 400.7
484.3 469.2 453.8 447 431.2 423.6 424.9 424.9 417.7 419.1 425.9 437.8 454.4 462.7 468.9 478.6 492 489.7 487.2 480.4 477.7 477.9 473.5 470.1 459.8 460.2 449.8 431.7 436.8 435.7 430.9 432.6 430 422.5 419.3 416.5 415.3 412.7 414.8 419.6 418.1 417.2 412.4 408.7 408.9 409 411.7 403.5 400.2 397.9 400.9 404.7 410.3 410.9 412.5 406.1 410.3 411.3 414.6 422.4 424.4 416.9 396.2 380.8 357.6 333.5 300.8 278.8 265.6 252 242.7 242.1 240.2 237.6 234.7 233 231.4 230 228.1 227.8 227.8 228.1 229.8 230.5 231.6 231.8 231.7 233.5 233.4 233.2 236.4 238.6 242.2 243.2 244.4 246.3 249.3 250.1 249 237.8 236.6 237 240.9 241.9 244.9 249.4 252.7 255.2 253 248 244.9 243.3 242.2 240.7 239.5 238.2 238 235.6 234.1 238 238.4 238.7 239 239.2 240.1 241.1 242.5 245.1 249.6 253.6 259.2 265.9 272.4 275.9 281.2 287.5 292.8 297.5 301.9 307.2 310.8 315.7 317.8 323.7 323.5 324.9 326.9 328.7 332.8 331 324.8 319.6 318.5 310.7 307.9 303.3 303.5 303.7 302.8 302.8 310.4 315.8 318.4 323 323.7 322.4 323.3 326.9 331 335.8 340.5 343.9 341.6 342.8 339.8 335.9 335.2 332.2 331.6 326.8 325.4 325.6 327.5 326 331 333.5 339.8 342.8 343.9 354.3 356 358.5 362.6 365.7 371.1 378.1 383.9 386 388 392.6
499.8 486.8 464.8 456.7 449.8 449.4 445.2 442.8 433.7 430.3 432.3 449.3 464 476.1 475.8 487.6 494.7 486 478.7 479.3 478 475.1 474.7 464.8 466.3 462.5 456.9 442.3 431 432.9 436.7 433.4 426.7 423.1 421.1 418.8 421.6 425.9 429.4 431.1 434.2 430.6 423.7 419.7 418.6 415.1 414.3 411.1 410.6 413.4 415.2 418.5 421.8 423.7 415 416.9 421.3 430.4 439.5 445.7 448.6 440.8 430.8 409.2 379.7 346.9 318.6 290.6 271.3 258.4 252.5 248.4 244.4 241.5 241.1 235.9 233.4 231.3 231.7 231.1 233.3 234.4 237.3 237.8 237.3 238.4 240.3 240.7 241.4 242 244.6 248.1 249.7 251.7 253 256.4 254.7 255.2 257.8 253.4 252.4 245.7 244.4 241.6 248.6 254.2 253.6 251.8 249.7 246.8 245.6 246.4 243.5 241.9 241.8 241.8 240.3 239.1 238.5 236.5 237.5 238.5 239.5 240.5 242.1 243.7 246.4 248.1 252.5 258.8 264.4 270.1 275.5 281.1 286.3 291 296.4 300.6 305.6 310.5 313.1 318 323 328 326.6 326 333.8 338.7 335.6 336.1 329.6 323.3 316.3 313.8 306.5 303.7 307.8 304.7 302.8 302.8 306.5 309.7 317.7 320.8 318.2 319 322.3 324.4 328.8 332.8 339.3 344.4 345.1 348.4 346.9 340.8 334.7 332.5 334.4 332 325.6 323.8 323.7 326.1 329.8 332.4 336 338 340.3 348.6 350.9 353.8 358 363.4 369.1 374.7 379.5 382.7 385.4 389.5
524.6 500.1 483.4 472.8 472.5 470.1 467 460.5 456.4 441.7 442.1 459.6 470.5 477.5 477.7 483.5 483.9 481.6 476.5 476.6 478.8 478.7 467.9 461 455.8 452 448.3 437.2 431.1 428.8 428.7 430.2 427.4 424.9 424.5 428.1 430.8 435.1 440.8 444 441.5 436.4 432.5 429.3 427.2 425.8 425.1 420.5 422.6 422.9 426.3 426.3 423.9 422.1 424.8 430.4 439.3 448 456.8 462.2 464 457.9 452 444.5 405.2 367.7 335.4 305 285.2 269.8 262.5 256.2 250.4 246.5 245.1 242.2 240.6 236.9 238 238.4 240.6 242.9 242.2 243 243.8 245.1 246.6 246.8 249.8 252.5 254.8 257.7 258.1 261.6 268.2 261.6 259.4 261.4 263.2 263 261.9 255.9 245.7 242.3 245.3 251.1 251.2 249.8 247.9 245.9 244.8 244 242.9 242.7 242.5 242.5 240.9 241.7 239.3 237.4 235.7 237.7 238.9 240.2 242.6 245.3 247.8 249.7 255.3 263.1 268.8 274.2 279.7 286.3 292.3 297.7 302.8 306.1 309.3 312.5 317.5 323.1 327.4 331.8 332.1 339.3 340.3 339.1 343.3 338.4 329.7 324 320.6 313.6 307.4 304.4 307.9 302.8 302.8 304.1 305 307.8 310.9 315.2 315 317.8 326.3 324.6 323.6 328.6 336.1 340 343.8 351.5 348.3 342.7 338.8 334.7 333.9 330.2 324.3 321.4 321.7 323.5 324.5 328.2 330.3 331.6 334 339.9 344.4 347.2 353.2 359.4 365.3 371.8 375.8 379.6 383.7 386.2
529.4 516.9 510.3 501.6 505.8 502.2 494.2 487.4 475.9 458.9 454.5 464.8 475.8 480.6 476.6 476.1 475.5 477 475.9 475 474.2 469.3 457.8 454.2 452.5 448.1 439.9 439.5 431.5 427.8 427 428 428.9 427.2 431.6 436.5 436.1 437.5 442.4 447 447.7 442.2 442.4 448 442.1 435.2 433 429.3 434.8 432.5 430.2 430.4 432.3 435.4 437.4 446 457.7 465.2 471.1 480.3 483.5 475.1 465.5 458.6 434.5 382 352.3 326.8 303.4 280.7 273.5 265 260.9 256.7 254.1 252 249.6 245.9 248.2 248.1 249.2 249.2 252.1 251.2 251.6 255.3 260.3 259 262.1 263.3 268 271 274.8 273.2 272.5 267.6 268.2 270.1 272.5 272.4 268.7 263.7 255.2 244.9 242.9 247.4 248.6 247.9 246.3 245 243.7 242.2 241.2 241.4 241.6 242.1 242.3 241.3 238.1 235.8 236.6 237.5 238.1 239.6 243.3 246.5 248.4 253.2 259.2 266.3 272.8 278.3 284.5 290.9 297.6 305 311.6 315.3 316.8 321.8 326.1 329.5 336.6 340.2 340.9 345 343.3 342.3 342.4 334.7 329.7 323.9 316.9 310.6 305.9 306.4 306.5 304 303.2 302.8 302.8 305.1 314.2 314.1 311.4 311.2 315.7 318.5 318.8 323.4 328.2 335 340.9 338.1 339.9 343.8 341.1 336.4 335.5 329.9 322.4 315.6 311.1 313.1 318.1 323 324.7 323.9 328.8 332.3 335.2 339.2 344.5 351 357.4 362.2 366.6 371.6 375.9 379
553.7 559.6 547.6 549.9 543 534.1 521.1 500.6 484.1 480.3 474.5 471.7 478.2 476.2 477.8 471.2 472 471.7 473.2 474.9 467.5 456.7 447.5 447.7 445.6 439.3 436.5 431.2 430.7 433.1 432.9 431 430.8 435.8 434.5 438 442.2 444.6 448.1 450.5 452.1 455.2 456.9 454.1 446.2 444.1 446.9 448.8 442.3 439.2 441.2 443.4 446 447.9 451.7 460 466.3 473 480.8 485.8 491.2 485.4 481.5 474.7 457.7 417.9 395.7 357.3 325 301.1 288.7 279 272.3 267.5 263.6 261.4 257.9 257.3 258.7 257.8 258.4 258.4 260.4 262.6 264.3 269.4 272.2 273 275 278.5 279.8 286 288.1 282.1 280.5 279.6 277.8 279.2 279.2 276.8 271.8 268.5 262.9 253.1 246.3 244.9 246.8 246.2 243.9 242.1 241.8 241.2 240.6 240.7 241.2 242.2 241.2 235.9 235.7 235.7 236.9 237.8 240.9 243.5 245.5 246.7 251.7 257.8 264.9 271.5 277.9 283.8 289.6 295 301.5 310 314 317.5 321.2 324.5 329.4 333.9 337.1 339.7 343 343.2 345.2 348.7 344.6 338.3 329.7 320.7 314.8 309 308.6 307.8 306.4 302.8 302.8 302.8 307 315.6 313.4 310.1 308.8 309.8 312.3 313.6 319.2 318.5 320.9 325 328.5 332.8 342 344.1 339.3 336.3 337.1 328.8 319 311.5 304.2 307.3 310.1 315.1 316.2 319.6 324.8 326.8 329.2 336 340.4 347.5 353.9 355.3 359.8 363.3 367.4 370.8
575.8 573.2 573.8 568.3 557.8 547.3 528.7 513.9 502.8 497.7 485.4 472.4 473.6 471.9 467.6 465.6 465.5 467.6 469 466.4 452.8 447.5 442.7 440.1 435.3 433.1 433.6 431.3 430.6 435.4 439.7 435.2 438 442.3 442.9 446.1 448.7 450.6 453.4 453.3 456.6 460.1 463.7 466.7 458.7 456.4 452.6 450 451 455.9 451.5 453 455.3 457.8 464.5 469 476 481.9 488.7 497.5 498.1 495.4 488.6 481.4 471.4 449.2 414.1 366.8 341.2 322.2 303 292.5 286 279.8 275.2 270.1 270.1 270.2 270.9 271.2 272 272.5 272.3 276.1 282.8 287.9 290.7 290.6 291.8 293.8 295.3 295.1 295.8 294.6 288.6 290.2 291 293.5 287.8 283.2 277.9 273.3 270.4 263.5 257.3 254.1 248.1 245.6 243.2 241.3 241.2 241.2 240.1 238.1 238.6 238.7 237.9 235.7 235.7 237.2 235.7 239.8 243.8 246.8 248.3 250.1 256.4 261.3 269.7 277.9 283.6 288.3 292.8 297.5 303.7 307.6 309.4 313 320.1 326.1 330.1 332.9 339 338.2 338.9 342.6 348 344.4 340 333.7 324.1 316 312 308.8 308.1 308.8 303.3 302.8 302.8 308.3 309.6 311.3 309.4 308.2 309 310.4 312.7 312.4 311.7 313.1 313 316.6 318.3 324.6 333.2 335.7 331.6 331.9 330.2 323.7 316.1 308.4 300.5 299.4 301.4 307.3 311.7 315.1 319.4 321.7 325.1 332.3 337.2 343 347.1 349.7 352 354.4 356.3 360.1
592.3 586.4 582.9 575.9 566.6 556.1 544.3 530.2 515.5 510.5 492.3 473 473.4 472.3 468.3 464.3 462.4 457.9 453.2 451.5 442.2 437.8 439 434.7 434.8 434 432.1 430.7 435 442.3 441.4 442.4 442.3 445.6 446.7 447.1 451.5 453.6 458.4 460.2 465.1 464.6 468.5 469.9 467.7 461 460.6 466.9 474.1 470.5 465.4 462.7 466.6 472.2 476.6 482.5 484.2 486.7 491.5 494 496.4 496.4 495.2 496.8 496.5 487.1 437 388.3 362.1 340.5 320.8 308 301.1 294.6 292.8 292.9 289.9 287.9 287.8 287.3 289.2 290.7 293.7 296.8 298.8 304.2 310.3 311.1 308.8 308.4 310 307.5 310.4 310.1 307.6 303.4 302.7 297.9 295 287.3 280.3 277 273.3 267.6 261.9 259.6 253.7 248.5 244.7 241.6 238.6 238.1 237.4 237 236.8 235.7 235.7 235.7 235.7 235.7 235.7 242.1 245.8 249.3 252 256 262.9 269.3 274.1 278.6 283.8 288.2 294.3 302.3 309.4 312.3 312 316.5 327 331.2 332 335.2 342.3 339.7 338 340.2 342.7 336.2 333 327.9 319.9 313 313 309.3 307.2 306.5 302.8 304.3 307.1 305 304.5 306.7 308.8 308.9 311.3 312.7 313 314.5 315.5 314.2 316.3 310.7 308.5 308.3 313.7 318.4 320.6 322.8 319.9 315.5 309.8 303 295.6 292.6 294.3 301.7 305 306.7 315.1 318.4 319.4 327.3 333.5 335 338.3 340.7 343.8 346.5 343.2 345.3
598.1 590.9 584.8 578.4 570.3 569.4 555.9 541 527.9 508.5 495.9 480.8 477.6 476.5 467 458.7 454.2 453.4 442.7 440.3 433.1 437.7 432.6 433.9 434.9 434.1 433 434.2 439.8 444.7 444.6 447.4 449 452.3 454.3 449.2 454.3 459.8 464.9 464.4 466.9 471.5 468.5 472.2 470.5 472.4 474.1 479.7 480.1 476.6 470.3 469.6 476.3 484.4 489.9 493 495 494.3 497.9 501.7 497.4 499.3 494.6 493 493.8 490.3 469 407.6 383.2 365.6 345.1 328.5 318.6 317 315.8 316.5 313.9 314.1 313 311.3 308.3 311.6 316.3 322.7 321.3 321 325.8 325 323.1 324.1 322.7 320.1 323.8 322 322.1 317.9 308.8 301.5 293.7 282.8 279.9 276.4 273.9 268.4 259.9 255.6 252.5 249.8 245.3 243.4 241.6 239.9 239 237.1 235.9 235.7 235.7 235.7 235.7 235.7 237.6 242.2 246.2 250.3 253.3 258 273.8 275.6 278.6 284.4 290.1 295.9 300.6 308.7 316.7 320.1 321.1 322.6 327.6 329.4 333.1 336.9 339.4 337.3 335.5 334.2 333.6 327.3 321.5 320.9 314.5 312.7 311.2 308.5 306.7 305.2 302 301.6 304.2 303.7 303.9 309.2 309.9 312.2 315.3 315.2 314.6 316.9 320.4 319.5 314.8 309.3 307 305.7 302.7 299.8 301.4 305.9 307.9 306.4 302.9 297.8 292.3 288.7 290.7 296.6 303.6 303 305.3 310.5 318 324.6 328.5 330.3 329.5 327.5 328.4 328.6 330.3 330.4
594.2 592.9 588.4 579.1 575.7 570.7 558.7 546.6 528.5 509.2 497.2 486 485.9 472.8 464.4 457.6 453.4 448.8 442.1 429.7 423.4 425.8 430.1 435.9 433.8 435.2 437.7 440.3 442.5 442 445.8 447.9 451.9 457 460.3 457.3 461.9 465.6 469.8 468.7 475.3 473 471.4 473.9 479.5 480.7 482.4 483.2 480.6 478.2 475.3 480.4 485.8 492.1 499.6 499.4 504.1 502.3 504.9 502.7 500.2 496.9 500.5 497.5 492.7 492.2 488.8 465.3 419.5 407.1 378.4 360.4 348.3 344.1 342.7 343.7 338.7 336.5 334.5 331.9 329.3 332.2 338 342.3 344.3 341.8 340.9 339.6 337.8 336.6 334.3 336.5 332.5 327 321 313.9 306 296.1 286.4 278.3 276.5 273.7 266.5 257.5 259.8 257.3 252.9 249.2 245.4 244.9 241.6 240.7 238.8 237.2 235.7 235.7 235.7 235.7 235.7 235.7 237.9 240.2 245.9 252.2 258.7 263.9 272 277.4 280.2 290.8 298.5 309.6 319.1 326.4 328 327.8 329 330 328.5 330.9 336.2 337.6 337.8 337 334.7 332.2 327.4 325.6 316.8 314 312.7 312.4 309.7 310.7 309.5 306.6 300.8 303.2 307.3 307.9 309.1 312.4 313.8 315.3 323.5 327.7 324.5 320.4 323.1 316.2 314.3 313.4 310.2 306.7 300.8 297.1 298.2 293.7 292.1 299.1 296.5 293.5 288.7 285.7 286.7 291.2 295.9 297.9 302.4 306.7 315.1 319.8 324.3 325.2 324.4 320.1 318.1 318.9 319.5 318.8
586.5 586.1 585.5 579.9 576.2 570.7 562.8 549.4 529.5 505.8 489.9 484.7 481.4 474.5 469.5 464.7 454.2 446.3 434.1 424.5 421.3 423.5 432.1 431.3 435.6 434.8 440.3 444.1 443.3 443.7 447.5 453 458.1 461.8 467.5 465.8 471.6 468.9 471.7 471.3 472.8 475 475.9 479.7 482.6 485.5 486.5 484.6 481.2 481.2 485.1 488.8 493.2 498.7 508.1 505.7 504.9 506.4 507.6 502.4 502.6 498.9 498.7 498 493.5 495.5 494.2 483.9 463 437 422.4 408 393.2 381.6 376.1 378.5 369.7 360.4 354.8 352.6 356 360.1 361 361.6 364.7 363 358.3 349.2 347.3 345.3 343.8 333.2 323.5 318.1 310.4 303.8 297.2 288 279.7 278.3 272 265 262.2 263.4 265.5 261.7 255.9 249.9 247.6 245.4 243.2 241.2 239.9 238.7 235.7 235.7 235.7 235.7 235.7 235.7 237.5 239.7 244.5 253.4 266.2 274.9 282.4 287.1 292.3 300.1 311.1 320.6 325.1 329.4 333 331.4 329.8 327.9 326.7 333.2 340.4 341.5 336.3 333.8 330.9 328.1 323.9 320.4 314.7 314.7 311.5 308.5 306.8 304.6 300.2 298.7 301.9 306.1 307.6 308.4 312 315.1 317.5 321.9 329.6 332 329.4 321.7 323.1 321.3 320.9 323.6 322.7 308.9 301.1 298.6 298.1 293.8 290.9 280.2 282 285.1 281.6 277.5 280 285.9 293.1 292.4 296.1 306.6 310.4 314.8 319.4 317.7 315.9 313.9 310.2 310.3 310.9 310.3
574.9 576.5 577.5 575.9 573 565.8 559.1 542.3 524.5 506.7 487.7 474.7 476.8 473.2 467.2 458.8 451.1 440.9 427 420.9 422.1 426.5 428.7 430 432.1 434.8 438.7 442.2 444.7 449.7 450.8 454.3 459 464.3 470 469.5 468.5 468.9 470.3 474.4 474.2 476.1 480 482.4 486.5 489.8 490.2 489.8 488.6 490.1 492.6 495 498.4 504.2 508.1 504.9 507.4 509.8 510.8 503.8 500.9 498.9 502.1 499.3 499 497 495.3 491.4 486.5 474.6 467.2 451.4 432 416.1 409.4 411.7 406.9 390 387.6 381 382.4 389.7 394.9 394.3 395.4 383.8 368.5 364.1 353.4 342.2 332.2 321.9 311.5 306.4 298.6 293.6 289.7 282.4 275.2 270.1 266.7 264.5 267.6 266.5 263.3 261.2 257.8 252.3 248.6 246.1 245 243.6 242.2 238.6 237.5 240.9 241.4 235.7 235.7 235.7 236.3 247.2 254.5 261.8 274.2 284.7 290.3 295.3 300.9 305.3 312.9 317.9 322.1 325.4 326.1 324 321.3 322.5 328.7 334.5 339.5 338.7 337.3 336.9 336.6 335.9 333 326 325.8 321 320.8 318.2 314.6 308 300.8 297.3 297.3 302.2 303.5 311.5 318.5 320.2 327.7 334.7 341 338.5 334.5 322.7 327.4 333.1 330.7 328.7 325.3 317.1 306.5 299.8 298.6 292.7 289.8 282.4 275.3 268.7 269.6 266.9 273.2 280.6 283.2 286.3 291.2 300.4 307.3 310.6 313 310.4 305.3 304 303.4 306 304 304.4
560.6 562.6 561.8 562.4 557.8 552.7 546 534.3 514.4 497.5 482.5 469.1 467 467.2 459.1 449.6 440.1 436.8 425.3 420.4 420.8 424.7 425.8 429.3 433.5 433.5 438.2 440.3 445.6 451.1 453 456.4 464.6 470.6 469.6 465.2 469 470.9 474.6 476.3 483.4 485 485.8 486.4 490.6 493.3 496.8 501.1 501.2 502.7 503.9 501.8 500.6 503.8 508.4 510 507.6 508.7 503.6 502.7 504.5 506.4 504.6 502.9 503.5 501.6 504.1 501.1 502.5 497.7 500 492.7 482.1 477.4 476.8 465.4 442.2 424.2 423.7 424.4 429.2 434 433.9 429.5 415.3 394.9 377.6 364 345.9 336.2 322.4 311.8 302.7 298 294.4 290.5 287.1 281.2 274.1 270.1 269.5 266.1 266.5 265.3 262.7 259.7 255.4 252.5 254.6 249.8 248.7 250.2 247 241.7 239.4 242.7 243 244.1 245.9 236.1 245 254 260 267.9 274.9 280.5 284.8 291.5 300.8 303.8 306.9 310.2 312.6 313.4 312.1 314.7 320.9 328.8 335.9 343.7 344.3 342.9 347.2 344.4 342.6 340.2 336.9 336.3 329.9 326 324.6 323 315.2 310.2 304.7 297.3 298 300.5 301.1 308.4 321.4 320.3 329 338.5 345.9 341 331.8 325 331.5 338.7 336.5 337.1 329.7 318.5 304.7 290.9 285.5 282 280.9 276 272 265.8 263.7 260.8 266.1 275.5 280.1 281.9 286.3 297.1 301.6 305.3 307.7 306.9 303.3 297.4 295.3 301.7 303.4 299.7
543.4 546 549 546.8 542.7 538.7 536.8 522.6 500.1 484 476.3 464.2 459.3 456.3 450 439.2 436.1 427.5 425.1 423.1 416.9 418.3 427.8 430.3 431.9 433.6 434 437.7 445 451 454.8 456.1 461.2 463.9 460.3 461.3 470.1 473.9 479.1 482.3 485.2 487.7 486.3 490.2 490 496.4 503.1 507.1 505.5 507.6 506.2 502.9 502.6 506.1 504.6 503.2 503.2 503.2 503.2 505.4 510.6 509.1 513.5 516.9 515.3 508.2 506.1 508.8 507.8 510.4 511.3 510.3 516.4 520.4 516.5 510.9 491.7 476.8 473.2 470.3 467.9 462.6 450.4 429.9 409.4 389.3 366.2 347.7 337.4 327.5 317.5 308.6 301.2 297.6 292.8 287.4 282.3 278.8 274.3 273.3 272.1 270.3 270.8 267.1 265 263.9 260.7 262.9 264.8 264.9 261.3 259.4 252.9 246.3 251.6 250 248.4 246.3 239.6 239.2 244.7 255.2 261.8 264.9 271.4 276.3 280.3 285.6 290.8 294 297.9 303.3 306.4 307.1 307.9 317.8 324.9 333.5 342.9 346.2 344.3 344 346 345.7 342.7 338.2 338 339.1 332.6 323.5 317.5 315.7 313 305.9 299.7 297.7 299.4 299.1 300.3 305.3 312 316.5 324.5 332.9 339.2 335.1 332.1 330.7 340.1 346.2 343.3 330.4 319.2 303.4 294.9 285.2 273.3 271.9 269.3 262.4 257.9 256.6 257.8 255.7 258.4 267.6 271.6 274.3 280.5 287.6 294.9 299.4 302.1 303.4 301.2 296.5 291.5 289.2 293.5 293.2
527.8 530.2 530.8 526.2 523.2 520.2 513 501.4 490.3 479.8 467 451.5 449.4 449.4 439.6 430.7 426.8 424.9 424.3 418.6 416 419.1 428.9 432.3 429.9 429.4 432 436.3 444.6 454 453.5 452.9 453.6 457.7 459.5 465.6 473.2 478.7 485.6 490 486.9 487.4 488.1 495.2 500.4 508.2 513.3 509.9 507 512.4 510.7 511.1 510.1 507.3 506.2 505.3 503.2 503.4 507.9 510.9 512.5 511.8 513.5 514 511.4 508.6 512.1 512.4 515.4 517.6 519.9 520.5 523.2 529.5 526.3 520.6 513.9 505.7 495.8 490.3 478.2 458.3 441.3 422.8 395.2 372.1 353.8 340.4 330.9 320.8 313.6 306.9 300.7 294.3 289.2 289.9 284 280.1 278.8 280 279.4 276.4 276.9 274.4 273.6 274.3 275 281.1 279.7 277.4 275.1 265.2 253 258.8 264.9 260.3 252.9 244.3 242.1 242.1 248.6 256.7 258.5 262.4 269.2 273.3 276.1 280.7 287.4 292.6 298.9 301.9 304.7 303.1 305.6 317.5 325.5 333.3 338.2 339.8 339.3 339.5 341.1 339.5 337.4 337.3 338.6 337 332 322.5 314.7 311 308 304.5 300.1 298.5 296.8 296.4 299.9 302.2 307.9 314.9 318.7 324.1 327.4 332.8 334.2 339 335.8 319.1 310.3 303.2 302.2 290.1 282.2 273.8 264.5 263.8 261.5 256.5 253.7 253 253.2 251.5 253.5 255.9 264.3 268.2 272.4 277.6 282.2 288 292.3 293.9 293.5 291.7 288.1 284.5 283.7 285.8
511.5 512.2 511 512.2 508.8 504.8 495.7 485.8 472.9 467.1 450.6 440.2 438.2 438.8 434.2 424.9 417 420.7 421.1 416.9 414.3 420.8 422.4 427 429.3 431.3 434.3 434.5 443 448.5 447.9 447.6 453.1 462 464.8 473 477.5 484.8 487.1 488.7 493.5 493 494.5 501.7 506.4 508.5 511 507.6 503.5 505.5 509.5 510.5 513.3 511.3 506.3 506.1 505.3 511.5 513.8 518.2 519 520.9 516.4 515.2 510.9 512.3 514.4 520.1 521.3 525 530.8 532.7 531.4 529.6 529.6 522.1 515.3 508.1 498.1 488.2 464.3 446.4 423.9 407.6 390 372.1 354.2 338 324.1 315.3 311 303.6 297.6 292.6 290.9 286 282.3 287.3 288 288 286.3 283.9 288.9 284.2 281.9 287.2 288.5 290.6 290.1 285.9 274 261.9 261.5 265.8 265.6 269.5 262.7 249.4 245.3 245.3 250.3 253 254.2 258.3 262.8 269.3 274.6 277.1 283.6 287.9 291.3 293.8 296.8 298.5 303.8 312.6 320.4 324 329.9 331.9 333.4 338.9 336.7 333.6 333.6 336.9 338.3 334.2 328.1 320.7 314.3 310.6 310 308.4 305.9 300 294.2 289.2 293.4 298.2 311.7 313.6 315.9 317.6 318.8 329.8 332.8 325.7 309 294.9 290.7 287.7 295 280 269.8 261.2 257.9 259.5 255.9 251.7 249.7 247.7 246.6 247.6 247.2 248.5 258.7 262.4 265.4 268.4 268.4 276.5 279.7 284 287.9 284.9 285.1 282.7 279.9 277.6
493.8 494.3 495.2 494.8 492.4 488 482.6 467.5 459.9 453 439 432.8 430.1 429 421.2 418.4 414.4 418.7 415.5 411.7 413.5 418.9 418.9 420.5 425.7 430.6 431.7 432.2 437.5 441.9 446.9 454.5 457.3 461.3 467.6 475.5 485.6 487.9 486.9 492.1 493.7 498.6 503 503.7 509 508.2 505.4 503.6 503.2 503.4 508.3 510.4 511.6 509.8 507.8 509.1 513.8 512.9 513.7 516.1 519.5 519.5 517.3 514.5 514 513.9 516 517.5 529.3 536 535.9 535.9 529.3 527.9 524.7 517.6 507.3 494.3 485 469.9 453.9 435.2 417.6 398.8 379.2 361.8 350.4 330.8 320.2 312.2 306.6 300.5 295 292.8 290.1 289.9 290.6 297.9 296.8 297.1 295.2 292.4 294.6 291.7 291.8 294.5 297.5 298.7 299.1 287.4 273 268.5 264.3 265.2 270.1 265.4 256.9 248.6 245.5 245.5 246.1 249.7 250.7 253.4 256.5 262.9 267.5 271.3 277.6 281.6 285.5 290.3 293.3 294.8 301.1 309.2 316.3 317.3 320.5 321.7 325.3 329.4 326.8 324.3 325.4 329.1 325.9 330.7 328.7 323.1 314.2 309.8 306 306.2 300.2 296.7 292.1 286.1 288.7 296.9 300.2 307.9 317.6 317.3 317.7 325.5 328.8 317 300.9 286.2 272.9 274.8 271.6 263.4 255.3 251.2 252.6 255.3 248.4 246.8 244.9 241.9 239.1 240.3 242.2 243.8 249.4 259 259.4 261.8 263.3 264.7 268.9 273.6 274.4 277.4 282.3 280.8 276.4 274.2
476.7 475.6 475.9 475 474.1 472.5 463.7 452.2 448.4 444.1 429 426.1 419.1 414.7 411.8 414 410 408.6 408.2 406 407.9 409.7 411.5 415.7 420.4 423.9 423.4 428.6 435.8 445.5 448.1 452.8 458.7 464.6 469.9 476.1 480.2 482.2 483.5 488.9 494.7 500.8 502.2 504.4 503.7 502.8 505.3 503.7 503.6 508.5 508.7 510.5 514.8 514.6 512.8 513.8 513 514.1 516.4 516.4 520.8 517.9 518.7 514.8 514.9 513.8 520.1 524.4 530.7 536.3 533.7 528.7 526.8 519.5 514.2 505.5 498.6 484.8 470.6 455.5 438.4 421.5 401 382.3 367.6 353.5 341.6 325.3 314.8 310.1 303.8 296.6 292.5 293.2 294.6 293 299 300.8 299.8 299 301.2 298.1 298.8 302.9 299.7 303 303.9 302 298.2 289.4 275.4 267.1 263.3 263.6 261.9 255.9 249.9 247.1 244.4 242.4 239.7 242.1 244.7 246.4 252 257.6 262.6 269.9 276.6 279.7 283.7 286 289.1 293.5 297.6 304.9 309.9 312.5 312.4 310.7 314.8 316.4 315.9 314.7 313.8 313.6 319.2 326.4 328.5 319.9 312.8 306.4 300 295.1 297 290 286.3 284.1 284.1 288.7 293.9 301 305 305.8 314.4 317.4 313.9 299.9 286.5 272.8 267.5 263.3 257.1 249.7 244.6 245.4 247.2 243.4 240.9 240.2 239.8 239.7 236 237.3 238.8 238.9 242.3 251.2 251.9 255.6 256.2 260.6 263.1 273.7 269 272.5 272.8 271.8 270.5 273.7
455.3 459.8 454.6 452.8 458.4 457.1 451.4 437.4 435.6 431.7 422.4 420.7 411 410 408.5 404.8 399.8 400.5 398.2 398.2 396.2 397.7 404.5 409.1 411 417.6 417.1 431.7 443.1 446.7 453.4 457.8 460.6 461.1 463.7 467.7 473.9 475.2 480.7 486.1 490.3 493.6 497.1 500.8 500.8 500 498.9 500.9 505.5 509.7 507.9 512 518.1 512.2 509.9 508.6 509.4 510.2 512.3 513.3 515.2 515.3 516.2 516.9 517.4 518.7 524.4 527 526.6 529.9 524.4 512.3 512.5 514.2 509.4 495.1 482.4 467.4 457 437.7 419.4 399.7 386.7 367.7 351.8 341.6 331.6 318.8 310.2 305.3 300 295.9 294 296.6 293.4 298.6 300 300.1 300.2 301.2 301.6 301.9 305.6 306.2 306.3 307.6 307.1 301.8 295.7 284.1 275.3 272.8 265.7 261 255.5 249.5 247.6 244.1 240.3 237.1 236.2 239.9 237.6 240.3 245.6 253.9 258.8 264.5 270.7 276.6 281.2 284.8 288.2 292 295 299.3 302 305.1 305.1 306.1 310.5 311.2 311.4 309.2 306.4 307.9 316 318.2 317.2 311.9 306.3 301.7 294 288.9 287.5 284.3 280.4 281.2 278.4 282 287.9 292.1 292.1 295.2 301 299.1 293.8 280.4 272.1 267 260.8 255.6 249.1 242 237.2 233.3 234.4 236.7 236.3 241.4 240.2 235.2 232.9 234.7 234.8 235.6 238.2 241.3 249.6 253.3 252.9 254 259.5 260.3 258 267 264.9 265.5 267 266.8
433.6 440.5 436.1 435.3 438.8 438.6 436.2 425.8 420.8 418.6 415.1 407.5 403.2 404.1 397.6 392.5 390.8 387.7 383 383 386.6 388.7 393.4 395.7 400.8 408 420.1 433.5 439.8 451.4 457.7 455.2 450.2 455.7 457.4 462.1 463.6 470.9 473.7 480 481.8 488.5 491.4 498.7 498.4 502.8 503 506 511.5 511.5 508.6 507.4 509.8 505.3 500.6 502.2 504.4 501.2 504.6 502 505.4 509.5 514.5 521.1 526.1 531.3 530.8 527.3 526.3 531.6 521.8 509.2 501 493.3 478.3 465.7 458.9 452.7 428.5 410.6 395.5 385.8 371.5 355.8 339.2 329.7 320.7 311.8 304.5 303.4 298.3 294.4 294.9 295.7 293.2 299.6 300.2 299.3 301 300.6 302.4 301.1 303.2 308.2 309.1 309.8 307.9 305.3 296.5 283.6 278 273.7 268.2 260.1 252 246.3 242.5 241.6 241 235.6 233.7 232.4 234.7 239.2 244.6 251.1 254.6 260.3 264.9 272.4 278.3 282.6 286.6 290.8 294.2 295.1 296.3 297.7 299.9 302.6 305 305.7 305.6 301.4 299.4 297.4 296.3 297.4 299.5 297 293.5 293.7 284.5 281.9 283 278.8 274 270.6 270.8 278.8 283.3 285.7 285.5 285.9 284.8 282.6 274.6 269.1 266.6 263 255.6 249.3 243.9 237.7 232.3 229.9 229.1 229.6 229.5 232.1 230.6 227.6 224.6 229.3 231.9 235.3 233.9 233.3 236 243.9 246.8 247.2 245.9 246.8 248.6 256.9 258.6 255.7 252.8 257
414.3 417 415.8 420.3 423.2 420.9 417.8 410.4 405.2 406.4 403.4 398.8 393.6 391.9 384.9 380.3 376 374.3 371 370.1 374.2 377.9 380 382.4 391.2 402.4 415.6 429.4 439.9 441.1 444.5 442.1 443.1 445.1 452.1 456.5 457.9 463 466.7 473.8 473.6 481.3 484.4 494.3 498.8 499.6 501.9 508.8 510.4 510 505 499.3 496.6 493.2 491.6 492 491.9 492.7 501 503.9 508.9 514.9 519.8 526.7 528.3 532.4 526 520.1 509.5 510.4 505.6 494.9 486.4 472.2 452.3 439.5 424.7 410.8 407 391 376.7 365.5 351 340.7 334.4 319.7 312.9 310.4 305.5 301.6 298.5 300.3 296.9 294.7 294.9 297.1 297.5 295.2 297.6 298.9 298 300 303.9 308.9 312.2 314.4 312.9 301.6 294.4 288.4 281.9 272.3 263.7 259.1 255.3 250.6 251.8 247.8 240.2 235.2 232.2 230 231.7 234.8 241.8 248.6 253.8 259.7 265.5 271.8 279.2 284.7 292.1 293.9 293.4 292.8 292.6 294.3 299 301.1 302.2 301.9 300.4 297.6 298.2 295.7 290.6 284.2 285.7 286 281.3 275.2 272.9 271.6 272.9 272.8 268.3 263.9 264.3 276.2 280.2 281.8 279.6 276.9 274.4 272.5 272.2 270.3 267 261.6 254.1 246.7 239.8 232.9 228.7 226.9 226.3 225.2 221.2 221 220.5 220.7 218.2 224.3 229.5 230.4 228.6 228 230.1 235 235.5 239.6 240.6 239.3 239.3 247.8 248.1 244.2 240 239.1
399.2 397.7 399.3 402.4 407.7 407.3 404.1 398 392.2 391.8 392.6 389.3 379.7 374.3 371.1 364.3 360.8 357.4 355.6 359.8 363.8 364.2 366.3 374.4 388.1 397.5 410.2 421.7 424.8 425.9 433 435.4 435.5 438.6 444.5 447.8 448.8 455.6 459.4 466.8 473.4 474.8 480.6 486.6 497.3 502.7 504.1 514.8 515.5 508.4 501.8 497.7 494.5 486.9 484.4 485.2 484.5 491.4 497.9 504 507 512.4 519.4 517 514.2 514.3 504.6 498.1 490.2 481.7 485.6 472.7 462.4 449.8 436.9 421.7 410.8 400.4 384.4 367.4 353.3 342.8 336.2 326.4 323.6 315.5 310.7 306.2 303.5 305.7 309 304.8 303.6 299.4 296.1 297.7 295 293.6 294.3 293.5 299.1 301.7 308.8 316.6 317.5 312.5 303.9 297.9 292.8 287.6 282.5 275.1 270.7 269.5 265.3 260.4 254.8 247.5 239.1 233.9 230.9 229.7 229.9 232.8 238.6 245.1 252.3 259.1 265.5 271.7 279.3 286.4 290.5 288 288.6 289.7 289.9 294.3 299.5 303.4 304.5 304.3 301.2 295.7 290.5 286.9 282.3 278.1 273.9 272.7 267.2 262.9 262.9 259 261.2 263 261.5 259.5 261.7 269.7 277.4 273.6 273.7 269.7 267.8 266.4 268.5 271.1 264.6 258.9 250.4 243.3 236.1 228.1 225.3 224.3 222.7 220.9 219.8 217.5 217.6 217.2 215.3 223.1 229.6 224.4 223 227.9 224.9 225.7 228.9 235.2 233.5 230.2 232 237.6 239.1 236.6 232.8 229.3
382.4 381.7 381.1 386.3 390.2 394 391.4 385.2 383.6 385.8 374.7 369.4 365.8 359.3 354.7 349.6 349.2 348.6 346.3 346.6 348.6 352.7 362.6 372 379.2 387.5 396.9 404.1 407 414.4 422.5 423.2 427.9 432.4 436.3 436.5 440.6 454.1 462 470.7 470.8 475.5 480.6 492.9 500.1 501.8 506.3 508.3 507.9 500.4 493.7 489 486.1 481 478.5 480.2 482.5 487.9 492.9 500.7 508.1 512.5 507.2 501.2 499 487.9 484.9 473.5 463.2 462 453.3 449.3 437.2 425.4 416.4 405.2 394 380.9 367.5 353.9 342.1 334.4 322.4 315.7 315.3 313.3 307 304.2 304.2 308.6 305.3 302.9 300 297 295.6 295.2 293.2 291.8 292.3 295.8 299.4 305.9 314.7 318.4 312 306.9 302.2 297.6 296.1 293.7 290.4 285.8 283.1 280.9 276.4 265.7 255.8 245.2 239.5 231.4 230.7 230.1 230.4 231.1 234.2 241.6 249.1 258.3 266.1 274.3 273.5 281.1 284.5 283.9 285.6 288 293.8 298.2 306.4 309.8 306.4 304.8 302.7 301.2 295.8 287.3 280.2 273.9 269.3 264.2 258.5 253.6 252.8 250.8 255.3 256.3 255.9 258.3 257.7 263.1 263.6 268.3 264 255.9 252.1 255.3 260.4 262.7 259.4 254.1 245.2 237.5 229 225.4 224.2 224.6 224.7 222.8 220.6 217.5 217.1 214.8 211.2 212.1 214.6 217.9 217.6 218.1 217.2 219.7 221 221.5 221 224.2 226.2 229.3 234.3 232.9 229.6 224.5
365.7 366.2 366.2 369.5 376.9 377.2 377.5 372.2 379.1 369.1 364.6 359.1 354.9 348.2 342.9 339.6 338.5 336.5 334.2 333.7 340.9 347.6 355.9 360.7 366.4 373.1 379.4 385.1 394.9 401.8 403 406.4 419.6 422.5 425.9 432.6 444.4 456.7 464.2 467.3 467.2 472.9 481.8 489.2 494.7 497.5 501.8 502.5 497.6 490.8 484.5 482.4 478 476.5 472.7 473.7 481 483.7 494.2 497.8 493.5 488.6 479.6 477.3 468.8 464.6 463.2 456.7 448.4 444.3 431.3 423.3 414.2 408.3 396 383.9 379.5 368.2 356.5 348.7 336.6 323.4 313.3 308.8 313.1 312.8 303.7 298.8 299.8 298.6 293.8 291.9 289.8 288.8 290.8 291.2 288 288.3 293.2 295.3 302.2 306.6 307.9 310.1 314.4 314.5 307.3 305.3 307.1 303.3 297.3 294.7 294.3 289 283.3 271.8 255.9 247.7 241.2 234.8 230.9 230.3 230.3 230.5 230.7 238.4 245.9 253.3 260 266.2 268.4 273.9 277.9 284 286.9 291.6 301.3 305.7 307.3 307.1 304.8 302.9 300.4 296.3 289.9 284.4 277.5 271.5 267.6 257.2 253.2 247.7 241.7 246.3 249.6 249.8 249.5 249.7 252.6 252.7 250.2 259.4 254.9 251.1 248 247.9 250.6 258.4 256.9 247.8 239 230.2 224.6 223.4 223.3 224.5 228.4 227.7 223 218.7 220.5 214.8 210 208.6 208.2 208.5 210.2 216.8 212.9 214 215.6 216.2 218.5 225.1 224.3 221.4 223.8 222.8 219.3 216.1
351.5 354.9 351.4 353.3 360.1 357.7 364.6 359.8 364.2 357.2 353.1 351 340.4 338.2 332.5 328.2 325.3 323.9 322.2 327.8 335.5 337.6 340.8 346.5 351.8 356.9 366.5 373.4 378.2 382.4 390.9 402.3 404.4 410.3 417 427.8 440 444.8 450.5 456.5 459.6 467.1 477.3 480 489.7 495 499.7 491.7 485.5 480.7 480.4 479.8 473 472 468.8 469.6 476.7 485.1 488.7 476.2 471 461.2 455.1 456.1 454.6 447.7 444.4 439.4 429.2 421.1 413.1 404.5 399.5 393.9 386 373.9 361.9 356.9 344.7 334.3 325.3 312.9 305.3 303.6 303.7 301.4 296.4 291.4 287.8 283.3 283.2 281.9 281.7 282.1 285.3 281.9 282.6 282.7 289.9 293.2 298.9 302.5 307.5 312.5 320.5 320.1 317.7 318.8 319.8 311.4 309.3 305.7 301.1 292.6 286.3 275.9 263.2 249.7 246.1 241.2 236.2 232 230.5 230.2 229.2 234.4 240.8 248.5 253.8 263.4 268.5 272.6 276.6 279.6 285.8 291.6 296.5 296.6 299 301.8 300.1 297.5 295.1 290.5 283.4 278.3 271.9 264.6 258.6 250 245.7 237.8 228.4 238.6 239.3 240.5 240.9 238.7 244.1 244 245.8 250.5 248.4 250.8 246.4 242.1 245 249 247.7 237.9 231.4 225.6 222.3 222 222.5 225.6 226.9 228.1 221.8 216.9 213.8 211.2 207.9 207.1 207.3 204.9 203.7 207.8 210.9 213.6 214.7 214.1 213.2 216.7 214.9 210.8 210.8 212.8 213.7 211.9
334.8 337.3 338.1 338.3 339.1 342.4 345.7 346.2 349.8 343.4 337.9 336.5 330.7 324.8 321.1 318.5 314.7 314.4 313.2 320.7 325.4 325.4 328.7 333.3 340.2 347.2 353.2 357.8 366.5 373.4 379.3 385 390.6 398.1 405.1 414.6 426.4 431 436.3 447 453.6 462.3 468 476.6 485.9 492.6 482 481.8 484 478.9 475.5 473.2 471.7 471.4 473.8 467.5 466 475.3 463.5 444.7 442.1 438.7 438.4 438.8 439 430.9 424.3 421.5 414 405.6 397.1 385.4 384.8 379.9 366.7 358.2 351.2 346 333.3 320.3 307.8 302.5 296.6 293.1 297.1 295.1 287.7 282.7 282.2 280.6 277 274.4 274.4 278.1 282 280.1 283.2 289.9 290.5 295 298.6 304.7 308.7 317.8 323.7 325.2 328.6 329.8 329.9 331.9 326.4 320.6 316.1 303.1 287.2 274.2 266.6 261.5 260.4 254.8 246.9 240.6 234.6 230.6 227.8 229.9 237.5 244.8 251.3 257.1 260.5 265.4 271.4 274.6 279.9 283.9 278.5 281.8 285.1 289.4 288.9 285.1 284.5 279.9 271.4 262.8 260.1 253.7 243.2 239 232.4 228.8 226.7 223.7 223.8 226.3 229.4 230.2 239.7 240.2 238.6 238.3 237.5 235.1 240.6 238.4 244.9 243.6 240.6 234.4 228.8 223.7 222.1 220.3 220.3 221.9 221.8 218.1 215.1 210.9 209.3 207.9 205.3 206.4 204.8 202.9 201.3 206.9 211.4 213.3 214.2 212.8 208 211.2 206.9 205.9 206.2 205.9 205.1 205
318.9 323.1 322.9 323.9 323.1 324.8 327 328 327.7 331.2 327.6 324.1 318.2 312.7 309.2 312.4 305.3 304.8 307.6 311.1 313.3 314.5 318.6 324.1 330.6 336.8 340.3 347.3 354.5 360.6 365.2 370.3 379.9 388.8 397.5 402.9 411.5 417.6 424.4 436.9 445.2 451.4 460.8 469.7 476.8 477.8 480.3 483.5 480 469.3 468.1 470.3 472.3 472.4 467.3 457.3 453.1 456.7 436.8 424.1 424.2 427.4 422.5 421.6 422.9 414.1 404.9 399.7 396.7 387.2 375.7 373.9 369.1 356 353.3 346.8 343.8 331.9 318.3 307.9 299.2 291.6 286.6 285.9 286.7 285.9 280.5 281.9 279.1 275.4 274.9 272 273.2 270.8 272.1 275.1 277.1 285.9 288.4 290.8 296.1 302.6 306.8 318.5 321.8 327.2 331.6 334.3 340.4 341.6 336.2 336.8 335.9 321.2 303.8 296.3 290.6 290.7 279 272.8 265.7 261.7 245 234.1 227.4 227.3 232.3 240.3 244.1 241.8 252.1 260.3 262.7 262.3 261.7 259.4 264.2 268.2 267.3 266.6 271.4 272.2 270 263.6 255.7 254.4 248.6 245.1 237.4 233 228 225.7 222.8 219.9 219.4 219.5 221.9 227 233.8 230.9 234.5 237 233.8 228.5 233.1 238.9 241.1 240.9 239.8 235.7 229.6 222.7 220.2 216.7 215 214.3 211.9 210 208.9 206.7 206.3 204.4 203.3 202.1 200.3 198.7 200.3 203.8 206.7 210.6 211.3 207.8 201.7 206.8 203 201.9 201.3 195.4 194.8 196.5
306.9 305.9 311.1 312.7 309.5 308.9 310.5 311.6 311.7 313.1 310.6 309.8 305.2 301.2 300.5 299.6 297.6 298.1 300.3 300.8 303.5 307.5 311.5 316.5 320.6 326.5 329.3 334.5 341.3 347.7 352.4 360.4 368.5 378.3 384.2 389.3 398.6 405.8 416.7 424.7 432 443.3 451.6 458.4 460.5 471.8 478.5 477.3 466.7 465.2 470.5 471.8 471 462.7 455.5 452.8 437.8 424.5 414.1 408.2 411.7 409.2 407.5 405.7 402.9 398.4 391.9 389.5 381.4 373 366.4 359.4 353.7 346.8 342.8 337.2 327 317 305.4 299.8 292.6 288 282.5 279.3 280.3 280.8 278.9 276.5 276.4 273.5 269.6 267.8 267.9 265.4 271.1 270.5 274.8 278.3 280.9 288.8 291.6 297.4 305 312.8 319.2 325.5 333.1 340.3 342.4 341.1 344.3 341.4 334.7 329.4 318.9 308 303.1 295.9 284.1 275.8 263.2 250.2 238.1 229.2 221.9 220.5 225.7 229.5 231.3 234.7 243.6 249.7 254 251.1 246.3 244.8 254.1 256.3 252.9 251.8 249.1 251.9 254.2 250 242.4 238.9 241.9 239.5 236.3 230.4 225.9 222.6 219.8 215.8 216.4 217.3 220.9 223.8 225.2 226.8 231.2 230.2 229.2 226.9 228.1 231.1 234.2 236.1 238.1 237.3 231.2 222.5 217.1 212.1 209.5 207.6 205 203.9 203.5 203.3 203.3 204.8 205.4 200.9 196.3 197 195.4 193.1 196.9 200.4 201.4 200.1 195.7 195.3 194.8 195.5 192.1 188 188.1 190.3
295.9 294.9 298 298.3 295.7 295.8 296.8 299.2 299.6 302.7 303.7 296.1 293.1 293.7 294.9 292.9 291.3 289.2 290.2 292.1 294.5 298.6 303.2 306.8 310.5 313.2 317.3 322.7 328.8 336.1 344.1 351.4 358 365.2 371.1 379.3 387.6 394.2 402 409.2 422.5 432.1 439.2 447 456 463.8 462.5 460.7 464.7 470.3 473.2 467.1 462.5 459.9 449.1 421.6 408.2 398.3 393 392.3 394.9 392.9 391.9 388.2 386.3 385.6 381.2 374.3 369.4 367.1 357.8 349.2 340.3 334 329.4 320 313.7 301.1 296.6 294.6 290.4 283.3 280.7 277.3 273.9 274.8 271.3 272.5 269 267.4 265.7 262.9 260.3 258.8 262.9 265.9 269 275.5 274.4 284.9 289.3 295.2 305.1 312.5 318.8 327 337.3 342.2 346.6 347.3 346.1 346.3 339.8 334.6 318.4 307.9 299.1 291.8 283.5 271.2 255.9 242.3 232.2 224.1 214.4 210.4 211.4 216.6 221.1 226 227.3 232.4 234.5 233.8 232 230 232.6 234.3 233.6 233 232.2 234.1 241.5 239.9 235 231.9 234.4 230.4 229.1 227.7 223.4 219.6 217.3 214.5 214.7 217.9 221.4 223.4 224.3 224.2 225.2 228.3 229.8 228.9 226.4 227.2 229.8 229.9 230.6 231.7 223.8 214.9 213.5 211.6 208.1 203.3 200.4 200.8 197.9 197.7 199.6 205.3 206.5 201.3 199.2 194.6 192.4 194.5 196 195.8 196 194.6 193 193.1 192.8 194.3 189.4 186.5 186.4 185.1
287.4 286.6 285.6 284.3 285.6 285 285.7 287.6 289.1 289.3 290.6 287.6 284.4 285.8 285.4 285.2 284.1 281.7 282.3 283.7 285.3 288.7 293.1 296.7 299.1 302.6 308.2 314.8 319.1 328.6 334.5 339.5 346.1 352.5 359.9 366.8 371.3 380.3 390.5 398.2 406.1 415.1 424.9 437.8 449.9 451.9 452.3 457.3 465.5 472.6 467.5 457.6 445.3 421.6 407.2 393.6 383.4 377.5 379.4 380.8 375.4 379.1 374.9 376.2 371.8 371.6 363.4 359.2 354.9 350.2 345.9 339.4 329 321.4 315.3 309.8 302 293.1 290.6 288.3 282.9 280.1 278 273.6 270.1 266.7 269.7 269.3 266.5 262 257.2 257 255.5 251.9 257.8 262.4 263 264.8 269.6 275.1 282.4 291.7 298.9 307 313.6 322.3 335.7 348 354.5 357.2 355.3 344.8 330.4 321.2 314.7 310.6 306.9 300.5 290.9 278.2 259.8 245.1 233.9 222.2 213 202.4 202.7 202.5 207.6 212.1 219 222.5 222.1 223.7 222.8 219.1 217.7 219.4 223.4 223.1 224.7 225.7 228.3 228.2 228.5 228.2 225.1 221 224.5 224.4 221.1 217.4 214.9 212 213.1 218.1 221.5 223.3 224.4 225 225.9 227.6 228.7 231.3 225.3 222.9 224.3 221.9 224.3 223 215.3 210.6 210.6 209 206.9 204.9 203 201.2 195.6 190.1 192 195.8 196.2 191.9 187.9 186.8 189.5 195.7 198.7 198.3 194.7 194.3 193.8 193.2 193.3 196.6 189.9 183.7 183.3 180.5
276.6 276.5 274.5 276.6 279.5 276 276.4 277.6 280 280.4 280.7 277.8 275.3 277.2 277.6 276 272.9 273.7 274.4 276.4 279.3 281.2 283.2 285.8 288.4 293.6 298.2 301.9 310 320.3 325.1 326.9 331.9 338.4 345.9 352.6 358.7 367.8 375 383.1 394.9 402.1 413.3 424.4 432.6 439.1 441.5 445.5 451 452.2 440.2 421.5 405.2 395.1 382 374.9 367.2 362.2 361.9 363.5 360.1 360.8 362.3 362.2 360.5 353.3 351.7 347.9 341.5 335.8 334.5 325.9 314.8 309.5 305 300.2 290.9 285.8 284.9 284.3 281.5 278.8 273.5 270.2 267.6 262.7 258.7 261.2 257.2 256 249.6 251.3 250.6 249.5 250.1 252.4 255.4 260.1 265 272 279.8 285.1 293.1 300.8 306.2 314.9 321.8 330.4 336.3 341 338.4 334.4 326.5 320.3 317.1 314.8 312 308.8 297.2 286.4 270.1 252.2 236.4 224 212.5 202.6 194.5 193.8 197.3 202.1 207 207.5 207.1 212.3 217.7 213.9 211 212.1 213.6 215.7 219.1 219.1 215.6 218.6 219.9 217.6 217.5 216.1 215.3 215.5 214.6 213.5 211.8 210.6 214.4 218.3 221.6 223.9 225.2 226.2 227.1 227.1 226.9 225.8 222 221.5 222.1 220.1 215.9 211.6 210.3 207.8 209.8 210.7 210.5 205.3 201 192.4 186.1 182.7 183.2 184.6 183.2 180.6 178.5 180.7 187.5 191.7 195.4 195.5 200.1 206.9 197 193.3 194.4 191.1 187 178.3 175.8 178.6
269.4 268.5 267.1 268.6 269.8 270.3 270.4 270.4 269.8 267 266.8 268.6 266 270.6 267.9 267.8 263.8 264.4 263.8 265.3 268.2 270.1 272.2 276.4 280.4 285.7 288.8 293.7 301.3 305.8 310.5 313.8 317.7 325.5 331.9 338.2 346 353.4 361 371.9 379.9 387.7 398.8 405.6 412.4 421.3 424.8 425.6 423.5 409.5 405.9 398.1 385 374.3 366.9 358 351.4 342.6 348.1 350.1 346.2 347.4 346.5 346.8 345.7 338.1 335.8 331.9 327.4 323.1 320.2 312.1 302.9 297.7 291.7 287.4 280.8 282.6 283.6 280.7 277.4 277 268.5 258.5 260.9 255.1 250.4 246.7 249 246 249.6 249.6 248.9 245.2 246.4 245.6 247.6 253.9 261.8 264.3 269.6 278.5 287.5 293.2 299.2 305.1 308.6 316.6 321.4 325.5 325.5 327.3 325.9 324 324.1 321.8 316.6 317.6 311.9 293.3 273.8 251.8 233.5 220.9 208.4 198.3 190.4 188.9 184.1 187.6 190.2 193.6 199.2 205.5 212.3 207.3 203 205.9 206.2 206.1 207.5 207.1 208.7 211.9 212.6 211.7 212.5 212.1 211.6 210.9 210.4 208.4 208.5 210.8 215 218.2 220.9 223.9 225.2 227.1 228.6 229 230.3 230.4 226.2 221.2 219.4 216.2 207.2 203 203.5 206.1 206.4 203.5 201.9 195.6 189.1 186.3 182.3 180 176.9 175.7 172.2 169.3 166.7 173.4 178.9 185.7 189.8 189.8 192.1 192.7 188.9 186.5 188.4 193.7 189.3 181.5 171.6 177.8
264.2 263.8 262.5 264.7 265 264.1 261.9 264 263.3 257.7 257.3 256.6 256.1 256 255.3 254.7 254.9 254.8 254.7 255.9 256.9 259.6 261.6 264.8 274.3 278.8 283.6 286.8 289.4 292.9 296.2 299.2 303.8 310.7 319.1 325.9 331.8 339.9 348.7 356.3 362.8 372.3 378.3 385.3 395.5 404.8 408.1 391.1 385.6 380.9 379.7 376.5 366.4 359.8 350.5 347.3 339.2 332.3 332.7 335 332.8 335.8 334.3 332.4 330.8 324.8 322.8 321.6 315.3 310.3 304.7 300.4 294.2 288.3 284.9 282.9 277.4 275.5 273.7 268.3 262.4 258.6 255.5 253.2 252.8 248 246.3 243.6 244.4 242.2 243.1 243.8 242.7 240.4 239.9 240.5 243.3 246.9 253 256.4 262.4 270.6 278.2 280.8 287.2 292.5 297.9 305.7 310.6 314.4 319 319.9 323.7 325.1 324.6 320 319.9 313.3 302 289.9 269.9 251.8 231.3 216.6 205.9 196.1 187.5 179.4 176.4 178.6 182.3 187.4 193.7 199.2 199.6 198.9 196.6 198.6 199.2 197.1 199 200.3 201.8 205.4 206 206.2 206.5 207.7 207.9 208.3 207.2 207.5 209.3 212.6 216.3 220.3 222.5 222.5 224.9 228.2 232.6 233.7 235.4 231 225.9 220.8 216.5 206.9 199.8 196 193.6 194.6 194.8 192.8 187.9 182.3 181 182.9 180.9 175.8 171.4 168.6 163.6 160.5 157.2 165.3 167.9 173 179.6 176.4 181.4 183.8 184.2 186.9 183.4 187.5 176.3 174.5 167.8 157.8
260.2 259.1 258.6 256.5 257.2 256.4 256.6 253.8 252.6 252.7 249.8 247.6 246.8 247.6 246.8 243.2 244.4 246 246.4 246 245.9 248.5 252.6 254.7 259.3 269.9 276.7 273.3 276.2 284.4 289.4 288.9 290.8 296.2 306.6 311.4 320 327.7 335.9 342 348.2 357.7 360.6 366.3 375.4 372.8 368.9 364.4 358.3 359.4 358.3 356.5 349.8 345.4 338.6 333.9 327.4 319.8 319 322 319.6 321.7 321.1 321 317.6 307.8 311.5 308.2 302.5 298.1 294.5 291.3 286.8 284.3 278.6 271.7 268.5 266.9 266.2 263.5 261.3 265.2 265.4 260.2 254.9 250.8 249.1 241.1 236.6 236.2 235.7 234.7 235.5 236.7 236.3 236.7 240.3 243.8 246.4 249.9 253.7 258.4 265.7 271.7 279.9 284.7 290.7 297.5 303.5 309.1 315.3 321.9 325.9 323.6 322.8 325.3 318.1 307.3 292.2 279.5 263.9 246.8 226.4 215.7 203.7 192.8 183.8 176.7 175.3 176.1 178.2 181.9 192.7 194.3 194.3 191 193.5 197 194.5 190.7 193.9 198.1 196.5 203.3 205.5 202.7 202.3 204 205.3 206.5 206.1 207.5 211.7 214.4 219.9 223.3 226.1 226.6 228.7 230.8 233 233.3 232.7 229.4 225.3 222.4 215.3 205.5 193.4 185.4 176.9 178 176.7 178.2 179 173.7 175 177.3 173.3 169.5 164.2 160.5 159.5 155.2 151.9 152.9 155.5 158 160.3 160.6 163.7 166.4 171.9 170.3 160.7 153.3 147.1 146.7 143.8 140.3
261.2 259.5 256.5 251.3 251.6 248.9 248 248 245.7 244.8 241.4 241.1 239.2 238.6 238.7 233.5 234.3 235.4 237.5 236.4 238.2 240.7 241.7 245 248.5 252.8 260.3 260.9 263.9 269.4 275.3 277.9 279.6 286.1 291.6 299.5 307.1 313.1 316.6 324.3 329.1 336.1 341.8 343.3 341.8 340.4 346.4 343.1 340.7 343.1 340.2 341.7 338.6 334.7 328.8 322 313.8 307.7 307.6 311.6 307.7 309.8 308.1 308.6 302.4 295.6 296.2 291.9 291 284.9 279.4 281.3 275.8 275.1 270 264.7 264.2 263.6 264.2 264.4 270.1 265.5 258.3 256.8 251.2 244.4 239.3 237.9 231.6 230.4 229.3 230.1 228.5 231 232.3 233.6 235.4 238.2 241.9 245.2 249.4 253.6 261.1 268.1 273 279.8 287.9 295.6 303.4 310.9 317.3 321.4 323.5 326.7 325.9 318.1 308.1 298.6 282.5 268.8 257.2 242.6 225.7 213 200.4 188.5 182.3 175.8 173.8 175 176 178.2 180.5 182.2 182.5 181.2 181.7 189.2 184.8 185.6 188.2 188.5 190.7 197.6 201.9 203.5 201.9 203.4 204.6 205.7 207.9 212.1 216.5 220.7 225.1 227.9 232.4 231.9 233.1 238.8 236.5 232.1 230.7 228.1 222.3 216.3 209.1 202 191.6 180.5 167.7 165.9 163.8 162.5 161.3 161.3 162.9 165.5 169 170.4 171 166.9 161.9 157.4 146.8 143.9 143 142.8 144.1 144.6 145 144.9 144.7 139.4 134.5 128.2 123.7 119.4 116 119.5
264.7 259.8 254.9 250.1 244.2 242.9 243.2 243 241.3 237.6 235.9 234.8 229.9 228.7 227.9 225.8 225.1 226.7 226.6 227.8 230.2 232.7 232.9 237.5 240.7 244.2 245.8 248.8 253.5 256.4 259.3 263.4 266.4 273.2 276.8 283.9 290.3 296 302 307.5 311.9 318 317.4 314.4 318.8 321.8 322.2 322 323.1 323.5 323.3 321.7 317.3 314.5 308.3 304.1 301.5 298.2 298.3 300.7 296.9 294.3 294.9 293.4 288.9 283.9 282.6 278.1 274.7 272.4 268.9 269.1 268.5 266.9 259.9 261.6 261.1 263.7 264.3 264 257.2 255 247.1 242.5 238.3 239 230.8 229.8 229.4 224.2 224.8 224.4 222.9 224.7 225.6 226 228.1 231.8 238.3 242.4 246.9 251.1 257.1 263.9 270.3 278.3 287.4 297 304.4 312.5 316.7 320.1 325.6 329.1 324.5 314.4 306 295 280.1 265.6 251.7 240.1 225.7 211.9 199.9 188.8 180 174.8 173.8 175.5 176.2 174.6 173.1 175.3 179.3 178.3 177.2 184.8 180 181.2 182.9 185.4 188.6 192.8 197.7 200.8 199.3 201.9 204.8 207.4 210.6 215.4 218.9 221.6 224.3 227.7 231.4 231.6 231 233.3 232.7 229.9 228.8 222.2 208.8 209.3 200.9 187.8 177.9 164.2 154.7 153.8 152.8 151.3 154.2 153.4 156 159.4 162.9 169.7 176.8 174.5 169.7 162.8 144.6 131.7 134.3 132.3 131.5 132.3 130.7 129.1 127.1 125.8 121 117.4 112.4 108.8 105.5 106.2
260.5 256.2 252.3 247.6 242.7 238.4 239 237.8 235.2 232 229.6 226.1 221.2 219.6 219.7 214.7 215.8 217.9 218.2 219.9 222.1 224.2 225.4 229 232.1 233.9 234.6 239 243.1 245.5 248.7 250.9 256.6 261.7 263.4 266.6 271 277.4 284.4 288.5 291.6 293.1 295.2 297 301 303.4 303.9 304.8 304.5 305.2 302.1 302.1 298.9 296.7 293 291 289.7 289.8 287.3 287.6 284.2 281.5 280.1 279.4 278.4 274.6 270.7 265.5 262.9 262.5 259.6 260.6 258.9 255.8 257.1 261.6 261.1 260.5 258.2 256.5 251.2 247.6 244.7 240 234 231.2 227.9 227.6 224.9 224.6 218.9 218.8 216.7 218.6 218.9 219.9 222.8 229.4 235.8 239.5 242.2 249.7 258.1 264.7 273.8 284.8 288.5 296 304.4 310.1 315.4 321.6 325.3 325.2 322.7 320.1 310.4 297.3 286.1 272.4 256.1 241.1 225.2 212 201.2 188.8 179.2 172.3 174.7 174.8 170.6 169.6 171.9 173.8 176.7 173.4 173.9 176.1 177.8 181.8 178.5 183.1 186 189.6 191.2 194.7 200.2 202.3 205.3 208.3 212.5 216.9 220.9 222.6 225.2 229.9 230.4 227.7 226.1 225.5 225.5 224.2 220.7 209.8 198.7 193.3 179.4 168 158.8 151.9 144.9 145.3 142.6 141.8 146.8 144.9 146.6 149.9 151.8 156.7 162.9 166.4 168.5 159 138.8 121.1 124.6 126.9 125.9 124.9 123.4 121.9 120.5 118.2 114.2 109.7 104.2 97.8 94.7 94.2
257.9 253.2 247.1 245.3 240.6 237.1 237.2 232.7 229.9 226.3 221.3 215.3 212.4 211.4 211.6 206.9 206.5 208.4 210.3 211.6 214.1 215.5 215 219.2 221.6 224 226.3 230.2 233.6 235.8 237.6 239.2 244.1 248.2 252.4 252.7 254.3 259.9 262.8 268.5 272.4 276.3 278.2 280.4 283.1 284.5 286 287.1 286.7 286.1 285.8 285.6 283.3 284.1 280.5 279.9 281.5 278.7 279.3 277.2 273 271 267.5 266.1 267 267.4 261.3 254.1 255.4 253.9 254.3 252.3 251.3 254.5 259.6 258.7 252.3 255 252.4 248.9 249.3 243.6 239.4 234.3 231 228.5 225.5 222 219.1 217.9 215.9 213.1 211.8 211.9 211.8 214.9 217.5 222.6 227.5 232.4 235.6 246.6 253.3 259.1 268.8 276.3 283.2 290.4 300.3 308.2 315.1 320.8 324.1 325.1 325.3 319 305.5 293.2 281.7 268.2 254.9 238.8 224.6 213.9 199.6 190.2 181 173.5 172.9 166.6 165.5 167.9 168.9 168.7 170.8 170.3 174.9 170.5 171.7 177.6 176.4 178.6 182.4 184.1 189.2 196.4 203.7 203 205.5 208.5 212.2 216.4 219.9 222.4 224.5 223.1 223.8 220.7 217.4 213.7 207.7 205.2 206.8 185.5 174 166.8 160.3 151.2 147.7 141.5 133.4 130.7 127 132 127.1 129.6 133.6 135 138.5 138.4 142.3 145.7 150.5 142.5 130.8 105.6 114.7 119.6 117.8 117.2 115.5 114.1 113 110.7 103.4 98.5 92.8 87.6 86.5 87.7
252.4 247.2 247.6 245.4 240.8 236.1 234.1 230.4 227.3 221.9 213.5 210.1 203.4 199.8 203.6 200.4 199 201 202.4 203.2 204 206.1 206 210.3 210.7 216.3 221.1 223.8 224.3 225.5 226.7 228.1 231.4 235.3 236.1 238.6 239.7 243.4 247.8 250.4 255 259.6 262.9 265.2 266.2 268.1 272 272.4 272.9 272.2 271.8 273 271.3 272.1 271.1 271.4 269 265.7 265.1 261.7 260.9 259.2 257.2 255.7 256.2 252 248.8 246.3 247 247.2 248 248.9 249.7 251.7 250.2 247.2 248 248.1 248.3 244.6 238.5 234.6 233.1 231.6 228.5 224.6 221.6 217 214.7 212 209.5 207.3 208.1 207.7 207.6 210 211.6 216.3 220.5 227.1 230.3 240.5 244.5 253.7 261.9 268.2 275.2 285 295 305.9 313.8 317.5 320 324.7 325.2 308.3 300.8 288.3 274.6 261.1 249.4 235.8 224 215 203.3 192.1 182.9 174.5 167.8 164.2 163 163.4 165.1 165 165.3 170.2 172.2 168.8 172.6 172.5 173 173.3 185.6 186.3 190 197.9 202.2 202.3 204.7 208.5 212.5 214.8 217.5 217.9 219 219.4 215 211.6 208.5 202.8 192.5 184.3 178.4 169.4 163.2 156.7 150.8 141.2 136.3 131.5 126.6 122.3 118.3 118.9 116.4 113.1 115.6 119.1 123.6 122 122.2 124.9 126.8 121.3 111.7 98.5 101 105.3 106.5 105.6 104.1 100.9 96.6 91.3 86.6 84.7 83.4 83.4 83.4 83.4
251.8 252.8 251 247.2 243.5 240.5 234.5 229.9 224.8 221 213.9 205.7 199 193.9 194 193.4 191 193.1 194 194.7 195.8 198.1 198.9 203.7 203.8 208.4 212.4 212.3 213.5 216.2 218.7 217.7 219.7 220.3 222.7 225 227 230.6 234.9 237.3 238.9 242.4 246 249 250.6 253.4 257.4 259.8 260.3 259.8 261.9 263.4 263.1 259.3 257.7 256 253.9 253.5 259.9 253.5 249.7 250 249.1 248.2 245.9 244.2 240.6 240.2 242.1 241.8 243.2 248 245.5 244.3 246.3 248.3 246 246.9 244.3 239.4 234.9 231.1 230 233.4 225.3 220.6 216.3 213.1 210.3 209.6 208 205.1 204.2 204.1 205.2 206.3 208.4 209.7 212.5 217.2 223.4 232.5 241.5 248.6 256.9 263 272.4 282 291.3 299.8 306.3 310.6 316.3 314.2 306.6 296.9 291.2 280.3 272.6 262.1 247.7 236.7 222.8 213.7 203 191.4 182.9 175.2 168.4 164.5 162.3 161.1 161.5 161.6 162.1 163 165.2 165.5 167.5 168.2 168.5 173.4 181.4 185.9 187.9 192.3 195.1 199.4 204.3 205.4 208.8 211 212.3 213 212.4 209 207.8 204.6 198 192.7 180.2 169.3 162.4 161.4 156.4 154.8 148.6 142.8 135.3 130.1 128 125.3 123.1 115.8 109.2 103.3 99.7 105.2 113.8 106.8 103.4 105 104.4 100.7 94.2 89.2 88.4 87.8 83.4 83.4 83.4 83.4 83.4 83.4 83.4 83.4 83.4 83.4 83.4 83.4
253.3 259.4 257.7 251.5 242.7 239.6 234.7 229.8 225.1 220.6 212.3 206.1 201 195.1 191.4 185.9 184.5 185.3 185.4 185.6 188.2 190.5 192.7 195.2 196 199.6 201.5 202.4 204.3 206.1 208.5 207.3 209.1 211.6 213.2 213.9 217.2 220.2 221.8 223.3 225.3 227.5 232 233.8 235.4 238.3 241.7 245.2 246.7 248 249.5 252.8 249.3 245.9 242.9 242.9 242.6 247.7 244.8 243.9 243.8 242.6 241.6 240.3 239.9 236.1 234.9 235.9 237.8 239.7 241 242.4 241.2 242.6 241.3 244.1 244.9 243.7 240.8 237.8 233.2 229.7 227.9 223.1 221 218.9 217.6 210.8 206.2 206.4 203.3 200.5 199.6 198.6 200.7 202.5 204.7 206 209 214.3 221.6 229.5 237.9 244.2 252.5 260.1 269.3 278.7 285 289.9 295.9 306.2 306.1 300.1 297.6 295.5 288.7 281.1 267.6 251.8 237.3 225.2 213 206.3 197.3 186.6 180.6 173.4 166.9 164.8 163.3 161.8 161.1 160.4 160.9 161.4 161.6 162.6 163.7 165.2 167.8 172.5 181.1 181.8 187.6 191.1 195.9 200.1 201.6 202 202.6 205 208.2 205.2 199.4 197.2 197.6 189.7 183.8 178.6 168.6 163.4 166.6 163.3 158.9 154.1 148.8 140.2 131.3 128.2 125.2 121.1 116.6 110 104.6 99.3 93.5 96.9 99.9 96 94.2 92.3 93.1 92.9 91.6 87.3 87 87.1 86.9 83.4 84.4 83.4 83.4 83.4 83.4 83.4 83.4 83.4 83.4 83.4
252.3 253.2 251.3 243.1 239.8 235.3 233.4 233.3 230.1 220.4 213.2 207.7 202.7 197.1 192.4 188.7 184 178.9 178 178.6 180.6 183.6 184.2 186.8 188.7 190.4 191.2 193.4 195.1 196.7 198.6 198.7 200.2 202.8 204.5 204.8 207.6 209.1 209.1 210.3 212.3 212.8 216 219.3 220.6 222.1 225.2 229.5 232.9 234.5 232.2 233.5 233.4 231.6 233 232.9 231.4 234.1 235.2 234.5 237.4 236 234.1 234.4 234.1 232 230.4 232.1 234.9 237.5 235.5 235 233.5 236.7 239.7 242.6 242.8 239.7 236.6 232.5 227.7 223.7 221.1 218.3 214.2 208 203.7 203.3 202.5 202.1 200.5 196.7 195.4 195.7 197.2 200.9 202.8 206.2 209.5 210.1 216.3 224 232 244.3 249 258.3 264.7 267.4 273 280.3 283.2 287.2 285.6 287.6 291.2 290.8 285.3 265.6 252.1 239.7 227.1 215.5 206.8 200.8 193.7 185.8 178.1 171.1 165.9 164.8 164 163 161.9 160.9 160.6 160.6 160.9 161.3 162 164.5 168 172 181 181.6 183.6 189.6 200.3 202.4 198.5 197.3 207.7 208.5 205.1 196.6 185.1 182.9 181.9 181.4 177.2 176.1 168.2 159.5 159.1 159.1 152.6 145.7 137.7 132.8 129 125.5 121.9 117.6 112.6 106.9 100.9 95.8 91.8 86.3 88.8 88.1 84.4 83.4 83.4 83.4 83.4 83.4 84.8 85.3 84.9 88.4 85.9 83.4 83.4 83.4 83.4 83.4 83.4 83.4 83.4 83.4
252.1 253.6 247.6 238.8 237.7 235.9 237.9 237.9 230 221.5 213.9 209.2 206.1 202 198 191.1 185.5 177.9 174.5 172.4 172.4 175 176 178.9 181.4 180.4 181.1 183.2 184.6 185.5 189.7 191.6 192.8 194.5 194.3 194.1 196.6 197.5 198.2 199.2 200.5 201.9 204.4 205.8 207.6 209.5 211.6 215.2 216.4 217 218 218 221.2 221.3 226.6 222.1 221.2 225.9 225.8 227.7 227.7 229.4 231 228.6 229.3 229.2 229.1 226.9 229.6 229 232 229.2 236 233.9 233.6 235.2 231.2 227.9 223.5 221.9 219.5 219.7 217.1 212.5 209.4 204.8 202.2 199.8 197 198.4 197.1 194.5 194.2 195.7 198 199 200.6 203.2 203.5 208.3 217 222.6 227.5 237.7 242.2 245.3 249.3 255.6 262.6 267.2 267.4 268.8 273 274.8 274.6 272.5 264.7 248.9 237.8 226.3 215.7 207.2 200.5 194.8 190.5 183.4 176.2 169.5 165.8 165.1 164.1 162.9 161.8 161 160.7 160.6 160.4 160.9 161.3 163 165.3 168.5 173.6 176.4 181.6 190 200.6 192.3 192.7 193.7 202.3 199.7 191.9 186.7 179.3 177 177.5 172.4 168.8 170.8 164.8 155.5 149.5 147.4 145.7 138.2 133.7 130.3 126.7 122.4 120.7 114.9 109.7 103.9 97.6 92.7 89.6 83.4 83.4 83.4 83.4 83.4 83.4 83.4 83.4 83.4 83.4 83.4 83.4 86.5 84.2 83.4 83.4 83.4 83.4 83.4 83.4 83.4 83.4 83.4
245.7 246.3 242 236.3 234.8 234.7 237 236.8 227.2 221.5 215.3 214.8 207.5 202.7 198.3 192 185.1 177.7 171.6 168.6 168.1 168.9 169 170.5 170.6 170.5 170.6 172.5 173.3 174.1 179.4 180.4 183.3 184.8 185.6 184.5 184.8 187.6 187.7 188.6 189.1 190.9 191.9 193.5 195.8 197.5 198.3 201 203.5 204.2 206 208.2 209.4 209.7 214.9 212.3 211 215.8 217.6 219.1 220 224.4 224.9 225.5 228.3 227.8 228 225.4 223.9 223.4 226.9 226.7 225.9 223.6 221 224.4 219.6 216.5 215.8 214 213.8 214.7 213.1 209.2 204.8 200.3 198.4 196.6 195.7 193.7 193.6 192.9 194.6 194.5 195.8 196.8 197.5 208.6 210.4 207.2 211.1 215.2 220.8 230.9 228.5 230.8 235.3 239.7 244.7 245.3 250.3 253.8 252.4 253.9 248 245.6 242 231.8 223.6 214 205.5 199.1 192.3 188.7 187 180.7 174.2 169.8 165.9 165.5 163.8 162.7 161.6 160.2 160.7 160.6 160.4 160.8 161.2 161.6 162.2 163.1 162.3 164.9 172.1 178.7 180.6 181.6 184.5 189.5 192.4 197.1 189 177.3 169.7 170.7 168.9 163.9 158.4 158.8 154.7 148.7 143.1 142.3 141 135.7 130.9 127.3 122.6 119.5 116.3 110.2 105.1 99.3 93.8 89.1 84.4 83.4 83.4 83.4 83.4 83.4 83.4 83.4 83.4 83.4 83.4 83.4 83.4 83.4 83.4 83.4 83.4 83.4 83.4 83.4 83.4 83.4 83.5 88.2
236.2 239.3 237.8 235.9 234.4 234.2 232.6 231.5 229.2 225.4 222 218.4 210 201 195.3 189.9 182.4 176.3 174.3 172.4 168 164.1 163.9 162 160.3 159 158.8 160.9 163.4 165.5 166.5 168.4 172.1 173.3 174.4 174.3 176 177.1 178.3 178.5 179 180.8 182.1 183.5 184.3 185.3 185.6 188.3 191 191.7 195 196.5 197.2 198 200.7 203.5 205.3 206.1 205.8 209.1 213.2 216.2 219.1 225.1 226.1 227.5 228.4 224.4 219.3 224.4 218.2 217.8 216.6 214.7 212.9 209.7 208.7 207.4 208.2 208.2 207.3 206.1 205.1 203.4 200.2 198.3 195.1 195.1 194.2 194.4 193.5 193.2 193.2 192.5 196 197.7 198.8 203.3 203.2 211.2 212.5 216.2 216.8 215 217.6 221.3 226.1 230.7 230.9 231.7 234.4 233.6 228.6 228.6 224.8 221.7 222 218.5 210.8 207.6 200 192.7 189.3 187 184.4 180.9 176.2 171.8 167.8 165.9 164 162.5 161.1 159.8 159.8 159.8 160.5 160.4 160.7 161.1 160.9 161.3 159.3 161.2 157.9 163.4 173.5 177.1 185.9 186.6 181.6 182.5 170.9 166.5 164.6 160.9 154.8 152.3 153.7 145.2 142.7 138 137.8 139.4 137.8 132.7 128.1 125 123.4 115.8 108.4 106.5 102.4 96.4 90.4 86.7 83.4 83.4 83.4 83.4 83.4 83.4 83.4 83.4 83.4 83.4 83.4 83.4 83.4 83.4 83.4 83.4 83.4 84.6 88.3 92.9 97.8 101.2 100.9 102.1
231.3 233.9 236.9 238.3 234.6 229.7 231.9 232.1 230.7 225.5 219.8 213.8 205.3 198.2 195.6 194 187.7 183.2 179.4 174.1 166.9 163.6 158.5 155.1 151 149.1 147.4 149.3 153 154.6 156.2 157.6 158.4 160.4 162.7 161.8 163.7 164.5 167.7 168.1 169.9 171.1 171.2 173.5 175.1 173.9 174.9 176.2 182 180.7 185 187.5 191.1 189.6 190.5 192.5 193.6 196 197.1 201.2 203.4 209 211.1 215.9 217.4 215.6 211.3 209.4 208.4 207.7 207.4 210.7 208.8 206.9 204.6 201.8 204 202.4 202.6 200.8 202.7 202.4 202.8 201.2 199.3 198.9 198.7 196.6 195.1 195.5 195.2 193.2 192.5 191.7 196.5 198.2 199.6 200.7 202.3 211.2 216.1 213.4 211.1 208.9 208.4 211.9 214.2 215.5 217.7 217.3 218.2 212.1 210.3 211.8 209.3 206.4 207.5 203.3 197.8 193.6 191.1 187.2 187.2 184.9 183.8 180.5 175.9 170.8 167.4 164.3 164.1 161.3 159.8 159.8 159.8 159.8 159.8 159.8 160.9 160.6 160.3 160 159.5 163.9 167.4 165.4 159.7 153.8 181.5 178 173.7 165.6 162.2 158.2 152.8 147.1 144.5 146 137.3 132.4 131.3 130.1 130.2 133 131.6 126.6 122.2 119.8 117.9 113.7 105.7 103.1 97.4 93.5 89.1 84 83.4 83.4 83.4 83.4 83.4 83.4 83.4 83.4 83.4 83.4 83.4 83.4 83.4 87 83.7 87.2 89.5 90.5 93.1 105.3 112.4 112.8 111.3 110.7
224.1 228.4 231.1 230.1 229 231.2 232.1 235 229.3 220.9 212.7 210.8 212.2 216.6 216 210.9 196.6 185.5 180.7 173.6 165.5 158.6 154.8 149.3 145.3 143.1 141.7 141 145.7 141.9 143.8 144.5 145.7 148.3 149.8 151.8 152.9 152.7 153.7 156.7 157.6 159.9 160.4 162.7 163 162.4 164.4 165.7 170.1 172.4 176.3 179.7 182.4 184.3 185.6 187.4 183.9 186.3 191.2 196.9 198.6 203.6 205.2 205.4 204.3 203.7 204.9 201.8 201.2 202.4 207.3 206.4 203.8 200.5 199.1 198 199 198.8 197.5 197.7 197 200.5 200.4 200.6 204.7 201.1 199.5 196.3 195.1 195.3 193.9 191.9 191.1 191.6 197 199.8 199.9 198.1 206.6 213.5 215 212.7 209.8 206.9 204.2 203.3 203.1 202.4 201.5 199.6 198.1 197.7 196.7 198.7 198.7 196.1 198.1 197.9 196 191.4 187.5 184.6 182.5 179.5 181.5 175.4 170.6 167.4 161.9 161.6 161.2 160.3 159.8 159.8 159.8 159.8 161.5 161.3 163.9 164 164.4 165.7 165.9 174.3 180.1 182.5 178.9 167.4 152.3 156.6 152 148.3 150.5 145.3 135.9 132.6 134.9 133.4 129 126.6 124.1 122 121.5 123.6 123.8 120.4 117.1 114 111.1 108.2 103.2 98.2 94.8 91.7 88.8 85.1 83.4 83.4 83.4 83.4 83.4 83.4 83.4 83.4 83.4 83.4 83.4 88.1 89.5 90.9 93.3 95.8 96.7 96.2 98.4 107.3 111.5 112 112.3 111.8
213.5 218.4 223.2 224.4 229.2 231.8 229.1 228.3 222.5 216.1 215.2 217.7 218.6 222.9 219.6 209.8 195.7 184 178.4 166 160.5 154.9 149.1 147 141.2 139.7 138.2 135.9 133.7 134 135.3 136.6 136.1 137.9 137.3 140.1 142.3 140.6 146.5 143.4 146.4 148.5 150 152.4 152.1 153.3 155 156.7 158 160.7 165.6 168 169.3 170.5 173.4 173.5 172.4 177.9 182.6 186.5 191 194.7 195 196.3 196 195.4 195.2 195.8 195.1 200 200.8 197.8 194.8 194.6 195.4 195.9 196.1 196.3 192.7 196 197.5 198.9 199.6 202.3 204.5 199.1 195.3 196.2 194.4 193.8 191.5 190.8 188.9 188.5 194.4 201.8 196.4 203.1 210.4 216.3 215.5 211.4 207.2 204.9 201 199.3 197.3 196.2 195.3 193.7 190.9 187.7 184.9 186.6 187.8 189.9 193 195.5 194.7 190.4 187 184.3 180.1 175.3 173.8 175.3 173.9 171.3 168.1 166.5 164.1 161.1 159.8 159.8 161.7 163.7 168 165.7 169.9 172.4 173 169.5 176.4 187 186.2 180.4 174.8 159.8 142.8 146.8 144.8 139.4 135.3 134.2 128.6 122.4 125.3 124.4 121.3 117.9 116.2 113.8 111.7 111.9 114.5 115.7 112.2 108.9 110 105.7 100.3 95.6 93.2 89.6 87.9 83.4 83.4 83.4 83.4 83.4 83.4 83.4 83.4 83.4 83.4 83.4 83.6 90.3 92.9 95.5 98.4 99.6 102.2 102.2 101.9 104.2 108.2 110.9 112.3 111.8
206.5 212.7 217.1 221.6 226.5 222.6 222.7 218.9 218.9 220.3 221.3 216 219.3 220.8 210.5 199.7 187.1 177.9 169.1 164.8 160.3 151.7 146 141.6 139.6 137.4 135.8 132.9 130.5 128.9 126 126.2 126.1 126.8 126.9 129.8 132 135.1 135.6 133.3 136.8 139.1 140.8 144.1 143.8 144.9 146.2 148.1 146.9 149.7 154.2 156.8 157.4 157.9 159.5 161 162.4 168 174.4 178.7 185.7 188.8 191.7 193.5 193.1 190.4 189.3 192.3 190.5 188.1 188.6 186.4 188.5 190.2 193.7 193.2 190.9 188 192.2 198.1 200.4 198.3 198.3 203.7 201.3 195.2 191 191.1 188.7 188.7 189.1 188.3 189.8 191 194.5 196.5 197.9 200.2 203.2 210.1 209.1 207.2 205.2 203.3 202.5 199.1 195.1 194.2 192.7 190.4 187.5 184.9 182 182.1 182.5 185.3 189.2 192.7 191.8 186 183.1 180.7 177.7 174.5 173.7 174.2 175 174.5 172.4 168.2 164.8 160.8 161.7 165.6 165.2 167.2 169.4 174.1 179.7 180 172.9 174.5 181.7 186 186.7 181.7 166.6 148.7 137.9 131.7 135.2 132.3 129.6 125.7 121 118.5 116.6 115.6 112.4 108.2 106.8 105 103.7 103 106.2 109 106.8 103.7 104.7 100.7 97.1 92.3 88.5 86.4 83.4 83.4 83.4 83.4 83.4 83.4 83.4 83.4 83.4 83.4 83.4 83.4 87.1 92 94.6 96.2 99.2 102.1 107 108 107.1 106.9 110.3 112.6 112.4 111.3
201.4 205.2 211.4 214.2 213.9 212.1 213.3 215.7 220.3 213.7 212.5 215.3 215.4 210.9 202.9 189.6 177.2 170.9 164.3 160 153.1 147 144 140.3 138.9 135.2 134 131.1 127.1 123.6 120.6 119.7 118.8 119 119.5 120.8 123.4 124.8 126.6 127.2 128.6 130.2 133.9 133.8 135 136.4 136.4 134.9 137 138.5 142.1 143.5 142 146.1 148.1 151.6 155.6 159.4 166.1 174.3 182.7 189.2 188.8 187.6 186.9 186.2 183.6 191 184.8 180 175.7 179.7 183 188 188 185.3 186.4 189.7 194.6 198.4 200.4 197.4 195.4 197.8 193.1 190 186.2 184.4 182.4 184.8 191 191 191.1 195.3 197.5 198.6 201.1 201.2 202.3 204.4 206.9 206.4 206 204.1 202.5 200 197.8 193.5 191.1 190.3 185.5 183.3 180.8 180.3 178.2 179.5 180.7 185 184.3 181.2 179.2 177.5 175.2 173.2 171.9 171.2 171.2 173.4 173.4 172.4 165.6 165.2 168 170 167.7 168.5 174.7 172.9 175 174.1 177.2 177.5 180.2 183.7 181.5 169.8 150.7 136.2 129.8 126.2 122.8 121.6 121.3 119.2 115.8 114.2 110.3 108.5 106.5 104.4 103.5 100.4 97.1 95.8 97.8 101.3 99.1 97.3 94 91.4 89.9 88.1 85.3 83.4 83.4 83.4 83.4 83.4 83.4 83.4 83.4 83.4 83.4 83.4 83.4 85.8 88.5 91.1 93.8 95.9 100 106 112 112.6 113.4 113 113.7 114.3 113.2 110.9
196.7 202 207 205.7 203.8 206.1 208.8 209.1 207.4 206.4 210 203.7 203.5 200.1 192.7 188.7 177.3 168.8 164.4 159.4 152.3 149 144.5 140.4 138.1 133.6 133 128.3 125.1 121.6 118.5 114.1 115 115 115.5 114.9 116 117.6 120.8 120.5 123 123 125.6 125.1 125.8 126 125.4 124.4 125.2 128.3 128.6 134.8 132.5 133.5 136.4 139 143.6 149 155.5 167.4 176.1 181.1 184.7 184.8 182.2 181.8 182.1 177.8 172.8 178 174.6 171.7 179.5 180.6 180.9 184.3 187.3 188.6 191.8 195.4 192.8 190.5 190 188.5 186.6 184.3 182.9 182.1 182 184.9 189.1 191.9 198.9 201.7 204 203.3 203.5 203.8 208.3 208.8 209.3 208.6 209.6 210.2 209.1 202.2 199.6 193.1 190.8 188.6 184.9 182.3 180.3 177.9 174.4 171.2 171.6 173.5 176.5 178 175.6 173.3 172 170.6 169.1 168.6 170.4 173.4 172.4 169.8 168.7 170.3 171.2 170 168.2 167.4 170 169.8 176 181.6 178.4 176.6 174.9 171.5 161.7 151.7 130.2 127.3 118.7 116.9 111.9 112.8 114.6 114.8 111.9 108.1 106.2 104.6 103.3 102.1 100 97.7 97.5 95.8 95.7 93.7 92.1 91.3 90.8 89.1 86.7 84.7 83.4 83.4 83.4 83.4 83.4 83.4 83.4 83.4 83.4 83.4 83.4 84.5 87.9 90.2 91.5 91.8 96 98.7 103.3 108.4 113.3 114.1 115.2 115.9 116 115.4 114 111.7
194.7 197.8 201.1 201.9 200.1 199.9 198.7 198 195 197.8 195.4 196.7 195.8 192.2 190.1 183.4 176.8 171.2 162.9 155.9 152.8 147.5 144.6 140.5 135.9 134.2 129.6 127.5 124.5 120.1 116.6 111.9 111.8 110.6 111.1 110.3 110.6 111.4 114.2 115 117.9 117.6 118.8 119.3 119 117.7 117.3 116.9 117.7 118.8 119.7 119.2 121.4 122.3 126.2 125.3 128.7 139.1 144.6 155.5 162.1 165.8 173.4 173.3 166.3 167.1 167.5 163 163.4 164.5 163.1 166.3 173.2 177.7 177.7 182.1 184 183.9 186.3 190 186.6 184.5 183.8 184.2 181.4 181.1 180.2 180.3 186.7 188.5 191 195 200 203.3 204.6 206.3 207.9 209.4 212.5 217.1 216.5 216.4 213 209.4 207.4 201.6 195.4 191 188.9 185.8 181.5 178.5 175.6 174 170.6 166.5 166.6 167.6 168.6 174.5 171.7 169.9 168.4 167.6 168.6 168.8 170.6 171.7 172.3 171.6 171.6 171.7 171.5 169.7 166 165.5 167 170.4 173 172.5 167.6 162.4 156.6 148.8 139.7 132.6 120.2 120.9 112 110.2 106.7 106.9 108.6 108.9 105.3 103.1 102.7 101.7 100.3 99.2 96.3 92.3 92.8 94.9 96 94.4 93.9 89.9 88.2 87 85.7 83.4 83.4 83.4 83.4 83.4 83.4 83.4 83.4 83.4 83.4 83.4 83.4 87.5 88.8 89.9 91.6 92.7 97.3 99.1 105.5 113.3 114.3 117.5 118.8 117.8 115.9 114.8 114.1 112.2
198.1 200.6 196.7 197.7 197.6 192.9 187.7 187.1 187.8 190.7 186.5 185.5 187.9 187.9 186.2 181.9 177.7 168.2 162.8 158 156.4 150.9 145.9 139.6 135.5 132.7 128.9 127.2 122.4 117.7 114.7 111 110.1 108.6 107.2 106.6 107.2 107.5 108.1 110.7 112 113 115.1 114.8 112.9 112 111.2 111.6 111.5 112.3 110.7 111.1 110.9 111 110.4 110.7 116 127.3 133 142.4 150 151.1 153.2 157.6 151.1 151.3 153.7 155.3 157.3 156.6 158.6 164.3 168.2 171.7 175.3 176.2 178 179.5 182.9 184.2 181.7 180.2 178.6 179 181.3 181.2 181.7 185.7 188.9 191.6 193.4 195.4 196.3 200.3 205.8 207.9 210 213.4 217.7 216.4 213.3 212.8 208.6 203.3 198.9 194.7 189.4 186 183.8 180.6 178.1 175.7 172.7 169.9 167.3 164.4 163.9 164.3 164.9 167 165.7 164.3 167.5 174.1 174.3 169.1 169.7 170.6 171.1 173.1 171 168.5 166.8 165.6 165.8 166 166.8 168 166.4 161.2 154.4 142.1 136.7 130.6 122.5 112.6 112.1 113.1 111.4 103.5 100.9 102.2 102.8 104.4 101.2 100.5 100.2 98.9 96 93.5 88.9 87.2 87.2 89.4 90.7 91.2 90.9 91.5 88.5 87.1 84.3 83.4 83.4 83.4 83.4 83.4 83.4 83.4 83.4 83.4 83.4 83.4 83.4 83.4 87.2 89 91.2 93.2 93.7 97.1 107 111.7 112.7 118.9 120.6 115.1 110.9 111 110.8 106.9
194 191.7 189.4 188.7 184.9 179.3 179.3 182.6 178.4 176.4 178.2 181.4 184 183.4 177.4 177.3 172.4 166.7 164.7 159.6 152.2 147.4 143.1 140.8 139.1 135.3 130.5 126.7 122.2 117.8 114.7 112.4 108.9 108.1 105.7 104.9 104 104.2 106.2 106.8 106.8 109.7 110.6 110.9 109.4 109.2 107.9 105.8 105.8 106.3 101.8 101.8 101.1 102 104.1 105.4 110 118.4 123.9 130 136.7 140.6 141.6 141.9 141.7 144.2 150.6 154.1 153.6 151.6 154.8 158.3 164.4 167.4 170.9 172.7 176.5 179.5 181.8 181.4 177.6 173.7 178.5 179.6 180.4 183 184 185.8 187.8 188.5 190.1 195.3 198.6 203.9 210.1 210.4 216.4 214.7 210.4 208.2 203.5 203.4 199.6 196.1 191.5 187.7 183.2 181.2 178.4 176.2 174.2 171.1 169.5 166.7 164.2 162.6 161.9 161.7 162 163.2 161.1 164.4 167.5 172.7 171.4 166.9 166 169.3 168.5 168.5 166.8 164 162.1 164 165.2 164.2 159.4 151.4 146.7 142.3 134.7 127.3 123.7 116.9 109.2 102.9 104.4 105.7 103.7 99.8 96.4 97.2 100.3 100.1 99 97.3 95.2 93.3 91.1 88.7 86 83.4 83.4 86.5 88.2 87 86.5 88 89 86.9 83.4 83.4 83.4 83.4 83.4 83.4 83.4 83.4 83.4 83.4 83.4 83.4 83.4 83.4 83.4 87.4 90.9 91.8 92 95 103.5 110 109.8 108.9 109.2 107.1 104.9 105.7 105.4 106.2
179.2 178.9 175.6 171.2 171.5 172.9 173.6 173.2 172.6 173.9 173.7 175.9 174.9 174.8 175.4 175.7 166.8 157.8 155.5 154.5 145.3 143.2 141.3 140 134.8 130.2 128.5 125.5 122.7 119.6 115.4 112.2 110.6 106 104.9 103.9 102.9 103.3 104.5 104.9 105.6 109.4 109.6 110 108.3 103.7 102.4 100.8 102.1 97.7 95.3 95.3 95.3 99.9 106.3 107.6 108.2 112.8 115.9 118.6 124.9 130.5 132.4 134.9 139.2 145.7 149.4 146.5 148 149.9 150.5 152.2 156.6 162.6 166.6 170 171.8 174.9 172 170.2 171.9 174.1 175.6 179 181.1 182.4 186.4 187.5 186.7 188.2 192.2 197.3 200.9 208.1 212.9 214.5 212.5 209.8 206.3 203.3 198.1 196.2 193.9 191.9 187.8 184.2 182 178.6 176.4 173.7 170.7 167.9 166.2 163.4 161.4 160.9 159.9 159.8 160.3 161.3 160 162.5 163.2 163.4 162.3 164.1 165.7 167.6 167.1 166.8 165.7 164.1 160.8 158.3 156 150.4 143.9 136.9 130.7 128.6 122.1 118.4 113 106 100.7 98 97.9 97.7 95 93.8 92.6 94.6 97.1 96.7 94.8 91.8 91.2 92.2 89.2 86.6 83.4 83.4 83.4 83.4 83.4 83.4 83.4 83.4 83.4 83.4 83.4 83.4 83.4 83.4 83.4 83.4 83.4 83.4 83.4 83.4 83.4 83.4 83.4 83.4 83.4 85 90.1 91.5 90.8 93.6 101.3 108.2 107.5 102.8 100.5 99.3 99.5 102.5 103.2 102.6
162 160.9 158.7 160.2 162.6 163 165.1 164.4 163.1 164.6 167.9 169.3 167.5 173.4 172.8 166.1 154.9 149.2 145.6 143.2 141.3 140.2 137.5 133.9 128.6 123.8 124 121.5 120.5 116.7 112.9 110.8 108.8 106 103.5 103.5 102.8 101.9 104 105 106.2 108.3 109.5 109.4 104.8 99.9 95.3 95.3 103.9 95.3 95.3 95.3 95.3 100.5 112.7 108.2 105.5 109.8 111.7 113.8 117.3 122 124.5 127.2 133 140.4 140.2 140.3 142 143.7 144.6 146.5 152.6 160.4 163.7 165.8 169.1 168.1 166.4 170.5 170.6 172.1 178.6 181.2 181.1 184.1 186.9 187.8 186.3 188.9 191.3 199.2 203 208 212.2 211 210.6 203.3 199.8 198.2 191.8 191.6 187.1 188.3 186.6 183.4 180.8 178 175.2 170.7 167.9 166.2 162.8 161.3 160.3 160 159.6 159.2 160 159 159 160.7 161.3 162.1 162.9 164.3 163.7 164 164 164 161 157.1 153.8 149.6 143.4 136.6 129.7 123.9 121.6 118.3 113.4 108 104.5 99.8 96.5 93.8 92.7 91.9 91 90.4 90.1 90.9 90.6 91 89.5 88.4 90.5 89.7 85.9 83.4 83.4 83.4 83.4 83.4 83.4 83.4 83.4 83.4 83.4 83.4 83.4 83.4 83.4 83.4 83.4 83.4 83.4 83.4 83.4 83.4 83.4 83.4 83.4 83.4 83.4 83.5 93.8 94.6 90.9 91.4 95.1 101.7 99.7 99.4 99.2 99.5 100.2 102.1 103.2 103.4
147.2 146.9 147.1 147.8 148.5 152.8 152.9 153.7 156.3 155.3 158.9 159.3 162.6 167.8 163.9 152.2 142.8 141.7 141.3 137.1 136.5 133.6 129.9 125.1 123.6 119.4 117.2 115.6 114.5 111.1 109.4 108.7 107.4 105.6 103.2 102.2 102.2 101.4 103.4 104.2 106.4 111.3 110 101.8 95.3 95.3 95.3 95.3 95.3 95.3 95.3 95.3 95.3 95.3 101.9 100.6 101.2 103.2 104.9 109.2 112.5 115.7 117.5 119.5 126.9 133.4 134 135.7 138.1 137.2 142 146.6 150.5 156.4 161.3 167.5 170.5 166.1 165.6 167.6 169.6 172 176.2 176.6 178.6 183 183.1 183 185.6 188.3 191.6 197.5 202.2 207.7 209.5 204.7 201.8 198.4 194.7 190.9 186.3 183.4 180.6 181 179.9 177.8 176.7 173.8 169.8 166.1 163.8 162.3 161 160.4 160.1 159.7 159.3 158.3 157.7 156.3 156.9 159.2 160.6 160.9 161.3 162.8 161.7 160.3 157.6 154.2 151.3 148.4 143.4 140.3 132.5 127.5 121.6 114.8 112.1 109.4 103.4 99.9 98.3 95.8 93.3 89.9 88.6 88.1 87.7 87.7 88.1 87.3 87.1 86.6 86.8 86.2 87.7 86.5 83.4 83.4 83.4 83.4 83.4 83.4 83.4 83.4 83.4 83.4 83.4 83.4 83.4 83.4 83.4 83.4 83.4 83.4 83.4 83.4 83.4 83.4 83.4 84 83.9 84 86 83.8 91.9 94.9 96.3 91.2 90.7 93.9 96.9 98.6 99.3 100.1 101.4 106.9 107 103
141.3 141.5 141.2 138.7 137.1 136.9 136.4 137.5 142.2 148.1 148.9 151.1 152.4 151.6 146.7 132.8 132.1 130.9 132.3 129.4 126.9 123.9 119.1 115.8 116.6 113.6 111.9 110.8 109.6 108.6 106.8 106.4 105.6 103.7 102 100.9 101.1 101.7 103.6 104.8 104.7 104.9 98.7 95.3 95.3 95.3 95.3 95.3 95.3 95.3 95.3 95.3 95.3 95.3 95.3 95.3 95.3 95.3 95.3 102.2 107.9 110.2 110.2 115.9 120.5 125.9 129.7 132.4 134.3 133.5 139.3 145.9 149.6 152.8 158.6 164.8 166.8 159.7 158.3 162.8 168.4 168.8 171.7 172.9 178 179.5 180.9 181.5 182.9 186.6 188.5 192.4 197.1 201.3 200.8 198.4 195.4 193.1 190.3 187.6 184.1 181.6 178.6 176.6 175.9 173.2 171.9 169.8 166.5 164.2 162.1 160.7 161 160.6 160 159.7 158.9 158.1 154.3 153 154.4 157.6 160 160 159.5 160.1 158.6 155.9 153.8 149.8 145.3 142.4 137.3 132.7 126.5 119.6 112 106.4 103.2 101.6 97.9 95.1 92.9 91 89 87.5 86 86.6 86.5 85.3 85 85.3 84.4 83.6 83.8 83.4 83.4 83.4 83.4 83.4 83.4 83.4 83.4 83.4 83.4 83.4 83.4 83.4 83.4 83.4 83.4 83.4 83.4 83.4 83.4 83.4 83.4 83.4 83.4 83.4 83.4 84.6 85.3 86.3 87.5 88.3 93.6 95.9 95 91.1 90.9 92.1 96 97.6 99.5 101.7 101 100.7 101.2 99.2
138.4 135.2 135.5 134 132.7 127.9 127.6 124.8 124.1 128.6 130.1 132.6 137 132.5 125.2 120.6 119.5 123.4 124.1 121.6 119.5 116.2 112 109 107.9 107.7 105.9 107 106.8 108.3 106.8 106.5 105 101.8 101.2 100.9 101 101.8 101.5 95.3 95.3 95.3 95.3 95.3 95.3 95.3 95.3 95.3 95.3 95.3 95.3 95.3 95.3 95.3 95.3 95.3 95.3 95.3 95.3 102.5 104.2 105.4 106.4 110 115.3 121.1 126 131.1 131.8 130.3 136.8 141.8 144.2 150.5 156 159.1 154.6 153.1 157.4 163.5 167.9 170.2 172.1 173.2 174.9 180.2 180.7 180.2 180.3 183.4 184.5 188.4 192.4 197.2 201.2 197 193.2 191.1 189.6 188.2 183 180.6 178.5 176.7 175 170.8 167.6 166 164.8 163.8 162.8 162 161.4 162.5 159.7 159.2 157.1 152.7 150.3 148.9 153.2 156.6 158.5 159.1 158.6 156.5 155.1 152 148.7 144.7 140.6 136.2 130.9 125.6 117.8 113 105.8 100.1 97.8 96.7 94 91.8 88.4 86.8 85.6 83.4 83.4 83.4 84.5 83.4 83.4 83.4 83.4 83.4 83.4 83.4 83.4 83.4 83.4 83.4 83.4 83.4 83.4 83.4 83.4 83.4 83.4 83.4 83.4 83.4 83.4 83.4 83.4 83.4 83.4 83.4 83.4 83.4 83.4 83.4 83.4 83.4 83.4 86 87.1 89.1 94.2 92 91.4 91 91.6 90.5 92.2 97.6 101 101.7 100.1 99.8 99.4 96.5
132.7 129.8 128.4 127.9 126.6 123.6 118.8 115.3 113.5 114.7 116.1 116.7 118 116.8 114.1 112.3 112.5 115.7 114.6 114.3 113.1 111.7 108.9 106.4 105.9 103.3 102.5 105.2 105.9 106.1 107.5 105.6 105.4 101.7 100.5 100.5 99.5 97.4 95.3 95.3 95.3 95.3 95.3 95.3 95.3 95.3 95.3 95.3 95.3 95.3 95.3 95.3 95.3 95.3 95.3 95.3 95.3 95.3 95.3 98 102.3 101.7 102.5 104.1 109.2 114.3 120.4 125.8 128.8 127.3 134.8 139.2 140.3 146.7 149.8 147.6 145.3 149.1 158 163.4 169.4 169.1 171.6 172.7 173.6 176.6 179.6 179.6 178.2 178.9 182.5 186.3 189.6 192.9 196.4 195.4 195.8 196.5 194.6 190.7 185.1 181.6 178.8 175.4 172 168.4 164.7 162.5 163.4 161.9 161.5 162.1 159.7 156.4 155.1 155.3 151.8 149.6 145.6 148.5 151.8 154.7 156.4 156.6 154.3 152.2 150.8 149.8 146.5 138.9 134.6 130.7 124.1 118.1 112.1 108 102.6 97.7 95.4 94.2 91.1 89.7 86.7 83.6 83.8 83.4 83.4 83.4 83.4 83.4 83.4 83.4 83.4 83.4 83.4 83.4 83.4 83.4 83.4 83.4 83.4 83.4 83.4 83.4 83.4 83.4 83.4 83.4 83.4 83.4 83.4 83.4 88.3 87 83.4 83.4 83.4 83.4 83.4 83.4 84.1 83.4 85.5 87.7 89 88.5 90.9 90.4 90.5 90.4 90.5 92.7 90.5 94 97.2 96.9 97.7 100.9 101.1 97.9
127.7 127.1 125.5 120.4 119.1 119.1 114.4 109.3 107.5 106.6 107.7 109.6 108.9 108.5 107.5 107.3 106.7 110.2 111.6 112.1 110.4 109.4 107.6 104.6 103.3 105.6 101.5 104.7 104.4 104.4 102.9 101 95.3 96.3 97.6 97.1 99.2 95.3 95.3 95.3 95.3 95.3 95.3 95.3 95.3 95.3 95.3 95.3 96.6 95.3 95.3 95.3 103.3 95.3 95.3 95.3 95.3 95.3 95.3 95.3 95.3 95.3 95.3 98.9 101.9 107.8 113.8 119.2 122.9 125.3 127.5 129.9 134.8 141.2 141 139.8 137.6 144.7 152.3 161.9 160.6 169.7 170.9 171.1 171.3 171.8 175.3 175.3 171.3 174.3 181.3 180.9 184.4 187.6 192.7 201 201.4 202.1 193.8 188.4 184.8 181 177.6 174.1 170.7 166.9 161.9 157.6 156.7 155.9 154.9 155 153.1 151.3 150.4 148.7 148.8 148.3 144 146.3 149.5 152.1 154.3 154.7 152.3 152.1 149.6 146.8 139.4 133 128.3 125.1 120.6 114.1 107.8 104.9 102.8 97.1 93.8 93.1 88.4 87.3 85.4 83.4 83.4 83.4 83.4 83.4 83.4 83.4 83.4 83.4 83.4 83.4 83.4 83.4 83.4 83.4 83.4 83.4 83.4 83.4 83.4 83.4 83.4 83.4 83.4 83.4 83.4 83.4 83.4 84.4 89.1 89.7 88 86.2 83.4 83.4 84.7 89.8 91.6 90.5 89.3 91.2 92.5 92 94.5 91.5 90.9 90.5 89.8 90.6 89.8 90.6 91.3 93.6 95.2 101.3 103.4 98.1
126.4 124 118.3 115.3 113.3 110.9 108 105 104.8 104.3 102.9 102.2 102.7 104.1 102.2 104.2 105 107.1 108.7 109.6 107.2 105.6 102.9 101.8 101.5 99.7 98.5 99.8 101.8 102.7 95.3 95.3 95.3 95.3 95.3 95.3 95.3 95.3 95.3 100.9 102.6 98.5 95.8 104.5 107.3 110 113.2 117.8 120.1 116.4 109.7 109.2 110.9 108.5 106.3 104.4 100.4 96.9 95.3 95.3 95.3 95.3 95.6 95.3 95.3 100.9 107.3 112.7 117 119.7 120.9 124.7 129 132.3 131.7 130 132.9 139.7 144.2 149.8 158.2 162.5 165.5 165.6 163.5 164.4 167.6 165.8 164.9 168.5 173.4 174.4 179.2 183.8 187.5 191.9 194 192.6 180.8 176 176.9 174.3 170.9 169.2 167.2 161.9 158.1 155.6 152.6 150.4 149.2 148.5 147.5 145.7 147.2 149.6 148.5 147.6 145.1 143.8 147.5 149.4 151.1 150 149 149.6 141.7 137.3 132.6 128.4 126.8 123.6 118.9 113.5 108.8 103.9 101.4 96.3 91.5 87.9 86.8 84.1 84.2 83.4 83.4 83.4 83.4 83.4 83.4 83.4 83.4 83.4 83.4 83.4 83.4 83.4 83.4 83.4 83.4 83.4 83.4 83.4 83.4 83.4 83.4 83.4 83.4 83.4 83.4 85.8 87.3 89.6 92.3 93.9 94.3 94 94.3 94.4 97.2 101.8 101.5 99.2 98 95.7 94.7 94.7 95 93.9 93.4 91.6 90.2 89.9 89.8 90.9 89.1 89.7 90.7 95.2 99.2 94.6
118.9 118.4 114 110.4 108.9 106.3 104.9 106.8 107.1 107.1 105.7 103.7 101.4 99.5 99.4 100 102.7 104.2 105.7 105.7 103.2 100.9 95.3 97.8 96.8 95.9 95.3 95.3 95.3 95.3 95.3 95.3 95.3 95.3 95.3 95.3 95.3 96.8 101.3 106.1 108.7 111.3 115.5 121 129.5 137.8 140.2 135.8 135.5 127.8 123.6 125.8 122.1 119.4 114.9 109.4 108.1 105.1 102.8 95.9 95.3 104.5 104.6 101.2 95.3 96.6 101.7 103.9 109.1 110.1 114.2 119.3 119.9 119.5 118.8 123.2 132.4 134.7 137.6 142.9 146.1 150 155.2 154.9 153.2 155.3 157.2 156.9 156.4 160.9 165 167.4 171.7 174 176.1 178.4 179.5 177.3 172.4 169.5 166.5 164.3 164.4 166.6 165.6 159.8 155.8 153.3 149.2 147 144.3 143.1 142.9 143.6 145.7 148.5 146.1 144.9 142.4 144 146.6 148.2 149 147.2 145 141.5 136.9 134.4 130.5 129 127.4 123.9 118.4 112.8 108 102.9 97.8 93.5 90.3 86.2 83.4 83.4 83.4 83.4 83.4 83.4 83.4 83.4 83.4 83.4 83.4 83.4 83.4 83.4 83.4 83.4 83.4 83.4 83.4 83.4 83.4 83.4 83.4 83.4 83.4 83.4 83.4 83.4 85.7 89.9 91.9 93.8 96.6 98.7 100.4 101.2 102.8 104.5 106 108.1 106.6 104.5 103.5 103.7 103 102.8 100.7 97.3 96.5 94.4 92.7 91.6 92.5 96.2 90.3 87.5 86.4 87.8 89.1 89
111.5 109.6 107.8 106.4 104.7 104.5 104.5 106.1 107.5 107.5 106.6 104.8 102.5 101.2 99.8 100.2 99.7 99.7 95.3 101.6 99.2 95.3 95.3 95.3 95.3 95.3 95.3 95.3 95.3 95.3 95.3 95.3 95.3 99.4 103.7 107.1 106.9 108.1 111.9 114.7 119.7 130.4 139.1 146.8 157.8 163.4 162.4 154.3 150.5 146.5 148.3 142 134.6 125.7 116.6 111.8 110.7 107.9 103.7 103 110.4 113.3 113.6 108.9 103.1 95.7 99.3 100.1 101.1 104.1 106.9 109.7 110.2 109.1 108.6 114.1 122.5 127.5 131.8 140 140.7 143.3 143.9 142.2 144 146.5 147.5 148.1 149.7 153.6 156.7 160 161.6 164.1 166.2 166 166.3 164.3 163.4 160.6 160.4 157.4 160.2 161.9 159.2 153 150.1 147.2 143.8 141.1 138.8 138 136.6 140.1 141.9 138.2 137.4 139.5 135.8 142.3 145.1 145.5 146.1 146.7 145 143.2 140.7 138.6 134.5 130.8 128.7 125.1 117.9 111.5 105.9 100.6 95.5 91.5 89.2 86.1 83.4 83.4 83.4 83.4 83.4 83.4 83.4 83.4 83.4 83.4 83.4 83.4 83.4 83.4 83.4 83.4 83.4 83.4 83.4 83.4 83.4 83.4 83.4 83.4 83.4 85.3 88.7 89.3 92.1 95.8 97.6 99.2 101.3 103.9 107.4 108.3 110 111.8 112.6 113.2 111.3 108.5 107.3 109.2 113.1 110.9 107.6 105.4 102.8 97.8 98.4 93.4 94.2 93.9 90.2 86.9 87 86.7 86.4 86.4
109.4 104.7 104.5 104.3 104.4 105.2 104.8 105.5 106.7 107.2 105.9 105 104.2 103.3 99.4 100.8 101.9 98.6 95.3 95.3 95.3 95.3 95.3 95.3 95.3 95.3 95.9 95.3 97.9 98.2 98.8 106.2 110.5 110.8 109.9 113.5 116.2 119.9 126.1 132.8 143.6 155.1 165.5 176.4 181.4 180.4 179.8 174.1 163.1 158.7 151 144.7 135.1 121.9 115 112.6 111.1 109.8 105.1 104.1 108.7 113.4 114 113.8 110.8 109.1 105.8 95.1 95.2 98.1 101.2 102.8 103 101 101.1 106.5 113.3 118.5 123.8 130.7 134.2 137.5 137.9 133.4 134.9 138.2 140.8 141.9 142.7 144.1 147.5 149.1 149.6 149.8 154.4 154.6 154.9 154.5 154.6 152.2 147.2 149.4 152.7 153.3 150.4 145.3 143.6 136.5 136 134.7 134.2 134 135.4 135.2 131.9 131.6 132.2 132.5 132.6 138.4 140.7 140.1 142.9 146.9 147.7 149.1 147.8 145 141.7 132.6 128.2 121.9 116 110.1 104.4 98.8 93.3 89.6 89 87.8 83.7 83.4 83.4 83.4 83.4 83.4 83.4 83.4 83.4 83.4 83.4 83.4 83.4 83.4 83.4 83.4 83.4 83.4 83.4 83.4 83.4 83.4 86.9 90.4 92.2 92.4 94 95.8 98.5 101.3 103.2 104.8 106.7 108.8 111.4 115.2 116.1 116.7 117.4 117.5 116.4 114.1 110.6 110.1 113.8 117.5 114.2 110.2 105.5 102.4 99.2 94.6 91.5 88.3 87.5 87.5 87.2 87 86.9 86.8
104.6 104.5 104.5 105.9 104.5 104.4 105.1 104.7 104.7 105.2 105.2 104.4 104.5 105.6 105.5 103.7 103.8 103.7 101.9 95.9 95.3 95.3 95.3 95.3 97.5 101.4 102.4 101.5 103.3 105.5 109.6 113.8 116.9 120.1 121.4 125.9 133.4 139.6 148.7 158.9 170.2 182.7 198.3 203.5 195.8 187.9 186.5 183.7 176.4 161.3 153.6 147.5 137.2 124.5 116.7 113.2 110.7 108.2 105.8 104.6 102.9 104.6 106.1 109.6 109.4 107.8 105 100.9 94.4 93.7 96.7 98 98.2 97.1 97.6 101.5 106.3 111.2 115.7 121.3 125.1 125.3 126.1 125.8 129.6 130 131.5 134.3 133.9 137.5 140.3 139.2 139.3 140.2 142.3 143.3 144.8 145.5 142.8 140.2 136.9 137.6 141.3 143.6 140.6 134.9 132 130.4 130.6 131.3 130 130 129.3 127 124.7 124.3 126 124.9 125.2 129.5 131.1 132.2 136.3 144.5 148.1 148.5 144.2 142.8 139 131 127.3 120.4 114.3 108.2 103 97.5 91.5 88.7 88.4 85.5 83.4 83.4 83.4 83.4 83.4 83.4 83.4 83.4 83.4 83.4 83.4 83.4 83.4 83.4 83.4 83.4 83.4 83.4 83.4 83.4 85 91.6 95 97.4 98.9 98 99.8 102.3 104.9 106.8 108.7 110.4 112.6 115.4 117.8 120 118.3 119.8 120.8 120.8 119.6 116.6 115 112.4 112.5 113.5 113 112.4 107.1 104.1 98.1 93.9 89.4 88.5 87.4 87.3 87.6 87.5 87.4 87.3
