ncols 200
nrows 82
xllcorner 280000
yllcorner 340750
cellsize 50
381.7 382.6 386.6 389.5 397.7 405.6 414.1 421.2 431.7 426.6 430.2 443.4 449.8 448.4 454.4 460 464.1 462.4 465.1 466.5 457.7 449.3 437.4 423.6 416.2 403.1 397.2 383.6 374.4 367.2 363 356.7 350.6 346 341.1 337.9 331.9 331.4 333.3 337.2 336.2 343.6 346.6 350 354.3 357.6 361.4 368.3 374.1 379.3 383.3 388.6 395.7 404.1 406.9 404.2 399.5 397.7 395.1 386.4 379.4 373.8 365.3 358.8 355.4 353.6 352.1 351.3 353.1 356.4 361.2 366.2 370.8 376.1 382.6 387.9 395 399.7 409.3 420.1 427.9 431.4 432.8 435.3 438.2 443.8 450.1 462.4 471.1 475.5 479.8 485 489.6 497.1 504.6 509.2 515.1 522.8 531.4 540.9 549.5 555.2 561.1 567.2 573 578.2 585.1 592.9 601.3 609 616 621 630.7 634.8 635.3 634.4 628.9 628.9 627.1 626.5 624.6 619.8 619.3 620.6 618.4 616.6 616 616.9 618.1 620.5 620.4 621.7 622.5 622.9 622.9 623.9 625.9 629 634 639 646.1 647.8 648.1 645.8 646.5 643.2 633.5 621.9 604.9 590.9 582.6 574.1 568.4 562.9 554.6 548.5 542.5 536.5 531.1 526.5 523.7 518.9 512 502.8 490.1 479 474.3 471.6 469.4 465.2 461.7 464.9 467 467.7 468.4 468 467.3 464.7 463.2 461.3 458.9 455.6 459.9 464.9 472.6 479.6 486.1 493.8 498.2 500.4 500.1 495.1 488.6 479.8 469.9 462 451.8 443.8 436.2 427.6
390.1 396.1 394.6 400.3 407.9 417.1 424.9 433.2 441.7 438.9 443.3 458.7 461.3 462.3 467.2 470.3 471.3 471.3 472.6 469 463.2 455.7 441.3 428.7 419.8 411 403.7 394.3 382.4 372.6 367.7 360 351.7 347.8 340.3 337.8 333.4 332.2 332.4 332.3 340.1 342.3 345.6 348.7 352 355.8 360.5 367.6 372.1 377.4 382 386.8 392.8 399.8 402 398.1 394.5 392.3 389.2 382 375.1 368.9 360.1 356.8 353.5 351.8 351.5 353.2 354.7 357.6 364 368.9 374.2 380.3 385.9 391.7 398 405.2 412.9 418.4 424.5 430.8 434.1 437.1 441.6 447.1 455.2 462.5 471.2 476.1 480.4 484.2 488.9 495.8 503.4 508.5 515 521.2 528.9 534.8 542.4 547.3 553.6 558 562.8 566.9 574.8 582.7 594.7 604.9 614.8 623.3 633.3 638.6 638.9 637.5 636.1 631.2 629.9 630.3 629.5 623.7 621.8 619.1 615.3 615.4 615.2 615.3 615.8 615.9 617.6 618.7 620.6 622.1 621.6 622 622.7 629.1 633.4 641.3 648 649.9 650.3 647.5 642.9 636.1 628.7 616.4 597.5 580.7 566.9 561.6 558.7 549.2 541.5 537.4 534.9 529.7 524 520.5 519.8 516.6 510.8 499.7 485.3 472 466.1 465.1 462.6 458.9 457.5 465.2 467.6 468.3 467.8 468 467 465.9 464.1 463.6 463.9 466.3 470.1 475.7 480.7 487.3 492.1 499.4 502.5 505.5 502 496.2 488.9 478.2 467.8 459.2 448.4 438.9 427.7 420.5
403.3 410.7 408.5 413 422.3 428.1 435.2 442 449.8 451.9 458.1 465.5 468.5 474.8 479.8 482.1 478.6 483 480 476 469 457.1 443.9 429.6 421.9 414.4 407.2 401.2 391.8 384.7 373.4 367.8 360.6 350.9 342.1 338.8 335.2 333.5 333.2 333.4 338.9 342.2 344.9 347.6 350.3 353.4 359 364.7 369.8 373.2 378.3 384 389.9 395.7 395.3 391.4 389.2 387.9 385.7 380.1 371.5 363.2 357 354 352.1 351.2 352.5 354.3 356.1 359.5 366.3 371.5 375.3 383.5 387.8 394.6 402.1 408.7 415.3 422 428 432.4 436 439.3 443.1 448.8 457.4 464 470.6 475.9 480.6 484.9 489.4 495.7 503.2 509.2 515.8 521 528.2 532 536.5 541.7 545 548.4 549.8 555.8 565.3 577.5 589.2 600.3 611.9 622.4 632.6 642.2 643.5 641.1 638.3 637.3 631.8 631.6 631.2 626 623.7 619.5 615.6 612.8 613.5 613.5 613.4 615.4 615.4 618.2 619.6 621.5 621.4 623 627.6 630 637.8 644.4 650.2 654.4 655.7 651.9 645.2 634.8 624.8 609.6 590.1 577.5 559.9 549.6 544 538.3 532.8 527.1 522.9 520.7 515.3 512.9 512.9 510.6 505 495.4 479 463 457.1 453.5 451.6 449.3 452.2 463.7 470.7 470.1 469.4 468.6 468.4 468.4 468.9 469.8 470.6 474.2 480.4 483.4 487.5 496.9 503 505.6 509.1 507.2 503.6 496.5 485.1 475.7 463.7 452.9 440.1 432.3 423.8 416.8
416.2 418.1 420.9 429.1 435.4 441.5 445.2 453.1 461.3 463.8 468.9 474.4 479.6 487.2 489.1 485.5 483.4 484.4 482 477.6 468.4 453.6 444.9 432 424.2 418.1 412 405.3 397.2 387.5 381.1 372.7 363.1 351.1 345.2 341.7 336.9 333.6 334.1 334.1 338.4 341.6 343.2 345.4 348.7 351.3 356.7 359.9 365.1 369.6 373.9 379.7 385.4 389.1 388.8 387.1 383.4 382.1 379.7 373.6 366.7 360.1 354 351.8 350.4 352 353.7 356.3 358.2 361.4 366.9 372.6 377.5 385.9 390.1 398.2 404.8 410.3 415.5 424 429.9 433 438.6 441.2 446.1 451.5 458.1 465 471.4 476.4 482.1 486.3 490.1 495.1 501.4 508.7 515.7 519.2 525.1 529 532.3 536.6 538 538.6 541.2 549.6 561.6 573.3 585.9 596.7 607.5 618.2 626.1 641 644.4 644.7 642.7 639 636.1 633.1 631.9 626.8 621.9 618.9 614.2 611.3 609.2 611.1 612.8 612 615.3 617.1 619.1 621.2 625.1 626.7 630.9 632.9 639.4 647.1 655.7 660.7 662.7 658.8 649 635.6 619.7 600.2 589.1 576.2 558.9 538.1 534.2 530 525.5 518.2 513.3 510.5 507.3 504.3 503.2 502.7 499.3 489.2 472.9 457.3 446.4 440.2 439.9 440.5 441.2 455.5 464.1 470.9 471.8 470 470 470.6 472.1 472.8 474.6 480.9 484.1 488.3 493.3 501.6 509.7 510.2 509.2 506.2 500.7 491.8 481.5 470.4 457.3 446.1 438 430.4 422.7 415.4
427.9 429 433.8 442.5 448.5 452.6 455.7 465.2 472.3 475.1 476.7 482.2 485.2 487.6 487.1 484.1 481.7 480 476.8 470.6 459.3 453.9 443.8 432.6 427.4 422.7 416 408.2 399.2 391.6 382.5 373.5 362 351.2 344.8 340.4 337.5 334.7 335.3 335.5 336.2 338.6 341.8 344.2 346 349 354.2 356.6 360.6 363.4 367.8 373.5 379.1 382.4 383.6 380.4 377.8 376.2 373.8 370 363.4 356.6 352.6 350 352.5 354.7 358.1 361.8 364.4 368.5 371.5 374.3 379.4 385.7 392.3 401.6 407.3 411.8 417.3 426.1 431.8 436.4 439.9 444.6 448.8 452.4 457.9 464.5 472.5 480.1 485.7 487.7 491 496.6 503.1 507.8 514.4 518.4 523.2 526.2 528.2 529.9 531.1 531.4 537.4 548.9 562.7 572.5 582.9 593.9 602.3 614 622.3 638.9 644.3 643.7 643 637.9 635.7 634.4 630.6 624.5 618.9 615 611.2 608 607 608.5 610.8 612 612.6 615.2 619 621.8 625.1 629.7 632.7 635.1 641 650 657.9 664.5 668 662.3 651.8 636.3 619.7 601.3 588.6 574 549.9 532.1 526.8 523.6 520.1 513.9 508 501.2 499.2 496.5 494.8 493.3 490.6 482.2 464.8 452 441.2 439.3 439 439.1 439.2 446.5 459.6 469.5 472.8 472.6 472.3 472.8 474 475.6 478.5 484.2 489.9 493.5 498 505.5 509.4 510.8 508.6 503.9 497 487 474.5 462.9 450.1 441.3 432.4 425.9 420.6 413.5
440.1 442.7 449.6 456.3 461.5 464.1 467.6 477.1 479.8 480.1 481.7 484.4 486 487.5 486.4 483.4 479.8 477.3 474.6 465.5 459.8 451.9 440.9 434 430.2 426.1 418.6 410.1 400.2 392.6 381.9 370.3 358.1 349.9 344.6 341 338.8 336 337 337.3 339.1 337.7 340.2 342.3 344 346.3 348.9 352.3 355 359 361.7 366.4 372.5 375.8 374.5 375.1 373.9 371 368 363.7 358.3 353.5 350.5 350.8 352.9 356.2 361.1 365.2 368.3 371.3 374 376.9 380.9 386.8 395.1 403.5 408.4 412 418.9 428 433 437.2 443.2 448.4 450.6 454.4 458.7 465.5 476.3 483.7 488.1 489.4 492 497.3 503.3 508.3 510.7 516.5 519.1 523.4 524.8 523.6 524.6 529.2 535.2 544.2 558 571.8 582.1 593.1 603.9 613.3 622.7 634.9 642.8 641.8 641.6 636.9 631.3 627.6 626.4 621.2 615.3 612 608.1 605.9 605.4 605.7 608.8 609.8 611 613.4 618.6 621.9 625 628.4 632.7 637.7 643.1 653.3 660.2 665 667.6 662.5 652.6 639.1 619.1 598.2 580.2 562.5 541 530 519.9 517.1 514.2 508.7 503.4 497.4 490.9 488.2 485.6 482.2 476.8 472.2 464.4 458.2 450.2 443.4 442.8 439.8 437.1 442.7 450.9 466.8 473.8 476.5 475.8 476.3 478 480.6 482.5 487.1 494.2 499.2 502.6 506.4 506.8 508.4 505.9 500.1 493 483 470 456.1 446 436 428 422.1 417.2 410.5
451.6 456.2 462.9 468.3 472.5 473.7 476.7 481.8 484 483.3 484.7 485.7 486.8 486.6 485.5 481.2 476.4 475.9 473.4 466.8 460 449 437.8 433.7 431.7 427.9 421.1 410 402 391.9 378.9 364.9 355.6 348.3 344.8 341.5 339 338.1 339.3 339.7 339.7 340.2 340.8 341.9 343.4 344.3 345.6 348.6 352 356 358.7 361.6 366.4 369.7 369.9 369.7 367.5 364.2 363 359.7 355.6 352.4 350.2 352.5 353.7 357.9 363.2 366.9 370 372.9 375.7 379.2 383 389 395.7 401.6 407.6 411.7 421.6 428.7 433.6 438.8 445 450 453.9 457.4 461.1 468.6 480.4 485.8 489 490.1 493.1 499 503.9 510.5 510.5 512 514.7 517 517.8 517.8 520.8 526.4 531.9 540.4 553.3 565.3 580 592 604 612.6 621.8 631 640.8 644.1 642.1 637.6 631.6 624.6 617.3 612.8 608.2 605.5 604.7 602.8 603.5 604.7 606.3 608.5 610.8 613.8 618 623.3 625.4 627.6 631.5 635.5 645.4 653.3 658.6 661.8 662.6 658.9 649.5 635.4 612.1 582.7 563.4 548.8 535.3 524.4 516.5 510.6 508.1 502.1 497.3 491.9 486.4 480.5 477.5 474.7 472.3 468.8 461.8 457.7 453.6 450.2 441.8 436.7 434.9 436.8 444.9 461.7 470.4 479.3 480.1 481.6 482.5 484.6 485.8 493.7 498.3 503.2 505.7 505.6 505 503.8 502 495.4 487.1 476.9 464.6 453.6 443.4 434.3 425.3 419.3 412.9 408
462 469.7 474.4 480.8 482.2 482.3 484.1 487.1 485.4 486.3 487.1 485.2 486.2 485.8 482.9 476.4 473.1 474 471.1 464.1 453.9 442.7 436.5 433 432.8 429.2 419.5 407.4 399 387.1 372.2 360.2 354.2 349.1 345.4 341.7 337.3 339.2 341.8 342.2 341.8 342.1 343.2 343.7 345.8 347.6 347.5 347.4 349.7 353.7 356 358 362.1 364.3 364.9 364.9 362.7 359 357.1 355.1 353.2 351.4 351 353.5 354.8 358.7 363.1 366.4 370.8 374 377.6 381.1 384.8 389.7 396.2 401 406.3 412.2 421.2 427.7 433.5 437.5 443.7 450.6 454.8 458.7 464.5 470.6 482.5 488.5 491.1 491.9 494.2 498.2 503.8 509.3 509.9 510.2 509.6 510.7 512.2 515.6 520.2 524.7 530 536 546.4 558.8 572.7 586.2 599 609.1 618.6 629 638.6 645.2 643.5 638.8 631 620.6 607.8 604.5 602.1 598.5 599.6 598.8 598.7 599.8 601.9 606.8 610 613.3 616.3 621.9 624.9 628.1 631 635.9 643 648.8 654.8 657.5 657.4 653.6 645.5 630.8 604.7 575.6 553.9 543.7 528 519.4 512 506.4 502.2 497.2 491.5 486 480.8 475.6 472.3 469.7 468.1 464.5 456.9 452.9 448.7 445 435.6 430.9 431.1 433.3 442.2 456.2 467.1 476.4 484.3 484 485.9 486.8 492.5 499.2 501.2 505.7 506.3 504.4 501.5 498.3 495.6 489.3 480.7 470.2 459.8 449.7 440.5 431.1 423.7 416 409.9 404.4
471.4 480.5 486.4 490 491.9 489 487.8 488.1 488.6 488.4 488.5 486.3 486.9 484 479.7 470.9 468.9 467.2 464.1 454.3 443.3 438.5 433.3 431.5 433.8 431.1 415.4 402.9 392.2 377.8 367 358.5 354 350.2 346.2 341.6 337.6 341 343.2 344.5 344.8 346.5 345.8 349 349.4 349.6 350.1 349.9 348.4 351.5 353.6 355.7 358.7 361.6 362.2 360 358 355.9 354.2 352.5 350.5 350.5 351.9 353.7 355.3 359 363.1 366.1 370.6 374.3 378.7 382.7 386.7 391 397.2 401.7 406.8 412.1 420.6 425.4 432.7 436.7 442.6 449.4 455.6 460.9 466.5 473.1 482.1 492.4 493.4 494.1 494.9 497.9 502.7 505.5 507.8 509.3 507.7 507 508.9 513.8 518 520.8 529.4 533.5 540.8 551.8 564.7 580.4 592.4 603.5 612.8 623.8 635.5 642.6 642.2 638 632.3 619.8 608.2 603.9 603 600.4 595.1 593.3 593.7 594.7 600.2 604.9 608.7 611.7 613.8 619.2 622.3 624.9 629.7 633.4 637 642.8 649.2 652.9 652.6 650.5 642.6 626.4 603 575.8 552.9 541.4 525.3 517.2 508.7 502.7 496.5 486.9 484 479.6 474.8 470.2 467.4 466.4 463.6 460.8 454.2 449.1 443.5 436.8 430.6 428.7 427.3 431.2 440.6 456.7 465.3 474.6 485.2 487.5 487.3 489.9 498.1 502.1 506.8 503.7 505.8 501.4 495.6 492.2 488.6 483.5 474.1 464.3 456.4 445.5 436 427 419.7 412.1 405 399.8
478.4 489.9 496.3 499.8 498.8 495.8 492.5 492.2 490.7 490.2 488.6 486.9 486.1 482.4 476.2 465.6 458.5 454.2 447.5 441.2 437.5 431.8 428 426.3 425.9 415.8 403.4 389.1 380 371.1 363.6 358.4 353.8 350.5 344.9 340.6 341.9 344 345.2 347.3 348.8 350.2 352.1 353.8 353.4 352.5 351.7 352.4 351.9 350.8 351.2 353.4 356.5 358.3 357.9 357 355.6 354.2 352.1 349.7 349.7 351.3 352.3 353.2 355 359.8 364.7 368.4 371.2 374.9 379.5 384 389.1 394.1 398.7 402.5 408.1 413.1 419.1 424.3 431.4 436.2 442.9 451.3 457 463 467.8 473.4 482.8 490.6 495.8 496.7 497.4 498.6 502.2 502.8 504.8 505.3 503.8 501.3 506.1 509.2 515.4 518.8 525.3 531.2 537.2 547 559.9 571.9 584.3 596.5 606.4 617.8 629.1 637.5 639.4 634.2 630.1 621.4 610.9 606 604.3 604.8 600.1 593.9 590 589.5 597.7 603.1 606.6 609 612.2 618.1 622 624.5 627.1 629 631.1 636.2 641.4 647.2 647.9 644.9 639 625.4 606.7 579.1 555.4 538.9 527 513.4 506.8 501.3 492.6 485.8 479.8 471.9 468 465.1 462.7 461.3 459.1 456.2 450.2 442.6 436.1 432.2 429.1 424.6 424.8 428.1 438.7 454.2 463.9 474.8 485 489.5 492.5 492.8 497 499.6 500.6 500.8 502.5 496.3 491.1 487.6 481.9 475.6 466.1 459.7 449.9 439.6 429.1 421 415.5 408.6 399.8 396.5
484.8 497.7 506.6 507.4 505.4 499.2 496.3 494.8 492.7 490.1 488.4 487 485.7 479.9 470.4 461.3 453.2 445.1 438.5 433.5 430.7 423.2 417.4 412 404.9 396.7 387.1 380 374.3 367.5 362.1 357.6 353.6 349.5 342.6 341.7 344.3 345.8 347.2 349 352.2 354.4 356 357.1 356.8 357.4 355 354.5 354 354 352.4 353.1 354.7 356 356.4 355.6 354.4 353.1 351.1 349.4 350.7 351.4 352.5 353.8 356.4 360.9 365.7 369.4 372.9 376.1 380 385 389.7 395.2 399.9 403.3 408.3 413.7 419 423.9 429.2 436.9 445.4 452 458 463.8 468 473.6 480.9 489.2 498.5 500.2 497.9 497.8 499.2 500.9 500.4 500 498.8 498.4 501.8 506.2 511.9 517.6 521.7 530.8 535.5 543 554.5 567 580.2 592.6 603.5 612.9 623.3 634 635.7 630.8 626.5 622.5 618.4 611.5 608.2 608.5 604.2 595.7 592.5 589.4 593.5 599.1 604 606 609.6 613.2 617.3 620.3 622.1 623.9 627 630.3 634.5 639.7 642.7 640.1 636.6 626.8 611.5 583.9 558.2 539.1 524.2 512.4 505.5 498 490.1 482.9 477.1 469.6 462.5 459.7 457.7 456.6 454.8 452 447.7 439.5 431.7 429.4 425.4 424.4 424.4 426.1 438.2 453.1 461.9 473.5 482.2 490.8 495.4 494.8 497 498.2 497.7 497.7 495.8 492.4 486.5 482.9 476.6 469.2 461.9 453.5 442.3 431.8 424.1 417.3 411.3 402.9 396.1 392.6
492.5 504.2 511.5 511 506.4 498.7 497 492.9 490.9 488.9 488.5 487.3 485.5 475.8 465.6 458.7 448.5 436.9 431.8 427.8 421.3 416.8 409.7 400.2 391.1 384.4 378.8 373.9 369.2 364 360.3 356.3 350.9 342.3 344.5 346.3 346.8 348.2 352 354.5 355.9 358.3 359.4 360.1 360.5 360.8 357.1 355.9 354.9 354.4 353.8 353.4 353.6 354.9 355 354.1 353.5 352.2 349.9 349.2 350.3 352.5 355.1 357.5 360.7 362.8 366.4 370.2 373.2 377.3 381.3 385.6 392.3 397.4 401.4 404.9 409.3 414.1 418.1 423 430.8 440.6 447.1 452.6 457.3 461.7 468.9 475.2 480.6 489.1 499.7 502.6 497.2 494.3 494.3 496 496.5 496 494.8 496.1 499.3 504 509.5 514.7 521.3 528.2 537.1 543.7 553.9 564.5 576.3 588.9 597 607.4 619.1 628.1 631.6 629.2 628.5 626.8 625.2 617.5 614.5 611.3 607.8 600.8 594.3 588.7 589 594.1 598.7 602.1 604.8 608.1 612 614.5 615.4 616.5 618.8 622.9 625.6 631 634.4 637 639.4 637.5 617.7 588.6 558.6 539.3 524.3 513 502.8 494.1 487 481 476.1 466.7 459.3 455 453.8 452.3 450.5 449.1 445.9 439.3 429.9 426.8 424.5 424.4 424.4 424.4 439.3 454.8 465.5 475.6 483.7 493.7 497.9 497.5 498.5 498.4 497.6 496.2 494.1 488.2 480.5 474 467.6 462.1 454.5 445.4 435.3 426.8 420.9 414.8 407.2 399.1 392.6 387.4
495.5 502.2 505.8 506.1 502.9 498.2 495.7 490.7 487.5 487.8 487.6 486.7 483.2 469 462.1 451 441.9 433.3 425.8 420.6 414.2 409 399.5 391.6 384.1 377.4 373.3 368.2 363.8 360.8 357.6 352.9 343.5 348.2 348.8 349.5 350 351.6 355.6 359.2 360.5 362.3 363.8 363 363.5 364.1 361.1 358.5 356.8 355.3 354.7 354.3 353.8 354.5 353.9 353.8 353.9 352.9 350.9 349 350.3 353.6 356.9 359.2 362 364.3 367 369.8 372.9 376.7 381.4 386.8 393.5 398.3 402.6 407.6 413.6 418.8 422 428.2 435 442.8 448.5 452.4 456.4 460.4 468.4 475.3 481 485.7 502 504 500.9 488.2 488.9 490.8 492.4 492.2 489.7 493.2 497.9 503.1 507.1 512.8 520.9 527.2 536.3 545.7 552.7 561.7 571.8 582.9 594 603.5 613.9 621.5 627.8 629.9 628.6 633 635.4 627.3 620.9 616.8 610.9 604 595.8 587.7 585.9 591.3 593.9 597.6 599.8 602.9 605 607.7 608.7 609.7 613.4 616.2 620.7 623.1 626.9 634.5 640.5 637.2 619.5 590.7 563.3 542.7 529 513.6 504 494.1 488.5 482.3 474.2 465.2 458.5 452 450.1 448.1 447.3 446.7 444.1 439.8 430.4 426 424.4 424.4 424.4 424.4 440.5 457 470 483.5 493.5 501.4 503.2 502.3 499.7 498.4 497 496.5 493.2 484.2 477.4 470.7 462.6 455 446.3 437.6 429.5 422.2 416.5 409.9 403.2 394.6 388.3 383.3
494.9 499.4 502.8 501.4 498.1 495.4 491.4 486.9 486.3 486.3 485.2 482.7 476.9 466 455.8 443.8 435.9 428.7 421.5 412.7 407 398.5 392.1 382.8 375.8 370.7 365.8 362.3 359.2 357.4 354.1 344.7 348.5 352.3 351.4 352.2 353.4 355.7 360.2 363.3 364.6 365.9 367.2 367.6 367.1 368.4 368.6 367.8 363.8 358.7 355.4 354.9 354.5 353.8 353.7 354.3 355.7 354.3 351.5 348.3 350.5 354.6 358.7 361.5 362.8 364.5 366.7 369.5 372.8 377.1 382.7 387.8 394.7 400.6 405.1 409.6 416.1 421.4 427.5 433.8 441 445.3 449 452.7 456.1 460.5 466.8 473.7 478.7 483.2 491.7 495.1 494.8 489.5 481.6 484.1 485.7 487 479 491.1 495.9 500.3 505.8 511.4 519.8 526 533.5 544 554.4 560.8 569.8 578.8 587.6 597.7 607.2 616.4 622.6 626.3 629 636.4 638.9 631.1 626.4 622.2 616.1 607.1 596.3 586.1 581.7 587.9 591.7 593.6 595.1 598 600.1 601.4 603 605.9 608.7 612.9 616.8 618.9 622 630.2 632.5 628.7 618.8 590.3 564 545.4 531.4 516.7 505.8 499 492.2 483.8 475.1 465.7 458.9 452.8 446.1 444.5 444 443.4 442.4 439.6 431.7 426.9 425.1 424.4 424.4 429.2 443.3 457.7 478.4 494 505.5 507 510 507.7 502.9 501.4 497.8 494.8 490.8 482.9 473 463.2 450.6 442.2 435.1 427.7 419.6 415.2 411.4 404.4 398.3 391.4 385 379.2
490.7 494.8 494.2 493.2 491.9 489 484.7 482.5 483.1 483.6 481.5 476 469.1 458.6 448.1 439.2 430.6 423.5 414 406.6 394.7 390.3 380.9 376.1 368.7 364.2 360.9 357.5 356.2 352.2 345.3 351.8 354.6 355.2 354.7 357.1 358.1 360.7 364.4 367.1 368 368.3 370.3 371.3 371.7 371.3 372.2 371.6 368.2 359.9 356.6 355.3 354.4 352.4 352.3 352.8 355.8 353.5 350.3 348.6 354.2 357.9 360.7 361.7 363 365.1 367.7 370.7 374.6 380 385.5 390.7 396.6 403.3 408.6 414 418.9 424.7 429.6 436 441.5 446.3 449.5 452.6 456.6 460.2 464.8 471.4 474.3 479.4 482.4 485.4 483.8 480.8 476.4 477.2 479.7 481.3 482.7 487.4 491 496.4 500.6 507.2 515.8 523.5 531 540.5 550.1 559.8 566 574.8 584.3 592.6 602.2 611.1 618.6 621.7 623.4 629.2 632.7 629.2 624.6 620.8 616.9 608 596.3 586.2 578.8 581.6 585 588.2 590.7 591.6 592.7 594.1 596 600.5 604.3 608.9 612.6 615.3 617.2 622.5 626 624.3 611.2 588.8 567.4 550.2 529.7 523.8 509.6 504.3 495.1 487 477.5 467 459.9 453 447 441.9 439.4 439.6 439.2 437.5 434.1 431 428.8 426.2 428.5 435.5 447.3 463.8 484.9 500.9 509.7 511.9 512.7 512.6 507.2 504 499.2 493.7 489.6 482.5 471.7 460.4 449.9 440.6 432.5 422.7 416.6 410.6 405.1 400.2 396.7 389.5 385.3 379.8
482.8 485.7 485.6 486.6 486.6 483.8 478.9 476.3 475.5 474.8 473.7 469.6 460.4 451.5 442.7 434.1 425 417 406.6 396.8 388.1 379.2 374.1 365.7 362.7 358.6 356.8 353.9 351.3 348.1 351.6 355.1 357.5 359.4 360.8 363.7 364.2 365.7 368.9 371 371.2 370.8 372.6 374.3 374.7 374.2 374.6 373.3 370.8 361.3 358.4 358.1 354.6 351 350.1 351.3 353.2 351.4 347.9 353.7 358.2 360.4 360.7 361.4 363.2 365.1 368.1 371.2 376 381.5 387.5 393.8 401.3 407.4 412.6 418.5 423.4 428.1 433.2 438.2 443.3 447 449.2 452.1 455.3 458.3 462.8 467.2 469.7 474.3 475.9 477 477.2 477.2 476.7 472.5 473.9 475.9 478.7 484.3 488.1 492.8 496.4 502.5 509.2 520.9 531.1 537.4 546.9 553.4 561.5 570.2 580.1 590.5 598 607.3 614.6 619.9 621.3 624.1 631 630.9 626.7 622.2 617.4 611.1 597.4 587 582.1 577.5 580.4 581.4 583.3 585.5 586.2 588.5 592.3 595.7 600.7 604.8 608.8 611.4 613.2 615.9 618.9 618.4 612.7 590.7 567 552 543.2 528 516.6 507.2 498.8 487.3 474.4 465.8 458.5 451.2 445.4 440.8 437.2 434.9 435.6 435.4 434.8 434.7 433.1 430.1 435.1 440.8 450.3 469.7 486.9 504.3 513 514.4 515.3 516.3 511.8 507.3 498.8 494.8 487.4 481.5 473.7 464.8 452.2 441.4 431.4 425.1 417.7 411.2 404.7 400.2 395.5 390.6 385.3 379
477.7 481.6 480.5 479.2 479 476.1 473.7 472.6 472.1 471.1 468.7 462.7 455.4 446.9 438.2 427.9 416.2 407 397.3 385.8 379.7 373.9 369 365.1 359.8 355.1 353 350.5 348.5 350.6 355.5 358 361 364.9 368.2 374.1 373.7 373.6 375.1 375.1 375.5 374.7 375.8 377.5 377.1 376.8 377.1 375.9 372.1 363.8 361.8 360.9 356.3 351 348.8 347.9 349.9 347.9 348.7 356.1 359.6 360.9 360.1 361.2 363.1 365.1 368.7 371.9 376.6 384.1 390.7 398.8 406.8 412 416.4 422 426.6 431.2 435.3 439.5 444.6 448.1 449.6 451.5 453.7 456.9 460.7 462.4 464.9 469.4 472.4 472.3 473 472.7 471.2 469 469.2 469.1 474.8 479.7 486 489.3 493.9 498.6 506.3 515.4 525.8 534.4 542.3 549.5 555.6 562.3 573.3 586.3 595.1 604.1 610.6 617.7 618.5 621.2 624.7 627.1 624.8 623 620.6 616.9 607.5 595.7 588.1 577.3 578.1 577.9 575.8 578 579.6 583.1 585.9 591.6 597.2 602.9 606.6 608.7 611.5 613.8 616.7 615.2 610.4 597.1 580.7 564.9 548.6 533.4 521.4 511.5 501.4 489.6 476.7 464.6 456.3 448.9 443.3 438.1 435.8 431.9 429.6 431.7 432.6 433.7 426.6 428.9 434.9 442.3 452.4 469.6 485.7 503.3 515.5 517.8 518.5 520.6 516.8 507.6 500 493.3 484.8 479.7 471.7 462.5 453.2 441.8 433.2 422.7 414.9 409.9 404.6 398.3 393 388.1 381 373
474.9 477.1 477.7 476.7 475.5 472.9 471.2 469.9 468.9 467.2 464.5 459.1 451.3 443 433.5 420.6 410.4 399.5 387.3 378.7 374.1 369.1 365.3 359.9 356.8 353.4 349.2 350.9 352.7 357.1 362 365.8 367.6 371.3 375.7 378.6 379.8 379.6 379.7 379.2 380.4 378.6 379.8 381 380 379.5 378.3 375.7 371.7 366.9 364.4 361.8 357.9 352.4 349.7 346.5 345.2 345 352.5 356.1 358.6 359.4 359 360.3 362.3 365.3 369.2 373.6 378.4 386.3 393.8 403 411 416 420.6 425.4 430.3 434.4 436.7 440.3 445.7 448.2 448.8 450.5 452.2 454.6 456.8 458.7 460.2 463.4 464.3 464.6 465 465.2 465.1 465.4 464.7 469.3 473.2 476.9 482.3 486.3 490.7 496.2 502.8 510.1 518 526.2 534.5 542.5 549.5 556.2 566.8 578.5 589.9 598.3 603.4 609.3 610.7 612.9 617.7 621.1 620.3 623.1 621 618.5 610.7 597.6 589.6 578.8 572.3 570 566 568.9 572.5 576.7 582.4 589.1 594.2 600.5 607.1 610 613.8 616.6 620.7 620.7 614.8 601.3 584.8 568.8 553.9 537 525.8 513.5 501.6 485.9 477.5 463 453.3 447.9 442.8 436.3 432.2 429.1 420.4 426.2 427.7 429.1 422.3 426.6 435.3 444 454.5 469.3 486.7 501.1 513 517.8 520.1 520.2 518.3 507 495.9 488.8 483 477.6 468.3 458.1 448.3 437 427.6 419.5 411.9 407.6 402.5 397.9 390.6 382.3 376.2 370.2
473.2 474.9 475.9 475.4 473 471.6 469 467.9 466.4 465.2 462.4 455.4 447.9 437.6 425.3 414.6 402.3 390 380.1 372.1 369.1 365 360.2 357.1 353.8 350.5 356.9 356.5 356.8 360.5 368.4 374.2 377 380.7 383.4 383.7 386.1 387 385 385 385 382.7 383.3 383.8 382.4 380.1 378.1 374 370.3 367.3 365 361.7 358.6 355.4 351.6 345.5 343.5 347 351.3 354.3 356.4 356.6 357.7 359.2 361.4 365 369.1 373.6 379.5 388.6 396.9 406.2 414.2 419.3 424.7 430 432.9 436.5 438.1 441.6 446.6 451 450.8 449.6 450.1 451.4 452.2 454 455.4 459.8 461.4 461.4 462.1 460.3 459.4 459.4 463.5 469.6 472.7 475.6 479 483.8 488.3 493.8 499.5 504.8 510.2 517.2 524.9 531.9 539.5 547.5 555.4 565.9 577.1 585.1 591.9 596.6 599.4 604.3 609.5 615.6 622.2 620.5 620.4 619.7 614 602.9 597.2 591.3 582.5 574.1 571.5 561.5 563 571.2 575.6 585.5 590.7 598.8 606.8 612.3 615.3 618.3 622.5 624.3 619.2 604.6 588.9 574.5 557.3 541.4 527.6 512.2 498.8 488 477.1 462.4 451.3 442.7 440 432.7 428.5 425.2 421.8 417.6 421.6 422.4 418 422.1 433 445.2 458.3 470.7 485.3 499.8 511.5 518.2 519.4 517.2 509.8 500.7 491.9 487.1 479.6 473.5 463.1 453.4 441.5 431.7 421.5 414.7 410.3 405.5 400.3 394.5 385.9 377.1 374 370.2
473.3 474.3 474.4 473.3 471.9 470.3 468.1 465.5 464.2 462.3 458 451.1 441.3 428.3 417.8 405.8 392.5 379.1 370.8 367.6 364.6 359.3 354.4 352.9 357 359.7 360.9 361.1 363.1 367.5 376.9 385.2 388.3 390.9 392.6 393.9 394.5 394.1 391.5 390.2 389.3 387.9 386.7 386 383.9 382 379.3 375.6 370.5 368 364.5 360.5 358.2 356.3 351.9 346.6 343.5 345.3 348.5 352 353.3 354.4 356.6 358.6 361.3 364.8 368.8 374.2 380.9 389 398.3 408.2 416.7 423.2 427.9 433 435.8 437.7 438.9 443.6 448.4 452.5 452.6 449.1 446.9 447 447.6 449 450.4 454.3 458.7 458.9 458.1 456.5 454.8 458.2 461.6 465.5 470.1 474.2 476.4 480.2 485 490.6 495.3 501.1 505.8 510.4 514.4 521.7 528.5 535.7 543.7 553.8 562.3 571 577 579.8 588.2 594.3 601.9 607.6 611.8 613.6 617.5 617.8 619.7 615.3 604.5 595.7 584.4 577.5 569.9 564.4 553.8 564.4 571 582.5 589.5 596.2 603.7 612 616.1 619.1 623.9 625.4 621.5 608.8 591.6 576.6 560.2 545.6 531.3 510.4 496.6 487.3 475.3 465.9 448.1 441.4 432.6 429.3 425.1 420.9 417 411.6 413.6 414.9 410.9 417.6 431.3 444.7 457.6 470 483 498.4 513.6 520.5 519.7 513.8 506.5 499.5 488.8 481.6 472.6 463.1 454 445.2 436.2 426 417.8 412.7 409 404.2 398.6 392.1 380.7 375.5 371.9 369.7
471.8 472.8 472.6 471.4 470.5 469.1 466.6 464.5 460.2 458.8 453 444.9 433.9 420.3 407.4 394.7 382.6 372.5 368.2 362.7 357.4 359.4 361.1 364.8 365.1 365.3 367.7 373 374.5 378.5 389.6 395.8 397.5 400.5 403.3 404.2 403.4 401.2 397.8 396.1 393.9 391.8 390 389.3 386.9 384.7 380.7 377 372.8 369.1 364.4 360.1 357 354.8 352.3 346.9 344.6 343.5 347.5 348.5 349 351.9 355.5 357.9 360.8 364.2 368.9 374.3 380.2 388.2 398.1 407.9 417 422.8 428.3 434 436.4 437.9 439.6 442.6 448.4 453.1 453.9 454.2 444 442.7 443.8 444.4 446 450.5 457.8 456.6 454.5 452.6 454.4 456.8 460.9 464.2 467.5 472.6 474.7 478.1 482 487.2 492.4 497.3 502 506.6 510.3 513.9 519.1 525.3 531.9 539.3 547.6 555.8 563.8 567.2 576.8 584.8 589.6 597 601.6 607.3 612 613.9 618.3 615.7 607 596.8 585.8 577.5 568 559 545.3 558.3 571.3 579.4 587.6 594.6 603.2 612.6 617.4 621.2 626.8 625.8 616.4 606 592.8 577.2 557.5 537.8 523.9 507.4 494.3 482.9 475.8 464 447.2 437.8 429.9 424.1 419.1 416.4 412.9 408.8 404.6 407.5 408.7 418.2 430 442.5 453.6 464.6 483.3 499.5 519.3 527.3 524.1 513.7 507.2 496.3 484.9 477 468.5 456.7 448.2 438.3 429.7 421.8 415.1 409.8 406.3 401.5 395.4 389 379 373 369.1 367.4
465.1 469.7 471.8 471.1 470.2 468.6 466.7 464.3 460.7 452.2 440.1 433.8 422.4 410.5 397.4 384.7 374.8 368.9 363.4 359.3 362.1 365.5 369.2 371.6 371.1 373.1 377.6 384.6 388.1 396 403.2 408.1 410.6 411.5 414.1 413.5 410.8 408.5 404.2 402.8 399.3 396.1 392.9 392.5 390.2 386.6 382.6 378.3 374.4 369.8 363.1 358.5 354.9 352.9 350.2 345.9 342.8 342.3 346.6 346.1 343.5 349.6 353.4 356.8 360.2 362.9 367.8 373.9 379.7 387.1 397.2 406.7 415.6 420.3 425 432.4 435.2 437.7 441.1 443.1 448.2 450.6 448.4 446 442.9 438.6 439.3 439.2 443 445.9 449.3 449.4 448 448.8 452.1 454.6 459.4 462.9 466.2 471.1 473.5 476.4 480.2 484.9 490.2 493.5 498 501.6 505.7 508.2 511.5 517 521.7 528.2 535.9 543.1 549.4 556.7 564.9 574.2 579.8 585.9 593.2 598.1 605.3 608.7 610.4 609.1 603.4 591.4 584.9 578.2 563.2 552.9 541.2 553.3 568.3 577.9 587 594.6 603.1 615.3 618.5 624.1 627.4 625.9 613.8 599.6 585.6 566.2 548.4 532.6 515.6 500.5 491.8 485.2 474.9 460.7 445.5 435.4 427.4 419.9 413.7 412.5 410.5 407.1 398.7 398.5 408.2 417.3 430.2 440.4 451.1 466.4 484.8 502 523.8 531.6 526.7 514.4 506.5 494.2 481.8 469.9 461.8 448.9 443.6 433.2 423.9 417.5 413 408.5 404.7 400.8 396.6 385.7 375.9 369.9 365.3 362.3
463.5 468.9 472.1 472.2 471.2 468.2 466.8 464 459.1 451 439.3 428.9 415.5 397 384.6 376.2 367.4 361.1 361.3 365.4 368.1 372.2 377.9 379.9 381.7 384.9 390.1 397.3 403 411 417.9 422.6 423.5 424.7 425.2 423.6 420.4 416.1 411.3 408.9 405.4 401.7 398.4 396.1 393.2 389.5 385.7 380.3 375.4 370.4 363 354.4 350.5 349.7 348.1 344.6 340.3 339.5 342.5 340.8 341.1 347.1 351 354.6 357.9 362.3 367.7 373.5 380.2 387.8 396.4 406.3 415.3 419.6 424.1 429.1 433.2 438.3 440.5 442.2 444.9 446.5 442.7 438.5 437.8 434 434.6 433.5 436.7 441 441.9 440.8 439.5 446.3 449.1 452.5 456 459.8 463.1 468 472.9 475.8 477.6 482.6 487.1 491.5 494.6 497.9 501 502.6 506.8 509.5 513.4 518.6 524.5 531.5 539.2 548.9 556.6 564.1 571.1 577.3 584.7 591.7 597.5 601.4 603.3 599.4 595.4 587.9 582.4 571.5 558.6 546.5 537.1 552.1 567.7 578.3 587.6 594 602.2 615.6 620.9 623.9 624.7 617.8 609.3 595.1 579.9 560.6 539.6 524.1 510.3 493.2 485.4 478.2 471.1 461.7 446.4 430 421.2 415.8 409.3 406 405.8 402.7 395.3 399.2 408.5 417.1 427.8 439.9 448.4 465.9 484.8 505.5 522.2 530.9 526.1 513.3 499.2 485.4 474.9 465.8 456.9 442.9 432.9 426.6 420.2 414.6 411.6 407.5 404.3 401.8 397.3 384.6 372.6 364.9 359.7 355.1
462.9 467.6 472.4 473.2 471.5 469.7 464.5 461.9 454.9 444.2 433 421.8 406.8 389.8 371.2 365.2 361.3 362.9 365.3 371.4 376.3 381.9 385.7 390.4 393.9 398.3 403.1 410.2 417.8 424.5 429.5 435 435.3 436.8 435.3 432 429.1 423.3 418.5 415.9 411.5 409.1 405.5 401.1 396.6 392.5 387.9 381.8 376.3 370.2 362.1 354.1 349.4 347.2 345.7 344.4 339.8 336.5 337.1 336.7 338.8 344.7 348.5 352.3 356.5 362.3 367.7 373.2 380.9 389.7 395.6 404.4 413 419 424.2 427.1 431.6 437.6 439.5 439.8 440.9 442.6 437.8 431.2 431.3 429.6 428.6 427.7 429.9 432.5 433.5 433.5 438 443.3 446.6 449.8 455 458.2 461.4 466.5 471.7 475.9 477.3 479.8 484.8 488.7 491.6 494.1 496 498 500.6 503.2 506.3 510.9 517.1 523.3 529.6 538 545.2 552.9 559.8 568.4 577.4 584.6 588.8 591.7 593.5 590.8 587.8 583.9 576.6 564.7 552.6 539 536.5 550.9 564.9 577 588.9 600.9 608.1 613.3 618.7 620.3 618.8 614 601.2 585.5 572.6 554.5 535 518.4 503.4 486.3 478.5 470.3 462.5 455.2 445.8 427.1 411.9 409.9 406.7 402.4 401.6 400.4 392.4 398.8 405.3 414.4 425 437.1 446.9 462.2 480.7 499.9 518 524.3 523.6 513 495.6 480.1 468.1 458.9 447.6 438 426.8 421.3 417 412 409.9 406.2 403.8 401.6 397.4 384.1 370 360.1 352.4 348.1
462.4 467 471.8 473.8 471.9 467.7 464.2 456.4 446.5 436.4 423.8 412.9 395.2 381 369.2 362.3 364.2 365.6 369.2 377.7 387.5 391.1 396.2 403.8 405.2 412.8 419.4 424 431.8 437.8 442 444.2 447 448.3 444.9 444 436.4 429.7 425.3 421.6 419 416 411.7 406.4 400.2 395 391 383.9 378.5 369.3 361.5 354.6 348.8 345.2 343.9 342.7 339.4 334.9 334.8 333.6 337.9 342.4 346.5 349.9 355.2 361.4 367.3 373.7 380.5 388.2 395.9 403.8 411.1 417.4 422.9 425.8 430.8 434.6 436.3 438.1 435.8 436.1 432.5 428.3 428.1 425.8 424.8 422.8 422.2 424.4 425.5 428.5 435.1 440.6 446 449.6 453.3 459 462.7 465.7 470.9 475.7 479.5 480.5 483.1 485.9 488.1 490.9 491.7 493 495.3 497.5 500.8 505.2 509.2 514.2 521.9 528.8 535.2 543.3 550.3 559.2 568 574.8 580.7 582.7 585.4 583.2 580.8 577.7 572.2 560.6 546.5 530 536.1 548.3 562.1 574 589.6 604.5 608.1 608.7 609.5 607.4 605.5 598.1 590.7 579.6 564.8 549.5 533.8 515.9 498 483.2 473.1 463.6 455.8 449.6 439.5 426.1 408.7 406 403.6 400.2 399.8 399.9 390.7 397.7 405.3 413.6 423.9 433.1 444 456.6 473.9 490.8 507 515.2 515.6 505.4 488 473.5 457.6 446 436.2 428.5 422 417.9 414.2 410.7 407.7 404.7 403.1 400.3 394.3 386.2 373.8 367.3 358.8 348.2
460.5 465.3 469.9 471.4 470.5 464.6 459.5 449.7 439.3 428.8 414.4 399.9 384.5 370.2 364.7 364 365.3 371.2 374.1 383.6 397.1 403 407 413.4 418.8 425.8 430.9 435.6 444.4 449.7 452.5 457.8 458.4 456.5 453.3 451.7 441.9 435.5 430.9 427.8 425.2 421.9 417.1 411.6 405.2 399 393 386.3 379.8 367.1 359.8 352.7 349.3 346.2 340.1 338.8 338.6 340.9 340.4 334.4 335.1 339.8 343.7 347.7 352.7 358.2 364.6 372.4 379.4 386.6 394.8 400.6 407.7 414.8 420.2 422.3 426.8 429.3 431.5 432 429.5 429.5 428.7 426 424.7 423.7 420.1 419 419.7 420.7 420.5 426.8 432.9 440.4 446.8 450.2 452.9 458.7 464.3 465.4 470.6 475.8 477.6 480.4 483.8 483.7 484.3 485.9 487.3 488.9 490.4 492.1 496.3 499.5 503.6 510 515.1 521 526.4 533.5 541.8 550.1 558.9 566.4 572.6 575.1 576.3 577.2 573.9 571.2 565.3 555.5 540.6 528.3 530.5 545 558.9 574.6 588 600.1 604.6 603.2 603.4 595.9 594.4 590.4 583.7 573.6 560.3 547.2 531.7 512.9 494.9 479.5 470.1 459.9 447.5 442.6 431.5 421 405.7 404.2 402 397.8 393.1 395.1 388.1 397.7 405.4 412.9 422.1 430.4 439.2 451.3 464.6 479.9 494.7 503.7 504 498.7 487 471.9 446.8 432.8 425.6 421.4 417.9 416 413.2 408.8 406.1 403.5 401.1 397.4 391 384.5 373.3 364.5 353.3 346.2
459.8 465 468.2 467.3 466 461.9 456.4 445.1 434.7 419.3 405.7 391.2 378.5 370.5 366.1 365.3 371 377.3 383.8 389.8 404.4 412.1 413.4 422.7 428.2 435.8 441.3 447.5 458.1 461.8 463.3 464.4 463.3 461.8 459.3 454.7 447.7 440.9 437 435.8 433.8 429.2 423.4 415.5 408.5 402.5 395.3 387.6 379.7 365.1 358.1 352.3 350.1 343.1 343.6 342.4 341.8 342.4 340.5 336.3 333.4 336.3 341.5 346.4 351.3 356.2 361.4 368.7 375.7 384.6 393 397.8 403 410.9 414.2 415.9 419.3 421.3 424.8 426 423.7 425.1 425.2 423.1 419.9 415.8 414 413.8 413.1 408.7 419.8 424.4 430 438.6 444.4 448 452.1 458.2 463.8 466.2 467.8 474 477.7 478.9 479.8 479.8 480.5 481.8 483.6 485.4 486.3 488.7 491.1 493.6 498.2 503 509 513.9 518.9 524.5 533.2 540.9 551.1 558.4 564.2 569.2 570 570.1 566.7 564 561.1 549.6 535.5 528.7 525.7 540 553 569.6 580.6 591.5 600.1 597.5 593.5 586.6 587.4 579.9 572 560.6 550.8 537.4 526.7 508.6 491.6 474.9 464.1 457.1 444 433.7 422.8 414.3 401.5 399 397.8 391.7 390 392.1 387.7 393.7 406.3 412.5 419.6 426.8 436.5 446.1 458.2 472.6 487.7 493.9 492.1 486.2 474.9 464.1 442.5 427.2 424.6 419.5 415.8 413.4 410.8 409 405.2 400.5 395.7 391.2 385.4 379.4 370.4 359.6 351.8 347.1
458.5 462.8 463.7 463.4 460.6 455.5 449.1 438.8 427.2 411.3 398 387.3 378.7 369.3 366.3 364.7 377.5 383.2 392.3 397.4 408.6 419.5 422.1 430.5 436.3 441.9 447.7 455.7 460.9 463.4 465.3 465.4 465.5 464.2 461.3 456 448.4 446.1 443.8 443.8 439.8 434.3 428.6 421 412 405 397.9 390 381.9 368.2 358.8 349.2 345.6 344 345.2 344.5 344.2 343.1 341.2 338.2 331.6 334.7 339.5 344.6 349.3 352.7 358.3 365.7 369.7 376.4 385.3 391.9 397.9 403.1 408.4 407.3 411.7 414.2 415.7 417.2 417.8 420.8 422.4 418.1 416.1 410.6 408.3 408.2 405.5 410 416.1 422.9 427 432.7 439.4 443.9 446.7 451.8 459.1 463 468.8 470.4 475.1 477 477.8 478.9 478.8 478.1 478.3 480.5 480.9 483 486.6 489.4 493.8 498.8 503 507.9 513.8 518.6 525.8 533.7 540.5 549.3 554.9 558.7 561.9 561.3 559 557.5 554.8 546.8 530.3 524.4 521 531.5 543 559.6 572.2 582.7 589.8 586.4 577.4 571 570 567.4 562.2 551.4 541.4 528 515.6 502.7 488.5 471.7 459.5 451.8 440.8 431.8 420.4 410.3 398.7 392.8 391.1 387 389.5 391.2 385.7 389.9 402.7 411.2 417.9 425 434.5 443.9 454.6 467.2 480.5 486.1 482.9 474.8 462.7 447.3 434.2 430.2 426.4 421 418.6 416.3 413.4 409.4 405.1 401.7 396.2 389.2 382.3 376.4 368.1 361.3 354.6 346.7
453.3 458.4 459.3 459.1 455.3 446 437.4 428.7 415.6 400.6 389.1 382.4 372.5 367.4 367.3 371.7 386.4 391.1 399.8 408 412.3 423.5 431.8 430.7 440.1 443.6 451 455.8 459.6 462.7 464.6 464.9 463.9 463.2 460.4 454.7 450.3 448.6 448.7 447.2 443.8 438.1 431.1 423.4 415.9 408.7 399.8 391.4 379.1 367.3 358.5 350.3 346.9 345.8 345.9 345.5 345.1 343.9 340.4 335.5 331.1 333.2 336.9 342 346.8 351 354.6 360.8 364.5 369.2 376.6 384.6 392.2 396.7 397.1 398.5 401.2 404 405.3 408.8 410.3 413.6 421.4 416.1 413.3 407.1 405.4 404.2 399.2 405.4 414.7 420.4 426.4 432.1 438.7 443.5 445.6 449.6 453.7 459.3 466.1 468.7 470.5 474 473.5 474.3 475.3 475.9 474.9 474.7 475.6 479.2 482.6 486.9 490.7 494.8 498 503.4 508.8 513.1 520.2 526.6 532.7 539.5 545.3 549.4 552.2 553.1 554.7 558.3 556 542.1 532 522.2 514.1 523.9 534.5 543.7 557.8 569.1 573.4 570.8 562.8 555.6 549.6 546.6 542.8 535.8 528.6 519.7 506.4 496.2 483.7 466 457.7 450.6 439.2 429.4 417.8 408.9 401 391.4 385.6 383.6 389 390.3 385.9 385.4 396.9 407.5 415.6 422.4 431.5 439.4 450.8 463.7 473.5 474.5 468.6 465.3 457.3 446.7 441.1 435.5 429.3 425.8 423.5 419.9 413.7 409.3 405.7 399.6 393 387.5 381.3 372.9 358.7 353.6 348.9 339.8
447.6 452.8 454.9 453.5 446.5 436.6 424 414.4 400.1 389.3 384.2 376.1 368.9 373.2 371.8 374.8 390.9 396.2 406.6 414.9 421.4 428.3 436.7 438.8 441.7 445.6 451.4 455.6 458.4 461.6 463.1 463.2 463.2 462 458.2 454 450.5 449.4 449.5 448.4 444.8 439.8 432.9 425.7 416.5 409.3 400 392.8 382.8 366.8 359 352.2 348.3 347.4 353.1 348.7 345.7 344.3 342 337.2 331.2 331.2 333.7 338.7 343.4 348 352.3 356.5 359.7 363.4 367.2 375.1 383.7 389.9 391.9 391.7 392 390.9 393.8 396.5 399.5 403.9 411.9 409.9 404.4 399.9 402.6 401.6 394.9 402.6 411.9 418.9 426.3 432.5 438.7 444.1 446.1 448.9 451.8 454.1 460.6 464.7 464.1 464.9 467.2 468.1 468.9 469.9 469.6 470.8 471.9 473.4 479.2 483.5 487.1 488.4 493.9 499.4 502.9 508.3 513 519.4 524.2 530 536.3 537.8 542.5 552.4 558.4 563 561.1 553.1 538.4 524 512.4 517.5 524.3 531.2 542.2 548.2 551.1 548.4 545.9 542 537.5 531.1 523.3 517 512.5 506 499.1 489.6 477.1 459.8 451.8 447.3 437.4 425.4 413.9 405.6 400.7 395.3 386.4 381.9 384.4 386 384.1 382.9 392.4 405 415 420.9 428.2 435.5 447.1 460.6 469.4 468.5 466.4 458.4 453.9 448.9 441.3 434 431.4 430.5 426.1 421.5 413.2 409.6 406.6 402.3 396.4 388.1 380.8 373.5 366.1 358.9 353.1 344.4
438.2 441.1 444.4 442.1 433.8 421.7 406 397 390.1 385.5 380.7 371.8 380.2 384.6 377.7 386.7 391 400.9 412.1 421.8 428.9 433.8 439.8 443.2 442.8 447 450.8 453.9 457 460.5 461.7 462.2 460.8 458.8 455.9 451.4 448 446.4 446.3 445.5 441.3 435.3 430.5 424.1 417.3 406.3 407.9 402.3 391.1 372.1 362 355.5 350.8 360.1 361.8 357.6 346.3 342 337.7 334.4 332.5 330.1 330.5 334.6 338.4 344.2 348 352.7 354.3 357.3 361.6 365.5 373.9 380.1 383.5 385.7 385.4 384.1 382.8 383.1 388.6 395.7 400.7 397.8 395.7 394.8 393.9 393.7 387 400.5 409.7 416 422.9 430.7 438 443.3 448 450.7 452 450.7 454.8 454.7 456.3 457.3 458.1 460 461.8 462 463 465.2 467.5 471.3 475.2 479 482.8 485.4 490.2 494.8 498.1 503.1 507 508.9 518.8 527.7 534.7 543.8 550.4 556.3 564 568.2 568.7 557.7 542.5 525.3 513.9 509.5 513.7 521.1 527.1 529.1 533.3 530.3 525 521 519.2 514.8 513.2 508.5 503.3 498.4 492.1 482.3 465.6 454.8 446.9 439.4 431.9 420.8 408.8 401.8 397.9 393.8 387.1 377.9 379.1 382.5 381.9 379.2 385.7 401.3 412.4 419.9 426.2 433.6 444.6 459.2 471.8 475.7 463 457.5 454.2 451.5 449.6 437.8 431.7 434.4 435 428.5 426.5 412.9 410.4 404.3 395.5 387.8 380.4 374.1 367.8 360.7 355.4 348.5
429.3 429.4 429.5 424.5 419.4 406.9 396.6 388.6 383.5 380.4 382.7 386.7 388.8 389.1 384.3 395.6 399.1 405.1 415.1 425 429.6 437.6 440.1 444.7 446.5 446.3 449.5 451.8 455 457.3 458.5 458.6 458.6 457.8 454.3 449.6 444.1 441.4 438.2 436.4 435 432.9 427 423.2 418.7 413.1 411.3 409.4 387 371.5 363.2 357.7 356.8 365.4 365.1 359.4 345.5 339.1 343 340.2 337.2 332.8 329.6 330.7 334.7 339.4 342.8 346.3 348.9 351.3 353.8 359.5 364.5 371.5 376.2 379 377.7 375.9 375.8 376.2 379.2 383.5 388 384 386.3 386.9 386.9 386.6 389 397.4 404.9 414.8 420.9 428.1 433.9 438.8 446.3 450 447.6 446.8 445.3 447.5 448.6 450.2 450.9 453 454.4 455.9 457.8 459.4 461.9 465.6 469.1 473.2 473.8 479.5 485 488.9 491.2 490.9 504.7 514.4 523.6 531.2 537.6 545.8 554.6 560.4 571.2 577.5 575.7 563.8 546.1 529.6 516.6 505.9 504.6 506.4 510.2 513.3 513.5 512 504.9 501.7 502.4 501.5 498.6 492.8 485.1 479.5 475.6 468.4 457.8 450.4 439.5 430.2 421.4 411.2 404.1 398.7 393.2 389.8 382.4 375.2 374.4 377.1 377.1 377.5 383.7 396.6 407.8 416.8 423.9 433.6 445.6 458.5 471.6 472.7 468.7 460.2 463.2 456.7 445.6 445.1 440.6 440.6 435.8 430.5 429.5 419.9 414.2 405.6 398.6 389.1 380.9 374 367.6 362.4 357 346.8
417.9 416.6 414.1 409.8 404.4 395.6 386.6 382.1 381.4 386.9 389.6 392.1 392.3 392.7 393.7 401.3 405.9 410.3 421.8 427.3 429.5 438.9 442.7 446.2 448.1 448.6 448.3 450.8 453.1 455.3 455.4 456.2 456.4 455.4 450.9 445.2 442.3 439.2 437.5 434.5 433.3 431.2 427.4 423.4 418.1 419.2 410.7 394.2 379.7 369 362.1 360.4 360.8 367.6 365.1 358.3 346.7 349.7 357.5 354.5 346.5 336.9 331.6 329.1 332 335.2 337.7 339.9 342.5 345.3 348.3 352.5 356.6 363.6 365.9 368.7 371 370.8 371 369.5 371 374 379.4 378.1 377.9 378.5 377.7 379.7 385.5 392.4 401.6 409.7 418.5 422.8 428.3 433.5 439.6 442.6 442.8 443.8 441.9 440.8 441 443.5 445.3 447.6 450.3 452.1 453.3 453.2 458.2 459.6 463.4 466.7 469.5 474.1 478.3 475.8 485.8 497.6 506.8 516.4 525.8 533.9 540.1 548 557.4 568.6 581.1 586.4 583 567.5 552.7 533.6 518.6 508.1 499.3 495.4 496.8 495.9 498 495.1 492.3 489 486.1 486.3 483.6 479.7 475.6 469.2 459.7 454.4 449.3 437.8 427.7 419.2 410.7 404.2 399.6 393.8 388.8 382.5 377 373.9 373.4 374.1 373.7 376.1 380.3 390.6 403.7 415.5 423.4 433.8 445.1 462.1 475.2 476.3 478.2 474.9 472.7 459.6 442 440.3 439.8 442.1 435.7 434.6 427.3 422.8 419 411.1 401.5 391.9 381.3 374.5 368.5 363.4 356.8 348.2
412.3 409.2 405.8 400 394.9 387.4 382.4 385.7 387.4 390.9 393.2 395.4 396.4 396.4 399.8 407 410.2 415.5 422.2 430.7 436.3 441.4 445.6 449.3 450.1 450.9 451.3 451.3 452.8 453.5 451.5 451.8 453.1 450.7 446.6 442 441 439.7 437.4 434.5 431.9 430.2 428.6 425.2 422.5 418.1 406.9 389.8 387.9 378.4 363.9 362.4 363.3 368.6 364.5 356.5 354.2 364 365.6 360.7 354 337.9 331.7 328.5 330.4 331.8 333.3 334.1 336.1 340.1 343.8 348 351.1 356.1 360.1 361.9 364.9 365.8 366.4 366.3 364.6 366 369.6 372.4 371.9 371.3 368.9 376.4 381.5 387.8 398.9 406.8 412.4 418.6 423 428.7 429.7 435.9 437.9 437.2 435.1 435 437.3 438.4 440.9 440.8 444 446.8 447.8 450.7 453.3 455 457.3 459.7 463.8 468.7 468.4 477.3 487.7 498 507.8 517.7 527.4 534.9 541.7 551.3 563 573.8 586.7 591.2 587.2 574.9 564.3 542.3 522.7 508.1 498 491.7 487.7 487.2 486.2 483.7 479.7 475.6 472.2 469.9 467.5 464.2 460.4 457.1 449.9 443 435.4 423.6 415 405.6 398.8 392.6 385.9 382.3 379.3 376.3 374.6 372.9 371.2 372.2 372.3 375.4 378.2 387 400.5 413.4 426.4 440.3 452.2 470.4 481.9 489 490.4 493.2 482.2 465.7 449.9 435.2 434.8 437 438.3 435.6 427.9 427.2 421.7 413.3 403.7 395 383 375.5 369.7 362.8 355.3 347.1
406.1 402.6 397.4 392.5 385.7 382.6 387.2 388.1 391.3 395 396 397.5 400.4 401.5 404.9 412 417.4 425.2 432.6 437.3 440.3 443.6 448.9 450.8 452.3 453.2 453.8 453.6 453.7 453.8 453.3 452.4 448.3 447 442.3 440.4 439.2 439 436.7 433.8 431.1 429.9 427.8 425.4 420.8 412.9 402.4 394.5 396.3 388.3 372 365 367.3 368.9 364.1 365.6 365 371.1 369.2 364.1 357.9 343 331.8 328.5 328.3 329.5 331 332.1 333.6 337.4 341.2 343.2 346.1 349.4 353.1 356.2 359.1 360.3 361.3 362.1 361.3 359.2 362.2 365.4 365.3 363.8 367.1 370.7 376.1 384 396.6 403.8 409.8 413.5 418.4 424.5 424.8 426.5 429.4 430.8 431.2 431.6 434 433.8 433.4 434.9 438.7 441.5 442.8 446.5 448.2 449.1 451 451.8 457.5 456.8 467.3 477 488.1 497.4 507.8 517.4 527.6 535.9 544.5 556.9 567.7 579 590.3 593.8 588.9 576.9 570.8 549.1 528.6 513.7 502.1 494.8 489.8 485.4 483.1 476.6 472.3 469.8 464.2 461.4 459 455.4 452.7 446.9 439.3 432.2 423.7 417.2 408.9 399.6 393.8 384.3 381.2 379.3 377 375 373.5 371.5 370.2 370.6 371.8 373.5 375.5 385.3 399.1 413.3 429.5 443.2 453.4 472.3 494.1 506.7 514.2 500.6 483.5 471.6 461.9 456.9 437.6 431.4 432.3 432.4 429 427.9 422.2 412.1 404.2 396.8 388.3 374.7 368.5 364 357 349.2
399.8 396.3 388.8 385.9 382.9 385.7 388.1 391.8 396.6 398.7 400.1 400.8 403.8 406.8 413.5 418.1 426 432.1 438.1 442.9 445.7 447.8 450.5 452.6 453.8 455.7 455.6 454.3 455.9 455.8 455.2 453.9 450.8 450.4 447.6 442.1 438.9 437.3 434.8 432.2 430.7 428.9 426.9 424.5 419.4 411.5 400.4 401.3 399.6 393.8 382.9 373.1 371 368.1 370.4 372.9 373.2 375.1 372.3 367.9 360.5 342.1 335.5 333.6 329.5 326.6 329.5 330.8 332.8 336.6 338.8 338.5 340.3 342.4 344.9 350 352 354 356.5 357.5 357.4 355.5 355.1 356.4 359.3 359.3 361.3 363.1 368 376.7 390.8 399 402.5 410.4 414.3 418.1 421.1 422.1 421.6 424 426.5 426.6 429.5 430 430.6 431.8 434.7 436.8 439.1 441.3 443.5 445.2 444.9 448.1 450.9 457.5 466.6 475.3 486.3 497 505.9 515.9 525.5 536.5 547.4 559.7 570.2 582 593.6 597 590.6 580.6 563.7 548.6 538.2 523.4 512.6 505.5 498.2 494 489.9 487.8 483.6 475.2 469.5 463.5 457.5 446.6 441.5 437 432.3 424.2 417.1 410.8 404.3 396.5 387.1 393.1 382.9 377.3 374.6 373.1 371.4 370.5 369.5 370 370.8 372.3 374.7 385.5 398.8 414.7 429.4 444.1 467.7 489.7 514.8 524.2 518.6 503.7 489.4 476.9 463 457.3 444.8 430.9 430.8 431.1 431.1 427.2 421.7 412.5 403.5 396.6 388 378.9 369.4 363.1 357.9 351.9
393.2 387.9 383.5 386.6 387.7 389.7 392.1 395.1 399 401.5 403.5 405.6 407.2 415.3 420.5 426.1 432.8 439.4 443.6 447.2 449.1 450.6 452.5 454.8 456.2 457.8 458.2 458.6 458.7 457.8 456.8 454.9 452.6 452.3 450.5 446.9 444 436.9 433.2 431.1 427.9 427.2 424.8 420.7 416.7 409.6 401.8 403 402.3 397.3 388.3 380 373.2 372.6 374.6 377.1 378.5 379.3 376.9 372.2 358.1 350.4 346.8 344.4 337 326.9 328.1 330 333.9 336.3 335.7 334.6 334.8 335.6 337 341.2 345.5 347.7 350.2 353 353.2 352 350.2 351.7 350.9 354.9 355.1 357.4 361.3 371.1 383.1 394.6 396.6 402.7 410.5 412.4 416.1 418.4 420.1 419.8 421 422.4 424.3 424.3 426.4 428.2 428.9 429.3 434.6 436.5 437.7 439.8 441 442.6 448.5 456.9 463.7 473.2 483.5 494.4 503.4 511.9 522.8 536.4 549.4 559.4 570.7 581.1 592.5 595.5 592.6 587.7 567.2 557.2 547.4 539.2 523.4 516.9 508.1 503.7 498.5 492 486.8 483.6 473.3 469.2 462.3 453 443.9 436.1 423.8 416.6 408 402.1 397.5 395.1 399 397.5 393.2 383.2 376.3 373.1 371.3 369.7 368.3 368.4 368.5 371.1 372.1 383.6 399.6 418.3 437.4 458.3 486.9 505.6 522.5 532.4 519 504.3 493.4 480.7 473.3 458.7 444.5 439 430.9 431.2 432.5 428 421 412.9 406.4 398.4 388.5 381 373.8 363.8 357.7 351.4
389.4 384.9 384.9 386.1 393.3 392.6 394.4 397.2 400.2 403 406.1 409.7 416.5 422.8 427.6 433 439.9 445.3 449.8 452.5 453.2 453.8 455.7 459.1 460.9 461.4 462.6 462.8 461.4 458.8 457.4 456.4 455.9 454.9 453.8 453.8 450.9 444.5 435.9 434 432.1 429.6 427.3 424.5 420.2 414 409 407.2 403.3 398.1 390.2 382.7 376 380 378.8 382.1 382.1 381.9 379.5 374.4 368.6 359.3 355.4 351.1 341.4 328.8 326.7 331.2 335.1 334.8 333.2 330.7 330.1 330.6 330.6 332.9 336.3 341.2 343.6 345.7 347.5 347.1 346.2 346.8 345.8 350 350.9 352.5 356.7 365.9 376.6 386.4 394.1 398.3 405.9 407.7 411.7 415.2 416.5 415.4 415.7 418.3 418.2 419.3 420.6 422.1 422.8 425.8 427.9 430.9 432.4 434.9 435.9 435.9 446.9 454.9 461.6 469.6 481.1 490.9 499.7 507.2 519.1 533.3 546.6 556.3 566.7 574.9 584.1 589.9 591.3 587.7 581.1 567.7 557.5 549.6 540.7 529 520.3 513.9 507 499.8 495.4 490.2 483.5 474.1 468.2 457.9 446.9 439.1 431 420.1 414.7 409.7 404.6 403.5 401.9 398.8 394.6 385 376.2 373.4 371.5 370 368.4 366.3 366.6 367.6 370.3 385 402.8 423.4 444.4 468.3 491.7 516.6 530.3 532.4 521.1 503.9 490.5 482.4 471.9 456.7 444.4 438.1 430.9 430.8 431.1 427.5 419.1 412.8 406.8 398.7 390.1 381.5 371.8 364.2 356.3 350.5
385.2 385.4 386.5 387.1 393.4 397 398.5 400.3 402.9 405.9 411 416 423.5 429.5 435.2 441.8 446.3 450.9 454.2 455.5 456.7 459.7 460.5 461.9 462.3 463.3 465.4 465.7 464.8 462.6 461.2 460.3 459.3 458 457.5 455.7 453 449.4 439.9 436.4 433.4 430.6 428.3 426.1 422.4 416.8 412.5 408.7 401.5 396.9 392.9 385.4 385.4 388.6 386.7 386 384.3 382.8 379.9 375.8 370.7 364.2 359.8 354.1 341.5 331 326.3 330.3 332.7 331.8 329.9 328.1 325.7 322.1 323 323.9 328.3 331.7 337.4 338.5 341.3 341.8 342.3 341.9 345.2 346.2 347.3 349.3 352.3 359 371.2 381.4 389.7 394.8 401.3 406.7 409.1 409.2 409.2 410.9 409.9 413.6 414.4 412.1 413.8 415.3 416.5 419.1 421.1 424.6 426.9 429.9 429.6 435.9 443.4 449.2 455.7 466.9 477.9 487.2 494.6 504.1 514 526.8 541 552.4 561 568.5 574.1 580.4 583.6 584.2 579.9 571.5 564 557.2 548.7 542.2 539.3 530.5 524.8 518.4 510.4 507.6 500.3 477.1 470.2 460.8 451.3 442.5 434.3 427.2 420.6 415.4 410.2 406.8 404.5 401.6 397 390.5 380.5 374.1 372.4 370.4 370 367.3 366.4 367.3 370 388.1 406.6 428.6 452.2 475.4 500.2 520.7 535 533.7 517.2 502.9 484.3 478.8 469 455 440.4 439.6 430.3 430.1 428.8 424.2 417.8 412.5 405.9 397.7 387.8 377.4 368.4 362.6 355.7 349.9
385.2 385.1 388.4 390.3 391.9 401.1 402.7 403.3 407.1 411.8 418.9 424.2 431 436.6 441.5 448.3 451.7 455 458.9 459.3 460.7 463.5 464.7 465.3 465.5 466.1 467.4 468.9 468.3 466.5 463.8 464.4 463 462.3 460.2 457.5 454.6 451.3 447.9 443 435 432.4 430.3 427.3 424 418.4 413.4 406.7 405.1 401.2 397.5 392.2 390 392.6 390.4 388.5 386 383 379.4 375.5 371.7 366.7 362.1 356.1 343.3 336.2 328.2 326.5 328.9 328.4 327.1 325.8 325.1 325.4 323.8 321.2 321.7 325.8 330.5 333.9 335.7 337.7 337.9 338.2 341.7 342.7 343.6 344.7 347.5 355.2 364.8 375.4 384.2 391.7 396.1 403 405.8 404.6 405.8 406.4 405.6 406.1 409 408.3 407 409.6 411.8 414.2 416.1 419.8 422.7 424.6 425.4 433.1 439.5 445.2 452.7 464.7 473.8 482.6 489.7 499.6 509.4 520 534.6 545.6 552.3 560.4 566.4 570.4 573.4 575.1 575.4 571.2 565.3 564 555 548.4 547.1 543.3 536.2 531.2 524.5 510.9 499.1 485.5 472.1 467.9 460.8 452.6 442.4 435 428.4 422.9 416.9 410.8 408.4 405.5 401.4 395.6 388.1 379.9 374.4 371.7 373 371.4 365.7 364.5 368.3 387.4 406.5 428.9 453.6 479.3 498.7 521.1 533.3 528.9 512 494.5 478.5 473.4 464.1 452.8 437.7 432.7 429.1 428 425.9 420.8 417.3 411.5 404.4 396.2 384.5 374.5 367.1 359.8 354.2 348.8
385.9 390.2 392.3 393.3 395.5 402 406.3 409.9 415.3 420.6 425.1 430.8 437.1 442.9 448.4 453.4 456.8 459.9 461.6 463.2 464.4 467.6 468.6 468.8 470.5 471.2 472.2 472.1 472.8 471.3 469.7 467.6 466.1 464.2 461.8 458.7 455.5 452.4 448.3 444.5 438.3 435.1 432.5 428.2 424.2 420 416 412.8 410.5 409.2 401.6 398.6 396.1 394.2 393.2 390.5 387.8 384.4 380.3 376.4 372.4 366.7 361.2 353.9 346.9 345.4 337.2 330.6 325.2 324.9 324.8 324.1 328.3 329.5 327.3 321 320.5 323.2 325 328.9 332.2 333.2 334.5 336.9 338.7 339.3 341.2 342.9 344.7 349.4 358.4 369.1 375.9 383.8 391 394.8 401.1 402.6 403.7 402.4 400.1 400.9 401.4 401.8 402.4 404.4 406.3 408.6 412.2 415.4 417.6 420 424.6 430.6 435.8 441.5 452.7 460.2 470 477.9 486.7 495.3 505.2 515.7 527.4 538.2 544.9 550.9 556.1 559 562.8 565.7 568.5 568.2 560.8 561.7 561.4 552.5 546.1 544.3 543.6 532.4 523.5 515.1 504.2 492.1 474.8 470 462.2 455.9 448.1 443 437.2 432.5 422.1 416.6 413 410.5 406.6 399.9 394.1 385.8 376.3 373.3 373.3 374.1 371.8 365.6 367.9 386.7 406.2 428.6 450.5 477.3 497.1 514.8 523.3 518.7 504.5 490.6 473.9 467.3 459.9 448.9 439.1 430.8 428.2 424.7 421.6 419.1 415.5 410.2 402.4 394.1 383.4 372.3 364.5 358.2 352.4 347.3
385.8 394.7 396.3 396.3 401.9 406.4 406.6 412.9 420.8 424.6 427.6 433.4 440.6 446.1 450.9 455.8 460.2 463.1 465.7 468.3 470.6 470.6 472.4 473.2 474.9 476.1 476.4 477.3 477.5 475.7 474.1 471.2 468.7 466 463.2 460.2 456.3 453.8 449.8 445.4 441.4 437.3 432.6 429.6 425.5 419.4 418.1 416.7 415.2 414.9 411.4 407.4 400 397.5 395.5 392.8 389.2 385.5 382.2 378.3 375.4 371 365.2 358.5 354.4 352.7 348.4 337.4 331.3 329.7 329.8 330.5 330 328.7 325.9 319.4 319.6 322.4 323.5 325.3 327.3 330.8 329.8 334.1 335.4 336.6 339 341.7 343.6 346.6 354.1 360.3 367.4 373.6 383.1 388 392.2 397.6 399.5 398 395.8 396.4 395.2 396.4 397.4 400.7 402.4 403.7 406.9 409.3 412 418.9 423.6 427.9 432.6 439.8 449.5 456.6 465.4 475.1 482.8 491.4 501.6 510.5 522.1 533.1 539 543.3 547.7 552.7 553.6 555 557.2 556.7 557.3 553.3 554.1 551.6 549.5 545.8 539.8 528.9 518.7 509.2 500.7 491.5 485.4 476.8 470.6 462.1 454.4 449.3 447.1 438.3 430 425.6 420.2 417 415.5 406.7 397.4 388.7 378.7 372.4 373 375.3 374.5 365.5 369.6 387.3 403.6 424 446.5 476.1 495.5 513.4 514.8 511.1 498.6 482.7 467.7 459.8 451.8 443 436 428.8 425.1 424.1 420.9 418.2 412.3 405.6 399.1 393.2 383.3 373.1 359.6 354.3 349.5 345.8
391.4 395.8 397.9 399.2 407.7 413.2 413.4 412.5 420.6 426.3 429.8 434.2 441.8 447.6 452.1 456 460.2 464.7 467.4 469.9 472.9 475.1 476.4 478 479 480.2 480.4 481.1 481.2 479.3 478.7 475.6 471.8 469.3 465.9 462.1 458.5 454.9 449.7 445.8 441.7 437.7 433.2 427.3 426.4 424.4 421.4 422.2 419.8 420.2 418.8 414.7 402.4 399.4 397.1 394.6 391.2 387.1 384.6 382.5 378.5 373.4 368.9 364.4 360 356.9 352.9 343.1 335.9 334.2 333 331.2 329.3 327 321.3 317.1 317.9 321.4 322.6 322.9 325.6 327.3 326.5 330.9 331.5 334.3 336.8 338.5 341.2 344.5 350.3 354.7 361.4 367.6 374.6 383.1 387.9 390 392.7 391.3 390.4 388.7 390.3 391.5 395 396.6 399 399.6 401.1 407.3 412.6 417.6 421.1 425.7 431.8 437.3 447.6 455.3 462.4 473.7 480.3 489 496.6 506.7 518.6 528.3 532.9 535.2 538.5 544.3 546.7 547.1 548.7 544.3 547.2 545.9 545.7 546.1 544.5 539.1 532.8 526.2 516 504.8 498.6 492.6 489 487.6 480.4 476 466.1 458.5 453.2 450.3 441.4 437.2 433.2 428.8 421 411.1 400.7 392.1 376.3 371.1 371.1 374.7 371.3 364.2 368.8 386.5 403.6 424.5 446.2 472.4 496.9 506.9 506.7 500.4 493.7 476.8 462.7 452.8 445.1 438.4 431.5 425.5 422.4 421.2 419.6 416.3 412.4 406.5 398.5 391.4 384.8 378.5 365.9 355.1 351.9 349.4
392.5 398.9 402.3 400.7 408.9 415.6 416.5 419.3 420.5 429.5 432.6 436.6 441 448.9 452.7 457.6 462.3 466.1 468.4 472.2 474.8 478.1 480.1 481 482.3 483.1 484.1 484.8 485.3 483.6 482.9 480.8 477.2 473.9 470.3 466.5 461.8 456.9 451.3 445.7 439.9 436.6 431.9 431.2 429.4 427.3 423.9 425.5 424.4 423.3 423.7 420.1 411.6 404.1 399.3 396.6 393.2 390.8 388.4 385.4 381.3 375.5 371.6 366.7 363.3 359.7 355.1 345.5 339.3 335.7 335.4 332.2 327.5 324.2 318.5 315.7 317.1 319.6 320.4 320.1 323.2 324.9 324.2 326.5 328.9 331.7 333.6 336 338.4 340.7 345.6 349.5 353 361.1 369.6 375.2 380.4 383.6 386.6 383.9 384.6 383.9 385.4 388.4 391.4 392.9 394.8 394.4 400.3 405.3 410.1 414.5 418.9 423.4 429.9 435.5 447.1 455.3 462.2 471.1 479.5 487.1 494 501.7 513.4 520.6 525.8 528.5 531.2 534.9 539.6 540.3 539.8 538.1 537.8 537.9 535.9 531.1 530.3 530.5 524.9 520.3 512.8 507.2 500.9 495.1 492.4 490.2 488 485 478.1 466.9 463.8 458.4 453.7 449.1 443.7 435.3 425.2 414 401.5 386.7 376.4 370.5 370.1 371.9 365.4 361.1 368.7 386 401.9 422.9 445.3 462.8 488.3 498.1 499.3 496 486 469.4 457.3 446.4 438.7 434.4 429.3 423 419.8 418 417.3 413.3 409.4 403.3 396.2 390.4 383.9 378.4 370.6 358.6 356.2 354.2
395.7 400.5 407.7 403.4 409.4 415.7 418.6 423.1 427.1 429.1 434.9 438.2 442.2 448.8 454.4 459.6 461.2 465.4 469.4 472.8 476.5 479.5 481.8 483.9 484 485.6 487.1 487.7 488.5 486.9 486.3 484.4 482.4 478.7 475.3 471.3 466.6 460.6 454.5 446.4 439.1 435.5 434.9 433.5 431.3 428.9 428.7 428.4 427.5 428.7 428.3 425.8 418.6 414.2 407.1 400.1 396.2 394.5 392.5 389 384.6 378.2 373.5 369.5 364.9 360.6 356 347.2 340.3 338.8 336.3 332.5 326.5 321.4 317.9 314 316.3 317.3 318 318 319.5 321 321.8 323.6 325.7 328.6 330.9 333.2 334.9 336.9 340.3 345 349.7 355.4 363.2 370.5 373.1 377.6 378.9 379.5 380.6 382.2 383.7 386.5 387.9 389.4 389.2 394.9 398.1 401.9 407.3 413.4 417 421.7 426.7 434.1 444.1 453.8 461.4 470.6 478.1 485.7 490.9 498.8 506.1 514.1 519.4 522.3 524 529.8 534.9 535.3 535.5 528.7 527.8 529 525.1 522 519.9 520.1 518 515.5 512 506.8 501.5 498.3 494.8 492.8 490.8 490.2 487.2 481.2 472.2 468.7 464.8 457.8 450.8 440.5 428.2 416.4 401 386.8 377.1 369.7 368 367.5 364 360.4 369.7 384.7 400.8 417.1 438.1 458.9 475.1 490 493 487.8 477.5 463.7 452 442.6 435.4 431.8 425.3 418.5 414.2 412.2 410.8 409 405.6 399.8 394 387.1 381.8 375.7 370.7 364 357.7 355.4
396 402.4 411.8 409.6 413.1 417.9 423 428.1 431.1 428.5 435.6 439.6 443.1 449.3 455.4 459.2 463.4 466.9 471.3 474.1 477.5 480.5 482.8 485.2 487.2 488.8 490.4 491 491.3 490.3 490.7 489.2 487.2 483.8 479.5 475.7 469.5 462.8 455.6 446.6 440.4 435.4 438.1 436.4 433.3 431.7 430.5 430.3 431.8 433.2 433.4 431.7 423.9 418.8 413.3 406.2 398.8 398.7 395.7 392.3 387.8 381.1 375.6 370.9 366.1 360.8 356.4 348.6 343.5 340.2 336.1 332 325.6 319.3 317 314.5 314 315.9 316.4 316.5 318 318.7 320.4 321.4 322.9 325.6 328.3 331 333.1 335.7 337.7 341.5 346.7 351.5 357.2 363.1 368.6 370.9 373.2 375.7 377.4 379.2 381.5 384.1 384.4 386.2 387.7 392.3 396.9 402.2 407.7 411.9 416.4 420.4 426.2 432.9 442.9 451 460.8 469.6 476.4 482.4 488.3 496.6 502 509 513.8 517.7 517.4 523.1 528.1 530.2 530.4 525.8 519.2 517.1 514.4 513.1 513.1 515.2 513.2 511.2 508.7 506.3 505.1 503.7 500.9 496.9 495.4 492.9 490.1 485.1 482.2 476.5 473.7 468.3 458.8 443.6 428.9 414.4 397.9 386.3 378 368.8 367.6 366.4 364.1 359.9 371.2 384.4 399.8 414.5 431.8 456.5 471.5 481.7 485.8 480.5 471.9 455.9 453.5 440.9 434.2 426.9 423.3 418 411.6 407 406.2 404.8 401.7 395.3 390.7 385 379.4 375 370.6 363.8 359.2 355.4
401.4 406.4 413.3 413.5 417 423.5 430.8 434.2 436.3 434.9 434.3 440.3 444.8 449.4 454.9 459.2 463.1 467.8 471.5 474.6 478 481.7 484 486.4 489.8 490.9 493.2 494 493.7 493.3 493.5 493 491.3 487.9 484.4 478.4 471.7 463.9 457.3 449.9 443.2 438.5 441.7 442.6 439.5 435.3 434.7 434.9 436 436.9 437.4 438.1 432.6 425.5 420.1 412.1 404.1 401.4 399.1 395.4 390.9 383.8 377.7 373.3 366.5 361.9 356.3 349.8 344.5 340.9 336.8 331.9 325.4 319.1 316 314.2 314.1 314.6 314.5 315.1 316.5 316.9 317.7 320.7 320.5 322.5 324.7 328.8 332.3 334.6 337 340.5 345 349.3 352.4 357.3 362.6 366.4 368.7 370.9 372.3 376.1 377.7 378.5 379.7 378.7 387.8 391.4 396.8 401.8 406.5 410.6 414.5 418.8 423.9 431.1 442.5 450.3 460.1 467.9 473.1 478.9 485.8 493.8 499.6 503.5 505.7 511 511 515.9 520.6 522.4 523.6 520.4 515.8 507.6 508.8 507.6 507.6 510.8 511.2 507.6 506.4 504.9 503 502.7 501.1 500.9 498.6 495.3 492 487.1 486.5 485.7 481.8 475.4 463.2 447.5 433.2 415.5 397.8 387.7 374.7 367.9 366.7 365.9 364.8 359.1 371.3 384.1 399.8 419.8 440.9 457.9 468.5 475.8 477 472.4 463.8 456.1 450.9 444.1 433.8 427.5 421 415.3 409.8 404.7 399.3 398.1 395.6 391.2 386.2 381.4 376.3 372 369.5 362.8 357.4 352.9
407.2 413.4 417.9 416.9 420.5 430.1 434.3 438.6 438.5 438.4 440.8 442.3 445.8 450.1 455.3 458.6 462.8 467.8 473.1 476.9 480.9 483.5 486.2 488.8 491 492.9 495.2 496.1 495.6 496 495.7 496.6 494.5 491.8 489.1 483.1 475.8 467.7 460.6 453.2 446.7 446.4 449.3 448.2 446.5 444.7 447.3 445 444.8 446.2 440.2 438.8 437.1 433.6 426.2 418 410.7 405.8 402.7 398.8 394.7 389.1 381.5 375.5 368.4 363 357.7 351.8 348.8 344.3 339.7 333.5 327.7 321.4 316.5 314.6 313.6 313.7 314 314.3 315.3 315.5 315.9 318.2 318.7 319.8 322.9 325.6 330.5 332.2 334.3 338.1 342.9 346.2 349.8 354.4 358 361.2 363.4 365.4 368.8 370.9 372.5 373.5 373.5 381.4 386.1 389.6 395 400.6 403.9 408.4 412.1 415.2 421.3 428 440.6 449.9 459.1 468.1 473 477.8 484.7 492.4 496.9 498.2 499.3 503.4 505.5 510.9 515.3 517.1 514.9 513.6 512.5 509.9 503 504.6 503.9 504.5 506.5 503.5 502 502.5 502.7 501.4 499.1 497.5 497 495.3 493.2 490 489.7 488.5 484.6 473.4 465.5 451.1 435.2 413.4 398.3 384.9 371 366.8 365.2 363.6 360 360.5 371.6 383.5 402.4 426.2 446.4 457.1 466.5 476.4 480.5 479.3 470.2 455.3 451.7 442 431.6 424.4 418.8 410.8 402.9 398.2 393.4 391.4 388.4 385.8 380.5 375.3 371.4 368.2 365.7 362.3 358.6 353
408.3 415.5 419.7 418.8 423.3 432.8 436.6 438.8 441 441.9 443.2 444.5 446.7 451.3 456.9 462.1 465.8 469.6 473.6 479.2 483.2 486.1 488.3 490.2 492.8 493.9 496.1 497.6 498.7 499 499.5 500.1 498.3 496 491.8 484.9 478.9 471.6 464.5 457 450.7 452.3 454.6 456 456 451.9 449.7 448.5 452.6 452.2 444.6 441.1 440.8 440 434.3 425.5 416.7 411 406.6 402 398.3 391.5 385.3 376.9 369 362.3 359.7 358.1 353.6 346.7 341.1 334.6 327.9 322.8 319.2 315.8 313.8 313.4 313.1 313.8 314.2 314.8 314.5 315.9 316.3 318 320.3 323.6 328.8 330.6 332.2 335.9 340 343.9 348 352.6 354.8 357.2 358.1 361.4 364.6 366.6 368.2 368.7 376.3 380.1 383.7 388.4 392.9 398 401.6 405.6 408.2 411.8 416.5 425 438.6 449.7 459.3 466.4 471.7 478.2 484.6 487.9 490.1 492.1 494.7 496.1 501.2 503.9 507.7 507.7 510.3 507 507.3 507.1 502.7 498.9 501.1 502.3 502.9 501.2 497.9 497.7 498.5 499.1 497 495.7 494.1 492.1 491.9 491.8 491.3 487.6 477.9 472.5 467.2 452.4 431.7 411 393 381.3 372.4 366.2 366.2 366 359.7 360.3 372.7 391.8 416.7 431.7 446.7 459.5 466 468.6 480.3 483.3 469.9 458 449.1 442.5 432.6 424.1 413.4 404.8 398.3 392.9 388.3 385.2 384.3 379.8 375.7 371 368.7 366.5 363 360.7 357.8 353.2
408.7 415.4 420.3 420.6 427 435.2 438.2 440.5 444.3 445 446.3 448.9 450.3 455.4 458.1 465.6 469.8 472.4 476.8 481.5 485.2 487.7 490.2 492.2 493.5 495.3 496.9 498.9 500.1 501.5 502.5 502.3 502.3 499.8 494.6 489.2 481.3 474.5 466.9 457.2 461.2 459.4 456.8 457.5 456.8 457.2 453.3 450.5 454.1 457.5 451.7 444.9 443.3 442.1 437.9 431.7 424.9 416 410.7 405.8 401.6 394.7 387.6 380.9 370 370.1 365.6 362.3 357.3 350 343.8 338.4 333.8 329 321.4 318.3 314.6 312.6 312 312.9 313.1 312.4 312.4 313.4 315.5 316.4 318.6 321.8 326 327.5 330.1 334.1 337.5 340.9 344.4 349.9 350.6 350.6 353.8 356.2 360.4 363 364.7 368.4 374.5 379.1 384 387.7 392.1 396.2 399.5 402.6 404.8 407.8 412.4 422 436.1 447.9 459.1 466.9 473.2 478.4 479.7 482.6 483.8 484.6 485.5 490.7 492.7 495.8 498.3 501.1 503.1 501.9 502 504.3 499.3 496.7 498 501.1 499.3 498 495.2 495.2 495.3 495.4 494.9 493.5 492 490 488.3 487.5 487.6 484.4 478.1 470.4 462 443.1 428 410 391.2 379.3 368.4 367.8 367.6 367.7 360.4 360 372.3 401.6 425.7 433.9 451.3 457.4 458.1 460.9 473 481.5 471.2 461.5 441.1 430.8 422.2 413.4 406.9 400.6 394.6 390.9 386 380.5 377.4 375.3 372.7 370.5 368.1 364.9 361.1 358.5 358.3 353.1
409.7 415.3 425.5 425.2 429.4 436.1 441.7 443.3 446.6 448.7 449.2 453.3 454.5 459.9 463.9 467.9 471.5 474.3 478.8 483.7 486.5 488.5 490.9 493.6 495 496.8 498.1 500.2 501.8 503.6 505.4 505 504.3 502.1 496.9 491.9 485 476.8 467.8 464.7 466.7 464.2 461.9 461.2 458.8 458.1 452.8 450.2 452.2 459 458.8 449.2 443.6 440.5 438.9 436.3 430.5 420.4 415.7 410.1 404.7 398.4 390.4 385.6 381.7 377.6 372.5 368.6 361.9 354.6 350.1 345.3 340.4 335.1 327.3 319.4 315.5 313.8 312.6 311.7 312.3 311.6 311.4 311.8 313.9 315.6 317.5 320.6 323.1 325.9 328.4 332.3 335.1 338.4 340.8 343.8 350.7 355.1 355.2 358.9 360.2 360.9 366.6 370.9 373.1 376.6 383.3 386.8 391.1 394.8 397.2 399.5 402.3 405.7 410.2 421 433.9 446.7 457.1 465.3 469.4 474.2 473.7 477.4 476.7 479.1 483 484.2 486.2 491 492 492.5 496.8 498.1 498.3 502.8 501.5 494.6 493.5 493.6 493.3 493.6 493.3 492.1 493.1 492.4 493.5 490.9 488.9 486.7 484.3 483 481.6 477.7 472.2 465.9 450.8 438.6 425.1 408.6 393.9 379.3 370 368.1 369.3 370.5 363.4 358.1 370.6 393.8 421.1 436.7 454.8 458.7 458.2 456.5 461.6 469.5 469.4 458.8 445.3 431.4 414.1 405 397.7 394.8 389.6 386.5 381.6 374.5 370.4 368.3 368.1 367 365 362.5 359 355.9 353.9 348.8
410.6 416.7 424.7 427.6 432 437.1 443.1 445.7 450.5 453.1 453 454.6 456.9 462.4 466.2 469 470.7 474.8 479.6 484.2 486.9 489.2 491.6 494.1 496.3 497.7 499.4 501.3 502.6 504.6 506.4 507.4 505.3 503.3 499.1 494.4 488.8 481.6 469.9 471.6 472.9 471 466.9 465.9 464.3 461 457.2 451.3 456.7 467.7 463.7 454 447.9 440.2 438.6 437.9 434.7 429.6 420.2 413 406.2 393.7 396.7 395.9 388 382.3 375.3 370.9 364.2 361.3 358.2 352.6 347.3 342.4 331.1 323.6 318 315.4 312.6 312.1 311.6 311.1 310.6 311.4 312.9 315.2 316.6 319.1 320.6 323.9 327.3 330.5 333.5 335.8 341.4 345.6 351.3 354.8 359.3 361.4 362.9 364 368.5 371.9 376.7 380.4 382.1 386.4 389.8 392.5 394.8 398.1 400.4 404.7 410 421.6 431.4 443 455.6 461.4 466.4 468.1 469.1 470.2 472.4 476.7 478.1 478.7 478.3 482 483.9 486.6 490.2 492.3 497.1 496.1 499.8 497.7 494.6 490.9 490.6 491 489.8 488.8 490.7 490.7 490.2 489.6 486.5 484.5 481 476.3 473 470.5 465.5 459.2 446.2 436.3 420.8 406.4 393.5 380.7 372 370.3 371.5 372.5 369.8 355.2 362.8 385.4 417.9 439.4 447.4 454 453.7 451.6 452.8 457.1 462.5 458.6 447.7 432.1 408.9 398.3 395.1 391.7 384.6 377.8 373.7 371.1 367.6 364.3 363.5 362.9 360.3 357.9 356.1 351.8 346.8 342.8
410.7 417.8 427.1 428.5 432.6 439 443.4 448.3 455.4 456.4 455.3 455 459.5 464.6 467.9 471.5 474.4 474.9 478.1 481.7 485.8 487.6 491.3 494.6 496.5 498.3 500.7 502.5 504.1 507 508.4 508 505.9 503.7 501.8 497 489.9 480.5 480.6 480.7 478.7 478.3 474 466.2 467.6 468.5 466.7 466.4 468.1 473.3 467.8 460.4 456.9 449.5 438.7 438.8 437.4 433.7 427.2 417 409.8 404.4 406.2 403.8 396.6 385.9 380.1 373 374.3 370.7 368.7 363.5 354.2 348.2 339.1 330 323.6 318.3 314.5 312.6 311.4 311.3 310.7 310.7 311.8 314.1 315.1 317 319.7 322 324.5 326.9 331.5 338.4 342.8 346.9 352.3 356.4 360.6 362.5 363.9 367.6 369.9 373 377.7 380.9 384 384.8 387.3 390.8 394 396.8 400 404 408.3 422.1 431.2 441.3 452.6 459.1 462.5 465.4 467.7 467.5 469.7 470.6 470.9 472.1 471 475.8 479.6 480.4 482.3 484.6 490.8 492.4 490.9 492.2 489.7 487.4 488.7 488.7 487.2 486.6 487.4 488.7 487.8 487.3 485.4 481.5 477.3 472.1 465 461.4 454.8 449.4 440.9 433 416.6 404.9 391.2 382.5 374.6 372.9 373.3 372.5 369.5 359 354.6 374.4 401.6 422.8 436 437.4 440.9 441.5 448.1 445.7 449.3 449.6 446.6 441.7 425.2 403.9 394.1 387.4 381.2 374.6 369.5 366 364.9 363.5 360.4 353.6 354.5 352.8 350.1 346.7 341.8 337.1
409.9 415.9 424.1 427.6 432 437.7 442.7 448.2 457.2 460.3 457.8 456.3 459.3 467.1 469.3 473.7 476.2 477.1 477.4 478.7 480.8 485.3 489.2 493.1 496.1 498.5 501.8 503.9 505.7 509.8 510.5 509 507.5 504.3 501.1 497.3 488.4 483.9 488.3 491.3 494 488.6 488.4 485.9 483 480.9 477.4 475.1 477.1 476.6 471.2 464.1 461.6 455.2 443.6 436.5 437 435.5 429.8 422.4 419.3 411.6 417.7 414.3 408.2 395.4 386 380.7 381.9 379.5 375.2 367.1 361.9 353.3 344.8 335.7 328.6 322.4 316.8 313.8 312.6 310.8 310.1 310.3 310.8 312.4 314.3 314.9 316.6 319.8 321.6 326.3 333.1 338.1 343.2 347.6 353 357.8 362.4 365.4 367.5 370.2 373.3 377.4 381.1 384.1 385.1 387.6 390.2 392 394.2 396.8 399.8 403 409.3 422.5 431.8 441.1 450 455.8 459.6 462.8 465.9 466.1 465.7 466 467.7 466.6 467.1 470 473.4 475.9 476.5 475.3 478 482.8 484.2 484.7 481.8 483.3 486.5 491.4 486.6 485.3 486.1 487.1 486.6 485 482.3 478.4 474.5 467.4 459.1 453.9 448 443.3 435.5 425.9 414.8 400.6 391.5 381.4 377.3 374.5 372 370 365.8 359.7 351.9 362.9 388.1 404.5 416.6 425.1 428.9 439.3 446.3 446.2 445.3 450 457.9 449.5 434.5 414.5 395.9 387 378.4 368.9 362 357.1 360.1 359.9 357.1 353 346.3 345.9 343.8 340.7 337.7 334.7
410.6 415.8 422.2 425.7 429.5 436.6 441.1 448.6 455.4 460.3 461 459.7 460.6 467.9 472.6 477.7 478.6 479.1 479.4 477.9 479 481.9 486.7 491 494.9 497.9 501.8 505.1 508.1 510.5 511.5 510.3 509.1 506.5 503 496.8 489.7 495 500.3 507.3 515.1 509.1 506.2 507.2 506.1 502.5 488 485.4 485.5 481.4 476.5 468.8 461.7 456.5 448.9 439.3 434.1 434.4 430.8 430.2 421.1 424 424 423.5 419.8 409.1 397.7 388.8 389.8 384.4 377.7 374.4 367.7 361.4 353.7 343.1 335.3 329.3 323.1 317.4 314.9 311.4 310.1 310 310.2 311.6 312.2 312.3 313.1 314.3 320.7 325 330.7 336.3 342 348.1 353.7 358.9 362 366.8 371.9 375 377.7 380.9 384.1 386.7 388.4 390 392.1 393.6 395.4 397.8 400 403.7 410.3 423.9 432.1 441.1 449.2 455.3 459.8 462.4 465.1 464.3 463.6 462.8 462.6 461.3 463.1 465.8 467.4 466.9 468.8 470 471.9 476.1 478.5 479.3 480.7 484.1 486.1 488 487 483.7 483.5 484.9 487.6 488.5 488.4 479.3 472.3 464.3 456.1 451.1 444.5 438.1 429.7 423.1 413.3 403.8 392 386.4 381.2 374.1 369.7 367.5 363.5 358.2 350.1 354 374.3 387.7 400.4 408.6 417.4 428.3 437.8 441.8 443.7 447 457.6 450.9 439.3 426.7 403.2 390.9 378.9 368.9 358.4 348.7 351 350.6 349.5 347.3 342.6 340.2 338.1 335 333.7 331
413.4 418.4 422.7 425.2 428.2 433.7 442.2 445.1 451.5 458.6 462.3 460.9 462 465.3 471.7 476.9 479.8 479 479.2 478.7 478.7 479.9 484 487.3 492.5 496.8 501 504.8 509.4 511.5 512.7 512.2 511.3 509.3 506 494.4 499.8 502 510.6 522.4 526.1 525.5 520.4 519.3 516.9 511.3 499.8 495.5 492.2 488.4 480.2 469.1 462.7 456.7 453.3 450.3 439.5 440.3 441.7 430.5 432.5 430.3 431.9 429.2 424.6 415.1 407.6 396.4 392.6 387.6 384.2 379.3 374.3 366.5 359.2 353.7 342.9 335.7 331 322.5 321 313.9 311.3 308.8 309.4 310.3 309.6 309.8 309.3 313.4 317.5 322.2 328.2 335.2 340.8 346.3 352.4 359.5 364.4 368 372.5 374.6 378.3 381.9 384.8 388.3 391.3 391.6 393.8 395.7 397.1 398.8 401.3 405.7 413 425.1 434.6 440.3 448.6 454.6 458.9 463.9 464.9 463.8 461.1 458 455.6 456 458.9 460.5 461.2 462.5 461.1 464.9 469.2 473.4 476.5 479.7 480.8 479.1 476.2 479.8 478.9 480 480.1 479.7 481.6 482.7 480 476.4 470.5 463.6 452.2 447 442.1 433.5 426.6 419.1 411.5 406.4 398 390.3 383.3 375.3 369 366.2 360.8 355.4 354.1 348.1 364.5 375.7 386.1 393.4 401.9 416.5 431.1 441.9 443.4 450 457.5 455 443.4 431.4 417.9 404.3 388.6 372.7 360.9 349.3 344 344.1 342.4 339.7 338 335.4 334.5 332.5 331.2 328.7
411.6 416.5 420.8 423.8 426.9 432.2 440.5 444.3 450.3 456.2 459.8 459.3 460.8 465.2 470.8 473.2 475.4 477 478.7 479.3 480.8 480.2 482.7 485.3 490.5 494.6 500.7 505.6 509.6 512.1 513.4 513.3 512 510.8 504.6 505.4 509.4 516 525.5 538 538.6 535.5 532.6 527.6 522.6 517.8 510.3 511 495.5 487.1 476.1 469.4 459.4 453.3 453 455 451.5 454 452 440.3 440.9 439.5 437.1 431.9 427.3 419.7 413.8 403.6 396.6 392.5 390.5 384.2 379.3 374 366 359.2 350.9 345.1 339.2 330.1 326.1 325.6 313.5 312 309.7 308 306.9 307.3 306.6 312.1 315.1 320 324.7 333.1 339.8 345.1 351.7 358.7 361.7 369.3 373 375.4 378.8 382.5 386.9 388.7 391.8 393.7 395.4 396.8 399.4 401.8 404.1 409.1 415.1 426.4 434.8 441.5 448.8 455.9 458.1 460 462.3 459.6 456.4 455.1 454 453.5 454.5 454.6 454.6 456.1 458.2 461 464.8 470 474.3 472.7 472 471 469.5 470.9 471.1 472.6 473.2 475.1 473.7 472 473 472.7 469.1 464.3 456.9 446.5 436.9 431 427.5 423.1 418.3 412.1 403.3 396.3 387.3 378.8 370.7 367 363.1 357.6 350.6 345.4 353.6 362.6 372.2 384.3 395.7 409.1 426.7 440.7 444.7 445 448.5 454.6 445.2 438.1 432.1 412.7 387.9 366.9 357.7 351.7 344.8 340.4 338.3 335.6 334 332.8 331.5 328.7 328.5 328.1
411.9 416.3 419.4 422.7 426.2 429.3 435.9 441.8 447.4 454 458.2 461.6 462.1 464.2 468.5 473.3 474.2 477.6 479.1 480.3 480.6 481.6 482.1 484 486.4 491 499.3 505.6 510 512.9 514.4 514.5 513.5 511.2 509.5 520.5 525.7 539.6 554.8 554.2 550.2 547.5 541.6 538.4 534.7 534.5 534.6 532.5 511.6 487.1 475.9 467.7 456.5 453 453 453 454.9 453.5 451.9 446.8 447.1 445.1 440.2 434.9 428.7 423.3 418.9 413.5 400.6 398 395.6 389.7 386.2 381.3 376.3 367.9 358.5 354.2 348.7 338.5 330.9 330.4 322 314.9 310 307.9 304.9 305.2 304 307.9 311.4 316.3 322.4 329.2 337.8 343.6 349.7 355 359.5 364.4 370.2 374.3 379.7 382.6 387.9 390.4 392.6 393.7 395.5 398.2 400.7 402.8 406.6 411.4 417.3 428.3 435.8 444.4 454.2 459.1 458.5 458.7 459.2 457.8 454.5 453.2 452.4 449.5 448.5 447.7 450.1 453.1 455.2 458.9 462.3 466.3 466.2 467.1 465.4 464.7 464 463.8 463.5 465.3 468.4 468.1 468.5 468.8 466.5 467.3 464.5 460.9 452.8 448.9 440.9 434.4 430.5 427.4 421.1 415.7 409 397.5 389.3 378.5 372.9 368.2 364.3 360.3 354.5 343.9 343.6 346.8 364.1 375.1 389.7 403.5 425 440.1 442.1 445.4 437 447.1 440.7 435.7 428.7 413.8 395.4 371.4 357 352.9 347.7 342.3 338.9 336.4 334.6 333 332.1 330.5 327.7 322.1
414.8 417.8 420.1 423.4 426.1 429.3 431.5 437.5 443.6 450.6 456.6 460.8 460.4 462 464.4 471 475 480 481.3 481.1 481.9 482.1 483.2 486.6 487.4 488 496.3 503.9 508.9 513.9 515.5 516.2 516.6 517 522.1 533.7 541.7 555.3 567.1 573.6 569.4 560.7 556.5 553.7 554 556.6 556 554.6 525.7 499.3 474.6 462.5 453 453 453 453 456.3 453.4 451.8 448.3 447.2 447.2 445.3 439.2 434.2 429.1 424.6 421.5 409.3 402.2 400.7 395.7 393.5 389.3 383.9 377.3 368 362.1 355.9 345 335.1 330.8 324.9 318.2 313.8 309.9 304.7 302.6 300.2 303.6 307.8 312.4 318.7 326 333.5 340.4 347.1 353.2 360.3 362.6 367.8 373.5 377.6 382.6 386.1 388.8 392.3 394.3 396.4 399.2 402.1 404.8 408.5 413.2 420.5 428.3 439 447.3 454.8 459.3 458.1 456.7 457.2 456.7 455.1 452.5 450.6 448.2 446.7 446.3 447.4 450.5 454 456.3 458.6 461.3 461.5 460.9 462.1 460.1 459.4 458.7 458.4 459.5 461.4 462.1 461.2 461.9 460.5 461.2 458.4 456.7 453.3 451.7 447.8 442.3 436.2 429.2 422.7 419.5 413.1 402 388.9 377.8 374 370.7 367.8 364.2 360.4 351 345.5 340.8 351.9 369.5 381.6 399.1 414.8 429.5 434.9 444.4 436.7 433.3 435.2 428.7 417.5 407 398.1 381.7 359.4 351.4 346.4 342.5 339 336.2 335.9 335.3 334.2 331.5 328.1 323.2
416.3 418.7 421.4 423.9 426.1 429.3 431.5 434.4 440.7 445.4 451 455.7 459.3 459.6 463 470.8 475.9 480.5 482.4 482.8 484.3 486.4 487.5 491.1 491.6 493.6 495.1 503.1 510.1 514.8 518 519.8 522.9 524.4 533 549.8 554.2 560.4 567.7 576.6 574.8 570.7 572.2 569.5 571.9 571.4 572.9 566.7 541.8 499.1 473.8 458.7 453 453 453 453 454.5 458.8 453.2 452.2 447.5 447.1 447.3 443.5 439.3 433.6 430 425.1 419.2 405.8 403.7 402 399.9 397 391.3 384.4 377.3 372.3 365.7 354.7 342.6 334.1 326.7 322.1 317.4 311.4 306.6 304.6 302.8 296 303.8 309.5 315.1 322.9 330.6 338.3 343.8 351 361.1 365.3 366.8 372.7 376.7 382.1 386 389.5 391.9 394.8 396.5 399.3 402.5 406.2 409.9 413.8 421.9 429 439.5 448.4 454.1 458.3 457.7 455.7 453.1 453.3 452 449.3 446.8 446.2 445.1 445.7 446.1 449.1 453.1 452.3 453.4 458.4 457 456.6 455.5 456.3 457.1 454.7 454.9 454.8 453.2 454.2 455.8 458.1 456.5 453.5 453 451.2 450.2 447.8 449 447 440.5 434.7 427.9 421.5 413.9 405 395.7 381.3 376.8 373.4 369.7 367 364.5 364.3 357.4 340.4 341.3 361 378.9 392.4 410.3 418 421.7 425.1 424.1 420 425.6 422.2 414.6 402.5 395.2 383.9 372.3 357.2 347.2 342.4 338.5 336.1 336 336.8 335.2 332 327.5 325.1
416.6 418.9 421.5 423.4 426.2 428.4 429.8 431.4 435.8 440.2 448.5 453.4 456 457 461.6 464.5 471.4 478.7 483.9 486.4 487.5 491.6 496.4 497.2 499.1 501.2 500.5 503.7 511.6 517.6 521.4 524.4 527.5 532.9 540.3 550.2 560.3 569.6 578.7 583.6 585.3 585.7 587.2 593.6 599.4 600 602.2 582.6 548 509.3 475.5 463.4 456.1 453 453 453 453 459 460.5 457.2 454.3 451.1 448.6 448 444.4 439.3 434 428.9 424 415.7 409.6 405.6 405.5 403.3 398.6 391.8 386.4 380.9 375.9 364.3 352 341.4 331.9 326.1 321.2 315.5 309.6 306.3 303.7 297.1 294.9 303.5 310.8 318.8 327.8 334.8 340.4 349 360.1 363.1 365 368.9 374.5 379.6 383.4 389 392.3 395.5 396.7 398.5 402 407.2 411.3 416.2 423.8 431.4 438.5 449.9 455.3 457.2 457.1 455.3 453.8 448.8 446.5 443.7 442.4 443.7 443.8 444.9 447.1 448.7 449.3 448.4 449.5 452.2 452.3 451.9 450.6 449.7 449.6 451.2 449.9 449.5 448 445.6 447.8 449.2 452.3 449.9 449.1 448.1 446.8 445.3 445.1 444.5 443.4 440.1 430.4 423.5 413.9 405.4 398.5 386.5 376.8 373.6 370.6 368.8 368.4 370.6 366.7 348.4 337.3 353.4 369.1 389.4 399 412 415.4 413.2 413.2 413.6 417.5 414.6 407.3 400.8 394.5 389.8 379.9 368.8 360.4 347.1 336.8 334.8 333.8 337.4 334.9 330.9 326.4 326.6
415.1 418.6 420.4 422.5 424.4 426.9 429.1 430.6 432.5 436.6 444.1 450.4 450.5 454.2 457.4 460.8 467.8 474.7 481.7 488.2 490.6 495 500.1 502.9 505.4 507.2 506.7 507.6 514.9 521.9 526 531.7 537 541.2 547.7 557.8 573.2 587 599.2 599.2 600.8 608.3 618.6 632.7 633 633.6 628.2 592.3 551.5 522.3 480.8 463.9 456.4 453 453 453 453 453 463.2 458.8 460.2 458.9 454 453.1 449.3 444.9 440.7 435.3 429.4 421.9 415.4 412.5 409.6 408 404.3 399.2 393.8 387.9 385.5 374.1 364.8 350.2 337.4 328.2 323.2 317.2 311.7 306.3 304.5 300.9 293 299.4 305.3 313.4 323.2 330.5 338.8 347 356.4 361 361.5 366.9 372.4 377.2 381.2 387.1 391.9 396.6 397.5 398.6 402.6 407.8 412.9 418.6 424.6 432.4 441 448.9 455.6 456.1 457.7 454.3 452.8 445.2 442.6 441.2 441.2 440.6 440.3 441.6 445.6 448.8 448.4 447.5 447.1 447.2 447.4 447.9 447.3 445 443.9 444 444.7 443.9 441.8 441.5 442.4 442.9 444.9 444.7 445.5 445.5 444.6 443.2 441.5 443.4 442 437.2 431.2 423.7 415.5 405.7 400.3 389.6 377.8 375.9 372.3 369.9 369.7 370 367.5 355.9 337.2 342.4 360.3 376.4 393 404.4 407.5 408.2 409.3 410 407.6 407.5 402.9 396.2 392.6 390.7 382.5 374.2 364 347.7 336.9 335 332.4 332.8 331.9 329.6 328.6 328
415.6 417.4 419 420 424.3 426.9 429.6 432.1 435.3 438.2 441.2 444.7 447.2 451.5 454.6 458.3 463.3 469.4 476.5 484.2 493.1 501.9 504.4 507.1 513.8 513.3 513.4 514.7 519.7 528.6 532.2 541.4 547.8 556 562.6 580.2 589.3 604 617.1 616.5 623.5 636.3 647 651.7 654.1 659.6 653.1 617.7 557.7 525.7 493.3 460.8 453 453 453 453 453 453 460.7 459.3 460.2 460.5 457.3 456.2 453.4 450.7 445.8 442 435.8 429 420.2 417.3 416 413.2 411.1 407 400.4 395.5 390.6 385 373.1 359.2 345.1 334.8 326.5 322.9 316 307.3 304.2 301.2 293 293 298.5 309.5 317.9 325.9 333.7 342.4 349.8 354.6 359.7 363.6 370 373.5 379.3 386.1 392.2 398.7 400.2 400.4 405 409.1 414.1 419.8 426.6 435.1 443.4 451.2 455.8 456.7 458.5 455.4 450.7 445.6 443 437.5 439.2 439.7 437.6 439.8 444.1 449.4 448.4 447.7 447.3 446.8 446.6 446 445 443.5 440.7 439.8 438.7 438.7 436.8 437.2 437.6 437.5 437.9 439.5 442.5 442.7 441.1 440.2 438.4 437.5 435.9 432.3 426 421.1 415.2 406.4 400.5 391 378.6 375.3 372.4 370.5 368.6 368.3 365.8 355.6 341.6 335.2 349.7 373.8 385.9 397.2 403.7 409.4 405.6 406.8 402.1 399.2 399.5 393.2 387.6 384.7 381.4 376.2 368.2 350.1 339 335.8 334.1 332.3 332.7 332.3 331.9 330.8
413.5 413.4 416.2 419.3 423.5 427.3 431.1 434.7 437.5 439.9 442.4 444.5 445.6 448.7 451.9 455.4 459.8 466.8 475.6 482 484.4 492.6 500.2 508.5 518.3 519.6 520.1 523.8 530.5 537.6 541.1 547.5 555.6 569.3 585.5 606.1 618.2 634.4 647.3 658.1 667.7 667.4 666.8 661.7 661.3 661.8 655.2 633.8 571.1 534.8 496.7 460.4 453 453 453 453 453 453 462.3 460.3 460.6 458.8 457.3 457.7 459.6 453 452.2 447.1 443.5 440.8 430.9 421.3 419.8 418.7 416.1 412.8 407.5 400.4 395.9 388.5 382.5 370.3 359.6 349.8 335.3 325.4 318 312.1 306.3 302.4 293 293 293 302.4 312.7 319.5 327.4 334.9 341.9 349.3 355.5 361.9 366.8 374.3 379.2 385.7 392.6 399.9 400.1 400.2 404.6 410.8 416.6 421.5 426.9 434.8 444.5 451.9 457.3 461.1 461.5 459.9 453.8 443.9 440.3 435.9 434.6 434.9 435.6 436.8 440.2 445.3 448.5 448.1 447 446.2 445.4 444.1 442.8 441.5 437.8 433.6 434.5 433.9 432.4 432.5 433.2 434.8 435.5 436.5 437.5 440.5 439 437.2 435.3 434.2 430.8 427.9 423.9 419.9 416.2 408.3 399.5 390.1 382 375.2 371.9 370.4 368.1 366.8 363.4 351.6 343 334 340.3 360.7 379.2 388 394.1 398.3 401.6 401.1 396.3 392 387.8 386.5 377.8 375.5 374.8 370.5 366.6 357.2 342.2 341.1 335.5 334.1 334.5 335.8 336 336
408.5 411.4 415 418.7 422.8 426.8 430.8 434.3 437.3 440 443.6 445.2 445.7 446.7 449.9 453.4 457.9 463.6 470.4 476.9 481 485.4 492.1 499.8 506.8 512.6 518.9 524.9 530.5 537.8 543.3 548.4 560 577.8 606.8 634.9 660.6 667.5 671.5 678.1 686.3 684.6 675 668.8 665.6 663.6 659.9 656.4 604.1 548.5 509.8 475.7 453 453 453 453 453 453 459.5 460.3 464.4 464.7 464.5 461 464.2 458.8 458.8 454.4 451.2 448.2 440 428.1 423.7 421.8 421.1 416.6 412.1 406.6 401.2 394.8 388.5 379.9 368.7 364.2 345.1 333.4 326.7 316 308.6 304.3 295.4 293 293 294.9 307.6 313.8 323.1 330.1 336 343.8 351.4 358.6 366 373 378.5 384.5 391.4 396.1 398 399.9 403.3 409.1 413.2 418.9 425.3 431.4 443.3 450.2 458.6 463.5 463.4 462.1 459.3 451.9 439.9 434.5 432.5 432.2 431.4 433.8 436.4 439.4 442.1 448.5 447.8 446.7 446.2 443.7 442.4 441.3 441.1 437.4 435.6 432.2 425.2 427.5 431.4 433.3 433.8 434.2 436.2 437.3 436.6 435.2 433.8 432 428.7 426.1 422 417.8 413 407.6 401.6 392.8 383.9 376.9 371.7 369.2 367.5 366.4 366 363.3 351.6 338.7 332.4 353.4 369.4 381.5 386.5 393.6 393.5 397.5 402.9 399.8 398 392.9 382.5 372 370.8 370.3 366.4 356.1 354.9 349.8 342 338.1 339.2 339.3 339.8 340.3
409.5 411.6 413.9 417.3 421.8 425.7 429.6 432.8 436.2 439.3 445.8 444.9 444.7 446.4 449.2 452.7 456.6 461.1 467.8 474.2 479.8 483 489.1 493.4 500 507.6 516.6 522.6 528 535.3 543.2 551.6 563.4 585.9 611 639 660.6 669.5 675.7 683.1 688.6 686.7 681.5 674.8 669.9 666.6 660.8 654.5 631.5 578.2 525.3 486.9 461.7 453 453 453 453 453 452.8 460.3 463.8 469.7 472.1 472.2 472.8 472.2 464.1 466.6 461.3 456.4 449.1 439.6 433.5 423.7 422 419.4 415.3 409.8 405 399.2 392.7 384.5 375.8 372.5 369.1 340.1 326.7 321.5 311.5 307.9 301.9 293 293 293 302.4 311.8 317.4 324 332 341 349.6 358.7 364.4 370.2 377.9 385.6 392.6 393.8 395.6 398.2 402.3 406.1 410.5 415 421.7 428.1 441 450.3 456.5 462.3 462.4 462.3 461.3 456.5 449.1 435.9 430.7 429.1 428.5 430.3 431.8 435.2 441.2 448.1 454.5 456.4 455.6 451.7 448.6 442.6 442 438.6 436.9 434.2 427.2 420.4 428.2 431.1 431.6 431.5 432 433 432.3 431.1 431.3 429.4 426.3 424.7 420.2 415.8 410.9 406.5 400.8 393.7 385.5 380.2 376.6 372.9 369.5 368 367.4 366.1 355.2 342.7 332.6 341.2 357.8 370.9 378.2 383.6 390.3 399.2 407.4 415.4 415.7 413 400.8 388.7 376.7 370.7 370 365.9 362.1 357.4 352.2 347.2 346.6 343.9 344.2 344
406.6 410.2 412.9 415.6 420.1 424.2 428.1 431.3 434.6 438.3 441 441.4 444.3 445.6 449.6 453.4 456.7 461.1 465.7 470.8 474.7 479.3 485 490.2 495.3 503.3 510.5 516.9 523.2 533.7 541.5 548.4 561.8 582.4 602.7 628.2 649.8 661.8 668.5 675.2 683.1 684.9 683.2 678.9 675.5 672.6 668.6 658.5 641.7 598.3 547.5 507.8 472.8 459.5 456 453 453 453 453 457.3 462.6 470.7 473.8 476.2 477.8 481.3 477.2 474.9 474.6 466.9 454.5 445.8 440.6 427.2 424 422.7 416.6 412.5 407.1 401.6 395.1 389.7 380.9 375.8 379.2 353.1 336.2 322.7 315.9 310 305.2 293 293 293 294.2 305.6 312.2 319.3 327.9 336.9 346.9 358.7 364.2 369.7 377.4 384.8 389.7 393.3 395.1 397.9 400.3 402.2 407.2 412.1 417.2 425.2 437.6 449 455.9 458.7 459.7 460 460.8 455.1 447.6 437.3 428.9 426 421.9 423 426.7 432.6 439.1 450 459.4 465.9 463.9 468.8 460.5 446.5 441.3 438.2 434.7 433.3 424.9 420.4 424 426.7 428.5 428.5 428.5 428.3 428.5 427.5 427.3 426 423 420.8 416.7 413.5 409.8 404.5 399.9 393.9 389.2 387.2 382 377.8 373.9 369.6 368.8 365.8 358.5 346.3 331.1 331.3 348.2 361.7 376.5 381.9 385.3 399.2 405.8 419.3 425.5 417.4 411.5 404.3 396.3 387.7 376.1 370.5 368.2 366.8 365.5 357.5 356.7 353 349.3 348.9
406.4 410.8 413.8 414.9 417.3 422.2 425.2 429.2 431.8 435 438.3 442.6 444.2 445.8 449.1 453 456.3 460.2 464 468.9 472.5 476.8 480.4 485.2 491.6 499.6 506.9 512.2 518.4 528.7 535 543.4 559.3 574.4 593.5 613.8 632.7 648.2 657.7 666.7 670.8 676.5 678 677 675.1 672.4 668.8 659.8 648.9 632.1 564 529.1 496.1 481.5 476.8 473.6 465 461.7 455.8 461 467.1 471.1 477.2 481.8 484.9 485.5 483.3 482.7 482.1 477.7 472.5 459.1 444.1 430.6 427 422.1 417.3 412.9 407.4 402.1 396.3 391 384.2 377.9 372.7 363.5 344.3 329 319.8 309.5 303.9 293 293 293 293 298.1 309.3 314 325 333.4 346.8 354.8 360.4 367.3 374.7 381.4 386.3 390.9 392.8 394.8 397 398.8 404.1 409.5 411.7 418.7 431.9 442.5 449.9 453.7 455.9 454.6 458.1 449.9 440.5 434.6 425.9 424.1 418.5 415.5 421.7 429.8 438.8 451.9 461.7 470.5 476.4 472.9 464.5 453.7 443.8 439.1 432.3 427.6 424.8 419.1 418.8 421.5 423.4 425.9 428 427.2 427.3 426.3 425 423.6 421.5 417.4 413.8 409.8 405.4 402 397.8 394.9 393.5 392.3 388.4 382.5 377.3 372.3 369.5 366.1 362.8 351.6 337 328.5 335.7 357.1 365.6 372.7 381.9 390.2 406.5 421 430.5 426.5 421.3 418.2 409 401.7 394.5 384.8 379.2 376.2 371.6 365.7 366.9 364.6 358.2 355
404.7 407.2 409.8 412.5 414.9 416.2 417.6 423.7 431 434.5 438.3 442.6 444.6 446.7 448.5 452.3 456 459.5 462.2 466.4 469.8 472.4 477.1 482.5 489.9 496.8 504.8 510 515.9 526 531.1 540.2 552.1 566.9 583.7 602.2 619 638.8 653.6 662.6 666.9 668.5 671.2 673.4 671.4 668.5 666.4 658.1 645.2 631.5 602.6 560.5 526.9 500.5 493.7 487.6 483.4 476.5 476.1 473.4 472.1 472.3 482.1 488.8 488.1 491.3 493.1 490.7 490 485.3 479.5 475.1 459.9 438.1 425.4 422.5 418.8 412.7 407.3 400.1 394.7 389.8 384.2 378.3 373.4 366.2 351.2 332.9 320.7 308.7 303.5 293 293 293 293 296.5 305.1 310.7 319.6 328.9 341.6 349.7 356.1 362.4 369.2 377.6 384.9 387.8 389.8 392.1 394.5 395.3 399.7 405.2 408 414 424 436.2 443.6 446.1 448.9 447.9 449.5 442.9 433.5 423.1 418.2 413.6 411 407.1 413.7 424.7 437.7 449.2 460.7 469.4 476.2 476.7 467.1 452.2 446.9 440.5 433.7 427.2 422.5 418.3 414.7 418 420.5 422 423 424.9 424.3 425.5 424.6 423.3 420.3 416.7 413.2 410.3 405.4 402.4 400.5 399.1 396.6 395.6 391.3 385.2 379.3 374.2 370.5 367.5 365.9 355.6 341.6 326 328.4 348.1 362.9 372.7 380.2 394 410.1 426.1 436.4 442.4 433.6 430.5 424.2 419 411.6 403.3 400.3 396.5 391.7 374.4 372 372.8 368.5 365
404.1 406.1 407.7 409 413 417.5 421.1 426.5 429.5 429.4 436.8 441.6 445.3 447.6 449.2 451.4 453.8 455.9 458.4 460.2 463 466.4 472.3 483.5 490.6 495.9 501.8 508 513.3 521.4 526.9 537.2 547.6 560.1 578 593.7 607.8 625.9 644.7 655.6 661.9 665.7 668 670.2 669.3 666.1 660.9 654 642.8 626 602.7 572.1 541.4 524 512.4 504 496.9 492.1 490.5 483.5 478.4 479.7 487.6 494 497.4 493.9 496.2 491.9 490.6 485.5 481.4 476.8 468.4 454.4 431.4 422.5 417.2 412.3 405.4 398.4 393 388.7 383.1 377.9 372.1 365.5 351.1 333.9 319.2 308 293.9 293 293 293 293 293 300.7 305.7 312.3 322.2 331.6 339.8 348.6 354.4 365 372.9 380.7 383.2 386.1 388.6 391.5 391.4 392.8 398.5 402.6 405.2 414.7 427.7 436.4 437.1 438.4 437.8 434.6 429.7 420.2 411.6 408.1 404.6 401.3 403.6 409.6 420.3 433 447.3 457.8 465.9 470.9 472.9 469 458.3 448.4 439 432.5 428.8 422.2 417.8 415.6 413.2 415.5 416.7 417.8 419.4 420.2 419.5 420.5 423.1 421.4 419.8 415.7 412.2 408.6 406.3 408.5 407 402 397 391.6 385.6 379.9 375.1 369.9 367.3 365.4 358 345.2 332.7 326.1 342.7 363.6 378.4 387.1 398.8 413.9 427.4 437.9 444.4 447.1 444.1 440 433.3 425.6 416.9 410.4 404.7 402.4 389.3 382 379.8 374.2 370.1
403.2 404.9 409 412.3 415.5 419.3 422.9 429.9 433.7 433.1 438.8 441.6 445.1 446.6 449.7 448.9 451.2 455.5 459.8 465 470.2 474.7 478 485.6 490.4 495.5 499.8 504.2 510 517 526 535.6 543.5 555.3 570.1 583.3 597.7 613.9 630.2 647 655.7 663 665.7 667 666.8 662.7 657.5 650.3 635.7 621.5 603.2 579.8 552.9 531.6 520.2 508.4 503.9 508.5 496.8 491.6 492.4 495.2 496.4 497.1 496.6 497.4 494.4 492.9 489.5 489.4 485.5 484 480.4 470.7 450 424.5 415.7 410.7 404 396.5 391.1 387 381.7 376.4 371 363.2 352.2 344.3 320.6 307.3 293 293 293 293 293 293 295.5 301.6 304.9 314.4 325.2 332.3 340.4 347.5 358.6 366.3 372.9 377.5 379.7 383.3 387.8 387.4 384.6 390 394.2 396.5 403.7 410.2 416.2 417.6 420.5 419.5 414 409.3 404.5 396.7 394.9 392.6 393.3 397 405.5 416.5 426.8 438.2 448.5 455.9 456.7 460.8 463.7 463.6 465.1 451.9 441.3 430.4 423.8 419.9 414.6 412.4 410.7 413.2 415.1 415.9 417.1 417.1 417.3 417 418.3 420.3 418.2 414.7 410.8 410.4 409.2 407.8 404.4 398.4 391.6 385.3 380.5 375.4 369.7 367 365.1 361.4 349.7 337.7 323.6 332.5 353.6 375.7 393.5 403.8 413.1 435.5 440.6 445.8 449.6 451.2 445.9 436.9 430.7 424.8 425.9 413.5 406 399.7 391.3 380.2 374.7 369.6
406.3 408.3 411.2 415 419.1 422.1 425.2 430.7 436.8 436.9 439.3 443.3 447.1 450.1 451 454.1 455.8 458.3 464.4 469.9 474.9 479 482.4 485.9 490 494.4 499.3 502.5 507.1 514.2 522.1 530.3 539.5 549.4 563.3 578.7 587.9 603.1 618.8 632.2 647.7 658.5 662.6 663.8 664 661.1 652.8 645.8 635.2 618.7 600.8 579.7 560.6 538.9 524.6 514.9 511.7 509.9 506.7 499.3 498.5 500.7 501.4 500.4 498.7 498.1 497.7 492.8 490.1 485.7 485.3 485.5 479.6 469.6 454.7 443.9 419.8 408 402.4 395 389.4 385.1 380.9 376.3 369.2 363.6 353.1 344.4 324.5 306.5 293 293 293 293 293 293 293 293 293 308.5 317.6 321.8 331 338.2 348.8 357.3 365.6 367.9 371 374.1 378.1 380.2 376 377.9 381.1 383.7 388.4 391.2 395.1 396.6 399.4 397.9 393.2 388.3 383.8 381.2 381.1 380.6 384.7 392 401.6 410.6 416.9 424.5 433.4 443 444.6 446.2 449.2 454.8 459.6 460.4 452.4 439.8 428.7 418.8 413.7 411.6 409.7 407.6 410 412.8 413.7 414.8 414.1 414.6 414.8 414.5 416.5 414.6 411.3 409 408.1 406.7 403.1 398.3 391.3 384.6 379.4 373.8 369.4 366.6 363.7 362.4 354.3 342.7 327 324.1 346 366.4 383.5 403.4 422.3 433.7 434.7 441.9 444.6 452 453.3 442.5 435.1 430.7 431.6 423.4 412.3 400 385 378.9 373.6 365.4
409.7 411.1 413.5 417.3 420.8 424.4 428.2 433.6 437.6 439.6 441.2 444.8 448.5 450.7 453.4 456.8 459.1 462 466.3 471.4 476.8 481.1 483.8 486.4 488 489.7 494.5 496.7 504.7 511.5 521.5 529.2 536.8 545.7 555.4 570.3 582.2 594.9 609.3 624.2 639.4 653 660.1 663.5 662 656.4 649.4 639.9 631.6 617.5 600.9 581.5 561 542.8 528.7 523 516.1 507.9 506 505.9 505.7 508.4 505 502 499.5 499.5 498.2 492.6 491.9 483.5 478.3 476.9 472.4 467.6 464 455.6 432.8 413.2 399.2 394.1 388.2 382.5 377.1 373.5 367.5 361.7 354.1 342.3 328.8 309 293 293 293 293 293 293 293 293 293 303.9 312.5 318.7 321.9 328.3 336.4 345.2 353 356.3 358.3 359.9 363.2 366.2 366.3 363.2 366.6 366.5 374.6 371.7 370.9 372.2 377.5 377.4 373.4 369.5 369.1 370.8 369.4 372.6 376.4 384.3 394 402.5 408.4 413.7 418.6 426 433.5 438.2 441.2 447.4 449.9 449.5 447.1 442.5 436.9 426.8 416.8 409.4 407.6 405.7 405.8 407.6 411.2 415.6 413 412.8 412.5 412.7 413 414.6 413.2 410.2 406.6 404.9 400.1 394.6 390.6 382.8 377 373.2 368.2 363.1 360.9 359.8 357.6 349.4 336.2 321 332.3 355.7 373.4 385.8 407.9 425.3 430 439.9 443.9 453.6 459.8 458.2 446.6 438.9 424.5 411.6 401.2 388.6 379.8 373.9 367.1 359
410.5 412.1 414.4 419.1 422.3 426.1 430.9 436.5 439.3 441.4 442.8 447 451.3 453.7 455.9 458.3 460.5 463.4 467.1 471.7 476.7 482.3 484.4 485.8 486.8 486.8 490.3 495.4 503.9 511.3 520.4 528.9 532.4 543.4 548.3 559.8 574.5 588 603.4 616.6 630.6 644.7 653.5 659.5 660.9 653.6 643.8 634.6 626.7 616.4 600.4 582.3 562.2 546.6 537.8 527.5 521 511.1 507 508.3 508.3 510.3 505.1 503.1 500.3 499.6 492.8 486 485.4 479 467.3 462.4 461.8 466.5 462.1 450.5 437.4 426.1 409.6 393.5 387.2 379.5 373.9 368.8 362.8 358.2 353.2 343.1 328.8 312.7 293 293 293 293 293 293 293 293 293 294.9 306.1 313.3 311.4 318.7 320.2 328.7 335.9 339.5 341.6 343 344.1 350.9 351.8 350.1 348.9 346.3 347.7 346.1 348.1 346.9 357.8 358.9 355.6 353.7 356.9 365 358.8 357.8 366 374.5 383.6 392.8 400.3 404.6 407.6 412.9 418.7 426.2 434.4 437 435.2 430 432.5 432.8 427.6 424 418.6 412 406.1 404.6 402.8 404.2 407.8 412.7 414.2 411.6 411 411.6 408 405.9 405.9 403.3 401.7 398.5 394.6 390.9 388 380.5 375.7 370.2 363.8 359.4 356.6 355.7 355.2 353.2 345.1 323.5 321.8 342.2 361.4 375.3 395.8 420.1 429.2 433.2 438.7 446.5 446.3 445.4 439 433.7 422.3 404.6 389.2 381.9 373.2 366.1 359 352.7
410.1 412.3 414.9 420.2 423.4 427.7 433 439 443.3 447.9 449.7 450.2 454.3 456 457.5 459.3 461.2 463.8 466.2 470.9 477.3 482.5 484.9 484.9 485.2 485.3 488.6 495.5 503.5 510.9 519.5 524.8 530.4 538.5 541.8 548.8 566.3 580.9 595.6 609.7 623.1 635.4 643.7 649.4 655.9 651.2 637.4 626.2 616.6 606.3 594.6 576.9 561.9 550.7 537.8 524.6 515.9 510.2 507.3 509.5 507.5 509.6 508.7 499.6 498.3 492.1 486.8 480.1 477.1 471 458.6 455.4 452.7 450.4 446 441.5 431.4 424.7 421.1 401.3 385.9 379.5 372.6 364.7 358.9 352.9 349 341.3 328.1 314.4 295.7 293 293 293 293 293 293 293 293 293 299.5 303.3 306.4 306.7 311 314.9 319.3 321.8 323.3 326.6 327.8 330.9 334.9 335.1 333.4 331.1 329.1 329.3 328.9 330.1 331.2 336.6 338.3 337.2 340.7 348.6 348.1 347.8 353.5 361.1 370 380 389.2 395 400 406.3 410.7 413.7 418.7 422.5 420.2 414.2 415.2 418.1 416 413.7 410.6 410.3 408 405.6 401.3 403.4 408.6 407.6 406 406.3 403.9 403.3 401.3 398.8 395.7 394 394.1 389.7 387.6 385.7 381.3 376.9 372.2 367.5 360.3 354.6 352.2 351 351 349.7 346.4 333.2 317.9 333.6 351.3 365.3 384.2 407.4 414.9 419.4 425.8 430 431.4 433.6 429.4 419.6 409.3 396.9 382.8 372.4 364.2 358.7 353.4 345.5
408.8 413.4 417.5 420.5 424.2 429.3 435.3 441.4 446.5 452 455.6 456.1 457.2 458.9 459.7 460.3 461.8 464.1 466.3 469.3 475.2 477.8 482.7 482.6 481.9 481.8 485.4 491.9 499.2 508.4 515.4 521.2 530.7 533.8 535.1 540.1 556.2 572 587.9 603.7 614 624.7 632.5 637.3 641.8 638.8 628.5 614.1 601.6 590.8 578.9 570.5 560.9 549.4 536.7 522 517.3 511.7 509.8 507.9 507 512.1 506.9 497.8 489.9 484.4 478.5 474.3 462.6 451.1 447.1 448 443.1 444.4 438.7 433.7 428.7 421.2 414.7 407.5 397.7 379.1 373.5 365.4 357.8 350.6 345.2 338.4 328.6 316 302.2 293 293 293 293 293 293 293 293 293 293 293 293 293 294.3 297.6 304.3 305.9 308.2 309.6 312.5 314.9 316.9 319.2 317.7 314.6 312.8 311.3 310 307.2 309.5 312.9 315.7 322.3 327 332.5 332.8 332.7 340.9 347.6 354.9 365.7 376.6 386.3 394.8 399.6 402.2 407.5 412.6 413.7 411.1 406.5 407.1 407.9 406.1 404.2 402.3 400.5 401.2 404.6 399.9 402.1 408.1 407.8 405.9 403.5 397 394.3 392.4 389.1 385.4 384.9 383.7 380.1 378.8 377.5 374.6 371.3 366.9 362.7 356 350.6 346.9 345.3 345.4 345.2 343.7 336 317.1 325.5 342.1 355.7 374.1 390.3 398.3 404.2 404.8 409.9 416.9 415.5 409.9 401.7 393.6 384.9 371.2 362.6 353.9 348.2 344.6 336.7
408.5 414.7 420.3 424.9 429.1 432.2 439 445 451.7 456.2 461 461.3 460.6 461.5 461.6 461.9 462.4 463.4 465.4 466.4 470.2 473.1 475.1 477.8 477.6 478.2 481.1 485.9 492.1 500.8 509.1 518.6 527.9 525.3 531.1 533.1 545.5 562.5 579.8 596.2 608.9 616.3 623.9 626.8 627.7 623.1 616 605.3 590.8 584 576.5 568 557.3 545.2 530.7 518.2 514.7 510.4 504.8 504.6 511.3 509 500.7 491.2 481.2 472.9 466.1 464.6 452.3 442.1 437.8 440.7 436.9 433 431.4 430.3 425.2 417.3 410.6 404.4 398.4 389 375.7 365.4 357.6 350.4 343.3 336.7 329.2 318.3 307.2 295.1 293 293 293 293 293 293 293 293 293 293 293 293 293 293 293 293 295.4 295.1 295.3 295.9 296.6 298.6 296.7 293 293 293 293 293 293 293 294.8 304 308.5 314.8 317 321.6 330.6 338.9 345.8 355.2 365.1 376.3 384 389.6 394.8 398.8 400.6 399.9 396.9 396.8 397.2 397.8 396 393.7 393.3 391.8 393.1 395 394.5 402.2 406.5 408.2 409 406.7 399.3 391 386.7 382.6 377.5 375.8 374.1 371.3 371.1 368.9 366.4 364.6 361.5 357.3 351.2 346.4 343.7 341 340.3 341.1 339.5 334.7 317 319.2 331.8 345.5 358.5 369.6 375.2 380.5 383.7 388.6 391.5 395.5 391.7 386.2 378.5 371.2 362.5 354.6 345.8 337.8 331.1 325.5
406.2 413.2 420.3 427 432.7 436.6 440.9 447.5 454.4 460.9 467.9 467.4 464.9 463.9 463.3 462.6 463.5 463.1 462.6 463.8 465.4 467.8 469.5 472.9 472.2 474 477.9 483.1 489.6 496.4 504.9 514.1 516.7 520.8 525.5 530 537 550.6 571.9 586.6 600 606.4 610.7 615.5 616 611.2 604.2 596.3 588.5 581.4 572.5 562.1 549.2 539.6 524.6 515 508.9 506.8 505 501.7 500.1 499.9 495.9 483.5 473 461.3 452 449.6 446.8 439.5 433.7 431.7 431.7 427.8 426.2 425.1 420.4 413.8 406.7 401.7 395.7 386.7 377.1 365.5 357.3 349.4 343.1 336.2 329.2 320.9 309.7 299.6 293 293 293 293 293 293 293 293 293 293 293 293 293 293 293 293 293 293 293 293 293 293 293 293 293 293 293 293 293 293 293 293 293 294.8 301.7 309.8 320.1 329.2 337.4 346.2 353.2 360.3 369.5 375.7 383.8 386.4 386.4 385.3 388.4 390.4 392 390.6 385.8 383.9 386 385.4 386.6 388.3 396.8 397.1 399.5 402 408.4 409.8 404.8 396.3 386.2 377.7 369.5 366.7 365 363.3 362.8 360.1 359.2 357.2 354.8 352.1 347.7 343.2 340.4 336.5 335 336.6 335.7 333.2 320.8 312.1 318.9 331 341.6 351 354.3 358.7 367.2 366.5 368.1 370.1 372.7 368.8 363.3 357.4 354.7 347.2 340.3 331.1 325.1 319
403 410.2 418.1 425.7 432.4 438.2 444.8 450.5 457.2 466.5 472.1 472.6 468.8 466 463.6 462.8 461.6 460.5 459.6 460.5 460.2 461.6 463.4 464.9 464.6 469.6 473.9 478.2 487.4 496.5 499.5 508.6 509.6 512.1 517.5 524.8 533.7 543.8 554.4 569.4 584.8 591 595.5 600.2 599.4 597.8 590.1 587.5 582.4 577 566.9 556.7 546.2 533.6 519.9 507.8 505.9 505.5 501.3 497.7 494 491.6 490.9 480.9 465.6 453 442.9 438.1 440.1 437.5 429.2 427.5 426.6 425.2 423.1 421.1 415.6 408.6 399.8 396.4 391.4 383.7 376.1 367.1 357.2 350.7 343.9 336.7 330.4 323.5 315.9 308.5 298.2 293 293 293 293 293 293 293 293 293 293 293 293 293 293 293 293 293 293 293 293 293 293 293 293 293 293 293 293 293 293 293 293 293 293 293 302.8 313.8 322.8 331.6 338.7 346.1 353.9 362.7 370.8 373.7 372.7 374.4 379.1 383 386.8 388.1 384.9 378.4 378.5 380.6 380.1 382.3 386.9 389.9 392.9 403.3 409 411.6 413.8 403.3 388.2 376.3 367.5 363 358.3 356.9 355.8 354.7 354 350.4 349.5 347.8 344 340.1 336.5 332.9 331.2 332.1 332.9 330 325.2 312.6 306.9 317.5 325.9 333.3 331.2 338.3 348.2 353.2 356.6 358.4 358.4 358.4 353.8 350 345.2 337.9 332 325.1 321.1 318.7
400.2 407.4 414.4 422.7 428.7 435.5 444.8 453.3 460.1 468.4 474.5 477.8 473.6 468.3 465.2 461.7 458.9 456.9 456.4 455.8 456.2 457.2 458.2 459.1 459.1 463.5 468.1 474.3 484.1 490.2 497.1 502.9 505.4 509.4 514.1 521.8 530.6 538.5 539.7 553.2 565.3 575.8 578.8 580.5 579.5 585.6 585.8 580.1 571.5 564.2 562.9 554.6 541.2 527.6 512.7 504.4 501.8 498.9 495 492.2 490.5 483.2 479.6 470.2 460.6 448.8 439.5 430.8 431.4 429.1 426.6 425.8 425.1 425.1 422.6 420.9 413.1 405.9 398.1 393 388.4 382.8 376.9 368.8 360.6 351.2 344.5 338.5 332.3 327.6 321.7 312.6 305.9 300.6 293 293 293 293 293 293 293 293 293 293 293 293 293 293 293 293 293 293 293 293 293 293 293 293 293 293 293 293 293 293 293 293 293 293 293 299.9 309.5 316.4 324.1 329.8 337.8 348.9 358.8 363.4 364.6 366.8 372.7 378.4 382.6 386 386.1 378.9 376.1 376.9 376.1 374.5 378.9 383.4 389.1 399.5 409.7 411.4 412.3 407.7 395.2 380.1 368 358.1 354.2 349.1 348 347.7 347.3 345.9 343 342.1 339.6 336.5 331.7 328.5 327 328 328 324.3 322.8 320.2 314.3 305 316.2 321.4 323.1 332.3 339.3 343.5 346.1 346.1 345.2 348.9 346.7 342 338.1 334 329.7 324.3 322.6 325
401.3 407 413.4 419.5 426.9 434.6 444 453.4 462.7 471.7 478.4 485.1 480.6 470.2 465 460.6 457.3 454.2 453.1 452.8 452.7 453.7 454.7 454.9 455.5 459.9 463.9 469.7 477.1 485.1 494.5 499.5 503.3 507.7 512.8 517.6 523 531.2 533 544.4 553.1 559.1 563.3 567.1 572 576.6 578.8 577.1 570.8 565.3 557.1 546.5 533.4 520.3 509.7 499.5 493.1 489 484.9 483.4 479 471.5 464.8 462.6 450.8 441.9 433.9 427.9 427.3 426.9 425.9 425.3 424.7 423.1 421.8 417.5 411.7 404.6 399 392.3 386.7 379.2 371.3 362.7 358.9 348 343.8 339.4 334.7 329.8 327 322.1 312.5 306.4 298 293 293 293 293 293 293 293 293 293 293 293 293 293 293 293 293 293 293 293 293 293 293 293 293 293 293 293 293 293 293 293 293 293 293 293 293 301.4 306 312.2 322.6 333.1 343 352.7 356.3 360.3 366 373.3 377.2 379.5 381 378 374.7 373.3 371.8 369.1 371.4 378.1 384.5 394.6 400.9 403.6 404.9 405.6 399.2 384.6 364.7 354.4 348.2 342.4 341.1 340.9 340.5 337.4 337.1 337 334.2 332.3 329.1 325.2 322.3 323.4 322.6 319.5 317.4 316 313.7 307.2 304.7 310.5 312.9 322.5 333.6 337.7 338.9 338.8 337.3 339.4 340.5 337.6 333.6 332.2 335.2 334.4 332.4 330.2
401.3 406.3 412.5 418.9 425.5 434.7 445.1 455.5 464.3 474.1 482.9 487.6 486.5 470.8 464.5 460 454.7 450.3 450.5 450.4 450.2 450.8 450.7 450 454 457.9 461.7 467.5 472.1 479 491 499.7 502.6 508.4 512.1 516.1 521 526.8 532.2 536.3 539.8 543.1 552.1 561 566.8 572.4 578.6 578.3 573.7 569.8 559.1 547.1 531.5 515.1 505.7 496.6 482.9 474.8 471.9 471.1 466.8 458.7 452.2 449.9 444.9 439.7 430.4 427.4 427 426.7 426.4 426.4 431.2 431.9 427.7 420.6 414 408.6 402.1 393.1 386 378.8 371.9 365.2 356.7 350.2 344.8 339.8 335 331.2 328.2 324 317.2 309.6 304.9 295.1 293 293 293 293 293 293 293 293 293 293 293 293 293 293 293 293 293 293 293 293 293 293 293 293 293 293 293 293 293 293 293 293 293 293 293 293 293 294.8 305.8 317 324.8 333.9 343.1 350.3 357.8 365 368.9 371.4 375.2 374.9 372.8 370 366.6 362.3 364.1 371 377.3 385.5 391.3 397.6 398.5 402.9 396.5 382.9 365.8 350.9 339.4 334.9 331.6 330.1 329.5 329.5 331.8 330.9 330 328 326 322.7 318.7 318.3 317.2 314.8 312.9 311.2 309.6 304.3 293.3 302.6 306.6 314.2 318.8 326.7 329.9 330.8 332.5 333.3 332.7 333.8 333.2 334 335.4 334.4 334.6 331.8
