ncols 200
nrows 82
xllcorner 250000
yllcorner 814400
cellsize 50
199.8 197 192.3 190.5 189.7 199 207.9 209 209.7 209.6 208.5 207.3 207.9 210.8 217.8 219.8 220.8 221.8 220.5 219.2 217.8 216.6 215.8 214.6 213.2 211.3 209.4 207.4 205.9 202.3 195.4 191.7 191.7 191.7 191.7 191.7 191.7 191.7 191.7 191.7 191.7 191.7 191.7 191.7 191.7 191.7 191.7 191.7 191.7 191.7 191.7 191.7 191.7 194.9 195.7 196.6 197.3 199.9 203.3 203.4 202.5 201.4 201.4 200.8 200.6 201.1 201.6 202.5 202.6 201.6 202.7 202.9 202.1 200.8 201.2 202.3 204.9 206.3 206.5 206.1 205.7 205.8 203.8 201.7 202.1 203.7 205.2 209 208.7 215.3 235.5 235.3 236.2 239.1 247.5 258.8 272.8 283.7 295.6 304.5 310.6 322.7 338.9 351.2 367 378.4 378.2 390.6 398.3 394.6 375.2 367.3 359.7 347.7 337.8 327.6 315.3 305.9 299.3 299 291.3 292.1 304 308.7 311.5 325.3 325.1 326.7 326.9 332 336.9 342.8 350.5 353.7 356.7 360 363.6 368.2 372.9 374.5 367.1 347.5 352.7 373.3 389.2 409.2 423.5 440.7 456.2 472.9 486.5 496.7 503.4 506.5 502.7 503.8 502 500.8 499.7 500 501.5 502.2 504 505.2 505.7 506.1 507.5 510.4 514.6 519.6 523.8 526.8 530 534 537.7 542 548 553.9 558.8 566 570.9 575.1 580.9 586.4 592.3 597.9 601.3 604.3 606.3 606.9 607.3 606.5 606.1 605.3 604 600 592.7 589 582.6 574.8
196.9 195.5 194.6 192.8 191.4 197.3 205.5 208.9 208.6 209.6 209.8 208.9 209.7 214.6 219.3 220.3 221.3 221.1 219.6 218 216.5 215.4 214.1 212 210.4 209.4 207.4 205.1 202.9 197.5 191.7 191.7 191.7 191.7 191.7 191.7 191.7 191.7 191.7 191.7 191.7 191.7 191.7 191.7 191.7 191.7 191.7 191.7 191.7 191.7 191.7 191.7 191.7 193.8 196 197 197.6 199.2 201.6 202.4 201.5 201.5 201.7 201.2 201.8 202.5 204.7 207.1 203.5 204.6 203.8 203.2 202.5 202 203.1 201.2 201.1 203.1 204.8 204.9 203.8 204.6 203.4 202 204.5 204.5 209.1 210.1 216.8 212.8 222.4 234.7 235.9 241.8 250.3 261.4 275.2 287.1 299.1 307.6 316.3 327.8 343 355.7 367 373.3 372.7 377.3 378.2 370.9 355.8 346.2 341.8 335.6 327.9 318.8 310.2 303.1 298.5 296 295.9 306.2 311.7 312.3 324.7 327.4 328 329.3 335.4 340.6 345.3 353 357.5 360.4 364.9 368.8 372.5 378.5 383.6 385.9 384.9 364.8 352.6 375.9 396.6 413.4 426.1 442.6 459.9 473.4 487.2 492.6 499.2 500.6 500 499 498.6 498.6 498 499 499.8 503.1 504.8 505.6 506.2 506.5 507.6 510 514.2 518.3 521.9 524 526.2 529.9 533.4 537.4 543.5 548.8 554.7 561.4 567.2 572.7 577.9 582.5 588.4 593 596.1 598.5 600.7 601.8 602.3 603.2 604.5 604.1 604.6 602 597.2 591.3 585.5 577.8
197.6 198 198.4 196.2 198.2 204.4 207.2 207.3 207.3 208.1 209 209.6 212.6 217.6 219.9 220.7 220.9 220.3 218.8 217.2 215.5 213.3 211.3 209.3 208.3 206.9 205.5 202.6 198.6 191.7 191.7 191.7 191.7 191.7 191.7 191.7 191.7 191.7 191.7 191.7 191.7 191.7 191.7 191.7 191.7 191.7 191.7 191.7 191.7 191.7 191.7 191.7 191.7 194.4 195.8 197.2 198.1 200 200.8 201.1 201.7 201.8 201.9 202.2 203.3 205 206.3 206.4 204.6 205 204.1 204.4 203.9 204.9 203.8 203.6 203.1 202.3 203 204 204.2 203.8 204.4 204.6 208.3 211.6 211.3 224.8 226.7 218.8 224.5 234.6 237.8 244.7 253.2 263.6 279.3 291.7 301.6 310 320.2 330.3 342.2 354.2 362.9 363.6 362.7 360.4 352.5 345.4 340.4 340.3 337.2 331.3 324.4 314.9 305.6 301.4 297.1 299.3 298.4 311.7 312.4 324 329.4 332.5 332.2 337.9 342.8 349.4 354.9 363.2 365.9 371.1 374.6 378.9 383.2 387.3 393.5 396.1 396.3 373.2 358.9 374.8 406 418.5 429.9 443.7 463.1 476.5 486.5 489.6 495.8 496.6 496 495.5 495.6 495.8 497.2 499.9 500.9 503.6 504.4 505 505.4 505.5 507.1 508.4 512.1 516.1 520 521.8 523.8 527.1 530.9 535.8 539.5 543.4 549.3 557.1 563.3 569.4 574.3 578.5 583.1 587.6 591.3 593.5 594.9 598.2 599.5 601.7 602.3 602.8 603.3 602 600.1 595 587.2 580.8
201.8 200.4 200.2 198.7 199.5 206.3 208.4 210.2 208.9 209 209 210.8 216.5 219.8 220.3 220.5 219.9 219.3 217.5 215.6 213.6 210.8 208.7 207.4 206.6 205.1 202.1 198.3 192.3 191.7 191.7 191.7 191.7 191.7 191.7 191.7 191.7 191.7 191.7 191.7 191.7 191.7 191.7 191.7 191.7 191.7 191.7 191.7 191.7 191.7 191.7 192.7 192.9 196.1 197.1 198.1 199.1 200.1 200.6 201.1 202.1 202.5 202.6 205.1 206 206.6 207 207.4 205.8 205.3 204.8 204.5 204.6 204.8 204.9 205.7 204.4 203.5 204.2 204.2 203.9 205.5 207.7 211.3 213.9 212.7 216.1 221.3 225 219.6 226.9 235.6 240 248 256 264.6 282.4 296.7 305.4 313.4 323 332.8 341.1 346.9 351.2 352.5 350.8 345.1 340.2 337.2 336.5 335.2 333.9 325.3 317.9 308 301.5 298.1 298.4 304.2 304.5 312.7 325.7 332.6 337.2 338.3 336.3 348.2 352.1 357.1 363.2 371.8 375.4 380.8 382.8 387.2 391.3 398 403.8 407.7 407.7 395.7 377.6 377.6 407.8 420.6 431.3 443.1 460.6 474 482.1 487.9 491.3 491 490.1 491.9 493.1 494.8 497.6 499.8 501.9 502.8 503.7 504.3 504.8 504.9 505.7 506.4 510.9 515.3 518.7 520.7 523 525.1 529 533.7 537.4 540.4 544.4 552.5 559.8 565 570.7 575.4 579.6 583.2 587.2 589.2 590.1 593.5 597.1 599.3 600.3 600.7 600.9 600.6 599 595.2 588.5 581
200.8 199.6 199.3 199.1 202.4 205.7 210.8 212.9 209.7 209.2 209.3 213.3 217.7 219.1 220 219.3 218.5 217.4 215.8 213.8 211.7 209.6 206.8 205.6 204.1 201.5 198.5 192.6 191.7 191.7 191.7 191.7 191.7 191.7 191.7 191.7 191.7 191.7 191.7 191.7 191.7 191.7 191.7 191.7 191.7 191.7 191.7 191.7 191.7 191.7 192.5 192.8 195.5 196.4 197.4 198.3 199.3 200 200.6 201.2 202.2 203 204.8 207.4 208 207.9 208.6 208.5 206.9 206.1 205.9 206 208.7 208.6 209 209.5 208.2 206.7 205.9 204.5 205 208.5 211.8 215.1 215.1 216.5 218.7 221.7 223 224.3 228.7 236.2 246.5 255.4 260 268.4 285 301.4 307.1 312.9 323.2 331.6 339.7 343.8 345 344.1 340.5 337.3 335.4 333.5 331.4 330.6 327.3 319.1 310.9 302.9 299.8 298 305.1 304.8 313.5 327.9 334.7 345.2 345.6 348.6 351.2 357 359.7 363.5 370.7 380.1 389.1 389.7 392.4 394.8 400.4 410.7 415.4 418.7 421.1 418.3 407.2 389.8 390.9 419.3 432 442.7 456 467.4 475.4 482 483 484 484.9 488.7 491.6 495.1 497 499.8 501 502 503 503.7 504.5 503.6 504.5 505.7 509.7 514 517.1 519 520.7 522.5 526.6 530.4 533.3 536.1 539.8 546 554.8 561.8 566.4 569.3 573.7 578.2 582.4 584.5 585.6 589.6 591.4 594 597 597.2 597.1 596.2 595 591.2 586.6 579.8
199.9 199.4 199.3 199 202.7 206.7 205.7 210.8 209.7 209 211.7 215.7 217.6 219.3 219 218 217 215.4 213.3 211.1 209 205.7 204 202.9 200.5 197.4 195.6 191.7 191.7 191.7 191.7 191.7 191.7 191.7 191.7 191.7 191.7 191.7 191.7 191.7 191.7 191.7 191.7 191.7 191.7 191.7 191.7 191.7 191.9 196.1 195.3 195.1 195.7 196.6 197.6 198.5 199.2 200 200.6 201.2 202.9 204.6 207.3 208.6 209 210.8 209.1 209.7 207.8 208.2 207.1 208.4 210.1 212.1 211.7 211 211.1 210.1 209.1 206.5 208.9 213.8 220.1 220.7 220 219.5 226.6 228.8 228.7 234.5 235.6 241.9 253.9 259.4 263 272.1 282.7 298.8 308.8 312.8 321.5 330 335.4 339.9 340.6 339.5 337.2 334.1 331.3 329.1 326.4 324 318.8 310.4 305.6 301.3 299.5 306.3 305.4 314.7 328.4 332.2 339.6 346.4 356.2 351.3 358.7 363.2 364.8 373.2 382.4 384.6 393.9 399.2 403.6 407.3 413.4 421.6 428.5 432 430.8 428.9 423.8 415.9 407.2 414.3 432.7 441.8 453.3 461.3 468.2 472.8 476.2 478.4 484.6 489.1 492 493.9 497.3 498.9 499.9 501.1 500.4 502.9 503.9 502.6 505.3 506.6 508.7 512.8 515.1 516.8 518.5 520.1 523.8 526.9 528.4 530.2 535.5 542.8 549.5 556.7 560.5 564.9 569 573 576.2 579.5 581.6 585.2 587.1 589.2 590.9 592.1 592.2 590.8 588.8 586.5 581.9 574.7
199 199.1 199.3 199.4 209.3 206.2 204 206.9 208.2 210 213.3 215 216.1 217.5 216.5 215.7 215 212.6 210.4 208.1 205.1 203 201.8 199.2 195.6 195.1 191.7 191.7 191.7 191.7 191.7 191.7 191.7 191.7 191.7 191.7 191.7 191.7 191.7 191.7 191.7 191.7 191.7 191.7 191.7 191.7 191.7 198 197.3 198 197.9 196.6 195.9 196.8 197.7 198.4 199.2 199.9 200.5 202.3 204.4 206.3 208.9 209.4 209.7 211 210.7 210.5 210.3 210 209.8 209.6 210.6 212.2 215 215.9 215.5 216.1 212.7 211.9 214.3 222.8 226.3 227.7 229.3 228.3 227.8 231.8 234.6 242.3 247.3 254.7 259.9 262.2 265.4 275.2 284.1 295.6 304.5 312.6 319.6 326.5 332.5 336.4 336.9 335.4 332.8 330 327.2 324.4 320 316.2 309.5 308.1 302 299.8 304.9 306.4 314.5 329.3 332.1 334.8 343.7 353.2 354.3 359.1 366.7 366 376 382.9 387.4 393.4 401.5 410.6 417.4 420.7 430.3 437.2 446.8 449.9 445.8 436.3 430 426.3 416 419.5 436.1 443.3 450.2 455.2 461.9 463.7 470.7 478.3 484.4 488.8 491 493.6 496.6 498.6 498.1 499.9 500.9 501.6 501.9 504.6 504.8 505.8 507.9 510.8 513.1 514.6 516.5 518.4 520.7 522.4 524.2 528 529.6 536.7 544.2 550.7 555.6 558.9 562.4 565.9 570.7 573.7 577.6 578.8 582.1 583 584.6 584.5 585.7 584.5 582.1 579.5 574.1 555.1
203.2 206.7 199.2 203.4 208.1 203.3 204.3 205.8 207.6 210.3 213.1 215.4 215.6 214.9 214.1 212.9 210.6 208.1 205.7 203.3 201.3 199.3 198 195.6 193.1 192.6 193.2 191.7 191.7 191.7 194.8 191.7 191.7 191.7 191.7 191.7 191.7 191.7 191.7 191.7 191.7 191.7 191.7 191.7 191.7 191.7 194.8 198.2 198.8 200.3 198.6 197.1 196.3 196.9 197.6 198.4 199.2 199.9 201.2 203.4 205.7 208.8 209.7 210 210.4 211.4 211.7 212.5 212.4 212.1 211.9 211.4 212.2 213.8 215.7 220.6 221.7 220.9 218.2 216.5 221.1 228.2 229.1 230.1 228.8 228.3 234.4 240.2 244.4 251.7 259 261.1 262.8 265.6 270.3 275.7 282.6 288.1 303.2 312.7 316.5 323.7 330.4 333.4 333.2 331.4 328.7 325.8 322.6 319.7 315.3 310.9 308.6 302.5 301.1 300 306.8 311.5 321.7 332.9 332.4 337.5 349.3 356.5 360.7 367.9 372.1 371.1 381.2 389 393.3 404.1 410.3 423.4 427.1 431.1 443.1 452.5 457.3 455.4 451.3 443.2 433.8 429.4 420.7 421.1 434.1 442.2 448.2 451.5 458.7 464.6 470.7 478.3 484.1 488.4 490.3 491.7 492.9 495.8 496.9 497 498.8 500.2 502.2 502.9 504.9 506.9 508.4 509.5 510.3 511.4 515 517.2 518.5 521.1 522.5 524.8 525.9 530.6 538.6 544.9 551.3 554.5 556.8 562 565.2 568.5 570.9 573.4 575.8 576.7 577.6 577.7 577.7 576.2 573.9 570.7 563.4 545
205.4 204.9 199.2 203.7 201.1 201.2 203.9 205.5 207.5 210.4 213 213.7 213.7 212.6 210.9 209 207.1 204.2 202 199.8 197.8 196.7 194 192.9 190.6 189.7 189.3 191.7 191.7 197.4 191.7 191.7 197.2 197.8 191.7 191.7 191.7 191.7 191.7 191.7 191.7 191.7 191.7 191.7 193 200.5 201 200.3 201.2 200.2 197.9 194.9 194.5 196.8 197.6 198.4 199.2 200.3 202.1 205.7 208.5 209.9 210.4 210.8 211.8 213.5 214.4 214.8 215.7 215.1 214.5 214.7 215.7 216.3 218.2 221.1 223.1 222.9 223.6 222 222.4 226.6 229.1 231.3 231.5 233.1 238.4 249.2 257.4 258.2 265.2 269.9 271 271.9 275.1 283.1 283.1 289.1 296.1 306.2 313.7 322.6 327.4 330.1 330.2 328.5 326.4 323.6 320.7 315.5 312 309.1 307.2 301.6 300 305.6 308.2 314.8 323.6 332.1 335.4 346.3 354.8 358.1 368.6 374.6 374 380 389.6 392.6 404.7 412.1 425.1 434.1 434.3 435.3 447.9 458.5 460.2 455.2 449.2 441 433.3 429.2 419.8 434.7 437.3 441.8 447.2 452.7 457.9 463.3 470.3 477 483.1 486.6 488.6 489.7 490.6 493.6 494.1 498.6 501.3 501.2 503.5 505.2 503.4 506 507 509.4 510.9 512.7 514.2 516.3 514.4 515.8 519 521.8 526.1 531.5 535.9 542 546.6 549.5 553.2 557.8 562 564.5 566.2 567 569.1 569.6 567.2 564.7 566.7 567.1 558.2 548.3 538.1 523.7
195.8 196.1 195.7 197.8 199 200 202.1 205.2 207.3 210.3 211.4 211.6 210.5 208.7 207.4 205.3 201.9 200.4 198.2 196.8 195.5 193.9 191 190.1 189.6 189.3 192.2 194.5 199.1 196.4 195.4 201.1 199.1 191.7 191.7 191.7 191.7 191.7 191.7 191.7 191.7 191.7 191.7 192.5 200.6 203.1 200.1 202.3 202.2 200.2 195.8 194.4 193.4 195.7 197.5 198.3 200.9 201.9 203.9 207.9 209.4 211.1 212.1 213.3 215.4 218.3 219.2 220.2 222 220.5 219.8 218.9 219.2 219.7 221.4 226.1 226.9 227 226.8 224.6 225.3 227 230.2 234.2 238.9 242.3 249.9 259.4 266.1 271.1 276.5 282.8 279.2 276.4 281.1 284.9 286.2 288.4 294.7 307.3 313.5 321.3 326.3 327.9 327.3 325.7 324 320.9 316 312.5 309.1 307 303 301.6 304.2 308.9 309.4 314.4 318.8 328.1 337.6 350.4 354.3 362.1 375.9 376.4 380.1 386.4 391 398.4 409.6 419.9 431.5 437.1 436.1 438.4 446.9 453 453.2 450.3 444 439.5 434.1 431.7 423.2 431.9 437.3 440.8 445.8 452.2 457.5 462.9 469.1 475.9 480.2 483.5 485 484.8 491.2 494.8 498 499.7 502.9 504.6 505.1 507.3 508.6 508.5 506 506.6 509.8 511.4 511.3 515.4 516.4 520.3 523 521.2 528.7 533.5 536.8 539.5 541 545.2 549.2 558.9 556.1 558.1 560.9 563 563.7 559.2 558.7 558.3 558.3 541.7 549.6 553.3 544.4 540.1
189.6 190.7 193 196.6 199.1 201.3 203.4 205.6 206.6 208 208.8 208.7 207.2 204.9 203.6 200.6 198.5 196.4 195.2 194.2 193 191.7 190.6 189 189.8 190.8 194 196 196 197.7 205.3 203.4 197.8 195.8 191.7 191.7 191.7 191.7 191.7 191.7 191.7 191.7 191.7 197.8 201.3 199.5 201.4 202.7 200.9 198.6 191.7 191.7 191.7 194.3 198 201.3 204.6 204.5 208.8 210 212 212.7 216.7 222.3 224.1 226.8 229.9 228.7 228.9 227.4 226.7 225.7 224.4 224.6 226.1 228.3 233.7 234.6 234.4 234.1 233.3 234.9 237.9 243.1 250.9 256.7 261.1 273.2 278.7 285.4 288.7 290.4 286.2 282 285.1 287.2 287 287.4 295.1 308.8 317.1 321.4 325.6 327.3 324 323.4 321.2 316 312.1 309.1 307.7 313.8 303.6 302 305.2 309.6 310.8 313.7 317.2 328.1 338.3 343.8 354.9 363.5 376.9 378.1 381.2 392.6 392.9 396.9 407.4 421.7 432.4 435.8 434.2 438.7 442.1 445.5 445.5 443.3 440.6 436.5 435.2 433.6 425.8 426.8 431.1 433.8 439.5 450.5 456.5 461.8 467 472.4 476.4 479 484.1 490.1 494 496.7 498.9 501.5 504.7 507 507.8 509.4 510.7 510.5 509.8 507.4 509.4 510.5 512.8 515.8 519.7 524 527.5 527.8 526.7 531.6 534.8 537.2 540.2 542.9 548.4 549.7 553.9 557.3 559.5 559.5 561.5 564.1 567 567.4 569 571.5 576 575 567 576.2
189.5 192.9 193.8 197.8 201.2 202.6 204 204.3 205.2 206.6 206.5 204.3 202.8 201 198.4 196.5 195.7 192.9 192.8 191.9 190.7 189.5 189 188.6 190.1 193 196.6 200 200.2 202.4 202.3 202.5 200.1 197.3 191.7 191.7 191.7 191.7 191.7 191.7 191.7 191.7 191.7 199.4 199 200.2 203.3 203 200.1 194.9 191.7 191.7 193.2 198 202.6 206.7 208.9 208.4 210.5 213.2 215.9 220.4 232.4 235.3 237.1 237.3 239.6 239 237.8 236.3 234 232.4 231.5 230.4 229.1 230 233.6 239.2 242.3 242.8 245.2 246.2 250.6 256.8 262 264 274.2 284.4 292.8 297.1 303.1 298.9 292.9 289.7 290.3 292.5 291.6 291.4 294 304.8 313.4 319.2 322.1 324 321.2 319.9 315.9 312.3 308.8 313.3 316.2 314.4 302.8 302.8 307.4 309.2 312.1 315.1 319.5 334.4 339.1 344.4 356.3 362.5 369.1 379.3 380.9 386.3 396.4 400 408.7 421.7 431.2 429.9 431 436.3 437.3 438.8 439.4 438.4 437.2 436.7 436.1 435.2 432.9 431.9 433.2 435.9 439.7 443.4 448 454.5 460 469 476.4 481.5 487.2 491.9 494.8 497.4 500.6 503.7 507 508.2 510.7 512.4 512.7 512 512.3 511.4 511.5 513.4 515.6 518.9 521.4 525.3 528.9 530.7 531.2 529.8 536.1 538.1 540 541 544.3 549.1 552.2 555.8 559.2 562.3 564.7 568.2 570.5 573.2 577 579.2 579.2 581.5 584.7 588.9
196.6 195.6 196.8 199.1 200.8 201.6 202.2 202.7 203.4 203.6 202.4 199.5 198 195 192.6 191.9 192.2 190.8 189.9 189.5 188.7 187.5 188.5 190.4 191.2 195.3 198.7 200.4 204 201.2 204.1 205.5 206.4 201 191.7 191.7 191.7 191.7 191.7 191.7 191.7 191.7 196.5 198.4 199.8 201.2 202.6 202.3 197.4 191.7 191.7 191.7 200 205.6 208.9 209.6 210.4 212.2 218.7 221.5 227.1 242.1 253.2 254.1 251.5 250.8 249.2 249.2 248.7 246 243.3 240.9 239.8 235.1 233.4 232.9 236.3 240.5 246.9 252.1 255 257.5 261.4 266.1 267.9 271.5 282.9 293.5 304.9 311.2 314.2 310.1 300.7 295.6 295.2 297 296.4 298.3 296.4 302.6 311.5 317.1 318.7 318.7 318.3 315.6 312.1 310.4 314.1 316.3 316.2 313.9 302.4 304.2 307.5 311.7 318.6 324.3 323.9 330.2 339.4 346.8 357.4 364.2 369.2 381 382.2 385.9 395.6 402.1 408.6 419.1 425.9 424.9 425.8 430.7 433.2 434.3 435.4 436 436.6 437 436.9 436.7 436.5 437.5 439 442.4 445.3 451.2 455.4 460.9 467.1 474.2 480.4 485.5 489 493.5 497.2 500.6 505.3 510.4 513.8 514.6 515.8 516.1 516 515.5 515.6 516 518.7 521 524 524.9 529.2 530.1 530.9 533.6 534.9 534.9 535.7 536.4 541.1 541.5 544.2 549.7 554.3 557.1 559.9 566.7 569 572.3 573.7 577 580.4 584.6 588.5 592.2 595.8 599.2
197.9 195.5 198.1 198.9 199.8 199.3 200 200.3 200 197.7 195.6 191.9 190.5 189 186.8 187.3 188.9 188.7 187.9 187.3 186.9 187.7 189.4 191.2 192.8 195.2 197.8 198.9 203 208.8 208.3 207.2 206.3 199.3 191.7 191.7 191.7 191.7 191.7 191.7 191.7 191.7 191.7 198.2 199.8 201.2 202.5 198.8 191.7 191.7 191.7 200.7 208.9 209.8 210.5 212.2 215 220.9 228.1 236.9 246.5 251 268 284 275.4 272 271 267.9 265.1 265 263.9 258.4 252.9 245.2 241.2 240.2 242.7 245.2 254.2 262.6 266.1 270.2 273.3 275.8 275.9 281.8 292.9 304.9 313.4 324.5 325.3 317.6 308.7 302.8 298.9 300.5 303.5 303 299.3 301.4 309.3 316.1 318.9 317.9 316.5 314.6 312.6 313.6 315.5 317.4 316.5 307.8 303.5 306.9 309.9 314.4 322.4 331.2 331.3 333.7 339.8 348.1 357.8 365.4 370.3 379.2 382.5 386.6 391.5 399 406.4 412 418.8 420.5 422.7 426.8 430.3 432.8 434 435.4 435.9 436.6 437 436.8 437.6 438.5 440.8 443.7 447.7 452.5 457.1 464.2 472.3 479.4 484.7 489.8 494.5 500.5 504.8 509.1 514.8 519.9 523.1 523.8 522.8 520.9 521 520.5 521.3 522.7 527.8 529.9 531.4 534.2 536.9 536.9 537 537.2 537.5 538.8 538.1 536.5 538.6 542.3 546.9 550.5 553.7 558 563.3 570.6 571.5 574.9 578 580.6 583.7 589.8 594.6 600.7 604.6 610.5
195.6 196.5 197.9 198.6 197.1 196.1 196.3 196.5 195.1 191.9 189.8 184.4 181.8 181.4 182 183.4 185.5 185.9 185.7 187.2 187.6 188.4 190.2 191.9 194.3 193.7 196.3 207.7 211.2 209.8 208.4 209.1 207.1 201 196.9 191.7 191.7 191.7 191.7 191.7 191.7 191.7 191.7 198 199.7 199.8 196 191.7 191.7 191.7 201.4 209 210.4 214.1 215.5 218.3 225.1 234.6 243.5 253 259.9 270.9 276.2 295.6 302.3 299.3 296.5 293.9 292.3 293.4 288.5 283 271.8 264.3 256 253.7 257.4 264.5 270.9 276.9 281.8 284.7 285.6 287.3 289.5 293.7 305.3 317.1 321.6 328.1 332.3 323.8 314.2 305.8 301.7 302.3 305.2 305.3 302 302.1 306.4 314 317.3 318 316.8 314.5 313.6 315.2 316.9 317.9 316.8 305.1 304.6 307.9 312.4 317.1 326.1 332.5 334 336.5 342.5 350.7 360.6 368.4 373.4 381.5 384 386.4 391.5 397.6 400.7 410 415.4 418.3 420.6 424 428.3 431.2 432.9 434.5 435.3 436.1 436.7 437.3 438.2 439.6 442.6 445.5 448.4 453.3 460.4 469.1 476.3 482.7 490.4 496.9 502.6 507 513.3 518 523.1 527.9 531.4 533.2 530.3 526.5 524.9 524.7 527.8 531.2 537.5 539 542.3 542.5 542.6 543.8 542.7 541.6 540.6 540.7 539 537.7 539.7 543 550.1 556.3 558.5 559 567.3 572 574.2 576.3 578.9 583.6 585.4 592.1 600.2 605.6 610.6 614.1
193.9 195.6 195.4 194.9 193.7 194 193.3 192.9 190.2 187 183.8 179.6 178.6 178.8 178.8 179.7 181.2 181.9 185.5 187.4 188.6 190.8 192.6 194.2 194.4 194.5 197.8 210.7 212.3 209.1 210.2 210.5 203.9 203.3 204.6 191.7 191.7 191.7 191.7 191.7 191.7 191.7 191.7 191.7 191.7 191.7 191.7 191.7 193.2 202.5 208.9 212.5 214.7 218.2 222.6 228.1 236.8 250 259.7 268.5 275 290.6 303.7 313.1 323.4 323.4 320 317.3 318.9 313.5 306.9 297.2 288.7 279.9 274.3 275 277.5 284.7 288.2 293 295.7 295.4 297.5 301.9 302.3 305.3 317.5 326.8 329 329.9 329.1 320.8 316.4 306.3 303.1 304.1 308.5 307.6 305.3 303.5 304 312 316.3 317.7 316.9 314.5 314.6 316.1 317.4 318.1 316.7 304.2 305.6 312.1 317.4 324.3 329.4 334.9 336.6 338.8 345 354.1 362.2 369.3 375.8 382.2 384.8 387.9 394.9 397.9 400.6 407 412.9 414.9 417.9 423.9 427.3 430 431.8 433.4 434.8 435.6 436.2 437.4 439 440.5 444.1 447 450 454.2 463.4 470.5 478.5 485.9 495.5 503.4 507.7 512.7 518.7 521.3 529 535.2 540.9 539.1 534 529.7 527.2 529 536.4 542 547.1 550.3 552.4 552.2 551.8 550.9 548.5 547.7 543.6 543.2 539.8 540.4 543.7 547.9 549.3 559.2 560.7 564.3 568.6 572.4 575.7 578.3 581 585.3 586.8 595.7 603.2 608.3 613.2 616.8
193.7 193.4 192.8 191.3 191.2 190.6 190.9 187.8 186.6 182.7 180.4 179 178 177.5 177.2 177.6 182.9 185.6 187.9 190 192.6 195 197.7 196.4 195.2 194.5 197.8 201.6 206.9 208.5 211.4 208.5 204.4 204.1 197.9 191.7 191.7 191.7 191.7 191.7 191.7 191.7 191.7 191.7 191.7 191.7 191.7 197.7 204 207.8 212.7 217.3 220.4 226.2 235 248.5 252.9 260.7 277.4 289.8 295.9 302.1 313.9 326.4 342.2 350.8 345.9 341.6 339.8 330.6 323.4 317.9 308.5 297.8 291.8 294.2 297.9 303.9 306.2 308.4 307.4 308.2 313.9 316.8 313.9 313.9 322.9 330.7 330.7 329.7 326.7 319.6 314.3 307.9 304.9 308.6 310.6 310.4 307.5 305.9 306.3 315 317.2 318.5 316.3 314.9 314.9 316.7 317.8 317.9 311 305.7 307.4 315.4 322.7 326.4 332.9 337.3 338.7 341.7 347.4 356.4 365.5 371.4 379.3 383.9 386.3 390.7 397.2 401.1 403.1 406.4 410.1 414 418.4 422.6 426 428.8 430.7 432.3 433.6 434 436.4 438.3 440.2 441.7 444.4 448.6 451.5 455.1 463.5 470.7 479.5 487.7 495.5 504.8 511.5 515.8 518.5 523.4 532.3 540 542.2 538.8 534.3 531.5 530.2 536.7 544.1 549.9 555.8 561.1 563.2 565.4 563 562.7 560.8 553.8 548.6 544.6 542.5 540.4 545.4 552.4 553.2 552.4 560.5 567.9 569.4 572.1 573.1 577.5 582.6 589.3 592.1 592.1 601.8 608.3 615.1 619.9
190.5 190.3 189.9 189.3 188.9 186.6 186 184.1 183.2 181.7 179.2 178.3 177.4 176.4 176.1 179.6 183.3 185.8 189 193 195.7 200.3 202 198.1 196.9 195.6 197.9 200.3 207.4 209.6 209.3 202 200.3 200.4 191.7 191.7 191.7 191.7 191.7 191.7 191.7 191.7 191.7 191.7 191.7 199 207.2 207.8 208.7 212.2 218.5 221.5 226.3 234.5 248.2 263.8 278.7 289.9 296.6 305.1 313.8 324.4 329.1 338.8 352.4 358.4 356.9 355 356.8 350.9 346.4 336.4 333.3 328.5 321.4 313.9 313.8 320.6 325.7 325.3 323.2 325 327.1 326 322.2 321.2 324.8 329 333.1 335 331.9 324.8 312 307.2 305.9 308.2 310.5 311 310.1 309.3 311.6 317.8 319.1 319.6 316.1 315.4 315.2 317.4 318.2 317.7 305.8 307.3 309.8 320.5 325.4 329 334.6 338.7 340.5 344.1 350.3 360.9 368.8 375.3 381.1 386.3 389.2 394.5 397.5 402.2 405 407.8 408.4 411.7 416.1 420.3 424.4 427.6 429.7 430.9 431.9 435 436.2 438.2 440.7 443 444.5 448.6 452.9 456.8 462.6 469.7 479.6 488.1 494.4 501.4 507.3 512.1 517.1 523.8 531.9 538.4 539.3 536.9 534.5 532.6 535.1 541.9 550.7 557.1 563.6 575.1 580.1 575.5 572.8 569.5 569.5 559.5 551.5 548 546.2 544.6 543.3 553.4 559.8 559.3 556.9 564.9 568.9 570.8 572.8 578.7 584.2 589.4 593.5 596.8 600.1 607 614.7 618.5
187.6 187.5 186.8 185.4 183.3 183.2 182.7 183.1 182.3 179.7 178.5 177.6 176.6 175.7 176 179.7 185.4 188.3 191.7 195.4 199 202.5 203.5 200 198.2 196.3 197.3 199.6 204 205.4 204.2 201 196.8 191.7 191.7 192.1 196.3 191.7 191.7 191.7 191.7 191.7 191.7 191.7 198.5 210.3 211.6 211.7 212.6 218.3 223.6 230.3 238.9 246.8 257.7 273.3 297.5 307.9 314.7 323.5 334.3 339.5 351.8 360.9 364.9 368.4 369 369.7 371.8 374.6 371.4 366.5 361.4 354.3 347.6 341.5 335.5 338.4 343.7 343.3 339.7 338.8 337.9 335.3 331.9 330.8 330.2 331.6 335.4 341 337.4 325.4 312.6 307.1 307.7 311.5 311.9 314.2 313.5 312.6 312.9 318.1 320.3 318.4 316.5 315.8 315.8 318 318.1 316.1 306 308.6 311.4 315.8 324.4 329 333.7 337.2 340.5 346 354.7 364.3 372.1 378.3 383.7 387.2 391.7 395.8 399.7 403.7 406.2 407.8 409.3 411.1 412.9 418.5 423.2 426.8 429.6 430.3 432.3 434.5 436 438.2 440.6 443 445.5 448.9 453.6 457.8 461.3 468.6 475.5 483.9 491.9 498.2 504.8 509 514.8 521.7 527.3 531.7 533.1 533.6 534.1 535.5 540.6 548.7 554.7 562 569 578.8 586.3 584.8 583.9 580.6 572.3 561.3 552.2 549.5 549.3 550 548.2 551.5 563 563.4 559.4 563.4 566.5 569.3 571.5 574.5 583.5 588.6 592.8 597.9 601.8 609.1 613.8 617.7
184.9 183.6 182.7 181.2 181.1 182.3 182.4 181 179.6 178.5 177.8 176.9 175.9 175 175.7 180.1 185.8 191.1 195.9 199.5 201 204.1 205.5 201.9 198.8 197 197.4 198.7 199.3 198.1 199.1 200.9 193.1 193.7 199.6 204.7 191.7 191.7 191.7 191.7 191.7 191.7 191.7 191.7 207.1 218.1 216.6 219.4 220.1 224.6 230.7 236.4 247.2 257.7 274.9 290.9 313.1 327.8 338.3 340.7 348.7 358.6 366 369.6 376.7 382.8 386.9 389.6 391.7 395.4 392.4 391.7 387.8 381.4 375.5 369.9 362.5 363.1 365.9 362.2 356.9 355.1 353.5 349.8 344.4 342.8 341.6 343.1 355.4 356.2 344.4 317.7 309.7 307.5 310.1 312.6 314.3 315 315.1 317.5 317.9 319.5 321 317.3 317.4 316.8 316.9 318.2 317.5 306.6 307.2 309.5 316 326.6 326.8 330.2 333.4 336.5 341.6 350.6 360.2 367.4 373.4 381 384.9 389 393.4 397.1 400.7 403.8 406.2 408.5 410.6 413.6 416.6 421.3 424.9 428.2 430.9 431.1 433 435.4 436.7 438.2 440.9 443.7 446.4 449.4 453.2 457.4 462 468.4 474.9 479.6 487.1 494 500.2 505.2 512 518.2 523.3 527.2 530.9 532.3 535.1 539 544.7 551.6 558.4 564.9 572.4 578.9 586.1 592.8 594.6 592.3 575.9 562.4 553.6 553.3 553.1 554.7 556.9 550.8 555.7 564.8 563.9 563.2 566.2 568.6 569.7 577.5 583.5 589.1 593.5 598.1 602.4 606.9 612.7 615.9
181.7 180.4 178.3 179.4 181.4 182.1 181.1 179.5 177.4 176.8 176.1 175.4 174.7 175.2 177.3 183.7 187.3 195 200 202.6 204.1 206.2 205.7 202.3 199.1 197.3 197 197.1 195.9 197.4 198.1 194.1 195.1 204 200.8 191.7 191.7 191.7 191.7 191.7 191.7 191.7 191.7 201.6 213.8 222.4 223.4 226.9 231.3 229.7 240.2 245.5 257.8 269.5 285.1 301.8 320.6 339.2 347.5 355.3 370.6 376.9 378.9 388.4 393.1 394.8 403.6 408.8 410.6 412.8 410.3 412.2 409.9 404 403.4 400.3 397.4 390.8 386.5 382.3 374.5 372.2 370.3 365.5 359.8 355.2 353.2 360.4 367.7 345.7 331.6 318.5 311.5 310.7 311.4 313.8 315 316.3 317 322.1 320.8 321.5 320.4 317.7 317.8 318 318.2 318 315.7 307.5 311.2 313.7 326.1 329.5 328.8 332.7 336.2 339.6 344.9 353.7 361.6 369.7 376.7 383.9 386.1 390.2 394.7 397.5 400.9 403.4 405.9 408.4 411 414.5 417.9 421.4 426.3 429.1 431.5 433.1 435.4 436.2 438.4 440.6 441.7 443.3 446.9 450.8 454 457.6 462.8 469 473.9 478.9 485.4 490.8 497.2 502.8 509.1 514.5 520.1 524.8 528.3 532.2 535.5 541.2 546.8 552.4 559.9 568.3 573 579.5 586 593.5 601.2 599.5 582.9 566.1 559.1 555.6 556.9 559.2 560.9 560.1 553.6 556.7 557.8 564.1 566.9 569.2 573.5 576.1 579.2 587.6 592 597.8 602.3 605.5 609.9 615.2
177.5 176.3 176.7 180.2 180.3 179.3 179.9 177 175.7 175.1 175 174.9 174.7 176.3 180.1 187.3 190.8 198 201.9 202.7 204.4 205.2 205 201.2 198.7 197.1 195.6 193.5 195.7 194.2 192.3 192.4 199.9 207.3 201.9 191.7 191.7 191.7 191.7 191.7 191.7 191.7 193.7 202.2 214.3 223.1 226.1 235.9 243.3 247 252.6 261.1 271.3 281.2 295 309.7 319.4 339 356.4 363.8 376.2 382.8 386.3 392 398.5 410.6 415.9 417.4 421.4 423.4 424.5 425.5 423.3 418.4 419.4 419.6 424.9 423.4 417.9 409.7 400.1 392.5 388.3 382.5 378 368 362.3 359 352 342.2 330 319.2 314.6 314.1 313.6 314.6 316 317.4 322 324.8 325.5 326 320 317.8 318 318.2 318.2 317.3 308.9 309.9 313.7 321.9 331.1 330.9 332 339 340.8 345.2 352.1 355.2 366 373.1 380.8 385.9 389.4 391.8 396.1 399.4 401.6 403.4 405.9 408.4 411.1 414.7 418.2 422.5 426.4 429.3 431.8 434.4 436.9 438.3 440.5 442.1 443.9 445.1 447.3 450.5 454.6 458.5 463.3 468.2 473.1 477.4 483.5 489 495.2 500.5 507.2 513.2 517.3 522.6 527.5 532.8 537.4 541.2 547.7 555.1 563.1 569 573 576.2 582.2 594.4 605.1 600 586.4 574.3 567.4 562 561.3 563.3 564.1 562.9 563.9 564.3 563.7 564.1 568.1 572 575.4 579.7 581.9 586.1 592.7 596.6 600 603.5 608.8 613.4
173.2 173.4 175.6 176.5 176 178.4 175.8 172 172.6 174.3 175.1 174.9 174.3 178.8 184.6 191.3 195.3 200.8 203 203.8 203.4 202.1 202.2 200.3 198.8 195.2 191 191 192.5 190.4 190.6 195.6 202.7 214.9 199.7 191.7 191.7 191.7 191.7 191.7 191.7 191.7 205.4 208.2 218.1 224.4 228.2 240.6 252.6 262.8 269.5 283.1 283.4 288.5 296.1 309.2 324 342.4 353.8 365.6 382 392.2 399.4 407.8 410.3 415.7 430.3 433.5 435.1 432.1 431.9 434.2 432.5 432.5 436.6 449.1 452.2 452 446.6 435.2 425.8 419 410.2 409.4 400 382 369.2 362.3 355.6 348.7 334.8 323.5 320.4 319.6 317.8 317 317.6 319.7 325.5 328.6 328.3 325.8 318.3 317.7 318.1 318.3 317.3 312.1 307.9 311.4 316.7 331.6 332.8 333.5 339.8 343.3 346.1 349.7 358.3 365.4 366.4 376.2 383 387.1 391.4 394.2 397.8 400.4 403 404.8 406.6 408.5 411.2 414.9 418.9 422.8 426.7 430.4 433.1 435.6 438.2 440.4 441.8 443 445 447.2 449.1 451.9 454.6 458.9 463 467.9 472.2 475 481 487 493.1 498.5 505 510.9 516.7 522.2 527.9 533.2 538.5 542.8 549.5 557 562.9 568 570 577.9 585.1 590.4 591.3 589.3 582.7 578.7 576.8 574.2 573.2 571.9 568.6 566.7 565.1 566.9 566.1 562.3 568.9 574.3 577.8 580.4 583.6 585.5 591.1 593.5 597.7 602.3 607 612.9
172.6 172.5 172.6 173.9 175.2 176.7 171.4 170.2 171.3 173.7 174.5 175 176.9 184.7 189.8 194.2 199.1 201.7 203 202.8 200.6 199.1 198.8 196.2 192.3 190.3 190.2 191.4 190.6 190.7 190.8 197.6 207.2 208.2 191.7 191.7 191.7 191.7 191.7 191.7 191.7 198.2 206.9 213.3 219.4 225 233.1 241.8 262.4 276.3 282.7 297 308 306.7 306.7 316.9 329 343.9 357.3 369.9 393.9 407.1 411.6 422.1 427 441.3 450 456.8 457.9 454.8 454.8 447.7 445.9 446.9 458.5 465.6 467.5 468.6 463.5 460.2 458 449.6 441.9 433.8 422.1 403.7 386.8 374 359.4 349.4 341.7 330.1 326 323.5 322.9 322.2 321 323.1 329.9 330.6 328.4 323.4 318.2 318 318.3 317.4 315.2 309.5 310.1 313.8 323.5 331 333.8 340.6 344.4 349.2 351.6 354.5 361.5 369 372.7 377.3 384.2 388.7 393 396.2 398.8 401.2 403.5 405.4 407.2 409.1 411.4 415.1 419.4 423.5 427.2 431.1 434.4 437.1 439.8 442 443.6 444.7 446.6 448.5 450.6 453.5 456.2 459.8 463.6 467.3 471.9 475.7 480.7 486 492.6 498.4 504.6 511.1 517.1 522.6 528.7 535.1 539.5 545.6 552.9 557.6 562.6 570.6 576 582.8 588 590.9 591.1 589.4 586.4 586 586.7 589 587.3 582.2 576.7 570.6 568.5 568.4 569.2 568.2 568.3 574.4 578 580.9 583.9 586.1 589.3 593 596.1 602.9 605.9 611.7
171.5 171.8 173.7 176.2 176.2 172.6 169.6 172.9 172.9 174 174 173.5 181.2 189.2 193.8 197.5 200 200.8 199.4 198.5 198.1 196.5 193.2 190.9 189.9 189.7 190.4 189.5 190.7 191 193.2 191.7 201.1 191.7 191.7 191.7 191.7 191.7 191.7 191.7 191.7 200.1 208.6 214.3 218.2 228.3 238.8 252.2 265.7 274.3 287.6 310.7 329.1 342.9 341 333.9 338.8 351.1 365.1 379.1 399.7 413.5 429.7 439.6 449.6 461.8 465.9 472.5 469.1 466.7 474.5 476.7 470.7 466.6 468.3 473.1 477.2 478.6 481.5 482.9 477.3 469.4 467.6 461.4 446.3 427.6 406.4 389.6 370.5 359.8 348.5 339 333.6 330.9 327.4 326.7 326.5 330.1 331.2 331 330.6 321.2 318.9 318.5 317.7 316.9 313 310.4 315.2 324.6 325.9 327.9 337.5 343.5 348.5 353.5 354.3 359.3 365.9 371.3 377.4 383.9 390 388.4 393.5 396.7 399 401.3 403.6 405.5 407.3 409.2 411.6 415.4 419.7 424 427.9 431.7 435.1 438.4 440.3 443.3 444.8 446.1 447.4 449.4 452 455 457.9 461.3 464.6 467.9 471.4 476.2 481.1 486.4 493.2 499.3 505.2 511.6 518.2 525.1 531.8 536.5 542.5 548.6 556.2 562.2 570.3 576.7 580.9 585.6 590.8 594.2 595.3 596.3 594.4 597.2 601 601.7 599.1 590.4 581.8 574.2 571.3 570.2 569.6 568.4 567.9 569.5 576 580.8 582.8 586.4 588.5 591 596 600 606.3 611.3
170.4 170.7 171.3 173.4 169.6 171.5 172.3 173.3 174.3 175 175.8 178.4 184.8 192.2 196.8 199.2 199.7 199.6 198.4 196.2 195.7 193.5 190 189.4 189.6 189.4 188.6 190.5 190.8 191.1 192.8 191.7 191.7 191.7 191.7 191.7 191.7 191.7 191.7 191.7 191.7 198.5 207.6 212.8 219.7 231.7 246.9 255.4 264.6 279 299.4 323.3 344.3 358.2 375.7 375.4 377.8 386.7 382.2 393.3 409.5 420.1 434 445.2 456.3 466 477.4 481.5 472.2 472.5 482.6 482.3 478 476.9 474.7 480.7 485.4 489.6 494.7 493.5 488.4 480.7 485.6 481 467.4 438.1 419.5 406.2 391.8 381.5 360.6 347.2 340.8 337 332.5 332 332.5 332 331.3 332 327.9 318.5 318.8 319 316.5 315.7 312.7 314.8 323.7 331.7 326.7 328.6 332.1 344.6 347.8 355.7 355 363.3 368.2 372.8 380.1 387.7 391.6 393.7 395.6 396.7 399.3 401.3 402.1 405.1 407.1 409.4 411.7 415.7 419.9 424 428.5 432.3 435.8 439.1 441.6 442.9 444 446.1 448.1 450.5 453.4 456.4 459.3 462.4 465.8 469.2 472.5 477 481.7 486.5 493.3 500.5 507 513.9 520.5 528.2 533.9 539.7 547.3 556.8 563.7 571.1 577.9 583.4 585.2 588.6 595.2 599.5 602.7 605.6 605.2 608.9 610.7 607.5 605 596.1 587.1 577.6 574.1 572.1 571.1 567.4 570.3 570.9 576 581.3 583.8 586.8 588.8 590.8 595.7 599.5 605.1 611
169.2 169.4 169.6 171.2 172.6 174.2 174.9 175.5 175.5 176.4 178.1 183.3 189 196.7 199.3 199.7 200 199.2 198.2 196.8 194.3 190.5 189.7 189.5 189.8 189.7 189.5 190.1 191.6 191.9 192 191.7 191.7 191.7 191.7 191.7 191.7 191.7 191.7 191.7 191.7 198.9 208.7 213.3 220.8 233 250.5 263.3 272.4 288.8 306.2 331.2 358.2 379.1 391.4 403.8 407.4 418.6 429.6 432.3 417.9 421.6 430.9 446.1 459.5 472.2 478.6 475.5 472.1 476.3 476.4 478.7 477.9 475.4 476.1 481.1 485.3 494.1 500 503.1 500.5 493.8 497.4 495 484.7 452.7 421.5 410.9 403.2 385.6 371.5 354.7 346.1 340.8 334.8 333.2 332.7 333 334.9 332.8 319.3 318.4 319.5 316.8 314.4 312.7 314.4 319.1 331 332.5 330.6 330.3 332.8 349.5 349.2 354.4 355.6 362.7 370.3 378 384.2 389.9 393 396.3 397.5 398.7 398.8 399.9 402.1 404 406.2 409 411.8 415.9 419.3 424 428.6 432.9 436.5 439.7 442.5 444.2 445.4 446.4 448.6 452.6 454.5 457.2 459.1 462.5 466.2 470 473.6 477.9 482.5 487.6 493.5 501.4 508.7 515.3 522.4 530.8 536.8 545 553.9 564.4 575.5 583.7 586.5 589.8 592 596.5 602 606.8 609.8 610.3 612.5 614.5 614 609.5 607 597.4 587.6 581.6 575.4 571.6 567.6 569.8 573.7 571.4 577 579.5 584.7 586.2 588.7 591.9 595 599.4 603.8 609.8
169.4 169.8 171.7 174 175.3 175.8 176 176.2 176 179 181.8 186.5 191.8 197.8 200.3 200.3 199.8 199.1 198.1 196.8 195.4 192.6 190 189.7 190.2 190 190.3 191 191.7 192.7 192.8 191.7 191.7 191.7 191.7 191.7 191.7 191.7 191.7 192.8 193.8 201.1 209.7 216.2 223.9 234.5 251.3 272.7 292.6 297.6 313.7 340 363.4 390.2 406.3 421 435.8 446.9 454.9 464.2 454.6 444.5 442.7 448.6 463.3 471.7 471 470.9 470.4 469.3 469 466.2 466.2 469 469.9 473.6 480.5 492.1 502.5 509.6 508.7 507.7 512 506.3 495.5 465.5 426.5 406.5 397.7 388 377.9 360 350.1 343.2 338.5 336.3 336.4 339.3 336.6 331.2 316.9 326.4 320.7 313.2 314.4 316.5 325.9 331.5 329.3 331.5 331.9 331.2 340.8 349 350.2 355.1 356.7 362.1 372.2 379.3 385.2 391 394.9 397.6 398.4 399.2 400.1 401.2 403.6 405.9 406.5 408.7 413.1 416.4 419.9 424 428.3 433.2 436.9 440.4 442.9 443.8 445 447.3 448.6 451.8 454.5 456.6 459.3 462.6 466.3 470.6 475 479.1 483.2 489 493.9 501.1 505.8 515.6 525 533.3 540.6 550.7 561.4 575 587.3 595.7 598.1 601.6 602 605.9 610.7 612.7 613.9 612.6 612.8 613.6 609.4 606.9 601.3 591.4 584.8 579.2 574.9 570.5 572.4 577.3 577.8 576.1 582.1 581.3 583.2 587.6 590.1 592.6 595.7 598.7 604.3 610.2
170.4 172.1 174.3 175.9 176.9 176.7 176.7 176.7 178.1 181.2 184.8 188.8 194.2 198.5 199.6 199.8 199.5 199 197.9 196.8 195.4 193 191.4 190.2 190.5 190.4 191.2 192 192.6 193.3 193.7 195.4 192.6 191.7 191.7 191.7 191.7 195.1 200.6 200.4 200.5 206.9 212.3 220.1 225.6 237.6 255.1 281.6 311.2 325.3 322.9 351.3 368.6 394.8 415.1 429.4 446 458.7 467.1 475.5 476.2 472.4 469 457.2 455.7 461.7 466.3 464.8 465.9 462.3 457.9 454.8 450.4 454.8 458.7 466.6 474.4 482.6 490.8 503.3 509.6 519.7 525.5 521.4 497.5 471.8 445.6 418.2 397.1 389 378.4 363.6 355.4 348.1 343.1 341.6 341.6 342.1 338.7 323.5 317.4 318.9 313.5 315.3 321.1 333.2 339.5 333 331.6 333.1 333.2 334.6 347.8 346.8 351 351.6 355.9 364.7 374.6 380.1 388.3 392 394.2 397.6 398.4 399.1 400.2 402.6 405 407.4 410.1 411.2 413 418.7 422 425.7 428.8 433.3 437.8 441.4 443 444.6 445.1 446.2 447.9 450.4 453.6 456.2 459.4 462.7 466.6 470.6 474.8 479.4 484.5 490.4 495.2 500.8 508 518.9 528.2 536.2 545.8 556 569.1 582.3 596.3 606.2 610.8 613.4 615.5 617.3 618.7 617.1 617 614 612.8 612 608.3 604.3 597.2 587.9 580.9 575 571.1 571.9 575 576.7 575.2 576.4 581.8 583 584.8 588.2 590.5 593.9 596.4 598.3 603.7 609.1
173.6 174.6 176.2 177.7 177.8 177.6 177.6 177.9 180.4 183.9 187.5 191.5 194.5 198.7 198.3 197.4 197.3 197.6 197.4 196.3 191.7 191 191 191.6 191 191.3 192.1 192.9 193.5 194.1 194.4 194.3 191.7 191.7 191.7 193.2 196.3 202.1 205.9 206.8 204 209 216.5 223 229.4 239.7 260.1 289.7 335.5 350.7 352.6 356.9 377.4 395.6 413.7 429.8 444.8 454.1 460.4 466.7 472.6 472.4 470.4 466.5 462.9 458 452.6 449.7 454.8 452.8 449.9 448.2 447.5 449.8 455.7 463.3 471.5 479.6 488.1 495.4 508.9 527.3 537.3 532 513.3 487.9 468.1 436.7 409.9 393.9 380 368.5 360.9 352.6 348.1 347.4 345.7 343.3 335.8 313 312.6 312 318.4 328 333.9 334.3 335.4 335 334.1 335.4 335.3 347 350.3 348.4 350.6 352.8 356.2 363.9 375 381.7 392.7 393.5 394.8 397.3 398.1 399.5 401.6 404.1 406.5 408.9 411.6 415 417.8 418.5 420.9 426 428.1 432.8 437.1 441.2 443.1 444.6 446.1 447.7 449.7 452.6 455.3 457.4 459.9 463.9 467 471 475.4 479.2 484.8 490.1 496.5 503.4 511.5 520.9 530.5 539 550.7 562.4 574.9 589.4 606.1 617.3 620.8 625.5 625.9 627.7 625.6 622.4 621.8 617.7 615.3 614.2 610.7 603.1 593 585 577.7 572.8 572.5 575.2 578.1 579 578 578.6 579.4 584.4 587 588.8 590.9 592.3 596.1 598.4 602.9 607.3
174.2 178 179.6 179 178.7 178.5 178.5 180.2 182.5 185.2 188.8 191.4 193.6 195.7 196.1 196.3 196.7 196.8 195.9 192 189.7 190.1 190.1 191 190.7 191.3 192.8 193.7 194.2 194.6 196.2 191.7 191.7 194.8 200.5 201.6 202.6 207.1 209.2 208.2 208.4 211.5 219.7 222.2 233.7 247.8 270.9 301.2 346.5 356.7 361.8 363.5 372.9 390.5 406.9 424.2 434.1 447 451.9 454 456.9 455 449.2 448.8 451 452 449.9 439.5 439.1 441.9 440.4 442.1 445 448 454.9 462 469.8 481 491.8 506.7 521.7 532.1 537.1 530 518.7 500.1 480 455.1 426.3 404.9 388.3 373.3 365.2 356.7 352.8 353.4 350.7 338.9 321 313.5 316.8 328 333.8 337.9 339.8 339.1 341.2 340.2 338.4 338.8 345.3 350 352.5 350 352 354.1 357.8 363.8 374.4 384.9 393.2 394.5 395.8 397 398.9 400.8 403 405.4 407.9 409.3 412.6 415.8 418.6 421.5 424.8 427.6 429.1 431 436 438.2 441.2 443.3 446.7 448.3 449.3 452.2 454.7 457.4 460.2 462.7 467.2 472.8 477.4 481.2 485.3 491 497.3 504.4 512.8 523 531.3 542.2 553.9 565.2 579.8 594.5 611.8 624.1 629.8 631.6 633.8 634.3 632.8 629.5 624.2 619.8 614.8 609.8 605.7 594.4 587.6 580.6 577.1 573.4 574.2 575.4 575.6 580.1 580.8 582 581.4 584 587.3 589.9 593.3 595 594.6 598.1 601.6 606.4
179.2 179.8 178.6 178.9 178 177.6 179.5 182.4 184.7 186.2 188.9 191.4 192.5 194.3 196 197.3 197 195.2 191.8 189.2 189.3 189.2 189.2 189.7 190.8 191.9 192 193 194.1 195.7 192.4 194.9 199.8 204.8 204.3 202.9 202.7 209.6 209.7 210 211.2 215 219.9 222.7 233.7 254.2 286 319.4 351.8 362.7 360.9 364.4 371.9 385 399.4 407.5 418.1 427.5 434.1 434 431.5 434.8 431.1 430.2 432.5 433.7 432.1 429.3 429.7 431.3 433.4 436.3 440.4 445.3 452.6 460.1 470.1 481.7 495.6 509.3 520.8 529.3 533.7 531.4 521.6 509.2 488.6 465.2 438.8 413.9 390.6 376.7 365.4 360.2 360.8 360 346.5 321.6 314.6 315.4 326.8 341.3 342.3 346.6 348 349.1 348.7 349.5 345.9 344.3 346.8 348.3 350 350.9 352.4 355.7 359.8 365.8 377.2 389.5 392.2 394.1 395.4 396.6 399.5 401.7 404.2 406.6 409 411 414.7 418.3 420.8 424.5 427.8 430.1 432.5 435.9 438.8 440.7 442.5 443.7 447.5 449.2 449.9 452.6 454.2 456.9 460.1 463.3 469 474.8 479.5 483.7 488.8 492.5 498.6 504.6 514.4 524 532.7 544.2 556.6 568.5 581.1 598.3 614.6 627.6 638.2 641.3 642.5 640.9 636.6 630.7 624.7 616.9 609 602.2 597.3 589.1 583.4 577.2 575.4 574.9 575.5 577.8 577.3 582.2 583.2 584.6 583.6 584.5 587.4 590.2 593.9 595.8 596.2 599.1 603.5 606.9
179.2 179.3 181.1 179.9 179.6 178.8 179.8 182.5 184.5 186.4 188.4 191.1 192.3 194.2 197.4 197.2 193.4 191.2 189 188.8 189.3 189.1 189.7 190 192 191.9 191.9 192.6 193.7 193.5 191.7 193.2 203.5 203.7 203.9 201.7 203 207.2 209.6 211 212.4 218.7 219.8 224.2 233.8 255.7 282.6 308.7 328.1 349 357 360.8 366.7 375.7 382.4 390.9 399.2 406.9 413.5 414.7 419.4 423.3 418.2 416.5 418.3 418.7 418.8 419.9 422.6 424.4 427.7 432.5 436.8 442.7 450.6 459.8 468.6 479.7 490.4 499.9 510.1 521.1 528.9 531.2 527.8 514.5 497.6 480.2 449.1 417.4 393.8 380.2 372.2 367.2 366.8 363.5 343.1 318.1 314.7 319 336.1 349.1 354.5 357.1 359.6 359.7 360 360.6 359.4 362.8 365 356.1 351.3 352.2 351.8 353.9 356.3 362.3 378.1 390.7 391.3 392.1 394.8 394.8 399.1 402.5 404.9 407.9 410.5 412.5 416.3 420 423.5 426.3 429 432.2 435.4 438.4 440.5 442.4 444.1 444.9 448 449.7 450.9 453.4 456.4 457.7 460.3 465.1 470.8 475.8 479.9 485.6 490.9 494.8 500 506.1 514.7 524.3 533.6 545.6 558.2 571 585.2 600.1 615.3 629.2 642.1 647.7 650.7 649.5 641.2 632.2 621.7 611.9 604.1 597.2 593.6 584.8 579.5 578.4 577.8 577.1 578.6 580.5 578.4 583.3 585.3 585.7 586.8 587.2 588.6 590.4 593.3 594.6 598.1 601.8 604.1 607.9
181 182.7 180.7 178.6 180.8 182 181.7 182.7 184.7 186.7 188.6 190.6 192.5 194.7 192.8 190 187 187.3 187.6 188.6 189.3 189.8 190.1 190.2 192 192.6 193.3 193.8 194.1 195.5 196.9 192.2 191.7 202.1 204.9 203 201.6 207 210.3 211.1 212.9 217.3 218.9 224.3 235.8 257.3 279.2 297.2 315.7 337.9 355.8 358 357.9 360.3 363.8 371.5 378.3 383.8 390.3 395.6 399.4 406.1 403 401.8 404.5 408.2 410.7 413.1 415.7 418.6 423.1 427.9 432.8 438.9 447 455.2 464.3 473.7 482.7 491.5 501.6 511.9 520.3 526.5 525.3 514 498.9 478.4 448.2 411.9 393.2 383.2 376 374 373.3 367.4 348.8 318.1 317.1 330.6 349.2 361.2 368.4 372 372.9 373.6 372.8 372.9 374.8 376.6 372 365.2 359.5 356.7 358.5 355.5 357.4 358 369.5 382.4 380.5 381.1 382 388.1 400 403.3 406.2 409.2 411.8 414.3 418.4 422.3 425.2 428 431.2 433.9 437.2 439.7 441.9 443.6 445.2 447 448.8 450.4 452.2 454.3 457.3 461.1 464.4 465.7 471.9 476.3 481.6 486.7 493.2 498.1 502.8 508.2 515.2 524.6 535.7 546.8 560.2 573.5 587.4 600.3 615.2 628.4 641.3 648.5 655.2 655.8 647.6 635.6 622.4 608.4 598.3 591.6 587.7 583.4 581.6 580.1 580.6 582.1 582.5 583.8 581.6 584.3 586.7 586 586.9 588.5 589.4 591.9 594.9 597.2 600.5 602.7 606.2 608.4
184.1 181 179.2 179.7 181.3 182.5 183.4 185.4 186.4 188.4 188.5 188.5 189.8 190 187.8 187.6 187.3 187.2 187.1 188.8 189.4 189.9 190.2 190.4 191.7 192.9 193.6 194.1 194.4 195.9 196.8 197.6 199 200.4 200.8 199.6 204 206 209.6 210.2 212.2 214.4 218.7 224.8 237.8 255.5 271.6 288 305.5 322.1 336.2 348.5 352.7 349.8 351.7 357.9 364.6 369.7 375.7 381.3 384.3 388 390.6 392.9 396.8 400.9 404.5 407.5 408.8 414.3 418.7 423.1 427.8 434.1 441.6 449.2 456.7 464.9 474.2 483.8 492.7 501.3 508.5 512.1 513.8 507.5 495.2 468.3 435.6 409 394.8 386.2 385.5 382.3 378.6 374.4 356.6 324.2 334.6 352.2 366.6 375.3 381.7 385.7 389.2 390.2 389 390.4 390.3 386.3 382.1 378.6 373.9 370.6 366.6 369.8 370.6 367.4 363 373.6 374.6 375.2 377.1 381.1 392 402.1 406.8 410.2 412.8 416.9 420.7 424.3 427 429.5 432.5 435.7 438.7 440.9 443.1 444.8 447 449.1 449.7 451.3 453.2 455.3 459.1 463 466.8 470.6 473.7 476.2 481.4 486.6 494.6 500.3 504.7 510 516.8 525.8 534.6 548.5 563.4 575.8 586.7 600.9 612.8 624.9 637.1 647.6 654.6 656.6 647.5 633.5 622.2 609 602.1 592.4 588.9 585.5 582.7 584.4 586.1 585.4 585.2 586 582.9 581.7 583.9 586.8 588.7 590 590.6 592.9 595 598.9 601.5 605.2 608.8 610.2
183.2 181.1 179.8 180.5 180.5 182.7 185 186.7 186.6 186.3 186.3 186.2 185.9 185.6 185.9 186.6 186.9 187 187.9 188.7 189.4 190 190.3 190.7 191.8 193.2 193.9 194.4 194.8 196.1 196.8 197.8 199.1 200.7 202.2 203.1 201.2 205.3 209.9 210.4 211.5 213.5 217 224.8 237.2 251.3 268.1 282.3 298.4 311 321.2 331 337 338.5 343 348.4 354.2 358.9 365.8 371.1 374.8 378.7 381.8 385.7 389.8 393.4 396.9 400.3 405.1 410.3 415 419.3 423.5 429.9 435.9 443.1 450.2 457.6 465.2 474.2 481.9 490.2 495.5 497.1 496.8 484.3 463.6 445.6 425.5 408.7 398.5 398.1 395.6 389.7 383 376 364.8 329.9 357.5 371.7 382 391.8 397.9 403.9 409.5 412.5 416.6 418 408.3 402.1 396.3 392 386 380.3 374.3 372.7 373.7 370.8 359.9 375.9 381.2 384.2 380.6 380.4 389.1 404.1 407.7 411.2 415.2 419.2 422.7 426.3 428.8 431.3 433.8 437 440.3 442.4 444.3 447.1 449.7 451.6 452.4 453.1 454.3 457 461 464.9 468.7 472.5 476 480.8 484.1 487.7 495 501.5 506.6 511.8 519.4 527.4 537 549.2 563.2 575.1 585.7 597.9 608.2 620.2 630.4 635.6 641.3 641.3 633.9 624.9 617.4 609.4 603.9 597.7 589.2 586.6 589.4 590.5 592.9 593 591.2 588.7 586.4 586.4 588.3 587.6 589.3 591.1 593.4 595.2 596.1 599.5 602.1 605.6 608.9 612.9
182.7 182 181.5 181.9 181 184.1 185.8 185.9 185.8 185.3 184.7 185.7 185.6 185.2 186 186.1 186.5 187.1 187.8 188.6 189.4 190 190.4 191 192.1 193.3 194.2 194.6 195.2 196.1 197.1 198.1 199.7 201 202.5 204 205.5 203.6 205.3 207.5 211.2 213.9 216.7 223.2 234 247.8 261.4 276.9 288.8 298.3 308.3 317.2 323 330.1 335 342.1 347 351.7 356.8 362.4 368.1 373 376.2 380.1 384.5 387.9 391.4 394.5 399.9 405.4 410.4 415 420.1 425.9 431.7 438 445 450.4 457.8 464.3 471.5 478.7 482.4 485.2 478.2 459.5 444.9 434.2 421.3 412.3 411.2 410.8 402.7 394.2 386.4 379.4 368.2 338.3 368.7 385.7 398.7 410.1 414.9 422.8 431.8 436.8 439.2 436 428.6 420.3 410.2 402.4 393.4 389.2 383.4 378.1 379.8 376.7 361.6 380 383.1 382.5 382.2 382.1 394.1 406.7 409.7 412.7 416.9 421 424.6 428.2 430.6 433.1 435.5 438.3 441.7 444.1 446.4 448.6 451.9 453.4 454.9 455.1 456 457.3 462.3 465.5 469.2 473.3 478 482.9 487.7 493.5 498.2 503.7 509 514.4 520.3 529.1 538.6 548.3 560 572.1 582.6 591.7 601 610 618.1 621.5 624.1 624.5 620.2 615.1 612 607.7 603.4 596.7 589.2 592.5 598.6 600.1 601.5 599.9 596.1 592.8 587.8 588.4 588.6 590.4 590.8 592.7 594.1 596.4 597.7 600.2 604.8 608.3 610.9 614
183.5 183 183 183.4 183.7 185.6 185.3 186.1 184.6 184.6 184.7 185.4 185.5 185.3 186.4 186.3 187.1 186.9 187.7 188.5 189.3 190.1 190.5 191.3 192.4 193.5 194.4 194.8 195.4 196.4 197.3 198.6 199.9 200.9 202.6 204.2 205.7 207 206.7 207.4 210.8 213.7 217.6 223.2 231.8 243.8 255.2 269.5 278.7 288.3 302.3 309.8 315.3 321.3 327.2 334.2 340.1 346.1 351 356.6 362 366 371.1 375.8 380.3 383 385.9 390.8 395.6 400.5 406 412.1 417.2 422 427.5 432.9 438.3 444.5 451 456.9 463.1 468.3 469.4 467 459.1 451.3 443 433.6 425.7 426.6 427.6 418.3 405.5 395.2 388.4 379.6 346 343.7 379.2 399.4 413.4 426.5 429.9 440.8 451.2 452.1 452.6 452.7 447.7 439.6 426.6 411.5 401.6 397.5 393.8 384.9 394.8 385.6 370.3 383.8 384.8 383.3 384.6 394.8 404.5 409.8 412.9 415.2 418.7 422.7 426.6 430 432.4 434.9 437.3 439.8 443.2 446 448.5 450.9 453 455.3 457 457.6 459.2 461.4 463.1 466.7 470.9 475.8 481.2 485.7 491.4 495.7 501.5 506.8 512 515.9 521.3 532.8 541.5 549.3 559 566 576.4 584.6 593.6 601.4 607.4 612.6 613.8 613.8 611.8 608.6 606.4 604.3 598.4 593.8 601.4 606 609.3 609.5 609.5 606.1 601 593.6 587.7 589.6 588.4 591.6 593.1 592.5 595.7 597.9 600.8 600.9 604.6 609.4 612.4 615.3
184.6 184.6 184.6 184.9 185.8 187.1 186.7 186.7 186.3 185.5 184.9 185.7 185.6 185.7 186.3 186.5 186.8 187.1 187.7 188.4 189.2 190.1 190.6 191.6 192.7 194 194.7 194.9 195.9 196.6 197.6 198.9 199.8 200.8 202.6 204.2 205.8 207.5 206.6 207.7 210.4 212.7 217.9 222.2 232.1 244.2 251.5 264.1 274.4 286.4 295.7 302.4 308.5 314.6 322.3 329.1 335 340.6 345.6 350.7 356.1 360.9 366 371.5 375.8 378.6 382.4 387.6 392.9 397.5 403.1 409 414.2 418.4 424.1 429.8 434.5 440.8 446.1 450.7 455.9 460 459.2 456 452.3 447 443 439.3 442.8 443.2 433.3 416.2 404.3 395.3 383.1 357.4 349.7 382.5 398.4 414.2 427.1 440.8 447 460.5 467.2 469.6 471.1 464.1 460.3 454.1 436.8 420.6 404.9 399.8 396.1 397.6 396.6 396.6 375.9 378.8 377.3 392.1 394.3 404.3 407.7 412.4 415.5 417.5 420.5 424.2 428.2 432.2 434.5 437 439.5 442 444.7 447.4 450.1 453.1 454.6 457 459 459.8 461.9 464.4 467 469 473.7 478.2 482.9 487.8 493.5 500.2 504.5 509.9 515.3 520.9 527.6 536.5 544.2 552.1 559.2 564.5 573.5 581.8 589.2 596.4 602.3 606.8 608.8 608.1 607.9 605 601.2 599.5 606.3 610.2 616.3 618.3 619.2 620.3 617.1 611.7 602.1 595.2 590.4 591.3 591.7 590.7 594.3 595.5 597.4 600 601.6 604 604.6 609.5 612.9 615.2
185.9 186.1 186.2 186.7 187.7 188.5 187.9 187.4 187 186.6 186.2 186 186.2 186.4 186.6 187.1 187.8 188.2 188.6 189.2 189.7 190.3 191.1 192.5 194 196 197.8 199.3 199.1 197.2 197.8 198.8 199.7 200.8 202.6 205.6 208.7 208.4 210.2 207.9 211.2 212.5 216.4 219.6 231.5 243.3 251.5 261.7 271.3 280.9 289.4 295.6 301.7 308.4 316.7 324.8 331 336.4 340.9 346.4 352.5 356.8 361.6 366.6 371.6 375.6 379.8 384 389.1 395 401.1 406.5 410.6 415.3 421 426.7 430.9 435.9 440.5 444.1 448.5 452.2 452.3 451.2 448.5 447.9 447.7 450.6 446.7 436.7 422.4 416.7 406.1 389.4 371.6 369.3 391.8 403.6 414.5 425.2 438 446.7 456.7 468.6 482.3 490.8 488.9 481.7 474.8 463.8 445.2 427.3 416.7 404.1 399.1 398.9 401.5 401.1 393.7 379.3 376.1 390.5 397.2 404.8 409.3 413.6 417.6 419.6 423.7 427.5 431.1 434.4 437.5 439.9 442.2 444.6 446.9 449.4 451.9 455.2 457.2 458.3 461 463.2 463.9 467.6 469.6 473.3 476.3 482.2 486.2 491.2 496.7 503.8 508.4 512.8 518.5 524.4 532.1 539.7 548.7 554.7 558.8 565.1 571.1 580.1 587.1 592.5 597.6 600.4 603.7 606.7 606.1 605.7 608.6 612.1 617.4 623.7 627.6 629.4 631.3 627.8 624.1 615 606.1 594.6 591.3 593.1 591.4 592.4 593.1 594.2 597.1 599.7 603.1 605.3 607.3 609.2 612.6 616.1
187.3 187.5 187.9 188.3 189.1 189.9 189.4 190.9 190.9 190.9 190.8 190.6 190.4 190.1 190 189.7 191.4 191.1 190.4 190.4 191 191.8 193.4 195.4 197.7 200.3 202.9 204.3 204.4 201.3 198.6 198.9 200.1 204.4 208.7 210.6 210.3 210.2 225.4 212.5 212 213.1 216.4 219.9 229.2 240.1 250.3 258.3 268.4 275.7 283.9 289.8 296.3 304.4 313.1 319.2 326.8 332.4 338.1 343.7 349.2 354 357.4 361.8 367.4 372.2 377.1 380.6 386.1 392.1 398.8 404.3 408.8 412.1 416.6 421.7 426.6 430.4 433.9 437.1 441.9 445 445.5 444.5 443.8 445.5 447.5 444.6 442 431.7 424.9 418.5 399.3 377.7 385.3 401.5 407.4 418.9 430.6 442.5 452.6 456.6 466.2 475 485.6 497.6 503.6 497.8 485.8 471.9 452.2 437.5 425.7 413.1 406.7 402.7 402 403.2 397.4 389 379.4 391.5 400.5 408.2 412 416.2 420.4 423.3 425.5 429.5 433.7 436.7 439.7 442.8 445.2 448.3 450 452.5 454.8 457 459.1 461 463.6 467.3 468.8 470.1 473 476.5 481.3 485.2 490.2 495 500.3 507.4 511.9 517.5 523.7 529.7 536.8 545.2 553.1 557.6 563.4 569.3 573.3 578.9 586 593 600 602.4 606.5 609.2 610.2 615.4 618.5 624.7 629.7 633.7 636.1 638.2 639 635.2 628.7 617.9 605.8 596.2 593.8 594.3 592.7 595.6 595.9 596.7 596.4 602.7 603.6 606 608.8 610.1 613 616.6
188.9 189.5 190 190.4 190.8 191.3 192.2 194.3 194.3 194.3 195.4 195.1 194.3 194 195.6 195.7 195.9 196.3 195.8 195 194.7 194.1 196.3 199.2 201.8 204.3 207.6 209.1 207.7 204.9 201 201.8 205.4 210.4 215.3 214 212.7 225.5 230.7 225.9 209.8 214.1 216.4 220 228.2 238 247.3 258.4 268.1 271.9 277.9 284.4 293.2 301.2 305 313.8 322.5 329.5 336.2 341.8 345.6 351.3 355.1 358.7 362.8 367.9 373.7 378 382.6 389.1 395.3 400.3 404.5 407.7 412.1 416.7 420.1 423.6 427.6 431 434.6 436.6 437.9 438 439.1 440.1 438.8 435.4 431.8 424 417.3 404.1 395.8 396.3 410.4 413.1 422.1 437.1 451.3 460.2 465.3 472.4 475.6 482.8 495 502.2 510.7 513.7 504.5 485.4 463.9 447.8 435.6 423.9 416.1 410.2 407.3 407.2 401.8 392.7 379.5 396 402.4 412.2 415.5 420.1 422.6 424.9 428 430.8 435.3 439.1 442.1 445.1 448.1 450.5 452.8 455.1 457.3 459.5 461.7 464.3 466.2 469.9 472.9 474 476.7 479.9 484.6 489.4 493.8 498.3 504.9 511.3 517.6 523.6 529.3 537.2 541.7 551.1 557.7 563.8 570.1 576.3 581.7 586 592.6 600.6 605.3 608.1 611 613.5 620.2 623.3 626.6 633.9 638.6 641.3 645 646.7 645.8 641.5 634.9 619 606.5 598.4 596 594.9 594.5 594.7 596.7 598.6 599.2 599.3 602 608.3 610.6 612.1 613.9 616.7
190.7 190.5 190.8 191.6 192.3 193.4 195.3 197.6 197.7 199 200.9 200.1 199.3 199.5 201.3 202 201.3 200.7 199.9 198.4 197.8 197.2 200 203.8 205 207.7 209.9 209.6 206.7 204.9 201.9 204.7 208.4 213.5 217.1 212.2 222.3 229.2 229.7 228.3 217.6 214.2 217.5 220.6 228.6 237.2 246.7 256 264 267.1 272.8 279.4 287.1 295.1 304.2 310.9 318.4 327.7 334.4 340 344.4 348.5 352.6 356.2 360.6 366 370.9 375 379.2 386 390.9 394.6 397.8 402.2 407 411.3 414.6 417 421 424.8 427.2 428.4 430.8 431.2 430.8 430.7 429.7 428.3 426.1 419 409.6 396 394.8 405.4 418.1 423.9 436.8 451.7 466 474.1 483.4 489.8 494.5 501.6 508 516.3 520.6 524.5 518.8 498.9 476.5 458.2 444.7 435.4 425.9 418 411.9 409.7 407.5 395.3 388 401.5 407 414.6 419.1 422.6 425 428 431.2 433.6 437.6 442.2 445.4 448.5 451.5 454.4 456.7 459 461.1 463.7 465.8 468.3 470.8 473.6 476.6 478.5 479.7 483.4 488.2 493.7 500.1 504.5 511.3 518.4 524.8 531.6 537.2 544.7 551.7 558.8 565.6 572.1 578.2 584.5 591.2 598.5 605.1 610.1 613.2 617.2 621.3 625.3 629.4 633.2 636.9 643.6 648 652 656 658.3 654 652.7 638 623.9 612.2 604.2 599.8 598.5 595.6 596.6 598.4 600 600.9 603.2 602.6 605.2 608.8 611.9 614.9 616.7
192.8 192.7 192.4 192.6 194.9 198.4 200.4 201 202.7 204.6 205.9 205.1 203.1 206.5 207 206.8 205.8 204.8 202.8 201 199.4 199.7 203.6 208 209.4 209.9 209.2 207.7 205.6 204 202.8 203.6 205.4 209 213.2 221.2 225.2 224.5 223.8 222.2 218.5 216.8 215.3 217.3 228.4 237.2 246.2 253.3 258 261.7 267.9 274.1 280.2 288.8 296.2 308.6 317.1 324.7 330.3 333.4 338.8 344.5 348.1 353.1 358.2 363.4 368.2 372.2 376 381.1 385.5 388.8 391.6 395.8 401.5 406.1 408.5 410.4 412.9 415.7 419.4 422 423.8 425.4 425.1 424.1 422.6 420.9 419.1 417.2 412.8 397.8 410.7 413.5 422.5 434.9 443.4 461.6 478.8 490.1 502.9 508.9 514.2 518.6 524.2 531.3 533.8 536.2 531.4 509.4 485.8 468.1 454.8 444.8 434.9 425 415.8 412.2 409.7 397.8 393.6 407.1 414.4 418.8 422.7 425.3 428.3 431.2 434.1 436.9 441.3 445.4 449.2 452.3 455.1 458.2 460.9 464.2 466.8 468.7 470.9 473.1 475.6 478.1 481 484.7 488.6 492.1 494.4 500.8 506.6 511.8 519.3 528.3 534.1 539.8 545.2 554.5 562.2 568.3 574.4 580.5 588.4 597.4 604.1 611.2 617.2 621.7 628.3 632.5 634.3 638.1 640.4 645.8 651.5 658.1 665.5 668.5 674 675 670.2 664.7 648.5 632.8 620.9 611.5 605.8 603.4 601.5 601.7 602.8 603.8 606.1 607.1 610.9 612.1 612.1 607.9 612.9 619.2
194.8 195 194.7 198.6 201.9 203.6 206.4 205.6 208.5 209.9 209.9 209.7 211.3 213.4 212.9 210.5 209.3 208.7 206.4 203.3 200.3 203 207.6 208.3 208.5 208.8 208.3 205.7 204.5 203.3 202.7 203.1 203.8 206 216.2 221 220.5 223.5 223.6 223 221.3 219.4 222.3 221.2 226.4 236.6 244.3 249.6 253.9 256.6 261.2 267.6 276.1 285.7 295.9 307.4 316.2 319.8 322.1 331.1 335.3 340.6 346 350.2 354.4 359.8 364.4 368.4 372.4 374.8 378.7 382.2 386.1 391.1 395.9 398.4 400.8 403.1 406.3 409.7 412 415.6 416.8 419 418.9 417.8 416.7 415.4 413.6 412.3 407.1 405.7 414.3 418.9 426.9 444.4 456.2 468.3 484.2 501.6 516.4 528.4 536.5 539.2 541.3 547.5 549.4 544.3 540.6 518 493.2 477.6 463.1 450.2 438.5 428.3 417.3 416.9 409.4 397.8 400.8 413.7 419.1 423.6 426.7 429.4 432.2 435 438.7 441 444.2 448.8 452.6 455.5 459 462.6 466 468.8 471.6 473.8 476.5 479.2 481.2 484.2 487.4 491.6 497.2 501.6 506.8 511.2 515.8 522.4 528.2 539.1 545 552.4 559.7 564.8 572.2 578.2 584.4 591.9 601.6 609.5 619.1 630.7 636.9 643.3 647.2 647.9 649.4 651.9 654.9 661 667 673.6 679 683.5 690.4 689.3 686 677.4 666.3 648.2 635 622.7 615.2 609 608.6 608.8 608.9 608.4 608.6 610.6 614 615.4 615.4 616.1 611.5 620.7
196.8 197.3 200.2 204.9 206.7 208 209.5 211.9 211.4 213 214 215.9 218.1 218.9 217 214.7 212.9 212.2 208.9 206.2 202.5 206.4 207.1 206.4 207 207.4 206.6 204.8 204.4 203.7 203.4 204.1 205.3 211.1 219.9 226.6 232.2 234.7 235.7 224.5 222 219.2 224.1 223.7 226.4 237.7 243.6 247 249.1 251.5 256.1 262.3 272.3 283.5 293.9 294 300.3 310.2 322.8 328.4 332.7 337.2 342.2 346.5 351.2 357.3 360.9 364.6 368.5 369.7 371.9 374.8 380.8 385.7 388.8 391.3 393.8 397.9 401.8 404.6 406.2 409 411.6 413.5 412.7 411.3 410.5 409.5 409.2 409.4 407.2 407.6 419.7 422.9 431.8 449 458.5 470.6 485.5 498.3 514.2 526.4 539.6 547.6 547.4 552.1 556.6 552.7 543.5 522.9 503.8 487.1 466.6 448.7 434.8 428.3 420 416.4 403.2 398.8 409.5 417.5 423.8 428.2 431.1 434.8 438 440.9 444 447.2 450.9 454.8 459.2 462 465.2 468.5 472.2 475.4 477.9 480.7 483.6 485.2 488.6 491.4 495.8 500.2 506.1 511.2 517.2 523.7 526.7 536.2 543.9 547.5 556.8 563.5 570.2 576.6 584.1 591.6 597.7 606.6 614.6 625.5 638.4 649.5 658.5 666.7 669.4 668.5 668.1 666.9 670.7 678.6 685 691.9 698.4 707.4 711.5 708.5 702.8 692.9 680.3 666.2 652.9 641.1 629.2 620.7 617.6 616.5 615.5 614.6 613.9 616.2 616.7 616.6 617.9 619.7 614 621.5
199.5 202.4 205.3 206.8 208.1 209.4 210.4 212.7 216.9 219.1 221.2 221.8 224.5 223.9 223 221.2 215.8 214 209.5 206 206.5 208.1 207.1 206.4 206.3 206.1 205.1 205.6 205.4 204.8 205.8 208.1 211.8 216.8 222.3 230.5 230 234.5 230.6 228.6 225.2 221.7 224.8 226.9 227.8 233.5 230.9 238.3 243.9 248.9 252.5 260 270.9 281 290.7 302.1 308.6 316.4 322.5 327.4 331.6 336 340.3 344.6 349.3 354 357.6 361.2 364.6 366.5 368.2 371.6 375 379.7 382.4 385.8 389.2 392.6 398 401.6 403.1 404.3 406.7 407.4 407.1 406.9 407.8 407.9 407.3 406.7 407.9 409.3 419.1 428.4 437.3 447 457.4 468.9 480.8 493 504.2 513.4 522.3 529.5 538.3 546.5 547.1 538.4 516.3 505.1 495.9 481.7 461 444.2 433.6 426.8 416.9 408.9 403.8 412.9 418.9 424.3 429 432.8 438.5 441.4 444.9 447.7 450.1 453.7 457.5 460.4 464.1 467.4 471.3 475.5 479.6 482.9 484.8 487.2 489.8 492.9 498.1 502 505.6 511.8 518 524.2 530.3 538.9 543.6 551.3 557.1 562.6 569.4 575.3 583.1 589.6 596.5 602.7 608.9 618.5 626.1 639.6 653.5 664.2 674.1 681.6 684.6 686.2 685.6 683.8 687.6 693 704 711.7 716.1 723.3 721.7 720.1 713.3 703.7 692.4 681 668.3 653.4 647.3 635.8 628.6 628.1 626.4 624.5 623.2 622.8 622.7 622.3 623.2 624.8 619.6 621.1
203.2 207 209.2 210.2 211.8 214.9 217.3 223.5 225.5 225.9 227.5 229.7 232 231.5 228.7 222.1 216.7 213.2 209.5 209.2 209.4 208.7 206.8 206.1 206.1 206.9 206.2 206.7 207.4 210.7 212.6 216.4 220.3 222.6 228.6 228.9 229.5 230.6 229.1 229.3 229.3 227.8 228.9 230.5 237.3 240.8 239 236.2 239.7 247.6 256.1 260.7 268.3 278.3 289.5 301.9 310.3 317 322.6 326.7 330.8 335 339.4 343.6 347.9 351.6 355.4 359.1 360 363.4 365.3 368 371.4 375.4 377.8 381 385.2 387.8 392.6 397.8 400.7 401.2 401.9 402.5 403.7 404.8 405.6 407 407.2 408.1 408.8 410.3 416.3 424.6 434.6 444.4 455 460.2 472.5 486.8 496.4 503.5 514.2 522.5 525.9 531.1 530.6 517.3 496.2 483.7 474.8 463.4 451.7 441.4 431.6 421.4 408.4 407 417.3 421.5 426.3 430.9 436.3 441.2 444.4 448 451 453.7 456.4 459.4 463.3 464.9 469.5 473.5 477.7 481.9 486.6 490.5 493 495.7 498.8 503.1 507.7 512.9 517.7 523 528.9 538.7 546.1 552.6 559.9 566.3 571.5 577.7 583.7 590.3 596.4 603.2 609.2 618.4 626 631.7 642.9 656.1 667.6 678.1 685.8 691.7 698 701.3 701.3 700 705.2 709.9 718 723.4 730.8 735.3 734.9 733 726.9 717.5 710.2 697.7 681.5 666.8 657.1 648.5 641.7 639.7 637.1 636.2 634.2 632.6 630.3 629.8 630.2 631.2 622.6 621.7
207.2 210.6 213.3 215.5 218.6 224.5 227.7 233.5 234 233.1 239.3 245.6 244.7 234.6 226 221.9 216.9 212.8 209.7 209.3 209 207.3 206.7 206.4 208.9 209.6 207.6 211.9 213.7 218.7 220.9 224.6 226.3 228.7 231.4 232.9 234 237.5 238.2 239.8 238 238.1 237 236.6 240.5 242.5 242.4 242.8 241.1 245.6 255.6 260.4 267.5 277.5 290 300.1 309 316.3 322.5 326.2 330.3 334.3 338.4 342.6 346.8 350.4 354.2 356 358.7 361 362.5 365.9 369.1 373.1 375.9 378.2 381.8 385.6 389.1 392.7 397.6 397.5 399 400.5 401.7 403 403.3 405.6 406.8 407.3 406.9 408.2 410.2 425.1 434.3 439.5 449.7 457.8 468.9 484.5 495.9 504.6 512 518.6 521 523.3 520.8 505.4 486.3 469.5 459.7 451.5 442.6 435 425.7 409.7 411.7 423.4 424.9 430.8 436.6 442 444.3 448.5 452.8 457.4 459.9 461.7 465.9 467.4 468.9 472.9 475.6 480.2 484.1 488.1 494 497.7 501 504.5 509.1 514.8 520.4 527.7 534.8 538 548.5 557.8 565.8 572.8 578.4 584.3 590.9 595.4 600.8 604 612.8 619.7 627.3 635.5 643.5 653.4 664.9 674.8 684.2 691.5 697 702.7 708.2 711.4 713.2 714.9 721 728.6 737.2 741.9 745.1 746.6 746.2 744.9 743.2 735.1 727.1 713 698.1 684.5 671.7 661.9 656 651.5 648.6 647.1 643.8 642.5 639.3 636.2 636.1 635.8 630 627.6
211.2 214.5 216.8 218.9 222 228.2 229.9 235 241.5 245.4 251.9 248.7 243.3 235.1 229.4 223.6 218.4 213.3 210.4 210.1 208.4 207.2 207 210.5 214.5 209.8 216.3 220.8 223.3 227 231.9 235 234.8 236.7 238.9 241.4 243.4 245.7 247 247.9 247.1 247.2 247.2 245.3 245.7 248.4 247.3 248.1 249.2 246.7 251.1 262.2 269.6 276.7 290.5 301.9 310.9 316.7 322.8 326.5 329.9 333.7 337.3 341.6 345.7 349.3 352.1 354.4 357.2 358.8 362.2 364.9 367.4 370.7 374 377.2 380.7 383.9 387.2 390.3 393 395 396.8 398.7 399.9 400.9 401.5 401.4 405 406.6 407.6 407.7 414.3 416.4 430.6 440.9 447 454.6 465.5 473.9 488.6 497.6 502.1 505.2 504.3 501.7 496 483.6 469.3 456.5 449.5 438.8 429.8 419.3 417.2 410.9 427.8 429.8 435.7 442.4 446.8 449 453.5 456.8 461.3 466.7 469.4 472.9 475.2 476.2 477.1 480.9 483.6 487.2 491.7 497.2 502.6 507.1 510.5 516.1 520.5 528.2 536.7 542.4 551 555.9 565.6 575.9 584.6 594.2 600.7 607.8 613.6 616.4 619.2 623.6 630.4 637.1 644.6 654 663.1 672.7 682.2 691.7 700.2 704.8 711.7 717.3 722 725.3 728.2 731.7 738.9 744.9 749.3 750.1 751.8 752.1 752.7 752.2 749.6 743.6 738.2 730.7 718.8 707.7 693.8 683.9 673.6 668.8 664.4 657.9 655.1 651.7 647.5 643.1 642.4 639.4 638.1 633.4
215.1 217.6 221 223.7 227.9 230.7 232.2 239.6 243 252.9 252.3 241.6 237.1 234.3 228.9 225.7 219.1 213.5 210.9 209.7 208.4 207.3 207.3 209.4 214.3 221.2 226.1 230.8 233.8 237.5 243.3 246.4 243.6 246.1 249.4 251.8 254 255.3 256.1 257.3 257.7 258.4 261.1 256.4 252.6 252.9 253 252 250.2 254.3 253 264.5 273.2 281 291.8 303.6 312 318.2 322.8 326.7 329.8 333.4 331.9 329 340.4 347.9 351 353.7 355.3 358.1 361.1 363.1 366 368.3 371.9 376.1 379.6 383 385.3 388.3 392.1 393.2 394.8 396.4 398.3 399.2 397.8 401 405.3 407.1 410.4 409.2 411.4 418 423.9 433.7 450 453.7 464 476.9 484.1 489.9 496 493.3 489.9 484 472.8 462.9 451.9 441.2 429.5 426.8 423.8 431.1 434.1 414.1 437.5 442.8 448.5 454.1 456.9 458.4 463.2 467.5 471 476.1 481.2 484.2 485.4 486.2 488 490.3 493.2 497.2 501.6 507.4 512.7 516 520.9 525.8 531.7 541 549.9 558.7 565.3 571.6 584.4 595.7 604.9 614.7 622.9 629.1 634.3 638 635 641.2 652.4 657.2 666 674.1 681.3 692.6 702.3 711.5 717.3 725.1 730 733.4 737.6 741.2 739.7 740.3 744.4 750.3 753 753.9 753.5 754 756.9 755.1 753.3 749.8 742.1 734.5 724.7 716.8 707.4 698.1 691.7 685.7 678 670.7 665.9 662.9 656.3 651.2 649.1 643.8 644.2 644.6
219.6 220.5 224.5 228.6 230.5 229.9 232 243.9 250.3 246.4 236.8 235.7 236.6 236.7 233.1 227.8 219.5 211.6 209.8 210.4 208.9 208.2 209 218.6 226.3 230 234.3 240.2 244.9 249.7 253.6 255.9 257.2 259.9 263.1 264 265.9 265.3 266.5 270.7 271.1 267.6 265.2 261.2 262.1 263 262.5 258.9 255.7 258.2 254.8 263.7 278.9 284.2 294 298.5 298.9 305.2 311.6 311.5 319.7 319.8 311.7 314.6 319 327.3 337.2 349 348.5 352.2 358.3 360.5 365.6 368.4 371.2 374.6 378.2 382.2 385.4 387.9 390.9 392.8 393.5 394.7 396.3 396.6 399 402.1 405.3 407.7 412.7 415.7 416.1 421.1 427.9 436.9 445.9 456.6 462.1 476 480.6 483.4 486.4 479.4 472.8 464.5 448.6 435.6 431 429.6 434.1 442.1 443.8 445.7 436.9 433.1 449.6 453.5 457.3 461.4 464.1 468.4 472.7 478.6 484.9 492.2 497.8 498 500.6 499.9 500.3 503.2 506.7 509.9 513.6 517.9 521.9 525.9 531.2 537.9 545.7 555.3 563.5 571 577.8 587.7 601.9 612 625.5 636 646.9 657 660 656.1 657.3 665.1 667.8 677.3 683.9 692.5 702.9 714.2 725.5 730.5 737.9 743.6 745.5 749.2 751.3 754.9 752.9 750.3 749.8 752.2 754.4 755.9 756 756.1 755.5 754.7 753.5 748.9 742.3 734.8 727.1 718.9 711.2 703.8 697.5 692.4 686.6 680.5 676.6 671.1 662.4 657.6 654.6 647.7 650.9 651.9
224.4 225.9 225.8 226.6 227.5 230.5 231.1 239.8 249.8 245.3 233.6 233.4 241.5 237.1 230 225.3 215.1 210.7 210.9 210.4 208.2 209.8 218.3 226.2 232.7 236.2 242.9 250.2 257 261.1 265.5 271.1 272.7 276.8 279.8 277.5 275.6 275.3 276.9 280.7 281.7 275.9 269.2 269.9 270.9 272 272.9 269.4 262.2 260.7 261.7 268.1 269.7 274.7 288.1 283.2 297.8 302.3 307 309.6 309.9 311.4 315.9 318.8 319.2 320.8 320.7 329 331.7 338.2 345.4 356.4 364.6 368.4 370.8 374.5 377.9 381.6 385.6 388.4 390.3 391.4 392.4 393.2 395.3 397.9 400.2 403.6 406.5 408.9 415.3 417.5 421.2 420.1 424.8 433.3 443.6 450.5 459.6 472.3 477.1 481.9 482.5 479 461.8 448 433.9 432.5 434 441.2 451 456.3 456.5 453.8 430.1 445.6 459.2 462.3 465.7 468.9 472.4 478.1 484.2 490.8 500.1 504 509.6 511.6 518.8 518.2 524.6 526.9 529.5 528.3 529.5 530.7 534.1 538.6 544.5 551.9 559.9 568.3 575.2 584.2 593 605.7 616.1 632.3 649.9 662.7 673.5 678.6 680.3 680.5 679.6 682.2 688.2 692.5 700.6 708.5 720.6 732.3 740.6 748.3 755.5 759.2 759.1 762.8 766.1 766.7 764.5 758.3 754.2 751.6 752.6 753.9 754.6 753.8 753.5 752 748.6 744.3 739.2 732.5 724.5 716.5 708.6 703.4 698.3 693.2 688.5 684.5 680.3 676.6 670.1 663.8 652.9 657.3 657.5 656.3
228.4 229.7 228.8 228.2 228.3 229 231.1 239.5 243.1 237.6 229.6 232.1 237.2 230.4 223.6 216.6 211.1 210.5 209.3 208.6 212.4 218.1 226.1 232.8 237.3 247.2 254.4 261.7 269.8 274.9 280.1 288.1 295.4 295.8 293.3 291.1 287.8 286.8 285.5 288.7 288.7 283 278.2 279.2 280.9 283.5 284.6 281.6 273.6 268.9 268.6 276.3 281.2 289.9 300.3 305.5 310.5 310.9 314.6 318.2 322.3 327.9 332.4 335.1 335.4 332.3 329.8 327.6 329.6 329.3 334.2 342.5 357.7 367.5 371.1 374.6 377.5 381.5 384.1 386.4 388.3 390.2 392.3 394 396 398.1 400.5 404.8 407 408.8 413.9 419.8 425 424.3 427.3 433.4 444.2 452.5 458.7 471.8 475.9 481.3 486.5 469.8 441.9 437.9 439.9 450.6 457.8 465.3 468.6 469.8 469.8 465.4 439.6 453.9 470.1 473.5 476.8 479.4 483.9 491.1 496.3 502.5 512.5 517.2 523.2 528 530 533.4 538.6 543.8 545.4 545.5 546.8 546 548.7 553.2 558.6 564.7 571 579.5 586.8 596.8 610.1 622.7 635 654.3 671.6 685.6 695.1 698.2 698.2 697.1 693.3 696.4 702.6 705.7 712.4 722.4 736.3 747.6 756 763.7 772.2 773.4 773.4 776.6 777.3 774 770.2 759.8 753.4 751.1 750.2 750.4 750.8 750.2 748.6 746.6 742.7 738.2 732 725.6 719.6 712.8 706.5 701.2 696.2 692.3 689.3 686.2 683.2 679.4 674.1 667.6 661.6 662.3 662.2 658.3
229.7 229.8 230 230.1 230.3 230.4 231.3 238.4 240.6 229.6 226.1 227.1 226.8 219 213.1 212.4 216.1 212.5 208.8 209.6 217.6 225.1 231.1 237.6 248.5 261.1 270.9 279.8 285.6 290.9 297.6 301.7 306.8 306.5 306.6 304.5 298 298.2 295.6 295.9 293.2 289.6 288.4 292.7 297.3 299.2 299.4 293 282.5 277.6 276.2 278.4 285.7 294.3 303.4 312.6 316.3 322.7 325.8 326.3 330 336.1 340.8 344.8 345 342.8 340.1 345.2 350 351.9 336.2 337.8 349.8 357 371.1 374.9 378.6 381.5 384.6 387.2 389.4 391.2 392.9 394.8 395.8 398.6 401.3 405.1 407.3 409.1 414.3 421 424.9 425.9 428.6 436.1 447.8 454.6 463.4 477.1 478.2 481.3 474.4 437 437.8 449.8 461.6 469 473.3 476.8 478.2 479 475.7 471 462.2 449.7 470.3 480.2 484.6 486.1 494.9 499.8 504.6 509.9 517.9 525.1 531 537.3 544.9 549.1 554.7 558 558.1 560.3 562.7 563.2 565.4 569.9 575.9 581.7 589.9 597.5 601.8 615.4 630.3 643.9 654.6 670.5 689.9 704.8 710.8 710.1 707.8 705.3 704.7 708.1 711.1 715.3 721.3 733.2 746.2 756.4 766 775.1 780.5 778.7 780 780.4 778.4 772.2 763.8 757.3 752.5 749.2 747.9 747.2 746.6 745.7 742.6 740.1 735.7 730.3 724.6 719.7 715 708.8 703 698.5 692 690.1 688 685.5 682.5 679.8 675.2 668.9 670.8 670 666.5 662.3
229.9 230.2 230.4 230.1 228.6 226.3 228.1 231.1 231.2 224.5 220.4 220.6 217.5 214 214.3 215.9 213.4 210.7 211.6 214 220.9 230.4 236.9 249.6 269.1 280.6 288 298.8 308.1 314.2 316.5 318.4 319.2 316.8 317.2 314.2 309.4 308.6 307.4 306.5 300.8 294.4 299 306.1 312.6 309.1 306.4 301.6 294.6 287.9 285.4 283.9 290.8 298.7 307 313.8 319.1 324.3 327.7 331.2 335 341 345.2 348.9 349.9 350.3 352 354 356.1 359.2 359.8 343.5 339.1 349.3 365.9 374.9 378.4 382.5 385.5 387.9 389.8 391 392.3 394 396.2 399.1 402 404.8 407.3 409.6 414.5 421.2 423.4 425.7 431.7 440.1 450.8 456.3 465.7 475.9 478.2 473.4 476.3 475.8 477.7 475.6 479 477.9 480.2 484.2 485.5 484.7 480.2 479.6 476.9 456.1 471.2 484.6 490.3 496.6 502.4 509.9 515.7 522.2 522.8 527.6 534 547.6 559 562.6 564.8 568 569 568.9 574.2 579.7 582.7 589.1 596.4 605.9 613.9 618.4 625.8 641.3 649.6 663 673.4 685.7 703.9 715.5 718.6 718 712.7 712.5 711.8 713.6 715.5 719.1 726 737.6 749 760.5 767.3 773.7 775.1 774.8 775.5 774.8 770.6 763.6 759.7 757 752.4 747.1 743.8 741.3 740.2 736.8 734.7 731 725.5 721.5 718 714.1 709.7 703.8 699.1 693.6 689.8 685.8 683 680.2 675.2 669.8 675.4 675.2 673.6 670.9 669.7 668.2
227.8 229.3 226.1 224.5 222.1 220 219.1 219.2 219.5 218 217 216.9 217.3 215 214.4 213.2 212.9 212 214 217 224.8 236.7 248.8 268.4 286 299.8 307.7 319.1 328.8 335.2 339.6 338.2 338.1 331.1 327.1 325.6 321.5 319.4 319.2 316.8 309.1 305.4 311.4 318 322 315.8 311.9 308.9 302.8 297.2 292.6 290.7 295 302.7 309.8 315.2 320.7 326.3 330.5 335.3 340 346.6 349.6 351.8 351.8 353.1 355.3 357.1 358 359.9 362.1 359.2 346.7 341.5 348.7 355.1 360 373.4 385 388 389.6 390.8 392.1 393.6 395.7 398.2 402.7 405.2 407.3 410.1 416 421.4 423.9 428.1 436.2 445.1 458.9 460.4 465.5 476 486.2 494.5 502.6 507.9 502.1 496.5 486.6 484.3 487.2 489.3 491.2 486.9 483.7 483.7 485 455.6 479.9 494.2 495 501.1 510.4 517.7 524.8 527.7 532.1 538.6 544.7 557.6 572.9 571.8 573.2 574.7 578.9 582.2 586.8 594.7 598.5 604.7 615.2 622.8 630.4 640.1 654.6 664.5 674.3 678.3 692 702.7 712.5 718.5 719.6 716.4 713.6 714 714.4 713.9 715.3 720.2 727.5 736.9 746.8 756.2 761.4 764.4 765.7 766.2 766.9 765.9 762.6 759.6 757.5 755 749.7 743.6 737.7 735.2 732.4 728.4 725.4 720.8 717.5 713.9 711 707.4 703.8 698.3 693.8 690.8 685.9 681.8 677.1 672.8 676.7 678.8 678.6 676.9 675.5 673.5 669.6 671.9
214.3 214.3 214.9 216.1 215.9 214.6 214 215 215.5 216.7 217.5 215.6 215.5 215.8 213.7 213 212.9 213.7 221.6 222.3 232.2 240.6 258.7 278.6 297.4 316.9 317.3 330.3 345.9 356.3 349.5 349.6 347.3 343.5 341.2 340.5 337.2 334.3 327.6 322.9 312.9 319.1 325.1 328.1 328 321.9 316.4 312.5 307.3 301.9 297.5 294.9 299 306.3 313 317.9 323.3 328.4 333.6 339.1 344.9 350.3 353.1 353 353.9 355.3 357.3 359.1 360.2 361.7 364.2 365 360.8 352.8 345.5 348 350.6 367 383.5 378.2 377.7 390.4 392.8 394.2 396.8 399.6 403.7 405.6 408.1 410.9 417.2 422.1 424.6 430.3 440.7 450.5 458.8 464.5 469.6 479.5 491.5 501 505 506.8 505.2 500.6 492.1 490.5 491.6 493.1 493.2 490.6 487.2 487.1 483.5 466.4 483.7 493.2 501.5 506.1 512.2 519.3 528.1 535.7 545.3 551.4 554.4 573.9 585.1 586.7 582.6 585.3 587.4 592.6 599.1 604.8 610.6 618.7 630 640.3 649.9 658.6 674.6 680.9 688.5 698 709.3 719.1 720.5 721.1 720.2 717.9 716.1 716.3 716.3 715.5 715.8 720.8 728.9 738.1 744.2 751.3 755.3 757.9 758.4 758 758.3 757.9 756.1 753.9 751.9 748.5 743.2 738.3 732.9 729.9 724.5 719.1 715.6 712.2 710.5 706.9 704.5 700 697.7 693.9 690.7 685.6 680.6 678.4 674.5 682.2 682.9 681.3 682 681.2 679.4 675.8 673.1 674
216.2 210.2 210.2 210.2 211.6 215 216.4 217.8 218.1 219 219.5 217.2 215.9 214.9 213.7 213.9 214.7 216.8 222.5 224.6 234.1 244.7 263.5 285.9 303.9 315.9 320.4 335.3 354.6 357.2 356.9 364.3 364.9 359.6 356.7 352.5 350.4 345.5 337.7 326.8 323.3 330.4 331 336.8 336.3 332.1 326.3 318.9 311.8 305.8 301.6 300 303.4 309.5 316.3 321.2 326.1 331.2 336.5 342.4 348.5 351.9 354.1 355.1 356.2 357.5 359.5 361.2 362.4 363.5 365.5 368.6 372.2 370.7 356.6 356.4 353.4 359.4 364.3 364.4 371.1 378.3 392.7 394.8 397.3 400.5 404.2 407.4 409.2 411.6 419 423 425.4 437.1 447.7 454.9 464.3 471 481.1 491.4 494 497.1 499.7 500.9 498.8 495.7 495.9 495.2 493.1 494.5 495 492.1 489.1 492 491.8 467.4 481.5 498.2 509 514.2 523.5 530.4 534.4 541.7 553.1 558.9 562.6 589.7 602.2 598.3 590.6 597.7 604.3 603.3 604.6 609.7 618.9 631.7 642.4 652.4 661.5 671.3 686.8 694.4 704.3 711 716.7 720.9 722.8 724.3 723.4 723.1 722.2 719.7 718.6 717.3 721.9 725.8 731.8 738.3 743.6 747.5 750.6 751.4 751.9 751.1 750.3 749.6 748.8 747.1 744.5 742.7 739.4 733.6 728 722.2 717 711.6 708.8 705.4 703.7 701.1 698.3 695.1 691.9 689.2 686.4 681.8 680.9 677.5 683.9 685.1 684.3 686.6 685.8 685.2 682.7 678.4 676.2 676.6
218.2 210.2 210.2 210.2 210.2 219.1 218.8 218.9 219.7 221.8 220.3 218.8 217.5 216.2 215.5 214 214.8 218.6 222.7 227.5 238.7 247.2 263.5 283.8 298.1 312.7 322.7 332.9 350.6 357.7 359.1 362.3 366 370.7 369.3 370.8 365.5 352.7 343.7 333.2 337.3 337.5 335.3 340.5 340.8 340 330.6 322.2 314.1 308.8 305.1 304.3 308.6 314.3 319.9 324.4 330 334.4 339.2 344.6 348.9 352.2 355.3 356.1 357.6 360.8 361.5 362.3 363.4 364.5 366.9 370.3 374.4 375.9 377.2 374 361.8 358.4 359.3 361.5 367.2 372.4 380.1 396.5 398.7 402.6 408.1 408.5 409.5 412.5 421.7 424.3 431.5 439.5 450.9 460 469 474.7 484 492.1 494.9 496.2 492.6 492.5 493.9 496.3 500.1 498.2 495.6 495.9 496.4 494.1 486.8 483.7 477.1 473.5 488.4 501.5 513.6 519.3 531.6 537.1 543 551.1 558.7 562 571.5 600.6 606.8 602.4 604.5 606.5 609.1 610 609.2 614.4 626.4 643 650.4 657.4 669.1 677.4 691.7 701.2 711 719 725.3 728.3 728.4 729.3 727.9 727.7 726.8 726 725.9 723.7 725.4 727.9 733.7 738.5 743.5 746.2 746.6 747.3 748 747.5 746.2 746.5 745.4 743.8 742.5 739.8 737.8 731.8 725.6 718.1 712.3 709.7 704.7 702.9 699.8 696.8 694.2 692.2 689.1 685.8 682.5 680.6 682.4 685.2 689 690.1 689.8 690.4 688.6 687.8 684.4 680.7 679.7 677
210.2 210.2 210.3 212 216.5 219.7 220.7 224.1 226.2 226.4 222.6 219.6 219.2 219 220.2 216.2 216 223 226.2 231.4 239.8 249.8 263 279.9 292.8 307.6 319.5 330.6 344.5 348.6 351.6 358.2 365.2 375.3 376.1 373.3 367.2 361.7 347.9 343.6 351.9 348.8 341 343.1 344.4 342 334 326.4 318.1 311.6 309.7 309.1 314.9 320.4 323.5 327.8 333.1 338 340 343.6 348.6 352.4 356.2 357.2 358.8 362.6 362.2 363.2 364.3 365.9 368.8 372.2 377.4 380.7 383.4 384.6 380.7 379.8 384.6 381.1 376.5 368.7 373.8 387.3 402.1 407.8 409 409.5 410.9 414.1 423.3 425.4 436.4 447.5 454.7 465.6 470.9 479.7 487.4 493.8 494.8 498.4 494.8 492.6 492.7 494.5 498.3 500.1 495.8 496.6 497.2 491.8 480.5 483.9 484.7 484.8 496.4 509.5 518.3 529.3 533.5 544.8 550.2 557.4 561.7 565.9 575.1 596.4 602 606.7 613.1 616.5 618 619.3 619.2 623 630.1 646.2 655.4 661.6 674.1 684.7 694.7 706.2 713.9 723.3 730.3 730.1 730.1 731.8 731.5 730.9 731.7 733 734.1 731.6 731.1 732.2 736.3 740 742.2 744.7 744.9 746.4 746.7 746.7 746.2 745.3 744.1 743.3 741.6 743.1 741.8 735.3 724.7 716.7 711.7 705.5 702.9 699.1 697.4 693.5 692 689.5 686.6 685.4 687.9 685.8 690.9 692.2 692 693.5 693.5 693.3 691.3 688.5 685.6 684.4 683 682.3
211.1 210.4 210.7 216.5 220.2 220.9 226.4 230.8 233.2 230.5 223.5 219.9 219.9 223.5 224.5 217.9 217.5 221 228.8 235.3 242.8 253.4 268.3 281.2 294.9 306.7 315.9 324.9 335.1 338.9 346.6 356.5 369.2 383.2 378.7 375.6 371.3 363.9 349.6 354.2 361.7 356.4 346.5 347.1 345.8 342.2 336.2 330.2 321 314.7 312.2 312.8 318.2 322.4 326.7 329.1 333.7 336 340.7 343.5 347.8 353.2 357.9 360.1 361.6 363.6 363 364.7 366.2 367.8 370.8 375.4 380.3 383.4 385.2 386.3 387.4 388.6 389.8 393.6 397.3 375.8 375.4 385.7 395.7 408 409.2 410.7 412.5 422.3 425.6 434.4 443.5 455 458.9 464.4 473.4 481 490 492.4 494.3 496.2 496.8 494.3 493.1 493.6 494.7 496.4 498.2 498.5 495.6 482.9 491.1 497.5 496.2 496 503.5 511.6 524.6 533.6 540.4 553.1 559.2 562.8 564 574.2 583.8 595.7 604.5 615.5 621.4 627.1 629.7 628.8 626.1 633.1 638.4 646.7 655.9 663.8 675.2 687 696.5 706 714.4 719.4 726.1 727.5 729.4 733.1 733.8 734.9 736.6 736.7 736.7 737.3 737.3 736.8 739.1 741.5 743.4 744.8 744.9 745.8 747.7 747.1 746.8 747.2 747.3 747.8 747.2 747.1 742.7 736 726.5 715.7 710.7 704.7 699.7 696.4 693.9 692.3 689.1 688.9 690 693.5 692 694.7 694.1 696.8 696.9 695.9 696.4 694.8 691.9 690.6 687.6 686.2 684.9 685.3
213.7 210.7 211.1 216.2 221.8 224.1 231.2 239.7 238.6 231.7 225 221.2 219.5 220 220 219.4 218.8 222.4 230.1 237.1 245.9 256.4 269.5 281 294.7 305.1 316.4 320.6 326 337.7 346.2 358.3 370 377.2 374.1 376.1 372.7 360.1 357.6 364.8 365.7 356.6 352.3 351.7 349.7 349.4 342.3 334.6 324.8 318.2 316.6 316.8 318.5 320.2 326.7 329.1 329.2 334.1 342 345.5 356.3 365.1 360.6 361.4 362.2 363.2 363.7 365.6 367.7 369.2 372.6 377.7 382.2 386.6 390.1 391.2 391.3 393 397.4 399.7 402.7 381.6 376.7 388.3 402.5 409.7 411.3 413.1 420.3 425 431.3 440.5 445.7 461.1 460.7 467.4 474.2 481.4 489 496.8 500.3 496.8 496 495.9 494.9 493.6 494.5 498.2 499.6 496 484.8 493 504.1 507 507.2 510.8 509.2 519.9 532.9 537 544.8 556.5 563.2 567.3 570.5 579.5 589.1 600.1 610.1 621.1 630.4 635.3 638.7 636.5 632.2 637.6 643.8 652.1 657.7 663.7 674.2 687.9 695.9 703.7 710.2 714.4 719.3 723.2 727.2 732 734.1 734.9 736.4 736.5 738.9 739.8 738.5 740.1 742 743.8 745.4 746.1 746.1 747.4 749.8 750.5 751.4 750.2 753.5 754.4 752.2 748.9 743.4 733.2 724.2 714 708.1 702.9 698.2 696.6 694.5 692.9 689.6 692.1 694.8 695.5 697.1 699.2 700 698.9 698.8 698.5 698.2 695.1 692.7 691.3 691.3 690.8 687.2 690
216.3 215.2 219.6 223.7 230.7 238.9 246.1 249 243.2 235.1 229.3 225.9 225.1 223.7 222.5 220.5 220.9 225 231.3 238.7 247.3 256.4 267.7 283 292.6 302.9 316.5 321.1 328 336.1 348.8 354.6 358.3 363.9 367.2 369 367.2 362.1 367.7 370 367.8 365 361.1 359.4 356.7 356 347.2 338.3 328.7 323.3 322.3 319.8 320.7 320.7 324.2 326.8 334 342.1 340.2 344.7 356.2 374.3 360.5 359.3 362.1 363.2 364.4 366 368.3 370.6 374.3 379.9 386.4 390.1 392 392.7 392.9 395.7 401.2 404.6 400.3 375.7 381.8 396.2 407.2 410.1 412.4 419.8 423.9 428.5 435 441.4 447 458.7 462.1 471 478.7 486.4 495.4 498.6 498.8 496.9 496.5 495.5 495.5 496.5 495.7 499.4 499 489.9 495.6 503.6 509.5 515.6 521.9 526.1 522.5 529.9 536.5 543.7 547.7 556.4 564 570.7 577.9 585.6 594.9 606 616.5 625.2 633.2 635.9 640.5 642.5 636.4 642.9 647.1 652.9 658.2 662.5 672.7 687 693.3 701.3 707 710.4 712.6 716.7 722.9 725.5 727.8 729 730.8 732.9 739.3 740.2 739.3 740.3 741.9 743.9 744.9 745.3 746.5 747.6 749.8 751.9 753.3 752.6 755.2 755.4 754 748.5 740.5 730.5 720.2 712 705.6 702.2 698.1 696.3 694.8 692 692.4 695 697.7 699.2 701.1 702.8 701.8 703.1 701.7 701.2 698.9 695.4 693.2 692.3 692.6 691.5 691.9 691.9
219.5 221.8 224.1 237.3 254.9 260.5 262.7 253.8 248.7 241.2 235.6 233.3 232.7 229.9 229.5 224.6 223.9 228.4 233.2 239.3 248.9 256.8 272.4 285.7 294.5 302.2 312.9 321.8 328 338 344.3 348.3 353.6 358.4 364.5 365.4 367.8 375.9 383.3 392.3 390.3 378.4 372.8 368.9 361.1 354.3 348.7 340.4 333 328.9 326.6 324.1 325.4 325.1 326.4 330.3 340.8 343.7 342.9 344.8 345.5 349 353.6 355 356.7 361.5 364 365.4 367.2 371.8 377 382 393.8 392.3 392.6 393.7 394.2 398 405.1 407.3 384.5 380.7 388.2 400.6 410.9 412.1 418.6 423 425 432.5 438 443.7 451.9 458.6 466.2 475.1 481 488.2 493.8 495.9 497 496 496.2 497.8 499.9 503.3 507.1 503.9 499.8 490 496.9 507.8 519.3 527.2 533.1 534.1 526.5 535.3 541.5 548.2 555.1 560.8 566.2 573.3 579.5 589.7 599.8 609.3 624.8 630.6 631.4 633.8 637 638.8 638.9 644.3 647.2 651.1 657 662.3 671.2 680 688 696.6 701.2 705.4 706.3 710.5 715.5 716.2 718.2 720.6 723.8 728.5 733.3 734.7 735.7 737.5 739 740.2 741.3 743.1 745.2 746 748.6 750.4 751.3 752.8 753.4 753.1 750.7 744.5 735.8 726.9 718.1 711.4 706.3 702 698.8 696.8 695.5 695.4 695.5 698.1 700.1 702.4 704.3 705 704.8 705.4 703.6 700.6 699 696.5 694.4 693.2 692.7 691 693.1 693.9
225.5 228.3 235.9 255.5 279.7 289.6 284.9 270.4 260.4 254.5 247.4 242.5 242.1 239.3 232.4 227.9 230.4 234.4 239.2 246.4 255.1 262.9 274.9 284.9 292.4 298.6 307.2 317.4 327.6 333.6 340.2 344.5 350.3 358.2 363.2 365 369.4 379.8 394.8 401.6 393.8 387.5 379.7 374.6 364.5 357.3 351.2 346.5 340.2 333.5 329.3 326.9 327.9 329.2 330.9 335.3 341.3 342.3 344.9 348.7 352.1 354.6 355.9 359.7 362.5 361.1 362.7 365.7 367.8 372.6 378.7 386.5 394.5 393.3 393.6 395.2 398.7 405.1 408.8 408.1 400.1 381.4 390.4 404.7 412.9 415.9 422.7 424.1 425.9 431.6 437.5 445.2 458.5 464 470.1 477.4 480.8 485.8 489.2 492.6 494.7 495.3 496.6 504.4 507.9 510.6 511.2 506.1 499.4 491.2 497 510.5 529.5 533 535.8 539.8 533.5 537.9 544.1 551.7 560.4 564.5 570.1 575.7 581.8 589.9 600.4 608.9 619.8 627.2 632.3 634.7 636 637.9 640.7 642.4 646.1 649.7 653.4 658.9 664.4 672.9 680.4 686.6 691.4 696.1 699.5 703.2 707.1 709.8 711.4 713 714.4 718 723.4 725.1 727.8 729.7 731.7 733 733.9 736.1 738.9 741.5 743.4 745.5 747 748.5 748.2 748 746.4 738 730 722.9 716 709.5 704.7 701.6 699.3 696.1 697.1 697.4 701.1 702.7 704.3 707.8 708.2 708.2 707.6 706.9 705.2 702.5 700.5 699.7 697.8 696.2 692.8 692.4 691.3 692.6
232 238.5 250.9 272.6 298 312.7 310.3 307.3 276.5 277.7 269.9 256.9 252.2 250.6 242.3 238.1 237.5 241.6 246.4 254.1 263.2 273.5 281.2 288 293.2 298.7 307.5 318.8 327.1 332 338.2 343.9 353 359.2 361 366 374.6 386.6 400.3 407.1 398.4 395.4 398.8 391 377 368 362.3 356.2 347.1 338.7 333.5 330.9 331.5 333.5 336.5 341.2 343.6 344.9 347.2 353.1 356.6 357.2 359.9 362.5 364.9 366.3 367.8 368.8 369.1 372.6 378.8 387.5 393.1 396.2 397.4 398 405.1 407.3 408.7 409.4 407 385.3 397.7 411 416.3 421.8 423.3 425.3 428.9 431.5 439.7 448.1 462.1 465.2 472.6 477.4 481.1 483.1 487.5 491.9 492.9 494.1 499.1 503.1 508.6 511.1 511 506.3 497.1 492.3 500.5 523 525.3 533.4 538.7 538.4 537.4 539 544.4 553.8 562.3 568.7 574 580.5 586.6 592.5 600.5 606.9 615.7 624 630.1 633 634.8 637.5 640 641.5 645.3 647.7 651.4 655.8 661.5 667.1 673.4 679.6 684.1 688.2 691.2 694.2 697.9 700.7 704.2 704.1 705 707.5 711.2 712.8 716.3 718.2 721.3 723.3 724.4 726.7 730.9 733.8 736.5 737.8 738.9 741.4 741.4 740.2 737.8 731.2 726.2 718.1 713.4 709.6 702.9 698.4 698.1 699.3 700.8 703.8 706.9 709.2 709.6 710.4 711.3 710 710.2 708.9 708 706.2 704.1 704.3 703.6 701.5 698.9 697.2 698.2 697.8
242 249.7 265.1 291.8 311 321.1 325.5 328 314.3 307 299.5 285.6 269.9 262.7 256 250.1 247.3 249.1 255.3 263.3 273.1 283.5 292.1 297.7 302.9 308.7 319.3 323.3 327.1 331.4 336.6 344.3 351.9 356.2 360.5 367.4 380.1 387.9 395.3 403.3 411.9 411.4 405.9 394.2 376.2 368.1 361.4 353.2 344.6 342.6 337.8 337.4 339.7 340.9 343.9 346.2 347.2 347.8 351.6 357.2 357.8 358.7 362.3 365.2 367.9 371.1 372.5 372.9 373.1 375.2 381.4 390 391.1 397 398.1 398.6 404.2 407.9 408.6 409.8 402 388.5 398 416.2 422.9 423.7 424.2 428 432.7 434.3 442.8 449.3 463.9 466.6 470.2 476 479.9 483.1 488 492 492.1 492.8 497.2 502.4 507.9 510.9 508.1 500.8 492.3 495.6 516.2 530.9 526.4 533.1 544.4 543.9 541 541.2 545.8 554.1 561.6 568.9 575.2 582.2 588.7 594.5 600.4 606.7 612 620.4 627 630 632.9 636.4 637.7 640.4 642.5 646.3 649.9 653.6 658 663.1 669.1 673.8 677.7 681.3 684.6 686.8 688.8 691.1 693.9 695.8 695.6 695.2 696.5 699.3 703.1 705.2 708.8 712.1 714.2 717.9 721.1 724.3 727.3 729.5 731.1 732.4 732 731.6 731.1 728.3 725.5 722 717.5 711.2 706.2 707.8 706 706.2 708.8 713.9 714.4 714.6 715.4 714.8 713.5 713.8 713.3 713 713.8 712.2 709.3 708.5 709 706.9 704.4 703 703.5 702.5
251.6 259.7 276.3 300.8 317 335.2 343.5 337.7 336.9 338 327.9 317.6 299.6 282.6 270.2 262.9 258.9 262.3 268.6 275.8 283.9 293.6 302.9 309.5 316.6 323.8 327.1 328.7 327.4 329.6 336 344.6 351.6 356.5 362.2 370.5 376.7 384 391.5 405.7 413.2 409.9 400.7 386.5 371.6 363.8 357 346.2 341.5 339.4 339.3 343 347.2 348.6 348.8 349.6 351.5 354 357.7 360.8 361.4 362.9 365.6 369 372.3 375.7 378 381.5 382.4 384.9 380.4 392.3 394.9 396.5 398.9 400.2 407.1 408.5 410 412.5 408.8 391.4 403.5 419.3 424 424.7 425.6 430.4 436.1 440.5 445.6 452.2 462.2 467.8 471.5 475.8 480.8 484.8 491.4 492 491.5 492.5 497 503.5 508.2 509 501.6 492.8 493.3 511.2 534.1 542.1 537 531.7 544.7 547.7 545.6 545.7 548.7 554.7 561.4 568.3 572.8 582.8 588 593.6 601.1 605.1 609.7 616.7 622.4 627.4 630.2 633.5 634.5 638.2 639.9 643.4 646.1 650.4 655.4 659.9 665.1 669.5 672.6 676.4 678.5 681.2 684.1 685.4 685 687.6 686.7 686.1 686.8 688 690.2 693.7 697.7 701.3 704.5 708.4 710.1 714.3 718 720.7 721.4 723.2 725.3 725.1 725 723.9 722.9 721.1 717.1 714.7 711.7 716.5 718.2 715.8 718.9 718.9 719.3 718.5 718.3 718.6 717.4 719.3 718.3 719.8 719.6 719 716.5 714.8 712.7 711 709.8 711.3 709.6 710.1
260.9 272.7 285.3 300.1 315.6 332.6 337.7 340 339.4 341.2 338.2 335.2 328 302.5 289.6 279.1 275.6 277 282.7 288.4 295 304.8 312.6 319.8 327.2 332.2 335 333.6 330.2 331 338 346.2 351.7 356.5 362.6 366.9 372.3 379.7 390.6 402.3 404.8 401.5 390.2 379.3 369.2 358.9 350 344.9 341.1 341.2 343.4 348.9 351.9 354 355.9 356.7 358.8 361.3 363.9 364.4 365.7 368.5 371.8 375.3 378.4 380.9 384.2 388.4 392 390.7 391 389.2 397 399.2 400.5 401.9 404.5 408.4 411 413.3 403.1 393.8 404.2 420.6 425.4 426.1 428.9 433.4 441.2 444.6 451.6 454.6 461.5 469.7 473.3 477 481.3 489.2 491 488.9 490.9 493.7 495.8 501.8 508.1 501.4 492.9 496.8 507.6 525.9 544 549 543.5 531.6 542.1 547.7 550.5 551.7 551.8 561 563.6 569.1 573.4 578.8 584.8 593.4 599.6 603.7 608.4 614.8 618.8 624.7 628.4 630.8 632.8 635.5 637.9 642 644.4 647.1 650.7 655 660.6 664.8 668.6 671.6 674.7 677.2 678 680.2 679.2 680.1 679.9 680.6 680.7 681.6 682.9 684.4 688.3 692.4 695.4 697.9 701.3 704.4 707.4 710.6 713.5 715 717 717.7 718.2 720.1 720 719.3 717.7 716.9 718.8 721.2 722.9 722.7 724.3 724 722.8 721.8 721.8 721.6 722.3 723.8 723.8 725.5 726.1 724.8 721.7 720.4 720.7 718.4 718.2 719 719.2 718.8
281.4 298.7 321.5 348.3 351.2 358.1 363.4 344.7 341.8 341.3 338.3 335 330.9 322.5 313.6 304.9 298 295.7 297.2 298.3 304.6 312.3 318.4 327.4 336.9 340.2 339.7 337.9 335.2 336 342.3 349.6 357.4 360.3 363 365.8 369.4 377 385 394 395.5 389.3 384.2 374.5 367.1 357.5 349.4 348.2 347.6 346.8 349.3 354 355.9 357.7 361.5 363.9 365.4 368.1 370.9 372 374.4 376.7 379 383.3 386.2 390.8 394.2 398.6 400.6 399.8 399.9 389.3 401.2 402 402.7 404.2 406.3 409.1 417.9 416 398.6 395.9 404 422 427.1 427.8 432.3 438.4 443.8 449 454.7 457.9 463.4 472.7 475.6 479.9 484.3 489.2 489.7 488.4 491 492.4 494.7 501.3 503.5 493.6 496.3 504.4 516.8 532.6 544.4 550.2 547.3 538.5 536.9 545.8 551.9 553.3 555 558.9 562.5 564.7 569.1 574.6 582.4 589.8 595 601.1 607.2 613.2 619 622.9 626.1 629.7 631.6 633.6 636.1 639 641.7 644.1 646.8 651.5 655.8 659.7 663.7 667.4 669.9 672.4 674.4 674.3 675.4 675.4 674.7 676 675.5 676.7 678.2 677.8 680.9 684.5 686.4 690.2 693.5 697.5 700.5 703.7 706.5 708.4 710.3 711.8 713.9 714.9 715.6 715.7 716.1 718.2 721.6 723.9 725.3 725.7 726 725.7 724.5 724.3 723.8 725.6 726.1 728.1 729.3 730.8 731.7 731.6 729.5 728.5 727.8 727.4 727.3 728.1 727.1 726.2
300.3 323.8 347 363.9 381.3 387.7 382.6 369.9 350.3 351.3 357.5 356.5 353.7 339.8 334.1 328.6 323 320.3 317.8 315.8 314.2 320 326.5 337.6 344.1 344.7 345 344 344.3 345.3 349.7 355.5 362.5 364.8 366.1 368.2 370.9 374 380.4 386.4 387.2 382.3 376.3 367.2 362.3 361.4 359.9 357.7 355.3 354.7 356.3 358 360.3 363.8 366.9 370.7 372.2 375.3 378.4 382.3 386.5 388.1 389.7 393.2 395.9 400.3 403.3 405.7 407.3 405.7 404.4 394.8 405.8 405.4 405.7 406.9 408.1 409.8 417 417.6 404.6 397.1 410.8 421 427.2 428.4 431.5 437.7 443.5 449.8 456.2 459.9 463.9 469.9 474.9 478.6 484.6 486.4 487.4 487 488 491.2 497.1 498.9 496.4 494.1 505.4 513 524.5 539.2 545 546.1 543.6 541.3 534.9 543.8 549.5 552.5 553.9 557.6 562.2 565 567.7 571.5 576.4 584.2 592.4 598.8 605.8 612.4 616.9 621 624.9 628 629.8 631.6 633.7 636.4 639 641.2 643.6 647.6 651.2 655.4 659.6 663 665.9 668.2 669.8 670.6 672.6 672.1 671.5 673.5 673.1 673.2 674.7 673.9 677.1 679.6 681.9 684.1 687.9 690.7 694.4 697.3 700.5 703.4 705.5 707.4 709.1 710.1 711.5 713.9 715.5 719 721.3 723.7 726.7 727.6 727.3 727 725.6 726.5 726.4 728.8 731.3 731.1 733.7 735.9 737.2 737.6 736.6 736.9 736.2 735.4 735.3 735.4 734.4 734.6
298.4 322.8 350.4 373.9 387.6 395.7 396.6 396.2 386.2 368.8 363.1 365.2 361.7 353.9 351.4 350 349.3 347.6 345.3 344.8 341.9 342.8 345.5 350.7 352 353.5 352.3 353.2 353.8 355.7 358.6 359.8 363.4 366.6 369.1 371.3 375.4 377.3 378 379.7 381.6 375.9 368.1 369 371.6 372.5 371.2 371.6 366.1 364 362.2 363.2 366.9 370.2 373.1 377.5 381.2 382.8 388.8 394.3 398.3 400.1 402.2 404.6 407.6 410.8 413.1 413.9 412.6 409.9 408.5 405.9 409.2 409.9 409.4 410.8 412.1 414.6 418.5 418.5 405.5 401.1 415.2 423.1 427.8 429.7 433.5 441.2 447.7 454.3 458.2 461.5 463.7 467.6 474 478.6 481.3 483.3 484.9 483.9 486.4 491.3 494.5 494.8 494.5 496.7 511.1 517.4 532.5 546.1 551.5 550 547 544 540.2 540.4 550 552.2 556 561 562.6 567.5 571.4 572.8 576.5 583.5 589.8 596.5 603.3 609.5 614.5 618.7 622.9 625.8 627.4 628.9 630.5 634 636.4 639.1 641.7 644.2 647.6 651.6 655.5 658.9 662.1 663.6 666 668.1 669 669.7 670.3 670.8 670.8 670.7 671.6 672.1 674.2 675.8 678.5 681.2 683.8 687.5 690.6 692.7 696.4 699.3 701.8 703.2 706 707.7 709.8 711.6 715.2 719.2 722.6 724.7 726.8 728.3 729.3 729.5 729.3 728.9 730.6 732 734.2 735.5 738.5 741.1 743.7 745.4 746.4 746 743.2 743.2 744.2 745.8 745.8 745.2
311.1 330.6 355.7 376.1 391.9 409.3 414.8 413.5 409.6 404.5 387.5 372.1 368.4 361.3 363.1 362.5 359.9 363.6 369.7 370.1 367.6 366 362.6 362.5 364.8 366.6 370.7 370.4 369.2 371 371.6 370.1 371.1 374.4 377.1 378.1 380.3 380.2 381.2 379.1 376.9 378.8 382.9 382.1 381.6 382.3 394.5 397.7 388.9 380.7 377.8 378.2 381.8 381.9 381.8 384.3 388.2 393.1 401.6 408.5 410.7 414.4 416.6 418.3 420.6 423 423.2 422.2 418.6 414.1 404.4 412.7 412.5 412.8 411.5 413.3 415.5 419 427.1 425.8 404.4 412.3 415.9 421.4 428.9 432.3 437.4 444.4 448.8 453.3 457.3 460.3 463.9 467.8 471.8 475.3 477.8 479.7 480.4 482.8 485.2 487.9 491.1 492.8 494 497.2 512.5 522.4 535.9 548.7 554.6 550.2 546.3 545 545.2 537.8 546.1 551.4 557.9 561.2 563.3 568.2 570.7 573.4 576.3 581.1 587.4 593.4 599.3 604.9 610 615.1 620.3 622.9 625.2 626.8 629.3 631.2 632.9 635 638.6 642.6 644.5 647.8 651.3 654.9 657.8 661 663.3 665.5 666.2 666.5 668.3 668.6 669.7 669.5 669.3 670.9 671.4 675.2 676.3 678.2 680.5 684.6 686.9 689.4 692.7 695.4 698.6 699.9 701.9 706.8 710 713 718 722.3 726.1 729 730.9 733.2 734.3 733.5 735.5 737.4 739.4 739.7 740.4 742.3 746.2 748.9 751.8 753.6 753.7 754.6 756 757.2 758.1 759.6 759.7 758.6
362.4 387.1 402.8 414.3 434 432.6 421.6 414.3 415 411.2 394.6 384.2 375.9 367 366.5 370.9 371.3 376 387.7 381 380.1 379 377 376.8 380.8 388.7 395.2 394.1 387.5 384.9 385.1 383.5 384.2 384.2 385.9 386.2 386.2 388 392 394.4 396.5 401 402.7 400.5 399.8 398.7 397 403.2 404.7 399.2 395.9 393.2 393.1 392.2 390.5 393.1 397.9 405.2 412.9 419 423.3 427.4 430.1 432.8 433.5 432.6 432.1 429.9 425.1 419.2 411.2 417 416.5 416.5 416.3 417.4 418.9 421.1 429.4 429.4 415.4 405.4 417.9 422.5 428.6 434.7 437.7 442.9 446.9 450.8 455.7 459.3 461.9 463.7 467.8 473.3 473.9 474.7 476.7 479.4 482.4 484.8 486.2 489.3 494.5 496.5 504.7 518.8 533.3 537.5 541.6 544.4 545.1 545.2 545.6 540.6 545.3 550.8 556 559.6 561.4 564.6 571 574.7 578.9 583.3 587.4 591.2 595.4 601.4 607.5 613.3 617.7 620.5 622.5 624.3 626.6 628 630.3 632.1 635 639.1 642.2 644.8 647.2 651.1 654.6 657.9 660 662.3 663.5 664.5 666.3 667.2 667.6 668.3 667.7 668.6 670.5 673 674.2 676.9 678.4 681.7 684.7 687.5 689.7 692.9 695.6 699.6 702.2 707.6 711.3 715.3 720.2 723.6 728.6 731.8 735.9 739 739.4 739.9 742.9 743.8 743.2 744.1 743.2 745.9 749.6 753.2 756.1 758.4 760.5 762.7 765.2 764.5 764.5 767.8 769.6 768.8
393.1 418.3 431.6 449.8 461.3 448.6 436.8 420.3 413 413 405.9 404.2 394.1 372.4 376 383.9 381.8 387.9 396.3 400.8 398.5 398 403.2 413.5 414.7 412.9 424.9 425.2 416.3 408.2 401.8 401.2 401.2 398.8 396.7 394.5 395 398.7 401.8 408.1 414.1 416.7 418 417.7 416.6 416.7 414.8 413.2 415.2 409.6 409 406.6 404 401.5 400.1 402.9 408.6 420.3 424.2 429.6 433.6 435.3 440.7 443.3 446 445.3 441.6 437.1 431 424.3 420.5 422.9 422.7 421.7 420.6 421.4 422.2 424.4 427.6 429.8 429.4 409.8 413.8 423.3 428.6 432.8 434.7 439.2 444 450.2 453.4 454.4 456.3 458.4 462.2 465.4 467.5 470 473.2 476.5 480.3 483.5 487.4 491.9 495.9 498.3 500 505.3 513 518.4 522.7 528.5 530.2 536.1 539.1 542 546.5 552.2 555.3 558.9 561.8 566.9 573.1 575.4 579.9 585.6 589.6 593.5 597.3 601.7 606.9 611.3 614.4 617.6 619.3 622 624.1 626.1 628.1 630.1 632.8 635.8 638.7 641.9 645.1 647.2 651.7 654 657.9 659.5 660.4 662.9 663.6 665.1 664.9 666.2 667 667.8 669.3 671.8 674.3 675.8 678 680.1 683.1 684.2 687.4 690.6 694.9 699.1 704.8 710.7 715.3 719.4 722.6 727.8 732.4 735.8 740.2 742.9 745.1 747.7 750.1 749.9 747.1 747.7 748.3 749.5 752.6 755.7 760.7 764.9 768.8 772.8 774.5 774.8 777.4 777.1 779.6 780.6
393 415.9 433.9 456.6 465.2 451.3 448.8 445.2 433.9 423 422.7 417.2 395.6 374.9 382.3 396.7 399.1 401.8 410.5 415.6 413.8 418.9 439.9 447.2 446.8 445.8 449.9 450.8 447.8 437.5 429.4 423.3 419.9 415.4 411.8 411.8 409 410.6 414.2 420.5 427.1 431.4 434.4 436 437.6 435.4 437.1 436.8 433.5 430.8 425.8 422.4 416.6 412.8 412.4 415.2 420.5 430 433.8 439.4 443.9 445.9 448.9 451.6 452.2 449.8 445.9 439.4 433 418.9 427.3 427.8 428.9 427.9 425.4 425 426.8 429.2 431.9 432.9 429 419.1 411.3 422.2 431.2 431.9 432.6 433.9 439.7 446 449.8 447.9 449.6 453.7 457.8 460 464.4 468.9 474.3 478.9 481.9 485.7 490.4 496.7 498.3 501.7 504.6 508.3 509.7 513.1 524.3 536.1 538.5 540.9 543 548.2 551.5 555.6 558.5 559.9 562.7 567.8 571.6 576.4 580.1 586.8 590.1 593.7 598.7 603 607.2 610.9 614.3 616.7 618.2 620.2 621 623.2 625.7 628.8 630.8 632.3 634.6 638.3 641.4 645 648.8 651.8 655.2 656.6 658.6 660.5 661.6 662.8 662.5 664.3 664.7 666.1 667.5 668.7 671.7 674.4 677.5 681.1 683 685.6 688.6 690.9 695.7 701.5 707.3 713.3 718.2 722.7 726.3 731.5 735.8 739.1 742.6 745.5 748.9 752.6 754.4 753.1 752.1 752.1 753.4 753.5 756.7 760.7 765.8 770.5 774.5 778.6 781.6 784.7 788.3 789.9 791.3 791
386.8 395.9 412.1 424.7 435.7 450 452.3 452.7 454.2 455.3 450.5 440.4 426.3 406.9 399.6 408.1 411.7 421.6 430.9 431.8 433.3 442.6 460.6 471.6 473.8 475.9 479.9 477.8 471.3 454.8 450 443.7 436.1 435.4 428.5 424.2 425.7 426.3 430.9 435.1 444.9 449.9 451.7 453.2 455.8 458 456.9 455.5 455.2 452.8 446 437.9 428.4 424.2 422.7 427.9 434.1 438.1 442.5 448.2 451.8 454.6 455.9 456.2 454.2 453 449.8 443.3 431.5 434.2 435.5 435.9 435.9 433.7 432 430.7 433 435.7 436.1 435.5 434.3 423.5 416.8 416.2 426.6 427.2 426.2 429.5 434 437.8 445.2 449.2 453.4 458 461.4 466.5 471.3 474.5 481.3 485.3 490.1 496.1 499.7 502.6 507.9 510 510.3 514.4 519.1 526.4 535.4 541.1 543.8 541.8 546.8 550.9 554.5 556.3 558.8 560.5 564.8 569.2 572.8 577 581.3 583.8 589.4 593.2 598.5 602.1 605.7 609.2 611.9 614.4 615.7 616.8 618.2 620.1 622 624.8 627.3 629.7 632.5 635.6 638.2 642 645.9 649.1 651.6 654.1 655.9 657.6 658.7 659.5 659.8 662.8 662.1 665 667.4 670.2 673.5 675.8 678.5 680.7 683.3 684.9 689.6 692.9 697.6 704.7 709.8 715.3 718.8 723 727.6 731.6 737 740.9 744.5 746.8 750.5 754 754.8 754.5 755.6 755.9 756.7 758.2 761.2 764.8 769.8 776 780.4 786.1 791.4 794.9 796.4 798 798.3 797.9
363.5 377 385.5 400.6 417.6 424.3 425.6 438.2 445.4 453.7 454.8 438.7 414.6 414.3 433.7 435.1 443.1 460.8 469.4 473.6 477.2 480.8 484.2 498.6 504.5 503.2 496.9 495.6 487 468.9 461.6 457.1 450.9 446.7 440.2 440.9 439 442.7 444.5 451.1 462.7 466.5 468.2 470.2 473.6 475.9 476.4 473.6 470.5 466.6 457.7 445.7 438.4 434 434.9 439.8 443.1 447.6 451.3 456.2 458.1 459.5 460.6 460.8 457.7 455.1 449.2 438.7 440.9 442.5 443.4 444 441.7 439 440 438.9 439 440.1 438.9 437.4 435.6 430.7 421.7 413.1 417.6 423.9 429.3 435.6 441.3 443.7 448.2 453.2 457.5 463.8 470.1 476.1 483.3 490.8 492.6 498.2 506.4 512.7 516.2 521.8 526.7 529.7 530.2 532.7 537.7 544.6 551.8 556.7 554.1 541 550.6 553.6 556 557.6 559.4 561.3 564.1 569 572.8 575.3 578.6 583.1 586.9 591 595.4 599.2 602.8 605.9 608.9 611.2 612.5 615.6 616.9 617.4 621.1 623.4 625.7 627 629.4 631.8 635 639 641.9 645.9 648.6 651.1 652.5 653.5 655.4 655.3 659.2 660.5 659.9 664.6 667.2 670.8 673 675.3 677.6 681.4 684.1 686.1 690.6 695.7 700.9 707 712.4 716.5 720.3 723.6 728.8 733.3 738.2 742.8 746.4 748.3 751.4 754 755.3 756.4 758.4 760 761.7 764.2 765.7 769.6 774.7 780.8 785.5 790.8 796.9 801.1 803.2 804.3 805.3 806
349.3 364.9 365.6 380.3 397.7 404.7 415.9 419.7 421.4 432.2 439.8 434.8 429.6 445 463.6 472.4 481.6 492.6 509.5 510.9 506.5 511.2 517.1 522.4 529.2 532.2 531.2 525.7 510.2 490.2 479.1 467 461.7 457.2 454 451.6 454.4 453.8 456.9 463.2 476 482.9 485.1 490.5 495.1 496 490.8 483.2 475.3 466.7 458.7 451.7 447.1 444.3 445 447 450 452.4 457.5 461.3 465.1 463.2 461.8 461.2 459 451.2 448.7 450.3 449.6 449.3 450.7 450.7 447 445.8 446.6 445.2 444.9 445.5 443.9 442.4 440.6 434.5 431.5 424.9 416.9 421.1 429.6 438.7 441.4 445.8 452.1 458 464.3 471.7 478.2 488 492.9 496.2 498 507.6 515.3 525.1 532.7 539.2 537.9 541.3 542.2 549.3 556.9 564.9 568.7 567.2 558.5 554.4 550.2 557 557.5 558.9 561.4 562.5 564.2 566.9 569.9 572.6 575.4 579.7 584 588.9 593.7 597.5 601.3 604.2 606.9 608.9 611.7 613.9 615.4 615.5 618.8 621.1 622.2 624.7 626.1 628.6 632.2 636.1 638.4 641.4 644.3 648.1 648.8 650.6 652.2 654.2 656.4 656 660.6 664.1 667.2 669.5 672.2 675.1 678.8 681.8 684.5 687.7 692.2 697.3 702.4 709.2 714.1 716.9 719.7 724 728.2 733.2 738.2 742.6 745.8 749.8 751.7 754.7 756.4 757.8 760.6 763 764.7 767.2 768.8 774 778.4 784.5 788.4 793.6 799.2 803.8 807.6 809.4 809.7 809.9
335.5 346.3 357.1 364.2 380.3 391.5 401.7 401.8 408.1 419.7 425.9 426.5 432.4 458.6 477.5 486 502.1 522.9 531 527.1 530.5 537.5 538.2 541.9 549.6 555 552.4 545 530.8 511.8 503.8 497 482.7 475.8 470.5 465.5 464.7 467.2 469.7 473.3 477.1 486.1 496.6 504.8 506.7 504.2 498.1 489.1 479.6 470 463.6 457.5 454.3 450.6 450.1 452.5 454.5 457.5 462.6 466.2 468.7 467.1 466.1 466.2 457.4 455.4 456.9 457.4 457.5 456.6 458.2 458.1 454.6 452.5 451.3 450.5 452.6 453.5 451.1 448.6 443.1 439 436 429.5 421.4 417.5 428.2 438.3 443.4 448.1 455 460.1 467.7 475.8 482.8 492.9 497 499.8 504.4 513.7 523.2 534.3 540.5 542.9 545.6 552.5 553 562.2 564.2 568.2 570 567.1 560.7 555.9 551.2 557.9 557.3 560.1 561.9 562.5 564 566.7 569 571.7 575.2 578.4 582.9 587.3 591.6 594.7 598.4 601.7 604.1 606.5 608.5 610.8 611.6 613 615.9 617.6 620.7 621.5 624.1 627.5 629.7 632.6 635.5 638.9 640.9 643 645.6 648.4 648.6 649.1 653.7 658.2 661.4 664.6 667 668.9 671.7 675.4 678.5 682.1 686.2 689 693.7 699 704.2 709.3 714.8 718.1 720.3 723.7 728 732.9 738 742.4 745.7 750 752.3 755.2 757.2 759.4 762.3 764.5 766.3 769.3 771.1 776.5 780.1 784.7 789.5 795.5 800.4 804.5 808.6 810.8 810.4 810.6
328.3 338.4 349.5 355.3 365.4 374.6 382.2 387.1 396.4 403 414.7 427.6 436.9 449.7 467.4 487.4 522.5 534 533.9 537.7 545.2 546.5 553 561.5 569.7 573.2 573 569.4 559.1 539.5 531.4 527 511.4 495.8 489 486.1 485.1 485.1 486.8 487.8 488.3 492.8 499.6 500.9 500.1 503 495.1 490.2 483.2 476.6 469.1 465.5 461.7 456.9 456 456.2 459.6 463.1 465.4 467.6 469.1 469 469.8 466.2 460 465.1 465.3 465.4 465.8 465.2 465.2 464.8 461.7 459.3 457.1 458.6 459.4 458.2 455.7 451.2 445 442.6 439.9 435.3 430.7 418.5 427.6 437.8 445.4 454.5 456.6 463.6 471.9 480.7 488.2 495.1 500.6 502.7 509.9 522.3 530.6 541.7 546.4 546.3 553.8 558.6 563.7 566.6 568.3 569.4 568.5 565 561.3 558.8 547.1 555.5 558.3 560.4 561.1 562.5 563.8 566.4 568.5 571.8 574.6 577.7 581 584.9 587.4 591.4 595.7 597.8 600.9 603 605.7 607 608.6 610.8 613.2 615.1 617.7 619.1 622.4 624.7 627.3 630.4 633.2 635.9 638.9 641.1 641.1 643.7 647.9 652.2 654.5 658.6 661.1 663.6 666.4 669.5 672.1 675.1 679.5 683.1 686.8 690.6 695.3 700.8 706.1 710.5 714.9 718 720.6 723.7 726.5 733.1 737.5 741.9 746.9 750.7 752.5 754.8 756.8 759 762.4 764.5 766.2 769 772.3 777.3 779.9 784.2 788.8 795.4 800.3 804.9 808.4 810.8 810.6 810.1
