ncols 200
nrows 88
xllcorner 260000
yllcorner 702650
cellsize 50
88.3 85.3 83.7 82.8 81 79.6 79.9 79.9 80.7 81.2 82.3 84.9 86.2 88 92.6 97.5 101.2 102.6 102.8 102.3 102.3 100.8 99.9 101.8 105.1 108.8 110.9 111.3 112 115.2 118.6 120 120.2 120.7 120.6 120.3 119.8 120.1 120.4 120.7 121.3 121.7 122.8 123.5 124.6 123.6 122.6 121.1 118.2 114.7 111.4 109.5 106.9 101.5 93.4 89.1 87.2 85.3 81.7 77 75.6 75.4 74.2 72.5 70.6 69.8 69 68.5 69.5 71.5 71.8 69.5 64.3 64 63.7 63.6 63.4 65.4 64.3 63.9 62.1 69.9 70.5 71.1 71.5 71.9 72.3 72.5 72.6 73.3 74.4 77.3 77.7 75.9 74.8 74.1 74.2 76.1 75.1 71.5 74.1 74.7 75.4 75.8 76.1 76.5 77.3 78.1 78.7 80.2 82.6 86.3 90.5 94.9 99.1 102.9 106.2 109.4 112.9 115.9 118.8 122.3 127.1 131.4 135 138.3 141.4 143.7 145.8 147.8 149.4 150.7 152 153.5 154.3 156.9 157.8 154.4 150.4 147.3 143.7 140.6 140.6 142.3 144.6 149.8 152.1 153.6 155.5 155.8 159.7 163.5 163.7 169.5 174.6 176.2 177.8 178.4 180 183.5 189.2 194.2 194.6 197.8 200.2 203.3 207.4 209.9 213.2 214.5 214.8 215.1 215.2 215.3 216.4 217.5 219.6 222.5 225.7 227.8 227.9 225.5 222.7 220.4 218 215.6 213.7 212.4 213 213 214.7 216.2 217.4 217.6 218.6 220.4 222 223 222.7 221.6
89.9 85.1 82.3 81.7 79.5 80.5 80.9 81.5 81.7 82.1 83.4 86.4 90.6 94 96.6 100 106.2 109.8 108.9 107.7 107.3 107.1 108.2 110.2 113.3 115.4 117 117.7 118.1 121.4 125 125.9 125.6 126 125.6 125.2 125.1 125.3 125.6 125.9 126 126.2 126.2 126.7 126.4 125.1 123.1 120.8 118 114.7 111.8 108.7 105.5 101.2 94.6 90.2 87 84.3 80.6 76.4 75.5 75.1 75 74.7 73.5 70 69.8 68.2 69.7 69.9 69.4 68.7 69.3 69.2 68.2 66.2 66.8 65.7 64.5 63.7 61.9 69.3 70.3 70.8 71.2 71.6 71.8 71.8 72.1 72.9 74.3 76.1 76 78.1 76.1 75.8 77.7 77.3 75.1 73.8 73.7 74.7 75.7 76.2 76.4 76.8 77.5 78.1 79.4 81.1 82.9 85.4 89.3 94.1 98.9 102.5 105.5 108.1 111.8 115 117.4 120.9 125.3 129.8 133.6 136.7 140 143.3 145.9 147.9 149.5 151.1 152.5 153.5 154.1 155.7 155.5 152.7 150.1 147.1 143.9 141.2 139.9 141.1 143.9 151.2 155.3 153.5 153 155 157.2 159.4 163.5 166.4 169.1 173.1 177 177 178.7 181.8 186.4 192.3 194.7 194.3 195 200.6 205.4 211.4 216.2 218.1 217.6 214.9 214.1 214 215.1 216.4 217.8 219.6 221.5 223.8 224.1 223 221.8 220.6 218.6 216.6 214.6 213 212.8 212.8 214.8 217.9 218.9 218 219.1 221.5 223.2 224 223.2 221.5
88.7 83.1 81.4 79 82 81.9 82.3 82.6 83 84.1 85.9 90.2 96.2 99.6 101.5 106 111.3 114.4 114.2 113 113 113.6 115.5 117.5 119 120.3 122.2 124 124.4 127.8 130 130.3 129.8 129.8 129.2 129.1 129.4 130.3 130.5 130.6 130.2 129.8 129.2 127.9 126.6 124 120 118.3 115.1 111.9 108.5 104.3 99.1 92.6 90.2 85.9 82.5 81.3 77.7 77 75.5 74.7 74.2 72.5 71.1 69.3 69.1 68.2 67.6 68.1 68.6 67.3 67.5 67.6 67.8 66.9 66.3 65.5 64.7 63.5 61.9 69.2 70 70 70.1 70.1 70.2 70.8 71.5 72.4 74.7 77.3 78.9 77.8 76.6 76.9 77 77.5 75.4 71.1 73.9 75.8 76.9 77.4 77.5 77.3 78.2 79.1 80.4 81.8 83.8 85.8 89.5 93.5 97.9 101.7 104.3 107 110.9 114.5 116.5 119.1 123.2 127.5 131.2 134.7 138.5 143.5 147 149.3 151 152.4 153.5 153.5 153.6 153.4 152.8 151.5 149.5 146.7 144 142.1 140.2 139.6 143 150.1 155.4 153.5 154.2 156.2 155.5 157.8 161.8 164.3 166.5 169.1 174.3 176.4 179.2 184.2 186.7 189.5 193.5 194.5 192.4 197 201.4 208 213.6 216.9 217.5 215.7 213.1 212.7 213.9 215.1 216.2 217.3 218.5 219.8 220.5 221.2 221 220.1 219.1 217.9 215.6 213.7 212.6 212.9 214.1 216 217.4 218.6 222 224.3 225.5 225.2 223.7 221.5
84.7 80.7 79.7 84.4 83.3 83.2 83.4 83.7 85.1 86.4 89.6 94.4 99.8 103.8 106.8 111.5 115.4 117.9 118.1 118.7 119.4 120.7 122.5 124.2 125.5 126.7 128.1 130 131.6 134.2 135.8 135.4 134.4 133.1 132.3 132.1 133.2 134.2 135.2 135.3 134.8 134 132.4 129.7 127.2 121.9 115.3 112.9 107.9 104 101.1 96 90.3 86.1 82.3 78.6 75.9 75.2 75 74.5 73.7 73.7 73 71.8 72.6 69.4 68.1 67.4 66.9 67 67 66.8 67.2 67.2 68.3 67.5 67.6 65.1 64.7 63.2 63.1 68.8 69.6 69 69 69.1 69.3 69.8 71.4 71.8 74.1 77.9 79.7 78.6 77.1 76.7 76.7 76.2 73.9 72.2 76.4 77.7 77.9 78.3 78.4 77.4 79.9 79.6 80.1 81.2 83.1 85.2 88 92.3 96.4 99.8 102.4 105.6 109.5 113.3 115.6 117.7 121 125.1 128.9 132.3 136.1 142.4 147.5 150.7 152.6 153.8 154 154 154 153.5 153 151.6 150.2 147.6 145.3 143.2 141.4 139.6 140 144.4 147.5 148.7 155.3 155.8 154.5 155.5 160.6 162.8 164.9 166.8 170.7 174.7 178 185 186.4 189.3 193.2 194.4 191.3 194.3 196.6 202.1 208.7 214.7 217 216.3 213.6 212.1 212.3 213 214.4 216.1 217.7 218.8 219.9 220.8 220.8 220.8 222.2 222.6 219.9 214.9 212.9 214 217.2 219.4 219.1 219 222.5 225.4 226.3 225.8 224.3 222.2
79.9 79.3 84.2 84 83.1 83.4 84 85.3 86.8 89.5 93.5 98.9 103.3 107.7 111.9 116.5 118.6 120.9 123.6 124.8 125.9 127.5 129.3 131.4 133.2 135 136.2 137.3 139.3 141.1 141.7 140.5 139.1 137.4 136.1 135.9 137.1 138.1 139 139.5 139.1 137.3 134.6 129.7 124.1 117 109.3 105.4 100.2 96.2 92.5 89.6 84.5 80.2 76.5 74.5 73.6 73.2 73.1 72.8 72.5 72.7 72.9 73.4 73.4 70.4 69 68.1 66.5 66.9 67.3 66.9 66.1 66.6 67.3 68.2 69.5 65.3 64.2 63 63.4 68.4 69 68.5 68.6 69.1 68.8 69.2 71.2 71.5 71.8 76.2 78.3 77.6 76.6 76 75.1 76.4 73.7 75.7 77.5 78.2 77.8 77.9 78.1 77.6 80.6 79.4 79.8 80.7 82.4 84.1 86.2 89.6 93.2 97.1 100.7 103.9 107.4 110.8 113 115.1 118.8 122.6 126.5 129.9 133.6 139.3 145.3 149.9 152.1 154 154.3 154.4 154.6 154.7 153.7 152.2 150.9 148.8 146.6 144.4 142.5 140.4 138.7 140.8 143 146 149.7 151.3 150.9 156.3 158.7 159.9 163.2 164.4 168.4 173.6 176.7 183.7 184.6 187.1 190 192.3 189.6 191.9 193.7 197.3 204.9 212.2 215.9 216.9 215.9 212.1 210.8 211.4 213.1 214.8 216.4 218.2 219.4 220.3 221.1 222 223.3 224.4 224.1 219.6 211.2 213.2 216.4 218.9 220.1 219.4 220.3 222 223.6 224.9 224.3 222.9
82.4 83.8 82.9 82.8 83.4 85 85.3 88 90.7 94.4 99 103.4 105.9 110.8 114.8 119.1 122.2 125 127.6 129.5 130.6 131.9 134.1 137 139.9 141.1 141.3 142.5 144.2 145.8 146 145.3 143.9 142.3 141.6 141.3 141.6 142.2 142.9 142.7 140.9 138.6 133.1 125.9 118.5 110.8 103.8 99.6 96.9 93.8 89.7 84.3 80.1 77.3 75.8 74.9 74.2 74 73.8 74.3 73.7 73.4 73.4 73.3 72.8 71.4 68.3 68.1 67.3 67.4 67.4 66.8 65.9 65.1 65.9 67 66.8 64.8 63.6 62.4 63.4 68.5 68.3 68.1 68.5 69 68.7 69.5 71.1 71.2 71.2 74.3 77.9 77.2 76.2 75.4 69.5 72.9 74.7 74.7 76.4 78.4 77.5 77.6 77.5 78.2 78.8 79.2 79.8 80.2 81.2 82.5 84.5 87.3 91.1 94.7 98.4 101.4 104.2 107.5 110.8 112.7 115.7 119.6 124.1 127.3 130.9 135.8 142.2 147.6 151.6 154 154.5 154.9 155.1 155.3 155 153.6 151.9 149.7 147.6 145.5 143.1 141.2 139.2 140 141.5 142.3 144.9 145.8 148.2 154.1 157.4 158.2 159.4 161.5 165.6 170.2 174.8 179.6 182.8 181.6 185.6 188.8 187.5 189.6 190.9 194.4 199.5 207.4 212.7 215.3 215.9 213.3 210.3 210.1 211.8 213.5 215.4 217.2 218.8 219.8 220.5 222.8 224 225.3 225.7 222.6 216.3 212.8 213.8 216.1 218.5 220.5 220.7 220.3 220.3 221 222.8 224.1
82.9 83.5 83.8 83.7 85.1 86.8 88.1 90.6 94.4 98.7 103.5 107.7 110.3 114.6 117.4 121.1 125.6 128.8 131.2 133.6 134.9 136 138.1 140.9 144 145.4 146 146.6 147.8 148.6 148.9 148.6 148.4 147.9 147.7 147.3 146.8 146.7 145.7 143.7 140.7 137.1 130.8 123.3 115.4 108.3 101.5 99 96.7 91.9 85.9 81.1 78.4 77.1 76.2 76.1 76.3 76.6 76.1 76.2 75.4 73.3 73.1 72.8 72.2 70.8 68.7 67.5 67.7 67.9 67.2 66.3 65.5 64.5 64.5 66.1 65.8 64.9 63.3 62.5 63.1 66.6 67.2 68.2 68.6 69 68.8 70.4 71 71.1 70.6 69.2 75 75.8 75.5 69.3 71 72.2 73.7 73.7 74.5 75.1 75.9 76 78.2 79.6 78.8 79.1 79.5 80.2 80.5 81.9 83.2 85.1 88.5 91.2 95 98.4 101.2 104.5 108 111.4 114.6 117.8 121.4 124.4 128.1 132.5 138.7 144.6 149.8 153.4 154.1 154.3 154.9 155.6 155.7 155 153 150.6 148.2 146.1 144 141.5 139.3 139.8 140.5 140.9 141.8 141.2 145.5 151.3 155.7 157.2 157 160.2 164.9 170.5 174.1 175.1 177.4 181.2 179 183.2 183.9 187.3 189.4 193.2 195.8 200.8 206.7 210.3 212.4 212.7 210 209.3 210.5 212.4 214.2 216.1 217.6 218.6 219.2 221.3 223.2 225.6 226.9 224.9 219.7 213.3 213 214.2 216.5 221.3 223.5 222.6 220.7 220.7 220.3 221.6
82.3 84.5 84.9 86.6 86.2 88.5 90.9 93.8 97.9 102.7 107.1 111.2 115 118.5 121.6 124.1 127.3 131.2 134.4 136.8 137.9 138.8 140.6 143.2 145.5 147 148 149.7 150.7 151.5 152.5 152.6 152.5 152.3 152.1 151.6 150.8 149.5 147.3 143.9 139.1 134.9 128.6 121.2 113.6 106.3 98.9 93.2 89.1 85.7 82.1 80.4 79.9 80.1 80.6 81.9 84 82.3 79.4 77.5 76.9 75.2 72.7 72 71.3 69.7 68.6 67.3 67.7 68.3 67.9 66.3 64.9 64.3 64.3 65.7 66.2 66 63.1 61.6 62.9 65.1 66.5 67.3 68.5 68.7 68.4 70.4 71.7 71 67.4 67.8 68.9 70.9 72.3 70.4 70.9 71.9 73 73.1 73.2 73.7 75.1 77.3 78.6 78.9 78.8 79.2 79.9 80.5 81.8 82.7 83.4 83.9 85.7 88.4 91.5 95.3 97.8 101.7 105.6 109.6 113.5 115.9 118.6 121.3 124.8 128.5 133.4 140.3 146.6 151.3 153.1 153.6 154.2 155.2 155.8 156.3 154.7 151.7 149.3 147.1 144.9 141.9 139.1 138.2 138.1 138.6 138.7 139 142.7 147.9 152 154.6 157.3 160.8 162.5 168.2 172.9 175.4 174.7 176.2 175.7 179.9 184.7 187.4 189.9 192.4 195.4 198.5 202.6 205.1 208.1 210 209.2 208.3 209.3 210.9 212.7 214.1 216.2 217.5 218.1 218.9 220.8 224 226.5 226 221.9 214.9 212.9 213.2 214.8 216.9 218.9 220.5 219.6 219.2 219.3 219.2
83.6 84.7 85.4 86.4 87.1 89.9 93.4 96.1 101.2 105.6 108.8 113.8 118.1 121.1 124.1 126.7 129.7 133.3 136.8 139.1 140 140.5 142.5 144 146 148.2 149.9 152.1 153.3 154.7 155.8 155.9 155.7 155.5 155.5 154.9 153.9 152.3 148.6 142.9 137.3 132.5 126.4 119.2 112.4 105.2 99.5 97 94.3 92 93.6 92.9 93.3 95.2 95.3 96.1 95.4 90.9 83.8 78.4 76.1 74.1 72.3 71.8 71.2 69 67.8 67.3 67.2 67.7 67.8 67 65.4 64.4 63.9 65 66.1 66.3 62.6 61.8 63 65 66.7 66.9 67.4 68 68.3 69.8 71.2 67.2 66.6 67.9 68.9 71.2 71.3 69.5 69.7 70.4 72.5 72.8 72.8 73.9 76.1 78.3 79.5 79.2 79.8 81.6 82.5 83.5 85 87.4 89.5 89 88.1 87.7 89.4 91.4 94.7 98.5 102.7 106.6 110.6 113.4 116.2 119.6 122.9 126.5 130.7 137 143.5 148.9 152 153 153.5 154.2 154.2 156.5 156.1 153.4 150.9 148.5 146.1 142.8 140.2 138.1 136.9 136.8 137.1 137.8 140.1 144.5 149.2 153.5 156.9 159.1 160.1 165.5 170.1 175.1 175.1 175.1 175.4 181 184.5 187.1 190.4 193.1 196 198 200.3 201.9 204.4 207.9 208.7 208 209 209.9 211.6 213.8 217.3 219.1 219.6 219 218.8 221.9 224.6 225.9 224.1 218.8 212.6 213 215.2 218.6 220 221.2 220.2 218.3 218.4 218.3
84.7 85.5 86.1 87.2 88.4 92 95.1 97.9 103.1 107.9 112 116.6 120.6 123.6 126.4 129.2 132.1 135.7 139.2 141.1 141.7 142.2 144.3 146.2 147.3 149 151.5 154.4 155.9 157.3 158.6 159 158.8 158.5 158.2 157.5 156.1 153.4 148 141.4 135.2 130.1 124.8 118.9 113.1 109.6 108 107.8 106.9 107.2 108.3 108.2 109.3 111 109.8 106.6 103 96.4 87.9 80.7 75.9 72.9 72.1 71.7 71 68.9 67.5 67.4 66.9 67.1 67.5 67.1 65.7 64.6 64 64 64.8 64.2 62.2 60.6 63.7 66.2 66.3 66.5 67.3 68.2 69.2 70.5 63.2 61.8 65.2 67.1 69.3 72.8 70.9 70.1 69.5 69 67.3 71.4 71.7 73.4 76.6 79 82.7 81.3 80.2 81.9 82.8 82.3 83.6 86.8 92.8 95.5 94.6 92.3 91.5 92.2 93.7 97.3 100.5 104.3 109.2 111.4 114.3 117.8 121.8 125.7 130 134.9 140.7 146 150.3 152.4 153.1 153.2 151.1 152.2 155.4 154.3 151.8 149.5 147.6 144.3 141.6 139.1 136.7 136.3 140.3 138.1 138.5 140.3 145 150.7 154 155.8 157.6 161.5 166.1 172.2 175.2 172.9 174.1 178.3 182.5 186.1 189.4 192.5 194.9 196.7 198.1 199 200.3 204.6 206.3 206.8 207.6 209.3 211 213.6 217.6 220.6 222.5 222.1 218.8 218 220.7 223.9 224.6 221.8 215.9 212.8 216 221.6 224.5 224.5 221.4 217.4 217.4 217.4
85.5 86.4 87.4 88.6 90.3 96.2 97.5 99.8 105.3 110.3 114.8 118.7 122.2 125.1 128 131.5 134.5 138.1 141.3 142.1 142.8 144.4 146.2 147.9 149.1 150 152.2 155.1 157.8 159.3 161 162 161.8 161.5 159.5 157.8 155.5 151.7 146.5 139.4 133 127.9 123.1 118.2 116.7 118 118.4 119.5 119.7 120.3 121.8 123.6 125.6 125.3 121.8 113.5 106.8 99.5 91.8 83.8 76.1 73 71.9 71.6 70.7 69 67.3 66.9 66.8 66.5 66.7 66.8 66.8 64.8 64.3 65 63.9 62.2 60.6 63.4 65.4 66 65.9 66.2 67.2 68.4 70.6 63.7 59.5 59.5 63.9 65.9 68.5 72.7 73.2 71.6 70.8 69.8 68.8 66.7 70.6 72.1 75.1 80.1 84.7 82.7 79.6 78.6 79.8 80 80.5 83.5 89.7 95.9 98.9 99 97.2 95.3 95.3 97.4 99.6 102.7 106.2 109.4 112.4 115.5 119.3 123.7 127.7 132.1 137.7 143.5 148.7 151.8 152.7 153 151.6 149.8 148.9 148.9 149.5 149.3 148.3 145.5 142.6 139.7 136.1 135.5 137.3 139.8 140 141.9 143.4 146.3 150.6 152 152.3 155.2 158.5 165.9 172 171.5 171.1 173.8 178.7 184 186.8 189.1 191.7 193.8 195.3 196.3 197 200.8 203.7 205.4 207 208.7 210.8 213.5 217.1 219.3 221.2 220.7 217.7 214.2 215.9 220.6 224.6 224.1 219.2 213.3 212.7 214.2 217.4 219.3 218.5 217.1 216 216.3
85.2 86.7 88.1 89.2 95.7 99.8 101.3 102.5 106.1 111.5 116.2 119.6 123.2 126.1 129.6 133.2 136.5 139.5 141.4 142.9 145.1 146.8 147.4 148 150.1 152.1 153.7 156 158.8 161.3 163.3 164 163.4 161.9 159.8 157.6 154.8 150.4 146.2 139.2 132.5 127.7 125.8 124.8 126.8 128.2 129.3 130.6 131.9 133 136.2 140.8 142 137.8 127 116.9 107.4 97.3 89.6 83.3 77.8 73.8 71.8 71.3 70.7 69.4 68 66.9 66.7 66.6 66.1 66 65.7 65.1 65.1 65.2 63.1 60.9 62.3 64.3 65.5 66 66 66.1 67 68.2 68.2 59.5 59.5 59.5 60.5 63.5 67.3 69.9 74.8 73.6 70.8 69.9 68.9 68 66.4 70.8 73.6 77.9 81.1 80.9 79.2 78.7 78.4 78.9 79.2 80.3 85 92.5 98.2 101.8 101.7 98.9 96.5 98 99.8 103.1 106.2 109 111.8 114.6 117.2 120.7 124.3 127.8 132.3 139.2 145.2 149.9 151.8 152.8 152.8 150.2 148.4 147.4 147.5 149.4 148.7 145.9 143.1 140.2 135.3 134.1 133.8 134.5 139.1 144.9 146.5 144.3 147.4 150.3 150 150.3 152.9 157.3 165 169.4 168.3 169.5 173 180.2 183.7 185.4 188 190.4 192.2 193.8 194.8 198.4 201.2 204.1 205.9 208.1 210.4 214.7 218.4 220.4 221.3 220.3 217.4 212.4 212.7 216.1 221.7 222.8 219.6 215.1 213.4 211.3 214.3 215 216.4 216.3 215.8 215.7
85.6 87.6 88.6 92.1 99.3 102.6 103.8 105 106.8 112.3 116.4 119.9 123.1 126.8 130.4 134.2 137.3 139.3 141.8 144.7 146.9 147.7 147.6 149.6 151.9 154.2 155.3 157.6 160.7 163.4 165.2 164.6 163.4 162 159.9 157.6 154.7 150.4 146.1 140.5 135.5 134.7 134.5 135.2 137.6 139.6 140.7 142.7 144.3 146 154.2 156 152.1 142 130.1 118.9 108.3 98.3 90 86 81.9 78 73.7 71 70.5 69.8 68 67.1 67.1 66.6 65.8 65.5 65.2 65 65 64.2 61.4 61.6 61.9 63.4 64.6 66.1 67.2 66.5 61.8 59.5 59.4 59.5 59.5 59.5 59.5 61.4 66.1 69.9 73.9 72.9 70.4 69.3 68.6 67.9 67 70.2 72.4 76 78 78.5 78.2 78.3 78.1 78.6 78.9 78.2 80.2 87.4 94.6 100 102.3 101.2 98.6 98.3 99.6 102.7 106.2 109.2 112 114.7 117.4 119.8 122.4 125.7 128.9 134.1 140.3 145.6 149.3 151.1 150.7 148.6 147.6 147.2 147.4 150.8 150.2 147.1 144 141.5 138.1 134.7 132.2 132.5 136.8 141.3 145.3 142.1 145.2 146.6 147.4 148.5 148.2 150.9 156.6 163.4 166 166.2 168.2 174.7 179.2 182 184.5 187.1 190.1 191.7 192.8 196.5 199.6 202.6 204.4 207.4 210.2 213.3 217.6 219.5 219.7 218 214.1 210.4 211.1 216 221.9 224 221.7 217.8 215 214.1 215.5 215.7 216.6 216.4 215.9 214.7
86.3 87.6 89.1 94.5 100.3 101.9 103.3 105.5 108 112.6 116.4 119.8 122.6 126.4 129.8 133.5 136.1 138.4 141 143.5 145.2 146.1 148.7 151.5 153.5 154.6 156.7 159.5 162.2 165 165.4 164.5 163.2 161.8 160.1 157.7 154.9 151.2 147 143.9 142.6 143.2 143.8 145.3 148.4 150.7 152.3 154.9 157.2 161.6 164.3 160.5 153.8 142.6 131.8 121.6 113 106.9 102 96.7 91.1 83.9 76.3 71.7 70.6 69.9 68.1 67.6 67.2 66.7 65.7 65.2 65 64.7 64.1 63.7 60.2 61.2 61.7 59.1 58.9 58.9 61.9 61 59.4 59.3 59.3 59.4 59.5 59.5 59.5 59.5 65.8 73.5 72.2 69.5 68 67 67.1 67.6 65.9 72.2 73 74 76.2 76.8 76.8 77.5 77.5 77.4 77.2 77.4 77.8 81.6 89.5 97.6 101.9 102.7 100.9 98.5 99.1 100.3 103 106.6 110.6 114.2 117.2 120.2 123.3 125.9 128.5 132.3 136.9 141.7 144.8 148 148.4 148.2 147.9 147 147.2 150.8 150.5 147.8 144.9 142.4 139.5 136.3 134 133.1 134.1 135.9 139.7 138.8 143.1 143.2 145.2 146.1 145.7 145.6 149.3 156.4 161.2 162.4 166.1 167.1 173.9 178.4 181.6 184.3 186.2 189.1 190.6 193.7 196.9 200.2 201.9 204.2 207.3 211 214.1 215.3 215.4 213.6 210.5 208.7 209.1 213.3 218.4 221.5 221.6 219.9 214.8 212.5 212.5 212.1 212.2 212.4 213.6 213.6
85.9 87.9 91.2 93.7 99.1 102.1 104.3 106.7 109.1 112.7 116 118.8 121.6 124.2 127.6 131.3 133.9 136.3 139.3 142.5 145.7 147.6 149.5 152.5 154.9 156.8 158.7 161.1 163.2 164.9 164.8 164 162.9 161.9 160.4 158.3 155.4 152 148.7 148.2 149.6 150.5 152 154.4 158 160.6 162.9 166.4 170.5 174.1 169.6 162.2 152 143.5 134.3 126 119.3 113.7 106.7 100.3 94.6 87 77.9 71.5 70.7 70 68.6 67.4 67.4 66.9 66.1 65 64.6 62.9 62 64.5 60.8 61.2 61.8 58.9 58.9 58.9 58.9 58.9 59.2 59.1 59.1 59.1 59.4 59.5 59.5 61 69.4 72.3 63.3 64.9 65.4 65.9 67.7 72.9 77.4 76.9 75.9 74.7 74.6 74.9 75.4 76.5 76.8 77.4 77.3 76.8 76.5 78 84 92.3 98.8 102.2 102.5 99.6 98.4 98.6 99.8 102.3 107.2 111.7 115.4 119.4 123.4 127.1 130.2 133.5 136.5 139.4 141.6 143.5 144.8 145.3 144.9 144.8 147.2 151 150.2 147.6 145.9 143.7 140.6 139 138.8 134.7 131.7 132.2 133.7 135.1 140 141 143.7 143.4 143.9 144.4 145.8 148.9 154.3 156.8 162.1 161.7 170.4 175.5 179.1 181.1 184 185.4 188.2 191.4 192.7 195.1 197.6 200.1 203.7 207.4 210.3 211.2 211.4 210 208.7 208.1 207.2 209.8 212.2 214.4 215.2 215.1 214 212.4 211.3 209.6 208.6 209.2 212.8 212.8
87.2 91.1 95.8 96.8 98.9 102.3 104.6 106 108.8 112.2 115.3 118 120.5 122.6 125.7 129.2 131.8 134.5 138.3 143.4 147.4 149.1 150.8 153.8 156.4 158.8 160.9 162.8 164.2 165 165.1 164.6 163.9 162.5 160.9 159.5 157 153.6 151.5 153.1 155.2 157.6 159.9 163.2 167.4 170.5 172.9 180 183.3 178.2 168.8 158.4 150.8 143.5 133.9 125 118 112.2 106.5 99.9 93.7 86.8 78.9 72.9 70.9 70.2 69.6 67.8 67.2 67 65.9 62.9 60.5 60.5 60.5 64.7 59.9 60.7 61.6 58.9 58.9 58.9 58.9 58.9 59.3 58.9 59 59 59.1 59.4 59.5 62.8 70.8 64 64.8 65.4 66.8 68 69.1 70.2 73.6 76.1 76.8 75.4 74 73.2 73.6 74.9 75.9 76.5 76.5 76.6 76.2 76.3 78.7 85.3 93.8 99.5 101.6 100.9 98.9 97.5 97.3 98.6 102.6 107.2 111.6 116.8 121.1 125.4 129.2 132.2 135.3 137.7 139.5 139.4 140.5 140.9 141.5 143.3 149.5 152.4 151.2 149.1 146.9 144.1 141.2 140.1 139.1 138.4 136.8 135.2 129.8 132.5 136.8 138.5 138.2 139.7 141.1 143.2 142.7 144.7 147.2 151.1 153.9 158.6 166 171 175.3 176.9 179.4 181.9 187.4 188.7 189.7 191.4 193 196 199.9 203.7 206.7 207.6 208.1 207.6 207.1 207.4 206.4 206.8 208.3 209.7 210.8 211 210.9 211.1 210.3 208.1 207.4 207.9 211 212.7
93.2 98.2 100.4 100.3 98.9 99.9 103 105.5 108.5 111.9 115.1 117.5 119.9 122.4 125.2 128.2 131.1 134 136.9 141.8 146.7 150 152.1 155.3 158.1 160.5 162.7 164.7 166 167.1 167.4 167 166.5 165.9 164.4 162.5 160.8 158.9 157.8 160.1 162.7 165.4 168.4 172.5 177.9 182 190.2 195.1 190.2 178.7 167.3 158.5 151.4 143.5 135.9 126.4 117.9 111.4 105.2 99.2 92.3 85.5 79 74.4 71.1 70.2 69.3 69.4 67.6 65.8 65.5 60.8 60.5 60.5 60.5 62.5 59.3 61.2 62.6 58.9 58.9 58.9 58.9 58.9 58.9 58.9 58.9 58.9 58.9 58.9 59.2 66 65.6 63.9 65 65.6 67.1 68.2 69.2 69.7 70.1 73.1 75.6 75 73.7 73.3 73.5 74.1 75.2 75.5 75.6 75.8 75.7 76 77.3 79.9 86.7 95.3 100.7 102.5 100.7 97.8 96 96.4 98.6 101.8 106 111.5 117.1 122.1 125.9 129.4 132.9 135.1 136.9 136.7 136 136.1 138.4 144.6 149.9 152.7 152.1 149.5 147.2 144.3 141.2 139.5 138.3 137.3 137.1 135.2 132 128.2 131.1 135.6 136.1 136.6 138.2 139.4 140.2 143.3 146 146.9 147.8 155.9 161.3 165.4 169.4 169.2 173 178.5 182.7 185.3 187 188.5 190.3 191.8 196.3 200.8 203.6 204.5 204.9 204.8 204.7 205.6 206 204.9 205.5 206.5 207.4 207.8 208.1 208.8 207.8 207.2 207.3 207 210.7 213.1
99.8 101.2 102.7 104 105.3 106.3 107.3 109.3 110.4 112.6 115.1 117.6 120.2 122.7 125.2 128 131 133.2 135.2 138.6 145.5 151.6 154.7 157.4 160.5 162.8 164.9 167.1 168.5 170.1 170.1 169.8 169.4 169 167.9 166.6 165.5 164.6 164.4 166.5 169.2 172.3 176.1 181.1 188.6 199 203.5 203 194.7 180.3 170 159.7 151.3 142.6 134.1 126 119.5 113.6 107.2 101.4 94.1 88.3 82 76.9 72.9 70.2 69.1 69.3 70.4 67 65.9 63.7 60.5 60.5 60.5 61.3 61.7 59.2 61.7 58.9 58.9 58.9 58.9 58.9 58.9 58.9 58.9 58.9 58.9 58.9 59.2 66.2 61.9 64 67.4 63.6 66.8 67.8 68.7 69.2 69 69.6 72.2 73.2 74.2 73.8 76 75.4 75.1 74.9 75 75.1 75.4 76.4 77 78.7 81.2 87.6 95.6 100.5 102.1 100.6 97 95.3 96 98.7 101.2 104.8 110.7 116.8 121.3 125.4 128.6 131.5 133.6 134.4 132.5 131.8 137.8 144.5 149.2 152.1 152.3 150.2 147 144.2 141.4 139.4 137.5 137.5 137.3 135.8 132.6 130.8 129.2 130.7 134.1 134.4 135.8 137.9 138.9 141.2 144.3 143.8 147.5 154.8 159.2 161.7 163.8 166.3 169.2 172.1 175.2 177.9 179.2 181.9 189.9 187.2 192.7 196.4 198.8 200.4 201.2 201.5 201.8 202.8 204 204.3 203.4 203.6 204.3 204.4 204.5 205.2 206.4 206.3 206.1 205.5 209.9 212.3
103.9 104.1 105.9 107.5 109 110.4 111.5 112.4 113.5 114.5 116.3 118.5 120.5 123 125.5 128.4 131.5 133.9 136.1 138.8 145.6 152.9 156.2 159.2 162.7 165.5 168 170.1 171.8 172.8 172.6 172.5 172 172.2 171.4 170.6 170.5 170 170.4 172.8 175.8 179 183.1 190.3 203.1 209.4 209.6 207.2 194.4 179.7 170 161.2 152.6 143 134.1 127.5 121.5 116 110.7 105.5 98.2 91.7 85.7 79.9 75.6 71.7 69.1 68.6 69 68.9 66.7 65.2 61.4 60.5 60.5 60.7 61.5 60.4 60.4 58.9 58.9 58.9 58.9 58.9 58.9 58.9 58.9 58.9 58.9 59 59.3 62.7 63 63.5 66.4 60.5 63.4 66.4 67.8 68.7 68.8 68.7 68.8 70.7 74.5 77.7 75.7 75.7 75 74.4 74.7 75 75.4 76.6 77.2 78.8 80.4 82.7 89.3 96.1 99.7 101 99.1 96.7 94.9 96.2 98.5 101.8 105.3 110.6 116.3 120.6 124.4 127.7 130.8 131.9 130.6 129.8 135.5 141.4 146 149.1 150 148.7 146.5 144.4 142.4 140.3 137.9 137.9 139 137.4 135.5 135.3 132.1 128.9 129 131.6 134.6 136.3 136.9 140.5 142.6 142.4 148.1 154.3 156.5 159.4 162.9 163.5 164.8 168.2 170.8 173.9 175.1 176.2 178.8 183.7 188.6 191.2 194 196.3 196.9 197.4 198 199.2 200.4 201.3 201.8 200.8 201.4 200.9 201 202.5 203.7 203.5 199.8 204.6 209.5 210
107 107.5 108.7 110.8 111.6 112.5 114.3 114.4 115.5 117.2 118.7 120.8 122.6 124.3 126.7 129.6 132.2 134.9 137.4 140.4 146.1 153.2 157.2 161.3 164.9 168.2 170.8 173.4 174.5 174.7 174.5 174.5 174.8 175.1 174.9 175.1 175.8 176.5 177.4 179.8 182.6 186.3 192.3 207.9 214.1 214.3 212.8 204 188.6 179.7 171.7 163.1 154 144.4 135.8 129.1 124.1 118.7 113 107.4 100.9 94.8 88.7 83.1 78 73.8 69.8 68.1 67.8 68 66.8 65.8 63.1 61.2 60.5 62.4 61.2 60.7 59.1 59.8 58.9 58.9 58.9 58.9 58.9 58.9 58.9 58.9 58.9 59 59.3 60.8 64.8 62.9 65.9 60 63.4 64.4 64.8 67.3 67.9 68 68.4 68.5 69.5 74.1 73.5 74.8 73.9 73.9 74.2 74.6 75.3 76 76.8 78.9 80.4 82.1 87.1 93.3 97.7 100 99.4 97.5 95.2 93.9 96.1 99.1 102.6 106.7 111.8 116.2 120.8 124.9 128 129.5 129.2 128.2 130.6 136.8 142.1 146 147.9 147.4 146 143.6 141.7 140.2 138.4 139 141.3 139.7 138.1 137.1 135 129.2 126.9 127.9 132.5 134.7 135.1 138.5 141 142.2 145.4 151 154.1 155.1 159.4 161.5 161.9 165.5 168.5 171.3 173.6 174.5 176.4 177.6 181 184.9 188.3 190.7 192.2 193.2 194.1 195.9 196.9 197.9 199 198.1 198.5 197.9 198.4 199.8 200.6 199.2 193.6 202.6 206.5 209.8
108.8 109.5 110.2 112.6 113.6 113.5 114.8 114.4 115.9 119.7 121.5 123.7 125.4 127.4 129.8 131.9 133.7 136.4 139.8 143.4 148.5 153.5 158.6 163.9 167.6 170.9 173.9 176 176.8 176.6 177.2 178.2 179.5 180 180.4 181.2 182.2 183.1 185.1 187.4 191.4 196.7 210.4 217 219.1 216.7 211.2 197.6 187.9 179.1 171.1 163 154.8 146.1 140.2 134.3 128.1 121.6 114.6 108.7 102.3 96.6 91.3 85.9 81.4 75.9 71.3 68.9 68.1 67.4 67.2 66 64.6 63.6 63 61.7 60.8 60.7 59.1 59.4 58.9 58.9 58.9 58.9 58.9 58.9 58.9 58.9 58.9 59.1 59.3 64 64.2 62.4 64.8 62.3 63.2 63 62.6 64 65.9 67.2 67.8 67.8 67.8 68.2 71.4 73.8 74.2 73.7 73.7 74.1 74.7 75.8 76.9 77 80.8 82.6 86.3 91.8 96.1 99.5 100.3 98.6 95.6 92.8 94.2 97 100.9 103.9 108 112.5 117.3 121.5 125.3 126.9 127.3 126.9 127.3 129.8 135.2 141.5 144.9 145.9 145.3 143.3 142.1 140.3 138.6 138.7 141.3 140.6 139.5 137.5 135.1 130.2 127.3 126.8 130.2 135.7 133.5 138.5 139.6 141.1 142.3 145.9 149.7 151.9 153.8 155.6 159.4 163.6 167.1 169.5 171.8 172.9 174.2 175.4 176.6 177.5 180.9 183.5 185.7 187.6 189.9 192.2 193.8 195.2 195.6 195 195.8 196.8 195.7 196.4 196.5 195 193.6 195.6 198.9 202.4
110.8 111.5 112.1 114.8 115.4 115.6 115.6 116.4 119.1 122.1 124.6 127.2 129.2 131.8 134.2 135.3 136.5 139.9 143.5 147.2 151.4 155.8 160.8 166 170.3 173.8 176.9 179.1 180.1 180.8 182 184.5 185.6 185.8 186.6 186.5 187.6 190.8 193.3 196.4 202.2 212.4 218.1 220 221.1 218.9 208.4 197.1 187.2 177.9 169.9 163.2 157 151 145.7 139.8 133.4 126.4 117.9 109.9 103.6 98.6 93.9 89.3 84.7 78.8 73.5 70.7 68.4 67.7 67.3 66.7 65.9 65.2 64.6 61.5 60.5 60.5 60.6 58.9 58.9 58.9 58.9 58.9 58.9 58.9 58.9 58.9 58.9 59.2 59.5 63.6 63.2 62.4 61.5 63.8 63.1 62.4 62.1 62.1 64.6 65.8 67.3 67.3 67.3 67.5 70 72.9 73.7 73.1 73.4 73.6 73.8 74.6 75.5 76.4 76.1 81.2 84.8 89.9 93.9 96.7 98.8 98.9 96.9 93.5 92.6 95.3 98.7 102.1 105.9 109.6 114.1 118 122 124.4 125.4 125.5 125.8 125.7 127.9 133 140.2 144.3 146.1 145.4 144.4 141.8 138.1 137.3 138.8 140.2 138.4 135.4 132 129.4 126.7 126.6 127.4 129.6 131 137.3 138.8 140.2 140.3 140.9 144.5 146.7 147.9 152 156.1 158.6 163.7 165.1 168.6 170.5 171.5 172.4 173 173.8 174 175.6 178.7 181.7 184.4 187.2 189.3 191.3 191.8 191.2 194.2 195.5 195.4 195.7 195.7 194.5 190.9 192.5 196.1 196.9
113.2 113.8 114.3 117 118 118.8 119.4 120.2 121.8 125.6 128.5 131.3 133.7 136 137.7 138.7 140.1 143 147.1 150.7 154.6 158.3 163.1 168 172.3 176.3 179.2 182.2 184.7 186.3 188.7 191.3 190.4 191.7 192.7 192.6 194.5 198.9 202.6 207 217.5 221.7 221.8 222.7 221 216 207.1 197.2 188.3 178.6 174.2 169.5 163.6 156.6 150.4 144.5 138.4 132 122.1 110.7 104.7 100.1 95.8 90.9 85.4 79.9 75.1 72.1 69.2 67.9 67.5 66.9 66.3 65.7 64.9 62.6 60.1 59.1 61.4 58.9 58.9 58.9 58.9 58.9 58.9 58.9 58.9 58.9 58.9 59.2 59.5 63.5 63.1 62.5 62 62.1 61.9 61.4 61.2 61 61.2 62.5 66.3 66.9 66.8 68.5 73.2 74 73 72.9 73.9 74 72.9 74 74.7 75.2 75.5 77 80.5 85.1 89.5 92.3 94.7 96.2 96.2 94.2 90.9 92.6 96.2 99.8 104 107.8 111.8 116.3 119.2 122.1 124.8 124.6 124.1 124.3 124.5 126.6 132.5 139.1 144.7 147.9 148.6 145.6 139.7 135 136.4 138.4 137.7 133 130.4 127.8 126 126.3 126.4 127.4 128.4 135.8 137.9 137.7 137.3 137.6 138.9 141.3 143.2 147.3 150.7 154.9 158 161.2 163.8 165.9 168 169.2 170.3 170.8 171 170.8 172.3 175 178 181 183.4 185.7 186.3 188.8 190.5 192.6 193.2 194.5 194.4 194.4 192.4 187.8 185 191.2
115.8 116 116.7 119.1 121 121.9 123.8 125.1 126.7 129.9 132.9 135.6 138.2 140.5 142.3 144 145.6 146.4 150.9 154.8 158.9 162.7 166.1 169.2 173 176.8 180.9 184.7 188.1 191.1 193.7 195.9 196.3 197.8 198.6 199.4 203.3 208.8 214.2 221.7 226.6 225.5 225.1 223.5 218.5 213 207.8 200.4 192.6 185.1 179 173.9 168 159.9 152.4 145.7 140.4 134.4 124.5 113.3 106.3 101 96.5 91.3 85.9 80.8 76.5 73.4 70.7 68.4 67.3 66.9 66.4 65.8 65.1 63.9 59.4 60.1 61.9 58.9 60.3 58.9 58.9 62.4 62.5 59.5 59.2 59.2 59.3 59.3 59.5 61.2 62.8 62.4 62.1 61.9 61.7 61.3 60.3 59.3 60.8 60.6 61.2 65.3 66.5 66.7 68.8 74.1 72.6 72.6 74.3 75.7 72.5 72.9 73.8 74.2 74.7 75.2 75.3 79 83.5 87.4 89.9 92.3 93.2 92.4 90 89.6 93.5 97.8 102.6 107 111.1 115.2 118 120.7 125 126.1 126.3 124 122.4 122.6 126 130.8 137 142.9 146.2 146 140.4 133.6 131.8 133.1 133.2 130.8 129.6 128.2 125.7 126 125.8 125.8 127.7 131.3 135.7 135.5 135.9 136.3 136.9 138 139.1 141.7 146 150.5 154 155.8 158.5 161.2 163.9 165.6 167.2 168.3 169 168.5 168 169.2 172.1 174.4 176.3 176.8 180.2 183.3 186.7 189 189.5 190.4 191.3 191.1 190.5 188.3 184.9 179.9
117.4 117.7 119.4 122 125.3 126.8 128.7 130.2 132.4 136.2 139.4 141.8 144.3 147.1 149.6 150.8 151.7 151.1 156.2 160 164.7 168.7 172.4 175.5 178.3 180.1 184 188.5 192.4 196.1 198.7 200.7 202.5 204.5 206 208.2 213.3 218.5 224.2 228.6 229.5 228.3 226.7 222.2 216.4 211.5 206.2 200.2 194.2 186.3 179.3 172.8 167 158 151.1 144.8 139.2 134.2 126.4 116.7 109 103.3 97.9 92.7 87.4 82 77.9 74.9 72.3 70 68 67 66.5 66 65.2 64.6 64.1 59.5 61.7 58.9 58.9 58.9 64.1 66.5 63.9 61 59.2 63.1 58.3 63 63.8 59.4 59.6 62.2 61.9 61.5 60 61.4 61 60.5 59.9 59.7 60.2 62.5 65.4 65.9 66.6 71.3 70.6 70.6 71.8 72.3 71.9 72.1 72.9 73.4 73.9 74.4 74.9 76 79.2 82.9 84.9 87 87.9 88.7 88.3 88.2 92.2 96.8 101.7 106.5 110.6 113.9 116.7 119.7 123.5 126.6 127.6 124.7 121.6 120.6 122.4 124.8 129.7 135.7 140.6 143.6 142.1 135 129 126.7 126.1 126.7 127.4 128.6 126.5 126.6 124.9 124.9 125.8 129 133.1 133.8 138.1 140.8 140.7 138.8 137.1 137.4 141 145.7 148.9 151.6 153.9 156.9 159.9 161.8 163.3 164.9 166.1 166.5 166.1 166.1 167.5 169.8 171.2 171.4 174.3 177.2 180.7 183.4 185.1 186.6 187.6 187.2 187 186.2 182 180.8
118.9 120.5 122.6 126.2 130.1 131.8 133.5 136.1 138.9 142.9 146.3 148.9 151.3 154.9 157 158.5 158.4 157.2 162.3 166.8 171.4 175.5 179.3 182.6 185.8 188.9 191.6 195.2 199.7 202.9 205.4 207.4 209.5 212.2 214.9 218.8 222.5 226.9 229.3 231.3 230.5 228.1 223.9 218.5 212.6 207.7 202.8 197.9 190.6 183 173.9 166.1 162.4 154.6 147.9 141.4 136.1 131.8 124.4 115.4 108.9 104 99.1 93.8 88.8 83.4 79.1 76.2 73.8 71.8 69.8 68.2 67.4 66.7 66 65.5 63.6 58.9 60.2 60.3 58.9 62.7 66.3 66.5 63.7 62.9 56.7 56.7 56.7 56.7 64.1 65.1 59.6 59.6 61.9 62.9 63.4 62.9 62.8 60.5 59.8 59.2 58.5 62.3 63.2 64.5 66.8 70.5 70.4 68.6 69.2 72.3 73.5 72.6 72.1 72.6 73.1 73.6 74 74.7 75.2 77.8 81 82.5 83.8 84.6 84.9 86.5 90.9 95.7 100.4 105.2 109.9 113.1 115.8 118.7 121.5 125.6 125.1 123 120.1 119.1 120.3 122.3 124.9 128.8 133.7 137.9 140.4 138.9 132.9 127.6 125 124.8 127.2 129.8 128.4 127.1 126.5 125.2 123.8 126.2 129.7 131.8 138.1 143.4 145.2 143.3 138.6 135.7 137.3 140.8 144.7 148.1 150.5 153 155.4 157.4 159.3 160.9 162.2 163.4 163.6 164 164.3 164.8 166.2 165.2 167.6 171.3 174.8 177.5 180.6 182.1 182.4 182.3 183.2 183.3 182.5 182
122.1 125.1 127.7 130.8 135 137.7 141.3 144.7 148.2 152 154.9 157.7 160.3 163 165.8 166.7 167.8 167.4 170.3 174.7 179.2 183.3 187 190.4 193.7 197.9 200 202.7 206.7 209.6 212 213.8 216.4 219.9 224.1 228 231.2 234.2 233.4 231.9 228.5 224.6 219.4 213.8 207.9 203.3 198.8 195.1 187.3 176.8 167.7 159.9 156.9 151.6 144.5 138 133.2 128.5 122 114.1 107.7 102.9 98.3 93.8 89.6 84.8 80.1 77.6 75.9 73.8 71.8 70.7 69.5 68.7 67.9 65.8 64.5 59.9 58.5 60.8 61.3 62.8 66.5 65.3 63.5 62.2 57 56.7 56.7 56.7 62.4 64.2 63.9 64.7 64.3 65.3 65.4 64.5 63.5 61.1 59.3 58.8 61.1 63.4 63.3 63.3 66.7 70.4 72.9 69.2 67.2 68.9 71.6 71.5 71.5 71.9 72.5 72.6 73 74.1 74 75.4 76.1 78 79.4 81 82.2 84.3 89 93.8 98.8 104 108.7 111.9 115.5 118.6 121.4 122.6 122.7 121.3 118.5 118.1 119.2 120.6 122.4 123.9 125.7 129.3 133.3 136.4 136.6 132.7 129.2 125.1 124.5 128.4 129.5 128.2 128.2 128.2 126.5 123.3 126.5 129.1 134.4 139.5 143.8 144.3 140.7 136 134.9 138.2 142.7 145.4 146.9 148.1 148.4 150.1 153.2 156.3 157.9 159.3 160.6 161.4 161.8 162.1 162.3 161.2 166 168 169.8 172.9 176 176.5 176 177.5 178 178.2 174.5 176.5
128.5 131.6 134.4 137.1 141.4 146.3 151.3 154.8 158.9 163.7 165.7 168.2 170 172 174.6 176.5 177.6 177 179.2 183.2 187.4 191.3 194.4 197.9 201.1 204.4 207.5 210 213.5 216.1 218 219.8 223.1 227.4 232.7 236.6 237.9 237.5 234.4 229.4 224.8 220.2 214.5 208.8 203.3 199 194.4 189 181 171.3 163.2 156.4 152.8 147.8 140.9 135.9 131 126.3 120.2 113.4 106.9 101.8 97.7 93.6 90.4 86.6 82.4 79.6 78.9 76.9 75.3 74.6 72.7 71.3 69.4 66.6 64.5 61.1 58.3 61 62.7 64.4 66.3 64.5 63 61.6 59.3 56.7 56.7 56.7 56.7 58.7 64 64.2 64.6 65 65.3 64.7 63.7 62 59.8 56.7 60.2 63.1 63.1 64.2 66.2 69 70.4 70.4 67.3 65.9 68.3 70.1 70.9 71.5 71.6 71.5 72.4 73.3 73.4 73.8 71.4 71.6 75.2 77.6 79.7 83.1 88 92.8 97.7 102.8 107.4 110.6 114.2 118.1 120.5 120.3 119.7 118.7 117.1 116.9 117.9 119.3 120.6 121.3 121.9 123.5 125 128.5 131.6 132.8 133.4 131.4 125.5 124.7 128.1 129.8 131 133.4 130.9 123.9 124.6 126.6 128.3 132.7 139 142 141.8 138.6 134.5 134.1 139.2 142.1 143.6 144.7 144.7 145.1 147.2 150.7 153.6 155.8 157.6 158.5 159.4 159.6 159.9 158.8 161.3 163.9 166.1 169.1 169.9 169.4 170 171.5 172.3 172.6 170.2 172.4
136.6 139.5 142.5 146.9 151.3 156.5 161 165.1 168.9 172.8 176.7 178.3 180.4 181.7 182.9 184.7 187 186.7 187.4 190.8 194.8 198.5 201.7 205.2 207.9 210.6 213.9 216.1 219.4 222 223.9 226 229.9 234.8 239.4 240.3 239.2 237.5 232.3 226.1 220.5 215.4 209.7 203.8 198.2 193.4 189.4 182.3 173.4 165.2 157.8 151.8 149.7 146.2 141 135.5 129.7 124.8 119.5 112.8 106.7 101.6 97.1 92.6 89.9 87.7 85.7 83.1 82.8 80.1 78 77.7 77.4 76.7 72.8 68.4 65.4 61.9 58.2 60.7 64.6 66.7 66.1 64 62.5 61.2 60.6 56.7 56.7 56.7 56.7 60.6 63.5 64.3 64.4 64.8 65.1 64.8 64.3 63.6 61.7 58.8 58.2 63.3 64.2 65.2 67 69.6 69.6 69 67.3 65.9 64.6 68.3 69.6 71.2 71.8 72 72.1 72.9 72.9 72.8 73.5 70.4 72.6 74.2 76.8 81.2 86.2 91.3 96.5 101.6 106.1 109.1 112.1 115.3 118 118.5 117.7 116.6 115.6 115.1 116.4 117.8 119.1 120 120.8 121.3 121.2 121.2 124.6 127.7 129.8 129.9 128.2 124.5 122 124.7 129.4 132.3 131.3 127.5 121.8 123.8 123.9 125.7 130.9 135.7 139.1 139.6 137.5 134.7 133 135.9 138.2 139.4 140.1 140.6 143 146.3 149.5 152.1 154.4 156 157.1 157.8 158.3 158.3 156.7 159 161.3 163.9 164.3 165.5 166.1 167.7 167.9 167.7 166.7 168.2
144.2 147.7 152.1 157.4 161.6 166.1 170 174.1 177.7 181.2 184.4 187.5 189.8 190.9 192.2 193.1 195.9 196.8 196.9 198.8 202.6 206.6 209.2 213.1 215.6 217.4 219.7 222 224.9 227.5 229.4 232.2 236.1 240.4 242 241 238 234.1 228 221.2 215.5 210 203.9 197.9 192.2 187.2 180.8 173.5 166.9 159.5 152 146.2 145.6 147.8 143.5 136.3 128.2 123.5 119.3 114.4 109.6 104 98.8 93.3 89.7 87.2 85.4 84.2 83.1 82.7 79.7 78.4 79.1 78.2 75.2 71 66.1 64.1 60.1 58.2 65.3 67.2 65.9 63.5 62.1 61.1 60.5 59.8 56.6 61.8 56.5 56.5 63 64.1 64.2 64.4 64.6 64.9 64.5 64.4 63.6 59 56.6 65.1 65.3 65.4 65.5 67.6 68.8 68.2 67.9 66.9 64.2 64.6 69.1 70.8 73.4 73.4 72.8 73.3 72.4 72 71.6 73.2 72.3 72.6 75.3 79.3 84.3 89.3 94.4 99.3 104.1 107.7 110.1 112.8 115.1 115.9 116 114.9 113.9 113.4 114.5 116.2 117.7 118.8 120.1 120.3 119.6 119.3 120.9 124.1 125.7 126.3 125.8 122.3 121.3 123.6 126 129.4 130.7 129.5 125.8 121.8 121.8 122.2 124.7 129.5 134.9 137.7 138 136.6 133.6 131.3 133.7 135.2 135.2 136.6 138.9 142.3 145.3 148.4 151.3 153.8 155.1 156 156.6 158.1 155.9 154.3 156.3 158.6 160.9 162.3 162.3 163.8 166.2 165.8 163.9 163.9
151.8 156.8 161.7 167.8 172.2 175.3 178.3 182.1 186.6 190.9 194.1 197.3 198.7 200.3 202.9 204.3 205.9 207.7 208.6 209.8 211.2 214.7 217.3 220.9 223 224.5 225.9 227.6 230 231.9 234.3 236.9 240.4 243 242.9 240.4 235.2 229.4 222.6 215.8 209.8 204.1 198.2 191.9 185.3 178.2 170 166.9 162.6 156.4 148.2 139.6 138.8 140.9 138.5 133.9 126.4 121.8 120.8 118.6 115.3 109.9 101.7 94.8 89.7 86.5 84.5 83.5 83.8 83.4 81.3 79.4 79 77.3 74.8 71.2 66.8 65.7 63.3 57.9 65 67.1 66.1 63.4 61.9 61.4 60.6 61.5 56.5 56.5 56.5 56.5 57.8 62.9 62.7 63 63.9 64.7 64.4 64 63.1 58 62.2 66.2 65.4 64.5 64.7 65 67 68.7 70.8 70.2 66.4 62.8 66 69.6 71.7 73.3 73.8 74.5 74.3 74.1 71 70.4 73.5 72.5 74.6 77.9 82.8 88 92.8 97.4 102.2 105.7 107.7 110.1 112.3 113 113.2 112.6 112.3 112.5 114.3 116 116.9 118.5 119.9 119.9 118.4 118 118.8 118.8 120 121.1 120.9 120.5 123.7 127.8 127.2 126.7 127.7 127 126.9 125.5 122.9 120.9 119.3 123.6 129.5 133.1 134.3 134.7 133.7 132.2 130.1 132.5 132.4 132.9 134.9 138.2 141.3 144.7 148.2 150.9 153.1 154.1 154.6 154.8 155.2 155.4 154.9 157.3 160.4 159.9 159.5 159.5 159.8 162.2 160.8 159.7
163.2 168.5 172.7 178.8 182.1 184.8 188.6 192.2 196.1 201.6 204.3 207.6 210.1 212.5 214.3 219.4 221.3 221.1 220.5 217.9 218.6 222.8 225.2 228.8 230.4 230.5 231.7 232.8 233.9 235.3 236.6 238.1 241.1 243.1 241.2 237.5 230.9 224 217.3 210.5 204.1 198.4 191.9 184.8 177.8 169.7 164.8 162.5 158.1 151.5 143.2 136.9 134 134.4 132.1 128.7 123.6 119.5 118.8 118.7 118.2 114.5 107.1 98.3 91.8 86.6 84.2 82.7 83 83.3 82 80.5 79.6 77.9 76.8 74.3 70.9 69.4 66.8 58.3 62.3 66.3 66.2 63.6 62.4 62.1 60.7 59.6 56.5 56.5 56.5 56.5 56.5 60.8 59.4 60.3 62.7 63.9 63.9 63.8 61.8 58.7 64.2 65.2 64.3 64.3 64.7 65.1 66.8 70.4 71.1 73 65.8 63.5 63.6 68.2 69.2 69.7 73.1 74.7 74.9 75.5 71.3 69.3 69.9 73.8 73.2 76.7 81.6 86.8 91.4 96.1 99.9 102.5 105 107.4 109.3 110.3 110.5 110.7 111.2 112.1 113.8 115.4 116.2 117.3 118.4 119 117.8 116.9 116.3 116.1 117.1 117.1 117.6 119.1 122.5 126.4 126.9 125.9 126.2 120.7 125.6 127.2 124.7 121.1 118.8 118.7 120.6 124.8 127 128.5 129.3 129.5 128.2 128.2 130.2 130.4 131.1 134.1 137.6 141.2 144.7 147.7 150.6 152 151.9 152.2 151.5 151.3 153.7 156.2 158.1 157.9 157.3 156.6 156.1 155.9 155.5 156.8
175.6 180.7 184.9 189.5 192.2 195.9 198.9 201.5 204.9 209.9 215.8 220 222.3 228 234.7 239.2 237 232.8 229.2 223.9 228 230.6 232.9 235.6 236.4 236.5 236.7 237.2 237.5 237.3 237.5 238.6 240 240.5 238 231.9 225.1 218.5 212.1 205.1 198.6 192.9 186.3 178.8 169 163 162.6 161.8 156.8 148.4 138.9 133.3 130.6 129.5 127.5 124.5 120.8 117.7 113.1 112.9 113.5 112.5 107.3 100.8 94.6 89.7 85.4 82.8 81.5 81.2 81.2 81.1 79.6 78.3 79.1 78 74.9 71.4 67.8 62.8 57.7 65.9 66.1 64.1 62.8 62.1 59.9 59.2 58.8 56.5 56.5 57.4 58.8 60.1 59 59.1 61.7 63 63.6 63.4 60.8 59.2 62.1 62.2 62.8 63.1 64 64.8 64.9 66.2 66.2 66.3 65.5 63 62.7 64.4 66.9 68.1 70.1 72.9 73.1 72.1 72.6 69.5 69.1 69.8 73 75.1 79.8 84.6 89.4 94.1 97.4 100.2 103 105.4 107.3 108.6 108.9 109.3 110.5 111.6 113.1 114.4 115 115.8 116.5 116.8 116.2 115.7 115.7 115.7 116.6 116.9 117 117.9 119.3 121.7 122.7 123.8 123.1 117.8 122.3 125.2 125.4 122 121.3 120.2 116.4 118.5 119.4 119.6 122.3 123.6 123.9 125.9 128 128.4 129 130.4 133.9 137.8 141.5 144.7 147.4 150.4 150.9 148.3 147.6 146.8 149.8 152.6 155.7 156.2 155.3 154.5 152.8 151.5 153.5 159.4
188 192.1 197.1 201.4 204 207.2 211.8 214.2 215.7 220 225.5 230.6 239.5 248.8 252.1 251.5 247.6 242.1 233.8 234.8 237.9 238.3 239.6 239.8 240.1 239.5 240.1 240.3 239.1 238.2 237.3 238 237.2 236.3 231.6 225.3 218.8 212.9 206.5 199.8 193.3 187.7 181.1 171.9 162 159 161.6 160.4 155.7 146.8 136.6 132.1 129.5 127.5 124 121.2 118 115.9 110 107 105.2 103.7 100.9 97.1 93.3 90 86.2 84.2 81.1 80.5 80.1 80.8 79.2 78.3 79.4 78.9 76 71.9 67.1 63.9 57.6 65.6 66.9 64.1 62.2 60.2 59.6 59.6 59.6 59.6 59.9 59.8 59.5 59.6 58.9 59.3 59.8 61.2 62.9 62.5 58.7 59 59.4 60.2 60.9 61.3 62 62.9 63.1 63.6 64.5 64.1 63.7 62.3 62 61.8 62.3 65.4 67 70.6 72.6 71 71.3 69.2 69.3 70 70.7 72.6 76.9 81.6 86.5 91.7 95.9 98.9 101.5 104 105.8 107 107.4 108.5 109.7 111 112.5 113.7 114.7 114.8 115.3 115.4 115.3 115.8 116.7 116.7 116.8 117.3 117.4 117.8 118.8 119 119.8 120.3 120.2 116.2 117.4 119 120 120.2 121.1 119.4 117 115.8 114 115.1 117.1 119.6 121.5 123.4 125.7 126.5 127.1 127.9 130.2 134.6 138.3 141.6 144.8 148.3 150.8 152.1 148.2 144.6 144.6 147 151.8 154.7 154.5 152.7 150.3 146.8 151.4 158.5
198.8 203.1 209.4 219 221.9 222.5 223.4 225.6 227.5 230.9 236.8 246.3 257.6 262.1 261.2 257.2 255.1 246.9 242.6 246.5 247.7 247 245.7 244.8 243.6 242.6 242.8 242.8 241.6 239.2 237.2 236.1 235.1 230.5 224.8 219 212.6 206.7 201 194.3 188.1 182.5 174.5 164.2 157.5 156 158.3 157.3 152.1 144.6 137 131 128.8 125.2 120.6 117.3 113.6 110.9 108.5 105.2 101.5 99 96.4 94.7 91.6 87.7 84.6 83.4 81.4 80.3 80 80.4 79.4 78.7 77.9 78.4 75.7 73.1 71 68.2 57.6 61.2 64.6 64.2 61.3 59.6 59.6 59.6 59.6 59.6 59.4 59.5 60.3 59.9 59.1 59.6 59.7 60 62.2 60.7 56.6 59.2 59.5 59.2 59.3 59.6 59.8 60.6 61.3 62.2 62.9 62.9 62.6 62 61.5 61.1 60.7 62 65.4 66.9 71.6 72.2 70.8 68.6 69.4 70.4 70.8 71.7 73.8 78.5 83.2 88.7 94.2 97.3 99.9 102.5 104.3 105.3 105.9 107.1 108.2 110.6 112.3 113.7 114.4 114.5 114.6 114.7 114.9 116 119 120 118.9 117.9 118.2 118.6 118.4 118.4 117.9 117.3 116.6 114.9 115.4 115.2 116.2 116.1 116.9 117 115.8 114.9 114.6 114.2 115.5 117.4 118.1 120 122.5 123.4 124.6 125.8 128.1 131.7 135.3 138.8 142.2 145.6 149 151.7 150.8 144.5 141.4 141.6 145.5 148.9 151.6 150.9 148.5 144.5 151.5 152.7
210.7 221.9 232.4 235.4 236.8 235.8 237.5 238.4 239.6 243.4 254.4 262.2 266.5 267.1 265.1 264.2 256.5 247.4 251.4 253.9 254.9 254.3 251.8 249 246.7 245.2 244.3 243.8 242.5 238.8 235.5 234.1 227.5 223.1 218.8 213.4 207.1 201.3 195.6 188.8 182.1 176.4 167 159 155.4 153.9 153.8 153.5 150.1 144.3 136.2 129.6 127 122.8 118.7 115.1 110.4 108.9 106.2 103.8 99.5 96.3 94 92.6 89.5 86.6 84.3 82.8 81.4 80 79.1 79.4 80 79.2 75.4 74.8 74.6 76.9 77.8 72.2 62.9 56.9 62.3 64.8 62 59.6 59.6 59.6 59.6 59.6 57.7 58.3 58.7 58.8 59.1 58.6 58.5 59.5 60.7 58.7 55.1 58.8 60 59.9 59.5 59 58.7 59.4 60.1 61.1 61.7 61.8 61.9 61.6 61.3 60.9 61 61.3 63.8 64.3 68 72 70.9 67.3 69.2 70.1 70.8 71.6 72 74.8 79 84.7 90.6 95.4 98.1 100.6 102.8 103.5 103.8 104.8 106.8 109.5 111.7 113.7 114.2 114.3 114.7 115.1 115 117.4 121.1 120.9 119.7 118.4 119.9 120.3 120 118.8 117.2 115.5 114.2 113.4 113.7 113.3 113.4 114.3 115.3 116.4 115.9 114.5 114.3 114.3 113.7 115 114.5 115.4 118.2 119.8 121.8 123.4 125.1 127.9 131.4 135.3 139.1 142.5 145.6 148.3 149.7 144.7 140.1 138.6 139.4 143.1 145.9 145.5 145.2 141.6 148.2 148.9
236.5 247.5 250.3 250.4 249 251.6 251.3 254 256.7 262.7 279.2 281.6 273 271.5 270.8 266.5 255.4 259.2 259.5 261.1 261.4 260.7 257.4 253.1 249.6 246.7 245.1 244 241.7 236.8 232.3 228.5 221.8 215.3 211.2 206.4 200.1 194.6 189.4 182.9 176 166.9 160.6 156.7 154.1 152.5 152.2 150.1 146.2 142.1 135.3 129.6 125.3 121.3 117.8 114.5 113.2 111.5 108 104.8 101.8 99.1 96.3 93.9 90.6 88.1 85.6 82.7 81.2 79.7 78.5 78.4 76.2 75.5 72.2 71.4 69.7 71.3 75.3 72.4 66.4 56.7 58.3 63.3 63 59.6 59.6 59.6 64 64.5 57.2 57.4 58.6 58.8 57.6 57.8 57.3 57.7 58.9 57 54.5 58.6 60.5 60.5 59.9 59.1 58.3 58.7 59.3 59.7 60.2 60.7 61 60.9 60.6 60.3 60.6 61.2 62.1 64 66.6 69.5 69.3 66.1 68.5 70.8 73.1 72.3 72.1 72.1 75.1 80.1 85.7 91.5 95.4 99.3 101.2 101.7 101.8 103 105.4 108.4 111.3 113.8 114.4 114.2 115 115.6 115.7 118.5 120.9 119.9 119.5 118.7 119.9 120.4 120.4 119.7 117.8 115.9 114.4 112.6 113 112.1 111 112 114.4 116.3 115.2 115.2 117 116.1 112.9 111.7 111.3 112.4 113.5 116.1 118.5 120.1 121.6 123.6 127.4 131.7 135.5 139.2 141.8 144.5 146.7 144.5 139.1 137.5 135.2 137.2 139.8 141.4 142.9 141.7 146.6 147.5
267.1 269.9 268.6 268.5 267.8 266.3 268.1 273.8 283.1 292.7 290.1 287.2 282.3 280.9 277.7 267.9 264.6 266.8 267.1 267.1 265.8 264.5 261.8 256.6 252.1 248.7 246.5 244.8 241 234.8 228.4 221.3 214.2 207.9 204.1 199.3 194.5 189.4 184.5 177.4 168 160.9 157.5 155.4 152.8 151.2 150.2 148 144.1 138.7 132.8 128.3 124.1 120.9 118.1 118.2 117.9 115.5 112.3 108.7 105.4 102 98.8 95.9 92.9 90.2 87.2 84.2 81.4 80 78.5 77.5 76.7 74.7 75.2 71.9 68.7 66.4 68 64.7 61.3 58.6 56.3 57.8 59.6 58.7 58.3 58.8 62.3 65.6 55.1 56.1 57.2 56.1 55.6 53.1 59 58.8 57.2 56.5 57.1 58.2 59.2 59.8 59.5 59.1 58.2 58 58 57.7 57.8 58.2 58.5 59.4 59.7 59.5 59.9 60.4 61.7 63.5 68.4 68.7 66.7 64.1 68.7 71.7 72.7 72.6 72.3 72.2 71.6 75.3 80.2 86.2 91.6 96.9 100.1 100.2 100 101.1 104 107.3 110.4 113.2 114.2 113.6 114.4 115.5 116.7 118.3 119.3 119.3 119.4 119.3 119.4 119.9 119.9 119.3 118.3 116.6 115.1 112.4 112.1 112.7 110.9 109.8 112.4 114.7 115.2 116.8 119.9 120.6 116.7 115.6 114.9 113.5 111.6 112.9 115.6 117.2 118.9 121 125 129.1 132.6 136.2 138.4 140.5 142.1 140 136.1 133.5 131.8 131.4 133 137.5 142.3 139.2 143.6 145.1
288.9 290.4 288.8 286.2 284.3 285.1 292.4 300.9 309 307.5 300.5 295.7 292.3 289 280.4 266.8 273 274.5 275 273.1 270 266.8 263.2 258.4 253.9 250 248.1 246.5 243.4 239.5 229.7 221.6 213.8 206.8 199.7 193.1 188.9 184.8 179.9 172.5 164.9 158.6 156.3 154.1 151.9 150.8 149.8 148.4 144.4 139 134 132.5 126.9 123 124 123.7 121.8 119.3 116.9 112.9 108.3 104.6 101.2 97.9 95 91.9 88.6 85.8 83.2 81.4 80.9 80.3 78.8 77.7 77.1 74.3 72.6 70.2 70.6 73.2 71.2 68.8 58.3 55.4 55.1 54.9 55.2 55.6 56.3 62 59.5 55.3 55.9 55.7 52.3 52.3 56.6 64.8 61 53.5 54.3 56.6 58.5 58.7 58.3 57.5 56.8 55.9 55.9 55.8 55.8 56.1 56.2 56.8 58.5 58.4 59 59.7 61 62.5 65.9 65.8 64.5 62.5 66.2 70 72.1 73.1 73 73 71.9 71.4 74.5 79.4 84.5 90.1 94.6 96.4 97.1 99.1 102.7 106.8 109.5 112 113 112.1 113.2 114.3 116.5 117.7 118.7 118.6 119 119.3 119.2 119.3 119 118.5 117.7 116.6 115.1 113.1 111.3 110.9 109.4 108.9 110.8 113.4 116.5 118.7 119.6 118.8 115.7 112.9 112 110.5 109.8 111.2 114 115 116.5 118.6 122.7 126.7 130.5 134.3 136.8 139.1 141.5 141.8 139.1 136 132.4 129.1 129.6 131.3 137.9 140.7 136.8 142.7
306.2 310.5 306.8 301 303 309.8 316.7 318.1 315 310 306.6 302.6 297.4 290.5 277.9 274.4 280.9 283 282.7 280.5 275.3 269.7 264.3 258.9 254 250.6 249 249.2 243.7 236.5 231.8 226 218.9 209.9 200.8 188 182.3 179.2 174.8 167.5 162.1 158.4 155.9 153.7 152.2 150.8 149.5 148 145.5 142.5 142.4 139.7 134.2 131.5 129.5 126.7 124.2 122.8 120.6 116.8 111.9 107.3 103.2 99.8 96.3 93.6 89.9 86.8 85.2 82.8 82.5 81.4 80.5 78.9 77.6 75.8 72.6 73.1 76.3 78 75.7 69.7 65.9 65.6 58.3 57.5 55.8 53.3 53.3 54.2 63.3 55.6 55.5 55 52.3 52.3 52.3 58.3 58.6 54.6 52.2 56.4 57.8 57.8 57.1 55.7 54.8 53.5 53.2 53.5 53.1 53.2 55 55.5 55.7 56.9 57.9 58.9 61 62.6 63.3 65.3 62.7 60 61.6 64 69.6 72.6 73.1 72.2 71 70.6 71.3 74.9 79.5 84.7 89.2 91.4 93.7 96.5 101.9 106.3 108.9 110.6 110.5 109.4 110.1 112.4 114.9 116.8 118.2 118.3 118.7 119.3 119.1 119 118.7 118.2 117.5 116.9 115.7 113.6 112 111.2 111 108.9 108.6 111.8 116.4 120.5 121.9 119.2 113.3 108.7 107.7 109.4 111.8 113.6 113.9 114.2 114.9 117.6 121.5 125.1 129.3 133.5 135.9 137.5 137.2 135.7 134.3 132.5 128.8 127.4 129 127.8 130.3 136.5 137.7 137
322.5 319.6 315.6 315.3 320.6 325.8 327.3 322.5 316.3 312 305.8 297.9 288.3 282.7 281.8 284 287.2 287.5 285.9 284 279 273.1 266.5 260.2 253.9 249.2 245.3 239.6 236.9 231.4 229.8 227.6 220.5 211.4 202.6 189.7 179.1 172.3 167.8 164.4 161.1 158.6 156.4 154.5 153 151.6 150.1 148.4 146.9 145.3 145.2 142.8 138.9 135.5 132.5 128.8 126 123.9 120.9 117 112.9 109.4 106.3 102.3 98.8 95.2 92.4 88.5 87.3 85.4 83.9 83.7 84.5 82 79.9 78.2 75.1 77.7 81.7 82.4 81.4 76.1 72 68.1 64.7 63.9 61.1 59.5 57.8 53.3 58.2 61 54.4 52.3 52.3 52.3 52.3 52.3 53.5 55 52 55.8 56.6 56.6 55.6 53.9 52.6 50.9 50.8 50.3 48.7 51.2 53 56.2 56.8 57.2 57.2 59.4 62.1 64.1 61.7 63.4 61.8 59.3 58.9 59.2 63.8 69.4 72.1 70.5 69.4 69.5 70 71.2 75.2 79.6 84.2 87.3 89.8 93.2 97.9 102.8 106.6 107.5 106.5 106.1 108.1 110.6 113.1 115.7 117.5 118.6 119.1 119.2 118.9 118.7 118.4 117.9 117.5 117.1 116.2 114.8 113.3 113.8 114.2 112.8 108.2 108.3 111.5 114.5 117.5 118.2 115 108.8 106.5 108.7 112.8 114.8 115 114.8 115.6 118.2 122.6 126.2 130.1 133.7 135.8 137.5 137.2 134.1 130.7 127.3 125.1 125.2 126.3 124.1 125.4 129.9 133.7 128.7
328.4 327.3 327.6 331 333.8 332.6 327.5 321.1 316.7 307.3 294.5 294.2 298.1 297.1 296.2 293.6 293.8 292.8 290.7 288.5 282.9 277.1 270.7 263.9 256 247.3 239.6 230.8 221.2 220.2 215.3 214.9 215.3 207 198.3 188.4 178.2 168 164.7 162.5 160.5 158.4 156.8 155.1 154.1 152.6 150.3 147.6 148.2 147.2 145 141.7 139.5 137.6 135.6 134.2 129.5 125.4 122 117.6 113.9 111.5 109.9 106.5 103.2 97.2 92.8 91.9 91.7 90.1 88.3 87.9 90.5 89.6 84.5 83 79.9 80.2 81.4 84.1 84.1 78.2 71.7 69.1 66.5 65.2 64.2 63.1 65.5 61 53.3 58.4 61.3 58.3 52.3 52.3 52.3 55.3 53.5 53.7 52.9 55.1 55.6 55.1 53.7 51.1 51 52.2 51.7 51.1 50.6 48.7 49.4 55.8 57.2 58.2 58.2 59.4 62.1 64.1 63.5 61.4 60.5 59.3 58.7 58.6 58.8 64.5 67.8 67.4 66.5 66.5 66.8 68.3 70.3 74.5 79 82.3 85.1 88.7 93.2 97.8 101.4 102.9 102.1 104 108.6 111.4 112.4 114.6 116.7 119 119.3 119.2 118.5 118.3 118.1 117.7 117.4 117.1 116.4 114.7 114.3 114.1 113.5 112.4 109 107 107.1 107.6 110.5 112.6 111.4 107.1 104.9 107.1 111.3 113.6 114.5 116.4 118.9 122.2 125.3 128 130 131.7 132.4 134.3 134.4 133 130.7 127.2 124.9 124 122.8 121.8 121.3 124.4 128.1 131.4
335.9 341 346.4 344.9 337.6 330.9 322.8 317.1 310.5 298.8 306 310.3 309.2 309.4 307 303.8 302.4 301.3 298.8 295 290.7 284.9 278.5 271.7 263.8 253.7 241.4 230.7 222.4 211.8 208.5 206.2 202.8 198 191.5 183.6 175.9 169.3 163.4 161.4 160 158.5 157.5 156.5 155.9 154.7 153.2 152.6 151.2 148.8 145.7 143.5 142.3 140.6 138.5 134.4 130 126.2 122.7 118.3 116.1 112.4 110.1 107.3 104.5 101.1 97.3 93.9 92.3 91.5 90.9 90.3 91.6 91.6 90.7 87 83.3 82.3 80.9 80.7 81 78.5 74.3 71.3 69.5 69.5 68.4 64.6 66.9 65.8 61.5 53.3 53.3 58.5 59.9 59.2 57.5 55.4 53.8 53 53.6 54.8 54.9 53.3 51.3 52.2 53.1 52.4 52.2 52 51.7 50.9 48.7 51.7 55.7 57.8 59.4 59.5 61.3 64.6 64.5 62.5 60.1 58.9 58.6 58.4 58.8 60.6 62.9 63 61.7 61.4 63.3 65.9 67.7 70.1 73.8 77.2 80.7 84.3 88.2 92.5 96 98.6 100.4 104.5 108.9 110.8 111 111.2 116 118.7 119.6 119.1 118.4 118.1 118 117.8 117.4 117.1 115.8 114.6 114.3 113.9 113.4 112.5 110.6 107.9 106.5 105.9 106.1 107 105 103.1 102.5 105.4 109.2 111.4 112.8 115.9 120.1 124.1 127.3 128.9 129 129.4 129.2 129.8 130.1 129.3 128.8 128 125.7 124.2 123 121.9 118.5 120.2 125.4 130.2
350 354.6 355.8 349.2 335.5 326.5 319.5 312 304 312.7 316.3 317.4 318.6 318.8 316.2 312.9 310.7 308.9 305.8 302.7 299.3 294 287.8 281.2 273.2 259.9 246.5 233.7 223.8 214 202.2 198.1 189.7 187.5 184 178 171 166.5 164.2 161.5 160.6 158.8 158 158 158.4 157.6 156.3 153.6 151.6 149.8 147.9 146.4 144.8 141.3 138.8 135.6 132.3 128.5 125.1 122 119.1 116.3 112 108.6 104.4 102.5 99.2 95.5 94.3 91.7 91.1 90.9 90.3 90.2 90.4 88.9 87.2 86.2 84.4 80.6 79.8 79.1 77.5 75.8 75.6 73 72 65.5 71.6 69.5 64.2 61.4 57.6 53 52.6 53.3 55.3 53.7 53 52.8 53.2 52.6 51.8 54.7 56 56.3 55.6 52.9 52.2 51.9 51.7 51.3 50.5 48.7 52.6 57.1 63.4 61.3 60.7 62.7 63.1 63.4 61.1 59.3 58.4 58.3 58.4 58.9 60.2 59.6 58.4 58.8 60.2 62.8 65 68.1 69.8 72.7 76.5 80.4 84.5 88.8 92.2 95.5 99.4 104.5 108.2 108 105.6 107.9 115.1 117.3 119.4 118.8 117.7 117.2 117.7 118.1 118.2 117.3 116.1 114.9 114.2 113.7 113.2 112.6 111.4 109.9 108.7 106.7 106.1 105.1 102.5 101.5 100.1 102.7 105.2 108.1 111.4 115.5 120 124.6 128.6 129.3 128.9 128.6 127.9 127.5 127.2 126.8 126.9 126.8 126 124.2 122.5 121.1 116.9 116.8 119.7 121.9
366.5 362.6 350.3 336.3 323.4 319.3 314.1 311.3 317.6 321.5 324.1 325.7 325.9 324.4 322.4 320.3 317.7 313.5 308.3 303.9 300.5 297.9 292.1 285.1 273.4 258.9 246 234 223.7 213.8 201.1 189.8 183.5 178.6 175.9 171.1 166.8 163.6 162.3 162.2 160.8 159.7 159.3 159.4 159.3 158.7 157.2 155.3 154.8 153.8 153.2 151.9 148.1 143.7 140.4 138.6 137 135.5 128.9 123.8 121.8 119.2 117.1 111.5 106.9 102.2 98.7 96 94.5 92.6 91.6 90.8 90.4 89.9 88.8 92.5 92 89.6 88.1 85.5 82.9 81.3 80.1 77.8 76.5 73.1 69.9 66.9 76.8 74.5 69.2 63.5 61.7 56.6 57.4 56.7 54.1 51.8 51.8 51.8 52.4 56.2 57.3 57.8 64.5 66.1 58 55.4 52.6 51.8 51.4 51.3 50.7 50.2 50.7 54 54.9 58.6 63.8 61.8 62.2 63.8 63.4 59.6 58.5 58.4 58.3 58.7 58.8 58.4 57.7 58.6 60.1 61.6 63.2 66.6 67.9 69.7 72.9 76.5 80.6 85 88.5 91.9 96.5 101.9 105.6 104 102.2 107.3 113.2 114.4 116.8 117.8 117 116.6 117.7 118.1 118.5 117.7 116.4 115.1 114.1 113.7 113.1 112.1 111 109.8 108.1 106.8 106.4 105.2 103.3 105.3 101.6 99.4 99.9 103.6 108.3 112.9 118.4 123.7 128.1 129.3 128.8 127.7 127.2 126.3 125.1 124.7 124.9 124.7 124.2 123.3 121.6 120.3 117.7 111.9 110.1 111.5
370.1 353.6 336.8 323.5 318 315.6 317.6 322.4 326.4 329 330.5 331.1 329.9 328.5 325.8 323.6 320.7 317.3 311.6 303.7 296.8 292 287.8 277.6 265.2 253.9 243 232.2 222.4 212.6 201.5 191.4 183.5 177.1 172.1 168.8 165.8 163.1 161.6 160.7 160.1 159.7 160 160 160 159.6 158.1 157 155.8 155.8 156.1 155.5 152.2 148.2 145.6 142.6 139.7 137.5 134.4 130.4 125.5 121.9 118.6 115.2 110.6 106.1 102 100.1 97 94.7 94 93.8 92.3 90.7 92.9 95.7 92.7 89.8 88.5 87.5 86.9 85.1 81.4 78.6 74.7 71.2 70.5 67.6 71.4 77.4 74 66.2 63.3 59.8 64.7 69.7 71.2 65.7 64.3 61.4 60.1 59.3 59.1 59.1 62.9 68.5 61.4 58.5 55.6 52.6 51.6 51.4 50.9 50.3 48.7 51.2 50.9 51.1 54 62.4 61.3 61.6 62.9 62.1 61.2 58.7 58.5 58.6 58 57.5 57.6 58.5 59.6 60.4 60.9 63.4 68.1 68.4 67.8 72.5 76.4 80.7 84.1 87.3 92 96.9 100.2 100.1 100.5 108.1 112.8 111.7 112.7 114.9 115.2 115.4 115.9 116.8 118 117.6 116.4 115.2 113.8 113.4 112.4 111.2 110.2 109.1 107.8 106.4 106.5 104.9 103.2 104.6 102.6 101.4 98.3 101.1 106.4 111.5 116.7 122.1 126.5 128.5 128 127 125.9 124.8 122.3 121.9 121.8 121.7 121.7 121.1 120.1 118.7 117.7 113.4 105.9 106.7
358.3 340.4 329.4 323.7 323.5 324 325.2 329.4 334.9 334.3 332 330.5 329.6 329 327.4 324.9 321.1 317 312.9 308 300.4 287.2 275.7 265.5 254.9 244.8 235.7 227 218.6 209.7 200.2 191.3 183 175.4 170.3 167.2 164.9 163.4 162.6 160.6 160.1 160 160.4 160.8 161.3 161 159.6 158.3 157.5 157.4 157 155.6 153.4 150.8 148.9 146.4 143.3 139.4 135.4 133.3 131.3 127.3 122 117.1 113.5 110.3 108.3 103.2 99.6 98.8 97.6 96.4 95 93.4 96.4 98.3 94.4 89.2 87.9 89 90.2 90.3 84.7 80.2 75.3 72.8 69.3 69 73.4 71.7 72.3 65.7 59.8 60.6 64.1 73.2 83 77.2 69.5 66.8 64.7 61.5 60.4 60 60.5 62.9 61.6 59.2 58.4 56.1 53.2 51.7 51 50.1 50.1 50.5 50 49.5 49.9 51.4 60.5 62.2 63.4 62.6 60.6 61.4 58.6 58.2 57.4 57.6 57.4 58.4 58.8 59 59.9 61.4 64.9 63.5 62 66.7 71.9 76.6 79.6 82.8 87.4 91.4 94.3 95.7 97.2 105.5 109.5 108.2 109 114.6 113.6 113.5 115.3 115.3 116.3 115.8 115.4 114.5 113.8 113.2 112.6 111.1 110 108.8 107.8 106.1 104.3 102.7 101.8 100.5 99.4 99 99.5 96.2 105.9 112.6 114.4 119.2 124.1 126 125.7 124.5 123.3 121.8 119.8 119.9 118.8 118.5 118.3 117.7 116.9 116.2 114.6 114.1 107 99.2
346.4 336.2 330.9 330 330.7 331.2 334 338.9 337.3 334.2 330 328.4 327 326.6 325.6 323.8 320.1 315.6 311.7 307.1 299.7 283.8 266.8 255.3 245.1 235.9 227.7 219.5 212.1 204.4 195.7 186.6 178.1 170.9 167 165 163.3 162.5 162.6 160.7 160.2 160.3 160.8 161.7 162.7 162.7 162 160.5 159.2 158.5 157 155.3 153.8 152.6 150.5 149.6 147.7 144.2 139.6 135.5 131.5 129.7 126.9 125.1 118.3 112.9 108.8 105.5 103.1 100.3 99.1 97.1 96 95.3 95.2 95.9 96.5 91 90.1 89.8 92.4 90.4 85.6 79.5 75.5 72.8 70.7 72.3 77.9 67.8 65.5 62.6 62.9 64.1 62.9 66.4 75.5 83.3 79.2 73 70.1 64.3 62.4 60.5 60.2 61 60.9 60.6 59.6 57.9 56.1 54.3 52.2 50.6 48.7 49.3 47.8 47.9 48.6 48.5 47.2 61.4 67.3 65.5 62.9 61.3 59.6 60.7 57.6 57.1 56.8 57.6 58.1 58.7 59 60.2 61.2 61.2 60.9 62.6 66.6 72.7 75.7 78.7 83.1 87.1 89.4 91.8 94.6 102.8 105.2 103.2 106.3 113.2 112.5 110 114.5 114.7 114 113.8 114.3 113.6 113.7 113.7 114.1 112 110.5 110.4 107.8 104.4 104.7 106.8 105.4 102.5 100.6 98.5 98 95.2 101.6 111.4 111.9 114.7 119.8 121.9 121.9 120.4 119.9 118.9 118.2 118.1 116.8 116.3 115.1 113 111.7 110.5 108.4 106.1 102.7 98.6
344.3 339 338.7 340 341.9 348.3 355.7 351.5 340.7 331.2 326.5 325.2 324.2 323.5 321.9 319 316.1 313 309 298.9 287.7 269.5 256.6 245.7 235.8 226.6 218.8 211 203.5 195.9 187.9 178.4 171.3 166.6 163.9 162.7 161.5 160.6 160.1 159.7 159.6 160.1 160.9 162 162.9 163.2 162.8 161.7 160.4 159.1 157.8 156.8 155.1 153.6 152.7 151.8 149.9 146.5 142.1 138.4 133.9 130.9 128.3 123.7 121.3 119.1 112.4 109.2 105.1 102.8 101.6 99.3 98.1 97.9 97.6 98.8 93.8 92.4 91.9 90.3 88.3 90.2 84.7 79.1 78.8 79.3 78.8 76.4 72.7 67.1 67.7 72.2 69.3 66.5 63 65 69.6 77.7 77.7 73.2 73.4 72.2 64.5 63.1 63.2 62.9 62.2 62 61.4 60.9 58.7 57.9 56.1 54.9 53.5 52.7 52.8 52.1 53.1 52.8 47.1 53 65.2 66.9 65.1 62.1 60.8 61.3 61.4 58.8 57.1 56.4 56.4 57.1 58.1 59 59.4 59.2 59.4 61 64 68.7 71.4 74.2 78.7 82.9 89.4 94.4 97.2 98.6 94.8 93.2 96.3 101.9 110.7 107.5 109.9 113.3 117.1 112.5 111.9 111 110.9 111.8 112.4 110.9 109.5 108.1 104.2 104.3 106.8 105.5 104.2 102.8 99.4 98.2 99.6 96.8 94.2 101.1 106 108.8 113.1 115.1 114.7 112.9 113.4 116.2 118.1 118.6 117.8 115.9 113.6 111.3 110.4 107.1 103.7 102.2 99.2 97.7
347.8 349.4 351.4 354.1 361.5 369.3 366.2 357.9 343.6 329.4 324.3 322 321 319.6 317.2 313.5 310.6 307.2 301.3 285.8 267.3 254.9 244.3 234.3 226 217.4 209.6 201.8 193.9 186.5 179.3 171.7 166 163 162 160.9 159.9 159.3 158.9 158.7 159.2 160 161 162.1 162.9 162.9 162.7 162.1 161 160 159.9 159.6 157.2 155.1 154.4 153.9 151 147.3 143.6 140.2 136.2 134.8 131.1 125.4 121.8 119.2 116.1 115 108.2 104.7 102.7 104.3 100.6 100.3 100.6 99.5 94.7 93.5 96.9 95.5 92.1 87.2 83.5 87.5 92.2 84 77 74.5 73.4 71.8 73.9 73.4 68.6 64.6 64.5 66.4 68.8 70.1 72.3 72.3 78.8 78.6 70.8 66.9 66.4 64.5 63.4 62.5 61.6 61.1 60.7 61.7 60.3 58.4 56.3 55.4 54.1 52.8 54.3 54.2 49 46.6 58.8 65.1 65.8 63.9 61 61 60.3 60.7 57 54.1 54.1 54 53.8 54 54.7 54.3 55.2 56.2 58 62.1 65.4 67.5 73.3 78.7 91.2 96.7 99.9 94.4 90.2 90.1 91.2 92.6 93.6 100.7 106.6 112.9 112.4 110.3 107.7 106.2 104.6 104.8 106.6 106.8 105.1 103.4 103.3 103.5 103.9 104 103.4 102.5 99.3 98.1 97.8 97.6 88 94.7 100.8 104.3 106 107.5 108.1 108.9 112.2 113.9 115.6 116.1 116.8 116.1 114.6 111.7 108.3 104.3 101.6 97.5 95.7 94.2
360.4 362.8 365.8 372.2 378.9 376.6 369.5 356.5 337.9 326.6 321.8 319.6 317.7 314.2 310.8 307.7 302.4 295.4 281.3 265.1 253.5 243.6 233.5 223.5 215.9 206.9 200 191.9 183.6 176.9 172 167.2 162.9 161.4 160.4 159.7 158.6 158.2 158 158.6 159.4 160.9 161.8 162.5 163.2 162.8 162.7 162.3 161.2 160.3 160.5 160.1 158.3 156.4 156.3 155.7 152.5 148.4 145.2 140.3 136.2 134.6 131.1 132.3 128 120.7 116 113.3 109.6 106.7 106 106.4 108 105.9 103.6 99.3 95.7 95.3 97.4 99.8 96.2 92.1 86.8 87.4 89.5 89 83.9 78.2 78.6 76.2 78.1 78 78 69.9 67.4 67 68.6 69.9 70.4 72.1 76.3 79.3 75.9 68.1 64.4 65.8 64.5 64.5 63 60.9 63 66 65.2 60.6 58.6 56.4 55.8 55.1 54 52.9 50.6 46.3 51.3 57.6 60.3 62.6 63 60.8 60.7 57.8 54.7 50 49.7 49.9 48.7 48.9 48.8 49.3 50.3 50.2 49.8 51.5 54 59 66.8 72.5 77.2 81 85.3 91.2 102 97.3 88.5 89 88.3 88.8 99.4 104.7 102.6 101.4 100 102.6 103.1 103.6 103.6 102.9 101.2 102.2 103.7 104.4 102.3 101.5 101.1 100.2 98.6 98.4 97.3 95.3 89.7 93.2 97.3 101.8 102.8 102.6 103.1 103.6 106.5 108.6 110.8 113.1 114.4 112.9 109.6 105 101.5 100.8 99.7 93.8 90.6 90
373.2 376.8 381.9 385.3 383.3 377.7 367.2 347.9 332.2 324.1 318.8 316.4 313.4 309.7 303.8 296.6 286.1 271.9 257.9 249.1 239.8 231 221.5 212.2 205.1 196.6 190.6 181.8 172.6 167.4 165.4 163.1 161.4 160.4 159.8 159.3 158.7 158 158.2 158.7 160.1 162.2 163.8 164.4 164.5 163.6 162.8 162.4 161.5 160.7 160.3 159.9 158.5 157.3 157.1 156.1 153.6 151.2 147.8 142 137.9 134.5 131.5 131.6 130.9 122.8 117.8 113.5 111 108.9 109.1 110.2 110.1 108.4 106.2 102.4 99.2 97.9 97.3 99.5 95 97.5 99.7 92.2 94.5 95.1 87.2 82.2 81.4 84.6 87.2 81.8 86.9 80.3 72.2 69.2 69.4 70.4 71.6 72.5 74.4 79.3 77.8 71.6 64.8 66.9 68.5 68.8 65.1 61.2 64.6 72.1 67.7 60.8 60.8 59.7 57.9 56.6 57.7 57.5 54.8 48.8 47.2 52 54.6 55.7 56 55.4 54.7 49.7 47.6 46 45.6 45.4 42.5 40.8 40.9 40.9 40.7 40.3 40.1 40.1 40.1 45.9 56.2 64.5 68.1 70.8 75.5 83.8 91.4 98.7 92.1 86 85.1 84.5 88.5 91.3 92.8 97.8 99.2 98.1 99.2 104.6 103.8 104.5 102.6 99.8 101.6 101.6 101.3 101.2 100.1 99.5 99.7 97.5 96 95.3 89.3 92.1 93.6 97.5 97.4 97.7 100.6 101.3 101.8 102.3 102.9 104.7 104.9 103.7 102 100.1 97.2 96.4 94.5 89.8 87.3 84
386.3 389.6 392 389.3 384.5 375.6 356.1 336.7 326.3 320.8 315.3 312.3 310.6 302.7 293.5 280.3 262.4 246.2 239.9 233.6 225.1 217.3 208.4 198.9 192.2 186.6 180.1 172.9 165.8 162.8 162.2 161.3 160.2 159.7 159.3 158.8 158.3 158.7 159 159.4 161.2 163.4 164.8 165.5 165 164.2 163.4 162.6 161.8 161 160.2 159.8 158.5 157.3 155.9 154.9 153.9 153.7 150.1 146.3 142.6 138.7 135.4 132.2 129.1 123.4 120 117.2 114.3 112.2 112.4 113.3 112.6 110.9 108.9 105.8 103.2 101.6 100.4 99 97 99.1 103.3 99.4 101 98.1 88.8 88.3 86.3 89.4 85 86.2 87.5 85.5 78.3 72.6 74.5 73.5 75.1 77.7 78.7 81.6 79 74.5 67.9 70.6 73.2 69.6 63.5 61.7 67.4 73.2 67.3 64.4 62.8 62.6 61.4 59.4 59.2 59 56.9 53.7 46 47 50.2 49.6 48.2 47.1 44.3 44 43.3 45.1 45.4 47.5 48.1 48.3 48.6 48.2 47.8 48 47.7 47.2 46.4 39.7 43.5 53.7 59.8 63.6 68.2 73.1 75.2 82.6 84.7 83.1 81 81.4 83.9 84.7 85.2 92.3 99.1 97 96.1 95.6 96.9 97.4 97.3 95.5 94.8 95.1 96.5 98.4 101.1 100.4 99.6 98.7 97.8 95 89.5 87.3 90.5 92.1 90.5 92.3 98.1 100.2 99.9 100.1 99.7 100.1 100 99 98.8 98.2 96.2 95.1 92.2 88.4 84.2 86.1
395.4 396.8 393.6 388.3 382.1 362.7 344.2 328.8 323 317.7 312.4 307.7 302.7 294.7 279.8 257.4 238.3 230.3 223.4 219.2 212.3 205.2 197.4 188.3 181.1 177.5 172.1 167.6 162.3 160.2 159.8 159.5 158.4 158.7 158.6 158.2 158.6 159.3 159.8 160.3 161.3 163 164 164.5 164.5 164.2 163.5 162.8 162 161.3 160.5 159.7 158.5 157.2 155 154 153.3 153.2 151.1 148.8 146.8 141.9 138.7 135.9 133.1 128.2 124.7 120.8 117 115.2 115.9 115.9 114.9 113.2 111.5 108.8 106.5 104.8 103.5 102.1 101.4 101.3 103.5 101.8 97.5 96.8 93.3 95.9 92 89.4 89.2 88.5 93.1 89.9 81.7 78.8 83 79.7 76.1 82 83.1 83.2 80.1 73.5 69.8 74.5 77.5 71.5 65.2 62.9 70.1 71 65 63.6 66.2 69.2 70.1 61.6 61.4 60.7 57.8 54.6 52.8 45.2 45.2 46.1 44.9 45.6 47.8 49.2 49.7 50.5 51.7 53.9 54.6 52.8 51.8 51.1 50.7 50.3 49.6 47.8 47.1 46 39.7 44.7 51.9 57 61.3 65.4 69 71.6 76.4 78.4 77.5 77.1 79.8 81.3 82.1 87 88.2 89.8 92.6 93.8 95.7 95.2 96.8 96.9 96.4 94.8 94.2 92.5 94.5 97 98.3 98.2 98 96.1 93.7 91.7 86.2 87.1 86.7 86.4 91.8 97 96.9 95.8 96.2 97.7 97.5 98.2 98.2 97.5 95.7 92.8 90.8 87 80.7 83.4
398.6 396.9 392.2 383 368 348.1 334.4 326.6 320.5 315.3 309.4 300.5 288.4 273.7 253.8 229.9 218.8 215 208.2 207.2 201.3 193.5 188 181.4 172.1 166.8 163.9 162.4 159.7 157.6 157.5 157.4 157.3 157.7 158.3 158.9 159.3 159.8 160.2 160.6 161.2 162.2 163 163.4 163.9 163.9 163.5 163 162.2 161.5 160.5 159.7 158.7 157 154.4 153.3 152.2 151 150 148.4 147.1 144.5 141.9 139.7 137 132.5 129.4 126.1 121.8 119.3 119 118.5 116.9 115.3 113.2 111.1 109.2 107.7 106.3 105.1 104.2 102.7 106.9 110.6 101.7 98.5 99.2 100.4 95.3 95 99.2 90.8 91.4 91.7 83.9 83.3 84.4 78.3 84.3 86.2 87.3 85.5 80.7 73.1 71.2 74.3 76.1 75.7 68.7 63.9 65.2 70 66.2 64.1 64.6 67.6 70 66.2 68 65.6 60.3 54.9 54.4 52.4 48.2 47.6 50.5 50.6 51.7 56.9 58.2 58.8 57.9 58 57.3 54.1 51.9 51.2 50.5 50.6 50.5 50 49.8 49.2 45 39.4 46.5 49.6 55.2 60.7 63.6 67.8 72.8 75.5 75.2 74 75.7 77.1 81.4 86.5 86.5 84.9 86 88.2 94.2 95.5 95.2 97.4 97.2 96.4 94.7 95.9 93.8 92.7 91.5 91.5 94.5 94.3 93 91.3 91.6 86.8 85.8 84.5 84.4 90.2 92.2 92.4 93.3 95.2 96 96 95.5 94.7 93.7 91.3 88.6 85.7 79.4 81.3
397 392.6 385.4 370.7 353.2 341.1 333.3 324.9 316.7 312.4 301.9 287.4 267.4 246 230.3 213.3 201.1 197.7 194.5 193.7 188.9 180.8 175 167.8 162.4 159.6 158.1 157.7 156.4 155 156 156.5 156.6 158.1 158.8 159.5 159.9 160.1 160.2 160.3 160.6 161.3 161.8 162.5 163.1 163.1 162.4 162.3 162.3 161.2 160.2 159.4 158.7 156.8 154.8 153.4 152.1 150.7 150.5 149.8 148.4 146.1 143.6 141.7 139.4 136.1 133.6 130.9 127.3 124.8 123.2 121.3 119.2 116.9 114.7 112.6 111.5 110.5 109.3 108.2 107 105.4 107 108.4 103.3 101.2 104.4 106.5 102 101.5 101.3 95 94.3 90.5 89.6 88.2 86.4 83 91.6 94.2 90.7 86.7 85.1 75.7 72.7 73.8 76.1 78.5 71.9 65 68.2 71.2 68.5 65.3 64.8 64.9 65.4 68.9 72.9 70.4 65.2 56.7 54.6 53.8 53.8 57.9 63.3 57.7 56.1 58.3 60.8 60 60.7 61.6 61.4 58.3 56.3 54.1 50.4 50.4 50.1 49.8 49.6 49.4 48.6 40.3 39.7 47.3 50.7 57.7 61.1 65.3 70.4 72.5 71.8 72 71.9 76.4 84.1 87.2 85.4 83.1 82.5 84.9 86.5 87.4 94.6 95 95.5 93.1 89.5 93.9 94.6 94.9 93.6 89.9 88.5 90.7 91.8 89.7 89.7 86.7 84.6 83.5 81.5 85 89.6 92 93.6 95.8 95.4 95.2 94.3 93.2 92.6 90.5 88.8 84.7 78.7 79.8
393.2 385.2 371.2 354.8 347.2 339.3 329.8 318.9 310.3 301.4 288.1 266.3 244.2 225.9 207.6 198.5 186.9 182.6 181.4 180.2 173.9 168 163.6 158.5 156 155.3 154.2 153.3 154.5 155.3 155.9 157.1 158.6 159.1 159.1 160.1 160.3 160.4 160.1 160.1 160.1 160.2 160.6 161.1 161.8 161.9 161.3 161 161.7 160.7 159.6 158.8 158.3 156.8 154.9 153.7 152.5 150.7 151.3 151.5 150 147.5 145.5 143.9 141.9 139.5 137.7 135.4 132.5 130.1 128.2 124.9 121.3 118.2 116 114.2 113.3 112.8 111.7 110.8 109.9 109.5 110.8 104.1 103.6 102.6 105.3 112.4 110.9 106 107.1 101.4 97.4 98.4 94.7 91.9 92 89.7 97.1 98.9 89.2 87.3 90.3 83.5 75.3 76.8 82.9 80.2 73.7 69.6 75.9 74.9 70.1 66.7 66 66.1 66.9 74.4 77.5 78.2 71.2 60.8 58 56.5 57.4 60.1 63.4 58.5 59.8 55.9 57.3 59.4 61.7 61.4 61 61 61 60.5 54.2 49.9 49.8 49.6 49.4 49.2 49 44.7 38.9 43.4 48 50.1 56.2 60.8 63.6 65.7 67.1 68.2 72.2 76.2 78.8 80.5 83.9 83.2 81.4 82.9 83 83.3 84.5 93.7 95.9 89.4 85.9 87.7 92.2 92.5 93.7 92.1 87.9 85.6 86.9 87.3 86.5 86.5 84.8 81.8 83.5 85.5 85.3 92.2 92.7 92.1 92.9 92.8 90 88.7 88.6 87.6 85.7 83.4 78.8 79.5
385.2 368.7 355.9 350.5 344.4 335.1 324.2 314.8 301 286.9 266 244.8 226.4 207.1 190.9 181 176.4 173.1 171.7 168.8 165.2 161.4 157.2 154.4 153.4 152.4 151.3 152 153.7 155 156.2 157.4 158.8 159.9 159.9 159.8 160 160.1 160.1 160 159.5 159.2 159.5 159.8 160.5 160.8 160.3 160.4 160.7 160.1 159 158.2 157.6 157.3 156.5 156.3 153.1 150.9 151.9 152.2 150.8 149.6 148 146.4 144.9 143.1 141.8 139.1 136.2 133.2 130.3 126.5 122.6 119.8 117.1 116 115.8 114.9 113.7 112.8 111.9 109.9 106.6 109.9 111.9 107.6 107.4 108.2 109.6 115 114.2 106.5 103.5 104.7 101.3 95.5 93.8 98.8 102.9 101.8 93.4 93.1 92.2 89.8 81.3 81.5 85.3 81.8 74.9 72.6 78.7 77.4 70.9 69.1 69 68.5 76.1 80.8 79.7 76.2 68.8 63.9 60.8 59.3 61.4 64.5 61.1 62.8 59.6 56.9 55.7 56.2 57 57.6 58.9 63 62.9 61.7 57.8 51.7 49.5 49.4 49.2 49.1 48.8 45.3 40.8 40.3 44.5 48.1 51.6 55.3 58.2 62.9 64.9 66.5 67.8 68.9 71.3 75.9 80.5 81.8 80.3 81.5 82.9 81.9 81.1 84.9 89 87.3 85.8 85.3 88.5 90 92 91.2 89.2 85.5 84 84.7 84.7 84.2 82.6 79.9 85.1 84.8 83.8 88.5 89.1 87.4 87.1 85.1 83.3 82.7 83.4 83 82.2 81.5 77.9 78.6
366 354.7 350.3 345.6 339.5 328.7 316.7 302.9 286.5 266.5 244.9 223.3 207.9 190.7 177.4 172.7 168.3 166.5 164.7 164.3 161.6 158.4 154.3 152.3 151.5 150.6 151 152.4 154.2 155.3 156.6 157.7 159.3 160.4 160.5 160.3 159.8 159.4 159.6 159.3 158.9 158.5 158.4 158.8 159.6 160.4 160.4 159.8 159.7 159.1 158 157.3 156.7 156.6 157 155.3 151.8 150.9 152.1 152.8 152 150.8 149.9 148.8 147.9 146.7 144.9 141.6 138.2 134.4 129.9 126.7 123.8 121.1 118.8 118.6 119.3 118.2 116.3 115 113.9 111.5 107.5 108.6 114.6 111.7 110.4 109.5 110 111.5 113.4 116 110.2 106.1 107.3 101.8 98.9 99.7 101.9 98.2 97.3 97.2 93.3 92.3 88.6 87.9 87.5 83.5 76.5 72.8 75.4 78.6 75.5 72.7 72.9 78 79.3 76.2 72.6 66.8 65.9 65.3 62.3 60 61.2 66.4 61.6 64.3 63.6 59.3 57.4 55.7 57.1 57.3 57.8 63.8 64.9 63.7 60 55.6 49.5 49.1 49 48.8 48.4 47.7 42.7 38.8 43.8 44.6 50.1 51.7 54.3 58.6 60.9 63.9 65.6 66 67.8 71.8 75.8 77 78.9 83.8 81.9 79.4 80.2 82 81.6 80.6 83.9 81.9 84 87.2 91.6 94.1 91.1 87.1 85.2 83.9 83.3 82.5 80.1 84.5 85.2 84.1 83.8 82.9 83 83.2 82.1 81 80.2 79.4 79.4 79 78.9 80 76.3 77
352.4 348.1 344.5 338.5 329.5 318 303.4 285.7 265.8 246.3 226.2 206.6 189 172.7 168.7 164.2 160.9 160.2 158.6 157.8 156.2 153.3 151.3 150.3 149.9 149.6 151.5 155.1 157.4 156.6 157.1 158.6 160.2 160 160 159.9 160.1 159.5 158.5 157.9 157.2 157.5 157.6 157.9 158.8 160 160.9 160.1 159.2 157.9 157.1 156.6 155.8 155.9 156.5 155.1 151.4 151.9 152.9 153.6 153.5 152.4 151.7 151 150.5 149.8 147.4 143.8 139.9 135.5 131.9 128.9 125.3 122.9 121.7 121.7 122 120.5 118.8 117.6 116.1 113.4 108.5 109.6 117.4 113.7 117.2 115.8 112.7 113.6 113.5 116.1 114.5 108.9 111.4 110 106.6 105.4 104 98.4 95.9 97.9 97.8 98.1 96 91.4 91.4 90.5 83.4 76.2 76.4 79.1 83.3 82.7 83 86.8 82.5 76.2 68.1 65.6 65.6 65.3 63.3 61.8 61.2 61.6 63.4 67.8 64.2 60.9 61.2 57.5 58.9 58.9 57.6 62.2 64.2 64.2 63.2 59.7 55.8 49.8 48.9 48.4 48.1 47.8 45.2 40.7 38.2 43.8 47.7 50.6 52.1 55.4 57.4 59.2 59.8 60.8 63.3 67.5 70 70.9 72.3 76.8 80.3 79.3 80.7 79.7 78.3 77.4 76 75.3 79.3 88.3 90.1 91.3 87.4 85.1 85.5 84.4 82.9 80.8 78.3 83.6 86.8 83.6 83 83.6 81.2 80.9 80.2 80.2 79.4 78.5 77.8 77.2 76.9 78.1 75.4 74.9
343.7 341.3 337.8 329.1 317.1 302.5 284.6 265 245.3 226.3 206.6 187.3 171.7 167.4 163.6 158.4 155.2 154.4 154.3 152.5 151 149.7 148.7 148.7 149 149.9 151.8 154.5 155.6 156 155.9 158 160 159.4 159 158.8 159.8 160.4 158.2 156.4 155.5 155.2 155.3 156.1 157.3 159.3 161.2 160.4 159.1 157.5 155.8 155.5 154.9 155.2 154.8 152.8 152.5 153.6 154.8 155 154.9 154.4 153.8 153.2 153.1 152.4 150.2 146.9 143.9 140 136.7 133.9 130.2 128.1 127.1 126.1 125.8 123.6 121 120.7 118.9 116.5 113 111.5 111.5 117.2 121.2 120.5 117.1 115.7 115.3 114.9 112.7 108.3 110.2 115.9 113.1 106 106.4 98.8 96 96 100.2 104.6 105.5 98.9 94.3 93.8 89.7 80.5 79.8 81.3 85 92 95 93.1 87.5 78.6 70 66.3 65.8 65.3 64.1 63.6 61.9 62.4 64.9 64.8 65.2 67.6 67.4 63.2 60.4 57.9 57.4 60.3 61.8 62.4 63 62.9 59.6 56 51.1 48.6 47.9 47.5 47.1 44.7 40.3 40.9 45.7 48.3 50.7 50.9 53 54 55.7 57.5 60.3 64.2 64.6 63.7 65.3 71 74.7 74.8 77.2 77.9 83.4 83.3 77 73.9 76.4 89.3 90 87.2 84.9 83.5 82.4 83.2 85.6 80.7 78.5 79.8 80.8 81.4 82.3 81.6 80.1 79.7 79.5 79.4 78.6 77.7 77.1 77.4 77 76.4 74.5 72.7
335.1 331.9 327.3 317.5 301.5 282.7 263.9 244.5 225.3 206.1 187.4 172 167.2 163.2 158.1 154.1 152.9 152.7 151.5 150 148.4 147.1 146.8 147.3 147.8 150 151 151.9 152.9 153.4 153.4 155.7 157.8 157.8 157.5 157.7 160.6 161.4 156.5 153.5 153.2 153 153.1 154.2 155.4 158.4 160.9 160.4 158.8 157.1 155 154.6 154.2 153.7 153.6 154.6 154.8 155.8 156 156.2 156.5 156.1 155.6 155.2 155.2 154.6 153 150.2 147.2 144.4 142.2 139.4 136.8 134.6 133.2 132.3 130.6 127.9 124.9 124.2 123.1 120.6 117.8 115.7 112.5 117.3 122.7 121.5 120.8 118.5 118.5 116.9 114.8 111.6 110.5 110.7 111.5 111.1 109.8 103.1 99.8 95.8 96.8 102.3 108.3 104.5 99.8 97.2 94.6 86.9 83.6 83.1 84.8 88.9 97.8 100.5 93.2 82.1 76.7 67.3 66 66.6 67 65.7 61.1 60.9 64 66.8 74.6 74.9 71.5 66 63.5 61.6 57.5 57.6 60.5 63.5 65.3 64.9 63 60.6 54.6 49.5 47.8 47.4 47 46.2 43.8 38 41.8 46.5 47 50.1 49.5 49.8 51.5 52.4 55.4 58 57.9 57.4 59.6 64.3 66.8 67.9 72.4 76 86.5 87.2 81.9 72.8 74.1 85.4 89.1 86.4 82.1 81.8 79 76.6 75.2 73.3 74.3 80 80.3 80 79.4 79.3 79.4 79.2 79.1 78.9 78.1 76.5 75.2 75.1 75.6 75.2 74 71
324.3 320.2 311.3 298.5 279.8 260.6 242.2 223 204.3 184.7 170.8 167 162.7 159.3 154.9 152.6 151.5 150.2 148.8 148.2 146.9 145.8 146 147 147.7 149.5 150.3 150.5 150.6 149.7 149.2 150.9 153 155.2 155.4 156.1 156.8 155.3 151.9 151.5 151.3 150.9 151.2 152.3 153.9 156.8 159.8 159.8 158.7 157.3 155.6 154.4 154 153.7 156.5 159.2 158.1 157.5 157.1 157.5 157.8 157.7 157.3 156.8 156.1 155.2 153.3 151.1 150.3 148.8 147.8 146.1 144 142.9 140 137.4 135.6 132.5 129.2 128.3 127.1 124.1 121.2 119.5 116.7 117.9 125.1 123.1 121.7 120.6 120 118.5 116.3 114.3 112.9 111.9 111.1 113.4 115.4 111.7 105 97.5 96.9 98 102.5 107.5 105.6 102 98.6 93.8 91.3 87 85.6 87.9 90.7 93.3 89.2 89 86.9 78 69.9 70.2 70.8 68.8 63.1 61.1 61.1 64.8 71 72.4 70.8 70.1 71.6 68.3 60.9 57.8 57.5 61.3 67.5 69.4 68.2 65.1 60.4 52.8 49.2 47.3 47 46.6 44.3 42.8 37.9 44.2 43.7 42.8 48.5 47.8 47.7 49 50.8 52.4 52.5 52.3 56.1 60.2 63 62.6 63.3 68.2 80.6 87.1 85.7 76.6 71.6 76 81.5 80.7 78.6 76.7 76.7 71.8 74.2 79.6 84.4 84.7 85.3 81.8 79.1 78.7 78.3 78.1 77.4 78.3 78.1 76.1 74.3 73.7 73.1 73.4 73.3 70.3
310.9 299.3 289.3 274.4 256.3 237.6 219.3 200.9 182.6 169.7 163 161.3 160.1 159.6 156.9 153.4 152.9 152.1 148.9 147.2 146.1 145.6 146.1 146.3 148.1 149.6 149.8 149 147.4 146.1 144.3 144.5 147.6 150.3 151.6 152.2 152.2 151.6 150.5 149.6 149 149 149.5 150.6 151.5 154.2 157.5 158.5 158.7 157.9 156.5 155.3 154.4 155.5 158.6 162.4 163.6 160.7 158.8 159.1 159 158.9 158.5 158.1 157.2 154.9 153.5 153.9 155 153.6 153.5 152.9 151.5 150.4 147.4 144.6 138.6 137.4 133.5 132.6 130.7 127.7 124.9 124.5 120.4 122.1 129.4 127.4 122.8 122 121.2 119.8 117.9 115.8 114.5 113.5 112.9 114.1 116.3 117.6 112 103.3 99.2 98.6 100.9 102.7 105.4 106 103 95 93.1 92.2 89.8 90.2 90.7 95.3 96.1 95.7 92.2 84.3 77.7 71 72.6 72.7 66.9 63.1 61.4 61.9 67.6 72.7 70.9 69.5 71.9 68.9 62.1 59.1 58.1 57.9 61.7 68.3 70.2 69.6 67.9 61.8 53.9 48.8 47.3 46.7 45.6 43.4 39.9 40.1 42.2 41.2 41.6 43.7 48.7 48.5 49.1 49 49.3 50.3 53.8 56.8 57.9 57.8 57.3 63 71 80.3 83 76.5 71 72.2 75.5 77.4 80.8 80.3 77.3 71.2 72.3 73.4 76.5 89.2 93.9 85 79.5 79.6 78.6 76.3 76 77 77.7 76.6 74.6 73.1 72 71.7 70.7 68.9
290.7 275.8 263.5 249.4 232.3 214.5 197.7 180 167.5 162 160.7 160.6 160.1 159.1 157.2 154.5 151.1 148.8 146.9 146.1 145.8 146 146.5 148.1 148.6 148.6 147.8 146.3 144.2 142.5 140.6 135.7 137 143.2 146 147.8 148.4 148.5 148.7 147.6 147.2 147.2 147.9 149.3 149.8 151.5 155.3 159.9 160.1 159.6 157.5 156.3 156.3 157.1 158.4 162.3 163.5 161.4 160.3 160.3 160.2 160 159.7 159.3 158.5 156.7 155.1 155.5 158.6 157.7 156.7 156.1 155.4 154.8 154.6 155.3 147.9 141.7 138.9 137.7 135.2 132.9 133.7 129 123 119.8 121.5 126.9 127.3 123.3 122.4 121.1 119.3 117.6 116.1 115 114.1 116.9 119.9 120.3 116.7 111.7 104.8 100.9 103.2 102.4 102.2 103.6 100.5 95.2 92.4 96.6 94 95.6 95 95.3 94.3 94.7 94.6 92.1 86.9 76.3 71 72.5 68 66.2 66.2 62.8 63.4 67.2 69.1 70.8 70.1 67.3 62.4 60.4 62.2 59.7 58 61.2 67.3 70.7 71.7 69.4 63.6 55 50.8 48.9 47.6 45 42.3 36.6 41 40.6 41.2 41.8 41.3 42.8 45.6 49.6 51.2 48.3 51.9 55.8 55.6 54.5 54.3 56.7 62.1 67.1 70.6 71.9 71.9 70.5 70.5 74.3 79.6 75.7 74.3 71.5 71 73.3 75.9 86.3 88.1 80.5 79.7 79.3 78.8 76.5 75.8 75.7 76.5 76.2 74.8 73.1 71.6 70.3 67 65.4
263.2 250.7 239.2 226.4 210.9 194.2 178.1 165.9 161.8 161 160.9 162.6 160.5 158.3 155.7 153 150.1 147.6 146.1 146 145.9 146.4 148.4 149.3 149.4 148 145 143.4 141 139.4 135.7 135.7 135.7 137.8 140.4 144.3 147 148 146.6 146.5 146 145.9 150 153.3 151.6 152.3 154.1 161.3 162.8 160.8 158.7 157.5 157.6 158.5 160.8 162 162.2 161.9 161.6 161.4 161.4 161.3 160.9 160.3 159.4 159.1 158.1 157 158.3 158.7 159 157.7 156.6 156 155.9 156.5 155.9 152.8 147 145 142.7 140.6 143.3 135.7 127.2 124.7 123.5 123.4 124 123.9 123.6 122.4 121.1 119.5 118.2 117.4 118.6 122 125 124.5 120.9 117.2 113.6 107.8 103.8 103.4 102.6 101.6 99 95 95.1 99.4 98.8 100.9 103.9 100.7 94.8 92 91.8 93.5 92.5 88.3 82.6 75.2 68.9 69.1 73.4 69.3 64.1 64.4 68.5 70.6 68.6 68.3 64.9 62.6 62.4 62.2 59.2 58.6 60.3 66.1 70.4 71.7 68.9 63 56.2 52.1 51.2 50.1 46.4 39.7 39.3 40.2 41.3 41.9 41.4 41.5 42.2 41.4 42.4 46.9 49.7 51.4 52.7 52.4 52.3 53.5 53.4 54.9 58.5 64.7 66.6 67.8 67.4 67.7 69 69.9 70.2 67.4 71 71.6 71 78.3 79.4 78.8 78.6 79.8 78.3 77.5 76.6 75.8 75.1 74.5 73.5 72.2 70.2 67.8 66.6 66.3
231.6 222.6 213.9 204 190.3 176.6 166.8 162.9 161.6 161.8 164.6 164.9 163.4 159.7 156 152.7 149.3 146.9 145.9 145.8 146.2 148.1 150.6 150.7 149.7 148.4 146.1 141.4 139.1 137.1 135.7 135.7 137.3 142.6 144.8 146.8 146 145.1 146.3 146.1 144.8 147.1 154.6 153.7 152.4 152.7 154.1 158.3 162.3 161.7 159.8 158.9 158.7 160 161.7 162.2 162.4 162.4 162.3 162 162.1 162.1 162.1 160.9 160.2 159.9 159.7 159 158.7 158.6 159.1 158.3 157.5 156.7 155.9 154.4 152 153.2 153.7 151.6 154.1 148 149.2 144.5 135.4 130 127.9 125.2 124.5 125.3 125.5 124 122.6 121.3 121.2 121.5 123 125.6 127.8 127.9 125.1 122 119.2 115.1 109.6 106 103.7 102.2 99.2 95.9 101.4 105.3 103.5 102.7 102.1 101.9 99.8 93.8 91.6 90.9 90.6 92.2 91.2 81.2 73.2 67.3 71 69.4 66 66.9 67.9 67.3 68.4 72.4 70.1 65.4 62.4 62.4 61 59.7 61 63 66.1 70.7 72.3 68.7 63.1 56.7 53.4 52.1 51.8 48.2 37 37.1 41.6 42.6 42.3 42.1 41.8 41.5 41.5 42.1 44.8 47.1 50 50.1 50.2 51.6 50.5 51.1 52.6 56.8 58.1 60.1 62.2 64.2 64.7 65.3 67.4 70 71 71.3 70.2 70.1 72.7 74.4 74 80.8 79.3 77 76.8 75.8 74.7 72.5 71.7 70.3 69.2 68.3 67.5 67
208.4 201.8 194.4 186.3 176.2 169.1 164.8 163.4 165 171.1 170.6 170.4 167.2 164.2 160.6 155.4 149.3 147 146.9 146.8 146.8 148.2 150.4 149.8 146.8 145.4 143 140.2 138.1 135.7 135.7 135.7 135.7 141.3 143.2 142.7 142 143.2 143.8 144 146.8 152 154.8 154.4 153.7 154.1 155.5 157.9 160.8 160.9 160.9 160.2 159.8 160.1 161.1 162.2 162.8 162.8 162.8 162.7 162.6 162.4 162.3 161.6 161 160.7 160.5 160.1 159.5 158.7 158.7 158.7 158.1 157.2 155.9 152.8 151.1 153.2 153.6 153.6 156.6 153.4 152.8 151.8 143.7 136.2 131.3 128.2 127 128 128.1 126.4 124.4 122.8 122.4 123.6 125.4 127.7 129.7 130 128.3 125.3 122 118.1 114.3 110.4 107 104.8 100.7 98.3 102.8 106.4 104 103.4 103 101.7 102.1 99.1 92.4 91.2 90.4 90.5 91 88.9 81.7 73.8 68.2 66.8 69 74.5 73 68.2 69.9 73.5 71.5 67.8 62.3 61.5 60.7 60.6 60.3 59.9 61.4 65.1 69.6 71.8 69 64.2 59.7 56 55.5 52.5 47.8 38.8 35.7 41.2 42.1 42.2 41.5 41.5 41.6 41.3 41.4 42.1 44.5 47.7 49.2 49.1 49.1 49.5 50.4 51.4 54 55.2 58 60.2 61.3 63 65.5 67.6 68.2 68.9 69.2 67.8 69.7 70.8 71.4 73 74.4 73.8 75.7 77 73.9 71.1 70.4 71.3 72 70.1 68.4 67.9
190.9 185.6 181 177.2 172.6 169.4 167.6 171.8 177.4 175.8 173.5 170.3 167.6 164.9 162 157.6 150.3 148.1 147.8 147.7 148.7 149.4 149.2 148.4 143 141.5 140.1 135.7 135.7 135.7 135.7 135.7 135.7 137.4 139.1 139.9 139.8 139.2 140.7 145.7 151.1 153.3 154.4 154.4 155.1 156.5 159 159.2 158.9 159.8 160.6 160.1 160.2 160.5 161.3 162.4 163 163.3 163.2 163.1 162.9 162.7 162.5 162 161.5 161.2 161 160.3 159.7 159 158.5 158.4 158.4 157.7 156.9 155.1 152.5 155.3 154.3 155.3 156.7 155.7 154.8 155.6 149.5 143.3 136.1 131.5 130 130 129.8 128.6 126 123 123.2 124.4 126.4 128.4 130.5 130.8 129.8 127 123.4 119.4 116.3 113.6 110.1 107.9 102.8 100.7 105.6 105.3 104.6 104.1 106.3 103.6 101 98.2 93.8 92.5 92.6 94.7 95.9 91.9 87 79.7 73.8 68.8 67.5 68 69.3 70.5 71.8 73.9 71.3 68.9 63 62.5 66.4 65.2 60 58 58 59.6 63.4 68 70.8 69.4 65.5 61.1 59.6 56.9 53.7 48.1 41.2 34.9 39 41.9 41.8 41.5 41.4 41.1 40.9 40.3 41.8 44.7 45.8 47.6 47.6 47.6 48.1 47.9 49.1 50.8 52.3 55 56.9 57.7 62.4 62.8 63.4 65 66.1 65.4 67.8 68.4 68.3 68.5 68.7 69.3 70.6 71.2 70.9 71.1 71.3 74 77.9 77.1 75.5 72.5
184.4 182.4 179.2 176.3 173.9 172.5 172.4 173.7 175.1 174.3 171.9 167.8 166 165 162.9 159.5 153.2 149.4 148.8 149.3 150.8 149.6 146.3 144.2 141.5 140.5 139.2 135.7 135.7 135.7 135.7 135.7 135.7 135.7 139 138.6 138 137.2 139.7 145.7 151.2 153.8 154.6 155.2 156.3 157.8 159.4 159.3 159.4 160.3 160.4 160.6 160.9 161.1 161.8 162.6 163.1 163.4 163.4 163.3 163.2 163 162.8 162.4 162.1 161.7 161.3 160.6 160 159.3 158.7 158.3 158.2 157.7 157.2 157.5 154.3 154.8 155.1 157.2 158.3 156.7 156.1 156.9 156 150.6 143.9 134.9 132 131.1 130.4 129.6 126.8 123.4 123.9 125.1 127 128.8 130.4 131 130 128.4 124.8 120.7 117.8 115.3 112.9 110.4 106.7 107.2 108.7 107.1 105.5 105.1 105.7 104.8 100.8 98.3 97.7 96.9 98.8 100.2 98.6 94.6 88.8 83.4 77.7 72.1 68.8 68.3 69 75.7 78.8 77.3 73.7 68.3 64 67.4 72.8 69 61.3 58 58 58 58.7 62.7 67.1 69.8 69 65.6 63.1 60.7 58.7 54.3 47.7 42.3 35.3 34.8 39.9 41.3 41.1 40.8 40.6 40.5 40.4 42 43.2 43.4 43.9 47.5 45.8 44.7 45.1 47.6 49.2 50.8 55.9 58.1 59.1 59.8 60.2 60.7 62.1 62.7 65.1 66.7 67.5 68.4 69.5 69.8 70.7 71.1 71.8 72.4 75.5 77.4 77.8 77.5 77.3 76.3
179.7 179.3 177.4 177 174.8 173.5 173.4 172.1 170.1 168.6 166.1 164.7 164.5 163.7 161.2 158 155.9 150.7 149.9 150.9 148.6 145.2 142.5 140.5 138.5 136 135.7 135.7 135.7 135.7 135.7 135.7 135.7 135.7 137.2 135.7 135.7 136.2 140.9 146.5 153 154.3 154.8 155.7 156.7 157.6 158.7 161 159.6 159.8 160.3 160.5 161.1 161.7 162.2 162.6 163.1 163.5 163.6 163.5 163.8 163.7 163.8 163.4 162.7 162.4 161.7 161.1 160.5 160.2 158.9 158.4 157.8 157.2 157.2 157.3 156.7 154.3 155 158.6 158.6 156.5 156.5 156.7 158.2 154.8 148.4 143.6 137.3 132.3 131.1 129.7 126.9 123.7 124.6 125.9 127.3 128.3 129.6 129.8 129.6 128.6 126.6 123.2 120 116.9 114.6 113.6 115 115.8 115.6 110.7 107.1 106.6 108.8 109 104.2 104.1 103.2 101.4 100.9 100.6 98.4 97.3 90 84.3 79.6 74.2 70.5 70.2 71.1 79 82.9 81.4 77.5 71 66.9 66.2 68.1 70.7 67.2 60.7 58.3 58 58 58.9 63.6 67.3 67.9 66.7 65.6 64.7 62.8 60.4 54.7 49.8 45.8 40.2 35.1 34.8 37.7 39 39.1 39.9 38.6 40.1 40.7 41.7 41.8 42.2 45.8 43.9 43.3 45.2 47.3 50.2 52.7 55.1 54.7 56.7 57.1 58.1 58.7 59.9 60.9 63.2 66.2 69.8 71.1 71.7 71.8 71.8 72.5 72.9 75 76.2 77.1 77.8 77.8 76.3
172.6 173 173.8 172.5 172.6 174.2 172.7 171.1 167 165.1 163.9 164.7 164.3 163.3 159.7 157.5 155.3 152.6 153 151.9 148.2 144.9 142.1 140.7 138.2 136.7 135.7 135.7 135.7 135.7 135.7 135.7 135.7 135.7 136.2 135.7 135.7 138.9 145.3 150.3 152.9 153.8 155 155.7 156.6 157.2 158.2 158.9 158.2 158.6 159.1 159.2 159.6 160.5 161.7 162.4 163 163.4 163.4 163.4 165.6 164.7 164 164.8 164.2 163.1 162.2 161.6 161.3 161 159.6 158.2 157.3 156.9 156.9 157 156.5 155.6 155.7 157 156.3 155.6 155.7 155.9 156.1 156.2 153.5 148.5 143.1 136.2 132.7 130.3 126.9 124.4 125.9 126.8 127.7 128.5 129 128.9 128.5 128.2 127.7 125.8 122.6 119.5 117.9 117.6 118.9 120.4 120.3 115.1 109.3 108.6 109.3 110.8 108.9 106.9 105 103.5 101.5 100.1 98.9 96.8 90.4 85.8 80.3 76.9 76.1 75.2 77.9 81.9 83.8 82.6 78.4 73.6 68.8 67.5 65.8 69.2 71.9 69 59.2 58 58 61.8 64.8 66.6 66.1 65.4 67 68 66.2 63.7 59.7 55.9 52.8 48.7 45.3 41.8 36.6 34.8 34.8 34.8 34.8 35 37.9 41 41.3 41.5 42.7 42.7 43.1 41 44 46.3 48.6 52.1 62.2 59.4 55.4 55.8 56.2 57.3 58.3 59.3 60.6 64.3 69.6 71.6 71.4 71.7 72.7 73 73.4 75.1 76.4 77 76.9 76.3
167.1 167.6 166.1 165.5 165.4 163.9 163.6 161.2 159.6 158.2 162.8 167.8 167.1 165.8 163.2 161.6 157 154.5 155.8 157 154.6 148 145.7 142.1 139.2 137.5 136.5 135.7 135.7 135.7 135.7 135.7 135.7 135.7 135.7 135.7 135.7 137.4 145.4 150.9 153 154 154.7 155.4 155.9 156.8 158 157.5 157.1 157.5 157.9 158 158.2 159.5 160.8 161.8 163.1 162.9 162.7 163.5 162.6 161.2 161.7 163 165.9 164 163.5 162.7 162.1 161.5 160.3 159.1 158 157 156.6 156.7 156.2 156 155.4 155.6 155.6 155.2 155.1 155.3 154.6 154.2 153.8 150.1 145.6 139.9 135.8 132.9 129.4 127.2 127.3 128.1 128.6 128.9 129.3 129 128.6 128.4 127.9 126.6 124 121.4 119.8 119.7 119.8 120.3 120.8 116.8 113 112.3 112.6 112.8 112 108.7 105.5 103.9 102.1 100.6 98.8 93.3 88.8 86.3 84.4 84.4 83 81 82.3 84.3 83.3 80.5 76.5 72 72.5 68.9 66.6 66.1 68.3 72 63.6 59.6 62.6 68.3 67.1 66.2 64.8 63.9 66.4 68.6 69.3 67.2 64 61 58.4 55.5 52.6 49.1 45.6 43.3 41.6 40.2 39.3 38.1 34.6 37.4 40.6 41.6 41.4 41 39.9 39.3 41 42.5 43.8 49.9 55.2 57.4 52.8 53 53.4 54.8 56.1 56.9 57.8 59.1 64.8 69 69.1 69.4 70.1 72.1 72.7 73.7 73.4 75.2 76.6 76.3
162.9 160.7 158.1 158.8 156.3 151.2 152.3 151.7 151.4 152.1 161.4 165.7 166.3 164.3 163.5 159.9 154.7 151.1 152.1 153.4 152 148.8 145 143 140.6 138.9 135.7 135.7 135.7 135.7 135.7 135.7 135.7 135.7 135.7 135.7 135.7 135.7 142 147.3 150.4 153.5 154.3 154.7 155.2 156.2 156.4 156.3 156.1 156.2 156.2 156.1 156.6 158.2 159.9 162.4 163.4 163 161.9 163.5 161.5 160.2 160.7 161.8 163.3 163.5 163.5 163.2 163.3 162.5 161.1 160 159 157.9 157.3 157 157.1 156.4 155.6 155.1 154.6 154.4 154.4 153.7 152.9 152.3 151.3 149.2 145.9 141.5 137.8 134.4 131.6 129.8 129.3 129.5 129.4 129.3 129.4 129.1 128.8 128.6 128.1 127 124.9 122.6 121.2 121.2 120.7 119.7 118.5 117.4 116.8 116.7 115.4 113.8 112.4 109.1 107.1 106.7 105.1 102.9 99.3 95.4 90.5 87.3 86.6 85.9 84.9 85.1 86.3 89.4 87.3 81.9 75.8 75.5 74.4 71 68.8 67 66.2 68.7 67 64.5 70.6 74.1 69.7 66.6 62.8 62.8 64.5 67.2 68.7 67.9 66.5 64.8 63.5 61.3 59.6 55.5 50.4 48 45.7 43.3 41.9 40.7 37.8 33.9 37 39.8 41 40.9 40.4 38.5 37.6 39.1 40.5 42.5 47.3 51.7 49.8 49.6 50.9 52.7 53.9 55 55.7 56.6 59.6 62.4 63.8 64.1 65.6 68.4 70.4 72.1 73 72.5 73 74.1
158.3 155.2 151.9 150.8 146.6 142.2 137.7 144 147.9 151.6 157.9 162.6 160.7 161.8 158.5 155.8 147 145.4 143.4 143.3 144.2 144.1 143.1 142 140.7 139.3 136.3 135.7 135.7 135.7 135.7 135.7 135.7 135.7 135.7 135.7 135.7 135.7 138.9 141.7 144.8 149 152 153.4 153.8 154.4 154.3 154.1 154.2 154.6 154.5 154.3 155 156.6 158.8 163.9 165.8 162.2 160.9 159.7 160.7 159.5 159.8 160.7 162.6 162.9 162.8 162.8 163.4 162.8 161.9 160.5 159.5 158.4 157.8 157.8 157.3 156.6 155.9 155.1 154.2 153.3 153.1 152.5 151.5 150.6 149.3 147.5 144.5 141.1 137.7 135.1 132.8 131.2 130.7 130.3 130.2 129.9 129.6 129.5 129.3 129.2 128.8 127.9 126.2 124.1 122.7 122.4 122.1 120.8 118.9 117.9 117.7 119.1 117.4 115.3 113.6 111.2 109.5 109.3 107.9 106.4 104.5 101.2 96 89.8 87.4 87.4 87 87 87.9 90.3 87.7 82 81.2 82.1 77.7 74.2 72.4 68.9 67.3 67.6 69.7 70 72 74.2 71.5 67 62.8 62.8 62.8 65.7 68.5 68.3 67.4 67.1 66.5 65.5 65.3 60.7 53.9 50.4 47.8 45.4 43.9 42.9 42.3 39.3 33.2 33.2 38.2 38.9 39.6 37.4 36.3 36.9 38.2 40.1 43.7 47.4 49 49.9 50.1 49.2 49.7 51.8 52.8 53.7 54.7 55.6 56.1 57.8 59.3 62.6 64.9 66.5 67.9 69.4 70.5 71.1
155.9 152.8 148.8 144.4 138.3 132.1 130 139.8 148 149.9 156.4 154.8 155.4 152.6 150.5 143 139.9 138.1 134.7 134.5 138.5 141.4 141.7 139.7 139.2 140.1 138.7 138.2 137.7 135.7 135.7 135.7 135.7 135.7 135.7 135.7 135.7 135.7 135.7 135.7 140.1 143.2 145.9 147.9 149.8 151.6 151.7 151.7 152 152.3 152.3 152.2 152.5 154.2 156.1 162.7 163.8 160.9 159.7 158.2 158.6 158.4 158.7 159.2 161.2 162.1 162.2 162.5 162.8 162.5 161.8 160.9 159.9 158.7 157.7 157.5 157.3 156.7 156.1 155.3 153.8 153 151.7 151.3 150.3 149.3 148.4 146.7 144.2 141.5 138.3 135.7 133.7 131.9 131.3 130.9 130.6 130.1 129.7 129.7 129.8 130 129.6 128.9 127.4 125.8 124.7 124.2 123.9 122.9 120.2 118.2 117.4 117.9 117.3 115.2 113.7 112.8 112.3 111.8 110.8 112.5 112.8 109.6 103.5 96.7 91.5 89.9 88.9 88.3 87.4 86.7 85.6 80.6 85.2 85.2 81.3 80.1 76.1 71.2 68 70.1 73.1 72.1 69.5 68.6 70.5 68.3 65.4 64.3 66.2 69 70.8 69.4 68.3 68.6 69 68.5 68.6 62.7 55.2 52.4 50 47.6 45.6 46.1 46.5 45.4 41.5 36.9 33.2 33.2 33 35.1 35 35.2 35.8 37.8 42.4 46.2 49.3 51.6 52 51.6 50.8 49.9 49.6 49.5 50.6 51.8 52.4 52.8 53.1 53.1 56.3 58.6 60 62.6 64.7 66.3
155.7 151.9 148 143.4 136.2 130 128.4 135.2 144.4 148 147.2 149 147.6 143.5 139.4 134.1 133.1 129.7 127.5 131.3 138.6 143.4 145.1 143.3 141.9 143.7 142.1 139 135.7 135.7 135.7 135.7 135.7 135.7 135.7 135.8 136.7 135.7 135.7 138.7 140 140 140.3 142 143.9 145.9 147.8 149 149 149.9 150 149.8 150.2 152 154.1 156.2 162.4 160.4 157.7 157.2 157.4 157.7 158.1 158.7 159.7 160.5 160.9 161.8 161.7 161.5 161.4 160.6 159.8 158.7 157.6 157.3 157.1 156.8 156.2 155.7 154.3 154.6 152.3 150 149.1 148.6 148 146.5 144.1 141.6 139.4 136.7 134.3 132.6 132.1 131.3 130.8 130.2 129.7 129.5 129.6 130.1 130.1 129.6 128.3 127.3 126.2 126.1 126 126.2 123.6 118.9 118 117.2 117.1 116.7 115.9 114.8 114.7 113.8 112.4 113.9 114.8 112.8 108.6 101.6 95 91.3 90.2 89.5 86.8 84.2 84.4 84.8 86.4 87.8 87 83.9 79.6 73.2 71.5 73.5 73.6 68.9 67.4 66.7 67.6 69.4 70.6 72.4 71 72.8 73.4 68.7 68.1 68.5 68.7 68.5 67.8 63.6 56.8 53 50.9 49 47.4 48.2 49.3 48.9 47.4 44.4 42 39.3 35.9 33.1 32.6 32.6 32.6 34 38.7 43.8 47.2 50.1 51.8 52.2 51.9 51.5 51.4 51 50.2 49.9 49.6 49.8 50.2 50.5 51.3 51.7 52.1 53.3 56 55.3
154.6 150.2 146.4 140.1 133 128.5 127.3 131.9 140.3 138.2 139.1 140 136.5 133.9 128.8 128.3 124.5 121.6 124.5 132.2 139.8 146.5 146.8 145.4 143.1 141.9 141.6 140 138.7 135.7 135.7 135.7 135.7 139.1 139.8 142.8 142.4 141.6 144 143.9 143 142.4 141.1 139.4 139.2 139.8 141.5 143.2 145 146.8 147.3 147.1 147.1 149.5 152.9 153.4 158.6 161.2 157.1 156.3 156.8 157.1 157.7 158.4 159.7 159.8 159.8 160.1 160.4 160.6 160.6 160.1 159.5 158.7 157.6 157.3 156.9 156.5 156.3 156.4 155.9 155.7 153.2 151.1 148.4 147.8 147.4 146.2 144 141.4 139.1 137 134.8 133.1 132.1 131.3 131.3 130.2 129.2 129 129.3 129.6 129.6 129.3 128.5 127.9 127.1 126.8 126.2 125.8 124.3 120.8 118.3 117.3 116.4 117.2 117.1 116.4 115.5 113.6 112.6 112.2 112.6 111.1 107.2 102.3 96.5 92.2 89.4 87.3 85.3 85 85.4 86.1 86.7 88 88.7 87.4 82.4 75.5 74.5 77 76.7 70.2 67.6 67.2 67.9 72.2 73.5 74 75.3 75.8 72.2 66.7 65.9 67.2 67.6 67.3 68.1 66.4 59.8 53.2 50.4 49.3 49.3 50.1 51 50.8 50.3 49 45.9 42.8 39.8 38.2 36.7 36.4 36.2 34.7 32.6 38.1 43.2 47 49.6 50.4 50.8 50.8 50.7 50.3 49.1 47.8 46.9 46.6 46.9 47.9 49.2 49.7 50.6 52.2 53 52.5
154.1 150.8 146.7 142 136.1 128.9 126.2 126.5 130.2 130 132.9 130.8 129.3 124.8 122.9 118.8 118 119.7 126.3 134.1 138.8 144.5 145.9 144.9 141.3 139.9 138 137.6 138.9 135.7 135.7 142.9 143.9 141 141.2 143.4 143.2 148.5 149.8 146 145.5 145.2 143.7 142.6 140.7 139 137.6 137.7 139 140.4 141.7 142.9 143.9 145.6 147.6 149.1 153.3 159 157.9 156.1 157.2 157.5 158.4 159.6 160 160.2 159.5 159.9 159.7 159.8 159.7 159.2 158.7 158.2 157.6 157 156.5 156 156 156.6 158.1 158.1 156.5 153.2 148.9 147.6 146.9 146.2 144.1 141 138.9 137 134.8 133.1 132.1 131.3 131 129.6 128.6 128.6 128.8 128.9 128.9 128.7 128.6 128.1 127.3 126.5 125.9 125.4 124.4 123.3 121.4 118.7 117.8 116.3 115.5 114.9 113.7 113.2 112.5 112.1 112.6 112.6 111.4 108.3 102.2 95.8 89.5 87.2 85.9 85.1 86.5 88.7 89.5 87.9 87.9 87 84.3 80.1 78.2 76.7 76.9 72.7 69.4 68.1 69 72.5 73.4 75.5 78 78.3 72.8 67.3 65.2 66.9 67.8 67.9 70.2 69.2 64 56.6 50.7 49 50.8 53.7 55.5 54.4 53.1 50.7 47.3 45.6 43 41.1 40.4 40.4 39.4 38.3 36.8 32.6 38.4 43.5 47.2 48.2 48 47.6 47.5 47.6 46.5 45.4 44.2 43.6 43.8 45.1 46.8 47.8 48.7 51.1 53.5 55.6
154.3 150 146.2 143.1 138.4 132.4 126.7 124.4 124.3 125 125.7 125.6 121.9 119.1 117.7 115.5 117.9 124.2 131.8 134.9 136 141.4 143.8 143.8 140.6 138.9 135.4 139.8 142.1 139.8 139.3 141.7 141.8 142.1 142.9 144.9 149 151.4 149 147.8 149.2 148.4 146.8 145 143.2 141.5 139.5 138.2 136.7 136.4 136.8 137.5 138.4 139.4 142.5 145.5 149.1 152.4 151.8 153.6 156.3 157.7 158.4 159.8 160.6 159.7 158.7 158.6 158.9 159 158.8 158.4 157.8 157.2 156.5 155.8 154.8 154.6 155.4 156.7 159.1 157.2 155.4 154.3 150.4 148.4 147.8 146.7 143.9 140.5 138.6 136.7 134.9 133.3 132.1 131.3 131 129.4 127.7 127.6 128 128.1 128.3 128.3 128.4 127.9 127.3 126.4 126 125.5 125.2 126.3 126.9 124.8 122.5 119.9 116.5 115.5 115.2 114.5 113.9 113.5 114.1 114.4 113.8 111.6 105.9 98.2 91.9 90 90 87.8 88.4 90.5 91.9 89.5 88.1 86.3 85 82.6 78.4 75 72.8 72.2 71.6 71.7 72.8 75.8 74.1 75.4 78.4 78.8 75.1 70.8 69.3 68 68.4 69.1 69.9 70 67.1 60.9 52.5 50.2 53 58.1 60.6 58.5 56 51.1 48.3 47.7 45.9 43.1 41.7 41.5 41.9 42 40.4 36.2 32.2 41 44.9 45.8 45.3 44.5 44.4 44.5 44 43 41.4 39.8 39.2 40.5 43.5 45.1 46.4 48.3 49.9 50.9
150.1 146.8 142.8 139 135.5 132.7 128.8 127.4 125.7 124 122 120.2 116.7 116.5 116.2 114.8 120.9 127.2 131.3 132.8 133 137.4 140.8 140.4 137.9 135.4 134.1 136.8 139.2 141.3 141.9 141.6 144.4 145.1 144.5 146.3 150.3 151.1 149.7 150.4 151.8 150.5 148.7 146.8 145.2 143.4 141.6 140.3 138.7 137.2 136 135.6 135 134.3 134.4 138.7 144.1 146.7 146.8 148.1 153.4 154.2 155.4 156.8 158.5 157.3 157.7 158 158.1 158.5 158.2 157.4 156.8 156.2 155.4 154.5 153.2 152.9 153.7 154.9 157.1 156.1 154.8 154.1 151.7 149.7 148.8 147.9 144.7 139.8 138.2 136.6 135.1 134.7 133.5 132.4 131.9 131.3 129.3 127.9 127.4 126 126.4 127 127.5 127.7 127.9 127.5 127 126.2 125.4 124.9 125 125.3 123.4 120.8 117.9 117 117.4 116.7 115.8 115.2 115.7 115.8 115 112.4 107.3 100.1 94.6 95.7 97.7 97.7 94.6 93.3 93.3 93.1 91.8 90.1 89 88.6 83 78.5 75.1 73 73.1 75.2 77.4 77.6 75.6 76.9 79.3 79.6 77.5 74.5 72.8 70.7 68.7 69.8 70.6 70.8 68 61.6 56.3 52.5 53 59.5 62.2 61.4 58 53 49.6 48.6 47.9 45.6 43.4 42.3 43.5 46.7 44.7 40.1 32.2 37.8 42.1 42.8 42.6 41.9 41.7 41.6 41.5 39.9 37.5 34.9 32.9 32.4 37 41.3 43.4 45.2 46 46.8
145.3 141.3 137.1 133.5 131.8 130.2 128.3 126.9 126.5 126.7 122.5 116.8 114.5 113.7 115.2 114.1 119.9 124.5 126.9 127.7 129.8 134.6 137.8 138.5 135.9 133.3 130.8 133.4 135.5 139 142.1 144.1 147.8 147.6 148.3 148.6 151.1 152 151 151.7 152.5 150.5 149.1 147.9 146.3 144.7 143.1 141.9 140.8 139.2 137.9 136.6 135 133.9 133.1 133.3 138.3 142.8 144.1 143.9 147.8 150.1 151 152.5 154 154.3 155.9 156.6 157.8 158.3 157.8 156.7 155.9 154.9 153.9 152.5 151.5 151.8 152.3 152.7 154.2 153.8 153.9 154.4 152.1 150.1 149.6 149.4 147.8 143.3 139.4 138.2 137 135.8 134.2 133.3 132.9 132.5 131.4 130.2 128.5 125.3 124.1 124.8 125.8 127.5 128.7 129.5 130 129.9 128.6 125.7 122.4 121.8 120.6 119.2 117.3 117 117 116.6 115.1 114.5 114.4 114.2 114 111.6 106.8 101.5 98.4 99.5 101.3 102.2 101.5 98.7 97.6 95.8 96.8 95.7 95.5 93 87.4 83.1 80.7 76.3 75.3 76.2 79.7 78.9 76.3 76.5 78.6 79.1 79 75.3 71.4 69.8 69.6 70.9 71.5 71.1 68.1 63.1 59.6 56.8 52.3 59.7 63.4 63.7 61.4 60.1 54.4 51.2 48.7 47.8 45.3 43.4 46.3 49.1 48.2 43.2 36.3 32.1 38 39.7 39.5 39.2 39.3 38.8 37.7 35.6 30.6 28.7 28.7 28.7 28.5 32.9 38.4 42.2 44.1 44.6
137.5 133.5 129.7 130.4 128.9 126.8 122.8 123 124 122.6 119.4 115.1 113.4 111.7 110.9 110.7 116.5 121.5 123.3 127.3 132 135.8 137.5 136.4 134 131.6 128.6 131.4 134.2 138.6 142.4 144.5 145.7 147.3 149.9 150.1 150.3 152.2 152.3 152.2 152.4 151.4 150.1 148.8 147.4 145.8 144 142 141.2 140.9 139.8 139.4 137.7 135.6 133.9 133.3 133.8 136 140.8 141.3 143 145 147.2 149 150.6 151.9 153.1 155.6 157.6 158.1 157.1 155.9 155.1 154.2 152.5 150.9 150.1 150.3 150.5 150.2 151.4 151.7 150.9 151.4 150.8 149.4 148.4 148.3 148.2 146.5 143.1 141.6 139.8 136.5 135.2 134.5 133.3 132.5 131.8 131.3 130.6 128.3 125 123.1 123.4 125.3 127.2 128.9 129.8 130.7 130.3 128.7 124.7 120.2 119.2 117.9 117 116 115 114.5 113.3 112.6 112.1 111.2 110.4 109.1 105 101.3 101.2 101.9 102.8 103.2 104.1 102.1 100.9 98.8 98.2 99.2 99.2 97.6 91.9 87.9 87.7 83.1 79.2 81.6 82.9 82.5 80.9 77.4 77.5 77.2 76.1 73.2 70.9 70.1 72.4 72.8 71.2 69.1 67.4 65.5 63.1 59.1 52.9 57 59.8 60.5 62.2 62.3 57.5 53.7 50.3 48.6 46 45.3 49.8 50.3 49.6 45.6 39.6 34.7 31.8 36 35.3 36.1 36 34.8 32.9 29.6 32 34.9 35.7 35 31.9 28.2 32.2 38.3 42.7 42.9
127 120 121.5 122.7 123.6 117.7 116.9 118.9 117.6 117.1 115.9 113.7 111.1 109.8 108 110 116.3 118.8 122.3 127.6 132.7 136.9 138.4 137.8 133.9 131.1 129.1 129.7 134.5 138.4 141.3 142.2 142.7 144.7 146.9 147.8 148.3 150.1 151.2 151.7 152.2 152.2 151 149.8 148.5 146.5 144.2 141.8 140.8 141.1 141.4 141.6 141.1 140 141.5 135.9 134.4 134 135.7 137.8 140.9 142.5 143.5 144.7 146.2 148.6 151.1 153.2 155.6 155.9 155.5 154.7 154 153.6 151.9 150.4 149.2 148.7 148.5 148.2 148.9 149.2 149.9 150.7 147.3 146.6 146.3 145.9 146.1 145.4 143.6 143.2 142.5 141.5 139 136.8 133.3 132.1 130.8 129.9 129.3 128 124.7 122.6 122.5 124 125.9 127.5 129.1 130.1 130.5 129.4 126.3 122.2 119.7 120.7 119.1 117.6 117.4 114.7 112.9 111.3 110.2 109.4 108.2 106.6 103.7 101.5 102.2 103.2 105.6 106.2 106.7 106.1 104.7 103.9 100.8 99.9 102.6 101.9 97.5 91.7 91.4 88.8 83.8 86 86.1 85.3 85.2 80 76.5 76.5 74.9 73.9 72.2 70.3 72.8 72.6 70.6 68.3 68 66.8 63.1 60.2 57.4 55.5 55 56.4 59.1 62.4 59.9 56 52 50.4 47.2 47.7 50.2 50.6 49.4 47.3 44.6 40.5 34.6 31.6 31.2 31 30.9 30.6 31.4 42.8 43.7 42.4 39.7 37.6 35.8 30.5 28.1 36.2 40.1 40
108.4 109 113.4 114 113.1 114 116.4 117.3 116.6 114.9 114.3 113 109.6 107.4 107 111.6 116.1 117.1 122.5 128.4 133 136.2 137.9 138.1 134.7 131.2 129.5 128.4 132.8 135.5 137.2 138.5 139.4 141.9 143.9 145.4 145.9 147.6 148.9 149.9 151.1 151.1 150.7 150.2 149.1 147.5 145.1 143.1 141.4 140.3 139.9 139.8 139.1 137.8 137.6 137.2 135.2 134.4 133.7 133.9 135.2 139.6 142 142.2 142.7 143.9 145.9 149.3 150.3 150.4 150.6 151.8 153.4 152.9 151.4 149.9 148.6 147.9 146.6 146 146.2 147 147.6 149.3 147 145.8 144.6 143.9 143.6 143 141.9 141.2 141.1 140.6 139.7 138.9 136.9 133.7 130.2 128.5 127.7 125.7 123.5 122 122 123.4 124.8 125.8 127 128.3 128.7 129 127.7 124.2 121.1 122.9 121.5 121.4 121 119.8 117.1 114.4 111.6 109.5 107.6 105.6 104 102.1 101.7 102.9 105.8 107.6 108.6 108.5 107.7 106.9 106 103 102.3 102.3 99.3 95.8 95.3 94.8 89.7 88.5 87.2 87.4 85.7 81.8 79.1 76.6 74.7 73.5 74 72.7 72.6 73.3 71.2 69.7 68.2 65.8 62.1 60.1 59.1 56.7 56 54.4 57.8 59.7 57.9 56.7 55.6 53.3 50.5 50.8 49.9 52.3 51.1 49.3 49.7 47.3 44.1 40.8 38.5 37.8 36.7 36.7 44.3 52.7 50.3 47.8 45.2 41.7 37.3 34.1 28 31 36.8 37.3
101.2 100.1 104.1 109 113.2 116.4 117.8 116.7 115.1 112.3 111.9 111.3 109.1 106.2 108.5 112.3 114.2 116.7 122.6 128.5 133 135.9 137.2 137.4 135.2 130.1 127.5 127.1 129.5 131.7 132.9 134.4 135.6 137.6 139.9 141.7 143.5 144.6 145.7 146.8 148.2 148.6 148.8 148.4 147.9 147.2 145.7 145.1 143.7 142.3 140.1 137.6 135.6 134.9 134.2 133.6 133.8 132.3 130.8 130.9 131 132.5 134.6 137.7 139.8 139.6 140.2 142.3 144.3 145.4 146 148.6 151 152 150.8 149.2 147.7 146.9 146.2 145 145.3 144.9 145.9 147.9 145.3 144.3 143.9 143.1 142.1 141.4 140.6 140 139.4 138.9 138.1 136.7 136.4 135.4 133.5 129.1 127.7 126 123.8 122.2 121.5 122.7 123.9 125.1 126.1 126.2 125.1 124.3 123.7 122.5 119.2 120.8 121.9 120.6 120.1 119.4 118.2 116.6 114 111.6 109 107.2 106.3 104.3 103 103.3 104.4 105.7 106.7 107.1 107.3 108 108.2 104.8 103.1 100.9 98.3 98.5 98.2 96.3 95.4 91.9 90.5 90.7 89.9 88.3 84.7 81 79.4 78.5 77.4 76.4 74.9 74.9 72.8 69.8 67.3 65.4 62.8 60.5 58 58.4 59 58.8 60.5 60.3 58.7 55 54.9 55.1 52.8 52.5 51 53.5 54.9 52.9 51.3 50.2 49.6 47.8 48.5 51.5 47.5 38.4 41.8 51.3 55 52.6 51.1 50.5 44 37.5 32.5 27.6 31.3 31.9
93.4 95 102.4 111.9 114.4 115.1 115.1 113.4 111.7 109.5 108.5 108.5 106.9 105 108.8 112.3 113.6 116.7 123.2 128.7 132.4 134.2 135.4 134.8 133.6 131.2 127 122.5 127.2 127.8 128.5 130.6 132.8 135 136.4 137.9 139.5 141 142.2 143.5 144.7 145.8 146.1 146.1 145.9 145.5 145.1 145 144.4 143.4 141.7 138.7 135.1 134 132.1 130.9 131 130.1 128.4 127.1 128.9 128 127.1 127.8 130 133.8 136.4 136.8 138.4 140.7 142.4 144.6 146.4 147.5 148.3 147.7 146.9 145.9 145.7 144.9 144.5 144.2 144 144.6 143.5 142.6 142.5 141.9 141 140.5 139.8 139.2 138.8 138.1 137.4 136.5 135.1 133.5 131.8 129.2 127.9 126.1 124.2 122.8 121.4 122.3 123.3 124.5 125.5 126.6 126.6 125.6 123.3 120.7 118 117.1 118.2 118.6 120 120 118.5 117.7 116.7 115.5 112.5 108.8 107.3 105.6 104.1 103.9 104 104.9 105.6 106.2 107.3 108.1 108.7 109.3 105.7 101.5 99.6 100 98.7 98.5 97.4 94.9 93.6 93.5 93.5 91.5 88.9 87.2 86.4 83.1 79.9 77.5 75.4 75 73.4 69.9 66.2 64.6 63.3 61.2 59.1 59.3 60.4 61.2 61.9 62.2 61.1 57.3 54.7 55.3 53.9 53 52 54.3 56.9 56.6 54.8 53.3 52.1 50.9 51.3 50.7 50.8 40.5 40.2 45.6 52.1 53.5 53.8 52.9 50.1 46.5 42.7 38.2 27 26.9
86.9 95 100.9 107.2 110.9 111.2 110.1 107.7 107.1 104.6 104.1 104.3 101.3 103.8 109.3 113.4 115.6 118.4 122.2 125.5 127.5 129.1 129.6 129.6 129.1 127.3 124.6 121.7 124.9 124.9 125.6 128.1 130.5 131.5 132.1 133.7 135.4 137.1 138.3 139.1 140.1 141 141.9 142.4 142.9 142.8 143.2 143.3 144.1 143.8 142 139.9 136.5 133.7 130.7 127.8 126.8 125.8 124.1 123.5 125.4 125.1 125.2 126.7 126.5 125.3 126.9 130.4 134.5 137.9 138.8 139 140.4 141.8 142.7 144.6 145 144.3 144.7 143.3 143.6 143.2 143 142.5 141.5 141 141.5 141 140 139.7 138.9 138.6 138.2 137.8 137.2 136.7 135.4 132.5 131 128.2 126.9 125.9 124.5 123.1 122.1 121 121.1 121.7 122.4 123.4 123.9 123.4 122.3 120.3 117.7 117.2 116.7 116.8 118.1 119.4 118.2 119 119.7 119.4 118.1 113.9 109.6 106.6 104.8 104.3 104.6 104.8 105.3 106 107 108.2 108.9 109.6 109.3 105.5 103.2 104.3 102.8 100.8 98.6 94.8 94.1 94.1 94.1 93.9 92.5 92 89.3 84.4 79.7 76.7 75.1 74.6 73.4 70.2 65.8 64.2 63.3 62 60.4 60.5 61.3 62.3 62.8 62.8 62 59.6 57.1 55.2 54.5 54.3 54.2 54.2 57.8 58.3 57.8 56.3 54.4 53.3 52.6 52.2 50.6 44.9 40.3 42.9 45.7 48.2 51.2 53 54.3 52.7 50 43.5 40.2 42.6
