ncols 200
nrows 98
xllcorner 220000
yllcorner 380150
cellsize 50
-1.7 -1.7 -1.7 -1.7 -1.7 -1.7 -1.7 -1.7 -1.7 -1.7 -1.7 -1.7 -1.7 -1.7 -1.7 -1.7 -1.7 -1.7 -1.7 -1.7 -1.7 -1.7 -1.7 -1.7 -1.7 -1.7 -1.7 -1.7 -1.7 -1.7 -1.7 -1.7 -1.7 -1.7 -1.7 -1.7 -1.7 -1.7 -1.7 -1.7 -1.7 -1.7 -1.7 -1.7 -1.7 -1.7 -1.7 -1.7 -1.7 -1.7 -1.7 -1.7 -1.7 -1.7 -1.7 -1.7 -1.7 -1.7 -1.7 -1.7 -1.7 -1.7 -1.7 -1.7 -1.7 -1.7 -1.7 -1.7 -1.7 -1.7 -1.7 -1.7 -1.7 -1.7 -1.7 -1.7 -1.7 -1.7 -1.7 -1.7 -1.7 -1.7 -1.7 -1.7 -1.7 -1.7 -1.7 -1.7 -1.7 -1.7 -1.7 -1.7 -1.7 -1.7 -1.7 -1.7 -1.7 -1.7 -1.7 -1.7 -1.7 -1.7 -1.7 -1.7 -1.7 -1.7 -1.7 -1.7 -1.7 -1.7 -1.7 -1.7 -1.7 -1.7 -1.7 -1.7 -1.7 -1.7 -1.7 -1.7 -1.7 -1.7 -1.7 -1.7 -1.7 -1.7 -1.7 -1.7 -1.7 -1.7 -1.7 -1.7 -1.7 -1.7 -1.7 -1.7 -1.7 -1.7 -1.7 -1.7 -1.7 -1.7 -1.7 -1.7 -1.7 -1.7 -1.7 -1.7 -1.7 -1.7 -1.7 -1.7 -1.7 -1.7 -1.7 -1.7 -1.7 -1.7 -1.7 -1.7 -1.7 -1.7 -1.7 -1.7 2 -1.7 -1.7 -1.7 -1.7 -1.7 -1.7 -0.3 -0.3 0.3 0.8 1.3 2.3 7.4 8.3 12.5 17.9 20.9 18.3 14.9 10.8 6.9 4.2 6.8 9.8 12.1 15.1 17.7 20.5 23.6 25.1 20.8 16.1 12.5 8.9 7.7
-1.7 -1.7 -1.7 -1.7 -1.7 -1.7 -1.7 -1.7 -1.7 -1.7 -1.7 -1.7 -1.7 -1.7 -1.7 -1.7 -1.7 -1.7 -1.7 -1.7 -1.7 -1.7 -1.7 -1.7 -1.7 -1.7 -1.7 -1.7 -1.7 -1.7 -1.7 -1.7 -1.7 -1.7 -1.7 -1.7 -1.7 -1.7 -1.7 -1.7 -1.7 -1.7 -1.7 -1.7 -1.7 -1.7 -1.7 -1.7 -1.7 -1.7 -1.7 -1.7 -1.7 -1.7 -1.7 -1.7 -1.7 -1.7 -1.7 -1.7 -1.7 -1.7 -1.7 -1.7 -1.7 -1.7 -1.7 -1.7 -1.7 -1.7 -1.7 -1.7 -1.7 -1.7 -1.7 -1.7 -1.7 -1.7 -1.7 -1.7 -1.7 -1.7 -1.7 -1.7 -1.7 -1.7 -1.7 -1.7 -1.7 -1.7 -1.7 -1.7 -1.7 -1.7 -1.7 -1.7 -1.7 -1.7 -1.7 -1.7 -1.7 -1.7 -1.7 -1.7 -1.7 -1.7 -1.7 -1.7 -1.7 -1.7 -1.7 -1.7 -1.7 -1.7 -1.7 -1.7 -1.7 -1.7 -1.7 -1.7 -1.7 -1.7 -1.7 -1.7 -1.7 -1.7 -1.7 -1.7 -1.7 -1.7 -1.7 -1.7 -1.7 -1.7 -1.7 -1.7 -1.7 -1.7 -1.7 -1.7 -1.7 -1.7 -1.7 -1.7 -1.7 -1.7 -1.7 -1.7 -1.7 -1.7 -1.7 -1.7 -1.7 -1.7 -1.7 -1.7 -1.7 -1.7 -1.7 -1.7 -1.7 -1.7 -1.7 -0.2 1.9 6.4 -1.7 -1.7 -1.7 -1.7 1.6 1.1 1 0.9 1.4 2.2 7.3 5.2 8.2 12.7 17.8 17.5 14.8 11.6 8.1 5 5.7 8 11.6 14.5 17.7 21.2 24.3 27.2 27.1 21.7 16.6 12.8 9.4 6.7
-1.7 -1.7 -1.7 -1.7 -1.7 -1.7 -1.7 -1.7 -1.7 -1.7 -1.7 -1.7 -1.7 -1.7 -1.7 -1.7 -1.7 -1.7 -1.7 -1.7 -1.7 -1.7 -1.7 -1.7 -1.7 -1.7 -1.7 -1.7 -1.7 -1.7 -1.7 -1.7 -1.7 -1.7 -1.7 -1.7 -1.7 -1.7 -1.7 -1.7 -1.7 -1.7 -1.7 -1.7 -1.7 -1.7 -1.7 -1.7 -1.7 -1.7 -1.7 -1.7 -1.7 -1.7 -1.7 -1.7 -1.7 -1.7 -1.7 -1.7 -1.7 -1.7 -1.7 -1.7 -1.7 -1.7 -1.7 -1.7 -1.7 -1.7 -1.7 -1.7 -1.7 -1.7 -1.7 -1.7 -1.7 -1.7 -1.7 -1.7 -1.7 -1.7 -1.7 -1.7 -1.7 -1.7 -1.7 -1.7 -1.7 -1.7 -1.7 -1.7 -1.7 -1.7 -1.7 -1.7 -1.7 -1.7 -1.7 -1.7 -1.7 -1.7 -1.7 -1.7 -1.7 -1.7 -1.7 -1.7 -1.7 -1.7 -1.7 -1.7 -1.7 -1.7 -1.7 -1.7 -1.7 -1.7 -1.7 -1.7 -1.7 -1.7 -1.7 -1.7 -1.7 -1.7 -1.7 -1.7 -1.7 -1.7 -1.7 -1.7 -1.7 -1.7 -1.7 -1.7 -1.7 -1.7 -1.7 -1.7 -1.7 -1.7 -1.7 -1.7 -1.7 -1.7 -1.7 -1.7 -1.7 -1.7 -1.7 -1.7 -1.7 -1.7 -1.7 -1.7 -1.7 -1.7 -1.7 -1.7 -1.7 -1.7 -1.7 1.6 2.6 6.6 6.3 4.1 2 3.3 6.1 7.1 1.9 1.9 2.7 6.5 5.6 5.6 8 12 15.3 14.9 10.7 7.7 4.9 4.7 6.8 8.1 13 16 19.8 23.3 26.3 29.6 26.8 22.8 17.9 13.3 8.6 6.8
-1.7 -1.7 -1.7 -1.7 -1.7 -1.7 -1.7 -1.7 -1.7 -1.7 -1.7 -1.7 -1.7 -1.7 -1.7 -1.7 -1.7 -1.7 -1.7 -1.7 -1.7 -1.7 -1.7 -1.7 -1.7 -1.7 -1.7 -1.7 -1.7 -1.7 -1.7 -1.7 -1.7 -1.7 -1.7 -1.7 -1.7 -1.7 -1.7 -1.7 -1.7 -1.7 -1.7 -1.7 -1.7 -1.7 -1.7 -1.7 -1.7 -1.7 -1.7 -1.7 -1.7 -1.7 -1.7 -1.7 -1.7 -1.7 -1.7 -1.7 -1.7 -1.7 -1.7 -1.7 -1.7 -1.7 -1.7 -1.7 -1.7 -1.7 -1.7 -1.7 -1.7 -1.7 -1.7 -1.7 -1.7 -1.7 -1.7 -1.7 -1.7 -1.7 -1.7 -1.7 -1.7 -1.7 -1.7 -1.7 -1.7 -1.7 -1.7 -1.7 -1.7 -1.7 -1.7 -1.7 -1.7 -1.7 -1.7 -1.7 -1.7 -1.7 -1.7 -1.7 -1.7 -1.7 -1.7 -1.7 -1.7 -1.7 -1.7 -1.7 -1.7 -1.7 -1.7 -1.7 -1.7 -1.7 -1.7 -1.7 -1.7 -1.7 -1.7 -1.7 -1.7 -1.7 -1.7 -1.7 -1.7 -1.7 -1.7 -1.7 -1.7 -1.7 -1.7 -1.7 -1.7 -1.7 -1.7 -1.7 -1.7 -1.7 -1.7 -1.7 -1.7 -1.7 -1.7 -1.7 -1.7 -1.7 -1.7 -1.7 -1.7 -1.7 -1.7 -1.7 -1.7 -1.7 -1.7 -1.7 -1.7 -1.7 -1.7 1.9 7.3 8.7 8 6.1 5.2 5.7 6 7.1 6.2 6.3 6.9 6.3 6.7 6.8 8.1 11.2 12.9 10.3 7.5 5.2 4.1 4.9 6 7.9 13.8 17 20.8 24.6 28.1 30.8 27.1 22.4 19.3 14.7 10.6 7.2
-1.7 -1.7 -1.7 -1.7 -1.7 -1.7 -1.7 -1.7 -1.7 -1.7 -1.7 -1.7 -1.7 -1.7 -1.7 -1.7 -1.7 -1.7 -1.7 -1.7 -1.7 -1.7 -1.7 -1.7 -1.7 -1.7 -1.7 -1.7 -1.7 -1.7 -1.7 -1.7 -1.7 -1.7 -1.7 -1.7 -1.7 -1.7 -1.7 -1.7 -1.7 -1.7 -1.7 -1.7 -1.7 -1.7 -1.7 -1.7 -1.7 -1.7 -1.7 -1.7 -1.7 -1.7 -1.7 -1.7 -1.7 -1.7 -1.7 -1.7 -1.7 -1.7 -1.7 -1.7 -1.7 -1.7 -1.7 -1.7 -1.7 -1.7 -1.7 -1.7 -1.7 -1.7 -1.7 -1.7 -1.7 -1.7 -1.7 -1.7 -1.7 -1.7 -1.7 -1.7 -1.7 -1.7 -1.7 -1.7 -1.7 -1.7 -1.7 -1.7 -1.7 -1.7 -1.7 -1.7 -1.7 -1.7 -1.7 -1.7 -1.7 -1.7 -1.7 -1.7 -1.7 -1.7 -1.7 -1.7 -1.7 -1.7 -1.7 -1.7 -1.7 -1.7 -1.7 -1.7 -1.7 -1.7 -1.7 -1.7 -1.7 -1.7 -1.7 -1.7 -1.7 -1.7 -1.7 -1.7 -1.7 -1.7 -1.7 -1.7 -1.7 -1.7 -1.7 -1.7 -1.7 -1.7 -1.7 -1.7 -1.7 -1.7 -1.7 -1.7 -1.7 -1.7 -1.7 -1.7 -1.7 -1.7 -1.7 -1.7 -1.7 -1.7 -1.7 -1.7 -1.7 -1.7 -1.7 -1.7 -1.7 0.8 3.8 7.3 7.7 7.3 7 6.5 5.8 5.2 5.7 7 8 8.5 8.3 6.4 5.4 6.3 8 10 8.2 6.5 3.8 3.6 4 4.6 5.4 8.3 13.1 16.5 20.3 23.3 26.6 28.9 28.2 22.8 19.2 14.9 11.6 8.5
-1.7 -1.7 -1.7 -1.7 -1.7 -1.7 -1.7 -1.7 -1.7 -1.7 -1.7 -1.7 -1.7 -1.7 -1.7 -1.7 -1.7 -1.7 -1.7 -1.7 -1.7 -1.7 -1.7 -1.7 -1.7 -1.7 -1.7 -1.7 -1.7 -1.7 -1.7 -1.7 -1.7 -1.7 -1.7 -1.7 -1.7 -1.7 -1.7 -1.7 -1.7 -1.7 -1.7 -1.7 -1.7 -1.7 -1.7 -1.7 -1.7 -1.7 -1.7 -1.7 -1.7 -1.7 -1.7 -1.7 -1.7 -1.7 -1.7 -1.7 -1.7 -1.7 -1.7 -1.7 -1.7 -1.7 -1.7 -1.7 -1.7 -1.7 -1.7 -1.7 -1.7 -1.7 -1.7 -1.7 -1.7 -1.7 -1.7 -1.7 -1.7 -1.7 -1.7 -1.7 -1.7 -1.7 -1.7 -1.7 -1.7 -1.7 -1.7 -1.7 -1.7 -1.7 -1.7 -1.7 -1.7 -1.7 -1.7 -1.7 -1.7 -1.7 -1.7 -1.7 -1.7 -1.7 -1.7 -1.7 -1.7 -1.7 -1.7 -1.7 -1.7 -1.7 -1.7 -1.7 -1.7 -1.7 -1.7 -1.7 -1.7 -1.7 -1.7 -1.7 -1.7 -1.7 -1.7 -1.7 -1.7 -1.7 -1.7 -1.7 -1.7 -1.7 -1.7 -1.7 -1.7 -1.7 -1.7 -1.7 -1.7 -1.7 -1.7 -1.7 -1.7 -1.7 -1.7 -1.7 -1.7 -1.7 -1.7 -1.7 -1.7 -1.7 -1.7 -1.7 -1.7 -1.7 -1.7 -1.7 0.2 2.4 6.6 6.6 7.3 6.3 5.9 5.9 5.5 6.4 6.6 6.2 7.3 9.3 7.1 5.2 4.9 5 7.4 7.5 5.8 4.1 3.1 3.7 3.6 3.9 4 6.6 11.2 14.3 17.1 19.9 23.4 26.9 29 23.4 17.9 12.6 9.6 8.1
-1.7 -1.7 -1.7 -1.7 -1.7 -1.7 -1.7 -1.7 -1.7 -1.7 -1.7 -1.7 -1.7 -1.7 -1.7 -1.7 -1.7 -1.7 -1.7 -1.7 -1.7 -1.7 -1.7 -1.7 -1.7 -1.7 -1.7 -1.7 -1.7 -1.7 -1.7 -1.7 -1.7 -1.7 -1.7 -1.7 -1.7 -1.7 -1.7 -1.7 -1.7 -1.7 -1.7 -1.7 -1.7 -1.7 -1.7 -1.7 -1.7 -1.7 -1.7 -1.7 -1.7 -1.7 -1.7 -1.7 -1.7 -1.7 -1.7 -1.7 -1.7 -1.7 -1.7 -1.7 -1.7 -1.7 -1.7 -1.7 -1.7 -1.7 -1.7 -1.7 -1.7 -1.7 -1.7 -1.7 -1.7 -1.7 -1.7 -1.7 -1.7 -1.7 -1.7 -1.7 -1.7 -1.7 -1.7 -1.7 -1.7 -1.7 -1.7 -1.7 -1.7 -1.7 -1.7 -1.7 -1.7 -1.7 -1.7 -1.7 -1.7 -1.7 -1.7 -1.7 -1.7 -1.7 -1.7 -1.7 -1.7 -1.7 -1.7 -1.7 -1.7 -1.7 -1.7 -1.7 -1.7 -1.7 -1.7 -1.7 -1.7 -1.7 -1.7 -1.7 -1.7 -1.7 -1.7 -1.7 -1.7 -1.7 -1.7 -1.7 -1.7 -1.7 -1.7 -1.7 -1.7 -1.7 -1.7 -1.7 -1.7 -1.7 -1.7 -1.7 -1.7 -1.7 -1.7 -1.7 -1.7 -1.7 -1.7 -1.7 -1.7 -1.7 -1.7 -1.7 -1.7 -1.7 -1.7 -1.7 3.4 7 6.6 6.8 6.4 5.4 5.1 4.6 5 4.6 3.8 4.5 6.1 6.6 4.6 3.8 2.7 4.5 5.2 4.6 3.6 3 3 3 3 3.4 3.3 5.3 8.3 11.4 14.7 18.1 22.4 25.6 26.4 21.1 16.4 12.7 12 9.2
-1.7 -1.7 -1.7 -1.7 -1.7 -1.7 -1.7 -1.7 -1.7 -1.7 -1.7 -1.7 -1.7 -1.7 -1.7 -1.7 -1.7 -1.7 -1.7 -1.7 -1.7 -1.7 -1.7 -1.7 -1.7 -1.7 -1.7 -1.7 -1.7 -1.7 -1.7 -1.7 -1.7 -1.7 -1.7 -1.7 -1.7 -1.7 -1.7 -1.7 -1.7 -1.7 -1.7 -1.7 -1.7 -1.7 -1.7 -1.7 -1.7 -1.7 -1.7 -1.7 -1.7 -1.7 -1.7 -1.7 -1.7 -1.7 -1.7 -1.7 -1.7 -1.7 -1.7 -1.7 -1.7 -1.7 -1.7 -1.7 -1.7 -1.7 -1.7 -1.7 -1.7 -1.7 -1.7 -1.7 -1.7 -1.7 -1.7 -1.7 -1.7 -1.7 -1.7 -1.7 -1.7 -1.7 -1.7 -1.7 -1.7 -1.7 -1.7 -1.7 -1.7 -1.7 -1.7 -1.7 -1.7 -1.7 -1.7 -1.7 -1.7 -1.7 -1.7 -1.7 -1.7 -1.7 -1.7 -1.7 -1.7 -1.7 -1.7 -1.7 -1.7 -1.7 -1.7 -1.7 -1.7 -1.7 -1.7 -1.7 -1.7 -1.7 -1.7 -1.7 -1.7 -1.7 -1.7 -1.7 -1.7 -1.7 -1.7 -1.7 -1.7 -1.7 -1.7 -1.7 -1.7 -1.7 -1.7 -1.7 -1.7 -1.7 -1.7 -1.7 -1.7 -1.7 -1.7 -1.7 -1.7 -1.7 -1.7 -1.7 -1.7 -1.7 -1.7 -1.7 -1.7 -1.7 -1.7 0.7 3.9 7.8 7.3 7.3 7.5 7.3 6.3 5.3 4.5 3.3 3.5 4.1 4.4 4.3 3.4 2.8 2.8 3 2.8 2.5 2.8 2.8 2.9 3 3.2 3.6 3.2 4.6 5.8 9.9 14.2 18.8 22.7 26 23.2 19.3 14.8 12.4 12.7 10
-1.7 -1.7 -1.7 -1.7 -1.7 -1.7 -1.7 -1.7 -1.7 -1.7 -1.7 -1.7 -1.7 -1.7 -1.7 -1.7 -1.7 -1.7 -1.7 -1.7 -1.7 -1.7 -1.7 -1.7 -1.7 -1.7 -1.7 -1.7 -1.7 -1.7 -1.7 -1.7 -1.7 -1.7 -1.7 -1.7 -1.7 -1.7 -1.7 -1.7 -1.7 -1.7 -1.7 -1.7 -1.7 -1.7 -1.7 -1.7 -1.7 -1.7 -1.7 -1.7 -1.7 -1.7 -1.7 -1.7 -1.7 -1.7 -1.7 -1.7 -1.7 -1.7 -1.7 -1.7 -1.7 -1.7 -1.7 -1.7 -1.7 -1.7 -1.7 -1.7 -1.7 -1.7 -1.7 -1.7 -1.7 -1.7 -1.7 -1.7 -1.7 -1.7 -1.7 -1.7 -1.7 -1.7 -1.7 -1.7 -1.7 -1.7 -1.7 -1.7 -1.7 -1.7 -1.7 -1.7 -1.7 -1.7 -1.7 -1.7 -1.7 -1.7 -1.7 -1.7 -1.7 -1.7 -1.7 -1.7 -1.7 -1.7 -1.7 -1.7 -1.7 -1.7 -1.7 -1.7 -1.7 -1.7 -1.7 -1.7 -1.7 -1.7 -1.7 -1.7 -1.7 -1.7 -1.7 -1.7 -1.7 -1.7 -1.7 -1.7 -1.7 -1.7 -1.7 -1.7 -1.7 -1.7 -1.7 -1.7 -1.7 -1.7 -1.7 -1.7 -1.7 -1.7 -1.7 -1.7 -1.7 -1.7 -1.7 -1.7 -1.7 -1.7 -1.7 -1.7 -1.7 -1.7 -1.7 -0.2 1.6 7.2 6 6.6 7.4 7.2 7.1 5.5 3.8 3 3.8 3 3.6 3 4 2.8 2.9 3.2 3 3.3 3.2 2.9 2.9 3.2 3.2 4 3.2 4.2 5.6 10.3 15.1 20 24.4 24.1 20.4 17.5 13.3 10.4 10.1 9.5
-1.7 -1.7 -1.7 -1.7 -1.7 -1.7 -1.7 -1.7 -1.7 -1.7 -1.7 -1.7 -1.7 -1.7 -1.7 -1.7 -1.7 -1.7 -1.7 -1.7 -1.7 -1.7 -1.7 -1.7 -1.7 -1.7 -1.7 -1.7 -1.7 -1.7 -1.7 -1.7 -1.7 -1.7 -1.7 -1.7 -1.7 -1.7 -1.7 -1.7 -1.7 -1.7 -1.7 -1.7 -1.7 -1.7 -1.7 -1.7 -1.7 -1.7 -1.7 -1.7 -1.7 -1.7 -1.7 -1.7 -1.7 -1.7 -1.7 -1.7 -1.7 -1.7 -1.7 -1.7 -1.7 -1.7 -1.7 -1.7 -1.7 -1.7 -1.7 -1.7 -1.7 -1.7 -1.7 -1.7 -1.7 -1.7 -1.7 -1.7 -1.7 -1.7 -1.7 -1.7 -1.7 -1.7 -1.7 -1.7 -1.7 -1.7 -1.7 -1.7 -1.7 -1.7 -1.7 -1.7 -1.7 -1.7 -1.7 -1.7 -1.7 -1.7 -1.7 -1.7 -1.7 -1.7 -1.7 -1.7 -1.7 -1.7 -1.7 -1.7 -1.7 -1.7 -1.7 -1.7 -1.7 -1.7 -1.7 -1.7 -1.7 -1.7 -1.7 -1.7 -1.7 -1.7 -1.7 -1.7 -1.7 -1.7 -1.7 -1.7 -1.7 -1.7 -1.7 -1.7 -1.7 -1.7 -1.7 -1.7 -1.7 -1.7 -1.7 -1.7 -1.7 -1.7 -1.7 -1.7 -1.7 -1.7 -1.7 -1.7 -1.7 -1.7 -1.7 -1.7 -1.7 -1.7 -1.7 -0.8 0.7 1.6 1.9 5.3 6 7 6.2 4.5 4.1 3.7 3.2 2.7 2.6 2.9 3 2.7 2.4 2.4 2.7 3 3 3.2 3.1 3.3 3.4 3.5 3.9 4 6 11.5 15.9 20.3 24.6 21.3 18.3 15.5 10.7 7.9 7.7 11
-1.7 -1.7 -1.7 -1.7 -1.7 -1.7 -1.7 -1.7 -1.7 -1.7 -1.7 -1.7 -1.7 -1.7 -1.7 -1.7 -1.7 -1.7 -1.7 -1.7 -1.7 -1.7 -1.7 -1.7 -1.7 -1.7 -1.7 -1.7 -1.7 -1.7 -1.7 -1.7 -1.7 -1.7 -1.7 -1.7 -1.7 -1.7 -1.7 -1.7 -1.7 -1.7 -1.7 -1.7 -1.7 -1.7 -1.7 -1.7 -1.7 -1.7 -1.7 -1.7 -1.7 -1.7 -1.7 -1.7 -1.7 -1.7 -1.7 -1.7 -1.7 -1.7 -1.7 -1.7 -1.7 -1.7 -1.7 -1.7 -1.7 -1.7 -1.7 -1.7 -1.7 -1.7 -1.7 -1.7 -1.7 -1.7 -1.7 -1.7 -1.7 -1.7 -1.7 -1.7 -1.7 -1.7 -1.7 -1.7 -1.7 -1.7 -1.7 -1.7 -1.7 -1.7 -1.7 -1.7 -1.7 -1.7 -1.7 -1.7 -1.7 -1.7 -1.7 -1.7 -1.7 -1.7 -1.7 -1.7 -1.7 -1.7 -1.7 -1.7 -1.7 -1.7 -1.7 -1.7 -1.7 -1.7 -1.7 -1.7 -1.7 -1.7 -1.7 -1.7 -1.7 -1.7 -1.7 -1.7 -1.7 -1.7 -1.7 -1.7 -1.7 -1.7 -1.7 -1.7 -1.7 -1.7 -1.7 -1.7 -1.7 -1.7 -1.7 -1.7 -1.7 -1.7 -1.7 -1.7 -1.7 -1.7 -1.7 -1.7 -1.7 -1.7 -1.7 -1.7 -1.7 -1.7 -1.7 -1.7 -1.7 0 0.9 2.6 6.5 5.9 5.8 5.5 4.2 3.3 3.1 4 2.8 3.3 5.3 4.1 2.9 2.6 2.8 3 2.5 2.7 3 3.3 3.5 3.9 4.3 4.7 6.7 10.5 14.9 19.6 20.7 18.2 16.5 13.2 8.4 6.5 7.4 10.4
-1.7 -1.7 -1.7 -1.7 -1.7 -1.7 -1.7 -1.7 -1.7 -1.7 -1.7 -1.7 -1.7 -1.7 -1.7 -1.7 -1.7 -1.7 -1.7 -1.7 -1.7 -1.7 -1.7 -1.7 -1.7 -1.7 -1.7 -1.7 -1.7 -1.7 -1.7 -1.7 -1.7 -1.7 -1.7 -1.7 -1.7 -1.7 -1.7 -1.7 -1.7 -1.7 -1.7 -1.7 -1.7 -1.7 -1.7 -1.7 -1.7 -1.7 -1.7 -1.7 -1.7 -1.7 -1.7 -1.7 -1.7 -1.7 -1.7 -1.7 -1.7 -1.7 -1.7 -1.7 -1.7 -1.7 -1.7 -1.7 -1.7 -1.7 -1.7 -1.7 -1.7 -1.7 -1.7 -1.7 -1.7 -1.7 -1.7 -1.7 -1.7 -1.7 -1.7 -1.7 -1.7 -1.7 -1.7 -1.7 -1.7 -1.7 -1.7 -1.7 -1.7 -1.7 -1.7 -1.7 -1.7 -1.7 -1.7 -1.7 -1.7 -1.7 -1.7 -1.7 -1.7 -1.7 -1.7 -1.7 -1.7 -1.7 -1.7 -1.7 -1.7 -1.7 -1.7 -1.7 -1.7 -1.7 -1.7 -1.7 -1.7 -1.7 -1.7 -1.7 -1.7 -1.7 -1.7 -1.7 -1.7 -1.7 -1.7 -1.7 -1.7 -1.7 -1.7 -1.7 -1.7 -1.7 -1.7 -1.7 -1.7 -1.7 -1.7 -1.7 -1.7 -1.7 -1.7 -1.7 -1.7 -1.7 -1.7 -1.7 -1.7 -1.7 -1.7 -1.7 -1.7 -1.7 -1.7 -1.7 -1.7 -1.2 -0.3 1.3 5.6 5.2 5.7 6 4.6 4.1 4.7 3.1 2.2 3.6 5 3.6 2.5 3.4 2.7 2.9 3 2.9 3.2 3.7 3.7 4 4.3 4.8 5.8 9 12.7 15.6 16.2 14.9 12.8 9.4 7.1 8.2 9.8 9.4
-1.7 -1.7 -1.7 -1.7 -1.7 -1.7 -1.7 -1.7 -1.7 -1.7 -1.7 -1.7 -1.7 -1.7 -1.7 -1.7 -1.7 -1.7 -1.7 -1.7 -1.7 -1.7 -1.7 -1.7 -1.7 -1.7 -1.7 -1.7 -1.7 -1.7 -1.7 -1.7 -1.7 -1.7 -1.7 -1.7 -1.7 -1.7 -1.7 -1.7 -1.7 -1.7 -1.7 -1.7 -1.7 -1.7 -1.7 -1.7 -1.7 -1.7 -1.7 -1.7 -1.7 -1.7 -1.7 -1.7 -1.7 -1.7 -1.7 -1.7 -1.7 -1.7 -1.7 -1.7 -1.7 -1.7 -1.7 -1.7 -1.7 -1.7 -1.7 -1.7 -1.7 -1.7 -1.7 -1.7 -1.7 -1.7 -1.7 -1.7 -1.7 -1.7 -1.7 -1.7 -1.7 -1.7 -1.7 -1.7 -1.7 -1.7 -1.7 -1.7 -1.7 -1.7 -1.7 -1.7 -1.7 -1.7 -1.7 -1.7 -1.7 -1.7 -1.7 -1.7 -1.7 -1.7 -1.7 -1.7 -1.7 -1.7 -1.7 -1.7 -1.7 -1.7 -1.7 -1.7 -1.7 -1.7 -1.7 -1.7 -1.7 -1.7 -1.7 -1.7 -1.7 -1.7 -1.7 -1.7 -1.7 -1.7 -1.7 -1.7 -1.7 -1.7 -1.7 -1.7 -1.7 -1.7 -1.7 -1.7 -1.7 -1.7 -1.7 -1.7 -1.7 -1.7 -1.7 -1.7 -1.7 -1.7 -1.7 -1.7 -1.7 -1.7 -1.7 -1.7 -1.7 -1.7 -1.7 -1.7 -1.7 -1.7 -1.7 0.1 6.7 7 7.3 6.5 6.1 5.9 4.8 2.6 2.3 3.1 3.1 2.6 5 5.7 4.9 2.9 2.7 5.2 7.2 5.3 4.9 4.2 4.8 5.2 5.6 7.8 9.5 11.7 11 10.3 8.1 6.6 7.4 10.3 11 9.4
-1.7 -1.7 -1.7 -1.7 -1.7 -1.7 -1.7 -1.7 -1.7 -1.7 -1.7 -1.7 -1.7 -1.7 -1.7 -1.7 -1.7 -1.7 -1.7 -1.7 -1.7 -1.7 -1.7 -1.7 -1.7 -1.7 -1.7 -1.7 -1.7 -1.7 -1.7 -1.7 -1.7 -1.7 -1.7 -1.7 -1.7 -1.7 -1.7 -1.7 -1.7 -1.7 -1.7 -1.7 -1.7 -1.7 -1.7 -1.7 -1.7 -1.7 -1.7 -1.7 -1.7 -1.7 -1.7 -1.7 -1.7 -1.7 -1.7 -1.7 -1.7 -1.7 -1.7 -1.7 -1.7 -1.7 -1.7 -1.7 -1.7 -1.7 -1.7 -1.7 -1.7 -1.7 -1.7 -1.7 -1.7 -1.7 -1.7 -1.7 -1.7 -1.7 -1.7 -1.7 -1.7 -1.7 -1.7 -1.7 -1.7 -1.7 -1.7 -1.7 -1.7 -1.7 -1.7 -1.7 -1.7 -1.7 -1.7 -1.7 -1.7 -1.7 -1.7 -1.7 -1.7 -1.7 -1.7 -1.7 -1.7 -1.7 -1.7 -1.7 -1.7 -1.7 -1.7 -1.7 -1.7 -1.7 -1.7 -1.7 -1.7 -1.7 -1.7 -1.7 -1.7 -1.7 -1.7 -1.7 -1.7 -1.7 -1.7 -1.7 -1.7 -1.7 -1.7 -1.7 -1.7 -1.7 -1.7 -1.7 -1.7 -1.7 -1.7 -1.7 -1.7 -1.7 -1.7 -1.7 -1.7 -1.7 -1.7 -1.7 -1.7 -1.7 -1.7 -1.7 -1.7 -1.7 -1.7 -1.7 -1.7 -1.7 -1.7 0.2 8.3 8.1 7.8 6.9 6.1 5.9 3.2 2.7 2.1 2.6 3.2 3.2 4.8 5 5.7 3.9 3.8 4.5 5.4 5.5 5 5.5 5.3 5.6 5.8 6.3 7.4 8.8 10.7 9.8 7.2 6 7.7 9.9 9.4 9
-1.7 -1.7 -1.7 -1.7 -1.7 -1.7 -1.7 -1.7 -1.7 -1.7 -1.7 -1.7 -1.7 -1.7 -1.7 -1.7 -1.7 -1.7 -1.7 -1.7 -1.7 -1.7 -1.7 -1.7 -1.7 -1.7 -1.7 -1.7 -1.7 -1.7 -1.7 -1.7 -1.7 -1.7 -1.7 -1.7 -1.7 -1.7 -1.7 -1.7 -1.7 -1.7 -1.7 -1.7 -1.7 -1.7 -1.7 -1.7 -1.7 -1.7 -1.7 -1.7 -1.7 -1.7 -1.7 -1.7 -1.7 -1.7 -1.7 -1.7 -1.7 -1.7 -1.7 -1.7 -1.7 -1.7 -1.7 -1.7 -1.7 -1.7 -1.7 -1.7 -1.7 -1.7 -1.7 -1.7 -1.7 -1.7 -1.7 -1.7 -1.7 -1.7 -1.7 -1.7 -1.7 -1.7 -1.7 -1.7 -1.7 -1.7 -1.7 -1.7 -1.7 -1.7 -1.7 -1.7 -1.7 -1.7 -1.7 -1.7 -1.7 -1.7 -1.7 -1.7 -1.7 -1.7 -1.7 -1.7 -1.7 -1.7 -1.7 -1.7 -1.7 -1.7 -1.7 -1.7 -1.7 -1.7 -1.7 -1.7 -1.7 -1.7 -1.7 -1.7 -1.7 -1.7 -1.7 -1.7 -1.7 -1.7 -1.7 -1.7 -1.7 -1.7 -1.7 -1.7 -1.7 -1.7 -1.7 -1.7 -1.7 -1.7 -1.7 -1.7 -1.7 -1.7 -1.7 -1.7 -1.7 -1.7 -1.7 -1.7 -1.7 -1.7 -1.7 -1.7 -1.7 -1.7 -1.7 -1.7 -1.7 -1.7 -0.5 1 7.7 7.9 7.7 6.6 4.6 4.6 2.4 3.3 2.6 2.5 3.1 3.3 3.6 4.7 6.3 6.2 6.7 5.7 5.4 4.7 4.2 4.5 5.3 5.6 6.4 6.2 7.1 9.5 11.2 9.1 6.6 6.1 8.6 9 8.5 8.1
-1.7 -1.7 -1.7 -1.7 -1.7 -1.7 -1.7 -1.7 -1.7 -1.7 -1.7 -1.7 -1.7 -1.7 -1.7 -1.7 -1.7 -1.7 -1.7 -1.7 -1.7 -1.7 -1.7 -1.7 -1.7 -1.7 -1.7 -1.7 -1.7 -1.7 -1.7 -1.7 -1.7 -1.7 -1.7 -1.7 -1.7 -1.7 -1.7 -1.7 -1.7 -1.7 -1.7 -1.7 -1.7 -1.7 -1.7 -1.7 -1.7 -1.7 -1.7 -1.7 -1.7 -1.7 -1.7 -1.7 -1.7 -1.7 -1.7 -1.7 -1.7 -1.7 -1.7 -1.7 -1.7 -1.7 -1.7 -1.7 -1.7 -1.7 -1.7 -1.7 -1.7 -1.7 -1.7 -1.7 -1.7 -1.7 -1.7 -1.7 -1.7 -1.7 -1.7 -1.7 -1.7 -1.7 -1.7 -1.7 -1.7 -1.7 -1.7 -1.7 -1.7 -1.7 -1.7 -1.7 -1.7 -1.7 -1.7 -1.7 -1.7 -1.7 -1.7 -1.7 -1.7 -1.7 -1.7 -1.7 -1.7 -1.7 -1.7 -1.7 -1.7 -1.7 -1.7 -1.7 -1.7 -1.7 -1.7 -1.7 -1.7 -1.7 -1.7 -1.7 -1.7 -1.7 -1.7 -1.7 -1.7 -1.7 -1.7 -1.7 -1.7 -1.7 -1.7 -1.7 -1.7 -1.7 -1.7 -1.7 -1.7 -1.7 -1.7 -1.7 -1.7 -1.7 -1.7 -1.7 -1.7 -1.7 -1.7 -1.7 -1.7 -1.7 -1.7 -1.7 -1.7 -1.7 -1.7 -1.7 -1.7 -0.7 0.7 2.4 8.1 8.3 7.6 5.6 3.5 2.7 3.6 4.8 3.9 3 3 3 3.6 3.6 5.8 7.1 8.6 6.8 4.8 5.8 6.2 5.1 4.7 5.5 5.9 7.2 7.7 10.6 10.5 6.5 6.2 6.7 8.2 7.7 8.8 9.4
-1.7 -1.7 -1.7 -1.7 -1.7 -1.7 -1.7 -1.7 -1.7 -1.7 -1.7 -1.7 -1.7 -1.7 -1.7 -1.7 -1.7 -1.7 -1.7 -1.7 -1.7 -1.7 -1.7 -1.7 -1.7 -1.7 -1.7 -1.7 -1.7 -1.7 -1.7 -1.7 -1.7 -1.7 -1.7 -1.7 -1.7 -1.7 -1.7 -1.7 -1.7 -1.7 -1.7 -1.7 -1.7 -1.7 -1.7 -1.7 -1.7 -1.7 -1.7 -1.7 -1.7 -1.7 -1.7 -1.7 -1.7 -1.7 -1.7 -1.7 -1.7 -1.7 -1.7 -1.7 -1.7 -1.7 -1.7 -1.7 -1.7 -1.7 -1.7 -1.7 -1.7 -1.7 -1.7 -1.7 -1.7 -1.7 -1.7 -1.7 -1.7 -1.7 -1.7 -1.7 -1.7 -1.7 -1.7 -1.7 -1.7 -1.7 -1.7 -1.7 -1.7 -1.7 -1.7 -1.7 -1.7 -1.7 -1.7 -1.7 -1.7 -1.7 -1.7 -1.7 -1.7 -1.7 -1.7 -1.7 -1.7 -1.7 -1.7 -1.7 -1.7 -1.7 -1.7 -1.7 -1.7 -1.7 -1.7 -1.7 -1.7 -1.7 -1.7 -1.7 -1.7 -1.7 -1.7 -1.7 -1.7 -1.7 -1.7 -1.7 -1.7 -1.7 -1.7 -1.7 -1.7 -1.7 -1.7 -1.7 -1.7 -1.7 -1.7 -1.7 -1.7 -1.7 -1.7 -1.7 -1.7 -1.7 -1.7 -1.7 -1.7 -1.7 -1.7 -1.7 -1.7 -1.7 -1.7 -1.7 -1.7 0.1 1.4 8.2 8 7.7 6.4 4.5 2.6 3.7 4.7 5.8 5.4 4.1 3.4 3.3 2.2 2.8 5.1 8.8 9.3 7.1 5.2 6.8 7.3 5 4 4.7 5.3 6.4 9.8 11.6 8.7 5.7 5.6 6.7 7.8 8.5 9.5 10.5
-1.7 -1.7 -1.7 -1.7 -1.7 -1.7 -1.7 -1.7 -1.7 -1.7 -1.7 -1.7 -1.7 -1.7 -1.7 -1.7 -1.7 -1.7 -1.7 -1.7 -1.7 -1.7 -1.7 -1.7 -1.7 -1.7 -1.7 -1.7 -1.7 -1.7 -1.7 -1.7 -1.7 -1.7 -1.7 -1.7 -1.7 -1.7 -1.7 -1.7 -1.7 -1.7 -1.7 -1.7 -1.7 -1.7 -1.7 -1.7 -1.7 -1.7 -1.7 -1.7 -1.7 -1.7 -1.7 -1.7 -1.7 -1.7 -1.7 -1.7 -1.7 -1.7 -1.7 -1.7 -1.7 -1.7 -1.7 -1.7 -1.7 -1.7 -1.7 -1.7 -1.7 -1.7 -1.7 -1.7 -1.7 -1.7 -1.7 -1.7 -1.7 -1.7 -1.7 -1.7 -1.7 -1.7 -1.7 -1.7 -1.7 -1.7 -1.7 -1.7 -1.7 -1.7 -1.7 -1.7 -1.7 -1.7 -1.7 -1.7 -1.7 -1.7 -1.7 -1.7 -1.7 -1.7 -1.7 -1.7 -1.7 -1.7 -1.7 -1.7 -1.7 -1.7 -1.7 -1.7 -1.7 -1.7 -1.7 -1.7 -1.7 -1.7 -1.7 -1.7 -1.7 -1.7 -1.7 -1.7 -1.7 -1.7 -1.7 -1.7 -1.7 -1.7 -1.7 -1.7 -1.7 -1.7 -1.7 -1.7 -1.7 -1.7 -1.7 -1.7 -1.7 -1.7 -1.7 -1.7 -1.7 -1.7 -1.7 -1.7 -1.7 -1.7 -1.7 -1.7 -1.7 -1.7 -1.7 -1.7 -0.8 0.8 7.2 8.1 7.8 6.9 5.2 3.1 3.4 5.4 6.6 6.9 6.3 4.4 3.2 3 4.4 2.6 3.8 7.5 8 6.8 6.8 8.8 6.7 4 3.6 4.9 5.4 8.4 11.9 11.5 7.5 5.2 4.8 4.4 7.7 8.8 12 14.1
-1.7 -1.7 -1.7 -1.7 -1.7 -1.7 -1.7 -1.7 -1.7 -1.7 -1.7 -1.7 -1.7 -1.7 -1.7 -1.7 -1.7 -1.7 -1.7 -1.7 -1.7 -1.7 -1.7 -1.7 -1.7 -1.7 -1.7 -1.7 -1.7 -1.7 -1.7 -1.7 -1.7 -1.7 -1.7 -1.7 -1.7 -1.7 -1.7 -1.7 -1.7 -1.7 -1.7 -1.7 -1.7 -1.7 -1.7 -1.7 -1.7 -1.7 -1.7 -1.7 -1.7 -1.7 -1.7 -1.7 -1.7 -1.7 -1.7 -1.7 -1.7 -1.7 -1.7 -1.7 -1.7 -1.7 -1.7 -1.7 -1.7 -1.7 -1.7 -1.7 -1.7 -1.7 -1.7 -1.7 -1.7 -1.7 -1.7 -1.7 -1.7 -1.7 -1.7 -1.7 -1.7 -1.7 -1.7 -1.7 -1.7 -1.7 -1.7 -1.7 -1.7 -1.7 -1.7 -1.7 -1.7 -1.7 -1.7 -1.7 -1.7 -1.7 -1.7 -1.7 -1.7 -1.7 -1.7 -1.7 -1.7 -1.7 -1.7 -1.7 -1.7 -1.7 -1.7 -1.7 -1.7 -1.7 -1.7 -1.7 -1.7 -1.7 -1.7 -1.7 -1.7 -1.7 -1.7 -1.7 -1.7 -1.7 -1.7 -1.7 -1.7 -1.7 -1.7 -1.7 -1.7 -1.7 -1.7 -1.7 -1.7 -1.7 -1.7 -1.7 -1.7 -1.7 -1.7 -1.7 -1.7 -1.7 -1.7 -1.7 -1.7 -1.7 -1.7 -1.7 -1.7 -1.7 -1.7 -1.7 -0.5 1.1 8.6 8.1 7.1 5.8 4 2.6 4.3 7 7.8 7.6 6.8 4.9 4 2.8 3.2 3.2 4.5 6.1 6.2 6.2 7.7 8.8 5.9 3.6 3.7 4.2 6.3 9.7 12.7 10.3 7.1 4.9 4.5 4.7 8.5 11.7 14.7 16.6
-1.7 -1.7 -1.7 -1.7 -1.7 -1.7 -1.7 -1.7 -1.7 -1.7 -1.7 -1.7 -1.7 -1.7 -1.7 -1.7 -1.7 -1.7 -1.7 -1.7 -1.7 -1.7 -1.7 -1.7 -1.7 -1.7 -1.7 -1.7 -1.7 -1.7 3.2 -1 -1.7 -1.7 -1.7 -1.7 -1.7 -1.7 -1.7 -1.7 -1.7 -1.7 -1.7 -1.7 -1.7 -1.7 -1.7 -1.7 -1.7 -1.7 -1.7 -1.7 -1.7 -1.7 -1.7 -1.7 -1.7 -1.7 -1.7 -1.7 -1.7 -1.7 -1.7 -1.7 -1.7 -1.7 -1.7 -1.7 -1.7 -1.7 -1.7 -1.7 -1.7 -1.7 -1.7 -1.7 -1.7 -1.7 -1.7 -1.7 -1.7 -1.7 -1.7 -1.7 -1.7 -1.7 -1.7 -1.7 -1.7 -1.7 -1.7 -1.7 -1.7 -1.7 -1.7 -1.7 -1.7 -1.7 -1.7 -1.7 -1.7 -1.7 -1.7 -1.7 -1.7 -1.7 -1.7 -1.7 -1.7 -1.7 -1.7 -1.7 -1.7 -1.7 -1.7 -1.7 -1.7 -1.7 -1.7 -1.7 -1.7 -1.7 -1.7 -1.7 -1.7 -1.7 -1.7 -1.7 -1.7 -1.7 -1.7 -1.7 -1.7 -1.7 -1.7 -1.7 -1.7 -1.7 -1.7 -1.7 -1.7 -1.7 -1.7 -1.7 -1.7 -1.7 -1.7 -1.7 -1.7 -1.7 -1.7 -1.7 -1.7 -1.7 -1.7 -1.7 -1.7 -1.7 -1.7 -1.7 -0.3 1.5 3.9 3.3 4.2 4.6 2.6 3.9 5.6 7.4 8.8 8 7.1 6.7 4.3 3.8 3.3 5.1 4 4.6 4.7 5.1 6.5 6.1 3.7 3.3 3.3 4 5.5 7.7 9.4 9 6.7 4.7 4.3 6.2 10.2 13.9 16.9 18.1
-1.7 -1.7 -1.7 -1.7 -1.7 -1.7 -1.7 -1.7 -1.7 -1.7 -1.7 -1.7 -1.7 -1.7 -1.7 -1.7 -1.7 -1.7 -1.7 -1.7 -1.7 -1.7 -1.7 -1.7 -1.7 -1.7 -1.7 -1.7 -1.7 -1.7 26.9 32.6 -1.7 -1.7 -1.7 -1.7 -1.7 -1.7 -1.7 -1.7 -1.7 -1.7 -1.7 -1.7 -1.7 -1.7 -1.7 -1.7 -1.7 -1.7 -1.7 -1.7 -1.7 -1.7 -1.7 -1.7 -1.7 -1.7 -1.7 -1.7 -1.7 -1.7 -1.7 -1.7 -1.7 -1.7 -1.7 -1.7 -1.7 -1.7 -1.7 -1.7 -1.7 -1.7 -1.7 -1.7 -1.7 -1.7 -1.7 -1.7 -1.7 -1.7 -1.7 -1.7 -1.7 -1.7 -1.7 -1.7 -1.7 -1.7 -1.7 -1.7 -1.7 -1.7 -1.7 -1.7 -1.7 -1.7 -1.7 -1.7 -1.7 -1.7 -1.7 -1.7 -1.7 -1.7 -1.7 -1.7 -1.7 -1.7 -1.7 -1.7 -1.7 -1.7 -1.7 -1.7 -1.7 -1.7 -1.7 -1.7 -1.7 -1.7 -1.7 -1.7 -1.7 -1.7 -1.7 -1.7 -1.7 -1.7 -1.7 -1.7 -1.7 -1.7 -1.7 -1.7 -1.7 -1.7 -1.7 -1.7 -1.7 -1.7 -1.7 -1.7 -1.7 -1.7 -1.7 -1.7 -1.7 -1.7 -1.7 -1.7 -1.7 -1.7 -1.7 -1.7 -1.7 -1.7 -1.7 -1.7 -0.9 1 1.9 1.5 1.4 1.9 4.7 4.8 6.1 7 7.7 8.3 7.5 5.4 4.7 2.8 4.6 4.8 4.2 5.2 4.8 4 4.9 3.2 3.1 3.2 3.5 4.1 4.4 6.3 6.4 6.5 6 4.1 3.5 7.4 11.5 15.6 18.7 16.8
-1.7 -1.7 -1.7 -1.7 -1.7 -1.7 -1.7 -1.7 -1.7 -1.7 -1.7 -1.7 -1.7 -1.7 -1.7 -1.7 -1.7 -1.7 -1.7 -1.7 -1.7 -1.7 -1.7 -1.7 -1.7 -1.7 -1.7 -1.7 -1.7 26.3 38.1 42.2 38.3 32.7 -1.7 -1.7 -1.7 -1.7 -1.7 -1.7 -1.7 -1.7 -1.7 -1.7 -1.7 -1.7 -1.7 -1.7 -1.7 -1.7 -1.7 -1.7 -1.7 -1.7 -1.7 -1.7 -1.7 -1.7 -1.7 -1.7 -1.7 -1.7 -1.7 -1.7 -1.7 -0.5 -1.7 -0.4 -0.6 -1.7 -1.7 -1.7 -1.7 -1.7 -1.7 -1.7 -1.7 -1.7 -1.7 -1.7 -1.7 -1.7 -1.7 -1.7 -1.7 -1.7 -1.7 -1.7 -1.7 -1.7 -1.7 -1.7 -1.7 -1.7 -1.7 -1.7 -1.7 -1.7 -1.7 -1.7 -1.7 -1.7 -1.7 -1.7 -1.7 -1.7 -1.7 -1.7 -1.7 -1.7 -1.7 -1.7 -1.7 -1.7 -1.7 -1.7 -1.7 -1.7 -1.7 -1.7 -1.7 -1.7 -1.7 -1.7 -1.7 -1.7 -1.7 -1.7 -1.7 -1.7 -1.7 -1.7 -1.7 -1.7 -1.7 -1.7 -1.7 -1.7 -1.7 -1.7 -1.7 -1.7 -1.7 -1.7 -1.7 -1.7 -1.7 -1.7 -1.7 -1.7 -1.7 -1.7 -1.7 -1.7 -1.7 -1.7 -1.7 -1.7 -1.7 -1.7 -1 1.4 0.8 0.1 0.6 1.3 2.6 6 5.9 6.1 6.5 7.5 5.9 4.8 3.7 5.1 5.3 4.4 3.9 4.1 3.2 2.7 2.3 2.5 2.5 2.5 3.4 3.4 3.8 4.7 5.1 5.5 4.3 6 6.7 9 12.9 16.5 18.4 15
-1.7 -1.7 -1.7 -1.7 -1.7 -1.7 -1.7 -1.7 -1.7 -1.7 -1.7 -1.7 -1.7 -1.7 -1.7 -1.7 -1.7 -1.7 -1.7 -1.7 -1.7 -1.7 -1.7 -1.7 -1.7 -1.7 -1.7 1.5 -1.7 -1.7 -1.7 51.9 50.7 41 18.6 -1.7 -1.7 -1.7 -1.7 -1.7 -1.7 -1.7 -1.7 -1.7 -1.7 -1.7 -1.7 -1.7 -1.7 -1.7 -1.7 -1.7 -1.7 -1.7 -1.7 -1.7 -1.7 -1.7 -1.7 -1.7 -1.7 -1.7 -1.7 -1.7 -1.7 -1.7 1.9 10.5 11.7 1.9 -1.7 -1.7 -1.7 -1.7 -1.7 -1.7 -1.7 -1.7 -1.7 -1.7 -1.7 -1.7 -1.7 -1.7 -1.7 -1.7 -1.7 -1.7 -1.7 -1.7 -1.7 -1.7 -1.7 -1.7 -1.7 -1.7 -1.7 -1.7 -1.7 -1.7 -1.7 -1.7 -1.7 -1.7 -1.7 -1.7 -1.7 -1.7 -1.7 -1.7 -1.7 -1.7 -1.7 -1.7 -1.7 -1.7 -1.7 -1.7 -1.7 -1.7 -1.7 -1.7 -1.7 -1.7 -1.7 -1.7 -1.7 -1.7 -1.7 -1.7 -1.7 -1.7 -1.7 -1.7 -1.7 -1.7 -1.7 -1.7 -1.7 -1.7 -1.7 -1.7 -1.7 -1.7 -1.7 -1.7 -1.7 -1.7 -1.7 -1.7 -1.7 -1.7 -1.7 -1.7 -1.7 -1.7 -1.7 -1.7 -1.7 -1.7 -1.7 -1.7 -1.7 -0.5 0.3 1.1 1.8 7.5 1.9 1.9 1.8 1.8 1.9 1.9 2.5 3 4.8 4.5 3 2.5 2.6 2.5 2.2 2.2 2.6 2.8 3.4 3.8 4 3.6 4.4 4.2 5.1 7 10 12.5 14.4 15 15 12.5
-1.7 -1.7 -1.7 -1.7 -1.7 -1.7 -1.7 -1.7 -1.7 -1.7 -1.7 -1.7 -1.7 -1.7 -1.7 -1.7 -1.7 -1.7 -1.7 -1.7 -1.7 -1.7 -1.7 -1.7 -1.7 -1.7 -1.7 -1.7 -1.7 -1.7 -1.7 71.2 74.6 58.2 45 -1.7 -1.7 -1.7 -1.7 -1.7 -1.7 -1.7 -1.7 -1.7 -1.7 -1.7 -1.7 -1.7 -1.7 -1.7 -1.7 -1.7 -1.7 -1.7 -1.7 -1.7 -1.7 -1.7 -1.7 -1.7 -1.7 -1.7 -1.7 -1.7 -1.7 -1.7 6.8 14.9 12.4 11.9 12.6 -1.7 -1.7 -1.7 -1.7 -1.7 7.4 -1.7 -1.7 -1.7 -1.7 -1.7 -1.7 -1.7 -1.7 -1.7 -1.7 -1.7 -1.7 -1.7 -1.7 -1.7 -1.7 -1.7 -1.7 -1.7 -1.7 -1.7 -1.7 -1.7 -1.7 -1.7 -1.7 -1.7 -1.7 -1.7 -1.7 -1.7 -1.7 -1.7 -1.7 -1.7 -1.7 -1.7 -1.7 -1.7 -1.7 -1.7 -1.7 -1.7 -1.7 -1.7 -1.7 -1.7 -1.7 -1.7 -1.7 -1.7 -1.7 -1.7 -1.7 -1.7 -1.7 -1.7 -1.7 -1.7 -1.7 -1.7 -1.7 -1.7 -1.7 -1.7 -1.7 -1.7 -1.7 -1.7 -1.7 -1.7 -1.7 -1.7 -1.7 -1.7 -1.7 -1.7 -1.7 -1.7 -1.7 -1.7 -1.7 -1.7 -1.7 -1.7 -1.7 -0.8 -0.1 0.6 1.2 1.4 1.2 1 1.1 1.3 1.4 1.5 1.6 1.9 3.2 5.9 3 2.4 2.2 2.2 2.3 2.7 2.7 3.2 3.4 3.7 3.9 4.1 3.9 4.6 5.7 8.8 12.4 14.3 14 12.3 11.1 8.8
-1.7 -1.7 -1.7 -1.7 -1.7 -1.7 -1.7 -1.7 -1.7 -1.7 -1.7 -1.7 -1.7 -1.7 -1.7 -1.7 -1.7 -1.7 -1.7 -1.7 -1.7 -1.7 -1.7 -1.7 -1.7 -1.7 -1.7 -1.7 -1.7 -1.7 -1.7 71 84.4 81.6 67.5 41.9 27.5 -1.7 -1.7 -1.7 -1.7 -1.7 -1.7 -1.7 -1.7 -1.7 -1.7 -1.7 -1.7 -1.7 -1.7 -1.7 -1.7 -1.7 -1.7 -1.7 -1.7 -1.7 -1.7 -1.7 -1.7 -1.7 -1.7 -1.7 -1.7 -1.7 13.2 15.3 16.6 15.1 11.6 -1.7 -1.7 -1.7 -1.7 8.4 -1.7 -1.7 -1.7 -1.7 -1.7 -1.7 -1.7 -1.7 -1.7 -1.7 -1.7 -1.7 -1.7 -1.7 -1.7 -1.7 -1.7 -1.7 -1.7 -1.7 -1.7 -1.7 -1.7 -1.7 -1.7 -1.7 -1.7 -1.7 -1.7 -1.7 -1.7 -1.7 -1.7 -1.7 -1.7 -1.7 -1.7 -1.7 -1.7 -1.7 -1.7 -1.7 -1.7 -1.7 -1.7 -1.7 -1.7 -1.7 -1.7 -1.7 -1.7 -1.7 -1.7 -1.7 -1.7 -1.7 -1.7 -1.7 -1.7 -1.7 -1.7 -1.7 -1.7 -1.7 -1.7 -1.7 -1.7 -1.7 -1.7 -1.7 -1.7 -1.7 -1.7 -1.7 -1.7 -1.7 -1.7 -1.7 -1.7 -1.7 -1.7 -1.7 -1.7 -1.7 -1.7 -1.7 -1.7 -1.7 -0.8 -0.3 0.2 0.4 0.3 0.3 0.5 0.9 0.9 1 1.3 1.6 1.9 5.3 4.1 2.8 2.7 2.1 2.6 2.7 2.9 3.2 2.8 3.1 3.9 4.2 4.1 4.4 6.8 9.6 12.6 14.3 12.7 10.4 8.2 6.6
-1.7 -1.7 -1.7 -1.7 -1.7 -1.7 -1.7 -1.7 -1.7 -1.7 -1.7 -1.7 -1.7 -1.7 -1.7 -1.7 -1.7 -1.7 -1.7 -1.7 -1.7 -1.7 -1.7 -1.7 -1.7 -1.7 -1.7 -1.7 -1.7 -1.7 -1.7 78.7 106.3 99.9 86.1 68.9 59.3 49.1 38.1 36 22.8 44.8 43.8 37.7 35.5 44.4 48.7 25.3 -1.7 -1.7 -1.7 -1.7 -1.7 -1.7 -1.7 -1.7 -1.7 -1.7 -1.7 -1.7 -1.7 -1.7 -1.7 -1.7 8.3 10.4 15 16.5 16.7 14.5 2.9 -1.7 -1.7 -1.7 -1.7 8.3 -1.7 -1.7 -1.7 -1.7 -1.7 -1.7 -1.7 -1.7 -1.7 -1.7 -1.7 -1.7 -1.7 -1.7 -1.7 -1.7 -1.7 -1.7 -1.7 -1.7 -1.7 -1.7 -1.7 -1.7 -1.7 -1.7 -1.7 -1.7 -1.7 -1.7 -1.7 -1.7 -1.7 -1.7 -1.7 -1.7 -1.7 -1.7 -1.7 -1.7 -1.7 -1.7 -1.7 -1.7 -1.7 -1.7 -1.7 -1.7 -1.7 -1.7 -1.7 -1.7 -1.7 -1.7 -1.7 -1.7 -1.7 -1.7 -1.7 -1.7 -1.7 -1.7 -1.7 -1.7 -1.7 -1.7 -1.7 -1.7 -1.7 -1.7 -1.7 -1.7 -1.7 -1.7 -1.7 -1.7 -1.7 -1.7 -1.7 -1.7 -1.7 -1.7 -1.7 -1.7 -1.7 -1.7 -1.7 -1.7 -1.7 -1.2 -0.9 -0.5 -0.6 -0.2 0.1 0.4 0.5 0.7 0.9 1.2 1.6 3.8 4.4 2.7 2.1 2.4 2.7 3.2 2.8 2.5 3.1 2.9 3.2 3.6 4.1 5 7.4 9.7 10.9 12.5 10.7 8.4 6.1 5.2
-1.7 -1.7 -1.7 -1.7 -1.7 -1.7 -1.7 -1.7 -1.7 -1.7 -1.7 -1.7 -1.7 -1.7 -1.7 -1.7 -1.7 -1.7 -1.7 -1.7 -1.7 -1.7 -1.7 -1.7 -1.7 -1.7 -1.7 -1.7 -1.7 -1.7 -1.7 82.4 104.8 104.1 96.1 88.7 94.4 85.3 66.9 58 57.8 60 56.8 55 52.3 57.5 59.1 41.6 -1.7 -1.7 -1.7 -1.7 -1.7 -1.7 -1.7 -1.7 -1.7 -1.7 -1.7 -0.1 -1.7 -1.7 -1.7 10.9 13 14.3 15.2 16.1 14.5 10.4 4 -1.7 -1.7 -1.7 10 -1.7 -1.7 -1.7 -1.7 -1.7 -1.7 -1.7 -1.7 -1.7 -1.7 -1.7 -1.7 -1.7 -1.7 -1.7 -1.7 -1.7 -1.7 -1.7 -1.7 -1.7 -1.7 -1.7 -1.7 -1.7 -1.7 -1.7 -1.7 -1.7 -1.7 -1.7 -1.7 -1.7 -1.7 -1.7 -1.7 -1.7 -1.7 -1.7 -1.7 -1.7 -1.7 -1.7 -1.7 -1.7 -1.7 -1.7 -1.7 -1.7 -1.7 -1.7 -1.7 -1.7 -1.7 -1.7 -1.7 -1.7 -1.7 -1.7 -1.7 -1.7 -1.7 -1.7 -1.7 -1.7 -1.7 -1.7 -1.7 -1.7 -1.7 -1.7 -1.7 -1.7 -1.7 -1.7 -1.7 -1.7 -1.7 -1.7 -1.7 -1.7 -1.7 -1.7 -1.7 -1.7 -1.7 -1.7 -1.7 -1.7 -1.7 -1.7 -1.7 -1.7 -1.1 -0.7 -0.3 -0.1 0 0.3 0.6 1 1.4 1.8 4.6 2.6 2.5 2.6 2.7 2.7 2.7 2.8 3 3.3 3.6 3.9 4.1 5.3 7.3 8.8 9.4 9.1 7.2 5.1 4.5 6.2
-1.7 -1.7 -1.7 -1.7 -1.7 -1.7 -1.7 -1.7 -1.7 -1.7 -1.7 -1.7 -1.7 -1.7 -1.7 -1.7 -1.7 -1.7 -1.7 -1.7 -1.7 -1.7 -1.7 -1.7 -1.7 -1.7 -1.7 -1.7 -1.7 -1.7 -1.7 101.2 116.4 109.5 104.2 106.3 106.4 106.6 95.6 78.6 80.4 77.8 71 71.3 66.3 63.6 68.9 49.5 15.4 -1.7 -1.7 -1.7 -1.7 -1.7 -1.7 -1.7 -1.7 -1.7 -1.7 8.8 -1.7 -1.7 10.1 13.6 15.3 15.6 16.6 19 13.1 10.1 9.3 7.7 6.4 11.6 7.9 -1.7 -1.7 -1.7 -1.7 -1.7 -1.7 -1.7 -1.7 -1.7 -1.7 -1.7 -1.7 -1.7 -1.7 -1.7 -1.7 -1.7 -1.7 -1.7 -1.7 -1.7 -1.7 -1.7 -1.7 -1.7 -1.7 -1.7 -1.7 -1.7 -1.7 -1.7 -1.7 -1.7 -1.7 -1.7 -1.7 -1.7 -1.7 -1.7 -1.7 -1.7 -1.7 -1.7 -1.7 -1.7 -1.7 -1.7 -1.7 -1.7 -1.7 -1.7 -1.7 -1.7 -1.7 -1.7 -1.7 -1.7 -1.7 -1.7 -1.7 -1.7 -1.7 -1.7 -1.7 -1.7 -1.7 -1.7 -1.7 -1.7 -1.7 -1.7 -1.7 -1.7 -1.7 -1.7 -1.7 -1.7 -1.7 -1.7 -1.7 -1.7 -1.7 -1.7 -1.7 -1.7 -1.7 -1.7 -1.7 -1.7 -1.7 -1.7 -1.7 -1.7 -1.7 -1.1 -0.7 -0.5 -0.3 -0.1 0.3 0.7 1.2 1.6 5.1 4.4 4.7 5.2 4.9 4.4 3.5 3.3 4 4.3 4.6 4.9 4.5 5 5.4 6.1 6.2 5.6 4.5 4.2 5.3 6.5
-1.7 -1.7 -1.7 -1.7 -1.7 -1.7 -1.7 -1.7 -1.7 -1.7 -1.7 -1.7 -1.7 -1.7 -1.7 -1.7 -1.7 -1.7 -1.7 -1.7 -1.7 -1.7 -1.7 -1.7 -1.7 -1.7 -1.7 -1.7 -1.7 -1.7 -1.7 98.5 111.8 115.7 117.2 119.6 119.6 116.1 113.7 110.3 92.3 87.4 92.2 85.4 81.2 76.5 39.8 36.8 22.2 -1.7 -1.7 -1.7 -1.7 -1.7 -1.7 -1.7 -1.7 -1.7 14.3 12.6 12 15.7 16.2 16.8 16.3 17.6 19.4 16.8 17.2 12.9 13.5 13.7 15.2 12.5 3.4 -1.7 -1.7 -1.7 -1.7 -1.7 -1.7 -1.7 -1.7 -1.7 -1.7 -1.7 -1.7 -1.7 -1.7 -1.7 -1.7 -1.7 -1.7 -1.7 -1.7 -1.7 -1.7 -1.7 -1.7 -1.7 -1.7 -1.7 -1.7 -1.7 -1.7 -1.7 -1.7 -1.7 -1.7 -1.7 -1.7 -1.7 -1.7 -1.7 -1.7 -1.7 -1.7 -1.7 -1.7 -1.7 -1.7 -1.7 -1.7 -1.7 -1.7 -1.7 -1.7 -1.7 -1.7 -1.7 -1.7 -1.7 -1.7 -1.7 -1.7 -1.7 -1.7 -1.7 -1.7 -1.7 -1.7 -1.7 -1.7 -1.7 -1.7 -1.7 -1.7 -1.7 -1.7 -1.7 -1.7 -1.7 -1.7 -1.7 -1.7 -1.7 -1.7 -1.7 -1.7 -1.7 -1.7 -1.7 -1.7 -1.7 -1.7 -1.7 -1.7 -1.7 -1.7 -1.5 -1.1 -1 -0.7 -0.3 0 0.5 1 1.5 3.3 6.9 7.8 8.4 7.7 5.3 4.1 4.1 4.7 4.6 5.2 5.4 4.2 3.1 4 3.8 4 3.8 4.4 6.1 6.4 7.1
-1.7 -1.7 -1.7 -1.7 -1.7 -1.7 -1.7 -1.7 -1.7 -1.7 -1.7 -1.7 -1.7 -1.7 -1.7 -1.7 -1.7 -1.7 -1.7 -1.7 -1.7 -1.7 -1.7 -1.7 -1.7 -1.7 -1.7 -1.7 -1.7 -1.7 -1.7 93.3 122.6 138.6 139.7 137.9 133.2 128.7 122.5 113.6 100.2 92 95.9 99.4 85.9 78.6 36.5 36.2 30.9 -1.7 -1.7 -1.7 -1.7 -1.7 -1.7 -1.7 1.9 11.1 13.4 19.4 21.4 19 18.2 17.4 17.9 19.7 19.8 18.8 16.3 16.3 15.4 15.3 13.1 10.4 1.8 -1.7 -1.7 -1.7 -1.7 -1.7 -1.7 -1.7 -1.7 -1.7 -1.7 -1.7 -1.7 -1.7 -1.7 -1.7 -1.7 -1.7 -1.7 -1.7 -1.7 -1.7 -1.7 -1.7 -1.7 -1.7 -1.7 -1.7 -1.7 -1.7 -1.7 -1.7 -1.7 -1.7 -1.7 -1.7 -1.7 -1.7 -1.7 -1.7 -1.7 -1.7 -1.7 -1.7 -1.7 -1.7 -1.7 -1.7 -1.7 -1.7 -1.7 -1.7 -1.7 -1.7 -1.7 -1.7 -1.7 -1.7 -1.7 -1.7 -1.7 -1.7 -1.7 -1.7 -1.7 -1.7 -1.7 -1.7 -1.7 -1.7 -1.7 -1.7 -1.7 -1.7 -1.7 -1.7 -1.7 -1.7 -1.7 -1.7 -1.7 -1.7 -1.7 -1.7 -1.7 -1.7 -1.7 -1.7 -1.7 -1.7 -1.7 -1.7 -1.7 -1.7 -1.7 -1.7 -1.7 -1.3 -1 -0.6 -0.2 0.3 0.9 1.4 2.4 10.4 12.1 13.4 12 8.1 6.4 7.5 7 4.2 4.2 4.2 3 2.7 2.9 3.3 3.2 4.6 7.4 8.6 8.7 7.9
-1.7 -1.7 -1.7 -1.7 -1.7 -1.7 -1.7 -1.7 -1.7 -1.7 -1.7 -1.7 -1.7 -1.7 -1.7 -1.7 -1.7 -1.7 -1.7 -1.7 -1.7 -1.7 -1.7 -1.7 -1.7 -1.7 -1.7 -1.7 -1.7 -1.7 -1.7 97.2 130.1 153.9 151.5 144.8 141.5 137 132.5 127.8 110.4 106.7 97.7 94.2 92.4 62.2 37.9 36.3 32.5 17.2 -1.7 -1.7 1.3 1.7 6.2 -1.7 13.7 15.2 20.5 22.4 20.3 19.7 19.3 19.1 19.8 21.2 20.3 18.9 21.6 23.5 17.3 15.9 13 10 1.5 -1.7 -1.7 -1.7 -1.7 -1.7 -1.7 -1.7 -1.7 -1.7 -1.7 -1.7 -1.7 -1.7 -1.7 -1.7 -1.7 -1.7 -1.7 -1.7 -1.7 -1.7 -1.7 -1.7 -1.7 -1.7 -1.7 -1.7 -1.7 -1.7 -1.7 -1.7 -1.7 -1.7 -1.7 -1.7 -1.7 -1.7 -1.7 -1.7 -1.7 -1.7 -1.7 -1.7 -1.7 -1.7 -1.7 -1.7 -1.7 -1.7 -1.7 -1.7 -1.7 -1.7 -1.7 -1.7 -1.7 -1.7 -1.7 -1.7 -1.7 -1.7 -1.7 -1.7 -1.7 -1.7 -1.7 -1.7 -1.7 -1.7 -1.7 -1.7 -1.7 -1.7 -1.7 -1.7 -1.7 -1.7 -1.7 -1.7 -1.7 -1.7 -1.7 -1.7 -1.7 -1.7 -1.7 -1.7 -1.7 -1.7 -1.7 -1.7 -1.7 -1.7 -1.7 -1.7 -1.7 -1.7 -1.3 -0.9 -0.3 0.3 1 1.7 2.6 15.3 16.8 17.4 15.1 11.8 11.3 11.1 7.7 4.7 3.1 3 3.1 2.7 3 3.4 2.8 6 9 10.5 10.9 8.7
-1.7 -1.7 -1.7 -1.7 -1.7 -1.7 -1.7 -1.7 -1.7 -1.7 -1.7 -1.7 -1.7 -1.7 -1.7 -1.7 -1.7 -1.7 -1.7 -1.7 -1.7 -1.7 -1.7 -1.7 -1.7 -1.7 -1.7 -1.7 -1.7 -1.7 -1.7 80.1 129 165.4 162.9 157.5 151.5 145.1 138.4 130.4 117.6 112.8 107.2 93.2 85.6 63.7 37.3 43.6 33.9 27.9 25.2 6.3 19.4 17.2 15.7 21.3 22.6 21.5 22.6 21.8 22.2 21.7 20.9 21.3 21.3 23.2 22 23.2 25.6 24.4 23.6 16.6 11.3 6 1.9 -1.7 -1.7 -1.7 -1.7 -1.7 -1.7 -1.7 -1.7 -1.7 -1.7 -1.7 -1.7 -1.7 -1.7 -1.7 -1.7 -1.7 -1.7 -1.7 -1.7 -1.7 -1.7 -1.7 -1.7 -1.7 -1.7 -1.7 -1.7 -1.7 -1.7 -1.7 -1.7 -1.7 -1.7 -1.7 -1.7 -1.7 -1.7 -1.7 -1.7 -1.7 -1.7 -1.7 -1.7 -1.7 -1.7 -1.7 -1.7 -1.7 -1.7 -1.7 -1.7 -1.7 -1.7 -1.7 -1.7 -1.7 -1.7 -1.7 -1.7 -1.7 -1.7 -1.7 -1.7 -1.7 -1.7 -1.7 -1.7 -1.7 -1.7 -1.7 -1.7 -1.7 -1.7 -1.7 -1.7 -1.7 -1.7 -1.7 -1.7 -1.7 -1.7 -1.7 -1.7 -1.7 -1.7 -1.7 -1.7 -1.7 -1.7 -1.7 -1.7 -1.7 -1.7 -1.7 -1.7 -1.7 -1.7 -0.9 -0.1 0.5 1.2 1.9 14.6 18.2 20.7 22.6 19.1 15.1 14.4 12.2 8.2 3.9 2.9 2.7 2.8 3.5 2.9 3 4.2 6.6 9.9 10.9 9.8 7.8
-1.7 -1.7 -1.7 -1.7 -1.7 -1.7 -1.7 -1.7 -1.7 -1.7 -1.7 -1.7 -1.7 -1.7 -1.7 -1.7 -1.7 -1.7 -1.7 -1.7 -1.7 -1.7 -1.7 -1.7 -1.7 -1.7 -1.7 -1.7 -1.7 -1.7 -1.7 -1.7 135.5 166.2 173.9 165.6 160 152.9 141.6 135.1 128 122.1 114.5 99.6 69.6 70.1 63.4 51.4 42.2 34.3 29.5 26.2 23.1 22.8 21.9 21.6 22 22.9 25.5 26.8 25.6 24.9 22.1 24.8 27.3 23.9 23.1 26.5 25.6 25.3 22.6 12.9 14.4 9.3 7 10.6 -1.7 0.8 -1.7 -1.7 -1.7 4.4 -1.7 -1.7 -1.7 -1.7 -1.7 -1.7 -1.7 -1.7 -1.7 -1.7 -1.7 -1.7 -1.7 -1.7 -1.7 -1.7 -1.7 -1.7 -1.7 -1.7 -1.7 -1.7 -1.7 -1.7 -1.7 -1.7 -1.7 -1.7 -1.7 -1.7 -1.7 -1.7 -1.7 -1.7 -1.7 -1.7 -1.7 -1.7 -1.7 -1.7 -1.7 -1.7 -1.7 -1.7 -1.7 -1.7 -1.7 -1.7 -1.7 -1.7 -1.7 -1.7 -1.7 -1.7 -1.7 -1.7 -1.7 -1.7 -1.7 -1.7 -1.7 -1.7 -1.7 -1.7 -1.7 -1.7 -1.7 -1.7 -1.7 -1.7 -1.7 -1.7 -1.7 -1.7 -1.7 -1.7 -1.7 -1.7 -1.7 -1.7 -1.7 -1.7 -1.7 -1.7 -1.7 -1.7 -1.7 -1.7 -1.7 -1.7 -1.7 -1.1 -0.4 0.4 1.2 3.1 17.3 21.2 24.7 21.9 18.6 15.8 14.6 10 6.1 3.3 2.9 3.1 2.9 2.9 3 3 4.5 6 8.8 8.8 7.1 5.9
-1.7 -1.7 -1.7 -1.7 -1.7 -1.7 -1.7 -1.7 -1.7 -1.7 -1.7 -1.7 -1.7 -1.7 -1.7 -1.7 -1.7 -1.7 -1.7 -1.7 -1.7 -1.7 -1.7 -1.7 -1.7 -1.7 -1.7 -1.7 -1.7 -1.7 -1.7 -1.7 74 160.4 175.6 174.2 159.8 150 147.1 138 136.5 126.6 119.3 120.1 78.2 69.6 67.2 60.3 45.7 45.1 33.8 31.3 27 26.6 23.2 22.3 23.1 24.7 26.3 27.3 25.7 26.7 25.6 27.9 25.2 24.2 28.3 28.3 27 24.6 15.5 16.5 13.3 12.7 15.4 9.9 10.9 1.2 -1.7 -1.7 -1.7 6 5.5 3.6 -1.7 -1.7 -1.7 -1.7 -1.7 -1.7 -1.7 -1.7 -1.7 -1.7 -1.7 -1.7 -1.7 -1.7 -1.7 -1.7 -1.7 -1.7 -1.7 -1.7 -1.7 7 8.1 -1.7 -1.7 -1.7 -1.7 -1.7 -1.7 -1.7 -1.7 -1.7 -1.7 -1.7 -1.7 -1.7 -1.7 -1.7 -1.7 -1.7 -1.7 -1.7 -1.7 -1.7 -1.7 -1.7 -1.7 -1.7 -1.7 -1.7 -1.7 -1.7 -1.7 -1.7 -1.7 -1.7 -1.7 -1.7 -1.7 -1.7 -1.7 -1.7 -1.7 -1.7 -1.7 -1.7 -1.7 -1.7 -1.7 -1.7 -1.7 -1.7 -1.7 -1.7 -1.7 -1.7 -1.7 -1.7 -1.7 -1.7 -1.7 -1.7 -1.7 -1.7 -1.7 -1.7 -1.7 -1.7 -1.7 -1.2 -0.3 0.6 1.5 7.5 18.4 21.1 20.9 17.9 15.9 13.7 11.1 7.5 4.1 3.1 3.7 4 3.2 3 3.6 3.4 3.6 5.3 6.9 5.5 4.9 6.4
-1.7 -1.7 -1.7 -1.7 -1.7 -1.7 -1.7 -1.7 -1.7 -1.7 -1.7 -1.7 -1.7 -1.7 -1.7 -1.7 -1.7 -1.7 -1.7 -1.7 -1.7 -1.7 -1.7 -1.7 -1.7 -1.7 -1.7 -1.7 -1.7 -1.7 -1.7 34 137.1 164.5 171.6 160.7 159.5 154.4 145.7 140.3 139.3 136.3 126.4 118.3 103 89.7 69.1 65.8 37.4 35.3 33.5 31.5 29.3 28.7 29.1 28 26.9 26.8 28 28.1 26.5 27.3 29 27.8 26.9 27.2 30.8 29.3 22.8 19.2 22.4 16.2 17.1 16 15.7 13.9 4.6 -1.7 -1.7 -1.7 4.9 7.2 10.2 7.9 7.5 5 -1.7 -1.7 -1.7 -1.7 -1.7 -1.7 -1.7 -1.7 -1.7 -1.7 -1.7 -1.7 -1.7 -1.7 -1.7 -1.7 -1.7 -1.7 7.3 7.7 6.3 -1.7 -1.7 -1.7 -1.7 -1.7 -1.7 -1.7 -1.7 -1.7 -1.7 -1.7 -1.7 -1.7 -1.7 -1.7 -1.7 -1.7 -1.7 -1.7 -1.7 -1.7 -1.7 -1.7 -1.7 -1.7 -1.7 -1.7 -1.7 -1.7 -1.7 -1.7 -1.7 -1.7 -1.7 -1.7 -1.7 -1.7 -1.7 -1.7 -1.7 -1.7 -1.7 -1.7 -1.7 -1.7 -1.7 -1.7 -1.7 -1.7 -1.7 -1.7 -1.7 -1.7 -1.7 -1.7 -1.7 -1.7 -1.7 -1.7 -1.7 -1.7 -1.7 -1.7 -1.7 -1.7 -1.7 -1.4 -0.5 0.5 1.5 12.1 17.9 17.6 15.7 14.3 12.4 10.4 7.6 4.6 3.9 4.2 4.2 4 4.2 3.1 3.2 4 4.2 5.6 5.6 4.3 5 7.6
-1.7 -1.7 -1.7 -1.7 -1.7 -1.7 -1.7 -1.7 -1.7 -1.7 -1.7 -1.7 -1.7 -1.7 -1.7 -1.7 -1.7 -1.7 -1.7 -1.7 -1.7 -1.7 -1.7 -1.7 -1.7 -1.7 -1.7 -1.7 -1.7 -1.7 -1.7 58.2 134.4 162.4 159.6 164.2 163.9 155.5 149.1 146.7 143.4 141.8 129.8 123.9 112.7 104.2 89.2 80.3 44.9 35.8 33.9 33.1 31.7 29.9 28.4 29.6 28.3 28.2 29.1 28.8 29.7 30.6 30.5 28.6 28.1 30 27.9 23.7 21.3 24 19.4 20.7 20.5 19 14.6 11 -1.7 -1.7 5.7 5.1 9.7 12 12 12.5 11.7 7.7 7.4 5.4 -1.7 -1.7 -1.7 -1.7 -1.7 -1.7 -1.7 -1.7 -1.7 -1.7 -1.7 -1.7 -1.7 -1.7 -1.7 -1.7 7.4 7.6 6.9 5.5 5.3 4.3 -1.7 -1.7 -1.7 -1.7 -1.7 -1.7 -1.7 -1.7 -1.7 -1.7 -1.7 -1.7 -1.7 -1.7 -1.7 -1.7 -1.7 -1.7 -1.7 -1.7 -1.7 -1.7 -1.7 -1.7 -1.7 -1.7 -1.7 -1.7 -1.7 -1.7 -1.7 -1.7 -1.7 -1.7 -1.7 -1.7 -1.7 -1.7 -1.7 -1.7 -1.7 -1.7 -1.7 -1.7 -1.7 -1.7 -1.7 -1.7 -1.7 -1.7 -1.7 -1.7 -1.7 -1.7 -1.7 -1.7 -1.7 -1.7 -1.7 -1.7 -1.7 -1.7 -1.7 -1.7 -0.9 0 0.9 2 14.2 12.4 11.9 10.8 9.2 6.9 4.5 3.8 4.5 4.1 4.6 4.4 4.4 4.7 4.8 5.4 6.2 5.9 4.2 3.8 5.3 6.6
-1.7 -1.7 -1.7 -1.7 -1.7 -1.7 -1.7 -1.7 -1.7 -1.7 -1.7 -1.7 -1.7 -1.7 -1.7 -1.7 -1.7 -1.7 -1.7 -1.7 -1.7 -1.7 -1.7 -1.7 -1.7 -1.7 -1.7 -1.7 -1.7 -1.7 -1.7 85.9 138.6 151.2 154.6 160.1 160.8 162.3 167.6 163.7 156.7 150.3 135.9 128.3 120.4 110.2 101.8 77.6 39.5 36.1 39.7 32.3 31.9 31.2 30.7 31.2 33.4 32 32.4 32.3 33.6 32.5 31.5 29.7 28.1 27.7 28.2 27.2 21.5 20.5 22.2 20.9 22.6 13.2 10.2 6 6.3 9.5 8 11.8 14.3 17.4 16.3 15.3 15.3 13.9 12.8 12 8.7 7.5 4.3 2.6 4.6 4.3 -1.7 -1.7 -1.7 -1.7 -1.7 -1.7 -1.7 -1.7 -1.7 -1.7 7.4 7.5 5.9 5 4.7 4.4 -1.7 -1.7 -1.7 -1.7 -1.7 -1.7 -1.7 -1.7 -1.7 -1.7 -1.7 -1.7 -1.7 -1.7 -1.7 -1.7 -1.7 -1.7 -1.7 -1.7 -1.7 -1.7 -1.7 -1.7 -1.7 -1.7 -1.7 -1.7 -1.7 -1.7 -1.7 -1.7 -1.7 -1.7 -1.7 -1.7 -1.7 -1.7 -1.7 -1.7 -1.7 -1.7 -1.7 -1.7 -1.7 -1.7 -1.7 -1.7 -1.7 -1.7 -1.7 -1.7 -1.7 -1.7 -1.7 -1.7 -1.7 -1.7 -1.7 -1.7 -1.7 -1.7 -1.7 -1.7 -1.7 -0.8 0.1 1.2 1.5 1.6 2.2 3.6 4.4 2.4 1.9 2.6 4.5 4.5 4.8 4.9 4.9 4.8 5.8 6.6 7.1 5 3.9 3.6 4 4.3
-1.7 -1.7 -1.7 -1.7 -1.7 -1.7 -1.7 -1.7 -1.7 -1.7 -1.7 -1.7 -1.7 -1.7 -1.7 -1.7 -1.7 -1.7 -1.7 -1.7 -1.7 -1.7 -1.7 -1.7 -1.7 -1.7 -1.7 -1.7 -1.7 -1.7 70.6 97.6 127.5 149 160.3 159.8 163 169.7 167.7 165.6 164.8 163.7 146.5 133.6 136.5 124.8 116.1 113.8 85.2 56.1 55.9 84.1 33 31.5 31.7 35.1 32.6 33.4 39.8 38.7 37.5 34.9 32.8 29.6 27.6 30.2 28.2 23.5 20.4 20.5 21.6 21.4 19.1 14 10.9 11.2 12.5 12.8 12.2 10.7 17.6 20.8 19.2 18.9 19.7 18 15.4 15.4 13.6 12.7 11.8 11 9.9 9.3 9.7 -1.7 -1.7 -1.7 -1.7 -1.7 -1.7 -1.7 -1.7 -1.7 7.5 6.9 5.5 4.9 4.6 -1.7 -1.7 -1.7 -1.7 -1.7 -1.7 -1.7 -1.7 -1.7 -1.7 -1.7 -1.7 -1.7 -1.7 -1.7 -1.7 -1.7 -1.7 -1.7 -1.7 -1.7 -1.7 -1.7 -1.7 -1.7 -1.7 -1.7 -1.7 -1.7 -1.7 -1.7 -1.7 -1.7 -1.7 -1.7 -1.7 -1.7 -1.7 -1.7 -1.7 -1.7 -1.7 -1.7 -1.7 -1.7 -1.7 -1.7 -1.7 -1.7 -1.7 -1.7 -1.7 -1.7 -1.7 -1.7 -1.7 -1.7 -1.7 -1.7 -1.7 -1.7 -1.7 -1.7 -1.7 -1.7 -1.7 -1.7 -0.7 0.1 0.4 0.9 1.2 1.3 1.7 1.9 1.9 1.9 2 4.6 5.1 4.9 5.4 5.1 5.6 7.3 6.4 4.1 3.6 3.5 3.6 3.9
-1.7 -1.7 -1.7 -1.7 -1.7 -1.7 -1.7 -1.7 -1.7 -1.7 -1.7 -1.7 -1.7 -1.7 -1.7 -1.7 -1.7 -1.7 -1.7 -1.7 -1.7 -1.7 -1.7 -1.7 -1.7 -1.7 -1.7 -1.7 -1.7 59.6 85 100 113.1 152.8 166.4 164.3 170.2 175 173.9 173.3 170.2 163.4 152 143 141.8 134.8 124.9 128 123.1 115 108.9 94.5 85.3 35.1 35.2 31.5 49.4 34.4 34.1 43.2 39.9 35.7 33 29.2 27 25.9 24.5 23.9 21 20.4 18.8 13.9 10.6 12.9 13 12 14 14.6 12.5 15.5 19 20.5 21.6 22.9 21.6 21.3 20.5 19.8 17.2 15.3 15.6 14.7 13 11.5 11.3 10.3 4.8 -1.7 -1.7 -1.7 -1.7 -1.7 -1.7 4.8 6.1 6 5.9 5.5 5.3 -1.7 -1.7 -1.7 -1.7 -1.7 -1.7 -1.7 -1.7 -1.7 -1.7 -1.7 -1.7 -1.7 -1.7 -1.7 -1.7 -1.7 -1.7 -1.7 -1.7 -1.7 -1.7 -1.7 -1.7 -1.7 -1.7 -1.7 -1.7 -1.7 -1.7 -1.7 -1.7 -1.7 -1.7 -1.7 -1.7 -1.7 -1.7 -1.7 -1.7 -1.7 -1.7 -1.7 -1.7 -1.7 -1.7 -1.7 -1.7 -1.7 -1.7 -1.7 -1.7 -1.7 -1.7 -1.7 -1.7 -1.7 -1.7 -1.7 -1.7 -1.7 -1.7 -1.7 -1.7 -1.7 -1.7 -1.7 -1.7 -0.7 -0.3 0.2 0.5 1.1 1.3 1.5 1.7 1.9 1.9 3.6 4.8 5.1 5.2 5.2 5.6 6.6 5.6 4.3 3.7 4.1 4.1 4.1
-1.7 -1.7 -1.7 -1.7 -1.7 -1.7 -1.7 -1.7 -1.7 -1.7 -1.7 -1.7 -1.7 -1.7 -1.7 -1.7 -1.7 -1.7 -1.7 -1.7 -1.7 -1.7 -1.7 -1.7 -1.7 -1.7 -1.7 -1.7 -1.7 69.8 91.3 107.2 118.9 153.2 172.6 173 176 191.9 188.1 181.2 178 163.7 151 152.4 150.1 140.9 130.7 132 128.1 123.4 115.8 105 92.8 77.1 61.9 66.3 56.3 52.5 36.5 47.1 44.5 38.9 33.4 30.6 28.3 24.7 23.7 20.3 20.6 20.9 15.1 13.2 13.1 12.4 11.8 12.5 17.6 18.4 16.6 18.4 21.6 22.4 26 24.8 24.3 23.1 23.2 22.6 20.1 19.5 19.4 17.5 16.4 15.5 13.8 9.8 6 1.9 5.7 -1.7 -1.7 -1.7 3.6 5.6 5 5.3 5.5 5.7 -1.7 -1.7 -1.7 -1.7 -1.7 -1.7 -1.7 -1.7 -1.7 -1.7 -1.7 -1.7 -1.7 -1.7 -1.7 -1.7 -1.7 -1.7 -1.7 -1.7 -1.7 -1.7 -1.7 -1.7 -1.7 -1.7 -1.7 -1.7 -1.7 -1.7 -1.7 -1.7 -1.7 -1.7 -1.7 -1.7 -1.7 -1.7 -1.7 -1.7 -1.7 -1.7 -1.7 -1.7 -1.7 -1.7 -1.7 -1.7 -1.7 -1.7 -1.7 -1.7 -1.7 -1.7 -1.7 -1.7 -1.7 -1.7 -1.7 -1.7 -1.7 -1.7 -1.7 -1.7 -1.7 -1.7 -1.7 -1.7 -1.7 -1.7 -0.9 -0.3 0.4 0.8 1 1.2 1.3 1.5 1.7 1.9 5.8 5.2 4.6 4.6 5.8 4.7 5.1 5.6 4.5 4.4 4.3 4.4
-1.7 -1.7 -1.7 -1.7 -1.7 -1.7 -1.7 -1.7 -1.7 -1.7 -1.7 -1.7 -1.7 -1.7 -1.7 -1.7 -1.7 -1.7 -1.7 -1.7 -1.7 -1.7 -1.7 -1.7 -1.7 -1.7 -1.7 -1.7 61.8 88.4 104.7 117.4 131.6 150.6 172.2 185 204.1 205.1 189.4 183.5 178.8 163.1 156.8 154.8 152.6 142.2 135.8 135 132 126.1 118.6 109.4 96.9 81.2 73.5 68 61.4 53 37.9 50.4 46.7 41 34.9 31.8 28.9 25.1 21 19 21.8 15 15.9 13.8 16.9 12.8 15.6 18.7 20.7 20.5 17.4 23.8 26.2 26.6 29.2 29.4 27.2 25.4 26.9 24.5 22.1 22.3 20.8 19.3 17 14.6 12.3 11.5 9.3 7.1 4.9 -1.7 -1.7 -1.7 5.7 5.6 4.7 4.7 4.9 5 -1.7 -1.7 -1.7 -1.7 -1.7 -1.7 -1.7 -1.7 -1.7 -1.7 -1.7 -1.7 -1.7 -1.7 -1.7 -1.7 -1.7 -1.7 -1.7 -1.7 -1.7 -1.7 -1.7 -1.7 -1.7 -1.7 -1.7 -1.7 -1.7 -1.7 -1.7 -1.7 -1.7 -1.7 -1.7 -1.7 -1.7 -1.7 -1.7 -1.7 -1.7 -1.7 -1.7 -1.7 -1.7 -1.7 -1.7 -1.7 -1.7 -1.7 -1.7 -1.7 -1.7 -1.7 -1.7 -1.7 -1.7 -1.7 -1.7 -1.7 -1.7 -1.7 -1.7 -1.7 -1.7 -1.7 -1.7 -1.7 -1.7 -1.7 -1.1 -0.4 0.1 0.4 0.6 0.8 1 1.2 1.4 1.7 2.8 4.3 4 4.2 4.9 4.5 6 6.5 6.8 7 5.8 4.2
-1.7 -1.7 -1.7 -1.7 -1.7 -1.7 -1.7 -1.7 -1.7 -1.7 -1.7 -1.7 -1.7 -1.7 -1.7 -1.7 -1.7 -1.7 -1.7 -1.7 -1.7 -1.7 -1.7 -1.7 -1.7 -1.7 -1.7 60.9 87.2 100.3 116.7 127.6 139 147.4 171.6 197.3 211.3 212.4 191.8 185.8 177.9 160.6 159.1 157.1 148.9 143.6 140.6 133.5 131.6 125.5 116.2 108 93.6 80.8 71.9 65.5 61 54 51 49.5 45.4 40.5 34.4 32.1 29 25.3 20.8 16.9 14.5 16.9 18.6 17.9 20.3 22.4 18.6 24.2 24.3 20.1 20.7 27.3 29.4 30.2 32.2 30.4 28.3 27.5 27.6 24.8 24.3 22.6 22 19.9 16.4 13.6 11.3 9.8 9 8.3 8.4 -1.7 -1.7 -1.7 5 5 4.8 4.4 4.9 5.1 -1.7 -1.7 -1.7 -1.7 -1.7 -1.7 -1.7 -1.7 -1.7 -1.7 -1.7 -1.7 -1.7 -1.7 -1.7 -1.7 -1.7 -1.7 -1.7 -1.7 -1.7 -1.7 -1.7 -1.7 -1.7 -1.7 -1.7 -1.7 -1.7 -1.7 -1.7 -1.7 -1.7 -1.7 -1.7 -1.7 -1.7 -1.7 -1.7 -1.7 -1.7 -1.7 -1.7 -1.7 -1.7 -1.7 -1.7 -1.7 -1.7 -1.7 -1.7 -1.7 -1.7 -1.7 -1.7 -1.7 -1.7 -1.7 -1.7 -1.7 -1.7 -1.7 -1.7 -1.7 -1.7 -1.7 -1.7 -1.7 -1.7 -1.7 -1.2 -0.7 -0.2 0.1 0.3 0.4 0.6 0.8 1.2 1.5 1.9 4.2 3.6 3.7 3.9 5.6 7.5 9.3 10.7 10.8 9.1 6.6
-1.7 -1.7 -1.7 -1.7 -1.7 -1.7 -1.7 -1.7 -1.7 -1.7 -1.7 -1.7 -1.7 -1.7 -1.7 -1.7 -1.7 -1.7 -1.7 -1.7 -1.7 -1.7 -1.7 -1.7 -1.7 -1.7 -1.7 44.3 96.9 115.3 131.8 138 144.6 144.5 167 203.4 214.8 213.6 197.3 183.6 174 158.5 158.4 154.5 149.4 147.3 141.8 129.5 123.2 115.6 108.9 102.6 90.8 78.5 72.7 65.3 60.2 54.8 49.5 46.6 45 37.1 34.2 31.2 29.4 23 19.6 16.7 14.8 18.3 17.2 18.5 23.6 25 24.4 26.1 23.7 24.4 22.9 29.6 30.7 31.9 35.1 34.6 29.5 28.3 27.1 25.9 24.4 24.9 21.6 19.7 16.1 12.5 8.5 8.5 6.8 6.7 6.2 6.2 4.5 1.7 -1.7 -1.7 4 4.4 4.6 4.8 -1.7 -1.7 -1.7 -1.7 -1.7 -1.7 -1.7 -1.7 -1.7 -1.7 -1.7 -1.7 -1.7 -1.7 -1.7 -1.7 -1.7 -1.7 -1.7 -1.7 -1.7 -1.7 -1.7 -1.7 -1.7 -1.7 -1.7 -1.7 -1.7 -1.7 -1.7 -1.7 -1.7 -1.7 -1.7 -1.7 -1.7 -1.7 -1.7 -1.7 -1.7 -1.7 -1.7 -1.7 -1.7 -1.7 -1.7 -1.7 -1.7 -1.7 -1.7 -1.7 -1.7 -1.7 -1.7 -1.7 -1.7 -1.7 -1.7 -1.7 -1.7 -1.7 -1.7 -1.7 -1.7 -1.7 -1.7 -1.7 -1.7 -1.7 -1.5 -1 -0.5 -0.3 -0.1 0.1 0.3 0.7 1 1.4 1.8 5.9 3.5 4 4.6 6.7 8.8 10.8 11.9 12.4 12.3 8.8
-1.7 -1.7 -1.7 -1.7 -1.7 -1.7 -1.7 -1.7 -1.7 -1.7 -1.7 -1.7 -1.7 -1.7 -1.7 -1.7 -1.7 -1.7 -1.7 -1.7 -1.7 -1.7 -1.7 -1.7 -1.7 23.2 77.3 84.8 106.6 131.2 138.2 141.9 141 140.8 150.7 187.5 207.4 204.6 197.4 183.7 170.5 156.2 154.9 152.2 150.3 147.4 137.8 125.9 114.9 103.1 100 94.1 88.4 76.8 71.8 64.2 60.6 52 47.9 44.5 41.4 39.3 35.2 29.2 23.9 21.6 18.7 16.3 15.9 18.8 24 25.3 25.4 23.5 22.9 25.2 27.4 24.4 23.5 29.3 33.8 34.2 36.6 32.9 29.9 27.6 26.5 26.9 26.4 25.3 22.6 18.9 15 11.7 7.8 7.4 4.5 4 4.1 3.8 1 -1.7 -1.7 -1.7 -1.7 1.4 1.3 1.5 1.9 1.9 1.9 -1.7 -1.7 -1.7 -1.7 -1.7 -1.7 -1.7 -1.7 -1.7 -1.7 -1.7 -1.7 -1.7 -1.7 -1.7 -1.7 -1.7 -1.7 -1.7 -1.7 -1.7 -1.7 -1.7 -1.7 -1.7 -1.7 -1.7 -1.7 -1.7 -1.7 -1.7 -1.7 -1.7 -1.7 -1.7 -1.7 -1.7 -1.7 -1.7 -1.7 -1.7 -1.7 -1.7 -1.7 -1.7 -1.7 -1.7 -1.7 -1.7 -1.7 -1.7 -1.7 -1.7 -1.7 -1.7 -1.7 -1.7 -1.7 -1.7 -1.7 -1.7 -1.7 -1.7 -1.7 -1.7 -1.7 -1.7 -1.7 -1.3 -0.9 -0.7 -0.5 -0.2 0.2 0.6 0.9 1.3 1.7 4.4 3.8 3.6 4.4 6.4 9 11.3 10.8 12.3 13.2 9.1
-1.7 -1.7 -1.7 -1.7 -1.7 -1.7 -1.7 -1.7 -1.7 -1.7 -1.7 -1.7 -1.7 -1.7 -1.7 -1.7 -1.7 -1.7 -1.7 -1.7 -1.7 -1.7 -1.7 -1.7 41.7 65 101.1 129.7 141.2 141.3 140.6 141 141.8 140.9 137.7 154 189.4 198.6 196.7 182.1 161.9 155.5 149.2 144.9 139.7 134.4 131.7 120.3 105.7 100.2 97.2 95.8 86 76.9 69.7 63 56.9 49.9 47.2 43.1 39.9 38.5 29.3 26.4 22.2 19.9 17.5 15.9 16.3 19.8 26.2 24.4 26.8 23.4 22.5 25.2 27.2 24.8 27.8 33 33.4 37.5 35.9 33.8 29.8 28.5 29.2 28.3 27.5 25.3 21.2 18.1 15.8 12.6 7 5.6 3.8 3.6 4.3 1.4 -1.7 -1.7 -1.7 -1.7 -1.7 -1.7 -1.7 -1.7 -1.7 -1.7 -1.7 -1.7 -1.7 -1.7 -1.7 -1.7 -1.7 -1.7 -1.7 -1.7 -1.7 -1.7 -1.7 -1.7 -1.7 -1.7 -1.7 -1.7 -1.7 -1.7 -1.7 -1.7 -1.7 -1.7 -1.7 -1.7 -1.7 -1.7 -1.7 -1.7 -1.7 -1.7 -1.7 -1.7 -1.7 -1.7 -1.7 -1.7 -1.7 -1.7 -1.7 -1.7 -1.7 -1.7 -1.7 -1.7 -1.7 -1.7 -1.7 -1.7 -1.7 -1.7 -1.7 -1.7 -1.7 -1.7 -1.7 -1.7 -1.7 -1.7 -1.7 -1.7 -1.7 -1.7 -1.7 -1.7 -1.7 -1.7 -1.7 -1.7 -1.2 -1 -0.6 -0.3 0.1 0.5 0.9 1.3 1.6 3.3 4.3 3.4 3.9 5.5 9.2 10.5 10.3 12.5 12 9.1
-1.7 -1.7 -1.7 -1.7 -1.7 -1.7 -1.7 -1.7 -1.7 -1.7 -1.7 -1.7 -1.7 -1.7 -1.7 -1.7 -1.7 -1.7 -1.7 1.5 -1.7 -1.7 -1.7 -1.7 56.5 101 124 149.5 160.8 137.4 137.6 145.3 148.1 132.2 123.5 131.2 174.7 191.5 190.1 172.8 156.9 147.1 142.2 138.4 133.3 125.1 119.5 117.5 105.5 96.8 92.7 87.9 78.9 70.7 67.2 60.5 53.9 49.9 47.2 45.8 38.1 32.6 27.6 24.6 22.2 19.5 18.5 17.5 18 20.9 23.9 24.7 23.3 22.4 23 23.4 23.7 24.8 26 29.8 36.6 37 35.2 31.1 28.5 29.1 29.4 29.5 28.5 25.3 23.2 18.8 18.4 12.5 9.9 5.7 3.4 3.8 4.6 -1.7 -1.7 -1.7 -1.7 -1.7 -1.7 -1.4 -1.7 -1.7 -1.7 -1.7 -1.7 -1.7 -1.7 -1.7 -1.7 -1.7 -1.7 -1.7 -1.7 -1.7 -1.7 -1.7 -1.7 -1.7 -1.7 -1.7 -1.7 -1.7 -1.7 -1.7 -1.7 -1.7 -1.7 -1.7 -1.7 -1.7 -1.7 -1.7 -1.7 -1.7 -1.7 -1.7 -1.7 -1.7 -1.7 -1.7 -1.7 -1.7 -1.7 -1.7 -1.7 -1.7 -1.7 -1.7 -1.7 -1.7 -1.7 -1.7 -1.7 -1.7 -1.7 -1.7 -1.7 -1.7 -1.7 -1.7 -1.7 -1.7 -1.7 -1.7 -1.7 -1.7 -1.7 -1.7 -1.7 -1.7 -1.7 -1.7 -1.7 -1.7 -1.5 -1.2 -0.8 -0.4 0 0.4 0.8 1.2 1.6 2.9 3.9 4.5 4.5 6.8 9.3 10.5 12.2 13.1 11.1 8.7
-1.7 -1.7 -1.7 -1.7 -1.7 -1.7 -1.7 -1.7 -1.7 -1.7 -1.7 -1.7 -1.7 -1.7 1.9 -1.7 -1.7 -1.7 -1.7 52.3 -1.7 -1.7 -1.7 -1.7 49.6 91 131.4 156.9 142.3 133.7 135.6 145.2 137.9 122.7 115.9 118.4 134.7 164.3 169.9 154 148.2 141.2 133.9 125.1 117.4 114.7 112.9 108.4 99.2 94.6 89.3 81.5 72.2 68.6 63.3 57.6 53.1 50.7 47.2 44.9 34.3 29.8 26.8 23.9 21.5 21.6 21.6 18.9 20.1 23.1 25.3 23.7 23.5 23.3 24.5 24.4 25.9 26 26.3 28.4 31.6 35.2 33.4 30.4 29.7 30.9 30.4 29.4 27.3 25.4 24.2 21.1 16.4 11.8 8.4 4.6 3.9 4.4 3.2 -1.7 -1.7 -1.7 -1.7 -1.7 -1.7 4.6 -1.7 -1.7 -1.7 -1.7 -1.7 -1.7 -1.7 -1.7 -1.7 -1.7 -1.7 -1.7 -1.7 -1.7 -1.7 -1.7 -1.7 -1.7 -1.7 -1.7 -1.7 -1.7 -1.7 -1.7 -1.7 -1.7 -1.7 -1.7 -1.7 -1.7 -1.7 -1.7 -1.7 -1.7 -1.7 -1.7 -1.7 -1.7 -1.7 -1.7 -1.7 -1.7 -1.7 -1.7 -1.7 -1.7 -1.7 -1.7 -1.7 -1.7 -1.7 -1.7 -1.7 -1.7 -1.7 -1.7 -1.7 -1.7 -1.7 -1.7 -1.7 -1.7 -1.7 -1.7 -1.7 -1.7 -1.7 -1.7 -1.7 -1.7 -1.7 -1.7 -1.7 -1.7 -1.7 -1.2 -0.8 -0.4 0 0.4 0.8 1.2 1.6 2.4 4.7 3.7 5.8 7.5 8.1 9.1 12.3 10 9.4 10.9
-1.7 -1.7 -1.7 -1.7 -1.7 -1.7 -1.7 -1.7 -1.7 -1.7 -1.7 -1.7 -1.7 -1.7 28.4 -1.7 -1.7 63.4 76.2 78 76.4 78.3 65.1 59.6 99.2 110.3 137.6 142.6 131.8 131.8 135.8 132.9 123.5 119.5 112.9 113.8 120.5 130.9 152.7 143.1 137.6 129.4 118.8 117 111.1 106.3 101.7 100.5 97.5 92.3 85.9 74.6 68.5 64 58.2 55.5 52.2 50.6 43.2 36.8 31.5 27.7 26.2 25.1 22.6 21.1 22.9 21.6 22.2 24.9 24 23.3 23.3 24.3 25.1 26.6 29 29.7 28.7 27.9 30.5 31.5 30.2 30.4 31.9 31.8 30.2 29.3 28.2 26.2 24.3 21 17.1 11.9 8.8 5.8 4.5 4.5 -1.7 -1.7 -1.7 -1.7 -1.7 -1.7 4.7 4.5 -1.7 -1.7 -1.7 -1.7 -1.7 -1.7 -1.7 -1.7 -1.7 -1.7 -1.7 -1.7 -1.7 -1.7 -1.7 -1.7 -1.7 -1.7 -1.7 -1.7 -1.7 -1.7 -1.7 -1.7 -1.7 -1.7 -1.7 -1.7 -1.7 -1.7 -1.7 -1.7 -1.7 -1.7 -1.7 -1.7 -1.7 -1.7 -1.7 -1.7 -1.7 -1.7 -1.7 -1.7 -1.7 -1.7 -1.7 -1.7 -1.7 -1.7 -1.7 -1.7 -1.7 -1.7 -1.7 -1.7 -1.7 -1.7 -1.7 -1.7 -1.7 -1.7 -1.7 -1.7 -1.7 -1.7 -1.7 -1.7 -1.7 -1.7 -1.7 -1.7 -1.7 -1.7 -1.7 -1.3 -0.9 -0.5 -0.1 0.3 0.7 1.1 1.6 2.8 3.6 4.1 5 5.8 5.8 7 8.2 7.9 11.6 14.1
-1.7 -1.7 -1.7 -1.7 -1.7 -1.7 -1.7 -1.7 -1.7 -1.7 -1.7 -1.7 -1.7 42 55.9 70.4 86.2 93.2 104.5 100.8 100.9 104.8 100.5 99 108 126.6 132 127.4 125.2 128.3 128.2 121.7 118.2 115.6 112 107.4 106.9 112.4 132.6 131.1 122.1 113.9 107.9 110.3 101.3 94.6 100.7 100.2 95.9 78.8 77.5 69.1 68.7 59.3 58.4 50.7 54 42.5 39.8 33.9 29.4 27.8 27.4 25.1 23.2 23.5 23.2 22.9 23.7 25 23.9 23.7 24.4 25.5 26.7 26.4 28.6 29.9 30.2 30.6 31.1 31.4 30.4 32.4 32.2 32.4 31.2 28.9 28.6 27 25.2 22.5 18.6 12.1 10.5 3.9 4.2 -1.7 -1.7 -1.7 -1.7 -1.7 -1.7 4.7 4.7 4.7 6.5 3.3 -1.7 -1.7 -1.7 -1.7 -1.7 -1.7 -1.7 -1.7 -1.7 -1.7 -1.7 -1.7 -1.7 -1.7 -1.7 -1.7 -1.7 -1.7 -1.7 -1.7 -1.7 -1.7 -1.7 -1.7 -1.7 -1.7 -1.7 -1.7 -1.7 -1.7 -1.7 -1.7 -1.7 -1.7 -1.7 -1.7 -1.7 -1.7 -1.7 -1.7 -1.7 -1.7 -1.7 -1.7 -1.7 -1.7 -1.7 -1.7 -1.7 -1.7 -1.7 -1.7 -1.7 -1.7 -1.7 -1.7 -1.7 -1.7 -1.7 -1.7 -1.7 -1.7 -1.7 -1.7 -1.7 -1.7 -1.7 -1.7 -1.7 -1.7 -1.7 -1.7 -1.7 -1.4 -1 -0.6 -0.2 0.2 0.7 1.1 1.6 3.2 3.7 3.5 3.4 4.3 4.1 5.5 5.2 8.3 13.8 16.8
-1.7 -1.7 -1.7 -1.7 -1.7 -1.7 -1.7 -1.7 -1.7 -1.7 -1.7 -1.7 -1.7 62.9 87.6 103.5 119.1 120.5 128.2 122.6 121.5 118.8 114.8 117 124.9 130.8 125.5 121.7 119.6 121.2 121.7 117.6 114.8 114.3 112 102.2 101.9 101.8 123.7 126.8 111.9 107.4 105.7 102.5 92.3 88.7 92.7 98.6 91.5 78.1 74.3 68.5 61.4 56.1 50.8 52 50.2 39.1 34.2 31.9 29.5 30.2 27.2 26.2 26.9 22.8 23.1 25.8 25.7 26.8 26.4 25.6 26.6 28.3 29.5 29 28.2 29.6 29.6 31.5 32.8 31.3 31.5 32.4 32.6 31.8 31.4 30.2 30.6 28.3 25.2 21.3 16.7 12.7 8 4.3 -1.7 -1.7 -1.7 -1.7 -1.7 -1.7 3.5 4.5 4.6 13.3 12.7 10.7 4.5 3.7 -1.7 -1.7 -1.7 -1.7 -1.7 -1.7 -1.7 -1.7 -1.7 -1.7 -1.7 -1.7 -1.7 -1.7 -1.7 -1.7 -1.7 -1.7 -1.7 -1.7 -1.7 -1.7 -1.7 -1.7 -1.7 -1.7 -1.7 -1.7 -1.7 -1.7 -1.7 -1.7 -1.7 -1.7 -1.7 -1.7 -1.7 -1.7 -1.7 -1.7 -1.7 -1.7 -1.7 -1.7 -1.7 -1.7 -1.7 -1.7 -1.7 -1.7 -1.7 -1.7 -1.7 -1.7 -1.7 -1.7 -1.7 -1.7 -1.7 -1.7 -1.7 -1.7 -1.7 -1.7 -1.7 -1.7 -1.7 -1.7 -1.7 -1.7 -1.7 -1.7 -1.1 -0.6 -0.2 0.3 0.7 1.2 1.7 5 3.3 3.4 3.3 4 3.7 3.6 5.4 9.6 14.8 17.8
-1.7 -1.7 -1.7 -1.7 -1.7 -1.7 -1.7 -1.7 -1.7 -1.7 -1.7 -1.7 60.5 95.7 127.1 125 129.4 133.7 129.7 123.1 123.9 125.6 128.4 130.5 130.3 128.3 124.7 119.4 116.2 115 115 117 114.3 114.3 104.5 98.4 94.8 96.3 108.7 116.6 108.1 104.7 100.3 97.2 85.9 90.9 92 87.9 79.1 72 69 60.1 56.4 51.6 51.5 52.5 38.5 34.9 33.7 32.9 33.5 29.1 26.6 29.8 32.8 30.8 23.2 27.5 30 28.6 27.9 27.6 29 30.5 31.8 31.1 28.8 28.9 29.6 30.7 31.1 33.8 33.1 33.2 33.1 33.5 32.9 33.7 31.2 28.3 23.9 19.5 16.4 11.4 4 3.8 -1.7 -1.7 -1.7 -1.7 -1.7 2.8 3.9 4.2 12.8 13.1 14.2 12.5 7.6 2.8 -0.2 -1.7 -1.7 -1.7 -1.7 -1.7 -1.7 -1.7 -1.7 -1.7 -1.7 -1.7 -1.7 -1.7 -1.7 -1.7 -1.7 -1.7 -1.7 -1.7 -1.7 -1.7 -1.7 -1.7 -1.7 -1.7 -1.7 -1.7 -1.7 -1.7 -1.7 -1.7 -1.7 -1.7 -1.7 -1.7 -1.7 -1.7 -1.7 -1.7 -1.7 -1.7 -1.7 -1.7 -1.7 -1.7 -1.7 -1.7 -1.7 -1.7 -1.7 -1.7 -1.7 -1.7 -1.7 -1.7 -1.7 -1.7 -1.7 -1.7 -1.7 -1.7 -1.7 -1.7 -1.7 -1.7 -1.7 -1.7 -1.7 -1.7 -1.7 -1.7 -1.1 -0.6 -0.2 0.3 0.8 1.3 1.8 4.7 2.9 3.2 3.7 3.9 3.5 3.1 7 10.7 14 17.4
-1.7 -1.7 -1.7 -1.7 -1.7 -1.7 -1.7 -1.7 -1.7 -1.7 -1.7 61.4 85.4 122.9 130.6 137.9 134.8 125.9 122.2 122.4 130.9 135.3 132.8 131.5 130.5 129.7 123.1 118.9 115.8 111.5 110.2 117.3 113.8 107.3 99.2 91.4 88.8 91.6 103.3 111 105.2 104.7 95.9 92.8 81.9 82.9 86.2 80.3 67.1 64.4 59.9 44.5 43.4 40.6 42.9 37.1 35.3 32.6 33.8 33.7 32.1 30 27.3 31.1 32.1 31.5 30.3 27.1 29.8 28.2 28.7 31.9 31.7 32.5 33.8 31.5 29.7 28.3 30.4 30.7 34.1 30.9 33.3 33.7 33.3 34 34.2 35 31.8 27.8 24.4 20.7 14.6 7.3 4.3 -1.7 -1.7 -1.7 -1.7 -1.7 -1.7 3.4 4.4 11.1 12.5 14.4 15.2 14.3 11.8 9 1.8 1.6 0.2 0.2 1.4 0.3 -1.7 -1.7 -1.7 -1.7 -1.7 -1.7 -1.7 -1.7 -1.7 -1.7 -1.7 -1.7 -1.7 -1.7 -1.7 -1.7 -1.7 -1.7 -1.7 -1.7 -1.7 -1.7 -1.7 -1.7 -1.7 -1.7 -1.7 -1.7 -1.7 -1.7 -1.7 -1.7 -1.7 -1.7 -1.7 -1.7 -1.7 -1.7 -1.7 -1.7 -1.7 -1.7 -1.7 -1.7 -1.7 -1.7 -1.7 -1.7 -1.7 -1.7 -1.7 -1.7 -1.7 -1.7 -1.7 -1.7 -1.7 -1.7 -1.7 -1.7 -1.7 -1.7 -1.7 -1.7 -1.7 -1.7 -1.1 -0.6 -0.1 0.4 0.9 1.4 1.9 4.8 3.2 3.5 4 3.6 2.9 3.1 6.4 9.9 13.4 17.3
-1.7 -1.7 -1.7 -1.7 -1.7 -1.7 -1.7 -1.7 -1.7 -1.7 59.3 85.8 117.9 136.3 136.4 134 126.1 122.2 122.1 133.2 136.6 132.7 129.6 129.1 129.2 130.4 124.2 120.2 115.1 110.7 107.2 111.8 111.8 100.2 91.6 87 84.1 90.4 104.7 111.7 100.7 97.5 99.7 96.8 84.1 80 74.6 62.4 54.5 46.6 40.7 37.7 38.1 36 34.4 33.1 32.6 32.3 34.4 33.9 33.5 32.2 29.1 32.5 36.1 36.2 32.1 27.3 26.7 28.5 32 32.8 34.3 34.7 33.8 30.9 29.3 28.8 29.3 31.1 29.7 29.8 32.8 33.7 35.1 36.1 36.7 35.3 33 27.7 24.7 20.3 12.9 5.6 4.5 -1.7 -1.7 -1.7 -1.7 -1.7 4.3 3.8 5.9 12.2 14.7 16.3 16.9 14.8 11.7 9.9 9.5 6.4 4.6 2.8 5.9 1.9 0.6 -1.7 -1.7 -1.7 -1.7 -1.7 -1.7 -1.7 -1.7 -1.7 -1.7 -1.7 -1.7 -1.7 -1.7 -1.7 -1.7 -1.7 -1.7 -1.7 -1.7 -1.7 -1.7 -1.7 -1.7 -1.7 -1.7 -1.7 -1.7 -1.7 -1.7 -1.7 -1.7 -1.7 -1.7 -1.7 -1.7 -1.7 -1.7 -1.7 -1.7 -1.7 -1.7 -1.7 -1.7 -1.7 -1.7 -1.7 -1.7 -1.7 -1.7 -1.7 -1.7 -1.7 -1.7 -1.7 -1.7 -1.7 -1.7 -1.7 -1.7 -1.7 -1.7 -1.7 -1.7 -1.7 -0.9 -0.4 0 0.5 1 1.5 2.6 3 2.8 3.2 3.6 3.1 2.9 3 4.5 9.5 13.4 17.9
-1.7 -1.7 -1.7 -1.7 -1.7 -1.3 -1.7 -1.7 -1.7 -1.7 77.3 113 132.4 133.2 131.8 125.3 126.3 125.3 123.7 131.3 131.1 128.1 123.9 126.1 129.4 130.7 132.2 128.4 113.3 109.3 104 105 99.9 91.6 85.5 81.9 80.2 87.2 89.2 86.7 92.9 93.2 90.9 85.6 83 74.7 60.2 52.6 41.4 39 35.9 34.4 34.2 33.6 33 32.6 33.2 32.7 34 34.2 34.8 30 34.2 36.4 36.3 32.6 29.8 28.6 27.2 28.5 31.6 35.5 36.2 36.2 34.3 31.4 31.5 29.3 28.7 29.2 28.4 29.8 32.4 34.4 36.8 36.8 36.7 34.7 30.3 25.1 20.9 16 12.1 4.4 4.6 -1.7 -1.7 -1.7 -1.7 4.4 4.5 4.3 8.3 15 19.4 18.4 17.3 15.1 12.2 11.7 10.7 8.7 11.4 11.7 10 5.5 1.2 -0.5 -1.7 -1.7 -1.7 -1.7 -1.7 -1.7 -1.7 -1.7 -1.7 -1.7 -1.7 -1.7 -1.7 -1.7 -1.7 -1.7 -1.7 -1.7 -1.7 -1.7 -1.7 -1.7 -1.7 -1.7 -1.7 -1.7 -1.7 -1.7 -1.7 -1.7 -1.7 -1.7 -1.7 -1.7 -1.7 -1.7 -1.7 -1.7 -1.7 -1.7 -1.7 -1.7 -1.7 -1.7 -1.7 -1.7 -1.7 -1.7 -1.7 -1.7 -1.7 -1.7 -1.7 -1.7 -1.7 -1.7 -1.7 -1.7 -1.7 -1.7 -1.7 -1.7 -1.7 -1.7 -0.9 -0.3 0.3 0.8 1.2 1.7 4 2.8 2.9 2.6 2.9 2.7 2.9 2.8 4.2 9.4 13.7 17.1
-1.7 -1.7 -1.7 -1.7 -1.7 28.3 -1.7 -1.7 -1.7 60.8 94.9 117.1 124.6 128.7 125.3 123.6 122.2 122.3 124.4 125.6 128 122.1 121.1 123.8 127.7 134.8 133.8 126.6 112.4 105.3 100.3 94.2 89 85.7 78.4 75.9 76.5 84.5 92.9 75.6 78 85.4 85.5 81.4 74.9 64 49.2 38.5 36.2 34.7 33.2 32.6 32.2 32.5 32.1 32.4 32.4 32.1 33 33.8 31 33.5 35.6 35.5 35.2 35.3 38.2 36.7 35.8 28.4 34.9 38.8 41.1 40 37.2 36.9 37.1 28.9 28.7 28.9 29 32.1 33 35.1 36 38.1 35.8 34.1 29.8 26.9 18.5 14.2 10 4.5 3.3 -1.7 -1.7 -1.7 4.6 4.2 4.2 6 9.4 20.3 20.7 20.8 18.9 16.2 13.3 12.8 11.2 13 14.4 13.5 11.7 10.7 1.9 0.6 -0.6 -1.1 -1.7 -1.7 -1.7 -1.7 -1.7 -1.7 -1.7 -1.7 -1.7 -1.7 -1.7 -1.7 -1.7 -1.7 -1.7 -1.7 -1.7 -1.7 -1.7 -1.7 -1.7 -1.7 -1.7 -1.7 -1.7 -1.7 -1.7 -1.7 -1.7 -1.7 -1.7 -1.7 -1.7 -1.7 -1.7 -1.7 -1.7 -1.7 -1.7 -1.7 -1.7 -1.7 -1.7 -1.7 -1.7 -1.7 -1.7 -1.7 -1.7 -1.7 -1.7 -1.7 -1.7 -1.7 -1.7 -1.7 -1.7 -1.7 -1.7 -1.7 -1.7 -1.7 -0.9 -0.2 0.4 1 1.6 1.9 4.7 3.6 2.8 2.8 2.2 2.9 2.8 2.8 5.8 9.6 13.4 14.4
-1.7 -1.7 -1.7 -1.7 39.3 38.3 -1.7 19.5 -1.7 61.4 93.3 103.9 115.3 121.9 117.4 117.9 123.6 121.5 122.2 124.4 120.5 118.1 119.2 123.4 130.7 129.8 129.3 123.3 108.2 101.4 93.9 89.3 86 81.1 74.1 71.6 72 80 99.6 88.5 85.8 78.3 76.6 76.2 67.6 51.4 39.4 36.3 34.2 32.8 32.8 32.4 31.9 32.1 32.6 32.5 32.7 33.3 31.8 31.9 33.1 34.2 35.2 35.2 38.2 41.5 42.6 40.7 39.8 38.7 34 45.4 45.3 43.5 40.5 38.9 29.3 27.9 28.4 28.6 31.5 32.6 34.9 35 36.1 37.7 35.3 32.9 28.3 28.3 17.2 13 9.4 5.2 3.3 -1.7 -1.7 -1.7 4.1 4.6 4.7 12.7 21.1 23.2 22.9 22 20.6 17.3 16.4 14.8 14.2 13.9 15.8 14.3 12.5 11.1 9.1 1.7 0.8 0.4 -0.2 -1.2 -1.7 -1.7 -1.7 -1.7 -1.7 -1.7 -1.7 -1.7 -1.7 -1.7 -1.7 -1.7 -1.7 -1.7 -1.7 -1.7 -1.7 -1.7 -1.7 -1.7 -1.7 -1.7 -1.7 -1.7 -1.7 -1.7 -1.7 -1.7 -1.7 -1.7 -1.7 -1.7 -1.7 -1.7 -1.7 -1.7 -1.7 -1.7 -1.7 -1.7 -1.7 -1.7 -1.7 -1.7 -1.7 -1.7 -1.7 -1.7 -1.7 -1.7 -1.7 -1.7 -1.7 -1.7 -1.7 -1.7 -1.7 -1.7 -1.7 -1.7 -0.8 -0.2 0.5 1.1 1.8 6.1 4.8 4.4 4.1 3.1 2.5 2.6 2.8 2.9 7.7 10.4 12.9 12.9
-1.7 -1.7 -1.7 -1.7 33.3 -1.7 -1.7 -1.7 -1.7 -1.7 -1.7 91.7 101.6 111.5 117.8 119 118.4 116.6 116.7 118.3 114.8 116.8 120.3 125 125.9 126.5 117.6 109.2 102.3 94.6 90.8 86.4 84.1 78.4 71.3 68.3 68.4 75.8 94.8 98.8 81.6 83.9 75.2 64.7 61.5 41.8 37.2 34.6 33 32.4 32.5 32.3 32.1 32.4 32.7 34.2 34.2 33.6 32.7 35.8 33.2 33.1 33.7 37.7 43.4 46.8 40.6 42.7 43.2 46.5 37.3 44.5 49 40.7 33.2 28.9 27.4 27.5 27.7 32.8 32.4 32.8 35.1 35.2 37.8 36.8 34.1 28.5 25.3 19.8 16 13.5 10.7 5.9 3.4 -1.7 -1.7 4.6 4.3 4.2 17.9 24 23.4 23.4 23 22.7 21.3 18.2 16.9 15.4 17.6 17.6 16.7 15.3 13.2 11.2 9.5 7.4 4.5 7.1 0.6 -1.7 -1.7 -1.7 -1.7 -1.7 -1.7 -1.7 -1.7 -1.7 -1.7 -1.7 -1.7 -1.7 -1.7 -1.7 -1.7 -1.7 -1.7 -1.7 -1.7 -1.7 -1.7 -1.7 -1.7 -1.7 -1.7 -1.7 -1.7 -1.7 -1.7 -1.7 -1.7 -1.7 -1.7 -1.7 -1.7 -1.7 -1.7 -1.7 -1.7 -1.7 -1.7 -1.7 -1.7 -1.7 -1.7 -1.7 -1.7 -1.7 -1.7 -1.7 -1.7 -1.7 -1.7 -1.7 -1.7 -1.7 -1.7 -1.7 -1.7 -1.7 -0.7 0 0.6 1.3 2.1 6.1 5.1 5 4.6 3.5 2.6 2.1 2.8 3.7 7 10 12.8 10
-1.7 -1.7 -1.7 -1.7 -1.5 -1.7 -1.7 -1.7 -1.7 -1.7 -1.7 83.1 101.5 108.7 115.7 115.4 112.5 109.1 111.7 110.5 113.3 117.6 120.1 121.7 119.4 112.4 107.9 101.3 94.2 89.9 86.8 83.8 82.5 79.7 71.6 68.6 67.8 68.1 70.4 79.7 83.6 83.4 66.5 55.7 45.2 39.7 37.5 35 33.8 33.1 32.3 32.7 32.5 32.8 34.1 35.5 36.2 32.9 38.9 37.8 37.8 38.1 36.8 37.4 39.7 39.7 42.8 43.7 51.2 49.1 49 36.6 34.8 29.2 30.4 27.8 27.9 27.4 31.5 32.3 32.4 33.1 35.2 37.7 34.8 32.7 30.1 28.4 24.4 18 15.3 12 8.7 5.8 3.4 4.1 4.9 3.9 4.6 5.4 12.4 26.2 24.7 22.6 23.9 22.9 21.6 19.7 17.1 17.1 18.8 18.4 16.8 15.7 13.9 10.7 8.9 7 3 1.6 -0.1 -1.7 -1.7 -1.7 -1.7 -1.7 -1.7 -1.7 -1.7 -1.7 -1.7 -1.7 -1.7 -1.7 -1.7 -1.7 -1.7 -1.7 -1.7 -1.7 -1.7 -1.7 -1.7 -1.7 -1.7 -1.7 -1.7 -1.7 -1.7 -1.7 -1.7 -1.7 -1.7 -1.7 -1.7 -1.7 -1.7 -1.7 -1.7 -1.7 -1.7 -1.7 -1.7 -1.7 -1.7 -1.7 -1.7 -1.7 -1.7 -1.7 -1.7 -1.7 -1.7 -1.7 -1.7 -1.7 -1.7 -1.7 -1.7 -1.7 -1.7 -1.3 -0.6 0 0.6 1.2 1.8 4 4.7 4.7 4.7 3.9 2.9 2.5 2.7 3.4 5.6 7.7 9.2 7.5
-1.7 -1.7 -1.7 -1.7 -1.7 -1.7 -1.7 -1.7 -1.7 -1.7 -1.7 -1.7 94.3 100.8 105.6 101.4 103.5 103.3 102.8 105.6 112.7 117.5 117.9 109.3 106.3 104.9 96.4 91.4 90.9 87.7 84 82.3 81.2 79.4 71.2 67.6 62.5 59.1 58.6 62.8 68.3 64.8 55.5 48.9 43.4 40 37.3 34.5 33.5 33.2 33.2 33.5 33 34.5 36.5 36 34.6 34.8 39.8 39.7 44.2 39.9 45 44.4 38.6 38.1 39.3 43.9 51.7 53.2 44.8 30.4 27.9 27.5 27.9 27.3 28.2 30.6 31 30.7 31.9 35.4 35.4 34.3 33.4 33.7 31.5 28.4 24 18.1 14.9 12.3 9 6.7 6.3 5.3 4 4.2 4.9 9.8 11.7 16.1 19.1 26.1 25.7 24.8 22.3 21.4 19.6 19.5 19.5 18.1 18.1 16.1 14.3 10.2 8.1 2.1 1.8 0.6 -0.5 -1.7 -1.7 -1.7 -1.7 -1.7 -1.7 -1.7 -1.7 -1.7 -1.7 -1.7 -1.7 -1.7 -1.7 -1.7 -1.7 -1.7 -1.7 -1.7 -1.7 -1.7 -1.7 -1.7 -1.7 -1.7 -1.7 -1.7 -1.7 -1.7 -1.7 -1.7 -1.7 -1.7 -1.7 -1.7 -1.7 -1.7 -1.7 -1.7 -1.7 -1.7 -1.7 -1.7 -1.7 -1.7 -1.7 -1.7 -1.7 -1.7 -1.7 -1.7 -1.7 -1.7 -1.7 -1.7 -1.7 -1.7 -1.7 -1.7 -1.7 -1.2 -0.6 0 0.5 1.1 1.6 3.5 4.8 4.5 3.7 3.2 2.9 2.7 2.2 3.2 5 5.9 6 6.7
-1.7 -1.7 -1.7 -1.7 -1.7 -1.7 -1.7 -1.7 -1.7 -1.7 -1.7 -1.7 10.6 87.4 92.7 96.5 98.8 96.7 97.9 104.1 109.3 105.7 102.6 101.2 99.9 95.9 88.7 87.8 87.8 84.7 81 83.6 81.9 73.2 69.1 64.2 59.1 55.2 52.2 51.6 55.8 60.5 57.7 46.2 42.2 38.9 36 33.6 35.3 36.7 38.9 34 35.7 37.6 35.7 35.2 37.1 37.9 41.3 45.7 46.1 45 44.5 44.3 44.3 44.1 39.7 40.8 47.6 39.7 34.1 29.4 28 27.4 27.5 28 29.3 30 30.7 30.9 32.7 33.4 34.1 34.3 34.4 33.7 30.5 26.4 19.5 16.8 14 12.1 10.1 7.8 8.5 3 3.4 5.8 5.6 17 12.8 13.4 23.8 26.1 25.1 24.3 23 21.5 20.1 19.9 20.2 20.4 19.6 16.3 13.9 10.7 8.7 1.9 0.9 0.2 -0.6 -1.4 -1.7 -1.7 -1.7 -1.7 -1.7 -1.7 -1.7 -1.7 -1.7 -1.7 -1.7 -1.7 -1.7 -1.7 -1.7 -1.7 -1.7 -1.7 -1.7 -1.7 -1.7 -1.7 -1.7 -1.7 -1.7 -1.7 -1.7 -1.7 -1.7 -1.7 -1.7 -1.7 -1.7 -1.7 -1.7 -1.7 -1.7 -1.7 -1.7 -1.7 -1.7 -1.7 -1.7 -1.7 -1.7 -1.7 -1.7 -1.7 -1.7 -1.7 -1.7 -1.7 -1.7 -1.7 -1.7 -1.7 -1.7 -1.7 -1.7 -1.2 -0.6 -0.1 0.4 1 1.5 3.5 5 4.4 3.9 3.4 2.9 2.7 2.2 3.9 4.5 4.2 4.7 5.6
-1.7 -1.7 -1.7 -1.7 -1.7 -1.7 -1.7 -1.7 -1.7 -1.7 -1.7 -1.7 54.7 79.5 83.3 94.4 96.7 91.2 94.8 98.8 98.4 97.8 97.8 94.2 95.1 88.2 84.9 83.3 83.9 81.1 78.8 80.1 76.4 70.1 65.1 59.6 55.4 51.1 47 44.8 47.9 67.2 51.6 42.5 38.8 34.7 36.4 34 37.9 37.8 35 35.2 37.9 38.2 36.4 37.7 40.7 41.9 50.3 47.7 43.2 46.2 44.2 50 54.3 51.9 41.9 45.2 38.5 33.6 30.5 29.1 28.6 28.2 28.5 29.1 30 30.3 31.4 32.8 34.5 32.8 30.4 30.1 31.4 27.6 24.7 19.7 17.5 15.4 13.2 12.7 11.5 7.9 4.5 3.6 3.3 5.8 6.3 8.9 10.3 11.6 19.6 21.8 23.4 25 23.6 20.9 20.5 20.3 23.3 20.9 18.9 15.8 13.3 9.4 7 1.8 1 0.3 -0.5 -1.3 -1.7 -1.7 -1.7 -1.7 -1.7 -1.7 -1.7 -1.7 -1.7 -1.7 -1.7 -1.7 -1.7 -1.7 -1.7 -1.7 -1.7 -1.7 -1.7 -1.7 -1.7 -1.7 -1.7 -1.7 -1.7 -1.7 -1.7 -1.7 -1.7 -1.7 -1.7 -1.7 -1.7 -1.7 -1.7 -1.7 -1.7 -1.7 -1.7 -1.7 -1.7 -1.7 -1.7 -1.7 -1.7 -1.7 -1.7 -1.7 -1.7 -1.7 -1.7 -1.7 -1.7 -1.7 -1.7 -1.7 -1.7 -1.7 -1.7 -1.5 -0.9 -0.2 0.4 1 1.6 5 4.8 4.4 4 3.5 3.1 2.7 2.8 3.9 3.6 4 4.9 5.4
-1.7 -1.7 -1.7 -1.7 -1.7 -1.7 -1.7 -1.7 -1.7 -1.7 -1.7 -1.7 -1.7 76.2 80.9 85.3 84.1 86.7 89.4 90.5 91.2 90 88.3 90.8 85.2 83.2 82.2 79.9 79.6 76.7 76.7 74.8 72.5 66.5 60.4 56.1 52 48.1 44.2 42.5 45.6 55.6 47.2 39.8 34.7 34.7 35.3 34.2 35.1 34.8 36.3 39.1 38.8 38 37.6 43 46.3 48.9 44.2 44 44.4 48.4 48.5 58.8 56.4 49.1 42.9 45.4 37.9 31.3 30.6 35.6 37.9 31.8 29.3 29.6 31.1 31.6 33 34.6 36.3 36.1 29.3 27.2 25.8 23.9 21.7 19.2 16.8 14.9 12.8 10.5 8.8 5.4 4.3 6.5 4.4 5.2 5.2 6.6 7.5 9.3 18.6 24.3 25.3 25 22.8 22.2 21.4 22.9 21.5 21.7 18.1 15.8 12.9 8.3 6 1.9 1.2 0.3 -0.5 -1.3 -1.7 -1.7 -1.7 -1.7 -1.7 -1.7 -1.7 -1.7 -1.7 -1.7 -1.7 -1.7 -1.7 -1.7 -1.7 -1.7 -1.7 -1.7 -1.7 -1.7 -1.7 -1.7 -1.7 -1.7 -1.7 -1.7 -1.7 -1.7 -1.7 -1.7 -1.7 -1.7 -1.7 -1.7 -1.7 -1.7 -1.7 -1.7 -1.7 -1.7 -1.7 -1.7 -1.7 -1.7 -1.7 -1.7 -1.7 -1.7 -1.7 -1.7 -1.7 -1.7 -1.7 -1.7 -1.7 -1.7 -1.7 -1.7 -1.7 -1.7 -1 -0.4 0.3 1 1.7 5.2 5 4.5 4.1 3.6 3.2 2.6 2.5 3.2 3.8 5.4 6.7 4.8
-1.7 -1.7 -1.7 -1.7 -1.7 -1.7 -1.7 -1.7 -1.7 -1.7 -1.7 -1.7 -1.7 -1.7 75.1 77.2 79 81.9 83.6 84.9 84.5 84.4 84.7 83.2 80.8 79.4 79.2 75.1 72.5 72.7 73.4 71.5 67.4 63.1 56.8 52.8 48.9 45.3 42.1 40.6 41.3 41.5 41.3 34.7 34.7 36.5 39.1 37 35.2 35.8 39.1 41.3 40.4 40.3 40.3 49.4 49.8 46.8 49.2 49.8 48.1 50.8 58 58.9 53.4 43 40.4 35.1 32.4 31.8 38.2 34.6 36.4 39.2 29.3 31 31.4 32.7 34 36.5 34.5 32.4 28.4 27.2 25.2 21.1 19.8 17.7 16.2 13.6 11.6 10.1 9.4 7.4 4.6 6.7 5.6 8.7 5.2 6 7 8.4 11.9 25.3 26.9 23.6 21.3 21.6 21.7 19.9 19.7 19.9 17 15 11.8 7.9 5.8 1.9 1.4 0.5 -0.2 -1.1 -1.7 -1.7 -1.7 -1.7 -1.7 -1.7 -1.7 -1.7 -1.7 -1.7 -1.7 -1.7 -1.7 -1.7 -1.7 -1.7 -1.7 -1.7 -1.7 -1.7 -1.7 -1.7 -1.7 -1.7 -1.7 -1.7 -1.7 -1.7 -1.7 -1.7 -1.7 -1.7 -1.7 -1.7 -1.7 -1.7 -1.7 -1.7 -1.7 -1.7 -1.7 -1.7 -1.7 -1.7 -1.7 -1.7 -1.7 -1.7 -1.7 -1.7 -1.7 -1.7 -1.7 -1.7 -1.7 -1.7 -1.7 -1.7 -1.7 -1.7 -0.9 -0.2 0.5 1.2 1.9 5.9 5.3 4.9 4.1 3.6 3.1 2.6 2.1 3.8 4.8 6.9 6.8 4.7
-1.7 -1.7 -1.7 -1.7 -1.7 -1.7 -1.7 -1.7 -1.7 -1.7 -1.7 -1.7 -1.7 -1.7 52.2 72.6 74.9 77.9 79.5 79.7 80.1 80.4 81 79.7 76.5 73.6 69.3 68.1 67.9 67.2 68.8 66.3 64.4 56.6 53.1 49.1 45.9 42.4 39.9 38.8 38 36.5 34.1 34.1 34.7 34.6 35.4 35.8 35.5 35.7 40 44.7 43.5 43.3 47.1 46.5 46.5 49.4 53 55.1 60.4 61.7 59 59.2 51.1 40.2 35.5 33.6 34.4 33.1 33.8 39.2 39.3 35.1 29.9 30 32.3 33.6 35.2 33.5 33.8 28.9 28.4 29 23.6 20.5 20.8 18.1 16.2 14.5 13 12.3 12.3 6.9 6.3 6.5 7.2 6.4 8.8 10.6 7.8 8.7 10.5 25.6 27.5 21.4 19.6 19.6 18.9 18.7 19 18.1 15.7 13.7 10.2 7.8 5.4 4.5 1.6 1 0.2 -0.5 -1.7 -1.7 -1.7 -1.7 -1.7 -1.7 -1.7 -1.7 -1.7 -1.7 -1.7 -1.7 -1.7 -1.7 6.5 2.7 4.7 -1.7 1.5 1.9 -1.7 -1.7 -1.7 -1.7 -1.7 -1.7 -1.7 -1.7 -1.7 -1.7 -1.7 -1.7 -1.7 -1.7 -1.7 -1.7 -1.7 -1.7 -1.7 -1.7 -1.7 -1.7 -1.7 -1.7 -1.7 -1.7 -1.7 -1.7 -1.7 -1.7 -1.7 -1.7 -1.7 -1.7 -1.7 -1.7 -1.7 -1.7 -1.7 -1.7 -0.7 0 0.7 1.4 2.8 5.2 5.3 5.3 5 4.2 3.2 3.2 2.5 3.3 5.3 6.9 6.1 4.6
-1.7 -1.7 -1.7 -1.7 -1.7 -1.7 -1.7 -1.7 -1.7 -1.7 -1.7 -1.7 -1.7 -1.7 -1.7 -1.7 46.6 74.3 75.5 76.3 76.2 78 79.3 75.4 72.5 68.6 64.2 64.7 63.5 61.2 60.4 59.1 56.2 52.3 48.9 45.1 42 39.7 38.3 38.4 37.2 36 34.6 34.1 34.1 34.7 35.2 35 34.9 35.4 36.8 44.5 46.2 43.3 48.1 51.9 63.8 61.6 60.9 62.8 62.8 60.2 58.5 51.3 44.1 35.2 35.1 42.1 36.1 34.1 42.3 41.4 35.8 31.6 30 29.2 32.5 34.3 33.2 30.8 29.6 31.1 29.3 26.2 22.1 23.5 20.8 18 16.4 15.8 14.5 13.2 13.2 7.2 5.7 7.3 7.5 7.2 8.7 12.6 11.9 9.3 11.4 14.8 20.6 17.3 20.9 18.6 18.5 18.3 18 16.9 15.1 11.8 8.5 5.4 5.8 4.8 5.1 1.7 1 0.3 -0.5 -1 -1.2 -1.7 -1.7 -1.7 -1.7 -1.7 -1.7 -1.7 -1.7 -1.7 4.2 8.8 10 10.4 10 7.7 6.8 7.5 2.4 1.9 -1.7 -1.7 -1.7 -1.7 -1.7 -1.7 -1.7 -1.7 -1.7 -1.7 -1.7 -1.7 -1.7 -1.7 -1.7 -1.7 -1.7 -1.7 -1.7 -1.7 -1.7 -1.7 -1.7 -1.7 -1.7 -1.7 -1.7 -1.7 -1.7 -1.7 -1.7 -1.7 -1.7 -1.7 -1.7 -1.7 -1.4 -1.1 -0.6 0.1 0.8 1.5 6.1 6 5.5 5.7 5.4 5.1 3.8 3 2.3 2.2 3.6 5.3 5.4 4.6
-1.7 -1.7 -1.7 -1.7 -1.7 -1.7 -1.7 -1.7 -1.7 -1.7 -1.7 -1.7 -1.7 -1.7 -1.7 -1.7 0.5 58.4 71.7 72.2 74.1 77.1 74.5 71.8 67.4 62.3 58.8 58.7 57.9 56.3 54.6 53.8 51.4 48 45.2 42.8 40.2 38.1 37.2 39.1 40.5 39.1 35.6 34.3 34.3 34.6 34.7 34.8 35.1 35.2 36.1 37.9 40.4 44.4 63.6 67.3 67.6 63.2 62.4 63.2 61.3 55.9 46.9 39.1 37.8 38.8 43.3 39.8 39.9 44.8 44.8 40.4 36.8 35.8 32.1 29.2 29.6 30.9 30.8 32.7 33.2 30.4 26.6 22.1 23.5 23.5 20.2 17.1 16.2 15.1 14.5 13.8 13.4 7.4 6.2 6.5 6.7 7.8 7.1 9.2 9.5 9.2 10.8 12.6 13.5 13.4 14.4 14.5 16.9 18.1 17.3 17 14.1 11.2 7.2 5.9 5.9 5.7 5.8 6.4 1.6 0.7 -0.1 -0.4 -0.6 -0.8 -0.9 -1.7 -1.7 -0.9 0.9 11.7 7.8 1.9 14.4 14.5 13.9 13.5 11.6 9.1 9.2 9.9 10 8.1 0.6 -1.7 -1.7 -1.7 -1.7 -1.7 -0.3 -1.7 -1.7 -1.7 -1.7 -1.7 -1.7 -1.7 -1.7 -1.7 -1.7 -1.7 -1.7 -1.7 -1.7 -1.7 -1.7 -1.7 -1.7 -1.7 -1.7 -1.7 -1.7 -1.7 -1.7 -1.7 -1.7 -1.7 -1.7 -1.2 -0.9 -0.6 -0.3 0.3 0.9 1.6 6.6 5.6 5.5 6 5.7 5.7 5.1 3.6 2.7 2.4 2.4 3.3 4.1 4.4
-1.7 -1.7 -1.7 -1.7 -1.7 -1.7 -1.7 -1.7 -1.7 -1.7 -1.7 -1.7 -1.7 -1.7 -1.7 -1.7 -1.7 48 68.7 70.3 72.4 72.2 69.7 67.8 63.6 56.3 54.8 53.7 52.4 51.5 50.4 47.9 45.4 43.4 41.5 40.2 39.3 36.2 39.3 42 43.5 39.9 36 34.9 34.6 34.7 34.4 34.8 35.2 35.7 36 39.8 42.3 53.1 66.7 69 66.4 60.6 64 57.8 57.1 43.5 40.6 41.4 40.6 42.6 42.6 43.7 42.8 44.9 42.6 39 39.3 38.2 34.1 29.8 27.9 29.9 31.8 31.6 32.3 27.4 22.3 23.6 23.4 21.3 19.3 17.2 16.1 15.6 15.4 14.2 12.3 9.7 6.8 6.4 6.8 7.8 7.8 8.9 9 9.1 9.2 10.4 12.7 13.7 13.9 15.2 17.9 18.5 17.2 17 14.5 10.9 7.3 6.1 5.7 6.6 8 6 1.9 1 0.4 0.1 0 -0.2 -0.2 -1.7 -1.7 -0.4 1.2 1.9 8.4 11.7 14.4 16.2 16.9 15.3 12 10.5 11.4 11.8 11.3 8.8 3.3 1.6 1 -1.7 -1.7 0.5 1.9 0.9 -1.7 -1.7 -1.7 -1.7 -1.7 -1.7 -1.7 -1.7 -1.7 -1.7 -1.7 -1.7 -1.7 -1.7 -1.7 -1.7 -1.7 -1.7 -1.7 -1.7 -1.7 -1.7 -1.7 -1.7 -1.7 -1.7 -1.2 -0.8 -0.5 -0.1 0.2 0.6 1.2 1.8 6.1 5.5 5.7 6 5.6 5.6 4.3 3.4 2.7 3.1 2 4.2 4.4 4.4
-1.7 -1.7 -1.7 -1.7 -1.7 -1.7 -1.7 -1.7 -1.7 -1.7 -1.7 -1.7 -1.7 -1.7 -1.7 -1.7 1.9 50.2 65.2 67.9 68.7 67.6 65.2 62.1 56.1 53.5 52.4 51.3 49.9 47.9 45.8 42.9 41.2 39.8 38.9 38.7 36.3 39.1 41.4 43.7 42.8 40.4 36.8 35.8 34.8 34.5 34.5 35.3 35.4 35.6 41.9 41.7 48.2 51.3 65.5 73.3 68.5 59.9 60.5 54.4 47.7 44.2 45.9 43.1 44.3 48.2 47.5 45.5 48.5 43.6 42.5 40.8 39.9 38.5 35.4 34 27.6 26.8 29.4 28.6 25.2 22.7 23.1 25.5 23.3 20.8 19.3 17.3 16.6 16.6 16.1 14.8 12.4 9.5 7.5 7.5 8 7.9 8 8.6 8.8 9.8 11.4 13.3 13.9 14.7 14.1 17 17.2 17.9 17.3 17 14.6 10.2 8.9 7.4 8.2 7.9 8.5 7 1.9 1.4 1 0.7 0.6 0.5 0.4 -1.6 -1.7 0 1.3 1.9 8.9 10.6 12.7 16.5 18.1 15.2 12.4 12.5 13.5 13.6 13.1 10.7 9.2 8 5.1 0.3 0.5 1.9 1.9 1.8 -0.9 -1.7 -1.7 -1.7 -1.7 -1.7 -1.7 -1.7 -1.7 -1.7 -1.7 -1.7 -1.7 -1.7 -1.7 -1.7 -1.7 -1.7 -1.7 -1.7 -1.7 -1.7 -1.7 -1.7 -1.7 -1.2 -0.9 -0.6 -0.2 0.2 0.6 1 1.4 2.8 6.7 6.7 7.7 6.6 6 5 -1.7 -1.7 -1.7 -1 4.4 5 6.2 5.9
-1.7 -1.7 -1.7 -1.7 -1.7 -1.7 -1.7 -1.7 -1.7 -1.7 -1.7 -1.7 -1.7 -1.7 -1.7 -1.7 38.3 60 63.6 64.5 64.4 62.1 61 57.3 53.2 51.3 50.8 49.5 46.6 43.8 39.4 38.4 36.9 36.3 37.3 33.3 37.5 40 42.1 43.5 43.7 41.4 38.6 36.2 34.8 35 35.4 35.1 35.6 36 41.3 43.1 51.8 57.2 68.7 71.5 65.4 65.6 64.8 49 47.5 53 45.9 46.2 50 50.4 49.8 48.4 47.7 45.1 43.5 41.8 40 38.5 38.8 34.3 29.1 26.7 31.1 25.2 23.4 23 25.6 25.9 22.5 21.1 19.6 18.1 17.9 17.6 17.2 15.7 11.1 8.4 7.5 8.5 9.6 8.7 9.7 10.4 8.9 13.3 13.6 13.9 14.1 13.8 14.9 17.3 18.7 19.2 18.5 14.8 12.5 10.9 10.8 9.7 8.6 8.2 6.2 4.8 4.8 1.9 1.6 1.3 1.2 1.1 1.1 -1 -1.3 0.1 1.6 1.9 12.6 11.9 11.8 15.2 16.6 15.2 15.5 15.6 15.7 15.6 14.2 12.9 11 9.2 7.6 1.3 1.9 1.9 1.9 1.9 -0.2 -0.6 -0.8 -1 -1.2 -1.4 -1.7 -1.7 -1.7 -1.7 -1.7 -1.7 -1.7 -1.7 -1.7 -1.7 -1.7 -1.7 -1.7 -1.7 -1.7 -1.7 -1.7 -1.7 -1.2 -0.9 -0.7 -0.3 0 0.4 0.9 1.3 1.7 5.4 6.8 8.2 7.3 6.3 5.9 4.6 -1.7 -1.7 2 4.4 7.1 3.6 3.4 3
-1.7 -1.7 -1.7 -1.7 -1.7 -1.7 -1.7 -1.7 -1.7 -1.7 -1.7 -1.7 -1.7 -1.7 -1.7 -1.7 -1.7 2.3 60.5 60.5 59.4 57.3 54.2 50.8 49.6 48.6 48.2 45.3 36.9 37.4 34.9 33.9 33.4 34 30.2 33.5 38.2 41.3 44.1 42.7 41.7 41.5 39.6 35.8 34.6 35.3 35.2 35 35.4 36.7 40.7 51.2 63.6 61.7 70 65.6 64.1 60.3 51.8 48.4 48.6 49.1 51.2 52.4 52.5 51.6 47.1 48.6 47.7 48.5 47.8 42.8 41.6 44.6 41.8 42.4 37 28 25.9 23.8 23.2 25.4 27.9 24.3 22.4 21.6 19.5 18.8 18.8 17.7 14.8 12.3 11.7 9.9 8.7 8.6 10.3 10.9 13.9 14.8 13.2 9.3 13.7 13.9 13.7 13.8 13.7 19.2 19.1 18.9 18 15.1 12.7 11.8 10.8 9.5 9.7 7.9 6 4.5 4.1 3.6 3.7 1.9 1.8 1.7 1.7 -0.4 -0.3 0.8 2.6 10.9 12.1 12.2 11.5 13.8 14.7 16.9 17.6 17.5 18 16.7 14.8 13.3 11.4 9.6 8.6 2.7 1.9 1.9 1.9 1.9 0.6 0.1 0.1 -0.1 -0.3 -0.8 -1.7 -1.7 -1.7 -1.7 -1.7 -1.7 -1.7 -1.7 -1.7 -1.7 -1.7 -1.7 -1.7 -1.7 -1.7 -1.7 -1.7 -1.2 -0.9 -0.6 -0.3 -0.1 0.3 0.7 1 1.5 1.9 6.2 8 7.6 7 7.1 5.4 4.1 -1.7 2.1 2.2 3.8 2.6 2.5 2.5 2.2
-1.7 -1.7 -1.7 -1.7 -1.7 -1.7 -1.7 -1.7 -1.7 -1.7 -1.7 -1.7 -1.7 -1.7 -1.7 -1.7 -1.7 -1.7 55.5 55.5 39.4 50.6 48.5 47.6 46.7 45.5 32 31.5 1.7 2.8 29.8 27.7 28.4 27.6 31.4 37.4 40.5 42.1 42.3 40.1 40.9 41.3 38.3 34.9 34.6 34.7 35.1 35 35.8 38.1 40.2 44.1 52.7 61.4 73.7 71.6 60.3 51.6 52.1 53.4 52.8 53.9 53.9 54.6 53 49.8 51.5 52.8 51.8 52.4 50.5 46.6 48.2 46.5 45.2 44.1 37.5 31.2 26.3 24.4 24.2 27.9 27.9 23.9 21 20.7 19 20.3 19.8 17.5 14.4 15.2 16 14.1 13.2 8.9 9.3 17.9 17.9 17.2 15.7 10.4 9.6 13.9 14.1 13.5 13.8 17.1 18.8 18.7 18.9 17.2 11.5 11.5 9.9 8.4 8.2 8.3 6.9 5 3.2 3.7 4.3 3.7 4.1 4.2 4.5 4.4 4.5 5 7.6 9.8 10.6 11.1 12.3 13.9 14.4 17 18.9 18.5 18.3 17.6 15.3 13.5 11.3 9.7 8.1 1.9 1.9 1.9 1.9 1.9 1.4 0.9 1 0.8 0.3 -0.6 -1.7 -1.7 -1.7 -1.7 -1.7 -1.7 -1.7 -1.7 -1.7 -1.7 -1.7 -1.7 -1.7 -1.7 -1.7 -1.4 -1.2 -0.9 -0.6 -0.3 0 0.3 0.5 0.9 1.3 1.7 2.2 6.5 8.1 5.7 5.3 6.1 6.7 4.1 -1.7 2.3 2.3 2.8 2.2 2.1 1.8 2
-1.7 -1.7 -1.7 -1.7 -1.7 -1.7 -1.7 -1.7 -1.7 -1.7 -1.7 -1.7 -1.7 -1.7 -1.7 -1.7 -1.7 -1.7 -1.7 48.3 15.5 43.7 -1.7 -1.7 -1.7 -1.7 -1.7 -1.7 -1.7 1.4 24.5 20 24.9 33 39.4 38.5 39.7 39.8 39.3 41.4 42.3 39.9 36.2 34.7 34.6 34.8 35.8 36.4 39.6 42.2 43.1 57.3 61.4 69.4 70.3 62.9 56.1 54 56.6 52.3 54.9 55.3 54.6 53.7 49.8 53.1 53.6 53.9 53.3 54.3 52.9 52 51.1 48.7 45.2 42.2 37.6 32.8 27.7 27.1 25.9 27.8 24.7 21.9 20.1 18.8 18.5 20 19.8 16.2 16.3 15.2 11.2 10.1 10.1 16.8 21.1 20.1 18.8 18.3 15.2 15.2 9.1 11.3 16 16.6 14.2 13.8 16.6 13.8 14.5 14.4 12.7 11 10.8 10.7 10.2 8.2 6.6 5.1 4.7 4.6 4.9 4.5 4.5 4.7 5 5 5.7 6 7.1 8.6 9.9 11.2 13.3 14.3 15.1 16.9 18.7 18.7 18.4 17.2 15.8 13.9 11.6 9.8 8 7.1 1.9 1.9 1.9 1.9 1.9 1.7 1.9 1.5 0.7 -0.4 -1.7 -1.7 -1.7 -1.7 -1.7 -1.7 -1.7 -1.7 -1.7 -1.7 -1.7 -1.7 -1.7 -1.7 -1.3 -1 -0.8 -0.6 -0.3 0 0.3 0.6 0.9 1.1 1.5 1.9 6.4 9 9.9 6 5.6 4.1 6.5 5.6 -1.7 1.9 2.4 1.5 -1.7 -1.7 -1.7 -1.7
-1.7 -1.7 -1.7 -1.7 -1.7 -1.7 -1.7 -1.7 -1.7 -1.7 -1.7 -1.7 -1.7 -1.7 -1.7 -1.7 -1.7 -1.7 -1.7 11.2 3.8 0.5 -1.7 -1.7 -1.7 -1.7 -1.7 -1.7 -1.7 -1.7 1.9 30.8 33.2 37.5 38.2 36.3 36.3 38.2 41.6 43.5 43 42.1 35.5 35.1 34.8 35.2 35.9 37.6 40.6 44.6 56.3 61.1 56.8 55.4 56.1 54.9 62.5 57.6 52.5 52.2 54.7 54.5 52.2 51.5 51.6 53 53.8 54.7 54.7 54.8 53.5 53 52.2 48.5 44.8 43 39.4 37.1 31.7 27.3 29 27.4 23 21.2 19.4 18.8 17.7 19 16.8 14.7 13.1 11.5 12.9 23.7 25.4 22 21.2 20.3 18.7 16.1 15.4 15.5 15.5 10.6 14 16.7 16.2 13.5 13.8 14.5 15.5 10.8 10.4 11.1 11.8 12.9 12.4 11.3 11.9 5.8 4.1 5.5 3.2 3.3 2.8 3.4 2.8 4 8 12.4 12.9 12.7 11.5 10.1 11.4 15.3 16.1 18.3 17.7 18 17.6 16.8 14.8 13 11.2 10 8.3 6 2.1 1.9 1.9 1.9 3 13.6 3.3 2.6 0.8 -0.6 -1.7 -1.7 -1.7 -1.7 -1.7 -1.7 -1.7 -1.7 -1.7 -1.7 -1.7 -1.7 -1.7 -1.6 -1.3 -0.9 -0.6 -0.2 0 0.2 0.6 0.9 1.2 1.4 1.7 3.2 7.5 7.2 7.1 6.4 -1.7 -1.7 -1.7 -1.7 -1.7 -1.7 -1.7 -1.7 -1.7 -1.7 -1.7 -1.7
-1.7 -1.7 -1.7 -1.7 -1.7 -1.7 -1.7 -1.7 -1.7 -1.7 -1.7 -1.7 -1.7 -1.7 -1.7 -1.7 -1.7 -1.7 -1.7 -1.7 -1.7 -1.7 -1.7 -1.7 -1.7 -1.7 -1.7 -1.7 -1.7 -1.7 27.7 32.4 33.2 33.2 34.1 36.1 37 40.7 44.1 44.3 44.8 42.1 35.4 35.4 35.1 35.7 40.2 39.7 41.7 45.5 60.1 63.1 61 58.8 55.1 62.1 55.2 54 56 52.2 50 50.5 50.1 53.5 55.2 54 53.9 53.8 53.4 52.1 53.2 52.6 52 50.5 44.1 39.6 37.1 34.3 28.4 29.1 31.9 28 22.2 20.4 18.9 17.8 18 16.7 14.2 12.7 13.1 20 27.5 23.8 22.1 21.1 19 17.1 16.2 15.8 16.3 15.8 15.8 12.9 11.1 13.6 15.2 13.7 13.4 15.9 13.4 13.6 13.6 14.1 13.1 13 11.8 11.3 9.8 6.6 6.2 6.1 7 3.4 2.8 2.6 2.6 4 9.4 13.7 11.1 9 8.9 8.9 13.4 12.2 15.9 18.4 17.9 16.9 16.3 15 12.7 12.3 10.6 9.6 9.3 7.2 6.7 5.8 7.4 9.3 11.2 15.4 19.1 4.2 1.8 -1.7 -1.7 -1.7 -1.7 -1.7 -1.7 -1.7 -1.7 -1.7 -1.7 -1.7 -1.7 -1.7 -1.7 -1.6 -1.2 -0.9 -0.5 -0.2 0.2 0.5 0.8 1.1 1.5 1.8 2.7 5.4 5.8 6.4 4.8 -1.7 -1.7 -1.7 -1.7 -1.7 -1.7 -1.7 -1.7 -1.7 -1.7 -1.7 -1.7 -1.7
-1.7 -1.7 -1.7 -1.7 -1.7 -1.7 -1.7 -1.7 -1.7 -1.7 -1.7 -1.7 -1.7 -1.7 -1.7 -1.7 -1.7 -1.7 -1.7 -1.7 -1.7 -1.7 -1.7 -1.7 -1.7 -1.7 -1.7 -1.7 -1.7 -1.7 -1.7 25.2 1.8 30.1 34.1 36.8 42.5 46.5 44.7 45.6 36.8 35.2 35.1 35 36.1 42.7 44.3 42.7 43.8 50 64.1 66.7 68.1 58.1 56.8 58.5 55.8 58.6 56.7 52 51.7 49.4 51.6 53.7 53.9 53.4 52.7 51.4 49 47.6 53.1 53.8 52.3 50.1 45.7 40.9 35.4 33.9 28.4 30.5 30.4 26.2 21.9 19.1 18.5 17.9 17.7 16.6 12.5 11.9 19.9 28.9 29.7 28.5 21.7 17.1 17.8 18.2 16.1 15.2 15.1 15.4 16.3 17.4 12.4 17 12.8 14.6 17.5 14.9 13.7 14.2 14.2 14.1 13.5 11.2 10.9 10.7 7 6.4 6.3 5 4.6 2.6 3.2 2.8 2.7 5 8.7 9.9 8.3 8.5 8.9 8.7 11 16.3 14.8 14.6 16.6 15.4 14.9 14.9 13.1 11.7 12 11.2 9.9 8.6 6.5 7 8.5 8.9 11.7 15 12.7 2 1.4 -1.7 -1.7 -1.7 -1.7 -1.7 -1.7 -1.7 -1.7 -1.7 -1.7 -1.7 -1.7 -1.7 -1.7 -1.6 -1.2 -0.8 -0.5 -0.1 0.2 0.6 0.9 1.3 1.6 1.9 6.6 5.7 5 4.6 2.8 2 -1.7 -1.7 -1.7 -1.7 -1.7 -1.7 -1.7 -1.7 -1.7 -1.7 -1.7 -1.7
-1.7 -1.7 -1.7 -1.7 -1.7 -1.7 -1.7 -1.7 -1.7 -1.7 -1.7 -1.7 -1.7 -1.7 -1.7 -1.7 -1.7 -1.7 -1.7 -1.7 -1.7 -1.7 -1.7 -1.7 -1.7 -1.7 -1.7 -1.7 -1.7 -1.7 -1.7 -1.7 0.9 29.8 35.5 43.6 44.3 42.4 40.3 35.9 35.5 35.3 35.4 37.8 44.4 46.3 45 43.2 44.7 48.3 55.3 67.9 60.2 63.7 59.3 64.5 60.1 57.8 57.1 53.4 48.7 48.6 50.9 51.7 51.2 51.8 47.6 47.4 46.3 49.3 54.1 53.6 52.6 48.2 43.1 39.1 35.9 32.1 29.3 26.9 26.4 23.9 19 19.2 18.2 18.1 16.9 14.6 11.8 13.3 18.5 27.6 29.3 26.4 17.7 19.8 21.1 19.7 16.2 15.8 15.2 15.9 16.5 16.5 16.7 11.3 18.8 11.9 13.9 13.5 14.1 13.4 14.1 14.9 12.5 10.9 11.6 9.8 7.5 7.5 7.7 5 3.8 2.8 3.5 3 8.3 7.4 8.1 8.1 8 9.3 8.8 9.1 9.5 14.7 15.9 13.6 13.8 14.2 13.8 13.6 12.8 12 12.5 12.7 11 9.4 8 7 6.9 7.4 9.6 10.4 1.6 0.7 -1.7 -1.7 -1.7 -1.7 -1.7 -1.7 -1.7 -1.7 -1.7 -1.7 -1.7 -1.7 -1.7 -1.7 -1.7 -1.5 -1.2 -0.8 -0.4 -0.1 0.3 0.6 1 1.3 1.7 1.9 1.9 3.8 5.9 4.8 2.5 2.7 4 -1.7 -1.7 -1.7 -1.7 -1.7 -1.7 -1.7 -1.7 -1.7 -1.7 -1.7
-1.7 -1.7 -1.7 -1.7 -1.7 -1.7 -1.7 -1.7 -1.7 -1.7 -1.7 -1.7 -1.7 -1.7 -1.7 -1.7 -1.7 -1.7 -1.7 -1.7 -1.7 -1.7 -1.7 -1.7 -1.7 -1.7 -1.7 -1.7 -1.7 -1.7 -1.7 -1.7 3.2 32.6 40.6 40.6 39.6 38 36.2 35.6 35.6 36.7 43.6 46.7 47.8 47.6 45.9 44.7 45 45.8 50.9 58.9 65.3 68 68.3 68.9 65.6 60.1 55.7 51.5 50.2 49.2 47.5 48.9 50.3 47.8 46.1 45.5 45.3 51.3 53.3 53.4 49.4 43.4 42.4 33.8 33.6 31.2 28.8 27 22.3 19.8 19 18.2 18.4 17.2 15.7 14.1 13.2 12.5 20 23 23.2 19.7 21.8 25 21.8 18.8 17.8 17.5 17.7 17.4 17.1 17 16 19.3 11.2 18.8 11.7 13.5 14.2 14.2 14.2 12 13.2 10.7 10.1 9.1 8.9 10.1 10.2 7 4.2 4.7 4.9 8.3 8.1 7.8 8 8.1 8.1 8.8 9.3 9.3 9.2 8.9 12.9 12.8 12.6 12 12.3 12.8 14.4 13.7 13.6 13.1 12.2 11.6 9.7 6.6 4.8 6.1 2.9 1.6 0.8 -0.4 -1.7 -1.7 -1.7 -1.7 -1.7 -1.7 -1.7 -1.7 -1.7 -1.7 -1.7 -1.7 -1.7 -1.7 -1.7 -1.5 -1.1 -0.7 -0.4 0 0.3 0.7 1 1.3 1.4 1.5 1.8 1.9 4.2 4.2 2.7 4.5 -1.7 -1.7 -1.7 -1.7 -1.7 -1.7 -1.7 -1.7 -1.7 -1.7 -1.7 -1.7
-1.7 -1.7 -1.7 -1.7 -1.7 -1.7 -1.7 -1.7 -1.7 -1.7 -1.7 -1.7 -1.7 -1.7 -1.7 -1.7 -1.7 -1.7 -1.7 -1.7 -1.7 -1.7 -1.7 -1.7 -1.7 -1.7 -1.7 -1.7 -1.7 -1.7 -1.7 -1.7 33.7 42.8 40.7 40.5 40.4 36.4 35.8 36.8 42.5 47.8 49.3 49.9 49.8 49.8 48.9 48 46.9 46.9 52 66 72.1 72.8 70.7 70.6 65.1 56.9 54.1 53.8 51.7 47.9 48.5 47.3 48.4 45.5 44.8 47.7 49 52 52 48.9 41.6 36.7 34.4 35.9 34 27.8 24.4 22.1 20.5 19.6 19 18.4 18.9 17.5 16.3 16.3 15.1 13.3 12.6 14.7 20.7 28.3 28.3 26.1 24.8 22.1 19.9 19.8 18.4 17.4 17.2 18.1 15.9 19.1 17.9 11.8 16.7 12.3 14.2 14 13.8 11.7 11.1 11.2 11.9 11.6 10.2 10.9 9.8 8 5.1 6.9 8 7.9 7.8 8.4 8.1 8.2 8.3 8.1 8.4 9.3 8.4 9.5 9 11.6 11.4 12.7 11.2 12.8 14.4 15.1 15.1 14.3 12.2 10.4 8.1 5.4 4.9 3.5 1.6 0.8 0.1 -1.7 -1.7 -1.7 -1.7 -1.7 -1.7 -1.7 -1.7 -1.7 -1.7 -1.7 -1.7 -1.7 -1.7 -1.7 -1.7 -1.4 -1.1 -0.7 -0.3 0 0.4 0.6 0.8 1 1 1.2 1.5 1.7 3.5 4.5 4.8 -1.7 -1.7 -1.7 4.3 -1.7 -1.7 -1.7 -1.7 -1.7 -1.7 -1.7 -1.7 -1.7
-1.7 -1.7 -1.7 -1.7 -1.7 -1.7 -1.7 -1.7 -1.7 -1.7 -1.7 -1.7 -1.7 -1.7 -1.7 -1.7 -1.7 -1.7 -1.7 -1.7 -1.7 -1.7 -1.7 -1.7 -1.7 -1.7 -1.7 -1.7 -1.7 -1.7 -1.7 35.2 37.3 39.1 39.7 40.5 38.4 36.6 38.6 44.1 48.1 50.1 51.2 51.4 53.5 53.3 53 49.6 49.1 51.4 52.6 56.1 72.7 71.8 70.1 66.8 63.3 59.2 57.4 54.7 51.3 46.1 42.1 43.3 46.3 43.3 42.8 44.3 48.3 50.9 46.6 39.3 36.1 38.7 36.7 40.1 33.4 25 22.6 21.2 20.5 20 19.4 22.2 20 17.5 17.9 18 16.6 12.7 11.6 14.1 27 27.6 26.2 23.6 24.6 21.7 21.1 18.6 17.9 17.3 16.7 14 17.4 13.5 16.7 18.4 11.7 13.7 13.2 12.6 13.1 12.2 10.9 10.5 13.4 13.6 12.4 10.7 8.4 7.8 8.1 8.3 8.2 8.1 7.6 8 8.5 8.4 8.5 8.4 8.4 8.6 8.4 8.4 8.4 9.3 13.4 12.4 12.4 12.9 13.9 15.1 14.4 13.7 11.3 9.1 6.3 3.7 3.2 4 1.4 0.4 -0.5 -1.7 -1.7 -1.7 -1.7 -1.7 -1.7 -1.7 -1.7 -1.7 -1.7 -1.7 -1.7 -1.7 -1.7 -1.7 -1.7 -1.4 -1 -0.7 -0.3 0 0.2 0.4 0.6 0.7 0.7 0.9 1.1 1.4 1.5 1.9 3 -1.7 -1.7 -1.7 4.9 3.5 1.3 -1.7 -1.7 -1.7 -1.7 -1.7 -1.7 -1.7
-1.7 -1.7 -1.7 -1.7 -1.7 -1.7 -1.7 -1.7 -1.7 -1.7 -1.7 -1.7 -1.7 -1.7 -1.7 -1.7 -1.7 -1.7 -1.7 -1.7 -1.7 -1.7 -1.7 -1.7 -1.7 -1.7 -1.7 -1.7 -1.7 -1.7 -1.7 1.5 36.4 40.3 40.1 40.4 39.8 43.6 45.5 49.1 51.4 51.6 51.8 52.1 55.6 55 53.3 51.2 49.1 48.9 50.1 53.2 62.8 71.7 66.3 66.4 62.4 60.2 56.6 53.9 51 44.5 46.8 43.6 39.3 39 39.6 46.1 42.4 41.3 41.7 41.1 40.2 40.7 38.6 38.4 27.2 24.7 22.5 21.4 20.9 20.5 23.2 23.9 20.8 19 20 19.3 17.9 13.7 12.2 14.6 18.9 19.9 18.1 20.3 23.8 24 20.6 17.3 18.8 14.8 15.4 14.3 14.1 14 12.8 12.9 13.2 11.5 11.2 13.2 11.5 11.8 11.7 13.3 14.9 15.3 13.6 10.2 8.4 8.8 8.3 7.7 8.4 8.3 8 8.2 8.3 8.2 8.4 8.5 8.6 8.5 8.3 8.4 8.3 9.3 12.4 11.5 10.6 13.4 13.4 13.8 13.7 13 10.6 9.4 5.9 3.3 3.8 3.6 1.5 0.5 -0.5 -1.7 -1.7 -1.7 -1.7 -1.7 -1.7 -1.7 -1.7 -1.7 -1.7 -1.7 -1.7 -1.7 -1.7 -1.7 -1.7 -1.3 -1 -0.6 -0.4 -0.2 0 0.2 0.3 0.3 0.3 0.5 0.8 0.8 0.9 1.3 0.7 -1.7 -1.7 -1.7 6.7 3.8 2.8 1.1 -1.7 -0.9 -0.6 -1.7 -1.7 -1.7
-1.7 -1.7 -1.7 -1.7 -1.7 -1.7 -1.7 -1.7 -1.7 -1.7 -1.7 -1.7 -1.7 -1.7 -1.7 -1.7 -1.7 -1.7 -1.7 -1.7 -1.7 -1.7 -1.7 -1.7 -1.7 -1.7 -1.7 -1.7 -1.7 -1.7 -1.7 1.8 36.4 40.9 40.1 42.5 45.4 47.4 53.4 54.9 52 51.1 50.8 50.3 49.6 50.4 52.1 52.3 48.9 50.6 53.3 56.4 58.8 61.2 62.7 63.9 61.7 58.9 56.9 54.8 51.9 43.8 45.6 47.1 38.5 36.5 37.8 38.8 41.3 40.8 37.7 38.7 40.8 35.6 38 33.3 25 24.2 23.3 22.3 21.7 22.1 22.6 22.5 22.1 22.5 21 19.8 18.8 15.5 12.4 17.3 18.6 16.3 14.8 18 23.3 20.4 17.4 14.3 14.7 14.4 14.9 14.9 14.4 13.3 13 13.5 12.6 11.9 12.4 9.9 10.2 10.8 10.9 16.1 16.1 14.9 12 8.8 8.3 7.8 7.8 7.9 8.2 8 8.3 8.6 8.4 8.1 8.2 8.3 8.4 8 8.5 8.5 8.2 8.7 10.9 11.7 11.4 12 13.3 13.6 12.5 11.7 11.5 10.4 4.6 3.6 3.4 4.7 1.4 0.3 -0.8 -1.7 -1.7 -1.7 -1.7 -1.7 -1.7 -1.7 -1.7 -1.7 -1.7 -1.7 -1.7 -1.7 -1.7 -1.7 -1.6 -1.3 -1.1 -0.9 -0.7 -0.5 -0.3 -0.1 -0.1 -0.1 -0.1 0.2 0.4 0.2 0.3 0.6 -0.3 -1.7 -1.7 -1.7 5.1 4.9 3 3.2 0.7 0.4 0.7 0.9 4.1 5.2
-1.7 -1.7 -1.7 -1.7 -1.7 -1.7 -1.7 -1.7 -1.7 -1.7 -1.7 -1.7 -1.7 -1.7 -1.7 -1.7 -1.7 -1.7 -1.7 -1.7 -1.7 -1.7 -1.7 -1.7 -1.7 -1.7 -1.7 -1.7 -1.7 -1.7 -1.7 -1.7 1.9 38.3 41.3 43.4 47.9 53.7 55.2 52.4 49.8 49.5 47.7 47.2 49.1 51.8 46.9 47.8 51.3 55.6 64.8 68 61.3 62.3 62.4 62.5 60.3 60.2 59.1 55.2 51.5 44.5 48.3 41.9 43.4 40.4 34.8 37.8 39 42.6 35.8 35.5 35.4 33 29.9 26.6 25.6 24.9 24.7 21.1 22 22.8 24.1 23.7 23.8 23.4 22.4 21.8 21.7 21.5 13 13.5 17.8 16.2 14.3 14.6 14.6 14.2 13.3 13.7 15.3 16.2 14.7 13.9 14 13 12.5 13.2 12.5 10.6 11.5 11 9.1 8.7 10.7 11.5 14.4 13.8 12 8.4 9.5 8 9.1 8.1 8.5 8.3 8.7 8.4 8.3 8.2 8.3 8.3 8.4 8.2 8.2 8.3 8.4 8.9 9.1 11.3 11 9.5 13.8 13.8 11.2 9.5 9.4 6.6 4.3 3.5 3.4 3.2 1.3 0.3 -0.9 -1.7 -1.7 -1.7 -1.7 -1.7 -1.7 -1.7 -1.7 -1.7 -1.7 -1.7 -1.7 -1.7 -1.7 -1.7 -1.7 -1.5 -1.3 -1.1 -0.9 -0.7 -0.5 -0.5 -0.5 -0.5 -0.4 -0.1 -0.2 -0.5 -0.4 -0.3 -1.3 -1.7 -1.7 -1.7 5.5 5 4.2 3.1 1.9 1.8 2.6 5.9 6.3 7.4
-1.7 -1.7 -1.7 -1.7 -1.7 -1.7 -1.7 -1.7 -1.7 -1.7 -1.7 -1.7 -1.7 -1.7 -1.7 -1.7 -1.7 -1.7 -1.7 -1.7 -1.7 -1.7 -1.7 -1.7 -1.7 -1.7 -1.7 -1.7 -1.7 -1.7 -1.7 -1.7 0.4 37.4 41 44.9 48.8 51.2 50.6 48.3 47.8 46.3 45.1 43.6 43.4 43.4 45.5 49.2 61.1 67.6 70.1 67.9 63.1 63.4 62 60.7 60.9 59.5 56 52.2 47.7 41.6 38.6 41.6 39.8 38.9 36.4 33.9 38.8 35.6 34.5 35.1 34.5 31.4 27.1 25.1 26 25.4 23.6 21.7 23.1 23.6 24.8 25.6 26.5 25.9 23.1 25.2 20.8 14.8 12 12.3 16.4 16.4 14 13.9 13.5 13.7 13.9 15.7 19.4 18 16.6 14.4 13.6 12.8 12 11.4 10.6 9.8 10.6 9.8 8.7 8.2 7.9 8.5 11 12.3 9.1 9.5 9.4 9.2 9.5 8.8 8.2 8.3 8.2 7.8 8.2 8.2 8.3 8.3 8.5 8.5 8.3 7.9 8.2 8.8 7.9 9.8 10.8 10.8 11 9.5 7.7 8 6.9 5.1 3.7 3 3.3 1.9 1.2 0.1 -1.1 -1.7 -1.7 -1.7 -1.7 -1.7 -1.7 -1.7 -1.7 -1.7 -1.7 -1.7 -1.7 -1.7 -1.7 -1.7 -1.7 -1.7 -1.7 -1.3 -1.1 -1 -0.9 -0.9 -0.9 -0.8 -0.7 -0.7 -0.8 -1.2 -1 -1.3 -1.7 -1.7 -1.7 -1.7 5.1 5.3 3.5 3.4 4.7 5.8 8.2 9.7 11.1 13.8
-1.7 -1.7 -1.7 -1.7 -1.7 -1.7 -1.7 -1.7 -1.7 -1.7 -1.7 -1.7 -1.7 -1.7 -1.7 -1.7 -1.7 -1.7 -1.7 -1.7 -1.7 -1.7 -1.7 -1.7 -1.7 -1.7 -1.7 -1.7 -1.7 -1.7 -1.7 -1.7 1.9 37.9 42.1 46.2 47.5 45.8 45.3 46.3 45.4 43.1 42.2 41.6 41 42.9 54 62.6 65.9 70.7 69.7 67.5 67.4 66.4 62.5 59.5 59.9 57.9 56.1 53.4 48.4 37.8 39.3 47.2 45.1 42.5 34.8 32.5 31.9 33 34.1 34 32.5 29.9 25.4 26.8 27 22.5 20.1 21.7 22.7 24.3 30.6 29.4 32.3 27 24.6 26 18.8 12.4 11.8 12 13.1 13.3 14.4 14.2 13.6 14.8 16 21.2 21.8 18.8 18.5 15.8 13.2 14.2 11.4 10.9 10.1 10.2 11.4 9.8 9.5 9 6.8 7 6.9 7.3 9 8.9 9.1 9.5 9.2 8.2 8 8.3 8.4 8.4 8 8.1 8.3 8.4 8.6 8.7 8.7 8.4 8.3 8.7 8.2 9.5 10.3 10.5 8.6 7.8 6.7 7.9 6.1 4.6 3.2 3.6 4.4 1.9 1.1 0.2 -0.9 -1.7 -1.7 -1.7 -1.7 -1.7 -1.7 -1.7 -1.7 -1.7 -1.7 -1.7 -1.7 -1.7 -1.7 -1.7 -1.7 -1.7 -1.7 -1.7 -1.4 -1.3 -1.2 -1.2 -1.2 -1.2 -1.1 -1.3 -1.7 -1.7 -1.7 -1.7 -1.7 -1.7 -1.7 -1.7 4.3 4 3.8 4.7 6.1 8.1 11.1 14.8 17.1 18.6
-1.7 -1.7 -1.7 -1.7 -1.7 -1.7 -1.7 -1.7 -1.7 -1.7 -1.7 -1.7 -1.7 -1.7 -1.7 -1.7 -1.7 -1.7 -1.7 -1.7 -1.7 -1.7 -1.7 -1.7 -1.7 -1.7 -1.7 -1.7 -1.7 -1.7 -1.7 -1.7 32.9 38.6 42.2 44.1 43.9 43.4 43.5 42.2 42.2 41.3 41.1 41 42.5 52 60 65.9 66.4 66.7 67.8 68.2 70.4 66.2 59.5 57.1 55.7 53.6 47.9 42.5 38.8 38.5 45.7 45.3 46.2 41.2 34.9 31.8 31.8 33 32.3 31.6 30.7 27.9 23.3 29.6 27 17.7 18.9 20.9 22.2 26.3 25.9 24.6 23.5 22.6 25.9 23.6 14.9 12.8 12 11.9 13.5 14.2 14.5 14.2 14.6 16.5 21.2 24.1 18.1 17.4 16.4 14.2 14.3 14.9 12.3 10.2 10.1 9.8 10.3 10.2 10.5 9.4 5.3 6.6 5.8 4.4 7 7.2 9.6 9.6 8.4 8 7.9 8 8 7.9 8.8 8 8.5 8.4 8.2 8.1 8.8 8.7 8.2 8.1 7.9 8.9 9.7 11 11.3 7.7 7.9 6.9 5.4 3.7 5 5.6 5.1 1.7 0.8 -0.1 -1.1 -1.7 -1.7 -1.7 -1.7 -1.7 -1.7 -1.7 -1.7 -1.7 -1.7 -1.7 -1.7 -1.7 -1.7 -1.7 -1.7 -1.7 -1.7 -1.7 -1.7 -1.7 -1.6 -1.6 -1.6 -1.7 -1.7 -1.7 -1.7 -1.7 -1.7 -1.7 -1.7 -1.7 -1.7 -1.7 4.1 4.4 5.6 6.8 8.5 10.8 14.2 18.7 21.5 24
-1.7 -1.7 -1.7 -1.7 -1.7 -1.7 -1.7 -1.7 -1.7 -1.7 -1.7 -1.7 -1.7 -1.7 -1.7 -1.7 -1.7 -1.7 -1.7 -1.7 -1.7 -1.7 -1.7 -1.7 -1.7 -1.7 -1.7 -1.7 -1.7 -1.7 -1.7 -1.7 34.7 38.8 41.6 42.2 42.1 42.5 42.1 40.9 40.5 40.7 40.8 42.7 46.8 55.6 59.6 61.3 63.4 64.9 68.6 68.9 67 62 58.5 54 50.8 45.7 39.3 37 38.3 35.8 35.1 34.4 36.4 37.3 35.8 31.1 32.1 31.2 30.8 29.4 28.7 28.2 22.3 24.7 19.6 18.6 17.5 19.3 21.9 26.5 25.6 24.9 21.2 19.5 20.7 16 12.8 12.8 13.2 14.8 14 14.4 14.6 15 17.7 19.4 21.3 19.8 15.6 15.3 14 14 16.5 14.7 12.8 9.4 10.8 10.7 7.7 10.1 11.1 9 6.8 7.5 8.4 7 4.5 4.2 7.5 7.1 9.2 8.6 8.7 8.2 8 7.8 8.4 8.8 8.8 8.8 8.3 8.1 7.8 8.3 8.4 8 8.3 8 9.2 8.7 11.2 10.3 7.2 6.1 5.4 6.8 6.2 6.8 5.2 1.8 0.8 -0.2 -1.1 -1.7 -1.7 -1.7 -1.7 -1.7 -1.7 -1.7 -1.7 -1.7 -1.7 -1.7 -1.7 -1.7 -1.7 -1.7 -1.7 -1.7 -1.7 -1.7 -1.7 -1.7 -1.7 -1.7 -1.7 -1.7 -1.7 -1.7 -1.7 -1.7 -1.7 -1.7 -1.7 -1.7 -1.7 4.3 4.5 5.8 7.7 9.9 11.7 14.2 18.9 22.6 25.6 27.8
-1.7 -1.7 -1.7 -1.7 -1.7 -1.7 -1.7 -1.7 -1.7 -1.7 -1.7 -1.7 -1.7 -1.7 -1.7 -1.7 -1.7 -1.7 -1.7 -1.7 -1.7 -1.7 -1.7 -1.7 -1.7 -1.7 -1.7 -1.7 -1.7 -1.7 -1.7 32.6 35.6 37.9 39.9 40.9 42.2 42.4 40.8 40.4 40.4 40.7 42.7 44.6 52.9 52.7 56.1 61.8 62.4 64.3 64.6 63.8 62.8 62.4 57 50.5 47.2 42.6 38 35.3 34.6 34.3 33.1 32.9 36.7 32.2 31.4 31.4 30.1 29.3 27.8 26.9 26.9 25.5 17.3 19.7 23.7 18.7 18.7 17.7 21.5 29.3 27.6 23 20.8 17.9 15.3 14.1 12.6 12.6 13.9 15.1 15 15.8 15.3 18.1 20 20 19.2 17.1 15.7 14.7 14.1 13 14.5 10.7 10.7 10.2 10.6 9.6 8.4 8.1 10.8 11.5 12.2 11.2 11.4 10 6.7 6.1 7 10.8 8.2 8.2 8.9 9.2 7.9 7.8 8.1 8.2 8.5 8.9 8.3 8 7.8 8.2 8.5 8.2 8.1 8 9.2 8.4 8.4 11.5 5.7 5.8 6.1 7.2 7.5 7.3 4.5 1.4 0.6 -0.2 -0.6 -1 -1.7 -1.7 -1.7 -1.7 -1.7 -1.7 -1.7 -1.7 -1.7 -1.7 -1.7 -1.7 -1.7 -1.7 -1.7 -1.7 -1.7 -1.7 -1.7 -1.7 -1.7 -1.7 -1.7 -1.7 -1.7 -1.7 -1.7 -1.7 -1.7 -1.7 -1.7 -0.7 2.4 5.2 6.3 7.8 9.7 12.3 14.3 17.4 20.7 24.7 28.7 32.7
-1.7 -1.7 -1.7 -1.7 -1.7 -1.7 -1.7 -1.7 -1.7 -1.7 -1.7 -1.7 -1.7 -1.7 -1.7 -1.7 -1.7 -1.7 -1.7 -1.7 -1.7 -1.7 -1.7 -1.7 -1.7 -1.7 -1.7 -1.7 19.6 12.6 14.1 34.1 37 38.7 40.2 41.7 42 41.1 40.5 40.7 40.4 42 43.4 45.2 48.4 50.8 59.9 60.4 59.4 60.3 61.1 60.3 61.4 55.6 53.9 48.4 45.3 41.2 38 35.7 35.4 35.4 33.2 33.9 35 34.1 31.7 30.1 29.4 30.1 27.2 22.5 24.3 22.5 16 28 21.4 18.8 24.9 17.2 17.9 23.7 18.2 18.1 18.1 15.6 15.6 14 14.4 14 14.6 15.8 16.8 16.7 18.7 20.5 21.5 20.5 19.4 18.5 17.7 16.2 14.3 11.2 10.8 9.1 10.4 10.2 9.9 8 8.4 8 10.2 13.2 15.8 16.2 15.6 11.5 8.8 9.3 8.1 8.1 8 7.2 7.8 8.5 10.2 13.6 9.3 8.9 8.4 8.5 7.9 8 7.7 7.6 8 8.1 8.2 9.4 9.5 9.3 8.6 8.4 9.8 5.9 5.6 6.8 9.3 4.8 2.7 1.4 0.7 0.3 -0.2 -0.8 -1.3 -1.7 -1.7 -1.7 -1.7 -1.7 -1.7 -1.7 -1.7 -1.7 -1.7 -1.7 -1.7 -1.7 -1.7 -1.7 -1.7 -1.7 -1.7 -1.7 -1.7 -1.7 -1.7 -1.7 -1.7 -1.7 -1.7 -1.7 -1.7 0 1.9 2.2 6 7.6 8.9 10.8 12.1 14.3 16.2 18.5 21 23.7 26.2 29.7
-1.7 -1.7 -1.7 -1.7 -1.7 -1.7 -1.7 -1.7 -1.7 -1.7 -1.7 -1.7 -1.7 -1.7 -1.7 -1.7 -1.7 -1.7 -1.7 -1.7 -1.7 -1.7 -1.7 -1.7 -1.7 -1.7 -1.7 20.6 22.3 27.4 31.8 35 37.3 38.8 40.3 41.8 41.9 40.9 40.5 40.6 41.1 42 42.7 43.2 45.5 55.4 57.9 58.2 58 59.4 54 53.6 54.9 55.6 51.9 49.7 49.2 39 37.7 37.1 35.2 34.2 32.6 35.9 36.3 35.6 30.5 30.7 33.5 31.9 28.4 22.6 21.8 15.8 23.1 21.2 18.6 23.3 22.2 16.7 16.4 17.1 17.8 17.3 16.8 17.4 18.1 17.6 16.9 16.3 15.8 16.6 17.4 18.6 20.2 21.9 21.2 23.5 23.4 21.5 18 16.2 13.4 8.9 8.8 8.4 8.7 8.6 8.2 8.2 9.3 13 14.6 17.1 15.7 16.1 15.9 15.1 12.5 9.5 8 6.8 6.6 6.1 6.9 11.3 14 10.6 9.4 10.1 12.1 9.2 9.2 7.7 7.6 7.3 7.8 7.7 8.7 8.9 9.2 9.5 8.1 8.3 7.2 5.5 5.9 6 5.2 3.9 2.4 1.5 1 0.4 -0.1 -0.6 -1.1 -1.5 -1.7 -1.7 -1.7 -1.7 -1.7 -1.7 -1.7 -1.7 -1.7 -1.7 -1.7 -1.7 -1.7 -1.7 -1.7 -1.7 -1.7 -1.7 -1.7 -1.7 -1.7 -1.7 -1.7 -1.7 -0.1 0.1 1 3.5 6.4 6.8 7.5 9.5 11.4 12.7 14.1 15.2 15.5 16.2 18.3 20.5 22.6 24.9
-1.7 -1.7 -1.7 -1.7 -1.7 -1.7 -1.7 -1.7 -1.7 -1.7 -1.7 -1.7 -1.7 -1.7 -1.7 -1.7 -1.7 -1.7 -1.7 -1.7 -1.7 -1.7 -1.7 -1.7 -1.7 -1.7 26.5 29.6 32.9 32.3 33.8 35 37.2 39.2 40.7 41.9 42.1 41.9 41.9 41.7 42 41.1 40.5 41.3 43.8 55.5 56.1 60.1 58 49.9 50.4 50.1 53.7 53 52.3 50.7 41.8 41.6 40.4 39.6 36.5 32.4 35.1 36.8 36.3 31.1 31.3 38.3 38.8 34 26.2 21.5 16.8 15.7 21.3 17.7 20.4 22.7 17.3 16.7 16.6 16.6 18.2 16.9 17.9 21.8 19 18.2 17.9 17.4 17.3 17.4 18.4 20.2 21.9 21.7 22.1 24.2 26.2 21 17.9 14.3 11.3 9.2 9.2 8.3 8.5 8.2 8.2 14.1 22.2 23.4 22.2 17.8 16.5 16.4 18.2 18.4 14.3 10.4 7.9 6.9 6.4 7.2 10.3 14.6 13.2 12.6 14.7 14 12.4 10.7 9.5 9.4 9.2 8.5 8 8.3 8.1 8.7 9.4 10.6 9.1 8.5 8.7 9.1 4.7 3.9 4 3.1 3.8 1.7 1.1 0.5 0 -0.4 -0.9 -1.3 -1.7 -1.7 -1.7 -1.7 -1.7 -1.7 -1.7 -1.7 -1.7 -1.7 -1.7 -1.7 -1.7 -1.7 -1.7 -1.7 -1.7 -1.7 -1.7 -1.7 -1.7 -1.7 -0.4 0.9 1 1.5 7.4 8 7.8 8.3 9.7 11.7 12.4 13.1 14.1 14.1 13.7 13.6 14.4 15.8 17.7 19.9
-1.7 -1.7 -1.7 -1.7 -1.7 -1.7 -1.7 -1.7 -1.7 -1.7 -1.7 -1.7 -1.7 -1.7 -1.7 -1.7 -1.7 -1.7 -1.7 -1.7 -1.7 -1.7 -1.7 -1.7 -1.7 28.6 35.2 41.8 39.2 37.3 36.3 35.6 36.5 39 40.9 41.9 42.1 42.3 42.5 43.1 42.4 41.6 39.8 40 41 53.4 57 56.4 46 48.2 48.7 47.2 46.3 51 50.5 43.5 42.2 42.4 41.1 34.5 33.9 31.3 31.7 32.8 30.8 37.9 39.7 40.1 39.6 33.3 26.3 22.2 24.9 16.2 29.2 26.3 17.1 17.4 17.7 18.3 17.2 16.8 16.8 17.5 19 25.4 21.2 19.7 18.3 17.8 17.4 18.5 19.9 21.7 21.6 22.2 24.7 24.7 18.3 15.6 12.8 11.5 10.5 9.5 9.4 11 10.4 14.9 17.7 18.6 18.9 20.7 19.4 16.6 16.7 18.2 17.5 16.9 15 12.2 9.2 8.6 7.1 7.1 9.7 13.8 15.1 10.5 9.8 9.4 11.2 9.6 8.7 8.5 8.7 9.2 8.8 8.4 8.6 9.1 8.7 9.1 10.8 9.9 10.3 9.9 6.7 4.5 4.2 3.5 3.8 1.8 1.2 0.6 0.2 -0.2 -0.7 -1.1 -1.5 -1.7 -1.7 -1.7 -1.7 -1.7 -1.7 -1.7 -1.7 -1.7 -1.7 -1.7 -1.7 -1.7 -1.7 -1.7 -1.7 -1.7 -1.7 -1.7 -1.7 0.1 1.7 2.7 6.2 8.6 9.2 8.9 9.3 10 11.7 12.3 13 13.6 12.9 12.8 12.4 13.3 15.1 14.6 15.2 15.6
-1.7 -1.7 -1.7 -1.7 -1.7 -1.7 -1.7 -1.7 -1.7 -1.7 -1.7 -1.7 -1.7 -1.7 -1.7 -1.7 -1.7 -1.7 -1.7 -1.7 -1.7 -1.7 -1.7 -1.7 25.6 34.7 41.3 43 41.9 38.7 38.4 37.1 38.5 38.1 39.9 41.9 42.4 42.4 43 43.3 42.5 40.7 39 40.5 39.3 40.7 41.1 39.8 49.9 47.3 46.8 44.9 43 41.9 43.8 44.3 44.7 44.4 36.9 34.8 32.4 33.1 33.2 32.7 35.3 44 43.4 40.5 35.3 29.5 25.6 20.2 13.1 27.7 24.2 19 22.4 26.6 18.9 21.4 22.1 16.7 22.8 25.7 21.7 25.3 22.7 21.2 19.3 17.7 18.1 19.6 21.3 22.2 21.5 20.2 20 20.4 24.5 21.1 14.9 10.8 11.3 10.5 11 12.2 20.2 18.9 18.6 16.2 16.2 16.5 16.8 16 16.4 16.6 16.1 15.4 13.4 12.8 15.8 11.9 9.6 7.6 8.1 11 11.4 10.9 9.7 8.7 9.4 8.5 8.5 9.1 9.6 9.8 9.7 10.4 9.9 11.4 8.6 7.3 6.7 8.2 7.7 7.3 7.1 6.2 5 4.6 3.9 1.8 1.3 0.8 0.4 0 -0.5 -0.9 -1.3 -1.7 -1.7 -1.7 -1.7 -1.7 -1.7 -1.7 -1.7 -1.7 -1.7 -1.7 -1.7 -1.7 -1.7 -1.7 -1.7 -1.7 -1.7 -1.7 0 1.4 8.4 8 8.8 10.2 10 10.2 10.8 11.4 12.5 13 13.1 12.8 11 10.6 13 14.8 16.1 15.7 14.1 12.9
-1.7 -1.7 -1.7 -1.7 -1.7 -1.7 -1.7 -1.7 -1.7 -1.7 -1.7 -1.7 -1.7 -1.7 -1.7 -1.7 -1.7 -1.7 -1.7 -1.7 -1.7 -1.7 -1.7 -1.7 36.8 40.4 40.7 41.1 41 39.7 40 41.6 40.9 39.1 39.6 40.6 40.9 42.2 43 43.3 42.2 40 37.7 36.6 36.6 37 35.2 36.4 45.5 46.8 46.2 44.8 42.7 38.9 37.5 38.6 41.6 39.1 32.3 33.2 34.2 33.2 32.1 33.2 36.6 39 42.6 39.8 32.6 27.6 17.7 12.5 26 28.2 23 27 25.9 24.1 22.8 18.7 20.2 26 17.6 18.2 25.1 27.8 23.4 21.3 19.5 18.4 19.4 22.2 22.7 22.2 22.6 19.5 24.8 26.8 24.1 20.4 16.2 11.1 10.1 9.3 12.1 15 19.9 16.6 16.8 19.2 19.4 16.9 16.2 15.6 15.3 16.7 13.4 13.6 14.2 17.5 17.8 16.2 13.4 9.5 8.7 10.8 12.7 11.6 9 9.1 8.9 9.5 9.3 9.6 10.3 10.3 10.6 11.4 11.8 12.4 12.6 11 10.3 11.5 6.5 6.1 6.6 6 5.8 5.5 4.4 1.9 1.5 1 0.6 0.2 -0.3 -0.7 -1.1 -1.7 -1.7 -1.7 -1.7 -1.7 -1.7 -1.7 -1.7 -1.7 -1.7 -1.7 -1.7 -1.7 -1.7 -1.7 -1.7 -1.7 -1.7 -1.7 0.9 9.6 9.4 9.3 10.2 10.4 11.4 11.4 11.7 12.1 12.2 12.8 12.8 11 9 10.8 13.6 15.4 16.6 16.2 13.8 11.1
-1.7 -1.7 -1.7 -1.7 -1.7 -1.7 -1.7 -1.7 -1.7 -1.7 -1.7 -1.7 -1.7 -1.7 -1.7 -1.7 -1.7 -1.7 -1.7 -1.7 -1.7 -1.7 -1.7 35.1 40.4 40.4 40.9 40.6 40.8 42.3 42 42.9 42.9 41.1 38.7 38.9 39.6 41.2 42.4 42.7 40.7 38.6 37.4 36.9 36.1 34.1 33.3 33.6 34.7 36.9 38.6 41.7 45.8 41.8 36.2 33.4 33.9 30.3 32.5 34.7 34.9 31.9 32 33.4 35 37.6 38.7 34.7 30.8 24.9 12.2 16.2 23 24.8 22.4 24.9 22.3 22.6 19 17.9 27.4 24.1 23.4 17.3 27.8 25.5 22.2 23.2 22 22 22.7 22.8 23 23.8 23.6 20.9 21.9 26.2 24.8 24.5 14.3 10.1 9 10.8 14.6 16 16.6 20.3 20.5 19.7 19.2 16.1 15.1 14.9 16.6 14.5 13.4 14.7 16.1 16.6 18.5 17 14.1 12.2 9.8 12.2 13.3 10.6 8.2 8.5 9.1 10.3 9.7 9.9 10.4 10.9 11.6 12.4 14.5 13.7 12.7 11.6 12.3 10.8 9.3 8 6.3 5.3 5.3 5.5 5.2 4.2 1.6 1 0.5 0.1 -0.4 -0.8 -1.3 -1.7 -1.7 -1.7 -1.7 -1.7 -1.7 -1.7 -1.7 -1.7 -1.7 -1.7 -1.7 -1.7 -1.7 -1.7 -1.7 -1.7 -1.7 0.7 3.3 9.5 9.7 10.4 10.5 11.2 11.6 11.7 12.2 11.9 12.1 12.4 10.5 8.3 7.9 10.6 13.3 15.9 16.7 15.8 13.4 10.1
-1.7 -1.7 -1.7 -1.7 -1.7 -1.7 -1.7 -1.7 -1.7 -1.7 -1.7 -1.7 -1.7 -1.7 -1.7 -1.7 -1.7 -1.7 -1.7 -1.7 -1.7 -1.7 27.9 34.5 38.7 39 39.9 40.5 41.1 41.9 43.5 43.9 43.6 42.4 40.3 38.2 38.8 40.2 41.2 41.3 39.9 39.1 38.3 37.6 36 32.8 32.2 31.6 35.3 33.4 34.7 44.4 41.8 39.3 34.6 27.8 28.2 35.6 39.3 38.2 33.9 32.1 33.7 34.6 35.1 35.9 35.5 31 24.2 12.9 12.7 19.1 20.4 23.3 23 20.4 18.4 20.7 18.3 23.8 26.2 24.9 21.1 18.2 20.2 24.6 22.1 25.7 25.8 26.4 24.3 23.6 25.4 25 25.3 24.2 22.7 22 25.1 23.3 12.3 11.5 9.8 10.7 20.2 18.4 20 22.9 21.2 18.6 16.2 15.1 15.4 15.7 16.8 14.6 14.6 14.6 14.9 14.7 14.9 14.9 14.7 14.4 12.3 12.1 10.9 9.2 9.1 9.7 10.7 11.6 11.1 10.4 10.7 11.6 12.9 15.1 16.5 14.1 14.6 13 13.8 13.5 10 8.9 7 7.2 4.8 3.4 4.5 4.8 1.9 1.4 0.7 -0.1 -0.8 -1.2 -1.7 -1.7 -1.7 -1.7 -1.7 -1.7 -1.7 -1.7 -1.7 -1.7 -1.7 -1.7 -1.7 -1.7 -1.7 -1.7 -1.7 -1.7 0.3 3.3 9.9 9.9 10.6 10.9 11.6 11.6 11.8 11.5 11.2 11 11.2 9.7 7.8 5.7 8.1 10.5 13 15.4 17 14.8 11.7 7.7
-1.7 -1.7 -1.7 -1.7 -1.7 -1.7 -1.7 -1.7 -1.7 -1.7 -1.7 -1.7 -1.7 -1.7 -1.7 -1.7 -1.7 -1.7 -1.7 -1.7 -1.7 -1.7 29.8 32.8 35.6 38 40.2 40.2 41 40.6 41.2 43.4 42.8 41.2 41 39.5 38.2 38.9 40 40.4 40.3 43.1 39 34.4 31.8 31.2 31.3 31.6 31.8 31.1 31.1 31.9 34.7 28.9 26.8 28.5 32.9 33.8 40.9 40 35.6 34.5 35.7 35.8 35.6 33.8 30.3 26.4 18.7 11.1 16.6 21.5 20.4 21.2 26.1 19.1 18.2 21.2 18.8 21.8 24 23.5 20.8 23.7 16.5 23.2 21.9 23.6 27.5 26 24.7 25.9 27.3 27.3 27.5 28.4 24 23.3 18.8 12.8 12.8 12.9 12.5 14.5 18.1 20.4 20.7 19.2 17 16.3 16.2 17.3 21 21.1 17.1 14.5 13.4 14 14.6 15.8 15.5 15.3 15.7 15 15.6 11.6 10.8 10 10.5 11.2 11.7 12.7 13.1 11.4 11.6 13.7 13.6 14.8 15.4 18 15.8 14.3 13.6 11.7 8.4 6.4 4.7 5.3 2.2 2.2 1.6 4 2.9 4.6 1.5 0.6 -0.3 -1.7 -1.7 -1.7 -1.7 -1.7 -1.7 -1.7 -1.7 -1.7 -1.7 -1.7 -1.7 -1.7 -1.7 -1.7 -1.7 -1.7 -0.4 0.8 6.7 9.5 10.7 10.7 11.7 12.5 12.9 13.1 12.2 11.4 10.7 10.1 9.4 6.7 5.3 5.9 8.5 10.9 13.3 15.4 15.6 12.6 8.4 4.3
-1.7 -1.7 -1.7 -1.7 -1.7 -1.7 -1.7 -1.7 -1.7 -1.7 -1.7 -1.7 -1.7 -1.7 -1.7 -1.7 -1.7 -1.7 -1.7 -1.7 18.3 24.1 28.9 32.6 35.4 37.4 38.7 38.9 40.1 39.5 39.9 40.8 39.6 39.6 39.9 40.6 38.6 37.1 38.8 40.9 40 38.9 41 32.4 31.3 32.1 32.6 33.3 32.8 32 29.8 27.6 26.6 26.1 27.8 35.2 39.4 39.2 36.6 38.3 35 34.8 34.8 34.5 33.6 30.6 26 21.7 14.3 11.9 29.6 26.9 22.5 28.5 25.7 20.6 21.3 22.8 21.8 26.7 29.4 25.1 22.2 21.7 20.5 15.1 18.1 25.2 23.9 25.4 28.3 30.8 28.6 26.6 24.9 24.4 16 14.4 12.5 13.2 14.4 15.8 16.1 19.1 25.1 25.8 25.8 19.6 16.4 16.9 21.1 20.8 21.8 16.7 15.2 13.8 13.7 14.2 15 14.6 14.8 15.1 13.7 15.5 13.6 14.3 12.7 11.7 12.2 12.6 13.3 14.4 13 13.7 13.8 13.4 14.5 14.2 18.3 18.2 17.7 15.9 12.2 11.2 5.2 -1.7 -1.7 -1.7 -1.7 0.6 1.9 -0.5 -1.7 4.3 4.1 3 0.5 -1.7 -1.7 -1.7 -1.7 -1.7 -1.7 -1.7 -1.7 -1.7 -1.7 -1.7 -1.7 -1.7 -1.7 -1.7 -1.7 0.1 1.4 9.4 10.1 10.9 11.9 12.4 12.7 13.9 14.5 14.4 12.6 10.5 9.6 9 7 4.1 3.3 6 8.9 11.6 14 15.1 13.6 10.2 5.7 3.1
-1.7 -1.7 -1.7 -1.7 -1.7 -1.7 -1.7 -1.7 -1.7 -1.7 -1.7 -1.7 -1.7 -1.7 -1.7 -1.7 -1.7 -1.7 -1.7 -1.7 -1.7 24.6 27.8 32.1 34.9 35.9 36.8 37.2 38.4 38 38.6 37.2 37.2 38.1 39.1 40.3 39.5 37.8 36.4 38.1 36.1 35.5 33 32 32.1 33.6 34.8 35 33.9 31.9 29.2 26.3 26.6 27.4 28 37.8 40.1 39 34.4 32.9 33.6 36.4 34.7 33.3 34.3 24.8 21.8 18.5 11.9 16.1 31.4 23.8 33.2 32.3 27.3 28.2 31.1 25.5 25.4 30.1 29.6 25 21.7 21 18.3 15.7 14.6 17.6 25.2 27.4 30.1 28.1 27.5 26.8 26.7 17.4 15.4 12.6 13.7 16.7 19.1 20.6 23.3 20.6 22.1 25.4 20.8 19.2 18.1 23.4 25.3 20.1 14.5 13.3 13.4 14.4 14.4 14.2 14.9 14.4 13.4 13.6 13.9 13.6 15.1 15.9 13.8 12.8 13.4 13.8 17.5 15.7 13.9 14 16.2 14.1 15.2 15.8 17.3 17.2 17.3 13.2 10.8 4.5 -1.7 -1.7 -1.7 -1.7 -1.7 -1.7 1.9 -1.7 -1.7 -1.7 -1.7 2.5 4 -1.7 -1.7 -1.7 -1.7 -1.7 -1.7 -1.7 -1.7 -1.7 -1.7 -1.7 -1.7 -1.7 -1.7 -1.7 0.7 3.3 10.4 11.1 12.1 13.7 14.4 14.7 15.4 15 16.3 15.5 13 9.9 8.6 7.8 5 3.3 3 6 8.8 11.3 13.6 13.3 11.5 7.6 3.4 2.2
