ncols 200
nrows 82
xllcorner 280000
yllcorner 284550
cellsize 50
611.1 617.4 612.3 596.2 579.3 557.2 536.9 520.2 504.8 492.9 481.7 475.7 471.1 469.4 472.4 485.9 501 526.7 557.2 577.1 583 590.3 599 609.6 616.3 621.4 627.1 634.1 641.4 647.7 654.9 658.7 662.1 662.4 665.4 664.3 662.3 663.1 664.7 664.1 662.7 658.4 654.3 649.7 644.1 636.9 630.5 625.3 619.9 613.2 610.6 606.7 606.8 601.7 594.3 587.6 581.4 580 573.2 565.5 544.8 529.9 509.9 489.8 458.7 445.6 465.2 468.5 466 465.7 459.8 449.4 435 423.7 421.7 414.4 404.5 406.2 415.1 424 436.3 453.7 476.6 494.7 486.7 471.4 464.3 457.9 460.6 458.9 455.5 450.3 444.1 437.8 427.8 416.9 405.6 394.1 383.2 372.5 360.3 360.8 356.1 349.1 352 358.3 363.1 373.9 389.3 407.8 425.2 435.4 428.2 420.1 410.6 404.2 397 387.6 377.3 366.4 349.6 332.8 326.1 322.2 321.3 321.8 322 316 304.4 314.5 316 319.7 323.8 326.8 339.4 355.1 370.9 372.9 357.4 347.8 352.1 349.1 352.5 350.5 348.9 347.9 347.6 348.1 349.9 356.9 362.9 365.5 371.6 376.7 379.3 380.7 384.9 390.2 395.9 402.7 407.3 411.5 415.5 418.6 417.8 413.2 408.2 405.1 402.5 400.7 400.9 398.3 394.6 388.4 381.5 372.4 362.6 347.9 329.9 308 296.2 288.9 297.7 299.9 299.1 296.5 292.5 287.4 290.1 290.7 290.2 294.5 300.7 301 300.6 298.1 280.9 280.9 280.9 280.9
620.2 624.7 612 594.2 574.6 557.2 538.3 526 514.2 498.1 487.3 479.7 468.5 473.9 476.3 484.7 508.2 528.1 557.1 582.4 587.3 595.7 602.6 615.7 622.5 628.6 637.4 644.8 648 658.6 668.4 669.8 672 672.8 673 670.9 670.2 670.5 670.2 668.3 665.8 662 656.4 650.9 645.2 636.9 631.6 624.7 615.9 612.1 609.7 609.9 607.5 602.1 593.6 586.7 582.1 579.5 573 565.5 548 532.9 513.9 493.9 467.3 444.3 455.1 461.4 455.4 453.1 445.5 433.6 422.9 413 410 404.4 396.3 403.8 411.6 420.1 430.5 448.1 472.8 488.6 480.4 464.8 457.4 453.4 456.8 455.3 453.2 446.8 441 434.9 426.2 414.5 404.6 392.4 379.7 373.7 371 365.6 359 358.6 364.2 371.2 377.5 387.5 403 420.8 435.9 435.7 429.1 421.6 412.7 406 397.1 386.6 376.5 363.2 343.4 331.1 327.7 325.3 323.3 323.1 309 318 315.3 320.1 322 329.5 338.9 349 357.8 369.9 379.4 376.1 362.9 365.8 361.8 357.9 356.4 354.3 354.1 354.1 356 354.9 357.7 360.1 366.6 371.7 376.8 381 383.8 387.6 388.8 398.7 405.1 408 409.7 413.8 417.6 419.9 417.3 411.5 407.9 405.8 403.3 402.7 401.9 398.1 392.3 384.2 375.7 366.5 351.2 337.4 316.7 294.2 302.9 308.9 311.8 315.9 314.6 311.1 306.6 298.7 300.2 293.8 300.6 306.2 310.1 310.2 305.2 300.3 280.9 280.9 280.9 280.9
628 626.9 613.4 594.8 580 560.4 543.9 532.8 519.7 501.6 488.9 483 477.3 476 478.9 487 503.2 528.8 560.7 586.2 589.2 598.7 609.4 622.2 627.4 634.1 647.3 653.2 659.4 667.5 677.2 679.7 682.2 681 681.9 678 679.2 677.6 674 672.9 668.2 663.1 656.7 650.5 642.4 635.9 630.5 623.5 615.7 611.3 608.2 608.5 606.7 595.2 588.9 582.9 577.6 575.6 571.9 563 553.2 538.6 520.4 501.9 476.9 448.2 441 458.5 450.4 440.4 433.1 425.3 408.7 402.8 397.5 394.7 393.6 399.2 406 413.5 424.3 442.5 469.2 481.5 471.4 457.5 451.7 450.2 450.9 453.2 449 444.4 440.4 433.2 422.1 412 406.8 394.8 387.9 381.3 375.1 367.5 364.5 371.2 376.9 383.1 390.1 399.6 415.5 431.4 440.2 437.2 429.9 421.4 412.6 404.8 395.7 383.7 371.5 355 337 330 327.6 325 320.4 319.9 324.2 325.2 324.2 330.4 335.7 344.1 359.1 367.2 370.9 381.4 382 365.9 375.7 377.9 375.1 371.9 367.9 363.9 363.5 362.6 364.2 364 367.4 367.9 370.2 374.6 378.5 382.5 388.1 391.9 395.6 404.2 408.8 408.9 412 414.3 416.7 416.3 410.7 407.7 403.7 401.9 401.9 401.5 398.4 391.8 383.9 375.7 366.4 353.2 341.5 327.7 314.1 297.3 311.6 323.4 326.2 325.7 325.5 322.9 316.4 306.6 306.4 301.9 312 316.9 318.9 316.5 308.8 297.8 280.9 280.9 280.9 282.6
635.6 629.7 615.8 598.1 584.5 566.2 549.2 537.1 522.1 504.3 490.9 485.2 477.4 478.4 481.2 487.6 503 524.3 554.6 580.1 590.2 600.8 613.1 623 628.8 641.8 650.2 657.3 665.8 676.9 684.6 689.5 685.6 686.2 689.4 683.1 683.6 681 680.2 675.2 670.8 662.6 655.3 648.6 641.5 633.2 627.1 620.3 612.9 607.8 606.1 604.4 600.4 589.1 585 578.3 575 571.1 566.6 562.8 555.9 542.4 527.8 513.2 489.1 456.6 429.7 443.2 437.3 430.6 420.2 409.9 401.4 399.1 395.9 392.2 389.9 393.2 400.6 406.7 418.1 433.8 458.3 467.2 457.5 448.1 445.7 444.8 454.8 453 448.9 446.8 441.8 437.5 433.8 425.1 416.3 403.8 393.5 385 377.5 370.8 376.6 383.5 390.4 395.6 401.8 411.3 425.7 437.2 439.4 435.2 427.1 418.7 411.3 402.5 392.6 380.2 365 343.4 334.5 328.9 325.3 321.9 322.4 325.4 327.4 330.6 332.6 342.7 357.5 362.5 373.7 379.8 381.5 386.4 380.9 380 388.9 388.4 381.8 383.5 382.4 379.3 377.2 376.3 375.3 375.1 375.2 374.9 375.7 378.4 381.7 386 390.5 396.5 398.6 402.1 407.2 411.1 412.3 413.9 411.7 408.6 403.4 400.2 398.2 398 398.1 395 388.3 380.7 372.5 366.6 356.2 344.4 331 322.7 314.1 303.8 324.2 327.2 332.1 335.8 335.4 331.8 323.8 317.6 308.5 311.6 321.8 326.6 329.1 325.5 322.1 306.1 280.9 280.9 280.9 287.7
640.4 632.5 619.3 602.1 590.8 565.6 553.1 542.1 524.9 507.3 492.9 483.1 477.4 479 481.3 487.3 501.9 521.3 548 578.4 588.4 600.7 613.4 622.2 632.4 641.3 651.3 663 671 679.9 689.1 689.5 688.8 691 692.6 688.9 689.8 683.1 679.9 673.3 667.1 659.3 651.8 645.6 638.4 628.7 625.2 616.5 609.4 603.2 600.7 601.4 590.9 580.2 577.4 571.9 571.8 565 561.6 559.4 553.3 543 529.1 506.9 485.1 457.7 433.8 423.4 424.3 424.7 425.7 410.1 401.8 399.2 396 391.3 387.5 387.7 393.6 399.4 409.9 422.6 441.5 452.4 445.1 432.4 442.2 442.6 456.8 453.1 451 447.8 447.6 447.8 440.7 430.5 419.8 406.5 394.7 385.3 378 383 388.8 396.8 403.7 407.8 413.7 421.2 432.6 439.2 436.6 429.5 421.9 414.8 407.2 399 388 376.1 357.9 340.3 333.2 328.7 323.1 319.3 325.1 328.3 331.9 337.6 346.5 357.9 376.1 378.9 383.9 385.1 387.8 383.8 386.4 390.9 396.8 395.8 393 394.7 394 392.5 390.8 388.6 386.8 384.6 383.6 380 380.2 383.4 386.1 388.4 388.3 394.5 399.5 401.1 405.5 406.6 408.6 408.1 402.2 396.9 393.7 389.5 388.5 387.6 386.4 381.2 374.7 368.2 361.9 354.7 345.4 333.2 322.7 314.4 306.7 323.5 330 333.6 337.2 343 344 340.2 329.2 326 313.9 321.9 331.6 338.5 340.7 338.2 332.2 306.7 280.9 280.9 280.9 286.7
647.8 639.9 624.8 609.4 591.7 570.5 557.3 546.3 530.3 510.9 493.2 482.6 478.2 480.3 482.2 488.8 500.7 518.1 540.8 565.2 581.3 597.6 611.3 622.7 632.3 643.5 653.8 665.1 673.6 684.1 692 691 693 693.9 695.3 695.5 690 685.4 677.5 670.2 661.3 652.5 646.9 640.3 631.5 624.3 620.3 611.1 604.3 597.9 596.9 591.8 580.8 572.1 568.7 565.4 566.8 562 557.7 554.4 549.4 541.6 531 512.8 489.7 477.9 459.1 446.8 432.1 419.5 412.2 402 399.8 396.8 393.9 390.9 388.6 385.2 386.5 393.1 399.9 408.9 420.7 434.4 432.4 429.7 427.5 442.4 449 453.8 452.2 451.7 452.7 450.8 443.7 433.1 420.9 407.4 395.1 384 388.5 397.2 402.8 410.7 415.4 418.1 422.7 428.4 435.2 435.7 429 423.9 418.3 411.5 403.9 394.4 384.7 368.3 345.6 336 329.8 324.9 319.2 323.8 327.6 331.7 339.8 349.8 359.4 376.5 384.3 386.8 388 389.3 390.2 389.6 395 398.5 401.8 401.3 402.3 404.4 403.2 402.7 400.6 397.2 395.1 391.6 388.7 384 384.2 386.5 387.4 385.6 380.6 383.3 389.5 395.1 397.5 397.8 398.5 394.9 389.6 384.7 380.5 377.9 376.9 375.7 373.2 367.6 361.6 356.1 349.8 343.8 332.9 326 314.7 314.1 328.8 334.7 339.2 344.5 346.3 351 351.9 343.9 338.1 332.7 325.7 333.2 339.2 351.2 355.2 353.7 342.6 316.5 281.4 280.9 280.9 280.9
653.7 641.2 628.7 617.8 600.2 575.5 560.8 550.1 533.3 513.5 495.4 486.6 482.1 480.8 482.8 487 500.3 516.7 535 552.8 572.7 590.9 608.7 620.5 632 643 655 667.9 677.2 686.5 693.3 692.9 696 696.8 696.8 696.3 691.6 684.7 676.7 663.6 646.8 637.8 634.1 630.8 623.6 621.5 614.8 605.3 597.9 592.2 589.6 583.7 571.8 566.2 561.2 560.7 563.4 559.5 553 547.6 545.1 539.2 533.5 526.3 516.9 511.1 490.7 470 453.9 437.9 424.5 409.3 400.5 396.8 392.6 388.9 386.4 384.8 382 382.8 388.6 397 404.2 412.8 417.6 418.7 427.8 435.2 446.8 453.4 453 456.5 457.8 453.8 444.8 437.2 421.8 407.9 395.4 392.4 404 409.8 415.9 423.2 425.8 427.3 430.2 433.1 434.4 430.8 424.8 420.3 414.3 408.4 398.9 390.3 377.6 359.5 339.4 331.2 325.5 322.1 326.7 329 331.8 336.9 352.4 365.7 375.8 387.3 389.4 391.3 392 392.5 395.9 398 402.6 406.1 407.4 408.5 409 411.7 411.2 410.5 408.1 403.6 399.8 394.3 390.4 386.4 386.7 386.5 385.5 382.1 377.8 374.8 379.3 384.1 387.1 386.6 385.5 382.1 378.5 372.8 368 368.6 366.5 364.2 362.9 356 349.4 344.5 339.7 332.6 322.7 312.2 319.4 331.8 338 343.6 350 355 357 359.9 356.5 354.4 348.8 345.9 341.2 340.2 347.6 360.5 365 366.5 349.5 327.8 302.1 280.9 280.9 280.9
659.5 648.6 634.9 624.9 608.4 579.4 561.9 544.3 536.6 517.4 500.2 491.7 484.2 482.5 483.5 487.6 496.6 511.3 532.3 550.8 564.6 581.1 601.4 618.2 630.7 640.7 657.4 669.3 679.8 689 693 695.2 696.2 698.6 699.5 696.3 691.8 684.8 674.9 662.7 652 637.4 618.7 618.6 617.4 616.6 607.4 596.7 591 587.1 582.3 574.5 566.6 560.5 558.3 558.3 558.9 552.8 545.3 544.5 541.9 536.9 532.7 528.2 523.7 514.6 502.4 484.8 466.7 449.1 431.1 420 408.7 403.7 397.8 394.5 391.6 389.2 387.5 383.5 379.7 384.2 393 395.3 392.5 407.1 419.2 427.7 440.6 447.7 450.5 453.2 457.3 453.8 446.4 438.2 424.6 409.3 398.4 408.3 417.7 421 427.7 431.6 433 434 435.2 435 433.4 429.4 422.3 417.3 412.2 403.7 394 383.1 368.8 346.9 333.1 328 325.4 323.5 329.6 334 338.2 346.1 363.4 378.7 387 393.2 395.3 395.3 396.4 397.4 404.9 406.6 412.1 414.3 414.9 415 413.6 418 417 415.2 412.9 407.6 401.8 395.5 390.7 388.4 386.6 385.7 382.6 377.7 373.1 368.6 368 371.5 376.1 374.8 372.7 368.7 364.2 359.6 356.3 358.1 354.4 353.5 352.5 344.6 340.3 335 330.5 322.3 313.2 324.6 336.7 341.6 348 355.3 361.7 365.8 365.4 365.8 366.3 364.2 361.1 355.8 348.4 347.7 353.8 362.3 369.8 374.9 358 335.1 316 304.2 282 280.9
665 655.3 642.5 633.4 616.3 584.4 565.3 557.7 548.2 530.5 512.9 507.2 501.2 485.3 485.1 488.4 496.1 508.1 526.2 548.7 564.4 578.9 600.2 618.6 632.6 645.7 660.2 672.7 682.1 691.4 694.4 696.8 699.4 700.5 701.4 697.6 689.5 683.9 674.1 662.2 651.5 640.3 627.2 603.4 607.8 608.7 599.6 587.3 585 582.4 578 570 562.3 556.9 555.9 553.5 553.9 548.8 542.1 542.5 539.8 533.4 529.2 525.4 521.5 514.5 507.2 496.2 474.4 456.8 441.1 429.4 419.4 411.4 403.8 399 395.4 394 392.1 389.1 382 372.6 377.5 385.8 389.1 398.2 408.9 418 430.3 437.2 442.8 448.3 456.8 453.9 446.5 437.1 426.7 413.8 414.7 421.7 427 430.8 435.1 439.1 438.8 438.1 437 435 431.8 428 419.4 414 407 399.9 388.3 375.8 358.5 340 333.9 333.9 328.9 328.8 333.8 339.5 347.6 357 370.6 386.2 393.1 397.8 399.1 400.8 402.3 405.3 415.6 417 420.6 422.3 422.1 421.1 421.6 420.8 419.5 419.1 415.4 408.9 402.3 396.3 392.3 389.3 387.3 383 377.1 371.8 368.2 363.7 358.4 355.4 362.4 362.7 360.5 358.4 352.5 349.7 347 345.4 346.4 347.5 343.6 337.1 330.7 326.6 320.4 322 329.3 340.8 347.6 353.6 361.2 367.7 373.2 375.8 374.8 376.1 375.8 374.8 370.9 364.8 354.2 352.5 354.5 362 368.9 374.9 360.4 336.7 323.5 315.1 296 280.9
670.9 662.8 652.1 638.4 626.8 598.9 585.9 589.3 573.1 547.9 526.9 540.4 515.5 496.6 490.6 489.1 494.9 506.6 527.3 550.2 565 580.1 598.7 619.4 634.4 650.5 664.6 676.2 686.2 693.8 698.4 702.2 702.2 703.5 702.8 699.1 691.1 682.8 672.3 659.5 643.4 633.5 622.9 609.2 593.1 598.4 588.1 579.1 578.1 576.6 570.4 565.3 559.5 556.5 551.2 550.9 550.7 541.9 538.1 538.2 533.9 528.8 524.3 521.3 516.9 511.2 504.9 492.7 475 461.3 449.1 438.1 429.1 420 411.3 405.4 402.3 399.6 395.7 390.9 386.6 380.5 369.7 374.8 383.3 389.3 399.1 406.7 415.3 425.4 433.9 443.9 455.6 453.2 446.3 437.1 427.4 421.9 425 431.8 435.4 438 441.9 444.5 442.3 439.2 436.2 432.9 429.3 423.2 416.5 409.7 402.3 391.7 381.1 367.6 347.2 338.6 341.8 335.7 326.4 333.4 338.9 348.3 359.3 369.9 379 384.6 393.9 399.1 402.2 405.7 408.5 415.6 424.3 425.7 427.8 430.3 428.6 426.5 425.9 424.7 423.5 420.8 414.9 407.6 402.2 396.9 393.3 388.9 380.3 372.8 369.4 367.3 370.4 368.4 368.2 360.7 356.7 349.9 345.3 343.3 341.9 338.5 335.9 335.6 338.9 335.8 333 327.3 324.1 321.3 327.4 333.7 344.5 353.2 359.2 366.8 373.2 378.8 383.1 381 385.7 386.8 387.6 384.8 378.5 371.7 363.6 361.3 360.5 364.6 365.9 366.5 354.9 335.5 325.7 317.1 307.7 280.9
677 667.7 661.6 652.1 641.4 617.4 605.4 604.2 604.7 580 548.8 555.6 538 515.7 498.5 490.8 497.1 508.1 525.6 547.6 562.7 578.1 596.7 622.8 637.8 655.6 669.6 679.2 689.8 697.3 703 706 707.7 708.3 707.5 701.4 691.8 682.2 670.5 657.2 638.8 619.2 607.9 596.6 584.1 582.4 578.8 576.1 572 567.8 562.7 558.1 555.9 553.5 548.3 548.4 546.8 537.4 533.7 529.4 526 519.7 516.3 513.3 510.1 503.7 496.5 483.9 470.4 460.3 451.5 443.3 434.3 425.6 418.3 411.1 407.8 403.4 397.7 393 393.6 388.8 373.4 366.7 374 384.4 390.7 396.4 403.3 418.6 430.2 446.9 456.5 453.6 444.6 436.5 431.5 428.2 434.3 439.2 441.1 442.7 445.9 446.5 442.6 438.8 435.4 430.1 425 419.3 412.5 404.3 393.5 383.6 372.7 352.9 353.6 352.6 342.3 336.8 331.6 338 345.1 358.1 369.7 381.8 388.7 393 398.5 405.4 410.2 414.8 419.6 427.3 431.1 433.2 434.3 435.7 433.9 430.2 429.2 427.1 424.5 420.3 413.8 405.9 399.9 396.8 390.5 379.6 371.8 377.1 378.2 373.7 376.5 374 377.9 368.6 361.7 349.8 342.3 336.6 336.4 334.2 330.3 330.6 328.6 327.3 325.8 323 327.8 337.4 343.2 352 359.6 365.9 373.4 379.4 383.9 389.2 390.8 393.5 395.7 396.7 397.6 391.6 385.2 377.1 375.3 371.3 368.6 370 368.1 365 352.7 342.3 329.4 319.5 311.1 289.5
677.1 669.4 668.9 660.8 654.8 636.2 622.1 617.3 619 598.9 569.3 567.9 552.4 523.4 503.5 495.1 497.4 510.7 522.5 544.4 563.9 577.3 598.7 625.2 643.7 659.1 674.2 685.7 692.8 700.1 706.6 713.1 714.4 713.1 711.3 703.4 692.3 680.2 669.7 656.3 639.5 624.4 599.2 598 586.2 575.1 569.4 567.1 562.9 560.5 557 553.2 552.8 550 545 547.4 545.3 537 535.1 532.4 527.2 521.5 515.5 506.5 495 492.9 485.7 474.4 462.5 454.6 448.3 441.1 432.7 424.3 418.5 412.4 410.4 404.8 398.1 394.4 393.8 393.3 385.8 373.1 369.3 377.9 383.6 390.6 404.2 418 429.9 447.1 457.5 452.6 443.8 438 433.6 436.4 442.9 445.2 444.7 444.2 446.1 446.6 441.9 437.2 433.3 427.7 421.3 415.4 407.9 396.1 388.4 380 378.7 375.7 366 352 343 338.1 338.4 342.7 353.7 366.1 379.8 391.2 397.4 401.9 407.4 412.9 420.1 424.3 428.8 437.5 438.9 439.3 440.7 441.2 437.4 433.6 431.1 428.1 424.1 419.4 410.9 405.1 399.4 389.8 375.6 378.2 383.9 389.1 386.7 384.3 383.6 380.8 379.2 373.4 363.4 356.8 349.6 344.9 341.4 337.6 332.3 333.5 329.1 330.9 329.2 335.8 342.3 353.3 360.3 367.7 373.6 380.6 386.3 390.9 395.3 397 400.3 403.2 404.1 406.3 403.5 397.4 391.1 387.3 382.8 379 376.5 374.4 371.2 364.7 360.6 347.8 329.2 317.2 308.6 300.6
674.6 671.9 673 669.5 667.4 651.6 634.3 630.4 623.9 610.4 587.9 572.4 551.4 531 510.1 502 509.6 516.3 523.9 539.8 557.8 581.7 604.3 628.6 649.3 665 681 690.5 699.6 709.2 712.7 721.1 717.5 718 713.6 704.9 692.8 681.6 665.6 649.5 635 624.3 613.8 608.3 596.1 584 569 559.7 557.2 556.7 555.9 551.2 549 546.3 542.3 545.8 543.3 535.8 534.4 531.2 526.3 519.6 515.2 506.2 494.5 478.2 474.6 461.1 450.8 445.6 440.1 433.5 426.1 417.9 412.6 411.7 408.3 402.1 396.7 392.6 390.3 388.2 384.3 373.2 365.5 373.4 377.4 387.8 401.2 415.6 427.4 447.6 458.8 452.7 443.5 439.6 437.8 443.3 447.1 443.6 442.1 441.8 445.6 443.4 439.2 434.4 429.5 424.3 418.8 412.8 405.9 396.5 392.6 388.3 386.4 378.9 359.6 349 345.4 339 341.8 347.5 359 373.2 388.8 399.6 404.9 410.3 415.4 422 428.9 433 437.8 445.5 443.7 444.3 446 444.7 441.3 439 433 428.5 423.7 417 410.2 402.6 392 379.9 383.3 388.6 392.6 397 397.1 394.2 391.4 387.2 381.2 376.8 371.6 363.6 356.2 348.4 346.5 340.7 342 341.7 340.4 343.5 344.6 352.5 360.4 369.9 376.3 382.8 388.8 394.1 398.5 403.1 404.4 404.1 411 412.5 413 413.4 410.9 403.2 397.6 393.4 389 385.2 382 378 372.3 364.1 357.5 341.3 322 314.9 305.1 298.2
673.5 677.7 678.4 675.8 673.7 661.9 652.1 644.4 630.6 616.3 602.3 579.7 567.2 538.6 524.1 512.8 519.4 524.3 540.3 547.3 562.8 584.3 606.1 629 651.3 669.7 683.1 695.1 705.1 714.4 721.5 727.3 726.1 721.5 715.9 707.7 695.4 683.7 668.7 652.3 639.2 632.3 623.3 608.7 601 585.3 575.8 565.3 556.9 553.5 554 556.5 548.2 540.2 539.5 545.3 543.9 535.2 534.7 529 522.5 515.3 508.1 500 490.1 478.8 463.2 444 435.8 432.8 428.7 423.6 415.5 411.3 407.7 406.4 403.7 399.2 394.2 390 387.1 385.2 382.1 375.5 360.2 367.4 374.4 385.4 394.8 410.1 425.9 441.6 456.7 450.8 443.8 440.5 443.2 447.2 444.5 439.1 436.3 440.1 444.6 442.9 436.1 431 426.5 422 416.4 410.1 404.1 398.4 396.2 389.9 385.8 376.1 360.5 350.7 346.7 338.7 345.2 350.9 364.6 380.4 396.1 406.4 410.5 416.7 424.4 429.9 435.7 440.4 446.8 449.1 448.5 449.1 450.4 448.1 445.7 441.7 435.7 428.8 422.1 414.9 408.2 396.9 384.9 386.9 394.2 398.3 402.1 405.5 404.8 402.8 398.1 393.2 386.1 385.1 381 372.5 361.4 358.7 349.3 351.5 353.2 354.1 357.8 362.1 361.4 371.8 379.7 388.2 393.5 397.6 402.8 407.9 411.6 411.6 412.4 418.2 420.6 420.4 419.3 418.8 414.2 406.5 402.3 396 391.8 388.7 382.4 375.4 368.3 358.3 339.6 319.3 304.5 302.5 293.3 288.8
672.8 679.5 680.4 682.9 681.9 673.1 662.5 652.3 643 624.3 614.8 592.4 571.7 557.1 538.9 531.2 530.8 544 564.2 564.8 578.8 597.1 616.9 635.2 654.9 672.7 687 700.2 709.4 719 730.1 732.7 731.1 725.6 718.2 708.2 698 685.4 672.6 658 644.3 634.9 624.6 611.7 598.1 588.7 579.7 570.5 555.6 545.6 550.6 554.9 550.8 540.3 534.7 546.3 543.1 537.2 536.4 532.2 524.2 509.6 500.8 492.4 480.5 468.2 452.7 437.1 428.2 418.4 415.5 410.1 405.8 403.8 401.2 399.2 397.5 394.1 390.2 386.4 385.2 383.5 380.2 374.8 359.7 364.5 371.4 381.3 390.5 404.3 418.8 433.4 449.7 447.3 442.6 442.1 442.8 443.2 437.6 431.9 432.6 436 440.5 438.7 431.5 427.4 423.5 419.6 414.9 410.1 403.6 398.6 397.6 390.6 385.2 372.6 356.6 352.6 348 338.3 347.9 354.6 369.9 386.6 402.3 410.8 417.8 424.3 430.2 436.4 442.3 446.4 453.2 452.6 452.1 452.6 453.1 450.2 448.7 444.1 437.6 428.2 418.9 413.7 406.6 392.5 389.2 396 404 408 412 415.5 414.4 410.3 404.2 400.5 397.1 396.7 391.8 380.8 372.5 367.5 359.9 364.4 368.7 374 379.4 382.5 382.9 390.8 396.8 403.7 407 411.4 416.4 419.5 420.8 418.8 425.2 427.8 428.3 426.9 425.2 421.8 414.9 407.8 403.2 397.5 392.7 386.3 380.2 372.3 364.3 344.3 318.3 314.3 312.7 302.7 291.6 280.9
674 678.8 681.9 688.8 686.8 684.5 672.2 662.2 651 632.6 621.7 605.6 589.7 569.3 554.6 543.7 544.9 564.9 576.5 582.4 592.8 605.3 626.1 644.3 660.2 677.1 692.4 705.7 715.1 725 730.2 732 733.5 727 718.1 709.2 698.2 687.4 674.6 661.3 647.6 637.7 626.3 611.1 594 584.5 575.8 567.6 560.2 540.5 544.3 548.8 545.3 536.4 531.4 542.9 539.2 535.8 536.3 530.7 518.2 506.4 493.8 481.3 474.5 459.4 451.8 440.9 435.2 425.1 414.2 404.4 397.9 397.7 395 392.8 390.7 388.5 385.7 382.9 383 382.4 376 371.4 359.9 361.1 369.7 378.2 386.3 395 410.1 423.1 437.9 442 439.9 439 439.4 435.1 427.6 422.5 426.5 432.4 435.2 431.9 427.3 423.5 421 417 412.6 407.3 402.3 398.2 392.6 389.1 381.9 368.7 357.3 351.5 347.6 341.8 350.4 360 378.6 393.2 403.9 414.1 425 428.1 434.1 442 445.9 453.5 456.6 456.7 455.2 456.8 455 452.3 449.9 445.7 435.9 425.1 418.1 412.1 400.6 391.5 399 405.7 411.7 418 421.3 423.1 421.3 417.2 412.7 411.9 410.1 407.8 397.9 389.6 381.8 372.3 372.3 381.6 387.5 393.7 399.1 399.3 401.9 406.2 412.1 416.2 419.5 423.8 426.9 428.6 428.3 431.1 435 434.3 432.7 430.5 426.6 422.9 414.8 408.7 402.6 394.5 387.5 381.3 373.9 368.8 357.6 334.2 333.7 340.1 331.1 318.9 312.2 300.4
676.8 681 687.8 690.3 691.5 687.8 677.9 672.1 661.8 643.1 625.3 613.9 603.5 587.4 572.8 568.5 566.7 575.5 588.2 600.3 608.4 619 636.3 653.1 670.2 683.7 699.5 707.1 715.5 729 732.6 735.6 732 727.5 717.7 708.9 698.9 687.7 676.1 664.9 651.2 641.4 625.3 604.4 592.5 580.7 572.3 566.8 561 551.4 538.9 529.2 541.3 531.9 530.8 539 535.5 534.2 533.4 531 521.5 513 507.5 495.6 488.4 478.8 463.8 448.6 437.6 426.3 415.3 404.5 396.7 389.1 389 386 383.5 382.7 381.1 379.1 378.8 375.8 371.3 367.8 359.3 357.8 365.5 373.9 379.4 388.2 398.7 408.7 418.2 426 430.1 427.8 423.7 419.1 417.1 416.9 421.3 425.9 430.4 427.4 423.6 418.6 417.4 413.7 409.3 405.1 400.6 395.9 390.6 386.2 376.7 363.2 356.1 351.2 344.6 346.3 353.1 365 383.1 393.8 405.3 417.3 423.9 429 438.5 444.4 449.5 457 460.2 459.5 457.5 457.4 455.1 453.5 449.8 444.1 433.3 422.5 418.2 407.8 399.5 401.2 409.1 413.7 420.8 427.1 430.4 430.4 429.7 425 422.7 422.5 422.5 416 407.9 400.5 394.3 382.6 390.9 398.5 405.5 409.5 412.8 412.5 413.9 418.4 424.7 427.6 428.5 432.5 434.7 435.7 437.4 438.7 439.2 438.4 436.2 432.1 426.9 421.3 412.5 405.3 399.4 390.1 383.6 375.4 369.1 362.7 354 331.8 345 343.2 337.3 331.7 321.4 307.8
677 683.8 691.3 693.5 693.1 691.6 685.9 683.4 673.6 652.1 635 621.7 612.7 607.6 599.8 592.6 594.4 603 606.9 616.7 624 635.6 652.6 661.8 678.3 691.9 704.7 712 723.8 733.9 738 735.2 730.4 725.1 716 707.6 699.5 689 679.1 666.4 653.3 643.3 625.8 612.9 594.7 577.8 568.9 560.6 559.9 550.3 545.2 537.2 519 526.6 532.6 539.2 536.5 536.1 537.7 534.8 526.7 519.5 511.4 503.5 493.3 482.9 469.3 452.9 438.1 425.9 414.3 405.4 397.1 392.9 386.5 380 378.8 379.7 378.1 373.5 371.9 370.5 368.2 364.9 359.4 352.7 360 366.9 372.7 381.1 387.7 394.4 400.1 410 411.8 410.3 406.8 407.1 408.1 411.1 415.2 422.3 425.9 423.5 419.8 415 412.9 410.4 406.4 401.6 398.6 391.6 388.3 381.1 371.3 358.8 354.8 350 345.8 349.4 357.8 372.6 384.2 394.5 406 416.8 422.2 433.1 440.4 446.8 454.5 461.4 461.1 461.5 459.5 460.2 455.7 453 449 441.3 431.1 421.5 414.5 400.9 409.5 412 418.1 424.3 428.8 433.7 437.7 438 436.2 433.1 432.3 433.1 430 422.2 416.2 412 406.6 394.2 404 414 418 420.4 421.7 422.2 423.6 427.9 432.7 434.3 436 438.1 440.7 443.1 438.2 441.7 441.4 440.1 435.7 430.7 424.3 416.7 407.6 401.6 392.8 385.3 378 370.5 364.1 355.6 347.8 350 350.6 347 342.1 334.7 329.1 322.4
679.7 687.9 695.9 699.4 698 697.3 692.9 690.6 680 660.3 638.9 629.9 624.3 621.8 619.3 613.1 612.5 622.8 624.5 631.8 644.9 652.6 661.8 672.2 686.2 696.3 707.4 722.4 732.1 735.9 734.9 731.3 727 721 713.6 707.5 698 690.2 681.2 670.1 658.7 646.6 633.6 617.9 596.8 581.9 566.9 560.5 551.9 546.4 542.4 536.8 521.9 517.8 528.9 535.3 536.2 540.2 540.9 534.5 526.9 523.1 515.8 507.6 498 483.6 467.8 453.8 439.5 428.5 416.1 404.7 397.2 392.2 386.7 383.5 376.8 372.9 370.2 367.2 366.9 367.7 364.7 361.4 358.8 353.5 352.8 360.1 365.7 371.8 376.3 381.1 383 388.2 390.2 390 394.8 398.9 403.8 407.4 414.1 420.1 422.4 420.2 416.6 412.1 408.2 406.2 402.8 399.3 393.5 388.2 385.1 376.2 361 355.8 353 348.1 348.8 352.3 360.8 372.8 381.3 394.1 403.8 413 425.7 436.9 444.2 452.7 459.5 462.1 463 463.8 462.8 461.7 456.9 454 448 437.8 426.9 420.3 411.5 412.9 419.9 423.7 426.9 431.3 436.1 441.5 444.5 446.9 443.7 442.4 442 444.4 437 431.5 424.4 421.1 412.5 405.4 417.7 424.7 428.1 428.3 429.3 430.1 431.1 434.7 437.1 439.6 440.8 442.2 441.9 440.8 440.6 442.8 441 437.6 431.9 425.4 418.5 409.9 403.9 397.2 390 384.8 379 375.1 370.9 365.3 360.8 356.8 353.5 348.7 345.3 340.4 335.8 331.6
685.3 693.9 700.8 705.2 709.2 704.6 699.4 694.4 683.5 668.2 645.9 635.8 632.3 630.6 629 628 633 633.5 636.2 644.3 653.4 660.4 671.2 681.2 691.8 698.3 708.8 720.1 728.1 730.2 726.5 724 721.8 715.7 711.8 705.3 698.5 692.2 681.6 672.3 661 648.5 635.6 616.2 587 571.3 554.9 541.2 540.2 539.1 537 537 523.3 509.5 526.1 534 536.7 542.5 542.1 531.9 528.5 522 515.8 507.5 495.5 484.6 463.5 451.7 441.2 430.1 416.3 405.3 400 395.6 388.8 383.6 377.9 378 375.7 371.6 366.2 360.2 358.1 356.3 354.1 351.9 349.9 354.6 361.4 364.6 365.3 371 370 369.1 376.9 381.1 384.8 394.6 397 406.1 412.4 417.9 418.9 417.1 413 408.3 405.1 402.1 399.9 395.3 388.6 384.2 379.4 368.3 357 353.4 351 349.3 352.8 358.9 366.8 376.8 385.1 397.5 404.8 416.2 428.8 442 456.7 462.1 465.5 467.4 467.3 466.9 465.2 462.5 458.9 454.9 448 432.9 423.9 422.7 420.6 424.2 429.5 431.8 434.6 438.6 443.5 447.6 451.1 451.7 449.9 451.4 452.8 451.2 444.8 437.6 433.1 425.7 421.7 420 432.9 434.2 434.6 435.1 434.1 434.8 437.4 440.1 441.4 442.7 439 437.3 435.1 433.9 438.1 436.6 432.3 428.8 422.7 416.8 411.7 405.7 402.6 395.4 390.4 384.7 381.6 378.4 373.1 368.4 361.3 355.5 351.7 348.5 344.5 341.2 337 332.5
689.8 698.6 706.5 711.6 714.3 711.7 706.8 698.6 689.7 677.7 659.2 644.6 638.8 639.4 644 643.2 645.4 647.4 651.4 657.3 664.4 671.1 677.3 685.5 692.9 699.6 706.9 711.6 714.1 717.5 716.3 716.8 714.7 711.5 708.1 703.7 699.2 690.7 681.2 673.5 662.4 649.6 633.3 612 593.7 573.3 551.6 533.2 525.2 527.4 521.6 530.9 511.6 507.1 523.9 532.9 538.7 544.9 541.2 533.2 530.2 521.6 512.6 505.9 495.6 475.5 460.1 450.4 441.8 429.1 415.5 409.1 404.4 399.6 392.8 387.7 383.4 383.6 382 377.8 372.3 366.5 362.5 361.3 357 349 348.8 348.4 354.7 356.5 358.7 361.8 359.4 363.3 368.7 372.3 381.8 386 395 402.5 409.2 414.3 415.5 412.9 409.2 404.5 400.9 398.2 395.4 389.8 386.2 380.8 373.7 356.4 355.2 352.8 351.3 354.4 357.4 366 374.6 383.3 391.4 401.3 412 423.7 436.7 453.5 464.4 469.9 473.1 471.2 470.8 468.5 466.9 463.7 460.6 455.8 445.1 429.5 429.1 428.8 428.6 434.8 437.7 441.1 443.7 445.9 450.5 455.2 454.4 455.4 457.3 459.5 462 457.2 450.8 442.1 437.2 431.4 428.8 429.1 438.7 439.3 438.3 438.1 437.4 438.2 439.7 441.7 440.3 436.3 429.7 426.9 424.3 425.2 424.7 424.9 423.2 420.4 418.1 416.2 408.7 400 396.7 391 387.4 382.2 376 376.9 374.4 367.3 359.4 353.8 349.2 344.6 341.9 337.5 335.4 328.5
700.7 706.9 710.5 713.9 714.6 717.4 711.7 705.2 696.1 684.8 669.9 656.5 653.4 653.3 650.6 652.1 656.4 658 662.5 667.8 674.1 677.4 681 687.9 693.1 696.1 700.5 703.2 705.2 706.3 707 708.1 707.7 705.5 703.7 702.2 696 689.6 683.1 672.4 662.3 651.8 640.4 624.3 607.3 589.6 563 540.3 525.3 515 510 508.7 505.8 506.9 521.3 531.4 540.2 545.1 538.1 530.8 528.6 519.8 512.8 503.5 488.5 473.1 458.4 449.5 440.8 427.9 417.9 415.5 410.6 403.8 398.1 391.4 390.2 389.7 387 382.2 376.7 370.6 367.7 364.3 359.3 349.1 346.7 347.2 348.2 351.5 354.6 353.7 352.6 357.3 361.1 366.6 375.7 378.2 388.1 395.5 403.3 410.3 411.2 407.6 404.8 399.9 395.9 391.5 388.3 386.6 383.1 376.2 367 356.9 353.9 354.2 355.4 358.3 363.4 370.4 377.9 386.9 396.5 409.4 423.8 435.9 444.9 461 469.3 474.6 476.1 475.3 472.4 471 469.1 464.9 461.1 455.1 440.6 431 436.5 437.5 439.2 442.9 446.6 449.7 451.9 454.1 456.2 457.7 459 460 462.1 465 466.8 464 453.8 446.1 444.3 436.5 435 439.5 441 441.9 438.8 440.2 438.6 439.6 441.5 436.7 432 425.5 419.9 414.2 414.1 417.8 420 416.8 415.3 411.1 409.8 409.8 399.9 388.5 385.9 383.1 381 374.9 369.4 373.1 369.6 363.7 357.8 351.1 344.2 340.7 335.5 333 327.6 319.5
707.7 713.7 715.3 718.6 719.8 718.2 716.8 708.4 700.4 690.2 680 672 666.5 663.2 661.1 662.2 664 665.7 670.5 673.5 675.4 678.5 681.8 686.5 689.4 691.8 693.6 697.6 698.3 698.3 700.1 701.6 701.6 701.6 701.7 697.6 691.9 685.6 680.1 670.7 662 650.3 639.5 625.7 611 593.3 572.6 552.3 533.3 512.7 501.5 499.9 494.1 504.8 516.8 531 538.9 542.2 534.5 531.5 524.9 518.8 512 501.3 485.6 472.9 461 453 443.4 431.4 423.7 421.1 415.6 409 403 397.1 395.3 393.7 390.1 385.1 380.2 375.1 370.2 365.8 360 351.9 348.5 347.8 345.4 348 349.3 347.2 347.1 350.6 355.6 360.5 366.3 373.9 381.7 387.7 394.3 402.2 403 401.6 399.2 395.3 391.4 387.2 384.4 381.2 378.6 370.7 361.1 355.4 354.6 357.4 359.3 363.4 369.9 374.9 382.6 391.1 400.6 418 438.4 447.5 452.9 464.3 473 476.4 477.8 476 474.1 470.8 468.7 465.9 461.8 453.9 438.8 443.4 445 446.8 449.6 453.3 455.1 457.3 459.5 459.2 462.3 461.7 462.8 466.6 467.2 468.6 467.7 468.5 456.2 454.8 448.5 440.5 438.7 442.7 442.4 440.9 439.7 437.8 437.9 436.6 437.3 429 420.9 412.3 403.7 398.3 399.4 398.2 399.3 397.9 397.2 394.5 395.2 394.8 384.6 376.7 374.7 374 373 366.4 361.9 368.9 365.8 357.6 351.8 345.3 338.7 328.5 326.7 318 307.9 297.5
711.7 715.1 718.3 718.6 718.9 719.9 716.8 710.1 701.9 693.4 687.5 681.3 674.3 671.6 671.5 669 671.2 671.6 676 679.9 677 679.4 681.3 684.6 684.5 686.1 686.7 688.8 688.8 689.9 692.3 693.5 695 697.1 698.2 693 687 683.2 675.4 665.4 657 645.8 636.8 621.3 606.9 592.5 573.6 558.7 540.6 522.7 510.5 501.1 487.5 499.7 516.2 526.5 536.3 537.5 531.6 527.4 521.9 516.4 508 496.2 482.4 470.8 463.6 455.1 445.6 433.2 427.8 424.4 419 411.9 404.3 401.5 400.1 396.5 392.2 386.7 381.2 375.9 371 366.1 360.7 352.9 348.5 347.7 347 343.3 342.1 343.2 343.3 347.5 351.5 354.3 359.9 368.6 374.8 378.1 383.9 394.3 397.8 394.2 393.1 389.8 387.2 385.5 384.4 381.6 372.9 361.2 356.5 355.9 357.4 359.4 363.5 368.9 373.7 381.3 387.5 394.9 408.3 430.2 449.5 454.8 460.9 466.9 473.6 476.1 476.2 476.6 474.4 472.2 467.6 467.8 462.9 456 449.4 452.6 454.6 457.8 458.8 461.1 462.4 463.9 464.8 463.8 465.8 465.2 467.8 469.8 470.4 471.1 470.9 470.4 463.5 458 450 442.6 444.1 445.2 443.3 439.3 437.8 434.9 434.6 433.8 429.5 417.8 406.6 394.2 383.5 384.8 381.6 377.2 374.1 375.7 371.4 370.7 369.5 366.9 364.8 364.4 364.3 366 361.6 354.2 359.3 360.2 351.1 347.5 340.6 332.3 323.2 313.1 304.6 296.3 287.5 281.7
711.7 714.8 717.1 717.8 718 717.9 713.8 708.4 701.9 695.9 691.6 686.6 682.8 678 676 676.2 678 675.1 678.5 678.1 678.4 677.8 679.2 679.4 678.6 677.6 676.9 677.9 678.3 680.3 683.9 685.6 687.4 689.9 689.7 684.1 681.5 677.3 670.7 662 653 639.4 627.8 614 598.4 588.1 574.9 559.5 535.3 521.7 508.9 498.3 485.2 491.1 502.1 512.2 529.4 533.6 526.5 525.9 518.5 509.8 502.4 488.1 476.8 467.6 464.5 455.9 445.8 433.4 429.5 425.3 418.8 410.5 404.8 403.4 400.8 396.9 391.7 385.8 380.1 375.2 368.7 363.4 357.4 351.9 349.2 347.7 345.7 344.7 341.3 339.6 341.7 344.5 346.7 348.5 356 362.4 364.1 367.7 372.5 381.5 387.7 385.1 385.3 384.1 382.3 382.7 383.3 379 371.1 360.4 352.3 357.4 359.8 363 367.6 372.4 378.1 384.9 390.6 398.4 416.9 439.7 453.8 460.7 466.8 470.9 473.4 476.8 476.6 477.4 474.8 474.1 470 469.8 466.5 458.1 459 461.6 463.9 464.9 467.5 466.9 468.3 469.6 468.2 467 468.1 467.8 469 471.3 471.2 473.1 469.3 468.4 468.3 462 450.8 444.7 447.6 446.2 441.5 437.9 433.1 432.3 429.9 431.2 419 407 393.4 396.7 389.7 382.1 372.9 369.8 364.9 362.4 358.8 353.3 351.8 348.2 348.8 349.1 352.1 352.2 347.8 344.8 347.3 345.1 338.4 330.3 323.8 314.2 302.3 293.2 288.3 292.9 302.8 314.2
716.3 720.2 722.3 721.7 717.9 715.6 710.9 705.6 700 695.8 691.1 689 685.1 681.1 679.2 678.2 676.9 675.5 675.7 676 674.2 673.4 674.9 673 670.2 668.4 667.3 667.2 669.9 670.4 673.7 676.9 677.7 679.4 677 677 674.4 671.6 665.5 657.7 647.2 633.8 614.3 601.1 586.7 573 564.4 547.4 529.9 513.4 505.1 495.3 477.1 478.7 478.7 494.1 514 522.1 517.8 522.9 519.4 505.2 491.5 479.2 471.1 463 457.9 453.2 443.4 433.3 430.4 425 417.5 410.8 405.1 403.5 399.9 393.8 389.7 383.7 378.8 374 368.2 363.5 356.7 351.5 350.1 349.1 346.7 345.4 343.2 337.5 337.7 338.8 341.3 342.3 350.9 354.1 354 356.6 360.1 367.4 371.8 373.2 374.3 375.5 376.2 377.8 376.3 370.1 364.3 353.3 351.4 356.9 359.4 364.7 369.3 376.2 382.2 387.6 393.7 404.5 423.9 442.3 455.7 466 469.9 473 477.3 478.5 478.8 478.8 477 474 470.7 467.9 467.9 463.6 467.5 467.1 471.1 470.3 474 471.8 471.5 472.2 470.5 468.5 468.7 471.2 470.2 469.7 469.7 471 470 470.7 468.9 457.7 448.7 448.1 449.1 445 440.2 436 432.6 429.9 428.6 421.6 411.3 400.1 410.9 411.7 408.6 397.1 398.4 395.3 387.3 381.5 374.7 368 366.4 360.1 354.7 342 335.9 336.3 330.2 325.9 325.9 324.2 321.1 311.2 303.6 298.2 301.1 312 320.4 327.9 334.7 337.6
719.5 719.9 719.9 716.7 713.9 710.7 706.3 701.6 696.6 693.9 689.3 686.3 685.1 681.9 680.2 677 675.6 673.1 671.8 671.8 669.3 668.1 668.8 665.6 661.8 657.4 658 658.2 659.9 661.5 664.7 667.6 667.8 666.8 669.4 668.6 667.9 663.8 657.9 651.4 644.1 631 614.6 598.8 584.7 577.1 558.1 541.8 520.9 503.4 495.3 484.7 472.2 463.8 466.2 469.5 494.1 512.1 509.8 516.1 512 497.3 483.1 472 465.9 463 451.7 442.9 436.9 432.9 430.4 422.7 414.8 409.6 406.5 402.6 397.9 391.9 386.9 381.2 376 371.6 366.8 361.8 355.8 353 352.7 352.6 349.5 346.2 342.9 336.1 336.5 336.7 337.6 337.6 341.5 345 343.9 346.2 347.7 353.9 357.8 360.9 360.1 364.1 369.7 367.2 363.6 362 354.7 343.4 349 353.1 358.1 365.7 372 380 386.8 392.9 399.4 409.8 429.2 444.2 459.4 470 472.7 476.4 477.9 478.1 476.7 478.8 476 473.2 470.5 468.3 468 469 471.4 474.1 475.9 474.9 476.7 474.7 473.6 472.8 471.9 469.9 468.5 469.9 470.7 467.1 469.1 469.2 469.7 471.8 466.9 453.7 449.3 449 449.3 444.1 438.1 435.9 431.4 428 426.1 414.4 404.3 416.1 422 424.7 424 416.4 420.5 420.5 416 408.6 387.8 391.2 387.3 375.7 360 354.3 346.7 335.6 327.9 321.9 316.9 313.7 302.4 303.3 306.9 314.4 328.8 340.1 347.2 348.9 348.5 332.5
718.6 719.9 715.7 712.6 709.1 704.7 700.6 695.7 690.4 688 683.8 682.4 678.9 678.3 674 673 668.6 668.3 666.8 663.9 662.9 662.2 660.7 656.1 652.6 644.3 648.3 649.1 651.5 653.6 657.6 659.2 656.6 659.5 661.7 662.3 661.6 657 652.1 648 640.7 630.4 615.4 604.8 596.9 587.9 573.4 555.1 535.4 518.8 504.6 486 469.7 455.9 454.6 459.7 472.3 495.2 500.6 509.4 499.2 488.4 476 465.4 460 460.6 451 438.7 427.8 425.4 423.2 418 412.7 406.6 404.5 399.5 395 389.3 384.1 379.6 374.1 368.7 364.5 360.9 354.8 350.3 350.2 351.7 347.1 341.4 338.4 335.9 335 334.2 335.7 334 334.3 334.9 335.9 336.3 337.2 342.4 345.8 348.3 349.5 348.1 349.7 351.5 352.1 348.5 337.5 338.3 345.3 350.1 357.6 365.2 371.5 379.8 387.2 395.6 403.2 417.7 431.7 446.9 460 468.3 474.4 476.8 478.5 474 473.1 475.9 472.5 471.2 467.9 466.4 468.6 472.9 477.8 478.5 477.1 477.8 477.2 477.4 474.9 472.5 471.5 471.9 469.7 468.3 465.1 466.4 469.4 468.1 468.3 474.7 461.3 451.8 449.5 449.3 447.6 441.4 436.7 433.3 427.2 424.9 417.6 410.8 420 428.2 432.8 432.7 434.7 432.2 432.3 432.7 427.9 418.8 411.8 412.8 401.8 386.1 378.3 369 361 351 339 339.3 344.1 345.7 340.8 338.2 340.7 345.4 353.9 360.5 360.9 359.8 353.9 353.8
717.6 716.6 711.6 706.9 701 696.7 691.1 686.1 681.7 678.8 676 674.2 674.4 669.3 669.2 664.9 661.8 661.5 659.6 657.1 656.1 654 649.7 647.5 643.6 632.7 636.1 641 642.2 646.8 649.1 649.5 650.4 652.5 654.3 655.7 655 650.6 647.4 643.9 637.7 628.7 617.1 607.9 598.7 587.2 577.1 563 545 527.7 512.6 492.7 469.7 458.6 446.1 449.7 458.2 470.4 487.9 497.7 484.9 475.7 465.1 456.5 455.6 452.6 442.5 431.2 422.5 418.4 416.8 411.2 404.7 402.7 399.7 394.4 390.2 385.5 379.2 375.8 369.8 365.7 362.9 357.1 351.1 345.2 345.2 347.9 347.5 344.9 341.8 339.6 337.5 338 336.5 335.1 335.7 333.9 335.1 331.8 329.3 327.9 333 334.5 333.6 335.8 336.6 337.7 335.6 328.3 327.5 333.5 341.7 348.6 355.6 363 370.2 378.9 385.8 392.7 401.3 419.9 435.3 450.2 462.4 469.7 475 478.3 477.8 468.4 466.3 467.9 467.2 466.3 463.7 463 468.4 475.1 479 477 477.7 478.6 477.3 477.4 474.6 471.3 469.4 471.4 468.3 466.9 459.5 465.1 466 465.2 467.4 469.9 456.4 450 448.1 447.6 444.3 439.9 436.1 430.3 424.7 420.8 417.7 425.1 429.8 435 439.5 440.2 440.4 441 437.1 436.7 429.7 430.2 427 419.8 407.4 403.4 395.7 386.4 370.4 359.5 358.9 359.1 358.7 364.1 365.5 367 368 369.1 371.5 371.9 370.7 367.2 366.1 364.2
717.2 713.2 707.4 695.9 689.2 686 680.3 674 670.2 669.3 667.8 666.7 664.1 663.5 659.9 657.8 656.6 655.5 653.8 651.7 649.4 644.8 641.4 638.7 633.5 624.2 624.6 631.7 633.2 637.5 641.9 639.7 643.4 645 647.3 648.6 647.7 644.7 642.6 639.6 634.5 625.5 612.8 603.5 593.8 586.2 578.6 571 556.1 534.9 514.6 495.2 477.5 466.4 449.7 440.4 447.2 457.5 477.1 482 471.1 464.1 452.9 449.4 445.5 439.9 431.9 422 414 409.5 407.6 404.6 400 397.4 393.8 390.1 385.3 380.4 376.5 369.1 365.4 360.6 353.1 347.4 349.6 348 354.5 356.1 354 352.6 350.3 346 344.8 343.7 344.1 343 343.6 343.8 342.5 340.1 334.7 335.3 334.1 329.3 327.8 325 325.3 322 320.2 321.6 323.6 328 335.3 344.7 352.6 360.2 367.3 375.9 381.3 388 401 416.8 437.6 452.2 464.1 468.6 475.7 476 471.8 459.4 455.5 459.3 459.4 457.7 453.6 457.3 465.5 473.5 478.3 473.1 475.1 477.1 476.6 476.5 472.4 468.5 465.7 463.8 463.1 460.2 452.4 459.5 460.5 463.6 466.4 463.8 454.2 447.3 446.2 444.3 441.5 439.5 433.4 427.6 423.2 423.6 426 430.6 436.1 440.5 444.2 445.1 444.4 444.5 440.7 440.1 440.2 437.7 434.7 425.1 421.3 413.6 404.3 394.4 379.8 375.7 376 374.5 371.9 378.1 380.6 380.7 380.4 380.6 380.9 379.4 376.4 374.6 371.9 369
718.7 712.4 703.7 691.4 664.4 668.4 666.9 661.3 658.3 659.2 658.3 657.2 656.4 654.4 654.1 651.1 648.9 648.3 647.4 644.7 639.4 632.8 630.4 626.3 619 613 614.2 620.4 624.7 629.7 631.4 634.7 637.2 640.1 642.8 642 641.1 638.9 637.1 634.1 627.5 618.8 605.5 598.9 588.6 582.4 575.3 571.3 564.5 550.5 524.6 503.1 486.5 469.6 455.8 441.2 438.1 445.3 458.7 459.7 455.8 448 436.3 430.3 428.2 425 417 411 406 404.2 402.3 398.9 394.2 389.7 385.5 381.5 377.8 374.1 370.7 365.6 356.9 350.7 358.3 362.7 363.9 366.1 369.1 368.7 365.8 362.4 358.5 354.8 355.5 354.4 353.8 355.7 354.1 352.2 349.2 346.3 343.8 343.3 339.6 337.1 336.6 333.8 331.3 324.4 319.2 318.6 320.1 323.3 331.4 340.9 349.1 356.7 363 370.6 375.1 383.7 399 419.3 440.5 456.2 465.1 468.5 471.4 468.9 462.6 452.8 444.4 449.6 450.4 446.8 440.5 448.9 456.6 466.7 469.8 466.6 471.1 473.4 472.2 472.7 467.1 464.2 461 458.3 455.6 451.1 445 450.4 454.9 461.4 465.3 453.6 449.1 444.5 443.9 442.2 439.1 436 430.8 426.9 427.7 426.4 429.4 433.4 439.8 443.7 447.2 446.8 447.3 445.9 443.8 443.4 442.9 442.4 436.6 432.3 428.2 419.2 410.2 399.5 386.8 388 388 387.9 386.3 388.4 389.5 390.5 390.5 390.2 388.3 385.1 382.2 378.8 374.8 371.6
715.2 709.2 700.2 688.9 670.8 642.6 648.7 646.9 643.9 647.5 649.8 649.5 647.5 646.6 645.7 645.1 643 640.6 639.8 634.4 623.3 615.8 614.3 609.3 605.3 601 603.3 610.7 617.6 621.9 624.3 630 631.5 634.1 637.1 637 633.3 632.8 630.8 627 619.7 609.8 598.4 592.7 584.9 578.3 576.1 571.3 566.6 555.1 544.3 519.9 502.4 479.1 466.9 455.6 437.4 436.3 446.3 440 436.6 430 422.2 417.2 410 410.2 406.2 403.4 400.6 399.7 398.6 391.1 387 382.2 377.8 373.3 369 363.3 358.3 359.2 365.2 369.9 376.2 378.7 381.4 385.8 389.8 389.2 384.4 377.2 370.9 371.8 370.9 369.8 370.9 371.8 368.9 368.3 364.8 362.3 358.6 352.4 351.2 347 346.5 344.1 337.1 328.8 322 319.7 317.3 320.4 325.3 334.6 341.8 346.3 357.1 365.2 368.1 382.9 401 423.1 442.4 456.2 463.2 463.3 460.4 457.4 450.9 439.3 433.6 436.3 433.4 430.5 419.3 430.1 439.8 451.7 453.5 458.4 464.1 465.7 464.1 462.8 459.2 456.3 452.8 447.7 444.4 440.1 435 437.9 446.7 456.7 460.8 445.6 442.2 442.3 441.1 440.8 436.4 433.4 427.7 425.8 426.9 429.5 432.2 437.5 443.9 445.7 448.5 448.8 447.9 447.8 446.7 445.7 446.2 444.6 438.9 437.2 429.5 424.1 414.2 406.7 398.6 399.6 399.3 398.3 396.2 397.2 398 398.9 398.3 397 391.8 389.4 385.3 380.1 375.9 371.9
713.3 705.9 696.6 684.2 660.2 639.2 635.3 632.5 628.9 635 638.1 639.7 638.6 639.8 638.8 636.8 632.8 633 629.5 619.1 604.4 598.4 591.3 585.7 590.4 584 593.9 604.9 611.1 614.1 619.6 623.4 626.4 629.9 630.4 629.3 626.6 625.7 623 618 609.5 600.8 588.8 585.1 580.6 577.2 573.8 569.9 564.7 556.2 554.9 544 522.4 498.6 482.2 470.1 451.7 435.8 429.7 432.9 430.1 418 411.5 404.7 403.9 400.4 398.5 397 396.7 396.3 394.5 386 378.7 376.1 370.9 365.8 361.8 365.8 370.9 375.4 380.1 387.6 399 404.5 407.9 412.2 414.6 415.4 409.7 403 399.6 395.6 396.6 394.2 393.2 391.7 386.5 386.9 381.9 374.5 372.9 370.1 364 359.8 354.6 349.5 340 330.5 324.9 321.3 317.7 317 320.8 327.2 333.4 340.4 349.6 356.9 367.7 383.3 403.6 424.6 440.8 449.2 455.4 451 448.4 447.2 434.1 418.4 412.6 408.2 409.3 399.4 394.1 403.4 420.4 425.5 430.8 444.4 452.9 457.7 456.3 455 451.3 447.7 442.9 433.8 427 422.6 423.4 421.6 435.2 449.6 451 434.6 436.9 440 439.1 435.9 435.4 431.1 427.5 427.2 428.1 432.6 434 438.5 443.9 447 449.9 449.2 448.5 447.4 447.4 448.6 447.5 445.9 440.5 438.6 432.1 427.9 421.1 412 407.8 406.7 405.3 404.4 403.4 403.4 403.4 401.2 400.2 397.9 394.1 390.1 384.7 379.4 374.7 369
710.4 704.3 695.6 685 670.7 653.8 632.1 620.5 617.6 620.1 624.2 628 630.2 629 629.5 626.3 624.5 621.1 612.8 601.4 587.2 575.7 566.9 561.4 567 571.6 586.6 599.3 605.4 608.5 613.7 616.8 620.7 623.1 622.5 619.9 618.2 617.6 614.8 605.1 599.7 590.9 582.7 579.7 577.7 574.8 571.6 568.5 562.4 555 554.4 548.5 539.6 528.7 513.6 495.7 471.1 447.2 431.6 422.2 416 409.2 403.7 399 397.4 395.3 392.2 391.3 391.5 390.4 387 380.8 373.3 369.4 364.6 370.4 377.8 380.7 384.1 392 400.9 409.5 423.3 429.6 432.5 435.3 436.6 436 433.3 430.1 429.8 430.1 429.3 424.7 424 418 407.9 402.5 389 388.8 388.3 384.4 374.5 366 359.2 349.7 338.6 330.6 326.1 321.8 317.8 316.1 317.4 326 329.6 333.9 344.3 351.5 366.3 381.8 406.6 420.8 429.1 428 434.5 432.9 435.8 425.4 406.6 394 383.9 381.4 379.1 369.5 366.7 378.8 386.7 393.5 399.1 417 439.6 446.6 448.3 448.1 444.5 440.1 433.3 424.4 413.5 410 409.4 406 419.8 431.3 436.8 421.5 431.7 437.2 436.1 435.4 434.8 429.4 427.8 427.8 431.6 435.2 436.3 439.9 445.1 448.3 450.5 450.6 451.8 448.3 448.1 449.3 448.1 446.2 441.3 437.5 435 430.5 421.8 416.4 411.8 409.8 407.9 407.5 409.2 407.2 405.7 403.4 401.2 399.3 394.5 389.2 383.8 378.9 374.6 370.2
706.8 701.9 694.5 683.6 660.1 645.4 641.1 635.5 625.5 613 608.6 615.3 620.3 618.9 614.8 614.9 612.8 604.9 592.4 580.9 569.4 550.1 548.7 543.7 540.8 562.6 585.3 592.3 596.2 602.6 607 609.5 613.6 614.9 614.2 610.1 607.4 606.7 604 597.6 590.6 583.2 578.4 576 574.9 570.6 567.9 564.3 558 553 553.6 549.1 542.2 537.1 521.7 503.6 479 457.2 447 435.8 424 410 395.9 393.9 392.2 389.5 387.7 387.3 384.6 383.1 374.5 372 375.2 374.8 383.7 385.7 393.2 399.1 400.2 412.9 421.4 428.8 437.4 445 452.1 452.1 451.3 451.1 449.2 448.3 450.2 449 444.8 440.7 434.8 426.4 419.1 409.8 405.7 402.6 395.2 387.8 379.2 370 360.1 349.1 336.3 331.5 326.3 323.3 318.7 315.3 313.5 325.2 326.4 326.8 333.5 347.9 359.7 372 387.9 403.2 402.8 403 408.1 413 407.1 393.8 378.4 370.9 364.1 356.4 352.5 344.3 346.3 350 355.4 361.4 372.3 395.1 414.6 431.7 439.6 439.5 437.7 432.3 426.8 417.6 410.3 403.7 398.3 392.1 397.3 407.7 416.7 412.9 425.3 435.1 434.6 437.9 435.1 429.1 428.2 429.3 433.6 436.3 437.7 442.3 444.5 449.6 452.5 449.8 451.1 448.5 448.7 448.1 447.2 444.3 439.7 438 431.8 428.6 420.1 415.7 411.4 409.8 407.4 411.4 410 408.9 406.6 403.9 401.2 398.9 394.1 388.4 383.6 380 376 372.3
704.2 698.9 693.3 687.1 675.9 664 653.9 641.2 634.9 624.3 614.5 599.8 609.2 606.6 604.8 604 600.7 584.3 573.4 562.4 553 537.9 531.5 528.2 533.7 555.7 573.4 578.8 589.4 596.3 599.5 602.4 603.4 606.2 602 599.7 596.2 596.1 593.3 589.2 582.9 576.8 573.5 571.6 569.6 565.8 564.4 561.2 554 551.6 551.5 546.6 543.1 535.1 520.3 502.3 481.1 463.8 452 447.2 432.9 418.4 405.1 401.5 394.6 390.1 385.1 384.6 385.5 388.5 387.5 387.5 387.6 394 399 404.1 412.2 421 418.5 430.8 439.9 447.6 453.6 464.9 466.2 463.6 461 460.2 458.5 456.1 452.4 449.6 446.3 442.1 434.2 427.8 420.2 416.1 409.9 400.4 394.5 387.3 377.2 367.7 359.4 347.8 336.5 331.7 326.9 324.9 323.5 312.5 322.8 326 325 320.8 328.9 337.5 342.3 350.8 360.8 368.7 371.3 375.2 378.5 376.4 371.1 359.3 353.5 348.1 342.6 334.3 328.3 321 322.4 323.4 326.6 327.4 351.3 375.8 401.4 421 431.7 435.4 433.8 429.5 427.4 419.2 412 402.8 392.6 381 382.7 385.8 392.5 407.7 421.8 432.4 436.1 435 432.8 428.5 428.5 432.1 435 437.6 439.1 443.6 447.4 450.4 451.6 449.3 449.5 447.8 447.6 446.5 446.3 441.6 437.3 433.8 428.9 422.5 417 411.1 407.1 406.2 405.9 409.4 409.5 409.1 407 402.9 399.3 396.3 391.8 387 383.4 379.2 375.3 372.6
702.2 697.4 693.4 689.1 682.1 672.4 658 643.4 637.9 629 619.8 604.5 595.1 597.7 589.4 591.7 585.4 568.4 554.4 548.3 537.9 528.5 522 517.3 527.9 546.9 564.2 569.6 580 587.8 593.6 595.1 593.4 594.3 591.7 588.9 584.5 588.6 584.7 580.2 574.4 570.3 568.8 566.2 564.3 561.4 559.8 557.4 549.4 549.1 546.8 544.1 540.1 531.2 514.2 495.4 478.5 461 449.9 446.5 434.7 421.6 414.2 406.6 397.7 391.9 391.2 390.5 393.8 397.5 398.6 401.3 406 413.5 419.3 422.7 432.6 442.5 430 444.6 454.4 460.4 465.4 476.5 475 470.3 467.4 464.6 462.1 456.6 451 445.7 440.5 433.5 429.1 424.7 418.7 410.1 403.6 393.9 388.4 382.4 370.6 365.4 356.5 341.9 335.3 331.8 328.9 327 318.6 324.1 325.3 321.5 318.9 314.6 314.7 316 320.2 328.7 335.6 342.8 344.2 350.3 347.8 346.2 338.5 332.6 325.4 319.5 312.1 308 300.3 294 296.5 292.2 296 313.3 327.2 346.6 368.2 387.9 418.9 429.5 428.9 425.8 425.9 421.1 415.5 409.5 397.2 390.4 371.1 379.3 392.8 407.2 418.5 428.6 430.6 432.1 428.9 428.5 429.1 432.3 436.6 441.2 441.8 444.6 449.2 451 451.9 448.1 449.7 445.1 444.5 442.8 442.9 436.2 432.2 426.5 421.8 418.2 412.3 404.1 399.8 399.7 402.3 405.7 408.7 407.6 404 400.4 395.4 391.2 387.6 382.3 378.9 375.7 372.8 369.9
698.2 695.1 694.5 690.8 685.3 676.5 660.3 645.3 637.2 631.1 626.2 616.2 604.9 593.6 578 574.7 565.2 552.6 540.4 530.4 524.2 521.2 514.3 512 515.1 539.4 553.3 555.2 560.9 576.4 585 585.5 583.5 584.5 581.1 577.5 573.8 577 576.2 571.7 566.2 562.3 564.1 562 559.2 555.1 554.3 552.3 544.4 543 541 536.8 534.1 524 508.6 490.3 472.2 455.7 447.3 442.2 432.6 424.5 415.4 408.1 397.3 399.1 400.8 402.8 408.5 411.2 416 420.8 428.7 434.7 440.1 444.1 450.7 457.6 452.3 458.5 463.6 467.5 471.2 476.3 474.1 469.5 465.6 461.5 458.9 451.7 447.9 440.2 434.6 428.9 420.5 413.7 408.1 400.1 391.7 386.3 380 370.1 366.2 358.8 345.4 338.5 335.5 333 329.7 327.4 325.5 311.9 319.2 313.8 308.4 315.6 319.2 313.5 302.5 313.5 316.4 316.4 315.9 320 318.8 313.2 308.8 305.6 297.6 284.6 285.9 282.9 277.7 275.8 275 274.5 279.2 286.5 304.9 321.6 339.8 359.5 384.8 409.7 413 414.4 418.9 418.6 413.4 404.1 391.4 376.8 364.7 387.5 404.1 417.9 428.4 432.3 431.6 428.3 429 428.7 429.9 437.4 439.3 445.7 443.5 446.9 451.3 452.6 450.4 445.6 444.6 443.7 441 438.1 438.2 427.9 422.3 417.6 413.5 410.2 403.3 396.8 392.2 392 396.8 402 403.9 402.1 400 394.8 388.9 384.6 382 378 374.7 372.5 369 367.6
694.8 694.8 695.3 692.8 688.5 679.1 665.6 651 637.9 633.4 626 617.5 608.7 601.7 588.4 571.8 554.6 542.5 537.1 532.7 524.3 515.2 509.9 506 509.6 530.2 540.7 538.5 540.9 560 570.7 571.1 570.8 572.8 571 564.8 565.3 567.8 564.7 562.6 559.4 559.4 557.9 557.4 554.7 551 547.3 544.5 539.7 536.5 534.6 530.5 528.5 517.3 502.4 484.5 467.6 453.7 444.1 438.1 429.4 424.8 416.9 405.8 407.8 411.4 414.8 418.5 423.8 428.8 432.4 441.2 448.3 454.4 460.1 462.8 465.9 465.9 467 467.9 468.9 468 469 469.9 466.8 462.6 459.4 453.4 448.6 443.1 438.6 432.7 425.9 416.8 412.8 405.1 396.8 386.1 379.4 374.8 368.5 361.6 359.3 347 339.2 334.9 332.4 329.3 328 325.5 322.5 312.1 312 322 325.9 331.7 331.8 323.3 313 303 301.2 300.9 300.4 299.6 298.1 294.3 295.9 299.7 298.3 309.8 306.7 304.1 300.4 295.3 291 286.1 275.6 274.8 283.1 298.9 316.3 333.9 353.1 380.9 392.1 391 398.5 400.8 398.9 392.8 377.4 367.7 369.6 393.4 412.3 427.4 435.7 437.6 429.6 427 427.5 428.8 430.7 434.7 439.9 443 445.8 450.1 450.4 450.4 443.7 442.5 443 437.3 432.8 428.9 427.1 418.8 413.2 409 402.7 398.1 393.5 387.7 384.4 381.3 388.4 395.2 396.3 394.5 390.8 385.4 380.7 379.2 374.3 370.5 368.2 364.6 361.9 359.1
693 696.3 695.5 694.1 690.1 677.1 664.7 654.1 639.4 633.7 629.3 619.8 612.1 603.8 590.7 581.3 570.2 562.7 558 552 539.5 525.7 514.8 507.1 502.9 518.7 525.2 520 525.1 541.6 548.6 552 552.5 559.8 558.6 543.9 554.3 556.9 555.6 553 547.6 553.3 552.5 553.3 549.5 543.9 537 536 529.7 531.1 528.7 523.8 520.3 509.5 494.8 478.8 464.8 450.8 442 433.1 427 420.1 419 420.7 424.2 428.3 433.2 437 440.9 448.2 456.2 460.7 465 470 472.2 474.6 475.5 474.7 474.1 472.6 469.7 467.1 463.8 463.3 459.1 453.2 447.7 439.3 430.9 426.4 420.1 417.3 411.5 404.5 400.5 394.1 385.4 376.1 369 364.9 358.2 352.9 346.3 339.8 338.4 334.8 327.9 321.4 319.8 320.2 324.2 326.1 327.4 333.5 336.3 339.3 336.9 332.8 324.1 310.4 305.1 301.3 300.6 303.3 310.8 316.5 322.6 329.6 336.4 339.8 334.1 329.7 320.9 313.6 303.2 299 286.8 275.7 272 279.4 294.6 308.8 326.2 346.1 361.5 365.2 367.9 376.6 381.2 378.5 364.4 358.4 371.5 396.1 417.1 433.3 440.1 434 427.4 426.8 427.7 432.1 434.4 438.5 442.1 445.7 449.8 451.4 447 443.5 439.1 443.7 434.8 426 422.5 415.9 413.4 407.7 400.6 396.2 392.3 387.6 382.2 379.4 376.1 372.6 380.9 387.3 386.6 384.4 380.7 375.3 371.2 370.3 365.8 362.3 359.6 357.3 353.8 353
693 697.6 697.3 693.1 687 673.2 662.6 651.2 637.8 634.4 629 621.7 613.6 603.5 591.3 581.5 575.5 575.9 572 567.4 556.2 540.8 523.9 508.5 499.4 504.9 506.7 503 509.4 515.1 524.1 525 533.5 538.6 536.1 530.1 541.2 545 543.6 540.9 535.8 547.6 545.9 548.9 546.5 541.2 530 525.1 520.5 524.1 523.9 514.1 512.5 501.2 487.3 472.9 459.9 448.9 440 432.9 431.4 432.5 434.1 436.5 441.3 446.3 453.6 457.1 462.6 467.6 471.4 474.4 478.2 481.4 480.4 482.6 481.9 480.5 479.1 476.8 473.2 468.4 463 456.6 446.3 438.4 430.3 418.3 407 407 404.2 399.7 396.2 393.1 385.2 378.8 371.7 364.4 360.5 356.1 348.9 344.9 340.7 334.9 330.5 324 322.6 325 327.8 330.2 332 334.4 337.1 342.2 344.5 344.8 340.6 335.7 321.9 313.8 308.6 309.2 316.7 326.3 336.4 347.3 357.5 367.7 373.1 374.9 362.7 346.4 338.2 327.2 314.5 309.5 303.1 296 276.5 269.4 272.6 286.4 299.9 316.2 331 341.1 342 342 348.5 362.7 352.6 347 373.9 401.1 423 435.6 437.6 428.4 428 425.6 429.2 437 439.5 439.6 444 448.3 452.2 449.2 445.7 440.9 432.8 424.2 417 408.4 401.8 397.5 395.3 391.2 385.4 382.6 381.3 376.5 370 368.7 365.8 362.4 369 376.1 374.4 371.6 367.7 363.9 359.9 359.9 356.4 353.4 350.5 348.2 346.8 345.2
691.2 697.4 697 689.3 678.4 667.8 657.4 648.7 636.8 629 625.1 617.3 608 598.7 590.5 582.1 578.6 576.2 578 577.8 570.2 553 534.7 518.1 503 493.8 492 489.1 494.6 495.9 498.8 496 511.1 522.6 513.3 522.8 528.8 528.3 528.9 527.8 534.1 541.5 542.4 543.9 541.9 538.8 531.2 512.1 513 515.8 517.7 504.2 505.2 493.7 480.9 471.4 460.3 453.6 445.9 441.8 444.5 447 450 454 461.1 466.9 471.5 474.6 477.7 479.4 482.4 483.7 486.7 487.2 487.6 488 486.9 485.5 483.3 479.8 476.6 473 472.9 466 447.3 434.2 424.2 411.8 396.8 388.1 386.2 381.5 382.1 379.3 373.1 366.1 358.8 353.9 348.9 340.1 341.6 340.6 339.2 336.6 332.9 325 329.4 332.1 334.5 336.8 342.8 344.1 346.1 348.1 351.1 348.8 344.4 339.8 327.4 310.4 317.1 323.3 332.9 347.1 362.4 372.9 384.6 398.1 407.3 410.5 389 367.4 351.9 339.9 325.1 319.8 314.1 304.5 289 274.6 269.1 270.6 276.1 292.6 306.6 318.8 316.8 315.4 316.8 328 339.9 354.5 384.9 409.8 426.7 435.6 430.9 425.6 426.9 424.8 431.5 436.3 436.8 440 444.8 447.3 451.6 446.8 443 439.1 436.1 430.4 422.2 407.7 385.5 378.9 378.2 375.5 374.9 371.5 370.9 366 359.4 357.5 355.7 352.2 358.4 361.9 360.9 357.1 354.2 351 348.3 350.6 347 345.3 342.2 338.8 336.4 335.3
686.4 690.5 686.4 680.6 672 663 653.9 645.4 632.8 625.7 619 611.7 603.3 595.7 589.3 583.1 577.8 578 576.8 581.3 573.2 565 547.7 529.7 511.1 493.5 480.6 479.6 477.2 480.6 480.7 487.1 494.7 506 503.3 507.6 512.8 511.9 512.6 519.1 531.3 536.6 539.1 541.6 539.1 536.3 530.4 517.5 502.3 506.6 508.9 494.8 494.8 488.1 477.6 472.6 464.8 462.4 457.4 454.4 459.7 463.6 468.6 471.5 476.7 480.1 483.4 485.7 487.3 487.9 490 491 492.5 491.4 492.6 491.3 489.7 488.5 486.2 483.2 478.9 479.9 476.6 468.9 454.1 436.7 415.3 403.3 389.9 378.6 374.2 367.1 364.6 366.5 358.4 359.3 357.2 355.1 352.6 352.9 347.4 343.3 341.8 336.9 329.5 335.4 338.6 341.4 343.8 346 348.2 352.1 355.7 354.2 355.2 353.3 349.6 342.7 321 327 335.8 342.3 351 364.7 386.3 403.8 416.1 422.1 422.8 424.9 411.9 383.4 362.1 347 333.6 328.2 320.1 312.8 297 285.2 272.9 266.9 266.8 273.1 285.4 294.6 300.8 314.3 338.8 351.8 360.5 379.6 401.5 419.3 428.3 428.2 422.2 420.4 418 422.6 429.9 428.3 435.1 436.4 441.1 445.8 450.1 444.6 439.1 437 433.3 430.2 419.1 411.2 400.4 374.2 365.7 357.5 361.2 361.9 358.7 353.3 349.3 349.3 347.9 343.1 345.5 345.7 345.8 343.7 343.1 339.2 340.2 339.6 336.1 335.3 328.9 324.9 317.1 327.7
675.1 679.1 675.4 672.5 664.6 655.9 648 641.1 627.3 620.3 615.3 606.5 599.8 592.1 585.2 575.6 572.1 574.1 572.2 577 573.7 567.3 557.2 541.5 523.1 503.4 488.3 473.7 466.3 466.2 467.1 474.5 482.6 492.1 489.6 496.1 495.9 498.5 511.1 517.4 525 533.8 536.7 537.4 536.3 532.5 525.7 513.2 502 495.1 498.2 486.9 485.2 482.7 477.1 476.4 472.2 474.8 472.6 472.1 473.1 475.6 478.9 484.2 487.9 490.7 492.7 493.2 493.8 493.2 494.1 494.8 494.2 493.7 494.6 493.3 491.7 490 487.8 485.4 482.6 483.8 478.5 473.5 461.2 444.8 423 401.1 388.9 376.6 377.1 376.7 375.2 374.2 369.8 366.2 362.2 358.6 357.5 356 348.4 342 334.3 339.6 342.7 343.8 347.9 351 353.1 355.7 358.8 360.9 361.2 360.6 361.9 357.7 353.6 331.3 330.2 346.4 358 363 373.2 382.9 402.3 423.4 436.1 438.1 437.2 438 425.8 395.9 372.1 354.4 340.9 331.5 325.5 320.2 309.1 298.8 290.1 277.6 265.2 263.6 268 276.4 293.9 314.4 345.9 363.9 378.8 396.2 411.2 419.8 424.3 418.6 412.7 411.5 413.4 417.9 416 424.8 429.6 432.9 438.4 444.2 448.2 439.9 436.2 433.6 428.5 420.8 414.4 409.5 402.8 383.5 376.2 367.2 349 347.9 347.4 341.5 339.9 340.8 338.3 337.9 333.5 333.4 333.5 334.6 331 329.5 331.1 328 325.9 322.2 311.4 300.7 309.3 308.4
663.9 663.7 664.5 663.5 657.6 649.2 643.2 635.3 622.4 611.5 613 602.6 593.2 586 577 570.3 566.6 567.9 566.2 572.7 572.8 567.9 558.6 550.2 533.8 517.4 502.5 488.1 473.6 457.1 459.7 463.4 469.7 478.7 475.4 483.1 484.4 499.7 508.5 516.5 523.2 529.5 537.4 537.6 535.7 530.9 523.4 508.6 494.3 479.9 488 480.1 480.8 479.6 476.8 476.6 477.8 482.5 478 480.7 480.5 483.2 488.6 492.2 495.1 497.9 498.1 497.8 496.6 495.9 496.7 497.3 495 494.1 494.6 493 491 489.5 488 486.4 485.6 484 481 471.8 459.1 439.1 416.3 400 389.5 392.5 390.9 388.9 388.4 384.7 377.6 370.8 366.5 360.8 356.3 352.3 343.6 342.8 348.3 350.4 351.4 353.7 357.7 361.4 362.2 365.9 368.8 371.1 371.8 371.8 371.6 365.2 351.5 332.7 360.4 371.3 377.4 382.9 397.3 408.9 422.4 438.3 448.8 452.7 449.9 448.3 436 403.6 383.9 367.9 353.6 341.3 337 330.1 323.2 310.5 300.4 290.4 286.2 280.9 267.5 265.9 274.2 295.6 322.6 354.2 380.8 397.8 411.5 417.9 419.9 409.7 404.2 400 404.4 405.3 410.1 419 422.8 428.7 434.9 442.8 441.1 433.8 431.1 429.8 424.3 418.7 415.1 408.6 403.6 389.9 380 372 362.7 346.8 339.4 331.5 329.6 328.1 330.4 328.4 325.4 325.7 325.1 321.4 317.5 315.6 316.8 314.1 309.8 305.5 300.2 286.8 283.4 282.7
652.6 656.7 656.6 654.7 650.1 644.2 637 629 615.8 604.9 605.6 597.3 587.9 578.9 569.9 560.8 557 557.6 558.5 568.4 567.8 564 558.9 550.8 543.4 535.3 526.9 503.3 479.9 463.6 453.3 458.3 460.4 463 462.8 465.7 482.2 496.2 507.3 512.7 522.2 529.6 537.6 537.8 535.2 530.6 523.6 514.8 501.8 482.6 473.8 474.7 470.1 470.8 472.5 473.8 479.8 482 481.9 483.7 486.4 490.1 494.9 497.3 500.2 501.3 499.5 500.8 497.7 496.8 497.1 496 493.9 494 493.3 491.9 490.7 488.8 488.3 486.4 485.5 483.1 477.7 468.9 451.5 431.5 410.4 392.5 400.1 400.3 400.9 399.1 395 388.2 382.4 375.6 367 362 357.7 354.8 344.4 352.4 357.4 359.6 361.9 364.9 368.7 371.8 372.9 377.2 379.2 380.9 380.5 380.7 379.1 365.1 329.9 356.5 375.2 386.1 393.7 403.8 416.1 421.9 434.5 448.9 458.3 460.1 457.3 454.8 450.4 425.1 396.4 383.2 370.1 359.2 355.9 342.6 336 326.8 312.5 300.9 300.1 294.9 285.3 270.7 258.5 272.1 301.5 337.9 369.6 393 407.4 411.9 408.1 399.6 392.2 389.2 396.6 395.3 401.7 411.4 415.6 423.1 430 439.4 433.4 428.7 427.2 424.9 419.8 416.5 412.5 408 401.2 387.3 379.2 372.2 362.4 357.8 350.4 342.9 336.6 331.3 321.6 318.6 315.9 314 313.5 307.4 304.3 302.7 301.6 298.2 291.5 282.5 280.3 282.4 276.9 269.6
641.5 647.4 648.8 647.1 643.2 637.1 631.2 622.5 606.3 598.1 594.8 587.1 581.1 572.9 562.8 547.4 543 544.9 547.8 556 557.6 554.1 553.2 550.2 546.5 541.4 533.6 518.3 490.6 467.5 459.9 444.7 454.5 452.7 451.3 462 480.1 489.7 502.9 513.1 521.3 527.6 535.5 535.1 532.8 529 523.3 514.8 506.7 489.5 469.2 469.6 462 456.1 465.1 470.5 478.2 480 483.5 485 489.9 495 498.9 501.5 502.8 501.3 501 501.3 498.1 497 496.3 493.5 491.6 492 490.6 489.2 488.8 488 485.9 484.4 484 480.9 473.7 463 441.4 418.9 400.1 405.6 410.8 409.2 407.9 406 401.7 394.2 389.2 380.9 371.5 365.2 354.6 351.6 355.1 357.5 369.7 370 373.9 376.6 380.6 384 384.6 387.4 388 388.9 388.5 386.5 385 352.9 350.1 367.9 385.6 398.7 406.7 416.9 428.7 437.9 442.8 457.4 466 466.1 462.8 461.6 461 441.6 422.8 404.2 392.7 384.6 373.3 366.2 352.8 342.7 327.8 319.6 316.6 302 295.5 287.7 277.6 256.4 286.6 323.7 352.3 383.8 400.9 402.9 399.4 392.1 385.7 380.5 384.5 382.3 393.6 403.1 409.3 417.1 426.1 431.2 427.2 423.3 422.4 419.3 415.5 412.7 407.1 403.4 394.5 383.3 378.7 371.4 364.5 358.3 349.3 341.1 330.2 325 327.8 327.8 324 320 316.2 315.6 314.3 310.7 308.5 305.4 303.3 301.2 299.3 298.2 295.4 280.5
634.8 640.1 642.5 641.6 636.4 632.5 625.9 617.1 600.6 593.1 582.2 579.4 571.7 564.4 555 539.9 528 526.7 534.7 544 546.6 544.1 542.4 541.2 542.4 539.5 532.1 521 499.1 476.6 459.8 444.8 440.9 437.2 442.5 457.3 473.1 482.5 495.9 509.2 517.8 524 531.8 532 530.3 526.2 519.5 512.9 504.3 491.8 472.2 460.1 449.7 444.9 453.4 465.5 473.1 478.2 482.3 485.6 491.7 497.8 500.5 502.1 503.4 500.7 498.8 498.9 497.8 496.4 494.4 492.3 489 489.3 487.7 486.6 485.5 485 483.2 483.2 481.3 475.7 467.9 450 428 405.1 408.8 421.2 422.3 418.7 417 412.7 405.8 401 393.1 384.3 376.6 368 366.4 365.5 366.6 375.8 377.7 380.2 385.9 391.8 392.7 394.8 394.1 396 395.8 394.6 393.4 391.5 388.3 362 364.1 382.4 395 407.2 416.4 427.1 437.9 445.7 450 461.5 470.3 470.4 467 465.5 466.6 457 450.4 437.6 426.9 420.7 404 391.4 372.6 355 341.6 338.8 327.2 311 299 293 275.9 258.4 278.9 309.3 344 370.2 392.7 397.8 394.8 388.3 380.6 368.9 371 374 383.9 394.5 403.3 412.1 426.4 427.3 423.2 419.5 416.8 414.5 410.8 405.9 402.8 399.6 389 382 377.3 371.2 362.6 349.6 342.2 344.2 344.4 342.9 341.3 339.4 335.3 330.8 326.4 323.2 319.8 314.4 312.8 307.7 310.4 310.8 309.9 308.5 293.4 294.9
631 638.9 637.3 634.3 631.7 626.8 619.3 610.5 592.8 586 576.7 570.1 563.3 553.4 546.2 533.4 515 512.5 520.3 531.1 529.8 530 531.2 531.9 531.6 527.2 523.5 518.5 497.9 482.4 463.7 450.3 438.1 432.6 436.6 451.8 463.5 473.4 487.7 501.8 512.2 520.7 528.3 527.9 526.6 521.8 515.6 509.6 500.9 485.7 475.1 464.7 449.8 435.5 440.7 457.2 468.9 477.6 482 487.2 493.5 498.5 500.2 502.2 501.4 498.6 498.7 496.8 494.8 494.5 493 490.2 486.4 486.8 484.5 483.7 482.6 481.9 479.9 481.1 476.4 472.2 459.3 436.6 411.4 413 430.7 432.8 430.5 425 420.6 416.8 410.1 402.3 393.9 384.4 376 371.1 372 370.3 379.7 381.2 383.4 390.6 401.7 404 402.1 402 400.7 400.8 399.6 397.9 395.9 393 389.2 358.5 372.4 392.6 404.9 414.1 424.3 434.6 443.8 451.1 456.9 464.1 472.2 473 473.2 470.1 468.2 460.9 462.6 455.8 446.6 440.1 427.8 413.5 393.3 368.3 354.1 348.2 334.7 317.4 305.4 291.9 274.4 258.4 274.9 304.1 334 361.6 387.2 393.2 389.5 386.5 376.2 366.4 360.8 365.5 376.5 387.9 393.3 407.6 421.6 424.1 418 414.5 413.3 413.4 407.8 401.7 398.8 395.1 385.9 380.3 374.3 366.8 355 361.4 361.9 358.4 356.5 355.1 351.5 347.8 343.7 339.3 335.4 331.2 325.6 320.3 316 316.5 319.7 319.9 317.1 313.6 298.5 307.1
628.8 628.5 627.8 628.7 624.4 619.4 610.5 604.1 590.3 580.1 569.8 565.1 555 546.6 539.4 526.1 513.4 501.1 504.9 509.3 512.2 513.5 516.3 516.9 517.2 515.8 512.6 501.7 495.7 481.4 468.6 452.9 441 432.6 432 445.6 455.3 465.9 480.8 497 506.7 516.9 521.1 522.7 521.2 517.3 511.9 504.4 495.2 480.1 470.1 458.4 447.3 437.7 436.6 454.8 466.9 476.3 482.9 488.5 493.7 497.5 500.7 500.2 499.3 498.2 496.2 494 493.6 491.7 490.7 487.8 484.6 483.1 480.8 480.3 479.4 478.2 476.7 477.9 473.1 462.8 446.2 423.2 421.2 441.2 444.4 439.9 436.3 428.7 421.9 416.5 408.9 400 388.1 382.1 385.1 385.4 382.9 381.7 387.5 385.3 389.5 399.6 410.1 411.1 408.2 405.3 403.5 402.9 400.8 398 395.3 391.6 385.3 355.7 377.1 393.8 409.5 420.9 430.7 436.9 447.7 453.6 459.5 464 472.3 472.3 471.9 471.3 467.8 463.8 467.6 463 453.3 444.3 431.2 415.9 400.1 377.5 361.2 355.8 340.8 326.2 308.1 292.6 278.8 261.4 266.2 293.6 320 353 381.3 386.6 382.9 379.1 369 357.7 351.4 359.4 372.6 378.1 392 406.2 417.4 417.5 413.8 410.6 412.2 410.8 407 403 401.2 395.2 389.2 380.1 378.2 373.3 373.5 374.2 367.8 367.7 364 362.1 356.9 353.5 349.3 344.2 340.5 335.2 328.2 322.8 319.2 323.1 323.9 323 319.6 313.4 314 316.5
620.2 625.3 623.3 622.7 618.3 610.3 603.6 593 581.1 574.1 569.2 559.6 551 541.8 528.9 521.8 509 505.8 493.9 490.4 493.3 496.3 498.2 503.3 504.4 503.4 499.3 491 490.8 478.1 466.1 456.2 444.5 433 429.2 441.3 449.2 459.9 474.2 489.4 502.5 511.2 516.7 518 515.6 511.5 505.5 498.4 483.5 470.2 459.8 447.3 440.4 428.2 437.5 453.7 464.6 473.6 481 486.2 490 495.3 498.2 497 496.5 495.7 494.5 492.4 490.2 489.2 487.2 483.5 483.3 478.9 478.7 477.2 477 476.5 476.2 474 465.5 454.4 440 436.6 453.6 453.7 451.5 445.2 437.3 428.8 421.8 413.8 403.2 387.8 393.3 395.8 397.3 397 394.3 385.4 393.4 391.3 397.5 408 415.5 414 410.6 407.4 404.5 402.1 397.5 393.4 391.4 387.2 373.9 367.1 388 401.9 412.5 426.1 437.6 443.2 453.4 456.5 459.2 463.5 469.5 469.8 467.3 469.2 467.9 467.5 469.4 465.1 454.6 444.6 429.7 416.6 400.5 379.9 361.8 351.9 339.5 330.2 306.8 290.7 278.6 264 256.9 284.1 312.9 341.4 372.7 377.5 376 368 358.5 349.7 347.7 361.9 374.5 379.3 390.2 405.2 415.1 416 410.2 408.7 411.3 410 407.8 407.3 407.4 398.9 389.2 385.7 384 380 381.9 377 372.2 369.3 366.9 364.3 357.1 353.5 351.3 347.2 341.6 334.6 329.1 323.8 321.4 321.5 322.3 321.9 319.1 319.6 321.6 322.8
616.7 623.4 621.5 616.9 610.8 604.5 596.1 589.3 572.9 563.4 566.4 556.3 549.5 537.1 528.2 520.2 517 515.8 508.8 494.2 481.8 479.4 484.4 491.9 492.7 491.5 486.8 481.9 474.4 465.4 461.8 453.1 445.3 432.9 423 434.3 442.5 452.5 466.9 481.9 494.2 504.4 512.1 513.3 510.4 503.9 496 484.1 467.2 457.3 448.9 439.4 430.8 419 438.2 451.1 461.7 469.9 478.9 482.3 485.9 492.6 493.3 493.4 493.8 492.3 490.3 489.4 487.4 485.1 483.3 481.1 479.8 477.6 476.8 476 474.5 474.7 473.5 467.1 456.8 459.3 455 465.1 463.9 460.8 456.7 447.7 440.5 430.4 416.7 403.1 393.1 404.6 408.4 409 407.8 404.3 399.7 395.3 395.3 395.1 402 412.6 419.1 416 413.1 408.9 404.2 399.6 394.9 389.5 385.2 374.8 361.7 375.5 395 408.1 419.9 428.6 436.3 445.8 454.9 459.3 460.2 465 467.5 467.5 466.1 467.7 469.6 471.2 466.7 463.7 451.9 442.6 427.3 414.1 397.4 378.5 363.8 355.1 345 329.5 315.1 299 280.2 265.6 251.1 275.8 300.4 330.4 363.6 369.3 366.3 358.3 350 336.8 351.6 366.5 377.6 380.5 389.4 407.1 417.7 410.3 402.9 409.7 409.4 409.3 409.5 411.2 409 394.5 390.9 388.2 385.4 382.7 383.5 377.4 372.3 370.8 365.4 359.2 352.4 351.1 348.5 343.5 339.8 332.7 328.5 325.3 323.5 322.3 322.2 322.4 322.6 324 324.2 324.5
615 619.8 616.9 612.6 607.1 598.2 586.2 573.2 559.4 554.9 557.8 543.5 539.9 530.8 521.9 519.6 521.1 522.4 517.4 504.7 494.8 480.1 472.4 479.3 481.9 480.9 476.9 470 460.5 458 455.4 451.1 443.8 435.1 424.3 424.9 435.5 442.9 459.4 473 485.6 497.7 507.8 507.1 501.8 492 483.7 471.4 451 446.5 439.1 431.1 422 421.6 438.3 448.7 457.9 466.5 471.8 475.2 483.2 488.4 490.1 490.2 491.5 489.1 487.9 486.1 486.2 482.2 480.6 478.4 477.1 476.6 475.9 474.5 473.5 472.7 469.4 468.9 469 467.2 471.2 472.8 467.6 465.2 459.1 452.9 435.3 418 401.8 403.9 415.2 422.8 423.7 417.1 412.4 404.2 397.2 398 399.1 401.8 409 418.6 424.6 419.9 415.1 410.3 405.6 400.3 393.1 389.2 380.5 379.7 367 382.7 400.5 413.1 423.2 431.1 438.6 445 449.3 454.2 456.7 462.6 466.8 465.1 465.2 469 471.7 469.2 464.6 460 449.7 439.5 425.4 408.5 391.4 374.7 363.1 355.7 348 333.2 319.5 301.5 283.4 269.7 253.6 266.5 288.1 314.5 346.7 360.6 356.8 349.1 342.5 332.6 348.4 360.9 371.3 373.7 386.2 404.2 402.8 399.8 396.1 410.1 409 408.8 410.6 412.7 404.1 392.3 391.8 391.7 385.2 383.5 380.4 375.2 369.1 364.9 356.7 350.7 345.6 344.7 343.8 340.8 336 331 326.3 324.2 324.1 322.3 322.4 323 323.7 322.8 322.9 322.9
612.6 613.3 610.6 608.1 601.4 592 571.8 553.3 547.1 545.4 543.9 536.1 530.9 522.8 514.1 515.5 520.1 522.8 523.2 514.5 505.7 492 478.1 467.3 472.4 472.3 466.4 459.7 456.5 455.3 452.5 449.1 444.5 438.4 424.4 420.6 432.4 439.8 452 464.1 476.5 489.5 499.6 496.2 489 479.3 470.8 457.9 440.9 435.5 427.5 418.3 410.7 424.8 435.8 444.9 453.6 459.8 464.6 470.7 476.3 484.5 489.2 489.7 489.4 488.3 484.9 483.5 483.1 480 478.9 476.8 475.4 474.6 474.4 473.4 472.8 472 472.3 471.9 471.7 471.9 476.5 474.1 471.4 468.1 464.1 454.7 428.7 412.4 420.6 428.1 437.4 440.4 433.5 422.7 410.9 402.7 402.2 403.5 406.9 408.9 416.5 420.4 425.9 423.8 418.6 413.6 408.9 404.5 400.7 395.1 392.6 389.1 369.7 384.9 402.8 415.2 422.8 431.5 439.9 441.8 442.3 445.5 450.3 456.4 461.4 459.7 466.5 470.6 466.7 463 459.4 453 446.5 435.4 421.3 402.9 383.7 370 358.1 350.2 343.9 333.5 319.7 304.7 284.5 274.9 257.3 259.5 275.2 300 325 344.9 342 337.5 331.3 324.6 339.5 348.4 353.2 359 373.3 379.9 380 390.1 404.4 407 404.6 406.8 406.2 408.5 396.2 387.4 387 385.7 381.8 377.7 374.9 368.1 360 355.1 348.9 342.2 337 335.4 336.7 335.4 331.6 326.7 321.9 320 320 317.1 319.3 321.9 321.2 319.1 318.8 319.4
609.6 609.1 603.4 599.9 593.2 583 561.9 542.6 535.9 539.3 530.5 525.7 517.1 510.6 507.2 510.8 517.5 521 522.6 518.8 512 502.8 489.5 473.3 463.2 464.5 458.4 456.5 453.7 450.9 448.4 449.6 444.3 436.4 427.4 416.3 426.3 436.5 446.3 457.4 470.9 480.5 490.2 484.6 473.9 465.7 455.4 441.8 430.9 421.4 412.9 407.2 410.1 422.8 430 438.3 447.4 452.1 458.7 470.4 481.2 489.3 492.8 490 489.1 487.3 482.4 481.7 480.7 478.6 477.5 476.9 475.1 473.2 471.1 471.8 472.4 474.2 473.6 472.9 472.7 475.8 478.5 477.3 473.8 472.6 466.6 455.3 440.3 437.2 441.9 449.3 452 448.1 436.6 423.2 408.2 408.4 412.1 412.3 415.9 416.9 423.4 427.4 428.3 429.8 424.1 418.4 412.3 407.6 403.7 398.6 396.2 394.3 369.3 384.9 399.6 410 415.3 422.6 431.5 433 440.8 446.2 444.2 447.4 454.6 455.5 462.2 462.6 461.1 457.4 453.5 448.5 441.6 432.2 416.3 401 382.8 365 352.1 342.8 338.7 328.5 313.8 302 286.5 273.3 257.6 247.3 264 282.3 308.2 322.3 323.9 320.6 317.1 313.2 323.2 328.2 343.2 355 368.1 383.1 398.8 403.1 401.6 397.9 392.5 391.3 397.2 395.4 386.5 377.5 381 377.5 371.6 367.5 363 357.6 354 347.2 339.5 332.8 327.2 324.5 326.9 328.7 327.2 322.2 317.9 314.2 311.1 309.4 315.1 317.2 318.9 315.9 314.5 316.2
606.5 603.3 597.9 591.6 585.9 570.2 550.9 535.7 527.4 528.7 521.2 515.3 507.6 505 503.1 505.9 512.3 516.8 521.6 520.2 515 507.8 497 480.2 466 458 456 453.3 450.6 450.5 451.5 446.4 438.3 430.9 426.3 415 424.2 430.5 438.4 450.5 463.9 472 482.9 475.2 458.5 456.1 442.1 425.2 418.7 407.9 405.6 412.8 421.9 432.6 434.4 441.7 448.4 457.4 469.1 480 488.9 494 495.4 491.4 489.5 484.7 481.8 481 479.5 478.8 477.7 476.7 475.7 473.3 469.7 466.9 472.1 474.2 471.7 472.4 473.7 479.4 479 478.6 478.5 476.8 471.8 460.3 448.8 459.4 462.5 463.4 464.3 455 440.6 418 423 429.3 431.5 427 426.4 426.3 434.3 436 434.2 434.5 429.7 423.6 416 410.4 406.5 401.8 398.4 392.3 371.5 390.5 395.4 400.3 406 413 424.7 436.3 436 435.5 441.4 443.5 446.6 450.9 457.7 456.9 455.1 452.5 447.7 444.9 438.8 430.1 416.8 404.4 383.9 365.6 350.5 339.3 332.8 325.2 309.6 291.3 283 268.1 256.7 250.8 251.7 269 291.9 304.3 307.2 306.1 301.5 305.1 322.9 342 351.4 365.2 377.3 392.8 399.6 398.1 384.6 380.3 374.9 373.8 378.9 379.2 372.1 365.8 368.5 365.5 362.1 358.1 354.1 347.7 342.3 337.8 329.8 323.9 317.3 313.3 315.3 319.8 322.8 317.3 312.3 305.5 299 304.2 307.4 309.7 310.8 311.4 313.8 317.2
602.4 600.2 593.4 585.4 574.5 556.2 540.3 528 518.4 517 517.3 505.3 499.1 499.5 497.7 500.1 505.4 512.8 518.9 519.7 515.1 509.5 500.9 486.5 471.4 462.6 456.8 455.5 453.7 451.6 447.6 440.1 433 429.8 424.8 413.4 416.3 424.7 431.4 442.5 455.6 462.4 471.1 467 447.9 444.6 434.8 421.1 405.7 401 414.9 420.5 431.8 439.6 448.1 455.2 463.7 473 480.9 487.9 494.4 497.3 495.5 490.5 486.8 483.4 481.4 481.4 479.9 478.3 477.9 477.2 476.4 474.5 471.5 463.3 471.1 471.4 469.6 470.3 475.1 478.7 479.1 480.5 483.3 483.8 481 478.8 473 473.3 475.3 474.4 467.8 457.5 434.9 439 444.8 449.8 449.4 446.3 441 439.2 445.8 446.5 445.1 441.2 435.1 427.3 418.1 412.5 407.1 402.6 399 394.1 383.2 394.6 406.5 413.2 422.1 430.5 436.4 444.6 445.3 449.2 448.4 445.6 445 446.4 452 451.2 448.7 449.6 443 442.8 436.5 426.3 415.9 404.7 384.6 367.7 350.2 340.1 333.9 323.2 310.1 293.3 278.4 264.8 257.4 252.1 247 259 279.1 289.3 289.5 288.7 280.6 298 317.4 329.1 346.8 353.3 367.9 385.1 377.9 365.7 362.2 357.7 354.4 353.2 353.2 357.7 354.7 359.4 363.3 362 356.3 349.1 345.2 336 331.6 325.6 319.8 313 308.8 307.4 304.4 311.6 317.6 312.9 303.2 295.9 291.3 295.9 297.6 303.3 309.7 314.8 318.6 322.6
599.8 596.9 591.4 579.4 558.2 547.4 533.2 520.5 512.7 509.7 506.5 498.4 495.7 494.5 493.6 495.6 499.1 510 513.5 519.1 516.2 510.2 501.3 489.9 477.3 469.9 463.5 458.1 454.6 448.8 442.6 435.9 431 426.3 421.8 416 411.7 418.1 423.7 435.9 447 453 461.4 455.1 438.3 435.6 425.1 413.6 399.6 405.9 413.8 426 437.7 447.8 457 465.1 473.6 481.9 485.9 492 495 496.2 492 487 481.5 481.4 480.3 480.1 480 478.7 478.9 478.8 477.1 475.5 472.1 467.6 460 461.1 462.3 467.3 472 473.8 477.6 483.3 488.8 493.5 494.5 491.4 488.9 484.6 481.2 478.8 470.1 457.5 443.5 455.1 459.1 462.1 463.8 462.1 459.2 452 456.5 455.7 452.8 447.8 437.1 428.9 421.5 414.5 407.2 405 401.3 399.9 392.4 395.8 408.6 417.2 425.9 435.7 441.5 446.6 447.9 453.9 455.2 452 448 447.4 447.9 446.4 444.7 443.4 439.2 436.5 431.9 421.9 411.9 399.4 380.2 363.6 345.7 334.7 326.6 317.2 295.5 287.4 277.5 264.7 256.1 250.9 248.1 255.3 266.5 271.1 272.3 266.5 278.8 284.7 300.8 317.7 324.5 339.6 345.3 342.8 340.1 344.5 345.7 340.4 338.9 335.5 334.3 336.4 341.7 360.6 361.5 356.3 348.9 342.7 333.3 325.3 319.7 315.9 311.1 305.4 300.9 300.9 297 301.2 310.7 303.7 292.3 284.8 285.3 291.3 303.4 313.6 318.8 321.2 323.7 328.8
595.2 590.7 585.1 568.8 557.3 544.3 531.5 518.7 513.5 508.4 502 494.1 490.8 488.7 487.1 491.3 498.1 503.9 511.2 516.9 516.4 509.2 502.4 492.9 481 474.5 467.8 462.8 456.7 450.5 442.2 438.1 434.5 428 423.6 415.4 410.6 408.7 418.2 427.7 437.2 443.6 447 441.8 431.7 427.6 417.5 407.9 395.3 405.2 412 426.4 439.6 451.3 461.3 468.4 478.3 481.4 486 492 490.6 490.3 487.2 481.5 475 475.4 477.5 476.1 477.9 478.1 478.4 479.5 479.4 477.3 477.3 476.8 473.2 463.7 455.8 458.4 462.3 468.9 478.6 489.4 499.7 502 501 496.7 493.7 488.5 485.4 481.9 473 460.7 459.4 464.1 469.9 473.5 475.9 473.5 469.3 466.5 465.8 463.4 460 453.4 441.8 434.6 426.1 415.7 410.8 409.2 405.8 404.5 397.8 398.6 410.4 420.2 428.1 438.5 442.8 447.5 451.4 456.6 461.3 460 454.1 449.9 450.3 449.5 444.5 442.1 434.1 428.2 423.9 416.2 406.9 394.6 375.5 362.3 352.5 338.1 326.4 317.5 309.7 299.6 288 276.6 265.8 253.6 249.9 244.4 255.5 256.6 257.3 261.1 271.7 270.1 286.2 294.9 298.9 301.8 303.6 305.3 312.1 313.9 313.9 314.3 316.4 313.5 316 315.8 345.2 356.1 354.2 347.3 340.8 334.6 325.9 316.6 311.9 308 303.2 298.1 292.7 292.5 290.3 291.3 298.2 288.5 280.1 278.6 281.7 298.9 311.7 316.1 321.5 323.1 329.1 335.2
589.4 585.4 580.4 565.5 554.2 542.2 529.7 520.8 515 509.7 503.8 496.3 494.3 486.6 483.6 488.1 492.9 497.9 509.5 514 514.4 510.3 504.6 491.5 483.3 478.1 472.5 466.7 460.4 455 451.1 447.2 444.3 437.9 423.8 417.8 412.8 408.8 413 419.6 426.3 432 432.7 431.2 421.6 418.3 411.3 403.7 393.5 401.9 409.3 421.3 436.2 448.4 457.5 465.6 473.9 474.8 482.9 487.3 484.6 482.4 477.5 472.5 468.6 469 472.5 471.9 474.1 474.5 477.1 479.2 480.3 480.3 480.3 476.9 475 469.3 459.9 454.6 459.1 466.1 483.8 498.6 502.9 505 501.7 497.7 495 491 489.3 484.1 478.4 473.3 468.6 473.9 479.6 483.2 484.6 483.1 479.2 475.8 473 469.6 465 458.1 450.5 439.3 427.7 421.3 418.8 416.4 413.5 411 406.8 398.5 411.6 423.3 432.7 440.7 443.6 448.6 457.1 461.3 462.3 460.9 456.8 454.7 455.3 452.4 449.7 445.5 437.3 429.8 426.5 421.6 413.2 397.1 379.1 369.4 359.1 346 332.2 323.8 317.5 308.5 296.1 283.1 267 259.8 253.7 247.2 243 245.3 246.4 252.4 254.9 258.6 267.4 267.8 266.7 269.3 273.2 275.1 278.9 284.4 289.5 293.9 295.1 300.3 294.7 318.7 344 347.8 345.9 339.1 332.7 326.1 318.8 311.5 304.7 300.6 296.1 292.2 288.5 283.9 282.6 284.5 283 280.5 273.9 274.4 287.2 299.4 302.4 309.6 314.8 327 337 342.3
583.8 580 574.7 560.9 550.2 540.2 528.8 520.6 515.5 507.8 502.5 496 493.2 485.4 480.5 484.7 488.7 491.9 501.3 508.1 511.2 507.1 500 491 485.6 480.2 474.2 470.3 464.7 461.4 457.9 454.6 450.2 444.6 434 421.7 415.8 411.9 407.6 408.2 414.8 419.1 421.8 420.5 415.8 409.3 406.3 400 392 399.4 405.3 414.4 426.7 439.4 450.1 457.2 463.3 467.4 475.7 479.1 478.3 474.6 469 463.8 459.5 463.7 464.8 466.3 467.4 469.6 474.8 478.6 481.2 480.1 478.7 476.2 472.1 470.5 469.1 456.8 455 465.9 487.9 502.3 503.3 502.2 502.4 500.5 496.8 489.4 488.3 485.4 480.9 478.9 481.1 484.1 487.7 490.9 490.9 489.6 485.4 481.9 478.2 474.1 468.3 461.6 450.6 440.2 435.8 434.1 430.3 425.3 421.4 418.7 408.9 406.7 413.4 424.3 435.6 442.7 446.7 450.7 454.9 460.2 461.2 460.5 459.2 459.3 458.6 456.4 455.1 448.5 436.8 426.3 420.9 418.9 411.9 398.4 383.5 372 361.7 350.5 335.9 326.9 321.6 312.5 301.9 288.5 268.9 262 251.6 248.2 243.5 242.2 242.4 242 243.2 247.2 253.2 247.4 246.7 246.4 248.1 252.2 254.9 260 266.1 271.3 277.7 285.7 283.9 307.7 330.2 335 335.4 331.4 326 319.1 312.2 305.3 298.7 294 290.3 287.5 283 277.9 277.8 281.1 280.9 276 271.2 272.8 278.2 284.4 296.2 312.8 326.3 336.2 343.3 346.7
577.6 573.7 564.8 557.6 549.1 540.2 528 521.5 514.5 505.6 502.6 498.3 489.1 481.4 475.1 480.8 483.4 485.3 492.8 501.4 502.8 503.7 498.1 494.1 488.8 484.3 480.8 479 475.6 469.4 465.6 460.9 455 450.1 445.3 432.3 423.3 418.4 416.6 406.9 403.9 404.3 410 410.1 408.7 404.9 401.1 396.6 391.1 388.7 400.6 406 415.3 427.4 437.3 444.2 447.6 459.2 467.1 471.5 472.5 465.8 458.4 454 450.4 455.2 455.9 458 460.6 466.6 472.8 477 476.8 475.5 473.2 471.3 471.6 472 467.6 452.5 453.3 465.7 490.1 499.9 499.9 502.4 502.1 500.4 496.4 490.6 488.8 484.9 483.6 482.4 484.5 490.8 493.9 494 494.1 493.4 490.4 486.7 481.5 476.7 471.1 465.6 455.6 452.8 446.2 441.6 436.3 431 427 422.9 406.3 412.9 417 428.7 439.6 446.1 450.1 452.8 456.6 460.5 463.3 462.9 461.3 460.6 459.6 458.1 457.3 450.2 438.5 426.9 413.6 405 405.9 394 382.8 375.4 363.5 352.5 339.4 329.3 321.6 313.3 300.7 291.4 278 267.2 258.7 252.1 246 243.8 239.3 238.6 238.1 241.6 240.3 238.3 237.3 240.3 239.8 239.4 242.6 244.9 250.2 253.1 257.7 263.9 267.5 285.2 304.7 315.1 319.2 320 316.5 310.8 304 295.9 291.7 288.1 285.7 281.2 279.8 271.7 274.9 279.6 276.1 270.5 264 274 288.2 299.9 315.2 329.2 337.4 343.1 346.9 349.2
572.4 568 559.6 555.2 549 539.3 528.8 522.1 515 506.4 501.4 496.8 488.3 478.6 469.6 476.6 478.8 480 486.7 493.3 496.1 496.8 498.7 497.5 495.4 493.5 491.1 490.2 484.7 476.4 474.8 470.7 463.8 462.1 458.8 446.7 435 425.7 422.4 415.1 407.2 399.6 398.6 400.8 402.9 400.5 399.1 394.5 389.9 385.9 396.1 399.9 406.3 415.3 424.2 430.6 439.4 450.1 459 463.3 465.8 456.1 450.5 446.4 443.3 446.1 445.1 450.6 455.8 464.7 471.5 472 468.4 469 466 469.2 471 471.1 467.5 447.2 450.2 466.8 489.9 496.8 498.6 501.4 500.1 497.4 491 489.2 487.1 486 485.6 485.5 492.2 495.1 495.4 495 495.7 495.2 492.6 488.9 482.9 477.6 472.7 467.9 462.5 456 450.2 444.4 439.1 433.1 429.1 424 419.6 418.5 419 428.5 440.4 448.3 452.6 455.4 458.3 462.8 462.3 462.4 463.1 461.1 458.9 456 453 446 436.6 426 412.8 395.6 391.4 387.4 376.8 369.3 361.8 354.6 341.2 326.2 317.4 310.5 302.1 298.8 294.8 284.9 275.6 266.8 258.1 252.2 248.8 244.5 241.5 237.4 237.3 236 235.1 235.3 235 234.3 233.8 232.1 237.3 239.8 241.7 246 251.5 259.5 273.7 287.8 301.4 308.1 305.6 299.9 292.6 284 279.7 285.9 280.7 272.4 273.1 260.5 269.4 274.8 268.4 263.5 276.8 290.4 303.2 316.8 329.8 338.4 344.6 346.8 347.6 348.2
569.3 561.1 555.2 551.2 549.2 539.1 528 523.6 516.6 514.5 503.4 499.9 492.3 480.5 467.1 469.1 473.9 474.9 477.8 483.3 487.3 492.7 496.9 497.9 500.7 502.2 502.8 499.6 494.4 490.4 487.9 483.9 477.5 475.9 471.4 458.2 447.2 435.5 429.5 423.7 416.3 408.6 401.1 391.6 394.9 395.6 393.8 391.8 388.5 384.3 389.4 395.7 400.2 403.4 412.4 420.7 432.8 443.5 451.7 456.2 458.3 449.6 446.7 439.3 435.3 435.9 441.1 444.5 453.5 461.8 462.9 460 459.4 460.3 465 468.3 470.1 469.4 466 446.3 452.4 467.1 488.9 492.2 497.2 497.7 494.9 490.8 486.6 485.4 484.3 486.9 487.8 490.3 494.9 496.2 496.8 494.7 494.9 494.6 492.9 488.2 482.4 477 472.7 469.1 463.3 457.3 451.3 445.2 438.4 433.1 428.5 422.5 424.9 424.5 422 428.7 440.2 448.4 452.2 455.7 459 460.2 460.2 460.3 460.6 459.2 456.9 453.4 448.3 441.4 433.6 421.6 408.4 393.7 384.1 380.1 371.2 364.1 359.8 354.3 344.5 331.7 325.6 322.5 319.6 316.9 311.8 301.9 297.4 287 276.6 270.2 263.2 256.5 251.1 248.5 247 247.6 250.1 244.3 244.3 239.9 234.8 233 232.1 233.2 233.5 236.1 236.6 240.6 248.6 259.8 273.6 283.5 285.3 283.1 276.4 268.8 276.2 280.8 272.6 264.9 262.8 254.6 264.5 266.4 255.8 276.8 290.8 305.9 319.9 330 338.6 345.1 348.2 348.1 346.6 345.4
564.9 556 550.1 549 545.1 536.9 530.2 527.3 522.7 520.5 511.8 498.2 494.2 485.1 470.2 459.9 465.7 468.5 470.8 473.7 478.6 485 489.9 497.7 504.5 508.6 510 508.2 506.2 504.3 500.5 495.2 490.6 484.8 478.4 466.7 456.3 442.3 435.4 429.6 424.1 416.9 411.8 400.4 389.9 390.1 388.5 388.3 386.9 384 380.2 387.4 391.7 398.4 403.3 413 426.3 437.3 446.9 450.1 452.5 444.3 440.9 433.3 426.5 433.5 435.7 439.8 444.5 450.4 449.3 447.8 453 458.1 464.4 467.5 469.1 467.8 463.8 445.5 451.1 464.4 481.5 486.1 492.5 491.8 490.8 490.1 484.4 481.6 484.7 487.8 488.7 493.6 495.8 496.7 494.7 493.2 493.5 493.8 491.1 486.1 480.2 475.3 471 467.2 462.4 456.8 450.1 443.6 437.8 433.1 428.4 428.6 428.4 427.9 425.2 431.6 440.6 448.8 451.2 453.9 457.8 458.2 458.4 456.8 455 453.6 449.8 446.3 441.8 436.4 428.6 417.2 404.3 390.4 383.6 372.5 363.9 359.8 356.6 351.4 347.1 341.7 339.8 339.4 337.3 334.6 327.3 321.8 313.5 306.1 297.8 292.6 281.5 273.4 272 268.1 264.8 265.1 264 259.7 257.2 252.2 245.8 238.9 233.7 231.6 230.6 231.2 227.1 227.1 231.5 238.3 247.3 256.1 260.1 260.9 260.1 258.7 269.6 270 263.3 256.5 249.1 248.9 257.2 245.5 274.6 291.7 307.1 319.6 331.1 338.6 344.2 349 349.9 348 344.7 341.8
558.7 550.6 546.5 544.5 538.7 532.1 527.9 526.5 524.5 524.4 516 497.1 495.3 486.8 475.7 458.1 458.1 460.4 464.3 465.3 468.9 476.1 482 494.4 505 511.6 514.6 517.1 514.3 512.7 507.8 503.2 496.7 489.4 483.6 472.8 461 448.1 440.2 435.1 430.6 426.8 417.6 413.8 405.5 394.5 389.4 385.9 382.8 382.9 378.9 380.2 386.6 392.1 395.9 407 418.3 432.2 441.4 444.1 446.4 439.9 435 429.2 422 429.5 432.1 433.5 435.7 436.5 440.6 447.3 455.9 464.4 466.9 468.5 467.3 464.4 460.3 449.3 448.3 459.1 473 481.1 485.6 485.9 483.6 481 477.9 481.3 485.3 487.2 488.6 492.4 492.5 492.5 492.4 490.3 491.3 491.5 489.1 482.8 477 471.8 468.5 465.1 460.2 453.9 447.3 442.7 438.3 436.2 435.5 433.9 432.3 429.3 428.9 434.3 440.1 447.5 450.2 448.5 451.4 453.1 453.1 452.7 450.7 444.8 441.1 437.7 433 429.3 423.6 411.1 397.9 390 384.7 377.2 370.7 365.9 362.7 358.6 356.1 355.2 356 354.6 352.2 347.1 341.3 335.9 329.2 322.9 316 310.2 299.7 290.4 286.6 279.6 280.6 278.9 276.7 274.4 271.2 265.8 257.9 253.4 246.2 242.7 239.9 237.1 236.6 232 227.5 224.3 227 234.2 240.1 242.2 241.8 253.6 257.7 257 251.4 246.8 239.8 245.7 244 271 290.2 306.3 319.3 332 339.5 344.4 349.1 350.4 349.2 346.5 342.1 338.5
553.4 546.9 541 538.1 532.8 525.3 521.7 522.8 522.4 522.4 513 500.5 493.7 486.6 479 465.5 448.3 449.4 452.9 459.1 463.7 467.4 475.2 489.7 499 508.3 515.1 514.2 517.7 516.3 510.8 504.5 498 491.5 484.1 475 464.1 457.1 449.6 443.5 436.2 430.8 424.5 419.6 417.3 403.1 403.6 401 391.4 382.4 377.6 376 377.7 382.5 390 400.9 411.2 426.1 433.1 438.5 439.6 434.9 428.1 420.3 420.1 423 424.3 430.7 434.6 443.3 450.7 457 464.9 469.2 469 467.5 465 461.3 456.3 446.5 442.1 449.8 460.2 473.5 477.5 479 474.6 471.3 467.7 476.9 483.4 485.9 487.9 492.3 491.7 490.8 490 488 488.5 487.6 484.2 477.5 471.1 466.2 463.9 462 456.2 451 446.4 443 440.2 439.7 440.2 439.3 437.3 432.9 432.9 435 436.5 443.7 444.5 440.4 439.8 440.3 442.2 442.4 439.6 434 431.4 426.3 421.8 418.2 414.6 405.6 397.3 389.5 386.9 382.1 378.8 376.4 373.8 371 368.6 365.9 365.4 364.3 361 355.7 351.3 345.1 339.3 332.5 326.5 318.4 310.4 303.4 294 291.3 293.4 291.9 289.8 287.7 284.8 279 271.6 267.3 261.2 256.6 253.9 249.3 243.6 237.5 233 229.1 229.3 226.1 221.6 229.8 240.5 242.5 243.1 241.5 241.8 239.4 229.7 247.9 267.1 286.1 302.9 317.4 329.8 342.7 346.1 348.4 348.7 349.4 347.4 343.8 339.1 334.2
547.2 539.5 536.3 532.9 528 518.1 514.2 515.4 517.2 513.6 505.7 495.1 491.8 486.3 480 470.1 456.8 439.2 443.7 450.1 457.2 461.9 468.6 483.2 488.5 502.2 507.5 508.2 516.6 515 508 502.6 497.1 493.2 486.4 477.7 470.4 462.6 455.3 449.1 441.3 434.1 427.5 424.3 424.7 410.9 413.3 413.5 404.9 394.4 385.3 377.9 374.4 377.6 386.5 394.9 405 419.4 426.1 433.3 431.9 426.8 419.5 414.4 420.8 426.8 434.9 441.9 449.2 452.7 458.1 464.9 470.9 472 470 468.1 464.2 457.2 445.5 438.5 435.2 436.3 452.8 466.5 470.7 470.5 466.6 460.2 458.9 476.8 484.5 490.1 489.2 489.4 490 492.9 487.9 484.3 484.5 482.6 477.3 470.8 464.1 460.4 460.6 457.3 452.5 448.5 445.3 442.9 442.5 443.4 443.7 443.6 441.8 438.7 437.1 436 435.9 438.6 434.8 430.5 430.3 426.8 426.7 423.8 422.3 420.4 415.8 411.7 408.5 404.9 401.5 396.3 394.5 392.1 390.1 389.1 387.8 385.6 382.3 380 377 371.8 370 368 366.4 363.1 356.4 350.8 345.6 338.5 330.5 322.7 317.7 309.4 307.9 304.2 303.7 301.6 297.4 296.2 294 290.3 284.4 277.9 274.1 267.2 261 252.6 245.9 240.1 235.9 233.4 232.3 231.1 227.4 224.1 226.4 233.2 234.7 232.3 234 229.8 242.4 261.9 280.2 296.9 311.7 326 338.7 347.7 349.2 348.5 346.4 344.9 342.6 338.8 334.9 330
540.3 531.8 531.6 527.9 524.5 512.9 509.6 506.5 506.8 503.4 499 492.6 489.9 483 476.4 468.6 461.7 449.4 434.5 443.7 451.2 456.5 462.5 474.3 478.4 488.4 496.3 501.4 508.7 507.6 501.8 496.7 495.1 494.7 488.9 482.5 476 469.5 463.4 455.7 450.6 446.2 439.1 435.3 428.4 423.3 422.4 420.9 409.6 401.4 390.1 379.8 374.1 372.9 380.7 388.9 399.4 414.1 422.1 427.1 424.7 419.7 413.6 414.8 423.6 433.9 447.8 451.9 453.2 458.2 463.3 469.9 474.2 473.4 471.5 468.4 463.5 454.1 454.3 447.3 443.8 441.9 438.5 458.7 465.6 463.6 458.9 448.2 462.7 477.7 486.5 488.4 489.7 490.2 490.1 488.6 480 478.8 476.8 477.4 470.7 465.2 458.6 454.3 454.3 452.3 448.9 444.7 442.3 441.7 443.3 444.4 447.4 448.3 447 442.5 439.7 437.7 434.3 435.2 431.4 423.3 419.2 413.4 409.2 406.3 409.2 408.8 402.8 398.7 396.7 396.6 395.6 393.8 392.9 394.1 395.8 396.7 397 393.2 388 382.2 378.7 374.7 371.3 366.4 367.2 364.2 357.8 353.4 346.5 340.4 333.5 328.8 324.3 318 316.1 312.9 311.9 307.8 304.5 303.2 302.3 297.7 292.4 284.6 280.6 272.2 262.3 256.6 251.1 244.3 243.2 238.8 236 233.7 230.3 229.9 226.3 220.3 221.1 222.1 222.7 231.9 248 270.8 290.3 304.4 320 331.9 342.4 347.4 347 345.3 342.6 339.9 337.8 334.1 330.3 326.2
534.7 523.8 526.8 523.2 522 508.4 504.6 501.3 496.5 494.9 491.8 487.1 483.4 477.8 473.2 464.6 461.2 449.7 437.1 439.1 446.1 451.5 455.2 461.9 467 475.7 487.9 492.9 497.7 496.2 492.3 489.5 493.2 496.5 492.5 487.9 481.6 475.5 468.1 461.4 459.5 456 450.3 442.7 433 430.1 426.7 420.2 410.7 402 391.8 380.2 376.5 372 377.5 384.9 398.3 411.1 418.4 422.8 420.2 414.5 413.3 420.5 430.6 444.2 453 454.8 459.1 464.1 468.8 474.6 478.5 475.6 474.1 467.5 462.9 467.8 469.3 467.4 455.1 442.1 431.5 449.4 460.7 458.9 449.9 442.6 459.3 473.9 485.4 485.4 489.2 490.2 487.7 484.3 473.8 470.1 468.5 467.1 461.2 454.8 450.8 446.5 447.2 447.4 444.2 439.6 438.2 439 441.5 444.7 449.2 452.2 451.5 446.4 442 438.3 435.4 431.2 428.6 423.5 412.5 403.7 401.3 399.5 401 398.7 395.6 390.6 388.5 387 387.2 386.2 386.6 390.4 395.5 397.8 396 390.6 386.2 381 373.8 371.6 368.1 362.9 363.4 358.6 355.2 352.8 347.1 340.8 335.3 330.6 327.3 325.2 320.8 318.2 316.2 312.5 309.9 306.8 306.8 301.8 295.4 289 283.4 274.7 268.1 265.4 261 256.3 252.5 246.7 240.1 233.9 232.8 237.2 235.9 230.4 228.3 224 218.3 222 242.8 267.8 288.6 306.8 317.9 335.1 343 345.3 343.9 340.7 337.1 333.4 332.2 330.4 327.3 323.3
525.7 515.7 522.2 521.2 515.3 506.4 499.4 495.9 490.7 488 485.2 481.9 476.9 470.9 465.8 458.1 453.7 445.2 433 435.6 441.2 446 448.9 452.4 456.9 465.1 477 481.2 482.4 482.7 482.3 485.4 497.9 498.4 496 490.9 485.8 479.1 474 470 466.3 461.5 455.9 446.7 437.2 430.2 423.8 417.1 408.2 399.2 390.4 379.3 376.2 370.1 377 383.9 395.4 407.3 416.5 420.1 416.9 410.3 417.4 427 438.4 449.9 454.9 458.9 464.3 467.6 471.6 478.7 481.8 481.3 478.9 472.4 476.2 481.2 482.5 476 460.8 446.1 437.8 437.1 453 448.5 442 437.1 451.5 463.5 474.9 486.2 488.8 486.1 482 474.2 465.9 461.5 453 448.6 446.6 444.6 441.3 441.4 438.9 440.6 438 434.6 432.2 434.6 438.2 444.3 450.4 453.9 452 449.5 444.7 440.9 437.1 433.9 429 422.3 413.5 405.2 398.2 394.9 393.9 388.2 383.2 381.8 381.1 377.6 376.5 374.8 375.4 378 385.2 389.1 387.5 383.4 379.6 372.1 369.2 367.4 362.4 357 355.3 353.2 350.6 346.7 345.2 338.3 335.2 331.5 329 326.9 322.5 320.8 318.9 313.9 311.5 307.7 306.5 301.2 295.8 291.2 284.2 276.1 273 271.1 267.1 264.9 258.2 251.1 242.8 235 235 238.3 238 236.3 233 226.4 221.7 219.7 238.2 255.1 275.8 288.5 320.4 335.3 337.9 342.8 339.6 335 331.9 330.9 328.2 327 324.7 322.4
515.5 514 521.5 521.3 514.8 511.8 502.6 495 488.5 481.5 480.4 477.3 469.6 465.9 458.1 451.7 446.8 435.9 430.1 432 436.8 440.6 442.3 444.3 448.2 455.6 463.9 465.2 467.6 470.1 472.9 481.9 497.3 501.4 498.6 494 488.5 484.5 480.3 475.4 470.7 465.9 457.6 446.5 435.4 427.7 418.8 410.9 401.6 395.9 388.2 377.8 369.7 368.6 372.5 378.8 386.3 406.4 415.2 412.8 409.2 414.2 421.9 431.7 444.4 450.8 458.9 462.5 464.5 469.6 476 484.5 487.6 488.9 481.4 482.3 487.1 489.9 487 475.3 462.6 446.1 433.8 432.3 442.2 437.3 433.2 433.2 449.6 467.1 477.9 483.5 480.5 475.9 469.2 458.2 459.6 451.6 437.3 434.1 433.9 434.6 429.6 435.7 431.7 433.9 431.5 427.9 426.4 428 434.5 441.2 447.6 450.8 452 448.9 446.2 444.6 443.8 441.2 439.6 435 427.1 417.5 404.7 406.1 401.9 398.6 393.5 388.8 384.7 381.3 380.4 376.5 370.2 363.6 367.8 376.5 375 370.9 366.2 362.5 360.8 357.1 356.2 352.5 347.9 347.6 345.9 342.3 341.3 335.9 334.3 330.4 331.1 326.6 323.1 319.8 316.7 312.6 306.8 303.4 302 297.2 291.9 287.1 280.7 273.9 271.7 271.7 271.7 268.8 262.3 253.1 243.7 235.8 232.4 232.2 231.7 230.7 229 225 220.9 218.5 234.1 243.5 261.8 289.2 321.4 327.5 330 332.9 326 324 320.3 318.8 325.5 321.6 323 320.3
505.8 509.7 521.8 520.1 515.8 513.3 504.4 500.2 490.9 481.1 471.8 471.5 462.1 457.7 450.6 444.3 437.7 433.6 427.4 427.4 431.3 434.1 435.8 438.6 440.8 444.9 449.8 451.3 454.4 459.8 464.2 483.5 497.4 503.2 501.9 496.8 490.8 486.5 482.5 476.8 471.9 465.6 453.9 442.1 432.9 424.9 413 401.9 396.9 389.4 384.7 375.2 367 369.9 380.6 388.8 400.7 409.2 406.5 415.4 416.6 417.9 421.9 435.4 445.1 451.1 460.7 459.3 461.9 472 483.4 490.2 496.7 490.7 486.5 489 493.1 494.5 486.8 473.9 457.8 439.8 430.6 423.9 430.2 426.8 424.9 432.6 449.5 464.8 471.1 471.6 471.6 462.6 450.8 449 448.4 438.3 425.5 423.7 424.4 426.6 427 429.1 427.8 426 424.3 423.5 421 423.9 428.8 435.2 441.5 443.4 443.4 444.9 447.2 451.1 455.7 453.2 447.9 443.5 435.8 426.5 416.2 412.8 408.8 405.9 399.7 394.4 390 387.9 387.5 385.1 381.1 377.5 370.6 357.5 364 361.2 357.7 355.4 353.7 350.6 349.5 344.6 342 340.7 337.7 337.5 334.5 333.1 330.7 326.7 325.1 320.8 318.2 314.7 309.4 304.4 295.8 292.2 290.4 286.8 284.4 276.5 272.1 268.9 269.5 272 271.1 266.5 261.9 253.6 242.6 233.6 230.1 225.6 225 222.6 222.1 221 219.8 220.5 235.2 242.1 255.6 282.3 307.8 312.7 319.5 318.4 310.9 305.5 301.1 309.3 317.6 320.8 316.9 318.7
499.7 509.6 521.4 520.4 518.1 516.2 509.7 504.6 493.3 480.8 472.9 462.8 455.8 450.1 444.8 437.1 434.5 429.5 424.2 420.9 426.3 428.3 430.9 432.4 435.5 437.2 440.5 443.7 448.9 451.7 462.1 483.4 497.2 504 505.8 496.8 490.4 485.8 482.9 476.4 470.7 461.1 449.1 437.7 426 418.7 407.8 395.8 390.8 385.9 379.6 368.5 367.1 371.9 385.3 394.9 407.6 415.1 417 414.7 414.5 415.3 419.1 434.2 439.9 446.5 451.3 446.8 461.5 475.7 488.5 497.5 496.4 489.5 490.1 493.1 495 493 483 465.4 447.2 444.8 436 427.9 420.5 422 421.3 429.5 442.9 456.1 459.3 456.2 453.2 442.6 435.5 440.8 433.8 423.6 416.1 416.9 417.5 418.5 421.5 421.5 421.1 420 418.8 417.6 416.5 419.4 424 427.8 431.4 431.4 434.3 438.8 445.4 452.5 455.6 457.1 451.1 445.6 439.9 431.7 425.6 422.3 418.9 414.4 406.9 399.1 393.7 390.2 388.9 384.6 379.6 375.4 371.3 365.4 349.2 351.7 349 347.9 346.7 343.6 340.4 336.1 332.2 332.4 333 330.2 328.4 326.4 322.8 319.4 316.6 312.8 308.7 302.6 293.7 284.9 277.3 275.6 272.9 270.2 265.3 260.4 259.1 259.8 262 266.8 263.6 263.8 256.7 245.6 234.7 229.9 225.4 223.5 221.9 221.1 218.4 217.5 217.9 217.4 228.7 234.6 246.3 269.8 285.6 300.5 300.7 297.6 289.9 286.4 285.8 301 308.2 311.3 312.5 310.5
496.6 509 519.6 521.4 520.4 519.5 515.5 508.4 498.7 484.2 475.6 469.1 457.3 442.3 439.3 433.1 430.3 426.5 423.1 418.3 422.2 423.9 425.4 426.9 428.8 431.3 434.4 438.5 441.4 447.8 460 483.8 495.1 501.8 502 493.4 486.9 484.3 478.9 472.8 465.6 453.7 440.9 428.3 418.2 409.5 401 391.5 384.8 380.3 373.8 365.9 368.7 377.9 384.7 406.1 416.8 422 418.9 413.7 410.9 412 416.3 423.5 429 432.9 432.2 442.1 459.6 478.4 489.8 499.2 494.5 493 492.4 497.3 496.6 490.4 479.6 465.8 465.4 462.8 444.5 436.2 424.2 419.8 418.3 420.1 429.8 437.7 439.3 440 433.4 424.7 427.8 422 419.2 409.5 410 409.7 409.5 409 413.2 413.3 413.6 414 413.5 412.9 412.4 415.1 417.2 419.8 420.1 421.3 425.5 431.7 440.3 449.4 454.1 456.4 453.1 448.2 443.7 439.3 435.6 432.5 427.5 422.3 412.6 403 395.7 388 381.9 377.1 372.3 368.3 364.2 360.1 353.1 342.6 340.9 339.6 337.4 334.4 330.6 328.5 321.7 323.4 324.2 320.6 319.2 316.5 312.4 308.2 303.8 298.1 292.6 280.5 258.8 256.9 254.9 253.8 250.3 245.7 245.8 245.9 244.4 244.7 246 248 246.7 243.8 238.9 232.7 228.1 225.7 222.1 224.7 225.4 224.1 222.9 221.8 219.2 216.5 218.5 225.8 235.4 251.5 268 281.2 278 273.2 269.1 270.2 277.6 282.4 285 288.3 288.3 292.3
491.9 506.3 516.1 521.4 522.6 524.1 519.4 513.6 504.8 493.6 481.9 470.3 459.9 447.3 439.6 430.7 427.1 420.7 419.6 416.7 418 419.5 420.4 421.9 423.7 427.4 429.1 433.4 437.7 444.7 463.1 482.8 488.9 494.7 496.3 487.4 483.2 480 474.5 466.6 456.8 444.7 432.7 422.8 412.6 402.7 395.1 386.3 381.4 374.6 368.3 366.1 373.8 390.2 404.5 418.2 427.2 429.5 425.2 413.7 408.7 408.1 410.3 412.2 413.9 415.3 416.2 431.1 452.5 476 488.7 497.1 497.8 497 496.5 498.5 497.2 491.9 484.8 483 481.5 474.1 464.6 449.7 433.7 420 413.4 413 415.2 421.7 423.4 421.3 416.4 414.6 415.4 411.3 406.9 403.7 402.4 402 402.7 401.2 406.7 406.5 407.4 408.3 407.9 407.4 406 411.3 411.7 411.8 414.2 414 418.1 427.5 436.7 445.9 451.1 454.9 455.3 451.8 448.5 447.8 445 438 432.4 426.9 416.6 405.5 394.6 383.7 375.7 370 363.9 359.7 356 351.9 346.2 339.5 331.4 331.8 327.9 325.8 323.2 319.7 316.5 313.5 308 303.2 301 300 296.8 298.6 298.8 298.6 299 296.3 291.9 284.7 275.6 267.5 259.1 251.8 246.1 239.3 236.2 237.7 236.4 233.3 231.4 230.1 229.5 230.1 229 227.3 227.3 228.6 226.5 225.3 224.2 222.6 220.6 217.6 214.1 217 225.3 233.3 243.9 257.8 255.9 250.1 249.6 248.3 251.9 252.7 256.8 259.9 264.5 270.5
486 499.2 513.4 520.3 525.1 527.3 524.9 518.3 508.9 493.3 483 473.2 461.9 450.3 443.1 437.5 431.3 423.5 419 415.7 414.2 414.8 415.8 416.7 419.4 422.5 425.4 429.1 433.7 443.9 464.4 473.4 477.2 481.5 485.4 479.8 477.8 473.8 467.8 459.1 448.9 439.5 429.1 417.5 410 399.6 390.2 381.8 376.3 368.2 365.2 368.4 384.9 397.5 417.1 430.9 436 436.8 431.4 413.4 407.3 404.8 406 406.6 403.8 412.1 424.8 436.2 446.4 472.4 489.4 499.8 501.1 499.5 498.7 501.1 501 497.8 496.2 494.1 489.7 484.2 468.6 459.6 445.1 435.5 422.8 412.5 407.4 408.5 409 408 405.7 405 403.5 400.7 397.7 397.2 396 393.5 395.3 395.4 398.9 400.3 400.8 401.8 401.9 401.5 401 404.9 405.3 405.5 409.1 406.2 413.9 424 433.7 442.3 446 452 456.1 455.7 453.5 453.6 449.2 441.6 436.3 430.9 420.3 406.1 391 378.9 370.7 364.7 358.8 352.6 346.3 341.4 340 338.2 334.7 329.3 324 319.6 317.5 314 313.2 316.1 318.4 317.5 314.4 312.2 311.1 309.5 307.4 306.1 305.9 300.6 293.3 285.6 275.2 264 255.2 246.1 240.8 243.1 245 243.2 242.9 242.3 240.8 239.8 238.6 235.5 234.9 231.5 230.7 229.3 228.4 226.5 225 224.1 223.1 218.8 215.7 213.5 216.1 220 223.7 234.2 230.2 231.9 231.1 230.9 232 233.3 236.6 239.8 246 245.4
478.3 492.3 506.5 517.1 526.1 530.7 532.4 524.2 514.1 504.6 493.3 477.4 464.6 455.9 448.6 441.4 432.4 426.5 420.3 417 413.2 411.5 412 413.5 416.2 418.8 421.8 424.5 426.5 436.9 456.7 458 462.2 465.8 473.4 470.6 468.5 466.6 459.5 452.3 445.7 436.2 425.7 415.6 405.5 396.3 388.4 381.4 372 365 363.3 378.3 397.4 416.6 429.6 440.3 444.1 443.6 436.1 423.8 407.6 401.8 400.8 398.5 408.3 422.7 434 448.9 466 480.8 494.4 502.2 502.4 500.3 501.7 505.4 506.7 504.9 502.4 499.6 495.5 487.1 477.5 464.5 453.4 443.3 433.5 421.7 414.2 409.5 402.2 401.1 400.5 397.3 398.6 400.5 397.3 393.6 392.7 393 390 388.9 389.7 390.5 392.7 394.3 395.9 396.3 396.5 399.1 399.8 400.4 400.1 404.1 411.4 420.9 429.2 435.2 440.3 449.5 455.6 457.2 456.5 457 454.1 445.3 439.8 433.2 421.7 405.6 390.3 378.3 368.9 361.9 354.6 353.8 353.9 353.2 349.7 341.7 335.7 329.1 325.2 321.8 320.7 320.3 320.7 320.5 318.5 318.4 316.4 314.5 310.3 309.1 306.8 303.4 302.6 294.1 284.9 275.8 263.5 250.6 244.8 248.3 255.4 259.1 258.3 259.8 257.8 257.7 254.7 254 248.7 243 238.8 234.4 234.1 232.6 230.2 228.3 227.3 226.1 224 220.9 216.2 215.1 212.3 214 215.4 215.4 217 217.5 219.4 221.4 221.7 221 222 226.1 226.8 229.3
473.6 487.3 503.9 519.9 529.3 535.3 539.4 531.2 521.4 509.6 491.5 485.8 478.9 467.8 457.2 450.2 443.7 435 424.8 418.1 413.3 409.7 410.5 411 413.5 415 419 419 419.5 422.7 434.5 438.2 444.3 450.1 454 459.6 460 455.9 452.5 448.3 443.1 435.8 422.5 412.8 402.6 394.5 387.2 375.8 368.3 364.4 365.1 385.5 405.8 425.3 437.3 448.4 451.4 447.9 441 425.3 414.5 403.1 393.4 394.3 409.3 425.7 439.9 458.7 474 482 492.4 497.6 500.3 500.9 504.9 510.5 512.4 509.8 505.5 502.3 497.2 490.2 478.9 467.1 450.7 440.9 429 419.4 414.1 410.1 407.5 405.9 406.1 410.3 416.7 417.8 417.4 407.7 403.9 398.3 397.2 393.6 390.7 386.2 385.9 387 389 391.1 392.6 393.5 394.2 394.5 396.9 399.3 405.3 415.6 422.5 427.4 436 447.2 453.2 457.2 457.2 459.1 458.1 450.7 442.6 433.6 422.5 406.3 392 380.3 371.6 363.2 365.5 364.8 362.5 357.8 348.7 342.3 336.1 329.5 326.3 325.4 323.7 322.7 322.6 320.5 318.8 315.1 315.3 312 306.3 303.4 299.4 292.8 290.7 275.4 268.1 255.6 256.5 262.4 267.7 271.6 277.7 285.5 280.6 280.8 276.6 272.3 265.9 259.9 253.4 244.7 235.5 239.4 240.5 238.5 236.3 233.4 231.2 227.5 223.8 221.7 220.8 216.7 214.7 213.3 213.8 214.5 214.7 213.9 213.4 214.3 212.8 213.6 215.1 214.8 217.1 219.1
470.8 485.5 504.7 524 536.9 540.7 538.4 537.2 525.5 517.9 508.4 498.3 489.9 481 467.6 461.3 451.5 441.7 427.7 418.9 414.6 410.2 408 408.7 410 410.2 410.8 411.7 412.7 413.6 416.5 420.2 428.3 433.7 444.8 449.6 447.9 446.9 446.3 443.6 441.1 434.9 422.4 409.9 399.2 389.5 380 373 368.1 363.3 370.6 388.7 411.1 430.8 443.4 452.5 456.3 452.3 444.8 438.6 424.4 406.1 394.3 393.4 404.3 421.4 442.3 461.6 469.8 475.4 479.8 484.6 494.5 498.6 506 513.5 516.2 511.3 507.2 503.2 497.5 491.7 481.8 470.7 460.1 453 448.5 435 425.8 421.5 419.9 421.8 424.6 430.4 435.8 439 438 427.1 413.3 405.1 399.3 396.1 395 392.8 388.3 386 384.1 385.8 386.1 387.4 388.1 389.3 391.6 392.5 397.6 405.3 413.1 421.4 432.6 443.7 451.4 457.8 459.2 460.7 460 453.1 443.5 433 420.1 404.8 392.7 384 374.1 376.1 374 370.8 364.9 356.4 347.8 341.7 336.1 330.3 329.2 330.2 330 328.3 325.7 323.9 320.6 314.8 309.8 306.9 300.8 297.8 292.8 276.9 271 273.5 265.1 272.7 282.1 290.4 294.3 298.2 302.9 298.8 294.9 289.7 282.2 276.5 268.1 259.7 251.6 238.6 248.8 249.5 248.2 247.5 246.1 240.2 234.3 230.6 231.4 228.4 223.5 219.1 221.2 215.2 212.9 212.8 213 212.6 212 210.8 210.4 209.9 208.9 209.7 210.9 210.5
469.1 486.6 506.4 528.4 537.2 538.7 537.8 539.3 531.6 524.1 514.5 504 497.6 486.4 476.6 465.5 452.9 442.9 429.5 422.1 417.4 411.8 410.9 407.7 407.8 407.6 407.8 403 403.9 405.7 407.6 406.9 409.8 414.9 427.5 434.3 437.1 438 439.9 437.7 437.6 433.3 424.7 413.6 405 394.1 382.9 375.7 369.8 362.2 368.7 389.6 409.1 430.6 444.2 454.5 460.2 454.8 451.8 445.9 431.7 413.9 392.7 386.4 398 412.9 435.3 455.5 460.1 462 462.2 464 476.7 494.5 506.7 516.6 516.4 513.2 511.6 505.3 501.7 495.4 484.3 479.7 477 471.6 468 463 449.8 447.8 436.9 442.8 450.8 451.2 457.7 458.3 451.8 440.4 428.4 418.3 410.2 400.4 398 396.6 394.3 391.2 387.5 384.2 380.9 378.2 378.7 380 383.1 386.5 390.3 396.2 401.4 412.6 428.4 440.5 450.4 456.9 460.1 462.4 460.5 451.6 440.8 429.6 414.6 401.7 393.3 384.5 383.8 381.6 377.6 372.1 364.1 354.3 345.4 339.3 336.6 336.2 335.6 338 338.6 336.1 330.2 327.2 321 315.3 309 301.7 295.3 291.4 284 288.6 290.4 285.2 293.7 301.2 316.5 319.9 318.2 315.7 311.5 307.4 300 293.9 286 275.2 262.1 253.9 246.3 259.1 263.4 264.7 263.3 260.4 257.1 248.5 241.2 241.6 240 233.5 226.7 224.8 223.4 219.4 215.1 211.5 212 210.8 209.8 212.4 211.7 211.1 210.4 210.4 209.2 206.4
471.6 491.2 516.5 529.3 537.3 538.8 538.5 540.4 535.5 527.3 518.9 511 500.8 490 478.6 462.8 452.6 442.8 430.1 424.2 420.4 416.4 411.9 410.7 408.6 409.3 412.6 409.6 401.9 397.2 398.3 395.4 398.2 405 413.2 420.7 423.7 427.5 429.8 430.3 431.4 431.3 426.8 417.7 409.6 400.9 393.6 383 372.8 360.9 367.2 386.1 406.7 428.8 442.8 454.9 459.7 456.7 455.6 449.3 431 413.6 393.4 382.1 392.4 403.8 424.5 443.3 448.2 445.1 441.6 440.8 462 486.9 506.3 517.2 517.4 516.1 515.6 511.7 506.2 501.3 494.8 494.7 491.8 486.4 484.6 483.4 476.9 474 462.2 469 473.7 470.9 474.4 470.7 465.2 460 444 432.9 424.1 410.4 407.8 405.9 401.2 397.8 393.9 392.6 389.4 387.2 379.9 375.6 375.1 375.5 380.7 387 392.1 406.6 423 437 448 455.4 461.3 463 457.8 447.7 438.7 426.4 410.6 401.6 393.5 394.6 392 387.8 380.7 372.6 364 351.6 348.2 343.6 341.1 340.5 344.6 347.5 350.5 344.1 338.3 330 322 315 308.6 294.5 290.6 287.1 296.7 294.9 302.5 308.4 316.2 326.2 332.2 329.6 326.1 320.5 315.6 310.2 302.5 292.4 284.4 273.7 267.1 264.2 252 272.3 276.2 278.2 277.8 271 267 261.8 258.2 255.6 253.6 244.9 234.2 233.5 228.4 230 225.4 225.6 223.8 223 218.6 221.4 219.2 215.4 212.8 211.9 212.4 212
