ncols 200
nrows 82
xllcorner 410000
yllcorner 390300
cellsize 50
563.9 562 561.3 560.8 557.5 549.2 543 539.4 538.5 538.9 539 537.9 536.8 535.1 535.8 533.5 532.3 531.1 528.9 525.5 521.3 517.2 511.2 498.4 479.7 462.8 467 487.3 499.1 508.6 515.3 521.4 524.7 526.1 527.3 527.1 526.5 525.1 524.8 523.2 521.3 518.1 514.9 512.8 511.7 509.9 507.4 505 501.8 498.6 495.6 492 488.4 483.5 478.8 472.8 465.4 455.8 451 440.1 429.8 414.7 408.8 423.4 442.3 452.9 458.6 461.1 462.5 463.3 464.2 464.8 465 464.3 461.8 458 449.9 434.9 397.4 370.9 351 336.1 318.6 329.7 340.4 353.5 366.9 377 394.4 410.2 427.4 447.6 463 470.8 477 477.2 476.3 475.2 474.3 474.2 473.8 474.4 474.6 474.8 473.9 473.5 473.1 472.6 470.8 469.5 467.7 465 462 458.5 455.2 451.4 447.3 442.3 436.1 428.5 411.9 390.2 370.5 352.4 333.1 333.1 345.5 355.4 366.1 374.1 381 386.7 384.7 366.3 342.1 328.1 324.2 304.3 296 286.2 275.7 264.1 262.4 278.3 292.5 314.4 340.3 371 404.6 423.8 428.4 431.8 440.7 440.5 436.1 433 430.7 428.7 426 420.8 416.9 413.9 412.5 414.3 416.8 421.3 425.8 430.3 436.4 443.6 453.7 466.3 479.5 495.4 518.5 547.6 548.3 545.9 543.4 539.6 535.2 532 530.7 529.2 527.5 525.9 524.7 523.1 521.6 519.7 517.8 516.8 515.3 513.7 515.2 515.6 515.5 515.3 514.7 513.8
564.5 564 562.2 559.8 553.6 545.5 540.3 538.3 538 537.6 538.3 539.3 538.8 537.8 537.8 536.8 535.6 534.4 533 529.3 524.4 519.8 515.5 507.7 500 486.9 460.5 478.1 493.7 505.7 513.7 518 520.5 523.2 523.6 523.1 522.3 520.6 519.5 518.4 517.3 514.8 512.8 511 509.7 507.6 505.3 502.9 500 496.9 494 490.8 487.5 484 479.7 475 463.4 444.2 441.1 426.2 430.5 430.9 440.4 451.9 459 464.3 467 468.4 469.7 469.9 470.1 469.3 468.7 467.4 464.7 460.4 453.2 437.9 402.6 377.1 357.2 338.7 326.8 315.5 330.4 343.7 353 365.9 384.2 402.7 418.9 438.4 453.2 463.9 470.9 472.4 472.3 472.2 471.4 472.1 470.7 473 473.4 474 474.2 473.9 473.5 472.9 472.2 470.1 467.8 466.6 463 459.6 456 452.2 448.3 444.2 439.5 433.7 426.5 415.5 396.9 374.7 349 327.6 323.1 332.6 342.4 351.2 359.1 363.6 371 362.8 333.6 327.9 318.2 300.7 294 285.1 275.1 265.4 262.4 278.7 296 317.7 343.9 377.5 411 422 426.2 429.2 432.1 442.7 443.6 441 438 436 432.4 426.9 421.4 417.2 414.8 416.4 419.5 423.2 427 432.3 438.6 445.2 455.9 467.9 481.5 498.6 524.5 548 547.2 544.9 541.7 537.4 534.4 531.9 530.5 528.6 526.9 525.1 524.2 523 521.4 519.6 517.7 516.1 514.2 512.7 509.2 512.7 513 513.2 513 513
564.1 562.9 560.4 555.7 549 541 538 535.9 536.2 537.1 537.6 539.5 539.7 539.9 538.7 537.6 536.1 535.3 535.2 531.9 527.4 522.2 518.6 513.9 510.8 492.5 466.2 459.6 474.8 494.2 507.3 511.4 515.2 518 518.4 518.4 518 515.5 514.3 513.6 513 511.5 509.8 508.7 507.7 505.8 503.4 501.1 498.6 495.8 492.9 490.1 487.7 483.7 477.7 465.6 455.8 463 464.8 456.1 457.4 460.2 463.7 466.4 468.3 469.5 471 472.1 473.1 473.1 473.4 472.3 470.7 468.7 464.9 460.5 454 442.4 410 382.4 362.7 342.7 327.6 315.4 324.6 333.3 341.4 353.3 371.5 390.5 408.8 427.8 443 455.2 462.5 466.4 468.7 469.1 468.3 468.3 470.3 471.9 472.6 473.4 474 474.2 473.5 472.8 472 470.8 469.1 466.3 464.2 460.8 457.1 453.4 449.6 445.8 441.6 436.3 430.3 422.1 410.4 392.6 366.2 342.9 325.8 313.4 319.8 328.3 336.1 342 347.9 352.5 340 325.4 309.6 299 290.2 281.2 272.5 262.4 262.4 280.9 299 323 349.9 380.1 411.9 420.3 424.5 426.5 427.7 431.2 440.7 444.1 444.1 441.5 435.2 429.6 424.2 419 415.4 415.7 418.7 422.3 426.3 430.8 439.2 446.7 456.7 468 481.9 499.7 525.4 544.4 544.9 543.3 540.3 536.7 533.7 532 530.1 528.4 526.1 524.8 523.1 520.5 520.4 518.6 516.6 514.6 512.7 510.3 509.6 509.9 510.5 510.9 511.6 511.8
562.2 560.5 557 549.9 542.4 537.5 535.7 534.5 534.7 537 538.3 538.9 539.1 538.8 538 536.4 535.4 534 534.3 533 528.9 523.7 518.9 519 515.7 504.7 488.7 470.2 453.3 470.6 491.5 501.7 507.7 511.4 511.9 511.6 511 510.3 510.5 510.3 510.3 509.5 507.8 506.8 505.8 504.2 501.9 500.2 498.1 495.2 492.5 488.4 485 480.6 468.3 473.4 476.4 475.6 472.3 469.7 469 470.1 471.5 471.7 471.8 472.4 472.7 473.3 473.6 474.2 473.7 472.4 471.5 468.8 464.3 459 454.8 446.4 424.8 392.8 371.3 352.2 333.2 316.1 319 323.8 330.1 342.1 358.6 376.7 395.2 416.6 434.9 446 454.1 459 463.4 463.9 462.5 464.1 468.6 470.5 471.6 472.3 472.4 472.5 472 471.5 470.9 469.7 468.7 466.4 464.2 460.3 458 454.6 450.1 447 443 438.3 432.4 427 419.1 404.7 386.3 363.6 342.1 323.3 308.6 306.5 313.9 319.8 325.9 331.2 327.9 312.1 301.2 290 282.4 276.3 268.6 262.4 262.7 283.7 302.9 327.2 354.8 384.2 410.6 418 422.3 424.1 424.3 426 430.1 439 442.1 441.1 437 431.2 424.3 417.6 413.4 412.2 415.4 418.8 422.2 428.4 438.7 445.5 456.7 467.6 482.1 501.7 529.3 541.3 542.5 541.9 539.6 536.9 533.6 531.7 529.9 528.7 527.5 525.4 523.7 521 518.7 516.6 515.4 512.7 510.4 509.1 507.7 507.4 508.5 508.7 509.8 510
559.2 556.3 550.2 541.4 536.4 534.6 533 529.6 534.2 535.4 536.4 536.2 536.3 536.8 535.9 534.7 534.1 533.1 532.5 531.4 528.2 524.2 522.7 524.4 524.3 523.4 510.7 490.3 464.9 453.9 479.5 488.9 497.9 502.3 503.4 504.6 505 505.5 507.1 507.8 507.6 507 505.9 504.9 503.8 502.6 500.9 499.3 497.5 494.9 491.8 487.6 482.6 483.2 482.9 482.9 481.6 479.3 476.2 474.7 474.4 474.2 474 473.8 473.7 473.7 473.5 473.4 473.4 472.9 472.1 471 469.6 467.3 463.6 457.5 453.3 447.5 437.7 411.4 382 361.9 341.5 322.3 311.9 312.6 318.2 331.1 346.6 364.9 384.8 405.4 425.6 438.7 445.7 450.6 453.7 453.1 453.9 465 468 468.9 469.7 470.1 470.3 469.9 469.2 468.8 468 466.9 465.3 464.1 463.1 461.5 458.3 453.6 450 447.4 444.4 439.4 435.4 429.8 422.8 415 403.1 385.9 364.3 343.5 325.8 312.5 295.8 298.7 305.1 309.9 305.8 300.2 292.5 283.2 277 270.1 264 262.4 272.7 287.8 308.1 334.2 361 389.9 409.3 416 420.5 421.7 421.5 421 423.8 428.7 436.3 437.9 435.6 430.1 422.5 415.3 409.5 407.2 409.4 411.5 418.1 425.5 436 444.1 455.1 466 481.8 502.7 530.5 538.4 540.3 540.9 539.3 537 533.9 531.8 530.8 529.5 528.2 526.1 524 521.6 518.8 516.3 514.5 513.2 511.8 509.3 507 504.8 505.8 507.6 507.5 507.7
554.1 549 540.7 534.8 532.1 531.5 529.7 530.9 532.7 533.9 534.2 533.8 533.9 534.1 533.4 532.1 531.9 530.9 529.8 529.2 527 525.6 525.9 528.1 528 527.5 523.9 507.8 476.6 449.6 472.4 476.4 485 494.2 498.3 500.1 500.9 502.4 504.4 505.1 504.9 504.2 503.5 503.1 502.3 501.3 499.7 498.5 497.1 495.6 493 491.5 489.7 489 488.1 486.2 484.5 482.4 479.9 478.1 476.5 475.1 474.7 474.1 473.6 473 472.4 471.6 470.9 470.4 469.7 468.4 466.5 464.3 460.9 454.8 449.1 445.2 439 426.7 396.4 373 352.9 333.4 319 311 309.2 318 335.3 353.4 374.3 394.8 417.2 429.2 437.2 442.4 442 443 457.2 464.9 467.4 467.8 468 469.2 468.4 467.8 466.5 464.9 463.8 462.5 461.8 461 460.5 459.9 457.9 454.9 451.1 447.8 445.2 441.4 437.6 431.5 425.6 418.8 411 400 384.4 368.2 349.1 329.9 313.5 298.6 282.4 289.2 290 287.3 281.4 276.7 272.3 265.4 262.4 262.4 278.9 294.6 314.3 340.1 366.5 395.3 407.9 414.2 418.5 419 418.2 417.3 418.1 421.5 427.4 432.8 432.6 426.5 418 411 404.9 402.9 403.5 407.9 415.4 421.8 431.4 439.8 451.4 461.7 479.2 501.5 527.7 536 538.9 539.8 539.3 537.9 534.9 532.8 531.4 530.1 528.5 526.3 524.2 522 520.2 518.8 517.4 515.4 513 511.1 509.3 506.3 503.3 502.8 504.8 504.8
547 539.9 534 530.7 529.4 527.7 526.7 529.2 531.1 531.9 531.7 531.4 531.5 531.6 531.1 529.8 529 527.4 526.7 527.3 527 527 527.2 529.4 530.8 529.5 526.8 517.4 485.1 452.9 448.9 457.1 467.5 478.3 487.8 493.2 496.2 500.1 501.3 502 502 501.4 500.5 500.3 500.6 500.7 499.2 498.6 497.7 496.5 494.8 493.1 492.3 491.6 490.1 488.7 486.7 484.5 481.6 478.7 475.9 474.4 473.1 472.1 471.1 470.2 469.9 469.1 468.5 467.6 466.2 464.6 461.7 458.5 455.6 448.8 445.2 441.2 437.2 431.8 414.6 385.6 365.3 346.2 329.4 323.1 311.8 306.5 318.2 340.6 361.2 383.2 405.8 421.9 427.7 425 424.6 444.4 454.8 463.9 466.4 467.5 467.7 467.9 467.4 465.3 463.2 461.4 459.4 458.3 457.3 456.7 456.5 456.3 455.4 453.3 450.5 447.9 445.2 443.1 438.8 433.5 427 421 414.4 406.7 397.2 383.2 371 352.9 334.4 312.6 298.1 283.1 275.7 275.9 274.7 272.8 268.9 262.9 262.4 265.3 285.6 303.4 322.8 345.8 372.3 397.6 405.7 411.7 416 415.4 414.7 413.8 413.7 415.8 419.4 426.3 427.8 421.8 414.4 405.8 401.5 397.1 398 404.4 410.4 417.5 425.6 433.5 445.8 458 475.6 499.1 524.6 532.8 536.8 538.8 539.2 538.4 536.4 534.8 533.2 531.6 529.4 527.3 525.1 523.5 521.8 520.5 518.9 516.6 514.3 512.7 510 507 504.3 501.6 501.9 501.9
538.4 532 528.6 527.3 526.2 523.4 522 523.6 526.3 528.3 529.3 528.9 528.8 529 528 526.9 526.1 525.8 526.7 525.7 527.2 527.5 529 529.8 531.9 531.8 528.3 522.1 499 474.4 454.9 447.8 448 458.5 470.7 479.6 490.3 496.3 498.5 498.9 498.3 497.9 497.7 497.9 498.3 499.6 499.2 498.9 498.1 497.1 496.1 495.1 494 492.8 491.4 489.9 487.7 485.1 481.4 477.7 474.3 471.4 470.4 469.4 468.4 467.5 466.6 465.3 464.6 463.5 461.7 458.9 455.2 450.7 444.9 441.1 438.1 434.5 432.1 429.7 421.9 401.4 378.6 359.9 337.6 329.1 319.8 305.1 310.5 325.8 348.6 375.3 397 413.5 407.1 396 426.5 442.2 451.3 461.1 465 466.4 466.8 466.8 465.4 463.3 460.6 456.8 453.8 452.9 452.1 451.5 451.4 451.5 450.6 449.9 447.2 445.6 444.2 441.6 438 433.4 428.1 422.3 415.8 409.1 401.2 392.3 379.9 365 343.2 319.1 304.7 292.4 280.7 267.1 268.7 269.4 266.6 262.4 262.4 275.2 294.8 317.7 341.8 363.5 386 398.8 404.6 410.6 413 412.4 411 409.9 409.1 410.9 414 420.7 423.2 417.6 409.3 401.2 396.6 391.1 393.9 397.3 402.5 407.2 418.9 428.3 439.7 452.7 472.8 496 520.2 529.4 534.6 538.6 539.5 539 537.8 536.5 535.4 534.2 533.2 530.4 527.8 525.6 523.6 521.9 520.1 518.1 515.8 513.5 511.1 508.6 505.9 502.9 499.6 497.7
531.5 526.1 524.9 524.3 523.3 520.3 517.7 520.1 522.6 525.3 526.7 526.3 526 526.1 525.4 524.8 524.3 523.7 524 524.8 525.8 526.4 528.2 530.3 532.7 532.6 529.3 524.7 516.5 501.2 475.3 454.8 433.5 435.2 446 461.2 483.4 491 494.9 495.3 495.1 495.1 495.3 495.7 497.2 498.1 498.8 499.1 498.5 497.6 496.7 495.9 494.9 493.8 492 489.9 487.5 484 479.4 475.3 472.1 469.3 467.4 466.1 464.8 463.3 461.6 460.9 460 458.1 455.1 449.8 444.7 436.8 429.9 424.5 421.8 422.8 424.7 424.6 421.5 413.5 393.8 372.8 349.4 332.4 324 314.5 304.7 311.3 333.7 360.1 386.6 393.6 378.9 394.9 423.1 438.8 449.7 457.4 462.5 464.7 465.7 465.2 463.1 462 459.3 454.9 449.1 445.8 445.9 445.5 446.1 446.3 445.8 445.5 444 443 441.2 438.2 435.8 431.4 426.8 421.9 416.2 409.5 402.2 393.3 382 365.4 341.2 318.3 304.9 293.2 281.1 272.7 262.4 262.4 262.4 262.4 266.7 287.8 306 332.4 359.2 384.6 395.9 401 405.2 411.5 410.7 409.5 407.6 405.6 404.7 406.3 409.5 415.9 418.3 412.1 403 395.8 391.6 384 387.4 390.5 394.2 404.6 414 423.5 432.9 446.3 466.5 493.5 516.7 527.4 533.6 537.9 539.6 539.2 539.5 539.3 540.1 538.5 536.7 534.4 532.2 529.3 526.5 523.4 521.4 518.8 516.3 514.6 512.4 509.6 506.9 504.9 502.3 500.5
525.9 523.4 522.5 521.6 520.3 516.9 513.9 517.3 519.7 521.8 523.1 523 523.2 523.1 522.5 521.9 521.8 521.3 521.6 522.8 524.3 525.8 529.3 531.8 533.8 533.1 529.8 525.8 519.4 513.4 501.9 476.7 460.7 442.3 422.9 445.3 469.8 484.4 489.5 491.2 492.4 493.1 492.9 494.2 496.4 497.7 498.4 498.7 498.7 498.1 497.3 496.5 495.7 494.2 492.1 489.8 487.3 483.6 477.8 473.4 470.5 467.6 464.4 461.8 460.4 458.1 456.2 455.5 453.9 451.6 446.6 436 425.4 412.8 403.5 399.2 398.8 402.3 408 415.5 417.6 413 405.6 389.9 365.2 343.6 328.3 317.6 309.3 301.9 321.8 349.8 374.4 370.4 366.8 392.7 422.1 437.7 447.7 453.1 459.6 462.9 463.9 463.6 462.4 461.1 457.2 453.4 447.6 439.3 436 437.3 440.1 440.3 440.4 440.1 439.7 438.3 437.7 435.3 433 429.6 425.5 421 414.7 407.7 400 391 378 361.2 337.3 315.5 303 291.3 279.4 272.1 267.3 262.4 262.4 262.4 278.4 298.3 319.7 346.6 373.8 392 398.2 402.4 406.1 409.8 408.3 406.4 404.1 401.5 400.4 402 405.7 411.9 412.6 403 395.5 389.7 384.4 378.3 379 385.8 393.8 400.9 407.6 415.4 425.2 439.7 462.2 491.1 515.2 525.9 532.7 536.6 539.3 540.8 541.4 543.4 542.6 540.8 539.1 537.1 534.8 531.6 528.3 525.3 522.4 520 517.6 515.8 513.4 510.6 508.2 506.4 504.9 503
522.3 520.9 519.8 518.7 517.5 515.5 507 514.8 516.5 517.8 519.1 519.7 519.5 519.7 519.6 519.3 519 519.3 520.6 521.4 523.3 525.9 530 533.9 535 533.5 530.3 526.2 520 514.2 509.2 502 489.4 471.2 444.9 423.2 458.1 475.1 483.3 487.9 489.1 490.5 492.1 494.1 496.1 497.1 497.7 498.1 498.6 498.4 497.8 497 496.3 495.1 493 490.9 487.9 483.5 477.4 472.6 469.4 465.4 459.8 452.8 448.3 445.2 445 447.2 445.6 440.8 430.9 415.8 398.2 386 373.8 368.7 369.4 375.4 386.8 398.3 410.5 410 405.4 397.4 382 360.8 337.9 321.3 309.9 301.5 313 338.5 356.5 346.6 364.9 389.7 418.3 435.2 444.6 451.4 457.3 461.1 462.7 462.1 461.4 459.8 456.2 451.2 445.2 440 430.2 423.1 431.2 433.2 433.9 433.8 433.9 433.1 432.5 432.1 430.3 427.2 423.5 418.1 412.3 405.1 397 388.9 374.3 355.6 331.9 311.6 299.8 288.5 277.2 269.6 262.4 262.4 262.4 268.2 289.8 311.3 336.1 362.2 386.4 396.5 399.8 402 405 405.5 404.8 402.5 399.7 397 395.4 397.6 402.9 406.9 403.1 391.7 386.7 382.9 379.2 372.5 377.1 384.4 390 393 397.7 408.7 420.6 433.4 458.4 488.4 512.7 523.4 531.1 535.1 538.7 542.4 544.5 545 543.8 542 540.1 538.3 535.6 533 529.8 526.3 523.6 521.3 518.9 516.2 514.2 512.3 510.3 507.9 506.5 503.8
519.4 518.3 517.7 516 514.2 512.7 504.8 510.9 512.9 514.4 515.1 515.4 515.8 515.9 516 514.3 516.5 518.1 521 522.5 524.3 526.6 532.2 535.3 535.5 534.3 530.3 525.4 519.2 513.3 508.4 503.8 498.6 489.2 460.3 422.2 439.7 461.4 477.3 484 484.3 488.3 491.7 493.7 495.6 496.5 496.9 497.3 497.9 498.3 498.2 497.6 496.8 495.7 493.8 491.7 488.3 483.9 478.1 473.6 469.4 464.1 455.3 442.9 439.8 433.7 419.3 426.4 428.4 420.2 405.5 388.6 391.2 397.7 399.3 396.8 388.8 367.2 361.5 380.5 394.5 403.9 402.4 397.5 386.4 368.3 346.7 324.5 311.2 300.2 303.8 325.4 333.1 339.2 365.6 390.5 417.8 433.8 443.3 449.2 455 458.8 461.1 460.5 459.8 458.3 453.9 449.2 443.8 437.2 429.6 410.9 418.3 424.6 425.5 426.1 425.9 426.4 426.5 426.7 425.8 423.3 419.5 414.4 409.4 402.1 394.6 382.9 369.5 348 324.9 307.5 293.5 282.4 272.2 262.4 262.4 262.4 262.4 281.2 302.6 326.9 351.9 377.2 395.9 399.2 401.3 400.6 400.8 400.5 399.9 397.9 395.6 391.2 385.2 391.8 397.3 394.5 386.9 383.5 379.3 376 373.3 364.5 375 380.7 382.5 389.8 397 405.8 417.2 430 453.3 483.8 509.5 520.7 528.7 531.8 535.2 540.8 544.6 544.6 543.4 542.5 541 539.2 536.2 533.3 530 527.1 524.6 522.1 519.5 517.2 515.4 513.6 511.6 509.5 507.1 504.1
516.8 515.3 514.3 512.7 511.3 508.9 499.4 507.9 509.8 511 511.3 511.1 511.6 510.7 509.5 512.9 517.6 520.2 521.8 523.2 525 527.9 533.4 536.3 536.4 534.3 529.7 524.3 518.2 512.2 506.9 502.1 497.2 490.9 469.5 437.3 427.7 444.3 470.3 475.7 481.4 488 491.3 493.4 495.1 495.8 496.2 496.5 496.9 497.7 498.2 498 497.1 496.1 494.6 492.9 489 484.3 479.2 473.2 469.2 465.3 458.1 453.5 454.9 449.2 437.6 422.9 403 406.7 410.1 415.3 418.2 420.8 421.1 418.6 413 387.8 359.3 354.4 373.1 384.4 387.2 390.6 385.9 370.6 349.8 328.4 314.2 301.1 299.4 311.2 322.8 344.1 367.8 391.6 416.3 430.6 440.5 446.6 452.4 456.7 458.8 458.9 458.2 455.8 451.1 446.5 441.2 435.5 419.4 397.6 405.4 412.3 415.4 416.6 416.2 416.3 416.8 419.2 418.7 418 415.1 410.7 405.9 400 391.9 378.4 365.1 339.2 315.4 301.1 286.8 275.3 266.3 262.4 262.4 262.4 274.8 295 317.7 342.5 365.8 393.2 399.1 399.9 400.7 399.6 397.6 396.7 395.1 394.5 389 376.3 372.9 386.2 386 382.5 379.3 374.7 372 368.8 365.7 358.8 370.5 375.5 381.7 388 393.2 401.6 411.6 425.8 445.2 476.9 504.5 518 525.6 526.9 528.5 532.9 541.4 542.3 542 541.4 540.5 538.6 536.2 533.3 530.3 527.2 525 522.6 520.2 518.7 516.4 514 511.9 509.7 507 503.9
513.9 512.3 510.8 509.4 508 506.2 496.4 503.3 506.8 507.6 507.4 505.5 504.4 502.3 511.9 516.5 520.4 521.5 523 524.3 526.3 529.1 534.4 537.6 536.8 533.7 528.1 522.6 516.3 510.5 505.2 500.2 495.5 489.6 467.3 434.8 421.1 436.7 452.1 472.2 483.4 487.7 490.9 493 494.5 495.2 495.4 495.7 496 497 497.9 498.2 497.8 497.1 495.8 494.4 490.6 485.6 480.1 474.4 470.2 467.8 463.7 461.5 458.2 454.4 449 432.9 422.2 433.8 435.7 437.6 439.5 439.3 438.6 435.2 426.5 402.5 372.8 345 345.3 356.5 362.2 368.4 372.4 370.8 357.6 332.5 316.7 303.7 297.7 307.1 321.2 343.9 368.4 390.6 413.1 427.4 438.2 444.3 449.8 454.3 456.8 457 456.2 453.4 448.6 444.1 438.3 430.9 411.2 384 389.5 396.7 395.7 395.4 395.8 396.6 399.9 404.4 410.2 411.1 410 406.6 402.8 397.9 387.6 375.2 361.1 336.7 310.6 292.3 278.6 269.9 262.4 262.4 262.4 264.5 282.9 307.4 331.8 358.5 386.2 396.8 400.1 399.4 397.8 396.6 393.6 391.8 388.3 379.4 368.3 349.7 371.4 377 375.3 374 372.7 370 364.9 360.8 346.2 364.7 370.5 374.6 379.6 384.4 389.8 397.1 409.2 422.9 440.5 470.3 501.1 514.5 519.9 520.2 520.7 524.4 536.3 538.6 539.4 539.5 538.5 537.3 535.1 532.2 529.6 527.2 525.4 523.4 521.4 519.1 516.5 513.9 511.9 509.7 506.8 503.6
510.8 509.4 507.8 505.5 503.4 501.6 493.9 496.6 502.5 503 501.1 497.5 501.8 509.7 516.5 520.2 522.5 522.8 523.7 524.9 526.8 530.9 536.3 537.3 537 532.3 526.6 520.5 514.4 508.3 502.8 497.5 492.2 484.5 453.2 427.6 424.2 448.8 469.1 479.4 484.7 488.9 491.3 492.9 494 494.3 494.1 494.1 494.7 495.7 496.7 498.1 498.9 498.8 497.4 495.5 492 487.9 482.1 476.6 472.1 469.1 466.7 464.4 461.1 457.4 451 425.4 440.4 447.3 449.2 449.1 449.6 448.4 445.7 441.7 434.7 413.7 386.8 363 342.9 330.7 334 342.2 347.2 351.6 352.1 339.4 317.4 305.9 296.9 301.2 317.7 337.3 364.1 388.5 409.9 425 435.7 441.4 446.4 451.1 454.4 455 454.4 451.2 447.1 442.4 436.6 428.2 407 379.8 372 373.7 369.6 370.7 371 372.1 377.1 385.1 397.5 404.2 404.3 402.8 400 394.6 383.2 374 360.2 338.7 311 291.1 273.6 264.3 262.4 262.4 262.4 270.8 290.4 318.2 347.2 373.3 390.9 396.6 399.1 397.8 395.5 392.6 389.1 379.9 362.9 351.8 339.3 332.4 344.4 349.1 353.8 360.2 365 364 359.1 348.5 350.6 364.2 368.1 371.8 375 383 388.2 397.7 407.6 419.5 437.3 465.4 495.6 510.2 513.9 513 513.6 517.3 527.7 534.4 535.9 536.6 536.1 534.7 532.2 530.2 529.2 526.9 525.2 523.5 521.7 518.7 516.1 513.8 511.5 509.1 506.5 502.4
508.1 506.5 504.6 501.6 499.3 496.1 489.2 491.9 496.4 495.3 491.8 499.8 508.1 514.5 518.8 522.6 524.4 523.7 524.6 525.8 528.3 533 537.1 537.4 536.5 531.1 524.5 518 511.7 505.7 500.4 495.1 489.1 469.5 440.2 415.1 433.3 455.8 473.5 481 486.1 489.1 490.9 492.5 493 492.9 492.6 491.8 492.2 494.1 495.7 498.2 499.8 500.3 499.3 496.9 493.3 490.4 484.6 479.4 474.9 472 469.5 466.8 464.3 461.1 454.5 433.3 451.4 455.4 456.2 457.1 456.1 454.2 451.2 447.5 442.2 429.7 405.6 383 363.8 347.7 333 319.7 322.9 326.5 329.6 325.8 313.4 303.9 296.1 298.9 316.5 332.3 357.3 375.8 397.5 418.7 430.3 436.9 440.8 447.8 452.1 453.3 452.5 450.1 446.1 441.4 435 428 410.5 379.7 359.8 351 350.6 350.4 350.4 350.4 359.6 366.8 375.7 386.7 394.9 396.4 396.4 391.9 381.7 372.8 360.5 341.1 313.8 290.6 273.3 263.9 262.4 262.4 262.4 275 296.7 325 355.1 378.8 389 394.3 396.5 395.4 393.2 388.8 380.1 356.9 341 328 316.2 314.8 318.3 323.4 328.4 335.7 347.4 355.4 349.8 337 342.8 350.1 355.1 365.9 373.7 380.8 387.6 396.1 405.3 417.1 433.6 463.3 491.5 505 506.7 506.8 507.4 510.4 520.8 528.6 531.2 533 533.2 531.5 528.5 526.8 526.4 525.6 524.6 523 521 518.5 515.5 512.8 510.5 508.2 505 500.9
505.6 503.3 500.8 498.3 496.3 492.7 484.5 484.6 488 484.7 497.1 506.4 512 515.5 519.2 523.2 524.2 524.2 525.4 526.7 530 534.3 537.2 537.1 535.2 529 522.3 515.6 509.1 503.5 497.9 492.5 483.6 451.5 424.2 416.2 440.9 459.8 475.3 481.3 486 489 490.6 491.2 491.5 491 490.3 489.5 489.2 492.3 494.9 497.6 500.3 501.3 500.5 498.2 495.5 492.6 487.7 482.9 477.9 474.9 471.7 468.8 466.6 463.6 457.6 444.6 457.1 460 461.2 461.5 461 459.3 456.3 452.8 448.6 441.5 423.7 404.9 384.2 365.9 351.6 337.3 322.2 312.5 308.6 304.7 302.8 299.9 297 293.9 308.5 324.8 348.3 373 375.1 388.8 410.2 428.1 436.5 442.1 446.7 449.4 449.9 448.7 445.8 440.7 435.5 429.3 419.4 394.9 372.8 357.7 347 334.7 335.3 337.8 343.4 350.2 357.5 365.1 378.6 386.5 390.1 387.8 380.4 371.3 359.8 340.5 314.8 292.6 274 262.4 262.4 262.4 262.4 275.1 297.6 324.1 349.9 372 384.5 389.8 393.5 392.1 389.3 383.5 366.9 342.6 322.9 308.8 297.2 300.2 306.6 309.8 312.3 316.5 325.7 332.2 330 340.5 354.3 360.5 359 365 370.6 378.5 388 393.5 404.1 416.1 432.8 463.4 487.7 499.9 502.6 500.8 499.4 501.9 510.1 521 525.9 528.3 528.7 526.7 523.1 519.7 521.2 522.9 522.7 521.8 520.2 517.9 514.8 511.9 509 506.4 503 498.7
503.2 500 497.1 494.6 492.5 489.5 483.4 474.9 483.5 494.7 502.8 508.4 512.2 515.1 518.6 522.3 523.3 524.3 525.2 527 530.6 534.5 536.2 535.7 532.5 526.6 520.3 513.7 507.5 501.6 495.7 490 474.2 441.1 412.1 427.9 444.3 463.2 475.3 480.6 484.7 487.5 488.8 489.7 489.6 488.9 488.2 486.3 485.7 490.9 494 496.9 500 501.9 502 500.8 499 495.9 491.5 486.4 481.6 477.5 474.7 471.4 468.9 466.4 461.5 451.6 462.6 464.2 465 465.5 464.9 463.9 461.1 457.3 453.4 447.7 439.6 424 407.7 390.9 374.7 360 348.4 336.6 327.8 321 316.9 307.6 298.7 292.8 299.6 316.2 332.2 353.1 369.3 373 389.5 415.9 429 435.1 439.2 443.2 444.1 445.3 444.2 439.8 435.1 429.7 422.5 410.7 384.3 372.6 359.3 343.7 331 319.5 325.9 334.6 345 352.3 363.1 375.3 380.3 381.4 376.3 368.3 358.4 340.5 315.8 294.7 276.1 262.4 262.4 262.4 262.4 274.9 294.8 318.4 340.2 362.1 376.8 383.4 387.8 388.4 384.2 377 354.3 330.7 310 294.7 303.6 326.4 332.7 332.7 333.6 334.9 333.7 335.1 340 353.8 365.2 371.1 372.9 374.2 376.5 378.1 386.5 393.3 403.5 415.4 431.9 462.8 483.5 496.7 499 493.5 489.6 489.7 495.9 510.5 518.8 520.2 520.3 516.5 511.9 508.6 512.1 518.4 520 520.2 519.4 516.5 512.4 509.1 506.4 503.9 500.7 495.8
501.4 498.3 492.8 490.1 486.8 483.4 476.4 477.9 490.3 498 504.1 508.5 511.8 514.7 517.1 520.5 522.7 523.7 524.7 526.8 530.3 534 535 534.2 530.5 524.9 519.1 512.4 505.9 500 493.7 487.5 467.1 437.6 403.5 425.4 439.7 461 469.3 476.6 479.6 481.6 484.7 486.8 486.8 486.1 483.6 480.2 484.4 489.8 493.7 497.1 500 501.9 503.1 504 503.1 500.2 495.2 489.6 485.7 484 480.6 476.2 471.5 469.4 465.2 457.1 466.8 468.9 469.4 469.5 468.5 467.4 465.1 461.6 457.8 453 447.6 438.7 425.8 412.8 397.6 384.3 373.4 364.7 356.5 344.3 331.1 315 301.3 291.4 293.4 309.4 318.6 330.7 348.5 362.6 380.1 398.4 418.3 427.7 434 438.2 439.6 440 439.7 436.8 432.8 428.2 423 416.1 408.3 396.9 378.4 358.7 341 326.4 311.4 320.6 330.7 340.3 349.6 361.6 367.5 368.5 367.4 364.4 358.8 338.9 317.8 298.9 279.6 262.4 262.4 262.4 262.4 268.8 289.3 308.7 327.2 346.3 364.8 374.4 379.7 381.2 378.1 362.1 339.7 317 299.4 288.9 315.1 341.4 361.5 359.9 357.5 359.2 358.4 357.7 358.7 360.3 366.8 373 376.7 378.6 380.4 383.3 386.7 394.5 405.5 415.9 432.1 461.6 479.5 492.3 493.2 484.6 476.4 475.4 480 488.6 499.1 502.5 501 495.8 495.2 495.4 501.5 513.4 517.3 518.5 517.5 514 509.2 506.3 503.6 501 497.9 493.7
499.8 496.8 494.4 486.8 478 472.1 468.2 480.8 492.5 498.6 503.7 507.1 510.6 512.6 514.8 518.3 521.7 522.9 523.9 526.1 529.8 532.9 532.8 531.4 528.8 523.4 517.5 511.1 504.4 498.9 493.3 486.8 467.8 437.8 406.3 410 424.3 437.5 442.8 448.9 447.6 450.1 454.6 464.1 473.1 480.6 475.9 474.3 484.9 489.7 494 497.1 499.8 501.6 503.9 505.4 504 502.2 498 493.3 490.3 489.3 485.9 480.4 475.7 472.4 466.3 466.1 470.4 472.6 473.6 473.5 472.1 470.8 468.8 465.6 461.6 457.3 451.9 445.8 437.4 427 416.2 407.4 394.9 383.9 373.8 355.5 337 320.9 305.6 293.4 289.6 303.1 311 318.1 328.4 344.5 362.1 381.2 398.3 416.5 427.8 432.5 435.2 435.4 434.6 432.3 429.7 425.7 420.5 414.9 409.8 402.9 385.2 361.6 344.2 330.9 315.1 307.7 317.6 328.5 339.4 348.8 354.9 356.1 355.3 353.9 352 340.1 319.8 302.8 282.9 262.4 262.4 262.4 262.4 262.4 281.8 298.9 313.3 329.6 347.5 364.4 371.7 374.3 368.5 346.4 323.7 306.6 286.5 296.4 321 347.7 376.8 383 380.1 377.9 374.8 371.6 371.6 371.5 374 376.7 379.1 381.7 383.1 386 390.5 397.7 407 417.9 432.3 459.8 474.9 484.6 482.5 471.4 462.2 462.7 464 470 475.4 475.6 476.3 477.4 478.9 481.7 488.5 503.7 512.5 515.2 514.6 510.9 506.4 503.3 500.4 497.9 495.2 491.2
498 495.4 492.7 491.1 488.4 483 461.6 482.7 492.7 497.7 502.5 506 508.7 510.8 512.5 516 520 522 523 525.8 529.3 531.7 531.8 530.2 527.2 522 515.5 509.4 503.7 498 491.5 485.3 471.9 442.4 416 397.8 405.1 413.4 417.6 420.5 422 424.1 428.9 436.3 443.7 459.5 452.9 473.1 483.7 489 492.4 496.7 499.5 501.3 504.5 505.7 505 503.2 501.2 498.1 495.3 493.7 489.1 483.3 479.2 475.7 470.3 472 473.7 475.5 477.2 477.3 475.9 474.5 472.6 469.5 465.3 460.6 455.2 449.4 442.9 435.1 426.5 415.9 405.2 394.1 379.7 361 343.7 328.2 313.4 297.6 287.8 297.5 304 309.6 314.8 327.3 342.6 360.5 378.6 397.1 413.8 425.8 429 430.8 430.5 429.1 426.1 421.4 417.1 412.6 407.5 398.2 380.1 358 343.5 330.3 315.9 302.1 303.9 316.7 330.3 337.8 342.8 343.3 341 339.6 337.6 337.5 321.6 304.4 287.9 266 262.4 262.4 262.4 262.4 272.8 286.8 301.4 313.6 328 348.5 362.6 364.7 357.5 329.9 310.2 292.4 277.3 303 328.1 354.3 381.2 389.2 392.9 403 394.8 388.9 382.4 379.7 379.3 380.2 382 383.2 386 388.7 394.1 401 410.8 423 437.2 458.7 470 476.1 468.7 462.7 455 452.3 453.5 455.8 457.1 457.3 458.5 461.6 464.3 467.5 474.4 488.4 506.6 511.6 510.9 507.5 503.5 500.2 497.2 494.8 491.6 488.3
495.4 492.7 489.7 487.3 484.3 482.8 463.3 476 491.4 496.9 500.8 504 506.8 508.7 509.7 513.2 517.3 520.5 522.3 525.9 528.3 530.5 530.7 529 525.7 521 514.5 508.6 502.7 497.1 491.3 483.7 466 439.6 435.5 417.9 402.6 388.9 388.5 392.7 393.3 390.5 398.6 406 421.4 433.1 437.6 468.3 481.7 487.8 492.2 495.7 498.6 501.1 504.6 505.8 505.6 504.8 503.7 501.9 499.3 496.3 491.4 485.6 481.7 478.3 473.3 476.3 476.9 478.6 480.1 480.5 479.3 477.8 475.9 473.1 469 464 457.9 452 446.7 439.3 431.6 423.1 412.5 399.9 388.8 370.9 357.4 341.8 324.3 307.5 291.9 286.2 297.5 299.8 301.9 311.9 325.7 341.9 361 378.7 395.3 410.1 418.3 423.3 424.2 423.6 421 417.2 413.3 408.8 401.4 392.9 378.6 359.9 344.1 331.1 315.9 298.4 294.2 307.5 318.6 327.1 329.7 330.2 328.3 324 321.5 321.4 323.1 308.1 291.9 274.4 262.4 262.4 262.4 262.4 262.4 275.8 289.7 301.1 313 327.8 349.5 356.1 337.8 314.1 298.6 278.3 286.3 310.8 338.2 364.4 385.4 392.2 397.3 409.8 408.2 399.2 390.5 384.8 383.3 384.4 385.4 386.2 387.9 391.6 396.7 403.4 416.6 431.3 444.8 457.3 466 466.8 462.2 456.6 450.2 446.4 444.3 443.9 442.8 442.1 442.7 445.2 449.7 454.8 461.8 474.3 497.1 505.5 506.8 503.4 500 497.2 494.3 491.2 488.2 485.5
492.2 490 487.7 481 480.5 469.8 459.7 478.7 490.4 494.4 498.7 501.9 504.3 505 506.6 510 514.6 518.7 521.9 525.6 527.8 529.6 529.6 527.2 524.9 520.9 514.1 509.3 504.4 499.4 492.4 483.5 470.6 472 461.8 441.7 412.2 409.7 409.6 403.4 401 397 384.5 375.9 393.9 396.6 431.5 459.1 479.4 485.9 491.2 495.6 498 501.4 504.2 505.1 506 507 506.1 504.1 501.2 496.4 491.3 487.1 483.4 479.7 477.6 479.7 480.1 480.9 482.2 483.3 482.5 481.2 479.2 475.6 471.8 466.6 461.3 455.5 449.8 443.6 435.8 428 419 408.2 395.5 387 372.3 356 339.3 319 301.1 287.8 287.4 288.9 290.4 299.7 309.2 325.2 343.2 360.5 376.1 390 399.4 408.7 414.7 416.1 414.4 412.4 408.4 401.5 393.5 381.7 369.2 356.4 341.2 329.4 314.6 294.3 284.5 297.7 305.9 309.5 309.9 309.9 309 304 302 303.8 303.6 305.7 298 282.1 262.4 262.4 262.4 262.4 262.4 262.9 278.5 289.3 299.7 312.9 328.5 328.4 312.9 299.5 284.1 268.4 295 321.5 347.8 372.6 388.7 395.1 400.6 411 412.5 405.5 397.3 390 387.6 386.6 386.5 388.4 389.6 392.3 397.3 405.3 418.4 433.7 444.2 454.6 463 462 457.6 451.5 446.1 441 432.6 432.1 431 430.1 428.4 432.1 436.5 442.2 451.3 463.9 486.3 500.5 501.3 498.8 496.6 494.2 491.3 488 485.4 483.3
488.3 487.1 484.8 479.8 468.1 447 463.7 483 489.3 493.4 496.6 499.5 500.7 501.4 503.8 506.7 511.6 516.4 520.7 524.3 526.6 528.3 528.3 526.4 523.3 520.2 513.3 509.9 504.7 498.9 494 488.4 484.2 481.8 474.2 445.2 424.9 444.7 436.4 430.3 427 422.9 414.9 397.9 373.8 392.8 423.8 450.6 476.4 483.7 490.1 494.4 497.2 500.5 502.6 503.9 505 505.9 505.6 504.6 500.3 495.5 491.9 488.4 484.7 479.9 482.2 482.3 482.5 483.1 484.4 485.4 485.2 484.3 481.9 478.4 474.7 469.8 464.3 458.5 452.8 446.6 439.5 431.4 422.2 412.2 405.1 397.2 380.1 366.5 348.1 329.8 312.4 296.6 287.2 282.4 283.8 288.1 296.1 309.4 324.7 343.4 357.5 371.3 382.6 391.2 398.8 403.5 404.8 403.7 399.8 389.3 374.2 366.8 357.2 346.3 334.1 321.4 308.5 291.2 271.3 285.4 287.9 288 287.8 286.5 285 282.1 281.1 283.6 287.2 288.6 294.6 291.2 272 262.4 262.4 262.4 262.4 262.4 262.4 276.1 287.2 299 310.5 307.8 295.2 282.2 262.6 280.9 304 330.2 356.9 380.5 390.9 396.6 402.3 412.8 415.2 410.1 402.7 395.1 389.6 387.3 386.3 386 387.6 390.4 395 401.8 411.7 423.4 437.9 448.9 458.9 457.7 453.8 448.3 442.9 430.1 416.1 418.8 419.2 417.5 416.8 420.6 425.2 433.7 445.5 458.2 476 493.3 495.9 494.7 492.9 491 488.5 485.4 483.2 481
483.9 482.6 478.6 468.9 447.2 451.5 476.1 483.3 486.7 490.2 493.5 495.9 495.6 497.7 499.4 503.7 508.5 513.7 518.7 522.5 525.3 526.9 526.8 525.3 522.3 519.7 513.6 509.4 505.5 500.3 495.4 491.3 488.3 483.8 467.8 436.5 453.8 469.4 468.2 462.5 457.7 455.4 442.7 415.2 385 382.7 415.5 445 473.2 481.6 488 491.8 494.5 497.6 500.8 502.1 503.3 504.1 504.3 503.4 498.7 495 492.5 489.8 486.2 484.8 484.5 484.2 484.7 485.5 486.3 487.5 487.6 486.7 485 481.5 477 472 466.9 461 455.2 449 442.2 434.1 427 420.4 413.3 403.2 386.2 375.5 359.2 341.6 325.5 311 299 289 283.4 281.5 283.2 295.1 308.4 322.8 336.7 351 363.3 373.7 381.6 387.4 392.6 391.8 383.2 363.8 358.7 351.5 343.9 335.3 324.9 313.1 299.9 286.1 272.8 269.4 271 267.6 264.3 262.4 262.4 262.4 262.4 262.4 264.9 272.5 278.3 286 282.5 262.4 262.4 262.4 262.4 262.4 262.4 262.4 272.7 284 292 285.8 275.9 262.4 272.6 293.2 317.4 341.5 366 384.6 392.1 397 402.6 413.7 416.1 412.5 406.2 398.3 389.9 386.1 384.4 384.1 384.4 386.7 389.6 394.1 402.6 414 426.9 438.5 449.1 452.6 448.7 441 433.3 417.4 393.4 405.4 408.6 406.6 406.5 410.6 417.9 429.5 441.5 454.5 468 486.6 491.6 490.9 489.1 487.9 485.9 483.5 481 478.8
480.1 477.4 461.6 439.2 449 468.5 476.4 480.6 483.5 486.2 489.1 491.8 491.4 493.1 496.4 500.3 505.2 511.3 516.5 520.8 523.5 525.1 524.6 523.7 521.3 519.2 513.7 510.4 505.9 501.3 497.4 493.4 489.6 482.5 455 467.6 477.8 479 480.9 481.5 480.8 477.4 451.6 422.2 390.4 372.3 404.7 433.7 461.1 477 484.4 488.7 490.6 494 497 500.4 501.7 502.4 503.1 501.8 497.9 494.9 493.4 491 487.8 487.3 486.5 486.7 487.1 488 488.8 489.2 489.4 489 487.4 484.1 479.3 474.3 468.7 463.1 457.3 451.2 445.1 438.2 431.3 425 418.5 409.5 397.8 382.7 371.3 357.4 340 324.9 311.8 301 290.6 283.5 278.8 281.2 293.6 305 316.4 329.6 342.9 356.4 363.2 370.5 376 375 367.5 357.2 348.8 342.8 334.8 324.2 315.8 303.1 291.6 279.2 271.6 262.4 262.4 262.4 262.4 262.4 262.4 262.4 262.4 262.4 262.4 262.4 262.4 262.8 272.6 265.1 262.4 262.4 262.4 262.4 262.4 262.4 262.4 267.9 272.6 266.4 262.4 265.1 286.3 308.3 332 353.9 376.4 387.9 393.3 397.5 402.3 411.3 415.2 413.1 407.5 399 389.8 385 382.4 381.6 382.1 382.4 384.6 388.1 395.3 405.2 416.1 429.7 441 437.8 431.7 422 414.9 405.7 383.4 391.3 398.2 391.6 395.4 399.6 414.3 426 438.2 450.4 460.9 479.3 487.6 486.6 485.2 484.1 484.6 482.4 479.9 476.8
474.9 463.9 438.7 445.5 470.4 477.5 480.1 481.4 482.2 483.5 485.3 487.5 486.1 489.1 493.2 497 502.2 509 515 519.4 521.9 523.4 523.3 522.5 521.2 518.4 512.9 509.6 506.5 502.7 498.2 493.9 488.7 475.4 468.8 481.8 484.6 484.7 485.3 485.4 484.2 478.9 449.4 419.7 395.6 368.2 391.2 416.9 442.8 467.1 478.9 485.8 488.1 489.7 493.7 497.8 499.4 500.9 501.4 499.4 496.7 494.3 492.3 492.4 491.2 490.8 490.8 490.4 490.1 490.4 491.1 491.4 491.1 490.4 489.2 486.5 481.5 476.5 470.6 465 459.4 453.8 447.9 441.8 435.3 428.5 421.9 415.5 406.2 395.9 385.6 374.7 356.8 337.5 324.6 315.2 304.3 291.5 283 278.1 279.9 287.4 300.5 309.5 323.1 335.5 344.4 352.5 359.4 362.4 356 348.6 342.6 334.3 326.6 316.4 301.4 291.3 279.5 271 262.4 262.4 262.4 262.4 262.4 262.4 262.4 262.4 262.4 262.4 262.4 262.4 262.4 262.4 262.4 262.4 262.4 262.4 262.4 262.4 262.4 262.4 262.4 262.4 262.4 262.4 262.4 281.2 300.7 323.9 345.5 367.3 382.9 390.8 394.9 398.4 401 408 413.6 412.2 407.2 398.8 389.5 383.5 380.1 378.8 379.6 379.8 379.3 382.6 388.2 397.7 409.2 419.4 419.9 415.1 410.1 404 399.8 395.8 380.7 379 379.8 377.5 382.7 396.8 409.5 422.2 436.2 447.1 456.3 472.6 482.9 482.5 481 481.3 484.7 482.8 477.9 473.9
467.9 443.5 432.8 460.3 475.4 479.4 481.9 481.3 479.5 479.8 481.2 482.1 479.4 484.8 489.9 493.3 500.3 508.1 513.7 517.5 520.2 521.6 521.6 521.7 520.6 518.6 514.1 509 505.6 502.5 497.8 493.3 485.3 470.6 484.8 487.4 488.7 488.7 488.5 488.3 486.5 481.6 453.1 419.3 406 373.3 375.7 399.8 424.3 447.4 470.8 481.2 485.8 488.5 490.3 491.6 497 498.5 498.1 495.7 494.7 493.5 493.1 493.2 493.9 494 494.2 494.4 493.5 493.2 492.8 492.6 492.1 491.7 490.1 487.7 482.9 477.9 472 466 460.3 455 449.6 443.8 437.2 430.8 425.3 419.7 411.9 404.5 396.6 387.3 374 351.8 340 331.2 320.2 308.3 293.5 283 277.4 278.6 285 293.9 301.9 313.1 323.8 336.1 346.2 349.8 345.9 340.7 334.6 326.3 317.9 304.6 291.7 281.2 273.3 262.4 262.4 268.7 275.1 277 277.8 275.8 275.5 274.9 272.9 270.4 262.4 262.4 262.4 262.4 262.4 262.4 262.4 262.4 262.4 262.4 262.4 262.4 262.4 262.4 262.4 262.4 273.5 294.4 317.1 340.6 359.9 377.7 386.5 394 396.1 397.2 399.1 404.3 410.9 410.5 406.1 398.3 388.3 382.1 377.7 375.6 376.6 376.4 375.5 377.5 381.8 390.1 396.7 396.3 396.1 396.4 395 392 389.9 386 379.7 361.3 359.7 374.1 382.9 393.9 404.8 419 435.3 445.3 452.4 464.5 478.7 477.1 476.7 478.5 483.8 485.6 480.3 473.9
455.7 428.1 442.2 468.5 475.6 479.1 480.9 480.9 477.4 471.8 474.1 475.3 472.8 480.5 486.3 491.8 499.5 507.4 512.4 515.7 518.5 520 520.8 520.4 519.8 518.2 514.1 509.5 505.9 502.6 498.6 493.4 481.4 484.6 489.5 490.7 492.4 493.5 493.1 491.6 488.9 484.8 462.7 421.1 409.1 383 361.5 385 408.5 430.9 454.6 475.9 483.7 485.8 486.9 488.1 491.7 494.8 494.5 492.7 492.4 492 492.5 494.1 495.6 495.9 495.7 495.9 495 494.2 493.7 492.9 492.5 492.1 490.8 488.5 483.2 478.7 472.5 466.5 459.8 454.9 450.1 444.3 437.7 431.2 426.3 421.1 414.9 409.5 403.8 396.4 385 369.7 358.2 348.4 338.8 326.6 310.2 295.6 284.5 277.3 274 277.2 283.3 291.2 301 317.6 332.2 336.4 334.5 330 324.1 316.3 304.7 293.4 282.2 274.1 262.4 262.4 271.5 288.3 296.6 299.2 298.6 295.8 294.5 293.1 289.8 285 278.7 270.7 262.4 262.4 262.4 262.4 262.4 262.4 262.4 262.4 262.4 262.4 262.4 262.4 262.4 262.4 281.9 307 335.8 357.5 373.6 383.3 390.1 395.5 394.8 395.3 396 400.6 408.2 408.4 404.4 396.8 387.2 381.1 375.7 371.9 373.4 373.1 372.1 372.8 374 377.9 382.6 384.5 384.5 385.2 385.2 383.7 379.5 376.5 372.4 358.2 364.6 372.8 380.3 389.7 400.5 416.1 433.2 443.1 449.5 461 475.1 474.2 473.1 474.4 481.6 485.9 481.2 475.1
440.2 425.5 448.5 465.7 471.7 475.1 477.7 477.9 475.1 465.9 459.6 462.2 470 478.5 485 491.3 499.7 505.6 510.2 514 517.1 518.9 519.8 518.7 519.3 517.5 513.5 508.8 505.2 502 497.1 490.3 483.1 489.3 493 494.6 497.5 498.2 497.1 495.3 492 487.9 472.9 432.4 409 391.7 364.4 371.6 393.9 416.3 437.1 461.3 477.7 480.5 482.5 484.6 486.8 489.7 489.8 489 489 489.2 491.9 494.1 495.9 495.4 495.4 495.2 494.8 493.6 493.3 492.9 492.3 491.8 490.7 488.1 483.5 478.1 472.4 466.2 459.2 454 448.1 441.8 435.9 430.2 425 420.7 414.7 410 405.2 399.5 390.2 379.1 369.3 363.1 353.7 344.3 328.1 313.5 300.7 284.9 279.2 274.9 271.6 269.9 279.2 294.3 305.6 312.1 315.6 314.6 308.2 299.2 290.2 280.7 272.3 262.4 262.4 268.9 290.8 308.4 317.4 319.3 318.5 317.1 314.7 311.8 307.5 301.1 294.1 285.9 276.5 265.2 262.4 262.4 262.4 262.4 262.4 262.4 262.4 262.4 262.4 262.4 262.4 265.6 288.8 315.7 346.8 368.6 380.3 386.4 392.9 393.9 392.8 393 393.4 396.9 405 406.2 403 394.8 386 379.3 374.6 369.5 368.8 368.7 368 368.3 367.8 368.1 369.6 371.6 372.3 374.1 373.6 372.9 369.8 366.9 365.9 350.4 361.4 368.8 376 383.9 395.2 413.3 431.5 440.4 446.8 456.7 470.9 470.5 468.8 469.9 478.3 484 481.9 475.7
415.7 415.9 425.9 439.4 451.9 461.1 462.8 458.7 456.4 445.3 466.7 467.8 473.3 477.2 484.6 491.5 499 505.7 509.8 514.3 516.6 517.7 519.5 518 517.7 516.9 512.4 507.6 504.6 501.2 495.5 484.7 491.3 494.8 497.2 500.2 503 503 502 499.9 496.2 491.2 480.2 442.6 412.6 395.8 369.5 355.8 383.9 400.9 420.8 441.2 461.1 473.5 478.3 481.1 482.4 484.7 485.3 485.8 485.9 487.4 489.3 491.2 492.6 493.9 493.2 493.5 493.3 491.7 491.6 491.7 491.9 491.3 490.2 487.7 483.1 477.2 470.7 464.3 458 451.9 445.3 439.1 432.7 427.5 421.8 417.3 411.4 407.2 404.2 399.5 391.9 382.5 374.9 368.9 361.4 354 344.2 327.7 312.4 291.1 283.4 282.6 279 274.4 269.9 269 278.1 287 293.4 292.4 287.6 280.2 274.9 263.3 262.4 262.4 275 292.7 310.2 327.9 336.2 338.9 340.1 340.5 339.7 334.4 327.8 320.3 310.9 302.8 293.7 284.3 273.6 262.4 262.4 262.4 262.4 262.4 262.4 262.4 262.4 262.4 262.4 270.1 294.6 321.5 353.3 372.8 381.5 387.5 392.4 392 391.1 391.2 391.4 393.9 400.8 404.6 401.4 394.5 385.2 377.5 372.9 367.7 361.9 364.2 364 364 363 363 363.6 363.1 364.3 365.2 364.8 364.1 362.7 360.1 358.4 337.9 356.1 363.9 371.4 377.9 388.5 407.1 428.1 437.3 444.1 452.5 465.8 464.8 462.5 464.1 473 480.9 479.8 475.4
441.3 429.6 413.8 414.7 423.5 433.3 433.6 430.4 450.5 473.1 478.8 476.6 478.1 480.4 486.4 495.8 501.6 507.8 511.8 514.5 517.4 519.1 519.6 519.1 518.5 516.7 512.7 507.9 503.8 497.1 489.1 496.1 496.4 500.4 502.5 505.4 507 507.1 506 503.7 500.4 494 483.8 446.5 416.7 401.3 374.9 354.3 374.6 389.1 406.9 422.1 441.1 457.6 470.9 475.5 478.3 480.6 481.9 482.3 481.8 484.1 486.2 487.9 488.4 489.6 490.1 490 489.7 489.2 490.2 490.6 490.7 490.6 489.4 486.3 482 475.5 469.5 462.2 456.5 450.5 443.2 435.9 429.2 423.9 418.1 412.8 406.1 400.9 398.6 394.5 387.7 381.2 373.8 367.6 359.5 349.5 333.4 318.1 298.4 292.1 301.1 297.2 291.3 281.6 273.1 269.6 265.5 268 268 269.7 265.7 264.8 262.4 262.4 266.7 279.4 296.5 313.5 331 345.9 353.7 360.9 366 367.8 365.4 359.2 352 344.7 336.6 326.8 315.6 304.1 293 278.3 264.8 262.4 262.4 262.4 262.4 262.4 262.4 262.4 262.4 276.6 301.1 327.3 357.6 374.7 381.8 388.2 391 390.1 389.3 389 389.2 391.1 397.5 401.7 399.4 394.2 385.5 376.6 370.2 365.8 352.6 359.4 359.9 359.6 360 359.3 358 356.8 357.6 357.9 357 352.7 347.3 337.8 326.4 328.2 348.6 356.6 362.1 367.4 376 389.1 410.6 433.4 440.6 448 459.4 458.4 453.1 456.7 467.1 476.9 477.3 474.1
458.5 447.6 438.9 424.1 411.1 410.9 432.2 455 474.9 482.1 483.3 481.6 481.1 485.4 491.4 500.2 505.3 509.1 513.2 516.3 518.5 520.4 520.5 519.9 518.6 517.2 513.4 508.5 505 500.8 499.6 502.4 503.1 504.1 506.2 508.3 509.3 509.5 509 507.1 502.9 496.5 484.6 448.6 420.4 404.1 376.8 355.4 361.7 375.4 393.9 408 422.3 437.3 450.3 466 472.8 476 477 476.9 477.6 480.6 482.2 483.9 483.9 483.8 484.2 485.3 486.4 487.4 488.8 489.4 489.6 489.7 488.5 484.8 479.3 473.4 467.5 460.7 454.3 449 441.8 433.5 425.1 416.9 410.5 404.5 399.9 394.6 389 383.1 375 368.9 362.9 355.5 344.9 332.8 318.8 301.8 295.8 310.8 316.3 311.3 292.7 280.5 273.2 276.2 272.5 262.8 265.6 265.2 264.4 263.9 268.3 277.7 288.3 302.1 315.9 333.4 349.2 362.5 374.1 380.4 377.9 375.6 371.8 367 361 355.2 350 344.1 336.9 326 313.9 300.8 283.8 272.6 262.4 262.4 262.4 262.4 262.4 262.4 262.4 280.6 306.9 333.1 360.4 374 381.7 387.5 388.9 388.2 386.7 386.2 386.4 388 393.2 397.7 397.1 392.4 383.7 374.3 368.5 364.3 354.2 352.7 355.9 354.8 354.8 353.6 351.9 349.6 348.3 344.9 333.5 319.7 315.3 320.4 338 340.9 328.9 329.4 343.8 351.1 358.8 367.3 383.6 406.1 426 440.7 451.3 450.5 445.4 448.5 459.8 472.2 474.4 472.2
479.4 463.9 444 442 428.6 402.7 421.6 449.8 474.9 483.7 485.9 486 486.8 489.1 494.8 501.6 506.6 510.6 514.1 517.4 519.8 521.2 521.3 520.3 519.1 517.4 514.2 509.5 506.1 501.4 504.4 505.6 505.9 506.1 507.8 509.4 510.1 510.3 509.8 507.7 503.9 497 485.6 454.1 424.4 408.6 379.9 358.2 347.5 373.6 387.9 397.3 406 418.4 428.9 442.2 454.2 466.7 471 468.8 473.8 477 479 479.8 479 478.4 478.5 479.6 484 485.8 487.4 487.9 487.9 488 487.3 482.5 476.6 470.9 465.2 459.9 454.5 446.5 440 432.3 424 411.3 396 384.5 388.5 380.6 364.6 357 351.7 346.7 342.1 336.8 326.2 315.2 300.9 306.4 318.4 323.9 318.8 296.2 282 283.3 290 290 285 279.9 276.3 276.6 278.2 282.6 289.2 299.8 309.3 321.7 336 351.6 365.3 380.9 387.2 385.7 382.2 378.5 374.9 370.6 365.6 361.3 356.7 351.7 345.9 337.6 328 314.2 295.2 276.3 262.4 262.4 262.4 262.4 262.4 262.4 262.4 286.2 311.6 337.3 363.4 375.5 382.6 386.4 386.7 385.4 383.6 382.6 383.1 384.2 388.7 393.9 393.6 388.5 378.1 370.5 365.8 362 354.8 335.4 347.6 349.3 348.3 344.3 340.8 332.5 326.8 315.3 311.8 327.6 338.4 350.2 356.5 359.8 358.5 352.5 339.4 328.8 336.1 352.3 362.1 374.8 397 415.7 429.5 434.6 433.5 436.3 451.4 467.8 472 469.1
486.6 482.3 457.3 441.5 435.2 408.2 415.3 441.4 466.3 483.4 487.4 489.1 491.3 492.6 496.9 502 506.7 511.1 514.9 518.5 520.6 521.8 521.6 520.7 519.8 517.5 513.9 510.3 507.1 506 506 507.3 507.2 507.3 508.6 509.7 509.5 510 509.6 507.5 504.7 501.8 488.1 456.8 430.5 412.5 385.2 361 341.5 366.4 384 389.1 393.7 400.6 410.1 419.2 428.3 440.5 453.1 453.2 467.8 473.3 475.2 475.9 474.8 470.4 469.5 479 483.8 484.9 485.6 486.5 487 487.1 485.1 479.4 474.1 469 464.2 459.3 453.1 446 437.9 430.9 422.3 413 395.1 381.1 367.8 361.9 348.2 339.6 332.8 328.6 321.7 317.6 311 308.6 315.6 325.9 332.6 330.5 308.4 288.8 286.4 299.4 304.5 306.2 302.2 296.5 294.3 292.9 297.5 304.2 311.1 319.4 329.9 342.7 355.2 368.8 384.9 393 392.7 389.8 386.1 381.8 378.1 373.3 369.3 365 360.4 355.4 349 341 327.9 308.8 289.8 271.7 262.4 262.4 262.4 262.4 262.4 262.4 266 293.1 318.3 343.1 368.1 376.6 382.4 384.3 383.7 382.7 379.7 379.2 379.2 380.4 384.1 389.9 389.7 381.6 372.7 366 362.5 358.9 354.8 339.3 324.3 335.9 333.2 324.6 316.2 309.1 301 322 339.3 350.9 357.1 362.1 367 369.9 369.5 367.9 363.7 354.9 342.3 336.4 346 354.1 359.1 382.7 403.4 411.5 414.5 421.5 443.7 463.8 469 455.9
491 487.2 483.1 457.6 436.3 408.7 409 436.7 462.6 483.9 489 492.2 495.2 497.1 499.1 502.4 506.7 511.3 515.3 519.4 521.1 521.9 521.3 520.6 519.4 516.9 513.5 511.1 508 507.8 508.5 508.8 508.6 508.6 508.9 509.3 509.4 509.9 509.4 508.3 506.8 504.3 492.2 461.8 434.8 418 391.6 365.5 339.4 359.3 377.2 384.3 385.7 387.2 391.5 399.5 408.1 416.2 422.8 428.3 444.1 459.3 468.7 466.6 461 442.6 467.4 478.3 482.4 483.4 484.2 485.7 486.2 485.5 481.6 477 472 467.1 462.4 456.8 450.2 443 436.2 427.3 418.1 407 392.5 376.3 364.9 344.4 334 338.8 337.6 333.3 329.5 326.9 326.9 328.1 333.3 344.5 342.5 330 306.1 288.5 301.8 314.9 321.6 323 319.4 315.8 314.2 313.6 316.1 323 330.3 339.3 351 362.2 374.9 389.3 396.6 397.9 396.4 393.9 389.5 385.1 380.5 376 372.3 367.7 362.5 356.7 349.3 340.6 327.4 303.8 280.5 262.4 262.4 262.4 262.4 262.4 262.4 262.4 275.4 301.5 328.1 352.3 370 376.5 381.5 381.4 380.8 378.6 375.1 373.7 375.3 377.2 380.7 386.5 384.8 373.9 365.9 361.6 358.6 354.4 346.5 334.6 315.1 312.5 308.5 300.5 296.9 312.9 326.9 341.9 353 361.4 367.7 371.9 376.4 380.3 381.4 381.7 379.2 371.8 362.2 355.4 345.4 339.9 343.5 355.3 373.2 392.8 390.5 411.3 432.6 460.4 466.3 451.7
494.2 492.1 486.9 462.2 434.3 407.1 410.5 435.8 461.5 484.8 490.8 494.6 497.5 499.8 502.1 504.2 506.7 511.2 515.5 518.9 520.5 520.9 520.9 520.2 518.7 516.2 513.8 511.8 509.2 508.9 509.3 509.6 510 510.2 510.5 510.8 510.3 509.6 509.6 509.2 508.2 506.2 499 471.1 442.8 423.4 400.1 375 351 343.2 359.8 372.3 378 377.3 377.6 380.8 387.9 395.5 397.7 410.4 422.8 435.1 447.5 436.4 429.5 423.2 451.4 470.7 477.6 483.2 484.8 484.8 485.9 483.2 479.8 476 470.2 464.7 459.4 453.1 445.6 438.8 429.6 419.3 409.5 399.2 386.4 371.4 353.3 348.8 357 360.7 361.2 357.5 352.1 350.1 349 350.5 355.2 355.9 348.6 330.3 302.5 296.5 314 327.6 335.8 337.7 335.1 332.5 331.5 332.1 335.1 341.7 350.7 359.1 370.7 382.9 396.5 401.6 401.8 400.8 399.3 396.3 391.9 386.7 381.9 376.8 372.6 366.9 362.7 356.3 346.3 336.9 321.6 296.5 271.1 262.4 262.4 262.4 262.4 262.4 262.4 262.4 282.3 308.9 335.6 360.2 370.3 376.7 378.8 378.6 376.7 372.6 370.1 368.5 370.9 373.6 377 380.9 373.9 366.1 359.9 356 350.8 341.8 322.7 306.1 296 292.1 300.1 311.6 323.8 332.8 345.9 354.4 362.6 370.6 377.5 383 388.9 392.7 394.7 395.5 394.3 381.6 384.1 376.2 364.8 361.1 353.9 349.2 345.1 359.3 388.2 399.8 420.2 443 463.3 447.2
496.8 494.8 488.7 462.3 434.2 402.7 409.4 433.4 458.9 484.6 491.8 495.9 498.6 501.1 503.2 505.4 507.7 510.5 514.6 517.2 519 519.5 519.7 518.9 517 515 513.3 511.3 509.4 509.3 509.1 509.3 509.3 509.8 510.4 510.7 511.1 510.5 509.5 509.4 509.4 508.5 505.9 483.6 452.3 431.4 410.8 388.8 366.3 347.4 337.8 361 366.6 367.8 368.4 370.1 371.7 375 374 391.8 404.6 418.7 422.8 411.4 402.6 410.2 432.1 464.1 480.7 485 486.4 486.1 485.3 482.9 479 474.3 467.3 458.5 449.8 442.1 435.8 426.1 413.4 402.2 393.5 384.8 374.8 360.2 360.6 367.7 375.2 385 388 386.1 382 379.2 376.7 376 372.7 365.8 356 336.6 309.2 299.4 321.1 337.6 349.4 354.8 354.4 354.1 355 355.4 357.6 363.4 372.5 382 393.3 402 405.6 406.3 405.4 403.5 400.7 397.2 393 388 382.3 377.1 371.7 365.7 360.5 352.9 342 331.7 310.8 285.8 263 262.4 262.4 262.4 262.4 262.4 262.4 264.7 291.7 319.5 343.9 362 369.3 374.4 375 374.1 369.8 367.5 365 361.4 366 369 372.9 374.6 365.2 358.7 352.9 346.3 336.1 317 296.6 286.7 304.5 316.8 324.8 333.1 341.9 348.8 354.3 364.5 372 381.2 390.2 399.3 404.5 406.8 408.2 409.2 408.6 400.2 407.4 406.8 398.2 389.7 378.5 381.9 375.6 360.4 361.2 389.8 410.7 432.7 440 428.5
500 498.4 489.5 461.8 432.8 400.7 404.9 427.8 453 478.7 492.2 495.9 498.6 501 503.2 505.5 507.7 509.8 512.7 515.7 517 517.8 518 517.1 515.7 514.1 512.5 510.8 509.1 508.7 507.9 508 508.4 508.9 509.5 510 510.6 511.2 510.3 510 510.2 509.4 508.1 498.3 468 443 426.7 407.9 390.5 367.9 346.2 339.3 353.1 356.8 360.3 358.4 359.9 359.3 363.2 374.2 386.1 400.2 397.5 382.9 387.8 410.3 435.9 464 481.9 485.9 487.3 487.3 485.9 483.5 480 475.5 469.4 462.2 450 434 416 410.3 397.8 390.2 386.6 370.6 370.8 371.2 375.6 384.7 396.8 401 401.9 400.3 398.3 396.1 391.5 386.6 378.4 366 349.9 330 309.1 299.4 323.8 344.1 360.5 373.2 375.9 377.3 379.2 381.8 385.2 390.5 397.9 404.6 407.1 408.4 409.5 408.4 406.7 404.2 401.3 397.6 393.8 388.7 382.7 376.7 370.4 363.7 357.6 347.3 336.5 324.1 302.3 277.5 260.9 246.3 251.3 262.4 262.4 262.4 262.4 276 304.7 332.5 353.4 360.7 364.7 367.2 367.4 367.5 363.9 362.9 360.5 353.5 360.8 363.2 365.5 362.7 355.9 352 345.7 333.5 314.5 294.4 287.5 310.7 326 336 340.9 347.2 353.6 361.3 365.5 372.8 383 394.7 408.5 419.6 426 426.2 425.7 425.9 424.2 419.5 428 432.7 431.4 428.9 422.3 415.4 404.6 377.3 374.7 371.8 398.9 416.2 412.9 407.5
502.9 501.5 490.3 460 431.5 399.7 400.6 421.4 445.7 468.2 490.4 495.2 497.4 500.2 503.1 505 506.7 508.5 510.9 513.6 514.8 515.5 515.7 514.7 513.6 512.1 510.3 508.4 506.7 505.9 505.5 505.8 506.5 507.6 508.1 508.6 509.4 510.2 510.9 510.6 510.5 510.4 509.5 506.4 486.7 458.1 437.3 427.1 407.4 385.2 366.4 341.1 330.6 333.1 339.1 342.9 346.6 345 348.1 358.4 366.7 379 371.1 364 389.9 404.3 434.5 461 482.2 487.8 489.1 488.5 486.9 484.8 481.9 477.6 472.9 467.2 459.6 449.5 435.2 425.3 417.2 410.6 402 390.1 390.9 391 395.4 404.8 409.5 411.2 413.4 411.4 408.7 404.1 397.1 389.5 372.2 354.4 334.7 314.9 313.3 303.7 322.3 343.2 362.1 379 386.4 390.6 394.7 397.7 400.7 404.6 408.5 410.8 411.4 410.9 409.6 408.4 407 404.8 401.6 397.8 393.7 388.6 382.8 376.2 369.1 362 352.5 343.1 332.1 315.9 294.7 273.3 255.2 248.8 239.1 237 242.7 263.7 262.4 289.6 318.3 343.5 355.7 358.1 359.4 359.5 359 358.6 358.1 356 353.9 350 356.5 356.4 355.7 352.8 349.6 343.9 333.4 314.7 293.9 285.7 308.8 327.3 338.4 343.9 349.8 356.4 363.3 371.6 378.7 386.2 399.4 415.5 432.9 442.5 446.8 447.7 445.4 440.6 435.7 432.3 434.6 436.6 438.8 441.3 439.2 431.6 409.9 383.8 378.9 365.5 380.2 374.4 375.8 376.9
505.6 503.6 490.5 457.3 427.8 401.2 392 413.9 435.4 457.7 482.1 492.8 496.5 498.8 501.3 503.4 505.1 507.1 509.3 510.9 511.8 512.4 512.4 512.1 511.4 509.8 508.1 505.9 503.7 503.2 503.4 503.8 504.7 505.8 506.7 507.3 508.3 509.4 510.5 511 510.8 510.6 511.1 509.6 503.3 476.3 449.4 433.1 416.1 405.4 382.4 363 353.5 336.7 330.1 325.2 323.5 326.2 329.8 336.7 346.7 358.3 343.7 365.5 394.3 406.6 426.8 447.7 470.5 487.6 490.4 489.8 488.1 486.3 483.8 480.4 476.4 471.8 465.9 459 450.9 442.7 433.5 424.2 405.2 405.3 407.9 411.1 415.6 417 419.4 420 418.5 415.1 410.6 405 394.5 377.7 355.8 337.5 320.2 326.6 332 312.9 317.9 339.1 357.6 378.3 392.3 399 402.9 405.9 409 411.6 413.3 413 412.3 410.6 409 407.8 406.3 404 400.9 397.5 393 388.3 382.1 375.6 368.3 358.7 349.1 340.1 328.2 315.5 296.6 272.1 252.5 245.1 237 237 237 251.9 274.6 305.7 331.5 350.3 352.3 353.7 353.1 353 352.6 351.6 350.2 347.2 333.9 346.2 350.6 348.9 347.3 344.4 340.8 329.2 313.6 294.9 280.9 305.4 324.4 338.7 343.4 348.7 354.3 363.2 372.3 384.5 396 407.2 414.9 427.3 437.7 445.4 449.6 455.5 455.9 450.5 444.8 439.2 438.5 441.3 446.1 446.6 441.2 432.8 414.3 390.9 384.3 382.4 385.3 387.5 401.9 406.8
508.3 505.8 493.3 457.8 425.7 404.1 386.1 407 425.9 446.2 468.4 488.7 494.1 496.9 499.5 501.8 503.8 505.4 506.6 507.7 508.4 508.9 508.8 508.5 507.8 506.2 504.2 501.9 501 500.8 501.1 502.3 503.1 504.2 505 506.2 507.4 508.8 510.2 511.2 511.7 512.1 512.3 511.2 508.3 489.4 458.5 439.2 424.5 412.2 397.1 380.4 369.6 357.1 352.8 345 334.4 324.5 318.3 317.2 322 331.4 341.8 361.7 375.2 386.6 404.5 428.4 451.5 475.3 489.9 491 489.8 488.1 485.6 482.6 478.8 475.6 470.1 465.6 458.6 450.1 440.9 430.8 411.5 420.9 425.3 427.3 427.6 426.3 426.4 425 421.4 416.4 410.7 397.4 379.5 357.7 336.2 342.1 344.6 349.2 350.8 325.2 312.9 336.8 356.7 377.9 396.7 403.9 408.1 410.9 413.4 414.9 415.1 413.4 411.9 410.1 408.2 406.7 404.8 402.6 399.7 395.9 391.7 386.9 381.1 374.2 366.5 356.5 347.3 335.8 324 313.3 295.3 270.5 251.2 241.8 237 237 237 256.6 283.2 313.7 332.2 344.4 346.7 346.6 346.3 345.8 343.9 342.2 337.7 328.7 318.5 340.1 342.6 340.3 336.8 331.5 324.8 309.5 294.1 274.6 296.7 312.6 322.9 332.5 338.8 343.7 350.4 361.1 380.1 398.9 412 417.4 422.5 429.6 438.8 447.1 451.9 458.6 460.5 457.6 452.6 445.7 444.5 447.8 452.5 448.3 441.1 432.8 420 397.5 385.4 397.6 412.1 417.1 426.3 440.8
510.2 507.9 497.8 459.5 428.5 405.1 381.2 396.6 416.3 436.7 457.1 477.9 491.2 494.8 497.4 500.1 502.2 503.6 504.7 505.6 505.9 505.8 505.4 504.7 504 502.4 500.7 498 497.9 498.3 499.4 500.6 501.5 503.4 505 506 507.4 508.7 510.2 511.6 512.1 513.4 513.4 512.4 510.9 500.1 465.2 442.4 432.9 417.6 405.3 399.7 392.9 380.8 375.1 368.8 362.1 349.3 336.1 322.1 312.3 317.1 329.1 343.2 356.6 370 387.5 407.8 434.9 457.2 479.1 490.6 490.8 489.8 487.1 484.1 481.2 478 474.4 469.3 463.1 456.5 447.1 430 433.1 434.9 436.6 436.5 435.7 432.9 431.7 427.4 422.3 416.6 403.7 384.5 361.8 358.9 365 368.7 370.3 369.9 362.6 335.5 320.5 334.4 355.9 377.2 399.2 407.1 410.8 413.6 415.5 416 415.2 413.2 411.4 409.5 407.4 404.8 402.9 400.7 397.5 394.1 389.9 385 379.4 372.1 363.5 354.1 344.7 332 321.7 308.4 288.6 266.3 251.1 242.2 237 241.5 238.2 259.3 285.6 307.9 315.5 322 326.7 330.4 328.8 325.9 323.4 321.2 319.3 306.9 311.5 326.9 327 322.9 316.4 310.7 304.6 292.3 274.5 288.5 298.9 296.3 302.2 310.8 316.5 325.5 336.9 353 370.8 395.6 415.4 419.9 424.6 432.7 442.8 449.8 453.9 460 464.1 463.4 458.3 453 451.3 454.4 454.7 448 440.4 431.2 420 399.6 388.3 406.1 420.6 435.8 449.8 454.2
511.6 509.4 499.7 462.3 429.1 404.6 383.9 390.2 408.4 427 447.2 466.5 486 491.5 495 497.7 500.8 502.1 503.2 503.6 503.5 503.3 502.5 501.7 500.6 499.3 497.9 495.3 494.2 495.9 497.7 498.2 500.2 502.5 504.2 505.6 506.9 508.3 510.1 511.8 513.1 514.4 514.8 513.9 513.1 508.1 476.8 449.9 436.5 424.6 414.4 409.6 407.8 403 401.5 393.5 386.4 374.5 356.3 340.7 323.7 312.1 313.2 325.6 339.2 354.4 373.5 393.4 418.9 435.5 454.5 479.1 491.1 490.6 488.2 486 483.2 480.4 477.1 472 468 461.7 453.5 446.8 445.9 445.4 443 442.8 440.2 438.3 434.1 428.8 422.5 411.1 393.2 368.5 381.2 386.9 391.7 396.1 394.5 384.6 367.9 343 331.6 328.4 353.3 374 397.7 406.7 411.3 415 415.6 415.6 414.8 412.9 410.9 408.6 406.4 403.5 400.8 398.2 394.7 391.5 387.6 382.5 377.2 370.2 360.3 350.9 340 329.2 317.9 303.4 283.9 262.8 248.3 238.6 237 238.8 239 257 279 288.7 292.5 297.7 300.7 302.7 303.2 302.1 301 300.5 298.3 290.1 293.9 302.3 302.5 298.4 294.9 288.8 281.4 273.3 281.2 304.7 321.4 327 320 317.4 319.5 321.8 325 342.3 359.2 380.4 406.3 415.5 422.5 433.6 448.7 451.9 455.3 459.2 464.9 467.4 464.1 459.2 457.7 457.8 453.5 447.2 439 428.8 415.2 392.6 398.9 413.7 428.2 439.6 450 454.3
512.6 510.5 503.2 465.4 430.4 407.3 389.3 387.3 402.1 416.7 436.7 456.7 476.5 484.9 492.2 495.7 498.6 501.3 502.7 502.7 502.2 501 500.1 499.2 497.7 496 493.7 490.6 486.5 493.2 496.6 498.7 500.1 501.7 503 504.3 506.2 508.2 509.9 511.8 513.7 515.3 516 515.5 514.6 510.9 494.4 463.3 440.7 433.3 428.4 427.5 424.3 424 423.5 417.1 405.7 392.6 375.2 358.5 339.8 321.6 309.7 312.4 325.4 340.4 360.2 380.2 396 415.7 441.1 468.9 488.2 490.8 489.3 487.3 484.9 482.3 479.2 476.2 471.9 466.5 461.6 456.7 454.1 452.2 450.2 448.1 444.5 440.8 435.8 425.9 410.4 393.4 385 397.6 407 412.3 412.1 408.6 402.9 390.7 368.5 366.6 353.1 336.5 349 371.8 396.6 405.4 409.8 413 415.3 414.9 414.4 412.7 410.4 407.9 404.7 401 397.6 393.7 391 388.1 384.4 379.8 375 366.4 356.7 345.5 337 325.2 312.8 298.4 281.4 262.7 244.6 236.8 238 236.8 237 247.6 262.5 267 270.7 275.6 277.9 280.5 280.7 281.5 278.9 279.8 277.3 271.6 271.9 278.8 280.6 276.4 271.1 265.6 272.5 289.5 301.9 317.7 333.5 342.7 344 342.4 339.6 338.5 334 336.1 350.8 368.1 391.2 410 419.1 432.6 450.8 452.5 455 458.5 464.3 469.9 469.3 465.6 461.9 458.9 452.6 445.1 435.7 425.2 412.3 394.7 405.7 418.7 432.5 441.5 450.1 454.6
513.3 511.1 502.8 466.4 430 406.6 392.6 378.8 391.9 405.9 423.7 445.7 469.7 485.9 491.6 494.8 497.8 499.9 501.2 501.3 500.2 499 497.9 496.5 492.2 489 483.7 479.4 490.1 494.6 497 498.4 498.8 499.8 501.5 504.1 506.2 508 509.8 511.7 513.6 515.5 516.4 516.2 515.3 514.7 511.2 493.8 460.2 442.8 438 439.7 444.8 448.1 447.5 436.1 423 405.7 389.7 374.4 356.8 339.2 318.6 307.5 311.5 327.8 347.4 366.1 384.1 405.1 431.4 453.6 472.5 488.7 490.9 488.7 486.4 484.2 481.8 478.3 475.4 471.4 466.7 463.4 460.2 457.2 455 452.3 448.7 442.5 428.5 417.8 420.5 418 406.6 414.5 421.6 421.8 418.9 414.5 407.9 383.4 394.6 379.2 370.3 352.9 342.7 367 382.5 399.3 405.9 410.5 413.6 414.3 413.9 412.3 409.3 406.7 402.8 398.7 393.6 389.9 387.4 384.9 381.6 377.8 371.5 362 351.4 341.7 331.5 320.1 306.8 291.8 276.5 260.5 243 237 237 237 237 237 237 246 250.5 256.6 259.4 260.8 262.2 262.4 260.8 259.9 256.4 254.7 253.9 256.5 259.2 266.6 279 290.6 299.8 309.3 320.9 331.9 343.9 350.4 353 355.2 354.2 350 341 342.3 347.6 360 382.8 404.1 415.9 431.2 449.4 451.8 454.2 457.7 463.4 471.7 472.1 470.1 465.7 460.3 452.6 443.5 433.6 425.2 413.2 397.3 410.7 422.3 433.6 442.1 449.8 455.8
513.6 511.5 502.2 463.7 430.3 408.9 391.9 373.3 387.4 398.5 414.2 437.9 462.1 483.8 490.7 494 496.4 498.3 499.3 499.2 498.2 497 495.5 492.9 488.9 478 470.9 485.2 491.1 493.9 496 497 495.6 497.2 501 503.5 505.5 507.5 509.4 511.1 513.1 515.2 516.5 516.1 515.5 515.7 515.3 511.6 496.6 474 464.6 465.4 470.2 472.7 465.2 452.1 435.1 415.3 397.8 383.9 369.7 350.6 326.8 306.3 305.9 314.4 333.7 353.1 373.5 392.3 410.3 432.6 451.6 473.3 489.4 490 487.9 486 483.8 481.4 478.4 474.3 471.6 468.7 465 461.9 459.3 455.6 450.4 439.3 433.7 437.6 435.1 431 412.3 425.6 427.4 426.2 424.1 419.5 412.1 399.1 405.1 400 384.5 369.6 354 359.4 374.6 390.9 400.7 406.9 411.6 413.7 413.2 411.6 408.6 405.6 401.3 395.8 389.4 384.5 382.4 380.4 377.7 373.4 364.7 354.1 344.7 335 324.7 313.7 301.2 285.7 270.4 253.9 238.8 237 237 237 237 237 237 237.7 239.2 241.7 244.5 246.9 247.5 247.3 246.1 254.1 264 272.3 275.4 279.6 289 296.7 304.2 314 320.9 328 337.1 345.8 353.7 360.3 364.7 367.6 369.1 361 350.8 358.7 360.9 357.7 383 401.9 414.4 433.2 448.3 451.2 453.7 457.1 463.4 473 474.5 472.9 468.7 462.6 453.7 445.4 434 422.9 411.9 405.7 413.3 422.7 433.2 441.2 449.5 457.6
513.4 510.7 494.5 459.6 432.8 412.1 395.7 374.2 381.5 391.6 404.5 427.5 452.9 476.2 488.6 492.3 494.7 496.3 496.9 496.8 495.9 494.7 492.7 490.7 486.3 468.7 475.4 485.4 488.6 490.3 492.2 493 492.3 496.5 500.3 502.8 504.9 507 508.8 510.3 512.4 514.6 516.4 516.2 515.8 516.1 516.4 515.5 512.1 503.2 495.2 491.4 487.7 484.4 475.6 461.6 441.8 420.5 402.6 389.3 375 357.5 334.8 311.6 303.7 304.6 320.6 341.1 359.5 376.7 394.2 415.2 437.9 456.2 483.9 489.5 489.9 488 485.9 483.4 480.2 477.4 475.2 472.3 469.1 465.5 461.9 457.9 451.2 435.8 445.6 444.9 442.5 436.3 430.3 433.6 432.4 430.8 427.6 423.7 412.8 413.8 411.8 409.3 404.4 384.3 380.7 373.4 366.7 385.7 398.5 406.5 410.6 412.8 412.6 411.3 408.3 405.2 401.5 396.4 390.2 383.7 375.2 369.2 366.4 360.3 351.7 342.1 330.4 319.6 311.5 304.5 293.7 279.9 264.7 248.7 237 237 237 237 237 239.4 239.6 242.4 247.3 253.6 259.9 264.4 268.6 274 278.6 283.6 289.6 294.9 292.8 282.3 303 315.3 325.3 335.1 341.7 348.1 354.7 361.3 366 373.3 383.2 392 393.3 371.1 360.2 375.9 385.2 386.7 389.1 404 417.4 435.6 447.5 450.3 452.9 457.1 464 472.7 475.4 474.4 470.9 465.2 457.2 448.5 438.3 425.2 419.8 409.6 416.6 425.5 432.2 439.8 450 458.5
512.8 509.6 491.6 457.9 434.3 413.1 396.1 378.7 375.9 386.6 397.1 417.4 442.2 466.4 485.3 490 492.1 493.5 494 494.1 493.2 492.1 490.5 488.5 485 464.9 468.4 481.1 478.2 474.5 477.3 484.8 495.1 497.5 499.1 501.6 503.5 505.7 507.5 509.4 511.5 513.4 514.8 516.2 516 516.7 516.6 516.1 514.4 510.7 506.8 501.9 496.1 489.5 482.2 467.5 447.3 426.5 407.3 392.5 375.2 356.2 336.5 315.3 301.3 302.9 310.5 327.4 346 362.9 378.9 400.6 424.2 449.2 465.7 480.1 490.5 490.8 488.5 486 483.4 480.9 478.4 475.4 471.6 468 464 458.7 447.5 450.7 451.2 449.6 446.8 439.7 441.1 439.5 437 434.3 431 427.2 423.5 420.3 417.3 413.9 408.5 406.3 400.9 394.7 387.2 384.9 399.1 405.8 410.1 412.5 413.4 411.9 409.2 406.4 403.5 400.4 395.6 390.6 385.1 377.1 364.6 345.8 329.8 315 306.8 296.9 295 288.9 281.8 270.8 258.4 244.7 237 237 237 237 237.2 241.9 247.2 256.8 264.3 271.6 279.5 285.8 291.1 295.2 299.5 305 311.5 317.2 310.4 283.7 305.7 328.4 341.7 354.8 359.9 363.9 367.7 375.6 385.8 398.6 407.9 410.3 406.5 382.8 366.6 389.2 397.5 400.4 402.2 411 424.8 441.1 447.7 449.8 452.4 456.8 464.9 473.4 478.6 478.2 473.3 466.9 459 450.5 441.9 433.2 428.8 410 423.2 429.6 435.6 442.8 451.6 459.6
512.4 508.9 495 460 434.5 414.7 397.8 381.1 371 381.5 390.2 407.2 431.6 457.1 479.4 486.8 488.8 490.1 491 491.1 490.3 489.2 487.7 485.5 481.8 466.6 453.1 464.7 464.3 479.7 489.5 492.6 495.5 497.1 498.3 500.4 502.1 504 505.2 506.4 508.3 510.9 513.3 514.7 516 516.3 516.3 516.3 515.4 513.8 510.8 506.6 500.1 493.9 486 473.2 452.9 432.6 412.6 397.1 377.8 356.7 335.8 315.7 302 300.9 303.2 317.7 334 348.1 363.3 386.9 418.3 435.3 444.8 459.4 481.4 491.6 490.2 487.8 485.6 483 480.7 477.9 474.2 469.9 464.1 457.7 457.5 456.4 456 453.8 450.2 446.3 446.2 444 441.6 438.3 434.8 431.5 428.2 425.1 422.4 419.4 416.4 412.8 408 403.9 399 388 397.9 405.2 410.6 412.8 413.5 412.6 410.3 408.1 405.9 403 400 395.1 390.2 383.9 378.1 369.6 352.5 338.9 320.2 301.6 283.2 270.6 263.4 257.6 249.9 237.1 237 237 237 237 239.7 247.6 261.1 276.6 286 292.8 301.5 308.4 314.6 319.4 324 327.6 331.2 334.1 328 300.2 305 325.9 347.7 360.4 366.8 372.2 380.3 389.3 399.5 407 410.9 412.5 411.1 399.3 375.4 393.6 404 410.1 416.8 419.1 435.1 444.3 448 449.7 452 456.4 464.3 473.9 480.9 480.8 475.9 469 461.6 453.8 446.1 439.7 434.5 425.6 427.2 432.3 438.6 446.2 454.1 460.4
510.9 507.5 500.8 470.6 440.3 417.5 403 383.9 365.1 374.9 384 394.3 419.7 441.4 463.6 480.4 484.6 486.1 487.4 488 487.4 485.9 483.5 480.1 475.7 460.3 436.3 458.3 478.7 488.8 492.3 494.4 495.8 496.6 497.8 499.3 500.4 500.5 501.5 503 505.1 507.8 510.6 512.9 514.2 514.8 515.4 515.7 515.3 514.7 512.6 509.3 504.9 497.5 488.9 477.2 458.3 438.1 418.2 400.1 380.6 359.2 337.9 316.3 302.1 300 297.6 309.9 322.1 334.1 348.3 369.4 396.5 414.6 427 445.6 465 488.8 491.3 489.1 486.4 484.2 481.7 478.9 475.5 470.8 466.1 463.2 462.8 461.4 460.3 456.6 451.5 451.9 449.6 447.3 444.9 442.4 439.1 436 432.9 430.2 427.6 424.5 421.9 417.8 413.1 408.2 404.8 399.4 400.2 405.8 410.9 413.6 414.5 413.9 412.3 410.6 408.2 405.3 402.5 398.7 393.1 386.9 380.8 373.5 360.2 346.4 327.4 309 292.4 280.2 266.7 254.4 245.5 235.6 237 237 237 237 242.6 253.9 270.7 292.1 309.9 319.4 326.8 332.1 336.2 338.3 339.5 340.6 342.3 342.7 342.5 319.8 304.1 323.8 344.1 361.8 369.7 381 389 395.4 403.8 409 412.1 414.1 415.4 414.2 405.2 388.6 407.9 419.4 427.7 434.3 439.6 445.4 447.7 449.6 451.8 456.2 463.3 473.2 482.5 481 476.9 470.8 463.5 455.8 448.2 442.5 437.4 429.5 433.7 438.5 441 445.5 455.4 461.3
508.9 505.5 500.9 486.7 457.5 429.4 408.6 390.1 370.5 367.2 377.7 384.8 404.6 424.9 443.1 460.3 476.9 482.3 483.5 484.1 482.9 480.4 476.8 472 460.9 444 440.8 467.1 485.5 491.3 493.3 495 495.8 495.8 496.4 497.1 497.4 496.8 497.8 499.1 501.5 504.3 507.9 510.6 511.9 513.5 514.1 514.4 514.7 514.3 513.4 511.6 507.7 501.1 492.3 481.1 464.3 444.9 424.8 403.9 383.5 362.2 340.3 319.5 301.8 298.6 297.7 299.2 313.1 323 334.7 353.1 372.8 392.6 411.9 433.2 452.8 478.1 490.8 489.8 486.5 484.8 481.9 479.3 476.7 473.5 471.2 468.9 468 465.5 463.5 459.6 458.4 455.4 453 450.6 448.3 446 443.8 441.1 438.3 435.5 432.8 430.7 428.7 424.5 419.4 413.5 409.9 405.8 403 407.8 411.4 414.7 416 415.4 414 412.6 410.3 407.3 404.2 399.2 393.3 386.6 381.3 373.1 359.8 343.1 323.1 305.7 289.9 276.1 264.3 254.2 245.1 237.3 237 237 237 237 245.1 260.3 278.7 304.2 327.5 336 340.8 343.7 345.4 346.2 348.2 350 351.8 354.3 356.5 342.2 319 321.4 339.9 361.1 371.7 384.2 391.6 399.6 405.9 410.2 413.4 418.3 423.3 425.9 422.6 404 413.1 424.5 434.3 440.9 444.3 446.5 447.8 449.9 452.6 456.7 464 475.4 483.5 482.2 477.6 471 464.3 457.3 450.7 443.9 436.4 435.7 440.2 443.8 447.8 449.6 456.4 462.5
505.8 503.2 499.9 494.8 476.9 444.6 414.5 396.7 375.2 361.5 369.3 377.9 386.8 405.2 424 441.9 459.7 472.9 478.6 479 476.5 472.7 466.7 455.8 440.6 423.3 450.6 474.2 488.2 491.9 493.7 494.5 494.5 493.9 493.9 493.8 493.5 493.3 494.2 495.6 498 501.2 505.4 507.9 509.3 511.2 512.8 513.2 513.6 513.6 513.5 512.4 509.6 503.8 495.1 485.3 471.4 454.8 435.1 414.9 393.4 370 346.4 322 302.9 296.9 296.3 296.2 307.1 315.9 324.6 337.6 353.6 374.7 398.3 417.7 440.1 461.9 486 489.9 487.8 485.5 483.7 480.9 478.2 477.1 474.6 472.7 471.5 468.7 465.5 463.1 462.6 459.2 456.8 454.9 453.1 451.2 449.3 446.6 443.6 441.2 439.3 437.5 435.5 431.2 425.8 420 414.6 409.4 409 409.3 413.9 416.4 417.7 417.3 415.9 414.5 412.1 409.2 404.6 398.5 392.3 385.4 380.1 371.1 356.9 337.4 317.2 300.4 285.2 272.4 261.5 252.1 245.6 238.7 237 237 237 237 247.9 268.8 288.3 315.7 338.6 345.5 348.7 351.4 353.7 357 359.7 362.3 366.1 370.8 369.7 362.9 341.7 324 337 360.3 373.3 385.5 393 401.5 406.9 411.3 415.7 423.5 431 432.1 429.2 416 418.4 428.5 436.9 441.3 444.4 447 449.3 450.9 454.2 458.7 466.1 478.8 484.7 483.8 478.2 471.8 465.1 459.2 451.7 446 442.3 442.1 440.4 447 451.2 455.6 456.4 463.4
502.8 500.3 497.3 494.2 487 459.4 425.5 402.9 380.4 367.6 359.3 370.6 379.6 387.4 406.2 424.2 440.6 458.1 471.2 471.8 469 461.4 449.2 434.1 418.9 426.1 456.7 481 489.1 492 493.5 493.9 493.6 493.4 491.8 489.4 489.1 489 490.3 492.9 495.2 498.8 502.6 504.9 507.1 509.3 511 511.8 512.6 513 512.8 512.7 510.6 505.6 497.1 488.4 477.6 462 445.7 426.5 406.8 385.2 357.4 327.5 306.3 295.4 294.8 294.5 299.7 307.7 316.5 327.5 339.5 359 377.1 399.5 410.8 425.1 457.4 486.4 488.3 486.6 484.7 482.6 480.2 479.4 476.6 475.8 474.3 470.7 468.5 467.5 465.9 463.9 461.8 460 458.2 456.4 454.2 451.8 448.8 446.5 445.1 443.6 441.5 437.3 431.9 425.4 419.3 415.1 416.3 415.8 416.7 418.9 421 420.2 419.7 417.2 413.6 409.5 404.5 398 390.5 384.3 378 367.1 351.5 329.4 311.3 294.5 280.6 268.3 258.3 250.1 243.9 237.4 237 237 237 237 254 275 297.4 324 343.7 351.5 356.7 360 364.2 367.6 371.7 379.3 385.1 383.1 379.4 374.1 363.4 346.4 336.3 358.5 375.6 387.3 395.1 402.7 408.1 412.4 417.4 426.8 433.3 432.9 431.5 424.9 423.8 431.3 437.3 441.1 444.2 446.7 449.4 452.9 455.9 461 470.7 480.8 485.2 484.7 479.2 473.1 465.6 460.5 454.9 449.9 447.6 447.1 446.6 449.1 452.1 457.7 461.9 466.8
500.6 498 495.9 492.9 488.5 471.5 436.8 409.8 391.9 371.3 362.1 357.5 369.8 377.9 388.5 404.5 421.9 439.4 461 463 454.6 443.9 426.3 410.7 408.2 436.2 461.9 483.2 488.8 491.6 492.8 492.9 492.9 491.9 490.4 485.9 484.2 483.5 485.9 489.9 492 495.5 499.3 502.6 504.8 507.2 509.2 510.1 511 511.5 512 512.1 510.7 506.7 499.3 491.8 483 471.6 456.7 437.1 418.7 394.1 363.9 332.3 311.9 299.1 293.6 292.7 291.9 301 308.7 319.1 330.6 345 356.5 379.3 410.1 411.9 419.4 448.4 486.7 487.8 486 483.4 482.4 481 480.2 478.7 476.6 473.1 472.5 471.9 469.3 467.5 466.4 464.8 462.5 460.2 458 455.6 453 451.2 449.9 448.2 444.6 440.8 437.2 431.8 425.8 421.5 424.5 422.6 419.7 421.4 422.7 423.4 421.8 418.8 413.7 409.4 404.1 396.6 389.2 383.1 375.3 362.4 343.8 323.1 304.8 288.2 276.2 264.3 255.4 248.2 242 237 237 237 237 237 260.8 283.4 308.9 332.5 346.1 357 364.9 369 376 387.3 393.5 393.1 391.1 388.5 385.3 380.7 374.3 361.7 343.7 360.3 377.1 388.6 396.2 404 409.1 413.2 418.8 428.1 434 434 432.8 430.6 429 433.6 437.5 440.5 443.7 446.8 450.4 454.4 458.7 463.8 474.1 482.8 486.4 485.5 480.6 474 468.7 462.7 457.4 453.8 452.9 452 451.6 453.2 456.7 459.3 464.5 470.7
498.2 495.7 493.7 492 487.6 474.7 449.4 424.7 403.1 384.8 369.7 360.9 355.3 365.1 375.3 389.3 405.9 420.6 438.6 445.1 431.6 415.7 399.7 395.4 420.4 446.1 469.1 484.4 488.1 490.3 491 491.6 491.4 490.5 488.7 486 479.8 476.7 483.6 485.8 489.7 492.8 496.2 500.1 502.8 505 506.9 508.2 509.4 509.9 510.2 510.5 509.7 506.3 500.8 493.7 485.9 478.3 466.9 450.6 430.9 401.9 371.5 343.8 320.6 307.1 293.3 291.1 292.1 295.9 302.8 317.7 332.1 341 346.2 356.6 383.2 413.9 410.6 412.7 449.9 486.3 487.8 486.8 484.7 483.1 482.3 480.6 478.2 477.3 477.1 475.6 473.8 471.4 470.1 467.6 465.1 463 460.8 458.5 456.2 454.5 453 450.6 447.2 443.2 439.9 435.3 431.2 427.3 427 425.2 421.8 423.2 423.7 424.5 422.3 419.6 413.7 408.6 403.7 396.2 388.1 380.9 371.5 358.8 337.2 317.1 298.7 284.6 271.2 261.6 253.4 247 240.5 237 237 237 237 240.8 267.1 293.7 322 340.3 350.3 364.6 371.5 382.2 392.8 396.1 396.8 395.9 394.3 391.1 388.1 384.9 380.9 372.6 352.1 366.4 383.3 390.8 397.5 405 409.7 413.9 419.8 427.8 435.4 435.8 435.3 433.9 433.1 435 437.1 440.1 443.5 448.2 453.3 458.9 463.7 469.6 477.7 485.9 490.8 489.8 484.8 477.9 471.4 465.1 460.4 458.1 457 456.8 457.2 458.6 461.6 465.6 468.4 474.3
495.3 493.4 491.5 491 488.2 483.9 472.9 444.2 423.4 404.6 389 371 356.7 351.3 360.5 374.3 384.2 399.8 414.8 415.8 402.6 386.6 386.3 409.4 433.4 456.1 475.8 484.5 487.4 489 489.6 489.9 489.7 488.5 486.4 483.7 477.2 472.9 479.6 483 486.6 490.4 494.1 497.9 500.8 502.1 504.5 506.7 507.7 508.1 508.5 508.5 506.9 504.3 501 495 488.5 482.4 475 462.3 439.4 411.2 385.2 359.5 330.4 317.5 303.2 290.9 289.8 291.8 303.9 321.9 328.4 336.9 348.4 354.8 368.9 385 393.8 393.5 408.5 461.8 487.6 487.7 486.8 485.6 484.3 482.9 481.6 480.8 480.3 479 476.5 473.9 471.9 469.7 467 464.2 461.8 459.8 457.6 455.3 452.9 450.7 448.3 445.7 441.7 437.6 433.7 430.4 427.2 424.7 422.9 423.1 423.1 424 421.6 418.2 413.1 407.8 403 395.1 386.8 379.7 367.7 353.4 331.7 311.5 294.2 279.5 267.4 259.3 252.3 245.6 238.6 237 237 237 237 244.3 271.6 299.8 329.1 343.1 356.1 367.6 378.7 392.3 396.9 397.4 396.8 396.3 394.8 393.1 390.7 387.6 384.8 380.5 358.9 375.6 386.4 392.1 399.8 406 410.5 415.2 420.7 427.4 436.7 438.6 438.4 436.3 435.1 436.2 437.8 440.1 444.4 450.6 456.6 463.4 470.7 477.7 485.2 490.4 492.7 490.5 486 480.3 474.3 468.4 464.4 462.9 462 461.6 462.1 464.6 468.2 472 474.8 478.7
492 492.8 491.3 488.8 486.9 484.7 480.4 469.2 448 428.4 406.4 383.5 366.2 348.8 345.5 358.5 367.9 378.3 392.3 387.6 374.1 381.4 405.7 427.4 446.8 464.4 479.3 485 487.3 487.7 488.1 488.3 487.5 485.6 483.1 476 462.8 473.3 480.2 483.7 484.8 488.8 492.7 495.9 499.1 501.5 503.6 505.4 506.3 505.8 505.6 504.5 502.6 501.4 498.9 495.2 491.1 486.5 481.6 473.4 453.4 427.1 401.3 373.5 345.3 326.4 310.6 293.3 287.3 290.9 309.6 318.5 324.6 335.2 350 361.8 374.8 373.7 373.8 385.7 403.1 419.9 423.7 449.2 486.4 485.6 485.3 484.7 483.7 483.3 483.1 481 478.4 476 473.7 470.6 466.8 464 461.6 459.1 456.6 454.4 452.1 450 447.8 445.2 441.6 437.9 434.6 430.8 426.6 422.9 421.1 420.8 421.6 422.6 420.3 416.7 411.4 407.5 402.3 394.4 385.6 377 365.3 349 328 307.8 291.9 277.6 267.6 258.5 249.4 242.5 237 237 237 237 237 247.6 274.5 302.6 330.4 343.4 354.9 365.9 376.2 391 395.7 396.3 396.1 395.5 395.3 394.3 392.9 391 388.5 386.5 381.2 373.7 386.8 393.5 401.5 407.2 411.4 416.6 422.2 429.4 437 440 440.7 439.6 437.9 437.7 439.1 442.9 447.3 452.6 459.1 467.4 476.5 485.2 494.2 499.3 495.6 490.8 485.4 480.4 474.2 470.9 468.5 467.7 467.1 467.5 469.5 471.8 475.2 478.6 481.2 484.7
488.5 490.6 490.6 489.3 486.3 484.2 482.2 478.2 470.7 450.6 425.9 399.2 375.1 359.9 343.8 346.9 353.7 363.1 369.4 361.4 377.1 399 421.3 441.7 458.7 475.4 481.9 484.9 486.6 487.2 487.9 487.2 485.2 482 470.8 455.1 475.6 483.7 486.6 488.2 490.1 491.5 494 496.5 499.3 501.3 503.2 504.3 503.5 502.3 500.6 498.6 497.2 496.4 495.2 493.6 491.7 489 485.9 480.7 469.7 447.3 420.5 392.9 363.7 338.3 316.9 299.5 286.8 287.8 311.1 324.7 332.4 335.9 343.5 360.3 388 382.1 373.9 386.2 413.8 434.3 421.4 424.1 451.2 485.9 486.1 486.1 485.8 485.3 484.3 481.8 479 476.5 474.1 471.1 466.5 463.4 460.2 457.4 455.3 453.3 451.3 449.4 447.4 444.2 440.6 437 433.1 429.2 424.5 420.8 417.7 417 419.3 420.1 418.5 414.3 410.4 406.8 401.5 393.2 384.7 376.1 363.9 346.8 325.8 308.1 293.2 281 270.3 259.6 248 240.8 237 237 237 237 237 250.3 278.3 305.5 331.3 340.2 347 357.2 366.4 377.7 391.6 393.6 394.9 394.6 394.7 395.4 395.9 394.9 393.9 393 391.1 387.5 386.9 396.4 403.4 408.5 412.6 418 424 430.3 436 440.9 442.7 441.7 440.7 440.4 442.4 445.3 449.4 454.1 461.4 472.5 483.5 492.4 505.1 506 499.1 492.2 486 480.9 478.4 476.4 473.4 471.9 473.1 474.9 478 480.4 482.8 486.5 491.2 493.1
484.2 487.2 487.9 486.9 485.4 483.6 481.6 478.5 474.2 465.9 445.2 415.9 389.3 370 353.3 338.5 341.2 351.2 360.6 375.7 399 419.6 439.1 453.6 470.1 480.6 484.7 486.8 487 487.3 487.6 486.2 483.6 477.7 451.9 466.7 479.2 485.4 488 489.8 491.8 493.1 495.2 496.9 499.5 501.1 502.2 502.5 500.7 499 497 494.9 493.2 491.9 491.2 491.2 490 487.9 486.2 483 474.9 461 434.5 407.5 381.8 351.6 327.1 308.1 293 287.9 305.1 321.3 328.5 336.7 341.5 352.7 380.9 389.9 375.2 379.5 394.9 424.4 439.8 421.1 435.9 481.1 486.5 487.2 486.9 485.8 484.2 481.8 479.1 476 473.6 469.5 465 461.8 458.5 456.1 454.1 452 449.8 448.5 445.8 442.5 438.9 435.1 431 427.1 423 419.1 415.3 414.2 415.8 417.1 415.1 411.9 408.5 405.4 400.3 392.1 383.6 374.9 363.7 349.4 328.6 311.7 297.7 285.9 272.7 262 251 243.3 237 237 237 237 237 248.7 278.3 307.2 327.9 334.6 339.8 347.1 357.7 365.5 379.3 387.7 391.4 393.1 393.7 396.5 400 401 400.2 399 397.7 395.8 393.5 400.6 405.5 409.5 415 420.9 427.7 432 437.9 441.8 443.5 442.9 443 442.3 444.1 446.2 449.9 455.4 464.1 479.4 493.1 502.7 508.6 507.3 501 494.1 488 484.5 483.4 481.7 479.3 478.8 480.5 483 486.3 489 492.1 497.7 501.5 501.5
479.9 483.4 484.5 484.4 483.4 481.6 479.5 476.5 472.8 467.5 458.1 431.8 407.3 384.6 364.2 338.9 338.7 347.6 361.4 380.8 407.7 432.5 447.7 463.6 477.7 482.6 486 487.8 488.5 488.6 487.5 485 482.6 476 450.3 454.8 469.8 483.6 488.4 490.9 492.4 494 495.8 497.6 499.2 500.4 500.7 500.2 498.1 496 493.9 491.9 489.9 488.6 487.3 487 486.1 485 483.8 481.2 474 463.3 442.3 416.4 391 364.6 336.9 315.7 290.8 284.7 296.8 312.9 323 341.2 332.8 349.8 368.1 382.8 375.2 372.6 379.8 399.9 425.8 417.7 438 451.2 468.2 485.5 487 485.2 484.3 481.8 478.6 475.6 472.2 466.9 462.2 459.2 456.3 454 451.8 449.5 447.2 444.9 443 440 436.9 432.7 428.3 424.1 420.4 416.9 413.2 410.7 412.8 413.3 411.4 409 406.7 403.7 398.6 390.5 382.5 373.9 364.3 352.2 336.8 319.4 303.8 289.2 274.9 265.2 255.4 245 237 237 237 237 237 243.2 269 296.2 316 325.9 332.9 337.8 344.7 354.1 362.5 374.1 386.1 389.7 392.5 396.5 403.7 405.9 406 404.9 403.6 401.8 399.8 404.2 408 413 418.1 425.3 430.6 436 440 443.9 444.1 443.9 443.7 443.2 443.3 444.8 448.6 455 466 482.3 496.9 504.3 506.7 505.8 500.5 494.5 492.5 490.8 489.6 488.2 486.1 487.3 489.1 492 495.8 504 508 507.3 505.4 502
476.3 479.6 480.5 481 479.8 478.4 476.7 474.3 470.6 466 460.3 447.3 423.6 399.9 373.4 348.1 336.5 345.9 361.4 379.4 405.2 434.7 453.2 471.8 480 483.5 486.4 488.2 489.1 489.1 487.2 484.6 481.5 476.7 456.6 436.8 459.8 479.5 486.9 490.2 492.3 494 495.8 497.5 498.7 499.1 499.2 498.2 495.8 494.1 492.1 489.5 486.6 485.2 483.5 482.8 481.9 480.8 479 473.2 460.2 445.7 435.4 418.2 396.7 375.2 347.7 321.7 303.9 285.1 284.9 301.9 318.6 328.4 329.6 339.7 360.4 373.5 381.7 374.5 375 389.2 411.9 433.1 429 474.6 477.4 469.5 466.6 479.5 482.8 481 477.5 473.7 470.3 465.1 459.8 456.6 453.8 450.7 448.5 446.1 443.3 440.4 439.3 437.2 434.4 429.3 424.6 420.9 417.8 414.6 410.3 400.3 408.7 409.1 406.3 405.3 404.8 401.2 395.3 387.5 380.2 371.8 363.6 354.3 342 325.2 307.8 290.5 278.2 267.8 258.2 247.1 237 237 237 237 237 237 255.5 277.8 298.6 314.3 323.2 329.7 334.1 341.4 350.9 360.6 375.5 385.5 390 395.3 403.9 408.6 409.4 409.5 408.7 407.2 405.8 409.5 412.2 416.7 423.7 429.7 434.6 438.6 442 443.9 443.9 443.5 442.6 441.5 440.8 442.1 445.5 451.9 461.1 474.9 486.9 499.8 504.3 505.1 503.7 503.2 502.1 501 500.7 498.8 496.4 496.8 498.3 502.4 512.6 514.1 511.2 507.9 504.9 501.9
472 475 476.6 476.4 475.4 474.6 473 471.2 468.1 463.8 459.4 452.6 435.6 410.2 382.5 357.2 332.9 343.4 360.1 382.3 406.1 432.6 457.2 474.6 480.1 483.8 486.6 488.5 489.1 489 487.2 484 478.5 461.8 444.6 430.1 453.2 475.9 484.9 488.9 492.1 494 495.9 497.1 498.1 498.3 498.1 496 494 492.1 490.1 487 482 479.7 479 477.6 476.1 472.4 465.2 456.3 441.7 424.5 416 408.7 398.9 386.6 358.6 327.9 299.8 292.9 283.7 289.9 304.5 321 323.1 326.4 349.9 363.5 376.8 382.7 383.6 387 398.5 414.3 422.6 464 475.8 474.4 472.3 469.1 481.2 479.3 476.1 472.3 468.4 463.7 458.3 454.3 451 447.3 444.7 441.9 439 436 433.9 432.7 430 424.5 421.5 418.8 415.4 412.2 408.4 403.3 396.2 400.3 400.6 401.7 401.3 397.1 390.9 383.3 375.3 368.4 362.2 353.3 340.8 324 307 291.8 279.9 270 260 249.1 239.5 237 237 237 237 237 243 262.2 280.8 296.9 310.6 319.4 325.4 331.4 338.8 350.3 361.6 381.3 386.8 392.5 400.7 409.5 412.9 413.8 413.2 411.8 411.2 413.3 416.6 422.5 429.4 434.3 437.3 440.8 443.5 443.5 443.4 441.7 439.6 438.2 436.8 438.4 441.7 446.9 454.3 465.1 477.6 493.3 501.4 502.1 503.5 506.4 509.5 509.4 508.6 506.5 504.6 505.6 508.3 513.2 515.8 514.2 511.3 507.9 504.8 502.5
466.8 469.6 470.5 470.9 470.6 470.1 468.5 466.7 464.2 460.7 456.8 452.2 443.5 415.8 386.4 358.2 332.7 341.3 358.7 380.7 405.9 433.3 457.4 475.2 479.9 483.6 486.9 488.5 489 489.1 486.9 481.8 464 445.5 428.2 430.1 450.7 473.6 483.9 488.5 491.6 493.8 495.9 497.1 497.4 497.4 496 494.1 492.1 490.1 487.7 484.1 476.4 468.1 469.7 468 459.5 450.3 441.3 432 422.6 405.5 394.3 391.3 385.1 376.8 366.8 339.2 304.1 294.7 283.6 281.9 292.8 304.3 315.1 314.6 335.9 355.7 368.1 378.2 395.5 390.3 400.1 402.6 413.3 454 473.8 475.6 471.6 465 473.9 477.4 474.4 470.4 466.7 461.7 456.2 452.5 448.8 444.3 439.6 436.7 430.9 428.1 425.7 423.8 421.9 419.6 417.3 414.5 410.7 408.2 405.2 399.2 384.1 382.2 392.9 396.5 396.2 391.4 384.8 375.9 368.3 361.3 352.4 339.5 326.7 315 302.1 289.2 278.5 269.2 258.9 250 241.7 237 237 237 237 237 237 245.4 262.5 279.8 295.2 302 309 318.6 328.6 339.5 353.2 368.8 382.1 388.7 396.7 407.7 416.2 417.6 417.3 416.2 415.2 417.3 421.8 428.4 434.7 437.8 440.2 442.5 443 442.6 441 438.6 436.6 434.6 433.6 434.1 437.9 443 448.8 457.9 470.6 486.6 496.6 497.8 500.7 507.5 516.7 515.4 510.3 510 511.8 516 517.8 518.7 518.2 515.2 511.9 508.6 506 502.5
460.8 463.4 465 465.5 465.7 465.2 463.6 462 459.9 456.8 453.4 448.2 435.6 410.3 382.7 355.3 332.7 339 356.4 378.7 405.9 432.4 455.6 474.9 480.2 483.5 486.3 488.2 488.6 488.1 485.7 473.3 450.8 430.9 413.7 432.1 452.9 474.1 482.8 487.2 490.9 493.7 495.7 496.4 496.5 496.4 494.9 492.9 490.9 487.9 484.6 481.5 473.2 451.5 446.6 447.6 437.8 429.3 417.3 407.9 395.7 377.4 367 364 360.8 355.4 350.8 341.5 309.7 295.3 283.2 281.9 285.2 300.4 307.7 311.3 322.6 329.5 344.9 359.9 381.6 388.7 394.7 400.4 419.7 450.8 462.8 473.9 473.3 464.9 469.4 476 472.9 468.9 464.6 459.7 454.4 449.6 443.5 436.9 430.5 429.3 423 417 409.8 406 400.9 397.9 396.5 396.4 393.7 395.8 396 393.2 387.5 357.5 368.1 378.2 385.6 384.8 375 366.8 357.2 343.6 331.3 321 310 298 287.7 278.4 269.3 260.3 252.7 245.5 238.6 237 237 237 237 237 237 237 244.2 260.6 276.3 288.8 294 301.6 316.6 329.6 342.8 355.8 372.9 382.8 391.2 402.9 412.9 419.2 420.5 419.9 419.7 421.6 427 433.8 437.3 440.4 442.5 442.1 441.6 440.4 437.8 435.9 434 431.9 430.7 430.7 434 439.2 444.9 453.8 465.8 478.8 490.7 493.1 496.1 503.4 511 507.9 508.9 512.1 519.5 523.7 522.7 520.6 518.5 515.7 512.4 509.3 506.6 504.1
455.2 457.4 458.9 459.4 458.7 458.7 457.1 455.8 453.9 451.4 447.3 441.4 426.4 401.1 374.8 350.2 330.5 337.7 354.4 377.3 403.6 429.2 452 472.6 479.2 482.4 485 487.2 487.9 487.1 482.3 459.3 438.8 420 414.2 431.6 454.2 471 481.5 486.6 490.4 493.3 495.1 495.8 495.7 495.4 494.2 492.3 489.5 485.9 482.6 478.1 467.9 444.4 426.8 425.3 416.9 408.2 394.8 382.7 367.9 355.1 343.9 343.5 339.2 333.7 329.7 327 313.5 299 286.7 286.4 280.3 284.4 301.3 311.5 315.7 322.2 333.6 349 365 381.8 386.4 395.3 406 423.8 442.6 448.4 470.5 459.2 472.9 474.5 471.8 468.3 464.2 459.1 454 448.7 440.7 426.5 415 415.5 409.5 396.7 389.5 382.3 378.8 375.7 374.5 374.1 371.1 370.8 374.2 379.3 384.3 363.8 339.7 352.7 360.2 368.7 363.1 351.2 336 323.6 311.8 301.4 291.3 281.2 272 263.9 253 246.6 238.6 237 237 237 237 237 237 237 237 237 237 242.2 257.1 268.2 277.2 291.7 306.7 320.5 332.3 345.5 357 374.6 385.3 396.7 409.7 419.7 423.1 424.1 424.6 427.2 431.8 436.3 437.7 440 440.8 439.6 438.5 437.2 434.7 432.4 430.7 429.5 428 428 431.1 436.1 442.5 451.1 462 471.9 483.3 487.7 491 494.2 497.9 502.2 507.7 516.1 524.6 526.9 524.8 521.2 519.4 517.5 515.1 511.9 509 506.3
449.5 451 451.9 452.9 452.3 452.3 451 449.3 446.8 443.6 440.2 434.5 418.6 391.9 367 344.5 326.7 335.6 354.7 374.1 399.3 424.7 448.1 468.7 476.7 480.4 483.4 485.5 486.8 486.1 479.4 452.3 429.5 409.5 412.9 433.7 454.9 470.4 480.4 485.1 489.5 492.2 494.1 495.2 495.4 494.6 493.9 491.3 488.4 485 480.5 473.5 457.1 436.3 417.8 408 396.2 385.1 373.4 361.6 354 343.4 335.4 330.1 329 325 319 311 302.5 288.5 291.9 288.6 283.5 278.1 300.8 305.6 309.6 317.1 331.1 349.1 361.4 382.5 388.9 404.7 410.6 413.8 420.9 434.1 442.6 445.8 465.1 474.3 472 468.5 464.5 460 454.7 449.5 443.1 433.4 419.9 396.1 387.1 377.8 370.7 357.8 355 351.5 352.4 351.8 350.8 351 353.3 358.4 365.3 359 330.1 329.3 337.9 345 342.9 330.7 319.5 307.4 294.9 284 275.6 265.5 256.1 248 240 237 237 237.9 239.9 241.8 242.1 237.9 237 237 237 237 237 237 241.9 252.9 266.5 282.6 299.1 312.1 323.2 335.4 348.3 361.6 379.1 391.3 405 417.7 425 427.7 429.6 431.7 434.4 435.5 435.6 434.5 435.6 435.5 435.7 434.3 431.7 429.6 427.7 426.7 425.7 425.2 428.5 432.6 439.1 447.6 457.2 466.3 476.5 482 486 488.5 489.8 498.6 506.4 517.1 524.3 525.8 524.2 522.3 521.2 521.3 517.6 514.8 511.5 508.5
439 440.6 441.4 442.8 443.7 444.3 443 440.2 438.9 437.3 433.4 427.6 410.4 384.7 362 342.4 325.1 334.4 353.3 369 392.6 414.6 437.9 461.1 472.3 477.1 480.7 483.6 485.2 485.1 475.5 447.4 423.7 397.5 411.2 431.4 451.3 466.1 477 481.4 486.2 490.2 492.8 494.3 495 494.9 494 491.4 487.8 484.8 481.5 476.1 468.2 457.7 446.4 431.6 417.4 405.1 393.7 380.8 367.4 356.2 346.1 338.1 331.3 323.2 316.4 312.2 308.8 304.1 295 288.3 278.3 285.4 295.8 299.4 299.8 304.4 316.4 334.7 356.3 370.8 381.3 391.2 396.9 405.1 411.4 420.2 427.8 434.1 465 472.9 471.5 468.6 464.5 460.4 455.6 450.7 444.4 437 426.9 415.2 412.1 405.9 397.1 385.1 370.3 354.8 339.9 329.2 328.5 329.9 334.2 337.2 345.1 350.8 331.1 309.3 320.1 324.9 325.5 316 304.8 293.3 282.7 271.6 258.8 250.5 244.4 241.2 245.2 248.5 251.6 253.9 256.7 259.3 257.3 247.6 237 237 237 237 237 237 237 241.7 257 274.9 292.1 302.2 311.9 321 337.7 351.3 372.1 386.8 402 416.4 429 430.5 431.7 433.1 433.8 432.8 430.5 428.8 429.5 429.2 430.4 429.9 428 426.4 424.7 423.5 422.3 421.9 425.3 429.3 434.6 442.4 452.2 460.3 468.6 476.8 480.8 482.9 487.2 495.6 505.8 517.8 523 524.8 523 522.6 523.3 529.1 531.2 525 517.7 513.1
423.6 422 423.5 425.8 429.3 431.6 431.3 430.5 429.5 427.8 425.1 420.7 401.6 381.7 360.1 339.9 322.8 336 351.7 365.7 382.7 403.2 425 442.6 458.4 470.1 477 481.2 483.4 483.4 474.3 444.6 420 393.6 403.6 423 442.2 455.4 461.8 471.6 480 486.7 490.3 492.4 494 494.6 494 492.9 490 487.5 485.2 483.1 478.9 475.2 468.7 458.1 444.9 433.3 419.6 406.5 393.8 380.8 368.5 358.7 350 343.7 336.4 332 325.5 317 304.5 292.5 286.3 279.1 289 293.5 294.9 295.4 305 319.6 339.5 353.9 362.7 370.8 378.8 390.8 397.7 411.8 423.4 437.6 457.4 469.7 471.1 468.2 464.6 460.5 456.5 451.7 446.3 440.4 434.2 428.2 424.9 421.8 416.2 406 394 380.3 365.6 348.4 331.8 318.9 308.8 314.1 322.5 332.5 330.9 310.6 299.2 307.7 307.8 301 290.8 281.6 272.3 260.3 249.7 243.5 250.8 258.2 262.2 266.3 270.5 273.4 276.3 279.1 277 262.4 244.3 237 237 237 237 237 237 237 245.5 261.2 274.8 283.3 291.9 304.4 319.5 338.8 358.6 383.3 399.3 413.5 427.5 430.8 432.1 432.3 431.3 428.3 425.1 423 422.9 423.4 424.8 424.2 424 422.5 421.2 420.3 419.5 418.8 422.6 425.5 429.7 436.7 445.8 454.4 462.2 470.5 475.6 478.3 482.8 492 504.2 513.9 520 523.8 521.5 522.1 524.8 532.5 529.8 524.4 520 515.4
401.3 400.4 401 402.2 405.3 412.1 417 414.6 409.7 404.6 397.5 395.3 389.6 378.7 359.8 338.6 323.4 335 349.5 361.5 373.9 386.2 394.9 418 436.2 446.2 460.2 474.3 479.3 480.8 475.4 446.1 420.9 398.1 392.2 405.7 419.4 427.9 436.4 447.1 462.2 478.5 486.5 490.1 492 493.1 493.7 493.1 491.8 490.5 488.8 487.7 486.4 483.8 479.9 474.8 466.3 456 438 424.6 414 401.6 389 378.8 369.7 363.2 356.9 353.1 347.7 330.1 308.8 298 289.6 283.7 277.1 284.6 286.4 287.8 292.7 302.6 319 334.3 344.5 354.7 363.1 373 383.5 386.8 408.8 427.4 451.4 466.3 471 468.3 464.9 460.9 456.9 452.6 447.8 443.6 439.4 435 432.1 428 423.4 417.9 411.7 401.3 387.5 372.9 347.7 322.5 322.2 311.6 297.9 311.6 314.9 316.4 299.2 285.5 293.8 288.5 280 271.4 261.3 252.2 251.4 261.6 270.9 278.4 282.3 284.9 289.2 292.8 296 297.2 288.8 270.6 252.2 237 237 237 237 237 237 237 238.1 247.8 256.2 266.5 277.3 292.4 311.2 333 351.1 379.4 396.8 411.3 423.9 429.9 430.6 429.8 426.2 422.7 420.4 418.6 418.5 419 419.6 420.1 419.6 419.1 418.2 417.4 416.6 416 419.3 422 425.3 429 439.4 448.5 454.9 460.6 469.9 474.6 479.1 486.6 497.7 508 514.8 519.7 519.4 520.3 528.7 529.7 528.6 526.6 521.4 516.5
379.8 384.5 388.8 389.3 392.6 392.1 394.5 394.4 389.7 384.3 387.8 385.8 381.6 370.5 357.8 336.8 318.8 333.8 346 354.8 364.6 374.1 382.5 386.8 415.5 426.1 437.6 453.5 471.9 474.9 475 452.1 424.3 402.9 383 388 397.3 407.6 416.1 425.7 439.3 458 479.3 486.8 489.4 491.3 492.5 492.7 493 492.6 492.4 491.5 490.9 489.7 487.9 484.6 481.4 475.3 455.6 445.9 439 427.2 415.5 403.6 392.5 385.8 381.8 378.5 360.9 334.8 311.5 301.5 293.7 287 279.4 274.8 274.9 280 287 296.3 305 317.1 328.2 336.9 346.5 355.2 360.7 365.1 394.9 416.7 441.8 462.9 470.8 468.8 465.2 461.4 457.4 453.6 450.1 446.4 442.5 438.9 435.3 431.3 427.1 422.2 416.6 408.2 397.7 374.5 344.6 348.3 342.5 328.4 311.3 294.8 296.7 308.3 311.2 294 276.8 272.4 269.9 262 254.3 259.2 271.4 282.3 291.6 298.3 303.3 305.2 309.9 313.5 314.7 307.5 294.3 275.4 257.7 240.8 237 237 237 237 237 237 237 246.2 266.1 281.2 289.9 296.9 309.7 328.8 351.1 379.1 396.7 409.9 421.1 426.5 427.7 425.5 421.4 418.5 416.2 414.5 414.6 414.9 415.4 415.9 415.8 415.5 415.1 414.3 413.4 412.9 416.2 417.7 420.2 424.7 433.6 439.8 445.4 453.2 463.4 470.6 475.6 482.1 492.9 501.2 509.3 516 517.1 518.2 525.8 527.2 526.6 524.9 520.5 516.5
360.9 360.1 362.8 364.3 369.5 374.5 382.1 377.8 371.9 371.2 372.1 374.9 371.7 360.5 349.9 331.6 319.8 329.6 340.6 347.1 355.6 363.6 370.7 376 382.1 396.6 417.8 433.7 452.1 466.4 471.5 463.2 434.5 410.8 392.1 372.5 382.2 390.3 398.4 408.8 424.1 442.9 466.1 481.8 486.4 488.9 490.7 492.5 493.7 494.9 494.7 494.2 494 493.4 492.6 490.9 490.4 487.7 481.3 472 464.7 454.5 445 431.5 420.2 413.3 408.6 395.9 370.7 344.6 319.2 306.6 298.7 291.7 286.2 277.5 273.1 274.3 282.8 292 301.4 311.9 319.6 327.3 337.7 344.7 349 348.6 382.2 405.3 427.3 454.9 468.5 469.3 465.6 461.7 458.2 454.9 451.4 448.4 445.6 441.9 438.4 434.1 429.1 424.4 418.9 409.8 390.9 373 370.3 369.9 360.4 344.9 326.5 304.8 290.1 286.8 291.5 293.4 279.4 268.9 263.8 260.7 270.1 280.9 292.7 303.3 312.6 319.1 323.8 326.7 329.3 327.6 321.3 313.2 297.2 276.5 259.2 245.2 237.2 237 237 237 237 237 237 253.2 278.4 293.9 303.8 312.3 322.3 333.3 353.6 380.3 396.5 410.2 419.5 423.7 424.2 420.6 417.6 414.6 412.6 411.4 411.3 411.6 411.9 411.9 412.1 412.2 411.8 410.9 410 410.2 412.3 413.8 415.9 420 424.6 429.9 435.3 444.5 458.2 467.5 472.3 477.7 485.6 494.6 503.6 510.7 514 515.2 522 522.8 524 523.4 520.3 516.4
342.3 351.8 354.9 356.8 353.7 353.9 353.2 348.2 347.6 344.1 345.7 344.8 346.2 339.8 333.2 322 318.9 324.3 333.9 340.2 346.7 353.8 360.3 366.5 375.5 382.7 394.1 419.2 433.9 452.3 464 468.2 448.8 422.8 401.8 384.9 368.8 374.9 382.7 395 412 431.9 453.5 476.6 482.5 486.2 488.8 491 492.7 494.7 496 495.9 496.2 496.3 495.8 495.9 496.8 497.2 495.1 492.1 490 482.8 469 458.5 446.9 440.5 425.6 407 380.4 353.8 328.5 312.9 303.4 296.1 289 281.2 271.3 276.6 282.8 290.4 297.1 307.5 320.4 327.6 335.5 340.4 344 342.8 369.6 394.9 415.1 438.8 460.1 469 466 463.3 460.6 457.3 453.9 451 448 444.9 441.5 437.4 432.2 425.3 420.2 408.4 395.3 398.3 394.1 389.9 381 360.3 335.2 311.5 297.2 287.6 274.1 276.8 272.2 263.3 266.5 279.6 290.8 301.9 314.4 324.6 333.9 339.4 342.7 342.9 338.4 329.9 324.8 319.5 301.3 279 255.4 246.2 239.9 237 237 237 237 237 237 256.7 284.3 302.5 316.3 325.2 333.1 343 359.9 384 398.8 411.7 418.1 420.1 418.8 416.7 414.1 411.3 409.7 408.5 408.2 408.7 409 409.1 409 409.1 408.5 406.9 406.1 407.6 409.2 409.6 411.7 413.9 416.5 418.9 427.9 442 454.6 463.8 467.3 472 478.7 487.3 495.9 504.1 510.1 512.5 516.6 520 521.5 520.9 518.6 515.2
364.3 353.6 344.3 344.2 341.6 338.1 335.5 334.4 331.9 332.9 333 326.9 325 321.9 320 316.6 314.5 317.1 325.6 334.7 339.2 344.6 350.9 358.6 365.7 374.7 392.9 406.7 420.9 436.4 450.8 461.3 462.6 440.9 417.2 396.6 378.8 364.7 370.4 385.2 403 421.3 441.9 467.6 479.3 483.2 486.3 488.5 491.7 494.3 495.8 497 498.3 498.7 499 500 501 502 501.8 499.1 496.1 493.6 489 482.2 470.8 457.7 433.5 405 378.5 358.3 339.5 320.7 309.5 300.5 294.3 284.8 274.5 271.7 279.3 284.9 290.2 301.6 315.8 327.2 334.1 339.2 347.2 341.2 353.4 385.7 406.4 428.6 450.8 465.8 466.5 466.8 465 461.7 457.7 454.5 451.2 447.6 443.6 439.3 434.2 428.4 420.7 411.6 409.4 406.6 402.5 397.7 386.9 362.6 335.5 320.4 307.5 298.3 292.7 283 274 272.5 286 298.3 311.2 323.2 336.4 349.5 355.6 355.4 354.9 351.2 342.8 333.1 323.5 312.1 292.7 272.1 253.3 245.6 237.1 237 237 237 237 237 237 260.7 288.5 309.5 324.7 336.4 344.7 354.4 374.8 390.8 401.8 411.6 415.6 415.9 415.1 413.2 410.5 407.8 406.6 406.1 405.4 406.1 406.3 406.4 406.3 406.2 405.3 400.4 397.1 404.6 405.7 405.3 405.9 407.9 409.6 411.8 427.4 438.3 450.5 459.3 462.7 465.3 470.3 477.2 486.5 498.1 506 507.9 513.1 517.4 518.1 516.4 515 511.9
390 373.3 355.4 351.9 345.5 349.2 345.7 342.2 345.4 344.5 337.1 337.2 337.9 336.9 333 326.4 314.1 313.6 318.3 323.6 330 335.7 343.8 352.8 357.3 361.9 379.6 393 410.4 426.4 439.6 450 458.5 455.3 435 407.7 384.2 366 358 375.5 393.7 412.3 430.9 452.6 473.2 479.6 482.8 486.6 490 492.4 494.6 496.3 498.6 499.9 500.8 501.7 503.1 504.1 504.6 503.6 499.2 495.8 493.1 488.7 481.1 461.7 433.5 416.3 397 376.7 355.3 332.9 318.8 306.7 298.4 288.8 278.5 270.3 276.9 280 286.3 295 309.6 322.4 331.9 335.6 342 340 344 374.3 398.5 421.3 443 462 468.1 470.4 468.6 465.2 460.4 456.7 453.1 449.3 445.1 440.7 436.1 430.9 425.8 420.7 416.6 412.2 407.4 402.2 392.8 367.9 351 338.2 323.4 315.1 310.6 300.9 284.9 282.5 299.1 316.3 330.7 346.4 359.6 367.6 369.9 368 363.2 355.6 346.3 334.9 321.6 302.5 282.9 267.5 252.9 245.5 237.2 237 237 237 237 237 239.7 267.2 292.9 315.4 331.7 344.8 356 370.3 384.3 395.4 403.1 408.5 411.5 411.7 411.4 410 407.3 404.9 403.5 402.8 402.5 403.3 403.6 403.7 403.6 403.2 402.3 391 397.4 399.7 401.2 400.2 400.4 401.8 403.1 414.7 424.6 434.6 446.1 455.1 457.6 459.9 464.5 471.1 481.4 492.4 501.5 505.3 510.8 514.4 513.9 511.8 509.1 505.9
418 395.7 379.3 386.6 379.5 377.9 374.8 375.4 376.1 374.6 370.5 366.2 363.6 361.6 355.9 344.5 338.6 327.7 312 317.7 321.2 326.6 333.6 341.2 344.3 352.3 368.1 382 398.6 415.3 430 441.4 447.8 447.2 438.1 414.8 387.6 366.8 355.1 367.9 384.8 403.4 421.8 442.2 467 473.9 479.2 483 486.6 489.5 491.4 493.4 496.5 498.9 500.8 502 503.1 503.7 503.9 503.9 501.2 497.2 493.9 490.6 485.4 472.4 450.3 434.7 416 395.6 372.3 347.3 327.7 315.1 304.2 293.7 282.4 271.1 274.2 278.6 282.8 288.5 298.6 314.5 327.7 331.8 337.5 337.9 341.4 367.4 391.9 414.4 436.6 457.6 469 472.4 470.4 467 462.8 458.9 455.3 450.7 446.1 442.2 438.2 433.5 429.1 425.2 421.3 416.8 411.9 407 399 388.2 379.8 360.7 343.7 339.3 332.5 314.6 298.1 285.9 308.6 331.3 348.9 362.8 372.3 378.3 378.2 375.5 370 360.6 349.8 336.3 318.7 297.8 278.2 264.5 252.7 245.3 237 237 237 237 237 237 245.1 273.9 299.5 322.8 338.5 351.3 367.6 380 390 396.5 399.8 403.8 406.3 407 406.7 405.9 404.1 401.8 400.4 400.2 399.8 400 400.7 400.9 400.5 400 399.1 390.8 381.9 390.5 395.4 393.2 392.9 394.8 402.9 410.2 419.8 429.4 440 450.8 452.1 454.8 460.2 466.7 476.2 486.8 497.2 503.1 508.1 510.5 509.6 507.9 505.1 501.7
424.4 390 409.7 413.3 409.5 406.7 406.6 406.4 403.7 399.6 395.3 392.6 390.7 388.4 377.5 360.5 348.1 340.7 333.8 321.2 319.5 324 322.3 326.6 329.3 333.9 353.7 369.5 386.3 405.4 420.9 431.3 435.2 436.9 432.4 420.2 395.1 368.3 351.9 360.4 375.6 396.3 414.1 434.6 460.8 461.9 472 476.6 480.5 482.9 484.7 488 492.2 495.3 498 500.2 501.7 502.6 503 502.9 501.3 497.3 494.5 491.8 487.7 481.1 468.8 450.5 432.5 410.8 386.5 362 338.3 323.6 309.7 297.7 286.1 274.6 268.6 276 279.6 284 291 304.6 318.8 323.9 327.4 329.1 334.3 355.8 384.9 409.1 432.2 454.4 471.3 474.1 471.8 468.4 464.8 461.2 458 452.4 448.5 444.6 440.6 436.5 432.8 428.8 424.8 420.8 416.4 411.8 406.4 401.6 394.6 384.4 375.9 360.8 347 335.6 302.6 295 317.3 342.7 360.7 373.7 382.7 385.1 383.8 381.9 376 366.6 353.5 335.6 317.7 296.3 275.9 261 252.2 241.8 237 237 237 237 237 237 251.5 278.7 306 329.8 344.5 360.8 375.4 381.3 389.2 395 397.2 399.6 401.4 402.1 402.4 402.4 400.9 399.3 398.1 397.1 396.9 396.9 397.3 397.5 397.3 396.6 396 393.7 374 366.2 375.9 367.9 386.5 392.7 397.8 405 414.4 423.8 433.8 445.3 445.7 450.1 456 462.6 471.5 483.8 494.4 501.9 506.3 505.8 505.1 504.3 501.9 499.5
425.3 415.1 429 430 427.9 427.1 426.9 427.7 427 425 421.7 418.1 413 406.3 395.4 376.4 361.8 350.7 340 330.6 320.1 308 317.5 316.2 322.5 324.6 334.3 354.1 370.3 390 410.9 418.6 421.9 421.7 419.1 412.3 392.4 373 346.4 359.8 368.1 383.3 405.8 424.7 438.4 442 445.7 459.6 461 459 457.8 459.4 477.1 489.7 493.3 496.6 498.5 499.9 500.5 500.3 499 495.5 492.2 491 487.9 483.5 475.7 462.2 445.8 424.7 400.8 375.5 347.3 326 314 298.6 286.9 277.5 267.4 271.2 275.2 278.9 285 293.8 306.1 312 317.7 327.6 337 348.3 380.5 405.3 428.7 451 471.9 475.6 473.1 469.6 466.6 464.2 461.4 457.2 452.6 448.5 444.6 440.8 436.8 431.9 427.6 423.3 420.3 417.2 412.9 406.8 401.6 395.2 389.3 378 346.2 335.7 308.5 304.6 327.1 350.8 369.1 380.6 388.5 388.5 387.3 386 379.2 369.8 355.5 336.2 315.6 295 275.2 259.3 251.7 243.7 237 237 237 237 237 237 256.7 284.7 313.3 333.9 347.2 363.2 373 377.1 383.8 391.3 393.8 395.3 397.2 398.6 399.2 399.5 398.8 397.4 396.1 393.1 394.1 393.9 393.6 393 392.7 391.9 388.8 372.3 352.5 343.7 346.4 354.3 363 382 393 397 404.1 413.9 427.5 439.6 439.8 447.3 455 460.9 470.6 480.7 491.7 498.2 501.6 502.4 503.2 502.2 499.8 497.5
432.8 431.9 436.2 437.8 437.5 436.9 435.9 435.7 434.4 432.1 429 425.4 420.2 415.7 407.9 393.3 378.5 364.2 351.1 339.2 331 322.7 307.6 313.3 311.2 315.4 321.5 339 350.1 374.8 397.6 404 407.5 405.7 403.1 395.4 381.3 369.2 357.5 368.6 370.7 382.7 392.1 408.2 417.8 428.3 428.3 430.1 431.4 437.4 441.6 444 442.7 467.6 486.5 491 493.6 495.4 496.9 496.6 494.3 492.8 489.8 488.9 486.7 483.2 477.6 470.1 453.8 434.7 412.6 386.9 355.5 327.1 315.1 301.5 289.7 279.7 271.6 266.8 269.4 274 279.3 285.9 294.7 303.1 315.2 324.7 345.4 350.7 379.1 403.3 427.1 450.7 473 477.4 474.8 471.6 471.7 471.5 469.9 464.9 459.3 454.7 450.5 446.1 441.2 436.3 430.7 426.1 423 419.5 415.8 411.1 404.9 400.3 394.5 386.1 355 330.1 314.4 314.8 337.2 358.3 375.2 386.1 392.3 390.9 389.3 386.1 379.2 370.4 354.5 333.5 316.6 296.1 273.4 259.7 253.1 245.5 239 237 237 237 237 237 259.7 286.6 313.6 334.5 344.5 353.4 364.7 370.5 377.8 384.2 387.3 389.6 393 395.7 396.9 397.6 396.8 395.8 393.6 388.5 390.1 390 389.5 389.5 388 384.3 362.1 344.8 329 346.3 361.3 371.9 378.6 369.9 380.6 390.2 411.7 424.7 438.3 444.5 447.4 451.2 455.3 460.5 470.2 480.8 490.1 496.2 499 500.1 501.6 501.6 499 495.8
430 438.7 442.1 444.2 444.3 444.8 444.5 442.2 440 436.8 434.1 430.9 426.8 422.8 417.4 410.1 397 384.7 369.6 354.2 340.4 331.5 322.4 306.5 303.1 307 314.1 322.8 337.4 358.9 376.8 382.9 388.9 390 388.3 383.7 378.7 363.3 352.4 370.3 377.6 385.7 387.7 402.1 413.2 416.8 415.3 421.3 430.4 435.2 439.2 443.1 440.2 446.7 470.7 483.1 486 489.3 491.8 490.7 488.4 486.8 484.8 484.3 481.3 478.2 475.3 470.1 458.9 441.1 420.2 394.5 364.8 337.4 316.2 302.4 291.2 291.3 280.2 272.7 264.8 263.1 271.1 279.7 290.3 295.9 311.5 323.5 340.3 356.8 372.8 403 426.6 451.9 471 478.2 476.2 475.9 480.4 480.3 477.4 473 468.7 462.7 457.4 452.2 446.3 439.8 433.8 429 425.6 421.6 417.7 413.3 408.3 402.8 397.6 389 363.7 331.7 316 327 347.8 365.8 380 392.1 396.1 393.3 389.8 385.3 378.9 370 354.5 331.8 316 295.9 273.8 263.7 256.1 246.7 237 237 237 237 237 237 259.1 285.5 310.7 328.6 337.7 343.8 349.8 358.5 365.4 371.6 376.4 382.9 388.7 392.9 394.6 395.7 395.2 394.6 392.2 387 383.6 385.7 385.6 385.9 382.5 362 340 326.6 340.5 365.1 382.8 388 391.5 391.3 393.4 402.2 414.2 427.8 438.8 442.5 446.4 450.3 454.4 461.2 470.9 481 488.5 493.8 496.2 499.8 501.8 501.2 498.4 495.2
438.6 444.2 446 447.6 449.4 451.6 451.2 449.3 444.5 440.4 437.3 434.7 432.4 428.9 424.9 420.1 412.8 405.1 390.9 373.7 357.4 342 332.6 321.8 304.6 302.6 307.4 314.5 324.9 344.8 364.3 372.5 377.7 379.1 378 373.8 371.2 350.7 344.3 365.7 372.8 381.1 383.8 396.8 409.8 417.2 421.2 423.4 428.7 434 438.7 445.5 442.9 440.7 450.8 466.3 475.6 479.4 480 480.6 481 479 477 475 470 468.5 467.4 464.1 456.3 446.4 427.8 404 379.9 349.6 319.8 303.8 299.7 301.4 285.5 278 264.2 263.8 264.7 275.2 282.6 292.1 303.8 319.7 342.6 366.5 384.6 402.9 425.5 452 469.6 478 478.4 478.4 481.9 483.3 480.5 478.1 473.7 466.8 460.3 454.6 449.3 442.9 437.1 432.3 427.7 423.1 418.8 414.7 410 404.3 398.4 391 368.8 340 316.1 342 361.1 375.2 387.2 396.2 397.2 395.2 391.8 386.4 380.2 371.5 358.6 334.8 316.1 297.8 279.7 269.6 259.4 247.6 237 237 237 237 237 237 254.7 278.6 301.9 320.3 329.5 332.9 336.5 342.2 346.1 345.4 349.4 371.5 385.9 391.2 393.6 395.3 395.1 394 391.3 387.9 379.1 375.6 380.3 381.1 368.4 341.7 323.9 326.2 348.9 375.9 384.4 389.1 393.8 401.6 409.4 414.2 421 433.3 437.8 440.7 444.5 448.5 453.2 462.6 470.8 478.9 484.5 491.1 496.5 500.3 501.9 500.9 498.4 495.1
448.1 450.1 451.6 452.7 454 455.3 455.5 454.9 451.2 445.4 440.7 437.2 434.9 432.1 429.6 426.4 422.2 415.9 409.5 394.9 376.8 359.6 342.2 330.9 322.8 309.5 301.1 306.8 313.6 330 346.6 359.9 371.3 370.9 370.4 366.2 363.2 333.4 350.4 366.7 367.1 369.8 378.4 392.7 407.5 416.2 417.9 417.8 421.3 424.7 430 434.5 433 427.9 436.9 440.2 451 457.6 458.6 461 459.8 465.1 464.9 459.9 456.7 454.6 453 449.8 447.2 440.4 431.1 417.5 395.7 349.9 318.6 309.8 302.3 298.9 289.9 281.5 262.5 262.7 263.8 271.7 279.2 291 302 316 336.5 362 387.1 395.8 421.4 445.3 471.4 476.2 478.1 478.4 479.7 481.8 481.3 479.5 474.7 469.9 463.5 456.8 451.5 446.5 441.2 435.5 430.6 425.1 419.4 415.4 410.8 404.4 397.9 390.7 369.4 342.4 338.4 355.9 373.7 383.8 392.7 398.2 398.6 397 393 387.8 381.7 374.8 362.9 340.3 322.7 303.2 286.2 273.6 260.6 248.2 237 237 237 237 237 237 245.7 268.9 289.1 308.7 317.9 320.2 323 327.1 330 327.4 350.5 373.2 386.8 391.4 394 395.3 394.8 393.3 390.9 388.2 384.5 373.1 366 372.5 350.7 328.5 313.1 334 356.5 378.8 384.5 388.8 395.4 406 412.1 415.7 422 431.8 436.8 438.7 444.6 454.8 460.5 463.8 467.9 474.7 485.4 492.7 497.6 500.8 502.4 500.5 498.5 495
