ncols 200
nrows 92
xllcorner 190000
yllcorner 743850
cellsize 50
-1.1 -1.1 -1.1 -1.1 -1.1 -1.1 -1.1 -1.1 -1.1 -1.1 -1.1 -1.1 -1.1 -1.1 -1.1 -1.1 -1.1 -1.1 -1.1 -1.1 -1.1 -1.1 -1.1 -1.1 -1.1 -1.1 2.1 6.1 10.9 24.6 33.8 37.5 40.7 36.6 27.2 8.8 1.1 -1.1 -1.1 -1.1 -1.1 -1.1 -1.1 -1.1 -1.1 -1.1 1.2 -1.1 -1.1 -1.1 -1.1 -1.1 6.6 9.7 11.9 20.1 21.3 32.5 45.4 73.3 95.9 118.9 127.4 125.9 130.8 143.9 153.3 152.6 160.9 168.6 181.8 181.1 184.7 195.6 219.8 229.9 233.5 231.4 211.8 208.5 208.8 199.5 178 162.5 147.8 138.5 121 112.1 112.8 105.6 111.4 127.5 138.1 148 164.7 173.5 187.2 192.1 209.3 226.9 233.7 240.6 255.5 266 293.1 303.2 315.2 329.4 345 346.1 359.7 376.9 378.5 379.2 377.3 383 394.9 399.2 405.7 391.4 394.1 396.8 396.6 392.6 417.3 440.1 442.2 439.4 432.7 424.5 421.3 412.8 402.1 395.2 392.2 397.9 414.3 423.5 419 424.1 426.2 402.6 401 389.4 383.9 369.7 349.1 323.5 306.2 299 291.3 287.7 265 245.9 233.1 207.6 200.4 206.9 213.8 220.3 230.1 229.6 231.8 236.1 243.4 232.7 220.7 212.3 207.6 203.3 197.5 192.4 183.2 177.3 168.3 163.6 154.8 152.6 151.6 149 150.1 150.9 149.3 152.3 152.9 151.7 152.3 152.4 155.2 157.7 159.7 161.3 162.9 166 168.8 174.3 178.8 180.3 184.9 191.5
-1.1 -1.1 -1.1 -1.1 -1.1 -1.1 -1.1 -1.1 -1.1 -1.1 -1.1 -1.1 -1.1 -1.1 -1.1 -1.1 -1.1 -1.1 -1.1 -1.1 -1.1 -1.1 -1.1 -1.1 -1.1 -1.1 1.7 7.2 10.2 21.2 31.3 34.8 35.9 30.7 13.3 5.2 -1.1 -1.1 -1.1 -1.1 -1.1 -1.1 -1.1 -1.1 -1.1 8.9 -1.1 -1.1 -1.1 -1.1 -1.1 -1.1 7.7 10.8 13 28.3 24 37.9 55.6 83.3 108.7 121.9 128.5 141.4 154.1 154.1 164.6 161.2 173.2 173.4 187.7 191.3 194.2 206.7 226.7 235.3 229.2 216.7 200.2 198 193.4 173.9 158.8 145.6 137.6 118.2 110.5 105.5 106.5 112.9 129.1 139.4 145.4 157.8 171.8 185 194.3 207.8 219.9 233.2 240 251.1 263.4 279.7 300.5 314.8 328.8 349.4 360.6 364.2 365.7 379.4 380.4 381.4 392.7 405.9 402.6 408.2 394.5 395.3 398.3 400 398.4 404.2 430.6 434.5 434.4 433.6 431.6 431.7 415.8 406.2 397.8 394.5 391.6 406.1 416.1 411.7 415.4 412.7 407.7 392.6 383.5 376.9 370.7 356.2 329.1 300.8 293.8 287.6 283.9 266.9 245.2 232.5 224.8 204.1 190.3 194 204.2 214.3 220.2 224.6 231.8 231.4 238.4 226.6 211.9 205.9 201.5 194.6 186.6 179.2 170.1 165.1 156.7 151.4 147.7 147.6 147.8 147.6 147.8 148.1 149.3 150.4 150.8 150.5 152.8 156 159.9 162.7 164.9 169.9 169.1 171 168.1 169.7 173.7 175.4 178.7 184
-1.1 -1.1 -1.1 -1.1 -1.1 -1.1 -1.1 -1.1 -1.1 -1.1 -1.1 -1.1 -1.1 -1.1 -1.1 -1.1 -1.1 -1.1 -1.1 -1.1 -1.1 -1.1 -1.1 -1.1 -1.1 -1.1 -1.1 10.5 10.5 22.8 31.3 29.5 28.5 19.4 8.1 3.9 -1.1 -1.1 -1.1 -1.1 -1.1 -1.1 -1.1 -1.1 -1.1 5 -1.1 -1.1 -1.1 -1.1 -1.1 3.9 8.1 11.3 23.9 24.5 28.8 42.1 66.2 96.1 115.2 121.7 136.4 145.9 162.9 163.6 166.2 168.4 179.4 179.8 197 199 197.9 212 220.8 217.5 211 199.4 194.4 196.7 179.4 158.9 144.6 132 109.4 106.7 100.4 110.3 115.8 126.3 137.4 145.4 155.7 172.8 183 205.5 203.1 218.7 230.3 240.8 247.5 258.7 271 288.4 309.7 324.7 343.4 364.2 372.6 373.3 371.8 378.9 384 393.6 413.2 417.7 407.2 394.7 394.6 398.5 399.4 402.5 406.3 419.3 429.6 431 434.6 434.9 435.9 426.7 410.6 403.4 398.5 392.5 396.4 414.8 414.2 407 403.6 402.2 394.7 382.9 372.7 362.4 351.1 338.4 306.6 296 287.6 277.4 264.5 241.7 235.2 219.9 209.5 191.4 182.3 187.7 195.6 208.3 219 221.2 223 226.4 222.7 215.8 203.2 198.4 190.6 180 175 166.6 160 151 147.2 145.6 145.3 145.9 147 147.5 148 147.2 148.5 150.1 154.5 158.9 161.9 167.5 174.3 175.9 176.3 177 179 178.2 175.7 169.4 170.9 173.8 176.6 179.1
-1.1 -1.1 -1.1 -1.1 -1.1 -1.1 -1.1 -1.1 -1.1 -1.1 -1.1 -1.1 -1.1 -1.1 -1.1 -1.1 -1.1 -1.1 -1.1 -1.1 -1.1 -1.1 -1.1 -1.1 -1.1 -1.1 -1.1 8.8 10.3 22.7 26.9 25.3 18.1 10 4.6 2.2 0.9 -1.1 -1.1 -1.1 -1.1 -1.1 -1.1 -1.1 2.9 7.1 -1.1 -1.1 -1.1 -1.1 -1.1 5.6 7.8 12.7 25.2 25.9 34.8 49.7 75.1 102.3 118.4 131.5 142.4 153.7 166.5 171.1 166 171.9 177.2 197.5 209.1 203.3 206.4 217 216.6 212 205.7 192 192.2 187.4 164.8 144.7 131 118.9 106 106.3 108 117 129.6 139.7 141.9 150.9 163.1 179.5 197.1 206.9 208.9 227.1 241.3 247 254.8 268.6 283.6 297.3 318.5 338.3 357.1 369.6 373.6 379.4 378.6 386 397.3 410.1 419.2 422.5 401.7 394.6 394.6 397.5 399 403.1 413.1 421.4 427.1 437.3 436.6 435.1 431.2 422.1 411.9 409 395.3 387.9 400.6 414.1 420.1 405.6 391.6 391.7 384.2 371.7 365.6 360.8 340.4 310.1 288.7 281.5 270.6 262.3 249.8 236 225.2 207.7 187.2 181.2 180.9 186.5 194.8 207 204.8 211.5 211.9 213.5 211.7 202 192.9 187.9 178.6 168.1 162.9 154.6 150.1 145.8 144.5 145 145.9 145.9 146.2 148.1 148.9 151.3 161.2 171.1 176 174.6 180.7 182.5 186 189.5 191.8 193.5 197.4 194 185.1 179.8 174.3 173.5 176.1 186.9
-1.1 -1.1 -1.1 -1.1 -1.1 -1.1 -1.1 -1.1 -1.1 -1.1 -1.1 -1.1 -1.1 -1.1 -1.1 -1.1 -1.1 -1.1 -1.1 -1.1 -1.1 -1.1 -1.1 -1.1 -1.1 -1.1 -1.1 -1.1 10.1 20.4 23.2 13.3 11 6 2.2 1.1 0.3 -1.1 -1.1 -1.1 -1.1 -1.1 -1.1 2.9 5.9 9.6 -1.1 -1.1 -1.1 -1.1 3.5 6.5 11.1 20.1 27.1 30.9 37.8 55 81.7 108.9 122.8 137.7 149.3 162 172.9 177.7 168.1 172.2 189.6 209.2 206.6 210.8 210.1 213.3 217.1 206.7 194.1 189 191.7 167.8 148.6 131.7 125.1 115.9 104.7 101 119.3 123.6 136 143.8 150 157.1 173 186.5 201.6 205.5 223.6 241.2 247.9 254.8 263 275.5 293.8 310 326 350.7 363.3 376.1 381.5 386.5 390.1 397.9 409.7 417.8 425.6 413.9 398.5 394.6 394.6 396.7 399.9 409.3 418.6 424.6 430.4 444.6 441.2 436.2 432.8 423.2 420.4 406.1 387.7 389.5 414.9 419.1 401.2 388.6 381.1 380.7 371.5 367.9 366.3 353.6 323.2 287.4 276.6 263.6 257.6 244.5 225.9 226 212.4 192.5 174.7 177.6 185.4 197 194.9 196.8 198.6 204.5 208.7 205.8 196.6 187.4 182.4 177.1 166.3 157.1 150.2 146.7 144.9 144.7 144.1 145.4 146.4 148.4 150.9 153.8 160.6 169.4 175 188.3 195 194 199.6 204.1 206.6 204.6 209.6 216.1 214.6 210.9 199.7 189.3 184 181.4 188.5 198.2
-1.1 -1.1 -1.1 -1.1 -1.1 -1.1 -1.1 -1.1 -1.1 -1.1 -1.1 -1.1 -1.1 -1.1 -1.1 -1.1 -1.1 -1.1 -1.1 -1.1 -1.1 -1.1 -1.1 -1.1 -1.1 -1.1 -1.1 -1.1 10 9.9 10.7 9.5 6.7 2.1 1 -1.1 -1.1 -1.1 -1.1 -1.1 -1.1 -1.1 -1.1 4.8 9.2 12.5 1.3 -0.2 -1.1 1.1 4.2 7.7 14.4 24.7 31.3 39.4 43.7 58.5 89.7 114.9 130.7 145.1 151.7 166 176.2 173.4 171.3 176.7 204.3 207.7 205.4 211 204 216.9 215.8 196.7 181.1 182.1 172.4 149.6 135.5 123.2 109.4 99.8 101 114.1 123.3 134.2 144.2 157.4 153.9 161 180.5 195.8 206.9 215.4 232 240.8 250.2 256.3 268.6 290.9 305.7 318.8 335.2 357.7 370 380.8 387.1 392 399 406.7 413 419.1 424 407.2 400.5 394.6 394.6 396.5 406.7 413.1 431.4 442.8 446.8 443.4 438.9 436.6 433.6 420.3 405.2 388.6 380.9 392.1 396.8 391.3 380.2 377.1 375 368.8 362.6 359.1 351.9 324.5 292.5 276.3 260.3 252 235.5 219.9 220.3 219.6 200.2 183.6 167.1 175.8 190.9 199.6 186.1 188.7 193.3 200.7 201.6 189.8 179.3 174.7 172.4 161.8 151.6 146.7 145.6 143.4 144 144.2 146.2 148.6 151.2 154.7 161.1 170.7 181.1 187.3 190.5 198.3 204.7 211.1 217.4 221.5 224.2 224.9 229.7 236.3 235.1 229.4 216.4 206.5 201.5 196.4 205.7 205.7
-1.1 -1.1 -1.1 -1.1 -1.1 -1.1 -1.1 -1.1 -1.1 -1.1 -1.1 -1.1 -1.1 -1.1 -1.1 -1.1 -1.1 -1.1 -1.1 -1.1 -1.1 -1.1 -1.1 -1.1 -1.1 -1.1 -1.1 -1.1 1.6 5.7 4.7 4 2 -1.1 -1.1 -1.1 -1.1 -1.1 -1.1 -1.1 -1.1 -1.1 -1.1 5.7 12.7 10.2 1.9 1.4 1.6 2.7 5.5 13.4 20.3 29.3 38.1 43.1 45.7 64.6 99.5 121.5 139.3 148.8 155.9 165.9 168.8 171.5 170.2 184.2 204.9 202.4 203.3 199 201.7 214.6 207.9 188.6 168.4 169 155.5 140.2 125.9 115.3 101.8 109.1 117 121.3 128.2 142.8 156.6 158.5 158.3 179.2 201.1 210.5 219.3 235.2 243.3 250.7 253.3 259 267.6 288.4 313.1 330.4 342.8 363.4 377.7 385.9 391.6 397.3 404.4 417.5 429.1 433.9 421.8 404.6 401.5 394.6 404 413 412.9 424.7 439.9 444.7 443.6 441.1 440.3 439.2 435.7 405.6 392.8 379.4 371.1 372.2 375.4 373.1 370.3 366.6 365.7 358.1 355.6 346.2 329.2 296 281.2 263 250.2 240.7 217.7 210.2 222.1 199.4 186.2 171.6 164 177.3 183.7 187.5 177.2 185.6 188.5 189.7 180.3 170.9 166 163.8 158.7 148.2 143.6 144.5 144.5 143 146.8 149.7 153.4 156 159.6 168.1 185.5 191.8 200.3 207.8 209 217.7 219.6 224.7 228.7 238.1 247.4 251.2 261 266.2 263.7 254.6 238.2 227.5 221.7 220.6 228.2 226
-1.1 -1.1 -1.1 -1.1 -1.1 -1.1 -1.1 -1.1 -1.1 -1.1 -1.1 -1.1 -1.1 -1.1 -1.1 -1.1 -1.1 -1.1 -1.1 -1.1 -1.1 -1.1 -1.1 -1.1 -1.1 -1.1 -1.1 -1.1 -1.1 1 1.2 0.8 -1.1 -1.1 -1.1 -1.1 -1.1 -1.1 -1.1 -1.1 -1.1 0.5 3.5 9.6 34.9 10.5 2.7 2.3 2.2 5 14.5 21.7 26.9 35.3 43.5 45.8 49.3 73.1 108.7 127.2 143.7 154 168.8 175.2 167.4 178.5 170.1 189 196.9 196.6 189.7 190.1 199.5 203.3 194.2 169.7 160 162.6 136 129.7 111.6 110.9 106.8 117.9 124.6 124.8 133.2 150.4 163.6 157.7 169.1 196.4 214.3 220 230 243.1 249.8 254.2 260.3 271.3 292.8 301.6 312.3 335.3 348.4 372.2 382.6 386.4 394.9 408.1 421.8 432.8 437.6 431.4 409.6 400.7 394.6 403.1 414 418.1 415.8 434.7 440.9 445.1 443.8 441.5 442.8 445.6 425.8 396.6 377.5 365.3 361.3 361.7 361.4 361.6 357.7 354.3 351.2 346.8 339.3 322.1 295.4 281.3 267.3 247 227.2 214.2 202.7 211.2 197.6 184.1 170.3 162.7 163 170.9 174.7 166.3 167 172.1 174.1 170.2 164.2 158.7 154.5 151 146.5 143.2 140.1 144.6 146.6 149 154.4 157.6 160.4 167 174.6 187.5 205 212.4 212.1 216.2 221.4 229.2 235.3 240.8 248.2 261.2 266.7 276.5 296.3 298.9 291.4 278.6 259 246.7 244.3 245 249.1 244.8
-1.1 -1.1 -1.1 -1.1 -1.1 -1.1 -1.1 -1.1 -1.1 -1.1 -1.1 -1.1 -1.1 -1.1 -1.1 -1.1 -1.1 -1.1 -1.1 -1.1 -1.1 -1.1 -1.1 -1.1 -1.1 -1.1 -1.1 -1.1 -1.1 -1.1 -0.3 -1.1 -1.1 -1.1 -1.1 -1.1 -1.1 -1.1 -1.1 -1.1 -1.1 1.8 6.1 19.4 39.3 10.2 3.4 2.3 3.6 6.7 32.3 31.6 35.4 41.7 46.5 47.2 55.5 82.2 115.1 133.7 146.5 164.7 177.8 177.6 168.2 181 171.1 186.7 189.3 182.3 180.6 178.2 192.7 191.1 174.8 166.8 165.4 146.8 127 114.9 96.1 103.6 111.2 122.3 126.6 127.9 147.6 148.1 156.1 161 186.3 213.3 220.9 227.1 239.3 247.2 255.6 259.5 273 295.2 308.6 313.2 319.7 337.3 358.3 372.6 382.3 393.1 408 419.3 432.4 442.3 434.8 418.9 405.8 396.9 396.2 415.2 424.5 422.7 419.4 435.4 445.2 443.6 443.8 445.2 447.8 448.9 414.3 392.9 371.7 360.6 357.1 361.6 358.7 357.3 345.7 344.9 343 336.6 315.3 298.9 283.5 270.6 253.7 227.7 207 201.9 200 189.6 176.6 170.6 157 150.1 160.3 157.7 157.2 155.3 160.8 162.3 158 154.6 151.5 149 146.9 144.1 141.6 139.4 144.2 148.5 151.1 154.8 159 167.5 171.1 176.5 186.4 199.4 213.2 219.6 221.3 230 239.5 246.3 248.2 253.2 262.5 281.7 293.1 299.7 311.8 314 309.1 301.3 280.4 273.5 267.2 270 268.3 263.9
-1.1 -1.1 -1.1 -1.1 -1.1 -1.1 -1.1 -1.1 -1.1 -1.1 -1.1 -1.1 -1.1 -1.1 -1.1 -1.1 -1.1 -1.1 -1.1 -1.1 -1.1 -1.1 -1.1 -1.1 -1.1 -1.1 -1.1 -1.1 -1.1 -1.1 -1.1 -1.1 -1.1 -1.1 -1.1 -1.1 -1.1 -1.1 -1.1 -1.1 -1.1 5 11.6 39.7 31.1 8.5 4.6 4.3 4.5 9 35.2 37.8 40.2 44.6 48.2 50.9 64.1 94.7 122.5 140.9 150.9 175.8 173.9 167.9 168.9 167.2 174.6 180.6 176.4 177.8 177 174.4 172.9 169.2 165.7 161.2 153.6 140.1 121.5 105.4 96.5 115.6 116.6 125.4 131 135.6 157.2 150.1 156.9 173.4 198.5 217.8 227 234.7 247.7 253.7 261.9 272.9 290.5 310.8 316.5 321.7 329 346.9 362.1 377.9 393.9 406.7 423.2 434.1 438.6 441.6 431.9 412.7 405.4 403.1 404.3 424 426.4 422.7 428 442.7 442.7 444.9 446 448.1 452.1 431.8 402.5 382.7 373.3 363.1 354.8 352.7 347.4 347.5 332.6 335.4 333.3 311.4 298.6 284.3 273 248.5 227.9 209.6 196.2 187.4 182.8 174 163.5 153.7 149.1 150 148.9 146.7 149 149.1 152 150.8 146 146 144.9 142.8 143 139.8 141.4 144 150 155.5 159 163.5 166.6 172.9 177.7 185.5 196.7 212.5 221.3 227.7 236 242.1 248.7 257.2 265.6 268.8 274.1 287.9 302.6 309 322.8 327 325 317.4 297.2 296.8 287 287.7 285.3 287.7
-1.1 -1.1 -1.1 -1.1 -1.1 -1.1 -1.1 -1.1 -1.1 -1.1 -1.1 -1.1 -1.1 -1.1 -1.1 -1.1 -1.1 -1.1 -1.1 -1.1 -1.1 -1.1 -1.1 -1.1 -1.1 -1.1 -1.1 -1.1 -1.1 -1.1 -1.1 -1.1 -1.1 -1.1 -1.1 -1.1 -1.1 -1.1 -1.1 0.3 1.9 6.7 28.6 38.1 14.7 6.6 5.9 5.6 6.4 17.8 36.5 39.3 42 46 49.9 53.4 70.9 109.8 125.7 143.4 155.4 174 170.7 160.2 162.6 164.4 167.7 172.6 167.7 168.7 176.2 170.9 169.8 164.5 157 151.2 139.8 131.3 112.1 92.8 106.7 128.1 127.3 126.3 135.4 146.7 148.6 152.6 161.5 187.6 213.7 225.7 235.5 243.8 252.8 260.3 274 287.4 299.7 310.7 316.1 327.7 341.8 360.1 367.4 385.4 404.5 420 431.9 436 443.1 443.3 420.8 420.2 416.2 404.9 412.4 421.8 423.1 426.4 434.6 441.2 446.7 447.7 448.1 453 443 430.8 396 387.2 380.1 362.1 359.6 352.1 341.2 328.8 321.7 316 306.5 294.1 279.5 264.3 252.1 232.4 212.6 197.4 177.5 171.2 169 157.6 152.3 148.8 148.5 141.7 144.9 141.3 142.2 141.9 140.5 140.8 140.1 139.6 139.5 139.6 138.5 143.1 144.5 148.1 152.9 159.2 163.1 167.6 172.3 177.5 185 195.7 210.6 229 233 239.3 250.8 253.8 261.1 273.7 283.6 289.6 291.8 298.8 317.5 330.7 342.3 345 342.7 324.9 312.6 309.3 302 307.6 311.4 308.2
-1.1 -1.1 -1.1 -1.1 -1.1 -1.1 -1.1 -1.1 -1.1 -1.1 -1.1 -1.1 -1.1 -1.1 -1.1 -1.1 -1.1 -1.1 -1.1 -1.1 -1.1 -1.1 -1.1 -1.1 -1.1 -1.1 -1.1 -1.1 -1.1 -1.1 -1.1 -1.1 -1.1 -1.1 -1.1 -1.1 -1.1 -1.1 -0.1 1.3 5.8 13 36.9 26.1 10.1 5.4 6 7.3 7.5 19.7 37.8 40.6 43.3 47 50.7 58.1 76.7 113.5 125.1 141.5 155.8 168.6 157.9 156.9 150.5 156.8 159.2 161.1 161 161.8 173.6 177.6 169.4 162.8 149.5 137.5 126.3 118.6 99.4 89.4 120.5 137.6 135.1 128.3 139.4 145.4 148.2 154.7 173.8 205.4 221.9 235.7 245.6 247.2 257.7 269.1 285.4 292.4 302.2 310.6 325 337.6 354.2 363.7 371.6 394.4 415.6 428.6 432.7 441.8 443.4 429.8 419.4 422.8 408.9 405.9 415.2 423.5 425.9 433.6 443 456.5 461.5 452.1 452.1 451.4 447.7 420.1 400.3 391 378.6 363.5 359 351.8 339.6 330.7 312.4 303.5 294.5 275.4 260.8 252.3 237.8 219 204.2 189.6 176.2 162.1 155.6 151.6 148.8 145.2 144.2 139.6 139.1 138.7 138.8 138.2 137.5 137.9 137.4 138.1 138.7 137.7 139.9 144.5 149 151.2 156.6 161.8 167.1 174.3 178.8 188.6 195.7 211 226.8 240.6 244.5 259 265.8 267.7 274.4 286.9 302.6 315.4 311.6 321.3 341.3 356.6 367 365.4 359 338.7 328.8 320.5 320.8 320.7 329.1 324.1
-1.1 -1.1 -1.1 -1.1 -1.1 -1.1 -1.1 -1.1 -1.1 -1.1 -1.1 -1.1 -1.1 -1.1 -1.1 -1.1 -1.1 -1.1 -1.1 -1.1 -1.1 -1.1 -1.1 -1.1 -1.1 -1.1 -1.1 -1.1 -1.1 -1.1 -1.1 -1.1 -1.1 -1.1 -1.1 -1.1 -1.1 -1.1 0 1.7 7.8 26.4 30.3 11.1 6.5 2.7 3.2 7.9 11.2 21.7 38 40.6 43.3 48.8 52.6 61.2 80.4 111.2 124.3 139.6 153.3 149.4 147.1 143.6 146 149.8 147.5 149 146.8 175.6 194.4 184.9 167.4 147.5 131.8 121.4 103.6 100.5 85.9 111.1 133.1 140.9 138.9 135.3 143 144.9 150.4 158.9 185.4 213.3 230.3 239.3 245.6 251.9 267.9 280.7 289.2 300 305.9 317 332.3 345.1 359.7 368.5 384 403.9 418.4 428.6 432.3 440.7 435.4 424.9 422.8 411.4 406 402.5 410.2 421.3 434.3 444.2 452.6 469 465.9 464.1 464 459.7 449.4 406.1 401.1 392.3 374.4 363.8 357.9 350.7 338.8 328 306 299.7 282.3 260.1 253.7 243 230.1 208.4 195 182.1 172.1 162.4 150.8 148.3 148 141.2 139.1 138 137.5 137.7 137.5 136.5 136.5 137.7 138 139.3 139.4 140.9 142.8 146.2 150.9 156.4 162.1 170.5 177.5 188.4 193.4 196.8 210.9 229.9 243 255.6 266.2 277.4 277.5 282.8 293.1 307 322.9 332.6 334 341.2 362.8 374.5 381.6 374.7 365.3 355 347.3 335.8 334.4 340.8 339.6 332.9
-1.1 -1.1 -1.1 -1.1 -1.1 -1.1 -1.1 -1.1 -1.1 -1.1 -1.1 -1.1 -1.1 -1.1 -1.1 -1.1 -1.1 -1.1 -1.1 -1.1 -1.1 -1.1 -1.1 -1.1 -1.1 -1.1 -1.1 -1.1 -1.1 -1.1 -1.1 -1.1 -1.1 -1.1 -1.1 -1.1 -1.1 -1.1 -1.1 1.7 7.5 24 15.6 7.9 2.2 2.3 2.3 4.9 13.1 31.8 39.2 41.3 45 56.5 52.5 62.6 86.3 107.7 118.7 134.8 132.1 136.6 133.9 134.3 141.1 142.9 139.2 131 159.7 182.1 180.6 172.4 160.6 142.4 121.5 111.3 84.1 84.2 102.7 127.6 147.8 144 151.7 142.3 144.5 150.6 157.5 175.2 200.1 219.1 232.7 241.6 248 259.5 275.4 281.4 289.3 300.1 316.1 321.9 337.9 354.8 366.7 373.6 389.1 411.2 422.2 429.6 430.3 434.1 434.4 422.2 415.2 406.4 396.6 402.8 415.3 433.1 441.8 451.9 465.1 469.3 467.5 466.1 464.6 457.7 437.8 405.6 411.6 401.1 378.7 367.7 363.3 355.6 343.9 326.3 300.8 291.5 265 253.2 233.1 225.9 205.9 193.2 182.9 166.8 158.9 155.8 144.9 147.4 143.3 138.2 137.6 136.7 135.9 136.7 136.7 136.2 136.1 137.1 139.5 141 143.1 144.8 147.8 154.7 161.7 168.6 174.3 183.1 194 203.4 210.2 212.4 219.9 242.1 259 270.2 275.4 284.6 298.4 305.5 309.6 316.4 338.2 346.4 351.6 359.3 376.5 386.7 386.1 381.2 372.5 369 356.7 346.8 349.5 352.7 350.6 346.8
-1.1 -1.1 -1.1 -1.1 -1.1 -1.1 -1.1 -1.1 -1.1 -1.1 -1.1 -1.1 -1.1 -1.1 -1.1 -1.1 -1.1 -1.1 -1.1 -1.1 -1.1 -1.1 -1.1 -1.1 -1.1 -1.1 -1.1 -1.1 -1.1 -1.1 -1.1 -1.1 -1.1 -1.1 -1.1 -1.1 -1.1 -1.1 -1.1 0.6 4.1 9.2 9.7 3.9 1.1 1.8 2.2 5.6 11.8 35.7 38.8 41 53.1 55.2 50.8 65.8 89.6 103.8 117.7 122.9 118 122.5 124.9 125.3 133.7 132.8 124.9 150.2 164.5 170.7 173.9 178.8 150.4 126.8 106.4 91.6 78.9 95.6 119.4 137.7 153 146.9 147.4 142.4 144 150.9 165.1 184.6 212.5 226.3 236.2 243.7 252.9 264.9 273.4 276.9 288.7 308.4 321.4 332.2 345 357.5 373.4 382 395.5 412.7 419.8 426 427.8 433 419 415.8 409.7 395.1 396.6 407.4 422.6 434.5 448.7 457.8 465.9 468.6 471.3 463 454.1 450.1 422.2 411.4 412.2 400.9 378.7 369.3 364.7 356.3 343.4 313.1 296.2 281.5 261.4 243.5 232 222.2 199.3 193.5 183.4 175.1 159.6 151.5 141.6 144.1 137.5 137.1 136.9 136.2 135.7 136.2 135.3 136.4 138.5 141.1 141.3 143.9 149 152.7 159.3 165.5 169.6 178.1 187.1 196.2 208.3 214.5 222.2 224.3 248 261.5 273 279.2 290.7 301.9 317.2 327.4 325.7 331.9 343.9 359.2 362.3 378.8 394.2 402.4 398.7 388.5 385.1 377.5 365.4 358.7 364.6 373.3 365.8 372.3
-1.1 -1.1 -1.1 -1.1 -1.1 -1.1 -1.1 -1.1 -1.1 -1.1 -1.1 -1.1 -1.1 -1.1 -1.1 -1.1 -1.1 -1.1 -1.1 -1.1 -1.1 -1.1 -1.1 -1.1 -1.1 -1.1 -1.1 -1.1 -1.1 -1.1 -1.1 -1.1 -1.1 -1.1 -1.1 -1.1 -1.1 -1.1 -1.1 -0.4 1.3 4.6 5.3 -1.1 -1.1 -1.1 1.6 7.2 13.6 33.3 32.6 43.2 51.6 50.9 49.9 72.7 98.6 107 112.6 108.8 108.4 114.2 114.7 118 125 121.8 133.7 147.6 153 160.6 162.7 150.4 131.8 104.8 89.2 77.3 80 106.9 127.8 143 152.3 158.3 144.8 139.6 148.8 159.8 178.7 210.4 220.2 228.3 237.7 246.4 259 271.3 278.1 288 307 320.6 329.1 341.7 350.6 369.5 382.6 388 397.9 414.2 425.3 433.7 430.5 425 413.8 411.4 395.6 391 402.3 411.5 422.6 438 450 462 461.2 468.7 469.7 457.7 447.8 428.2 405 416.8 411.9 393.7 375.9 370.8 367.3 351.7 335.9 310 284.9 259.9 247.7 233.8 218.2 202.7 196.5 192.3 179.7 168.2 153.8 145.2 140 138 136.6 136.2 136.3 136 134.7 136.7 137.7 140.1 145.2 146.8 149 150.1 156.5 160.6 167.2 172.2 177.7 189.3 201.1 213.6 224.9 234 236.5 244.1 261.1 281 292.4 303.4 317.9 328.1 343.9 352.8 357.1 359 372.3 381.6 385.3 385.9 396.3 402.7 399.8 391.2 392.3 385.9 375.8 387.1 386.8 385.3 388.9 390.1
-1.1 -1.1 -1.1 -1.1 -1.1 -1.1 -1.1 -1.1 -1.1 -1.1 -1.1 -1.1 -1.1 -1.1 -1.1 -1.1 -1.1 -1.1 -1.1 -1.1 -1.1 -1.1 -1.1 -1.1 -1.1 -1.1 -1.1 -1.1 -1.1 -1.1 -1.1 -1.1 -1.1 -1.1 -1.1 -1.1 -1.1 -1.1 -1.1 -0.7 0.9 1.8 1.1 -1.1 -1.1 -1.1 2.9 8.2 11.5 27.6 35.5 43.2 45.6 47.6 57.8 79.2 101.9 106.5 103.6 99.8 102.1 106.4 104.8 112.9 112.4 112.3 136.2 136.5 141.5 148 140.2 137.4 114.7 93.4 73.7 61.8 94 118.5 134.3 144.1 152.8 160.5 144.7 142.1 152.8 165.2 193.1 214 223.2 234.5 240.1 244.6 259.9 275 288.7 300.3 319.1 330 334.4 348.2 367.2 379.8 382.8 398 397.9 417.3 426.8 434.7 424.6 407 408 401.3 388.9 393.5 398.4 410.7 429.8 440.9 456.5 463.7 448.9 463.8 453.2 451 436.1 411.3 396.7 411.5 408.3 395.3 372.6 365.3 356.2 337 316.9 295.1 263.4 254.3 241.1 227.6 205 191.4 184.7 178.9 169.3 163.2 148.4 141.9 138.1 136.6 135.8 135.2 135.3 134.5 136.8 137.8 143 147.2 150 152.5 156.1 157.9 163.4 168.4 172.9 179.5 190.2 203.6 215.6 225.4 234.8 243.4 251.4 256.8 280.1 297.2 309.6 327.7 339.5 353 367.6 380.6 384.6 384.3 395.8 406.5 405.1 396.4 397.3 397.1 395.4 397.1 396.5 389.6 396 400.9 404 403.4 405.5 409
-1.1 -1.1 -1.1 -1.1 -1.1 -1.1 -1.1 -1.1 -1.1 -1.1 -1.1 -1.1 -1.1 -1.1 -1.1 -1.1 -1.1 -1.1 -1.1 -1.1 -1.1 -1.1 -1.1 -1.1 -1.1 -1.1 -1.1 -1.1 -1.1 -1.1 -1.1 -1.1 -1.1 -1.1 -1.1 -1.1 -1.1 -1.1 -1.1 -1.1 0.1 0.8 0.4 -1.1 -1.1 -1.1 4 7.8 10.2 24.5 33.2 39.2 45.7 47.8 62.7 85.9 94.9 98 94.7 93.7 95.5 97.7 98.6 102.2 99.9 117.5 125.1 124 128.3 130.4 129.3 118.9 97.9 80.4 57.8 80.2 106.7 127.5 137.1 141.9 161.3 165 146.8 142 153.2 175 203.5 214.9 228.6 238.7 241.7 255.1 271.8 285.8 304.3 316.3 323 330.1 341.9 359.8 374.4 382.2 390.1 399.1 397.1 413.9 422.1 429.2 408.8 401.3 404.3 390.7 387.6 392.6 394.1 412.5 430.8 439.9 447.1 444.9 440.3 456.2 455.2 439.2 427.3 389.9 397.8 407.1 401.5 391.8 370.6 356.8 341.7 323.3 298 274.4 252.8 240.5 232.8 211.8 191.4 184.8 177.3 171.8 163.2 153.1 142.1 139.3 136.5 135.5 134.7 134 135.8 136.5 138.6 143.3 149.9 152.4 154.9 159.1 161.8 165.9 165.6 175.5 182.4 187.1 199.5 213.6 222 230.4 242.1 253.5 262.3 278.5 295.3 309.9 324.4 345.6 354.7 368.4 381.2 391 394.4 395.7 413.4 415.4 417.5 412 405.5 403.5 404.5 403.5 399.3 405.2 407.3 414.7 415.7 413.6 417.9 420
-1.1 -1.1 -1.1 -1.1 -1.1 -1.1 -1.1 -1.1 -1.1 -1.1 -1.1 -1.1 -1.1 -1.1 -1.1 -1.1 -1.1 -1.1 -1.1 -1.1 -1.1 -1.1 -1.1 -1.1 -1.1 -1.1 -1.1 -1.1 -1.1 -1.1 -1.1 -1.1 -1.1 -1.1 -1.1 -1.1 -1.1 -1.1 -1.1 -1.1 -0.8 -0.3 -0.4 -1.1 -1.1 1.3 3.5 6.7 10.2 23.5 29.4 39.7 44 47.5 66 84.6 89.4 93.2 87.1 85.7 87.5 89 90.7 93.8 101.7 109.2 111.9 112.5 115.9 117.1 113.7 107.2 89.1 67.9 59.9 91.5 116.2 130.8 134.4 148.1 161.6 165.1 141 143.3 161.9 185.8 205.5 220.4 233.9 236.7 246.2 264.7 275.5 292.2 308.3 318.7 320.6 332.3 349.3 364.2 375.5 379.3 387.4 395.1 395.3 407.4 420.2 409.5 399.4 400.2 392.8 381.5 381.7 381 390.8 408.7 424.2 430.4 430.7 441.3 442.2 446.3 436.5 426.3 414 382.4 392 398.9 395.7 384.1 365.4 359.5 338.3 311.6 283.8 259.8 245.9 223.9 208.9 194 183.2 177 170.2 160.2 154.6 145.1 139.7 137.1 135.3 135.2 135.3 134.6 136.3 141.2 146.5 151.2 154.5 157.3 161.8 165.6 168.9 172.3 176.3 177 185.3 194.3 205.7 216.4 226.6 238.4 247.4 265 279.4 288.9 307.7 322 340.8 354.5 366.6 378.4 388 400.9 400.8 406.3 417.9 419.3 418.9 411.8 409.2 416.6 412.6 406.6 413.3 417.4 426.5 426.8 425.9 432.1 432.8 430.6
-1.1 -1.1 -1.1 -1.1 -1.1 -1.1 -1.1 -1.1 -1.1 -1.1 -1.1 -1.1 -1.1 -1.1 -1.1 -1.1 -1.1 -1.1 -1.1 -1.1 -1.1 -1.1 -1.1 -1.1 -1.1 -1.1 -1.1 -1.1 -1.1 -1.1 -1.1 -1.1 -1.1 -1.1 -1.1 -1.1 -1.1 -1.1 -1.1 -1.1 -1.1 -1.1 -1.1 -1.1 -1.1 0.8 2.1 7 10.2 16.5 29.1 35.2 43.1 48.4 63.2 77.3 86.5 82.9 75.6 74.8 76.3 77.2 79.2 84.7 89.9 91.8 94.5 96.7 99.5 102.3 108.5 92.9 73 53.3 68.2 98.7 121.6 129.5 133.9 152.1 164 152.4 135.6 147.8 168.8 194.7 213 228.5 229.8 238.7 248.5 263.1 280.6 296 309.3 311.1 324.2 338.4 354.2 360.2 364.7 378.7 394.2 391 384.2 403.2 409 392.2 395.6 389.2 385.6 362.2 363.5 365.9 382.8 402.6 405.6 416.3 430.3 426.7 435.9 431.8 422.9 412.4 398 371.1 381.8 392.9 390.5 378.3 364.2 361.9 329.3 299.7 268.8 250.7 232.2 210.5 191.9 180.5 176 169.7 162 151.2 149.6 141.7 137.2 135.5 134.5 134.7 135.5 136 140.5 150.3 153.8 158.4 161 164.9 167.1 171.9 174.2 176.4 180.4 181.5 183.8 198.1 205.2 218.2 230.6 241.2 255.4 270 279.9 290.2 304.2 322.8 344.1 357.6 370 385.3 394.5 395.6 400.6 418.3 423.3 421.1 422.6 410.1 417.6 413.4 409.2 427.9 435.7 437.2 440.9 440.5 440.8 445.9 442.6 439.1
-1.1 -1.1 -1.1 -1.1 -1.1 -1.1 -1.1 -1.1 -1.1 -1.1 -1.1 -1.1 -1.1 -1.1 -1.1 -1.1 -1.1 -1.1 -1.1 -1.1 -1.1 -1.1 -1.1 -1.1 -1.1 -1.1 -1.1 -1.1 -1.1 -1.1 -1.1 -1.1 -1.1 -1.1 -1.1 -1.1 -1.1 -1.1 -1.1 -1.1 -1.1 -1.1 -1.1 -1.1 -1.1 0.5 2 6.3 9 12.8 22.4 31.4 39.7 44.6 54.5 65.9 78.3 68.6 61.3 63.9 64.5 66 65.4 68.7 71.2 76.1 81.6 83.1 86.5 93.1 93 77.3 59 55.1 81.2 107.2 121.6 124.6 135.4 153.5 161.1 133.8 137 156.3 177.9 198.1 216.5 222.6 227.4 240.8 250.7 265.6 280.5 297.1 302.1 313.5 325.3 340.7 348.2 346.3 358.6 373.7 378.8 381.5 384 397.3 391.3 386.4 386 380.3 368.4 346.9 340 357.5 374.9 380 396.3 407.3 411.7 416.1 419.2 410.3 398.4 388.9 377.7 371.7 377.3 386.2 382.7 373.5 360.5 343.4 311.3 288.4 259.9 244 226.5 201.2 186.9 174.6 168.5 160.9 155.9 146.9 142.9 137.2 135.5 133.3 134.4 134.6 135.3 141.2 151.5 156.4 160.4 165.1 168.4 172.2 173.6 176.6 178.2 181.6 186.9 189 192.6 194.4 206.8 217.2 227.9 240.2 255.3 267 270 280.4 297.5 322.9 342.2 356.2 366.5 382.7 388.3 396.5 409.8 419.8 417.2 420.8 412.8 404.7 403 403.5 423.7 437.8 441.7 447.9 447.5 452.1 450.4 449.1 447 444.3
-1.1 -1.1 -1.1 -1.1 -1.1 -1.1 -1.1 -1.1 -1.1 -1.1 -1.1 -1.1 -1.1 -1.1 -1.1 -1.1 -1.1 -1.1 -1.1 -1.1 -1.1 -1.1 -1.1 -1.1 -1.1 -1.1 -1.1 -1.1 -1.1 -1.1 -1.1 -1.1 -1.1 -1.1 -1.1 -1.1 -1.1 -1.1 -1.1 -1.1 -1.1 -1.1 -1.1 -1.1 -1.1 0.8 2.3 4.9 8.7 12.5 15.2 22.1 33.7 36.9 41.7 55 67.1 56.6 52.6 52.9 53.9 52.8 51.6 52.8 58.3 66.9 67.2 70.5 77.7 79 78.6 62.9 46.7 63.2 92.1 108.3 117.3 122.9 138.2 152.5 143.9 127.8 144.3 166.9 187.2 201.5 210.9 220.9 226.2 238 252.5 268.7 279.8 291.1 299.1 305.1 320.9 336.2 338.5 335.5 350.8 359.2 364.7 368.9 379.4 380.3 373.8 377.1 372.6 358.6 344.2 327.2 332 343.5 361.6 382 386.2 388.4 393.8 392.7 390.5 385 381.6 381.2 363.2 359.7 377 380.8 371 367.7 343.5 327.8 292.2 278.9 256.9 236.9 215.1 195.4 178.6 165.4 160.8 155.6 150.9 141.1 138.2 135.8 134.6 134.8 135.5 135.7 139.8 149.1 157.3 162.6 168.6 172.7 175.7 178.2 178.2 179.8 181.2 187.3 193.9 197.8 205 210.8 212.5 213.6 227.1 240.7 252 258.9 264.8 279 299.1 316.3 332.6 347.2 365.1 376.8 383 398.7 404.6 403.9 413.5 400.8 394.8 398.7 397.7 420.2 426.3 437.1 446.9 451.9 454.4 456.7 456.7 456.3 455.1 459.5
-1.1 -1.1 -1.1 -1.1 -1.1 -1.1 -1.1 -1.1 -1.1 -1.1 -1.1 -1.1 -1.1 -1.1 -1.1 -1.1 -1.1 -1.1 -1.1 -1.1 -1.1 -1.1 -1.1 -1.1 -1.1 -1.1 -1.1 -1.1 -1.1 -1.1 -1.1 -1.1 -1.1 -1.1 -1.1 -1.1 -1.1 -1.1 -1.1 -1.1 -1.1 2.6 -1.1 -1.1 -1.1 0.9 2.4 5.3 7.7 11.2 13 14.8 23.1 28.8 27.4 39.8 50.4 36.3 39.6 40.8 39.6 37.5 34.8 41.7 48.8 50.8 54 61.9 68 72.3 63.5 40.3 57.4 85.4 98.7 106.7 110.9 124.9 138.7 140.7 125.6 126.9 152.7 170.5 191.8 202.2 209.5 213.7 225.6 239.4 251.4 264.9 273.3 283.2 289.9 298.5 314.8 318.2 323 331.6 336.9 357.7 357.3 360.8 359.7 356.1 366.3 362.3 349.6 334.1 315.8 306.6 325.8 344.4 357.2 359.2 359.4 366.2 380.4 376.9 381.4 377 377.7 371.7 344.7 350.6 369 369.1 358.1 351.3 328.9 309.2 285.7 259 247.4 222.2 204.6 186.4 171.3 160.8 156.8 152.3 143.3 138.9 136.4 135.3 134.4 135.2 137.2 139.2 147 154.9 165.8 174.8 176.6 179.7 181.8 182.5 182.4 183.3 193.1 204.4 208.9 211.6 222.1 226.9 227.9 227.2 221.1 238.5 249.5 254.1 265.4 278.3 293.9 308.2 319.1 335.9 349.7 367.6 378 387.8 394.2 393.9 381.7 387 394.5 391.6 403.2 418.8 431.2 443.8 450.8 455.4 461.8 464.5 466 462.4 464.2 468.2
-1.1 -1.1 -1.1 -1.1 -1.1 -1.1 -1.1 -1.1 -1.1 -1.1 -1.1 -1.1 -1.1 -1.1 -1.1 -1.1 -1.1 -1.1 -1.1 -1.1 -1.1 -1.1 -1.1 -1.1 -1.1 -1.1 -1.1 -1.1 -1.1 -1.1 -1.1 -1.1 -1.1 -1.1 -1.1 -1.1 -1.1 -1.1 -1.1 -1.1 -1.1 -1.1 -1.1 -1.1 -1.1 0.8 2.4 6 7.2 8.2 9 10.6 13.4 17.6 21 27.1 29.3 26.3 26.6 26.3 24.7 22.5 26.1 31.7 31.5 43.3 46.3 51.5 62.8 61.3 48.7 49.1 73.5 89.6 98 97.6 111.8 123.3 132.1 121.6 106.6 136.4 162.5 178.3 188.1 195.4 204.7 210 224 235.2 247.7 256.5 263.7 272.5 284.3 291.2 298.9 302.5 313 323.4 335.3 339.8 341.1 342.5 342.8 348.9 349.3 338.6 325.1 316.8 298.1 307.5 322.4 334.8 330.4 342.3 356.2 370.8 377.4 371.8 367.3 365.5 364.7 352 327.5 341.8 361.3 357.7 347 335.4 310.4 295.9 270.9 255 240 216.9 194.4 177.9 166.9 157.4 151.4 147.5 141.9 138.3 136 134.9 134.6 136.9 144.2 146.3 157.3 166.7 175 180.2 181.5 184.8 186.1 186.6 187 196.9 214.6 225.7 231.3 233.5 243.9 241.6 241 238.9 238.1 240 249.2 254.4 264.8 273.2 285.5 295.9 307.9 325.1 339.3 352.8 365.5 376.1 371.3 360.7 377.5 371.9 384.3 392.7 406.8 422.3 434.7 445.8 454.6 462.5 467.5 470.9 471.2 473.8 474.5 470.3
-1.1 -1.1 -1.1 -1.1 -1.1 -1.1 -1.1 -1.1 -1.1 -1.1 -1.1 -1.1 -1.1 -1.1 -1.1 -1.1 -1.1 -1.1 -1.1 -1.1 -1.1 -1.1 -1.1 -1.1 -1.1 -1.1 -1.1 -1.1 -1.1 -1.1 -1.1 -1.1 -0.7 -0.5 -0.9 -1.1 -1.1 -1.1 -1.1 -1.1 -1.1 -1.1 -1.1 -1.1 -1.1 0.3 2.8 5.3 6.9 6.9 7.8 8.5 10.6 13.1 14.9 16.3 16.5 18.9 20.2 17.7 15.6 17.4 19.8 22.6 33.3 46.3 44.1 52.4 54.9 50.5 42.1 60.8 79.6 88.5 86.6 98.3 109.5 118.5 113.6 96.9 109.8 146.3 162.4 170.3 182.4 190.4 196.1 204.6 217.6 228.3 242.1 247.4 249.6 263.8 270.3 277.1 280.4 289 303.3 323.3 320.5 325.7 331.5 326.1 330.5 331.4 322.9 307.8 303.2 290.8 276 297.3 310.2 306.3 327.2 346.7 364.6 365.7 366.9 357.6 349 350.7 350.7 322.2 317.5 340.3 353.1 351.8 333.7 317.1 294.6 280.1 250.2 244.7 228.6 208 188.8 173.6 162.8 158.3 148.4 142.4 140.1 137.3 136.5 137.9 135.2 140.7 143.3 154.4 166.6 177.9 179.9 182.7 185.7 188.9 192 189.8 201.5 216 239.5 247.1 247.5 250.6 254 254.1 252.3 250 247.9 249.3 247.1 246.3 259.2 273.7 280.8 293.2 306.2 316.8 329.1 337.8 348.2 345.4 348.7 353.9 356.5 374.9 383.1 395.6 408.6 426 439.6 449.5 458.8 465.1 471.1 474.5 475.6 472.9 471.3 470.3
-1.1 -1.1 -1.1 -1.1 -1.1 -1.1 -1.1 -1.1 -1.1 -1.1 -1.1 -1.1 -1.1 -1.1 -1.1 -1.1 -1.1 -1.1 -1.1 -1.1 -1.1 -1.1 -1.1 -1.1 -1.1 -1.1 -1.1 -1.1 -1.1 -1.1 -0.9 -0.5 -0.2 0.2 -0.1 -0.4 -0.8 -1.1 -1.1 -1.1 -0.7 -0.4 -1.1 -1.1 -1.1 -1.1 1.3 3.3 5.3 6.5 7.4 7.3 8.4 9.4 10 11.4 11.7 12.5 14 14.8 13.6 14.5 14.4 21.6 34.2 37.4 41.8 47.2 45.9 33.3 50.5 68.2 76 75.8 84.2 92.7 101.1 102.3 93.3 91.8 116.2 144 155.9 165 173.8 178.6 187.8 199.6 211.8 226.7 234.5 230.2 242.5 247.4 259.6 262.2 267.3 281.3 299.1 306.4 305.3 308.8 314.2 309.7 312.7 307.5 295 289.7 278.6 280.1 268.3 291.6 282.1 307.2 328.4 346.1 357 356.1 349.6 344.5 334 338.2 329.3 302.8 310.7 335.6 345.8 335.9 317.4 298.7 279.9 263.4 239.9 234.5 221.7 197.6 182.5 169.5 163.2 155.5 145.3 142.1 139.6 139.2 139.4 137.9 137.2 142.8 152.8 161.1 172.4 180.7 183.4 187.1 191 197.6 201.4 205.1 215.7 232.4 248.3 255.1 260.5 268.3 271.7 269.6 268.7 260.6 260.5 259.5 258 249.6 259.3 268.5 276.5 287.9 298.9 314 319.6 325.7 325.7 333.1 339.3 351.6 360.6 376.5 386.7 400.4 410.8 426.7 441.3 452.2 459.8 464.5 470.2 472.4 470.3 470.1 469.3 469.1
-1.1 -1.1 -1.1 -1.1 -1.1 -1.1 -1.1 -1.1 -1.1 -1.1 -1.1 -1.1 -1.1 -1.1 -1.1 -1.1 -1.1 -1.1 -1.1 -1.1 -1.1 -1.1 -1.1 -1.1 -1.1 -1.1 -1.1 -1.1 -1.1 -0.9 -0.6 -0.1 0.3 0.6 0.8 0.4 0 -0.4 -1.1 -0.7 -0.2 0.1 -0.2 -1 -1.1 -1.1 0.3 1.5 3.1 4.5 5.3 5.9 7 6.8 7.1 7.3 8.6 7.1 8.5 9.8 12.8 13.4 13.5 19.4 26.1 33.7 37.9 37.4 30 41.3 53.2 61.4 63.6 67.9 72.9 79.2 86.8 92 76 92.9 115.9 136.9 144.6 154.7 160.8 169.2 181.4 195.6 208.6 216.1 213.3 220.4 227.6 239.6 245.6 250.8 260.7 277.2 291.7 287.6 291.2 298.5 301.7 288.6 289.4 278.8 272 265.4 256.5 269.3 263.6 267.6 286.7 311.2 323.1 331.9 336.9 337.4 338.9 330.6 315.5 321.2 311.2 291.5 305.1 328.2 329 320.3 304.7 284.3 256.8 242.1 234.3 228 216.2 189.7 176.1 168 160.2 149.6 143.4 139.9 139.5 139.8 140.4 135.8 136.8 146.7 155.2 164.5 175 182 188.3 192.1 199.2 206.4 220.6 219 226.4 243.5 256.2 265.9 275.2 280.8 282.3 280.9 283.3 277.7 274 269.8 265.4 261.5 260.7 273.2 282 292.1 302.3 311 315.7 314.6 319 328.3 337 351.3 368.1 376 390.4 404 412.8 433.3 442.9 448.4 455.4 462.4 466.7 469.1 465.4 466.3 467.6 469.8
-1.1 -1.1 -1.1 -1.1 -1.1 -1.1 -1.1 -1.1 -1.1 -1.1 -1.1 -1.1 -1.1 -1.1 -1.1 -1.1 -1.1 -1.1 -1.1 -1.1 -1.1 -1.1 -1.1 -1.1 -1.1 -1.1 -1.1 -1.1 -1 -0.5 -0.1 0.3 0.6 1.1 1.5 1.2 0.8 0.3 -0.1 -0.1 0.3 0.7 0.6 -0.2 -1.1 -1.1 0.5 1.2 1.8 2.1 3.2 5 5.1 4.6 4.4 4.9 4.9 4.1 5 5.5 8.4 12 13.1 16 24 27.3 29.5 22.6 31.5 39.5 45.7 49.4 54.3 52.8 60.2 64 72.7 68.7 75.2 90.7 110.9 124.8 134.4 143.5 154.7 165.2 178.8 189.5 195.9 200.1 201.4 207.2 215.5 225.9 235.1 244.9 255.2 270.4 268.8 274.1 283 284.6 277.5 270.6 262.8 252.2 255.6 239.8 250.9 260 251.7 263.2 286.3 300.5 309 316.2 315.3 312.9 305.5 306.6 306.5 307 291.1 281.2 305.4 315.7 310.6 306.3 288.7 262.9 237 227.4 226.4 225.2 207.6 185.7 174.8 167.4 159.5 149.2 143.2 140.8 138.5 139.9 143 136 138.1 151.2 159 168.3 178.6 187.4 194.6 200.8 212.4 225 229 224.1 236.6 250.7 263.8 275.9 288.6 293.5 294.4 294.4 299.9 295.9 286.8 281.1 278.8 276.9 278 278.4 291.2 297.3 300.5 305.7 308.2 311.9 316 323.5 340.1 356.6 363.5 372.7 389.5 404 413.8 427.3 438.9 449 456.7 458.3 460.5 464.4 466.2 471.3 473.5 482.4
-1.1 -1.1 -1.1 -1.1 -1.1 -1.1 -1.1 -1.1 -1.1 -1.1 -1.1 -1.1 -1.1 -1.1 -1.1 -1.1 -1.1 -1.1 -1.1 -1.1 -1.1 -1.1 -1.1 -1.1 -1.1 -1.1 -1.1 -1.1 -0.6 -0.1 0.4 0.8 1.1 1.5 1.9 2.1 1.6 1 0.6 0.6 0.8 1.2 1.4 0.6 -1.1 -0.6 0.2 0.8 1.2 1.7 1.9 2.2 2.6 2.4 2.8 2.6 3.2 3.1 3.6 4.5 6.1 9.1 12.3 13.4 16.5 16.9 17.2 12.9 29.6 32.6 34.5 37.6 40.3 44.4 49.3 52.9 58 59 71.2 79.5 91.9 114.1 125.3 137.4 148.2 158.1 170.5 175.8 180 181.2 187.6 192.5 205 217.1 224.8 234.4 252.7 244.2 254.3 264.4 265.8 261.8 254.3 240.6 238.5 238.9 236.2 230.6 251.3 254.7 246 266.5 278.1 287.7 288.6 292.5 289.1 291.6 305.2 299.2 292.4 292.3 272.6 272.7 299.8 302.8 302.4 287.9 266.4 237.7 220.8 224 215.6 211.9 200.4 180.7 173 165.7 160 151.8 143.9 140.4 137.4 138.9 138.9 136.8 142.1 157.2 169 178.8 185.7 195.1 203.3 215.4 223.2 229.8 232.5 235.9 246.6 258.1 271.9 292.1 317.4 324.4 326.3 324.4 319.4 311.2 301.1 296 294.6 292.5 290.5 291.6 294.4 301.4 306.6 306 307.1 309.7 315.2 327.3 338.8 348.5 363.1 376.4 391.6 402 408.1 427.2 435.6 446.2 451.2 463.9 464 469.7 474.1 478 484.9 494.1
-1.1 -1.1 -1.1 -1.1 -1.1 -1.1 -1.1 -1.1 -1.1 -1.1 -1.1 -1.1 -1.1 -1.1 -1.1 -1.1 -1.1 -1.1 -1.1 -1.1 -1.1 -1.1 -1.1 -1.1 -1.1 -1.1 -1.1 -1.1 -0.2 0.4 0.9 1.3 1.6 2 2.3 2.3 2.4 1.8 1.4 1.4 1.6 1.7 2.1 1 -1.1 -0.7 -0.1 0.4 0.8 1.2 1.4 1.7 2 1.9 2.1 2.3 2.7 2.8 3.2 4.3 5.4 5.6 6 6.9 11.1 10.6 14.3 22.5 25.2 25.7 27.8 32.2 34.5 35.4 38.2 39.8 45 52.1 59.3 63 79.6 99.1 117.8 128.3 137 150.2 157.4 160 163 170.1 176.9 181.3 196.5 206 216.4 226.7 230.7 238.5 245.5 252.8 243.6 239.6 226.9 221.4 220.8 224 208.3 236.6 250.3 246.7 242 255.2 264.2 267.9 273.9 280.8 274.5 287.3 281.2 279.5 273.5 273 253.2 269.8 286.9 286.2 272.5 255.7 244.5 227.6 211.1 208.8 207.5 204.2 191.2 178.8 171 163.9 158.4 151.3 145 139.8 134.8 135.8 138 132.5 150.2 166.7 178.3 182.6 191.1 201.7 214.4 222.7 228.2 233 246.6 250.3 252.7 267.5 283.4 306 325.7 335.4 340 340.9 338.8 331.8 317.8 311.5 308.6 306.1 303.3 301.6 304.4 305.3 304.5 303.8 306.7 310.7 321.7 331.2 336.8 350.5 365.7 381.1 392.6 398.7 407.4 423 437.7 445.7 457.5 463.5 466.4 472.3 479.7 491.1 498.3 501.9
-1.1 -1.1 -1.1 10.3 5.6 1.2 -0.3 -1.1 -1.1 -1.1 -1.1 -1.1 -1.1 -1.1 -1.1 -1.1 -1.1 -1.1 -1.1 -1.1 -1.1 -1.1 -1.1 -1.1 -1.1 -1 -0.7 -0.4 0.1 0.7 1.3 1.8 2.1 2.3 2.3 3.1 4.2 3.7 2.2 2.1 2.3 2.3 2.2 1.8 -1.1 -1.1 -0.5 -0.1 0.4 0.7 0.9 1.2 1.5 0.4 -1.1 -1.1 2.1 -1.1 -1.1 4.1 5.2 6.4 6.3 7.7 10.6 14.5 18.9 20.8 21.7 22.2 21.6 25.5 28.4 28.7 29.5 34.4 40.6 45.1 51 53.9 70.5 91.4 104.7 116.5 128.1 137.4 141.5 144.4 148.7 155.2 162.3 175 186.1 197.8 210.2 221.4 225.6 231.6 234.5 231.8 220.6 213.9 204.8 198.9 208.8 204.2 211 237 236.8 223.8 233.2 239.5 247.2 255.1 260.3 263.6 259.4 267.8 257.3 262.4 262.6 256 250.1 262.2 259.3 247 239.4 234.4 225.7 212.1 199.3 201.7 201 196.1 184.2 176.6 169.9 161.6 155 149.8 144.3 138.1 132.5 134 131.2 144.1 155.3 171.4 177.8 186 198.4 213.7 222.3 227.8 233.3 241.8 249.5 254.9 258.9 279.2 295.3 317 332.1 346.7 357.2 360.7 358.8 352.1 338.2 324.8 321.8 319 315.2 311.5 312.6 310.7 308.7 307.4 309.6 317.7 326.2 332 342.4 357.3 373.5 386.5 399.3 411.6 409.9 429.6 437.5 450.7 457 464.1 472.7 484.6 491.8 500.7 506.4 512.6
-1.1 12.7 25 11.3 3.4 1.1 -0.3 -1.1 -1.1 -1.1 -1.1 -1.1 -1.1 -1.1 -1.1 -1.1 -1.1 -1.1 -1.1 -1.1 -1.1 -1.1 -1.1 -1.1 -0.9 -0.5 -0.1 0.2 0.6 1.1 1.7 2.5 2.7 2.3 4.6 4.7 5.3 4 3.1 3.6 2.3 2.3 2.3 2.3 -1.1 -1.1 -0.9 -0.5 0 0.2 0.5 0.7 0.5 -0.6 -1.1 0.9 -1.1 -1.1 -1.1 3.4 4.5 5.8 7.6 9.2 11.8 14.1 16.9 17.8 18.9 19.6 19.4 20 22 23.7 26.8 28.1 34.6 40.8 43.4 48.8 64.2 80.1 93.8 106.2 117.5 122.2 125.5 130.2 135.6 143.4 155.2 166.8 179.9 194.4 202.6 207.1 210.4 216.8 213.5 206.2 200.6 190.1 187.3 188.4 193.3 195.1 218.6 223.3 218.6 204.1 218.4 228 240.4 247.5 245.2 240.4 248.5 255.9 254.1 255.1 243.4 241.4 241.4 248.8 237.5 230.9 226.8 226.4 213.4 198.1 197 202 198.9 191.9 180.7 174.9 167.4 160 152 145.7 138.6 132.8 128.5 128.6 139.4 150.7 160.8 170.7 180.5 192.4 208.2 219.5 226.1 230.8 238.4 244.9 255.2 257.5 259.6 284.2 313.4 327.4 339.4 356.9 369.8 374.2 371.3 370.3 358.4 334.4 331.1 327.3 322.8 321.6 320.3 317.9 317.2 316.5 319.1 324.4 331.1 341.6 354.4 367.3 382.8 396.8 404.5 415.8 422.5 430.3 447.2 455.1 462.1 473.7 485.7 491.7 498.3 507.9 512.6 510.3
19.3 15.3 10.7 4.7 2.5 1 -1.1 -1.1 -1.1 -1.1 -1.1 -1.1 -1.1 -1.1 -1.1 -1.1 -1.1 -1.1 -1.1 -1.1 -1.1 -1.1 -1.1 -1.1 -0.4 0 0.4 0.8 1.2 1.6 2.2 4.8 5.4 4.8 4.3 4.5 3.8 3.1 3.5 3.8 3.1 2.6 2.3 1.8 -1.1 -1.1 -1.1 -0.9 -0.6 -0.3 0 0.1 -0.6 -0.9 0.7 -1.1 -1.1 3 2.7 2.4 3.2 3.7 4.9 7.2 9.4 12.2 14.4 16.4 16.8 17.3 17.7 19.1 20 21.5 24 25.3 26.8 31.1 34.7 42.9 58.3 73.9 87.3 97.2 104 108.5 113.5 120.3 126.1 136.4 148 160.8 175.1 184.7 189.1 194.1 196.1 197.9 196.5 184.6 175.7 172.9 169.9 173.7 178.6 198.8 205.5 199.3 179.1 196.2 209.2 222.5 234.6 229 229.8 236 242.4 243.7 237.8 233.2 228.5 214.7 228.6 229 216 216 213.7 210.9 204.3 194.7 198.9 198.7 193.7 187.4 179.6 173.4 166.6 154.5 149 140 131.9 121.1 129.9 133.1 145 154.5 162.3 170.9 185.4 203.8 216.9 222.9 228 238.8 244.3 248.8 253.9 251.1 272.1 306 328.9 341.1 347.4 357.2 365.2 373.4 377.2 379.1 370.6 349.4 342 337.1 333.8 331.1 328.5 327.4 324.6 326.9 333.1 333 341.2 354.3 366.7 385.3 395.7 404.1 412.7 426.9 429.7 433.8 446 461.9 470.8 481.9 489.7 499.3 510.9 518.5 515.8 513.5
16.8 10.5 2.2 0.9 2.3 0.5 -1.1 -1.1 -1.1 -1.1 -1.1 -1.1 -1.1 -1.1 -1.1 -1.1 -1.1 -1.1 -1.1 -1.1 -1.1 -1.1 -1.1 -0.9 -0.2 0.5 0.9 1.3 1.7 2.1 3.9 5.6 5.6 6.5 7 7.7 6 4.4 4.1 3 2.3 2.3 1.2 0.8 -1.1 -1.1 -1.1 -1.1 -1.1 -0.8 -0.6 -0.5 -1.1 0.3 -1.1 -1.1 -1.1 2.7 2.3 2.2 2.3 2.9 3.7 4.7 7.7 10 11.6 13 14.7 16.8 17.3 17.4 19.1 20.3 21.5 22.2 22.9 26.3 28.3 38.5 55 67.5 80.9 87.9 93 98.3 105.9 111.3 116.4 129.4 142.7 156.9 167.5 175.5 176.6 178.6 181.4 179.1 173.6 162.4 157.8 154.2 155.5 166.9 180.2 185.4 183.4 179.4 170.7 190 207.2 207.6 207 212.7 224.8 239 230.9 229.2 226.8 221.2 214.4 204.1 214 216.8 209.2 210.3 203.5 197 193.5 194.7 199.3 195 189.7 184 177.8 172.4 164.6 143.4 130.2 126.1 117.5 126.5 131.4 137.3 148.7 156.5 165.5 172.4 188.9 210.1 217.9 224.9 235.4 245.5 244.2 252.2 245.1 256.4 290.1 321.1 341.2 350.4 359.7 370.6 377.2 379.5 384.6 389 381.5 363.2 356.7 350.2 344 340.9 333.7 332.7 333.3 339.1 346.9 347.5 360 368 385.1 395.6 405.6 416.2 429 436.2 444.5 443.8 452.1 468.2 476.3 487.8 498.8 512.6 518.9 517 513.4 514.7
6.3 -1.1 -1.1 -1.1 -1.1 -1.1 -1.1 -1.1 -1.1 -1.1 -1.1 -1.1 -1.1 -1.1 -1.1 -1.1 -1.1 -1.1 -1.1 -1.1 -1.1 -1.1 -1.1 -0.7 -0.1 0.6 1.3 1.8 2.2 4.4 5.6 7.6 10.2 12.3 13.1 12.9 11.9 10.2 9.3 7.3 4.7 2.3 1 -0.3 -1.1 -1.1 -1.1 -1.1 -1.1 -1.1 -1.1 -1.1 -0.5 -0.8 -1.1 2 2.3 2.3 1.3 1.8 2.3 2.8 3.6 3.8 5.3 7 8.9 10.3 11.8 14.7 16.3 17.3 17 18.8 20 21.6 22.2 24.1 25.9 31.7 46.2 59.3 70.3 76.9 82.7 90.3 96.2 102 112.3 125.5 137.8 150.7 158.8 163.7 162.8 166.9 164.2 161.8 153.5 143.4 139.2 136.9 153 163.1 167.6 171.4 174.1 166.4 170 188 194.7 199.3 205.4 217.1 228.4 226.5 226.1 223.5 217.6 217.1 204 196.2 203.5 209.9 198.8 200.4 197.2 194 194.5 197.8 197 191.8 187.2 181.4 176.7 171.4 160.7 135.3 126.9 115.8 120.2 125.6 134.1 144.5 153.7 161.6 167.2 179 196 211.3 223.2 232.1 242.5 245.4 236.8 234.2 238.6 271.9 306.2 333.9 350.4 361.3 367 383.1 382.7 382.8 392.5 394.5 383.1 374 371.1 364.5 357.4 345 340.5 342.7 347.7 358.7 360.9 371.9 378.6 390.1 398.8 408.6 419.8 432.3 440.3 460.7 466.6 459 461.3 474 484.1 494.8 500.3 504.9 508.9 512.4 514.7 513.6
-1.1 -1.1 -1.1 -1.1 -1.1 -1.1 -1.1 -1.1 -1.1 -1.1 -1.1 -1.1 -1.1 -1.1 -1.1 -1.1 -1.1 -1.1 -1.1 -1.1 -1.1 -1.1 -1.1 -0.1 0.4 1 1.6 2.3 4 6.1 9.3 11.7 16.7 11 10.5 12.4 12.5 12.7 12.3 10.2 7.5 3.6 0.8 -1.1 -1.1 -0.7 -0.7 -1.1 -1.1 -1.1 -1.1 -1.1 -1.1 -1.1 -1.1 -0.7 0 -1.1 -1.1 0.4 1.8 2.2 2.8 3.5 4.2 5.5 7 8.5 10.2 10.8 13 15.4 15.8 15.2 17.2 20.5 21.6 22.5 24.6 27.9 35.5 48.8 59.6 68.1 75.1 81.1 86.8 97.7 109.9 116.4 131.4 141.3 146.7 148.7 150.8 152 147.6 141.2 131.6 125.7 122.7 137.8 148.6 154.3 155.3 165.9 165.4 154.8 170 181.3 189.7 202.2 213.3 218.5 219.3 221.9 224.8 226.3 210.5 207.7 189 192.5 193.6 193.1 191.4 191.7 190.6 192 194 197.6 193.8 189.4 184.6 179.3 173.7 167.4 154.7 140 132 123.4 120.2 128.6 138.1 150.8 157.2 163 172.5 183 200.5 217.6 224 233.3 235.7 231.5 225.3 234.5 248.9 288.9 321 343.7 357.4 361.4 368 375 379.9 385.6 391.9 395.3 386 383.1 380.3 376.8 363.7 348.1 350.2 355.1 364.4 370.4 378.8 387.2 399 411 417.1 429.6 437 441.5 457.3 466.1 470.4 468.6 470.8 479.2 484.2 501.1 505.5 504.8 509.6 518.4 519.1 519.3
-1.1 -1.1 -1.1 -1.1 -1.1 -1.1 -1.1 -1.1 -1.1 -1.1 -1.1 -1.1 -1.1 -1.1 -1.1 -1.1 -1.1 -1.1 -1.1 -1.1 -1.1 -0.1 0.5 1 1.3 1.8 2.5 4.8 5.8 7.8 13.6 19.5 13 10.8 10.5 10.5 10.5 10.8 11.5 11.8 8.2 2.8 -1.1 -1.1 0 0.3 0.3 0.1 -0.1 0.1 0.6 0.8 0.3 -1.1 -1.1 -1.1 -1.1 -1.1 -1.1 1 2.2 2.3 3 3.3 3.5 4.4 5.5 6.7 8.1 9 9.5 10.6 11.8 11.9 14.9 18.4 19.3 19.3 22.1 25.4 30.7 38 50.3 58.3 66.3 72.5 84.4 94.1 101.4 107.5 122 128.3 134.7 136.7 138.9 139.4 128.4 120.3 115.3 113.3 119.8 132.5 139.4 143.5 153.5 156.7 156.2 151 164.1 177 192.8 201.8 208.8 213.7 214.3 221.5 221.4 215.7 202.9 197.3 188.2 180.4 183.2 183.2 183.1 187 189.3 190.6 192.8 199 191.1 186.5 181.8 176.7 169.8 156.9 145.8 136.3 126.4 120.6 120 132.4 142.3 151.3 159.5 165.3 178.2 189.1 205.6 214.2 222.1 223.1 225.8 219.2 223.1 242.5 265.5 293.6 317.3 338 345 356.2 364.8 373.6 382.9 385.2 390 389.2 387.7 388.2 394.3 385.9 368.1 356.3 360.8 368.9 377.9 384.9 398.9 406 414.1 423.2 426.9 434.8 440.6 453.9 463.3 476.1 481 472.9 470.1 480.3 499.9 507.1 514.4 522.3 530.6 527.4 523 521.3
-1.1 -1.1 -1.1 -1.1 -1.1 -1.1 -1.1 -1.1 -1.1 -1.1 -1.1 -1.1 -1.1 -1.1 -1.1 -1.1 -1.1 -1.1 -1.1 -1.1 0 1 1.6 2.1 3.9 4.3 4.3 6.2 9.6 13.8 15 17.2 13.4 10.5 10.5 10.5 21.9 12.5 11.1 11.4 7.8 1.2 -1.1 0.1 0.9 1.3 1.1 1 1 1.2 1.6 2.1 2.2 3.2 4.1 -1.1 -1.1 -1.1 -1.1 -1.1 -1.1 2.3 2.8 2.8 3.1 -1.1 -1.1 4.3 5.7 6.6 7.6 8.3 8.1 9.5 10.6 12.6 15.1 15.7 17.9 22.1 26.1 32.6 38.9 50.8 58.8 69.4 78.2 84.6 92.8 97.1 108.7 119.5 122.2 125.8 126.7 123.8 112.5 109.8 104.8 108.2 115.3 123.9 129 138.9 143.1 144.8 148.1 152.6 166.3 180.8 191.5 199.4 204.1 206.9 212.5 214 209.5 199 200.8 198.3 188.2 183.8 172.8 173.7 180 184.4 187.2 189.5 193.3 191.9 187 183 178.4 172.4 164.9 150.8 136.8 121.5 107.5 114.4 126.9 137.4 148.5 154.9 162 168.6 181.8 191.6 202.5 208 210.4 213.4 208.6 211.3 229.9 249.3 269 289.9 310.3 321.5 336.1 348.7 363 371.2 377.4 385.6 384.5 390.7 396.5 401 399.3 392.3 374.8 366.8 369.1 387.2 394 402.5 410.2 416.4 428 439.1 438.9 444.8 457.2 470.5 481 488.9 490.6 477.9 475.1 501.9 509.8 516.9 526.2 532.7 529.4 525.2 516.6 514.6
1.6 -1.1 -1.1 -1.1 -1.1 -1.1 -1.1 -1.1 -1.1 -1.1 -1.1 -1.1 -1.1 -1.1 -1.1 -1.1 -1.1 -1.1 -1.1 -0.2 0.6 1.7 4.2 7.3 8.2 7.8 7.5 10.2 13.6 15.9 32.2 28.2 13.8 11.4 11.4 18.9 11 8 8.4 10.4 7.4 -1.1 -1.1 1.6 3.8 2.2 2 2.1 2.1 2.4 3.7 4.6 6.2 9.2 7.9 7.5 4.9 3.5 2.8 2.3 -1.1 -1.1 2.5 2.5 -1.1 -1.1 2.9 3 3.2 3.5 3.6 3.8 6.4 7.4 7.4 9.3 10.6 11.7 13.8 15.6 21.3 24.7 30.1 35.7 47.6 58.2 65.4 72 79.1 87.1 100.6 106.7 110.7 113.4 110.8 103.5 97.9 94.4 92.2 101.9 106.8 114.7 120.3 126.4 131.4 137.5 141.3 152.4 170 179.8 193.2 194.3 193.1 201.2 201.7 201.4 191.1 196.5 198.3 193.1 183.1 178.9 174 176 178.4 179.7 183.1 188.4 187.2 184.3 182.4 178.5 174.6 168.9 157.7 144.7 128.1 103 118.8 126.1 131.5 142.8 150.7 156.9 160.7 173.2 184.3 190.8 196.1 198.3 197.9 197.5 206.7 214.7 232.7 250.5 270.5 286.1 301.4 320.7 332.9 344.1 357.5 367.8 372.9 377.6 390.9 399.6 403.7 408.6 404.2 392.2 379.6 376 388.4 408 416.1 416.6 430.1 433 448.4 451.4 450.6 456.6 468.8 485.3 495.5 500.1 501.8 489.2 490.7 505.3 512.3 517.3 527.4 519 526 521.4 512.7 497.7
-1.1 -1.1 -1.1 -1.1 -1.1 -1.1 -1.1 -1.1 -1.1 -1.1 -1.1 -1.1 -1.1 -1.1 -1.1 -1.1 -1.1 -1.1 -0.7 0.3 1.2 2.1 7.1 10.2 11.2 11.8 12.4 13 21.2 35.7 30 18.7 22 13.7 17.5 18.2 10.5 4.2 2.6 2.1 2.2 -1.1 -1.1 9.2 15.5 6.8 8.7 6.6 5 6 9 10.9 12.9 25.3 12.8 11.4 9.1 7.8 6.4 5.6 5.3 -1.1 2.8 -1.1 -1.1 3.4 3.7 4 4.4 4.6 4.3 4 4.7 4.5 5.3 7.4 8.6 9.8 9.5 11.6 14.7 20.1 22.9 23.7 35.2 42 48.2 55.7 63.9 77.6 87.5 93.6 100 98.4 95.5 88.9 82 79.3 88 95 100.6 105.2 109 117.2 125 133.5 143 155.9 173 182.4 182.8 183.4 188.5 190.1 187.8 187 182.3 192.6 189.9 180 180.7 179.6 170.7 170.9 173.1 176.4 180 182.9 180 180.2 177.9 172.6 168.9 162.5 152.1 138.8 120.9 102.1 121.1 128.2 136.9 146 151.5 154.1 162 175.6 183.4 188.5 187.4 185.4 188 195.3 197.2 212.9 233 250 269.2 286.3 309 331.6 349.5 360.1 364.7 377 380.1 385 402.1 415.5 418.8 417.7 400 393.7 390.3 392.7 408.7 427.2 432.9 439.9 447.3 459.5 466.9 461.2 461.3 472.7 488 499.9 506.4 509.7 509.4 497.8 492 505.5 509.1 510.7 512.7 523.8 525.8 509 486.2 469.6
-1.1 -1.1 -1.1 -1.1 -1.1 -1.1 -1.1 -1.1 -1.1 -1.1 -1.1 -1.1 -1.1 -1.1 -1.1 -1.1 -1.1 -1.1 -0.3 0.6 1.6 5 10 12.8 13.7 13 12.8 20.5 31.9 34.2 23.8 22.6 27 18.3 14.9 23.1 10.1 2.1 0.9 0.8 0.2 -1.1 -1.1 20.6 13.5 12.5 17.6 9.2 9.2 11.7 25.9 39.3 37.1 40.6 40.7 37 33 12.3 11.6 10.8 9.6 7.9 7.3 6.3 6.4 6.9 6.3 5.4 6.4 6.6 6 5.7 4.9 4.6 4.6 6.3 6.7 8.4 10.2 8.8 12.1 12.8 17.1 24.4 24.1 31.7 33 39.9 45.7 64.2 77.3 83.9 85.9 82.9 79.1 71.7 68.5 78.4 85.1 88.7 92.8 93.6 103.9 114.4 122.6 133.8 144 160 170.3 174.2 179.2 176.4 180.1 181.8 182.4 175.1 176.2 184.1 173.9 171.8 181.1 183.6 167.5 157.5 165.3 169.9 172.2 174.1 173.5 171.9 169.3 166.7 163.6 157.7 147.6 134.3 110.3 107.7 123.5 132.2 141.5 148 147.6 153.9 164.5 172.4 179.3 183.6 177.7 179 188.4 188.2 197.4 219.7 231.3 249.8 272.3 296 322.9 346.5 358.6 362.7 375.4 383.2 383 400.5 419 422.5 425.8 415.4 408.9 398.2 396.2 405.3 428.5 441.6 446.8 459.5 466.3 478.3 477.2 475.3 482.1 497.1 504.5 509.7 512.7 513.2 513 508 496.8 505.4 506.7 506.7 511.5 509.7 500.7 478.7 461.7 449.3
-1.1 -1.1 -1.1 -1.1 -1.1 -1.1 -1.1 -1.1 -1.1 -1.1 -1.1 -1.1 -1.1 -1.1 -1.1 -1.1 -0.4 -0.1 0.4 1.2 2.1 7 13.3 13.9 13.2 13.1 13.9 33.5 22.2 18.2 15.4 20.3 28 19.7 16.7 16.6 6.6 -1.1 -0.5 -0.2 -1.1 -1.1 20 18.1 20.8 24.2 25.8 21.8 29.2 40.6 47.3 50.7 54.7 54.4 51.8 47.5 44.5 36.5 31.3 28.9 28.9 20.3 12.7 12.7 14.3 19.7 10.3 9.2 8.4 8.4 7.4 7.5 7.2 5.6 4.9 5.7 5.6 5.8 7.2 7.7 9 11.3 12.6 14.4 16.2 21.6 24.6 32.9 41.2 51.7 61 69 69 65.9 61.3 59.4 68.2 77.9 82.1 80.6 86.4 95.6 105 115 123.1 137.9 146 156.3 165 170.8 172 172.3 178.9 175.3 174 161.6 174.9 174.1 163 177.2 184.9 178.9 158.1 146.2 159.5 161.8 163.1 163.5 163.4 163.7 161.5 162.5 161.6 152.4 143.1 127.5 100.4 115.5 126.9 134.4 142.1 141.7 146.8 153.2 159.8 169.4 175.3 172.3 177.5 179.1 180.5 185.1 208.1 221.4 237.5 252.4 273.2 301.8 327.6 347.3 356.7 371.1 388.4 392.2 394.5 410.6 423.9 428.8 422.2 410 407.7 402 398.8 428.4 443 453.8 464.4 471.8 486.2 486.4 485.6 494.4 507.6 513.5 517.1 516.9 519.9 520.2 517.8 511.5 502.3 503 504.2 504.9 499.9 488.2 471.2 458.3 442.4 427.3
-1.1 -1.1 -1.1 -1.1 -1.1 -1.1 -1.1 -1.1 -1.1 -1.1 -1.1 -1.1 -0.6 -0.5 -0.3 -0.1 0.3 0.7 1.2 1.8 4.7 9.9 13.7 13.9 12.7 12.9 30.2 29.1 24.8 15.9 13.9 27.5 17.9 11 12.6 10.4 3.2 -1.1 -1.1 -1.1 -1.1 7 18.6 22.8 28.3 34.1 37.8 45.6 55.1 64.8 70.4 72.5 71.7 68.6 65.7 61 57.5 58.2 52.9 48.9 45.2 39.6 36.4 35.2 34.8 35.2 28.5 24 16.1 12.8 10.3 7.7 6.9 6.8 6.1 6.7 5.4 5.7 6.2 6.8 7.7 9.4 10.3 10.6 12.3 15 16.5 22 29 34.9 45.8 50.6 53.6 48 48.3 58.9 66.7 72.1 70.9 77.2 86.6 96.2 104.9 118.3 130.2 138.3 141.7 150.7 160.7 163.7 166.5 169.4 168.1 166.3 155.4 159.8 167.9 158 165.5 180.9 181 156.6 149.2 143.2 152.7 153 153.6 158 157.9 157.2 157.7 161.3 162.9 148.9 140.1 123.1 95.9 117.3 127.3 135.6 136.6 141.1 142.6 148.2 157.8 164 167.1 172.6 174.1 174.1 180.3 194.9 216.3 238 258.3 273.8 278.6 299.9 326.2 348.3 363.8 389.4 401.4 403.9 403.3 421.9 427.1 423.6 408.3 407.4 401.6 399.6 417.9 441.2 455.5 470.5 476.3 490.2 490.6 491.4 498.8 511.8 517.3 524.5 522.6 521.3 522.4 521.8 519.1 513.5 500.5 499.2 497.4 491.2 484 467.3 452.8 432 411.9 392
-1.1 -1.1 -1.1 -1.1 -1.1 -1.1 -1.1 -1.1 -1.1 -1.1 -1.1 -0.2 0.3 0.4 0.6 0.8 1 1.4 1.9 3.6 8.4 14.3 14 14.5 14.2 18.5 34.8 24.8 18.1 12.8 15 21.3 13 10.5 8.1 6.9 -1.1 -1.1 -0.5 0.3 2 13.8 21.3 30.8 38 44.3 51.4 62.8 73.6 84.1 88.9 89.4 86.8 83.4 79.7 76.2 72.8 71.3 70.6 65.4 60.9 56.9 53.1 53.7 52.6 49 44.1 39.1 36.6 28.1 19.1 11.6 9.3 7.6 7.2 7 5.5 6.1 6.6 6.2 6.8 7.6 8 9.2 10.6 12.4 13.4 13.1 14.7 20.8 28.5 35.1 37.2 41.9 47 56.1 60.5 62.6 70.8 78.4 85.2 97 107.5 115.7 126.8 130.2 135.8 143.9 152.3 157.4 160 159.2 153.9 148.6 149.3 159 154 156.5 177.3 178.2 159.1 144.7 142.3 143.8 144.8 144.3 148.7 151.9 151 152.3 156.1 161.7 152 145.1 134.9 122.1 92.9 116 125.9 132 136.5 134.4 136.2 149.1 152.5 158.2 163.7 165.9 170.7 174.7 183.9 207.9 229.2 247.9 271.8 294.7 301.1 312.3 334.5 352 367.5 390.4 403.8 404.1 415.1 421.8 425.2 409.8 402.3 400.6 400.6 418.8 437.2 453.5 469.6 480.3 489.1 494.6 496 503.4 516.3 522.2 527.3 527.5 525 523.6 525.3 520 513.2 506.5 486.9 488.9 481.1 466.8 455.2 440.3 423.8 408.5 389.8 377.5
-1.1 -1.1 -1.1 -1.1 -1.1 -1.1 -1.1 -1.1 -1.1 -1.1 -0.5 0.4 1.1 1.3 1.4 1.6 1.8 2.2 4.9 8.8 12.7 13.1 14.1 14.1 14.7 24.9 22.4 22.7 12.9 11.5 11.8 21.6 19.3 10.7 2.3 2.3 1.2 -0.4 0.6 1.5 6 14.1 30.2 39.2 47.5 54.6 63.6 74.5 87.3 99.8 106.5 104.7 101.6 97.4 92.5 89.4 88.6 85.1 83.2 79.2 74.6 72.2 72 69.3 64.5 60.3 55.5 51.3 48.9 40.8 32.3 22.8 13.4 10.1 8.8 7.6 6 6.5 6.6 6 6.9 7.2 7.6 8.7 10.1 10.1 10.8 11.4 12.3 13.3 14.9 16.7 25.3 38.5 44 49.2 53.4 60.7 67.6 74.8 82.4 91.1 102.2 113.4 121.1 121.9 128.7 134.6 143.9 148 147.7 143.3 142.3 143.7 147.6 147.3 152.2 168.7 176.1 157.5 135.2 134.7 125.1 136.9 136.6 137.3 144.3 145.8 146.1 151.3 158.2 150.6 142.3 136 130.7 126.2 101.4 102.5 124.3 129.5 128.9 127.2 135.6 141.7 150.3 155.7 158.2 164 170.7 174.6 193.6 217.9 239.6 260.8 290.2 303.7 324.1 333 340.1 358.2 382.9 388.2 397.6 406 415.7 426.2 411.2 399 397.9 395.8 408.7 430.4 446.8 460.3 471.2 489.3 499.3 507.6 509.9 528.2 532.7 535.8 535.4 533.6 530.7 526.2 524.3 505.4 502.1 483.6 464.1 460 453 439.8 432.5 415.1 399.9 380.7 361.1 344.1
-1.1 -1.1 -1.1 -1.1 -1.1 -1.1 -1.1 -1.1 -1.1 -1.1 -0.4 0.5 1.5 2.2 3.2 4.2 4.5 5.8 7.1 10.6 12.8 13.3 13.9 14.4 14.9 21.2 26.5 14.1 11 10.7 9.9 8.9 8.6 6.6 2.3 2.3 2.3 0.5 1.2 2.2 9.6 26.2 42.5 51.1 59 69.4 78.6 88 100.5 113.1 119.6 116.7 112.3 108.1 105.3 104.5 102 98.8 95.2 91.1 89 90.3 85.8 77.6 69.8 68.4 66.7 63.8 58.7 50.6 41.5 37.6 24.2 17.5 10.3 7.9 7.2 6.5 6.6 6.4 6.4 7 7.7 8.3 9.1 9.9 10.5 11.3 12.3 13.2 14.3 18.3 17.6 21.9 34.6 41 46.8 54 60 67.5 75 82.5 95.1 107 109.3 113.8 119.5 126.7 134 135.2 137.3 132.1 135.2 141.5 142.6 148.5 153.4 163.1 153.6 128.7 126.5 123.3 127.9 129.9 130 134.3 138.4 141 142.9 151.6 149.7 137.7 132.5 129.8 128.4 125.1 114.6 85.3 118.7 122 117.7 122.1 134 140.1 148.4 149.4 160.4 167.7 176.1 182.2 200.6 225.4 248.5 276.5 304.8 305.6 334 336 346.5 368 389.6 392.7 398.4 408.3 415.8 404.6 398.2 395.1 391.8 406.6 430.8 443.9 456.6 466.7 482.3 500.9 511 513.2 525.1 538.5 541 543 541.4 537.6 529.9 523.8 504 492.7 476.2 460.6 443.9 442.6 431.9 422.2 415 401.3 377.4 356.4 331.2 318.6
-1.1 -1.1 -1.1 -1.1 -1.1 -1.1 -1.1 -1.1 -1.1 -1.1 -0.2 0.6 1.4 2 4.4 5.6 6.5 7.4 9.1 10.5 12.6 13.6 13.2 14.2 24.7 22.7 13.1 10.8 10.2 10.1 11.1 15.4 12.1 5.5 2.2 2.3 2.3 2 1.9 7.5 23.6 39.8 54.4 62.2 68.9 84.2 94.1 103.1 115.9 123.4 129.5 128.4 123.5 119.8 119 117.4 115.8 112.1 108.2 107.6 108.7 106.1 96.6 85.4 80.2 80.8 79.8 78.9 70.7 60.9 57 53 35.9 29.3 17.6 10.3 8.3 7.5 7 6.4 7.2 7 7.6 8.3 9 9.1 9.9 11.2 12.3 13.2 14.1 15.5 17.5 19 22.8 26.7 39.8 45.6 51.1 56.8 63.2 70.5 82.7 94.6 98.6 103.7 113.8 120.4 123.9 128.8 126.8 124.4 130.6 136.3 139.4 142.6 144.9 146.8 121.5 117.7 119.4 113.8 123.3 122.9 124.9 132 131.1 134.6 141.3 136.2 132.5 127.2 124.9 124.7 124.7 122.5 113.1 86 106.7 110.3 110.5 119.3 129.8 133.8 146.4 158.5 166 178.6 185.7 187.3 207.8 231.8 257.6 287.6 306.9 309.3 329.2 331.7 351.4 371.2 378.1 390.2 399.4 407.6 394.6 391.9 386.3 384.2 392.2 423.8 439.2 453.7 468.5 476.4 497.1 508.7 511.8 525 542.1 543.3 549.8 547.4 542.2 526.2 513.4 496 478.5 474.5 465.4 443.2 425.3 424.2 409.4 404.5 387.6 371.8 353.5 322.9 313.2 287.3
-1.1 -1.1 -1.1 -1.1 -1.1 -1.1 -1.1 -1.1 -1.1 -1.1 -0.5 0.2 0.9 1.6 2.2 6.1 7.2 8.4 9.3 10.8 12.5 13.6 13.6 14.5 16.4 12.2 10.8 9.8 10.2 11.5 13.9 20 11.5 2.3 2.2 2.3 2.3 2.3 5.1 17.5 36.6 54 66.2 72.1 82.1 95.4 108.2 119.2 132.4 136.7 139.5 138.2 136.8 133.3 130.9 128.9 127.2 124.6 123.9 127.5 124.9 112.7 103.6 89.3 92.4 93.4 96.8 93.6 80.4 69 65.5 54.5 42 31.7 19.2 13.5 10.6 8.6 7 7.1 7.3 7.4 7.7 7.5 8.1 9 9.8 10.6 12.1 13.3 14.7 15.7 20.2 18.2 20.2 22.6 23.8 34 36.5 43.3 49.8 54.9 65.6 76.8 79.8 91.4 98.5 108.2 112.9 110.4 115 119.6 124.6 126.8 126.7 129.3 131.5 115.4 108.7 112.5 112.7 112.5 114.2 114.3 123.1 125.4 124.5 130.3 128.9 126 122.2 122 120.3 120.1 120.6 119.3 104.6 87.3 96.5 99.4 112.9 122.6 133.6 143 153.9 163.8 174.8 183 187.2 192.2 213.6 239 261.8 288.1 302.6 317.7 323 335 350.1 363.3 374.3 394.6 395.5 382.7 390 378 371.5 386.8 410.5 435.2 444.4 464.3 477.3 493.6 508.7 512.6 517.8 535.6 541.5 545.1 540.7 534.9 519 493.1 485.7 475.2 464.5 459.2 444.8 410.1 401.8 400.6 390.4 380.5 370.3 342.8 319.4 304.6 282.9 263.4
-1.1 -1.1 -1.1 -1.1 -1.1 -1.1 -1.1 -1.1 -1.1 -1.1 -0.6 0 0.6 1.3 1.9 4.8 7.6 8.6 9.5 11 12.6 13.5 14.3 14.5 13.4 11.8 10.6 12.8 16.5 22.6 27.3 20.3 9.8 5.2 2.3 2.3 2.3 5 13.6 34.2 51.4 67.6 77.2 83.9 93.7 110.9 123 135.4 141.6 144.1 145.6 150.4 150.5 145.7 142.2 139.8 137.1 137.2 140.9 141.8 135.3 113.8 105.8 103.1 105.7 110.5 114.4 107.1 85.6 81.5 70.4 56.3 45.3 33.2 22 14.7 12.7 10.8 8.3 7.8 7.2 6.6 6.5 7.6 8.8 8.8 9.7 10.7 11.8 12.5 13.5 14.1 17.2 24.5 24 27.1 30 32.3 33.8 29.5 30.8 38.1 48 56.9 58.9 68.2 77 89.9 99.7 107 109.7 109.5 112.6 113.7 114 114.8 108.3 102.9 104.6 105.2 102.3 104.5 107.7 115.4 117.5 118 119.9 119.7 117.4 117.3 116 114.8 115.8 115.8 113 103 87.5 77.3 90.4 104 119.2 128 137.7 149.8 158.7 167.7 175.9 184.6 187.5 195.4 218.1 243.9 265.8 284.5 297.4 305.3 317.9 341.8 365 379.7 385.8 390.3 374.2 376.7 368.2 359.5 377.3 408.1 424.3 437.4 455.2 472.4 492.9 506.9 513.2 515.7 524.5 536.3 541.1 537.5 527 513.3 488.7 479.7 464.2 457.1 446 436.3 414.5 379.8 373.4 368.1 361.8 349.9 335.4 318.5 299.7 279.6 263.2 243.9
-1.1 -1.1 -1.1 -1.1 -1.1 -1.1 -1.1 -1.1 -1.1 -1.1 -0.5 0.1 0.6 1.2 1.7 2.3 7 8.5 9.8 11.1 12.7 13.8 13.9 18.1 13.2 13.1 18.6 27.8 28.9 32.1 30.9 17.6 14 9.1 5.2 3.1 5.2 16.9 38 52.1 66.1 78.1 84.6 94.1 107.6 122.3 132.1 139.8 146.5 151.1 162 162.2 160.6 156.3 151.8 147.8 146.1 152.5 154.7 146.6 122.3 116.4 115.1 113.9 117.3 120.3 123.6 107.3 95.8 89.8 73.5 60 50.3 38.8 25.5 17.3 13.6 11.9 9.7 8.6 8.2 7.5 6.5 7.5 8.2 9 9.6 10.6 11.3 12.1 12.9 13.5 15.8 22.5 22.7 24.7 26.7 31 36.3 36.5 38.3 38.1 33.7 37.9 46.1 54.2 63.6 77 88.4 95.7 97.8 100 100.3 100.1 99.7 97.2 94.1 95.5 95.9 97.5 99.5 102.8 106.2 108.9 107.9 109.3 109.9 109 109.7 109.3 109.3 110.3 111.8 106 97.9 84.3 78 90.8 101.1 115.8 128 138.3 146.5 154.4 161.8 171.4 180.2 183.8 188.9 203.7 223 250.7 261.2 276 290.5 308.2 329.3 353.4 368.2 377.2 382.8 366.4 361.7 359.3 347.8 368.3 391.4 415.1 437.5 452 469.6 486.9 498.8 507 511.9 516.8 533 530.2 527.4 515.8 506.2 487.4 467.5 453 447.2 440.4 426.6 410.4 383.3 347.4 350.9 339.8 334 323.1 312.6 295.7 273.3 259.9 235.5 227.2
-1.1 -1.1 -1.1 -1.1 -1.1 -1.1 -1.1 -1.1 -1.1 -1.1 -0.6 0 0.5 1 1.6 2.1 6.6 8.3 9.5 11.3 13.2 13.4 13.9 14 14.1 24.3 27.2 30.2 28.2 27.9 23.2 15.8 15.2 11.4 8.3 8.3 28.4 44.1 53.2 64 75.3 82.2 94.9 108.6 120.8 128.3 136.7 143.8 150.7 155.8 166 170.2 168.1 164.3 157.5 152.3 154.4 163.5 156.7 134.8 125.3 125.6 121.6 121.8 124.8 125.6 125.6 113.7 107.7 93.8 77.1 67.9 58.2 44.9 29.5 20.8 15.3 13.8 11.6 11.1 11.7 10.6 7.9 7.5 8.3 9 9.7 10.2 10.9 11.6 11.9 12.2 15.2 17.6 17.8 19.6 22.1 28 33.4 36.1 39.7 42.5 45.3 47.3 41.9 42.6 53.4 66.6 81 87.9 88.6 89.5 88.7 89.3 87.5 87.8 86.3 88.7 87.5 89.5 94.8 98.2 105.3 105.7 104.5 102.4 102.2 103.8 106 102.8 105.6 107.1 99.2 88 83.4 72.4 87.5 99.9 110.8 124 133.6 146.9 153 159 167.2 175 179.9 183.4 194.5 210.9 231.9 249 268.2 288.7 303.2 319.3 346.9 357.8 363.2 367.9 353.5 341 343.5 330.8 356.9 384.3 401.9 427.6 454.2 475.2 491.5 498.1 503.5 504.8 507.4 507.2 512.1 512.7 505.9 500.2 476.1 460.1 441.4 436.3 432 422.1 407.6 382.4 358.6 318.2 318 309.9 302.4 290.5 280.3 265.7 248.8 231.1 216.2 206.5
-1.1 -1.1 -1.1 -1.1 -1.1 -1.1 -1.1 -1.1 -1.1 -0.9 -0.4 0.1 0.5 1 1.5 2.1 6 8 10 11.2 13.4 13.8 13.4 13.4 14.6 16.7 20.7 25.1 25.9 31.4 21.7 14.9 14.4 10.5 10.6 28.7 47.4 60.1 65.1 74.3 84 94.1 106.3 119.3 126.9 134.4 141.9 149.3 155.7 160.2 171.4 173.7 173.3 172.6 157.6 157.6 161.5 159.9 143.8 130.6 134.2 132.9 124.5 124 126.5 127.8 125.7 120.4 110.5 97.5 85.6 74.5 65.3 51.2 35.8 26.7 20.4 17.5 19.4 19.8 20.6 14.4 10.2 7.9 8.2 9 9.6 9.5 10.3 10.7 11.1 11.5 13.1 13 15.5 18 19.8 25.4 28.8 33.2 39.9 44.9 47.1 49.8 51.9 46.9 44.4 59.9 72.2 79.1 79.7 79.1 80.6 80 78.3 79.8 79.2 81.2 80.9 86.9 91.4 98.4 100.3 101 98.7 96.1 95.9 95.6 96 98.1 98.9 91.2 81.3 67.8 77.3 85.5 97 108.1 120.7 130.8 142.2 152 163.4 168 172.1 175.9 178.8 186.4 201.8 221.9 244.4 262 287.4 299.7 308.9 338.6 342.3 344.6 355.9 340.1 325.5 324.9 312.8 342.6 371 387 416.9 450.1 471.7 485.6 501 500.9 503.4 499.9 499.9 497.8 497.3 491.6 482.4 467.6 450.8 443.4 437.6 421 409.2 394.1 376.8 359.4 332.7 291.7 294.7 286.2 269.4 258.9 248.9 239.7 228.7 215 201 181.9
-1.1 -1.1 -1.1 -1.1 -1.1 -1.1 -1.1 -1.1 -1.1 -0.9 -0.4 0.1 0.6 1.1 1.6 2.1 6.4 8.9 10.5 11.8 13.7 14.3 13.9 13.7 14.3 15.4 17.6 25.1 30 15 14.2 14.8 13.5 12.3 22.6 52.9 64.8 69.1 73.6 81.4 90.5 102.2 113.4 125 132.4 140.2 146.5 156.9 163 168.9 176.2 175 173.8 166.2 155.4 156 156.4 145 135 138.6 138.6 126.1 124.2 125.2 132.6 133.7 135.2 125.8 119.1 105.6 91.3 81 71.6 56.6 44 35.1 29.7 29.1 28.5 25.2 23.9 22.8 15.5 10.8 9 8.5 9.1 9.5 9.9 10 9.9 11.1 11.1 11.8 14.1 16.1 17.8 19.7 26.1 30.5 37.8 43.6 46.8 49.3 51 51.6 45.6 55.8 60.7 67.4 68.8 68.8 70 69 70.2 70.6 69 77.4 81.6 86.9 91.5 94.1 95.2 92.5 88.7 86.8 87.2 91.4 90.4 90.1 82.7 73.2 63.4 77.7 86.8 96.1 107.5 119.4 126.8 137.5 146.5 163.5 170.8 173.2 174.9 176.6 181.1 195.9 212.9 237.4 259.8 278.1 300.1 306.2 317.8 325.2 318.4 334.4 320.8 311.2 303 301.4 329 355.6 374.4 405.3 438.4 460.5 478.4 489.2 493.2 491.5 494.5 495.7 493.6 491.2 484.4 467.6 453.5 444.6 440.5 437.2 421 409.6 394.9 380.9 353.7 328.7 306.9 264.4 275.7 263.4 257.4 245.3 236.5 226 211 200.3 185.2 158.4
-1.1 -1.1 -1.1 -1.1 -1.1 -1.1 -1.1 -1.1 -1.1 -0.9 -0.4 0.1 0.6 1.1 1.6 2.1 6.2 9.7 11.4 12.2 12.4 13.8 14.3 14.2 14.8 15.5 23.3 22.8 15.6 14.3 14 14.2 14.6 19.1 52.8 64.1 75.3 75.9 77.2 86.3 101.2 113.8 120.8 130.7 136.8 145.5 150.6 162.4 167.9 176.6 173 172.5 169 154.2 151.7 152.4 142.5 135.1 138.2 138.9 126.3 124.4 132 136.8 143.3 143.8 142.3 134.8 123.6 107.9 98.3 91 74.7 63 53.4 47.1 42.4 40.4 38.4 31.3 26.8 24.3 20.9 16.3 11.8 8.9 8.5 8.9 9.3 9.8 10.7 11.5 11.6 11.8 12.6 13.9 15.2 17.1 21.9 27.4 34.1 38.2 41.4 44.1 45.9 49.8 46.5 48.2 49.1 53.8 55.3 56.9 59.6 63.1 64.4 65.1 72.2 77 80.3 85 86.6 88.1 84.8 81.4 79.7 82.2 81.2 78.9 72 66.2 57 60.5 70.8 81.4 92.3 104 116.5 125.7 137 144.6 153.8 167.7 173.2 180.5 178.1 180.2 192.4 209.1 218.7 237.2 257.6 284 298.4 293.4 298 299.7 310 304 292.4 286.7 280.8 314.9 341.7 365.2 407.3 424.1 439.5 461.7 477.5 486.9 482.7 484.4 486.3 480.9 477.7 465.8 450.1 441.9 429.7 423.5 416.9 409.5 393 384.6 373.9 358.8 335.2 307.4 285.4 247.9 265.7 257.3 238.9 220.8 216.6 206.9 192.9 176.3 157.9 142.5
-1.1 -1.1 -1.1 -1.1 -1.1 -1.1 -1.1 -1.1 -1.1 -0.9 -0.5 0 0.7 1.4 2.2 2.3 5.9 10.6 12.3 12.6 13 14.7 14.8 14.3 16.7 24.8 16.4 15.9 16.3 15.8 14 14.7 19 42.6 61.5 74.1 79.1 79.4 82.3 97.5 115.8 122.1 128 136.2 142.3 148.5 156.1 164.9 174.7 172.8 167.9 166.1 161.3 146.1 145.9 139.1 133.2 134.1 134 129.1 127.6 133.4 148.4 148.3 151.6 152.6 147.3 136.6 125 114 111 97.7 83 73.2 66 61.3 56.5 53.7 43.2 36 30.2 25.9 22.7 20.1 16.1 12.5 9.4 9.1 9.7 10.1 11.1 12 12.8 12.6 13.1 14 14.3 16.4 18.5 25.5 31.5 35.2 36.8 31.6 34.3 43.7 44.6 46.9 40.4 37.1 43 48.5 51.7 54.8 59.5 60 70.4 73.7 76.4 80.1 78.7 75.7 75.4 74.6 73.5 71.4 67.7 49.7 54.5 63.8 70.1 74.3 82.2 90.3 101.8 112.3 123.8 136.3 143.2 147.6 159.9 168.7 176.7 181.5 185 192.2 199.2 206.1 221.2 235.7 259.5 272.5 280.9 280.8 281.3 293.7 284.1 274.2 273.3 264.8 293 324 355.9 390.2 400.8 423.4 437 449.2 462.5 464.9 460.3 457.9 458 446.7 440.7 433.3 428.1 408.2 409.3 408.1 396.6 385.2 369.9 369.6 354 337.3 313.2 290.2 267.3 227 246.8 240.1 218.9 204 190.4 176.3 165.3 143.4 132 113.8
-1.1 -1.1 -1.1 -1.1 -1.1 -1.1 -1.1 -1.1 -1.1 -0.9 0 0.8 1.5 2.3 2.3 2.3 8 11.6 13.4 14.7 13.5 13.9 14.4 18.7 20.1 15.2 15.1 15.5 15 14.8 13.9 16.8 36.5 55.8 68.3 78.9 81.8 83.8 91.5 112.5 122.3 131.6 138.6 140.1 144.2 151 159 166.8 170.3 165.3 162.9 162.2 141.6 138.2 133.7 132.1 133 128.8 128.8 130.7 134.7 148.7 157.4 153.2 155 154.8 149.5 138.1 128.5 126.5 114.2 106 92.9 83.9 77.9 72.3 68.2 64.7 49.1 39.1 33.6 28.8 25.4 22.7 17.9 14.1 11 12.1 10.2 10.5 12.2 13.1 14.3 14.1 13.2 14.1 15.3 16.4 17.7 22 29.6 33.2 30.2 25.1 29.9 31.1 32.3 35.5 40.7 45.3 48.7 44.7 47.3 50.2 54.6 61.3 64.5 67.6 72.7 69.8 66.9 67.4 67.8 66.3 62.8 60.1 43 62.6 68.1 73.6 74.4 83.2 92.3 103.6 110.2 120.8 130.4 136.4 142.1 150.6 161.6 171.6 185.6 192.1 189.3 192.2 194.3 210.3 226.2 237.8 257.8 267.7 269.6 260.8 266.2 267.8 254.1 252.2 244.8 271.7 298.6 323.4 364.3 375 401.8 413.7 426.8 433.7 434.7 436 430.8 432.3 427 414.5 407.2 404.5 389.5 387.3 387.3 374.9 368.5 360.8 353.9 341.9 331.1 319.3 298.3 271.7 250.8 209.6 220.8 213.4 189.5 184.5 166.8 153.2 130.7 117.8 107.3 92.3
-1.1 -1.1 -1.1 -1.1 -1.1 -1.1 -1.1 -1.1 -1.1 0.4 1.6 1.8 2.3 2.3 2.3 6.2 10.5 13.2 13 13.6 13.7 14.8 15.7 18.3 15.8 14.9 14.1 14 13.8 14.1 16.2 30.9 53.8 62.7 74.4 81.9 86.2 89.7 102.6 120.1 129.7 138.6 143.4 143.7 144.5 150.9 157.1 162.4 164.8 159.1 150.4 138.9 134.3 132.1 131 129.2 126.1 123.5 127.9 138.4 143.9 152.3 153.9 157.5 156.3 157.7 152.3 138.5 133.7 126.7 115.8 107.5 97 89.2 83.8 75 77.6 74.7 57.4 47.4 39.8 33.6 27.8 23.8 18.6 15.3 12 10.5 11.2 13.7 15.2 17.8 18.1 17 14.6 15.3 15.6 17 18.7 19.4 22.1 22.2 22.5 27.3 34.9 37.4 39 39.6 39.1 38.9 39.3 42.1 45.2 49.3 45.2 56.1 59.4 62 62.1 61.4 60.9 59.3 58.6 56.9 55.3 40.4 59.3 65.7 67.4 69.2 79.3 92.1 101.8 108 114.4 123.9 128.4 136.7 146.1 154.4 167.3 179.5 187.4 185.8 183.9 185.4 189.9 206.2 218.3 233.4 242.7 252 233.6 235.3 252.6 234.6 225.1 221.4 250.4 275.6 293.5 327.6 351.7 376.1 389 406.8 400.3 400 402 411.3 407.3 398.9 389.9 386.6 384.5 374.4 366.9 361.9 352.6 346 347.6 343.7 336.9 319.2 310 300.1 276.2 257.1 231.3 184.1 193.3 182.9 174.6 160.1 140.7 128.7 111.5 99 86.8 76.7
-1.1 -1.1 -1.1 -1.1 -1.1 -1.1 -1.1 -1.1 -1.1 1.7 4.6 10 6.7 2.3 4.7 9.6 12.4 13.8 13.9 13.8 14 15.4 15.8 15.8 15.5 14.7 14 13.8 14.4 15.6 31.1 52.2 61.7 69.3 76.4 84.9 88.8 96.7 112.8 126.9 134.3 140.8 140.8 141.3 144.5 150.1 153.2 159.3 156.4 140.7 139.3 132.2 130.7 129.3 128.6 124.3 116 121.2 134 139.2 146.9 152.7 157.7 156.8 158.7 157.7 146.2 137.1 135.5 119 114.3 106.3 95.7 90.9 85.4 86.3 89.1 81.2 63.4 55.5 43.8 36.1 28.9 23.7 19.7 16.2 12.8 11 14.2 15.9 19.2 20.9 22.5 20.7 19.2 18 16.5 17.6 19.5 22.5 23.9 25.4 29.3 32.6 33.8 35.1 35.2 35.7 35.3 34.9 35.8 38.1 40.7 41.4 45.1 50.9 55.4 56.7 56.7 55.7 54.7 53.3 53.5 52.2 45.2 47.9 59.7 63.6 66.6 76 88.4 99 105.5 108.5 115.7 122.8 129.5 141.8 155.1 165.1 173.7 180.4 174.2 171.4 169.7 179.9 188.2 200.5 212.5 223 225.6 213.7 212.6 223 215.1 202 198.1 224.1 252.7 277.9 289.4 322.4 338.3 355.3 374 376.6 380.9 378.7 379.3 377.3 371.9 367.9 369 367 358.3 352.3 343.8 337 334.8 336.7 335.7 326 314.2 298.3 284.5 269.6 246.8 233.7 206.5 160.1 165.6 160 155.6 137 120.2 108.2 97.2 83.7 72.1 68.4
-1.1 -1.1 -1.1 -1.1 -1.1 -1.1 -1.1 -1.1 2.2 6.1 8.6 9.1 5 7.6 10.2 13.2 14.7 14.8 14.6 15 14.5 15.4 15.4 15.4 15.3 14.8 14.1 13.8 14.9 26.1 47.4 60.4 67.3 72.7 85.2 88.7 95.7 106 118.9 130.2 135.3 137.3 137.9 140.9 143.2 145.3 150.1 149.4 136.5 134.8 127.9 129.9 127.7 126.1 124.5 119.4 109.4 126.7 134.7 140.5 150.3 159.1 156.1 157 166.5 154.3 139.3 141 128.5 114.9 111.2 101.4 95.7 93.5 92.3 92.6 88 77.4 66.5 59 52.4 39.6 29.7 23.6 20.1 17 13.7 15.2 17.5 18.6 20.1 21.9 22.5 22.3 22.3 22 21.9 22.7 23.4 23 26.4 28.1 29.7 32 33.1 33.9 34.4 33.8 32.5 33.1 34.1 35.2 37.1 38.7 44.6 49.9 51.5 50.7 50.7 51.6 50.9 48.6 47.2 39.2 34.8 49.1 58.1 63.8 74.9 82.5 91.3 95.3 101.9 109.4 115.2 126 137.8 150.2 162.5 167.8 169.4 166.7 148 152.7 158.3 171 183.2 194.8 207.9 201.2 191.3 190.6 199.9 194.4 179.6 171.9 197.6 225 246.1 263.6 291.6 305.6 321.6 340.5 348.7 353.4 350.9 353.4 354.1 349.2 342.5 343.2 341.4 334.7 326.8 334.1 327.5 327.4 319.5 313.9 304.5 294.3 284.6 268.6 258.1 238.3 216.2 206 178.3 144.9 147.5 148.9 131.7 116.3 100.4 94.8 78.7 68.5 62.6 58.2
-1.1 -1.1 -1.1 -1.1 -1.1 -1.1 -1.1 4.2 15.3 12.2 29.3 13.2 8.9 12 13 14.1 13.7 13.7 14.4 14.4 14.3 14.9 14.7 14.9 14.9 14.6 14.2 13.8 26.2 46.6 59.7 63.8 69.1 79.9 91.8 96 107.4 112.8 122.4 131.5 135 135.7 136.1 139.2 140.4 140.4 140.7 134.9 135 123.1 124.6 128.2 120.4 121 118 107 115.7 128 134.3 148 159.9 157.8 153.8 159.7 159.5 141.3 140.6 133 118.7 112.4 102.1 98 98.3 96.5 94.7 91 83.3 74.6 69.5 63.1 56.5 40.1 28.8 23.1 19.8 17.2 15 17.2 18.5 19.7 21.4 21.7 22.7 23.8 24.8 26.2 27.6 28.7 28.4 28.6 28.8 30.6 29.5 27.4 30.3 32.7 33.2 31.9 32 32.1 32.4 33.3 35.7 38.9 44.4 45.2 45.5 46.8 48.9 48 46.7 43.3 31.7 38.3 45.8 53.9 61.2 69.8 76.7 79.8 87.7 94.7 101.5 111.2 120.9 133.5 146 156.9 161.9 158.4 151 135.7 134.2 139.8 152.5 168.6 177 192.7 189.9 176.4 177.8 173.1 171.7 158.1 158.6 180.5 200.1 226.4 247 272.5 290.1 301.8 306.5 316.4 324 322.3 329.2 333.1 326.3 317.1 321.1 319 309.2 304.9 307.1 301.3 296.1 292 290.4 288.5 286.1 279.9 265.1 246.9 238.8 211.4 195.8 176.9 156.4 131.6 131.9 126 109.9 94.2 85.5 73.5 65.5 60.1 52.8 44.1
-1.1 -1.1 -1.1 -1.1 -1.1 -1.1 6.6 18.1 21.3 37.4 40.9 28.2 21.8 12.6 12.5 12.5 12.7 13.6 14.4 14.3 14.1 14.5 14.2 14 14.4 14.3 14 22 43 56.1 61.7 68.9 81.3 84.4 95.1 104.6 110.7 114.1 124 126.5 132.9 131.8 133.5 133.4 137.2 130.7 132.9 128.4 118.7 118.6 122.8 116.5 117.4 118.4 110.7 101.9 115.4 125.6 142.8 156.1 157.4 149.2 152.3 158.1 143.8 137 136.3 120.1 111.5 102.7 100.1 99.4 98.4 97.5 97.2 92.1 81.8 77.3 72.6 68.2 51.8 36.4 28.9 23.4 20.8 18.8 18.3 19.1 19.8 22.1 23.7 24.2 24.6 24.6 26.8 27.6 29.1 30.1 30.9 32.1 32.3 33.4 33.4 33 32.4 32.4 30.7 29.2 30 30.2 30.9 33.7 36.3 38 40.8 43.6 44.4 45.5 45 44.6 40.5 33.4 35.2 42 49.6 58 61.6 66.9 74.3 81.1 87.8 94.2 103.9 115.5 125.6 136.6 148.5 153.8 150.9 144 137 125.5 122.7 136.1 149.2 159.4 171.7 178.5 158 159.8 148 150.4 138.9 137.3 161.7 175 200.7 223.7 246.5 262.6 269.3 277.3 290.6 293.3 300.1 306.1 306.5 305.4 298.6 295.3 290 285 283.1 283.1 274.9 261.4 258.5 259.3 258.5 257.1 249.7 249.4 240.4 231.5 217.4 196.7 179.4 159.5 145.1 118.1 110.6 105.2 86.9 78.7 68.3 59.5 56.2 49 41.3 29.2
-1.1 -1.1 -1.1 -1.1 -1.1 2.7 10.7 28.2 43.7 46.6 43.7 20.3 17.2 11.8 11.4 12.4 12.5 13.5 14.4 14.3 13.9 14 13.8 13.6 13.6 14 15.3 37.9 52.4 61.2 66 80.7 86.6 90 102.4 110.3 110.9 115.3 121.3 127.5 128.7 128.4 128.4 131.2 120.6 123.5 123.2 113.6 113.9 117 111.3 114.5 110.3 108.8 99.3 106.4 118.1 138.9 146.7 151.8 150.6 146.2 154.2 147.7 132.8 136.9 122.6 108.1 102.3 100.2 100.5 100.8 102.2 105.1 103.6 87.9 79.9 79.2 77.2 69.7 50.8 39.6 32.2 29.7 27 23.2 21.6 21.7 22.8 25.8 27.5 27.3 27.8 27 27 27.6 29.2 30.4 30.8 31.3 31.8 32.3 33.7 33.9 33.9 32.1 30.1 30.2 29.8 28.9 29 31.8 33.2 34.9 38.8 40.8 44 42.8 41.2 39.3 35.6 29.6 38 44 52.5 58.4 64 70.4 75.4 80.7 88.7 97.1 104.9 114.5 127.6 140.1 150.4 149.3 137.6 132.1 120.7 107.1 120.4 137.2 145 155 160.9 140.1 139.7 130.1 126.6 117.4 114.3 142.5 154.7 170.9 192.2 214.8 230.4 243 254.3 260.6 272 280.9 277.9 283.3 282.1 282.2 271.5 258.9 257.2 253 258.7 254.8 252.3 249.8 247.3 243.5 244.4 241.6 248.4 244.6 235.1 221.4 201.8 178.1 153.7 143.7 133.3 97.4 94.4 78.2 71 63.8 53 49.9 46.9 36.3 26.4 15.6
-1.1 -1.1 -1.1 -1.1 4.9 8.1 20.2 49.3 56.1 49.7 34.2 13.6 13.7 12.1 12.3 12.5 12.6 13.2 14.3 14.4 13.6 13.5 13.3 13.1 12.9 13.1 27.5 49 60.5 67.4 78.9 86.3 89.8 99.1 107.4 111.8 108.1 114.5 117.1 122.5 121.4 122 123.5 113.5 110.7 112.7 107.3 107 109.8 105.1 110.5 109.6 98.1 96.1 102.7 109.4 128.4 138.3 140.9 145.6 142.9 147 143.8 131.7 132 125.3 106.2 100.8 99.7 100.5 103 107.1 109.2 108.3 95.3 82.1 81.7 83.4 75.6 58.6 48.1 40.4 40.4 40.8 36.3 28.7 29.7 29.5 30 30.4 31.6 31.2 30.9 29.1 28.8 29.1 29.2 29.4 29.5 29.8 30.2 30.2 30.2 30.2 31.9 31.1 29.8 29.9 29.5 28.6 26.3 25.9 30 31.6 36.2 39.2 39.7 37.7 35.5 32 29.5 25.9 40.2 46.6 52.9 59.8 63.8 68.9 75 82.9 89 96.3 107.1 118 129 136.1 133.1 126.1 120 111.1 98.4 102.8 119.4 128 137.5 133.9 117.6 122.5 125.8 105.3 99.5 97.6 113.1 134.6 145.1 166.3 188.6 206.1 214 223.3 235.7 250.1 254.2 256.6 258.2 261.8 256.4 246.5 234.5 231.2 229.5 235.8 231.3 230.2 230.3 231.5 222.5 222.9 220.8 218.2 225.1 228.7 215.9 193.1 171.4 153.4 138.5 126.6 114.9 74.3 77.8 63.4 57.9 47.9 42.7 39.8 35.1 22.5 12.9 7.2
-1.1 -1.1 -1.1 3.7 8.4 12.5 34.6 49.3 51.3 35.3 10.1 11 12.1 13.5 12.5 12.6 12.1 13.6 13.1 13.8 13.3 13.2 13 12.8 13.1 14.6 40.8 57.5 65.4 76 90.1 93 94.5 100.8 106 101.7 107.6 110.4 115.5 115.5 114.8 112.1 107.2 104.5 97.2 100.2 103.2 104.2 101.9 102.5 108.5 97.6 89.9 100.3 102.8 112.1 130.1 131.7 135.5 139.2 145.6 138.4 132.4 122.2 124.1 108.2 98.8 97.6 98.9 105.9 107.3 110.9 108.6 99.4 83.5 79.6 84.7 78.9 62.9 54 49.1 51.8 49.5 45.1 38.5 38.7 36.6 44.7 45.6 41.5 37.5 35.4 33.6 30.9 30.4 30.3 29.5 28.7 28.3 28.5 28.7 28.8 28.6 27.5 26.8 27.7 27.6 28.4 28.3 28.5 27.6 25.2 27 27.7 30.6 32.1 32 32.1 29.8 26.5 20.5 35.4 42.7 49.3 52.6 56.3 62.5 68.8 75.9 82.8 89.9 98.3 108 114.3 120.7 120.7 112.6 109.6 98.3 90.4 90.6 102.4 113.9 115.2 107.4 97.7 102.7 110.2 94.4 81.1 76.2 84.5 111 121.7 141.8 165.1 184 195.4 198.8 210.6 224.8 227.1 232.8 230.5 228.2 231.4 221.6 209.7 206.7 205.4 207.2 204.7 210.3 208.5 203.9 204.5 199.3 199.8 203.1 198.8 196.5 187.6 182.5 168 142.1 133.8 125.6 109.7 98 62.2 58.7 49.3 41.6 37.2 34.4 28.4 17.9 9.8 5.2 -1.1
-1.1 -1.1 1.8 9.6 17.2 44.1 40.6 41.5 34.7 8.6 7.3 8.8 10.1 11.6 13.3 13 12.3 12.7 12.7 13.3 13.2 13.6 13.2 12.7 13.8 41.4 49 63.2 71.8 86 92.4 95.6 95.5 98.4 98.8 103.7 105.5 105.1 110.2 109 104.4 99.9 95.6 89.9 96.3 94.1 93.8 100.2 99.8 99.1 96.3 97.1 88.8 95 100.9 116.7 122.6 126.2 130.7 135.9 133.4 128.3 120.4 119.4 101.2 97.5 95.1 96.9 107.9 106.1 108.9 107.8 100.1 88.6 77 80.2 75 65.6 59.2 56.6 62 58.1 53.2 48.2 49.7 49.3 46.9 56.5 57.3 52.1 46.2 40.5 35.5 34.3 30.5 29.1 28.7 27.9 27.3 27.5 26 24.6 24.7 24.6 24.3 23.6 23.5 23.4 24.7 24.5 25.3 21 24.1 25 25.7 26.6 28 27.9 26 19.5 28 36.9 43.5 47.5 49.4 55.3 62.8 70.5 76.5 82.2 87.2 93.9 100 103.8 105 96.6 95 86.5 83.2 79.8 91 103.8 103.1 92 77.6 89.4 93.2 86.1 62.7 60.7 63.1 90.6 101.3 117.7 142.6 163.5 173.3 178.4 189.4 195 200.1 201.6 210.1 195.9 205.1 194.6 185.2 183.9 178.1 185.5 190.9 185.3 187.5 185.7 183.2 181.1 173.5 175.7 178.5 174.1 172.8 159.6 144.9 135.8 120.6 114.8 101.3 89.2 78.7 48.2 38.7 32.8 33.5 28.8 26.8 14.5 6.8 2 -1.1 -1.1
-1.1 1.7 9.2 32.9 48.8 48.7 35.4 10.8 5.7 4.4 4.9 6.4 8.2 9.7 11.4 12.8 13.1 13.2 12.2 12.7 11.9 12.3 12.3 12.8 33.7 44.9 58 68.6 79.4 90 92.8 95.3 95.5 96.6 96.7 100 100.2 101.1 100.6 94.4 90.5 86.7 82 90.4 86.8 87.2 91.8 96.3 85 87.9 99.6 82.1 86.6 90.6 101.2 110.8 117.8 127.8 128.7 126.3 123.9 118.9 115.5 101.4 94.6 91.2 92.7 106.3 105.1 105.4 105.7 99.7 88.2 77.6 76 74.4 69.4 65.2 65.7 73.7 68.9 62.1 56.8 61.5 63.2 58.5 60 70.1 67.5 55.9 51.5 48.3 43.8 38.5 32.2 28.6 26.3 25.9 25 24.2 24.6 23.4 22.1 20.6 19.7 20.7 20.2 19.9 20.7 20.2 20.5 19.9 23.6 24.3 25.3 24.6 23.7 24.1 22.5 19.2 29.2 36.7 41.6 45 51 56.5 62.8 69.3 73.8 77.7 82.8 86.2 89.4 89 83 74.5 70 75.2 72.1 78.9 88.1 86.1 70.1 58 72.3 76.8 71.9 51.5 44.2 49.8 60.3 80.3 95.9 116.5 131.8 137 155.1 165 169 173.2 179.6 176 173.2 177.6 169.2 168.8 159.3 158.5 156.5 163.7 165.9 163.3 158.6 160.1 157.8 152.1 147.5 155.6 151.3 152.2 144 134.9 119.7 111.7 99.8 87.4 81 69.8 56.1 32.1 23.3 24 22.8 23.1 14.9 4.1 -1.1 -1.1 -1.1 -1.1
-1.1 9.4 18.4 56.1 61.9 46.1 14.3 5.9 3.3 2.3 2.3 4.8 5.6 7.7 9.2 11.2 13.5 13.6 13.2 12.4 11.9 12.2 12.5 23.3 42.6 53.1 64.1 75 87.4 94.6 91.4 94.4 94.8 94.4 95.4 95 95.4 90.4 83.7 83.7 80.7 75.4 81.1 82.8 82.1 84 88.3 79.2 82.7 89.6 76.5 78.5 80.3 87.1 98.2 108.8 125 120.6 123.5 117.1 111.4 107.9 101.9 93.9 88.9 88.2 97.6 100.8 102.5 103.6 96.2 86.3 74.5 74.8 74.5 73.7 71.6 68.6 78.2 76.6 72.4 69 68.2 76.4 70.2 68.6 76.3 83 71 57.2 54.9 48.9 44.6 38.3 33.2 29.4 26.6 23.5 21.9 21.1 20.7 21 21.1 20.2 17.5 16.9 16.8 17.5 17.5 16.7 16.6 16.5 16.9 18.3 19.7 21.1 21.2 21.4 21.1 16 27.6 34.6 40.3 46.2 52 55.4 59.2 62.8 65.9 70.7 74.9 76.8 75.9 69.5 64.4 62.4 62.8 63.9 66.8 73.6 80.3 61.6 45 53.8 56.9 53.1 41.9 29.9 34.3 39 53 72.8 88.7 107.1 112.3 127 139 149.7 151.3 161.9 154.4 156.4 157.9 141.9 141.8 136.7 142.3 140.6 138.1 144.2 149 145.2 138.8 136.3 131.5 128.8 126.4 118.6 116.8 119.1 112.3 99.9 94.7 84.2 74.9 67 57.5 47 32.7 15 14.5 13.8 11.6 9.4 4.5 -1.1 -1.1 -1.1 -1.1 -1.1
5 11.3 41 60.9 59.7 30.5 7.1 2.3 2.3 2.3 2.3 2.2 2.7 5.6 7.5 9.8 12 13.3 13.3 13.3 13.2 12.6 12.8 32.4 46.9 59.6 68.9 80.5 94.1 87.7 94.8 94.8 90.4 90 93.9 88.4 85.3 77 75 72.9 69 71.7 76 76.4 76.9 78.8 73.3 76 78.4 74.5 69.7 74.8 77.7 88.8 99.6 114.4 115 114.1 111.4 105.5 99.3 97.2 93.7 87.5 82.6 93.6 96.9 98.4 98.6 89.1 78.6 72.9 73.9 72.8 73.5 77.5 73.1 77.1 80.4 80.4 74.7 70.2 78.9 77.7 75.3 81 85.3 75.6 65.2 61.2 57.9 50.2 43.4 37.4 31.9 27.6 24.6 22 19.7 19.4 18.6 18.1 17.7 17.1 16.1 15.1 14.3 15.3 15.4 15.6 15.6 15.5 15.4 15.3 15.8 16.8 17.6 18.7 14.7 21.2 27.9 34.5 40.2 43.8 47.2 50 52.5 56 59.1 61.8 60.3 63.4 59.1 57.8 58.7 58.6 59.5 49 59.8 61.4 52.3 36.4 32.9 33.2 32.2 30.7 26.1 22.4 25.1 34.9 45.8 60.9 80.9 92 106.8 112.9 121.3 132.9 137.6 130.4 136.9 135.4 117.1 117 117.8 123.2 116.4 118.5 121.9 129.5 127 123.1 117.8 121.7 117.1 108.7 103.4 100.7 99.4 103.6 94.2 84.8 80.1 69.1 60.4 52.1 43.1 31.3 13.9 8.5 7.9 7.4 5.1 -1.1 -1.1 -1.1 -1.1 -1.1 -1.1 -1.1
8.2 46.7 60.7 58.7 43.1 12.5 3.6 2.3 2.3 2.3 2.2 2.3 2.2 2.8 5.6 7.7 9 12.1 13.4 13.4 13.6 13 13.6 37.4 51 65.6 76.4 87.8 88.4 86.5 89.1 94.1 83.6 87.3 86.5 76.5 70.4 65.4 61.5 62.1 65.9 68.5 72.4 69.6 70.2 64.9 70.2 73.5 69.7 65.4 71.5 76.2 79.7 91.6 105.1 110 103.5 103.3 102.1 94.7 93.1 89.4 86.6 80.1 87.6 92.1 94.5 90.2 82.3 74.4 70.6 70.5 70.4 72.9 79.8 75.7 73.9 79.3 86.7 76.7 72.9 81.4 79.6 80.3 81.4 85.1 79.1 70.7 72.6 75.2 64.7 53 43.3 39.3 37.4 33.1 27.6 22.1 19.9 17.8 18.3 17.6 17.5 16.8 15.3 15 14.8 14.7 14.3 14.5 14.6 14.6 14.7 14.7 15.2 16 17.2 15.5 12.5 20.8 25.1 32.3 36.6 39.9 41 44 45.9 48.6 51 48.5 47.6 47.9 48.2 47.4 49.8 51.2 44.8 43.8 46.1 39.3 30.7 30.1 23.9 22.1 21.8 20.1 17.7 17.9 20.3 30.5 38.9 60 76 85 94.7 98.9 106.6 106.8 115.2 115.8 113.7 98.3 96.3 96.8 97.3 102.1 100.8 104.9 113.6 113.9 115.4 106.1 109.3 106.2 101.1 94.5 88.9 80.9 87.7 81.5 73.9 76 64.9 55.5 47.2 37.6 25.3 10.2 3 1.7 2.9 2.1 1 -1.1 -1.1 -1.1 -1.1 -1.1 -1.1 -1.1
37.5 57.4 49.8 43.3 11.6 6.1 2.5 2.3 2.3 2.3 2.3 2.3 2.2 2.3 3.5 6.2 8.8 11.2 13.3 13.5 15.7 18.5 32.9 42.8 58 71.9 84.4 85.3 80.6 84.6 91.3 86.2 78.7 79.8 71.6 65.6 59.8 53 50.6 59.4 65.1 67.4 68.8 62 57.1 64 68.8 67.9 65.3 66.5 72.8 76.5 81 95.3 98.6 97.3 97.1 94.5 87.6 87.4 85.4 83.1 78.2 84.4 86.7 89.9 82.7 75.6 74.2 66.9 67.6 67.5 70.3 75.2 76.4 75.5 76.5 85.5 78 76 83.7 78.9 79.7 81 83.2 79.8 75.1 76.9 82 76.9 56.3 48.5 50.2 48 45 39.8 35.3 33 26.5 20.3 16.9 17.4 17.7 16.5 15.1 15.4 15.3 14.3 14.1 13.9 13.8 13.9 14.1 14.2 14.6 15.5 16 13.8 14 18.7 23.5 26.5 30.4 32.8 34.5 36.3 35.8 36.2 34.9 35 35.3 34 36.4 38.1 37 33 30.5 33.1 26 21.8 24.6 25.5 17.6 15.7 13.5 14 15.2 14.7 17.1 25.9 44 67.8 79.3 80.5 87.6 96.7 95 91.3 91.3 92.6 79.9 74.5 73.1 77.1 88.4 93.2 89.5 99.1 99.7 98.9 98.8 93.8 95.1 93.5 84.9 82.9 73.8 65.4 68.9 62 58 56.3 47.8 39.9 32.5 21.4 -1.1 -1.1 -1.1 -1.1 -1.1 -1.1 -1.1 -1.1 -1.1 -1.1 -1.1 -1.1 -1.1 -1.1
53.7 54.8 43.3 16.2 6.6 2.7 1.6 1.9 2.3 2.3 2.3 2.3 2.3 2.3 2.3 4.4 7.2 9.9 12.4 13.6 22 29.5 35 50.5 67.1 77.7 85.8 75.1 78.4 85.3 84.6 78.7 72.2 66.8 63.1 58.2 48.4 41.3 51.5 57.9 57.7 63.2 58.5 50.2 57.4 64.9 67.9 62.2 56.2 66.6 74.2 76.4 86.4 93 94.5 95 95.3 83.1 82.2 82 80.1 77.4 79.4 83 82 74.8 72.2 69.5 63.6 63.7 65 68 74.5 75.1 76.4 77.5 82.6 78.4 78.8 80.3 78 79.1 78.9 78.5 77.2 77.6 78.3 81.2 76.8 62.9 52.5 52.6 54.9 56.6 56.6 51.8 45.9 40.6 33.2 23.5 17.4 15.9 14.8 15.7 15 13.7 13.3 12.7 13.2 13.9 14.7 14.1 13.6 13.8 14.2 14.3 13.1 11.8 9 16.2 20.1 22.4 24.5 25.9 25.7 25 25.1 23.6 25 24.6 24 24.7 26.1 27.4 30.5 19.4 18 17.5 16.7 15.3 17.1 14.3 12.5 12.7 12.3 12.5 13.3 11.9 18.2 35.3 51.3 65.1 71.7 76.7 80.1 82.6 79.9 79 76.5 67.3 64 63.6 65.3 74.9 78.4 74.2 79 77.9 80.5 88 89.1 76.5 81.2 73.1 63.3 63.7 53.1 46.3 45.7 46.5 43.9 37.2 30.2 24.8 14.6 -1.1 -1.1 -1.1 -1.1 -1.1 -1.1 -1.1 -1.1 -1.1 -1.1 -1.1 -1.1 -1.1 -1.1 -1.1
53.8 40.5 25.1 7.2 2.1 1.4 0.8 1.2 1.7 2.2 2.3 2.3 2.3 2.3 2.3 2.3 5.7 8.7 12.2 14.9 24 33.8 40.7 61.5 75.1 82.7 73.3 74.3 78.1 80 78.4 67.6 59 57 53.7 43.2 34.5 44.5 49.3 51.9 52.5 50.5 41.2 49.5 59.8 64.6 64.4 50.1 58.3 66.7 73.2 80.8 87.1 91.7 93 92.8 83.2 79.7 78.1 76.2 75 77.3 79 75.5 68.4 69.2 64.8 60.2 60.2 62.4 66.3 71.5 74.6 75.2 81.8 77.9 77.7 80.6 77.3 76.6 77.8 78.2 77.8 77.4 77.5 77.8 78 78 68.3 58.5 62.8 65.3 66.7 66.2 66 60.4 51.7 46.3 37 28.3 20.8 16.1 14.3 13.8 12.8 11.9 11.5 12.2 12.2 12.7 12.7 13 13.7 13.7 13.5 12.4 9.7 8.2 6.7 15.8 19.6 20.7 20.4 18.8 17.7 15.3 17 17.4 18.6 19.1 19.3 18.2 19.6 16.3 14.9 13.8 13.2 14.1 13.6 13.6 14.3 13.8 11.4 8.5 9.7 11 11.1 9.7 29.9 47.8 55.6 57.6 65.5 70.5 67.8 66.7 67.7 67.4 57.4 56.1 51.1 56.3 68 70.7 68.7 61.7 64.8 71.7 74.3 79.1 75 56.3 49.6 48.5 46.7 43.2 33.3 30.5 32.2 31.7 24.6 20 19.1 13.6 -1.1 -1.1 -1.1 -1.1 -1.1 -1.1 -1.1 -1.1 -1.1 -1.1 -1.1 -1.1 -1.1 -1.1 -1.1 -1.1
38.8 21.7 6.3 -1.1 -1.1 -1.1 -0.1 0.4 0.9 1.4 1.9 2.3 2.3 2.3 2.3 3.9 6.8 10.9 14.9 25.1 37.3 37 52.7 71 75.4 68.4 67.5 66.8 73.8 73.6 62.6 50.7 49.2 48.5 35.9 28 38 40.4 43.7 45.5 43.5 34.5 42.6 54 58.6 58.7 47.6 50.1 59.6 70.1 82.5 86.5 89.1 94.3 88.8 82.8 79.9 74.7 72.1 72.9 74.1 73.6 67.9 64.6 62.7 59.1 57.6 57.5 60.3 64.2 68.9 75.6 74.2 75.2 76.7 76.7 75.2 74.4 74.9 76.5 77.2 77.1 76.7 77.7 79.3 77.1 76.7 72.6 67 66.7 69.5 73.8 75.8 72.6 71.4 61.5 54.3 46.6 36.2 27.3 22.6 14.9 13.7 12.7 11.4 11.7 12.1 11.9 11.6 11.3 12.3 13 13.4 13.4 13.5 9.6 8.5 7.7 8.2 14.4 16 15.6 14.9 14.6 14.3 15 16.1 16.2 16.4 14.2 14.4 12 12.3 10.9 9.3 9.6 7.8 10.1 8.6 7.3 5.6 4.2 3.8 5.5 6.2 8.2 9.9 8.5 31.6 47.3 52.2 51.9 50.1 54.1 52.7 53.6 46.4 42 40.7 43.3 46.4 52.3 50.6 56.7 54 48.7 50.9 53.6 61.5 63 53.1 43.5 41.9 35.8 32 30.1 23.9 21.6 23.7 15.8 12.1 7.4 -1.1 -1.1 -1.1 -1.1 -1.1 -1.1 -1.1 -1.1 -1.1 -1.1 -1.1 -1.1 -1.1 -1.1 -1.1 -1.1 -1.1 -1.1
7.5 -1.1 -1.1 -1.1 -1.1 -1.1 -1.1 -0.4 0.1 0.7 1.2 1.7 2.2 2.3 6.4 8.9 10.1 15.6 22.8 33.7 45.6 41.1 54.3 70.7 65.9 61.1 59.7 63.8 69.3 56.4 44.7 42.4 42.3 29.6 23 30.6 34.4 36.8 37.7 35.9 28.9 38 48.1 53.9 53.4 44.5 45.4 55.7 70.1 81.7 90.3 87.8 91.5 87.6 82.4 79.4 74.7 69.6 68.6 68.2 67.9 62.6 61.1 58.8 56.7 56 56 59.2 63.5 65.6 71.7 73.3 73.4 75.1 75.9 73.9 72 73.1 74.5 73.9 73.6 72.5 77.3 87.6 83.4 76.2 71.5 70.3 72.1 74.4 78.1 82.5 74.1 72.6 66.6 59.8 53.6 44.2 31.3 23.8 19.6 15.6 15.7 13.3 11.3 11.7 11.6 10.7 10.9 10.9 10.9 11.3 12 13.1 12 8.9 7.4 5.9 8.7 13.1 13.5 13.2 13.1 13.7 15.1 15 14.2 10.4 7.9 7.4 7.6 6.1 5.5 5.2 5 5 3.8 5.4 4.4 2.5 2.4 -1.1 -1.1 -1.1 3.3 9.9 7.1 6.3 28.7 36.1 31.4 36.3 35.5 40.5 43.9 34.8 30.4 28.6 31.4 36.9 39.9 41.4 42.6 43.4 44.9 47.3 44.7 47.8 51.2 49.9 43.5 40.3 37.1 29.3 21.8 18 14.3 11.8 10.7 5.8 -1.1 -1.1 -1.1 -1.1 -1.1 -1.1 -1.1 -1.1 -1.1 -1.1 -1.1 -1.1 -1.1 -1.1 -1.1 -1.1 -1.1 -1.1 -1.1 -1.1
-1.1 -1.1 -1.1 -1.1 -1.1 -1.1 -1.1 -1.1 -0.3 0.3 0.8 1.4 1.9 7.1 9.4 13.7 14.1 20.2 37.7 38 48.1 47.4 64.5 62.4 56.7 58 56.4 62.4 50.1 39.4 37.6 34.6 26.2 19.8 25.4 30 31.1 31.6 26.8 23 35.4 42.6 47.6 45.3 39.1 45.7 52.2 71.8 83.2 90 90.2 89.1 90.9 84.3 81.3 75.2 68.4 67.7 65.7 64 61.3 59.5 58 57.5 57.3 55 58.3 62.1 66.5 66.5 72 71.6 71.4 75.6 70.2 66.7 72.4 77.3 72.4 70.6 69.9 80.4 91.2 92.6 79.5 73.8 72 75.8 78.4 82.8 81.2 79.5 74 71.9 67.6 63.5 54.6 37.3 25.5 20.7 16.2 15.5 14.7 13.4 11.3 10.9 10.6 10.1 10 10 10.2 10.6 11.2 11.4 12.1 8 4.8 4 9.3 11.9 12.7 12.7 13.3 14.1 15.3 13.7 10.3 6.1 3.4 2.8 1.8 -1.1 -1.1 1.2 -1.1 -1.1 -1.1 -1.1 -1.1 -1.1 -1.1 -1.1 -1.1 -1.1 -1.1 2.8 5.3 12.6 27.8 26.2 24.6 28.9 30.2 34 26.3 25.3 19.2 21.6 28.1 36.1 41.6 40.1 45.9 44.2 43.6 46.7 42.2 52.1 49 40.7 32.8 32.6 28.7 20.7 15.6 9.1 4.9 5.2 -1.1 -1.1 -1.1 -1.1 -1.1 -1.1 -1.1 -1.1 -1.1 -1.1 -1.1 -1.1 -1.1 -1.1 -1.1 -1.1 -1.1 -1.1 -1.1 -1.1 -1.1 -1.1
-1.1 -1.1 -1.1 -1.1 -1.1 -1.1 -1.1 -1.1 -1.1 0.2 0.9 1.7 4.9 9.5 12.9 16.1 19.1 26 35.1 39.3 44.1 54.1 60.1 53.9 55.7 49.3 56 44.2 34.2 30.2 23.6 19.7 17.9 20.3 29.1 27.8 27.6 21.5 18.8 27.5 42.2 41 42.2 43.2 36.3 46.9 62.6 80.4 87.2 89.9 89 89.2 88.5 85 76.5 70 70.6 69.1 64.7 61 59.6 58.6 59 59.1 55.4 55.1 59.9 61.4 65.2 68.8 69.9 69.2 71.8 65.1 64 70.1 74.9 70.7 69.6 69.4 81.8 90.5 87.2 79.1 74.2 73.9 76.6 81.1 80.5 80.1 79.1 77.3 73.9 72.1 66 57.5 43.7 29.8 21.6 18 16.2 15.9 13.2 10.9 10 9.8 9.8 10.1 10.5 10.2 10 10.4 10.6 10.1 7.6 3.6 3.2 3.8 9.3 10.5 11 12.4 12.9 11.9 11.3 9.9 5.5 2 1.4 -1.1 -1.1 -1.1 -1.1 -1.1 -1.1 -1.1 -1.1 -1.1 -1.1 -1.1 -1.1 -1.1 -1.1 -1.1 -1.1 0.9 4.1 7.2 20.6 21 18.6 16.7 14.1 15 11.6 12.4 12.4 18.4 25.4 33.2 36.2 43.9 47.3 41.3 42.7 34.9 34 36 28.1 24.2 25.7 17.4 12.8 11.6 7.8 3.7 2.3 -1.1 -1.1 -1.1 -1.1 -1.1 -1.1 -1.1 -1.1 -1.1 -1.1 -1.1 -1.1 -1.1 -1.1 -1.1 -1.1 -1.1 -1.1 -1.1 -1.1 -1.1 -1.1 -1.1
-1.1 -1.1 -1.1 -1.1 -1.1 -1.1 -1.1 -1.1 -1.1 0.1 1.2 2.6 7.6 10.1 13.4 16.9 22.2 28.2 34.3 39.8 43.9 54 52.4 51.8 42.5 49.8 37.6 28 18.8 15.5 15 15.3 15.6 21.6 25.4 23.2 15.9 16.4 21 34 36.6 36.4 45 32.6 39.3 57.4 74.2 83.7 94.4 89.6 88.9 87.9 86.2 78.7 71.5 73.8 74.4 71.2 67.4 62.4 60 60.6 61.2 61 53.5 57.6 60.2 64.6 66.4 65.5 65.5 67.2 65 62 67.3 70.9 69.8 68 68 74.7 82.8 83.3 79 73.1 73.7 78.7 82 77.6 79.6 80 76.6 75.6 73.5 70.2 59.4 44.6 33 24.1 19.4 16.1 16.3 14.7 12.3 10.7 10.1 9 9.3 9.3 9.5 9.4 9.9 10.4 9.5 7.6 4.3 2.4 3.6 7.8 8.6 8.5 8.3 8.6 8.4 7.3 6.2 5 1.8 0.3 -1.1 -1.1 -1.1 -1.1 -1.1 -1.1 -1.1 -1.1 -1.1 -1.1 -1.1 -1.1 -1.1 -1.1 -1.1 -1.1 -1.1 -1.1 4 14.2 22.6 25.1 14.6 11.9 9.7 10.4 9.4 11.5 12.5 19.2 23.8 28.5 36.6 45 44.2 36.7 36.3 19.3 21.9 15.1 13.3 13.8 9.9 8.5 6.3 3.4 -1.1 -1.1 -1.1 -1.1 -1.1 -1.1 -1.1 -1.1 -1.1 -1.1 -1.1 -1.1 -1.1 -1.1 -1.1 -1.1 -1.1 -1.1 -1.1 -1.1 -1.1 -1.1 -1.1 -1.1 -1.1 -1.1
-1.1 -1.1 -1.1 -1.1 -1.1 -1.1 -1.1 -1.1 -1.1 -1.1 1.8 5.3 9.1 12.4 13.5 17.5 22.8 29.1 38.3 42.4 50.4 49.1 46.9 40.3 36.6 30.9 22.7 15.1 12.6 13.4 13.6 13.9 16.2 19.7 18 16.3 15.5 19.4 26.9 34.7 30.7 35.9 28.9 35.8 50.8 68.1 81.6 94.1 94 89.4 86.7 85.6 79.7 73.6 72.5 77.5 75.6 70.9 66.9 62.6 62.7 62.6 57.6 53.3 56.9 60.6 64.3 68.1 64.4 62.6 62.1 61.6 60.1 62.2 66.2 66.7 66.5 66.8 68 76.7 82.9 81.6 71.1 69.4 73.6 72 74.6 79.4 80.5 77.1 72.7 70.1 66.8 56.4 47.4 37.4 26.6 20.9 17.1 15.8 15 13.5 11.2 10.4 9.8 9.1 8.8 8.8 9.1 9.3 9.9 10.3 8.5 4.4 4 2.5 -1.1 4.5 6.6 6.5 6.3 6.2 4.3 2.8 2.2 1.3 -1.1 -1.1 -1.1 -1.1 -1.1 -1.1 -1.1 -1.1 -1.1 -1.1 -1.1 -1.1 -1.1 -1.1 -1.1 -1.1 -1.1 -1.1 -1.1 -1.1 7.4 8.6 6.2 14.4 4.5 5.9 4.5 2.4 4.1 10.4 15.1 24.5 27.8 32.1 33.7 34.8 33.6 31.4 22.8 10.8 10.5 6.2 8 -1.1 -1.1 -1.1 -1.1 -1.1 -1.1 -1.1 -1.1 -1.1 -1.1 -1.1 -1.1 -1.1 -1.1 -1.1 -1.1 -1.1 -1.1 -1.1 -1.1 -1.1 -1.1 -1.1 -1.1 -1.1 -1.1 -1.1 -1.1 -1.1 -1.1 -1.1
-1.1 -1.1 -1.1 -1.1 -1.1 -1.1 -1.1 -1.1 -1.1 -1.1 5 6.8 10.6 12.8 15.7 19.8 25.1 34.9 40.3 42.1 42.1 43.4 39.7 31.7 28.3 18.6 14.3 12 11.1 10.8 12.4 13.1 14.2 14.4 12.2 12.6 14.6 25.1 29.1 29.6 26.2 26.1 31.8 48.9 65.2 75.6 88 93.2 89 84.9 84.3 77.9 75.4 74.4 77.1 76.8 73.3 69.8 63.9 61.5 59.4 54.2 52.6 58 62.9 64 68.9 64.7 61.8 60.9 56 56.8 59.5 61.6 63.2 64.2 66.2 67.8 77.2 80.6 81.3 66.5 65.1 66.1 67.5 69.4 71.8 75.1 78.7 69.3 65.3 61.2 55.9 48.5 37.6 26 19.6 16.6 15.8 15.5 13.6 12.3 10.8 10.1 9.4 8.9 8.3 8.3 8.5 8.8 9.6 9.4 8.6 3.1 3.4 3.4 -1.1 -1.1 4.2 4.4 3.5 3.2 2.1 0.9 -1.1 -1.1 -1.1 -1.1 -1.1 -1.1 -1.1 -1.1 -1.1 -1.1 -1.1 -1.1 -1.1 -1.1 -1.1 -1.1 -1.1 -1.1 -1.1 -1.1 -1.1 -1.1 -1.1 -1.1 -1.1 -1.1 -1.1 -1.1 -1.1 0.8 2.4 9.3 15.1 25.1 31.3 33.1 32.8 33.7 24.4 18.5 6.4 5.6 -1.1 -1.1 -1.1 -1.1 -1.1 -1.1 -1.1 -1.1 -1.1 -1.1 -1.1 -1.1 -1.1 -1.1 -1.1 -1.1 -1.1 -1.1 -1.1 -1.1 -1.1 -1.1 -1.1 -1.1 -1.1 -1.1 -1.1 -1.1 -1.1 -1.1 -1.1 -1.1 -1.1 -1.1
-1.1 -1.1 -1.1 -1.1 -1.1 -1.1 -1.1 -1.1 -1.1 2.4 5.8 8.8 10.8 14.9 21.8 23.8 29.7 37.6 38.6 41.1 41.1 36 28.5 27.7 20.4 15.1 12 10.5 9.4 9.9 11.4 11.6 11.9 11.4 11.8 13.1 21.8 23.5 24 23.1 23.4 28.9 48 63.4 72.6 84.2 89.6 89.6 85.4 78.4 77 75.6 75.2 75.9 80.1 75.2 72.2 67.5 61.3 56.6 51.4 53.5 59.3 65.9 65.3 64.1 61.8 59.6 60.7 53.5 51.3 56.6 57.6 60 64.2 69.2 73 77.7 81.4 74.1 64.6 64.4 64.4 66.3 68.9 71.2 74.5 79.6 70.4 65.8 61 56.3 47.2 39.8 25.7 19.6 17.8 15.4 14.8 14.7 13.2 11.4 10.5 9.7 9 8.5 8 8 8.1 8.7 8 8.3 6.2 3.3 1.9 1.8 -1.1 -1.1 1.4 0.9 -1.1 -1.1 -1.1 -1.1 -1.1 -1.1 -1.1 -1.1 -1.1 -1.1 -1.1 -1.1 -1.1 -1.1 -1.1 -1.1 -1.1 -1.1 -1.1 -1.1 -1.1 -1.1 -1.1 -1.1 -1.1 -1.1 -1.1 -1.1 -1.1 -1.1 -1.1 -1.1 -1.1 -1.1 -1.1 12.7 15.6 24 23.9 29.9 33.2 24.7 26 10.1 -1.1 -1.1 -1.1 -1.1 -1.1 -1.1 -1.1 -1.1 -1.1 -1.1 -1.1 -1.1 -1.1 -1.1 -1.1 -1.1 -1.1 -1.1 -1.1 -1.1 -1.1 -1.1 -1.1 -1.1 -1.1 -1.1 -1.1 -1.1 -1.1 -1.1 -1.1 -1.1 -1.1 -1.1 -1.1 -1.1
-1.1 -1.1 -1.1 -1.1 -1.1 -1.1 -1.1 -1.1 -1.1 7.3 9.5 11 12.8 25.8 28.9 29.9 34.6 38.3 41.3 40.8 35.3 19 12 11.7 10.2 10.4 9.7 9.7 8.9 9.3 10.2 9.9 9.9 10.7 11.7 13.7 19.6 19.8 19.4 21 26.2 42.8 58.3 70 82 86.9 91.8 87.8 76.7 76.6 75.1 75.4 75.9 80.9 76.9 73.5 70.2 62.9 52.8 49.9 53.5 60.1 66.7 68.2 65.6 62.7 58.1 56.6 50.7 49.9 51.8 54.2 57.9 62.9 69.9 73.7 74.5 76.9 71.7 64.4 64.4 64.4 66.1 73.6 79.6 88.4 95.5 77.8 74 72.2 64.7 57.4 47.4 34.9 23.2 18 16.3 14.8 14.4 14.1 13 10.9 10.3 9.5 8.7 8.1 6.3 6.8 7.6 7.9 8 7.9 7.4 5.6 -1.1 -1.1 -1.1 2.1 -1.1 -1.1 -1.1 -1.1 -1.1 -1.1 -1.1 -1.1 -1.1 -1.1 -1.1 -1.1 -1.1 -1.1 -1.1 -1.1 -1.1 -1.1 -1.1 -1.1 -1.1 -1.1 -1.1 -1.1 -1.1 -1.1 -1.1 -1.1 -1.1 -1.1 -1.1 -1.1 -1.1 -1.1 -1.1 -1.1 -1.1 10.9 16 13.1 15.9 20.4 16.7 16.9 8.2 -1.1 -1.1 -1.1 -1.1 -1.1 -1.1 -1.1 -1.1 -1.1 -1.1 -1.1 -1.1 -1.1 -1.1 -1.1 -1.1 -1.1 -1.1 -1.1 -1.1 -1.1 -1.1 -1.1 -1.1 -1.1 -1.1 -1.1 -1.1 -1.1 -1.1 -1.1 -1.1 -1.1 -1.1 -1.1 -1.1 -1.1
-1.1 -1.1 -1.1 -1.1 -1.1 -1.1 -1.1 -1.1 6.3 10.3 10.9 12.2 20.8 27.7 33.3 35 38.3 41.2 40.7 34.8 13.7 8.6 7.9 7 7 8 8.1 8.3 8.8 8.6 9.1 9.1 9.8 11 13.2 15.2 15.8 16.4 18.1 22.2 37.2 54.5 68.9 81 86.3 89.1 85.9 76.3 74.8 74.2 74.1 74.9 80.9 76.3 76.1 73.6 63.1 52 49.3 51.3 55.2 63.6 67.2 72.4 69.2 58.5 52.1 50.7 50.5 48.7 51.2 55.5 64.7 73.1 76.6 72.2 72.2 66.4 64.4 64.4 64.4 72.6 80.3 88.3 99.4 106.1 91.1 75.6 76.6 72.9 68.2 60.9 48.3 34 24.1 18.6 15.5 14.2 14.1 13.2 12.4 10.8 9.8 9.2 8.6 8.5 6.5 7.6 6.1 7.4 7.5 7.4 6.5 -1.1 -1.1 -1.1 0.8 0.6 -1.1 -1.1 -1.1 -1.1 -1.1 -1.1 -1.1 -1.1 -1.1 -1.1 -1.1 -1.1 -1.1 -1.1 -1.1 -1.1 -1.1 -1.1 -1.1 -1.1 -1.1 -1.1 -1.1 -1.1 -1.1 -1.1 -1.1 -1.1 -1.1 -1.1 -1.1 -1.1 -1.1 -1.1 -1.1 -1.1 -1.1 -1.1 -1.1 -1.1 -1.1 -1.1 -1.1 -1.1 -1.1 -1.1 -1.1 -1.1 -1.1 -1.1 -1.1 -1.1 -1.1 -1.1 -1.1 -1.1 -1.1 -1.1 -1.1 -1.1 -1.1 -1.1 -1.1 -1.1 -1.1 -1.1 -1.1 -1.1 -1.1 -1.1 -1.1 -1.1 -1.1 -1.1 -1.1 -1.1 -1.1 -1.1 -1.1 -1.1 -1.1 -1.1
-1.1 -1.1 -1.1 -1.1 -1.1 -1.1 -1.1 5.9 10 10.6 12.2 19.1 23.1 25.4 30.1 34.8 37.3 36 25.4 13.9 8.2 7.2 6.2 5.1 4.9 5.6 6.2 6.7 7.2 7.7 7.7 9 9.8 11.4 13.7 14.2 14.9 15.7 19.2 31.8 46.2 65.7 78.6 84.5 85 79.7 77.2 74.4 74.1 73.6 73 78.2 75.9 77.2 77.5 67.8 49.3 46.2 49.4 54.3 60.2 65.2 71 76.8 64.1 52.7 49.9 49.8 49.6 48 55.4 66 74.4 77.1 73.3 67.4 65 64.4 64.4 67 76.4 85.4 95.2 112.5 116.4 103.2 79.9 77.7 77 72.3 66 57.6 45.5 35 24.2 17.6 14.9 13.8 13.2 12.4 11.7 10.9 9.6 9.2 8.9 8.8 8 8.4 7.6 6.2 6.3 6.4 5 -1.1 -1.1 -1.1 -1.1 -1.1 -1.1 -1.1 -1.1 -1.1 -1.1 -1.1 -1.1 -1.1 -1.1 -1.1 -1.1 -1.1 -1.1 -1.1 -1.1 -1.1 -1.1 -1.1 -1.1 -1.1 -1.1 -1.1 -1.1 -1.1 -1.1 -1.1 -1.1 -1.1 -1.1 -1.1 -1.1 -1.1 -1.1 -1.1 -1.1 -1.1 -1.1 -1.1 -1.1 -1.1 -1.1 -1.1 -1.1 -1.1 -1.1 -1.1 -1.1 -1.1 -1.1 -1.1 -1.1 -1.1 -1.1 -1.1 -1.1 -1.1 -1.1 -1.1 -1.1 -1.1 -1.1 -1.1 -1.1 -1.1 -1.1 -1.1 -1.1 -1.1 -1.1 -1.1 -1.1 -1.1 -1.1 -1.1 -1.1 -1.1 -1.1 -1.1 -1.1 -1.1 -1.1 -1.1
-1.1 -1.1 -1.1 -1.1 -1.1 -1.1 5.9 6.7 8.8 10.9 15 25.7 24.2 23.7 27.6 36.3 37.3 18.2 9.5 7.1 6.1 5.3 4.1 3.2 2.5 2.3 2.8 3.7 4.6 4.9 5.4 7.6 9.9 11.7 12.9 13.4 14 17.8 27.7 45.8 61.6 73.4 79.1 77.6 78 78.9 76.5 73.9 73.3 70.6 73.3 73.9 74.7 77.3 68.8 49.6 45.4 46.9 52.8 56.9 61.9 70.1 76 72.1 53.7 50.8 48.9 48.2 46.6 50.5 64.8 74.3 74.7 66.7 62.7 61.8 62.3 65.5 71.9 79.7 88.9 102.4 118.2 127.5 109.9 91.9 80.7 83 76.1 68.1 63.2 56 45 31.2 20.6 15.8 13.7 13.7 12.8 11.9 11.2 10.4 9.8 9.7 9.4 9.3 9.1 8.5 7.8 4.9 4.7 5.3 1.9 -1.1 -1.1 -1.1 -1.1 -1.1 -1.1 -1.1 -1.1 -1.1 -1.1 -1.1 -1.1 -1.1 -1.1 -1.1 -1.1 -1.1 -1.1 -1.1 -1.1 -1.1 -1.1 -1.1 -1.1 -1.1 -1.1 -1.1 -1.1 -1.1 -1.1 -1.1 -1.1 -1.1 -1.1 -1.1 -1.1 -1.1 -1.1 -1.1 -1.1 4.3 4.2 -1.1 -1.1 -1.1 -1.1 -1.1 -1.1 -1.1 -1.1 -1.1 -1.1 -1.1 -1.1 -1.1 -1.1 -1.1 -1.1 -1.1 -1.1 -1.1 -1.1 -1.1 -1.1 -1.1 -1.1 -1.1 -1.1 -1.1 -1.1 -1.1 -1.1 -1.1 -1.1 -1.1 -1.1 -1.1 -1.1 -1.1 -1.1 -1.1 -1.1 -1.1 -1.1 -1.1 -1.1 -1.1
-1.1 -1.1 -1.1 -1.1 -1.1 5.9 7.2 8.5 9.1 11 16.3 23.6 23.6 24.4 34.2 34.1 22.1 8.3 6 4.7 3.2 2.8 2.1 1.1 0.4 0.4 0.7 1.3 1.9 2.3 3.4 5.3 8.2 11.2 12.3 13.4 16.3 24.4 36.5 55.3 67.7 73.3 76.3 76.9 81.1 79.7 73.9 72.3 69.3 69.3 72.1 73.6 74.5 70.2 52 47.6 43.9 49.2 51.5 59.2 67.6 73.5 72.2 55.6 51.9 49.1 47.1 46 48 60.8 69 68.3 63.5 61.4 62 63.8 69.6 78.2 85 91.1 107.1 122.6 124 110.4 97.1 85.1 85.7 85.9 73.6 67.3 60.7 53.5 41 29.4 19.4 14.7 13.9 13.8 13.7 12.4 10.9 10.3 10.2 10.2 10 9.3 9.2 8.5 7.5 4.3 3.8 3.6 1.1 -1.1 -1.1 -1.1 -1.1 -1.1 -1.1 -1.1 -1.1 -1.1 -1.1 -1.1 -1.1 -1.1 -1.1 -1.1 -1.1 -1.1 -1.1 -1.1 -1.1 -1.1 -1.1 -1.1 -1.1 -1.1 -1.1 -1.1 -1.1 -1.1 -1.1 -1.1 -1.1 -1.1 -1.1 -1.1 -1.1 -0.9 -1.1 -1.1 3.8 4.1 6.1 7.2 9.3 5.9 4.5 3.7 4.1 4.4 3.2 -1.1 -1.1 -1.1 -1.1 -1.1 -1.1 -1.1 -1.1 -1.1 -1.1 -1.1 -1.1 -1.1 -1.1 -1.1 -1.1 -1.1 -1.1 -1.1 -1.1 -1.1 -1.1 -1.1 -1.1 -1.1 -1.1 -1.1 -1.1 -1.1 -1.1 -1.1 -1.1 -1.1 1.9 5.6 4.7 5
-1.1 -1.1 -1.1 -1.1 9.7 6.4 7.6 8.5 9.4 11.1 18.8 22.3 23 31.3 29.8 13.4 8.4 4.5 3 1.7 -1.1 -1.1 -1.1 -1.1 -1.1 -1.1 -1.1 -1.1 0.5 1.6 3.8 5.7 8.3 12.7 12.8 14.4 21.3 30.6 56.7 72.8 73.3 74.9 76.3 81.7 82.8 69.1 69.7 68 72.3 73.5 72.5 70.5 67.6 54.8 48.4 43.5 43.2 47.2 54.7 63.3 69.8 71.6 60.1 54.7 50.5 47.6 45.3 45.2 51 62.7 65.4 63.9 61.2 61.4 66.5 76.5 81.9 88.1 90.1 106.6 126.7 123.2 109.9 100.9 90.6 87.3 89.2 86.4 77 71.9 64.9 52.2 39.1 27.4 19.1 14.7 13.7 12.9 12.6 11.3 10.3 9.7 9.9 10.3 10 9.1 9.1 8.9 6.6 1.4 -1.1 1.2 0.1 -1.1 -1.1 -1.1 -1.1 -1.1 -1.1 -1.1 -1.1 -1.1 -1.1 -1.1 -1.1 -1.1 -1.1 -1.1 -1.1 -1.1 -1.1 -1.1 -1.1 -1.1 -1.1 -1.1 -1.1 -1.1 -1.1 -1.1 -1.1 -1.1 -1.1 -1.1 -1.1 -1.1 -1.1 -1.1 -1.1 0.3 1.2 2 3.6 4.7 6.1 10.2 7.9 7.2 7.2 7.6 8.1 8.1 6.9 4 -1.1 -1.1 -1.1 -1.1 -1.1 -1.1 -1.1 -1.1 -1.1 -1.1 -1.1 -1.1 -1.1 -1.1 -1.1 -1.1 -1.1 -1.1 -1.1 -1.1 -1.1 -1.1 -1.1 -1.1 -1.1 -1.1 -1.1 2.2 1.8 2.3 2.9 5.5 5.6 8 9 9.6
-1.1 -1.1 -1.1 6.5 5.3 6.1 7.6 9.2 10.2 13.9 19.7 16.1 16.6 18 12.3 6.3 3 1 -1.1 -1.1 -1.1 -1.1 -1.1 -1.1 -1.1 -1.1 -1.1 -1.1 -1.1 0.6 2.3 5 7.6 11.1 16.4 19.6 31.3 53.4 77.9 72.5 74 75.1 79.1 76.7 70.1 66.3 67.2 75.6 76.2 73 65.3 63.5 49.9 44.7 42.1 40.4 43.8 49.7 58.6 68.2 68.9 63.1 58.1 54.3 48.2 44.5 44.3 45.9 53.4 61.4 65 62.8 61.8 68.9 78.8 83.3 88.1 91.7 104 129.3 120.7 106.8 103.5 99.3 86.2 89 86.6 82.4 79 73.8 63.7 55.4 39.8 24 16.7 14.4 13.3 12.5 11.9 10.8 9.8 9.4 8.9 9.5 9.5 9.4 9.1 8.2 6.6 4.4 3 -1.1 -1.1 -1.1 -1.1 -1.1 -1.1 -1.1 -1.1 -1.1 -1.1 -1.1 -1.1 -1.1 -1.1 -1.1 -1.1 -1.1 -1.1 -1.1 -1.1 -1.1 -1.1 -1.1 -1.1 -1.1 -1.1 -1.1 -1.1 -1.1 -1.1 -1.1 -1.1 -1.1 -1.1 -1.1 -1.1 -1.1 -1.1 0.2 1 2 2.9 5.6 6.6 10.9 7.3 7.9 8.5 8.9 10.7 9.5 7.8 6.5 3.4 3.6 4.3 3.8 2.8 -1.1 -1.1 -1.1 -1.1 -1.1 -1.1 -1.1 -1.1 -1.1 -1.1 -1.1 -1.1 -1.1 -1.1 -1.1 -1.1 -1.1 -1.1 -1.1 -1.1 5.5 8 9.9 8.6 6.6 7.9 9.2 12.5 15.3 19.4 21.9
-1.1 -1.1 -1.1 4.3 4.5 6.8 7.8 9.7 9.5 9.2 11.1 10.7 9 9.7 6 -1.1 -1.1 -1.1 -1.1 -1.1 -1.1 -1.1 -1.1 -1.1 -1.1 -1.1 -1.1 -1.1 -1.1 -1.1 1.9 5.3 8.1 13.6 23.2 28.6 51.5 71.3 71.4 75.9 75.6 79 73.2 66.6 65.4 66.8 70.5 77.2 75.7 59.4 57.6 45.9 40.8 35.5 35.3 39.4 45.2 54.9 64 68 62.6 58.1 54.7 49.6 44.1 43.7 45.3 50.4 57.7 62.4 61 61.4 65.1 83.3 83 86.4 91.7 100.9 121.5 114.3 100.3 103.2 104.3 88.7 86.4 86.7 83.3 81.2 77 68 60.8 47.3 35.9 20.6 15.6 14.3 12.5 11.5 10.8 10.4 9.5 9.5 8.6 9.5 8.8 8.8 8.5 7.9 6.4 4.4 2.6 0.5 -1.1 -1.1 -1.1 -1.1 -1.1 -1.1 -1.1 -1.1 -1.1 -1.1 -1.1 -1.1 -1.1 -1.1 -1.1 -1.1 -1.1 -1.1 -1.1 -1.1 -1.1 -1.1 -1.1 -1.1 -1.1 -1.1 -1.1 -1.1 -1.1 -1.1 -1.1 -1.1 -1.1 -1.1 -1.1 -1.1 -1.1 0.4 1.4 2.3 2.3 5.9 7.9 6.4 6.8 7.5 8.9 11 12.2 10.4 8.4 7.9 7.7 7.3 7.3 7.7 7.9 3.6 -1.1 -1.1 -1.1 -1.1 -1.1 -1.1 -1.1 -1.1 -1.1 -1.1 -1.1 -1.1 -1.1 -1.1 -1.1 -1.1 3.5 8.7 10.3 12.9 19.6 25.8 13.1 14.7 16.2 17.8 23.6 30.2 32.9 36.2
-1.1 -1.1 3 3 5.9 6.9 8.2 8.4 7.9 8.3 9 8.7 5.5 3 -1.1 -1.1 -1.1 -1.1 -1.1 -1.1 -1.1 -1.1 -1.1 -1.1 -1.1 -1.1 -1.1 -1.1 -1.1 -1.1 2.4 6.3 9.6 19 28.6 41.5 68.9 66.5 73.7 75.5 74.4 65.7 62.2 63.6 69 70.3 73.5 75.5 59.3 51.4 42 34.7 31.3 32.9 36.3 42.3 50.7 62.3 63.1 61.4 57.8 54 48.9 44.6 43.6 44.1 47.6 54.2 58.1 59.1 61.6 66.5 83.5 82.3 85.7 97.2 100.7 112.7 108.6 96.8 102.5 102 92.3 84.3 83.5 81.2 78.6 76.6 71.9 62.9 52.2 35.5 25.4 19.4 17.1 14.7 12.9 11.9 10.5 9.9 10 9.4 8.7 8.8 8.2 8.3 8.4 6.9 5.3 3.9 1.8 -1.1 -1.1 -1.1 -1.1 -1.1 -1.1 -1.1 -1.1 -1.1 -1.1 -1.1 -1.1 -1.1 -1.1 -1.1 -1.1 -1.1 -1.1 -1.1 -1.1 -1.1 -1.1 -1.1 -1.1 -1.1 -1.1 -1.1 -1.1 -1.1 -1.1 -1.1 -1.1 -1.1 -1.1 -1.1 -1.1 -1.1 -1.1 0.8 1.8 2.3 3.4 5.3 6.9 7.2 7.1 8.6 10.7 12.5 13.3 11.7 12.4 14.2 17.9 12.1 10.2 9.7 9 7 3.7 -1.1 -1.1 -1.1 -1.1 -1.1 -1.1 -1.1 -1.1 -1.1 -1.1 -1.1 -1.1 -1.1 -1.1 9.3 12.1 15.8 23 30.1 32 36.1 30 27.3 33.9 38.6 43.8 49.5 52.1 54.9
-1.1 -1.1 0.2 3.6 7 9.1 8.6 7 6 7.8 8.2 3.2 -1.1 -1.1 -1.1 -1.1 -1.1 -1.1 -1.1 -1.1 -1.1 -1.1 -1.1 -1.1 -1.1 -1.1 -1.1 -1.1 -1.1 -1.1 5.5 9.3 12.1 29 45.5 62.7 61.6 71.8 74.4 65.8 59.3 61.5 67 72 74.8 70.9 73.4 56.3 43.4 36.6 29.4 25.5 29.1 33.2 36.9 48.1 54.4 59.4 60.7 55.9 52.4 46.5 44.3 43.3 45.4 57.4 60.2 58.2 58 61.1 70.1 80.9 78.4 86.8 96.7 98.9 98.5 96.9 96.5 105.9 103.6 97.3 81.3 80.6 80.2 78.5 77.3 73.5 63 55.5 41.6 30 24.4 20.9 17.2 14.3 13.5 12 10.7 9.8 9.9 9.6 8.8 8.3 7.7 7.8 6.9 5.3 4.1 4.2 0.7 -1.1 -1.1 -1.1 -1.1 -1.1 -1.1 -1.1 -1.1 -1.1 -1.1 -1.1 -1.1 -1.1 -1.1 -1.1 -1.1 -1.1 -1.1 -1.1 -1.1 -1.1 -1.1 -1.1 -1.1 -1.1 -1.1 -1.1 -1.1 -1.1 -1.1 -1.1 -1.1 -1.1 2.1 1.8 -1.1 -1.1 0.6 1.7 1.3 3.9 5.8 10.3 15.2 13.2 12.9 12.5 14.3 14.6 18.1 25.1 30.7 26.5 29 24.4 20.3 13.4 12.5 10.5 8 4.3 2.2 -1.1 -1.1 -1.1 -1.1 -1.1 -1.1 -1.1 5.4 8.5 9.1 11.3 17.2 21.4 31.4 37.4 42.4 41.3 46.4 50.2 48.3 46.9 50.2 58.9 64.7 69 70 73.4
-1.1 -1.1 2.7 4.6 6 9.6 6.6 3.5 4.6 -1.1 -1.1 -1.1 -1.1 -1.1 -1.1 -1.1 -1.1 -1.1 -1.1 -1.1 -1.1 -1.1 -1.1 -1.1 -1.1 -1.1 -1.1 -1.1 -1.1 4.2 11.3 13.9 21.5 43.2 49.4 57.5 68 68.6 64.7 58.5 67.7 72.3 71.4 81.8 69.2 68.4 57.8 41.8 32.7 26.6 19 24.9 29.6 34.6 42.2 50 55.2 56.5 52.8 48.9 45.4 43.1 44.6 46.5 62.2 63.2 59.9 60.2 63.4 73.7 76.4 77.5 91.2 101.9 100.4 85.8 86.6 100.7 107.9 102.3 97.3 78 73.5 78.8 77.2 73.2 73 66.5 54.8 38.2 35.8 33.2 25.9 21 16.9 15.1 13.3 12.3 11 10 9.8 9.9 9.2 8.4 7.9 7.8 6.2 4.9 3.8 1.5 -1.1 -1.1 -1.1 -1.1 -1.1 -1.1 -1.1 -1.1 -1.1 -1.1 -1.1 -1.1 -1.1 -1.1 -1.1 -1.1 -1.1 -1.1 -1.1 -1.1 -1.1 -1.1 -1.1 -1.1 -1.1 -1.1 -1.1 -1.1 -1.1 -1.1 -1.1 -1.1 -1.1 2.7 5.2 2.3 -1.1 -1.1 1.8 6.2 12.1 17.5 33.6 36 37.2 33.6 32 34.8 34.5 35.4 38.5 42.4 49.3 49.5 46.9 41.8 40 34.3 32.7 29.3 24.4 16.8 7.8 3.8 -1.1 -1.1 -1.1 6.7 9.7 11.7 14.4 19.8 23 30.5 46.4 47.7 51.5 57.4 62.3 70.2 69 78.1 76.1 67.9 64.2 76 84 86.7 87.6 91.6
-1.1 -1.1 3.9 5.4 5.4 5.2 5.3 -1.1 -1.1 -1.1 -1.1 -1.1 -1.1 -1.1 -1.1 -1.1 -1.1 -1.1 -1.1 -1.1 -1.1 -1.1 -1.1 -1.1 -1.1 -1.1 -1.1 -1.1 3.2 7.2 12.5 18.9 34.8 44.4 50 63.4 67.5 73.5 56.4 64 71.4 72.1 80.5 76.4 58.4 62.6 42 30.3 23.1 18.5 20.2 26.9 31.9 37.8 45.1 51.3 52.6 48.1 45.2 41.9 39.5 42.9 51.1 66.6 65.2 62.9 64.3 72.8 67.2 71.7 76 92.1 93.2 87.8 79.5 86.2 100.1 104.7 101.1 96.1 79.2 65.7 80.2 77.9 72.5 67.9 66.1 48 44.6 40.2 36.6 31.6 26.3 21.4 18.5 16.5 14.8 12.7 11.4 10.4 9.8 9.3 8.8 7.7 6.8 6.5 6.5 4 1.6 0.5 -1.1 -1.1 -1.1 -1.1 -1.1 -1.1 -1.1 -1.1 -1.1 -1.1 -1.1 -1.1 -1.1 -1.1 -1.1 -1.1 -1.1 -1.1 -1.1 -1.1 -1.1 -1.1 -1.1 -1.1 -1.1 -1.1 -1.1 -1.1 -1.1 -1.1 -1.1 -1.1 -1.1 4.2 7.4 3.5 2.3 2 3.3 9.8 16.2 33.1 48.3 52.7 55.8 50.6 47.1 50.3 50.8 54.8 59.6 60.3 58.7 61.2 63.5 63.1 61.6 59.3 57.4 55.4 50.5 36.8 21.8 17.1 22.4 27 27.8 29.4 31.3 31.1 30.6 36.6 41.3 51.6 67.1 77.6 85.8 88.7 93.2 100.8 97.7 107.6 109 98.4 86.2 92.7 103.2 107 110.3 117.7
