ncols 200
nrows 83
xllcorner 240000
yllcorner 940100
cellsize 50
336.9 324.6 312.2 304.1 300.4 291.1 279.1 272.8 263.3 251.6 256.8 248 243.7 235.2 218.7 208.6 207.8 204.5 194.5 187 185 180.1 173.9 172.5 173.3 170.6 165.7 163.6 159.9 153.8 143.6 117.6 123.2 145.1 159.1 162.8 161.3 150.1 160.2 183.8 203 221.9 250.3 267 279.5 283.2 284 284 289.4 294.8 304.6 308.3 317.1 317.1 318.7 323.1 326.4 326.3 326.2 326 326.6 324.4 325.4 332.4 338.8 345.1 346.1 346 354 355.4 353.4 348.4 336.1 316.2 288.2 280.5 274.4 264.7 256.6 244.8 237.7 236.2 233.9 228.9 224.8 221.4 217.8 214.8 211.5 207.3 196.8 192.9 188.7 182.5 171.7 159.1 141.7 128.2 117.3 98 78 53 29.3 18 17.2 16.4 16.3 15.7 16.2 16.9 16.7 21.6 26.9 35.2 43.7 66.8 84.8 95.6 106.3 120.2 132.9 142.5 154.6 167.5 185.6 197.7 206.5 221.8 236.9 240.2 249.8 266.9 275 277.4 283.3 291.8 296.6 299.4 297.9 301.3 304.5 303.8 306.3 304.4 303.8 303.5 304.4 303.9 302.1 300.5 299.6 297.5 295 291.7 287.2 283.9 282 277.1 274.8 274.1 269.8 267.2 265.5 264.3 262.4 259.3 259.2 257.2 255.4 252.8 251.1 250.4 249.3 247.6 246.9 246.7 246 248.9 250.5 251.9 251.2 253.2 258.5 264.6 267.2 270.3 277.8 287.5 292.1 298 301.6 307 310.5 320.7 321.5 334.2 340.7 346.6 351.3 360.3
348.6 333.3 325.1 312.1 302.6 296 289.6 278.8 271.7 264.1 255.6 246.4 239.3 230.3 220.1 214.5 213.6 206 207.1 195.8 190.1 184.6 179.8 174.5 174.4 174.5 165.2 164 163.2 160.5 158.4 153.4 138 119.7 118.3 147 148.7 135.3 151.3 178 194 216.6 251.7 270.1 286.8 289.4 289.9 290.4 295.2 300.2 306.3 313 318.7 320 321.8 322.8 323.8 324.8 325.5 326.1 325.6 326.7 324.2 328.5 334.3 341.1 343.4 345.7 354 356.4 356.5 349.2 331.6 306.3 288.5 283.3 276.3 266.8 256.3 245.7 240 239.3 234.6 228.8 225.1 222.2 219.2 217.2 213.6 209.3 199.8 194.6 190.1 181.6 169.9 158.1 140.9 124.9 111.3 90.5 70.3 48.9 26.1 17 16.7 14.9 16.2 15.7 16.1 17.4 16.4 21.6 23.3 34.5 44.7 68.6 81.9 92.9 107.2 123.7 132.9 142.5 158.5 169.5 184.1 195.6 205.3 219.4 228.8 237 239.7 259 271.6 270.5 278.2 289.4 286.5 288.2 290.3 297.3 296.4 296.4 298.7 297.9 295.8 295.9 296.7 295 294.3 294 292.4 290 288.9 285.2 282.4 279.2 277 274 270.9 268.7 266.8 263.9 262.4 261.8 259.8 256.2 253.5 253.3 251.3 250 249.4 249.5 248 246.9 246.5 245.6 245 245.1 247.8 248.5 252.3 259.9 265.5 263 269.8 279.8 284.7 286.9 292.8 294 302.1 307.8 310.3 319.6 332 337.6 343.2 353.3 360.7 371.3
352 338.9 331.9 325.1 314.3 302.3 284.9 283.9 280.2 269.5 258 245.4 240 236.4 228.5 224.8 223.4 215.9 211.8 208.3 204 197.7 189.4 182.8 175.1 168.7 166.8 163.2 162.9 162.3 159.6 157 153.6 148 135 109.1 114.4 117.6 143.1 161.5 184.9 209.2 245.7 270.8 289.1 293.5 294 295.4 299.7 303 307.3 315.2 318.6 321 322.6 321.6 321 321 323.2 322.9 323.6 324 322 325.9 329.7 335.4 338.4 342.9 347.9 354.7 356 343.6 325.6 301.1 291 285.2 275.5 265.5 254.4 245.5 240.4 238.4 233.6 227.5 223.8 221.5 219.7 217.5 212.8 207.5 205.3 198.4 190 179.7 170.1 158.4 140.3 123.9 108 85.5 65.3 43.2 23.6 18.4 15.4 17 15.2 16.7 16.5 16.9 16.8 17.4 25.9 34.5 42.1 61.2 80.8 92.6 107.3 125 133.9 145 157.8 171.2 184.6 195.5 204.3 218.9 226 234.5 246.2 267.1 268.5 265.2 271.8 281.9 282.8 288.3 287.6 290.8 289 290.4 290.1 289.3 290.3 289.5 288.9 288.1 287.2 286.6 285.4 283.4 281.6 279.1 276.1 273.5 271.4 267.7 266.5 264.9 263.5 262.3 259.5 259.6 257.7 253.4 250.8 249.4 248.4 247.4 247.1 247.2 246.2 246.3 246.3 244.8 244.8 244.2 246 247.9 252 258.6 266.5 267.5 273.1 280 283 284.7 290.1 298.2 308.2 314.9 327.6 330.9 338.7 344.8 350.6 366.2 376 378.4
350.2 342.5 336.1 327.8 316.7 308.8 295.9 284.7 273.6 274.1 268.4 256.3 247.8 240.9 237.4 226.7 226.5 222.4 215 215.6 209.5 206.2 204.7 196.2 186.3 180.3 172 164.7 163.2 159.8 158.3 157.1 155.1 151.8 147.7 142 120.2 103.8 126.7 142.1 169.8 195.8 223.3 258.5 285.2 294.8 296.9 298.1 302.8 304 306.2 312.2 316.3 319.1 319.8 317.6 316.5 315.9 319.8 319.1 320.3 322.5 318.2 322.1 328.2 331.8 334.3 336.9 341.5 346.1 348.6 337.8 317.2 298.4 292.1 285.9 272.2 261.8 253.8 249.3 241.9 237 231.7 226.8 223.2 221.1 219.2 216.5 212.6 207.8 204.6 198.8 189 178.3 169 153.2 138.6 122.8 103.8 83.4 61 40 23.5 17.9 16.6 17.7 17.6 16.7 16.2 17.1 18 17.8 25.4 31 42.6 55.2 75.5 95 112 123.4 134.3 150 162.4 172.5 184.3 195.6 205.7 214.4 224.1 239.7 249.1 259.5 254.7 263 271 277.6 278.1 280 279.1 286.3 282.2 285.5 284.5 283.6 281.5 282.1 280.2 281.5 281.7 280.2 278.7 277.2 275.3 273.3 270.2 268.4 266.5 263 260 258.1 256.8 255.9 256 255.8 255.1 250.5 246.7 245.8 245.6 245.3 245.5 244.4 242.1 241.5 240.8 243.1 243.4 244.6 249.1 254.3 257.3 258.4 264.4 272.5 275.3 277.9 282.1 285.9 297 308.8 313.4 326.4 330.3 337.7 348.9 353.7 367.5 378.8 381.8 382.3
354.2 340.7 337.7 328.9 317.6 310.5 298.7 284.9 275.1 266.2 267.5 261.7 252.3 243.7 241.3 236.1 236.6 239.5 234.3 231.8 225 218.7 216.2 208.4 203.8 192.5 186.1 177.7 172 167 158.1 156 154.8 154.8 152.3 149.7 138.5 118.3 102.4 130.3 147.4 178.8 209.8 234.8 269.3 291.1 297.6 299.2 299.4 300.4 304.5 309.4 311.1 314 313.2 311.3 309.8 308.8 308.4 313.8 316 318.6 311.9 316.8 317.9 321.7 327.3 332.3 334.5 336.2 332.7 327.1 304.9 297.5 291.6 279.6 268.5 259.8 256.8 250.8 243.6 236.2 230.5 226.4 224.1 221.9 220.3 216 214.2 208.5 202.7 195.3 185.8 176.8 166 149.3 138.3 116.1 97.4 78.7 60 39.5 25 16.3 16.6 17.6 18.2 17 17.1 18 18.7 18 23.4 28.8 41.3 59.2 81 97.7 109.3 121.3 138 152.6 164.1 173.6 184.6 195.6 203.4 215 222.5 238.9 244.9 249.2 252.3 261.6 265.7 273.8 274 271.9 269.1 280 278.9 278.4 279.7 278.1 279.4 275.6 273.4 274.9 274.5 273.6 273.6 272.4 270 267.9 266.1 263.7 261.2 258.1 255.8 254.1 252.4 250.9 249.6 250.9 249.3 247.5 245.4 242.6 242.9 242.1 240.8 239.8 240.2 238.9 240 241 243.8 247.8 250.2 255.7 258.5 263.6 261.8 272.9 280.2 283.3 289.6 298 304.2 313.5 319.8 330 336.7 347.5 355.2 364.6 378 382 385.7 388.6
351.3 340.9 335 328.7 315.7 308.7 298.4 288.9 284.1 276.9 266.7 264 258.2 249.5 245.4 244.1 242.2 244.6 245.9 240.6 226.6 225.2 219.5 214 213.2 202.2 193.2 186.5 179.9 175.8 172.4 166 162 153.4 152.5 149.2 142.4 136.2 117.9 102.1 133.2 164.5 186.8 215.3 245.9 278.1 293.7 296 297.1 295.9 297.7 300.2 302.3 303.7 303.5 302.4 299.1 299.6 301.1 307.6 310.1 313.1 306.9 307.6 310.6 314.9 323.3 324.6 325.2 324.2 320.4 310 297.1 293.1 285.9 274.6 264.1 260.2 255.4 250.1 243.4 234 229.3 226.4 224 221.7 219.2 215.7 213.9 210 201.5 196.5 185.6 177.8 166 148.9 132.2 115.7 94.3 74.3 53.6 35.6 25.1 17.1 17 17.8 17.5 16.8 17.5 18.2 18.8 18.7 26.1 33.7 52.7 62.5 82.5 95.4 104.5 122.8 137 150.8 162.5 174.3 185.3 193.2 203.3 215.2 220.6 234.9 238.8 241.4 248.1 258 265.5 269 272.4 267.3 270 277.3 276 273.6 273.1 271.6 271.9 271 272.5 269 268.9 269.2 269.1 267.5 265.5 264.5 261.3 259.5 258.3 254.3 252 250.4 248.6 247.1 246.6 245.8 245 243.9 242.8 241.6 240.7 240 238.6 238.9 239.9 239.8 242.5 245.7 247.8 251.5 253.5 253.1 260.5 266 270.4 276.6 284.7 287.5 293.8 303.3 314.1 319.6 331.4 335.5 346 353.1 365.9 376.3 385 387.9 390.5 393.4
351.5 339.6 333.4 324.4 314.8 308.7 303.8 300.2 294.8 291.5 284.3 272.7 265.8 260.1 259.1 253.9 244 243.9 243.3 236.9 238.3 225.9 221.3 213.4 211 203 194.2 190.2 189.1 186 174.7 168.1 162.1 156.4 152.5 150.8 147 137.5 127.3 102.5 118.8 144.1 166.1 190.3 217.3 252.3 272.2 285.4 290.3 290.5 290.9 289.9 290.3 293.9 292.8 288.6 287 289.3 293.3 299.7 301.7 302.1 300.7 301.8 306.6 308.2 312.5 314.2 312.1 309.1 301.4 295.9 288.4 288 280.2 270.3 262.3 257.6 252.5 249 239.9 232.5 228.4 226 223.8 220.1 216.9 216 213.7 209.5 202 193.6 183.5 177.9 162.7 144.6 128.8 109.9 89.9 69.8 47.5 34.6 23.5 17.4 17.4 17.9 18 17.7 18.2 19 19.8 20.6 26.5 39 56.9 66 80.6 89.5 105 120.2 133.2 150.2 162.4 174.7 182 188 201.5 209.7 220.8 227 229.5 234.8 246.9 252.4 259.3 260.1 263.2 261.7 265.3 273.6 271.3 270.1 268.2 267.7 266.9 265 264.4 264.7 260.5 261.4 259.9 259 257.3 258 257.8 255 254.5 251.1 248.7 247.6 245 244.4 243.6 242.8 242.2 241.9 240.8 238.8 238.2 237.7 238.5 240.2 241 241.6 242.7 245.2 249.3 253.6 256.6 255.9 262.2 265.8 275.2 279.2 287.7 298 302.7 312.4 322.9 330.4 338.5 343.7 353.8 365.9 380.9 386.1 390.1 395.3 397.4 396.5
347.5 341.9 332 321.3 313.4 312.4 311.5 309.2 304.6 299.3 294.2 284.1 272.9 269.3 261.6 253.5 248.3 245.1 241 233.8 228.9 226.2 223.2 220.3 211.8 203.2 195.1 188.3 185.7 182.2 173.9 168 163.5 164.2 162.4 156.2 147.7 140.3 134.6 109.1 114 110.8 143.6 163.5 190.1 218.2 249 268.3 279.3 280 278.9 279.3 278.6 281.1 280.5 274.1 277.9 281.6 286.1 287.7 292 295.7 294.3 295.3 295.7 297.2 300.6 301.4 299 295.1 289.9 284.1 279.7 282 273.1 265.4 258.8 254.3 251.8 245.3 237.8 231.7 229.1 224.9 222 220 221.9 218.1 217.3 206 199.1 189.3 181.8 177.8 163.3 145 126.9 107.9 90.4 74.4 52.4 32.6 19.9 17.1 17.5 18 18.5 17.9 19 19.9 19 20.4 27.2 43.9 60.7 69.6 76.2 89.1 98.8 119.2 126.8 145.6 162.2 172.1 177.5 190.7 200.3 209.4 215.2 217.2 219.4 237.7 242 247.3 253.2 253.1 257.9 264 263 267.2 266.7 264.2 262.7 261.5 261 259.9 259.3 259.3 256.4 256.5 257.1 255.6 253.3 251.1 249.2 248.4 246.4 245.9 244.7 243.7 242 241.3 240.7 240.1 239.5 239.5 238.9 238.5 237.1 236.6 237.4 239.6 240.8 242 245.5 246.3 253.9 259 258.3 265.5 270.9 271.9 279 285.9 297.1 305.8 312.5 319.5 328.9 336.8 342.3 352.4 362.8 376.2 389.6 395.7 396.5 400.3 402.6 402.4
346.2 341.4 329 322.5 316.7 314.5 317.4 320.1 312.8 311.4 309 296.8 293 283.8 275.7 264 257.8 249.5 242.7 239.4 236.1 234 228.6 220.8 214.6 206.8 203.2 194 187.4 184.6 177 169.1 164.5 163.6 162.2 158.7 150.6 145.4 133.3 119.3 102.9 100 104.6 138.1 164.5 189.8 216.9 242.2 254.6 260.2 263.1 265.1 264.9 266.8 265.1 260.7 267.9 269.5 274.3 276.2 281.3 285.3 281.3 289.7 288.6 287.1 287.1 289.4 289 283.2 277.9 276.2 273.4 270.8 266.3 261.1 254.3 252.4 248.7 241.9 235.9 232.1 229.5 224.4 220.3 218.1 216.8 217.4 212.5 204.4 196 187 181.5 174.4 160.8 143 125.7 106.8 86.5 67.3 46.4 30.4 19.9 17.9 18.3 18.7 18.9 18.5 18.1 18.3 19.4 19.9 30.1 43.9 59.7 73.5 76.3 88.3 101.1 110.1 118.9 142.3 159 168.6 175.1 190.9 196 203.9 211.3 216.3 226.2 235.1 240.7 244.5 249.8 249.3 255.1 258.6 258.5 259.2 261.2 261.6 257.8 260.3 257.9 256.7 257.2 255.9 251.6 253.2 256 252.3 250.1 247.8 245.9 244.3 242.5 242.4 241.5 239.8 238.2 237.5 236.9 237.1 237 237.4 236.8 236.6 236.1 235.3 237.2 239.6 240 243.1 246 248.9 254.6 260.3 262.2 267.4 271.4 273.6 286.7 294.7 305.3 312.1 319 326 333.2 343.7 352 360.5 373.7 387.1 395.5 399.3 402.4 408.8 413.3 406.4
345.2 338.4 330.1 325.2 322.1 316.8 322 320 323.2 312.1 311.5 302.3 304.8 295.9 289.7 285 267.7 256.3 250 244.8 242.1 237.6 234.4 227 220.7 217.4 206.4 199.6 193.7 184.4 178.3 168.5 164.6 163.4 161.9 152.3 149.4 143.5 142.1 133.3 119.6 97.2 98.7 114.7 138.4 161.1 185.5 212.4 236.3 238.4 239.2 244.8 247.6 249 250.5 248.8 256.8 258.7 260.2 266.7 270.4 277.3 275.6 277.6 277.7 277.3 277 279.1 276.8 273.2 266.4 265.7 264.7 264.2 258.2 254.1 249.5 248.3 244.8 239 234.4 232 229.4 227 219.4 216.4 215.4 214.6 209.3 201.2 193.7 185 180.1 170 156.4 140.3 122.7 102.5 82.7 65.1 48.1 31.3 20.9 17.9 18 18.9 19 18.8 18.6 20 19.2 18.8 25.5 42 62.7 71.8 80.1 88.3 105.5 113.7 126 140.8 160.9 167.2 174.5 186.7 189.1 200 213.1 217 229.6 228.9 237.3 240.9 245.2 246.5 252.5 257.6 256.6 255.1 255 255.9 257.7 256.1 254.9 252.9 253.2 249.9 250 250.2 246.3 245.6 245.7 245.2 242.9 239.8 239.2 237.7 236.6 236.3 234.9 233.9 233.5 234.4 234.4 234.4 234.6 233.7 234.6 235.7 236.8 238.2 241.2 245 249.5 255.3 257.6 261.1 266.6 270.4 272.5 282.9 292.6 302.1 311.1 317.9 324.7 332.1 341.7 352 359.8 369.1 382.2 398.1 401.7 404.8 409.1 414 413.8 407.5
344.3 336.5 332.8 330.4 328.5 324.7 322.4 327 322.5 312.4 307 305.6 304.8 300.3 295.2 290.2 278.6 271 265 255.2 248.8 247.4 247.9 238 229 219.3 212.3 203.7 197.2 185.5 177.1 171.2 164.7 159.6 155.7 151.3 148.5 145.7 140.3 134.1 123.8 114.8 95.7 97.7 109.7 136.8 156.7 183.8 209.9 216.2 218.4 222.1 228.1 232.2 235.8 234.8 244.1 247.5 249.4 253.5 259.9 263.5 267.8 267.1 266.7 265.3 269.8 270.3 265.9 260.7 256 255.6 258.2 259.4 253.9 250.8 243.7 243.7 240.1 235 233.8 231.8 227.7 223.6 219 215.6 214.5 211.1 205.2 197.3 190.1 183.7 176.9 165.7 151.6 133.8 114.2 98.7 80.5 68.6 50.4 30.5 23.2 17.5 17.5 18.2 19.5 19.3 18.6 19.7 20.3 22.6 27.5 32.4 56.5 71.1 82 89.2 104.5 114.8 127.8 140 158 163.9 170.1 181 191.6 201.4 214.4 212 218.3 224.8 234 238.8 237.4 241.3 248.3 255.2 253 253.3 251.8 252.2 252.5 253.6 250.7 250 249.5 248 247.3 246.9 245.8 244.9 243.8 239.5 238.7 237.6 236.1 235 233.5 232.8 231.1 230.4 230.9 231.6 231.9 232.1 229.9 232 235.2 236.6 236.7 238.3 242.8 245 251.7 260 261.4 263 270.7 276.8 278.1 290.5 298.8 307.4 315.5 323 330.1 338.9 350.1 359.1 367.2 376.7 391.3 401.3 406.8 406 410.8 411.3 408.3 403.7
340.6 335.2 333.6 332.9 330.4 329.5 327.9 328.1 322.3 319.1 312.6 309.4 306 304 304.5 301.4 293.4 282.2 279.1 274 264.2 256.6 252.5 246.7 246.2 238.2 223.8 214.3 202.7 191.2 179.2 176.4 165.7 158.9 156.7 151 150.2 146.2 141.2 133.7 126.6 113.3 99.4 98.2 97 107.3 135.4 154.9 175.8 191.5 201.4 209.3 213.5 217.5 223.4 227.8 231.4 238.7 241.5 246.6 248.3 251.7 256 256.7 257 255.9 259.4 261.2 258.2 251.4 246 244.4 247.7 249.3 251.4 249.3 240.7 235.7 233.7 232.3 232.2 231.9 224.8 219.8 215.4 215.7 214.8 208 200.7 195.7 190.1 179.8 172.6 160 144.6 127.3 111.3 93.1 78.3 65.8 46.7 28.9 23.4 22.9 20.1 20.3 21 20.1 18.7 20.5 19.8 24.6 30.5 34.7 55.4 71.4 81.4 89.3 99.3 115 127.9 142.1 153.8 159.3 169.3 174.8 193.3 198.7 211.1 205.4 211.1 224.1 230.5 232.3 234 238.7 244.7 248.3 251.1 251.9 251.9 251 249.1 251.2 247.3 248.6 248.4 245 244.3 244.8 243.6 243.5 239.3 235.8 236.9 236.8 235.7 233.1 231.7 230.1 228.8 228.3 229.5 230.4 230.5 230.5 228.4 232 233.8 236.3 236.3 238.9 244.3 247.8 252.7 258.3 262.1 268.8 275.8 281.3 289.6 297.3 305.2 312.6 321.1 328 336 346.1 356.6 363.9 373.4 384.7 397.3 403.6 410.1 407.7 407.6 407 403.9 399.2
339.8 339.2 338.9 339 340.5 340.8 340.9 330.1 329.8 335.7 325 326.6 317.9 323.3 325.3 321 309.4 300.5 294.1 289.8 289.6 281.7 267.2 260.1 264.5 251.4 244.5 235.6 226.2 208.4 195.3 187.4 173 162.7 158.1 153.7 152 149.8 143.9 140.2 131.2 117 101.2 95 97.1 96.5 102.4 125.1 151.4 168.1 176.7 193.6 200 204.6 210.8 220.7 223.2 224.3 229.7 233.4 236.7 240.6 242.7 244.7 246.1 244.9 248.4 251.6 249.7 240.4 237.3 236.7 238.1 240.3 242.3 242.9 239.3 230.9 227.2 226.4 227.4 226.7 221.3 215.7 210.2 211.7 211.2 208.4 202 195.5 191.6 178.4 172 157.2 140.1 117.6 102.5 88.3 74.1 59.3 41.3 30.1 24.3 21.9 19.8 20.6 21.5 21 18.7 20.3 20.4 26 34.7 41.2 56 74.6 83.9 92.3 108.5 122.4 128.2 135.4 152.7 159.7 178.4 187.2 198.6 195.7 200.1 197.6 206.1 217.7 226.1 227.8 232.2 236.5 242.4 248 251.1 252 251 249.7 245.7 246.3 245.3 246.5 245.8 243.2 242.5 242.4 241.6 237 237.4 235.7 234 233.8 229.2 229.1 228.3 227.6 226.1 226.4 226.8 228.4 229 228.1 227.6 230.9 232.9 235 237.7 240.9 247.5 250.4 257.1 263 267.3 273.9 280.4 287.5 295.6 302 309.7 317 325.2 331.7 340.5 352.2 359.3 370.6 381.9 389.2 398.4 405 405.8 408 405.9 403.9 399.8 391.8
343.1 349 345.5 344.5 346 343.8 344.3 340.9 351.8 348.7 339.4 345.7 340.7 340.5 340.9 334.5 325.4 321.6 316.3 311.5 309.2 305.7 294.9 282.5 275.3 262.9 259.5 256.6 243.6 229.5 206.8 191.4 177.1 169.5 163.6 165.5 163.8 149.7 144.2 141.8 137.2 127.5 112.4 97.6 94.4 95.9 94.9 103.3 128 146.2 157.4 175.7 185.4 188.8 200.1 209.2 214 215.2 215.7 223.1 223.1 228.7 231.5 231.5 234.5 237 238.9 240.1 241.1 233.5 229.9 229.4 230.5 231.8 233.5 234 233.4 229.4 223.7 221.1 221 220.4 215.8 210.7 206.3 207.8 208.3 208.8 200.2 193.4 186.6 175.7 167.6 154.3 137.8 117.1 103.6 85.6 73.7 57.3 40.9 29.9 24.1 21.8 20.3 20.9 22.5 21.9 18.8 20.7 20.8 20.9 33.6 42.5 55.2 69.1 83.8 94.9 109 125.8 134.2 140.5 152.6 163.6 179 188.3 195.8 189.5 193.1 194.2 207.3 217.3 220.7 224.9 227.1 236.8 242.9 247.4 248.8 248.6 247.5 246 243.4 243.1 244 244.5 242.3 241.8 241.5 240.5 237.6 233.5 230.6 229.7 231 228.9 227.3 226.9 226.2 225.5 225.2 224.6 225.1 226.6 226.9 226 227.6 230.2 231.9 235.3 239.8 243.7 248.5 252.6 259.5 262.5 272.4 277.8 284.5 293.1 299.5 307 312.5 321.5 327.6 335.6 343.9 356.4 363 375.8 385.4 389.4 398.8 403.7 403.1 406.1 401.7 398.2 396.2 386.5
341.8 348.2 351.7 351.2 350.3 355.5 357.9 355.4 357 357 363.8 365.8 357.1 354.6 348.2 342.8 337.7 331.8 332.4 327.3 322 315.5 306 297.4 297.2 290.9 279.8 268.8 253.2 242.3 219 199.7 183.7 171.4 168 161.4 156.2 154.3 152.6 145.7 136.9 132.5 124 114.4 96.3 94.1 93.1 94.3 113.6 131.3 145.2 151.7 167.9 181.3 188.6 197.7 202.6 204.5 206.4 211.7 209.5 217.6 219.5 221.9 228.6 230 230.6 231.7 231.5 225.9 222.6 222.7 223.2 225 226.4 226.4 226.4 224.2 220.4 215 213.5 212.2 209.7 207.4 205.1 205.2 204.9 200.5 194.4 188.4 180.2 173.9 164.6 152.5 138.9 120.2 100.1 85.5 71.8 55.9 39 29.7 25.6 22.2 21.5 21.7 22.7 22.5 18.6 21 21.1 20.8 32.4 44.3 56.5 76 85.7 94.4 105.8 121 126.7 136.9 153 166.8 177.2 176 182.7 181.5 189.7 195.5 209 217 223.7 227.3 231.1 237.3 241.8 244.7 247.3 246.1 245.6 243 240.7 242 242.7 242.3 241.4 240.9 240.1 237.6 234.6 232 231 227.2 227.5 227.2 226.5 225.5 224.3 224.8 224.4 222.9 224.2 225.1 225.3 224.1 227.1 230 232.3 236.6 240.9 244.8 248.7 254.6 260.4 264.2 275.9 281.7 289.4 296.2 302.8 310.3 316 322.4 328.7 337.6 346.8 357.7 367.5 379.5 385.5 389.2 394.5 399.1 399.2 399.7 394.7 390.4 386.2 379.2
349.3 350.3 355.2 356.4 360.8 360.6 363.5 364.3 363 365 371.2 369 366.4 365.4 360.3 354.9 351.6 348.3 342.2 342.9 336.1 329.9 321.4 318.7 317.2 314.3 305.4 285.6 266.1 249.6 230.5 210.3 187 176.8 171.2 172.1 166.3 160.2 152.9 149.4 145.8 144.6 138.9 127.8 110.6 95.5 95.3 93.8 96.3 112.4 126 143.7 153.3 163.2 176.4 185.7 191.6 197.3 197.6 200.7 205.9 207.7 213 214.5 219.4 218.6 222.8 223.3 222 218.2 216.4 215.5 217.2 219.9 219.2 218.3 217.9 219.1 214.9 213.7 209.3 206.9 208 205.3 204.3 203.7 201.8 197.2 188.7 183.1 177.9 167.9 158.8 146.4 134 116.6 99.1 87 68.6 53 39.3 27.1 24.9 21.6 21.8 22 22.7 22.8 18.8 21.6 22 24.4 33.4 38.7 51.5 71.3 81.2 93.5 104.3 120.1 133.5 148.6 159 164.9 169.8 172.3 174.9 177.8 197 199.7 210.8 215.5 223.4 233 235.5 234.8 240 240.3 242.2 242.2 241.1 238.8 238.1 241.8 240.3 241.2 239.7 238.9 237.2 233.6 231.6 230.9 229 226.4 226.7 226.5 226.5 225 225.2 226 224.1 222.7 223.1 224 223.8 223.3 227.4 229.8 234.2 236.9 241.5 246.1 252.2 257.7 262.7 270 278.5 284.1 290 299.3 306 310.7 316.4 322.2 329.5 338.8 347.7 356 370.4 381.4 383.3 385.1 389.2 393.8 392 388.8 386 384.9 380.3 372.5
355.4 362.7 365.5 357.8 363.1 367.5 370.7 373.5 370.5 378.2 374.5 373.9 369.2 372 367.1 361.9 360.8 359.3 357.5 356.3 347.5 341.7 336.5 333.5 330.2 330.2 316 300.7 282.5 268.9 242.1 221.2 199.3 185 180.6 176.1 171.6 161.3 156.3 154.4 154.2 145.4 151 138.2 114.9 101.6 95 94.8 93.8 96 112.3 125.4 143.7 153.5 163.9 175.9 184.4 189.3 193.3 190.1 199.9 197.9 203.1 204.2 211.8 211.2 219.2 215.9 213.4 210.3 208.4 207.7 210.1 212.9 210.9 210.7 209.5 209.5 209.5 208.8 202.1 199 202.3 201.2 199.3 197.7 194.5 190.4 183.4 175.7 169 162.2 151.4 139.6 126 112.8 97.4 80 64 50.8 40.1 32.1 25.2 22.5 22.1 22.4 23 23.6 19.2 21.9 22.3 26.1 31.2 44.3 56.8 77 87.4 97.2 112 124.9 134.7 144.9 154.2 161.9 164.8 180.1 177 192.1 201 201.5 207.4 212.9 223.2 229.3 231 233.2 237.3 237 239.2 238.4 236.8 236.9 235.8 239.2 238.7 236.3 236.8 235.6 234.9 232.9 229.6 230.4 227.2 226.6 225.6 226 225.6 224.6 224.2 224.1 222.6 221.8 221.9 222.6 222.6 223.2 226.4 229.9 232.9 235.7 243.1 247.4 252.9 256.8 262.5 273.2 280.4 286.5 291.1 300.3 306.5 311.3 315.5 322.2 330.4 338 346.3 356.7 372.1 378.2 381 382.5 384 387.3 384.1 378.5 376.1 378.2 375 368
359 364.9 375.4 372.1 375.4 376.1 376.3 377.6 378.2 379.7 381.4 370.2 372.8 373.9 371 363.7 365.6 367.6 366.5 363.8 356.6 349.3 348.1 346.6 344.6 340.2 325.9 315.1 299.1 275.1 251 236.1 210.7 196.7 191.1 186 173 166.1 162.8 163.1 161.8 150.1 149.8 143.2 130.9 113.4 94.3 93.9 93.4 93.3 98.9 110.6 135.1 142.9 152.9 164 171.3 182.2 184.8 180.4 189.3 187 192.5 198.6 203.4 204.1 214.3 208.6 204.2 202.6 200 198.4 199.5 202 204.4 204.8 202.5 202 201.9 200.5 195.2 192.9 193 192.7 193.3 193 191.2 188 180.8 174.5 167 156.6 140.8 131.5 121.4 109.4 93.8 75.4 59.6 48.8 37.5 27.2 25.8 25.7 23.2 22.6 23.1 23.1 20.2 23.7 24.7 32 41.2 48.9 58.9 77.6 88 101.3 111.3 132.8 138 144.3 147.7 155.5 162.9 172 176.1 189.1 199.2 196.3 201.4 209 222.6 223 225.8 230.6 233.1 233.7 234.3 234.9 233.4 234 232.5 235.6 233.1 231 233.8 234.1 232.9 230.3 227.1 226.2 224.7 225.8 225.6 224.4 224.4 223.6 222.7 222.2 222.2 221.4 220.7 219.9 221.5 223.8 226.4 230.9 233.6 239.7 245.6 248.7 254 258.2 268.2 275.2 281.5 287.9 292.1 299.7 305.6 310 314.2 322 329.7 336.2 344.8 360.1 369.3 373.8 375.4 377 377.8 379.5 375.6 372.2 371.5 367.5 366.4 360.9
354.6 361.7 373.4 375.6 379.2 382 383.9 383.5 383.5 382.6 379.1 377.9 383 380.1 372.3 366.4 369.6 372.3 370.1 365.7 360.8 356.6 356.8 355.1 352.4 345 335.2 323 308.1 280.8 256.9 237.8 225.2 211.2 202.4 187.9 183.2 172.9 172.5 175.8 164.5 155.9 150.8 144.7 134.6 129.9 121.3 97.3 92.8 92.9 90.7 101.8 118.1 131.2 144.4 151 159.8 174 175.4 174.4 179.5 181.9 189.6 193.9 197.1 199 210.4 204.9 197.3 196.7 194.3 191.7 190.7 192.9 196.7 196.7 198.4 195.6 191.9 191.9 189.5 185.6 185.2 189.5 191.4 188.3 185.2 181.8 175.8 170.7 166.2 151.8 139.6 131 119.6 105.5 86.5 71.3 58.8 46.2 38.2 27.4 26.4 26.6 25.6 25.3 23.7 23.3 22.6 23.3 27.4 35.2 44.1 51.5 61.3 79.4 89.7 104.4 110.1 130.5 135.5 137.3 144.1 147.3 154.7 163.9 169.9 177.5 190.9 198.4 200.5 211.3 217.8 219.2 219.3 226.9 228.6 230.8 232.1 235 230.3 230.9 229.5 230.6 229.6 229.1 231.8 231.7 230.4 228.2 225.1 223.4 223.5 224.3 224.9 224.3 222.9 222.8 223 222.6 222.1 221.1 220.4 221.9 222.5 224 226.5 232.4 234.5 240.8 244.9 253.2 255.3 261.1 270 276.4 283.2 288.2 292.6 297 303.2 307.8 312 320.3 327 333 343.4 357.3 362.3 366.1 368.1 369.1 369.8 370.7 368.7 365.7 362.3 355.8 356.8 352.1
363.6 362.8 372.9 379.4 382.3 384.8 383.7 385.6 385.1 389.4 384.2 387.3 388 386.2 383.4 381.5 376.9 376 372.8 371 367.8 366.2 363.8 359.3 352 347.7 336.4 324.4 310.1 289 264 242.7 226.9 215.4 200.3 193.2 189.2 177.8 179.5 169.1 163.5 156.5 150.7 145.6 144.7 139.3 132 116.5 94.7 92.2 92.1 94 102.8 121.7 133.2 140.2 148.1 163.2 164.3 160.9 171.6 178.5 184.9 188.2 193.3 197.4 207.2 199.8 195.4 193.4 187.4 185.8 187.8 188.3 185.7 187.3 190.2 185.9 184 183 181.3 177.1 181.2 184.7 183.7 180.4 178.8 175.3 169.7 164.1 156.1 145.8 132.4 123.9 114.9 102.1 84.6 66.2 53.8 39.5 31.2 28.3 27.1 27.1 26 25.1 24.5 19.8 22.7 25.6 34.4 43 53.2 59.9 72.9 83 89.8 108.3 112.1 122.7 125.4 130.5 137.5 156 161.8 164.6 167.3 183.3 188.3 199.2 199.9 208.6 216.4 214 218.3 223.6 224.8 227.2 227.9 228.5 229.7 228.4 227.8 228.3 226 228.5 227.9 227.8 227 226.7 225.2 221 222.3 224.1 224 223.5 223.6 223.1 222.1 222.8 222.8 222.1 219.5 220.8 222.1 223.4 225.3 229.7 233.7 241.6 246 251.1 254.5 261.7 270.6 276.6 283.7 288.8 291.2 295.2 300.6 304.4 309.4 316.1 322.7 329.3 340.1 349.4 353.5 356.3 358.4 361.1 362.5 362.7 362.3 358.5 355.6 350.4 349 349.3
369.8 376.4 382.8 385.6 384.3 386 392.1 391.6 395.8 392.8 395.4 401.6 404.8 403.9 406.6 403.2 401.3 391.2 383.7 376.9 375.2 375.6 370.2 364.6 359.3 344.9 330.4 318.3 306.6 288.7 268.4 249.5 236.2 219.3 206.4 195.6 194.3 190.1 173 170.2 165 162.2 161.8 164.9 155.2 149 138.4 126.2 115.2 92.8 91.9 91.6 97.9 108.8 122.4 129.8 137 147.8 145.1 158.3 161.2 171.5 177.1 183.2 188.2 194.5 204.3 197.2 195.4 191.7 187.7 183.2 185.7 181.1 180.1 183.9 182.7 180.1 176.6 173.1 171.7 169.5 175.2 177.8 175.4 176.1 175 168.7 162.2 156.3 148.2 138.5 128.3 118.9 108.1 95.2 81.4 67 51 37.9 29.3 28 27.9 27.3 26.6 26.2 24.9 20.1 24 26.8 34.3 45.9 54.9 63.9 73.3 84.2 92.4 105.3 111 125.6 129.5 135.9 143.6 166.5 168.9 165.9 166.3 182.5 190.8 192.3 194.3 200.7 209.9 210.2 213.5 216.7 219.9 222.5 222.2 221.8 224.8 224.9 224.5 223.9 224.6 227.5 226.8 225.8 225.3 226 223.9 221 220.7 222.6 223 223.5 222.3 221.2 220.8 222.6 222.5 222.2 221.6 218.9 221 222.2 224.9 229.6 233.6 241.1 247.6 252 254.9 262.7 270.8 276.6 281.9 286.5 289.4 291.1 297.5 302.1 306 312.4 317.3 323.6 333.7 338.2 343.2 345.7 349.6 353.1 355.5 355.6 354.6 351.3 351.1 344.9 343.5 344.2
379.4 384.3 385 386 390 391.9 396.5 400.9 401.8 405.5 403.3 412.7 413.2 411.3 412.9 408.9 406.7 402 395.2 392.1 387.7 379.7 372.9 367.9 360 343.7 328.2 310 297.3 282.8 267.8 257.1 240.1 224.3 214.4 206.4 207.2 196.4 182.3 176.7 169.7 165 161 160.5 156.8 149.8 144.5 138.2 125.8 119.4 97.5 91.4 90.7 101.7 109.5 124.2 129 134 141.1 150.3 153.2 164.3 172.8 180.4 183.3 192.9 198.7 193.7 192.9 188.3 184.2 181.5 180.4 178.7 178.2 176.9 176.4 172.1 166 167.2 166.7 166 168.8 170.6 171.5 172.3 169.4 166 158.3 149.5 143.3 137.5 125.9 116.5 106.2 89.7 74.6 62.8 47.9 36.9 29.8 29.2 28.4 28.1 27.4 26.4 25.3 21 25.6 30.4 38.4 50.1 58.7 65.3 75.5 87.4 95.6 102.4 110.7 121.1 130.2 136 151.4 162.4 165 163.4 166.4 177.4 188.7 188.9 192.1 194.5 204.7 206.2 207.2 217.1 214.5 218.5 220.3 219.1 221.4 221.4 219.1 221.2 223.6 224.9 225 224.1 223.4 221.8 220.7 218.7 220.6 221.6 222.5 222 221.1 220.3 221.2 222 222.1 221.8 221.1 219.2 220.5 221.1 224.1 229.2 235.4 241 246.4 252.2 256.1 264.6 270.2 274.7 279.9 284.2 285.6 288 292.9 297.5 302.4 309.2 314.3 318.2 325.8 330.7 333.2 336.6 340.3 342.5 344.5 346.6 345.5 342.4 342.7 338 339 340.3
383.2 387.8 388.7 391.6 395.9 399.4 399.6 404.2 409 415.5 416.5 422.1 420.1 422.2 421.2 414.8 413.7 409.2 408.1 404.2 396.7 388.2 379.3 375.4 366.2 352.5 338.4 316.2 299.5 285.6 273.2 264.8 249.9 235.8 226.5 222.6 211.1 195.3 190 180.2 172.5 167.4 163 162.4 159.5 154.1 145.9 145.1 141.3 141.3 125.8 105.4 90.4 103.4 108.7 123.5 125.3 125.9 128.8 139.5 146.7 153.6 164.8 173.8 179.7 188.5 191.5 188 185.9 182.2 180.8 177.3 173.4 174.1 180.8 170.3 166.8 163 162.5 164.6 162.9 164.2 164.7 165.5 167.2 168.9 163.3 161.1 156 150.5 139.2 133 121.4 112.1 99.3 86 72.6 59 46.4 34.3 30.3 29.1 28.9 28.5 26.5 25.8 21.4 24.1 26.1 34 39.3 44.5 55.8 68 81.2 89.7 101.6 104.7 109 120.6 130.2 136.6 149.8 154.5 161.9 162.5 175.6 180.6 185 187 190 197.5 200.7 202.3 209.9 213.6 210.5 215.5 216.5 215.3 217.8 217.7 217.2 220 222.2 223.2 221.9 220.9 220.5 219.5 216.8 219.1 220.1 220.9 220.5 220.5 219.3 220.7 221.4 221.5 221.8 221.5 220.3 218.4 219.1 221 223.9 228.3 235 240.9 246.4 252.7 258.1 262 266.9 272 277.9 282.1 283.4 285.2 292.2 295.8 301.4 304.6 309.3 313.8 319 321.9 325.6 327.5 329.9 331.7 333.7 334.6 335.8 334.6 334.2 332.1 335.1 335
388.7 392.3 392.4 398.8 401.5 403.2 403.7 404.9 412.5 420.7 423 420.6 422 425.9 427 423.1 416.9 414.1 410.6 410.6 402.5 397.3 384.4 375.1 363.5 352.1 338 323.7 306.2 287.7 275 265.6 258.3 246.1 235.7 226.5 218 205.2 194.4 187.3 183.6 170.5 165.5 167.1 161.8 155.9 147.4 145.3 143.7 150.2 144.5 126.6 108.5 104.4 99.3 114.4 121.2 117.6 128.9 136.1 141.6 143.6 153.6 161.4 172.1 179.2 184.6 184.2 180.4 176.8 176 174.4 170.3 169.2 170.2 164.7 162.1 159.4 161 162.4 160.3 162.2 161.9 160.1 160.7 161 157.6 155.8 151.6 148.1 137.3 128.9 118 108.5 92.6 79.1 65.8 53.4 43.1 32.2 30.7 29.8 29.3 29.1 26.4 26.3 21.4 24.8 27.3 35.1 42.7 47.4 58.1 70.9 82.9 96.7 109 106.3 110 119.3 129.7 134.2 146.8 153.6 160 161.2 170.8 182.2 184.3 187.8 189 195.8 197.4 199.3 205.2 207.7 208.6 208.8 211 209.8 212.5 215.1 215.7 217.1 220.8 218.1 217.8 218.6 218.4 216.6 217 218.7 218.5 218.4 218.8 218.6 219.1 219.5 220.4 220.9 220.9 219.9 219.4 217.3 218.6 220.7 223.2 227.8 233.4 239.3 246.1 251.6 255.9 261.8 266.1 270.6 274.3 278.5 278.1 282.3 288.8 289.4 292.7 299 303 306.8 310.8 314.6 316.1 318.2 320.6 321.6 323 324.8 326.3 328.5 328.7 327.1 328.3 329.9
394.6 394.7 399.4 403.3 405.6 407.9 403.8 405.2 423.4 425.9 423.3 423.6 429.7 430.3 427.3 423 418.8 414.5 411.9 409.5 403.7 399.7 389.2 374.5 363.9 351.3 337.5 325.9 314 298.4 286.6 269.7 256.7 246.7 238.7 227.2 219.5 202.3 196.3 190.8 188.3 184.9 178.4 168 164.9 155 151.3 148.3 147.7 145.6 143.2 137.8 133 115.6 87.6 95.1 107 117.7 123.6 132.8 134.8 136.4 141.5 156.3 166.1 171.1 174.6 181.3 177.4 173.5 171.9 170.7 166.7 164.6 164.5 165.8 161.3 159.3 159.7 159.1 153.9 162.8 160.4 156.5 156.6 152.9 150.6 148.3 141.8 138.9 132.4 124.7 114.7 103.4 88.9 72.3 57.1 44.8 36.1 33 30.9 30.7 30.2 29.6 27.5 26.6 21.4 25.3 34.7 37.3 45.1 52.6 59.6 74.5 85.5 97.3 103.6 107.5 110.8 118.2 129.3 135.2 143.8 155.2 159.3 159.3 170 177 182.4 186.7 186.4 193 194 195.6 198.6 203.5 204.7 204.5 203.9 205.1 206.9 210.8 213.9 214 216.2 215.5 214.2 214.3 214.9 214.9 215.2 215.5 215.9 216.9 217.4 216.8 217.9 218.2 219.4 220.3 219.4 218.9 218.1 215.5 217.4 219.5 222.8 226.5 232.3 237.4 243.7 251 255.9 261.7 264.7 268 271.9 274.8 274.8 277.1 283.1 286.1 289.1 293.6 297.5 301.6 303.5 306.9 309.2 311.2 311.9 312.5 314.3 318.7 319.3 322.1 320.9 321.8 322.2 324.3
395.2 403.9 406.6 405.1 408.7 406.5 405.3 421.4 424.9 424 426.8 428.1 434.9 432.3 427.1 424.6 418 411.3 408.6 407.1 405.5 398.9 393.4 375.4 362.6 353.3 337.5 328.6 317.4 303.1 299 283.5 268.5 253.8 240.7 235.1 221.7 208.5 199.3 192.5 193.2 191 184.3 175.1 162.5 156.7 152.5 157.8 154.4 150.7 141.4 136.3 129.3 126.5 116.6 105.6 82.2 115.1 122.4 127.4 129.2 131.4 138.1 152.5 159.8 168.4 171.1 176.1 173.7 171.9 170.6 169.1 164.4 160.6 160.6 156.2 161.1 157.8 158.2 156.7 150.5 153.7 153.8 152.6 151.2 146.8 143.6 143.4 135.5 130.9 125.9 119.2 108.9 96.2 82.3 67.5 53.5 44.2 35.9 32.3 31.5 31.3 30.7 29.9 29.1 27.9 21.4 28.5 36.6 39.8 48.2 59.3 70.7 82.6 86.2 94.9 105.7 108.2 110.9 123.3 132.7 133.2 140.7 154.7 157.2 159.4 170.2 172.1 173 177.8 179.5 188.1 192.1 194.6 195 199.2 198.6 203.4 202.3 199.9 203.1 206.6 209.2 210 211.4 211.9 211.8 211.9 213.3 213.5 216 213.5 214.1 216.3 216.6 214.9 216.3 217.5 218.1 217.9 217.7 217.8 217 214.8 216.6 218.5 222.4 226.3 230.3 235 242.3 249.9 254 261.9 261.6 265.6 270.4 271.6 271.4 273.4 280.3 284.1 284.6 288.3 293.7 296.5 297.7 300.3 302.4 303 303.3 305.2 307.8 312 314 314.7 315 317.8 317.2 318
408.4 412.4 409.5 407.5 409.8 411.9 424.9 426.8 425.8 428.2 430 434.1 433.4 430.5 426.5 424.2 415.1 409.8 405 403.6 399.1 401.4 392.7 373.4 362.4 351.2 341.8 332.8 320.4 309.5 301.9 287.8 274.5 263.1 252 244.4 229.5 215.9 208.5 212.8 205 198.2 185.4 178.2 168.8 161.7 155.8 159.6 157.5 151.2 143.9 133.3 129.8 128.6 117.5 113 104.3 79.4 115.1 118.9 127.4 134.8 143.3 153.3 154.3 165.6 167 170.2 170.9 170.4 169.2 167 162.9 160.1 153.5 151.6 154.5 152.8 156.2 149.3 148.9 149.1 147 149.4 149 140 138.2 138.8 133.5 127.3 121.1 112.4 103.5 90.5 75.9 60.9 50.1 42.3 33 32.8 32.4 32 31.4 30.7 29.7 28.9 21.4 33.8 39.2 43.5 52 65.3 77.2 88.2 89.1 98.4 105 107.6 108.4 117.3 124.7 127.6 139.5 152 154.5 163.3 168.4 168 174.3 177.7 177.1 180.3 186.1 192.4 194.3 196.6 196.3 202.5 199 198 200.5 203.2 206.3 208 210.9 210.1 210.2 210.5 211.4 212.9 214.3 211.7 212.5 215.5 214.7 214 214.2 214.5 215.9 216.3 216.6 216.4 215.7 212.8 215.7 217.4 220.7 224 228.9 233.8 239 246.3 250.4 255.5 258 263.6 266.7 268.4 269.2 270.9 275.9 279.8 282.6 284.2 288.7 290.8 293.4 297.1 295.9 295.9 296.5 297.8 301.3 302.2 305.5 307 309.6 310.5 312.6 311.9
414.8 417.1 415.6 433.8 436.9 432.2 434.7 438.9 432.3 428 429.7 430.2 431.6 427 425 420.1 409.1 404 404.4 404.5 399.4 400.3 388.9 374.1 365.2 356.9 348.7 337.6 328.7 322.5 311.2 294.5 284.1 271.6 263.7 253.8 237.5 222.9 218.5 218.4 215 202 190.2 182.6 169.3 163.4 160.1 162.1 157.7 154 140 142.3 141.9 131.3 122.1 110.8 112.1 79.1 107 116.6 120.3 128.8 139.9 149.5 147.6 157.2 163.4 165.9 168.3 169.1 168.9 165.7 161 158.4 152.5 148.6 149.4 148.6 150.6 146.2 146 143.8 146.3 146.1 145.8 137.1 133.2 130.7 127.3 124.2 119.7 107 97.7 85.9 69.8 57.6 46.4 35.7 33.7 33.2 33 32.6 31.8 31 30.1 29.5 21.5 33.6 41.5 49.6 59.2 70.2 67.2 83.2 93 101.3 102.6 107.2 107.4 116.9 123.7 127.3 137.5 146.2 151 155.2 160.7 162.1 174.2 172.4 175 181.5 183.8 188.9 192.3 192.7 192.7 193.8 195.1 197.2 199.5 200.6 203.7 205.5 206.9 208.3 208.7 209 211 210 208.4 209.5 209.6 211.3 212.6 212.1 210.8 212.5 213.5 214.8 215 214.9 214.8 210.2 214.6 216.4 218.8 221.8 228 231.6 237 243.5 251.8 253 256.3 262.4 264.2 266.3 267.7 266.4 267.6 272.3 274.7 279.3 283.4 285.4 289.3 293 292.6 290 291.3 293.1 294.7 295.2 296.6 298.8 303.9 306.8 307.5 306.1
422.4 428.7 441.2 445.8 443.7 441.8 443.1 442 437 435.8 428.5 426.7 424 423.5 419.4 414.7 402.6 398.5 398.3 397.7 399.6 401.7 390.1 375.3 366.8 360.2 352.2 346 335.8 326.7 318.1 301.2 286.2 281.7 274.2 263.8 247.2 229.4 220.8 219.4 224.8 209 193 186 173.3 169.7 168.4 163.7 161 154.4 142.2 149.9 156.4 144.5 135.2 124 117.9 89.4 103.5 111.8 113.4 127.6 132.6 133.3 143.8 147.5 154.2 157.5 163.2 168.7 166.9 159.2 155.1 154.4 151.4 148.7 145 143.6 148.5 143 141.2 139.5 139.9 140 138.5 134 130.4 124.5 122.7 119.4 113.7 102.1 90.6 79.4 66.5 52.7 40.2 33.9 34.1 33.6 33.5 33 32.2 31.4 30.6 29 22 35.3 43.4 50.8 63.9 74.7 82.6 87.9 92.8 100.6 107.1 109.1 109.2 114.8 125 126.7 129 139.3 144.2 147.2 151.3 161 167.1 166.2 168.7 177.2 180.8 182.9 184 187.7 189.1 190.6 192.6 195.3 197.8 198.3 200 201.6 204.4 206.2 206.4 206.5 207.2 208.1 207.8 206.5 208.7 209.7 211.6 210.9 211.1 212.3 214.7 212.5 211.8 212.4 212.7 207.8 212.8 215.6 216.9 221.2 226.5 230.6 235.3 241.8 246.1 250.8 255.3 259.6 261.6 262.1 258.9 259.3 261.2 265.6 268.9 276.1 279.6 282 285.3 287.2 286 286.4 287.4 287.5 289 289.3 288.8 294.8 297.7 298.9 302.6 299.6
436.1 442.6 449.2 452.8 452.9 448 445.1 447.2 443.7 438.7 435.2 430.3 424.1 416 411.1 402.5 400.5 397.9 392.8 393 391.5 393.9 384.6 374.7 368.8 362.7 356.3 345 337 333.7 323.9 311 299.2 291.4 282.3 271.5 257.3 248.1 243.1 239.2 228.7 216.8 198.6 183.6 176.2 173.1 169.8 165.1 160.5 156.8 148.3 150.2 145.5 136.2 129.6 123.7 122.1 97.9 92.5 102.1 118.6 123 125.5 128.2 137.6 145.9 147.9 151.6 157.3 162.3 165.2 155 151.2 151 150.1 147.2 143.2 141.3 143.7 139.8 137.5 136.3 138.6 136.8 131.8 130.4 127.9 120.3 117.8 113.9 108.7 97.9 86.8 72.6 61.7 50.7 37.8 34.9 35 34.7 34.2 33.5 32.1 31.2 28.5 28.2 27.6 39.3 45.3 56.5 66.8 79.3 86.3 89.6 97.3 106.7 112.5 114.5 111.8 115.5 124.2 125 132.2 132.7 136.4 140.6 145.1 161.5 164 164.8 169.8 170 174.5 177.4 179.6 182.8 185.4 188 190.4 192.7 195.9 197.1 199.3 199.1 200.2 202 201.1 204 206 207.1 207.5 206.6 207.8 209.4 209.7 208.3 209.9 210.3 211.9 210.5 210.5 210.6 210.1 205.2 211.9 213.6 215.4 218.8 223.8 228.3 233.1 240.1 243.6 246.5 252.6 256.7 258.8 259 258 258.1 258.3 262.7 262.5 268 270.7 273.6 277.7 282.4 281.4 279.3 280.1 283.5 284.3 284.5 282 285.9 290.9 293.6 296 292.1
444.5 451.5 455.7 460.5 454.7 454.7 457.1 450.2 443.1 441 435 425.7 418.8 413.3 406 404 401.4 399.1 393.3 392.7 388.5 385.1 379.2 375.4 370.7 365.2 354.9 346.3 339.2 334.6 327.1 320.3 305.6 297.7 290.7 281.7 269.3 255 252.4 248.5 231.7 217.6 202.5 189.7 183.6 178.3 171 166.1 159.6 155 153.1 148 144.5 138.1 125.6 119.2 110.4 103.9 84.4 93.4 112 119 121 122.8 132.7 139.2 142.8 148.1 151.5 153.5 162 151.2 148.8 145.3 146.4 141.8 139.4 139 141.1 134.8 132.7 134.4 133.9 131.8 125.7 125 123.1 117.3 112.7 110.3 104.5 95.1 82.5 67.7 56 42.4 34.9 35.7 35.7 35.4 34.9 34.2 32.4 29.9 28.8 24.5 31.5 40.1 50.1 57.2 69.1 80.6 88.2 91.4 98.6 105.6 112 117.5 116.1 120.4 122.3 125.7 131.6 140.4 144 145.1 145.8 154.9 166.2 166.4 170.1 167.7 174.7 178.3 177.9 181 182.1 184 186.5 191 190.3 192.5 193.1 195 197.6 198.6 199.5 201.7 203.7 205.8 205.8 203.5 204.9 206.4 205.2 206 206.1 206.5 207.7 208.6 209.1 209.2 207.7 207.3 210.4 211.4 212.6 217.3 221.8 226.6 230.9 235.6 241.8 244.8 249.2 255.9 256.4 259.6 257.4 254.4 253.5 259.3 260.8 262.3 267.7 270.8 275 273.9 276.6 276.3 278.2 280.5 281.6 279.9 278.3 278.1 279.3 289.7 289.2 284.3
457.4 462.8 465.9 466 460.7 456.6 453.1 449.4 442.2 439.1 434.8 423.3 418.4 412.8 408.7 401.4 401.4 398.3 393.7 391.8 384.8 377.7 376.9 375 369.2 359.2 355.3 351.5 345.8 339.3 333.1 325.2 313.6 306.9 298.3 286.9 271.1 269 264.1 253.4 231 213.4 201.4 192.6 182.5 179.7 173.7 167.4 159.5 155.9 152.5 148.1 143.4 137.2 124.8 118.5 113.2 105.9 100.9 74.9 100.7 107.8 112.5 121 128.7 131.3 140.2 148.9 146.3 147.3 156.3 145.6 142.2 138.3 136.7 136.2 135.1 136.4 135.4 130.9 128.4 129.4 127.6 124.3 121.2 119.2 114.1 112.6 106.5 102.8 97.9 88.4 78 63.1 50.4 36.9 35.8 36.5 36.3 36 35.6 34.5 32.6 29.4 26.5 23.5 35.2 41.9 54.9 62.9 71.8 80.6 87.5 94.3 101.7 106 116 119.8 116.9 118.6 121.4 125.5 133.4 138 145.2 144.2 146.7 160.4 159 161 163.2 169.6 172.2 173.5 176 181 180 181.4 182 187.4 193.6 192.1 193.1 195.2 196 197.4 199.6 200.4 202.6 202 200.8 201.3 201.6 201.8 201.5 201.7 203.3 203.3 204.3 206.3 206.9 206.9 206.7 206.8 208.9 210.2 211.5 215.6 218.9 223.9 229.3 234.3 239 242.4 247.8 252.3 253.1 258.6 256.7 254 250.2 256.7 256.5 259.2 261.3 267 270.3 271.3 272.1 270.9 272.3 274.8 276.1 277.3 276.7 272.9 276.7 282.7 280.9 277.7
461.4 465 465.3 463.1 460.6 455.9 451.1 446.2 440.2 435.4 430.2 422.3 416.1 416.4 406.3 404 395.8 388.1 391.2 390.3 385.4 374 369.6 365.4 359.5 356.2 354.5 350.6 344.6 338.1 335.8 328.1 316.3 306.7 301.8 290.9 280.7 276.1 265.6 251.6 225.8 209.4 202.5 193.8 185.4 178.8 173.9 169.3 162.8 157.6 150.5 146.6 144.8 138.7 125.2 120.9 119.2 116.7 111 90.2 79.8 90 105.7 114.8 123.5 125.9 133.5 142 144.5 146.6 152.7 141.6 136.4 133.8 132.6 132.4 131.8 133.6 128.8 125.7 126.4 125.7 124.7 119.9 118 115 106.7 107.9 100.3 96.6 91.4 83 70.7 57.5 45.8 36.4 37.1 37.4 37.1 36.5 36 34.6 30.3 25.8 28.7 28.2 38.8 45.5 58.5 65.6 75.3 82 89 92.6 98.6 107.1 115.7 119.1 117.7 119 121.1 125.5 132.2 134.3 139.1 140.6 146.3 151.8 154.8 158.5 166 170.7 169.7 170 171.7 175 179 179.9 183.2 187.4 193.3 192.5 193.3 193.6 195.8 196.4 197.8 199.9 201.6 201.5 199.5 200.2 200.9 200.7 200.1 199.7 200.6 200.5 201.4 203.4 204.6 204.2 204.2 205.9 207 208.8 210.6 213.4 216.4 221.5 225.5 230.4 235 241.1 246.3 247.5 249.5 255.8 251.9 250.1 248.6 251.6 251.5 254.3 259.2 261.2 262.9 264.6 268.3 268.6 268 269.3 271.3 273.8 272.6 271.7 275.5 276.1 273.9 270.1
464.4 466.2 466.2 461.4 456.1 453.6 449.4 447.7 437.3 432.7 424 414.3 409.5 402.7 399.6 394.1 386.6 383.1 384.3 380.2 374 369.3 362.1 357.2 351.9 351.6 346.2 342.4 337.6 337.7 336 326.6 315.6 303.9 297.9 286.3 283.7 278.5 268.1 237.4 219.2 211.1 199.3 191.5 184.1 179.6 172.1 166.4 162.8 158.6 154.4 146.8 143.7 138.5 128.5 119.2 119.4 117.3 114 105.3 80.7 84.3 98.7 106.2 110.9 115.2 126.4 134.9 140.2 140.1 142 138.7 133.2 128.9 126.9 130.4 124.8 131.1 121.3 120 121.5 121.2 118 117.3 113.7 109.2 102.3 99.5 94.7 89.2 79.8 72.5 63.2 53.6 38.3 37.3 38.2 38 37.5 36.3 33.1 31.3 28.1 33.2 31.4 30 40.3 47.7 58.9 67.2 80.4 85.5 88.9 91.8 99.2 110.3 115.6 117.3 119.4 119.3 119.8 125.4 130.4 133 137.6 141.9 146.4 152.1 156 158.3 162.3 162.4 166.1 167.5 172.1 177.8 179.9 180.3 182.2 185.8 192 192.7 191.8 192 194.2 195.4 197 199.5 200.6 200.9 198.8 199.2 199.9 195.9 196.8 199.1 199.3 199.1 199.9 200 200.9 202.2 196.5 203.7 205 207.6 208.2 210.8 214.3 218.5 223.6 228.9 234.6 238.3 243 244.2 247.6 251.9 248.4 247.5 246.6 248.1 249.6 251.8 254.1 254.7 256 259.8 260.2 261.6 263.3 263.3 265.1 264.6 266.2 268.2 268.7 269.6 267.5 264.9
465.2 466 463.8 457.2 452.7 447.5 442.4 440.7 432.7 428.7 413.3 403 398.6 396.3 394 384.9 379.2 378.4 373.4 368.6 365.9 361.8 354.6 348.1 340.1 338.7 334.3 326.4 324.4 327.4 325.5 318.9 309.6 300.6 291.8 283.2 282.8 271.5 258.5 228.8 217.2 203.8 194.4 191.1 179.7 178.5 173.9 168.4 162.3 159.8 154.1 148.7 142.2 135 128.1 125.7 126.5 126.6 118.2 108.3 96.2 76.6 84.8 97.5 105.3 112.3 121.9 128.6 129.3 133.9 139.3 134.5 128.8 123.3 119.6 126.5 117.9 121 113.1 115.3 114.6 112.2 112.3 110.1 106.5 99.9 95.5 93.4 86.2 78.2 71.7 63.6 54 44.2 38.9 38.4 38.9 38.4 34 33.3 32.6 27.2 35.4 34.7 33.2 38 44.5 52.3 61.1 70.1 81 86.6 91.6 92.2 98.2 107.3 114.9 116.6 119.2 119.2 120.1 125.2 129.9 132.2 138 143.9 148.2 156.7 157.3 160.3 159.3 158.3 165.2 168.7 172.4 177.8 176.7 179.2 182 184.8 191.8 189.8 187.5 189.6 193.1 194.6 196.3 198.1 199.5 198.7 196.2 197.3 195.2 198.1 197 197.2 197.3 197.5 197.9 198.1 197.8 200.2 193.1 202 203.4 205.5 205.4 208.8 213.3 217.3 221.2 226.4 230.1 236.1 236.8 241.3 242.1 246.1 245.5 244.5 243.2 245.8 247.7 249.8 250.4 251.5 251 254.8 256.9 255.9 257.3 257.9 255.8 257.5 260.7 261.2 261.9 262.9 261.1 258.3
461.4 459.9 456.1 449.9 442.3 438 433.7 431.7 425.1 412.7 403.2 398.2 393.8 386.6 381.3 374.1 375.7 372.9 366 363.5 357.7 348.9 344.4 335.3 324.8 321.4 317.7 315.7 315.1 314.3 313 305.5 297.7 294.4 285.1 281.5 272.5 263.2 243.9 222.3 211.7 200.3 190.4 187 182.5 177.1 171.1 166.5 158.1 155.3 153.4 148.1 143.2 134.7 137.7 133.1 129.5 125 122.5 120.2 109.1 92.7 71.6 86.6 99 107.6 112 117.2 119.9 129.6 137.9 129.8 123.4 115.7 114.5 121.9 115.2 109.3 108.4 110.9 108.7 106.4 106.6 100.6 96.2 92.6 86.3 81.6 75.9 72.4 68 63.1 56 41.3 39.7 39.5 39.3 35.3 30.1 31.3 35.6 37.6 38.2 32.4 41.8 42.2 49.2 53.3 65.5 75.4 79.8 86 90.9 92.1 97.3 108.2 112.7 114.8 116.9 117 119.3 125.6 133.6 132.5 140.3 145.4 149.8 153.5 155.9 156.5 154.2 157.7 159.7 165.7 171.4 173.3 175.3 177.7 181.2 184 187.8 188.7 184.5 189.4 191 193.5 194.7 194.8 195.5 194.1 194.1 194.8 192.6 195.2 195.4 195.1 194.9 195.7 195.4 195.1 194.8 198.1 197.6 199.9 202.5 203.6 203.3 205.4 209.1 215.1 217.8 222.9 226.8 233.1 234.1 237.2 238.3 241.7 239.5 242.6 244 243.8 246.4 246.1 246.2 247.7 247.3 252.4 252.3 251.2 251.9 251.9 247.1 255.1 253.8 253.7 253.7 253.7 253.3 249.7
457.4 456.3 447.9 442 437.4 432.6 427.3 418.4 411.2 400.2 395.7 388.4 381.4 374.8 370.2 365.3 361.7 358.5 355.9 350.5 344.2 337.2 327.3 321.9 313.8 311.4 312.8 310.7 306.8 302.3 297.2 291.6 284.5 279.1 271.9 265.7 257.7 250.2 227 214.3 210.2 198 193.3 184.1 179.2 175.7 170.9 166.7 159.9 156.1 148.8 147.1 144.8 144.1 137.1 133.5 128.7 125 122.7 120.8 116.9 105.4 92.8 73.4 94.6 110.6 113.5 112.9 117 125.1 130.4 123.3 116.4 108.8 112.5 111.6 104.1 103.4 103.5 101.3 97.9 101.8 97.9 90.7 85.5 80.9 77.3 76 73.9 71.7 69.2 63.7 56.3 42.9 40.1 37.7 36.2 31.6 34.6 36.7 39.5 42.9 41 40.8 46.3 44.9 49.3 58.5 66.3 73.3 77.7 86.1 89.4 94.3 99.6 107.1 112.3 113.5 113.9 114.4 116 122.8 127.9 129.3 139 141.5 144.4 149.1 151 149.7 157.3 158.6 162.9 166.3 169.2 171.1 173.7 175.8 179.1 181 187 186.3 184.1 188.6 189.2 191.4 192.5 192.4 191.6 190.9 192.9 190.8 191.6 192.9 193.6 193.5 193.5 193.8 192.3 191.5 192.5 193.2 196 197.9 200.2 200.8 201.2 205 207.9 212 217.7 220.2 224.6 229.8 231.4 234.1 235.4 237 236 241.2 240.1 240.1 240.8 239.6 240 242.1 244.8 247.1 247.5 249 247.6 246.8 246 247.1 246.1 248.3 248.3 247.2 246.5 242.7
440.5 437.1 434.8 428.7 422.1 421.6 409.2 404.5 399.6 387.5 380.7 371.9 366.6 366.7 359.3 358.2 350.9 343.9 345.6 340.4 333.7 326.6 315.2 311.8 307.3 305.9 308.3 303.1 294.8 288.6 283.1 276.9 272.9 267.1 258.4 252.8 243.8 227.2 217.2 210.2 203.2 194.8 189.6 183.6 177.5 174.6 171.7 167.5 163.8 158.9 150.9 150.3 147.1 138.8 138 133.5 130.2 124.9 122.7 120.2 123.3 115 101.9 92.7 68.6 101.9 108.6 112.3 116.6 118.3 117.6 117.4 108.2 105.6 106.3 104.5 102.7 96.6 100 95 94.6 95.4 90 82.3 76.3 75.5 74.2 72.9 72.4 71 68.1 58.3 40.3 35.4 35.1 35 32.4 35.9 40.6 44.4 46.1 47.5 33.3 47 47.9 48 50.1 58.6 66.5 72.9 80 86.5 89 94.8 99.8 103.8 110.3 113 112.3 112.7 116.7 117.7 122 124.2 132.1 135.8 138.9 141 143.2 150.7 151.1 153.3 158.4 162.7 167.4 170.4 174.8 174.5 176.2 180.3 185.1 185.3 183.8 186.5 187.8 188.8 189 188.8 188.7 188.6 189.5 187.2 189.1 189.7 190.5 190.5 190.6 190.3 190.2 188.9 190.4 187.9 193.8 196.3 197.4 198 200.4 203.4 208.5 212 214.7 217.1 220.9 224.5 227.2 230.7 231.2 234.1 233.7 235.3 236.8 236.8 235.6 234.6 235.7 237.9 241.4 239.2 241.3 241.8 237.2 236.4 236.7 239.2 239 241.4 243.9 242.2 239.2 236.3
419.5 418.4 416.4 412.7 408 397.2 389.3 386.4 379.2 374.2 365.3 355 347.6 348.2 348.2 340.2 335.5 332.6 331.5 325.2 319 311.9 305.5 302.6 298.1 295.7 291.8 287.9 281 276.4 269.9 266.3 261.7 254.8 244 243.1 228.8 217.2 212.3 204.7 194.8 188.6 187.3 180.9 180 175.7 170.8 166 163.4 157.9 155.7 151.2 144.1 138.1 135.6 135.1 128.2 126.1 126.3 128.1 118.9 116.2 107 100.2 73.8 92 103.2 108.5 107.8 105.2 106.4 107.9 105.3 104.8 101.9 101.1 100.3 96 92.2 89 91 88.3 80 74.4 72.7 71.3 70.8 71.1 71.6 69.3 47.9 37 39.2 39.6 39.4 38.2 38.6 44.6 49.8 48.5 52.3 52.4 43.2 52.3 50.6 49.2 50.5 57.3 66.7 76.9 83.8 90.4 90.8 92.6 96.3 102.6 108.1 110.1 110.7 111.4 116.6 114.7 118.9 123.7 134.4 132.9 135.3 139.4 147.6 148.6 150.1 152.9 155.9 163.8 165.7 167.1 169.1 170.2 173.1 177.9 180.3 182.1 184.3 185.2 185.7 184.7 185.6 185.1 185.9 185.3 185.3 184.6 186.4 186.9 188.1 187.8 187.6 187.2 186.5 185.5 186.2 188.7 191.2 193.1 194.6 196.7 197.9 201 204.9 209.2 211.7 215.1 217.6 220.5 224.3 227.6 229.7 231.5 232.9 234.6 232.9 232.5 233.3 232.1 232.6 234.7 235.8 235.2 237.7 236.8 233.3 231.4 230.9 230.5 232.9 231.4 232.5 232.7 233.3 230.6
397.3 396.4 390.5 387.6 381.1 374.6 369.3 367.4 365.7 360.9 349 347.6 337.1 330.2 330.4 325.1 320.8 322.4 317.1 309.3 304.9 299.2 292.1 287.8 283.9 281.9 277.1 275.4 267.4 262.2 258.6 254.9 247.6 236.1 233.9 230.4 215.3 209.9 207.3 194.9 186.2 183 181.6 180.4 179.8 173.9 173.6 167.1 161 155.9 153.2 149.3 139.5 135 134.6 127.5 125.9 133 130.1 125.1 118.1 115.1 115.6 104 94.3 68 91 100.4 103.9 106.2 110.8 109.5 104.1 102.3 100.2 97.5 94.7 90.6 87.7 83.6 80.9 78.6 73.4 70.8 69.5 68.7 68.7 69.1 70.7 51.5 38.2 41.8 41.1 40.9 41.1 45 56.5 55.9 55.5 55.5 56.4 51.5 51 53.2 52.5 51.5 54 58.4 66.1 75.3 81.2 89.7 90.8 92.7 96.6 100.9 104.8 107.6 109.1 110.7 108.3 113.6 122.6 124.5 130 134.7 134.1 145.4 146.7 144.8 147.8 152.9 156.9 165.6 165.6 166 168.1 168.8 170.9 175.7 173.5 174.4 177.5 181 181.1 182.3 183.3 181.9 182.4 183.5 183 181.7 182.8 185.8 185.8 185.3 184.6 183.2 183 181.7 182 184.7 187.6 190 191.6 193.4 195.6 199.1 203.2 207.3 208.7 211.9 214.1 216.9 219.9 224.9 226.9 229.2 230.6 229.5 229.2 229.4 230.6 231.2 234.4 232.8 232.8 232.2 231.9 231.8 230.3 229.2 228.2 227.6 226.3 226.3 226.4 225.9 226 223.7
377.4 370.8 363.4 363.4 359.7 355.5 351.6 353.3 349.8 342.5 336 330.7 329.4 321.1 314 311 307.9 305 302.6 295.2 281.7 278.3 277.5 274.2 270.8 268.1 263 258.5 254.9 252.7 246.5 240.9 232.7 226.2 221.4 213.9 208.6 205 198.9 192.8 187.7 181.2 178.8 178 175.6 172.9 169.8 164.8 159.3 153.4 150.6 150.9 139.1 133.9 129.5 125.2 125.7 126.6 124.4 119.9 116 115.1 106.7 104.4 105.3 90.1 65.1 88.7 98.9 102.8 104.2 103.4 98.5 95.8 94.8 92.9 89.2 86.9 81.3 79.8 77.1 72 69.8 67.7 66.3 65.8 67.4 68.2 60.4 45.6 44 43.8 43.4 44.1 53.8 61.1 66.5 65.2 61.8 62.7 62.2 41.6 56.4 55 54.6 50.6 57.7 58.5 64.9 68.5 78.8 87.8 90.8 93 95.3 99.8 101.6 104.3 105.5 106.2 110.3 118 121.6 124 127.2 128.8 130.9 139.5 139.6 143.9 146.8 148.5 149.8 159.7 159 161.2 164.4 166.1 170.8 171.4 172.5 176.3 174.9 179.3 179.1 179.8 179.4 179.2 181.2 181.8 181.2 180.5 180.8 182.1 182.9 182.3 181.2 179.8 179.4 177.9 176.8 181.7 184 187.4 189.3 190.9 193.1 197.2 202.1 204.8 207.7 210.4 213.6 213.7 217.1 219.2 222.1 227.7 228.2 227 227.7 228 228.1 228 229.6 230.4 231.9 231.9 231.6 230.4 229.8 231.3 233.7 229.4 224.9 221.9 221.3 220.6 219.1 215.3
346.9 342.5 341.9 341.4 341.4 339.1 332.6 332.2 330.2 324.3 322.9 318.5 315.4 309.5 302.1 298.7 291.5 288.4 279.8 268.8 264.4 262.6 262.9 262.8 258.4 254.2 249.1 247 242.9 237.5 233.7 227.7 219.7 215.8 209.9 207.4 203 199 194.2 190.4 185 181.5 179.8 173.8 172.8 172.4 166.2 162.7 157.9 153.2 151.2 153 137.3 133.7 126.8 122.7 128.7 126.9 119.8 116 113.3 109.9 106.3 106.7 108.4 91.4 73.5 63.6 85.8 88.9 94.9 94 90.9 87 87.6 86.2 83.8 81.3 76.5 72.7 70.8 67.6 65.2 63.3 62.6 62.9 63.7 65.1 55.6 39.4 46 49.9 54.7 60.2 67.9 66.4 68.2 71.4 67.9 69.8 57.2 63.6 62.3 61.9 57.5 57.5 59.4 48.8 50.9 68.4 72.6 80.1 88.7 90.8 95.1 98.3 100.8 101.5 103.3 105.5 111.4 115.2 116.8 120 121.9 126.6 131.1 135.2 138.8 142 146 149.6 150.1 152.7 160.9 160.3 165.6 166.3 167 168.8 169 172.7 173.1 177.7 178.3 177.1 177.2 179.9 181.3 180.6 179.6 178.6 178.1 178.3 179.4 178.5 177 177.1 176.9 175.7 173.3 179.7 182.2 183.1 186.7 188 191.3 196.9 200.4 202.2 204.8 208 209.2 211.1 214.1 217.9 220.3 224.2 223.7 223.9 225.7 226.6 226.8 227.5 228.9 229.6 230 231.9 234.5 232.6 229.5 229.6 230.6 225.6 224.2 221.5 215.9 215.3 213.6 210.8
328.6 326.9 323.9 324.2 323.3 321.6 316.6 312.5 311 308 306.1 303.6 300.8 293 285.1 280.2 274.5 267.8 258.3 253.7 250.6 249.5 247.7 247.4 244.6 240.5 237.1 233.2 229.5 227.8 222.7 217.4 211 206.7 204.8 201.9 198.7 196.1 193.1 187 181.6 180.6 176.2 174.9 174 165.3 165.1 161.4 154.2 152.6 156.2 148.9 135.8 130.7 125.6 121.5 126.9 123.9 118.6 112.9 110.2 105 105.2 106.9 102.2 90.5 78.6 66.2 67.1 66.8 80 84.1 80.1 77.2 77.7 78 75.7 71.9 69 64 64.5 60.9 57 61.3 61.5 62 61.6 60.3 47.6 48.9 52.6 63 66.6 66.7 70.6 74.1 74 78.5 78.3 71.7 62.4 71.8 68.4 64.8 66.7 61.1 65.9 63.9 57.8 62.1 72.5 77.5 82.7 86.4 91.6 96.7 98.6 98.2 99.7 102.6 106.9 110.1 113.7 116.9 120 127.9 130.6 132.5 136.7 139.3 141.7 148.6 153 153.8 157.7 161.9 165 166.2 166.9 167.4 167.2 169.9 170.8 175.3 176 175 174.6 180 179.3 178.1 177.4 176.7 175.5 175.9 175.4 175.8 173.4 174 172.5 173.4 170.3 176.7 181.5 182.4 183.9 188.3 190.8 193.5 198.1 200.6 203.5 205 207.6 210.7 213.1 214.7 217.7 219.9 222.7 226.1 227.7 227.8 228.2 228.2 230.2 232.9 232.7 235.7 235.9 233.6 228.4 226.5 226.3 226.2 223.6 221.2 216.1 212 209 208.7
314.6 312.1 309.4 306.1 303.5 304.3 302.3 300 296.7 296.7 291.4 285.9 281.3 272.1 268.1 261.7 256.6 250 242.6 239.4 237.8 235.9 235.1 236.1 232.7 229.5 225.1 222.9 221.4 217 212.9 207.7 204.7 202.1 200 198.3 194.3 194.7 186.6 182 179.7 177 175.3 171.8 167.9 166.7 165.3 155.5 146.1 148.7 149.7 138.9 128.5 128.5 122.2 120 122 122.3 118.2 110.2 106.6 106.4 102.2 102.7 96.5 87.8 82.7 73.5 62.7 62.2 59.9 68.8 68 66.6 65.8 68.3 66.6 63.6 59.4 57.2 55.3 55.5 54.6 53.9 55.3 47.9 41.9 41.7 53.7 57 60.8 64.6 67.9 72.7 78.1 81.8 83.5 85.5 85 76.3 62.7 73.4 71.8 62.6 68.2 66.5 66.9 66.2 67.8 62.4 71.1 75.6 79.4 82.8 88.7 93.8 93.3 94.5 97.2 98.1 101.7 105.1 110.5 114.4 121.2 124.9 124.1 127.1 129.8 135.8 138.6 145.9 150.7 153.7 154 154.9 159 164.9 166.5 166.9 166.2 164.8 172.2 171.2 173.2 172.6 174.3 177.9 177.5 176.1 174.5 174.1 172.5 172.1 171.7 172 171.1 171.7 169.6 169.5 170.6 174.3 178.9 179.3 182 186.4 188.8 192.6 195.7 199.5 201.5 203.9 206 208.2 210.9 213.3 219.8 223 224.5 228 230 230.7 230.4 229.4 230.7 236.6 236.3 236.9 233.1 230.4 230.5 229.6 228.3 226.5 222.4 221.2 217.9 212.1 206.7 206.2
300 299.9 294.4 292.1 288.1 286.3 285.9 286 282.3 277.7 272.2 268.6 262 254.8 249 243.7 238.4 232.6 230.8 227.9 226.6 225.5 224.4 223.8 221.8 218.4 215.4 210.4 208.9 204 200.8 199.8 198.3 195.9 193.2 190.9 190.6 186.6 181.4 177.9 175.4 174.8 170.3 167.6 165.3 160.8 158.3 151.2 138.4 140.6 138.4 127.2 118.2 120.4 123.1 124.2 116.1 113.9 112.5 108.7 105.4 102.3 102 102 95.3 89.1 87.7 85.3 78.5 68.3 66.6 62.6 62.5 62.7 62.3 61.4 59.5 56.9 55.6 54.2 51.6 50.1 50.7 47 52.7 54.6 57.9 61 63.1 68 70.8 70.5 75.8 80.4 86.5 87.7 88.8 93 86.1 78.2 57 76.2 72.4 69.9 70.1 70.5 69.7 68 70.7 71.6 68.6 72.7 74.1 76.5 78.2 85.3 88 88.6 96.9 94.4 100.5 100.6 104.5 107.5 110.7 116.4 122.5 124.4 130.9 131.3 134 141 148.8 150.6 152.3 153.2 154.7 159.5 163.6 164.1 164.4 164.6 166 168.3 170.4 170.4 170.5 173.5 174.3 173.3 170.9 170.4 169.9 169.8 168.7 169.5 168.9 170.1 167.1 165.8 168.4 173.4 176.3 177.5 179.9 183.3 186 190.2 194.8 196.6 199.5 202.5 205.1 206 208.4 214.7 220.1 223.1 226 229.6 230.2 232.2 231.2 230.1 234.3 237 235.8 234.1 232.1 230.4 232.3 233.1 228.9 225.5 228.6 225.9 218.1 210.5 206.6 199.3
286.2 283.3 281.3 278.6 277.5 271.7 270.4 266.9 264.4 258.6 253.7 248.7 245.5 238.4 231.9 229 224.1 222.8 221.2 217.3 212.7 212.2 212 210.6 209.3 207.7 205.6 201 197.2 195.1 195.4 195 193.7 188.5 185.6 184.3 180.5 177 177 175 173.7 167 164.2 160.8 154.1 156.3 149 139.1 134.5 128.4 123.9 119.6 117.7 117.4 124.6 121.4 118.9 111.9 108.2 106 104.8 100.2 102.3 101.2 95.5 89 90.2 87.2 81.6 73.9 67.6 65.5 60.8 60.4 60.2 59.5 57.3 55.7 50.6 52 52 50.8 49.9 55.6 59.8 64.7 67.1 70.8 74.5 79 78.1 76.3 82.2 87.6 91.7 92.2 96.6 96.7 87.8 77.5 74.3 80.2 75.6 74 74.9 72.7 71.8 72.4 73.7 73.8 64.7 69.5 71.6 68.6 72.1 83 82.7 87.6 95.1 91.4 99.4 101.9 108.3 112.9 110.5 116.1 119.3 124.9 128.2 129.4 132.4 138.2 144 147.1 149.4 151.5 153.2 156.6 160 161.7 162.8 160.9 164.4 166.2 167.8 168.7 169.1 169.4 170.1 169.3 167.6 167.4 167.7 167.2 169.2 168.3 167 166.7 166.1 165.3 167.5 170.4 174.5 175.7 178.7 182.4 184.5 189.4 192 195.2 198.4 200.9 203.1 203.7 208.9 214.8 217.7 221.5 226.9 229.2 230.6 233.1 233.4 234.4 237.1 237.9 239.2 238.3 235.4 232.1 237.9 238 234.3 232.6 230.4 225.8 218.7 212 206.7 203.8
270 269.2 266.1 264.2 260.5 256.9 252 249.8 245.9 241.5 238.3 232.8 228.9 225.7 220.2 216.3 213.7 210.9 209.1 206.3 203.3 202.4 202 201.2 200.3 198.6 196.9 192.1 190 190 190.1 190 182.6 180.8 181.6 177.2 175.8 175.5 173.4 172.9 165.5 158.7 154.6 149 143.6 140.4 140.9 140.7 139.1 134.7 131.4 126.2 117.7 116.8 123 119.7 115.7 109.3 106.4 104.8 102.6 101 96.8 95.1 99.3 95.8 90.7 87.5 80.8 73.2 68.3 66.5 65.7 64.5 57.8 54.3 61.1 60.6 59.1 57.5 48.7 52.8 57.3 61.3 65.7 69.4 71.8 76 79.1 85.4 79.2 85.6 87.4 95.7 97.4 99.4 101.5 100 90.4 82.5 78.4 84.9 76 81.1 78 76.7 73.6 76 78.7 75 75.8 74.9 77 79.5 80 82.6 77.3 91.2 90.5 91.4 98.4 101.9 106.2 112.9 116.6 117.5 119.9 126.2 128.7 130 134.3 138.7 141.6 144.2 149.4 153 153.2 156.4 158.5 160.6 160.7 159.5 164.3 164.9 166.8 167.4 168 168.1 168.6 167.5 166.2 165.6 166.4 166 165.7 165.1 164.4 164.5 164.5 162 166.3 169.2 172.2 173.6 177.8 179.5 183 187.4 190.7 193.5 196.9 200.4 201.7 205.6 209.6 215.9 218.7 223.9 228.5 233.1 235.5 237.6 239 241.8 242.9 242.9 244.3 243 240.4 240.3 242.3 241.7 239.5 241.5 230.8 223.5 218.7 214.4 208.4 202.9
256.3 253.6 252 249.4 244.4 242 238 235.1 231.8 227.6 224.7 221.2 215.7 214.8 210.1 206.9 205.5 201.8 199.3 197.3 195.1 193.8 192.9 192.9 191.5 189.5 188.3 185 184.1 183.3 182.6 181.3 177.2 175.3 174.7 169.8 168.3 166.9 163.5 157.7 156.4 154.2 148.8 149.6 143.2 142.5 142.8 135.8 134.7 134 127.8 120.6 118 114.6 111.7 115.8 111.6 106.1 106.3 106.2 106.1 102.3 100 97.5 93.7 92 87.2 85.8 80.1 68.3 64 61.1 59.9 61 57.7 62.3 61.2 57.7 52.2 51.9 58.4 62.4 64.9 67.9 69.6 73.4 77.8 81.5 85.8 86.8 86.6 91.7 96.6 100.5 101.7 102.4 105 99.4 92.2 66 84.2 90.1 81.7 85.9 81.6 76.8 79 79.9 81.9 77.5 78.2 80.2 84.7 86.7 90.3 91.6 86.2 84.3 84.8 93.1 94.7 100.1 107.1 111 113 116.8 120.8 124.8 124.5 127 131.9 137.7 141.2 143.5 147.3 151.4 153.3 155.4 158.4 159.6 158.9 157.3 161.4 163 165.5 166.3 163.2 166.4 166.8 165.9 163.8 163.2 164.6 163.2 163.6 163.2 163.2 162.2 164.3 160.4 165.4 169 169.1 171.5 175.9 178.1 182.8 186 189.1 191.4 195.9 197.5 202.6 207.8 211 216.2 219.9 225 229.7 236.3 239.3 241 242.6 244.6 247.2 248.5 249.8 249 245 246.6 246.5 245.4 245.4 242.1 237.4 226.1 222.1 214.7 208.4 201.1
242.3 240.5 240.4 238.2 233.6 229.9 225.3 223.8 221 216.9 214.5 211.1 209 204.5 198.5 201.2 196.9 192.2 193.7 190.8 188.2 187.2 186.1 185.8 184.4 182.7 182.4 180.1 177.5 176.4 174.9 174.2 172.8 169.6 168.8 165.8 165.5 161.1 158.1 154.6 152.5 145.2 143.6 142 140.7 139.7 135.5 130.4 126.8 124.5 118 116.8 116.3 114 113.6 112.8 109.6 108.7 107.4 106.3 105.4 102.4 100.5 99.5 93.9 88.2 95.7 86.9 79.1 71.4 67.9 63.7 62.2 60.1 59.5 55.9 56.4 53.4 59.9 65.7 66.1 67.1 69 72.3 75.8 80 85.4 89.1 92.3 93.5 95.2 99.1 105.8 109 107.6 107 105.4 100.8 78.9 86.2 89.3 92.1 90.9 87.3 85.5 82.7 85.1 85.6 85.9 79.8 82.8 88.5 89.7 92.6 96.4 96.9 93.2 88.3 92.8 87.8 91.9 100.2 104.4 110.1 111.7 114.3 119.1 127.1 122.4 127.2 130.5 137.2 140.4 145 145.8 145.6 148 151.7 155.2 158.8 156.6 155.5 157.7 162.9 164.2 163.1 159.7 162.8 164.3 163.1 160 160.2 160.5 160.9 161.1 161 160.2 161.3 161.1 157.9 164.7 166.8 166.6 170.4 173.7 176.1 179.9 183.5 187.5 191.3 194.2 193.9 203.2 208.4 212.3 216.7 222 226.4 230.8 237.3 240.5 243.1 243.7 246.9 250 253.3 255 254.1 250.9 250.2 248.5 253.1 252 246.5 235.5 226.6 220.3 214.3 209.1 200.2
231.3 229.3 231 226.5 221.5 217 215.7 211.9 212.7 210.4 207.2 201.4 201 195.4 193.3 190.8 190.6 187.4 183.9 180.4 180.7 179.6 180.4 180.3 177.4 176.1 178.1 173.2 172.6 169 168.6 168.9 167 164.1 163.1 161.4 157.6 154.4 151.7 146.7 145 140.6 142.1 138.1 134.3 131.8 127.6 121.9 117.4 117.5 118.3 118.3 118.8 117.2 111.8 109.6 108.4 107.9 106.1 105.4 103.4 98.7 98.1 97.6 96.9 95.2 91.8 85.9 83.2 74.7 68.6 64.4 62.1 59.7 57.7 56.8 57.1 64.8 66.9 71.4 73.1 74.5 77.5 82.1 86.5 88.3 91.3 95.5 97.2 97.2 101.9 105.7 114.7 115.7 111 108.3 105 100 85 91.7 93.7 93.3 94.7 90.2 92.1 88.7 90.9 89.5 87.3 83.8 88 93.8 99.3 99.2 101.2 102.4 97.8 95.3 93.5 91.2 89 100 101.8 108.4 110.7 115.7 118.2 123.2 121.4 124.8 127.6 132.8 138 140.7 143.7 144.6 145.9 149.7 151.9 154.5 153.8 154.9 155.9 159 160.1 159 157.8 159.4 161 159.1 157.5 156.8 158 158.2 158.6 158.4 157.1 158.6 158.2 159.4 162.9 165 165.5 168.1 172 174.1 177 182.8 186.8 189.6 190.5 196.4 203.7 208.9 214.1 218.4 223.2 227.2 233.7 239.7 245.4 249.5 249.4 252 258 260.5 261.9 259.9 258 256.4 260 264.1 262.9 252.7 241.1 233.9 225 217.3 212.1 203.6
220.6 219.8 218.6 214.5 209.6 207.8 206.6 203.5 203.4 201.3 199.3 197.6 195.5 193.6 189.5 188.9 184.8 182.5 181.2 179.4 174.9 169.7 171 175.7 171.9 169.9 169.6 169.4 167.7 164.1 160.9 162.4 162.3 160.8 155.9 153.3 148.5 145.3 144.1 145.8 141.3 137.4 135.6 132.3 129.3 128 121.3 122.1 117.3 111.8 117.1 117.9 114 110.6 110 109.2 107.7 106.5 104.8 99.9 97.2 109.5 112.9 108.2 97.8 96.5 95.1 87.2 81.8 80.4 67.9 64.5 61.7 60.2 58.9 57.6 61 68.5 74.2 79.8 85.5 85.3 85.7 90.1 91 93.6 97.2 100.5 102.8 104.5 106.4 109.9 118.1 118 112.7 111 106.2 100.5 96.3 98 97.3 94.2 94.7 95.8 91.5 94.8 96.6 97.8 89.6 91.7 97.2 100.4 99.9 102 104.5 103.8 102.2 99.2 96.3 93.5 94.4 91.7 97.4 103.5 108.9 115.5 119 122.6 121.7 124.8 127.5 131.3 135.3 139.9 142.9 143.9 144.9 145.3 147.9 150.3 150.9 153.1 154.9 156.2 155.7 154.7 156.2 157 158.2 155.6 153.4 153.8 155.9 155.7 156 155.1 155.7 155.4 157.1 157.7 160.6 162.5 164.9 165.8 170.2 172.9 178.4 182.5 185 187.9 192 196.7 202.6 208.4 213.8 218.9 224.6 229.4 236.8 242.7 250.5 256 258.8 257.8 258.8 263.4 266.8 266.9 266.8 264.5 266.3 270.8 268.6 261 250.5 240.3 226.9 218 211.7 203.6
212 210.5 208.3 207.7 207.7 204.9 204.2 202 201.7 198.8 196.5 193.2 188.4 188.2 187.7 183.4 179 177 176.1 175.4 175.1 174.7 168.6 163.2 163.2 162.8 162.9 163.7 163.5 162.5 159.6 156.6 156.1 153.4 152.3 149.4 145.8 141.1 139 139.1 134.8 127.9 130.7 126.8 126.3 122.1 120.3 115.3 112.4 112.3 116 113.1 110.6 109.1 107.6 108.9 106.5 104.6 101.7 108.6 110.7 112.2 111.4 106.4 99.8 97.2 96 85.8 75.5 76 74.3 66.9 64.9 63.6 60.2 59.1 61.8 74.2 78.9 86.6 88.1 88.6 91.9 93.1 95.2 97.4 102.9 105.4 107 109.3 113.8 114.3 119.2 120.5 115.4 112.9 107.4 106.7 94.4 100.5 100.1 95.9 97.5 101.1 96.5 101.3 101.9 100.1 93.6 99.1 101.6 103.6 105.9 107.9 109 108.8 106.9 104 100 97.6 95.8 94.9 94.4 99.5 105.2 110.7 116.2 119 122.8 123.9 130.2 130.1 133.1 138.2 142.3 144.3 144.5 145.3 145.3 148 148.1 150.9 153 154.1 151.8 152.1 152.8 154.7 153.7 152.2 150.5 151.2 153.1 153 151.9 153 153.2 155 153.7 157.1 159.1 161 162.5 165.3 168.8 172 175.7 181.6 182.6 183.2 191.4 196.5 202.9 207.8 214 219.1 225.2 230.9 239 246 255.1 263.7 262 261.9 265.8 271.4 273.3 273.6 273.5 272.6 273 276.2 274.1 265.1 256.1 248.2 233.9 221.8 210.3 202.5
204.7 204.9 205.4 206.1 205.3 203.8 199.9 199.1 194.1 190.9 189.6 184.5 178.6 177.2 176.5 174.7 172.4 173 171.6 169.2 168.1 167.5 167.5 164.2 163 156.6 154.8 155.7 158.6 158.2 154 150.1 151 148.6 146.9 146.3 141.9 137.2 133.9 132.3 127.4 122.8 123.3 123.1 121.4 117.3 114.5 113.9 118.5 114.7 109 111.6 109.7 107.5 104.1 104.3 103.4 101 106.6 108.3 107.7 107.9 105.7 106.5 99 97 95.5 87.9 84 82 77 72 69.3 69.3 66.7 65.7 67.8 79.7 84.3 89 90.3 93.5 95.7 99.1 101.5 103.2 108.8 109.4 110.5 115.6 122.2 122.1 123.5 121.2 118.3 113.7 111.1 109.7 96.9 105.3 102 102.8 101.7 101.2 104.5 107.9 108.6 98.3 99.8 107 110.8 111.9 114 114.5 113.6 112.5 114.9 108.1 105.4 102.1 102.5 97.7 95.9 96.3 101 108.2 112.3 114.5 119.2 124.4 124.6 126.3 132.2 137.8 139 140.6 143 144 144.5 144.6 145.3 147.8 149.6 149 147.2 148.4 148.9 151 149.4 148.5 148.3 148.9 150.3 149.4 150.6 151.7 152.8 153.2 152.5 154.6 156.7 159.2 161.3 163.7 166.6 169.8 175.6 179.9 178 186 190.4 197.6 203.6 206.8 213.6 219 225.9 232.3 241.2 248.2 258.5 263.4 265.6 267.5 271 278.1 277.2 280.1 281 277.9 279.3 278 273.8 269.3 258.5 252.2 237.7 224.1 212.3 199.4
203.2 200 203.8 201.4 200.9 198.5 199.1 192.5 191.1 188.1 181.9 175.6 173.5 171.7 169 167.5 166 165.4 164.8 164.5 164.1 162.9 163.3 162.2 159.4 156.9 155.9 151.8 148.3 150.5 149.2 147.5 143.8 142.2 140.6 138.8 135.1 134.1 129.7 124.6 122 119.4 118.6 119.1 116.9 115 115.4 118.5 118.1 118.2 110.9 110 108.2 106.4 109.2 109.8 110.5 108.1 105.5 105.9 105.4 105.3 103.9 102.7 97.5 94.9 93.7 84.9 88 86.2 82.4 80.3 78.2 75.5 71.9 70 69.1 84.8 89.1 92.3 95.4 97.1 100.7 106.2 108 110.3 112.8 113.1 113.1 119.1 125.5 126 124.6 121.5 119.4 117.3 115.7 113.3 96.8 109.1 106 105.4 106.2 110 111 111.3 112.6 104.1 109 114.6 119.1 122.1 122.9 123.2 121.4 119.2 116.2 112.4 107.2 107.9 107.8 100.6 100 101.6 100.1 104.3 107.5 109.9 115.2 116.3 122.7 126 129.4 132.5 134.6 137.8 140.4 141.6 142.7 143.5 140.8 142.9 145.7 146.6 144.6 144.9 145.3 146.7 146.6 146.3 146.6 147.5 147.4 148.3 149.7 150.3 151.1 151.7 151.7 153 153.9 157.2 160.4 160.6 163.6 167.4 173 177.7 179.7 184 192.1 196.8 202.5 205.2 211.4 218.2 225.8 233.1 241 248.8 259 268.3 268.6 269.7 274 278.2 282 284.2 287 283.6 280.6 278.6 272.3 265.2 260.5 252.6 239.9 226.6 213.1 200.1
197.3 198.6 199.4 195.5 197.2 197.7 190.7 181.7 180.4 177.6 174.5 172.7 170.1 168 167.9 166.2 164.6 162.6 161.5 159.9 158.5 155.6 156.6 156.6 156.7 155.3 150.8 148.1 149.1 143.2 140.6 141.8 138.7 134.2 133.3 134.3 131.5 128.9 126.1 122.1 118.3 119.3 118.6 117.4 117 115.7 117.8 119 119.2 115.1 112.3 107.8 109.8 113 112.5 112.5 112.9 108.1 108.9 103.3 103 102.4 104.7 103.9 95.3 92.5 87.5 92.3 92.5 91.9 88 86.9 87.5 85.8 79.4 76.6 76.9 88.7 94.6 99.7 102.3 102.8 106.6 110.3 112.8 115.4 118.3 118.7 119.7 127.2 127 126.8 125.5 121.8 120.9 119.1 117.8 115 91.2 109.4 109.2 110.2 110.9 114 117.7 116.3 110.8 111.7 119.8 126.3 126.5 130.5 131.8 129.1 127.2 125.2 121 120.8 110.7 110.9 108.8 103.1 102 103.1 107.4 101.6 103.7 102.9 108.5 112.3 118.3 127.4 127.9 129.3 130.3 134 136.6 137.6 139.9 138.5 138.5 142.4 141.6 142 141.8 142.9 143.8 144.6 145.3 145 145 145.3 146.6 147.2 148.1 149.4 149.8 149.9 149.4 150.7 153.1 154.8 158.7 160.1 162.5 166 172.1 171.1 177.4 182.8 192 196.8 200.7 204.5 210.5 216.7 224.4 231.6 239.8 246.8 258.8 266.9 267.4 272.5 275.2 281.7 287.5 291.1 289.3 286.7 283.6 284.4 281.7 271.4 258.1 253.5 238 226.4 214.8 198.7
191.6 195.2 196 193.1 194.9 195.8 181.1 177.7 174.7 173.6 170 169.1 168.3 166.1 165.8 164 161.9 160.3 160.1 156.7 154.5 154.2 150.6 150.5 150.2 148.7 149.1 146 142.9 141.5 141.2 137.9 131.9 133.2 130.4 128.6 125.9 122.6 121.8 121 120.7 120.5 119.4 120 118.3 119.4 120 121.4 116.9 115.1 114.5 114.6 117.1 116.1 114.6 113.2 112.6 112.9 112 107 105.2 102.3 97.3 94.8 93.8 94.6 94 94.8 97.3 96.6 92 90 94.1 90.4 87.6 86.6 85.1 88.4 96.9 104.6 109.9 111.3 115 116.4 120.1 122.3 128.3 124.8 127.1 130.9 129.2 128.2 129.1 125.2 125.1 121.2 119.3 115.6 103.1 113 111.4 114.5 115.7 120.3 123.4 121.7 118.8 121.1 128.3 133.5 135.5 139.3 140.5 138.1 133.7 133.5 128.3 121.4 112.7 112.1 109.8 103.9 103.8 104.8 103.6 102.5 103.8 106.8 108.7 108.2 107.5 117.3 121.7 123.9 125.9 131.1 134.9 136 135.9 134.3 135.4 137.1 138.2 139.4 141.7 142.5 143.1 143.7 144.3 144.2 144.1 144.6 146 146.8 147.6 148.5 148.7 148.7 148.6 150.4 151.4 153.7 157 157.6 160 165.3 167.8 173.3 176 180.5 189.9 194.5 199.4 204.3 210.5 215.1 221.8 229.3 236.9 244.8 253.9 261.8 267.6 275.2 277.5 288.2 295.7 295.8 293.2 292.4 291.3 291.6 285.9 279.7 268 247.6 239.3 222.6 212.3 195.1
188.9 191.8 192.8 191.9 191.5 181.3 177.1 173.1 171.4 169.9 166.8 163.7 164.1 162.2 163 160.2 158.3 156.5 154.6 153.5 153.5 148.9 148.9 146.7 145.9 144.4 143.5 141.5 143.1 141 136.5 133.5 126 126.1 126 124.5 124.6 123.1 120.3 125.4 127.6 126.7 125.9 126.7 124.7 128.2 122.4 123.9 117.7 116.7 116.3 116.8 117.8 117 114.9 112.7 111.8 113 111.4 110.2 107.8 105.9 96.9 99.6 102 100 98.4 98 99 97.1 98.3 93.7 95.4 92.7 94.1 91.7 91.4 94.8 102.9 106.5 113.2 116.1 120.6 122.2 125.5 128.1 132.8 130.7 132.3 133.4 133.6 135.6 130.4 130.3 127.9 123.6 120.6 109.8 114.9 118.7 117.5 119.3 120.3 126.3 128.2 125.2 128 127.7 134.6 137.1 141 146 148.6 144 139.6 137.9 139.7 131.9 119.1 114.5 109.3 105.9 109.7 108 104.9 105.2 107.8 112.5 112.4 112.2 115.9 114.5 116.4 117.2 120.8 132.2 134.4 134.5 130.3 132.6 133.4 137.1 139.8 140.6 141.2 142.4 142.1 142.5 142.8 143.3 143 144.1 145.2 146.2 147.1 147.4 147.4 147.4 147 149.5 151.2 153.4 155.4 157.3 160 162.1 167.4 170.8 173.3 177.8 188.9 192.9 197 203.1 207.9 211.5 217.8 226.6 234.3 240.2 249.5 257 266 273.7 278.7 290.4 297.3 299.9 296.5 295.2 293 293.3 288.6 282.5 271.4 245.2 233.7 218.1 207.2 190.5
184.1 188.7 189.3 181.1 178.5 176.2 172.8 170.4 168.9 166.9 165.6 164.4 162.2 162.7 158.4 157.3 156.5 154.4 154.1 153.2 147 145.7 144.8 143.9 144 142.3 140.7 139.2 137.6 135.5 136.7 129.7 130.8 128.4 127.3 125.2 127 130.4 133 134.9 140.9 144.9 138.9 135.8 141.6 134.8 131.3 129.3 125.5 120.5 119.9 120.2 118.2 116.2 118.9 114 113.6 113.6 110.2 106.9 105.4 102.8 98.4 101.4 103.4 100.9 99.9 99 103.5 99.9 99.7 99.3 100.7 103.1 104.3 95.3 95.1 101 115.9 116.8 122.8 122.7 126.1 130.5 131.4 131.8 133.4 133.8 133.8 134 135.6 137.3 132.4 131.9 128.7 125.1 118 116.7 121.2 119 122.8 125.8 125.9 134.4 136.8 132.8 132.6 140.8 143.6 143.7 148.8 152.5 149.9 148.9 146.4 146.1 142.2 135.7 125.1 121.4 114.6 113 110.6 109 111 109.2 112.8 116.8 118.5 121.7 120.5 121.6 118.2 120 122.3 127.2 134.5 128 135.5 136.3 134.2 136.1 137.7 138.9 140.5 140.9 140.9 141 141.2 141.6 142.3 143.3 144.4 145.5 146.3 146.7 146.4 146.6 147.4 149 150.8 152.5 154.6 155.5 158.3 159.7 163.8 168.9 169.8 176.5 185.4 189.2 193 200.2 204.7 209.5 213.3 221.7 230.5 236.6 244.4 252.1 261.6 268.4 278.2 288 291.6 293.5 293.9 292.6 289.5 287.4 282.7 277.1 269.5 251.3 227.2 217.1 201.4 188.4
180.5 177.3 175.5 176.5 173.6 170.8 168.8 167.4 166.6 164.5 162.3 159.6 159.9 158.4 156.6 155.2 154 153.6 154.5 153.1 147.4 145.7 144.4 142.7 139.1 137.1 135.6 134.5 134.1 136 132.3 133.5 129.5 131.5 134.2 138.3 145.3 152.5 155.6 156.3 168.2 174.2 174.5 170.5 167.7 156.4 148 136.5 132.5 128.3 127.4 123.4 119.1 118.2 115.1 116.6 113.3 109.9 107.6 107.5 107.2 103.5 98.1 101.1 102.9 101.9 101 100.6 106.7 106.7 105 104.3 105.5 110.3 113.2 100.1 104.6 114.4 124.3 126 131.3 128.3 133.2 134.5 134.9 134.3 136.1 137.4 136.5 137.4 138.3 139.2 136.1 133.7 129.4 126.7 118.9 119.9 125 125.5 129.5 132.8 131.1 136 138.7 138.4 142 149.3 150.6 153.4 156.3 159 154.5 153.6 149.6 151.8 146.7 137.7 128.6 129.9 125.8 115.8 114 113.1 114.5 114.5 118.4 121.9 123.2 121.5 122 121.9 122 121.4 120.8 123 125.1 132.3 136.2 137.2 138 136.5 138.8 139.5 139.3 139.4 140.2 140.2 139.7 141.2 141.9 143.1 143.9 144.7 145.2 145.6 145.9 145.6 146.9 148.9 150.2 151.2 153.9 155.7 157.1 159.7 162.3 164.9 169 175 181.5 186.3 190.2 197.3 200.8 205.3 210.9 217.2 224.9 231.3 239.6 247.9 256.1 264.9 273.8 281.5 284 286.3 286.3 281.5 281 277.9 273.5 268.5 262.9 250 221.3 213.2 201.9 182.9
176.3 181.4 173.4 169.1 165.4 164 162.6 162.5 158.6 160.5 159 156.9 153.6 152.4 155.5 156 153.5 153 152.7 149.6 146 143.2 146.4 140.5 139.1 138.3 140.8 137.2 136 133.3 136.7 135.2 138.6 145.8 153.5 162.9 175.3 185.8 189.1 191.4 196.5 205.7 206.5 205.7 201 190.7 193.2 174.6 145.6 137.2 130.2 126.9 122.4 117.9 115.1 114.6 113.7 109.1 108.3 107.4 106.3 101.7 101.9 101.4 101.7 102.3 102.7 107.3 111.1 114.1 112 108.9 110.7 116.5 115.3 108.5 114.1 124.2 128.4 127.7 133.6 133.3 139.9 139.9 139.5 139.5 139.7 140.8 142 142.8 141.7 139.6 138 134.6 132.2 126.8 123 127 127.4 130.6 136.6 138.3 136.5 141.6 140.7 142.9 155.8 161.2 160.5 163.5 166.8 164.5 163.9 164.4 159.1 155.2 156 147.6 138.5 132.1 127.7 119.9 119.7 119.1 118.9 122.3 127.6 127.6 127.3 125.2 123.5 123.4 125.6 125.7 122.4 126.3 129.7 131.3 133.4 133.2 135.1 137.8 139.5 139 139 139.3 139.9 138.5 140.3 140.1 141.3 142.3 143 143.7 144.2 144.5 144.9 145.9 147.2 148.2 149.6 151.1 152.2 153.8 155.9 158.9 159.9 163.9 168.1 173.1 179.1 183.3 187 193.3 197.1 202.1 206.9 213.6 219.9 226.9 233.7 242.2 250 258.9 267.7 274.4 276.7 278.5 277.1 270.7 269.5 267.4 263.8 258 251 245.2 225 204.8 193.3 181
179.4 176.4 175.5 174 169.5 169 169.8 169.9 165.3 161.4 157.3 160.1 162.5 158.3 150.6 153.4 153.8 152.4 149.9 147.3 142.5 141 142.2 141 139.9 140.3 140.7 140.2 139.7 140 141.3 145.9 158 170.9 182.3 194.7 206.8 217.2 222 225.7 228.8 235 238.7 242.1 240.7 237.9 232.4 212.7 172.9 141.3 134.4 131.5 121.2 116.4 116.3 115.4 112.2 108.8 106.7 105.5 103.9 102.7 102.9 102.2 102.5 103.3 108.2 113.7 115.5 116.1 114.8 115.1 118.1 122.1 117.7 118.5 117.3 125.5 131 129.2 132.7 137.9 142 142.8 143.3 144.9 143.9 143.9 143.9 144.6 143.7 143 138.7 136.5 134.1 119 128.3 130.4 131.3 134.9 140.5 142.6 141.4 148.5 147.2 157.4 162.9 167.4 170.5 171.8 172.8 171 170.3 173.1 168.4 165 166.7 158.9 144.9 139 131 125.5 127.9 130.1 125.6 129.2 131.2 130.3 132.4 129.9 125.9 125.6 127.5 128.4 125.3 125.5 127.8 130.2 132.2 131.9 133.4 135.6 136.9 137.8 139.6 140 140.3 141 141 142.1 142.3 141.8 142 142.7 143.4 143.9 144.5 146 146.5 147.6 148.7 149.8 150.2 151.1 153.1 156.1 158.1 162.4 164.5 169.8 174.3 180.2 184 188.2 192.5 197.2 202 208.7 214.2 221 227.7 235.6 244.3 251.7 259.2 264.8 267.1 269.1 264 260.4 258.8 256.4 254.4 250.2 242.5 234.5 225.5 201 193.5 179.5
184.8 183.2 183.3 182.2 178.4 176.2 175.1 172.9 166.8 164.9 162.4 162 160 155.2 152.9 149.5 152.9 151.3 149.2 145.2 143.9 142.8 146.5 142.9 144.4 144.5 144.1 145.8 148.2 156.1 164.8 176.5 191.2 202.1 211.7 225.5 238.2 246.9 257.6 262.9 261.5 275.6 275.5 273.4 266.2 266.1 262.3 226.3 184.5 152.3 139.5 134.4 121.5 119.2 119 115.3 113.3 110.6 107.6 106.3 105.5 104.6 102.8 103.5 103.3 105.8 113 114.9 118.5 120.2 117 118.4 123.6 129.2 122.1 126.7 124.1 129 132.3 131.4 133.2 138.1 142.2 143.7 147.8 148.3 146.2 145.4 145.8 145.2 144.4 143.4 141.8 137.7 130.5 128 133 133.8 135.2 141 144.9 145.6 151.5 156.1 160.1 164.2 171 175 178.1 179.8 180.4 178.4 179.1 176.6 171.6 167.9 165.8 158.1 152.2 146 140 135.8 134.8 140 135.7 131.4 131.1 132 133.5 130.1 128.7 128.8 130.5 129.5 130.6 130.5 129.3 128.9 130.9 131.7 132.6 134.5 136.4 137.6 139.1 139.6 141 142 142.3 142.1 142.4 142.9 142.8 143 143.3 144 145.1 145.4 145.9 146.3 147.5 148.2 148.4 149.8 151 153.1 156.6 159.5 163.8 168.4 171.3 174.3 180.8 183.6 188.1 193.1 197.9 203.7 209.6 214.9 221.5 229.4 235.8 242.3 249.9 252.5 254 256.5 251.5 247.5 246.8 245.4 242.4 238.2 232 226.3 217.4 199.3 186.3 177
200.7 196.4 195.7 193.2 186.7 180.5 180.9 176.8 169.5 165.4 162.9 159.7 156.5 154.3 151 150.7 147.4 147.7 146.9 145.7 143.7 148.1 147.6 147.9 150.4 151.4 153.3 157.2 168.5 180.8 189.2 205 217.8 234.7 242.3 253 271.1 289.5 295.4 307.5 316.1 316.8 317.3 313.2 305 290 255.6 217.2 181.5 158.3 142.5 132.7 124.5 121.8 120.7 119.4 117.2 110.7 108.7 107.6 106.5 107.7 105.9 107.5 106.1 109.4 119.5 116.2 122.4 120.1 123.8 123.9 127 128.6 130.9 131.5 128.2 127.5 132 132.7 134.1 138.4 142 148 151.7 150.5 147.7 147.4 147.6 147.1 145.9 145.6 142.9 133.6 129.6 133.2 136.4 137.8 140.2 146.8 151.4 146.8 161.1 163.6 171.6 175.6 178.4 185.2 187.9 186.7 184.5 186.1 186.4 179.1 180.7 178.2 174.7 168.3 160.5 150.8 145.8 143.6 141.2 144.3 137.8 133.1 133.6 133.3 133.4 129.9 131.1 139.8 131.8 134.7 135.4 134.5 133 129.4 130.6 131.4 132.2 134.4 135.2 136.9 137.1 137.8 139.1 140.9 141.5 141.6 142.5 142.8 143.4 142.9 143.5 143.6 144.3 144.2 145.1 145.1 146.3 147.1 148.4 149.6 150.8 152.6 156.5 158.2 160.3 164 168.4 171.2 178.1 180.5 185.2 188.7 193.2 198.4 203.9 209 214.7 221.1 226.1 232 238 239.2 240.1 242.5 240 234.8 235.4 234.6 234.3 231 221.9 216.9 210.8 194.4 175.2 170
229.9 220.5 209.9 207.6 198.9 189.4 188 183.7 175.2 168.2 162.5 156.9 154.5 155.5 154.6 151.1 149.6 146.3 145.5 144.9 149.3 149.1 150.6 157.4 161.5 172.8 178.2 186.8 197 207.4 222 237.8 252.1 262.2 276.8 291.2 312.9 328.1 334.1 344.1 352.3 352.6 345.9 342 334.4 298.4 231.1 198.2 169.9 152 141.6 134.7 127.7 125 124 122.9 118.7 114.2 112.7 108.6 108.2 108.9 107.1 109.3 107.7 112.4 120.7 118.6 120.9 123.2 126.2 130.2 130.5 134.2 135.6 136.7 134.8 135.2 132.5 136.7 139 139.5 141.9 150.7 156.8 153.2 150.2 149.2 149.4 149.6 149 147.7 143.4 125.7 134.5 136.6 141.1 142.1 145 152.2 156.3 165.5 167.4 174.6 178.8 186.6 188.1 196.1 196.1 195.4 194.9 195.6 191.6 184.9 185.5 183.9 180.2 173.5 161.6 154.2 151.2 152 152.2 149.8 142.7 139.6 140.5 138.7 141.7 134.8 134.9 134.7 135.9 134.7 137.1 137.6 132.3 131.8 130.2 130.8 130.8 133.3 134 135.3 135.2 135.4 136.5 137.8 139.8 139.7 140.8 141.5 142.9 142.9 143.7 143.7 144.5 144.9 144.8 145.8 145.8 146.6 148.3 149.3 150.3 152 153.2 154 158.7 161.7 164.8 168 172.8 176.4 180.8 184.3 188.6 192.8 199 202.9 208.5 214 217.3 220.3 225.2 226.3 227.9 229 227.5 223.5 225.5 223.6 222.5 219.2 211.1 205.6 200 192.1 171.5 161
294.3 273.4 241.9 223.5 209.6 196.7 194.8 185.7 177.5 171.8 162.7 162.5 161.2 159.8 155.5 155.1 154.4 150.7 151.5 154.5 155.6 155.6 165.6 176.2 186.3 199.8 208 216 226.3 236.8 252.1 270.8 289.8 303.4 321.4 336.1 350.9 364.9 371.2 378.4 376 371.9 363.9 361.5 335.1 280.9 214.4 185.2 160.6 149.2 143.1 133.6 128.2 128.6 127.9 124.8 122.1 116.8 113.5 111.7 112.2 110.6 109.9 111.3 114.2 115.1 125.1 123.6 126.1 129.8 132.4 134.7 139.2 140.6 143.7 145.4 140.5 144.7 142.6 139.5 146.4 146.4 146.6 150.6 157.7 156.8 153.9 151.9 151.2 151.2 150.3 147.8 139.3 136.4 137.4 140.3 143.2 147 152.9 157 156.3 172.1 175.2 183.1 193 197.8 200.3 206.5 207.5 206.7 207.1 203.4 193.7 193.9 194.2 189.2 185.2 179.1 166.4 159.7 156.7 159.2 158.3 151.8 146 143.5 149.6 148.1 147.8 139 137.3 138.2 139.6 143.2 141.8 138.4 138.7 135.2 134.3 135.3 135.3 132.4 134 133.5 134.3 134.6 135.1 136.2 137.1 138.7 140.1 140.4 141 141.5 144.4 143.4 144.4 145.3 144.2 146 146.4 147.5 147.3 148.3 149.3 150.8 151.3 153 155.5 159.2 161.5 164.8 168.8 172.9 176.1 180.7 184.7 188.6 193.2 197.7 202.8 206.8 209.4 211.4 213.4 214.6 214.7 216.1 214 213.3 216.3 214.4 210.6 207.5 203.1 194.8 188.8 183.5 174.3 161.2
334.1 335.5 327.6 285.3 232 212 198.3 188.8 179.9 173.7 171.2 171 171.5 165.6 159.6 160 159.9 159.1 162.1 165.1 168.5 174 185.4 200 209.7 225.3 234 248.3 262.9 290.2 305.2 316.2 329 339.1 352.4 366.8 380.4 387.4 392.3 391.1 389 383.2 379.5 361.4 309 242.8 200.7 170.1 155.6 147.4 143.8 143.3 132.8 132.3 128.7 124.8 120.1 115.2 113.6 118.2 114.8 113.5 112.9 114.9 120.6 118.8 126.9 133.3 131.4 133.1 133.9 141.6 143.6 146 147.3 148.6 151 152.8 147.2 143 148.2 149.9 150.5 154.3 155.2 157.8 157.6 154.7 153.2 152.5 150.1 146.4 137.4 139.5 140.8 143.4 148.1 152.5 157.3 158 172.9 179.3 184.6 191.6 202.5 207.1 211.5 221.5 221.9 220.1 216.5 213 203.9 203.8 207.5 200 190.5 181.9 172.4 165 165.5 168.7 165 166.6 154.3 158.4 158.6 153 148.2 143.3 141.8 143.8 144.6 147 146.1 141.2 141 138 139.3 143.7 138.9 133.6 136.6 135.4 136.3 134.9 135.7 137.2 138.1 138.2 139.4 139.9 140.5 142.5 143.1 141.4 141 141.5 142.4 143.2 146.2 147.9 147.9 148 147.6 149.2 150.2 152.4 155.4 157.5 159.9 162.4 166.4 169.1 172 175.5 179.2 183.1 186.7 191.1 196.1 200.3 202.2 204 204.7 203.1 204.1 205 203.8 203.5 206.3 202.6 202.3 199.4 194.4 188.3 181.8 178 169.8 163.9
358.2 358.3 358.5 350.4 310 249.1 216.2 192.6 186.6 179.6 180.7 179.1 181.1 176.9 172 173.8 163.1 170.5 174.3 177.6 184.5 195.7 209.2 223 238.1 255.5 301.9 316.7 321.1 340.2 351.3 356.7 366.6 377.6 382.6 394.9 401.5 408.7 411.3 407.2 398.3 390.8 367.9 322.9 286 220 186.9 164 155.7 148.4 145.2 144.2 136.6 133.2 128.3 121.4 117.2 117.5 123.8 123.8 123.1 124 115.8 121.7 123.2 124.1 128.9 138.1 135.6 138.7 139.7 146.8 150.3 155.2 153.6 150.6 157.8 159.1 154.2 149.7 154.2 155.7 159.4 157 157.5 162.1 160.6 157.9 155.2 154.5 150.6 148.1 131.5 142 143.6 148.7 155.2 158.6 162.6 169.7 180.5 186.3 192.4 203.7 210.2 215.4 223.5 228.2 228.6 228.3 226 222.6 214 218.1 217.6 207.9 195.2 187.1 177.8 176.2 175 173.6 172.7 171.4 164.3 164.8 158.9 158.7 156 149.1 151.5 150.6 148.3 152.9 147.1 145.7 144.6 143.2 142.2 142.3 142.8 140.3 143.9 137.1 137.5 137.7 138.3 137.6 138.3 138.9 138.5 139.1 139.1 140.3 140.5 139.9 141 143 142.9 144.3 145.2 146.5 148.1 148.6 148.6 147.8 150.5 151.6 153.1 156.2 158.5 161.3 163.4 166.3 169.1 171.8 174.1 177.4 180.3 185.1 189.5 193 194.4 194.5 194.6 195.1 194.6 194.8 194.7 194.5 195.6 195.8 193.7 189.3 183.7 180.7 174.8 172.3 166.6 166.9
384.7 387.4 390.4 376.4 364.4 304.2 248.3 213.2 196.6 190.4 191.8 190.2 188.4 187.8 173.7 177.8 181 182.8 185 192.5 204.7 218.7 233 248.5 268.3 286.4 348 362.4 372.9 374.6 383.2 389.6 392.3 400.5 407.3 413.5 421.1 427.2 427.1 418.9 406.1 379 334.2 292.4 244.5 203.4 177 163.3 155.1 150.1 148.7 143.1 139.5 132.6 128 121.9 120.2 126.9 129.9 129.7 128.8 123 122.3 122.9 125.3 127.6 134.5 143.1 143 146.3 147.1 147.4 154.4 157.3 157.2 159.9 170.6 169.7 161.6 160.1 161.4 165.7 163.1 163.1 159.9 166.5 164.2 160.5 156.9 156.2 151.3 148.6 134.8 145.3 146.7 152.8 158.7 163.3 163.8 175.5 188.3 193.7 206 213.3 220.4 226.1 232.1 234.4 237.4 237.2 237 230.5 220.1 229 223.7 210.5 201.5 193 187 184.6 180.1 180.7 178.8 171.9 167.2 174.1 167.8 167.5 160.8 153.3 158.8 152.2 152.7 153.3 150.1 152.9 149.1 147.2 149.1 146.8 146 146.7 143.7 142.2 139.5 140.2 141.8 139.3 139.6 140.1 140.1 140.1 139.9 139.5 140.1 140.6 141 142.3 144.4 144.1 145.3 146.4 148.8 148.8 149 147.6 149.7 151.5 153.4 154.6 156.9 159.3 160.9 162.8 165 167.8 170.6 172.7 175.6 179.4 183.1 186.3 186.3 186.6 186.6 185.7 186.1 186.4 184.1 186.1 185.8 185.4 182 178.5 176.3 174.6 169.3 167.1 164 160
407.6 411.9 415.2 409.3 394.1 367 300.5 260.3 237.1 228 206.5 202.5 199 198.9 187.8 189.2 195.8 199.7 204.1 218.2 230.6 240.6 265.9 309.9 320.9 336.5 367.9 386.9 394.5 396 405.9 409.1 416.2 426.2 428.5 435.8 445.4 443.4 438.9 429.7 394.4 345.3 314.8 277.7 226 193.7 176.1 165 161.7 157.3 151.7 148.9 142.3 137.5 128 124.3 128.4 132.4 138.9 135.9 131.6 132.5 129 127 128.7 135.1 137.9 147.5 147.8 149.4 150.2 153.6 155 157.8 160.3 170.5 174 169.8 165.8 167.2 169.2 167.4 165.9 167 161.6 167.7 169.4 163 157.4 155 151.5 148.8 138.8 148.3 149.8 155.4 162 169.6 171.3 186.6 195.5 203.7 213.6 223.4 231.4 236.5 243.9 246.4 248.4 245.6 242.7 238.1 232 235.6 228.8 216.4 206 199.2 197.7 191.2 187.3 185.5 181.6 177.3 173.4 174.5 174.3 173.3 166 157.2 162.3 161.6 161.9 157.7 156.3 156.2 153.6 154.8 152.4 151.3 150.7 151.6 149.1 144.7 144.2 142.2 144.4 142 147.3 144.6 148.9 142.4 141.3 140 139.9 139.8 139.8 141.4 141.7 142.6 143.2 144.9 150 149.2 149.2 150 150.5 151.9 153.2 153.9 154.9 157.3 159.3 162 163.2 165 167.6 169.4 171.9 174.3 177.9 181.2 181.1 178.7 178.8 178.5 178.5 178.4 177.9 179 178.3 177.1 176.3 174.1 170.2 167.1 163.8 159.9 155.5 151.6
429.3 432.1 435.5 438.4 430.8 378.9 355.1 321.8 291.8 272.6 245.5 223.1 216.6 214.9 211.9 209.7 218.7 229.5 239.7 257.5 264.5 300.7 337.2 347.1 362.3 374.3 392.7 407.3 408 414.7 422.7 430.6 437.3 441.6 448.8 454.5 456.2 452.5 443.5 419.2 361.7 326.5 300.9 265.1 217 190.8 177.3 170.3 169.2 162.9 155.9 151.1 144.4 136.8 126.6 131.8 136.4 143.4 143.9 141.6 137.7 135.5 136.5 131.1 134.6 138.1 141.6 149.2 160.1 154.9 154.4 155.6 158.4 162.6 174 178.1 176.3 171.1 176.6 172.7 172.9 168.3 166.6 175.2 169.4 166.4 166.4 162.1 156.8 154.7 152.9 135.6 143.7 150 153.2 158.2 164.8 173.5 181.8 194.3 202.7 212.9 223.5 235.2 238.9 247.4 253.2 258.2 258.3 256.4 253.8 249.8 242.8 242.5 235.3 225.5 213.8 209.6 204.9 200.8 196.8 195.9 192.2 186.5 180.2 181.1 182.8 176.8 168.3 163.7 170.7 167.2 165.1 162.6 162.9 161.8 159.1 157.3 158.7 160.5 155.7 156.9 153.6 147.3 146.7 148.5 152.3 145 153.5 150.9 146 145.5 143.1 142.2 143.4 144.6 141 141.7 140.2 141.6 141.9 142.2 146.8 147.4 149.1 150.4 151 151.8 152.5 153.2 154 156.1 158.2 159.5 161.4 162.6 164.4 166.4 168.6 171.3 173.8 176.5 176.2 174 172.7 172.7 172.4 172.1 172 172.1 172.2 170.5 168.8 167.8 166.1 166 164.7 152.6 145.6 145.6
444.5 447.7 450.6 450.8 447.5 412.2 372.9 345.9 329.3 326 324.9 297.6 264.9 251.4 241.3 260.2 265.7 281.2 304.3 313.4 309.7 339.2 372.8 381.8 398.6 405.1 407.2 415.4 421 428.9 438.7 443.7 451 455.4 461.1 461.5 460.8 456.9 448.7 404.3 356.5 323.3 293.6 253.1 213.5 191.5 178.6 173.8 172.5 166.3 158.6 151.3 144.3 135.7 137.5 140.9 147.2 155.3 149.5 141.4 141.3 139.7 136.4 132.4 134.5 139.4 146.9 150.8 159.5 156.5 158.2 160.1 163.2 168.6 175.9 176.9 175.1 176.2 173.9 172.2 173.1 172 166.2 174.8 174.9 165.6 163.1 163.6 156.9 155.3 155.3 136.7 146.7 151.8 156.5 161.1 166.5 175.3 190.8 202.5 212.5 222.9 232.2 242.4 249.5 257.5 263 267.2 270.1 268.8 262.7 257.9 255.6 251.8 243.8 235.5 223.6 217.5 213.1 208.5 208.5 203.5 196.1 192.4 190.3 187.9 183.6 180.5 174.8 176.5 174.3 172.3 169.2 167.2 167.7 167.1 163.7 161.8 163 161.3 162.5 161.4 156.6 149.8 152.6 154.4 153.5 149.9 147.4 149.3 147.5 150.9 145.8 148.9 150.2 149.8 143.6 142.1 142.6 142.7 147.1 145.5 142.7 143 145 149.1 150.9 151 151.8 151.9 153.3 155.3 156.9 158.2 159.1 160.4 161.7 163.1 165.2 167.7 170.2 171.7 171.9 169.6 168.7 167.2 167.1 166 165.4 166 164.8 165.1 164.6 163.5 162.6 161.8 159.7 145.6 145.6 145.6
459.9 461.4 462.5 462.9 459.9 448.6 427.3 373.5 355 340.4 333.3 323.9 304.6 278 301.1 308.8 310 325.4 341.6 362.8 363.7 363.2 398.2 408.1 412.6 416.3 420.6 428.1 434.7 443 448.8 453.7 458.6 462.3 466 468.9 465 458.4 451.6 398 360.2 324.1 296.4 248.6 210.7 190.8 185 177.6 172.4 166.2 159.2 152.5 141.4 145.6 146.6 153.9 165.2 162.7 155.6 146.3 147 141 135.2 138.6 140.3 144.6 150.4 155.3 165.2 163 165.3 166.2 168.3 174.3 176.1 179.6 181.4 178.9 175.1 174.9 174.2 172.5 166.4 168.9 167.7 162.8 161.9 161.3 158.1 158.6 157.7 144.5 146.9 153.7 158.3 162.5 172.6 182.8 195.2 208.8 219 230.3 241 249.5 258.5 266 271.5 277.6 284.4 279.2 271.9 265.7 266.4 261.2 254.4 245.5 235 226.4 221.2 217.2 217.1 210.7 203.1 198 195.6 194.6 190.6 187.7 182.1 182.6 181.2 177.3 171.6 177.1 174.3 173.1 169.8 171.8 171.8 163.6 162.5 160.9 158 153.2 161.4 160 153.7 152 151.9 151.7 151.7 153.4 149.3 147.1 147.5 147 146.7 145.6 144 144.6 145.5 146 147 143 144.1 145.1 146.5 147.9 150.5 151.8 153.2 154 155.2 156.4 157.3 158.5 159.7 160.9 162.6 164.3 166.2 168.1 167.6 166 164.9 163.8 162.6 161.5 160.7 161.2 160.8 159.1 160.5 159.2 158.1 154.1 145.6 145.6 145.6 145.6
473.8 472.7 473 472.5 469.5 462.5 450.5 408.8 376.5 352.6 320.1 311.5 304.7 310.6 325 332.2 341.8 361.3 387.1 399.2 404.3 403.5 412.5 417.6 421.8 428.2 434.5 442.8 445.7 453.5 456.8 461.1 464.1 468.5 471.6 469.8 464.5 462.1 451.7 405.3 362.9 323.3 291.5 247.5 215 199.5 189.4 181.9 171.9 166.4 160.8 151.9 144.5 151.9 158.6 173.3 177.3 173.8 163.5 156.8 147 143.1 139.5 145 145.4 150.1 153.8 164.5 168.8 170 172.4 172.4 173.7 177.1 182.4 184.3 184.2 178.3 176.8 175.4 173.7 174.8 172.1 166.6 164 161.5 161.1 160.3 160.7 159.8 158.8 153 139.2 154.6 160 165.2 174.9 187.8 201.1 211.2 224.3 237.7 248.1 256.7 267.6 275 280.5 289.6 293.8 286.4 279.3 276.7 276.2 272.4 265 257 243.7 235.8 228.2 227.3 223.6 217.7 212 204.6 205.6 200.1 196.3 191.1 188.7 186.8 187.3 181.9 180.5 181.3 179.2 182.5 177.6 177.9 176.2 170.1 171.3 168.9 163.6 159.7 166.1 160.9 155.8 155.3 157.8 156 151.8 152.2 151 153.9 152 149.3 148.7 149.4 146.8 150.1 145.9 148.7 149.8 145.6 145.6 144.7 150.6 153.9 152.9 152.8 153.5 154 154.3 154.8 155.6 157 158.1 159 160.3 161.9 163.8 164.9 164.7 162.8 161.4 160.3 159.2 158.2 157.6 157.1 157.4 156.1 151.5 151.7 152.3 153.3 145.6 145.6 145.6 145.6
482.8 481.6 480.2 477.7 473.7 467.6 459.1 438.3 380.7 351.9 320.3 303.4 307.8 317 326.4 340.5 360.3 385.9 399.2 412.3 417.2 422.1 422.6 427.6 436.9 442.1 447.8 453.1 457.6 462.7 466.3 466.8 469.8 472.6 471.1 469.7 465.6 460.5 447.9 417.2 369.1 327.9 294.5 267.7 234.8 214 194.4 179.8 171.3 166.5 160 149.4 159.4 168.5 183.1 195 199.7 197.1 180.3 165.6 151.3 148 146.4 147.7 152.2 156.1 162.4 168.7 175 176.4 178.7 178.5 175.3 179.6 182.4 184.8 186 177.9 179.5 177.2 175.5 174.6 173.3 171.8 163.9 161.3 160.2 159.7 162.6 162.6 161.2 159.4 140.8 156.7 161 168.5 179.2 189.9 207 218 229.9 243.8 252.5 265 276.5 282.5 292.2 299.5 299.4 292.4 287.8 285.6 284.5 280.2 272.6 262.5 253 246.9 239.9 237.9 230.7 225.4 219.6 212.8 212.2 204.7 200.7 196.3 194.2 192.5 190.2 187.5 186.3 190 187.2 185.9 184.5 187.9 181.2 175.5 178.9 174.2 169.9 165.4 167.9 163.6 161.3 164 159.2 158.3 155.7 154.8 152.8 152.5 152.5 149.6 150 150.2 147.9 150 148.3 148 148.6 147.6 151.5 145 148.9 150.6 152.4 154 153.9 153.9 153.7 153.9 154.7 155.8 157 158 158.8 160.1 161.9 162.4 162 159.8 158 156.7 155.9 155.1 155.3 154.7 152.9 154 154.4 152.1 145.7 145.6 145.6 145.6 145.6 145.6
489 487.6 485.5 480.6 474.8 466.5 460.1 414 368 347.9 316.6 301.5 307.2 325.4 326.5 348.9 376 392.3 408.6 418.6 423.4 431 434.8 436.3 446.3 453.8 459.2 463.3 468 470.1 468.8 469.2 471 470.7 469.4 468.8 463.7 454.7 444.9 422.6 368.9 332.6 314 293.9 261.8 227.6 199.6 177.7 170.4 166.4 157 166.4 179.5 196.6 210.9 220.4 225.1 218.4 196.7 172.8 156.3 152.9 146.5 150.8 156.8 162.6 167.5 170.8 184.6 182.1 186.2 182.8 185.9 185.2 183.2 182.2 181.2 179.4 180.7 181.3 180.3 179.3 176.7 171 161.9 161 160.6 160.6 161.8 164.3 163.4 158.7 144 161.3 167.3 173.2 183.3 195.5 208.3 219.5 231.7 245.9 261.2 274.8 283.2 294.4 301.4 306.1 304 298.6 294.9 295.4 293 286.3 282.3 271.5 262.8 255.1 249.5 245.3 240.3 233.3 229.4 221.7 217.8 214.7 208.8 201.9 199.6 198.8 198 193.3 194.1 195.5 192.9 192.6 189.3 191.7 189.8 183.8 186.4 179.5 174.2 172.7 170.6 169.1 167.4 165.4 165 161.7 159.6 158.7 156.5 157 153.8 157.2 156.5 154 153.3 152.3 151.7 149.9 148.3 149.1 148.5 146.1 147 148.1 150 152.7 153.1 153.2 153.3 153.2 153.8 154.8 155.9 156.8 157.6 158.4 159.6 159.9 158.8 157 155.9 154.3 152.8 152.4 151.9 145.6 145.6 145.6 145.6 153.4 145.6 145.6 145.6 145.6 145.6 145.6
493.7 492 488.1 481.1 472.3 467.3 451.6 395 355.2 333.8 309.6 300.6 309.1 322.1 329.3 353.2 381.1 401.4 415.3 424.1 433.1 438.8 444.9 450.6 456.8 462.9 466.8 470.5 472.8 473 470.9 468.5 467.4 466.5 465.8 463.2 456.6 449.1 434.4 411.9 369 350.2 334.8 306.2 270.8 231.1 199.3 178.7 170.2 163.7 169.2 189.5 204.5 234.3 238.5 246.8 246.5 231.5 208.2 179.8 163.7 157.7 154.4 153.6 161 166.8 173.3 176.8 183.4 186.6 188 189 185.3 183.3 182.9 181.6 180.8 181.7 184.2 184.4 183 182.9 178.5 176 167.6 164.7 162 163.2 162.4 164.1 163.8 159.2 146.2 161.1 168.4 174.5 185.5 199.1 213.3 225.2 240.1 252.9 270.8 281.8 292.6 303 309.8 312.6 307.5 303.6 300.4 302 298.3 294.8 290.5 281.4 273.6 264.8 258.9 254.5 246.8 241 236.3 231.3 223.6 219.3 213.9 210.7 206.2 206.2 206.6 198.9 201.4 199.7 199.8 200.3 198.7 202.1 194.9 193.1 191.2 185.6 181.7 181.8 179.6 174.1 173.4 173 167.6 166 165 161.8 159.2 160.2 160.5 164.8 157.3 158.4 156.8 156.7 155.9 152.8 150.8 150.3 150.5 147.1 146.3 146.9 148.7 152.2 152.3 152.8 151.8 153.2 153.6 154.6 155.9 156.3 156.7 157.1 157.7 157.7 156.1 154.8 154 152.7 151.1 145.6 145.6 145.6 145.6 145.6 145.6 145.6 145.6 145.6 145.6 145.6 145.6 145.6
497.8 494.1 489.2 480.9 470.5 461.4 436.8 392.1 348.2 321.8 308.2 302.1 309.5 320.4 332.7 361.2 390.9 414.7 429.6 433.9 441.7 448.7 455.8 461.6 466.2 471.4 473.8 475.8 475.1 473.6 471.5 470.1 466.3 463.6 459.7 454.6 447.2 436.5 422.7 394.2 373.9 361.7 342.3 314 276.6 228.7 196.7 181.1 171.1 168.5 187.7 207.7 234.7 253.6 265 270.9 282.4 248.5 218.9 193.6 173.4 166.1 159.9 156.5 164.4 169.4 175.5 179.8 187.1 187.3 192.4 190.3 183.8 185.7 180.4 180 180.7 182 185.8 186.4 184.7 181.9 180.4 182.6 173.6 168.2 165.4 166.8 165.5 165.2 165 161.9 148.5 157.8 172.1 178 188.7 205.7 219.9 231.8 244.9 260.6 276 287.7 301.1 309.4 314.5 315.5 310.3 309.2 310.5 309.6 307.5 302.2 297.7 287.7 280.8 274.7 268.8 263.3 256.4 251 244 238.4 231.5 228.1 220.6 217 213.5 212 208.7 206.8 209.1 208.5 206.4 207.2 205.6 205.2 203.3 201.5 198.5 193.4 189.2 188 187 180.8 179.4 176.7 175.2 171.3 168.9 168.2 167.6 167.5 165.1 159.3 161.4 160.6 158.7 157.2 155.8 154.2 154.4 152.5 150 148.3 146.8 146.3 149 152.3 151.8 151.2 151.1 153.8 154.9 155.3 156 156.3 156.3 156.2 155.9 155.6 154.2 152.5 152.2 152.3 145.6 145.6 145.6 145.6 145.6 145.6 145.6 145.6 145.6 145.6 145.6 145.6 147.2 145.6
500.2 494.5 491.2 483.4 463.2 446.7 409.2 384.6 348.7 317.6 312.4 305.4 311.7 322.2 339.2 380.3 406.6 430.2 442.1 447.7 453.2 459.7 466.5 470 474.5 478.6 478.3 475.8 474.4 473.3 471.4 469.5 466.7 459.9 454.2 446.3 433.9 422.8 406.8 383.3 370 359.5 332.7 308.1 274.3 235.1 199.3 184.7 174.4 185.9 212 236.5 256.4 273.9 281.8 297.5 301.3 273.6 247.3 215.4 192.8 180.2 170.6 162.6 168.7 172 175.2 180.9 191.6 191 191.6 193.2 192.6 189.9 190.8 185.4 183.8 183.8 183.1 184.2 184.4 184.2 181.5 181.7 175.1 175.7 170.3 170.3 171.6 169 167.5 163.9 155.4 151.2 172.4 179.7 192.9 208 223.8 238.9 250 266.8 280.9 296.4 305.2 311.7 315.1 315.1 315.2 315.6 316.4 315.7 313.8 308.5 304.3 295 287.9 282.1 277 269.6 262.9 259.2 254 246.6 243.2 236.3 229 227.6 222.5 218.4 215 217.4 215.6 215.9 215.5 214.3 211.7 211.9 208.9 210.1 206.1 203.4 201.9 197.7 195.5 193.4 189.9 185.9 183.8 177.2 176.8 173 174.2 172.3 171.6 170.8 169 168 163.1 164 161.5 158.5 157.5 153.3 150.1 150.3 150.1 149.1 147.6 149.4 151.1 152.4 153.5 154.7 155.3 155.6 155.9 155.7 155.5 155.3 154.9 153 149.6 145.6 145.6 145.6 145.6 145.6 145.6 145.6 145.6 145.6 145.6 145.6 145.6 145.6 145.6 145.6 145.6 151.1
502.6 500.7 495.7 483.7 455.6 427.6 392.7 386.3 348.1 326.9 316.7 318.5 333 331.1 352.1 394.7 423.7 442.3 453.3 459.3 464.8 469.5 474.2 477.3 480 481.3 480.3 476.7 473.2 470.2 469.6 468.1 463.5 457.7 450.6 437.9 422.1 404.8 385.3 372 362.3 350.2 319.9 297.6 263.7 223.7 200.1 186.6 185.4 212.1 235.1 255.6 274.6 292.7 314.6 325.2 320.5 295.4 268.1 240.4 210.3 191.5 179.1 172.3 168.8 173.2 175.5 181.1 191.7 193.4 196.1 198.5 190.9 194.5 195.8 195.3 189.7 183.2 185.5 185.5 185.7 186.7 182.4 175.9 180 179.5 173.9 172.1 168.6 167.9 167.1 166.4 161.8 151.6 174.3 184.4 198.1 212.1 228.3 244.8 255.6 271.6 285.6 300 306.6 311.8 314.4 315.2 318 320.4 320.6 321.4 319.8 316.4 309.3 301.4 293.9 289.6 283.4 276.6 271 267.4 261.9 254.8 252.4 246.9 238.6 237.5 230 225.8 225.2 224.2 223.4 222.7 220.2 221.7 217.5 216.3 215.6 215 211.3 209.4 206.6 206.5 206.7 201.1 199.8 192.5 188.6 183.3 179.6 176.8 181.3 178.5 179.4 177 172.2 168.6 165.7 163.4 162.4 160.1 157.6 151.8 153.5 152.6 153.9 153.7 153.8 149.8 152.1 153.4 154 155.1 155.4 155.7 155.9 155.7 155.4 155 153.9 153.5 145.6 145.6 145.6 145.6 145.6 145.6 145.6 145.6 145.6 145.6 145.6 145.6 145.6 145.6 145.6 145.6 145.6 145.6
511.9 506.7 501.6 474.1 443.9 415.6 384.6 379.7 347 331.9 326.4 333.3 345.2 354.9 368.5 409.5 435 451.6 462.6 469.3 476.2 479.2 481.6 483.2 482.7 481.5 479.4 477.1 472 470.1 467.6 464.9 459.6 453.2 441.8 428.9 413.6 397.3 381.5 369.2 353.9 332.8 313.7 289.1 252.2 220 201.6 190.6 203.1 229.8 252.4 272.2 295.6 321.5 341.6 346.8 337.5 312.2 279.2 254.4 225.5 202.6 188.9 179.1 172.6 172.7 177.5 181.7 191.5 191.7 193.5 193.1 192 195.9 198.5 197.2 196.7 194 189.6 187.9 188.6 187.5 181.4 179.3 184.7 182.2 187.7 182.3 176.2 175.3 167.7 168.2 159.7 152.2 176.2 186.6 200.5 217.3 229.1 244.1 258.9 275.4 290.6 300.5 308.3 313.7 315.7 318.4 320.7 322.9 325.9 326 325.2 321.9 316.3 309.1 300.4 296.4 291.7 285.1 279.9 274.6 269.3 263.8 259.9 252.4 245.3 243.9 236.8 236.1 238.8 236.8 234.3 230.7 232.1 232.2 227.2 223.2 225.5 223 220.6 215.9 211.6 214.5 210.9 208.6 202.2 196.1 199 188.1 188.5 186.8 187.4 186.8 179.2 176.8 174.3 171.7 169.4 166.9 164 159.5 156.6 158.7 156.8 154.1 155 154.7 154.2 152.4 156.3 154.6 155 155.3 155.5 155.8 155.8 155 154.5 154.2 153.1 152 145.6 145.6 145.6 145.6 145.6 145.6 145.6 145.6 145.6 145.6 145.6 145.6 145.6 145.6 145.6 145.6 145.6 145.6
518.9 513.8 506.6 476.3 442.9 407.4 388.2 375.1 366 342 331.2 342.4 355.1 366.7 386.3 417.3 445.9 462 468.7 477.7 482.4 487.3 486.7 484.8 482.5 480.1 478.7 475 471.7 470.1 466.5 458.3 452.4 443.1 430.5 420.7 406.4 390.9 375.2 362.4 340 320.7 296.1 266.7 239.2 217 199.6 194.1 216.3 245.6 269.5 289.1 318.5 343.5 357.3 366.2 362.7 332.6 297.8 262.3 237.1 216.7 198.7 182.9 173.7 172.5 175.6 180.1 189.5 191.1 189.4 194.8 197.2 201.2 199.7 200.8 199.7 198.5 196.5 193.2 190.5 188.1 183.5 184.4 186.2 190.6 193.4 190.6 174 170.4 169.6 159.2 156.9 168 177.3 188 200.1 215.8 230.8 243.3 261 277.4 291.8 301.3 308.8 313.4 316.3 320.9 323.2 327.3 328.4 330.3 331.4 329.6 326.5 314.8 307.1 302.4 296.9 291.3 286.1 280.5 275.1 270.6 267.3 260.3 254.7 250 244.4 247.7 248.2 245.9 244.6 240.3 241.8 240.2 235.6 231.5 232.3 232.3 232.2 225.2 224.3 221.2 216.6 214.7 208.6 206 207.5 199.1 197.4 196.4 193.3 192.6 188.7 184.8 181.3 178.1 176 170.2 167.5 163.3 162.6 163.2 164.3 158 156.2 155.4 153.9 153.9 153.9 155.2 156 155.9 155.8 156 155.6 153.9 153.2 153.1 152.2 152.1 145.6 145.6 145.6 145.6 145.6 145.6 145.6 145.6 145.6 145.6 145.6 145.6 145.6 145.6 145.6 145.6 145.6 145.6
523.6 514 507 476.5 439.7 413.7 399.6 375 365.4 351.2 340.8 350.3 360.7 380.7 404.4 432.2 451 469 476.2 483.3 488.7 491.1 490.4 485.7 483.4 479.6 479.9 474.7 472.9 467.5 461.8 454.7 444.1 434 420.9 406.2 392.8 378.3 365.9 345.7 327.8 306.8 284.1 250.2 229 210.3 196.4 200.9 235.6 258.3 279.5 302.5 335.4 361.4 377.1 385 376.8 354.8 343.8 287.8 251.6 225.9 204.7 187.6 174.9 173.7 174 176.1 184.8 188.7 191.3 191.8 194.6 194.5 200.3 200.2 201.1 201.5 198.7 198.4 197.2 186.1 183.9 188.6 189.7 194.2 193.9 190.3 185.4 183.9 171.4 155.8 169.7 173.6 181.8 188.9 202.4 214 229.2 246.3 261 277 290.9 301 307 311.2 316.7 320.2 325 327.6 331.9 336.4 336.7 340 336.4 320.4 313.1 307.6 302.9 296.9 290.3 285.6 280.9 276.1 271.8 266.5 263 258.8 254.1 257.2 255.4 254 250.4 246.2 249.8 247.2 243.5 239.4 239.8 237.9 235.4 229.6 231.9 228.7 224.5 223.6 218.9 215.1 206.9 204.7 206.9 204.8 204.8 196.2 196 187.8 186.3 184.7 183.9 176.4 170.1 167.6 169.2 169 163.9 160.3 157.1 156.3 154.2 155.2 154.9 155.4 156.4 156.9 156.4 156.2 155.8 155.4 155.2 154.2 153.5 151.7 151.6 145.6 145.6 145.6 145.6 145.6 145.6 145.6 145.6 145.6 145.6 145.6 145.6 145.6 145.6 145.6 145.6 145.6
522.4 509.1 498.6 468.5 435.2 418.3 419.4 382.4 367.7 356.2 350.3 355.1 369.4 395.9 421 447.7 459.8 468.4 480 486.7 492.3 494.4 492.6 487.3 481.9 479.7 476.2 472.9 469.5 464.3 455.5 447.5 439.3 423.1 406.4 394.2 381.7 360.8 344.4 335.9 316.6 291.9 266.9 240.5 220.5 204.1 197.1 212.9 242.7 262.3 291.1 330.4 355.1 378.5 390.5 394.1 398.1 395.8 379.5 341.8 288.3 251.1 220.4 199.4 180.3 175.9 175.3 177 181.4 185.7 189.2 190.7 193.6 191.5 193.2 192.5 197.6 200.5 204.1 205.9 200.8 189.5 189.3 192.7 193.2 195.2 194.8 193.5 191.7 186.4 176.2 157 171.2 178.5 185 192.2 200.1 214.4 231 246 260.6 273.7 288.6 298.6 305.6 308.8 315.5 319.5 323.9 328 335.4 340.8 342.7 346.1 339.6 325.7 318.7 312.9 307.1 300.3 295.3 290.1 286.1 281.1 277.1 272.8 270.2 264.8 262.5 264.6 267.4 262.6 258 253.7 257.8 255.2 250.4 249.9 248.2 249.2 246.1 236.7 239.6 237.9 233.5 231.5 224.6 221.5 216.1 216.4 212.1 211.5 208.3 204.9 197.7 192.5 190.1 189.2 188.7 181.1 178.1 172.6 174.3 170 165.5 162.3 159.3 156.5 156.8 155.4 155.9 156.1 156.8 158.4 156.6 156.5 156.2 155.9 155.7 155.4 154.7 154 153.8 152.6 151.9 152.3 145.6 145.6 145.6 145.6 145.6 145.6 145.6 145.6 145.6 145.6 145.6 145.6 145.6 145.6
