ncols 200
nrows 82
xllcorner 320000
yllcorner 642250
cellsize 50
334 338.4 340.2 340.1 343.5 347.1 350.7 351.4 351.3 353.8 357.6 362.3 366.7 370.9 375.3 380 385.6 390.1 393.1 395.9 395.8 393.6 389.5 385.6 381.4 376.9 372.3 366.8 361.1 354.7 346.3 339.6 337 335.2 333.1 332.2 330.5 338.4 335.8 328.7 322.1 319.1 313.1 304.1 299.4 294.4 291.3 287.9 283.3 284 283.5 281.3 276.7 272.5 269 266.1 264 260.2 257 255.3 254.1 253.2 253.3 253.6 253.5 254.6 253.2 251.7 249.1 241.3 232.8 220.8 208.8 201.8 198.4 192.2 189.4 189.5 189.3 192.2 203.3 206.4 212.7 227.3 242.5 252.2 264.1 274.5 283.9 288.2 290.9 297.2 298.8 298.5 298.1 295.8 292.1 289.9 288.6 289.7 285.3 279.4 272.4 263.5 253.3 257.1 262.8 266 269.2 270.3 270.2 271.6 272.1 273.3 273.8 271.1 267.3 263.6 258.3 262.6 271.7 277.8 279.2 277.3 278.8 282 285.4 289.3 291.5 296.8 302.7 310.2 321.8 334.1 346 357.2 370.7 382.8 396.9 410.7 421.4 428.9 445.1 460.3 473.6 487.1 502.2 514 524.6 530.1 531.3 527.7 516.6 497 467.7 444.8 411.2 399.8 410.1 410.9 412.8 413 410.2 413.4 416.8 421.5 422.3 419.9 422.1 420.7 413.3 387.1 394.4 417.1 437.8 455 463.8 472.6 485.8 490.9 492.7 483.7 457.7 439.8 444.9 456.3 471 480.9 489.9 493.8 496.5 501.8 510.5 516.4 520.3 518.4 514.1 510.2 506.7 502.8
340.7 343.1 346.1 348.8 351.2 353.7 355.9 358.4 360.9 363.7 367.3 371.8 375.7 378.4 382.3 386 390.5 392 393.8 394.2 393.8 391 387.4 383.5 379.1 374.3 369.5 364.6 359.2 351.3 343 335.9 330.9 329 326.4 324.5 324.2 329.9 329.7 325.5 322.3 320.7 312.1 302.5 297.9 295.9 292.1 287.3 286.8 286.9 285.7 282.6 278.3 275 270.9 268 265.1 263.6 259.2 257.1 259.9 260.7 259.5 256.8 255.7 254.7 255 253.3 247.2 240.2 230.1 220.9 211 203.4 198.9 190.4 189.2 189.3 189.3 196.3 206.4 209.2 215.2 230.3 244.7 255.5 266 278 289.3 294.5 298.7 301.1 306.5 305.6 305.1 303.8 300.6 297 297.3 294.6 289.3 284.4 278.5 268.8 260.3 261.5 268.5 272.8 276.3 278.3 278.4 278.1 278.3 277.9 278 275.4 272.9 269.6 266.1 258.8 263.1 266.5 266.3 270.7 274.1 278 281.9 282.5 284.1 293.1 299.4 307.2 317.2 329.4 340.1 352.3 365.1 376.4 388.7 399.5 408.2 412.4 425.9 440.6 457.6 473.9 488.9 502.3 514.9 523.7 529.8 528.9 519.7 503.7 477.5 453.8 426.8 405.5 397.4 394.8 393.5 391.9 389.5 388.1 391.4 397.1 398.3 397.8 403.1 402.2 399.9 379.3 397.4 417.7 430.9 443.5 454.9 469.6 479 485.8 487.4 484.8 462.8 436.7 430.3 439 451.3 460.3 466.6 468.2 470.1 481.7 497 508.6 514.3 512.6 508.1 503.8 501.8 499.1
350.4 353.4 357.1 359.3 360.6 362.2 365.1 368 370.4 373.4 376.6 380.1 383.1 385.6 387.9 391.5 393.8 394 393.3 392.4 392 388.7 385.2 381.2 376.4 371.5 366.7 361.8 354.9 345.1 336.8 330.6 325.8 323.5 320.6 317.7 320.2 323.4 323.5 322.4 321.7 318.9 313 304.5 297.5 294.8 291.3 288 289.9 289 288.1 285 280 276.4 272.7 268.3 265.8 263.5 261.1 262.7 266.2 263.8 264.1 257.8 258.6 259.4 258.2 255.2 245.9 234.3 226 219.3 211.4 204.6 199.6 191.2 189.1 189.1 189.2 198.1 207.1 212 219.1 233.8 248.7 260.8 271.9 278.2 293.4 299.5 303.5 309.9 313.2 312.9 312.2 311.9 309.5 305.7 305.6 302.2 297.9 292.6 283 272.2 262.8 268.4 273.7 279 283 285.3 285 285.2 286.5 284.7 283.7 282.5 279.3 276 271.6 267.7 264.3 268.6 272.1 275.5 279.3 284.5 289.4 291.2 292.3 291.1 292.7 302.1 310.1 320.9 329 339.1 350.3 360.4 369.4 377.8 386.4 388.4 406.7 421.1 439.8 456.1 473.2 490.9 506 519.1 526.7 530.4 523.8 510.9 489.5 465.6 445.3 420.1 413.6 411.3 409.3 408.3 399.8 394 387.9 383.4 381.8 379.8 380.1 379.5 381.3 379.8 399.9 417.9 430.8 439.2 451.9 464.6 474.2 480.7 486.7 488.8 472.9 444.8 425.1 426.1 436.6 444.7 446.4 438.9 446.2 470.3 491.7 504.5 510.4 506.4 500.8 497.9 497.9 495.5
362 364.6 367.4 368.8 369.7 371.4 374.6 377.7 380.1 382.5 385.5 387.9 390.6 393 395.1 396.8 396.5 395.1 393.5 392.1 390 386.3 382.7 378.2 373.8 368.8 363.7 359.2 348 338.1 332.2 327.6 321.7 318.6 315.4 312.9 316.5 321.5 323.2 322.9 321.9 319.6 311.8 304.2 297.4 296.3 292.3 291.2 293.2 291.1 291.5 285.8 280.2 279 275.2 269.8 267 264.8 265.5 265.2 266.8 265.3 264.3 260.1 261.1 259.8 257.7 255.4 248.2 237.6 225.2 216.5 208.8 204 193.9 190.3 188.9 189.1 189.2 200.3 209.6 212.4 220.4 237.6 250.7 263.1 276.6 286.2 287.8 302.7 307.6 314.9 319.3 319.4 319.2 319.2 317.1 313 313 309.6 304.1 296.7 288.7 275.2 268 270.9 279.1 284.5 289.7 291.7 293.1 294.4 295.1 294.1 291 289.4 286.5 282.4 278.1 273.8 268.6 270.1 276 281.4 285.5 290.7 295.2 296.4 297.3 297.8 298.5 299.3 299.6 304.9 310 320.2 329.7 337.3 346.9 356.4 364 368.4 386 405.7 420.3 437.2 460.7 481.5 497.5 512.5 523.3 530.3 527.7 517.4 501 478.7 459.6 440.5 430.5 427.5 428.9 427.4 424.1 416.2 409.7 398.3 392.4 384.9 376.6 373.9 373 371.9 380.4 399.9 412.4 421.6 433.5 454.4 469.6 477 481.9 485.4 480.4 455.8 432 418.6 422.3 429.7 428.7 432 452.5 475.2 497.5 509.2 506 499.8 489.2 489.8 494.8 492.2
373.4 375.8 377.2 378.1 378.7 381.2 384.6 387.1 389.1 391.7 394.4 396.3 398.2 399 398.8 398.5 397.3 395.2 392.8 391 387.9 384 379.6 375.1 370.2 365 359.8 350.7 339.7 331.8 328 323.4 317.8 314.4 310.7 309.1 311.8 315.7 317.7 320.1 320.4 316.4 309.9 301.4 299.1 295.5 290.1 289.6 293.5 294.5 292.1 288.1 281.6 280.1 277.2 269.6 267.3 265.9 267.2 267.9 270.3 268.7 267.6 263.1 264.4 262.7 260.2 256.5 248.7 238.7 226.7 214.9 207.9 199.7 194.3 189.8 188.5 189.2 190.3 200.3 210.5 213.8 222.2 239.1 252.7 265.2 277.8 289.4 301.2 300.5 308.8 318 323.1 324.9 325.4 326.9 323.5 319.3 318.3 316.3 309.7 299.7 290.5 276.2 270 274.1 283.6 289.3 294.7 298.7 302.5 304.9 304.1 302.5 299.4 296.1 292.3 288.1 283.7 279.6 274.5 270.5 278.1 285.3 290.5 295.1 300.7 304.8 306.6 305.5 307.3 307.3 306.2 310.2 312.9 312.1 311.9 315 324.2 333.7 342 354.1 369.6 383.6 404.2 427.6 449.9 470.7 489.8 505.9 520.3 528 529.9 524.5 512.3 494.3 473 454.7 449.9 449.3 451.7 452.4 447.4 442.4 434 421.8 416 403.1 392.3 393.6 389.4 377.4 369.9 378.4 389.6 401.9 424.5 446.8 461.2 470.4 476.6 478.9 475.6 466.5 446.3 425.6 412.1 408.7 416 432.7 454.2 480.3 495.5 505.3 498.9 489.1 471 477.6 484.8 478.8
384.8 387.3 387.6 386.8 388.2 391.1 393.8 395.9 397.3 399.6 402.2 403.5 402.4 401.5 400.2 398.4 396.8 394.4 391.9 388.8 384.5 379.9 375.2 370.5 365.5 360.3 352.5 341.6 332.3 326.9 322.2 317.2 313.5 309.2 306.2 305.7 306.2 308.8 311.9 314.3 313.6 311.4 307.1 302.4 298.3 296.7 292.4 293.2 291.8 294.6 292.5 288.1 283.1 281.7 277.6 267.8 267.5 270.6 271.5 271.7 274.2 270.5 267.2 264.7 264.4 262.9 260.4 256.8 250.6 239.9 226.8 215.7 205.8 199.8 193.2 189.4 188.6 189.4 190.4 197.9 207 215.5 223.7 241.6 255.7 268.4 280.4 293.5 304.7 307.5 307.3 317.1 324.2 328 329.6 331.7 329.2 324.3 322.7 319.2 311.5 299.8 285.4 280.2 271.7 277.9 287.9 293.2 300.1 307 312.8 315.1 313.4 311.8 309.7 304.1 298.2 293.1 289.2 284.6 280.6 277.3 279.3 289.2 296.4 300.5 308.3 313.6 316.8 318.1 317 315.2 313.7 317.3 321.4 324.5 326 328.5 328.6 324.4 331.1 341.6 353.6 372 393.6 416.4 437.8 459.4 480.6 499.7 516.6 527.7 533.4 532.5 524.2 511.7 491.6 476.8 474.3 467.9 472.8 474.5 472.3 467.3 457.6 447.9 433.5 411 398.4 392.4 385.2 378.3 368.6 366.1 379 397.7 417.1 434.9 449.3 460.4 467.6 467.1 466.6 462.9 456 448.6 433.7 409.5 406.8 427.2 452.5 477.6 490.6 494.5 491.2 481.5 460.1 460.4 470.1 461.2
394.8 396.2 396.5 395.7 397.2 400.2 402.4 404.6 406 407 407.7 406.2 404.3 402.6 400.9 398.5 396.3 393.7 390.3 385.5 381 375 370.2 365.4 360.1 354 342.9 333.4 326.5 321.2 316.8 311.3 309.8 305.4 302.8 302.7 302.8 305.2 305.5 306.5 307.4 307.2 304.7 301.5 298.7 297.9 293.3 295 295.9 291.1 292.8 288 285.2 279.5 277.3 267.8 275.9 278.4 275.9 274.7 275.4 271.4 265.3 265.3 264.6 263.7 262 257.9 251.6 238.7 230.3 220.8 207.2 197 190.6 187.7 187.9 188.7 190.2 197.1 208.6 216.8 224.8 243.9 256.3 270.4 281.4 294.3 302.5 305.1 305.5 312.3 321.6 327 329.8 333.7 334 326.9 323.9 318.5 310.1 298 295.3 282.4 274.9 278 290.7 296.2 305.2 312.7 320 324.7 323 320.6 318.1 312 307.2 301 296.5 290.9 286.7 284.7 280.1 292 297.8 306.8 314.7 321.9 327.5 329.9 328.8 324.7 321.9 325.6 330.9 336.3 340 341.5 341.8 340.4 335.3 333.9 343.1 360 381.3 403 425.9 449 471.4 492.5 511.7 527.8 537.5 538.8 535.6 524.7 509.2 498.3 494.8 491.8 495.4 498.9 496.1 491.2 480.1 465.4 445.1 422.6 405.2 390.9 383.1 379.7 374.3 367 369.1 386.2 406.3 422.8 437 444.9 448.7 449.5 453.6 454.3 453.9 449.8 432.4 404.9 401.2 418.9 450 476.8 488.4 493.2 488.7 473.4 453.7 438.2 442.8 437.9
402.9 403.2 403.5 403.4 406.1 408.3 410.4 410 410.5 411 408.5 407.3 404.4 403.4 399.2 396.9 395.3 392.2 388 383.3 377.4 371.8 364.4 358.8 353.2 344.3 334.6 327 320.8 316.4 311 306.7 303.5 302.9 300.2 299.4 299.8 300.8 301.1 300 301.8 301.5 301.2 300.6 301.1 297.6 294.1 295.9 295.1 292.9 285.7 284.5 281.4 273.1 275.3 279.8 281.5 280.7 277.6 278.2 276.8 272.7 265.7 267.3 265.6 264.1 262.9 260.1 250.8 238.2 231.4 217.4 207.9 195.4 188.7 187.3 187.7 187.9 190.4 198.8 213.3 219 224.1 241.2 256.4 268.2 278.6 290.2 296.2 297.9 298.1 303.6 311.5 321.9 330.7 336.6 337.3 328.3 322.3 317.6 306.6 302 291.4 284.5 278.6 281.6 291.9 297.9 309.5 317.8 325.5 330.7 332.8 330.9 329.2 322.2 318.6 312.3 305.6 298.2 292.2 291.5 289.3 291.2 304.3 315.5 324.6 330.2 335.7 338.5 338.6 335.8 331.1 337.9 346.4 349.7 351.6 353.3 355.1 357.2 354.5 346.9 339.5 350.5 368.3 389.7 415.8 439.8 460.7 483.3 506.6 526.1 540.4 546.2 546.1 539 528.2 522 519.1 518 521.4 520.8 513 503.4 496.4 478.7 458.3 436 413.5 400.5 390.1 389.3 380.9 373.8 364.8 371.1 388.8 404.5 417.6 424.8 426 429.4 435.8 440.6 442.9 444.6 427.3 397.5 395.5 412.4 446.9 473.7 491.3 488.6 480.3 465.4 444.8 423.6 419.9 416.1
409.9 408.8 409.5 410.8 413.4 416.3 417 414.6 413.4 411.1 406.1 403.3 400 396 393.9 393.9 394.1 390.1 385.5 380.6 375.7 368 359 350.3 344.1 336.4 329.1 321.5 316.6 311 306.7 301.5 300.6 300.9 297.8 297 297.6 296.7 296.7 296.6 298.1 299.7 299.4 300.9 300.6 293.3 293 295.8 293.8 288.1 286.9 283 279.9 277 286.9 281 282.8 282.9 280.9 279.5 277.2 270.5 264.5 261 262.2 263.5 262.3 256.2 249.7 235.9 226.8 217.7 206 195.6 189.4 187.4 187.4 187.4 193 201.9 213 222.1 225.8 235.1 252 263.8 273.4 283.4 286.4 287.3 288.3 294.9 306.2 318.1 328.7 336.4 337.2 329.8 325 318.7 308.2 300.3 291.8 285.4 286.7 283 294.8 301.9 312.1 320.6 327.1 335.1 340.6 340 338 333.3 330.7 324.7 315 306.6 301.1 301.4 300.7 294.8 304.6 319.3 332.9 337.9 343.3 347.4 348.3 347 343.2 349.2 355.1 358.4 361.8 365.8 372.4 374.2 372.3 366 350.8 346.9 358.4 380.5 405.7 427.4 448.7 471.9 495.6 519.3 539.6 551.2 551.4 548.1 545.8 545.6 544.4 543.5 540.4 536.5 530.8 523.7 512.1 495.1 473.8 451.5 429.7 405.8 398.9 405 397.9 387.7 378.8 362.2 367.2 385.4 397.6 402.3 401.8 407.1 414.1 419.9 425.8 434.4 425.4 398.2 390.5 410.8 440.4 468.1 478.8 478 471.7 458.2 438.1 419.2 403.6 394.2
414.2 413.3 413.9 416 419.2 417.8 415.2 412.9 410.1 406.1 401.5 396.2 391.5 386.3 387 389.4 391.2 387.8 382.3 377.4 372.8 364.8 355.9 347.4 338 331.2 324 317.8 311.1 308.2 303.9 300.8 299.7 299.4 296.4 295 295.8 294.8 294.4 294.3 295.6 297.3 298.6 298.6 299.9 296 290.3 292.6 288.2 285.6 286.6 283.1 288.7 286.2 287.5 283.2 286.6 285.8 282.7 279.2 275.2 263.9 260 260.3 258.1 257.3 257.3 250.1 242.8 235.9 229 218.1 206 194.9 188.8 187.2 187.1 187 195.5 199.8 209.9 222.4 233.6 234.6 248.8 259.8 263.4 267.8 271.8 275.9 279.8 289.2 300.7 313 324.7 334.2 333 333.4 329.2 321.2 312.8 306.5 300.2 295.5 290.3 288.9 297 304 313 322.5 331.2 341.7 347.5 348.3 345.1 341.3 342.5 337.5 327.2 316.5 310.6 311.2 311.7 306.7 303 321.4 334.3 342.4 349.6 355.6 358.7 358.5 355.1 356.3 363.8 368.6 374.8 383.7 389.5 389.7 388.7 386 372.4 359.4 353.5 368.3 390.6 413 433.7 456.8 483.1 507.2 528.1 544 552.1 556.3 560.4 562.5 560.3 557 552.9 548.1 542.4 535.8 527.5 510.7 486.5 459.4 430.7 414.1 416.5 419.8 413 402.5 391.9 376.6 360.3 361 372.5 376 377.7 383.8 390.8 396.5 406.3 420.4 411.8 391 375.8 401.8 430.2 460.4 468.7 471.1 463.8 451 432.4 411.4 390.3 370.6
413.8 413.6 416.1 415.9 415.2 413.9 412.1 409 405.7 401.8 396.9 389.5 381.5 377.9 380 383.2 385.2 384 378.7 374.1 368.7 362.2 353.7 345.3 335.9 327.6 319.9 315.4 309.9 306.3 302.8 300.7 299 297.7 295.7 292.7 292.9 292.6 292.8 292.8 293.8 295.4 295.1 296.4 293.1 291.6 289.3 291 289.9 285 281 283.3 290 290.3 290.3 284.6 287 287.9 283 277.5 269.8 263.4 258.7 253.2 249.1 246.7 244.5 240.5 240.5 235.9 231.3 214 204.2 193.4 188.4 187.1 186.9 186.7 189.9 197.4 215.7 230.4 237.8 239.6 241.6 250.4 254.6 259.3 264.5 269.2 273.8 283.7 295.1 306.4 317.8 326.3 331.6 337.7 332.8 327.3 317.2 314.8 309.3 302.3 290.9 296.2 301.1 307.4 317.6 327.2 337.8 347.2 354.5 358.3 358 354.2 350.9 348.2 339.1 327.1 323.7 322 320.9 318.2 312.5 317.9 335.9 346.4 355.2 365.1 370.7 370 365.8 366.5 375 381.1 390.2 397.7 401.9 402.7 405.2 404.7 394.9 378.3 370.2 363.6 379 394.8 415.3 444 466.2 486.3 504.3 528 553.5 566.6 571.8 574.6 572.9 568.7 564.3 559.2 552.5 545.7 539.8 524.1 495.4 468 448 425.4 432.7 429.8 424.1 415.8 406.1 384.8 375.7 363.3 358.1 356 356 355.8 361.6 370.2 384.9 391.8 387.5 375.3 368.9 392.8 421.1 450.5 460.3 463.6 456.6 444.4 427.4 402.1 377.5 356.1
411.2 411.3 411.1 410.6 410.1 408.8 406.8 404.3 401.2 397.9 392.5 384 377.1 373.1 372.4 376.6 378.9 379.6 375.3 371.2 365.6 358.3 350.9 342.7 333.1 324.3 318.3 313 309.4 305.9 302.4 300.3 298.5 296.8 292.6 290.9 290.5 290.2 291.6 291.1 290.6 294.4 293.8 293.5 293.4 292.8 290.1 285.9 286.9 279.5 278.9 286.4 294.5 293.2 291.2 286.8 287.9 289.5 283.9 276 271.1 264.6 257.6 250.7 244.8 240.9 237.5 236.3 236.3 230.8 222.9 212.9 202.8 192.3 187.4 186.6 186.6 187.1 200.8 211.7 225.3 234.7 242.2 244.8 247.1 248.3 252.8 256.9 262.7 267.5 272.2 278.5 288.9 299 310.5 321.1 331.4 339.9 334.2 331.6 322.4 318.9 313.8 310.7 301 296.9 302.7 313.6 321.9 334.3 344.9 355.8 364 368.7 369.3 368.6 362.5 358.3 349.9 338.2 336.5 333.6 330.9 328.5 324.6 321.4 332.7 349.5 360.4 373.8 380.9 381.1 380.7 378.5 385.9 394.2 403.1 410.3 414.2 419.5 422.6 423.8 417.7 403.9 389.2 378.7 376.9 406.1 423.2 439 458.8 479.2 502.7 531.2 559.5 577.5 581.3 580.9 578.8 574.9 570.9 565.6 560.5 554.1 545.7 535.6 509.4 483.9 456.8 443.5 446.7 440.9 436.3 429.8 419.7 409.5 397.9 384.4 374.3 366.3 361.2 356.8 350.7 348.5 360.9 373.9 368.7 361.8 362 383.1 411.8 442.4 453.3 456.3 450.3 439.2 423.6 394.5 367.8 353.4
405.3 404.8 404 403.7 403.9 403 401.4 399 396.2 392.3 386.3 379 373.4 368.9 365.1 368.8 372.1 374 372.1 368 362.7 355.7 347.9 338.2 328.3 323.2 317.7 312.4 309.2 304.8 301.9 299.6 297.5 294.9 290.2 289.7 289.4 289 287.7 286.5 287.4 292.1 292.5 292.3 292.2 291.3 287.9 279.5 278.6 270.9 281.6 285.1 295.8 293.8 290.8 287.2 287.7 288 282.6 275.4 270.9 266.3 259.5 250.8 245.6 240.5 235.9 234.5 232.9 228.3 221.4 212.8 199.6 192.2 187.7 186.3 186.5 188.5 195.2 210.5 225.1 237.4 243.7 250.4 252.9 254.9 255.2 258.8 265.6 269.7 273.2 278.3 284.2 293 304.4 318 328 334.7 336.6 337.2 327.2 325 321.3 313.1 312.7 302.5 310 321.8 332.3 342.4 353.4 364.9 372.1 376.9 378.9 380.7 378.3 372.7 362.2 350.2 349.2 347.1 344.5 342 336.8 332.3 332.4 349.4 364.8 380.6 388.8 392.8 394.8 393.9 398.2 408.6 416.3 423.7 430.8 435.4 439.2 441.5 440.9 426.7 409.1 396.2 398.1 407.4 432.7 453.1 474.2 495.3 518 543.7 569.1 584.3 587.4 583.8 580.7 576.9 572.8 567.9 563 557.7 549.3 539.1 518.9 486.4 459.1 470.2 464.8 458.7 452.2 445.5 426.6 427.5 418.5 408.1 396.6 387.8 379.5 371.3 356 348.9 348.3 352.1 352.9 352.2 355.3 371.9 402.2 433.8 446.2 449.4 444.2 433.8 418.9 394.4 359.4 353.7
395.4 394.5 394.1 395.3 395.9 395.4 394.5 392.8 390.1 385.4 380.9 375.5 370.2 365 359.4 359.5 364.5 367.9 369 365.1 359.8 353.1 343.7 333.8 328.1 323.5 317.5 312 308.5 304.1 300.5 298.2 295.1 291.7 287.3 288.8 287.9 287.8 286.9 285.3 285.5 287.6 289.5 290 289.6 288.7 285.5 278.9 271.2 266.6 278.7 286.8 295.1 293.8 294 287.2 285.7 282.8 279.1 271.4 267.4 265.6 260.6 253.6 249.8 245 237.3 233.6 230.8 227.6 217.9 208.5 200.6 191.5 188.1 186.5 188.2 189.7 200.4 211.5 224 236.8 247.2 254.1 257.4 259.8 261.1 264.1 269.4 273 277 281.1 285.2 289.8 298.1 313.6 325.8 334.8 339.2 343 333.6 331.9 327.6 321.3 320.9 314.7 321.9 331.6 341.4 351.7 361.4 371.9 377 382.8 387.6 392 391.4 383.4 373 363.7 364.3 362.4 360.3 357.2 350.2 345.1 339.3 348.1 363.9 383.9 396.1 405.2 409.3 410 410.6 422 430 438 444.6 451.5 457.3 460.1 459.5 446.4 427 414.2 418.1 414.4 430.3 455.4 482.4 508.3 533.4 556.7 574.7 583.7 585.8 584.5 580.9 577 572.4 567.7 562.1 557.1 549.5 539.8 519.7 481 485.2 486.9 482.2 477.7 471.3 460.1 450.3 444 436.7 427.9 417.9 407.3 397.6 389.5 381.2 362.8 347.9 346.2 344.4 341.6 348.1 362.1 391.9 421.1 436.9 440.4 438.3 428 415.2 393.3 356.2 350.8
389.3 385.6 383.6 385.6 386.8 386.6 386.5 386.5 384.3 381.3 376.9 371.5 366.2 359.8 353.8 348.5 354.5 361.1 366.7 363.1 357.3 349.7 339.4 331.7 328 322.4 316.1 311 308.5 302.9 300.4 297.5 293.7 288.4 285.9 286.5 286.8 286.5 285 284.6 284.4 284.3 283.4 283.7 283.4 280.2 275.4 276.3 274.2 262.6 276.2 285.2 289.9 292.6 293.9 286.7 283.3 278.9 273.6 270.4 267.1 266.8 261.9 254.1 248.5 244.2 238.1 233.2 227.4 219.8 206.4 197.5 192.7 190.5 188.2 186.3 188 189.8 202 214.2 226.8 235 245.8 254.2 260.8 262.9 265.6 268 272.5 275.6 280.5 284.8 288.9 293.2 297.9 307.8 319.7 335.8 343.7 346.2 338.6 336.8 336.7 331.6 329.7 329.8 330.7 339 349.4 359.5 367.5 374.1 381.4 389.4 397.4 403.8 402.9 394.3 382.8 377.1 381 378.5 374.6 373.8 365.2 356.4 350.2 352.9 363.2 385 403 414.7 420.3 425.1 427.4 434.9 444.9 452.6 459.9 468.3 473.3 474.9 474.5 464.9 449 440.6 439.7 434 431.7 458.1 488 518 543.6 562 574 581 582.7 582.2 579 575.2 570.7 566 560.5 554.6 548.3 538.1 516.7 497 507.2 505.1 499 495 490.5 482.2 474.2 467.1 459.2 449.7 441 430.4 418 405.4 396.5 385.8 365.8 349.9 346.6 343.8 340.5 354.2 380.9 410.6 428.8 435.4 433.4 423.7 411.3 393.9 357 345.7
384.3 381 375.5 373 376 376.3 377.2 377.9 379.5 376.4 372.7 367.4 360.8 354.4 347.9 342.4 341.6 353.5 361.3 360.4 354.8 347.2 338.9 332.3 327.5 322 316.2 311.6 308 303.2 300.4 298 291.1 287 285.2 284.9 286.1 285 283.8 283.2 283.2 282.4 283 279.1 277 274.8 274 273.1 271.6 263.9 270.5 278.6 285.4 288.7 290.8 284.2 279.1 276.4 272 268 266.9 265.9 262.2 254.8 249.3 246 240.8 232.2 216.4 202 209.5 209.2 197.4 190.5 187.6 185.9 186.6 189.6 201.6 219.9 234.2 241.5 248.4 255.7 263.8 267 269.8 271.2 273.7 277.7 282.6 285.8 289.9 294.6 300.1 307.3 319.9 335.1 344.6 347.8 344.5 343.6 342.9 343.6 338.1 339.1 338.7 344.9 355.5 363.7 369.4 376.9 385.3 394.7 406.3 414.4 413.8 404.1 396.7 386.8 393.1 389.7 389.9 388.6 381.3 368 360.1 361.6 371.8 384.3 405.1 422.5 433.7 439.1 443.4 447.8 458.7 467 474.8 481.2 487.2 489.5 490.9 488.3 475.3 467.8 463.7 455.4 440.5 458.6 485.7 513.9 539 560.4 570.9 577.6 579.2 578.9 575.7 572.2 567.8 562.3 557.5 552.4 544.9 537.8 517.2 524.1 522.6 518.6 512.4 508.2 505 500.1 497 491.9 485.6 477.2 465.6 453.3 440.1 426.6 411.6 395.9 381.1 365 355.9 347.8 337.5 344.6 369.3 400.9 422 430 425.8 415.4 401 383.7 357.7 342.5
384.3 378.7 374.1 368.3 366.5 368 367 367.9 369.1 369.8 366.2 361.9 356.5 348.5 341.8 336.6 332.8 343.4 353.8 357.8 352.4 345.7 338.9 332.7 327.2 321.8 316.2 312.3 307.9 303.1 299.7 295.3 288.8 285.5 285.1 284.3 284.3 283.9 283.7 281.7 280.4 280 277.8 277.2 276 276 274.7 274.3 275 264.9 265.4 273.1 276.4 281.8 283.8 279.2 275.7 272.2 268.1 267.3 265.3 265.7 263 255.6 249.8 247 241.4 220.9 217.8 227.9 220.3 206.5 194.1 188.4 186.7 185.2 185.5 189.5 201.5 223.7 243.2 250 256.6 262.6 267.5 270.6 272.8 274.2 277 280 284.4 287.9 294.6 301.3 305.4 312.1 320.7 336.2 347.3 349.2 350.8 349.8 352.5 352.6 347.8 347 344.9 348.4 357.2 364.2 371.4 377.9 387.5 398.4 411.9 421.3 421.8 413.9 404.4 398.6 404.5 404.4 403.7 404.1 396.2 382.7 373.4 372.6 389.6 396.8 405.9 428.5 444.5 453.1 458.8 463.9 470.3 478.6 486.7 495 501 504.5 506.3 508 503.2 496.6 495.4 477 459.7 456.4 475 504.9 531.9 555.3 567.8 574.5 574.5 573.7 571.3 567.2 561.6 557.3 553.8 548.6 543 537.7 529.4 535 537.2 531.5 524 519 516.2 513.6 512.4 510.5 508.5 501.4 489.5 477.5 462.2 446.3 428.6 404.7 394.7 386.2 368.2 355.4 339.7 335.9 358.6 389.4 412.7 421.8 417.5 403.4 386.7 366.8 343.5 343.4
385.6 379.1 373.8 368.9 359.6 360.9 359.8 359.3 356.9 356.8 356.5 353.5 349.2 342.4 336.7 331 327.3 334.4 346.8 352.4 349.1 344.7 339 332.7 327 321.8 316.5 312.6 307.2 302.6 299.5 293.5 287.3 285.3 282.8 283.3 284 284.4 281.3 280.5 279.7 278.9 277.8 276.9 276.6 275.8 275 274.4 272.2 266.5 262.1 267.2 271.2 274.2 274.4 274.4 270.4 267.4 264.7 263.1 263.9 263.4 259.1 253.4 249.6 246.6 239.9 216.7 232.3 229.5 221.2 207.6 195.3 187.4 185 184.8 185.1 189.4 202 223.1 245.6 259 265.3 269.7 272.7 275 276.1 277.7 279.9 283.9 288.4 291.7 300.8 307.9 311.7 319 324.7 335.8 344.8 347.3 356.8 358.5 359 359.8 355 354.9 351.5 351.8 357.1 364.1 370.6 377.5 386.4 397.4 410.5 419.9 422.8 421.8 413.5 409.1 415.2 416.5 416.5 415 411.2 401.9 390.5 386 401.7 414.5 423.9 439.8 457.4 467.3 473.6 477.6 482.5 491.2 501 509.3 514.2 517.9 523.3 526.2 527.7 527.5 521.5 498.9 479.8 477.9 491 511.6 533.6 553.4 564.8 567.8 567 566.3 563.4 558.8 554.3 551.5 548.5 543.3 539.2 537.3 538.2 539.2 542.2 540 532 527.5 525.3 524.9 525.1 526.7 525.6 519.9 510.4 494 478.8 461.7 444.6 428.5 419.1 408 390 366.9 347.9 334.5 355.7 380.9 405.6 414.3 406.1 387.7 368.7 347.1 336.3 347.1
388.6 379.6 373.1 368.8 364.4 355.5 353 353.6 351 348.1 343.9 344 341.3 335.6 330 324.7 321.2 329.5 341.6 347.5 345.7 341.9 336.8 331.6 326.6 321.5 316.6 312.2 306.6 303 297.5 290.9 285.9 283.6 280.8 282.7 282.9 283.1 280.9 280.4 278.4 277.3 277 277.6 277.3 275.5 275.2 274.5 271.3 266.3 261.3 263.2 265.5 269.5 270.9 268.8 266.6 264.9 262.1 261.2 261.9 262.7 254.9 251.9 249.5 245.9 240.5 222.4 234.2 232.6 221.8 207.4 194.6 187.6 184.6 184.6 185 189 206.3 229.3 249.1 264.2 270.4 273.6 276.2 279 281.3 282.4 284.2 288.2 291.9 298.2 307.8 313.9 318.1 324.5 329.3 335.3 345.7 353.7 361.6 362.8 366 365.7 362.5 361.1 357.5 353.9 355.4 363.2 369.5 375.4 382.3 393.3 404.4 411.9 419 420.9 417 420.2 424.2 425.3 427.8 428.9 428.1 418.2 405.6 407.3 414.5 430.3 443.8 457.5 471 479.7 484.7 489.3 496.9 505.1 512.9 519 525.1 531.5 535.5 539.1 541.7 542.8 536.3 518.2 499.2 500.8 513.3 522.8 535 548 555.8 556.4 555 553.7 552.1 550.4 546.2 544.7 540.3 537.5 535.2 534.1 534.8 537.2 540.2 538.4 533.9 532 531.4 531.8 532.9 536.2 537.9 535.9 524.1 505.5 488.3 472 456.9 444.8 433.2 423.4 407.4 385.8 350.1 334 352.8 377.6 402.1 408.9 393 371.6 351.9 331.3 343.8 363.1
393.4 384 375.1 369.4 364.4 359.8 351 342.6 342.4 342.1 338.4 333.9 332 327.5 323.3 319.7 318.3 326.2 335.6 341 342.7 338.7 334.1 329.4 324.7 319.4 316 312 306.5 301.7 297.4 288.2 285.7 282.1 279.7 282.2 282.2 281 281.8 279.2 277.1 276 275.9 276.6 277.1 276.1 273.9 271.9 270.2 267.3 261.8 260.8 262.5 263.9 266.1 265.3 263.5 262.5 259.8 258 255.4 254.5 249.2 249.6 248.2 244.5 237.7 217.1 237.3 231.1 223.6 208 193.9 186.1 184.5 184.8 184.8 189.2 209.7 233.4 255.2 269.6 274.5 276.9 280 282.6 286 287.6 289.2 293.2 297.6 303.3 312.8 318.8 324 328.4 334.4 340.7 348.4 358.6 365.2 368 369.5 369.5 365.6 362.4 358.5 354.8 354.4 359.5 363.2 367.3 374.8 386.8 394.5 402.8 410.8 415.2 417.8 424.4 430.1 433.1 437.6 441.1 441.1 427 428.3 431.1 435.5 445 457 470.3 480 487.3 493.4 502.9 509 514.2 519.3 527.9 536.8 541.6 543.9 546.9 547.2 542.8 533.4 524.1 519 517.9 523.8 530.4 536.6 538.8 540.7 539.7 538.4 539.6 538.3 536.8 536.1 534.4 532.3 530.7 527.6 526.3 528.4 532.8 534 532.1 530.1 532.8 533.9 535.8 538.7 542.7 545 538.5 524.5 508.7 494 479.6 465.6 454.4 443.1 433.2 414.2 385.1 349.2 334.1 351.1 379.3 398.7 399.9 381.6 357.9 329.2 343.9 363.4 379.2
394.7 386 377.2 370.1 364.5 359.3 354.7 349.5 340.9 333.3 330.8 329.6 325.8 322 318.6 315.4 315 322.1 328.5 334.3 338.4 334.9 331.9 327.5 323.2 318.7 315.5 311.8 305.3 301.1 297.1 287.2 284.4 282 279.2 281.1 281.7 280.9 279.5 277.8 276.4 273.8 274.7 277.4 276.8 276.7 274.3 274.4 267.4 264.1 263.7 260.5 263.4 259.7 260 262.3 259.3 257.3 253.8 251.7 248.7 248.7 245.4 243.6 243 240.6 228.4 233.1 233.5 228.4 218.7 208.9 196.7 186.2 183.6 184.3 184.6 190.2 210.2 237.2 258.7 270 275 280.4 284.5 287.4 291.8 293.1 294 297.7 303.3 308.6 317.5 323.9 329.1 334.2 339.1 344.8 352.4 361.4 367.8 368.8 370.4 368.1 364 357.6 354.9 351.7 351 352.5 354.9 358.6 364.7 375.2 385.1 394.2 402.1 408.8 415.6 422.6 428.8 436 443.4 448.4 450.2 446.2 448 450.7 454.4 459.9 466.2 477.3 485.2 492.6 505.2 512.6 515.9 521.4 529.7 537 540.1 540.7 540.2 536.1 532.2 527.2 520.3 515.7 517 517.8 521.2 524.6 524.6 522.9 519.8 518.3 516.5 517.2 519.8 525.9 529.6 527.6 524.1 520.9 517.4 513.6 516 524.5 526.2 524.8 528 531.3 532.3 534.3 537.3 538.7 538.4 530.3 517.6 504.5 493.3 482 469.4 460.4 450.1 439.9 416.1 388.2 352.2 333.6 356.3 372.5 384.6 384.8 367 344.8 328.4 357.5 379.2 394.9
395 386.5 377.7 371.5 365.7 360.3 355.3 350 344 337.6 331.5 321.4 320.3 316.7 314.5 311.2 310.5 317.3 323.7 328.9 331.5 331.5 329.1 326.2 322 318.2 313.9 310 304.8 301 294.2 286.4 283.8 280.1 277.7 281.4 279.1 278.7 277.1 275.6 274.8 273 274.4 275.1 274.6 273 270.9 269.4 267.5 266.2 264.9 261.8 261.2 261.6 256.9 254.9 254 252.4 251.1 253.1 255.9 254.4 247.7 242.2 236.7 226.5 237.7 235.7 232.5 227.1 214.7 205.4 196.8 187 184.3 184.1 183.3 190.4 210 237.2 257.7 266.7 274.1 281.5 288.4 292 296.2 297.9 298.7 302.8 307.9 311.8 321.6 327.9 333.7 338.8 342.6 347.6 354.3 362.6 366.1 364 364.7 361.6 355.7 348.9 346 344.6 342.1 342.7 345.7 349.1 355.1 363.5 373.7 382.4 390.9 399.8 407.4 414.9 423.8 432.7 441.1 449.9 455 459.2 463.4 466.4 467.5 469.7 472.8 481.2 488.4 500.3 511.3 517 524.3 530.5 533.1 533.9 531.2 526.5 522.9 518.1 514 509.8 505.5 505.7 508.8 510.1 510.4 508.1 504.3 497.9 492.6 488.3 485.4 485.9 501.4 518.5 524.2 520.5 516.1 511.6 505.5 500.5 500.9 507.7 514.3 518.5 522.9 527 528.5 530.7 534.2 532.6 527 517.8 507 495.8 486.7 478.1 471.1 463.8 455.8 449.1 425.1 396.6 363.5 338.4 332.7 346.6 361.6 364.9 353.6 328.7 336.3 364 388.3 406.4
393.3 385.8 378.2 371.8 366 360.2 355.7 349.8 343.3 338 332.3 326.6 320.6 314.5 309.2 306.7 307.4 312.3 317.7 323.7 326.4 327.4 327 324.7 321.7 317.4 312 308.4 303.7 299.1 291.4 285.9 282.6 279.8 276.4 275.8 275 274.3 273.7 273.2 271.5 270.3 270.9 270.5 270.8 269.7 270.7 273.2 269.9 267.3 263.7 261.9 260.9 262.2 255.3 253.4 251.9 251 252.5 255.5 258.4 255.3 249.1 245.9 239.6 242.6 241.1 234.6 228.6 221.6 213.4 202.1 190.2 185.2 183.7 183.7 183.2 190.3 209.6 233.9 253.7 264.9 273.2 282.5 291.3 293 299.6 301.4 302.5 307.5 312.8 315.8 325.2 331.5 335.1 340.3 345.6 349 353.7 357.9 356.2 353.5 353.5 349.5 343.8 339.4 336.6 332.4 331.6 332.1 335.1 339 344.7 353.3 362.1 371.3 379 388.5 397.2 405 415 426.2 437.4 448.7 460.2 468 473.5 475.8 477 476.9 476.3 481.7 490.8 502.9 509.8 520.1 521.8 519.9 519.2 517.7 514 508.9 504.8 500.3 496.1 492.9 491.2 493.9 498.6 497.9 496 491.8 482.9 473.6 465 458.2 458.9 476.1 498.4 514.1 517.5 513.9 508.5 502.7 493.4 489.6 486.6 490.4 497.9 505.8 514.3 518 519.8 520.3 518.3 514 508.6 503.3 495 486.3 479.9 473 467.5 462.1 455.7 446.7 430.7 407.4 377 349.1 330.5 327.9 337.3 346.1 337 322.2 333.9 361.1 384.6 400.4
390.3 383.7 376.9 371.3 365.7 359.4 354 347.8 341.4 335.8 330.3 323.8 318 313.9 309.3 302.8 301.9 305.7 310.1 316 320.6 322.9 323.2 322.9 320.6 315.9 310.9 306.9 302.7 296.9 287.8 285.4 281.9 278 275.8 276.3 275.3 274 272.7 272.3 272.2 270.4 270.4 270.3 270.6 273.3 275.7 274.2 270.7 268.2 263.1 261.6 262.6 256.7 254.9 253.4 252 252.5 254.1 256.8 256.6 254 254.1 252.8 250.6 247.6 243.3 238 231.9 222.9 215.7 203.5 188.3 185.3 184.3 183.8 183.2 188.1 208.1 234 252.7 263.1 270.4 281.5 291.5 292.9 299.6 302.6 305.2 310.3 317.3 318.2 326.5 331.6 333.7 337.8 343.5 343.8 346.6 345.8 342.8 341.6 340.8 335.6 331.7 327.7 323.2 321.3 321.4 322.4 325.7 330.5 336.3 344.6 354.1 362.6 367.8 374.9 384.1 392.8 404.5 418.5 433.4 446 459.5 471 478.9 481.7 481 477.7 475 480.7 489.8 498.5 508.8 510.1 507.5 506 502.4 499.1 495.3 490.9 486.5 482.3 478 475.5 476.8 481.8 487.4 486.4 482.2 475.8 464.2 452.3 440.1 438.2 455.5 478.9 499.2 509.5 511.8 507.9 503.4 495.5 492.6 489 483.8 480.6 480.8 488.2 495.2 505.3 505.6 503.4 499.1 494.9 490.9 485.7 480.3 474.7 469.8 464.1 458.1 451.1 441.6 436.5 428.8 416.1 383.9 356.5 337 325.8 322.7 326.3 325.9 317.5 327.8 347.5 369.8 387
386.6 381.5 375.2 369.5 363.7 357.3 350.7 343.7 337.9 331.8 326.3 320.1 316.9 313.2 307.9 302.7 298.5 300.3 304.3 308.5 313.2 317.7 320 320 317.1 313.5 308.9 304.9 300.8 294.3 289.4 286.2 282 278.1 276.1 274.9 273.5 273 272.2 271.4 270.4 270.4 270.6 273.6 274.9 278.5 278.2 275.8 271.9 268.6 263.2 262.1 262.1 256.1 254.3 253.8 254.6 256.1 254.5 255.3 255.8 256.7 258.1 257 252.6 248.9 245.2 240.2 233.3 223.5 214.1 200.9 191.7 187.6 183.3 183.7 184.1 190.9 207.1 230.4 248.2 259.9 267.1 277.5 287.6 290.8 296.8 297.7 304.7 311.8 319.7 320.2 324 327.1 327.4 329.8 331.5 333.3 334.5 331.9 329.2 329.5 325.1 322.3 317 314 312.3 310.7 311.2 313.5 317.4 323.8 329.4 337.4 346.7 351.7 356.1 361.6 369.9 380.4 394 410.7 427.9 443 458.4 469.9 479.1 482.1 478.3 472.3 465.3 475.2 484.6 493.2 498.3 495.1 491.6 488.7 484.8 479.5 474 468.2 463.3 459.8 457.5 459.8 465.9 473.2 477 473.2 465.5 456 443.7 429.5 423.6 439.1 460.6 483.5 501.7 509.4 508.8 505 501.9 498.3 496.8 494 489.6 483.3 475.7 470.7 474.9 480.9 482.2 479 475.7 471.2 465.3 460.9 458.4 455.5 453 449.2 443 435.1 427.9 421.9 417.1 403.6 381.5 360.4 342.9 331.2 323.3 318 317.2 317.6 316.6 331.4 350.3 370.4
382.1 378.1 371.5 365.8 359.5 352.9 345.2 339.2 333.6 328.1 323.6 319.3 315.2 310.3 305.6 301.1 297.1 294.7 298.7 301.6 306.2 311.9 317.2 316.6 314.2 311.3 306.9 302.7 299 294.5 290.9 287 283.2 280.7 277.6 274.9 273.3 272.6 271.5 271.3 270.8 270.4 273.3 278.8 279.7 280.8 279.4 274.8 270 266.3 261.8 261.8 262.8 255 254.3 256.9 257.5 255 255.7 257.5 260.1 260.7 260.7 258 255.7 251.9 247.2 239.5 230.1 221.6 209.8 199.3 195 189.1 184.5 183.4 184.5 189.4 204.9 227.1 245 255.1 261.9 271.5 279.9 286.2 290.6 292.4 302.6 312.7 319.6 318.6 318.4 316.2 313.8 314.2 314.2 317.8 319.6 316.5 315.5 313.9 310.3 306.6 304.6 303.2 302.6 302.8 304.7 306.9 310.4 315.7 322 328.5 335 338.8 341.8 349.4 360.5 372.4 386.3 402.8 419.6 437.7 456.1 468.4 476 477.6 470.2 456.1 450.7 461.6 472.8 480 481.1 477.4 473.1 467 460.3 452.2 445.9 441.2 437 435.3 434.6 442.5 455.3 465.6 464.8 458.6 448.8 436 421.7 411.2 424.2 445 465 486.6 505 510.9 507.7 505.3 504.1 503.9 501.9 499.4 496.9 490.3 481.6 466.5 454.9 457.9 457.1 453.5 449.6 443.8 437.7 437.4 437.9 437 434.4 429.2 421.1 413.7 409 403.3 396.6 383.6 368 354.6 343.4 335.3 333.3 328.2 323.8 319.1 314.7 311.2 322.7 347.6
377.4 373.7 367.1 360.7 354.9 347.7 342.1 337.6 331.6 325.7 322 317.3 312.6 308 303.5 299.3 295.2 293 295.8 299.2 304.6 310.1 313.3 312.9 312.4 309.5 305.2 301.8 298.4 295.2 291.9 288.1 284.3 281.5 278.5 275.8 273.7 272.1 271.2 271 270.4 271.7 274.5 277.6 283.6 284.4 281.7 275.6 272.5 268 264.2 263.7 262.9 259.8 255.3 256.2 257.3 255.9 259.6 263.2 264.6 262.6 261.7 261.9 258.8 254.9 248.8 240.8 232.5 224.3 214.2 203.4 196.7 188.3 184.2 183.4 184 187.7 202.6 223.5 240.7 250.8 256.6 263.8 273.1 279.4 283.3 288.4 299.7 310.7 315.9 314.1 311.4 306.4 303.1 301.2 300.4 299.9 302.4 301.9 302.1 299.1 298 297.3 294.4 300 300.3 301.4 302.3 304.1 306.5 309.9 314.9 320.7 325.4 329.3 336 346.7 358.5 374 387.5 404 421.2 439.3 456.5 469.8 480.4 479.9 461.5 444 431.7 441.3 452.8 458.5 457.9 452.9 445.8 439.8 435 429.8 422.4 415.5 410.9 411.7 417.6 434.6 449.3 453.2 451.8 442.7 431.6 416.1 404.3 408.3 428.2 449.7 469.6 488.9 504.8 507.4 507 507 508.6 510 511.9 509.3 503.1 497.6 483.8 466.5 448.5 435.7 436.1 431.5 426.5 419.7 414.2 413.3 416.5 418.6 415.3 408.2 399.2 393.3 386 377.1 369.5 364.4 360.7 353.9 352.3 344.3 343.8 337.6 334.5 325.2 321.5 314.4 309.1 325.6
373.3 368.5 362.8 356.7 351.1 345.4 340.9 336 329.8 325.2 319.8 315.2 310.9 306.4 302.3 298.4 294.5 290.2 293.7 298 303.4 306.8 309.7 311.2 309.2 307.9 303.8 300.9 298.2 294.9 291.9 288.7 285.4 281.8 278.7 275.9 273.5 272.5 271.2 270.5 270.7 272.1 274.9 280.4 286.6 287 285.2 278 272.1 267.6 263.7 264.9 265.7 263.3 255.7 256 256 258.2 262 267.2 267.9 266.4 266.5 265.4 262.1 257.1 250.8 243.8 235.2 224.7 214.6 204.5 196.9 188.1 184.4 183.7 186 190.6 201.7 218.3 234.8 246.2 253.5 260.3 267.1 274.1 281.1 287.3 296 306 310.1 308.6 303.5 298.2 294.2 291.7 289.9 288.7 288.2 287.2 286.4 282.7 292.6 299 301.7 303.2 304.3 303.4 303.8 303.8 305.7 309.3 312.9 319.2 324.8 329.9 336.3 346.6 359.6 372.5 388.4 407.3 425.7 445.8 461.5 474.9 483.2 474.4 452.7 429.8 417.5 425.2 430.1 435.1 434 429.8 426 421.4 415.4 406.9 399.9 394.2 393.9 405.4 417.9 432.1 438.1 438.2 434.7 426.8 417.7 406.4 397.4 408.2 429.1 452.1 472.1 489.8 504 508.3 510.5 512.4 514.5 517.6 521.3 520.4 511.2 499.3 484.5 469.2 453.5 443.2 430.5 422.2 416 411.6 406.6 398.7 396.4 397 394.9 388.2 380.7 375.5 371.6 373.3 377.7 380.4 382.7 380.4 374.7 369.2 361.5 347.5 337.5 337.7 337.6 329.4 313.6 307.3
369.4 364.3 359.1 353.6 348.4 344.1 339.8 334.4 328.5 322.9 318.1 313.4 309.3 305 301 297.1 293.4 289.1 291.2 296.5 300.2 303.7 307.8 309.9 308.8 305.4 300.6 297.4 296.6 294.2 291.6 288.5 285.3 282 278.7 275.7 273.4 271.3 271.3 270.3 269.3 273 277.6 284.1 288.8 288.2 284.9 279.6 271.8 268.7 265 267.1 267.2 263.9 257 257.5 258.1 261.6 266.6 270.2 272.5 270.7 270.5 269.9 265.7 260.6 252.7 243 235.2 225.2 215 206.2 197.4 189.6 183.8 183 186 193.3 203.9 216.8 231.4 244 252.1 261.3 267.5 274.5 282.6 286.9 294.1 303.3 304.8 301.6 296.6 290.4 285.1 281.6 278.3 274.7 273.2 274.5 278 285.7 293.5 299.3 301.8 304.8 307 306.9 308.3 309.7 309.4 314.8 316.8 321.9 325.5 329.9 336.3 346.8 359.6 373.4 389.6 410.1 429.3 447 462.8 477.4 481.2 466.3 444.5 419.5 402.7 411.2 416.9 419.1 417.1 412.2 408.2 403.4 393.3 387.4 382 380.1 390.5 405.3 415.7 423.7 426.4 424 420.2 414.4 407.6 394.3 392.2 408.9 431.1 453.7 472.1 492.2 505 510.6 514.8 522.9 527.7 533.4 534 529.1 514.3 501.3 488.5 478.9 470.2 457.6 443 435.6 431.7 428.8 419.5 404.1 392.5 387.3 384.9 380.9 383.7 386 388.7 392 397.6 406.9 410.1 409.7 400.9 388.9 371.8 349.4 353.4 353.9 357 348 329.7 306.3
364.3 359.3 354.7 350.1 346.8 342.9 338.5 332.9 327 321.1 316.7 311.6 307.6 303.4 299.5 295.8 292.2 288.6 288.8 292.9 296.3 301 306.6 307.3 305.8 303 299.1 296.3 295.3 293.4 290.9 288.1 285.1 282 278.6 275.1 272.7 270.7 270.8 269.7 268.7 275.5 280.7 287.4 292.4 290.6 287.9 282.5 277 271.9 266.6 268.6 269.6 263.4 259.5 261.7 263.1 267.4 270.3 275.4 276.8 274.2 273 271.8 267.9 262.3 252.7 242.6 234 224.6 215.8 207.9 197.8 190.1 184.2 182.6 184.8 192.3 202.4 215.1 232.7 244.8 252.6 260.3 266.7 274.7 282.8 286.5 292 297.1 297.5 293.1 287.6 281.4 274.6 269.8 266.1 263.9 266.8 273.4 280.1 287.2 293.6 298.4 301.8 305.5 308.5 310.1 312.1 313.8 314.9 318.2 320.2 325.4 328.2 332.1 338.6 349.3 362.2 375.9 391.4 411 432 447.5 462.2 474.2 473.7 459.6 436.8 412.4 390.5 394.7 399.4 401.2 399.3 397 393.2 381.8 377.3 372.7 368.7 374.9 390 402.1 411.7 414.7 415.8 412.4 409.4 397.5 388.4 383.4 394.9 413.8 435.5 456.8 475.3 493.3 503.5 511.9 523.1 536.7 546.4 549 543.5 530.1 519.2 511.6 506.7 498.4 488.3 476.6 467.1 460.3 455 447.3 436.2 419.7 401.1 389.2 392.8 396.5 398.3 403.3 408.5 417.2 431.2 437.9 440.8 436.8 426.5 400.9 372.8 358.2 369.1 374.5 374 364.2 337.9 315.7
357.2 353.2 349.5 346.4 343.2 341 336.9 331.4 325.1 319 315.1 310.5 305.8 301.7 297.6 293.8 290.2 286.7 285.3 289.1 291.8 296.8 303.3 303.1 302.5 300.6 297.5 295.4 293.9 292.2 290.2 288 284.5 280.8 278 274 271.3 269.5 268.7 268.2 270.3 277.6 282.8 290.5 293.4 294.5 291.8 284.9 278.2 275.3 267.9 271 270.3 261.4 261 263.9 267.2 271.7 275.7 280.2 281.8 276.8 276.5 275 268.2 263 254.9 242.8 231.7 225 215.9 208.7 198.8 188.8 182.9 182.6 184.5 190.9 199.5 212.3 229.6 243.1 253.7 260.2 267.1 275.9 282.4 284.7 287.4 292.7 289.9 284.9 278.3 270.6 262.5 257.5 256.1 261.1 269 274.4 277.4 283.5 291.1 296 299.2 302.9 307.5 312.4 315.3 317 319.2 322.4 324.3 327.1 332.3 335.5 341.7 353.1 365.5 378.9 394.1 410.2 430.4 447.1 461.5 471.7 467.2 453.5 429.8 403.8 381.9 377.3 379.2 379.2 377.1 374.3 371.7 368.4 364.2 360.5 361.4 375.6 389.8 399.9 403.9 399.7 396.8 391.8 384.3 378.1 377.6 387.1 399.2 419.8 440.3 458.3 471.8 490.1 501.5 513.9 531.6 549 558.1 550.7 542.1 534.2 528.7 525.1 522.4 515.7 508.2 499.5 491.9 486.5 476.7 463.8 443.7 421.5 400.8 396.3 412.2 414.6 419.4 425 439.4 447.2 454.9 462 460.7 448.8 425.5 398.4 368.8 376.8 389.9 390 383.7 371.6 349.8 330.3
348.1 346 343.8 342 340.2 338.4 334.4 328.8 322.4 316.8 313.2 308 303.7 299.7 295.6 291.8 288.3 285.2 282.9 284.6 285 295.1 299.2 300.1 299.9 298.7 296.5 294.1 292.1 292.3 290.2 288.4 286 280.5 275.9 272.9 269.3 268.8 267.6 266.4 270.5 279.8 286.3 293.7 297 297.9 292.8 285.3 281.3 277.8 272.4 272.5 269.3 264.6 264.4 267.5 270.7 275.3 278.8 283.5 283.5 276.9 280.5 276.3 268.9 261.5 249.7 235.4 226.4 223.1 214.1 208.4 198.7 186.1 182.7 183.2 184.1 190 197.9 209.7 226.8 242.2 251.7 259.3 267 275.5 281.6 282.9 284.3 285.8 281.1 275.8 266.7 257.4 250.8 251.3 255.8 264.1 269.8 274.8 277.9 282.8 287.6 292.8 296.2 300.5 305.7 312.5 317.1 320.2 323.5 326.7 330 335.2 339 342 345.3 356.9 369.2 382.4 394.9 409.9 431.2 445.3 458.3 463.1 459.3 449.3 429 401.9 382 370.9 362.8 360.6 361.1 360.3 358.3 356.1 352.9 354.4 363.6 376.5 385.6 392.4 392.2 390 385.4 376.9 369.1 369.6 377.6 386.2 398.5 415.9 430.9 444.8 458.1 476.4 493.6 510.7 531.4 544.3 545.2 543.7 542.1 539.6 536.6 534.1 530.6 525.2 520.2 515.8 508.5 499.6 486.9 464.5 439.6 416 401.7 413.2 425 432 439.5 447.9 459.4 469 473.8 475.1 466.5 444.6 419.6 390.7 381.9 396.4 405.9 402.9 398 387.6 368.3 345
337.9 337.8 338.3 337.4 336.4 334.7 331.1 325.8 318.9 314.7 310.6 305.6 302.2 297.1 292.7 289.7 286.4 283.4 282.2 281.4 285.9 294.2 296.5 297.6 297.8 296.5 294.7 292.9 291.8 293 291.4 289.4 286.7 282.2 277.3 273 268.8 268.3 267 266.9 273 281.5 288.5 295.8 296.6 295.4 290.6 287.4 281.7 278.7 275.1 273.2 272.6 266.5 267.3 270.4 274.1 278.4 282.2 284.2 282.8 277.1 278.1 273.7 263.6 253.9 239.9 226.2 222.9 219.6 214.6 210 198.8 189 183.7 182.8 183.3 189.3 196.8 211.8 227.4 242.2 253.8 261.2 267.4 273.8 280.3 281.2 278.4 275.1 271.2 264.8 254.4 246.2 248.5 254.8 259.4 263.2 268.3 274.5 278.8 282.2 285.9 290.4 294.8 299.1 305.1 311.2 317.5 323.9 329.2 335.1 340.3 345.6 348.9 353.1 357.9 363 372.3 383.8 396.9 409.6 426.7 440.2 449.8 452.2 449.9 447.8 433.6 407.5 384.4 371.6 359.4 348.9 347.8 348.3 347 346.6 348.4 357.2 368.7 377.9 382.4 382.9 381.9 377.4 371.3 365.6 364.3 370 377.3 384.3 392.4 404.9 417.5 432 445.6 463 482.8 498.4 514.7 526.4 535.1 540.5 544.2 544.6 543.5 540.3 535.4 529.8 523.8 518.4 513.1 502 483.2 456.2 431.2 409.7 410.8 425.6 438.4 447.6 459.3 470.1 478.1 484.1 484.9 477 460.9 435.7 405.7 392.5 403 414.1 418.7 419.8 418 408.9 385.5 358.4
327.4 327.1 330.2 331.7 329.5 328.9 326.8 321.8 315.1 311.6 308.1 302.3 299.3 293.7 290 287.7 284.9 282.1 281 279.9 285.4 291.5 293.4 295.5 295.9 294.5 294.1 292.2 291.8 294 293.8 291.1 287.4 282.3 278.1 274 269.6 266.8 264.8 269.6 275 283 285.5 294.6 294.1 293.6 292.5 288.1 281.1 277 277 278 278.5 270.9 270.1 274.2 278.3 283.6 286.3 287.1 280.6 274.6 270.8 265.3 256.1 246.7 230.3 221.7 220.4 218.1 214.9 209.6 199.9 190.5 183.4 182.7 182.6 188.3 196.5 210.8 227.5 242.2 252.9 259.5 264.8 272 279.3 279.7 272.7 267.8 263 253.1 243.8 244.7 251 255.3 259.8 262.3 266.5 272.1 277.7 283.3 286.7 292.2 297.1 300.9 307 314.5 322.1 329.9 337 343.4 348.8 352.9 355.6 360.6 366.1 373.4 378.4 383.2 397.5 409.3 422.2 430.8 438.4 442.1 447.8 448.1 438.6 415.4 392.5 375.8 361.8 347.9 339.1 337.7 337.5 344.1 352.6 364.2 373 376.1 375.7 373.8 369.9 365.1 360.9 358.8 365.7 372.9 379.9 387.7 398 407.9 418.9 429.7 441.1 455.7 470.4 486.3 502.7 516.7 529.3 540.8 547.4 551.8 551.3 546.2 539.3 533.1 526.3 519.4 513 497.3 474.2 446.7 422.9 414.6 426.4 439.9 452.5 463.9 476.7 483.9 491.2 493.9 487.2 473.7 449.7 421.3 407.3 419.8 426.8 430.3 434 437.9 441.1 426.9 401.7 375.1
323.2 316.7 319.9 321.9 321.1 320.4 320.4 317.1 311.6 308.3 303.1 297 295.6 290.2 287.3 284.9 283.3 281 279.5 279.1 284.4 288.4 290.6 294.2 294.9 292.8 293 291.8 291.8 294.5 295.7 291.6 286.6 280.7 277.1 274 270.2 266.2 264.4 268.1 277.7 279.8 284.4 289.1 290.8 294.8 292.1 288.9 284 278.8 281.9 284.4 283.5 273 272.1 279.2 282.5 286.2 288 285.3 277.9 269.6 263.9 258.1 249.4 239.7 224.6 221.1 218.9 216.7 214.7 208.8 199.5 189.9 182.5 182.8 181.9 186.4 195.4 208 223.3 240.7 252.1 258.8 264.3 269.8 273.7 270.9 265.3 260.5 252.9 242.5 242.4 247.6 250.1 253.1 256.5 259.8 263.9 270.1 277.3 283.7 288.7 292.4 297.4 302.4 309.1 316.8 326 334 341.8 348.8 355.9 360.3 364 368.7 374 380.2 385.9 389.2 392.1 401.8 410.8 419.7 432.7 445.5 449.9 451.5 447.8 427 401.4 381.6 366.9 352.1 340.3 334.2 332.1 340.9 352.7 366.2 373 369.5 367.7 365.1 361.4 356.8 353.2 359 365.9 374.9 384.2 394.8 405.8 417.8 428 438.8 448.1 454.4 467.1 480.2 497.7 515.3 532.4 547.2 557.3 562.6 560.5 552.1 542.5 534.6 526 517.9 509 487.8 463.5 438.9 419.6 429.2 442.9 455.2 467.5 478.9 488.9 496.4 503.2 502 486 467.1 438.4 423.6 434.9 444 447.3 449.5 453.4 459.7 457.6 442.8 416.6 384.3
323 315.5 310.2 312 311.7 310.4 309.9 310.8 307.1 302.5 296 289.5 286.3 285.9 283.5 282.2 280.7 279.4 277.8 277.3 282.5 284.6 288.1 292.6 292.9 291.5 290.9 290.8 292 295 295.7 291.3 285.7 279.5 276.1 273.3 269.9 266.1 263 263.9 270.8 276.8 281.6 287.5 290 293.1 290.4 282.3 279.1 282.6 290.2 290 285 274.9 275.3 283.4 286.8 291.2 291.3 284.6 275.7 265.3 258.6 252.2 243.8 233.8 227.5 223.5 219.8 218.1 215.2 208.4 199.7 190.4 184.2 183.1 182 183.3 193.1 206.6 225.4 244.5 253.3 258.9 263.6 267.6 266.3 262.2 257.4 250.9 243.7 237.6 242.6 244.3 247 250.7 255 259.4 264.3 270.5 275.9 281.3 287.1 291.9 296.5 304.6 311.1 318.6 328.3 336.6 345.1 352.8 361.1 368.3 371.7 375.9 381.4 387.2 392.3 397.7 400.5 403.3 409.9 422.8 436.9 448.2 450.3 458.4 455.2 437.6 413.5 393.8 376.9 360.8 346.3 333.9 327.8 332.6 344.7 363.4 361.1 358.4 357.1 356.2 354.3 350.1 353.5 360.2 368.3 378 389.6 403.8 416.8 428.9 440.5 451.4 461.3 469.7 475.8 489.5 509.4 526.2 544 560.9 569.9 571.1 561.4 553.2 543.5 533.4 523.9 516.4 499.1 476.8 453.3 433 433.4 447.9 461.7 472.4 482.5 492.7 501.3 507.7 509.3 500.5 485.1 460 432.5 447.4 457.4 463.3 466.2 469.5 476.3 475.8 468.1 450 419.5 387.9
321.9 315 307.8 303.5 302.3 301.2 300.8 301.5 298.3 293.3 286.8 282.9 281.4 282 280.6 279.9 278.9 277.7 276.2 275.3 279.4 281.3 287 292 291.7 290.5 289.9 291.4 291.8 295.2 293.8 290.2 283.9 277.9 275.3 272.6 269.3 266.2 264.2 263.9 266.5 273.8 278.4 285.9 284.4 282.6 281.8 278.7 281 289.1 295.2 294.7 290 278.7 278.3 286.7 291.7 295.2 294.5 286.4 274.9 266.9 259.1 253 244.7 235.5 230.1 225.5 221.7 219 216.2 208.4 201.3 194 186.4 183 184 184.6 192.7 206.7 226.1 241.1 250.4 257 261.4 263.7 261.6 256.9 251.8 245.2 237.1 235.3 240.8 244.4 248.2 253.4 257.3 261.2 265.4 270.6 275.6 280.1 284.1 291.1 295 302 312.5 319.1 329 339.4 348.4 358.6 365.4 374.9 378.3 382.6 388.1 393.9 398.2 403.5 407.7 409.9 415.8 428.5 439.3 445 451.7 456.3 450.8 440 423.3 406.5 386.3 369.1 353 336.8 327.4 325.3 335.6 349.8 348.4 347 346.6 346.7 346.2 344.1 351.3 360.5 371.1 382.9 398.8 414.2 428.5 442.1 454.3 466.7 479.7 490.6 499 506 520.5 537.8 556.1 573.4 577 567.6 559.7 550.8 541.4 530.4 520.3 509 489 467 443.5 439.1 452.9 467.7 481.4 491.3 500.1 509.3 513.5 516.4 512.5 501.3 479.1 453.4 451.9 463.7 473.1 479.5 484 491.5 494.5 488.6 472.8 452.1 421.9 391.6
321.9 315.2 309.3 303.7 297.7 294.2 293 291.5 288 285.3 282.5 279.3 279.3 279.3 278.4 278.1 277 276 274.5 274.2 275.6 278.4 286.4 288.7 288.1 288.4 289.4 291.6 291.7 293 290.5 287.2 281.6 277 274.3 271.7 268.8 266.5 264.1 264.3 266.3 267.6 271.9 274.3 275.3 278.3 281.8 278.9 285.3 295 300.9 300.2 295.1 279.1 279.2 289.7 294.4 297.1 296.4 286.2 278.6 270.7 261.9 255.1 247.6 236.9 232.3 227.4 223 219.7 214.9 208.2 201.3 194.4 184.2 181.8 181.9 184.1 191.2 204 221.9 237.5 248.3 256.7 259.6 262.6 259.9 254.2 247.7 239.7 233 239.7 243 246.8 250.6 254.3 259.1 263.8 268.2 272.4 274 279.1 283.9 289.9 293.7 303 313.5 320.6 330.2 340.5 350.8 361.1 369.5 378.1 383.8 388.7 394.9 400.5 404.3 407.4 408 411.4 419.1 429.3 433.4 437.8 444.4 444.8 440.5 432.4 421.8 409.8 389 371.8 355.5 339.5 327.5 322.6 328.6 336.9 336.7 337.4 338.2 339 338.6 343.4 352.1 362.6 374.6 389.7 407.6 426.6 442.8 456.5 469.9 483.5 498.8 514.2 524.5 532.3 539.6 550.5 564.5 571.4 569.6 563.8 557.1 548.8 539.2 525 517.3 502.4 482.8 470.4 452.5 457 474 487.4 501.8 512 518.9 521.8 524.1 522.8 515.1 502.1 474.9 453 466.6 480.8 490.1 497.2 505.5 510.7 508.1 494.5 477.9 454.6 426.2 395.7
321.4 315.5 309.3 303.3 297.4 292.3 290.2 288.1 285.9 283.9 281.6 279.4 279.3 279 278.1 277.1 275.8 274.1 273.3 272.6 272.7 277.9 282.7 284 285.3 286.6 288.4 289.5 290.4 290.2 287.3 284.2 279 276 273.4 271 268 265.7 263.2 265.2 267.7 267.5 269 270 272.9 276 277.3 281.1 289.3 301.6 306 306.3 298.9 280.4 280.9 290.5 295 295.9 294.2 286.9 281.4 272.3 265.2 256.8 247.5 239.5 235.5 228.4 223 219.3 214.3 208 200.2 191.5 181.9 181.4 181.4 184.8 189.7 201.7 221 239.8 248.8 255.4 258.8 258.7 256.6 249.7 239 230.5 236.4 241.1 245.1 249 252.7 256.6 260.8 265.9 270.8 275.4 279.2 282 284.7 287.6 291.7 302.4 312.3 320.3 330.7 341.1 350.2 361.4 372 381.5 388.7 394.6 401.6 406.4 409.5 407.6 409.3 413.1 416.8 421.8 423.3 428.2 431.2 431.4 428.9 423.2 415 402.4 387.5 369.8 353.4 337.1 324.8 320.3 322.3 326.1 328.4 329.5 331.8 336.4 340.9 347.2 354.5 365.8 382.3 397.8 414.7 433.6 452.2 471.2 487.9 501.4 516.5 534.1 542.4 546.4 551.9 558.7 565 567.4 566.7 562.4 555.5 546.5 535.6 524.9 516.3 506.5 498 482.2 465.8 472.9 494.9 507.3 520.9 527.8 532.3 532.6 532.1 526 517.2 503.9 476 463.9 480.7 496.5 507.4 515.6 524 524.8 520.4 501.8 479.9 456 429.6 399.6
319.2 315.3 308.9 302.1 295.7 291.6 289 288.4 285.7 283.7 281.5 279.3 279.3 279.2 277.2 276.1 274.7 273 272.2 272 272.6 277 279.3 281.2 282.9 284.6 285.8 286.9 287.8 288.5 286 281.7 277.6 274.4 271.9 269.4 265.6 263 264.1 267.8 270.1 270.4 271.2 271.4 275.7 278.9 281.3 285.1 292.6 304.4 308.8 308.7 298.6 281.5 280.6 288.6 294.4 295.6 289.6 285.1 280.5 273.1 264.5 251.6 243.8 237.7 237 230.2 226.3 220.6 213.6 206 198.1 188.9 181.8 181.3 181.5 183.1 187.9 201.3 218.3 235.4 245.4 251.8 255.5 254.6 247.8 239.5 227.1 235.3 240.4 243.2 247 250.4 254.8 258.8 263.6 268.8 273.6 278 282 284.2 287.7 290.1 293.8 299.7 309.5 319.4 329.4 340.4 350.5 360.7 371.1 382.2 392.5 399.6 408.4 409.8 407.6 409.3 411.2 410.6 408.6 412.1 414.9 417.2 418.8 419.4 418 412.7 406 396.4 381.8 366 347.8 325.2 320.3 318.7 322.2 323.6 328.6 329.9 334.2 339.2 343.8 350.5 358.1 371.6 391.6 409.2 426.2 443 459.8 478.8 498.1 517.8 534.3 541.5 546.5 551.1 557 563.8 568.2 569.3 568.1 561.8 551.8 541.4 531.6 525.1 521.2 517.1 512.3 497.8 484.9 485.7 510.5 524.9 533.7 538.1 540.1 539 534.6 529 520.9 504.7 475.3 476.6 494.9 509.5 520 530.2 533.2 528.3 521.7 500.5 477.3 454.4 430.1 403.8
316.6 313.4 307.4 300.5 295.7 290.9 288.4 288.4 285.7 283.9 282.9 281.6 280.6 280.1 278.2 276.4 274.3 272.8 272.1 271.1 271.4 274.3 276.9 279 280.7 282.2 283.2 284.3 285.2 285.9 284.2 279.1 275.3 272.7 270.3 267.9 263.7 262.5 265 268.8 272.2 274.8 275.8 274.4 275.2 280.6 284.3 290.6 296.6 306.9 307.9 306.1 296.9 282.4 278.4 283.2 290.3 290 284.4 283.5 273.6 266.6 258.1 246.5 237.8 237.1 235.9 232.2 228.7 222.9 212.9 202.8 194.5 187.8 182.1 181.4 181.3 181.8 186.9 200.1 214.9 230.7 240.2 247.6 252.9 246 236.9 225.4 233.1 240.2 241 244.9 248.4 251.8 256.1 261 265.8 271.1 276.6 281 285.2 287.4 291.2 294 295.9 301.2 308.4 316.5 325.9 337.2 348.4 358.9 368.6 381 394.2 402.1 408.5 411.1 413.1 414 412.3 402.8 399.3 401.8 403.3 405.8 408.4 408.1 405.8 402.9 397.2 385.6 372.7 354.5 335.5 320.3 316.1 322.1 326.6 330.5 335.7 342 347.2 351.8 356.6 364.7 370.8 375.5 398.5 418.6 437.6 455 470.2 487.7 507.6 528.1 535.6 541.6 547.8 554.7 563 571.9 576 576 566.1 555.8 544.7 535.8 530.8 528.7 526.8 526.6 523.4 517.2 506.4 501.4 522.6 536.8 542.4 545.2 543.5 540.6 535.5 530.5 523.4 504.3 479.5 490.5 507.4 521.5 530.4 537.2 534.6 530.5 519.3 497.5 476 452.7 430.3 408.2
314.4 310.7 305.7 299.6 295.8 292.1 290.1 288.3 287.1 285.6 284.7 284.3 283.9 281.3 279.4 277.3 275 273.5 272.3 271.1 270.1 272.5 274.8 276.8 278.3 279.8 280.8 281.8 282.7 283.5 282.9 276 273.3 270.6 268.9 266.5 260.5 262.5 265.7 268.9 272.2 276.8 278.1 277.6 279.9 283.2 286.1 294.1 300.3 306.6 307.2 302.9 295.3 281.4 274.9 276.3 281.4 282.1 279.5 275.8 265.1 256.3 247.7 240.5 238.5 237.9 237 234.4 230.7 224.7 215.3 204.8 196.2 188.7 183.6 181.8 181.3 181.5 185.1 194.6 210.1 225.6 235.4 242.7 243.6 237.7 229.4 218.3 233.2 241.7 242.8 246.4 249.8 253.3 257.7 262.9 268.1 273.4 279.6 285.1 290.2 292.2 294.9 298.1 300.1 304.3 310.3 317.1 323.6 333.5 344.7 355.3 366.8 379.5 393 400.7 410.9 419.8 422.3 418.5 409.4 398.4 389.8 387.5 389 392.9 393.6 393.6 390.5 387.6 381.1 373.7 362.6 343 323.4 312.7 319.8 326.5 332.5 336.7 342 351.3 358.9 364.7 371 377.6 388.2 396.9 399 427.2 446 463.9 480.3 497.4 509.3 520.5 531.4 541.3 548.6 556.7 566.4 577.3 584.9 571.1 555.5 544.8 536.1 531.5 531 532.5 535.6 534.6 533.4 531.7 527.2 524.2 532.6 543.1 546 546.4 544.1 541 536.9 531.6 524.3 500.3 490.3 506 521.6 532.6 540.6 540.9 537 531.8 514.7 493.3 472.2 452.3 431.4 411.7
311 308.5 304 299.7 297 295.2 291.2 290.3 289.7 289.2 288.2 287.7 286.4 283.6 281.7 279.6 276.9 275 273.2 271 269.2 271.1 273.3 274.9 276.3 277.5 278.5 279.5 280.5 281.9 280.2 274.2 271.3 268.5 266.8 264.9 261.6 263.8 267.7 272.1 274.9 278.6 280.8 280.9 285.9 288 292.1 298.3 303.3 306.7 307.9 301.5 292.1 280 272.4 271.5 273.6 271.1 267.4 260.1 252.4 247.1 245.3 243.3 242.4 241.7 241.4 239.6 234.3 226.7 218.6 208.9 199.5 191.3 186.3 182 181.2 181.2 181.6 191.8 209.5 221.6 229.4 235.2 235.6 222.6 215.8 226.8 234.6 243.1 244.9 247.9 251.3 255.2 259.3 264.2 271.5 278.9 284.5 290.7 295.4 297.6 300.9 304.1 307.2 310 316.2 321.5 328.5 336.8 346.5 357.3 368 379 392.1 400 413.7 423.8 423.5 415.7 407.5 399.7 386.2 378.4 376.9 379.3 379.2 377.1 375.2 373.7 367.4 363.6 352.1 332.2 312.6 314.5 321.6 333 340.2 342.9 349.8 358.7 367.5 375.6 382.6 395.1 406.4 417.2 425.1 431.5 455 470.4 487.2 496.3 506 518.9 530.5 540 548.7 558.6 567.7 572.2 564.5 552 539.7 532.1 527.3 527.3 530 537.3 541.3 541.2 540.4 539.8 541 542.1 544.4 546.5 546.9 546.3 544.4 541.3 536.8 530.8 520.3 497 502.2 519.5 534.6 544.7 547.2 544.1 538.1 527.2 508.4 488.1 466.5 446.7 428.4 408.6
307.2 304.5 302.7 299.9 295.7 296.3 293.6 293 292.5 292.6 291.8 291.1 289.2 286.7 284 281.4 278.9 275.9 273.5 272.1 269 270 271.3 273 274.3 275.4 276.5 277.5 279.7 281 277.9 273 269.2 265.9 264.5 261.5 261.6 265.6 272.2 276.6 278.2 282.1 284.5 285.9 290.3 291.3 294.8 300.6 305.1 306 306.7 299.4 288.6 277.9 271 268.1 266.2 263.6 259.6 256 253.7 251.4 249.2 247.8 246.7 245.7 243.8 240.4 234.3 228.2 220.9 211.5 202.7 196.6 191.3 185 181.4 181.3 183.5 190.3 205 215 222.3 227.7 228.4 206.6 222 228.4 237.4 246.4 247.5 250 253.9 257.9 261.4 268.1 276.8 285.9 292 296.7 301.1 303.9 308.7 312.8 315.4 317.7 322.7 326.6 333.2 342.3 350.6 361.3 371 380.9 391.1 398.4 412.4 417.7 413.9 409.8 406.4 399.2 384.4 373.2 367.7 365.4 362.7 361.8 361.4 359.9 357 354.9 341.7 321.9 307.9 316.5 325.7 339.6 344.8 348.1 357.2 366.2 375.5 385.6 398.5 411.6 424.4 435.8 444.9 451.9 461.6 472.7 485 493.9 506 520.1 530.5 539.9 549.7 559 558.8 551.2 542.5 530.5 521.7 517.7 518.3 522.2 531.8 539.5 545.2 545.9 546.1 546.4 547 548.2 548.5 549.1 548.5 547.2 545.3 542.1 536.6 523.4 513.3 511.3 519.7 535 546.9 554.8 550.9 546.4 538.2 523.6 504.5 482.8 461 438.8 421 401.8
304 303.5 302 299.6 295.7 297 296.3 295.7 295.3 295.4 295.9 294 291.5 288.9 286.1 283.5 280.7 278.1 274.5 272.5 270.5 268 269.7 271 272.2 273.4 274.8 276.9 279 280.2 274.8 271.2 267.4 263.9 263.2 258.4 262.4 268.4 275.2 281 284.6 288.5 289.6 291.5 294.6 294.8 299 303.6 306.1 305 302.8 297.3 284.9 276 269.7 266 264.8 262.9 260.2 258.5 257 255.4 253.8 252.1 251 249.7 246.7 241.8 235.3 228.6 222.8 212.9 204.5 198.3 191.3 184.1 180.8 182.2 183.7 187.2 198.6 206.8 213.5 217.8 212.2 216.6 223.3 229.4 237 249.3 250.3 252 256.7 260.3 264 272.5 283 292.7 300.4 305.5 309.5 312.5 316.5 321.8 323.5 324.6 327.9 333 337.8 347.7 355.3 365.4 375.1 383.3 389 395 401.1 403.8 404.7 405.3 401.7 392.9 380.1 369.8 363.6 359.2 355.2 351.3 347.2 345.5 346.7 345.6 334 312.1 309.2 320 329.2 339.8 345.2 351.8 362.1 373.6 384.3 398.6 414 427.2 441.7 454.3 461.8 465.3 469.9 473.9 481.3 492.7 507.3 521.6 531.2 540 548.5 544.5 538.9 526.1 515.3 507.1 500.2 499.9 507 519.2 531 541.6 547.3 549.8 550.6 551.6 552.3 552.5 552.8 553.1 551.6 549.8 547.3 545.6 542.5 530.2 531.5 530.2 536.9 546.4 557.6 557.2 553.4 548.2 540.9 524.6 503.6 478.4 454.7 432.4 415.6 397.7
302.2 302.7 301.3 301.7 298.7 299.2 298.9 298.4 298.5 298.8 298.3 296.1 293.4 290.5 287.9 285.7 282.9 280.1 276.5 272.6 270.9 270.7 268.2 267.7 270.4 271.8 275.4 277.3 279.1 277.7 272.8 268.8 265.5 263.2 260.7 259.3 266 271.8 278.4 283.4 286.2 291 293.3 295.9 300.4 298.8 302.7 307.5 308.4 304.7 301.1 293.4 282.9 274.1 268.8 265 264.8 263.2 261.4 260.6 260 258.4 256.8 255.4 254.3 252.1 249.2 243.4 237.1 229.7 224.8 215.5 205.7 198.4 190.9 181.4 180.8 182.1 183.7 186.6 191.7 198 199.1 202.5 203.6 218.3 224.2 230.4 240.4 253.2 254 255.6 259.6 262.5 268.1 277.9 288.7 299.1 307.5 313.3 318.7 320.3 324.4 330.1 331.7 332.6 334.7 338.6 343 352.7 360.4 370.1 376.9 379.5 379.2 381.5 386.2 392.2 396.5 397.9 390.6 380.7 369.8 364.5 362.8 361.7 358.4 352.2 343.7 335.6 332.7 336.3 326.6 305.5 310.9 320.5 329.1 337.2 344.1 353.4 366.1 379.4 394.2 411.1 426.5 441 454.3 465.1 465.5 463.9 466.3 469.3 475 489.4 505.7 519 528.8 533.7 531.5 521.1 506.9 499.1 490.6 482.6 477.5 481 500.7 516.1 530.2 542.5 548.9 553.8 555.1 556.3 557.2 557.2 558.2 558.5 557.8 555.6 554.7 553 550 547.1 546.5 548.2 551.8 556.7 560.5 559.1 555.5 550.5 539.4 525.6 506.8 480.8 453.9 433.4 415.1 398.4
299.5 301.4 301.7 302.4 301.2 301.6 301.7 301.8 302 302.4 301.8 297.7 294.9 292 289.7 287.5 285 281.7 278.9 274.7 271.1 271 270.8 269.9 264.6 269.6 274.9 277.3 276.1 272.9 269.8 266.4 262.7 260.7 256.8 260.6 267.5 275 281.6 285 288.6 294.5 296.7 298.7 302.7 301 305.5 309.5 310 305.6 299.9 292.9 283.3 273.6 267.8 264.8 264.2 263.8 263.2 262.8 262.4 261.1 259.3 257.8 256.6 254.7 251.4 245.5 239.3 233.5 227.5 217 203.8 196.5 190.5 183.4 180.8 181.6 183.7 186.3 187.7 191.3 195.7 206.6 212.7 219.8 225.1 233.9 245.3 257.1 257.8 259.6 262.2 265 272.9 282.7 292.7 303.6 313 320.2 327.1 329.9 330.8 337.1 339 339.8 341.3 344.2 348.7 357.2 366.1 371.2 371.7 370.9 366.9 361.3 373.4 381.3 384.3 381.3 375.1 366.1 358.4 357.5 361.9 367.9 365.3 360.4 351.9 337.7 327.9 320.4 316.3 302 309.5 318.7 325.6 334.2 342.9 354.5 369.9 384 402.1 420.7 433.6 449.3 456.3 460.6 453.3 454.8 458.9 463.1 467.4 476.9 493 503.5 511.2 510.2 502.9 489.2 482.3 474.2 462.4 454.4 458 472.3 488.7 510.6 528.5 542.5 551.2 556.4 559.3 560.6 562.2 563.4 564.4 563.8 563.3 563.5 563 561.1 558.2 556.4 555.5 557.4 560.6 560.8 560.5 559.7 556.2 551.3 536.2 522.7 510.4 486.7 462.1 440.1 419.4 399.3
293.6 297.5 300.9 301.2 302.6 303.9 304.5 305 305.4 305.8 303.8 300.5 296.9 294.2 291.7 289.2 286.7 283.5 280.1 275.1 271.8 270.5 272.5 273.6 275.2 267.3 268.1 274.6 272.3 270 266.8 263.7 259.9 256.7 256.4 263.4 268.9 276.5 284.1 287.5 291.8 297.8 300.5 302.7 305.8 302.1 306.7 311.7 311.4 306.5 300 292.1 282.8 272.4 266.7 265.2 264.7 264.5 265.1 265.4 264.9 263.3 261.3 259.9 258.8 256.8 253 248.7 244.6 240.2 232.4 219 204.9 196.3 190.6 183.2 179.7 180.5 182.5 183.8 189.2 194.5 199.8 206.7 214.4 221.9 229.6 236.4 244.9 251.8 260.1 262.1 264.7 268.4 277.2 287.9 297.7 308 317.4 325.9 333.2 337.8 337.1 342.2 345.6 347.1 348.4 350 351.3 360.1 366 365.2 363 359.8 353.3 342.9 357.1 365.3 366.2 363.5 358.9 351.4 346.2 350.9 360.6 367.2 369.4 367.6 362.8 347.6 329.3 316.8 308.1 300.6 299.3 311.5 319.8 330.7 340.5 353.5 372 388 406.2 423.3 433.9 446.5 450.3 444.6 437.2 442.8 445.5 450.1 456.7 464.8 475.9 483.9 489.8 487 479.4 467.5 455.8 443.4 432.2 432.1 448.3 471.3 493.7 514.6 533.7 549.1 557.2 561.3 563.5 565.7 567.6 569.2 569.9 569 570.8 571.3 569.9 567.4 564.4 563.6 562.7 562.6 560.8 558.9 557.5 558.5 554.9 544.2 530.8 517.3 503.8 487.5 466.4 446.9 426.3 407.1
285.8 292.2 297.1 300.8 304 306.2 306.9 307.5 308.3 309 306.5 302.8 299.1 296.3 293.8 290.8 287.4 284 280.7 277.2 273.1 272.4 274.5 275.5 277.3 271.8 262.3 262 267.4 266.2 263.8 259.7 258.3 255.3 258 264.3 267.6 276.6 285.6 289 295.4 302.1 303.9 304.9 309.4 302.7 308.9 313.1 312 306.7 300.7 291.8 281.8 272.5 266.5 264.5 265.1 265.4 265.9 267.1 266.7 265 263.7 262.3 260.9 259 258 256.3 252.8 249.7 236.1 224 209.9 198.7 191.4 185.4 179.9 179.5 180.5 182.4 187.6 193.7 195.7 202.5 214.6 226 233.2 239.2 245.6 251.6 260.1 265.1 267.2 270.9 280.2 291.3 301.8 311.6 321.4 327.4 336.4 343.5 342.5 345.9 351.3 351.4 352.7 355.2 352.2 356.7 358.1 355.9 352.9 348.9 339.4 328.5 338.6 345.3 348.1 346.2 341.2 336.3 336.3 344.5 357.7 366.7 374.2 375.3 368.9 357.8 337.4 319.2 308.2 299.2 296.3 299.6 312.1 325.2 337.2 351.2 368.7 386.2 403.8 418.7 430.4 435.5 434 428.6 419.8 424.2 429 434.2 440.8 449.1 457.6 466.3 472.1 467.5 455.4 443.6 426.5 412.5 420.9 437.3 457 478.9 501.2 524.2 543.4 555.8 562.6 566.4 567.7 570.6 573.3 574.9 574 575.5 579.3 578.9 577.2 575.1 572 568.6 567.5 563.7 559.2 556.6 555.3 551.4 544.3 536 523.7 510.7 497.9 484 466.8 447.6 430.1 412.3
279.2 284.1 291.4 299.8 304.7 307.5 308.7 310.5 311.8 311.6 308.6 305 300.8 298.3 296.2 292.6 288 283.9 280.7 277.8 275.5 274.3 275.9 277.7 278.4 278.4 272.8 265.3 259.2 258.9 258.4 256.8 257.4 254.6 261.4 264.9 268.4 275.3 281 288 296.1 305.8 306.6 305.6 308.4 302.3 305.7 310.5 312 306.4 299.8 292.2 281.5 273 266.2 264.7 265.3 265.5 266.5 267.2 266.1 266.7 265.6 264.5 264.5 264.8 263.7 264.3 261.8 254.2 240.5 224.7 211.6 201 191.6 186.3 181.1 179.5 179.3 178.6 179.4 189.9 192 198.4 211 223.4 236.2 242.4 249.6 255.3 262.7 268.9 270.4 273.9 282.8 293.6 304.9 315.3 324.6 331.7 338.3 346.7 342.8 346.3 349.1 349.2 351.6 354.9 351.8 348.6 346.8 345.3 341.7 335 324.8 317.3 320.8 325.7 326.8 326.1 324.3 325.6 331.3 343.4 356.7 366.9 376.4 375.8 371.7 363.5 348.2 327.8 310.8 301.5 294.2 292.6 302.4 318.6 332.4 346.5 362.8 380.9 397.9 410.4 419 420 418 412.4 403 404.1 410.7 419.4 426.8 435.6 444.5 449.2 453.5 448.4 436.5 421 400 410.9 427.4 445 465.4 488.3 512.6 532.9 552 562.7 569.2 571.1 572.5 575 577.9 578.9 578.6 584 587.2 586.6 585 582 576.1 572.8 566.5 561.7 558.1 553.6 548.5 541.5 534.1 525.5 515.9 502.6 489.1 475.7 462.4 444.7 427.7 410.3
276.6 278.3 289.9 298.8 303.9 307.2 310.7 313.5 315 313.8 310.7 306.8 302.7 300.2 296.3 293.3 287.8 283.9 280.7 276.6 276.4 277 277.3 279.5 279.9 277.9 273.2 268.7 262.5 256.3 254.7 253.3 253.1 252.9 261 266.2 270.5 275.9 280.7 288.4 296.7 303.1 308.4 304.1 302.2 300 305.1 310.7 309.9 305.6 298.3 290.9 280.6 272.8 267.3 264.1 265.3 265.7 266.7 267.7 268.1 268.1 267.1 266.7 268.3 269.3 267.3 267.5 261.8 256.8 246 230.3 216.9 200.8 193.4 187.6 182.8 179.9 179.9 178.8 178 184.3 188.3 193.2 205.1 220.2 235.8 248.6 257 260.4 268.7 273.4 274.7 277.9 282.8 295.9 308.2 316.1 326.5 333.7 336.4 340.6 338.8 337.8 339.1 340.2 342.2 343.3 342.6 340.3 337.6 333.5 328.1 321.2 312.9 304.6 305.4 309 310.6 311.1 314.5 321.1 331.3 345.6 356.8 365.2 370.1 370.9 371.6 368.6 356.3 336 315.8 303.8 294.5 291.1 293.2 309.9 325.3 340 354.6 372 389.5 400.3 403.6 402.2 396.2 390.7 383.3 385.4 392.3 401.5 414.3 424.2 434.2 439.3 441 428.6 411.6 390.9 400.2 415.8 432.6 451.2 474.5 499.2 519 538.1 557.8 570.5 575.4 576.9 577 579.2 583 583.8 585.7 590.2 591.7 591.9 589.6 584.7 578.4 571.6 564.8 559.3 554.1 547.3 539.2 531.3 522.3 511.9 501.1 489 478.1 466 452.2 436.6 421.7 407.2
275.7 278.5 287.6 296.6 302.6 307 312.7 315.9 317.1 315.1 310.9 307.8 302.8 301.1 297.4 293.2 287.5 283.6 280.5 277.9 276.4 277.5 279.4 281.5 281.7 278.4 273.5 268.5 262.2 257.6 253.7 252.2 251.6 252.1 262.2 268.7 273.4 278.2 280.3 285.3 293.8 298 305.2 300.8 298.8 298.9 302.6 308.9 307.7 302.8 295.7 289.3 280 272.4 266.2 263.8 265.4 266.4 267.6 269.2 271.5 270 270 269.6 272.1 269.5 270.5 269.8 266.6 258.9 250.7 235.2 219.3 202.1 193.5 188.1 183.6 181.6 180.3 179.1 177.8 177.9 182.2 186.4 199.1 217.2 232.8 249.1 261.7 270.1 277 278.3 278.4 281.7 284 296.1 307.9 316.5 326.8 331.2 329.2 330.1 328.8 327.6 326.8 324.8 326.6 330 331.5 331.7 330 324.1 317.5 310.2 301.3 296.7 297.1 298.3 301.7 304.8 311.5 319.4 330.3 342.2 351.3 358.4 363.6 367.2 370 368.2 359.7 345.3 324.4 308.5 294.8 289.2 288.8 301.3 316.6 331.3 345.2 360.3 378.8 384.3 387.6 384.9 377 373.1 367.7 370 376.3 387.8 399.9 414.2 424.6 429.9 424.2 410.5 383.4 385.9 402.3 419 437.2 460.3 484.8 506.4 525.9 542.2 560.1 573.3 578.2 581.2 581.3 582.7 586.7 589.3 591.2 593.6 595.2 594 589.6 583.8 577.1 569.7 563.1 556.6 550.6 541 528.6 513.1 504.6 494.9 484.6 473.3 462.9 451.7 438.9 425.8 413.5 400.2
274.5 276.4 284.9 293.4 299.8 306.5 313.9 317.7 318.3 315.3 311.1 307.2 301.6 300.9 298.4 293.4 287.6 283.3 280.2 277.9 276.4 279.1 281.5 283.6 282.7 278.5 273.4 267.9 262.3 256.6 253.5 250.2 249.8 253 263.9 271.8 277.6 281.5 283.6 285.4 287.6 291 296.9 298.6 298.6 298.5 301.2 305.9 305.2 300.4 292.9 286.2 279.9 272.3 265.9 262.7 265.5 266.8 269.1 272.1 273.1 272.8 271.4 271.1 271.5 271.7 271.1 269.6 265.1 259.9 253.9 238.4 222.1 206.4 197.2 190.8 184.6 183 182.2 181.4 178.9 177.5 175.9 180.2 190.6 208.6 228.1 246.4 259.9 272.4 280.1 281.5 281.1 284.3 286.6 294 306 315.2 324.9 325.6 320.8 320.8 317.9 314.4 309.5 311.1 313.8 317.6 320 321.3 320.1 315.9 309.3 301.1 293.1 291.1 291.4 293.6 296.9 302.8 309.7 317 326.8 336.5 347.8 353.7 359.1 364.9 368 366.1 362 352.9 334.9 314.8 301.2 291.8 287.2 293.9 304.8 320.1 333.9 347.4 360.4 373.1 370.3 365.2 360.3 355.2 351.1 358.7 365.5 380.1 394.3 407.4 416.1 419.5 403.2 388.9 374.9 385.5 403.8 421.9 441.1 468.7 489.6 510.9 527.4 540.3 556.4 569.6 577.8 583.4 585 586.9 590 593.7 595.2 596.1 597.2 593.4 587 580.5 573.7 566.7 560.4 553.3 543.7 532.8 519.3 503.3 480.2 474.1 465.8 455.3 446 435.6 426.2 415.2 401.5 386.3
274 272.3 278.5 288.7 296.2 303.1 313.1 316.3 316.3 313.8 310.1 304.3 299.6 298.2 296.2 291.7 287.6 282.9 280 278 276.6 280 283.5 285.7 284.3 278.4 272.6 267.4 261 256.8 254 250.6 247.3 257.3 266.6 275.7 282.3 287.5 288.4 289.1 291.4 293.2 295.7 298.2 298.5 299 305 307.1 306.6 301.1 292.2 284.5 278.1 272.4 265 261.8 266.1 268 270.5 272.3 273.4 272.2 272.6 271.8 273 272.6 272.3 269.1 264 260.9 252.9 240 225.8 211 200.5 193.3 186 185.3 184.2 182.9 182 178.4 176.4 176.8 183 201.5 225.9 245.5 259.2 272.4 281.3 283.1 283.1 285 287.1 288.9 300.6 309.1 314 314.6 311 306.6 303.4 300.6 298.8 299.5 302.2 305.7 308.8 309.8 309.3 305.6 300.4 295.6 288.1 285.4 288 290 294.4 300.6 307.7 312.4 321.4 330.3 339.6 347.1 353.1 358.7 362.3 363.7 362.6 358.2 348.5 324.7 309 297.3 287.9 284.4 296.3 308.5 324 339.6 346 348.9 348.2 345.5 342.7 339.2 341.4 348.4 364.6 380.3 391.3 402.8 412.6 402.7 386.4 370.1 369.7 386.6 405.4 425.4 444.9 470.1 490.3 506.9 517.7 529.7 540.5 554.5 568.8 578.5 585.3 590.4 593.5 596.9 597.7 596.9 594.6 589.7 583.2 576.4 569.7 563.1 555.4 545.7 534.6 523.2 507.5 488.8 471.2 447.4 445.5 435.5 427.6 421 410.7 399.6 385.3 370.1
272.7 271.1 272.4 281.5 293.2 302.3 311.2 312.1 312.5 310.7 307.8 299.1 298.4 296.7 294.4 290.3 285.7 279.2 278.9 278 278.3 281.5 285.9 288.2 284.4 278.3 271.8 267.1 259.2 258.6 258.1 248.4 247.8 260.1 270.9 280.3 287.7 293.2 294.7 294.6 293.7 296 298.1 300.1 301.5 302.6 304.9 308.2 308 303 294.2 285.7 278 272.7 263.8 261 266.6 268 269.8 273.2 273.7 273 273.2 273.5 274.3 271.1 270.2 264.7 259.5 260.6 250.4 238.4 226.8 213 203.4 192.5 187.4 186.8 184.9 183.2 181.4 178.8 176.4 176 176.4 194.3 220.4 242.2 256.5 267.9 279 281.6 281.3 284.6 288.7 289 290.6 296.4 302.9 299.7 297 295.5 293.1 290.2 289 288 290.3 294.3 297.9 298.8 298.8 295.4 292.4 288.1 282.8 280.5 284.3 285.4 291.1 297.4 302.1 306.2 313.9 321.3 329.7 337.6 345.3 351.2 355.8 360.2 362.3 361 357.2 337.7 319.3 304.9 294.8 284.2 284.8 296 311.2 322.9 326.9 325.8 324.9 325.6 326.1 327.1 332.2 347.1 367.7 384.5 391.6 399.4 406.1 391.6 376.2 355.5 369.2 386.5 406.6 427.4 447.6 462.8 475.9 488.7 498.4 508.7 521.8 537.8 554.4 569.5 581.2 589.8 596.8 599.8 597.2 594.3 589 582 574.9 567.5 560.4 556.1 548.7 537.2 525.1 509.9 490.8 473 456.1 439.7 422.6 417.7 409.4 403.1 393.7 381.9 367.1 360.4
274.7 275.1 269.8 272.7 284.9 296.1 302.3 304.4 306.4 303.2 300.8 299 298.7 296.3 292.5 288.1 283.8 280.1 278.3 278.6 280.5 283.3 287.7 289.2 284.6 276.8 270.1 266.9 262.5 261.3 260.3 246.6 254 265.9 277.2 287.2 294.8 300.8 302.5 301.9 301.1 298.7 299.9 301.9 303.9 305.6 307.4 310.9 309.5 304.4 296 286.7 278.5 272.1 263.2 260.9 264.6 267.5 270 273.3 273.6 272.9 273.6 272.2 268.5 265.8 261.6 256.6 256.7 255.9 247.4 235.3 223.7 211.9 203.3 192.2 190.7 188.7 186.2 184.9 183.1 181 177.5 175.8 175.6 189.9 213.8 236.6 254.1 263.1 275.5 279 280 281.2 282.6 287.4 285.9 284.7 288.7 288.2 286.6 285.9 283.8 279.5 276.9 275.9 279.5 283.1 286.8 287.9 288 285.8 283.8 282.3 277.4 276 278.2 281.7 286.7 292.8 297.2 301.8 307 313.7 321.8 329.6 336.7 344.8 354.1 359.9 363 365 362.4 351.9 332.5 317.6 307.8 291 278.4 283.5 295 304.9 308.1 308.6 309.5 311.8 313.7 322.4 336.1 351.3 368.9 385.1 392.1 398.2 396.3 382.2 360 350.9 366.1 383 400.8 414.1 428.5 442.6 458.7 470.1 477.8 486.6 500.1 527.1 546.3 560.6 573.5 583.8 591.9 596.6 594.1 590.6 582.9 574.5 566.7 559 551.9 547.7 539.9 527.9 513.1 495.1 474.7 456.3 441.3 426.9 413 402.7 395.3 386.7 375.7 374.8 379.4 384
276.8 276 272.8 269.1 273.9 280.3 285.1 290.6 294 295.2 295.9 296.7 298.9 295.7 289.1 285.6 282.1 278 278.2 280.3 282.8 285.7 289.4 290.9 284.4 274.6 269.7 266.5 263.4 261.3 257.8 246.4 261.8 273.4 282.1 295.2 303.8 308.6 309.2 308.6 307.4 305.1 303.5 304.4 306 308.3 310.9 314.2 312.6 306.6 298.1 288.2 279.4 272.7 263.4 259.7 261.2 264.5 268.5 271.2 270.6 270.6 270.8 266.5 259.9 257.1 253 248.3 245.1 242.3 234.7 223.7 213.2 202.7 197.6 199 193.9 190.9 187.7 186.5 185.5 183.4 179.8 176.1 174.8 184 205.7 229.8 246.7 256.7 265 271 271.7 269.9 271.7 274.5 275.9 274.6 277.5 276.9 275.5 274.6 271.9 267.1 264.5 264.8 268.8 273.1 275 276.2 277.1 276.6 276.2 275 271.8 271.4 272.7 276.1 281.8 288 293 297.2 302.6 308.7 317.6 324.1 335.5 345.3 354.6 362.1 368.7 372.1 370.2 360.5 344.7 331.2 320.4 302.8 278.4 278.1 282.3 287.7 292.5 296.4 300.7 306.1 316.7 330.9 345.2 360 374 389.9 392.5 395.4 386 373.4 352.8 347.1 360.9 371.7 384.2 396 410 424.7 438.6 449.8 458.3 471.7 501.3 525.7 541.9 555.2 568.1 578.6 588 592.5 592.2 589.5 581.6 571.1 561.3 553.4 544 538.5 529.5 515.7 499.1 480 462.3 443.4 427.8 417 404.6 399.3 401.1 398.4 397.4 396.1 401.1 406.8
278.7 277.1 274.5 269.3 267.1 269.5 270.2 273.3 280.6 288.8 289.4 288.1 287.3 283.5 278.9 275.9 276.7 276.4 278.4 281.2 284.9 288.2 291.6 291.2 283.5 272.7 267.8 265.7 261.4 249 241.5 251.9 267.3 279.7 290.8 302.8 311.5 315.4 316.7 316.7 314.8 310.9 308.1 309.5 310 312.6 314.7 317.2 315.7 308.9 300.2 289.7 281.3 273.9 264.7 259 258.6 262.1 265.6 267.2 267.6 263.5 261.2 256 252.4 246.4 244.1 240.1 232.6 225.7 217.5 209.2 201 206.4 208.5 204.4 197.6 192.2 188.3 186.5 185.2 183.4 178.6 175.4 174.6 177.7 198.4 222.2 240.2 248.6 255 258.7 258.5 257.3 256.7 257.8 259.6 260.9 261.4 261.3 262.9 262.6 259.1 254.9 252.3 252.7 257.6 260.4 262.1 263.9 265.5 266.9 267.9 267.1 266.1 266.1 267.1 270.8 277.1 282.7 289.5 294.9 301.8 309.7 318.4 327.3 337.7 346.7 355.6 364.1 375.8 378.2 373.6 362.8 351.4 338.3 331.4 309.7 285.5 273.6 276.4 282.3 289.4 297.3 303.7 312.6 329.6 342.3 354.2 367.4 379.2 387.7 390.5 385.2 377.7 363.5 345.6 340 351.8 360.2 369.1 379.4 393 410.5 427.6 442.8 458.1 475.6 498.5 518.9 535.3 549.3 563.6 573.8 582.6 589.7 589.5 585.8 578.4 567.1 556.8 547.4 533.4 524.9 514.7 499.5 484.6 468.9 448 431.2 419.5 415.7 418.6 419.3 417.1 418.1 416.9 417.6 422.8 427.1
280.3 278.4 275.6 272.2 267.1 265.7 265 266.3 267.7 271.5 277 277.1 274.4 271 271.5 276.2 275.9 274.9 278.2 281.3 284.5 289.9 294.1 293.5 282.1 270.1 265.1 262 253.4 239.1 247.7 261.1 271 283.1 298.7 310.7 320.9 322.8 323.2 322.9 320.5 316.4 312.6 314.4 314.6 316.2 318.4 321.3 319 311.5 302.5 292 282.4 275.4 267 259.7 257 259.2 261 261.8 262.2 255.7 254.4 246.2 239.7 232.2 228.4 224.9 212.3 208 210.6 209.2 212.6 213.7 213.7 208.6 201.8 194.9 188.9 185 183.5 182.2 177.7 174.9 174.5 176.1 191.5 213.2 231.2 240 245.6 248.3 247.2 245.7 244.4 244.9 245.8 247.3 248.2 248.5 248.8 249.5 246.6 243.1 237.7 240.5 244.9 246.9 248.7 251.5 254.6 257.4 258.6 260.1 260.7 262.5 264.1 268.1 273 279.2 286.4 293.3 300.4 311.2 319.9 330.3 340.1 347.7 355.4 365 374.9 376.9 370.1 360.9 351.3 341.7 335.3 311.8 291.6 273.4 272.9 282 291.7 300 309.5 323.9 338.9 350.9 359.6 371.3 375.9 381.3 379.6 372.4 362.8 347.8 332 332.9 350.6 364 379.7 394.1 406.7 419.8 433.5 446.2 461.4 475.8 490.8 508.2 528.3 543.4 558 569 576.5 583.3 582.9 579.8 573.9 563.9 553.7 542.5 530.2 506.7 498.5 486.5 471.5 454.4 438.7 432.9 434.7 438.7 440 440.3 438.5 437.6 437.5 438.7 442 444.5
281.9 279.3 276.9 274.7 269.8 266 264.6 263.6 262.9 262.9 264 267.5 270.4 269.4 268.8 273.2 271.5 270.3 276.6 279.5 282.5 287.2 290.2 290.8 279.3 268.2 264.7 256.3 240.9 237.6 255 266.6 276.1 290.3 307.9 318.6 328.8 330.5 331.8 331.3 328 321.4 317.6 320.2 319.3 320.5 322.2 325.1 321.9 314.2 304.4 293.3 284.3 275.6 268.3 260.2 257 255.9 256.5 254.8 250.7 247 244 241.2 226.9 221.2 220.5 223.9 223.2 222.4 217.1 217.6 220.2 220.8 218.5 212.2 205.2 197.4 188.4 184.1 182.4 180.9 179.3 175.3 174.5 173.3 185.7 204.3 222.7 231.9 236.6 238.6 237.8 236.9 234.2 232.2 230.4 231 232.3 234.7 233.3 233 232.6 229.3 226.5 229 232.8 234.6 238.3 242.9 246.5 248.4 252.2 254.9 256.6 259.6 262.2 266.1 269.7 276.9 284.3 291.4 298.2 308.3 319.6 330.1 338.3 348.2 354.8 366.1 377 372.4 364.3 356.5 350.5 342.8 331.6 314.3 294.9 275.7 269.9 279.2 289.3 299.9 312.6 329.3 342.5 351.3 359.3 363.5 364.9 362 359.9 356.3 344.9 329 322.4 340.9 359 373.9 396.9 408.7 419.5 428.9 437.9 450.6 461.6 474.1 487.3 499.6 520.8 536.6 550.1 564.2 572.2 578.1 580.4 576.4 571.3 561.7 551.5 539.3 526.5 511.3 491.3 469.5 456.4 445.9 447.3 451.5 455.4 456.2 458.2 460.5 458.8 458.6 457.5 457.7 459.3 459.9
283.2 280.8 277.7 275 271.9 268.8 266.1 263.7 262.7 261.8 261.1 261.1 264.8 264.1 261.6 263.1 262 262.6 270.6 276.6 279 281.5 282.2 281.5 273.8 266.5 262.5 249.6 236.4 243 259.6 269.6 280.6 296.2 311.2 329.1 340 337.9 339.5 336.9 333.1 326.8 323.6 325.7 324.2 325.1 326.9 328.3 325.4 316.2 306.1 294.8 284.6 275.7 267.3 261.8 257.7 255.1 253 250.4 245.4 241.2 233.2 228.4 228.5 230 228.9 229 228.6 227.9 226.5 228.3 228.3 227.4 222.4 213.5 206.4 197.5 189.3 186.1 183.3 180 178.9 176.4 174.7 173.9 179.8 196.4 211.9 221 227.9 230.4 228.2 227.1 222.3 217.4 214.5 214.7 216.8 218 217.5 216.9 219.4 217.3 220.7 222.9 226 229.8 234.8 238.8 243.4 247.1 250.8 254.3 257.1 259.4 260.5 263.1 266.3 272.8 280.2 288.2 296.4 304.8 313.5 324.6 334.1 346.3 354.3 363.2 366.9 362.7 357.3 352.9 349.1 343.4 331.1 312.7 295.1 280.2 269.6 273.1 282.8 295.6 313.7 327 339.6 347.9 350.6 349.8 348.6 348.1 347.7 340.5 325.6 312.7 323.5 351.1 367.1 383.5 401 415 424.3 432.2 439.3 448.7 459.7 471.3 485.2 498.1 515.2 531.2 546.4 562.5 571 577.2 579.8 574.5 568.9 560.3 549.9 537.9 523.1 505.9 483.6 471.5 472.6 470.3 468.1 469.5 472.2 474.7 477.2 477.8 475.6 475 472.3 470.4 469.7 464.9
284.9 282.2 279 275.1 272.3 270 266.8 264.1 263.3 262.6 262.1 261.6 258.1 256.4 254.3 251.9 252.6 252.5 261.6 269.4 273.9 275.9 276.2 274.5 268.1 262.8 259.5 242.8 234.2 246.9 261.5 274.7 284.9 299.6 319.3 339.3 347.6 344.3 344.9 343.4 337.3 330 331.7 332 330.7 331.3 330.4 332.7 328 317.7 307 295.7 284.8 278.9 268.4 262.8 258.8 256.2 254 250.6 245.3 236.3 240.8 238.6 239.3 236.2 234.6 234.3 234.7 234.2 234.8 235 236 234.4 225.2 215.6 207 199 193.2 190.4 184.9 179.9 179.6 175.3 173.7 172.6 176.9 189.1 203.1 213.6 219.7 220.2 217.7 216 211.8 204.4 202.7 208.2 209.9 210.8 211.5 214.3 216.5 219.9 222 224.2 229.2 233.7 238.6 244.4 249.2 251.3 253.1 257.1 260.1 262.9 264.4 264.9 265.5 269.6 275.8 284.3 291.1 298 305.7 314.9 329.4 342 347.6 351.4 352.8 352 352.2 351.1 349.9 345.6 332.4 312.4 297.1 282.1 270.8 267 275.2 289.6 307.8 322.8 332.5 342.3 340.6 335.2 327.8 323.7 319.2 315.1 306.7 315.6 345 359.2 372.5 387.6 401.9 414.7 423.7 428.6 434.2 440.7 451.6 463.2 479.8 496.5 514.3 530.4 547.6 563.6 571.5 576.5 579 572.7 566.4 558.7 548.2 535 517.9 495 493.2 495.4 493.6 490.1 487.1 487.7 490.3 492.8 493.6 492 489.3 485.9 481.8 476.3 472.1 465.8
286.5 282.9 279.3 276.1 272.7 270.6 267.2 266.1 267.5 267 268.5 267.5 266.4 265.2 262.4 256.1 249.6 246.8 250.7 260.1 268 270.5 271.8 269.6 264.8 260.1 254.1 242.2 235.5 249.2 261.3 276.7 288 305.5 329.6 345.6 352.9 352.2 351.4 349 344.1 336.5 339.3 340.5 339.9 338.5 334.2 335.7 330.5 317.3 307.9 296.2 285.3 280.1 271 264 259.3 256.3 254 250.1 244.8 242.7 247.7 248.4 248.2 247 243.8 241.7 240.8 241.5 241.8 245.5 242.9 236.1 229.1 219 210.2 202.9 197.6 194.9 188.6 182.8 180.5 176.3 173.8 173.3 173.6 181.7 192.8 203.4 207.5 208.2 208.2 206.7 202.6 209.4 214 213.4 212.8 213.1 214.6 216.4 219 222.1 224.3 227.6 232.4 237.7 242.9 248.6 255.4 257.2 257.7 259.2 262.7 265.5 267 268.1 268.5 268.1 274.9 281 287.2 292.9 299.7 306.7 319.1 327.9 333 335.2 337.3 344.1 348 352.4 353.6 348.9 337.5 322.1 305.5 285.8 275.4 267.3 266.9 277.2 290.6 304.8 319.4 325 318.4 307.9 299.7 299.5 301.3 302.7 305.8 326.5 354.8 361.7 371.8 384.9 397.1 406.4 412.7 416.4 422.8 428.3 437.1 449.6 470.1 490.2 511.4 530.1 549.1 563.8 571.4 575.6 576.7 571.8 565.1 557.6 547.5 536 522.3 515.1 512 510.2 507.7 505.2 503.1 504.3 505.5 506.4 506.8 505.9 499.4 493.9 488.7 479.6 472.7 463.8
287.2 283.2 279.6 276.7 272.1 270.1 267.3 269 271.4 273 274.2 272.8 270.9 269.2 266.6 260.3 252.7 247.1 244.7 249.7 262.6 267 267.6 264.5 261.1 255.8 250.1 239.8 239.4 254.8 265.3 278.1 293.1 313.1 339.1 349.9 355.8 354.2 357.6 355.9 351.4 344.5 346.5 347.6 345.9 346.7 339.4 334.8 326.5 315.8 307.9 296 287.1 280 270.6 264 259.6 256.9 253.9 250.3 242.1 248.3 252.5 255 254.4 253.2 252.2 248.3 248.5 248.7 251.1 252.3 248 240.2 232.2 222.2 214 205.4 200.9 195.3 189.9 181.1 178.5 177.3 174.9 172.2 173 178.6 184.4 194.2 196.7 198.3 199.3 195.2 204.1 212.4 216.1 216.5 217.6 218.7 220.4 223 224.8 227 228.8 231.6 236.8 243.1 248.7 254.3 260 263.3 263.3 263.4 266.4 268.2 270.7 271.1 272 272.3 273.4 277.4 284 289.5 294.2 299.8 305.3 311.7 317.1 320.8 330.1 342.5 350.5 356.6 359.2 353 343 330.8 316.7 297.4 283.9 273 263.4 265.4 275.2 284.5 301 309.7 293.5 288.1 298.5 303.4 306.4 308.2 309.6 318 342 354.5 362.1 374.1 386.1 393.6 394.8 399.5 406.2 415.1 433.8 453.2 473 498 515.8 534.2 552 563.2 569.6 574.6 574 572.1 566.1 558.6 550.5 542.2 533.6 526.3 523.1 521.2 518.7 518.5 517.9 516.4 518.6 517.9 516.8 513.9 506.5 497.7 490.3 480.8 471.7 460.6
287.7 284.2 280.2 275.5 272.6 269.1 270.3 274.7 276.9 280.8 282.5 280.1 277 274.3 271.4 265.6 257.2 251.9 248.6 243 257.8 263.8 263.4 260.5 255.1 248.8 233.2 231.6 248.3 259.6 268 283.5 299.1 320.5 344.8 351.9 356.6 363.7 366.4 366.4 358.9 352.7 354.9 359.6 359.7 354.6 343.1 329.2 321.8 312.3 306.7 293.3 287.2 279.2 270.1 263.6 259.6 256.7 254 250.1 246.9 252.4 255.2 257.9 258.9 260.2 260.5 257.4 257.6 259.6 259.2 253.8 248 240.3 232.7 224.9 217.5 210.7 202.1 195.1 189.8 183.6 179.7 177.3 174.7 172.7 172 174.4 180.2 183.9 186.8 188.8 186.7 196.8 206.4 213.9 216.9 218.9 221.7 224.8 227.1 229.4 231.3 233.7 235.2 236.8 242.5 248.3 254.9 260.7 267.4 269.9 270.7 270.2 271 272.9 273.8 274.5 275.4 275.7 278.5 279.7 284.3 289.2 293.2 297.3 302.2 306.1 313.2 323.7 335.4 346.7 355.8 361.7 361.6 356.1 347.2 338.6 325.7 310.7 294.2 282.9 268.9 258.8 264.4 271.7 282.7 290.5 283.4 300.6 313.2 320.7 326.7 328.2 322 319 322.8 332.2 349.1 362.2 368.5 372.2 372.7 388.7 415.7 440.7 455.9 476.5 498.6 512.1 523.6 539.6 553.4 561.9 567.3 572 573.6 572.6 566.9 559.9 553.4 545.8 538.4 532.1 530.1 529.7 533.9 531.6 529.1 529.9 529.5 525.3 522.3 518.5 509.2 498.6 490 481.4 470 456.1
289.3 284.9 281 275 271.1 270.2 274.4 278.6 284.3 288.9 291.7 289.7 286.2 281.4 277.5 271.6 261.7 255.5 251.7 243 247.8 260.6 259.4 256.5 252 235.4 234.3 250.6 262.9 262.8 271.5 290.4 306.8 323.6 340.9 353.5 364.5 374.3 379.1 378.8 367.5 359.2 363 369.7 363.2 356.4 344.5 325 315.9 307.6 300.9 291 285.8 276.9 268.9 263.4 259.7 256.7 254 245.1 252.7 255.5 257.7 260.8 265.8 266.8 267.4 265.9 266.3 266.5 262.1 255.6 249.3 240.3 234 226.8 220.8 212.9 205 195.2 187.5 183.7 179 176.9 174 172.2 172 173.2 178.7 182.2 183.7 182.5 190.4 198.7 207.8 212.7 217.6 220.7 225.6 229 232.5 236.1 238.6 241 242.6 243 248.2 254.6 260.6 268.3 274.9 280.9 280.8 280.2 279.4 279.6 279 279.4 279.3 280.5 282.4 283.7 287.5 292.5 298.5 303.4 307.9 313.5 321.5 333.2 344.4 354 360.6 365.4 363.6 356.8 350.7 343.3 334.5 324.7 308.5 294.1 280.2 264.5 257.3 261.5 269 270.8 282.2 310.5 331 343.7 348 352.4 352.8 341.6 330.1 328 332.8 347.9 356.6 368.1 384.8 407 437.8 454.6 476.6 500.9 510.1 518.8 531.3 540.8 549.8 557.1 563.2 568.6 572.1 572 567 560.6 554 548.1 540.3 536 535.8 540.6 541.6 540.5 539.9 537.4 533.9 528.1 525.8 521 510.7 498.2 490.3 481.3 469 454.8
290.2 284.9 280.9 273.1 271.7 274 279.2 286.3 292.6 297.3 301.6 301.2 298.3 293.4 287 278.9 269.1 259.4 252.2 242.1 248.9 255.9 255.2 251.9 242.3 227.8 237.3 258.4 265.4 265.8 276.6 295.6 310.3 326.5 343.1 360.3 375.4 387.5 392.9 390.5 377.8 364.9 364.5 368.2 362.3 353.1 337.7 319.3 310 302.5 294.5 289 283 274.5 267.8 263.2 259.6 256.8 254.2 247.6 254.2 257.7 260.7 263.9 267.4 273.4 273.8 274.9 274 271.6 266.4 260.4 253.4 245.5 237.5 231.9 225.4 215.2 205.5 198.2 189.7 182.8 178.8 175.6 173.3 171.6 171.8 173.8 177.1 180.2 180.7 181.6 191 197.5 205.2 211.6 217.2 222.2 226.7 231.9 236.2 240.4 243.8 246.3 249 250.7 254.1 261 267.1 274.7 282.2 288.5 290.4 290.2 289.1 289.1 287.7 285 284.8 285.2 286.7 288.7 290.6 296.4 305 312.8 318.3 326.7 335.1 343.6 354.3 361.2 365.7 367.4 363.5 357.1 353.2 347.4 343.1 336.2 323.5 305.1 291.1 275.8 260.6 254.7 258.8 261.2 284.8 316.3 337.1 347.5 356.3 365.9 371.6 367.5 361 351.6 337.7 342.6 357.7 378.2 398.1 419.4 447.2 463.7 490.3 503.2 512.2 520.5 527.8 536.4 544 552 558.4 564.3 569.4 568 563.2 557.5 551.3 545.3 539.1 534.3 533.6 533.8 535.5 538.2 539.1 536.1 531.8 525.8 525.2 521.4 512.5 500.2 492.1 483.5 473.4 466.7
286.6 281.1 275.2 273.2 275.3 280 287.8 295 302.1 309.4 313.4 313.7 310.8 305.9 295.5 286 276 266.1 256 249.5 236.2 235.2 244.3 245.4 234.8 225.8 238.3 256.7 261.1 266.4 281.1 299.7 317.1 336 355.4 372.6 386.3 402 405.9 400.9 387.8 372.2 367.1 358.5 348.9 340.1 322.7 310.3 301.8 296.1 291.2 286.2 278.6 273.1 268.7 263.8 259.6 256.5 253.3 249.6 255.5 259.3 262.6 266.8 270.7 277.1 279.7 281.4 281.3 280.7 273.8 267.4 261 252.9 243.4 240.1 229.9 218.2 208.5 199.8 188.2 180.5 177 174 172.9 171.7 171.9 174 175.8 177.6 178.9 181.7 188.4 194.7 202.8 209.8 216.6 221.9 227.2 232.9 238.6 243.7 248.5 252.2 256 259 261.3 266.7 273.4 280.9 288.5 296.1 299.7 300.5 300.9 301.1 300.6 296.5 295.7 294.2 294.9 296 298.5 302.2 310.2 317.5 325.8 336.8 344 353.1 361.9 367.6 371 368.2 364.5 360 354.2 351.1 349.1 341.8 333.5 317.2 299.3 283.3 264.6 253.4 253.8 267.2 287.8 317 335 348.3 362.8 375.6 385.5 385 377.8 368.3 353.5 346.4 361.7 382.2 400.9 420 446.2 464.4 485.8 499.7 509.6 516.7 521.2 528.4 537 546.2 553.8 559.3 563.7 562.4 558 553.2 547.8 541.9 534.2 526.8 520.5 517.6 522.8 523.9 525.7 526.6 524.6 522.9 522.6 520 512.7 502.7 495.8 488.3 480.6 477.4
281.6 276.7 275.6 276.5 281.6 288.8 296.5 306.9 316.2 324.3 328.1 326.9 322.8 316.4 305.4 292.8 281.8 273.4 261.5 251.8 245.4 239.7 231.5 235.8 230.5 224.7 239 255.7 260.8 269.4 285.9 305.2 324.8 345.7 365.6 384.5 393.8 413.8 415.9 409.9 396.6 380 369.3 352.4 336.7 324.9 311.5 301.9 296.9 293.5 289.6 284.3 278.2 273.6 269.4 263.9 260.2 257.1 253.9 251 255.8 259.9 264 268 272.3 278.6 285.7 290.1 291.2 289.9 282.9 275.1 268.7 260.6 251.7 247 233 218.8 207.5 196.3 186.7 180.4 176.7 172.6 171.8 171.5 171.6 173.6 175.2 176.3 177.2 180.4 185.9 192.7 200.3 208.1 215.8 221 227.2 233.7 240.3 246.5 252.2 257 261.7 265.5 270.4 274.4 280 288.7 296.5 303.7 309.3 310.5 313.1 313.5 315 314.1 308.3 306.3 306 306.1 309.2 311 315.5 323.5 331.9 340.9 351.9 358.8 371.6 374.4 372.9 369.4 365.7 362.5 354.1 350 343.8 335.1 328.4 319.1 302 278.8 259.5 248.3 254.8 269.5 288.2 315.8 332.1 348.2 365.4 381.4 392.8 394.5 391.5 383.5 369.8 362.5 360.8 377.8 396.9 414.7 435.8 453.5 470.7 489.5 501.5 507 512.9 520.1 528 539.5 548.4 552.9 556.7 555.5 552.6 548.5 543.3 535.3 525.7 514.4 497.1 498.4 503.6 506.7 511.4 515.3 516.8 517.5 517.5 518.3 512.9 505 498.3 491.9 488.3 488.3
279.1 279.5 280.1 283.6 290.9 300.2 310 317.3 330.1 338.4 343.4 342.6 339.1 328.4 315.7 300.7 289.4 280.4 268.9 257 249 243.2 235.1 230.3 229.4 223 238.9 253.5 260.7 272.1 292 312.7 331.2 354.2 372.2 388.7 403.1 420.1 421.9 415.5 403.3 386.5 367.1 352.9 333 319.2 305.9 298.3 295.5 292.7 288.9 283.4 277.5 272.5 268.5 264.1 260.5 257.4 254.4 251.9 256.5 260.8 264.8 270 277.2 284.5 292 298.8 301.1 298.9 291.5 283.7 277.8 268.3 260.6 249.4 233.1 222.6 211.8 202.6 191.8 183.5 177.5 170.1 170.6 171.4 171.9 173.4 174.1 174.9 175.7 179.9 184 191.5 199.3 207.1 214.5 220.6 226.8 233.3 241 247.8 255.5 261.5 265.9 271.1 277.1 282.5 286.4 295.1 304.9 313.3 320.1 320.5 321.9 323.4 328.7 327.7 320.9 318.4 318 319 318.8 319.5 321.8 329.1 336.1 344.7 355.2 365.1 373 377.2 374.9 371.2 367.6 362.4 352.7 343.6 334.9 326.8 319.4 307.3 290.4 268.8 252.8 246.8 256.2 270.8 288.9 312.7 329.7 345.7 362.2 380.4 391.5 396.1 398.2 397.5 394.1 384.4 373.8 369.4 386.8 403.8 419.6 437 449.5 471.8 487.4 491.4 501.4 511.7 520.9 529.9 543.7 548.9 551.2 549.6 547.2 543.7 535.8 526.3 515.8 499.4 477.3 479.4 486.8 491.1 495.8 500.6 504.2 507 509.2 510.3 510.1 505.6 499.2 495.7 496.7 501.1
284.4 285 287.5 294.9 305.3 315.1 323 330.9 342.4 351.2 358.5 359.8 351.8 340.8 327.4 310.7 296 287.2 276.3 263.5 252 242.7 232 225.2 226.6 222.2 234.8 250 259 275.5 298.6 316.6 337 356.1 373.6 385.3 403.6 421.1 424.8 416.7 404.7 383.4 365 353 334.3 317 301.2 297.2 296.3 294.8 289.6 284 277.9 273.2 268.8 264.2 261 258.1 255 252.8 256.5 260.9 265.9 275 283.6 292.7 301.9 307 309.4 307.5 300.3 292.1 284.7 273.7 265.8 251.4 240.8 228.7 221.1 208.5 195.3 186.2 179.2 174.9 170.9 171.6 171.8 171.7 172.5 173.3 174.2 180.3 184 190 197.6 204.6 213.4 220 226.5 233.1 240.7 249.5 256.8 264.2 269.2 275.6 282.7 288.4 293.3 301.5 312.4 322.2 329.8 332.5 329.9 331.5 335.5 338.2 332.1 330.7 329.7 329.8 328.7 328.7 328.9 333 339.5 346.3 354.1 364.2 372.8 376.6 375.1 371 367.4 359.4 347.4 332.9 323.6 314.4 306 293.6 274.8 257.9 248.1 244.6 258.6 270.7 289 309.3 328.1 343.4 358.8 374.4 388 395.9 402.7 407.8 410.7 406.2 397.6 386.6 380.7 393.7 408.5 421.9 433.6 450.9 463 474.2 487.1 500.2 514.1 523.8 536 544.3 546.2 545.1 542.7 536.8 528.3 518.9 504.8 481.9 463.8 465.6 471.8 475 477.8 481.7 488.1 494.4 498.6 501 501.8 501.6 498.9 498.7 502.4 507.1
289.2 293.5 300.6 309.9 321.9 332.6 339 342.7 355.8 364.9 368.6 370.5 363.4 353.5 338.6 320.4 304.1 292.7 282.7 264.1 248.7 236.2 228.5 224.5 222.4 220.6 228.4 245.1 258.1 278.1 296.9 316.3 329.8 348.6 364.7 377 397.6 416.4 421.7 413.8 399.5 380.4 364.4 353.7 335 312.5 299.4 298.2 298.3 295.5 289 284 279.2 274.8 270.4 265 260.5 258.5 255.8 253.5 256.4 261.9 270 280.7 291 301.6 310.3 315.3 318 316.1 308.4 299.7 291 279.9 271.7 261 248.7 235.2 226 211.3 198.2 188.6 179.2 172.9 170.6 170.4 170.7 170.9 171 171.6 171.9 175.9 179.6 184.2 196.2 204.5 211.6 217.2 226.2 232.9 239.9 249.3 257 265.2 272.1 279.2 288 294.9 301.3 309.3 320.3 332.1 339.5 344.2 339.7 339.6 340.4 343.5 343 341.6 340.2 339.3 337.7 335.9 334.8 336.1 339.1 345.1 352.1 360.7 369 373.4 374.7 369.2 362.2 355.2 344.1 329.5 315.7 306.5 296.9 280.9 268.2 255 243.5 245.6 259.4 272.8 289.7 309 326.7 341.2 354.4 365.7 384.2 394.8 404.1 415.5 420.6 425.7 423.1 412.3 405.4 405.6 407.8 414.3 426.3 439.8 451.4 462.5 478.1 495.3 510.5 521.4 531.7 539.7 542.8 542.1 538.4 532.5 525.1 512.8 494.8 474.2 456 454.4 458.6 457.6 457.2 460.9 470.7 480.1 484.9 488.5 490.8 491.4 493.4 496.1 500.9 504.8
299 306 316.4 328.8 341.2 349.8 352.9 354.1 365.6 372.3 377.5 380.1 371.9 365.4 347.1 329 312.8 300.7 288.1 265.1 251.1 238.5 232.4 226.3 222 220.4 228.8 239.1 253.4 274.2 291 306.1 319.3 334.6 350.6 368.6 390.1 409.9 414.6 405 390.3 375.7 363.6 349 327.9 307.1 302.2 301.3 300.3 296.3 289.7 284.7 280.4 276.6 272.1 266.7 261.2 258.6 256 254.3 257.5 264.2 274.6 286.3 298.3 307.8 316.8 323.5 325.6 324.6 317.5 308.4 299.1 287 277.7 269.7 254 241.9 226.3 212.9 200.6 191.5 180.2 174.9 171.3 170.1 170.2 170.3 170.3 170.4 170.2 172.3 175.4 183 192.4 199.5 207.3 216.9 225.8 232.6 239.8 248.1 256.9 266 274.2 281 289.7 302.3 310.4 318.7 328.8 340.4 346.6 350.4 348.2 347.7 347.8 350.1 350.2 352.5 351.2 347.4 344.4 340.2 337.4 333.6 331.9 338.9 347.9 356.4 364.5 367.8 367.5 365.2 357.4 350.9 342.3 331.1 318.4 307.8 297.1 283.5 273 259.5 241.8 244.5 257.5 272.3 289.4 308 325.1 340.5 353.5 369.6 387.6 398 413.4 424.6 431.3 437.5 439.6 437.2 434.4 432.7 433.8 433.1 439.5 445.7 453.7 466.7 484.4 500.8 510 519.9 531 537.8 540.6 541.6 538.4 531.5 520.2 505.4 486.9 466.7 448.8 441.4 439.8 438.9 439.3 443.1 452.6 462.2 467.4 472.5 475.5 478.5 483.1 488.5 495.1 502.8
310.9 321.6 334.7 348.2 359.1 361.9 361.7 362 372.4 381.5 387.6 387.5 378.6 375 356.1 338.1 323.1 309.4 293.5 273.4 259.2 245.4 237.3 227.8 222.2 220.8 227.3 235.6 248.4 263.4 278.9 292.4 306.6 321.4 338.2 359.9 383.6 403.3 403.8 391.8 379.3 372.4 354.9 335.8 315.8 310.8 306.8 304.1 302.1 296.9 290.3 285.4 281.3 277.1 272.3 267 262.5 258.5 255.3 255.8 260.2 268.4 278.5 291.8 304.1 313 321.2 330.6 332.5 333 326.3 316.3 307.2 294.3 284 275.8 260.4 247.4 226.5 213.6 203.3 194.8 187.2 180.3 172.6 169.7 169.7 169.7 169.7 169.7 169.5 169.4 174 181.9 188.8 195.3 202.5 212.1 221.2 230.8 238.3 246.6 256 265.5 274.7 282.2 290.8 305 317.8 326.1 333.6 342.1 350.1 353.9 353.3 352.6 355.2 356.3 357.5 360.6 357.8 356.3 348.2 341.4 335.8 327.8 323.5 331.7 341.5 351.1 357.4 360.6 359.7 355.6 352.6 346.3 338.8 329.6 318.1 306.8 298.2 287.4 278.6 257.4 237.2 246.1 262.6 276.1 292.5 308.4 325.3 341.9 358.8 377.9 392.1 406.8 422.1 430.8 438.9 445.3 449.5 452.2 456.4 459.4 459.3 458.7 461 466.2 473.1 481.8 493.8 507.3 516.8 523.7 532.3 538.4 542.1 542.4 539.3 530.5 518.9 504 483.1 458.3 442.4 426.4 422.5 419.9 419.4 426.4 436.3 442 448 453.4 457.3 459.6 463.2 476.6 489.5 498
323.4 338.7 353.4 366.4 370.9 370.2 367.1 368.6 378 388.3 397 390.3 387.9 381.6 364.1 346.9 331.7 317.7 301.1 283.2 266.9 254.3 241.2 230.3 222.6 218.8 223.3 232.2 244.6 257 267.2 282.6 298.7 314.6 331.7 353.3 378.4 393 389 378.1 372.6 359.3 342.1 323.7 315.4 313.1 311.1 308.4 303.6 296.8 291.5 287.4 283 278.4 273 267.8 263.3 258.7 256.8 258.1 263.7 272 283.4 296.8 308.2 317.2 326.8 337.2 339.1 339.7 334.1 324.4 315.1 302 288.1 278.4 264.6 249.2 225.8 214.8 206.6 198 190.8 185.5 178.3 172.1 169.6 169.2 169 168.9 168.7 168.6 172 182 187.4 192.5 197.8 207.3 215.8 225.9 233.2 241.9 253.2 262.5 272.8 282.3 291.6 302.9 317.1 327.2 335.6 342.8 347.9 350.8 353.4 355.4 358.7 360 363.8 365.7 359.5 354.6 347.9 340.5 331.3 321.2 317.1 324.6 334.9 343.2 349.4 351.8 351.8 350 346.3 339.7 333.4 326.8 315.1 305.4 298.2 284.6 268.9 247.9 236.4 252.1 265.2 282.9 301.4 315 332.9 351 369.6 386.3 399.1 414.3 427.7 435 445.8 454.9 460.3 466.9 475.4 480.5 483 482.9 485.8 488.8 492 497 502.9 510.4 518.2 525.9 533.7 540.8 544.9 544.2 540.1 530.8 518.9 504.9 486.4 461.6 441.7 424.9 410.8 402.8 399.9 404 410 417.7 424.6 431 435 434.3 443.2 465.8 481.4 493.8
339.7 356.4 372.1 381.6 380.8 373.9 369.3 371.6 380.3 390.4 394.7 394.3 398.6 388.5 372.3 356.3 341.3 326.8 311.2 293.9 276.5 258 243.5 232.6 222.4 216.7 222.5 231.4 241.1 250.8 261.3 279.5 294.5 309.2 328.2 348.9 371.4 381 375.4 372.4 361.9 347.8 331.8 321.1 318.8 316.4 314.2 311.3 304.8 298.5 294.3 291 286.2 279 274.1 268.2 263.7 259.2 258.9 261.3 267.3 276.5 287.2 298.7 310.2 320.3 333.3 342.4 344.2 346.4 342.5 332.1 321.8 308.5 295.4 280.4 265.7 245.5 226.7 216 208.3 200.9 194.9 189.5 182.4 176.6 169.1 169.2 168.5 168.4 168.4 168.2 169.1 178.4 184.5 188.4 193.9 201.6 211.5 220.6 227 237.6 248 257.4 268.1 278.4 289.3 300.7 312.7 324.5 334.5 338.7 340.8 344.7 350.5 354.9 359.6 364 367.3 365.6 357.5 350.1 344.6 336.1 324.9 313.5 310.8 317.2 327.3 334.1 339.2 342.2 343.3 342 337.1 331.6 328.3 320.6 311 301.4 292 276.6 256.4 240 236.6 255.1 268.8 286.8 304 321.4 341.1 358.9 376.2 389.9 404.6 416.6 429.7 437.1 449.4 461 467 476 483.7 487.9 493 496.7 501.1 504.8 506.2 506.9 509.6 511.7 514.8 522.6 530.8 539.2 546.2 544.8 541.1 531.3 519.3 505.5 488.8 466.2 443.4 426.3 412.1 401.5 391 381 383.2 390.7 397.2 405.2 404.6 407 426.9 452.1 471.5 485.1
353.8 373.5 387.5 389.7 383.9 375.2 369.3 370.7 376.1 381.9 391.4 399.9 406.2 391.6 376.7 363.3 344.6 332.9 319.8 299.1 284.3 267.7 248 235.1 226.2 216.8 219.8 228.9 238.8 248.6 257.5 273 288.3 303.5 323.6 342.6 361.4 367.6 366.4 363.9 352.2 340 328.6 324 322.2 320.5 316.6 311.7 306.6 300.7 296.9 292.7 286.3 279.8 275.1 269.3 263.8 260.4 261.6 265 272 280.8 289.5 299.4 312.5 324.8 339.3 348.7 349.7 352.2 348.8 338.7 327.4 314.6 301.8 285.9 266 248.7 234.6 221.5 211.1 204.5 198.7 190.9 185.3 178.9 169 168.5 168.2 168.4 168.2 168.1 168 171.9 179.4 185.7 190.2 195.9 204.7 213.4 219.8 229.6 240 250.2 259.8 269.7 280.9 293.1 305.5 315.5 323.3 327 332.1 336.4 344.7 351.1 357.1 363 365.1 359.7 351.9 346.2 339.6 329.5 317.9 306.7 303.5 307.8 316.6 323.7 328.4 332 333.8 331.8 328.5 325.6 322 311.9 303.4 294.3 281.2 264 246.2 232.5 241.1 254.7 270.7 289.6 308.1 326.6 344.4 362.2 376.9 389.5 403.1 415.9 428.1 436.7 449.1 460.7 469 477 484.6 492 499.2 504.3 510.5 512.7 512 511.6 508.5 508.1 510.7 514.1 524.7 535.7 542.8 543.1 539.6 530.9 519.6 505.7 489.9 469.3 448.4 432.3 422.3 413.8 405 391.1 373.6 363.8 371.5 380.4 384.8 399 422.3 444 463.9 477.2
365.6 383.4 393.1 393.9 387.6 375.5 366.6 364.5 366.8 373.8 382.8 391.8 397.8 390 375.1 362.3 348.1 336.8 322.4 303.2 288.3 269.7 253.4 239.7 230.1 219 216.1 226.2 236.5 246.4 259.3 266.8 281.1 297 316.5 333.6 348.7 357.1 359.6 354.9 345.7 338.2 331 329.2 327.1 322.1 317.9 313.2 307.9 301.3 297.4 292.6 286.5 281 275.9 270.4 264.4 261.6 265.3 269.2 277 285.1 292.7 303.2 314.4 330 345.2 354.4 354.8 358.5 354.7 343.7 332.6 320.3 308.3 292.6 272.1 254.7 242.2 227.2 217.1 208.6 202.3 195.5 187.5 174.8 168.7 168 167.7 167.4 168.2 167.6 167.3 168.9 177.7 183.7 188.3 193.5 199.8 208.1 215.9 223.4 231.5 240.2 249.8 259.8 271.4 282.3 292.3 301.6 308.7 315.2 321.9 328.8 337.5 345.7 352.8 359.2 358.3 353.2 348 342.5 333.6 323.8 313.2 301.9 294.3 296 303.7 309.9 317.7 320.8 322.6 322.5 321 317.9 311.7 304.4 295.8 284.1 270.1 252 236.4 231.7 241.9 256.2 273.2 290.2 308.3 322.8 338.1 355.7 372.7 382.7 396 407.8 419.3 431.4 443.8 457.3 466.4 474.8 484.6 493.6 502.9 507.9 513.2 515.2 515.3 507.1 501.6 493.8 493.7 501.3 515.3 527.6 535.3 538 535.5 528.9 518.3 507.1 494 479.4 458.5 446.8 437.5 429.1 423.3 412.4 389.3 363.7 353.2 358.1 376.8 398.4 418.1 436.4 455.6 470.6
367.4 381.5 392 391.4 384.8 372.7 361.2 351.8 350.6 358.4 367.8 378.1 380.5 379 370.1 359.4 345.7 335.4 323.3 305.1 286.9 272.6 254.9 243.1 232.3 224.2 213.9 226.1 233.4 243.2 251.3 263.5 275.3 289.4 306.8 323.9 339 351.1 356.6 353 345.6 339 335.6 334.8 329.4 324.1 320.2 315.5 309 300.7 296.1 291.9 287 282.1 275.7 269.7 264.8 264.3 268.3 273.7 282.2 290.4 299 307.7 318.4 334.6 349.8 358.7 360.2 363.8 358.8 347.5 336.8 324.8 314.2 299.4 280.1 260.2 248.7 233 224.1 214.8 209.5 204.1 192.7 179.2 169.1 168 167.9 168 168.1 167.3 167.3 167.4 171.7 182.2 185.8 191 196.9 204.5 213 220.6 227.9 235.4 241.8 248.8 258.1 268.9 277.9 286.2 293.7 302.8 311.1 319.8 329.2 335.8 344.6 351.2 352.9 348.9 343.8 337.7 329.1 320 309.4 299.1 287.3 283.6 287.6 297.8 304.3 309.4 312.7 314.8 313.8 310.2 304.8 297.7 287.1 275.2 261.3 238.4 229.3 236.9 242 254 267.7 280.8 293.9 311.5 327.1 342 356.5 370.3 381.9 393.3 405.8 419.9 435.7 449.5 460.7 471.8 482.2 493.8 503.6 509.3 513.4 514.9 503.8 496.9 487.2 476.3 472.6 487.4 502.3 513.3 522.6 527.9 528.6 523.8 515.7 507.7 497.9 488.5 478.1 467 455.9 443.9 434.4 418.8 394.1 366.9 341.5 348.7 367.8 391.8 412 427 440.8 452.3
359.5 370.8 379.6 383.7 378.2 363.5 350.5 338.9 335.6 341.2 351.9 358.7 365.4 365.9 356.7 348.4 338.2 328.9 317.4 301.4 284.3 271.3 257.8 242.3 232.2 221.6 214.6 223.6 232.7 242.9 251.9 260.9 269.5 284.5 302.3 320.2 334.8 348.3 354 349.6 342.6 341.7 341.4 339.9 335.6 328.6 321.5 316.9 310.2 302.2 296.8 292.9 288.3 282.6 276.4 269.7 265.5 268 272 278.7 286.8 295.4 305.1 312.1 322.8 338.2 353.2 359.3 365 368 361.2 351 341.9 328.3 318.8 304.3 285 265.6 254.7 243.8 235.9 226.8 220.9 213.3 201.4 185.8 174.6 168.6 168.1 168.2 168.3 167 166.8 166.4 168.8 176.4 182 187.1 193.9 200.4 210 217.3 226.5 233.4 240.2 246.4 253.3 260.6 267.8 275.7 283.6 294.5 302.3 310.4 317.4 326.1 334.8 343.7 346.2 342.9 339.1 332.7 325.4 317.6 311 300.7 285.1 275.3 275.3 280.3 293 300.2 303.8 306.3 306.8 304.6 300 293.2 282.6 269.7 251 229.4 231.7 242.1 247.3 252.4 256.8 266 280.1 294.8 312.9 327.8 340.1 350.7 362.4 373.5 388.3 403.2 425.2 440.3 456.3 469.9 479.6 491.8 500.5 506.2 508.7 500.7 493.1 485.9 472.9 458.8 453.9 467.1 486.5 498.6 508.1 513.7 516.1 516.1 512 507.1 501.3 494 486.8 478.8 469.4 457.6 439.7 415.6 389.6 363.8 343.4 338.7 358.9 381.5 399.3 418.8 427 433.8
344.3 354.2 367.4 369.3 367.2 356.2 341.2 329.6 323.7 325.1 333.9 342.4 348.1 349.1 342.7 335 325.2 315.6 303.2 292.6 281.5 267.3 253.6 238.8 228.8 213.8 217.7 227 234.7 244.5 254.2 263 271.8 284.7 300.3 315.7 330.1 344.2 346.9 342.9 341.6 346.8 350.3 347.6 341.8 328 321.7 316.9 310.2 301.5 297.3 293.4 288.3 282.6 275.3 269.1 266.8 270.8 276.7 285.6 293 301 311.5 318.1 327.2 339.7 353.8 361.3 368 370.6 363.1 353.4 343.6 330.2 321 305.8 288.6 270.3 261.4 253.8 245.1 237.2 229.9 219.1 205.2 192.9 180.9 172 168 168 167.7 167.1 166.7 166.5 167.4 172.2 177.2 184.7 192.6 200.8 209.2 215.8 224 232.9 239.7 246.5 253.6 259 266.2 273.9 282.3 291.7 297.1 300.9 307.7 316.6 324.9 331.8 337.1 336.9 335.4 328.6 321.4 314.9 311.1 299.7 284.9 272.2 265.5 268.5 276.2 290.9 296.9 298.4 300.4 299.9 296.3 289.1 278.7 265.5 243.2 225.4 234.3 245 255.6 265.5 267.8 269.9 274.9 284.4 299.1 310.1 319.5 329 339.8 353.9 375.7 395.4 421.8 441.7 454.8 469 478.7 487.7 494.6 499 497 491.3 481.4 471.7 455.7 439.5 435.6 449 466.7 482.1 492.2 501.1 504.7 508.3 508.9 506.5 503.8 496.9 490.3 484.5 475.3 462.6 439.1 411.6 389.7 364.8 344.6 327.2 343.2 361.9 378.8 394.2 405.3 414.1
323.1 336.5 350.5 356.4 361.5 354.7 335.6 321.8 315.9 314.2 317.4 325.7 330.7 333.2 325.4 319.9 313.8 304.9 294.2 279.6 272.2 261 247.4 233.2 216.6 211.6 220.1 226 234.5 248.6 260.8 267.3 276.7 286.3 298.6 313.1 325.8 335.3 338.3 340.1 344.7 356.7 359.4 352.8 342 327 321.1 316.1 308.9 300.8 296.6 292.6 287.9 281.8 274.1 269.9 270.1 274.5 281.5 291.6 298.5 307.8 318.8 323.9 332.1 341.7 355.5 362.7 369.2 369.6 364.2 352 339.7 327.8 318 305.6 291.6 274.9 266.8 259.8 251.3 243.2 234.7 226.2 213.6 202.6 190.2 175.8 166.9 166.9 167.2 167.1 166.7 166.4 166.6 169.6 176.2 187 193 199.4 207.7 216.5 224.3 233.3 241.3 246.8 251.6 258.2 266.3 276 285.3 290.8 292.1 292.5 297.7 305.8 315.5 323 328.8 332 330.3 324.1 317.6 312.6 307.6 298 286.9 271.1 261 258.1 262.5 271.9 285.2 291.7 293.4 294.8 292.2 286.4 275.6 261.1 238.8 223.4 237.1 249.7 266.1 280.9 287.9 288.4 287.3 288.7 291.2 299.8 309.5 325.2 342 361.1 383.5 405.8 426.3 441.3 453.5 466.5 475.9 483.9 486.8 486.2 484.6 474.8 465.6 454.8 442 422.1 417.9 432.9 447.6 462.3 471.8 483.6 493.3 499.3 503.8 504.8 503.6 499.4 492.9 488.2 477.7 465.4 443.6 416.3 393.9 371.1 348.8 326.7 324.3 338.8 354.6 370.1 381.2 392
