ncols 200
nrows 82
xllcorner 280000
yllcorner 941600
cellsize 50
296.1 293.8 292.6 288.3 282.9 274.8 266.9 262.6 259.2 253.5 247.7 244.6 242.6 246.3 249.7 251.9 253.3 253.5 254 256.1 259.6 263.1 263.9 264 259.2 253.7 250.6 247.3 243.9 242.2 241.9 241.8 242.2 244.2 243.7 243 243.3 245.1 247.8 250.9 253 255.7 257.6 259 257.9 245.8 235.7 225.2 217.1 211.7 207.1 203.3 199.6 197.5 194.7 192.8 191 189.2 187.5 186.7 185.8 184.1 184.5 183.7 183 182.1 181.4 179.3 175.8 172.8 169.5 167.1 162.7 159.8 156.9 154.8 153.3 154.1 154.6 154.3 156.8 158.1 159.5 160.5 162.4 165.1 167.4 169.4 170.5 171.3 171.9 172.5 173.1 173.2 173.7 174.2 174.9 175 174.2 174.1 174.6 175.2 176.5 178.9 181.2 183.1 185 187.3 188.7 190.9 190.9 189.7 186.9 183.8 183.1 180.3 177.3 175.8 174.5 172.6 172.1 173.7 174.7 176 177.1 178.3 179.1 179.9 180.7 182 183.2 184.5 184.8 185.3 186 186 185.7 185.3 184.6 184.1 183.5 184.3 184.1 183.3 181.8 181.7 181.5 181.5 183.1 183.2 183.7 183.1 182.8 182.7 182.9 180.5 177.2 174 170.8 169.5 169.1 167.5 163.1 162.5 161.9 161.4 160.6 160.2 159.5 159.2 156.7 155 150.7 149.5 149.4 149.4 149.3 146.9 146.7 146.4 147 145.7 144.3 143.1 141.3 139.7 137.8 134.9 134.6 133.1 132.6 128.9 126.4 123.1 116.1 110 103.4 98.1 98.6 99.3
290.1 292.1 292.2 287.9 281.5 274.2 266.5 262.6 258.3 254.3 247.9 244.5 243.9 245.7 252.9 256.4 256 257.1 258 260.9 264.5 268.4 269.9 270.2 264.6 258.3 257 254.5 251.4 246.9 245.1 244.4 243.9 245.8 246 245 244.2 245 246.9 249.6 252.2 254.4 256.1 257 254.4 245 235.6 225 216.2 210.2 205.7 202.8 199.4 198.1 195.4 193.6 191.8 189.9 188.2 186.9 185.5 185.2 184.9 184.5 183.5 182.7 182.2 180.6 177.6 173.1 169.4 166.8 162.7 159.9 156.6 154.3 154.2 155.4 156.4 157 157.7 158.9 160.1 161.5 163.3 166 168.9 170.6 171.7 172.5 173.4 174.1 174.4 174.8 175.2 176.1 176.5 176.8 176 176 176.5 177.5 179.2 181.2 183.3 185.5 187.6 189.7 191.6 194.7 194.9 192.7 189.5 186.2 183.1 179.9 176.8 175.4 174.1 172.5 172 173.7 175 176.1 177.1 178.3 179.2 180.1 181.5 182.7 184.1 184.9 185.3 186.1 186.4 186.5 186.3 185.9 185.2 184.5 184.2 184.1 184.3 183.4 182.8 181.9 181.4 181.4 182.4 181.8 181.4 181.9 183.3 181.7 181.9 180.8 176.4 172.6 168.9 167.4 166.8 168.6 162.7 162.3 161 160.5 160.8 160.1 159.8 159.2 158.2 154.2 150.3 148 147.3 146.7 146 144.7 144.7 144.5 146.3 142.9 141.2 139.9 137.8 135.1 133.1 131.9 131.1 130.2 130.3 125.4 123.7 118.4 110.4 107.5 100.6 97.1 100.1 100.2
288.1 290.1 291.3 286 279 272 266.5 261 254.9 253.4 250.8 247.4 246.6 252.3 253.9 259.1 260 260.4 262 265 269.4 273.2 275.3 276.1 269.6 265.4 263.6 260.5 257.4 251.7 248.6 247 246.1 246.3 246.3 245.8 244.6 244.7 246 249.1 252 253 253 255.7 248.8 241.4 234.2 224.6 215.7 209.8 205.4 202.4 199.2 198 196 194.1 192.2 190.5 188.8 187.5 186.1 185.1 185.2 185 184.1 183.2 182.4 181.1 178.9 174.4 170.5 165.9 163 159.5 156.7 152.3 153.8 155.9 157.4 157.8 158.4 159.4 161.1 162.9 164.8 167.6 170 171.7 172.8 173.4 174.8 175.6 176 176.3 176.6 177.2 177.6 177.9 177.6 177.5 178.3 180.2 182.2 184.4 186.8 188.8 190.9 192.9 194.3 197.1 198.1 195.3 191.5 187.7 184 180.8 176.7 175.3 174 173.3 172.3 174 175 176.1 177.1 178.3 179.4 180.8 182.4 183.4 185.1 185.4 186.3 187.2 186.8 186.7 186.6 186.2 185.3 184.5 184.8 184.7 184.5 183.8 183.5 182.8 182.8 181.6 181.5 180.7 179.7 180.1 182.5 180.4 180.8 180.4 175.9 172.2 166.7 165.2 164 163.5 160.9 161.9 160.6 160.5 160.6 160.1 159.8 159.2 158.1 154.7 149.7 146.2 145.7 145.1 144.6 142.8 142 140.8 139.2 138.8 138.7 137.3 136.4 134 132.5 131.4 130.3 129.1 125.8 121.2 118.2 114.3 110.1 103.9 99.5 100.5 100.6 101.5
285.8 289.8 289.5 283.7 277.1 271.4 266.3 260 260.3 257 253.9 247 249.4 256.7 257.6 260.1 262 263 265.4 268.3 273.3 276.8 278.4 277.1 272.9 270.3 268.4 264.4 261.8 256.6 251.7 249 247.4 247.3 246.4 245.5 244.1 243.6 244.4 247.6 251.2 252.1 250.7 248.9 242.5 237.7 231.6 223.8 216.4 210.6 205.8 202.9 200 198.2 196.4 194.3 192.7 190.9 189.4 188.3 186.7 184.9 185.5 185 184.1 183.3 182.4 181 178.9 175.1 170.4 166.4 163.1 158.7 155.8 153.8 156.2 157.9 158.3 158.5 158.9 160.2 161.8 163.4 165.8 169 170.9 171.9 173.7 174.8 175.6 177.1 177.5 177.7 177.8 178 178.2 178.5 178.8 179.4 180.4 182.6 184.9 187.7 190.2 192.4 194 193.8 198.3 199.4 200.8 196.7 192.5 188.7 185 181.9 177.4 176.1 174.6 174.4 174.6 174.6 174.5 175.9 177.2 178.5 179.9 181.9 183.1 184.1 185 186.1 186.6 187.1 186.6 187 186.8 186.3 185.7 185.1 185.2 184.9 184.5 184.1 183.5 182.8 182.4 181.9 179.9 179.3 178.9 179 178.9 179.1 179.6 179.1 174.9 170.5 164.4 161.6 161.5 161.7 160.1 157.9 156 159.8 162 159.4 159.1 159.1 155.5 150 144.6 143.1 140.9 142.4 143.4 141.7 139.2 137.9 135.5 138.7 140.1 137.5 136.5 134 132.6 131 130.4 127.4 122.3 119.8 114.8 111.2 108.2 101.9 100 100.1 101.6 103.5
285.3 288.3 286.8 281.7 276.9 273.4 266.5 264.2 263.4 259 256.5 248 255.7 261.7 261.1 261.2 263.7 265 267.5 271 276 279 279.9 278.3 276 274.5 271.8 268.1 264.8 260.3 254.8 250.9 248.1 247.5 246.6 245.7 243.1 242.4 242.8 243.1 247.6 250.2 248.8 244 237.4 233.2 228.9 222.9 216.6 211.1 206.7 203.3 199.9 198.5 196.3 194.3 192.6 191.1 190.2 189.2 187.7 185.8 186.3 185.6 184.2 183.3 182.4 180.4 178 175.9 171.5 166.9 162.8 158.8 156.4 153.4 157.2 158.3 158.6 158.7 159.3 160.9 162.3 164 166.4 170.2 171.9 173.3 174.5 176.2 176.9 178.1 178.4 178.6 178.6 178.8 179 179.2 180.2 181.4 182.6 184.8 187 190 192.7 196 197.1 198.3 201.8 202.5 201.8 198.5 194 189.7 185.8 182.2 178.4 177 175.7 175.7 175.9 176 175.2 175.2 177.5 179 180.4 182.1 183.7 184.9 185.9 187 187.8 187.6 187.5 187.3 186.9 186.4 185.9 185.5 185.2 184.9 184.2 183.7 183.1 182.6 181.8 180.6 179.3 177.9 178.1 177.7 177 177.7 178.3 177.8 172.9 168.3 161.3 159.2 158.5 158.1 161.3 157.6 156.3 156.9 158.7 157.6 158.1 161 156 148.4 143.6 142.1 141.1 138.5 139.5 141.9 137.9 135.5 131.1 133.3 134.4 133.7 133.9 135.1 129.3 127.5 126.9 123.1 120.9 116.8 111.8 110.4 105.9 100.3 100.3 100.3 102.1 104.8
284 284.8 282.8 279.1 275.9 272.2 268.3 269.5 266.5 259.6 253.5 252 264.2 264.1 263.3 263 265.3 266.2 269.3 273.4 278.2 280.7 281.5 280.4 279.1 278 275.8 272.3 268 263.1 256.5 252.7 249.3 248 247.3 246.5 244.2 241.2 240.1 241.1 241.8 247 243.6 236.5 230.9 228.9 226.5 221.7 215.6 210.6 207 203.7 200.3 197.6 196.7 193.8 192.4 191 190 189 187.8 188.1 187.3 186.8 185 183.6 182 179.4 177.7 175.8 173.2 169.1 163.5 159.3 157 152.8 157.4 157.9 158.5 159.1 159.8 161 162.7 164.8 167.5 170.8 173.6 175.1 176.1 176.9 177.8 178.6 179.3 179.6 179.5 179.5 179.8 180.1 181.8 183.4 184.7 186.8 189.2 192.5 195.8 198.4 200 202.8 205.1 206.7 205.1 200.5 195.4 191.5 185.8 181.8 179.6 178.2 177 176.8 176.8 176.5 176 176.4 177.7 179.4 181.4 183.4 184.7 186 187 187.9 188.4 188.4 188.2 188.1 187.4 186.9 186.2 185.7 185.5 185.1 184.4 183 182.4 181.8 180.9 179.4 178.1 176.9 177 176.1 175.1 175 175.7 175.6 170.7 165.2 159.3 158.3 157.8 157.5 156.5 155.1 153.3 155.3 157.4 155.7 157.4 159.1 156.4 148.5 145.6 143.2 140.4 138.8 135.7 134.7 134.5 133.5 132.7 129.2 130.2 130.1 130.7 128 126.4 125.6 124.1 122 119.3 116 111.2 110.2 104.6 101.5 101.7 100.4 104.2 106.8
283 280.8 279 276.1 274.5 272.3 275.1 276.6 272 259.7 252.1 255.6 260.1 263 265.2 266.4 267.3 266.8 270 275.5 280.9 282.2 282.2 281.9 281.3 280.6 278.3 275.3 271.1 265 258.1 254.2 249.9 248.4 248 246.9 243.6 243.2 241.2 237.5 238.2 237 233.8 229.6 228 226.5 224.3 221.2 216.3 210.9 207.2 204.6 201.8 198.5 195.1 194.5 191.2 189.7 188.9 188.6 189.1 188.9 187.6 187.7 186.5 184 182 179.2 177.7 175.6 173.6 170.9 164.5 160 155.8 153.1 154.2 157 158.2 159.1 160.1 161.9 163.9 166.3 169.2 172.2 174.5 175.9 177 177.7 178.7 179.1 180 180.5 180.4 180.4 180.7 181.5 183.1 184.9 186.7 189.3 191.9 195.2 198.6 200.9 202.6 205.9 209.1 209.8 207.7 202.9 197.3 192.7 186.6 182.2 180.7 179.5 178.4 177.6 177.2 176.8 176.2 177 178.6 180.2 182.1 184.3 185.8 187.1 188 188.6 188.8 188.8 188.6 188.2 187.8 187.1 186.4 185.8 185.9 185.5 184.6 183.6 182.4 181.1 180 178.6 177.1 175.4 175.6 174.1 172.9 172.5 172.6 171.7 167.5 162.7 158.6 158 157.3 156.5 154.9 153.1 152.4 152 152 154.9 157.8 158.7 152.6 147.3 147.5 140.7 138 139.5 140.1 133.9 135.3 135.1 129 127.4 128.7 128.6 127.4 126.4 125.9 125.1 124.1 122.2 119 112.3 111.3 107.5 103.3 101.6 102.5 103.6 107.3 108.5
283.1 280.5 279.2 280.8 278 277.1 280.7 278.2 273.6 260.3 254.8 259.8 261.7 263.2 266.3 268.7 268.8 268 270.8 277 282.9 283.4 284.4 283.8 282.7 281.4 279.9 277.9 273.4 267.2 259 254.6 251.2 249.5 248.5 246.9 246.4 244.5 241.9 239.3 234.7 232.3 229.5 227.7 226.6 225.5 223.3 220.5 216.7 211.1 206.5 204.3 202.3 198.7 195.2 192.4 190.8 190.7 188.7 190.5 189.9 189.8 187.9 188.6 187.5 185.2 182.9 179.6 177.8 176.3 174.7 172.4 166.3 159.9 157.5 154.7 154.6 155.9 157.6 159 160.5 162.5 165.1 167.7 170.4 173.1 175 176.8 177.9 178.9 179.8 180.2 180.6 181 181.4 181.4 181.9 182.5 184.7 186.9 188.7 191.5 194.4 197.5 200.6 202.3 205.6 209 212.3 213.7 209.9 204.1 199.3 193.5 186.9 183.2 182 180.7 179.8 178.9 177.9 176.8 176.7 177.8 179.7 181.3 183 184.7 186.5 188.4 188.6 189.4 189.2 189 188.8 188.7 188 187.3 186.7 186 186 186.3 185.5 183.2 181.6 180.7 178.6 177.8 176 174.3 172.5 172.4 170.9 169.8 168.8 168.3 164.5 159.3 157.9 157.1 156 155.3 153.7 153.4 151.4 150.7 150.2 151.6 155 154.3 147.6 144.3 142.5 138.8 137.3 133.4 132.2 131.8 128.8 129.2 127.8 125.7 127 126.1 125.4 125.7 125.3 123.8 120.9 120 116.4 112.2 111.1 104.9 103.7 102.9 102.6 104.7 107.3 109.8
282.9 279.4 279.4 285.2 280.6 276.1 273.9 272 270.4 260.1 255.1 258.8 264.1 265 269.6 270.5 268.8 268.4 271.9 276.5 281.4 285.5 287.1 286.2 284.2 282.1 281.1 278.9 274 266.5 259.6 255.7 252 249.2 249 247.7 248.2 246.2 243.4 240 236.1 231.2 226.3 226.4 225.2 224.2 221.8 218.8 214.8 208.6 206.7 203.3 201.9 200 195 191.9 191.5 191.3 191 190.8 191.2 190.9 189.9 189.1 189.7 186.6 183.4 179.3 178 175.9 174.1 174 165.9 160.4 157.7 156.1 154.3 154.7 157.3 159 160.9 163 166 169 171.7 174 175.5 177.3 178.6 179.4 180.6 181 181.4 182 182.2 182.4 182.8 183.7 186.2 188.4 190.6 193.6 196.6 199.9 202.3 204.4 207.9 212 214.7 215 211 205.4 200 193.8 187.6 184.4 182.9 182.3 181.3 180.2 178.7 177.8 177.5 179.1 180.7 182.3 184.8 186.3 187.5 189.1 189.9 189.9 189.8 189.6 189.3 189.1 188.3 187.4 186.8 186.2 186.6 187.1 185.9 182.6 181.1 179.5 179.3 176.9 174.9 172.9 170.7 170.3 168.5 166.7 165 163.5 161.9 157.1 156.6 154.7 153.1 155 153.7 151.8 150.6 150.7 150.3 150.3 149.8 147.5 144.9 142.8 141.7 140.1 136.5 134.3 132.5 130.3 127.9 127.8 126.4 124.2 124.1 124.3 125.5 125.5 124.6 122.4 119.9 114.3 112.6 110.6 106.3 104.6 104.1 102.9 103.8 105.6 108.1 112.5
280.7 278.5 281.4 282.3 279.7 277.5 274.5 271.7 272 260.8 257.9 258.5 261.3 265.2 269.4 269.7 268.5 268 270.9 275.5 279.5 284.7 288.5 289.5 286 284.5 280.9 277.5 272 265.7 259.6 256.9 253.3 250.6 248 249.6 248.9 247.7 244.4 240.6 236.2 231.6 228.6 226.3 224.4 224.2 222.6 220 217.4 213 208.1 202.6 201.3 199.9 197.8 193.1 191.5 191 190.5 190.8 191.1 191 190.5 190 189.4 187.3 184.3 179.7 177.7 175.2 174.2 173.4 165.9 161.1 159.1 156.5 154.9 157.2 158.5 159.8 161.8 164.1 166.5 169 172.4 174.6 176.1 177.6 179.1 179.9 181.3 181.8 182.3 183 183.3 183.5 184 184.9 187.3 190 192.2 195.4 198.5 201.8 204.3 206.1 210.7 213.7 216.6 216.3 211.9 207.1 201.7 194.9 188.7 185.1 184.2 183.6 182.8 181.2 179.6 176.8 179.3 180.7 181.7 184.6 186.8 188 189.2 190.2 191 190.8 190.9 190.7 189.9 189.4 188.5 187.6 186.9 186.2 186.3 186.6 185.9 182.6 180.9 179.3 177.7 175.2 172.9 171.4 169.5 167.9 165.9 162.1 161.4 159.8 157.1 154.8 154.2 153.3 151.4 151.4 152.5 149.9 150.3 151.2 151.1 149.6 148.6 146 145.7 145.1 144.6 140 138 135.9 131.6 128.9 126.8 124.8 124 122.7 122.5 123.3 124 123.8 125.5 121.1 120 113.4 111.3 108.9 107.1 104.3 104.9 104.1 104 104.8 110.9 114.4
280.3 280.5 281.6 282.1 280 280 279.2 275.9 273.8 261.7 257.8 259.4 261.6 265.3 268.4 269.7 268.4 268.4 271.1 274.5 279.8 283.3 289.2 289.3 287 285.2 280.5 276.7 270 264.1 261.2 258.8 255.1 251.1 251.1 251.4 251 248.4 244.8 241 236.2 231.2 228.6 226.6 225.7 225 223.7 221.4 218.5 214.4 209.3 203.6 200.5 199.8 198.4 193.9 191.2 190.5 190.1 190.5 190.7 190.4 190.1 190.1 189.3 187.4 185.6 180.9 177.6 174.6 173.2 170.3 165.5 160.5 157.9 156.7 154 158.4 159.3 160.4 162.3 164.2 166.8 170 173.3 175.1 176.5 178 179.4 180.9 182 182.7 183.3 183.9 184.4 184.7 185.3 186.1 188.3 191.2 194 196.9 199.8 203.4 205.7 207.9 210.6 214.6 217.3 216.5 213.5 207.9 203.9 197.2 190.3 185.8 184.8 184.3 183.6 181.8 179.4 180.9 181.7 183 185.1 188 189.8 190.9 191.7 192 192.2 191.7 191.8 191.3 190.5 189.7 188.9 188.1 187.4 187 186.9 186.8 184.8 182.9 180.8 178.7 176.6 174 171.7 169.9 167.9 165.1 162.4 159.1 158.2 156.2 153.4 151.6 150.8 149.7 149.7 149.2 148.7 149.2 151.3 149.9 150.3 150.2 150.8 149.8 145.8 143.7 141.8 138.6 136.3 132.9 128.7 126.9 124.5 121.9 119.6 120.5 120.4 121.9 123.2 122.7 121.2 119.4 113.9 110.5 108.5 107.8 105.1 106.4 105.7 104.7 104.9 105.6 108.9 112.9
282 281.9 282.2 281.3 280.5 280.1 278.7 276.9 270.9 262.5 260.1 262.7 264.4 268.4 268.4 269.4 269 269.2 269.2 273.7 281 283.8 284.6 284.8 284.9 283.9 280.6 277.1 268.5 262.8 261.6 259.2 255.6 252.4 252.7 252.8 253 251.1 244.7 241.3 236.8 232.1 228.4 226 226.3 224.9 224.2 222.8 219.6 214.9 209.8 203.8 200.4 198.2 197.2 194.4 191.5 190.2 189.5 189.7 189.6 189.7 190.1 189.9 189.3 187.9 184.9 181.5 178 174 171.2 168.9 165 161.3 157.9 156.2 155 157.6 159.8 160.8 162.4 165 168 171.2 174.3 175.8 177.1 178.5 179.9 182 182.7 183.6 184.2 184.8 185.4 185.8 186.5 187.4 189.2 191.9 195 198.1 201.2 204.8 207.1 210.5 212.5 215.3 217.7 217.2 213.6 209.3 205.6 198.4 191.6 187.2 185.7 184.9 183.8 182.5 182.6 183.4 184.1 184.8 186.9 190.1 191.5 192.6 192.7 192.8 192.8 192.7 192.9 192 191 190.1 189.5 188.9 188.2 187.8 187.7 186.6 184.7 183.2 181.4 178.6 175.5 172.4 169.3 167.8 166.4 162.9 160.4 154.8 154.8 153.7 152.3 150.4 149.5 148 146.6 147.5 147.6 148.4 151.6 149.1 146.8 146.8 145.6 147.7 144 142 139.4 137.6 134.5 129.9 127.4 125.9 125.3 123.8 119.5 117.1 117.4 119.3 120.7 119.8 118.4 115 112.3 109.6 108.6 105.9 106.8 107.2 105.8 105.6 105.8 109.8 111.7 114.8
284.5 283.5 281.9 281.1 280.8 280.7 280.3 278.9 273.2 265.8 260.8 263.9 264.8 266.5 268.4 269.5 269.6 269.3 269.4 274.2 280.9 283.9 283.6 281.3 280.8 280.5 279.1 277.3 266.9 262.2 261.6 260.1 257.8 255 253.9 254 254.3 253.4 245.2 241.7 237.1 231.9 229.3 228.3 227.4 226.4 225.6 223.8 220.6 215.7 209.9 203.7 199.5 196.9 194.1 190.4 188.7 189.3 189.1 190 187.8 188.2 189.9 189.5 188.9 187.9 185.7 181.8 177 173.6 171.1 167.4 164.2 161.1 157.5 155.6 158.2 159.1 159.5 160.5 162.9 166 168.9 171.6 174.8 176.3 177.5 178.8 180.4 182.1 183.3 184.5 185.1 185.7 186.3 186.9 187.8 188.5 190 192.6 195.7 198.8 202.8 205.2 208.4 210.6 213.2 215.4 218.1 217.2 213.9 211 207.2 200.8 193.3 189.6 186.9 186 184.8 182.2 184.4 185.5 186.3 187.1 188.8 191.7 192.8 193.4 193.4 193.5 193.5 193.7 193.8 193.2 191.4 190.4 189.8 189.3 188.9 188.5 188 186.7 185 184 182.2 178.8 174.7 170.8 168.5 166.8 164.9 161.6 158 154.6 151.7 151.6 150.7 150.7 148.5 147.7 146.1 146.3 147.5 148.2 148.6 148.6 144.4 143.5 141.4 140.6 139.7 139.5 138.3 137.6 134.9 129.4 126.8 123 120.7 121.4 119.2 117.8 116.7 114.6 119.8 118.1 114 111.9 110.6 106.3 106.9 107.5 108.1 106.9 106.7 106.3 112.5 114.3 115.6 116.4
287.9 284.8 282.9 282 287.3 286.1 282.5 279.9 276.9 269.2 260.9 262.1 264.1 266.1 268.4 269.6 269.6 269.3 269.4 272.9 279.8 284.9 280.5 279.1 278.3 276.7 275.6 274.1 264.3 262.5 261.7 260.6 258.6 256 255.2 254.3 254.3 250.1 246.1 242.2 239.2 235.6 231.5 230 228.3 227.7 226.8 224.9 221.5 215.9 210.6 203.4 198.4 194.6 192.8 190.8 187.5 188 188.9 189.5 187.8 187.8 190 189.9 188.8 187.8 186.5 182.1 176.5 173.1 170.3 166.5 163.6 160.7 157.7 155.8 156.8 158.4 159.2 160.2 163.5 167 169.9 172.9 175.2 176.5 177.7 179.3 181 182.9 184.1 185.1 186.1 186.7 187.5 188.2 188.5 189.7 191.5 193.2 196.3 199.7 202.8 205.7 208.9 211.7 214 216.2 218.6 217.7 214.9 212.1 207.4 200.9 197.1 193 188.9 186.9 185.2 185.5 186.7 187.7 188.6 189.5 191.1 192.7 194 194.1 194.3 195 194.4 194.7 194.9 194.8 192.4 190.6 190 189.5 189 188.6 187.9 186.6 185 184.1 181.4 178.6 172.3 168.5 166.7 164.9 162.7 159.3 156.2 154 152.5 149.8 148.6 149.9 148.5 146.5 145.3 146.2 146.9 148.1 147.7 147.4 142.4 140.7 138.8 138.4 136.6 132.8 134.3 132.3 130.1 126.2 123.5 121 119.5 117.7 116.5 116 115.2 115.2 113.5 113.1 112.7 109.1 109.5 109.6 106.8 108.2 107.6 107.4 107.2 108.2 110 115.7 117 117.7
289.4 285.3 282.9 281 285.3 284.7 282.2 280.1 279.2 269.3 261.8 262.1 263.9 267.2 271.7 270.8 269.8 269.5 269.8 272.8 277.5 279.9 278.7 277.9 276 274.4 271.9 267.7 264.6 262.9 261.8 260.1 258.8 257 255.4 254.2 251.9 249.5 248.3 246 242.5 237.7 233.6 231.5 228.9 229 227.8 226.1 222.6 216.9 210.8 203.9 196.9 193.5 192.2 190.6 188.4 187 187.8 187.8 187.8 187.8 190.2 189.8 189.1 187.8 186.1 181.7 176.6 173.4 169.8 164.8 163.2 160.5 158.3 156.2 155.8 157.5 158.4 160.4 165.5 166.8 170.5 172.8 175.1 176.7 178.2 180.1 182 183 184.5 185.5 186.6 187.6 188.3 189 189.4 190.6 192.1 194.2 196.8 199.8 202.8 205.7 208.6 211.7 214.3 217 219.1 219.1 216.1 211.7 205.9 202.6 199.1 194.6 191.2 189 187.4 187.8 188.8 190.1 191.1 192 192.7 194.9 195.4 195.7 196 196.1 195.6 195.8 196 194.7 193.5 191.2 190.1 189.5 189 188.6 187.2 185.9 184.5 183.2 181.1 176.8 171.9 167 164.7 162.8 160.5 156.6 155.4 154.2 152.5 149.1 147.3 146.4 149.5 146.2 143 145.2 147.1 146.3 146.8 145 141.4 138.9 135.9 132.5 128.9 124.2 123.3 124.1 124.1 124.3 121.3 119 117.7 122.7 125.4 121.9 122.8 120.1 115.6 115.6 114.4 113.8 114.4 110 107.8 109.5 110.4 110.6 110.4 109.1 111.1 113.2 116.2 117.3
291 286.1 283 281 281 282 282.2 279.7 275.6 269.5 263.3 260.6 263.6 269.1 275.8 271.1 269.3 270.5 271.7 273.9 276.5 276.7 276 275.7 275 273.4 269.2 266.9 264.9 263.7 262.8 260.6 258.7 257.3 256 254 251.7 250.8 250.3 248.6 245 239.7 235.9 233.6 232.2 230.8 229.2 227.7 223.8 217.5 210.5 203.4 196.3 193.4 192 191.1 189.9 188.2 187.4 187.1 188.4 190.1 190.3 190.2 189.8 187.6 184.8 180.8 175.2 173.1 168.3 165.6 163.4 160.2 158.1 156.7 156.9 159.1 160.2 161.8 166.4 168.5 170.5 173.4 175.3 177.3 178.5 180.4 182.3 183.7 184.9 185.9 186.9 187.9 189 189.8 190.3 191.4 192.9 194.7 197.7 200.6 203.2 206.5 208.3 211.9 214.6 217.3 218.9 218.9 216.7 211.7 206 203.2 199.8 196.2 193.4 190 190.2 190.8 192.5 193.1 193.9 194.6 195.6 197.5 197.8 197.8 198.2 198.3 197.5 196.9 196.2 195.1 194.1 191.8 190.4 189.7 189.1 188.2 186.6 185.2 184 182.4 180 174.6 170 166.4 162.3 160.6 158.1 154.9 153.7 152.4 152.8 148.5 147.2 145.8 142.2 141.8 143.3 144.7 146.5 145.3 144.8 142.5 141.2 135.6 131.8 125.9 125.6 140.6 139.9 124.9 121.8 121 126 129.2 130 128.7 126.8 125.9 125.8 124.9 117.1 116.8 115.5 114.6 114.2 109.8 108.8 108.2 111.9 112 111.5 110.4 110.8 112.2 116.6 119.7
293.6 287 284 281 281 285.9 285.9 283 277.1 273 266.2 263.5 262.9 267.4 270.4 269.1 269.6 270.8 272.4 274.1 275.8 274.8 273.5 272.6 274.6 273 269.4 265.5 264.4 263.9 263.3 261.1 259.4 258.3 257.1 255.1 253.3 253 252.3 251 247.4 242.6 238.2 235.3 234.6 234.3 231.7 229.1 224.9 218.2 211.1 203.4 197.4 193.9 192.3 191.1 190.3 189.3 187.3 187.4 189.1 190.2 190.6 190.5 189.8 188.6 183.9 179.3 175.7 172.4 169.5 165.9 163.2 160.3 158.6 156.5 158.4 159.7 161 162.6 166.9 169.9 172.3 173.5 175.1 175.4 178.9 179.9 181.9 184 185 185.9 187 188 189.3 190.5 191.3 192.1 193.8 195.5 198.2 200.6 202.9 206 208.6 211 214.4 217 218.8 219 216.7 212.1 206.8 203.5 200.1 197.4 194.8 193.7 193.8 194.6 195 195.5 196.2 196.8 197.8 199.5 200.5 200.2 200 199.8 199.3 198.2 197.3 196 194 191.8 190.7 189.7 188.8 187.7 186.3 184.2 182.8 180.7 177.7 173.1 168.2 163.1 159.7 158.4 155.4 153.2 151.6 151.3 150.5 147.6 146.3 144.8 140 137.8 136.7 139.4 141.8 143.2 141.5 139.4 136.8 132.9 127.7 127.4 138.7 145.4 144.9 141.7 139.1 137.5 135.2 134.6 133.2 131.2 128.2 127.3 127 123.3 118.6 117.4 116.4 115.3 113.3 110.3 109.6 109.2 108.9 112.5 111.9 111.8 113 114.5 119.5 121.3
293.4 291.8 285.8 282.3 281 282.9 286.9 284.3 279.5 275.4 268.3 266.8 266.2 266.1 268 269.5 269.8 271.1 273.5 275.2 275.5 274 272.9 272.6 275.2 272 268.6 265.1 264.6 265.3 264.2 262.2 260.7 259.7 258.6 256.9 254 255 255.3 253.3 250 245 240.7 237.2 238.1 237 235 230.9 226 218.7 210.9 204.1 198.6 194.8 192.6 191.2 190.5 189.7 188.6 187.2 186.5 189.4 189.3 189.7 189.5 189.4 184.5 180.6 175.7 171.8 169.2 166.1 162.6 160.4 159 156.7 157.6 160.1 161.5 163 168.9 172.2 173.8 175.9 177.4 179 179.9 180 181.9 181.7 184.8 185.9 186.4 188.3 189.3 190.9 192.1 193.3 194.8 196.6 198.8 200.9 202.8 205.2 208.1 210.2 213.1 215.9 217.7 218.3 216.4 212.4 206.6 203.4 201.6 198.8 196.2 195.6 196.7 197.2 197.4 197.8 198.4 199 199.8 202.1 202.9 202.3 202 201.7 201.7 200.1 198.4 196.3 193.7 191.5 190.2 189.1 188.3 187.5 186.3 182.8 180.7 178.9 176 171.4 166.1 160.7 157.8 155.8 153.3 152.3 150.7 150.3 149.2 147 146.1 144.7 138.9 143.3 137 132.5 133.8 135.6 135.8 136.3 133.5 127.4 133.1 145.2 147.9 146.5 145.1 143.7 142.2 140.4 137.4 136 135 133.1 131 129.5 128.8 119.4 119.5 119.4 117.7 114.8 113.3 113.9 110.6 109.6 109.5 112.4 112.3 112.3 113.8 116.6 119.2 121.9
302.8 297.5 290 287.3 293.4 295.9 292.8 291.2 284.3 277.3 273.3 270.9 268 266.7 267 268.9 270.3 271.4 274.4 276.5 275.5 274 272.9 272.6 272.8 271 269 266.6 266.9 266.9 266 263.5 262.4 261 259.7 258.8 256.8 257.6 257.9 256.1 251.9 246.3 242.5 239.4 241 240.6 237 232.8 226.2 218.1 210.8 204.4 198.6 195.9 193.8 191.4 190.7 189.9 189.1 188.7 186.1 189.1 187.3 188.1 188.2 187.8 186 180.3 175.1 170.9 168.4 166.1 163.1 161.2 159.6 158.3 156.6 160.7 162.2 165.6 168.5 171.4 174.2 176.8 178.7 180.5 180.8 181.7 182.7 182.2 185.1 185.5 186.9 188.3 189.3 191.3 192.2 193.4 195.4 197.6 199.3 201.5 203 206.7 207.5 209.3 211.5 215 217.7 217.8 215.6 211.8 206.3 204.2 202.8 199.2 199.3 198.9 198.4 199 199.4 200.3 200.5 200.6 202.8 204.5 205 204.5 203.7 203.4 202.7 201.2 199.1 196.4 194 191.3 189.7 188.6 187.2 186.2 184.9 181.1 178.2 175.9 172.3 170 164.1 158 155.3 153.5 152.5 151.2 149.8 149.3 148.4 147 145.2 142.2 140.5 144.1 143 135.7 130.7 130 129.9 132.3 132.7 141.5 149.9 149.5 148.3 147.7 146.8 145.5 144 142.1 140.6 137.7 136.1 134.6 133.1 131.6 128.9 124.8 121.5 121.9 119.6 115.9 115.3 115 110.8 109.5 110.3 112.2 113 113.5 115.6 116.4 119.8 123.1
307.6 301.8 295.8 295.4 297.9 302.5 296.4 295.5 286.4 280.3 277.8 275 271.2 268.3 267.6 269.6 271 272 277.5 277.9 275.7 274.3 272.8 272 272 270.8 268.6 269.2 269.7 268.8 266.8 265.1 264.3 263.3 261.3 259.6 259.8 259.8 259.5 258 253.8 248.3 243.7 241.5 243 242.2 239 234 226.9 217.6 210.8 204.4 199.5 197.1 195.1 191.9 190.7 189.8 188.5 188 185.8 184.9 186.2 187.9 188.5 186.6 184.8 179.2 174.8 171 167.9 165.7 164.4 162.7 160.6 158.3 157.4 161.2 163.2 166.1 168.8 171.8 175.3 177.8 180.1 181 182.5 183.5 184.4 185.1 184.8 184.1 185.1 188.4 189.8 191.3 192.2 193 195.4 198 200.1 202.5 203.6 204.9 206.9 208.7 210.5 214 217.2 216.6 214.1 211 206.2 204.3 203.1 200.7 201.1 200.8 200.7 201 201.4 201.7 201.8 203.3 205.2 206.4 206.6 206.3 205.3 204.5 203.7 202.3 199.1 196.3 193.8 191.1 189.4 187.6 186.2 184.6 183.2 180 176.3 172.5 168.9 167.1 161.2 155.8 154 152.4 151.6 150.6 149.1 148.5 147.5 146 144.6 142.3 143.9 145.6 144.8 145 144.6 141.1 148.1 148.7 150.8 151.8 151.9 153.9 151.4 149.2 148.4 147.4 146.5 145.4 143.9 141.9 139 136.5 134.6 133.3 130.8 126.6 124.6 121.7 119.8 117.5 116.4 114.2 110.8 110.6 113 113.2 114 114.4 114.9 119.3 122.6 123.5
304.6 301.2 302.4 302.1 301.3 300.8 300 297.2 288.9 284 282.2 278.5 273.9 269.4 268.5 270.4 271.4 273.9 281 279.6 276.7 274.7 272.9 271.7 270.7 271.6 271.6 271.3 271.9 269.2 267.4 267 266.1 266.9 264.9 261.3 263.2 263.5 262.2 259.7 255.3 249.2 245.8 243.8 244.7 243.5 240.4 235 227.7 218.9 211.4 206.1 200.8 197.7 195.5 192.8 190.3 188.5 187.4 187.1 185.7 183.4 184.8 186.8 186.2 184 182.6 178.1 174.2 170.5 168.4 166.4 164.7 163.5 161.1 158.9 158 161.3 164.5 166.4 169.7 173 176 178.7 181 182.3 183.8 184.6 185.4 186.2 187.1 188 187.8 186.3 190.5 191.2 191.9 193 194.9 198.2 200.5 202.7 203.6 204.9 206.8 208.6 209.8 212.1 215.4 215.8 212.8 208.9 206.9 205.1 203.6 201.8 203.2 203.2 204.5 204.4 203.7 203.5 203.6 205.6 207.5 208.4 208.4 207.6 207.1 205.6 204.8 203.1 199.1 196.2 193.4 191.6 189.1 187 185.5 183.9 181.7 178.5 174.1 170.8 166.3 162.4 159 155.7 154.4 151 150.4 149.9 148.9 148.2 147.7 146.6 144.5 142.6 142.8 144.7 145.4 146.4 147.2 148.6 151.7 153.2 154.1 156.4 157.7 157.3 154.9 152.6 150.6 148.7 147.2 145.9 144.4 142.6 140.1 138 136.4 135.1 132.9 130.1 128.6 124.7 120.6 117.9 117.1 114.3 111.6 110.4 112.1 115.2 116.2 115.8 116.7 118.7 122 124.9
297.6 304.6 305.6 303.4 301.9 301 302.7 294.6 290.7 289.8 286.8 281.4 275 270.1 270.5 272.5 273.2 276.6 285.4 281.1 278.8 275.8 273.4 273 273.3 273.4 273.5 273.8 273.1 269.8 268.6 267.8 267.8 269.9 266.9 262.9 263.6 266.7 266.9 261.4 256.7 251.1 247 246.5 246.3 245 243 236.4 227.3 218.9 212.6 207.6 202.6 198.6 195.6 193 190.2 188.2 186.5 184.9 184.8 182 182.7 184.5 184.5 182.3 180 177.7 174.2 170.3 169.2 167.1 165.5 163.9 162.1 159.7 158.2 162.2 165.1 167.5 170.4 174.2 177 179.6 181.8 183.3 184.7 185.5 186.3 187.1 188.2 188.9 189.3 189 187.3 189.6 189.7 192.3 195.7 198.5 201 202.7 203.8 205 206.8 208 208.9 210.4 213.3 213.7 211.2 209.3 207.7 206.2 205 203.5 205.3 206.5 208.2 206.1 205.8 205.9 205.7 207.4 209.7 210.5 210.2 208.9 208 206.9 205.8 203.3 199.2 196.1 193.7 190.3 188.3 186.4 184.8 182.7 180 176.5 171.8 167.9 164.2 160.1 157.2 154.2 151.4 150 149.6 149.1 148.7 148.2 147.5 147.3 148 143.2 141.2 145.1 146.6 148.1 149.9 151.4 153.5 156.2 158.2 159.3 160 159.1 156 153.4 152.1 149.9 148.3 146.2 144.1 142.5 140.5 139.2 137.5 136.8 135.7 134.5 128.3 125.3 122.6 119.7 117.6 115.8 112.9 110.9 110.9 117 117.2 117.9 119.3 124.8 122.6 128.2
297.5 299.5 300.8 300.4 297.8 296.8 299.3 297.6 294.4 294.1 291.5 282.2 274 271.4 271.9 273.8 274.9 278.9 282.9 282.5 281 278.3 276.8 276.6 277.9 278.2 276.3 274.8 274.5 272.4 271 269.2 269 269 264.9 264 262.9 265.2 266.8 263.7 257.1 250.7 249.1 247.7 246.6 246.1 245.6 239.2 227.2 219 214.6 209.8 203.9 198.5 195.8 192.9 189.8 187.8 185.4 184.1 182.8 181.3 179.7 183 184.2 181.7 179.4 177.2 174.9 170.3 169.7 167.9 165.9 164.1 162.2 159.6 159.1 164.9 165.8 168 171.2 174.9 177.9 180.4 182.3 184.2 185.4 186.2 187 188.1 189.2 189.7 190.1 190.1 191.3 191.3 191.3 190.7 196.7 199.5 201.6 203 204 205.2 206.6 208.1 208.9 209.5 210.7 212 210.7 209.6 208.6 207.1 206.2 205.7 207.4 210.2 211.1 208.6 207.5 207.5 208.6 209.7 211.4 211.9 211.4 210.4 208.9 207.9 206.1 203.5 199.2 195.9 192.6 189.6 186.6 185.5 183.9 180.8 177.4 173.9 170 166.7 162.6 158.2 154.6 152.5 150.8 149.3 148.8 148.4 148.1 147.7 147.2 146.4 144.5 142.9 142.8 146.1 147.5 149.8 151 153.3 156.5 157.9 159.6 160.3 160.4 159.6 157.5 155.6 152.8 150.6 149.1 147.3 144.4 142.3 141 140.2 139.1 138.3 137.3 135.3 131.2 126.7 124.3 120.6 118.5 118.9 113.5 111.6 111.6 117.7 117.7 119.3 122.8 125.2 129.5 129.9
299.2 307 305.9 299.8 296.6 295 301.4 299.5 296.4 294.8 288.4 281.9 274.6 271.6 272.5 274.1 277.1 281.9 283.6 284.7 284.1 281.5 280.9 280.7 281.9 281.9 278.1 277.8 277.8 276.1 274.5 272.5 269.5 267 264.9 264.4 263.8 264.8 265.4 263.9 257.9 252.6 250.3 247.6 247.6 247.3 247.1 240.1 227.4 220.7 216.5 211.9 205.4 199.6 195.4 192 189.1 186.6 184.4 182.9 181.4 180.7 180.7 182.5 181.9 180.3 178.4 176.1 173.9 171.3 170.6 168.6 166.7 164.6 162.4 159.9 161.2 164.1 166.5 168.7 171.7 175.5 178.9 181.6 183.6 184.9 186.1 186.8 187.7 189.1 189.7 190.4 190.9 192.9 191.4 191.2 190.5 191.1 194.9 199.1 201.4 203.2 204.3 205.6 206.7 208.2 208.9 209.5 210.3 211.3 210.7 209.9 209 208.1 207.2 206.2 207.7 213.2 215 210.3 210.1 210.4 211.2 212.4 213 213.8 213.2 211.7 210 208.6 206.3 203.7 199.1 195.2 191.8 188.7 185.5 183.9 182.9 179.2 175.5 171.4 167.3 163.8 161.2 157.1 153.1 151.3 150.1 149.2 148.9 148.4 147.8 147.3 146.9 145.8 144 142.7 143.9 146.1 147.6 150.4 152.2 155.1 156.9 158.5 159.8 160.7 160.6 159 157.8 155.8 153.6 151.3 149.7 148 145 142.7 141.6 140.7 140.5 140.5 140.3 138.3 133.8 128 126.6 124.4 120.1 118.7 113.7 111.5 112.7 114.4 121.5 122.4 126.8 127.3 131 132.7
308.1 307.2 306.5 302.2 295.2 295.1 298.4 298.7 299.4 292.2 285 279.6 273.7 271.3 272.7 274 279.9 285.1 287.8 287.6 286 284.4 284.2 284.8 284.6 283.7 282.2 283 281.9 280.5 280.4 276 272.6 267.6 265.5 264.9 264.8 264.6 263.9 262.6 258.3 254.1 250.6 249.6 248.7 247.3 246.1 239.7 226.9 221 216.1 213.2 208 200.1 195.4 191.2 189 186.6 184.3 182.1 180.1 179.6 180.4 182.4 181.3 180 178.3 176.6 174.9 172.6 170.3 168.7 166.9 164.6 162.2 159.2 161.9 164.5 166.6 169.5 172.8 176.4 180.2 182.7 184.3 185.7 186.8 187.5 188.5 189.6 190.1 191.6 192.2 192.1 191.1 190.7 190.9 193.2 196.3 198.6 200.9 203.4 204.6 205.9 207 208 208.8 209.4 210.1 210.9 211.3 210.5 209.2 208.7 208 206.8 207.7 216.6 217.4 211.1 211.5 211.9 213.1 213.8 215.1 215 213.4 211.9 210.7 209 206.4 203 198.8 194.6 190.8 187.4 184.1 182.1 181 177.6 173.5 169.5 165.5 161.9 159.3 155.7 152 150.9 148.9 148.2 148.2 147.8 147.4 146.9 146.8 145.7 143.3 142.3 144.4 146.2 149.5 152.6 153.4 155.9 157.8 158.9 160.2 160.9 160.8 159.2 158.1 156.4 154.8 153 150.1 148.2 145.6 143.6 142.8 142.3 142.1 142.1 142 140.7 137.2 129.2 126.4 124.7 120.2 121.1 113 113 113 115.7 119.4 123.9 127.5 130.7 132.1 135.4
307.2 307.3 306.7 297.6 294.1 294.5 296.4 303.7 303.9 287.5 281.9 276.9 273.4 270.8 272.8 274.6 283.2 290.1 294.4 290.6 287.8 287.1 290.6 291.6 288.5 285.2 285.9 288.1 285.5 285 284.6 278.8 275.1 269.3 265.8 265.3 265.3 264.7 263.6 262.3 258.6 253.9 253.1 251.8 249 246.5 242.8 236.5 227.3 220.9 219.5 214.7 209.2 201 194.2 189.8 188.3 186.5 183.2 181.4 178.6 179.7 180.4 181.5 180.5 179.4 177.6 176 174.9 173.3 170.8 168.2 166.4 164.8 163 159.9 162.9 164.6 167.1 171.1 174.6 178.3 181 183.5 185.4 187.1 187.7 188.5 189.2 190 190.7 192 192.3 191.4 190.5 189.9 189.9 193.1 199.1 200.5 201.8 203.7 204.8 205.8 206.8 207.9 208.6 209.2 209.9 211.2 211 210.8 209.8 209 208.5 207.4 208.5 216.8 216.3 211.9 212.4 213.7 214.6 215.6 216.5 215.7 213.9 212.3 211.2 209 205.8 201.9 197.9 193.8 189.6 186.2 182.7 180.2 178.7 175.9 172.3 167.4 163.8 160.2 157.2 153.4 151.4 151.1 148.4 147.7 147.2 147.8 146.8 146.1 145 143.6 142.2 142.8 144.8 147.9 152.5 153.4 154.5 156.1 158.5 159.2 160.4 160.5 160.7 159.5 158.3 156.6 154.8 152.8 150.3 148.6 145.7 144.7 143.8 143.2 142.9 142.9 142.5 142.1 138.8 134.1 126.6 123.9 121.8 118.6 112 113.4 113.9 118 122.5 125.5 127.7 131.4 136.1 137.5
304.2 306 302.1 295.9 293.7 292.3 295.2 298.8 292.9 286.9 278.8 275.1 273.4 271.3 273.1 275.8 284.3 292.9 294 291.4 289.5 289.5 294.1 296.5 293.9 287.9 287.5 288.7 288.4 288.6 286.9 281.6 277.2 271.6 267.8 267.4 266.4 265 263.5 261.9 258.1 255 254.3 252.9 250.4 246.1 241.7 234.5 228.1 222.8 219.7 215.3 210.7 204 193.1 188.4 186.8 186.3 182.3 180.7 180.1 178.6 181.6 180.8 179.8 178.7 177.3 175.8 174.5 172.9 171 167.7 165.7 164.6 163 161.9 163.6 165.2 168 171.9 175.8 179.4 182.7 184.7 186.3 187.4 188.6 189.4 190.1 190.8 191.5 192.5 192 191 190.6 190.9 190.6 195.9 198 201.2 202.8 204.5 205.3 206.1 206.8 207.7 208.5 209.7 210.1 210.6 210.5 210 209.5 209 208.2 207.8 209.2 212.9 213 211.8 213.4 214.8 215.9 216.9 217.2 216.8 214.3 212.2 210.9 208.8 205 200.7 196.9 192.4 188.3 184.5 181 176.8 175.7 173.4 170.3 165.8 161.6 158.4 154.4 152.4 150.5 148.8 148.1 147.4 146.6 147.6 145.8 143.2 143.1 142.8 144.9 146 146.6 150 152.7 153.9 155 156 159.3 159.8 160.6 160.7 160.6 159.6 158.2 156.4 154.6 152.6 150.8 148.3 145.8 145.1 144.5 144 143.7 143.5 143.2 143 138.9 134.2 125.9 124.4 122.6 119.9 113.7 113.7 114.2 118.9 124.9 125.5 129.3 133 135.3 137.8
298.1 300.6 296.9 291.5 290.7 291.6 292.3 290.2 287.8 283.2 276.3 275.3 274 273 273.3 277.5 285.2 291 292.6 292.3 291.9 290.5 294 296.4 294.2 290.7 288.4 289.3 292 296.6 292.9 288.7 281.5 276.4 273.2 270.7 269.1 266.2 263.8 262.5 260.3 256.9 256.6 254.2 250.6 246.5 241.3 233.8 228.7 225.1 221.8 217.6 212.5 206.2 195.1 187.8 185.4 184.4 181.4 179.3 179.6 179.1 181.3 180.2 179.5 179.4 178.3 176.1 174 172.1 170.6 169.2 167.6 165.8 163.5 162 164.5 166.4 169.2 172.8 176.9 180.3 183.1 185.1 186.5 187.5 189.2 190.1 190.8 191.6 192.2 192.3 191.7 191.1 190.9 191.7 191.9 195 199.3 202.4 204.2 205.3 206 206.7 207.3 207.9 209.1 209.2 210 210 210 209.5 209.2 208.5 207.3 208.1 209.8 211.8 211.7 212 214.1 216 216.9 217.6 217.8 217.2 214.7 212.3 210.3 207.8 204.3 199.9 195.5 191 187 182.8 178.1 173.9 172.1 170.8 168 164.7 160.9 156.1 151.8 150.5 149.6 148.3 147.8 147.3 147.4 146 146.4 143.6 144.2 146 146.6 147.3 149.8 151.3 154.5 154.8 155.9 156.5 158.9 160.1 160.8 161.2 160.6 159.5 157.9 156.3 154.3 152.4 150.8 148.3 146 145.5 145.2 144.8 144.4 143.7 143.1 142.2 139.3 133.3 125.9 123.3 120.6 117.8 114.2 114 115.5 120.3 122.9 127.5 130 135.2 137.5 138.7
295.1 290.6 288.5 286.3 285.2 284.8 283.8 282.1 281.1 277.1 275.7 275.4 276.5 275.3 272.7 278.9 288 292.8 295.4 294.9 294 291.8 291.6 292.7 292.2 291.4 289.5 291.5 294.9 296.9 296.2 293.1 286 280.8 278.1 275.3 272.5 267.9 264.7 264 261.2 259.8 261.2 258.6 252.3 247.3 241.8 234.3 229.7 227.5 224.9 219.6 214.2 207.8 196.3 189.6 185.9 183.9 182 179.5 178.8 179.1 179.8 179.2 179.7 179.5 178.4 176.5 174.4 172.8 171.1 169.5 167.9 166.8 163.3 162.4 165.6 168 170.3 173.8 177.7 180.4 183.2 186 186.8 187.9 189.8 190.7 191.4 192.2 192.6 192.5 191.9 190.6 191.3 192.5 194 197 200.7 203.6 204.6 205.8 206.6 206.7 207.4 208.2 208.9 209.7 209.8 209.7 209.7 209.5 209.2 208.5 208.5 209 210.2 210.8 211.1 211.9 214.1 216.5 217.2 218 217.9 216.2 214.2 211.9 209.4 206.6 202.8 198.4 194 189.7 185.2 180.2 175.2 171.3 169.9 169 165.2 162 158 153.7 151 149.6 148.3 147.5 147.1 145.9 145.4 143.4 143.1 144.3 146.5 147.1 147.8 149.1 150.9 154.2 155.2 156.1 156.7 157.1 158.7 160.3 160.8 160.9 159.9 158.7 157.3 155.5 154 152.1 150.6 148.2 146.3 145.7 145.3 145.1 144.6 143.9 142.8 141 141.2 134 125.2 123.6 120 115.2 114.6 114.7 116.1 121.8 124 127.1 131.8 135.6 138.4 140
285.2 279.8 274.7 274.6 274.9 279.8 281 280.3 277.5 276.6 277.3 278.4 280.4 277.2 274.8 279.8 289.1 295.1 298.7 296 294.7 294.5 292.9 293 290.4 291.3 292.9 293 295.4 300.1 299.6 293.8 289.6 285.1 283.4 278.7 275.2 270.1 267.9 265.3 262.9 262.8 265.6 260.6 252.4 247.5 243.3 236.5 231.8 230.5 228 222.4 216.5 208.9 197.3 191.2 186.7 184.2 181.4 180.5 179.3 178.5 179.9 179.9 179.9 179.9 178.5 176.3 174.6 172.8 171.2 169.6 167.7 165.5 162.6 162.1 165.9 169 171.8 175.4 178.1 180.7 183.3 186.1 188.3 189.6 190.4 191.2 191.9 192.7 193.4 193 192 191.6 192.5 192.9 194 197 202.6 204.3 205.6 206.3 207 207.6 207.8 208.5 209.2 209.8 210 210.2 210.2 209.7 208.7 207.8 208.3 209.3 210.6 210.8 210.6 211.7 214.1 216.8 217.7 217.9 217.4 215.8 213 210.9 208.1 204.9 201.2 196.9 191.9 187.4 182.4 177.5 173.1 169.5 168.4 167.3 163 160 156.2 152.8 150.1 148.5 146.5 145.2 143.8 143.7 144.7 145.5 146.1 145.8 147.4 148.2 148.7 150.7 153.6 155.3 156.2 157.1 157.4 157.6 159 160.2 160.5 160.4 159.5 158.2 156.9 155.8 153.7 151.7 150.2 148 146.5 145.8 145.4 145.5 144.9 144 142 140.9 138.3 133.7 124.8 121.9 117.8 115.2 115.7 115.1 116.2 118.4 126.5 127.5 130.7 134.7 137.7 140.5
274.6 275.5 274.6 274.6 274.6 279.1 281.6 279.5 278.7 279.8 281 284.9 283.7 279.1 276.1 281.9 289.9 294.3 294.3 294 296 299.5 294.8 293.7 292.2 297.1 296.6 295.4 296.6 301.1 300.3 297.3 291.7 287.8 285.9 281.6 278.5 273.5 270.5 267.4 265.3 265.2 266.6 261.8 252.9 248.5 244 238.1 234.8 233.6 230.9 226.1 219.9 210.2 198.2 192.6 187.6 183.9 181.7 180.1 179.5 179 178.2 181.3 180.8 179.8 178.5 176 174.2 172.8 171.3 169.3 167 164.8 162.4 163.3 167.3 170.2 173.5 177.2 178.8 181.4 184.1 186.3 188.8 190.7 191.4 191.6 192.5 193.2 194 193.2 192.3 192.4 193.4 194.4 197.1 198.9 201.7 205 206.5 207.4 208.1 208.2 208.4 208.6 209.3 209.9 210.2 210.4 210.3 209.3 208.5 207.9 208.8 209.4 210.4 210.9 211 211.8 214.1 216.5 217.6 217.4 216.6 214.5 211.6 209.6 206.5 203.4 199.4 195.2 190.1 184.6 179.6 175 171.4 168.3 166.8 165.1 160.6 156.8 155.6 153.7 150.2 147.1 145.9 145.4 143.8 146.4 146.7 147.4 146.8 145.9 148.2 149.9 150.5 152.9 155.3 156.3 157.2 157.9 158 158.1 158.9 159.2 160.1 159.9 159.2 157.6 156.4 155.4 152.7 150.8 149.1 147.4 146.7 146.1 145.5 145.8 144.6 143.8 141.9 139.8 136.4 130.1 124.6 120.3 116.4 115.9 116.3 115.8 123.2 117.5 119.6 128.4 132 134.1 139.3 141.5
274.6 282.9 274.8 274.6 274.6 274.6 279.8 276.1 275.3 281.7 288.4 291 284.7 279.1 277.6 281.9 287.8 291.1 292.2 293 301.2 302.9 292.1 290.3 297 303.4 302.9 298.2 298.4 299.9 300.9 300 294.7 290.5 288.1 284.3 281 278 274.5 270.7 267.2 266.3 265.2 261.7 253.8 249.6 243.4 240.6 239 237.2 234.2 228.9 222.7 210.8 198.5 192.5 187.7 183.9 181.8 180.8 180.2 179.1 178.5 181.3 180.4 179.5 178.4 175.9 173.7 172.4 170.7 168.3 166.1 164.2 161.5 165.5 168.1 170.8 174.1 177.7 180.4 182.7 185.1 187.5 189.6 191.3 192.5 192.6 192.7 193.5 193.7 193.1 192 193.3 194.4 195.5 199.3 201.4 203.4 206 207.3 208.4 208.7 208.9 209.1 209.2 209.5 210.3 210.6 210.6 210.2 209.5 208.8 208.6 208.5 209.7 209.9 210.3 210.6 211.6 212.7 215.4 216.5 216.6 215.2 212.7 210 208 205 201.5 197.3 192.9 187.3 181.6 176.5 171.9 167.8 165.6 164.8 161.8 156.2 155 153.8 151.4 148.2 146 145.8 145.3 144.3 146.5 147.2 147.5 147.3 146.7 148.7 151 152 154 155.8 156.9 157.8 158.3 158.5 158.7 159.1 159.2 159.6 159.1 158.1 157.1 156 154.8 151.8 149.9 148.4 147.5 146.5 145.8 145.2 144.8 144.8 142.9 141.3 138.4 133.4 129 122.3 118 117 117.1 116.6 116.1 119.3 124.2 131.6 128.3 129.1 133.7 137.5 140.7
274.6 274.6 274.6 274.6 274.6 274.6 274.6 274.6 274.6 280.8 289.5 290.4 284.9 275.4 277.5 282.6 286.9 290.2 291.3 292.8 298.4 300.5 290.8 290.3 298.6 303 303.7 303.1 300.6 300.2 305.2 301.9 297.6 294.6 291.6 287.6 282.2 280.5 276.9 274 270.4 267.2 264.4 260.6 254.6 250.7 247.2 244.1 243.4 241.2 237.7 231.7 224.1 213.2 201.1 195 190 184.4 182.1 181.4 180.8 179.9 178.5 181.7 179.6 178.9 177.8 176.3 173.2 171.9 169.4 166.8 165.1 163.2 164.5 166.3 169.2 172.1 175.2 178.6 181.7 184.2 186.5 188.7 190.1 191.9 192.9 193 192.7 193.4 193.5 193.2 192.9 194 195.1 196.5 200.5 203.8 207.3 209.2 209.7 210 209.9 209.8 209.7 209.9 210.3 210.7 210.9 210.7 210.6 209.8 208.8 209 209.4 209.7 209.9 210.5 210 211.6 212 214.5 215.2 214.6 213.1 210.4 208.1 206.6 203.4 199.5 195.1 190 184.6 177.8 173.2 168 163.7 161.9 161.6 159.2 155.6 153.8 152.9 150.6 148.5 146.9 145.5 144.7 143.9 146.4 147.6 147.7 147.9 150.7 150.3 152.4 153.4 154.7 156.4 157.4 158.4 158.4 158.7 159 159.1 159.2 159.1 158.6 157.6 156 154.8 153.6 151.1 149 147.8 146.7 145.7 145.1 144.7 144.4 144.5 141.7 140 136.1 133.6 128 121.2 118.1 118 117.7 117.2 116.7 121.1 128.8 131.6 132.4 133.1 131.7 136.3 139.3
274.6 274.6 274.6 274.6 274.6 274.6 274.6 274.6 274.6 280.3 285.8 289.2 281.4 276.5 275.2 282.2 286.4 289.3 290.8 292.6 294.8 295.9 290.3 290.3 297.6 303.7 305.5 305.1 301.9 300.4 299.7 299.8 299 297.6 295.4 290.6 287.1 284.3 280.6 277.2 272.8 268.7 264.9 260.5 255.4 251.8 249 247.4 247.4 245 241.2 234.6 225.6 213.4 204.4 197.3 191.9 185.7 182.3 181.9 181.3 180.6 179.9 177.5 178.4 178.2 177.6 176.2 172.7 170.6 168.1 165.7 164.2 162.7 166.4 168 170.1 172.9 176 179.6 182.3 185 187.8 189.8 191.2 192.4 193.4 193.2 193.6 193.9 193.8 193.7 194 194.8 196.3 197.8 201.1 206.7 208.9 210.9 211.7 212 211.9 211.1 210.6 210.7 210.9 211.2 211.4 211.3 210.8 209.9 209.4 209.3 209.6 210 210 210.1 210 210.9 211.5 212.4 213.7 212.9 210.4 208.2 207 205 201.2 197.1 192.2 186.8 180.9 174.2 169.1 164.3 160.8 159.1 157.4 155.4 154.2 153.7 152.5 150.7 148.9 146.8 145.2 145 144.4 146.6 147.3 148.7 149.1 152.4 153.4 154.2 154.8 155.7 157 158 158.6 158.5 158.8 159.1 159.2 159.1 158.8 157.8 156.8 155 153.6 152.4 150.5 148.2 147.5 146.6 145.3 144.8 144.3 143.9 142.8 141.7 136.5 133.2 128.2 124.4 121.7 118.7 118.9 118.2 118.2 117.3 123 127.7 131.6 133.9 136.8 137.4 135.9 139.3
274.6 275.9 281.3 274.6 274.6 274.6 274.6 274.6 274.6 274.9 281.2 282.1 279.4 274.6 276.7 283.2 287.8 290.2 291.8 293.2 293.8 294.2 290.3 290.3 302.8 305.7 306.4 306.2 304.2 301.9 300.9 299.7 299.3 297.5 296.9 291.5 290.4 287.3 284.5 278.9 273.9 269.5 264.7 259.9 255.6 252 249.5 249.9 249.7 249.3 245.6 239.6 229.1 216.6 208.1 200.1 195.5 188 183 181.6 180.8 180.2 178.3 176.5 177.2 176.8 176 174.6 171.6 169.1 167.5 165.6 164.4 162.5 167.7 169.8 171.9 173.9 176.8 180.2 183.1 186 188.7 190.9 192.6 193.3 193.9 194.3 194.6 194.8 195.1 195 195.2 196.1 197.1 198.5 202.1 208 211.3 213 213.6 214.2 213.4 212.5 211 212 212.2 212.3 211.9 211.8 211.6 210.8 211 210.9 210.5 210.3 210 210 210 210.9 211 211.5 211.6 210.3 208.4 207.2 206 202.8 198.6 194.1 189.7 183.2 176.5 170.1 165.3 160.9 157.8 157.1 156 154.7 153.4 152.9 151.9 150.5 148.4 146.5 145 144.4 145.7 147.2 147.8 150 152.7 153.5 155 155.9 156.7 157.4 158.2 158.7 158.9 159.1 159.1 158.8 158.7 158.8 158.4 156.9 156 154.5 152.9 151.4 149.7 147.8 147.2 146.2 145 144.6 144.1 143.1 141.6 139.6 134.2 130.3 127.1 124.6 121.6 119.5 119.5 118.6 118.2 123.4 124.8 132 133.1 137.9 137.9 140.4 135.4 139.6
278.6 280 280.1 274.6 274.6 274.6 274.6 274.6 274.6 274.6 274.6 278.6 274.6 274.6 275.4 287.6 290.1 292.4 295.9 297.8 295.7 295.5 295.2 297.2 304.6 306.7 306.6 306.6 307 303.9 300.7 299.8 299.1 299.2 298.8 292.5 290.6 288.7 285.6 279 274 269.9 264.7 259.6 255.6 253.4 252 251.8 253.1 254.2 250.6 244.2 230.1 218.6 211.8 205.2 200.3 191.6 185.5 181.8 180.7 179.7 181.3 177.3 177.6 175.9 175.4 171.8 170.5 168.6 167.6 165.3 163.4 166.8 168.7 171 173.1 175.2 178.3 181.7 184.3 187.2 189.6 191.8 193.1 193.8 194.4 195 195.3 195.6 195.9 195.8 196.3 197.1 197.8 199.9 204.5 209.9 213.8 215.1 215.6 215.7 215.6 215.4 213.6 213.9 213.8 213.7 212.9 212.7 212.5 212.4 212.1 212.1 211.5 211.1 211.1 211 210.7 210.7 210.5 210.1 209.8 208.1 206.8 205.9 204.1 201.1 197.6 192.3 186.5 179.4 172.6 166.1 162.2 157.5 157.1 156.5 155.7 153.8 152.9 152.2 151.1 150 146.3 144.8 144.8 145.5 147.3 147.6 149.1 151.5 153.9 155.4 156.6 157.2 157.8 158.2 158.7 158.9 159.1 159.2 159.3 158.4 158.4 158.5 158 156.4 155.2 153.6 151.9 150.3 148.7 147.5 146.5 145.4 144.6 144.2 143 141.8 139.3 136.6 133.2 129.7 127.7 123.7 121.7 120.2 119.1 118.7 118.7 122.6 126 134 136.2 138.5 139.7 144.1 140.5 140.6
280.4 281.7 281.6 277.2 274.6 274.6 274.6 274.6 274.6 274.6 274.6 274.6 274.6 274.6 276.4 292.3 291.3 295.7 299.6 301.5 299.3 297.6 297.9 299.9 305.1 306.5 306.7 305 302.2 301 300.9 300 299.3 298.8 297.7 293 291.2 288.7 285.5 280.3 273.8 269.9 264 260 256.5 254.9 254.1 253.5 255.5 257.4 252.9 245.7 232.2 221.9 216.8 210.4 204.1 195.4 189.2 184.5 182 181.9 183.5 177.6 176.5 175.6 173.6 171.1 170.1 168.3 167.1 164.3 163.4 166.9 169.4 172 174.4 176.6 179.6 183.2 185.6 188.1 190.4 192.5 193.3 194.1 194.9 195.6 196 196.2 196.5 196.8 196.7 197.8 199 202 206.9 211.8 215.9 216.8 217 217.2 217.7 217.7 215.8 215.4 215 214.9 214.1 213.5 213.4 213.5 213.7 213.3 212.7 212 211.5 211.3 210.9 210.6 209.8 208.9 208 206.2 204.9 204.4 201.5 197.9 194 189.2 182.7 174.9 168 162.5 157.8 156.7 156.1 155.5 154.6 153.2 151.7 151.2 149.6 147.1 144.5 145.8 146.4 147.2 148.3 148.7 149.6 152.7 154.1 156.3 158.4 158.4 158.7 158.9 158.9 159 159.1 159.2 159.4 159 158.5 158.2 157.5 156.1 154.7 152.5 150.9 149.4 148 146.9 145.9 144.9 144.5 143.7 142.2 140.9 138 135.1 132.3 129.6 126.6 124.9 123.8 120.8 118.8 119.5 120.8 125.9 130 137 138.3 139.7 141.6 144 144 143.6
285 282.9 281.6 279.8 274.6 274.6 274.6 274.6 274.6 274.6 274.6 274.6 274.6 274.6 274.6 286.4 290 295.8 299 304.8 301.1 298.8 298.8 301.2 307.6 308.4 306.7 303.7 302 300.8 300.8 299.9 300.2 297.8 296 292.1 288.9 286 282.4 278.7 272.5 267.4 263.8 260.4 257.5 256.1 255.1 255.7 256.2 254 250.5 241.8 232.1 224.7 220.4 214 207.6 199.9 193.3 187.6 184.2 183.8 181.8 177.2 176.5 175.3 174.4 173 169.4 167.8 167 163.4 165.1 168 170.4 172.7 175.2 177.7 180.8 183.9 186.2 188.5 190.9 192.9 193.8 194.5 195.3 196.1 196.6 196.9 197.2 197.5 197.9 198.5 200.3 203.7 209.6 214.4 217.4 218 218.4 218.7 219.1 219.7 217.8 216.6 216.3 216.2 215.4 214.6 214.3 214.4 214.3 214.2 213.8 213.1 212.4 211.6 210.8 209.9 209.1 208.2 206.6 204.6 203.1 201.7 198.7 194.9 191.2 184.5 177.5 170.5 165 160.2 156.5 155.7 155.2 154.6 153.5 152 150.7 148.8 147.5 146.3 145.1 147 147.8 148.3 149.1 150.5 153.2 155.9 157.6 159.9 160.7 160.3 159.5 159.6 159.5 159.6 159.7 159.8 159.5 159 158.6 157.5 156.6 156 154.1 152 150.4 149 147.8 146.7 145.6 144.9 144.2 142.9 142.2 140.2 137.9 134.2 130.4 128.5 126.7 124.4 121.4 120.7 119.7 122.4 123 124.9 130 135.6 139.7 141.9 143.8 144.3 144.5 145.7
285.5 286.1 288.7 283.6 274.6 274.6 274.6 274.6 274.6 274.6 274.6 274.6 274.6 274.6 274.6 281 286 292.7 299.4 303.2 301.1 297.9 298.8 301 306 307.1 305.8 304.2 302.5 301.6 301.1 301 302.8 299.2 295.4 291.2 287.4 284.1 280.8 276.5 271 267 263.3 260.5 258.1 256.6 256.8 256.9 256.2 253.5 248.4 239.9 234.1 228.2 223.1 216.9 210.4 203.2 196.5 191.6 185.1 186.2 177.9 177.3 176.6 175 172.7 171.8 169.6 167.9 166.6 163.2 167.2 169.6 172.2 174.5 176.7 178.8 181.9 184.3 186.4 188.6 191.4 193.3 194.2 195 195.7 196.5 196.9 197.6 197.9 198.3 198.6 199.8 202.2 205.4 212.5 216.7 219 220.9 221.4 221.3 221.4 221.7 219.8 218.9 218.3 217.2 216.5 216 215.6 215.1 214.9 214.8 214.7 214.1 212.9 211.9 211 209.2 208.3 207 205.3 203.2 201.6 199.5 196 192.7 188.8 182.4 173.8 167.3 161.6 157.3 155.7 154.8 154.4 153.8 152.8 151.4 149.1 144.8 145 144.5 145.3 147.6 148.6 149.2 149.5 150.8 155.7 158.1 160.1 161.7 162.3 162.1 161.2 160.4 160.2 160.2 160.3 160 159.7 159.1 158.4 157.3 156.2 155.2 153.9 151.8 150.1 148.8 147.6 146.4 145.1 144.6 143.5 142.2 140.5 138.1 133.2 131.8 129.3 128.2 125.9 124.4 121 121.7 121.8 125.1 125 129.6 133.6 137.5 141.6 143.3 143.4 145.1 149.9 150.7
283.8 285 284.2 281.6 274.6 274.6 274.6 274.6 274.6 274.6 274.6 274.6 274.6 274.6 274.6 276.1 282.2 288.6 293.7 295.2 300.3 298.5 296.9 301.7 304.3 304.3 303.6 302.9 303.2 301.7 301 301 299.2 296.8 293.4 290.2 286.1 282.3 278.9 273.7 269.5 266.6 263.1 260.1 258.4 257.6 257.6 258 256.6 253.1 247.7 240.5 236.1 231.9 226.8 219.8 212.9 204.6 197.2 190.8 188 181.1 178.3 177.4 176.4 176.2 171.6 173.5 168.7 166.7 165.3 166.3 168.6 171 173.6 176.1 178.2 180.4 183.1 185.2 187.3 189.3 191.4 193.8 194.6 195.4 196.1 196.8 197.2 197.8 198.5 198.8 199.2 201 203.4 208.3 215.2 218.9 221 223.1 224 224.1 224 224 223.5 221.8 220 218.6 218.2 217.4 216.9 216.3 216 215.7 215.5 214.8 213.5 212.4 211.3 209.1 206.9 205.9 203.5 201.4 199.6 196.8 193.4 189.8 184.2 178.5 170.7 164.1 160.7 156.1 154.9 154 153.5 152.8 152 150 147.2 145 147.5 147.6 148.2 148.6 149.4 150.1 151.1 156.7 158.4 160.3 162 163.3 163.6 163.5 162.8 162 161.1 160.7 160.5 160.4 160 159.3 158.3 157.2 156.1 154.7 153.4 151.2 149.4 148.1 147.5 145.5 144.9 143.8 142.7 141.6 140.4 137.5 135.5 132.8 130.5 127.1 125.5 122.4 122.1 122.6 122.9 125.2 126.8 130.2 134.9 140.2 143.5 144.2 146.1 150 150 150.4
275.1 282.3 281.7 277.8 274.6 274.6 274.6 274.6 274.6 274.6 274.6 274.6 274.6 274.6 274.6 274.6 280.7 289.8 293 295 296.6 296.4 296.1 300.6 303.7 303.2 302 302.7 304 300 300.1 300.6 298.7 297.2 293.6 289.3 284.5 280.2 276.4 271.5 268.1 264.5 262 260.1 258.8 258.1 257.9 258.2 256.4 253.1 246 241.4 237.1 234.7 230.7 223 215.8 206.3 197.2 191.9 188 182.6 178.6 176.6 175.4 173.9 171.3 168.9 166.9 166.9 164.8 167.6 169.4 171.8 174.4 176.9 179.2 181.7 183.9 185.8 187.8 189.8 192.2 193.8 194.9 195.8 196.6 197.1 197.5 197.9 198.8 199.4 200.9 202.6 206.1 211.3 217.2 221.4 223.4 225.2 225.6 226.3 226.2 226.6 225.3 223.9 222.3 220.4 219.3 218.9 218.2 217.6 217.1 216.9 216.6 215.9 214.3 212.9 211.5 209.1 206.5 205 202.2 200.2 198 194.5 190.8 186.6 181.2 175.3 168.1 161.4 156.8 155.5 154.1 152.8 152 151.2 150.2 147.8 145.6 147.3 148.1 148.6 148.8 149.5 150.1 151.3 154.7 158 159.6 161.8 163.6 164.4 164.6 164.7 164.3 163.5 162.5 161.3 161.2 161.1 160.1 159.2 158.2 157.1 156 154.9 153.7 150.9 148.6 147.3 145.9 145.1 144.6 143.7 142.6 141.3 139.5 137.1 134.4 132.3 131.9 126.7 124.9 122.1 123.7 123.6 124.9 126.8 130.3 132.7 135.8 139.9 144.2 144.7 147.4 148.2 149.7 150.6
274.6 274.6 274.6 274.6 274.6 274.6 274.6 274.6 274.6 274.6 274.6 274.6 274.6 274.6 274.6 277.2 295.3 296.6 297.4 296.7 296.6 296.3 296.3 299.4 307.1 302.6 299.7 298 304.9 297.7 297.8 299.5 296.7 295.4 291.4 289.3 281.3 277.7 273.3 269.8 266.5 263.4 261.6 259.4 257.8 256.8 257.4 258.1 257.2 252.5 245.8 242.3 237.9 236.2 232 224.8 216.3 207.1 197.8 192.1 188.8 183.4 177.7 177 174.5 173.4 171.7 169.7 168.4 167.5 165.7 168.9 170.4 172.7 175.4 177.7 180.1 182.5 184.7 186.4 188.3 190.5 192.5 193.9 194.9 195.9 196.9 197.4 197.8 198.1 199 200.5 202.6 204.8 208.4 213.2 218.4 222.6 225.4 226.5 226.7 227.5 228.8 228.7 227.2 225.5 223.5 222.3 220.4 220.1 219.4 218.8 218.3 217.9 217.5 217.5 215.3 213.5 211.4 209.2 205.8 203.5 200.8 198.9 196.3 192.4 188.3 184.5 177.2 171.9 164.6 159 156.2 154.8 153.3 151.3 150.6 150 147.5 147.5 148.2 148.4 149.1 149.8 149.9 151.3 151.1 154.8 155.9 159.5 161.5 163.2 164.9 165.5 165.6 165.6 165.6 164.9 164 162.3 161.8 161.4 160.2 159 157.9 156.9 155.8 154.3 152.6 150.6 148.2 146.6 145.7 144.8 144.3 143.7 142.6 140.5 138.4 135.4 132.8 130.8 130.3 127.7 124.4 123.4 124.8 125.1 125 126.8 130.1 133.2 138.5 142.4 144.4 144.9 146.6 148.4 150.1 151.7
276.5 274.6 274.6 274.6 274.6 281.5 274.6 274.6 274.6 274.6 274.6 274.6 277.7 278.5 278.5 279.9 287.9 294.6 299.7 297.1 294.8 296.7 298.5 299 301.8 299.4 297.6 296.2 294.9 293.2 292.3 292.1 293.1 293.2 288.1 282.8 278 274.1 271 267 264.1 262 260.9 258.5 256.6 254.8 254.8 256.7 257 250.1 245.2 242.7 240 238.1 233.4 225.4 216.2 207 198.1 192.1 189.9 182.2 178.2 177 175.1 173.3 172 170.9 169.6 165.8 166.8 169 170.8 173.5 176.2 178.5 180.9 183.4 185.5 187.3 188.7 191 192.8 194 195 196 196.6 197.4 198 198.5 200.3 202.4 203.9 205.8 209.1 213.4 218.5 223.2 227.1 227.3 227.8 228.6 229.9 230.3 229.8 227.7 225.2 223.4 221.3 220.9 220.6 220.1 219.6 219.3 218.5 217.1 216 214.1 211.9 208.5 205.3 202.1 199.5 197.6 194.2 189.5 185.7 181.4 175 168.4 161.6 157.3 155.1 153.9 152.2 150.7 150 147.2 148.2 148.9 149.1 149.5 150.3 150.8 150.9 151.8 152.9 155.3 158.3 161.1 162.9 165.1 166.6 167.2 167.1 167.1 166.6 165.8 164.9 163.2 162 161.5 160.2 159 157.6 156.4 155 153.2 151.2 149.6 147.9 146.6 145.6 144.6 144 143.3 142.2 139.9 138 136.3 132.5 131.8 126.8 125.3 124.3 124.3 123.7 126.4 125.9 129 133.6 135.6 139.5 144.1 145.3 146.6 147.8 149.5 150.4 151.3
281.6 279.6 274.6 274.6 281.3 286.6 280.6 274.6 274.6 274.6 274.6 274.6 274.7 279.5 278.1 280.3 286.2 289.8 292.6 291.7 296.7 299.7 299.6 301.6 301.4 298.1 296.1 294.3 290.7 286.8 284.9 285.5 286.6 286.6 281.1 277.5 273.3 270.4 267.7 264.6 262 261.1 260.2 257.7 253.2 251.3 251.7 253.2 253.6 247.1 243.8 242 240.5 239.7 235 226.7 216.4 205.1 197.6 192.8 188.5 182.6 179.2 176.6 174.7 172.6 171.7 170.4 169.4 167 168 169.4 172.7 174.9 176.6 178.6 182 184.4 186.6 187.9 188.9 191.2 192.6 194.1 195.1 196 196.6 197.2 197.9 199.1 201.4 203.7 205.9 207.5 210.4 214.3 219.1 222.7 225.7 227.2 227.8 229.1 231.3 231.6 231 228.8 226.6 224.5 222.4 221.8 221.5 221.3 221.2 220.1 218.8 217.8 216.7 214.4 212.1 208.7 205.3 202.2 198.5 195.2 192.3 188.8 184 179.6 173.8 165.7 159 154.3 153.7 152.9 150.9 150.1 148.1 147.3 149 149.8 150.4 151.1 151.4 151.7 151.8 152.6 154.8 158.2 160.3 162.6 164.3 167 168 168.6 168.8 168.6 167.1 166.8 165.9 164 162.1 160.8 159.4 158.2 157 155.7 154.1 150.9 149.6 148.8 147.6 146.7 145.8 144.7 143.3 142.8 140.9 138.6 137.6 134.3 132.5 129 126.7 127.5 126.1 125.4 125.6 125.4 126.8 129.7 133.3 138.2 142.2 145.4 145.7 146.9 147.7 148.3 150 151.1
292.6 289.1 276 274.6 282.3 288.2 285.7 274.6 283.6 274.6 274.6 274.6 274.6 274.6 275.6 280.7 285.3 286.5 287.2 289.8 294.7 298.9 299.4 303.4 307.7 297.6 293.5 290.7 287.8 284.2 280 280.5 280.4 276.6 274 272 267.9 266 262.6 259.8 259.9 259.3 258 253.6 248.7 246.9 246.8 247.9 246.4 244.3 241.5 238.4 237.6 238.9 237.4 226.7 215.2 203.2 196.9 192.9 188.8 182.7 178.5 176.2 173.2 171.4 170.7 168.8 168.2 169.6 168.9 169.7 173.8 176.4 178.5 180.4 183.2 185.9 185.4 187.5 188.9 191.4 193.2 194.2 195.2 196 196.6 197.2 198.2 200.8 203.2 206.1 207.9 210.5 213.3 215.2 218.7 222.1 224.5 226 227.7 229.7 231.8 232.3 232.1 229.4 227.3 225.7 223.6 222.5 222.4 222.6 222.9 221.8 219.5 218.8 217.1 214.8 211.9 208.7 205.5 201.7 197.6 193.6 190.4 186.7 181.3 176.5 170.8 164.4 157.3 153.3 150.9 152.2 149.3 147.7 147.2 148.7 149.6 150.7 151.7 151.9 152.1 152.3 152.7 153.8 156.5 159.9 162.2 164.1 166.2 169 169.9 170.2 170.2 169.6 168.9 167.2 166.1 164.6 162.4 161.1 159.1 157.5 156 155.1 152.4 149.9 149.4 148.6 147.6 146.7 145.8 144.8 142.4 140.1 138.7 137.8 135.2 134.6 131.1 129.2 128.4 129.2 128 126.8 126.5 128.5 129.3 129.8 134.7 136.9 139.2 145.5 145.8 147 149.3 149.6 149.2 151.1
296.3 288.3 277.3 274.6 276.5 284 277.9 276.5 278.5 274.6 274.6 274.6 274.6 285.8 284.9 282.9 284.2 288 290.1 292.2 295 297 298.9 305 305.8 295.1 293.3 290.4 287.9 283.6 279.8 276.8 273.9 270.8 268 264.9 261.9 259.9 256.2 255.3 257.1 254 253.6 247.1 242.9 243.2 243.6 242.4 240.8 239.5 236.9 234.3 234.2 238.6 236.8 224.3 213.6 202.6 196.8 192.5 189.4 182.5 179.4 175.7 173.2 172.6 171.3 169.9 169.5 170.4 169.7 170.9 174.6 177.2 179.6 182.1 184.9 186.7 188.2 189 190.5 192.1 193.2 194.3 195.3 196 196.5 197.4 200.5 202.8 205.3 208.2 209.8 212.9 214.8 216.3 218.2 221.4 223.6 225 227 229.9 231.4 231.1 230.4 228 227.4 226.4 224.2 223.2 223.2 224.1 224.2 223 220.4 219.5 218.4 214.7 212 208.9 205.9 201.2 196.9 192.9 189 184.9 179.4 174.7 168.7 162.2 154.8 151.1 149.9 149.1 148.2 149 149.9 150.1 150.5 152.2 152.4 152.6 152.8 153 154 155.1 158.3 161.8 164.2 165.8 168.3 170.2 171.3 171.5 171.1 170.6 170 168.3 166.5 164.6 162.4 160.7 159.5 157 154.7 152.7 151.3 149.7 149.2 148.8 147.6 146.5 145.6 144.3 141.7 140.1 138.6 137.4 134.9 133.3 130.4 128.6 129.7 129.8 128.8 128.5 128.1 130.2 131.9 131.8 130.6 132.9 141 144.9 145.4 146.7 150.1 150.7 151.1 149.7
295.8 287 281.3 281.8 278.6 277.4 277.1 288.8 289 288.9 285.4 281.2 287.2 289.3 288.1 286 289.1 292.4 295.7 301.5 300.6 299.5 299.8 299.8 298.2 296.6 295 292 288.7 284.8 279.5 274.5 270.5 266.2 262.5 258.3 255 252.6 251.6 250.6 249.9 248.4 246.7 243.7 240.1 239.6 239 237.8 236.8 233.3 229.3 226.8 227.2 230.4 227.7 217.7 207.2 201.3 192.2 187.9 186.2 181.3 178.3 176.1 175 173.9 172.4 170.8 170.7 170.6 170.5 171.6 175.4 178.2 180.7 183.3 186 187.7 189.2 189.9 191.2 192.4 193.2 194.3 195.3 195.3 196.5 198.1 201.2 203.5 206.2 208.9 211.1 213.9 216.1 216.9 218.5 220.6 222.7 224.3 226.8 230.1 231.4 230.5 228.8 227.5 227.2 226.5 224.1 223.2 223.1 223.3 223.9 222.3 220.4 219.3 217.1 213.8 211.3 208.7 205.4 200.4 195.8 191.5 187.8 183 177.7 171.4 166.2 161.4 153.7 150.3 148.9 148.3 149.3 150.4 150.7 150.9 152.3 153.1 153.4 153.6 153.9 154.6 157.1 158.7 160.7 163.5 165.6 167.1 168.9 170.7 171.9 172.3 172.1 171.4 170.7 168.8 166.4 164.3 162.6 160.8 158.6 157.3 154.7 152.4 150.5 149.3 148.8 148.4 147.8 146.3 145.3 143.9 141.7 140.1 139.2 137.3 135 132.1 129.8 135.3 133.4 131.3 128 132.6 132.5 132.4 135.2 136.4 136.9 133 132.5 137.4 143.1 146.9 148 149.8 149.9 150
296.8 292.2 284.2 285.3 285.1 286 282.8 288.5 293.9 293.1 289.3 287.6 292 291.5 290.9 296.1 298.1 298.1 300 300.9 302.5 303.9 305.3 306.6 301.9 299.7 296.6 294.4 291.2 285.2 278.2 271.5 265.5 259.2 255.2 252 249.3 247.6 247.3 246.2 246.4 244.6 243 239.3 235.2 234.9 232.4 232 230.9 225.6 219.4 218 217.1 216.2 215.7 209.5 203.6 193.3 198.8 187.2 184 181 179.1 177.6 177.3 174.4 173.6 172.3 171.4 172.6 172.4 174.8 174.7 179.2 181.8 184.2 186.6 188.6 189.8 190.3 191.7 192.8 193.3 194.5 194.9 195.5 197.3 199.3 202.4 205.6 208 210.3 212.7 214.6 216.6 217.2 218.5 219.7 221.8 223.6 226.6 229.7 230.5 229.6 226.6 226 226.3 225.3 223.8 223.4 222.8 222.5 221.8 220.8 219.6 218.6 216.4 214.3 211.4 208.4 204.7 199.7 194.3 190 186.6 180.4 176.2 169.3 163.1 157.4 152.8 150.7 149.6 149.5 150.3 150.9 151.4 151.7 153 154.2 155.7 156.9 157.4 160 160.8 160.8 162.7 164.9 166.7 168.5 170 171.6 172.8 173.2 172.9 172.2 171.5 169.6 166.8 164.4 162.4 160.4 158.3 156.4 154.7 153.3 150.4 149.2 148.5 148 147.5 146.2 145 144.8 145 143 138.7 138.4 133.9 131.1 136.6 136.8 135.3 132.7 129.8 132.5 133.4 135.4 137.7 138.9 139.9 139 142.1 141.1 133.4 136.1 145.3 147.4 149.1 149.2
290.4 287.6 286.3 288.2 287.6 288 287.7 288.7 290.7 291.8 291.3 291.7 292.3 292.8 293.8 297.2 298.6 299.4 300.7 302 305.4 308.1 308.4 308.8 306.2 303.1 298.1 293.6 288.5 283.9 274.4 267.3 259.9 254.1 250.1 245.5 245.2 244.1 243.3 243.1 242.1 240.1 237.9 234.7 227.6 220.6 221.2 219.5 218.4 215.4 211.1 209.8 208.4 208.4 205.2 200.6 193.4 197.6 199.1 192 191.8 185.3 181.3 180.1 179 181.1 175.7 173.3 173.8 175 176.6 178.8 181 182.3 180.7 184.4 187.2 189.4 190.3 191.1 192.2 193 193.9 194.5 194.5 195.8 198.2 201 204.4 207.6 209.9 212 213.8 215.4 216.5 217.2 218.2 219.3 220.8 223 225 227 227.6 226 225.5 225.3 225.5 223.9 223.4 222.6 222.3 221.7 220.8 220 219.2 218 216.4 214.3 211 207.7 204 199 194.1 189.2 184.2 178.2 171.8 166.2 162.9 156.2 154.1 151.9 149.8 149.8 150.9 150.9 152.2 155.1 155.5 155.8 157.7 159.3 160.3 160.9 162.2 163.2 164 165.7 168.5 169.9 171.3 172.7 173.9 174.6 174 173.4 171.9 169.9 167.4 164.9 162.6 160.2 158 156.3 155.1 154 150.7 149.3 148.1 147.6 147.1 146 144.5 141.9 141.1 140.2 139.3 138.3 134.1 131.4 132.7 137.6 136.7 136.7 134.2 131.8 135.1 138.5 141.6 141.7 144.9 145.2 146.5 146.1 145.7 140.1 135.3 146.4 148.9 148.3
284.5 281.8 292.2 294.9 291.4 288.8 289.2 290.6 293.8 292.9 292.8 292.9 293.2 293.1 294.4 297.6 299.2 299.6 302.9 303.5 304.4 308.2 308.9 309.1 308.2 303.8 296.8 290.6 285.3 278.1 267.2 260.2 253.7 249.3 244 243 241 240.2 239.9 239.5 237.7 233.7 230.9 229.6 216.4 213.8 212.1 207.9 206.3 205.7 203.6 203 201.2 200.4 199 196.7 197.1 201.7 199.2 197.5 194.1 191.1 185.6 185 179.2 178.2 176.7 178.3 173.8 177.8 179.3 178.3 181.5 184.1 183.1 184.1 188.2 189.4 190.5 191.2 192.1 193 193.3 194.4 195.8 197.1 199.8 202.5 205.6 208.1 210.7 212.9 214.5 215.8 217 217.3 218.1 219.2 220 221.1 222.8 224 223.9 223.9 224 224.1 224.4 223.1 222.3 222.1 221.8 221.5 220.5 219.9 218.7 217.5 216.3 213.7 210 206.8 203.2 198.5 193.1 187.6 182.2 177.2 171.3 164.9 159 155.9 153.8 151.7 149.4 150 150.9 152.1 152.7 154.2 157.5 158.6 160.1 161.3 161.9 162.5 163.5 164.7 166.3 167.6 169.6 171.3 172.6 174 175.2 175.7 175 174.4 172.2 170.2 168.3 165.1 162.7 161.1 158.1 156.3 155.2 151.6 150.4 149.5 148.3 147 146.7 146 144.5 143 143.4 141.1 142.4 136.4 133.2 133.4 134.4 139.3 138.6 136 135.8 135 140.9 142 143.7 147.1 149.3 149.2 152.2 152.5 151.6 146.6 136.5 140.3 147.3 148.3
273.6 290.7 293.9 292.5 290.2 289.2 289.6 291.1 296.1 294.9 293.6 293.6 293.3 293.8 294.7 297.3 302.1 307 304.2 305 304.1 304.2 305.5 305.4 303.5 301.5 292.1 285 280.4 271.6 260 253.8 248.7 244.1 240.9 239.9 238.8 232.9 233.3 234.7 229.5 224.6 220.7 224.7 212.9 225.9 227.4 223.3 217.3 220.1 220.9 216.3 216.4 212.1 208.2 206.4 206.9 204.7 201.3 198.8 196.1 192.4 189 183.9 182 179.6 179.7 180.5 175.7 178 179.6 183.6 182.7 186.5 186.7 184.9 185.4 189.2 190.6 191.3 191.6 192.4 193.3 194.7 196.1 198.2 201.4 204.2 207 209.1 211.3 213.6 215.1 216.4 217.1 217.4 217.7 218.5 219.3 219.6 220 220.6 220.9 221.3 221.9 222.5 222.8 221.8 221.2 221.6 221.3 221 220.4 219.7 218.7 216.6 215.7 212.4 209.3 206.5 203 198 192 185.2 180.6 174.5 168.7 165.1 157.5 156.2 153.2 151 149.5 150.1 151.2 152.1 155.8 157.6 158.8 160.5 161.8 162.9 163.4 164 164.8 166 167.2 168.6 170.6 172.5 174 175.3 176.4 176.6 175.9 175 173.3 170.4 168.6 165.5 162.5 159.9 157.2 155.4 153 150.4 149.7 149.3 148 146.7 145.6 144.9 143.6 142.1 142.3 140 138.1 134.7 134.4 134.9 139 140.6 141.9 139.2 135.6 134.2 141.9 144.6 146.2 148.8 152.9 155.1 154.6 153.7 154.4 151 137.1 139.8 140.8 138.3
270.9 287.2 290.4 287.5 288.6 289.1 289.6 290.3 292.6 293.3 293.2 293.1 293.5 294.3 295 297.4 304.1 304.1 303.8 305.2 305.1 303.1 302.4 300 299.7 296 285.6 278.7 270.6 261.5 254.7 248.6 244.3 240.8 238.1 238 233.3 225.9 224.3 224.7 223.6 228.3 221.6 219.3 215 224.4 228.6 225 226.8 226.5 225 223.8 221.8 220.4 217.6 214.2 210.4 206.5 203.1 200.3 197.3 192.9 187.8 184.4 181.6 181.5 181.4 181.4 180.5 178.1 183.6 183.8 185.7 186.8 188.3 189.1 186.7 187.5 190 191.2 191.2 192.6 193.8 195 196.9 199.9 203.3 206.1 208.7 209.8 211.6 214.2 215.6 216.6 217.1 217.6 217.5 217.9 218.4 218.3 219.2 219.1 219.1 219.2 219.6 220.1 220.7 220.8 220.5 220.6 220.6 220.4 219.8 219.1 218.1 216.1 214.8 212 209.1 206.7 203 197.2 190.5 184.8 180.5 170.6 165.4 160.4 157.7 155.1 152.5 150.6 150.8 150.5 152.4 153.5 155.8 157.8 159.8 162.8 163.9 164.4 165.1 165.5 166.1 167.4 168.2 169.9 172 173.5 175.3 176.5 177 177.4 176.3 174.7 173 171 168 166 162 158.9 156.2 154.6 152.5 149.8 149.2 148.9 148 147.5 145.2 143.6 144.4 141.4 139.8 138.3 135.5 136.5 142.6 141.5 142.3 143.6 141.3 140 137.1 136.3 143.6 146.2 148.3 151.4 155 156.6 157.4 157.3 157.8 157.1 149.9 148.3 149.4 149
266.3 274.2 274.8 283.1 292.2 289.7 289.9 290.9 290.9 291.9 293.4 293.7 294 294.8 295.8 300.9 302.8 302.7 303.4 305.4 303.9 301.5 296.8 292.1 288.6 281.7 275.9 269.6 262.4 255.4 249.4 244.4 240.6 238.6 236.3 234.9 228.4 227.9 235 234.7 232.6 234 226.9 217.8 216.2 222.8 229.1 227.9 228.1 227.7 226.1 225 223.6 221.3 219.6 215.9 212 208.3 205 201.9 198.4 193.2 189.1 186.6 184.3 183.6 183.7 183.7 182.1 181.4 185.7 184.5 184 187.2 189 189.8 189.8 188.7 189.1 189.7 191.7 192.9 194.5 195.9 198.3 201.7 204.8 207 209.3 210.3 211.8 213.9 215.4 216.4 217.1 217.3 217.3 216.9 216.9 217.1 217.8 217.7 217.8 218 218.5 218.7 219 219.3 219.6 219.8 219.6 219.5 219.4 218.8 217.7 216.4 213.4 211.7 209.1 205.7 201.8 196 189 181.2 176.6 172.3 164.2 160.4 157.5 154.5 152.3 150.6 151.6 151.5 153.2 155.1 156.2 158.5 163 164.9 165.6 166.4 167.6 167.5 167.9 168.9 170.1 170.8 172.6 174.1 176.2 177.2 177.8 177.9 177.3 175.5 172.7 170.7 168.1 165.9 162.7 158.8 156.5 155 152.4 151.7 150.9 150 148.8 148.4 145.7 143.5 142.8 146.7 141.5 137.2 135 143.3 144.6 142.8 143.6 143.5 142.5 141.2 138.4 142 145 147.3 148.6 152.3 154.9 157.6 159 159.4 159.2 156.2 153.1 149.8 148.2 147.1
264.3 273.1 282.2 288.2 289.7 289.8 289.7 290.2 290.3 291.2 293 294 294.5 295.1 298.9 302.3 303.6 301.9 301.5 300.4 300.2 297.6 294.1 287.3 277.5 273.7 268.6 261.7 255.8 249.8 245.2 241.3 237.9 236.2 232.7 230.5 227.1 230.7 237 238.1 237.5 235.8 232.6 224.3 221.5 227.5 229.4 229.6 229.3 229.1 227.6 225.7 224.1 221.8 220 217.2 213.6 209.9 206.5 201.6 199 195.5 192.2 189.3 187.4 186 186.1 186 185.8 183 185.9 188.3 186.6 185.8 188.9 189.6 190.1 190.7 190.4 191.2 191.5 193.3 194.8 197.9 200 203.2 206 208.1 209.9 210.8 212 213.7 215.1 216.2 216.8 216.8 216.7 216.1 215.7 215.4 215.9 216.8 216.9 217 217.4 217.7 218.1 218.5 218.1 218.7 218.6 218.7 218.6 218.7 217.2 215.7 213 211.9 209 205.1 200.5 194.4 187.8 181.9 175.6 166.7 162.3 159.5 156.4 154.4 152.2 151.4 152.3 153 157.1 157.8 157.5 159.6 164.4 165.8 166.6 167.5 168.9 169.3 169.5 170.6 171.5 172.2 173.5 174.9 176.3 178 178.7 178.2 177.5 175.6 174 170.1 168.1 164.8 163.6 159.2 156.7 155 153.7 152.4 151.3 150.3 150.6 149.5 147.2 144.9 143.1 142.6 139 138.1 140.8 144.9 145.9 145.5 146.7 145.8 144.8 140.9 139.6 143.1 146 148.5 150.1 152.3 154.9 157.1 159.3 160 160 159.2 155.1 150.4 147.6 146.6
277.8 281.9 291.4 293.7 292.3 289.9 289.2 289.6 289.6 290.4 292.6 293.6 294.4 297.1 299.4 302.2 304.2 300.4 297.3 295.8 294.5 292.8 287.8 276.8 270.7 266 260.5 255 250.2 246.5 242.6 239.3 236.2 230.2 231.3 231.4 234.1 236.4 238.3 238.4 238 236.4 234.7 233.1 231.6 230.8 231.1 231.1 230.8 230 228.7 227.3 225.6 223.4 221.3 218.5 214.8 210.9 207.1 204.8 201.5 197.9 194.5 191.3 189.8 188.9 188.5 187.8 188.7 186.8 187.6 188.2 189.1 188.3 188.9 190.3 190.8 191.2 191.8 191.6 192.8 193.9 195.3 196.7 199.8 203.9 207.2 208.7 210.1 210.8 212.1 214.6 215.7 216.8 216.5 216.2 215.8 215.3 214.8 214.3 214.3 214.5 214.9 215.2 215.2 216 216.5 216.9 216.3 216.4 217.2 217.4 217.9 218.2 217.9 215.3 212.9 211 207.8 204.5 199.5 192.8 186.9 179.4 171.1 166.2 161.6 159.8 157 154.3 152.2 152.4 153 153.4 155.1 157.1 158.2 161.8 164.8 166.9 167.9 168.9 170.3 170.7 170.8 171.9 172.5 173.4 174.4 175.8 177 178.9 179.5 178.7 177.4 176.1 174.9 170.6 167.5 164.1 162.2 160.4 156.7 154.9 154 153 152.2 151.7 150.7 149.5 148.4 148.1 143.7 140.5 137.4 144.6 146.4 149.1 148.3 147.5 147.6 147.5 145.1 142.6 139.6 146.3 148.1 150 150.8 153 156.3 160 159.9 160.3 161.2 160.7 160.3 153.2 149.8 147.7
290.7 300.2 298.7 295.6 291.9 288.9 288.5 288 288.5 290.2 291.5 291.7 294.6 298.7 298 299.6 300.2 297.7 293.2 290.8 290.1 286.5 278.8 269.1 263.7 258.8 254 250.1 247.3 243.4 239.9 237.4 233.8 235.4 235.3 236.6 237.9 239 239.6 239.5 238.6 237.5 236.1 234.4 232.6 232.2 232 232.4 232.4 231.6 230.7 229.3 227.4 225.1 222.7 219.9 214.9 212.8 209.7 207 203.7 199.9 196.5 193.9 192.4 191 189.9 189 189.5 187.9 186.9 188.9 189.5 189.2 189.6 191.2 191.4 192 192.7 193.3 195 196.2 198.2 199.4 204 199.9 204.5 209.7 210.1 211 212.5 214.6 216.1 216.3 216.3 215.9 215.3 214.4 213.9 213.4 213.3 213.4 213.5 213.7 213.8 213.9 214.2 214.4 214.6 214.7 214.8 215.3 216.4 216.8 217.4 215.8 212.5 209.7 207 203.5 198 191.8 184.1 179.1 170.2 164.9 159.4 156.9 154.8 153.5 152.6 153.3 155.6 156.9 160.1 159.8 160.9 165 166.6 167.8 169.1 170.6 171.3 171.8 172.4 172.9 173.5 174.6 175.6 176.7 177.7 179.4 179.6 178.9 177.3 176.1 173.9 169.3 167.5 164.2 161.2 160.2 157.2 155 154 153.1 152.4 151.9 150.8 150.8 150.5 147.9 143 139 145.5 147 147.9 148.5 149.7 149.1 148.3 148.8 146.2 144.7 140.6 148.2 149.4 150.9 152.5 154.8 157.9 159.2 158.9 158.4 159.1 157 155.5 153.8 154.2 149.8
285.9 289.7 291.1 295.6 291.7 287.9 289.4 287.3 285.7 286.1 287.2 289.3 295.4 295.5 296.8 298 296 293.5 290.3 284 281.1 275.1 266.7 262.7 257.4 252.3 249.4 247.1 243.9 240.5 238.2 237 237.7 237.8 240.1 240.1 240.3 240.8 240.7 240.5 239.4 238.3 236.5 234.4 230.9 233.5 233.2 233.5 234 233.8 232.9 231.2 229.5 226.9 224.4 220.9 218.4 215.2 212.3 208.9 206.1 201.9 198.9 196 193 190.7 189.2 188.2 187.6 187.2 188.3 190.2 190 190.5 189.9 190.3 191.8 192.7 193.6 194.7 196.9 199.1 201.1 203.4 206.6 209.7 201.8 208.7 210.1 211 212.2 214.1 215.7 215.8 215.8 214.8 214.8 213.3 212.9 212.5 212.1 212.2 212.3 212.7 212.5 212.5 212.6 212.6 212.6 212.1 212.1 212.5 213 213.8 215.2 215.3 211.1 207.6 204.7 200.6 195.8 188.8 184.4 175.7 167.3 162.7 158.6 155.2 154.4 154 153.4 154.4 155.1 156.3 160 161 163.8 167 167.7 168.7 170.3 170.9 171.9 172.4 173.4 173.7 174.7 175.8 176.7 177.5 178.2 179 179.2 178.6 177.4 176.4 173.3 169.8 167.8 164 161 159.7 158.6 155.2 153.9 153.2 152.5 151.5 150.5 151.4 152.5 148 139.2 147 148 148.8 150.2 151.4 151.9 150.2 149.8 149.6 149.6 145.8 142.9 148.8 150.2 151.9 153.9 156.9 158.9 160.2 161.6 162.1 161 161.8 156.9 155.6 154.2 150.8
280.8 283.2 286.1 286.6 286 285.6 292.5 286.2 285.7 285.6 286.1 287 294.8 292.3 293.3 292.8 288.3 286.5 282.8 277.8 274.3 264 258.7 253.9 249.2 246.6 245 242.3 240.7 239.7 238.9 238.6 239.5 240.5 241.4 242.3 243.1 243.2 241.8 240.9 239.9 239 237.3 235.2 234.9 233.8 234.9 235.4 235.4 235.6 234.5 232.8 231 228 226.2 223.3 220.7 217.5 214.3 210.9 208.1 204.3 201 197.9 194.5 190.3 189.3 188.6 188.6 190.2 191.2 191.1 191 192.3 192.1 190.6 192.6 193.5 194.5 195.8 198.8 200.5 203.1 205.2 209.4 210.5 209.6 204.2 208.8 209.8 211.5 214.3 214.8 214.8 212.2 212.9 213.9 212.6 212 210.8 208 210.6 210.6 211.1 211 210.9 210.9 210.5 210.6 210.6 210.3 210.4 210.5 210.7 212 212.2 210.1 205.4 201.4 197.8 193.4 187.5 180.4 173.3 168.8 161.8 158.9 155.2 154.9 154.7 154.7 155.3 155.9 157.9 160.2 162.3 166.6 168.1 168.9 169.7 171.1 170.8 172 173.5 174 175 176.7 176.5 177.2 177.9 178.6 178.8 178.6 177.3 176.8 174.6 172.4 170.3 164.9 162.6 160.7 158.2 156.8 155.5 154.2 153 152.1 151.1 149.6 147.9 144.7 138.8 147.1 148 149.7 151.5 152.2 153.8 153.5 151 149.6 150.7 151.8 147.6 143.7 149.3 151.7 153 156.3 159.2 160.2 161.7 163.4 162.6 160.9 159 157.6 155.3 152 150.3
277.6 279.1 280.9 282.8 282.5 282.6 285 285.3 284.2 284.8 284.6 286.9 286.6 286 286.2 286 281.2 281 277 271.2 267.5 256.6 251.7 246.9 244.4 242.7 241.9 241.8 241.2 240.2 240.7 241.2 241.3 243.1 244.7 244.8 244.5 244.2 243.2 241.8 240.5 239.3 236.9 235.5 236.7 235.7 237.9 239.3 239.8 237.8 236.2 234.2 231.7 230 227.8 225.7 223.4 219.6 216 212.3 209.8 206.8 203.2 199.8 196.6 191.5 190.5 190.1 189.3 192.5 193.3 193.2 192.4 193 192.9 191.5 193.7 195.4 196.8 198.6 201.7 204.6 207.5 208.6 210 211.2 211.1 210 206.9 206.8 208.4 212.2 214.4 214 212.2 212.2 212.2 212.3 210.9 209 207.2 209.1 209.7 209.1 209.3 209.5 209.7 209 208.6 208.8 208.6 208.7 208.8 208.8 209.3 209.3 208.3 205.1 199.3 194.4 188 183.5 175.9 171.2 164.8 160.1 157.5 156.6 155.7 155.5 155.8 156.2 157.1 158.9 161.4 164.3 167.9 169.1 170.3 172 170.8 170.8 172.5 174.6 175.1 175.9 177.1 177 177.6 178.3 178.5 178.5 179.4 177 175.4 173.6 171.7 168.1 163.2 161.6 160.5 159 157 155.9 154.3 152.6 151.4 150.6 149.8 145.2 143 146.2 150.3 151.8 153.5 155.3 156.7 155.3 152.7 151.5 151.1 152.4 153.7 148.7 145.2 148.3 152.5 154.5 157.8 160.3 162.2 163.1 164.4 164.1 163.4 159.3 157.7 155 151.9 149.9
273.8 275.2 276.8 278 279 278.4 279.8 281.5 280.4 281.3 283.5 288.1 286.9 281.8 280.1 278.2 276 272.1 265.2 261.9 256 248.8 244.9 241.9 241.7 241.4 241.5 241.6 241.4 242.2 243.2 243.6 244.9 247.1 248.2 247.6 246 245.5 244.8 243.3 242 240.2 237.2 238.5 239.3 241.5 243.7 244.3 244 241.4 238.7 235.8 232.4 231.6 230.4 228.8 226.3 222.5 218.6 216 212 208 204.6 200.9 199.2 194.5 192.6 191.2 190.8 193.7 196.3 194.9 193.6 193.3 193.5 192.9 195 197.3 199.3 201.7 204.8 207.6 209.8 210.9 212.4 213.1 212.1 211.7 211.4 211.2 209.2 210.1 215 214.7 213.2 212.4 212.1 210.9 209.3 207.7 207.1 207.6 207.6 207.8 208.1 208.2 208.2 207.5 206.7 206.7 206.6 207 207.1 207.1 206.5 205.8 205.2 202.2 196.5 191.5 185.8 179.6 173.5 168.3 165.2 160.2 158.4 157.6 156.8 156.5 156.8 157.2 158.2 160.6 162 165.5 169.4 170.4 171.9 171.1 170.8 172.7 174.6 175.1 175.9 176.7 177.5 177.7 178.1 178.2 178.3 178.5 178.5 176.1 175.3 173 170.9 167.4 163.3 161.3 160 158.6 156.8 155.9 153.9 152.1 151 149.4 145.1 143.1 146.8 150.8 152.2 154.2 155.3 157.9 157.3 155.1 153.5 152.5 152.5 153.1 153.8 150.1 147.4 150.4 154.2 157 159.8 161.4 163.6 164.2 165.1 165 165 161.3 157.8 155.5 152.4 150
271 272.3 273.1 272.6 272.6 274.1 275.3 278.9 276.4 277.5 281 284.9 282.5 279.1 276.5 273.9 270 265.3 260.1 255.4 249.8 244.5 240.4 240.3 240.7 240.7 240.9 241.6 244.9 245.7 245.5 245.5 249.6 251.4 252.4 250.1 247.4 246.6 246 245.2 243.5 242.2 241 241.2 244.1 246.8 249 248.6 247.8 246.8 244.1 239.5 235.8 233.8 232.1 230 227.2 226 221.9 217.3 214.3 210.1 206.7 203.1 198.6 196.9 194.7 193.8 193.4 197.2 199.1 197.3 196.1 195.8 194.9 194.6 197.4 199.4 202.6 205.4 208.4 210.6 212 213.1 214.2 214.2 213.9 213.6 213.3 213.5 213.8 211.5 212.5 213.2 213.4 212.3 211.4 209.5 207.7 206 206.3 206.6 206.6 206.8 206.8 206.5 206.7 206 205.2 204.6 204.2 204.1 204.7 204.6 203.9 203.3 203 198.8 194.5 190.6 183.9 176.9 172.5 168.4 163 161 159 158.4 157.9 158.1 158.2 159.3 160 161.8 165 167.8 170.4 171.3 173 171.2 170.8 174 174.9 175.5 176.5 177.1 177.8 178 178.1 178.1 177.9 177.8 177.1 174.8 173.5 172.4 169.9 166.6 163.6 161 160 158.8 156.9 155.4 153.5 152.7 150 146.8 146.3 152.8 150.7 152.2 153.3 157.2 158.5 159.2 157.8 155.2 154 153.4 153.4 153.7 153.7 148.6 149.4 152.4 155 158.8 161.8 163.7 164.9 166.5 168.3 168.3 166.3 163.3 160.1 155.8 152.7 149.9
267 268 268.1 267.5 269.6 269.5 271 274.5 273 276.1 278.4 280.4 277.2 274.5 271.6 267.9 264.7 260.3 253.8 249.1 244.8 240.7 238.7 239.1 239.6 240.5 241.1 244.2 247.8 247.4 247.5 250.7 254.7 256.4 255.4 253 249.3 247.9 247.4 246.2 244.7 243.3 243.4 245.5 249 252.3 253 252.1 252.4 250.3 246.5 245 241.9 236.6 232.7 231.5 228.8 226.7 224.4 219 215.9 212.4 209 204.6 202.2 200.4 197.3 194.5 197.4 198.3 198.9 199 199.4 199.9 196 198.8 201 203.6 207.2 210.5 213.1 214.2 215.1 215.3 216 216 215.8 215.4 215.1 215 215.9 215.8 213.5 212.9 212.8 212.2 210.6 208.3 206.5 204.9 205.1 205.9 205.8 205.9 206.2 206.1 205.1 204.5 203.7 202.9 202.4 202 201.4 201.5 201.2 200.5 198.7 196 192.1 186.2 180.5 175.4 171.9 166.1 162.5 160.4 159.9 158.6 158.6 159.5 162 161 162.6 164.8 167.3 169.5 171.3 172.3 172.7 172.2 172.8 174.7 175.3 176.2 177.3 177.5 177.7 177.5 177.7 178.1 177.5 176.9 176.3 173.8 171.9 170.8 169.6 168.1 162.9 160.6 159.8 158.8 156.2 154.3 153.2 152.2 154.2 146.4 152.8 154.1 152.9 154.5 157.9 160.1 161.8 159.5 156.8 155.5 153.8 154.5 153.7 154 153 150.6 151.2 153.7 155.6 159.4 162.7 165 167.3 168.8 169.7 169.5 168.1 165.2 162.7 158.3 154.3 151.9
261.9 262.1 263.3 264.7 264.9 263.5 266.6 270.1 271.2 272.7 275.9 275 270.4 268.1 265.7 263.4 261.1 254.3 249.1 245.3 241.5 237.5 236.3 238.8 239.2 240.3 241.9 246 249 250 253.3 257.7 260.1 259.7 257.6 254.7 251.4 249.5 248.7 247.5 244.7 246.3 247 250.5 254 255.7 256.4 256.1 255.2 252.3 250.1 249.3 246.6 242.3 238.2 234.6 230.1 228.3 225.5 220.9 218 215.3 211.7 208.4 205.6 204.4 199.5 194.9 199.7 200.1 200.4 201.1 201 200.2 198.7 203.7 207.7 208.1 210.9 214.9 217.3 217.9 218.2 218 217.6 218 218 217.4 217.1 216.4 216.8 215.5 214.1 213 212.1 210.7 208.9 207 205.6 204 204 205 205 205.2 205.1 204.6 203.9 203.5 202.6 201.9 201.4 200.7 200 199 198.2 196.8 194.9 193.2 187.7 183.5 179.6 174.7 169.8 163.7 161.1 159.9 159.1 159 159.5 159.9 161.2 163.4 164.7 165.7 168.1 171.2 172.1 173.1 173.9 174.4 175.2 175.8 176.2 176.9 177.5 177.7 177.7 177.4 177.6 177.2 176.3 175.8 175.5 174.3 172.1 169.1 166.4 164.9 162.1 160.5 159.5 157.2 155.3 154.4 155.6 151.9 144.5 151.8 153.3 154.5 154.8 156.7 158.7 159.6 160.5 160 156.9 156.2 155.6 155.8 155.2 154.1 151.3 152.8 153.9 155.4 158.2 161.4 163.5 166 168.7 171.1 171.8 171.6 168.7 166.3 164.2 159.8 156.3 154.4
258.6 258.4 258.7 259.1 257.5 260.5 264.4 267.5 268.6 268.5 270.7 267.3 264.4 263.4 261.7 259.3 255.8 250 246.3 242.8 237 236.3 234.5 234.8 237.8 240.2 244.3 248.1 250.9 253.8 259.4 263.5 263.7 261.7 258.5 256.1 254 251.5 249.8 247.3 248.2 248.2 250.2 254.4 258.3 258.7 259.5 259.1 257.6 255.3 253.6 252.8 250.3 247.2 243.7 240.4 236.1 232.3 228 224.2 221.2 218.2 215.2 212.4 208.6 203.8 198.5 200.9 202.1 202.6 202.8 202.5 202.3 201.7 201.5 209 208.4 212.1 215 218.7 220.9 221.7 221.5 221.1 220.4 220 220 219.8 218.6 217.7 217 215.9 214 213.4 212.2 209 207.6 205.3 205.3 202.5 202.3 204.1 204 204.4 204.2 203.8 202.8 201.9 201.3 200.8 199.6 198.7 198.5 197.2 196.3 193.9 191.6 188.7 185.8 182.3 176.3 172.9 165.2 162.3 161.3 159.4 158.5 159.4 160 160.7 162.9 164.4 165.6 166.8 169.9 171.4 172.7 173.6 174.3 175.2 175.8 176.3 176.5 176.9 177.4 177.8 178.1 177.5 177.3 176.4 175.3 174 172.7 171.8 170.5 167.2 165.4 163.3 161.9 160.4 158.6 155.3 154.5 152.4 151.4 147.2 152 153.5 154.4 155.2 156 159 160.2 160.6 161.6 160.1 156.7 156.1 156.7 157.1 156.1 154.6 152.2 154.7 155 158 160.6 163.1 165.2 168.1 171.1 173.8 174.6 174.1 171 168.5 165.8 160.6 158.2 156.6
255.9 256.4 255.5 255 255.2 256.6 261.9 263.3 264.1 265.3 263.2 261.4 260 259.3 257.5 255 249.8 246.3 243.4 236.2 234.5 234.5 234.5 234.5 235.5 242.3 246.3 250.2 254 259.8 266.4 267.7 266.2 262.3 260.1 258.3 256.2 252.8 251.1 247.9 250.8 252.1 254.9 258.5 260.7 261.6 262.4 262 260.7 258.5 257.1 255.6 253.7 251.1 248.1 244.2 241.3 236.5 232.4 229.2 225.2 221.5 217.7 216 211.4 203.5 199.8 206.4 205 205.9 205.1 203.7 202.3 205.5 207.2 209.3 214.3 215.9 218.8 222.3 224.6 225.1 224.1 222.7 222.3 222.4 222.7 222.4 220.7 218.7 218.1 217.5 216 214.3 212.1 209.7 209.7 207.7 206.4 208.6 203.5 201.2 203.4 203.7 203.3 202.8 201.8 200.7 200 198.8 197.6 197.1 196.4 196 194.4 191.7 189.5 187.1 185.1 178 174.6 170.4 165.1 163.8 160.9 159.4 157.3 159.1 159.9 160.9 163.6 165.6 166.9 168.2 169.2 171.2 173.2 174 174.4 175 176 176.3 176.5 176.8 177.1 177.7 177.5 177.2 176.4 175.3 174 172.8 171.8 170.6 168.7 166.6 164.7 162.9 161.3 159.8 157.9 155.3 154 152.2 150.6 147.3 153.1 155.1 156.3 158.1 158.5 159.3 161.5 163.4 162.8 158.7 156.2 156.9 155.9 155.7 155.5 155.3 152.3 154.6 156.3 160.5 163.2 165.9 168.4 170.6 173.8 176.5 176.8 176.4 173.6 170.8 167.3 162.2 160.2 158.4
252.5 252.2 253 253.7 254.2 255.5 257.5 257.4 258.8 258.4 258.7 256.9 255.7 254.7 252.7 250.1 246 241.7 236.1 234.5 234.5 234.5 234.5 234.5 239.8 245 248.2 252.8 257.6 264.2 269.8 269.1 265.3 263 261.2 260.1 257.6 254.9 252.9 250.1 252.6 254.4 257.9 260.9 262.9 263.9 264.5 264.1 263.3 262.4 260.9 259.5 257.1 254.7 250.8 248.8 244.9 242.2 238.1 234.2 229.7 225.4 220.8 217 208.5 205.4 206.8 211.1 208.7 208 207.4 206.5 207.4 210.5 214.2 212.1 217.1 219.1 222.6 225.9 228.6 228.7 227.2 225.6 224.7 225.2 226.1 224.7 223 220.1 218.8 218.2 216.7 215.5 213.1 211.8 209.7 207.2 206.3 205 204.2 202 201.7 202.9 202.7 202.2 201 199.9 198.2 196.4 196 195.7 194.9 194.5 192.3 190.6 188.1 185.6 180.9 176.1 174.8 171.7 166.5 163.3 159.7 159.2 157 158.3 159.9 161.3 165.3 166.7 167.6 168.6 169.8 171.1 173 174.1 174.8 175.5 175.9 176.6 176.6 177.3 177 177.3 176.9 176.5 175.6 174.6 173.4 172 171 169.3 167.8 166.6 164.2 162 160.2 158.8 157.4 156.2 155.6 151.3 149.4 149.5 154.1 156 156.7 158.6 161.1 162.8 163.8 165.2 165.1 158.3 157.4 158.4 158.3 157.3 156.3 155.3 153 154.8 158.4 162.3 165.2 168.4 170.5 174.2 176.6 178.2 178.1 178 176.2 172.1 169.8 165.5 162.5 161.4
247.9 249.8 250.6 252.8 253.1 253.4 253.6 253.9 255.8 255.3 253.9 252.6 251.3 250.1 248 244.6 241.1 235.9 234.5 234.5 234.5 234.5 234.5 235.5 242.7 246.8 250.6 255 260.6 268.7 270.6 267 264.3 263.1 262 261.2 258 255.9 254.9 252.9 254.6 256.5 259.3 262.2 264.7 265.8 266.6 266.9 266.7 265.7 265 263.7 261.3 257.6 253.9 251.9 249 247.1 243.5 238.9 234.1 229.8 222.8 216.7 212.9 208.1 211.4 215.7 215.8 212 209.8 209.4 212.2 215 217.9 219.6 223.9 223.5 226.1 229.2 231.8 231.3 230.1 228.6 227.5 227.8 227.1 226.3 224 221.8 220.1 218.5 217.1 215.9 214.8 213.7 210.5 207.3 205.8 203.5 203.4 203.8 202.7 200.6 201.8 201.3 200.5 198.5 197.3 195.5 194.8 193.9 192 192.5 190.1 189 187.2 184.4 180.8 173.4 169.8 166.9 162.7 160.7 159.4 158.3 157.1 158.1 159.7 162.1 165.4 167.1 168 169.1 170.3 171.6 172.6 173.5 175 175.8 176.4 176.8 176.3 177.4 177.3 176.4 176.7 175.8 174.8 173.8 172.1 170.8 169.4 167.9 166.8 166.7 163.5 160.9 159.1 158 156.7 155.1 153.7 151.3 148.9 150.7 153.8 155.8 157.6 161 163.3 164.2 165.5 166.6 166.6 159.4 157.5 158.6 159 158.4 156.7 155.7 154.5 156.9 160.1 164.1 167.2 170.6 173.3 176.5 178.8 180.1 180.3 180.1 178.1 173.3 170.7 168.3 165.5 164.1
248.1 246 247.7 251 251.4 251.2 250.7 250.8 252.9 251.1 249.4 249.2 247.8 246.2 244.4 241.9 237.9 234.5 234.5 234.5 234.5 234.5 234.5 240.9 244.9 248.5 252.9 257.5 263.5 269.8 269.5 265.3 263.8 262.5 262.2 259.6 257.5 256.7 255.4 254.8 256 257.2 259.9 263 266.1 268 269.4 269.9 270.4 269.6 269.5 268.2 265.8 262 257.5 255.8 252.9 249.8 248.5 244.4 237.9 231.3 223.6 219.7 215 215 218.4 219 219.8 217.6 216.5 216.1 218.8 221.7 224.4 226.9 226.3 229 229.6 232 233.6 234.5 234.1 232 230.5 229.8 228.9 228.1 225.4 224.1 222.7 220.3 217.6 216.4 217.1 214.6 211.4 207.4 206.2 204.9 204 202.1 200.8 199.5 200.3 200.3 199.3 197.8 196.2 195.5 194.4 192.7 191 190.6 189 188 187.2 184.2 178.1 174.9 166.9 164.5 163.3 162.1 157.1 157.2 154.9 157.7 159.3 164.5 165.8 167.2 168.4 169.6 170.9 171.9 172.8 173.6 175.5 176.1 176.4 176.8 177.4 177.2 177.4 176.9 176 174.9 173.9 172.9 171.2 169.2 167.8 166.9 165.4 163.7 161.4 159.4 158.1 156.4 155.8 154.5 152.9 152.2 153.5 154.4 155.4 158.3 159.7 163 165 165.5 167.7 166.8 165.2 161.6 159.6 158.8 159.7 159.6 157.8 156 156.1 158.1 161.1 165.6 169.6 173 175.2 177.7 180.5 181.5 182.3 182.4 180.3 176 173.2 170.7 168.3 166.2
248.2 246.1 243.5 247.8 248.6 248.7 248 247.4 247.4 246.5 245.9 245.4 244.2 242.9 241 236.8 234.5 234.5 234.5 234.5 234.5 234.5 235.3 240.8 244.3 248.6 254.8 259.5 264.2 267.8 266.9 264.1 263 261.5 259.8 258.5 257.3 256.2 254.8 254.8 257.4 258.5 260.6 264 266.5 269.1 271.9 272.5 273.3 273.5 273.1 272 269.5 265.4 262.3 259.5 257.1 252.9 250.8 247.6 243.9 234 227.6 223.8 220.3 223.3 225.4 226 226.1 225 223.4 223.6 225 227.5 231.4 232.5 229.3 231.8 232.6 235.4 238.6 239.4 238 234.3 233.8 232.9 232.2 229.6 227.5 225.5 224.1 220.4 219.3 219.3 218.4 215.8 212.6 209.5 206.4 205.2 204.2 203 200.9 200.3 199.8 198.8 198.1 196.4 194.8 193.9 193.5 191.9 189 188.4 187.7 186 185.8 179.2 179.7 172.8 165.6 164.4 162.2 157.9 155.7 155.2 156 157.5 160.3 165.2 165.7 167.2 168.2 169.3 171.2 172.2 173.2 174.2 175.4 175.9 176.3 176.3 176.7 176.6 176.6 175.8 174.8 173.7 172.8 172 170.4 168.6 167.4 166.1 164.5 162.9 160.8 158.9 158.2 157.5 157 155.5 153.9 150.2 153 155.2 157.4 160.2 162 165.3 166.2 166.8 166.6 165.3 163.1 161.5 159.7 160.2 160.5 160.2 158.9 156 157.5 159.5 161.6 167.1 172.4 175.9 177.1 178.9 180.9 182.3 183.9 184.7 182.1 179.3 176.1 172.5 170.4 168.2
250.3 247.2 242.1 242.2 244.8 245.6 245.5 243.7 243.9 243.7 243.5 242.7 241.8 240.3 234.5 234.5 234.5 234.5 234.5 234.5 234.5 234.5 235.3 241.4 244.9 248.9 255.8 259.3 263.5 264.8 264 262.9 261.4 259.9 259.2 257.9 256.4 255.7 254 257.2 258.3 259.2 261.3 265 268.8 272.1 274.7 275.9 276.7 277.1 275.9 274.7 272.4 268.2 266.5 263.7 259.6 256.5 253.6 252.4 245.3 234.3 232.4 229 228.6 230.8 233 234.4 233.1 232.4 231.9 230.8 232.8 236.2 239.8 238.8 236.8 239.4 238.9 240.5 244.4 243.8 242.4 239.6 238.4 237.1 234.9 233.1 230.2 227.7 225.8 223.2 221.3 221.2 220.3 217.6 214.9 210.9 206.9 205.3 203.6 203.4 202.6 201.6 200.1 198.2 195 194.2 191.9 191.9 191.6 190.9 188.4 183.3 184.6 182.7 179.4 176.8 173.5 169.1 167.7 161.6 158.5 156.5 155.2 155.2 155.6 157.7 160.1 163.7 165 166.8 168.1 169.4 171.4 172.5 173.5 174 174.7 176.1 175.8 176.6 176.5 175.7 175.6 174.9 173.7 172.8 172 171.1 169.3 168.3 167.5 166.1 164.9 163.5 161.1 160.5 158.5 157.6 157.1 154.8 152.7 153.6 154.5 155.2 159.1 162.6 164.7 166.3 166.1 166.2 166.1 164.9 163.5 162.1 161.2 161.2 161.4 161 158.4 157 158.8 160.1 162.6 168.7 173.5 177.3 178.9 180.6 182 182.6 184.2 185.6 183.5 181.8 178.7 174.4 173.3 171.8
251.4 246.1 241.2 241.3 242.3 242.8 242.1 239.6 241.6 241.3 240.8 238.7 234.9 234.5 234.5 234.5 234.5 234.5 234.5 234.5 234.5 234.5 234.5 239.4 244.5 249.9 255.2 259.1 262.3 262.4 262.3 261.7 260.3 259.2 258.7 258.1 257.7 255.6 255.7 256.5 257.3 259.9 262.4 265.7 270.4 275 278.2 278.8 279.6 279.6 279.2 277.4 275.2 272.2 269.7 266.7 261.7 258 255.9 253.3 244 241.1 238 235.4 237 238.2 240.8 245.8 242.5 241.3 240.7 241.8 243.8 245.9 249.2 244.2 242.2 244.6 245.6 245.4 246.7 247.2 246.2 244.6 241.9 240 237.3 234.9 232.2 228.9 225.8 225.3 223.7 222.8 222.8 221.4 216.3 211.9 208.2 205.9 205.2 204.2 203.3 202 200.6 198.4 195.7 194.4 193.2 189.6 190.1 188.9 184.9 181.5 179.4 179.3 177.4 176.2 173.8 169.7 167.3 166.4 159.4 156.2 155.1 154.5 155 156.8 158.7 162.5 164.4 166.9 168.2 169.6 171.6 172.4 173.2 174 174.7 175.9 176.3 176.5 176.6 175.5 174.9 174.3 173.2 172.1 171.2 170 168.9 168 167.2 165.9 164.2 162.6 160.5 159.1 157.9 157.3 154.7 154.4 153.6 154.8 155.3 155.9 161.3 163.4 164.5 165.4 165.7 165.9 165.6 164.5 163.3 163.1 162.2 161.7 161.8 160.8 158.8 158.7 159.2 160.4 163.2 169.2 173.6 177.4 180 182.2 183 183.9 185.8 187.6 184.8 184.5 181.1 176.2 174.8 173.7
250.4 245.5 241.1 239.7 240.7 240.9 240.1 238.9 239.6 239.8 236.2 234.5 234.5 234.5 234.5 234.5 234.5 234.5 234.5 234.5 234.5 234.5 234.5 238 243.9 249.4 254.3 258.9 261.2 261.4 261.1 260.5 259.6 258.8 258.1 258.5 258.2 257.7 258.4 258.9 259.2 261.1 263.7 267.7 273.4 278.1 281 282.4 282 281.9 281 279.6 277.6 274.5 272.6 268.4 263.4 259.9 257.8 254.1 250.3 247.9 244.3 243.3 244.6 247.5 253.6 256.9 252.9 255.1 254.9 255.3 256.5 256.8 255.7 250.5 247.9 250.5 252.1 251.3 251.7 253 251.6 249.5 247.6 246.7 239.6 236.8 233.1 229.9 228.6 228.9 225 225.9 227 225.8 220.3 212.9 210.2 209.4 207.3 204.8 203.8 202.6 201.1 198.8 196.3 195.2 193.4 190.5 188.4 184.6 184 184.1 183.6 175.1 174 173.2 171.5 167.4 166.6 161.7 157 155.6 155.3 153.9 155 156.8 158.2 160.6 164 166.9 168.7 170.3 172.2 172.7 173.5 174.1 174.7 175.7 176 176.3 176.3 175.2 174.2 173.6 172.8 171.6 170.5 169.5 168.6 167.7 166.9 165.8 163.5 161.3 160 158.6 156.5 158 157 156.4 156.6 158.5 156.7 157.7 162.5 164 164.9 165.7 166.5 166.5 166 164.8 164.8 163.9 162.8 162.2 161.4 160.3 160.4 161 161 162.5 164.7 168.1 172.6 177.6 180.9 182.9 183.9 185.7 188.3 188.1 185.5 185 181.6 178.7 176.8 175.5
249.2 243.5 240.5 238.4 238.9 239.2 238.7 236.4 237.5 234.5 234.5 234.5 234.5 234.5 234.5 234.5 234.5 234.5 234.5 234.5 234.5 234.5 234.5 234.5 242.7 250 254.4 257.8 259.8 260.9 260.8 260 259.2 258.5 258.2 258.4 258.6 259.6 260.3 259.6 260.7 262.3 265.7 271 276.2 280 283.2 285.5 284.9 284 283.3 281.4 279.5 277.2 273.6 269.4 266.6 264.5 262.9 260 258.2 254.3 251.1 255 256.7 262.2 269.3 269.2 266.4 268.9 270.6 269.8 268.1 266 263.3 255.9 256.8 258.8 258.4 257.1 258.6 258.8 256.4 256.8 254 249.9 243.3 238.3 233.8 233.7 231.8 232.3 228.3 231.5 232.6 230.7 226.1 219 215.6 214.1 211 206.6 204.5 203.1 201.8 200.2 197.5 194.4 191.3 189.6 188.5 187 184.6 183 180.2 177.1 172 167.8 165.6 163.7 161.5 158.7 157 155.5 157.2 153.7 154.9 156.8 158.5 160.6 163.8 168.1 170.4 170.7 171.9 172.7 173.7 174.2 174.6 175.4 175.7 176.1 175.9 175 174.4 173.4 172.2 170.5 169.6 168.8 168 167.3 166.5 165.9 163.4 160.2 159.1 157.7 158.2 158.4 156.7 155 155.6 157.3 158.8 162.1 164.1 165 165.8 166.5 166.8 166.8 166.1 164.3 165.2 164.7 163.6 162.4 161.6 161.8 162.8 163.4 164.2 164.7 165.5 167.9 173.2 177.6 181.4 183.1 184.8 187.3 190.7 188.6 186.5 185 182.3 180 177.7 176.1
247 242.4 240.2 239 236.5 237.6 236.9 235.1 234.5 234.5 234.5 234.5 234.5 234.5 234.5 234.5 234.5 234.5 234.5 234.5 234.5 234.5 234.5 235.6 246.4 251.9 254.8 257.6 259.1 260.4 260.2 259.4 259 258.9 259 259 260.9 261.8 262.1 262.1 261 262.9 268.7 273.4 277.6 281.4 284.9 286.9 287 286.1 285.1 283.1 281.1 278.3 273.6 272.7 271.6 270.3 269.4 267.8 264.9 261.8 264.4 267.2 272.4 281.2 283.4 282 280.4 281.9 284 284.3 278.7 275.3 270.8 261 263.5 265.2 266.1 264.2 262.6 264.8 263 263.9 260.2 253.9 246.7 241 238.5 236.6 235.5 236 235.4 237.8 239.1 237.5 233.7 227.8 224 219.2 215.2 210.1 207.3 205.1 202.4 200.7 197.3 193.6 190.3 188.8 188 186.6 184.3 182.4 179.8 176 172.9 169.7 167.1 163.2 161.1 162.1 160.9 155.3 154.5 153.2 154.5 156 158.9 161.6 164.1 166.9 168.5 170 171.4 172.5 173.3 174 174.7 175.2 175.4 175.6 175.8 175.2 174.6 173.7 172.7 169.9 169 168.3 167.7 167 166.2 164.4 161.6 158.9 157.3 158.1 158.4 158.4 155.5 155.6 156.4 160.1 163.1 164.4 165.7 166.7 167.1 167.2 166.7 166.4 165.3 165.8 165.7 165.1 164.1 162.5 162.6 163.8 165.1 165 165.3 164.1 167.3 169.8 173.3 178 181.2 183.2 184.4 188.2 188.2 187.2 186.7 186 185.1 182.1 179.3 177.8
244.8 241.8 240.5 239.2 237.5 237.1 238.6 234.5 234.5 234.5 234.5 234.5 234.5 234.5 234.5 234.5 234.5 234.5 234.5 234.5 234.5 234.5 234.5 241 247.9 251.5 254.5 257 258.6 260 259.8 259.6 259.3 259.6 260 262.6 265 264 263.6 263.4 262.5 266.7 271.6 276.1 278.7 282.2 285.7 287.4 287.9 287.1 286.3 284.7 282.1 278.8 278.5 277.6 279.4 278.7 276.3 275 271.4 272.5 276.2 279.9 285.9 292.9 294.6 292.9 289.4 293 293 290.6 286.5 280.5 274.1 269.8 271.9 270.4 274.2 272.5 269.1 272.6 270 270.5 264.9 257.4 249.3 245.6 241.5 239.7 241.5 244 243.8 246.2 248.3 247.8 242.7 236.4 229.8 224.8 219.4 214 210.2 207 205.1 202.5 197 191.8 189.8 188.3 187.9 186.6 184.9 183.3 180.4 178.7 174.1 170.9 167 163.3 161.5 160.3 157.3 155.3 153.8 153.6 154.8 156.1 160.5 162.3 166.1 166.7 167.7 169.3 170.9 172.3 172.5 173.5 174.3 175 175.6 175.7 175.5 175.2 174.6 173.8 171.9 170.4 168.6 167.9 167.3 166.6 166 164.5 161.8 158.7 158.5 158.5 158.6 156.6 156.3 157 161.1 163.8 165.9 166.1 166.6 167.1 168.1 167.6 166.7 165.7 164.7 165.9 166.1 166.4 164.5 162.2 165 165.1 166 166.8 166.9 167 166.6 170.5 173.8 177.5 180.4 182.7 184.3 186 187.2 187.5 187.2 187 186.3 183.9 181.4 179.2
244.5 241.6 239.6 237.4 236.6 237.1 235.2 234.5 234.5 234.5 234.5 234.5 234.5 234.5 234.5 234.5 234.5 234.5 234.5 234.5 234.5 234.5 234.5 241.5 246.8 250.1 253.3 256.1 258.3 259.7 259.9 259.8 259.8 260.4 262.9 268.3 267 265.7 264.9 264.5 264.7 270 273.5 277.4 280.2 283.5 286.1 287.7 288.4 288 286.5 285 283.4 282.9 282.8 285.1 286.3 285.1 281.7 280 280 284.5 287.1 293.1 298.3 304.4 305.1 302.9 302.3 302.8 300.1 293.9 288 284.7 279.2 276.4 279.9 279.4 280 280.1 281.1 281.7 279.4 276 270.8 263.3 255 250.8 246.7 246.7 250.1 253.3 254.1 256.7 260 258.2 252.7 246.1 238.3 231.4 224.3 218.6 213.3 209.8 206.9 203.1 199.7 193.6 190.3 188.8 187.3 185.7 184.4 181.6 179.2 175.6 171.3 168.3 165.6 163.9 160.8 159.9 157.8 155.3 153.6 152.2 155.3 158.4 159.5 160.2 164 165.6 167.1 168.7 170.2 171.2 172.3 173 173.9 174.7 175.4 176 175.4 174.8 173.9 172.9 171.4 169.9 168.7 167.6 167 166.1 165.2 162.5 161.4 160.4 159.8 159.1 158.1 156.2 158.2 161.2 166.5 167.7 168.2 168 168.2 168.6 169.7 168.5 166.9 165.6 165.4 166.2 166.4 166.6 163.9 163.1 167.7 168.7 167.8 168.2 169.5 169.6 169 171.3 173.1 176.6 180.3 182.7 185.1 186.1 186.2 187 187.4 187.9 187.5 184.7 183 180.7
243.6 241 239.5 238.9 238.8 236.3 234.5 234.5 234.5 234.5 234.5 234.5 234.5 234.5 234.5 234.5 234.5 234.5 234.5 234.5 234.5 234.5 234.5 238.3 245.2 248.7 252.5 255.4 257.9 259.3 259.9 260.2 260.9 261.7 270.8 272.4 269.4 267.4 266.4 265.8 268.4 272.9 276 278.9 282.1 285.2 286.9 289 290.2 289.8 288.4 286.6 287.9 287.9 292.9 294.1 292.6 289.9 286.2 287.5 293.1 296.6 301.6 304.9 312.5 314.4 309.2 308.4 311.5 312.2 307 298.4 290 286.4 287.7 283.8 284 288.5 290.6 295.6 293.9 294.3 288.3 283.3 277.1 270 259.3 255.3 252.6 255.8 258.2 265.9 267.2 267.7 270.7 268.9 263.8 254.6 245.6 238.4 229.8 223.5 218.3 214 210.4 207.2 202.2 195.4 192.3 189.6 187.9 186.3 183.2 180.9 179.5 177.2 171.5 168 164.9 161.6 160.5 159.6 159 155.1 153.2 152.1 153.9 157.6 159.6 160.5 162.7 165.5 166.4 168.1 169.8 171 172.2 173 173.7 174.3 175.1 175.3 175.1 174.4 173.4 172.3 171.4 169.3 168.3 167.5 167.1 166.6 165.8 163.2 162.3 161.1 159.9 158.4 157 158.8 161.2 164.5 167.5 169.5 170 169.6 169.9 170.3 170.4 168.2 166.8 165.5 165.8 166.4 166.6 166.2 163.1 163.9 170.3 170.7 170.1 170.4 172 171.6 171.3 169.9 172.9 176.3 179.3 184.5 185.5 186.2 186.3 186.6 187.7 188.8 187.7 185.1 183.2 181.8
244.3 243.1 241.5 240.5 240 239 236.4 235 234.5 234.5 234.5 234.5 234.5 234.5 234.5 234.5 234.5 234.5 234.5 234.5 234.5 234.5 234.5 235.3 242.5 246.9 251.7 255.3 258.1 259.5 260.1 261.3 262.5 271.1 279 274.3 270.7 268.7 267.5 268.9 271.1 275.5 278.7 281.3 283.7 286.6 289.2 291.1 291.9 291.8 290.2 290.4 293 293.4 302.7 305.1 301.5 295.6 296.5 302.4 306.1 314 316.4 322.2 333.4 322.4 311.8 310.4 314.8 316.7 315.1 303.5 294 295.5 295.3 295.1 297.3 301.2 310.5 314.2 311.1 306.6 302.1 292 286.6 277.5 267.7 263.8 261 265.2 270.9 280.4 279.6 283.3 284.9 280.3 274.5 264 254.8 244.9 236.1 230.7 224.6 219.6 214.6 210.3 205.3 199.2 194.7 190.7 188.6 186.4 184.1 180.4 177.7 175.1 169.7 166 162.7 161.6 160.7 159.2 156.5 155.2 155.4 152.3 154 157.3 159.5 160.9 163.7 165 165.8 167.4 169.1 170.5 171.6 172.7 173.5 174.5 175.5 175.2 175.2 174.6 173.3 171.9 170.9 169.1 168.1 167.6 167.1 166.5 165.8 164.4 162.5 161.2 159.9 158 159.1 160.6 163 167 169 170.5 170.7 170.8 171.7 171.7 171.4 169 165.5 166.2 167 166.7 165.8 164.4 162.9 164.6 172.3 171.7 171.6 173.4 176.3 175.5 172.4 171.4 172.9 176.5 178.7 182.5 185.7 186 186 186.2 187.4 188.6 188.7 186.3 183.9 182.4
247.6 243.5 242.2 241.5 241 240.3 239.4 235.7 234.5 234.5 234.5 234.5 234.5 234.5 234.5 234.5 234.5 234.5 234.5 234.5 234.5 234.5 234.5 234.6 241.5 246.2 251 255.2 258.3 259.7 261.1 262.9 267.7 283.1 282.7 275.1 272 270.5 269.2 271.2 275.1 279.4 281.3 284.4 286.5 288.3 292.1 294.1 295.1 294.8 294.5 296 298.2 300.5 305.5 309.1 307.7 305.2 308.6 311.8 324.3 333.9 340.6 350.9 351.1 333.8 320.3 316 316.3 321.1 319.1 307.9 300.1 302.6 302.6 304.8 314.8 323 327.8 330.8 327.5 318.2 311.4 306.2 296.9 286.7 278.9 275.2 271.9 280 286 293.9 294.1 297.9 299.1 293.4 285.8 276.7 263.4 252.6 245.1 238.4 232.7 226.2 219.6 214.8 209.1 201.2 196.6 192.7 189.8 186.6 184.8 180.4 176.8 175 170.2 166.4 163 161.1 159.8 158.2 156.3 155 154.4 152.6 153.8 156.6 158.4 159.8 162.2 164.4 165.3 166.7 168.3 170.2 171.1 172.2 173.8 175.4 175.6 175.5 175.1 174.6 173.4 172.1 170.4 169.2 167.8 167.2 166.6 166.1 165.7 164.4 162.7 159.9 159 160 161 162.4 165.9 169.9 171.6 172.4 172.7 173 174 173.8 173.2 169.1 166.9 167.3 167.9 168.5 165.4 164.5 163.2 165.1 172.5 171.5 171.2 174.5 177.9 176.7 173.2 172.5 173.2 176.1 180.3 182.3 183.9 184.5 185.3 186 187.7 189.3 188.9 186.2 184 182
248 244.1 243.1 242.4 241.6 240.9 240.3 239.3 234.5 234.5 234.5 234.5 234.5 234.5 234.5 234.5 234.5 234.5 234.5 234.5 234.5 234.5 234.5 234.5 240.9 246 250.4 255 258.3 259.9 262.8 266.3 275.1 286 283.6 277.1 273.4 272 272.3 275.4 279.7 281.9 285 287.1 288.6 291.4 294.8 297.1 298.3 298.3 297.9 300.9 302.6 308.5 312.8 313.5 313.3 317.9 320.7 330.8 345.5 347.7 367.9 379 365 344 329.8 320.2 319 321.3 320.9 311.9 304.5 308 313.1 315 328.4 335.5 345 347.2 345.4 337.7 329.9 323.9 314.7 303 290.6 285 285.9 292.1 302.1 308.2 307.1 312.2 313.1 306.3 297.4 285.4 274.6 265 254.2 248 241.2 234.9 227.3 221.1 214.4 204.6 199 194.1 190.2 186.5 184.6 181.5 177.3 174.1 168.5 164.8 161.2 159.4 158.1 157.3 157.2 156.9 153.8 152.3 154.5 157.5 158.2 159.7 161.5 163.5 164.4 165.8 167.5 169.9 170.9 172 174.4 175.4 175.7 175.5 174.9 174.1 173.5 172.3 170.2 169.4 167.6 166.9 166.5 166 165.6 164.4 162.1 159.5 160.3 161.2 162.1 165.4 169.5 174.3 174.1 174.3 174.4 174.6 175.6 175.6 175.4 171 169.3 169.5 169.7 169.4 165.9 164.8 163.5 164.6 168.7 169.6 170.8 176.8 179.6 177.6 173.2 173 173.6 175.1 178.6 180.4 181.9 182.8 183.7 185.2 188.8 191.5 190.2 186.4 184 182.8
248.5 244.8 243.8 243 242.2 241.6 241 240.1 234.5 234.5 234.5 234.5 234.5 234.5 234.5 234.5 234.5 234.5 234.5 234.5 234.5 234.5 234.5 234.5 240.6 245.6 249.6 253.8 257.6 260.5 264 270 277.6 283.5 283.4 279.2 273.3 273.1 274.7 280.1 283.9 285.1 287.5 289.4 291.3 294.4 297.9 300.3 301.7 301.9 304.1 306.6 309.6 318.1 319.8 321.5 325.9 334.6 334.2 338.1 348.7 367.9 391.4 396.2 377.8 355.2 341.5 327.2 322.3 320.5 318.7 314.5 307.4 316.9 322.5 324.7 334.3 347.5 358.2 364.5 365.6 359.7 352.9 341.4 332.3 319 305.8 300.4 298.2 302.5 315.5 321.2 318.4 324 325.7 323.1 314.2 299.3 287.9 275.5 265.1 257.8 249.2 243.7 234.9 226.9 219.3 208 200.9 195.1 190.8 186.8 184.1 180.5 175.7 172.2 167.5 163.3 159.9 158.3 156.7 155.9 157.6 157.5 153.4 152 155.2 157.5 158.3 160.2 161.4 162 163.7 165 166.9 169.2 170.7 172.1 174.3 175.7 175.7 175.5 174.7 173.6 172.7 171.7 170.5 169.8 167.8 166.9 166.5 166 165.2 164.3 161.3 161.6 161.6 163 165.7 168.1 171.9 175.4 175.3 175.4 175.7 175.9 177.3 177.2 177.1 172.9 171 170.4 170.8 169.5 166.9 164.9 165.3 163.9 166.3 167.4 169 174.4 177.9 174.9 173.8 173.8 174.3 176.1 178.7 180.3 181 182.3 183.4 184 185.8 191.3 188.7 186.1 184.7 183.8
248.2 245.8 244.7 243.5 242.8 242.2 241.6 241 236.9 234.5 234.5 234.5 234.5 234.5 234.5 234.5 234.5 234.5 234.5 234.5 234.5 234.5 234.5 234.5 239.9 244.7 248.7 252.8 256.7 260.9 264.8 271.4 276.4 280.2 279.7 277.4 272.8 273 276.6 282.5 286.1 289.4 290.3 291.4 293.9 297 300.1 302.4 303.6 307.4 311.7 311.4 317.4 325.4 328.5 333.6 343.8 352.5 353.2 355.5 374.9 397.4 411.9 415.1 395.5 369.6 356 336.5 327.9 321.2 317.1 316.4 311.8 321.7 326.1 331.8 341 355 366.3 373 378.7 377.6 373 364.6 352.5 336.6 322.4 312.1 308.3 308.2 323.5 329.1 328.8 342 345.3 344.4 332.6 313 302.7 289 277.4 269.1 259.9 252.3 242.3 232.7 224 210.9 202.8 196.9 192.1 187.8 183.1 178.5 174.3 171.2 167.4 163.6 159.3 157.4 155.9 155.1 155.9 154.6 153.2 151.8 155.2 157.3 158.8 160.4 161.1 161.7 162.8 164.3 166.8 169 170.8 172.1 174.4 175.4 175.8 175.6 174.6 173.7 172.8 171.4 170.1 169.3 168 166.8 166.3 165.6 164.3 163.3 162.8 162.5 163.3 164.7 167.5 170.1 173 176.2 176.4 177.2 177.5 177.5 178.7 180.4 179.6 174.8 172.8 172.6 172.2 170.9 168.3 168.1 167.9 166.4 166.9 165.4 166.9 169.2 173.6 173.8 173.7 174.3 176.2 177.4 177.6 179.3 181.1 181.6 182.7 183.3 186.6 190.7 189.6 187.1 184.9 184
