ncols 200
nrows 82
xllcorner 300000
yllcorner 825400
cellsize 50
262.1 260.4 260.7 265.6 274.6 285.8 294.1 301.1 305 313.1 323.2 331.8 340.9 352.3 362.4 374.1 380.7 385.9 395.1 406.6 417.8 423.5 422.2 424.2 420.6 417.5 411 406.3 401.7 391.6 385.2 378.7 373.2 369.5 364.8 360.7 356.7 353.1 352.2 349.6 347.8 348.3 349.8 351.1 353 352.3 352.5 354 352.3 346.7 338.1 332.6 325.2 316.3 307.5 298.1 288.2 283 277.6 273.4 270.5 268.9 267.4 264.2 261.4 259.9 254.6 248.2 244.9 246 247.6 249.3 251.2 253.1 254 252.5 251.7 249.5 248.1 243.6 239.5 236.8 236.2 235.9 235.7 235.5 234.3 233 231.5 230.8 230 230.8 230 224.2 212.1 208.6 205.8 206 207.6 209.4 211.2 211.9 212.2 211.9 214.4 215.4 216.4 214.9 214 212.4 210.4 210.4 209.5 209.6 208.4 207.4 206.8 206.5 206.3 206.2 206.5 205.2 198.6 202.4 196.8 194.4 190.4 188.2 187.1 186.2 184.8 183.6 182.6 182.3 182.3 181.6 180.9 181.5 182.2 181.9 181.8 181.9 180.7 181.1 181.8 182.1 181.3 181.1 180 178.2 177.9 177.6 178.2 178.1 177.1 179.1 180.4 181.5 182 181.1 180.3 181.5 184.2 192.4 191.2 190.3 189.4 191.7 199.7 201.8 208 219.2 228.8 237.6 244.1 252.3 261.1 272 280 287.3 297.1 307.3 317 325.6 334.1 342.8 351.6 360.1 369.3 376.2 374.4 369.8 365.3 361.9 357.6 352.5 348.2 344.3 340.8 338.1
264.9 260.6 259.3 262.4 269.4 280.3 289.1 295.6 302.4 310 318.9 327.4 337.6 346.6 354.8 365.7 371.5 378.3 387.5 401.2 410.7 416.7 417.3 419.2 416.9 413.4 408.9 407 400.5 393.7 383.3 377.3 371.5 367.5 363.3 359.1 355 351.4 348.6 347.4 345.8 345.6 346.8 348.1 349.2 348.5 348.7 349.7 348.8 343.7 338.9 333.8 327.2 316.7 308.2 299.1 288.6 282.9 278.4 274.7 271.5 269.1 267.6 263.9 260.3 260 252.7 247.4 245 246.1 248 249.9 251.8 253.8 254.9 254 252 250.4 247.6 242.7 238.7 236.5 236.7 236.5 236.3 235.7 234.2 232.9 232 231.6 231.1 230.5 228.9 224.6 220.7 212.6 208.8 205.5 203.4 205.7 208.1 208.8 209.3 208.5 208.2 208.8 208.6 208.4 208.2 208 207.5 205.3 207.1 207.7 208.6 208.3 207.6 207.2 206.8 206.6 204.4 202.5 205.8 203.8 198.9 198.6 196.2 194.4 190.7 187.3 184.5 183.3 182.4 181.7 181.2 181.5 181.8 181.4 182.3 182.6 183.3 183.7 182.3 181.3 180.3 180.4 182.6 182.4 181.3 180.2 180.1 178.9 176.5 174.8 177.3 180.7 181.6 181.8 182.2 181 181.3 182.3 188.2 190.3 190.2 190.1 189.1 197.8 201.4 201.6 203.7 215.7 224.8 230.7 238.7 243.6 251.8 262.4 271.9 281.3 290.5 300.1 307.3 315.8 324.4 333.6 342.4 351.1 359.2 365.7 366.3 362 358.9 356.4 352.6 348.1 344.9 341 336.9 333.8
271.1 262.5 258.7 259.5 269 279.2 287.4 293.6 300.7 306.3 313.3 320.9 331.5 337.9 346.4 357.4 364.2 370.6 381.4 389.9 401.2 410.3 413.7 412.6 409.9 406.5 404.2 402.2 397.9 391.6 383.6 376.9 371.9 367.6 362.8 358.6 355.8 352.1 347.1 345.3 343.4 342.8 344 345.2 346.4 345.6 345.2 346.5 343.7 342.4 338.6 335.1 328 318.1 308.7 299.7 290.4 284 278.4 274.5 272.5 269.9 267.2 263.4 261.7 258.5 252 248.3 244.9 245.4 248.2 250.5 252.3 254.4 255.5 255.4 252.7 250.8 246.8 241.5 238.1 236.4 237 237 236.5 235.9 234.2 232.7 231.8 231.4 230.4 229.5 227.8 224.4 223.5 222.3 220.2 216.4 209 203 204.8 206.7 208.5 207.5 206.9 206.4 207.1 207 206 205.9 206.2 206.8 206.4 207.6 207.9 208.2 207.7 206.9 204.7 203.9 202.8 205.1 206.1 205.4 201.7 200.3 201.9 195.8 195.1 191 186.5 182.8 182.4 182.7 183 183.9 182.7 181.5 182 183.3 183.7 183.7 183.8 182.1 180.4 182.1 182.8 182.6 182.4 181.3 181.2 180.1 177.4 176.2 178 183.1 181.4 181.6 182.3 181.7 182 183.5 190.3 189.5 189.6 189.4 191.1 201.5 201.7 202.1 203.1 207.9 217.7 226.8 234.3 240.8 245.1 253.6 263.5 274 284 292.5 299.2 307.1 315.2 324.3 333 341.5 348.6 355.5 358.6 355.1 352.8 350.3 347.8 343.6 340.7 336.4 332.4 329.4
275.9 264.4 260.1 261.5 271.8 281 286 291.7 299.8 302.4 308.8 316.1 324.4 327.7 340 349.9 355.9 362.7 371.3 380.5 394 403.4 410 405.5 405.7 400 399.9 397.2 394.2 388.9 382.5 374.7 368.3 365.9 361.7 357.7 353.7 349.5 346.1 344.3 342.4 340.7 341.7 342.7 343.7 343.9 342.6 343.8 342.6 341.6 337 332.5 326.5 317.9 309.9 300.5 291.8 284.1 277.3 274.6 272.8 271 268.9 265.3 260.3 256.8 251.8 247.3 245.3 245.1 246.8 249.7 252.7 254.8 255.9 255.6 253.3 249.6 245.7 240.7 237.6 236.1 236.7 237.1 236.6 236 234.3 232.6 231.3 230.4 229.5 228.6 226.7 224.7 223.5 222.4 221.7 222.5 218.7 211.9 204.8 202 203.2 207.6 208.3 206.3 206.1 206.8 206.1 206.6 208.1 208 207.1 207.6 207.8 207.3 205.9 205.7 203.2 205.1 206.2 206.5 207 205.9 202.1 200.6 201.1 197.3 198.7 191.8 187.9 182.7 182.2 182.3 182.4 181.9 182.7 183.5 183.6 184.2 185.5 184.9 184.9 181.3 181.5 183.1 182.7 182.6 182.5 182.3 181.3 180.1 176.9 176.6 179.7 180.1 180.3 181.7 182.5 182.4 183.5 185.5 189.3 190.2 189.3 189.4 196.8 201.9 202.5 202.4 203.7 206.7 212.5 221.6 228.7 238.4 242.8 249.4 258 268.2 278.1 285.1 291.6 299 306.9 315 323.5 332 339 345.6 349.2 348.2 346.4 344.2 341.5 338.9 335 331.1 327.5 323.9
278.2 268.8 261.8 263.6 272.7 278.9 282.9 288.6 296.3 297.9 304.3 311.4 316.9 320.8 329.9 340.2 348.5 353.4 363.3 374 383.7 393.9 398.1 396.2 397.7 395.8 393.1 391.8 388.2 383.7 378.9 373 365.3 363.7 359.7 355.7 351.6 347 345.2 343.2 340.9 339.2 339.9 340.9 341.9 341.9 342.4 341.9 340.3 340.5 337.3 332.8 327.3 318.4 311.2 301.8 291 282.1 276.6 274.5 272.5 270.9 269.2 264.7 258.6 255.1 252 246.4 244 243.4 246 249.5 253 255 256.1 255.2 251.9 247.7 243.5 239.7 237.1 236.1 236.3 237 236.6 235 232.9 231.2 230.9 230 229.1 228.2 226.9 224.9 223.6 222.4 221.7 219.9 219.4 219 214.7 210.2 202.9 202 207.5 208 207 206.2 206.8 207.2 206.7 207.5 207.4 207.4 206.6 205.5 205.4 204.5 206.2 207.1 207.5 207.5 205.3 203.5 204.7 203 192.9 192.2 194.6 192.9 187.3 182.7 181.6 181.9 183.3 184.8 185.1 181.1 181.5 181.2 182.4 182.8 185.8 183 183.4 183.1 182.7 182.4 182.3 181.8 180.1 177.3 178.1 178.3 183.8 182.6 182 181.2 182.8 183.4 184.5 187.7 190.1 191.2 189.3 195.2 199.2 202 203.8 204 204.4 206 210.8 217 224.4 233.7 241.5 249.8 253.5 260.3 270.5 278.5 284.1 289.9 297.9 306.4 315.4 322.3 328.6 335.8 339.8 339.9 337.7 336.3 334.2 331.6 327.7 324 320.4 316.4
281.6 273.3 263.4 265.9 274.5 278.1 280.3 283.6 290.5 293.9 299.9 306.3 308.1 311.4 320.5 330.6 342 347.3 355.2 365.4 377.1 383.9 388.9 388.8 386.9 388 385.3 383.7 381.6 377.5 373.4 367.8 364.9 361.8 357.7 353.6 349.4 346.1 344 341.6 339.3 337.8 338.1 339.1 339.9 340 340 340.6 339.3 339.2 336.9 334 329.2 319.5 311.3 301.7 291 282.6 277 273.9 272 270.6 269.1 264.2 257.9 253.1 249.2 245.7 243.6 243.1 246.2 249.8 253.3 255.2 255.7 254.8 251.4 247.4 243.4 239.7 236.7 236.1 236.1 236.6 236.4 233.9 231.5 230.5 230.2 229.6 228.7 227.9 226.8 225.2 223.9 222.6 219.7 217.2 217.6 216.8 216.2 212.3 209.4 206.8 198.4 206.4 206.1 205.5 205 204.9 205.6 205.2 203.8 203.2 205.9 207.4 204.7 205.4 206.9 207.5 207.6 205.7 205.9 206.4 205.8 193.7 188.7 189.8 189.3 189.6 185.2 182.4 182.1 182.9 186.3 180 179.6 179.5 179.5 179.5 180.1 179.7 181.6 181.5 183.5 183.1 182.6 182.2 182 181.1 177.2 178.5 178.2 184.4 181.8 181.9 181.9 183.3 184.8 184.9 185.2 186.7 188.9 190.3 191.4 196.1 200.6 205.4 205.5 204.5 205.4 206.3 208.7 211.3 217.2 227.1 233.2 244.6 250.2 256.8 260.9 270.6 277 281.9 289.3 297.8 307.3 314.3 320 325.2 328.8 330.7 329.3 327.8 326.3 324.3 320.6 317.1 313.6 309.1
289.3 279.9 268.9 260.1 267.8 274.3 277.4 280.3 285.6 292.5 299.2 300 299.7 304.1 310.2 321.5 331.3 339.7 348.6 357.1 367.1 372.8 379.3 378.1 379.1 378.5 379.9 375.8 374.2 370.3 367.2 364.3 361.1 359 354.7 350.9 347.3 344.7 342.4 340.1 337.8 336.4 336.3 337.2 338 338.1 338.6 339.3 338.1 337 336.7 335.7 330.3 319.2 309 300 290 283.7 277.7 273.4 271.6 270.2 268.8 262.2 257 252.7 248.9 245.2 243.2 242.4 245.7 250.2 253.2 255.1 255.4 254 250.6 247.3 243.6 239.5 236.7 236 235.9 236.1 235.1 232.6 230.2 229.7 229.4 229.2 228.3 227.6 226.4 224.2 222.8 220.4 218.7 216.8 213 213.1 211.2 207.9 207.8 209 207.2 198.7 208 206.5 204.8 204.7 205.6 205.9 206.1 203.4 203.7 205.6 204.6 206.4 207.5 205.9 206.4 205.5 205.9 206.3 201 190.3 189.4 189.7 188.8 185.1 184.3 186.3 184.7 182.8 179.3 179.3 180.9 181.5 181 181.1 180.8 179.8 179.5 181.3 181 182.2 182.3 182 180.9 177.4 178.9 178.5 181.4 185.5 187.3 187.5 185.4 185.3 184.6 185.3 185.7 188.5 190.7 193.5 193.9 195.9 193.4 203.3 205.2 205.1 205.1 205.8 207.6 211.8 218.2 225.1 227.9 237.4 245 251.7 257.2 262.9 268.8 274.1 281.4 289.7 298.2 305.3 310.3 315.5 319.6 321.3 320.9 319.4 318 317 313.3 309.9 306.2 300.7
294.3 285.6 273.2 264.7 261.6 270.9 275.9 279.4 282.6 288.8 294.4 293.3 292 296.7 300.8 312 322.4 332.7 341.3 347.7 356.8 363.9 369.9 369.5 369.8 371.1 371.6 370.6 368.5 363.4 361 359.2 356.3 352.7 351.2 346.4 342.1 340.9 339.8 338.5 336.2 335.1 334.7 335.1 336 336.3 337 337.3 336.5 335.4 335.2 336.3 324.4 316.5 308.4 298.2 288.8 285.2 280.5 274.2 271.2 269.8 268.3 262.6 257.3 252.1 248.3 244.9 243 242.1 243.9 248 251.7 252.3 252.4 251.8 248.1 244.3 240.4 238 236.6 235.7 234.7 234.3 232.9 231.1 228.9 228.7 228.7 228.6 228 226.8 225.1 222.2 221.6 218.9 218.2 216.6 214.7 211.6 207.7 207.5 208.1 208.2 206.6 197.5 206.5 204.8 205.6 206 206.6 206.6 206 205.2 205.2 200.6 202.5 202.3 205.5 205.3 205.6 203.9 199.8 198.6 195.5 192.6 192.1 191.3 187.3 184.6 184.2 185.7 182.5 177.8 179.9 180.8 181.5 180.7 180 179.5 179.8 180.8 179.4 179.4 181.2 180.9 181.4 180.9 179.6 179 178.6 178.6 186 184.9 186.2 188.2 187.7 185 184.5 185.6 187.6 194.3 193.1 199.1 198.6 200.4 202.8 195.3 204.3 204.1 204.8 207 208.4 211.5 216.5 222.9 226.1 229.6 236.1 245.3 251.2 256.4 261 266.1 273.5 281.8 290.1 296.3 301 305.8 310.3 312 311.7 311 309.7 308.4 305.5 300.9 296.1 294.8
296 287.9 278 266.9 261.8 271.2 275.6 278.2 281.3 285.3 286.1 284.5 284 284.5 290.8 302.4 313.6 324.7 334.1 340.6 348.1 356 360.8 362 362.1 362.2 362.6 362.1 361.3 358.1 355.2 353.9 351.8 348.7 345.9 343.8 340 338.8 337.5 335.9 334.4 333.7 333.3 332.6 332.5 333.4 334.4 335.4 334.8 333.9 333.6 332.1 322.7 316.8 309.5 299.7 291.3 289.2 282.1 276.7 272.3 269.3 267.4 262.8 257.2 251.8 248.3 245.1 242.8 242 243.4 246.8 249.6 249.5 248.4 247.2 247.2 247.6 244 239.3 235.7 234.6 233.4 232.2 230.8 229.4 227.8 226.6 227.6 226.9 225 223.4 220.9 215.8 216.1 212.4 210.1 209 209 208 207.6 207.9 208.9 208.1 198.9 197.5 201.9 201.5 206.8 207.5 206.3 206.3 205 204.6 204.6 201.8 198.1 201.1 201.1 199.3 198.3 197.6 196.6 194.8 195.3 194.4 194.2 194.6 187.2 185 184.7 184.5 179.2 178.7 180.6 180.6 180.9 180.2 179.4 178.9 178.8 179.2 179.3 177.9 179 180.2 180.5 179.1 178.2 178.8 178.3 186.7 186.1 184.7 184.4 185.7 186.2 184.5 185.7 190.5 193.2 196.5 196.4 198 199.6 201.4 204 198.4 201.4 204.8 204.4 206 206.8 208 213.6 216.6 220.4 223 227.7 237.6 244.4 249.7 254.6 257 267.5 275.4 282.5 287.3 292 296.7 301.1 301.8 301.2 300.8 300.1 298.2 296.4 293.5 288.7 286.8
300 291.2 281.9 266.8 263.8 274.5 275 276.9 279.4 282.6 276.8 271.9 270.4 268.8 277.6 291.4 303.8 314.7 324.1 332.7 339.7 346.7 351.6 352.6 353.2 353.2 353.6 353.3 352.6 350.8 348 346.9 345.9 344.1 340.9 338.6 337.3 336.9 335.3 333.6 332.7 332.2 332.1 330.8 330.8 331.8 332.8 333.2 333 331.1 330.2 327 320.4 316.5 309 298.9 294.6 290.5 283.4 278.2 272.7 269 269 265.3 260.6 254.2 249.2 245.7 242.5 242 243.5 246.7 251.6 251.6 251.2 251.2 252 250.8 247.2 241.2 236.2 234.9 233.4 231.9 230.1 228.2 226.3 225.1 223.6 221.4 220.8 218.9 216.9 214.3 213.7 217.6 214.1 209.6 208.7 207.3 206.7 207.4 205.7 201.6 195.3 196.5 196.8 193.2 197.3 199.6 200.8 201.4 198.5 197.2 196.3 194.4 194.8 194.9 193.8 195.1 193.2 191.7 194.5 196.1 195.4 194.2 194.5 194.5 191.8 190.1 190.5 188.3 177.7 180.1 181.1 180.6 180.3 179.7 179 179 179.2 179 179.2 178.6 178.6 179.8 178.3 176.6 178.2 181 186.4 185.9 187.8 186.1 184.2 184.7 185.9 187.3 194.6 199.3 196.2 198.7 198.7 200.4 199.9 204.2 205.5 204.6 200.9 201.7 203.7 207 207.9 208.2 209.5 211.1 213.2 218.3 223.2 229.3 237.1 244.5 249.2 251.9 258.6 267.5 273.7 278.3 283 287.7 291.5 292.1 290.6 289 288.8 287.6 286.4 283.9 280.7 278.2
307 299.2 289.4 273.1 256.8 267.7 269.3 270.5 274.1 275.9 268.6 262.3 260.1 259.4 263.5 277.3 292.5 303.5 312.5 321.2 329 335.2 339.3 342.7 340.2 342.6 344.3 344.3 342.7 341.6 340.8 339.8 339.3 339 337.2 335.2 335.8 334.5 333.1 331.5 331.1 330.7 330.5 329.2 329.1 330.2 331.1 331.6 331.6 329.7 326.6 323.2 321.3 316 308.2 299.9 293.8 289.1 283.1 277.9 272.6 271.6 270.8 266.6 260.4 255.6 249.1 245.3 242.3 242.3 243.9 248.6 253.5 253.8 254.1 253.9 253.5 251.5 246.8 240.4 235.9 234.8 233.4 232.1 230.3 228.2 225.5 224 222.2 222.3 225 223.3 221.6 218.7 217.5 215.5 211.5 208.8 208.5 206.1 206 205.5 202.3 197.3 195.3 194 192.6 192 192 193.1 193.4 193 193.3 193.4 189.8 190.9 192.4 191.5 191.4 190.8 192.6 194.5 197.2 194.2 193.9 193.8 195.8 199.4 198.5 202.5 196.8 183.5 177.4 180.5 181.1 182 181.8 180 179.2 179.5 179.8 178.9 178.8 180.6 180.8 180.6 178.9 178 181.8 187.2 184.7 182.7 182.7 183.9 187 195.6 195.3 202 201.1 200 199.9 198.7 198.8 200.6 201.6 202.2 203.4 203.9 204 204 203.8 205.4 208.4 208.8 210.3 211.6 211.7 213.9 220.2 226.7 231.1 239 241.6 245.9 250.9 257.9 264.8 269.6 273.9 278.5 281.8 281.3 280.6 280.4 278.9 277.7 276.4 274 272 270.3
309.9 305.2 299.5 285.8 267 256.1 256.6 256.4 261.4 262.8 254 252.2 252 251.8 253.7 265.6 280.1 291.7 300.9 309.6 317.2 324.2 329.4 332.5 331.8 331.6 332.2 334.5 333.6 334.9 335.3 335.3 334.9 333.7 335.3 334.7 332.6 331.5 330.4 329.8 329.4 329 328.5 327 328.4 328.8 328.8 329.3 329.6 327.7 324.7 321.7 319.9 314.5 307 298.4 290.5 285 279.7 276 276.6 278 272.5 266.5 260.9 254.9 248.3 244.4 241.7 242 244.1 249.8 254.3 253.9 257 257.3 254.2 250.9 245.5 238.9 234.3 234.8 233.4 232.1 230.4 227.9 225.2 223.3 225.3 225.2 224.9 222.6 221.3 217.3 217.9 215.1 212.4 209.8 207.2 206.8 205.7 202.9 199.5 195.3 194.5 193.9 192.4 191.9 191.2 191.5 191.6 190.7 191.1 192.4 191.3 193.4 194.9 194.5 191.7 191.2 194.8 196 196.3 193.2 194.9 196.5 197 197.8 198.4 198.3 189.9 177.8 177.4 182.2 180.9 182.7 183.5 183.4 180.3 180.1 180.3 179.1 180.2 181.3 182.2 183.4 179.5 179.2 184.3 185.5 184.6 185.5 187.4 190.1 194.9 200.3 201.6 201.5 201 200.8 200.6 200.8 199.6 201 201.9 203.6 203.8 204.3 204.7 205 204.9 204.9 208 210.9 211.5 212.5 213 214.4 218.9 223.2 225.7 229.5 234.9 239.9 245.3 250.5 255.7 260.8 265.1 269.1 272.3 271.9 271.9 270.6 268.8 267.8 266.5 265.6 265.8 266
317.1 308.8 303.3 298.5 284.9 272.9 269.3 265.3 258.3 255.2 255.5 257.7 252 248.8 247.4 253.4 265.9 277.9 289.4 297.9 306.2 313.9 319 322.4 322.8 323.8 325.2 328.7 329.5 329.7 330.7 330.3 330.6 331.1 329.7 329.3 327.8 327.8 327.9 327.6 327.4 327 326.1 326.1 327.8 327.6 326.9 326.8 327 324.7 322.3 319.2 317.3 311.8 305.2 296.8 288.2 281.2 276.3 276.1 275.9 278.9 272.8 266.1 261 253.7 247.1 243.9 241.3 241.2 242.7 247.6 252.6 254.9 258.4 258.9 254.9 249.6 242.3 236 232.9 234.2 233.6 232.3 230.1 227.4 224.7 223.9 225.2 225.4 224.2 222.1 221.2 219.2 216.8 214.4 211.8 210.8 209.3 207.5 203.5 201.5 198 195.7 194.3 193.9 193.2 191.6 191.1 192.5 196.1 193.5 196.6 194.6 190.6 191.3 190.6 187.2 187.4 189.5 191.5 191.9 194.3 192.5 198.9 197.8 198.1 198 197.8 190.2 180.8 179.5 179.5 182.9 182.3 184.2 183.4 181.4 181.4 181.2 181 180.8 182.2 185.1 186.6 185.2 180.4 179.6 187.2 187.4 187 188.4 191.2 194.3 199.1 201.2 203.5 203.2 202 201.3 200.7 200.6 200.1 200.7 201.7 202.9 204 203.9 204 205.6 206.6 207.1 204.3 204.3 211.5 212.9 215.7 214.8 215.2 217.8 222.3 225.7 228.2 233.9 241.1 244.5 247.4 251.5 255.6 259.6 263.1 263.3 263.5 263.5 262.4 261.2 261.3 261.3 263.3 264.9
323.5 316.5 313.7 309.2 298.8 289.3 283.2 278.2 273.8 272.5 275.4 272.7 259.9 253 249.2 245 254.9 264.6 276.3 286.3 295.2 305.5 309.6 312.2 314.3 316.2 318.3 321.2 322.6 322.8 323.7 324.9 325.8 326.1 324.5 325.7 325.6 325.7 325.7 325.4 325.2 324.9 324.1 324.9 325.2 324.4 324.1 323.1 322.8 321.7 319.2 316.8 313.7 308.5 301.9 294.6 285.5 278.2 274.2 275 274.2 276.5 272.5 265.9 258.5 251.7 245.4 242.6 241.4 239.8 240.6 245 250 253.1 259.8 255.1 253.9 246.4 238.5 233.8 232.4 232.8 234.8 233.2 229.6 226 223.7 223.8 224.1 224.7 223.4 221.6 219.7 217.7 215.7 213.6 212.2 211.3 209.8 207.5 204 199 196.9 196.2 194.6 193.9 193.4 192.4 192.9 198.6 201.1 197.5 198.4 193.5 189.5 187.2 187.1 187 187 190.3 191.5 194 193.4 197.2 195.5 196.9 197.7 197.9 190.4 182.4 181.4 179.9 178.6 183.8 181.8 182.7 181.8 182.2 182.2 182.4 181.9 183.8 188.2 187.1 185.6 184.3 181.5 182.8 188 188.3 190.7 190.9 195.1 197.3 200.2 203.3 205.2 205.6 204.3 202.6 202.1 202 201.7 201.7 202.1 203.1 204.1 204.9 205.2 205.2 205.5 206.9 206.9 204.8 210.5 213 217.9 218.3 220.6 218.9 220.3 224.4 226.3 229.8 235.2 237.9 240.5 244.1 247.6 251 254.4 255.9 257.4 258.7 257.6 256.4 256.5 256.8 259.7 263
330.8 323.6 322.3 316.8 306.9 300.4 292.8 285.2 279.8 275.6 276.1 275.6 260.8 249.9 249.6 247.1 251 260.9 272.8 280.1 288.9 299.3 301.9 305.6 307.9 309.2 311 312.8 315.6 315.8 316.9 320.3 322.6 324 323.8 324 323.6 323.7 323.5 323.2 322.9 322.4 322.1 319.5 319.7 319.9 319.1 319 318.5 318 315.4 312.8 310.9 305.8 298.9 289.7 281.4 273.7 269.4 270.2 269.2 269.7 266.9 257.4 260.4 251.1 243.7 240.5 241.4 238.8 238.6 242.4 247.6 251.1 251.8 252.5 251.8 242.6 236 230.9 229.8 231 235.2 232.7 228 224.5 224 224.1 224.1 223.7 222.3 220.8 218.7 216.2 214.1 213.1 212 211.1 209.9 207.5 205.2 199.4 198.6 195.6 194.6 194 193.5 193.4 193.6 195.5 197.3 198.7 198.8 193.1 190.4 187.5 187.1 186.9 187.7 189.2 194 192.3 193 198 195.4 196.4 193.1 194.6 181.9 182 181.1 180.3 177.4 182.6 183 183.1 182.2 182 182.7 183.5 183.3 186.4 190.3 188.4 186.1 184.8 182.7 183.7 188 189 191.4 194.4 197.4 200.1 203 205.3 206.4 206.4 205.8 204.7 203.7 203.5 203.2 205.5 205.5 203 203.5 204.5 204.7 205.7 206.1 207.1 207.5 209.4 212.3 214.5 218.7 220.4 221.3 221.5 219.2 220.1 221.7 224.2 227.5 231.8 234 237.8 241.2 244.6 248.6 250.1 251.4 252.7 252.8 252.3 252 252.1 255.5 259.6
334.8 330.9 329.2 321 313 305.8 298.8 291.2 282 277.6 274.2 276.6 263.6 249.7 248.6 246.7 249.2 257.2 269.4 278.4 286.2 292 296.3 299.1 301.8 303.6 304.1 305.8 308.9 309.5 312.2 316.9 319.2 321.2 321.9 321.9 321.5 321.5 321.2 320.7 320.3 319.9 319.5 316.8 316.7 316.7 316.3 315.3 314.9 313.9 311 308.4 306.5 302.6 295.5 286.8 277.7 267.5 264.3 261.8 260.3 259.2 257 256.1 254 249.5 242.5 238.7 236.2 235.6 235.5 240 244.2 247.7 246.5 244.4 241.9 239.9 232.7 228.7 226.4 227.5 230 229.9 225.9 223.6 222.7 222.5 222.4 222.5 221.5 220 217.1 214.6 213.6 213 212.4 210.8 210.1 206.7 203.6 200.7 197.8 195 194.5 194 193.6 193.4 193.4 193.8 195.9 198.1 199.6 194.2 189.6 188.5 186.9 186.7 186.9 191.6 192.2 193 193.8 194.7 196.2 196 190.3 183.5 180.6 180.5 180.8 182.7 178.4 183.3 184.2 183.3 182.3 182.3 184.5 185.2 184.9 186.7 186.9 185.7 185.1 184.9 185 183.5 187.5 190.5 192.4 195.7 200.2 200.5 204.6 209 209.2 208 207.3 206.9 205.9 204.9 207.4 208.1 207.4 204.8 204.1 204.2 205.1 206 207.7 208.3 208.5 211.9 214.6 217.8 220.7 222.4 223.5 224.9 224.2 223.9 225.7 224.3 224.8 227.1 229.3 232 234.8 239.7 244.3 245.6 246.9 248.4 249.1 248.7 249.1 250.5 252.2 255.1
340.5 336.5 333.5 325.8 317.6 310.5 301.1 292.9 284.3 280.5 276.7 273.5 267.1 253.3 245.7 244 244.2 254.2 269 280.7 285.1 285.6 289.2 290.8 293.8 298.3 300.6 302.7 304 306.1 310 313.9 316.4 318.3 319.5 319.5 319.4 319.1 318.7 318.2 317.8 317.4 315.2 313.8 314 312.3 312.4 311 308.5 307.8 303.6 301.8 298.9 291.8 286 277.7 269.4 260.5 257.7 254.2 252.8 250.6 252.2 250.2 245.2 242.4 237 232.3 229.1 226.9 229.7 235.5 239.5 242.4 242.3 239.8 236.2 233.5 229.8 225.4 222.6 222.7 224.4 226 225.4 223 221.3 221 221.5 221 220.8 218.6 215.7 214.1 213.5 213 212.4 211.7 209.7 206.4 202.9 199.4 196.4 194.9 194.4 193.9 193.5 193.4 196 197.6 199.3 198.3 199.7 194.4 189.9 189.5 186.7 187.5 188.7 189.1 192.9 193.5 193 193.4 194.5 186.1 182.6 180.3 180.8 180.8 180.7 181.5 179.6 183.7 184.2 183 182.5 182.4 183.4 183.1 186.1 185.4 185.5 185.9 187.1 186.8 187.7 185.2 185.5 190.4 193.1 198.2 201.4 201.4 206.2 208.6 209.1 208.2 209 209 208.1 208.2 209.9 209.5 208.2 207.3 204.3 204.8 205.7 206.5 207.4 208.2 210.8 212.4 215.1 218.6 222.9 224.5 225.8 227.3 229.1 230.5 230.4 229.1 230.9 232.9 232.2 229.5 232.6 236.8 241.3 242.6 244.1 245.6 246.1 246.5 246.4 246.7 249.3 251.4
345.3 340.4 338.5 332.5 323.1 313.1 303.1 293 283.7 280.1 278.2 274.8 270 252.9 246.2 243.1 242.5 249.7 267.7 277.3 279.4 283.5 284.4 285.6 288.7 292.8 292.7 297.6 301 303.5 307.8 311.7 314.6 316.6 317.2 317.1 317.3 316.8 316.3 315.9 315.4 315 311.7 311.4 310.2 309.6 307.9 305.4 303 299.1 296.9 291.8 287.3 279.4 273.7 267.5 261.8 253.6 250.6 249.4 249.6 246 244.7 239.6 234.6 231.8 230 225.7 223.2 223.5 225.4 231 234.8 236.3 235.3 232.5 230.8 228.7 224.9 221.1 218.7 219 219.5 220.8 221.3 221.7 219.6 220.1 220.9 221.8 221.6 217.7 215.2 213.9 213.5 212.9 212.3 209 207.6 205.3 202.6 200.4 195.9 194.6 193.9 193.5 193.5 199.6 201.4 199.4 198.7 200.6 199.1 193.8 189.6 188.4 189.6 191.1 190 191.6 191.2 192.5 192.3 188.6 186.1 182.7 180.8 180.9 181.6 181.4 181.4 181.5 180.9 182.9 183.4 182.8 183.8 186 184 184.3 187.9 186.3 186.9 186.4 187.6 187.9 189.1 188.8 187.8 190.5 195.9 198.8 202.6 200.4 206.8 209.2 209.8 209.6 210 210.5 210 209.6 210 209.2 207.5 207 206.6 205.5 206.3 207.1 207.9 208.8 211.3 214.2 218.1 222 224.1 226.8 227.5 228.7 230.7 232.3 232.1 231.2 234.4 235.7 235 233.5 231 234.4 238.7 240.2 241.6 243.6 244.1 247.6 249.1 251 252.6 255.3
348.7 345.8 342.8 340 328.5 315.1 304.7 295.2 286.1 281.8 280.1 277.6 271.3 256.3 248.1 243.1 242.2 243 256.2 263.1 266.7 272 279.1 282.8 283 285.8 290.3 293.6 295.4 300.9 305.2 309.4 312.6 314.3 314.8 315.1 315 314.5 314 313.5 313.1 312.6 310.2 309.5 308.3 304.3 302.4 298.7 295.4 291.7 290.2 285.2 278.8 269.9 266.7 260.4 254.7 247.5 247.7 244.5 241.6 236.3 234.4 229.5 226.3 225.1 223.8 222.4 221 221.1 222.3 225.7 228.8 230.9 229.4 227.6 226 223.6 219.6 217.1 216 215.5 216.4 216.4 217.3 218.1 218.4 219.1 219.8 221.6 221.7 217.6 214.9 213.7 213 211.7 211.7 206.6 204.1 201.9 200.8 200.2 196 194.3 193.5 193.6 193.7 201.3 203.3 198.7 201.3 198.6 193.7 190.9 189.8 188.9 189.9 194.5 189.5 187.6 188.1 189.9 186.8 185.1 182.2 181.4 181.1 181.9 182.3 182.3 181.4 180.9 180.3 183.2 183.2 184.1 186.2 186 184.1 185 187.1 186.3 186.8 187 187.6 188.7 188.7 188.1 191.1 195.3 197.3 201.2 202.1 199.8 206.7 209.2 210.7 210.2 211.5 209.5 210.1 210.1 210 209.4 207.8 208.1 208.5 207.3 207 208.1 209.4 210.1 212.2 216.8 221 224.6 226.7 228.7 230.4 231.5 233 233.4 233 233.4 234.9 236.7 237 235.1 232.3 233.7 236.1 238.5 238.9 242.8 245.3 248.6 251.1 252.9 254.9 257.8
361 357.4 354.6 350.2 333.4 317.9 308.3 299.6 290.6 285.8 281.5 280.3 280.9 274.3 260.6 248.5 242.2 241.3 241.6 246.9 253.8 260.5 266.2 271.4 275.1 281 287.5 291.6 293.7 298.5 302.1 306.6 310.4 312.1 312.7 313 312.7 312.1 311.7 311.2 310.6 309.8 307.7 305.9 304.5 300.8 295.3 291.6 291.3 283.2 280.1 276.9 270.8 263.7 255.6 247.4 246.6 245.1 239.3 233.8 231.4 228.6 225.9 223.8 220.1 221.6 221 220.1 220.6 220.2 221.1 220.9 222.6 223.5 223.1 222.4 220.9 218 217.8 217.1 217.1 216.9 216.1 215.6 215.4 215.7 216.3 216.7 217.6 219.6 219.9 216 214.4 213.2 211.5 208.1 206.7 206.7 204.2 200.4 200.6 199.2 195.2 194.4 195 193.8 193.6 202.6 201.3 200.7 198 197.5 191.6 190.7 189.7 188.6 187.9 188.5 188.1 190.5 191.5 186.8 186.8 184.5 181.7 182.3 182.2 181.8 182.6 182.7 181.7 182.9 180.3 183.1 183.9 187.3 186.8 184.6 183.8 185.2 187 186.1 186 190.1 190.7 190.3 189.7 189.2 191.8 194.6 196.5 200.6 201.9 201.6 206.5 209.2 209.6 211.9 212.1 211.9 210.5 210.5 210.4 210.2 209.1 208.4 208.8 209.5 208.1 209.8 211 211.7 212.3 218.7 223.9 227.8 229.9 231.4 232.8 234.2 235.1 235.3 235.4 236.1 237 238.2 236.7 235.7 232.8 233.6 236.6 237.7 239.8 242.9 246.5 249.8 253.1 254.9 260.2 260.9
369.1 364.2 363.9 361.2 343.1 326.1 317.1 307.5 299.1 291.3 284.5 280.8 281.1 280 275.6 265.4 254.4 242.4 240.3 239.2 243.2 245.9 252.3 258.9 269.9 278.6 289.8 291.3 291.8 296.6 300.2 303.6 308 309.7 310.3 311 310.3 309.8 309.3 308.7 308 306.9 304.5 301.8 299.6 296.9 293.4 289.7 286 276.7 260.8 261.7 259 248.1 246.9 244 236.8 234.1 230.9 227.5 223.3 223.8 222.6 220.6 219.2 219.3 220.1 219.2 219.8 219.3 220.3 219.2 219.3 220.1 220.2 219 218 218.6 220 221.1 218.5 216.6 216.1 215.4 215.3 215 214.7 215.3 215.4 219.2 219.5 217.1 214.4 212.4 209.9 205.8 202.8 203.4 200.5 199.6 199.1 197.8 195.2 198.5 201.5 195.4 195.3 201.6 201.3 200.9 201.4 196.4 192.3 191.1 191.2 189.9 190.1 189.4 190.5 193.1 193.1 193.4 188.5 184.4 182.7 183.1 183.7 181.6 182.6 182.6 183.2 182.9 180.1 185.4 187.2 188.5 188.1 183.6 183.8 185.1 186 186.1 188.1 191.2 191.2 190.3 190.2 190.1 193.4 192.3 196.7 199.2 202.1 202.1 206.3 209.3 209.5 211.1 211.1 211.3 211.6 210.8 210.8 210.6 210.1 209.2 209.9 210.7 208.8 210.9 214.1 213.2 213.3 220.5 224.6 227.9 232.4 233.6 234.9 236.3 237.4 237.6 238 238.9 239.7 240.1 239.6 237.5 233.5 236 237.9 239.9 241.7 244.5 248.1 251.3 254.6 258.6 262.9 264.7
373.9 368.3 366.6 366.3 351.5 338.5 328.3 315.9 306.6 296.3 287.1 280.6 279.2 277.4 276.6 273.6 267.8 255.5 245.8 241.2 239.5 239.5 240.1 250.3 264 274.6 285.4 284.8 289.7 294.7 298.8 301.2 303.6 305.1 307.3 307.3 307.4 307.2 306.7 306.1 305.4 303.8 302.2 299 293.4 291.7 288.2 283.1 273.4 260.8 250.5 248 242.1 239.2 232.9 230.6 227.2 226 224 222.3 219.9 219.5 220.6 219.6 220.5 221.1 220.5 218.9 220.4 220.2 219.8 219 219.5 220.2 220 218.1 217.6 217.6 219.5 220.3 220.1 216.6 215.4 214.3 215.2 214.6 214 214.9 215.1 217.5 216.7 214.1 212.2 208.3 205.9 202.7 200.1 199.6 198.1 197.4 197.4 196 196.1 197.9 205.3 200.2 199.4 201.4 201.9 201.3 203.2 198.8 194.1 192.6 192.9 191.4 191.5 192.3 193 192.6 192.5 191.6 185.7 184.3 182.6 183.2 183.8 182.2 182.5 182.7 182.2 181.8 179.1 189.2 189.5 185.6 183.9 184.4 185.9 184.6 185.2 187.7 190.6 191.3 192 192.1 191.7 192.9 194.1 191.2 192 199 201.3 202.3 205.1 207.2 210.4 210.6 210.5 210.6 211.5 211.2 211.1 210.9 210.7 210.1 211.3 211.5 210.2 212.6 216.1 214.2 216 222.8 226.4 229.5 234.8 235.8 237.2 238.6 239.6 240 240.7 240.9 241 241.1 241.1 238.4 236.4 237.3 239.3 241.3 243.2 246.2 249.8 253.3 256.6 260.4 264.8 268
374.8 367.8 365.6 365.4 355.7 347.2 335.7 323.9 312.1 299.3 286.1 278.8 276.2 275.3 273.9 270.5 268.4 264 261.7 253.1 245.1 241.3 240.4 239.5 258 270.6 278.3 282.7 287.8 292.9 296.6 301.5 302.9 302.6 302.2 302.3 303.3 305.7 304.2 300.2 295.5 297.4 297.8 295.7 290.2 284.5 277.7 272.2 265 256.2 240.9 241.3 231.4 227.6 225.3 223.6 221.7 220.9 220.5 221.1 219.1 218.7 220.9 221 221.1 221.2 220.5 219.3 220.7 220.3 219.8 219.4 219.9 220.7 219.4 217.4 217.2 217.1 217.5 218.8 219.5 217.9 215.8 214.3 213.9 214 215 215.5 215.6 215.7 214.1 211.9 209.5 205.9 202.8 199.7 197.4 196 195.3 195.4 195.4 196.8 196.2 198.2 202.8 201.6 200.8 202.6 202.7 202.4 203.3 200.5 196.2 193.7 193.3 192.2 193.3 193 193.5 192.6 191.7 191.3 185.6 184.4 182.9 183.5 184 183 182.8 182.7 183.1 181.8 179.7 188.6 187 184.7 185.5 186.6 189.7 189.5 186.7 190.9 191.5 191.6 193 193.7 193 194.2 193.4 194.2 191.6 199.1 201.6 202.2 203.6 208.2 209.8 210.3 210.1 210 210.9 211.7 211.5 211.3 211 210.9 211.8 212.7 213.1 214.6 217.8 215.3 220 223.8 228 232.5 237.2 238.6 240 241.4 242.5 242.9 243 242.7 242.5 242.3 241.2 235.8 235.3 238.6 240.5 242.5 245 248.2 251.6 255.1 258.6 262.2 266.5 269.9
372.4 364.5 363.6 361.3 357.7 352.8 341 328.9 315 301.7 288.2 278.1 274.3 272.7 271.1 267.4 264.6 261 263.5 263 251.3 242.9 240.9 238.6 252.4 265.9 275.3 280.9 285.7 291.4 294.4 299.5 301.5 303 302.4 302.4 300.1 298.8 296.8 293.6 288.2 288.4 288.9 286.6 283.9 279.4 274.8 266.3 256.1 245.7 241 228.8 224.6 224.2 223.3 220.9 219.5 219 219.8 219.3 218.3 220.4 221 221.2 221.4 221.5 221 219.3 220.7 220.2 219.8 219.4 219.9 220.9 220.6 220.2 217.1 217.1 218 219.7 216.8 215.8 214.9 215.4 214.8 213.8 213 212.5 213.5 213.1 211.5 209.9 207 204 201.1 198.4 196.9 196.2 195.6 195.5 195.4 195.6 195.6 200 203.5 200.6 201.5 202.7 201.3 201.4 202.6 201.5 200.3 198.4 196.1 193.2 192.6 193.7 194.1 193.1 191.7 190.9 187 184.4 183.5 183.6 184 184.5 182.7 182.7 182.9 183.4 180.4 186.9 187.4 187.1 187.8 189 191.5 190.6 191.6 189.5 192.7 193.5 193.9 193.6 194.2 196.2 195.1 194.7 192.7 197 201.5 202.8 205.8 207.6 208.7 210 210.1 209.9 210.6 211.2 211.8 211.5 211.2 211.3 212 213 216.1 219 219.1 217.2 224.1 225.3 231.1 236.5 239.5 241.4 242.9 244.3 245.3 247.1 247.2 246.5 246.3 245.9 240.6 238 233.9 236.9 240.8 244.4 247 250.4 253.7 257.1 260.4 264 266.6 267.9
370.1 362.4 361.8 359.1 356.2 351.9 344.2 332.2 316.5 304 292 279.9 273.7 271.6 269.4 265 261.9 258.9 259 260.8 247.9 252.4 246.4 237.9 246 256.9 267.9 274.6 283.1 288 293 297.1 298.7 299.7 300.5 301.8 301.7 300.5 297.2 294.9 291.6 291.1 289.8 286.5 284.3 275 266.2 256.5 248 231.5 229.7 224.9 224.4 223.6 222.7 219.8 219.2 218.9 218.5 218 219.5 221 221.1 221.1 221.5 221.8 221.6 221.4 220.6 220.2 219.9 220.1 219.9 220.9 220.6 220.1 217.9 216.6 216.4 216.8 216.8 216.3 218 216.1 214.2 211.2 209.6 211.1 211.8 210.5 208.3 207.6 207.7 204.8 201 197.6 196.7 195.9 195.8 195.6 195.6 195.7 196.1 208.7 201.1 202.2 203.1 202.4 201.9 203.3 203.4 204.4 204.2 201.2 196.4 193.7 195.4 195.9 194 191.8 192.1 190.7 188.2 185.2 185.5 183.7 184.3 184.8 183.7 182.7 182.5 183.2 180.7 186.3 189.2 188.6 190.7 194 192 191.7 191.7 191.1 193.6 195 196.3 194.5 194.7 197.9 198.6 195.9 194.4 196 200.2 203.3 205.2 206.7 207.7 209.7 210.3 210.1 210.7 211.4 211.9 211.7 211.4 211.7 212.4 213.9 218.7 221.6 223.5 220.9 227.4 228.8 234.2 237 241.1 243.6 245.4 247.1 248.2 249.3 250.6 249.2 248.7 245.8 242.6 240.6 236.7 235.6 238.9 242.8 246.9 252.5 255.8 259.2 262.5 263.6 267 269.7
366 360.4 359.2 356 353.4 349.2 343.3 334.1 316.9 302.9 293.4 282.3 273.2 270.5 268.4 263.5 262.8 260.2 259.3 251 256 262.5 253.1 239.6 236.1 246 256 270.2 280.6 286 291.5 294.3 296.2 296.4 298.5 300.6 300.6 298.9 297.1 295 293 288.8 285 278.9 273.3 268.3 260.3 250.8 240.5 233.2 227.9 225.6 223.5 222.7 221.9 221.5 220.3 220 219.5 219.4 220.9 220.9 220.7 220.7 221.3 221.2 221.5 221.9 222.7 221.3 220.1 219.8 219.7 220.1 219.8 217.7 217.3 217.5 216.2 216.6 216.6 215 216.7 214.9 212.9 211.6 210 209.7 208.4 206.8 205.4 205.9 204.8 202.3 198.9 197 196.1 195.9 195.8 195.7 195.7 195.8 196.2 198.4 200.1 202 204.4 200.1 200.8 204.3 204.6 206.4 203.3 198.1 195.2 195.8 197.2 198.1 195.5 192.9 193 190.8 188.3 186.3 186 183.4 184.7 185.2 184.6 182.9 183.2 183.4 180.9 184.6 189 190.9 193.8 192.4 191.9 193.2 194.8 192.8 192.9 195.5 196.6 194.6 196 200.7 201.1 196.5 195.8 196.5 199.2 202.3 204.1 205.6 206.7 209.3 210 210.3 210.9 211.4 211.9 211.9 211.6 212.3 213.1 215.4 220.3 224.6 224.3 223.7 229 235 238.3 239.3 242.1 245.7 247.7 249.5 251.8 252 251.1 250.6 249.5 247.3 245.1 242.7 239.3 237 237.8 242.9 247.2 253 257.9 261.5 264.5 267.2 269.9 271.2
358.9 355.9 356.2 352.6 348.4 344.3 339.4 329.4 316.1 301.6 291.8 282.5 274.9 271.2 269 266.9 264 258.7 259.9 258.8 266.9 270.7 260.3 246.7 235.9 240.3 248.6 264.3 279.2 283 289.8 292.7 294.6 295.2 295.8 298.1 296.5 294.4 291.9 289.5 287.4 284.6 282.6 269.4 256.7 254.3 251.4 244.2 237.6 229.8 228.6 228.6 226.1 223.6 221.8 221.6 221.3 220.6 220.3 219.7 220.6 220.9 220.6 220.8 220.5 219.7 221.5 224.5 224.2 221.2 219.9 219.6 218.5 218.2 218 217.5 217.4 216.9 216.1 216.9 216 213.6 211.6 209.5 207.5 207.2 207.1 207 206.9 204.1 202.5 202.7 202 199.7 197.1 196.2 196.1 196 195.9 195.9 194.8 195.5 200.3 199.2 199.9 202.2 200.5 200.6 203.3 205.8 206.8 205.9 199.8 196.7 195.7 196.4 197.6 196.1 194.8 195.1 193.1 191.5 189.3 187.2 186.4 184.3 183.9 185.1 185.6 182.9 182.6 184.3 181.4 185 192.1 193.6 195.5 193.9 192.5 194.2 194.6 194.7 192.9 194.8 196.5 195.1 201.5 203.5 202.3 200.6 196.3 196.1 199.8 202.6 203.9 205 206.2 209 209.7 210.4 210.9 211.4 211.9 212 212.9 213.3 214.5 218.4 222 226.7 225.3 228 232.9 237.9 240.6 242.3 244.3 247.3 250 251.9 254.1 253.1 253.4 253.3 252 249.5 246.8 244 242.2 239.9 238.6 243 251.2 256.2 260.4 264.1 266.6 269.2 271.1 272.3
357.7 350.3 348.1 347.6 343.6 339.8 334.8 325.6 314 302.2 292.5 283.7 277.8 272.5 269.2 269.2 265.9 259.3 258.8 259.4 265.6 276.1 265.1 250.1 237.8 236.9 245.4 258.1 277.4 281.9 288.3 291.3 294.1 295.3 296.2 293.9 292.1 291.9 292.2 291 289 288.1 282.8 272.9 260.9 251.4 243.5 237.2 233.3 228.7 228.5 231.9 228.4 225.7 220.7 220 219.2 220 221.2 218.8 218.4 219.8 221.4 222 221.4 221.9 221.2 223.4 223.5 219.9 219.6 219.6 219.1 217.6 217.4 217.4 217.4 214.8 214.2 216.6 214.7 210.6 207 205.7 203.6 202.4 204.2 204.7 202.1 200.8 199.1 198.8 198.5 197.2 197 196.8 196.5 196.4 196.3 196.2 196 196 203.1 199.2 200 201.4 199.3 201.7 206 208.2 208.1 202.3 196.8 195.7 195.7 196.8 197.4 196.2 194.7 193.3 192 190.9 189.8 188.2 185.9 185 187.5 185.2 186.3 183.8 184.7 184.9 181 184.7 192.4 195.3 196.3 196.2 195.4 194.5 194.5 194.7 194.6 194.6 195.5 196.6 204.4 205.5 204 200.3 202.5 197.3 199.4 202.3 204.2 205.5 206.2 206.5 210 211.1 211.7 211.9 212.2 213.2 214.5 214.9 217.9 221.8 225.2 226.2 228 233.6 237.8 240.1 242.3 244.3 246.7 249.9 250 252.7 256.6 256.1 256.7 256.4 254.2 251 248.3 245.1 243.8 243.5 242 247.4 252.9 257.7 262.1 263.6 267.3 271 272.4 274
351.2 347.2 341.4 340 338.4 334.9 328.8 320.3 310.9 302.4 294.9 287 278.6 271.7 270.3 270 266.2 259.8 258.2 259.5 263.2 267.2 267.1 255 236.9 236.5 242.4 256.4 274.1 282.9 287 289.7 292.7 294.5 294.5 292.8 290.3 290.5 290 289.8 288.3 284.4 279.7 271.8 264.9 255.6 244.9 237.1 231.2 228.6 234.7 235.1 228.6 227.5 224.2 220.3 217.8 219.2 220.5 220 217.7 218.9 221.3 222.3 223.2 224.3 221.9 222.9 221.4 218.9 218.2 218.3 218 217.6 217.3 217.3 216.5 213.7 212.2 214.4 211 206 204.6 202.1 200.5 199.5 199.7 198 197.9 197.6 197.3 197 197.2 197.4 197.6 197.4 196.8 196.8 196.7 196 196.3 201.4 199.8 199.5 201.2 200 200.9 201.8 205.2 206.7 201.7 197.2 198.5 196.1 196.9 197.5 197.5 196.9 194.2 192.6 191.6 190.6 189.5 188.2 186.6 186.2 187 187.8 185.3 184.8 184.5 185 181.2 185.8 193.8 196.2 196.6 196.4 195.9 194.8 194.9 195 194.9 194.8 196 200.7 206.4 206.6 205.4 202.8 205.5 204 199.6 202.9 207 206.4 206.9 207.6 207.6 211.4 212.5 212.8 213.8 214.6 215.7 216.6 219.8 223.8 227.3 227.3 231.7 237.6 239.6 241.8 244.1 246.3 248.2 249.8 250 253.4 256.3 258.6 258.9 258.6 255.7 252.5 249.3 245.9 244.6 242.6 245.9 248.7 253.8 258.8 259.8 263.4 267.4 269.6 274.1 275.9
347.2 342.3 337.8 335.4 332.3 328.6 322.3 314.3 306.3 300.6 290.6 283 277 271.1 269.4 269.8 265.2 262 259.4 259 262.4 263.8 268.6 257.8 238.6 234.7 241.8 257.9 276.3 282.7 286.3 289.2 290.2 294.2 294.8 290.2 287.7 286.6 286.1 285.2 284.7 280.6 276.8 271.3 264.5 255.2 245.6 238.8 231.4 228.8 242.5 236.6 230.4 226.8 224.9 222.5 219.3 219.7 219.9 219.8 217.6 219.1 220.7 222.2 221.1 221.3 221.9 220.8 219.1 217.5 218.3 218.6 217 216.7 217 217.4 216.5 213.9 211.5 210.5 207.9 203.6 202.3 198.9 199.6 197.9 197.2 196.8 196.9 196.8 196.7 196.8 197.1 197.3 197.6 197.9 197.8 196.7 196.2 196.8 197.3 200.2 199.4 200 200.7 198.9 203.1 205 206.8 203.4 196.8 198.8 196.9 196.1 196 197 197.5 196.5 193.9 192.6 191.6 190.6 189.6 188.7 187.1 187.4 188 187.7 187.4 184.6 184 184.2 181.4 185.6 196.2 196.3 196.7 196.5 196 195.1 195.2 195.4 195.4 195.6 199 206.5 207.8 205.9 204.9 204.8 205.9 207.2 203.6 203.8 208.3 207.4 208.2 208.7 208.3 211.3 213.9 215.1 215.5 216.4 217.7 221.6 223.6 224.3 226.9 231 235.9 239.9 242.8 244.8 246.6 248 247 249.3 251.6 255.3 257.8 259.5 260.2 259.5 256.5 252.9 249.4 246.2 243.9 242.1 245 251.4 256.4 258.4 260.3 264.1 267.3 270.5 273.7 276.8
344.9 340.2 334.6 331.7 326.4 321.3 315 309.1 303.2 296.6 286.9 279.7 275.1 270.5 267.8 266 264.6 260.9 262.9 259.7 262.3 263.8 271.2 256.9 237.6 234.6 242.2 259.6 277.7 283.7 286.3 291.1 291.7 291.8 291.4 289.7 286.8 286.5 287 285.3 282.8 279.2 276 271.3 263.8 254.5 247.3 237.7 229.1 233.6 244.3 236.9 230.6 227.1 225.2 222.2 220.7 219.2 219.6 219.3 217.3 218.8 220.5 220.8 219.3 220 220.5 220.6 218.8 217.6 217.4 218 216.9 216.3 215.7 216.7 212.2 208.6 209.1 209.1 211.1 205.3 202.9 200.4 198.2 197.2 196.7 196.9 196.9 197.3 196.8 196.8 196.9 197.2 197.5 197.8 198.4 200 200.4 200.2 202.6 200.2 203.1 203 198.9 200.7 204.1 205.5 205.8 198.2 198.9 196.8 196.8 195.9 195.8 195.1 195.7 194.8 193.2 192.5 191.6 190.6 189.7 188.8 187.9 188.2 187.8 187.3 187.1 186.6 185.1 184.2 181.7 187.7 196.6 196.7 196.4 196.5 196.1 195.6 195.6 195.8 196 202.1 207.7 210.8 209.6 207.7 205.2 205.1 205.5 206.6 207 204.5 207.2 206.9 208.5 209.5 209.1 211.8 215.7 215.8 215.9 219.4 221.1 223.8 226 226.3 231.3 237.8 239.1 242.4 245.7 247.6 249.1 250.6 250.5 250.5 253.1 255.9 259.3 261.1 261.6 260.3 257.1 252.8 248.9 246.7 245.1 244.2 248.3 253.3 257.7 260.2 261.8 264.4 267.3 270.3 273.9 278.3
340.7 336 331 326.5 323 317 310 304.2 297.5 289.8 283.7 274.9 270.5 268.3 266.7 263.9 264.7 265 267 266 263.7 268.8 265.8 251.4 235.7 233.9 248.1 266.3 279.7 282.5 286.2 290.1 291.8 292.1 291.3 289 286.2 284.8 283.6 283.3 281.5 278.8 276 269.8 261.7 247.2 238.1 234.9 228.8 235.2 244.5 235.9 232.8 226.9 224.6 221.4 220 218.7 219.2 218.2 216.8 217.9 219.3 219.8 219.7 219.6 220.7 219.4 218.2 217.2 217.2 216.8 216.7 216.3 214.6 212.4 210.5 209.1 208.6 206.2 205.6 204.6 205.2 202.5 201.1 199.1 197.6 197 197.5 197.9 196.9 196.9 196.9 197.3 198.4 199.4 200.5 201.3 203.9 203 200.7 198.6 200.8 204.6 203.8 204.9 211.2 205.8 198.1 198.6 196.7 195.4 195.3 195.2 195 193.9 193.3 193.4 193.4 193.4 191.6 190.7 189.8 188.9 188.4 187.9 187.4 186.9 186.8 187.1 186.1 182.1 181.8 187.6 195.6 196.5 196.7 196.6 196.3 197.8 197.7 199.7 209.1 212.8 213.3 212.3 211.2 209.1 206.3 206.5 206.6 206.3 209.1 207.2 206.8 207.9 209.1 209.9 210.3 213 216.2 217.1 217.3 219.6 222.2 227.3 228.7 231.9 237.7 240.3 242.2 245.7 248.3 249.9 251.5 253.2 253.9 252.2 254.7 257.8 260.8 262.7 263 260.6 257.3 253.2 250.6 248.7 245.9 243.4 246.3 250.4 252.7 256.3 259.4 263.4 267.1 270.7 275.6 279.8
338.2 331.4 325.9 323 316.6 310.2 305.3 301.5 295.1 287.6 280.8 273.7 270.1 267.5 267.1 269.2 267.6 267.9 269.1 268.8 264.7 262.3 255.6 240.9 233 239.2 255.2 271 278.6 284 287.1 289.6 291.1 291.9 291.2 288.7 285.4 281.8 279.7 280.3 279.5 275.5 272.4 267.7 260.7 247.3 236.5 233.9 229.2 237.8 242.8 237.6 226.6 223.5 220 217.8 218.4 217.8 216.7 215.8 217.5 217.4 217.9 219.8 220.4 220.6 219.6 218.3 216.7 216.3 216 215.1 213.9 213 212.3 209.8 208.5 208 207 205.3 202.7 199.6 199.6 201.9 202.1 201 201 198.3 198.5 198 197.1 197.2 197.5 197.3 197.1 199.2 200.8 202.7 200.7 203.6 200.3 199.6 200.8 204.8 205.7 206.8 201.2 198.7 196.9 196.8 195.4 195.1 194.7 194.5 194.4 194.5 194.9 193.8 194.7 194.4 191.7 190.4 189.7 189.3 188.5 187.7 187.1 186.5 186.6 186.7 185.7 181.9 181.9 187.8 196.2 196 196.3 197.3 199.4 199.9 210.7 216.2 216.1 214.7 214.2 213 211.9 210.2 208.1 208 208 207.7 209 208.7 208.7 207.5 209.8 209.8 211.2 216.2 217.4 218.1 218.8 222.7 226.3 229.2 231.6 237.1 241.9 244.3 245.9 250.5 251.3 252.8 254.3 255.8 256.8 255.2 256.6 259.3 261.2 263.5 263.8 261.2 257.8 256.1 255.5 251 247.2 244.8 246 251.3 256.3 259.7 261.2 266.2 270.1 273.6 275.6 280.6
335.9 329.7 323.1 319.1 311.3 304.1 300.5 298.3 292.1 285.9 282.1 275.7 269.6 267.7 268.8 271.4 269.3 269.9 271 273 268.2 258 248 237.2 232.4 244.9 261.7 272.1 278.9 283.9 287.1 288.5 290 290.9 291.4 288.3 284.4 280.4 277.4 275 274.8 272.6 270.3 268.2 260.5 258 247.5 234 230.8 239.5 241.6 234.7 224.6 222 219.2 218.2 217.6 215.7 216.6 216.4 216.5 218.9 219 220 219.8 220.1 218.6 216.3 216.4 215.7 213 213.1 211.7 210.6 206.9 204.3 205.2 204.3 202.5 201.6 200.5 198.9 198.1 197.7 198.6 198 198.4 197.8 200.9 198.7 197.8 198.1 197.9 197.7 197.5 197.2 197.8 199.2 199.9 200.5 200.2 200.6 205.8 207.8 201.6 200.6 199.6 196.5 196.2 195.5 195.2 195 194.7 194.3 193.9 193.6 193.6 193.6 193.7 193.5 192 190.3 190.1 189.7 189 188 186.7 185.6 184.1 184 184.1 182 181.9 191.3 196.6 197.3 198.3 202.5 207 213.7 218.9 218.9 217.7 216.1 215 213.7 211.7 210 209.3 208.7 208.2 207.9 209.2 207.8 211.1 211.2 207.7 207.4 212.9 217.3 218.5 218.9 220.4 223.9 228.7 230.8 235.8 240.9 245.7 248.6 249.1 253.8 254.5 256 257.1 258.2 259.2 260 261.7 261.8 262.4 264.1 264.6 262 259 257.7 257.2 251.8 248.2 245.6 247.3 253.6 257.8 260.9 264.5 268.7 272.8 275.3 279.3 282.2
332.8 326.8 319.9 315.3 307.5 303.8 300.9 296.6 292.9 287.8 282.7 280.1 277.1 272.5 272.2 273.5 271.6 271.7 274 277.4 276 261.9 246.5 236.3 232.6 245.2 258.5 269.8 278.2 281 284.2 287 288.1 288.6 288.6 287.3 283.4 279.4 275.7 273.4 271.5 270.5 269.1 267.4 262.4 251.5 241.8 233.7 232.7 239.8 239.7 233.1 225.8 221.1 219.2 218.3 216.4 214.5 216.8 215.4 217.1 218.4 216.9 217.7 219.1 217.4 216.2 216.9 215.6 216.4 212.4 208.2 207.2 204.8 205.5 204.1 202.3 202.6 204.4 201.2 199.1 198.8 198.3 198 198.2 198.5 197.8 199.2 203.1 204.8 203.3 200 198.4 197.9 197.7 197.8 198 199.1 199.7 200.3 202.9 209.8 211.2 202.8 202.1 201 199.4 196.4 195.7 195.3 195.1 194.8 194.6 194.2 193.9 193.5 193.2 193.3 193.4 193.1 192.3 190.5 189.2 188.1 186.6 185.5 185.1 185.5 184.6 183.8 184.9 181.9 182 194.8 199.2 200.9 204.9 207.7 210.9 216.6 219.7 220 219.3 217.6 216.3 213.5 211.4 209.8 209.9 209.5 208.9 208.4 208.2 208.7 209.4 211.4 211 209.8 212.6 218.4 219.9 220.9 222.7 227.5 232 234.6 236.9 244 248.9 252.7 252.4 257.6 257.6 258.6 259.7 260.8 261.8 262.8 264.6 262.3 264.2 266 265.9 264 261.2 258.7 258.3 252.3 248.2 246.3 250.5 255.2 259 262.7 267 271.4 274.8 277.1 281.3 285.5
326.8 322.2 316.2 307.4 304.7 305 302.3 297.7 292.8 286.8 287 285.4 282.8 278.7 276.8 276.3 275.2 274.3 275.4 277.5 279.5 264.8 249.2 236.5 231.8 237.6 247.7 260.1 272.8 279.5 283.4 285.1 286.1 286.5 287 284.9 282.1 279.7 274.1 270.7 269.2 268.2 267.4 265.4 260.7 249.9 240.3 232.7 232.4 237.6 237.4 231.2 224.8 219.4 217.7 216.1 213.8 214 214.3 214.4 214.9 216.6 216 217.6 217.9 215.2 216.2 214.5 213.9 209.2 204.9 204 203.9 203.9 205.9 202.4 200.8 201.4 201.6 201.3 198.9 198.8 198.5 198.3 198.6 198.6 202.6 208 206.4 205.4 206.4 203.1 198.2 198.3 198.4 198.5 198.7 199.2 199.9 203.2 210.6 212.9 202.5 202.2 202.1 201.1 198.4 196.4 195.8 195.2 194.9 194.7 194.5 194.1 193.8 193.4 192.9 193 193.1 192.7 191.9 190.8 189.4 187.5 187.5 185.8 185 185.4 184.9 184.2 184.8 182.9 182 198.7 202 205.6 208.6 212.1 212.6 217 220 219.9 219.7 219.3 218.3 216.8 214.3 210.8 210.5 210.3 209.7 209.4 208.7 209 210 212 215.1 215.2 212.7 216.7 221.2 222.4 225.4 230.6 234.4 236.7 241 244.6 251.6 255.6 258.4 260.1 260.4 261.3 262.3 263.4 264.3 265.2 266.5 264.2 265.9 267.7 267.4 266 264.3 262.4 261.1 254.8 248.5 248 252.9 256.5 261.1 265.5 270.1 274.5 277.3 280.2 283.4 286.7
324.2 316.7 309.3 307.5 306.1 305.6 304.4 299.8 296.7 295.6 290.9 289.2 287.5 283.9 281 281.5 279.8 277.2 276.9 278.6 282.2 271.8 254.2 239.2 231.7 234 237.9 249 264.2 277.3 281.7 282.8 284.3 285.1 285 283.6 280.3 276.7 272.3 268.2 266.8 265.7 265.8 266.3 259.1 248.7 239.7 231.6 233 238.3 236.2 229.3 223.5 218.7 216.8 214.4 213.3 212.2 212.9 213.3 215.7 217.6 216.2 218 218.1 217.5 217.6 216.7 214.5 208.3 203.8 206.2 202.8 203.7 202.9 200.9 200.5 200.6 200.4 199.3 198.7 198.6 198.5 198.6 198.9 199.1 205.6 212.4 209.8 208.2 208.2 201.3 199 199 199.1 199.2 199.9 200.3 203.5 212.8 208.8 204.6 201.9 203.5 202.6 200.9 198.2 196.9 195.9 195.2 194.8 194.5 194.3 194 193.7 193.3 192.9 192.7 192.8 192.3 191.5 190.8 187.7 187.6 187.4 187.3 188 185.4 184.9 184.1 184.5 182.1 185 201 206.4 209.5 214.7 214.7 214.1 217.2 219.4 220.1 220.3 220.7 220.3 219.8 216.1 212.8 211.8 211.1 210.7 210.3 209.6 209.4 210.5 212.8 215 216 218 214.8 221.5 225 228 233 237.1 239.8 243 247.5 254.8 258.6 261.5 262.3 263.2 264.1 265 266 266.9 267.9 268.9 266.8 267.9 269.4 269 268.1 264.9 262.2 259.9 250.8 252 253.1 256.8 259.6 263.3 267.8 272.8 277.6 280.5 283.3 286.4 289.8
318.2 313.1 313.7 310.3 307.6 305.8 303 301.5 301.6 296.7 296.2 295.2 293.1 291.6 289.8 286.5 284.4 282.1 281.1 281.3 285.1 278.1 261.6 244.5 234.6 230.8 232.6 236.8 249.8 270 279.2 283.4 286.9 284.1 282.3 278.2 275.2 272 268.8 267.5 266.1 263.6 265.1 267.4 263.2 247.7 237.5 231.4 236.1 242.5 236.9 229.3 222.2 219 217.3 213.7 210.4 214.2 213.3 212.9 214.8 215.9 217.5 218.9 218.8 218.9 217.9 216.3 215.3 211.4 205.7 205.3 204.9 202.9 201 200.9 200.8 200.7 200.7 199.2 199.2 199.2 198.9 199.2 199.5 199.8 208.7 212.8 212.6 209.8 208.5 200.8 199.5 200.4 199.8 200.5 201.3 201.9 212.1 211.6 205.7 201.9 201.7 202.7 199.2 199.6 198.7 197.5 196.2 195.3 194.7 194.4 194.2 194 193.6 193.3 192.9 193.4 192.8 192.7 192.5 191.1 188.1 187.8 186.9 188.8 188.9 189 188.9 187.8 186.5 182.9 190.2 203.5 208.9 212 215.3 216.2 216.6 218.5 220.6 220.4 220.6 221.2 221.5 219.7 215.5 214.2 212.8 211.7 210.9 210.2 210.1 210.2 211.3 214.1 215.3 217.5 219.4 217.3 223.3 226.4 230.8 235.8 240.6 244.2 245.9 250.1 257.7 258.6 261 265.3 266.4 267.4 268.3 268.7 269.8 270.8 271.8 270.2 270.7 271.4 271.4 269.9 266.2 264.1 259.8 255.3 261.5 256.4 259.2 264 266.8 271.2 275.9 280.6 284.2 287.1 290.6 294.7
318.2 318.8 316 312.7 309.6 306 302.5 304.6 304.7 303.8 303.5 303.2 300.9 298.7 295.9 292.5 289.9 287.9 286 288 289.1 287.2 272.9 254.8 238.2 232.2 230.8 231.9 236.3 254.5 274.1 281 282.8 282.1 279.1 276.9 275.3 273.8 269.6 266.3 264.5 262.7 262.2 263.4 259 248 232.9 232.8 234.2 242.4 233.7 228.4 222.6 219.5 215.8 212.9 209.8 210.4 211.7 213.2 213.8 216.1 216.2 218.9 219.2 219.1 219.2 215.8 214.2 212.4 208 207.6 203.9 202.3 201 201.8 203.3 204 203.3 201.6 202.3 202.5 199.7 199.9 200.2 200.6 210.4 213.5 213.5 212.8 206.5 201.1 200.7 206 207.4 205.2 209.4 208.9 206.3 207.9 204.6 203.3 202.1 201.1 199.8 200.1 199.5 198.3 197.1 197.1 194.7 195 194.8 194.5 194.1 193.7 195.8 196.5 195.3 195.6 193.9 191.4 190.1 190.3 189.8 189.1 188.9 189 189.1 188 186.1 182 194.4 206.6 209.4 215 218 218.4 223.1 223.7 223.2 222.5 221.8 222.3 221.9 219.4 216.4 214.6 213.4 212.4 211.6 211.2 211 211.1 212.3 215.1 216.2 218.6 220.1 214.2 226 229.4 233.6 238.4 243 244.7 245.5 252.5 255.7 259.8 263.3 265.9 269.2 270.8 271.3 271.7 272.4 273.5 273.2 273 273.9 275 274 271.2 267.5 265 257.5 259.3 269.7 260.3 262.7 267.2 271 273.7 278.5 283.3 287.6 290.7 294 297.3
321.5 319.1 316.3 314 310 308.5 310.3 311.6 311 310.4 310.8 309.8 306.9 304.5 302.3 298.8 294.8 291.9 292.2 293.4 292.8 290.4 280.4 265.6 245.7 233.4 230.3 229.2 231.3 240.2 260.6 277.4 279.5 279.3 278.6 276.7 273.7 270.7 267.4 264.7 263.4 263.5 263.5 261.1 256 243.6 244.3 248.9 244.2 240.5 230.3 225.4 220.6 218.2 214.3 211.3 208.1 208.9 210.9 212.7 213.2 215.8 215.6 218.1 219.4 220.5 219.2 216.7 214.2 210.9 208.9 206.3 203.9 202.6 201.3 203.4 205 204.7 202.7 206.9 206.5 207.1 201.7 200.8 201.1 201.3 208.8 214.4 214.2 213.3 209 205.6 202.4 208.2 204.7 203.5 207 202.2 201.9 200.7 201.5 202.1 201.1 201.7 200.7 201 200.2 199.1 198.3 197.4 196.7 195.9 196.2 195.7 195.4 196.1 195.2 195.9 196.9 196.6 194.4 191.5 190.5 190.6 190.3 189.5 189.2 189.1 189.1 188.1 186 182 196.7 210.2 211.9 219.5 219.9 224.3 228.1 228.5 227.4 224.8 223.4 223 220.2 218.7 217.4 215.7 214.1 213.1 213.1 212.3 212 213.4 213.3 216 217.3 220.1 221.6 220.6 226.9 228 233.8 240 244.4 245.8 247.5 251.8 255.6 262.4 265 268.2 271.2 272.7 274.5 274.9 275.4 276.6 276.1 275.8 276.9 278 275 271.1 266.7 255.7 260.6 263.3 270.4 263 265.9 269.5 275.2 276.2 280.8 285.5 289.8 293 296.5 299.9
322.4 319.2 316.9 314.8 313.4 314.7 316 317.6 316.6 315.1 315.1 316.1 313.2 311.1 308 304 299 295.7 296.8 297 295.2 291.4 284.4 272 255.7 237 231.5 229.2 229.9 230.6 248.3 269.6 274.8 277.8 277.6 273.5 270.5 267.4 264.8 263.5 263.1 264.4 267.5 267.2 266 263.5 260.5 255 247.5 238.2 230.3 222.8 220.1 217.6 214.9 208.7 207.8 207.7 208.4 212.6 214.5 215.1 216.7 218.8 219.9 220.3 219.5 216 212.7 209.6 209.5 207.9 205.9 204.4 202.3 204.5 204.3 203.7 206.1 207.2 210 212.5 206 201.6 201.7 201.7 205.9 214.8 215.3 208.9 206.5 205.4 205.7 206 210.7 209.8 204.2 201.8 200.4 197.7 199.4 199.9 200.7 201.5 201.5 201.6 200.7 199.7 198.2 197.8 198.5 197 197.8 196.6 197.2 197.5 197.1 196.2 195.6 196.3 194.1 191.7 190.7 190.7 190.6 190 189.6 189.2 189.2 188.2 185.9 182.1 198.3 211.7 215.5 220.5 222.9 229.6 231.3 231.2 229 225.7 221.7 221.7 221.2 220.1 218.7 217.5 216.2 215.3 214.7 213.4 214.1 215.2 215 217.5 219.4 219.9 218.3 226.6 230.1 229.7 233.2 240.2 246.9 248.9 250.1 254 257.4 263.9 267.2 270.7 274.1 276.7 278.1 278.8 279.4 280.3 278.6 278 278.7 279 275.7 271.3 266.7 256.6 262.4 263.3 269.6 266.5 269.1 273.8 276.3 280 284.5 289.2 293.7 299.4 304.5 308.8
323.5 320.1 317.5 317.1 319.2 321.2 321.8 323 322 320.5 321.4 320.1 318.2 316.1 312.1 306.6 302.5 300.8 300.6 299.6 297.1 292.6 283.9 273.4 260.3 246.9 236.1 230.5 229.6 228.4 237 259.9 269.6 274.5 275.7 271.6 267.4 265.2 263.6 263.9 264.3 267 269.6 270.1 269.8 266.4 261.5 254.3 246.7 234.1 228.7 223.6 220.9 217.5 213.2 211.2 208.5 207.3 207.4 210.2 215.3 219 219.4 219.2 219.7 220.4 217.7 213.8 211 208.8 208.6 207.6 205.5 203.2 201.8 201.9 202 201.6 209.6 202.8 208.3 211.7 208.8 202.9 201.8 203 206.2 210.7 208.2 206 211.3 205.5 205.6 206.2 205.5 202.8 202.5 202.1 198.7 197.1 197.6 198.2 201 200.5 200.5 201.2 201.1 200 197.9 198.3 198.6 197.9 198.5 197.7 198.1 198.3 198.1 197.5 196.8 196.1 195.4 193.1 191.3 190.9 190.7 190.5 189.9 189.6 189.3 188.1 186.4 182.4 196.8 210.6 218.1 223.6 228.2 232 232.9 231.5 228.3 223.4 222.3 222.6 222.4 221.1 219.3 218 216.8 215.9 216.1 215.9 215.5 216.3 217 218.8 220.7 218.5 221.1 231.6 230.9 233.3 238.7 242.1 249.1 252.8 253.7 258.5 260.2 265.5 269.7 273.9 277.5 279.5 281 282.7 283.3 283.3 281.5 280.5 279.7 278.9 275.4 271.5 268 259.1 264 265.7 267.8 269.6 272.2 275.5 279.2 283.7 287.7 292.3 301.5 306.7 311.9 315.5
324.3 321.1 320.8 322 324.9 326.6 327.3 327.5 326.8 325.7 323.9 323.1 322.5 320 314.4 308.9 305.7 305 304.3 302.6 298.8 292.2 283 271.8 262.4 258.5 248.9 241 236 231.1 232.1 252.9 264.6 267.8 269.8 268.9 265.6 263.5 263.8 264 264.7 268.8 270.2 270.8 269 266.2 259.4 252.8 245.2 230.3 227 223.5 221.4 218.7 213.2 211.5 206.7 206.6 207.5 209.6 214.1 219.1 219.4 220.9 220 219.5 216.5 213.4 210.2 208.2 207.4 206.9 205.1 203.9 200.9 201.1 202.8 203.3 211.1 205 203.3 209.1 206.1 201.8 202.6 205.5 209.8 209.1 207.3 205.5 201.6 204.8 202.7 203.3 206.5 201.8 199.3 198.1 197.1 196.9 197.3 197.9 200.4 201 200.6 201.5 201.4 198.9 197.9 198.5 197.7 198.1 197.7 198.6 199.6 199.2 198.5 198.1 197.6 196.9 195.8 193.1 191.9 191.4 191 190.6 190.3 190 189.4 188.3 186.1 182.6 204.2 213.3 220.8 227.7 231.7 233.6 233.2 229.3 227.2 225.1 222.8 222.1 221.9 220.7 219.6 218.6 217.5 216.6 216.7 216.1 217.1 217.3 217.9 222.2 220.8 221 228.2 227.9 230.4 236.4 241.4 242.8 248.8 253.4 254.4 258.9 261.5 267.1 270.9 274.4 278.7 282.2 283.7 285.1 285.8 283.9 283.1 283.3 282.5 280.8 278 275.7 271.8 262.9 267.7 269.1 270.7 273.8 275.4 278.4 283 287.4 291.9 297.1 305.5 311.1 317.2 323.9
327 324.7 326.2 327.3 330.3 331.6 332.3 331.6 331 328.7 327 326.6 324.8 321.2 316.1 312.3 309.6 309 307.4 305 300.2 292.7 281.8 270.9 261.6 257 257.5 253.2 242.1 232.7 229.6 248.4 262 264.8 265.3 264.7 263.5 263.6 263.8 264 264.7 269.7 270.6 271.4 268.1 263.3 257.2 250.8 243.2 233 225.6 223.2 221.3 217.6 216.4 210.8 206.3 206.7 206.9 208.6 215.1 219.6 220 220.8 219.6 219.7 217.5 214.3 210 207.9 207.3 207.1 207.3 204.3 200.4 199.9 201.2 207 205.9 203.7 202.6 204 204.3 203.2 208.5 211.3 214.3 207.3 203.6 201.3 203.1 202 206.3 201.6 199.1 197.9 197.4 197.2 197 196.7 196.7 197.4 200.5 202.4 200.4 201.8 200.3 197.8 197.8 200 198.1 198.3 198.7 199.7 200 199.5 198.5 198.1 197.7 197.3 195.7 193.5 192.2 191.8 191.4 190.9 190.4 189.9 189 187.9 183.3 183.9 207.6 217.1 224.3 230.4 233.5 233.7 232.4 229.9 228.8 225.4 223.7 222.8 222 221 219.8 219.6 218.5 217.6 217.8 218 217.8 218.4 219.5 223.9 223.8 222.2 229.3 229.3 231 238.9 243.5 242.9 249.2 253.6 255.4 261.4 264.1 269.5 274.5 278.2 284.6 287.1 288.9 288.3 291.6 288.7 288.1 287.3 285.4 284.6 280.8 276.9 273.1 266.4 269.5 275 278.4 279.6 279.7 282 286.6 290.4 293.6 299.4 309.1 315.8 324.5 331.9
329.2 328.9 329.8 332.8 334.5 336.1 336.5 335.9 334.4 331.8 330.6 330.2 327.7 322.6 318.2 316.6 314.7 312.7 310.5 306.7 301 294.1 281.8 269.9 261.2 253.9 247.9 244 237.6 232.2 226.5 247.3 261.7 262.7 263.2 263 262.9 263.3 263.7 263.8 266.2 270.3 271.4 272.3 267.9 261.7 255.4 249.2 241.1 231.6 224.4 223.7 221.4 218.2 213.2 209.1 207.2 206.6 206.2 208.5 212.5 219.2 219.2 220.2 219.3 219.5 216.1 212.4 210.3 208.4 206.9 206.1 206 201.9 200.2 199.6 199.9 200.6 203.8 206.7 203.2 204 206.3 206.9 212.9 213.9 214.8 212.5 200.8 207 206.9 204.1 203.6 198.8 197.9 197.6 197.4 197.2 196.8 196.6 196.4 196.7 198.8 200.2 200 201.6 199.9 198.7 198.5 198.5 198.5 198.8 200.1 200.6 200.3 199.5 198.5 198.1 197.7 197.2 195.8 193.9 192.2 191.7 191.3 190.9 190.2 189.8 188.4 187 183.8 196.4 212.6 220 228.8 231.2 233.9 234.5 231.8 231.1 229 226.1 224.5 223.5 222.7 222.1 221.1 220.5 219.4 218.7 218.9 219.1 219.1 219.4 221.5 223.4 222.1 224.4 229.6 231.1 233.2 239.7 245.2 245.6 251.2 255.5 258.2 263.5 266.6 271.9 277.2 282 289.5 292.7 295.2 296.9 297.1 293.7 291.5 290.2 290.6 286.6 281.9 277.7 274.1 268 274.7 278.5 283.9 285.8 287.5 286.7 289.3 292.2 295.4 301.1 310.7 320.3 329.8 339
331.2 333.7 334.5 337.9 339.8 341 340.7 340.1 338.2 336.4 335.9 334 331.1 323.6 320.1 318.8 317.8 315.6 312.9 309.2 304.8 297.2 282.8 268.7 260.5 251.9 242.1 236.3 236.4 230.4 229.1 247 259.7 262.4 262.9 262.3 262.4 262.9 263.3 263.7 266.6 270.8 272.8 273.4 266.2 260 253.9 247.3 238.7 230.1 225.3 224.5 222.2 216.5 213.5 210.1 205.5 206.8 206.9 206.3 212.4 215.3 217.2 219.2 218.6 217.5 213.6 212.6 211.2 209.3 207.2 205.6 203.5 201.8 200.1 199.5 199.6 199.7 200.8 204.2 204.7 208.1 211.4 211.6 214 216.1 214.4 208.2 209.2 209.5 204.2 201.7 199.6 198.2 198.2 197.8 197.4 197.2 196.9 196.4 195.9 196.7 196.2 198 199.6 197.3 198.7 197.5 196.4 193 192.2 192 194.4 200.6 200.4 199.1 198.5 198.1 197.6 196.8 195.5 194.1 192.6 191.7 191.3 190.7 190 188.8 187 184 183.9 207.5 216.3 223.6 231.6 233.5 235.4 236.7 233.5 230.6 231.7 228.1 225.5 224.5 223.4 222.6 222.3 221.4 220.9 220.2 220.1 220.4 220.6 220.8 222.8 225.2 225.9 224.1 231.9 232.3 235 238.6 244.9 251.6 254.7 256.8 259.9 263.4 269.1 274.4 280.1 288.4 294.9 298.8 301.2 303.2 302.8 298.9 295.1 295.3 291.8 287.3 282.5 278.6 275.2 273.4 278.9 282.4 287.8 291.7 293.6 294.4 293.1 294.7 297.6 305.4 313.6 323.9 335 346.3
335.5 337.8 340.5 342.8 344.5 345 344 343.1 341.6 341.3 340.4 338.2 334.2 328.8 322.2 319.6 319.5 319 317.5 313.8 309.4 300.2 285.7 269.3 257.6 249 238.4 235.8 235 228.8 229.8 247.6 258.3 262.5 262.8 261.6 262 262.3 262.5 263.2 267.1 270.6 272.1 271.8 265.7 258.3 252.7 245.2 236.3 228.6 223.9 222.3 217.7 215.4 214.4 212.2 207.2 204.1 203.6 207.1 209.8 213.1 215.5 216.8 215.8 214.9 213.4 211.5 210 209.2 207.3 204.1 203.1 201.9 200.3 199.3 199.4 199.6 200 199.7 201.9 207.8 210.1 212.5 215.1 215 213.3 213.1 207 205.7 203.6 201.3 201.1 200.8 200.1 198.6 198.1 197.9 197.4 196.5 195.4 196.3 195.2 197.3 197.7 195.1 186.7 186.5 186.2 186.1 186 186.1 184.7 184.1 184.5 187 195.7 197.7 196.6 195.7 194.1 192.7 192.6 191.7 191.1 190.1 188.7 187.6 184.1 184.2 198.1 215 219.8 227.3 234.3 236.3 237.5 236.9 234.3 233.2 233.3 231.7 229.4 225.4 224.5 223.4 222.1 222.1 222.7 222.1 221.1 221.4 220.7 222.3 223.5 226.3 226.5 225.6 224.5 235.1 235.1 239.4 246.2 252.2 255.2 257.6 261.4 265.6 271.5 277.6 284.1 293.3 300.2 305.2 307.2 309.5 307.9 303.4 299.4 297.9 291.2 287.8 283.8 280.1 276.7 272.9 280.9 286.8 292.7 298.2 299.4 300.3 299.8 297.5 300.7 308.7 317.1 327.9 339 351.6
339.3 341.8 344.4 346.5 348.5 347.7 346.7 345.8 344.7 345.4 345.1 342.4 336.8 331.7 325.3 322 320.9 323.5 325.1 319.7 312.6 300.3 287.3 272.1 258 247.7 237.1 235.6 232.6 228.1 230 248 257.3 261.1 260.7 260.4 260.8 261.2 262 263.5 267.8 270.5 270.5 269.7 264.2 257.4 250.6 243.1 233.5 227.1 223.3 220.2 217.9 215.3 214.2 212.1 206.1 202.8 202.5 204 205.3 211.2 214 214.8 214.1 213.1 211.3 209.5 208.7 207.8 205.7 202.8 202 200.7 199.5 199.3 199.5 200.2 200.6 200 202.4 205.5 208.6 212.5 216.8 215.9 215.3 210.6 204.7 202 201.7 203 203.7 206.8 205.2 199.9 199.6 199.4 198.4 196.7 195.3 195.1 193.2 193.6 189.1 191.1 187 188.4 188.7 189 188.6 188.7 186.9 185.7 184.5 182.6 183.5 185.5 186.3 194.6 192.6 191.4 191.6 190.9 190 188.3 187 185.6 184.1 191.6 211.1 218.9 225.3 230.9 236.1 238.7 239.1 238.4 234.2 233.8 233.7 232.4 231.4 230.3 228.1 224.5 223.1 223.2 223.4 224 222.7 222.4 222.6 222.8 224.1 226.3 226.6 226.6 226.8 235.7 234.5 239.5 245.5 254.1 256.1 258.6 261.9 268.3 273.8 279.9 290.3 298 305.2 308.7 312.5 315.7 314.9 307 302.2 297.1 290.6 285.7 284.7 281.2 279.2 279.5 284.8 291.8 297.8 302.5 304.7 304.4 303.3 304.8 307.6 312.1 320.4 331.3 343.3 355.4
344.2 346.3 348.7 350.8 351.2 351.8 350.4 350 348.3 349.4 349.5 346.6 342.3 335.3 328.5 325.8 327.7 333.4 332.9 324.1 313.7 300.7 286.1 272.4 259.2 249.4 239.2 234.2 230.3 226.9 232.3 248.4 256.6 258.6 258.8 259.2 260 260.8 261.7 263.8 268 270.6 270.1 268.8 264.7 257.1 249 240.6 230.5 226 223.6 219.6 215.8 214.1 212.7 209.1 204.6 203 202.5 202.5 202.5 206.9 212.3 212.3 211.3 210.8 209.3 208.4 207.1 205 203.2 201.1 200.8 200 200 199.7 199.9 200.9 201.1 202.5 207.6 212.4 212.4 216 216.5 215.6 213.2 208 202.4 202.1 206.6 206.2 206.4 204.1 201.9 202.5 202.9 201.3 199.2 197.4 195.6 193.6 190.5 189 187.1 188.3 190.4 190.3 190.7 190.3 190.1 190 189.7 188.4 188 187.1 184.7 186.7 185.4 184.8 184.8 187.2 188.5 186 185.8 184.4 185.3 184.3 190.6 206.8 219.1 224.1 229.8 236 238.7 241 240.6 239.7 237.3 234 232.9 233.1 232.7 231.6 230.5 229.2 224.6 224.1 224.9 225.6 224.3 223 222.7 223.7 224.9 225.5 229.3 231.5 227.8 230.3 239.3 238.1 243.6 252.7 256.6 259.9 263.3 268.7 275.5 282.6 293.6 302.1 310.2 313.7 323.3 322.4 316.3 310 304.8 298.7 292.8 287.4 284.2 284.7 284 283.3 288.6 294.8 300.7 305.4 308.7 310.4 309.1 308.8 311.3 315.5 323.6 334.9 346.2 357.1
348.4 350.6 355.4 358.9 358.4 360.4 356.8 356.4 353.7 353.5 353.4 351.9 348 339.4 332.9 331.3 334.1 335.2 332.3 326.3 311 296.3 281.7 270.5 260.5 251.1 241.4 233 228.8 225.1 232.5 247.2 252.9 256.2 257.6 257.9 259.4 260.8 261.9 264.4 268 270.9 272.4 272.3 263.3 254.4 244.7 234.9 227.7 226.1 223.2 218.6 212.3 211.1 209.6 206.5 204.4 203.5 202.5 202.5 202.5 202.5 209.5 210.3 209.6 209.9 208.1 207.4 204.5 204.2 202.8 203.7 202 201.1 200.6 201.1 205.6 209 211.3 210.8 211.7 216.4 217.4 216.5 212 211.5 209.9 209 202.2 201.9 205.6 205.8 203.7 202.8 203.1 205.2 205 203 200.6 198.8 197.2 192.6 188.6 187.1 188.8 190.5 190.9 191 191 190.5 189.9 189.5 189.3 190 189.6 188.6 187.9 187.6 187.3 187.2 186.5 184.8 184.8 184.7 186.4 185.6 188.1 193.1 205.4 214.6 221.4 228.6 235.8 239.4 241.8 243.1 242 239.3 236.7 235.1 232.1 230.8 231.3 232.5 231.7 229.2 225.7 225.5 226.7 226.5 225.5 224.4 223.9 224.4 225.7 226.9 230.6 231.5 232.4 226.7 240 239 242.3 251.2 257.2 261.1 264.1 267.9 276.4 283 295.2 303.9 312.3 321.6 329.5 327.6 321.9 316.1 309.3 301.6 295 289.7 286 284.8 286.7 285.1 290.5 296.8 302.9 308.4 312.7 315.6 315.4 314.6 315.1 319 327.4 337.3 347.9 358.4
351.1 354.2 361.4 364.5 365.7 364.4 364 363.1 360.9 362.7 363.4 362.2 352.7 343.3 337.7 339.1 341.3 335.4 323.4 316.2 303.7 291.5 279 268.5 260.2 252.5 243.3 232.9 227.4 225.8 232.2 239.9 243.6 249.6 253.4 254.6 256.1 258.8 261.8 265.4 268.5 273 276.2 273.9 261.3 250.4 241.8 229.9 227.1 227.3 223.8 214.8 211 209.3 207 204.7 203.5 203.8 203.9 205.1 209.3 209.5 210.2 208.4 208.3 208.7 209.5 206.9 206.3 208.1 204.5 203.9 205.5 201.8 207.5 209.7 208.8 210.1 217.2 215.9 207.9 207.5 211 211.4 212.4 212.8 210.3 204.5 202.1 201.3 202.1 202.2 201.3 202.3 204.4 206.9 205.1 204.6 202.2 200 192.8 190 187.2 189.6 190.4 190.8 190.8 189.5 189 188.9 189.8 190.1 189.9 190.3 190.9 189.9 189.7 189.5 189.1 187.7 188.4 188.6 188.6 187.9 188.3 188.6 194.3 205.8 214.2 218.6 226.8 234.4 241.2 242.8 244.5 244.6 240.1 239 237 235.3 233.1 232.3 231.9 232.3 230.7 229.4 227.2 226.1 227.4 227.4 226.3 225.6 225.4 225.4 225.7 226.4 227.9 231.1 235.5 225.8 235.4 240.7 240.1 249.1 255.5 259.9 263.5 266.6 275.2 283.3 294.4 305.8 314.8 327.8 334 333.7 326.9 318.9 312.2 305.6 296.9 292.6 288.4 286 285.1 282.4 293.4 299.9 306.6 314.2 318.8 322.6 321.6 320 319.8 323.1 330.9 340.2 350.1 359.4
353.1 359.9 366.9 368.1 370.9 370.1 369.6 367.9 366.1 374.2 376.7 369.2 357.4 348 341.9 338.7 340.1 331.3 319.7 310.5 300.3 289.7 278.2 267.1 258.6 253.1 246.1 235 226.3 225.1 230.8 234.8 238.8 241.1 246.3 249.9 252.1 255.3 259.7 264.1 268.7 273.1 274.4 268.7 257.8 250 237.1 227.8 226.3 226.9 221.7 211.2 210.8 209.3 205.9 203.5 203.4 203.7 204.5 205.3 210.2 212.6 211.1 207.4 211.6 216.2 211.7 206.3 211.5 212.6 207 206.5 206.6 205.6 202.8 204.1 210.6 213.3 217.9 209.3 206.8 209.7 211.8 212.6 213.6 210.2 206.3 202.8 201.8 201 202.1 204.1 203.4 200.6 202.5 208.9 207.8 207.3 205.3 196.9 190.4 187.5 187.5 190.2 190.6 190.9 191.5 189.9 189.3 190.6 191.7 192.2 191.7 190.7 190.6 190.8 191.2 191.4 190.1 188.4 189.6 190.4 189.1 188.8 192.8 198.4 205.6 213.9 221.4 225.6 232.5 240.4 246.1 246.8 247.5 246.1 241.7 240.2 238.2 236.2 234.8 234.3 234 233.6 233.4 231.3 229.5 227.7 227.8 228.3 227.5 227 226.2 226.9 227.2 227.3 227.8 229.5 233.5 227 233.6 240.2 240.7 246.3 254 259.6 262.6 266.2 274.4 282.8 293.1 307.2 319.3 329.3 335.3 335.8 331.5 321.8 315.1 308.5 301.7 294.3 291 287.7 284.7 285.1 296 304 311.1 319.1 324.7 328.1 328.6 326 323.5 326.7 333.6 341.9 351.1 358.9
354.8 366.5 371.2 372.6 373 373.9 372.4 373.3 371.5 379.3 384.1 371.8 362.2 354.7 344.8 339 340.3 329.4 318.9 308.6 298.6 288.5 277.4 266.2 258.3 253.1 247.5 237.7 226 224.8 227.1 230.6 235.1 240.3 239.5 241.1 243.2 247.6 254 262.1 267.8 272.2 272.2 263.5 255.8 245.5 235.2 228.4 226 226.2 219.2 212.4 210.9 210 204.9 203.3 203.3 203.7 205 206.1 207.8 214.9 216.8 211.7 216.7 213.9 202.5 203.4 206 205.9 203.8 203.7 202.9 201.9 203.8 207.1 215.4 216.4 213.1 208.1 208.6 212.3 212.7 210.7 209.7 206 204.2 201.5 201 201.1 203.7 205.4 204.9 202.9 201.9 205.6 210 205.9 195 190.4 187.3 187.3 189.4 191.2 191.9 192.6 191.6 190.8 190.6 191.4 191.5 190.2 190.7 190.4 188.9 189.5 188.4 188.3 188.2 190.2 190 190 191.8 195.4 202.5 208.1 214.4 222.6 225.2 232.5 241.6 246.7 250.8 251.4 248 245.8 243.4 241.5 239.5 237.5 237.4 236.7 237 236.6 235.5 233.8 232.1 229.9 229.3 229.2 228.9 228.3 227.6 228.4 229.1 229.1 230.2 233.2 233.8 227.9 228.9 238.7 241.6 245.5 252.3 259.7 263 268.4 273.2 281.6 292.8 305.7 316.6 327 334.9 336.3 333.5 325 316.4 309.9 304 298 293.7 290.3 286.4 283.5 298.3 306.3 314.1 321.4 327.2 331 332.1 328.8 327.2 330.3 336.7 344.5 352.1 359.9
358.8 372.4 374.4 374.1 376.3 376.7 377.1 377.2 377.2 375.1 376.3 370.2 361.3 357.6 348.7 339.4 329.2 322.9 319.3 307.4 297.4 287.2 279.3 268.4 259.9 253.1 249 239.6 227 222.7 224.5 228.4 230.5 233 235.3 235.5 237.1 240.7 247.9 258.8 266.4 270.1 266.1 259 250.2 240.2 231.1 227.4 226.4 225.1 218.5 212 210 209.9 205.7 204.9 203.9 203.5 206.1 207.6 210.1 214.4 205.5 199.4 199.3 195.1 193.3 194.7 194.7 195.6 197.8 201.4 205.2 205.9 207.9 203.6 205.6 206.8 208.8 207.4 212.9 212.9 210 207.7 206.6 205.2 203.9 202.7 202.1 203.6 205.9 206.3 206 204.1 201.4 202.1 205.2 191.7 191 187.9 187.3 189.5 190.8 192.7 193.2 194 194.1 191.9 191.8 191.9 191.6 192.3 191.5 191.4 191.1 191.2 190.3 190.3 190.3 191.4 195.5 201 201.9 205 208.7 214.1 221.9 227.3 230.7 243.1 249.3 253.3 254.5 254.5 250 246.6 245.4 243.3 241.1 239.7 238.9 238.8 239.3 239.6 238.5 236.4 234.5 232.1 231.1 230.2 229.8 229.5 229.3 229.4 230.5 230.8 233.2 231.7 230.8 232.2 228.9 237.9 242.5 244.7 252 259.6 263.2 270.7 271.7 279.8 290.1 303.9 313.4 320.3 328.2 331 330.7 324.4 318.2 313.4 306.1 299.7 296.5 293.3 287.9 283 298.7 307.5 315.4 322 327.7 331.9 332.3 332.2 331.1 334.5 340.3 346.7 354 362.4
363.2 374.5 375.5 374.4 375.9 377.7 380.6 382.1 380 373.5 367 360.9 354.6 348.5 349.6 333.2 326.8 319.1 317 304.2 296 286.8 278.4 268.8 262.6 256.4 250.8 243.5 233.5 224.2 221.1 223.6 230.8 232.2 232.2 231.9 232.2 234.1 242 252 263.3 259.7 258 250.8 241.8 235.2 227.3 225.7 226.4 223.2 215.8 210.3 207.8 209.3 207.9 207.2 202.8 200.9 203.2 207.6 204.6 199.7 194.7 194.5 194.4 193.8 194.4 194.7 194.1 194.9 194.1 194 199.3 205.2 200.1 197.7 198.5 201.8 205.8 209.2 209.7 207.7 205.4 205.8 206.1 204.8 203.5 204.1 203.8 206.4 207.2 206.8 205.6 204.8 203 196.8 191.8 191.8 187.6 187.5 190.8 191.8 193 194.2 194.9 195.8 197.1 193.9 195.7 196 195 195.1 194.7 194 193.3 192.4 192.7 192.2 193.6 196.3 201.6 204.3 203.3 207.8 213.7 221.2 227.5 231 241.7 251.4 255.5 258.2 258.2 257.7 254.7 251.6 247.3 245.3 243.3 242 241.1 241.7 242 241.6 241.2 239 236.8 234.4 232.5 231.1 230.9 230.7 230.5 230.5 231.6 232.6 234.1 236.1 233.6 234 229.9 237.9 243.3 243.8 252.3 259.8 263.7 269.6 268.2 278.2 286.2 298.8 309.9 313.4 319.4 324.1 325.3 325.5 322 318.1 309.2 304.9 300.2 295.2 293.2 285.1 296.8 308.6 316.3 321.9 327.1 331.1 332.3 333.1 333.9 337.9 343.5 349.2 355.8 366
366.1 371.5 371.7 373.9 376.2 378.7 383.5 387.5 381.2 374.9 369.9 359.3 351.2 342.5 335.1 330 324 317.3 310.6 300.5 294.5 284.3 276.6 270.8 264.4 259.4 253.9 247.8 240.3 233.2 222.4 222.7 225.1 228.7 229.9 227.6 230 230.8 236.2 240.9 251.3 252.9 249.2 242.9 235.9 228.8 223.7 228.1 225.1 218.7 212.6 208.6 208.9 209.6 206.5 201.3 199.5 198.9 202.8 199.3 193.3 194.4 196.8 195.3 196.7 197.8 197.7 202.4 196.3 195.7 195.4 193.7 193 196.4 198 199.3 198.5 197.7 198.7 200.4 203.4 204.3 204.9 205.4 205.6 204.3 204.7 204.9 204.4 206.4 205.4 205.6 205.3 203.9 195.5 191.7 191.2 187.8 187.5 191.6 194 195.4 195.8 196.6 198.3 199.1 199.1 199 199.9 200.4 200.2 199.5 199.2 198.4 197.2 195.1 196.9 193.7 199.1 200.3 204.1 204.6 206.8 214.7 218.3 226.5 232.2 242.4 251.8 256.7 258.4 262.5 262 260.9 258 255.3 251.7 247.8 246.1 245.2 244.6 245.3 245.3 244.2 243 242.5 240.5 237.9 234.5 232.4 232.1 232.1 231.8 231.2 232.6 233.5 235.3 238 238.4 232.8 233.6 239.1 242.1 242.3 250.5 258.3 262.8 267.8 268.7 274.3 282.1 290.9 299 305.7 311.4 316.4 321.4 324.4 323 319 314.8 309.3 303.3 297.6 296.2 291.7 302.4 307 315.7 321.6 326.4 330.2 332.8 334.6 337.2 341.8 346.9 352.5 360.6 370
361.4 364.7 369.3 372.2 374.6 377.2 379.7 384.4 382.3 378.5 372.8 361.3 350.5 340.7 331.1 327.3 321.2 312.4 303.8 299.8 290.8 282.4 276.5 271.2 266.5 259.4 252.2 250.6 246.3 241.2 229.6 221.1 221.6 222.1 225.9 228.6 232 231.8 229.8 232.2 239.1 243.3 242.3 237.4 229.8 224.6 226.1 226.6 218.5 212.8 209.9 206.5 206.1 203.3 200.7 200.9 200.4 199.5 199.6 193.3 193.3 198.4 198.2 197.6 198.9 198.4 198 199.7 198.8 197.3 195.8 194.8 193.3 192.5 192.7 196.7 198.6 196.1 195.8 196.6 200.6 204.4 204.6 205.2 205.5 205.8 205.6 205.8 205.3 204.8 202.6 205.3 197.8 192.3 191.8 190.9 188.3 188 192.4 195.6 197.9 199.7 199.3 199.6 200.4 200.5 205.6 204.1 204.7 207.2 208.1 206.8 206.1 203.8 201.3 199.4 198.8 198.7 201.4 202.8 204.5 207.4 210.9 215.7 222.8 231.2 239 249.6 258.7 263.5 266.5 266.8 266.2 264.6 261.8 258.9 256.1 252.1 251.9 251 248.4 248.7 247.9 246.8 245.7 245.2 243.7 240.7 237 235.1 233.8 233.9 232.9 232.2 233.6 234.4 235.6 235.9 236.8 235.1 235.9 237.2 240.4 243.6 251.4 257.5 262 263.1 266.6 271.7 278.2 285.6 292 299.3 304.1 309.8 315.8 319.7 320.9 319.7 316.6 312.8 308.6 301.8 299 297.5 306.1 310.8 312.4 320.6 326 330 332.8 335.6 339 344.9 350.6 356.6 365.2 373.1
353 355.7 359.9 365 368.8 371 372.9 375 376.3 373.3 369.2 361.7 351.1 340.9 332.3 326.1 317.1 304.7 300.8 296.7 288.6 283 278.1 272.9 267.1 258.8 256.9 252.7 247.5 245 238 227.8 222 220.6 219.2 225 241 247 239 230.6 229.2 232.6 234 229.7 228.9 228.4 226.9 219.1 211 204.4 203.8 203.5 204.2 210.9 206.4 205.5 207 203.4 195.1 194.9 198.1 198.9 199.5 199.4 200.1 199.4 198.7 198.8 200 197.5 196.4 195.7 195.6 194.9 191.7 194 196.7 197.1 195.8 195.9 197.3 202 204.2 204.3 204.4 205.5 206 205.9 205.7 205.4 200.7 192.8 192.2 190.1 188.7 188.6 190.8 195.1 198 200.8 203 204.1 202.4 203.1 206.9 209.1 210.1 206.7 207.9 212.9 210.8 211.5 209.4 208.5 206.1 204.6 201.3 203 203.7 205.9 209.6 213.9 217.4 220.1 228.4 236.1 249.4 258.4 265 269 270.9 271.4 270.8 268.8 265.9 262.4 259 255.8 255.8 256.1 253.7 251.7 250.5 249.8 248.3 247.5 246.2 244 240.6 238.6 236.6 235.6 235.4 235.3 235.1 235.9 236.7 237 236.4 239.6 238.2 239.1 241.7 245 251.8 255.4 260.4 261.6 265 269.3 274.4 279.5 287.2 293.6 298.2 303 309 313.7 314.6 314.3 315.4 312.6 310.7 308.1 301.3 302.1 307.3 311.4 312.8 318.1 326.1 329.8 333.1 336.1 341 348.1 354.4 360.8 368.3 376.2
346.7 350.6 355.4 357.4 359.8 364.6 366.5 367.3 369.4 366.8 362.5 356.7 349.4 341.5 332.5 324.2 313.6 308.3 301.5 295.9 288.7 284.4 280.1 275.6 266.9 261.2 257.3 254 248.3 243.9 241.5 237.3 229.1 221.9 221.1 218.9 225.3 240.3 246.4 242 232.3 228 227 228.7 223 226 219.7 212.9 205.3 202.5 203.4 205.4 204.2 203.4 202.9 205.1 200.2 197 194.6 196.3 198.4 199.2 200 200.4 203.5 202.5 202.5 201 201.7 198.4 196.8 196.5 196.3 195.4 191.7 191.7 194.1 196.1 196.6 196 196.6 197.6 202.7 203.4 203.5 204.2 205.5 205.6 204 194.9 191.2 189.3 189 189 189.2 194.7 198.8 201.6 203.1 204.9 204.8 205.4 206.1 210.4 212.2 213.1 213.1 205.3 214.2 213.1 211.9 211.8 211.3 211.3 210.4 209.2 207.9 207.8 208.2 210.7 213.4 215.8 220 224.7 231.6 243.9 258.1 266.2 270.1 272.9 275.2 275.9 273.7 271.6 268 264.6 261.1 259.5 260.1 260 260 256 255.3 254.8 252 249.6 248.7 246.5 244.3 241.7 239.1 237.2 237.1 237.1 237 237.7 236.5 238.2 243.8 243.1 244.9 240.4 239.6 245.8 252.1 256.4 260.3 263 264.2 267 271 275.7 282.4 287.9 292.6 297.2 301.7 306.6 309.1 310.4 309.5 311.1 311 308.3 301.7 304.6 308.6 310.6 313.2 317.9 321.6 327.7 330.7 335.4 339.9 349.6 356 362.3 370 378.3
343 345.4 346.6 352.1 353.5 356.7 360.3 363.4 362.6 361.6 358.1 352.9 346.2 336.8 331.1 323.4 314.8 309.3 302.4 296.5 288.9 283.9 280.8 277.3 272.2 266.4 260.4 254.7 249.6 244.7 241.5 239.4 234.6 225.6 220.1 220 218.3 227.5 240.1 243.8 239 229.4 225.6 225.3 226.9 223.2 217 208.9 205 205.6 204.2 205 200.4 200.3 199.4 198.2 198.9 196.7 194.8 197 200.1 200.6 201.8 204.4 206.3 207.3 206.8 204.8 202.8 199.4 197.6 197.2 196.9 196 194.7 192.1 192 195 196 195.5 195.7 196.5 196.7 201.4 202.3 202.9 203.1 198.6 192.5 189.5 189.5 190.3 189.8 195.2 202.4 204.7 205.4 205.2 206.2 208.6 209 213.2 215.5 216.1 214.6 214.3 212.3 208.3 217.2 213.3 213 212.9 212.2 211.8 211.4 211.3 212.3 210.1 212.2 213.4 215.3 217.1 219.2 228.5 238.9 253.2 265.4 271.2 274.1 276.4 278.6 277.7 275.6 273.6 270.5 266.5 263.6 263 263.8 264.4 264.8 260.8 260.4 258.8 255.8 252.9 251 248.9 246.5 244 241.4 240.7 239.6 238.5 238.5 238 236.8 238.6 242.9 244.4 244.6 244.5 243 243.4 246.2 254.7 257.9 260.3 263.6 266.7 268.5 272.4 277.6 282.4 287 291.7 296.3 299.8 302.3 304.8 305.8 305.6 307.8 306.5 302.9 306.1 309.5 309.7 312.2 317 321 325 328 332 337.6 346.2 354.1 362.2 369.3 374.8
341.6 341.6 341.8 343.2 346.3 349.4 354.6 357.6 357.8 356.1 356.2 353.4 343.7 337.4 331.2 324.8 317.6 309.1 300.8 295.5 290.4 286 282.2 279.2 273.9 268.8 263.4 255.6 249.6 244.6 241.8 238.6 230.8 225.2 220.3 220 218.9 221.4 224.8 230.9 236.1 231.9 226.7 223.7 226.3 221.1 214.9 210.1 208.9 204.2 204.1 199.6 197 198.9 199.3 202.1 200 194.4 197.5 199.5 200.8 202.4 206 207.1 207.8 208.1 208.2 207.8 207.6 202.6 198.4 198.2 197.5 196.3 194.6 191.4 191.8 194 195.2 195.2 195.1 195.3 192.2 192.9 194.6 193.1 191.8 189.8 189.7 189.5 193.1 199.2 205.8 210.9 218.4 219 217.1 214.7 217.6 218.4 220.1 220.4 218.7 216.7 216 214.1 210 217.7 220.2 217.3 215.9 215.7 215.3 214.4 213.4 213.6 214.2 214.5 211.6 213.2 216.8 218 225.1 236.5 247.9 261.4 269.7 275.6 277.4 278.6 279.9 278.9 276.8 274.8 272.6 269 266.6 267.2 269.2 269.4 267.8 265.9 265.5 262.5 259.5 256.6 254.2 251.1 248.6 246.3 244.7 243.2 242.1 241 239.8 239.8 237.3 239.1 244.3 246.2 245.2 245.3 246.6 248.3 250.1 245.8 253.7 257.1 260.3 264.9 268.7 269.4 274.4 277 281.5 286.1 290.8 294.5 296.9 299.4 301.5 302.1 301 300.6 304.3 306.7 308.3 308.3 311.7 315.7 319.7 323.7 328.7 332.3 337.3 345.4 353.1 360.7 368.6 375.2
339.2 340.3 339 338.6 338.8 343.8 349.1 351.2 352.3 354.4 354.7 348 343.6 340.6 335 328.4 320.6 310.1 302.4 297.6 292.8 288.6 285.8 278.6 271.9 267.3 262.5 256.2 250.6 247.7 242.8 235.7 226.9 222 223.2 222.3 220.5 218.1 219.9 220.7 221 222.6 225.5 227.1 225.9 219 212.5 209.6 205.2 203.9 198.7 196.7 197 199.2 202.6 202.3 196.3 195 198.4 200.9 203.1 205.7 208.6 208.3 208.7 209.3 209.1 208.6 208.3 205.5 200.4 198.6 198 197.1 195.9 196.5 191.3 190.7 193.8 194.8 194.7 192.4 191.7 191 189.3 188 188.1 189.1 195.9 201.9 207.5 212.9 220.6 222.4 224 222.7 221 221.5 221.1 220.1 220.1 219.8 217.9 215.6 214.4 212.2 220.9 223.5 223.7 222.3 219.6 219.1 218 217.5 215.6 212.6 214.2 212.7 214.4 213.9 216.9 220.5 230 241.9 255.1 266.1 274.6 280.3 282.5 283.1 282.2 280.7 278.6 276.5 274.5 272.5 270.4 272.8 275.2 275.4 273.4 271.5 269.4 267.6 264.7 261.9 256.8 253.7 251 250 247.5 245.7 244.5 243.4 242 242 238.8 237.2 244.7 247.5 248.1 247.9 249.4 250.7 251.6 253.8 255 255.5 257.9 261.3 265.6 270.5 272.4 273.3 275.1 280.2 285.8 289.1 291.5 294.1 296.3 297.3 298.6 301.8 304.1 306.4 305.5 309.6 313.1 316.6 320.6 325 329.9 334.1 338 344.6 350.5 357.5 366.3 375.2
339.1 338.2 337 335.5 336 338.8 342.1 345.9 349.2 353.3 352 349.8 345 345.2 338.9 331.4 320.9 311.7 304.6 299.2 294.3 289.7 284.2 277 271.8 267.1 260.7 255.6 252 247.3 240.4 228.9 223.2 222 226.6 226.4 222.3 220.1 218.6 218.7 217.3 216 214 211.8 217.3 211.1 207.1 203.9 203.4 201.5 198.7 197.5 197.7 200.9 202.1 200.3 195 197.2 200.3 203.3 206.2 208.8 210.7 209.5 209.9 210.5 210.1 209 208.8 206.6 202.3 199.8 200.7 202 198.3 196.5 193.6 189.7 189.2 194.2 192.7 190.3 190 190.4 188.5 189 192.2 200.6 207.4 210.5 215.9 221.8 225.3 225.6 225.6 224.3 222.4 220.6 220.8 220.2 220.1 218.9 216.9 214.9 219.2 223 226 228.7 227.4 224.5 223.7 222.1 220.8 216.7 213.8 212.5 213.3 215.2 215.8 216.8 220.4 227.7 236 246.8 260.4 271.8 280.8 285.5 287.4 285 282.8 283.4 281.4 279.4 277.7 276.1 275.8 278.3 280.8 281.4 279.3 281 277.5 275.1 271.5 265.6 261.4 257.7 257.7 256.1 253.5 250 246.3 244.5 244.6 244.7 241.4 238.5 246.3 249.1 250.2 250.5 251.7 252.6 253.9 255.2 257.2 258.3 256.3 260.3 263.9 268.3 272.5 275.3 277.7 279.9 283.1 285.4 288.2 290 291.9 294.6 299 300.8 303.1 306.1 306.8 310.5 314.8 318.5 321.8 327.4 332.5 337.1 341.8 346.1 350 355.8 363.9 374.9
337.9 336.3 334.4 332.5 332.6 335.1 335.8 340 347.3 351.7 353.6 351.4 346.3 344.1 339 330 322.3 311.6 306 300.5 295.9 290.9 283.7 278.4 273 267 260.2 254.7 250.6 245.1 234.1 226.3 221.8 223.1 223.5 225.5 224.8 222.3 220.9 221.1 221.3 220.9 216.3 212.8 208 206.2 205.6 204.9 199.2 200 198.4 196.9 197.7 199.5 200.6 198.5 195 198.4 202 205.7 207.9 209.1 209.3 208.7 208.7 209.9 208.7 207.6 209.3 205.9 202.7 199.8 201.5 200.4 200 200.6 204 200.8 189.2 189.2 189.4 188.2 188.8 188.6 188.9 192.3 200 209.6 215.7 220.9 224 225.1 226.7 226.8 226.8 225.9 223.1 220.5 220.6 220.3 219.1 217.7 215.5 222.3 227.3 228.1 229.2 232.2 228.9 228.3 226.9 224.3 221.1 213.9 212.7 213.3 215.4 216.5 216.8 221 225.6 233.9 239.8 253 266.2 276.9 285.5 291.3 292 290.2 288.7 286.9 284.6 282.1 280.5 280.1 281.2 283.7 286.3 287.3 287.1 288.8 288.1 286 279 271.5 265.9 263.4 262.7 259.9 256.2 253.8 251.3 247.8 245.7 241.9 242.3 246.6 244.1 249 251.3 253.1 255.5 255.8 255.1 256.2 258.3 260.1 261.2 262.5 262.7 266.6 270.1 274.8 277.1 279.8 279.2 281.7 285.2 289.4 293.5 295.4 297.7 299.9 302.5 305.7 310.4 315 317.3 320.1 323.7 330.1 335 341.1 345.7 350.8 355 360.6 365.2 372.4
330.8 332.5 331.5 329.1 329.1 331.5 334.3 336.3 342.1 349 353.8 351.3 348 344.5 337.5 330.4 324.1 315.6 307.8 301.6 296.9 291 285.9 278.8 272.8 266.6 260.6 253.5 247.1 240.6 233.3 226 221.3 219.3 220.6 222.8 225.1 219.8 220.5 219.5 219.8 217.4 215.8 211.8 209.5 206.4 206.3 200.2 198.8 198.1 197.8 197.5 197.8 197.9 200.7 195.7 196.3 199.8 204.4 208.2 210.2 208.4 208.3 209 208.9 208.4 207.5 209 208.8 205.8 200.2 199.8 200.1 200.2 200.4 202.7 202.9 204.3 204.4 205.8 203.4 201.6 197.5 196.8 196.6 206.2 211.1 216.7 222.4 225.3 226.5 227.2 228.7 228.9 228.9 227.1 223.5 220 219.7 218.7 217.7 217.5 224.4 231.4 232.3 232.9 233.5 234.8 231.4 231 231.3 231.8 224.3 216.1 214.3 215 216.3 218 221 228.2 235 238.6 244.5 259 270.9 280.5 290 294.8 295.1 293.8 292.1 289.5 286.9 285.5 285.9 286.3 286.5 289.1 291.8 293.3 294.9 296.5 296.3 294.5 287 279.7 271.6 270 266.6 262.9 258.4 255.6 252.9 248.7 245.9 242.5 248.3 250.8 252.5 251.3 250.6 255.1 259 260.4 257.1 258 259.6 262.2 263.9 265.1 264.9 268.2 272.5 274 276.3 278.9 277.3 278.4 285.3 289 291.5 294.1 296.7 297.2 298.5 304.7 310.7 315.9 320.5 324.9 326.7 331.8 338.6 344.7 349.8 355.3 361.3 366.2 371.6 378.2
333.7 331.8 327.4 324.2 323.7 326.2 329.2 332.4 339.3 343.9 347.9 352.1 351.2 344.5 336.7 333.5 326.4 318.9 311.7 302.7 300 293.8 285.6 278.8 272.9 266.7 260.6 256.7 248.5 240.2 232.3 225.2 222 220 217.9 217.7 219.9 219 217.7 217.6 214.9 213.5 212.5 209.5 208.4 207.5 205.2 205.3 199.2 197.3 197.3 199.4 200.2 199.5 200.4 195 198.2 201.5 206.7 209.7 208 208.4 208.5 210.3 212.1 212.8 214.1 212.1 210.2 206.8 203.1 201.8 202.7 200.5 201.1 199.7 201.2 202.5 205.2 207.5 208.2 210.7 211 210.1 209.8 211.4 215.5 221.3 224.7 226.7 228.3 229.6 230.6 230.8 230.1 229 223.5 219.5 218.7 216.8 217.4 225.9 232.9 237 236.7 237.3 238 237.9 234.9 235.7 234.7 232.8 227.7 218.6 215 217.1 218.3 223.3 229.1 236.5 243.2 249.6 247.3 263.9 274.5 283.7 292.3 296 295.2 294.9 293.6 292.1 289.5 289.6 290 290.4 291.5 294.4 297.1 300.7 302.5 304.9 306 299.9 291.9 286.3 279.9 274 265.8 263.9 260.5 257.3 252.4 248.7 243.3 242.5 248.1 253.1 255.3 257.1 255.7 255.3 257.5 262.3 262.1 259.9 261.5 263.9 266 267.6 265.9 267.5 271.6 273.8 274.1 277.4 279.4 280.3 285.7 287.8 291.9 294.4 295.1 296.4 300.3 303.5 306.9 315.5 321.3 326.6 330.6 333.5 341.6 347.1 352.9 359 365 372 378.8 385.9
332.6 329.3 324.7 319.6 319.4 321.1 324.1 329 333.3 338.1 345 350.8 351.2 347.7 338.7 334.3 328.6 320 310 305.1 301.9 296.2 284.9 279.5 273.1 267.4 264 258.2 251.2 241.8 232.2 225.5 221.1 219.4 218 218 218.5 217.8 214.8 212.1 211.2 210.7 209.7 209.2 206.9 208.4 204 199.6 197.6 196.9 197.6 201 204 206.5 201 195.7 198.7 203 208.7 208.1 208.5 209.5 212.3 213.8 214.6 215.4 215.1 214.9 211.7 209.2 204.1 203.3 202.7 201.5 202.1 199.3 203.2 203.3 203.3 207.2 210.8 208.8 210.9 211.2 211.4 213.4 217.7 223.2 226.2 228.4 229.8 231.1 232.2 231.5 230.6 230.3 224.6 219.2 218.4 217.4 224.3 231.8 236.8 240.1 240.5 241.2 242 242.7 241.1 238.9 238.5 237.7 234.4 221.3 217.6 218 224.3 230.5 239.3 244.8 249.2 253.6 255 269.2 278.5 287 293.4 295.6 295.7 295.4 294.8 293.4 293.2 293.1 293.5 294.6 296.3 299.4 303.3 307.9 312.1 314.4 315.5 307.2 297.8 290.7 283.6 276.4 269.4 262.1 258.7 255.4 251.7 246.7 244.1 246.1 248.5 251.8 257.4 259.9 259.8 258.3 258.4 262.8 264.9 263.5 263.4 265.7 268.2 269.7 269.1 268 273 274.1 275.4 278.4 280 282.4 286.3 291.1 293.1 294 294.5 299 302.9 305.8 309.4 314.9 319.6 326 329.1 336.4 343.7 349.8 356.6 363.3 370.9 378.4 385.5 391.4
330.5 326.9 321.5 315.3 316 317 319 322 327 333.2 340 345.7 350 343.4 336.9 332.8 328.1 320.4 312.7 309 304.6 298.5 290.4 283.5 275.4 268.8 266.1 259.5 250.2 240.5 232.1 224.7 220.8 219.3 217 218.1 216.6 213 209.3 210 205.8 206.3 209.5 212.2 210.1 204.1 200.3 196.8 197.4 196.5 197.4 204.2 205.6 205 200.5 195.5 199.4 205.7 208.3 209.1 211.9 214.6 216.3 218.1 218.6 218.8 218.1 216.6 214.1 207.6 206.3 203.5 203.6 204.1 201.7 200.5 205.8 204.8 205.3 207.9 209 209.9 210.4 211 212.4 214.6 219.4 224.1 227.7 230 231.2 232.2 233.2 232.6 232.1 232.3 223.8 219.8 219.5 222.5 232.1 237.3 239.9 242.2 243.1 244.1 244.8 244.5 243.7 243.6 243 241.4 240.1 230 219.9 223.6 231.2 238 245.5 249.9 252.7 255.3 262.1 273.6 281.7 288.8 293.6 294.9 295.8 296 295.4 294.8 295.5 296.3 297.5 299.3 301.1 305 310.8 316.4 320.6 324.2 325.5 315.3 303.3 295.2 286 278.5 272.7 263.7 258.7 256 252.4 246.6 245.4 247.2 250.2 253.4 257.9 261.7 261.9 261.8 259.8 261.8 266.1 267.3 266.2 268.2 270.2 271.3 269.2 270.8 272.1 274.6 279.9 280.6 282.3 284.8 287.1 292.4 295.3 294.4 296.9 300.8 305.6 308.1 311.7 316.8 321.6 326.1 331 339.7 346.3 353.9 360.7 368.5 376.8 384.9 391.5 396.7
327.2 324.7 318.2 311.7 307.6 309.3 312.4 316.4 319.8 330.3 335.1 343.4 342.6 340.3 336.4 330.8 326.3 320.7 315.8 311.2 307.6 301.8 293.6 286.2 279.2 273.2 266.9 260 249 238 230.7 224.5 220.7 218.4 215 213.8 212.6 209.2 209 205.6 203.8 207.7 213.2 215.6 214.9 206.6 202 201.7 198.5 197.6 198 203.6 205 202.5 199.7 195.8 200 207.3 210.3 211.6 214.8 220.1 221.6 222.3 222 220.6 219.6 218.1 218 212.8 209.3 203.5 205.6 205.6 205 203.1 202.4 202.8 206.1 206.3 206.8 208 211 211.6 212.8 216.6 221.3 226 228.9 231.4 232.2 233.2 234.1 233.8 233.8 233.9 223 220.2 221.2 232.3 237.5 239.9 242.7 244.8 245.9 246.8 247.1 247.5 247.5 246.8 246.3 244.7 239.2 239.4 227.1 228.8 237.4 243.1 250.5 253.9 255.9 259.4 268.7 277.9 285.8 291.1 294.5 295.7 297.2 297.5 297 297.7 298.4 299.1 300.7 302.5 306.3 310.8 316.5 323.2 330.9 335.8 333.8 321.2 308.7 298 288.2 280.6 274.3 265.3 259.6 256.1 252.8 246.9 247 247.9 251.6 255.9 260.3 261.9 262.7 261.3 260.2 261.1 264.1 267.1 268.7 270.2 271.6 273.3 271 276.4 277.7 276.9 281 282.9 285 288.2 289.2 294.1 296.3 297.6 300 303.2 308.1 310.6 314.4 318.7 323.7 328.2 334 342.9 349.8 357.1 366 375.8 385 392.4 400.2 404.9
324.6 321.7 314.3 307.6 302.3 303.6 307.3 310.8 316.3 324.1 329.1 334.8 336.5 337.6 333.5 327 323.8 321.7 316.3 313.9 309.3 303.4 295.3 287.1 279 273.6 267.1 258.9 249.2 238.5 231 224.8 222.4 218 213.7 210.5 206.9 204.5 203.9 204.7 206 208.3 210.3 213.5 210.6 208.3 206.9 202.8 200.7 200 199.7 201.2 201.6 199.8 196 196.8 201.6 209.7 213.3 217.4 221 223.5 224.3 223.8 223 222.7 221.2 219.7 219.9 217.5 211.9 208.1 206 206 205.9 203.4 204 206.5 208.6 209.8 207.9 210.6 212.5 212.9 213.6 218.2 221.6 226.7 230 232.3 233.9 234.4 235.1 235.4 235.5 233.6 222 221.5 223.6 236.8 240 242.5 245.5 247.4 248.6 250.1 251.3 251.7 248.3 246.6 248.1 246.4 243 241 231.7 229.2 242.2 249.8 254.8 256.8 259.4 264.8 272.8 282.4 289.6 294.4 297 297.8 298.8 299.2 299.9 300.6 301.3 302 304.2 307 310.2 314.9 321.7 331 341.2 347 339.2 324.8 311.7 301.4 290.5 281.9 275.3 266.4 260.3 256.2 251.6 247.6 247.8 250.2 252 258.1 261.7 262.4 262.4 263.2 263.7 263.9 264.5 268 270.4 271.7 273.2 272.7 273 279.6 280.4 279.1 282.6 285.2 288.1 290.3 292.3 296.7 299.3 301.2 303.8 307.6 311 314.4 318.1 322.1 326.1 331.4 338.9 345.6 352.5 361.9 373.4 383.9 393.5 401.7 410.1 415
321.9 317.7 311.3 302.9 298.3 297.7 302 306.1 310.2 314.7 320.5 325.6 330.1 330.9 326.7 324.1 321.6 320.4 318.2 315.3 311.3 304.6 297.4 290.1 283.4 276.8 268.3 258.8 247.8 235.9 227.7 222.5 219.3 214 209.9 207.7 206.5 212.9 201.3 203.5 203.9 208.9 211.7 215.1 214 211.7 206 203.6 202.5 201.7 198.8 197.6 199.1 198.7 195.6 199.4 204.4 210.6 215.7 221.4 224.8 225.7 225.7 224.9 223.8 221.3 222.3 219.9 217.8 217 214.1 209.8 207.3 207.3 206.8 204.7 205.1 207.9 211.4 212.4 210.4 211.1 213.1 214.3 214.3 218.8 222.9 226.9 229.6 233.3 234.9 236.2 236.8 236.1 236.2 230.7 221.7 222.8 230.1 238.4 241.9 245.2 248.2 250.2 251.6 253.3 254.5 254.7 252.2 249.6 248.3 248.2 243.8 229.7 226.9 240.6 248 255.2 257.8 260.7 264.1 268.9 276.7 285.4 292.9 297.8 299.7 300.6 301.4 301.5 302.2 302.9 303.6 304.9 307.8 310.7 313.9 319.1 325.9 337.2 347.6 353.2 343.3 330.2 317.2 304.8 292.7 283.1 276.5 268.1 262 256.9 251.9 248.9 248.7 251.8 253.4 258.8 262.9 263.6 264.7 265.5 266 265.9 267.3 268.7 272.5 274.1 276.1 277.8 276.8 281.4 282.6 282 284.1 287.5 289.3 291.3 294.6 298.4 300.5 304.6 307.5 311.8 315.8 319.7 322.5 325.8 330.3 336 342.7 348.5 355.7 366.2 380.9 392.2 402.5 411.5 421.4 428.8
318.6 314.1 307.7 298 293.5 292.2 295.3 298.9 304.3 308.1 312 316.1 318.5 320.1 319.1 318.5 317.7 317.2 316.7 314.2 309.9 305.2 298.5 291.9 285.5 278.8 269.3 258.4 247.4 235.9 226.4 219.8 215.9 210 207.1 206.2 206.8 203.1 202.4 199.6 200.8 202.9 206.4 207.8 207.5 212.5 210.7 205.6 205.8 202.1 197.7 196.4 197.6 195.6 198 202.4 206.7 212 217.5 224.5 226.9 227.6 227.7 227.6 226.3 224.7 229.4 226 221.4 216.5 214.5 210.9 208.6 208.2 207.4 207.9 206.5 208.3 210.3 210.9 211.4 211.7 212.9 214.2 217.2 221.1 225.6 228.6 230 234.4 236 237.8 237.1 236.3 236.6 229.7 225.6 230.2 233.4 241.5 245.1 249.6 252.9 253.7 254.6 255.8 257 256.7 256.5 253.9 251 251.5 237.6 230.4 240 245.6 253.4 258.9 263 265.8 269 273 280.6 289.2 295.6 300.2 302.6 303.7 303.8 303.3 304.2 304.8 305.5 307.7 310.6 313.7 317.9 323 330.7 341 353.2 356 346.1 332.3 318.8 307 294.5 284.6 278.1 269.9 263 258.2 253.3 251.2 250.3 251.9 254 258.7 264.7 266.1 267.1 267.3 267.2 267 268.7 269.5 273.2 276.3 278.5 280.5 281.5 278.7 284 285.6 286.6 290 291.5 293.8 298.3 301 302.1 307.7 310.9 314.9 319.6 323.3 326.8 330.3 334.9 339.8 346.1 352.2 359.2 371.1 387.5 398.3 410.3 421.7 432.1 440.9
316.2 313 305.5 294.5 289.1 287.6 288.6 290.2 295.2 299.8 304.4 306.5 308.4 310.9 311.8 312.2 312.4 312.3 311.7 309.3 306.3 303.8 301.4 291.3 285.9 279.3 268.7 257.4 246.4 235.3 226.8 220.7 216.7 212.6 208.7 206.4 204.9 203.3 201.9 199.5 197.8 200.5 209.4 211.2 211.6 213.9 217.8 215 203.3 195.7 195.7 195.6 199 198.6 200.1 204.1 208.4 214.6 223.4 226.3 228.6 230 230.9 231.3 230.8 233.1 231.2 229.3 225.1 220.9 216.1 212.6 209.5 208.6 208.6 208.3 209.2 210.2 211.2 212.7 213 212.3 213.5 214.5 218 222.6 226.9 229.8 231.7 233.9 238.5 238.9 237.9 237 237.2 231.6 229.5 236.1 234.7 245.1 245.4 250.8 255.5 257.1 257.6 258.6 259.1 258.9 258.8 257.6 253.7 252 236.2 236.5 243.9 250.4 257.5 261.9 266.1 270.4 273.6 275.9 284.2 291.3 297.4 302.8 305.4 305.7 306 305.6 305.6 306.8 307.7 310.5 313.6 317.2 321.9 327 334.1 343 352.8 353.3 344 330.6 317.8 307.1 296.2 287 279.9 273 264.9 260 255 252 251.1 253 259.1 258.1 265.6 268.4 268.7 268.6 268.5 268.4 270.2 273.7 273.6 276.3 280.6 282.9 284.5 280.6 287.5 288.7 291.6 292 293.8 297.2 301 303.1 302.8 310.9 315 318.2 323.1 326.8 331.4 335.9 339.3 344 350.8 357.3 365.8 376.9 393.9 405.6 419.3 431.1 442.5 454
314.4 308 302.3 293.3 286.5 283.6 282.3 284.3 286.8 292.3 299.4 298.6 301 304 305.4 306.4 307.3 307 306.2 304.4 302.9 303.7 298 289.5 284.4 278.8 268.4 256.4 244.5 237.1 229.3 222.6 217.6 214.1 209.8 207.3 205.5 203.5 196.4 196 196.5 197.4 200.8 199.9 199.1 200.9 202.7 200.2 195.6 195.7 198.7 198.8 198.9 198.9 201.2 205.8 210.3 219.2 225.5 228.8 230.5 231.9 234.2 236 237 238.3 235.4 230.9 226.1 223 220.5 215.5 210.6 209.4 209.8 208.4 208.3 211.5 212.6 214.3 214.3 213.1 213.8 214.6 220.8 224.5 228.3 230.5 233.4 235.3 239.1 239.8 239 237.7 236.6 228.5 229.7 234.9 236.9 246.1 247.8 250.7 254.1 256.5 257.7 261.4 261.3 261.1 258.2 258 254.6 254.3 244.7 237 246.3 257.8 262 265.6 269.1 274 276.8 279.2 286.7 293.3 299.5 304.4 306.8 306.9 306.8 305.4 307.1 307.3 307.9 309.8 313.8 319.8 324.7 329.6 335.6 342.9 350.8 349.3 341.1 328.8 317.5 307 297.6 288.8 281.4 276.5 267.9 262.6 257.3 254.5 252.9 254 261.3 262.2 264.5 269.9 270.2 270.1 270.1 270 272.6 275.5 278.5 276.8 281 284.9 286.4 281.8 290.4 291.1 294.1 294.6 295.7 299.1 302.8 306.1 307.8 312.9 317.1 320.9 325.2 330.3 336.3 341.5 344.4 349 355.7 363.6 372.5 386.7 399.3 413.5 427.9 441.4 452.9 465.7
312.5 303 299 291.8 284.9 280.8 280 282.8 283.8 286.1 288.9 292.5 295.9 298.5 299.9 301.1 302 302.6 301.5 300.1 299.9 298.4 292 285.8 280.8 273.7 264.5 252.6 240.7 234.5 230 223.6 218.3 213.8 209.3 207.2 205.9 202.5 200.3 196 197.4 196.2 196.2 197.3 195.5 196.5 198.4 195.7 197.4 198.7 198.3 198.5 198.6 199.6 204.2 209.2 213.3 225 228 230.5 233.2 236.3 237.2 238.7 239.8 240 237 235.3 230.8 224.3 219 217.7 212 209.7 210.3 209.6 211.3 213.2 215.1 214.9 214.3 213.9 214.7 216.7 220.4 224.7 229.3 232.2 234.8 235.9 238.1 240.3 239.4 238.7 235.8 226.3 230.2 234.3 237.8 247.4 249 252 255 258.5 261.6 263.6 263.3 261 259 258.1 256.8 253.5 249.2 237.1 251.2 263 265.1 268.3 272.3 276.6 279.9 282.2 289.4 293.3 297.8 305.3 306.9 305.8 304.7 303.8 303.9 305.6 307.9 310.7 315.4 322.3 327 332.4 338.2 345.3 348.3 345.1 337.2 326.5 316.5 306.4 297.3 289.5 283.1 277.9 272.3 266.5 261.9 259.3 257.8 259.3 267.4 265.2 264.2 270.2 272 271.7 271.4 271.5 275.3 278.3 281.1 283.1 281.5 286.4 286.7 284.8 291.9 292.7 295.2 296.6 297.6 300.8 304.5 308.2 311.4 315.3 319.2 324.1 329.3 333.6 339.9 345.5 349.6 355.5 361.1 369.6 379.1 392.7 404.8 420.3 435.5 449.4 461.8 475.6
311.9 301 294.6 288.2 282.8 277.7 278 279.5 276.9 277.2 281.9 286.5 290.6 292.7 294.1 295.3 296.4 296.6 297.2 295.8 294.5 291.7 288.4 284.3 281.7 274.2 262.5 252.8 241.4 234.8 227.9 221.4 216.7 212.3 209.1 209.6 205.8 204.7 206.4 204.3 197.4 196.2 197.2 198.3 195.9 197.9 197.8 195.6 199 197.9 199.1 199.1 201.4 204.8 207.7 212.5 218.2 224.9 230.6 233.4 235.7 239.5 240.3 240.8 242.6 241.1 239.9 236.7 230 226.8 221.8 217.9 213.7 210.5 212.5 211.5 213.5 214.6 214.8 214.4 215.3 215 214.7 216.5 221.7 225.6 230.9 234.4 235.9 236.9 237.9 237.1 238.3 237.3 230.5 227.8 230 235.6 241.5 246.8 251.6 254 257 259.5 264.6 265.2 263.9 261.9 261.1 259.7 257.7 256.9 241.7 245.3 256.2 265.1 269 271.2 275.5 279.8 281.5 283.4 286.9 292.1 298.8 302 304.3 304.1 303.9 303.7 304.5 307.6 310 312.4 317.2 324.2 329.1 334.6 340.4 344.9 345.7 342 334.8 325.9 316 306.1 297.4 290.6 284.9 279.5 273.2 268.1 263.8 261.1 259 261.2 270.1 268.5 269.6 270 272.2 273.9 273.2 274.7 278.7 280.7 283.5 286 283.7 287.3 286.1 292.3 291.7 296.2 298 299.4 301.4 302.2 305.6 309.4 313.4 317.9 321.9 326.2 331.7 337.8 342.8 349.4 355.2 360.3 366.3 376.4 388 400.8 412.4 427.9 442.4 456.1 470.2 487
307.4 295.8 288.2 281.9 275.6 274.3 275.1 272.8 271.9 272.3 275.4 281 284.5 286.3 287.8 289.3 290.3 290.6 292.2 291.5 290.7 288.6 289 286.9 283.1 274.4 263.3 253.2 242.1 231.5 226.3 219.5 213.9 210.9 208.4 206.9 206.5 205.9 207.3 205.5 196.2 196.2 203.6 203.2 201.8 198.2 195.6 199.4 202.4 200.2 198.7 200 205.5 206.6 207.3 213.3 223.7 228.8 232.9 237.3 242.7 243.2 243.6 244.7 244 244 242.9 235.6 235.5 230.5 225.2 221.8 217 215 216.6 216.7 214.2 214.5 214.7 214.5 215.3 215.7 215.6 218.2 222.1 227.7 231.8 235.3 236.7 237.5 238.2 237.9 236.1 233 227.9 230.2 229.6 238.3 242.7 246.4 252.1 253.8 257.8 260 265.4 266.4 264.1 264.1 262.7 262.3 261 256.3 242 250.8 259.7 263.2 269.6 272.1 275.4 280.1 282.5 284.5 287.4 291.6 298.2 301.2 303.5 303.4 303.2 303 304.4 307.3 310.6 313.9 319.6 325.5 330.9 336.2 341.7 344.3 342.7 338.8 334.1 325.9 316.2 306.5 299 292.2 286.9 276.6 271.3 266.6 262.9 262 258.2 261.8 271.7 270.7 272.6 274 273.7 275.6 275 279.5 282.3 283.5 285.7 287.9 286.2 285.4 293.1 295.4 296.5 295.7 300.2 303.1 303.6 304.7 307.7 311 314.6 318.4 323.1 327.4 333.6 340.4 346.6 352.7 359.1 365.7 371.8 382.5 394.6 406 417.2 435.2 448.2 463.1 477.1 497.9
305.7 295.6 285.5 274.3 270.7 271.7 272.1 271 268.4 268.2 271.3 276.1 278.1 279.9 281.4 283 284.2 284.6 286.3 286.2 285.2 287.2 294.5 290.6 283 273 261 248.9 239.3 230.7 224.6 217.8 211.8 207.1 205.4 206.1 204.6 203.4 204.5 204.7 199.7 200.9 203.6 202.6 195.6 195.6 196.6 204.4 204.8 205.9 200.6 200.7 211.3 213.2 215.8 220.1 227.2 231 234.7 240.6 245.6 247.7 248.9 247.8 247 245.4 245.1 241.6 236.3 231.6 229.3 224.9 220.4 218 218.2 219.2 216.4 215.1 214.6 214.9 215.4 216.1 215.7 217.9 222.9 227.6 231.4 234.8 235.5 236.6 237.8 236.6 234.7 229.8 228.7 229.5 229.9 238.3 241.6 249.4 253 255.6 258.6 261.3 266.8 266.3 265.4 265 264.3 263.6 264.2 255.7 242.4 255.8 261.7 264.6 271.8 276.1 278.8 280.7 284.4 285.7 289.9 291.4 297 299.6 301.2 301.8 302.3 302.8 304.3 306.9 310.5 314.7 321 327 332.3 337.6 342.7 343.9 341.1 336.7 332.3 326.1 317.3 307.8 300.4 293.2 288.1 278.1 272 267.2 263.3 262.6 259.7 264.6 273.7 273.2 273.6 276.1 279.1 279.1 279.2 283.4 285 286.6 288.1 289.3 287.8 291.6 295.5 298.4 300.5 302.5 303.8 303 306 307.6 309.6 312.9 316.6 320.7 325.4 331.4 336.9 342.6 350 355.4 362.9 370 375.4 386.3 399.1 410.1 422.4 439.9 455.1 470.8 488 506.1
300 289.1 277.5 268.8 267.2 268.7 268.3 266.3 264.8 265.1 269.4 272 273.1 273.9 275.6 277.7 279.4 279.5 278.7 278.8 279.2 283.8 287.3 285 276.3 268.6 253.6 244.3 237.2 231.8 221.8 216.3 207.2 204.4 203.7 203.4 203.4 203.2 203.4 201.3 197.8 199.9 198.3 196.5 197 197.1 203.5 206 205.2 205.5 204.3 202.5 207.6 212.7 219.5 224.8 228.9 232.8 237.3 243.6 249.6 252.6 252.5 251.4 251.2 250.3 248.3 247.1 240.6 236.1 231.6 228.7 224.4 220.5 219.8 218.4 217.2 216.8 216.2 216 215.1 215.4 215.9 217.3 222.2 227.4 231.4 234.4 234.8 235 236.2 236.2 233.6 229.2 230.8 231.9 233.6 238.4 241.8 252 252.2 255.6 259 261.4 264.9 265.2 266.1 266 265.4 264.6 264.8 256.7 244.9 262.5 265.7 267.4 273.8 279.3 281.4 282.3 284.8 286.5 289.3 291.2 295.2 298.6 300.2 301.3 301.9 302.4 304 307.1 310.6 315.4 321.8 327.9 333.4 338.8 343.6 343.5 339.7 334.8 330 324.9 318.2 309.2 301.8 294.7 288.1 279.6 274 268.5 264.9 264.1 260.7 267.2 276.2 274.4 275 279.2 281.9 284.5 284.3 285.4 287.8 289.1 289.6 288.3 291.6 295 301.7 303.8 305.3 307.3 307.8 308.1 309.5 311.2 312.8 315.7 319.3 323.5 328.3 334.3 340 345.9 353.1 358.9 363.9 372.3 379.7 386.8 402.2 414.4 426.7 438.3 457.3 476 493.9 511.9
289.8 282.4 269.7 262.9 260.1 260.2 259.9 261.5 261.5 265.4 266.9 267.4 268.2 269 271.3 273.5 274.8 273.4 272.9 272.2 272.5 276.1 274.6 269.6 261.9 253 245.1 237.6 230.7 225 219.3 208 203.6 203.9 201.5 199 198.6 203 202.9 201.8 198.5 198 194.6 196.2 196.4 199.3 206.2 205.7 211.1 210.6 205.6 204.1 203.1 210.3 219 225.9 230.7 234.7 240.2 245.8 251.2 255.6 256.7 256.8 255.9 254.6 253 250.5 243.6 240.2 239.8 235.1 228.3 222.9 220.5 217.8 217.6 216.8 216.2 216.4 216 216.2 216.2 217 222.5 227.8 232.1 233.9 235.3 235.4 234.8 234.6 233.3 230.8 230.6 232.7 237.1 242.2 241.4 249.2 253.8 256.3 259.5 262.4 265.3 266 266.3 266.3 266.1 265.9 266 257.8 257.8 266.7 267.4 269.8 277.6 280 282.7 283.4 285.8 287.2 290.3 291.7 294.7 297.6 299.3 300.8 301.7 302 304 307.3 310.4 315.8 323.1 328.7 334.2 339.4 344.6 344.6 339.4 334.1 328 322.8 317.6 310.7 304.1 297.8 288.5 282.8 276.3 271.9 267.7 266.7 262.3 267.8 278.7 275.8 276.4 282.2 284.5 286.9 287.1 288 290.4 290.3 288.9 295.2 294.6 301.9 307.6 310.3 311.4 310.5 311.8 312.3 311 314.4 317 319.7 322.4 326.7 331.3 337.2 342.6 350.6 357.1 364.2 371.2 380.4 389.4 395.3 401.8 416.9 430.4 444.5 460.3 480.2 498 516.8
281.2 275.1 264.3 260.4 256.4 255.6 256.9 258.8 261 261.8 262.2 262.5 263.2 264.3 266.5 268.2 268.2 268.4 267.7 266.4 264.5 264.5 262 256.8 249.1 241.3 234.5 228.5 221.3 216.5 208.3 203.7 204.7 204.2 203.1 200.4 199.3 203.2 203.4 202.8 200.1 197.9 193.8 194.5 199.6 200.1 205.5 212.4 214.8 216.6 208.4 208.4 203.9 209.7 218.5 225.2 230.7 236.2 241.9 247.5 253 258.6 259.7 260.7 260.1 258.1 254.7 253.6 244.8 250.9 245.6 238.7 234.2 227.7 222.3 218.9 217.9 216.6 216.2 216.4 216.5 216.4 216.4 217.3 221.6 227.3 232.5 234.5 235.7 235.4 235.4 234.6 230.3 229.4 230.6 232.4 237 245.8 246.1 243.7 249.6 257.3 259.7 262.8 265 266 266.5 266.6 266.4 266.8 268.6 259.7 263.7 267.9 270.7 273 277.3 281.1 284.2 284.5 286.7 287.1 291.1 292.1 293.6 295.6 297.4 299.1 301 301.4 303.5 306.7 309.8 315 323 329 334 339 344.1 344.9 340 333.6 327.3 321.4 316.3 311.5 306.2 300.2 290.7 285.1 279.2 275.5 273.6 272.1 264.6 272.2 280.1 278.5 283.1 285.5 287.5 287.2 287.4 290 292.2 291.1 294.4 296.1 299.9 308.2 314.2 316.5 317.3 316.7 315.3 314.6 313.8 317.1 319.7 322.3 325.5 330.2 334.3 340.5 347.9 355.2 362.5 370.1 380.7 390 398.8 404.7 412.2 417.4 428.9 445.2 461.7 481.2 499 518.6
275.1 268.1 261.6 257.2 251.5 252.9 252.6 256.6 256.3 256.1 256.8 257.5 258.2 259.5 261 262.1 262.5 262.4 261.1 258.4 256.5 254.1 248.5 242.8 236.7 230.4 224 218.2 213.5 205.1 202.9 203.1 205.5 202.6 200.3 201.1 202.2 200.5 202 203.4 202.8 195.7 195.4 195.5 198.1 202 211.2 209.9 209.4 208.4 207.5 209.4 204.8 212.2 220 225.1 230.7 237.7 244.3 249.3 254.9 259.9 263.1 264.1 264.6 263.3 259.3 255.3 259 255.4 248.9 243.5 238.5 232.8 227.1 223 219.3 218.3 217.4 216.9 216.6 217.2 217.7 219.2 222.1 226.7 231.2 234.9 235.5 235.2 234.9 235.9 229.3 227.4 228.5 231.6 235.6 243.6 248.2 248.9 246.7 253 262.1 262.4 264.6 266.2 266.7 267.2 268.1 268.9 270.7 255.1 267.7 269.2 273.1 275.2 273.9 282.3 283.9 283.8 287.2 287.5 291.4 292.3 293.2 294.2 295.5 297.8 300.2 301 303.1 306 309.2 313.4 320.5 328.3 333.3 338.3 342.4 343.4 339.1 333.1 326.4 320.7 316.2 311.7 306.5 300.4 291.8 286.1 281.8 278.7 277.2 274.8 267.7 279.1 281.9 283.1 287.2 288.9 287.6 287.9 290.1 292.4 293.7 293.2 297 301 305 312.6 320.5 324.3 324.4 321.2 318.8 317.4 317.4 319.7 322.3 325.2 328.6 333.7 339 345.2 352.3 360.1 368 378.3 388 398.1 409.2 416.4 423.8 429.8 431 446.8 461.3 481.6 501.6 518.9
