ncols 200
nrows 85
xllcorner 240000
yllcorner 813300
cellsize 50
50.2 49.9 48.5 47.7 43.1 42.7 45.5 45.3 45.1 44.8 44.8 44.2 43.6 43.9 43.8 40.8 39.6 42.5 48.1 58.1 69.5 83.1 97 108.8 119.4 130.6 139.7 144.2 150 160.6 170.8 176.3 180.7 188.8 189.5 201.2 202.7 196.3 195.6 200.3 205 212.1 218 220 219 221.4 229.1 236 242.9 248.9 250.5 244.9 240 233.9 229 229.1 234.7 235.2 236.4 240.7 244.3 253.7 266.5 278.6 291.8 297.8 309.5 324.5 329.8 333.9 348.1 363.2 375.1 392.3 408.2 408.3 391.8 351.4 335.1 303.3 252.6 200.8 183.1 156.8 131.3 102.2 71.2 59.6 49.2 42.2 42.6 38.4 28.2 16.8 15.3 15.3 15.3 15.3 15.3 15.3 15.3 15.3 15.3 15.3 15.3 15.3 15.3 15.3 15.3 15.3 15.3 15.3 15.3 15.3 15.3 15.3 15.3 15.3 15.3 15.3 15.3 15.3 15.3 15.3 15.3 15.3 30.1 54.8 75.2 84.3 84.9 91.7 99.3 107.7 116.2 108.3 105.8 126.5 178.2 184.4 187.6 190.8 196.7 213.8 231.8 238 241.3 240.9 240.6 234.1 228.7 229.4 219.3 213.9 214.5 220.8 216.6 209.3 198.1 195.6 198.2 201.3 208.4 219.4 228.3 228.5 227.2 226.5 226.8 232.3 232.6 226.7 207 191.9 163.3 158.1 158.5 158.9 160.5 169.4 169.5 172.5 167.8 158 157 166.3 162.2 159.8 162.8 171.9 174.4 177.2 180.9 184.9 186.1 186 186 185.2 185 184.7
49.7 48.7 47.3 43.2 44.6 46.1 46.6 46.6 45.7 45.2 45 44.4 43.7 43.4 43.6 43.6 43.6 39.3 39.2 43 54.3 69 85 99.6 109 116.8 125.9 132.7 139.8 151.5 161.7 168.3 173.4 179.6 183.9 194.2 196.6 192.1 191.9 194 195.4 203.2 216.4 221 219.4 218.5 226.9 238.9 246.5 249.9 245 242 236.1 229.7 229.1 229.4 231.7 233.1 235.5 239.1 245.5 258.5 272.3 287.1 299.9 302.4 308.9 319 328.6 333.9 347 361.9 368.2 391.7 402.5 394 377.5 345.6 301.8 266.8 223.4 190.9 161 138.4 119 83.6 61.4 47.1 36.7 31.1 28.3 20.4 15.3 15.3 15.3 15.3 15.3 15.3 15.3 15.3 15.3 15.3 15.3 15.3 15.3 15.3 15.3 15.3 15.3 15.3 15.3 15.3 15.3 15.3 15.3 15.3 15.3 15.3 15.3 15.3 15.3 15.3 15.3 15.3 15.3 28.6 57.1 75.9 89.7 102.4 114.9 109.7 112.1 120.2 128.2 130.2 112.7 126.2 177.3 185.6 188.9 188.8 193 211.9 230.6 239.6 250.9 248.2 239.6 233.1 229 228.8 219.4 217.9 221.1 222.9 213 209 199.4 197.7 203.6 207 216.1 229.9 241 238.3 239.4 230.2 231.9 235.5 230.2 220.5 198.8 169.3 158.2 159.3 159.1 159.3 161 164.8 167.7 172.4 166.2 153.7 160.8 162.1 163.3 161.2 160.3 170.2 173.4 177.3 180.5 183.3 184 184 183.7 182.3 182 182
48.8 48.1 43.2 46.9 47.1 47.4 49.1 50.5 47.8 47.6 46.2 45.9 45.7 46 43.1 43.4 43.5 43.4 42.4 39 42.9 54.1 70.3 84.9 97.3 103.2 110.6 120.4 127 134.2 143.2 155.3 166.6 173.7 180.6 189.7 192.4 187.3 188.8 189.7 191.3 199.4 211 218.1 215 217.3 226.8 238.5 246.7 246.7 239.3 238.3 233.3 229.2 224.7 225.8 226.5 231.3 234.5 237.8 249.7 263.1 277.2 295.4 302 301.6 306.2 308.7 319.8 327.6 342.2 351.2 361.2 381.7 388.6 368.8 352.8 315.4 257.9 227.7 199.6 166.2 136 115.9 102.6 76 49.7 37.3 27.3 19.2 15.3 15.3 15.3 15.3 15.3 15.3 15.3 15.3 15.3 15.3 15.3 15.3 15.3 15.3 15.3 15.3 15.3 15.3 15.3 15.3 15.3 15.3 15.3 15.3 15.3 15.3 15.3 15.3 15.3 15.3 15.3 15.3 15.3 15.7 31.8 52.9 79.7 92.9 109 127.7 120.3 117.6 122.1 128.7 140.9 148.8 141.6 128.2 171.7 189.2 189.7 188.4 190.8 206.9 219.8 232.6 249.7 244.6 238 233.4 229.8 229.3 222.2 219.3 224.3 222.5 209.9 205.6 199 201 210.1 211.7 226.3 239.7 253.5 239.5 229.6 229.3 230.9 220.4 205.8 193.8 169.9 159.4 159.4 160.7 164.2 160.7 162 167.8 166.9 168.3 159.6 160.3 164.7 165.4 167.7 161.2 163.2 173.5 176.2 177.5 178 179.6 180.8 181 180.5 180 178.8 178.8
46.4 43.2 47.2 47.6 51.1 55.3 58.6 54.9 50.8 48.5 49 48.6 47.5 46.9 45.5 42.7 43 43.2 43.4 43 38.7 43.3 54.9 68.1 80.5 88.8 94.1 103.3 109.7 116.6 128.3 141.6 157.1 166.2 177.7 186.8 184.3 179.3 184 186.7 187.8 190.5 196.1 207.2 207.6 215.9 225.9 234.2 239 239.2 236.4 234.1 231.6 228.8 221.5 220.3 221.8 228.3 233.4 241.5 253.3 265.7 279.6 292.8 300.7 300.3 300.5 304.6 306.3 315.1 328.7 333.4 347.5 354.7 369.9 347 321 280.2 216.4 188.1 162.5 137.9 109.2 92.4 78.1 59.6 41.2 25.7 15.3 15.3 15.3 15.3 15.3 15.3 15.3 15.3 15.3 15.3 15.3 15.3 15.3 15.3 15.3 15.3 15.3 15.3 15.3 15.3 15.3 15.3 15.3 15.3 15.3 15.3 15.3 15.3 15.3 15.3 15.3 15.3 15.3 15.3 16.1 35.6 58 85.8 107.8 109.5 133.5 142.7 139.4 137.4 131.9 140.9 157 172.7 180.8 156.3 152.6 186.6 190 187.5 193 202.7 218.3 224.3 233.1 233.8 238.7 234.2 230.2 228.7 225.5 229.6 226.4 218.5 209.2 200.7 198.9 205.3 216.1 222.2 227.3 232.3 235.6 228 221.7 219.1 216.4 211.7 185.5 168 159.9 160.1 160.9 162.1 167.5 162.4 162.9 165.2 165.2 165.8 154.1 164.8 168.4 167.4 163.3 159.7 165.9 174.4 175.8 176.9 177.2 177.6 178.2 178.1 177 176.5 176 175
43.2 49.5 55.2 64.7 66.2 68.4 73.9 64.4 62.8 57.3 47.5 47.8 47.6 46.9 46.1 42.6 42.8 43.1 42.6 42.2 42 38.7 42.4 51.6 62.5 70.3 76.4 85.2 93.4 99.8 113 126.2 139.2 151.6 164.8 175.7 169.1 171.2 179 182.9 184 186.4 189.4 194.2 201.7 212.7 221.4 228.4 231.3 230.5 230.7 229.3 230.4 223.2 217.3 216.6 219.8 226.8 233.6 241.7 251.9 264.2 279.3 285.7 299.6 299.4 298.2 297.6 296 300.1 309.8 314.7 321.1 330.4 348.4 318.9 282.9 246.4 188.5 163.1 141.2 117.3 79.9 70.2 54.9 41.7 29 15.3 15.3 15.3 15.3 15.3 15.3 15.3 15.3 15.3 15.3 15.3 15.3 15.3 15.3 15.3 15.3 15.3 15.3 15.3 15.3 15.3 15.3 15.3 15.3 15.3 15.3 15.3 15.3 15.3 15.3 15.3 15.3 15.3 15.3 15.5 41 69.7 94.2 122.1 134.6 131 151.8 157 147.3 150.6 153 164.5 173.4 174.8 175.6 164.8 156.3 178 182.4 186.5 191.8 202.8 217.9 221 226.7 237 237.4 237.2 232.2 230 229.4 230.2 230 219.2 210.8 203.4 200.1 208.8 221 220.1 223.5 229.5 231.9 226 203.9 195.1 194.1 186.5 168.7 160.8 161.1 159.6 161.3 161.4 160.6 160.9 163.4 162.8 159.1 158.3 156.4 160.6 167.5 164.3 160.9 160.7 162.6 174.6 175.5 175.9 176.3 176.2 175.7 174.6 173.4 173 173.3 172.5
54 65.6 73.1 95.4 92.5 81.1 90.4 73.1 74.5 66.5 54.1 49.7 47.9 47.7 45 42.4 42.5 42.1 41.6 41.3 41 40.8 39 39.6 46.6 55.2 63 69.7 75 83.5 92.6 104.1 120.1 135.7 146.2 154.5 155.4 161.5 168.3 176 178.2 181.2 185.8 189.2 193.7 201.5 214.1 220.8 224 227 229.8 229.3 229.4 212.5 210.9 213.7 219.7 226.6 232.4 238.6 248.5 264.8 275.4 279.2 288.7 292 293.8 288.5 282.3 288.4 291.3 293.4 305 312 318.8 290.4 250.3 210.7 164.6 139.4 120.8 86.1 71.7 49 38.8 25.5 15.3 15.3 15.3 15.3 15.3 15.3 15.3 15.3 15.3 15.3 15.3 15.3 15.3 15.3 15.3 15.3 15.3 15.3 15.3 15.3 15.3 15.3 15.3 15.3 15.3 15.3 15.3 15.3 15.3 15.3 15.3 15.3 15.3 15.3 15.3 46.8 75.8 95.8 122.3 149.7 156.7 170.6 172 171 176.7 183.3 178.3 182.5 176.7 174.8 171.2 161.4 161.1 179.3 181.2 185.8 191.2 203.4 214.4 220.7 229.6 239.8 241.1 239.2 234.8 230.8 231.3 239.9 224.5 211.3 207.8 206.4 203.6 210.7 211.7 219.8 230 230.3 228.5 221.4 207.1 186.8 172.1 163.3 161.1 160.2 160.1 160.1 161.2 162.4 161.6 162 163.7 162.2 160.4 158.8 157.2 156.8 158.2 159 162.9 160.5 163.7 172.2 174.3 174.7 174.1 173.4 172.1 170.9 171.8 171 170.8 171.2
76.6 98.9 108 120.2 112.8 101.2 89.8 79.8 72.3 68.5 58.3 54.1 52.8 49.8 49 47.3 43.7 42.5 42.2 41.9 41.9 43.4 42.3 39.4 39 44.7 47.9 54 59.1 67.7 75.2 83.7 96.8 112.1 126.3 137 142.5 152.1 157.8 165.2 167 173 180.9 183.3 187.7 190.8 199.3 211.7 216.7 220.9 225.8 230.8 224.3 209.2 209.4 211.1 215.2 220.3 226.8 233.2 244.9 260.9 267.6 274.8 280.6 283.8 286.9 279.6 274.8 276.3 277.3 277 281.5 294.6 287.3 260.8 210.6 168.6 139.3 121.6 98.6 74.9 52 37.4 23.1 15.3 15.3 15.3 15.3 15.3 15.3 15.3 15.3 15.3 15.3 15.3 15.3 15.3 15.3 15.3 15.3 15.3 15.3 15.3 15.3 15.3 15.3 15.3 15.3 15.3 15.3 15.3 15.3 15.3 15.3 15.3 15.3 15.3 15.3 16.7 51.6 82.4 117.1 132.5 155.3 164 173.5 179 181.4 194 205.1 197 200.1 192.7 180.7 176.2 170 159.2 167.7 179.8 182.9 186.9 191.6 202.3 210.6 217 225.4 236.2 249.1 239.5 237.2 232.7 229.5 228 214.5 207.4 207 206.9 207 207.2 210.8 228.7 236 243 240.5 233.6 217.5 192.6 176.5 163.6 161.2 160.2 160.1 160.1 161.6 163.7 164.1 164.4 164.7 163.3 161 158.6 156.9 157.1 159.4 160.2 162.4 162.7 164.4 172.2 171.6 171.8 171.1 171 170.4 169.4 171.1 170.5 169.8 170.2
136.9 146.5 130.4 141.5 143.7 127.4 104.4 89.2 97.7 95.8 84.7 76.5 65.7 61.2 58.2 60.9 49.1 45 43 42.9 43.4 44.3 43.2 42.1 39.2 40.4 43.5 44.4 44.5 47.5 55.2 64.8 75 87.7 102.5 115.4 129.4 139.5 146.5 153.1 157.7 164.7 171.8 176.5 181.8 183.8 184.9 199.3 208.8 214.8 219.9 220.9 217.6 207 205.3 208.8 212.1 216.4 221.1 226.9 234.7 251.2 260.9 265.9 267.5 275.3 278.9 268.2 263.1 258 258.2 257.6 260.4 272 259.5 212 167.2 134.9 112.8 94.9 83.2 68.1 45.1 25.1 15.3 15.3 15.3 15.3 15.3 15.3 15.3 15.3 15.3 15.3 15.3 15.3 15.3 15.3 15.3 15.3 15.3 15.3 15.3 15.3 15.3 15.3 15.3 15.3 15.3 15.3 15.3 15.3 15.3 15.3 15.3 15.3 15.3 15.3 18.8 49.2 92.3 123.9 156.3 174.8 181.1 174.2 179.5 180.4 190.3 212.6 218.1 212.9 204.2 193.2 184.5 176.6 168.1 164.9 171.5 179.3 184.3 187.4 194.1 206.5 210.1 214.2 226.9 239.6 252.3 238.6 236.4 232.9 229.4 222.6 210 207 206.9 206.9 206.9 207 217.4 224.8 231.1 232.3 230.3 222.8 217 197 185.8 162.5 162.1 162 161.7 160.2 162.4 164.6 164.7 164.7 164.7 162.4 159.9 157.8 157.7 157.8 158.7 159.9 161.3 164.5 164.9 166.9 167 168 168.8 168.3 168.6 170.7 172.1 170.7 169.1 169
151.2 151.3 145 160.4 171.9 151.3 132.1 117 120 116.8 104.4 95.7 84.6 81.4 79.8 75.9 56.4 49.4 46.3 44.1 44 43.9 42.9 42.3 41.7 38.4 42.9 42.9 43.2 42.9 42.7 45.2 55.4 67.2 78.7 89.7 106.3 121.4 133.3 140.9 144 153.9 159.5 166 171.6 176.3 183 190 198.3 209.2 214.8 214.1 213.5 201.1 201.5 205 209.9 212.1 216.7 223 229.7 242.1 250 254.7 255.7 257.8 256.2 253.5 248.9 242.7 239.9 228.8 222.3 221.6 212.1 164.8 126.9 108.3 91 80.2 67.8 56.4 31.9 15.3 15.3 15.3 15.3 15.3 15.3 15.3 15.3 15.3 15.3 15.3 15.3 15.3 15.3 15.3 15.3 15.3 15.3 15.3 15.3 15.3 15.3 15.3 15.3 15.3 15.3 15.3 15.3 15.3 15.3 15.3 15.3 15.3 15.3 15.4 39.8 70.4 106.6 135.8 162.2 178.4 178.8 178.5 178.9 186.9 201.8 218 224 219.9 209.8 201.4 187.2 172 169 169.2 175.2 181.9 185.5 190.4 198.2 210.5 215 220.8 229.1 233.8 248.7 240.3 239.3 235.1 225.8 212.6 208.1 207.5 207 207.6 207.1 207.7 211.3 216.8 218.8 216.3 214.3 207 196.4 188.6 182.4 162.9 163.2 163.7 164 164.2 164.7 165.4 165.5 165.6 165.7 162.8 158.8 158.5 158.4 158.5 159.6 160 161.7 164.6 165.8 166.9 166.3 166.2 166.8 166.5 167.3 169.4 169.3 167.5 168 169.1
158.3 165.8 180.3 188.2 191 171.3 146.5 137.6 140.8 137.8 127.2 116.7 105.9 99 89.7 75.4 62.9 57.8 49.9 43.7 43.8 42.9 42.3 42.1 41.6 40.2 38.1 42.4 42.9 42.7 42.6 41.2 42 49.9 61.1 70.7 80.3 97.6 113.8 122.4 127.2 140.3 147.3 152.8 159.3 164.2 174 180.4 189.9 197.7 202.2 208.6 209.1 200.1 200 201.4 204.7 207.2 209.1 219.5 227.5 232.9 237.3 241.1 243.4 242.1 241 238.5 230.8 226.1 221.9 208.2 188.7 171.2 146 121.4 103.8 85.6 72.2 59 50.3 39.2 15.7 15.3 15.3 15.3 15.3 15.3 15.3 15.3 15.3 15.3 15.3 15.3 15.3 15.3 15.3 15.3 15.3 15.3 15.3 15.3 15.3 15.3 15.3 15.3 15.3 15.3 15.3 15.3 15.3 15.3 15.3 15.3 15.3 15.3 15.3 36.9 73.1 104.3 135.9 154.8 177.9 184 179.3 178.9 180 191.2 206.3 217 219.6 212.2 196.6 190.8 177.5 170.4 168.9 171.7 178 183.4 186.8 192.9 202.5 213 220.4 225.8 229.6 233.5 239.9 239.2 239.4 241.8 228 209.7 208.2 208 208.2 209 209 210 210.7 211.6 209.5 210.1 202.2 192.9 185.9 178.3 165.8 163 163.1 163.6 164.3 164.8 165.4 166.1 166.3 166.4 166.4 164.9 159.8 159.7 159.4 159.5 159.7 161.5 162.1 163.6 167 167 166.7 166.6 166.3 166 166.1 166 166.9 167.6 168.4 169.3
186.3 195.6 193.7 208 213.1 187.6 173.6 166.5 165.7 163.2 154.3 141.9 129.1 114.7 100 81.9 70.6 65 57.6 46.3 44 43.5 42.7 42 41.6 40.5 38.2 38.5 41.5 41.3 40.6 37.8 36.7 38.3 45.3 53.8 59.8 73.1 88.2 99.1 108.7 123.6 131.9 137.9 142.9 147.4 159.2 172.5 183.4 188.5 193.3 205.3 202 195.4 190.9 195.8 199.3 202 205.7 214.4 221 222.8 225.5 226.7 227.3 223.7 224.1 225.5 210.2 190.1 182.1 174.5 151.4 135.9 113.7 96.9 82.8 66.7 51.5 42.6 30.3 15.3 15.3 15.3 15.3 15.3 15.3 15.3 15.3 15.3 15.3 15.3 15.3 15.3 15.3 15.3 15.3 15.3 15.3 15.3 15.3 15.3 15.3 15.3 15.3 15.3 15.3 15.3 15.3 15.3 15.3 15.3 15.3 15.3 15.3 15.3 24.6 56.8 99.6 134.2 153.7 175.6 192.5 195.4 186.7 184 183 197.9 207.4 213 210 198.4 190.2 186.5 177.6 173.3 169 176.4 185.1 189.2 190.5 195.6 205.8 215.5 225.7 230.4 235.2 238.3 235 238 231.3 222 224.6 214.2 208.3 209.7 215.9 211.6 215.2 216.3 211.8 217.1 216.2 207.6 202.5 190.6 182.6 169.8 165 163.2 162.9 163.8 164.7 165.5 166.5 166.8 167.2 167.2 167.3 164.7 161.8 161.4 159.6 159.7 161.2 161.6 162.3 163.1 167.5 167 166.9 167.3 166.9 166.6 166.7 167.1 168.2 168.6 169.2 170.5
205.6 209.4 205.6 220.4 228.2 218.5 204.4 199.3 198.2 194.2 184.2 176.5 167.9 153.5 120 98.3 88 74.1 62.1 52.5 45.3 44.9 43.4 42.7 41.5 41.2 41.4 38.7 36.7 37.4 36.6 41.1 40.8 39 36.5 42.2 42.6 56.2 71.2 78.1 85 93.8 107.7 121 120.7 128.2 144.9 161.3 180.4 182.9 186 198.3 200.9 191.2 185 193.1 194.2 193.4 201 202.9 209.3 212.4 212.1 214.9 211.8 201.3 197.4 196.6 177.7 162.9 147.2 136.8 118 104.4 84.9 76.4 64.4 47.5 37.5 25.1 15.3 15.3 15.3 15.3 15.3 15.3 15.3 15.3 15.3 15.3 15.3 15.3 15.3 15.3 15.3 15.3 15.3 15.3 15.3 15.3 15.3 15.3 15.3 15.3 15.3 15.3 15.3 15.3 15.3 15.3 15.3 15.3 15.3 15.3 15.3 28.7 50.3 94 125.4 154.3 173.9 196.9 199.8 192.8 188.4 186.4 191.3 212.5 218.1 221 219.8 211.4 202.9 198 190.6 180.1 173.9 187.2 198.9 201.7 200.2 201.1 208.4 220.8 231.4 238.4 242.7 242.1 236.8 238.4 233.3 213.3 207.2 208.2 207.8 211.2 229.5 222 220.4 218.2 214.3 223.4 224.4 208.8 188 176.2 171.3 168.6 164.9 163.7 163.4 164.1 166.9 168.5 169.3 169.1 168.2 168.1 167.5 166.1 164.4 162.6 160.2 159.7 161.2 161.7 162.8 164 167.7 167.1 167.2 167.6 168.1 167.9 168.9 168.4 169.3 170.8 171.7 172.7
212.7 219.5 224 231.7 240.1 239.4 238.4 233.7 224.8 215.1 218 212 203.3 204.6 162.3 118.7 106 86.5 72 61.1 52.3 47.7 46.3 45.9 46.2 46.9 47.1 42.8 42.3 46.7 46.2 45 43 40.2 39.4 36.4 42.6 49.3 64.8 64.1 62 67.2 78.8 90.8 98.5 109.2 123.1 147.8 168.8 173 176.1 185 188.5 181 176.2 187.1 187.6 188 189.4 192.5 201.5 202.5 195 193.3 189.4 176.1 166.4 159.7 147.6 130.8 118.1 106.8 93.5 79.2 66.3 50.9 40.9 32.1 19.8 15.3 15.3 15.3 15.3 15.3 15.3 15.3 15.3 15.3 15.3 15.3 15.3 15.3 15.3 15.3 15.3 15.3 15.3 15.3 15.3 15.3 15.3 15.3 15.3 15.3 15.3 15.3 15.3 15.3 15.3 15.3 15.3 15.3 15.3 15.3 21.8 46.8 81.9 122.8 156.6 181.3 187.4 189.6 191.2 189.3 188.9 198.7 214.5 217.8 220.1 219.1 219.1 219.4 214.3 202.6 186.4 179 180.2 195.7 201.6 209.2 208.2 205.4 208.5 217.1 237.2 241.2 245.2 242.2 237.3 231.2 225.2 208.2 201.1 205.7 210.6 212.1 217.3 228.6 221.6 214.8 216.1 214.4 204.6 193 177.5 175.3 171.9 170.6 164.4 164 166 168.4 170.9 171.1 171.1 169.3 168.9 168.8 168.7 168.1 166.3 164.2 162.3 160.7 160.6 162.5 163.7 164.4 168.3 168.1 167.9 168.1 168.4 168.9 170.8 170.5 171.4 173.9 175.8 176.6
222.5 228.6 243.7 248.5 244.7 253.7 263.2 262.7 252.6 239 234 230.3 228.3 216.9 186.3 143 115.5 97.5 89.9 72.2 69.5 60.8 59.3 57.7 52.9 53 51.6 50 57.5 56.1 50.8 47.4 46.6 43.3 41.4 39.6 36.4 43.6 50.4 52.9 52.4 51 57.2 69.9 82.8 95.9 106.7 124.9 148.5 156.6 164.9 171.5 172.1 172.6 169.2 180.2 182.2 182.9 182 179.7 188.5 187.9 175.2 173.5 166 152.9 140.6 129.5 117.9 104.3 92.6 82.1 70.5 56.8 44.4 34 23.7 15.3 15.3 15.3 15.3 15.3 15.3 15.3 15.3 15.3 15.3 15.3 15.3 15.3 15.3 15.3 15.3 15.3 15.3 15.3 15.3 15.3 15.3 15.3 15.3 15.3 15.3 15.3 15.3 15.3 15.3 15.3 15.3 15.3 15.3 15.3 15.3 25.5 43.6 76.2 119.4 151.1 177.9 190.5 194.1 206.2 197.9 190.4 191.1 206.1 210.6 214.1 216.9 222.2 221.4 219.5 216.9 199.3 180.9 178.6 185.5 194.8 199.8 203.8 209.4 212.6 210.2 214.3 225.8 239.3 238.6 237.4 230.5 219.6 218.7 211.2 200.6 201.5 210.3 209.7 204.7 203.7 212.2 209.1 201.9 191 180.5 174.8 170.5 173.2 177 167.2 165.4 167.5 170.9 171.1 171.1 171.1 169.9 168.9 168.9 170.4 168.9 168.9 167.8 166.2 164.7 160.9 159.1 161.3 163.8 164.2 169 169.1 169 169 169.4 170.8 170.6 172.8 175.7 177.7 179.9 179.4
249.8 248.7 253.7 257 261.2 276.9 286.2 290 279.7 269.2 245.3 241.6 237.2 218.2 187.5 154 129.6 110.9 108.5 86.9 78.8 78.1 75.5 71 64.1 59.2 57.1 59.8 61.9 57.2 51.9 49.8 45.7 43.1 42.3 40.9 38.7 35.9 40.8 43.3 44.2 45.6 50.9 58.1 71.4 84.1 89.4 99.8 123.4 139 150.5 152.5 155.8 162.5 156.4 166.3 169.8 169.7 166.1 166.9 167.7 169.4 162.8 148.9 139.1 126.5 113.8 103 92.5 82.3 72.3 61.5 50.4 41.2 29.2 20.3 15.3 15.3 15.3 15.3 15.3 15.3 15.3 15.3 15.3 15.3 15.3 15.3 15.3 15.3 15.3 15.3 15.3 15.3 15.3 15.3 15.3 15.3 15.3 15.3 15.3 15.3 15.3 15.3 15.3 15.3 15.3 15.3 15.3 15.3 15.3 15.3 17.3 39.4 64.8 104.6 140.1 177 190.7 201.2 198.1 194.6 192.2 189.3 187.5 201.1 210.6 213 213.8 216.2 220.2 219.9 213.6 191.6 177.1 177.1 183.2 189.3 194.9 201.5 215 217 209.5 212.3 219.9 220.2 219 218.4 220.1 218.1 221.8 217.6 203.9 198.8 200.1 199.9 198.7 196.3 199.1 195.2 183.7 174.6 173.9 173.6 170.5 172 169.7 171.4 173 171.7 170.1 170.4 170.6 170.9 169.2 170 171.2 170.8 170.5 169.6 168.6 168 166.2 163 161.4 162.2 163.4 164.3 169.7 169.5 169.5 169.5 170.5 169.7 171.7 176 179.4 180.6 179.7 180.3
258 257.7 265.3 272.3 275.4 295.7 309.9 314.4 309 288.7 263.7 265.5 263.3 223.2 193.4 160.5 145.9 128.8 110.6 99.3 96.3 96.7 91 82.1 73.4 69.8 68.8 72 65.3 59.4 54 50.7 47.8 45.6 42.4 41.7 39.6 35.1 38.6 39.9 41.2 44 47.2 53.4 59.2 70.7 77.7 83.6 99.4 116.8 131.7 137.9 140 146.5 141.8 148.5 148.6 150.7 151.1 148 142.7 146.2 134 123.6 113.6 100.3 90.4 82.9 71.8 61.7 55.2 45.4 33.9 25.1 17.7 15.3 15.3 15.3 15.3 15.3 15.3 15.3 15.3 15.3 15.3 15.3 15.3 15.3 15.3 15.3 15.3 15.3 15.3 15.3 15.3 15.3 15.3 15.3 15.3 15.3 15.3 15.3 15.3 15.3 15.3 15.3 15.3 15.3 15.3 15.3 15.3 15.3 30.7 64.4 92.4 128.7 165.5 180.7 182 184.7 182.3 187.5 178.9 177.1 186.2 203.9 212.4 214.3 217.4 220.6 218.7 213.3 201.2 183.5 177.1 177.1 177.1 184.8 193 202.8 209.1 211 208.6 209.8 216.2 219.4 218.8 218 218.1 216.6 226.7 219.8 209.2 201.7 197.3 191.3 189.8 193.1 190.4 190.4 182.3 184.4 180.2 176 174.4 171.9 176.5 178.1 176.2 171 170.5 170.4 170.5 170.2 170.5 171.8 171.9 170.4 170.3 170.3 169.5 169.3 167.9 165.6 164 162.7 165.6 165.1 170.5 170.3 170.3 170.3 168.9 168.9 172.9 182.4 183.9 179.9 180.9 184.9
262.8 264.5 276.2 284.4 303.8 313.1 324.3 328.5 324.1 301.8 290 283.5 275.9 242.4 207.5 176.5 158.5 139.6 124.2 114.1 110.4 105.8 101.4 93.1 89.8 87.6 86.4 79 71.2 63.4 57.5 52.8 51.5 49.1 44.5 41.1 39.8 35.6 36.7 38.7 39.8 43.9 46.3 49.1 52.9 55.6 59.2 66.5 80.6 95 107.1 116.9 123.3 128.2 128.8 128.5 133.4 134.6 135.6 130.1 120.7 121.5 117 108 97.7 81.1 71.5 63 56 45.9 36 27.6 21.4 15.3 15.3 15.3 15.3 15.3 15.3 15.3 15.3 15.3 15.3 15.3 15.3 15.3 15.3 15.3 15.3 15.3 15.3 15.3 15.3 15.3 15.3 15.3 15.3 15.3 15.3 15.3 15.3 15.3 15.3 15.3 15.3 15.3 15.3 15.3 15.3 15.3 15.3 25.6 49.3 78 108.1 135.7 149.9 152.1 160.5 172.9 172.9 175.3 171.6 174.3 188 211.1 217.1 215.1 217.6 219.3 211.2 201.3 189.8 181 177.1 177.1 177.1 184.3 193.4 201.3 205.6 205.8 202.4 205.3 225.2 224.5 219.8 216.4 215.8 215.1 219.9 226.1 209.5 207.6 202.6 195 189.8 186.3 184.3 183.7 183.7 183.3 183.7 183 181.5 188.8 189.3 180.9 176.5 172.4 171.1 170.8 170.8 171.4 172.2 173 172.6 171 171 170.4 170.2 170.5 166.9 165.5 164.9 162.9 165.7 165.6 171.3 171 170.5 169.9 169.8 170.8 173.8 179.9 180.6 183.1 184.8 184.8
277.8 283.5 291.7 311.4 323.5 327.7 332.7 333.1 328.9 314.7 311.1 298.7 282.9 265.2 230.4 194.6 172.2 154.5 144.1 136.7 129.9 122.4 113.7 112.9 108.6 98.4 91.5 83.2 76.2 67.4 61.5 58.9 56.5 52.4 47.2 40.8 39.5 38.4 35.1 38 39.5 44.1 46.2 47.4 48.5 48.7 49 51.9 54 67.3 79.9 95.1 104.2 108.3 109.4 110.2 112.5 115.7 117.2 110.3 102.4 95 91.4 85.6 75.9 63.8 59.2 48.7 38 28.9 22.6 16.7 15.3 15.3 15.3 15.3 15.3 15.3 15.3 15.3 15.3 15.3 15.3 15.3 15.3 15.3 15.3 15.3 15.3 15.3 15.3 15.3 15.3 15.3 15.3 15.3 15.3 15.3 15.3 15.3 15.3 15.3 15.3 15.3 15.3 15.3 15.3 15.3 15.3 15.3 21.2 33.8 61 86.5 118.6 132.2 145.8 156.2 161 164.7 165.1 167.2 168.7 174.8 192.3 224.6 227.5 218.3 214.3 211.3 206.5 196.4 186.8 177.9 177.1 177.1 177.1 182.1 187.2 195.8 198.3 196.7 197.9 201.7 214.6 213.9 219.5 221 212.7 217.5 220.7 216.4 209.1 215.7 210.5 203.8 202.2 196 187 185.5 185.4 190.4 189.9 193.9 196.3 189.8 187.3 182.9 179.7 173.8 171.9 171.6 171.9 173.1 173.8 173.7 173.3 172.7 172.4 171.3 170 168.2 166.4 165.3 164.2 162.8 164.6 166.3 172.1 172 171.7 171.5 171.9 174.9 178 182.2 185.4 184.9 185.4 185.5
302.3 306 304.4 320.8 337.7 342.1 343.8 346.3 346.3 327.9 321 312.4 293 272.5 250.8 220.7 185.7 169.9 161.1 152.6 144.2 138.4 132.4 125.2 118.6 109.1 98.9 89.8 82.1 75.6 70.4 69 64.3 59.2 51 43.7 39.2 38.1 33.4 38.2 40.5 44.3 47.6 49.2 47.2 47.3 45.4 44 42.9 48 54.1 70.8 80.8 90.4 93.6 91.6 89.7 90.8 87.5 83.9 79.8 71.4 66 62.4 59.6 51.4 40.7 32.1 26.1 20.4 15.3 15.3 15.3 15.3 15.3 15.3 15.3 15.3 15.3 15.3 15.3 15.3 15.3 15.3 15.3 15.3 15.3 15.3 15.3 15.3 15.3 15.3 15.3 15.3 15.3 15.3 15.3 15.3 15.3 15.3 15.3 15.3 15.3 15.3 15.3 15.3 15.3 15.3 15.3 22.8 38.1 47.9 60.7 97.1 121.5 136.1 147.4 158.7 160.9 160.4 161.8 166 170.5 179.8 198.8 222.6 224.3 223.9 216.5 210.8 212 201 187 177.1 177.1 177.1 177.1 177.1 180.5 187.6 190.8 192.1 193.3 198.4 204 202.2 206.1 209.7 209 217 225 216.6 212.9 226.9 217.6 208.7 202.9 202.4 190.8 190.3 194.6 202.8 196.4 192.6 191.4 184.8 184 182.2 178.8 174.6 173.2 173.2 173.5 174.2 175.1 174.3 173.9 173.6 172.9 170.5 168.5 167.4 167.1 165.4 163.8 163.7 164.9 166.7 172.9 172.9 173.3 174.3 175 178.1 182 188.6 186 184.7 185.2 185.8
316.2 315.7 314.4 327.5 340 353.4 352.6 351.1 347.8 333.3 331.5 324.3 301 282.6 269.1 248.7 214.2 186.2 177.5 171.5 162.8 154.3 145.2 136.8 130.2 123.3 115.1 106.2 96.8 89.2 83.8 79.5 73.9 65.2 56.4 48.4 42 38.9 34.9 33.2 39 43.5 47.9 50.6 46.7 45.3 44.2 42.6 40.5 40.9 43.1 48.1 58.4 68.7 74.2 74.1 72.1 71 66.1 65.4 59.6 53.8 51 46.1 40.4 33.7 28.8 23 17.7 15.3 15.3 15.3 15.3 15.3 15.3 15.3 15.3 15.3 15.3 15.3 15.3 15.3 15.3 15.3 15.3 15.3 15.3 15.3 15.3 15.3 15.3 15.3 15.3 15.3 15.3 15.3 15.3 15.3 15.3 15.3 15.3 15.3 15.3 15.3 15.3 15.3 15.3 16.9 25.6 37.2 57.9 67.1 88.9 118.1 124.5 129.9 144.3 152.4 162.8 178.4 173.4 168.3 171.5 183.8 204.5 215.3 215.2 211.3 207.8 201 192.8 181.4 177.1 177.1 177.1 177.1 177.1 177.1 177.1 178.5 182.3 185.4 186.3 192.6 196 196.9 203.5 202.3 201.6 200.4 209.4 214.6 208.9 212.8 209.6 201.3 199.2 199.4 204.4 219.3 217 206 195.2 188 184.6 183.4 181.2 178.9 178.2 176.3 174.6 175.2 175.8 176.4 175.8 175.1 174.7 174.4 170.2 168.8 168.4 168.1 167.8 166.9 164.2 167 167 171.1 173.8 174.3 176.1 177.4 178.2 181.1 185.4 186 184.2 184.4 185 185.7
325.5 325.9 329.1 336.4 343.6 350.7 355.2 350.8 343.9 338.7 341.5 340.8 326.5 319.5 296 268.7 235.6 215.7 198.9 189.8 177 172.1 170 155.6 144.3 138.8 132.2 124.4 116 107.2 100.9 93.1 82.3 72.8 63.3 53.8 48.9 44.1 39.4 32.8 30.3 36.8 44.6 48.8 46.3 44.1 43.2 41.2 39.4 38 38.1 37.7 43.5 50.1 56.1 57.9 57.4 55.4 51 49.4 44.7 38.3 32.9 31.5 28.7 25.5 21.2 15.3 15.3 15.3 15.3 15.3 15.3 15.3 15.3 15.3 15.3 15.3 15.3 15.3 15.3 15.3 15.3 15.3 15.3 15.3 15.3 15.3 15.3 15.3 15.3 15.3 15.3 15.3 15.3 15.3 15.3 15.3 15.3 15.3 15.3 15.3 15.3 15.3 15.3 15.3 15.7 25.6 35.4 56.3 75 104.4 132 146.1 145.8 147.7 162.4 169.8 185.4 188.7 187.3 179.4 174.8 184.3 196.3 208.6 213.3 215.5 212.7 200.8 185.1 177.1 177.1 177.1 177.1 177.1 177.1 177.1 177.1 177.1 177.1 177.1 179.8 185.6 189.6 194.4 193.9 197.1 200.4 195.2 197.1 204.8 203.2 204.3 209.8 201.7 202.9 214 221.5 220.1 205.4 194.2 188 187.5 185.6 183.3 183.3 181.9 177.1 175.5 175 175.6 176.2 176.9 176.7 176.2 175.6 175.4 170.5 168.9 168.9 168.8 168.5 166.9 164.8 166.7 166.9 174.3 174.6 176.1 178.6 180.4 181.7 182.9 184 184.8 184.9 184.9 185.3 186.5
332.5 336.6 338.3 346.6 348.1 354.5 359.3 354.4 349.6 345.5 349.7 349.1 344 339.8 322.5 289.7 260.6 235.8 220.4 209.5 201.6 193.2 192.4 179.5 164.9 157 150 144.2 136.7 125.1 117.1 107.9 99 84.4 70 58.5 54.5 49.7 45.7 39.7 29 27.1 37.8 41.4 42.2 39.8 38.9 39.7 38.8 35.6 34.5 33.1 31.8 32.2 39.8 42.5 43.5 42.4 40.3 35.9 32.7 30.4 28.5 25.7 20.6 17.8 15.3 15.3 15.3 15.3 15.3 15.3 15.3 15.3 15.3 15.3 15.3 15.3 15.3 15.3 15.3 15.3 15.3 15.3 15.3 15.3 15.3 15.3 15.3 15.3 15.3 15.3 15.3 15.3 15.3 15.3 15.3 15.3 15.3 15.3 15.3 15.3 15.3 15.3 15.3 15.3 27.7 44.4 59.9 75 109 131.4 150.6 158.4 158.5 159.5 168.9 186.2 191 192.6 195.2 187.7 178.4 185.9 197.9 206.4 206.1 206 200.8 198.9 194.7 179.4 177.1 177.1 177.1 177.1 177.1 177.1 177.1 177.1 177.1 177.1 177.1 177.1 182.3 183.8 183.3 187.2 190.5 184.3 181.5 186.4 191.6 196.2 201.4 201.2 204.2 210.8 208.7 197.2 187.6 186.3 186.6 186 185.3 184.2 182.7 180 178.5 175.5 175.4 176.1 176.7 177.4 177.3 177 176.6 176.4 170.8 169.5 169 169.1 169.2 165.8 166.4 166.9 171.5 175 174.9 178.1 180.5 182.9 184.7 185.1 185.3 185.8 185.8 186.4 186.8 187.4
345.2 351.2 349.1 358.9 357 359.8 362.6 362.9 360.8 358.8 353.5 352.5 349.9 346.2 344.3 323.5 292.1 264.6 245 231.9 221.4 214.9 206.1 197.6 186.3 175.5 169 162.8 153.9 144.4 133.9 122.6 116.4 102.5 85.8 71.5 61.4 55.8 52.1 47.4 40.2 27.3 19.3 23.1 32.1 34.7 35.5 37.3 34.7 33 32.4 32.1 31.3 30.9 26.9 27.9 29.9 31.4 30 27.9 25.1 23.7 18.7 18.2 15.8 15.3 15.3 15.3 15.3 15.3 15.3 15.3 15.3 15.3 15.3 15.3 15.3 15.3 15.3 15.3 15.3 15.3 15.3 15.3 15.3 15.3 15.3 15.3 15.3 15.3 15.3 15.3 15.3 15.3 15.3 15.3 15.3 15.3 15.3 15.3 15.3 15.3 15.3 15.3 15.3 24.9 43.6 57.2 69.1 90.7 120.7 145.6 161.4 161.1 167.9 169 188.9 191.6 185.7 181.1 178.7 177.7 177.7 184.6 197.9 209.2 208.6 202.1 199.2 200 195.2 178.7 177.1 177.1 177.1 177.1 177.1 177.1 177.1 177.1 177.1 177.1 177.1 177.1 177.1 179.6 179.2 179.2 179.9 178.8 178 180.8 184.5 190.5 195.4 197.3 199.7 201.5 196.6 188.7 185.6 185.9 186.2 185.9 185.3 184.5 183.7 183.1 180.5 177 175.9 176.6 177.2 177.9 178 177.6 177.5 177.4 171.1 170.5 170 169.9 166.8 167.2 167.8 168.4 175.6 177.2 178.1 180.3 183.1 185.4 186.6 187.1 187.4 187.6 188.8 189.8 189.7 188.8
372 377 372.8 371 364.2 364.6 369 366.6 367.7 366.2 362.9 362 362.9 358 362.6 367 355.1 302.9 270.7 253.9 238.5 229.1 222.1 211.3 203.1 198.3 190.3 180.4 169.5 160.4 147.8 136.6 126.8 115.3 99.8 87.1 74.6 64.4 59.2 54 47.6 42.9 34.4 23.9 16.6 22.7 28 32.6 31.1 28.6 25.3 22.1 23.6 20.5 19.6 22.1 23.2 22.3 22.3 19.1 16.5 15.7 15.7 15.3 15.3 15.3 15.3 15.3 15.3 15.3 15.3 15.3 15.3 15.3 15.3 15.3 15.3 15.3 15.3 15.3 15.3 15.3 15.3 15.3 15.3 15.3 15.3 15.3 15.3 15.3 15.3 15.3 15.3 15.3 15.3 15.3 15.3 15.3 15.3 15.3 15.3 15.3 15.3 15.3 27.2 45.8 58.1 68 82.9 104.9 131.8 142.4 149.9 156 160 167.3 179.1 182.6 182.4 177.9 177.7 177.7 177.7 192.4 206.1 215.8 220.7 217.7 211.5 200.9 189.5 178.5 177.1 177.1 177.1 177.1 177.1 177.1 177.1 177.1 177.1 177.1 177.1 177.1 178.2 184.9 188.1 189.7 185.8 178.7 178 179.6 182.7 185.9 190.1 192.5 193.4 190 188.6 185.5 185.6 186 186 186 185.8 185.5 185 183 184.2 175.5 177 177.3 177.7 178.4 178.6 178.3 178.3 178.2 172.4 170.8 170.6 170.3 167.9 167.8 168.5 172.3 176.4 178.7 181.6 183.8 185.2 186.5 187.7 188.7 189.7 190.7 191.1 191.3 192.1 191.1
396.7 396 384.7 378 368 370 370 367.6 371 371.9 370.7 370.2 371 365.7 366.8 370.5 368.1 344.5 302 279.7 262.7 250.6 239.8 230.9 223.1 216.9 207.7 197.6 187.2 174.3 160.3 147.9 138 123.4 114 104.8 90.4 76.2 67.1 61.8 56.7 50.9 46.5 44.2 39.3 23.1 16.9 19.6 21.8 21.5 20.9 20.7 19.2 19 19.8 18.9 18.9 18.2 17.6 17 16 16 15.9 15.3 15.3 15.3 15.3 15.3 15.3 15.3 15.3 15.3 15.3 15.3 15.3 15.3 15.3 15.3 15.3 15.3 15.3 15.3 15.3 15.3 15.3 15.3 15.3 15.3 15.3 15.3 15.3 15.3 15.3 15.3 15.3 15.3 15.3 15.3 15.3 15.3 15.3 15.3 15.3 17 44.2 58.7 60.6 72.3 91.2 105.6 123.6 143 152.4 160.5 163.9 175.4 182.5 183.3 180.9 178.6 177.7 177.7 183.4 201 216 219.2 224.5 222.5 219.1 197.2 186.5 179.3 177.1 177.1 177.1 177.1 177.1 177.1 177.1 177.1 177.1 177.1 177.1 177.1 179.3 185.3 192.2 187.4 180.7 179 178.1 178 180.8 182.6 185.3 185.2 184.1 183.4 183.3 184 184.5 185.5 185.8 185.8 185.8 185.9 185.1 181.5 178.4 177.8 177.9 178.4 178.7 179 179.2 178.8 179.1 178.9 176.3 172.1 171.3 169.3 168.3 168.6 169.9 174.6 178.1 180.5 184 186 186.5 187.6 188.7 189.7 190.7 191.7 191.4 192.3 193.2 193.3
404.5 398.3 388.1 375.4 368.2 368.7 368.6 370.8 375 376.5 376 376.2 374.7 370.8 368.5 369 365.2 356.8 343.4 346 291.5 272.9 260 253.3 244.6 234.6 225.9 216.4 205.2 192.1 179.4 166.7 153.6 140.4 130.5 119.4 108.3 92.3 80.8 73.7 67.1 61.3 54.5 51.9 45 39.6 25.5 20.8 17.1 19.4 20.7 20.2 20.6 20.2 19.5 18.4 17.6 15.3 16.5 16.1 15.3 15.3 15.3 15.3 15.3 15.3 15.3 15.3 15.3 15.3 15.3 15.3 15.3 15.3 15.3 15.3 15.3 15.3 15.3 15.3 15.3 15.3 15.3 15.3 15.3 15.3 15.3 15.3 15.3 15.3 15.3 15.3 15.3 15.3 15.3 15.3 15.3 15.3 15.3 15.3 15.3 15.3 17.5 29.7 48.7 57.4 64.7 77.7 99.2 118.7 136.2 150.7 153.6 162.9 170.9 180.7 185.8 187.1 182.6 179.3 180.3 181.8 191.9 207.2 222.5 221.8 225.7 220.5 207.1 194.6 189.8 185.8 178.7 177.8 177.1 177.1 177.1 177.1 177.1 177.1 177.1 177.1 177.1 177.1 177.1 183.1 187.7 183.1 181.6 180.1 180.8 179.9 178.8 179.8 182 182.1 182.2 182.8 183 183.5 184.6 185.2 185.5 185.6 183.8 182 179.8 178.8 177.9 177.9 178.6 179.5 180.3 180.3 180.2 179.6 180 179.3 175.9 173.1 172.2 169.7 168.7 170.2 174.7 177.4 180.4 183.5 186 187.4 187.7 188.7 189.7 190.8 191.8 192 192.4 193.5 194.5 195.1
403.2 395.1 388.1 376 373.4 370.5 372.8 379.3 381.2 381.5 382.8 381.8 382.6 382.1 371.4 369.7 368.7 363.3 368.8 373.5 359.3 299.9 280.7 274.2 262.5 251.2 244 236.2 225.6 214.7 202.7 188.8 176.7 167.8 151.8 134.9 123.5 110.2 98.4 86.7 78.6 70.2 64.6 58.1 48 42.2 33.9 26.8 19.6 17.1 17.4 18.6 18.9 18.4 17.9 17.3 17.1 15.3 15.3 15.3 15.3 15.3 15.3 15.3 15.3 15.3 15.3 15.3 15.3 15.3 15.3 15.3 15.3 15.3 15.3 15.3 15.3 15.3 15.3 15.3 15.3 15.3 15.3 15.3 15.3 15.3 15.3 15.3 15.3 15.3 15.3 15.3 15.3 15.3 15.3 15.3 15.3 15.3 15.3 15.3 15.3 16.8 23.8 41.4 55 66.1 77.1 91 106.9 127.4 139.8 143.4 147.3 160 170.9 178.5 180.8 185.2 188.1 183.2 183.1 188.9 202.3 209.9 221 221.1 219.6 213.1 208.8 206.1 199.9 191.9 189.3 188.8 186.7 180.1 177.1 177.1 177.1 177.1 177.1 177.1 177.1 177.1 177.8 182.2 185.7 188.5 192.3 192.7 192.6 190.8 189.9 183.8 179.6 179.3 181.9 182.4 183.3 184.2 185.9 187.2 187.1 188 188.6 187 183.1 179.7 177.9 177.9 179.2 180.3 180.7 181 181 180.9 181 179.9 175.1 173.2 172.8 171.2 170 173.2 177.3 179.6 184.1 186.4 188.4 188.9 189.1 189.7 190.8 191.8 192.7 193 193.5 194.7 196 196.6
404.2 396.5 391 383.8 380.3 380.4 383.5 386.2 388 386.6 389 394 394.6 388.9 379.8 380.8 376.9 381.6 386.2 387.4 380.7 341.3 305.7 296.7 280.7 267.8 262.6 255.9 248 239.8 226 217.2 202.8 190.5 177 162.4 147.7 131.2 116.1 104.3 92.6 79.4 69.5 60.4 49.4 43.7 37.8 33.3 32.2 20.4 17.1 17.1 17.1 17.1 17.1 17.1 17.1 16.7 15.3 15.3 15.3 15.3 15.3 15.3 15.3 15.3 15.3 15.3 15.3 15.3 15.3 15.3 15.3 15.3 15.3 15.3 15.3 15.3 15.3 15.3 15.3 15.3 15.3 15.3 15.3 15.3 15.3 15.3 15.3 15.3 15.3 15.3 15.3 15.3 15.3 15.3 15.3 15.3 15.3 15.3 18.2 28 31.7 35.6 59.3 70.8 78.3 91.2 106.3 122.8 131.5 134 140.4 149.8 164.1 176.8 186.3 191 192.6 187.2 184.8 189.9 205.3 201.6 207.7 216.7 215.6 215.3 216.7 210.7 209 199.3 198.9 212.3 204.5 195.1 183 177.1 177.1 177.1 177.1 177.1 177.5 180.6 190.6 195.1 197 203.2 200.7 199.9 194.5 191 190.2 183.9 183.3 183.2 183.3 183.3 185.8 188.2 191.1 194.9 196.8 198.4 197.1 194.1 188.5 181.4 182.9 184 186.2 188.2 187.4 181.8 181.7 181.6 181.8 179.6 175.6 173.7 173.4 172.1 170.5 174.6 177.7 182.2 186.1 187.8 189.3 189.5 190.3 191 191.7 192.7 193.8 194.1 194.7 195.9 197.2 198.4
405.9 401.8 400.1 394.5 387.6 391.7 391.8 392.8 394.7 392.5 393.9 399.3 401.1 397.2 395.8 393.9 391.6 403.3 400.4 404.3 400.2 378.9 340.9 319.6 304.5 292.5 288.1 280.7 274.2 263.1 249.4 244.4 231.1 214.6 203.2 191.3 178.1 163.8 145 126.7 109.4 93.4 78.5 65.5 53.9 45.5 39.9 34.1 32.7 32.4 28.2 19.9 17.1 17.1 17.4 22.6 19.9 15.3 15.3 15.3 15.3 15.3 15.3 15.3 15.3 15.3 15.3 15.3 15.3 15.3 15.3 15.3 15.3 15.3 15.3 15.3 15.3 15.3 15.3 15.3 15.3 15.3 15.3 15.3 15.3 15.3 15.3 15.3 15.3 15.3 15.3 15.3 15.3 15.3 15.3 15.3 15.3 15.3 15.3 18 34.5 49.9 64.3 65.9 67.7 73.1 79.9 87.5 102.3 117.5 125.6 130.1 139 152.2 163.5 171.9 180.5 186.6 187.9 185.6 185.7 188.5 199 198.7 200.8 210.6 217.3 226.3 221 212.5 204.7 202.1 208.3 217.4 218.9 205.3 192.4 180.7 178.1 177.1 177.1 185.5 189.1 190.5 195.1 206.1 209.2 211.4 205.2 199.2 194.7 191.4 189.7 189.1 188.6 186.1 186.4 187.8 196.3 203.4 208.9 211.9 212.5 210.7 206.3 198.7 192.2 187.6 189.5 193.3 193.1 192.9 184.5 182.8 182.9 182.4 181.4 175.8 172.1 172 171 172.1 173.5 176.6 178.7 185.4 187.4 189 189.9 190.9 191.7 192.4 193.1 193.8 194.6 195.3 195.9 197.2 198.6 200.1
409 408.6 408.4 399.7 399.8 401.8 401.3 399.9 400.8 399.1 399.5 401.3 406.5 409.6 405.5 409.2 412.2 414.4 413.6 414.6 413 411.1 401.8 360.1 331.9 323 318.6 312.7 305.4 297.7 279.1 268.6 254.5 240.6 230.5 217.7 204.3 190.7 172.8 157.5 131.3 105 87.8 73.4 60.3 52.4 45.7 37.8 32.5 32.6 32.4 31.8 31.3 30.4 28.4 17.5 15.3 15.3 15.3 15.3 15.3 15.3 15.3 15.3 15.3 15.3 15.3 15.3 15.3 15.3 15.3 15.3 15.3 15.3 15.3 15.3 15.3 15.3 15.3 15.3 15.3 15.3 15.3 15.3 15.3 15.3 15.3 15.3 15.3 15.3 15.3 15.3 15.3 15.3 15.3 15.3 15.3 15.3 15.3 31.4 46.8 67.3 76.5 94.8 94.8 95.1 98 94 102.4 115.1 119.1 125.9 138.4 149.7 156 165.9 174 181.1 184.6 183.5 183.5 186.9 200.3 196.7 195.3 211.6 220.6 222.5 219.4 208.5 203.3 209.8 223.6 229.2 226.1 212.3 192.9 181.4 178.3 177.3 178.1 190.2 192.6 195 203.2 211.1 210.8 209.2 205 200.6 204.7 205.2 202.8 201.3 195.7 188.9 190.6 199.4 212.9 221.1 226.1 226.4 223.1 219.5 211.4 202.8 194.4 188.6 191.2 200 200.1 190 183.9 184 184.1 183.5 175.7 174.7 172.2 171 169.8 170.6 176.3 179.1 181.2 187.6 189.3 191.5 191.3 192.5 193.2 193.9 194.5 195.2 195.9 196.6 198 199.6 201.3 203.5
409.5 411.1 411.6 405.5 407 408.8 409 408.6 407.3 403.8 404.3 410.6 419.3 417.8 420.5 423 422.9 424.7 425.6 426.6 419.9 417.8 415.7 406 383.2 381.9 386.9 356.6 332 321.3 312.1 301.9 282.8 265.6 257.9 244.7 232.2 216.7 197.7 178.2 149.7 123.9 99 82.5 71.1 64.9 58.5 54.1 36.7 32 31.6 30.9 30 23.9 18.7 15.7 15.3 15.3 15.3 15.3 15.3 15.3 15.3 15.3 15.3 15.3 15.3 15.3 15.3 15.3 15.3 15.3 15.3 15.3 15.3 15.3 15.3 15.3 15.3 15.3 15.3 15.3 15.3 15.3 15.3 15.3 15.3 15.3 15.3 15.3 15.3 15.3 15.3 15.3 15.3 15.3 15.3 15.3 32.6 54 64.7 77 91.6 101.2 109.5 108.2 101.5 100.9 101.6 109.2 120.9 128.7 132.3 142.8 154.4 159.4 169.4 179 187.5 187 179.2 178.9 186.7 189.8 185.9 201.5 214.5 216.5 213.2 207.2 203.7 217.1 224.6 227.5 227.3 209.6 193.1 183.9 178.8 178.5 179 188.5 199.6 200.3 204.4 209.7 208.9 208.3 209.2 213.3 218.5 221.3 216 209.2 196.7 189.1 194.1 206.9 222.3 230.7 235.3 232.9 224.9 218.5 213 205 192.8 189.8 192.2 193.3 192.1 186.1 184.7 185.7 185 184.3 175 175.9 173.8 172.4 172.3 174.8 177.6 179.7 184.5 189.5 191.5 192.7 193.2 194.4 195.2 195.9 196.6 197.4 198.1 199.1 200.6 202.5 204.2 207.5
417.1 414.7 414.9 414.8 415.5 415.3 413.4 413.4 415.3 410.5 411.9 418.7 430 429.3 431.5 433.6 431.3 433.7 435.2 434.3 428.5 427.8 426.2 416.3 406.2 407.8 417.8 410.4 368.7 345.9 335.2 323.3 306.5 292.3 281.7 265.8 253.5 237.8 221.2 200.9 172.2 144.8 116.6 92.2 80.4 74.2 73.9 64.8 45.2 32.9 30.6 30.3 21.6 18.5 17.1 15.3 15.3 15.3 15.3 15.3 15.3 15.3 15.3 15.3 15.3 15.3 15.3 15.3 15.3 15.3 15.3 15.3 15.3 15.3 15.3 15.3 15.3 15.3 15.3 15.3 15.3 15.3 15.3 15.3 15.3 15.3 15.3 15.3 15.3 15.3 15.3 15.3 15.3 15.3 15.3 15.3 15.3 29.6 53.9 68.5 76.1 79.6 89.9 98.5 98.5 98.9 100.4 103.5 113 124.4 135.6 141.2 147.2 146.5 145.6 152.6 165.7 179.2 190.7 184 176.8 175.6 178.1 177.6 173.8 185.5 199.8 205.9 200.5 196.7 205.6 217.2 217.2 217 209.5 195.8 191.3 189.8 179.4 179.9 183.5 185.8 193.3 197.5 200.6 206 208.8 213 221.9 225.4 227.8 231.2 222.2 208.5 195.2 192.2 197.9 212.1 228.5 240.6 241.1 232.6 226.7 220.7 211.7 201.5 191.8 195.3 197.6 194.4 191.2 189.8 189.2 186.6 186.2 176.6 175.1 175.9 175.8 174.3 175.3 177.5 178.3 179.5 187.8 190.9 193 193.7 194.6 195.4 196.9 198.3 199 199.7 200.5 201.7 203.2 205.1 207.7 211.4
420.1 419.2 420.6 422.9 421.7 421.5 420.1 422.9 421.8 419.9 422.3 424.6 428.4 429 433.6 437.6 437.3 440.5 443.7 444.1 436.6 435 431.4 424.8 419.1 418 424.3 423.2 411.2 379.7 359.4 348 335.4 320.8 307 288.8 271.1 255.3 235.7 217.6 186 159 127.9 103.2 87.2 78.9 71.4 65.7 52.4 34.4 30.6 23.2 15.3 15.3 15.3 15.3 15.3 15.3 15.3 15.3 15.3 15.3 15.3 15.3 15.3 15.3 15.3 15.3 15.3 15.3 15.3 15.3 15.3 15.3 15.3 15.3 15.3 15.3 15.3 15.3 15.3 15.3 15.3 15.3 15.3 15.3 15.3 15.3 15.3 15.3 15.3 15.3 15.3 15.3 15.3 15.3 15.3 52.9 66.1 79.2 95.1 104.1 114.7 119.1 115 115.3 111.4 117.9 130.3 141.6 151.5 160.3 165.6 160.1 152 147.6 155.5 169.5 176.3 176.5 174.2 171 168.6 167.1 163.2 173.9 179.6 189.6 188.3 190.8 204.1 214.8 215.7 204.2 194 188.8 189.1 180.2 180.2 184.4 189.2 188.9 191.5 196.7 202.1 212.6 234.9 244.9 238.7 237.8 232.8 231 221 206.6 198.3 197.9 201.8 215.4 229.9 241.1 239.2 238.8 231 220.3 209.4 199 199.7 200.8 199.9 197.4 194.7 196 193 187.3 186.3 174.4 177.1 177.7 177.3 176.5 177.2 178.6 179.5 180.9 189.5 191.5 193.3 194.8 196 197.3 197.9 199.3 200.7 202.1 202.9 204.4 205.8 207.9 211.2 214.9
425.1 424.3 429.5 429.9 426 428.9 430.6 432 430.6 429.3 430.6 430 433.8 438.4 443.6 448.5 450.9 452.1 453.5 452.5 445.8 446 447 439.2 433.1 432.4 439.8 442.5 438.6 426.1 404.9 382 379.1 370.7 342.8 315.4 299.3 277.8 256.4 231.3 195.9 163.2 134.3 106.2 89.3 77.6 66.4 60.1 52.5 34.5 30.1 15.3 15.3 15.3 15.3 15.3 15.3 15.3 15.3 15.3 15.3 15.3 15.3 15.3 15.3 15.3 15.3 15.3 15.3 15.3 15.3 15.3 15.3 15.3 15.3 15.3 15.3 15.3 15.3 15.3 15.3 15.3 15.3 15.3 15.3 15.3 15.3 15.3 15.3 15.3 15.3 15.3 15.3 15.3 15.3 15.3 19 66.8 83.7 99.5 118.8 124.8 128.3 126.8 132.2 124.6 125 137.9 153.3 163.3 171.4 182.6 184.7 174.2 157.7 148.7 151.5 160.9 165.8 170.3 169.8 167.2 161.8 158.9 161.7 168.3 173.9 177.9 183 192.7 196.7 202.9 205.4 196.7 186.2 181.4 179.4 181.9 190.5 193.1 191.8 189.4 200.4 206.6 223 240.2 253.5 261 254.2 247.3 238.4 230.7 218.4 205.5 199.2 199.5 206 219.2 235.7 249.2 241.3 235.4 227.6 216.3 204.6 201.6 205.3 205.2 202.3 201.1 201.3 203.1 197.1 189.1 186.1 174.8 178.2 179 178.6 178.1 178.2 178.9 180 184.4 191.2 192.8 194.3 196.3 197.8 198.8 199.4 200.3 202 203.2 204.9 206.6 208 211.1 215.7 220.6
429.7 428.9 433.5 437.6 437.9 439.2 439.3 440.8 438.2 436.4 435.6 434.6 438.6 445.3 451.4 454 460.4 463 462.3 460.1 452.8 456.3 463.8 459.4 450.1 445.1 448.9 454.7 458.1 453.9 438.3 423.8 425.3 423.5 400.3 366.5 329.2 297 266.6 237.2 201.6 165.8 135.7 109.7 93.5 84.5 72 59.2 46.2 33.8 23.6 15.3 15.3 15.3 15.3 15.3 15.3 15.3 15.3 15.3 15.3 15.3 15.3 15.3 15.3 15.3 15.3 15.3 15.3 15.3 15.3 15.3 15.3 15.3 15.3 15.3 15.3 15.3 15.3 15.3 15.3 15.3 15.3 15.3 15.3 15.3 15.3 15.3 15.3 15.3 15.3 15.3 15.3 15.3 15.3 15.3 53.4 87.1 102.1 123.6 139.1 143.6 139.1 136.1 141.2 144.6 148.4 164.1 175.4 180 187.6 201.8 200 182.3 166.1 151.3 149.6 157.4 158.1 161.9 163.9 162.4 158.9 158.3 159.9 165.8 173 182 200.4 212.9 215.3 210.2 201.8 197 183.9 179.1 180.8 187.8 199.6 201.4 203.1 205.3 215.8 251.8 272.2 274.8 265.2 270.2 262.1 251.7 241.3 226.9 213.5 205.6 202.1 200.8 210.1 222.9 237.2 240.9 232.1 229.7 219.8 208.9 207.9 208 211.2 209.8 208.6 210.5 210.3 203.4 197.2 191.4 187 179.7 178.6 179.3 179.6 179.1 178.5 179.2 181.6 187.9 192.3 194.3 195.9 197.9 199.4 200.8 201.1 201.6 202.8 204 205.9 208.2 210.9 216.9 221.1 226.2
435.7 434.9 438.4 439.1 439.7 439 440.1 444.6 443 441.4 439.4 438.2 443.4 451.1 462.3 473.1 470.7 468.4 465.2 459.2 456.9 459.1 460.8 459.9 454 452.3 460 465.4 469.4 467.7 461.4 448.8 436.4 432.9 428.4 408.6 353.4 308.2 273.6 242.3 208 166.9 145.5 114.8 102.1 94 80.7 66.3 49.9 34.9 25.1 15.3 15.3 15.3 15.3 15.3 15.3 15.3 15.3 15.3 15.3 15.3 15.3 15.3 15.3 15.3 15.3 15.3 15.3 15.3 15.3 15.3 15.3 15.3 15.3 15.3 15.3 15.3 15.3 15.3 15.3 15.3 15.3 15.3 15.3 15.3 15.3 15.3 15.3 15.3 15.3 15.3 15.3 15.3 15.6 41.2 79.4 100.4 124.9 142.4 152.8 156.4 155.3 154.9 155 156.1 174.3 184.5 194.5 193.8 200.4 205.9 196.8 183.3 173 160.8 152.6 155.2 156.3 157.2 158 158.7 158.8 158.4 157.9 163.8 176.5 191.7 212.2 220.1 225.3 210.2 202.4 191.4 181.3 178.2 180.7 190.8 199.6 209.2 220.4 222.7 254 287.5 291.1 287.1 267.8 252.9 248.4 247.1 235.6 221.8 216.5 214 212.6 205.8 211.9 219.1 225 228.3 222.4 218.9 213.5 212.6 217.9 217.2 213.7 210.2 209 213.5 209.3 200.5 194 192.2 186.1 182.5 179.2 179.8 180.4 180 179.1 181 183.7 189.4 193.6 196 197.7 199.4 201 202.2 202.9 203.9 204.5 205.1 206.8 209.3 215.6 221 226.4 229.2
439.9 440.4 440.4 439 440.9 445.2 451.3 451.7 447.6 446 444.9 448 453.7 468 482 482.6 478.1 470.6 462.4 457.5 456 456.7 456.3 455.8 451.3 458.4 467.2 471.1 470.9 465 456.8 447.9 443.1 440.2 436 417.9 348.1 308.1 274 240.8 205.6 172.3 151.1 125 111.1 100.7 86.3 70.5 53.2 39.8 25.2 15.4 15.3 15.3 15.3 15.3 15.3 15.3 15.3 15.3 15.3 15.3 15.3 15.3 15.3 15.3 15.3 15.3 15.3 15.3 15.3 15.3 15.3 15.3 15.3 15.3 15.3 15.3 15.3 15.3 15.3 15.3 15.3 15.3 15.3 15.3 15.3 15.3 15.3 15.3 15.3 15.3 15.3 15.3 48.3 67.9 96.7 116.5 140 151.8 157.9 160.1 164 162.5 165.5 175.5 187.8 194.2 199.2 209.8 216.1 213.8 197.3 188.1 181.8 168.7 156.7 155.9 155.4 155.1 154.8 156.7 159.2 158 158.1 165.9 181.3 196.7 206.3 220 217.3 206.5 190 183.4 178.9 179.9 183.5 191.4 202.3 212.2 230.1 242.4 271.7 296 304.5 280.1 258.8 246.9 237.2 236.9 226.3 219.3 220.9 220.6 215.5 209.4 210.1 211.2 215.2 218.6 218.8 219.2 217.3 234.9 228.2 219.2 215.8 213.1 210 205.6 200.4 195.5 194.8 190.7 185.5 182.1 178.7 180.7 181.4 181.7 181.3 182.2 187.5 192 194.7 197.5 199.4 201.1 202.4 203.6 204.7 205.6 206.8 207.5 207.9 210.7 213.2 217.6 222.8 227.9
440.7 440.9 441 439.2 442.5 448.3 448.9 449 447.9 448 453 458.3 467.4 483 487.8 485.6 480.1 472.3 460.4 456.3 453.9 452.6 450.6 450.4 452.4 458.2 470 468.6 461.3 455.4 449 444.3 442.9 437.7 430.1 406.8 345.7 309.8 274 243.6 212.6 183.8 156.1 133.6 117 102.2 88.6 71.7 56.3 41.2 28 15.3 15.3 15.3 15.3 15.3 15.3 15.3 15.3 15.3 15.3 15.3 15.3 15.3 15.3 15.3 15.3 15.3 15.3 15.3 15.3 15.3 15.3 15.3 15.3 15.3 15.3 15.3 15.3 15.3 15.3 15.3 15.3 15.3 15.3 15.3 15.3 15.3 15.3 15.3 15.3 15.3 15.3 31.9 62.9 83.3 111 128.7 147.5 159.5 165.3 168.6 170.4 168.5 174.9 192.9 203 199.8 207.6 218.3 217.3 209.4 201.3 190.6 182 173.4 162.4 161.5 159 157.2 155 156.3 156 156.9 158.3 171.6 189.9 201.2 200.3 211.5 206.2 196.2 189.6 188 182.4 180 186.3 195.8 210 213.2 236.4 254.5 272.4 281 276.9 260.3 252 246.9 229.1 219.1 219 222.1 227.2 226.1 221.7 210.9 209.9 209.9 212.3 217 219.2 222 228.8 231.2 223 220.7 221.7 216.1 210 202.7 197.5 197.1 195.7 188.9 184.3 183.4 177.4 181.6 182.5 183.4 184.2 185.1 190.2 195.1 196.2 198.6 201 202.7 203.8 204.9 206.1 207.3 209.1 209.9 210.6 212 214.3 213.5 215.2 218.7
445 443.7 441.8 440.3 444.2 448 449.3 448.8 449.1 455.7 455.2 465.9 476.4 486.3 487.1 485.1 478.8 471.6 456 453.2 452.6 450.7 447.7 447.6 450 454.9 456.8 453.4 450.4 446.7 442.5 440.5 436.5 430.7 420.5 396.1 345.6 313.4 279.3 251.9 217 185.5 159.7 138.8 120.9 108.7 98 78.4 57.7 39.8 26.1 15.3 15.3 15.3 15.3 15.3 15.3 15.3 15.3 15.3 15.3 15.3 15.3 15.3 15.3 15.3 15.3 15.3 15.3 15.3 15.3 15.3 15.3 15.3 15.3 15.3 15.3 15.3 15.3 15.3 15.3 15.3 15.3 15.3 15.3 15.3 15.3 15.3 15.3 15.3 15.3 15.3 30.2 59.7 82.5 104.8 122 137.8 152.3 160.5 169.4 173.3 180.1 180.8 188.9 205.1 209.3 207.5 210.1 219.4 216.9 210.8 205.6 195.1 188.1 181.3 172.8 175.6 170.3 163.9 157.2 154.9 154.8 154.9 158.6 171.5 186.9 200.8 193.7 194.3 195 199.1 190.7 187 184.2 179.8 188 195.8 206.2 215.2 229.6 249.2 264 266.8 250.8 241.9 236.3 229.5 217.7 217.7 221.4 232.5 231.1 228.2 219.6 210.2 208.5 209.3 211.5 217.7 223.6 228.4 232.7 228.6 226.2 231 224.8 217.6 212 205.5 200.8 197.8 194.5 188 188.1 186 179.2 182 182.8 184.5 185.7 187.4 193.6 197.2 198.5 200.5 202 203.6 204.9 206.2 207.5 209.2 211.3 213 214.2 214.9 215.8 215.2 216.1 216.4
444.8 443.6 441.7 442.8 447.5 450.5 451 448.8 449.7 452 457.4 469.5 479.4 483.2 482.8 478.6 474.1 460.9 449.7 448.5 448.5 445.8 442.7 444.3 445.4 446.7 445.3 443.1 439.1 435.9 433.4 430.5 426.9 421.9 408.8 390.2 345.4 311.9 286.4 259.2 227.8 197.6 165.6 145.3 124.6 109.3 97.4 80.8 60 38.7 24.4 15.3 15.3 15.3 15.3 15.3 15.3 15.3 15.3 15.3 15.3 15.3 15.3 15.3 15.3 15.3 15.3 15.3 15.3 15.3 15.3 15.3 15.3 15.3 15.3 15.3 15.3 15.3 15.3 15.3 15.3 15.3 15.3 15.3 15.3 15.3 15.3 15.3 15.3 15.3 15.3 22.1 57.3 76.9 99.2 116.5 126.1 138.9 147.2 157.8 164.6 169.3 172.4 178.1 190.2 201.4 204.3 206.1 208.9 219.6 219.2 216.5 208.7 201.9 196.7 195.9 195.8 186.5 176.1 167.2 159.2 156.5 154.8 156.6 166.3 176.6 183 191.5 192 193.6 195 194.4 191 188.7 186.2 187.3 191.4 197.8 207.2 215 224.4 237.8 248.7 237.9 222.6 219 217.7 217.7 217.7 217.7 231.8 230.6 224.2 218.4 213.8 209.2 208.4 208 213.3 220.6 226.9 233.7 233.7 229.8 230.2 231 226.9 220.7 214.6 209.2 203.8 199.9 193.4 187.1 188.8 186.8 182.2 182.7 185.4 185.8 186.8 189.2 199.6 198.9 200.6 202.1 203.5 205 206.3 207.7 209.2 211.1 213.6 216.1 218.6 221.8 220.5 220.6 224.4 222.9
442 441.3 440.7 442.2 447.8 455.7 454.6 449.6 451.2 448.8 456.8 467.9 476.6 479.2 476.1 469.5 463.5 450.9 443.7 442.5 440 439.1 436.6 436.7 437.2 436.8 436.6 436.2 431.5 427.5 423.9 420.6 416.8 410.4 401.6 387.8 341.2 309.1 286.5 263.5 241.3 199.9 164.7 145 128.2 112.7 96.2 81.6 58.1 37.7 23.4 15.3 15.3 15.3 15.3 15.3 15.3 15.3 15.3 15.3 15.3 15.3 15.3 15.3 15.3 15.3 15.3 15.3 15.3 15.3 15.3 15.3 15.3 15.3 15.3 15.3 15.3 15.3 15.3 15.3 15.3 15.3 15.3 15.3 15.3 15.3 15.3 15.3 15.3 15.3 15.3 33.9 58.9 73.2 97.5 115.4 129.7 137.5 152.4 161.5 169.5 170.5 169 179.8 185.2 192.8 200.3 205 215.1 220.9 220.1 219.1 218.8 216.6 218.5 210.7 206.5 192.6 180.1 171.7 163.5 159.1 157.2 159.7 173.2 187.6 186.2 192.9 196.8 197.1 195.8 197 199.1 189.7 188.2 189.1 192.5 198.1 205 216.2 223.6 229.4 231.4 219.2 217.7 217.7 217.7 217.7 217.7 220.8 224.8 220.5 218.5 214 209.7 209.8 211.3 213.3 222.9 226.1 229.1 234.7 235.6 232.4 234 234.7 232.3 225.3 219 211.4 206.2 200.2 193.1 189.4 191.9 193.5 184.1 182 186.6 186.9 187.8 190.9 201.7 200.8 202.3 203.8 205.2 206.6 208 209.6 211.1 213 214.8 217.2 219.6 223.5 225.5 227 225.2 219.4
441.4 439.4 439.6 440.5 445.7 452.8 450.9 447.2 446 444.5 451.7 462.8 470.7 473.8 468.4 459.2 451.6 441.5 435.9 432.8 430.7 430.2 429.4 429 429.7 431 429.7 428 425.3 422.7 419.5 415.6 409.2 402.6 394.1 384.6 340.4 307.3 283.8 264.7 240.4 185.4 158.8 139.6 125.3 109.1 93.8 81.7 58.9 36.1 24.1 15.3 15.3 15.3 15.3 15.3 15.3 15.3 15.3 15.3 15.3 15.3 15.3 15.3 15.3 15.3 15.3 15.3 15.3 15.3 15.3 15.3 15.3 15.3 15.3 15.3 15.3 15.3 15.3 15.3 15.3 15.3 15.3 15.3 15.3 15.3 15.3 15.3 15.3 15.3 23.9 54.6 78.2 104.1 113.7 133.1 155.8 162.6 180.3 190.6 191.9 190.6 212.7 212.4 213.8 211.5 211.2 208.7 220.7 228.8 227.1 230.5 233.8 232.8 227.7 221.8 213.9 202.7 188.1 178 170.5 164.8 160.3 165 173.6 188.8 197.4 208.2 209 208.3 202.6 197.6 193.2 188.6 189.1 188.9 190.6 194.6 200.4 210.8 221.7 228.3 228.7 219.6 217.7 217.7 217.7 217.7 217.7 218.6 218.8 218.5 217.3 216.1 213.8 215 218.1 223.4 230.7 231.5 232.2 236.2 238.8 239.7 241.8 240.6 237 230 222.6 213.8 206.2 202.5 192.2 190.7 194.3 194.6 186.4 179.4 186.7 187.1 188.7 191.2 200.6 201.2 202.7 204.4 206.1 207.9 209.5 210.8 211.9 212.7 213.7 214.2 218.7 220.6 224.1 224.7 218.7 210.2
439.7 438.7 439.1 438.1 438.9 441.2 444.7 441.7 440.3 443.2 449 457.6 465.8 468.4 458 445.6 438.8 432.9 428.6 424.5 423 422.5 422 422.4 424.2 424.3 422.3 421 421.2 418.2 415.2 409.6 402.5 395.6 386.3 374.8 334.8 301.2 275.9 254.9 225.4 178.4 155.1 137.9 124.7 103.4 87.7 74.4 55.7 36.4 25.6 15.8 15.3 15.3 15.3 15.3 15.3 15.3 15.3 15.3 15.3 15.3 15.3 15.3 15.3 15.3 15.3 15.3 15.3 15.3 15.3 15.3 15.3 15.3 15.3 15.3 15.3 15.3 15.3 15.3 15.3 15.3 15.3 15.3 15.3 15.3 15.3 15.3 15.3 27.2 55.9 75.2 98.8 113.3 126.5 145.9 162.7 175.4 187 193.5 198.1 221.8 229.6 225.5 225 221.5 220.9 222.7 245.8 250.9 245.8 242.9 246.4 240.6 234.6 229.5 220.6 210.7 198.3 186.6 177.7 169.7 178.8 174.5 184.4 198.6 215.9 216.2 210 210.2 203.6 197.2 189.1 188.8 189.6 189.1 189.6 193.5 198.2 208.1 218 230.2 229.9 223.7 219 217.7 217.7 217.7 217.8 217.9 218.3 218.9 218.9 218.2 220 222.1 224.7 227.8 237.5 234.8 239 245.2 250 252 249.5 247.3 242.4 233.2 225 215.1 207.3 199.2 190.2 193.8 195.1 195.7 187.8 183.3 186.5 187.7 189.9 192.4 200.6 202.9 204.3 205.8 207.5 209.2 210.6 211.1 211.6 212 212.1 211.4 211.4 211.3 211.3 210.3 210.3 210.9
439.1 439.6 437.7 435.1 434.8 434.2 435.9 436.1 438.8 441.1 446.1 452.6 460.1 453.6 442.5 431.9 426.5 423.1 419.2 416.7 416 415.4 415.2 416.5 418.5 415.7 414.3 412.7 413.3 413 413.7 405.2 391.9 383.8 376.8 364.1 337.3 295.3 265.5 237.4 204.1 172.8 153.3 136.2 116.3 96.9 80.7 66.2 48.6 36.8 26.3 16.8 15.3 15.3 15.3 15.3 15.3 15.3 15.3 15.3 15.3 15.3 15.3 15.3 15.3 15.3 15.3 15.3 15.3 15.3 15.3 15.3 15.3 15.3 15.3 15.3 15.3 15.3 15.3 15.3 15.3 15.3 15.3 15.3 15.3 15.3 15.3 15.3 26 60.3 74.5 91.3 111.5 125 139.9 156.3 174.1 181.2 186 197.9 206.2 225.3 240.1 236.6 231 229.7 238.3 264.2 277.9 267.7 256.8 255.4 261.6 254 246.9 234.9 223.3 215.8 202.8 190.7 180.1 187.5 189 186.7 195.2 207.4 220.2 216.6 208.9 209 204.8 203.4 194.2 189.1 189.8 189.5 189.1 192.4 197.4 204.1 214.9 225.5 226.4 223.2 220 218.9 218.7 218.6 218.5 218.4 218.7 219.6 223 225.4 227.9 230 231.1 231.8 235.5 244.6 253.7 264.8 266.1 262.6 258.7 253.4 247.2 237.2 224.4 214.4 205.5 197.9 192 193.3 196.1 192.6 188.1 185.9 181.3 189.4 190.8 193.4 200.7 203.6 206 207.5 209 210.6 211 211.4 211.8 211.6 211.7 211.5 211.5 211.3 211.5 211.1 211.4 213.3
439.9 438.9 437.5 433 430.8 429.3 430.1 435.2 436.8 437.7 441.7 444.4 444.4 437.9 428.5 420.8 419.1 416 413.7 410.9 409.7 409.1 408.9 408.9 410.4 406.8 405.2 404.6 405.5 407.5 403.5 391.3 380.5 373.2 363.8 350.2 321.6 285.2 257.4 227.8 190.7 161.3 144 126.7 107.8 90.7 73.6 58.5 46.2 35.1 24.8 15.6 15.3 15.3 15.3 15.3 15.3 15.3 15.3 15.3 15.3 15.3 15.3 15.3 15.3 15.3 15.3 15.3 15.3 15.3 15.3 15.3 15.3 15.3 15.3 15.3 15.3 15.3 15.3 15.3 15.3 15.3 15.3 15.3 15.3 15.3 15.3 21.9 59 85.2 89.2 112.8 128.6 142 160 177.1 189 193.4 193.5 205.1 209.1 223.8 231.8 238.7 242.4 248.9 270.3 290.6 290.7 271.7 265.5 270 266.7 259.4 246.1 231.2 228 221.1 205.8 191.3 191.5 199 200.8 200.9 204.6 207.1 212.5 217.9 217.7 216 214.1 210.4 203.4 198.7 194.3 193.2 194.2 191.9 195.1 201.2 210.4 218.3 222.7 220.1 220.3 218.6 219.9 220.2 220.9 221.2 224 225.7 229.6 233 234.7 237.1 236 236.7 241.3 253.6 267.4 275.2 271.3 270.1 267.3 261.1 251.5 240.5 226.4 214.5 203.7 196.7 194.2 195.6 196.5 190.7 188.9 189.1 182.6 190.3 191.8 195.1 201.7 205 206.9 209.1 210.6 211.2 211.8 211.6 211.6 211.5 211.6 211.6 211.5 211.4 211.6 211.8 213.4 215.4
438.5 437.6 436.1 434 428.2 426.2 427.2 430.8 434.5 434.5 434.6 435.5 432.9 428.1 421.3 416.5 413.7 411.3 409 406.2 403.5 402.7 402.6 402.1 400.5 397.8 395.2 396.3 398.3 401.8 393.5 380.8 371.8 362 347.7 334.6 306.3 277.6 249 223.1 185.8 150.5 129.3 113.9 98 81.7 67.4 56.7 44.8 33.3 22.5 15.3 15.3 15.3 15.3 15.3 15.3 15.3 15.3 15.3 15.3 15.3 15.3 15.3 15.3 15.3 15.3 15.3 15.3 15.3 15.3 15.3 15.3 15.3 15.3 15.3 15.3 15.3 15.3 15.3 15.3 15.3 15.3 15.3 15.3 15.3 16.5 47.9 79.5 97.8 109.7 127.5 139.1 160.2 182.9 189.4 196 196 200.1 205.8 215.4 231.4 245.8 254.8 264.1 271 287.8 295.4 288.7 271.6 269.2 273.6 264.2 252.5 239.7 234.2 228.7 220.1 202.9 197.9 203.1 213.8 223.5 229.2 226.2 220.7 215.3 223.1 227.3 232.9 232.6 223.8 219.2 213.7 209.9 201.5 202.6 199.9 194.6 198.7 205.9 211.7 214.6 216.7 218.5 218.2 218.9 222.2 226.6 229.2 232 233.1 233.2 235.7 238.7 241.1 242.4 239.7 247.3 257.8 275.8 276.2 276.8 280.5 275.3 266.5 254.9 242.1 227.3 216.2 206.3 198 196 197.5 196.6 191.2 189.4 190.8 190.5 189.8 193 198.1 203.6 205.8 209.2 210.8 211.2 211.8 212.4 213.5 212.1 211.5 211.6 211.6 211.5 211.5 212.9 216.6 218.8 218.7
435.2 435.1 433.8 432.8 428.9 424 426.5 429.2 431 430.9 429.7 427.8 424.9 421.2 416.3 411.4 407.7 405 403.5 400.4 398.2 396.9 393.5 391.5 390.1 388.4 385.8 386.4 387.9 389.4 384.3 375.7 364.6 350.8 332.8 316.4 294 265.4 239.2 220.8 175.1 140.1 120.5 103.2 90.4 76.6 64.4 54.7 42.7 30.6 20.7 15.3 15.3 15.3 15.3 15.3 15.3 15.3 15.3 15.3 15.3 15.3 15.3 15.3 15.3 15.3 15.3 15.3 15.3 15.3 15.3 15.3 15.3 15.3 15.3 15.3 15.3 15.3 15.3 15.3 15.3 15.3 15.3 15.3 15.3 18.7 47 74.9 97.7 123.9 129 139.2 153.7 176.9 190.1 196 198.9 209.9 207.7 207.8 214.9 242 256.8 270.6 277.3 280.9 290.4 287.4 279.4 271.8 270.6 270.8 263.5 243.7 238.8 240.9 225.8 211 203.4 211.3 223.6 232.2 246.5 247.9 240.6 233.6 222.9 231.8 242.8 250.1 243.4 237.3 236.3 235.5 227.5 208.1 203.5 204.5 199.7 196.5 202.9 205.7 207.9 208.8 211.6 217 220.6 229.1 235.2 236.7 240.2 238.2 236.7 239.5 243.9 247.3 248.7 250.5 256.3 263.5 275 286.3 295.2 290.8 278.3 268.2 258.3 242.3 226.6 217.4 208.8 198.9 197.7 193.5 189.1 187.5 185.8 187.4 186.4 185.7 194.7 200.9 207.7 209.9 210.5 212.4 212.4 214 217.3 217.5 216.2 213.4 212.9 213.9 213.1 213.3 215.3 222.6 222.7 223
431.7 432 431.7 430.8 426 422.5 423.8 425.1 426 426.3 425.2 423.1 420.9 415.9 411.1 406.3 402.4 398.7 397.6 394.1 391.4 388.7 384.8 381.1 380.5 376.8 375.5 376 374.3 373 375.6 368.3 355.4 336.4 319.6 303.2 275 252.1 233.2 204.2 164.8 126.9 105.7 94.4 82.6 72.7 60.8 51 39.7 27.4 15.3 15.3 15.3 15.3 15.3 15.3 15.3 15.3 15.3 15.3 15.3 15.3 15.3 15.3 15.3 15.3 15.3 15.3 15.3 15.3 15.3 15.3 15.3 15.3 15.3 15.3 15.3 15.3 15.3 15.3 15.3 15.3 15.3 15.3 17.3 54 65.2 95 123.5 134.5 133.3 144.7 171.8 194 201.3 206.5 212.2 211.8 209.3 214.3 223.3 243 261.9 278.3 279.8 288.8 290.2 282.3 276.1 271.1 262.1 264.5 257.3 242.6 235.3 234.2 221 208.9 210.9 233 239.4 261.9 263.9 258.2 261.6 251.8 238.6 239.4 254.4 258.1 257.1 269.7 268.1 260.6 236.4 213.3 203.7 202.2 200.3 199 200.4 202.6 205.9 209.6 214 219.1 226.9 236.5 244.5 245.1 240.6 239.8 241.1 243.8 248.7 253.6 255.8 258.1 263.1 272.2 283 300.8 304.5 290.5 279.4 277.7 259.8 239 221 213.8 204.6 195.5 191.1 189.2 189.1 187.5 186.2 185.9 186.8 188.4 197.3 202.5 214 214.6 214.9 215 219.3 219.7 219.7 220.4 220.8 221.2 221.4 220.7 216 217.5 220.7 226.9 227.2 228.7
425.8 428.1 428.9 425.5 420.9 420.1 420.8 420.9 420.8 420.3 420.6 417.8 414.5 409.8 405.2 399.9 395.6 391.4 389.1 386.6 383.9 381.9 378.6 374.4 370.7 366.6 364.7 362.9 361 359.4 358.6 348.8 336.1 320.2 305.7 279.3 258.8 251.1 236.8 195.4 148.7 114.2 96.7 86.2 76.7 67.3 56.9 46.1 34.9 24.1 15.3 15.3 15.3 15.3 15.3 15.3 15.3 15.3 15.3 15.3 15.3 15.3 15.3 15.3 15.3 15.3 15.3 15.3 15.3 15.3 15.3 15.3 15.3 15.3 15.3 15.3 15.3 15.3 15.3 15.3 15.3 15.3 15.3 15.3 38.5 63.1 88.6 119.5 145.5 144.2 147.5 163.9 188.1 202.9 214.2 218 220.4 222.8 222.2 225.6 232.1 249.6 262.6 269.5 272.9 279.9 281.9 277.5 268.7 260.8 257.6 256.8 247.8 240.6 234.6 228.1 219.4 217 223.7 243.2 260.1 284.2 280.4 275.9 276.5 266.7 256.7 245.6 260.8 271.2 270.9 280.8 282.9 273.8 247.7 219.9 205 200 199 198.6 199.9 202.6 206.4 210.9 215.3 220.8 228.9 237.3 244.2 242.7 243.5 243.3 245.2 247.8 251.6 257.1 260.4 260.7 265.1 280.3 291.7 298.1 301.2 289.3 283.4 281 250.1 229.7 212.4 206.7 197 191.6 191.5 190.8 189.1 188.1 187.9 188.4 189.8 190.1 198 203.2 215.3 217.4 217.6 218.9 221.7 223.2 223.7 222.7 223.8 224.9 223 222.9 221 221.2 225.6 230.6 232.2 236.6
418.6 420.7 421.3 417.6 416.9 417.4 416.8 416.4 416.2 415.5 413.6 411.5 407.6 403.8 398.8 392.5 389.6 385.7 381.6 378.6 376.9 375.5 372.3 369.7 366.1 360.6 356.8 355.1 351.6 349.7 341.9 327.5 313.8 302 285.1 261.3 250.8 240.7 212.6 165 127.3 104.7 90.6 78.4 67.8 59.7 51.7 42.5 29.9 22.7 15.3 15.3 15.3 15.3 15.3 15.3 15.3 15.3 15.3 15.3 15.3 15.3 15.3 15.3 15.3 15.3 15.3 15.3 15.3 15.3 15.3 15.3 15.3 15.3 15.3 15.3 15.3 15.3 15.3 15.3 15.3 15.3 15.3 33.9 56 82.7 113.4 143.2 162.7 160.8 168.7 184.8 201.9 223 237.9 234.7 233.2 236.8 229.9 232.1 237.2 254.1 263.7 267.3 267.1 265.5 269.8 279.7 267.3 255 254.9 253.4 247.4 241.1 234.8 229.2 226.4 231.2 244.2 270.8 282.8 290.9 288.8 290.1 287.5 274 263.1 251.8 258.9 273.9 288.2 290.7 290.1 270.8 251.5 230.7 208.3 199.9 198.8 198.2 199.6 202.2 207.4 211.8 215.5 220 230 237.9 241.7 241.8 244.5 247.2 251.2 252.8 254.7 261.7 264.3 264.9 266.3 286.8 305.3 300.6 296.3 287.2 286.1 260.3 238.7 219.4 206.9 201.4 195.1 198.6 199.3 201.2 192.2 188.8 187.1 190.1 190.3 191.1 196.2 204 217.6 219.6 220 218.8 225.2 228.6 228.4 227.7 228.2 227.6 226.1 223.7 225 228.2 232.5 236.8 240.7 245.6
408.9 412.6 413 414.1 413.3 413.5 412.8 412.2 411.6 409.7 407.3 403.6 399.9 395.4 390.6 384.2 381.4 378.3 374.8 372.5 370.6 368 366.3 363.8 360.6 355.5 349.3 345.7 342.4 336.8 325.9 317.3 298.9 284.2 267.5 253 237.2 213.4 178.7 140.8 114 99.4 85.3 72.7 62.2 52.6 48.7 35.7 25.1 19.1 15.3 15.3 15.3 15.3 15.3 15.3 15.3 15.3 15.3 15.3 15.3 15.3 15.3 15.3 15.3 15.3 15.3 15.3 15.3 15.3 15.3 15.3 15.3 15.3 15.3 15.3 15.3 15.3 15.3 15.3 15.3 15.3 26.2 47.6 67.9 100.6 129.4 155.6 161.4 173.9 181.8 196.4 217.9 245.5 252.1 246 239.5 239.1 236.3 235.6 234.7 245.2 261.4 261.5 262.2 265.7 275.8 271.9 264 254.4 254.4 254.2 251.4 242.5 235.3 233 234.9 243.3 260.6 280 291.3 289.6 290.9 296.8 294 276.7 259.7 256.8 257.6 273.1 297.4 298.1 286 265.8 244.8 227.2 208.9 201.7 198.3 197.8 199.3 201.9 206 209.8 213.7 222.2 231.3 238.4 240.8 243.7 247 250.5 253.7 257.4 258.1 262.3 265.5 268.3 265.9 288 301.2 299.3 306.1 288.2 262.9 245.9 229.1 214.7 206.1 199.9 197.6 202.6 200.7 201.7 198.9 198.2 194.5 187.7 191.4 192.6 193.7 206.9 219.7 219 219.7 224.2 229.5 234 235 240.2 234.2 232.1 239.1 235.6 232.6 235.7 241.6 247 251.8 254.9
406.1 408.6 410.4 411 410.1 409.4 408.9 408.1 406.6 403.9 399.9 395.6 390.2 384.9 380.3 376 374.1 370.7 366.6 363.9 362.1 358.9 359.7 356.6 354.9 350.8 345.7 343.7 333.4 323.2 311.1 297.4 286.5 263.3 252 245.2 224.6 192.4 158 130.9 111 92.3 74.4 63.4 52.4 43.3 35.8 28.9 20.2 15.3 15.3 15.3 15.3 15.3 15.3 15.3 15.3 15.3 15.3 15.3 15.3 15.3 15.3 15.3 15.3 15.3 15.3 15.3 15.3 15.3 15.3 15.3 15.3 15.3 15.3 15.3 15.3 15.3 15.3 15.3 15.3 15.3 36.5 61.5 85.9 115.2 145.1 156.5 170 184 192.9 203.6 228.7 248.2 251.5 248.3 246.5 244.4 239.9 239.3 240.2 241.8 251.1 258.8 262 267.2 277.7 269.9 259.9 254.4 254.4 260.4 261.1 247.6 239.6 240.5 242.5 252.7 269.2 291.2 294.1 302.4 304.5 302.7 294.1 274.3 255.9 254.5 254.7 264.1 289.7 284.2 274.5 253.3 237.2 225.2 213.7 204.1 198.5 198.1 200.1 204.6 207.9 210.3 216.4 225.4 234 238.5 241.1 244.4 247.3 251 255.9 262.6 264.8 266.3 269.6 269.3 265.7 277.2 288 297 296.1 279.3 260.3 239.5 223.5 213.5 205.2 198 197.3 202.8 201.9 202.9 199.8 198.7 197.9 192.9 189.2 189.4 194.7 214.6 220.3 219.8 223.8 226.6 231.1 239.3 241.6 248 239.4 248 261.2 251.5 248.4 251 253.7 257.6 262.5 266.7
405.3 407 407.9 407.6 406.4 401.7 404.5 403.2 401 396.5 389.8 384.7 379.7 375.5 371.7 368.5 366 362 357.6 351.7 351.8 350.2 348.1 345.5 346.1 345.4 343 334.8 334.6 324.5 299.3 278.5 263.4 250.5 247.4 235.2 207.8 183.6 150.2 122.7 104.8 85.7 70.3 58.9 47.5 37.4 30.3 21.3 15.3 15.3 15.3 15.3 15.3 15.3 15.3 15.3 15.3 15.3 15.3 15.3 15.3 15.3 15.3 15.3 15.3 15.3 15.3 15.3 15.3 15.3 15.3 15.3 15.3 15.3 15.3 15.3 15.3 15.3 15.3 15.3 15.3 23.4 50.3 77 102.9 130.1 153.9 168 181.3 197.7 206.4 219.6 236.8 239.2 247.2 258.9 257.4 253.2 243.9 242.9 243.4 243.5 249 262.1 260.7 264.4 276.2 273 259.6 254.4 254.3 269.2 265.1 252.2 239.3 239 241.8 255.3 281.3 299.2 305.8 309.2 303.4 295.4 289.2 275 262 267.2 260.4 252.1 257.8 258.5 255.4 238.6 234.5 224.4 211.4 200.3 199.9 199.4 202.1 206.3 209.7 214.1 220.9 228.6 234.2 238.6 241.6 244.3 246.8 250.9 257.4 264.8 267.4 266.9 270.6 272.5 266 265.6 280.1 289.6 284 271.4 250.5 228.2 214.3 210.6 205.2 197.4 210.6 203.1 203.2 204.1 203.2 200 199.6 195.9 195.2 191.3 191.7 203.9 219.2 221.9 226 230.6 235.5 242.6 250.7 247.4 251.5 256.4 258 266.2 268.8 266.8 266.2 269.8 272.6 281
403.9 404.8 405.3 404.8 402.8 391.8 399.2 397.1 392.2 385.8 379.1 374.3 369.1 365.7 363.7 361.1 355.7 353 349.5 345.5 342.4 340.8 339.6 336.5 336.8 335.3 331.5 325.5 321.8 309 285.6 266.4 250 243.9 235.4 221.9 203.1 175.5 138.2 115.3 96.5 77.2 64.8 54.9 43.1 32.6 25.6 19.2 15.3 15.3 15.3 15.3 15.3 15.3 15.3 15.3 15.3 15.3 15.3 15.3 15.3 15.3 15.3 15.3 15.3 15.3 15.3 15.3 15.3 15.3 15.3 15.3 15.3 15.3 15.3 15.3 15.3 15.3 15.3 15.3 16.7 43.2 69.3 93.8 116.2 143.8 160 185.7 199 208.7 218.8 225.9 229.4 243.3 256.8 253.9 252.1 247.3 244.3 244.1 244.4 244.7 248.3 253.7 259.7 264.6 270.9 271 267.9 260.7 266.5 273.6 270.9 258.4 241.5 239.7 245.1 265.8 287.5 294.8 301.5 306.6 305.5 297.7 287.3 278.4 272.4 268.1 254 239.5 238.7 241.7 237.5 226.5 222.2 214.4 204.3 205.9 203.7 203.1 205.1 208.1 212.4 218 224 230.1 234.2 238.6 242.3 245.4 247.9 252.4 258 265.2 267.8 266.1 267.4 273.4 263.3 259.8 269.8 281.5 274.1 258.4 236.5 221 212.6 209 204.2 195.8 209 204 204.4 205.1 205.2 202.8 199.5 198.1 196.2 193.3 190.9 204.8 221.9 225.4 230 234.1 247.9 258.4 257.7 256.5 257.9 269.6 287.8 293.1 298.4 286.6 274.8 277.6 280.8 286.6
401.8 402.5 402.1 400.2 398.2 394.9 392.8 387 379.9 374 369.1 364.3 360.4 357.8 354.3 349.8 346.4 345 342 339.9 335.6 332.4 331.7 329.8 324.8 325.1 317.1 313 306.2 282.1 268.3 255.8 236.8 233.2 218.2 204.3 189.2 153.3 127.9 107.4 89.2 69.1 59.6 50.1 39.2 29.2 20.3 15.3 15.3 15.3 15.3 15.3 15.3 15.3 15.3 15.3 15.3 15.3 15.3 15.3 15.3 15.3 15.3 15.3 15.3 15.3 15.3 15.3 15.3 15.3 15.3 15.3 15.3 15.3 15.3 15.3 15.3 15.3 15.3 15.3 45.6 65.7 92.7 108.3 126.3 154.6 175.9 193.9 209 219.8 231.1 230.6 227.4 232.8 235.6 234 235.5 239 243.1 244.4 245.2 245.6 248.1 256.2 262.4 262.4 263.8 279.2 276.1 273.1 273.4 277 282.1 280.9 259.2 245.9 250.1 265 283.6 288.5 296.9 301.6 302.1 278.5 263.5 271.4 275 259.6 238 227.2 226.8 224 221.2 216.5 211.2 209 214.1 210.7 207.5 205.9 206.3 208.5 213.1 219.6 226.2 231.8 236.6 240.8 244.1 246.9 251.1 254.4 258.4 263.7 266.2 262.6 266.6 263.6 255.6 255.1 257.9 258.4 252 235.7 224.9 215.4 210.2 206.9 204.2 203.8 206.1 204.9 205.5 206.2 206.6 201.4 201.1 199.9 197.4 195.7 190.9 210 222.8 227.4 232.5 242.3 258.9 259.1 258 257.8 262.9 286.4 287.5 287.6 285.3 280.7 281.2 285.9 288.1 293.2
399.4 399.3 398 394.6 392 388.3 376.7 374.1 367.9 362.9 358.9 354.6 350.6 347.9 345.1 341.7 339.3 340 336.3 332.4 328.7 322.8 322.4 321.3 317.2 311.3 299.7 292 284.9 262.7 253.9 242.3 227.5 223.2 207.1 188.8 159.9 138.9 116.5 98.6 81.1 65.2 55.3 45.4 35.3 22.9 16.5 15.3 15.3 15.3 15.3 15.3 15.3 15.3 15.3 15.3 15.3 15.3 15.3 15.3 15.3 15.3 15.3 15.3 15.3 15.3 15.3 15.3 15.3 15.3 15.3 15.3 15.3 15.3 15.3 15.3 15.3 15.3 15.3 24.8 59.3 83.1 102.8 124.3 144.5 169.2 187 202.4 216.8 227.8 238.6 239.1 227.9 226.9 226.9 226.9 226.9 236.8 240.4 243.7 245.8 247.4 249.4 259.9 270.2 269.6 279 286.7 279.7 274.6 274.3 280.4 283.2 277.1 261.9 253.2 252 264.8 285.5 292.5 279.3 292.2 287.6 259.6 257.8 255.9 244.3 231.2 223 217.9 217.3 214.7 213.9 210.3 210.7 215.4 216.7 213.2 210.1 207.9 207.6 208.8 213.8 220.5 227.5 233.8 239 242.8 245.1 248.2 253 254.6 256 257.7 257.3 257.8 258.7 256 249.9 247.4 246 238.6 232.1 225.5 217.5 211.8 207.3 204.9 204.7 205.2 206.2 206 205.6 206.8 206.9 205 201.9 198.8 194.4 191.6 198.6 218.7 221.7 229.5 233.4 250.8 259.6 259.6 259.2 259.8 269 277.7 278.8 280.1 285 291.2 294.1 295.9 299.3 316
395.8 393.9 390.7 386.8 381.9 376.4 367.5 360.7 356.5 351.4 346.7 343.2 340.3 336.8 334.2 332.6 331.5 330.6 328.2 323.6 319.3 311.4 305.6 302.3 295.4 288.9 280.3 269.6 263.4 245.9 236.8 223.1 214.5 206.6 188.9 164 144.5 126.7 106.2 88.8 71.7 60.6 51 41.1 30.5 20 15.3 15.3 15.3 15.3 15.3 15.3 15.3 15.3 15.3 15.3 15.3 15.3 15.3 15.3 15.3 15.3 15.3 15.3 15.3 15.3 15.3 15.3 15.3 15.3 15.3 15.3 15.3 15.3 15.3 15.3 15.3 15.3 15.3 38.7 71 96.3 119.4 139.9 157.7 180.7 200.2 214.8 226.3 232.1 236.5 241.7 239.7 231.1 226.9 226.9 226.9 231.9 245 244 245.6 247.6 254.6 269.5 275.9 269.8 269.1 273.6 276 275.6 270.9 273.6 275.5 268.4 269 259.4 250.9 260.1 274.3 271.7 272.5 277.8 279.4 262.3 259.3 238.8 219.1 211 214.8 213.8 211.9 211.3 209.9 211.8 213.7 215.9 216.9 214.9 211.7 208.7 208.3 210.9 216.4 221.9 229.2 235 239.1 242.2 245.1 249 252.3 253.4 256.6 255.9 255.3 254.1 251.9 250.1 244.8 239.4 236.3 230.9 224.8 219.1 212.7 209.1 205.5 205.2 205.7 205.9 207.1 206.8 205.8 205.7 204.4 202.4 198.6 192.9 193.2 198.1 216.5 220.1 220.7 228.4 234.9 253.7 260.7 260.2 260.3 267.1 274.1 279.6 287.8 302.9 316.9 324.3 313.8 310.8 325 360.9
389.1 385 381.1 376.2 371.4 366 358.4 347.6 344.3 341.3 337.5 334.5 332.5 330.2 328.1 326 325 324.1 320.2 316.1 312.4 300.8 289.1 281.2 274.4 268.7 257.4 245.6 238.5 228.9 213.4 204.3 199.9 179.5 158.8 146.7 134.9 123.6 93.8 77.6 64.7 55 45.4 35.1 25.6 15.3 15.3 15.3 15.3 15.3 15.3 15.3 15.3 15.3 15.3 15.3 15.3 15.3 15.3 15.3 15.3 15.3 15.3 15.3 15.3 15.3 15.3 15.3 15.3 15.3 15.3 15.3 15.3 15.3 15.3 15.3 15.3 15.3 43.5 57.2 80.9 108 135.3 151.7 166.8 192.1 211.3 229.8 244.5 251 248.5 250.5 239.1 228.8 226.9 226.9 226.9 229.3 244.3 246.3 245.2 247.3 261.5 273.5 276 269.2 263.5 268.9 277.7 274.9 268.5 261 276.5 276.3 273.5 252.5 246 249.4 268 265.8 267.1 272.5 273.1 260.2 246.5 228.3 213.1 210.9 210.4 210.5 210.2 210 212.2 214.3 215.6 216.8 218.2 216.8 213.4 210 208.9 213.6 219.3 224.5 230.4 235.2 239.2 242.1 246.3 249.4 252.2 253.9 256.3 254.8 251.9 250.1 247 243.2 239.6 234.6 229.3 223.2 219.2 214 210.4 206.9 205.1 206.2 207.3 206.8 207.5 207.8 204.2 203.2 202.5 201 192.4 193.8 196.8 210.9 223.5 228.5 224.2 225.4 235.6 253.7 261 264.2 271.3 273.6 275.9 278.5 289.9 303.1 313.4 315 327.3 330.5 350.5 376.7
380.3 376.7 373.9 371.7 370.5 366 356 339.8 333.6 328.6 328.2 325.7 323.7 322.8 319.5 315.6 316.9 313.2 309.3 304.4 297.9 289.9 279.6 269.3 256.6 246 240.2 237.8 229.3 220 204.5 195.8 179.2 156.4 140.7 131.4 124.4 117.3 81.7 66.7 58.6 49.3 39.3 28.7 19.6 15.3 15.3 15.3 15.3 15.3 15.3 15.3 15.3 15.3 15.3 15.3 15.3 15.3 15.3 15.3 15.3 15.3 15.3 15.3 15.3 15.3 15.3 15.3 15.3 15.3 15.3 15.3 15.3 15.3 15.3 15.3 15.3 35.5 55.7 73 92.7 117.1 144.5 165.6 182.4 206.4 224.1 237.7 246 254.3 256.6 259.7 241.9 232.5 226.9 226.9 226.9 228.1 233.1 237.3 241.6 255.9 279.5 280.3 274.4 258.6 250 265.1 266.1 260.4 260.3 267.4 274.4 269.1 250.8 240.9 242.5 246.4 250.5 254.3 265.9 271 257.5 250.9 236.1 223.8 214.3 211.9 210.8 210.2 210.1 210.4 213.3 216 216.8 218 219.9 218.8 215.2 211.3 209.7 216.5 223.4 227.5 231.5 234.9 239.5 242.9 246.6 249.9 252.3 252.7 253.4 250.3 246.7 243.5 240.3 236.2 230.5 228.2 223.8 218.6 214.7 211.1 207 205 205.7 207.7 208 207.7 204.7 201.2 200.7 201.1 200.7 199 201.3 205.7 211.2 220.1 232.9 237.7 231.2 224 235.2 246.5 254.7 259.4 263.7 266 267.8 272.7 280.4 289.4 297.3 305.5 314 323.4 351.5 366.9
371.9 367 366.3 367.8 365.6 363.7 355.4 340.1 329.8 324.4 322.6 313.4 312.7 312.8 308.4 305.2 302.8 299.6 296.4 293.1 287.3 280.3 269.1 257.6 243.1 233.4 233.5 230.8 223 208.7 199.7 193.4 159.1 140.4 128.5 114.1 101.9 92.1 74.2 62.9 53.3 43.2 32.1 22.3 15.3 15.3 15.3 15.3 15.3 15.3 15.3 15.3 15.3 15.3 15.3 15.3 15.3 15.3 15.3 15.3 15.3 15.3 15.3 15.3 15.3 15.3 15.3 15.3 15.3 15.3 15.3 15.3 15.3 15.3 15.3 15.3 20 41.4 57.6 83.4 99.9 121.3 153.2 178.6 197.1 215.5 231.7 242.1 256.8 264 265.3 262.3 242.2 239.2 230.7 228.1 228 228.6 231.1 234.4 244.6 267.3 290.3 289.5 277.3 250.3 246.4 256.5 258.2 257.9 268.7 275.1 256.1 244.9 240.3 236 236.2 241.1 245.8 257.9 267.2 261 243.7 233.5 224.8 215.4 213.9 213.2 211.7 210.7 210.3 210.7 213.3 216 217.9 218.8 219.5 219.7 216 212.3 214.3 220.3 226 229.4 232.4 235.4 239.9 243.8 246.8 249 249.5 247.8 247.1 244.4 239 237.1 230.4 227.6 223.4 220.9 219.6 215.4 211.8 209.6 206.7 206.6 207.3 208.4 209 207.5 200.2 201 200.4 203.6 204.1 204.5 208.3 209.4 212.5 222.2 231.4 233.8 227.3 221 226.2 233.3 241.3 247.1 253.1 256.3 261.4 269.7 278.8 287.9 294.2 299.3 305.2 316.1 331.4 346
367 365.1 362.7 360.2 359.4 356 352.5 343.7 334.8 328 316.3 304.1 298 299.3 297.7 296.3 292.2 289.4 287.4 282.1 276.1 265.2 250.7 242.6 226.9 222.4 220.1 218.7 206.8 192.2 177.9 166 146.2 133.4 120.1 105.9 91.3 76 64.9 55.1 46.4 36.3 24.6 15.8 15.3 15.3 15.3 15.3 15.3 15.3 15.3 15.3 15.3 15.3 15.3 15.3 15.3 15.3 15.3 15.3 15.3 15.3 15.3 15.3 15.3 15.3 15.3 15.3 15.3 15.3 15.3 15.3 15.3 15.3 15.3 15.3 24.7 40 45.8 65.2 92.2 115.2 144.7 172.8 194.1 226.1 244.5 255.9 262.1 268.4 278 269.4 248.6 239.3 231.8 229.5 229 229.4 231.8 236 254.2 283 285.3 283.3 270.9 250 243.1 243.8 242.5 243.7 251 248.5 242.7 237.6 234 232.5 234.4 238.2 243 251.1 258.9 246.8 234.9 225.1 217.7 215.3 214.2 213.3 212.5 211.6 210.7 210.3 212.9 215.9 219 219.3 219.5 219.6 215.7 215 217.4 223.6 228.1 230.5 232.4 235.8 239.1 242.5 244.9 245.3 245.7 243.9 242 239.4 236 230.2 225.6 224.1 221.3 217.4 214.7 212.7 210 207.8 206.9 207 207.9 208.8 209.4 207.8 199 201.3 202.7 205.5 205.5 206.7 208.5 206.4 206.2 206.1 209.9 208.9 214.7 213.8 214.6 218.3 227.7 233 239.6 247 254.6 264 275.1 284.1 288.8 293 300 309.6 319.9 334.3
365.7 363.8 358.1 354.1 354.5 352.8 351.1 347.1 343.9 332.6 321.8 305 293.4 290.1 289.3 286.1 282.4 279.1 272.9 265.4 262.9 246.3 238.8 223.3 211 209.1 205.9 200 188.8 172 168.2 151.3 133.9 124.1 111.8 97.9 81.9 65.5 51.4 51 41.2 28.3 18.6 15.3 15.3 15.3 15.3 15.3 15.3 15.3 15.3 15.3 15.3 15.3 15.3 15.3 15.3 15.3 15.3 15.3 15.3 15.3 15.3 15.3 15.3 15.3 15.3 15.3 15.3 15.3 15.3 15.3 15.3 15.3 15.3 17.6 35 55 70.6 72.4 68.6 83.3 111.8 147.9 184.1 227.7 254.7 264.2 267.3 276.8 277.2 271.9 259.8 247 236 237 233.3 230.4 234.8 243.3 262.1 285 287.1 286.2 268.3 248.9 240.2 238.7 237.8 237.1 238.6 237.5 233.5 231.3 229.9 229.8 231.6 234 239.3 246.6 246.9 236.9 228.8 221.1 215.5 214.7 214.3 213.4 212.9 212.5 211.9 210.6 211.9 216 219.2 220.3 219.6 218.9 217.7 217 220.8 225.7 230.1 233.1 233.3 235.5 237.6 239.5 241.3 241.9 241.7 240.6 238.5 234.6 228.7 224.9 224.2 222.3 219.3 216.1 212.3 210.2 208.2 207.4 207 207.2 207.8 208.4 209.2 209.2 205 199 202.4 204 205 204.5 202.1 206 208.2 208.3 209.3 209.6 211.1 211.4 212.4 213.3 214 211.6 217.1 234 249.2 261.2 272.4 281 285 290.6 296.9 304.6 314.4 326.5
361.5 359.9 351.6 345.2 348.1 351.1 349.7 349.5 343.4 340.8 327.5 309.8 294.9 286.6 287 284.8 280 272.7 264 252.1 242.3 230.7 219.5 207.1 199.1 195.1 189.7 182.7 172 161.6 156.9 141.9 129.7 118.6 104.9 91.1 76.8 65.3 55.3 38.9 30.7 21.3 15.3 15.3 15.3 15.3 15.3 15.3 15.3 15.3 15.3 15.3 15.3 15.3 15.3 15.3 15.3 15.3 15.3 15.3 15.3 15.3 15.3 15.3 15.3 15.3 15.3 15.3 15.3 15.3 15.3 15.3 15.3 15.3 15.3 35.3 53 74.2 86.8 93.7 95.7 87.3 85.7 123.6 164.7 216.9 255.9 263.1 268.8 281.2 279.8 273.1 260 251.7 255.4 259.1 254.8 240.2 239.6 247 261.7 283.4 281 275.6 267.1 249.6 238.4 232.3 229.5 227.3 227.9 229 228.3 228 227.3 227.4 228.3 229.3 233.2 239.6 237.5 233.8 227.8 217.3 212.9 213 214 213.6 213.4 213.2 212.5 211.4 213.2 217.1 220.1 220.2 219.8 219.4 218.6 218.9 223.4 228.1 231.7 234.8 237.1 236.9 237.8 238 237.4 237.2 237.6 235.3 232 228.6 224.3 222.8 221.3 219.6 216.6 212.4 209.8 208.4 207.4 206.8 207 207.7 208.3 208.9 209.4 209.9 210.5 208.1 206.7 206.3 205.9 209.5 212.8 214.1 214.8 215.1 216.7 219.5 222.1 230.1 242.2 245.6 247.6 241.6 220 219.5 238.7 253.1 266.2 275 279.8 286 292.6 299.8 308.3 318.3
354.6 352 348 338.2 338.4 343 344.8 347.2 341.5 334.6 322.8 313.8 299.2 284.1 287.9 285.7 281.7 275.4 258.1 241.5 226.6 215.2 204 192.5 186 178.4 172.8 165.4 157 147.5 141.5 134.5 123.1 111.9 97.5 84.4 70.9 60.3 45.7 31.3 23.7 17.7 15.3 15.3 15.3 15.3 15.3 15.3 15.3 15.3 15.3 15.3 15.3 15.3 15.3 15.3 15.3 15.3 15.3 15.3 15.3 15.3 15.3 15.3 15.3 15.3 15.3 15.3 15.3 15.3 15.3 15.3 15.3 15.3 32.5 52.2 71.1 89.5 99.5 110.6 115.2 113.8 100 105.2 154.9 211.4 242 258.2 270.6 274.4 269.5 262 260.7 262.3 264.4 263.8 264.5 245.7 243 247.4 251.7 266.1 281.5 277.4 268.1 255.5 243 231.2 224.1 221.2 223.6 225.2 225.8 225.5 224.7 225.2 224.8 224.8 225.8 228.5 234 231.3 225.5 214.7 210.3 210.3 212.3 213.7 213.8 213.7 213.8 213.3 217 221.2 224.3 223.1 220.5 220.7 219.4 220.9 225.3 229.8 233.1 235.4 237.6 237.9 238.5 239 238.8 235.8 232.7 231 226.9 223.7 220.6 218.6 217.6 216.6 213.3 210.2 208.5 207.8 207.1 207.1 207.5 207.9 208.4 208.9 209.3 209.8 210.4 211 210.8 211.2 212.1 213.4 214.6 215.5 216.5 217.4 219.3 223.3 226.6 244.8 258.2 257.5 255.1 252.4 245.3 225.4 228.4 243.3 257.4 267.6 272.7 280.3 286.8 294.2 303.6 313.7
354.1 345.7 341.1 335.2 331.7 333.7 335.4 339.8 333.9 327 313.3 304.2 301.7 273.3 275.1 275.2 268.7 261.1 242.1 225.6 213.9 198.5 187 179 170.7 162.1 154.9 148.9 140.7 133.2 128.2 122.2 115.5 102.3 85.9 74.3 60.8 46.3 31.5 23.1 17.6 15.3 15.3 15.3 15.3 15.3 15.3 15.3 15.3 15.3 15.3 15.3 15.3 15.3 15.3 15.3 15.3 15.3 15.3 15.3 15.3 15.3 15.3 15.3 15.3 15.3 15.3 15.3 15.3 15.3 15.3 15.3 15.3 28 53.8 67.3 82.5 99.3 110.3 121 132.1 139.8 130.4 98.6 140.6 189.6 225.5 258.7 270.4 271.8 268.4 265.1 273.4 267.2 261.1 256.7 250.8 242 244 245.8 251 255.5 272.9 272.8 268.8 266.3 249.2 233.6 223 220.3 220.8 222.2 222.7 222.5 224.2 224.6 222.6 219.4 219.8 221.8 226.7 221 216.6 210.9 210.3 210.3 212.2 213.4 214.4 215.3 216 216.9 220.7 226.6 229.4 225.6 223.8 223 222.1 223.5 226.5 229.6 231.4 233.7 235.1 236.4 237.8 237.1 235.7 233.8 231.8 227.9 224.9 221.8 219.6 217.3 215.9 212.6 210.7 208.7 207.8 207.4 207 207.1 207.4 207.8 208.3 208.7 209.2 209.7 210.3 210.9 211.3 212.1 213 213.9 214.6 215.4 216.8 217.3 220.4 223.9 229.5 249.4 259.2 262 246.8 242.3 240.3 232 219.6 232.3 243.5 256.7 266.4 276 283.4 291.4 299 308.1
352.5 344.2 336.7 333.1 329.8 329.2 329.2 330.7 327.1 319.4 304.2 299.1 282.9 276.3 262.5 266.4 253.7 237.7 222.4 208.2 194.2 178.5 171.6 165.1 155.8 145 135.3 130.4 122.6 120.3 117.3 112 102.5 87.8 76.2 62.7 50 35.1 24.2 16.2 15.3 15.3 15.3 15.3 15.3 15.3 15.3 15.3 15.3 15.3 15.3 15.3 15.3 15.3 15.3 15.3 15.3 15.3 15.3 15.3 15.3 15.3 15.3 15.3 15.3 15.3 15.3 15.3 15.3 15.3 15.3 15.3 24.8 51.5 65.4 74.6 96.5 112.2 123 134.6 158.3 163.3 148.6 129.4 120.8 165.4 215.8 255.1 267.4 266.4 268.6 279 276 271.8 264.2 255 246.6 239.7 239.8 239.1 243.6 246.5 261.1 271.8 280.3 272 257 240.7 226.4 219.1 216.4 218.2 220.7 222.4 224.4 224.7 222.3 219.3 214.7 216.3 219.3 216.2 212.5 210.3 210.3 210.3 211.8 213.4 214.6 215.7 217.1 218.5 223.6 234 231.6 227.7 225.9 224.3 224.2 224.7 226.6 228.1 230.8 233.5 234.1 233.8 232.5 234.1 233.4 231.5 228.8 225.2 222.4 220.1 217.9 215.8 214.4 211.4 209.5 208.2 207.3 206.6 206.9 206.6 207.2 207.7 208.2 208.6 209.1 209.5 210.2 210.8 211.7 212.6 213.4 214.2 217.4 219.6 219.5 220.6 222.1 225 231.8 247.2 259 254.4 240.3 238.9 237.5 235.9 232.8 230.2 234.4 247.6 262.8 274.8 281 287 294.4 303.3
348.8 344.3 337.9 331.7 329.2 329.2 329.2 331 329.9 322.3 316.3 299.4 282.1 273.3 259 250.7 242.1 227.8 208.2 192.9 176.8 168.1 158.2 151.7 142.8 132.9 123.6 124.7 122.6 114.4 106.2 98.9 87.3 77.1 66.5 54.4 42 29 18.5 15.3 15.3 15.3 15.3 15.3 15.3 15.3 15.3 15.3 15.3 15.3 15.3 15.3 15.3 15.3 15.3 15.3 15.3 15.3 15.3 15.3 15.3 15.3 15.3 15.3 15.3 15.3 15.3 15.3 15.3 15.3 15.3 15.3 38.5 54.4 67.3 83.2 112.8 122 139.7 164.2 189.7 185 166.8 157.7 132.2 145 199.3 241.9 258.8 263.9 272.8 266.3 265.1 263.5 263.5 252.1 242.7 235.5 235.3 234.8 236.8 243.1 250.3 260.6 265 269.3 263.7 236 221.2 215.8 212.2 216.1 220.9 224.7 226.7 227.6 225.1 221.4 215.8 210.9 210.6 210.3 210.3 210.3 210.3 210.3 211 212.2 214.6 216.9 218.2 219.9 227.7 235 231.2 228.3 226.4 225.1 226.1 226.1 226.5 229.9 231.7 233.1 234.4 235.4 234 230.8 228.6 226.9 225.5 222.4 220.5 217.9 215.9 213.9 211 211 208.6 208 207.1 206.7 206.7 207 207.4 207.8 208.2 208.6 209 209.4 210.2 211 211.9 213 213.6 216.6 222.2 221.9 222.1 222 223.5 227.6 231.5 244.5 256.4 256.8 241.3 240.4 239.7 238.3 238.1 232.6 230.2 240.9 254.6 269.1 276.4 283.5 289.4 297.3
347.3 340.8 335.3 330.7 329.2 329.9 331.5 329.4 323.7 319 310.7 294.2 284.2 275.8 268 252.4 234 205.5 194 180.2 169.6 159.9 148.5 139.6 131.4 124.1 122.2 124.6 122.8 111.7 97.2 80.8 73.4 68.9 59.3 47.1 35.7 22.5 15.3 15.3 15.3 15.3 15.3 15.3 15.3 15.3 15.3 15.3 15.3 15.3 15.3 15.3 15.3 15.3 15.3 15.3 15.3 15.3 15.3 15.3 15.3 15.3 15.3 15.3 15.3 15.3 15.3 15.3 15.3 15.3 15.3 18.8 43.8 60.9 76.6 96.9 115.5 136.9 159 195.5 204.4 194.5 183.6 177.3 160.1 145.1 174.6 224.2 255.1 268.8 269.5 266.3 263.7 263.6 257.3 250.6 238.9 235.2 235 234.6 235.6 238.9 241.2 241.1 249.4 261 252.7 227.5 217.7 211 210.3 214.6 220.8 229.2 233.8 237 229.7 223.7 216.2 210.3 210.3 210.3 210.3 210.3 210.3 210.3 210.5 212.2 215.3 217.6 219.9 222.4 225.3 228.9 228.6 227.5 226.9 226.7 227.5 228.3 229.8 232.2 232.9 233.6 234 234.7 234.1 232 229.1 224.4 221.1 218.8 216.9 215.4 213.3 211.2 209.3 209.1 208.5 207.6 206.9 206.7 206.8 206.8 207 207.4 207.9 208.4 208.9 209.5 210.3 211.2 212.3 214.2 216 221 224.9 224.7 223.8 224 226.6 231.9 237.6 245.2 253.7 257.5 244 242.4 241.4 240.1 238.4 235 230.2 235.4 246.9 262.3 273 279.5 285.7 293.1
344.6 340.6 337.3 330.6 330.6 335.7 337.7 332.8 326 320 308.8 290.8 284.7 276.1 266 251.2 234.9 213.2 192.3 170.8 160 152.1 141.7 131.9 124.3 120.7 118.9 119.6 119.7 115.3 93 73.1 59.9 53.7 47.2 38.2 29.3 20.1 15.3 15.3 15.3 15.3 15.3 15.3 15.3 15.3 15.3 15.3 15.3 15.3 15.3 15.3 15.3 15.3 15.3 15.3 15.3 15.3 15.3 15.3 15.3 15.3 15.3 15.3 15.3 15.3 15.3 15.3 15.3 15.3 15.3 36.2 57.9 74.4 90.2 106.2 135.8 152.2 178.5 205.7 210.8 203.4 202.4 194 179.4 153.7 176.2 225.5 260.1 273.9 278.1 269.7 262.3 264.4 253 245 244.8 239.6 235.1 234.6 233.8 234 234.3 233.8 232.3 232.6 224 213.9 210.8 210.3 210.3 211.3 218.7 227.5 236.8 239.3 230.8 224.7 214.2 210.3 210.3 210.3 210.3 210.3 210.3 210.3 210.3 213.6 216.7 218.8 221 223 225.3 227.1 227.9 228.3 228.5 228.6 229.7 230.8 232.6 233.4 233.7 233.6 233.5 232.4 231.2 229.8 226.6 222.8 220.9 217.8 214.7 212.5 210.9 209.9 209.2 208.3 208 207.1 207.3 207.3 207.2 207.1 205.1 207.4 207.9 208.4 209 209.6 210.3 211.3 213 215.1 217.6 223.6 225.9 227.8 226.1 227.8 231.9 237.6 244.5 246.8 249.6 248.3 248.9 249.1 245.3 242.4 241.8 238.6 235.2 230.2 239.6 254.5 266.3 274.7 281.4 287.9
345 342.4 339.9 336.4 340.4 340.1 338 336 334.1 325.3 306 291.7 289.3 278.5 267.2 250.9 234.7 211 187.1 168.9 156.3 146.8 135.2 123.8 118.7 116.2 113 111.9 105.9 93.9 74 64.1 51 42.4 34 31.2 25 20.7 15.3 15.3 15.3 15.3 15.3 15.3 15.3 15.3 15.3 15.3 15.3 15.3 15.3 15.3 15.3 15.3 15.3 15.3 15.3 15.3 15.3 15.3 15.3 15.3 15.3 15.3 15.3 15.3 15.3 15.3 15.3 15.3 26.8 55.8 74 86.1 103 115.3 147.1 166.1 194.7 213.1 210 209.7 211.4 204 179.7 174.9 199.1 237.9 266.9 264.6 265.2 267.4 259.2 259.7 255.7 257.3 258.4 245.2 234.9 235.4 232.9 227.5 227 225.6 221.4 216.3 210.3 210.3 210.3 210.3 210.3 210.3 214.8 221.8 225.6 223.2 225.4 215.4 211.2 210.3 210.3 210.3 210.3 210.3 210.3 210.3 211.1 215.1 217.9 220.1 222.1 224 226.5 227.7 228.9 229.8 230.1 230.6 232.6 233.2 234 233.8 233.7 233.6 232.5 231.1 228.9 227.4 224.4 221.8 219.3 216.7 213.8 211.5 210.3 209.6 209.1 208.4 207.9 208.2 208.2 207.4 207.2 205.1 207.6 207.4 207.9 208.5 209.1 209.6 210.3 211.4 213.5 216.2 220.7 224.9 227.7 228.5 230 233.3 238.4 244 248.3 251 253.3 254.2 261.4 259 255.6 252.5 250.1 244.2 239.7 234.4 232.5 243.7 256.6 264.5 274.6 283.6
342.4 342.2 341 340.6 343.2 339.7 337.8 334.8 330.5 317.2 295.9 291 290.4 286.4 267.3 244.1 229.8 205.1 181.4 164.3 149.9 138.1 125 115.7 112.7 108.6 102.5 95.8 87.5 79.2 68.4 57.3 45.4 42.7 35.6 30.9 26.9 25.7 15.8 15.3 15.3 15.3 15.3 15.3 15.3 15.3 15.3 15.3 15.3 15.3 15.3 15.3 15.3 15.3 15.3 15.3 15.3 15.3 15.3 15.3 15.3 15.3 15.3 15.3 15.3 15.3 15.3 15.3 15.3 15.3 46.1 70.4 87.2 96.8 110.9 129.5 149.8 177.4 204 217.1 214.6 210.8 210 199 171.1 198 217.7 241.2 254.7 255.7 254 260.6 253.6 259.1 264.7 263 260.7 242.3 234.7 233.9 231.6 222.7 220.2 218.3 213.2 210.3 210.3 210.3 210.3 210.3 210.3 210.3 212.1 216.7 217.9 216.6 214.2 211.8 210.3 210.3 210.3 210.3 210.3 210.3 210.3 210.6 213.4 216.7 219 221.2 223.5 225.2 227.1 228.9 230.7 231.7 232 232.6 234.6 234.7 234.6 233.9 233.4 232.7 231.4 229.8 227.2 224.9 222.1 220.5 219 216.2 213.7 211.2 210 209.1 208.8 208.8 208.6 208.7 208.6 208.5 206.3 207.3 208.2 207.5 208 208.5 209 209.6 210.1 211.6 215.1 218.8 225.7 226.9 228.5 230.8 234.9 238.8 244.5 249.5 255.5 259.5 259.7 258.6 262.6 265.6 265.1 262.8 258.6 256 245.7 239.3 230.2 239.5 242.6 255.8 264.7 275.8
340.8 339.9 339.8 339.5 336.4 333.7 331.8 326.8 318.9 300.1 292 288.9 292.8 288.5 263.8 238.3 219.1 195.6 173.8 154.9 141.1 127.4 114.3 106.5 100.6 96.4 90.5 83.8 77.7 71.4 62 51.5 47.4 44.4 39.9 33.4 28.5 28.3 15.3 15.3 15.3 15.3 15.3 15.3 15.3 15.3 15.3 15.3 15.3 15.3 15.3 15.3 15.3 15.3 15.3 15.3 15.3 15.3 15.3 15.3 15.3 15.3 15.3 15.3 15.3 15.3 15.3 15.3 15.3 32.6 57.1 78 97.1 116.5 122.5 137.4 158.5 187.3 209.7 212.4 211.5 210.7 213 204.9 181.9 207.2 217.8 229.6 245.4 248.1 249.5 250.9 256.9 262 263.3 259.9 253.4 242.3 233.8 231 227.3 224.8 223.1 222.3 215.8 210.3 210.3 210.3 210.3 210.3 210.3 210.3 210.3 212.8 213.4 212.7 210.8 210.3 210.3 210.3 210.3 210.3 210.3 210.3 210.3 211.2 215.2 218.4 220.6 222.9 225.3 226.4 228.1 230.6 232.8 233.7 234.5 234.5 235.9 235.7 234.9 234.2 233.7 231.9 230.2 228.6 226 223.6 221.7 219.8 218.2 215.9 213 210.5 209.8 209.3 209 208.9 209 209.1 208.6 208.2 207.2 207.8 208.3 208.1 207.7 208.5 209.1 209.7 211.2 213.9 218.2 222.8 226.9 231.1 234.1 237.9 242.1 245 249.7 255.5 261.4 265.8 265 262.5 264.5 265.9 267.8 266 263.4 259.7 252.3 246.1 238.3 235.7 236.6 241.9 254.3 269.1
338.8 337.5 338.5 336.1 332.9 328.1 325.3 317 304.3 296.5 291.8 283.9 288.2 273.7 251.9 231.2 210.9 187.9 162.9 145.9 131.3 116.8 103.6 95.7 88.9 86.5 81.3 75.9 70.6 65.6 58.6 52.3 49.7 46.5 45 37.3 25.4 15.3 15.3 15.3 15.3 15.3 15.3 15.3 15.3 15.3 15.3 15.3 15.3 15.3 15.3 15.3 15.3 15.3 15.3 15.3 15.3 15.3 15.3 15.3 15.3 15.3 15.3 15.3 15.3 15.3 15.3 15.3 23.9 52.8 69.8 88 111 122.8 131.8 146.7 168.8 193.4 213 219.5 213.6 217 213.6 205.8 191.6 209.4 218.2 224.9 232.6 244.8 251.3 250.1 253.5 254.8 254.6 251.1 243.2 236.1 233.7 232.5 234.7 237.3 238.7 232.8 226.5 217.4 210.3 210.3 210.3 210.3 210.3 210.3 210.3 210.3 210.4 210.3 210.3 210.3 210.3 210.3 210.3 210.3 210.3 210.3 210.3 212.2 216.6 220.5 222.7 225 227.1 228 229.6 233.1 233.9 234.9 236.1 236.7 237.2 236.8 235.5 234.6 233 231.2 229.3 227.4 224.9 222.8 221 219.3 217.5 214.8 211.1 210.3 210 209.8 209.9 209.7 209.5 209 209 209 208.6 208.2 208.2 207.8 208 208 209.1 210.5 213 217.9 223.1 226.9 230.6 236.4 240.6 244.2 247.7 252.8 264.5 264 268.6 271.9 272.8 268.1 268.2 273.4 271.5 268.1 265.2 262.5 257.2 249.5 241.6 237.2 236.8 238.8 250.3 262.6
336.4 335.3 334.8 332.3 326.7 320.6 315.8 305.9 299 289.4 283.9 278.9 273.2 254.6 237.3 220.5 204.9 184 161 138 122.6 108.4 94.6 85.7 79.5 76 72.3 69.3 66.7 62.6 56.3 51.8 49.8 47.5 45.9 36.5 25.9 15.3 15.3 15.3 15.3 15.3 15.3 15.3 15.3 15.3 15.3 15.3 15.3 15.3 15.3 15.3 15.3 15.3 15.3 15.3 15.3 15.3 15.3 15.3 15.3 15.3 15.3 15.3 15.3 15.3 15.3 27.8 49.8 72.2 86.5 102.2 113.9 127.8 144.1 159.4 177.3 199.2 215.1 216.8 212.5 215 215.7 206.7 193.5 206.4 214.3 220.6 227.1 246.7 255.7 251.5 244.3 248.3 255.9 252.2 248.5 240.3 238.5 236.9 238 245 251.4 246.2 243.5 236.6 220.6 210.3 210.3 210.3 210.3 210.3 210.3 210.3 210.3 210.3 210.3 210.3 210.3 210.3 210.3 210.3 210.3 210.3 210.3 213.5 217.4 221.5 222.7 227.6 228 229.5 231.8 233.9 236.2 237.3 237.8 237.8 237.7 236.7 234.9 233.4 231.9 230 228 226.1 223.9 221.9 220.1 218.3 215.6 214 211.8 211.5 211.1 210.7 210.5 209.6 209 208.6 208.6 206.9 209 208.7 208.8 208.2 208.3 209.3 210.3 212.6 217.7 221.7 226.2 229.6 233.7 239.8 245.9 251.2 258.4 264.5 272.8 275.1 278 281 283.4 279 278.3 281.6 275.3 270.1 267.8 265.8 263.2 254 244.3 238 237.2 239.1 245.8 254.8
333.6 332 326.7 323.8 316.8 310.1 302.3 297.6 290 281 275.7 266.5 253.5 236.7 222.3 211.7 199.8 180.9 156.1 132 117.2 102.9 91.2 80.3 74.6 69.2 66 65.3 62.8 58.4 53.4 50.2 47.9 46.6 44.1 35 24.3 15.3 15.3 15.3 15.3 15.3 15.3 15.3 15.3 15.3 15.3 15.3 15.3 15.3 15.3 15.3 15.3 15.3 15.3 15.3 15.3 15.3 15.3 15.3 15.3 15.3 15.3 15.3 15.3 16.3 35.5 45 69.2 91.3 95 101 117.2 134.4 152.4 171 189.1 210.4 214.9 212.2 207.8 210.6 207.1 201.5 199.2 209.2 213.6 218.1 224 236 246.6 244.7 242.3 247.1 248.3 247.5 248.1 257.6 258 247.5 252.9 254.4 260.5 255.7 262 249.2 233.5 220.4 210.3 210.3 210.3 210.3 210.3 210.3 210.3 210.3 210.3 210.3 210.3 210.3 210.3 210.3 210.3 210.3 212.2 214.2 217.9 225 229.9 231.2 231.4 232.3 233.9 235.6 237.4 238.7 238.7 237.7 236.3 235.4 233.4 232.3 230.6 228.7 226.8 224.8 222.9 221 218.9 216.1 214 213 212 211.7 211.3 211 210.4 208.8 208.8 206.9 206.9 209.2 208.9 208.8 209.3 208.7 209.7 210.4 212.5 215.9 222 226.5 230 234 240.7 247 253.4 260.7 267.8 274.9 281.5 284.6 287.8 292.7 303.1 295.6 286.1 284.1 278.3 274.5 271 268 265.6 255.9 246.8 238.8 238.2 240.3 243.6 253
333.2 325.6 315.4 311.5 307.2 302.8 297.9 290.2 282.8 274.2 268.4 253.6 239.2 227.6 213.7 203.4 190.8 174 147.2 127.9 112.3 98.9 87.5 80.1 74.6 71.2 64 60.8 57.7 54.4 51.2 47.5 45.1 43.7 39.7 31.2 23 15.3 15.3 15.3 15.3 15.3 15.3 15.3 15.3 15.3 15.3 15.3 15.3 15.3 15.3 15.3 15.3 15.3 15.3 15.3 15.3 15.3 15.3 15.3 15.3 15.3 15.3 15.3 15.3 44.3 55.8 59.2 83 96 98.6 108.5 128.3 144.6 163.9 183.8 198.8 221.8 220.1 218.1 207.3 204.5 202.8 197.1 202.7 207.7 211.7 216.5 222.5 229.2 235.1 238.8 241.7 245.8 246.5 247.4 261.4 267 261.9 253 255.4 256.9 263 262.6 255.9 245.1 231.4 220.8 210.3 210.3 210.3 210.3 210.3 210.3 210.3 210.3 210.3 210.3 210.3 210.3 210.3 210.5 211.5 216.8 219.9 220 227.1 238.7 238.7 235.9 234.4 234.9 236.2 237.1 237.7 239.2 237.7 236.1 234.6 233.7 232.6 231.4 230.2 227.7 225.8 223.9 222.1 220.1 217.8 214.3 213.1 212.5 212.2 211.8 211.5 211.2 210.3 208.9 209.8 210 210.1 210.1 209.4 209.9 209.9 210 211 213.3 217 222.4 228.2 231 235.7 242.2 248.5 256.3 264.1 271.9 279.8 287.6 292.6 296.5 299.1 302.7 310.9 310.2 297.5 288.4 282.9 279.3 275.7 272 268.2 259.9 249.8 238.2 239.9 241.5 245.1 250.5
325.7 319 311.8 304.3 297.3 294.7 288.3 282.8 279.6 279 278.1 259.5 234.6 222.5 205.1 194.3 180.4 160.8 139.2 123.1 107.3 94.3 83.8 77.8 72.1 68.2 63 56.4 51.4 48.5 46 42.7 40.8 37.2 32.2 27.7 24.8 15.5 15.3 15.3 15.3 15.3 15.3 15.3 15.3 15.3 15.3 15.3 15.3 15.3 15.3 15.3 15.3 15.3 15.3 15.3 15.3 15.3 15.3 15.3 15.3 15.3 15.3 15.3 34 57.2 70.5 80.1 93.8 103.1 108.3 121.8 141.6 155.6 172.3 193.3 217 230.7 223.5 219.5 211.1 206 202.7 197.9 200 206.2 210.2 215 220 229.3 234.7 237.6 242.4 248 254.1 261 269.7 270.2 271 258.9 256.9 266.9 262.9 259.3 251.6 242.9 231.4 219.8 210.3 210.3 210.3 210.3 210.3 210.3 210.3 210.3 210.3 210.3 210.3 210.3 210.3 210.5 212.7 217.7 222.5 223.7 233.8 243.7 240.8 236.3 236.9 237.4 238.7 239.3 239.4 239.4 238.4 237.6 235 232.7 230.8 229.1 228.1 226.7 224.8 223 221.2 218.9 216.7 213.4 212.9 212.6 212.4 212 211.7 211.7 210.7 206.9 210.2 210.7 210.6 210.6 211.1 211 211.4 211.4 214.3 217.7 222.6 227.1 232 238 244.4 250.3 258.1 266.7 275.4 284.1 292.2 298.3 302.7 305.1 308.4 316.9 325 321.8 305.6 295.4 287 282.3 279.8 276.1 272.1 265 252.7 242.3 237.5 242.7 245.7 250
320.4 313.2 305.5 295.1 287.3 285.9 277.3 272.8 270.7 271.9 273.7 251.2 230.8 215 197.8 184 169.7 147.7 133 117.6 102.2 89.1 82.2 76.9 71 65.4 59.1 50.9 45.5 42.9 40.8 37.5 32.4 24.7 24.1 24.7 22.9 15.3 15.3 15.3 15.3 15.3 15.3 15.3 15.3 15.3 15.3 15.3 15.3 15.3 15.3 15.3 15.3 15.3 15.3 15.3 15.3 15.3 15.3 15.3 15.3 15.3 15.3 37.3 54 71.4 82.2 90.5 106 111.7 120.4 139 153.4 163.9 187 204.8 226.3 234 228.2 231.4 219.7 205.1 202.1 196.9 198.3 203.8 208.3 211.7 218.4 230.4 236.2 238.2 248 267.5 266.9 273.7 272.8 277.2 270.3 257.6 260.9 261.1 253.3 257.1 254.8 241.2 228.3 216.1 210.3 210.3 210.3 210.3 210.3 210.3 210.3 210.3 210.4 210.4 210.3 210.3 210.3 210.3 210.9 215.7 222 225.7 236.9 241.6 242.5 238.8 239.8 240.5 241.2 241.9 241.2 240.5 239.3 237.5 235.4 233.7 230.7 227.3 225.1 223.9 222.3 221.2 219.8 217.7 215.5 214 213.5 212.9 212.5 212.3 211.9 211.9 211.2 210.1 210.1 211 211 210.7 212.2 212.4 212.6 214.4 219.1 223.7 227.9 232.4 237.7 246.7 254.1 260 267.4 276.9 285.9 294.3 301.7 306.8 308.8 311.7 315 320.9 323.4 318.7 310.4 302.3 294.8 286.2 283.7 280.2 276.1 271.5 262.3 250.4 237.3 245.3 246 247.1
313.9 306.9 299 287.6 279.1 276 267.2 260 258.2 264.3 255.8 240.6 224.6 205.9 188.2 175.8 155.4 139.4 126 111.4 95.8 86.1 80.7 75.9 69.9 63.6 56.6 48.4 40.8 36.8 33.2 29.1 23.6 18.7 15.3 16.5 15.3 15.3 15.3 15.3 15.3 15.3 15.3 15.3 15.3 15.3 15.3 15.3 15.3 15.3 15.3 15.3 15.3 15.3 15.3 15.3 15.3 15.3 15.3 15.3 15.3 15.3 20.3 63.9 67.8 79.5 86.3 103.5 113.5 119.8 135.3 153.2 164.8 178.9 202.8 220 233 234.9 229.7 228 214.1 201.6 196.9 196.9 198.3 201.8 204.5 208.2 216.4 229.2 231.3 239.6 262.7 266.8 266.5 273.3 276.7 278 270.9 259.4 256.5 249.5 248.5 255.3 247.3 232.6 224.4 215.1 210.3 210.3 210.3 210.3 210.3 210.3 210.3 210.3 211.2 213.3 213.1 212.9 213 211.2 213 217.5 224.1 231 237.3 235.8 237.7 241 242.5 243.9 244.6 244.7 243.6 242.2 240.7 238.1 235.7 235.3 232 229.2 227.5 225 222.3 219.5 217.9 216 214.7 214.6 214.1 213.6 213 212.4 212.1 212.1 211.4 212.9 211.9 211.3 211.8 212.2 212.8 212.8 216.1 218 223.8 228.5 232.9 237 245 254 261.4 269.2 278.4 287.5 296.3 304 312.2 316.4 323 321.1 321.2 324.2 325.3 321.3 315.9 312.5 304.8 296.8 290 284.9 279.7 276.3 272.6 257.2 245.8 245.7 244.6 245.8
306.1 300.2 291.7 280.4 271.6 266.5 260.1 253.8 251.7 251.9 244.6 232.7 222 202.5 182.7 163.8 145.1 128.8 116.1 102.1 90.1 84 79 74.6 68.8 62.8 56.9 48.5 41.8 35.1 28.2 22.8 18.5 15.3 15.3 15.3 15.3 15.3 15.3 15.3 15.3 15.3 15.3 15.3 15.3 15.3 15.3 15.3 15.3 15.3 15.3 15.3 15.3 15.3 15.3 15.3 15.3 15.3 15.3 15.3 15.3 15.3 46.3 75.4 79.1 87.6 98.4 116 126.8 136.4 157.6 175.8 183.4 193.6 219.9 234.4 234.9 234.7 235 233.7 221.9 205.6 198.5 196.9 199.2 200.6 199.9 205 216.9 220.8 227.7 237.2 247.2 254.4 261.7 263 264.4 268.2 257.5 254.1 247.1 244.8 241.7 237.9 236 234.6 226 217.9 210.8 210.3 210.3 210.3 210.3 210.3 210.3 210.3 212 215.3 215.8 217.8 219.5 219.4 219.5 221.2 226.7 231.5 234.8 237.7 239.5 242.1 245.8 248.7 249.2 247.7 246.1 244 241.1 238.6 237 235.1 232.9 230.5 227.8 225 222.4 220.1 218.3 216.3 215.6 215.1 214.5 214 213.5 213 212.5 212.6 212.6 211.9 212.1 212.6 212.6 212.8 213.6 215.1 219.3 222.3 228.2 232.4 237.3 243.6 251.9 259.9 267.9 276.9 288.9 298.5 306 313.3 324.8 338.9 349.5 353.1 346.6 340.1 333.5 330.7 327.6 324.4 315.5 305 296.1 290 285.2 280.9 276.4 266.5 249.5 246.5 247 244.6
295.5 293.4 279.6 269.7 263.8 258.3 251.7 249.1 242.5 240.6 232.6 221.2 216.6 192.3 172.3 155.9 131.7 117.7 106.1 95.1 86.9 81.1 75.8 71.2 66.8 61 54.9 47.1 38.4 30.2 24.9 18.7 15.4 15.3 15.3 15.3 15.3 15.3 15.3 15.3 15.3 15.3 15.3 15.3 15.3 15.3 15.3 15.3 15.3 15.3 15.3 15.3 15.3 15.3 15.3 15.3 15.3 15.3 15.3 15.3 22.2 42.7 69.9 78.3 87.2 98.3 111.9 133.4 151.9 158.3 172.6 188.7 196.4 211.9 234.5 236.1 236.7 236.3 235.4 229.8 220.1 207.5 200.8 196.9 197.9 197 196.9 203.8 214.2 217.9 223.6 228.7 231.6 235.6 246.8 254.2 258.7 266.6 266.9 261.1 254.3 251.3 252.9 248.8 239.2 231.6 224 215.7 210.3 210.3 210.3 210.3 210.3 210.3 210.3 210.3 211.7 215 217.9 221.5 226.6 228.4 227.3 226.6 228.4 232.9 238.2 241.3 243.3 248.9 250.1 253.1 258.5 252.1 247.9 244.8 241.3 239.3 237.5 234.9 232.5 230.4 227.7 225 221.5 219.6 219.2 216.6 215.8 215.5 215 214.4 213.9 213.4 212.9 212.7 213.1 212.5 213.1 213.9 213.5 212.4 215.6 218.5 222.2 227.5 232.3 237.4 243.1 252 259.2 268.8 278.1 286.6 298.7 307.3 319 339.4 356 373.1 384.3 387.2 386.2 378.6 370.4 359.7 349.7 337 322.5 309.6 300.9 295.2 290.8 286.3 280.6 272.6 259.4 249.7 249.1 248.5
284.8 276.8 267.5 261.7 251.6 240.8 236.9 229.4 225 219.1 212.5 210.3 198.3 173.4 156.9 136.7 116.7 107.5 97.3 89.5 83.4 77.2 71.6 67.1 64.1 56.6 49.1 44.1 34.6 26.5 19.5 15.3 15.3 15.3 15.3 15.3 15.3 15.3 15.3 15.3 15.3 15.3 15.3 15.3 15.3 15.3 15.3 15.3 15.3 15.3 15.3 15.3 15.3 15.3 15.3 15.3 15.3 15.3 15.3 28.3 70.4 74.4 74.7 82.9 96.9 113.9 133.7 159.3 169.2 171.9 183.4 192.6 201.5 218.1 238.9 236.8 239.6 238 232.5 231.7 222.3 213.5 200.3 196.9 196.9 196.9 196.9 203.7 212.8 214.1 218.1 221.4 223.7 228.9 242.4 250 262.1 270 269.4 272.1 265.1 260.9 262.7 261.1 246.6 228.4 219.7 211.1 210.3 210.3 210.3 210.3 210.3 210.3 210.3 210.3 212.7 216.1 219.3 227.4 234.8 235.6 233 230.4 231.5 237.5 241.8 244.5 247.6 253.4 254.2 258.7 259.4 251.8 248.9 245.2 242.6 240.9 238.1 235.6 233.1 230.6 227.8 224.8 221.8 218.5 217.6 216.7 216 215.9 215.4 214.8 214.3 213.8 213.3 212.9 213.4 213.7 217.5 218.3 214.6 216.1 219.4 224.3 224.9 232.3 237.9 243.7 250.6 260.6 269.8 278.3 285.5 297.7 311.5 330.2 347.6 373.8 390.7 400.7 407.5 422.3 427.6 425.4 412.5 395.4 379.6 353.3 327.5 314.4 306.9 300.9 295.7 289.1 283.9 278 263.4 251.9 250.9 250.1
276.9 268.3 263.4 252.7 234.8 228.4 224.3 218.8 212.8 202.3 194.7 181.2 170.3 154.9 142.3 124 110.5 100.2 92.2 85.8 79.4 72 65.7 60.9 54.9 48.3 41.6 35.6 28.3 21.4 15.3 15.3 15.3 15.3 15.3 15.3 15.3 15.3 15.3 15.3 15.3 15.3 15.3 15.3 15.3 15.3 15.3 15.3 15.3 15.3 15.3 15.3 15.3 15.3 15.3 15.3 15.3 15.3 15.3 33.6 78.1 83.2 84.1 100.7 111.4 138.9 153.2 170.8 177.1 182.3 195.6 201.9 207.1 233.2 233.9 235.2 237.6 238 234.5 235.7 230.5 213.9 197.5 196.9 196.9 196.9 197.5 203.1 208.9 211.9 215.2 217.2 220.6 227.1 234.6 247.4 263.5 280 289.3 287.6 278 270.3 265.3 263.7 247.1 222.9 210.3 210.3 210.3 210.3 210.3 210.3 210.3 210.3 210.6 212.9 215.5 217.1 220.7 229.4 232.8 235.4 238.5 234.8 235.3 240.4 244.4 248.5 252.2 256.4 260.2 262.5 255.8 250.8 248.9 246.2 244.9 242.6 239.8 236.5 233.8 231.2 228.1 225.1 221.7 218.4 217.5 216.9 216.5 216.1 215.8 215.2 214.7 214.3 213.9 213.1 214.7 217.3 218.7 216 216 221.3 225.8 230.5 231.6 238.4 243.5 249.3 260.3 272.8 280 287.3 295.2 312.3 332.2 359.3 386.9 404.6 415.7 424.2 431.6 445.2 454.4 452.6 438 413 382.3 352.9 333.3 322.5 315 307.9 301.4 294.5 287.7 280.7 269.3 255.3 253.4 252
264.5 257.8 247.5 235.3 224.4 222 219.4 215.7 204.3 195.2 186.8 174.4 161.9 146 126.6 113.3 102.6 94.8 88 81 73 64.7 57.6 52.5 46.7 40.4 33.9 27.6 19.7 15.3 15.3 15.3 15.3 15.3 15.3 15.3 15.3 15.3 15.3 15.3 15.3 15.3 15.3 15.3 15.3 15.3 15.3 15.3 15.3 15.3 15.3 15.3 15.3 15.3 15.3 15.3 15.3 15.3 15.6 58.3 94 93.3 109.7 134.1 140.6 162.3 178.6 191.9 186.7 190.3 199.6 214 218.1 235.6 234.6 226.6 225.3 228.6 229.4 230.3 222 208.5 196.9 196.9 196.9 196.9 198 202.1 207.6 212.2 215 217.7 222.4 229.2 235.6 245.5 264.8 280.1 280.2 285.1 278 272.8 261.6 249.5 234.6 216.9 210.3 210.3 210.3 210.3 210.3 210.3 210.3 210.3 211.5 214.8 216.9 217.3 221.1 227.4 230.3 232.8 233.9 235.5 238.8 242.5 246.1 252.9 254.1 258.6 259.6 256.2 252.9 251.9 249.8 247.7 246.1 243.9 241.3 237.9 235 232.2 228.7 224.5 221 218.6 218.2 217.8 217.3 216.7 216.1 215.7 215.4 215 214.2 211.4 216 217.5 216.6 216.8 219.1 224.4 228.5 231.3 238.2 243.5 248.3 258.5 267.3 276.7 283.5 299.2 319 345.9 372.2 394.9 412.6 422.3 432.7 442.1 450.6 459.6 468.4 468.3 449.6 408.1 386 358.1 341.1 330.7 322.4 315.2 307.6 299.7 292.7 285.6 275.4 259.5 254.8 253.3
252 243.4 234.4 224.7 220.3 214 210.3 204.1 194 185.7 177.8 169.6 161.6 147 120.9 102.7 94.1 88.9 82.6 75.2 66.3 57.7 50.6 44.5 38.9 32.7 24.6 15.8 15.3 15.3 15.3 15.3 15.3 15.3 15.3 15.3 15.3 15.3 15.3 15.3 15.3 15.3 15.3 15.3 15.3 15.3 15.3 15.3 15.3 15.3 15.3 15.3 15.3 15.3 15.3 15.3 15.3 15.3 52.3 96.8 106.6 110.4 137 159.9 165.8 168.7 184.4 193 199.4 203.3 215.7 226.4 238.3 242.7 232.3 227.3 224.7 225.2 226.6 227.4 218.3 204.3 196.9 196.9 196.9 196.9 199.3 202.8 207.1 214.9 217.7 223 229.6 231.7 238.7 247.7 256.6 271 275.3 269.5 268.4 252.6 243 230.2 222.8 216.6 211.1 210.3 210.3 210.3 210.3 210.3 210.3 210.3 213.7 218 218 216.8 220.4 227.2 231.1 234 236.7 240.2 241.9 244.7 247.9 251.4 258.7 257.5 257.1 255.9 253.9 252.8 251 249.7 247.6 245.1 242.3 239 235 232.4 228.7 223.8 220.5 218.9 218.5 217.9 217.3 217 216.6 215.7 215.4 214.9 211.4 215.5 217.6 218.1 218.8 220.7 221.9 226.5 231.5 236.6 242.6 247.2 252.4 260.2 270.3 280.9 301 322.4 346.1 372.2 390.4 408.2 420.5 431.6 444.7 457.1 467.2 477.8 482.5 471.8 448.3 416.3 402.5 373 354.3 338.2 328.5 322.2 315.4 309 299.7 291.6 281.8 268 256.6 254
