ncols 200
nrows 82
xllcorner 300000
yllcorner 754650
cellsize 50
418.9 415.4 411.8 407.9 405.6 403.6 400.7 397.6 394.9 394.1 392.6 390.4 388.7 392.4 393.3 387.3 384.9 384.7 383.9 383.4 382.1 377.3 374.2 371.3 365.2 361.2 360.4 359.8 361.1 360.2 358 358.6 361.4 360.4 359.9 355.5 354.8 352.6 350 346.3 343 341.6 340.2 338.6 337.9 337.5 338.1 339 341.3 342.6 342.6 343.5 342.9 345.6 345.9 348 351.7 356.8 358.8 362.4 367.7 370.8 372.3 375.9 372.8 368.2 364.1 363.4 361.4 359.9 356.7 354 351.7 348.6 344.5 340 336.9 334.2 330.9 324.8 322 322.1 323.9 326.4 319.2 311.7 310.8 311 320.9 322.4 314.4 309.2 307.1 307.6 313.3 320.2 324.4 321.7 320 320.8 318.8 319.3 321.8 323.3 320.5 321.5 323.3 320.5 318.4 318.9 318.8 318.7 319.6 320.7 320.8 320.1 317.4 316.3 316.9 317.3 319.5 322.2 324 324.4 324.4 325.6 327.1 328.5 330 331.9 333.8 335.9 337.3 338.4 338.9 339.7 340.9 340.5 338.3 337.2 332.3 330.2 328 324.3 321.4 319.8 315.9 310.9 307.5 306.7 303.6 298.5 291.1 285.1 272 261.2 251.9 244.3 241.2 230.3 228.2 222.7 212.6 209.1 207.5 207 205.6 203.8 198.6 197.8 197 196.3 193.6 196.2 202.7 203.9 206.5 210.3 211.4 211.2 216.6 223 226.5 229.2 231.9 235.1 239.3 245.7 249.9 255.9 261 265.6 269.4 271.9 274.4 277.5 281.2 288.5 294.2 298.9
413.9 410.8 407.5 402.8 401 399.2 397.6 395.6 392.5 392.1 390.5 388.2 386.4 386.1 388.4 384.9 382.1 378.7 379.1 376.9 375.9 373.4 372.1 370.9 364.4 360.7 362.3 360.9 357.9 356.7 353.5 353.2 357.1 355.5 357.6 354.4 354.1 352.7 349.6 346.5 345.7 345.8 343 343.2 345.5 344.3 345.1 347 349.1 351.3 353.1 353.1 354.6 356.9 357.4 360.3 363.6 367 370.7 372.6 376.7 378.3 380 382.3 379.9 374.8 371.2 367.6 364.2 359.5 358.2 356.9 356.5 353.8 351.7 347 342.3 338.1 334.1 326.4 325.9 331.2 337 328.5 320.7 316 313.8 314.9 321.9 319.2 311.7 309 308.9 309.3 310.4 319.4 322.7 324.5 327.3 330 324 328.9 330.3 327.1 328.5 327.9 327.2 322.8 322.9 322.6 322.8 324.1 324.9 326.6 326.1 321.8 320.3 319.8 320.2 321.5 322.3 325 327.1 326.8 328.3 330.5 332.1 333.6 333.7 334.9 336.5 338.3 339.3 339.9 340.6 341.7 342.8 342.7 341.4 340.2 337.1 334.2 331.1 328.7 326.8 324.1 320 315.4 312.6 309 307 303.7 297.2 286.6 278.2 266.7 254.5 247.4 242.2 231.8 226.7 223.6 218.6 210.5 207.8 206.7 205.9 205.2 198.1 197.1 196.2 195.6 195.8 193.6 195.4 203.9 201.4 202.8 205.5 210.3 214.7 220.7 224.8 227.6 232.9 235.5 242.2 245 249.1 256.9 262.2 266.8 270.4 273.3 276 278.4 282.4 285.1 292 296.8
408.9 405.9 400.7 396.8 394 395.1 394.2 391.9 390.1 389.1 388.2 386.7 384 381.7 380.6 379.6 376.5 375.9 375.3 373.5 371 369.2 368.5 368.7 362.6 363.5 364.5 360.2 355.4 354.3 353.9 352.7 353.5 353.4 354.4 354.8 354.1 353.5 352 350.1 348.6 349.1 347.9 349.2 348.4 351.5 351.6 354.5 356.9 359.4 361.3 361.3 364.3 365.6 367 372.2 374.3 377.7 379.7 382.2 384.2 387 387.8 389.6 390.5 383.9 378.4 374.8 370.7 363.6 358.6 358.6 359.3 359.2 355.4 351.4 345.9 340.5 336.5 330.7 330.5 331.7 332.6 328.4 323.2 319.6 317.7 317.8 321.6 316.4 311.8 309.9 313.2 315.9 314.7 324.5 324.9 330.1 334.4 335.7 335.2 338.2 331.1 337.6 333.5 331.1 328.6 328.6 327.5 328 328.4 328.7 329.9 330.1 330.1 328 326.8 324.5 324.1 325.1 326.7 328.1 331.2 332.8 334.3 335.3 336.9 338.8 338.4 337.7 338.8 340.5 340.9 341.3 342.3 344.2 344.3 344 343.7 342.2 340.8 338.6 334.9 333.9 331.3 328.2 324.3 321.9 318.3 310.6 307 303.3 298.1 291.2 283.7 272.6 259.4 251.5 248.4 238.9 228.2 222.6 223.2 212.1 209.2 207.1 206.8 201.1 197.6 197.1 196.3 195.6 195.2 195 193.3 197.2 199.7 206 211 210.3 212.8 220.2 222.8 225.9 229.7 235.7 240.3 244.9 248.2 255.6 262 265.8 271.2 274.3 276.6 280.2 284.7 288.4 294 300.4
404 399.2 394.9 390.5 387.7 387.8 389.2 388.4 387.8 387.5 386.6 385.1 382.3 379.7 377.4 378.9 374.4 370.9 370.2 370.1 366.6 366.4 365.2 363.6 360.9 361.4 359.2 356.2 353.9 353 351.4 354 354.8 354.7 354.7 354.8 354.5 353.8 353.3 353 349.5 350.2 352 353 353.1 357.8 358.3 360.1 363.2 365 365.1 369 366.5 371.1 376.6 382 383.2 387.1 392.5 395.3 396.7 400.3 398.3 395.3 393.6 389.2 387.8 385.3 382 378.2 368.2 365.1 366.2 364.6 359.3 352.7 348.2 343.8 340.7 336.1 333.7 333.2 331.8 329.1 326.2 325.2 324.4 330 328.4 319.8 314.6 312.6 316.1 319.1 317.9 320.9 330.2 338.2 338.6 334.5 341.2 342.9 338 341.3 336.4 335.3 333.8 334.2 333.8 333.8 333.4 332.6 332.8 333 333.2 334.2 332.4 330.1 329.1 331.1 331.8 333.9 336.6 338 339.5 339.6 340.5 340.8 340.5 340.3 340.8 342.3 342.7 343.3 344.1 345 345.3 345.5 345.1 343.8 342.3 340.9 339 336.3 333.5 330.8 328.6 326.7 321.5 313 307.6 302 296.2 292.3 285.8 274.5 257.7 258.3 253.8 239.3 230.9 227.3 226.2 214.7 211.2 208.6 206.6 198.2 197.5 196.9 196.3 195.5 194.8 194.5 192.5 203.9 203.9 205.1 207.9 212 218.1 217.8 221.5 224.6 230.9 235 239.6 243.8 248.4 254 261.2 268.3 272.9 276.1 278.1 280.5 284.6 289.6 293.6 300.8
399.4 394.6 390.8 383.4 381.8 381.7 382.2 383.6 383.9 383.8 383.7 381.9 379.6 376.9 374.5 374.7 369.2 367.4 366.9 364.9 363.4 361.5 359.4 356.9 356.1 354.8 354.3 352.5 351.9 351.6 353.8 354.7 355.1 355.1 355 354.9 354.8 354.2 352.8 351.1 351.5 351.6 355.1 357.2 356.5 360.8 360.5 363.3 366.7 368.8 371.1 373.9 374.1 377.9 385.4 388.5 394.5 399.6 406.2 409.4 409.4 411.7 410.4 409.3 400.5 396.7 395.2 396.7 399.7 399.1 396.3 377.3 370.8 366.4 357 352.9 347.7 345.6 346 340.8 337.1 334.6 332.1 330.6 328.7 329.4 332.6 334.4 329 321.8 318.7 315.8 317.8 318.9 319.7 322.3 331.2 340.1 338.9 337.4 343.7 341.2 343 343.3 337.8 338 338.2 338 338.9 338.7 338 336.8 335.9 337.1 337.1 336.8 335.9 333.4 333.7 335.3 336.2 338 341.2 343.3 344.1 343.2 343.1 343.7 344.5 345 344.8 344.7 345.2 345.8 346.1 346.1 346.3 347.1 346.1 345.3 343.9 342.2 340.9 338.3 335.6 333.8 331.7 332.2 324.5 316.2 309.8 304.7 299.6 292.5 287.5 275.8 264.4 254.6 253 240.8 234.2 232.3 226.2 220.9 212.3 211.5 208.6 201.7 197.5 196.4 195.9 195.5 195.2 194.4 191.4 202.9 203 204.4 206.8 209.1 213.1 218.4 220.4 223.7 230 234.2 237.7 242.4 249.2 256.2 263.1 270.5 274.9 277.5 280.4 283.2 286.8 289.8 293.2 300.1
395.5 390.2 386.6 381.2 378.7 377.2 377.7 379.1 378.7 380 379.7 378.2 376 373.8 372.2 370.1 366 364.1 362 360.1 357.4 356.4 354 353.3 353.3 354.3 352.3 350.4 350.2 350.2 353.7 355 355.3 355.5 355.4 355.2 355.1 354 352.2 353.1 355.1 355 357.8 358.9 358.5 363.1 363.2 366 370.6 373.2 376.7 378.9 377.9 385.5 390.3 395 400.7 404.8 408.3 410.3 411.4 416.2 416 406.1 402.8 408.6 402.7 401.5 403 400.8 402.3 393.3 378 368.7 364.8 361.1 354.9 350.4 348 343 339.3 336.9 335.7 332.9 330.8 329.7 334.3 329.9 327.5 325 322.7 319.4 321.3 322 322.7 325.7 333.7 340.1 341 340.1 344.8 345.1 344.6 343.8 343.9 343.9 343.5 343.2 345.5 343.1 342 342.1 341.8 340.7 342.7 340.2 338.1 337.6 337.3 338.5 339.9 341.9 344.7 347.5 347 350.1 350 348.9 350.1 350.1 347.2 348.5 348.8 348.1 347.9 347.7 347.3 347.7 346.9 346.1 345.4 344.6 342.5 340.4 337.7 336.7 336.3 336.9 334.4 318.8 314.1 308.2 302.6 296.2 286.7 276.3 270.1 262.8 253.1 249.6 237.8 232.6 230.8 224.3 214.4 211 211.4 209.4 197.1 195.4 195.2 194.9 194.5 194 191.4 202.2 202.9 203.6 209.2 208.6 211.4 217.3 219.5 225.4 230.7 232.9 237 242.5 249.1 255.8 262.5 269.6 276.7 281 283.1 287.9 288.5 293.2 296.9 301.8
392.8 387.1 382.2 371.8 373 372.4 373.4 373.2 374.9 376.2 375.1 374 372.9 371.5 369.2 365.8 363.5 360.6 357.8 355.9 353.1 351.7 351.6 350.8 350.1 352.1 352.3 350.5 350.4 353.2 353.8 355.1 355.4 355.8 355.8 355.7 355.4 354.1 353.3 355.9 356.7 357.3 359.3 360.6 362.4 365.1 367.1 370.3 373.2 376.2 381.2 383.5 384.7 391.3 394.6 397.4 403.2 409.5 412.2 412.3 413.4 414.2 412.7 418.2 422.2 418.8 404.7 404.4 400.1 397.3 400 393.3 378.4 373.3 370.2 363.9 357.4 353 350 346.6 341.6 339.1 336.5 334.9 333.6 332.1 331.4 330 329.9 330.3 328.8 325.8 326.9 328.3 330.3 335.1 341.5 342.9 341.9 342.8 345.7 348.5 350.6 350.1 349.9 349.5 349.6 349.3 348.5 347.5 346.7 346.1 346.3 345.4 344.5 342.7 342 341.5 340.5 341.3 341.7 344.7 347.3 348.9 349.7 355.1 356.4 356.1 355.8 351.7 350.1 350.9 351.1 349.7 349.8 349.8 350 349.1 348.2 347.9 347.5 346.7 346.2 343.2 339.7 340.6 341.6 343.1 338 325.5 317.4 312.2 307 300.7 292.9 283.6 276.6 268.3 258.5 247.1 239.4 238.6 231.8 227.1 222.3 217.7 210.8 210.9 208.5 195.3 194.6 194.5 194.4 193.9 193.7 193.4 202 202.7 206.8 208 211.1 218.2 220.9 227.7 231.5 235.1 238.1 245 247.3 253.5 260.5 268.8 276.2 280.8 285.5 288 292.6 298.6 301.4 304.8
389.7 383.4 374.8 367.8 367.3 369.4 369.8 370.2 372 373.1 371.7 370.7 369.4 370.5 365.4 363.2 360.1 356.6 354.1 352.2 351.5 350.1 348.6 349.7 348.4 348.9 350.2 349.3 350.8 352.5 353.2 354.9 355.6 356 356.3 356.1 355.9 356.3 355.2 357.5 358.8 359.8 360.7 363.6 365.9 367.3 371.1 373.9 376.9 380.2 383.8 386.5 388.8 394.4 397.7 401.2 407.2 411.9 414.3 414.8 415.6 415.9 419.5 425.2 421.3 417.6 406.1 403.7 399 395.5 391.1 385.2 375.9 369.4 365.1 359.2 355.1 352.5 350.7 346.4 345.7 342.5 338.9 336.9 335.2 332.7 330.9 332 335.4 335.2 331.1 328 329.8 332.4 336.9 344.2 347.2 344 344.2 346.6 350.3 352.3 353.2 354.8 356.5 355.6 354.6 353.6 351.7 350.9 350.4 349.5 347.5 347.3 346.3 346.6 345.2 342.7 341.6 342.1 343.4 344.9 347.4 350.4 349.7 356 357.7 359.4 353.9 351.8 349.1 349.3 350.7 350.9 352.3 352.5 352.4 352 350.8 349.4 348.3 347.1 347.1 345.1 344.1 343.8 344.5 346.5 337.6 332.5 322.7 315.9 308.1 303.8 301.1 290.6 278.1 268.6 263.9 247.7 244.9 237.1 237.3 237 232.3 226.8 221.5 211.3 210.9 209.5 194 194.1 194.6 193.9 193.3 191.4 201 203.8 209.5 206.5 210.9 219 225.3 228.8 230.7 235.1 240 244.2 248.3 252.8 259.7 266.9 276.1 282.3 286.7 290.8 298.4 303 306.8 309
385.2 378.1 370.9 365.3 364.8 366.7 367.2 366.8 367.3 368.9 368.7 367.4 366.4 365.6 366.8 359.9 356.7 353.1 350.6 351.8 350.5 348.6 348.4 348.4 348.4 348.4 348.4 348.4 349.2 350.9 351.6 354.5 355.3 355.3 356.3 356.8 357.3 358.3 358.4 359.4 360.8 361.8 363.6 366 368.2 370.8 373 376.6 379.6 383.1 386.1 388.1 392.6 397.4 401.5 404.5 410.3 413.6 415.7 417.3 418 419.3 422.1 427.6 425.1 416.8 408.8 405.1 398.3 394.6 393.2 389.7 378.4 369.2 365.9 357.2 352 348.5 346 342 340 339.1 339.3 335.2 332.5 332.3 332.1 334.6 339.7 331.5 329.7 331.1 332.7 337.9 345.1 350.5 346.8 346.3 347.8 350.8 353.6 355.7 358.3 360.4 362.1 362 360.2 357.5 357.1 355.5 353.1 351.9 351.3 351 350 347.4 345.8 344 342.2 343.2 344.4 345.4 346.4 347.5 347.8 350.7 353.6 355 352.3 351.9 349.4 348 348.5 350.5 354.2 354.4 355 356.8 354.8 353 349.5 347.7 346.8 348.7 349.7 345.4 344.8 343.1 338.3 333.4 326.4 318.5 311.4 305.7 301.6 295.1 281.2 274.3 265.7 254.9 246.2 239.7 238.8 241.2 239.3 235.9 229.6 213.7 210 206.4 202.9 193.9 193.8 193 192.8 191 200.4 204.5 206.6 207.3 210.6 218.7 224.3 226.6 227.9 237.7 239.6 246.6 251.2 255.7 261.1 267 274.7 280.4 286 295.5 302.8 309.1 313.5 323.8
379.3 373.8 367.8 364 363 364 364.7 364.8 364.2 365.7 365.3 364.4 363.5 362.4 361.1 359.2 354 351.9 350.2 348.9 348.4 348.4 348.4 348.4 348.4 348.4 348.4 348.4 348.8 349 350.7 352.5 353.8 355.3 356.5 358.1 359.5 360.1 360.7 361.6 363.2 364.9 366.6 368.7 370.9 373.6 376.3 380 384 386.5 390.7 393.9 397.3 401.6 405.1 408.5 412.3 415.5 418.1 420 420.1 421.7 426 432.6 429.1 417.4 414.7 411.3 404.8 396 391.3 387.7 382.1 370.8 365.9 359.7 353 349.4 346.6 342 338.2 336.3 335.5 332 332.3 332.3 332.1 331.8 331.2 330.2 333.8 334.4 335.5 339.9 348.5 348.7 348.2 349 351.6 354.6 357.4 361.1 364.5 365.7 367 366.2 364.4 362.7 361.4 359.7 357.6 358.6 358.6 357.2 352.7 349.4 348 346.6 344.9 346.5 348.6 347.9 346.1 344.4 342.8 342.6 347.3 349.5 349.7 350.8 350.6 347.2 347.6 349.3 354.2 357.3 359.5 358.7 360 357.5 352.4 348.3 345.2 346.7 349.7 345.7 341.5 340.1 335.9 331.7 327.2 321.5 312.9 305.4 299.6 295.4 288 277.9 266.9 257.7 248.4 242.5 241.2 243.8 243.1 238.5 231 220.9 211 205.9 201.7 193.5 193.3 193 192.7 190.3 200.6 202.6 202.6 205.7 208.6 214 225.1 226.9 229 238.1 241.8 246.3 250.5 256.5 262.1 267.3 274 278.7 284.4 293.4 304.7 312 318.6 322.3
376.6 372.3 367.4 364.1 363.9 363.5 363.2 362.2 362.3 362.6 361.9 361 359.9 358.8 357.5 354.4 351.2 350.9 349.3 348.4 348.4 348.4 348.4 348.4 348.4 348.4 348.4 348.4 348.4 348.6 350.2 351.7 354 356 357.9 359.5 361 362.3 363.5 365.1 366.7 368.1 370.1 372.1 375 377.8 380.3 383.7 387.1 390.7 395.8 398.9 402.8 406.2 409.9 412.2 415.6 418.8 421.6 422.8 422.1 427.4 430.1 434.2 424.1 420.9 415.6 411.6 406.4 396 394.8 386.3 377.8 371.1 367 359.2 352.5 349.3 345.5 341.4 338.2 334.8 332.5 331.4 331 331.6 331.7 331.1 330.3 332.8 334.8 335 336 341.2 347 351.7 352.9 354.2 354.7 356.9 360.5 364.7 367.8 370 369.6 368.2 366.8 366.6 367 366 364.1 365.9 365.6 363.2 359.1 354.1 352.6 350.3 348.5 349.8 353.3 351.3 348 344.2 342 339.6 340.9 344.4 344.8 346.5 346.9 343.6 345 351.4 355.3 359 363.9 361.4 361.2 363.2 361.7 351.9 345.6 340.7 340.3 341.4 342.2 337.9 334.4 329.9 325.1 322.3 315.6 304.1 297.7 293.6 291.9 284.2 270.7 260.4 253.3 245.3 243.4 241.8 242.9 239.3 230.2 214.4 211.8 207.5 204.1 200.7 192.5 192.4 192.4 192.7 200 200.4 202.7 203.4 206.7 210.4 226.1 228.1 232.3 235.9 240.8 246.8 253.1 259.5 263.9 269 272.8 279 283.8 292.2 299.9 312 318.6 323.9
372.9 369.7 367 364.3 364.1 362.5 360.5 359.5 359.6 359.4 358.4 357.5 356.4 355.2 353.3 350.2 348.8 348.4 348.4 348.4 348.4 348.4 348.4 348.4 348.4 348.4 348.4 348.4 348.4 349 351.1 352.9 355.5 356.7 359.4 361.4 362.6 364.4 365.4 367 368.7 371.1 373.7 375.6 378.7 381.8 385.5 389.2 392.9 395.8 400.4 405.3 409.2 412.6 416.3 418 420.2 423.4 426.2 427.5 428.2 432.1 435.1 435.6 424.7 419.7 416.7 412.4 403.8 401.5 392.3 387.3 379.9 371 365.5 358.6 353.2 348.7 344.5 340.7 337.3 334.2 332 331.8 330.6 331.2 331.3 330.5 330.7 335.1 337.1 338.3 336.7 338.2 347.3 351.4 353.8 356.2 357.4 359.4 362.7 366.5 369.6 371.2 370.1 368.4 368 367.6 368.5 369.9 369.2 369.4 369.5 366.4 369.6 367.1 353.9 353.4 351.4 352.1 353.3 351.9 351.2 346.9 344.1 340.2 337 337.8 339.4 338.9 337 337.4 344 351.8 358.2 358.9 359 360 363.1 367.6 365.5 356.4 348.6 340.8 338.7 335.2 336.6 334.9 331.3 327.9 324.7 318.6 315.5 309.1 298 289.7 286 281.5 273.4 263.8 254.7 248.2 242.7 242.2 241.5 240.9 225.9 216.8 216 210.3 208.5 208.1 193.8 191.8 189.6 192.8 198.6 200.6 200.6 202.8 206.4 208.6 222.3 229.9 230.5 233.6 242 245.6 251.8 259.9 266.5 269.1 272.2 279.3 283.8 289.7 297.7 304.5 314.8 323.9
369.5 367.8 365.2 364.5 363.4 361.6 358.7 358 357.6 357.2 355.1 353.3 352.1 350.9 350.5 349.1 348.4 348.4 348.4 348.4 348.4 348.4 348.4 348.4 348.4 348.4 348.4 348.4 348.4 350.1 353.2 355 356.5 358.2 360.8 362.6 364.3 366.1 367.4 368.9 371 373.8 377.3 379.3 382.9 386.6 390.7 394.3 398.9 403.1 406.1 411.9 415.8 420.7 424 427.5 433.7 443.1 439.2 434.5 435.6 436 440.4 433.1 430 423.3 422.1 418.4 410 400.4 394.6 388.1 380 373.5 363 360.5 353.6 347.8 343.3 339.7 336.1 333.2 331.5 330.8 330.6 330.5 330.6 330.4 330.7 339.5 344 343.7 337.3 338.8 350.4 352.7 354.3 356.2 358.1 361.2 365.5 368.7 371.1 372 371.5 369.9 369.5 368.6 366 368.6 368.8 370.7 368.7 369.3 372.5 371.2 357.3 357.8 355.9 354.7 351.6 351.9 353.8 350 344.7 342.1 337 334.8 334.7 334.5 336.5 335.8 338.9 346.8 352 352.8 352.1 358.7 362.9 366.9 364.2 360.1 352.3 344.2 336.9 333.9 331 330.2 327.9 325.7 322.8 317.9 311.9 308.6 301.6 295.1 287.5 279.9 274.6 268.9 258.9 246.5 240.3 241.5 241.9 238.1 232.9 228.1 221.5 222.3 217.2 208 194.5 191.6 191.9 192.5 192.6 200.5 200.7 202.3 205.4 207.6 220.3 225 227.6 235.6 241.2 243.6 250.8 259.4 266.5 269 273.1 278.2 283.5 289.2 294.8 302.6 309.9 319.7
368.2 365.6 364.8 364 362.5 360.7 357.7 356.2 356.1 355 353 351.1 349 349.3 348.9 348.4 348.4 348.4 348.4 348.4 348.4 348.4 348.4 348.4 348.4 348.4 348.4 348.4 348.4 352 354.3 356.2 358.4 360.9 362.9 364.8 366.6 368.1 369.7 372.1 374.7 377.4 380.9 383.3 385.2 389.8 396.4 399.8 404.9 409.4 413.3 419.1 423.6 429.4 437.9 458.1 467.1 473.4 467.5 450.8 446 442.6 441.2 436.5 434.3 433.9 424.9 418.6 409.1 401 397.7 389.2 382.6 373.6 365.5 359.6 354.8 347.9 342.3 338.5 335.3 332.9 331.1 331.1 331.1 330.9 330.9 331.2 336.6 343.9 348.1 344.4 338.7 340.4 348 352.6 355.8 358.8 360.6 364.3 368.7 371.9 373.7 374.4 374.4 371.2 368 368.4 363.1 363.5 364.8 367.2 368.3 369.2 372.9 371.7 357.5 359 355.1 352.7 348.5 348.9 349.4 349.8 346.5 342.5 335.2 333.9 333.1 333.9 335.1 335.3 336.7 341.1 346.4 347.9 347.4 351.5 358.5 364.9 359.5 357.4 353 345.5 337.4 332.6 328.6 326.4 324.9 322.9 321.6 316.2 311.2 304.1 300.9 296 292.1 285.2 275.4 269.8 265.7 256 246.7 239.1 241.3 241.8 235 232.4 232.3 230.6 222.8 220.7 214.7 202 190.1 191.7 192.5 195.3 199.9 201.1 204.5 207.2 219.2 220.4 229.2 240.1 241 244.4 251.7 259.3 266.2 270.7 274.2 279.1 282.1 288.9 294.2 300.1 307.5 313.7
367.4 364.3 362.2 363 362.3 360.1 358.2 356.3 353.2 353.3 352 350.5 348.5 348.4 348.4 348.4 348.4 348.4 348.4 348.4 348.4 348.4 348.4 348.4 348.4 348.4 348.4 348.4 350.5 353.5 355.3 357.9 361.1 363.4 365.3 367.2 369 371.2 373.9 376 379.2 381.9 384.9 388.9 392.1 391.4 398.3 405.8 411.1 415.4 419.6 424.4 432.7 441.4 455.9 472.9 491.8 489.1 480.3 460.5 449.3 445.6 445.5 443.7 442.3 438 427.8 427.4 418.7 407.8 399.7 392.7 382.7 373.6 364.2 357 354.1 347.7 341.5 338.9 335.4 332.6 331.1 330.9 331.6 332.9 342.9 346.5 349.1 349.9 352.2 344.3 343.1 343.9 348.6 353.7 356.7 360.2 363.7 366.5 370.6 374.5 375.6 376.3 374.5 369.6 363.9 362.8 360.3 359.7 359.9 362.4 366.7 369.5 369.5 360.8 357 358.3 354.1 352.5 346.4 345.6 343.8 345.2 345.2 341.7 338 334.4 331.6 332.5 333.4 335.2 336.9 338.7 340.9 344.3 344.6 347.5 350.1 345.7 351.2 350.9 347.9 344.8 336.4 331.4 328 325.6 323.9 319.3 317.5 315.5 312.4 305 299.2 297.5 298.8 288.3 276.5 270.3 263.6 256.9 250.7 241.4 233.6 235.1 233.5 233.9 228.4 216.3 222.1 221.7 209.7 204.8 189.7 191.5 191.2 192.1 198.5 202.6 206.4 207.4 213.8 223 233.6 238.2 240.9 244.5 251.4 261.8 266.3 271.8 275.1 278.3 282.7 289.1 295.8 298.8 304 310.7
367.2 362.5 361.9 362.6 360.7 359.6 358.5 358.2 352.9 351.3 351.3 349.3 348.8 348.4 348.4 348.4 348.4 348.4 348.4 348.4 348.4 348.4 348.4 348.4 348.4 348.4 348.4 350.9 352.9 355 357.7 358.8 361.9 364.9 367.6 369.8 371.9 374.3 377.4 380.4 383.8 386.6 390.2 394.2 398.3 398.6 400.6 411.2 417.5 422.2 428.8 436.6 446.2 456.8 469.8 486.6 496.9 494.7 477.8 457.4 453.8 465.9 469.1 460.3 456.6 445.7 436.3 436.6 428.6 415.5 403.5 391.5 383.1 377.6 370.1 359 350.7 343.6 339.3 337.6 335.2 332.2 331.3 331.3 332.7 344.7 349.2 350.9 352.7 349.2 346.1 348.3 346.6 346.1 348.9 356.5 361 364 367.9 370.9 372.5 375.5 378.3 377.5 372.5 366.9 363 359.4 358.4 357.4 356.6 356.3 356.5 362 358 353 354.7 356.4 353.4 348.7 345.1 340.3 340.7 340.4 338 336.1 336 333.7 330.1 329 329.4 332.1 334.6 336.7 338.9 340.5 342.3 345.1 343.2 343.1 342.4 342.3 341 336.4 334.7 330.2 326.3 323.4 321.7 319.1 313.9 312.3 312.9 310.6 300.4 295.3 296.8 291.4 281.8 273.6 271.8 263 250.3 245.6 238.5 230.2 229.1 229.8 221.6 215.9 213.6 215.3 206.5 201.7 200.4 190.9 191.2 191.9 198.6 204.2 206.1 206.2 213.7 221.5 236.1 235.8 239.5 246.5 251.5 261 266.1 273 277.4 279.7 282.9 288.4 294.2 298.7 301.5 307.1
364.2 361.7 361.5 363 360.4 358.4 357.9 358.4 354.9 352.3 350.1 348.9 348.5 348.4 348.4 348.4 348.4 348.4 348.4 348.4 348.4 348.4 348.4 348.4 348.4 351.8 353.3 354.8 355.9 358.6 360.9 360.7 363 366.8 368.7 372.6 375 377 380.4 384.2 388 391.4 395.7 400.1 404.6 407.8 410.3 418.5 427 433 439.6 447.4 456.5 468.3 478.4 494.1 502.5 488 468.5 454.5 458.3 474.5 469.8 464.4 468.9 463.5 448.6 440.6 432 420.6 408 401.3 393.4 383.5 378.3 369 361 352.8 345 337.5 333.5 332.1 331.3 331.9 338.6 349.9 352.3 353.3 352.8 347.8 346.7 349.6 351.5 349.9 355 362.5 365.7 369.5 373.9 376.2 377.5 378.2 378.7 377.1 368.5 364.3 362.3 358.2 354.9 352.7 353.2 353.3 346.2 344.8 345.2 346.5 347.8 349.2 348.5 345.9 343.5 338 337.3 336.3 335.8 334.2 334.1 330.7 329.5 326.4 326.2 326.6 331 335.4 339 339.8 341.6 343.5 343.4 341.4 343 340 340.1 336.4 332.8 330.6 327.3 322.5 321 320.7 315.3 309.6 305.9 305.6 303.6 295.1 293.4 295.7 294.3 280.1 269.6 262.9 255.1 245.3 239.4 233.3 226.6 224.3 224 216 215.9 210.4 204.4 201.1 199.7 188.3 190.6 190.4 196.9 199 203.5 208 214.6 224.1 232.3 235.5 241.5 248.5 252.7 258.8 265.8 271.6 277.1 280.9 284.8 288.4 291.9 298.3 301.9 305.9
363.3 360.4 359 360.6 360.3 357.4 357 356.8 353.8 352.4 352 349.5 348.6 348.4 348.4 348.4 348.4 348.4 348.4 348.4 348.4 348.4 348.4 350.7 352.7 355.1 358.2 360.2 361.1 363.8 364.2 364.9 366.7 369 372.3 373 376.7 380.4 384 387.8 391.9 395.7 400.4 405.3 408 413.6 420.5 429.6 438 442.3 448.7 454.8 466.2 478 486.6 499.7 493.2 471.4 453.6 452.2 464.2 472.6 474.9 467.7 472.6 468.1 462.7 442.3 435.3 425.7 419 412 400.9 391.7 387.8 376.2 371.6 365.2 353.7 345.3 336.5 333.7 332.3 331.9 334 345.4 348.7 350 349.1 348.7 350.3 352.3 356.7 361 366.3 370.7 374.8 378.3 380.6 382.3 381.3 379.1 373.2 370.3 369.6 366.1 358.8 352.2 349.9 349.5 348.6 347.5 345.2 343.3 342.3 343.4 343.2 342.1 342.4 341.9 338.5 337.4 334.3 333.6 333.2 333 331.9 327.1 326.4 325.3 324.7 324.8 326.3 332 336.4 337.6 340.4 340.6 340.3 341.9 342.9 343.5 341.3 338.4 335.3 333.6 334 328.9 320.3 320.1 314.4 311.3 304.4 294.3 297.4 298.2 297.9 285.4 296.7 284 273.8 266.8 259 247 240.9 235.3 231.2 223.8 222.3 222.1 217.2 208.7 202.8 197.3 194.7 191.6 189.3 190.1 194.9 199.4 204 207.7 221.2 233.2 229.9 242.3 248.3 249 254.2 259.2 263.5 269.2 274.9 281.4 285.9 289.5 293.5 297.5 302.9 306.9
362.2 359 358 358 357 355.8 355.7 355.2 353.3 352.4 352.4 351.7 348.8 348.4 348.4 348.4 348.4 348.4 348.4 348.4 348.4 348.4 349.1 352.5 355.5 358.5 362.1 363.7 366.1 368.5 370.2 370 371.5 373.9 377.1 379 379.5 383.5 387.5 391.2 395.6 400.5 405.5 410.5 415.4 419.6 425.3 435.2 442.5 448.3 455.2 463.4 473.1 484.3 489.1 491.9 481.3 455.2 447 455.9 463.1 474.2 474.8 470.4 469.9 466.9 461.3 448.5 438.6 435.5 424.8 417.3 404.1 398.4 389.3 382.7 373.7 370.2 361.2 356.9 348.8 338.7 336.9 332.4 333.6 340.5 351.4 352.7 351.3 352.8 355.9 355.5 361.4 368.6 371.3 373.4 381.3 382.1 384.7 385.3 383.1 382.7 374.8 371.5 367.9 364 354.5 348.7 346.8 346.3 345.8 345.5 343.6 343.2 343.8 341.6 339 338.5 337.6 337 336.7 335.5 334 334 332.3 332.9 334 326.7 325.1 324.6 324.4 324.4 324.6 327.1 329.7 333 335.7 336.1 339 341.3 344.4 344.3 342.4 343.6 337.3 334.6 334.5 336.4 321.1 314.7 314.6 309.3 303.1 296.8 288.5 286.4 291.5 281.1 277.2 279.4 272.1 267.7 266.2 254.3 238.3 235.9 231.1 227.1 222.7 221 216.3 204.2 200.6 198.4 191.7 191.2 189.2 189.3 194.6 198.4 204 211.8 230.3 235.3 234.6 240.6 249.1 252.9 255.4 260 265 268.9 273.3 282 288.2 291 295.6 300.1 303.8 307.8
361.4 358.2 358.3 358.9 357.8 354.7 354.5 353.9 352 352.7 352.6 351.9 348.6 348.4 348.4 348.4 348.4 348.4 348.4 348.4 348.4 348.4 348.6 353.8 356.8 360.5 363.3 366.4 368.4 371.8 373.7 373.3 376.1 378 381.2 383 384.5 385.5 391.9 394.9 398 404.3 411.3 416.8 421.8 426.2 433.3 441.4 449 453.5 458.2 468.9 480.8 485.3 488.9 481.3 452.9 437 442.6 455 460.8 470.5 476.9 474.4 468.3 464.1 457.1 445.6 445.6 438.2 431 428.5 423.2 414.8 399.2 391 382.5 376.2 363.2 360.5 354.7 345.8 343.6 336.4 333.6 338.6 351.6 354.7 354.5 360.5 365.2 368.1 366.7 372.6 377.1 377.4 379 381.2 383.4 384.2 381.4 379.7 372.4 369.5 368.7 361.1 350.6 350.9 350.9 348.9 347.6 348.4 348.7 347.3 348.8 344.2 340.6 339.6 335.9 335.2 334.6 334 333.1 333.8 334.2 333.6 335.5 328.3 326.4 325.1 325.5 324.6 324.2 325.2 327.8 330.9 333.5 336.3 338.9 341.2 342.2 342.1 342.4 342.7 335.3 335.7 339.3 338.2 332.7 316.8 312.7 308.7 307.1 296.4 284.1 281.5 279.3 278 277.7 275 271.4 272.1 264.2 258.1 245.1 235.5 229.9 228.2 223.6 220.5 214.3 205.2 201.4 202.5 193.2 190.8 190.5 187.2 199 198 203.5 223.9 237.4 237.7 238.2 246.4 249.1 252.4 257.1 259.7 264.6 268.7 271 276.9 287.5 293.4 296.1 301.1 304.8 307.5
357.5 357.4 356.9 358.3 356.2 353.7 353.5 353.5 351.8 351 349.6 348.4 348.4 348.4 348.4 348.4 348.4 348.4 348.4 348.4 348.4 348.4 348.7 353 357.4 361.6 365.1 368.4 371.1 373.7 376.3 375.3 378.6 382.2 384.9 386.7 387.1 386.6 395.1 402.8 406.4 410.2 415 420.5 425.2 432 439.7 446.9 454.2 462.3 465.7 470.2 480.9 486.3 478.5 455 435.9 433 437.5 452.7 460 471.5 472.2 469.4 461 457.6 453.8 453.8 450.3 441.9 437.1 440 435.8 427.2 409.4 393.1 388 380.8 373.4 367.1 359.3 349.8 348.4 343.3 337.1 337 344.4 353 359.8 368.7 373.6 372.8 369.5 375.4 376.3 378.8 379.5 380 380.5 379.8 377.9 377.9 371.2 369.3 368.2 360.7 353.5 355.7 358.6 359.4 354.1 355.6 355.7 355.6 347.7 345.4 344.5 345.1 344 339.4 336 333.9 333.9 333.8 334.6 335.2 338.2 331.1 326.2 326 326.5 326.6 323.7 323.9 324.8 326.7 328.5 332.6 337.6 340.4 341.7 342.5 341.5 341.3 335.5 335.9 336.1 338.7 336.9 323.1 311.7 307.9 309.7 294.1 286.6 280.5 277.1 276.8 277.8 275.6 274.9 271.8 270.8 264.7 248.5 240 233.6 227.3 226 219.1 214.1 209.9 202.1 202.9 205.3 190 190.1 188.9 197.9 198.1 204.7 222.5 235.3 234.8 240 247.1 252 253.4 256.9 260.7 264.1 269.8 272.2 275.9 281.8 292.7 297 300.2 303.5 308.4
356.4 356.4 356.1 355.7 353.2 352.9 352.5 351.1 350.8 351.4 349.2 348.4 348.4 348.4 348.4 348.4 348.4 348.4 348.4 348.4 348.4 348.4 348.7 353 357.5 361.8 366 369.4 372.1 374.5 377.6 379 382.3 384.2 386.6 390 394.5 397.1 399.2 408.9 413.5 416.5 419.2 423.7 428.5 435.3 442.7 450.2 456.4 469.8 476.9 472.4 477.6 479 459.3 441.8 430.4 431.1 435.1 449 461.4 467 467.2 465.5 463 458 454.9 454.2 449.1 442.9 441.1 442.7 440.9 426.4 414.3 396.8 390.9 387.9 378 368.7 362.4 355 352.5 349.1 345.4 340.9 343.9 355.3 363.5 375.5 375 372 374.2 381.3 380.4 379.6 380.5 381.1 381.4 380.4 377.5 373.7 370.5 368.7 364.4 357.4 356.5 359.8 362 361.4 358.9 359.9 363.1 358.7 351.7 350.1 349.6 351.6 349.9 348 341.8 337.8 336.5 335.4 335.4 335.6 341.3 337.9 329.9 327.5 326.5 327.1 324.2 323.3 323.4 324.7 327.5 327.6 329.3 329.4 330.2 338.3 337.1 334.8 330.7 335.5 338.3 336 336.7 328.7 312.8 304.4 297.6 290.9 288.5 281.9 277.6 274.2 274.3 274.3 275.1 276.8 278.2 264.7 253.1 242.2 236.9 232.4 224.6 220.1 217.1 211 201.5 201.9 203.7 193 189.6 186.9 197.2 197.7 205.2 213.8 220.5 229.6 237.7 246.7 252.6 256.8 260.5 259.7 262.1 267.2 271.5 277 281.7 287.2 295 299.2 303.7 306.7
354.6 354.8 355.2 355.1 352 352 351.2 351.1 350.5 348.9 348.2 348.4 348.4 348.4 348.4 348.4 348.4 348.4 348.4 348.4 348.4 348.4 350.8 353.6 357.7 362.3 366 370 372.5 375.7 378.9 381.4 383.9 386.6 390.2 391.3 397.4 400.5 402.6 408.4 415.1 418.6 422 426.3 433.1 438.8 444.4 453.6 462.3 475.5 489.3 476.4 472.3 461.9 440.6 432.4 429.8 430.3 436 444.2 464.3 465.4 467.4 466.9 471.4 466.3 457.7 458.2 452.6 446.7 444 443.5 438.9 426.8 418.5 404 394.9 391.5 388.7 382.3 368.6 359.6 356.4 354.9 351.6 348.3 348.6 360.1 366.8 380.2 382.3 373.8 377 381.4 382.1 383 383.2 382.8 383.5 383.7 380.9 377.8 376.8 368.9 362.3 360 362.7 367.5 365.5 368.3 364.7 364.5 365.1 358.6 356.3 355 353.4 350.7 351.6 349 349.7 342.7 343.6 344.9 343.1 339 336.9 335.7 330.7 329.6 327.2 326.1 325.3 324.5 323.3 323.2 325.3 326.1 321.9 320.2 319.4 323.2 327.8 330.9 323.9 328.3 342.6 342.6 338.3 333 311.4 307.6 296.4 289.9 284.5 282.7 275.9 273.3 272.8 272.1 271.6 273 273.7 264.7 255 243.8 237 232.6 228 220 215.3 208.8 203.4 205.1 206.5 196 189.9 190 197.3 198.6 204.3 213.2 218.6 231.8 242 247 252.3 257.9 260.5 260.7 262.1 266.4 270.1 274.4 280.3 286 291.3 299.5 302.3 303
354 353.7 353.8 354.3 350.9 351 351.3 350.3 351.2 348.9 348.7 351.5 348.4 348.4 348.4 348.4 348.4 348.4 348.4 348.7 349.5 350.4 352.6 355.3 359.7 363.8 367.1 370.4 373.4 376.1 379.4 382.2 384.5 388.5 392.3 392.9 396.9 402 405.9 412.4 416.6 421 425.7 430.5 436.2 441.4 448.2 457.8 470.8 481.7 490.4 470 461.9 447.6 435 430.3 429.9 430.6 436 446.2 460.1 463.9 466.1 474.9 478.9 474.1 461.5 458.1 455.4 452.5 449.4 449.6 442.2 428.7 418.1 403.4 401.9 400.5 395.6 388.4 376.3 372.4 364 360.9 361.6 361.9 359.8 357.5 364 378.4 382.5 376.6 381 386.5 388.2 386.8 383.8 385.3 386.3 385.7 384.4 382.1 378.1 373.6 363.5 366.8 370.4 369.6 368.6 370.8 370.8 365.6 364.6 364.8 365.1 357.8 355.5 352.3 351.1 349.1 349.2 347.3 349.7 349 348.1 345.1 340.3 334.9 331.5 330.2 328.1 327 326 325.2 325.4 322.6 322.7 323.2 319.7 317.2 316.2 316.6 320.9 320.5 319 319.4 328 337.9 339.4 320.3 313 308.4 299.9 289.8 281.3 279.1 276.7 272.7 272 271.8 273 269.4 267.9 267.9 258.5 249 239.4 234 228.5 221 214.5 206.7 198 206.5 192.8 188.9 189.4 189.4 197.3 196.3 202.5 212.4 218.7 229.4 238.5 247.2 253.5 256.9 259.6 261.2 263.4 265.2 270.2 275.1 279.9 284.6 289.8 293.7 299.4 302.2
352.3 351.9 351.5 350.4 350.1 350.2 350.7 349.9 350.1 349.2 349.2 349 348.4 348.4 351.6 348.8 348.4 348.4 348.3 349.3 350.8 352.2 354.3 357.9 362 365.8 369.1 372.2 374.9 377.3 379.3 381.8 385.9 389.4 392.4 395.1 399.9 404.8 410.3 415.3 419.5 424.7 432 436.7 440.8 446.4 453.4 459.1 473.9 483.2 475.5 460.5 450.9 438.7 432.3 430.3 429.8 431.6 436.3 444.9 457.9 461.4 466.6 474.9 477.2 474.3 466.4 459.6 460.2 460.1 457.7 455.7 447.8 438.1 420 413.2 405.2 403.1 398.1 392 388.8 382.6 374 368.8 367.5 371 365 358.8 358.2 369.5 378.5 380.2 384.8 392.8 392.9 392.5 385.2 387.7 393.2 389.4 387.8 387.2 380 373.7 370.2 374.8 374.2 372.6 373.2 375.1 374.5 368 370.8 370.7 368.5 366.1 360.7 358.4 355.7 356.8 357.8 358 353.2 350.7 349.8 349.7 347.7 338.7 330.5 330.7 330.1 328.6 327.3 329.1 325.9 324.6 319.8 320.1 319.1 317.6 317.1 310.8 314.5 317.1 314.2 309.9 314.2 323.8 334 315.9 314.1 308.8 302.8 294.4 284.6 273.5 273.8 272.3 270.2 273.7 265.1 261.2 265.6 268.6 261.5 255.7 242.4 235.8 228.7 222.1 216.2 205.6 193.6 192.9 189 188.8 185.4 189.1 197 196 203.7 212 221.2 228.5 238.4 248.2 251.4 255.8 259.5 262.1 264.7 266.5 267.6 272 277.3 282.9 287.7 291.6 293.8 301.5
351.6 350 349.5 349.2 349 349 349.3 350 350 349.3 349.1 348.8 348.4 348.6 349.5 349.4 349.8 348.9 348.6 349.5 350.4 352 354.2 357.8 362.6 367.3 370.8 373.8 376.6 378.7 380.9 383.9 386 390.8 394.4 398.3 403.4 410.7 415.3 418.3 422.4 426.9 433.7 438.7 442.4 445.7 451.4 461.3 473.3 478.2 460.3 452.8 442.5 434.1 430.1 430.7 429.5 433 436.9 446.6 455.2 458.9 465.4 469 473.8 474.4 467.9 468.1 467.3 463 461.7 457.4 446.7 439.4 429.6 417.6 411.3 405.5 400.1 395.6 394.6 389.8 384.9 375 376.2 374.5 366.5 359.4 359.2 364.5 376.1 381.9 387.6 395.8 397.4 392.5 393.2 392.4 393.6 394.8 393 390.6 387.2 379.4 377.1 380.5 379.9 378.4 376.8 379.3 375.6 373.2 377.7 375.2 369.6 365.6 363 361.8 365.2 366.9 366.3 363.1 357.3 354.4 353.6 350.5 350 341.8 333.7 331.6 330.4 329.4 330 328 326.1 326.1 323.6 325.7 320.6 320.3 317.9 316.5 308.9 308.3 306.5 305.1 305.8 307.5 311.9 309.4 312.6 309.7 303.9 297.6 288.7 279.9 268.4 263.6 260.4 258 254.9 256.6 257.2 261.8 258.8 253.1 246.1 238.5 231.4 224.1 216 205.9 196.8 188.6 188.3 188 188.6 195.7 195.5 196.1 203 211.8 215.7 228.4 231.2 245.7 251.6 254.7 258.5 262.6 266.2 266.9 268.9 270.7 275.4 280.7 283.5 289.9 293.9 297.4
351.3 349.4 348.4 348.3 348 348.4 348.7 349.9 350.9 350.5 350.6 353 348.4 350.4 350.2 350.7 351.6 350.2 349.8 350 350.5 352.4 353.7 357.8 362.8 367.8 371.7 375 377.8 380.4 382.6 385.5 387 389.8 395.3 401.1 407.8 414.2 418 421.7 427.2 433 437.6 438.2 441.7 444.6 448.7 459.1 466.6 463.3 445.7 440.3 429.9 428.1 428.4 428.5 430.6 433.9 437.6 444.7 451.6 456.9 465.8 470.6 471.4 474.7 471.8 477.6 474.1 473.8 469.1 458.7 452 444.5 433.1 418.3 415.5 409.1 403.7 400.6 399.9 397.3 393.1 384.8 380.2 378 370.4 361.1 361.3 368.6 379.5 383.8 391.7 393.9 400.7 397 400.5 398.3 399.1 396.8 398.3 397.3 396.9 390.8 391.6 390.6 389.5 387.8 384.5 380.9 377.5 380.5 382.6 373.8 374 375.9 367.4 369.5 375.9 375.7 373.9 366.6 358.8 357.1 357 353.5 349.9 347.4 339.6 332.9 330.8 330.3 331.1 328.4 325.5 324.4 322.9 320 319.5 318.2 317.4 316.1 313.5 308.1 302.3 298.8 297.3 297.8 299.8 299.3 305.1 304.4 302.1 296.2 288.3 277.8 269.1 258.5 256.8 254.3 250.3 254.7 254.7 257.2 255.9 252.1 245.5 238.8 234.3 224.9 216.3 207.2 202.4 188.9 187.8 185.9 188.3 194.6 194.8 196.1 203.4 212 212 223.7 233.8 244.7 249.7 251.6 258.5 261.8 265.2 267.6 269.2 270.9 273.7 278.4 283.7 288.6 292.7 295.4
350.1 348.6 347.6 347.3 347.3 347.9 348.2 348.4 350.1 348.6 350.6 349.9 349.3 349.9 350.7 351.6 351.7 351.5 350.6 351 351.7 353.6 354.6 357.7 362.5 367.6 372.1 375.8 378.6 381.3 383.9 386.5 389.1 393.1 397.4 406 414.1 419.7 421.1 425.2 428.5 438.6 441.8 441.1 441.2 440.7 446 454.7 456.7 441.1 434.9 426.7 425.3 425.2 428.7 430.1 432.5 436.9 440.5 443.5 448.6 456 464.7 468.6 470.2 471.8 476.5 480 480.5 479.2 472.1 465.1 455.1 445.1 436.6 424.8 416.1 411.3 411 413 408.1 404.8 399.9 392.3 384.9 380.3 374.9 365 366.2 378.2 380.9 388.7 392.6 394.6 402.4 408.6 407 406.7 403.8 404.1 404.9 402.3 401.1 398.1 402.7 405 403.4 400.5 398.3 391.6 382.5 383.8 381.1 382 383.5 378.2 373.3 375.6 378.8 380.2 377.3 368.1 360.9 359.6 358.9 357 350.6 348.5 346.2 337 332.7 338.4 334 328.5 326.9 321.5 320 317.3 316.4 316.5 315.1 314.9 311.9 308.4 307.2 302.7 296.5 291.6 291.2 294.1 292.5 295.5 300.5 292.2 283.5 277.5 269.1 262.1 252.6 250.1 248.1 248.2 251 254.7 251.2 246.3 244.8 240.7 235.9 228.6 219.7 211.2 203.1 192.6 186.4 187.7 187.8 189.4 191.6 195.6 202.3 208.2 211.1 217.2 233.8 237.8 248.3 254.7 258.4 261.8 264.2 267.2 270.7 272 272.8 276.5 282.6 287.1 290.8 293.3
349.3 348.8 347.6 346.2 346.5 349.2 348.4 349 347 350 348.5 350.8 345.8 348.9 350.3 351.8 352 351.4 351 351.2 352.5 353 354.3 357.8 361.9 367.2 372.1 376.1 379.5 382.1 384.3 387.9 391.2 397 400.4 411.3 416.5 419.5 421.7 421.5 428.6 439.3 441.6 437.2 434.8 433.6 439.1 445.9 435.3 427.2 425.9 421.9 421.3 428.4 429 431.8 436.1 442 442.3 443.5 447.8 455.2 465.7 468.5 471.8 477.1 479.4 480.6 483.2 482.5 473.2 465.6 457.5 447.1 432.8 426.3 420.1 423.7 421.3 424.2 416.8 409.4 402.7 397.3 392.6 385.4 376.6 378 383.8 384.7 389 391.2 396.2 397.5 402.5 412.3 411.2 409 409.2 408.1 409.3 407.9 407.7 410.9 414.8 416.2 415.7 410.5 407.2 399.9 391.3 388.5 386.3 385.3 384.4 379.1 377.1 378.8 379.9 380.6 376.7 371.3 365.9 360.9 359.6 355.9 352.9 347.7 343.5 341.7 335.7 334.9 336.4 331.9 325.2 320.9 320 319.3 316 315.7 315.1 313.5 312.9 310.3 308.7 304.2 299.3 294.7 292.3 288.9 280.4 286.3 292.1 282.7 278.8 276 271.2 262 254 248 244.7 245.3 241.9 246.2 245.2 244.5 241.8 238.3 235 229.9 225.7 215.3 208.3 197.4 185.4 187.4 187.5 187.4 187.9 195.8 199.5 205.7 211.9 222.6 228.1 238.3 247.8 251.2 256.5 261 263.1 266.5 269.6 271.6 273.5 274.7 280.7 285 288.5 290.5
349.3 347.6 346.7 345.8 344.8 345 348.5 347.7 345.7 346.5 346.9 348.4 345.8 346.2 349 350.4 350.6 350.7 351.1 351.7 353 353.7 354.6 358.1 361.6 366.2 371.1 375.9 379.4 382.2 386.3 389.7 395.7 400.2 406 413.4 417.1 416.3 418.5 422.3 428.6 434.8 432.7 427.6 425.6 429.8 432.9 432.8 422.6 419.3 417.4 418.5 422 429.5 430.2 431.8 437.6 439 440.3 443.5 448.2 460 464.8 469.3 474.7 479 482.4 483.4 484.5 481.6 475.7 469.2 462.7 444.7 433.6 429 427.4 432.8 434.7 426.9 419.1 410 405.5 401.3 398.6 391 392.9 396.5 401.3 396.1 398.1 398.1 397.1 397.7 404.6 411.8 413.8 414.5 414.9 412.3 412.9 414.4 415.3 419.8 422.8 425.3 424 423.2 414.2 401.1 397.9 395.1 392.7 393.2 388.6 384.1 384.1 387.5 384.2 382.9 380.9 379.3 373.5 367.8 361.2 357.8 352.9 348.3 343.5 340.4 335.9 331.3 327.6 325.3 323.9 323.6 325.8 319 316.1 315.4 315.6 312.6 310.2 311.4 310.7 308.8 304.1 297 295.9 294 291.1 276.6 272.6 273.4 275.8 274.2 265.5 257.1 255.5 246.5 241.9 241 237.3 240.6 239.2 242.9 236.5 234.2 232.2 231.2 226.6 218.9 212.6 200.2 184.7 186.9 186.9 186.9 188.6 192.8 200 204.8 208.6 217.8 225 236.5 245.6 248.5 255.4 259 262.2 265.7 268.5 271.3 273.8 275 278 282.8 286.5 288.3
348.9 346.7 346.5 344.2 343.5 345 346.6 346.5 345.3 345.7 346.6 346 348 343.3 347.1 348.8 349.8 350.1 351.6 352.7 353.3 354.1 355.7 357.8 361.4 365.1 370 374.5 378.6 381.6 384.7 390.1 397.7 402 404.1 410.9 412.6 414.9 418 420.8 425 428.6 427.2 424.8 420.9 422.8 425.1 418.6 414.6 415.1 413.8 417.7 422.3 426.9 428.9 429.5 433.2 435.8 438.4 442.9 449.7 457.8 467.7 475.8 480.3 482.1 483.2 483.6 487.4 481.1 480.1 478.5 467.6 447.6 441.6 434.9 441 436.4 434.6 423.1 415.1 409.6 407.2 403 400 400.8 408.1 409.5 411 401.4 404.4 401.8 404.7 400.6 403.7 410.7 417.5 418.6 419.9 416.8 418.8 421.7 425.6 432.1 438 437.9 432.2 426.3 413.3 407.6 404.9 402 396.8 395.2 392.9 390.8 390.6 391.8 392.7 396.3 396.1 389.3 385.6 372.8 362.9 359.6 352.8 347.8 342.8 337.8 333.2 330.5 326.3 325 323.2 324.8 323.4 317.8 314.3 313 313.1 310.1 309.4 309.7 311.2 309.5 301.1 293.4 291.5 289.2 288.9 283.7 276.1 267.6 261.8 262.4 260.5 253.4 249.2 246.2 239.8 237.2 229.9 230.5 232.4 237.2 233 229.2 227.3 228.7 226.7 221.9 213.5 200 190.8 186.4 186.7 186.8 187.4 190 196.8 204.8 210.2 214.2 223.3 233.4 240.9 245.2 253.5 256.4 261.1 264.7 267.5 270.2 273 275 277.2 280.6 282.9 286.3
347.3 346.3 344.1 342.7 342.6 342.8 345.5 345 344.1 346.9 346.1 344.8 347.1 341.7 343.6 346.5 347.9 350.4 351.6 353.1 355 356 357.5 359.4 361.8 364.8 368.5 372.1 375.7 380.8 385 389.8 396.1 396.6 402.7 405.8 410.6 413.9 417 422.9 429.2 428.7 424.8 419.3 416.6 417.1 414.2 411.2 411.8 409.5 413.8 417 420.1 423.2 427 431 433.7 436.3 439.3 444.9 452.7 460.7 471.4 482.1 484.8 484 483.5 483.9 484.1 483.2 484.2 484.3 473.6 452.6 446.2 445 450.3 442.9 435 425.1 416.4 413.2 408.3 407.9 408.4 411.5 414.1 417 412.6 410.5 409.9 409.1 409.8 401.8 404.1 408.3 415.7 420.1 422.7 423.6 426 428.9 431.7 440.3 444.6 443.2 438.8 428.1 416.9 412 408.3 407.7 415.7 402.7 398.2 396 396.6 399.9 399.4 405.2 404.9 392.6 385.7 381.4 366 361.2 352.4 348.5 341.4 336.5 333.8 331 325.4 323.4 321.9 323.1 320.1 317 314.7 313 312.5 308.6 306.8 307.1 305.6 301.8 296.7 293.8 290.7 287.3 284.3 284.5 280.7 271.8 268.7 260.4 250.6 255.9 252.4 245.6 245.4 233.3 226.3 226.2 224.5 229.9 229.3 224.8 224.2 223.9 218.5 213.6 211.3 200.3 199.2 196 183.7 185.9 186.2 186.5 196.4 203.9 209 214.6 225.5 234.3 238.1 245 254.2 257.4 260.5 263.7 266.5 269.2 271.9 273.3 276.1 278.3 281.3 287.1
346.9 345.1 342.8 342.2 342.1 341.5 341.6 341.7 345.6 345.2 344.1 344.7 343 340.1 339.9 342 345.2 348.1 350.3 353 355 357.2 359.5 361.2 363.2 365.1 368.1 372.1 376.6 382.1 386.6 389.1 395.3 397.1 402 406.7 409.5 413.3 418.5 427.6 435.1 432.6 423 417.7 413.2 409.8 405.8 405.9 407.8 411.3 415.9 416.5 419 423 428.4 433.5 438.5 440.8 443.3 446.7 455.1 464.2 476.7 487.9 488.9 485.4 483.8 484.3 486.2 501.2 496.3 489.2 480.9 462.1 455.1 457 448.2 444.1 436.9 429.6 423.9 413.2 411.7 412.6 415.7 418.9 418.8 420 418.6 419.4 417 415.2 415.3 412.2 405.7 408.7 416.1 421 424.3 428.5 435.2 440.1 437.2 442.6 445.5 439.4 434.6 424.9 420.1 420.2 413.8 411.6 409.9 404.3 402.6 404.4 405.5 405.4 409.9 415.1 409.9 398.6 392.5 377.8 367.6 360.9 356.8 350.1 341.5 336.9 334 330.3 327.2 322.3 320.9 319.4 318 316.8 317.3 316.1 318.5 313.3 307.5 304.5 301.5 298.3 296.4 296.6 291.8 288.3 284.1 277.6 277.3 274.4 270.9 266.7 255.4 247.7 243.4 249.3 245.6 230 224.7 225.6 223.6 224.8 224 223.6 225.5 228.1 221.7 212.4 204.5 198.4 197.8 199.9 186.3 183.3 186 186 197.6 203.1 205.9 214.9 223.3 232.5 237.1 249 255.2 256.5 258.8 262.7 265.5 268.1 270.5 272.2 275.3 276.7 278.6 283.5
345.9 344.7 343.3 342.5 341.5 341 340.7 340.6 341.1 342.3 342 342 340.2 338.8 338.5 340.2 342.9 345.1 348.9 351.7 354.8 357.5 359.9 362.2 364.1 365.6 369.5 374 379 385.4 386.5 388.6 391.8 397.2 402.2 404.7 409.2 413.4 417.2 427.4 431 423.1 417.2 412.8 409.7 405.7 402.6 404.1 404.1 411.6 415 416 418 421.8 430.1 441.3 444.3 444.8 446 447.9 458.7 468.3 484.8 491.1 487.2 485.9 489 500.7 509.2 507.6 504.6 501.2 484.5 465.2 463.3 460.3 454.3 446.3 439.7 432.5 428.6 415.3 417.1 416.7 420.8 423.9 427.6 428.4 429.2 434.6 427.4 421.8 418.8 415.3 408.8 408.3 416.3 424.2 428.2 433.8 440.1 444.3 435.8 437.9 440.5 435.8 427.5 426.3 426.8 418.2 416.7 415.7 407.4 406 405.8 409.5 417.3 412.7 417.2 413.9 402.6 401.5 392 381.3 371.2 359.2 355.9 349.5 339.5 335.4 332.2 326.9 323.2 321.9 320.4 319.2 318 318.2 317.3 316.8 312.5 310.6 310.7 307 303.2 300.1 302.3 299.9 293.3 287.4 285.8 278.4 274.3 273.3 274.1 269.3 262.8 254.3 250 236.1 232.4 226.6 224.8 223.8 223.6 222.7 227.4 223.4 227 227.8 226.3 216.5 202.1 194.3 191.7 193.7 187.8 185.8 185.8 186.1 195.8 201.4 204.8 213.8 222.9 230.9 241.3 247.2 249.5 255.5 257.7 261.5 264.4 266.8 269 271.1 272.7 274.6 277.2 281.1
346.9 346.1 344.4 344.8 341.9 341.4 341.5 343.6 340.8 340 339.6 338.6 338.4 338.3 338.4 339.1 340.9 342.6 346.6 350.2 353.6 356.5 359.5 362 364 365.8 370.3 375.3 381.5 384.8 385.5 387.3 390.1 394.4 398.5 401.7 404 407 412.8 419.2 420.6 411.7 408.9 407.8 404.2 399.9 399.5 400.5 406 409 412.2 415.3 419.4 425.2 434.9 442.1 447.4 447.1 447.9 453.2 462.5 473.8 484.4 487.6 490.2 496.9 505.6 512.9 518.3 517.8 520 507 489.9 477 474.1 465.9 460.1 452.6 442.7 436.9 432.4 418.9 418.3 419.8 425.1 429.4 433.8 437 449.8 449.4 441.8 432.8 417.4 413.7 408.9 408.5 413.1 426.7 430.5 430.9 445.8 440.4 433.5 429.1 431.5 426.2 424.1 423.6 421.3 419.7 418.2 414.4 409.7 407.9 409.1 424.9 425.4 418.2 415.8 407.1 397.6 392.9 385.2 380.5 367.5 359.3 350.9 346.1 338.8 333.1 329.2 325.7 322.8 321.1 320.4 321.1 319.6 322.4 318.7 314.5 312.3 310.7 309.8 306.9 305.5 304.6 303.7 300.2 297.9 290.6 285.3 280.4 276.6 272.5 266.6 267.2 263.9 257.6 249 237 232.7 227.5 222.6 219.2 218.3 220.4 224.6 219.3 223.5 227 227.7 219.7 209.7 194.1 191.2 194.3 188.8 185.9 182.6 185.8 192.4 200.1 203.1 214.5 227.2 228.5 239.2 242.3 251.4 253.5 256.1 259.7 263.6 265.8 267.6 269.4 270.6 272.4 275 278.7
348.7 347.1 347.5 345.3 345.1 343.8 343.1 343.5 342.8 341.9 340.6 337.6 339.2 338.7 338.8 339.1 339.8 340.7 344.4 349.1 353.2 355.6 358.7 361.3 363.4 365.5 369.9 374.5 378.2 381.8 384.7 386.8 389.4 392.6 396.2 399.8 401.8 404.9 408.5 410.4 406.7 404.3 401.6 402.6 400.3 398.1 398.6 399.3 404.8 405.6 407.5 415.8 422 427.9 434.2 441.2 448.4 451 452.4 456.3 466.2 478.6 484.3 491.4 498.5 516.2 520.8 524 522.8 523.1 525.7 510 492.6 486.8 486.5 475.3 468.7 457 446.2 439.6 432 425.8 424 429 433.8 436.1 442.7 457.7 464.6 464.6 458.1 455.2 432.9 417.2 415.8 411.3 413.9 423.4 433.4 420.6 430 433.2 427.2 420.8 417.8 415.4 420.6 428.8 421.6 420.2 425.3 415.6 411.8 409.5 420 425.3 425.6 418.8 415.1 406.4 393.3 386.8 380.9 371.2 361.7 352.9 344.9 339.2 333.9 330.6 327.5 323.6 323.1 321.7 321.6 324 323.8 322.7 321.4 317.8 311.9 310.8 310.7 308.2 307.2 304.7 305.3 304.3 298.9 296.7 286.7 281.7 277.1 276.1 271.9 262.3 257.6 253.6 249.2 240.3 234.6 230.1 227.5 217.5 216.1 216.4 220.5 217.7 221.4 229.9 220.5 224.3 216.3 198.5 189.5 193.5 188.6 185.6 186.7 184.9 187.1 195.5 200.2 210.7 217.4 228.2 235.3 243.7 249.4 251.7 254.5 257.7 262 264.5 266.4 267.8 269.3 270.6 273.1 276.1
350.4 348.1 349.3 347.1 345.1 345.4 342.5 343.1 344.1 341 336.9 340.8 340.1 339.8 339.4 339.3 340.1 340.8 343.7 346.4 350.7 355.2 359.2 360.9 363.4 366.1 370.2 373.4 377.3 381.3 385.4 386.1 388.6 391.1 394.1 396.8 401.4 405 404.8 404.6 401.9 397.9 395.8 396.2 396.2 397.4 398.2 399.2 405.9 404.6 408.8 416.9 422.4 428.9 435.2 443.5 449.7 450 452.6 459.7 473 484.9 490.9 509.7 515.2 522.5 526.9 527.9 526.8 524.4 519.4 503.6 493.3 496.6 489.7 487 472.8 457.9 453.1 442.9 436.6 438 437.5 440.7 443.7 447.6 449.5 464.5 473.8 479.4 477.7 470.6 445.4 417.6 416.8 413.7 414.2 421.7 427.6 416.2 410.1 410.6 414.4 413.1 409.3 409 412 419.4 425.1 426 418.8 414.4 413.2 415.8 424.9 422.7 420.2 421.5 421.2 405.4 389.1 381.6 376.7 364.4 354.6 345.2 340.3 336.5 331.3 327.2 322.4 322.5 324.2 322.3 323.3 322.5 322.6 325.2 322 318.8 316.3 314.2 310.5 311.7 307.7 307.4 309.9 308.1 305.4 297.9 290.7 282.2 278.9 274.4 269.1 261.7 259.5 256.1 249.6 243.5 238.2 232.6 234.6 219.6 214.8 213.8 213.1 211.8 216.6 211.4 209.1 215.5 221.5 198.2 192.6 193 186.9 189.7 184.5 185.2 191.3 196.7 201.3 204.6 216.3 228.7 233.8 241.5 248 249.5 253 256.6 259.5 262.6 264.7 266.1 267.5 269.1 270.6 272.7
349.6 347.9 349.2 346.5 345.1 344.6 343 342.8 341.2 335.5 339.7 342.3 341.1 340.7 340.5 339.9 340.1 341.4 344.4 347.3 349.3 353.5 358.6 362.7 364.6 367.8 370.2 373.2 375.5 379.5 382.7 384.5 387.1 389.8 392.6 394.2 396.7 399.3 400.8 401.3 397.8 395 395.6 396.1 396.5 396.6 397.8 398.9 402.5 404.6 408.3 414 422 428.7 437.1 443 448 448.9 455 467.1 476.7 487.1 496 510.5 521 528.7 532.2 528.3 525.4 517.9 511 497.1 496.8 493.7 490.1 487.6 473.2 462 456.9 449.7 458.8 457.8 453.9 453.3 455.7 456.8 463.1 472.6 478.7 482.9 481 477.4 459.4 422.7 415.2 413.9 411.7 408.6 413.4 405.6 405.1 404 401.9 403.6 404.7 404.9 405.8 414.4 415.9 417.6 412.6 411.4 412.3 425.3 428.6 421 422.3 420.8 413 402 389.3 381.9 368.3 357.8 348.9 341.3 336 333.4 327.4 320.5 320.6 322.2 322.7 322.4 322.9 323 321.1 323.5 321 317.5 321.5 318.7 309.9 308.3 307.7 309 307.2 304.8 302.5 300.1 293.1 285.3 280.3 274.2 270.6 265.8 262.7 258.2 250.7 248 244.2 239.2 228.5 222 216.7 212.6 203.2 211.1 209.5 214.8 209.5 210.6 211 204.9 193 192.7 184 184.7 185.3 184.2 190.7 201.8 201.3 203 213.4 225.6 232.2 240.3 245.3 248.6 250.6 254.4 257 260.2 263 264.7 266 267.3 269.7 270.9
352.4 347.5 347.6 344.8 342 342.7 342.4 334.6 338 342.3 340.9 341.9 343.6 342 341.5 340.6 341.4 344.1 348 349.9 351.4 353.6 358 362.2 365.9 371.9 371.4 373 375 379.5 381.5 383.8 385.6 388.6 391 391 393.1 395.3 397 398.8 395.5 395.8 396.7 397.2 397.2 397 397.6 398.8 401 404 407.8 413.7 420.5 427.4 436.5 442.9 446.5 450.7 462.5 472.8 477.8 481.8 493.1 501.6 515.8 525.6 529.6 526.2 516.4 511.4 510.1 508.2 505.6 501.2 499.9 499.3 487.7 475.6 463 463.4 471.3 473.4 468.6 462.6 463.5 463.8 476 482.4 483.6 486.2 483.1 477.9 459.2 426.8 411.8 410.8 409.7 404.5 398.2 397.5 399 398.6 397.5 397.8 400.4 403.6 403.5 405.6 409.4 412.3 402.3 402.5 406.1 421 427.6 420.2 416.7 411 409.1 394.1 384.7 375.5 365.2 352.8 343.8 338.9 335.4 330 320 320.6 320.1 321.3 321.7 321.9 322 321.9 321.2 320 319.9 317.6 313.8 313.2 313.6 310.8 307 303.2 300.6 300.6 299.7 296.7 293 287.6 282.6 279.7 274.1 269.4 264.1 258.9 252 245.1 239.3 241.8 233.5 225.4 216.6 211.3 211.2 200.2 203.8 202.4 203.5 203.4 205.2 202.9 195.2 183.2 183.5 183.8 183.9 180.9 190.6 200 199.8 202.3 209.9 222.7 232 236.1 242.3 245.9 249.1 251.9 255 257.7 260.9 263.8 265.4 266.1 267.9 270
350.7 344.5 346 343.1 342 339.9 333.7 339.4 345 345.1 342.7 343.3 344.9 343.9 343.7 344.4 345.3 347.9 350.9 353.5 354.7 355.2 358.8 362.9 367.4 370.6 371.7 372.3 374.3 378.2 380.5 382 383.2 387.2 389.9 390.8 390.7 391.3 392.8 394.8 392.8 394.6 395.6 396.5 397.4 397.8 398.2 399.4 401.4 403.8 407.9 412.5 420.7 429.1 436.8 442.8 445.5 453.6 463.8 472.3 477.1 483.1 486.1 497.3 505.6 513.9 520 513.9 511.3 508.6 505.9 517.9 516.1 508.8 501.9 500.4 500.5 487.7 477.4 482.6 480.2 478.5 478.2 474.7 465.4 479.4 487.2 491.9 492 490.3 486.9 470.5 455.7 422.8 408.9 404.8 402.7 400.9 398.6 390 390.7 390 391 392.2 395.2 397.5 400.9 401.4 395.8 392.5 391 392 399.6 411.2 417.8 418.8 411.7 400.7 393.5 385.1 374 367 358.8 347.2 343.1 337.9 328.4 318.4 315.7 317.3 318.5 323 322.6 321.8 321.5 321.1 320.7 319.9 319.3 317.4 314.2 310.6 309.8 310.9 309.8 306.9 298.1 296 293.3 290.3 290 289.1 290.5 290.1 281.2 266.6 264.7 261.2 253.5 247.4 240 237.8 235.3 233.4 220.1 212.5 208.8 202.2 195.7 193.6 198.9 197.6 197.3 198.4 195.3 183.5 183.5 183.7 184.6 185.7 190.2 200.8 199.1 201.3 208.1 218 230.5 235.5 240.4 244.6 247.6 250 253.4 256.4 259.1 261.8 263.9 265 266.7 267.6
345.8 343.1 340 339.3 338.2 333.8 339.9 339.9 344.1 348.2 345.7 345.9 345.2 344.7 345 346.1 348.6 351.3 354 357 359 359.7 360.7 364.7 368.5 371.1 372.5 372.9 373.7 377 378.6 380.1 381.9 384.1 386.7 389.1 388.9 389.3 390.1 391.2 392.2 392.9 394 395 395.9 396.1 397 399.2 401.6 404.4 408.1 413 419.6 425 432.2 438.4 442.5 449.9 462.5 469.1 474.5 482 480.1 492.4 495.1 505.7 506.3 504.9 504.5 504.1 513.8 519 516.7 517.2 507.8 501.3 497.6 491.7 493.5 490.2 485.8 487.1 488.9 475.5 474.4 484.8 488 492.5 489.9 484.7 477.1 464 447.8 425.9 406.9 401.8 393.2 395.2 390.5 385.1 382.3 386.1 383.7 385.4 388 390.2 391.6 389.8 387.9 386.5 385 385 386.3 393.6 396.5 393.5 389.6 390.3 385.2 370.6 355.2 351.4 341.8 338.1 331.9 325.5 320.5 317.2 311.9 315.1 318.9 322.9 322.6 321.5 321.1 320.7 319.6 321.3 318.5 318.3 317 312.4 308.8 306.3 309.5 309.8 300.3 292.6 290.7 287.5 289.7 290.9 288.5 284.3 280.9 274.1 263.3 260.5 252.5 244.4 235.7 234.9 227.3 226.5 214.6 210.2 207.3 211.2 207 199.2 189.7 188.3 187.5 193.8 198.3 183.5 183.2 183.6 184.2 188 190.3 195.8 199.5 200.3 211.5 215.2 222.4 232 239.3 241.9 244.3 247.1 251 253.8 257 259.6 262.5 263.9 264.3 265.2
345 339.9 338.4 335.8 333 331.5 337.6 341.3 345.8 350.2 346.2 346.8 351.2 346.4 345.6 347.4 349.9 352 354.5 357.7 360.7 362.6 364.5 366.7 370 372.2 373 373.2 374 375.8 378.2 380.8 381.8 384 385.6 387.5 387.5 388.6 389.6 388.4 391 391 391 392.8 393.8 394.4 396.1 398.4 400.6 403.2 406.5 411.5 416.1 421.9 427.5 432.4 439.1 447.3 454.7 460.3 468.2 471.8 472.7 482.9 487.3 495.3 502.3 501.9 499.3 498 515.6 520.1 520.3 521.1 506.5 499 496.6 499.9 498.5 499.3 498 488.6 489.3 471 480.1 483.7 485.2 486.8 487.3 481.3 467.9 452.2 441.2 422.4 407.5 399.5 391.1 384.5 382.4 379.8 373.3 377 378.1 380.6 381.2 382.1 383.4 384.1 382 381.8 382.5 382.2 382.7 376.8 375.7 373.8 375.3 374.6 367.1 356.5 351.7 348.8 340.4 329.6 325.1 318.4 312 310.1 308.8 311.2 321.5 325 326.1 322.6 321.6 320.7 319.8 320.2 317.3 317.1 318.8 309.9 308.6 303.2 298.2 297.5 296 292.6 288 286 286.9 288.5 283.4 279.1 276.7 272 262.9 259.6 254.3 250.4 245.9 239.9 234.4 228.8 215.2 213.7 213.4 211.2 204.5 196.5 191.9 186.9 186.9 184.3 195.7 183.3 183.2 183.5 180.1 183.4 190.5 194.9 200.2 199.8 202.5 212.2 220.9 227.4 237.2 238.9 241.2 244.7 249.1 251.2 255.1 257.7 259.6 262.3 263.3 263.9
341 336.9 335.6 333.1 329.4 333.5 340 346.7 345.5 350.5 347.6 349.7 350.6 347.4 346 348 350.8 353 355.1 357.8 359.9 361.9 363.8 365 366.8 369.7 372.6 373.6 374.8 376.6 378.5 380.3 381.6 382.1 383.3 385.1 385.3 387.4 387.8 388.7 389.6 389.3 389.3 390.3 391.4 392.7 395.4 397.8 399.5 401.8 406 409.9 414.6 420.3 424.5 429.1 435.8 443.3 450.1 455.6 458.8 462.7 465.5 472.4 481.3 485.2 492.6 498.2 495.1 496.8 512.9 523.5 523.3 510.8 504.3 498.2 498.2 504.3 505.9 505.8 505.5 488.3 477.1 468.9 471.6 479.3 477.7 483.5 482.1 473.5 460.3 445.4 433.7 421.4 404.8 401.3 387.3 379.5 375.4 371.9 367.4 371.1 372.3 374.9 374.9 375.3 376.4 376.7 375.5 375.3 374 373.3 370.6 373.3 371.1 366.4 364.9 361.6 359.4 350.9 340.9 335 330.6 325.7 318.1 311.9 311.2 309 308.1 307.9 319.3 325.1 326.3 327.1 324.7 322.3 324.8 316.8 314.9 313.4 315.7 311.8 304.5 300.4 296.2 293.3 291.6 287.3 287.3 286.5 285.4 281.7 279.1 274.5 270 265.7 265.6 258.7 253.9 250.6 248.2 248.3 243.4 234.9 220.4 213.5 215 210.1 204.8 197.6 194.8 196.8 195.7 185.6 184 183.1 183.3 183.5 180.1 183.5 190.3 191.7 192.6 198.8 199 214.8 216.7 223.3 232.9 235.4 239.1 243.1 246.3 249.4 252.3 255.3 257.3 259.7 261.2 263.1
334.3 332.8 328.6 327.9 331.2 340.8 344.9 346.1 345.9 348.3 349 348.5 350.3 349.7 347.1 346.8 349.5 352.6 355 357.4 358.8 361.8 362.3 363.9 366.7 368.3 372.1 373.9 375.4 377.2 378 380.6 382.1 381.1 382.3 383.4 383 383.2 386.6 387.8 388.5 388.5 388.6 388.8 390.1 391.9 394 396.3 398.5 401.9 405.3 408.3 414.6 419.1 422.6 427.1 432.9 438.2 445.4 449.6 453.6 458.7 469.1 475.5 477 483 486.8 489.7 493.9 498.8 511.9 517.2 515.6 505 501.6 499.2 511.4 513.2 512.5 509.9 503.6 485.7 472.1 468.1 468.1 467.2 467.5 473.5 471.7 469.5 456 441 426.1 413.4 400.6 390.8 383.7 375.2 370.6 368.3 362.7 365.2 366.3 369.2 368.5 369.3 370 368.4 366.8 364.8 364.7 362.8 362.4 360.6 360.7 361.4 361.9 359.7 347.2 341.6 339.8 332.7 328.7 320.5 316.1 312.5 312.3 310.6 308 307.1 308.8 316.7 329.3 326.4 324 322.1 322.1 318.9 311.8 309.4 308 313.8 302.2 297.6 295.3 290.1 287.7 283.2 284.6 285 286 278.7 273.8 270.8 269.4 267.3 263 256.1 253.5 248.6 247 250 245.4 232 220.3 217 214.4 206.1 200.3 196.5 194.7 199.1 186.1 183 183.2 182.7 182.8 183.3 180.1 183.2 185.5 191.3 192.6 197.7 199.1 204.5 213.9 218.8 227.6 230.4 237.5 241.5 244.9 247.8 251 252.6 255 257.7 259.2 262.5
328.7 325.4 334.6 336.6 338.2 341.6 348 347.8 345.7 347.3 348.2 350.1 351.5 353.3 348.1 347.1 348.9 351.4 353.9 356.1 358.9 361.5 362.4 363.6 364.6 367.1 372.6 374.7 375.8 376.8 377.6 377.2 377.7 380.1 381.9 380.9 380.8 383.4 385.1 385.9 387 387.5 387.2 387.7 389.2 391.1 394.1 396.5 398.5 400.4 405.3 407.7 412.8 415.7 421.1 425.5 430.3 436.7 440.5 446.2 452.7 458.7 469 475.5 479 481.4 484.2 488 491.5 498.9 507.6 514.2 510.1 511.4 499 509.6 512.9 512.2 511 505.5 497 473.5 466.6 465.2 467.2 463.1 461 460.4 456.6 454.6 442.8 431.3 418.9 403.1 392.2 382.8 375.2 368.7 363.6 363.9 357.6 359.3 361 362.5 363.4 364.4 365.1 360.9 359.7 361 362.3 355.7 355.9 351 350.4 347.6 348.6 343.2 342.2 335.8 331.3 330.2 328.8 323 317.1 318.3 314.3 314.5 309.4 307.8 306.4 311.6 320.8 318 314 311.1 312.2 311.4 310.6 309.7 308.8 304.8 300.2 296.2 292.3 291.7 289.8 285.7 277.7 278.2 280.3 274.8 272.8 269.6 265.8 265.2 255.1 252.6 250.2 248.2 246.9 245.4 244.8 235.2 229.9 226 221.6 210.7 202.1 199.5 196.8 197.2 182.7 183.2 182.3 182.6 182.1 181.8 179.6 181.6 182.6 190 192.2 193.6 199 199.4 211 215.7 221.2 227.5 234.8 238.9 242.3 246.1 248.9 251.4 252.8 254.3 258.3 260.5
324.1 330.9 336.7 337.8 338.1 340 346.3 349.2 346.1 348.6 348.9 349 350.7 351.7 352.1 347.9 348.3 350 351.2 353.7 356.9 359.7 361.1 361.8 362.1 364.4 369 371.7 374.6 375.4 375.6 375.7 376.1 378.1 380.3 378.5 380.4 381.8 383.2 384.4 385.5 385.8 386 387.1 389 390.7 394.1 396.9 399.4 402.1 405.5 408.8 412.2 416.9 421.1 425 430.5 435.9 440.6 445.5 453.2 460.9 467.9 475.1 479.9 483.9 487.8 490.3 491 497.1 500.8 506 510.8 507.9 496.9 507.5 512.7 513.6 506.7 496.5 483.8 467.8 465.1 462.3 464.3 460.6 456.5 448.4 443.5 430.9 424 416.9 405.8 393 383.4 378.5 368.5 362.9 359.9 356.8 356.1 357.7 357.7 360.3 359.9 361.5 362.4 357.1 356.4 355.5 351.7 346.6 345.1 346.5 345.7 342.3 339.2 337 332.2 329.1 329.7 327.9 325.6 323.8 324.6 324.2 320.9 315.6 310.7 308.7 307.8 307.5 314.2 314.3 315.3 311.6 308.6 308.9 309.7 309.3 306.3 301.6 297.5 294.7 296.4 291 287.1 284.8 278.3 272 270.4 262.3 258.1 253.6 253 249.6 254.4 250.1 242.8 239.8 243.8 240.4 237.9 234.6 231.3 222.1 217.1 211.7 205.7 198.7 193.8 187.3 184.3 183.5 181.4 182.3 181.9 182.1 179.4 182.1 181.6 189.5 190.1 191.6 194.2 198.4 204.1 214.5 215.4 226.1 232.3 235.4 239.3 242.4 245.8 248.2 249.7 254 256 258
325.6 330.1 337.6 338 338.9 339.4 344.3 347.4 348.3 348 350 350.3 350.9 351.4 352.5 349.7 348.3 347.8 348.2 350.4 353.8 357.1 358.7 359.4 360.2 363.7 366.5 369.9 373.4 374.9 375.5 375 375.3 376 377.1 377.1 378.8 380.6 381.9 382.9 384 384.2 385.3 386.6 387.9 389.1 393.8 396.5 399.1 402.5 406.1 409.6 413 417.9 422.5 427.8 433.1 438.8 442.3 447.1 455.2 463.9 470.3 477.5 482.7 487.8 492.4 494.8 500.6 498.6 497.7 503.8 506.8 494 496.6 502.2 508.8 512.1 506.6 495.3 474.7 467.7 464.1 460.7 459.7 459.2 453.3 442.7 426.9 414.5 411 405.6 400.2 389.4 377.9 370.5 364.7 362.2 358.9 358.1 357.9 357.9 357.8 357.9 357.9 358.5 358.7 355.2 352.2 350.4 354.3 351.9 346.2 343.1 339.6 336.6 335.5 334.3 332.6 331.3 330.5 330.2 330.5 328.1 328.9 328.3 326.2 324.1 318.5 309.5 311.7 309.7 304.1 304.7 308.7 312 308.2 307.7 309.8 311.2 303.3 293.6 293.6 293.2 288.4 284.2 285.4 280.1 269.7 266.3 265.8 266.7 266.1 268.2 267.5 263.7 264.8 256.4 247.6 243.3 238.4 232.9 232.9 228.5 222.5 217.4 213.8 213.6 204.9 196 191 187.7 185.7 183.2 182.4 181.3 181.6 181.8 179.4 181.6 181.2 180.9 186.7 190.3 192.5 195.3 198.6 204.5 214.7 223.3 228.9 232.3 234.6 240.5 244 245.2 250.1 252.5 254.4 255.6
331.3 332.7 334.3 338.1 339.6 340.3 344 348.5 347.5 347.4 349.1 349.7 350.4 350.6 350.9 349.5 348.8 348.3 348 348.1 350.4 353 355.4 356.3 359.1 361.8 364.4 367.4 371.7 373.1 373.4 374.1 374.6 375.8 375.7 375.8 377.1 378.8 380.3 381.3 382.1 380.2 384.4 385.4 387.9 389.7 393.2 395.6 398.3 401.8 405.7 409.7 413.8 418.4 424.3 432.3 438.6 442.7 444.9 451.8 458.7 465.4 472.2 478.2 485 493.5 496.8 498.7 504.5 502.3 500.4 495.3 499.6 490.5 497.2 501.5 504.6 505.9 503.7 493 473.8 465.7 463.7 456.4 452.8 448.9 446.6 440.2 423.3 410.3 406.6 401.7 395.9 384.3 377.4 369 364.7 361.3 359.3 357.6 357.4 357.9 357.9 357.9 357.9 357.9 357.9 354.3 351.8 351.9 353.9 352.1 347.6 346.5 344.3 342.5 339.5 340.1 335.5 333.3 332.8 331.9 330.5 329.2 329.3 331.2 327.4 329 320.8 310.7 309.3 307.1 305 302.9 301.4 300.7 301.8 304.2 301.4 302.8 296 292.5 288.7 286 282.9 280.8 276.3 274.7 275 273.9 276.7 275.2 272 273.6 272.1 268.3 266.3 260 256.2 250.1 242 234.4 230.5 226.6 222 214.4 207.9 205 195.7 193.4 190.1 187.7 184.9 183.2 182.2 181.6 181.3 182.2 183 181.6 181 180.5 188.7 188.7 191.9 192 197.2 199 209.1 216.9 225.1 228.2 232.3 236.9 241.6 244.6 248.3 250.5 252.7 254.5
332.4 333.2 334.1 337.7 340.7 344.9 346.8 346.8 347.7 347.8 348.1 348.3 348.7 348.6 347.6 347.7 347 348 347.8 347.5 348.7 349.8 351.7 354.1 359.6 360.9 363.1 365.6 368.9 370.7 372.8 375 375.8 375.1 375.4 374.3 375.4 376.9 378 378.3 377.5 381.8 382.9 384.8 388.1 390.6 393 395.4 397.8 401.2 405.5 410.5 415.9 421.8 429.5 436.9 442.7 446.4 451.1 458.7 465.9 469.7 475.3 483.2 491.1 499.7 500.4 499.7 503.9 508.2 508.8 498.4 489 487.1 490.8 500.9 504.4 502.1 501.5 477.9 472.5 466.3 462.9 456.2 451.5 446.2 437.1 434.8 418.7 406.9 402.7 395 389.5 377.8 372.6 369.8 367.5 364.8 359.8 357.6 356.6 357.9 357.9 357.9 357.9 357.9 357.9 357.9 354.4 354.2 354.4 349.5 350.3 347.1 345.8 346.2 342.8 341.4 334.7 335.1 336 333.8 331.1 328.7 328.8 328.5 326.5 324.4 318.5 313.6 311.8 310.6 307.2 304.6 301.9 298.4 296.5 296.6 294.5 291.5 289.2 287.6 290.4 287.6 284.5 281.3 279.2 280.4 284.3 276.9 276.8 276 272.9 272.2 273.5 271.9 268.7 265.6 260.8 257.9 249.2 240.9 234.6 230.8 226.4 221 216.8 208.7 208.5 203.6 193.6 188.5 184.6 183.2 181.9 181.3 181 181.3 181.6 179.6 180.8 180.9 181 180.7 189.4 191 194.2 196.1 201.1 210.8 217 222.5 231.4 233.8 238.5 242.4 246.1 249.8 251.4 252.9
335.5 334.4 335.4 338.5 343.5 348 348.6 348.9 347.9 349.8 349.9 349 348.3 348.8 345.8 344.4 345.5 346.1 346.4 347 347.7 348.6 348.6 350.1 355.6 358.7 361.8 364.9 368 367.8 369.9 372.7 374.5 374.8 374.3 373.9 374 375 375.8 376.6 378.3 380.4 381.6 384.2 388.5 391.2 393.1 395.5 398.3 401.8 405.8 411.2 417.9 425.1 432.8 440.6 445.3 449.8 457.6 464.7 471.4 476.6 483.6 491.5 497.8 503.1 501.7 502.3 506.1 511.4 510.8 500.2 485 489.9 484.1 491.6 497.6 494 491.4 466.4 465.3 463.4 462.3 457.1 452.8 447.4 438.9 425.7 417.7 407.5 396.6 392 388.5 379.6 376.3 370.9 368.8 364.8 360.2 359.3 357.1 357.9 357.6 357.9 357.9 357.9 357.9 357.9 356.2 354.2 352.3 351.7 351.1 347.2 347.1 348.5 341.9 339 339.1 338.7 341.3 333.9 329.7 331.6 332.4 329.3 327.9 321.7 318.5 317.3 315.1 313 311.5 309 305.1 302.2 302.1 302 297 296 294.8 294 292.8 288.8 290.6 287.8 283.9 281.4 284 282.3 278.4 277.8 278.4 275.3 272.5 276.8 275.7 270.6 265.8 261.8 255.6 253.1 241.1 233.2 226.3 223.1 219.7 213.5 210.9 207.8 196.6 189.7 186.8 182.9 181.5 181.2 181.3 181.3 181.3 182.6 180.4 179.7 180.3 180.2 180.8 187.8 190.4 191.7 195.8 202.6 210.2 221.7 228.4 228.9 236.3 241 244.3 247.2 248.5 251
336.9 336 338.7 341 346.6 348.5 348.4 348.4 348.6 350.7 350.1 348.9 348.1 347.6 344.9 343.4 342.5 343.7 344.2 345.9 347.2 348.2 348.1 348.4 351.9 356 359.9 363.3 366.6 366.6 367.7 369.7 371.2 371.9 372.3 373.2 371.7 373.1 374.1 373.9 376.1 379 381 384.5 388.5 391.6 393.8 395.6 399 402.9 407.1 412.9 419.7 426.3 433.2 440.4 446.7 453.5 461.9 470.5 478.8 488.4 499.2 508.4 511.6 506.5 504 504.7 511.8 512.5 507.1 500.1 480.4 479.1 476.1 475.9 482.5 479.8 466.6 459.9 464.2 466 464.1 459.5 451.3 446.5 436.6 427.3 421.8 410 399 392.3 388 383.3 377.8 369.9 364.4 362.4 363.2 364.3 359 357.1 358.2 358.6 358.1 356.7 357.8 358.4 358.7 355.3 354.8 355.5 350.6 349.8 350.4 345.9 344.3 341.3 343.1 344.9 341 336.5 337.9 338.3 335.2 331.3 330.9 326.7 325.9 323.3 322.3 319.4 321 316.7 310.8 310.2 307.2 305.5 303.5 301.8 300.2 300 297.9 292.9 292.5 292.5 289.3 286.9 283.5 283.4 279.4 278.5 277 274.8 273.6 273.4 274.9 271.9 268.4 262 261 257.1 249.5 240 232.1 224.9 219.6 217.7 210.6 207.8 203.5 201.4 194.2 186.1 181.5 181.2 181.1 181.3 180.8 181.4 178.8 179.7 178.8 180.4 180.3 183 185.3 187.9 190.8 199.4 205.5 212.9 220.2 228.1 234.6 239 242.1 243.7 245.3 248.9
339 338 339.3 341.5 345 348.8 350.6 348.5 349.1 349.8 349 348.1 348.2 348 346.3 342.2 340.8 340.3 341.2 344.2 345.9 347.3 346.1 347.8 350.4 355.7 358.6 361.3 364 364.5 365.9 366.6 367.3 368.5 369 369 372.2 371.4 372 373.8 375.4 378.8 381.8 384.8 388.4 391.6 394.6 396.8 399.6 404.2 408.3 414.5 420.5 426.9 434 441.6 449.3 458.3 468.6 478.4 489.6 500.6 512.2 515.8 514.6 506.5 504.7 511 512.6 515.5 506.2 495.3 478.9 474.3 471.4 463.2 463.2 461.2 456.6 455.3 462.5 465.9 462.4 457.4 454.4 448.5 441.7 432.6 420.3 409.2 404 399.7 387.3 379.7 372.8 366.8 365.8 368.8 369.1 371.7 369.3 362.2 363.5 365.2 365.9 358.2 357.5 358.3 361.1 357.9 355.5 352.6 352.4 352.2 349.6 347.3 348.1 344.9 344.6 347.8 342.5 341.6 342.1 340.2 340.6 338 334.8 330.1 329.1 330.4 327.2 325.2 322.1 319.2 317.8 315.5 312.5 310.3 311.4 307.4 303.9 300.3 298 297.9 295.7 294.5 293.6 292.4 286.8 283.8 282.3 280.2 277.7 275.6 274.8 272.4 272.5 271.2 272 275 273 272 259.1 250.5 241.6 232.6 223.9 217 215.4 207.9 206.1 204.4 196.7 190.6 187 181.2 180.9 180.6 181 181.1 178.3 179.6 179.3 180.3 180.5 186.8 187.8 189.1 193.6 197.2 203.8 212.6 222 222.5 229.5 234.1 237.1 239.5 243.2 246.6
343.4 342.5 345 343.9 345.5 348 349.5 350 348.3 348.1 347.9 348.1 348.8 346.2 344.2 343 339.6 338.6 339 341.1 343.3 342.1 346.1 347.9 350.6 356.8 359.1 360.2 361 361.9 363.2 364.2 365.1 365.2 365.7 366.5 366.8 372 373.7 375.1 376.3 378.9 382.2 385.3 388.3 391.8 394.9 398 400.5 404.8 409.1 415.1 421.1 427.6 434.6 442.4 450.7 460.3 472.2 484.4 496 504.2 513.6 517.4 511 506.3 515.6 518.7 511 510 503 492.7 474.8 464.6 456.8 453.1 449.9 448.7 446.6 450.4 456.7 459 460.6 458.3 459.3 449.1 436.6 431.5 424.7 415.2 402.2 393.4 384.4 373.6 371.1 371.3 373.6 375.3 376.6 377 369.5 366.7 367.3 370.1 370.9 362.6 359.4 360.7 361.9 359.3 359.7 362 357.9 353.6 352.8 350.6 353 348.7 345.9 348.1 344.4 346.5 344.1 340.7 343.9 341.8 334.3 336.2 338.8 338.3 336.5 331.6 327.4 326.8 323.6 322.5 321.4 319 316.9 310.6 304.7 303.6 305 303.8 299.9 298.8 301 297.2 295.5 285.9 283.7 282.3 279.8 276.8 274.3 273.2 273.3 279.9 286 281.8 280.2 277.3 268.6 253.6 253.4 239.6 230.2 220.2 213 207.4 205.6 204.1 199.8 193.3 189.6 179 180.4 180.9 180.7 181.7 179.6 179.7 179.3 179.5 179.5 178.7 178.5 188.8 189.2 196 199.6 207.1 214 218.2 223.3 229.2 231.8 235.7 241.2 243.7
342.3 344.3 345.8 346.8 349.1 352 349.2 348.8 348.4 348 347.7 347.8 348.4 347.9 345.2 342.4 339.6 337.1 336.4 337.8 338.3 339.2 343 346.2 349.3 355.8 357.9 358.9 359.6 360.3 360.9 362.2 363.3 361.2 363.3 367.6 369.7 372.3 374.4 376.1 377.7 379.7 382.5 385.5 388.6 391.6 395.5 398.9 402.4 406.2 410.2 414.6 420.7 427.6 434.8 443.5 451.9 460.8 471.3 484.5 496.6 505.6 510.8 512.6 507.1 507.8 514.4 513.3 505.6 504.7 499.7 484.1 466.3 459.5 450.8 446.4 444.1 441.6 444 448.1 454.2 459 461 460.2 454.3 444.1 437.9 430.5 421.9 410.1 406.1 391.1 388 382.4 379.7 379.8 380.9 382.6 383.3 378.5 373.8 373.2 375.2 376 377.6 371.9 365.8 366.3 366.7 362.3 365.8 364.9 359.8 358 356.8 356.8 354.7 353.7 351.2 351.1 352.4 349 347.3 343.8 347.5 342.2 341.2 342 341.2 339.9 336.2 332.7 331.9 330.3 329.5 328.1 327.1 323.2 317.3 311.5 310.1 307.7 309 306.3 303.9 303.4 306 300.7 296.3 292.9 292 286.7 283.7 278.9 277.6 276.2 283.5 284.9 278.6 277 275.1 271.1 264.4 258.6 254.8 248.2 241 230 218.7 209.9 206.3 203.8 202.8 195.1 192.6 179.8 180.3 180.6 180.3 177.4 179 178.8 179.4 179.3 178.9 178.6 178.1 179 187.5 189.8 195.9 203 209.1 215.7 218 223 227.6 233.5 237.4 240.5
343.9 348.3 348.6 351.6 352.1 351 350.2 348.4 348.2 347.7 347.3 347.2 349.1 348 344.4 340.8 338.3 335.6 334.4 335.1 336.1 337.5 340.4 344.3 348.2 353 356.2 357.3 357.9 358.3 359.8 360.3 359.3 362.2 365.1 367.5 369.5 371.5 374 375.9 378 380.3 382.7 385.7 388.8 392.1 395.8 399.6 403.4 407.3 410.6 414.7 421 428.2 435.7 445.1 453.7 463.3 471.5 480 490.6 499.9 506.8 506.9 506.8 520.5 520.1 512.7 504.6 493 483 473.7 458 452.8 448.2 444.2 440.9 440.8 440.9 451.3 456.9 458.1 460.3 455.7 444.9 439.7 436.2 426.8 419.5 413.2 409.4 399.9 397 396.9 390.2 387.9 388 390.2 393.1 386.1 380.8 380 381 384.5 382.3 378 367.9 372 370.8 368.1 370 367.2 364.7 363.1 363.6 358.8 358.4 356.7 355.4 357.1 356.9 354.1 349.5 346.5 348 347.8 344.9 344.8 342.6 341.2 339.4 338.6 336.7 334.9 333.7 331.9 328.5 321.5 320.5 322.3 320.7 313.7 320.7 318.7 313.8 309.7 309 305.9 302.4 300.7 297.7 294.2 292.9 292.5 289.3 285.6 291.6 292.3 288.7 286.6 278.7 274.9 274.2 265.7 263.3 257.8 247.1 237.6 227.7 215 208.3 204.8 202.4 200.6 193.6 192.4 180.4 179.3 180.8 177.4 178.3 178.4 178.4 179 178.6 178.2 178 177.9 186.8 186.2 193.1 197.5 206 210.4 212 218.1 222.1 230.1 235 238.5
348.6 348.8 349.8 351.2 351.4 350 349 347.9 347.5 346.8 346.8 349.5 347.8 346.1 342.9 338.5 335.4 333.3 333.4 333.6 334.4 335.5 338.3 342.8 346.9 350.8 352.6 355 355.1 356.1 357.2 356.9 357.8 361.3 364.3 366.5 368.5 370.5 373.2 375.7 378 380.3 383 386 388.9 391.8 395.4 399.8 404.4 408 411.4 415 422.3 429 436.6 445.9 454.7 463.9 469.5 476.3 484.6 492.3 497.9 501.9 513.6 525.8 518.9 510.9 498.9 488 477.6 463.5 450.4 448 447.9 439.4 435.3 436.4 441.3 448.7 454.6 460.4 455 449.5 447.2 445 440.5 436.1 431.5 428.1 415.7 412.8 403.7 403.6 401.7 398.3 394.4 396.2 399 391.2 387.2 385.7 387 387.9 384.3 378.6 374.5 375.9 376.5 374.2 376 376.9 374.3 368.6 364.7 360.6 363.9 362.5 360.9 361.9 361.4 358.7 352.5 349.1 351.9 350.3 348.6 347.8 346.8 344.8 342.1 341.5 340.3 338.9 337.9 334.1 324.2 323 330.6 328.5 321.4 322.2 327.6 324.6 319.8 320.5 318.9 315.6 313.6 313.2 309.5 308.2 304.6 304.4 303.1 297.9 297.2 296.6 296.5 294.2 291.7 288.8 284.9 277.7 271.6 266.1 259 247.5 235.2 221.4 213.9 204.9 202.9 198 194.7 191.1 187.5 179.8 179.8 180 177.4 179.2 179.7 178.4 179.2 178.4 178 177.7 183.3 185.4 190.2 194.1 199.2 203.9 206.3 209.7 220.3 227.7 235.3 238.9
350.3 350.4 350.6 350.4 350.8 350.2 349.3 348.7 348.2 346.9 346.6 347.8 346.4 343.6 341.6 338.1 334.8 332.9 332.6 332.6 333.1 334 336.5 341.7 346.3 349.9 351.4 352.5 352.1 352.3 353 351.6 357.5 360.3 363 365.1 367.3 369.5 372.2 374.7 377.4 379.6 383.2 386.1 388.7 391.3 394.8 398.8 403.8 409.1 412.8 417.1 426 432 437.3 446.2 453.4 460.3 465.6 472.7 480.4 487.4 493 500.7 515.1 519.7 517.7 503.7 489.7 480.7 466.2 456.3 449.5 442.8 442.8 433.8 434.6 434.3 435.8 446.5 451.2 454.4 453.5 452.6 452.7 451.6 448.6 449.6 447.5 437 433.6 416.3 413.1 417.8 413.8 408.6 401.5 399.1 400.6 393.5 391.3 388.8 388.9 387.3 384.2 380.4 379.5 380.8 379.8 380.5 382.5 384.1 376.4 373.2 369.4 370.2 369.4 363.7 368.1 365.6 361.5 359.2 354.7 354.2 354 352.4 351.1 350.1 348.7 346.8 344.3 340.9 342.2 336.7 332.1 330.7 336.8 337 332.8 332.1 331.3 334.5 335.7 334.4 331.5 329.1 328.1 326 322.6 321.1 317.8 315.7 313.6 314.3 310.2 308.3 302.1 305.2 303.8 300.8 299.1 297.3 291.7 285.8 279.2 272.6 266.2 258.2 249.5 236.7 223.4 209.4 201.9 200.2 198.5 193.5 188.1 181.7 180.6 180.6 180.6 180.6 177 176.3 177.9 179.1 178.2 177.9 177.2 184.9 186.3 192.2 195 198.3 203 210 219.7 227.4 233.8 235.5
350.7 350.5 350.5 350.7 351.8 351.9 350 349.8 349.8 347 346.4 346.2 344.8 341.8 338.6 335.8 334.6 332.7 332.1 331.8 332.1 332.6 334.6 339.9 343.7 347.4 349 349.9 349.2 348.8 350.6 354.6 357 359.2 361.3 363.6 365.8 368.3 370.9 373.6 376.7 379.9 382.8 386.1 388.9 391.5 394.6 399.1 403.7 409 414.2 419.6 427.8 434 437.1 443.9 449.4 456.5 464.1 470.3 476.9 483.2 489.4 499.1 510.2 515.3 509.6 495.2 485.7 473.5 455.1 445.5 441.8 440.6 436.5 433.6 434.8 434.8 435.1 442.9 448.1 455.1 456.5 455.3 456.3 455.6 453.5 452.8 443.9 442.7 440.1 427.2 426.4 425.7 423.5 413.9 409.6 402.8 399.9 398 394.2 390.5 390.2 387.8 383.9 380.9 384.2 386.9 384.4 384.3 386.4 388 383.5 382.2 379.2 376.2 373.3 374 372.5 369.2 359.4 361.3 360.2 358.5 358.3 354.4 353.3 352.2 350.7 347.1 346.3 347.5 343.5 345.4 344.4 340.8 339.7 337.3 341.7 343.2 343.3 342.8 341.9 339.8 337.9 336.7 335.7 333 330.8 329.8 327 324.7 322.2 322.4 317.2 317.2 313.6 313.1 310.7 306.9 304.5 301.6 298.1 292.9 285.6 279.4 272.7 265.3 257.2 247.2 234.5 220.8 208.4 203.4 200.4 195.5 193 183.4 179.5 179.4 179.4 180.1 178.7 178.3 178.6 179.3 178.9 179.3 176.9 178 185.2 185.6 188.2 194.4 203.2 205 211.4 220.8 228.5 231.9
352.4 350.6 351.1 351 352.1 352.7 352.5 353.1 352.1 349.2 346.8 346.8 345.3 342.5 337.3 333.2 332 330.9 331 330.9 331.2 331.6 332.9 337.1 339.9 345 346.4 347 345.9 342.4 349.5 352.8 354.5 357.3 359.7 362 364.6 367.1 369.9 373 375.8 379.5 382.3 385.5 388.4 392 395.7 400.3 405 410.3 416.1 421.8 428.1 436.5 438.1 441.5 448.3 458 463.1 467.7 474.2 480.4 487.9 494.3 504 506.1 497.9 489.4 482.9 463.9 448.3 442.1 440.2 438.9 435 433.1 434.8 434.8 434.8 433.5 443.9 456.1 461.9 462.3 458.9 457.4 454.4 452.4 447.2 446.1 438.6 439.5 432.6 428.7 429.7 419.5 411.7 405.9 405.7 403.9 400.7 392.8 390.3 388.1 384.6 387 390.3 389.1 388.5 387.4 389.7 391.2 392.5 391.1 387.9 378.8 380.4 380.7 372 369.7 371.1 367.4 363.6 362.5 360 357.1 356 354.8 350.5 351.9 352.2 351.3 351.3 350.6 346.6 346.8 345 344.9 349.2 348.7 347.3 346 346.3 346.1 345.8 344.2 342.7 340.6 339 338.5 336.3 333 332.1 330.7 330 320.8 323.1 320.7 318.5 313.3 310.5 306.7 302.5 298.6 293.1 285.8 278.3 270.2 262.4 254.5 243.7 229.1 216 207.9 201 196.9 193.3 190.5 186 179 178.8 178.9 178.6 178.1 177.9 178.1 177.9 175.9 177.8 178 178.1 184.9 189.9 193 196 202.9 206.6 216.8 222.9 226.3
353.8 353.2 354.1 354.8 354.7 353.8 352.9 352.5 352.2 350.4 348.3 346.5 345 343.1 340.1 335.2 331.4 329.9 329.7 330 330.1 330.8 333.2 336 338.2 339.9 342 343.6 343 342.9 347.3 350.7 353.4 355.5 358 360.3 363 366.1 369.1 371.8 375.3 379.5 382.9 385.4 389 393.3 397.3 401.4 406.4 411.7 417.8 424.7 430.5 435.1 438.1 442.1 451.1 458.3 460.2 464.8 469.9 475.2 483 487.2 491.3 494.2 491.7 485.4 471.4 453.6 442.3 439.4 439.4 438.5 434.8 433.3 434.8 434.8 434.8 435.2 446.9 460.6 465.8 467.7 468.4 464 459 458.7 454.3 449.5 444.9 445 436.2 430.8 427.1 423.4 418.8 409.2 408.3 408.1 398.9 391.7 389.2 388 388.8 391.8 394.3 389.7 390.4 392.3 394.2 395.7 398.7 394.3 388.8 390.5 386.6 382.1 374.6 373.4 372.3 368.7 367 365.6 363.1 360.9 360.8 356.9 355.8 355.1 354.6 354 354.1 353.4 352.3 351.9 352.8 353.4 353.1 352 351.4 352.1 352.3 352 351.3 349.8 348.8 347.3 345.7 344.9 343.1 340 337.6 339 335.6 329.1 329.5 326.6 323.5 319.1 316 311.9 307.9 303.7 299 292.3 284.2 276.1 266.8 258.7 251.3 241 227.7 217.7 208.9 197.8 191.8 188.4 187.6 179 178.4 178.4 178.5 177.9 178.5 178.6 177.5 178 178.1 177.6 176.9 185.3 185.2 191.5 193.4 197.1 203 213.2 218.8 222.1
357.4 359.7 360.8 360.1 357.6 356.2 354.8 353.3 350.8 349.7 347.4 345.8 345.4 343.1 340.4 335.6 331.6 329.8 328.6 328.1 329.1 330.5 332.4 335.1 335.9 336.2 337.8 339.8 337.7 342.1 345.9 348.9 351.2 353.5 355.5 358.7 362 365.2 368.9 372.7 376.6 380.2 382.8 385.9 389 393.4 398.3 402.6 408.5 413.7 419.8 426.9 432.9 435.4 439 445.3 451.6 457.6 457.3 459.8 466.1 470 475.7 476.3 478.2 482.1 481.6 470.5 461.5 450.3 440.9 441.4 441.8 437.1 434 433.3 434.8 434.8 434.8 440.7 455.4 466.4 469.6 473.2 474.9 469.3 463.2 460.5 458 451 456.3 457.5 453 437.8 432.2 429 420.4 413.3 409.9 409 400.1 393.3 390.4 390.6 394.1 398.4 398.6 396.8 394.1 394 395.8 396.7 400.9 397.1 392.1 387.2 380 381.4 381.4 380 375.7 371.5 370.3 368.2 366.5 364.2 360.6 359.5 360.8 359.6 357.9 357.6 358 358.1 355.1 356.9 357.3 357.7 357 356.8 356.6 356.8 356.6 356.3 355.8 354.6 353.4 351 351.7 351.4 349.7 345.5 345.2 345.6 339.4 337.7 335.7 332.4 329 324.7 320.5 317.6 312.7 307.2 303.3 297.7 290.5 281.3 272.6 265.2 255.7 247.7 237.1 225.3 217.6 207.8 194.4 190.4 188 182.4 178.5 178.5 178.2 178.1 178.3 177.8 176.8 177.8 177.3 177.1 176.7 176.3 183.9 188 192.3 193.5 197.7 207.4 213.1 216.8
366.7 365.7 365.7 362.6 360.8 359.3 357.8 354.9 349.6 347.9 345.4 344.9 345.3 343 341.3 338.1 333.2 330.3 328.9 327.9 328.2 329 329.7 331.4 332.2 333.6 336.1 336.5 338.7 340.4 341.9 345.3 349.9 353 355.7 358.8 362.1 365.6 369.6 373.1 377.4 381.2 384.3 387.3 390.6 395.4 399 403.2 409.3 415.2 421.7 428 434.1 436.6 440.2 444 449.3 453.2 453.6 455.7 464.4 468.1 468.5 469.5 471.4 473 467.8 466.3 462.3 449.8 438.6 440.5 439 436 433.3 433.6 434.8 434.8 439.8 447 457.8 468.1 476 480.3 480.5 476 467.9 463.2 457.7 461.3 468.8 465.8 466.8 450.5 440.2 431 423.8 416.4 409.6 404.7 397.3 394.5 391.7 392.5 396.7 402.8 403 403.5 397.7 398.1 396.4 393.5 391.9 389.1 391.5 390.3 386.9 385.2 384.3 383.3 377.1 376.5 375.6 375.3 369.5 365 364.9 364.8 364 363 362.5 361.6 361.5 361.1 359.3 361.3 361.8 360.7 360.8 360.6 360.7 360.6 360.4 360.2 359.6 358.8 357.5 357.6 358 357.6 355.3 351.8 351 349 344.1 344.8 342.6 338.4 333 328.7 325.3 320.9 317.7 311.7 307.2 301.5 293.5 287.9 282.8 273.4 263.6 253.3 243.5 234.3 222.5 212.9 203.1 193.8 191.9 188 185.6 178.3 177.9 177.9 178 177.5 177.1 176.8 177.4 176.9 176.7 176.3 176.3 185.7 193.1 192.6 194.6 201.1 208.6 210.9
375 371.3 367.5 364.8 364.1 362.4 361 357 350.2 345.8 344.5 344.1 344.6 343.4 342 339.1 334.5 331 329.3 328 327.5 327.6 328.1 329.5 329.9 331.9 333.4 333.5 338.4 341 344.1 347.4 350.6 353.8 357.1 359.9 363.2 366.9 370.9 374.9 379.4 382.6 385.7 389.2 392.7 397.8 401.2 404.9 409.8 415.9 422 428 433.4 437.7 444.2 447.2 445.5 445.9 448.8 455.9 457.5 460.4 464.1 467.2 470.7 469.6 467.8 469.9 457.8 443.5 433.9 436.3 436.3 431.1 431.2 435.1 434.6 437.3 443.1 450.7 458.6 470.2 479.7 483.7 483.4 481.6 469.4 465.7 463.8 469.5 476.1 471.7 467.6 453.2 440.2 432.7 426.8 420.1 411.9 404.7 398 394.3 391.5 393.1 396 399.6 401.7 402.2 398.8 398.6 397.7 394.2 394.7 395.5 397.2 399.6 389.7 388.3 386.5 381.9 381.3 380.9 380 377.3 369.9 370.5 370.7 369.1 367.8 365.5 365.3 364.9 364.3 364.3 364.1 364.7 365.2 364.4 364.4 364.5 364.6 364.7 364.3 363.9 363.5 362.8 362.7 363 363 361.8 360.3 358.7 357.8 349.7 350.4 349.7 346.8 343.4 338.8 335 330.1 324.6 319.2 315.9 310.7 304.8 299.2 295 288 280.2 271.5 260.9 249.7 241 230.7 217.8 207.7 198.5 191.3 186.5 185.9 180.5 178.2 178.6 178 177.4 176.8 176.6 177.3 176.7 176.4 176.8 176.2 180.5 191.4 191.9 192.6 197.2 203.2 208.7
385.3 378.2 371.5 368.5 368 366.4 364.4 360.7 354 346.3 344.2 343.2 342.7 341.4 340.4 338.2 334.9 331.8 330 328.1 326.4 326.6 327.7 328.5 328.4 329.6 333 335.7 338.6 341.1 344.3 347.6 350.8 354.1 358.9 362.4 365.3 368.8 372.9 377.5 381.6 385.4 388.8 392.1 397.7 401.2 404.8 407.9 412.5 417.6 422.4 427.9 432.7 438.4 445.3 450.5 448.6 445.5 445.1 447.2 452 457.9 465.4 469.1 471.9 471.5 467.5 460.1 445 433.9 429.3 429 429.4 430.2 436 441.3 438.9 439.8 443.9 455.5 464.9 472.6 480.2 486.5 487.7 485.6 475.9 467 473.1 479 480.2 478.1 470.8 463.5 445.1 433.4 426.6 418.8 411.1 405.3 398.4 393 391.7 394.9 397.1 398 400.9 399.2 398.4 397.5 395.2 399 399.5 399.1 401.4 394.7 393 390.8 387.4 385.8 383.8 380.4 379.5 376.6 374.6 375.9 374.8 372.6 371.1 369.1 368.2 367.4 366.8 367 366.8 367.2 367.8 367.8 368.4 368.5 368.6 368.8 368.5 368.4 367.9 367.2 368 368.1 368 366.4 366.7 365.9 359.9 354.7 356.5 356.2 352.9 346.2 342.3 338.5 334.9 329.8 323.8 317.7 314.7 309.4 304.7 298.4 292.1 286.6 278.9 267.8 258 245.8 236.9 225.5 215 204.3 194.2 186.7 183.9 180.7 177.9 178.2 177.8 177.4 176.8 175.2 176.9 176.9 176.7 176.8 176.4 175.5 188.8 190.4 192.8 193.7 200.5 203.2
391.7 385.6 378.1 374.5 373.8 372.2 370 366.2 359.6 350.8 344 343.2 343.1 341.7 339.9 337.9 334.2 331.3 329.8 328.3 326.6 325.4 326.4 326.9 329.1 329.9 333.1 336.1 339.1 341.7 344.7 347.8 351.1 355.3 359.9 363.9 367.1 371 375.3 379.8 384.2 388 391.1 395.4 401.5 405.8 409.5 413.9 416.9 420 423.9 427.8 434.9 440.5 444.9 447.5 447.6 441.6 442 445.1 450.4 457.2 467.4 469.8 470 470.3 458.4 447.5 439.6 431.6 428.2 428.2 429.5 434.9 442.6 442.6 441.7 442.5 447 455.9 467.6 480.8 488.2 493.4 495.5 491.8 480.6 476.8 480.8 485.2 486.1 481.5 472.3 464.1 450.4 434.9 426 418.4 414.6 408.6 404.7 396.2 393.8 396.9 400.2 397.4 396.8 397.5 397.8 397.6 398 400.1 400.6 399.5 396.6 394.5 393.6 392.4 390.1 388.2 385.5 383.1 381.9 379.8 379.5 379.4 377.2 375.7 373.5 372.9 370.7 370.3 369.7 369.3 369 369.6 370.8 371.4 371.9 372.7 373.1 373.4 373.6 373.6 372.4 372.2 373.3 372.6 372 371.5 372.2 365.9 362.6 362.3 362.7 360.9 355.4 349.1 345.4 344.7 340.8 334.6 328.2 321.5 317.4 311.9 308 302 295.6 290.7 284.2 277.6 263.1 254.2 241.7 232.2 220.4 209.3 198.3 191 185.9 186.3 177.2 177.7 177 176.9 177 177.1 174.8 175.4 176.9 176.8 176.6 175.9 176.1 185.9 191.9 190.9 194.6 196.7
398.8 393 383.7 381.7 380.3 378.8 376.7 372.5 366.7 358.4 348 343.8 343.5 342.6 339.7 335.4 333.1 330.6 329 327.8 326.6 324.9 324.8 325.2 328.3 330.5 333.1 336 338.9 341.7 344.6 347.7 351.3 355.8 360.2 364.4 368.5 372.8 377.1 381.7 386.6 390.5 396.5 401.4 406.1 411 415.1 422.2 425.7 426.8 429 432.2 436.1 442.4 446.2 448.9 448.9 440.3 437.5 444.2 452 455.6 456.7 460.8 463.1 459.1 449.9 442.4 437.6 430 428.8 428.4 430.4 437.5 441.5 443.5 443.7 445 451.2 457.8 470.7 482.2 493.7 494.6 493.7 488.8 481.7 482.8 491.1 489.7 485.8 480.2 471.2 457.7 448.3 444.7 429.8 419.4 417.1 413.1 406.8 397.2 396.6 398.7 398.3 397.5 398.4 398.6 399.4 400.6 400.6 400.9 401.1 401 400.1 396.9 395.5 393.6 391.4 389.6 386.8 385.9 384.3 383.3 382.4 381 378.9 378.3 377.9 376.6 374.9 373.9 373.1 372.5 371.9 370.9 372.8 373.7 374.8 375.9 376.5 377.6 378 377.7 376.8 377.8 378.1 375.9 371.5 374.3 370.7 367.2 369.7 369.3 369.2 364.1 357.3 355.5 351.4 346.5 344.2 338.2 334.1 328.4 321.5 315.6 309.2 306.1 300.1 293.5 287 281.3 270.1 247.5 240.6 229.9 220.1 218.3 205.3 195 188.9 184.6 178.3 176.9 176.8 176.7 176.8 176.7 176.6 174.7 174.7 176.1 176.5 176.3 175.4 176.4 187 190.7 186.8 194
403.4 399.6 388 389 389.4 387.4 385.2 379 373 364.7 354.3 346.2 342.4 340.5 338.1 335.4 332.1 330.6 329.1 328.2 327.3 326.1 323.7 326.7 328.4 330.5 332.8 335.1 338.4 341.3 344.2 347.5 351.5 355.8 360.3 363.6 370.1 374.4 379 383.4 387.6 392.5 399.4 404.4 409.4 417.3 423.9 430.5 436 439.5 443 442.7 438.4 442.3 446.8 446.8 445.9 438.8 435 440.7 449.7 452.4 452.8 451.6 450.4 442.9 437.7 437.1 435.6 428.8 427.2 429.5 431.3 437.8 443.6 445.5 445.4 448.9 456.6 464.2 472.5 480 488 491.1 490.4 484.2 484.3 485.6 496.7 495.6 490.5 479 468.3 468 460.5 456.4 445.3 425.5 420.1 410.6 402.1 398.7 400.3 399.5 398.9 397.6 399.2 399.5 400.8 405.3 410.1 404.5 401.9 401.6 400.7 399.5 398.8 398.2 394.3 391.1 389 388.1 388.9 387.6 386.8 386 382.9 381.5 380.5 379.7 379.1 378.1 377.1 376 375.2 374.4 375.1 376 376.5 378.2 379.4 380.9 382 384.4 386 383.1 385 377.9 376.6 377.2 377.1 372.4 373.6 375.7 373.5 366.4 365.5 360.7 355 350.5 347.5 343 338.4 334 326.3 321.4 314.2 308.1 303.1 297.6 290.4 281.1 275.9 266.2 254.9 245.3 232.5 219.5 212.1 202.9 192.8 186 183.8 177.5 176.8 176.5 176.5 176.3 176.1 176.2 176.7 177.2 174.7 176.3 175.7 175.7 179.4 182.6 184.3 190.5
396.8 396.5 391 395.1 397.8 399.3 396.5 390.6 379.3 370.6 358.7 350.1 345 340.3 337.5 334.8 332.7 331.7 331.6 328.9 327.8 326.9 322.3 326.5 328.3 330.5 333.2 335.5 338 340.9 344.2 347.9 351.5 355.1 359.3 363 369.2 376 380.9 386.3 390.7 396 401.7 407.4 415.4 425.2 432.3 438.3 446 455.3 458.5 457.4 456.6 441.8 440.9 442.1 441 434.3 429.3 439.1 448.3 448 443.7 441.4 436.1 435.9 435.8 437.8 428.8 426.9 428.1 430.7 432.6 440.9 446.5 446.2 445.7 452.9 461.8 470.6 478.7 484.1 487.2 490.3 485.2 485 487.3 490.9 493.4 492.4 485.3 480.6 478.2 478.3 471.7 466.6 452.9 427.5 418.4 413.6 406 406.3 405.7 399.8 398.9 398.8 399.1 399.8 401.9 404.5 404.4 402.7 404.8 403.8 401 400.4 399.9 400.1 397.5 394 391.7 393.4 392.7 392.1 391.2 391.7 387.7 385.7 383.8 382.1 381.9 381.2 380.4 379.5 377.9 376.2 377.5 377.9 378.3 379.7 381.3 383.4 385.8 390.2 398.8 394 387 383.5 381.6 383.9 381.6 376 377.6 378.5 377.6 371.8 366.3 363 358.4 356.2 353 350.2 341.9 338.2 333.2 326.5 320 312.7 306.4 298.1 292.5 286.9 279.6 272.3 263.5 254.3 238.2 226.9 218.2 209.6 199.1 189.6 186.1 182.1 176.3 176.2 176.2 176 176 176 176 175.6 176.2 174.5 175 175.6 175.7 180.6 188.7 190.8
391.6 393 394 397.7 407.4 409.2 405.1 399.6 390.6 376.5 361.5 354.6 349.1 344.8 340.9 335 332.3 331.6 331.8 328.5 327.4 326.5 324 325.9 327.3 330.3 332.6 335.3 338.1 341.1 345.1 349.4 353.1 356.3 360.2 366 370.6 375.9 381.9 388.1 394.4 400.2 405.8 413.1 422.5 433.3 442.8 450.7 458.7 466.3 466.4 464.3 463.3 457.3 448.3 436.8 434.7 429.9 427 434.3 443.2 444.2 435.2 433.4 434.3 435.4 435.7 432.4 427.7 427.9 429 431.6 434.7 441 445.9 446 448.9 458.3 466.9 476.7 481.8 490.4 491.4 488.2 484.5 484.8 493.3 499.2 497.7 492.3 497 495.2 481.5 480.3 476.8 465.2 440.8 423.9 415.7 413.2 410.9 409.8 402.5 400.6 399.8 398.8 398.6 399.3 399 399.7 400 400.4 400.5 401.3 402.3 401.9 400.1 398.4 396.1 395.4 396.6 397 396.9 396.9 398.4 394.6 391.7 391 388.6 385.9 384.9 384.3 383.6 382.8 381.1 380.6 380.9 380.7 380.7 381.8 383.5 385.3 390 395.6 399.3 398.9 399.7 391.2 387.7 387.3 383.6 381.9 383.2 382.6 378.2 372.9 367.3 363.9 362 358.3 356.8 352.5 346.6 343.7 338.3 332.4 327.3 318.5 311.8 303.8 297.5 288.7 280.5 274.7 263.7 256.9 246.7 235.3 225.6 213.8 204.1 196.6 187.9 184.4 176.5 175.8 175.9 175.8 175.9 175.8 175.8 175.9 176.4 176.5 175.1 174.6 175.1 176 182.8 189.5
381.6 383 386.3 394.9 402.3 404.2 399.9 392.2 387.9 379 367.8 362.2 356 350 343.8 336.9 331.9 330.7 331.2 329.3 326 325.1 323.6 323.3 325.6 328.7 331.9 334.5 337.8 341.4 345.4 349.8 354.2 357.9 361.3 367.4 372.9 376.2 381.9 390.1 396.3 405 413.8 424.1 435.1 446.5 456.3 459.3 464.2 466 468.9 467 464.5 459.4 453.9 439.5 433.4 430.3 423.1 428.8 442 433.3 431.8 432.2 433.7 434 433.3 427.9 427.1 428.1 429.2 432.4 435.2 441.3 445.7 446.1 454.1 463.3 473.8 481 488.8 491.6 492.8 487.3 484.5 485.4 495.6 498.9 503.2 505.9 504.7 504 500.2 480.3 470.3 458.8 442.2 424.1 418 413.1 409 403.8 402.7 401.6 400.8 400.2 399.1 398.3 398.6 399 399.4 399.8 400 400.3 400.7 401.1 401.2 398.6 399.2 399.4 399.9 400.3 400.2 402.1 404.4 402 399.5 396.9 394.2 391.3 389.1 387.6 386.7 386 384.8 384.4 384.2 384 384 384 385.1 387.2 391.1 395.8 399.9 398.3 399.3 398 394.3 393.7 388.7 385.6 385.8 383.8 378.1 373.9 372.3 371.2 368 364.7 360.9 353.3 351.4 348.6 343.6 339.1 328.4 325.4 319.2 310.3 302.7 293.9 286 279.3 270.1 255.2 247.3 242.4 231.9 220.1 210.4 199.6 193.9 186.7 181.6 175.3 175.7 175.8 175.5 175.6 175.5 175.6 174.3 176.6 174 175.4 174.9 174.7 174.5 184
373.7 375.7 377 380.6 385.6 387.9 384.9 388.8 388.1 378.2 370 363.2 357.1 351.9 345.9 338.9 332.9 330.3 329.7 327.9 324.8 323.2 321.4 321.4 324 326.2 329.8 333.5 336.8 340.6 345 350 354.7 359.2 363 367.8 373 377.5 383.3 391.7 400.1 410.1 417.3 425.3 435.7 447.7 455.7 462 464.4 465.7 463.8 463.8 462 458.6 452.9 438.5 432.9 426.5 423.5 423.5 423.5 427.3 430.8 432.2 434.5 434.1 429.1 426.6 427.7 428.1 430.7 433.4 435.9 442.3 447.2 450.8 455.9 465.9 476.8 483.5 488.2 490.1 489.1 487.2 485.5 485.9 487.6 496.5 507 508.5 507.8 496.2 489.3 482.2 473.3 465.5 443.1 420.4 416.4 412.4 411.1 404.7 403.6 402.4 402.1 401.4 400.5 400.2 399.6 399.8 399.8 399.9 400.3 400.8 400.7 400.5 400.3 401.1 402.9 403.8 404.4 405 407 410.1 409.8 407.2 405.3 402.5 398.3 396 393.5 391.7 390.5 389.5 388.4 387.6 387.6 387.4 387.9 387.9 388.2 390.1 392.1 397.3 401.5 402.4 401 397.7 397.7 401.5 394.4 388.2 387.4 384.7 379.9 377.3 375.9 372.9 369.9 368.6 364 357.6 354.6 351.1 346.8 338.9 338.1 333.7 326.3 317.3 309.3 300.2 291.6 283.3 276.4 265.1 252.8 237.3 231.8 225.1 219.6 207.3 196.2 189.4 189.5 186.7 181.3 175 175.3 175.3 175.4 175.6 174.2 173 175.2 175.1 174.8 174.5 174.6 174.4
362.8 362.6 364.2 367.7 373.9 376 373.7 380.9 377.4 375.2 367.8 361 355.2 350.5 345.2 339.3 333.5 330.1 327.7 325.2 322.5 321.3 320.4 320 320.6 323 327.6 331.3 335.1 339.9 344.4 349.6 354.8 359.6 363.8 367.7 372.5 378.3 383.7 392.1 399.2 408.6 416.4 424.7 434.1 444.8 453.9 460.5 462.3 463.2 461.9 459.8 455.6 453.3 449 441.3 429.4 422.9 423.4 423.5 423.5 426.3 430 430.2 432.6 432.6 426.2 428 428.7 431.5 434.2 437.9 438 440.1 447.3 452.5 457.1 468.3 479.4 486.8 488.9 486.1 483.1 486.4 485.6 485.5 486.7 494.3 502.6 501.2 502 504.9 495.2 485.3 476.8 460.7 440.8 420.2 416.8 416.7 410.6 406 404.9 403.9 403.7 403.9 402.4 402.6 401.1 400.9 400.8 400.4 400.9 401.5 401.7 401.5 402.6 405.3 407.3 407.9 409.4 410.8 414 415.6 414.4 412.6 411.6 408.5 403.3 401 398.3 396.4 395 393.9 390.9 391.8 391.8 391.6 391.6 392.5 393 393.8 396.5 399.6 403.8 408.2 406.6 400.5 401.2 405.6 400.5 393.1 387.8 381.1 380.7 381.5 379.6 373.3 372 365.4 363 359.9 356.7 353 349.8 346.6 341.9 337.7 332.6 326.7 317.7 308.5 298.8 288.2 280.7 270.8 262.2 246.7 241.5 233.3 223 210.3 204.8 194.3 191.8 189.3 189.3 187.2 175.8 175.1 175.5 174.6 173 175.7 175.2 174.8 174.5 174.5 174.8 174.8
360.3 360.6 357.6 360.6 365 366.4 362.9 364.7 366.8 368.9 366.3 364.8 352.6 347.7 344.1 339.1 334.9 330.3 327 323.6 321.2 320.4 319.9 319.6 319.7 321.1 325.3 329.3 333.9 338.6 344.2 349.4 354.8 359.5 363.7 367.6 372.6 378.3 384.8 391.6 397.3 404.9 413.9 423.3 431.2 441.5 450.2 456.6 459.8 460.9 460.5 457.7 452.5 450.5 448.9 447 434.1 423.5 423.5 423.5 423.4 427 429.1 429.4 429.1 427.6 426.5 427.9 429.3 432.4 440 443.4 440.9 441.3 445.3 452.4 458.3 465.9 473.4 480.7 483.6 479.6 481 484.6 486.5 485.8 485.6 486.6 492.5 497.5 503.3 498 492.3 483 466.2 445.3 429.7 422.4 422.9 419.1 413.7 412 410.7 410.5 409.2 407.3 405.7 407.3 403.4 403.3 402.2 401 401.8 402.7 403.5 403.4 405 408.6 412.1 414.6 417.3 417.6 421.4 421.7 419.2 418.9 417.8 415.7 409.4 406.9 403.3 401 399.2 397.2 395.3 396.3 396.2 396 396.1 396.6 397.5 398.5 400.3 402.8 406.2 408.9 411.4 406.8 403.5 404.7 399.6 393.6 390.5 387.7 384.8 381.3 375.6 375.7 373.6 368.7 364.8 362.2 356 356.6 353.7 350.7 347.3 343.4 337.4 332.1 326.4 318.9 309.3 300 286.2 273.9 265.6 256.5 249.6 240.2 228.8 218.2 208.5 202.3 193.9 190.9 190.6 188.4 182.4 175.3 175.2 172.8 173.8 174.8 174.6 174.5 174.2 174.6 174.9 173.4
356.2 355.3 352.9 354.3 357.5 352.1 352.3 354.1 354.9 355.9 361.5 359 353.8 347.7 343 338.9 333.9 329.1 326.7 323.4 320.6 320.4 319.7 319.1 319.2 319.9 323.6 328.3 333.1 336.4 343.1 348.6 354.2 358.9 363.6 367.4 372.9 378.4 385.7 391.7 397.6 405.7 414.4 423.2 428.9 434.9 443.1 451.9 456.4 458.3 458.9 453.9 453.3 452.9 449.7 448.3 441.4 424.5 423.4 423.5 423.5 423.4 423.3 423.3 423.8 425.3 427.8 429 431.3 433.9 435.8 444.5 441.8 442.7 444.9 452.6 460.4 465.3 472.5 478.8 476.6 475.2 480.5 493.9 493.1 486.3 485.3 485.3 493.1 495.8 497.6 494.5 484.1 470.8 455.8 442.1 429.6 431.4 430.1 421.3 420.9 421.4 418.1 415.6 412.5 410.8 407.9 407.1 405.5 405.1 403.7 403.9 402.6 403.9 404.7 405.7 409 414.2 418.2 421.4 424.5 425 426.4 426.1 426.1 427 424.3 420.7 416.4 410.8 407.7 404.7 402.8 400.7 399.3 400.1 400.6 401.1 400.9 401.4 402.2 403.3 404.6 408.1 409.8 412.8 412.1 413.3 411 410.9 405.8 398.6 394.3 391.7 380.9 376.6 376 377.9 374.8 370.4 366.1 360.9 361.9 359.7 357 354.1 351.1 347.3 344.2 339.5 333.7 328.4 321.9 310.5 301.2 282.2 275.2 265.2 253.1 243.1 235.7 226.7 216.8 207.1 199.1 192.2 190.8 190.2 180.4 174.3 175.2 174.2 172.8 174.7 174.3 174.2 174 174.4 174.4 174.5
349.1 348 349 347.3 347.4 347.9 345.5 345.2 347 352.4 351.5 351.7 352.2 346.8 340.5 336.9 332.2 327.9 325.3 323.2 321.7 321 320.1 318.1 318.8 319.2 322.4 327.4 332.5 336.4 342.3 348.6 354 358.8 363.8 368.8 374.2 379.1 383.6 390.4 396.4 404.7 413 421.7 425.5 435.9 440.6 449.4 453.9 456.6 454.7 454 453.2 454 456.1 452.3 441.8 424.3 423.5 423.5 423.5 423.5 423.5 423.7 423.2 425.2 429.5 430.3 433.8 435.5 437.8 442.1 442.4 443.2 445.4 451.3 461.4 467.5 470.1 473.1 470.8 474.3 485.9 494.7 494.9 491.4 486.4 485.3 486.5 489 491.7 490.6 482.5 468.7 453.7 439.4 431.2 434 433.4 431.3 426.9 425.5 423.9 421.2 417.7 416.8 414.6 411.1 410 408.8 411.8 414.8 414 408.6 408.6 410.8 415.2 418.9 422.8 427.1 431.9 431.6 430.5 430.9 432 432.7 429.3 423.9 420.1 413.8 411 408.9 406.2 404.8 402.9 403.5 404 404.7 405.3 405.3 407.2 408.6 410.8 413.6 417.1 419.3 420.8 420.9 417.9 417 410.2 405 395 388.4 384.9 381.2 379.4 377.6 372.6 368.6 368.9 366.7 364.9 362.6 359.9 357.6 354.8 352.3 349.5 345.7 341.3 335.2 330.5 322.7 312.5 304.7 291 278.2 265 253.3 245.8 232.5 223.5 214.4 207.5 197.9 191.6 190.1 188.8 184.4 173.4 174.3 175.1 172.5 174.1 174 173.5 174 174 178.5
342.1 342 347.2 341.8 336.4 335.8 337.3 339.5 342.9 346.7 348.4 349.7 348.6 344.8 338.6 333 329.7 326.6 324.1 322.6 321.8 320.9 320.8 320.7 319.5 318.3 321.1 326.5 332.1 336.6 342.3 348 353.2 358.1 363 368.6 373.6 378.2 383.7 389.3 395.6 401.6 409.1 416.2 421.7 435.6 443.3 448.7 451.8 455.5 456.2 452.4 452.5 452 455.2 446.5 431.8 424.4 423.5 423.5 423.5 423.4 423.5 423.5 423 425.8 430.3 430.4 435.3 438 439.5 443.4 443.3 443.7 445.9 448.8 457.2 462 463.7 464.5 470.7 483.5 490.6 495.8 494.5 493.9 488.8 485.9 486.8 489.9 493.2 493.3 482.1 469.5 451.6 439.7 436.2 441.1 442.6 439.2 435.6 430.8 428.2 426.6 425 423.5 423 415.6 414.7 419.5 426.5 424.7 424.1 414.5 414.1 414.7 420 426.9 430.3 434.3 435.2 438 437.3 436.3 437.3 434.9 430.1 426.4 423.1 416.8 413.8 412 408.1 407.3 405 407.1 407.7 408.4 409.4 410 411.9 413.7 415.8 420.3 426.9 427.9 427.4 428.9 432.7 419.8 413.3 410.7 399.3 391 386.6 382.5 379.1 375.8 373 373.5 372.4 370 367.6 365.5 363 360.4 358.3 356 353.8 351.2 348 342.4 336.4 331.7 323.4 314.3 306.8 298.8 280.5 265.1 254.3 241.6 229.8 221.7 211.5 203.7 195.9 190.5 188.2 184.3 178.7 174.2 175 174.3 174 173.7 173.4 175.8 183.1 182.5
336.1 337.2 336.7 332.9 332.2 331.1 334.3 334.9 335.2 340.7 342.4 343.3 343.5 342.7 335.6 330.6 328.3 327 325.2 322.8 321.5 321.3 321.4 322 321.1 317.7 321.9 326.3 332.1 336.8 342.7 347.7 352.6 357.8 363 367.9 372.8 377.6 382.4 388 394.1 400.6 406 413.6 422.7 433.1 440.1 448.8 453 455.2 454.8 451.3 452.2 448.8 447.2 432.9 427.2 423.5 423.5 423.5 423.5 423.5 423.5 423.5 423.4 424.7 427.7 428.9 432.9 436.4 439.8 445.5 443.2 445.8 447.2 448.6 450.6 453.7 456.4 460.6 471.7 477.2 483.1 488.6 489.4 489.1 487.6 485.1 485.8 488.5 494.4 492.5 483.3 473.5 451.4 444.9 442.7 447.1 446.5 443.3 442.2 435.2 432.6 431.1 432.4 433.1 425.4 425.3 423 427.7 432.3 433.1 425.7 419.6 418.5 416.3 423.2 430.8 437.6 439.3 441 441.8 441.4 438.1 436.4 432.7 429.5 425.5 422.7 417.7 415.1 412.7 409 408.5 408.1 409 410.7 412.4 413.7 415 416.8 419.3 423.8 431.9 436.8 435.9 432.4 428.7 430.6 430.6 419.9 413.4 405.4 398.4 388.1 384.1 380.1 378 376.6 376.3 375.4 372.6 370.5 367.5 365.1 362.9 360.7 358.6 356.6 355.6 353.7 348.9 342.3 336.5 330.5 325 318.1 309 297.7 280.7 269.9 251.7 240.4 231.2 221.7 208.7 201.2 190.9 187.4 185.6 185.2 184.6 173.9 174.2 172.7 174.1 173.8 182.4 185.8 182.4
333 331.7 327.5 326.8 327.4 326.4 328.5 331.4 335 337 338.4 339.6 337.9 337.1 333.2 328.9 330.9 331.3 330.3 325 321.2 320.9 320.9 321.5 321.1 319.1 323 325.9 332.2 337.3 343 348.1 352.4 358.1 363.3 368 372.8 377.1 381.8 387.1 393 399.4 405.4 413.8 422.4 431.9 441.3 448 449.3 449.8 450.7 448.1 448.9 444.2 441.9 434.6 423.9 423.5 423.5 423.5 423.5 423.5 423.4 423.5 423.5 423.4 425.2 428.5 430.9 434.4 438.5 443.8 442.8 444.7 447 448.1 450.9 453 456.2 461.6 474.7 480.2 481.5 485.4 491 489.9 490.3 484.7 483.4 488.7 489.9 492 489.3 465.5 454.3 449.1 449.9 450.3 452.4 451.8 449.2 442.8 436.7 438.7 439.5 436.8 433.2 431.9 430.8 429.4 432 434.4 435.2 426.4 423.7 423 426 430.7 440.3 442.5 442.8 444.4 444.3 440.9 435.5 430.9 427.8 424.9 422.3 420.6 417.1 413.2 410.7 409.5 409.2 410.7 412.7 415.1 417.6 420.5 423.6 427 432.6 440.6 444 440.7 437.3 431.3 426.9 424.7 422 417.8 406.8 398.1 393.3 387.4 381.9 379.2 379.8 378.9 378.2 379.1 373.6 369.9 368 364.4 362.6 360.4 359 358.2 359.2 354.9 349.7 343.1 338.9 332.6 328 322.2 312.1 297.4 286.8 267.2 251.7 239.4 225.3 218.2 207.7 198.7 189.6 189 188.1 185.3 179.5 173.1 172.5 173.7 173.9 174.2 173.2 172.6
329.8 327.2 323.9 323.3 323.6 322.8 320.3 322.2 328 331.4 333.3 337.2 338.6 335.5 329.3 327.6 331 332.4 332 326.3 323.1 320.9 319.7 318.9 310.4 320.7 322.9 326.2 332 338 343.7 348.6 353.2 358.2 363.5 367.7 372.8 377.4 382.1 387.4 394.5 399.3 404.6 412.5 423.5 431.6 439.7 446.2 446 446.2 446.4 444.6 448.9 444.5 432 423.5 423.5 423.5 423.5 423.5 423.4 423.5 423.5 423.5 423.5 423.4 422.9 428.2 428.3 433.6 440 442.3 441.5 442.1 445 447 449.7 455.1 460.6 463.4 470.3 476.8 481.5 488.8 495.3 496.1 491.9 485 482.9 481.2 481.3 484.8 475.9 457.5 457.8 464.3 457.7 454.7 455.7 455.9 451.7 446.3 441.5 442.4 444.4 440.7 441.7 441.8 440.4 439.4 436.5 438.2 435.9 434.3 430.9 428.6 426.2 431.5 442.9 444.4 444.6 442.8 441.6 437 434.2 431.4 427.4 424 423 420.2 415.9 412.5 411.8 411.4 411.4 413.7 417.1 421.7 426.3 431 434.3 437 441.6 449.4 447.2 443.5 440.9 438 431.4 421.6 418.2 415 412.6 406.5 395.2 389.1 385.2 382.2 382.1 382.4 383.9 382.4 379.6 375.8 371.2 367.7 363.6 362.1 360.7 359.8 359.9 363 356.2 350 344.7 340.6 333.1 327.7 322.9 311.4 296.1 277.4 263.7 241.6 235.7 225.2 213.2 205.1 196.6 192 188.1 187.3 180.2 173.1 172.5 173.7 173.5 173.1 172.7 172.8
324.9 320.8 319 318.6 318.3 317.2 317.3 318.1 321.9 327.5 331.4 332.7 335.8 333.1 326.6 325.6 326.7 327.5 327.6 324.2 321.7 321.2 320.3 318.7 310.3 318.3 321.1 326.2 332.8 338.8 344.2 350.1 354.4 359.6 364.5 369.3 373.6 378 382.1 388.5 394.7 398.6 405.8 412.9 422.3 428.6 434.6 440.6 443.5 445.9 444.9 443.5 438.2 429.8 425.3 423.5 423.5 423.5 423.5 423.5 423.5 423.5 423.4 423.5 423.5 423.5 423.5 425 428.1 435.3 442.6 440.1 439.7 440.8 443.3 447.1 452.3 456 460.5 463.7 468.7 475.9 482.6 488.4 494.2 496.5 491.3 486.4 484 480 482.2 480 468.3 460.4 468.6 474.5 468.6 460.2 458.6 456.8 453.3 450.1 452.7 452.6 448.8 449.3 451 451.3 449.4 449.1 445.2 440 438.8 438.5 436.3 435.6 431.5 432 441.2 447.6 444.8 443.5 440.4 433.9 434 429.4 424.2 423.5 422.2 420.9 416.7 413.8 412.9 414 414.7 420.1 425.7 428 435.5 439.9 445.2 446.6 449.8 453.6 451.9 448.2 443.9 439.2 435 424.6 416.9 411 409.3 409.8 400.4 390.3 389.3 386 385.6 387.8 389.6 388.2 385.2 382.1 374.5 368.7 365 362.7 362.2 362.2 361 360.2 360.7 356.9 350.4 345 340.5 335.3 327.4 318.9 300.4 288.1 274.3 258.3 244.6 228.7 222.2 215 206.6 201 199 197.7 191.1 179.2 172.5 172.9 173.5 172.7 172.6 173.3
320.9 315.2 312.6 313.8 312.5 312.2 313.8 315.4 316.6 323.6 326 330.2 332.5 328.3 326.4 325.3 324.7 328.2 324.2 321.3 317.8 316.2 317.3 317.6 308.2 314.2 320.1 326.6 333.3 339.1 344.9 350.6 355.4 360.8 365.6 370.2 374.1 378.2 382.9 388.7 395 400.9 405.1 414.2 422.1 428.4 434.9 439.7 445.5 443.3 440.2 437.7 429.1 426.4 425.4 423.5 423.4 423.5 423.5 423.5 423.4 423.4 423.5 423.5 423.5 423.5 423.5 428.7 430.6 435.3 437.3 436.3 438.6 440.9 443.9 450.6 454.4 458.4 461.3 465.9 470.8 475 487.7 490.8 493.6 494.8 495.2 487.9 482.8 480.5 474.3 475.2 464.7 469.1 481.4 485.4 483.2 472.2 464.7 462.4 459.2 459.4 463.8 458.8 455.7 458.3 462.5 462.8 461.5 458.9 456.3 445.8 446 448.6 442.1 436.6 434.1 432.9 437.3 445.7 446.7 445 438.9 434.1 432.1 427.3 423.9 423.3 422.1 420.2 417.7 416.9 417 418 421.4 426.8 430.5 437.8 447.1 450.6 454 456.1 458.2 460.5 456.9 453.2 451.7 443.6 434.2 425.4 420.8 413.3 407.2 402.7 400.2 398.7 393.6 393.4 393.3 392.8 392.9 392 391.2 383.5 378.6 373.5 367.3 362.5 360.5 361.8 361.4 360.9 359.2 358.7 357.5 349.1 345.7 341.8 336.5 328.2 318.9 300.3 281.7 264.9 252.3 239.1 230 223.5 216.1 206.7 200.9 199.4 195.1 194.5 176.2 173.5 174.1 174 172.2 172.7
313.7 312.4 305.8 307 305.3 305 309.3 311.8 313.6 318.5 322.1 327 327.3 324.6 328.6 326.7 324.3 322.9 319.8 315 314.9 313.6 313.3 312.9 306.8 314.6 319.8 326.7 333.5 339.7 345.9 351.7 357.1 362.2 367 371.8 375.2 378.6 382.9 389 393.7 401.8 406.6 414.7 423.4 431.5 441.8 446.7 444.1 441.1 430.7 429.4 425.9 424.8 424.5 423.5 423.5 423.4 423.5 423.5 423.5 423.4 423.5 423.5 423.4 423.5 421.8 428.8 432 431.5 433.7 436.3 438.5 440.8 445.3 452.5 456.7 459.4 462.2 468.8 473.8 478.2 485.1 494.2 496 498.1 500 493.7 478.9 477.1 470 466.5 466.4 476.3 486 495.4 496.5 487.4 474.2 467.9 468.8 470 471.6 463.7 464.3 471.7 473.7 475.8 473.6 469.1 463.7 457.7 448 447.1 444.7 440.5 436.4 436.3 435.7 442 445.8 444.4 438.3 435.9 432.7 425.8 424.4 423.3 422.4 420.2 419.3 420.7 422.6 425.5 427.9 432.6 437.8 447.3 459.1 462.1 465.8 467.2 466.3 464.2 461 461.5 457.7 450.8 443.9 432.1 424.4 414 408.2 402.6 403.4 405.1 401.7 397.1 398.7 393.9 392.5 390.7 388.8 387.9 379.3 375.3 370.6 365.6 361.5 358.1 359 359.8 360.4 357.9 356.3 353.2 348.7 346.5 342.6 335.9 324.3 309.8 296.8 279.2 259.9 249.9 238.9 230.8 228.3 218.2 204.5 203.9 197.5 195.7 189 176.9 173.3 173.7 173.9 172.9
