ncols 200
nrows 82
xllcorner 310000
yllcorner 302850
cellsize 50
176.1 176.9 180.7 184.9 182.2 178.4 174.7 170.7 165.8 160.4 147.4 136.8 126.2 118 114 110.4 115.5 129.9 131.4 132.8 140.8 147.6 155.6 163.1 168.3 173.6 180.2 189.2 197 203.3 206.2 214.8 218.1 219.2 215.5 210.1 202.7 193.8 183.7 180.8 187.6 190.5 194.4 197.4 197.4 194.4 189.1 184.2 178.5 174.2 169.7 174.6 179.8 185.1 192.7 194.1 197.1 200.7 204.9 206 205.7 204.6 205.7 201.7 193.1 176.8 166.7 161.6 155.8 165.8 179.5 191.8 207.7 212.3 218.8 219.4 216.5 217.2 215.4 214.7 209.2 200.8 190.9 187.8 184.5 181.8 167.8 157.8 149.5 141.6 138.1 136.1 135 131.4 129.2 129.1 127.6 126.7 122.9 124.3 127.7 130.3 133.5 137 138.1 139.7 143.7 147.1 152.1 160.1 168.6 179.3 186.2 194.2 203.8 213 216.8 219.6 221.9 223.9 224.5 224 220.7 215.2 216.4 211.5 207.3 203.7 201 188.2 201.5 207.1 211.8 217.9 230.7 244.1 251.8 261.7 270.1 272.3 270.1 266 260.8 254.4 249.4 240.5 234.4 240.2 247.2 257.4 263.8 268.9 272.6 275.9 279.7 287.8 299.3 308.2 314.3 319.3 324.3 326.4 326.7 326.2 325.2 322.4 318.7 313.3 305.5 298.4 292.4 286.9 283.5 277.8 271.3 265.7 260.5 255.7 250.5 245.8 241.5 237.1 233 229.6 225.4 220.9 216.9 211.6 205.6 200.2 195.4 189.7 182.1 188.6 187.1 182.2 176.1 172.7 167.3 161.9
165.9 177.1 181.1 176.2 176.1 173.5 169.6 167 160.4 148.4 138.2 128.8 122.5 115.9 114.4 110.8 120.4 133.4 137.7 138 147.5 157.1 166.5 171.9 175.6 179.6 188.7 194.9 201.3 205.8 211 225.1 222.2 220.5 218.7 211.8 202 190.7 183.8 183.6 191.2 197.2 200.4 199.8 196.2 192 186.9 181 175.2 173 175.4 181.2 186.6 192.8 197.7 200.7 201 206.6 209.9 212.4 212.9 212 206.5 199.9 191.4 181.1 173.2 158.3 161 176.3 191.3 203 212.1 218.7 223.3 220.2 222.3 222.7 220.8 218 211.6 206.6 205.5 198.1 186.2 175.8 163.5 157.7 153.1 146 142.5 139.9 136 130.5 131.5 130.6 129.6 128.7 127 125.8 125.2 127.7 130.9 133.2 134.7 135.9 139 143.4 147.3 153 159.4 167.6 176.8 184.9 191.9 198.1 203.6 205 209 210.8 212.4 211.9 210.1 206.3 206.1 207 204.5 202.3 197.1 187.8 189.7 195.5 204 216.1 229.6 238.5 248.5 258.8 264.5 265.5 265.6 263.1 258.1 253.8 248.7 240.8 230.3 229.2 234.1 244.5 250.6 254.7 258 253.3 277.4 292.5 301.3 307.5 313 315.7 317.9 318.5 319.4 319.3 319.9 317.9 309.4 300.2 292.6 281.1 276.6 270.5 265.6 261 258.2 253.3 248.4 243.9 239.5 235.1 231.2 227.9 224.8 221.3 217.1 213.6 208.4 203 198 193.8 189.1 182.7 176.9 178.1 177.8 172 167.8 164.6 161.9 156.2
168.2 172.6 168.3 166.5 166.9 163.4 162.7 162.3 156.4 141.3 129.4 123.8 117.6 115 113 111.9 127 136.2 143.9 149.1 152.1 160.9 170 178.2 181.9 186.9 197.6 200 205.2 212.2 218.5 226.6 225 222.3 218.9 213.2 205.2 189 182.3 187 197.7 202.4 200.9 197 191.4 186.1 181.5 178.3 177.7 177.4 177.4 185.6 191.5 196.1 200.1 206.4 211.3 213.4 216.6 217.4 219.8 216.2 208.5 197.9 190.1 183.2 166.9 160 174.4 188.6 201 211.5 219.1 227.1 225.1 227.7 229.2 231.1 233.8 230.9 220 210.4 198.7 187.3 181.5 174.7 172.9 168.8 162.6 156.1 148.8 141.8 136.4 133 133.7 132.7 131.8 130.8 128.7 127.4 126.3 125.8 127.2 128.6 130.7 132.2 135.3 141 144.7 149.8 155.8 164.3 172.5 178.9 182.2 185 189.6 194.4 192.7 198.6 197.4 196.6 196.2 196.1 197.7 199.4 196.7 192.7 190.6 185.5 182.7 189.5 197.4 211.6 223.6 231.8 239.1 248 251.9 253.4 255 255.6 251.7 246 239.4 232 222.5 217.9 221.4 224.5 231.8 239.1 229.1 254.7 264.6 271 276.6 280.3 283.6 286.8 286.7 287.1 287.4 287.8 288.6 287.5 284.6 279.4 272.9 266.6 263 257.7 253.7 250.4 246.1 241.4 237.2 232.9 228.8 225.1 223.2 218.7 214.5 211.8 207.1 203.2 198.9 194.1 189.4 185.7 183.8 178.3 170.9 170.4 167.6 162.8 155.9 152.5 149.8 147
163.7 156.6 153.9 156.6 158.7 158.7 156.6 152.5 145.7 130.9 124.1 117.9 114 111.9 117.5 131 131.6 139 146.1 151.8 157.1 163.4 172.1 180.1 185.6 195.5 203.6 205.9 215.8 221 225.1 231.9 226 220.5 214.6 206.7 194.5 183.9 182.4 190.3 195.8 196.9 193.8 188.1 185.8 184.1 186.6 185.4 184.5 181.9 182.4 184.4 194.5 200.7 206 210.2 216.5 221.3 222.3 223.6 225.7 219.9 213.2 198.1 187.9 182.1 167.1 163.2 180.4 197.9 211 217.9 225.3 228.1 231.8 234.2 247 250.5 235.8 225.3 213.6 200.5 199.2 195.8 187.4 183.6 180.2 174.1 171.3 164.9 161.6 145.3 137 135.4 135.4 135.2 134.5 132.8 130.4 129 128.5 127.2 128.6 127.1 128.4 129.1 133.7 140.5 145.2 149.9 156.9 164 170.2 174.1 176.8 178.3 183.3 189.5 187 184 188.7 189.6 189.9 189.2 191.9 193.1 189.6 186.3 183.6 181.2 179.2 185.1 187.5 195.9 204.4 216 226.7 232.6 238 241.2 241.9 241.5 240 234.3 228.2 220.4 212.6 198.4 209.4 213.3 219.9 223 229.3 236.8 243 248.9 251.5 255.3 258.7 260.1 261.7 262.4 263 264.4 264.4 265.1 261.7 258.4 256.3 253.4 248.8 246 240.8 237.7 234.1 231.2 227.8 224 221.5 217.5 213.1 208.5 203.3 199.3 195.5 192.9 189 184.9 181.9 178.1 175.4 171.5 166.3 159.5 153.6 151.9 150.2 142.2 144 141.3
151.6 147.3 148.9 154 155.1 151.7 145.5 140 133.1 126.5 117.3 111.8 115.8 120.7 131 133.9 138.3 142.3 148.2 153 159.2 167.7 174.4 185.8 192.1 198.3 208.1 213.8 219.8 227.1 231.2 229.3 222.5 213.6 204.8 196.6 187.7 183 186.5 193.6 196.5 196.2 194 190.5 186.4 191.7 190.9 188.6 188.6 187.6 188 190.9 197 204.9 211.4 215.4 222.6 226.3 228.8 230.7 233.5 226 215.2 198.1 187.7 182 166.1 171.6 187.8 205.2 215 220.1 228.1 232.7 237.7 255.8 254.9 243.9 232 220.6 215.1 209.8 200.1 197.3 193.1 189.3 180.2 174.8 171.7 170.3 166.9 148.1 138.4 138.3 138.5 137.4 137.4 134.1 131.4 130.3 129.9 129.6 129.9 129.5 130.1 129.5 130.5 136.5 143.5 148.3 155.1 161.3 165.9 169.9 172.6 173.8 178.4 182.2 181.5 175.2 178 179.6 181.4 181.1 185.4 189 187.2 184.5 179.7 178.8 176.9 183.9 184.9 187.7 195.6 204.1 212.8 218.3 225.1 230.5 231.5 231.1 229.1 226.3 217.2 207.1 198.4 191.7 195.7 198.4 201.4 200.6 211.4 216.7 221.7 228.8 232.7 235.6 238.7 239.2 240.7 240.6 240.8 241.3 242.6 242.7 241.7 241.8 241.5 240.6 234.8 233.2 228.8 227.6 224.4 221.7 217.8 213.2 208.3 204.5 200 196.4 191.6 187.5 185.1 183.2 180.6 177.3 173.7 170.4 168.2 163.6 158.4 158.1 144 128.5 124.8 123.7 123.7 123.7
139.9 146.4 147.5 149.1 148.3 142.2 138.9 134 122.3 115.4 115 120.4 125 131.1 137 139.1 142.5 147.8 152.9 157.9 161.9 170.2 182.9 190.1 192.8 200.2 212.1 218.5 224 224.3 224.2 221.3 212.9 203.6 195.2 188.1 183.1 186.6 196 200.5 202.5 203.8 198.9 194.9 189.5 193.5 195.2 195.3 196.5 193.2 194.1 195.5 204 210.1 218.2 221.3 225.6 229.8 233.4 236.3 240 232.4 217.7 199.1 188.7 180.2 163 175.1 193 211 216.3 227.9 233 239 255.5 258.1 248.3 239.4 232 225.9 216.6 208.5 206.7 204.1 194.6 185.1 179.3 174.7 172.7 173.5 163.5 144.3 146.1 142.6 142.3 140.8 138.2 135.4 133.5 132.1 131.7 132.1 132.1 131.9 132.1 131.4 130.6 131.6 140.2 146.2 151.8 157.1 159.4 163.1 166.8 168.6 171.3 173.2 172.9 168.8 168.2 170.1 172.1 174.6 179.3 183.7 184.4 183.3 179.1 176 174.8 179.1 179.5 182.2 186.6 193.8 201.1 207.2 212.5 216.2 216.3 212.4 206.2 201.7 195.6 189.2 185.7 184 185.7 188.1 191.2 191.9 198.9 202.7 206.5 210.1 213.1 215.5 216.8 217.8 219.3 220 220.8 221.5 223.7 223.8 226.2 227.4 228.2 225.1 223.2 221.9 217.9 218 212.3 208.4 203.9 198.7 194.3 191.3 187 185.1 182.1 180.8 176.3 175.3 172.8 170.5 170.2 165.7 159.6 158 146.4 136.3 127.7 129.2 130.4 138.2 136.9 142.7
117.5 129.9 142.5 142.5 140.7 139.5 129.5 120.2 112.1 117.1 124.2 125.6 128 135 139.7 145 150 154.7 162.8 170.3 171.7 177 182.9 192.6 201.5 210.1 216 216.4 215.2 212.8 213.2 207.5 197.9 190.2 187 184.5 190.9 197.8 203.8 205.8 205.1 203.5 199.3 193.5 199.8 200.3 197 199.4 198 196.7 197.4 200.6 208.3 215.2 222.8 230 231 235.3 239.2 245.4 239.5 231.7 224.2 205.5 194 182.4 163.7 178.3 195.7 209.3 218.8 226.8 233.7 242.8 262 254 247.2 241.3 234.9 229.7 224.2 213.9 206.9 200.4 190 182.5 177.7 168.1 153.1 153.9 148.1 149.4 161.8 155.6 150.6 150.4 146.5 138.2 135.8 134.5 134.7 133.9 134 134.3 133.9 133.8 132 131.7 137.1 144.2 147.7 150.1 152.3 154.9 157 160.1 164 165.2 165.4 161.2 161.1 162.7 167.8 170 174.3 178.5 180.5 179.3 176.9 172.7 172.6 176.1 177.3 179.2 182.4 185.7 190.2 194.4 197.7 199.3 196.6 192.4 188.3 185.1 181.6 180.2 179.9 180.4 180.7 181.6 183.9 185.1 184.8 185.2 184.2 188.5 191.5 193.4 196.1 197.3 198.1 198.6 203.4 205.7 207.4 209.1 210.8 214.3 215.1 214.7 213 211.2 208.8 205.9 201.5 196.9 192.7 188.7 183.6 181.3 178.1 175.8 173.2 171.1 169.1 167 167 169.7 167.7 160.9 149.9 136.4 130.1 127.7 138.5 145.9 149.3 152.7 157 156.1
122.6 112.7 119.5 136.1 132.1 120.4 118.3 117.1 117.9 124.9 126.5 127.3 131.1 137.7 141.4 148.1 154.7 167.1 172.9 175.9 179.5 186.1 196.7 204.4 210.4 212.9 211.2 207.4 203.6 203.1 199.3 194.2 190.5 186.4 186 190.9 193.1 201.4 204.7 204 205.5 202 198.6 195.4 199.7 200.3 201.3 202 202.2 201.9 204.6 207.3 212.6 217.5 224.3 231.2 237 241.4 244.7 245.2 237.3 230.7 224.7 209.3 196.5 187.8 169.8 174.6 198.2 209.4 216.7 223.6 229.7 246.5 254.4 251.5 243.4 237.1 237 226.9 219.4 213.3 204.9 193.1 185.5 180.9 174.3 156.3 169.8 159.5 155.2 165.6 171 168.6 156.1 166 160.8 145.3 140 137.3 136.8 136.7 136.1 136.3 136 135.4 134.2 132.9 132.5 136.7 141 143.4 146.5 147 149.4 151.5 156.5 157.5 157.2 155.8 159.5 161.7 164.1 166.1 172.5 176.4 176.4 175.1 174.3 170.9 172.9 173 175.3 178.2 182.1 184.5 185.7 187.5 186.3 184.7 183.6 182.1 179.9 177.6 176.3 176.2 176.7 176.1 176.8 177.4 178.9 178.5 177.4 174.8 175.7 177.6 178.9 180.2 182.8 185.9 187.5 190.3 192.8 195.1 197.4 199.1 201.4 204.3 204.5 202.7 200.4 199.6 199.1 192.9 189.4 187.9 186.2 180.1 174.9 172.7 170 168.7 167.5 164.3 161.6 162.4 155.7 157.1 152.5 134.8 127.7 127.8 134.4 143.9 150.4 153.3 158.2 162.4 158 152.4
138.4 132.9 119.2 113.1 118.6 117.8 116.4 112.7 118 124.9 129.4 131.9 137.4 140 141.4 153.3 161 166.3 173.1 179.5 188.8 199.6 208.6 212.8 213.1 209.5 206.5 202 198.6 195.6 192.2 188.1 185.3 187.5 188.3 190.4 192 195.4 197.9 201.8 203.4 199.6 199.6 202.3 204 205.4 207.4 209.1 209.8 209.4 210.8 211.9 217.4 219.9 224.5 229.9 235.4 238.3 240.1 242.4 235.4 229 220 209.6 199.2 190.9 175.7 167.4 185.4 198.2 208.4 222.8 231.1 242.9 245.5 240 236.3 237.7 232.6 223 216.1 207.2 196.1 187.7 182.3 178 155.8 176.9 177.5 177.2 174.9 174.6 174 172.1 172.7 173.8 170 155.2 146.2 141.3 139.4 138.7 138.7 138.3 137.8 137.3 136.5 135 134.3 134.4 134.6 136.9 139.9 141.2 142.5 144.2 147.2 149.9 149.5 152.1 153.6 156.3 162 167.1 173.6 177.8 173.3 169.4 168.8 168 170.5 177 179.5 182.3 186.9 187.3 186.7 184.7 182.9 179.5 179 178.1 177.3 175.4 175.1 174.1 174.6 173.9 173.5 174.6 173 172.7 172.5 172.1 170.6 171.4 171.9 174.1 176 178.5 181 183.3 184.7 187 190.7 192.3 193.6 193.1 191.9 189.2 189.5 190.1 188.9 187 182.6 181.1 177.2 171.6 169.1 167.6 165.7 162.3 155.5 145.9 134.9 136.2 134.9 133 130.8 132.7 144.1 148.6 151.4 155.9 157.5 159.7 160.9 157.2 152.3 147.7
140.4 135.7 136 127.9 117.6 113.1 113.3 127.7 123.3 121 125.8 132.3 138.6 140.4 144.7 152.7 161 170.2 179.3 188.9 201.2 209.8 213.8 214.7 213.1 207.8 200.4 193.7 190.5 188.7 188.2 188 190.8 191.3 190.2 195.2 195.8 197.3 203.7 207.1 207.5 200.3 206 211.4 212.4 212.5 214.1 215.7 216.1 215.5 216.7 220.6 223.3 225.3 226.4 228.3 232 236.3 239.3 242.2 236.2 226.8 218.5 209.1 199.9 191.9 182.9 170.5 176 194.7 208.4 223.4 232.3 240.7 237.2 232.4 231.4 226.7 221 215.2 205.1 195.6 188.3 184.9 182.1 166.6 175.5 180.2 179.9 179.1 178.8 180.1 178.3 176.4 177.7 175.8 172.4 162 157.1 150.2 145 142.1 141.1 140.6 139.5 139 138.5 137.6 136.7 135.9 135.2 134.9 135.6 137.6 138.5 140.1 141.5 143.8 145.6 146.9 151.3 157 163.6 169.1 177.4 179.3 172.8 167.3 166.7 169.4 175 179.5 183 187.7 191.2 191 190.3 189 186.1 183.9 181.4 178.5 176.6 176.2 175 173.9 173.3 172.7 172.7 172.1 170.8 169.8 168.7 167.3 168.2 168.7 168.8 170 173 177.3 179.6 180 178.7 181.9 182.6 182.6 182.7 180.2 178.3 179.4 179.6 178.7 179.4 176.9 175.3 172.8 168.5 164.6 162.3 158.6 156 145.4 136.4 135.8 136.9 134.9 135 133 141.2 146.9 155.4 155.8 158.1 160.6 162.1 161.4 158.2 153.8 151.5 144.6
139.5 138 138.6 138.3 134.5 130.2 129.4 129.9 129 123.1 127.4 133.3 137.3 142 147.3 158 168.4 176.3 187.7 201.2 210.5 219.4 216.6 210.8 204.7 200.8 196.9 194.8 192.3 191.6 192.7 193.5 200.8 198.9 195.8 193.9 194.5 198.4 202.5 206.2 202.8 204 212.5 216.5 218.5 221.5 222.3 223.2 221.7 223.9 225.3 229.6 229.1 230.3 230.1 231.8 234.5 236.9 236.9 237.2 233.3 226.1 214.9 206.8 199.8 195.7 188.9 177.9 168 187 204.2 220.9 233.2 234.6 230.4 225.8 220.1 217 211.1 202.7 196.1 190.1 186.1 183.4 180.5 161.9 181 181.8 181 180.9 184 184.5 182.5 180.9 179.8 178.1 174.1 171.1 164.3 159.7 151.1 146.8 144.1 142.6 141.9 141 140.2 139.8 139.4 138.2 136.3 135 135.7 136.4 137.1 138.2 139.3 141.7 143.4 144.9 150.2 156.2 163.8 171.2 178.9 177.8 170.9 165.4 169.4 171.5 177.1 183.4 187.5 192.1 194.3 195.4 193.8 190.7 187.3 182.6 179.2 177.1 175.7 175.1 174.6 173 171.4 169.4 169.1 167.9 166.4 165.8 165.3 165.1 165.9 166.5 166.1 167.1 171.3 176 177.9 177.1 173.6 174.7 168.3 160.4 157.1 156.8 159.5 160.9 165.5 163.6 165 169.2 164 161.6 162.3 157 150.5 138.6 138.7 139 140 137.8 146.9 150 153.5 158.3 156.2 156.9 159.9 161.2 163.1 165.2 165.3 162.1 156 150.3 149.5 143.8
143.2 143 144.6 144.1 143.7 142.2 136.5 133.4 130 125.6 128.6 137.5 138.5 140.4 150.3 156.7 163.2 174.4 191.7 205.1 210.8 212.5 210.6 207.3 205 202.8 199 196.8 197.1 197.1 197.4 201.6 202.8 203.6 201.1 197.8 200.1 200.7 202.7 205 205.5 208.3 220.3 225.7 227.8 229.5 231.3 231.5 231.1 233.2 234.8 234.5 233.6 232.5 231.5 229.6 230.2 230.7 230.8 230.2 226.2 219.9 210.6 205.2 201.1 198.3 194.2 185.6 173.6 178.3 205.7 218.2 225.5 226.4 224.5 220.7 212.2 206.2 200.3 196.6 192.7 187.9 183 174.8 166.2 178.8 182.9 183.2 183.4 185.3 185.7 182.8 182.6 182.4 182 180.3 178.5 175.1 171.8 166.4 158.7 148.1 146.4 144.9 144.7 142.2 142.4 142.1 141.3 139.4 136.9 136.3 135.6 136.3 137.5 137.2 138.5 139.2 141 144.3 148.4 154.5 163.4 169.7 174.6 174.6 169.7 162.2 170.9 174.7 181.3 187.5 193.4 198.3 197.9 197.6 193.1 188.4 185.1 181.3 177.6 175 173.7 172.2 171.2 169.5 168.2 167.4 166.4 165.6 164.9 164.4 164.4 163.3 164.4 165.9 159.9 158.9 163.7 172.8 169.5 160.3 155.9 153.8 154.2 157.1 156 158.1 157.2 151.4 147.3 147.3 145.9 149.2 150.5 147.6 146.4 139.9 139.7 146.4 154.8 155.8 150.7 151.5 152.5 158 158.5 161.3 160.5 163.8 164.8 167.5 168.3 166.8 163 155.6 157.1 154.9 149.3 157
152.4 150.4 151.5 152 151 149 142.9 135.7 131.9 127.9 132 141.2 143.5 143.4 149.9 157.6 166.5 175.8 185.1 197.3 201.4 205.7 206.2 205.3 203.2 199.2 199.5 202.8 201.3 199.7 204.3 207.4 210.1 206.5 205.2 203.2 205.9 205.4 206.4 209.4 211.6 220.1 226.6 233.1 233.8 236.7 238.1 237.2 236.6 239.6 239.5 237.7 235.5 233 230.2 226.4 222.9 223.6 222.8 219.9 217.7 210 204.3 200.5 198.7 197.5 194.3 189.7 169.2 178.6 199.3 213.9 218.7 224.5 221.1 215.8 206.8 203.1 199.7 196.1 193.5 188.7 175 178.7 182.3 185.2 187.5 186.1 187 188.2 187.6 184.9 187 187.8 186.7 184 181.6 179.6 176.4 171.8 167.3 156.2 148.2 146.2 146.3 145 143.4 143 141.9 140.1 138.6 135.9 136.3 137.1 138.8 138.6 139.4 140.1 141.1 142.4 145.7 152.1 159.8 167 171.2 171.8 169.2 163 165.3 177.3 184.1 189.8 198.4 201 198.6 195.2 188.8 183.3 180.6 177.8 174.5 171.5 170.3 168 167.6 165.7 165.7 163.4 163.9 163.9 163.1 163.3 163.5 165 165.5 164.9 167.6 168.9 165.8 159.4 161.3 166.5 171.5 172.1 172.5 174 172.9 171.8 170.9 169.6 167.9 164.2 158.9 146.9 144.8 147.5 144.8 147.9 154.8 160.2 161.7 162.1 144.5 156.6 162.1 166.8 162.8 162.6 167.1 169.4 171.6 169.7 164.4 159.4 159.9 162.1 161.7 156.8 160.2 169.3
160.1 158.5 161.6 162.8 161.1 160.5 147.5 133.9 133 129.3 142.2 146 152.8 151.1 149 164.4 170.8 177.1 183.4 190 194.1 197.9 201.4 198.9 198 197.5 202.4 201.6 201.4 203.6 209.2 212.3 212.2 208.7 209.1 207.4 209.1 211 215.6 220.8 224.1 232.7 237.8 241.5 240 242.6 241.8 240.2 240.7 241.7 240.6 237.7 232.9 229.5 225.5 221.9 219.3 216.1 215.2 209.5 208.3 202.2 199.1 194.6 192.1 190.6 188.1 181.7 170.1 185 200.6 203.3 209.4 211.2 210.1 205.7 202.4 199.2 197.3 194.8 189.4 172.4 183 188.1 191.6 193.4 195.2 194.4 196.3 196 191.6 192.4 193.1 193.1 192.8 190.3 185.8 179.3 175.1 167.8 162.6 152.7 147.7 149.5 147.2 146.2 144.6 142.9 141.5 140.2 137.7 136.6 137 137.5 139.6 140.2 140.4 142.3 143.7 143.2 143 148.3 154.9 161.3 166.3 168.5 166.8 155.3 170.9 178.3 185.1 192.6 199.3 200.9 200.2 198.5 188.3 179.7 175.6 173.6 171.1 168.7 166.9 166.3 165.3 165.2 165.3 165 164.9 164.2 164.3 166.3 168.5 170.8 172.5 173.6 177 179.5 179.8 182.4 185 186.4 186.9 186.2 185.1 183.7 180.8 179.2 176.8 173.7 169.2 162.4 162.1 163.8 162.2 161.8 161.4 165.2 167.8 170 171 167.7 154.6 162.4 166.7 167.6 166.5 167.7 171.3 170.8 167.4 166.8 167.1 165.6 166.2 162.4 161.7 167.1 171.8 177.1
167.6 164.8 166.4 168.8 165.5 156.9 142 133.6 135.8 143 148 160.3 165.7 166.5 160.8 160.3 169.8 177.2 184.2 192.3 194.2 194.3 190.8 189.6 191 192.5 197.9 199.9 207.2 207.5 212.6 214 213.4 213.5 213 215.2 216.9 223 228.7 233.6 235 241.4 243.6 245.6 245.5 246.5 245 242.6 241.7 242 241 237.4 229.8 222.6 219.9 217.5 218.4 219 218.1 215.4 210.6 204.9 198.9 192.8 187.9 184.8 181.5 179.9 172 183 193.9 197.3 197.6 197.6 198.3 197.4 197.1 195.2 191.9 188.2 176.9 188.6 191.6 195.3 200.3 201.1 204.9 206.1 208.3 204.9 199.5 200.1 200.1 199.3 198.9 197.2 192.7 184.5 175.8 168.7 159.1 155.3 154.6 152.4 149.5 146.6 143.8 141.5 140.2 139.3 137.5 137.9 137 138.4 139.5 141.4 142.4 144.2 145.3 145.7 145.4 145.8 147.7 154.6 158.1 161.8 153.5 166.1 172.3 179 186.7 194.2 198.3 200.5 203.5 202.1 189.8 178.7 173.4 171 168.5 167.1 166.4 166.3 165 165.9 166.6 165.7 165.7 166.4 170 172.2 175.1 179.3 181.4 183.4 188.4 192.2 194.1 197.4 197.6 197.6 198.1 197.5 194.7 192 188.9 183.7 177.8 171.2 168 171.1 172.6 174.8 176.1 176.7 176.5 176.3 178.5 181.7 180.7 164.2 163.9 168.1 170.1 174 174.6 174.5 171.8 173.1 173.3 173.3 172.7 170.7 166.5 167.9 170.7 174.9 178.2 181
175.5 171.3 170 167.3 155 145.6 136.9 138.9 148 154 168 176.4 187.6 190.8 184.5 173.7 165.2 178.5 187.4 193.5 190.5 187.1 184 183.7 185.4 187.2 190.5 195.5 203.8 209.8 212.5 215.1 217.1 219.2 221.6 225.9 228.5 236.6 240.4 243.3 242.7 242.6 245.1 246.4 246.9 246.3 244.1 241.8 240.6 236.6 234.7 230.3 224.3 218.3 215.8 215 216.5 218.6 220.2 219.3 216.7 211.7 202 193.4 187.9 183.6 184.3 182 174.7 178.2 188.3 190.8 191.4 192.5 193.4 194 193.5 192.2 185.5 190.7 195.1 196.1 199.2 201.9 204.9 209.6 213.3 216.1 213 209.1 207.7 208.1 208.6 205.6 207.1 205.3 193.7 191 182.8 167.8 162.4 162.8 159.9 155.1 150.8 147.7 145 143.4 141.5 140 139.7 138.9 137.5 138.9 140.9 143.2 144.4 145.4 147 147.5 147.6 149.3 151 154.7 157.7 160 161 164.2 173 180.2 188.4 197 199.5 202.7 206.1 200.4 187.8 178.9 171.5 168.9 167.5 166.4 165.8 165.4 166 166.1 166.5 168.4 169 170.9 176.8 180.1 185.3 189 195 197.8 202.8 204.3 205.8 207.8 209.6 211.1 210 207.8 204.2 200.6 195.1 188.3 181.1 177.7 177.2 180.7 182 185.8 187.7 186.1 186.5 187.4 187.6 187.6 186.8 164.3 170.8 173.4 176.4 179 180.1 177.5 181 180.8 182.6 181.7 177.3 172.5 171.1 172.8 179.5 181.9 183.8 187.6
175.3 170.9 167 157.7 149 139.8 137.4 148.2 160.6 172.3 187.5 196 199.1 198.9 194.8 188.5 173 176.9 184.8 186.5 184.5 182.5 183.5 185.6 187.3 188.7 190.8 194.7 200 205.8 212.8 217.9 222.9 227.5 232.1 237.7 240.6 243.1 245.4 246.7 247.1 247.1 246.8 247.9 247.2 245.5 242.7 239.5 237.6 234.1 229.3 223.8 219.5 216 214.1 214.6 216 220 221.6 222.4 219.9 214.3 205.8 197.6 191 188.8 188.3 185.9 174.8 179 181.7 186 190 193.4 195.8 196.4 195.2 192.7 193.8 198.8 199.8 202.7 206 210.2 213.1 217.5 221.5 222.1 220 208.6 215.4 218.2 218.3 217.2 212.1 205.3 200.3 193.1 175.8 178.7 175.4 171.8 165.1 160 153.1 149.7 147.9 145.7 143.9 142.1 141.4 141.5 138.7 140.2 142.9 144.4 146 146.9 148.5 149.5 149.9 151.3 155.4 160.3 164.3 167 167.8 162.5 174.2 181 188.9 192.6 192.3 200.4 200.9 189.7 182.3 176.1 171.5 167.8 166.4 166.9 165.8 165.7 165.6 167.2 170.3 173 177.1 180.2 183.2 189.4 193.7 199.1 204.2 209.5 213.1 216.1 218.9 223.8 226.9 225 221.7 218.1 212.4 209 204.2 196.9 190.6 184.2 187.8 192.9 192.1 192.9 193 192.6 190.5 189.8 190.1 191 181.7 158.9 180.1 179.8 183.1 185.7 184.9 180.6 186.2 187.4 186.3 182.8 179.3 180.1 178.5 180.5 185.1 187.9 190.9 196.1
170.6 164 156 149.8 143.4 142.2 149.5 163.8 176.8 191.8 200.8 204.2 204.3 201.9 197.5 192.1 183.8 177.7 174.3 177.1 178 180.9 184 187.8 190.9 193.6 196.2 198.4 204 210.4 216.5 224.7 231.5 236.5 240.4 243.2 245 246.5 248.4 250.1 251.3 251.6 252.2 252 250.1 248.3 245.9 242.9 241 238.7 232.7 225.6 218.5 214.2 213.7 213.8 216 220.5 223.1 224.1 220.3 217.2 212.7 205.4 197.2 194.1 192.2 180.9 180.4 184.4 188.4 191.9 194.5 198.3 198.9 199.4 198.4 192.6 201.8 202.9 206.5 210.6 215.3 220.2 222.7 225.9 226.2 224.2 224.1 219.1 223.3 226.5 222.1 218.8 218.6 214.2 197 190.3 192.3 188 185.8 180.8 174.6 168.2 161.6 155.7 150.9 148.6 145.4 144.2 143.6 143.9 140.5 141.9 144.3 146.2 147.6 146.6 150.4 151.3 152 153.9 159.1 163.6 167.5 170.7 171.2 167.5 170.2 178.2 183.9 184.3 183 186.6 190.6 185.6 180.7 175.5 170.8 167.1 167.1 166.6 165.9 166.4 167.6 170.2 174.2 179.8 184.4 189.8 195.2 199.6 206 210.9 218 223.7 228 232.4 233.8 238.7 240.9 236.7 230.4 224.8 222 218.8 214.2 205.5 196 195.2 197.4 197.8 194.6 193.9 193.1 191.7 190.8 189.4 189.1 186.6 167.7 174.8 187.1 185.7 192.9 193 189.6 184.9 190.7 193.8 191 187.3 187.5 186.8 187.1 190 193.5 196.7 201.4 208.6
161.9 156.8 153.5 150.6 144.8 147.7 163 179.2 195.6 204 207.4 207.6 205.7 199.3 194.2 188.1 183 179.6 179.4 181.2 182.9 185.7 188.7 192.3 195.6 197.9 207.2 213.5 218 224.9 229.2 234 238.1 241.1 244.8 247.9 249.8 253.6 254.1 255.9 256.2 257.9 256.6 255.5 253.6 251 247.7 243.9 238.8 233.9 228.7 221.4 215 212.3 213.1 213.2 216.7 219.2 220.4 219 220.9 220 214.8 209.2 203.6 199.3 191.7 184.5 186.5 195.7 195.5 199.1 204 208.3 208.9 207.3 202.1 197.2 206.7 211.8 218.9 222.7 227.9 230.7 234.5 234.8 233.5 232.8 230.7 229.7 228.9 228.1 226.3 225.5 224.3 220.4 192.5 209.3 204.4 198.2 194.1 189.5 184.1 176.8 169.1 164 158.8 152.9 148.4 148.3 147.7 150.8 143.8 144 146.8 148.3 149.3 151.1 152 153.5 154.5 157.2 161.7 165.8 167.4 173 171.3 171 167.1 171.6 174.7 176 177.4 174.7 176.1 181 177.4 173.4 168.9 168.3 167.5 167.7 166.8 168.1 170.7 174.4 181 187.2 194.5 200.1 207.4 216.3 222.2 232.5 239.2 242.5 250.9 251.9 254.9 252.9 249.2 241.8 234.6 228.7 223.8 218.7 209 200.7 199.5 200.7 199.6 196.5 192.8 192.2 189.7 188.8 183.7 183.5 176 173.5 183.4 188.5 193.9 193.8 196.7 197 195.3 191.5 196.2 196.4 195.4 196 195.9 195.9 196.9 200.8 202.5 209.9 215.7 224.4
163.3 161.7 162.2 150.9 147 161.6 174.8 195.3 204.9 209.5 209.5 206.3 201.2 194.6 188.6 184.9 184.1 185 185.7 187.4 190.1 192.3 196.8 201.1 205.9 210.6 219.1 223.9 231.2 233.6 236.7 240.7 245 248.9 251.4 255 258.2 259.9 259.9 259.6 259.8 259.8 259.2 257.7 254.9 250.3 242.6 236.4 228.1 226.3 221.4 215.5 212.1 209.3 212.1 213.7 216.5 218.9 218.2 217.8 215.6 206.9 204.3 212.1 205.1 188.9 189.8 196.5 198.1 205.1 208.6 212.1 217.5 218.7 218 209.4 201.2 207.2 214.3 219.7 224.4 231 239.7 241.4 240.3 240.1 240.7 242.1 237.1 238.1 237 233.1 232.5 231.3 229.7 226.3 200.5 222.6 219.1 212 205.3 199.2 193.5 188.2 180.1 173 165.3 157.7 153.3 151.9 151.8 153 152.2 151.2 151.4 151.5 152.3 154.5 155.2 156.1 157.3 159.6 163.4 164.9 171.4 171.5 169.6 169.3 168.2 171.1 171.6 174.4 177 176.8 172.5 172.7 172.1 169.3 168 168.1 167.7 168 170.8 170.5 173.6 179.4 187.1 194.8 202.5 209.9 224.2 238.9 251.5 260.3 270 277 280.1 278.9 269.8 262.1 254.2 243.7 231.3 225.3 219.7 213.8 207.3 201.8 200.2 199.3 196.4 193.1 191.3 191 191.1 192.2 190.4 189.7 189.8 186.3 191.5 194.8 198.9 200.2 200.9 200.8 199.9 199.5 202.1 201.9 202.3 203.5 204.9 207.3 208.2 211.8 215.7 222 231.7 240.5
171.5 168.5 163.5 150.4 157.9 177.9 195.1 206.6 211.3 211.1 205.7 200.5 195.8 192.6 192 192.5 195.9 199.8 203.7 206.6 208.5 208.9 216.5 218.3 223.2 228.3 230.7 234.6 238.2 241.3 243.7 246.1 253 256.2 259 262.2 263.1 263 263.1 262.7 262.5 261.7 260.1 256 246.8 240.1 231.1 225.4 222.3 219.3 215.3 210.3 207.8 207.8 212.6 215.9 218.3 218.4 214.3 208.7 193.5 202.3 193.2 190.3 186.2 194.2 201.3 206.4 208.9 215.3 220.1 225.3 227.1 226.2 208.5 208.1 210.1 216.7 224.6 233.8 239.1 242.1 245.9 247 248.4 250.8 249.8 248.7 246.5 247.1 241.5 238.7 237.1 236.4 237.6 235.7 223.1 236.7 237.8 232.6 226 221.2 212.4 200.8 191.8 182.4 171.7 164 160.1 159.3 157.5 157.4 161.1 157.6 157 157.1 157.9 158.7 161.5 157.2 162 163.2 165.8 169.6 173.7 171.3 169.1 169 169.1 168.8 172 177.8 176.4 176.2 173.5 169.3 168.4 168.4 169 168.3 168.6 170.5 171.9 173.6 177.1 184.6 193 202 212.4 222.2 232.6 242.3 250.6 259.5 270.1 275.9 278.4 280 280.7 270 252.5 237 227.6 225.9 221.7 214.9 205 201.2 199.5 196 194.8 193.2 193.2 192.9 194.2 193.9 194.7 196 193.4 192.6 196.4 200.9 203.3 204.7 204.3 204.5 205.1 205.8 207.1 208.7 210.6 214.5 216 219.1 222.7 220.4 232.7 241.3 249.8 253.4
173.7 172.2 163.2 150.3 175.2 194.5 206.4 211.9 208.8 204.5 201.9 200.4 201.2 202.7 206.5 208.5 213.4 216.2 218.6 220.7 220.1 221.7 225.7 230.8 233.7 236.2 237.4 242.5 246.5 248.3 250.9 254.2 258.5 261.7 263.7 264.8 265.5 264.6 263.7 260.5 258.7 257 254 249.2 236 228.1 223.5 221 218.5 215.9 211.9 208.3 206.7 207.6 212.1 216.4 217.8 208.8 197.1 202.1 214.5 219.5 213.2 195.5 197 201.4 210.1 216.1 223.3 227 227.5 233.4 228.5 213.4 212.6 219.3 223.7 227.4 239.9 246.4 251.4 253.6 256.5 259 259.2 259.9 259.3 258.8 259.4 259.5 252.7 248.2 244.1 243.5 245.4 238.6 235.4 249.3 257.2 251.4 246.3 242.1 241.2 228.2 210.5 199.5 182.7 174.3 167.1 166.3 165 165.7 168.8 167 165.8 165.5 166.6 166.8 167.4 162.5 163 168 170.1 174.4 175.3 171.6 170.4 170 169.8 171.3 175.1 183.4 178.5 173.1 175.5 171.8 168.6 168.8 169.4 169.6 171.9 175 175.4 177.3 180.8 187.5 196.4 202.6 210.5 216.8 226.4 236.5 248.4 258 263.7 269.2 276.3 279.8 269.9 254 239 226.6 221.4 222.3 213.6 205.3 202.3 198.3 195.2 194.1 194.4 194.8 195.4 195.9 198.7 200.3 198.9 199.3 198.8 203.4 201.7 205.1 207.2 208.5 209.9 209.4 210.3 213.1 216 218.7 222.5 226.5 229.8 235.8 242.9 244.3 251.7 257.3 258.3 263.3
176 173.8 158.9 165.9 191.3 208.3 209.5 205.9 204.2 206.4 212.4 213.6 213 216.5 219.8 222.2 224.4 227.2 228.8 230.2 230.4 234.2 237 238.4 240.4 241.6 245.2 248.2 251.7 254.6 257.1 260.8 262.8 264.3 265.2 264.9 263.9 262.7 259.6 254 251.5 247.9 242.3 236.2 226.7 222.9 218.9 216.4 213.8 211 208.7 206.9 205.9 203.6 203.1 202.9 206.8 200.7 214.6 213.8 219.2 219.3 211.7 203.7 208.2 214.8 219.7 226.3 231.8 233.9 236.2 231.5 216.9 225 227.2 227.4 235.2 241.9 252.3 258 262.8 267.4 268.4 270.4 271.4 271.5 272.3 272.1 271.7 268.7 261.3 260.3 253.8 253.9 252.5 238.1 248.5 262.2 262.8 264.1 268.2 268.9 265.1 250.1 229.3 217.9 203 188.5 179.5 174.9 175.4 177.5 177 176.4 175.7 174.8 176.6 176.2 173.1 167.7 162.6 172.3 174 175.8 174.2 172.4 173.7 176.5 176.3 175 178 183.7 182 175.8 174.6 172.4 171.3 170.4 169.9 172.8 175.8 181.6 183.2 186.6 187.8 192.8 198.9 205.8 212.9 223.4 231.2 241.5 252.2 259.6 265.9 267.9 263.2 253.2 244.4 237.6 228.3 219.3 214 211.1 204.9 201 197.3 194.1 194.2 194 196.2 199.9 199.6 202.3 203.5 204 204.4 206.1 206.4 209.5 209.1 209.6 212.4 215.2 217 217.9 221 223.9 228.2 233.6 238 242.4 251.3 261.2 266 265.4 264.1 264.1 269.5 274.1
179.4 173.4 157.8 178.9 203.9 203.8 204 208.1 214.6 219.1 219.9 221.1 222.9 226.3 228.1 229.4 232.5 234 234.5 235.7 237 241 242.3 244.2 245.8 249.2 250.1 246.5 253.8 256.1 259.2 264 265.2 264.9 262.6 262.5 261.3 257.4 251 245.2 243 238.4 233.3 226.4 221.3 218.4 215.1 212.4 211.1 209.7 208.3 206.8 205.3 208.4 213.8 216.3 209.9 218.7 218.2 219.8 222.4 219 216.4 216.3 218.8 224.5 225.3 230.9 237.4 236.3 232.7 223 229.3 230.7 230.2 235.3 245.3 251.7 260.6 267.4 274.3 276.4 280.3 282.9 284 286.1 286.6 282.3 280.5 279.3 277.7 273.6 267.8 260 259.2 253.2 251.1 267.8 271.6 276.3 279.8 279.7 272.3 257 259.8 245.2 224.5 209.9 195.7 190.1 189.5 190.9 190 189.1 186.9 184.8 184.5 182.4 179.3 173.4 166.2 175.1 176.5 174.5 173.2 173.4 174.8 177.4 179.3 178.7 180.3 180.9 180.4 177.1 176 176.2 175 172.9 170.7 175.2 178 186.1 190.3 192.9 196.9 200.2 215.2 223.7 231.4 235.2 239.5 244.4 251.5 255.3 254.7 250.7 243 235.8 227.8 221.9 215.8 210.2 207.4 203.7 198.7 195.5 192.8 194.6 195.5 201.9 204.3 204.3 205.9 207.4 211.2 211.8 212.2 212.6 213.2 214.3 216.1 217.9 220.1 225.4 227 230.3 234.5 239.1 245.7 248.3 254.3 262.7 273 279.8 276.2 272.6 271.8 276.2 283.9 279.5
184.2 180.5 161.8 186.5 197.1 200.5 208.1 214.9 219.7 223.1 225.9 228.2 231.8 233.7 235.2 236.9 238.3 240.2 242.5 245.2 246.4 248.1 249.8 248.9 250.8 253.3 251.8 249.2 255.4 260.4 263.4 265.2 264.6 261.6 258.1 255.9 254.3 251.8 246 239 235.5 229.1 224.5 220.5 216.8 214.6 213.4 211.8 211.9 210 207.1 208.3 212.6 217.5 220.6 223.5 225 225.2 225.3 226.8 227.3 226.2 226.2 227.9 229.1 231.3 232.7 236.1 238.2 233.9 228.6 229.9 235.4 237.9 240 247.1 256.6 261.8 268.4 275.5 282.7 285.6 290.8 296.1 297.8 292.7 292.9 291.9 291.9 291.5 289.2 286.9 284.4 275.9 275.2 267.3 274.4 275.6 276.7 281.2 280.8 276.8 280 281.5 280.9 271.9 251.3 226.6 212.4 204.5 201.7 200.6 199 196.1 191.7 193.5 190.8 187.8 184.7 179.3 169.2 177.9 175.7 175.1 174.4 174.5 176.6 178.2 180.3 180.7 179 180.1 179 178.9 179.7 178 176 173.3 175 180 185.2 190.2 195.4 199.2 207.1 220.3 229.2 235.3 237.9 238.9 238.4 237.4 236.2 235.5 235.4 230.6 226 220.1 215.6 210.5 204.4 200.9 200.9 197.5 194.1 192.2 194.5 197.3 200.1 205.7 208.2 208.8 211.5 214.4 216.9 217.5 217.4 217.7 219 224.4 224.4 227.7 232 234.4 239 243.3 251.2 254.3 261.3 265.8 270 276.6 281.4 283.2 282.8 282.4 289.4 290.4 283.2 274.9
190.9 186.7 163.9 174.6 187.8 200.2 210.7 216.1 224.3 229.1 233.3 236 238.8 241 243.3 244.2 245.4 248.1 250.1 252.4 252.1 252.8 254 256.5 258 255.7 251.7 252.4 258.9 263.2 263.8 262.7 261.1 258.1 254.9 249.7 244.8 242.9 239.2 230.3 224.3 225.3 222.4 220.4 218.6 214.5 212.2 211.5 211.6 212.7 217.2 220.1 222.6 225 227.4 229.8 231.1 232.4 233.4 230.7 234.7 233.8 234.4 236.6 237.1 237.3 238.4 240.5 240.1 236.3 233 236.1 239.9 244.5 248.8 251.3 263.4 268.1 273.1 280.9 290.8 301 305 301.5 299.9 301 302.3 301.3 299.6 297.2 293.8 289.6 286.1 283.5 271.8 273.2 278.7 278.7 282.9 283.3 282.3 284.3 287.9 287.4 284.1 272.3 256.5 237.8 224.9 211.6 214.9 211 206.4 200.9 196.8 198.8 199.2 193.4 187.4 180.9 178.4 179.5 178.3 177.3 176.3 176.4 176.9 183.3 183.9 181.6 178.8 180.1 178.7 179.2 179.1 177.8 174.9 172.9 178.8 187.3 193.7 198.4 203.2 208 217.1 225.3 232.2 242.7 240.8 238.4 235.8 232 229.4 226 223.1 217.9 213.3 209.2 205.9 200.2 194.2 194.2 194.9 193.5 191.6 194.7 197.7 200.8 204.8 209.4 212.2 215.9 219.9 221.6 221.5 222.9 223.5 225.3 227 231 235.9 240.6 245 249.1 254.1 261.5 269.3 276.7 278.8 280.2 282.9 287.8 291.1 296.9 303.2 305.3 297.6 288.3 277.5 267.3
179.7 168.8 168.7 170.2 185.8 201.9 214 224 229.3 234.7 239.2 242.8 246 247.4 248.4 250.3 252.3 253.9 255.8 257.7 259.9 259.5 260.8 260.8 258.8 254.9 259.5 257.4 260.4 262.9 261.7 260.3 258 254.8 251.8 246.8 241.4 231 233.9 235 232.8 232.6 226.5 221.1 218 215.2 213.3 213.5 214.5 218.7 223.2 226.4 230.1 232 236.6 239.2 238.5 241.3 241.6 239.4 240.7 241.4 241.8 243.9 243.7 242.6 244.1 245.1 242.3 238.8 239.4 241.2 246.1 250.3 258.7 263.1 268.2 271.5 276.2 286.8 305.5 306.3 306.2 307.6 310.3 310 309.2 306.8 303.6 300.3 297.7 295 290.5 287.1 276.2 285.4 284.5 283.4 285.5 286.4 286.6 287.8 287.7 286.6 282.7 277.7 264 247.6 231.2 222.5 222.8 216.1 210.4 203.5 198.9 194.7 192 193.3 189.9 174.7 183.9 182 180.7 178.9 177.4 176.9 184.4 185.1 183.3 183.3 183 181.9 180.7 181.3 179.9 178 172.9 177.5 183.9 190.7 198.9 202.3 208.3 214.9 221.8 228.2 236.4 244.6 243.2 238.7 234.9 229.1 223.6 218.5 213.3 207.9 204.1 200.7 198.1 190.8 189.4 192.8 194.2 191.4 194.5 198.2 201.2 205.8 211.7 218 221.1 225.8 227.9 229.7 230.4 232.3 234.1 235.1 240.5 245.7 251.4 256.7 259.5 265.3 273.4 281.8 289.7 291.2 291.2 291 295.8 300.9 306.7 315.2 315.6 302.7 291.6 281.7 270.6 261.1
184.5 181.9 173.7 174.6 193.4 207.6 218.4 226.9 232.8 237.8 241.7 247.5 252 255.3 255.7 256.9 260.6 262.9 264.5 264.6 265 265.6 265.1 262.8 260.1 257.7 258.8 259 262.7 261.3 259.2 257.6 253.9 250.5 246.8 241.1 241.8 242.7 242.8 241.9 241.8 239.4 233.1 225.7 222.6 218.3 215.8 215 220.3 225.1 228.7 232.1 237.8 241.9 246.6 249.8 250.1 250.5 249.1 246.1 243.9 247.7 249.5 249.8 249 249.3 248.2 248.2 247.5 248.2 252 253.7 256.4 258 266 268.9 272.9 277.1 284 293 306.1 309.3 317.2 319.1 319.1 317.1 314.8 311.5 309.2 307.7 304 298.3 293.8 288.7 283 287.7 289.6 288.1 289.7 291.5 291.9 289.5 283.1 279.8 272.8 262.8 248.3 238.4 232 228.7 224.1 219.4 213.8 200.9 201 198.8 194.6 189.2 186.2 188.1 187.5 186.3 185.5 182.6 179.9 178 179.5 180.7 181 181.6 182.4 182 182.1 183.3 179.1 173.9 178 181 190.1 196.2 203.5 207.2 211.6 218.3 225.1 231.9 242.4 244.5 241.7 239.6 234.2 228.3 219.7 210.6 202.3 198.5 196.3 195 192.5 188 193.3 194.3 191.9 192 197.6 201.8 207.9 214.7 222.2 229.5 230 234.7 237.6 240 241.3 243.3 246.7 251.2 255 261.4 267.6 271.2 277.7 285.3 294.3 302.2 304.8 300.5 299.2 299.5 306.9 319.6 325.7 317.3 304.7 295.4 283.1 272 260.2 248.5
192.8 184.6 178.6 180.1 198.1 212.4 221.1 230.6 236.6 241.7 247.5 255 258 259.8 263.9 265.3 267 269.8 271.3 270 270.3 270.4 269.4 268.6 265.3 262.1 262.4 263.2 262.9 260.4 256.7 254 251.3 247.5 245.3 247.1 249 248.8 249.9 252.8 249.8 247.1 240.4 230.2 223.9 221.1 217.7 218.2 224 228.1 232.6 239.2 245.9 254.3 259.3 262.1 262.6 261.9 260.6 253.3 252.4 252.9 253 254.9 255.2 255.5 254 255.5 254.2 259.3 268.6 272.2 273.3 274.4 277.7 277.5 281.4 286.6 291.8 302.1 308.9 316.1 324.7 326.6 326.1 323.2 321.3 318.6 314.4 310.6 306.6 301.8 296.5 289.5 290.4 293.1 293.2 294.2 294.8 295.2 295.5 293.6 289.4 278.5 267.8 260.7 253.8 247 239.8 234.4 227.4 221.6 212.3 215.3 213.1 208.4 203.4 198.4 192.6 189.4 187.7 186.4 184.7 183.5 180.5 179 179.2 180.8 181.2 180.7 181 181.4 179.6 176.5 175.9 175.5 179.5 186.1 192.1 198.4 206.1 210.8 217.7 224.4 232.6 238.1 238 239.5 239.5 236.8 227.6 218.2 209.8 202.9 192.8 190.3 189.9 191 188.8 188 189.2 188.6 190.4 196.2 203.6 212.2 221.4 229.1 233.9 239.7 244.1 245.7 247.4 250.3 252.9 257.6 263.7 267.2 273.5 279.4 283.9 288.3 295 307.5 315.2 314.1 313.9 307.1 309.4 316.9 324.9 329.6 316.5 307.3 296.5 283.2 268.1 257.1 243.3 230.7
200.4 190.6 184.4 184.8 198.3 210.9 221 231.3 240.5 246.3 254.1 261.5 266.6 270.1 271.1 271.8 274.1 276.9 278.1 278.5 276.6 276.4 274 270.9 266.9 264.1 264.4 262.7 260.4 258.5 255.4 251.2 246.8 248.7 252.4 253.6 256.2 257.8 260 260.6 258.5 248.5 235.3 228.2 223.6 221 221.3 223.5 227.4 236 245 254.4 263.2 269.7 274.7 275.7 275.3 271.6 264.7 258.9 259.7 260.8 260.2 262.5 263 263.3 263.4 264.4 268.6 280.1 287.6 287.3 286.1 290 291.4 290.9 293.6 296.2 301.6 309.5 314.6 325.3 330.7 331.7 331.4 329.6 326.1 322.7 317.5 313.5 309.6 303.8 298 297.1 297.4 297.6 297.9 298.2 298.9 300.6 301.5 301.9 294.6 284.3 273.8 266.4 261.1 254.8 249.2 245.6 241.4 233 217.2 225.7 222.1 217.2 212.3 206.9 201 193.9 188.8 186.1 184.9 183 181.5 180.5 180.9 179.4 179 179.8 178.5 177.4 178 178.1 177.3 175.9 178.1 185.4 193.4 200.1 207.3 218.6 226.6 229.2 229.2 229.9 232 235.5 236.5 227.9 211.4 199.5 193.2 188 184.7 184.3 185.2 189.8 187.4 184.1 184.6 185.8 192 204.1 215.3 225.4 232 239.7 244.5 249.3 253.6 255.9 256.7 259.6 266.2 273.5 282.5 286.5 293.5 298.4 304 311.4 321.8 323.1 323.4 321.4 319.8 321.1 324.1 330 329.2 318 306 293.1 278.6 265.3 250.2 236.5 225.4 217.8
204.5 196.4 190.3 188.3 202.7 214.1 224.7 235.8 245.4 251.4 263.7 268.4 272.1 274.2 276.8 277.4 280.9 280.7 280.3 281.8 279.6 275.8 273.3 269.5 266.3 264.8 263.7 261.4 258.5 255.8 251.6 248.6 249 253.3 257.8 262.8 265.3 265.9 270.4 269.9 257.9 242.4 232.6 225.4 223.4 224.8 227.1 229.4 239.6 253 263.2 272.2 279 284 285.1 283 278.4 272.8 270.1 266.7 266.7 268.2 268.1 269.6 272.2 275.2 278.2 276.8 288.3 298.6 301.9 300.6 298.3 300.9 302.7 303.2 303.5 308.2 311.6 316 326.7 337.4 340.4 338.7 336.8 334.5 330.7 325.6 320.9 316.3 310.8 304.5 296.8 300.6 300.4 301.4 302.3 302 304.6 306.8 309.2 302.4 296.5 289.7 279 267.2 261.4 256.5 252.7 247.4 240 230.4 235.3 233.9 230.3 225.4 219.5 212.6 206.3 202 194.7 189.5 185.5 184.4 183.5 181.4 179.9 179 178.2 178.7 178.2 177.8 178 178 177.8 176.5 176.5 183.2 192 198.9 207.8 214.9 216.4 216.9 219.4 223.9 225 224.6 216 204.9 193.5 186.2 183.5 181.2 181.6 182.5 182.6 182.8 183.8 184.1 186.4 196.2 205.9 214.5 227.3 238.4 245.2 251.7 255.9 259.5 263 263.3 266.6 275.1 283.1 292.9 298.9 308.8 316.5 322.1 329.9 332.7 334.3 332.1 332.3 330.2 328.8 331.2 329.8 326.2 315.3 302.1 287.3 271.6 257.7 243.5 231.5 217.8 214.8 208.3
216.7 205.4 199.2 195.8 209.5 221.8 230.3 238.8 245.8 252.3 266.5 271.8 275.1 278.6 281.6 281.2 280.7 280.6 279.8 278 275.8 272.9 271.6 270.1 267.8 266.9 264.9 262.3 261.6 259.7 251.3 248.7 250.4 258.4 263.2 270.8 274.3 275.1 277.8 273.8 258.4 243.6 232.2 228.1 228.9 230.1 233.3 244.3 257.8 268.8 278.8 286.7 291.4 291.1 288.5 285.9 281.4 277.6 276 272.7 275 277 279.9 285.3 290.5 296.3 299.7 302.3 310.7 312.3 313.5 310.5 310.4 310.4 311.6 312.6 314.3 317.3 321.7 327.1 336 342.4 343.9 344.6 340.8 334.9 329.1 324.2 317.5 312.3 306.1 299.6 300.7 303.2 304.4 305.3 306.3 308.3 310.9 314 310.6 302.8 297.8 288.2 277.3 267.5 261.8 258 250.4 244.5 245.8 244.2 240.4 239.5 240.3 237.8 229.5 219 211.8 206.5 201 194.8 189.4 187.5 185 181.9 180.1 179.3 178.7 177.9 177.7 177.4 177.5 177.8 177.6 176.5 177.5 181.8 186.9 191.3 195.6 201.5 204.7 206.2 210 210.9 207.2 201.2 193.6 187.7 183.2 180.5 180.7 184.6 182.3 181.1 181.9 183.3 185.4 187.8 195.1 206.8 216.8 230 243.2 252.1 255.7 261.2 265.1 270.2 273.1 275 280.8 292 302.7 310.8 324.4 332.9 338.3 340.4 341.2 343.5 339.6 342 342.3 338.7 334.6 330.4 321.6 311.8 298 283.5 265.9 249.8 238.8 225.4 214.1 204.6 198.7 196.9
224.5 212 205.8 199.3 214.3 224.1 232.1 242 248.1 256.3 266.1 274.4 278.2 281 284 283.5 282.4 280 276.8 275.8 274.6 272 272 270.3 267.9 266.5 264.9 263 261.2 253.3 255.1 256.8 252.9 262.9 268.5 272.7 276.2 281.4 282.7 274.5 256.1 243.2 235.8 232.7 234.1 238.2 250.4 256.6 273.2 283.7 289.9 291.7 291.3 291.9 293.3 290.8 287.7 286.6 284.9 286.1 288.9 293.2 301 306.7 313.3 318.8 321 319.2 325.8 327.4 326.9 323.4 322 321.1 322.2 323.5 325.6 327.1 331.7 335.5 342.9 344.6 344 339.7 334.8 328.5 322.8 316.7 311 306.7 301.8 299.7 302.2 305.2 307.6 309.7 311.4 314.1 318.1 317.8 311.2 307.1 297.5 286.5 273.4 267.4 261.3 250.2 250.3 253.1 251.3 249.9 247.1 241.2 239.4 239.7 237.2 229.4 219.7 212.8 207 200.7 192.3 188.7 185.1 181.9 180.1 178.9 178.6 178.3 177.7 177.2 177.2 177 177.3 176.4 178.3 181 182.2 184.9 188.2 192.2 192.5 190.3 192.1 186.2 184 182.6 180.9 178.5 178.2 180.7 182.5 182.5 180.4 180.7 181.6 183.8 187.2 191.8 200.5 213.9 221.7 236.6 252.6 260.2 264.3 273 278.8 284.1 290.7 293.8 302.2 315 323.5 332.1 344.9 347.2 349.5 349.5 348.1 347.4 350.6 349.6 344 336.7 328.5 319.6 308.3 293.9 277.7 261.7 247.1 231.7 219.3 208.9 199.7 196 190.1 186.7
233.5 218 212.6 208.7 211.5 224.6 239.8 246.8 251.4 259.7 267.2 273.6 278.3 281.9 283 282.1 279.5 276.2 274.7 274.8 274.2 271.4 268.7 267.2 266.9 265.5 258.7 262 264.5 262.1 261.1 262.7 260.3 260 269 273.8 278.6 286 285.4 275.5 256.5 246.2 240.5 240.2 243.6 254 268.1 279.3 284.2 288.6 290.5 292.4 297.5 301.2 299.9 299.1 300.1 300.5 298.7 298 305.8 313.8 321.5 326.3 329.4 332.6 334.5 334.9 337.2 338.7 337.5 335.1 332.4 331 331.4 335.5 336.2 337.2 339.9 343.1 345.9 345.2 341.9 332.3 327.6 320.6 315.7 309.9 307.2 304.1 303.1 305.7 307.2 310.2 313.5 315.7 316.2 319.3 320.6 314.6 309.3 301.8 296 287.3 277.6 263.7 261.2 262.8 262.1 259.9 260.2 255.8 251.2 241.1 235.8 235.7 232.4 227.3 219.1 209.2 205.7 203.8 198.8 193.2 186.4 182.2 180.6 179.2 178.4 179.2 176.8 176.8 176.7 176.8 176 177.7 179 181.1 180.5 180.4 182.5 182.4 180.6 180.1 178.7 176.7 176.4 176.4 176.5 177.1 177.6 178.7 179.6 179.3 179.2 180.7 183.6 188.8 195 202.5 205.8 209.7 227.1 239.1 251.6 262.7 271.6 286.8 296.2 302.9 307.3 311.8 316.6 324.7 333.3 343.7 349 351.8 351.8 353.8 350.7 349.2 344.9 340.4 335.6 327.1 319.6 306.1 289.3 270.9 255.5 241.7 229.5 216.5 203.8 195.3 190.6 188.2 185.3 181.8
232.4 228.3 226.4 222.3 219.1 222.3 237.7 247.2 254.3 263.3 266.6 267.2 271.5 276.2 278 278.4 279.2 278.4 276 274.4 271.4 268.7 266.6 264.2 262.6 260.7 262.8 266.6 266 264.9 263.8 262.3 263.2 268.7 272.5 276.6 281.6 287.1 286.3 277.3 261.1 250.6 250.3 254.1 263.9 273.1 280.9 286.7 287.5 290.8 299 304.2 308.5 309.3 311.3 317.6 315.7 314.8 305.3 310.7 319.1 325.8 332.3 337.5 340.2 341.8 344.7 344 345.8 346.8 344.7 343 340.5 339.9 341.4 344.8 347.7 349.4 348.9 348.1 346.9 340.1 332.7 326.1 320.4 315.5 311.3 307.9 305.2 305 306.5 312.8 311.6 316.5 321.6 322.4 320 316.5 314.6 311.2 306.7 299.8 292.2 284.4 270.4 265.4 271.8 274.1 271.8 270 268.5 264 257.5 245.7 237.9 231.7 222.1 220.5 223.3 221.5 218 213.9 206.8 200.5 191 183.9 181.1 179.8 179.7 178.1 177.4 177.3 176.6 176.7 177.8 178.2 179.1 178.9 179 178.7 178.2 177.2 176.7 176.3 176.2 176.2 176.2 176.2 176.6 177.2 177.8 178.1 178.1 179.6 182.2 186.2 189.7 195.8 201.4 210 217.6 221.9 225.1 231.4 242.2 256 266.6 278.6 289.4 296.8 302.6 307.8 315.1 323.3 332.9 338.9 345.6 351.5 351.9 348.3 343.5 336.6 333.5 329.4 324.1 316.7 301 282.7 266 252.2 240.5 225.3 215.1 202 193.2 185.9 182.5 181.8 179.1 177.1
244 241.6 240 233.4 230.2 222.4 234.5 243.9 251.6 259.7 261.5 263.2 267.6 272.3 278.2 281.2 284 284.8 284.8 282.5 279.1 274.2 269.1 263.9 262 260.6 262.2 264.8 265.1 264.5 264.4 265.9 267.7 272.5 275.8 280.3 286.4 289.5 285.1 278.5 265.5 260.7 267.6 274.9 281.8 285.6 286.2 290.3 297.6 304.5 308.9 312.1 314.5 320.2 328.1 328.3 326.2 324.9 322.5 323.9 328.2 334.6 338.2 342.6 344.3 348.1 349.7 349.7 350.9 351.3 350.4 349.9 350.3 352.8 356.7 359.4 359.3 355.6 350.2 345.2 339.8 333.5 328.4 322.2 316.2 312 309.2 307.6 307.8 308.4 309.5 312.3 315 319.9 319 316.9 317.1 313.1 308.9 305.6 301.6 296.4 285.6 274.2 269.4 272.9 279 279.1 277.6 276.4 273.9 269.2 265 256.5 247.1 240.1 232 234.8 235.8 233.5 229.9 222.5 213.7 206.5 194.8 187.5 183.4 181.7 180.3 178.3 177.6 177 175.8 176.4 178.4 178.8 178.8 178.6 178.9 178.2 177 176.3 176 175.9 175.9 175.9 175.9 176.1 176.9 177 177.4 178.8 180.6 185.1 189 193.1 199.1 204.7 209.9 217.1 224.8 231.5 238.1 246.1 251.7 258 261.2 269.1 277.5 285.2 292.1 303.2 312.4 317.5 327.1 337.4 343.1 344.9 342.5 338.7 331.4 325 321.9 316.7 309.1 292.3 276.1 261.6 248.1 234.6 222.8 210.8 197.6 187.1 181.7 178.3 175.6 174.9 174 173.1
254 252.7 248.8 243 240.6 229.8 236.8 230.7 246 254.9 258.2 263.1 267.8 274.1 281 286.6 289.3 290.6 293.1 289.4 284.3 279.2 273.7 269.3 265.4 262.3 263.4 264.3 265.2 265.4 266 268.8 272.2 275.6 281.4 286.3 289.5 288.8 285.5 280.2 275.2 274.7 282.3 287.1 288.7 289.7 291.6 296.2 301.2 307.7 311.9 317.6 325.5 332 334.7 335.1 332.6 329.3 329.9 330.5 331.7 335.7 342.1 346.9 349.5 353.1 356.4 357.5 357.7 357.7 358.8 357.5 363.4 365.9 365.8 362.1 357 353.7 349.9 343.7 336.8 329.9 322.7 317.6 315.3 312.7 313.4 314.2 313.7 314.6 315.2 314.7 316.3 314.6 313.3 311.9 311.4 309.1 304 299.2 297.2 291 276 278.7 278.3 280.7 283.3 284.7 284.1 282.4 280.8 277.5 273.1 262.1 252.8 245.2 239.5 236.3 238 240.5 236.5 227.8 220.8 212.2 199.5 190.3 186.2 184.7 182.3 179 177.3 176.4 176.7 176.3 177.7 177 177.4 177.3 177.7 177.1 175.9 175.9 175.7 175.7 175.7 175.7 175.8 176.1 176.6 177.1 178.8 181.4 185.3 190.4 195.7 200.6 207 213.6 219.8 225.7 234.3 243.5 252.8 259.4 263.5 266.5 269.8 274.5 279 287.2 298 304.2 307.6 311.5 322.4 329.9 332.8 337.7 334.9 327.1 318.2 312.2 304.7 298.2 282.1 268.4 256.1 241.4 229.7 218.1 205.5 192.2 182.4 177.9 173.7 171.7 171.5 171 172.6 172.8
263.9 261.2 258.3 252.1 241.5 247.7 246.9 247.9 247.8 248.3 258.9 263.1 269.3 275.9 281.7 290.3 295.1 294.4 292.9 290.2 286.1 281.1 275.4 269.8 264.6 264.7 265.2 266.1 266.1 266.4 267 269.1 273.5 276.6 280.2 282.1 284.8 285.4 285.9 285 282.3 286.9 290.6 291.3 293.6 294.5 293.5 295.2 299.2 303.7 310.7 321.4 329.4 334.6 336.7 336.9 333.6 333.4 335.4 337.7 338 340.2 347.8 352.6 354.9 361.3 363.3 362.3 362.7 361.9 365.4 363.3 365.1 363.7 363.8 359.2 354 348.8 343 337.1 330 326.5 325.1 323.8 322.8 322.6 321.9 322 320.1 318.6 316.8 313.7 310.6 309.7 308.9 308.2 307.1 302.7 296.5 294.3 292.9 284.7 281.9 283.6 286.9 288.7 290.6 290.8 291.4 287.8 288.4 285.6 278.3 267.9 258.5 246.7 242.5 240.1 237 233.8 229.3 224.5 219.3 210.8 198.6 192 187.5 185.1 182 179.3 177.8 177.5 176.6 176.6 176.1 177.9 177.2 176.9 177.3 176.3 175.9 175.8 175.6 175.4 175.5 175.6 175.9 176.3 176.9 179.3 183.8 187.8 193.3 198.5 202.5 207.2 216.2 221.2 230.2 241 251 262 268.9 272.6 277.2 280.1 282.4 286.9 294.3 302.6 305.7 301.4 299.4 304.2 312.1 322.4 329.5 328.5 320.8 312.9 304.6 296.3 285.1 274.4 261.6 247.2 234.5 223.4 212.1 200 188.8 180.4 175.6 172.2 167.8 165.2 169.5 176.2 174.9 164.9
270.5 268.1 263.4 255.3 257.8 258 255.7 253.9 253.7 250.3 257.6 263.4 270 275.2 283 290.2 290.4 290 288.6 285.6 281.4 275 271.4 266.7 267.9 268.4 267.3 267.7 268.4 269.2 269.1 268.5 271.5 273.6 274.7 277.1 279.4 281.9 285.5 286.9 289 289.7 291.8 296.6 294.3 291.5 291.1 292.4 294.5 298.7 309.2 319.4 326.1 332.1 335.3 337.8 340 340.9 341.3 340.7 340.4 343.9 350.2 356.9 358.1 359.6 364.1 365.4 362.1 362.2 364 363.4 364.3 362.7 357.7 353.8 350.7 346.1 340.6 339.8 337.1 335.1 334.8 333.4 332.2 332 330.9 329.2 326.7 323.3 318.3 314 309.7 306.8 305.6 304.6 301.8 298.9 293.8 290.6 289.4 280.9 289 290.9 293.4 294.4 295.9 296.9 298.6 294.5 294.7 290.4 284.2 274.9 267.8 259.2 249.9 243.8 243.7 238.9 232.6 225.5 217.7 205.2 198 193.1 188.8 185.2 182.2 179.9 177.7 176.9 176.3 176.7 177.1 179.4 178.2 177 176.6 176.1 175.3 175.4 176 175.7 175.9 176 176.2 177.2 180.5 185.4 190.5 195.4 199.6 206.5 212.5 218.6 225.8 233.4 243.6 255.8 266.1 276 283 288.8 297.6 301.8 307.1 313.3 313.1 310.9 305.3 296 291.9 302.5 312.2 319.5 318.7 314.5 308.9 301.9 293.8 283.7 267.2 252.9 239 227 215.5 205.5 196.5 186.4 182.4 177 171.1 167.1 161.2 162.7 170.8 170.7 161.7 151.9
276.8 272.8 266.8 260.5 263.4 263.9 262.3 259.9 254.2 251.3 257 266.9 273 279.8 282.8 282.7 282 282.8 280.2 275.9 273.5 272 269.5 271.5 273.1 272.3 270.8 270.1 272.1 273.6 274.4 270.4 268.8 269.8 270 272.3 275.9 279.9 284.7 285.4 283.1 288.3 289 288.2 286.7 285.2 288 285.8 283.9 288 295.5 309.1 324.3 337.9 341.6 341.4 339.2 339.2 339.7 339.5 341.7 346.7 352.1 355.3 355.2 359.5 364.5 364.4 363.3 363.7 359.1 359 364.2 363.7 358.6 354.2 350.8 348.4 347.6 346.3 345.7 345.8 345.1 343.7 342 339.4 337.5 335.5 333.2 329.4 320.6 315.8 312.9 309.3 305.8 301.7 296.2 292.1 289.6 289.7 288.8 290.2 292.8 295.8 299 301 304.1 303.2 304.9 302.4 299.8 297 289 280.4 272.3 265.4 251.8 254.3 254.9 249.9 240.9 233.3 225.5 215.5 205.2 196.5 190.8 186 183 180.6 178.9 177.8 177.4 176.3 178.2 179.8 178.9 175.3 176.9 177.8 177.2 176.5 175.7 176 176.1 176.4 178.7 181.3 188.9 193.4 198.7 203.9 208.5 216.1 223.2 230.5 239.7 252.3 263 275.3 288.6 294.8 300.6 310.6 325.8 332 327.9 325.1 318.6 309.5 300.3 292.3 287 299.2 304.8 307 307.5 304 299.4 292.9 280.6 264.3 246.9 232 220.7 213.7 206.5 198.2 186.9 180.6 177.7 173.6 167.6 161.5 152.4 161.2 161 155.9 146.7 138.7
273 268.4 264.6 262.9 264.5 266.3 267 264.5 259.2 258 259.8 267.8 272 274.6 274.8 275.2 276.2 273.8 275.5 278.1 277.6 275 277.5 279.8 278.3 278.8 277.6 277.6 278.1 277.3 272.4 269.2 268.1 264.8 267 271.6 274.1 274.5 273.4 273.3 271 273.5 278.7 279.1 277.2 279.6 279.9 274.2 272.5 274.9 289.3 314.5 322.2 327.4 334.2 334.4 334.9 337.6 337.9 337.9 341.4 348.3 349.2 346.7 352.1 360.1 364.1 363.1 360.4 357.5 356.8 362.8 363.6 359.6 356.7 356.7 354.8 354.4 354.9 355.5 354.5 353.2 351.7 349 347.7 346 344.3 341.7 337.8 330.4 322 322.3 317.5 310.6 304.6 302.2 299.1 298.2 297.1 296.6 297.4 298.2 299.2 301.9 304.4 307.7 310.5 308.2 308.2 306.8 301.5 293.3 287 280.5 273.7 263 261.5 260.2 255.6 249.2 241.6 238 228.5 220.4 211.6 202.5 194.3 190.1 190.4 185.5 180.2 179 178.2 178.4 178.9 179.5 178.3 178.1 182.1 182.3 182.1 178.8 176.5 176.1 177.1 179.9 183.9 190.3 198 203.4 208.7 216.8 223.4 231.2 239.8 250.6 259.7 268.4 279.3 286.8 296.5 308.9 326.8 335.7 341.5 339.6 334.2 327 315.2 303.2 294.9 286.4 278.2 284.1 290.3 294.1 295.5 294.2 286.3 272.9 256.1 240.3 230.7 222.8 215.5 210.4 206.1 199.5 188 184.9 173.9 167.1 163 154.5 147.2 152.5 147.9 140.2 134.2 130.8
275.4 273.1 267.1 265.1 264.7 264.8 265 263.9 263.3 261.3 264.1 266.4 268.9 269.7 270.7 271.9 276 279.6 281 281.2 277.1 281.6 284.3 285.1 285.2 286.5 283.9 281.6 279.9 276.1 270.7 269.1 268.7 270.3 262.3 265.8 271.5 270.4 266.8 264.6 265.9 268.2 270.8 271.4 269.8 270 266.5 261.3 260.6 269 280.3 305.4 323.2 330.3 336.8 337.8 337.4 336.7 333.3 330.6 330.3 332.4 336 345.5 350.2 353.3 359.3 359.5 357.5 356.9 358 357.2 357.8 355 351.3 354.5 359.2 360.3 359.6 359.3 358.4 357.5 357.6 355.6 353.8 351.9 349.1 346.4 337.9 328.3 326.4 321.5 316.1 314.3 312.6 310.7 309.8 307.8 306.9 307.7 306.5 305.7 306.1 307.1 309.3 312.4 312.5 310.3 310.4 306.1 298.8 288.3 281.5 276.5 269.6 270.3 268.6 263 257.9 253.4 249.2 245.3 231.6 227.4 219.2 208.4 201.5 198.9 196.4 193 189 180.9 180.4 179.4 180.6 180.3 176.3 177.5 181.7 185 184 180.8 177.1 177.1 181.9 187.7 193.8 202.2 209.8 216 225.8 235.7 247.2 251.7 258.4 265.6 274.6 279.5 287.3 297.8 311.5 325.6 335.6 341.5 341.7 334 326.1 317.9 307 297.2 289.3 281.5 271.4 269 274.8 280.3 277.2 270.6 261.5 248.7 239.7 231.6 225.5 220.3 214.1 212.9 210 199.7 187 177.6 168.8 160.4 161.2 152.7 140.9 139 135.2 132.6 131.9 132.9
278.8 275.6 269.4 267.4 267 266.3 267 266.9 269.2 267.9 268.4 269.6 270.7 271.5 274.8 283.5 287.1 287.5 283.9 279.9 278.7 281.9 282.4 283.7 283.2 282.7 280.6 277.7 276.1 273.3 272.8 269.5 273.1 274.2 272.4 266.1 263.1 265.2 262.2 260.6 261.1 261.2 262.1 262.9 262.2 254.3 253.4 251.7 259.1 270.8 297.4 319.7 333.2 340.1 342.9 342 339.8 335.3 331 325.7 322.3 323.6 330.5 337.1 342.2 349 356.8 359.5 357.1 354.7 356.9 352.1 349.4 343.9 345.7 350.3 354.4 358.4 361.1 361.9 361.4 361.4 360.6 361.2 359.7 356.6 351.4 340.7 332.8 327.5 326.6 325.3 325.7 325.8 323.8 322.1 320.9 319 316.9 317.3 316.8 315.8 314.9 314.6 312.2 311.7 310 309.2 306.6 302.5 294 289.6 287 285.2 279.7 277.8 275.3 271.4 268.6 267.2 261 255.3 241.8 233.6 225.7 215.9 209.8 205.1 201.4 197.4 189.5 182.8 178.4 178.4 179.5 177.8 177.7 179.7 182.2 183.4 184.4 182.9 180 181 188.2 195.3 205.1 215 227.6 240.3 249.5 254.6 257.9 262.9 271.1 280.2 289.2 293 298.3 314.6 331.3 338.1 339.7 339.6 334 325.4 317.5 309.8 300.9 293.7 286.4 280.2 274 261.9 254 256.1 254.4 254.5 250.1 243.3 240.2 234.5 232.3 226.6 220.4 211.9 201.8 189.2 178.4 169.4 162.7 156 152.2 145.8 139 135.6 133.1 134.6 137 138.9
279.8 276.4 275.5 273.2 272.4 273.8 276.1 278.5 275.1 275.2 275.3 276.5 278.3 279.7 284.7 287.6 288.9 289.9 281.5 278.4 279.5 278.8 278.6 279.1 282.4 279.4 274.5 271.7 270 269.1 270 271.5 276.9 276.3 270.3 262.6 248.3 253.3 256.2 254.4 256.1 254 251.1 248.8 243.9 242.9 242.1 250.3 259.6 277.1 311.4 334.5 344.6 347.5 346.8 343.4 338.6 331.8 325.3 319.5 318.3 324 330.3 336 340.6 345.5 350.4 354 351.9 352.2 348.2 344.3 339.5 336.6 335.8 339.6 345.7 353.7 359.6 361 360.9 362.4 361.3 357.2 352.1 346.1 341.9 336.6 330.8 331.9 332.9 337.9 338.6 337.2 335.6 333.8 332 329 328.5 328 326.6 325.3 323.1 319.3 315.1 310.9 307.7 305.1 303.6 299.6 298.9 296.5 294 291.3 288.2 285.6 283.9 281.3 278.1 275.1 269.6 261.8 253.9 241.1 231.1 224.3 215.9 208.4 204 198.7 192.8 181.8 178.7 175.8 175.7 180.5 184.5 189.7 191.8 191.6 191.6 192.1 192.2 191.8 200.1 211.7 225.2 238 248.5 253.6 261 268.2 275.4 282.2 290.1 295 297.2 302.3 312.2 322.1 329.2 333.5 333.9 333.6 327.9 322 316.5 308.8 302.8 298.1 294.1 289 280.8 269.8 258.9 249 237.8 243.4 243.7 239.2 229.5 224.4 220.9 216.2 211 200.2 189.1 178.7 171.2 163.7 154.9 147.8 144.1 140.1 136.1 134.3 138 142.2 143.4 145.9
282.7 284.2 283.2 281.6 281.1 282.2 283.9 283.2 285.7 285.6 286 285.8 286.9 286.2 285.6 284 288 288.4 280.3 279.1 281.1 279.4 279.1 279.7 278 277.4 281.8 279.5 275.6 271.4 267.2 267.9 268 268.1 266.9 263.4 254.4 239.5 237.3 246.1 245.3 246.4 242.9 234.4 229.3 233 244.8 252.5 263.4 284.9 312.9 335 344.4 346.6 344.3 339.7 333.8 326.6 319.2 313.4 312.8 320.2 324.7 327.8 329.5 335.2 343.9 350.1 347.2 344.6 343 337.2 332 327.8 330.7 331.6 338.8 348.2 352.2 353.3 353.9 352.1 349.5 344.8 343 340.3 340.5 338.9 339.4 344.2 350.1 349.8 348.3 346.7 346.2 346.5 343.9 339.9 336.6 334.2 333 328.9 323.6 318.1 313.8 311.6 310.7 308.5 306.6 303.8 302.5 300.1 298.6 296.7 294.7 292.3 289.1 284.5 280.3 276.7 274.4 268.3 259.5 247.1 233.4 226.5 219.3 211.6 206.7 201.2 188 182.6 181.6 177 177.2 187.2 196.1 200.4 199.7 200.5 199.6 198.2 200 204.6 212.8 228.1 240.8 250.5 261.9 270.5 278.5 285.3 296.1 300.7 300.6 298.8 300 304.2 311.7 319 324.4 330.3 331.5 333.4 330.4 325.2 320.7 312.1 309.5 309.1 305 295.1 284.8 274.2 262.3 248.8 234.3 226.6 233.1 230.1 224.6 217.5 212.1 207.6 199.7 186.9 179.6 170.3 160.4 152.7 146.5 142.6 141.4 138.5 134.9 139.6 145.9 148.5 153.9 162
288.4 288.3 288.3 288.5 289 289.8 290.8 288.9 292.5 293.2 290.5 290.2 289.3 287.9 285.4 283.2 281.9 281.4 280.2 280.5 283.9 283.6 280.3 283.6 284 287.3 290 291.1 287.2 283.4 273.9 266.1 259.4 261.2 259.3 257.1 248.7 237.5 226.5 229.3 237.2 234.2 233.5 223.6 228.5 239.9 248.4 255.4 269.6 293.9 318 332.8 341.5 341.8 338.9 333.1 325 317.7 312.4 308.1 304.5 309.6 313.8 319.3 327.2 334.8 341.4 341.1 341.7 344.7 344.8 340.2 332.1 324.3 322.5 329.2 335.4 342.2 345 345.8 345.7 343.6 343.1 342.5 345.7 348.8 350.6 347.9 351.9 357.3 359.3 357.1 354.4 359 358.4 354.1 350 345 341.1 337.2 332.1 327 321.5 318.8 317.3 315.8 313.9 311.7 309.8 307.2 305.5 303.5 300.2 296.7 293.4 290.5 286.9 283.6 281.8 282.2 278.2 269.5 261.4 252.8 244.3 235.5 225.2 218.1 211 202.4 194.6 187.3 182.5 178.2 178.4 185.6 194 194.8 195.1 195.8 196.2 197.4 203.1 210 219.7 236.5 251.5 264.7 275 281.7 294.9 305.2 306.4 302.6 298.3 291.2 292.3 297.7 305.4 314.1 320.8 327.2 331.4 334.6 333.1 328.9 323 316.7 319.7 315.1 308 295.6 283.3 273.5 260.6 247.1 232.7 211.1 225 221.8 217.3 211.4 203.5 196.6 188.8 176.5 168.3 159.4 153.2 147.8 143.3 139.5 138.4 136.1 138.7 147.6 153.2 162 173.4 184.3
291.3 290.7 290.5 290.9 292.2 293.1 293.9 294.3 295.1 295.2 294.4 293.4 292 289.6 286.1 286.6 282.8 282.1 285.7 289.5 290.4 286.1 282 286.1 291 296.8 299 300.5 295.2 288.4 281.7 275.4 266.2 253.9 248.7 245.4 235.3 233.4 234.1 229.4 219.9 218.1 225.7 221.1 234 242.2 249.5 259.8 284.8 305.8 318.4 321.7 328.2 330.8 325.9 320.3 312.2 308.4 306 303 299.9 304.7 308 316.7 323.6 327.6 329.9 336.5 344.1 345.1 340 330.8 322 315.7 323.8 337.8 340.3 341.4 344 344.7 341.8 340.9 342 347.7 354.5 358.6 357.9 353.9 357.8 365 364 363.3 364.8 364.2 361.4 355.9 350.2 345.8 341.4 336.3 331.7 327.5 324.1 322.5 320.5 318 316.2 314.2 313.1 311.2 309.6 307.4 300.8 294.6 290.6 285.8 282.6 281.4 280.3 279.2 275.5 269.1 263 253.9 246 240 234 226 216.9 205.6 197.7 189.9 184.2 180.2 175 180.9 185.5 184.6 185.1 186.6 190.3 197.5 204.1 213.7 229.8 248 265.6 278 287.3 300.2 305.5 304.7 300.6 296 289.9 284.9 287.3 296.2 304.9 312.5 319.4 324.4 333.4 336.3 334.3 331.6 324.8 321.4 322.3 313.5 304 289.6 276.7 267.7 254.3 243.9 232.5 204.8 218.2 213 208.4 199.4 191.8 186.9 181.6 170.1 161.8 156.5 151.7 145.1 139.3 138.4 136.7 140.3 147.7 156.4 168.2 181.6 195.5 206.9
288.1 289.7 289.9 291.9 294.1 294.6 295.1 295.2 295.8 296 295.8 294.1 292.6 291.5 289.6 287.8 289.3 291.4 293.6 294.1 289.8 284 288.2 292.4 299.8 306.3 308.5 303.7 295.9 289.3 283.6 278.2 272.1 264.2 254.6 249.1 251 249.1 238.7 234.3 228.7 219 211 222.3 229.6 237.3 248.8 262.1 281 303.1 312.9 318.1 319.5 315.9 312.1 309.4 305.2 303.3 300.5 297.2 296 298.7 303.4 305.5 315.1 319.4 323.2 332.4 337.4 334.5 329.4 322.1 312.7 308.7 320.8 332.3 334.4 337.2 340 338.1 338.6 342.2 344.9 351 358.6 361.6 362.6 360.4 366.2 367.6 370.3 371.5 367.9 361 353.2 346.5 341.8 339.3 334.6 331.8 328.7 326 324.1 322.5 320.2 318.3 317.7 317.6 316.4 313.5 309.6 300.8 293.7 287.5 283.1 280.7 279 276.7 272.6 271.2 268.3 266.3 261.3 254.5 249.4 243.9 235.2 227.9 219.4 206.8 200.1 194.7 189.4 184.7 176 174.9 177.9 178.9 177.7 181.1 188.5 197.6 207.4 221.6 237.4 259.3 276.2 289.4 297.7 300.1 298.4 294.7 290.3 286.9 281.9 278 279.5 284.1 294.3 303.5 314.1 323 333.5 338.1 333.4 328.2 320.2 318.7 313.2 305.3 299.3 283.6 270.6 261.7 250.7 244.9 235.6 220 198.9 197.3 191.7 188.5 184.6 179 176.5 164.1 156.6 150.6 144 141.2 139.9 139.9 143.3 149.7 159.6 172.2 190.1 206.7 212.8 211.9
288.7 291.7 293.4 293.5 294.8 295.2 295.7 296.1 297.1 296.9 297.5 296.7 295.9 295.2 292.8 293.1 294.6 294.8 293.1 291.6 288 285.2 289.8 294.2 301.7 304.8 303.5 298.6 293.2 286.4 280.2 275.6 270.8 267.9 265.2 261.9 259.5 251.1 241.5 232.7 227.6 220.2 211.2 221.9 238.5 251.7 263.1 275.3 288.9 305.1 310.7 312.1 310.9 308.4 306.4 304.4 303.4 304.2 303.4 300.9 295.8 292 297.6 304.2 309.7 316 320.1 328.5 327.9 324.1 318.9 312.1 303.7 304.7 311.7 324 330.6 338.2 338.4 332.9 335.7 338 340.3 342.9 350.6 359.5 365.3 363.7 363.5 365.5 367.6 364.2 355.7 347.1 343.6 339.8 335.6 331.3 327.1 325.6 323.4 321.2 320.5 318.6 318 318.6 317.1 315 310 301.6 294.2 288.4 284.5 281.2 277.6 275.5 271.5 269.3 265.6 263 261.8 260.1 258.8 252.6 247.4 241.3 235.9 227.9 218.4 212.1 202.2 196.3 190.6 185.3 179 172.8 173.1 172.9 173.8 177 185.7 194.4 205.8 222.8 239.9 257.7 274.1 286.5 290.1 289 286.5 283.1 279.5 275.4 270.8 269.5 272.2 277.8 289.5 305.2 319.6 329.6 334 330.8 323.4 315.8 307.5 304 297.5 290.9 283.1 273.4 263 255.8 249.2 241.9 228.3 214.1 202.6 196.5 188.7 170.6 163.9 169.4 168.7 153.6 147.8 144.6 142.2 140.9 141.4 145.3 153.4 164.7 179.4 200.2 210.7 211.6 211.1 211.4
294 295 295.7 295.7 295.9 296.6 297 297.6 298.4 299.1 300 299.7 298.8 296.9 295.6 294.6 293.8 291.6 289.7 287.5 286 287.1 290.5 292.7 297 298.8 297.9 293.7 289.5 283.9 276.6 274.6 271.6 263.7 262.3 255.2 250.1 244.7 234.9 229.3 222.1 215.5 205 227.8 250.1 270.8 281.6 291.3 303.1 311 312.2 310.3 308.3 305.8 304.7 306.4 308.8 308 306.4 304.3 299.3 289.6 301.8 309.2 313.3 316 314.7 321.1 318.6 313.8 308.3 300.8 293.9 300.4 307.9 322.9 330.8 333.2 331.5 328.1 330.4 331.1 332.6 336.4 343.6 351.2 358.3 357 353.7 355.3 353 347.8 340.7 336.7 335 332.1 327.8 324.2 321.2 319.2 317.7 316.9 316.1 314.1 312 309.8 304.1 298.3 291.8 288.1 284.7 281.2 277.9 274.2 272.1 269.6 263.6 262.4 259.4 256.6 254.6 252.9 254.7 247.4 243.1 236.9 230.9 224.5 215.4 207.8 198.9 191.9 191.3 186.3 181.8 179 174.5 171.7 170.9 174.6 183.3 192.3 203.9 219.8 232.6 246.4 258.4 268.2 274.8 274.6 271.4 266.2 264.1 262.8 261.5 263.6 269.5 281.9 297.5 312.4 321.8 323.5 321.9 315.6 305.2 294 288.6 286.5 283.9 277.9 272.8 265.4 260.3 252.7 243.3 234.7 222.3 208.6 198.6 191.7 183.3 173.6 167.9 157 153.1 149.7 146.6 144.5 143.7 147.1 150.8 160.5 173.5 191.1 208 210.5 209.7 210.3 209.9 210.8
293 294.3 295.5 295.8 297.4 297.5 298.8 299.9 300.6 301.1 302.4 302.3 300.4 297.3 294.9 293.1 290.8 288.5 286.7 283.6 283.4 286.3 287.4 290 292.7 292.9 291.2 288.3 283.2 278.2 271.6 269.1 262.2 256 250.6 243.4 241 238 232.3 225.8 216.8 210.9 207.6 235.4 262.7 281.5 293.9 306.2 311.6 312.9 312.5 310.2 308.2 307.2 306.2 302.9 305.3 301 297.8 300 292.7 296.1 306.3 313.8 314.4 311.7 308.5 310.5 309.3 304.5 299.6 296.1 290.8 295.5 305.3 317.1 321.9 325.2 324.3 322.8 322.6 321.9 324.5 329.4 335 341.7 339.2 339.4 340 339.2 337.2 335.1 334.9 334 331.2 327.2 323.5 320.2 316.8 314.4 311.4 309.6 305.8 301.2 296.5 292.9 288.1 286 283.4 280 276.9 273.2 269.3 267.1 264.3 257.5 256.2 254.6 250.1 250.5 249.3 246.6 245.2 240.5 234.5 228.5 220.4 216.1 205.3 196.2 189.8 186.2 184.7 184.3 184.4 182.7 177.6 173.8 172.7 171.7 178.9 187.6 197.1 209 220 229.4 238.4 246.4 251.6 254.7 257.7 258.2 256.5 255.7 257.2 262.6 273.1 284.4 296.8 307.2 309.4 309 306.8 294.9 286 281.1 279.3 278.6 276.7 273.1 267.5 262.8 255 245.1 234.4 222.9 212.5 203 193.3 182.1 165.2 166.2 156.8 152 150.4 148.6 146.8 145.8 151.1 159.1 166.9 181.8 202.3 215.4 210.4 206.6 208.2 209.2 209.1 209.8
294.4 295.2 297.3 298.2 299.2 300.1 300.9 301.5 301.8 301.8 301.8 301 298.5 294.8 292.9 291.3 288.9 284.9 282.5 281.5 283.8 283.4 286.1 287 287.2 285.9 284.7 279.2 272.5 266.1 260.9 250.8 250.3 246.1 240.3 233 231.7 230.3 227.1 220.1 214.2 201.7 214.8 239.1 265.8 287.2 304.3 313.8 317.7 316.5 314.2 311.2 309.2 306.4 301.4 294.6 294.4 292.4 290.6 291.6 290.1 292.5 306.6 307.5 305.6 304.3 304.6 306.1 302.1 296.7 292.6 290.5 284.9 289.4 295.7 307.8 315.1 318.3 317.3 317.3 316.2 314.9 316.2 322.9 325 319.9 322.4 322.8 323.3 324 325.9 329.6 332 330.3 328.2 323.7 319.6 315 310.1 305.5 301.4 297.2 291.9 287.4 284.7 281.9 278.9 276.2 274.2 271.4 268.1 264.5 261.2 255.8 251.9 245.7 245.3 244.7 242.9 240.8 244.7 240.1 236.7 227.2 223.6 218.8 213.6 209.4 202.9 192.1 186.4 188.1 185.3 180.8 179.4 178.4 175.9 173.9 171.7 170.5 173.9 180.9 189 196.8 202.6 208 217.6 228 235.3 243.1 246.3 248.8 249.4 251.2 256.6 261.6 269.1 279.7 286.5 293.3 296.8 294.5 285.7 275.9 274.8 274.1 275.5 275.4 275.5 273.2 265.1 256.4 245.7 236.2 223.7 212.8 200 188.7 177.4 167.3 156.2 150.1 148.5 148.9 148.3 147.2 147.6 150.3 158 167.2 182 199 209.1 209.1 203.1 203.7 205.8 207.2 208.7 207.7
298.2 299.5 299.3 300.4 301.1 301 300.7 300.3 299 297.9 296.8 294.8 292.2 291.4 290.4 288.9 287.7 286 283 280.2 281 281.5 282.5 282.4 282.7 280.3 273.9 264.9 257.6 250.9 245.6 238.6 231.7 229.4 226.5 222.8 220.7 219.2 220.1 214.2 207.3 196.1 218.9 240.5 265.6 292.6 309.3 318.3 320.9 317.2 313.8 310.6 306.5 299.5 293.6 287.7 285.3 282.4 284.3 287 288.5 280.4 301.4 301 300.7 299.4 300.1 298 294.6 291.2 285.4 281.1 281.9 282.2 286.3 295 309.2 314.5 315.8 315.9 313.4 312.4 310.4 309.6 308.7 309.1 308.1 308.5 311.2 311.6 314.6 319.2 321.9 324.5 322.3 317.3 311.8 304.5 301.6 298 292.4 287.4 282.9 279.7 276 271.4 269.4 268 265.6 262.7 259.3 254.5 249.9 244.1 239.5 236.1 237.9 238.4 237.2 236 235.2 234.6 231.7 223.4 213.9 212.2 209.6 203 194.8 196.3 199.6 196.3 193.3 189.1 181.3 176.2 174.7 172.8 171.4 169.6 171.2 177.2 183.1 191.2 196.9 201.3 209 217.5 224.7 228.8 231.1 235.4 245.2 255 255.4 257.9 262.2 270.8 277.1 282 280.3 271.7 265 263.6 264.6 271 277.2 278.9 270.9 263.8 258.2 249.1 238.6 225 211.2 198.8 185.5 177.7 168.1 158.1 151.1 148.7 148.6 148.7 150.2 150.8 154 161.2 159.6 172.5 184 200.7 201.7 199.1 196 200.3 204.1 205.7 207.1 207.3
299.2 300 299.9 299.6 299 298.5 296.5 294.3 292.6 290.8 289.7 289 287.6 287.7 288.2 288.8 288.7 286.9 283.8 280.1 277.7 282.7 281.8 276.1 271.8 267.9 260.7 254.2 247.2 241.9 234.2 229.5 223.9 212.9 203.1 205.6 209.3 206 209.5 202.5 197.7 203.5 221.3 244.4 265.8 293.5 311.8 319.4 321.8 317 312.5 310.5 302.6 291.7 284.5 280 276.8 273.7 274.5 281.5 275.7 274.1 296.4 297.8 298.5 298 297.5 297.3 294.7 291.4 285.9 280 274 271.3 277.1 292.9 308.7 315.8 316.2 315.9 316.7 313.6 306.7 303.4 302.7 302.8 301.2 301.6 300.6 302.7 305.8 309.7 311.6 312.9 310.8 306.8 303.7 300.2 295.1 289.9 284.5 279.4 276.4 271.7 268.4 265.8 262.9 260 256.4 251.9 248 243.4 238.9 235.4 232.9 230.4 229.4 233.1 232.1 231 229.6 228.2 227.4 223.4 213.1 203.9 198.4 203 205.7 207.5 207.3 206.5 202.8 197.8 188.3 179.8 174.4 172.6 170.9 169.8 169.3 173.9 179 186.6 193.4 198.7 205 212.2 216.9 220.9 227.3 241.9 255.8 255.8 252.9 249.5 252.3 258 266.5 267.4 258.7 254 252.1 254 260.8 269.2 272.5 267.5 261 255.5 250 241.8 229.8 216.2 198.7 186.4 179.6 168.7 160 153.1 149.5 150.9 160.1 165.6 161.7 159.5 165.6 172.4 174.7 166.6 182.5 190.8 190.9 190.3 193.2 198.2 202.7 204.6 208.4 210.5
297.4 297.1 296.2 295.7 294.2 292.4 289.8 288.1 285.6 285 283.8 283.1 283.1 284.2 286.8 288 287.2 281.3 279.1 275.8 279.5 279.1 271.7 266.9 262.9 259.3 253.3 248.1 241.2 232.4 228.9 223.4 218.5 217.5 219.8 206.7 201.4 198.5 192.3 193.4 188.6 204.9 218.5 240 267 292.2 311.7 316.2 317.7 313.3 307.7 305.7 299.6 284 272.9 269.6 263.8 264.1 262.7 268 252.2 276.8 292.8 294 296.1 296.2 294.5 291.8 288.1 284.1 276.1 266.8 264.2 258.8 272.6 290.7 308.9 315.8 315.5 318.5 317 311.6 305.9 303.5 301.2 297.5 296.5 295.8 295.5 297.3 301.2 305.1 307.3 307.3 305.6 303.1 299.7 293.5 287.9 281.8 276.6 273 269.2 265.8 260.8 259.9 258.1 252.3 247.6 243.3 240 236.4 233.4 232.1 230.2 232.8 234.5 231.7 230.1 219.9 223.5 223.8 223.1 221.1 206.4 214.3 217.1 216.8 216.5 216 215.9 214.7 211 205.8 196.7 184.7 175.8 172.2 170.8 168.8 170.1 173.2 178.5 184.4 190.2 197.1 202.1 208.6 213.9 219.2 235.1 254 256.1 253.5 250.3 244.9 247.1 254.1 257.5 254.1 248.2 242.2 244.5 249.5 256.6 263 263.1 258.6 255.2 251.9 245.6 238.8 218.8 198.6 185 179.5 169.6 160.8 156.5 152.4 152.9 165.2 183.1 185.7 176.9 175.3 177.2 184.2 185.6 179.6 175.6 183.1 183.7 187.6 193.4 198.3 203.1 209 213.1 214.1
293.6 293.7 291.9 290.4 289.1 285.2 282.1 281.1 280 278.4 277.6 277.7 280.6 282.9 282.2 280.8 279.6 277.1 275.9 273.2 271.2 268.6 265.4 262.2 257.7 252.8 247 240.2 232 225.2 217.9 219.2 225.5 224.3 221.9 215.9 210.6 202.1 191.5 186.8 193.3 202.6 219.1 240.4 265.8 287 302.6 309.9 311.3 307.6 303.4 298.1 292.3 278.9 271.1 265.6 261.7 248.6 249.4 245 251.8 286 287 289 288.1 288 286.2 283.4 277.5 268.1 254.3 255.4 246.5 258.1 270.5 290.5 304.6 311.2 316.1 319 317.9 310.4 303.8 302.2 298.8 294.9 290.6 290.7 291.2 295.2 302.3 305.2 304.8 305.4 303.6 298.1 293.8 288.3 282.1 277.4 273.3 269.6 269.4 268.3 264.6 258.3 251.5 245.2 241.6 239.4 236.3 235.9 237.2 236 236.7 238.3 239.8 239.1 235.1 228.6 221 216.1 211.9 213.1 212.5 220.3 228.9 228 223 221.8 222 222 215 205.2 198.3 189.6 181.5 175.8 170.4 168.1 168.8 172.3 177.9 183.3 189.6 195.5 203.2 207.7 213.2 229.3 252 257 254.7 250.8 247.4 241 242.4 247.4 250 246.1 239.8 235 240.1 247.6 254.8 259.7 257 254.2 251.1 247.7 240.6 223.9 197.2 184.8 178.5 170.9 165.6 160.7 154.4 154.1 170.4 183.8 192.4 196.8 195.3 195.1 193.2 191.6 190.1 187.9 185.4 184.4 187 191.8 197.1 202.8 209.7 214.9 217.4 216.2
287.4 288.8 284.6 279.9 278.6 275.9 274.4 274 273.6 270.7 271.3 276.3 277.8 276.3 275.8 275.7 274.8 273.1 270.8 268.9 261.8 263.5 260.7 257.4 254.1 247.9 241.8 232.9 230 229.8 228 231.3 231.2 229.2 225.7 225 217 210.9 198.3 184.5 184.7 195.1 215.3 235.8 256.6 268.1 282.1 294 300.2 300.4 295.9 296.7 291.4 286 270.4 262 255.7 246.9 232.1 225.8 259.2 278.3 279 280.8 279.1 277.4 276.9 270.7 256.2 244.2 238 243 252.2 259.2 270.2 285.4 299.1 304.7 309.2 313 312.1 306.6 299.7 298.4 294.2 290.1 279 280.9 283.9 289.1 293 294 297.4 295.4 293.2 288.7 286.5 281.8 279.9 279.5 277.1 274.5 271 266.3 259.6 254 247.2 243 243.5 245.3 240.5 241.6 242.5 240.8 240.6 240.8 241.1 239 234.7 228.7 228.9 228.6 225.6 219.7 217.8 225.6 229.8 229.9 227.4 228.5 228.8 224.7 218.2 212.4 196.4 189.4 184.8 179.4 170.9 167.5 167 172.4 177 181 185.5 191.9 200.1 209.1 227 250.4 257.9 256.5 251.5 246.4 243.3 237.2 235.6 239.7 241.5 238.3 233.9 230.8 239.2 247.9 255.7 258.5 257 252.8 249 241 227.3 204.2 187.4 182.4 177 173.1 166.6 158.7 160.5 172.8 186.4 191.7 199.1 205.3 208.3 204.5 198.8 194.3 192.2 191.4 188.5 190.5 192.9 196.4 201.4 209.4 214.1 220 221.4 214.4
278.4 278.9 274.4 266.9 266.5 266.4 265.4 266.3 266.9 265.9 272.3 269.4 270.1 271.2 270.3 268.8 267.1 264.6 262.5 262.1 258.3 261.1 261.4 256.5 255 246.3 236 237.8 239.5 237.7 238.9 240.5 242 241 237.8 229.8 221.4 214.5 211.6 197.7 182.4 181.1 203.7 222.8 237 251.9 263.5 268.9 272.4 276.6 280 280.5 276.7 269.7 262 257 248.3 237.6 226 213 240.8 259.7 267.9 267.4 265.7 264.1 260.7 247.6 234.3 230.5 237.8 245.8 258.8 275.6 289.7 295.8 298.9 309.2 310.8 307.2 306.7 301.7 298.9 294.2 293.3 293.6 285.5 270.9 271.1 280.7 281 282.7 286.7 288.5 289.6 288.6 286.5 285.2 284.8 280.7 278.8 272.2 266.1 260 252.2 251.4 250.6 249 249 250.5 247.5 246.4 246.8 245.9 243.2 242.4 241.1 238.5 235.2 236.9 236.8 232.6 224.7 219.6 224.4 228.2 229.4 229.7 227.6 230 228.8 224 219.2 213.1 199.7 192.2 186.2 179.2 171.2 167.2 165.4 170.5 174.5 178.4 182.7 187.5 200.4 221.4 242.6 250.7 252.8 250.4 247.6 242.9 239.1 233 230.3 232.9 231.9 231.3 227.5 232.5 241.4 250 256.1 256.4 252.4 246.6 238.5 220.3 201.7 191.9 187.9 184.2 181.5 177.2 166.6 158.6 165.2 182.3 188.5 193.8 198.7 203 206 206 200.6 197.1 195.1 193.4 195.5 196.8 199 202.8 212.6 218.1 223.7 224.7 216.8 207.6
264.4 262.9 260.6 257.3 257 256 256.2 257.5 264.5 270 268.2 267 270.1 268.8 263 259.6 259.6 257 255.3 255.3 258.8 260.1 259 253.8 247.7 240.4 242.6 245.3 245.9 252.1 257.4 256.2 255.6 252 247 242.2 231.9 226.2 218.4 201.4 186 179.2 185.5 205.2 221.9 232.7 245.1 254.3 256.4 257.7 266.1 266.2 262.3 260.8 258.5 253.6 246.8 236 223.3 204.4 219.6 235.9 247.8 248.2 246.6 243.7 238 224.5 220.9 229.3 241.4 253.6 274.2 291.5 301.6 307 313.7 315.7 316 316.6 314.4 305.8 301 297 292.4 289.8 283.4 273.6 264.1 266.5 271.7 275.7 280.9 287 290.1 290.1 288.1 286 282.2 279.2 274.3 266.2 259.1 258.4 259.3 261.6 259.6 256.8 255.5 255.9 252.1 250.6 250.1 248.7 245.2 244.4 243.7 241.1 240.3 231.9 229.5 232.4 231.7 232.2 233.5 233.4 231 227.4 224.7 223.8 223.3 220.9 215.6 207.6 201.8 196.8 190.9 181.9 173.3 167.2 165.1 165.6 169.3 172.9 177.1 186.4 207.2 225.8 236.8 244.5 248.4 248 244.2 238.7 234.1 227.8 223.6 221.6 223.8 225.7 227.5 232.9 241.1 248.1 251.4 249.2 244.4 227.9 210.5 199.4 196.6 197.6 187.4 184.5 180.6 169.1 161.2 160.5 169.2 183.8 191.1 192.5 196.1 201.2 206.1 205.1 201.9 199.2 200.6 202.5 203.1 204.4 207.7 216.8 223 227.9 226.8 219.2 208.6 201.8
252.9 256.3 246.3 244.9 247.7 247.7 253.6 261.8 265.3 265.7 262.4 262.2 262.3 259.5 253.2 251.5 252.9 251.2 250.9 256.1 260.7 257.3 253.7 251.4 250.8 251 252.5 256.6 260.8 267.6 270.4 269.6 270.3 266.4 262.3 256.3 246.5 236.3 218 205.1 191.3 182.5 174.1 184.7 204.5 213 219.8 228.2 231.9 233.7 237 239.3 240.1 240.5 241.2 241 239.5 229.7 214.7 211.5 200.4 223.1 233.8 231.3 228.6 229.7 215.8 210 226.3 241.1 258.2 279.7 299.1 308.9 313.3 319.3 324.4 325.3 329.3 324.7 308.5 296.6 288.7 285.3 283.3 281.6 277.5 273.1 265.7 258.5 259.5 269.1 274.9 283.2 285.2 284.9 283.8 281.6 277.3 272.4 268.6 268.6 268.8 267.3 265.3 267.1 265.1 262.5 260.9 260.1 256.3 254 250.9 248.8 246.8 246.1 241.3 236.3 237.7 240.8 241.6 242.9 242.9 238.5 235.2 230.6 225.9 221.5 219.5 219 219 217.1 215.4 211 207.9 203.1 196.3 188.6 177.7 167.4 165 163.7 164.4 166 173.1 186.8 204 218.7 234.1 242.5 243.3 242.5 238.6 231.6 224.7 219.4 214.3 218 226.5 230.1 230.2 233.4 239.7 239.7 240 235.5 219.6 205.4 201.9 207.2 199.6 187.9 184.5 180.1 170.8 161.3 159.3 162.6 171.9 183 187.3 190.7 196.4 205.2 208.6 205.3 209.4 209.1 210.3 209.6 209.6 214.6 220.4 225.9 229 228.9 224.5 211.1 202.9 200.5
239.6 237.1 234.9 236.4 242.4 248.9 256.4 258.6 258.7 257 256.8 255 252.8 248.7 246.8 246.4 246.8 248 248.9 254.6 256.6 251.3 252.9 257.5 261.7 263.9 266 267.5 271.4 277.6 281.8 282.7 283.1 279.4 276 266.4 254.6 242.2 230.1 219.5 203.1 191.5 176 172.8 186.2 196.8 200.6 203.9 207.4 209.2 211.8 215.6 217.8 221.4 224.1 223.3 224.2 220.1 201.1 200.3 188.5 209.7 218.1 216.9 208.1 203.2 205.3 218.1 237.8 258.3 280 297.1 306.8 311.9 314.4 315.2 314.6 310.9 307.2 300.3 293.2 284.8 281.2 279.3 278.6 274.8 273.3 271.7 266.1 259.9 250.2 256.4 265.4 273.5 277 276.4 273.5 270.6 270.2 272.2 274.5 274.1 271.8 269.7 269.1 270.6 269.1 266.3 263.7 261.7 257.6 253.4 249 244.9 241.8 242.7 243.6 245.1 246.2 247.8 250 248.9 244.7 238.2 233.1 226.7 222.5 220.1 217.7 216.5 217.4 217.5 218 215.8 211.9 205.4 200 193.1 179.6 168.5 166.5 164.3 162 162 169.8 183.7 197.1 213 225.2 229.6 232.7 231.6 224.8 219.1 213.6 209.9 196.3 213.4 222.8 229.4 229.9 233.3 235.2 230.7 219 212.5 207 205.5 210.2 205.8 187.1 178.3 174.2 169.3 163.8 158.7 160 165.5 173.1 180.6 187 190.2 199.3 205.6 204.5 209.6 215.5 214.3 213.8 213.7 216.1 223 229.2 230.6 231.3 229.1 216.8 204.7 201.3 200.7
233.2 243.6 245.8 241.7 239.5 244.2 249.2 252.1 250.6 250 249.2 247.1 246 244.2 244.2 244.7 245.3 246.2 247.2 251.9 252.5 250.2 257.5 262.6 265.2 269.7 272.3 276.9 281.1 287.1 290.1 291.4 291.1 289.9 288.9 278.3 266.1 253.4 240.4 224.7 209.1 197.8 184.9 176.1 170.8 178.9 180.6 188.4 192.2 194.5 196 199.4 199.3 202.8 205.7 204.8 206.6 205.6 196.5 187.1 185.8 199.7 207.1 194.9 191.7 203.7 210.5 219.6 237.8 256.7 280.9 297.7 308.4 313.3 317 312.9 307 303.2 299.1 294.2 284.3 280.6 278.7 276.6 274.2 269.9 265.2 266.7 262 257.6 252.4 242.5 253.6 260 257.3 257.7 258.6 268 278.1 279.1 278 275 270.9 268.6 266.2 265.4 263.5 262.7 262.8 259.8 253.9 250.2 248.2 244.1 247.8 248.1 248.4 249.4 254.4 255.4 254.7 251.3 247.2 243.8 240.1 233.5 226.4 221 218.8 217.8 216.2 217.2 217.4 216.7 212.4 207.3 200 190 178.2 170.3 168.2 166.5 168.1 161.8 166.9 181.1 191.3 202.1 210 215.2 218.6 215.8 210.8 208.8 204.6 201.1 198 209.4 215.8 220.2 225.9 224.8 216.9 205.7 204.4 204.2 206.5 207.4 200.3 182.8 173.6 172.2 170.9 165.8 160.1 157.2 161.9 168.4 176.3 184.3 190.5 197 201.5 203.4 205.5 214.1 215.8 217.8 217.8 219.5 226.1 230.4 230.4 231.3 230 222.3 208.1 203.1 201.4 202.7
240.6 245.9 244 241.8 239.6 244.8 246.5 245.7 244.3 243.8 243.3 242.7 242.1 242.5 243.1 243.9 244 244.6 245.3 246.8 247.4 249.8 254.2 261.6 269.8 277.2 281.6 286 290.6 294.6 297.4 298.9 298.4 295.9 294.3 287 275.1 263.4 248.7 237 213.1 200.6 191.3 182.5 172.7 168.6 168.1 178.8 181.9 182.7 183 184.7 184.4 185 189.8 188.7 192.9 190 184.4 177.1 180.6 190.8 192.2 180.9 196.7 208.5 216.7 225.1 244.3 267.6 289.8 301.2 310.3 315.7 316.5 309.6 303.5 300.5 293 287.9 281.3 276.8 271.4 265.6 263 261.3 258.1 258.5 254.4 251.2 249 238.9 233.7 236.7 237 241.5 248.2 264.7 272.8 270.9 273.4 271.8 271.6 271 266.4 259.5 257.2 257 257.8 257.4 254.5 252.2 247.3 248.8 251.6 253 259.4 258.8 260.2 260.1 260.4 258.8 257.5 256.7 247.2 238.4 228.5 223.9 219.7 216.9 214.3 213.2 212.7 213.1 211.7 206.4 200.4 189.9 178.8 173 170.7 168.6 169 163.3 164.2 176.3 183.3 187.6 191.6 197.7 200.6 202.4 202.9 200.7 196.7 190.2 191.4 199.8 205.8 213.6 209.4 200.9 194.3 193.5 194 198.6 197.2 192 181.3 176.4 169.3 165.2 162.7 160.8 156 157.2 164.4 172 181.7 190.1 194.3 199.6 205.8 205.3 211 214.6 215.8 216.6 220.4 226.3 230.5 229.1 228.8 226.7 222.2 210.8 207.2 205.9 205 204.7
236.4 241.6 245.7 245.5 243.9 239.9 241.9 242.7 241.8 240.9 241 241.4 242.8 242.4 243 242.7 244 243.7 244.9 245.5 248.5 253.6 263.2 270.5 278.2 285 290.7 297.7 304.5 305.5 307.8 306.3 305 305.5 301.3 291.7 281.7 268.9 254.7 238.8 221.1 205.7 197.8 189.1 181 172.2 166.6 165.8 169.7 170.3 170.9 170.5 170.9 170.2 170.1 171.5 174.9 173.2 171.8 170.8 175.2 181.5 183.1 180.5 195.2 205.1 216 233.6 255.9 281 294.3 302.5 310.5 315.6 313.4 307.3 302.4 295.8 290 280.4 273.5 265.2 261.9 255.8 254.3 248.7 248.7 252 246.2 248.6 253.1 249.1 242.3 234.5 226.3 221.7 232.6 247.7 259.4 260.7 261.3 267.2 267.7 262.9 256.5 251.5 259.2 261.5 261.4 256.1 252 252.2 255.9 257 259.8 265.4 266.3 266.6 266.6 269.4 271.5 268.4 267.8 262.2 253.9 244.7 234.8 228.9 222.5 216.4 213.6 210.4 206.7 207.1 206.3 203.1 198.3 188.5 178.5 175.3 173.7 171.5 168.8 164.9 158.5 168 171.2 170.3 170.8 175.4 186.1 188.4 190.8 193.4 188.7 181.3 183.4 190.2 197 197.1 187.6 186.6 185.7 184.9 184 183.3 181.1 181.2 177.5 172.3 163.7 157.8 155.3 153.4 153.5 159.2 168.5 177.4 187.7 194.5 197.5 202.7 205.8 210.7 212.5 214.5 216.6 220.4 226.1 225.5 225.3 224.9 223.3 219.9 215.2 214.8 214.4 216.1 218.4 220.5
238.9 246.2 248.9 249.1 246.4 242.4 240.5 240.9 240.6 240.5 240.4 240.8 243 243.2 244 245.1 245.2 245.1 246.7 249 254.6 264.1 272.1 279.4 284.9 292.7 302.9 312.3 313.9 313.2 312.3 313.3 312.9 308.7 301.9 292.7 285.1 274.8 260 247.3 228.5 209 205.1 197.7 184.7 176.6 172 167.9 160.9 161.5 160.8 160.3 160.4 160.2 159 160.5 161.1 162.9 164.9 165.1 168 173.3 174.4 178.2 190.7 202.1 216.8 239.7 263.7 285.1 293.6 300.9 307.8 310.4 309.3 304.2 298.4 289.2 280.1 272.2 261.4 251.8 246.7 243.1 239.7 238.8 239.9 241.1 240.9 243 247.8 257.4 251.8 242.9 233.4 221.1 217.1 232.6 243 245.7 248.9 256.6 252.7 247.4 242.9 251.6 257.9 258.4 255.7 253.3 255.8 258.9 260.2 269.6 272.7 269.4 270 271.4 277.3 281.2 278.9 272.5 267.8 263.8 256.3 248.6 240 231.3 222.9 216.9 212.6 210.6 206.9 203.7 201.8 198.8 195.7 192.9 189.3 185 180.8 176.3 172.1 167.7 161.4 157.8 157.9 157.4 156.4 154.4 162.8 177.3 181.1 184.3 182.6 177.3 172.6 178.8 180 180.5 181.2 180.7 179.4 178.1 177.9 176.7 174.8 172.9 168.7 162.5 157.1 152.7 152 152.3 156 165.8 176.8 184.3 192.4 197.7 203.6 205.8 208 213.6 215.9 219.7 222.6 224.7 225.8 225.7 225.9 227.8 227.7 224.6 222.4 225.4 229.4 230.1 225.7 220.1
241.3 250 251 248.8 245.9 243.2 241.7 241 240.1 240.6 240.3 241 242.4 243.7 244.7 246.8 246.9 248.4 251.9 255.7 260.2 266.1 274.9 282.1 291.2 298.1 305.6 312 312.9 312 311.8 309.8 305.9 301.6 296.1 290 280.8 269.1 254.3 239.9 223.2 214.5 211.9 199.6 190.8 184.2 179.8 173.7 169.2 165.5 162.1 158.7 155.8 155 155 155.1 157.3 159.1 162.2 160.9 159.5 164.7 166.8 175.5 189.1 200.7 220.2 246.1 267.8 284.9 292.8 299.1 304.4 304.5 300.8 294.4 285.3 276.8 262.5 251.7 245.4 231.9 232.7 236.3 235.2 234.6 233.8 233.8 236.1 237.4 242 244.7 246.6 241.7 231.8 222.9 208.2 219.5 231.3 230.4 233 236.3 237.4 237.8 239.6 247.1 252.6 252.3 253.4 256.3 261 263.1 273.9 274.8 274 276.7 280.9 284.9 284.8 284.5 279.8 273.5 268.5 264.7 258.2 249.9 243.7 239.8 229.8 222.6 217.4 214.4 212.4 208.3 202.5 198.6 199.6 196.9 194.4 189.2 188 183.3 178.1 173.1 167.7 163.1 164 164.5 163.8 155.7 154.1 166.6 174.6 177.8 177.2 176.8 163.5 172.3 176.4 176.9 177.7 178.6 177.2 173.1 170.5 169.1 166.8 163.4 158.8 153.3 150.3 150.4 152.4 154.8 161.4 173.9 181.7 187.3 195.6 202.3 208 206.2 211.4 217.5 221.2 224.1 226.7 227.1 228.3 228.5 233 236.6 236.9 232.3 230.9 231.8 230.4 225.6 218.7 209.8
238.5 249.6 251.7 245.5 243.3 242.4 242 242 240.8 241.1 241.1 242.2 245.8 247.4 248.4 249 250.8 257.1 258.8 262.5 262.9 267 275.5 283.8 288.4 291.4 295.8 298.3 299.1 299.5 299.3 297.4 294.3 289.8 283.4 272.8 261.3 251.2 240.2 228.1 216.5 210.3 207.1 206.9 198.6 197.4 190.9 184.3 174.8 172.2 167.2 164.6 161.9 156.3 152.4 151.8 154.6 156.5 158 157.3 156.6 160.4 159.7 174.3 185.3 199.6 219.2 243 267.1 282.9 290.6 294.6 296.1 292.3 283.4 273.1 260.3 248.9 238.6 220.9 222.8 212.6 219.4 230.7 232.1 234.4 231.2 228.2 229.9 230.8 234.6 236 235 234 230.9 222.9 213.9 208.2 218.9 217.8 223.3 233.3 234.1 224.8 235.4 238.2 245.8 256.6 265.5 265.7 265.1 270.5 274 277.1 278.2 278.2 280.8 280.5 281.9 279.7 277.8 273.9 269.8 266.4 260.7 255.2 251.2 245.8 239.4 233.5 227.2 223.1 220.8 215.9 210.8 209.1 208.9 206.5 200.9 196.5 193.9 188.2 180.9 176.3 172.5 169.3 170 169.7 168.2 159.2 154.4 151.7 163.1 167.4 168.3 165.1 156.5 169 175.9 177.8 180.3 177.7 171.7 164 159.8 160.2 160.5 157.5 152.6 149.6 148.8 150.4 154.2 158.2 170.9 177.2 182.8 188.7 197.8 204.3 202.4 203.4 211.2 218.7 222.4 227.1 229 230.6 229.5 234.4 236.9 236.3 234.5 233.6 232.5 230.6 224.4 218.6 210.5 197.9
234.3 244.6 250.7 243.5 241 240.5 240.5 240.4 240.4 241.9 245.2 251.1 257.6 258.8 260.4 257.9 254.5 261.6 261 261.2 263.9 268.3 274.2 278.7 282.5 285.1 286.5 287 287.3 286.8 285.3 283.3 279.1 272.4 262.3 251.6 239.2 231.9 227.9 222.5 219.7 217.5 216.2 212.4 210.5 205.5 200.7 190.5 187.1 185.6 178.3 171.8 169 163.3 159.9 154.6 149.3 148.7 154.1 153.9 153.5 155.9 157.1 172.6 180 199 218.6 237.1 251.9 262.2 273.5 278.7 274.4 264.1 254.8 243.9 233.4 224.7 216.8 207.4 204.6 202.3 215 225.6 220.7 225.2 227.3 231.8 234.2 230.1 226.4 227.7 227.1 226.2 222.1 216 212.7 203.8 206.8 209.5 215.1 223 228 217.3 232.2 244.3 251.4 256.5 260 264.1 268.4 273.6 277.2 278.4 274.8 274.9 275 276.5 275.6 276.9 274.4 272.9 270.3 269.3 266.7 261.9 259.6 255.7 252.1 244.6 237.9 232.4 226.6 221.6 217.9 213.9 212 209.1 207.9 205 202.7 197.7 185.9 179.3 173.8 171.1 169.5 167.8 164.9 160.9 158.1 153.7 150.7 151 148.9 150.2 151.7 161.3 169.4 171.8 169.7 166.6 160.7 155.8 152.8 155.6 159 157.6 151.4 148.1 148.6 153.8 160 166.3 171.3 175.3 180.6 186.9 193.3 195.7 197.3 203.1 210.9 216.9 224.4 228.8 230 233.1 234.3 233.5 231.8 231.2 231.8 233.4 231.6 224.9 217.3 212.3 204.4 195.1
240.9 246.7 249.3 242.4 241.3 240.7 241.3 242.4 243.2 249.1 256.4 262.7 267.2 268.5 266.7 263.5 258.5 260.5 259.7 260.1 264.3 268.3 271.9 274 276.5 278.1 278.5 277.6 276.6 275.4 272.8 268.9 262.5 252.9 246.1 237 228.2 222.9 221.2 219.1 218.8 218.5 218.6 218.6 217.6 211.6 205.6 201.4 198.9 192 184.7 184.3 181.9 173 169.5 164.5 156.3 149.6 148.3 150.1 151.1 152.4 153.4 165.1 176.3 189.2 202.6 211.5 220.9 230.4 238.9 240.7 236.5 230.9 224.7 215.2 204.7 198.7 191.8 188.6 188.9 196.5 211.5 220.6 227.7 232.8 230.7 232.2 233.4 228.8 220.1 221.1 220.7 219.4 212.7 209.4 203.6 200.3 197.1 197.2 204.8 212 209.5 217 228 234.9 240.5 245.5 253.8 264.7 270.8 274.2 274.9 273.4 273.3 274.3 271.3 272.2 272.1 272.2 272.9 273.6 273.4 272.1 270.8 268.5 265.7 263.6 258.2 251.7 247.1 241.4 235.7 228.6 223.4 219.1 216.3 212.8 213.3 214.4 212.7 203.3 193.6 184 177.9 174.1 172.3 170.2 168.5 164.3 164.6 163.6 162.1 161.8 160.7 155 147 147.9 156.1 158.7 155.1 151.4 149.8 148.5 146.8 148.6 155.1 153.7 147.6 150.3 155.6 159.5 166 170.4 177.8 181.2 183.3 184.9 189.9 194.2 199.8 205.9 211.9 219.5 226.1 230.8 231.5 229.4 226.3 225.5 224.5 225.6 230 230.7 225.1 218.7 214.7 210 197 193.7
251.7 247.9 244.1 243.2 242.2 243.3 245.5 249.7 254 261.6 265.3 267.8 270.8 269.2 266.3 262.7 262 261.3 259.6 260.3 263.7 265.9 268.1 270.4 271.3 271.4 270.7 270 267.3 264.5 260.3 256.3 251.1 244.7 238 231 218.6 215.4 212.4 218.1 218.1 218.4 220.2 221.5 222 221 218.6 212.6 206.3 203.3 201.6 197.8 190.4 180.8 175.6 168 161.8 153.4 149.2 145.2 146.7 148.4 151.9 154.5 159.5 167.2 177.9 185.6 193.3 197.9 202.8 205.3 203.5 202.6 196.7 190.5 184.9 180.6 174.9 180.7 194.5 207.1 219.9 229.3 235.5 233.1 230.6 232.8 234.6 228 220.8 216.7 215.5 216 215.5 216.1 213.1 207.7 200.8 197.4 190.4 200.5 197.1 211.4 220.6 227.3 236.4 248.1 259.8 271.2 270.2 267.8 267.8 268.1 271.5 271.1 270.3 269.5 269.7 268.8 269.2 269.5 271 271.4 269.3 269.3 270.1 266.7 262.7 259.8 256.1 252.8 246 240.8 232.9 223.1 218.2 215.9 211.9 210.7 210.3 204.1 197.2 191.6 185.8 179.5 178.2 175.7 175.2 171.6 170.4 170 167.6 165.6 162.8 157.9 149.8 145.8 144.4 149.2 146.2 144.1 143.8 143.2 143.4 143.2 146.1 150.9 154 156.9 160.1 165.6 170 175.7 184.5 186.8 186.9 188.3 193.1 198.2 203.1 209.5 215.3 222.1 227.4 227.4 225.3 221.2 217.5 216.3 218.2 222.5 226.7 226 222.2 215.6 211.1 199.9 191.9 189.7
253.7 248 245.7 245.1 246 250.4 255.8 262 260.7 263.7 269.1 271.3 271.6 270 268.9 268.6 267.1 266.3 266.4 265.9 264.7 265.1 266.1 266 265.6 265.5 264.9 263.5 259.9 256.6 252.4 249.6 245.8 240.2 234.6 228.9 221.5 210.7 203.3 215.2 216.3 216.1 218.9 222.9 225.2 226.2 224.7 221.1 218 214.5 211.3 204.6 197.7 189.9 184 173.6 166.6 162.3 158.5 154.6 147.7 142.1 144.2 144.8 148.6 151.8 155.2 159.9 165.9 171.5 174.1 176.5 179.9 182.6 178.7 174.3 171.6 164.4 171.9 183 197.8 214.7 226.9 232.2 233.8 229 228.2 229 228.7 223.6 219.4 218.5 219.4 221.1 222.9 224.1 222.4 216.8 210.2 203.5 190.7 190.1 195.2 206.1 217.5 232 246.8 263.1 270 270.2 267.3 266 266.2 267 275.5 276.7 277.9 271.4 269.5 266.6 265.6 265.5 264.9 265.4 267.1 270.1 270.9 270.6 269.1 269.2 266.9 262.5 255.7 247.2 236.7 227.7 220.4 217.4 212.3 204.9 201.7 197.8 194.1 189.8 185.7 184.9 188.1 186.3 179.2 177.5 179.5 176.4 171.9 167.1 163.2 157.9 151.4 148.6 146.9 144.5 142.5 141.7 140.5 141.1 140.9 144.9 152 155.3 158.5 163.8 168.6 171.9 178.3 184.2 191 193 194.1 196.3 200.3 203.8 207.8 213.6 218.7 222.1 223.1 220.6 217.2 211.9 207.6 208.3 215.6 222.6 224.9 219.7 214.3 210.8 196.8 189.1 185.9 182.9
250.5 248.5 248.1 249.4 253.4 261.2 266.3 267.7 269 269.3 272.1 274.4 275.1 275.8 275.9 276.8 276.1 274.1 273.6 271.2 268.4 266.9 265.3 264.5 262.1 262.8 260.8 258.8 248.2 245.2 243 246.8 243.1 235 228.5 220.9 215.2 209.7 200.1 210 208.2 212.7 217.5 219.3 220.4 221.1 223.4 226.1 227.5 225.1 216.8 209 203.8 199.3 192.5 183.4 178.2 176.4 173.7 167 158.3 151.1 140.8 138.1 138.2 140.1 143.5 146 150 152.5 156.1 160.8 163.2 164.3 165 164.1 158.7 163.8 174.1 188.5 205.7 218.3 226.2 228.9 229.5 225.7 226.2 228.5 227.5 225.9 228.2 227.6 228 230.9 227.4 219.3 217 207.5 202.2 193.3 188.5 186 198.5 209.3 228.3 246.8 261.1 266.8 265.9 267 269.5 273.5 277.7 284.8 283.9 281.1 277.4 272.2 269.1 268 268 265 262.7 261.4 263.2 265.2 266.2 268.9 274.7 276.2 271.2 264.2 255.8 247.9 240.5 230.5 222.1 217.2 213.2 205.6 198.7 193.9 191.2 188.7 189.8 190.4 192.8 193.2 191.1 186.8 184.3 181.1 174.2 168.6 164.9 157.9 152.5 158.2 155.3 152.3 152.2 145.5 141.5 139.2 141.6 147.4 155.1 159.6 166.5 172.8 175.9 182.2 187.7 191.4 196.5 198.7 200.9 202.2 205.7 209 214.4 218.3 220.4 219.2 216.2 211.6 204.9 199.3 197.6 203 210.7 215.5 215.2 212.5 206.2 191.1 184.3 180.6 177.2 176.3
250.8 251.3 253.1 259.5 263.1 267.3 271.3 272.1 274.4 275 277 279.6 281.1 281.9 282.6 283 282.9 281 278.7 275 271.2 269 267.4 265.9 263.2 259.5 256.2 249.2 239.7 231 229.2 232.3 232.2 225.9 219.4 207.8 201.2 197 192.8 198 195.1 206.5 211.6 210.3 207.5 211.3 215.4 219.5 223.4 222.2 215.7 211.6 209.3 204.7 199.8 197 196.2 192.5 188.1 178 164.3 156.2 152.2 148.3 144.8 140.3 139.3 134.2 136.7 141.1 146.5 151.7 153 151.5 155 153.5 155.4 161.5 173.1 188.9 201.1 213.8 219.5 223.1 224 227.1 231.8 233.1 232.5 232.1 233.8 235.5 232.7 227.2 220.8 211.7 207.3 200.8 193 183 164.5 187.7 203.5 223.2 243.6 260.9 263.6 263.1 264.9 271.4 279.8 289.3 293.1 291.1 287.4 285.2 287.7 284.9 278.4 272.3 268.7 263.8 260.1 258.4 258.7 259.5 265.4 273.3 277.7 272.9 268.2 263.1 256.5 249.9 237.1 227.2 222.2 216.9 211 206.1 199.9 196.6 195.7 197.3 195.8 194.8 192.9 191 186.9 182.7 178.1 174.6 170.4 166.9 161.6 154.8 159.6 162.9 159.6 152.5 148.6 144.1 139.5 140 148.5 155.5 163.5 167.2 173.5 178 186.6 192.3 196.8 200.1 202 204.5 206 207.4 210.5 213.7 217.2 218.1 215.1 213 208.6 200.2 193.2 190 189.7 195.4 201.9 211.7 213.4 203 183.8 179.7 176.3 172.7 170.6 169.2
254.7 256 260.2 266.3 270.8 273.2 275.4 276.4 277.5 278.2 281.8 284.6 285.5 286.3 286.3 286.7 285.8 284.4 282.3 278.2 274.3 272 267.5 263.6 259.3 250.8 242.3 232.1 225.7 219.1 217.1 217.4 220.7 212.1 208.2 204.6 189.2 185.3 182.5 182.8 184.7 192.1 192.4 194.1 191.7 195.7 203.6 201 201 202.2 206 206 208.6 206.9 208.2 204.4 198.6 194.6 188.9 180.1 170 165.1 161.2 156.2 151.9 146 144.2 140.7 135.1 132.7 138 142.6 145.5 150 152.9 146.4 153.2 161.5 170.8 184.1 200.9 219.4 225.1 227.2 228.8 231.5 233.8 236 236.4 236.3 234.5 232.1 227.5 219.9 213.5 204.5 195 191 182.4 153.3 171.2 194.1 216.2 236.7 251.6 257.8 263.3 263.5 272.5 285.9 293 295 295.2 293.3 290.9 289.5 289.9 285.1 280.6 275.7 267.8 262.2 258.4 255.1 254.4 256 265.4 267.9 263.6 266.8 264.4 259.8 251.4 241.6 229.8 220.9 217.2 213 208.8 206.9 204.7 201.3 198.5 200 198.6 194.4 190.3 186.5 181.7 175.8 171.9 168.8 165.7 164.8 166.2 166.7 167 164.8 161.5 152.3 145.9 140 136.8 145.8 154.1 160.2 167.1 180.1 183.9 192.5 197.2 200.6 204.2 205.6 207.7 208.5 209.5 210.2 213.5 216.1 215.2 212.9 209.9 205.8 197.8 190.8 187.6 186.2 186.1 197.9 204.7 204.3 197 180.2 173.5 172.7 170.9 167.1 164.1 162.3
258.7 261.6 265.3 270.3 273.7 276.2 278.4 279.6 281.6 283.3 285.9 287.1 287.8 288.6 287.6 285.5 284.9 283.8 281.4 278.9 275.6 271 265.2 260.4 254.9 247.1 236.3 224.6 214.1 206.1 205.4 208.6 208.8 204.3 195.9 191.7 182.9 177.4 168.9 169.5 175.1 179.5 178.3 174.2 173.6 175.7 178.9 177.2 176.7 183 187.4 183.7 187.3 192.3 193.2 188.9 186.9 183 178.7 173.8 171.1 166.5 160.2 154.3 150.7 147.4 144.9 140.3 136.4 131.7 131.6 137.6 142.8 145.6 146.5 140.4 157 168.3 184.8 200.6 212.1 221.6 229 231.3 231.7 234.8 237.1 236.9 234.9 231.1 228.3 223.4 216.4 208.4 198.8 192.9 183.6 169.8 167.1 145.9 156 175.5 203 223.2 235.1 245.7 256.4 255.8 271.8 285.5 287.8 290.1 292.8 291.2 289.5 287.6 285.3 285.3 281.8 274 265.4 260.8 257.6 252.9 246.2 245.9 248.3 251.6 257.9 258.1 254.4 249.4 245.2 238.6 226.5 221.2 214.3 212.2 210 206.8 202.6 199.1 195.2 194.7 193.5 189.4 186.2 182.4 176.9 172.3 170.6 174.3 178.1 180 178.5 176.3 172.8 168.3 163.4 153.9 144.4 138 138.2 149.3 158.5 167 176.5 183.8 193.3 199 203 206.2 208.1 208.2 207.8 207.8 207.8 211.6 214.7 212.1 208.6 204.7 200.7 193.7 191.2 190.4 188 184.7 181.9 190.3 191.8 186.7 172.5 167.1 166.5 167.6 167.4 162.5 158.6 156.5
260.8 266.1 269.8 273.1 275.5 278.1 281.4 283 284.5 285.4 286.9 288 289.1 287.8 284.9 282.5 282.1 280.3 277.2 273.8 270 265.9 260.7 256.7 250.2 242.4 233.5 221.9 206.6 196.5 191 197.7 195.1 192.6 186.2 179.6 174.7 166 171.4 158.2 164 166.1 166.1 159.4 157.7 158.9 161.2 161.7 168.1 173.8 174.2 168.4 173.1 176.2 174.2 171.9 168.5 165.5 163.1 161.6 158.4 154.3 151.7 148.3 146.3 143.7 139.8 138.8 136.7 133.1 127.4 135.5 138.5 139.9 138.6 146.2 156.9 175.4 191.5 205.4 216.5 223.1 225.9 226.9 232.3 236.2 234.4 228.6 226.8 220.3 211.3 205.2 199.2 190.9 184.3 174.1 165.6 160.8 142.8 138.8 151.7 160.8 179.3 197.2 208.1 217.3 224.7 234.9 250.7 262.5 268.3 270.2 277.5 286.1 291.2 288.9 291.8 289.1 281.8 274 268.8 264.4 257.5 250 244.4 240.3 240.2 242.9 244.5 247 248.2 244.9 234.5 224.2 219.3 214.8 209.6 206.5 205.5 203.8 202.2 202.6 200.5 198.1 194.4 189.6 184.9 180.9 177.9 176 175.2 180.1 188 191.8 186.8 177.5 168.4 161.2 156.9 151.8 142.5 137 138.3 156.2 164 173.2 182.9 190.5 195.5 200.3 204 205.9 205.8 204.1 203.8 203.3 205.9 209.2 208.5 205.2 199.8 194.3 189 184.2 184.1 183.9 182.2 180.9 175.7 178.6 174.8 169.7 163.5 161.5 163 161.7 158.7 155.6 153.7 153
262.8 267.8 271.6 275.2 277.1 279.8 282 283.9 284.7 286.2 286.9 286.1 285.5 282 279.8 279.1 275.5 272.8 269.5 266.8 262.9 258.3 252.8 245.8 236.8 226.6 216.7 211.6 202.5 184.2 180 182.8 180.3 176.6 172.1 169.3 162.8 157.6 160 148.1 151.7 153.1 151 147 147.6 148.4 152.9 154 158 158.4 157.6 159 161.1 160.4 158.1 154.5 150.8 149.1 147.9 146.2 144 141.9 140.9 139.2 137.8 136.7 136.8 138.2 136.6 133.5 128.2 130.3 134 136.6 136.8 142.8 151.6 166.3 185.2 199.8 209.6 215.6 218.9 225.3 229.6 225.5 218.1 210.8 206.1 201.8 197 185.2 175.6 164.9 159.5 154.4 152.6 148.2 137.8 135.9 140.6 142.3 153.4 163.3 174 183.3 192.2 209.1 222 233.2 239.3 244.8 259 279.2 289 291.9 291.6 289.7 285.3 279.3 274 268.7 259.9 253 246.7 239.3 232.8 231.7 234 239.5 231.2 224.3 220.4 217 212.2 212.1 212.9 211.8 210 209.4 207.6 206.4 204 200.4 196.8 195 193 188.8 182.4 177.7 175.1 176.5 180.6 181.6 177.5 168.1 160.6 158.3 156.4 154.9 149.9 135.3 141.5 158.6 168.4 176.2 183.3 189.5 194 198.3 201.3 202.3 201.8 201.1 200 200.5 201.4 204.2 201.8 196 188.6 181.8 179 176.3 173.9 172.6 172.9 173.5 169.4 169.1 164.8 160.2 157.9 159.9 160.5 158.1 154.9 152.2 151.6 152.6
266.4 270.2 274.1 276.8 278.2 280.1 281.2 283 282.5 283.4 283.7 282.4 278.5 275.3 273.2 272 268.6 264.6 262.2 256.1 254 247.9 240.2 228.1 216.8 206 198.3 193.4 188 175.6 169.9 168.8 164.3 159.5 156.2 155.3 151.8 148.3 144.3 142.4 142.2 140.8 137.6 135.9 135.9 136.4 142.8 146.1 147.1 147.5 148.2 148.4 148.8 147.6 145.5 141.4 138.9 137.2 135.8 133.6 131.9 132.1 131.3 131.2 128.8 128.3 131.1 135.4 134.2 127.4 124.4 128.7 132.1 133 135.2 137.7 144.5 161.1 174.9 189.2 197 203.8 211.9 213.8 213.1 205.9 196.4 189.8 182.8 177.7 168.9 159.4 152.5 147.2 142.5 139.3 141 138.4 132.7 124.1 125.9 130.4 135.3 142.9 148.7 158.3 169.7 179.7 194.7 207.3 215.9 225.5 240.9 264.7 284.7 289.6 292.3 292.2 290 284.8 278.8 269.7 262.2 256.8 249.1 242.3 236.2 231.1 222.4 220.9 220.5 217.8 216.6 216.6 217.6 218.3 219.7 217.8 216 214.3 211.8 208.8 205 203.2 201 199.3 197 193 188.5 181.8 175.7 172.2 172.8 170.2 168.3 162.5 165.4 166.6 168.4 166 149.2 134.9 145.5 164.6 170.8 175.7 181.3 187 190.8 195 197 198.1 198.1 197.6 196.1 197.2 198.7 198.1 191.1 178.1 174.5 172.6 170.6 168.2 165.3 163.8 164.2 164.3 160.9 160 157.4 156.2 159.1 158.2 156.9 154.8 152.3 151.6 151.9 154.9
268.6 272.8 276.7 279.1 279.5 278 277.8 278.2 274.9 273.7 273.7 272.1 269.6 268.9 266.4 264.8 261.3 254.9 248.5 242.8 236.3 225.5 216.3 205.2 197.3 191.1 184.4 178.5 174.6 168.8 161 157.5 154.5 150.2 147.2 145.3 143.1 140.5 138.6 137.1 136.5 136 131.4 130.1 129.7 129.3 130.4 131.7 131 131.3 132.9 132.8 132.6 132.7 132.9 129.8 127 125.5 125.9 126 124.9 123.9 123.8 123.4 123.3 123.7 123.1 122.2 122.5 123.3 124.2 126.9 129.7 130.4 130.6 132.1 137 145.5 156.7 170.7 184 186.6 195.6 193.7 188.4 176.5 173.2 167.4 159.6 154.6 147 142.1 138.4 137.1 132.7 129.8 127.8 128.7 121.2 121.3 121.2 124.7 127.9 129.9 133.8 140.6 147.5 161.2 174.3 187.5 200 215.1 230.9 261.6 285.5 292 294.9 293.9 290.9 287.4 281.5 273.1 267.5 263.2 256.1 248.2 236.9 224.7 220.2 218.2 217.3 216.3 219.9 222.9 226.5 228.3 226.8 225 220.8 216.7 214.1 211.9 209.4 207.4 206.4 204.9 201.7 196.3 190.7 186.2 179.3 174.1 170.6 169.3 169.3 164.8 172.3 175.3 172.7 167.7 149.2 132.2 145.3 162.4 169.5 174.8 180.1 184.8 187.7 190.5 192.5 193.7 194.4 193.1 192.5 194 193.1 181.6 173.6 172 171.1 168.1 164.1 161 159.3 157.2 156.4 155.7 152.3 153.3 155.8 159 159.1 156.3 154.4 153.3 152.5 152.5 155 160.3
267.5 272 275.5 277.3 275.9 270.3 268.1 266.5 264.1 261.3 261.4 262.4 260.5 261 256.5 252.2 245.7 238.4 231.4 221.6 216.4 206.2 197.7 191.4 185.1 180.3 175.9 173.7 169.9 162.5 154.3 150.8 148.8 145.4 142.1 137.7 133.8 133.8 133 133.4 132.4 131.5 129.8 129.3 129.1 128.7 128.6 128.8 127.9 127.9 127.2 127.1 127 126 126.1 125.9 125.5 125.1 125.1 125 124.3 123.5 123 122.6 122.6 122.4 121.8 122 121.7 122.7 123.1 122.2 123.3 124.7 124.8 124.6 127.5 134.9 143.9 158.2 164.8 176.2 176.1 172.3 163.6 156.4 150.7 144.3 142.6 137.6 134.6 131 128.7 127.9 124.5 119.1 116.8 114.5 116.2 117 116.3 114.7 112.5 114.3 117.7 123.2 131.8 143.1 157.3 172.6 190.5 210.6 240.5 272.1 288.7 294 296.2 295.5 292 289.5 284.3 276.2 271.3 263.6 253.8 241.2 226.8 219.4 217.8 217.2 217.2 218.7 222.9 228.8 234.3 234.2 232 228.7 225.6 222.2 219.6 216.9 214.4 212.7 211.5 208.4 202.2 195.9 190.3 184.5 181.4 179.1 176.1 173.9 169 170 173 171.1 166.8 161.6 145 132.8 144.4 160.2 166.8 172.5 176.9 180 183.1 186.6 189.7 190.2 189.1 188.3 190 189.2 175.4 170.9 169.9 169.2 167.6 164.9 158.5 155.8 155 153.4 149.7 149.1 141.6 151.6 160 160.9 158.7 157.7 155.9 153.1 152.2 154.9 160 163.3
265.9 268.5 269.7 268.2 265.7 261.6 259.4 258.2 254.5 250.4 250.4 249.5 247.8 245.5 240.7 238.1 235 229.2 223.3 210.7 201.4 193.5 185.1 177.6 173.5 169.6 165.3 167.1 164.3 156.1 149.3 145.6 143.7 139.8 135.9 132.4 132.1 131.2 131.3 131.2 130.9 130.3 130.2 129.3 128.5 127.7 128.5 128.2 128.3 127.6 127.5 127.2 126.5 125.4 125.1 125 125 124.7 125.1 125 124.2 123.4 123.2 122.7 122.2 121.8 121.6 122 121.9 121.6 121.9 121.2 120.5 120.7 121.2 120.8 122.2 122.1 129.1 141.1 155.6 157.5 151.8 147.4 142 138.3 134.4 128.8 128.4 127.2 124.1 122.3 118.9 116.1 115.3 113.7 114 113.5 113.1 113.2 112.8 112.5 112.9 112.8 114 113.9 115.9 136.1 144.7 160.2 182.6 205 237.4 269.9 290.1 296.6 299.3 299.7 296.3 287.9 279.9 275.8 268.4 259.7 247.5 236.7 222.5 218.5 217 217.1 218.1 220.8 225.1 230.6 234.8 235.2 234.5 231.6 228.5 226.3 225 223.2 219.9 216.8 212.5 206.5 198.5 191.9 186.2 181.4 179.4 177.3 172.8 171.8 173.8 172.9 168.2 164.6 159.8 155.2 143.6 129.3 137.6 152.8 163.6 168.8 172.3 175.1 180.8 187.3 187.8 186.3 186.5 187.4 179.5 177 171.7 168.4 168.1 166 164.5 161.9 157.6 150.8 152 150.6 150 133.4 148.3 156.2 161.9 160.5 157.1 154.8 152.6 150.9 152.6 157.7 162.9 156.6
262.3 261.3 260.7 258.5 256.1 255 248.6 246 243.8 242.8 241.2 238.8 235.7 236.3 231.1 225 220.4 214.6 209.1 200.6 189 185.1 187.3 184 179.3 168.9 162.5 152.1 151 147.6 144.4 141.8 138.2 134.6 132.6 131.8 131.5 131 130.2 128.6 128.5 127.4 127.9 126.9 126.1 126.2 127.4 125 126.4 126.8 126.8 126.6 126 125.5 124.9 125.6 124.8 124.6 125 124.4 123.8 123.3 123.2 122.5 122 121.9 122.1 122.2 121.9 121 121.6 120.7 120.3 120 119.7 119.6 120.1 120.3 119.9 127.8 135.8 134.1 127.6 120.2 120.7 119.6 120.4 115.5 116.8 117.2 116.6 115.8 113.5 114.1 114.4 115.6 116.4 119.9 122.6 116.6 115.8 123 121.2 117.6 113.8 112.5 112.9 131.6 139.2 149.2 171.9 199.1 229.1 264.3 291.3 299.2 299.2 291.1 285 281.1 277.7 272.2 267.3 252.9 241 230.8 222.5 219.2 218.9 219.2 221.1 225 227.9 232.2 235.2 234.6 233.7 232.3 230.6 229.9 227.9 225 220.5 213.8 206.5 199.7 193.2 187.8 182.5 178 176.1 174.6 175.3 175 173.4 169.3 164.7 158.9 151.1 142 136.9 132.1 129 149.2 160.6 165.8 167.4 170.9 178.4 182.3 183.2 185.9 187.1 185.2 177 172.2 170.3 167.5 166.1 162 159.3 156.6 151.6 146.1 144.9 144.5 145 130.5 143.2 154.4 155.6 152.4 149.2 148.8 148.3 149.8 155.1 159.9 158.4 139.6
