ncols 200
nrows 84
xllcorner 310000
yllcorner 314750
cellsize 50
296.1 295.4 298.4 301.8 306.6 307.5 303.4 298.8 295.4 289.9 285.6 278 258.9 262.5 260.3 249.3 237.9 228.1 221.2 219.2 213.8 204 187 170 159.6 157.5 158.3 163.8 168.5 175.7 187.2 197.6 209.2 225.7 248.3 265.7 276.6 286.6 293.6 293.4 291.7 290.7 288 281.2 273.5 266.3 255.8 248.6 240.1 239.4 238.3 238.7 238.5 234.6 230.4 221.4 210.2 202.7 195.4 189.7 186.2 179.6 179.1 182.2 179.6 177.5 174.6 170.5 167.5 161.6 156.8 152.6 148.3 146.2 150.7 152.4 153.7 155.8 160.1 163.5 170.8 173.9 175.5 176.2 176.2 173.3 167.2 159.4 148.2 142.5 140.1 132.4 125.4 121.2 118.9 116.4 114.7 114.1 114.7 115.1 115.6 113.7 116.3 118.5 121.2 125.2 125.3 127.4 127.6 130.7 141.3 153.9 165.4 172.3 180.3 199.4 210 214.4 208.7 202.5 195.3 176.7 158.9 141.6 131.3 118.4 113.5 110.7 109.9 109.6 106.6 106.1 105.7 106.1 105.3 105.1 104.4 103.8 104.6 104.8 103.5 103.7 103.6 102.8 102.4 101.5 101.3 101 100.8 101.1 100.4 100.2 100.4 100.7 101.9 103 105.4 108.2 110.8 109.5 104.9 101.4 100 99 98.5 98.3 98.1 97.8 96.7 97.1 98 97.4 96.6 96.2 96 94.9 94.6 94.3 94.4 95.2 95.1 95.5 96.7 100 102.6 104.6 107.4 114.9 117 116.1 118 122.6 121.7 133.9 142.8 151.1 156.1 162.1 166.9 169.2
282 282.1 285 291.3 293.3 294 293.1 293.1 291.3 288.3 286.8 274.5 255.8 246.1 252.7 249.6 242.9 232.5 222.5 215 204.9 187 171.4 160.1 157.9 159.2 164.5 171.7 174.3 183.5 194.7 206.7 225.2 245.6 270.4 289.8 299.5 301.2 296.7 295.4 290.5 287.5 282.5 278.5 274.8 265.1 254.1 247 246.5 247.6 246.2 246.4 249.7 247.3 243.8 236.3 222.1 209.2 198.8 191.3 185.9 182.4 176 178 177.7 173.7 168.6 164.8 160.5 156.8 151.4 153.4 154.8 155.5 156.8 157.5 159.6 164.7 168.7 174.3 177.6 182.2 184.8 184.7 184.4 182.3 176.9 165.4 153.5 147.7 143.2 137.5 128.1 121.7 117.9 116.1 114.9 114.4 114.5 115 115.1 114.3 113.1 113.4 116.3 116.3 116.8 116.2 117.4 120.1 121.9 132.2 142.4 144.5 137.9 171.1 186.5 192.2 192.9 182.5 168.8 152.5 139.9 128.6 119.1 113.8 111.8 110 108.5 106.4 106.4 106.4 107.8 107.3 105.8 104.8 104.7 104.4 104 103 103.4 103.3 102.4 102.5 101.4 101.3 101 101.9 101.4 101.9 101 100.9 100.9 102.3 105.1 108.1 109.7 110.4 108.2 103.6 101.2 100.2 99.7 99 98.3 97.6 97.2 97 97.7 98.7 99.1 97.8 97 96 96 95.5 95.1 95.5 96.3 97.2 99.1 103.1 108 111.4 114.9 119.1 118.7 120.7 119.5 119.2 122.4 124.7 118.2 124.3 125.2 130.6 138 148.4 150.5 156.1
271.2 272.6 281.4 287.4 288.2 285.3 290.1 286.8 285.1 276 265.5 256.4 244.6 232.4 238.1 236.1 228 218.9 209.9 199.5 185.1 170.9 158.8 158.4 159.6 164.8 169.6 173.9 181.2 192.5 207.1 226 247.5 265.6 285.9 299.8 307.3 306.5 301.8 294 283.4 280.9 279.4 276.2 271.3 264.1 257.9 251.6 251 254.6 256.2 256.5 254.3 248.3 241.7 231.4 216.6 201.6 193 186.7 183.5 179.8 176.9 173.2 173.9 167.4 163.8 163.1 159.4 156.1 157.7 160.7 160.9 162.9 164.4 166 170.8 177.7 181.8 184.9 187.7 190.8 191.8 193.2 192.4 187.3 180.7 169.4 159.6 151.2 145.9 138.5 130 125.1 119.6 116.3 115.8 115.3 115.4 115.6 114.8 114.8 114.1 114.8 113.5 114.6 112 111 112.9 114.9 116.6 117.4 120 125 133.5 144.4 162 173.7 171.8 160.8 149.4 141.1 132.3 123.1 114.8 111.7 109.3 107 106.3 105.9 106.7 109.7 110.2 110 108.4 106.7 105.1 104.2 103.6 103.3 103.1 102.9 102.1 100.6 100.9 101.5 101.6 102.2 102.1 101.6 101.6 101.6 102.8 106.2 108.5 109.5 108.3 105.6 102.8 100.9 100.4 99.7 99.3 98.7 98.1 97.8 97.3 98.1 98.6 100.3 99.6 97.9 97.3 96.1 96.2 96.3 97.1 99 100.9 105.7 111.6 118.8 124.6 128.4 132.3 134.8 132 128.1 122.5 120.8 117.8 112.9 106.6 106.2 107.3 111.3 116 125.5 133.4 140.2
263 261.7 277.6 290.6 289.8 287.2 274.3 264 261.2 258.3 247.4 248.4 234.4 222.8 217.5 211.7 202.8 193.3 189 177.5 169.7 160.3 160.1 159.3 162.5 167.3 172.8 178.3 189.9 210.3 229.8 242.2 264.5 275.4 290.1 292.6 290.9 289.8 284.6 283.5 284.6 282 279.3 276 274 269.6 263.8 258.6 256.5 260.8 262.7 259 252.1 243.9 234.6 222.1 206.5 194.7 187.1 182.5 179.6 175.6 173.9 170.4 169.5 169.6 167.8 158.3 160.8 162.1 163.9 166 170.2 173.2 174.6 181.2 188.9 195.4 196.5 194.4 197.4 196.4 198.6 200.2 194.9 184.2 176.6 168.2 160.7 155.8 148 141 135.8 128.6 121.6 119.4 119.8 119.3 116.9 116.8 116 116 114.8 114.8 114.1 113.8 113 111.8 112.5 111.3 113.1 114.3 115.6 117.8 121 127.6 133.3 139.5 145.1 145.2 137.2 129.4 122.7 113.8 109.9 108.1 107.4 106.6 106.7 106.6 107.7 109.6 110 109.8 108.3 106.8 105.2 104.4 103.6 103.3 103 102.9 101.7 102.5 102.7 101.5 101.8 102 102.4 104.4 104.1 105.6 105.9 106.7 106.2 105 103.2 100.6 99.6 99.4 99.3 99.3 98.8 98.3 97.9 97.3 97.9 97.7 97.8 99.1 97.8 97.1 96.3 96.7 97.5 99.1 102.1 106.1 114.1 124.2 132.8 139.7 147.1 150.5 153.1 142.5 138.2 129.5 121.7 114 105.6 103.7 102.1 101.3 101.3 102.9 105.6 108.4 112.4 113.2
251.3 252.1 257.6 275.8 277.5 276.5 271 260.1 251 248.8 239.1 228.8 219.5 215 200.5 197.9 190.7 183.6 175.7 167.9 162.3 159.7 160.2 160.2 166.1 170.8 177.3 183.2 194.5 217.6 238 250.7 262.9 271.6 276 277.2 277.6 281.3 282.8 283.2 282 281.2 281.5 279.2 279.3 278.6 271.5 264.5 261.4 262.4 261.3 255.8 247.7 238.1 227.3 213.1 194.4 188.3 182.1 178.5 175.5 173.4 171.8 170.2 168.3 164.3 159 167.1 170.5 172.2 170.9 174.1 180 183.4 188.3 196.4 205 206.3 206.4 205.6 202.7 201.6 203.8 205 199.2 189 183.5 175.3 166.9 160 154.9 149.8 143.4 132.7 127.1 124.4 119.4 117.6 118.4 116.5 115.6 114.9 114.5 114.4 114 113.5 113.4 112.7 112.8 112 111.2 111 110.5 111.1 111.8 114 116.2 116.8 118.2 118.6 116.9 114.7 112.5 109.9 108.5 107.8 107.6 106.9 106.8 107.3 106.5 109.3 109.5 109.4 106.9 105 103.8 103.9 103.8 103.4 103.6 105.5 105.1 105.9 104.8 102.3 102.2 104.3 105.6 106.4 104.8 104.5 104.9 104.2 103.3 101.8 100 99.3 98.3 98.3 97.8 97.8 97.8 97.5 97.7 98.1 98 97.8 97.7 97.8 98 97.4 97.6 97.7 101.2 105.3 113.2 120.7 133.3 142.1 153.7 161.5 164.4 160.5 157.7 147.6 130 120.7 114 108.5 104.8 102.9 102.2 100.5 98.7 99.2 100.6 101.9 103.2 105.9
236.1 240.5 243.6 265.4 273.5 273.4 268.1 257.6 244.6 233.6 225.2 218.3 211.7 204.4 198.2 182.1 178 173 167.1 161.1 160.4 161 161.2 162.7 168.8 175.3 182.4 195.1 200.3 204.8 225.2 241.1 253.1 259.3 264.9 265.9 270.9 273.7 275.8 276.5 277 276.3 276 275.1 277.4 279.4 268.5 260.7 258 257.4 254.4 248.3 239 228.1 215.7 205.3 191.7 183.5 179.1 175.3 172.6 170.6 167.1 163.6 163.6 166.1 171.1 176.2 179.8 181.7 181.3 190.1 198.3 206.4 213.3 213.6 215.3 215.1 213.8 209.6 208 207.8 209.2 209.5 203 196.2 188 180.3 170.3 164.1 157.3 149.6 140.6 132 127.7 122.5 119 118 118.3 116.7 116.5 115.1 114.7 114.2 113.7 113.5 113.3 112.3 112 111.6 111.6 111.1 112 111.5 111.2 110.7 109.6 109.4 109.1 108.5 108.4 109.1 109.4 109.1 108.3 108 107.9 107.5 107.2 107.1 107.7 110 109.5 108 105 104.2 104.1 104.4 105.5 104.5 107 107.1 106.9 106.6 106.8 104.3 104.2 103.7 105.4 104.6 104.2 104.1 103.5 102.5 101.4 100.2 99.7 99.2 98.3 98.5 97.8 97.7 98.6 97.3 97.2 97.9 98.6 98.6 98.8 99.9 99.3 99.3 99.4 102.6 108.4 117.5 127.1 137.7 151.9 159.7 169.4 169.3 163.3 157.3 148.9 138.5 130.7 123.4 115.8 108.6 105.3 102.9 101.2 99.9 98.9 97.8 97.3 98.3 99.4 101.8
222.3 225.3 232.1 248 252.6 252.4 249.6 241.7 234 225.2 217.6 212.6 203.3 194.5 185.2 176 172.1 169.1 164 161.6 162.1 163.3 164.1 168.4 173 181 191.4 205.2 213.7 218 228.6 238.8 245 254.3 259.4 263.5 268.4 270.7 271.5 271.8 271.4 271.2 268.8 267.4 267.3 259.8 252.1 246.9 245.4 242.1 235.4 228.3 223.1 213.7 206.9 196.4 187.5 180 176.9 174.4 172 168.9 166.8 166.7 173.9 175 178.3 182.3 187.4 193.6 198.1 205 214.4 222.6 226.7 224.6 223.3 221.8 218.7 216.7 213.4 212.2 210.8 209.8 202.5 195.1 188.3 178.4 162.2 151.7 142.6 136.2 130.3 126.1 121.4 122.4 119.8 119 117.7 118 117.7 116.4 116.4 115.4 116.3 115 115.6 115.9 117.5 117.6 117.4 116.4 115.4 113 111.3 110.7 110.9 110.4 109.7 109.5 109.6 109.1 108.4 107.6 107.6 107.4 107.3 107.5 110.2 110.7 110.3 110.5 109.4 107 104.6 104.7 104.5 106.3 107.1 107.3 107.4 108.2 108 107.4 106.6 106.3 105.3 103.3 103.1 103.9 102.1 101.9 101.3 100.5 99.6 98.9 99 99 98.4 99.1 98.4 98.5 98.8 99 97.9 98.2 99 99.5 100.5 101.5 102 101.9 104.7 111.9 122.8 132.1 141.8 155.4 168.1 175.6 182.3 179.1 166.6 153.9 141.1 133.8 127.5 122.1 115.7 110.6 106.8 105 102.8 103 99.1 98 97.5 97.4 96.9 98.1
208.1 206.4 217.9 229.9 236.3 237.4 234.7 228.9 222.7 215.7 207.7 199.3 193.7 185 176.8 169 166.9 165.1 162.3 162 164.6 167.8 171.2 175.2 185.4 196.6 205.2 216.9 227.1 237.1 243 251.1 256.6 263.5 267.1 269.2 269.4 269.3 269.4 268.3 267.5 264.8 258.9 251.7 245.1 239.8 234.8 230.8 227.3 223.2 217.7 212.8 205.6 201.6 196.5 191.4 184.7 179.7 175 172.4 170.3 170.2 171.2 174.5 177.9 181.9 186.9 192.9 202.2 209.6 214.3 221.3 228.1 230.5 230.6 231.4 231 228.4 224.8 222.9 220.3 215.6 211.9 208.5 201.8 192.8 181.9 164.2 148.5 140.5 134.8 129 123.7 125.6 127.7 126.8 126.8 126.7 128.5 128.9 129.7 125.8 125.3 125.9 127.9 129.5 128 133 135.9 129 128.5 127.5 125 117.7 114.4 110.3 110.4 109.8 109.5 110 109.9 109.1 109.8 108.4 107.8 109 110.7 111 111.8 111 110.4 109.6 106.7 105.3 104.9 104.9 105.1 107.1 107.5 108.2 108.2 109 109 108 107 106.8 105.2 101.2 100 101.2 100.5 99.9 99.7 99.4 98.5 99.3 98.7 98.7 98.6 99 99.1 99.8 100.8 100.9 100.3 100.3 101.4 101.7 102.4 103.5 105.8 108.6 114.9 125.9 137.2 148.7 158.1 168.4 176.9 188.4 192.3 188.3 179.9 155 139 130 125.1 123.1 119.1 114.3 112 107.8 105.2 104.5 101.5 100.7 100 99.1 97.7 96.2
190.3 194.3 199.8 204.7 212.6 216.5 214.5 213.9 209.4 203.7 196.3 189.2 183.9 178.1 170.2 166.9 163.9 163 163.6 164 167.9 172 178.1 190.2 197.1 205.8 216.7 228.7 239.4 248.8 255.2 264.4 269.6 271.1 271.3 271.9 271.1 270.9 268.8 266.5 265.2 258.8 247.5 237.9 233.7 227.5 220.3 217.8 210.9 204.2 201.8 195.1 190.6 186.4 186.9 185.6 179.5 176.9 174.1 173.7 173.3 175.2 177.6 180.9 185 189 195.6 207 217 223.5 228.4 233.4 236.6 236.5 236.2 235.4 235.2 233.8 231.3 229.1 225.5 221.9 217.1 208.1 200.4 184.4 165.3 152.9 145.3 137.5 131.4 128.4 131.3 132.4 131.2 133.6 134.6 136.2 139.7 142.8 145 144.9 144.5 147.5 147 152.3 151.4 150 151.1 140.6 133 125.7 121.9 120.5 120.4 117.6 117 114.5 112.8 110.5 109.9 109.5 109.8 110.8 113.2 113 110.2 111.6 111.4 109.2 107.4 106.6 106.2 105.5 105.8 106.2 106.2 107.5 108.5 108.9 109 109 108.5 107.6 106.9 106.5 102.2 99.5 99 100.3 100.2 100.1 99.6 99.8 99.2 99.1 98.9 98.4 99.5 101.3 101.9 102.9 103 103.6 103.8 104.1 104.5 106.2 107.1 108.5 109.9 119.2 130.1 140.4 151.5 164.1 175 184.9 192.9 198.1 194.5 184.3 171.4 152.1 139.1 132.8 128.6 125.8 123 120.6 118 115.8 110.9 107.9 105.3 103.7 101 99.2 97.3 96.3
198.5 190.7 185.8 183.6 188.3 198.9 198.4 197.8 192.5 187.6 183.5 179.7 175.4 171 166.6 164.6 164.4 164.5 166.7 169.1 172.9 177.3 185.2 193.4 204.1 215.2 225.3 239.9 253.2 263.7 272.2 274.1 276.2 276.5 272.1 273.4 272.4 269.5 268.5 264.6 253.8 251.3 241.6 235.8 229.4 219.7 209.5 209.6 209.3 210.3 203.5 201.2 195.2 188.4 183.6 181.6 180.4 180.3 180 180.6 180 182.7 186.4 192.1 198.5 205.3 211.4 220.3 226.2 229.7 232.8 235.2 236.1 234.5 234.4 235.5 236.2 237.2 234.5 232.6 228.4 223.6 212.1 199.1 184.7 167.8 155.3 147.7 142 134.4 128.3 134.5 135.2 137.9 138.8 141 143.5 146.2 151.9 157.1 163.1 166 169 170 171.7 169.2 166.2 162.6 161.7 147.1 132.6 128.9 131.8 136.2 135.4 130.6 129.7 124.8 118.3 115.9 114.3 114.1 113.8 113.8 112.4 112.2 111.2 110.6 108.5 107.7 107.9 107.5 109.2 107.7 111 110.7 108.8 110.9 112.2 110.6 111.7 110.9 109.7 108.3 107.5 105.9 102.1 100.8 99.9 99.9 100 100.2 100 100.1 100.6 102.4 103.4 104.3 105.9 104.3 105.7 108.5 109.8 108.8 110.9 111.4 109.3 112.2 114.6 118.2 125.8 132.5 147.1 159.7 167.1 179.1 190.7 200.6 204.3 196.5 183.4 170.2 154.4 145 139.3 134.4 133.9 132.8 131.6 128.4 125.2 122.5 118.1 113.7 109 105.2 103.3 103.4 102.7 98.3
205.4 197 191.4 193.6 191.7 179.3 188.5 183.6 180 176.9 174.4 172.3 170.2 165.7 165.5 165.5 168.6 170.6 172.7 174.8 182.2 185.2 193.1 201.8 212.4 224.7 238.2 253.5 267.9 272.8 277.8 279.8 279.2 275.8 271.4 269.5 267.8 263.3 259.6 254.4 246 241.9 236.6 231.6 226.6 212.3 217.6 221.1 224.8 219.8 210.2 203.7 191.8 187.5 188.2 187.1 187.4 186 186.5 187.4 190.8 195.9 201.2 206.6 213.4 218.7 223.8 227.9 230.7 232 232.5 232.5 230.7 227.5 225.2 224.5 222.6 221.2 218.5 215 210.2 204.4 197.6 186.6 170 154.4 150.5 143.2 136.7 133 138.7 141.7 144.3 147.1 148.9 152.1 155.4 159.6 165.2 169.8 173 179 185.8 193.7 196.1 192.1 186.4 172.2 161.8 145.3 139.1 143.6 153.2 156 157.3 152.5 145.8 142.7 131.9 123.9 117.9 114.5 113 112.5 111.1 110.8 110 109.2 109.8 110.4 111.5 114.4 113.2 113.2 118.1 118.5 118.6 117.7 119.4 117.4 117.6 116.7 114.8 111.2 108.6 106.8 104.6 101.3 99.7 100.1 100 100.4 102.6 104.6 106.4 106 107.6 109.5 110.6 112 109.5 113.6 115.3 116.3 116.7 118.7 116.3 120.4 124.6 132.5 138.8 147.1 162.5 177.5 184.2 194.5 204.5 207.1 197.3 184.2 165.1 153.3 146.7 142.3 139.2 139.3 138.1 138.5 138.9 138 132.6 126.9 116.7 116.7 112.8 108 107.9 107.8 107.2 104.2
216.2 201.5 194.6 191.8 185.5 178.5 176.3 176.4 174.2 173 171.3 169.6 167.9 167.3 173.2 176.3 180.6 183.3 185.8 188.6 189.2 199.4 210.1 212.3 225.9 237.5 255.4 267.8 273.6 278.3 280.7 282.2 278.7 272.5 268.1 264.5 259.2 254.4 249.8 244.5 241.6 237.5 232.6 228.1 217.4 221.7 224.7 229 226.1 216.7 203.5 195.5 191.4 196.4 197.6 193.9 194.3 194.7 197.4 200.1 209.9 211.3 217 221.9 226.3 230.4 232.4 232.1 232.5 231.6 228.5 224.6 222.2 216.4 212.8 209.3 205.7 201.6 195.1 191.5 186.3 180.7 178.3 171.2 158.4 151.6 144.4 138 133 140.4 144.2 148.2 153.3 158.2 164.4 169.8 172.7 175.4 179.8 182.4 186.5 194.7 209 215.5 218.3 208.8 193.5 172 159.6 150.8 154 165 176.9 177.6 177.4 170.6 163.5 155.3 142.3 130 120.1 115.2 113.3 112.3 111.7 111.2 112.2 111.7 111.3 112.6 117.2 118.4 118.4 118.2 121.5 123.7 125.1 124.1 125.4 126.6 124.5 123.5 121.1 116.2 109.6 107.1 105.7 102.3 100.7 100.8 100.9 101.3 106.4 108.4 108.4 110.3 112 113.6 115.2 117 113.5 118.5 122.5 124.2 124.7 124.8 125.6 130.7 136.2 142.5 151.1 159.5 172.8 189.2 199.8 205.4 207.9 200.7 186.9 166.3 153.3 148.1 143.6 141.2 140.2 140.1 140 138.1 137.1 136.4 125.8 127.6 124.4 121.1 120.5 119 116.1 114 114.3 114.8
208.7 200.1 197.5 188.6 181.2 177.6 174.6 173.4 173.2 170.1 170 168.5 167.6 175.8 182.8 185.8 189.6 193.6 199.4 200.1 194 209.4 225.7 229.6 237.7 252.6 267.1 277.2 280.1 280.3 281.4 280.6 273.7 267.1 263.4 258.7 253.2 249 244.4 241.3 235 231.2 226.5 221.7 222.1 226 230.2 232.5 225.4 208.2 200.2 204.4 206.7 209 207.9 207.2 211 214 217.3 222.3 230.7 232.1 233 233.3 234.5 237.5 238.4 237.3 235.5 231.2 224.8 218.2 211.4 205.3 198.8 197.9 191.9 185.9 176.4 172.9 168.5 165.4 161.7 156.4 149.1 144.9 140.9 136.9 140.2 143.1 149.3 155 167.3 175.1 179.6 184.9 187 189.2 192.9 197.1 203.7 210.5 222 226.2 224.7 214 196 172.9 162 160.6 172.2 185 188.4 188.2 177.7 169.3 159.7 149.5 139.7 129.8 120.6 115.5 113.9 113.6 113.1 113.7 116.1 117.5 117.6 117.5 122.4 124.3 124.3 127.1 125.5 127.7 130.9 134.4 134.3 134.8 131.7 130.7 126.2 118.5 110.5 108.1 106 105.5 103.5 101.8 101.1 103.8 109 111.1 112.8 114.7 116.1 118 119.5 121.3 118.9 121.9 127 128.6 129.9 131.5 133.5 139.7 147.1 158.7 169.4 177.3 180.3 196.3 206.3 209 206.4 192.2 173.6 155.4 149.4 145.6 142.5 140.3 139.8 139 137.9 133.9 133.8 133.7 135.6 136.1 134.7 133.9 132.2 132.1 132.3 130.1 129.6 130.5
208.2 202.1 192.5 184.6 179.4 175.7 173.4 172.2 170.1 170.8 170 172 180.5 185 190.2 195.1 198.9 205.2 209.2 205.5 204.4 216.8 230.4 235.6 252.3 263.2 277.9 285.8 285.1 284.9 283.9 277.7 267.9 260.7 255.5 251.2 248.9 247.7 245.1 241.5 234.1 227.4 227.6 228.9 230.6 233.8 236.8 237.2 226.2 208.5 224.7 234.6 233.4 229.8 231.5 233 232.3 235.7 240 241.3 242.1 241.4 238.9 237.8 238.6 241.3 240.7 236.7 231.8 225.8 220.5 214.2 206.9 199 191.3 184.3 178.5 172.4 167.5 162.1 158.8 156.3 152.7 149 145.2 142.5 137.6 140.9 143.5 148 155.6 164.3 171.9 181.7 186.8 192.1 196.4 199.2 206.5 212.1 219 226.5 233.7 233.2 223.1 207.9 191.6 176.4 168 169.6 182.4 184.2 180.5 173.4 165.6 158.2 150.9 145.2 135.5 125.1 119.9 115.7 116.6 116 116.7 117.8 120.3 121.9 123.2 125.2 127.5 128.9 128.5 130.5 133.3 134.2 138.4 141 141.5 142 139.2 134.4 127.6 117.5 111.6 107.3 106.5 105.2 104.2 101.4 103.5 107.4 112.1 114.7 117.8 119.6 121.1 122.7 124.1 123.7 122.2 125.4 128.7 131.6 134.1 137.3 145.5 154.1 158 170.3 184 193 197.1 201.3 216.1 219.2 216 195.8 170.8 152 147.6 144.2 141.8 140.3 139.2 136.9 138.1 140.8 142.8 143.2 143.3 143.6 142.3 142.6 142.3 145.5 147.3 141.8 138.8 140
198.4 189.5 183.7 178 174.5 175.6 173.3 173.5 173.4 173.3 176.1 181.5 185.9 191.2 198 203.8 209.6 216.9 211.1 209.5 214.1 226.1 242.4 254.7 272.4 282.9 285.2 291.5 290.1 285.3 279.2 270.6 261.6 254.8 250.7 247.6 245.8 244.7 241.8 237.5 232.6 233.8 235.7 237.8 241.3 240.3 240.9 239.9 237.2 216.5 226.8 242.2 251.5 252.8 253 253.1 255 257 257 254 250.1 247.9 244.8 242.2 240.7 237.3 231.2 226.5 223.7 216.8 212.6 208.3 201.3 193.4 185 176.3 173.9 173.1 170.2 165.2 157.2 154.4 150.9 147.3 143.9 140 140.6 145.3 148.9 154.2 162.1 172 178.5 184.7 191 194.6 198.6 202.5 209.3 218 226.2 232.3 232.1 227.6 221.1 214.9 203.5 184.6 175 176.8 179.8 176.3 172.1 164.8 158.6 153 146.2 136 127.3 123.2 117.2 120.4 124.6 122.4 120.3 122.5 124.2 126.3 128.5 129.2 131.5 133.5 134.8 136.5 139.6 142.3 146.3 148 147.3 147 143.2 137.1 129.4 121.1 112.5 107.7 106.1 104.2 102.9 103.2 107.1 110.9 115.8 118.8 121.9 124.4 127.5 127.4 125.6 125.7 123.8 126.1 131 134.3 138.6 145.8 155.1 161.7 168.8 179.1 192.8 204.1 211.3 217 228.8 223.6 212.7 194.7 166.1 150.1 146.6 144.2 142.1 140.5 139.7 141.6 143.4 147.4 148.6 149.5 150.3 149.7 152 152.4 154 159.6 160 155.8 153.1 153.3
181.7 177.2 179.3 183.7 181 177.2 175 174.2 175.3 174.7 177.5 185.3 191.7 196.9 204.6 213.8 218.5 215 215.6 220.5 226.4 233.3 250.5 264.5 283.5 293.4 297.2 298.6 295.5 290.2 279.5 264.9 256.7 251.2 247.6 247.1 245.8 243.2 241.6 241.3 242.8 243 244.1 247.7 250.1 248.1 246.3 245.1 241.4 226.8 223.6 239 250.2 260.7 268.9 272.9 275 275.2 275.5 270.3 261.6 254.1 250.3 245.8 238.4 238.4 238.4 231.2 223.6 213.2 207.4 201.8 194.2 188.7 187.9 186.5 184.7 179.6 178.1 170.5 159.9 156.1 151.8 148.2 146.2 142.9 146.2 149.4 156.6 161.7 169.5 179.7 188.8 192 195.4 197.6 202.9 209.1 212.6 224.6 236.9 245.8 246.5 239 237.1 234.1 216.4 199.4 185.3 179.8 176.3 170.9 164.9 158.7 153.5 147.3 134.9 128.4 122.8 118.9 123 127.7 127.4 123.6 123.6 125.6 129 134.3 137.6 139 137.4 139.4 140.8 144.1 147 151.5 154.1 153.7 152.9 149.2 142.9 135.3 127.7 121.7 112.4 107.5 104.8 103.2 102.8 106.4 110 115.5 119.6 124.1 128.9 130.4 132.1 130.4 125.4 123.4 124.7 129 134.5 140 143.6 151.3 156.2 163.1 172 184.7 199 210.6 224.8 232 230.2 224.3 207.8 180.7 158.9 151.3 146.9 144.7 143.1 142.6 143 145.4 149.9 152.8 155.3 156.8 157.1 158.2 160.5 163.6 167.1 171.7 174.1 169.9 164.2 159.1
181.2 185.9 188.6 186.1 181.8 177.8 176.6 176.5 176.7 177.2 181.7 187.5 196.9 200.9 207.8 215.5 217.6 220.4 225.4 233.7 242.3 252.7 260.9 286.8 293.6 298.9 306.7 308.2 298.3 277.7 268.4 262.4 257.6 254.2 252 250.7 249.4 249.5 249.7 250 253.2 254.3 253.9 256.6 259.3 255.7 250 245.5 237.1 227.8 228.8 239.8 253.8 265.7 276.5 285.1 287.1 285.6 282.6 275.3 264.5 254.9 248.5 243.4 245.1 246.8 244.6 238.9 231.1 221.7 210.1 207.6 203.6 201.2 199 194.7 194.3 190.7 188.3 182.4 167.6 162.5 156.5 151 148.9 145.5 149.8 155.4 163.2 169.5 175.5 183.6 193.2 198.1 202.6 206 213.8 220.9 233.4 239.6 244.9 250.3 252.7 255.9 249.1 234.1 217.8 201.4 183.4 174.6 166.4 163.2 161.4 154.6 143.6 134.2 129.1 122.9 120.4 124 130.4 131.4 127.5 128.5 130 131.8 136 142.2 144.6 148.2 147.3 147.5 148.9 154.6 161.3 158.7 159.1 158.5 156.2 147.6 137.5 132.2 125.6 119.8 110.3 106.1 104.1 103.3 103.1 107.9 112.5 117.9 125 128.8 134.6 135.4 136.1 130.7 124.1 124 127.2 132.1 138.3 145 148 150.1 155.3 162.4 170.7 188.2 203 218.6 236.7 244.9 232.9 208.8 187.4 165.5 156.4 152.7 147.9 147.9 149.2 150.4 150.9 154.5 158.3 159.4 162.1 164 165.5 168.6 173.2 175.6 178.9 181.9 181.4 176.9 168.4 158.9
189 194.1 194.6 191.3 186.4 182.1 179.2 178.8 179.1 180.8 189 195.3 201 208.3 214.8 220 226.1 232 241.2 253.3 266 277.9 285.3 299.1 310.4 322.1 319.5 307.4 295.9 289.7 279.9 274.2 267.2 263.8 259.8 256.6 256.9 260.1 266.2 263.5 262.5 262.5 261.2 261.1 260.3 256.5 247.9 238.3 229 226.3 234.1 244.2 256.3 268.3 280.3 289.8 297.3 295 287.6 277.9 268.3 258.8 253.4 249.9 249.3 247.6 244.5 239.1 231.4 224 220.6 217.6 215.8 208.9 210.1 213.3 208.8 203.4 195.9 187 176.1 169 161.5 153.5 151.6 148.3 154.8 160.7 167.2 174 180.8 188.5 198 204.1 210.1 223.8 233.5 237.6 247.6 256.5 261.4 264.2 262.6 255.7 242.9 221.8 199.6 180.3 171.6 162.5 155.4 150.2 148.8 142.6 136.4 129.5 124.5 122.3 126.1 129 132.6 131.4 131.9 133.9 135.1 138 144.2 148.1 151.6 154.4 156.8 159.2 158.3 161 166 164.4 164.8 162.9 157.8 146 133.8 127.9 121.6 117.3 108.4 105.9 105.5 103.6 104 108.6 115.1 122.4 130 136.9 140.3 138.4 135.8 129.3 123.4 125.7 129.5 134.6 140.1 145.2 146.9 152.2 157.4 164.1 172.9 185.1 204 226.2 245.5 242.6 228.6 198.4 175.1 164.9 157.8 156.4 153.9 155.8 157.9 158.9 162.1 164.2 165.4 166.5 167.1 168.9 172.5 177.6 182 184.4 185.8 185 181.2 173.6 165.8 156.9
196.7 200.5 204.2 202.5 200.2 192.8 188.3 184.3 183.5 192 201.2 205.8 208.8 216.2 223.6 234.9 244.1 257.7 270.4 281.9 296.9 310.8 320.4 314.5 323.1 331 323.7 314.1 317.3 313.8 302.4 295.9 289.7 285.8 279.8 279.5 279.4 284.5 288.2 287.5 279.3 271.8 267 264.7 261.4 253.9 242.7 233.3 228.6 231.8 239 250.5 261 270.8 281.6 292.4 302.4 297.9 289.5 282.5 272 264.1 257.8 253.9 249.6 245 241.2 238 235.6 236.6 232.8 229.6 226.5 223 225.4 222.8 217.1 207.6 200.7 191.4 180.4 168.4 160.3 157.9 156.4 152.4 158.6 165.4 172.5 179.6 187.2 196.7 201.8 208.2 216.5 230.1 238.7 251.2 262.1 265.1 269.8 275.2 281 258 230.1 206.4 187.5 170.7 159.5 153.6 148.7 143.3 137.1 134.2 130.5 129.4 129.5 127.8 128.5 132.8 135.5 135.3 135.9 139.4 141.3 147.1 150.5 155.6 157.4 161.1 165.9 169.1 168.3 170.8 173.2 172.6 170.1 164.7 156.3 143.7 131.3 123.1 118.8 115 108.6 106.9 104.8 104.3 106.2 109.4 117.2 123.7 130.2 133.6 133.9 132.9 131 125 123 127.3 132.4 137 141.7 143.6 149.3 159.2 169.5 176.1 179.8 188 205.6 228.1 233.6 228.8 221.4 201.5 179.3 166.5 166.5 164 159.2 160.1 163.2 164.9 164.7 166 167.5 169.9 172.3 175.5 179.9 184.2 186.3 186.5 185.7 182.1 177.6 168.6 162.5 157
202.1 207.5 212.7 214.2 213 207.5 203.8 201.6 189.8 199.5 205.9 211.4 218.9 227.9 237.5 251.7 262.1 279.3 296.4 310.9 321.6 332.7 339.4 343.1 331.5 336.4 335.6 324 327.4 326.3 320.6 314.4 312.6 311.5 309.9 309.6 311 316.3 320.8 321.9 310 295.6 278.7 269.8 262.2 250.8 240.6 236.1 231 231.7 240.4 251.1 261.2 269.1 281.4 293.1 298.4 295.5 292.3 287.5 276.7 268.9 262.1 256.7 251.1 248.1 245.4 243.2 245.3 246 247.5 243.3 239.5 239.2 238.9 231.8 221.1 212.2 209.7 201.6 188.9 176.5 167 162.8 161.9 155.9 161.5 168.7 175.5 183.2 192 200.6 207.3 215.7 226.1 240.2 247.7 258.7 264.6 274 277.9 272.3 257.5 232.2 208.4 187.6 171 161.6 152.6 146.2 141.4 138.1 133.3 131.4 129.7 132.3 133.8 133.4 135.7 141.9 141 142.6 143.5 145.7 150.6 154.5 158.4 162.8 166.9 170.6 171 175.8 179.9 180.9 179.2 175.5 168.5 160 149.9 138 124.7 118.2 115.7 111.4 107.7 106.3 103.9 104.6 107.3 109.5 115.3 120.4 124.4 126.6 127 126.4 123 123 123 128.9 135.1 140.1 145.8 149.7 157.4 169.2 182.1 195.1 198 196.6 211.4 231.6 237.7 234.2 224.3 213.5 189.5 169.7 166.4 164.9 163.7 161.1 162.6 163.1 165.2 168.4 172.6 176.3 180.1 183.7 185.6 186.7 185.3 183 182 177.9 171 165.6 158.4 153.8
213.4 220.2 226.2 233.3 233.8 225.9 212.6 198.2 203.8 207.3 214.4 221.2 229.2 238.9 249.9 265.2 287.6 308.1 319.1 328.7 337.2 347 347.8 346.6 342.8 338.8 332.1 333.1 336 339.1 338.9 334.4 331.8 330.9 330.7 328.4 329.5 332.3 338.1 342.4 336.8 320.5 297.9 280.4 268.3 256.2 245.6 239.4 237 237.1 239.1 245.6 253.2 261.7 271.7 281.9 290.5 295 295 291.7 284.7 276.9 270.3 263.6 257.9 254.3 253.3 252.3 253.4 255.8 255 259.2 254.2 248.2 241.7 234.4 227.7 221.3 214.9 203.5 191.6 183.2 172.6 168.9 165.5 158.9 165 170 177.5 186 193.6 199.6 215.8 231 242 247.6 262.7 270.4 276.1 282.3 270.1 253.2 228.7 207.8 187.8 171 161 157.3 150.3 144.1 138.5 135.3 132.4 131.6 133.1 136.2 138.4 141.8 145.5 145.2 146.6 148.4 151 153.7 156.8 160.2 164.5 167.9 172.1 178.2 180.2 183.5 183.1 181.2 175.4 171.3 163.3 154.2 142.2 131 118.6 113.3 111 107.7 104.8 104.2 104.3 105.1 107.3 110.5 114.7 116.4 118.1 119.7 121.2 124.1 123 123 123 129 136 143.7 148.8 158 167.7 183.1 198.5 215.4 218.6 205.5 219.6 226.5 227 217.5 207 191.8 174.2 162.9 165.7 167.5 167.4 167.3 167.2 169.5 175 177.7 180.5 183.1 185.4 185.6 185 183 180.3 178.6 174.8 168.5 159.2 153.1 149.8 145
231.3 242.7 243.5 245.8 239.2 223.4 210.4 203.6 212.8 221.2 231.2 240 247.7 257.1 271.4 289.1 306.2 319.6 331.5 343.3 348.1 349.4 347.5 345.6 346.2 342.7 342.1 343.1 346.7 350.1 351.3 348.4 347.5 343.3 346.4 347.8 350.9 344.6 345.2 347.8 341.1 330.1 307 287.2 272.7 261.8 251.8 246.6 244.3 243.5 247.5 252.2 256.8 260 263.8 275 285.3 294.3 297.7 293.8 289.3 283.7 279.8 274.6 269.4 262.1 260.8 260.7 262.8 265 263.6 263.1 255.3 245.5 239.3 234.1 224.9 217.8 209.5 201.1 191.3 183.2 177.3 171.9 167 159.7 168.5 174.1 180.2 188.6 197.8 212.7 229.8 246.4 254.6 261.3 265.1 275.4 278.5 273.1 264 234.8 208.7 190.1 171.2 157.9 154.8 155.4 152.4 145.1 138.1 133.7 134.6 135.9 139.2 144.6 145.5 146.9 150.2 149.1 152 155.3 157.6 161.5 162.5 165.2 168.4 173.3 177.1 179.8 183.6 183.4 180.3 177.1 173.5 166.9 159.2 150.4 137.4 127 116.1 110.3 107.8 106.1 104.8 104.8 105.7 106 109 111.5 112.2 113 114.5 117.5 120.9 122.8 123 123 123.7 130.8 138.1 145.7 153.3 163.4 178.2 196.2 217 230.4 231.2 216.7 211.4 212.9 207.6 198 185.1 174.2 161.7 160.2 165.9 171 172.3 172.7 174.4 179.7 181.9 184.1 185.3 183.7 183.9 182.6 179.5 176 172.9 167.7 161.3 152.8 143.3 137.7 133.3 135.3
251.1 253 254 249.9 235.4 224.1 216.7 215.9 227.8 240.3 251.7 264.6 275.8 287.5 301.9 315.4 330.1 340.3 348.9 352 352.4 350.1 346.1 343.2 348.9 348 347.6 349.5 352.9 360 361.8 359.9 356.3 353 356.2 357.4 360.4 358.4 355.8 355.3 350.1 338.5 325.1 304.9 286 275.4 269.4 267.2 261 258.8 259.3 262.3 265.5 268.7 270.7 270.2 287.4 298.4 300.4 300.1 298.9 295.7 293.7 289.4 283 277.5 269.4 267 272.5 272.8 266.3 260.3 251.9 245 238.1 231.3 223.2 212.3 205.8 198.1 188.1 181.2 175.4 170 164.6 166.8 171.1 179.3 188.6 197.9 206.5 219.7 241 253 261.8 270.9 275.3 282.9 286.9 281 260.7 228 201.3 180.4 161.6 150.4 146.4 144.4 141.8 138.7 136 135.4 141.2 140.2 148.6 152.7 152 152.8 156.7 160.4 163.4 165.9 167 169.2 168 169.6 172.6 175.2 180.8 184.1 183.5 181.6 178.2 174.2 170.3 164.2 154.2 139.2 127.9 119.2 111.9 107.9 106 105.6 106.8 107.7 107.9 106.8 108.3 109.8 111.4 113.1 116.7 119.6 121.8 123 123 125.2 127.6 133.5 139.8 146.2 156.1 171 189.6 213.1 233.2 240.3 237.4 223.3 211.3 192.8 184.7 175.1 168.7 162.6 158.3 160.8 165.9 171.5 174.2 175.9 180.2 182.2 184.3 181.7 181.6 180 177.3 171.3 168 164.7 158.3 150.2 143.3 135.2 131.2 127.1 123.6 125.5
260.3 257.5 251 244.6 240 232.2 223.6 229.8 242.4 260.3 275.4 290.3 300.7 310.7 324.5 335.8 344.8 350.7 353 352.8 349.5 343.6 336.6 336.9 343.4 346.8 348.6 353.6 355.5 356.6 358.4 357.8 359.3 354.6 358.5 363.2 369.4 372.3 370.5 368.2 362.6 354.1 343.5 322.7 302 288.9 286.9 289 287.8 283.6 281.4 284.9 286.3 283.8 283.3 277.1 288.4 295.7 300.1 303.5 305.5 305.6 304.1 300.8 295.5 289.3 283.4 275.9 273.2 267.4 259.4 251.8 244.7 239.3 232.6 223.9 214.2 207.3 201.1 195.5 184.7 179.5 176.9 172.3 170.1 174 182.8 191.6 207.2 220 226.1 237.2 251.1 263.4 269 280.5 290.2 292.5 283.5 263.8 247.1 219.9 196.3 175.1 158.6 149 150.7 149.1 145.5 142.5 142.6 147.3 151.2 151.2 150.7 156.8 159.7 162 162.7 167.4 172.7 175.4 173.4 172.7 174.1 175.1 176.2 182.2 185.9 187 186.9 184 180 173.7 167.8 157.1 139.3 127.3 120.7 115.1 109.5 106.2 107 107.9 109.3 108.7 108.1 108 109.5 111.6 112.7 116 118.6 122.2 125.4 127.2 128.5 130.8 133.4 138.1 142.9 154.4 166.5 184.7 209.6 225.2 234.3 238.2 227.2 213 193.2 181.4 169.8 159.6 158 157.1 156.8 163.4 173.4 178.3 179.6 178.5 181.2 181.2 180.7 178.5 175.7 171.2 169.5 166.8 160.9 150.1 144.3 139.1 135 129.3 122.9 115.6 112.4 112.3
269.6 259.8 259.4 254.4 249.4 236.4 234.8 247.7 262.5 278.8 293.3 304.8 318.8 328.8 338.4 344.1 348 351 351.5 348.1 342.4 335.8 326.3 327.6 333.7 339.5 344.7 348.3 347.2 346.3 346 350 354 355.2 357.5 360.7 366.7 377.2 382.3 382.3 381.1 377.6 365.5 347.3 322.7 307.3 303.5 309.5 311.6 311.3 308.8 306.1 303.5 297.4 292.7 284.8 291.1 297.2 303.4 308.4 312 313.9 316.5 315.3 311.6 303 291.5 279.5 268.4 256.4 249.5 241 234.5 229.6 224.2 215.6 206.9 201.9 197.7 193.9 188.1 180.4 173 175.6 177.8 181.4 192.7 200.7 210.7 222.8 232.4 247.3 259.1 268 281.8 298.8 313.1 323.2 314.1 278 246.6 218.7 193.4 172.5 156.1 149.8 160.5 163.4 158.5 155.3 153.7 161.6 159.8 158.4 160.2 165.2 166.4 166.5 168.2 170.3 173.7 176.1 176.5 177.2 178.9 181.1 185.9 186.9 187.8 186.6 183 176.9 172.7 166.6 156.3 140.4 128.2 120.8 116 111.9 106.9 108.1 109.2 109.8 109.2 108.7 108.5 109.2 111.1 113.6 114.7 120.6 123.6 127.2 130.4 132.7 134.4 138.8 142.8 147.7 156.6 171.9 186.7 201.6 219.4 228 228.8 223.3 207.5 193 175 163.4 158.4 154.8 155.8 156.9 162.6 176.5 182.4 183.4 185 184.9 184.3 181.7 178.4 175.6 173.5 169.2 165.9 158.5 153 146.1 139.7 136.5 133.5 130.4 125.7 121.8 107.1 96.8
282.1 276.4 273.9 268 259.4 244.2 252.8 261.9 276 294.1 306.6 319.1 328 334.7 342.5 346 348.2 347.6 345.3 339 328.3 321.4 320.7 324.5 330 337.5 340.8 339.5 338.1 339.3 341.4 345.2 347.3 351.4 357 364.2 371.5 377 382.2 387.5 394.6 392.8 388.7 372.9 344.7 327.1 318.3 318.5 321.3 322.2 321.5 318 309.1 302.7 296.1 293.7 295.5 298.6 305.2 313.4 321.9 331.5 335.2 332.4 324.5 311.8 294.9 278.5 257.1 242.9 238.7 232.4 225.8 220.7 214.2 208 200.7 197.9 194.7 189.4 183.2 177.5 179 182 186.9 193.1 193.6 201.5 210.1 221.6 234 247.6 263.5 282.9 294.6 307.1 320.8 332.3 324.1 292.9 239.9 210 187.4 167.8 154.9 159.2 169.7 167.2 163.1 161 156.1 164.9 168.8 169.8 163.5 170 170.5 170.1 172.2 173.7 176.8 180.8 181 181.9 181.9 182.3 183.1 183 180.8 179 176.2 172.4 167.1 160.9 146.8 131.7 122 117.7 113.9 111.3 107.7 108.2 110.3 110.4 109.5 109.6 109.7 110.8 113.7 116.6 119 124.8 128.9 133.4 136.7 139.6 143.2 146.8 150.7 160.4 172.1 188.6 200.8 205.7 214.5 211.2 198.7 191.1 181.4 170.3 157.6 153 152.2 153.6 157.2 161.4 169.5 177.4 182 183.1 183.7 186.2 184.5 182.8 178 173.9 168.7 163.1 157.2 151.8 146.2 140 135.9 132.8 130.8 125.6 121 113.4 98.6 89.6
292.7 288.2 284.3 278.8 268.8 253.5 265.6 275 290 304.3 314.1 321.1 328.4 334 338.6 340.6 342 338.8 327.8 320.6 317.6 317.8 321.9 327 333.6 337.9 338.7 337.5 336.5 339.1 341.2 343.9 345.7 349.7 356.5 364.3 371.4 377 383.7 389.3 393.1 393.3 390.5 380.6 357.8 338.7 322.4 318.1 319.5 321.9 322.9 318.6 310.7 302.3 299 301.5 304.2 307.8 312.4 319.8 326.2 336.8 345.6 344 330.8 313.4 287.7 264 242.5 232.9 229.6 225.3 218.6 213 207.6 202.3 196.3 193.6 190.3 185.8 185.6 186.2 185.2 189.2 195.9 199 199.7 204.8 211.9 219.9 234.3 252.1 267.5 280.6 296.6 312.7 319.3 329.8 308.1 258.1 225.9 199.5 180.3 164.5 156.2 167.4 172.1 169.5 167.9 164.2 165.7 169.2 173 177 176.9 173.8 174.3 174.6 175.8 178.6 181 181.9 181 181.7 181.7 183.4 182 181.8 181.2 179.8 178.6 172.6 164.3 155 138 130.5 123.6 117.2 112.6 110 108.9 110 110.7 110.6 110.9 112.1 112 114.6 118.2 122.3 125 130.6 136.4 139.6 144.1 145.3 149.7 153.5 157.6 168.6 182.7 205.1 209 206.6 187 181.7 171.5 163.9 157.1 152.1 149.5 150.3 153.1 156.1 160.9 167.9 173.8 176.8 178.4 179.3 180 178 175.6 171.5 168.3 164.3 159.9 155.2 149 144.3 139.6 133 130.8 128.6 126.3 119.6 109.1 99.8 89 84.5
300.3 295.4 291.4 284.8 278.1 262.2 272.6 286 297.6 308.3 314.2 320.3 327.2 332.7 334.7 330.4 324 320.2 316.6 314.4 316 320 322.2 325.2 330.3 334.2 335.5 334.7 334.8 335.5 336.4 338.6 344.9 352.7 359.5 365.7 370.9 375.9 382.5 388.7 390.9 390.4 389.7 379.1 356.3 335.7 320.9 316.1 318.2 321.9 320.8 315.9 308.6 304.3 306.4 309.4 315.8 318.7 321.6 325.8 331.8 335.6 339.8 340.5 321.9 297.4 273 252.7 239.1 226.4 222.8 219.2 212.9 207.4 201.4 198 192.9 189.6 187 187.6 190.3 192.7 195.2 200.7 204.6 202.1 203.4 207.3 213.8 224.1 236 257.3 269.7 284.6 300.4 314 320.1 316.2 286.1 241.3 211.2 186.2 178 165.6 161.2 172.2 172 168.7 166.9 165.9 167.5 172.5 177.1 179.5 180.7 179.5 179.7 180.6 180.6 180 181.4 183.6 185 188.8 191.4 190.1 188.2 184.9 182.7 178.9 171.9 166.4 159.6 147 139.1 131.1 122.8 115.9 112.1 109.1 110.2 111.3 111.6 112 114.2 116.4 118.2 121.1 126.4 130.4 134.1 140.1 146.2 148.7 147.3 148.6 153.5 157 161.2 169.4 182.6 187.6 184.6 177.2 167.3 159.4 152.7 149.4 148.2 148.2 149.1 149.9 151.4 156.3 162.6 167.2 171.7 175 175.4 174.5 170.4 168 165.4 163.6 161 157 151.5 146.3 141.3 137.1 133.3 129.1 126.4 123.7 120.5 116.2 107 96.2 88.5 84.9
310 302.1 297.1 290.6 281.5 273 276.6 284.7 293.4 302.1 310.9 318.6 322.5 324.6 318.7 315.5 313.2 312.1 307.4 313.1 314.1 314.3 316.1 319.9 323.9 327.6 327.8 326.8 323.8 322.2 332.3 341 347.7 353 359.3 363.8 371.1 377.1 381.1 384.5 386.2 384.8 377.7 360.6 341.6 324.5 314.3 314.5 320 323.1 321.2 315.6 310.3 312.6 316.3 325 330.4 331.1 329.8 327.6 335 336.7 339.6 323.5 306 281.5 263 246.7 234.5 224.7 218.5 214 208 201.6 197.5 193.1 190.7 190.1 189.6 191.3 195.4 198.5 204.3 211.7 211.7 205.5 205.1 209.5 221 231.3 246.1 263.8 279.1 291.7 299.3 312.2 318.6 308.6 268.8 235.3 204.8 183 174.9 169.5 164.9 173.7 172.9 170.8 169.5 170 173.4 177.7 181.3 184 187.2 186.3 186.2 186.6 188.1 188.1 196.2 200.3 200.2 199.6 197.6 193.1 187.5 181.6 176.7 171.3 165.3 158.5 152.1 143.8 136 130.8 123.1 115.7 110.7 108.4 112.2 112.1 113.7 117 118.7 121.6 124.2 130.1 136.6 140.9 145.9 149.6 154 155.3 152 150.9 154.3 158.3 167 166.7 168.6 168 163 157.9 150.4 150.6 148.7 149.1 148.8 148.5 149.7 152.4 156.4 160.3 164.8 168.9 173.6 174.8 174.4 171.6 168.5 166.2 163.1 159 154.1 149 143.7 139.9 136.9 132 124.4 126 116.3 107.4 108 108.1 97.6 89.6 87.1 84.3
313.4 308.3 303.2 295.6 284.9 276.2 276.9 281.6 290 300.3 305.6 302.1 301.1 302.4 303.1 301 304.1 302.8 298.9 302.4 305.8 308.8 310.2 315.4 317.7 319.5 319.3 316.8 312.2 320.9 331.6 341.4 346.1 351.4 356.1 362.6 375.8 381.9 382.7 383.2 376.2 365.7 353.4 339.6 327.7 313.8 305.7 311.1 315.6 320.9 317.7 312.7 315.8 319.6 327.7 336.6 338.3 337.1 333 330.3 332.1 338 335.1 314.4 292 271.8 254.2 240.5 228.5 220.5 215.3 211.4 206.5 199 196.5 197.4 196.3 195.4 196.4 200.5 205.5 206.7 210.6 219.8 215.6 210.9 210.4 214 223.4 237.6 252.3 268.2 283.8 294.3 294.8 305 305.5 296.9 280.2 239.4 209.3 184.1 168.4 162.2 163.1 169.3 175.9 180.5 176.8 175 179.9 185.1 190.6 193.8 195.2 194.9 194 193 197.4 202.6 206.3 208.6 204.6 196.7 191.5 186.1 178.4 173.4 167.1 160.3 154 150.8 148.5 139.2 131.5 126.8 120.6 113.2 108.9 111.3 109.9 112.4 117 120.8 123.6 127.3 131.2 140.8 149.6 154.1 155.4 155.3 157.7 158.5 160.6 152.4 152.8 155 163.8 161.1 152.8 150.7 147.4 145.9 148.9 150 149.8 151.2 152.2 152.8 154.6 156.8 159.6 161 165.4 169.7 172.7 174.6 174.3 174.4 173.3 171.6 168.2 162.4 153.7 146 141.4 137.2 135.5 132.6 130.2 122.9 120.9 118.9 111 108.5 105.3 95.6 83.3 79.6
314.6 310.3 304.8 296 287.5 279.1 276.3 277.3 278.1 280.5 282.1 284.6 287.5 291.3 292.7 292.5 292.3 287.7 288.5 293.6 298.1 301.7 304.7 305.7 307.5 309.6 307.6 309.6 316.2 320.5 326.4 336.6 343.9 351.4 360.2 368.1 375.5 381.1 377.8 364.9 353 345.2 336.5 326.6 317.1 304.5 301.4 306 311.4 314 312.5 314.3 319.4 328.1 333.6 338.5 338.2 336.4 332.8 331.5 335.6 339.5 321.7 298.9 280.4 263.4 248.4 234.8 224.9 217.9 213.2 209.2 205.6 204.1 202.4 203.3 203.3 202.3 203 206 212 212.6 216.2 221.3 218.8 217.4 214.4 215.8 222 236.7 253.6 272.5 280.8 286.4 291 300.1 307.9 294.3 277.9 244.8 213.3 188 167.1 158.3 158.2 160.4 165.2 177.6 179.5 173.8 175 189.7 199.2 202.6 202.3 196.5 192.7 190.8 192.8 195.9 197.2 199.5 191.4 182.5 177.3 170.9 164.4 157.7 152.2 148.6 147.2 144.7 139 130.7 124.1 119.9 113.6 111.3 112 109.4 111 116.6 120.6 124.8 129 134.4 141.5 153 160.7 164.1 163.2 160.9 164.5 166.6 163.6 156.4 151.2 150.1 147.9 146.8 146.2 145.5 144.1 148 153.2 155.1 154.4 156 156.9 158.2 159.3 160 160.3 161.5 163.2 166.4 168.4 171.4 174.1 175.7 176 175.7 172.6 166.6 159.5 150.3 146.4 143.8 141.8 138.9 133.1 128.8 125 119.7 113.3 107.1 100.6 92.8 86.4 81.7
314 310.8 303.6 296.5 287.8 279 275.8 272.1 271.7 273.9 276.1 279.2 282.8 286.7 286.4 281 278.8 278.5 280 288.5 295 299 298.5 295.8 298.2 303.2 304.5 308 313.7 321.3 326.3 332.6 340 350.2 361.2 367.5 368.6 362.6 353.2 346.2 339.8 330.2 322.1 316.5 309.4 295.6 296.6 300.2 307.2 308.9 311.3 320.4 329.4 337.9 339.2 339.6 336.7 332.8 330.9 335.8 342.4 324.5 304.6 285.4 269.7 255.8 243.2 232.4 224.9 219.7 217.8 216.4 213.8 212.3 209.8 211.9 211.6 209.5 210.5 212.8 214.6 215.7 218.3 220.2 219.1 219.6 218.5 218 223.1 231.8 244.9 259.3 272.4 280.9 287.5 294.1 296.5 294.2 275.3 254.8 219.6 190.2 166.9 154.9 152.4 153.1 155.4 163.8 172.2 167.4 169 182.5 198.8 201.7 195.5 189.2 184.2 181.8 182.1 180.2 178.3 176.8 172.6 165 153.3 152.1 149.8 145.9 143.3 139.4 137.3 133.8 127.6 121 117.4 113.7 109.4 112.6 113.7 111.2 115 118.8 124.4 129 133.9 139.4 152.7 162.7 167.5 172.5 176 168.7 170.7 170.5 163.4 154.1 149.9 147.9 144.6 142.5 142.3 142.9 140.8 148 151.1 152.6 152.8 153.5 154.8 156.3 159.4 162.1 163.7 164.8 164.7 163.1 162.7 165.2 167.9 170.4 171.8 173.1 174.5 170.8 164.3 159.3 154.7 150.5 148.6 144.1 139.7 133.3 126.4 118.8 113.2 106.5 99.7 91.4 87.2 81.3
315.4 309 303.8 299.2 285 281.7 282.5 274 269.2 269.8 273.6 277.1 280.9 275.9 273.9 273.6 276.9 281.5 282.7 286.1 288.5 293.4 295.8 299.2 302.6 306.4 309.5 312.3 316.1 321.4 327.6 333.4 337.7 343 347.1 348.6 345.5 342.1 337.2 332.2 326.1 318.1 313.3 306.1 296.1 285.9 291.2 294.4 299 304.4 319.9 329.7 337.5 342.9 340.3 335.8 332.6 329.5 333.4 339.5 329.7 308.6 286.2 272.5 261.6 251.9 239.5 231.8 226.1 223.6 223.6 223.2 224.8 222.6 216.3 217 215.2 213.4 213.7 213.3 211 210.3 212.2 213.3 212 214.8 216.6 216.5 221.7 230.4 246.7 267 278.9 294.5 297.7 298.8 298.1 290.8 271.2 247.1 218.2 194 177.2 166.5 154.6 147.5 148.7 152.5 155.1 156.1 160.9 171.3 179.5 183.3 181 176.5 172.5 169.2 166.3 163 159.9 156.4 153.4 152.3 149.4 144.8 142.7 141.1 137.5 133.7 128.3 124.1 120.1 116.7 113.6 110.7 108.8 109.8 113.5 113.4 117.6 121.7 126.5 131.3 139 147.6 158.5 165.6 170.8 174.4 175 164.4 160.7 158.3 153.1 149.6 146.2 144.3 141.9 143.3 146 145.9 143.6 140.9 139.4 139.5 144.2 148.6 150.9 155.7 161.6 163.3 162.2 161.7 162.3 162.3 160.4 158.4 160.9 164.1 166.5 167.7 169.2 169.7 168 163.9 161.2 156.8 152.7 147.2 140.4 133.1 125.9 118 107.7 101 93.9 89 83.5 80
310 307.1 299.4 294.8 285.7 283.5 278.4 277.2 271.2 266.6 269.7 268.8 269.2 269.9 270.6 273.5 277.9 283.5 289.1 290.4 296.3 300.7 302.7 303.9 307.9 311.4 316.3 318.2 323.6 326.3 330.2 331.9 329.8 329.7 329.8 329.5 327.9 326 322.4 316.5 311.8 306.8 301 292.1 280.5 276.4 282.4 285.7 290.8 306.4 328.1 335.1 338 334.5 331.5 327.6 324.6 324 332 331.8 311 290.4 271.9 261.6 254.7 245.5 236.5 231.1 227.4 224.8 224.7 224.8 225.7 226.3 218 214.5 211.8 208.5 208.4 207.7 205.8 203.5 203.2 204.2 205.6 209.6 209.8 213.2 223.9 234.4 251.8 266.8 275.7 281.5 282.7 284.3 278.5 268.6 254 244.1 219.9 198.9 184.9 171.2 159.7 150.2 145 145 146.9 149.8 151.6 156.6 161.5 163.1 161.9 162.1 160.7 162.3 161.8 159.1 156.3 153 149.4 147.9 146.2 144.6 142 134.6 132.8 126.9 120.3 117.2 115.9 113 110.1 109.3 109.3 110.3 112.6 114.2 118.9 123 129.1 136.6 145.7 153.5 159.5 165.6 169.1 168.3 159.5 151.9 148.9 146.1 145.3 144.4 144.5 147 147.9 148.6 149.1 148.7 148.7 148.6 148.4 147.5 142.9 135 148.3 152.5 155.5 158.1 159 159.3 160 158.4 156.4 154.3 155.2 157.9 160.5 162.3 162.7 162.9 163.1 162.5 160.5 156.9 152.5 145.9 138.8 128.2 118.3 109.3 100.4 93.3 88 83.8 80.9 79
309.7 307.5 303.9 296.8 289 283.2 276.9 274 268.8 264.7 265.8 266.5 268.9 270.5 273.2 275.3 281 286.7 292.3 296.6 303.9 311.5 317 313.5 315.9 318.3 325.4 323.3 327.5 329.6 330.8 329.8 323 318.9 315.8 313.8 309.6 306.5 304.4 303.3 300.7 295.2 286.9 273.4 268.8 268.7 270.6 279.3 288.3 298.8 314.1 320.4 320 320 319.7 318.4 314.9 318.5 322 309.6 293.9 273.1 260.6 252.7 246.8 239.9 233.3 229.2 224.9 221.9 221.4 222.1 221.9 217.9 211.9 206.8 203.3 201 200.7 200.6 197.2 192.9 197.1 198.1 200.9 203.4 208.2 216 224 230.8 242.1 252.2 260.8 264 267.2 266 269 264.2 251.5 232.1 210.5 195.1 184.5 169 158.1 148.9 143.9 142.9 145.1 145.7 148.3 152.7 154.1 156.5 157.6 157.7 159.7 161.1 162.2 161.8 158.5 155.9 152.1 148.6 144.2 138.9 135.5 130.2 125 120.9 117.5 113.4 112 110.2 110.1 111.2 112.1 112.9 115.7 118.4 122.8 128.9 135.4 141.9 148.5 154.5 160.8 165.3 163.4 157.3 152 148.5 146.6 147.2 147 148 149.1 151.2 152.8 152.6 150.9 150.1 149.9 150.3 150.1 148.8 144.5 132.5 148.4 150.5 153.6 155.3 155.6 155.8 155.3 154.7 152.9 152.6 152.2 152.8 155.9 156.8 157.1 156.8 156.9 156.3 155 150.7 143.7 135 123.3 113.9 106 98.8 93 88 83.9 81.7 79.4 77.9
311.8 305.3 302.4 299.9 288.1 281.1 275.2 275 270.7 270.4 272.4 274.1 273.6 274.7 277 281.2 288.4 294.1 299.4 305.5 311.3 319.4 326.9 330.3 324.1 325.7 331.3 329.6 331.8 330.8 312 314.5 307.4 300.9 301.2 297.7 295.9 297.1 295.4 291.7 289.2 278.2 267.3 256.9 259.3 258 266.4 272.2 279.1 290.5 301.3 304.2 303.6 301.4 301.7 305.4 303.7 314.3 310.6 293.3 278.1 260.4 250.1 245 239.8 234.5 229.5 226.2 221.9 217.1 216.4 214.8 213.2 208.5 203.4 199.3 196 194.2 190.7 191.3 189.8 184 186.9 187 191.8 207.7 217.8 231.3 234.9 239 245.1 249 256.7 258.7 257.6 254.5 247.9 237.3 226.3 211.7 195.3 180.9 168.8 159.7 151.2 145.2 140.9 144 145.5 148.5 151 152.8 152.7 153.1 154.8 155.7 157.1 157 157 156 153.6 150.4 146.9 142.2 135.9 131.1 126.3 124.1 121.9 119.1 116 112.6 110.4 110.3 110.2 111.6 114.2 116.1 119.9 124.2 130.1 136.6 142.5 148.3 155.4 161.7 167.1 167.2 158.1 153 147.6 148.5 148.2 147.8 148.8 149.4 150 151.6 152.5 151.8 151 150.1 150.1 149.9 148.9 144.6 136.8 130.9 140.3 143.5 140.3 135.4 133.5 133.2 134.3 141.2 142.2 147.8 149.3 150.2 149.7 151.3 151.5 150 149.2 144.8 140.2 134.3 127.4 118.1 109 101.7 96.4 90.2 86.1 82.6 80.7 79.3 78.2 78.6
305.2 302.1 300.2 293.3 279 276.8 273.9 264.5 263.7 272.9 275.4 274.7 275.8 278.6 283 287.7 292.8 302.5 308.1 314.6 323.4 329 334.1 336.1 328.2 329.5 332.8 330.6 326.5 307.3 291.2 296.6 294.1 293.2 293.5 289.7 287.1 285.1 282.7 271.1 259 251.8 248.3 245.6 251.3 251.1 259.8 265.8 273.4 285.8 296.6 296.3 295 292.3 291.1 293.4 293.6 292.6 286.2 276.1 262.3 250 241.8 237.5 232.1 226.9 223.7 219.5 216.4 211.4 205.7 202.8 202.6 200 196.6 193.1 190.1 188.2 180.4 176.9 175.8 169.8 174.8 178.7 192.6 208.3 221.7 233.9 235.3 231.5 229.8 233.9 238 233.4 230.2 224.7 221.6 213 202.1 189.6 175.1 162.5 156.4 149.6 141.7 141.3 146.4 147.2 147.6 149.1 150.1 150.3 150.4 150.6 151.1 151.2 151.6 151.1 149.6 146.3 141.3 137.1 133.1 129.8 126.5 122.4 119.5 117 116.2 117.6 115.1 111.9 110.9 110.5 111 112.8 116.8 120.7 123.6 129.6 136.3 143.6 150.6 159.8 164.9 169.9 165.9 157.8 153.6 151 149.8 150.7 150.9 153.1 154.4 155.3 155.4 156.4 156.5 154.2 153.3 151.5 150.6 150 148.8 145.3 142.6 138.9 136.4 136.9 136.3 137.3 134.8 129.9 121.7 119 133.6 146.7 147.5 147.5 145.8 139.6 144.1 142.3 140.7 131.5 126.5 116.8 109.3 103.9 98.5 95.6 89.8 85.5 83.1 81.4 80 79.4 79.6 79.5
303.1 299.7 292.5 275.5 270.5 267.9 259.3 259.1 267.4 269.8 272.2 276.3 279.6 285 291.8 298.3 304.5 311.4 319.6 326.7 331.4 336.6 337.4 339.2 336.2 334.5 331.7 329.4 316.4 291.9 279.4 285.6 287.3 284.7 282.8 277 277 265 255.1 245.4 239 236.8 235.3 234.5 245.5 252.1 256.6 263.6 272.1 278.8 284.7 286.6 287.8 287.1 287 286.6 278.8 273.3 267.9 261.3 247.4 238 233.2 228.4 223.2 219.5 215.9 213.4 208.7 203.4 193.4 189 192.1 193.5 191 185.1 181.6 176.5 171 164.6 165 159.5 162.3 175.1 185.6 199.4 205 206.3 204.1 204.2 202.3 202.8 207.7 204.3 202.1 198.8 196 194.5 182.4 165.4 155.6 149.6 144.4 136.2 138.5 144 147.1 146.8 145.6 145.7 143.5 146.7 147.9 146.5 145.7 144.4 143.6 141.5 137.7 135 129.6 126.3 124.6 121.2 118 115.8 114.7 114.2 115.2 115.2 112.2 110.8 110.5 110 113.3 117.8 121.5 125.1 130.1 135.3 144.9 155.1 166.2 168.8 170.5 169.1 161.1 156.5 153.8 150.8 153.2 155.3 157.5 159.6 160.8 162.3 162.3 161.1 159.6 155.8 153.1 153.1 153.6 153.5 154.5 153.9 152.8 152.8 151.5 149.1 147.6 147.5 144.3 139.9 132.7 118.3 123.4 138.5 141.6 144.1 145.2 142.1 129.4 124.6 125.9 119.4 112.7 108.5 105.4 101.5 99 94.5 89.2 85.4 83.4 82.3 80.9 80.6 80 79.4
292.4 281.8 268.4 260.8 253.9 250.3 257.7 267.1 272.7 274.4 276.6 281.2 287.9 298.4 306.6 313.3 318.8 322.3 332.1 337.2 340.9 337.9 339.9 344.6 341.3 332.9 331.4 327.9 314.9 289.2 270.6 273.4 270 265.4 265.6 262 248.9 241.8 235.6 231.1 227.2 225.9 221.7 233.5 242.6 247.9 254.7 260.2 264.9 269.3 272.6 277.2 281.2 284.8 285.1 287.5 270.2 258.5 252.1 242.8 234.1 227.9 224 220.4 216.3 211.4 207.8 204.3 198.7 191.1 184.7 180.1 191.4 190.9 181.7 176.9 171 164.8 159 153.1 149.7 145.8 154.3 162.6 163.4 168.3 173.3 172.8 172.4 182.7 176.9 172 179.3 182.8 185.5 186.6 174.6 164.4 154.7 144.6 139.2 134.5 130.9 131.7 137 139.6 141.6 140.8 139.5 134.9 136.8 140.7 139.4 137.4 136.3 131.2 130.9 130.4 125.8 123 119.9 118.2 116.6 115.1 112.9 111.4 112.1 111.1 111.2 112.4 111.6 110.4 111.3 114 118.5 121.7 126 131.3 136.2 142.2 156.3 173 176.9 175.9 177.7 164.2 157.9 156.2 153.2 152.1 156.2 159.3 162.3 165.3 168.3 170.1 169.6 167.3 164.4 161.6 159.4 158.9 159.3 160.9 160.9 159.3 160.6 160.3 160.6 159 154.8 149 142.9 137.1 131.6 120.3 111 127.9 137 140.2 145.2 142.5 133.1 125 111.9 109.3 105.9 102 99.8 98.2 95.7 91.6 88.8 86.1 83.9 83 82.1 80.8 79.6 78.8
270.9 262.3 254.9 246.3 255.5 262.6 269.4 273 276.9 280.1 288.2 297.2 304.3 312 317.9 321.8 327.1 332.6 335.1 337.3 340.5 345.3 351.1 351.7 341 338.8 336.4 319.6 302.5 278.3 266.6 261.6 255.7 250.7 244.2 240.5 235.3 231.7 228.2 226.6 226 223 215.8 225.3 237.8 244 246 250.7 257.4 258.5 266.2 275 280 281.7 282.5 276 260.2 248.2 236.4 226.9 222 220.1 217.2 213.5 208.6 203.9 199.6 195.5 190.3 185 179.3 174.8 179.8 177.7 174.1 166.1 157.4 152 142.3 140.3 138.4 134.6 132.4 134.1 135 136.1 140.3 143 144.7 149.3 150 148.7 150.6 155.4 156.9 151.7 144.5 136.5 132.1 128.8 127.1 125.8 125.4 128.2 130.2 131.4 131.1 129.9 128.7 126.8 126.6 126 125.3 125 123.7 122.8 121.3 118.9 116.4 115.1 114 113.3 112.4 111.6 112.8 116.3 117 116 117.7 114.7 112.4 112.9 115.1 120.5 124.3 129.2 133.6 138.3 143.1 150.7 173.3 182.7 177.4 173.7 160.4 156.1 154.5 152.2 155.1 157.5 160.4 164.3 168.1 171.3 173.6 175.6 174.5 171.7 167.7 165.3 163.1 160.9 161.2 162.1 163.2 162.6 165.3 164 161.4 156.5 150.8 144.7 137.2 130.2 125 119.3 111.2 107.3 124.7 128.1 130.5 127.7 120.4 114.4 106.2 102.2 99.4 96.2 94.5 93.2 91.3 88.5 86.6 85.7 83.9 83.1 82.8 81.6 80.3 79.2
256.5 249.4 243.4 246.8 256.1 262.5 268.9 274.1 280.2 289 298.5 309.6 317.9 320.6 324.8 332.2 337.1 343 347.7 347 350 350.4 353.4 350.1 349.9 345.4 334.2 324.3 301.2 276.6 270.5 272.1 272.5 267 261.1 251.1 242 235.5 235.6 235.6 234.2 231.2 218.2 207.3 219.5 230 238.5 244.1 246.6 253.1 255.6 259.6 261.5 260.5 249.8 247.4 239.6 230.5 217.4 215.8 213.7 214.5 211.5 206.3 201.5 197.5 193.7 189.4 184.5 178.4 173.2 154.2 163.6 167.2 162.8 156.9 149.5 140.3 133.5 131.7 130.1 129.3 128.7 125.6 123.6 122.5 123.5 125.4 129.7 130.3 132.5 135.1 134.8 131.8 128.6 125.7 125 123.9 123 121.3 121 121.3 121.8 122.7 123.5 122.8 123.1 122.5 122.1 121 120.6 119.6 117.8 117.8 117.5 116.6 116.3 114.3 113.2 112.7 112 112.2 112.4 112.3 115.1 116.9 116.6 116.1 114.1 111.7 115.4 118.7 122.5 125.7 130.7 135 140.9 143.5 147.6 158.3 170.1 170.2 161.2 157.3 153.5 154.1 156.4 159.5 162.1 164.4 165.5 165.1 165.1 167.5 169.8 171.8 172.7 169.2 165.3 161.4 157.1 156.1 155.9 154.9 155.7 156 157 156.2 154.8 150.5 145.8 139.6 131.5 126 123.2 119.5 115.2 110.1 108.5 106.4 103.4 107.7 106.5 103.3 99.7 96 94.7 92.2 88.8 88.3 87.4 86 85.8 85.1 83.1 82.3 82.6 81.5 80.7 79.7
243 240.6 240.3 246 254.4 267.3 277.7 286.9 296 305.9 310.5 315.6 326.2 328.7 336.5 341.9 347 351.5 354.7 355.8 356.9 353.7 350.9 349.8 350.7 344.5 335.3 330.1 318.2 293 278.7 280.4 281.8 282 278.9 273.6 260.1 244.6 245.1 243.1 240.1 235.8 226.3 215.8 204.9 203.2 211.8 224.8 230.2 239.5 240.7 241.9 241.8 240.9 235 226.7 218.7 213.6 208.1 207.1 208 205 202.6 198 195.2 192 190.4 185.5 179 173.6 169.4 165.1 151.7 146.1 150.9 144.4 138.8 130.7 129.3 126.8 125.4 125.2 126.9 123.3 122.3 121.1 121.3 121.8 122.5 122.5 124.4 123.3 119.8 118.9 118.5 118.2 119.5 118.7 118.6 117.9 118.5 119.6 119.2 119.2 119 119.4 119.4 119 119.5 118.5 117.2 116.3 115.4 114.7 113.6 113.8 113.2 112.8 112.6 112.3 112.5 112.4 112.5 113.5 115.1 115.9 118.2 119.3 118.8 121.9 123.3 125.4 126.5 131.5 135.2 138.9 145.2 151.6 159.3 161.1 163 159.6 156 155.4 158.7 161.1 162.8 164 163.2 163.3 163.2 161.6 160.7 162.3 164.6 166.2 166.4 164.5 160.7 156.8 152.5 151 150.2 148.4 147.7 148.2 148.8 148 146.8 144.8 139.8 138.3 133.8 130.4 127.4 124.4 118.9 112.5 109.9 107.4 107 105.2 100.3 97 96.8 94.6 93.6 92 91.4 89.1 86.7 85.1 83 83.3 82.5 82.1 82 80.9 79.7 79.3
240.4 238.2 239.4 248.9 258 275.2 288 300.3 309.8 320.2 328.2 327.4 331.5 337 343.3 348.6 350.7 354.4 356.2 352.1 353.2 350.4 340.4 345.1 350.2 352.6 346.4 343.6 327.9 309.7 292.8 295.8 294.7 290.8 283.6 275.3 261.4 260.5 258.9 255.1 248.9 244.5 232.9 221 214 208.1 200.5 189.5 209.3 219.8 224.7 224.4 223.1 222.2 218.2 212.2 206.1 204.5 200 196.9 196 195.2 194 191.8 188 187.6 183.8 180.9 174.3 167.8 159.5 151.6 141.7 135.7 132.9 129.9 126.6 125 124.4 122.8 122.2 121.5 121.9 121.2 120.5 120.6 120.5 120.5 120.2 120.1 119.9 118.3 118.3 118 117.7 117.6 117.1 116.7 116.1 116.7 117.6 117.5 117.5 116.9 116.2 117.4 119.3 120 118.9 117 114.8 114.4 113.9 113.5 112.8 112.9 112.8 112.7 112.5 112.3 113.1 114.3 114.7 115.1 116 119.6 124.3 127.8 129.1 130.2 131.9 133.1 138.7 142.1 144.1 149 153.2 158.9 165.1 165.5 160.2 157.1 154.9 159.5 162.4 161.6 160.5 159.9 159.9 160.4 159.4 158.5 157 158 159.8 162.5 163 160.9 158 154.3 151.1 148.9 147.5 146.4 145.4 145.2 144.3 143.5 143.1 141.6 144 143.7 141.9 136.3 131 126.1 120.8 116.1 113.7 114.3 114.8 114.4 111.4 106 101.4 97.8 96.1 94.8 93.7 93 89.5 86.8 79.7 81.3 82.7 82.1 81.6 74.6 75.5 74.7
243.9 236.3 244.5 257.6 263.3 272.8 289.3 307.5 320 328.1 333.5 340.5 343.9 347.2 347.9 347.9 348.6 351 349.2 342.4 334 327.1 318 333.4 352.5 358.5 362.9 354.9 343.1 326.9 308 300.8 296.4 288.1 283.7 275.8 272.4 273.9 277.9 279.9 273 258.8 242.5 227.1 217.7 212.8 208.4 200.3 182.4 193.5 205 210.2 211.4 205.1 202.7 196.8 196 193.9 191.2 189 187.8 188.5 190.1 189.4 187.7 179.9 180.9 174.8 167.9 159.5 152.3 142.7 134.8 131.2 129 125.9 124.3 123.2 122.3 121.8 122.6 122.1 121.3 120.6 120.2 119.8 119.7 119.8 119.2 119.2 118.8 118.6 117.9 118 118.1 117.1 117 116.7 116.6 116.4 116.6 116.3 116.2 116.1 115.6 115.5 117.1 117.5 115.3 113.7 113.7 113.6 113.4 113.2 112.6 113.2 113.1 112.9 113.5 114.6 115.8 117.2 117.6 118.9 121.7 128.1 133.2 136.6 141.2 145.9 147.6 148.7 150.8 152.8 157 160.2 163.9 164.2 163.5 160.1 157.7 155.3 156.1 158.7 158.8 158.8 159.4 158.7 158.6 157.4 157 156.2 156.3 157.6 160 163 164.3 162.9 159.8 155.4 152.2 150.1 148.6 147.3 147.5 147.3 148.3 149.3 150.2 150.3 150.3 148.2 143.6 138 133.2 128.5 122.9 120.5 121.1 123.3 123.9 118.9 113 106.9 103.6 99.8 97.7 94.9 93.4 92.1 89.1 86.5 83.4 77.8 79.1 79.4 75.7 75.8 76.3 76.2
239.9 236.2 248.5 265.4 273 280.3 291.9 302.8 320.3 331.1 338.6 345 348.4 347.3 349.8 345.8 341.3 337.9 332 323.8 314.4 304.8 301.9 322.9 347.3 365.8 370.4 364.7 351.5 330.6 310.2 301.4 299.7 295.5 292.4 288.2 286.6 289.3 293.6 295.7 289.9 274.1 251.8 233.1 222.1 217.6 215 208.2 196.5 178.4 183.4 193.3 196.5 193.6 192.5 188.3 188.2 185.5 185 182.3 181.4 183.7 185.7 182.6 180.3 178.3 171.8 165.3 155.5 148.3 142.1 135.8 128.8 126.8 125.7 123.1 123.1 122.6 123.7 127 131.4 128.1 124.8 126 127.4 123.1 120.2 120 119.4 119.4 118.2 117.9 117.7 117.5 117.3 117.6 116.5 116.8 116.5 116.4 115.8 115.7 115.6 114.7 114.6 114.5 114.4 114.2 114 113.9 113.8 113.6 113.5 113.7 113 113.6 114.3 115.5 117.7 118.2 120.3 122.4 124.3 127.1 134.6 143.8 147 149.9 156.7 163.2 167.9 168.6 166.5 172.1 173.1 169.3 166.2 162.1 158.8 157.5 156.1 154.5 154.4 156.3 157.3 157.8 157.1 156.9 156.2 156.2 155.9 156.7 157.6 158.5 162.1 165.1 165.7 163.3 161.5 158.8 157.2 156 155.1 155 155 154.7 155.2 155.8 153.3 149.6 149.3 146.9 142 141.4 139.1 134.9 133.3 134.9 135 131.6 125.6 118.4 110.7 105.3 100.4 96.4 93.6 91.5 90.5 89.9 88.1 85.8 84.2 81.9 75 74.2 76.8 76.5 75.9 75.9
234.6 238.5 261 275.7 279.9 289.6 300.8 312.7 322.3 331.9 343 350.3 347.9 349.5 349 346.1 341.5 332.3 315.8 303.4 294 287.3 289.2 308.2 330.3 346.5 353.3 351.3 339 323.5 309.7 304.2 302.1 299.4 296.9 298.4 306.5 313.3 309.6 308.7 301.5 290.4 262.2 240 229.9 221.4 214.6 210.3 204.1 194 171.5 171.5 182.8 184.1 182 174.3 171.4 177.5 175.8 174.6 171.1 181.2 180.1 175.3 170.7 166.8 162.5 153.2 141 137.3 133.4 128.8 125.9 125.6 124 124.1 124 127.6 136.8 142 145 145.9 140.6 133.1 127.4 123.4 122 121.8 121.1 120.6 119 118.9 118.6 117.8 117.2 117 116.6 116.7 116.7 116.3 115.8 115.3 115.2 114.9 114.7 114.9 114.7 114.4 114.2 114.1 113.9 113.6 114 114.6 116.7 118.4 120.2 121.8 124 126.4 128.1 130.4 134.1 143.7 153.3 157.2 160.1 167.3 173.6 176.7 178.2 180.1 184.4 186.9 180.6 168.5 161.8 158.7 157 155.9 155.1 155.7 155.7 155.5 154.8 155.6 155.8 155.8 155.8 156.2 156.9 158.8 161.6 163.8 167 169.7 171.1 171.6 170.4 168.1 165.4 163.1 162.5 161.2 159.5 157.3 156.6 155.3 149.2 142.5 142.5 140.7 136.5 135.2 136.5 135.9 137.4 137.1 132.5 126.5 118.9 113.2 107.8 102.1 96.9 92.6 89.9 88.4 87.6 86.8 85 83.2 81.8 77.4 74.1 76.4 77 75.9 75.8 75.6
233.1 239.6 264.6 284.1 287.5 293.1 306.7 327.1 338.9 345.5 347.1 346 350.9 351.6 346.9 340.3 333.7 323.8 315.5 293.9 275 273.1 275.5 295.2 317.6 330.7 336.7 339.1 328.1 317.9 310 306.7 303.3 299.2 299.3 303.4 310.3 320 326.6 316.9 308.7 301.9 276.3 251.4 238.1 226.6 216.8 209.2 201.3 195.5 185.8 170.5 164.6 168.7 163 155.8 151.3 163.1 168.5 168.5 160.8 168.1 166.8 162.7 157.1 155.2 146.8 140.2 134 132 129.5 127.1 125.9 125.1 124.5 125.7 128.3 135.7 149.1 163.4 174.4 161.8 145.7 136 128.8 124.8 123.9 123 121.9 121.2 119.9 119 118.2 117.6 117.4 116.8 117.3 116.3 116.5 116.3 115.9 115.5 115.3 114.8 115 115.2 114.3 114.5 113.7 114.6 115.3 116.9 119 121.5 123.9 125.8 127.8 130.8 134.3 137.4 141.1 142.5 148.3 159.4 164.1 169.6 173.7 179.8 186.5 191.3 198.6 203.5 202.3 183.6 168.3 160.7 158.6 156.4 155.9 156.1 156.4 155.9 155.5 155.7 156.5 156.5 156.5 156.5 157.4 159.4 161.6 164.4 167.1 170.1 173.2 178.3 180.4 180.1 178 175.8 171.8 168.4 164.4 159.5 156.6 153.6 150.5 147 142.7 137.8 136 132.2 129.8 127.9 128.3 128 127.6 124.5 119.9 115.5 111.8 106.4 101.8 96.3 92.2 85.3 87.9 86.9 85.9 85 83.8 81.9 75.2 77.1 76.8 77.9 77.9 78.6 76.5 80.3
233.8 246.7 265.4 287.2 300.5 307.6 316.3 327.8 336.5 341.8 344.3 344.3 346.4 344.3 338 330.4 320.6 307.5 291.3 279.1 263.7 261.1 265.1 282 297.2 312.1 317.7 316.3 310.1 304.7 299.5 295.9 294.6 294.3 296 300.4 306.4 319.1 328.3 318.7 311.4 304.5 292.5 263.9 245.8 234.3 224.4 211.9 201.4 190.9 186 178.1 168.6 162.8 163.2 168.1 156.9 147.4 145 150.6 160.1 148.6 151.5 148.8 145.4 140.2 133.2 130.5 130.2 129 127.3 126.1 125.3 124.7 128.5 134.3 141 154.3 170.3 181.1 188 175.7 166.4 149.7 136.9 129.4 125.9 124.6 122.5 121.4 120.7 120.3 119.1 119.4 117.5 116.8 116.6 116.2 116.1 115.9 115.9 115.7 115.5 114.9 115.2 114.5 115.1 114.6 114.7 119.3 123.3 126.1 129.6 132.3 135.5 138.7 139.4 143.5 151 156.5 160.8 164 172.2 175.5 182.1 185.3 194.8 204.1 215.4 216.3 213.5 201.6 182.4 168.5 159.1 157.2 156.7 156.7 158.1 157.9 156.9 156.6 156 156.6 157 157.4 158.5 160.5 164.1 166.9 171.7 172.4 173.8 175.2 182.7 186.8 185.9 184.1 181.6 177.6 173.8 168.3 161.3 155 148.4 141.7 137.3 131.6 129.8 128.9 127.5 124.1 121.6 118.8 118.3 118.2 116.7 112.5 109.9 106.3 101.9 98.7 95.5 89.1 86 85.3 85.3 86 85.8 84.6 83.8 82 76.9 77.4 77.9 77.8 78.4 84.7 87 86.5
239.9 257.7 275.5 296.1 309.8 320.7 328.1 332.4 335.4 336.3 337.6 335.4 334.8 332.5 323.3 312.5 295.1 278.2 269.6 260.5 251.8 251.4 254.8 268.6 277.1 288.5 292.4 291.5 289.9 286.7 282.7 281.6 284.2 287.2 289.3 293.9 303 318.9 316 311.9 310.5 310.2 304.3 286.2 274.4 248.4 226.5 215.5 208.5 196.1 187.3 180.2 177.5 173.7 170 167.4 163.7 148.3 148.7 141.3 141 141.7 138.4 137.6 135.2 133.5 131.7 130.2 128.8 128.3 127.2 125.9 126.3 128.1 134.9 142.7 155.5 175.8 196.1 202.4 206.8 203.3 181.8 157.3 139.8 129 126.7 125.5 125.7 126.3 124.2 123.8 123 120.7 119.8 117.6 117 116.3 116.2 116.2 115.7 115.2 115.3 114.7 114.3 115.4 117.5 120.5 124.9 129.8 134.6 139.3 150.5 155.8 155.3 159.5 165.5 168.7 176.2 177.1 179.4 181.5 184.8 192.9 200.9 213.4 222.5 234.2 231.6 206.5 192.3 176.3 166.4 160.1 158 158 158.1 159.1 159.1 159.1 159.7 158.7 158.9 157.7 158.6 161.3 163.4 169.4 180.3 193.4 197.5 191.9 184.5 181.9 183.1 189.2 190.7 188.9 184.6 178.9 171.5 161.3 151.9 143.1 136 127.7 123.1 119.9 119 120.6 118.4 116 114.5 113.1 111.4 109.7 107.6 102.6 100.1 98 95.5 92.5 86.6 86.5 86.2 85.6 86.2 85.8 84.8 84.1 83.4 80.8 75.1 76.4 78.4 78 81 86.6 88 88
246.7 260.7 285.7 299.7 307.8 316.7 323.9 328.8 329.4 328.5 328.7 326.3 322.2 316.5 301.4 285.6 271.5 257 251.4 247.1 244.3 244.7 249.8 253.6 255.4 264.2 266.3 270.5 271.7 270.4 270.2 272.5 280.6 282.7 286 289.5 301.1 309.4 312.1 314.6 313.9 318.5 311.7 296.5 280.8 256.5 243.6 229.1 223 208.8 195.1 183.2 175.3 170.1 165.7 156.1 159.2 165.9 162.3 157.9 141.8 137.3 136.2 135.2 133.8 132.9 131.5 130 128.5 127 126.3 126.4 130.6 137.5 147.6 159.3 175.4 196.1 220.1 236.8 230.3 205.2 174.8 154.1 139.4 129.7 131.7 130 131.3 133.5 129.8 129 129.2 127.9 126.2 122.2 120.4 117.6 116.3 116.1 116.3 115.8 117.1 120.3 121.5 125.2 130.5 135.4 140.9 145.7 152.2 159.5 169.4 174.3 177.6 181.1 186.1 187.5 191.4 194 199.7 207 206.1 216.7 226.6 235.3 243.4 238.9 223.4 197.1 174.4 167 162.4 159.3 157.9 159.8 160.2 162.5 163.7 164.8 165.1 163.1 162.3 164.3 169.5 170.4 172.8 180.1 195.4 203 204.3 206.3 201.4 197.7 190.2 188.6 189.2 186.7 182.2 171.8 158.8 152.3 143 133 127.6 122.7 117.5 113.8 111.2 112.1 112.7 110.9 109.3 108.2 106.4 103.4 99.2 94.9 94.9 93.1 89.2 87.9 88.4 86.9 86.8 85.4 84.9 83.9 83.5 83.6 83.6 80.5 76.1 77.5 78.4 79.2 85.6 89.3 89.8 93.9
252.6 261.2 281.4 303.2 309.9 315.2 320 322.5 321.5 322.3 318.5 313.8 304 294.1 279.3 265 257.1 250.6 244.1 240.3 240.1 239.9 239.5 241.4 243.8 247.6 252.7 257 260.3 262.2 262.8 265.7 270.2 272.6 272.8 284.5 304.7 324.5 325.3 319.6 315.4 310.1 301.3 289.9 274.5 251.6 240.5 233.9 226.5 212.1 200.5 190.5 177.3 170.6 165.1 167.1 168.6 164.6 158.9 151.2 139.4 136.8 135 134.2 133.1 132.4 131.4 129.9 128.5 126.7 127.9 132.8 142 153.8 165 180.8 198.8 225 249 260.5 228.9 195.2 172.5 155.2 143.8 133.3 136.8 137.6 138.6 137.6 138 134.6 135.5 135.6 134.2 130.6 129.6 123.1 122.6 125.9 128.7 131.2 133.8 138.1 141.9 149.9 155.7 161.1 168.6 172.3 178.8 182.4 190.1 197.6 202 205 209.9 211.9 216.5 220.9 229.4 230.4 225.5 233.7 248.4 247.2 238 222.9 205.8 185.2 170.7 165.4 160.8 159.3 159.7 162.4 166.1 168.9 171.3 172.2 170.8 172.6 175.4 184 189 185.3 185.1 186.9 195.1 204.3 213.4 219.3 222.7 212.9 199.1 190.4 186.1 183.3 178 165 156.6 149.8 138.6 131.8 126.8 123.4 119.9 114.5 109.3 104.7 107.4 106.4 104.4 103.1 101 97.5 93.7 90.3 90.2 89.7 88.6 87.6 87.2 86.4 86.5 84.8 83 82.3 82 81.5 77.7 80.3 76.6 76.6 78 85.5 90.3 94.9 96.6 96.1
255.1 264.1 277.3 293.2 306 312.8 319 318 316.9 314 308.3 300 286.8 270 262.8 256 250.1 244.6 239.5 237.1 236.4 236.4 236.1 236.8 240 243.1 246.9 251.1 255.9 256.8 255.6 256.9 261 264.8 270.9 283.1 302.1 319.5 323.1 315.5 307.5 306.1 294.3 277 259.2 239.4 230.9 224.1 215.2 203 192.8 187 175.9 171 173.7 172.1 170.8 168.4 158.2 141.4 136.9 134.8 134.1 134.2 132.6 131.8 130.9 129.8 128.8 129.7 136.7 151.4 163.3 176.4 191.9 209.7 230.9 252.4 271.6 253.9 220.6 193.2 175.5 162.9 151.1 138.9 141.2 142.2 142.2 142.2 147.6 144 142.2 142.7 139.9 139.5 137.9 133.1 146.6 147.9 152.6 157.6 164.9 167.7 175.5 185.5 188.6 192 193.5 200.6 206.4 207 212.8 219.9 225.1 231 237.7 242.2 243.5 240.4 243 240.9 242.5 247.5 243.4 231.5 217.7 204.9 188.4 175.3 168.4 163.7 160.7 160.1 161.9 167.3 171.4 176.3 178.5 177.4 183.4 186.8 195.2 199.7 197.1 189.4 189.9 191.2 197.6 206.4 216.3 223.2 222.5 215.1 207.1 196.7 186.2 180.8 171.5 166.9 165 154.6 139.8 131.3 127.3 122.4 116.3 111.4 105.8 102.7 99.4 100.5 96.9 95.8 94.1 92 91 89.6 88.6 88.2 88 86.9 87 85.8 83.7 83 82.8 83.3 83 82.9 83.5 82.4 75.7 77.4 79.2 89.7 95.1 97.4 97.7 95.3
271.2 280.2 289.3 305.1 311.6 314.4 313.5 311.6 311.4 308.6 300.5 287.1 265.8 257.2 252.8 248.7 244.6 240.9 236.7 234.8 235 235.3 235.2 236.2 238.5 242.1 245.7 247.8 250.9 250.5 254 256.9 261.7 265.4 271.6 279.9 298.7 316.2 317.2 307.3 299.8 294.2 285.5 270.2 246.6 225.6 216.7 208 199.7 193.6 188.3 178.6 176.3 178.4 177 175.1 173.4 168.1 153.9 136.9 133.8 133.4 133.1 132.9 132.3 131.1 130.1 129.6 130.3 138.7 155.2 164.6 177.8 198.8 218.6 237.9 257.8 276.8 276.3 251.4 221.2 199.7 183.2 170.7 155.3 145.9 147.6 146.9 149.9 153.9 154 153.8 149.4 149.5 147.2 145.6 145.8 148.9 163.1 170.9 175.3 179.7 189.6 199.7 208.1 216.8 217 214.4 219.2 227.2 231.8 232.5 239.1 245.7 247.9 253.3 254.8 249.9 247.2 245.6 244.4 248.4 243.7 233.3 223.3 215.9 206.9 197.9 182 172.4 165.5 163.2 162.5 160.9 165.7 171.3 176.8 181.7 184 191.5 195.3 201.1 203.1 203.1 199.1 195.8 196.6 199.8 209.1 215.6 222 223.4 222.6 215.5 207.2 191.9 185.3 187.6 183.5 176 169.5 153.7 137.3 127.4 119.1 115.7 110.1 105.5 101 98.1 96.1 94.6 93.4 91.8 91.3 90.2 89.3 89.3 88 87.2 86.2 86.4 86.4 84 83.5 83 83.9 83.7 83.4 82.9 84.5 83.6 75.2 77.4 78.8 89.7 94 95.8 96.4 94.6
276.4 288.8 298.2 303.6 305.5 306.6 306.9 304.5 300.6 294 284.2 267.7 253.6 248.5 246.7 243.2 240.2 238 235.2 233.3 233.1 233.9 235.5 238.8 241 241.3 242.3 243.8 245.8 251.7 254.7 257.7 260.2 265.5 271.8 280.9 300.5 309.8 303.8 296.7 291.7 289.5 279.5 262.4 243 222.7 211 203.2 197.2 191.8 182.1 178.8 183.5 181.6 179.5 176.4 164.1 149.4 140 132.8 133 132.4 132.2 131.7 130.5 130 129.9 132.8 139.2 149.1 164.6 180.9 200 214.2 231.5 255.2 277.7 292.8 276.6 251.9 225.5 205.9 186.1 168.6 152.8 151.1 154.9 157.6 160 159.8 161.5 162 161.3 156.8 155.1 153.4 156.7 161.5 168.9 184.3 194.9 200.7 205.6 221.1 234.3 241.6 243.9 241.5 250.6 254.8 255.4 255.5 251.6 241.7 241.6 243.4 242.6 242.6 243.1 241.2 235.9 231.1 227.8 222.4 215.4 210.8 202.4 189.7 176.1 167.6 163.1 160.7 161.6 163.2 168.4 173.8 179.6 189.4 195.4 199.8 203.8 209.7 212.9 213.2 209.6 205.9 205.9 207.6 215.3 222.9 225.8 229.6 228.5 220.2 212.2 196.5 189.5 185.9 178 172.3 158.7 141.4 127.6 119.8 116.6 110.1 105.8 103.1 101.3 98 94.8 93.3 92.7 91.6 90.7 89.7 88.7 87.8 86.9 86.5 85.8 85.5 84.9 84.5 84.3 84.4 84.3 84.3 84.8 86.5 86.1 83.8 75.2 75.1 78.7 86.8 92.2 93.8 93.2 94.4
269.3 283.6 289.2 292.5 296.9 298.2 299.9 296.6 289.7 278.8 264 249.7 244.3 242.8 241.2 239.3 238 236.8 234.5 232.1 232.6 234 236.4 238.3 238.8 241.9 249.3 249.6 248.7 250.9 257 261.3 267.4 272.3 277.2 279.5 288.9 293.6 290.6 289.1 288.3 288.5 279.2 260.6 242.7 224.7 212.1 203.5 196.5 188.1 187.2 189.1 187.7 185.5 182.6 169.6 151.9 141.5 134.8 132.7 131.9 131.9 131.3 131.5 131.1 130.6 136.4 142.8 153.9 167.8 185.6 196.1 212.6 222.4 237.6 266.1 294.5 302.1 286.9 259.7 235.2 208.3 182.9 165 154.1 156.9 159.5 162.8 164.7 166 168.3 168.5 169.7 167.3 162.8 161.7 170.2 180.6 187.1 194.9 203 212.5 221.2 234.2 243.7 249.8 252.3 257.7 261.7 258 250.9 242.8 234.9 234.1 236.7 239.7 238.4 235.8 234.4 235 231.3 226.8 222.4 216.2 211 201 191.9 180.9 171.1 165 162.4 161 162.7 164.8 172.1 174 186.9 194.1 200.3 211.1 220.1 223.5 223.2 220.1 216.5 211.7 214.1 218.5 228.5 236.6 238.8 239.2 235.1 226.1 212.3 202.2 190 180 168 153.1 140.6 128.1 120 114.9 111 107.1 105.7 103.9 98.9 95.4 93.2 92.4 92.4 91.1 90.1 89.1 88.7 87.7 86.9 86.4 86 85.6 85.1 85.4 84.8 84.6 84.5 84.6 85.2 85.8 85 83.4 79.1 75.2 77.7 82.9 86.5 89.4 92.5 93.9
250.2 265.8 276.5 281.7 285.8 288.2 286 280.4 271.6 258.9 246.6 240.3 238.5 237 235.5 236.3 236.9 235.8 232.5 232 233.1 234.5 236.1 238.6 241 247.5 261.6 262 258.2 254.8 262.5 271.9 279.7 282.6 286.5 286.6 280.2 279.7 281.1 280.7 285.5 288.3 282.6 267.6 246.9 231.3 214.3 209.9 199.3 190.7 193.5 194.6 194.4 192 180.9 160.7 145.4 136.8 133.5 132.7 132.2 131.9 132 133 133.6 141.2 151.6 161 171.7 190.9 206.6 214.9 217.2 228.8 242.3 267.4 291.9 306.4 288.1 263.9 230.7 199.8 177.7 164.7 157.5 165.4 168.2 169.5 171.3 173.1 173.5 174.4 179.1 180.1 175.1 180.3 193 198.7 208.9 215.1 216.7 228 230.7 230 227.3 230.4 237.1 242.3 242.6 237.8 232.1 228.7 229.3 231 235.2 235.4 233.3 229.7 229 226.6 223 219.2 212.9 208 199.8 192.5 183.8 174.1 166.6 162.1 160.7 160.7 161.4 164 165.5 167.5 180.2 195.5 212.6 221.3 227 232.4 230.3 227.5 222.3 223.1 226.7 230.8 237.2 244.8 254.9 257.5 248.7 230.3 208.5 198.4 181.8 167.6 149.7 138.3 130.6 122.1 115.5 112.3 109.8 108 105.3 101.1 98.1 95.7 91.5 91.5 91.6 90.7 90.2 89.3 88.6 87.1 86.4 85.9 86.3 86 86.1 86.8 85.8 84.9 84.6 84.9 85.5 84.8 84.2 83.9 80.8 75.3 75.2 78 81.8 84.4 86.5 86.3
231.7 244.9 257.4 270.8 274.1 273.7 267.4 258.7 250.6 243.1 237 234 231.9 231.3 230.7 230 229.7 229.6 235.3 242.6 241.1 240.8 242.4 243.2 246 255.8 271.8 273.9 263.7 261.1 268.9 279 286.5 288.5 285.3 283.3 278.9 273.9 270.4 275.2 279.2 284.3 279.7 261.3 243.5 229.6 216.2 208.6 202.8 199.7 202.6 204 201.7 189.1 171.9 153.2 139.6 134.9 133.3 133.2 132.8 132.8 132.7 134.9 141 153.9 168.4 182.9 195.7 213.9 224.7 231.5 238.9 241.2 251.1 273.7 288.5 293.2 284.3 252.1 218.1 190.9 175.2 165.7 161.8 173.3 174.7 175.4 177.6 179.9 181.8 182.6 186.4 187.8 187.4 195.2 208.9 217 221.1 225.4 227.9 227.8 228 225.8 223.4 223 226.1 229.3 229.8 229.7 229 229.8 230.3 229.3 227.2 225.8 224.6 219.8 216.8 213.5 210 208.1 204.9 199.1 190.6 181.2 174.1 166.4 162.6 161.1 160.7 160.7 161.2 162.5 164.8 170.3 179.4 193.8 212.5 226.2 233.8 235.8 236.2 234.3 232.4 233.1 238.5 241.5 249.6 260.6 270.7 259.9 242.6 221.6 203.1 184.9 166.8 153.3 142.4 133.8 126.7 120.3 113 109.4 107.6 104 100.7 98 93.3 91.1 87.6 88.7 87.8 87.6 89.5 88.7 87.5 86.3 86.3 86.3 86.6 86.9 87.5 88.2 87 85.7 84.9 85.2 84.8 84.5 84 83 77.7 78.4 76.4 75.6 76.8 79.1 80.4 82.2
225 228.1 236.8 244.2 246.1 244.9 241.5 238.2 234.4 231.5 229.1 228.1 228.6 227.2 227.1 225.8 231 237.4 243.8 252 252.8 252.9 253.6 250.5 255.1 263.1 271 270.2 267.1 266.4 270.8 278.5 280.6 279.8 275.8 271.4 266.6 263.1 266.8 270.3 272.8 274.7 264.6 248.2 235.3 226.4 220.9 215.4 212.8 210.3 212.5 212.4 205.4 185.8 162.5 146.1 138.7 135.3 133.6 133.5 134 133.3 136.3 141.4 150.7 163.3 182.7 205.1 222.2 238.3 250.8 254.8 264.9 269.6 265.9 277 292 292.8 265.6 233.7 205.4 184.7 173.2 169.1 164.4 177.1 180 184 184.1 188.5 192.4 193.7 194 195.1 206.1 218.3 230 240.8 245.8 247.6 236.3 227.4 223.6 222.3 220.9 222.5 224.5 225.2 224.9 227.3 227.4 226.8 223.4 220.3 218 215.6 211.4 207.1 205.1 201.8 197.6 194.1 191.8 186.7 180.2 171.1 164.6 162.3 162 161.4 160.9 161.1 161.3 165.1 167 181.5 191.3 210.7 231.2 243 246.7 249 245.6 243.2 246 243.8 247.8 254.1 261.9 274.6 277.5 255.2 237.4 215.9 195.1 174.9 159.8 147.1 137.7 129 123.3 117.6 111.9 107.9 104.8 102.9 98.4 95.7 88.2 85.1 85.1 85.9 87.6 88.6 89.7 89.8 90.1 88.8 87 87.9 88.4 89.4 89.2 89.2 89.1 87 85.5 84.6 83.9 83.5 83.3 78.9 77.6 78.2 78.4 76.3 77.6 83.6 83.6 84.6
223.6 224.2 224.8 226.4 226.2 226.2 225.2 225.5 224.2 223.7 224.4 225.8 227.2 227.7 228.6 224.4 230.7 238.8 250.7 261.5 264.5 262.5 261.3 260.2 264.1 272.7 273.4 272.9 269.2 266.4 266.5 271.1 270.4 268.7 265.3 262.3 259.2 260.1 264.9 263.1 262.7 255.1 242.1 233.6 225.5 217.2 215.7 215.2 217.1 219.4 221.2 220.9 209.7 182.3 162.4 146.8 138.2 135.9 134.3 133.7 134 138.1 147 155.2 163.4 172 186.3 207.5 230.5 251.7 258.7 269.3 285.7 294.2 293.5 305.7 302.5 283.6 245.9 218.2 195.3 182.5 175.8 173.2 167.2 177.1 182.9 188.1 191.7 195.3 197.5 199.6 202.5 211.6 230.7 243.4 251.9 258.6 248.7 235 229.5 222.4 219.5 216.8 216.1 216.8 217.4 218.6 219.5 220.8 219.9 215.7 213.8 212.5 208.7 201.6 198.7 195.1 193 193.4 188.4 185.5 181.6 176.7 169.3 164.8 162.8 162.4 161.7 161.4 161.7 166.6 170.2 176.6 186.1 200 215.2 231.2 243.8 254.1 259.8 261.4 260.7 255.2 249.9 246.3 255.2 264.2 269.9 283.2 271.5 257.9 244.6 218.6 195.5 173.8 154.6 142 133.8 126.2 119.7 114.6 110.4 108.9 103.2 94.6 91.3 86.1 84.1 83.2 83.4 84.8 86.5 88.4 88.5 91.1 91.9 90.4 89 87.9 89.7 90.1 90 89.6 88.7 87.7 86 84.1 83.5 83.1 82.8 78.2 77.7 78.5 78.9 76 79.5 84.5 85.1 85.1
224.3 223.8 222.9 222.9 223.7 223.8 221.3 221.6 221.3 224 225.3 226.6 227.2 227.3 228.8 225 231.8 239.7 253.8 268.1 276.4 279.5 274.3 268.2 270.7 274.3 272.7 272.3 269.5 263.9 258.8 259.2 258.4 256.8 254.1 254 252.6 255 252 245.6 243.8 237.5 229.5 219.1 208 204.6 207.6 210.5 216 222.5 227.3 228.9 202.8 181.9 160.6 146.7 139.8 135.3 134.7 136.7 140.2 146.6 158.2 166.4 175.6 184.6 198.6 206.4 223.3 240 262.1 279.2 296.9 315 318.3 319.1 304.2 263.3 233.7 207.7 192.8 182.4 178.4 175.8 171.1 173.7 179 184 188.7 194.4 201.9 213 223.3 233.2 250.2 258.1 254.7 243.9 237.9 232.8 220.7 217.3 214.5 210.9 208.8 209.7 209.2 209 208.3 207.6 206 203.8 200.7 193.8 188.7 185.1 185 184.8 185.4 185 180.5 175.7 169.9 167.5 165.2 163.6 163.1 163.3 164.8 167.1 173.6 181.4 192.7 201.1 212.4 225.4 237.5 251.2 265 270.2 275.5 271.5 254 247.6 243.3 246 253.1 264.5 279.2 292.3 289.1 265.2 239.3 216.7 191.8 172 153 140.2 133.1 127.4 122.7 115.8 113.4 104.5 93.5 88.4 85.8 83.5 82.3 81.1 80.3 81.7 84 86.4 86.8 88 87.4 86.4 85.7 86 88.6 89.4 90.2 90.7 89.2 87.7 85.8 84 83.4 82.9 81.8 77.8 77.9 78.6 76.3 77.9 83.6 85 85.1 84.8
224.9 223.2 223.1 222.1 222.1 221.8 221.1 221.4 221.3 222.6 224.5 225.5 224.3 223.1 222.6 227.1 234.5 244.7 252.8 264.9 279.5 283.7 279.9 274.6 273 272.1 269.3 266.2 264.8 262.5 256.2 253.9 250.4 249.8 252.4 253.4 246.1 251.2 243.2 232.8 229 227.6 216.2 202.5 198 198 200.3 206.3 213.3 222 229.5 228.7 203.9 179.6 159.2 146 138.7 134.9 137.2 142 146.8 157.1 171.2 179.1 192.1 204 211.7 219.7 224.8 232.5 247.7 268.5 291.8 315.3 323.1 308.4 277.7 247.2 220 201.6 189.5 182.8 178.7 176.2 172.7 177.6 180.2 184.8 189.5 204.1 214.3 231.3 247.1 251.1 253.5 251.5 250.2 248.6 235.4 219.2 213.2 211 209 205.3 203.2 202.5 202.2 202.6 199.7 195 192.7 188.8 184.8 181.5 179.8 178.4 178.1 178.1 178.5 174.8 172 170.7 171.1 167.6 165.4 166.4 167.5 174.4 181.8 190 200.3 207.4 215.7 226.5 238.9 251.4 263 270.4 277.5 275.6 269 258.1 244.2 241.6 239.5 242.9 244 259.6 285 302.7 288.3 257.1 230.3 209.7 186.9 168.1 153 143.2 134.8 129 123.4 114.7 101.9 94 87 84.2 82.8 81.5 80.6 79.6 79.1 79.1 82.8 84 84.6 84.4 83.8 83.3 83.1 83.5 85.5 86.5 87.9 88.4 88.5 87.6 85.7 84 83.4 82.8 80.7 78.8 78.2 77.8 77.2 82.1 84.8 85.3 85.1 85
226.3 223.6 223.1 222.4 223.5 224 221.5 219.9 219.9 219.8 221 221.2 222.1 222 222.6 228.8 234.7 241.9 245.3 252.3 263.6 271.7 273.2 273.8 275.4 273.8 271.3 265.5 260.4 257.7 256 256.3 250 249.6 249.9 245.8 243.2 233.2 226.8 219.9 218.4 213.4 201.5 192.7 191 190.9 195.5 204.3 212.7 221.6 229.6 220.6 193.8 174 156.4 146.4 139.6 136.2 139 145.6 152.8 167 177.8 194.2 209.9 224.7 228 234 247.3 253.3 265.7 278.4 295 313.1 314.8 287.3 256.6 230 207.6 192.5 185 181.2 178.3 174.7 177.5 180.5 183.4 188.3 196.3 209.7 224.2 242 258.2 259.9 262.1 266.8 258.2 246.1 227.3 213.3 208.7 206.3 203.1 200.1 198 198 197.9 195.5 189.4 183.8 182.6 179.9 178.2 177.3 176.4 175.8 175.4 174.1 174.9 174.8 175.7 174.7 169.5 167.6 167.6 170.1 178.9 189.6 205.6 216 227 233.7 242.1 250.9 263.5 272.1 275.6 276.2 276.8 274.1 265.7 248.5 232.2 228.1 234.4 235.7 239.2 252.6 278.6 289.9 273.6 252.1 228.1 210.9 188.7 171.9 152.5 142.3 134.3 127.3 118.6 104 93.8 87.2 82.2 80.6 80.2 79.9 79.2 78.8 79.1 78.1 81 81.7 82.3 81.7 81.1 81.7 82.3 83 84.2 84.3 86 87.3 88.6 87.4 85.2 84.2 83.7 83 80.9 79.6 78.3 76.2 79.6 85.3 86 86.8 86.9 86.1
233.2 227.1 224.5 223.6 224.2 225.3 225 222.2 220.7 220.9 219.3 219.5 219.6 220.6 223.9 233.3 241.9 248.3 252.2 250.2 254.7 261.5 269 270.5 271 271.2 271.1 265.2 263.8 260.3 256 251.2 246.4 245.7 228 231.3 226 219.7 213.9 211.1 203.2 195.8 187.9 184.5 183.6 184.9 191.4 202.3 212.5 221.7 225.5 201.9 182 169.4 157.2 146.4 142.3 137.5 140.2 150.9 160.5 172.5 188 204.8 218 230.3 239.9 247 263.1 273.6 280.2 293.5 307.6 315.6 303.6 274.1 243.5 218.4 199 188.6 185.6 181.7 180.8 179.5 181.6 183.3 187.3 192.9 202.1 216.8 235.7 257.1 262.7 275.3 278.1 271.4 258.9 239.1 219.8 208.6 204.6 202.5 199.6 196.7 192.3 192.3 190.6 187.4 181.2 179.9 178.2 177.1 176.9 177.6 180.2 182.2 181.6 181.6 182.3 181.7 179.1 174.9 170.9 171.8 174.1 177.7 192.9 210.3 228.5 239 244.9 253.8 260.6 268 274.7 279 281.2 280.1 274.3 257.6 242.1 226.8 220.9 223.4 227.3 231.8 238.9 246.4 269 278.7 267.2 247.8 228.4 210.8 196.4 171.6 147.4 135.7 128.2 120.5 106.6 94.4 86.7 81 78.2 78.6 79.4 79.6 79 78.7 78.1 77.8 78.9 80.1 79.6 79.6 77.8 78.3 80.2 81.7 82.7 84.4 86.6 86.4 88.2 87.1 85.2 84.3 83.5 82.2 80.3 79.2 76.3 77.8 83.6 86.7 87.6 89.2 88.3 86.3
252.3 240.8 229.3 227 226.6 226.7 225.6 225.8 225.6 225.2 223.6 218.4 221.5 221.8 225.7 232.6 250.7 259.7 262 257.9 256.4 259 265.8 265.3 264.2 260.8 259.6 260.6 260.7 258.1 253 244.7 236 231 224.8 213.2 214.1 210.3 200.9 196.5 190.4 185.6 182.5 180.2 179.2 183.6 191.7 202.1 212.3 219.2 220.4 190.9 174.7 166.7 157.9 154.4 151.7 137.8 143.8 151.9 161 178.5 195.7 208.3 222.6 236.5 252.3 260.6 266.4 275 287.5 304.7 310.7 313.7 297.2 274.4 240.3 213.1 197.7 192.9 191 190.7 190.6 190.9 191.1 194.4 201 207 221.1 239.2 248.2 256 269.3 278.5 278.1 265.8 249.6 229.3 216.1 204.2 201.3 199 196.4 194.2 191.7 186.3 183.6 181.1 179.3 178.3 177.4 179.5 181.7 183.4 186.4 188.9 190 190.5 189.6 184.3 179.9 176.3 177.3 180.2 185.2 196.2 215.9 228.8 238.6 250.7 261.3 270.7 277.3 281.8 286.6 285.8 284.3 271.2 246.2 232.5 219.1 212.4 214.6 217.2 222.7 226.5 231.2 240.7 264.4 269.5 246.9 228.9 216.3 199.9 172.2 143.1 133.3 128.1 120.1 106.1 94 83.8 78.7 78.5 78.4 78.3 78.7 78.5 78.8 78.1 78.4 78.3 77.7 77.8 77.5 77.6 77.3 77.3 77.4 80.7 82.3 84.1 86.3 88.1 87.8 87.1 85.7 84.4 84.5 82.5 80.4 78.6 76.2 80.2 80.7 84.4 88.4 88.2 86.9 85.9
265.7 255.9 247.9 236.8 230.7 230.1 229.4 229.4 229.2 228.1 222.5 222.5 224.3 222.5 229.2 235.4 248.4 257.7 262.6 263.6 264.2 271.3 265.6 263.9 262.4 260.7 256.4 254.3 255.1 249.6 243.7 238 228.4 217.9 214 204 203.7 200.2 194.7 189.9 185 181.9 182.4 176.8 179.7 184.5 191.8 202.8 213.5 220.8 214.5 187.2 170.7 164.7 160.9 159.6 147.2 140.5 151.3 157.6 164.8 180.9 197.5 213.1 227.6 242.7 254.7 260.7 263.3 280.1 292.7 297.5 304.8 306 292.7 273.1 243.3 218.7 205.2 203.8 205.5 212.6 211.4 209.1 211.4 219.5 229.3 231.4 245 246.6 245.7 256.8 268.7 275.4 268.6 254.5 235.2 226.5 204.9 200.3 198.1 197.4 194.6 190.8 187.7 184.7 182.1 180.7 179.4 180.9 182.9 184.6 186 188.3 191.8 193.9 194.9 192.3 190 188 187.6 190.4 188.4 192 207.8 218.5 231.2 245.5 255.3 262.7 273.4 283.8 290.9 294.6 292.9 286.9 266.3 243.5 226.2 212.2 208.4 205.4 210.2 211.5 216.1 220.1 224.5 240.8 247.1 236.9 220.3 202 186.7 168.7 143.1 129.1 122.1 118.7 105 92.8 81.8 78.7 78.5 78.7 78.5 78.3 79.2 79.1 78.2 78.1 78.4 78.7 77.8 77.5 77.4 77.9 77.4 77.4 77.3 79.6 81.5 82.9 86.9 88.6 88 87.4 86.3 84.8 84.1 82.4 79.6 76.1 78.4 87.1 86.3 83.6 83.9 82.8 83.5 86.2
271.1 262.6 252.4 244 237.6 233.3 231.6 228.2 220.4 218.2 223.3 229.3 228.3 224.9 228.5 236 243.1 253.3 259.5 265 269.6 271.2 270.6 269.7 266.2 262.3 257 249.9 247 243.4 237.8 228.8 221.1 213.3 206.5 198.5 188.5 189.7 191.8 188.3 182.8 176.2 179.8 173.6 180.6 187.3 198.2 208 215.6 218.4 209.3 187.2 170.3 164.4 160.8 152.7 139.4 147.1 155.4 161.7 168 176.3 199.5 214.1 226.5 240.7 253.3 255.4 260.9 268.4 273.2 282.1 298.7 298.7 288 273.4 248.8 233.4 222.6 225.9 231.7 232.7 234.2 238.8 239.8 242.4 246.7 246.5 250.7 244.9 241.3 254.5 266.4 266.4 256.9 238 227.4 212.9 199.2 195.5 193.8 191.2 192.5 188.3 185.7 183.6 181.5 181.4 183 185.3 187.7 189 189.5 190.8 190.3 188.4 188.7 190.3 194.1 196.6 197.6 197.9 202.2 215.6 231 240.4 250.9 261.9 270.6 279.1 288.3 295.9 298.4 297.7 289.8 274.1 246.1 227 213.1 204.8 201.7 201.6 203.6 204.8 208.5 214.1 221.1 239.6 236.7 214 191.7 177.1 159.5 140.4 125.7 115.2 112.5 95.9 91.1 84.2 78.9 78.9 78.3 78.7 78.7 78.6 78.8 78.5 79 78.8 78.5 78.8 78.1 77.6 78.2 77.6 77.4 77.2 77.1 80 81.7 83.2 87.4 88.6 88.4 88 86.5 85.6 84.2 82.8 78.6 76.2 84.4 87.4 87.1 86.1 85.9 85.6 83.6 85.7
269.2 261.5 251.5 244.1 237.1 228.5 226.7 218.4 216.6 226.9 231.5 232.6 230.5 227.7 229.8 236.2 243 251.4 255 258.8 260.2 261.6 260.1 258.3 257 252.4 247.4 241.9 236.1 236.8 232 226.8 223.4 215.8 209.6 203.7 198.1 188.9 184.5 183.6 179 173.4 173.4 175.7 182.1 190.6 203.2 211.7 213.5 210.9 200.2 183.8 170.7 161.7 155.5 143.8 139.4 149.5 157.2 162.7 170.4 178.6 194.4 211.4 219 227.8 236.6 245.4 248.7 251.9 260.6 277.3 292.3 302 298.7 281.1 270.2 255.8 243.5 247.4 249.1 257.1 259 260.8 256.7 257.9 258.3 254.5 250.4 248.4 237.7 245.4 255 256 240.5 232.6 223.9 205.9 196 191.7 186.8 183.7 180 184.7 183.9 182.6 180.8 183.2 185.3 188.3 188.8 188 186.1 184.6 185.1 185.8 188.8 195.2 200.1 204.3 208.1 217.6 225 243.1 253.9 264.5 270.5 279.8 287.3 292.9 299.2 309.3 309.9 298.4 280.3 255.8 229.8 215.7 204.1 196.9 195.9 196.3 199 199.8 204.1 206.8 221.5 238 230.2 200.4 175.8 152.3 133.1 120.3 109.6 106 96.1 89.3 80.9 80.2 78.5 78.5 78.3 78.6 78.9 79.1 79.2 78.7 79.2 79 78.8 78.3 78.1 78.3 77.8 77.4 77.1 78.1 79.7 81.2 82.7 83.5 86.1 88.1 89.1 88.4 87.1 86.8 83.3 80.1 78.2 76.2 86.7 87.6 87.1 86.3 86.2 84.1 85.6 86
255 246.9 237.6 229.9 226.3 222.9 220.4 212.6 225 230.4 233.9 236.5 237.8 234.2 234.8 238.6 242.4 247 254.6 255.7 256.1 256.8 254.8 251.3 247 242.2 236.5 232.4 228.2 221.5 219.5 220.1 218 212.6 207.1 199.9 190.8 183 175.3 173.9 171.1 168.7 170.8 176.3 181.8 187.2 196 202 205.9 203.8 192.6 180.2 167.2 157.9 146.9 141.5 140.5 146.9 153.8 159.7 166.9 175.5 189.3 198.2 207.5 214.6 223 229.3 238.1 246.9 267.4 290.1 304.3 315.8 314.5 299.4 287.3 267 269.4 273.9 272 275.9 272.1 270.2 268.2 268.1 263.7 258.7 258.3 257.4 244.3 233.8 240.6 241.3 237 224.6 214.2 206.2 193.9 189.9 190.8 188.5 182.7 175.7 180.4 179.2 179.3 181.9 185.5 188.3 185.8 183.2 183.6 185.6 186.8 188.9 194.1 201.7 209.7 221.4 231.1 235.7 247.1 261 273 281.4 286 290.3 297.3 303 304.9 306.8 304.9 294 270.8 243 218.5 205.7 196.8 191.4 190.8 192.7 194.2 195.8 196.9 202.1 218.2 239 220.2 191.9 159.8 131 116.6 106.4 98.5 92.4 86.2 84.6 81.4 78.7 78.2 78.1 77.9 79 79.2 79.1 78.8 78.5 78.3 78.8 79.2 78.2 78 77.9 77.9 77.7 77.1 77.6 79.2 81.5 82.7 83.4 85.5 88 88.6 88.1 87.3 83.7 79.6 78.2 77.8 78.1 86.9 86.4 86.7 86.5 85.6 85.5 86.1 86.7
238 233.1 229.4 228.3 224.8 222.3 215 210.3 221.2 229.5 235.2 241 244.4 245.9 245.3 245.6 249.4 251.9 256.4 258.9 256.4 253.3 250.5 248.3 247 246.9 240.3 232 214.1 208.2 209.1 210.1 208.4 204.9 197.1 186.2 178.9 176.9 174.8 170.4 166.7 164.4 171.2 175.5 178.7 179.6 182.5 187.4 190 187.4 183.1 173.6 162.8 154 145.8 140.8 141.4 146.8 154.3 159.7 167.9 178.3 189 196.5 210.2 214 220.3 227.1 233.7 245.8 267.5 285.1 292.3 296.3 299.1 297 284.6 274.8 280.7 284.4 278.9 279.2 279.3 275.9 277.9 270.5 265.3 266.9 267.3 263 251.1 234.9 228.9 234.2 226.8 218.6 214.2 200.4 193.2 191 189 184.7 179.8 173.9 175.8 175.1 177.6 181.3 183.4 181.3 181.2 184.4 186.9 191.8 195.9 199.9 206.8 217.9 227.1 237.1 242.7 248.8 265.1 281.2 290.4 296.8 300.8 303.1 307.2 309.9 310 307.4 299.2 282.3 262.5 233.3 213.3 201.7 194.6 189.1 187 189.1 188 184.2 186 189.6 200.9 217.4 206.1 174 142.1 118.3 106.3 98.6 91 86.4 81.5 80.3 78.5 78.7 78.5 77.9 79.1 79 78.4 78.9 79.1 78.9 78.7 78.9 78.9 78.5 78.3 78.3 77.9 77.2 77.1 78.4 79.1 79.6 81.7 82.8 85.4 87.2 87.9 86.6 82.3 79.5 78.8 77.8 78.3 83.4 87.5 87.5 87.3 86.7 85.8 85.2 85.9 86.3
241.7 235.1 231.8 229.2 225 221 222.2 216.9 209 225.5 235.3 244 250.7 254.7 255.3 254.9 256.5 260 253.6 253.7 253.9 252.5 252 255.4 249.2 247 244.1 230.5 215.2 203.3 197.1 186.8 196.8 191.1 181.4 174.5 172.9 170.8 168.8 168.3 165.8 163 168.5 171.1 172.2 174.2 176.7 177.5 179.1 176.4 173.2 168.2 159.6 152 144.8 141.4 142.6 145.4 150.3 159.6 169.6 181.7 191.9 198.9 212.6 219.4 227.5 231.8 233.6 245 266.8 281.8 283.4 294.1 286.1 276.8 272.1 274.6 278 278.2 281.3 280.5 279.2 282.4 276.9 272.1 271.2 273.2 264.8 255.7 253 245.5 230.7 220.6 211.2 209.5 203.9 197.2 194.5 188.1 183 179.2 171.6 171.7 171.4 173 176.7 177.2 178.6 183.2 186.1 190.1 195.2 200.4 205.9 219.5 231.3 238.7 246.5 255.2 261.6 263.6 279.6 293.7 302.5 309.8 315.2 314.1 314 309 305.2 302.1 291.1 287.2 269.3 235.4 212.2 198.9 193.5 188.5 186.9 185.3 179.7 171.2 167.7 173.9 182.9 192.5 183.7 151.2 124.1 112.7 103.7 94 87 82.4 79.2 79.1 78.8 79.3 77.7 78.9 78.6 79.3 79.3 79.1 79.1 79.1 79 78.4 78.8 78.5 78.8 78.7 78.6 78.4 78.1 78.2 78.5 78.5 78.7 81.4 83.2 84.3 85 81.4 79 78.8 77.8 77.9 75.9 85.7 87.8 87.6 87.3 87 86.8 86.3 86.3 86.1
237.1 233.3 230.7 228.9 228.4 227.7 228.5 220.4 211 223.8 233.6 242.9 248 255.1 257.1 255.4 249.5 241 232.6 232.9 239.9 239.3 247.4 252.2 248.7 246 237.7 225.6 213.6 208.8 202.7 196.2 180.8 177.2 174.3 172.2 169.2 167.3 165.6 162.9 162.2 159.6 162.1 166.8 169.5 173.7 173.4 172.8 173.8 170.9 166.8 159.9 155 149.4 143.9 142.9 143.9 147.6 152.4 161 171.1 180.2 191.6 197.4 208.6 224.1 237.6 244.2 239.8 243.6 255.3 268.2 280.1 284.5 283.5 269.9 268.4 275.8 275.8 276.7 277.4 278 281.8 281.6 274.3 274.5 273.2 265.8 258.1 253.4 249 241.3 223.4 206 197.4 189 190.1 195.3 188 183.9 178.1 173.8 169.6 169.8 169.3 170 172.6 177.4 183.9 189.5 194.2 199.8 206.8 214.3 221 230.7 240.1 248.8 257.2 264.9 272.3 276 291.4 306.1 315 316.9 313.8 312.4 310.1 309.2 307.8 305.7 307.3 287.1 261.3 231.3 210.9 197.3 191.4 190.8 192.9 198.7 193 171.5 160 158.7 165.7 168 156.6 128.6 110.8 106.8 99.5 88.5 80.9 80.2 78.7 79.4 78.8 78.4 78.9 79.2 76.7 78.4 77.2 79.2 79.3 79.1 79 78.9 78.6 78.4 78.3 78.5 78.1 78.2 78.3 77.8 77.8 77.9 78.2 78.5 80.3 81.4 80.5 79.5 78.6 78.1 78.2 75.7 80.4 86.4 87.3 87.7 87.6 87.4 86.1 86.3 86.3 85.7
240.5 237 234.4 232.5 231.5 230.2 231.1 222.8 207 222.8 230.4 237.7 246.9 252.9 248.5 244.4 233.6 225.3 219.4 217.2 219.2 225.3 243.9 248.4 247.4 245.2 240.1 230.7 220.3 210.6 203.4 193.8 184.4 178.2 174.1 170.5 169.2 169 168.7 168.7 168.1 165.4 163 159.7 160.1 159.8 164 165.7 166.4 165.3 163.3 155.8 151.5 146.5 143.9 143.4 145.1 148.8 154.3 160 169.1 176.3 184.5 192.8 205.9 223.6 241.8 251.7 254 249.6 253.5 258.3 267.1 269.7 267 261.7 263.1 270.1 272.1 275.8 278 283.5 285.1 279.4 276.8 276.6 271.6 265.4 263.2 259.1 246.1 218.6 199.2 188.3 181.8 179.7 183.4 183.8 181.6 178.1 174.2 171.3 168.5 168.3 168.6 169.4 175.4 181.3 189 195 203.7 213.9 221.8 227 234.3 242.5 249.2 261.6 272.1 279.3 284.7 286.4 300.2 312.1 315.5 317.1 319.9 326.6 328.7 327.1 322.8 317.4 309.6 291.2 260.9 232.4 209.6 196.7 195.6 202.8 207.1 210.3 179.7 159.9 151 152.4 150.6 148.9 121.5 105.5 99.7 94.3 88.1 81.5 80.6 80.3 78.7 79.1 79.3 78.3 78.9 79.1 78.4 79.2 79 78 77.7 79 79 79.1 78.9 78.7 78.5 78 77.7 77.9 78.6 78.6 78.7 78 77.1 78.2 77.7 78.2 78.7 78.7 76.5 75.6 76.3 85.7 86.6 86.3 87.3 87.6 87.7 87.4 86.9 86.7 86.4 85.9
245.7 242.1 238.4 237.8 236.8 233.4 230.2 222.1 205.9 218.9 228.4 237.2 244.9 248.6 245.4 239 231.4 223.4 215.7 214.7 214.8 222.2 240.4 244.8 243.8 239.9 232.5 221.2 213.2 208.6 199 191.1 182.1 174.7 172.1 170.5 171.7 172.1 171.5 171.9 171.6 169.3 166.3 166.6 169.2 161.8 155.4 155 157.2 160.4 160 153.3 147.3 145.4 144.8 144.7 146.8 150.1 155.8 162.5 169 174.4 184.5 198.2 219.5 240.1 255 265.1 268.9 267.4 266.2 265.9 273.9 267.6 259.8 249.3 250.2 252.4 256.6 263.8 272.4 282 283.6 282.3 281.6 279.3 275.9 275.6 264.2 253.6 230.8 203.6 188.2 181.2 178.5 175 176 175.9 174.4 172.8 170.4 167 166.8 166.9 167.5 169.8 179.4 187.4 197.6 204.5 215.7 228.9 237.9 243.8 248.4 253.8 264.6 274 283.6 290.5 294.2 298.8 305.2 316.9 323.5 329 334.8 340.3 336.4 334 330.9 325.1 303.9 275 250.2 225.3 206.3 200 208.7 218.9 221.6 190.6 162.5 150.9 127.6 140.2 131.8 115.2 100.2 93.4 88.5 84.3 82.6 80.9 79.9 78.9 78.5 78.8 79.2 79.6 78.4 78.8 79.3 79.4 79 78.7 79 78.2 79.5 79.4 79.2 79 78.7 78.1 77.4 77.7 78.3 76.5 76.9 78.6 77.9 77.1 76.9 75.8 75.3 76.6 77.9 79.2 85.5 87 86.7 86.2 85.1 84.5 84.5 84.9 85.5 87.2 86.9 86.4
248.1 245.3 243.8 240.7 239.5 236.6 232.7 224.8 206.8 215.9 226.9 233.5 240.4 241.8 240.1 233 226.9 222.1 214.8 214.6 217.5 227.5 241.1 239.7 235.1 229.4 222.3 213.9 203.5 195.7 189.1 182.7 176.2 172.6 172.8 173.8 175.1 175.8 175.9 178.4 177.1 174.7 170.3 170.9 170.1 162.5 159.3 158.9 154.5 150.5 150.8 149.9 146.3 147.4 147.4 148 148.4 151.8 159 168.8 176.2 186.9 194.7 206.5 222.4 241.1 266.4 278.8 280.8 279.6 276.7 267 260.3 252.2 243.9 243.2 244.5 248 252.3 258.6 266.9 274.5 279.8 283.6 281.4 279.9 278.1 270.6 254.7 232.5 211.1 194.7 182.9 176.5 175.7 172.6 170.9 169.7 169.4 169 167.1 166.6 166.5 166.8 167.2 176.5 191.4 199.5 208.4 218 230.5 241 246.1 251.1 259.1 265.8 275.8 284.8 289.9 297 299.7 310.7 316.5 327.2 329.3 331.4 335.1 334.4 332 328.2 314.9 300.6 278.9 257.4 235.6 217.5 204.5 207.9 218.5 222 208.3 173 154.6 138.4 114.9 110 98.1 95.8 88.4 86.8 83.7 84.8 81.7 80.9 79.9 78.8 78.6 79.1 79.6 79.7 79 78.8 79.2 79 79.1 79.3 79.1 78.2 77.2 79.3 79.1 78.9 78.8 78.5 78.2 76.4 75.9 78 78 76.5 78.7 76 76.5 79.5 80 81.9 86.4 86.8 87.5 87.5 86.8 84.7 84.4 84.4 84.6 85.8 86.7 87.9 88 86.9
250.9 247.9 245.5 246.8 245.8 243.3 237.7 230 202.7 219.2 225.8 231 233.7 234.8 232.8 226.6 221.9 218.9 215 227.5 233.1 233.7 234.1 234.6 230.1 222.8 216.7 207.9 197.3 190.3 184.9 179.7 176.4 175.1 176.3 178.2 180.8 182.3 184.8 187.1 186.8 182.2 176.1 174.9 169.2 163.9 168.5 166.1 163.2 160.1 160.4 158.7 152.3 151.1 150.9 151.2 152.2 155.4 167.5 178.8 188.2 200.2 204.4 202.9 207.2 224.6 245.2 266.4 277.1 266.5 268.1 254.8 247 240.9 240.7 241.5 244.1 253.1 258.8 260 267.2 274.3 278.4 278.6 279.9 277.9 265.3 247.3 230.6 214.7 203.7 188.9 178.5 176.2 174.2 171.7 170.6 169.1 168.7 167.7 167.2 166.6 166 166.4 168.4 179.8 196.5 208.5 221.8 235.9 241.5 244.2 249.2 259.9 269.1 276.5 282.2 288.4 294.5 302.9 313.7 324.2 336 333.1 332.5 335.2 338.6 334 331.8 325.5 314.1 288.8 265.5 247.3 228.5 216.3 211.6 219.1 225.2 212.9 181.7 158.1 136.5 120.9 105.7 98.1 93.9 88.3 84.9 83.7 82.6 81.6 80.6 79.8 78.7 78.9 79.1 79.5 79.6 79.7 79.4 79.2 79.2 79 79.3 78.8 78.4 78.1 77.4 77.8 78.8 78.9 76.4 79.1 78.2 79 78.8 78.3 77.2 76.4 75.9 79.4 86.2 88.4 88.4 88.8 88.5 88.3 87.7 87.4 84.6 84.5 84.6 84.6 84.8 86.5 88 88.6 88.9 88.3
250.1 248.6 248.4 250.5 248.7 244.3 239.1 233 207.5 205.4 226 223.9 222.2 224.2 224.5 219.3 215.8 213.8 221.2 243.2 249.2 243.9 239.2 230.4 223.8 216 209.9 199.2 190.6 185.7 181.3 177.8 180.6 180.5 181.3 184.1 188 190.5 192.5 193.3 193.8 190.7 185.2 175.2 165.6 176.8 174.1 172 169.1 168.8 167.7 166.5 158.9 154.6 156.5 158.1 159.8 169.6 176.9 186.2 201.5 213 222.3 219.3 212.1 217.4 224.8 239.2 253.1 250.7 247.4 243.8 240 240.1 240.2 240.8 245.9 260.6 267.6 267.8 261.6 264.4 260.5 261 264.8 250.9 234.9 223.6 213.6 204.4 193.2 182.3 183 182.4 175.6 172.4 170.4 169.3 170.4 168.6 167.6 166.4 165.8 167.2 172.7 191.5 208.9 221.6 229 235.2 238.3 245.7 253.9 262.7 272.1 284.1 287.7 297.7 307.2 317.3 324.8 328.2 332 337 347 348.2 332.7 326.3 311.5 298.4 283.3 270.7 256.8 238 225.2 221 221.7 227.8 212.1 184.8 161.9 147.1 125.3 101.4 94.3 92.2 88.9 86.4 83.6 82.6 82.1 80.4 79.1 79.2 79.4 79.5 79.5 79.6 79.1 79.6 79.2 79.1 79.3 79.2 79.5 79.1 78.9 78.8 76.9 78.6 78.1 77.9 76.9 75.8 79 79 78.8 77.6 76.8 77.4 81 85.7 87.9 88.8 90.2 89.6 89.4 88.9 88.7 87.2 84.7 84.7 86.3 88.7 89.3 89.5 92.3 92.9 89.8 90.4
251.7 249.4 249.5 247.6 243.5 239.4 234.6 230.5 227.5 212.5 205.8 195.3 205.1 214.4 213 211.6 208.1 206.4 217.3 245 259.8 252.7 236.6 226.2 218.3 211.6 201.5 193.2 190.5 183 183.7 183.7 184.7 187 187.4 190.5 195.9 198.9 199.7 202.6 204 200.3 192 176.2 181.8 185.3 180.3 178.8 177.3 175.5 173.9 171.7 166.4 161.7 162.9 166.6 170.3 179.3 193.4 205.6 214.9 224.3 233.2 242.2 232.6 222.5 225.7 229.7 232.7 238.2 239.7 239.6 240.3 241.7 241.7 243.3 257.6 272.1 276.4 265.1 256.2 248.6 242.5 234.1 231.8 223.2 211.2 202.6 196 192.9 191.9 188.5 187.8 185.1 181.9 180.2 173.8 174.6 175.2 178.6 167.9 165.6 165.5 168.6 178.8 198.1 207.5 205.6 214.7 226.1 236.7 245 254.8 266.8 278.3 289.1 295.5 306.1 312.8 325.3 334.7 340 340.6 351.7 341.6 329.7 318 303.2 297.2 286.4 277.6 270.4 256 241.6 231.7 228.7 226.4 215.9 203.8 181.4 151.4 127.9 101.7 90.3 90.5 87.6 85.8 83.8 82 81.6 80.8 79.9 79.6 79.1 79.5 79.5 79.5 79.6 79.5 79.7 79 79.1 79.2 79.4 79.2 79 78.6 78.4 77.2 78.5 78.4 78.2 75.9 78.6 79 79 78.3 77.4 77.4 83.3 85.7 88.4 89.1 91.3 90.2 89.6 89.3 89 88.2 86.8 85.1 85.6 88.5 90 94.2 93.3 95.2 91.7 90.2 90.2
254.2 248 244.3 241.1 237.8 234 229.8 227.2 227.1 225.9 230.5 219 193.4 200.4 204.9 203.7 202 202.8 212.9 241 247.9 245.7 234.3 224.4 214.7 205.2 195.1 189.6 185.7 190.6 191.3 191.4 192.8 193.6 197.3 201.5 207 209.9 211.1 212 210.9 203.9 192.2 179.8 196.4 195.7 191 189.5 187.7 184.2 178.9 177 170.9 166.5 169.3 174.5 181.2 191.8 207.5 219.2 227.7 238.3 245.2 250.7 251.1 239.3 231.1 230.9 235.5 238.4 241.7 243.6 244.8 246.4 245.8 254.8 271.1 284.1 275.6 258.2 253.2 243.1 231.4 221.3 213.5 207.2 201.9 200.5 201.4 200.8 199 200.2 197.9 198.6 199.4 197.4 197 189.6 185.7 182.7 170.4 165.5 166 170.3 175.4 182.4 192.2 208 222.4 233.3 241 246.7 256.6 275.4 283.4 295.9 309.5 312.4 328.4 332.4 341.4 344.5 343.5 329.3 324.5 318.9 303.4 286 284.2 280.3 277 272.3 260.3 246.1 239.1 237.5 231.5 219.3 201.8 175.3 144 113.4 96.3 89 86.2 84.9 83 82.1 81.9 80.7 80.2 79.8 80 79 79.6 79.5 79.5 79.5 79.5 80.3 79.5 79.1 78.9 79.6 79.8 79 79.1 78.8 78.7 77.8 77.2 76.6 79 79.4 79 78.8 78.3 79.4 82 86 87.7 89.7 88.8 90 90.1 90.6 90.4 87.4 85.4 85.7 87 87.6 88.2 89.6 90.3 89.9 90.3 90.2 90.2 91.3
257.7 249.7 241.1 236.3 230.6 225.9 221.9 220.1 221.5 224.1 229 227.1 208.6 191 193.1 193.3 196.3 197.3 210.5 239.5 247.4 241.4 229.8 221.4 205.4 194.5 190.3 190.7 194 194.9 197.2 199 201 204.2 208.9 213.4 217.2 219.7 221.2 219.6 214.5 207.3 189 198.2 209.1 206.1 203.5 199.1 200.4 193.3 186.3 181.8 176.8 179.2 178.9 182.5 191.1 205.6 212.2 224 240.9 250.1 256.7 259.3 261.7 258.6 251.1 242.1 240.7 241.9 246.3 247.8 250.3 252.5 254 270.7 284.6 285.9 261.6 254.3 253.4 243.2 231.5 217.7 208 204.3 207 213.3 211.9 211.1 212.1 213.5 214 220.4 223.8 222.1 225.2 203.6 189.7 183.3 170.6 165.1 165.1 169.1 176.3 184.5 198.4 219 232.5 243.7 249.3 255.1 261.7 279.3 302.4 305.7 306.2 320.3 331 338.2 342.4 340.1 328 309.1 299 291.5 279.4 262.2 256.7 260.7 272.1 268.4 256.4 245.9 250 250.2 227.7 198.9 174.4 152 126 101 90 87.3 85 83.2 81.7 81.3 80.3 79.9 80.1 79.9 78.9 79.5 79.7 79.6 80.1 78.5 79.1 79.4 80 79.4 79.1 79 79.1 85.9 84.9 82.4 78.7 78.9 78.8 78.6 79 80.4 83 82.6 80.6 82.7 85.5 86.8 89.3 89.6 89.1 88.8 89.2 89.5 88 84.8 84.9 87.1 88.9 89.3 89.4 89.7 89.7 90.1 90.5 90.6 91.3 91.5
250.1 245.1 240.6 236.4 231.8 226.8 221.1 215.1 211.9 216.6 227.6 217.4 205 188.6 187.7 190.1 191.9 193.5 210.8 236.2 240.7 232.3 221.7 209.2 198.7 193.1 192.3 199.1 199.1 202.1 204.5 208.5 210.3 214.4 217.2 221.8 224.7 224.5 222.3 218.4 212.3 198.4 204.6 217.4 220.5 216.5 210.8 206.8 204.5 200.8 191.6 188.5 184.2 181.9 184.9 189 200.9 214.4 222.5 233.9 248.2 258.7 265.2 270.9 268.2 267.9 263.3 254.5 249.6 249.2 251.5 253.1 256.1 259.2 263.2 278.5 285.5 268.7 251.1 249.8 249.8 236.9 225.9 214.2 206.7 209 214.7 218.8 226.2 227.4 227.6 231.7 238.2 238.3 246.6 244.1 233.2 208.3 191.8 180.2 170.2 165.1 165 167.5 176.3 188.9 204.4 218.4 232.5 248.1 258.6 267.4 274.9 283 293.8 299.8 300.9 312.8 329.1 331.2 332.8 331.5 315.4 287.9 275.3 265 252.1 238.7 230.2 234.6 248 251.2 248.7 250.9 233.3 209.6 187.9 165.1 147.5 125.4 98.8 84.7 84.7 83.6 82 82 80.6 80.5 79.7 79.5 79.9 79.1 79.2 79.5 79.6 79.1 79.6 79.7 79.8 79.2 79.3 79.4 79.5 78.9 83 87 87 85.8 80.2 78 78.6 78.5 80.7 84.5 84.6 82.8 83 84.4 85.7 86.4 87.5 88.2 88.5 88.2 87.5 87.8 87.6 84.8 86.5 88.8 90.1 90.2 90.3 90 89.7 90.3 93.7 91.5 92.3 92.2
251.6 248.9 245.7 243.3 242 237.6 228.4 222 218.2 209.3 199 194.1 192.4 187.9 184.9 187 190.2 195.1 215.8 237.1 228.2 223.6 215.6 204.3 201.3 198.4 199.6 205.7 213.5 216.2 218.2 221.2 221.9 224.2 225.8 228.1 228.2 226.8 223.4 217.6 211.7 217.8 225.2 227.8 225 220.1 213.7 210 207.3 203.3 197.6 192.2 187.9 191.4 190.9 194.8 210.1 222.9 234.6 246.5 258.1 270 277.4 277.4 278.8 272.4 262.5 256.1 254.1 254.3 255.2 257.2 260.9 264.2 277.6 285.4 269.3 248.3 242.6 246.8 238.4 230.4 224 218.1 210.5 213 222.9 228.8 242.2 247.5 249.3 257.3 256.3 258.5 263.7 259.6 238.5 213.3 199.5 183.9 169.6 165.2 164.5 166 181.2 198.6 218.1 234.3 248.2 257.7 268.2 278.9 286 293.6 300.9 306 303.6 303 309.3 313 316.2 317 296.5 272.3 254.7 238.5 229 218.8 211 217.3 230.6 235.1 243.4 232.1 203 178.4 159.3 138.9 119 95.4 83.1 79.8 80 80.4 80.5 79.9 79.7 80.2 79.2 79.1 79.4 78.9 79.2 79.5 79.5 79.5 78.9 79.8 79.7 79.7 78.9 79.7 79.2 78.7 85.7 87.2 86.9 85.9 83.8 79.4 78.3 83.6 84.8 84.2 83.2 82.3 81.6 84.7 85.8 85.7 86.9 88.7 88.2 86.6 87.7 88.6 90.1 89.9 90.2 89.6 89.9 90.4 90.5 90.7 90.9 91.4 93.7 94.6 94.8 94.9
256.2 253.6 251.5 249.9 248.2 242.1 233.5 225.6 217.9 209.8 202.5 195.5 189.2 186.9 183.3 186.3 190.3 204.6 228.4 234 223.5 219.4 213.6 207.9 204.1 206.1 208.4 211.8 220.5 229.3 232.8 232 231.1 232.2 233.3 234.3 231.2 228.1 225.4 219 216.2 228.7 230.9 230.6 227.2 222 216.5 213 212.1 206.3 202.8 193.8 196.4 197.2 199.4 199.6 219.1 229.9 247.9 262.6 271.3 280.2 286.9 288.6 282 270.8 262.7 255.5 255.7 256.9 258.2 261.2 265.4 269.7 281 272.7 252.1 238.6 236.4 236.7 234.1 226.6 224.5 223 214 217.6 227.7 239.6 259.1 266.1 266.8 275.9 283.2 277.3 271.4 263.8 230.9 211.3 195.7 182.4 170.8 165.4 164.2 166 178.2 202.7 225.2 244.4 253.4 265 278.9 287.2 298.1 305.1 309.9 310.3 304.4 299.5 303.3 307.3 318 316.6 304.3 271.7 242.3 225.1 208.6 198.8 193.7 197.8 203.9 220.6 221.9 205.2 174.9 149.5 134 112.8 89.6 80.8 80 80.2 79.7 79.8 80.1 80 79.9 79.4 79.6 79.5 79.3 79.3 79.2 79.7 79.3 79.4 79.6 79.8 79.6 79.4 79.2 79.9 79.6 81.4 86.7 88.2 89.2 87.7 86.8 84.1 84 85.8 84.8 83.6 82.3 81.7 82.9 85.2 85.2 85.1 85.5 87 87.4 87.3 88.1 89.7 92 92 91.6 91 91.1 91.5 92 92.6 94.5 97.3 99.3 101.2 105.9 105.3
262.2 259.7 256.3 252.4 246.8 241 231.1 223.7 216.4 205.6 199.2 191.3 186.2 184.3 182.4 185 199 218.1 229.5 223.6 219 216.8 212.7 211.7 211.7 214.7 218.3 219.7 223.6 233.6 236.1 237.6 240 239.9 239.8 236.3 231.3 229.6 228.1 212.4 224.1 231.2 233.4 233.9 231.8 227.2 219.9 216.3 216 212.3 205.2 204.3 205.5 204.6 206 214.7 229.1 239.3 254 269.9 279.6 289.4 295.5 291.1 282.9 270.8 261.2 253.2 254.7 258.3 260.6 264.2 266.5 271 270.8 257.8 236.1 230.5 229.6 231.8 227.7 228.2 229.6 230.4 226.5 230.2 235.7 249.4 266.8 276.7 285.2 294.5 291.3 290.3 271.6 244 225.4 206.4 191.1 179 170.3 166.9 164.7 167.3 171.8 186 210 237.5 252.3 268 280.4 292.3 305.1 308.4 306.5 304.1 300.2 293.4 296.1 305.8 307.4 312.3 299.8 270.4 240.8 215.1 195.7 186.5 182.9 184.2 191.8 202.9 200.2 174.1 149.7 129.6 112.3 91.4 82.1 79.9 80.2 80.4 80.1 80.2 80.1 79.7 79.6 79.5 79.7 79.8 79.5 79.3 79.2 79.4 79.6 79.3 79.5 79.9 79.7 79.7 79.7 79.3 78.4 81.8 87.2 89.9 94.8 100.7 94.8 88.3 86.8 84.6 84.3 84 82.5 83.2 83.7 84.2 83.9 84.5 86.3 89.4 90.3 91.5 91.9 90 92.5 92 92 92.3 93.3 94.8 95.9 98 102.2 106.2 106.6 107.1 111.4 112
266.3 259 253.5 249.1 242.5 236.4 230.5 223.8 211 204.3 196.7 188 182.1 180.7 179.3 194.5 208.9 219.5 219 219.6 215.6 213.3 211.3 210.7 212.7 215.5 223.1 226.7 231.1 234 237.9 242.1 243 242.8 242 236 230.5 227.8 225.7 213.5 230 234.2 238.3 240 236 229.1 223.8 221.9 220.3 216.4 209.2 209.3 211.1 211.3 214.9 222.2 238.2 248.7 261.3 273.4 283.3 292.3 297.3 294.2 286.2 273.3 261.2 252.1 252.9 255.4 258.5 260.2 263 266.8 264.2 248.3 230.4 225.8 223.7 225.9 228.8 230.4 234.3 239.8 242.6 240.2 250 262.4 282.6 298 307.9 307.8 303.2 291 259.7 234.7 221.7 199.8 187.4 179.6 171.8 168.1 165.4 165.7 168.5 175.3 193.7 219.9 237.8 248.6 268.1 290 293 291.1 292.1 294.8 293.8 286.1 275.2 284.3 291 296.4 286.7 268.2 245.3 215.5 191.5 179.7 174.2 174.6 180.7 190 174.6 155.6 129.1 111.8 92.7 83.2 80.2 79.8 80.4 80.6 80.1 80.2 80.2 80 79.6 80 80 80.1 79.8 79.4 79.4 79.5 79.5 79.4 79.3 80.1 80 80.1 80 80.1 79.4 83 91.8 98.7 106.5 104.5 99 92.3 89.3 85.9 84.2 84.3 84 85.6 86.4 85.1 85 84.8 88.1 90.3 90.6 91.1 91.1 90.9 91.5 93.8 92.8 94.2 96.3 100.2 102.5 105.3 108.1 111.6 111.1 111.2 113.8 113.6
