ncols 200
nrows 82
xllcorner 390000
yllcorner 340750
cellsize 50
174.2 178.5 182.7 185.1 185.1 181.2 179.5 177.7 178.6 179.9 180.1 179.6 177.7 175.2 170.9 169.9 170.5 171.9 174.9 177.4 180.3 183.3 186.5 189.5 193.3 198.5 200.4 199 195.6 190.9 188.3 186 185.5 184.7 181.8 182 182.4 181.1 180.5 180 179.3 178 177.8 181.3 184.7 189 195.2 200.5 203.5 208.4 210.2 214.9 219.8 221.1 226.7 229.7 236.4 245.1 243.6 235.7 238.7 232.1 228.4 231.4 239.6 241.9 241.5 237.6 227.4 217.2 217.3 218.3 215.5 213.4 210.7 207.3 203.1 199.9 198.1 195.9 197.7 196 195.8 196.2 198.5 201.1 203.6 204.7 209.3 212 212.5 211.3 213.3 216.9 223.2 223.7 221.9 222.2 227.2 229.7 231.3 233.1 234.6 236.6 235.8 231.7 231.3 230.5 230 231.6 233.1 235.7 238.8 243.4 248.6 251.7 254.9 255.5 255.7 253.6 245.8 240 240.8 251.8 258.2 257.8 257.3 256.8 254.7 252.5 248.8 244.4 242.6 239.6 237.2 233.9 231.1 230.2 228.7 223.1 220.3 218 217.3 215.4 214.9 211.7 206.5 204.9 203.2 199.3 195.4 192.9 192.8 190.8 190.1 189.3 188 187.2 186.2 185.1 183.7 182.3 180.4 177.9 176.4 174.5 171.7 170.3 169.1 170.6 172.3 173.4 174.7 175.4 176 177.7 178.3 178.5 177.6 176.3 175.1 173.8 172.4 170.6 172.3 175.2 177.8 180 182 184.3 186.2 185.7 185.6 184.3 182.3 180.6 178.8 178.4 179.9 180.5
172.5 174 179.7 183 181.9 180.5 178.9 176.5 177.2 177.8 179.4 178.5 174.8 168.8 167.6 167.6 169.3 171.6 173.3 175.8 179.5 182 185.8 188.3 188.8 194.9 199.1 199.5 196.2 193.8 191 188.7 187.7 186.4 186.2 185.8 183.4 181.9 180.7 180.7 178.7 178.6 179.1 181.9 183.1 186.6 193.7 200.3 204.2 206.9 206.1 212.6 217.8 220.1 225.2 229.8 238.4 243 243.6 239.4 236.8 234.7 230.2 232.7 237 240.3 240.1 234.9 223.7 218.5 219.9 220.8 218.5 215.4 211.7 206.6 202.6 199.7 198.5 196.7 194.4 195 195.5 197 200.7 202.1 204.3 205.7 208.3 211.8 212.1 213.1 216 221.7 229.6 230.3 227.9 227.7 230.7 232.2 232.7 233.4 235 237 237.4 235.2 235.6 235.9 234.3 233.2 234 235.4 238 242.3 245.4 249.5 253.1 253.5 254.1 247.2 239.6 237.6 240.8 252.8 258 256.5 255.6 255.4 253.4 251.2 246.7 242.6 239.5 237.2 233.6 231 229.8 229.6 226.5 221 219.8 218.7 217.9 217.5 216.5 213.6 209.7 206.2 201.4 196.9 192.7 189.9 190.2 188.7 187.7 186.9 186.1 185.5 184.7 183.1 181.7 180.5 179.8 178.9 176.7 173.9 171.2 169.6 168.4 170.7 171.5 172.2 173 173.7 175.4 177.6 178.8 178.7 177.5 176.3 175.4 173 171.5 169.1 172.6 175.4 177.6 179.2 181.2 183.4 184.8 185.1 185.4 184.2 182 180.2 179.3 177.7 178.8 179.7
170.9 171.9 174.7 179.1 179.4 179.4 178.7 176.2 175.9 175.9 175.1 174.8 173.1 168.4 165.1 165.5 168.2 171.3 173 175 177.7 180.5 184.6 186.6 189 192.1 197.5 199.9 199 196.5 193.8 191.7 191.1 189.4 188.8 188.2 186.1 182.4 181.2 179.7 179.7 181.1 182.6 182.4 183.9 187.4 191.9 198.2 202.7 204.8 204.7 211.9 216 219.2 223.9 227.2 229.7 233.3 240.1 230.8 232.9 234.8 232.4 231.3 234.5 237.2 238.8 233.9 223.1 219.1 221.5 220.6 218.2 213.8 209.6 205 202.1 199 197.7 195.6 193.7 194.1 195 199.2 202.4 203.9 204.8 206.4 208.4 210.5 212.3 214.1 219.5 225 231.1 232.4 232.5 232.5 232.3 232.3 232.6 234 235.7 237.3 237.9 237.8 240.2 239.4 238 236.4 236.8 237.5 238.2 241.3 244.2 246.2 250 251.5 252.8 244.8 236.2 235.9 242.1 254.3 257.7 256.5 255.4 254 251.8 249.6 243.1 238.6 236.3 233.4 231.2 231.8 232 229.7 223.7 221.9 219.5 218.5 217.4 218.4 216.1 213.7 210.7 206.3 201.8 196.5 191.8 188 188.4 186.7 185.7 184.6 183.6 182.6 182.5 181 178.9 177.4 177.8 177.4 176.1 174.4 171.1 169.5 168 170 170.1 171.1 172.5 174 175.8 177.5 178.4 178.7 177.6 177.1 176.6 174.1 171.2 168.8 170.5 173.6 175.4 177.4 179.3 181.6 183.9 184.7 185 184.2 182.7 181.2 181 178 176.2 178.5
169.6 171.1 172.2 175.8 175.5 177.3 176.1 174.1 169.9 169.6 172.3 173.2 171.4 168.4 163.8 163.2 165.8 169.4 171.3 173.4 176.2 180 183 186.3 189.5 192.8 195.2 198.4 200.6 199.9 197.8 195.7 194.2 193.3 190.6 189.2 187 185 181.1 178.6 181.6 183.8 183.5 183.8 184.8 188 190.8 194.7 199.8 200.4 204.3 209.7 215.1 219.1 224.4 226.1 228.2 237.6 230.4 227.4 230.2 234 232 229.7 229.7 233.5 236.3 232.7 225.8 218.1 218 217.1 214.7 210.5 207.6 204.1 200.9 198.4 196.1 193.3 193.2 194.9 199 201.5 203.4 203.9 205.5 207.2 208.9 211 211.9 213.5 219.1 223 231.5 233.6 233.8 233.5 233 233 233.1 234.2 235.8 237.2 239 239.6 240.6 241.2 240.1 239.5 239.1 240.4 241.1 242.5 244.3 244.9 247.9 250.2 250.1 240.2 233.3 234.6 244.5 254.4 256.4 256.8 255.7 252.2 249.3 247.1 240.3 236.7 234 232.2 229.7 231.5 230.9 226.8 220.8 220.4 219 216.1 216.8 217.2 215.3 213.5 210.9 206.2 201.3 196.4 191.1 186.7 187.5 185.4 186 182.2 180.2 179.2 179.1 178.8 176.8 175.2 175.5 175.8 175 173.8 171.5 169.6 167.9 168.1 169.4 170.7 172 173.4 174.9 176.7 177.6 177.7 177.1 175.9 176.3 173.8 171.5 169.4 168.4 172.6 173.9 175.5 177.5 179.9 182.5 183.5 184.6 183.9 182.8 181.8 182.6 182.4 174.9 175.3
166 168 170.4 172 172.4 173.8 173.3 172.4 168.7 170.4 172.2 173 171.1 166.1 162.4 162.3 165.1 168.4 170.3 172.5 175.6 179.3 181 183.9 188.2 191.7 193.5 196.9 200 201.3 200.5 197.7 197.4 195.5 193.7 191.1 189.2 187.4 182.5 180.2 185.1 186.2 185.7 189.3 188.7 188.5 188.3 191.8 197.1 199.1 203.5 207.9 211.7 219.8 222.5 223.5 233.8 236.1 235 230.6 232.9 237 234 230.1 226.5 229.6 233 231.6 226 216.9 215.3 212.3 213.2 210.1 207.9 204.9 201.6 198 195.7 193.1 193.1 196.5 198.7 201.3 203.4 204.6 206.3 207.9 209.6 211.3 210.6 214.4 219.3 222.4 230.4 232.7 234.3 234.1 233.7 233.8 233.9 234.2 235.8 237 238.5 241.2 241.4 242.5 241.6 241.4 241.5 242.9 243.5 244.1 245.1 244.2 246.9 247.4 244.3 237.2 231.7 234.3 246.8 254.1 255.3 256.2 254.2 251.1 249.2 244.4 238.2 234.6 231.9 229.5 227.6 227.6 228.7 223.9 219.3 215.7 214.3 214 214.1 215.3 214 214.7 211.4 207.6 202.7 196.7 191.1 187.2 186.8 186.3 187.3 183 177.6 176.1 175.7 176.5 174.6 173.1 173.5 173.7 172.9 172.3 171.6 169.6 167.5 167.4 168.9 170.2 171.6 173 174.4 175.9 176.9 176.1 175.5 175.2 174.9 173.5 171 167.2 169.1 171.6 172.9 174 175.7 178.3 180.9 182.4 183.6 183.9 183.1 182.2 181.1 179.9 178.6 173.1
163 164.2 167.8 170.1 170.2 170.2 171 170.1 164.2 170.3 172.2 172.5 170.5 164.1 160.5 161.4 163.7 167.7 169.2 171.8 173.5 178.3 180.3 182.4 185.7 188.8 191.7 195.2 198.1 201.4 201.8 201.2 199.3 197.4 196.3 193.7 191.4 188.5 183.8 182.1 186.7 189.3 190.3 192.7 191.7 189.6 188.2 192.1 196.5 199.3 203.9 207.8 207.6 224.5 218.9 219.1 218.9 228.7 240.5 235.3 239.2 240.8 235.3 230.1 224.6 226 229.7 229.3 226.6 220.3 215.1 212.9 214.1 214 211.1 207.3 203.9 199.4 197 193.7 192.7 193.7 196.5 199.7 202.7 204.3 206 207.6 209.3 209.7 209.8 213.7 218.9 224.1 228.7 232.6 234.4 234.7 234.5 234.2 235.2 235.4 235.7 236.8 238 241.1 242.9 242.8 242.7 242.5 243.5 244.6 245.1 245.9 244.2 242.3 244.6 244.9 239.9 234.2 230 237.1 249.2 253.1 254.2 254.9 252.3 250.6 248.8 243.2 236.1 232.7 229.8 227.3 225.2 223.6 224.2 219.9 215.9 210.6 211.7 212 212.1 213.2 212.9 214.7 211.4 209 204.1 197.9 192.2 187.9 187 188.6 188.4 183.6 176.7 174.3 173.1 173.6 172.6 171.8 172.4 171.9 171.3 170.8 170.5 169.7 167.7 166 168.4 169.8 171.2 172.6 174 175.4 175.3 174.5 173.7 173.4 173.1 172.6 170.4 166 168.7 170.2 171.5 172.6 174 176.7 179.3 182.3 184 184.4 183.9 187.3 182.1 180.9 182 176.1
159.7 162.4 166.7 168 168.3 169 167.8 165.7 164 172.1 172.9 172.7 170 163.5 159.7 160.4 163.5 166.3 167.7 170.4 174 176.4 179.1 182 184.7 187.4 192.5 194.2 196.9 200.9 201.9 201.5 200.9 199.7 198.9 196.3 194.2 193.2 188.9 184.7 188.9 193.7 193.3 192.6 192.1 191.7 191.6 191.7 196 201.9 204.1 207 210.6 215.1 216.3 219.9 221.4 234 235.4 241.1 244.4 242.9 237.5 232.4 226.4 222.4 225.8 225.4 224.3 222.4 219.1 214.7 214.7 215.8 212.7 208.7 203.8 199.1 197.1 195.5 192.5 192.4 195.1 198.9 201.8 203.9 205.6 207.1 209.1 208.7 208.3 214.4 218.9 222.9 228.3 231.7 233.3 233.2 233.2 233.1 233.7 233.3 232.2 232.7 234.4 238.9 240.6 241.5 242.5 242.9 244.1 245.2 246.2 246 242.9 238.6 241.2 241.1 237.4 231 229.6 241.1 250.6 251.7 252.4 253 249.6 248.4 246.7 242.3 235.5 231.3 228.9 226.3 223.4 222 220.7 221 216.2 213 212.3 209 209.1 210.3 210.1 214.7 212.8 209.9 205.1 198.3 193.4 189.1 187.1 189 188.2 184.3 177.4 173.2 171.9 172 171.1 171.2 170.8 170.4 169.8 169.2 169.1 169 167.8 166.4 167.1 168.4 169.5 170.6 171.8 173 173.7 172.9 172.1 171.5 171.4 171.4 169.4 166.5 170.7 172.9 172.9 173.6 173 175.2 177.8 181.4 183.9 184 186.2 194 192 181.4 180.1 176.9
157.8 160.9 164.1 165.3 165.3 163.8 163.4 162.2 164.5 172 173.1 171.9 169.1 165.6 160.1 157.9 160.7 163.8 164.9 167.9 172.8 175.3 178.5 182.4 185.7 188.8 191.7 194.1 196.4 199.9 200.1 199 198.7 200.5 200.6 198.4 197.1 192.9 188.2 187.8 190.1 192.6 194.4 194.4 193.7 192.9 192.5 192.9 196.1 201.7 204.1 208.9 212.4 217.1 218.2 223.2 224.5 227.5 239.2 242.1 243.3 242.5 240 234.5 228.3 222.4 220.4 220.1 220.8 220.2 219.6 218.7 218.1 218.7 212.8 207.7 203.3 200.7 197.5 195.9 193.4 191.9 192.3 197.2 200.2 202.6 204.3 204.8 206.9 206.8 206.7 210.8 216.8 221.8 227.6 231 232.5 231.6 230.9 231.5 229.8 228.4 227.7 227.7 230.8 233.3 237.2 240.1 241.2 242.8 244.5 245.5 245.9 245.9 243.1 239.3 235.8 236.9 233.7 227.3 232 243 247.6 250 250.8 249.6 246.8 245.5 243.3 238.9 233.6 229.9 228.8 224.8 222.3 220.9 220.3 220.3 217.2 216.1 213.8 210.6 212.9 216.5 217.6 217.2 211.7 208.8 204.8 199 193.1 188.9 187.4 188.1 187.4 184.5 178.4 173.6 172.3 171 170 169.6 169.2 168.8 168.3 167.8 167.9 167.9 167.3 166.5 165.9 167 168.1 169.2 170.3 171 172 171.2 170.6 170.3 170.2 170 168.8 167 169.7 173.4 170.5 172.3 172.1 173.6 176.3 179.4 182.1 183.7 190.7 194.1 190.8 180.8 180.8 175.4
157.1 159.5 161 162.5 163.4 160.8 160.9 157.5 158.4 163.8 167.2 168.3 167.4 163.2 160.1 157.3 159.3 161.4 162.7 164.9 170 173.4 176.3 180.4 183.7 187.5 192.2 196.1 197.4 197.9 197.3 195.8 194.7 196.9 196.5 202.1 199.9 197.4 192.9 191.3 192 192.7 192.6 194.6 194.7 195.6 196.4 195.9 197.5 200.5 205 212.4 215.4 217.8 220.7 223.4 228.2 233.4 235.7 238.6 234.2 239.9 241.3 236.7 230.8 225.4 224.3 219.8 215.8 215.8 216.9 219.2 222.5 217.1 211.5 208 203.2 201.5 197.9 196.6 194 191.6 190.8 193 197.1 200.1 202.9 203.3 207.1 207.1 207.2 206.9 211.9 219.2 226.5 230.4 231.3 230.9 225 224.9 223.7 221.9 221.7 223.9 226.5 230.1 233.6 236.2 239.1 242.4 244.6 245.3 244.7 245 242.6 234.7 231.1 235.2 231.8 226.3 233 240.5 244.6 247.8 248.7 245.2 243.9 243 238.9 234 232.1 229.3 227.7 224.3 220.8 219.4 220.2 218.2 216.8 215.5 215 214.2 213.4 215.7 216.6 214.4 209.9 206.5 203.9 197.9 191.8 187 186.5 185.8 185.1 181.8 176.2 174.3 174 173.4 171 170.2 169.3 168.5 167.6 167.1 166.4 165.8 164.9 165.5 165.3 165.5 166.5 167.6 168.7 169.3 169.9 170 169.9 169.5 169.3 169.1 168.2 167 167.6 172.6 169.3 170.2 170.6 172.1 175.3 178.1 180.9 183.5 189.1 188.7 181.3 181.2 181 180.1
153.7 157.3 158.4 159.8 162.9 159.7 157.2 155.7 154.9 159.3 164.7 165.4 164.7 161.6 159.3 156.8 158.6 159.2 160.6 163.2 168.1 171.6 175.1 178.9 182.5 186.6 190.7 195.8 198 197.8 195.2 192.7 193 193.4 196.7 200 203.7 201.6 199 195.8 192.7 192 191.6 193.4 195.4 197.3 197.7 197.6 199 201.5 206.6 215.6 218.3 221.3 223.6 226.7 233.5 235.6 234 229.3 225.2 231.6 239.3 239.4 234.1 230.3 231.2 225.2 219.4 215.3 212.4 213.6 216 213.6 209.6 206.6 204.1 201.2 198.5 196.6 194.9 192.6 190.7 191.1 193.4 196.6 199.2 201.8 204.9 208.1 208.6 206.6 208.6 216.3 223.6 227 228.9 229.6 224.3 219 218.6 220.4 225 227.8 229.4 230 232.4 235.2 239.1 242.6 244.8 246.3 244.9 242.7 237 232.1 229.8 232 227.9 224.9 232.5 237.4 242.7 245.6 244.4 242.3 240.8 239.3 235.1 232.7 230.5 227.3 226 223.2 220.8 218.7 218.6 217.3 215.6 214.6 214.9 214.8 213.5 214.7 215.5 213.4 205.7 199.6 201.2 195 189.8 185.4 183.1 182.8 181.4 176.5 176.9 177.1 176.2 175.3 172.6 171.6 171.3 171.1 171.6 169.9 168.2 166.7 166.2 165.4 164.9 164.7 165 166.1 167 167.6 168.3 168.8 168.5 168.7 168.4 167.8 167 166 164.9 167.4 168.1 168.8 170.7 172.7 174.7 176.3 178.5 181.2 184.8 180.6 180.8 181.7 181.5 180.8
152.2 154.6 155.1 160 165 159.1 154.3 152.8 153.5 156 159.7 161.4 160.2 158.4 157.1 156.4 157.2 156.3 159.2 163.4 166.1 169.5 172.9 176.6 179.6 184.3 190.2 193.5 195.8 196.6 194.4 191.9 191.6 190.9 191.7 196.7 200.3 203.3 202.4 201.3 193.7 192 191.1 190.8 193.6 196.3 197.4 197.6 198.1 202.1 209.5 218 220.6 225.3 229.6 232.6 234.6 224.6 221.1 218.8 215.7 229.3 237.4 238.1 235.5 233 233.1 228.5 223.6 218 213.4 209.8 208.9 208.9 207.2 204.5 202.5 201 198.4 196.6 194.3 193.4 190.7 190.4 191 195 196.4 201 205.2 208.3 208.9 206.2 206.3 212.3 215.5 220.1 222.7 223.8 220 215.6 217.1 222.3 225.6 230 232.3 235.1 235.6 236.8 240.6 243.1 245.1 247.1 247.5 245.8 235.2 232.6 226.3 226.3 222.7 223.5 231.7 237 240.9 242.6 241.7 239.5 238.7 236.3 234.3 232 229.3 226.2 223.6 220.8 218.9 217.6 216.3 215.1 214.1 214.2 214.3 213.7 213.1 210.7 205.6 200 198.1 191.7 188.8 187.8 184.2 181.7 179 178.4 180.7 179.1 180.1 180 178.4 176.9 174.1 175 175.2 175.4 174.3 172.5 170.7 168.6 166.8 165.9 165.1 164.2 164.2 164.5 165.3 165.9 166.6 167.3 166.8 166.9 167.1 166.9 166.1 165 164.1 165 166.5 168.3 170.2 172.5 174.3 175.9 177.5 179.4 180.8 180.7 181.7 181.7 181.5 181.2
149.4 149.5 149.5 150.6 150.8 149.3 151.4 152.6 153 154.4 154.7 156.9 155.3 156.3 155.6 153.3 152.6 152.8 156 161.2 165.2 168.4 171 173.7 178.3 181 185.5 189.5 191.8 192.9 191.7 190.2 189.7 189.9 188.3 190 194.4 198.8 200.6 202.5 198 191.9 190.6 188.9 188 191.4 191.9 192.5 195 198.5 205.6 215.3 221.8 232.8 232.8 233.3 229.1 221.1 210.9 209.8 214.9 228.4 236 235.8 233.5 231.6 230.5 229.6 226.1 218.8 214.7 212 207.2 205.8 204.9 202.8 201.3 199.8 199.1 197 194.9 193.4 190.9 190.3 190.6 191.3 196.1 200.4 204.7 206.8 207.3 206.3 203.6 208.7 210.1 212.1 215.2 216.9 212.7 213.3 221.4 224 226 230.9 234.6 237 238.8 239.6 241.6 244.1 245.3 247.3 248.7 246.4 238.2 226 222.9 224.8 220.4 222.4 229 233.2 236 238.3 238.1 236.6 236.4 234.9 232.6 230.3 228.1 224 221.6 219.6 216.9 215.6 214.2 213.1 213.3 213.5 213.4 212.7 211.4 211 205.6 195 187.4 184.4 181.8 179.6 179 177.8 178 179.2 180.9 182.8 183.1 181.2 178.7 177.9 176.1 177 177.9 177.2 176.2 175.3 173.2 170.8 168.2 166.8 165.9 165 163.9 163.3 163.9 164.5 165.8 164.2 165.3 165.4 165.6 165.6 165.6 164.3 163.9 164.6 166 167.5 169.1 171 173.1 174.7 176.1 178.2 184.7 186.9 180.4 180.7 180.9 181.2
146.7 146.3 145.7 146.1 147.2 148.5 149 151 151.7 151.6 152.1 152.2 151.3 152.5 152.8 152 149.7 150 152.6 157.6 161.8 166.1 169 173.5 176.2 178.4 181.4 185.1 186.3 186.9 188.2 186.7 186.8 186.8 185.6 186.9 189.1 194.4 196.8 198.6 199.4 195 188.5 184.5 181.3 181.7 183.9 187.4 193.3 196 201 209.8 219.5 228.9 231.3 227.1 216.9 214.7 206.5 204.6 211.9 223.4 236.3 236.3 233.5 229.1 225.3 223.8 223 219.9 214.5 211.4 207.4 204.6 203.4 203 202.2 200.9 198.7 198.1 196.2 193.1 191.1 190.2 190.4 190.5 195.1 198.9 202.8 205.6 206.7 205.9 203.7 205.3 207.6 209.7 211.5 209.6 210 218 223.5 225.7 228.9 231.1 234.8 238.3 240.7 242.4 243.9 245.3 246.4 247.5 250 247.4 238.4 225.5 226.6 226 219.9 220.7 224.6 230 231.3 232.9 234.2 235.1 234.1 232.4 230.5 228.6 226.6 223.1 219.6 217.6 216.4 215.1 212.7 211.7 212.2 212.7 212.3 211.5 210.1 210 206.4 200.7 189.3 182.3 180.9 186.4 185.3 182.7 181.8 184.3 185.8 185.8 185.1 182.4 179.7 178.3 178.1 178.7 179.2 178.4 177.2 176.3 175.2 173.3 170.5 168.1 166.8 166.2 165.2 163 162.7 163 163.3 163.6 163.9 163.9 164 164.1 164.3 164 163.4 164.6 166.2 167.7 169.4 171.3 171.9 173.2 174.4 176.8 184.7 187.8 180.2 180.5 180.7 181
142.1 143.6 144.1 144.5 144.5 146.4 146.7 149 150 149.7 150.9 150.3 149.8 150.1 151.5 149.1 148.2 149.2 151.3 155.3 158.4 162 166.3 171.2 175.6 177.8 179.5 180 182.3 182.9 182.7 183.1 184 183.8 183.4 182.9 184.8 189 191.6 194 197.5 197.5 193.1 185.8 177.7 176.7 179.6 185.3 188.2 192.4 197.2 204.8 213.2 221.3 223.6 218.9 210 206 202.5 202.8 206 214.9 223.6 234.3 234.4 230 223.5 221.6 219.4 216.3 213 209.3 206.2 204.2 202.3 202.4 201.9 200.9 200.1 197.5 195.3 192.9 191.3 189.9 189.4 189.7 191.5 195.6 200.9 204 206 205.9 202.9 202 205.3 207.4 207.9 207.7 212.7 218 223.9 227.1 229.1 230.7 233.6 237 240.8 243.8 245.1 246 247 248.1 249.1 247.3 237.4 225.4 233.8 233.2 224 222.8 224 227.7 229.9 230.3 232.1 233.6 232.5 230.9 229 227.1 224 221.8 218.6 216.5 216 213.6 211.5 210.5 210.7 211.5 211.1 210.3 207.5 204 202 194.1 185.2 181.2 190.1 197.1 190.6 189 187.3 188.6 189.3 188.9 186.3 183.5 180.8 178.9 180.7 181.1 181.2 179.5 178.3 177 176.1 175.2 172.6 169.7 167.7 166.7 165.9 164.7 163 161.9 161.8 162.2 162.7 163.1 163.3 163.5 163.8 164 163.1 164.8 166.3 168 169.7 171 170.8 170.8 172.4 174.3 174.2 174.8 179 181.2 181.2 181.9
135.5 140.5 141.3 142 142.2 143.1 144.4 146 147.7 147.6 149.3 148.8 148.6 148.8 150.6 149.4 148.2 148.5 149.4 152.1 155 158.5 164.3 168.6 173.9 176.8 177.8 175.2 175.8 180 180.3 180.7 180.8 180.4 180.6 180.5 181.7 184.6 186 188.7 191.4 194.5 193.4 189.6 182.9 176.9 176.9 180.3 185 188.8 195.6 200 205.7 209.9 211.3 207.4 202.1 199.7 197.3 198.8 201.5 205.2 213.9 231.2 230.5 226.8 221.9 217.7 215.7 212.2 208.9 206.7 204.8 203.7 202.3 200.5 199.3 198.9 198.7 197.7 194.7 192.4 191.7 190.4 188.8 189.1 190 192.8 197.4 201.4 206.1 206.1 205 202.1 201.4 205.2 205.3 207 211.4 216.6 219.2 223.1 224.7 228.8 234.8 237.8 241.8 244.6 245.8 246.7 247.7 248.7 249.6 247 235.9 228 227.8 229.3 225.2 221.5 222.7 225.4 227.5 229.8 231.1 232.1 230.8 229.3 227.5 224.5 221.6 219.1 216.9 215.1 213.7 211.3 210.4 209.4 209.5 210.1 210 208.9 203.1 199.2 194.8 187.8 182.9 191.9 198.9 200 194.4 191.5 191.8 192.4 191.7 190.8 188.2 185.4 182.4 181.9 183.5 183.2 183.2 181.7 179.7 177.9 176.9 176 174.6 171.7 169 167.1 166.2 165.1 164 162.4 161.9 161.1 161.6 162.3 162.8 162.9 163.1 162.9 163.2 164.9 166.6 167.4 167.9 168.3 168.7 169.1 174.1 172 174.2 174.2 177.6 183 182.6 183.7
135.1 137.1 141.3 140.2 140.4 141.1 142.3 143.4 145.6 146.1 146.5 146.5 147.9 148.3 149.1 148.7 149.4 149.3 148.7 150.9 153.7 157.6 162.2 167.5 171.9 173.6 173 172.9 175.1 175.8 177.2 176.8 177.3 177.3 177.3 178.3 180.1 183.7 184 185.8 190 191.1 190.7 189.2 188.2 181.7 175 177.9 184 187.5 193.5 197.2 198.7 200.6 200.7 199.1 195.9 194.5 193.9 195.9 197.8 200.6 208.8 220.6 220.7 217.9 215.2 213.4 212.9 211 207.9 205.1 204 203 201.7 199.9 198 197.7 199.5 196.7 194.9 191.9 191.7 189.3 188.6 188.7 189.8 191.9 197.5 201.4 204.1 205.4 206.2 202.8 199.8 202.4 202.6 206.7 210.4 212.4 215.2 219.8 229.6 233.4 236.3 239.5 242.6 245.6 246.4 247.4 248.4 249.3 248.2 245 238.2 225 224 225.9 227.8 221.9 221.8 220.5 223.9 227.7 230.3 230.3 228.9 227.5 225.8 222.9 220 217.4 215.2 213.1 211.2 209.4 209 208.9 209 209 208.9 207.9 201.6 194.8 189 185.1 190.2 199.2 207.2 201.5 197.5 194.3 193.8 195.3 194.5 192.8 189.3 187.2 183.9 183.5 185.8 186.8 186.6 184.5 182.8 180 177.5 176.3 175 173.3 170.6 167.7 166.5 165.4 164.3 163.4 162.3 161.3 160.4 160.6 161.3 162.1 162.2 161.7 162.7 164.4 164.9 165.4 165.8 166.3 166.8 167.4 177.6 174.6 172.9 174.2 176.7 181.4 183.8 183.1
134.6 135.4 138.8 140 140.3 139.3 141.4 141.8 143 143.9 144.8 146.7 146.7 147.7 148.3 148.3 150.3 150.1 149.7 150.4 152.6 154.8 159.5 164 169.6 170.1 168.6 169.1 172.1 172.4 173.8 173.9 174.5 173.6 173.7 177.3 179.4 181.5 182.8 183.9 188 188.8 188.7 187 186.8 184.3 178.2 176.6 180 186.5 190.2 195 195.1 194.3 194.3 190 191.2 190.3 189.9 191.2 194.8 197 201.6 209.8 209.8 210.6 210.5 210 209.4 208.6 207.6 205 204.2 202.9 200.8 200 198.5 195.6 194.9 194.3 193.2 191.4 190.8 189.9 188.2 188.1 189.2 192.2 197.8 200.9 203 204.4 205.4 204.6 199.8 199.5 201.4 204.6 208 210.6 213.7 218.9 227.8 232.5 236.7 239.8 242.7 245.9 247.1 248.1 249 249.6 248.1 243.8 234.7 223.4 223.8 226.9 225.2 219.5 215.4 217.1 224.5 226.7 228.8 227.9 226.8 225.8 224.1 221.3 218.3 215.6 214.4 212 209.5 207 205.9 206.3 207.7 207.9 207.9 207.4 200.3 192.8 187.5 184.5 201 208.6 209.4 204.2 201.8 198 194.9 197 195.8 193.3 190.9 188.8 185.5 185.5 187.8 189.6 189 187.3 184.6 181.8 179.1 176.3 174.5 173.2 170.7 168.2 167 166 165.3 164.6 163.3 162.1 161.2 160.2 159.3 160.6 161.3 161.4 162.1 163.9 164.4 164.8 165.3 166 166.5 166.9 171.8 178.6 173.4 176 174.3 181.4 183.5 182.9
134.7 135.5 137 137.8 138.5 138.1 140.8 140.6 141 143.6 144.4 146.1 146.5 147.2 147.4 147.7 150.5 150.1 150.6 150.5 152.3 154.4 156.8 160.4 165.2 165.1 165 165.6 168.1 168.2 170.4 171.8 171.3 170.5 173.3 176.7 179.5 181 182.5 183.8 185.1 186.3 187.1 184.9 185.1 184.4 177.9 176 179 184.5 189 191.7 191.6 189 188.3 187.1 187.1 187.1 187.1 187.1 190.8 193.4 196.9 201 203.5 205.9 207.2 207.3 207 206.2 205.8 205.5 204.3 203.8 203.1 201.2 198.8 195.6 193.8 192.6 191.8 191.3 190.7 188.8 187.8 187.6 188.8 191.1 196.5 200.8 201.1 202.9 204.3 203.3 199.5 198.4 200 203 206.2 209.8 214.2 219.2 223.7 229.8 234.9 239.9 242.5 245.5 247.5 248.6 249.1 249.6 247.8 244.5 235.4 227.7 224.2 223.9 221.9 217.6 214.5 217.3 225 226.4 226.4 224.9 225.1 224.1 222.3 219.7 216.5 214 212.9 211.2 208.2 205.7 204.5 205 206.3 206.8 207 207.3 202.4 194.6 188 187.4 203.7 214.4 211.1 207.6 204.8 200.1 198.1 199.3 198.3 195.6 192.9 190.3 188.6 189.1 191 191.9 190 188.2 185.5 181.9 179.4 176.3 173.4 171.9 170.3 169.8 168.8 167.9 166.7 165.9 164.5 163.2 161.8 160.6 159.5 159.4 160.9 160.7 161.5 163.1 163.9 164.5 165.1 165.7 166.3 167.4 171.1 171.8 176.7 178 179.9 182.2 184.4 183.1
134.3 137 137.2 138 137.4 135.5 138.5 140.5 142.2 142.9 144.8 146.7 146.3 145.6 145.7 145.6 149.1 151.2 151.5 151.4 151.7 153.5 155.3 157.5 159.4 159.8 160.9 162.8 164.6 166.6 168.1 169.8 169.6 170 174.1 177.8 180.2 182.6 183.7 183.9 184.5 184.4 183.8 183.9 182.5 180.8 178.5 172.8 178.4 181.7 185 185.6 185.2 186.1 183.9 183.4 185.1 187.1 187.1 187.1 189.3 192.3 194.8 197.9 201.6 203.7 204.2 204.9 205.2 205.6 205.1 204.9 204 203.3 200.9 199.4 198.3 196.6 193.9 191.5 190.8 190.4 189.7 187.9 187.5 187.4 189.1 191.9 197 200.9 199.8 200.8 201.6 200.4 198.3 197 198.7 201.5 207.3 211 214.5 219.1 223.3 227.5 231.8 236 237.5 243.7 246.9 248.6 249.2 249.1 247.8 243.7 240.5 233.7 227.2 225.8 227.4 217.7 214.3 218.1 224.7 224.1 223.1 223.2 223.6 222.3 220.6 217 213.6 211.6 210.4 209.4 207 203.7 203.2 204.1 204.9 206.3 207.3 207.2 206.5 197.8 188.9 186.9 202.8 213.8 213.1 209.8 206.1 201.7 201.7 201.9 200.2 198.1 195.4 192.6 191 191.9 193 192 189.2 186.8 184.7 181.7 178.4 176.3 174.6 173.6 173.4 172.3 170.9 170 168.8 167.5 166 164.5 163 161.7 160.7 159.2 160.6 159.2 161 162.6 163.5 164.3 164.9 165.7 166.8 167.9 171.1 173.9 178.2 181.1 183.6 186 186.6 185.3
135.7 136.2 136.7 137.2 136.8 135.6 136.1 136.5 140.4 140.9 142.4 145.4 146.1 144.2 143.5 145.1 147.4 149.9 151.8 152.1 151.2 152 153.6 156.1 156.4 156.1 157.6 159.9 162.1 164.6 165.9 167.6 166.2 168.6 172.2 174.3 178.9 183.4 184.1 184.1 183.9 184 182.9 183.1 181.2 180 178.1 173.7 176.5 179.8 181.3 182.6 181.8 181 180.7 179.7 181.3 185.1 187.2 188.6 191 192.7 195.5 197.6 200.3 203 203.7 205.1 205.3 203.8 203.1 203.5 202.6 200.9 198.4 197.2 195.8 194 192.9 190.8 190 189.5 188.4 186.9 187.1 187.8 191.6 192.8 198.6 199.6 199.6 197.9 198.5 197.4 196.6 196.6 198.5 202.6 207.4 211.6 214.2 217.8 220.1 222.2 225.6 231.2 236 238.6 244.8 247.8 248.8 248.5 246.9 244.2 242.8 238 229 225.8 226.3 217.3 212.8 216.9 222.2 221.4 220 220.5 221.6 220.2 218.9 215.2 210.8 207.7 209 206 203.7 201.8 200.1 200.8 203.7 204.9 206.1 206.5 205.4 197.8 189.9 188.5 203.1 214 213 209.9 207 203.3 203.1 202.7 201 199.3 197.5 195 194.2 194.3 194.1 191.8 189.7 186.5 184.3 181.6 179.3 177.9 177 176.1 175.3 174.6 173.8 173.5 170.9 169.2 167.4 165.7 164.1 163.1 162.2 160.3 158 158.1 160 160.5 161.5 162.9 164.2 165.3 166.4 167.8 170.2 175.2 182 187.1 188.5 192.6 191.3 190.7
136 135.6 135.8 133.6 134.9 137.5 137.3 136.6 140.5 140.9 142.2 144.2 144.6 144.8 144.2 143.8 146.6 147.3 149.4 151.1 150.2 150.1 152.2 153.7 154.2 154.7 156.2 156.7 157.6 158.5 164.2 164.7 165.5 167.1 170.3 173 177.5 181.3 183.7 184 184.4 183.3 182.3 182 181.2 178.7 178.4 173.5 175 178.6 178.4 179.3 177.6 176.8 177.1 179.1 181.2 183.4 187.2 189 191.7 194.7 196.3 197.8 199.9 203.3 204.2 205.2 203.9 202.8 201.7 201.2 200.5 199.7 200.3 197.9 197 194.8 192.6 190.3 189.3 188.2 187.2 186.4 186.9 191.8 193.4 193.6 197.1 197.8 198 196 195.2 194.7 194.6 195.1 198.2 202.3 207.1 211.8 213.6 215.1 216.4 217.7 220.4 224.6 230.5 233.4 239.9 244.5 247.6 248.2 247 244.9 241.3 236.1 230.3 227.2 222.5 217.6 212.3 214.4 219.7 217.2 218.3 219.1 219 220.9 217.9 212 207.5 204.6 204.5 203 200.7 200 198 196 199.6 202.5 204.6 205.6 204 196.5 189.5 196.1 207.8 213.5 212.5 209.7 207.1 205.2 204.9 203.3 202 200.7 198.9 197.2 197.5 196.5 194.6 192.2 190.2 188 186.4 184.1 183.3 181.9 180.4 179.4 178.8 178.3 177.9 177.8 175.9 172 170.5 167.7 165.5 164.6 163.7 162.6 160.4 157.6 158.2 158.8 160.2 160.6 162.6 163.7 164.9 167 169 175.1 183.7 194.1 197.4 200.3 199.7 198.6
136 136.7 137.2 137.9 138.4 138.8 137.5 139.2 140.4 141.1 141.3 143.5 143.8 144.3 144.1 144.4 143.9 146.1 148.5 148.9 147.7 148.4 149.3 151 151.7 151.9 153.2 153.1 152.8 154.6 163.4 164.6 165.4 165.7 169.8 173 175 178.4 182 182.8 183.2 182.5 182.2 181.8 180.7 177.5 177.2 175 173.5 176.2 175.8 174.9 174.3 172.7 176 180.4 182.5 184 187.4 190.1 192.3 194.6 196.7 198.6 200.7 203.9 205 205.1 205.4 204 202.6 202 202.4 204.1 203.4 200.4 197.8 195.2 192.4 190.5 188.7 188.4 186.6 186.3 188.6 191.5 193.2 194.4 195.6 197.1 198.3 196.3 194.6 193.7 193.6 193.6 195.8 200.4 204.9 208.1 209.7 210.3 212 213.7 213.9 217 220.3 226.4 233.9 239 245.2 246.3 246.1 244.7 242.5 238.2 236.2 232.1 226.7 219.7 212 211.8 214.6 213.3 213.3 215.6 219.7 216.6 214.3 208.4 205.5 204.2 204.1 201.9 203.8 202.9 199.5 196.3 196 199 202.3 203.2 201.6 195.1 188.6 201.8 210.4 213.7 213.4 211.4 209.3 208.5 206.8 204.7 203.9 203.1 202 201.1 200.7 198.6 196.4 194.6 193 190.6 189.1 188.1 187.3 184.7 183.5 182.6 182.4 182 181.7 180.7 179.1 176 172.3 169.7 167.8 165.8 164.6 163.5 162.4 158.8 156.2 156.7 158 159.6 160.9 162.1 164 166.1 168.2 173.7 184 195.6 203 211.9 206.8 205.3
145 144.3 142.6 137.6 137.7 138.2 139.7 140.5 141.3 141.4 142.1 143.9 144.3 143.5 144.7 143.5 144.7 145.1 147 146.7 146.1 147 148.4 148.5 149.4 150.4 151.6 152.3 152.3 154.7 162.3 160.4 164.3 167.6 170 173.3 175.9 177.8 180.6 182.2 185.1 182.9 182 181.8 180.6 177.7 176.2 175 170.9 174.3 173.6 170.5 171.9 172.6 175.7 180 183.3 185.6 189.4 191.9 194.2 196.4 197.3 199.1 201.6 204.7 205 205.2 205.8 205.4 204.6 205.1 204.6 205.9 203.9 201.6 197.5 194.5 192.6 190.7 188.2 187.9 186.4 185.9 187.5 190.8 192.9 194.1 195.5 197.1 197.9 196.7 195.2 194.8 194 193.5 193.1 196.4 200.2 203 205 204.6 205.5 208 210.1 213.1 217.1 221.6 227.1 234 240.8 243.8 244.2 244.5 243.4 242 238.7 233.6 227.4 220.7 214 210.3 210.5 209.8 208.9 210.7 212.3 210.2 207.7 205.5 205.1 206.4 207.2 206.2 206.1 204.4 202.7 199.8 196 194.7 197.9 197.8 194.6 191.7 192 203.3 210.7 214.4 214.5 212.2 211.1 210.6 208.2 208.3 207 207 206.1 206.9 204.9 202.2 200.2 197.5 195.8 194.7 192.8 192 190.9 188.3 185.7 186 185.7 183.7 183.9 182.9 181.4 178.5 174.6 171.6 170.5 168.1 165.5 164.4 163.4 160.1 157.1 155.2 157.6 159.2 160.1 161.1 163.9 165.6 167.3 175.9 185 190.4 196 205.5 215.8 212.3
154.3 148.2 146.2 145.7 145.3 140.9 136.9 136.7 142.2 141.7 142.4 143.4 143.4 142.2 142.4 142.9 146.3 144.3 145 146.9 145.7 145.6 146 147.3 149 150.1 151.6 152.2 152.4 154.2 155.9 158.7 163.4 167.6 170.1 173.3 176.9 177.1 179 183.3 182.6 182.4 178.5 179.7 179.5 178.3 176.3 175 170.8 171.5 177.8 177.5 174.6 172 176 181.3 184.5 187.8 190.3 193 195.8 198 199.9 201.5 204.2 205.1 205.7 206 206.4 206 205.9 206.5 206.8 206.3 204.5 201.2 198.2 194.3 192.6 190.8 188.2 186.5 185.9 185.6 186.3 190.1 192.6 193.8 194.9 196.1 196.8 196.5 195.7 195.3 195.9 195.9 193.1 191.8 194.5 196.3 197.9 200.7 204.3 207.2 211.9 213.9 216.2 220.1 223.4 228.3 234.6 240 241.8 242.3 242.8 242.1 240 236.1 230.3 226.5 217.4 211.2 210 209.1 209.8 208.9 207.6 207.7 208.4 209.4 209.6 210.6 209.7 208.8 207.9 206.2 204 201.2 197.4 195.1 194.7 194.7 192.4 193.9 198.2 207.3 214 215.1 215.4 214.5 213.7 213.6 213.6 214.6 215.1 211.6 211.9 214 209.6 207.7 207.9 203.4 200.3 197.1 196 195.2 192.9 191.8 190 187.7 184.7 183.5 183.7 183.3 182.6 179.4 175.5 172.8 171.8 170.8 167.9 165 163 160.7 157.9 155.2 156.5 158.1 158.9 160.3 163.5 165.9 167.8 174.7 182.1 190.9 198.3 205.9 212.4 217.8
154.4 148.8 146.9 147.4 147.7 146.5 144.8 141.7 139.4 138.7 137.2 144 142.7 142.9 143 143.3 142.7 142.6 142.1 142 142.3 142.9 145.6 146.3 148.2 149.8 151.4 152 152.2 152.3 155.3 157.3 160.9 164.2 169 172.6 175 176.9 178.5 179.2 180.1 177.6 174.8 176 176.4 176.3 175.9 174.9 173.3 173.5 172.8 172.4 173 174.5 176.2 181.5 185.6 189.1 192.2 195.7 198.1 199.4 201.5 203.3 204.5 205.4 206.3 206.9 206.8 207 207 207.1 207.3 205.8 204 200.6 196.4 193.5 192 190.4 188 186.1 185.2 185.7 186.4 190.3 191.9 192.9 193.9 194.9 194.8 194.5 194.8 195.1 195.4 196.4 197.1 192.7 190.5 192.3 196 201.4 207.1 211.1 214.6 216.3 217.9 219.9 222.3 224.7 229.9 235.1 237.9 238.8 239.5 241.1 240.6 236.4 233.2 228.6 220.8 214.4 210.6 210.1 214.8 215.5 214.2 216.2 217.6 217.8 214.7 213.2 212.2 211.6 208.8 206.7 204.2 201.4 199.2 198.2 198 197.1 198 200.7 204.8 209.4 214.2 215.6 219.8 221.5 218.8 216.3 217.9 222.7 221.1 216.2 218.2 217.9 216.3 214.3 216.4 208.9 205.3 200.3 196.5 194.4 192.6 190.2 188.8 186.6 183.6 183.3 183.2 181.9 180.4 178.1 175.3 174 172.9 172.4 170.2 167.4 165.4 163.3 160.1 157.2 155.4 156.3 157.5 159.5 162.6 165.8 169.2 174.8 180.3 187.1 197.1 203.8 215.1 219.3
151.1 146.4 146.7 146.9 146.9 146.3 144.6 144.8 145.1 144.3 144.1 140.1 144.4 143.5 143.6 143.5 143.3 142.1 141.7 141.2 141.4 141.3 147.3 146.1 145 148.1 149.7 149.9 150.1 151.5 153 157 160.3 162.6 165.1 169.9 172.8 174 174.3 174.2 175.3 173.8 173 172 172.8 174.1 174.6 173.4 173.4 173.1 172.6 172.5 172.8 175.2 178.2 181.9 185 188 191.7 195.9 199.5 201.4 202.8 203.5 204.8 205.7 206.6 207.5 208.4 207.7 207.9 207.6 207.1 204.4 201.3 197.8 195 192.7 190.5 189.1 188.1 186.8 184.9 185.8 187.4 189.9 191.5 192.5 193.5 193.8 193.3 193.4 194 194.6 195.8 196.8 197.9 196.5 190 190.2 194.4 197.4 205.9 213.6 216.2 217.9 219.6 221.3 221.4 223.6 226.7 230.5 233.5 235.4 237.2 238.8 239.5 236.7 229.9 227.3 222.1 216.8 211.7 213.3 216.9 220.7 223.5 224.7 226 226.2 225.6 222.9 216.4 211.1 207.3 205.5 203.8 202.2 201.8 201.5 202.1 201.2 200.5 203.6 206.4 211.5 217.7 222.2 222.7 227.6 220.2 221 219.8 227.5 225.3 220.4 227.1 222.3 223.3 223.9 219.9 212.2 205.1 198.8 194.4 192.1 189.8 188.1 186 185 182.6 181.5 180.4 179.4 178 175.9 173.1 172 171.5 171.7 171.4 169.7 167.6 165.4 163.6 159.7 155.3 154.5 154.8 158.6 161.5 164.9 168.4 171.9 178 184.1 190.9 199.6 209.6 221.2
147.9 148 147.8 147.7 146.6 145.5 145.1 145.4 145.2 143.1 144 145 138.5 144.2 143.8 143.2 144 142.6 142.8 142.7 143 141.8 142.7 142.5 146.9 147.2 147.6 149.1 149.4 151.7 152.5 155.5 157.5 160.9 163.2 166.9 168.2 170.2 169.5 170 170.8 168.9 167.3 167 168.6 171.3 172.2 170.9 171.9 172.7 171.4 172.7 172.9 176.9 180.8 184.4 187.2 189.4 192.9 196.3 198.5 199.9 201.2 202.5 204.2 206 206.9 207.7 208.1 208.3 209.4 209.3 208.6 205.5 200.7 197.1 194.6 192.3 190.1 188.2 187.3 186 184.5 185.1 186.7 189.1 191.1 192.4 193.1 192.7 192.2 192.7 194.1 194.7 195.6 197.2 198 195.9 190 188.7 190.3 197.7 207.8 214.5 217.7 219.5 221.2 223 222.2 222.2 225.4 228.8 230.5 231.9 234.7 236.6 237.4 237.6 230.2 223.1 220.3 215.9 211.2 213.8 217.7 222.6 228.4 230.6 231.9 229.4 228.1 221 214.1 209.9 206.1 204.3 203 202.1 203 204.1 205.9 204.9 202.8 204.2 206.9 211.2 217.6 226.9 227.8 232.1 225.5 225.7 224.1 228.5 230.5 224.4 235.1 232.5 231.6 224 213.9 206.5 201.1 195.6 191.6 188.9 186.7 184.7 183 182.6 179.8 177.7 176.6 174.8 173.4 173.2 170.6 169.6 169.1 168.9 168.6 168 167 165.6 163.6 161.6 158 155.5 153.2 155.3 159.7 162.9 166.1 169.2 174.8 185.5 197.8 206.4 209.9 215
149.5 149.6 149.6 148.5 148.1 147.1 146.1 146.2 144.3 143.1 144.6 145.7 146.5 139.2 145.1 144.8 144.9 145.7 145.7 145.9 146.2 144.2 144.2 143.8 145 146.6 147.2 150 150.2 151.5 151.6 153.3 155.7 157.8 159.8 163.8 165.8 166.2 166 166.7 166.4 166.4 165.2 164.4 164.7 165.4 167.4 169.3 170.2 172.6 171.2 172.7 173.1 176.9 180.8 184.2 187.6 188.6 190.6 193.2 195.4 197.2 199.8 201.5 203.2 205.1 206.9 207.6 208 208.8 210.4 210.8 209.3 205 202.2 197.4 194.9 192.5 189.8 187.8 186.3 184.7 184.8 184.8 186.2 188.3 190.2 191.5 191.5 191.6 191.1 191.8 193.1 194.4 194.9 196.8 196.9 195.4 189.9 187.9 189.3 198.1 210.8 214.7 218.1 220.4 222.7 224.6 224.2 220.6 223.6 225.6 227.8 229.1 230.5 232.3 234.1 233.2 231.4 223.6 218 213.5 209.5 211.6 217.6 223.6 229.4 233.3 234.3 231.6 224.4 217.7 212.3 208.6 204.9 203.5 202.7 202.3 203.5 207.8 211.2 210.8 206.4 206.6 207.9 209 213 219.9 227 234.3 229.6 228.3 229.9 231.7 237.8 233.8 237 237.5 230.2 222.9 217.7 207.1 199.5 194.1 189.9 186.1 183.8 181.7 179.8 180 177.2 174.7 172.9 172.5 171.8 170.6 168.6 167.7 167.4 167.5 167 166 165 163.8 162.1 160.9 160 157.9 153.7 153.5 157.2 160.4 163.5 166.6 170.8 181.4 190.2 192.6 199.5 210.7
149.5 150.1 150.4 149.3 148.8 148.3 147.4 145.8 144 143.7 145.1 146.1 146.8 147.3 146.6 146.8 146.8 145.9 146.3 147.9 146.6 149.1 148.9 146.4 145.8 147.4 149.3 150.9 150.8 151.1 150.2 151.9 154 155.4 157.3 159.6 159.7 160.3 161.1 162.5 160.6 160.8 161.7 162.1 162 162.7 166.1 167.8 168.9 171.5 171.8 172.6 173.4 176.6 179.8 182.8 185.4 185.9 187.4 190.7 192.9 196 200.4 201.4 203.2 205.3 206.5 207.8 208.9 209.8 212 214.3 212.1 206.2 201.7 197.9 195.4 192.6 190.8 187.6 186.2 184.7 184.3 183.7 184.6 186.4 188.2 189.5 190.3 190 190 190.7 191.4 193.3 194.8 196.1 195.2 193.4 189.6 187 188.3 199.7 210.7 215.2 217.9 220.3 222.7 224.2 223.6 218.9 220.4 222 223.9 226.4 227.9 229.3 230.6 231.8 231.6 225.2 219.9 214.2 208.5 210.1 217.4 225.1 228.1 232.7 234 230.9 220.9 214.4 210.4 206.7 203.7 202.6 201.9 202.5 204.3 207.3 211 211.5 213.5 211.2 214.4 220.3 217.3 218.2 229.5 237.6 234.5 236.6 238 238.2 241.1 239 238.4 232.2 225.9 219.8 213 204.3 197.4 192.8 189.4 186.1 182.8 181 178.9 177.4 174.6 172.3 172.3 171.5 170.2 169.2 167.5 166.8 166.5 165.8 165.6 164.8 165.1 163.4 161.3 159.8 160 159 156.5 153.4 153.5 157.9 161.1 163.3 167.5 175.9 180.2 186 195.9 206.9
148.9 150.3 150 149.5 149.1 148.4 147.2 145.5 144.7 144.3 145.3 146.5 146.7 147 139.7 147 147.1 147.1 146.1 147.9 151 152 151.2 151.5 151.5 149.8 149.1 150.6 150 149.2 150.6 149.8 152.1 153.9 155.7 157 155.1 155.9 157.5 159.5 157.6 158.8 158.8 160.2 161.4 161.9 164.4 165.9 168.2 168.3 171.7 173.4 174.6 176.1 178.8 181.2 183.2 186.6 187.9 192.1 195.6 198.1 201.8 202.4 204 205.8 207.8 208.7 209.8 211 215.3 217.1 214.4 208 201.9 198 194.7 192.5 190.3 187.7 186.1 184.8 183.8 183.9 183.9 183.6 185.4 185.9 187.9 188.3 188.1 190.5 190.6 192.9 194.4 195 194.3 192.7 188.2 186.8 188.5 198.8 209.5 214.2 217 218.7 220.5 222 221.8 217.7 216.6 218.2 219.7 222 224.4 226 227.1 228.5 230.1 227.3 219.2 212.6 208 207.7 214.9 218.1 224.5 229.8 229 224.1 217 211.2 207.7 204.7 202.7 201.6 201.6 202.6 205.4 208.2 212.2 215.6 217.7 217 219.9 225.5 228.8 225.2 223.4 227.4 238.2 241 240.7 239.8 241 239.9 236 225.5 217.4 212.7 207 202.3 199 194.3 190.4 186.4 183.5 181.3 178.9 176.9 174.7 172.6 171.4 170.3 168.6 167.5 167.5 167.5 165.4 164.9 164.9 164.9 164.9 163.2 160.4 159.2 158.3 160.4 158.4 154.8 153.1 155.2 158.4 161.4 165.9 172.5 182 191.8 199.8 205.4
150.7 152.4 151.8 153.2 153.2 150 149.3 147.7 146.5 145.7 145.1 146.3 146.6 146.8 147.9 146.9 147 147 146.3 147.2 151.2 152.6 152 153.8 154.8 154.5 151.1 150.3 150.5 149.7 149.7 150.5 152.3 151.3 152.5 153.7 153.9 154.1 155.8 157.1 155.7 156 157.6 158.8 160 162.8 163.4 164.6 167.1 170.1 171.8 174.2 176.5 177.8 179.9 181.9 184.7 187.4 190.4 194.6 198 201.1 202.8 203.2 204.8 206.8 208.2 209.4 211.9 213.2 216.4 218.3 215.6 208.9 202.4 198.5 195.8 193.5 190.8 188.7 186.4 184.8 185.1 183.4 183.2 182.8 182.4 182.7 185.9 185.9 190.7 192.3 192.8 193.2 194 193.6 192.6 190.7 186.2 186.7 188.7 199.4 208.4 212.6 216 216.7 218.6 220 219.8 216.8 214.4 213.9 215.3 217.5 219.9 222.3 223.6 225 226.5 226.7 219.4 212.8 208.3 206.5 211.2 215.2 221.9 225.6 224.3 218.5 212.7 208.6 205.6 203.1 200.9 201 201.2 203.7 206.5 209.4 212.6 215.7 219 223.6 228.2 232.9 237.9 237.1 224.9 238.5 235.9 240.9 240.1 238.6 238.3 238.8 236.2 227.7 222.4 213.4 212.6 207.2 202 197.3 192.8 188.2 184.3 181.8 179.8 179 177.5 175.7 173.4 171.1 169.6 167.2 167.5 167.5 166 164.9 164.9 164.9 164.9 162.7 159.6 157.1 156.5 159.5 158.2 155 153 153.3 156.7 159.9 164.2 172.6 183.5 191 193.5 196.4
150.5 153.5 155.2 155 153.9 152.3 152.1 150.5 149 147.9 147.2 145.9 147.2 147.1 146.8 140.4 147 146.9 146.8 148 149.9 151.2 153.8 156.6 155.9 157.1 156.1 155.5 153.7 151.9 151.7 152.4 152.7 152.8 152.7 151.8 152.6 154.1 157.4 157 154.6 155.5 157.5 159.1 160.3 162.6 163.8 164.5 167.7 168.2 169.9 172.8 174.5 176.5 179 182.1 185.7 189.2 193.1 197.1 200 202.4 203.4 203.9 204.6 207 208.5 210 211.9 213.6 216.5 218.2 214.5 207.8 200.9 199.2 196.5 193.7 191.6 190.1 188.2 186.2 184.7 183.7 183.4 182.2 182.1 182 182.5 183.6 189.6 192.4 193.8 193.4 193 191.6 190.6 187.6 185.1 187.6 195.4 200.3 206.7 210.6 213.1 215.2 217.2 218.7 217.2 215.7 214.2 212.4 212 213.3 215.8 218.2 219.9 221.2 222.5 223.7 220.3 213.9 209.3 204.7 207.1 212.7 219.4 222.7 220 214.1 209.2 206 203.3 200.8 199.8 200 201.4 204.1 207.3 210.2 212.1 215 218.8 223.1 227.7 234.1 241.3 241.7 230.7 234.1 240.1 241.1 239.3 237.3 237 236.5 236.4 236.7 226.5 225.2 222.9 213.4 205.5 201.4 197 192.4 186 183.8 181.2 181.2 180.6 179.8 178.6 175.4 172.6 170.2 168.4 168.7 168.7 166.2 164.9 164.9 164.6 160.7 159.9 158.2 156.4 156.9 156.3 155.5 154.4 153.3 155.7 159.3 163.2 170.1 176.8 181.4 183.6 190.8
149.8 152.3 156.2 155.9 155.3 154.4 153.7 152.6 152.3 150.6 149.1 147.6 148.6 148.4 147.5 146.9 140.9 147.1 147 146.9 147.9 149.7 151.4 154.7 156.1 157.5 159.5 159.3 160 157.1 153 152.6 152.9 153.1 153.4 152.8 153.2 153.5 154.2 156.2 158.3 156 157.9 158.7 161.1 162.2 163.1 165.8 168 165.9 169.5 171.9 173.6 175.6 179.3 182.8 187.1 191.7 195 197.9 199.8 201.7 202.6 203.8 204.9 206.8 208.5 209.9 211.7 215.3 217.8 217 212.2 206.6 200.7 199 196.4 193.7 191.4 189.9 188 186.1 184.9 184.4 183.8 183.2 181.8 181.7 182.2 182.6 184.4 191 192.5 192.7 191.5 189.4 187.7 185.7 184.3 189.8 193.6 197.9 203.6 208.1 209.8 212.9 215.4 216.8 217.3 215.8 214.8 214.7 212 209.8 212 213.7 215.6 216.7 216.7 218.1 221.3 217.1 210.1 205.4 203.8 208.6 215.2 220.9 216 209.8 206.7 203.6 201.1 199.1 198.6 200.1 201.5 205.4 208.9 210.7 212.7 216.2 223.4 227.2 230.2 235.1 243.6 245.3 240.3 239.3 243.5 241.1 239 236.9 235.1 234.5 235.5 235.7 232.4 224.3 218.9 214.5 210.6 207.9 201 195.4 188 185.2 182.6 182.9 182.1 181.1 180.1 177.9 174.6 172.2 172.2 173.5 171.7 168.4 167.2 166.4 165.8 164.7 160.9 158.4 157.9 158.5 158.2 156.9 155.2 152.8 153.9 157.9 162.4 167.1 172.2 179.5 184.7 192.8
148.4 150.1 153.9 154.2 155.1 154.5 153.7 152.6 151.7 151 150 149.1 147.8 147.6 147.7 147.4 147.1 146.6 142.3 146.3 148.1 150.8 152.3 154.4 155.8 157.1 159.5 162 163.5 164.6 162.3 159.1 156.7 154.4 154.6 155.2 155.5 153.8 155.1 155.7 157.7 156.8 159.1 160.1 160.8 162.7 164.1 165.9 167.1 168.3 169.6 171.6 173.2 175.4 179.4 182.4 186.3 192.8 196.3 197.9 199.8 199.8 200.5 201.9 204.5 207.7 209.2 211 212.8 216.8 218 214.2 208.1 203.5 200.2 197.6 195.2 192.9 191.1 189.4 187.7 185.8 184.7 183.2 183.8 183.4 184.1 183.7 181.1 181.2 181.8 187.4 190.5 191.3 190.4 187.8 184.7 183.8 183.4 186.1 190.6 195.4 201.3 205.3 207.4 210.6 213.5 214.8 216 216.4 216.3 216.2 214.7 211.3 208 209.9 211.3 211.9 211.2 213.7 217 219.7 212.5 206 201.9 205.1 213.3 218.5 212.8 206.1 204.2 201.4 198.9 197.3 197.5 199.1 201.6 207.1 210.5 211.4 215.5 220.3 226.4 228.8 235.1 240 244.3 251.6 248.2 245.5 243.7 241.5 238.7 235.8 232.7 233.1 234.1 235.1 235 231.5 221.7 213.8 209.5 204.4 198.5 194.6 189.5 186.5 184.3 184.4 183.4 182.4 181.2 179.5 175.9 174.3 175.5 174.4 173.5 172.4 171.3 169.7 168.4 165.8 162.4 160.2 158.9 159.1 158.4 157.7 156 153.6 153.6 158.1 161.5 165.6 173.7 178 183.1 189.9
147.4 148.9 150.3 152.3 153.3 154 153 151.9 151 150.4 149.6 147.5 146.8 147.2 147.5 147.2 147 145.8 145.3 146 143.5 151.2 151.3 153.6 155.9 157.3 158.9 161.7 164.8 166.4 167 166 164 160.8 158.2 157.1 157.2 159.4 154.5 159.9 158.2 157.7 160.5 162.5 162 164.5 165.2 163.6 169.1 171.4 171.9 172.3 173.8 175.5 178 181.6 184.5 190.5 195.1 196.1 198.2 197.4 199 201.3 206 209 210.7 212.3 213.8 217 217.4 212.6 206 201.8 200.1 197.1 194.8 192.8 190.6 189 187.3 185.8 184.8 184 183.6 183 183.2 183.8 183 182.5 181.5 182.7 188.7 189.5 189.1 187.1 183.9 183.4 183.3 184.1 189.6 193.3 198.2 201.3 205.2 208.4 211.2 212.6 213.9 214.5 214.6 214.8 215 212.6 209.2 206.1 206.9 207.7 207.5 207.9 211.3 213.6 213.4 206.3 201.5 202 207.8 211.2 206.4 203 201.8 199.5 197.1 196.1 196.6 198.9 203.7 208.6 212.3 211.7 214.4 219.2 223.1 225 228.7 233.2 237.5 248.1 250.8 246.8 244.2 240.1 237.3 234.4 231.4 230.8 232.8 234.4 234.9 230.1 223.2 215.4 207.9 203.8 200 195.4 192.1 190 187.6 185.2 184 182.8 181.6 180.2 179 177.8 177.1 176.4 175.6 175.6 174.3 171.3 168.1 165.6 163.6 161.4 159 158.6 157.9 157.2 156.4 154.5 153.2 157.1 160.2 163.4 167.9 173.2 176.9 182.9
146.1 146.4 148.6 149.9 151.3 152.3 152.3 151.5 150.5 149.8 149 147.5 146.4 146.9 147.2 146.5 145.7 144.6 144.4 146.3 148.1 144 147 151.8 154.5 156 157.8 160.6 163.6 165.6 167.4 167.8 168 168.1 163.4 163.5 164.4 160.5 161.4 159.6 160.3 162 163.4 164.8 163.9 164.3 163.9 170.4 172.2 173.8 174.3 175 176.3 178.7 180.9 182.2 182.6 186.4 189.5 191.1 191.9 197 198.6 200.8 206.8 210.4 210.8 212.4 213.7 215.3 215.2 211.2 205.3 201.7 199.1 195.4 194 192.3 190.2 188.6 187 185.9 184.5 183.3 182.5 183.2 182 181.4 180.9 181.6 180.7 181 183.8 188 187.6 186.1 184.5 184.3 184.5 184.7 188.6 190.8 194.9 198.1 202.7 206.4 208.9 210.3 211 211.6 212 212.2 212.9 211.7 208.9 205.4 203.8 204 206.3 206.4 207.8 207.1 206.6 203.9 200.5 200.8 204.7 205.3 202.5 200.9 199.9 197.8 195.2 195.2 196.7 199 203.2 207.9 209.6 211.1 213.6 217 220.7 224.5 231.2 234 244.3 249.9 250.4 247.4 242.9 238.5 235.7 232.9 230.2 229.1 229 230.1 232.8 232.1 224.3 219.2 212.7 206.4 200.6 198.4 196.9 194 190.6 186.3 184.3 183.2 182 180.6 180.5 179.9 179.3 178.4 177.6 177 174 170.9 167.8 165.4 162.7 160.3 159.6 158.4 157.4 156.5 155.7 154.4 154.2 156.3 159.4 161.2 163.4 165.9 169.2 172.6
143.9 144.2 145.8 146.1 148 149.8 150.5 148.1 145.5 146.6 148.2 147.7 146.7 145.9 145.8 146.6 145 144 144.8 146 148.9 150.3 150.9 146.4 152.5 155.5 157.3 159.1 160.1 162.1 164.6 167.4 168 168.2 166.1 166.5 166.5 165.1 162.2 161.4 160.7 157.1 163.3 165 164.5 161.5 165.1 171.9 174.6 176.6 177 178.4 179.7 181.2 183.6 186 185.5 187.1 189.2 191.7 194.5 198.1 199.7 200.5 206.3 209.8 210.8 212 213.1 213.7 213.3 209 204.8 202.2 198.2 196.5 193.1 191.4 190.2 188.8 187.5 187 185.3 183.3 182.5 182.9 183 182.1 181.6 180.4 180 180 181.2 182.8 185.4 184.3 184.9 184.6 184.9 185.8 186.9 188.6 190.8 194.4 198.9 204.2 206.6 207.4 208 208.7 209.5 210.2 210.7 209.7 208.5 205.5 202.5 202.5 202.8 202.7 204.3 204.2 203.1 201.6 198.1 198.1 199.8 201 200.6 199.6 198 196.4 193.6 194.9 196.4 198.9 201.9 206.1 208.3 211.6 215.8 219 224.8 229.8 235.7 244.6 246.4 248.4 248.7 245.8 242.3 238.9 236.9 233.1 230.2 226.9 226.1 227.3 229.5 231.6 228.3 219.5 212.7 209.1 206.6 204.1 200.4 200 200.3 192.8 188.1 184.9 183.2 182.1 181.8 182 181.6 180 179 177.5 174.6 171.3 168 166 164.9 162.1 159.8 159.3 156.8 155.7 155.2 154.6 151.8 158.7 159.1 160.1 162.7 164.7 166.7 168.9
142.9 142.4 142.8 144.3 144 144.5 145.4 144.9 143.9 143.7 145.6 146.9 146.5 145.5 144.3 144.9 144.7 143.7 144.2 145.6 148.6 149.3 149.5 150.6 149 152.5 155.8 156.7 158.1 160.2 161.6 164.2 165.8 167.4 167.9 167.9 167.6 163.4 163.3 164.4 164.9 164.3 160.8 163.5 164 165.8 170.1 173.2 176.1 178.6 179.7 181.6 183.9 185.8 185.3 186.7 188.1 188.8 190.9 192.8 195.2 198.7 200.5 202.6 206 208.6 210 210.4 210.8 211 211.1 208.3 204.6 202.3 199 195.4 193.8 191.8 191.8 189.7 189.7 188.6 185.9 183.5 182.7 182.9 182.8 182.4 181 180.2 179.8 179.6 180.2 180.8 182.2 183.3 184.8 184.7 184.8 185.7 186.8 187.8 192.4 198 198.2 201.5 203.6 204.4 204.6 205.1 206.4 208.8 208.7 207.6 206.2 204 201.7 200.1 200.9 199.7 199.1 199.7 199.2 198.1 196.3 196.4 197.2 197.1 198.2 198.6 196.6 194.6 192.9 194.2 195.7 198.4 201.1 204 208.7 216.3 219.5 222.9 230.2 235 236.5 237.2 240.1 248 247.8 245.1 241.5 241.2 239.3 236.8 233.5 228.8 224.4 225 226.7 229.6 230.2 227.1 224.4 219.8 216.2 210 202 205.6 208.2 198.6 193.2 192.9 191.3 188.8 187.2 185.5 185.8 182.1 179.3 177.8 175.8 172.6 170.5 168.7 166.9 164.9 161.7 159.3 156.6 154.8 153.9 152.8 151.3 156.4 158.9 158.9 161.4 163 166.2 167.6
141.2 141.8 140.1 139.8 139.9 138.7 139.1 139.5 142.4 141.5 142.4 144.4 144.9 144 144.1 144.1 143.7 143.4 144.3 145.8 147.1 148.6 149.1 148.7 150.4 152.3 152.2 155.7 157.1 157.7 159.7 161 162.3 165.1 166.7 168.2 167.9 163.8 167.2 166.8 165.6 165.2 165.1 161.7 159.6 166.1 168.1 171.7 175.8 178.5 182 184 187.2 187.4 188.9 188.4 190.3 191.5 192.5 193.8 196.3 198.8 201.5 203.7 206.4 207.2 207.2 207.8 208.1 208.4 208.6 207.1 204.6 202 199.5 195.6 194.5 193 193.4 192 191.1 190.3 188.6 186.9 185.6 184.2 182.9 182.5 181.9 179.9 179.5 179.4 179.7 179 180.1 180.9 182.2 183.3 183.6 184.4 186.3 187.3 189.7 193.5 196 196.9 200 200.3 199.8 201.7 205.4 207.2 206.9 206.1 204.7 202.5 200.8 199.1 199.5 198.9 197.9 196.3 195.9 196.7 194.3 194.4 194.2 193.7 194 194.4 194 192.6 192.1 193.5 194.9 197.5 200.2 203.2 208 215.3 217.6 221.5 231.9 231.6 228.6 233.3 244.3 246.8 246.6 246.1 243.9 243 241.9 240.2 236.8 231.7 226.5 223.5 226.6 228.8 230.1 232 232.7 227 215.6 204 214.7 211.8 213.5 207.9 205.7 202.8 197.2 192.7 190.9 189 187.5 180.6 179.4 177.8 176.2 174.6 172.6 170.3 168.3 166.2 163.2 161.6 158.4 155.5 154.1 152.4 151.8 155.2 155.7 159.1 160.4 161.3 163.7 164.9
140.2 139.4 139 138.5 138 137.9 135.7 135.4 138.9 140.6 139.5 141.2 143.1 142.5 142.7 143.2 142.9 142.6 144 146 146.2 147.5 147.6 149.2 149.6 150.5 153.1 154.4 153.7 155.4 157.8 159 160.3 161.6 163.6 164.3 167.7 167.9 168.1 167.9 167.2 165.9 165.6 162.3 163.4 161.2 167.1 170.2 174.7 178.8 182.9 185.9 187.6 189.1 191.2 191.8 192.7 194.7 195.3 196 198.2 200.6 202.4 204.5 206.4 206.2 205.4 205.4 205.3 205.3 205.5 204.6 203.1 200.6 198.1 196.3 195.4 194.5 194.1 194 193.5 192.1 190.8 189.2 188 186.5 185.3 184.3 182.7 180.5 179.8 179.9 179 179.7 179.7 179.8 180.2 180.6 180.9 182.4 184.9 186.7 187.6 190.5 191.9 194.4 196.3 196 198.7 201.9 204.6 205.9 207 206.7 205.3 203.6 200.9 198.1 198.3 198.8 197.7 195.6 195 196 193.7 192.5 191.6 191.4 191.8 193.1 192.6 191.9 192 192.6 194 196.6 199.5 202.6 206.2 209.7 212.9 218.4 223.6 222.9 227.1 234.1 241.2 244 243.3 244.2 241.6 241.8 241.4 240.7 238.3 232.8 228 223.2 224.4 226.7 228.5 230 230.4 222 221.9 220.4 225.4 223 217.1 212.8 206.6 204.6 197.8 193.3 191 185.1 180.9 178.8 178.2 176.6 175.1 174.7 172.9 170.1 168 166 163.8 161.1 158.9 156.6 154.6 152.8 151.6 151.6 155.3 157.6 159.3 159.6 161 162.4
138.4 138.6 138.3 137.7 137.3 136.5 135.4 134.1 133.8 135.3 138.1 138.9 139.9 140.2 141.2 141.2 142.8 142.8 143.5 145.3 146.2 146.2 147.2 148.3 148 148.8 152.5 152.6 157.5 156.6 154.1 155.1 157 158.6 161.1 163.4 166.1 167.2 168.1 168.1 167.5 167.9 166.3 166.2 166.6 167.2 168.1 164.5 173.4 177.4 181.4 185.2 188.5 189.7 192 193.4 193.7 195.3 196.4 199.3 200.1 200.8 202.7 206.3 206.8 206.7 204.5 202.9 202.6 203 204 202.7 201.1 199 197.9 197.2 196.9 195.6 195.7 195 194.4 193.8 192.6 190.9 189.8 188.7 187.6 186.6 184.8 182.4 179.9 179.7 178.8 179.3 179 178.8 179.1 180 180.2 180.8 182.2 181.9 183.9 186.8 187.8 189 191.8 193.8 197.4 200.6 203.7 205.5 207.1 207 205.8 204.1 202.3 199.2 196.2 197.7 196 194 193.3 192.6 192 191.8 190.3 189.5 190 192.2 191.2 191.2 190.9 192.3 194.1 196.5 199 202.1 205.5 208.5 211.1 214.7 217.5 222 225.7 231.8 241.3 239 237.3 240.8 241.1 239.3 233.4 234.4 234 229.8 227.4 222.3 221.7 224.3 226.8 225.8 226.5 229.3 224.6 222.7 218.9 209.6 204.9 201.3 199.5 198.9 192.6 189.6 186 181.7 179.5 178.6 176.7 174.7 172.7 172.5 170.9 168.8 166.1 164.8 162.5 160 157.8 156.1 155.1 153.1 152.1 152.3 153.5 155.6 156.9 157.3 159.5 161.2
133.8 135.6 136 135.8 135.9 134.9 135 134.1 133.4 136.2 136.7 137.2 138.3 138.3 138 139.2 141 142.2 143.3 143.1 145.2 145.7 146.5 147.2 148.7 149.1 148.8 149.6 150.6 152.2 151.9 152.5 154.5 156.3 156.8 157.3 157.8 158.1 158.5 167 164.5 166.4 168.3 167.7 167.8 168.6 171.1 171.5 164.1 176.1 181.1 187.1 188.7 189.7 193.1 194.1 195.8 195.9 196.8 200.6 203.6 205.4 207.2 209.5 210.2 207.2 203.6 201.5 200.4 200.7 200.5 200.1 198.6 197.5 196.6 197.3 197.5 196.1 196.2 194.7 194.5 193.9 192.7 191.4 190.8 189.7 188.9 187.9 186.2 184.3 181.7 179 179.3 179.3 179.2 178.9 179 179.5 179.3 179.3 180.7 182.2 181.9 185 184.7 186.8 189.2 192.2 196 199.2 202.5 205.1 206.6 207.2 206.1 205.1 203.3 200.1 197.2 195.4 195.1 193.4 193.4 193.3 193.3 192.8 192.1 190.5 188.6 191.4 190.3 188.7 190.8 191.7 194.1 196.3 198.5 201.6 204.9 208.1 210.7 214.1 218.8 226.8 233.9 237.2 239.8 232.9 230.7 234.2 235.1 233 228.5 228.5 228.1 227.6 226.1 221.8 219.9 222.3 225.2 224.9 223.5 217.7 214.5 212.6 208.2 200.1 193.6 192.8 190.3 187.5 185.5 181.7 178.9 178.3 176.6 174.9 172.9 170.7 168.9 167.5 168.3 165.9 163.4 161.3 160.6 158.9 156.7 155.4 154.2 152.5 151.3 149.9 153.8 154.8 155 155.1 157.4 160.2
129 132.5 133.6 134.1 135.2 134.5 134.4 133.8 133.5 134.4 134.9 135.2 136.4 136.3 137.4 138.6 139.3 139.3 139.6 141.2 143.5 143.6 143.8 144.6 147.9 148.6 148.6 147.8 147.9 149.3 151 151.1 152.6 154.2 156.1 157 159.5 161.3 163.9 166 165.1 164.6 165.8 168.4 170.9 172.3 174.2 175.3 174.3 173.1 168.6 180.2 188.4 189.4 191.4 194.2 195.2 199.2 203.9 207.2 208.8 211.5 213.6 215.1 213.9 207.9 203 201 198.7 198.9 199.1 197.6 197.2 196.9 196.6 196.3 196 195.3 195.7 195.2 194.4 193.5 192.5 191.4 191.2 190.4 189.6 188.7 187.3 185.3 182.3 180 178.9 179 179 179 179.1 178.6 177.8 178.9 180.5 181 183.3 183.8 183.7 185.5 187.3 190.3 194.6 197.8 201.1 204.5 206.5 207.5 206.8 205.8 204.2 201.2 199.1 197.4 197 196 194.7 194.3 193.8 191.9 190.6 189.4 188.4 189.7 188.6 189.5 190.8 191.7 193.9 196.1 198.3 201.1 204.5 207.8 210.8 214.9 219.9 227.5 235.4 237.3 238.4 231.7 225.8 227.7 229.5 228.7 225.2 224.3 225.2 223.8 222 219.2 218 220.6 223.3 224.5 221.4 216.3 207.1 203.5 202.1 194.3 190.5 189.1 186.3 183.6 181.2 179 175.7 174.7 173.9 172.8 170.5 168.8 166.9 163.9 165.4 163.3 159.7 158.3 158.1 156.1 155.2 156.1 155.3 152.8 151.8 150.1 152.7 153.8 154.2 154.8 156.2 158.6
129 131.9 133.2 133.5 133.5 131.8 132.3 131.9 132.1 130.9 133.2 133.3 134.8 136.1 136.5 137.2 137.7 137.4 138.2 140.3 142.1 141.3 141.3 142.4 145.4 146.8 147.4 146.6 147.5 148.5 149.8 149.9 152 153.9 155.3 157 159.8 160.9 162.2 164.1 167 167.6 168.6 171.2 173.6 174.1 175.4 176.5 178.1 179 179.5 168.3 177.3 189.3 192 194.7 197.5 204.7 209 212.7 215.8 218 220.9 219 214.7 209.2 203.6 199.6 197.4 196.8 197.2 196 195.3 195.1 195.2 194.9 194.6 194.5 194.5 193.9 193.1 192.1 191.1 191.2 190.8 189.6 190 189.2 188.1 185.8 183.5 181.2 179.1 178.3 178 178.5 178 177.6 177.7 178.4 178.2 180 181.2 182.4 183.1 184.7 187.1 190.1 193.4 197.1 201 203.8 206.7 208 206.8 206.5 205 203.1 201.1 199.5 198.9 197.6 196.4 195.7 194.4 192.9 190.9 188.5 187 187.2 187.3 188.7 189.9 191.5 193.7 195.9 198 200.7 204.1 207.4 211.4 215.2 220.5 227.2 229.7 232.2 236.7 232.4 224.6 222.8 224.4 224 221.9 220.6 221.5 219.6 217.8 215.4 216.5 219.7 222.1 225.4 225.6 215.2 206.7 200.3 197.7 193.5 189.8 187.2 184.4 182.6 180 176.2 174 173.2 171.6 171.2 169.4 167.4 165.6 162.1 161.5 160.4 158.9 158.8 158.8 158.8 158.8 158.2 156.4 155.8 152.7 149.9 151.3 153.9 154.8 155.4 155.7 158
125.3 128.8 131.6 131.8 131.2 129.6 129.6 129.8 130.2 130.1 132 131.9 132.6 134.9 135.3 134.9 135.8 136 137.1 137.7 138.4 139.4 140.2 141.1 141.6 143.5 145.6 147.3 147.3 148 149 150.3 151.7 153.6 155 156.7 158.5 160.4 162.3 164.3 166.3 167.8 168.3 171.5 174.6 176.9 176.7 177.7 178.7 180.1 181.6 183.8 189.3 191.7 191.3 192.9 198.2 203.8 207.4 210.4 213.3 215.7 217.4 216.9 212.5 206.7 202.5 199.4 195.8 195.2 194.9 194.5 193.5 193.5 193.7 192.7 192.8 193.5 193.4 192.7 191.8 190.8 190.1 190.5 189.8 188.6 189.3 188.7 188.3 186.9 184.6 182.4 180.3 178.3 177.9 178 177.6 177.4 178 178.2 177.7 179.1 180.4 181.7 183 185.1 186.9 190.1 193.3 197.4 200.9 204.6 208 209.2 206.6 207.5 205.6 203.8 202.1 201 200.8 198.8 195.9 195.3 194.2 192 190 187.6 186.2 186.2 186.2 187.4 189 191.1 193.2 195.5 198.1 201 203.8 206.5 209.4 212.6 218.1 223.9 223.8 228.3 232.5 231.2 224.5 219.7 219.2 219.8 219.2 218.4 217.6 215.8 214.1 213.1 215.2 219.1 222.6 226.1 228.8 221.6 214.1 206.7 201.1 195.3 189.7 186.4 185.3 183.5 179.8 176.3 171.7 170.8 169.5 169.1 167.6 166.2 165.3 162.2 163 164 163.4 163.5 161.6 160.7 161.2 159.5 157.8 155.6 151.5 150.2 150.1 152.7 154.4 154.6 154.7 156.1
125.7 126.9 128.8 129.5 127.1 127.5 129 128.6 128.9 129.6 130.4 131 131.6 132.2 132.9 133.8 134.8 135.1 136.1 137 136.2 137.4 137.9 139.1 140.2 141.9 143.7 145.8 146.4 146.6 149.3 150.3 151.5 153.5 155.3 157 158.7 161 163.1 163.6 165.8 166.4 170 174.1 176 178.3 179.5 181 181.6 182.3 182.2 184.1 186.3 188.3 192 195.9 198 202.8 205.5 209 210.8 212.1 213.4 212.5 209 204.6 201.3 197.9 196.1 193.6 192.9 192.4 191.9 192.1 192.4 193.8 192.9 192.2 192.3 192.1 191.2 190.1 188.9 189.8 188.7 187.2 187.3 187.4 187 186.4 185.7 183.6 181.6 179.6 177.9 177.6 177.3 177.1 177.3 177 177.8 179.1 180.4 181.8 182.8 184.2 186.4 189.6 193.1 196.5 202.5 206.1 209 210.5 210 208.4 206.5 204.5 202.6 201.5 200.7 197.5 196.2 195.7 194.7 192.4 190.3 188.8 186.3 185.2 185.2 186.8 189.2 191.1 192.9 194.8 197.1 199.4 201.8 204.4 207.3 210.1 213.6 216.4 221.1 225.3 227.6 226.6 223.1 219.5 215.3 216.6 216.3 215.4 213.2 211.6 211 212.6 216.8 220.5 223.4 227.2 232.6 231.2 226 215.7 205.8 197.8 191.4 188.1 186.8 182 178.7 176.6 172.5 172.7 172 168.4 170.1 172.1 173.1 172.3 170.8 168.6 164.9 165.1 162.5 162.6 162 160.3 159.5 157.2 154 153.6 152.9 151.7 153.1 153.9 153.3 154.4
128 128 127.3 125.9 128 129.2 129.6 128.9 129.7 130.3 130 130.2 130.8 131.4 131.6 132.5 133.5 133.5 134.1 134.8 136.5 136.8 137.1 137.9 139.1 141 142.2 143.8 145.3 146.4 148 149.1 152.1 154.5 155.7 157.3 159 160.9 163.8 164.3 166.6 168.3 171.6 174.2 177.5 181.2 183.5 184 185.1 186 185.8 185.6 185.8 187.9 191.3 194.3 198.7 202.6 204.7 207.4 209.4 209.5 210 208.2 206.5 202.5 200.1 197.1 195.4 193.5 190.5 190.7 190.3 190.6 190.7 191.5 191.1 190.9 191.6 191.9 190.9 189.1 188.3 188.2 186.8 186.1 186.2 186.4 186 185.4 185.1 184.4 182.4 180.8 178.7 177.4 177 176.9 177.1 177.4 177.9 179.2 180.2 181.2 182.6 184.3 187.2 189.7 193.4 192.4 202.4 207.1 209.9 211.7 211.2 209.3 207 204.7 202.5 200.3 198.5 197 196.3 195.6 194.8 193.4 191 189.7 186.9 185.2 184.4 186.6 189.9 193.1 195.3 196.8 198.3 200.2 202.6 204 205.7 208.5 211.4 213.7 220 223.5 223.5 221.5 219.5 217.3 213.9 213.3 212.8 211.5 210 208.2 214.1 218 221.3 223.2 226 229 233.8 234.5 219.1 211.2 204.8 199.2 196.5 190.1 186.7 181.5 178.3 175.5 173.6 173.7 173.6 171.7 175.4 178.4 179.1 178.3 174.5 170.4 166 165.1 164.4 165.1 162.4 160.5 158.5 156.5 154.7 152.8 152.5 149.3 150.2 151.7 151.9 153.3
130.8 130.4 130.3 130.3 129.7 129.8 130.4 131.4 132.1 131.8 132.6 133.8 133.3 133.5 135.1 133.9 134.3 135.2 134.9 135.1 135.6 135.7 136.1 136.3 138 140.1 141.2 142.7 143.9 146.5 147.5 148 151.3 153.4 156.4 158.6 160.4 162.1 164.2 166.1 167 170.6 172.5 176.8 180.3 182.7 184.9 186.1 187.5 187.3 187.2 188 189.7 189.7 191.4 192.6 197.7 201.5 204 204.9 207.2 207.3 207 205.4 202.3 201.3 198.1 195.8 193.9 191.7 190.5 189.7 188.9 189 188.9 189.1 189.6 189.5 190.8 190.6 189.4 188.4 188.1 186.8 185.2 185 185 185.4 184.9 185 186 184.9 183.3 181.9 180.2 179.1 177.9 176.8 176.8 176.4 177.7 178.6 179.5 181.1 182.9 184.7 187.3 189.6 194.9 199.9 204.5 207.9 210.4 212 210.8 208.3 205.7 203.4 201.1 198.9 196.9 196.5 195.8 194.8 194 192.4 191 189 187.1 184.9 184.1 185.5 189.3 193.2 196.9 199.6 201.3 203.1 204.9 204.7 206.2 208.5 211.9 215.5 219.6 221.4 222.2 220.1 216.1 214.5 212.2 210.3 210.2 208.5 209.8 212.1 217.4 219.9 223.7 228.5 231.6 234.3 235.9 229.9 214.2 205.4 198.7 195.4 194.4 189.7 186 180.1 179.1 176.8 173.7 174.6 174.5 173.8 177.4 180.8 181.4 179.8 175.2 170.4 168 168 167.2 165.1 164.4 163.3 160 159 154 152.5 152.2 151.1 147.7 148.9 150.9 152.4
133.2 132.3 131.2 131.5 130.9 130.6 132.7 134.8 136.6 137.3 137.4 139 138.3 140 140.7 138.7 139.1 138.6 138.2 136.3 136 135.8 135.7 136.5 137.6 138.9 140.3 141.6 142.8 145.3 148.5 149.7 152.9 153.9 156.7 158.8 160.1 162.3 163.7 167.3 168.8 171 175.1 176.8 178.9 180.4 187.5 188.8 190.9 189.2 188.8 190.1 190.8 192 194.8 193 194.5 200.3 202.9 203.2 203.7 204 204 202.5 200.8 198.9 196.6 194.4 192.1 190.7 189.5 188.6 187.8 187.3 187.1 186.9 187.2 187.5 188.8 189.3 187.3 186.6 186 185.3 184.7 184.1 184 184.4 185 186 186.7 185.8 184.4 183.1 181.6 180.2 178.1 177 176.4 175.6 176.7 178 179.7 181.5 183.2 184.9 186.2 188.9 194.5 200 204.8 207.6 209.8 210.8 210 207.4 204.9 202.4 199.9 197.4 195.6 195.8 194.7 193.9 193 191.6 189.9 188 186.2 184.5 183.9 186.5 189.9 193.8 196.8 199.4 203.1 206.2 207.8 208.4 210.4 211.4 212.8 216 216.4 217.9 218.8 217.9 215.2 210.6 209.9 207.5 207.2 209.6 213.7 216.4 222.3 226.9 231.5 234.5 233.7 230.7 234.9 222.3 210.9 203.2 198 195.4 192.9 188.7 186.4 184.5 180.7 179.7 178.4 176.4 176.9 178.7 180.2 181.8 180.5 180.6 177.4 172.7 171.9 169.7 167.5 165.7 165.2 164.4 159.9 159.7 157.4 152.4 151.4 151.5 150.9 146.9 148.3 151.1
135.4 133.9 134 132.8 131.4 131.4 133.9 136.6 139.2 141.2 142 143 143 143.5 143.9 144.2 142.6 142.4 141.8 140.6 140.3 139.4 138.3 138.9 139.4 139.4 140.2 141.5 143.1 145.1 148 151 153.1 154.6 156.8 159.1 160.8 162.8 165.9 168.2 168.9 171 174.9 178.5 180.4 180.7 188.7 191.2 195 195.4 195.2 193.4 194 196.9 198.6 201.4 197.5 193.7 195.5 201.3 200.5 201.5 200 199 198.7 197.4 194.5 192.7 191.3 190.2 189.6 188.2 187.8 187.3 185.3 185.6 185.5 185.9 187.8 187.7 185.8 185.1 184.4 183.7 183.1 182.4 182.6 183.8 185 186.2 186.9 186.5 185.7 184.3 182.5 180.2 177.9 176.7 175.9 175.1 176.2 177.6 179 181.3 183.5 185 185.8 187.8 192.8 197.8 202.9 206.2 208.9 209.6 209.6 206.9 204.1 201.4 198.7 196.6 195.4 194 192.6 192.1 191.4 190.2 188.8 187 184.4 183.5 183.3 186.2 190.2 193.9 197.6 200.6 204.9 208.2 210.2 213 215.6 216 216.8 217.1 216 215.8 214.2 213.4 212.4 210 207.4 205.6 208.1 213.9 220.5 226.2 229.1 233.3 229.5 229.8 225.8 224.5 230.9 225.3 213.8 210.3 205.8 199.6 196.4 192.3 188.8 186.1 184.6 182.5 181.6 179.7 179.1 180.6 181.7 182.4 180.9 180.3 179.3 179.3 175.7 174.1 169 167.4 165.5 163.5 163.3 160.6 160.3 159.6 151.7 151.9 152.4 150.5 148.5 147
137.1 135.5 135.1 135.2 133.1 133.2 133.9 137.3 139.1 142.2 143.4 144.5 145.3 146.1 146.9 147 147.9 147.8 144.9 143.8 144.6 145.7 145 141.5 141 141 141.3 141.9 143.6 146.9 150.7 153.2 154 154.7 156.1 158.5 161.2 164 166.3 167.6 168.8 170.6 173.7 178.4 182.3 182.1 188.4 190.3 192.4 200.1 196.2 197.8 197.7 201.4 205.6 207.6 208.1 204.2 195.2 191.2 198.5 197 196.3 196.8 196.6 194.5 193.4 191.3 190.1 189.5 189.4 188 187.5 186.6 185.7 184.2 184 185.1 185 185.8 184.5 183.6 182.7 182 181.4 180.8 182.5 183.9 184.8 185.6 186.1 186.4 185.8 184.6 182.2 179.8 177.6 176.2 175.8 175.2 176 177.3 178.7 180.2 182.2 183.4 184.8 186.4 189.9 195.3 200.4 204.2 206.8 208.6 208.6 206.5 203.9 201.4 199 196.8 195.6 191.8 190.5 189.5 189.7 188.8 187.4 185 183.2 182.5 183.6 185.9 189.5 192.8 196.2 201.3 204.9 208.4 210.5 214.1 216.3 217.4 218.2 217.9 216.8 215.4 213.1 211.1 208.3 206.4 205.6 204.6 210.3 213.7 219.7 222.2 229 225.6 220.1 222.4 220.3 223.6 231.6 230.1 224.9 220.6 213.7 205.8 202.4 195.5 194.9 191.7 189.7 186.5 186.1 185.2 182.7 182.5 182.4 182.2 181.4 180.5 179.8 179.6 176.7 173.4 170.1 168.8 169.1 168.5 166.5 164.2 163.4 161 157.8 156.3 154.9 154.3 152.4 150.5
138.7 137.3 136.8 136.2 134.8 135 135.6 138 139.5 140.6 142.8 145.2 147.4 148.4 149.8 150.5 152.6 152 150.7 148.7 148 148.7 149.7 148.2 144.3 143.8 144.2 144.6 144.8 147.9 150.9 152.5 152.6 153.8 155.6 155.9 157.3 162 164.8 165.2 168.7 170.4 173.5 178.6 183.5 187 187.9 188.8 190 192.6 194.2 202 203.2 206.9 210.7 213.9 212.5 209.1 204.3 201.1 198.5 196.3 195.2 194.5 194.5 182 183.8 189.9 188.8 188.9 188.6 187.9 186 184.8 184.9 183.6 183.1 183 183.6 184 183.2 182.3 181.3 180.6 180.3 179.9 181.3 182.8 184.1 184.6 184.9 185.2 185.2 184.3 182.2 179.7 177.9 175.9 175.3 175.1 175.6 177 178.4 179.8 181.2 182.3 183.7 185.1 186.9 192.2 197.9 201.8 204.8 207.6 207.9 206.3 204.1 201.7 199.2 197.1 194.8 192.2 189.8 188.1 188 187.2 185.9 184 181.9 182.1 184.9 187.4 190.6 193.1 197.1 200.2 203.1 206.1 208.3 210.1 212.2 215 217 217.6 217 215.6 213.6 211.2 207.6 205.2 203.7 203.8 207.2 210.3 213.2 215.8 222.4 223.3 217.7 215.4 215.9 224.5 229.1 231.7 232.1 228.7 222 210.6 203.6 198.4 198.4 196 194.6 194 191.7 192.6 190.7 186.8 184.8 183.5 182.3 182.2 180.1 179.4 178.8 175 172 170.7 173.4 171.6 168.9 166.6 164.8 163.1 160.4 158.7 157.7 156.8 155.5 153.9
140.7 140 139.1 137.9 137.2 137 136.4 136.6 139.3 139.6 142.3 144.8 147.1 149.3 151.8 153.1 154.1 154.1 153.3 154.3 152.8 150.8 152 152.5 150.6 147.5 147.9 147.3 147.7 148.6 151.4 152.4 152.7 153.6 155.4 156 157.8 159.8 162.2 165.6 167.7 170.3 174.4 178.1 181.6 186.9 187.2 188.7 189.4 191.7 202.9 205.4 208.7 215 218.6 222.2 215 210.9 206.9 203.8 199.7 196.7 195 193.6 193.6 192.2 190.4 181.7 180.9 188.2 187.7 187 186.8 186.2 184.1 183.7 182.7 183.1 182.5 182.2 182.3 180.5 180.2 180 179.1 179.3 180.1 181.5 182.7 183.3 183.7 184 183.9 183.3 181.8 180 178.1 176.1 175.6 175.7 174.9 176.4 177.9 179.5 180.7 181.4 182.7 184.1 187.6 191.2 196.6 199.7 202.6 205.9 207.2 205.5 203.3 201.1 198.7 196.1 194 192.2 190 187.6 185.6 185.3 184.4 182.7 181.3 181.5 185.6 189.6 193 195.6 197.9 199.4 201.1 203.4 204.5 206.3 208.3 211.6 214.6 216.3 216.6 215.6 214.3 212.2 207.7 205 202.6 202.5 203.8 206.8 210.4 213.1 216.6 217.4 213.5 210.6 216.6 220.9 227.9 231.6 235.8 238.4 231.4 214.8 207.9 206.3 206.3 203.3 203.6 200.4 196.9 201.2 196.9 193 191 188.3 186.4 185.1 181.1 180.7 179.9 180.7 175.5 175.3 178.7 176 171.1 169.5 167.7 166.5 164 161.8 160.6 159.2 157.9 156.9
142.9 143.1 142.1 140.7 139 138 137.1 136.9 138.1 138.6 141.5 144.4 146.7 148.9 151.4 153.4 155.4 156 156.6 157.1 155.7 157.1 156.5 155.4 154.2 152.2 149.5 148.6 149.5 150.3 152.7 152.8 153 154.4 153.9 155.1 156.8 158.1 159.6 165.2 168.2 170.3 172.5 178.6 183 185.9 187.6 187.8 189.1 201.8 215.6 208.3 208.8 218.5 221.6 222.3 217.1 212.6 208.2 204.5 201.3 198.9 196.2 194.4 192.7 191.6 189 189.7 189.2 186.7 178.5 184 186.8 187.3 187.2 187.1 185.2 182.2 181.3 180.8 180 179.8 179.7 179.6 178.9 178.2 177.5 179.5 180.5 181.5 182.4 182.6 182.4 180.6 180.1 179.3 177.4 175.5 175.2 175.4 174.2 175.8 177.5 179.1 180.2 180.9 181.8 184.6 187.6 191.2 195 198.5 201.7 204.1 205.9 204.6 202.2 199.6 197.1 195 193.1 191.4 189.6 187.5 185.4 183.9 182.9 183.4 182.5 181.8 185.7 189.5 192.6 194.7 196.3 197.4 198.9 200.2 199.9 202 205.1 209 212.1 213.5 215.6 215.4 214.1 211.5 207.8 205.1 202.4 200.6 200.5 204.8 207.5 210.2 211.8 211.6 208.9 211.3 218.2 224.5 229.4 235.2 238.1 238.4 231.4 225 222.1 223.6 223.8 216.3 214.5 209.3 206 212.5 203.6 199.7 198.3 196.3 192.5 190.5 186.4 183.1 182.3 181 180.1 180.5 185.8 183.7 178.6 180.9 177.3 172.8 168.5 167.9 163.1 161 160.3 160.5
144.7 145.5 145.1 143.8 141.9 140.1 139.4 137.8 138.1 138.1 140.6 144.1 145.7 148.1 150.7 152.7 154.7 155.9 157.1 159.4 159.8 159.5 159.5 159.5 158.6 158 156 151.9 151.6 152.1 153 153.2 153.5 153.6 151.2 153.2 155.6 157.2 161 163.9 167.7 170.5 173.1 178.7 182.8 185.4 187.1 187.7 188.8 208.2 218.1 217.2 214.6 213.9 222 218.8 217.6 214.3 210 206.2 203.2 201.2 199 196.5 194.5 192.2 191.2 189.8 189.5 189.3 188.4 187.4 187.2 184.4 180.9 183 184.1 181.9 181.8 180.8 180.5 180.4 179.6 179.5 178.6 177.8 177.1 176.9 178.2 179.1 179.7 180.2 180.4 180.3 179 178.2 176.8 174.9 174.8 174.9 173.8 174.3 175.7 177.1 178.2 179.4 181.4 185 188.1 191.2 194.6 196.3 199.7 202.1 201.3 201.8 200.5 198 195.6 193.4 191.6 190.2 188.5 186.6 185.7 183.4 182.4 181.6 180.6 181.6 184.2 187.4 190.6 193.2 194.8 195.8 196.9 197.1 196.8 199.4 202.3 206.4 210.4 212.8 213.9 214.3 212.5 210.7 207.9 205.1 201.9 200 199.8 203.1 206.1 207.7 206.6 207.2 206.9 211.7 215.2 219.1 225.1 229.1 231.8 235.3 235.5 233.3 228.8 228.8 229.2 231.5 224.1 219 216 224.9 210.9 216.5 207.1 203.8 197.6 195.5 193.7 189.3 185.6 181.4 180.6 188.1 189.2 188 188.2 188 181 177.2 174.1 172.8 169 168.2 164.1 163.1
147 148.2 148.2 146.8 145 142.6 141 139.3 138.2 138.1 139.7 143.2 144.5 146.3 148.8 152.1 154 155.6 157.3 158.7 159.3 159.6 160.4 161.9 161.3 161.6 159.2 156.7 152.8 152.1 152.5 153.8 153.4 149.7 150.8 152.3 155.5 158.7 161.8 165.3 167.6 171.4 175.4 178.9 183.2 188 190 189 189.1 205.6 218 219.9 218.1 217.2 218.5 217.5 216.4 213.7 211.2 207.6 204.1 202.3 200 196.7 195.4 193 192.2 190.3 189.8 191.2 188.7 188.3 187.7 186.9 186.5 185.9 184.6 184.4 182.7 181.6 181.2 180.4 179.5 179.3 178.5 177.7 177.9 177.1 176.4 176.6 176.9 177.4 177.8 178.2 178.1 177.1 175.8 174.3 174.4 174.2 174 173.9 174.8 175.8 177.3 178.8 180.7 184.9 188.3 191.4 194.6 196.4 197.7 199.3 198.3 197.1 198.2 195.3 193.7 191.2 189.4 188 187.2 185.8 184.8 183.5 181.7 180.6 179.9 181.3 183.9 186.5 189.1 191.3 191.7 192.7 193.6 194.1 195.2 197.9 200.6 203.9 208 210.4 210.8 212.2 211.3 209.4 207.7 203.9 200.9 199.2 199 200.4 203.4 205.3 204.2 204 207.9 211.4 214.6 218.6 221.9 223.8 227 231.3 234.7 232.6 227.5 225.7 229.1 230.7 229 228.6 230.9 230.8 225.3 225.6 214.9 211.6 204.7 201.1 197.9 194.5 190.2 185 189.6 193.8 197 195.8 194.8 191.3 185.6 183.2 179.7 174.9 175 171.8 168.8 164.7
149.6 151.9 151.9 149.9 145.7 145.1 142.7 141.8 140.8 138.4 139.4 141.9 143.8 145.6 147.3 150.3 152.9 154.4 156 157.3 158.7 159.2 160 162 163 163.7 162.1 157.6 153.1 151.9 152.4 152.5 153.9 152.2 150.2 152.4 156 158.8 160.5 164.3 168.5 172.6 176.3 180.1 184.4 187.3 188.4 189.3 189.6 198.5 217.8 221.6 221 219.7 219.7 218.4 215.2 213.7 211 207.8 204.4 202.9 200 198.1 196.2 194.2 192.4 191.1 190.3 190.8 189.9 190.2 188.2 186.9 186.3 185.5 185.4 184.3 182.3 181.5 181.4 180.8 180.4 178.6 178.9 178.9 178.4 177.6 175.7 177 177.2 177.3 177 175.9 176.4 176.6 175.5 174.7 173.6 173.5 173.4 173.6 174.7 175.8 178.1 179.6 180.7 184 186.8 189.2 193.7 195 196.2 197.5 196.5 192 197.6 194.6 193.6 190.8 188.7 187.4 186.6 184.6 183.1 183.2 181.8 180.7 179.6 180.5 182.3 184.2 186.2 188.4 188.7 189.3 190.3 191.1 193.6 196.2 198.9 201.5 205.5 208.5 210.4 210.9 210.5 209 207.9 203.8 200 198.4 197.6 198.8 199.5 202.2 201.8 205.2 209.3 212 215 217.2 219.3 221.3 223.5 226.6 230.3 228.1 224.2 222.8 225.5 226.5 227 232.7 237.7 242.1 241.5 233.7 228 218.6 212.3 208.6 203.4 200.3 192.8 187.8 192.8 198.9 204.1 206.6 201.5 193.7 191.7 187.4 183.3 182.8 179 174.5 171.3 165.8
153.5 155.4 154.1 150 150.2 147.2 144.9 143.1 142.4 142.6 141.6 141.5 141.5 144.9 146.6 148.2 151.2 152.8 154 154.9 156.4 158.3 158.6 159.9 162.9 163.2 159.4 155.8 153.5 152.6 152.4 151.4 150.9 149.2 149.5 152.4 155.2 158.6 161.2 164.3 167.5 171.7 176.1 179.9 182.8 185.9 187 189.2 190.9 216 222.5 223.9 223.1 222.4 221.3 218.6 215.8 212 209.4 207.2 205.1 203.6 200.1 198.7 196.6 195 193.4 192.2 190.8 189.6 189.5 189.2 188.7 187.3 187.9 185.3 184.5 183.7 182.9 182 181.5 181.5 181.5 177.4 177.2 180 179.3 178.3 177.8 176.5 177.1 177.5 176.8 176 175.5 176 175.8 174.3 173.4 173.4 173.3 173.5 174.8 176 178.3 180.7 181.6 183 186.2 189.6 192 193.6 193.5 192.3 192 194.3 197.4 196.6 194.7 193.1 190.9 188.5 185.9 184.3 182.4 181.2 180.7 180.2 178.7 180.2 180.7 181.3 183.3 185.6 185.9 187.1 189.6 192 193.2 194.9 197.4 200.7 203.9 206.9 210.5 211.4 211.3 209.8 208.2 204.9 202.4 199.2 196 197.6 199 198.8 201.6 206.6 210.7 213 215.1 214.3 216.1 218.6 221.5 224.9 225.2 224.3 220.4 219.3 220.4 221.8 225.3 231.7 235.2 237.4 239.1 239 232.6 226.5 220.9 214.1 212 207 196 192.6 195.9 203.6 210.4 212.4 206.2 199.2 198.3 192.7 193.8 188.3 183.3 179.8 175 170.4
150 152.1 151.2 151.9 152.6 150.2 147.2 145.2 143.9 143.5 143.5 143.3 142 143.4 146 147.3 149.4 150.7 151.6 152.5 154.7 156.9 157.5 158.7 161.6 159.1 158.6 156.8 154.5 154.1 157.3 153.1 157.5 153.2 150.2 152.9 155.1 160.1 162.4 165 168 171.1 174.8 178.4 182.1 185.9 190 191.3 192.4 211.9 226.3 225.3 225 223.9 222.6 220 217.1 213.9 210.5 207.1 204.9 204.1 200.4 198.3 196.8 195.3 194 191.9 190.7 189.9 190.4 190.4 189.6 187.3 187.5 185.1 184.2 184 183.8 182.8 182.6 182.8 182.6 181.6 180.6 181.4 181 180.4 179.3 177.9 177.5 177.5 177 176.3 175.1 175.2 174.9 173.4 173.2 173.2 173.2 173.4 174.7 176.3 178.7 180.8 182.1 183.2 186.2 188 190.3 191.1 192.5 192.8 192.9 194.6 196.8 196.9 196.7 195.4 193 190.9 187.9 184.7 182.4 181.1 180.7 178.9 178.2 179.2 180.6 180.9 182 183.5 186.5 189.1 191.5 193.8 195.9 197.4 199 202.5 205.5 208.8 211.2 212.3 212.8 211.5 209.5 206.5 203.2 200 196.7 194.9 195.8 198.5 202.9 203.7 209.1 212.3 212.4 211.4 213 217.5 221.6 224.4 224 221.7 216.6 215.5 216.4 217.7 224.1 229.6 232.3 234 238.6 239.5 237.5 230.6 229.8 229.9 218.6 212.6 204.3 198.1 201.7 208.9 217.6 220.4 214.7 209.1 204.9 202.8 198.5 191.8 187.1 180.9 175.9 172.6
148.5 149.2 149.8 151.4 151.9 151.6 149.8 148.3 146.5 145.8 145 145.7 145 145 145.7 147.7 149.2 150.3 151.2 151.8 153.6 155.8 157.1 157.2 159 159.9 159.7 159.5 155.8 156.7 162.1 159.3 158.5 156.4 153.3 152.2 154.9 159.1 162.6 166.6 169 171.4 175.7 179.5 183 187 191.8 193.2 196.4 210.8 229.3 227.6 226.1 224.8 223.2 220.5 218.1 214.4 210.9 208.5 205.8 203.7 200.5 199.3 197.6 196.3 195.1 193.9 190.2 190.2 190.3 190.4 189.6 187.5 185.2 184.6 184.3 184.6 184.4 183.9 184.2 184 183.4 182.4 183.1 182.8 181.7 181 179.7 178.7 177.5 177.5 177 176.5 175.4 174.1 173.7 173 173 173 173 173.1 174.2 176.3 178.5 180.6 182.2 183.9 184.7 185.6 187.6 189.2 190.5 191.7 192.9 193.8 195.3 197.1 197.9 197.3 196 193.2 188.9 185.7 183.5 181.2 179.8 178.3 177.7 178.3 179.5 180.8 182.9 184.9 188.5 190 192.7 194.8 197.7 199.8 200.9 204 207.2 209.9 212.2 213.6 213 212.9 209.9 206.6 203.8 200.7 197.4 194.3 194 198.1 202.6 205.9 208.4 209.2 208 209.6 213.1 218.1 222.2 224.2 223.5 220.1 214.9 212.4 212.9 214.6 221 224.2 227.1 232.4 237.5 238 237.6 234.3 238.1 234.9 231.6 217.7 212.8 204.1 210.1 214.6 227 234.8 231.2 222.5 212.9 208.9 202.9 195.3 189.3 182.7 181.1 173.6
147.2 147.7 148 149.2 150.1 150.7 151 150.9 149 148.5 147.3 146.1 146.2 147.2 146.9 148 149.4 149.9 151.4 151.7 152.5 154.7 152.1 157.9 160.1 161.2 161.7 160.4 157.5 155.9 159 164 160.8 158.6 155.1 153.1 154.9 159.1 162 167.1 169.9 172.9 177.7 180.9 184.5 189.7 193.7 196.7 198.2 213.1 230.1 228.4 227 225.6 223.9 221 218.5 215.8 211.5 208.8 205.7 203.5 201.2 200.9 199.3 197.8 196.6 195 190 189.9 190 190.1 189.9 187.6 186.4 184.9 184.3 184.2 184.1 184.2 184.3 184.3 184.3 184.6 184.4 184 182.5 181.4 180.7 179.4 177.9 177.4 176.8 175.9 175.7 175.5 173.6 172.9 172.8 172.8 172.6 172.8 173.5 175.8 178 180.1 181.7 182.8 183.4 183.5 185.4 187.3 187.7 188.3 191.8 192.9 193.4 196.2 197.6 198.1 198.1 194.7 190.1 186.3 184.1 181.9 177.5 178 176.4 177.2 178.3 179.9 183 185.9 187.1 190.6 193.2 195.1 198.7 202.9 204.1 205.6 206.8 209.6 212.7 214 213.2 212.3 209.8 206.1 203.3 200.4 197.6 193.8 193.3 198 202.5 205.2 205.8 204.5 204 207.2 211.1 216.2 220.8 222.7 222.3 219.9 213.8 210 210.5 212.1 214.9 218.7 225.6 230.2 233.7 235.2 234.7 234.1 235.7 236.3 238.4 230.6 219.9 215 222.7 224.3 234.6 236.3 230.2 221.8 220.9 215.4 207.4 200.2 192.7 191.6 185.4 174.6
145.2 146 146.6 147.5 148.3 149.5 151.2 151.5 151.7 151.3 148.9 147.3 147.7 148.1 148.4 149.3 150.2 150.9 150.6 149.2 152.6 154.4 156.6 158.5 160.9 161.3 161.9 161.2 159.2 157.8 163.4 168.2 166.2 159.7 155.8 154.3 155.9 159.3 162.4 167.4 171 174.8 177.7 182.2 187.4 191.1 197.8 200.4 201.4 202.4 215.5 230.4 227.2 226.2 223.9 221.1 218.9 216.1 211.8 208.1 205.7 203.5 203.1 202.6 201.1 200.1 199 194.8 189.8 189.7 189.8 189.8 188.5 187.8 186.9 185.9 185.2 184.5 184.5 184.6 184.6 186.7 186.9 183.1 185.7 185 183.7 182.6 181.7 180.2 178.6 177.3 176.4 175.7 176.2 176.4 175.6 174.7 173.5 172.5 172.3 172.2 172.9 176.3 178 179.5 180.7 181.7 181.3 181.6 183.3 185.1 186.1 187.2 188.1 189.4 192.2 195.4 196.5 197.2 198.6 195.8 190.4 186 183.8 181.2 178 177.1 176.3 176.3 177.6 179.6 182.5 184.2 186.3 189.9 193.3 195.4 198.1 202.4 204.5 206 207.8 210.9 212.6 212.7 212.3 211.5 208.9 205.5 202.7 199.9 197 193.1 191.8 197.8 201.6 204.1 202.9 201.3 202.7 206.4 209.7 214.4 218.6 220.6 220.2 217.7 214.3 209.1 208.2 209.3 212.2 215.3 222.2 226.2 229.9 230.1 230.1 231.1 234.1 231.5 232.4 235.9 229.5 229.8 234.8 238.2 232.5 223 213.3 212.8 215.2 218.1 214.7 207.6 200.5 192.2 183.7 177
144.4 144.7 145.8 146.3 146.8 147.7 149.6 151.5 153.4 155.4 152.3 150.3 150.7 149.7 150.1 151 152.1 152.8 153.7 153.2 155.1 155.8 156.6 159 160.3 160.9 161.8 162.4 162.5 163 169.9 179.4 173.3 161.2 156.3 155.6 157.4 159.6 163.1 166.7 170.4 174.3 177.8 182.2 187.3 195.1 201.2 201.4 203 204 207.2 223.3 227 224.7 223.2 221.5 218.9 215.8 212.3 208.5 206.3 205.5 205 204 202.6 201.1 199.6 191.1 190.7 190.1 189.6 189.6 189.3 188.6 187.4 187 186.5 185.9 185.5 184.7 185 187.5 188.1 187.8 181.7 185.9 184.9 183.6 182.2 181.1 179 177.7 177.2 177.6 178.2 177.7 176.9 174.3 173.7 174.3 172 171.7 173.7 176.4 177.7 179.2 179.6 179.6 179.1 179.7 181.5 183.4 185.6 185.9 186.9 188.3 190.5 192.6 194.8 196.8 197.3 196.5 191.6 185.6 182.8 180.1 177.5 175.9 176.6 175.4 177.3 179.5 181.9 182.9 185.5 188.8 192.6 195.1 197.4 200.5 202 204.4 208.6 210.2 211.3 211 210.7 210 207.2 204.3 201.8 199.2 196.5 193.3 190.9 194.6 199.2 200.2 199.7 198.2 201.8 205.6 208.1 212.2 215.8 217.8 216.9 214.5 212.4 208.9 205.6 207.3 210.1 214.3 219.1 221.7 224.5 225.5 225.9 228.5 230.7 223.6 221.9 224.6 231.5 235.2 230.4 223.7 214.8 210.8 211.5 212.7 210.9 212.4 214.8 214.1 206.7 196.5 187.1 180.1
142.4 143.9 143.4 143.4 144 145.2 148.2 150.9 153.4 155.5 155 153.7 151.7 151.2 151.9 153 154.1 155.1 156.1 156.9 157.4 157.6 157.6 160 161.2 161.8 162.5 163.8 165.4 164.7 175.6 189.9 185 170.4 162.2 159.7 165.6 170.2 163.6 166.9 171.1 173.8 177.4 180.6 185.3 192.7 201.6 201.9 202.1 205.4 209.4 223.9 224.8 224.8 223.5 221.8 218.6 216.3 212.9 209.6 208 207 205.7 205 204 202.4 197.5 190.9 190.9 190.4 190 191.1 190.6 190.1 188.1 187.6 185.9 184.8 184.7 184.6 184.8 188.1 188.4 188 188.3 179.8 184.7 183.7 182.5 181 180.2 179 178.9 179.5 180.1 179.1 177.6 175.5 173.6 172.2 173.2 173.6 173.1 176.4 177.6 178 177.5 177.5 177.2 179.1 181.5 183.3 184.5 184.2 185.2 186.5 188 189.9 192 194.4 196.7 196.4 191.1 185.5 181.5 178.8 176.4 175.7 176.8 175.4 177.2 179.6 181.7 183.7 185.3 187.9 191.1 194.6 196.9 199.1 200.8 202.6 206.4 207.8 209.2 209.2 209 208.6 206.3 203.3 200.8 197.9 195.6 192.9 190.7 191.8 195.6 197.5 196.6 197.2 200.5 203.8 206.5 209.1 212.7 214.7 213.6 211.7 210.4 207 203.6 205.6 207.2 210.4 215.8 219.3 221.4 221.3 223.1 225.4 226.2 219.5 217.4 214.5 217.1 221.1 215.3 208.8 203.5 203.7 206.6 209.3 211.3 212 212.9 218.6 213.6 206.3 196.7 188.7
141.1 142.2 142.5 142.3 144.1 145.8 147.4 150.9 153.4 154.8 154.1 153.1 153.3 153 153.3 154.7 156.3 156.7 157.8 158.3 158.5 158.8 158 160.1 162.1 163.5 164.5 167.8 168.3 172.5 180.3 189.7 191.2 181.7 174.7 175.3 178.8 178.2 171.8 166.7 169.9 172.8 175.7 179.3 184.4 190.1 199 202.1 203.5 205.4 210.3 223.4 224.2 224.1 224 222.4 219.7 217.4 213.8 211.2 209.1 207.2 206.2 205.5 204.7 203.7 198.8 196.8 191.6 190.9 189.9 191.1 190.4 190 188.6 188.2 187.9 187.4 186.5 184.9 184.6 188.6 188.2 188.7 188.8 187.5 180 183.6 183.3 181.6 180.8 180.2 180.5 180.8 180.9 180.3 178.7 177 174.7 173 171.4 171.7 173 174.3 176.3 176.7 176.7 176 175.5 177.8 180.8 183.3 184.3 184.1 183.6 184.9 186.4 187.9 189.6 192.5 195.2 195 192 188.3 183.7 180.5 178 174.3 175 175.5 176 180.1 182.4 182.9 184.9 188.2 189.8 191.6 196.5 198.7 199.5 201.1 203.6 205.5 206.3 207.4 207.2 206.9 206.5 203.7 200.8 197.2 194.7 192.4 191 189.8 192 193.3 193.3 195 197.8 201.1 204.5 206.6 210 211.5 210 209.5 207.6 204.9 201.6 202.2 204.2 206.1 210.9 215.1 217.1 217.9 220 221.7 219.6 217.5 215.1 210.3 207.4 209.7 210.8 204.7 202.8 202.3 202.2 203.2 208.4 210.5 213 214.6 215.9 216.7 205.4 200.1
139 140 141.3 142.3 144.5 146.3 148.1 150 150.6 150.4 150.5 150.8 152.5 153.4 154.6 155.2 156.5 158.5 159.1 159.4 159.8 160.2 160.6 161.5 162.9 164.3 164.9 167.9 170.5 173.9 183 190.9 196.1 188.8 184.3 184.6 183.6 181 178.4 172.2 169.4 171.7 174.7 177.7 183.6 188.8 196.8 202.6 203.6 206.8 210 223.9 223.8 223.4 223.8 223 220.6 218.9 215.5 213 210.4 207.8 207.7 206.4 205.9 203.5 201.6 199.1 195.4 191.2 191.9 192.7 191.6 190.6 189.3 188.5 188.3 188.7 189.2 189.8 189.8 189.6 189.9 189.1 187.4 185.2 180.7 182.5 183.8 183.5 182.5 181.3 181.2 181.3 181.5 181.4 179 178.3 175.7 173.6 171.6 171.2 172 172.5 175.1 175.4 175.3 174.1 174.8 176.9 179.8 182.1 183.4 182 181.2 183.4 185.2 186.8 187.3 189.7 192.2 192.9 191.2 187.8 185 182 178.2 175.6 174.9 174.3 175.3 178.6 179.8 183.7 185.3 186.8 190.2 193 195.5 198 199.1 198.5 200.2 201.9 203.6 205.3 205.4 205.2 204.9 204.4 202.7 200.3 197.3 193 189.3 189.1 188.9 190.3 190.8 192.2 195.1 197.1 198.9 202.5 206.2 209.4 208.8 207.3 204.9 203.6 199.9 199.6 201.6 204 207.7 211.1 211.5 211.6 214.5 216.9 216.6 214.7 217.6 212.2 206.9 204.6 204 202.9 202.5 201.8 201.5 204 210 211.2 212.1 212.6 211.9 211.3 218.8 202.3
138.3 139.4 141.3 143.2 144.8 146.5 148.1 148.5 148.7 148.3 149.1 150.8 153.3 157.4 160 160.4 159.6 160.8 161.1 161.1 161.5 161.8 162.1 162.5 163.7 165.1 165.3 166.9 171.9 177.5 184.2 192.5 198.4 192.6 188.4 186.8 185.4 183.8 181 173.8 169 170.9 174.1 177.3 183.4 188.5 191.8 200.8 203.1 206 210.2 224.2 224.7 223.5 222.9 222.3 220.6 218.7 216.6 213 210.1 209.2 209.4 206.9 205.6 203.4 201.7 199.4 196.7 195.4 194 193.4 192.3 191.1 189.8 188.5 188.5 189.7 190.6 191.5 192.3 192 191.5 190.6 189.3 188 185.4 180 184.8 184.6 183.9 182.6 181.6 181.8 182 182 180.3 178.9 176.1 174.4 173.1 171.4 170.7 170.7 172.1 173.1 173.3 173.3 174.2 176.2 178.5 180.1 181.2 180.9 179.2 181.8 184.1 186 185.3 187.9 189.6 190.8 191 188.2 184.9 181 179.3 176.5 173.3 174.6 173.8 176.1 179 181.2 183.2 185.5 187.7 191.3 193.8 196.3 198.1 197.8 197 199.1 201.2 203.1 203.1 203 203 202.9 202.6 201.2 199.6 196.5 193.4 189.6 188.6 187.4 188.3 189.2 192.6 193.4 193.8 196.7 201.2 206 206.6 204.5 202.5 201.5 199.5 196.9 198.8 202.6 206.6 209.5 209.9 208.5 206.7 208 212.7 209.3 214.5 218.2 212.2 205.5 203.3 202.8 202.3 201.3 201.5 206.1 210.3 212.8 213.7 211.9 211.1 211.7 205 206.3
138.2 140 142.1 144 145 145.9 147.3 146.9 146.7 146.8 149 151.8 156.4 159.5 163.3 165.5 164.1 163.2 163.1 163.1 163.1 163.5 163.6 163.6 164.7 165.9 165.6 165 170.2 177.3 183 192.6 199.3 195.4 190.8 187.6 186 183.8 173.4 167.2 167.2 169.9 173.7 177.8 181.8 187.3 192 197 202.4 204.3 209.1 221 225.1 225.6 223.6 222 220.4 218.4 216.2 213.4 211.4 209.8 208.9 205.7 204.8 202.2 201.3 199.7 197.6 196.9 195 193.8 192.7 191.5 190.3 189.7 190.1 191.9 192.4 192.5 192.2 192.6 192.3 191.1 189.7 188.3 187 181 178.6 185.1 184.4 183.9 182.5 182.3 183.2 182.2 180.8 179.6 177.6 175 173.5 171.6 170.6 170.7 171.7 172.2 171.9 172 173.4 174.7 175.2 177.5 178.6 179.1 178.2 180.1 182.7 183.1 183.4 184.1 187.3 189.1 189.2 188.5 184.7 180.6 178.1 175.3 173.6 174 173.5 174.6 175.3 178.7 182.1 184.6 187.2 189.9 191.3 193.2 194.1 195.8 194.6 197.8 199.7 200.9 200.7 200.5 200.4 201.4 201.9 201.2 199.9 197.6 194.9 192.7 189.7 187 185.7 185.7 188.2 190.2 192.8 195.6 199.1 202.4 203.1 200.6 200.1 199.3 197.2 196.6 198.4 202.4 205.5 207 205.5 203.9 203.7 201.3 203 204.5 209.5 212.2 214.7 209.4 204.6 203.5 203.1 200.8 200.8 201.4 209.5 212.4 212.3 206.9 206.5 198 187.1 190.8
137.8 140.2 141.4 142.9 144.3 145.5 145.7 145.3 145.6 147.2 149.6 152.6 156.9 160.4 163.4 166.7 167.4 165 164.9 165 165.1 165.1 164.9 164.5 165.2 166.3 165.7 165.4 167.5 177.2 181.9 191.5 198.5 197.4 193.4 189.6 183.6 173.2 165.2 164.2 167.1 170.8 173.2 177.8 181.6 184.8 190.4 195.9 200.1 204.1 209.2 220 227.2 226.1 224.3 223.2 221.7 218.6 217 214.1 212.4 210.2 207.6 205.3 203.4 201.6 200.5 199.3 198.6 197.8 196.4 194.8 193.1 192 191.8 191.3 192.2 193.1 193.4 192.5 192.7 193.2 193 191.6 190.2 188.8 187.3 187.6 178.4 184 184.6 183.3 183.1 183.7 183.7 182.1 180.6 179.4 178.2 175.8 173.2 171.8 170.7 170.6 170.4 170.6 171 171.4 172.2 172.6 172.6 173.9 175.9 174.9 176.2 178 180.5 181.9 182.7 183.4 184.1 186.2 187.3 187.3 185.7 182.9 176.9 176.4 175.7 173.7 173.4 174.7 175.8 175.5 178.7 181.2 184 186.2 187.7 190.5 193.1 190.7 191.9 195.3 197.9 198.5 198.2 198 199 200.4 200.9 200.9 200 198.7 196.6 194.8 193 190.2 186.5 184.5 185.4 187.6 191.5 196.6 195.8 198.1 198.7 198.1 197.2 196.7 195.4 195.6 198.4 202.1 204.3 205.7 204.7 198.6 197.9 196.1 198.7 200.8 202.8 205.6 209.6 215.6 207.8 204.5 205.5 206.2 200.3 200.3 206.8 210.3 209.6 204.9 205.7 195.5 185.6 185.6
137.5 138.3 139.7 141.4 142.8 143.9 144.9 144 145.3 148.1 150.3 152.8 157.2 159.8 162.6 165.7 167.5 167.1 166.4 166.5 166.7 166.8 165.9 165.8 166 166.1 165.9 165.8 165.1 172.6 179.6 189.3 195.9 197.2 190 184.6 176.5 165.2 162.7 165.2 169 171.4 173.9 176.7 180.5 184.1 190.2 196.5 200.5 207.3 211.5 221 227.7 226.9 225.3 223 221.8 219.2 217.6 215.7 212.4 210.6 208.8 206.6 204.3 202.6 201.7 200.8 199.6 198.1 196.7 195.2 194 192.9 192.4 192.1 192.4 192.7 194.2 193.2 193.5 193.8 193.5 192.1 190.7 189.3 188.2 187.9 187.1 178 180.4 182.6 183.7 183.4 182.7 181.9 180.4 179.2 178.1 176.3 173.2 172.5 171.9 171.2 169.9 169 169.3 170 171 171.4 171.5 171.4 173.6 173.3 174.2 175.6 177.7 179.9 182 182.8 183.4 184.9 185.4 186 184.8 181.1 180.3 178.8 176.2 175.1 174.2 173.1 174.9 176.8 176.5 179.1 181 183 185 187.6 190.4 191.2 190.2 193 196.2 197.2 196.2 195.7 197.1 198.3 200.1 200.4 199.4 198.5 197.4 196 192.8 190.8 188.2 185.6 183.3 185.2 188.9 192.9 194.7 194.7 194.7 194.9 194.3 193.7 193.1 194.7 197.7 201 203 204.7 201.9 194.4 192.7 191.8 195.4 197 198 200.6 201.2 203.4 203.2 203.5 204.8 207.9 205.9 200.7 204.8 208 208 204.9 198.2 192.4 185.6 185.6
139.4 139.7 141.2 141.4 141.7 142.6 143.5 145.1 147.6 149.7 151 153.1 156.8 159.2 161.9 165.1 167.2 167.3 168 168.1 168.3 168.5 167.2 167.1 167.2 167.1 166.9 166.8 165.5 170 179 185.7 188.7 190.2 184.1 175.2 166.6 158.6 160.5 165.2 168.6 171.7 173.7 176.9 180.3 184.1 189.1 195 199.9 204.8 211.9 219.3 227.4 227.7 225.7 223.7 222.3 219.7 218.6 216.3 213.4 211.3 210 207.8 205.4 204.5 203.7 201.5 200 198.8 197.6 196.4 195.2 194 193.3 193.7 194.1 194.4 195 194.4 194.7 194.5 193.4 192.4 191 189.7 187.5 186.2 184.4 185.2 177.8 182.5 182.9 182.3 181.6 180.7 180 178.9 177.7 174.4 173.5 173.4 173.7 173.1 172.6 171 170.5 170.1 169.7 170.6 170.7 171.3 171.9 171.8 172.6 174.2 174.9 175.6 179.4 182.3 182.9 183.6 184.2 185.1 183.3 181.5 181.1 178.6 177.3 174.7 173 172.4 173.9 175.2 176.1 177 179.2 181.6 183.1 185.1 187.2 188.1 188.3 191.2 195.1 195.6 195.4 192.9 193.5 196.3 198.3 199.5 198.9 197.9 196.8 194.8 193.5 191.7 189.5 185.1 183.2 182.9 186.1 190 192.2 192.4 192.5 191.8 191.1 190.6 191.9 194.9 197.7 199.7 200.6 199.7 192.7 189.9 187.6 188.4 192 193.1 194 194 195.6 197.1 197.5 198.7 199 199.2 201.2 202.9 199.9 206.5 204.9 204.9 196.3 191.7 187.2 185.6
140.6 141.9 142.3 142.3 142 143 144.3 147.3 149.5 150.9 152.4 153.8 156.1 158.6 161.3 165.1 167.6 169 169.6 169.8 170 170.1 169.7 169 168.5 168.2 168 167.6 166.9 167.7 175.8 181.1 182.3 183.8 180.4 170.3 160.5 156.9 159.9 164.6 167.3 171.1 173.6 177.2 180.4 184 188.5 193.8 198.6 203.6 210.6 219.7 228.2 229.2 226.9 225.2 223.4 221.3 219.4 216.8 214.4 212.3 211.1 209.6 207.1 206 204.4 202.8 201.2 200 198.7 197.5 196.2 194.8 194.7 194.8 195.4 195.9 195.8 195.6 195.1 194.4 193.1 192.3 191.1 189.1 186.7 185.8 185 183.8 183.3 177.5 181 180.2 179.9 179.4 178.7 177.8 176.8 175 174.9 177.5 177.3 176.3 174.8 172.4 170.5 170.8 170 170.3 170.1 171.4 171.8 171.3 171.2 173.4 174.2 174.8 175.5 180 182.3 182.4 183.5 183.4 182.5 181.8 181 179.5 177.5 174 172 171.9 172.6 174 175.3 176.7 177.5 179.8 181.2 182.7 184.1 185.4 187.2 190.1 193 194.1 193.1 191.9 191.4 194 196.6 197.8 198.6 197.9 196.2 193.5 192.4 192 189.7 187 184.1 181.4 183.1 186.4 188.5 189.7 190.1 188.9 189 188.5 191.2 195.5 198.4 199.8 198.9 194 187 186.9 183 185.7 188 189.1 190 190.9 192.1 193.3 194.7 195 193.9 193.7 193.7 195.5 197.4 202 204.9 203.1 194.4 191.3 186 185.6
141.1 142.4 142.8 142.8 142.6 143.5 146.1 149 149.3 151.2 153.6 154.8 156.4 158.4 161.8 165.4 168.2 169.6 171.2 173 173.8 173.8 175.5 174.7 172 170.3 170.1 169.7 168.4 168 174.2 177.4 180 179.9 175.1 165.4 160.4 156.8 158.3 163.9 166.3 169.8 173.2 177.1 180.4 183.7 188.2 192.6 197.7 202.9 209 220.8 228.3 233.1 230.2 226.5 224.6 222.9 221.5 219.2 216 213.9 213 211.3 208.4 207.2 204.8 202.8 202.1 200.7 199.4 198 196.6 195.6 196.1 196.3 195.9 196.3 196 195.6 195.1 194.4 193.1 191.8 189.7 187.3 186.6 185.5 183.7 182.8 181.8 182.1 177.4 180.7 178.6 177.9 177.3 176.6 176.5 176.9 177.7 178.5 179.4 178.6 176.6 174.7 172.2 170.9 170.3 170.3 168.9 169.3 169.2 169.5 170.3 171.4 173.3 173.9 174.3 178.2 180.1 181 182.1 182.6 182.4 181.7 179.5 178.1 176.8 174.3 171.9 171.6 171.7 173.2 174.6 176 177 178 179.3 181 183 184.3 185.2 187.9 190.6 192.2 192 190.3 190.3 191.5 194.6 196.6 197.9 197.8 197 194.3 191.3 190.4 190 187.2 184.8 182.3 181 183.2 184.7 185.6 187.1 186.9 186.2 187.5 191.4 195.6 198.6 198.5 194.5 189.9 184.4 182.1 181.9 183.7 184.9 185.9 186.9 187 187.3 187.9 188.6 189.2 188.8 188.6 190.6 192 193.2 196.3 201.5 197.5 192.4 189.7 186.8 185.2
140 142.2 142.7 142.5 143.3 144.3 147 150.2 152.1 153.3 154.6 155.8 157.1 159.2 162.3 165.8 168.8 171.3 174 177 179.2 182.4 184.1 182.4 178.6 175.2 172.2 171.7 170.5 169.9 174.1 176.7 176.9 174.4 169.3 164.6 161.3 161.3 158.5 162.8 167 169.1 172.7 176.4 179.9 184 188.1 192.5 198.2 202.2 207.6 217.8 230 235.1 233 228.9 226.8 224.8 223.4 220.1 218.8 216.3 214.6 213 210.4 208.1 205.7 204.8 202.6 200.9 199.8 198.4 197.1 196.8 197.3 198.3 197.8 196 194.8 194.3 194.7 194.3 193 190.3 189.1 186.7 184.6 183.7 182.8 181.9 181 179.2 179 177.7 177.1 177 176.4 177.3 176.7 178 180.5 180.5 182 180.7 179 177.3 174.5 171.6 170.2 169.7 168.2 168.6 169 168 169 170.7 172 173.1 173.8 175.9 178.5 179.4 180.6 181.2 181 179.7 177.8 177.7 176.4 174.6 171.6 171.1 171.1 172.2 173.7 175 175.6 176.5 177.7 179.4 181.9 183 183.7 185.6 188 189.6 189.3 188.6 187.4 190 192.5 195.4 197.1 197 196.3 194.6 191.6 189.1 187.2 187 186 183.5 181.1 181 182.5 183 183.8 185 185.1 186.5 190.6 193.8 198.1 198.5 193.8 189.2 183.4 179.7 180.3 181.4 182.2 183 183.6 183.4 183.5 183.7 184.4 185 184 183 182.3 187.8 188.9 191.7 192.6 193.4 191.5 189.4 188.7 184.6
139 140.9 141.2 143.1 143.9 144.5 147.2 150.4 153.4 155.1 155.9 156.9 158 160.2 163.1 166.6 170.1 174 176.5 180.6 182.5 184.9 186.4 186.3 183.9 179.9 176.3 174.2 173.4 172.8 175 175.6 173.5 169.2 166.9 165.1 162.9 164 162.5 161.8 165.7 169.6 173.2 176.6 180.6 184.1 187.3 191.9 197.4 200.8 204.6 209.8 223.8 235.7 233.1 231.5 230.6 227.4 225.4 224.4 221.6 219 216.9 214.7 212.2 209.7 207.6 206.2 204 201.5 199.9 198.4 198.5 198.6 198.9 199.8 198.9 197.5 194.4 193 193.8 193 191.4 190.1 187.8 185.7 183.8 183.9 183.3 182.1 180.8 180.1 179.5 179 178.7 177.4 180.5 178.5 179.2 180.9 182.3 183 184 182.2 180 178 175.8 174.8 170.9 170.3 169.4 168.4 168.9 168.1 167.7 168.7 169.5 172 173.3 174.8 176.4 177.6 179.4 179.2 179 178.2 176.4 175.4 174.4 172.2 171 170.6 170.7 171.3 172.8 173.6 174.3 175.5 176.6 177.9 180.4 181.6 182.3 183.4 185.3 187 186.5 185.7 185.1 188.3 191.4 194.3 196 196.1 195.3 194.4 192 189.5 187 185.6 185.1 183.7 181.4 179.1 180.4 181 181.8 182.8 183.9 185.3 187.6 190.6 194.5 196.8 193.2 186.5 179.8 178 178.1 178.8 179.5 180.2 180 179.9 179.9 180.2 180.2 180.2 179.7 179.1 177.9 178.5 182.8 185.7 184.8 185.2 187.3 187.2 183.6 181.8
137.4 139.2 140.6 141.7 143.5 144.9 147.1 150.2 153.3 156.5 158.1 158.7 159.7 162.3 164.5 167.5 171.1 174.6 179.1 181.6 183.4 185.9 188.1 187.8 187 184 179.9 177.2 176.7 176.7 176.1 174.3 171.3 169.1 168.7 164.8 166.8 166.6 163.9 161.9 164.5 168.8 172.3 175.8 179.1 182.8 186.7 190.4 196 196.6 200.5 207.2 218 232.8 235.3 235.6 234.9 231 228.3 226.1 223.3 221.2 218.7 217.1 214.7 211.9 209.1 207.5 204.7 202.4 200.6 199.8 200.3 201 200.3 200.2 199 197.6 196.1 193.1 192 190.8 189.3 188 186.5 185.5 184.9 184.4 184.1 183.6 181.7 181 180.3 179.6 179.7 180.5 177.8 180.6 183.2 183.4 185.1 185.7 185 183.9 181.8 179.5 178.2 176.1 173.4 172.5 169.7 168.6 168.1 167.2 167.2 167.7 169.4 170.4 171.1 172.8 174.6 177.3 177.1 176.9 176.7 176.7 174.9 173.8 173.5 172.1 170.3 170.2 170.2 170.4 171.6 172.4 173.5 175.1 176.4 177.4 179.2 180.7 181.3 181.5 182.7 184.4 183.8 183.3 183.8 186.4 189.9 192.9 194.6 195.1 194.2 193.4 192.3 190.1 187.7 186 184.5 182.1 180.4 178.9 178.7 179.9 181 181.8 182.6 184 186.2 188.5 190.9 192.4 189.8 182.6 177.4 176.2 175.9 176.3 176.8 177 176.7 176.4 176.9 177.6 177.3 177.1 176.5 175.6 174.6 175 177.2 179.6 178.6 180.8 182.5 181.3 179.8 175.4
135.6 137.6 138.8 140.1 142.3 145.9 148.2 150.1 153.1 156.3 159.5 161.2 161.2 163.8 166.1 168.4 172.3 176.4 180.4 182.9 185.6 187.5 189.4 189.2 188.3 186.2 183.6 180.6 180.7 181 179.3 175.1 172.6 170.9 169.3 169 168.6 168.3 167.7 166.1 165.2 166.7 168.9 172 176.4 179.8 181.9 183.9 187.5 192.2 196.6 203.4 211 223.7 232.5 239.1 240 234.3 231.5 227.4 226.2 223.5 221.6 219.2 216.4 213.6 210.4 207.6 206.9 203.7 201.9 201.3 202.3 202.2 201.9 200.8 199.6 198.1 195.7 194.2 192.3 190.5 189.6 188.1 188.1 186.8 187.1 186.2 185.2 184.1 183.2 182.2 181.4 180.8 180.8 180.8 182.5 182.1 178.7 185.2 187 186.3 185.8 185.3 183.7 181.9 180.2 177.2 174.3 173.2 171.1 169.9 167.9 167.1 167.7 167 168 170.4 172.2 171.9 173.7 175.7 175.5 175.4 174.9 175.2 173.6 172.5 172 170.4 170 170.1 170 169.9 170.6 171.6 172.9 174.5 176.2 176.6 178.3 179.8 180 180 179.9 180.6 181.1 180.9 182.7 185.6 187.8 190.3 193.1 193.8 194.4 194.1 191.4 189.4 187.2 185.1 184.3 182.4 180.3 178.1 177.8 179.1 179.9 180.7 181.5 182.6 184.8 187.1 188.3 186.2 183.8 179 175.7 175.3 173.6 173.2 173.9 173.9 174 174.1 174.1 174.4 174.4 174.2 174.3 173.8 171.8 171.1 172.9 173.3 173.6 174.7 176.4 173.8 173 173.1
134 135.9 137.3 139.2 141.8 145.8 149.4 150.8 153.8 157.1 160.3 163.1 162.5 164.5 167.2 170.3 174.7 178.5 181.2 184.2 187.6 189.6 191.1 191.6 190.5 188.2 185.9 184.2 185.4 185.6 182.3 177.7 174.4 172.9 171.6 170.6 170.9 171.2 170.6 168.9 170.8 173.7 169.9 173.4 177.6 180.9 183.2 190.9 192.4 194.1 193.5 201.8 207.3 217 230.4 239 242.6 238.2 235.1 231.5 228.7 225.2 222.9 219.3 217.2 213.7 211.1 208.7 207.7 204.7 204.1 203.4 203.9 203.6 203.3 202.9 201.9 200.1 197.5 195.3 193.1 192.1 190.6 189.7 189.5 188.7 188.4 187.6 186.5 187 185.4 183.7 182.6 182.2 182.6 182.7 184.1 183.7 184.3 179.3 182.1 186.7 186.1 185.4 184.4 182.6 180.7 178.4 176.8 175.1 173 171.1 169.7 167.8 166.9 167.6 167.5 168.8 172.5 173.2 173.5 175.1 174.8 174.6 174.3 173.6 173.1 171.7 171.1 170 169.6 169.9 169.8 170.3 170.5 171 172.2 173.6 174.9 175.8 177.4 178.4 178.4 178.4 178.3 178.2 178.4 179 182 184.3 185.9 187.6 190.6 192.4 193.7 194.1 191.5 189.2 186.9 184.1 183.4 182 180.4 178.7 176.4 177.7 178.8 179.6 180.5 181.3 183.4 185.6 187.1 185.7 182.2 179.9 176.6 173.4 171.1 170.7 171.1 171.7 171.8 171.8 171.9 171.9 171.9 171.4 171.1 171 169.6 168.2 167 168 168.9 170.4 170.5 168.3 168.7 171.8
134.1 135.8 138.4 140.9 143.5 147 149.8 151 154.2 158 161.4 164.6 164.2 166 168.2 172.4 176.3 179.6 182.2 185.2 188.3 190.1 191.8 192.2 191.2 189.3 187.5 188.1 191.4 191 186.7 185 178.8 175.9 174.5 173.1 173.7 173.7 173.5 171.7 166.2 166.4 168.4 173.6 177.8 182.8 186.1 194.3 197.4 200.4 200.6 203.7 207.4 215 226.8 239.6 244.7 241.2 236.2 232.7 229 225.7 222.7 220.4 216.9 214.5 212.5 209.9 207.8 205.7 204.6 203.9 205.4 205.4 204.9 204 202.5 201.3 197.7 195.1 195.2 194.2 192.8 191.7 190.9 190.7 190.2 189.4 187.3 187.6 186.4 185.2 184.1 183.8 184.7 185.1 186.4 187 187 186.1 181 181 185.8 185.2 184.5 182.9 180.9 178.7 177.2 175.2 173.3 172 170.8 168.4 167.5 167.6 167.3 169.5 170.3 171.2 172.5 174 173.9 173.7 173.5 172.2 172.6 171.6 170.3 169.6 169.1 169.6 169.9 169.7 169.6 171.2 172.1 174 175.1 175.6 176.1 177.5 177 176.9 176.4 176.4 177.2 178 181.1 182.5 184.1 185.7 187.9 189.7 191.3 193.1 192 190.6 188.6 186 182.3 179.9 179.9 178 177.1 175.5 177.4 178.4 179.3 180.5 181.2 183.2 184 185.8 184.7 182 178.6 176.5 174.2 171.3 167.7 167.9 169.3 169.6 169.7 169.7 169.4 168.8 168.9 169.2 168.8 167.9 164.8 163.8 164.7 166 166.8 165.1 166.9 169.9
133.5 136.5 139.7 142 143.3 145.9 149.5 151.2 154.5 158.4 162.3 165.6 168.1 167.4 169.4 173.2 177.1 180.6 183.1 185.2 187.2 189.1 190.5 189.9 189.3 188.1 189.7 193.9 197.5 197 193.2 192.6 185.1 179.7 176.6 175.6 176.1 179 182.5 178.8 166.2 169.1 172.5 172.3 175.6 181.2 185.9 190.1 196.5 201.6 208.1 210.1 210.5 218.9 226.1 240.6 245.6 240.9 236.9 234.1 229.8 226.3 223.6 220.6 217.2 215 212.9 210.8 208.7 206.6 205.7 205.6 205.8 206.6 206.4 205.9 204.6 203 199.5 197.2 198.2 197 194.9 193.4 192 192.1 191.9 190.9 189.6 189.1 188.2 187 186 185.6 186.5 188.8 189.5 191 188.9 189.3 185.9 183.8 181.5 185.6 184.3 182.9 180.7 178.7 177.8 175.9 173.8 172.2 170.8 169.3 167.2 167 166.9 167.4 168.6 170.3 171.3 172.5 172.4 172.3 172.3 172.2 171.3 170.2 169.6 169.9 169.2 169.3 169.7 168.4 168.3 171.5 171.9 172.8 175.4 175.8 174.7 175 176.6 174.9 174.9 175.4 176.2 177 180.1 180.8 182.3 183.9 185.3 186.9 188.5 190.3 192 191.9 190.1 187.4 184 179.4 178.5 178 177 175.2 175.5 177.1 178.6 180 180.6 181.1 181.3 183.2 184.2 182.9 181 179.2 176.2 172.3 168.9 166.2 165.7 166.3 166.9 167.4 167.2 166.5 168 168.2 167.8 167 164.2 161.6 160.8 161.6 163.2 162.2 163.5 166.8
134.4 137 140.1 141.9 143.5 144.6 148.3 150.6 154 157.1 161.3 166.3 169.3 170 170.7 173.5 177 180.2 182.6 184.2 186.1 187.8 188.3 187.6 187 188.5 191.1 197.1 201.6 201.3 197.4 193.4 188.4 183 177.1 178.2 182 185.4 184.9 177 170.8 173.1 173.3 173.9 178.6 177.7 183.8 188 193.4 198.1 212.6 220.9 220.9 221.6 238.8 246.2 248.4 241.4 238.4 235.7 231.6 227.8 224.1 221.7 218.7 216.1 213.5 211.6 210.1 207.8 207.1 207.2 207.4 208.1 208.8 208.9 207 205.4 203.8 201.8 200.3 198.8 196.9 195.5 194.3 193.4 193.5 191.9 191.2 190.3 190 189.1 189 189 191.3 191.5 192 192.4 191.7 190.7 188.9 183.8 184.7 182.2 184 182.8 180.4 178.8 178 176.7 174.4 172.3 170.8 169.1 167.6 166.7 166.8 167.1 167.7 168.7 170.1 171 171 171 171.1 171 170.2 169.5 169.8 170.3 169.8 170.4 171.7 169.9 170.6 171.2 171.8 171.8 172.1 174.5 173.7 172.8 173.4 173.7 173.3 174.4 175.2 175.8 178.9 179.7 180.3 181.7 183 184.6 186.4 188.3 189.9 190.1 190.8 190 187.5 183.5 180.3 179 177.4 174.8 174 175.4 177.9 179.3 179.7 180.1 180.4 177.6 181.5 180.4 180.1 179.2 174.3 171.9 166.2 164.7 163.9 164.1 164.7 165.2 165.1 164.4 163.9 164.7 165.1 160.2 160.4 161.6 158.4 158.1 158.5 159.1 160.2 163.3
137.3 138.3 139.4 140.8 142.7 143.9 147.6 150.2 152.7 156.3 160.1 165.9 169.6 170.4 170.3 172.1 176.8 179.5 181.4 183.2 184.6 185.5 185.9 185.6 186.2 188.1 190.8 196.9 203.7 205 203.7 198.4 190.8 185.3 179.4 181.8 186.4 189.8 189.3 179.9 174.9 178 182.5 184 183.2 182.2 183.9 186.8 192.4 195.4 208.7 215 217.3 218.8 226.6 242.8 244.6 243.3 241 237.6 233.5 229.8 226.5 223.1 221 217.7 214.6 212.5 210.6 210.2 208.6 209.3 209.7 210 209.4 209.8 208.8 207.2 205.9 204.4 202.1 199.9 198.6 197.7 196.6 195.2 194.6 192.9 192.7 191.5 191.5 191.7 192 190.4 191.7 192 192.2 192.4 191.7 191.8 191.2 189.4 186.9 184.9 182.6 182.5 180.7 178.5 177.2 176.3 174.4 172.4 170.7 168.5 168.3 167.3 166.2 166 166.7 167.4 169.2 169.7 169.7 169.8 169.8 169.8 168.5 167.7 169.1 170.1 172.1 173.3 173.1 171.3 172 171.8 172 168.9 170.6 172.6 172.3 172 171.4 171.6 172.3 173.5 173.5 174.7 177.2 178.4 179.1 179.7 180.7 182.5 184.4 186.2 187.8 187.3 188.4 189.7 189.4 187.5 183.5 180.4 177.5 174.5 173.5 173.4 176.3 177.8 178.4 178.8 179.2 177.1 177.1 177.1 176.3 176.8 172.2 167 164.2 163.5 162.8 161.9 162.5 162.9 163.1 162.9 162.8 161.8 162.6 163.9 161.7 159.7 158.4 156.1 155.8 156.4 156.9 157.8
