ncols 200
nrows 82
xllcorner 350000
yllcorner 622100
cellsize 50
246.5 245.6 244.9 244.8 244.4 243.9 243.7 243.4 243 243 243.1 242.1 242.4 242.6 240.4 239.5 238.2 237.7 236.3 233.8 232.3 231.3 227.1 222.5 222.7 222.2 222.8 220.8 219.8 217.8 217.3 217.6 219.2 218.7 217.2 216.4 215.8 214.5 212.3 210.2 208.5 207.3 206.2 205.4 203.6 201.9 200.4 200.6 198.9 195.1 195.1 195.7 193.4 191.5 185.6 184.8 180.5 171.8 162.2 158.6 159.7 159.1 158.4 160.1 158.6 158.3 157.5 154.3 150 144.1 144 148.8 150.1 149.2 147.1 144 139.7 130.6 137 142 145.3 144.8 143.5 141.5 139.8 140.6 139.7 134.8 136.8 138 138.8 137.6 133.1 130.8 130.6 131.6 130.6 130.5 129.5 130.8 134 137.3 136.7 136.1 136.7 137.1 137 135.5 133.1 129.8 131.6 132.8 133 134.9 138.8 141 142.1 144.2 143.9 141.2 137.4 135.1 134.3 131.8 128.3 124.6 121.8 121.3 120.6 119.5 117.8 117.6 117.8 117.5 118.5 116.2 114.6 112.3 110.3 108.6 108.6 108.4 108.8 109.9 110.4 110.1 109 108 106.5 104 104.9 105.2 104.5 104.3 105.4 105.3 104.8 104.5 103.9 105.7 104.3 103.2 103.5 103.1 103.3 110.6 118 108.3 107 105.4 103.1 101.8 102.1 103.9 102.7 100.9 100.9 107.5 108 109.1 109.1 107.8 106.7 104.9 100.8 98.3 98.7 115.3 119.5 123.9 123.2 120 117.8 116.4 116.5 117 117.3 117.7 118.6 115.9
247.1 245.5 244.7 237.4 240.5 240.5 240.4 240.3 240.2 240.3 240.2 239.3 238.1 235.8 235.5 234.4 234.1 233.3 231.9 230.7 229.5 228.1 225.3 219.4 219.2 218.5 217.1 214.8 214.1 214.5 214 214.4 214.1 215.5 215.6 215.1 213.6 207.8 207.6 206 204.7 204 203.2 202.2 200.4 198.8 197.1 195.7 192 184.3 184.4 185.9 185.9 180.7 176.4 172.3 163.9 162.1 162.3 164.1 163.9 163.7 164.2 164.1 162.2 161.7 158.2 156.5 151.3 144.8 143.1 144.9 145.8 145.2 143.3 140.9 133 130.1 141.1 146.9 149.1 147.3 146.2 145.1 144 144.1 143.9 143.7 144.9 143.7 138.3 133.1 132.8 134.5 135.6 134.7 133.3 133.2 135.2 138.5 141.8 142.8 143.1 144.8 143.9 141.9 138.1 133.1 130.3 130.1 133.7 136 137.5 140.4 146.8 150.1 147.8 146.4 142.5 136.9 133.3 134.5 131.6 128.1 123.8 121.6 121.5 121.3 119.2 117.7 118 118.2 116.6 116.3 116.1 115.4 113.4 111.2 111.4 111.2 109.5 108.2 108.5 108.4 108.7 108.7 108.2 106.7 105.7 105.8 105.8 105.5 105.4 105.1 104.7 104.5 104.5 104.5 104.4 102.8 104.4 103 104.4 106.4 110.4 117 111.8 111.5 110.6 109 107.2 103 101.8 101.7 101.3 99.6 108.3 110.1 110.9 109.9 107.6 107.3 107.1 104.3 99.2 97.7 100.7 113.6 118.3 122.1 119.8 117.4 115.8 115.6 115.6 116.5 116.9 117.9 118.6 116.2
243.4 240.3 238.3 235.8 236.5 237.8 237.7 237.7 237.5 237.2 236.4 236.4 234.6 232.6 231.5 230.9 230.5 229.2 228.3 226.9 226.2 224.6 223 217 215.7 215.4 215.1 212.8 211.6 211.4 210.9 210.5 207.6 209.7 208.2 203.4 204.4 201.9 203.2 202.5 201.7 201 200.8 199 195.4 195.7 194.7 185.3 180.2 182.9 180.4 179.9 172.5 169.5 165.7 167.1 166.3 167 170.5 170.8 170 169.5 169 167.2 164 160 154.5 150.5 147.6 142.7 140.2 141.1 141.1 141.1 140.3 136.6 132.2 136.6 145.8 149.5 149 148.3 150.2 149.4 148.2 148.2 148.7 149.4 149.3 141.5 134.6 135.1 139.1 139 138.9 137.7 137.2 140.1 143.6 146.8 147.1 148.2 149.8 149 144.7 139.2 134 131.8 131.1 131.4 135.7 139.9 141.8 145.8 151.3 153.1 148.2 143.5 139.6 134.3 130.3 131.2 127.5 122.5 121.9 120.4 120 118.3 117.8 119.3 118.4 117.1 115.8 115.5 114.5 112.8 110.9 110.7 110.6 110.5 109 109.2 107.3 107.9 107.8 107.4 106.8 105.5 106.8 107.5 107 106 105.5 105.2 105 104.6 104.8 104.8 104.7 104.1 103.9 107.3 112.4 113.4 119.5 116.2 116.6 115.9 114.4 110.1 108 108.9 108.3 107.1 108.6 111.2 112.4 112.6 111.8 108.6 107.8 108.4 107.1 98.2 96.9 97.2 109.3 114.2 120.1 119.2 116.2 115 114.2 114.6 114.8 115.7 115.7 115.7 114.8 112.6
237.8 236.4 233.9 233.8 232.1 234.8 235.1 235.2 234.8 233.8 232.6 232.1 230.5 229.2 228.8 228.2 227.9 226.6 225 223.5 222.8 221 219 212.4 211.4 212.6 211.4 210.7 208.5 208.3 207.6 206.6 200.4 195.8 193.7 198.2 197.8 198.1 198.3 198.6 198.6 198.3 197.3 188.9 192.5 185.7 184.4 190.6 193.8 193.8 192.3 191.1 188.7 185.1 178.9 178.2 177.5 177.7 177.6 177.2 176 174.9 172 168.5 163.7 155.2 149.9 145.1 142.3 140.9 140.2 140.6 140.7 139.6 138.5 134 130.3 143.7 148.6 149.8 149.8 151.2 154.5 155.2 153.7 152.1 151.7 152 145.2 137.3 135.9 142.2 142.2 140.8 141 142.2 145.9 150.7 149.5 150 151.8 152.6 150.6 144.9 138.9 134.7 133 134.6 133.8 137.2 144.9 145 145.4 147.8 151.2 149.6 144.6 139.7 136.7 131.3 125.8 124.9 123.7 123.4 121.5 121.1 119 119.5 120.7 119.5 117.3 116.8 115.9 114.4 112.3 110.3 110.4 110.4 110.4 109.4 109 109 108.1 105.9 107.5 107.4 106.3 108.4 109.5 109.1 107.4 105.9 105.6 104.6 105 105.9 108.1 106 104.8 104.3 109 114 115.9 118.8 120 121.5 122.5 118.7 114.1 110.8 110.2 110.3 110 111.2 113.4 115.1 115.3 113.3 109.5 108.1 109 108.5 103 96.3 94.2 102.2 111 117 117.8 115.8 114 113.4 113.3 113.8 113.8 112.6 111.8 110.1 109.1 106.6
237.2 235.4 234.1 232.3 231.4 231.5 230.7 232 230.8 231.3 230.1 229 228 227.1 225.6 225.5 225 223.6 221.7 219.2 218.1 217.1 213.7 209.5 207.7 206.6 205.3 205 204.5 204.9 204.7 203.4 200.5 193.3 193.5 192.9 193.7 194.4 194.2 193.9 195.1 192.8 196.5 198.8 199.6 198.2 196.2 199 200.7 202.3 200.7 197.1 192.3 187.7 185.8 185.5 185.2 184.6 183.5 181.9 179.2 175.8 170.8 167.2 158.9 151 146.4 142.3 141.3 141.2 141 140.7 140 139 135.5 133.1 140.1 148.9 152.5 154.9 155.9 157.4 158.2 158.7 156.7 156.2 155.1 147.5 139.9 137.5 141.3 144 143.9 143.9 143.2 150.2 153.3 151.4 151.4 152.4 151.3 149.2 145 139.5 136.3 132.9 135.1 139.3 141.7 146.6 151 151.5 151 151.2 148.6 145.3 140 134 130.8 127.1 124.2 122.7 122.8 123.1 121.4 120.5 120.6 121.5 119.7 117.5 115.4 114.5 113.5 110.8 109.1 108.6 108.8 109.3 109.7 109.2 108.6 108.8 108.6 107.2 106.5 105.3 110.8 109.2 108.3 108.7 106.8 105.5 105.4 105.8 105.9 108.4 111.7 112.6 113.4 114.3 116.5 119.7 121.8 123.7 124.3 125.4 121.5 116.5 112.9 112.7 112.6 111.2 114.3 117.8 117.6 117.1 114.6 110.5 107.5 109.4 109 104.4 96.5 94.2 99.7 108 112.3 114.5 112.7 113.5 112.6 111.7 112.4 113.3 110.8 108.9 107.5 106.1 104.2 103.3
238.8 238.1 236.6 235.2 234 233.9 233.1 233.4 231.2 227.3 225.2 224.1 223.4 222.9 219.1 220.2 220.7 219.3 215.8 213.6 212.6 210.7 208.4 206.7 205.4 203.9 202 200.7 199.5 200.1 201.9 199.2 197.3 194.5 193.6 193.1 193.1 190.2 189.3 191.4 192.7 197.2 200.5 201.8 202.7 203.2 202 208 209.8 206.9 202.7 197.3 192.1 192.6 192.2 191.2 190.3 186.3 181.9 177.7 175.2 171.1 166.9 162.1 152.8 146.2 141.7 140.8 141.9 142.4 142 140.5 138.4 136.3 132.9 137.5 144.6 151.6 156.1 160.5 163.2 164.4 162 160.4 158.7 156 150.9 142.7 140.2 140.8 142.2 144.1 145.5 148.4 152.8 154.7 154.1 152 151.4 150.2 147.6 144.8 140.7 138.1 137.2 137.4 141.6 145 148.7 153.4 156.3 156.1 153.3 148.1 145.1 142.1 137.3 131 128.1 125.8 124.1 122.8 123.3 122.2 120.8 121.9 121.4 119.8 118 116.3 115.5 111.7 111 108.7 108 107.9 107.8 107.6 109.1 110.5 111 113.6 110.6 113.5 114.4 111.6 108.7 106.5 106.3 107.2 106 105.8 107.2 109.1 109.5 111.4 114.1 115.9 117.8 119.9 123.9 121.5 127.3 127.9 127.2 122.5 117.7 115.6 114.5 116.9 117.6 118.4 121.9 121 118.7 115.7 111.5 107.5 109.3 109.8 105.6 100.3 95.3 95.7 106.1 110.4 111.1 108.7 107.8 108.5 109 107.8 109.7 111.4 108.4 105.9 104.4 103.2 100.1 98.2
242 243.6 243.1 242.2 242.2 240.3 238.9 235.6 231.3 228.1 227.3 229.4 227.5 225.7 223.1 220.6 213.8 214.6 212.1 210 208.4 206.5 204.9 203.8 202.4 201.4 200.2 199.6 199.2 199.5 201.5 201.5 196.7 195.2 193.8 193.5 191.6 188 188 194 197.2 199.8 202.2 203.3 204.9 206 209.4 215 213.2 207.7 201.6 198.1 196.9 198.2 197 192.7 188.1 183.7 178.6 175.4 172 168.6 164.4 159.3 149.6 142 140.8 141.5 142.9 142.7 140.2 137.4 135.1 130.3 135.8 141.8 149.3 156.6 163.2 166.9 166.8 165.9 164.2 160.4 156.6 152.8 148.1 143.6 140.7 141 142.5 145.1 149 153.4 155.5 155.9 156 152.8 151 149.7 146.8 145.1 142.2 140.3 140.4 144.5 148.6 153.4 153 154.7 155.4 152.2 147.5 144 140.3 137.1 131.8 128.7 127 125 124.9 121.7 121.5 122.4 122.3 122.5 120.5 119.2 117.9 116 112.5 109.4 108.9 108.1 107.4 107.6 107.7 108.9 112.6 115.3 118.4 118.8 117.3 115.2 111.8 108.4 106.1 105.4 105.9 106.7 106.3 107.1 110.2 112.3 114.2 116.4 118.2 119 120 122.6 126.1 129.4 128.4 127.7 123.2 118.5 116.9 118.5 119.3 120.4 121.5 123.8 123.4 119.7 117 113.7 109.7 110.3 110.2 107.7 102.6 97.4 95.5 101.6 105.6 108.3 106 101.8 97.8 91.9 89.2 94.2 102.4 107.2 106.1 103.7 102.1 99.8 93.9 91.6
248 247.4 247.4 247.8 245.8 243.4 239.5 234.5 230.2 229.2 230.6 229.8 228.5 227.1 223.2 219.4 216.3 210.5 209.8 208.2 206.9 205.7 205.5 208.2 209.3 206.3 206.8 204.3 202.2 204.1 204.6 203.4 200.3 195.9 194.2 189 189.2 191.7 192.4 196.4 199.9 202 204.3 206.1 207.5 208.9 211.4 217.1 212.1 206.2 200.9 199.6 200.9 199.1 194.7 190 185.6 182.3 177.5 172.9 169.8 166.6 160.3 154.6 144.1 139.3 141.3 142 141.2 140.7 138.5 134.2 130.6 132.8 139.3 147.6 155.1 160.1 163.4 166.1 164.4 162.9 161.1 157.7 153.1 150.3 147 143 142.1 143.9 147.9 151.1 156.5 158.2 157.5 156.2 153.9 151.9 153.7 151.2 147.9 145.1 142.7 143.4 147.2 152 154.4 156.5 156.2 152.7 147.9 144 141.9 138.8 135 132.3 130.4 129.1 127.9 127 125 121.7 121.9 124.2 123.7 124.2 121.7 119.2 116.4 112.1 108.5 107.7 107.6 107.6 107.5 107.4 109.5 113.2 117 119.7 121.4 120.5 117.1 111.7 107.9 106.9 105 106.1 108 111.1 112.9 111.5 113 116.2 118.8 121.9 122.1 121.9 122.8 126 129.2 129.2 126.5 123 119.4 118.3 119.9 121.3 122.2 124.2 125 125.3 122.4 118.7 115.6 112.7 111.7 111.3 110.9 108.4 101.2 96.1 95.6 98.6 105.2 104.3 99.2 92.8 92.2 92.1 91 91.1 89.1 99.4 102.1 100.6 98.5 93.5 89.1 88.9
253.4 252.8 250.7 248.8 244.8 240.7 237.6 233.6 230.7 229.6 232.7 230.1 227.4 224.3 220.8 217.3 214.8 212.5 211.2 206.5 207.8 212.2 212.7 213.1 212.9 212.4 210.9 210.1 210 208.3 206.7 204.7 201.4 197.8 195.5 191.6 192.7 193.6 197 201.6 206.9 207.2 208.7 210.6 211.5 212.6 213.9 215.7 209.6 204.5 203.6 202.2 201.2 196.6 192 188.3 184.9 181.6 176.4 171.4 167.4 162.7 155.8 149.4 141.9 138 139.2 140.5 139.1 137.5 134.7 130.7 132.6 132.9 142.9 151.7 155.3 157.9 160.2 162.6 161.8 160.2 158.1 155.1 151.9 149.1 145.5 144 145.8 149.1 153.7 158.5 160.4 160.4 158.5 156.7 155.7 154.2 153.5 151.5 148.6 146.4 147.6 150.5 153.9 156.9 157 155.5 151.3 145.6 142.7 140.3 137.8 135 133.3 132.5 130.9 129.7 129.4 126 123.3 123.5 120.9 120 121.8 125.9 123.9 117.2 112 108.9 107.5 108.1 107.4 107.1 108.1 110.6 114.7 120.2 122.3 122.7 120.4 119.2 112.6 107.3 104.9 105.1 105.4 106.8 110.4 113.1 115 116.4 118 120.8 122.9 124.8 125.6 125.3 128.4 130.8 129.6 126.8 122.9 120.2 120.6 122.3 123.6 124.2 126.4 128 127.6 124.6 120.7 117.3 114.5 113 112.4 112.6 112.9 110.4 102.3 95.8 95.9 96.4 98.3 95.4 93.1 92.7 90.4 92.3 91 90.8 90.7 89.5 95.9 95.8 92.6 89.3 88.6 88.4
253.2 252.6 249.7 246.5 243.4 240.1 238.9 236.2 231.8 232.4 231.6 226.1 222.3 220.2 218.5 217.2 215.8 213.3 210.3 212.2 214.3 216.6 216.5 216.7 216.1 215.4 214.7 213.9 213.3 211.9 209.5 207.2 203.2 200.3 197.8 197.7 198.6 200 207.5 211.5 213.9 215.4 216.9 217.8 218.2 219.5 219 213.6 209.1 206.4 204.2 202.1 199.7 196.4 191.8 188.2 184.1 179 174.8 170 164.9 157.1 151.3 145.6 141 136.5 134.6 137.3 136 133.9 133 132.8 132.8 136.2 145.3 151.5 154 155.5 157.9 159.9 159.1 157.8 155.7 153.3 151.1 149.2 147.7 147.2 151.2 154.8 158.2 160.7 161.1 158.6 156.9 157.7 157.8 155.7 153.8 151.6 151.3 152.9 154.3 155.9 157.4 156.8 153.1 148.9 145.1 142.2 140.4 138.1 136.5 135.5 134.1 132.8 131.3 130.9 126.5 125.6 125.1 123.2 119.2 118 119.4 120.7 116.6 111.2 108.6 108.2 108 107.8 107.6 108 111.3 116.4 121.1 123 122.8 120.6 117.5 114.2 108.2 104.9 106.1 105.8 106.2 108.5 112.2 114.6 117 119.8 122.6 126.3 128 126.2 130.7 132.9 133 130.1 126.9 123.5 121.7 122.8 124.3 125.4 126.5 128.8 131 129.4 126.7 123.3 119.2 115.8 114.1 113.2 113.4 114 113.9 110.2 104.6 96.2 96 95.9 95.1 93.6 92.9 92.8 92.4 92.7 91.2 90.4 90.4 89.1 89 92.3 91 89.3 88.9 88.3
252.2 250.6 248 245.7 244.6 241.8 240.5 236.5 231.9 228.8 225.6 224.5 221.7 220.8 219 217.8 216.4 214.9 215.9 216.7 218.8 219.5 219.2 219.6 218.9 218.6 218.2 218.8 217.9 216 213.6 210.8 208.2 207.3 206.7 207.4 207.9 210.6 219.9 220.6 223.1 224 224.9 225.5 225.5 223.2 218.6 214.5 211.2 208.4 206.1 203.2 199.6 194.2 190.2 185.8 179 175.6 171.5 166.5 160.8 154.1 146.7 141.8 137 134.7 134.1 133.7 133.6 133.2 131.2 133.2 137.6 141.7 146 149 151.9 153.9 156.3 156.8 156.2 155.1 153.6 152.4 150.9 149.5 149.7 152.3 157.2 159.6 161 160.4 158.4 156.5 157.7 159.7 158.6 157.2 154.9 155.8 156.1 156.7 157.6 157 155.6 151.7 147.3 144.5 142.1 140.8 139.8 138.7 136.7 136.5 134.5 134.5 130.1 127.4 127.6 126.7 126.7 119.6 117.7 117.5 117.9 115.8 111.4 107.4 108.5 108.6 107.8 107.7 108.1 112.1 114.9 118.8 122 122.3 119.1 116.5 113.8 110.1 105.8 106.2 105 106 107.3 109.9 113.4 116.3 119.1 122.7 125 129.9 124.5 133.7 138.2 134.7 130.4 127.1 123.7 122.1 123.6 125.4 126.6 127.7 129.9 131.9 130.3 127.6 124.7 121.1 115.4 114.1 114 114.6 115.1 114.6 111.3 108.6 104.1 97.2 94.9 95.3 94.9 93.7 93.2 95.9 100.1 98.8 98 93.6 89.6 89.2 89.8 88.8 89.3 89.5 88.6 88
252.3 251.4 248.3 246.2 244.7 242.5 237.9 234.1 229.7 225 224.1 225.4 223 221.8 220 218 216.8 218.3 219.6 220.7 221.8 222 221.6 222.2 222.9 222.9 222.4 223.6 224.3 220 219.4 217.2 215.7 216.4 216.5 219.9 220.6 222.4 227.6 228.8 229.3 230 231.2 229.9 226.5 222.7 219.9 217.5 213.9 211.1 208.9 205.5 200.1 190.3 183.3 177.6 171.6 167.3 165.8 161.7 154.8 146.5 139.9 138.3 135.5 134 133.6 133.6 132.8 133 133 132.9 133.9 142.2 144.9 147.3 149.2 151.8 152.9 153.5 153.3 152.2 151.4 151.8 151 151.3 154.5 156.2 160.6 160.2 159.8 157.6 156.7 157.3 160.8 159.4 157.8 157.8 158.4 158.5 158.8 158.7 157.6 155.1 150.7 147.7 145.6 143.3 141.3 140.6 140.7 140.3 138.3 135.6 135.9 130.9 129.6 131.6 125.7 125.5 121.5 121.2 118.4 116.5 113.6 110.5 109.2 108.4 108.7 107.6 106.3 108.9 111.5 113.8 117 120.1 120.3 118.8 115.6 112.3 109.3 106.2 105.4 105.4 105.1 106.1 108.6 111.7 115.3 118.7 121.4 125.4 127.7 125.4 138.3 139.9 136.2 132 127.9 124.6 122.5 123.7 125.8 127.2 128.6 130.6 131.9 130.9 128.4 125.7 122.8 119 115.8 115.2 115.8 116.3 115.1 111.8 109.6 107.6 106.7 100.5 97.5 94.9 94.5 93.6 98.4 106.4 101.8 99.3 98.1 97.2 95.5 92.4 91.1 89.1 89 87.5 87 88.5
253.4 251 248.1 245.3 243.1 240.4 235.9 232.5 229.5 225.9 224.2 224.9 223.3 222 219.4 218.5 218.9 221.7 223.3 223.6 224.3 224.4 224.7 225.6 225.9 227 226.9 227.9 229.7 227.6 226.2 223.2 222.5 224.2 227.6 230.7 231.4 232.1 233.1 233.5 233.1 232.6 231.1 228.9 225.7 222.9 221.7 219.2 215.3 213.8 210.9 206.1 196.9 187.4 179.9 170.4 165.8 162.2 158.3 153.8 147.1 139.8 136.4 135.3 134.4 133.6 133.5 133.5 133.2 132.7 132.6 132.7 132.7 139.3 142.2 143.8 145.4 147.6 149 149.9 150.2 149.6 150.3 151.3 152.4 154 158.1 159.3 159.1 157.6 156.6 156.3 157.5 159.7 157.8 158 159 159.5 160.3 160.5 158.9 157.1 154 150.4 148.6 147.1 145.2 142.9 142.7 142.8 141.9 137.6 136.9 135.4 132.4 130.2 129.3 126.6 124.6 124 122.4 121.8 118 113.6 110.9 109.7 109.5 108.9 108.5 107.9 109 110.8 112.5 114.7 118.2 118.6 116.7 114.3 111.4 108.7 106.5 106.1 105.4 105.1 105.9 107 110.7 114.1 117.1 120.4 124 129.2 125.8 137.6 139.4 136.6 133.1 129.1 125.6 123.6 123.4 125.6 127.3 129 131.2 132.4 130.4 128.7 126.4 123.7 121.1 117.6 116.2 116.9 117.5 115.4 112.4 110.2 108.8 108.3 108.6 108.7 105.6 97.4 97.1 103.7 110.5 109.9 105 100.7 99.2 98.1 97.2 94 92.4 92 90 89.5 91.7 102.8
251.1 249.2 246.6 244.5 242.2 239.9 235.4 233.1 230.2 227.5 225.4 224.6 223.3 220.9 222.9 222.7 222.9 225.6 226.4 227.4 227.6 227.6 228.1 229.3 230 230.8 232 233.3 236.3 234.6 231.3 230.2 231.5 232.9 235.1 237.1 237.1 237.2 236.4 235.8 235 233.1 230 227.2 225.2 224.4 222.1 217.5 213.2 211 206.4 199 190.9 182.7 174.3 164.5 160 157.1 153.4 148.2 139.8 135 134.3 134 133.6 133.6 133.5 133.4 132 133.4 133.4 133 133.1 134.9 140.5 140.3 140.6 141.9 144.9 147.7 149.1 149.7 151.7 152.9 154 154.3 156.7 157.9 156.1 153.4 153.5 155.7 160.4 157.3 157.6 159.7 160.4 160.6 160.3 159.4 154.3 152.1 150.9 150.1 149 146.5 144.5 144.6 143.5 141.6 136.7 134.5 134.2 131.4 133.3 129.4 128.1 126.2 125.5 124.7 122.8 118.6 114.2 110.7 110 109.8 109.2 108.8 109 109.2 110.5 111.7 112.9 114.8 116.8 115.6 113.3 110.1 107.3 105.9 105.3 105.3 105.4 105.1 106.1 109.2 113.3 116.4 119 121.4 126.3 125.8 134.3 135.5 135 132.4 129 126.1 125 125.1 125.8 127.7 129.8 132.1 133 130.4 128 126.1 124 121.8 119.3 117.3 117.8 118.2 115.6 112.5 110.9 110.1 109.2 109.2 109.3 108.8 105.7 102.1 110 111.2 112.1 110.7 105 103.9 102.4 100.1 98.7 100.9 97 95 99.8 104.9 106.8 111.3
247.2 246.3 244.5 243.6 241.5 239.1 236.1 232.5 230.6 228.8 225.2 222.8 221.7 222.1 225.7 227.7 227.8 229.2 229.6 230.1 230.7 230.4 231.1 233.1 234.8 235.2 237.1 241.1 240.3 237.1 235.4 236.8 239.5 240.1 240.4 240.9 240.8 239.6 238.1 236.9 234.3 230.6 227.2 224.7 223.6 222 217.2 214.3 210.4 206.2 200.2 193 185.3 175 164.7 157.1 153.2 150.3 147.6 144.3 137.7 134.7 134.2 133.9 133.6 133.4 133.5 133.6 133.3 132.5 132.5 136 137.8 136.8 138.7 138.3 138.4 139.8 142.8 146.9 150.2 151.1 152.1 153.3 153.7 152.7 151.1 150.9 150.5 149.3 149.3 152.4 154.1 157.1 159.5 160.9 161.3 160.2 155.9 152.6 151.2 151.2 150.6 149.6 146.9 146.1 146.7 145.4 140.9 135.6 131.9 131.5 129.7 130.9 129.9 127.4 127.6 127.6 127.4 125 120.8 114.4 111.3 110.5 110 109.5 109.2 109.4 109.4 110.3 111.3 111.8 112.9 114.2 114.4 113.5 111 107.6 105.4 105.8 105.3 105.7 105.2 105.2 106.8 110.9 114.8 117.3 119.5 121.7 126.1 128.8 130.5 130.7 130.3 128.9 127.8 126.8 127.4 127.5 127.8 129.8 131.6 132.7 130.3 127.8 125.8 124 122 120 118.5 118.3 119 116 113.1 111.5 110.7 110.6 110 109.9 109.5 102.7 105.2 109.1 111.4 112.7 111.4 108.8 110.5 108.6 105.3 102.6 104.8 105.5 106.1 107.3 108.2 109.9 112.7 115.2
243.8 242.2 242.6 241.8 239.9 236.4 232.5 229.8 226.3 225.6 225.9 227.3 229.1 229.5 230.7 230.3 231.4 232.9 233.9 234.3 234.2 233.6 235.3 237.2 239.2 244.9 244.8 244.1 241 238.8 238.5 240.5 242.6 243.1 242.7 242.5 239.9 237.2 234.3 231.2 228.8 226.2 223.6 222.2 219.7 216.5 213.9 211 206 200.5 193 185.2 174.7 163.4 155.1 148.8 147.6 144.1 141.6 139.7 134.9 134.2 134.3 134 133.6 133.6 132.1 133.1 133.3 133.5 137.1 141.1 138 137.4 139.3 138.3 138.7 139.9 142.9 144.8 150.6 152.5 152.1 152.2 151.9 150.7 148.7 148.6 148.4 147.9 147.9 149.4 153.6 158.7 159.5 158.7 157.8 155.6 153.2 151.8 151.2 149.7 147.5 145.1 144.1 145.8 144.3 140.8 133.7 130.7 130.6 128.9 128.3 128.7 126.5 127 127.7 128.3 126 120.1 114.6 111.7 110.8 109.8 109.8 109.9 110.8 111.5 111.7 111.7 112.5 112.8 112.8 113.2 113.8 112.7 108.5 105.7 106.1 106.2 105.8 105.4 105.3 105.3 106.5 112.9 116.4 117.5 119 121.6 123.3 124.9 126.4 126.9 128.7 128.8 129.6 130.2 129.3 127.9 129 131.8 132 130.3 127.8 125.7 123.9 121.6 120.4 120.2 119.3 119.6 116.2 113.8 112.6 112 111.4 111.3 110.8 110.3 104.8 109 109.9 110.8 112.7 112.2 111.3 112.2 112.7 110.1 106.1 105.8 108.1 108.9 109.1 109.6 111.3 114.4 117.6 119
241.3 239.1 239.7 238.7 235.1 232.5 235.3 233.6 232.8 234.2 234.7 234.7 235.3 235.2 235.2 235.3 236.3 236.3 236.5 238.2 238.2 238.8 242 244 245 244.9 244.5 243.3 242.2 241 240.5 241.9 242.4 239 239.7 238.6 235.8 234.5 231.4 227.2 223 220.8 219.4 218.6 215.6 212.7 209.1 204.9 198.3 191.8 184.6 175 162.5 152.5 146.8 142.4 141.4 138.3 134.4 134 133.9 134.2 134.2 134.1 133.6 133.6 133.5 133.7 134.3 139.3 140.5 141.3 141.2 142.7 143.4 144.7 146.7 149.1 150.7 150.1 149.9 150.9 150 149.6 149.1 149.1 149.4 150.3 148.4 146.6 149.6 151.4 154.3 157.8 158.6 158.2 157.4 155.2 152.3 151 148.8 145.5 142.4 141.2 140.2 140.7 138 131.7 129.2 129.4 130.4 129 128.9 126.2 124.8 126.8 127.2 125.3 119.6 113.5 111.7 110.8 110.2 110.7 111 112.6 115.1 115 114.9 114.8 114.4 113.4 113.5 114.4 114.8 110.8 106.4 105.7 105.6 105.7 105.6 105.3 105.2 105.7 106.3 110.6 114.2 114.2 116.1 125.4 119.6 121.8 124.4 127.9 131.2 134.5 135.3 132.7 129.1 127.7 130.2 131 129.5 127.5 125.7 123.5 121.2 119.9 119.8 119.9 119.8 117.3 114.7 113.9 113.5 113.1 112.5 112 110.3 106 109.2 111.2 111.9 112.7 113.3 112.7 113.5 114.7 113.4 109.9 109.4 109.9 110.7 111.6 112.2 112.9 115.4 119.5 121.6 121.8
238.7 237.5 238 233.9 234.2 237 238.9 240.2 241 240.8 243.3 242 241.1 238.4 237.4 238.1 240.1 241.4 242 242.9 243.1 243.9 246.5 248 248.4 247.6 246.2 244.5 243.3 240.6 240.4 240.8 237.3 235.2 235.6 231.7 231.5 228.1 224.4 222.9 218.3 215.3 214.1 214 211.2 206.7 202.1 196.4 191.4 183.5 173.3 161.6 152 144.3 139.8 136.2 134.8 134.8 134.6 134.4 134.5 134.2 132.9 134.2 133.5 133.4 133.7 134.2 138.2 140.1 141.8 145.1 146.7 148.2 150.3 152.1 152.8 152.7 151.2 150.2 150.3 148.3 147.8 148.3 148.9 149.9 149.9 147.3 144.1 146 150.1 154 158.4 160.7 161.3 159.4 156.5 152 149.3 146.9 144 141 138.8 135.9 135.2 133.5 130.6 129.1 130.7 131.5 130.7 126.8 124.4 123.1 122.3 124.7 124.3 117.9 113.7 111.8 111 111.1 111.1 112.6 116 118.8 122.1 121 119.7 118.4 116 115.7 116.6 117.1 114.2 109.4 106.2 105.6 105.6 106.4 105.5 105.3 105.7 106.2 107.2 109.7 112 112.4 117.7 116.5 117.5 122.7 126.6 131.8 136.5 138.4 134.5 131.7 129.5 128.6 128.9 127.7 126 124.6 123.6 121.2 118.8 118.4 119.9 119.5 117.6 116.4 115.6 115.1 114.5 114.1 113.4 111.4 107.5 111.7 112.6 114 114.9 114.7 114.2 114.3 115.7 115.6 112.8 111.9 112.5 112.9 113.6 114.5 116 117.7 120.4 123.4 123.9 123.1
232.3 236.8 234.7 236.9 239.5 242.6 244.3 245.9 246.7 246 248.6 245 242.6 239.9 239.4 241.9 242.9 245.2 245.9 248.6 247.5 249.2 251.1 250.4 250.5 248.8 246.3 244 240.7 237.5 236.8 234.9 233.2 232.6 231 228.9 227.7 224 222.4 220.7 220.5 219.2 216.2 211.2 202.5 199.7 195.1 190.4 181.6 171.7 160.2 150.1 144 138.7 134.8 135.1 134.5 134.7 133 132.8 135.3 135 134.4 133.7 133.5 133.9 134.3 134.9 137.4 141.3 146.5 150.3 150.5 151.8 156.7 154.4 150.9 148 148.9 149.6 145.2 143.9 146.1 148.7 149.6 147.8 143.5 143.3 145.2 149.3 154.6 159.5 163.4 161.7 160.3 155.4 150.9 146.7 144.5 142.2 139.3 136 133.3 131.3 131 130.3 129.3 130.8 133.6 129.2 126.3 124.9 123.5 123.5 117.8 119.8 116.1 113.1 112.5 111.7 112.2 112.3 114.4 119.5 123.2 125.6 127.7 128.1 126.4 123.3 121.2 120.7 121.4 118.4 113.7 109.1 106.5 105.8 106.4 106.4 105.7 105.5 105.7 106.6 109 111.9 114.4 116.4 125.5 118.6 122.7 130 132.9 137 139.2 136.5 132.4 130.6 130.2 128 125.7 123.8 122.9 121.6 120.8 116.6 116.3 118.3 119.1 118.6 118.3 117.6 117 116.3 115.9 114.9 112.2 112.7 114.2 115.1 115.9 116.5 116.6 115.7 116.5 117.7 116.6 116.1 115.5 114.8 115.7 116.4 117.1 117.8 119.2 121.4 124.7 125.8 125.1 124.5
233.9 233.8 237.1 240.5 243.1 246.1 247.6 248.3 249.5 249.5 246.7 242.8 241.9 242.3 241.3 245.5 246.5 248.7 251.6 254.1 254.4 254.6 252.5 252.1 250.4 247.1 243.6 240.8 238 234.7 232.9 231.3 230.3 229.9 229 227.1 225.9 224.7 223.3 223.1 221.8 218.6 213.3 207.1 200.7 186.9 182.9 174.6 167 157.5 148.8 141.8 137 135.2 135.2 133.3 136.6 138.9 139 138.5 137.8 137.3 136.7 135.8 135.2 135.9 137 137.6 139.2 144.7 152.1 151.6 152.4 155 157.7 151.5 146.1 142.3 142.9 141.3 141.4 142.3 146.9 148.8 147.1 141.5 143.2 147 152.7 159.2 162.6 163.3 163.1 158.6 154.8 150.4 146 144.4 142.1 139.1 135.5 132.9 130.9 130.3 129.5 129.5 130.2 133.2 129.4 125.3 124.4 123.9 124.2 124.1 119.8 112.9 111.8 113.7 113.6 112.9 114 117.8 123.9 127.5 127.7 128.7 131.4 131.2 130.1 126.9 125.8 125 123 118.9 113.7 108.8 107.5 106.3 106 106.2 106 105.8 106.1 107.2 110.7 114.1 116.5 119.5 123.2 126.6 134.4 139 141.8 140.8 138.2 134.7 131.8 130.7 129 126.1 123 121 120.4 119.5 114.3 115.3 117 117.7 119.4 119.9 119.4 118.8 118.4 116.8 116.8 115.7 114.6 115.8 117.1 118.1 117.9 118.4 117.8 118.3 119.7 119.7 118.8 119.4 119.7 118.8 120.4 120.1 120.7 121.3 123.1 126.2 127.2 126.8 126.2 126.1
233.9 233.4 239.3 240.6 242.9 247.5 248.8 249.2 247.8 244.3 240.9 237.8 237.3 240.6 241.1 243.6 245 249.3 253.9 255.5 255 255 252.7 249.9 246.5 243.2 239.2 235.9 233.2 230.4 230 228.1 227.2 226.6 226 225.8 225 223.7 220.7 218.7 217.2 212.1 205.4 198.5 188 177.6 172.7 166.9 156.2 147.4 141 135.6 135.4 135.3 137 140.8 143.6 144.7 145.4 143 141.5 140.2 138.3 138.4 139.7 139.7 140.9 143.5 144.6 149.9 152.3 154.6 155.4 154.3 148.4 144.2 141.3 141.3 141.9 141.3 141.7 141.4 145.7 141.9 141.3 144.3 149.1 155.5 164.2 167.3 164.5 160.6 157.9 154.8 151.5 148 145.1 143.3 140.2 136.2 133.2 131.5 130.7 130.1 129.6 130 130.6 128.9 125.3 124.4 125 125.4 125.3 122.8 117.9 113.8 113.3 116.3 118.4 118.8 120.9 126 132.4 133.2 133.2 134.9 134.5 133.9 132.7 130.3 129 126.5 123.9 120.2 116.1 110.7 107.5 106.7 106.3 106.4 106.3 106.2 107 108.4 112.7 116.1 119.6 128 127 131.1 136.8 141.6 146.1 141.7 138.1 136.4 134.6 130.5 125.7 121.9 119.3 118.6 117.3 113.6 111.2 114.7 117.8 120.2 121 121.2 120.6 120.1 119.8 118.6 114.5 117.1 118.1 119 120.2 121.2 120.4 119.7 120 121.5 122.2 122.4 122.6 123 122.2 124.1 124.7 124.9 124.8 125.8 129.2 130.4 128.8 127.6 127.8 127.4
237.2 236.3 239 238.5 238.8 242.1 245.6 245 241.9 238.5 235.3 233.2 234 235.3 237.1 240.1 242.5 248 254.3 254.4 254.8 251.9 248.5 244.6 241 237.7 234.7 231.8 228.9 226.5 226.4 224.2 222 220.7 219.4 220.4 222 219.4 215.1 212.9 208.4 202.3 190.8 182.8 179 174.1 164.3 153.2 146.5 140.7 136.8 135.1 135.8 137.2 145.8 149.3 151.3 152 151.5 149 146.6 144.8 142.9 144.3 145.5 143.8 142.9 147.6 148.9 155 156.2 151.1 149 145.9 143.6 141.3 142 141.3 142 141.9 141.9 141.3 141.3 141.4 145.1 152.2 159.7 165.5 167.3 164.2 160.8 157.8 155.5 152.2 149 147.1 144.5 139.9 136.6 132.9 131.2 130.7 130.2 130.4 131.4 131 128.5 126.2 126.5 126.7 127.4 127.7 126.2 122.4 117 114.9 115.4 119.1 122.6 126.3 130 135.1 138 138.7 139.3 138.4 137.6 136.8 135 132.7 130.1 127.2 124.5 121.3 116.8 111.4 108.8 108.6 108.1 106.3 106.7 107 110.1 113.2 114.4 119 122.6 128.1 130.9 134.1 138.5 143.9 145.7 142.9 141.5 140 136 129.2 123.2 119.9 117.2 114.4 113.6 112.3 113.2 114 119 122.2 123 122.7 122 121.1 119 116.2 118.7 120.6 121.1 122.2 123.1 122.9 121.5 122.1 123.3 124.8 125.6 126.1 125.8 125.3 125.9 127.3 128 128.6 129.8 132.3 134.4 132.1 130.5 129.6 129.5 127.7
240.5 235.3 237.1 236.1 235.3 239.5 238.8 237.2 235 232.9 230.3 228.9 231.5 231.3 232.8 237.5 241.9 247.8 252.8 252.4 249 245.8 242.8 238.4 237.3 233.8 230.5 227.3 225.5 225.7 226.5 224.1 218.9 218.5 216 216.3 215.5 212.4 209.6 204.7 199.3 187.8 183.7 180.4 174.7 167.2 157.3 145.8 140.9 135.6 135.5 136 138.5 146.3 154.7 156.6 158.3 159.4 158 154.6 151.4 149.6 149 150 148.3 144.1 147.5 152.1 156.4 153.8 148.9 145.1 143.1 141.3 141.3 141.3 141.3 141.3 141.3 141 140.5 141.3 141.5 145.2 152.2 160.8 163.9 166.7 163.9 160.8 157.4 154.8 152.6 149.3 145.6 143.9 141 135.8 132.8 131.4 130.9 130.9 131.6 132.8 132.5 130.4 127.5 127.1 127.9 129.7 132 130.9 127 123.3 118.5 115 118.3 122.8 127.3 130.2 133.8 139 142.9 143.7 143.6 141.3 140.2 139.2 136.8 134.4 131.3 128.1 124.7 120 116.1 111.9 111 110.9 109.2 107.4 107.6 109.1 113.5 115.4 117.9 121.5 127.2 132.8 135.5 138.7 142.5 145.5 145.8 145.5 143 138.3 131.5 125.4 121.6 118.8 115.9 113.9 113 114.5 118.6 120.4 122.3 124.9 125.1 124.4 123.2 121.5 118.6 121 121.9 122.7 123.9 125.7 125.5 123.9 124.4 125.9 126.1 127.7 128.5 128.9 128.1 129.2 129.5 130.2 131.4 132.7 135.3 136.9 134.9 133.1 132.8 131.8 129.7 127.1
240.1 235.5 232.8 231.7 232.5 230.9 231.3 230.8 230.2 228.5 226.4 224.4 226.5 226.2 230.6 236.5 241.1 244.7 245.7 244.8 242.6 240.5 237.3 234.7 230.8 228.6 226.6 228.1 230 230.4 227.8 221.3 216.5 216.6 215.5 211.7 209 206.9 205 195.3 185.5 182.5 179.8 175.1 168.7 159.9 148 137.9 136.1 136.1 135.8 141.9 146.7 156.4 161.1 163.1 164.9 165.2 162.2 156.3 154.4 152.7 151 151.5 146.2 148.8 156.3 155.1 152.4 148.3 145.9 143.5 141.8 141.3 141.3 141.3 141.3 141.3 141.7 141.3 141.3 142.2 146 151 157 161.2 163.7 162.3 158.8 155.9 153.3 151.2 147.6 145 142.5 140.6 136.8 132.7 131.8 131.5 131.6 134.1 135 133.9 134.6 134.3 134 130.9 131.9 136 135.9 131.6 128.6 124.5 119.8 116.8 123.1 127.4 132.2 133.8 137.6 143 147.5 148.5 146.7 144.2 143.2 141.9 139.1 135.9 133.1 129.2 123.5 118.9 116.4 114.9 114 110.9 108.6 107.5 111.8 113.8 115.4 114.4 120.9 126.7 132 137.8 139.9 144.2 146.9 148.4 148.4 144.6 140.1 134.6 127.5 123.4 120.2 117.6 115.5 114.6 115.7 119.2 121.5 124.3 127.4 128.8 127.7 126.2 122.5 119.5 122.7 123.8 124.8 125.6 127.4 128.5 126.9 127.6 128 130.2 130.7 131.3 131.9 132.1 132.8 133.8 134.8 134.7 136.3 138.4 141.2 138.3 136.6 135.2 134.1 132.1 128.7 125
235.5 232 228.4 227.6 226.3 226 226.9 225.9 225.2 224.1 222.5 221.5 220.8 222.3 228 234.3 238.4 239.1 240.1 241.6 241 236.9 232.7 229.8 227.7 229.9 234.1 235.3 233.8 231.1 227.6 221.9 214.6 211 210.2 204.8 199.7 196.5 190.7 182.9 180.4 178 173.6 167.8 160.1 149.7 140.9 136.8 136.3 136.3 136.2 145.8 150.5 157.1 165.1 168.2 168.9 167 162.2 157.3 153.7 151.7 148.7 147.4 147.8 155.1 154.9 149.9 148.1 146.1 143.4 141.3 141.3 141.3 141.3 142.1 142 141.3 141.6 141.3 141.7 145.4 149.5 153.9 156.8 158.3 158.1 157.3 152.6 149.9 148.6 148 144.8 142.1 139.6 137.3 133.7 132.1 132.2 133.6 134.7 135.4 135.2 136.6 137.8 138.1 138.6 137.9 140.6 141.1 137.3 133.8 130.9 124.8 117 120.2 126.5 131.7 135.9 139.1 144.1 148.7 151.6 151.5 149.1 147.2 145.4 143.4 140.7 138.2 134.1 129.2 124.7 121.1 118.8 116.5 113.7 109.1 108.5 113.5 120.7 117.3 114 117.2 123.9 127.9 132.7 137.6 142.6 147.6 151.1 151.1 147 142.4 137.2 130.3 125.7 122.4 119.1 117.3 116.2 116.4 119.3 122.9 126.1 129.6 132 130.6 128.9 125.2 120.9 123.4 125.5 126.6 127.7 129.3 131.3 129.6 129.9 131.8 133.7 134.7 134.9 135 135.8 137.3 137.9 138 139.6 141 141.9 145.4 143 140.7 138.8 137.2 134.5 130.5 126.4 123.2
231 226.5 222.9 223.3 222 220.8 220.8 220.1 219.8 217.6 216.6 217.6 214.6 217.9 224.7 230.8 237 242.8 241.7 238.4 233.9 228.4 227.8 228.6 232.7 236.1 236 234.5 231.8 228.8 225.3 220.1 211.8 200.9 198.3 193.2 188.8 184.5 179.3 176.7 177.9 176 166.4 157.6 151.7 144.5 137.5 136.7 136.6 136.5 136.8 151.1 156.9 161.2 167 167.2 167 164.9 160.2 154.2 152.2 150.1 146 150.4 153.7 152 149.2 147.1 145 143.3 141.3 142.4 143.6 143.7 143.8 143.3 142.4 142.1 142.2 143.5 146.7 150.1 154.1 155.9 157 155.2 153.2 149.8 148.1 145.3 143.4 142.8 140.3 138.8 137.2 135.4 133.4 133 133.4 134.9 136.1 137.6 138.7 140.4 141.3 142 142.3 144.5 145.9 143.4 140.1 136.7 130 122.4 121.9 125.4 129.3 135.2 139.6 145.6 149.6 152.4 155.4 154.9 152.7 150.9 148.5 145.7 143.3 139.6 135.2 130.3 127.1 124.2 119.4 114.5 110.5 109.7 114.9 120.6 119.4 112.9 112.5 116 123 131.2 136.6 142.2 146.9 151.8 154.8 150.4 144.3 138.9 133.1 128.5 124.6 121.1 118.8 118 117.6 120.1 124.4 128.2 131.9 133.9 132.7 130.4 126.8 122.6 126.2 127.1 128.2 129.6 131.1 132.7 132.7 134 135.5 137.3 138.1 139.3 139.5 140.1 140.7 141.4 142.9 144.2 145 147.9 149.4 147.5 145.1 142.9 140.3 137.2 132.8 128.7 125.4 122.9
222.8 218.4 218.2 218.9 218.2 216.9 214.6 214.3 211.8 209.2 209.7 210.7 208.9 210.4 220.5 231.3 236.6 236 233.6 228.4 222.2 223.9 225.7 228.6 233.2 233.3 232.6 230.2 227 225.2 219.5 212 202.9 193.4 184.7 181.8 179.6 175.6 173.3 171.7 177.5 169.2 158.9 151.7 145.7 141 136.8 136.8 136.6 136.7 141.2 154.4 160.1 162.5 163.3 162.5 161.3 159.3 154.4 150.6 149.3 144.8 146.7 150.1 149.1 147.4 145.1 143.3 141.3 142.1 144.5 147.1 146.7 145.7 145.1 143.4 142.8 143.1 146.1 148.5 152 155.9 157.8 157.7 157.1 152.8 150.5 148.3 145.6 142.9 140.2 137.9 136.2 135.1 134.8 133.7 134.5 134.6 134.8 137 139 140.4 141.9 143.1 144.2 145.4 146.6 148.1 149.4 145.7 140.9 133 126.4 126.4 125 128.2 131.6 135 139.2 145.9 149.6 153 157 159.8 158.3 155.3 154.2 149.5 143.2 137.6 134.2 131.1 127.4 123.9 117.7 111.6 109.3 115.4 118.9 116.3 112.3 111.6 115.4 123.5 129 136.4 140.9 146.4 152.1 155.5 152.2 146.8 141.2 136.1 131.7 127.5 123.5 121 119.5 119.1 121 125.2 129.7 133.5 135.2 133.8 131.6 128.4 125 128.5 129 129.8 131.4 133.1 134.5 135.2 136.1 138 140.2 141.5 142.1 143.1 144.5 146 146.5 146.6 149.6 150 150.1 152.3 151.8 149.4 147 144.6 141.1 135.7 130.7 127.3 125.3 123.1
217.9 215.5 214.8 211.4 214.2 211.2 209 208 205.8 203.1 201.1 202.2 203.8 203 210.7 221.7 224.8 224 219.2 214.8 214.4 216.8 220.2 223.8 226.3 227 225.5 223 222.5 216.1 207.2 197.5 188.1 181.7 179.4 177.1 174.7 170 168.7 168.2 166.8 158.8 151.4 146.4 142.4 140.3 137.3 136.8 137 136.9 148.1 155.4 155.5 156.1 159.3 158.2 156.9 152.8 149 146.7 144.8 142.8 145.8 145.2 144.8 143.2 140.8 140.9 143.9 146.6 148 147.8 146.6 145.6 144.4 143.5 144 145.9 151.1 153.2 155.9 157.6 158.2 156.2 153.8 152.4 150.8 148.5 145.9 143.2 140.7 138.2 136.7 135.1 134 134.5 136.5 138 139.2 140.5 141.8 143.4 144.8 147.3 148 148.7 150.1 152.6 151.5 145.2 136 129.5 129.9 130.3 124.8 129.6 132.4 135.6 141.2 146.1 148.7 151.6 155.6 157.5 160 157.6 151.6 145.5 140.6 136.6 133 130.4 127.1 122.8 117.7 112.4 110.4 111.6 110.7 111.3 111.4 113.3 121.8 130 136.4 140.4 145 150.4 154.9 153.8 149.3 143.7 138.8 135 131 126.6 123.6 122.1 120.9 122.6 126.6 131.2 135.5 136 134.6 132.2 129.3 127.5 129.9 131 131.9 133.1 135 136.7 137.3 137.3 139.5 141.5 143.5 144.5 144.7 145.9 148 150 152 154 154.8 155.2 155.8 156 153.5 151.3 148.9 144.4 139 133.6 130 127.5 125 121.8
220 216.6 215.4 214.1 210.6 206.9 203.7 202.4 197.6 194.7 196.4 197 199.1 197.6 195.9 204.1 207 207.2 206.6 205.1 205.6 207.3 209.7 211.6 212.5 213.2 213.6 212.7 210.4 202 190.4 183.3 179.1 176.1 174.1 172.8 171.4 167.9 165.8 161.5 156.4 148.4 145.3 145.1 145.3 142.3 137.6 137 137.3 135.7 145 151.2 152.1 152.9 154.2 154.4 150.3 146.7 145.8 144 141.5 140.4 140.1 141 139.7 139.5 142.7 146.1 148.5 149.5 148.8 148.1 147.5 147.5 145.6 144.9 148.2 150.2 153 156.8 158.2 157.9 156.6 155.8 154.7 152.8 151 148.9 146.4 143.6 141 138.7 137 135.1 134 135.6 138.8 140.2 142.1 143.6 145.1 146.6 149.6 151.6 152.4 154 154.2 151 147 140.7 132.6 133 131.6 125.6 128.7 132.2 133.9 136.4 141.1 144.9 147.2 149.3 151 152.2 152.5 150.4 146.2 141.3 138.4 135.9 132.4 129 126.4 123 115.7 113 112.4 113.4 112.6 111.7 113.1 120.2 126.5 131.3 139.4 143.8 148.4 152.6 154.1 150.2 145.5 141.8 138.5 134.3 130.1 126.7 124.9 123.8 124.2 128 132.5 135.8 135.8 134.3 132.4 129.6 128.5 131.2 133 134 135.1 136.7 138.9 139.2 139.2 140.1 142.2 144.3 145.3 146.4 147.9 149.6 151.9 154.6 157.7 159.8 159.9 161.2 160.8 158.2 155.4 151.9 147.4 143 137.5 133 130 127.4 124.4 120
220.8 219.9 219.8 219.1 211.6 203.3 198.2 193.8 190.7 190.4 191.2 192.5 193.8 191.7 188.4 189 191.8 192.9 193.5 193 192.1 195.1 196.6 195.9 195.1 195.3 193.4 191.2 185.3 182.3 180.1 177.2 174.6 171.7 167.2 168.6 167.5 164 159.8 154.6 149.1 147.2 148.8 148.2 147.1 143.1 138.9 137.3 137.3 137.3 137.2 145.8 147.3 148.1 147.3 149.9 146.2 143.4 142.4 141.6 139.9 138.7 140 140.4 141.8 143.9 146.8 148.4 150 150 150 150.2 148.7 147.1 148.4 150.7 154.4 156.9 157.8 158.2 158.2 158 157.2 156.9 155.5 153.5 150.9 148.4 146.1 143.6 140.7 138 135.9 134.9 134.7 136 140.1 142 144.7 146.9 149 151.9 154.7 156 158 156.6 151 147.7 144.6 141.1 135.8 132.5 127.2 126.1 129.8 133.3 135 136.6 140.3 143.2 144.2 145.6 147.3 148.4 147.9 145.5 141.8 138.1 135.5 133.9 131.5 128.1 124.7 119.1 114.6 115.1 114.9 113.7 112.3 113.3 118.9 123 129.3 135.4 143.2 147.7 151.7 155.3 152.6 148.9 145.6 141.8 138.3 134.2 130.6 129 127.1 126.8 129.3 133.7 135 134.9 133 131.7 129.4 128.2 132.1 134.7 136.4 137.2 138.3 140.2 141.3 141.4 142.8 144.7 144.4 146.3 147.3 148.5 150.8 153.8 158.1 160.9 162.6 164.4 165.9 165 162.9 159.1 154.5 150 145.7 141.5 137.1 132.5 129.3 125.9 122.2 119.3
224.6 222 215.5 208.8 202.7 195.6 193.2 190.6 189 190 187.6 187.8 188.7 187.3 184.1 182.3 181.8 181.8 181 180 178.3 177.4 174.5 174.3 174.4 175.9 174.9 172.2 170.7 173.7 173.9 171.2 169.2 160 162.3 165.1 163.1 158.4 154.1 150.5 151.4 154.7 154.5 152 147.3 143.6 140.5 137.9 137.6 136.1 137.3 141.5 142.3 140.9 140.4 141.3 141.2 139.9 138.7 138.4 139.6 139.9 141.4 143.1 144.8 147.6 150.1 151.5 151.3 151 151 148.6 148.3 150.9 155.4 158.4 161.3 162.9 162.7 161.2 159.7 159.8 159.9 158.6 155.9 152.4 149.1 147 144.9 142.3 139.3 136.7 135.4 135.6 136.8 137.6 140.3 144.8 147.3 149 151.2 154.5 157.9 160.9 157.3 152.2 148.7 145.6 143.2 139.9 132.9 127.7 126.8 129.9 132.5 134.9 136 137.3 138.6 141.1 141.9 143 144.3 144.5 143.8 142 138.3 135 133.1 131.4 129.7 127.1 121.6 115.9 115.3 115.7 112.5 111.8 112.2 113.8 120.1 124.4 133 138.3 145.4 152.2 155.5 153.2 152.3 149.6 146.2 142.3 138.4 135.3 132.8 131 129.5 130.5 133.6 133.8 131.8 130.7 130.3 128.6 131.4 133.2 135.8 138 139.9 140.5 141.7 143.3 143.9 145.1 146.2 146.6 147.2 148.6 150.1 152.5 156.1 161.3 164.3 165.8 168 169 169.1 166.6 161.8 157.2 152.9 148.6 144.3 140.4 136.6 132.5 128.7 123.6 123.1 124.5
219.2 211.2 205.1 199.5 194.8 195.1 192.8 196.4 197.2 196.4 192 186.5 180.8 181.9 179.1 176.7 175.4 173.7 172.5 170.1 168.9 167 165.3 165.3 164.1 163 162.7 159.8 158.7 161.4 163 161.2 158.2 159.1 163.6 164.2 157.5 152.7 152.4 154.9 158.7 160 156 151.6 146.5 143 139.9 137.4 137.7 137.6 137.6 136.6 138.4 137.7 137.4 137.4 137.5 137.6 138.1 139.3 140.4 141.3 141.9 144.1 147.3 150.8 152.8 152.7 152.6 151.7 150.3 150.9 153 158.4 162 164.9 165.6 165 162.6 161.8 161.6 160.9 159.8 156.5 153 150 147.8 145.8 142.9 140.1 137.7 136.2 137 137.3 140.7 143.1 145.5 149 150.1 150.8 152.8 156.2 162.3 159.8 154.1 150.1 145.9 142.1 138.6 132.9 127.7 127.5 129 133.2 135.8 136.9 137.6 138.3 136.8 138.1 138.5 140.2 140.8 141 140.1 138.2 135.3 132.9 131.1 129.3 127.6 124.5 114.7 114.4 115.1 113.1 112.1 112.4 113.3 114.9 120.3 131.3 137.8 142.3 146.9 153.8 155.7 155.2 153.3 150.1 146.5 142.5 139.4 137.2 134.6 132.5 130.8 131.3 132.2 130.9 128.3 128.6 130.3 131.8 135.3 136.8 138.9 141 142.8 144.4 145.1 145.5 146.6 148.1 148.6 148.4 149.4 151.2 154.5 159.1 164.4 166.7 168.6 170.1 172.9 172 169.4 164.1 159.8 155.5 151.2 147.5 143 139.5 135.9 132.2 127.6 125.6 128.2 128
210.7 204.8 200.7 201 200 198.9 193.1 198 198.4 194.5 190.9 184.6 181 176.5 173.4 171.2 169.6 167.5 166 164.8 164.7 163.5 163.2 159 158 157.3 156.8 154.6 155.5 154.2 155.2 155 155.9 161.1 164.5 159 152.3 151.8 155.8 159.7 159.9 156.9 153.6 148.5 144.2 139.7 137.6 138 138.4 138.2 137.9 137.4 137.3 137.3 137.7 137.8 137.7 137.7 139.5 141.1 143 142.9 144.9 145.5 149.8 151.4 151.7 151.9 152.4 151.7 153.2 156.7 161 164.5 167.2 167.2 165.4 163 161.5 160.3 159.3 157.5 155.7 153.2 150.8 148.7 146.5 144.4 140.3 138 139.7 138.6 138.4 138.8 143.1 145.9 148.2 150.3 152.7 154.3 155.6 157.9 160.2 157.2 152.8 148.7 144.1 139.5 136.8 132.3 128.8 131.3 135.4 136.8 137.1 138.3 139.3 138.3 134 134.4 135.6 137.6 137.7 137.5 136.9 135.1 132.8 130.5 128.5 127.2 125.1 122.7 117.1 113.6 112.9 113.1 113.8 115 116.1 117.4 123.1 136.3 141.4 146 151.7 155.3 157.6 156.9 153.8 150.4 147 144 141.6 138.5 135.4 131.9 130.3 130.3 129.7 129.1 130 132 133.3 136 138.3 140.2 142.3 144.5 146 146.9 146.8 148.3 149.9 150.5 149.9 151 152.9 157.3 163 166.2 169.4 171.1 172.5 175.6 174.9 171.2 166.7 162.2 157.4 153.6 150 146.1 141.6 138.2 135.4 132.3 125.4 131.2 131 130.8
207.2 209 210.7 207.2 203.8 195.1 195.5 196.8 194.1 192 190.2 185 183.4 181.3 180.7 178.6 173.9 170.7 167.8 166.5 164 162.4 162 160.9 160.2 160 159.7 158.5 156.9 156.4 156.1 155.2 155.2 160.2 158.3 155.7 149.8 154.7 158.3 158.4 156.3 153.2 149.3 143 139.1 137.6 138.3 139.7 140.6 141 140.8 138.5 138.3 137.8 138.1 138.3 138 138.5 140.5 143.1 144.7 144.8 147.3 149.1 150 150.1 150.8 152.1 153.2 155.4 161.1 165.2 166 166.5 166.3 165.1 163.6 162.6 162 160.7 158.7 156.2 154.4 151.6 148.1 146.1 143.9 140.5 139.3 140.1 140.2 139.3 139.5 140.3 143.4 146.5 148.8 151.4 154.1 157.5 157.8 157.2 155.8 153.6 150.6 146.7 139.7 135.8 133.3 130.4 131.6 137.6 139.9 139.8 139.8 140.6 139 135.8 130.9 130.8 132.4 134.3 134.7 134.5 133.5 131.9 130.3 127.7 125.8 125 123.5 121.3 116.3 113.5 113.6 114.7 116.4 118.4 119.7 120.4 132.4 140.6 144.7 149.4 154.7 158.7 160.2 157.9 154.5 151.4 148.5 145.8 142.3 138 133 130.5 129.5 129.4 129.2 130.3 132.4 135.1 136.8 138.8 141 143.3 145.6 147.3 147.8 147.9 148.7 151.1 151.7 152.1 152.8 155.3 159.2 165.4 168.8 171.6 173.3 175.3 177 176.5 172.9 169.1 165 160.3 155.3 151.5 148.2 145 141.4 138.2 135.6 126.9 131.9 133.5 133.3 133.5
213.2 215.9 212.5 202.3 194.2 198.5 202.2 201.8 198.6 196 195 193.6 197 191.1 189.3 186.2 183 181.4 177.4 174.6 171.7 170.5 170.7 169.4 166.1 165 163.6 161.7 159.6 159.7 159.4 159.6 153 152.7 154.2 145.3 145.4 148.7 149.7 150.1 148.1 144.2 140.4 138.6 138.4 140.7 141.5 143.2 145.6 147.5 147.1 143.8 142.2 140.7 139.1 138.6 138.5 139.9 142 143.7 145.3 147.2 151 151.6 150.5 152 153.5 155.2 157.9 160.9 164.3 167.2 167.7 167.1 166.1 165 164.6 163.9 164.2 163.4 161.2 158.4 154.9 150 145.8 143 141.6 140.9 144.4 141.4 140.4 141.1 140.4 142.2 145.5 148.2 151 153.1 153.9 155.3 154.8 153.2 152.2 150.8 148.2 139.3 132.1 131.5 129.7 132 138.9 141.2 142.7 144.2 144.4 140.9 137.5 133.6 129.9 128 127.8 131.1 131.7 131.5 130.6 128.3 125.7 123.1 123.5 122.8 121.6 118.8 114.4 114.7 114.6 117.8 118.8 122.2 125.9 126.8 137.2 144 149.2 153.8 158.3 162.6 161.7 158.1 154.9 151.6 146.3 142.7 139.7 134.8 130.7 129.8 129.7 129.9 130.8 132.4 135 137.8 139.7 142 143.7 146.4 148.4 149.5 150 149.8 151.2 152.7 154.3 156 156.9 161.1 167.3 171.1 173.6 176 178 179.1 177.6 174.5 170.6 167 163 159 154.6 151 147.8 144.6 141.7 138.9 132.6 131.1 135.4 135.7 135.7 136.3
219.5 213.3 199.2 193.1 193.5 208.3 209.8 206.7 204.8 206.7 207.1 203.9 201.4 200.2 199.1 197.1 192.6 191 189.2 186.2 182.6 179.1 176.1 173.3 169.9 166.9 164.5 163.5 161.8 161.3 161.2 161.3 158.7 158 154.5 148 141.5 140 137.9 139.8 138.1 139.6 138.7 142.2 142.1 141.6 145.7 149.9 153 153.3 151.6 147.5 143.4 140.6 139.7 139.4 140 141.4 142.9 144.5 146.3 151.7 154.3 156.1 156.2 156.9 159 163.3 166.9 168.5 170.7 170.7 170.5 169.9 169.3 168.2 167.4 167.1 166.5 164.8 162.7 158.3 153.1 148 144.2 142.5 144.4 145.4 142.8 141.4 141.6 142.2 145 146.2 146.6 150.9 153.5 151.8 151.9 151.7 150.7 150.3 148.2 144.1 139.5 132.2 130.3 130.1 134.1 140.9 144.6 144.8 145.8 146.6 144.9 141 137.2 134.4 134 131.3 129.3 127.1 127.4 128.1 127.4 124.3 121.3 119 120.6 120.4 118.2 114.7 116.4 116.6 115.7 118.2 119.8 124.4 129.4 132.8 139 145.1 151.9 157.2 161.6 163.6 161.2 156.7 151.8 148.2 143.4 139.2 136.4 132.3 130.5 130.1 130.1 131.2 133.2 134.9 137.3 140.8 142.6 144.8 146.3 149.4 151.8 152.8 153.6 154.6 156 157.5 157.8 159.7 161.7 167.5 172.7 175.7 178.1 180.3 180.4 179.2 175.6 171.5 168.4 165.5 162.4 158.4 154.7 151 147.9 144.9 142.2 136.9 137.1 137.4 138.4 138.4 139.6 140.9
215.4 201.4 193.1 193 200.3 215.6 214.4 215.1 216 216.5 213.2 209.8 214 208.1 204.8 200.9 200.9 199.7 193.3 189.5 185.3 181.8 178.5 174.5 170 167.8 165.7 162.8 159.9 161.2 160.3 159.2 157 153.8 148.6 142.3 139.6 137.9 139.3 139.1 140.4 140.4 145.7 145.2 142.8 145.5 150.5 153.8 152.4 150.1 146.5 143.3 142.1 140.5 140.4 140.8 142.1 143.5 144.7 146.3 149.8 154.4 157.1 159.9 161 165.6 169.8 173.1 172.8 175.2 175.3 175.1 175 174.3 172.8 171.8 171 169.6 167.7 164.5 161.4 156.1 150.9 146 144.6 149.1 149.2 149.2 148.7 144.2 146 148.8 148.6 146.9 148.9 153.2 152.1 149.5 149.3 148.6 148.3 147.6 144.8 139.3 135.6 131.3 130.2 135 139.8 144 147.9 147.7 148.1 147.5 145.2 142.3 140.1 140.3 139 135.9 132.4 129.7 127.6 124.6 122.4 120.3 118.5 117 116.4 115.9 115.1 115.5 116.4 117 117.8 119.2 121.1 125.4 133 136.4 140.3 147.2 155.8 161.1 164.6 160.1 156.3 152.4 149.3 145.9 141.8 137.1 134.1 131.1 130.1 130.1 131.7 133.3 135.7 137.8 141.6 143.8 144.9 146.9 149.3 152.5 154.9 155.6 157 158.1 161.3 162.2 160.9 162.9 167.8 173.6 176.8 180.1 182.5 182.4 180.7 178 173.8 170.4 167.6 164.8 162.1 158.5 155 151.5 147.7 143.4 138.4 137.6 140.6 141.4 142.8 143 144 145.3
208.3 196.2 193.1 193.1 206.2 216.9 219.3 219.2 223.3 218.4 213.9 216.1 212.4 208.6 205.7 206.4 205.2 199.3 193.5 188.8 184.1 177.6 172.7 171.2 167.9 165.1 161.6 157.2 154.9 155.9 155.6 152.8 149.8 147.1 142.1 140.5 139.9 140.5 140.1 142.1 147.5 150.9 148 144.7 142.7 146.7 150.2 149.5 147.2 144.6 142.3 142.2 141.7 141.8 141.6 142.4 144.6 146.4 146.5 150.2 154 156.6 160.1 164.3 166.9 172.5 174.1 178.5 179 179.5 179.4 179.3 179.2 178.2 176.9 175.5 173.4 171.4 167.6 163.1 159.7 154.4 148.5 148.3 153 153.8 153.5 152.9 152.4 151.8 152.3 150 147.6 147 150.2 150 147 146.2 146.7 146.4 146.5 143.3 139.3 134.3 132.7 131.4 134.6 138.4 142.2 146.5 148.4 147.7 147 147.3 146.2 146.3 145.8 145.8 144 141.6 137.8 134.1 129.7 125.1 121.4 120.4 119.5 117.8 117.6 116.5 115.9 115.6 116.3 117.4 119.3 120.8 127.4 133.5 138.2 141 145 149 155.4 161.3 160.6 156.2 152.9 149.9 146.8 142.6 139 134 132 130.7 131 130.9 132.5 135.4 138 141.5 144 146.5 148.4 150.8 153.6 155.8 157.3 158.3 160.3 161.7 164.5 164.5 164.1 168.2 173.8 176.9 180.1 183.9 183.8 182.4 180.6 177.3 173.8 170.5 167.7 165 162.1 158.7 155.2 151.8 148 138 144 143.2 145.2 145.8 146.1 146.7 147.8 148.8
205.2 195.6 193.1 193.8 206.4 214 217.3 219.2 221.2 217.7 217.4 216.8 213.2 211.5 211.1 208.1 203.6 198.2 193.2 186.1 177.8 169.6 164.6 164.1 163 159.3 156.6 151.9 151.2 150 147.2 143.7 140.5 140.1 140.1 140.1 139.8 141.5 142.7 147 151.4 149 146 143.2 142.8 143.1 142.9 143.2 143.4 143.3 143.1 142.9 142.9 143.1 143 143.9 146.1 147.7 149.2 153.2 157.5 161.5 166.3 168.7 170.4 172.9 174.5 181.3 181.5 182.5 183.4 183.5 183 181.6 178.8 175.8 173.1 171.2 166.7 161.6 157.5 155.8 157.3 158 158.3 157.2 156.3 155.2 154.8 155.5 154.7 152.2 146.4 144.5 142.4 141.8 142.5 143.4 144 144.3 141.7 137.8 134.9 133.1 133 131.8 135.2 139.8 143.7 145.6 146.1 146.8 147.5 147.7 150.7 152.7 152 149.9 147.7 145 142.8 138.4 132.8 128.7 125.7 123.8 122.5 120.9 120.2 117.6 116.5 116.1 117 119.8 122.7 129.2 123.9 134.9 141.3 144.9 149.3 152.6 158.4 161.5 158.5 153.8 150.3 147.1 144.5 140.1 136.7 132.6 131.3 131.4 131.7 133.3 136.2 138 141 144.6 146.1 149.1 151.6 153.8 156 158.2 160 160.9 163.3 164.8 166.9 165.8 168.3 173.2 175.9 183.7 183.5 186 184.4 182.8 180.1 176.2 173.7 171.3 168 165.1 162 158.7 155.5 152.2 140.5 148.3 147.9 147.3 148.6 148.8 149.1 149.9 150.9 151.9
200 193.4 192.7 196.5 203.8 209.9 219.9 219.8 218.9 220.5 220.7 219.5 217.1 215.4 212.2 206.6 202 195 187.5 177.4 168 162 159 157.1 153.4 147.7 145.2 145.2 144.9 143 141.3 140.8 140.4 140.5 139 140.2 140.1 141.1 146.1 149.7 148.3 144.5 143 142.8 142.2 142.2 142.2 142.4 142.7 143.2 143.8 144 143.9 143.8 144 145.9 150.2 152.3 153.5 157.5 164 167.9 171.7 172.5 173.3 176.6 180.6 181.6 183.3 186.3 186.9 186 182.4 178.8 176.2 173.9 171 169.2 164.3 158.3 154.7 159.9 159.9 159.8 160 159.1 158.3 158.3 157.2 157.8 156.4 154.2 148.4 145 142.9 141.6 140.9 139.9 139.5 138.5 135.4 135 135 134.3 134.1 132.3 134.4 137.7 139.8 143.1 146.3 148.7 150.7 152.2 157.2 157.8 155.2 152.8 149.6 147.4 145.1 142.1 138.6 134.9 131.4 129.1 127.1 124.2 121.1 118.5 117.4 119.5 123.2 126.1 128.5 126.8 131.4 135.8 142.2 147.3 151.2 154.8 159.3 160.8 156.4 151.7 148.2 144.7 141.7 138.8 136.1 132.7 132.2 132.5 133.1 136 139.4 141.9 145.3 148.1 149.9 152.1 154.2 155.7 158 160.4 162.7 164.2 166.4 168.3 168.6 168.2 172.4 175.6 183.7 185 183.9 181.1 185 182.8 179.8 177.2 175.3 171.9 168.3 165.1 162 159.1 156.2 150.1 149.2 151.7 151 151.2 152 152 152 151.8 153.2 155.7
194.7 192 195 197.7 201.8 206.9 213.7 218.7 220.1 223.5 224.1 221.8 217.6 214.6 210.6 205.1 196.7 188.6 177.1 167.8 160.6 157.4 155.5 153.6 148.7 143.3 141.5 141.9 141.7 141.6 140.9 140.3 140.5 139.5 140.3 140.5 140.5 141.1 145.5 145.2 143.8 142.8 142.2 142.3 142.2 142 142.3 143.2 144.9 145.5 145.4 145.3 145.4 145.6 146.4 149 152.6 155.8 159.1 164.4 170.8 173 174.9 176.8 179.9 180 180.7 182.7 185.3 186.2 185.5 183.5 179.6 176.9 174.6 172.3 170.1 167.3 163.1 157.1 160.1 161.9 162 162.4 162.7 162.1 161.6 161.6 161.2 160.3 158.1 156.1 152.3 148.5 144.9 143.7 142.4 141.1 140.6 139.1 137.5 136.4 136.3 134.9 132.9 132.8 135.5 139 142.8 145.4 147.6 149.7 152.3 154.7 158.6 160.7 156.6 153.8 152.1 150.3 149.3 146.4 142.7 138.3 135.6 133 127.7 124.4 122.1 119.5 122.2 125.5 128.7 133.2 128.9 131.8 135.3 140.5 146.4 150.8 154.1 158.2 158.4 156.9 154.5 149.9 145.1 142 139.9 137.2 134.5 132.4 133 132.9 135.1 138.3 142.9 145.9 148.7 151.7 153.2 155 156.8 158.6 160.6 162.9 165.1 166.4 169.1 170.2 170.6 171.3 174 180.6 182.7 183 186.7 186.8 185 183 180.7 178.3 175.5 171.8 168.4 165.1 161.8 158.9 154.3 150.2 153.9 154.6 154.2 154.3 154.2 154.1 154.2 155 156.6 159.4
192.7 193.9 198.3 202.9 207.6 208.3 213.7 222.2 227.4 226.4 225.9 221.7 217.8 214.1 208.3 201.1 189.1 178.2 166.3 160.1 156 153.4 152.2 151.2 144.9 142.1 142.2 142 141.7 141.5 141.4 140.9 140.7 140.5 140.6 140.7 140.5 140.5 142.2 143 142.9 142.4 143.1 143 142.9 143.8 143.8 145.1 147.4 148.3 148.2 147.8 147.4 148.8 151.5 154.3 157.6 160.6 164.3 169 172.7 176.4 178.2 178.1 178 178.9 180.5 183.1 184 183.1 181.8 180.1 177.8 175.4 173.4 171.2 168.8 166.2 160.6 162 163.8 164.3 164.4 164.8 165.3 165.4 165.4 165.2 166.1 163.3 160.6 159.2 156.4 152.8 149.6 146.5 144.8 144.2 143.9 141.3 139.7 137.4 135.7 133.2 132.7 133.7 137.8 141.8 143.9 146 148.2 150.6 153.1 156 159.5 161.4 157.5 155.7 154.2 153.8 152.8 149 145.2 141.8 138.3 133.4 129.1 125 122 122.6 126.9 130.7 133.3 132.3 131 134.8 137.8 143.3 149.3 152.9 157.9 161.4 156.5 154 150.8 146.7 141.6 139.8 138 135 133.1 132.3 133.2 135.1 135.5 140.9 145.7 148 150.9 153.7 155.4 157.2 158.9 160.6 163.3 165.2 166.9 169 171 171.3 172.4 173.1 176.7 181.6 186.5 187.6 188.3 187.1 185.7 184 182.4 179.4 175.9 171.6 167.8 164 160.8 157.5 151.3 156.3 157.4 157.4 157.1 156.7 156.4 156.2 157.2 158.3 160.6 162.8
191 197.5 206.5 211.6 214.5 216.6 219.1 224.2 227.8 230.4 227.2 222.2 217 211.6 200.5 190 178.4 167.3 159.9 155.7 153.4 146.8 143.1 143.1 142.6 142.3 142.2 141.9 141.7 141.7 141.2 141.3 140.5 140.7 140.7 141.2 141.1 142 142.8 143.8 142.8 143.8 145.5 146.4 146.9 150.1 148.8 150 151.4 151.3 151.4 151 149.9 152.5 157 160.2 164.8 167.8 168.3 171 174 176.5 176.9 176.5 177 178 179.3 181.5 180.9 180.1 179.5 178.1 176.2 173.8 171.8 169.8 167.4 163.7 161.1 163.5 166.2 167.3 167.5 167.6 167.6 168.4 168.8 171.6 170.6 166.4 164.3 162.1 159.5 155.5 151.6 150.4 149.1 147.2 144.7 141.6 138.8 136.7 134.3 133.5 133.6 133.7 139.7 142.3 144.6 146.6 149 151.9 154.5 157.5 160.8 162.6 159.6 157.8 156.9 156.7 154.4 150.4 147.3 142.4 137.2 134.1 130.7 126.2 125.7 129 131.7 133.6 132.8 131.1 134.3 137.1 139.9 145.7 151 155.8 160.1 158.8 154 149.6 147.4 143.9 138.6 136.5 135.2 133.8 132.8 133.4 137.7 139.6 140.7 145.3 149.3 151.6 153.2 156.2 158 159.6 161.3 163 165.3 167.4 169.2 171.4 172 173 174.1 175.6 181.2 185.7 188.4 190.3 190.8 189 187.7 186.8 183.7 179.9 175.2 170.4 165.8 161.9 156.8 158.9 157.7 160.2 159.9 159.5 158.8 158.5 158.3 158.6 160 161.6 163.7 166.5
191.7 197.9 203.9 209.5 213.5 217.1 220.7 223.4 226.6 228.9 225.1 219.4 208.1 201.7 187.1 177.1 166.8 160.7 156.6 153.3 148.4 143.4 143.2 143 141.1 140.9 142.1 141.9 141.8 141.4 141 142.2 144.5 144.5 145.2 144.8 143.2 143 143 144.5 145.5 146.4 149.1 151.9 153.9 155.9 156.3 155.6 154.9 155.8 155 154 152.1 158.2 164 167.4 169.4 171.3 172 171.8 174.1 175.1 175.4 176.5 177.6 177.9 177.4 177.5 177.6 177.9 177.4 176 174.4 172.8 170 167.4 162.9 162 162.6 165.3 169.5 169.9 170.5 170.7 172.6 173.4 176.5 177.6 171.9 168.6 166.4 164.6 161.7 156.9 155.2 153.9 150.9 147 143.4 139.8 136.8 134.3 133.7 134 134.2 135.3 140.5 142.8 145 147.3 150 153.2 156 159 162.6 166.2 163.3 161.6 160.1 159.6 155.3 151.5 147.3 141.5 137.2 134.4 132 130.1 129.7 133.1 134.3 133.8 133.4 133.2 136.1 138.6 141.7 145.5 151.1 156.2 160.2 156.9 151 147.6 145 142.1 137.8 134.3 134.1 133.6 134.6 139.5 143 139.5 144.3 147.9 152 154.5 155.8 158.4 160 160.8 163.7 165.7 167.8 170 172.1 173.4 174.5 175.7 176.3 181.4 186.7 188.1 191.7 193.6 194 192.2 190.5 187.2 183.6 179.4 174.5 168.3 164.5 160.6 162.9 161 162.4 162.4 162.1 161.3 160.7 160.2 159.9 161.2 162.8 164.4 166.5 169.9
189.1 195.1 200 205 213.7 217.7 220.7 223.6 226.6 223.4 214.6 204 195.9 186.1 175.7 168.8 163.5 157 153 149.6 143.7 143.4 142.8 141.1 142.5 142.4 142.3 141.9 141.4 139.6 147.6 149.3 151.5 151.3 149.8 146.7 143.7 143.6 145.3 146.9 147.7 151 155 158.1 161.4 160.9 161.1 161.5 160.6 160.2 158.2 155.8 157.7 164 168.7 170.1 170.8 170.3 170.9 171.6 172.3 174.2 174.8 177 177.5 177.3 176.4 175 174.4 174.9 174.8 174 172.4 173.3 173.4 172.6 165.3 166.3 169.6 172.9 174.1 173 173.5 174.8 178.5 181.4 181.6 179.9 176.6 171.8 169.9 166.1 161.6 159.6 156.8 153.3 150.1 144.5 139.6 137.1 135.9 135.5 135.3 135.5 135 134.6 141 143.6 145.7 148 150.4 154.2 156.8 159.9 163.8 168.2 167.6 165.5 161.6 157.7 154.8 151.2 144.9 139.6 137 134.3 133.6 131.8 133 134.8 134.4 134 134.2 133.8 133.1 137.9 142.1 146.4 151.7 155.6 155.3 152.1 147.8 144.6 142 139.6 136.4 134.9 135.4 137.1 139.8 144.3 143.7 145.1 147.7 150.8 155.2 158 159.1 160.6 162.5 164.7 167.1 168.9 171.2 173.1 175.1 176.2 177.7 178.4 179.9 184.5 189.9 188.2 189.2 197.5 196.4 193.4 190 187 183.5 180.3 175.1 166.2 166.8 166 165.6 162.4 165 164.6 164.1 163.1 162.6 162.1 162.7 164 165.5 167.3 169.8 173.1
187.1 191.5 193.5 198.7 209.2 216.4 220.3 223.2 221 209.4 201.8 194.8 185 175.7 171.9 167.8 161 153.5 150.1 147.3 144.5 143.4 142.8 142.6 142.8 142.7 142.4 142 147 149.4 152.1 153.4 154.9 149.7 149 146.9 145.5 145.6 148.2 152.6 152.6 152.9 160.7 163 165 164.8 165.5 167.4 165.4 163 160.2 160.2 160.6 167.8 169.9 170.3 169.3 169.2 170.5 171.4 173.3 174.6 175.9 177.3 177.5 176.9 176.1 175.5 177.4 177.5 172.8 171.7 174.3 175.8 175.8 175.6 171 173.3 176.5 177.9 177 177 177.8 180.1 180.5 180 179.5 178.7 177 174.5 169.5 165.6 163.2 159.7 154.3 151.1 146.7 140.2 137.5 136.5 136.7 137.6 138 138.2 137.6 136 140.6 144.3 146.4 148.4 150.5 153.7 157.7 160.8 164.3 167.8 167.1 162.5 158.2 155 153 149.8 144.7 139.7 136.7 135.8 134.5 133.9 135.1 135.3 135.6 135 134.2 136 133.9 137.1 142.6 148 152.3 153.4 152 149.5 145.4 141.8 139.6 136.4 135.8 137.1 138.9 140.8 142.7 145.5 146.6 151.2 153.4 155 158.2 161.1 163.6 165.8 166.6 167.1 169.3 171.4 175.2 177.1 178.2 180.1 181.2 181.9 183.1 186.8 192.5 198.6 200.3 199.5 196.6 193.2 190.4 187.5 183.2 178.1 171.3 169.1 171 169.1 167.6 166.8 166.9 166.6 165.9 164.9 164.4 164.7 166.2 167.7 169.5 171.3 173.4 175.6
183 186.6 189.2 195.1 205.8 211.7 213.6 216.6 212.1 198.9 193.9 186.4 180.5 176 173.2 167 157.6 152 149.3 145.4 143.9 143.6 142.8 143.3 143.1 142.6 142.3 143.6 150.8 154.4 157 157.3 153.8 151.3 148.1 145.8 147.7 150.6 153.8 157.7 154.8 156.3 163.9 166 168.4 169.4 170.8 169.9 166.4 164.8 165 164.8 160.5 167 168.8 168.7 170.3 169.4 173.5 177.4 179.1 178.7 180 180.2 179.1 177.8 179.6 180.2 181.3 181.6 179.9 173.9 176.6 178.5 178.9 178.6 179 179.3 178.9 178.6 179.4 179 178.3 177.4 176 175.4 175.2 174.6 173.4 171.1 167.5 165.6 161.9 156.6 152.3 148.8 142.9 139.4 139 139.4 139.7 140.5 140.5 140.6 139.3 136.3 141.4 144 146.5 148.7 150.8 153.7 158.7 163.5 162.3 164.6 164 160.5 156.8 154.1 152.1 149.6 144.7 138.8 137.7 135.7 134.5 134.7 134.6 134.9 136.1 135.2 135.9 136.1 135.3 137 142.8 148.1 152.4 151.6 149.2 146.4 143.2 139.7 139.3 138.9 139.6 141.6 142.6 144.6 145.7 146.4 150.9 154 156.1 158 160.6 163.2 165.5 168.2 170.2 171.1 172.5 175.3 179.3 181.2 182.5 183.7 184.9 185.9 187.3 192.5 199.2 202.8 203.2 199.4 196.9 193.9 191.1 187.8 183.1 176.5 172.4 174.5 173.2 170.7 171 168.7 168.6 168.2 167.7 167.4 166.9 168 169.6 171.1 172.4 174.4 176.5 178.5
180.6 185 189.7 197.8 205.2 209.1 208.4 203.6 196.9 195.7 192.6 187.9 182.6 178.1 171.2 161.7 155.9 151 146.8 144 143.7 143.7 143.7 144.5 145.7 145.2 142.7 150.4 153.8 155.6 155 153.9 151.7 148.7 145.4 148.5 153.6 157.1 159.6 162.8 153.5 162.5 166.9 170 171.8 173.3 172 169.3 168.7 168.3 170.8 171.8 173.3 174.3 172.5 172.9 174.7 175.3 177.4 181.9 184 185 185.8 184.2 181.3 181.1 182.2 182.2 182.9 183.5 183.4 179.3 180.3 181.2 182.2 182.2 182.7 182 179.6 178 178.5 177.8 177 176.2 174.5 173.4 172.7 171.6 170.4 168.1 165 162.9 159.6 155 150.6 145.8 142.1 141.4 141.4 142.2 142.9 143 142.8 141.2 137.6 136.4 140.5 143.1 146 148.7 150.9 153.4 158 159.7 160.5 161.3 161.5 159.1 155.3 153.3 151.3 148.7 144.4 140.7 137.3 135.6 134.9 134.8 134.9 136.8 135.8 135.6 135.7 137.8 137.3 137.6 143.1 150.1 152.8 149.9 146.2 143.3 142.6 143.6 144.4 145.1 147 147.1 147.5 147.6 146.6 150.6 154.2 157 159.8 161.8 163.4 164.5 167.3 169.6 172.7 173.9 176.1 180.4 182 183.9 186 187.2 188.3 189.1 192.4 199.1 204.3 206 203.2 200.9 196.9 194.7 191.6 188 183.8 175.6 177.6 176.8 174.8 173.9 173.4 170.3 170.4 169.4 169.1 169.3 170 171.4 172.7 174.2 176 177.8 179.8 181.2
184.1 189.1 196.9 201.5 205.5 204.8 200 200.2 201.5 199.7 193.2 187.8 182 173.5 166 157.7 150.4 144.9 144.6 144.4 144 141.6 146.4 147.4 147.2 146.2 144.6 156.2 155.9 154.1 153.3 151.2 147.5 146.7 150 155.9 162.2 162.7 163.8 165 160.5 167.2 169.8 172.9 173.2 172.2 171.8 171.8 172 173.2 174.8 175.9 176.7 177 176.3 176.8 179.8 182 183.9 187 188.3 191.3 190 187.2 184.5 184.6 185 185.3 185.6 185.9 186.8 188.1 186 185.8 185.3 185.6 186.7 184.9 181.6 181 181.3 180.3 179.2 178.1 177 175.8 174.9 173.7 169.6 165.7 162.9 160.6 157.9 153.7 149.5 146.1 145 145.5 145.4 145.4 145.9 146.1 142.7 137.2 137.1 137.5 137.9 140.1 145.8 148.7 150.8 153.7 156 157.3 158.4 158.6 158.7 157.7 154.4 151.3 148.7 145.3 139.7 137.6 136.3 135.7 135.3 135.5 137.5 136.7 136.3 138.2 139.2 139.6 137.3 139.7 145.6 151 151 147.6 146.8 148.6 151.6 150.9 149.8 150.7 151.9 153.5 151 149.9 153.4 153.7 157.9 161 163 165.1 166.4 169.5 172.1 173.4 175.1 177.8 181.6 184.5 185.2 186.8 188.6 189.9 191.1 192.6 197.4 203.2 206.8 208.5 203.2 199.8 197.3 195.1 191.8 188.1 184.4 179.5 180 178 177.2 176 174.7 171.6 171.7 170.8 171.2 172.2 173.2 174.7 176.5 177.8 179.7 181.1 183.4 182.4
192.9 195.8 202.3 207.5 203.9 200.9 210.1 208.9 205.8 201 191.7 186.4 179 170.6 159.3 152.1 145.8 144.6 144.4 144.2 143.6 147.8 148.7 148.3 147.8 147.4 148.4 154.1 152.7 154 150.4 149.2 150.3 153.5 158.3 165.2 165.7 164.9 166 165.2 163.1 166.7 168.8 168.9 168.4 171.9 173.8 173.4 174.2 175.5 176.6 177.7 179.5 180.2 180.1 182.5 186.7 188.1 193.4 194.8 194 194.5 192.9 190.3 186.1 187.7 187.8 187.8 188.1 189 190.9 193.1 190.7 189.2 188.5 189.1 191 190.5 188.5 187 184.6 183.2 182.3 181.5 179 175.7 173.6 171.7 167.8 164.7 162.4 159.7 156.9 153.1 149.4 149.4 149.9 150.2 150.1 149.8 148.4 144.6 139.5 138.7 140.4 140.7 142.4 143.5 142.6 145.9 148.3 151.3 153.4 154.9 156 156.8 156.5 154.6 150.5 147.1 144.8 139.9 137.3 136.8 136.7 136.7 137.7 139.1 138.5 138.4 138.9 140.8 142.3 141.7 136.7 142.7 149.6 151.3 151.4 152.6 153.3 155.8 156.3 156.2 156.9 157.1 157.4 154.7 150.3 156.4 158.5 160.2 161.9 164.7 166.9 167.6 169.3 171.2 174.5 176.2 177.9 179.7 184.5 187.7 188.5 190.7 192 192 193.6 195.9 201.7 206.1 208.8 208.5 204.1 200.5 198 194 191.2 188.2 184.3 183.6 182 180.3 179.4 178.3 176.1 173.9 172.9 173 174 175.2 176.3 177.6 179.8 181.8 183 184.6 184.3 179.2
190.9 197.3 207.6 211.3 205.1 206.9 213.3 212 202.1 192.3 190.6 186.3 174.6 164.5 155.7 151.2 144.8 144.7 144.3 144.4 146.3 148.9 148.8 148.3 148.1 148.1 148.6 151.2 151.8 151 152.2 154.2 158 161.5 164.5 168.5 166.6 166.5 167.3 165.5 162.7 165 166 167.2 170.1 174.2 173.6 174.6 175.6 176.9 178.3 180.3 182.3 184.6 187.7 190 195.1 197.8 198.8 200 200.6 198.8 195.8 191 189.8 190.2 190.1 190.4 191 193.1 194.3 195.2 195.3 194 193.9 195.7 197.1 196.2 193.8 190.9 188.2 186.5 182.9 178.8 175.2 173.1 171.3 169.6 167.3 164.4 161.9 159.3 156.4 153.8 153.2 153 153.9 154.2 154.1 152.3 146.2 141 138.9 140.5 142.6 145 147.1 148.2 146.3 143.7 145.9 149.3 151.3 152.3 153.5 154 153.4 150.7 148.3 144.9 141.5 138.8 137.5 137.3 138.7 139.8 140.8 141.2 140.5 141.8 141.9 145.3 143.6 138.7 140.4 147.5 152.6 152.8 156.5 158.6 159.2 161.6 160.9 161.8 162.2 161.3 157.1 153.1 154.1 159.1 162.5 164.6 166.5 168 169.5 170.4 172.6 174.4 177.3 179.1 181.1 183.5 186.6 189.9 191.1 194.3 194.2 196 197.2 200.1 204.7 207.9 209.6 206.9 203.6 200.5 196.9 193.2 189.9 186.6 184.8 185.3 183.8 182.9 181.8 180.5 177.3 175.9 176 176 176.8 178 179.5 181.4 183.5 185.5 185.2 183 171.6 167.8
188 198.7 209.4 206.8 206.8 213.8 211.9 203.8 199.3 199.2 191.4 181.7 170.7 161.1 154 147.4 145.3 143.9 144.8 144.5 149.8 149.6 149.3 149.7 149.1 148.4 150.4 151.8 153.2 155.1 158.1 160.3 164.1 166.5 167.3 168.2 168.3 168.3 166.7 165 164.3 165.4 167.1 173.4 174.9 174.7 175.5 176.4 177.8 179.1 180.8 183.1 185.7 191.1 194 202.9 203.2 203.1 203.8 205.9 203.8 201.4 196.3 191.5 192.6 192.8 192.9 193.9 194.3 195.6 196.4 198.3 200.5 200.9 201.2 200.9 201.8 199.6 195.6 192.8 186.6 183 180.3 176.9 174.5 172.4 170.3 168.3 166 163.8 161.3 157.8 156.8 158.8 158.3 157.2 156.3 154.1 151.5 148.6 142 140.2 141.8 145.1 149.4 150.7 150.7 150.8 148 145.5 144.3 147.1 148.3 148.2 151.4 151.5 150.8 148.6 146.4 143.5 140.4 138.7 137.7 140.3 142.3 143.1 142.6 142.3 142.4 142.7 147.3 145.8 140.7 142.7 147.4 154.4 156.9 159.2 162.9 164.6 166 165 164.9 167.3 164.6 159.2 154.7 152.6 155.5 161.1 164.9 167.6 168.8 170.2 171.8 173.8 175.7 177.7 179.8 181.3 183.4 186.6 190.8 194.6 196.3 198.1 195.6 198.1 200.4 202.7 206.1 209.1 209.1 205.7 202.1 199.1 195.8 192.3 189.7 187.3 187.3 186.5 186.2 184.4 183.1 181.4 178.5 177.9 178.4 179.3 180.2 181.1 182.9 185 186.9 186.6 179.5 173.5 168.7 162.8
192.8 203.2 206.8 204.5 207.5 208.5 207 206.2 198.7 193.9 186.9 173.6 166.2 158.4 152.7 146.8 145.4 145.3 145.6 148.2 150.3 150.9 150.9 151.2 152.1 152.5 153.8 157.1 158.9 162 164.3 167.3 169.5 170.6 170.5 170 169.7 167 164.9 164.7 165.7 166.4 168.1 170.9 173.1 175.9 177.9 180.2 181.4 182.4 184.6 188.9 194.8 200.1 198.6 203.3 207.2 209 209.2 207.5 205.7 201.7 195.6 192.6 194.4 195.4 196.5 197.2 198.1 199.3 200.8 203.3 208.1 208.1 206.8 203.6 199.7 195.4 191.5 187.8 183.8 181 178.4 176.2 174 170.8 168.9 167.2 165.2 163.2 160 158.5 162.6 161.9 159.2 156.6 154.6 152.4 149.9 145.9 142.1 142.4 147.4 153 156.3 155.2 153.6 151 148.2 146.5 145.3 145.4 147 149.4 150.4 150.6 149.1 146.7 144.6 142.4 140.9 139.6 142.5 144.4 145 144.4 143.2 143.3 144.4 147.2 143.8 142.5 143.3 147.5 154.4 158.9 161.8 165.4 168.2 169.7 170.8 171.3 168.9 166.6 161 155.9 154.5 153.5 157.4 162.9 167.1 168.7 170.4 171.9 173.4 175.8 178.2 180.4 182.2 183.6 186.2 190.8 195.6 200 201.2 198.9 196.3 199.9 202.1 204.7 207.7 209.4 207.6 204.4 202.1 198.8 195.7 192.6 190.1 189.3 188.7 187.8 187.6 186.1 184.3 182.2 180.8 180.6 180.9 181.9 182.9 184.2 185.7 187.8 187.4 182.2 175.1 169.2 162.1 156.7
196.3 205.8 206 208.4 205.4 206.3 205.4 202.2 199.5 190.1 181.8 173.4 163.4 156.9 153 149.2 144.7 145.9 146.1 149.4 152 152.4 153 155.3 157.5 159.6 161.7 166.1 168 169.1 171.2 173.5 173.6 174.1 172.3 168.4 165.8 163.8 164.2 167.7 171 172.9 173.5 174.9 174.2 177.9 180.7 182.3 185.9 188.7 191.4 196.8 202.4 204.1 205.2 205.8 210.2 214 211.8 209.5 205 201.6 198 195.8 196.8 198.1 198.9 200.1 201.2 203 205.6 208.2 209 205.8 202.2 199.6 195.4 191 188.7 185.4 182.5 179.9 177 174.5 171.6 169.1 167.9 166.6 164.7 162.7 161.4 165 163.2 161.3 158.2 155.6 153.4 151.8 148.2 144.2 146.8 148.3 155.9 160.4 158.7 158 154.4 150.8 149.1 148 145.9 146.4 150.1 151.1 152.1 152.1 150.5 148.2 145.5 142.8 141 143.8 146.3 145.6 145.3 145.2 144 145.2 141.8 143.8 143.5 143.7 148.5 153.7 158.8 163.1 166.9 170.1 172.3 174.1 174.2 170.2 165.8 163.3 157.1 155.8 157.2 158.6 162 166.7 169.1 170.9 172 173.7 175.5 177.8 180.1 182 183.8 186.5 190.6 196.6 200.6 203.3 196.8 201.7 197.5 200.6 203.8 205.9 207.4 207.5 205.5 203.7 201.4 198.1 195.3 193.1 191.7 191.6 189.5 188.9 188.4 187.4 185.3 183.8 182.7 183.1 183 184.2 185.3 186.8 188.1 188.1 183.3 177 171 164.3 156.2 153
189.2 202.8 203.2 204.7 206.3 210.5 209.6 199.9 192.1 185.4 179.2 171.1 162.1 155.4 151.6 147.1 146.7 146.6 147.1 150.8 154.8 156.9 158.8 162.5 165.4 165.9 167.9 172.8 174.1 174.7 175.8 176 177.1 176.1 170.2 166 161.6 162.9 169.1 175 177.9 179.2 177.7 178.1 176.1 181.5 185.1 188.7 191.2 194.8 200.5 207.6 208.6 207.9 209.6 210.3 215.3 215.9 212.9 210 206.6 204.6 202.6 199.6 199 200.1 201.4 203.1 203.9 203.7 204.5 205.6 204.5 201.9 198.2 195.7 190.8 188 185.9 184 181.2 178.8 176.1 173.3 170.9 168.7 166.9 165.7 164.5 162.7 165.9 163.6 161.3 159.6 157.5 154.6 152.4 149.3 151.1 152.8 153.1 156.4 161.3 162.6 160.8 158.2 153.9 151.9 150.6 147.9 146.7 148.9 151.6 153.5 154.6 153.8 151.4 148.6 146 143.9 145.7 147.1 146.4 145.5 145.6 145.1 145.1 146.3 143.8 143.9 143.3 148.6 154.5 158.6 162.2 167.6 171.9 174.7 177 175.5 172.2 168.4 164.1 160.5 157.6 157.4 159.4 162.7 166.4 170.2 172.2 173.5 173.8 175.7 177.6 179.7 181.8 183.8 186.5 193.1 198.7 202.7 205.1 205.5 203.7 197.6 198.5 201.8 204.3 205.7 206 205.4 204.8 202.9 200.1 197.5 195.4 193.6 192.4 191.6 190.6 190.2 189.6 188.5 186.8 185 184.9 184.7 185 186.2 187.1 188.1 187.6 184.3 178.6 172.4 165.6 157 152.3 152.6
178.3 189.6 191.5 198.8 209.5 207.8 195.6 191.7 189 181 176.1 169.7 160.5 155.1 151.5 147.6 146.9 147.1 147.7 155.7 161.2 164.9 167.4 173.6 172 171.7 173.4 177.3 178.5 178.5 178.6 177.8 175.7 172.7 167.2 163.1 161.2 167.9 174.6 180.5 180.3 180.6 181.4 183.2 184.3 184.6 189.1 193.8 196.2 199.6 205.2 211.5 212.8 212.5 213.2 214.6 215.7 214.6 212.6 209.9 209.1 207.8 204.3 200.5 199.8 202.6 203.3 202.3 201.1 201 201.9 202.2 201.4 198.9 195.4 192.3 188.9 186.5 184.3 182.2 179.5 176.5 174 170.7 170.2 168 166.3 164.9 164.8 164.5 165.6 162.3 160 157.8 156.1 152.4 148 152.7 154.4 155.3 156.2 158.1 161.1 162.7 160.2 156.7 154.5 153 150.5 150.6 150.1 153.7 155.9 157.6 158 155.6 151.6 147.2 145.4 147 148.7 148.2 147.1 148.1 146.7 144.1 143.3 143.6 143.5 143.2 149 157.3 160.2 163.1 167.2 171.3 174.6 177.7 176.7 173.1 170 166.5 161.8 158.8 158.7 160.2 161 165.6 168.5 169.7 172.8 175.3 176.9 177 179.8 181.5 183.6 186.5 192.4 200.5 204.9 207.2 207.1 204.5 201.3 198.3 199.3 201.9 203.5 204.4 205.2 205 203.3 201 199 197.2 194.9 194.1 192.6 192.3 191.5 191.1 190.4 189.3 187.2 187 186.1 186 186.6 187.2 187.8 187.8 185 180.9 175.4 168 158.2 152.1 150.7 152.9
164.4 175.5 191.8 204.8 200.2 193.9 190.9 188.8 184.8 180.2 175.2 168.8 160.8 155.6 152.6 147.6 147 145 155.7 163.7 170.3 171.9 174.5 179.3 176.9 176.4 179.1 180.8 181.8 181.4 180.1 177.4 172.1 167.6 163.2 163.4 166.5 172.7 178.4 182.2 182.5 185.5 185.9 186.4 180.5 189.3 195 198.5 202.1 205.3 209 212.9 214.6 213.7 213.8 213.8 213.2 212.4 210.7 210.9 211 208.4 203.7 200.6 199 198.9 196.8 197.5 198.5 198.7 199.3 199.3 198.8 196.6 193.9 190.5 187.8 185.5 182.8 180.5 177.8 174.9 172.6 170.7 169.5 167.1 164.2 164 163.8 164.8 163.8 161.8 158.7 156.6 155.1 152.1 153.4 154.7 156 156.9 157.9 159.7 162.7 161.7 158.2 156.2 154.6 153.8 154.4 152.6 155.9 158.6 160.3 161.2 158.7 154.8 149.3 146.4 147.9 149.1 147.9 147.8 150.1 149.4 146.7 143.4 143.1 145.3 146.9 148.2 159.5 164.8 164.6 166.6 169.8 173.5 177.2 176.7 173.9 171.1 168.3 164.2 159.9 160.5 161.9 163.2 163 166.4 169.9 171.7 174.9 177.4 179.5 180.5 182.4 184 186.4 191.3 198.6 203.7 207 209 206.6 203.4 200.7 198.2 198.8 201.1 202.6 203.5 204 203.4 201.4 199.1 198.2 196.5 194.6 194.2 192.3 191 191.1 191.5 190.7 189.6 188.4 187.5 186.6 185.8 185.8 186.6 187.2 185.8 183.5 179.7 173 163.1 153.5 149 151 152.5
155.6 169.6 187.8 190 190.6 191.7 190.1 187.7 183.6 177.5 173.4 170.8 162.1 156.9 150.2 148 147.2 147 158.8 170.4 174.7 177.8 177 180 180.7 180.1 182.2 184.4 184.5 181.4 177.9 174.4 170.2 166 164.7 166.7 173.4 177.4 182.8 185.6 186.8 189.3 187.8 186.1 184.9 195.3 199.8 203.6 208.2 210 210.8 211.9 212.1 211.8 211.4 211.4 211.4 210.2 209.8 212.3 211.2 207.4 204.4 202.4 200.3 198.8 195.5 195.2 195.5 196 195.7 195.4 196.2 195.1 192.8 189.6 186.7 184.4 181.9 178.8 176.1 173.6 171.4 169.1 167.7 164.8 161.2 161.8 162.5 162.9 161.3 158.6 156.9 154.9 153.2 151.5 154.2 155.8 157.4 158.5 160.3 163.3 164.3 160.2 157.3 156.6 154.7 154.8 155.3 158 160.5 162.2 162.1 159.8 156.7 153.3 148.4 148.5 149.6 147.5 148.6 150.4 150.5 149.3 145 143.2 143.7 145.3 149 158.1 165.6 168 165.7 168 171.1 174.6 177.1 174.6 171.7 169 166.2 162.5 160.7 162.3 164.9 166.7 166.8 167.7 171.1 172.1 177.3 178.7 180.6 182.7 185.7 186.9 191.1 200.7 206.2 207.5 209.6 207.9 205 202.1 199 196.9 198.5 200.3 201.7 202.7 202.2 201.1 199.5 198.9 197.5 195.3 194.2 193.8 191.7 190.9 190.9 190.2 190.1 189.3 187.7 186.4 185.8 184.8 184.7 184.8 185.1 185.3 183.1 178 171.2 156.7 150.2 148.1 150.9 151.4
154.8 163 172.3 177.5 186 190.9 187.9 183.1 181.6 176 172.6 168.5 163.3 158.5 148.9 148.7 147.7 146.3 156.8 170.1 178.3 178.4 177.6 180.6 183 183.4 185.3 186 183.9 180.7 176.5 173.5 170.4 166.9 166.1 176 180.2 183 187.6 189.2 190.1 189.7 187 187 190.7 197.7 203.3 205.1 207 208 208.6 209.3 209.4 209.3 208.9 209 209.1 208.7 213.7 213.7 210.5 208.2 205.5 202.8 199.6 196.8 193.4 192.4 192.2 192.5 191.5 191.7 192.6 192.4 190.8 188.3 185.9 183.7 180.3 177.5 174.8 172.5 170.2 168 166.2 164.3 158.8 159.8 160.1 159.7 158.4 156.7 154.7 152.5 151.4 152.3 155.5 157.3 158.9 160.4 162.1 165.3 162.3 159.8 158.4 157 155.7 157.6 158.4 161.7 163.3 163.4 160.8 158.1 155.5 152.1 149 148.6 148.2 150.3 151.5 150.7 149.8 146.4 144.4 144.2 143.9 146.5 156.7 161.8 166.3 167.4 166.2 168.5 171 174 175.2 171.7 169.1 166.9 164.3 162.1 163.7 165.7 168.2 169.5 170 169.5 171.5 174.2 177.7 181.4 183.7 186 188.7 193.4 203.6 209.7 211.5 212.3 208.7 205.7 203.4 200.9 197.4 196.2 197.9 199.3 200.4 200.8 199.7 199 198.4 197.3 195.7 193.1 192.6 191.2 189.7 188.5 187.8 188 187.2 184.7 184.9 183.4 182 180.9 181.1 182.4 185.8 186.3 182.7 176.2 158.7 151.2 147.2 148.5 150.7 151.3
153.5 152.1 164 171.9 179.7 181.5 179.1 177.8 179.6 178.8 176 172.2 166.9 159.7 149.6 148.6 148.1 148.1 160.5 170 177.4 180 180.4 185.6 189.8 188.3 188.4 186.7 185.1 181.3 177.2 173.6 170.6 168.6 173.8 184.4 187.5 190.4 191.6 190.6 189.5 188.3 185.5 193.1 198.4 203.5 204.8 205 205 205.6 206.1 206.7 207.1 207 206.9 207.6 208.3 214.3 217.7 215.2 212.5 209 205.6 201 197 195.4 194.5 193.4 192.2 191 191.3 191.7 189.7 192.1 190.2 186 180.9 179.7 173.4 170.7 172.4 170.9 169.1 167.3 165.3 162.8 157.2 157.2 157.4 156.6 155.6 154.5 152.7 151.4 152.1 154.5 156.9 158.7 160.6 162.6 164.8 163.8 161.2 159.1 157.5 156.3 157.8 159.8 162.3 163.7 163.9 161.7 159.4 156.5 153.8 151.2 149 149.2 151.3 152.4 151 149.4 146.8 145.2 144.8 145.2 145.7 155.8 162.1 161.4 163.2 164.7 166.7 168.8 171.1 172.9 171.3 168.2 166.5 164.8 163.6 165.2 167 169.8 171.5 172.5 171.2 170 174.2 176.8 181.5 186.1 189.1 189.6 194.8 205.6 211.8 213.5 213.8 211.3 207.8 205 202 199 196 195.7 196.8 198.2 199.1 197.9 196.9 197 196.2 194.6 192.7 191.1 188.6 187 185.6 184.2 183.6 183.8 183.5 179.6 179.7 179.1 177.5 176 175.3 179.4 188.1 186.8 185.5 165.2 152.9 147.2 147.4 149.7 150.7 149.7
153.7 153.2 153.7 166.7 173.2 175.5 173.6 175.4 181.1 181.3 175.9 172.6 169.1 159.5 149.8 149.2 148.4 149.8 159.4 168.3 177.6 183.8 188.4 190.9 191.9 192.1 191.8 189.5 184.9 179.7 176.8 174.6 173.6 174 184 191.9 193.1 192.5 192.1 190 190.7 193.3 191.8 198.5 202.6 203.5 203.3 202.5 202.6 203.3 204 204.6 205.3 206.3 207.7 210.9 217.3 220.9 219.9 217.6 213.9 208.8 203.8 200.6 199.4 197.9 196.4 194.7 192.9 193.1 193.6 196.7 196.8 196.6 194.7 192.2 188.2 184.9 179 170.7 165.8 165.5 167.1 164.9 162.9 156.7 155.3 155 155.3 154.6 153.4 152.4 151.6 151.3 152.7 155.7 158.5 160.4 162.3 165.1 165.1 161.1 159.1 157.1 156.2 157.7 159.8 161.9 163.5 163.8 162.1 159.7 157.4 154.8 152.5 149.9 151.1 153.7 153.7 151.8 149 147.2 147 147.1 150.4 146.5 155.2 164.3 164.7 162.1 162.2 163.5 166.2 168.4 169.6 169 166.4 164.4 163.8 164.1 164.9 168.6 170.7 172.7 174.7 174.4 170.7 171.5 175.9 180.4 187.5 194.2 195.8 198.1 207.3 215 215.7 216.4 213 208.8 206 203.1 200.1 196.9 195 194.8 195.4 196.4 196.3 194.8 195.4 194.7 193.1 191.3 189.2 186.7 184.1 182.7 181.7 180.5 179.5 179.1 178.8 177.5 172.8 172.6 170.7 168.8 168.3 173.1 188.6 191.5 174.3 154.4 146.7 146.3 148.6 148.4 145.9 145.4
153.5 153.2 152.8 154.2 162.5 165.4 167.6 169.4 176 179.9 180.3 173.6 167.5 157.1 149.6 149.2 149.5 153.6 158.6 166.6 179.5 191.6 192 194.3 194.7 193.4 189.9 186.2 181.7 178.7 178.2 177.9 177.2 183.3 191.8 195 193.9 191.5 191.3 193.8 196 196.1 190 199.8 200 197.9 197 199.3 200.6 201.6 202.3 204.4 207 209.4 213.2 216.9 219.8 220.4 220.9 217.1 211.9 207.7 205.6 204.3 203 200.5 198.4 195.2 192.9 195.3 199.4 201.3 201.5 200.4 196.6 193.2 190.1 185 175.4 172 167.3 164.2 161.3 159.1 157.4 155.9 154.8 153.5 154.1 153.3 152.6 152.4 152.5 152.3 155.8 160.8 163.1 163.4 165.1 165.4 161.1 158.6 157.4 155.7 157.1 159.3 161.5 163.8 164.1 161.4 159.5 157.6 155.3 153.3 151.8 153.8 157.8 158.4 155.2 150.7 149.2 149.3 148.7 146.9 147.4 153.9 153.1 162.3 164.5 164.1 162.7 163.3 165.6 166.6 166.3 165.5 164.1 163.6 164.5 166.1 167.5 170.3 173.3 175.7 177.1 174 171.7 174.7 180 188.3 204.1 214.6 213 215.2 219.8 219.3 218.7 215.9 210 206.5 203.9 201.3 197.9 195.4 193.2 194.1 195.2 194.4 192.6 192.6 192.6 191.3 189.9 187.4 184.1 181.1 180.1 179.4 178.5 177.2 175.3 173.9 173.5 172.1 169.6 166.8 164.8 162.6 161.9 165.8 175.2 177.6 163.7 145.8 144.6 145.5 143.4 141.5 139 135.4
155.5 154.5 161.2 151.7 152.4 152.4 153.1 162.6 168.6 172.9 172.8 167.3 158.2 150.5 149.7 149.3 150.9 158.3 162.6 170.4 187.8 188.1 193.3 192.5 191.9 188.8 185.8 183.8 181.8 182.9 183.7 183 185 190.8 194.7 196.5 192.5 193 197.9 197.8 197.4 195.8 191.6 194 194.6 194.9 195.5 197.3 198.6 200.1 201.6 204.8 208.6 212.6 214.3 217.5 216.9 216.4 216.6 213 210 209.9 209 207.5 205.1 201.7 196 192.1 194.7 199.9 202.9 204.7 204.8 204.2 198.4 194.5 191 184.5 179 173.4 167.7 164.7 161.5 160.2 159.2 158.1 158.8 158.6 156.2 155.4 154.9 154.7 156.7 158.4 162 165.4 167.6 167.9 164.6 161.2 157.9 156 155 156.3 157.9 160.3 163 163.5 162 159 157.6 155.9 155.9 157 159.3 161.8 163 158.9 154.7 153.7 153.1 150.5 148.5 147.5 153.7 158.7 159.3 156.3 161.3 163.9 164.1 164.2 165 164.1 163.8 163.1 163.5 164.8 166.5 167.1 169.4 172.7 176 178.3 177.2 173.8 174.6 179.1 187.1 204.4 217.6 225.6 227.4 226.9 225 222.1 218.2 212.2 207 204.7 202.5 199.9 196.4 194.2 193 193.9 193.6 191.2 190.5 189.9 188.6 187.5 185.9 181.9 177.9 176.8 176.6 175.9 175.1 174 171.6 169.8 165.7 159.4 162.5 159.6 157.5 156.2 154.8 156.3 160.5 164.1 146.1 141.4 137.6 133.1 131.3 133.4 130.5 125.8
161.4 166.1 165.4 163.2 163 162.6 160.3 151 151.4 159 160.3 151.5 151.5 150.4 148.2 155.6 152.9 159.9 165.6 170.8 179.2 184.3 185.9 187.3 186.6 185.3 184.1 184.8 185 188.2 189.5 185.9 194.3 197.4 197.2 193.6 191.4 194.9 197.3 197.5 196.2 195.7 195.1 193.7 193.5 194.6 195.2 196.1 198 200.9 204.7 207.7 212.5 215.2 215.9 215.2 214.5 214 212.4 209.7 210.8 211.6 210 206.6 203 196.8 194 193.9 197.8 201.4 204.8 206.6 204.9 202.8 199.5 195 191 186.9 180.7 174 168.8 164.7 164.8 165.1 164.3 164.1 163.6 161.4 158.6 158.9 158.6 157.7 159.1 161.6 164.1 167.1 169.2 165.9 160.9 157.4 155.3 155.2 155.8 157.6 159 160.7 162.1 160.4 158.4 157 158.1 159.1 160 161.9 163.9 167.1 163.4 158.3 157.9 157.5 152.5 149.1 146.8 152.7 157.3 161.7 160.3 155.5 158.8 163.3 163.3 163.2 163.5 161.9 162.4 163.3 164.2 165.5 168 168.3 172.1 175 177.5 178.4 176.7 176.8 178.5 184.7 199.6 216.7 225.6 228.2 229.5 227.4 224.6 220.5 214.7 209.1 206.3 203.3 200.9 197.9 195 193.2 193.4 193.1 190.8 189.2 187.7 186.5 185.4 184 180.4 176.1 175 174.2 173 172.1 169.2 168.8 166.4 162.2 157.2 165.8 154.5 152.9 152 151.5 152.3 151.1 147.9 145.6 137.9 135.7 136.9 138.5 136.2 134.4 135.8 137.9
162 166.9 168 166 166.3 165.9 164.9 163 155 149.5 151.5 151 150.5 149.1 158.3 157.7 155.6 155.6 165.8 171.3 177.8 181.9 186.1 187.3 185.6 185.2 186.6 187.8 190.2 193.1 190.9 192 196.6 194.7 193.4 193.2 192.8 195 197.1 198.1 200 199.5 196.6 195.5 195 195.2 196 198.2 202.2 206 209.1 208.8 213.1 214.5 213.9 212.6 212.3 211.7 210.5 209.4 209.3 208.5 206 200.6 195.8 193.6 194 194.3 198.3 200.8 203.4 203.5 202.3 200.6 198.5 195.2 191.9 187.4 181.9 174.8 172.1 169.6 168.3 167.9 167.8 167.8 165.8 163 162.6 160.9 158.7 158.2 160.5 163 165.1 167.3 166.8 161.9 157 154.1 154 155.3 157.1 158.9 159.9 160.8 159.4 157.6 158.8 160.1 160.6 161.8 163.6 165.5 167.7 168.3 163.8 161.4 161.1 155.9 149.7 147.7 149.2 154.6 160.3 165.5 161.6 156.8 156.7 159.9 160.9 161 161.6 161.9 163.5 164.5 165.4 165.9 168.4 171.4 175.6 175.9 178 178.9 180.2 181.6 183.3 193.2 206.7 222.7 226.9 229.2 229.6 227.4 222.9 216.1 210.1 206.6 204.2 201.2 198.3 195.4 193.1 192.9 192.3 190.1 187.3 187.9 185.1 183.4 182.1 179.3 174.2 173.4 173.1 171.6 169.6 167.4 163.5 165.3 166 167.4 169.1 169.3 165.8 163.8 160 155.9 147.1 146.5 144.4 140.2 140.1 147.3 147.7 142.7 141.4 142.9 143.7 141.6
164.8 163.4 169.6 172.4 171.1 170.2 170.5 168.7 165.7 162.1 161.1 153.8 158.4 156.5 161.4 161.5 163.2 159.4 161.5 167.3 175 178.4 182.3 184.5 184.9 186.5 189.8 192.8 195.2 195.4 194.3 194.9 195.5 195.3 195.1 194.6 196 200.8 204.6 206.4 205.3 201.7 198.2 196.4 196.1 196.2 199 205.9 208.4 210.5 211.8 212.2 211.3 210.5 209.6 209.9 210.2 209.6 208.3 207.7 206.6 205.2 200.9 197.1 194.3 194 194 194.1 197.5 199.3 200.9 201 200.1 198.6 197.6 195 191 186.6 182.1 177.5 177.2 174.5 171.9 171.5 171.6 170.3 165.3 166.6 165.4 161.5 158.2 159.9 162.1 164.7 166 166.3 163.1 158.2 156.1 155 154.9 156.4 158.2 159.3 158.6 158.5 157.6 159.6 161.2 162.6 164.3 165.7 167.3 169.4 171.6 169.5 166.3 165.3 159.7 151.3 147.6 146.6 152.3 157.9 163.5 163.3 159 157.7 155.8 158 158.7 160 162.2 165 166.6 167.5 168.4 168.8 168.2 174.2 177.2 177.8 179.2 182.1 184.3 186.1 189.8 199.1 208 221.9 226.8 228.4 227.5 224.6 219.2 212 208 205.2 201.7 198.7 195.7 193.9 192.1 191 189.4 186.7 186 184.9 182.3 180.3 178.3 174.5 172.4 171.8 170.6 168.9 166.9 164.3 167.6 169.2 170.7 171.2 169.8 168.6 165.4 165.4 165.8 162.7 153.3 156 154.8 154.2 153.9 154.8 153.9 148.8 148.1 145.8 142.2 141.8
167.8 165.7 168.7 175.7 176.6 177.9 179 176.9 177.6 175.2 177.2 171.2 167.1 167.4 168.2 168.7 170.9 171.4 167.3 164.7 169.4 175.5 179 181.9 186.1 188.7 193.6 197 198.2 198.2 197.8 198 197.8 197.5 197.1 199.8 205.9 210 210.3 210.1 207.1 203.1 199.9 197.3 197.4 199.9 205.1 209.3 211.1 212.8 215.5 215.4 213.9 211.2 210.2 207.8 207.4 205.6 205 204.9 203.8 202.4 198.8 195.5 193.4 194 193.7 194.2 195.5 197.1 197.7 198.3 198.1 197.9 198.5 196.1 191.2 186.9 182.7 180.9 179.9 178.7 178.3 178 175.6 171.2 169.5 168.1 163.4 159.6 159.6 161.8 163.8 164.9 164.8 163.4 160.8 158.1 157.9 156.4 156.2 157 158.8 159.2 158.2 157.6 159.5 161.6 163.2 165.1 167.5 169.1 170.8 173.2 173.4 170.9 169.1 164 155.1 148.8 145.7 149.9 156.9 160.6 167.1 164 158.8 157.4 157.6 157.7 160 163.8 166.4 168.7 169.8 171.3 173.1 174.1 174 172.5 177.6 180 183.1 185.4 187.3 190.1 196.1 203.2 209.3 219.4 222.7 224.7 223.2 219.4 212.8 208.6 205.7 202.4 199.3 196.3 194.5 192.7 190.9 188.1 186.2 184.3 183.6 181.9 179.8 178 175.7 173.5 172.3 170.6 169 167.3 166.4 168 169.7 171 171.9 170.4 168.8 167.3 168.2 167.6 166.2 161.3 164.5 164 161.8 158.5 156.7 154.9 152.3 149.9 146.7 142.9 141.2 142.4
174.6 171.5 171.9 175.5 180.3 182.1 178 182.4 180.7 178.1 174.7 172.5 173 173.7 175.3 177 178.2 178 171.6 174.7 171 169.9 178.3 184 187.6 192.2 196.1 200.3 200.6 200.6 200.6 200.4 200.5 201.4 203.7 208.8 212.2 213.7 212.7 209.8 206.4 202.5 198.9 198.7 202.4 207.5 210.4 212.3 213.7 216.4 218.1 217.4 215.3 215.2 214.4 212.8 210.8 208.7 206.1 202.9 201.2 199.3 196.3 195.5 195.1 195 195.4 196.8 195.4 195.2 196.1 197.2 198.5 199.2 198.5 196.9 193.6 189.2 185.2 183.9 182.9 182.3 182.9 181.3 176.8 172 170.8 166.1 160.9 159.6 162.3 163 163.7 162.8 162.9 161.8 161.2 161.2 159.4 156.5 158.1 159.1 158 157.9 157.7 159.6 161.6 163.7 165.6 168.2 170.2 171.6 173.8 175.9 175.1 171.7 166.9 158.9 151.1 146.3 147.7 156.5 161.1 160.6 162.6 162.4 159.2 158.1 160 160.6 162.5 167.5 170.5 172.4 173.2 175.3 176.1 177.3 177.1 174.7 179.7 182.7 185.8 188.2 190.3 193.6 200.8 206.4 210.6 213.6 217.8 217.6 215.8 212.1 209.4 206 203.4 200.8 197.4 194.7 193 191.3 188.8 186.6 184.4 182.4 179.4 178.6 175.5 173.4 172.3 171.9 171.4 170.2 168.3 166.9 167.9 169.9 171.5 172.6 171 169.7 169 168.5 168.8 167.5 165.9 164.4 165.8 164.7 161.2 158.6 156.2 153.4 150.7 147.4 143.7 140.9 142.5 142.5
185.9 184 182.5 183.5 186.5 184 185 184.3 180.2 179.8 179 179.2 180.2 181.6 183.1 182.5 181.4 181.7 181.3 182.2 179.8 179.5 173.7 188.4 191.3 195.6 197.9 202.8 203.1 203.2 203.7 204.4 204.5 206.9 210 213.8 214.4 213.4 210.8 208 204.6 205.6 207.2 206.7 204.2 209.7 213.4 216.3 218.4 220.5 220.2 220 220 219.1 217.4 215.9 214.4 212.5 209.4 205.5 202.8 200 198.2 198.1 197.9 197.5 196.4 195.6 194.6 197.3 200 200.6 200.9 201 200.3 198.3 196.2 192.2 189.4 187.1 186.8 185.8 183.3 180.3 174.6 172 166.7 161.8 159.4 162.3 163.4 162.4 162.4 162.4 163.2 163.7 164 160.5 157.9 158.4 160.7 160.7 158.4 158.1 159.2 161.5 163.7 166.1 168.6 170.8 172.9 174.4 177.2 177.2 173 168.8 163.7 155.8 149.6 146.6 152.7 159.4 161.2 161 157.8 156.5 157.1 158.4 162.2 165 168.6 171.3 173.3 175.2 176.6 178.4 178.7 179.7 176.3 179.4 181.7 185.2 188 190.2 193.3 198 203.8 207.4 211 212.7 213.3 213.3 210.9 208.6 206.2 203.7 201.1 198.5 195.8 192.7 191 188.9 186.2 183.4 181.9 179.2 179.7 174.6 173 173.5 172.6 171.4 169.5 168.5 167.6 168 170.1 172.1 173.3 171.4 170.5 170.2 170.1 169.8 168.3 167 165.7 166.8 166.6 163.6 160.5 158.2 155.1 151.8 148.5 144.4 140.9 140.6 141.1 138.2
195.8 194.6 192.2 189.5 187 187.5 186.1 185.8 185.2 185.4 186 186.9 187.8 187.9 186.9 186.1 185.3 185.5 187.4 186.2 175 184.4 174.9 189.5 193.3 196.4 199.9 203.5 205.8 207.2 208.5 209.1 209.5 211.4 212.9 213.8 213.5 211.4 209.1 206.5 205.1 208.7 211 211.9 212.1 213.5 217 219.7 221.5 222.1 222.2 222.6 222.7 221.8 220.7 219.6 217.8 214 211.7 208.2 205.6 203.1 202 201.7 200.2 197.6 194.9 193 194.3 198.3 200.2 200.6 201.8 201.9 199 195.6 192.2 190 188.8 187.9 186.6 182.7 179.1 176.8 172.3 166.2 161.5 159.4 159.8 162.4 163 162.6 162.4 163.7 165 165.6 163.3 159.4 160.4 161.6 161.8 160.5 159.5 159.6 161.3 163.5 166.4 169 171.8 173.8 176.3 178.7 177.6 175 170.8 166.4 161.5 154.6 149.4 149.5 157 160.7 160.2 160.2 157.8 156.7 159.5 161.1 163.6 167.8 172.3 174.7 176.7 179.3 181.1 182.6 182.2 181 180.9 183.4 185.2 188.4 190.1 192.7 197.5 201.8 205.3 208.9 210.7 211.7 212.3 210.9 208.3 206.3 203.9 201.4 198.9 196.4 193.4 190.4 188.4 186.5 184.1 181.6 179.4 177.1 175.5 174 174.3 174.7 174.8 172.3 168.6 168 168.8 171.1 173.2 174.4 172.6 171 170.8 170.9 170.9 169.2 167.8 166.9 167.1 167.7 165.3 162.5 160.1 157.3 153.4 149.7 145 141.2 140.5 140.4 137.6 133.4
201.3 198.4 193.5 190.1 190.1 190.4 188.7 189.3 188.7 189 190.4 190.8 190.6 190 189.6 189.5 190.7 190.9 190.1 175.3 185.5 187.3 178 190.1 194.5 198.3 201.7 205.6 210.9 213 213.7 214.5 216.4 216.3 215.1 213.8 212 209.5 207.5 208.8 209.5 211.9 213.3 213.3 214.1 216.5 220.4 224 224.1 224.4 225.1 225.2 225.3 225.4 225.3 222.6 219.5 216.5 213.3 210.4 208.1 206.2 204.8 202 197.9 194.2 192.2 191.4 193 195.1 196.8 198.8 199.9 197.5 195.1 191.9 190.1 188 186.9 184.6 183.1 181.3 177.5 172.5 167.5 160.7 159.6 158.9 161.2 162.4 162.8 163.1 163.4 165.6 167 165.6 163.7 164.6 164.1 162.1 161.4 161.1 161.2 162.7 164.6 166.8 170.4 173.5 175.1 176.8 179.1 177.9 174.7 171.8 168.4 163.7 157.8 151.8 147.2 147.7 158.8 159.7 158.9 158.3 158.6 159.2 163.2 165.2 168.9 171.6 175 179.1 181.7 183.5 184.9 184.9 183.4 181.2 184 185.8 188.1 190.9 191.8 198 203.6 206 208.7 211.5 210.2 211.3 210.9 208.7 205.8 203.4 201.3 198.7 196.7 194.1 190.9 188 185.9 184.1 181.7 179.5 177.5 175.8 174.8 175.2 175.9 176 174.3 170.5 169.1 170.6 171.7 173.8 175.1 174.1 172.2 171.5 171.8 171.6 170.5 168.7 167.2 167.9 168.9 167.3 164.9 162.5 159.4 155.2 150.7 146.2 141.2 139 138.9 136.9 132.9 128
205.8 202.1 196.9 195.2 194.6 193.7 192.7 192.3 191.3 191.1 191.9 192.7 193.2 194.9 194.1 193.1 192.8 191.5 181.7 184.4 190.2 190.1 184.4 191.2 196.5 200.5 205.5 208.4 213.7 218.8 219.8 220.2 218.8 215.9 213.2 211.4 209.5 208.9 211.4 213 214.1 214.9 215.5 215.2 216.8 220 223.7 224.9 227 227.1 227.2 228.4 228.2 227 224.8 220.9 218.3 216.4 213.4 211.6 208.2 206.7 202.7 197.9 193.4 191 190.4 189.7 190.7 191.9 193.8 196.1 196.9 194.2 191.9 190.2 188.2 186.1 185.1 182.4 180 178.1 171 167.2 165.5 160.4 158.8 158.3 160.4 162.1 162 162.1 164.3 167.1 167.3 167 168.9 168.4 166.2 163.5 162.4 161.9 164 166.1 168.4 171.7 175.4 177.2 178.1 179.1 179.2 175.5 172.5 169.4 165.9 160.4 153.3 147.2 143.2 151.1 159 159.8 159.4 158.5 161.1 163.6 165.5 169.3 172.7 175.7 179.2 182.2 184.5 186.3 187.5 185.3 182.5 184 186.1 187.9 190.2 192.6 196.6 203.2 207.7 209.7 211.2 209.7 209.9 211.3 209.6 206.9 204.1 201.1 198.4 196.4 194.4 191.7 188.5 185.9 183.6 181.8 179.4 177.4 175.9 175.5 175.6 176.4 177 175.4 172.1 169.9 171.4 173.1 174.7 176.5 175.5 173.6 172.6 172.7 172.4 171.7 169.7 168.1 167.9 169.2 168.6 166.8 164.4 161.8 156.8 151.5 146.3 142.1 138.8 136.5 134.6 130.7 125.4 119.8
205.2 204 204.8 202.1 199.4 197.3 195.9 195 194.1 194.3 196.1 197.5 198.5 198.2 195 193.7 192.4 190.9 182.7 186.8 191.1 190.2 191.4 184.8 199.7 203.9 207.9 211.3 215.4 220.6 220.4 217 214.5 212.3 210.9 210.4 212.2 213.5 214.6 215.4 215.7 216.8 218.1 219.1 220.6 223.7 226.6 228.3 229.3 229.8 230.4 230.9 227.5 223.4 220.1 215.7 213.5 212.7 209.8 207.8 204.2 201.8 196.5 190.6 188.1 188.5 188.6 188.4 188.8 189.5 190.6 193.2 194.4 192.4 190.2 188.5 186.3 184.7 183.4 180.9 178.6 175.6 172.8 163.7 161.1 159.1 158.7 158.4 159.3 160.4 160.7 162.1 165.6 167 168.4 173.1 172.3 169.6 167.3 164.8 162.9 166.1 168.2 170.3 172.9 176.6 178.5 179.1 179 178.9 176.5 172.9 168.9 165.5 160.8 154.7 149 143.7 143.4 154.9 159.7 159.6 160.4 161.9 165.2 167 168.6 172.7 175.3 177.8 181.3 184.6 186.9 189 187.7 183.9 184 185.9 188.2 190.1 192.5 195.7 201.6 207.3 209.2 212.4 209.4 208.9 210.5 209.9 207.9 205.2 202.7 199.3 196.4 194.2 192.4 189.7 186.3 183.5 181.4 179.5 177.3 176 175.4 175.7 176.5 177.7 177.2 174 171.2 171.7 173.6 175.8 177.5 176.6 175.2 173.8 173.1 173.8 172.9 171 169.1 167.9 169.4 169.7 168.2 165.9 162.8 158.1 153 147.6 142 139.6 136.7 133.7 127.9 122.2 116.4 111.4
214.7 213.6 211.6 206.6 202.8 200.8 198.6 198.2 200 202.3 202.5 201.3 200 197.4 194.7 193.1 187.8 187.2 189.4 191.2 190.9 193 194.9 192.8 191.3 204.5 208.5 212 216 217.2 214.6 213.5 213.4 212.2 212.5 214.2 216.2 217.1 218 217.9 218.3 222 223.8 223.4 225.1 228.1 229.1 230.3 231.3 232 230.8 228 223.6 219.4 216.6 212.6 211.3 209.9 208.2 205.4 201.2 196.4 189.8 188 187.6 187.3 187.1 188 188.3 189 190.2 191.9 190.7 188.2 187.2 186.3 184.6 183.3 181.7 179.6 176.9 174.4 171.4 164.5 162.4 159.4 158.1 158.3 158.9 159.5 160.3 162.9 166.5 169.5 173.4 175.3 172.7 168.8 166.8 165.2 167 170.9 174.5 174.8 175.9 178.4 178.9 178.7 178.1 178.1 175.2 169.8 164.4 160.1 155.3 150.3 145.4 142.9 143.3 157.8 161.3 160.3 160.1 161.5 164.1 169 173.1 175.3 177.4 179.4 182.7 186.2 189.5 189.8 185.9 185.7 186.2 188 189.7 191.8 194.6 200.3 206.5 210.7 210.7 211.3 208.8 209.5 209.6 208.5 206.7 203.7 199.5 196.2 194.1 192.1 190.1 187.8 182.9 180.5 179 177.6 176.3 175.6 176.3 176.7 177.5 178 175.7 172.6 173.2 174.6 176.1 178.3 179.2 177.4 175 174.4 175.1 174.4 172.3 170.1 168.2 169.1 170.4 169.8 167.2 164.3 160.1 153.3 147.8 142.8 138 136.3 132.7 128.3 123.5 118.2 112.1 106.9
218.6 215.3 211.9 207.4 206.8 206.4 205.4 206.5 206.7 206.6 204.2 202.1 198.2 195.3 193.7 191.4 191.7 190.7 192.2 192.1 193.4 196 199 200.3 194.9 205.6 204.1 209.3 211.8 212.6 212.9 213.4 213.7 213.2 215.7 217.1 218.5 220.3 221 221.5 223.9 225.9 227.1 227.9 229.7 230.9 231.9 232.6 233.7 231.7 228.3 224.7 221.9 217.4 214.6 211.1 209.2 208 204.9 202.9 198.7 195 189.1 187.1 185.9 185.5 186.1 188.4 188.5 189.7 191.1 190 187.5 185.7 184.7 183.6 182.4 181.3 179.5 177.4 173.8 171.9 168.8 165.5 162.3 159.9 159.7 161.3 163.8 163.1 162.8 163.2 167.6 171.2 173.9 173.9 171.1 167.8 166.9 167.5 172.6 175.5 178.5 178.6 178.9 178.6 178.9 177.8 177.1 175.9 169.7 165.3 161.4 156.5 152.2 146.3 143.3 143 146.6 160.2 162.8 166.5 164.4 163 164.1 169.4 174.7 177.2 179.2 181.3 183 186.3 190 188.2 187.2 188.4 190.7 188.3 192.2 194.4 199.3 205.4 209.1 210.4 210.7 208.3 209.6 208.3 207.6 207.1 204.9 200.9 196.1 193.4 191.4 189.3 186.9 184.3 181.4 178.7 177.2 176.3 176.3 176.3 177 177.7 177.6 176.6 173.8 174.3 176 177.7 179.3 179.8 179.4 178.5 177.1 176.2 176 173.6 170.8 168.8 169.2 170.3 171 169.1 166.6 162.4 154.9 147.6 142.1 136.5 132.5 131 127.2 121.6 116.4 111.4 106.8 101.8
219 215.7 215.2 214.1 212.7 212.5 212.4 211.6 210 207 203.2 201.3 200.1 200.3 199.7 198.8 196.5 195 194.9 197 200 202.5 204.3 204.6 207.3 208.8 212.1 212.6 212.6 212.7 213 213.5 214.2 216.2 218.1 219.7 220.6 222.3 223.2 226.5 228 229.3 231 231.7 233.5 234.3 234.4 234.9 231.5 228.5 225.1 222.9 220.2 216 213.7 210.6 208.1 205.6 203.1 201 198.5 192 187.7 186.3 185.2 184.9 185 187.1 189.2 190.7 189.9 187.2 185.6 184 182.6 181 179 176.3 175.7 173.1 168.2 164.1 166.6 165.5 161.3 162.6 165.7 167.1 168 168.8 168.2 166.3 168.6 171.6 172.5 170.2 168.4 167 167.8 172.4 176.5 179.2 181.1 180.4 180.1 179.8 178.4 176.6 175.1 170.1 164 161.6 157.7 154.6 149.4 145.2 142.7 142.7 154.5 162 163.1 168.9 168.1 165.8 169.1 172.7 175.5 178 179.9 181.8 183.5 185.2 188.3 190 190.7 192 191.8 190 194 198 202.4 207.8 209.8 210 208.1 206.7 206.7 206.2 206.7 205.3 202.2 197.7 193.3 190.7 188.6 186.3 183.7 180.9 178.9 177.4 176.4 176.1 176.8 177.1 177.6 178.1 177 174.9 175.3 177 178.4 180 180.1 179.4 178.8 178.3 178 177.3 175.5 172.8 170.6 169.9 170.4 171.4 170.1 167.9 164.5 157.5 150 142.9 138.2 133.2 128.5 123.7 119.8 114.5 107.5 103.9 99.4 96.4
220.9 221.2 220.8 218.8 217.8 217.2 215.6 213.5 210 205.8 202.9 201.4 202.5 202.8 203.2 202.1 199.3 199.4 202.9 204.2 207.6 209.9 213.5 214.9 215.6 207.3 215.1 214.7 214.7 214.3 213.9 213.9 215.7 218.8 220.6 222.2 223.4 225.6 228 230.1 231.2 232 232.1 232.5 234.5 234.4 235.2 231.6 228.3 225.6 222.9 221.3 218.9 215.9 212.1 209.1 207 204.4 201.5 199.7 198 196.2 187.2 185.6 185.1 184.7 186.1 187.9 189.7 189.1 186.8 184.2 182.8 181.5 179.9 178.2 176.1 174.6 171.8 166.3 161.9 161.8 165.4 163.8 163.9 165.9 168.2 169.8 170.7 171.2 171.6 170.6 171.1 171.5 171.4 170.5 169.1 168.1 171.3 176.6 179.7 182.1 182 181.5 181.1 179.2 176.5 174 169.3 163.6 159.8 157 153.2 150.1 142.8 143.4 143 150.2 160 162.8 163.7 167.8 168.2 167.2 170.2 172.9 175.6 178 180 181.5 183.6 186.1 190.7 192 194.2 193.5 190.4 192.3 196.2 201 205.3 208.4 208.7 207.7 207.5 206.1 205.3 206.1 205.2 203 198.7 194.8 191.9 188.6 185.2 182.7 180.4 178.4 177.6 176.6 176.2 176.6 177.2 177.9 177.8 176.8 175.9 176.6 177.9 179.1 180.3 181.1 180.7 180.2 179.1 178.5 178.2 176.9 175.2 173 170.7 170.4 170.1 170.4 166.6 162.8 157.3 151.8 146.2 139.9 134.3 129.6 124.8 118.9 112.5 105.8 100.7 97.8 94.2 91.1
227.8 226.8 225.4 222.8 221.9 219.6 217.5 214.8 211.3 206 202.8 202.6 204.4 205.5 205.7 205.7 206.5 207 210.7 211.6 215.2 217.9 220 221.1 221.5 215.2 217.4 218.1 220.9 220 218.3 216.2 219.4 222.4 224.8 225.9 226.1 227.8 231.1 233.7 234.8 233.6 232.3 234.1 235.1 235.4 235 230.1 226.9 223.9 221.7 220.2 217.6 214.8 210.5 207.4 205.4 203.6 200.6 197.9 196.1 195.8 189.1 185.8 185.4 184.5 187.1 188.4 187.9 185.9 183.6 178.9 178 177 175.8 176.7 173.1 169.8 168.5 163.9 160.4 160.3 163.3 164.7 167 168.3 171 172.3 172.6 173.3 174.2 174.5 174.5 174.3 173.2 171.5 170 170.6 176 179.5 182.3 183.7 183 182.1 181.1 177.8 174.3 169.7 163.3 159.2 156.1 153.8 148.9 143.9 143.4 142.7 143.5 154.8 160.2 162.2 162.8 163.5 163.9 166.8 170.4 172.5 175.4 178.2 180.3 181.9 184.2 186.3 189.8 193.1 195.4 191.4 190.2 194.2 198.8 202 204.7 206.8 206.6 206.6 206.2 204.3 205.8 204.2 202.3 200.2 196.6 193.2 189.7 185.9 182 179.6 177.9 177.4 176.4 176.4 176.7 177.1 177.7 177.5 177 176.1 177.1 178.7 179.6 180.5 181.5 181.9 181.4 180.2 179.4 178.7 177.6 175.8 174.2 172.8 171 169.7 169 166.4 162.5 158.3 152.8 147.8 143 135.5 129.9 125 118.7 112.5 106.7 100.7 95.6 92.8 89.5 87.8
231.5 230.2 228.8 226.9 226 223.8 219.8 215.6 211.3 205.7 203.3 203.8 206.2 207.9 208.5 208.7 211 212.5 216.1 219 220.5 222.5 223.9 225 224.3 221.6 220.8 222.2 222.8 222.7 223.2 225.5 227.1 228.2 228.5 229.5 229.8 230.6 233.3 237.2 235.3 232.5 232.3 234.1 234 232.2 230.3 227.5 224.7 222.4 220.7 218.3 215.4 212.9 209.4 205.9 203.7 201.8 200.6 197.4 195.7 194.9 190.2 186.7 187.3 186.8 186 186.5 176 177.4 172 170.5 174.4 174 176.3 173.3 170.8 169 166.8 163.8 160.1 162.1 165.6 167.8 170.8 173.7 174.9 175 175.8 176.5 176.5 176.7 176.7 176.3 174.4 172.3 171.9 173.8 179.2 182.1 183.5 184 183.4 181.2 178.3 173.7 168.5 161.7 157.9 155.5 153.2 149.4 143.4 141.8 144.3 146.2 148 155 158.5 161.2 161.6 161.6 160.9 164.9 168.8 171.8 175.1 178.6 180.3 183.2 185.2 187 189.7 193.6 191.3 190.2 191 195 198.5 201 200.8 203.1 205.1 204.8 205 205.3 203.1 201.1 199.1 197 193.9 190.8 186.9 182.8 179.3 177.6 176.9 176.3 176.5 176.8 177.1 177.6 177.3 176.8 176.1 177.3 178.7 180 180.6 181.5 182.2 182.6 181.1 179.6 178.8 177.7 176.5 175.4 173.9 172.8 169.9 168.3 166 162.9 158.7 154.6 149.4 143.1 138 130.8 124.9 116.1 110.8 104.4 98.6 94.1 91.1 88.8 86.6 85.8
232.9 232.5 232.1 231 227.8 223.2 219.2 215.7 212.6 206.3 206.4 207.5 209.4 211.1 211.8 212.9 214.9 217.5 220.3 222.9 225.3 226.6 227.1 226.8 224.7 218.3 223.1 223.7 224.6 225.4 226.6 228.6 230.5 232 232.4 232.9 233.6 235 237.5 237.2 235.9 232.2 232 234.5 232.8 229.6 228.2 226 223.7 221.3 218.6 216.6 214.4 212.7 207.8 204.8 202.3 200.1 198.5 195.2 193.2 192.8 189.8 188.2 189 188 184.2 179.3 185.3 183.6 180.8 176.6 170.2 172.8 171.8 170.7 168.9 167.3 165.4 162.2 161.7 164.6 166.9 169.7 172.4 176.7 178.8 178.4 178.9 178.5 178.5 178.6 179.5 177.9 174 172.2 173.4 177.1 180.6 183.1 184.1 184.3 182.4 179.1 174.7 167.5 160.8 156.5 154 153 149.7 142.6 140.7 144.5 146.5 147.5 148.2 154.3 156.6 159.2 159.3 160 160.4 163.3 167.3 171 175.9 179.6 181.5 184.6 186.4 188.4 190.5 191.7 190.5 190.5 193.2 195.3 197 197.7 198.4 199.8 202.2 202.6 203.9 204.2 200.2 198.1 195.2 193.2 191 187.5 182.8 179.2 177.3 176.6 176.2 176.5 176.9 177.2 177.5 177.2 176.6 176.1 177.1 178.7 180.2 180.8 181.4 182 182.8 181.8 180.5 179 178.2 177.6 176.7 175.1 173.3 170.6 167.2 165.9 163 159.2 155 150.2 145.2 139.2 131.1 124.8 117.6 109.4 103.2 98.9 94.4 90.3 87.3 85.6 83.9 82.2
236.4 236.2 235.7 231.6 226.1 221.9 219 215.9 211.6 208 210.6 215.5 216.7 215.4 215.7 215.8 217.2 219 223 226.4 228.7 229.3 228.8 227.2 225.4 222.9 224.6 225.5 226.5 227.6 229.2 231 232.9 234.8 235.8 236.5 236.5 239.6 240.1 238.9 236.9 233.1 229.7 230.7 229.8 227.7 226.1 224.3 221.8 220.1 217.6 215.7 213.6 211 208 204.1 201.4 199.6 197.7 195.8 189.7 189.3 188.9 190 189.7 185 185.2 186.2 184.5 181.7 178.6 172.8 168.5 170.3 169.7 168.9 167.3 165.8 163.7 159.6 162.2 165.3 167.7 170.6 173.8 177.4 181.1 181.9 181.6 181.2 181 181.8 181.3 178.7 174.9 172.2 174.2 177.4 180.4 182.9 184 182.5 179.5 174.9 168.1 159.6 154.9 153.1 153.7 150.8 144.4 140.9 140.5 141.2 143.5 143.4 147.8 153.8 156.1 157.1 158.4 159.7 160.3 161.6 167.3 172.6 177.6 182.3 183.5 186.2 188.1 190.5 191.2 191 190.4 191.5 193.6 195.3 195.9 196 197.4 198.5 200.9 202.8 204.1 201.7 197.8 195.6 193.4 191.2 188.9 185.2 179.6 177.8 176.5 176.1 176.9 177.5 177.5 177.8 177.6 176.7 176.1 176.6 178.6 180.3 181.2 181.7 182.2 182.7 181.4 179.4 178.8 178.7 178.1 177.5 175.7 174 171.6 169.7 166.4 163.7 160.4 155.6 151.4 145.9 140 133.2 124.7 117.5 109.4 102.1 98 94 90.5 87.5 85.4 84.7 86.1 85.8
240.7 239.9 238.2 233.5 226.9 221.8 219.2 212.3 212.2 218.8 223.8 223.4 221.5 219.9 219.4 219.1 219 222.2 226 229.3 231.3 231.6 230.4 229.3 227.7 224.8 226.3 227.3 228.4 229.9 231.5 233.1 235.1 237.4 238.7 239.9 241.4 242.9 242.2 240.1 237.7 234.1 230 227.4 226.9 226.3 225 223.5 220.9 218.9 217.1 215.2 213.2 210.8 208.1 203.3 200 198.7 197.3 193.5 190.2 190.6 191.4 190.9 187.1 183.4 190 187.2 183.1 180 176.1 169.4 167.1 167.5 168 167.2 165.9 164.4 160.9 158.9 162.5 165.8 168.1 170.8 173.9 178.2 180.5 184.3 184.3 183.9 183.6 183.3 181.1 179.3 176.4 173.1 172.8 175.8 178.9 181.5 181.3 179.8 174.3 166.6 159.4 154.4 152.7 155.1 153.4 145.4 142.1 142.6 143.7 142.9 141.4 144.6 147 153.1 155.4 157.9 159.9 161.5 165.7 165.4 168.3 176.9 180.7 184.8 186.8 187.8 190 190.6 190.8 191.1 191.6 193.6 194.5 194.7 194.6 195.8 196.8 199.4 201.2 201.8 200.7 199.1 196.5 193.7 191.8 189.8 187.4 184 178.1 176.8 176.3 176.9 178.2 178.7 178.4 178.1 177.2 176.3 176.5 178.4 180.1 181.3 182.2 182.6 182.8 181.7 178.8 178.3 178.6 178.6 177.7 176 172.5 170.2 167.5 166.4 163.8 160.6 157.4 151.6 146.5 140.3 131.5 123.3 114.1 106.8 102 95.8 92.4 89.7 87.6 85.7 85.1 87.7 89.9 89.2
