ncols 200
nrows 82
xllcorner 300000
yllcorner 834250
cellsize 50
282.7 281.4 276 274.4 274.5 275.1 275.7 276.5 280.9 284.7 290.3 299.5 305 305 299.6 294.9 294.6 294.1 298 300.2 302.9 305.5 310.3 314 317.5 320.2 322.3 323.8 325.4 326.5 327.6 331.8 336.5 343.8 351.9 359.4 365.7 364.9 358.9 348.7 344 339.6 335.7 332.3 329.5 327.2 325 324.1 323.4 322.8 322.3 321.9 321.6 321.2 320.8 319.7 317.7 318.1 318.8 319.4 320.1 320.7 320.3 319.4 318.7 318.3 317.8 317.3 315.4 313.8 313.6 313 312.7 314.2 314.8 315 315 313.9 314 315.6 316.8 317.5 318.1 318.6 319 319.8 320.5 321.3 321.3 321.1 320.4 320.7 321.2 320.9 322.6 325.8 328.8 332.6 335 338.9 341.5 344.3 347.6 350.9 354.2 357.8 361.3 364.8 367.7 370.7 374.9 379.3 384.8 390.5 395.6 400.6 406.4 412.7 417.1 423.2 429.2 435.8 443 449.4 456.1 465.7 473.9 483.8 493.3 498.5 502.2 505.8 507.8 508.1 507.5 506.4 504.8 501.9 498.3 493.8 488.8 484.4 480.6 476.3 470.6 464.7 458 451.7 443.6 436.7 428.8 421.5 415.9 409.1 404.7 399 393.2 387.1 381.6 375.8 369.3 362.9 358.6 353.9 348.6 343.5 328 325.1 325.6 319.1 319.6 312.1 309.2 306.2 303.5 311 316.2 320.2 321.4 327.9 331.2 352.3 367.1 381.5 388.6 391.7 393.4 398.4 402.7 405 412.8 419.7 427.5 433.4 438.7 443.4 444.4 446 447.5 449
283.4 283.5 281.3 274.3 274.9 275.2 275.6 281.2 286.4 286.3 289 300.6 308.2 304.9 299.2 294.2 296.6 299.7 299.4 297.5 303 304.5 309.7 313.6 317.2 320.1 321.9 323.3 324.2 325.3 326.5 330 334.2 341.2 349.5 360.2 366.5 363.6 357.5 348 340.5 336.6 333.7 331 327.8 325.4 324.5 323.5 322.8 322 321.2 321.1 320.7 320.2 319.8 319 315.8 318.9 318 318.2 319.3 319.8 319 318.1 317.3 316.5 315.8 315.2 313.9 313.5 313.2 312.6 314.3 314.5 315 315.4 315.4 314.4 315.1 315 315.4 316.4 316.7 318.1 319.4 320.2 320.9 321.7 322.1 322.2 322.5 322.6 322.8 323.6 324.4 327 331 334.4 336.4 339.8 342.3 345.2 348.5 351.8 354.8 358.1 361.6 365 368.4 371.6 375.8 380.4 385.7 391.5 396.9 403.1 408.4 414.7 418.7 423.1 429 435 441.9 450.1 459.5 467.5 475.5 486.5 498 503.8 507.9 511.5 512.9 513.2 512.1 509.8 507.8 504 499.9 494.5 491 485.5 480.4 476.2 470.5 464.3 457.3 450.1 441.9 433.1 425.8 420.6 415.3 408.9 401.7 397.8 393.2 384.3 374.6 371.2 364 359.1 354.6 351.1 347.4 338.8 331.4 325.8 322.9 320.7 315.4 319.5 316.3 313.1 303 300.2 308.1 310.9 316.4 313.2 331.9 347.7 361.3 370.5 380.8 386.5 387.4 390.4 393.1 393.4 393.8 401.2 413.8 422 426.2 429.5 432.7 436.1 437.5 439.8
283.2 282.6 280.8 275.3 273.4 274.8 276 281.9 289.8 291 289.8 302 309.2 305.5 298.7 297.1 301.2 303.4 302.2 299.7 305.2 305 309.4 313.2 316.8 319.9 321.4 322.6 322.7 323.7 324.9 328 332.1 339.4 347.8 358.6 364.6 359 353.8 344.6 336.8 332.6 329.8 327.2 325.9 325.3 324.3 323 322.1 320.6 320 319.8 319.7 319.5 319 318.1 316 318.5 317.2 316.9 318.1 318.6 318 317.4 316.4 316.1 315.4 314.3 313.4 313.2 312.7 314.5 314.7 315 315.2 315.6 315.8 315.2 315.9 316.6 316.1 315.5 316.6 318.4 319.8 320.7 321.5 322.2 322.9 323.2 323.3 323.5 323.6 325 326.9 328.7 329.7 335.4 338.3 340.7 343.1 346.1 349.4 352.6 355.6 358.6 361.9 365.6 369.2 372.8 376.7 381.2 386.7 393.2 399.6 405.3 410.4 415 419.5 424.1 430.1 436.2 444.1 451.6 460 468.5 476.3 488.3 501.4 508 512.2 516.1 517.9 517.8 515.5 512.6 509.1 505.1 500.5 495 490.2 485.6 479.2 474.2 469.1 462.7 455.9 446.7 437.3 431.6 425.1 421.6 416.5 411.1 406.1 401.9 397.6 389.5 378.8 370.1 360.9 358.1 354.5 343.1 339.9 333.8 329.3 325.4 323.2 323 320 322.5 322.2 314.9 310.6 300 300 301.3 307.5 312.9 332.9 343 355.3 365.3 369.3 373.4 376.8 381.8 384.5 390.2 396.9 394.6 395.8 409.7 414.7 419.8 422.8 425.7 426.7 430.6
279.9 281.2 277 274 273.5 274.9 276.2 282.1 288.5 290.5 290.2 303.5 308.6 303.6 301.5 302.9 306 304.9 303.8 303.1 305.5 304.8 308.7 312.5 316.3 319.6 321.2 321.5 321.6 322.3 323.4 326 330.1 337 345.7 356.9 358.1 353.9 345.9 340.3 334.9 329.8 327.1 324.7 324.1 323.7 323 321.9 320.6 319.2 318.8 318.6 318.4 318.4 317.9 315.8 316.7 317.4 317.8 317.1 317.9 318.1 317.5 316.3 315.7 315.4 315.1 314.2 313.2 312.8 314.7 314.9 315.1 315.4 315.6 315.9 316.2 316.1 317 317.6 317.5 317.4 316.4 318.6 320 321.3 322 322.7 323.4 323.8 324.2 324.3 324.9 326.5 328.4 332.3 335.3 336.4 339.1 341.6 344 347 350.2 353.4 356.4 359.7 363.3 367.1 370.7 374.3 378.1 382.3 388.2 394.2 400.6 407.6 412.1 416.1 420.5 425.2 431.2 437.3 444.8 454.6 462.8 470.8 478.5 491.7 503.1 511.9 519.4 522.8 524.1 522.6 519.3 516.4 511.3 507.3 500.5 494.6 490 483.6 478.9 472.4 467.9 461.8 454 445.1 438.8 433.5 429.3 424.6 419.6 413.8 409 405.4 401.1 396 383.4 371.8 367.7 362.4 356.6 348.7 339.3 334.8 330.6 325.3 320.9 324.9 320.9 323.5 320 315.8 312.6 310.2 297.6 295.2 298.8 306 324.3 336.3 347.2 356.6 360.2 365.2 369 372.6 375.3 381 387.8 393 396.4 387.6 394 406.3 412.8 412.6 415.2 420.3
278.7 277.8 275.7 274.9 273.7 274.6 276.4 283 286.9 289.1 293.7 304.7 306.9 305.3 306.6 309 308.3 306.5 305.5 304.6 305 304.6 308.2 312 315.9 318.8 320 320.2 320.3 320.7 321.7 324.1 328.2 333.3 342.5 355.2 352.7 347.7 341.8 337 332.2 327.3 324.3 323 322.6 322.1 321.5 320.5 319.3 318.6 317.1 317 317 316.7 315.5 316.5 317.3 317.6 317.6 316.9 317.2 317.6 316.6 315.4 315.1 314.8 314.4 314.1 313.1 313.6 315.2 315.6 315.8 315.9 316.1 316.3 316.5 317.5 318.6 318.5 318.3 316.1 316.8 319.1 320.5 321.7 322.5 323.2 323.9 324.3 324.7 325.1 326.4 328.1 330.8 334.3 337.5 339.6 339.3 342.1 344.6 347.8 351 354.2 357.5 361 364.6 368.4 372.2 375.8 379.5 384.2 389.7 395.7 401.8 408.1 413.1 417.3 421.6 426.3 432.8 440.3 448.7 456 464.6 472.5 480.8 493.6 506.9 517.1 525.4 530.9 531 527.7 524.1 520 512.7 507.1 502.1 495 490 484.3 478.9 472.4 467 461.5 455.3 448.4 442.1 438.3 433.4 428.5 423.8 418.2 411.4 407.4 402.9 394.3 384.6 372.7 370.4 366.3 356.9 349.8 344.4 339.4 335.5 328.2 322.9 317.8 316.3 324.4 323.4 318 314.9 310.3 306.5 299.6 293.2 295.8 310.2 322.7 332.7 342.6 347.2 350.8 356.9 361.1 365.3 371.7 378.7 385.5 390.2 394.9 385.7 390.1 398.8 401.3 406 412.3
278.8 277.2 276.5 275.4 274.6 274.5 276.5 281.9 285.6 289.8 297.5 304 305.7 307.5 310 310.6 309.4 307.7 307.1 306.1 307.4 304.7 307.8 311.7 315.6 318 318.4 318.6 318.8 319.1 320.1 322.2 325.6 330.5 338.5 347.6 346.1 342 339 332.6 329 322.6 320.4 320.7 320.7 320.2 320 319.9 319.1 318.4 317.6 315.6 314.9 315.3 315.4 317.4 317.5 317.6 317.4 317 316.6 316.4 315.2 314.7 314.4 314.1 313.8 313.5 313 315.1 315.7 316.1 316.5 316.8 316.9 317 317 318.9 320.4 319.7 318.6 317.1 318.7 318.7 320.9 322 322.8 323.6 324.4 325.1 326.1 327.1 328.5 330 333.5 336.6 339.7 340.8 339.6 342.2 345.5 348.7 351.9 355.3 358.8 362.4 365.9 369.6 373.4 377.3 381 386.2 391.6 397.2 403.4 408.9 413.6 417.9 424.6 429.9 435 441.3 449.7 458.2 467.8 477.4 486.1 498.6 511.4 524.8 532.2 537.3 536.8 533.2 527.4 521.6 514.4 507.6 502.6 495.8 491.2 485.6 481.3 475.5 470.3 464.7 458.4 452.6 446.2 442 438 431.8 427.2 422 418.3 410.9 404.5 398.8 391 378.4 369.8 364.4 357.6 350.5 346.9 341.2 334.1 325.2 331.9 327.6 324.7 312.7 321.7 317.6 315.7 313.6 309.9 303.5 295 290.8 300.7 303.8 315.6 331.2 338.8 344.3 342.3 348.1 354.8 364 371.2 378.5 382.6 386.2 388.7 377.9 389.3 390.3 399.6 408.8
278.7 276.3 275.7 275.5 274.1 274.6 276.6 282.4 287.4 292.9 298.4 305.2 307.8 309.9 311.2 311.7 310.5 309.2 308.3 306.8 307 303.4 307.6 311.6 314.8 316.7 316.9 317.1 317.3 317.5 318 319.2 321.8 326 331 336.1 339 338.2 333.5 327.9 322.4 318.7 318.8 318.9 319 319.3 319.4 319.3 319 318.6 317.7 316.8 314.8 314 315.9 317.3 317.5 317.8 317.6 317.5 317.3 316.6 315.5 314.5 314.3 314 313.8 313.5 314 315.6 316.1 316.6 317 317.4 317.8 317.9 319 321 321.2 320.2 318.8 317.7 319.4 319.9 320.8 322.7 323.7 324.8 325.9 327.2 328.1 329.1 330.7 332.4 336.4 339.5 341.5 343.5 342.5 343.1 346.4 349.4 351.6 355.3 359.9 363.7 367.2 370.7 374.6 378.5 382.6 388.1 393.6 399.1 404.6 409.7 414.7 420.3 426.7 432.1 437.1 443.3 452 461.1 470.5 481.7 491.6 502.8 517.5 529.8 536.3 541.6 539.8 535.5 529.9 523.6 516.8 510.3 503.5 498.6 493.8 488.7 483.3 477.7 472.5 467 461.4 455.3 450.2 445.7 442.1 436.3 431 425.9 421.7 416.5 407 397.6 392.9 381.8 368.2 363.2 358.8 350.8 346 337.2 334.5 339.9 338.8 335.5 329.9 323.8 312.8 318.2 314.8 312.9 309 300.9 297.6 288.2 287.9 289.1 298.7 312.2 325.4 332.8 328.3 338.7 347.8 357.6 366.2 372.5 375.9 378.3 379.4 378.9 371.9 383.4 394.4 404.5
278.6 276.7 276.4 275.5 274.1 275.8 278.8 283 289.1 295.1 300.6 305.8 309.4 310.9 312.2 312.6 311.6 310.6 309.1 308.3 307.9 305.6 307.7 311 313.6 315.3 315.5 315.7 316 316.1 316.2 316.5 318.2 322.2 324.8 326.1 328.2 328.7 324.5 320.7 316.1 317.1 317.6 317.7 318 318.7 318.9 318.8 318.4 318 317.6 317 315 313.6 316 316.6 317.7 318.4 318.5 318.4 318.3 317.7 316 315.2 314.5 314.2 314 313.7 315.2 316.1 316.6 317.2 317.6 317.9 318.3 319.1 321.2 323.1 321.9 320.7 319.6 318.5 319 320.7 322 323.8 325.3 326.6 327.6 328.9 330.2 331.2 332.8 335 339.4 343.1 345 346 345.5 344.1 346.5 348.7 351 355 359.6 364.2 368.6 372.1 375.8 379.7 385 390.4 395.9 401.2 406.2 411.5 417 423 428.8 434.2 439.3 445.9 455 463.7 473.8 485.2 494.7 508 523 531.5 538.8 543.8 540.9 536 529.8 524.1 517.6 510.5 504.7 500.2 494.9 489.7 484.8 479.8 474.7 469.2 463.7 458 454.3 450.1 444.9 440 435.4 431.1 424.5 417.5 410 401 392.9 384.1 369.2 367.1 358.6 349.7 344.3 337.7 345.1 346.4 346.1 343.1 337.9 326.1 307.1 304.4 311.5 308.8 304.9 307.1 303.9 299.3 286.1 284.2 285.3 294.2 304.4 306.1 307.6 327.2 341.7 351.7 360.1 364.8 367.1 368.2 367.9 362.8 360.2 377.8 389.4 399.3
278.7 277.3 277.1 274.4 276.2 276.4 279.7 284.5 290.9 296.4 301.7 306.8 310.6 312.6 313.4 313.4 312.8 311.9 310.8 309.6 308.5 306.4 307.7 310.3 312.3 313.9 314.2 314.5 314.7 314.8 314.8 314.9 315 317.6 319.2 318.9 319.2 319.3 318.3 316.2 313.5 315.1 316.3 316.4 317 317.6 318.3 318.2 317.8 317.4 316.9 316.3 315 312.7 314.5 316.8 317.9 318.8 319.4 319.3 319.2 318.4 316.6 314.9 314.8 314.4 314.1 313.7 315.8 316.6 317.1 317.6 318.1 318.6 319.5 321.4 323.7 324.9 323.7 322.1 320.7 319.1 318.9 321.5 323.4 324.9 326.3 327.8 329.3 330.5 331.9 333.3 334.8 337.9 342.2 345.5 347 347.6 347.4 345.1 347.4 349.9 351.3 355 359.5 364 368.5 373.1 377 382 387.1 392.5 397.9 403.2 408.1 412.9 418.4 424.5 430.5 436.1 441.4 448.8 457.1 466.4 477.3 488.1 499.8 512.3 525.4 535 540.3 542.9 539 535 529.4 523.4 516.4 509.6 505.3 500.3 494.8 488.6 483.8 478.6 472.4 468.1 463.8 459.4 455.1 450.1 445.6 440 437.2 433.1 425.4 419.1 410.9 402.1 394 384.5 373.2 358.9 355 349.9 341.1 347.9 350.5 351.5 350.4 347.2 341.5 332.8 325.6 320.7 310.9 305.8 301.5 294.6 293.4 290.2 288.6 283.2 282.6 281.6 282.3 289.5 299.2 321.9 337.5 346.1 351.5 353.3 354.1 356.7 355.2 343.8 362 372.6 383.5 392.8
278.7 277 275.1 275.3 276.3 278.8 280.1 284.1 292 298.3 301.9 307.7 311.6 313.6 314.1 314 313.6 312.5 311.4 310.2 309 306.4 306.9 309.7 311.7 312.6 313 313.3 313.4 313.4 313.5 313.5 313.7 313.8 313.7 314.4 314.5 313.8 312.9 311.9 311.4 313.2 314.8 315.3 315.9 316.6 317.2 317.5 317.1 316.5 315.9 315 312.4 312.6 315.7 317.1 318 319.1 320 320.1 320 319.2 317.4 315.6 315.1 315 315 315.1 316 317.1 317.7 318.2 319.3 320.1 321.3 323.7 326.1 326.3 325.2 323.6 322.3 320.8 319.1 322.3 324.4 325.9 327.4 329.1 330.9 332.6 334 335.2 336.5 340.7 345 348 348.2 348.8 348.9 347.2 348.7 349.8 351.6 355 359.5 364 368.5 373 376.8 382.7 388.4 394.6 399.7 405.3 409.8 414.4 419.4 425.3 431.9 437.4 443.7 451.4 459.2 469.6 480.7 491.4 503.8 514.8 527.2 537 540.5 540.2 536.8 532.7 526.9 519.8 513.4 507.3 503.5 498.5 492.7 486.7 480 474.5 469.3 464.9 460 455.7 452.5 449.5 444.1 438.8 433.5 431.6 425 418.7 409.9 401.1 392.2 381.4 369.6 360.4 353.1 345.7 351 352.8 356.7 361 354.7 349.2 341.9 335.4 331.4 329.7 322.7 315.7 311.5 309.3 303.4 296.6 293.4 288.3 281.7 280.2 279.8 281.8 291.4 317.6 332.4 340.4 344.8 346.3 345.9 343.9 343.9 340.2 354.5 364.6 378.2 387.3
278.9 276.6 274.7 274.9 277.1 278.4 279.9 283.9 292.1 298.9 303.8 308 312.4 314.5 314.9 314.6 314.1 313.1 312.1 310.9 309.5 306.5 308.1 309.5 310.4 311.2 311.7 311.9 312 312.1 312.2 312.4 312.6 313 312 310.7 310.8 310.3 310.2 309.3 309.8 311.4 312.5 313.8 314.4 315.2 315.9 316.1 316 315.1 314.1 311.8 312.4 313.2 316.5 317.9 318.6 319.3 320.2 321 320.6 319.8 318.2 316.3 315.7 315.6 315.6 315 315.8 317.4 318.8 319.9 320.9 321.7 323.9 326.5 329 328.4 326.4 325.1 323.7 322.3 319.8 323 325.6 327.4 329.2 331 332.9 334.7 336 337.1 338.3 342.7 347.3 349.6 349.6 349.7 349.6 347.6 348.4 350.1 352 355.1 359.6 364.1 368.5 372.4 378.3 384.2 390.4 396.4 401.9 406.9 411.2 415.4 420.8 426.3 433 439.8 446 452.8 461.4 470.9 482.3 493.4 504.9 515.1 527.1 535.8 537.9 536.2 533.5 529.2 523 516.2 510.3 504.7 499.5 493.9 488.3 482.4 474.5 469.2 464.9 460 455 450.9 448.1 444.5 440.1 434.3 429.2 425.8 420.7 414.2 406.1 397 385.7 374.2 363.3 353.8 349.9 353.3 356.5 359.2 357.3 362.5 358.9 350.9 346 341.7 339.5 335.4 335.2 334.5 332.3 322.6 313.1 301.5 299 293.4 289 279.9 277.8 286.4 282.6 302.8 326.1 334.4 336.4 337 335.2 336.2 332.1 340.3 348.5 362.4 372.8 382
278.8 277 275.1 276.1 277.1 278.1 279.2 282.4 292.4 298.4 303.9 307.9 312.6 315.1 315.4 315 314.5 313.6 312.7 311.4 309.9 307.9 307 308.9 309.3 309.9 310.5 310.7 310.8 310.9 311.1 311.2 311.5 312.1 311.1 309.8 308.2 308.1 308.1 308.4 308.7 309.5 309.7 311.1 310 312.1 314.1 314.7 313.6 312.5 312.8 313 313.9 314.7 317.4 318.7 319.4 320.1 320.8 321.6 321.2 320.4 319.3 317.3 316.5 316.2 316.3 315.3 317.6 319.1 320.6 321.6 322.6 324.2 326.8 329.3 331.9 331.6 329.1 326.5 325 323.6 321 324.2 326.5 328.6 330.4 332.2 334 335.8 337.9 339.1 340.3 344.4 348.8 351.4 350.9 350.7 349.8 348.6 348.7 350.5 352.4 355.1 359.6 363.9 367.9 372.9 379.8 385.6 392.9 397.5 403.4 408.5 413 417.6 422.4 428.1 434.5 441.6 447.3 453.6 462.4 471.1 482.4 493.8 505.1 514.6 524.2 532.7 533.5 531.7 528.9 525.2 519.3 512.4 505.9 499.8 494.4 487.9 482 475.9 467.6 464 459.4 454.2 449 444.2 441 437.2 431.2 424.7 420.8 416.3 411.2 406.8 399 389 375.9 367.5 356.5 360 356.7 360.4 362.7 367 367.7 364.7 360.7 361.1 356.3 356.1 349.5 348 345.9 340.2 333.1 326.3 323.6 316.9 302.9 298.4 291.6 286.1 276.8 279.8 283.6 297.8 316.3 325.9 327.9 326.9 322.8 325.1 323.4 340.8 346 360.7 370.8 380
278.4 276.5 275.8 276.8 277.1 277.4 278.9 282.1 291 298.2 303.6 308.5 312.8 314.8 315.7 315.5 315 314.1 313.5 311.9 310.5 309.9 307.7 307.7 308.3 308.8 308.2 309.1 309.6 309.8 309.9 310.1 310.4 311.2 309.7 308.8 309.7 309.8 309.5 309.2 309.9 310.9 309.3 310.2 311.7 311.8 311.8 311.3 311.6 313.7 314.5 314.7 315.3 316.1 318.5 320 320.8 321.6 322.6 323.6 322.7 321 320.2 318.7 317.8 316.9 316.8 316.9 319.4 320.8 322.1 323.5 325.3 327.6 329.7 332.2 334.8 334.3 331.4 328.6 326.5 325 324.2 324.8 327.4 329.6 331.6 333.4 335.1 336.9 338.7 341 342.2 346.3 351.8 353.3 352.8 351.9 351.8 349.7 350 350.8 352.7 355.1 359.2 363.2 367.9 374.4 381.3 387.5 394.9 399.6 405.5 410.4 415.2 419.9 424.4 429.9 436.2 443 448.6 454.5 462.8 471.5 481.9 492.6 503.7 514.1 521.3 527.8 528.4 527.3 524.4 521.2 515.2 508.7 500 493.9 489.6 483 475.4 468.8 461 457 452.6 448.2 442.8 435.9 430.3 423.8 415.5 410 407.9 404.5 400.9 396.8 388.6 377.3 369.1 364.3 366.2 364.7 363.3 367.2 372.7 376.8 378.2 376.5 373.7 369.9 366 363.6 364 359.8 349 335.8 329.6 326.4 320.3 319 306.4 295.3 288.1 290.7 284.9 274.8 284.3 292.9 309.9 317.4 316 313.7 304.6 308.2 326.5 335.3 349.2 359.4 370.4 379.5
281 276 275.7 277 278.1 278.5 279.6 281.7 289.8 298 303.2 307.8 312.5 314.4 315.3 315.7 315.5 314.9 314.5 312.8 312 310.5 310.1 308.9 307.3 308 308.2 306.9 307.7 308.5 308.7 309 308.6 308.4 308.6 308.9 310.5 310.5 310.6 310.7 311.3 313.2 311.5 311.8 313.3 313.7 313.5 312.9 313.5 314.9 316 316.4 316.6 318.1 320.5 321.8 322.7 323.7 324.6 325.6 324.8 323.1 321.4 320.1 319.1 318.2 317.2 317.2 320.4 322.8 324.4 326.9 329.4 332.4 333.9 335.9 336.8 336.7 333.6 330.8 328.7 326.7 325.3 325.4 327.6 330.1 332.5 334.5 336.3 338 339.8 342 344.1 349 353.6 354.7 354.8 353.1 352.8 350.8 350.8 352.2 353.8 355.8 358.6 363 369.1 375.9 382.8 389.7 396.5 402.1 406.9 411.7 416.5 421.2 425.7 431 437.2 444 449.6 455.1 462.9 469.4 479.2 490.7 502.6 512 519 521.5 524.1 522.9 520 516.2 510.4 502.8 497.5 491.9 485.4 477.3 470.3 459.5 453.6 451 445.7 441.3 433.5 426.1 419.3 410.3 400.6 394.7 391.4 388 386.2 382.8 374.9 369.8 372.1 373.9 372.7 371.5 372.7 377.5 382.4 387.7 388.8 386.7 382.7 379.3 374.9 368.1 356.9 352.9 339.7 329.2 325.7 324.8 319.6 312.9 310.3 300.7 294.9 295.4 293.4 274.3 282.5 288.6 297.3 304.6 300.5 299.6 302.7 313.1 328.7 339.7 351.2 361.6 371.3 382
283.6 276.9 278.3 279.8 280.6 280 281.1 282 287.8 295.5 302.3 307.5 311.2 313.7 315.3 315.8 316.2 315.9 315.3 314.1 312.8 312.4 311.2 310.1 309.7 309.2 309 308 308.7 307.6 307.2 307.5 307.5 308.4 309.3 310 310.7 310.8 310.8 311.1 311.7 312.3 312.8 313.1 314.5 315 315.1 315 315.5 316.4 317.4 317.8 318.4 320.5 323 324.3 325.3 326.5 327.7 328.2 327.4 325.9 324.3 322.7 321.6 320.6 319.1 319.5 322.3 325.6 328.3 330.8 333.4 335.6 337.7 339.5 340.1 339.2 335.8 333.3 331.4 328.9 327.1 327.4 328.7 330.5 333 335.1 337.1 339.1 340.9 342.7 345.6 351.2 354.9 356 356.6 354.6 354 352.3 352.2 353.7 355 357.2 359.6 364.4 369.2 376.8 383.9 391.1 397.8 404.3 408.8 413.3 417.6 422.3 426.9 432.4 437.9 443.5 449.4 453.8 461 467.2 473.6 486.4 498.5 508.7 515 518.2 519.6 517.9 514 507.4 501.8 498.9 494.7 488.8 480.9 473.9 464.2 454 446.4 446 440 432.8 426.4 419.7 412.4 404.9 407.7 404.5 400.4 395.3 390.3 386.1 385.2 383.8 384.1 383.7 380.5 380 382 387.2 393.7 398 399.3 397.8 396.1 389.9 379.8 367.4 368.7 357.7 345.9 345 348.9 342.1 335.5 328.5 318.6 305 293 296.6 297.2 273.7 271.7 287.6 286.2 287.9 283.7 286.9 295 311.9 328.5 341.2 352.5 364 374.4 384.2
286.8 276.5 281.9 282.8 283.4 281.2 282.2 282.8 285.8 293.5 300.9 306.7 309.7 313.3 315.2 316.2 316.5 316.6 315.8 314.6 313.4 312.3 311.6 311.1 310.9 310.4 310 309.8 309.6 309.3 309.2 308.6 308.1 308.9 309.6 310.2 310.9 311 311.3 312 312.6 313.3 313.8 314.7 316 316.8 317.2 317 317.6 318.3 319.2 320.1 320.1 323 326.1 328.8 329.9 331.1 330.8 330.3 329.7 329 327.1 325.5 324.1 322.4 320.8 321.6 325.5 328.4 331.6 334.9 337.5 339.6 341.5 343.2 344 341.1 337.8 335.1 334 331.2 329.4 329.5 330.6 331.7 333.5 335.7 337.7 339.8 341.8 343.8 347.3 352.4 356 357.9 358.1 356.6 355.4 354.5 353 354 356 358.4 360.9 365.2 370.5 376.7 384.4 392.3 399.5 405.8 411.6 415.5 419.3 424.1 428.3 433.9 438.3 443.2 449.1 454.2 460.1 466 471.2 482 493.8 505.2 511.2 514.1 514.7 513.5 508 502.4 499.8 497.5 492.9 488.8 482.4 474.3 466.4 455.7 448.9 442.8 430.9 430.4 425.2 418.4 419.6 416.2 412.2 409.4 405.3 400 396.3 393.2 392.5 391.9 391.5 392.5 390.6 390.5 394.4 398.4 404 405.6 407.7 404.9 405.5 397.7 391.6 390.9 383.1 373.6 361.2 361.3 352.7 352.4 341.5 327.9 323.6 313.1 296.8 290.8 286.1 281.6 271.5 274 278 276.4 277.7 281.5 299.2 316.8 328.2 336.4 354.3 367.5 377.8 386.1
283.3 277.4 282.3 283.4 282.8 282.7 283.7 284.3 286.3 292.6 299.4 304.9 309.9 313.1 315 316 316.6 317.2 316.1 314.9 313.6 311.9 311.6 311.3 311 310.7 310.7 310.8 309.6 309.7 310 309.5 309 309.4 309.9 310.5 311 311.6 312.2 312.8 313.4 314.2 315.4 316.3 317.5 318.2 318.9 319.4 320.7 319.9 321.6 323 323.4 326.4 329.5 332.5 333.9 333.4 332.9 332.4 332.3 332.3 331.2 329.2 327.3 326.1 324.3 324.8 328.5 331.3 334.4 337.9 341.4 343.4 345.2 347 346.9 343.1 340.1 337.2 335.4 333.4 332.2 331.4 332.5 334.1 335 337.2 339.2 341.3 343.3 344.8 348.6 353.3 357.2 359.6 359.8 359 357.7 356.5 353.9 355.2 357.1 359.6 362.2 365.9 371.1 377 384.9 392.8 400.6 407.1 412.9 417 421.2 425.3 429 433.8 438.8 443 449 454.9 460.6 465.4 471.3 477.9 491.3 501.4 506.8 510.2 512.4 511.8 506.9 505.1 502.2 499.5 495.4 490 484.7 476.5 468.1 460.3 452.4 446.5 441.6 435.4 430.3 427 424.7 422.2 418.9 415.3 411.2 405.9 402.2 399.7 398.6 398.1 398.2 398.8 399 401.4 404.4 408.2 411.1 411.7 414.6 411.8 406 407.3 402.9 396.5 394.7 391.1 369.6 365.7 370.6 369.8 347 348 338.2 321.8 312.9 297.9 296.5 288.2 273.7 268.3 269 272.6 272.7 276 287.9 310.5 323.6 342.1 354 366.9 377.5 385.8
280.7 278.2 280.7 282.1 282.8 283.3 284.8 285.6 287.3 292.8 298 303.4 309.3 312.6 314.6 315.9 316.6 317.3 316 314.7 313.3 312.8 312.3 311.8 311.4 310.9 310.5 310.3 310.1 310 309.8 308.8 308.3 309 309.9 310.8 311.7 312.4 313 313.6 314.3 315.5 316.7 317.9 319 319.7 320.6 322 323.9 324.1 324.3 326.4 327.5 330.6 334 337.6 337.5 337.1 336.6 336.1 335.3 334.5 334.5 333.3 331.4 330 327.8 327.3 331 333.7 337.7 341.5 344.5 346.9 348.7 350.5 349.8 346 342.5 339.3 337.7 335.4 334.3 333.6 335.3 336.5 337.2 338.5 340.7 342.8 344.7 346.1 349.3 353.9 358.4 361.6 361.9 360.2 358.6 357.7 356.7 356.4 358.4 361 363.5 366.4 371.6 377.1 385.5 394.6 401.3 408 414.6 419.1 423.5 426.6 430.2 434.7 439.2 444.4 449.5 454.6 459.7 465.3 473.2 478.9 488.8 500.1 506.8 509.8 511.4 512.6 511.6 509.1 505.5 501.8 499.6 495.8 490 483.4 474.2 464.9 456.9 449.9 445.2 439.6 436.7 431.8 431.4 428.2 425.9 420.9 418.1 413 409.8 406.7 405.1 404.1 404 405.9 409 410.2 412.4 415.7 419.3 423.1 427.7 428 423.5 421 417.1 412.1 407.3 398.4 378 385.1 379.9 372.2 362.5 357.6 346.9 334.8 319.5 299.3 298.6 283.4 273.5 270.3 266.6 270.2 266.1 271.3 274.6 300 323.2 338.9 353.3 363.2 374.6 383.7
280.4 277.3 278.5 280.8 282.1 282.3 284.4 285.2 285.9 291 296.7 302.6 307.5 311.7 313.6 315.1 316.1 317 315.6 314.2 313.9 313.4 312.9 312.4 312 311.5 311 310.6 309.9 309.7 309.6 309.2 309.1 309.8 310.7 311.5 312.4 313.3 313.9 314.5 315.5 316.8 318 319.5 321.7 322.7 323.2 324.7 326.3 327.5 328.8 329.8 332 336.1 340.3 341.1 341.1 340.9 340.6 339.8 339 338.2 337.3 336.2 335.1 333 330.1 330.2 333.3 336.1 340.6 344.9 347.4 349.8 352.2 353.5 352.7 349.3 345.7 341.4 339.5 337.8 335.4 335.9 338.1 338.8 339.8 340.6 341.4 343.8 346.1 347.8 350.1 354.5 359.3 363.7 363.9 362.2 359.6 360 358.8 357.8 360.1 362.5 365.3 368.6 372.2 378.1 386.9 395.6 402.1 408.8 416.2 421.5 425.3 429.1 432.5 435.9 440.2 444.8 451 456 461.2 468.5 474.5 481.8 488.2 499.4 506.7 510 512.4 514.1 515.2 513.9 513 510.1 507.8 502.1 495.7 489.3 481.8 471 462.2 456.3 450.2 446.2 443.2 440.1 438.8 436.6 433.9 428.9 427.2 423.3 418.2 414.6 413.9 413.1 413.6 414.3 417.6 418.8 420.8 424.9 429.2 433.3 436.3 436.9 437.1 436.3 431.7 423.4 414.5 408.2 403.2 401.1 392.6 377.4 373.1 364.4 355 344 329 308.5 296.4 285.3 280.4 271 271.6 265.9 263.8 267.2 267.4 296.6 313.5 333.5 350.3 360.6 368.2 377.9
281.8 277.1 278.3 278.2 280.5 281 283.9 285.2 283.8 287.4 293.1 300.4 307.1 310.5 312.4 313.6 315.8 316.3 314.9 314.8 314.3 313.8 313.3 312.9 312.4 311.9 311.5 311.1 310.3 309.6 309.5 309.3 309.4 310.5 311.6 312.6 313.3 314.1 314.7 315.8 317.1 318.3 320.9 323.1 325.1 327.3 328.5 330 329.7 331.1 332.4 333.8 337.8 342.4 344.6 344.6 344.7 345.1 344.3 343.3 342.2 341.2 340.3 338.9 337.1 334.6 330.1 332.4 335.5 338.6 343.9 347.6 351 353.4 355.7 356.8 356 353.4 349.9 344.1 341.2 339.8 337.4 337.6 340.6 342 343.1 343.7 343.8 344 346.1 348.8 351.6 355.5 360.6 365.6 366.2 364.5 363.4 361.5 360.8 359.8 361.9 364.3 367.6 370.9 374.1 378.7 387.8 396.6 402.8 410.8 417.6 423.8 428.2 431.3 434.3 438.1 442.5 446.9 451.7 457.7 463.7 470.7 476 482.7 490.6 500.5 507.4 511.9 513.7 517.2 518.3 520.1 520.1 518.6 514.8 509.7 502.6 495.4 487.2 476.3 465.6 460.7 455.1 451.7 449.9 446.9 444.7 444.3 441.7 436.9 435.7 432.4 428.3 425.5 425.2 423.3 423.6 425.9 427.4 428.8 431.9 435.4 440.4 443.2 444.3 446.5 447.7 446 441.8 433.1 424.4 415.5 412.9 400.2 393.5 392.1 382.1 373.1 364.3 351.8 337.3 323 304.6 296.9 286.7 276.8 268.5 264.5 261.8 261.6 265.4 286.8 306.2 326.1 345 355.9 362.9 371.6
282.4 281.1 279.9 278.3 279.1 281.5 283.8 283.2 282.9 284.8 290.3 298.4 305.4 309.4 312.5 313.4 315.1 315.5 315.4 315.4 314.8 314.2 313.8 313.3 312.8 312.4 312 311.6 310.8 309.8 309.4 309.6 310.1 311.2 312.3 313.4 314.4 315.1 317 317.8 319.1 320.6 323.8 327.1 328.9 330.9 332 333 333.6 334.9 337.6 338.6 342.9 348.3 348.2 348.2 348.2 347.3 345.6 344.6 343.5 342.3 341.9 340.8 338.5 336.1 330.4 334.8 337.5 342.6 346.4 350.1 353.5 356.9 358.8 359.5 360 357.1 353.2 346.6 343.4 341.9 339.9 339.4 342.5 344.4 346.2 346.9 347.2 347.3 347.9 351.1 354.2 357.3 363.3 367.1 368.3 367.9 366.1 363.7 363.4 362.3 364.1 366.4 369.7 373 376.3 380.2 388.6 397.1 404.3 411.9 418.3 424.9 429.7 432.9 435.9 440.2 444.1 448.5 454.8 460.3 465.8 472.9 479.8 485.7 494.7 502.7 509.6 514.4 517 520.1 521.3 525.9 526.3 525.2 520.8 515.8 508.1 499.8 491.3 480.1 471.5 467.5 462.3 459 456 456 457.8 453.4 449.7 446.8 443.7 441.8 438.5 437 435.3 435.4 435.3 437.1 437.4 440.1 442.9 445.2 449.7 451.3 452.4 452.7 449.9 445.6 442.7 429.3 430.8 424.6 421.7 417.1 409.5 398.2 386.9 379.5 369.8 357.5 345.1 332.1 316.7 301.4 290.7 277.4 265.2 261.7 260.2 259.4 263.3 279.1 302.3 322.1 339 351.2 358.2 364
282.3 280.6 278.5 279.2 280.6 282.1 282 281.4 282.8 283.3 289.2 296.2 304.2 308.6 311.8 313.8 315.1 315.8 316 316 315.3 314.6 314.2 313.7 313.3 312.9 312.5 312.1 311.2 310.3 309.3 309.9 310.9 311.9 313 314.1 315.2 316.4 319.2 320 321.7 325.4 329.1 332.1 334.2 335.5 336.6 337.6 338.6 340.9 343.1 343.7 348.3 353.7 354.2 353.5 352.3 350 347.9 345.9 344.6 343.6 343.5 342.4 339.7 337.2 333.9 336.8 339.7 344.5 349.1 352.6 356.4 360.3 362.6 363.7 364.7 361.3 355.6 349.8 346.1 343.8 342.1 341.8 344.4 346.5 348.3 349.8 350.7 350.2 349.3 352.5 355.5 359 363.8 369.6 370.9 370.3 368.4 366.3 365.2 363.7 365.4 368.4 371.8 375.2 378.7 382.6 389.7 397.6 405.3 412.7 420 426.1 430.6 434.3 437.8 441.8 445.7 451.3 457.7 463.4 468.8 475.9 482.7 487.6 497.4 506.1 511.7 515.9 518.8 521.8 525 529.4 531.2 530.2 525.3 520.4 513.6 505.1 496.5 487.5 479.2 474.5 470.8 468.5 465.7 466.7 467.1 461.9 459 455.9 452 449.9 448.8 448.7 448 448.3 449.2 450.3 452 456.8 456.2 456.1 455 454.5 454.6 452.7 450.5 446.1 441.2 438 432.7 429.6 425.9 420.6 412.2 401.8 392.3 382.4 372.6 362.9 351.8 339.3 325.3 311.8 295.2 277.2 266.3 261.8 259.1 258.9 262 280.6 299.4 316.4 332.6 343.2 349.3 354.6
281.2 279.7 279.9 279 281.5 282.2 281.5 283.3 284.1 283.3 287.1 294.9 303.1 308.3 311.1 313.2 314.4 315 315.5 316.2 315.8 315.1 314.6 314.2 313.8 313.4 313 312.5 311.7 310.7 309.6 311 312.9 314 315 315.8 316.5 317.8 320 323.9 328.1 329.8 333 336.3 338.2 339.8 341.2 342.2 344.1 346.9 347.7 348.8 353.9 358.3 358.2 357.8 355.9 353.6 351.5 349.2 345.8 345.6 345 343.3 341 339 335.3 338.6 342 346.4 351 355.4 359.9 364.1 366.4 367.3 368.2 365.1 357.9 352.5 349.4 346.3 343.5 343.9 346.2 348.6 350.3 351.8 353.3 352.8 351.9 353.8 356.7 359.6 364.8 369.6 373.1 371.8 370.1 368.5 366.9 366.1 367.1 370.3 373.9 377.6 381.1 385.3 391.4 398 405.2 413 419.6 426.7 430.7 434.8 438.6 443.1 447.6 453.7 460.3 466.3 472 477.5 484.6 491.4 497.9 507 512.8 516.3 520.4 523.3 529.9 534.9 535.7 533.8 529.4 524.2 517.5 510.5 503.4 494.9 487.1 483 480.2 478.8 476.9 476.5 475 472.5 468.5 464.8 463 462.9 462.8 461.8 462 462 462.9 465.4 466.9 466.7 464.5 463 460.3 458 454.3 451.6 447.9 443.9 439.9 434.4 431 427.4 423.4 418.8 411.7 403.8 394.2 386.4 376.6 367.1 356.3 342.2 325.5 310.3 290.8 273.3 263.7 258.8 257.2 258.3 266 281.9 297.1 307.2 321 331.3 334.8 341
281.9 280.7 280.5 279.5 282.5 283.1 283.6 286 286.7 284.4 285.8 292.9 301.7 306.6 310.3 312.2 313.7 314.2 315.2 316.2 315.9 315.1 313.9 313.7 313.5 313.3 313.1 313 311.9 310.9 310.2 312.5 314.4 315.3 316.1 316.9 317.6 320.1 322.9 327.2 331.1 333.4 335.9 338.8 341.8 343.4 345 346.7 349 352.5 353.9 354.9 358.8 362.8 362.3 361.5 359.5 357 355.1 352.1 348.5 347.2 345.6 344 342.3 341.1 336.2 339.9 343.6 348.3 352.9 357.3 362.8 367.6 370 370.9 370.4 366.7 359.3 355 351.7 348.6 345.2 346.8 349.1 350.6 352.2 353.7 354.7 354.4 353.7 354.9 357.4 361.5 365.5 371.9 374.3 372.6 371 370.2 368.6 368.7 369.8 372.8 376.5 380.1 383.8 387.7 393.4 399.1 406.3 414.3 420.9 427 431.5 435.5 438.9 443.4 451 456.5 462.9 468.9 474.4 479.4 486 494 499 505.5 511.4 516.6 520.8 524.5 533.4 537.5 537.6 536.2 532.3 527.5 521.5 515.2 509.6 503.3 495.7 491.2 489.4 488 486.6 485.2 483.7 482 480.8 477.9 477 478.5 478.5 476.6 476.9 477.9 477.5 477.4 476.4 472.9 469.2 467.1 463.2 458.9 453.2 449.6 445.3 440.6 436.1 430.3 426.3 422.6 419.2 415.2 409.6 401.2 395.2 388.4 378.1 369.4 358.8 342.7 327.6 308.1 290 276.1 263 257.7 256 257.7 261.3 277.2 288 299 308.6 317.3 320.3 325.6
283.6 281.6 280 281.9 283.6 283.9 285.3 287.7 289.7 289.2 287.4 292.6 300.1 304.6 309.4 311.5 313.4 314.4 315.5 316.3 316.2 315.7 314.5 314.2 314 313.8 313.6 313.4 311.7 310.7 311 313.4 315.4 317 318.5 319.7 322 323.5 327.8 331.7 335 337.6 340.3 342.4 344.8 346.9 348.6 350.2 353.8 357.6 359.2 359.2 362.6 367.3 365.9 364.7 363.4 360.4 358.5 354.9 351.2 348.9 346.6 344.9 343.2 341.3 337.4 340.7 344.5 349.6 354.9 359.1 363.9 369.1 372.4 373.4 372 367.3 362.5 357.6 354.3 351 347.7 350.4 351.8 352.8 354 355.6 356.1 356 355.5 355.9 358.1 362.2 367.3 372.7 374.2 372.7 371.9 371.4 370 371.7 372.8 375.3 379.7 383.4 386.8 390.5 395.2 399.8 406.5 414.5 420.1 426.1 432.2 436.6 439.8 445.7 453.2 460 465.2 470.7 477.2 482.6 488.3 494.4 499.2 505.4 511.3 516.8 520.8 524.5 532.6 535.8 537.5 537.2 534 530.2 525.3 520.1 514.2 509.5 504.1 500.4 497.7 496.1 494.7 493.2 490.8 490.7 489.4 488.7 488.3 489.6 490.5 489.1 491.5 492.2 488.6 486.2 482.8 478.3 474.1 468.8 464.6 458.7 452.8 447.6 442.9 438.3 432.1 426.1 421.1 417.1 413.8 408.8 403.5 398.4 393.6 387.1 379.2 370.1 356.3 344.5 329 309 296.1 281.4 268 258 255.4 255.7 258.1 270.5 284.2 290.9 295.3 302 306.9 309.4
285.5 283 280.7 283.1 284.1 285 285.6 288.2 291 290.1 288.1 290.5 297.6 303.8 307.6 311.7 313.9 315 315.7 316.1 316.2 316 315.4 315 314.7 314.4 314.1 313.7 312.6 310.6 312.1 314.2 316 316.9 319.1 321.2 323.8 326.2 331.3 335.3 338.9 340 343 345.2 347.3 350.1 352 354 359.2 362.8 362.6 362.1 365.8 369.6 370.5 367.8 365.7 363.8 361.4 357.9 354.3 351.3 348.2 346 344.6 342.8 339.3 342.7 346.4 350.1 357.4 361.9 367 372.4 375.7 376.7 373.7 369.5 365.4 360.8 356.9 353.6 350.3 353.1 354.4 355.5 356.1 357.5 357.5 357.7 357.5 358.4 359.8 363.1 368.1 373.4 374 373.3 372.9 372.4 372 373.3 374.6 377.8 382.8 386.6 389.7 393.1 397 401.1 406.9 414.7 420.6 426.7 432.1 437.6 441.5 447.9 455.5 463.4 467.9 473.3 480.9 486.5 490.5 496.7 500.5 504.9 511.2 516.6 520.9 524 529.7 533.5 535.2 535.6 534.2 531.4 527.2 523.2 518.7 514 509.7 506.8 503.9 501.7 501.2 500.7 499.8 500.2 501.1 499.1 500.3 499.4 501.2 503.3 507.5 505 499.1 493.1 487.6 481.4 476.5 470.7 466 460.1 454.5 447.9 443.2 436.5 427.8 420.6 416.1 411.9 407.7 401.5 397 393.7 389.9 384.4 377.4 367.3 356.5 346 332.9 320 304.9 285.1 275.7 267.4 261.2 253.4 253.8 262.1 273.4 281.9 281.6 286.8 290.8 293.4
285.8 284.2 282.5 283.5 285.3 286.2 287.1 289.8 292.3 290.9 288.2 289 295.1 302.1 307.1 311.4 314.4 315.1 315.7 316 316.1 316.2 315.8 315.6 315.3 314.9 314.6 314.4 313.4 311.9 313.5 315.2 317 317.7 318.4 321.2 325.6 329.2 333.4 338.1 340.6 343 345.3 347.6 349.9 352.6 355.3 358.3 361.3 366.3 366.4 366.1 371.3 375.5 375.1 371.7 369.1 367.3 364.3 360.9 357.2 353.7 350.6 346.9 345.5 343 340.8 344.7 346.9 353.5 359.7 365.6 371.4 375.7 378.4 379 377.4 374.6 368.5 363.7 359.5 356.3 353.2 355.9 357 358.1 358.8 359.2 359.6 359 360.1 361.2 362.7 364.5 368.9 374 374.6 374.5 374 373.7 373.6 374.5 376.2 379.2 385 389.4 391.8 394.7 398.9 403.1 407.8 414.8 421 426.3 433.4 438.6 443.5 451.3 459.3 466.6 471.9 476.2 484.3 489.2 494.4 498.7 501.9 505.1 509.4 514.4 518.5 521.3 525.1 528.5 530.6 531.5 531.4 529.9 527.4 524 520.5 516.8 513.8 510.7 508.5 506.8 506.9 507.1 507.4 507.9 509.7 508.8 507.7 507.1 509.4 513.2 515.1 512.3 504.8 497.5 489.1 482.6 478 472.2 466.6 461.9 456.5 449.5 443.8 435.7 426.2 419.1 413.7 407.3 401.1 393.7 389.7 387.6 384 378.9 372 365.1 354.8 346.3 335.2 324.1 312.3 299.8 286.2 270.1 265.3 250.6 254.7 259 261.2 270.2 270.6 270.5 274.3 278.5
286.1 285 282.6 282.8 285.1 287.3 287.8 290.1 292.8 292.3 290.1 288.8 293.4 300.2 308.8 312.2 314.5 315.1 315.8 315.9 315.7 315.3 315.9 315.7 315.5 315.4 315.3 315.1 314.5 313.6 315.1 316.7 318.1 318.9 319.6 322.5 326.6 331.3 336 340.1 343.1 345.6 347.9 350.7 353.1 355.9 358.5 361.1 364.1 368.9 369.8 369.7 373.8 378.4 378.2 376 372.6 370.6 367.3 364.1 359.7 356.1 352.1 348.1 345.7 342.3 342.8 345.2 349.4 355.8 360.3 368.1 374.4 378.3 380.6 381.2 380.7 378.5 372.9 367.7 362.4 359.8 356.5 358.4 359.4 360.1 360.7 361.2 361.6 361.3 362.8 364.5 365.4 366.7 369.8 373.8 375.8 375.5 375.4 375.3 375.2 376 377.8 381.7 387.5 391.9 395.8 398.2 401.4 405 409.4 414.7 421.8 427.3 434 439.9 446.7 454.2 463.3 469.9 476.2 481.1 486.6 492.3 496.5 500.7 503.3 505.2 507.1 510.4 513.4 517.5 520.9 522.5 524.5 526.2 525.5 525.8 525.7 524.1 521.1 517.5 513.6 510.3 509.3 509 509.4 510.5 510.8 515 515.7 514.3 513.2 513.3 515 515.7 515 510.5 503.2 496.1 487.1 481.2 476.8 472 467 461.4 456.1 451.2 444.5 435.3 425.5 416.9 411.6 405.4 397.3 389.1 383.8 379 375.3 371.7 367.7 361.3 353.8 346.1 333.9 324 315.5 303.4 291.3 276.5 265.7 259 253 253.5 253.9 256.4 261.8 262.6 265 273.6
285.9 284.4 282.3 284.1 284.5 286.9 287.9 289.3 291.3 293.1 292.7 289.8 292.7 299.9 307.9 311.9 313 314 315.4 316.4 317.1 317.5 316.4 316.6 316 315.9 315.9 315.8 315.5 315.2 316.7 317.7 320.2 320.5 321.5 325.4 331.1 336 340 342 345 348.1 352.8 356.8 358.8 360.2 362.8 365.4 368.1 372 373.8 373.8 377.3 380.1 380 379.6 376.6 373.4 370.4 367.1 362.4 357.2 352.9 350.5 347.1 344.3 343.4 346.2 349.7 354.8 362.7 369.8 376 380 382.4 383.8 383.9 380.5 375.8 370.9 365.1 362.5 360 360.2 361 361.7 362.4 363.1 363.4 364.1 364.5 367.2 368.5 369.3 371.3 373.8 375.2 376.7 377 376.9 376.8 377.6 379.9 383.7 389.9 395.1 398.3 402.1 405.1 407.5 411.3 416.5 422.3 428.1 434.5 442.3 449.1 457.1 467.1 475.5 483 485.6 489 495.4 499.6 502.6 504.6 506 507.1 507.4 508 509.7 515.5 517.2 518.8 520.3 519.3 520.3 521.1 520.4 517.7 515.1 512.5 509.7 506 506.7 507.8 508.7 511.5 515.7 517.3 515.8 513.7 512 511.1 512.5 511.5 504.7 497.4 491 483.2 477.8 473.1 467.7 463 459.2 455 448.6 441.1 433.5 425.2 416.2 409 401.2 392.6 384.9 378.1 371.7 365.1 363 359.2 355.8 350.6 342.4 331.7 324.3 314.4 303.4 295.2 281.2 268.7 262.2 249.7 249.9 250.7 248.8 247 261.1 273 274.8
285.8 283.6 281.9 285.1 286.6 287.1 288 289.5 292.3 293 295.1 292.8 292.6 297.5 306 309.6 311 312.2 314.7 316.4 317.3 318.3 317.6 318.4 318.3 317.5 316.7 316.6 316.3 316.6 317.5 318.5 321.2 321.7 324 328.2 334.8 340 343.2 344.7 347.5 352.3 357.5 361.5 364 365.1 367.8 369.2 372.6 375.3 376.4 378.8 380.4 382.3 383 383.1 380.7 376.1 373.2 369.6 363.8 358.1 354.5 351.5 348.1 343.8 344.3 347.3 351.1 356 361.7 369.1 376.9 381.3 384.1 386.7 388.3 386 380.8 374.8 367.3 362.9 361.4 362 362.5 363.3 363.9 364.8 365.8 366.6 367.5 368.8 370.3 371.1 371.7 373.8 377.1 377.1 377 377.5 378.1 379.9 382 385.9 392.2 397.7 401.2 404.4 407.7 410.4 413.9 418.2 423.3 428.9 436.1 444.6 451.5 459.5 468.7 478.6 488.6 491.8 493.8 497.8 500.3 502.7 504.7 504.8 504.9 505.1 505.4 505.8 507.9 513.1 513.5 514.2 512.9 513 514 513.8 512.1 509.5 506.5 503.9 501.9 501.3 501.7 502.7 506.3 510.4 513.9 512.7 509.3 506.5 504.5 503.7 501.4 495.4 489.9 484 477.3 472.1 466.9 461 457 453.7 449.6 444.2 437.5 431.4 423.5 415.5 406.4 399.2 389.4 382.3 374.1 357.9 358.3 355.6 352.7 349.6 345 338 327.4 321.7 310.4 303.8 293.9 279.9 267.7 262.3 259.2 248.7 248.3 246.3 246.1 244.4 255.5 258.9
285.5 282.5 282.5 284 287.1 287.8 288.5 289.9 293 294.7 296.9 294.4 293.3 294.2 303.9 306.5 309.1 312 315 317.5 318.1 319 319.3 319.4 319.1 318.3 317.8 318 318.2 318.5 319.4 321.4 322.2 322.9 326.6 331 336.6 341.1 345.5 348 352.2 358 362.6 366.4 370 369.9 371.9 373.5 376.4 378.8 379.7 380.8 387.1 391.1 390 387.2 384 380.5 377.8 372.5 365.5 360 355.6 352.5 349.1 346.1 345.4 349 351.7 356 361.8 368.8 376.7 381.5 387.7 389.8 393.5 391.3 384.6 376.8 369.8 364.5 363.3 364 364.4 364.9 365.5 366.5 367.8 368.8 369.7 370.8 371.7 372 372.7 373.8 376.5 378.3 378 378.2 379.3 382.3 385.5 389.6 394.9 401.2 405 408.5 412.2 414.7 416.9 420.9 425.6 430.9 437.2 445.8 454.2 461.9 471.9 483.8 492.3 496.1 498.5 499.3 502.2 505.1 504.1 503.7 503.7 503.6 502.1 501.5 500.5 504.6 507.8 507.3 504.2 504.4 504.3 502.9 501.9 501.9 499.2 495.5 493.7 493.6 492 494.5 496.7 502.4 506 504.2 500.5 498.3 496.2 493.3 489.9 487.1 480.6 474.6 469.3 464.8 457 452.7 449.5 446.4 442.6 438.5 432.2 427.9 422 414.5 406.8 397.9 388.3 378.9 370.8 361.9 347.8 346.3 344.3 340.5 337.7 332.2 325.8 317.1 309.3 301.1 288.3 277.1 267.7 261.3 253.1 253.2 253.2 249.5 245.2 242.8 242.2 242.2
284.3 283.1 284 285.3 287.6 288.5 289.3 290.2 294 297 296.3 293.8 292.9 293.2 300.9 305.9 309.9 312.3 315.5 318.9 319.3 319.9 320 320.2 319.9 319.1 318.9 319.1 319.3 320.2 321.4 322.6 323.6 325 329.4 333.7 338.8 343.8 348.6 352.2 358.2 365.2 368.9 373.1 374.5 375 376.4 378.1 381 382.4 384.2 386.7 394.1 397.1 394 390 388.1 383.3 379.8 375 368 362.3 358.2 353 349.6 346.6 346 350.2 353.1 356.7 363.5 369.4 378.3 384.1 388.8 391.4 397 394.8 387.4 379.1 370.5 366.1 365.3 366.1 366.7 367.8 368.5 368.9 369.9 371 372.5 373.1 372.7 373.7 374.4 375 376.1 376.6 377.7 378.9 380.8 384.8 388.7 392.7 397.3 404.3 408.8 412.5 418 420.1 421.7 424 428 433.5 439.5 447.4 455.5 464.8 474.2 485.3 493.9 498.7 501.4 502.3 504.6 504.7 503.5 503 502.7 502.6 499.5 497.4 495.2 493.1 496.5 497.7 498.9 496.3 493.5 490.8 490.2 491 488.5 485.9 485 482.7 482.9 485.6 487.2 491.6 493.1 491.4 488.3 486.6 484.7 482.7 479.2 475.1 470.6 465 459.1 452.6 446.8 443 439.8 436.7 433.4 430.1 425.3 422.6 418.6 412.5 405.4 397.1 386.8 376.7 368.6 361 352.4 332.7 334 331.7 328.4 325.4 320.7 311.8 302.2 291.4 280.6 272.9 260.9 258 262.6 267.2 268.3 263.7 261.4 258.3 255 247.2
286.2 284.5 284.8 286.6 288.1 289 290.1 291.4 294.9 297.8 296.7 294.4 293.8 294.3 300.2 306.2 311.2 312.6 316 319.4 320.9 320.4 320.7 321 320.7 320.3 320.1 320.3 320.9 321.8 322.5 323.3 324.9 327.4 331.5 336.3 342.1 348.9 352.7 357.3 364.3 370.7 373.7 378.6 379.4 379.8 382.7 385.8 387.1 388.3 389.9 391.3 398.2 400.7 399.6 396.8 390.6 387.4 383.1 377.6 370 364.1 359.5 354.6 350.1 346.7 348.1 351.8 354.7 357.9 364 369.3 379 384.3 389.4 392.9 396.9 397.1 390.6 381.5 374 370.4 368.8 367.2 368.7 369.5 370.4 371.7 372.4 373.2 374.4 374.1 373.6 374.5 375.4 376.4 376.9 377.3 378 379.5 382.2 387.1 390.9 395.2 400.1 407.6 413.2 416.9 423.7 426.3 428.6 428.5 432.2 436.9 441.7 449.2 458.6 468.1 477.1 486.3 494.7 498.6 502.1 503.1 505.3 503.4 502.9 502.4 501.9 500.7 497.9 496.1 493.7 490.5 486.6 481.2 486.9 487.4 482.1 479.4 478.6 478.6 475.3 473.5 470.6 467.9 468.7 470.5 475.5 479.3 479.2 478.4 474 473.4 472.5 470.4 467 463.7 460.9 456.3 450.2 443.5 436.6 433.5 428.9 426.9 423.6 422 418.2 416 413 408.4 401.6 395.4 387.5 377.6 367.2 357.3 348 338.4 325.5 320.4 318.8 317.7 312 301.1 291.7 285.5 276.8 262.9 261.3 269.9 269.3 272.8 277.7 276.5 271.9 268.8 265.9 260.8
288.1 286.3 284.9 287.2 288.7 289.8 290.9 292.4 295.4 298.3 298.4 296.2 295 295.3 300.1 306.1 312.2 313.5 318.4 322.1 320.7 318.8 321.3 321.9 321.6 321.4 321.2 321.6 322.5 323.1 323.6 325.1 326.6 329.5 334.1 339.3 344.7 351.2 359.5 363.6 370.5 376 378.7 383.3 384.9 387.4 393 392.9 394.2 393.8 395.3 395.6 401.6 404.4 403.2 400.8 397.5 392.5 386.8 379.3 372 367.4 361.6 355.7 350.5 348.2 349.3 353.1 356.1 360.3 364.9 369.4 379.2 385.1 391.1 395.3 400.8 398.7 392.1 384.1 376.9 373.3 370.9 369.1 370.2 371.1 372.9 374.4 374.6 375.5 375.4 375 374.6 375.4 376.3 377.1 377.4 377.7 378.4 380.2 384.7 389.7 393.7 397.7 402.8 412.5 417.5 421.7 427.1 431.7 433.5 432.6 435.1 439.2 444.4 450.6 460.6 470.4 479 486.7 493.5 496.8 500.1 502.5 502.8 502.3 501.8 501.3 500.9 499.7 496.9 494.3 491.8 486.7 483.7 478.2 474.8 474.8 475.2 474.5 474.2 472.4 469.6 466.8 461.1 459.4 458.4 458.3 460 464.3 464.4 462.7 460.8 459.2 458.8 458.1 455.2 452.4 449.6 446 439.9 433.7 427.9 422.7 416.7 413.3 411.6 410.1 408.8 407.7 406.1 401.4 396.9 392.1 383.6 374.3 364.3 353.2 342.4 332.4 326.1 317 307.4 306.9 298.1 290.9 285.4 279.5 267.2 271.2 277.9 282.1 285.5 284.5 283 281.3 280.4 278.8 274.6 266.6
290.2 288.3 284.4 286.2 288.6 290 291.1 292.5 296.2 299.4 298 297 296.5 295.7 298.3 306.3 310 313.6 316.9 318.6 317.6 318.6 320.9 322.2 322.7 322.5 322.3 322.4 322.5 322.6 324.3 326.2 328.9 331.7 337.1 342.5 347.7 354.7 364.9 369.8 375.5 380.2 384.2 387.6 391.9 394.5 396.8 399.8 400.4 399.8 400.6 401.4 405.3 408.9 406.5 403.5 402.6 395.6 390.7 381.9 373.7 369.2 364.2 357.7 352.1 348.9 350.2 354.3 357.8 361.2 365.5 370.8 377.2 386.6 392.3 397.4 401.9 399.2 393.8 386.4 379.4 376.5 373.7 371.1 371.7 373.4 375.1 376.2 376.7 376.6 376.3 376 375.6 376.2 377.1 377.6 377.8 378.1 378.9 382.2 386.6 392.1 396.6 401.1 406.4 415.4 422.1 425.8 428.7 436.5 437.7 435.6 437.6 441.5 445.8 450.7 459.8 472 479.1 485.4 489.9 493.4 496.4 498.5 499.6 500.2 500.6 500.3 500 498.4 496 494.1 492.1 487.9 484.7 483.4 480.4 478.2 467.7 464.6 463.5 466.4 464.1 459.4 446.9 444.6 443.6 441.5 443.9 448.9 449.3 449.5 447.6 445 446.1 445.4 443.4 440.4 435.7 431.8 427.6 422.1 416.5 409.4 403.2 400.4 398.7 394.6 396.1 396.9 395.7 393 391.8 385.5 377.7 368.6 358.1 347.6 336.4 328.3 322.1 312.3 300.6 292.5 290.2 285.6 272.8 273 279.8 287.9 290.9 293.6 295.3 297.2 290.3 283.8 284.5 284.4 282.2 274.7
291.7 290 288 285.2 285.5 289.6 290.2 291.8 295.9 298 298.9 297.5 297 296.5 297.8 305.5 308.2 311.1 313.6 315.9 316.6 317.9 320.7 322.2 322.7 322.5 322.9 323.3 323.5 323.8 325.8 328.4 330.9 334.1 339.6 345.2 350.8 359.9 370.1 376 381.3 385.8 389.5 393.5 398.3 399.8 403 406.4 408.5 407.2 406.3 406 409.3 412.6 410 407 404.2 398 392.9 386.9 377.9 373 367.2 359.9 353.9 350.5 351.6 355.2 358.6 362.4 366.7 371.7 377.2 385.4 392.1 396.5 398.7 398.1 394.2 386.8 381.4 379.2 377 374.7 374.1 375.7 376.7 377.9 378.3 377.7 377.1 376.8 376.5 377 377.8 378.1 378.5 379 379.8 383.4 388.1 394.5 399 403.3 408.4 417 425.3 428.8 432.2 440.2 439.3 437 439.8 442 445.8 451 457.4 468.3 475.5 480.7 484.6 488.5 491.4 493.4 496 497.5 498.5 498.8 498.7 497.6 496.8 494.8 492.8 490.7 489.6 487.6 485.9 484.8 480.5 475.8 475.2 463.1 449.2 442.7 451.5 430 428.2 423.5 425 430.4 434.6 435.3 435.1 431.4 432.1 431.9 430.2 426.1 421.3 417 412.5 407.6 403.3 398.9 392.9 387.5 385.4 382.5 380 381.1 381.3 383.6 381.2 376.2 370.1 360.8 350.2 339.3 330 323.6 316 305.1 296.8 290.5 280.6 281.8 285 289 292.7 297.8 301.7 305.5 307.3 305.6 297.8 291.7 292 287.5 279.7 276.2
292.9 291.1 290.1 288.7 286.6 286.9 289.8 291.3 294.9 297.2 299 298.4 297.5 297.3 298.2 304.6 306.3 308.9 311.8 313.3 315.3 317.4 319.7 322.1 322.6 323.1 323.6 324.1 324.3 325.2 327.4 330.4 333 336.6 342.1 347.7 354.8 363.3 373.8 381.6 387.8 392.2 395.8 397.7 403.9 406.2 408.6 413.8 416 415.1 412.6 410.4 412.6 415 411.8 407.7 405 400.9 395.5 389.1 382.5 376.8 370.2 362.9 356.1 352.8 352.2 356 359.8 364.1 368.3 372.5 379.2 383.9 389 393.2 395.7 395 392.2 385.7 383.2 381.1 378.9 376.8 376.5 376.6 378 379.4 379.3 378.8 378.2 377.6 377.5 378.7 378.5 379 379.5 380 381.1 384.5 389.3 396.9 401.6 405.5 409.6 417.5 423.5 428.5 434.7 438.7 440.2 438.7 440.4 442.1 445.5 450.7 456.4 464.4 471.5 476.2 479.9 483.7 486.1 488.5 491.8 494.3 495.9 496.8 497.5 496.9 496.4 495.3 494 494.1 493.6 492.8 492.7 492.3 492.7 490.1 489.1 485.4 478 473.4 469.2 458.4 448.5 437.7 428.3 409.3 412.8 418.8 419.6 411.3 414.6 416.1 416.1 411.4 407.8 404 398.8 395.6 391.1 387 383 376.9 371.9 367.4 364.9 366.7 367.3 369.6 367.9 364.8 358.5 349.7 341.1 332.9 324 315 307.3 298.4 288.3 288.5 296.3 297.8 297.4 299.9 302.7 307.7 311.3 312.9 312.3 307.5 301 296 298.6 295.3 285.4 279.2
292.8 291.8 291.4 291.2 289.3 287.8 289.1 292.4 294.4 297.3 298.1 299.1 303.7 303.6 300.7 301.6 304 306.5 309.7 309.7 312.9 316.2 319.2 322.1 323.1 323.6 324.1 324.6 325 326.4 328.8 331.9 335.2 339 344.6 350.7 358.1 368.9 378.2 386.7 395.1 399.9 401.7 405.5 410.2 412.5 413.8 420.7 422.6 421.6 418.2 414.8 415.7 416.1 412.9 408.6 404.9 401.1 397.3 390.8 385.2 379.8 372.4 364.9 359.3 356.3 353.1 356 359.4 363.4 368.1 373.1 378.8 384.5 387.4 390 392.3 391.6 388.3 385.3 383.6 381.8 380.1 379.5 378.5 377.9 379 379.8 379.9 379.4 379 378.6 378.4 379.6 379.6 380.1 380.6 380.4 381 384.8 389.6 398.6 404 407.5 411.1 415.4 421.7 426.5 430.8 438.6 439.1 438.2 440 441.5 443.1 449.2 455.6 462.1 467.1 471.6 475.4 478.1 481.1 483.2 486.7 489.5 491 493.7 496 496.4 496.1 496.1 497.4 497.6 497.2 496.6 496.1 497.4 499 498.8 497.1 494 488.7 483.5 476.7 468.6 457.2 444.4 437.7 425.6 405.2 398.7 401.1 399.2 391.5 400.7 398.6 396.6 393 389.4 385.9 381.1 376.7 373.4 369.6 364.9 358.6 352.1 350.3 348.3 349.6 351.5 351.2 349.3 343.5 338.5 330.1 322.7 313 301.2 291 291.5 306.4 306.2 308 308.5 309.4 308.8 312.3 316.6 321.1 322.8 320.3 316.6 312.3 306.9 303.7 303.2 301.9 291.8
292.3 292.4 292.9 292.7 290.9 289.2 290.7 292.6 294.3 296.2 298.1 303.6 306.5 305.3 303.3 303.8 303.7 304.9 306.2 307.1 308.5 313.7 318.5 321.6 322.7 323.9 324.4 324.9 325.5 327.4 330 333.2 337 341.6 347.4 353.8 361.1 372 381.4 391.4 401.4 407 409.6 411.7 416.2 418.9 418.3 426 428.7 427.8 422.7 418.8 418.4 416.5 413.2 409.9 406.6 403.2 398.1 392.6 389.6 383.5 375.5 368.4 362.9 360.3 357.7 355.5 358.7 363.6 368.2 373.8 380.3 385.1 387.9 389.4 390 388.8 387.7 386.4 384.6 382.6 381.1 380.7 380.4 379.5 380.7 381.7 380.7 380.3 379.9 379.5 379.2 380 380.8 380.5 380.4 380.3 381.2 384.3 390.4 399.2 405.9 409.9 413 415.8 418.8 423.5 427.3 430.6 432.8 434.9 437.2 439.2 442 447 453.3 459.2 463.4 467.5 471.1 474 476.4 478.3 480.9 483.7 486.3 489.9 492.7 494.6 495.3 496.7 498.9 500.3 501.3 500.6 501.1 502.4 504.4 505.7 504.3 501.3 496.4 491 483.4 473.8 461.2 448.1 438.9 431.9 421.9 411.6 399.8 388.7 384.7 381.7 377 375.8 377 373.2 370.1 365 358.7 353.1 354.2 349.7 345.5 340.7 334.5 333.5 330.9 331.1 333.2 333.8 329.2 324.4 315.7 303.4 298.3 300.5 308.8 315 316.8 317.7 319.6 319.3 319.4 320.9 325.7 331.9 333.9 334.8 332.5 329.7 322.1 314.3 309.6 308.6 307.4 303.5
293.6 292.8 292.6 292.5 291.7 289.6 289.7 293.1 295.6 296.6 299.3 305.5 306.8 306.1 306.9 306.7 306.7 309.4 308.1 307.3 308.4 310.1 316.4 321.1 322.3 323.6 324.8 325.3 325.9 328.8 331.9 334.9 339.4 344.3 349.8 356.9 364 374.7 385 396.5 407.1 413.2 415.9 417.6 421.6 425.2 425.2 430.8 432.7 432.1 427.1 423.1 420.2 416.7 413.5 410.4 407.3 404.3 400.7 394.9 392.4 387 378.8 372.3 366.7 363.9 361.3 360.4 359.6 364 368.3 374.7 381.6 385 387.8 389.7 390.1 388.9 388 387.2 386 383.5 382.3 382 381.6 381.2 381.6 382.4 382.1 381.2 380.8 380.4 380.1 380.6 381 380.9 380.9 381 381.6 384.8 391.1 400.4 407.1 412.1 414.9 416.7 417.4 419.1 422.8 426.1 428.5 430.5 433 435.5 439.3 444.4 450.5 456.4 460.2 465.4 468.4 470.9 472.7 475.9 478.5 480.3 482.9 486.4 488.4 492.2 494.3 495.8 498.3 502.1 505.1 505.5 505.5 506.8 512.9 513.1 511.2 508.6 503.6 497.1 489.1 477.6 463.4 452.9 442.2 435.1 427.2 418.1 409.9 399.4 389.5 381.7 380.6 378 371.4 366.4 365.3 363.3 363.6 360.7 355.9 347.1 340.6 349.1 347.9 343.3 336.9 325 316.4 315 310.2 308.6 310 312.7 313.8 318.7 324.2 327.7 329.9 332.4 333.3 335.4 333.6 333.7 336.9 342.2 344.1 343.9 342.1 338 331.8 323.1 317.9 316.2 313.9 315.4
293.4 293.3 293 293 293 292.6 290.5 293.6 301.6 297.6 301.9 306.8 307.2 307.4 305.4 307.7 305.7 307.3 310 306.9 308.1 310 315.2 320.8 323.2 324.4 325.2 325.6 326.5 329.3 332.3 336.4 340.8 345.8 352.1 359.3 368.4 377.4 389.2 400.7 412.6 419.4 422.3 422.4 428 431.4 430.6 433.9 436.1 434.9 430.3 425.4 422 418.3 414.4 411.5 408.5 405.5 402.4 397.9 394.2 389.2 381.8 375 370.6 367.3 364.9 364.3 361.3 365.9 369.1 375.2 382 386.4 389.2 390.5 390.7 390.8 389.4 388.7 387.4 385 383.1 382.7 382.3 382.3 382.5 382 381.9 381.9 381.4 380.9 380.5 381 381.2 381.4 381.1 381.2 381.9 384.9 391.4 400.1 412.7 416.4 417.2 418.1 417.4 417.9 418.1 421.6 423.9 426.1 428.6 432.2 436.6 441.6 447.4 453.6 458.5 462.3 465.4 468.6 470.9 473.1 474.9 477.3 479.4 482.9 485.4 487.4 491.4 494.8 499 503.9 507.5 510.4 512.9 517.3 521.6 522.1 519.2 516.4 511.3 503 494.4 481.4 468.5 458.5 448 441 433.5 423.2 414.7 407.1 399.8 393.9 390 387 384.2 382.9 379.1 376.6 372.8 367.7 364.1 362.5 360.9 358.5 353.8 344.7 332.4 328.9 328.6 327.6 326 321.8 325.1 325.8 328.5 334.9 339.2 342 344.5 346.2 346.9 347.3 346.4 347.7 349.4 352.2 353.6 351.1 348.2 342.9 340.1 331.9 330.9 333 327.3 327.3
294 293.7 293.5 293.6 293.6 293.7 293 294.2 299.6 298.9 301.5 305.4 305.5 303.6 302.6 304.5 306 305.5 306.2 306.6 308.1 310.2 314.8 320 323 324.9 325.7 325.9 327.1 329.6 333.7 338 342 347.7 354 361.6 370.4 379.1 391.1 404.7 417.1 424 425.9 425.4 433.5 438.7 435.5 437.1 438.5 436.6 432.7 428.1 424.1 420.1 415.8 412.9 410.3 407.7 404.6 401.2 396.3 391.4 384.1 378.1 374.7 371.2 368.7 368.1 366.2 366.9 371 376.2 382.8 388.2 390.8 391.6 391.9 393.5 392.4 390.2 388.7 386.6 384 383.4 383.5 383.7 383.7 382.3 382.1 381.9 381.7 381.3 380.9 381.3 382.4 382.5 381.1 381.1 381.8 384.9 390.9 400.2 415.2 420.1 421 420.8 418.3 416.6 416 416.9 419.3 421.9 425.4 429.1 433.9 438.9 444.6 450.5 455.4 458.2 462.2 465.4 467.6 468.8 470.2 472.6 474.8 477.7 481.4 483.7 487.1 492.1 497.2 503.8 509.6 514.1 519.4 525.9 530.5 530.8 528.6 524.4 519 510.2 499.3 487.4 476.2 466.3 455.9 447.8 439.9 432.7 424.3 417.7 409.9 400.8 398.2 398.2 399.2 396.2 391 384.6 382.8 379.5 378.2 377 374 368.1 354.2 338.5 336.5 337.6 334.8 336.5 336.5 334.3 335.8 340.9 345.1 348.7 350.8 352.6 354 356.3 358.5 359 356.9 358.3 359.6 360.8 360.1 358.1 354.8 351.2 348.1 344.4 346 343 340.7 333.9
295.5 294.1 294.1 294.2 294.2 294.3 292.4 294.8 299.3 298.5 300 302.4 303.2 301.8 300.9 304.6 307.6 304.9 305.2 306.3 308.3 309.3 313.3 318.5 322.3 324.3 326.3 326.4 327.7 330.4 334.5 338.5 342.8 349 356 363.9 373.2 383.5 395 408.8 421.2 428.1 428.9 429.5 440.9 443.5 440.8 439.4 439.5 437.6 433.6 429.8 425.9 421.7 417.5 414.4 411.8 409.2 406.9 405.2 398.9 393.7 387.1 381.7 378 374.2 372.5 371.4 370.1 367.8 372.6 377.8 383.6 388.9 391.7 392.8 393.3 394.8 395.1 391.7 389.9 388.1 385.2 384.7 384.7 384.5 383.5 382.4 381.8 381.5 381.2 381.6 381.2 382.3 384.6 383.8 380.3 381.1 381.2 384.2 389.6 399.1 411.4 419.4 422.8 421.4 418 416 413.7 414 417.5 420 423 426.4 431 436.9 441.2 446.8 451.4 455.5 459.7 462.4 462.2 463.9 465.5 467.9 471.2 474.4 477.9 480.5 484.1 488.5 495.7 503.1 509.6 516.2 522.6 531.5 537.1 537.1 535.4 531.8 525.7 516.9 505.7 496 486.5 477.1 465.5 457.5 450.7 442.9 434.5 428.4 423.7 419.5 417.2 415.3 412.9 408.3 406.3 399.7 396.2 393 386.2 383.2 376.8 363.8 349.2 345.6 348.1 347.8 349.5 349.9 352.9 352.7 352.4 354.6 356.3 358.7 360.7 363.3 364.6 368.8 372.1 371 368.9 367 368.3 368.1 368.2 366.6 364.6 360.9 359.3 355.6 358 357.2 351.4 347.2
297.1 294.7 294.7 294.8 294.8 295.5 293 295.7 299.7 300.8 302.2 300.2 301.7 300.1 300.3 301.2 306.5 304.2 304.8 307.7 309.1 309.4 314 318.1 321.2 324.2 325.2 326.4 328 331.5 335 339.1 344.1 350.6 357.7 365.8 375.4 386.2 398.5 411.1 423.4 429.9 431.1 435.2 448.3 447.7 446.1 443 442 439.1 435.4 431.6 427.1 423.5 420.1 416.6 413.6 411 409.6 407.5 402 396 391.9 384.9 380.7 377.1 375.6 374.2 372.9 371.3 373 377.4 384.3 389.7 392.8 393.9 394.6 396.9 396.2 393.4 391.1 389 387 385.6 386.8 384.6 383.8 382.4 381.7 380.9 379.7 378.4 379 381.9 386.8 382.9 377.9 380 378.9 381.9 388.6 398.1 410.9 419.8 426.3 422 414.6 413.2 411.8 411.5 415 418.1 421 424.2 429.9 435.6 441 444.8 448.3 452.3 455 456.3 456.7 458.6 461 463.9 466.7 471.1 474.1 476.6 481.2 485.8 493.1 500.6 507.7 516.4 525.4 534.4 540.8 542.3 540.7 536.9 531.2 524 514.7 506 496.4 486.7 477.8 466.9 459.8 451.1 444.9 441.2 437.4 433.8 429.6 427.6 423.4 420.5 413.1 409.9 404.7 398.8 392.5 384.5 375.9 359.4 351 357.6 363.2 363.6 368 368.5 368.2 366.6 366.5 365.2 366.8 368.7 371.2 374.6 377.7 382.5 383.3 381.9 379.8 375.9 375.2 376.1 377.3 376.1 373.9 372.1 369 364.8 363.8 362.7 361.7 361.5
298.3 296 295.6 295.5 295.4 296 292.2 298.3 301 302.5 308.7 302.9 300.3 299.6 300 301 306.5 303.5 306.6 310.9 309.9 310.1 314.1 317.4 321.4 324.3 325.7 326.7 329.1 332.6 336.1 339.7 345.6 352.3 359.4 367.3 377.8 388.1 398.8 412.9 422.4 431.8 433.4 438.6 452.2 452.7 450.3 445.2 442.7 440.1 437.2 432.8 428.3 424.4 421.2 418.5 415.7 413 411.5 408.7 403.6 398.9 394.5 387.7 383.7 380.4 378.4 376.8 375.5 374.2 373.2 377.6 383.7 390.7 393.7 395.3 396.5 397.6 398.2 395.7 393.7 390.8 389.5 386.6 386.8 385.1 384.5 381.6 379.4 378.3 377.5 376 376 380.8 385.4 383.6 374.3 376.8 376.4 379.9 385.7 394.7 411 420 424.1 419.7 411.3 408.9 407.6 406.4 408.9 413.8 418.6 423 428 436 440.3 442.4 444.7 447.3 448.9 450 451.1 452.5 455.9 458.5 463 466.6 470 473.6 478.4 483.2 488.9 496.4 505 515.4 525.7 534.8 542.2 545.7 544.3 540.7 536 529.6 522 513.5 504.3 495.6 486.3 477.2 469.8 462.2 455.4 449.4 445.7 441.7 438 435.2 431.3 425 420.9 414.3 408 399.9 389.5 381.9 369.5 355.6 362.8 372.4 376.7 381.3 379.1 382.4 380.6 378.8 377.4 376.8 378.6 381.8 385.2 389.9 394.7 397.6 398.4 396.1 392.4 386.5 387.1 387.2 385.8 383.4 381.8 381.1 376.9 373.2 372.7 372.3 371.7 371
300 297.7 296.9 296.5 296.2 295.6 294.1 304.1 301.6 302.8 308.8 303.8 301.1 300.4 300.1 302.6 304.9 304.1 306.6 310.3 310.4 311.5 312.9 316.7 322.3 324.6 325.8 327.2 329.6 332.7 335.8 339.8 346.3 353 360.6 368.7 379.3 389.3 400.8 414.2 423.5 432.1 435.1 443.3 453.5 454 450.7 447.3 443 440.5 437.8 433.9 429.2 425 422.2 419.5 417 415 413.5 410 405.3 400.8 396.1 390.7 386.3 383.7 381.6 379.9 378.2 376.6 375.2 378.8 383.7 392.9 395.4 397.4 399.2 399.7 399.4 398.1 396.4 393.1 391.4 388 385.9 385.1 383.6 380.6 377.6 375.5 375.1 374 372.6 376.9 381.5 378.5 372.1 374.4 373.1 375.2 381.3 392.6 403.4 413.6 417.3 414.2 407.2 404 403.3 402.6 403.5 407.9 411.7 418.2 424.4 433.2 436 438.1 441.4 444.3 445.6 445.3 446.3 447.7 449.9 454 458 461.3 464.8 470.2 475.5 480.8 486 492.6 501.7 513.4 523.6 532.7 539.9 545.5 545.4 542.3 540.2 534.2 526.6 518.8 510.2 501.9 493.4 484.7 477.2 469.2 463.6 458.2 453.6 449.1 445.3 440.1 435 428.6 422.5 416.1 407.2 395.8 386.7 376.1 366.5 366.7 374.4 383.2 391.3 394 391.3 394.8 394.5 392.8 391.9 393.9 397.6 399.6 402.1 405 408.6 410.7 409.2 406.3 403.2 398.1 398.3 395.9 393.1 391.2 390.4 389.4 385.4 383.3 382.8 381 379.9 375.8
301.9 299.6 298.6 297.7 296.3 295.6 294.4 302.9 301.2 301.8 304.9 304.1 302.1 301 300.4 301.7 304 304.3 303.7 308 308.4 310.2 312.4 316.4 323.9 325.6 327.3 329.6 328.2 331.3 334.7 340.3 346.7 353.5 361.1 370 380 388.9 402.3 413.6 423.4 431.1 437.1 444.9 450.2 453 451.8 449.1 443.1 440.6 438.2 433.6 429.1 426.2 423.7 421.2 419.2 417.2 415.4 411.2 407.8 404.2 399.1 393.5 388.8 386.3 385.7 383.8 381.5 380.5 379.3 379.5 384.4 393.2 396.5 398.6 401.6 401.7 402.2 400.8 398.9 396 393.6 392 385.2 383.8 382 379.3 374.4 372.6 371.4 369.6 368.6 366.9 370 370.9 368.3 370.3 368.5 370.9 378.7 387.8 398 405.8 409.6 407.3 400.4 396.5 395 395.3 396.5 401.4 405.1 413.2 421.1 425.8 430.3 434.7 438.1 440.8 442.3 442.6 443.5 444.5 446.3 449 453 456.1 460.8 466.3 471.4 477.5 484.2 489.5 497.4 508.7 519.4 528.6 536 541.2 542.8 542.3 540 535.4 529.2 522.6 515.2 507.1 498.9 490.8 483.1 476.1 469.5 463.5 459.4 454.3 448.4 442.9 434.8 428.6 422.7 414.6 405.1 392.6 382.7 374.3 366.5 377.1 385.3 395.4 402.1 396.9 405.6 406.4 407.1 407.9 411.1 412.2 413 412.5 414.5 417.2 419.4 419.3 417 413.9 410.6 407 404.4 401.9 400.3 399.9 400.4 397.6 395 392.4 390.6 388.1 384.2 379
303.6 300.7 299.9 298.4 297.1 295.9 293.8 304.2 300.6 301.9 305.7 304.9 303.5 301.8 301 300.9 305.9 304.9 304.6 306.5 307.4 308 309.8 315.4 323.6 324.9 326 328.7 328.9 330 334.1 340.5 346.9 354.3 361.9 370.9 380.3 390.1 402.2 412.4 423.7 430.4 437.8 445 451.6 452.8 452.4 449.9 443.9 440.8 438.9 433.9 429.5 427.2 425 423.2 421.2 419.2 417.2 413.8 410.1 407.1 404.1 398.8 392.6 389.8 388.9 386.6 384.7 383.3 382 379.9 386.5 392.6 396.5 399.6 403.8 404.4 404.9 403.3 401.8 399.1 398.2 396.2 387.4 382.8 380.8 375.7 370.2 368.9 367.9 365.4 366.1 361.9 354.4 363.8 365.1 361.9 363.2 365.3 372.3 381.5 389.9 396.9 400.4 398 392.8 388.7 384.6 385.7 387.6 393.2 400.7 407.7 416 420.6 426.8 431.2 434 434.3 434.9 436.2 437.9 440.4 442.9 444.9 447.9 451.2 456.5 462.5 468.1 472.9 480.4 486.2 494.2 502.8 513.1 523.8 530.4 535.3 538 539.2 537.1 533.3 529.3 523.5 516.7 508 499.9 492.3 485.3 479.7 473.6 467.8 462 456.5 448.9 438.5 432.6 428.1 420.6 412.1 402.6 389.3 382.1 374.8 377.1 388 393 406.8 408.9 411.9 419.3 422.2 424.1 427.3 426 425.2 423.1 422.4 424.5 426.4 427.3 426.4 424.5 421.2 416.7 412.8 410.7 410 409.5 409.2 408.8 406 402.2 399.1 395.3 391.8 386.1 380.4
304.7 301.5 300 298.5 297 295 294.5 300.2 299.6 299.9 303.8 304.9 303.6 302.9 301.6 302.5 307.4 304.1 304.3 304.9 309.1 305.7 309 314.3 321.2 323.6 324.5 325 325.8 327.9 332.5 339.4 345.9 353.5 361.8 370.7 379.4 389.5 401.1 411.2 422 428.5 434.5 443.4 450 451.5 451.3 448.2 445 442.3 439 433 429.4 427.2 425.7 424.1 422.3 420.4 418.4 416.3 413.1 411.1 409.2 403.8 398.6 393.7 391.7 389.6 388.1 386.6 385 382.7 385.4 390.4 396.6 400.6 405.8 405.9 407.5 407.2 405.6 402.7 402 398.6 388.9 383.4 378.9 372.7 368.5 367.6 369.4 364.1 362.2 355.8 354.3 355.1 354.3 353 352.1 355.4 362 369.3 379.1 386.4 389.3 385.1 376.9 374.3 371.7 375.3 379.1 383.9 392.7 401.6 410.2 415.4 423.1 429.8 431.6 431 432.3 433.7 434.5 434.6 438.4 441.1 444 447.8 451.7 456.7 464.1 470 476.2 481.7 490.8 499.6 507.1 516.9 523.7 528.1 532 533 532.1 530.1 527.2 522.3 516.2 508.3 500.4 492.9 485.7 480.3 473.5 467.2 461.6 453.4 445.6 436.8 432.3 426.7 419.8 411 401.3 390.9 381.5 377.4 387 397.2 399.5 414.8 416.6 425.7 433.8 439.3 441.3 439 436.7 433.8 431.8 430.4 432.5 433.3 433.2 432.2 429.5 426.1 421 418 416.9 417.1 417.5 417.4 416.3 412.4 408.5 404.5 399.4 393.6 386.6 379.7
305.8 301.9 300 298.5 297 295.1 305.8 297 296.9 299.2 302.2 303.4 304 305.9 302.4 301.4 304.7 303.9 304.3 303.7 304.5 305.5 308.1 311.8 319.4 322.2 323.3 322.3 323.4 326.3 330.7 337.8 345.2 352.9 361.9 370.8 379.3 388.9 400.8 409.4 417.6 424.3 430.2 437.9 445 447.9 447.9 446.3 443.7 440.1 436.1 432.8 429.4 427.9 426.5 424.8 423.1 422 420.7 418.4 417.1 416 414.2 409.3 405.3 399.5 396.9 393 391.4 389.7 388.1 386 386.4 389.8 395.1 400.7 404.8 406.3 409.3 409.8 408.6 407 402.4 398.1 391.1 384.7 376.6 372.6 366.9 364.6 365 360 356.6 352.1 346.4 340.3 343 342.2 341.1 341.5 347.9 355 364.3 370.5 372 366.8 362.5 359.9 357.2 361.3 366.8 372.8 380 390.7 401.3 410 418.1 427.1 426.5 426.9 429.4 430.5 433.2 434.1 436.5 438.8 440.3 443.2 446.6 451.1 459.4 466 471.1 477 486.3 494.8 502.4 510 517 520.9 524.7 526.2 526.1 525.9 523.8 520 514.7 507.4 500.5 493.6 486 477.1 472 465.8 456.3 448.9 441.2 436.2 431.4 425.5 418.9 410.4 402 393 384 385.6 397 404.6 408.1 421.4 427.3 438.7 446.7 451.8 451.6 449.1 445.7 442 439.5 438.1 436.7 435.8 435.7 434.7 431.5 428 423.6 421 420.9 422.6 423.7 424.8 422.4 418.1 413 408.4 401.6 394.1 387 378
307.8 302.8 300.4 298.4 297.3 295.4 296.2 295.5 296.1 300.5 304.4 304.3 305.3 307 303.2 301.8 302.8 303.3 304.3 303.9 304.8 307.1 307.3 311.7 316.8 320.7 322.4 321.2 321.3 324.5 328.9 336.2 344 352.1 361.1 370.1 379 387.4 398.2 407.8 413.4 419.1 425 430.8 438.3 442.5 443.8 443.1 440.7 437.1 434.3 431.1 429.1 427.6 426.6 425.6 423.9 423.2 422.6 422.1 421.6 420.5 419.7 415.7 411.1 405.8 403 397 394.1 392.4 390.7 388.8 387.4 390.2 393.4 399.2 403.9 406.6 410.1 413 410.7 408.4 404.2 399.8 393.7 384.9 378.6 367.5 366 363.1 359.3 361.2 357.4 342.7 337.3 331.8 332.4 332 331.5 329.4 334.5 340.7 348.2 351.7 353.6 352.7 348 345.1 342.6 345.3 351.5 362.1 371.2 379.9 391 401.2 412 418.9 420.5 423.9 429.7 431.6 432.5 433.8 435.2 435.8 437.9 438.6 442.2 446 455.2 461.3 466.2 472.7 480.8 489 496.5 503.3 508.8 513.4 517.5 519.3 519.7 520.1 519.6 517.5 513.3 507 500.1 492.4 482.2 475.5 469.1 460.5 451.6 447.2 440.8 434.4 428.5 423.7 417.3 410.6 402 393.1 384.4 392.9 403.3 412.1 419.3 428.2 438.5 446.7 453.9 459.7 460 456.4 451.6 447.7 443.3 440.9 438.5 436.9 434.6 432.2 429.4 426 423.8 422.7 422.7 423.3 427.7 428.5 426.5 422.6 416.6 410.5 403.7 395.4 384.9 374.6
310.2 304.4 300.8 298.9 297.7 296.4 297.1 297.5 296.3 301.8 306.5 305.7 306 308.6 305.6 301.8 302.2 303.3 304.5 305.4 305.6 307.1 307.5 307.7 314 318.4 319.6 319.3 319.2 322.8 326.5 334.3 342.6 350.7 359.6 369.2 377.9 385.7 395.6 403.8 409.2 414.2 419.5 424.5 430.9 435.2 437.3 438 436.9 433.4 431.1 430.2 428.3 427.2 426.6 426.4 424.9 424.6 426 427.3 426.6 425.9 424.8 421.2 417.2 413.2 408.3 402.1 397.4 394.8 393.2 391 388.4 391 394.2 397.3 401.2 404 410.5 413 410.5 409.2 406.3 404.3 397.4 386.9 377.2 366.8 365.9 360.5 353.7 355.6 346.7 339.7 333.7 329.1 326.2 323.7 322.6 323.3 325.3 328.2 333.3 338.2 339.8 339.6 339.2 337.9 336.8 338.9 342.1 353.9 363.9 373.2 381.3 392.9 403.7 409.1 414.9 424.2 428.3 430.3 431.1 431.7 432.6 433.2 436.1 437.1 439.4 442.4 449.9 456.8 461.8 467.5 475.5 483.7 490.2 496.5 502.2 506.6 510.1 512.1 511.8 513.3 512.7 510.8 508.2 504.1 496.1 489.4 482.6 474.6 466.1 455.9 451.4 445.2 437.8 430.7 426.3 421.4 415.1 408.5 401.2 391.4 390.3 398.3 408.4 420.6 418.3 436.3 445.3 452.6 459.5 464.6 463.7 458.4 452.7 447.5 442 438.7 436.3 433.2 430.9 428.3 425.6 423.2 422 420.1 420.6 422.5 426.2 427.2 425.3 422.5 417.4 411.1 404.5 392.7 383.3 372.8
313 306.8 302.4 300.2 299.1 298.3 298.4 298.4 296.8 302.3 306.4 308.2 307.2 307.3 304.7 302.3 302.1 303.4 304.6 305.3 305.8 306.3 306.4 306.8 312.5 314.8 316 316.5 317.6 321.2 325.1 331.4 340.1 349.3 358.4 368.1 376.2 383.4 391.9 398.4 404.8 409.5 413.1 417.4 423.5 426.5 429.6 431.3 430.8 427.2 427.8 428.3 427.9 428.4 427.1 426.7 427.2 428.3 429.9 431.4 432 431.7 431.2 428.8 422.5 417.5 412.6 407.7 402.4 398.1 395.2 392.6 390 392.5 395.2 397.6 400.3 403 406.6 409.7 408.5 409.1 408 408.7 403.5 390.7 377.4 368.5 363.4 357 345.1 345.5 341 335.3 332.1 325.1 320.6 318.6 318.3 317.6 319.3 321.1 325.5 326.7 327.7 328.9 330.1 330.7 331.5 333.8 338.3 345.3 354.1 363.6 372.8 381.9 389.3 397 408.7 416.4 420.8 423.9 426.2 426.7 432.3 436 437.6 437.3 437.4 439.9 445.1 451.5 457 463 470.2 478.1 483.9 489.5 494.2 498.9 502.2 504.3 506.6 507.2 507.3 506.3 504.8 499.6 494.2 487.1 479.7 471.9 463.8 455 449.5 443.2 435.7 429.8 424.5 419.1 412.7 405.6 397.4 393.5 397 403.5 417.2 425.5 423.6 441.2 450.8 458.2 464.7 466.2 462.2 457.1 451.1 444.4 439.4 435.4 431.2 428.2 425.4 422.3 420.2 418.4 417.4 416.4 418 420.3 422.4 422.6 422 419.7 416.2 410.2 401.9 390.8 380.9 369.6
318.1 309.6 304.4 301.1 299.6 299.3 299.9 300.7 297.3 302.6 306.6 310.4 308.3 307.1 307.3 303.8 302.2 302.3 303.7 304.9 305.4 305.9 306.2 306.5 309.2 313.1 314.4 315.3 316.8 320 323.5 329.9 337.3 346.4 356 366.4 374.2 380.2 387 394.3 400 404.8 408.1 411.3 415.7 419.2 422.3 424.9 425.9 423.7 425.2 427.3 428.5 428.7 429.6 430 431.1 431.2 433.7 436.4 439.4 438.4 439.5 438.1 430.3 425.1 419.4 415.3 410.3 405.2 399.2 395 391.7 393.2 395.6 397.7 399.8 402.1 404.4 406.9 407.6 407.9 408.5 414 404.2 397.3 376.3 370.2 360.3 352.7 344.6 333.8 335.1 327.6 325.1 321.6 318.9 316.8 316.4 316.3 314 314.6 318.7 318.8 318 321.3 324 326.2 327.7 328.7 331.4 335.1 341.1 349.9 362 370 379.5 392.1 401.4 405.1 408.6 413.4 416.9 422.2 430.2 439.9 439.4 437.4 434.8 436.3 440.1 445.6 451.5 458.4 465.4 471.3 476.1 480.8 486 490.6 493.8 496.2 498.3 502.1 502.9 502 500.2 496.3 491.2 484.3 477 469.7 461.8 453.2 446.3 439.4 433 427.5 421.7 416.1 407.9 401.3 398.3 400.7 405 414.6 423.7 430.3 428.2 442.9 453.5 461 465.5 463.5 459 453.8 447.1 440.4 434.6 430.3 427.2 424 419.7 416.5 414.1 412.5 412.2 411.8 413.5 415.8 416.9 418.1 418.3 416.2 412.9 407 398.9 388.6 377.4 365.2
322.3 312.7 307.1 302.5 300.4 300.3 300.7 300.6 297 303.6 308.4 311.5 310 308 306.7 307.2 304.7 302.7 302.3 302.7 303.4 304.2 305.2 306.1 307.5 311.1 311.5 314 314.9 317.9 320.7 326.6 335.4 343.6 353.4 363.3 370.2 376.3 383.1 390.1 394.7 398.8 403 405.6 408 411.9 414.7 417.8 420 420.8 422.7 425 427.5 428.6 429.7 431.3 433.1 433.8 439.6 444.1 446.4 444.2 445.7 445.8 439.1 433.7 428.8 423.9 415.8 411.8 405.5 398.6 394.2 394 395.8 397.9 400.4 402.4 404.2 406.6 407.8 407.6 408 410.5 406.2 398.1 379.4 367.5 359.1 350.3 339 339.5 334.7 328.6 322.5 320.4 320 316.9 314.3 313.5 310.1 309 310.9 315.3 317.3 319.2 320.5 323 324.5 326.7 327.4 329.5 333.1 340.1 348.1 366.7 380.1 387.4 395.8 400.2 403.1 407 412.8 418.2 425.4 434.2 436.7 436.7 436.1 433.6 436.5 440.3 445.4 452.8 459.1 463.8 467.4 472.1 477.1 481.8 484.6 487.8 490.8 494.9 497.9 497.4 495.5 491.8 487.1 481.5 475.7 468.7 461.1 451 443.9 437.4 430.9 424 417.6 411.1 405.4 403.7 405 407.5 418.9 425.4 428.2 434.1 430.7 442.2 455.3 462 463.6 460.1 455 448.5 441.7 435.4 429.6 426.2 422.4 418.8 415.6 412 409.5 407.6 407.3 407.4 408.1 409.3 410.3 411 413.1 411.5 408.3 402.4 394.6 384.3 375.2 361.7
328.1 316.9 310.3 304.2 301.7 301.4 301 298.4 299.2 305.2 309.5 312.3 311.8 309.9 308 307.3 306.3 304.1 304.2 304 304 303.6 304.3 305.7 307 309.3 311.6 313.2 314.2 315.7 319.8 326.1 332.9 340.4 351.5 359.9 366.7 371.3 378.3 384.9 388.7 392.7 397.4 399.9 402.7 405.9 409.2 412.5 416.1 418.2 420.2 423.5 425.8 427.2 429.2 431.6 433.1 436.8 444.9 449.8 451.7 451 456.2 457.5 449 438.6 434.3 430 422.2 416.8 409.3 402.7 396.9 394 396.4 399.2 401.4 402.6 403.9 406.3 408 407.4 407.6 407.4 403 396.9 383.9 368.7 360.7 355.9 352.5 339.2 333.7 327.2 322.4 320 320.1 319.7 313 309.7 309 305.6 306.4 313.2 316.3 318.2 318.7 321 323.6 325.2 326.2 328.1 331.3 337.6 345.4 359.4 373.1 381.2 387.8 392.6 396.2 404.6 411.1 416.5 422.8 426.4 431.5 434.8 435.4 433.4 432.9 435.5 441.7 447.3 452.3 456.5 460.6 465 469.5 473.9 477 479.8 484.4 488.6 492 492.1 491 488.3 483.5 478.2 473.4 467.7 459.6 450.4 444.1 437.1 428.9 423.7 417.1 412.9 409.8 411.1 413.1 421.5 427.7 432.4 434.4 438.7 440.1 446.5 456.6 461.1 460.2 456.4 450.3 444.4 437.2 431.7 426.8 422.5 418.7 414.8 410.9 407.5 404.6 403.5 402.4 402.9 403.6 404.3 405.3 405.9 407.4 406.9 403.3 397.9 389.8 380.6 372.2 359.2
333.3 321.6 313 306.2 303.7 302 304.1 298.2 299.5 304.6 311.1 314 313.3 311.1 309.3 308.2 307 305.2 305.7 305.5 305 304.6 304.2 305.3 306.6 309 311.1 311.8 313.1 314.8 318.7 325.4 331.4 337.7 347.2 356.5 362.1 368.9 373.9 379.2 384.1 387.7 392.1 394.7 397.9 401.1 404.7 408 412.5 415.4 418.4 421.4 423.5 424.9 427.1 429.7 432.5 439.1 447.6 453.5 455.7 455.2 460.8 464.9 458.2 446.4 441.9 433.1 427.6 419.3 413.2 407.3 399.3 396.1 397.9 400.1 401.7 402.7 403.8 406 407.8 408.6 407.2 405.6 398.9 396.2 383 371.7 366.7 364.9 360.2 340.3 329.6 334.1 319.9 318.9 317.4 318 313.1 308.9 306.2 302.3 302 308.2 308.6 311.3 313.9 318.6 322.1 323 324.3 325.9 327.6 335.4 343.3 349.5 360.6 368.9 379.1 378.5 391.9 399.8 405.2 413 420.7 425.4 428.4 431.3 431.7 430.2 430 432.3 436.3 442.5 445.2 449.5 454 458.6 463.4 467.1 468.7 473.8 478.8 483 486.3 486.9 486.7 486.1 482.6 477.7 472.3 464.3 459.4 451.5 446.2 441.6 433.8 429 423.4 418.1 417.7 421.8 426 430.7 434.5 438.2 439.9 442.5 444.1 453.1 456.1 457.2 456 452.6 446.3 441.4 434.4 428.2 423.1 417.9 414.1 410.1 406.2 402.8 399.7 398.6 397.6 398.2 398.8 399.4 400.9 401 402.8 403 398.6 393.8 386.8 378.4 368.7 354.8
340.1 327.7 316.6 308.7 305 302.8 303.1 300.4 299.3 304.5 310.4 313 313.2 312 309.5 313.6 308.8 306.4 306.8 306.5 306 305.6 304.6 305.3 306.6 310.4 310.7 312 313.2 314.9 317.5 321.3 328.1 335.4 343.5 352.4 359 364.6 368.8 373.2 378.6 383.3 388.1 390.8 393.4 396.4 400 404.3 408.8 411.2 415.1 418.5 421.3 422.6 425.4 428.1 431.3 437.2 446.3 451.8 457.6 458.3 462.1 471.2 464.1 454.3 449.7 436.6 430.7 423.2 417.8 411.6 403.6 397.7 398.9 400.7 401.8 402.9 404 405.7 407.7 409 409.1 406.8 397.9 395.5 399.5 388.2 372.1 364.4 357.9 342 328.6 329.7 320.8 318.2 316.4 315 313.9 311.3 307.6 303.4 298.9 297.8 297.6 299.9 304.3 312.9 317.6 318.7 322.3 323.1 324.4 330.2 337.3 341.8 347.8 358.3 366.6 376.4 386.1 394.2 400.3 408.6 420.1 424.8 425 425.7 426.7 427 429.3 430.4 432.5 436.4 439.7 443.8 448.5 453.2 457.4 459.8 462.6 466.4 472.9 477.3 480.8 482.7 483.6 483.5 481 478.2 474.4 463 458.2 453 448.1 440.3 436.8 434.5 430.7 427.6 427.7 430.6 434.8 436.7 439.1 443.4 447 448.9 451.5 454.1 453.2 453 450.9 446.5 442.8 437.6 431.4 425 419.3 414.1 409.4 405.5 401.6 397.9 395 393.6 392 391.8 392.3 393.9 395.4 396.5 398.7 399.3 396.4 391 384.1 374.8 358.8 347.4
345.5 332 320.7 312.3 306.2 303.4 304.4 301.4 299.6 303.5 309.4 312 312.9 311.4 310.5 315.9 309.5 307.9 307.6 307.4 307.1 306.6 305.8 305.3 308.6 310.5 310.6 311.4 312.5 314.6 316.7 321.2 325.2 333 340.7 348 354.7 360 364 368.1 372.9 379.6 384.1 387.7 390.1 392.8 396.5 399.7 404.3 407 411.1 415 417.4 419.3 421.5 424.2 427.7 432.5 439 445.4 453 456.5 461.7 469.4 470.7 460.9 455.9 441.3 433.5 427.2 422.4 414.6 406.7 399.8 399.9 401.4 402.5 403.6 404.7 406.3 407.8 407.8 407.4 402.4 395.9 392 392.4 382 367.6 359.4 347.7 331.1 327.9 328.1 319.9 318.7 315.8 312.3 312.3 313.7 312.7 310.5 303.8 293 292.6 293.5 295.5 301.2 308.5 316.1 319.9 318.9 321 327.3 332.4 337.1 341.6 348.4 359.7 369.9 379 387.9 397 405.8 414.3 418.5 419.9 422.4 424.5 426.5 427.7 429 430.4 432.4 434.9 438.3 442.8 447.2 450.1 452.6 455.8 461.2 466.7 471.1 474.7 477.2 478.5 478.4 476.2 474.9 467.1 460.9 458.1 456 455.6 450.5 444.5 442.6 437.8 436.7 435.4 439.9 444.7 447.8 450.3 452.1 452.8 453.3 454.9 455.3 452.4 449.3 445.3 441.9 438.4 433.5 426.7 420.2 413.6 409.6 406 401.5 397 393.1 389.7 387.6 386.1 385.9 386.2 388.8 390.6 392.5 394.6 395 392.1 386.8 378.1 364.6 354.8 345.2
348 336.2 325 316.8 308.9 305.8 303.3 303.8 300.4 303.2 308.3 311.3 312.5 312.6 312.4 319.6 309.9 308.3 308.1 307.6 307.1 307.3 307 306.3 308.6 310.9 310.6 311.1 311.9 314.3 316.8 319.9 324.7 330.2 337.6 344.4 350.4 355.2 359 362.7 367.8 374.5 379.3 384.1 387.1 390.3 393.4 396.7 399.8 402.6 406.8 409.6 412.8 415.3 417.7 420 421.8 427.5 433.2 438.9 444.5 449.1 455.9 463.9 470.2 463.1 459.9 445.9 438.6 431.3 426 419.7 411.2 403.6 400.4 402.1 403.2 404.7 406.4 407.2 407.9 408.9 406.5 399.3 393.7 386.6 383.3 374.6 365.9 357.8 347.9 335.6 328.8 326.2 320.5 320.5 314.7 311 308.3 308.3 306.8 304.4 297.4 291.8 289 288.7 290.6 294 303.3 311.8 313.6 315.5 317.1 319.3 327.6 331.6 338.8 344.1 353.2 363.4 371.5 380.3 391.2 399.4 405.1 411.1 415.5 421.2 424.7 426.5 427.6 428.5 429.4 429.5 431 433 436.8 440.4 443.2 446.5 449.8 454 460 464.5 468.5 471.4 474 474.7 468.7 465.1 464.4 468 468.3 468 465.2 458.7 458.5 453 448.9 445.3 445.8 450.1 453.9 456 457.4 458.2 459.2 459 457 454.6 450.7 445.9 440.7 437.2 433.8 427.4 421.9 415.8 409.8 405.7 402.8 398.3 393.8 388.4 384.5 381.5 379.8 378.8 379.1 382.8 386 388.7 390.7 389.6 386.7 379.5 371.9 363.9 352.3 343.6
351.1 340.5 327.8 319.6 312.5 307.1 304.2 302.6 301.2 303.1 306.7 310 311.6 312.1 316.3 320.7 310.7 308.7 308.5 308.1 307.6 307.1 306.9 306.9 308.8 310.3 311.1 311.9 312.8 313.3 316.5 319.7 323.8 328.8 334.1 340.2 346.4 350.4 354.1 358.1 362.9 368.3 374.2 378.7 381.5 385.7 390.4 393.2 395 397.4 401.4 404 407.5 410.3 412.8 413.6 416.3 420.8 425.9 431.7 436.6 441.3 449.1 456.9 460.9 460.3 458.1 449.4 443.3 435.7 427.9 422.6 416.6 407.8 404 403.3 405.3 407 408.5 409.6 410 409.9 408.1 400.4 392 383.2 375.4 367.6 365.4 357.2 350.8 344 335.6 326.6 324.5 317.6 312.8 309.2 306.3 304.6 300.5 297.4 292.2 288.4 284.8 285 286.5 289.6 296.6 303 307.9 313.2 316.3 315.7 322.1 330.3 337.5 341.8 349.4 357.7 363.9 372.3 382.3 389.2 398.6 405.9 413.8 419.8 422.9 424.5 426 427 427 426.1 427 428.5 430.7 433.9 437.2 440.6 443.9 446.9 451.9 456.7 460.4 465.5 468.7 469.3 469.1 473 475.7 479.1 479.8 478.3 475.2 472.2 467.7 463.8 461.3 459.1 458.6 460.2 461.8 463 463.3 464.2 464.7 462.3 459.4 455.6 448.9 442.5 437.1 432.5 426.8 421.6 415.9 411.5 406.3 402.3 398.7 393.8 388.5 384.2 380.7 377.9 374.8 373.9 375.3 378 382.9 385.9 387 384.2 381.9 377.6 372.5 366.5 357.5 348.2
353.2 342.6 331.5 321.8 315.8 309.9 305.7 303.4 301.5 303.7 304.5 307.5 310.4 311.1 318 327.2 312.1 308.1 308.5 308.5 308.1 307.7 308.6 308.2 307.8 308.7 312.8 312.3 313.3 314.2 315.8 319.2 322.6 327.1 332 336.9 343.1 347.3 350 354 357.9 362.3 368.2 374.2 377.7 381.6 384.8 388.9 390.9 393.1 395.7 398.6 401.9 404.5 407.9 409.1 411.7 414.8 419 423.6 428.8 436.2 443.1 450.6 454.4 454.8 454.6 452.5 447 439 432 428 420.2 412 405.6 404.5 406.6 408.7 410.4 411.8 411.7 410.8 408.8 401.4 393 382.9 373.5 367.8 363.3 358 354.8 344.5 337.1 329.4 326 322 313.4 309.4 304.5 300.6 295.8 292 289.4 286.1 283.2 283 283.6 285.4 289.3 298.3 308.5 311.2 309.1 315.1 319.6 328.4 338.5 339.7 344.4 350.6 358.2 366.5 375.1 380.4 392.8 401.8 407.1 411.2 416.1 419.3 423.2 424.4 426.2 425.5 423.2 425 424.5 425.9 429.3 433.1 436.2 439.6 443 447.9 452.5 458.3 461.1 464.4 469.5 473.1 478.6 481.7 483.7 484 482.7 479.1 476.9 474.5 472.1 470.8 469.2 469.9 470.1 469.8 469.8 470.3 469.7 466.3 461.4 455.3 448.9 441.1 434.5 427.4 419.8 413.9 409.3 405.7 401.3 397 393.5 389.3 384.3 380.7 376.2 371.8 370.6 369.7 371.6 374.3 381.1 385.6 387.9 388.9 389.9 388.4 382 375.5 367.9 360.1
355.4 344.2 334.7 325 318 312 307.6 305.2 303.2 301.6 302.6 305.5 307.6 308.4 315 320.4 316.8 308.1 308.2 308.1 308.1 308.2 308.7 309.6 309.2 308.6 310.4 311.5 312.7 314.9 316.8 319.6 322 325 329.8 334.6 339.8 344.7 346.9 349.7 354.4 359.2 364.8 370.1 373 377.2 379.7 384.5 387.1 390.5 393.6 395.9 398.1 399.7 403.4 404.7 407.5 410.3 413 417.4 421.5 430.1 437.3 443.3 448.3 449.4 450.4 450.9 446.5 440.1 434.7 430.4 426.1 415.9 406.5 405.9 407.2 410.5 411.9 413.6 413.6 413.8 412.7 407.2 399.5 390.5 378.8 371.7 365.9 363 358.8 348.6 341 331.7 324.5 325.5 314.3 311.9 307.4 301.6 296 290.9 289.2 285.8 282.6 281.2 282.4 284 284.3 294.3 304.4 305.7 303.9 309.7 317.3 327.3 336.4 337.4 340.4 347.1 354.5 362 370.1 377.4 386.8 395.2 400.6 406 409.6 413.2 420.4 422 425.2 425.9 422.4 420.4 420.6 420.2 422.1 426 428.5 432.8 435.1 439.9 446.1 451.3 455.6 460 464.5 471.2 475.8 481 485 487.1 487 486.1 484.9 483.8 481.6 479.2 478.7 478.9 477.2 476.9 476.8 478.6 476.9 471.2 463.5 457.3 448.8 439.3 431.7 424.5 412.6 405.7 400.8 399.1 395.9 392.1 388.1 383.9 380.6 377.1 372.7 367.1 366.4 366.1 367.5 372.1 379.5 384.4 387.9 391.5 394.6 393 387.3 381.4 374.8 372.9
357 346.2 336.1 328.8 321.1 315.4 309.4 306.9 304.9 302.9 301.4 305.4 307.3 307.6 312.1 308.4 306.7 308.1 309.5 308.9 309 308.1 308.1 309.2 310.3 310.1 312 310.7 312.3 314.2 316.5 319.1 321.7 324.9 328 332.5 337.3 342.1 344.2 346.5 350.6 355.9 362 367.8 370.6 373.2 376.3 380.9 384.6 388 391.4 393.7 395 396.3 398.6 402 404.3 408 411.7 415 416.5 423.1 429.3 435.7 441.8 445.5 446.4 447.4 444 438.4 435.1 430.1 426.6 415.5 408.6 407 408 411 414.6 415.9 418.7 419.1 418.9 420.3 413.4 398.3 387.3 378 369.8 362.7 359.5 353.7 345.5 337.6 325.6 321.5 314.2 310.3 307.8 302.5 297.6 292.9 289.9 286.2 283 280.2 280.5 280.7 281.6 288.2 295.5 298.6 300.8 306.9 314.2 323.7 329.8 332.3 336.3 343.5 350.7 358.2 364.2 371 380.1 390.3 398.9 402.9 406.5 409.6 416.6 420.7 423.1 425.7 422.6 419.7 417.6 416.3 417 417.4 420.9 425.2 429.3 433 436.2 445 451.1 456.3 460.9 467.1 472.3 479.4 484.2 488.3 490.7 491 491.3 490.7 489.5 487.8 486.4 484.6 484 483 482.8 481.6 478.3 473.6 467.2 459.3 450.5 441.5 432.7 422.6 408.6 400 394.8 391 388.4 385.4 381.4 378.5 375.4 371.1 365.8 361.4 360.1 360.5 363.3 369.8 377.8 382.4 387.7 392.2 395.4 394.4 392.2 388 383.8 383.4
356.8 347.7 339.2 330.9 324.5 317.7 311.2 308.2 306.3 304.4 302.4 303 306.3 307.1 306.9 307.1 306.2 307.1 313 309.2 308.5 308.1 307.5 308.6 309.9 310.5 312.7 311.5 312.4 314.2 316.1 318.7 321.3 324.3 327.9 331 335.1 339.1 341.3 343.6 347.4 352.9 359 365.2 368.5 370.6 374.7 378.8 382.1 385.5 388.9 391.1 392.4 393.9 395.1 398.5 401.9 405.2 408.6 412.1 415.2 417.9 423 429.1 434.4 440.3 442.4 443.5 440.9 439.6 436.8 431.4 424.1 415.7 411.5 409.3 408 411.1 415.2 419.8 422.5 422.9 420.9 425.1 417.4 401.5 392.5 382.4 372.4 363.3 358.9 354.3 349.8 337.8 330.1 321.7 316 310.3 306.3 302.5 299.2 295.2 290.6 286.5 283.7 281.2 278.7 279.6 280.5 283.2 287.4 291.5 296.4 302.3 309.1 317.8 323.1 327.7 332.6 338.5 343.9 349.5 357.3 365.5 374.2 383.6 392.2 398.7 402.6 407.7 412.7 418.7 420.5 424.9 422.1 418.6 416.1 413.6 413.6 412.7 412.9 414.9 421.4 425.9 430.1 437.9 444.2 450.5 455.6 462.2 468.8 476.7 483.2 489.1 493.4 495.4 496 496.6 495.6 494 491.6 489.1 488.5 485.3 482.8 480.1 476.2 471.7 466 458.8 450.5 442.5 433.4 421.3 410.4 396.2 390.1 384.3 380.2 376.5 374.1 371.2 368.5 364.7 360.3 357.7 356 354.7 360.5 368 375.6 380.8 387.1 391.9 395.3 393.9 394 392.5 390.1 393.2
357.9 349.4 341.2 332.6 325.7 318.7 312.8 309.8 308 305.7 303.3 302.3 303.3 305.3 306.6 306.4 306.1 307.1 314 311 309.2 307.2 307.1 308.7 309.7 310.7 311.8 312.6 313.3 314.7 315.8 318.3 321 323.9 327.8 330.9 333.7 335.8 338.1 340.9 344.7 350.5 355.8 361.3 364.9 369.1 373.8 377.9 380.3 383.3 386.5 388.2 390.9 392.9 394.9 397.4 400.4 403.6 406.1 409.2 413.3 416.7 419.7 423.8 429.1 434.4 438.7 440 439.3 438.4 435.3 431.3 423.4 417.4 413.6 411.2 410.2 412.9 416.1 420.2 424 423.7 421.7 425.5 416.9 402.3 393.1 384.1 375 365.8 359 355.1 348.1 339.6 331.4 321.6 318.1 310.3 306.2 303.3 299.1 296.1 290.3 286.2 283.6 281 278.4 278.5 279.6 282.5 285.8 288.1 293.6 299.7 305.8 313.9 318.7 324 328.2 333.5 338.8 344.3 352.9 361.1 369.8 376.9 383.7 390.6 395.9 402.3 409 414 417.4 420.4 418.9 417.1 415.9 413.1 411.6 410.5 410.9 409.5 412.6 419 424.4 431.4 437.9 444.2 450.6 457.1 465.3 473.8 482.2 488.7 494.2 498.7 500 500.6 500.1 499.3 496.7 493.4 489.8 485.8 481.6 477.1 473.2 469 463.7 456.8 449.8 442 433.4 422.5 412 397.1 386.8 377.6 372.7 370.2 367.4 364.4 361.8 358.2 354 351.2 349 350 358.1 367.1 373.2 380.5 385.4 389.6 391.3 391.7 391.5 391.3 393.6 397.5
358.6 349.9 341.1 333.5 327.1 321.1 315 312 308.6 306.5 304.1 302.8 302.3 304 304.3 304.3 304.3 304.7 307.3 305.1 304.9 308.3 309.7 310.3 312.4 312.3 312.3 313.8 315.1 316.4 317.5 319.3 321 324.1 326.4 329 331.5 333.3 335.3 338.5 343.2 349 353.5 359.3 363.7 368 372 376.1 379.1 381.9 384.8 387.9 390.9 393 394.9 396.8 398.8 400.7 404.4 407.9 411.4 415.3 418 420.6 425.6 431.1 435.3 437.4 437.3 436.6 433.2 427.4 424.3 420.8 418.9 414 412 413.6 416.3 419.9 422.5 422.6 421.5 424.3 414.6 401.2 393.6 385 375.4 365.3 360.4 354.4 347.3 339.8 329.8 321.8 315.5 311.1 308.3 307.4 301.3 295.6 291.5 285.9 283.4 280.8 278.8 277.6 278.6 281.7 283.8 287.4 295.1 301.5 308.2 312.7 315.7 319.1 324.8 329 334.1 340 346.7 354.7 362.4 369.3 375.3 383.8 390.2 396.2 401.9 407 413.3 417.6 415.6 415.8 416.2 414.6 411.5 408.2 407.5 406.8 405.6 410.4 419.1 427.1 433.6 438.6 445.7 451.8 461 470.7 480.3 487 493 497.9 500.6 502.3 501.6 500 497.1 493.4 489.2 484.4 479 474 470 465.2 459.5 453.5 446.5 440 431.6 422.7 412.6 402.1 388.3 376 368 362.2 358.8 355.9 353.9 350.3 348 344.5 345.1 346.5 356.3 365.6 371.7 377.6 382.2 384.8 386.2 386.4 386.5 388.5 391.7 396
358.2 349.2 341.5 334.9 328.9 322.9 316.9 312.9 308.4 306.6 304.9 304 303.1 302.5 303 304 305.1 304.6 305 305.1 305.5 304.6 306.5 309.5 310.8 311.7 313.2 315.3 316.1 316.9 318.8 320.5 322.4 324.7 328.1 329.7 331.9 333.1 334.7 337.3 340.7 345.4 351.3 357.3 362.6 366.9 371 375.7 378.8 381.1 383.7 387.1 390.4 392 393.3 394.8 396.1 399.2 402.8 406.3 409.8 413.9 416.6 419.5 422.9 427.8 432.2 434.7 435 435 431 428.1 427.3 425.5 423.9 418 415 414.7 417.7 419 419.1 419.6 420.7 422.3 410.3 400.2 391.7 383.7 373.1 364.3 358.1 353.5 344.6 337.2 328 322.3 316.3 311.1 309.1 307.1 302.8 296.1 292 285.7 282.5 279.9 278.1 277.8 277.9 280 281.4 289 299.1 304.5 308.6 310.9 314.3 317 323.1 327.7 332.4 339 343 346.8 353 361.5 368 379.1 388.3 394.3 401.1 405.4 411.1 412.2 414.7 416.7 417.2 416 413 409.9 405.5 403.1 401.8 404.2 411.6 419.3 425.1 432 440.3 447.7 456 467 478 483.7 490.2 496.2 498.4 498.9 498 496 493.7 491 487.6 482.2 476.5 471.2 466.7 461 455.4 449.7 443.4 437.3 430.1 422.4 413.2 404.5 392.2 376.9 369 360.4 354.2 349.3 346.7 343.8 341.5 339.5 341.1 345.1 354.9 362.7 369.2 374.6 376.7 379.4 379.5 379.7 380.8 383.7 387.6 392.6
357.1 349.8 344.1 337 329.9 323.9 317.4 312.3 308.3 306.8 305.4 305.1 305.1 303.6 304.6 305.7 308.8 308.4 306.4 306.4 306.4 304.5 304.7 306.9 310 312.2 313.9 315.8 316.7 317.7 320 321.8 324 326.4 328.7 331.2 332.8 333.7 335.2 337.3 339.4 343.5 349.4 355.4 361 365.9 370.7 375.2 378 380 382.5 386.1 388 390 391.6 393.8 396 398.2 401.4 404.9 408.2 411.8 415.9 418.7 421.5 425.5 430.2 433 433.8 433.7 431.4 430.6 430.5 430.1 427.5 421.5 417.7 416.6 417.6 416.5 414.3 414.6 416.1 415.4 405.8 396.9 388.6 379.1 370.4 361.4 355.7 349.4 340.8 335.5 327.7 321.3 314.9 310.9 308.4 306 303.2 298.7 291.2 286.3 282.8 278.7 277.7 275.2 277.3 278.7 280.8 289.7 299.6 302.7 304.4 306.9 311.5 314.7 322 328.4 333.4 337.3 340.8 344 349.2 355.9 363 375.6 385.5 393.6 399 404.6 410.9 412.1 414.7 417.1 418.1 417.6 416.9 412.4 405.2 399.6 398.6 399.4 401.2 410.9 419 424.3 435 443.1 451.4 463.8 473.5 480.2 487 492.1 494.1 494.2 492.3 490.5 488.3 485.9 482.5 478 473 467.7 462.3 456.4 450.7 444.3 440 434.5 428.8 421.7 414.2 405.9 395.7 385.6 372.7 363.4 355.7 348 341.8 338.4 335.6 333.8 337.4 343.7 353.1 359.3 365.4 370.9 370.1 371.5 372.9 373.9 374.9 378.2 381.8 387.3
356.7 351.7 346.6 338.4 331.8 325 317.8 313.1 309.2 307.7 306.9 306.5 306.1 305.2 304.3 308.9 309.5 308.4 307.5 307.3 306.4 304.3 304.5 306 307.8 311.4 314.2 316.3 317.2 319 321.3 323.3 325.7 328 330.2 331.9 333.3 334.3 335.7 337.8 339.9 341.5 347.2 354 360 363.5 367.9 372.8 375.8 379.2 381.9 384.1 386.8 389.7 391.3 392.8 395.3 397.6 400.6 403.8 407.1 410.9 415.4 418.2 421.3 423.9 428.6 431.7 432.6 433.4 434.1 434.3 433.8 432.6 428.3 425.4 420.2 417.9 415.3 413.1 409.7 409.4 410.7 407.2 402.9 393.7 385.1 375.4 366.5 360.3 353.7 343.5 338.4 332.9 323.6 317.9 314.1 311 308.5 306 304.1 299.9 292.3 287.3 283.7 278.8 275.4 276.1 276.8 277.5 280.1 289.1 295.9 298.2 300 304.2 311.1 311.8 319.3 326.8 331.1 334.3 337.5 341.6 346.4 351.9 358.7 371.5 379.2 387.6 393.7 400.6 406.5 412.1 416.5 420.3 420.2 419.7 418.4 415.3 409.5 400.8 392.3 395.5 395.5 403.6 412.4 418.8 427.1 437.6 446.3 459.4 467.6 475.4 482.4 486.9 488.7 488.9 487.3 485.6 483.3 480.3 476.8 472.4 468 462.7 456.9 450.5 444 438.8 435.3 429.8 425.8 419.8 413.9 407.1 399.8 393 382.3 372.3 362.2 351.8 343.2 334.7 327.8 326 333.7 341.3 350.7 356.1 362.1 365.5 364.5 365.4 366.1 367.6 368.5 372 377.2 383.7
356 349.2 343.5 338.1 331.7 325.3 318.1 314 310.8 309.6 308.7 307.9 307.1 305.4 304.9 306.4 307.6 307.7 308.4 307.7 305.6 304.1 304.9 305.8 307.3 309.8 313.8 316.3 317.9 320.3 322.5 324.6 326.7 328.8 330.9 331.7 333.5 334.8 336.3 338.3 339.1 340.2 346.5 352.9 358.4 364.2 369.3 373.3 376.1 379 382.1 384.3 386.8 388.9 390.3 391.4 393.6 397 400 403 406.8 410.9 415 418.6 420.9 423.2 427.6 430.3 432.5 434.4 436.3 437 434.9 433.4 432.7 429.5 423.9 418.3 413.9 408.8 404.6 400.7 401.4 399.8 396.1 390.4 381.6 372.4 362.9 357.2 349.7 340.2 335.7 328.8 322.7 317.3 314 311.4 309.1 306.6 303.3 298.9 295.1 290.8 284.1 279.6 274.7 273.6 273.9 277 276.9 285.3 288.6 293.4 297 303.1 309.9 310.5 311.6 321.3 324 328.2 333.8 338.2 342.9 348.8 355.5 367 376.4 383.9 391.9 398.8 408.1 414.5 419 423.2 423.4 420.5 419.5 416.8 411.5 401.5 389.1 388.1 390.5 394.2 405.2 413.1 420.8 431.7 441.6 454.6 462.7 470.2 475.7 479.3 481.9 483 481.9 480.4 477.8 474.8 471.3 467.1 462.4 456.6 450.6 444.1 438.3 433.1 428.7 425.8 421.4 418.2 412.5 408.4 403.1 395.8 386.3 374.9 364 354 344.3 335.7 329.3 325.3 331.1 339.7 349 352.3 356.1 358.6 358.6 359.3 358.6 359.5 361.7 367.2 373.3 380
355.4 349.6 343.6 339.8 332.8 325.7 319.2 315.1 312.9 311.7 310.7 309.6 307 306.3 305.6 306.4 304.5 304.5 304.5 309.2 306.5 304.2 305.2 306.6 307.1 310.5 314.1 316.1 318.7 321.3 323.7 325.3 327.4 329.5 330.8 331.5 333.5 335.1 336.4 336.9 337.4 339.7 345.8 352.2 357.7 363.3 368.4 372.3 375.2 378 380.8 384.1 386.2 388.1 389 389.9 392.1 395.8 399.5 402.6 406.4 410.1 413.8 418 420.3 422.8 426.8 429.3 431 435.4 438.5 438.9 437.8 435.8 434.3 431 424.3 417 411.5 406.3 400.5 393.5 392.5 391.6 388.5 383.9 377.1 369.7 360.3 352.2 344.4 336.9 332.1 326.1 321.2 317.2 314.2 311.9 309.6 307.3 304.2 300.4 296.5 292.4 286.8 279.4 274 270.3 271.2 272.5 273.9 281.1 286.2 290 295.2 300.9 309.8 309 307.6 312.4 315.6 322 329.5 334.8 341 347.5 354.5 363.7 374.1 383.1 391.2 398.1 407.6 416.5 421.7 426.6 429.4 425.5 415.3 415.7 412.6 405.9 395.9 389.9 385.9 388.4 394.8 404.8 412.5 424.7 436.3 447.9 455.9 463.2 468.1 471.2 474.1 475.8 475.1 474.6 473.3 470.2 466.1 461.8 456.5 450.6 443.9 437.2 431.2 426.4 423.7 420.6 416.6 412.9 410 406.5 402.1 395.1 385.8 375 363.5 352.6 343 332.3 325.9 316.8 328 338.5 344.7 348.1 352.9 354.8 354.2 354 352.6 353.3 357.5 364.5 371.2 375.7
355.8 349.5 343.1 338.6 331.8 324.1 321.9 317.1 314.3 313.4 312.2 310.7 307.3 305.9 306.3 308.2 304.5 304.5 304.5 305.5 307.5 304.9 304.4 305.3 306.3 310 314.3 316.6 319.4 322.1 324.3 326.3 328.1 329.8 330.6 331.4 333.5 335.1 335.9 336.4 336.6 339 345.2 351.5 357.2 362.5 367.4 371.4 374.2 377 379.8 383 384.9 386 387.1 388.2 391 394.5 398.8 402.2 406.3 410.2 414.3 417.7 420.9 422.8 425.6 428.3 431.1 436.1 440.2 440 439 436.4 434.2 433.5 426.5 419.1 411 405.4 398.5 391.3 386.5 385.5 381.2 377.3 372.3 364.5 356.8 348.7 340.5 334.3 329.3 324.7 319.7 316.7 313.4 311 308.7 307 304.7 301.2 297.5 292.9 285.5 280.9 273.8 269.6 268.5 269.7 271.4 276.6 281.9 288.7 295.5 301.6 305.4 307 306.2 305.8 308.8 315 322.6 333.9 340.6 346.8 353.8 362.8 372.8 381.9 391.4 398.7 409 420.5 425.2 431.1 433.9 432.7 426.8 412.4 408.9 409.4 402.6 392.8 384.5 384.7 387.8 396 405.8 418.3 429.5 440 448.1 454.2 459.4 462.7 465.4 467.5 469.8 469.8 468 465.2 461.6 457.3 451 446.1 438.8 431.8 425.9 421.7 418.5 415.3 411.8 407.7 404.8 401.9 397.5 391.6 382.2 372.3 362.6 351.7 341.4 329.2 323.4 317.8 325.2 334.8 340 345.2 349.4 350.2 349.1 346.7 345.6 348 352.9 359.9 367.1 373.5
354.9 349.3 342.9 337.8 330.7 325.7 320.2 317 314.4 313.5 312.6 311 307.5 305.9 305.8 307 304.5 304.5 304.5 308.5 307 305.3 304.3 304.8 306.1 309.8 313.9 317.2 320.2 322.9 324.8 326.6 328.3 329.6 330.4 331.2 333.3 335.4 335.5 335.7 336.5 338.3 343.9 350.4 356 360.9 365.7 371 373.8 376.5 379.2 382.6 384.4 385.4 387.4 389.9 391.9 393.8 397.4 402.8 407 411.2 414.7 416.9 419.6 422.7 425.1 428.9 431.2 435.4 440 440 439.3 435.1 432.3 431.8 430.2 425.5 415 404.4 397.3 391 383.1 379.6 375.9 371.9 367.5 361 352.3 343.5 337.4 332.1 327.6 322.8 318.6 315.4 312.6 310 308.3 306.7 304.4 300.8 297.2 293.2 286.8 280.6 272.4 268 266 268.1 268.9 272.8 279.3 287.6 294.3 296 299.5 300 299.7 301.6 305.1 310.3 319.5 332.1 339.6 346.4 354.9 362.7 372.9 381.8 390.4 400.8 412 424.7 428.9 434.2 436.7 434.3 429.5 424.2 416.1 400.5 398.3 391.7 384.1 379.7 383.1 387.1 398.4 412.6 423.1 432.2 440.5 443.8 448.8 452 454.9 459.4 463.6 466.3 465.2 462 458.5 452.6 447.8 443.2 435.3 426.1 420.1 415.8 412.4 409.5 405.6 401.5 398.9 395.7 391.8 386.8 379.6 369.9 359.9 349.3 338.4 329.1 321.5 312.2 319.8 331.2 336.9 343.3 346.7 344 343.3 340.7 338.3 341.9 347.6 356.7 366.3 373.2
353.3 348.1 342.7 337 331.3 324.3 321 317.5 314.5 313.6 312.3 310.9 307.7 305.8 306.9 307.9 309.4 304.5 306.7 307.4 306.9 305.7 304.5 304.7 306.1 309.7 311.9 314.8 319.2 322.7 324.5 326.3 328.1 329.2 330.1 331.1 333.3 334.9 334.4 334.6 336.1 337.9 344.3 350.1 355.9 360.7 365.8 371 373.9 376.8 379.6 383.1 384.8 386.7 388.3 389.9 391.6 393.6 397.5 403.3 409 412.5 415.1 417 421.1 422.4 424.3 429.8 431.4 434.3 437.7 438.2 436.9 433.2 431 430.3 430.3 427.6 420 405.5 396.8 392 384.4 377.6 371 366.6 361.4 353.9 345.9 338.5 334.7 330.1 326.9 322.4 318.1 314.5 311.6 310 308.5 306.9 304.9 301.4 297.8 292.8 285.1 277.9 272.4 268.5 262.9 265.5 265.7 268.6 276.7 285.1 290.4 292.5 293.6 295.3 295.7 300.4 303.6 306.9 318.2 330 338.6 346.2 354.2 363.6 373.6 382.7 392.8 403.3 415.1 425.2 433.2 438.9 438.5 436.2 430.9 423.3 418.6 412.4 400.2 388.7 383.9 376.1 376.4 378.8 391.7 406.4 416.1 423.8 430.1 432.1 437.2 438.8 443.7 451.5 457.9 461.3 463.7 461.4 455.6 449.6 444.6 440.3 432 421.3 414.1 409.2 404.5 401.3 398 395.1 390.7 388.1 386 381.7 374.5 364.4 353.9 343.5 335.2 327.9 320.3 310.3 318.8 327.2 333.8 336.9 338 337.8 336.8 335 332 335.5 341.4 351.2 361.8 367.4
351.5 346.4 341.3 336.2 332.3 324.8 320.7 316.4 314.6 313.2 311.8 310.4 309.2 305.9 306.7 311 309.7 304.5 309.4 307.5 306.9 306.3 305.2 304.6 305.1 308 311.6 314.2 318.8 322.4 324.2 326 327.8 328.8 329.7 331 333.1 335 333.7 333.6 335.1 338.1 344.4 350.3 356.1 360.9 366.1 371.2 374.5 377.8 380.9 383.9 385.4 386.9 388.5 390 391.6 393.8 397.8 403.6 409.9 412.7 415.5 418.1 421.6 423.6 425 429 431.6 433.5 434.1 433.7 432.6 431.1 428.8 428.5 428.3 427.2 422.2 408.9 396.1 392.3 385.8 376.5 370.4 361.2 354.9 350.3 342.7 337.9 332 327.5 325 322.8 320 314 310.6 309.6 308.7 307.7 306 303.3 300.6 293 284.1 277 271.5 268 264.1 261.1 260.3 266.6 274.1 281.5 286.3 288.5 290 290.6 292.3 299.1 301.4 304.2 313.2 325.9 337 344.6 353.9 363.1 371.8 382.9 397.2 409 418.6 428.5 435.7 441.3 440.6 437.7 432 426.6 421.3 416.5 407.6 398.2 390.8 382.9 370.4 370.6 381.2 396.3 407.4 413.5 416.8 419.3 422.1 425.6 433.2 445 452.5 458.1 460.7 461.6 457.7 451.8 446.7 438.9 430.6 420.1 408.1 398.1 394.6 392 390.4 387.2 384.1 380.5 376.6 372.3 364.7 355.6 349.3 339.5 332.9 325.5 317.8 304 315.8 322.9 327.6 329.6 331.1 331 329.4 327.8 326.2 328.5 337 345.5 353.1 355.4
349.5 344.4 339.3 334.9 331.6 324 318.9 315.3 313.6 312.6 311.3 309.2 307 309.7 311.8 309.7 309.8 310.4 310.7 307.1 306.7 306.4 305.7 306.2 304.7 307.4 310.7 314.3 318 321.6 323.9 325.7 327.4 328.4 329.3 330.9 332.8 333.7 333.3 332.7 335.1 337.9 344.5 350.5 356.3 361.4 366.2 371.9 375.1 378.3 381.5 383.5 385.4 387.2 388.7 390.3 391.9 393.9 397.7 403.6 409.5 413 415.7 419.1 423.9 423.5 423.9 427.5 430.5 431.7 429.4 428.5 426.9 425 424.6 424 423.3 422.8 414 404.8 395.1 386 378.5 374 367.3 360.9 354.1 348.7 340.2 334.2 330.7 326.2 323.4 320.5 316.6 314.4 309.8 309.2 308.5 307.5 307.1 305.2 301.2 291.8 283.6 276.6 271.2 267.2 261.3 263.1 258.3 262.9 269.2 277 283.7 287.8 286.5 287.8 289.7 297.8 302.2 304.6 310.8 322.9 334.6 342.6 353.2 362.8 370.2 384.1 396.6 412 421.4 428.8 437.5 440.5 442.4 438.5 434.3 430.4 425.6 420.7 414 406.4 395.8 388.6 377.6 365.9 363.4 379.1 395.4 402.3 406.1 408.2 411.1 414.9 418.5 435.2 444 452 456.1 458.8 459.7 457.2 450.8 441.7 431.7 420.2 406.4 395.4 385.2 382.3 381.8 379 375.2 370.9 364 358.4 354.2 350.5 344.3 337.6 331.2 322.1 314.7 307 309.9 314.8 320.5 322.9 324.1 323.5 322.1 322.3 316.6 322 329.4 336.8 340.4 342.8
347.5 342.4 337.5 332.2 326.9 323 317.8 314 312.6 311.7 310.6 308.5 306.7 313 314.4 309.3 309.1 311.2 311.2 307.2 306.9 306.7 305.9 305.1 304.9 306.8 309.8 315.1 318.3 321.2 323.5 325.4 327 328 329.2 330.9 332.5 333.4 333.5 332.4 334.5 337.9 344.6 350.7 356.3 361.6 366.6 371.7 375.5 378.7 381.1 383.1 385.2 387.3 389 390.5 392.2 394.2 397.4 402.3 407.9 413.2 416 420.3 422 424.4 423.8 425.2 427.3 427.7 425.4 422.5 419.2 417.3 416.4 415.8 416.3 416.7 410.5 403.5 395.7 387.2 377.7 371.6 367.3 361.5 355.3 347.4 340 332.7 329 324.3 320.5 317.6 314.6 315.1 310.8 308.8 308.5 306.1 307.4 308.2 299.8 290.6 284 276.3 270.1 266.1 261.5 257.7 256.4 258.7 265.1 271.9 279.7 283.8 283.1 286.2 288.9 298.1 299.6 303.8 310.1 322.8 334.2 342.5 350.9 361.7 368.9 384.1 395.2 411.3 422 428.7 435.7 440.1 442.5 441.1 439.2 437.7 434.8 429.3 421.8 412.9 401.7 395.5 384.6 367.3 358.8 365.1 379.4 385.3 390.4 393.8 395.4 401.4 413.9 420.8 432 441.5 447.4 452.6 456.3 458 453.3 444.6 434.1 419.7 406.5 393 386 375 369 367.7 363 357.2 353.5 352.1 349.3 345.6 341.5 335.2 328.4 319.3 311.5 305 300.1 305.8 312.2 314.8 316.3 315.9 314.8 314.3 304 313.7 321.9 327 331.7 335
345.7 342.1 337.6 333 324.4 320.6 315.9 313.3 312 310.9 308.9 308 310 314.1 316 312.9 311.9 313.6 310.9 308.2 307.1 306.9 306.1 305.5 305.2 309.2 310.9 317.1 319 322 323.3 325.2 326.6 327.6 329.2 330.8 332.7 333.1 333.2 331.8 333.5 337.9 344.6 350.3 355.5 361.2 366.9 371.8 375.8 379 382.3 384.9 386.3 387.6 389.2 390.9 392.9 394.9 397.5 402.1 406.8 412.8 416.7 420 422.4 425.3 425.2 424.7 422.6 422.6 421.3 415.9 411.3 409.3 408.6 407 407.6 407.8 404.8 399.5 395.8 390.1 376.8 371.7 368.7 361.6 354.9 347 339.6 331.5 327 323.1 318.8 316.2 313.4 310.1 308.3 307.8 307.4 305.5 305.7 304.5 298.9 290.5 283.9 276.5 270.5 264.7 260.1 256.2 253.2 255.2 260.6 267.9 276.8 280.9 281.4 284.9 287.9 292 297.9 302.6 309.1 321 331.5 341.1 349.5 359.5 369.3 381.5 394 408.5 419.9 426.1 434.2 439 441.7 441.3 442.7 442.9 441 437.6 431.1 419.1 406.8 398.3 391 380.1 366.4 359.6 351.6 362.4 376.3 380.9 379.8 388.9 396.6 406.1 418.1 427.1 435.2 441.6 448.1 452 450.4 443.9 433 419.1 406.6 392.7 381.7 367 358.5 350.2 350.1 348 345.2 345.4 343 342.1 338 332.2 325.7 316.8 308.8 303.5 292.9 300.4 303.7 306.3 307.9 307.7 306 304.6 293.2 303.7 311.7 317.8 322.6 322.7
344.4 340.6 335.8 329.8 323.4 319.6 316 312.9 311.8 311.5 310.6 309.4 314.9 312.4 313.5 319.1 316.2 311.4 312.3 309.4 307.6 307.1 307.1 307.1 305.6 308.6 311.1 316.4 319 321.3 323.1 324.9 326.2 327.5 330.3 332.3 332.5 332.6 332.8 331.7 333.2 337.4 343.8 349.9 355.6 361.4 367.2 372.5 375.8 379.1 382 384.8 387.2 388.6 390.1 391.3 393.5 395.6 397.7 402 406.6 411.8 416.3 419.6 423.4 426.2 426.6 426.1 424 418.3 413.3 408.5 404.7 401.8 398.3 395.9 396.4 396.6 394.3 391.2 389.7 383.5 375.7 368.5 362.7 356.5 351.1 342.6 335.2 331 326.5 321.8 317.2 314.6 312.1 306.8 306.2 305.2 304.2 304.9 303.7 302.5 298.2 292.1 286.5 280.3 271.8 264.8 259.8 255.6 252.2 252.8 258.4 263.9 272.8 277.4 278.9 283.3 287 291.4 295.2 300.9 309 316.6 327.3 338 347.2 356.9 365.6 378.2 391.1 406.4 415.8 422 430.6 436.6 439.6 441.6 444.3 446.3 447 444.3 437.6 425.6 411.7 401 393.9 385.2 375.5 363.9 354.8 354.9 352.4 359.4 356.9 369.6 374.2 385.7 400.5 411.8 417.9 427.3 432.8 438.4 441.5 435.3 423.9 410.1 394.6 377.1 367.8 366.6 361 356.1 347.4 338.8 335.1 334.9 340.1 341.7 334.7 329.8 322.8 313.8 306.4 302.5 289.2 295.9 297.8 298.4 298.8 296.9 296.9 295.5 283.5 289.2 295.5 302.2 306.6 304.7
343.5 338.4 331.9 325.7 321.9 319.6 316.4 313.4 311.7 311 310.1 309.6 314.4 314.7 312.3 311.5 311.1 311.6 313 314.3 310.5 310.3 307.9 306.7 305.6 309.1 312.8 316.9 319.8 320.2 323 324.7 325.4 325.9 329.3 332.8 333.4 332.7 331.4 331.5 333.1 337.7 344.9 350.7 356.3 362 367.6 373.1 375.9 378.7 381.6 384.5 386.8 389.5 391.1 392.3 393.5 395.6 398.2 402.1 406.7 411.3 415.6 421 424.5 427 428 427.5 424.7 420.4 415.2 409.6 403.5 396.8 393.2 388.4 385.4 383.5 381.9 380.7 379.1 376.2 371.3 362.1 356.1 348.4 343.2 336.7 330.4 327 321.3 317.5 314.3 312.7 309.8 307.6 306.3 304.3 302.8 303 302.2 302.4 297.2 295.6 291.1 285.2 272.9 265.6 260.3 255.1 250.8 251.5 254.7 261 266.5 272.1 279.5 282.8 284.9 289.7 296.3 298.9 305.4 312.5 319.3 332.7 343.4 354.7 362.5 374.2 385.7 401.4 411.4 416.4 426 432.3 436.9 440.7 445 448.8 451.6 449.7 442.8 432.5 421.1 406.9 398.8 391.4 382.8 373 363.2 342.6 340.6 338 337.4 337.6 349.2 370.4 382.6 393.1 401.1 409.7 405 402.6 409.4 400 390.3 385.5 379.2 385.3 375.8 368.9 359.3 349.9 343.9 338.5 333 324.5 330.4 333.1 328.4 325.4 320.6 311.6 304.5 299.6 292.6 285.1 292.3 290.6 288.9 286.9 286.2 284.3 277 278.1 281.8 285.2 286.8 287.2
340.6 336.1 329.9 323.2 321.5 319.8 316.8 313.8 312.2 312.3 311.7 311.9 312.3 312.1 312.1 312.1 311 310.9 310.8 310.3 310.4 310.3 308.9 306.4 305.7 308.3 314 318.3 320.8 320.4 322.5 324.8 325.6 326.1 328.6 332.2 333.2 333 331.2 329.8 332.1 337.2 345.1 351 356.7 362.3 367.8 372.8 376.4 378.9 381.3 384.1 386.8 390.6 392.1 393.3 394.5 395.7 398.7 403.2 407.4 411.7 416 421.1 424.6 427.7 429.9 429 425 420.3 414.8 408 401 395.3 387.3 382.9 379.4 373 368.6 366.3 365 364.9 362 355.9 348.3 339.5 335.4 329.8 325.5 323.9 318.6 314.8 314.3 313.2 308.6 306.8 304.8 303.1 301.8 301.1 300.3 299.7 296.8 294.7 289.9 283.4 274 268.4 261.7 255.6 251.9 250.2 253 259.1 264.4 270.9 277.1 281.2 283 287.5 291.1 297 303.7 310 316.6 326.5 339.3 351.9 360.6 369.8 382.2 396.5 405.1 410 419.7 427.5 433.6 438.1 444.8 449.9 455.4 452.5 446 437.5 429.7 415.2 405.1 397.1 390.3 381.7 372.5 363.6 357.6 346.9 335.3 333 334.8 353.2 369.1 379.5 388.5 392.9 394.7 406.4 416.6 417 412.5 398.9 383 377.4 367.8 362.2 358.3 346.4 340.9 336.6 331.7 321.7 318.7 320.2 318.8 317.8 314.6 310.1 304.7 298 290.3 279.6 282.8 281.3 275.2 269.8 267.3 266 265.1 263.5 262.5 263.8 268.8 272.2
