ncols 200
nrows 82
xllcorner 210000
yllcorner 841850
cellsize 50
643.2 629.8 621.4 612.4 595 584 569.6 554.4 542.7 526.7 514.7 504.4 503 506.4 515.7 533.9 554.5 565.1 581.1 604.6 631.2 651.2 671.4 701 722.8 741.7 742.8 716.7 693.1 678.9 673.2 673 683.2 707.7 735 763 777.7 787.3 801.3 815.2 831.4 850.6 865.9 880.4 893.4 904.9 912.8 915.2 876.6 841.9 838.2 820.2 784 748.1 758.5 751.9 748 769.5 787.2 821.5 873.9 906.1 926.5 941.1 955 967.5 979 989.3 996.5 1001.3 1004.6 1001.6 993.8 983.9 976.9 969 959.7 949.9 940.1 927.4 879.2 848.4 828.9 819.6 799.1 778.7 756.6 736.4 720.2 703.9 690.2 683.6 678.5 688 694.9 696 702.3 693.3 676.3 654.7 630.6 612.5 588.9 565.2 539.7 513.6 495.2 481.5 470.3 464.9 461.1 459.5 454.5 447.5 441.6 445.3 456.7 469.8 481.7 498.5 515 527.1 543 557.4 569.8 577.2 583.9 598.3 612.5 626.6 639.9 648.7 658.9 666.4 669.4 675.9 681.2 686.2 692.2 693.3 692.7 692.2 691.2 681.7 678.1 677.8 676.8 674.1 677.1 680.6 682.3 682.1 681.2 681.3 681.1 680.6 682.7 690.2 700.8 704.3 715 723.4 729.4 731.9 731 727.9 722.8 716.5 707.1 720.2 737 744.5 752.6 756.2 760.7 759.7 744.6 712.1 685.2 655.3 646.1 632.5 623.5 619.4 609.3 606.7 618.1 631.8 638.8 642.8 641.6 640.3 622 584 550.4 519.9 498.1 485.9 472 458.6
643.7 630.5 623.4 612 596.6 583 570.3 555.6 539.7 526.1 518 506.6 510 512.3 523 545.9 562.6 577.5 599.5 629.2 657.2 684.7 701.5 727.6 757.5 771.7 756.5 738 720.5 712.4 701.1 701.6 710.2 736.5 765.4 788.9 799.3 808.2 818.8 828.9 843.1 856.7 870.5 885.9 899 910.7 921.6 927.9 905.2 883.4 854.8 824.6 803.4 792.1 792.5 757.4 754.2 760.9 803.8 843.3 877.1 905.9 927.4 942 955.1 969.3 981.8 991.8 999 1003.8 1005.4 1002.8 993.5 985.6 978.6 971.2 963.2 954.9 947 935.6 874.5 830 812.9 794.8 777.6 753.3 724.9 706.6 688.3 678.1 660.2 654.8 656.7 660.9 670 679.3 684.4 677.5 665.6 649.2 629.9 610.8 587.8 561.9 533.4 510.6 490.8 478.3 470.4 464.5 461.3 458 452.8 445.5 438.6 441.5 451.3 467.8 486 498.7 515.9 531.4 548 563 582.2 587.3 594 612.6 624.8 636 641.9 657.2 673 679.5 684.8 689 694.9 700 703.2 704.7 705 705.2 703.4 695.2 689.9 685.3 682.4 682.9 683.9 687.2 690.4 690.4 688.3 689.1 687.2 689.6 689.5 699.3 707.9 716.4 724.6 730.3 735.3 736.1 735 732.6 727.4 719.1 723.3 735 747 755.2 759.6 763.3 763 761.5 745.4 713.2 679.7 651.7 635.7 623.7 611.5 608.4 596.3 589.1 605.6 617.1 626.7 628.1 630 632.1 595.6 572.2 544 506.6 481.7 472.8 454.5 442.3
644.4 633.5 623.5 612.4 598.2 582.3 567.4 552.7 537.2 525.8 520.5 511.8 515.4 519.6 532.4 556.6 573.1 596.4 633.9 660 688.9 718.6 732 756.1 786.3 796.2 793.1 768.2 763.5 745.1 746 750.9 753.7 765.2 789.9 809.1 817.4 825 833.7 843.3 855.4 869.1 881.5 893.3 907.5 919.8 931.6 938 939.2 913.4 883.9 852.1 821.3 826.6 794.2 756.2 752.7 765.4 805.1 849.7 883.7 914.5 931.9 946.5 960.4 973.8 984.8 993.7 1000.9 1004.2 1003.9 1000.6 992.9 984.8 976.1 968.9 961.4 953.8 945.1 930 876.7 823.8 800.9 785.8 756.7 729 702.9 689.4 667.4 655.9 642.4 636.2 639.9 648.7 656.1 665.6 670.3 667.3 657.8 640.5 625.1 608.6 583.3 556.5 527.9 506.6 488.3 477 470 464.8 459.3 456.5 451.8 441.1 434.8 437.4 446.7 466 486.2 505.1 517.6 537.9 552.7 565.8 581.7 593.5 607.2 616.9 631.4 640.4 647.2 664.1 679 685.5 694.9 702.1 708.6 712.5 715.5 717.2 719.4 719.4 715.8 711.7 704.2 695.4 693.1 693.8 692.1 696.5 697.8 697.7 696.8 696 696 697.7 698.9 706.8 717.4 726.4 733.3 738.9 740.1 740 738.8 736.3 730.9 724.3 737 744 754.9 761.9 765.8 767.4 763 761.2 742.9 710.4 681.7 646.7 624.6 607.7 597.7 592.2 578.6 575.3 592 607 612.4 613.1 619.7 609.5 567.9 544.4 513.1 493.3 469.2 453.9 442.7 429.2
645.8 636.3 626.4 613.1 597.6 584 566.4 554.4 537.1 527.7 518.9 519.7 526.2 524.7 542.7 560.7 584.2 614.6 650.7 680.8 711.4 739.7 760.3 788.6 818 831.5 825 822.7 796.1 789.4 797.4 793.7 793.1 797.5 813.1 824.8 834.1 840.5 849.2 858.5 870 883.5 895 906.5 919.7 932.2 944.2 951.5 953.6 948.6 912.7 877.4 830.3 825.2 785.5 767.1 764.4 776.7 822.6 854.6 890.8 919.6 937.6 952.5 965.8 978.3 988.5 995.8 1001.9 1004.2 1002.2 997.2 989.1 980.5 971.9 962.3 955.5 947.8 938.8 912.1 857.1 823.8 809.9 782.3 739.9 715.2 689.2 671.6 657.3 639.7 636 636 636 642.4 648.6 654.2 658.7 657 651 635.2 619.3 600.5 578.4 549.6 522.6 500.4 485 473.4 466.9 462 457.6 454.2 448.4 439.3 432.4 437.2 448.5 465.7 491 507.7 520.5 538.1 552.3 568 579.7 597.4 613.3 625.5 638.4 652.5 662.1 674.8 694.8 701.6 711.6 718.7 725.6 730.6 733.7 737.8 738.2 736.8 731.5 728 719.7 708 702.9 702.5 701.5 706.7 706.4 706.7 707.6 707.4 708.6 706.5 711.5 719.8 724.7 734.5 740.4 742.8 743.1 743 741.9 739 730.5 739.1 745.7 752.3 760 764.8 766 766.6 763.1 759.9 742.5 708.8 680.5 640.3 614.3 600.8 592.7 582.2 561.7 557.8 576.2 590.8 593.2 601 609.4 580 541.7 520.5 496 474.9 453.1 434.6 424.2 417.1
651.6 642.5 629.2 615.9 597.8 584.8 570.5 550.8 538.9 529.6 520.7 524.9 531.1 535 553.8 570.6 600.5 654.2 689.9 720.6 743.8 763.8 789.5 817.8 842.1 849.6 849.3 846.1 834.9 824.1 818.2 814.5 815.3 821.6 830.9 838.5 847.9 857 867.9 877.4 887.1 898 909.6 919.9 933.4 946 956.5 962.6 963.7 958.3 917.8 876.2 832.7 820.5 802.6 799.6 790.8 798.6 827.8 858.8 889.9 923.6 943.6 958.9 971.7 982.6 992.1 998.5 1002.3 1002.9 999.5 991.9 983.8 975.8 964.3 954.5 947.5 939.7 930.6 885.1 836.6 812.3 791.3 762.9 724 704.2 676.2 662.1 651.5 639.4 636 636 636 639.4 643.8 647.2 648.5 646.9 639.7 628 612.8 592.6 568.4 541.4 515.3 497.1 484.2 470.6 462.4 457 454.4 448 442.6 434.3 428.5 435.5 449.3 465.8 487.2 509.6 524.2 540.2 556.7 572.7 586.4 603.1 624.9 640.3 655.9 671.2 680.1 687.7 703 714.4 725.8 734.7 739.6 741 743.1 753.2 754.6 751.7 746.3 742.3 734.6 725.5 710.6 705.3 710.4 714.9 717.4 717.8 719.7 721.6 719.6 715.9 724.4 728.4 731.6 740.9 745 745.9 746.3 745.4 743.1 739 739.6 744.4 750.2 756.5 762.6 765 763.6 763.5 761.3 757.4 736.2 707.9 678.1 641.5 608.1 592.7 579.9 566.2 550.3 548.3 555 557.5 570.7 584.4 594.1 566.3 520.6 496.9 475.6 454.3 436.9 421.6 410.6 402.5
655.9 642.3 629.1 616.8 598.7 582.7 565.7 551.6 538.1 527.7 530 535.1 537.8 544.5 559.7 592.2 635.4 678.4 719.7 741 762.3 787.2 810.5 839.1 856.8 859.5 857.9 851.6 843.8 837 830.1 827.4 830.6 836.8 844.2 853.4 865.8 876.9 885.7 893.9 904.7 913.1 923.3 933.5 945.8 959.5 967.4 972.6 973 957.8 920 877.2 849.3 837.3 810.9 814.3 823 817.3 838.9 862.6 891.9 927.9 949.3 966.1 977.5 988.1 995.4 999.4 1001.4 1000.4 994.2 986.4 978.8 970.5 959.3 948 938 930.5 920.7 882.1 834.2 802.9 781.1 760.3 719.4 693.8 676.2 663.7 653.1 642.3 639.9 637.6 636 637 637.9 641.9 639.2 636.2 627.4 617.4 603.9 581.5 558.7 532.8 513.2 495 481.4 467.7 459.6 453.7 451.8 443.1 438 430.9 426.8 435.8 447.9 466.5 487 505.6 526.4 543.9 559.6 577.8 593.9 610.2 629.2 649.6 663.4 681.4 692.1 699.7 704.5 717.5 730.3 739.4 745.2 747.3 753.5 761.8 766 764.5 759.6 753.8 747.6 734.6 719 714 720.7 724.9 729.6 737.4 736.8 733 730.4 728.4 733.2 733.9 739.2 745.2 748.5 749 748.3 745.8 742.8 740 743.3 747.4 753.3 759.9 764.6 763.7 764.1 763.2 757.8 753.8 727.1 696.8 670.9 642.7 619.9 608.4 577.3 551.8 540.4 533.6 536.2 531.5 539.9 551 560.4 543.7 505.1 476.4 453.7 435.1 419.9 408 397.2 387.9
659.4 647 631.6 617.8 601 583 565.9 553.1 540.9 532.7 537.1 542.8 551.8 569 584.3 627.1 664.7 709.2 731.2 742.6 766.2 792.6 808.4 835.5 859 864.5 865.2 861.3 855.1 847.5 841.4 839.2 842.7 848.5 856 866.2 880.4 892.2 902.9 912.4 922.2 933 939.8 948.2 958.6 969.5 976.9 979.3 980.2 966.7 923.6 887.1 869 870.7 841.5 835.2 843.5 846.5 846.6 873.1 898.4 935.4 959.8 974.2 985.1 992.9 997.1 998.8 998.7 995.2 988.6 981.2 973.1 964.9 953.8 942 930.9 920.2 912.1 890.8 834.1 797.7 777.7 753.8 718.7 694.7 679.5 663.9 657.3 647.4 642.3 638.5 636.9 636.1 637.8 634.9 631.5 627.3 619.7 608.3 594 573 550.9 529.3 510 496.6 479 467.1 457.2 449.3 443.1 440.3 433.3 425.5 428.4 437 450.5 470.9 488.7 507.5 534.2 556.3 566.7 593.4 609.1 622.7 641.7 659.8 675.4 691.6 700 706.5 709.9 722.7 734 744.3 753.2 756.5 761.7 772 774.5 768.4 762.3 760.8 754.3 746.4 731.8 729.2 732.6 738.1 748.2 750.5 748.8 745.8 742.3 737.7 737.2 738 746.6 751.6 752.9 751.7 749 746 742.9 743.9 746.7 749.6 755.6 763 765.9 765.1 763.1 759.2 752.6 745 724.4 695.5 670.2 642.3 634 611 571.3 545.7 534.4 523.2 517.4 506 506.6 511.2 523.4 513.7 486.2 464.3 440 423.8 408.5 396.2 383.1 374.9
660.8 647.3 632.9 617.6 600.6 586.2 569.3 555.2 544.4 540.3 545.1 558.5 577.2 589.3 602.3 647.6 690.4 710.6 724.7 729.2 749.2 774.6 787.4 809.6 831.3 853.7 872.2 874.2 866.5 861.3 852.5 849.4 851.7 858.7 864.5 874.7 890.9 904.9 917.6 929.2 939.6 947.6 956 962.9 971.5 980.3 984.3 986.2 986.3 980.8 936.5 910.3 901.9 920.8 890.9 873.5 873.5 852.4 855 881.5 907.5 945 968.6 981.9 990.7 995.2 997.2 996.8 994.9 990.2 983.1 969.9 951.4 945.4 942.4 931.9 917.2 908.2 899.1 884.8 830.9 799.4 778.4 747.9 719.7 698.3 677.4 669.2 663.2 654.4 647 642.1 638.2 636.9 634.5 630.5 623.1 615.7 606.5 596.7 584.7 565.6 541.9 524.4 505.5 489.3 477.3 464 452.4 444.4 437.6 432.8 428.3 423.3 427.9 437 450.1 473.5 492.6 511.4 537.7 559.4 585 606.5 621.3 636.9 659.4 675.1 693 706.4 709.2 715.1 722.9 733.8 741.4 751 758.5 762.3 769.1 778.2 777.4 769.4 764.4 760.5 759.8 752.9 741.7 744.1 749.4 753.4 759 759.4 756.7 752.2 748.8 743.2 744.7 750.2 753.8 756.2 755.3 751.7 748.6 746.1 743.8 745.1 748.4 753.2 758.5 764.8 766.1 765.4 761 758.2 751 739.3 722.7 697.8 674.5 651.7 638 612.2 583.4 552.5 529.1 514 494.8 488.5 478.6 483 490.7 489.9 467.7 457.5 430.8 411.1 400.4 388.1 374.8 365.9
660.2 648.4 632.2 616.8 603.5 588.2 571.7 560.1 544.4 548.3 557.2 570.8 591.1 602 622.6 656.6 678.2 691.8 701.5 709.7 722.8 744.6 761.7 782.2 802.5 827.5 852.9 873.6 877.6 870.3 863.5 857.6 860.7 865.7 872.7 884.4 898.7 915.3 929.7 944.1 954.5 963 970.4 976.2 981 987.6 991 991.9 990.7 988.9 975.3 959.1 956.6 942.3 925.1 902.3 901.5 883 870.3 887.6 919.9 959.9 981.6 990.3 995.2 996.4 995.9 993.1 988.9 984.4 973.2 942.2 913.6 907 901.9 896.4 896.9 891.3 882.9 880.2 854.6 815.5 788.6 751.4 723.8 702 692.7 680.2 669.2 663.1 651.5 646.3 641.7 635.3 629 622.1 622.6 611.9 599.9 586.3 569.6 555 537.7 520.8 501.7 485.7 472.9 459.9 448.9 440.8 434.2 427.8 427 423 426.6 434.1 447.2 471.2 495.9 516.2 540.1 567.3 595.7 618.3 640.9 659.7 671.4 683.1 698.4 711.9 717.1 718.3 725.1 731.7 743.3 760 764.1 768 773.2 781.3 783.8 775.9 768.8 765.1 760.7 755.8 752.1 758.1 761.5 764.5 765.5 763.3 759.4 758.1 753.1 753 757.6 759.3 760.1 758.4 754.5 750.4 747.1 744.4 743.6 745.9 749.3 752.3 757.8 762.1 765 765 762.6 758.3 746.3 735.8 716.5 701.8 674 661.5 641.4 615.9 582.5 559.3 528.4 501.7 489 469 453 460.3 460.9 461.7 452.8 435.9 416.8 400.8 389.2 374.7 365 358.8
659 647.2 631.6 616.1 603.4 589 574.8 562.1 552.5 558.1 567.1 584.5 597.9 605.7 623.3 647.1 659.3 667.9 677.6 687.2 698.1 718.4 735 753.7 772.2 796.6 819.2 839.8 866.5 876.2 871.1 866.3 867.8 871.4 877.1 888.9 903.4 921.5 939.4 953.9 964.7 971.1 976.2 979.5 983.3 986.1 989.3 991.2 992 990.2 988.3 985.9 983 963.6 939.1 929 909.6 890.8 889.7 907 936.6 975 990.9 996 998.5 998.1 993.9 987.1 982 977.4 959.3 922.7 890.3 875 862.7 863.5 857.5 854.3 851.1 857.5 855.7 832.5 799.2 761.6 737.6 721.7 700.6 688.1 673.1 668.7 658.9 652.3 644.9 637.8 634.7 628.5 609.7 590.4 582.7 580.1 567.1 546.5 527 514.2 496.5 480.8 466.3 457.9 448.9 439.8 432.3 428.7 422.9 424.9 423.2 430.4 446 472.8 497.3 524 548.8 582.1 612.6 641.6 665.7 680.5 677.7 695.6 703.3 707.6 712.3 715.3 719.8 728.5 737.5 747.6 759.1 763.5 773 782 788.6 790.8 790.7 781.7 774 770.1 765.9 772.6 772 773.7 771 766.4 764.1 762.3 761.3 763.1 761.7 762.6 761.3 757.2 753 748.4 744.9 743.4 743.4 745 745.7 749.1 754.8 759.4 763.4 764.5 763.7 755.7 741.3 731.4 713 698.8 677.9 670.9 646.8 615.7 589.7 555.4 529 492.6 472.5 461.7 438.8 437.1 438.5 444.5 434.1 411.9 397.9 388 376.1 367 358.4 352.9
656.4 643.1 630.7 618.9 604.9 590.2 577.7 566 565.7 570.8 580.7 592.8 596.2 606.5 619.3 632.7 641 646.4 655.4 662 673.6 691.4 707.7 724.9 743 765.4 786.1 805.1 829.6 844.6 853.9 870.1 872.2 874.7 877.4 888.4 906.2 921 935.6 951.6 961 967.6 971.2 974.1 976.2 978.4 980.3 984.1 987.4 988.7 988.3 986.9 984.3 981.4 967.4 957 943.8 924 922 945.7 975.8 994.1 1000.3 978.8 961.1 974.1 959.9 973.8 971.7 962.4 938.4 893.8 871.1 842.9 837.6 823.6 813.8 810.7 812.3 819.4 822.7 823.6 815.9 789.6 768.2 744.8 719.4 701.5 688.8 674.5 664.4 653.1 647.4 639.7 632 624 617.5 608.3 584.5 569 533.9 522.2 514.8 509.4 483.2 479.3 468.6 457.2 445.3 436.4 429.8 426.1 423.9 416.6 418.2 429.7 450.8 475.9 501.9 528.5 561.4 594.5 631.2 663 683.9 688.7 682 698.4 700.9 697.4 700.8 705 713.1 720.8 730.7 740.7 753.4 763.9 769 780.9 790.9 801.6 800.7 794.3 785.5 778.8 775.9 773.7 774.6 776.6 772.9 771.5 768.5 766.5 768.2 765.8 764.3 762.4 760.2 754.5 750.4 745.5 743 742.9 742.3 743.3 743.1 746.3 751.4 757.9 761.9 765.6 762.7 753.5 737.9 728 713.8 696.9 681.9 671.1 648.1 618.8 588.1 564.3 528.5 489 464.2 444.4 431.2 417.5 421.9 419.9 410.1 399.2 387.7 377.7 365.2 355.2 351.4 348.2
656.2 641.7 629.8 618.6 604.8 593.5 585.5 573.9 575.1 583.2 591.9 595.8 604.4 600.7 610.2 615.9 620.9 627 631.8 636.7 647.4 663 679.6 695.3 712.9 732.8 751.6 769.8 787.5 801 818 837.9 870.2 872.5 871.7 879.2 891.1 902.7 916.3 929.8 942.6 952 956.2 960.4 962.8 965.1 970 974.8 979.5 982 982.7 982.6 981.7 980.9 981.6 981.8 981.8 971.3 973.4 990.1 998.4 1003.1 985.9 951 931 918.7 917.3 923.6 942.7 940.1 915.5 863.7 848.9 811 797.2 775.8 772.5 772.7 774.9 779.3 787.7 795.3 808.6 812.3 800.1 778.3 745.6 715.4 695.8 678.5 669.6 655 643.1 636.1 628.2 619.1 613.3 604.7 590.7 575 555.5 533.9 519 503.6 490.1 472.8 461.8 453.3 442.8 434.4 426.7 420.7 420 417.3 415.5 427.7 450.4 474.8 501.4 533.6 568.5 597 634.7 661.8 682.8 690.9 682 682.8 688.1 687.1 686.4 691.3 702.9 714.2 721.8 737.6 755.9 761.1 771.5 785.8 797.5 806 809.9 798.6 787.1 777.9 775.9 774.7 778.8 779 779.8 778.1 774.7 771.6 769.6 766.7 764.6 761.8 757.9 751.3 745.8 741.5 740.4 738.5 739.1 740 741.8 744.7 750.6 756.3 759.2 761.4 756.5 745.9 732.5 723 712.1 701.9 684.6 673.3 654.1 626.4 593.9 574.4 526.2 483.9 458.1 439.3 422.3 410 403.3 402.2 392.9 382.5 376.3 366.3 357 350.3 347 344.2
652.6 641.7 631.3 617.6 605.2 595 590.1 579.8 583.8 592.7 595.7 601 608.6 602.7 597 599.1 601 605.9 614.5 615.7 620.7 633.3 649.1 663.9 679.8 700.9 718.9 737.1 750.7 763.1 782.5 806.9 837.3 844.4 842.2 846.9 856.9 871.4 886 904 919.5 931 938.9 944.3 947.4 951.8 956.6 961.7 966.7 971.1 973.2 973.1 974.2 976.5 980 982.9 985.9 988.7 993.1 996.7 1001.7 1005.4 966.3 930.5 903.3 885.8 880.5 883.7 886.5 882.5 853.7 833.3 805.9 774.2 754.2 741.9 738.1 738 740.6 745.8 753.5 764.2 779.1 785.9 790.7 797.8 782.8 740 702.9 686.9 672.8 657.7 645.9 635.6 620.6 615 609.2 597.9 583.7 567.2 545.7 527.4 510.6 498.9 483.1 468.9 456.8 447.7 438 431.5 425.3 422.2 417 409.4 412.2 423.7 447 473.4 505.2 541.3 580 609 630.9 658.1 678.2 680.5 666.8 667.3 672 671.7 673.2 679.7 693.2 703.7 716 734.5 748.8 756.2 771.1 784.5 791.4 794.8 800.4 802.6 791.3 782.6 779.2 780.1 784.5 788.8 784.6 782.6 779.8 774.5 771.6 768.1 763.2 759.1 755.4 746.5 741.3 737.8 737 736.4 737.2 738.8 741.6 745.6 750.5 755.1 756.3 755.4 747 735.2 724.4 715.2 707.4 699.2 687.6 676.2 654.1 629 602.7 574.1 523.2 480.8 453.3 440.5 415.1 402.4 392.9 386.9 381.5 369 362.6 357.2 351.6 347.6 346.2 348.2
649 640.2 628.8 615.7 601.3 592.3 585.6 579.9 585.7 597.3 602.2 603.8 608.8 602.2 592 584.4 582.4 583.7 589.8 593.7 596.7 602.6 614.5 630.7 647.1 666.9 685 702.5 716.2 728.8 748.3 772.2 795 808.6 808.9 813.4 824.7 839.1 856.9 874.1 892 909.3 920.1 928.4 933.5 939.2 944 949.5 954.7 958.7 960.4 959.7 961.1 967.2 973.9 979.7 983.9 987.5 991.4 995.2 998.8 1001.5 961.2 927.7 898.6 873.3 855.2 848.8 848.4 846.6 825.1 800.3 771.7 743.9 729.4 720.9 715.9 717 720.8 724.7 729.2 735.9 746.1 755.6 764.5 774.9 778.9 758.1 731.1 697.5 683.1 662.5 653.4 641.7 620.1 611.2 601.4 589.4 576.1 554.4 535.7 519.2 506.1 491.3 478.5 465.6 455.1 444.3 438.7 429.1 423.1 418.8 415.2 408 407 419.7 441.5 465.1 499.7 539.4 576.7 605.1 626.8 645.2 654 657.9 651.9 657.7 661 663.2 663.5 670.1 681.9 692 705.4 724.9 740 752.3 766.6 778.7 785.3 788.4 794.4 800.6 799.1 789.6 784.9 785.3 790.5 789.4 786 784.3 780.6 775.1 773.4 769.4 764.3 756.6 750.9 743.9 738.2 735.9 733.2 734 733.8 738.3 742.9 745.8 751.2 753 750.2 743.9 736.2 722.6 716.5 706.4 699.9 692.1 687.3 673.3 655.5 629.3 600.6 558.1 512.6 482.9 453.2 438 408.7 399.1 390 378.7 370 365.1 358.6 354 350.6 348 349.2 354.4
647.4 636.7 624.7 611.1 595 588.5 585.5 582.6 591.4 596.2 598.8 603.1 609.7 604.3 589.3 579.2 574.2 569.1 566.6 566.6 571.1 575.6 586.5 596.9 614 631.9 650.8 668.1 679.8 696.2 719.6 737.8 755.5 771.5 773.8 780.4 794.2 810.3 827.3 845.4 865.6 882.9 898.1 909.5 917.2 923.6 931.5 937.2 941.7 944 939.5 939.6 945.9 954.9 965.3 972.9 978.4 982.2 985.2 987.8 991.5 993.8 986.8 943.4 905.9 871.2 846 833 822.9 817.2 801.3 774.1 748.3 726.4 709 707.1 703.2 704.6 710.1 709.8 712.5 716.8 724.3 731.8 740.9 749.8 763.1 765.4 745.6 709.6 687.4 670.7 660.6 651.6 621.1 606.5 595.4 577.7 566 542.4 528.6 513 499.3 487.2 476.6 463.5 455.6 445.8 434.8 427.2 424.5 418.5 410 403.3 395.7 416.4 434.1 456.3 485.1 522.9 561.2 586 613 626.7 633.2 639 645.3 651.7 654.5 656.3 657.9 663.9 672.6 682.3 694.6 710.4 724.6 740.5 758.2 768.3 776.1 785.4 791.5 794.1 796.7 788.7 786.6 787 789.5 787 784.4 783.4 778.6 775.7 774.2 770.6 763.9 754.4 747.3 740.1 736.1 733.2 729.8 730.6 735.1 739.7 742.4 745.4 749.3 744.6 737.6 726.7 716.2 706.6 702.5 696.9 694.2 690.5 681.7 674.4 657.7 629.2 598 556.1 509.8 473.5 444.7 424.5 409.2 395.1 384.2 373.8 368.2 361.6 358.1 354.3 348.3 353.9 355.6 363.9
636.5 628.6 617.9 603 595.2 590 585.7 585.5 587.8 594.5 599.8 606.2 609 604.5 589.6 579.3 564.8 557.5 549.8 548.4 546 549.9 559.1 570.3 584.4 597.8 613.7 631.5 644.8 663 682.9 701.2 714.4 725.8 736.8 746.1 761.9 780.5 796.9 813.7 833.3 852.8 873.8 888.1 898 906.6 915.7 921.7 923.3 915.3 912.7 919.6 930 942.1 955.6 965.2 970.8 974.8 976.9 978.8 981.7 984.2 987.1 979.2 924 879.6 855.1 832.1 819.5 800.3 781.2 753.2 731.7 720.5 708.9 704.7 700.4 699.5 701.5 701.8 702.1 705.1 709.1 716.1 721.3 729.8 741.6 754.6 751.2 721.2 700 681 663.3 644.2 621.9 598.1 588.4 577.1 557.6 536.3 517.3 502.9 490.9 482.4 471.6 458.7 450.6 443.5 434.8 427.7 423.1 417.9 411.2 402.2 396.4 407.3 421.8 441.1 467.8 500.4 534.6 559.4 594.5 609 618.1 626 639.4 644.1 647.6 649.9 650.5 654.9 664.3 674.4 685.9 700.1 715.2 732.4 749.3 760.7 770.7 783 789.4 789.6 785.4 784.2 785.7 784.5 788.1 784.8 784.4 781.4 775.1 773.9 773.8 771.8 765.4 756 744.8 737.2 731.9 729.9 727.2 729 733.6 739.9 741.9 746.1 746.3 739.9 725.7 715.7 705.6 695.7 694.4 695.6 689.9 684.2 678.8 669.5 642.6 622.9 592 551.9 521.3 468.9 434.8 416.9 403.3 393 383.4 370.5 363.5 359.8 356.7 350.2 357 359 364.9 373.7
632.2 622.3 611.2 603.4 594.2 590.5 589.2 589 588.8 598.4 601.4 605.4 605.3 603.7 591.3 574.1 560.9 548.9 540.2 534.4 531.6 531.6 537.1 545.2 554.7 567.1 580.5 596.6 608.1 627.6 647.5 664.1 679.1 692.6 702.6 715.5 730.6 747.7 765 783.9 802.8 824.2 845.8 863.8 875.9 886.8 895.9 902.7 897.6 883.8 882.8 897.6 915.4 930.3 944.7 955.5 962 964.8 967 968.7 971.3 974.4 977.4 980.4 966.3 902.3 870 840.5 819 804.3 775.4 746.4 728.1 718.3 711.3 707.9 704.4 701.4 698.4 700 698.4 697.6 698.8 701.6 706.7 714.4 725.9 734.5 743.9 738.1 718.8 691 666.1 643.9 614 594.1 584.9 572.3 549.5 529.6 512.7 495.5 485 474.7 467.6 456.8 448 439.8 434.7 430.4 420.4 414.5 407.4 397.4 394.5 400.9 410.2 427 451.4 473.6 508.4 537.5 572.7 587.4 602.2 617.8 629.8 634.9 638.7 644.4 642.8 645.2 652.4 664.5 677.8 691.5 708.9 725.7 741.6 758.8 770.9 780.7 784.7 782.7 774.5 780.2 786.8 788.3 786.1 786.6 785.7 779.4 774.1 774.8 775.4 773.7 766.6 758.5 745.9 734.9 729.4 727 724.4 728.1 734.4 740.5 743.5 746.3 745.4 735.1 720 708.6 695.3 692.3 692.2 689.8 685.1 680.6 675.1 659.9 629.9 594.1 569.8 536.7 493.9 455.3 424.9 414.1 399.7 396.9 383.2 373.5 362.3 358.1 356.7 360.2 363.8 369.1 376.2 387.7
631.6 620.1 614 611 593 600.9 595.7 594.7 592 595.3 602.9 605.9 606.1 602.6 590.4 572.1 557.9 548.6 541 530.6 521.6 520.6 521.5 523 530.1 539 551.2 564.4 579 594.5 608.7 628.6 644.2 656.4 669.2 686.5 700.6 715.6 734.1 754 774.8 794.7 817.4 837.9 853.5 865.7 874.6 876.1 863.2 850.3 855.6 880.8 903.4 919.9 935.1 946.4 952.8 956.9 958.5 959.2 962.6 966.4 970 973.2 975.7 954.4 887.4 857.1 832 813 790.5 753 719.8 705.6 701.6 700.4 700.5 701.1 698.6 698.8 696.6 694.3 694.5 694.5 697.7 703.9 711.1 719.7 730.3 740.2 732.2 711.2 674.2 631 604.8 593.2 583.9 569.4 547.1 529.5 510.5 491.8 482.1 474.4 464.1 453.5 445.6 439.3 430.2 424.5 419.6 411.9 404.1 394.6 391.2 394.7 402.1 413 432.6 457.4 481.4 511.2 540.7 562.8 584.2 600.9 614 623.1 626.2 630.5 633 635.9 642.7 654.9 668.1 682.7 698.2 716.5 736.6 752.5 769.5 778.7 781.2 776.4 774.5 779.2 783.4 783.1 782.7 783.2 781.1 775.9 774.2 774.7 775.4 773.3 767 758.6 748 734.4 727.4 725.1 723.1 729.5 737.6 740.9 743.5 749.1 747 737.4 717.2 699.1 694 688.2 684.7 684.3 676.6 675.3 664.6 646.5 622.9 575.2 539.7 511.5 478.3 445.8 421 406.4 399.7 398.3 380.6 368 360.3 359.3 362.2 367.7 372.2 379.6 389.2 401.9
636.6 624.5 617.2 611.4 605.4 612.6 609.8 606.3 604.9 601 600.7 605.2 606.3 602.2 589.8 579.3 562.6 557.2 543 530.7 522.3 514.1 512 510.1 512 516.7 527 538 551.5 563.7 577.4 592.2 608.8 624.3 635.7 652.9 671.2 687 705.4 725 745.4 767.6 788.2 811.3 828.6 841.2 848.5 838.3 829.5 818.7 837.5 865.2 890.1 907.1 926.3 940.2 947.2 949.8 949.9 950.3 954.2 957.8 960.7 964.2 967.4 970.5 967.5 876.6 846.7 820.5 786.9 763 729.1 708.4 688.2 686.7 689.9 693.7 696.3 697.9 695.6 692.4 691.7 690.6 692.8 696.2 702.3 709.6 717.6 726.7 728 702.7 667.1 634.2 605.3 595.7 583.8 566.6 547.7 529.2 507 488.2 477 471.2 465.7 453.5 447.2 438.1 434.6 430.9 422.8 412.4 402.9 394.4 387.4 390.7 397.2 402 416.5 436.1 461.7 484.9 509.9 530.8 556.7 575.5 597.1 609.3 616.9 620.7 622.8 626.4 635.5 647.2 662.2 678.5 693.1 707 730.1 748.8 765.4 776.9 778.8 773.9 773.2 775.1 777.7 777 778.3 779.5 776.3 773.6 771.8 770 768.9 767.8 763.3 758.4 747.1 733.9 723.8 720.9 722.9 731.5 736.1 740 743.9 739.5 736.4 722.2 704.1 691.9 693.7 684.2 687.7 681.6 671.7 666.5 650.4 632.4 586 554.2 515.3 484.1 462.2 440.6 420.9 403.7 400.7 391.2 381.2 368.5 364.9 367.5 372.2 376.8 382.1 392.3 402 418.6
658.2 639.4 637.2 632.6 638.2 644.9 626.8 626.8 623.4 613.9 612.8 614.5 615.3 604 597.8 587.4 581.1 572.1 548 531.7 524.8 516.9 508 501.7 502 504.4 509.6 517.3 527.7 536.2 548.1 565.4 577.6 589.1 602.3 621.9 640 658.5 677.1 695.1 716.6 738.3 761.8 782.8 801.3 814.8 810.4 803.5 795.6 791.8 823.8 849.5 873.7 895.1 916.7 932.2 941.4 944 943.1 943.3 945.3 948.7 951.1 954.5 958.2 960.8 962.4 922.6 862 829.6 799.3 769.7 748.3 713.1 689.1 674.6 675.9 682.1 684.1 689.5 692.3 690.4 687.5 687.2 687.4 688.9 694.3 701.9 708.6 716.3 719.6 700.7 677.9 641.6 607 597.4 584.9 564.7 543.5 519.9 502.3 487.7 474.2 466.3 460.4 455.3 444.8 438.6 432.3 430 424.2 413.3 403.4 394.7 390.9 388.8 392.1 391 399.6 415.5 439.5 459.7 476.5 501.9 530.1 552.9 575.7 596.1 605.7 609.2 610.6 614.6 624.9 639.2 654.7 671 689.2 705.6 724.1 745.3 762.4 775.7 780 781.7 773.8 774.6 776.5 774.9 773.9 776.2 775.1 771.2 769.5 768.2 766.6 764.5 760.2 754.3 747.3 732.6 720.5 716.1 721.9 728.2 731.8 734.4 732.3 729 720.4 704 691.7 687.3 681.5 676.7 672.1 669.9 668.2 656.5 644.1 630.8 588.2 543.8 505.7 474.7 450.8 432.9 415.2 402.1 399.9 389.4 374.4 366.7 371.7 376.5 381.5 386.6 395.6 405.3 421.7 433.6
713.3 709.1 695.2 695.2 685 668.6 658 653.5 655.6 645 630.5 627.8 625.1 614.1 613.7 609.9 597.2 576.7 552.6 541 530.4 520.2 511.1 502.8 495.3 495.1 496.8 501.7 510.6 517.8 523.2 539.9 554.4 566.3 578.7 594.3 611.1 628.7 648.8 665.2 687.7 710.6 733.5 758.4 776 785.8 775.6 769.5 765.8 779.8 809.8 834.5 857.4 880.7 903.6 925.4 936.2 937.2 937.6 935.5 937.1 938.8 941.5 945 948.4 950.6 951.1 951.6 922 857.3 823.7 784.1 738.5 717 689.5 667.6 661.7 664.1 674.4 680.7 683.8 685.3 684.5 681 679.5 682.7 686.9 692.3 699.4 706.3 711.4 702.9 678 643.9 615 599.2 587.1 565.8 538.7 517.2 500.7 486.6 474.7 466.1 453.9 448.4 444.8 438.7 429.1 427.6 419.9 412.5 403.6 391.5 389.9 385.5 387.2 381.6 387.4 400.8 420.4 438.4 457.6 479.4 504.1 531.6 558.7 581.4 590.4 596 598.6 601.9 614 628.1 644.1 661.4 682 701.9 719.6 740.4 756.7 770.9 776.4 774.8 771 770.2 772.5 770.5 770.9 774.1 771.6 770 768.9 766.9 764.1 761.6 756.9 751.7 741.8 728 716.9 716.5 716.1 722.6 726.3 727.2 721.5 711.1 708.1 693.6 694.1 682.8 678 674.4 666.3 662.4 653.5 638.4 633.1 619.4 594.5 546.6 503.9 461.6 440.7 422.7 409.4 401.5 396.5 380.1 373.7 366.4 376.7 385.3 393.4 402.3 415.1 424.6 438.7 456.5
764.3 749.7 735.1 713.6 701.4 692.4 692.2 681.4 678 672.3 668.4 646.1 642.5 651.7 641 625.3 604 584.5 567.5 554.6 539.7 528.1 516.8 506.6 496.5 490.3 488.7 490 493.8 498.9 509.1 518.9 535.4 547 555.5 569.3 581 600.1 614.8 635.4 661.8 683.3 706.9 730.5 750 754.4 741.2 738.4 734.5 762.6 790 813.5 837.2 863.2 891.5 919 930.9 933.5 934.1 929.7 928.9 929.9 933.5 936.3 938.2 939.8 938.5 938.7 933.4 920.3 869.7 804.6 746.5 716 694.1 666.7 655.5 658.8 664.1 671.7 676.6 679.3 680.1 678.2 675.6 674.4 677.5 682.6 689.6 697.1 702.1 700.8 685.2 657.9 627 605.1 589.7 572 546 520.3 499.4 485.7 471.3 460.5 454.8 450.2 442.5 435.3 427.7 425.9 420.1 411.4 401.4 391 385.3 382.5 379 375.7 375.1 387.4 403.1 421.5 439.4 459 480.5 512.1 544.1 565.8 578.1 584.6 587.1 589.1 602.1 617.4 635.2 653.9 673.5 694.4 713.6 735.4 751.7 764.7 772.6 772.9 770.6 768.1 766.9 765.5 765.7 767.7 768.1 768.1 767.9 764.9 761 758.1 751.8 746.2 734.6 723.3 704.9 710.2 710 716.5 719 719.4 714.2 702.4 697.5 697 686.3 676.9 675.3 673.9 659.8 643.1 619.2 615.6 605 602.2 579.6 535.2 485.9 446.1 427.3 415.7 402.3 398 390 379.3 375.5 379 387.4 395.1 405.4 417.8 432.6 444.7 462.6 474.2
782.6 785.6 757.9 737.5 723.5 720.1 726.2 712.6 699.8 693.5 685.2 686.7 685.3 676 653.4 637.7 617 600.3 584.8 567.5 551.2 538.4 525.3 513.5 504.3 495.7 493.2 483.3 484.8 486.9 494.7 507.5 516.8 524.8 533.9 546.2 556.4 570.8 586.6 609.3 634 659.4 679.5 701.2 718.3 719.5 710.8 709.8 720.7 744.6 771.2 797.3 824.3 852.9 886.2 917.6 927.2 929.2 929.9 926.6 913.9 922.8 926.6 928.4 929.4 929.1 927.5 923.7 916.9 905.7 868.1 821.9 778.8 727.8 692.9 661.4 654 655.1 656.5 663.7 670 673.4 675.7 675.7 672.8 669.6 670.8 673.7 678.9 686.1 693.7 695.5 692 673.4 642.4 620 594 577.7 553.5 529.4 505.5 485.9 473.3 463.2 457.6 452.7 443.5 435.1 434.4 430.6 420.6 411.2 401.8 392.9 385.1 376.2 373.2 367.8 367.3 378.7 389.3 407 420.8 443 464.6 497.2 527 552.3 566.7 573.5 573.6 576.3 590.3 607.9 626.6 647.2 666.7 689.1 710.3 729.1 745.4 757.6 766.5 771.4 769.3 768.2 762.9 760.8 757.5 763.2 765.1 765.7 764.4 762.3 758.3 754.5 749.6 742 729.3 716.6 704 694.1 705.7 709.8 708.8 708.4 701 692.2 691.5 684.2 679.3 674.8 667.5 659.8 647.5 627.9 597.6 563.1 555.6 565.1 535.1 504.4 461.6 435.2 418 404.7 394 387.5 384.8 377.6 371.2 386.5 396.1 408.5 420.7 431.2 448.8 466.5 482.4 489.9
799.1 784.6 769.6 757.9 756.3 765.1 755.2 743.6 726.9 707 714 707.1 699 682.1 669.6 657.4 637.5 624.4 606.9 588.7 570 553.8 537.3 525.6 514.7 503.8 493.6 486.9 478.7 482.5 485.4 497.1 501.6 507.9 513.7 523 533.5 547.7 560.7 579.5 606.5 629.9 653.8 672.5 689.1 691.8 682.5 684.7 715.2 741.8 772.9 804.8 829.8 858.6 889.8 913.5 923.2 926.4 925.8 922.2 904 912.3 917.2 919.8 920.7 919.1 914.2 908.5 901.5 891.6 879.1 838.4 792 734.6 692.5 664.6 655.7 652.1 651.8 654.1 660.4 665.9 670.1 671.5 669.6 666.5 664.1 667.5 670.4 675.8 681.2 687.2 689.9 682.2 659 636.3 611 588.1 571.6 540.7 516.2 492.3 476.8 467 460.9 453.1 442.9 436 433.1 431.6 424.9 418.6 408.1 397 384.4 375.2 374 363.7 364.2 370.1 381.7 394 409.4 426.5 451.1 477.5 506.6 533.4 551.1 559.2 556.5 562.3 579 599.6 619.1 639.7 661.3 682.9 705.4 724.5 741.6 755.3 764.2 768.1 769.9 768.8 761.7 754.3 753.8 758.5 761.8 760.7 759.6 759.5 757.2 753.6 748.9 739.2 725.1 709.4 696.1 693.2 699.3 699.3 695.7 694.1 685.1 682.6 678.4 672.1 674 664.1 659 645.2 629.4 611.8 586.4 554.9 506.5 517.1 496.9 474.5 446.3 426 406.4 393.9 387.4 382.6 377.5 377.5 383.1 394.8 405.1 422.6 440.8 454.9 461.6 481.3 501.6 512.5
806.7 800.1 793.4 790.7 795.3 784.5 769.6 744.6 738.6 740.2 730.4 721.9 716 704.1 695.9 682.4 665.8 647.8 635.8 615.7 596.4 572.9 552.4 537.8 523.7 511.1 499.3 489.9 481.8 474.1 478.1 486.9 487.6 494.8 496.8 506.8 517.4 526.1 537.4 555 576.8 600.7 630.4 649.3 665.5 666.1 653.1 682.8 710.9 738.5 773.2 805 832.9 864.3 891.4 909.6 919.2 922.9 922.3 918.2 907.4 899 909.5 912.7 912.2 909.1 903.2 898.6 893 882.2 869.3 835 790.9 746.9 707.7 678.6 660.8 657.3 651.6 652.4 651.8 656.7 663.2 667.7 666.9 662.8 659.6 661.3 663.8 666.4 671.3 677.8 682.1 680.6 672.4 658.6 632.3 609.3 588.9 554.6 531.7 511.2 483.5 472.2 465.4 453.7 444.8 438.9 437.9 436 435.1 420.8 410 401.7 389.1 379.2 373.1 359.2 358.9 366.5 374.3 384.6 396.9 414 438.8 461.8 487.9 512.9 531.5 540.9 536.8 550.2 569.8 590.7 612.6 634.3 656 678.3 701.3 718.9 736.4 752.1 762 767.1 769.1 766 757.7 750.9 752.1 756.9 758 757.3 756.8 757 755.3 751.6 746 735.9 719.4 702.9 691.1 685.3 688.1 687.1 684.3 680.1 678.6 672.3 667.4 661.3 658.5 655.1 643.2 624.5 606.9 590 570 538.3 509 464.1 469.3 451.2 434.2 413.6 399.4 387.8 386 381.6 382.8 388.1 393.8 403 418.7 439.4 457.5 469.2 480.4 501.3 521.9 530.9
827.6 832.9 844.1 835.5 817.2 790.2 773.3 771.7 761.8 759.1 750.6 748.7 738.3 729.8 719.6 701.7 686.2 676 660.5 642.5 615.7 595.2 573.6 553.2 535.2 521 507.7 495.2 485.7 477.1 470.6 473.2 473.7 478.2 486.6 493 499.9 509.3 517.6 531.8 551.3 574.6 600.2 622.5 640.9 635.8 645.4 677.3 704.5 736.4 772.1 802.7 832.8 862.7 888.3 904.7 914.7 918.3 918.3 913.4 900.3 888.7 900.1 902.5 899.9 897.7 893.2 890.8 883.3 871.4 859 815.6 780 747.9 709.8 689.6 667 652.9 650.4 654.9 650.6 651.3 659 663.4 664.8 662.3 659.7 658.3 658.8 659.4 663.5 668.1 671.6 674.4 673.6 664.8 647.8 626.8 597.2 569.7 545.1 518.1 495 481.2 471.6 461.9 447.6 440.8 438.2 437.3 434.4 427.6 416.1 407.8 395.3 381.3 370.1 360.1 356.8 364.6 369.3 374.2 386.2 404 426.1 447.2 468.9 491.8 511 521.4 519.4 543.4 564.2 585.4 607.5 629.5 652.5 675.1 696.7 716 732.3 747.5 758.2 762.4 763.2 758.2 751.8 745.6 749.2 753.5 754.7 756.2 756.1 756.6 754.9 750.3 745.6 734.2 712.8 697.6 690.4 680.6 674.8 673.5 668.9 669.4 668.6 668.1 667.6 655.3 646.7 632.7 618.1 597 574.5 553.6 537.1 508.1 482.2 456.1 442.9 431.7 417.4 402.9 388.4 386.4 384 383.8 389.5 397.6 406.3 420.7 435.4 449.8 473.4 490.8 504.1 519.6 538.8 550.4
854.1 877 862.1 844.3 819.6 800.9 805 795.2 796.8 794.6 790.4 781 770.9 766.5 749.9 728.4 721.6 700.5 679.8 651.1 635.3 610.7 585.4 568.7 548.5 530.6 517.1 502.9 491.2 481 474 467.8 467.5 469 477.6 482 487 493.1 501.3 512.3 529.1 550 572.5 598.6 615.8 608.7 642.6 672.9 699.9 736.7 772.4 801.6 831.9 858.2 882.5 899 907.7 915.3 914.4 904.9 892.6 880.9 890 890.6 888.5 886.8 883 879.3 869.1 859.7 845 803.2 774.9 737.7 704.5 683.8 667.1 654.1 651.2 653.5 651.8 651 656.3 659.7 660.2 659.3 658 655.6 653.1 651.7 653.2 656.7 659.3 663.1 667.5 663.9 652.9 635.9 612.1 581.3 556.5 533 507.1 494.7 480.3 471.7 453.9 445 442.2 440.9 438.4 431.7 424.7 414.6 397.3 382.7 369.6 365.4 356.5 361.4 365.9 367.2 378 393.4 414.1 432.2 453.4 474.4 492.3 501 514.8 537.9 559.8 580.5 601.8 624.9 648.1 671.8 691.7 712.5 729.9 745.9 758 762.5 761.9 753.8 748.2 741.5 744.9 748.3 752.8 755.2 755.8 756.5 754 752.9 746.9 727.2 708.7 696.9 687.9 675.5 662.7 659.2 657.8 656.4 658.5 662.6 661.7 648.8 633.9 613.9 594.5 573.8 542.8 520.9 504.4 484.7 464 445.5 424.6 415.5 402.6 394.5 388.8 387.1 384.2 390.4 397.5 405.8 417.7 432.9 456.2 474.4 492.8 513 531.9 543.4 552.9 564.7
896.5 895.5 861.2 844.9 838.3 831.6 829.6 823.1 829.3 827.2 832.5 823.1 815.1 790.6 770.2 753.1 734.1 714.5 687.6 671.5 651.4 628.7 605.4 585.7 564.8 545.5 526.5 511.6 496.4 487.7 477.4 468.9 462.3 464.9 466.8 469.3 475.2 478.7 487.2 497.4 511.8 528.6 550.9 573.5 591.2 604.4 639.8 667.6 695.1 730.4 767 796.5 825.9 851.6 873.4 889.9 902.2 909.4 908.2 897.6 883.6 873.5 877.2 878.6 877.1 874.9 870 862.3 854.5 843.2 825.8 789.7 759.9 731.2 700.8 673.2 662.7 657.8 653.1 650.3 649.6 650.9 652.6 655.1 655.8 654.5 653.6 649.6 646.5 643.1 645.4 647.9 651.1 652.6 658.5 657.2 646.5 640.7 620.7 591.6 567.5 538 518.3 503 488.4 475.5 464.3 452.5 447.5 446.4 441.8 436.3 431.1 420.1 408.3 391.3 374.8 368.3 359.3 354.2 362.3 361.7 371.1 390 402.9 418.7 440.6 460.7 473.9 488 511.9 534 555.5 578.3 598.1 617 644.2 668.3 688.6 709.2 726.4 740.6 751.8 757 756.1 745.9 741.8 736.7 741.7 745.8 750.8 752.9 753 753.7 754.8 753.2 742.3 722.3 706.2 695 684 671.2 664.5 656.6 646.4 645.7 650.9 653 648.3 634.6 622.2 602.9 582.5 554 516.9 492.9 480 461 443.6 425.7 415.5 409.4 401.5 393 389.5 390.9 393.6 398.9 408.5 418.9 439.3 453.1 473.5 498.4 513.7 534.1 549.3 561.6 565.7 576.1
941.3 894.3 883.5 881 861.8 856 851.8 860.5 877.6 885.2 873.5 843.2 813.7 793.8 776.7 752.7 735.5 721.5 703 686.5 667.4 647.3 631.6 608.4 584.2 559 537.5 518.3 505.3 490.4 479.4 471 464.9 457.1 458.1 460.5 463 467.3 475.6 487 499.5 516.8 531.6 549.9 566.2 599.1 633.8 659.3 686.8 721.3 755.2 787.2 816 842.8 865.8 881.6 894 902.9 902.1 888.4 873.6 867.4 864.1 864.4 862.9 859.1 854.8 843.5 833.7 824 807.8 776.4 749.4 725.5 693.5 671.6 664.2 657.8 654.5 651.3 648.8 649.3 649.8 650.1 651.3 649.8 647.5 646.2 640.8 624.3 636 639.1 641.1 643 646.7 646.2 638.9 637.1 629.5 607.4 574.8 547.5 528.8 513.4 501.3 488.5 476.7 461.8 454.3 450 446.7 442.5 436.2 423.2 415.7 399.2 385.6 368.6 357.9 353.8 354.7 358 368.1 383.3 394.8 411.7 428.7 449.1 461.2 488 509.3 532.8 553.9 574.7 596.9 617.7 640.6 666.1 685.5 704.3 721.7 732.1 742.3 749.1 746.6 737.5 736.1 732 735.3 742 747.9 749.1 749.1 748.9 750.8 748.4 735.5 720.1 706.5 694.1 680.3 669.7 659.4 652.3 645.6 640.1 640.5 640 635.4 628.9 615.2 587.7 565.3 527.2 499.6 470.9 457.8 438.3 423.5 411.3 403.8 399.3 394.4 396.3 400.6 406.3 403.3 413 424.6 438.9 456.6 478.5 490.5 511.9 535.2 549.3 563.8 574.2 580.7 586.9
949.4 916.3 909.3 899.1 880.4 881.9 899.4 923.7 924.8 911.3 872.9 839.8 813.1 797.1 779.4 762.3 743.8 724.4 711.7 699.4 681.4 665.5 653 635.1 608.8 578.7 552.7 528.7 512.5 498.6 484.6 473.9 465.5 455.3 453.2 453.5 455.1 460.6 469.4 478.7 488.8 503.2 517.8 531.6 555.4 585.3 620.3 649.1 676.4 708.3 742.1 772.8 801.3 829.7 855.8 873.3 886.3 895.5 894.8 881.3 866.8 858.9 846.8 850.1 848.5 841.9 836.4 827.1 814.7 799.1 784.9 758.8 738.1 710.5 686.1 672.1 662.8 656.3 654.4 648.5 648.4 648.8 647 649 645.2 644.4 642.7 640.5 634 625.9 627.7 630.5 632.4 633.4 634.8 633.6 629.6 631.1 631.1 622.8 585.6 564.4 548.8 531.6 519.6 507.3 485.9 470 462 454.8 450.9 446.5 438.4 428.4 417.1 407.2 389 375.8 361.5 357.4 355.5 354 361.5 374.8 387 402.8 418.9 431.1 457.2 484.8 507.4 531.4 551.4 573.6 593.7 616 638 663.1 683.8 701.3 715.2 726.6 735.8 739.1 739 732 731.2 728.7 729.8 737.5 742.3 743.1 742.5 741.2 742.6 741 729.8 716.3 708.7 692.4 678.5 668.8 655.8 656.2 650.9 637 633.7 632.3 627.5 620.7 601.2 564.7 539.1 505.2 484.6 457.5 442 426 415.2 407.3 408.1 404.4 405.4 410.3 415.9 421.4 432.3 441.2 454.8 467.5 480.4 495.8 514.2 530.4 542.1 561.6 577 589.2 585.7 586.2
973.7 950.3 928.8 913.9 914.4 934 954.1 964.5 961 915.4 879.2 847.4 819.1 797.1 785.9 781.2 762.2 741.2 724.4 710.8 696.8 684.3 673.4 657.1 638.4 600.9 567.1 541.2 521.2 503.8 490.1 476.3 463.8 458 451.8 450.7 453 457.7 464.7 473 482.8 496 505.8 515.5 539.7 569.6 604.3 633.5 661.1 692.7 724.9 754.3 783.5 814.3 843.2 863.6 877.8 886.3 886.7 878.7 864.2 850.1 834.7 836.4 832.5 823 815.9 806.3 792.9 780.7 757.3 741.6 721.1 699.4 682.6 673.6 662.7 653.9 647.7 647.1 642.5 644.6 643.6 641.4 642.4 638.1 635.5 633.3 629.7 622.9 614.8 620.6 622.4 622.9 622.5 620.8 618.4 621.5 626.5 620.6 606.4 583.8 573.6 554.1 536.9 516.7 498.3 486 472.5 465.2 458.5 451.6 445.4 430.6 420.2 406.1 391.4 378.2 366.8 359.1 353.2 346.5 356.3 366.8 380.9 395.3 411.6 431.6 455.4 480.6 505.2 528.4 552.2 574.3 594.7 614.6 638.4 659.6 679.7 696.9 710.4 722.5 730.1 732.5 729.2 727.8 723.7 720 725.7 731.2 734.7 734.6 733.2 732.5 730.8 731 723.7 721 710.4 695.3 677.3 666.4 655.9 652.3 650 633.3 620.7 619.4 611.9 599.3 566.3 544.6 514.6 485.6 465.1 442.2 425.3 417.5 419.1 419 423 427.9 429.7 434.7 434.5 445.8 464.9 477 491.5 496.4 507.9 526.1 539.3 551.9 563.2 575.6 582.6 590.1 587.2 580.7
979.2 983.2 959.7 949.9 965.2 989.2 1001.1 1004.5 978.3 917.2 876.1 850.2 832.5 813 802.3 791.5 780.2 753.9 739.8 733.8 719.3 703.8 691.4 676.1 652.8 620.7 580.4 551.4 530.8 510.9 495.3 481 470 459.5 451.6 449.2 452.5 456.3 461.3 468.4 479.8 489.5 494 502.9 525.9 552.5 585.3 615.6 644.3 673.7 704.8 736.5 767.4 798.4 827.8 851.6 867.6 878.3 882.4 879.3 867.8 847.3 829.1 819.3 811.8 803.5 794.7 782.9 773.1 756.7 738.2 728.4 713.5 696.2 684.9 675.4 663.1 653.9 650.2 644.1 642.5 641.3 639.5 634.5 634.4 634.7 629.9 625 622.3 615.1 599.8 611.9 612.7 613 611.3 608 607.5 610.8 617.9 618 612.5 609.5 606 584.7 559.9 534.4 515.9 503.4 492.8 476.8 468 462 449.3 434.3 421.2 404.7 397.9 383.1 368.2 357.1 349.7 343.6 353.1 358.2 373.8 391.4 407.7 429.9 451.6 476.2 503.2 527.7 551.9 573.8 595.6 616.8 637 656.6 674.2 690.1 703.4 715 721.2 722 721.8 720.7 718.1 716.8 719.3 723.2 724.6 725.3 723.2 723.7 720.9 723 719.9 716.8 708.9 695.6 677.2 665.5 647.7 633 632.9 625.1 608.8 599.8 583.6 562.3 540.8 519 495.6 475.5 447.1 437.5 437 436.1 435.8 443.5 447 458.2 463.3 466.9 468.5 471.7 488.2 508.8 531.1 536.2 544 555.5 571.2 586.6 582.7 585.9 590.8 592.3 590.7 572.5
981.6 989.6 996.8 998.9 1019.6 1026.9 1039.2 1035.2 967.8 918.2 885 869.7 859.8 842.5 826.3 818.7 801.5 782.2 770.6 763.7 752.3 733.2 715.4 687.9 662.2 629.8 591.5 563 539.8 520.6 501.4 485.6 473.7 462.1 454.5 450 449.6 453.7 457.8 464.8 470.9 476.4 482 490.7 510.8 537.2 566.2 596.7 624.3 653 684.7 718.5 749.6 780.3 810.7 836.8 856.4 868.4 878.5 878.2 868 845.7 825.9 805.9 794.2 785 770.4 763.1 752.3 732.7 723.1 713.4 706 697.8 687.7 676.5 664.2 656.8 652.9 644.1 640.8 636.4 626.4 629.1 628 626.2 624.2 618.8 613.1 608.3 603.8 598.9 602.5 601.8 597.1 594.2 595.6 600.9 607.5 611.9 611.1 614.5 612.5 598.9 588.3 554.8 533.8 522.1 502.3 490.7 478.6 469.1 458 441.8 419.5 405.5 394.9 386.2 371.8 359.4 350.1 342.6 347.3 354.6 368 383.3 404.7 427.8 448.2 473.9 498.8 526.1 550.9 574.4 596.4 616.6 636.9 655.4 674.5 688.2 701.9 712.7 716.1 716.6 716.3 715.3 711.2 711.6 712.3 714.4 715.4 715.2 715.1 714.4 712.4 711.6 711.2 708.1 697.1 683.6 674.3 662.9 646.9 629.9 619 617.2 596.7 578.5 555.9 544.9 525.6 505.9 493.1 477.3 463.1 456.5 455.8 457.9 463.8 484.7 486.8 494.7 499.3 497.5 498.4 501.8 517.2 541.7 556.1 561.6 572.1 583.2 596.8 595.8 590.9 584.3 586.7 588.3 579 556.7
978.9 986.3 993.1 999.8 1009.3 1018.4 1025.7 1015.5 960.3 929.5 907.1 890.1 874.6 867.9 860.2 849.7 825.5 815.4 806.1 806 790.5 772.9 743.2 709.4 679.3 638 604.5 576.2 553.3 530.3 510.6 489.7 473.3 463.5 454.5 448.2 445.2 449.4 453.2 458.6 463.6 466.6 473.8 480.6 497.6 522.4 549.6 577.4 606.2 635.6 666.6 699.3 729.8 760.7 793.3 821.9 841.9 859.3 870.6 873.7 866.2 845.3 825.6 810.1 780.7 764.1 751.6 744.4 734.4 719.1 707.9 703.4 696.9 692.5 688.1 679 670.7 660.8 652 646.5 641.8 634.5 630 620.6 610.9 618.4 615 610.6 606 601.1 595.1 583.9 591.5 591 585.3 581.4 584 589.8 595.8 603.2 606.4 608.8 611.5 613.7 606.3 577.3 551.4 533.9 520.7 510.4 489 475.6 463.8 444.2 419.7 407 395.7 387.6 376.7 362.4 351 341.8 344.7 349.4 358.5 377.3 399.8 421.8 446.6 472.3 496.4 523.4 548.8 572.8 595.4 617.2 637 655.2 674.7 690.6 702.9 714.3 717.3 713.6 708.4 707.2 705.1 705.3 702.5 703.3 703.2 702.6 704.1 706.4 705.9 705.6 702.9 694.9 685.4 674.6 666.2 648.2 632.1 618.9 611.5 604.1 593.7 588.2 574 559.5 540 524 508.2 492.8 482.8 478.3 478.4 487.8 506.6 522.2 520.4 527.9 532.3 527 529.4 535.2 542.7 557.9 572 583.1 589.1 592.2 590.9 591 587 583.4 578.6 573.5 560.7 538.3
967.4 973.9 977.7 981.1 989.3 997.2 1005.7 1012.5 978.8 945.1 922 908.3 898.8 896.8 883.9 882.4 864.8 850.8 854.5 845.5 833.9 807.2 761 724.2 689 661.4 624.6 598.4 565.7 539.5 518 497 475.6 462.2 454.8 447.4 441.7 445.9 448.4 450.3 455.2 459 465.7 474 488.1 507.5 532.8 561.7 591.9 618.6 647.2 677.4 711.2 745.6 779.2 808.9 829.2 847.7 864.8 868.6 859.9 841.2 822.5 805.4 779.9 750.9 736.2 724.5 714 698.9 692.1 691.3 689.6 686 684.6 682.3 673.8 664.9 658.4 653.9 642 634.7 630 625.2 620.2 611.6 595.7 592.2 596.9 592.9 587.9 580.4 580 578.7 574.2 570.3 574.2 579.4 586.1 593.3 596.1 601.9 607.9 611.8 610.4 600.5 573.2 561.6 540.3 521.4 501.5 486.9 473.6 444.7 421.8 409.4 400.6 388 377.4 363.6 354.1 345.1 341.6 346.1 355.3 373.1 391.9 417.5 444.6 469 494.2 519.8 547 570.8 594.4 618.7 638.8 654.8 675.2 691.3 705.1 712.7 715.5 713.9 705.3 698.7 695.1 695.5 691.5 689.5 687.9 691.7 694.8 694.8 695.8 697.7 693.3 685.1 675.4 660 642.2 630.5 620.6 615.7 608.4 603.9 604.2 601.4 590.9 567.1 555.4 540.7 525.2 510.3 503.5 505.8 506.5 524.2 552.3 565.9 562.8 564.4 566.6 557.6 554.2 556.3 558.7 567.6 582.4 589.8 590.7 581.9 577.2 580.1 585.5 577.9 563.9 554.4 538.9 520
944.1 951 956 960.3 965.3 976.1 986 997 1006.1 974.3 943.9 931.2 922.6 927.3 924.9 908.5 895.4 886.7 883.2 875.6 850 809.9 767.4 731.9 689.6 669.7 644.6 616.6 585.4 549.5 525.1 504.7 481 463.7 453.9 446.4 441.9 441.6 444 445.4 448 452.6 459 468.1 478.1 497.8 518.4 545.7 574.3 601.9 630.4 660.6 695 729.8 764.6 796.2 819.3 839.8 857.3 859.3 848.6 829.1 809.4 792.2 773.6 747.3 726.7 709.5 694.2 683.2 679.8 678.2 678.1 678.6 679.3 679.6 673.9 669.8 663.3 655.1 646 638.8 631.4 625.8 619.1 612.9 605.6 597.8 580 584.5 580.9 576 565.9 565.8 563.1 559.1 564.3 568.8 578.2 583.1 586.7 593.9 601.7 606.8 611.9 613.3 598.3 584.1 561.2 536.3 512.1 499.9 478.6 444.6 420.3 410.2 395.3 387.8 377.9 367.3 359.2 348 337.7 342.1 348.9 367.9 390.7 416.5 443.8 464.6 490 517.2 543.1 568.2 592.7 616 636.7 654.4 673 689.7 701.4 708.7 711.8 710 703.8 694.7 685.6 683 682.5 679.7 681.5 684 683.7 683.3 685.8 685.3 680.2 674.6 656.5 642.5 634.1 629.1 618.9 613.5 602.9 605.7 610.9 600.8 592.4 582.9 571.5 548.6 542 543.2 542.3 540 550.3 563 576.2 578.8 575.9 576.9 574.3 565.6 567 567.3 569 570.7 571.7 568.5 565.7 565.7 569.3 569.9 566.8 555.4 545 537 517.2 492.6
920 926.9 930.2 933.5 940.2 950.5 963.3 976.2 988.5 993.4 981.6 952.6 927.6 904.9 905.8 890.1 879.2 871.7 866.3 859.2 843.9 807.5 754.6 726.2 696.1 675.7 654.4 629.1 595.4 561.5 536.4 512 486.1 466.6 453.7 446 439.9 439.6 440.9 441.5 442.5 447.2 452.9 460.7 468.7 484.4 505.5 531.6 558.6 586.9 616.4 645.2 679.7 715.1 749.7 780.4 809.7 834.5 851.4 850.8 834.2 813.5 790.8 776.8 757 740.7 723 703.5 688.1 673 670.4 668.8 670.1 671 674.6 674.6 672.7 669.5 664.2 654.7 647.4 639.4 634.1 625.6 617.1 609.9 600.3 593.5 586 576.6 568.6 569.6 563.6 555.5 552.8 553.3 555.9 561.4 568.9 573.9 576.4 583.9 594.4 603.8 609.7 614.5 618.2 602.4 579.8 549.3 528.8 504 475.8 440 422.7 408.6 396.5 384.7 374.6 367.6 358.6 349.4 336.9 340.1 349 364.6 387.8 415.6 440.5 463 487.2 513.4 541.3 566.5 589.7 612.9 634.5 652.1 672.6 689.4 703.2 700.3 704.6 706.7 703.4 695.2 688.6 682.1 674.3 674.7 676.1 675.5 674.1 673.6 674.1 673.4 665.7 658.7 645.3 629.5 624 624.5 609.8 599 598.6 602.7 602.5 598.2 594.8 584.4 571.6 570.2 584.1 578.9 574 583.6 589 589.7 591.1 589.3 587.6 581.7 580 570.1 564.8 567.7 564 559.7 557 554.1 554 554.6 557 556.5 550.2 538.6 528.1 506.4 491.3 470.2
889.9 896.8 900.5 904.8 912.5 925.6 939.4 953.4 967 973.7 961.5 924.4 901.8 875.5 867.5 866.7 856.9 849.1 844.3 840.6 835 806.7 766.5 730.4 703.3 680.9 661.7 637.4 609.4 575.9 547.6 522 496.4 472.2 453.5 443.9 438.4 438.9 437.5 438.7 439.2 442.7 447.2 453.6 461.7 473.8 495 517.1 542.8 571.2 599.9 632.5 666.6 700.7 734.7 770.1 800.5 827.4 844.8 839.8 823.5 798.7 775.6 756.4 742.9 730.3 715.1 697.2 680.3 666.9 658.7 656.9 658.6 660.5 666.9 670 668.3 667.3 662.1 655.2 649.3 640.7 633.4 625.3 617.5 608.3 597.9 589.9 582.7 573.4 562.7 557.3 558.6 553.2 546.9 548.5 548.7 553.5 557.7 561.4 566.3 577 589.5 598.5 605.5 617.8 626.5 628.5 597 556 538.5 497.2 464.1 439.2 423.7 411.9 397.1 383.3 376.1 367.2 356.7 347.2 335.6 333.5 344.2 361.5 386 411.8 435 459.5 484.2 509.3 537.2 562.1 587.4 609.5 631.9 649.5 668.4 688.2 702.1 698.4 698.9 702.4 701.5 697 686.4 678.5 671.3 671.5 672 671.8 665.5 663.2 662.9 659.6 654.7 647.7 639.9 622.4 606.6 599.8 595.6 589.4 591.3 592.6 591.3 589.6 590.2 591 599.8 607.9 605 601.3 608.6 611.7 610.7 607.5 602.3 602.5 591.7 577.6 572.3 565.1 559.6 555.8 550.7 544.7 543.1 545.3 537.9 539.8 545.4 539 531.2 522.7 509.1 487 466.7 451.7
858.3 865 869.7 875.9 885.1 898.2 913.9 929.5 942.7 949.7 937.9 898 880.4 851.7 832.2 818.4 822.9 822.9 820.4 820.4 820.2 811.8 778.7 745.2 717.4 690.2 671.5 646.9 622.7 592.6 564 533.4 505.3 480.4 461.3 446.2 438.4 437.6 436.8 436.6 437.3 438.1 441.8 446.6 455 467.5 483.6 504.9 530.4 558.4 586.2 616.7 648.1 685.2 722.6 757.8 791.8 821.4 837.8 824.9 803.1 787 766.8 743.4 729.9 717.8 702.8 688.8 672.9 655.4 651.3 646.8 649.1 653.2 658.8 662.6 663.1 659.8 655.5 652.5 646 639.8 632.8 623.4 615.7 604.4 596.4 587.7 578.8 571.3 562.8 549.1 553.6 549.3 543.7 542.3 543.2 545.7 548.7 550.8 560 570.2 582.4 594.5 604.4 617.1 632 628.8 586.7 550 530.5 489.5 455.7 437.5 423.2 409.8 395.9 386.8 377.6 367.5 356.3 346.1 335.7 327.4 336.8 360 385.9 411 434.4 458 482.6 508.8 533.7 560.5 583 604 628.4 645.6 665.8 685.6 692.7 698.2 695.1 695.2 698.7 698.3 686 678.6 671.2 670.2 672.5 670.6 660.3 656.4 653.4 647.5 639.8 632.8 625.7 605.6 593.8 590.5 579.8 575.8 580.5 584.4 583.8 585.4 594.2 608.5 622.7 623.8 620.1 624.8 629.5 627.8 622.9 612.9 606.1 596.8 588.7 578.6 561 556.3 552.8 546 541.1 536.3 531.8 528.4 528.4 529.4 524.1 518.7 512.5 503.2 486.7 465.6 449.6 431.7
825.6 834.1 840 846.1 857.1 870.1 887.4 904.8 917.7 924.3 913.9 870 850.5 826.5 798.8 782 780.6 792.4 800.7 802.5 804.9 805 796 766.9 735.7 708.1 686.9 664.4 640.9 612.1 582.1 547.6 516.3 489.7 467.3 450.5 440.7 436.7 436.8 436.2 434.6 434.3 436.3 441.8 449.9 460.5 475.9 494.1 518.1 544.3 573.1 602.4 634.3 669.2 705.9 741.6 778.3 811.3 826.3 813.8 792.5 768.6 745.9 727.2 718 703.5 692.9 680.2 662.1 647.2 643 637.5 640.5 646.4 651 655.4 654.8 652.5 649.3 644.9 641.2 635.3 628.8 619.9 610 600 593.2 585 578.7 572.3 566 556.2 544 538.2 539.5 535.4 536.8 537.3 540 544.3 551.6 562.7 576.6 588.8 601.1 613 624 618.1 579.5 545.3 516.8 481.3 458.8 437.5 422.1 410.3 399.5 389.8 381.8 370.5 353.1 341.3 331.8 326.1 334.1 359.2 384.4 405.7 430.2 455.6 480.8 507.1 533.1 558.1 580.9 601.2 626.4 642.5 659.9 676.9 683 690.6 694.1 695.5 696.7 692.3 684.1 673.7 669.9 669.8 670.2 666.1 657.7 653.7 650.9 644.5 626.1 612.7 600.1 585.3 582.7 571.7 568.9 565.9 569.9 574.5 578.1 588.8 605.8 621.9 633.1 636.1 637.2 637.3 640.3 638.3 633.3 619.7 607.1 597.5 582.8 560.4 548.3 546.1 542 538.9 534.1 530.5 525.2 523.1 520.4 514 506.9 499.1 493.3 482.5 463.9 444.5 429.3 412.5
794 802.7 809.8 817 828.8 843 860.8 876.7 892.9 897.6 890 849 826 801 782.3 773.3 760.5 761.9 772.8 781 787.3 790.3 792.4 788 758.7 733 711.7 688.2 661.3 629.4 597.6 561.2 526.8 497.9 477.3 455.7 444.8 437.6 436.5 435.4 434 434 434.1 437.9 445.7 456.8 469.8 484.8 508 531.2 560.5 589.6 621.1 654.8 692.2 727.3 760.9 798.8 810.2 796 779.6 754.6 732.9 716.6 705.8 691.4 682.1 669.6 656.5 644.7 637.1 631.5 631.1 635.9 641.9 645.7 644.4 641.7 638.8 635.1 632.8 627.9 621.5 612.9 604.9 595.4 588.6 581.5 577 572.7 563.8 556.9 548.4 544.3 537 526.1 529.1 531.3 532.3 536.6 544.3 555.6 567.7 581.8 594.3 605.6 613.6 619.7 583.6 542.8 514.7 479.5 453 434.7 422.1 411.3 401 394 381.9 368.1 354.8 337.4 328.8 321.1 334.7 358.7 378.8 401.8 426.4 454.5 479.3 504.8 532.4 556.3 577.6 600.6 622.1 638.1 653.8 668.1 676.6 686.4 693.8 694.4 695.7 692.4 682.8 671 670.4 672.2 668.9 663.8 663.2 660.7 653.9 648.4 628.6 600.2 581.2 570.5 564 557.7 556.1 558.4 561.9 567.7 581.9 597.7 614.3 631.6 639.9 642.6 645.9 644 647 643.7 635.1 625.7 611.9 592.3 578.1 558.1 539.9 535.6 533.4 528.6 527.8 522.3 513.6 509.3 503 498 492.4 482.4 471.3 459.7 443.6 428 409.1 398.6
767.7 775 781.3 789.8 801.4 816.7 835.9 853.9 863.5 872 869.4 836.8 808 787.7 774.4 760.8 743.6 740.3 741.2 754.6 767.1 774.9 782.3 785.5 784.3 762.7 744.2 716.6 680.8 644.2 612.5 575.4 538.5 507.4 485 463.9 444.8 437.1 435.4 434.4 433.7 434.1 433.2 435.1 440.6 451.5 461.9 478.2 497.5 521.5 548.6 576.6 608 640.1 676.5 712.7 750.1 784.9 797.1 782.6 767.1 743.3 721.9 708 696.2 681.6 668.4 658 644.1 635.9 627.6 624.9 620.1 624.2 628.8 633.9 634.3 632.2 628.9 626.9 624.1 619.5 612.1 608 601.2 592.6 585.6 578.3 574.2 569.2 561.6 554.7 547.5 541 534.8 521.2 520.7 524.5 525.3 527.1 535.8 547.2 559.5 571.7 587 600.9 609.1 622 592.2 542.5 508.9 478.8 452.4 432.7 421.3 410.8 403.5 393.5 372.3 361.3 348.4 334.4 328 325 334.1 355.4 374 398.8 424 451.5 475.1 501.8 530.4 553.6 575.4 596 615.6 631.7 649.6 657 669.5 682.6 688 689.8 693.6 690.6 679.5 673.1 672.2 671.9 669.8 669.8 666 661.9 651.4 632.8 606.9 582.3 567.2 558.9 553.4 549.3 548.4 547.3 552.5 567.6 589 611.6 628 641.5 644.7 648.7 648.9 645.3 642.9 635.7 624.6 612.5 597.1 579.8 565.5 552.4 535.3 525.8 525.1 520.1 515.3 508.7 496.3 492 487.1 482.3 473.8 467.9 453.3 437.8 422.5 409.1 393.4 383
741.2 748.9 754.8 765.1 779.1 796.4 818.1 834.5 845.3 853.2 853.3 824.6 794.7 775.4 757.1 737.3 726.6 720.9 716.2 722.2 742.9 756.9 767.3 774.6 781 783.2 767.8 738.1 697.2 657.7 621.9 585.2 547.1 515.6 490.8 469.5 451.5 439.5 435 434.8 434.5 433.7 433.5 434.7 439.8 447 457.2 470.8 488 509.6 534.8 565 596.5 628.4 667.2 702.6 740.1 777.7 793.8 782.3 766.3 742.2 715.5 701.2 688.6 672.7 659.9 647.7 635.7 627.8 623 615.6 609.7 611.1 616.6 619.7 620.3 619.6 616.9 617.1 614.5 611.1 604.5 600.9 594.5 585.6 580.9 575.8 569.9 564.6 556.8 551 543.1 537.5 530 523.6 500.2 512.3 519.3 517.7 525.2 537 549.2 560.9 576.5 590.3 603 611.6 587 547.2 513.7 483.1 455.7 432.1 417.4 407.7 400 387.3 374.1 364.2 347.6 333.7 322.7 324.8 330.7 348.2 367.6 395.2 422.6 448.8 472.6 500.6 525.4 549.2 570.6 592 611.3 625.7 638.7 650.7 662.9 677.3 684.8 686.7 688.2 686.4 681.5 679.9 680.8 679.4 673.6 671.7 660.4 642.4 626 608 586.5 566.5 556 544.9 545.2 540.9 537.3 539 555.8 576.1 598.8 620.6 638 648.7 652.5 652.5 651.8 645 633.6 622.5 608.9 595.6 576.9 561.6 550.6 540.9 531.5 524.9 516.5 508.4 502.6 495 484.2 476.6 473.9 464.6 457.3 449.6 434.1 418.9 404.4 391.1 379.4 369.3
713.3 723.8 727.6 741.3 761.1 780.8 800.1 818 829.7 837.4 836.5 818.6 781.3 760.9 741.2 721.6 707.4 694.8 693.7 694.7 716.9 737.1 750.6 762 772.9 779.9 781.4 758.5 710.6 667.2 632.3 596.1 560.9 521.8 494 475.8 459.4 444.3 436.3 436 434.4 432.5 434.3 434.8 436.4 444.4 451.3 462.8 478.1 497 522 550.7 581.4 611.7 649.5 685.3 720.8 756.5 780.5 771.6 754.1 728.8 708.1 693 684.6 668.9 652.1 640.2 631.6 622.3 615.2 605.7 601.2 598.5 602.7 605 605.9 606.1 604.7 604.2 602.7 598 593.6 585.4 583 578.3 576 571.2 567.3 559.1 549.2 545.4 539.3 533.7 525 517.8 509 498.2 508.3 509.5 514.9 524.7 537.6 549.9 563.2 576.8 589.4 597 591.6 551.6 519.5 486.4 459 433.1 415.6 404.5 392.7 384.1 373.3 361.8 348.5 332.3 321.7 317.6 326.8 340.6 363.7 395.1 422 447.5 471 495.5 521.4 542.7 566.4 586.2 603.5 617.2 625.1 638.9 655 671 680.8 686.1 692.8 693.5 688.2 688.7 686.4 679.2 670.3 665.4 650 621.7 601.1 585.3 569.6 552.4 543.8 536.3 533.7 530.9 530.3 541.6 563.1 586.9 612.5 633.6 647.5 656.9 658.4 662.1 658.3 642.9 630 614.1 595 582.8 563 557.3 550.6 538.9 528.4 521.3 510.2 495.1 488.9 478.8 472.1 464.5 457.8 449.3 438.3 432.2 418.2 401.3 387.9 376.4 363 355.3
685.3 697.8 701.8 720.9 744.7 765 782.7 799 813.4 821.6 821.4 813.6 769.4 748.4 729.2 707.3 691.1 673.5 672.3 671.5 688.2 713.4 731.7 747.9 760.3 772 777.9 769.6 722.9 676.4 637.6 603.2 568.5 531.1 500.4 479.6 464.9 452.6 438.5 435.4 433 433.2 433.3 434.5 434.9 440.3 448.6 456.6 472 487 507 535 565.8 596 627.8 664.4 698.5 734.9 763.4 762.4 745.6 724.2 704 690 677.4 663.1 645.7 632.9 622.3 611 600.1 595 589.5 584.7 589 590 590.9 591.6 589.5 588.6 587.6 584.1 579.4 576.1 572.2 569.9 567.5 564.3 559.8 551.4 542.2 538.2 534.3 526.9 519.3 512.6 506.3 488.3 495 497.4 505 514.6 525.2 538.6 549 558.6 572.3 580.5 576.4 547.4 513.2 485.9 453.1 431.8 413.8 401.5 390.9 381.5 371 358.5 342.4 329.3 316.3 309.6 324.6 337.3 361 392.6 418.8 445.1 467.6 492 518.6 541.3 564.2 579.5 593.5 603.5 612.3 626.7 642.3 657.3 672.4 686.1 693.6 694 688 678.7 678 671.2 658.2 647 627.9 604.9 586 567.3 552.1 541.2 532.4 527.3 521.6 520.4 530.9 549.4 572.4 597.1 625.7 645.5 655.5 666.2 668.6 662.7 651.2 635.7 617.7 603.4 591.5 573.5 561 549.1 542.6 531.7 521.9 509.1 498.3 487.6 470.5 466.7 457.3 448.6 440.3 431.7 424 417.4 404 385.7 374.2 361.3 351.8 364.9
657.2 668.8 674.4 702.4 728.6 749 765.1 779.9 795 805.9 807.2 802.7 764.7 736.1 715.9 698.6 677.9 657.9 655.7 650.3 662.5 688.6 713.2 732.7 747.8 760 766.9 769.5 735.1 685.5 643.3 605.4 571.6 537.6 504.3 484.1 471 458 443.2 435.1 432.7 432.4 432 432.2 433.3 437.1 445.2 450 465.6 478.2 496.2 519 547.9 575.5 604.3 642.8 680.9 712.7 740.6 749.9 740.2 719.3 702.8 687.6 673 659 647.1 632.8 609.5 599.5 589.8 580.9 580.1 563.2 571.5 576 576.7 578.5 576 577.4 574.2 571.8 569.1 563.1 561 561.5 559 557 551 544.7 536.1 533.8 529.6 519.4 510.8 506.8 502.7 492 480.2 486.7 495.6 503.4 511.5 523.9 532.3 542.8 555.1 559.9 556 530.2 507.9 482.2 451.7 431.1 412.3 399.2 390.1 376.5 365.9 355.1 341.6 326.9 319.5 300.6 311.3 331.6 361.9 389.3 417.4 442.4 466.4 493.1 520.1 545.3 556.3 573.3 583.9 595.2 603.3 616 631 644.5 658 671.2 682.1 680.9 673.8 664.6 664.5 651.9 641.2 626.8 604.2 581 564.6 552.8 541.2 530.8 522.7 518.6 516.1 520.5 538.9 559.1 584.9 611.5 634.4 653 667.5 673.5 671 659.8 643.5 623.2 606.7 592.6 579 568.6 557.8 542.7 532.1 521.8 509.3 500.9 487.3 476.7 462.9 450.5 443.4 434.7 420.9 416.1 407.1 396 384.7 373.8 361.5 347.8 361.6 373.1
625.8 639.5 658.8 685.8 710.7 730.7 746.2 761.3 778.5 789.1 791.6 787.3 768.2 732.3 707.8 687.4 667.9 637 640.7 626.3 638.3 666.4 693.9 717.3 733.9 745.5 753.5 758.5 746.1 685.6 641.7 606.3 570.3 534.7 507.1 490.8 475.6 465.3 449 436.6 432.9 431.8 432.2 431.9 431.9 434.3 440.7 447.9 456.5 469 487.3 506.2 531.3 558.5 585.2 616 653.9 687.2 714.5 734.3 733.6 717.9 701.1 689.8 675.8 660.5 642.8 625.3 603.4 581.4 575.7 570.4 567.2 560.8 557.3 562.1 564.9 564.8 563.1 561.9 562.4 559 557.6 552 551.2 551.4 549.4 548.6 540.9 535.9 531.9 529.9 520.3 512.1 506.7 502.8 499 491.2 478.3 472.9 483.9 490.6 500 509.5 514.6 527.6 538 537.4 533.8 511.4 492.5 477.2 452.9 431.4 408.7 395.1 383.1 372.6 361.1 350.1 336 324.3 319 300.3 307.2 331.8 361.3 386.1 414.6 440.2 465.8 491.4 521 538.1 552.7 569 577 582.9 595.1 608.1 621.6 633.9 645 655.3 661.2 660.4 653.5 649.5 643.5 631.6 618.3 603.3 581.6 563.4 549 535 526.3 519.9 514.7 511.1 507.9 528.6 552.1 574.6 596.8 619.2 644.1 663.5 673.8 674.5 666 649.6 632.6 609.8 594.2 581.2 569.7 560.1 546.1 533 522.5 510.8 498.1 485.1 474.4 461.5 446.9 438.1 428 419.4 405.5 401.1 390.3 378.7 369.2 360.8 347.5 351.6 365.9 377.9
599.5 609.2 638.8 665.6 690.4 712.1 730.5 745.5 761.7 773.6 777.1 773.2 763.6 733.1 697 675 652.3 616.2 620.3 609.3 618.5 647 676.2 700.7 717.9 729.6 738.7 745.5 743.9 684.8 640.8 605.3 570 539 516.7 497.5 481.4 469.1 455.7 442.3 436.3 433.1 431.4 431.4 431.3 432 435.4 444.4 451.8 461.2 475.5 495.6 517.8 541.7 568.1 596.4 629.2 661.1 689.3 717.2 726.2 717.7 709.6 697.4 679.8 664.7 636.8 612.7 597.4 581 562.2 556.9 554.7 544.4 548.4 550.8 551.9 553.3 553 552.1 549.3 547.5 544.9 542.1 541.7 541.8 540.5 537.3 534.1 529.8 525 523.6 512.2 509 502.1 498.3 492.9 488 480.9 462.2 468.9 479.5 489 493.4 498.4 507.6 516.2 515.3 509.1 490.7 478 458.6 433.2 419.5 399.3 389.6 376.6 364.3 353.7 345.8 330.3 323.9 314.1 297.3 305.5 332.7 361.5 382.9 411.4 439.1 467 494.4 515.6 533.3 546.1 557.2 562 572.1 585.3 598.4 610.9 622.4 633.9 645.3 651.4 651.6 641.6 631.6 623.8 611.5 600.5 581.9 565.6 547.5 534.2 524.1 514 509.5 504.9 502.2 522.7 545.5 569.3 595.2 618.4 636.2 654.2 666.7 667.9 666.1 656.5 639.7 619.8 594.2 576.9 565.2 558 550.6 539.8 526 510.6 493.7 484 473.6 460.2 443.5 431.7 423.3 413.1 401.9 390.3 378.5 369.4 363.4 356.4 346.2 344.3 357.3 370.2 386.5
566.9 590.7 615.9 642.6 669.2 692.5 712.3 727.9 746.4 759 761.9 757.9 749 733.7 684.4 660.9 629.5 601.3 593.2 592.4 604.5 626.6 658.1 683.7 701.4 714.4 724.1 731.5 733.2 693 647 613.6 580.3 541.5 515.6 496.5 483.1 472.3 461.5 451 442.7 434.3 431 431.5 431.8 431.5 434.4 441.3 447.8 455.5 467.1 483.5 502.6 526.1 552 579.1 609.8 645.1 679 708.2 724.6 723.2 715.6 702.2 688.2 668 637.1 597.9 578.8 566.3 545.6 537.6 539.9 535.5 538.6 540.3 545.4 540.7 544.4 543.8 538.4 535.8 534.9 531.7 531.6 533 531 527.8 527.6 523.4 521.2 515.1 508.5 504.9 498.5 492.3 488 482.7 476.2 467.4 454.2 466.7 475.9 479.1 483 488.8 494.3 495 481.2 476.1 456.2 441.7 417.2 402.5 390.3 381.6 368.7 354.8 347.5 335.9 325.1 317.9 307.5 291.7 306.6 334.5 360.3 384.5 409.9 437 463.7 487.9 512.3 526.6 537.6 545.1 550.2 562.6 575.3 587 599.5 610.2 620.9 631.8 640 636.1 632.4 624.5 611.7 597.9 580.8 564.7 550.3 534.7 519.8 510.4 505 499.7 501.2 515.6 536.3 560.7 586 609.1 632.6 655.9 674.7 679.6 672 662.7 649.7 637.3 619.1 594.5 569.9 554 545.6 538.3 525.8 507.7 496.3 482.5 470.3 456.8 441.9 428.8 418.5 408 395.9 383.3 376.5 362.3 355.6 350.7 334.7 339.2 352.3 366.4 380.8 393.3
532.4 565.2 586.9 619.2 644.7 669.3 690.6 709.3 727.2 741.3 743.9 740.3 732.1 718.2 675.2 642.1 614.7 584.3 575.6 578.9 593.7 610.8 637.5 668.4 686.7 697.3 708 715.2 719.4 706.4 649.4 613.8 578.8 543.7 517.2 498.7 491.8 479.8 469.7 462.6 447.4 438.8 433.7 430.7 431.1 429.6 434.3 436 437.4 445.7 458.3 474.3 494.7 513.6 540.9 568.5 601.2 637.4 674.1 708.1 727.3 729.1 725.3 711.8 692.8 664.4 623.6 585.1 562.6 539.7 530.7 526.9 531.4 528.2 531.3 534.5 534.8 529.9 534 534.6 530.4 526.6 523.4 522.1 522.4 522.9 520.8 518.6 516.6 515.8 513.5 507.4 505.4 497 493.5 484.3 479.5 478.2 473.8 465.6 449.5 451.2 458.8 464.7 467.3 471.5 475 464.9 461.3 450.7 433.5 419.8 400.1 390.3 383.7 370.5 365.1 350.3 342.7 329.7 322.7 315.9 307.8 289.6 308.4 334.3 360.9 385.1 407.7 433.2 459.8 485.7 501.9 515.8 523.9 527.2 541 555 568 578.8 590.2 598.8 608.7 618 624.8 626.3 623.3 609.6 596.4 581.7 565.7 548 533 520.5 510.3 499.5 497.6 496.3 506.8 531.6 554.5 578.2 601.4 626.2 650 672.3 687 681.8 676.2 669.7 658 647.7 624.8 590.5 564.9 546.4 531.2 519.3 506.4 494.4 483.4 470.9 458.1 442.6 426.4 415.2 404.2 389.8 382.3 373.5 360.1 350.9 339.3 329.1 338.5 350.8 359.4 373.4 386.6 408
508.5 537.9 557.6 591.6 618.9 644.4 664.8 686.8 706.9 723.1 727.8 722.7 714.5 704.7 679.5 632.1 601.2 573 565.5 568.5 583.6 600.8 620 651 669.1 681.3 691.9 698.7 704.6 704.7 655.4 609.8 577.8 546.1 519.6 501.5 487.8 483.2 479 470.4 455.3 441.5 437.1 435.9 433.3 434.7 430.3 432 433.2 438.7 449.9 465.8 480.4 498.3 523.1 553.6 581.6 616.8 654.5 692 725.9 735.6 727.2 706.7 685.8 650.5 606.4 569.7 547.6 520.4 515.2 515.5 520 519.9 523.4 528.6 523.9 520.2 520.4 522.4 520 516 512.8 510.5 510.1 512.6 509.2 508.1 510 507.2 502.8 503.4 497.2 490.9 486.6 478.1 475.6 471.1 469.5 464.4 451.9 434 445.9 450.3 454.7 456.6 460.4 442.5 442.2 427.3 412.4 402.3 392.2 382.5 370.2 363.4 353.2 340.4 335 323.6 316.5 307.6 299.5 295.1 318 345.5 364 383.5 404.5 430.2 452.5 471.1 490.7 501.9 509.6 520.9 535.2 547.8 559.4 569.4 580.1 588.5 596.9 604.4 613.7 614.7 608 597.2 583.4 565.6 550 534.4 521.5 511.1 500.7 494.5 490.6 500.5 524.1 550.4 576.1 600.3 622 642.4 658.6 677.1 685.9 681.2 677.2 671.4 658 635.5 611.6 585.1 554.1 535.8 519.8 503.8 494.4 486.6 476.7 463 447.6 428.2 410.7 401.6 385.8 378 365.1 356.8 347.9 341.7 327.2 335.4 345.8 358.6 370.7 384.6 404.1 420
480.9 502.4 528 557.4 587.8 613.8 636.9 657.9 683 700.2 709.3 704.2 696.6 688.1 666.4 619.8 591.2 570.3 557.8 556.2 567.2 585.5 598.4 628.7 648.2 660.9 672.3 680.4 688.2 692.2 657.2 614.8 581.4 546.8 519.9 503 493.3 487.7 484.6 473.8 460.3 449.5 445.2 438.9 434.8 435.7 431.3 429.4 429.7 434.6 440.8 454 468.8 484.4 507.8 532.6 560.5 588.5 624.1 664.6 701.6 727.2 720.1 696.4 672 630.6 597.3 556.9 530.5 515.4 508.1 509.3 511.4 516.4 521.4 523.6 514.7 512.6 510.1 509.4 507.6 503.8 501.8 494.8 497.4 499.9 497.7 494.7 497.9 495.3 494.8 496.4 489.9 485.3 481.9 472.3 470 466.9 460.6 455 450.2 443.8 429.7 437.5 439.8 443.7 439.4 425.4 416.8 407.8 400.7 394.5 384.1 371.4 365.1 356.8 342.4 333.4 325.5 319.3 312.5 303.1 288.4 296.6 321.1 345.6 372.6 390.1 408.7 428.5 447.9 462.7 475.8 488.3 498 514.1 526.2 539.1 550.6 560.5 570.4 578.8 585.8 593.2 601.4 598.3 595.3 584.1 569 550.4 534.1 522.1 510.9 500.5 491.7 482.8 493.1 516.3 541.8 570 596.5 621.1 639.5 656.9 671.4 680.5 682.8 682.1 677.1 659.4 639.7 620.6 604.3 579.4 556.2 537 517.8 500.9 484.5 465.2 461.4 447.5 431.8 415.1 399.7 381.7 373.2 362.3 354.2 345.1 341.7 332.3 329.3 339 350.6 364.3 378.4 399.5 418.7 435.9
457.9 476.9 497.7 523.4 555.5 585.1 606 626.5 655.4 674.4 685.6 685.2 675.9 668.9 646.5 615.4 589.3 566.6 555.9 542.6 549.5 567.3 579.8 600.7 624.5 637.9 651.6 661.4 671.7 680.6 660 619.7 586.8 552.8 524.9 508.5 498.3 490.1 485 480.3 468.9 457.7 448.9 438.9 434.8 430.6 429.7 429.7 428.9 429.3 436.3 444.2 456.9 472.3 493 515.9 541 569 596.8 636.3 681 707.5 706.2 681.9 655.8 606.5 577.4 547.3 519.1 510.6 505 506.5 507.8 514.9 517 517.4 508.4 504.5 500.8 498.3 497.4 493.3 489 482.5 483.6 486.6 484.9 485.7 486.5 483.3 485.9 485.3 480.7 479 474.7 464.2 460.4 458.1 449.7 445.8 442.2 437.1 425 422 425.8 428.5 422.4 413.8 406 404.6 400.1 383.7 367.7 358.9 353.3 343.6 333.6 329.3 318 309.6 303.9 293.7 280.5 301.4 326.4 351 379 393.3 411.7 426.8 445.7 460 466.7 480.4 491.9 505 517.5 529.7 542.2 552.2 562.4 568.4 575.2 583 585 586.5 583.6 572.6 557.2 537.1 523.1 510.9 498.9 493.8 484.9 486.1 505.2 530.6 557.6 585.8 611.3 631.3 646.3 664.5 677.8 680.1 679.3 675.4 659.7 648.7 631.5 616.6 600.3 587 559.4 529.1 515.2 496.9 478.6 453.8 434.8 425.6 413.6 397.6 385.7 372.9 360.6 353.4 344.8 336.9 331.1 324 332.7 344.6 358 373.8 393.3 409.8 430.3 451.2
437.5 449.4 468.4 490.7 518 550 567.8 595.3 624 645.3 659.4 665.4 660.3 651.6 631.2 614.9 586.4 562.2 550.3 529.2 534.3 544.5 560.4 575.7 599.8 615.3 630.9 643.3 656.2 669.1 667.2 620.7 582.7 553.7 531.6 513.7 499.8 491.8 485.7 481.8 470.3 464 455.1 441 433.9 430 428.9 428.9 428.9 428.9 431.2 436.1 447.3 464.1 479 499.9 523.7 546.9 574.3 608.8 647.7 682.7 685 658.8 631.9 590.7 560.9 539 518.3 505.7 503.9 504.6 505.5 510.9 510.8 509.2 502.5 497.4 493.5 489.4 486.1 483.1 479.8 472.7 471.1 471.3 470.4 470.4 474.8 473 474.5 475.9 471 467 461.4 456.9 450.5 449.8 445.1 439.7 434.5 429.6 427.7 414.1 411.9 415.9 409.8 403.8 392.5 390 384.8 366.3 356 348.7 343.1 332.4 328.6 323.5 313.2 305.1 294.1 287.2 283.1 304.5 329.3 359.4 380.1 394.2 412.8 426.8 441 449.4 461.8 471.8 485.2 497.8 511.2 525.1 535.7 545.2 553.7 561.4 568.5 573.2 574.9 576 571.7 561.5 543.1 528.1 513.9 501.4 490 485.8 479.2 493 513.5 540.1 566.3 590.1 612.3 631.8 645.3 660.2 670.8 675.6 675.8 669.9 655.8 639.3 624.2 613.4 597.4 574 543.7 518.3 499.2 483.7 461.6 440.7 425.7 405.8 400.3 385.3 372.2 361.1 352.5 341.8 333.5 328.7 320.8 327.2 337 350.3 366.7 383.8 402.7 422.6 440 461.2
414.5 428.9 446.4 467.7 490.5 510.3 534.7 567 594.7 604.4 630.4 639.2 639.4 628.9 610.8 603.8 583.4 556.9 542.7 526.6 513.5 526.6 542.8 554.9 574.8 594.2 611 625.5 641.8 656.1 663.8 624.3 589.3 560 534.7 519.3 505.2 496.9 491.2 483.2 477.5 465.3 455 443.8 433.3 428.9 428.9 428.9 428.9 428.9 428.9 429.2 442.5 454.2 467.4 487.4 506.4 526.7 552.5 581.2 616.8 646.9 665.6 640.4 608.9 574.4 548.8 527.6 514.2 503 502.5 503.4 504 510.3 506.7 502.3 497.3 492.2 487.6 482.4 479.2 474 467.7 462.9 464.4 459.2 457.9 458.5 458.9 462.8 464.4 465 459.3 456.7 452.8 451.2 442.7 440.1 439.2 433.2 428.2 424.5 420.1 414.4 406.1 395.6 396.3 390.8 382.5 377.6 369.4 355 344.8 337.3 329.7 325.3 320.8 313.1 306.8 298.7 286.7 281.1 285.5 307.7 331.1 357.9 378.6 393.6 409.3 420.5 433.2 441.4 454 465.3 477.8 491.3 505.6 517.4 528.8 537.8 546.8 553.1 558.7 561.3 563 562.4 558.8 546.1 533 517.3 504.9 493.2 486.1 473.3 485.3 502.6 526 550.3 570.4 590.7 606.4 625.8 637.8 651.7 661.9 667.2 666.4 659.7 650.6 641.3 622.1 606.4 577.6 551.1 533.2 507 487.3 470.2 448 431.7 416 400.5 380.9 372.7 365.1 354.9 343.6 331.2 327.4 320.4 323.1 329.7 343.1 355.2 370.7 389.3 405.1 428.2 448.9 470.5
397.7 407.4 419.7 438.9 457.2 473.4 508.5 537.4 556.7 567.6 594.1 600.5 600.3 593.4 589.3 585.9 577.8 549.5 533.8 517.9 494 510.6 524.7 538.1 553.4 573.1 591.8 609.8 627.1 643.1 657.9 646.6 602.3 570.5 546.3 529.5 515.7 504.4 498 489 476.2 469.8 461 447.2 437.4 428.9 428.9 428.9 428.9 428.9 428.9 428.9 437.3 444.3 460.6 474.3 492.4 512.9 530.6 554.7 587.8 618 639.5 622 588.9 559.5 534.5 525.2 513.9 503.5 502.2 501.9 506.3 500.4 500.5 496.6 495.1 489.8 482 478.7 470 467.2 462.5 454.2 455.2 451.1 450 448.3 445.2 450 455.2 452.7 445.7 447.6 443 438.6 435 434.7 429.2 425.9 420.3 416.6 412.9 410.6 404.4 393.2 379 379 376.3 368 354.5 347.4 337.5 328.1 324.8 320.6 313.1 305.7 299 295.3 288.7 270.5 286.9 310.5 329.6 350.6 376.2 391.1 405.2 407.8 430.8 431.3 442.4 457.9 472.9 487.7 497.3 511.2 521.2 530.6 538.6 544.1 547 546.7 548.5 546.9 541.6 533.9 519.6 510.5 499.2 487.5 474.4 475.9 492.4 512.2 534.1 555 572.6 587.9 608.1 624.3 636.5 646.4 656.1 662.3 657.7 648.7 636 623.6 612 594 567.7 541.7 515.3 500.4 478.3 458.7 439.3 422.9 405.9 386 376.4 359.9 357 345.1 336.8 325.1 322.7 312.1 324.5 333.2 346.1 360.3 373.4 393.7 408.1 427.9 451.7 474.2
380.6 387.5 397.9 411.1 428 444.7 467.3 488 509.1 530.4 550.7 564.9 561 553 559.4 561.6 561.2 543.3 523.9 509.1 488.1 490.8 507.8 521.2 537.7 556.7 576.2 596.4 617.6 635.5 652.3 649.2 613 582.1 559.5 540.7 527.5 512 500.9 490.1 480.3 470.2 461.5 450.9 441.4 433.7 428.9 428.9 428.9 428.9 428.9 428.9 431 441.1 451.8 465.8 482.5 497 512.4 530.2 553.3 581.7 606.2 599.7 584.2 553.8 535.9 524 509.2 508.2 503.5 501.9 498.8 498.6 496.2 497.6 491.4 481.4 477 472.8 464.6 458.6 457 454.2 450.6 445.6 440.8 436.8 437.8 439.7 442.3 440.9 436.1 436.8 436.9 429.6 426.5 420.5 419.4 416.8 411.9 410.2 406.4 403.1 395.5 389.8 380.2 368.2 365.5 357.8 345.1 337.5 327.5 316.8 316 312.7 302.3 298 291.4 290.1 284.5 264 283 298.6 316.6 340.3 362.6 376.6 390.1 409.6 411.5 418.2 438.6 450.2 467.2 481.9 492.2 503.9 513.6 523.4 530.1 538.2 538 531.4 531.2 529.7 527.6 523.1 513.8 504.3 493.9 483.4 468.7 477.9 496.9 516.6 537.5 553.8 571.3 588 604.3 622.9 636.3 650.1 658.1 660 655.9 649.3 635.6 625.3 613.9 593.7 564.3 539.5 517.6 499.2 482.3 463.2 443.1 423.1 408.7 392.2 374.3 355.7 343.5 334.5 326.4 319.5 311.1 316.5 326.9 338.5 351.3 365.2 379.3 396.1 413.4 433.9 454.9 475.7
365 370.3 376.7 386.9 400.7 414.4 429.8 443 457.7 486 508.1 527.6 516.2 518.2 525.8 533 537.5 533.2 513.6 499.8 485.1 475 492.9 511.9 529.3 544.5 566.4 587.2 608.2 629.3 647 653.7 625.2 595 574.7 550.3 529.1 510.4 499.3 488.3 483.6 471.1 465.2 455.4 444.8 441.4 431.8 428.9 428.9 428.9 428.9 428.9 428.9 433.5 442.3 458.3 472 487.8 505.9 514.1 530.7 556.4 584.8 594.7 585.5 549.9 538 525.8 520.2 510.4 506.4 510.1 499.4 497.3 492.4 494.2 489 478 475.1 472.1 464.6 455.9 453.2 449.9 447 438.3 435.9 428.9 429.5 429.9 428.6 423.4 421.4 421.6 419.8 415.5 412.8 411.7 408.3 406.5 402.2 400.7 397.5 393.5 385.1 382 378.1 366 355.2 348.5 338.2 328.9 315.4 311.5 312 304.1 294.2 288.8 284.2 283 277.1 267.3 275.9 287.8 300.6 322.8 333.4 353.8 374.6 388.4 394.6 413.9 428.8 443.5 459.2 474.7 488.1 497.7 508.6 517 527.4 529.3 524.8 518.8 520.5 518 515.2 514.9 505.3 498.2 492.2 480.2 464 480 498.5 516.3 533.5 552.1 567.6 584.3 600.8 618.4 635.1 645.1 652.2 650.1 648 647.6 643.1 638.7 633.1 606.8 577.7 544.6 515.7 497.5 475.8 456.6 437.4 421.3 406.9 387.4 374.3 357.7 343.3 328.5 320.3 313.7 310.9 319 330.3 339.8 353.9 371 386.5 403.1 424.2 444 463.4 486.7
354.9 356.7 356.8 365 375.5 387.6 400.8 414.7 426.5 441.6 456.2 471 474.6 481.1 492.8 501.2 508.7 514.4 500.8 486.8 475.3 460.2 476.4 498.6 523.9 545.4 564.4 585.2 607.6 625.6 644 654.6 643.8 615.6 584.5 558.5 536.6 516.8 501.3 491.7 482 473.8 467.4 459.9 449.7 442.4 435.2 428.9 428.9 428.9 428.9 428.9 428.9 428.9 436.7 450.4 463.4 476.9 496 503.6 514.9 530.3 554.3 569.2 573.1 548.8 532.7 525.9 519.1 516.7 511.8 509.8 500 502 501 494.8 480.8 477.3 474.2 469.9 462 455 450.6 443.4 436.9 433 429.4 424.5 417.9 418.6 417.3 412.7 407.9 407.1 401.8 401.4 400 399.4 397.7 394.4 393.7 393.3 390.1 381 377.4 370.8 369.7 361.1 347.7 335.3 327.2 317.1 306.7 307.8 303.4 292.2 288.3 281.8 277.7 276.2 267.1 263.5 269 276.9 288.4 304.1 318 332.4 348.5 366.5 383 404.9 419.2 434.7 451 466.1 480.3 493.7 500.9 508 519.2 518.2 515.1 507.8 509.2 506.1 504.9 501.4 498.8 495.1 485.3 467.6 462.5 481.7 496.6 513.7 530.2 547.5 561 579.5 601.3 614.3 627.1 640.9 649.8 652.4 656.9 658.9 660.7 660.3 643.7 618.7 590.7 559.7 531.8 506.9 483.2 460.8 442.6 420.2 402.8 386.3 363.9 351.4 334.7 324.3 322.3 309.8 310.6 319.7 332.6 344.4 358.8 375.2 391 412 431 448.2 470.2 497.3
344.6 344.6 342.5 348.2 355.1 363.4 376.3 391.9 401.4 413 421.1 432.2 441.4 449.6 461.7 473.7 484 489.4 489.1 473.8 462.1 454.6 477.2 504.9 530.3 554.2 575.1 594.6 615.1 632.9 648.1 659 660.1 628.5 596.1 565.2 541.7 522.5 505.4 495.3 486.6 479.7 474.9 467.1 454.6 448.4 437.2 433.7 428.9 428.9 428.9 428.9 428.9 428.9 435 445.5 456.9 469.6 484.3 496.8 503.8 514.3 525.6 543.8 541 539.2 530.9 524.5 523 519.1 517.7 511.9 507.8 504.5 500 492 482.4 478 477.6 471.1 459.7 451.9 445.4 439 431.2 425.1 421.7 416.6 412.1 407 405.6 403.3 398.2 396.2 393.2 388.7 387.7 390.1 386 383.7 383.3 374.9 373.8 371.4 365.2 361.5 357.9 353.5 342.4 331.1 318.5 300.6 302 299.1 293.1 285.5 284 275.1 274 272.5 265.8 254.8 259.5 266.3 276.3 292.8 300.8 327.5 346.6 365 384.6 403.3 417.5 429.9 444.2 458.9 471.4 481.7 490 500.1 508.7 509.5 504.4 499.8 500 497.2 501.5 499.4 498.2 488 478.9 465 463.7 479 496.6 512.2 526.1 544.1 560.6 576.3 590.9 601.9 618.1 630 640.1 643.5 645.4 646.1 646.2 649.5 637.4 613 590.3 563.2 539.8 519.5 498.2 472.1 444.1 418.5 398.1 382.6 361 341.5 328 320.1 319.2 302.7 309.5 320.6 331 347.9 363 379.9 397.2 415.2 435.2 452.5 479.2 508.1
334.2 333 332.6 336.5 340 345.5 356.1 365.3 378.5 388 400.3 407.5 412.8 423.2 435.6 443.9 454.6 465.3 462.8 460.4 449.6 452.1 480.2 506.5 533 560.3 583.4 602.6 622.2 640.3 654.3 665.7 669.6 643.8 606.3 575.7 549.4 529.1 514.8 502.9 493.1 484.3 476.8 472.1 461.8 454.2 449.1 439.2 433.9 428.9 428.9 428.9 428.9 428.9 434.4 439.4 450.5 462.7 478.5 485.9 493.5 501.1 509.5 527.3 535.2 537.3 529.3 527.3 525.2 522.4 518.8 515.3 513 508.7 502.8 494.3 484.7 482.9 481.1 476.6 464.7 457 456.2 450.5 442.3 437.8 433 428.6 421.9 415.1 407.7 398.5 393.4 388.4 382 378.9 376.3 376.4 370.9 371.6 368.8 362.2 363.5 361.7 360.1 352.3 353.3 343.8 331.9 324.9 314.8 300.7 292.8 292.6 285.8 279.7 275 270.1 270.9 269.1 257.3 249.6 252.8 258 269.2 282 306.3 320.5 339.3 361.1 384.3 399.4 416.2 424.3 440.2 453.4 464.4 469.9 478.8 487.1 494.1 493.7 492.4 494.6 494.9 494.3 494.4 495.2 486.6 483.8 479.3 454.5 461.2 476.9 492.1 505.6 519.3 537.4 548.2 563.8 580.7 592.8 601.2 611.7 618.2 618.7 618.8 617.6 617.6 624.7 612.1 594.4 573.9 556.4 537.1 516.9 500.1 463.7 432.4 414.4 395 373 356.3 343 331.6 316 312.4 303.1 307.4 321.5 337.2 356 369.3 389.5 407.7 424.8 443 461.9 481.5 504.5
326.4 324.5 322.9 325.1 326.8 327.9 335.7 341.1 353.3 362.2 373.6 386.1 394 400.1 409.8 419.3 427.5 434.8 437.9 441.6 428.2 452.6 480.6 502.5 529.6 559.2 581.9 602.9 624 641.6 656.4 667.4 672.1 658.9 620.3 587.7 561.6 540.1 521.1 510.4 496.8 489.5 482.1 475 466.5 461 454.4 444.7 442.8 435.7 428.9 428.9 428.9 428.9 428.9 435.2 443.8 457.6 469.1 476.5 484.3 492.6 501.7 515 527.5 538.8 528.8 525 523 522.4 519.7 519 517.4 510.6 503.9 496.3 490.4 488.8 484.6 478.9 465.8 465.9 463 457.4 448.4 444.3 438.9 435.6 430.9 421.2 417.1 414.5 407.6 399.8 390.1 383.5 377.2 358.5 358.1 358.7 357 353 354.2 349.9 341.8 342.1 339.8 332.1 323.2 316.6 307 299.5 294.5 283 277.9 275.5 271.9 266.8 265.4 260.9 253.4 248.7 248.4 252.3 261.1 275.9 297.1 303.4 320.4 351.8 372.6 396.4 407 417.2 435.6 449.4 461.8 469.7 473.1 477.4 485.1 486.7 487 487.6 490 489.1 491.2 486.1 484.6 481.3 474.3 453.2 458.8 472.7 484.1 502.7 514.6 524 539.1 553.3 564 573.9 573.8 587.6 592.2 589.4 590 591.2 586.3 593.8 587.7 575.9 560.8 549.5 529.8 516.8 491.5 456.8 424.3 413.6 388.1 371.4 352.6 338.1 327.2 312.3 303.2 297.6 309.5 320.8 336.5 358.7 377.3 396.5 419.1 440.8 457.2 473.9 501.6 523.1
319.6 317.4 314.6 315 314.9 315.5 317.9 321.2 332.8 342.3 353.4 364.4 367.9 375.3 385 393.8 399.2 410.3 416.2 422.9 420.9 444.1 470.2 490.3 517.3 546.6 570.8 593.9 617.5 634.9 652 665.5 674.7 664.3 632.2 603.1 574 549.8 534.3 517 503.4 496.2 485.5 482.2 478.3 471.2 465.1 448.7 445.7 440.4 433.4 428.9 428.9 428.9 432 435.6 444.9 453.1 459.4 467.7 477.1 485.7 493.2 504 514.2 525.1 523 520.3 521.6 524.3 524.7 522.3 518.1 515.8 508.5 504.4 494.3 492.2 489.6 480.5 476.4 472.3 462.9 464 451.6 448.2 443.4 442.3 434.3 426.1 422 419.7 413.8 405.1 397.7 390.9 384 370.5 361.7 351 343.4 337.5 336.5 338.4 334.9 331.7 328.8 321.8 314.1 309.1 301.8 290.7 284.4 278.1 274.4 268 264.2 259.9 260.4 254.5 249.4 245.4 243.4 247.8 254.7 265.3 280.2 290.3 309.4 335.1 363 391.8 403.4 416.6 433.4 447.3 460.3 469 473 471.7 473.4 479.4 482.2 482.9 482.6 485.5 485.3 486.3 480.9 476.2 465.9 452.8 449.9 461.5 478.2 491.1 505.1 513.7 527 542.3 542.2 547.5 555.3 557.9 561 559.4 560.9 559.3 553.6 555.2 553.8 545.3 536.9 526.8 514.4 496.6 466.7 437.2 411.9 395.7 378.6 364.6 350.3 335.7 324.2 310.4 304.6 298.1 311.9 324.4 345.4 361.4 382.4 406.6 437.7 459 475.2 489.6 518.1 540.9
314.6 311.3 308.2 305.6 304.4 304.3 305 308.3 314.5 321.9 330.3 340.3 351.4 359.5 365.4 371.3 377.3 385.6 392.3 402.9 409.6 427.2 452.4 476.2 502.2 526.5 551.1 576.5 598.8 620.2 640 656.7 671.7 680.6 651 619 590.2 564.7 541.7 524.9 511 496.1 490.3 488.4 484 478 466.9 455.2 450.6 446.9 437.5 434 428.9 428.9 428.9 436.6 439.4 448.7 455.4 464.7 472.6 481.8 488.6 492 503.1 507.9 514.6 516.1 518.4 523 524.6 524.8 523.6 520.2 516 509.9 503.6 496.5 495.4 489.8 487.3 474.9 470.3 467.2 456.6 452.8 449.7 445.1 436.9 434.2 427.1 423.1 411.2 405.3 401.7 396.4 387.8 383.4 369.5 361.4 354.7 348.5 344.3 336.7 331.4 324.3 317.7 314.9 307.2 300.9 301.8 303.3 297.7 292.9 286.7 282 273.8 267.4 257.9 252.6 248 244 240.6 243.3 248 257.7 265.9 280.9 299.7 317.6 350 377.2 401 417.8 432 445.8 460.2 469.1 480 480.4 467.1 468.2 475.3 473.2 480.2 480.9 480.2 478.9 472.2 465.4 463.4 453.2 440.6 456.1 468.5 480.1 492.1 500.2 506.9 517.3 520 528 530.6 530.1 532.5 533.5 532.6 530.4 526.3 526 526.5 523.9 518.7 507.5 495.3 476 451.5 427.4 407.4 394.4 380.7 362.9 347.9 332.2 320.6 306.3 298.5 299.7 313.8 329 349.9 374.1 394.2 419.9 446.3 465.7 487.4 506 534.7 556.9
309.3 304.5 303.6 300.2 294.6 295 293.3 294.7 299.9 306.6 313.4 319.8 331.1 336.7 343.2 348.8 354.2 363.8 372.5 378.8 390.2 410.8 429.2 450.6 475.6 497.3 521.5 550.2 572 598.8 617.6 639.3 660.5 677.1 668.8 634.3 607.4 583.9 557 535.7 517.3 506 496.9 494.8 491.1 483.8 472.3 460.6 456.4 451.4 441.1 436 429 428.9 428.9 428.9 436.2 446.2 451.8 460.5 467 474.4 478.1 484 492.1 496.6 503 509.2 513 518.1 523.7 525.8 526 523.7 521 516.2 512.9 504.8 500.2 497.9 493.8 483.1 479.1 474.8 463.8 459.5 456 453.2 443.5 434.2 426.4 418.4 411.2 406.2 401.5 398.2 392.7 388.9 381.6 371.3 365.6 358.3 355.9 348.9 341.9 336.3 331.2 325.3 316 315 316.6 314.4 305.9 300 295 290.7 285.1 275.2 268 255.4 249 246.2 242.4 239.7 241.7 248.3 256.9 271.9 289.5 306.2 332.5 367 390.9 410.7 434.1 450.2 463 478.7 479.9 477.1 459.4 462.2 457.9 468.6 470 475.2 475 472.5 463.2 459.3 455.3 452.5 435 444.2 457.9 468.1 476.8 483.8 486.4 493.4 503 504.6 508.4 511.4 512.3 510 510.3 507.1 507.4 507.8 506.2 502 495.8 488.5 476.4 461 440.8 421.4 407.5 392.9 373.5 358.1 344.1 329.5 316.9 302.9 299.9 304.1 317.9 335.7 357.7 386.1 408.2 434.1 459.3 480 502.5 520.8 548 570.9
300.5 301 301.8 299.1 291.4 285.9 285.4 285.2 288.3 294.4 299.6 303.5 308.9 316.8 320.5 329.4 335.9 344.2 350.8 359.6 376.9 393.1 408.2 425.6 444.6 470 494.8 517.5 544 567.4 590.1 611.2 638.5 663.1 672.5 653.6 631 601.7 570.6 547.4 530.2 514.6 503.8 501.5 498.2 489.9 476.3 467.1 461.9 457.1 447.7 438.5 432.8 429.9 429.2 429.9 434.8 442.4 448.5 456.8 461.3 467.5 470.8 479.2 485.1 488.5 494.5 500.8 507.2 515.1 518.3 523.1 526.1 526.9 525.6 521.9 518.4 513 508.7 508 501.5 493.9 488.8 477.8 471.9 470.6 463.7 456.4 447.2 436.8 427.3 420.2 414.4 410.7 407.1 403.9 399.1 394.9 390.4 378.5 376.3 372.4 369.4 363.5 357.3 354.4 348.1 339.1 331.8 330 328.5 325.7 318.7 313.2 309.3 302.1 290.8 279.2 266.9 258.4 250.9 246.3 242.3 238.6 236.2 241.8 249.4 264.2 277.8 292.7 316.6 348.6 376.8 402.3 424.1 442.4 455.9 463.4 462.6 453.5 450.3 445 449.3 457.6 463.2 461.5 460.3 458.3 457.9 456.7 456.3 448.7 435.5 432.9 446.5 456.1 462.4 469 471.7 476.9 479 485.1 487.6 490.2 495.2 494.1 491.7 488.8 485 487.8 486.9 485.5 481.3 475.6 462.8 449.7 434.2 419.6 402.4 387.4 368.1 355.8 337.8 327.3 311.9 297.8 292.2 305.3 322.3 341.9 368.6 401.9 433.4 458.3 482.5 501 513.7 536.3 560.9 583.4
308 298.6 292.8 295.5 287 282.5 279.4 279.3 282.8 283.6 284.2 287.9 293.2 296.5 301.1 311.9 318 323.1 321.3 345 361 375.9 393 409.4 427.1 446.2 471.4 493.6 517.2 540.4 559.3 579.1 608.1 635.3 665.9 672.2 652 620.1 591.8 564.4 544.7 530 516.4 511 495.4 485.7 474.3 474.3 470.8 457.9 453.5 444 438.6 436.2 432.1 431.8 433.9 438.4 445.9 451.8 454.8 458.3 465.6 473.2 479.7 482.1 486.3 494.7 500.7 506.3 512 517.5 521.5 527.1 528.6 527.4 526.1 524 520.9 518 512.9 504.9 498.8 491.3 487.2 479.2 473.9 466.7 453.6 439.7 429.6 424 418 413 411.1 409.3 403 400 394.9 392.1 391.4 389.2 386 380.4 374.1 369.2 361.5 352.6 347.4 346 341.1 334.6 331.6 327.5 315.6 309.6 298.3 279.8 269 260.9 250.7 246.2 243.9 239 236.2 237.2 244 254.7 268.3 278.5 301.3 326.4 349.7 381.6 402.9 430.4 441.3 439.5 436.9 430.7 429 410.9 440.8 447.9 451.1 452.6 454 454.4 451.7 450 447 437.4 429.6 411.3 436.2 443.6 448.2 452.9 460.7 465.4 463.2 467.2 470.6 472.1 475.8 477.3 475.9 475.9 474.5 473.4 473 470.4 468.5 462.8 453.3 443 433.6 417.2 396.8 380.8 365.4 353.1 337.7 323 306.5 291.3 294.9 309.5 327.4 354.7 385.9 414.5 442.4 468 496.7 515.5 533.1 551.1 573.4 592.2
303.5 297.8 285.9 277.5 278.9 276.9 273.4 275.3 274.2 273.6 275.2 276.4 280.5 283.9 288.1 295.8 302.5 308.8 321.7 333.1 346.6 359.6 373.5 388.2 405.8 422 444.7 467.4 487.1 511.6 527.2 548.6 575.6 612.7 650.6 662.8 659.5 644.9 609.9 582.1 561.9 543.3 531.1 517.8 505.9 494.2 486.6 481.5 471.6 463.3 461.2 450.2 446.9 445.9 436 428.4 430.3 435 440.3 445.7 449.9 454.2 458.1 464.2 469.7 475.9 479.8 486.1 493.6 500.4 506.9 511.6 517.9 523.1 525.5 528.3 528.8 530.1 531.2 527.8 523.5 518.1 512.3 506.9 499.9 491.9 480.6 468.4 453.6 438.3 428.6 423.8 419.6 418.6 415.2 412.5 406.4 405.8 404 404.4 404.6 401.2 400 395.6 389.9 381.5 369.3 368.9 366.3 356.8 349.5 343.4 342.3 336.4 325.3 313.1 291.7 281.3 268.5 258.8 252 245.9 242.9 240.3 236.6 231.6 237.4 247.2 257.9 266.9 284.4 309.1 332.4 362.4 380.8 404.6 417.8 417.6 416.4 419.2 398.4 421.3 432.5 435.6 439.4 445.1 446 443.8 443.9 438 431.1 431.6 420.1 393.2 422.3 431.1 436 439.9 451.7 448.2 449.1 455.6 456.8 459.6 460.3 463.3 466 465.9 465.4 465.8 462.6 460 457.6 455 449.6 442.4 429.7 411.9 392.3 377.2 360.9 344.6 331.1 315.8 300.8 284.1 297.5 314 337.7 366.2 396.5 429.1 453.4 478.1 504.3 525.5 548 567.2 585.7 606.3
289.3 281.8 279.4 272.1 265.6 263.4 266.5 267.2 268.3 268.2 266.9 267.9 269.7 272.4 275.9 282 289.4 295.4 306.3 316.5 328.9 343.8 352.4 365.9 378.7 395.9 409.5 431.8 452.1 473.4 494.8 515.8 544.3 576.8 619.4 632.4 644.4 639.8 616.8 601.6 581.1 561.6 542.6 529.5 518.7 505.3 499.1 487.8 475.1 468.4 466.4 457.7 450.8 443.1 436.3 432.6 426 431.1 436.9 441.4 445.5 447.8 451.5 455.5 458.7 465.5 472.3 479.3 484.8 491.4 498.6 504.5 510.1 514 518.7 521.7 524.6 528.7 538.5 534 532.6 529.9 527.7 522.5 511.1 496 476.5 468.3 448.1 438.4 430.2 425 422.7 422.3 418.7 419.3 419.6 419.7 416.2 416.9 414.3 412.9 409.5 405.8 397.9 391.2 388.8 386 379.5 368.5 360.4 354.8 350.1 343.3 330.1 318.6 296 281.6 270.1 261.6 253.4 249.4 242.5 235.5 235.9 230.3 232 239.1 247 256.2 269.9 290.3 315 332.4 363.7 377.5 380.9 385.7 392.3 384.9 399.6 414 420 425.9 431.4 434.2 435.6 432.5 426.9 425.3 421.3 415 401.9 394.4 406.5 417.9 424.1 430 431.3 432 437.3 446.2 449.9 451 450.1 453.8 455.4 458.5 458.5 456.9 454.6 457.7 457.6 456.3 450.9 442.1 426.3 406 385.2 370.3 355.7 341.2 326.8 313.2 293.1 286.7 298.4 318.7 344.3 374.8 406.5 436.1 466.3 493.3 513.9 536.2 560.6 579.4 599.4 618
269.3 269.6 268.3 264.3 260.9 261.9 255.1 258.4 259.3 259.1 260.9 261.8 262.6 263.9 266 271.2 278.6 285.6 292.5 302.4 314.2 323.3 333 345.5 357.6 370.9 385.7 404.7 420.5 439.9 462.5 483.7 507.4 533.7 563.2 599.5 610.9 615.5 605.7 603.3 593.6 577.8 561.1 545.5 532.7 520.4 510.5 495.3 486 478.2 470.2 463.2 455.8 452 438.8 432.6 426.4 425.7 432.2 437.1 438.9 441.6 446 448.5 451.8 456.4 463.6 469.8 475.9 481.5 489.3 495.7 501 504.7 509.4 511.5 516.1 520.5 526.9 529.6 528.8 526 519.8 512 501 481.6 467.4 455.8 447.9 439 432.6 433.4 429.8 428.2 428 429.5 429.8 429.3 426.8 424.1 420.5 419.8 416.6 416.6 412.6 407.5 404.3 397.9 389.3 382.5 373 365.4 359 352.8 334.9 313.1 303.7 284.5 279 266.1 253.6 247.3 241.3 234.4 231.3 230.6 227.9 233.8 238.7 246.3 257.8 275 292.8 313.6 340.6 345.1 353 358.7 362.5 370.1 391.4 401.4 409.5 418.7 422.4 421.4 421.4 419.3 411.7 410.6 408.3 398.4 385.4 369.8 392.9 403.7 411.9 418.5 416.3 423.3 432.2 436.9 439.1 440.4 443.5 447.6 451.8 453.9 452.3 450.7 456.8 459.9 461.2 460 452.4 444 423.3 406.2 384.6 368.4 351.3 337.2 321.8 303.8 287.2 289.6 304.5 323 350 382.7 411.9 446.2 476.5 501.7 525.1 548.5 571.3 589.9 609 627.2
255.4 257.7 254.9 254.3 250.6 254.3 244.1 254.6 251.3 252.3 252.9 255.7 255.7 257.8 256.4 259.8 264.4 271.1 277 285.5 294.3 304.4 315.8 326.8 338.5 353.7 363.9 376.9 394.1 414.6 434.7 454.2 476.4 498.1 521.5 537.6 561.4 578 581.5 587.2 590.1 583.7 577.4 567.7 555.1 538.8 525.1 510.8 496.2 486.8 479.7 471.1 461.1 457.6 443.7 434 426.1 420.8 426.8 431.6 434.7 436.6 441.3 442.3 445.7 450.4 456.3 460.5 466.8 472.2 478.9 485.8 490.9 494.2 498.4 500.8 505.1 509.6 514.3 519 518.1 512.5 505.3 498.4 488.6 472.6 462.7 455.7 451.5 445.4 442.4 439.1 435.9 434.8 438 439.4 437.2 431.9 433 434.1 432.2 429.9 428.8 427.5 424 421.2 417.4 411.1 403.9 394.9 385.9 374.7 367.3 358.8 336.8 317.4 305.4 288.7 278.5 268.3 253 246.6 240.5 233 229 228 227.5 222.9 231.9 239.8 250.6 264 275.8 294 311 320.1 330.9 332.2 342.3 365.9 378.5 390.5 398.7 404.2 410.5 408.9 404.7 401.1 399.2 397 392.2 387.1 373.7 352.1 372.9 391.2 397.3 400.9 405.7 413.2 416.2 424.9 428.4 435.2 441.2 442.6 445.3 447.3 447.8 456.1 463.2 465.1 465.1 461.9 456 444 431.9 410.5 386.5 370.6 352.5 335.9 318.3 299.3 276.8 290.5 307.2 328.6 355.7 387.6 418.3 452.1 480.6 506.8 531.5 555.2 578.2 597.6 615.6 634.8
244.3 244.7 243.8 242.6 240.4 242.2 242.9 245.4 248.3 245.1 244.5 247.3 248.6 250.1 247.9 249.1 254.9 260 266.7 274 282.6 289 298.9 308.7 319.9 334.9 342.4 351.5 365.6 388 407.8 426.6 448.5 467.4 489.7 505.7 534.4 549.2 560.7 569.5 579 585.3 592.5 587.7 576.8 559.3 541.1 523.5 505.2 496.7 487.4 478 469 460.3 447.3 436.7 428.4 422 418.4 428.9 428.4 430.7 434.2 436.3 440.4 444.3 448.9 453.4 459.6 463.9 469 475.8 479.9 482.6 488.8 490.4 493.4 498.2 504.9 507.2 506.9 499.3 496.2 488.3 479.2 469.2 465.2 460.8 457 452 446.5 445.4 443.3 446.2 445.8 443.7 443.2 441.9 444.6 441.3 440.9 440.8 440.1 438.2 437.8 434 430.5 424.5 416.1 407.8 400.9 380.9 370 356.5 334.9 318 303.7 291.8 281.2 265.6 252.4 244 237.6 233.9 228.5 220.3 218.7 218.7 228.5 235.6 242.8 253.4 264.7 278.6 292.7 305.5 316 323.4 340.9 352.3 365.7 375.6 379.7 383 390.2 386.4 389.9 385.8 386.1 384.6 380.7 371.8 358.7 328.8 347.7 371 382.1 385.9 394.8 401.6 402.2 407.8 417.4 427.4 431.7 433 441 448.7 456.8 462.6 467 470.3 472.9 471.9 463.6 450.6 431.6 410.4 387.9 365.9 348.7 331.8 314.8 295.8 273.2 291.7 310.5 334.1 362.6 396.5 426.2 459 485.8 512.9 536.1 560.7 583.5 601.8 620.4 639
231.9 232.7 233.7 234.3 231.8 235.7 238.1 236 239.6 239.8 238.5 239 239.9 240.8 239.8 241.5 246.1 248.8 253.5 260.7 268.6 275.5 281.1 290.3 299.5 312.1 319.2 327.4 339.8 357.9 377.2 394.4 413 435.6 452.6 469.5 491.1 509.9 525.2 542.9 557.4 572 585.9 591.4 589.5 577.4 561.6 538.7 520.4 505.8 488 483.3 467.4 458.1 446.4 437 427.2 420.8 413.3 422.4 423.7 426.6 428.5 430.4 436.3 438.9 443 447 452.3 457 462.4 467.6 471.7 474.2 478.9 482 482.8 488.6 493.7 495.7 495.6 491.5 487.8 480.7 477.1 471.4 466.4 463.2 460.7 457.2 454.3 449.4 451.9 453.1 452.2 451.3 451.9 450.7 451.6 453.4 453.7 453.3 453.4 449.9 449.4 447.6 443.2 436.9 426.7 414.9 407.5 390.8 374.5 353.6 333.7 320.4 309.2 293.8 278.4 261.2 252 245.9 238 234.7 230.6 218.7 218.7 218.7 218.7 230.7 239.7 248.6 260.1 269.7 283.6 293.9 300.4 315.6 324.3 335.4 347.5 350.2 356.9 363.6 367.1 372.2 369.3 373.1 371.5 370.8 367.8 358.1 354.8 327.3 334 360.6 367.8 375.4 383.3 386.2 389.6 394.2 402.4 410.2 419.1 428.9 443.3 453.7 460.1 466.5 473 478 481.6 485.3 469.4 443 424.1 405 384.2 366.7 347.3 328.7 308.2 289.1 270.3 295.9 317.7 342.8 373.2 399.9 432.9 465.9 493.5 516.8 540.9 565 586.9 606.1 624.6 641.8
218.7 221.9 222 225.5 218.7 226.7 227 225.1 231.3 233.6 231.4 231.1 232.7 233.3 231.7 235.5 237.1 237.7 243.5 250.4 256.8 262.2 265.5 270.7 277.8 289.6 296.7 305.6 317.2 330.1 348.4 365.1 379.6 397.7 419.6 434 454.8 470.9 491.6 510.3 530 548.9 564.9 581.1 589 587.4 575.2 555.1 531.7 508.5 492.3 480.6 470.8 461.2 446.4 434.1 424.5 416.7 411.5 412.2 420 421.2 423 425.4 429.4 434.6 439.2 443.3 447 451.1 456.4 460.3 463.1 467.9 471.3 473.8 477.7 483.8 485.4 486.6 486.3 485.3 483.4 480 476.2 473.4 468.9 465.4 465 461.5 460.7 456.2 459.5 458.4 460.1 460.9 460.8 462.5 463.9 466.8 466.1 467.1 465.6 463 461.1 458.7 455.5 448.3 440 425.6 406.2 391.7 372.3 355.1 341.9 329.6 315.5 297 279.3 262.4 255.3 247.1 240.2 232.8 228.3 218.7 218.7 218.7 218.7 218.7 232.2 240.9 251.4 258.8 270 278.5 293.1 299.1 307.3 318.2 328.5 334 340.6 348.8 350.9 353.4 355.5 360.3 359 356.2 349.4 351.6 345 318.8 327.3 339 346.4 356.2 363.3 362.5 366.4 376.9 383.8 400.3 414.6 430.6 444.1 454 465.2 474.1 479.8 488.1 488.4 479.9 455.1 440.7 420.9 395.8 373.8 354.4 337.9 323.3 301.2 280.1 277.9 297.9 322.5 345.5 376.5 401.2 431.9 464.3 493 518 542.2 566.1 588 606.9 627.1 643.7
218.7 218.7 218.7 218.7 218.7 218.7 218.7 218.7 218.7 223.8 223.4 220.9 220.5 226.1 223.8 227.7 231.2 232.9 234.1 240.6 244.9 248.6 253.6 256.7 261.4 268.6 274.8 284.8 292.8 303.7 320.2 337.3 348.7 364.5 384.9 400.1 414.9 433.6 458.2 481.2 498.8 516.7 538.1 559 578.3 584.9 579.2 564.9 545.2 523.9 503.7 485 468.3 459.2 443.7 431.4 423.2 414 406.2 402.7 415.1 417 416.7 419 425.1 428.8 433.8 438.3 441.9 444.6 451.2 454.6 458.1 461.5 466.3 469.1 470.7 479 479.2 479.5 480.5 480.9 479.8 478.5 476.7 473 471.1 466.5 467.6 466.6 466.3 465.2 466.3 467.5 469.2 471.9 474.9 475.8 477 479.3 482 481.9 481 475 470.3 468.2 464 460.2 455.5 437.5 425 405 378.3 364.5 357 342 327.1 303.4 279.1 270.9 260.5 250.6 239.5 232.2 228.6 218.7 218.7 218.7 218.7 218.7 224.9 235.7 241.6 247.6 254.4 266 276.9 284.5 299 305.9 312.9 316.5 322.5 325.1 328.8 335.4 337.8 341.7 341.3 337 338.1 336.9 333.1 302.8 304.8 322.2 328.5 335.2 337.5 340.7 346.9 368.9 398.3 408.8 421.2 431.7 448.7 462.7 472.3 482.8 490.5 492.3 479.3 465.9 448.4 431.3 410.5 392.2 370.4 348 328.3 310 288.3 271.5 279.6 300.9 326.7 354.1 385.8 412 436.5 468 494.7 518 543.2 565.8 585.7 605.5 625.7 642.7
218.7 218.7 218.7 218.7 218.7 218.7 218.7 218.7 218.7 218.7 218.7 218.7 218.7 218.7 218.7 218.7 224.5 228.7 227.9 230.6 233.6 235.8 241.8 243.8 247.3 252.5 259.1 264.6 271.9 284 293.4 308.9 324.1 336.1 353.3 368.2 383.1 404.6 428.3 443.8 466.4 483 506.2 528.4 554.2 570.6 572.8 569.1 556.8 536.6 510.9 489.5 470 459.6 443.3 431.8 421.2 406.4 398.5 393.6 411.3 408.7 411.1 414.2 419.3 423 428 433.1 435.9 439.7 443.9 448.6 453 457.1 462.7 465.8 469.1 471.8 474.6 475.9 476 477.1 475.8 476.1 474.9 474.2 470.7 470.3 470.8 470.7 473.5 473.5 477.2 479.3 481 484.8 486.5 486 488 489.7 488.3 490.8 490.1 485.3 478.9 475.3 472.5 466.3 458.7 445 426.4 408 392.9 379.1 369.2 355.4 333 306.2 285.9 270.4 258.4 243.9 237.6 233 221.5 218.7 218.7 218.7 218.7 218.7 218.7 227.8 233.1 238 246.5 252.4 264.6 279.8 283.3 286.5 286.8 295.5 296.9 303 311.4 315.4 318.3 322.4 318.1 324 323.1 325 313.2 287.2 300 301.2 307.7 314.5 320.7 338.9 360.2 379.9 395.3 411.4 426.7 442.2 457.2 468.2 479 491.1 496 497.9 492.2 476.4 449.3 431.2 410.5 389 363.2 342 317.6 296.7 278.5 266.3 281.4 304.6 329.9 359.1 389 414.8 440.3 468.9 493.3 517.9 541.5 564.3 583.9 604.6 623.4 641.2
218.7 218.7 218.7 218.7 218.7 218.7 218.7 218.7 218.7 218.7 218.7 218.7 218.7 218.7 218.7 218.7 218.7 218.7 218.7 218.7 218.7 223.2 227.7 232.4 235.3 238.8 242.9 250.3 256.8 265.7 275 284 296.5 310.3 322.5 340.3 354.9 372.4 391.7 411 431 446.4 469.9 491.7 520.3 541.2 556.6 555.7 554.2 546.8 517.2 488.8 465.4 447.7 435.2 422.2 408 396.3 390.4 393 401.6 399.5 403.2 409.6 414.6 417.3 421.8 427.2 431.2 434.3 435.9 441.8 448.9 453.6 455.9 461.9 465.1 469.2 472.3 471.5 472.8 473.3 474.5 473.8 473.4 473.6 473.9 472.9 475 477.3 479.9 483.8 486.5 487.1 489.6 491.2 493.1 493.5 492.3 490.6 485.3 486 487.8 484.3 480.3 478.4 477.4 468.1 456.9 446.6 429 414.2 400.2 388.8 378 361.5 337.9 311.2 291.8 271.4 252.9 244.7 235.9 231.5 218.7 218.7 218.7 218.7 218.7 218.7 218.7 218.7 228.1 230.8 238.1 246.6 261.9 272.9 270.6 272.4 275.7 277.4 281 285.2 292.2 293.7 298.4 298.3 302.9 306 309.4 308.5 300.6 277.9 283.1 288.9 304.6 320.6 339.3 357.6 375.7 388.3 405.6 419.7 432.1 445.1 458.9 477.1 484.6 498.4 506.6 507.4 500.3 482.8 453.8 429.3 408.9 385.8 361.7 340 318 295.4 276.9 267.3 285.8 308.6 332.4 360.4 393.8 418.1 441.4 470.6 496 518.6 541.1 562.7 582.2 601.7 620.2 638.9
218.7 218.7 218.7 218.7 218.7 218.7 218.7 218.7 218.7 218.7 218.7 218.7 218.7 218.7 218.7 218.7 218.7 218.7 218.7 218.7 218.7 218.7 218.7 218.7 220.4 227.8 231.5 234.3 240.4 247.7 258.6 266.8 274.7 287.6 299.9 315.8 327.4 346.1 362.4 381.2 397.5 416.9 439.1 458.7 480.6 511.4 523.2 528.4 532.1 526.5 495.6 469.6 443.1 428.5 416.9 410.4 395.5 384.6 378.9 378.7 389.2 395.9 401 406.2 410.8 410.9 414.5 419.6 424.1 429.1 432.9 437.5 443.9 449.4 451.6 457.1 461.9 466.7 469.2 469.9 471 472.1 472.6 472.5 473.1 473.7 473.9 476.9 479.9 482.6 488.3 491.6 491.5 490.6 492 491.9 494.3 493.4 491.3 485.7 483.2 481.4 480.1 479.4 480.1 483.9 481 470.2 455.5 446 434.2 413.7 400.6 387.6 377.4 353.2 334.6 315.3 298.4 270.3 250.5 239.5 232.6 222.5 218.7 218.7 218.7 218.7 218.7 218.7 218.7 218.7 218.7 228.2 235.1 241 249.1 261.2 263.2 256.6 258.2 261.4 261.9 273.2 277.9 274.1 279.3 285.1 293 296.7 297.4 297.5 298 277.3 273.6 297.8 317.7 333.8 351.3 367.2 380.2 395.6 409.6 423.2 432.6 445.1 462.7 478.6 494.3 506.9 513.6 513.3 509.9 488.4 455.1 423.4 401 379.1 354.4 332.8 309 290 272 268.2 287.7 312.6 338.6 364.6 396 423.3 443.1 470.1 495.3 516.6 538.1 559.6 580.8 599.6 617.5 634.4
218.7 218.7 218.7 218.7 218.7 218.7 218.7 218.7 218.7 218.7 218.7 218.7 218.7 218.7 218.7 218.7 218.7 218.7 218.7 218.7 218.7 218.7 218.7 218.7 218.7 218.7 218.7 218.7 224.3 234.6 241.6 249.8 259.4 267.2 277.7 293.6 304.4 320.9 335.5 352.3 369.7 385.7 407 426.6 442.7 465.2 485.6 502.4 508.6 496.3 470 443.9 422.5 412.9 398.1 389.8 380.5 373.3 370.3 368.3 384.6 390.6 398.4 396.2 400.7 403.3 408.6 409.5 417.2 422.6 426.3 432.7 437.2 443.3 446.6 453.2 458.9 459.6 464.4 467.3 468.3 469.8 471.3 472.4 472.1 472.2 476.1 479.9 484.3 488.5 493.5 493.6 492.6 492.3 490.8 490.9 491.5 489 487.4 485 481.2 478.4 476.1 475.7 480.5 478.7 471.9 461.7 451 444 430.4 405.4 394.9 381.9 364.9 347.2 327.6 307 296.2 271.8 249.8 240.6 231.6 218.7 218.7 218.7 218.7 218.7 218.7 218.7 218.7 218.7 218.7 228.6 230.9 238.1 242.1 250.5 248 242.8 244.4 247 250.5 252.1 253.3 257.6 262.7 268.4 277.6 286 278.6 282.2 283.7 282.4 264.9 303.4 320.3 337.7 352.2 363.6 378.7 393.8 408.5 422.3 435.8 448 463.6 478.3 498.2 504.5 499.4 490.9 491.6 485.9 466.8 420.7 394.6 367.9 342.5 321.3 300.5 282.9 261 267.2 290.3 314.8 341.8 369.9 392.3 418.7 444.2 468.7 494.5 515.8 534.8 554.8 575.8 593.5 611.1 628.3
218.7 218.7 218.7 218.7 218.7 218.7 218.7 218.7 218.7 218.7 218.7 218.7 218.7 218.7 218.7 218.7 218.7 218.7 218.7 218.7 218.7 218.7 218.7 218.7 218.7 218.7 218.7 218.7 218.7 218.7 227.4 234.6 244.2 251.6 258.7 271.6 283 296.7 310.9 324.8 339.9 360 370.8 387.7 403.3 423.9 450.9 472.8 489 485.8 453.7 424.6 405.5 393.9 381.8 373.4 368.1 362.4 359.3 367.1 374.6 381.2 386.2 387.3 391.3 394.7 399.7 402 407.8 411.1 420.8 426.2 433.4 437 442.6 448.9 452.9 455.2 459.7 462.6 463.9 465.1 465.9 467.5 467.4 470.7 476.8 483.4 491.3 497.6 496.6 493.5 490.6 491 488.7 487 487.6 485.4 483.1 481.4 478.2 474.8 471.1 470.3 470.5 466.2 458.5 447.9 439.1 425.4 406 390.9 377 368 358.9 333.1 312.8 299.7 284.4 269 253 244.7 225.9 218.7 218.7 221.3 218.7 218.7 218.7 218.7 218.7 218.7 218.7 218.7 218.7 225.9 231.7 235.4 233.9 233.5 232.9 236.5 237 237.9 239.4 241.6 247 254.5 258.6 261.4 261.8 266.1 271.8 270.2 271.5 295.8 310.7 324.8 338.6 352.4 367.1 385.4 405.8 425.2 440.3 453.8 464.3 482 491.8 489.9 484.3 468.7 459.9 454.3 443.6 416.1 386.9 361.3 335.1 314.1 293.7 276 252.8 269.9 291.8 317.8 342.3 369.1 389.3 417.8 441.9 469.8 491 508.3 530.5 547.6 566 584.7 601.4 618.4
218.7 218.7 218.7 218.7 218.7 218.7 218.7 218.7 218.7 218.7 218.7 218.7 218.7 218.7 218.7 218.7 218.7 218.7 218.7 218.7 218.7 218.7 218.7 218.7 218.7 218.7 218.7 218.7 218.7 218.7 218.7 218.7 226.2 234.9 242.8 254.8 264.1 277.9 288.3 301.8 313.3 327.3 341.8 355.9 368.4 382.5 397.8 427.7 452.3 462.7 437.4 406.2 387.2 378.1 363.2 357.7 352.8 353.2 349.4 357.6 363.5 369.3 372 375.8 379.3 386.5 389.7 393.1 400.3 409.1 413.7 420.9 426 431.1 437.9 444.9 446.9 451.7 455.6 457.8 462.4 464.3 462.7 461.9 463.5 471.8 482.4 488.8 495.8 502.4 500.6 492.3 488.2 486.6 485.4 484.4 482 477.8 474.2 473.7 470.1 466.7 460.9 459.3 455.2 448.1 438.7 430.4 417.4 407.3 384.4 371.8 357.6 344.2 331.9 312.3 297.6 286.1 273.6 259.3 251.4 240.8 225.9 218.7 218.7 218.7 218.7 218.7 218.7 218.7 218.7 218.7 218.7 218.7 218.7 218.7 218.7 218.7 218.7 218.7 218.7 218.7 218.7 221.8 231.4 232 235.6 240 246.6 252.1 249.7 256.6 255.4 247.7 268.9 278.1 283.6 289 302.7 313.7 333 362.6 372.2 395 425.5 425.4 431 450.3 462.6 453.8 439.9 435.8 427.7 412.5 396.5 389.5 372.7 349.6 326.4 306.8 287.9 268.2 255.5 273.8 297.2 320.7 342.7 368 390.7 414.8 440 464.8 483.8 502.1 522.5 539.4 557.8 575 592.3 604.8
218.7 218.7 218.7 218.7 218.7 218.7 218.7 218.7 218.7 218.7 218.7 218.7 218.7 218.7 218.7 218.7 218.7 218.7 218.7 218.7 218.7 218.7 218.7 218.7 218.7 218.7 218.7 218.7 218.7 218.7 218.7 218.7 218.7 218.7 231.4 238.1 247.3 258.7 269.6 281.2 291 300.6 313 326.2 339 349.2 362.5 377.8 401.8 419.2 405.5 388.2 365.5 353.7 348.8 343.5 341.3 338.9 336.9 345.4 351.2 357.4 362.4 366.1 371.7 378.4 380.8 386.2 393.9 398.9 404.9 413.2 415.8 424.8 430.7 437.8 442.2 445 448.2 452.4 457.4 459.9 458.8 457.6 462.9 472.7 483.6 490 497.9 503.8 501.8 491.8 487.6 480.2 476.3 474.2 470.9 465.8 463.4 463.2 457.9 451.7 446 440.2 435.5 425.1 413.4 397.7 390.1 373.5 363.7 351.1 337.7 326.5 309.6 296.2 282.5 268.9 263 258.7 245.3 237.1 228.3 218.7 218.7 218.7 218.7 218.7 218.7 218.7 218.7 218.7 218.7 218.7 218.7 218.7 218.7 218.7 218.7 218.7 218.7 218.7 218.7 218.7 218.7 218.7 224.5 230.7 234.2 235.7 237.4 242 245.2 241.2 249.9 250.2 255.8 264.5 273.9 284.2 300.8 316.3 332.5 354.7 372.8 381.3 390.6 422.2 425.5 409.6 398 400.7 395.2 389 372.4 363.2 355 331.9 314 297.6 279.6 262.7 256.5 277.5 300.1 320.4 344.9 364.8 387.5 410.7 431.7 454.8 475 492.3 511.1 524.1 545 560.8 578.5 590.1
