ncols 200
nrows 89
xllcorner 330000
yllcorner 701900
cellsize 50
76.6 79.4 84.2 84 86.5 85 83.2 87.4 89.2 92.2 95.7 99.6 103.6 108.3 113.2 117.9 119.4 119.8 120.9 121.8 119.7 116.8 113.8 110.5 107.6 104.4 101.3 98.3 101.9 106.4 107.4 107.4 106.6 105.6 104.7 103.8 103.7 104 104.6 105.2 105.4 105.9 106.8 107.9 109.5 111.1 113.1 114.9 117 119 121 122.8 123 118.9 120.9 126.2 127.5 126.9 127.2 130.8 133.2 135.5 137.3 138.5 137.6 136.7 135.9 135.1 134.6 134.3 135.7 139 142.5 146 148.9 152.2 156.9 162.4 168 173.7 179.4 183.7 189.1 196.6 201.3 204.6 206 209.4 214.4 215.6 216.6 217.2 217.9 222.5 224 222.2 223.6 224.6 223.4 222.3 221.4 221.5 222.9 224.4 226.1 226.9 229.2 233.2 238.1 239.8 236.1 231.8 225.2 220.6 216.8 214.7 212.4 209.3 207.6 205.9 202.5 200 198.7 195 194.6 194.1 192.5 190.9 188.8 188.4 187.8 186.4 185.8 185.4 185.2 181.2 176.2 179.7 189 197.2 197.8 198.6 197.7 194.5 189.5 184.5 182.2 180.4 178.5 177.2 175.6 173.7 171.8 170.3 169 168 167.9 167.8 168 169.3 171.2 172.8 173 173.2 173 171.3 169.8 167.1 165.6 163.7 162.1 160.5 158.9 157.2 154.9 152.6 150 147.5 145.6 143.3 141.1 139.3 138 136.8 135.5 133.3 131.9 130.3 128.8 126.6 123.6 121.9 121.1 120.7 120.1 116.7 115.8 114.5 113.8 112.5
80 82.7 86.3 86.3 89.1 88.4 89.2 91 92.9 96.2 101 108.6 111.6 114.7 119.2 124.2 124.4 123.7 125.5 125 123.3 120.6 117.4 113.8 111.3 108.1 106.1 102.9 99.8 100.9 105.8 106.3 105.8 104.8 103.8 103.7 103.7 104.1 104.6 104.8 104.7 104.6 104.6 105.7 107.4 107.7 109.6 110.8 112.8 114.7 116.5 118 116.8 114.9 120.3 123.2 123.5 122.8 125 128.4 130.9 133 134.4 136.6 138.1 137.7 136 135.3 134.7 134.4 135.9 139.7 142.8 145.2 147.7 150.9 154.5 159.1 164.8 170.5 176.2 182 188.3 194.1 199.5 203.5 206.3 207.9 211.5 212.5 213.3 214.3 214.7 216.4 218.8 216.9 219 220.5 219.5 220.1 220.3 220.6 221.8 223.2 224.6 227.7 230.9 234.8 232.3 230.3 226.1 222.7 218.9 215.9 212.2 209.7 207.5 205.4 204.7 202.8 198.5 195.8 194.4 191.1 190.3 189.7 188.8 187.6 186.9 186.4 185.9 183.8 182.4 180.8 178.3 171 170.6 176.4 191.9 197.9 195.5 193 189.8 186.3 182.1 180.7 179.3 177.5 176.3 174.8 173.7 171.8 170 168.1 166.5 166.3 166.2 166 166.3 167.6 170.2 172.7 173.3 173.4 171.8 170.2 168.5 166.6 165.2 163.4 161.7 159.3 157.7 156 153.7 151.2 148.6 146.5 143.5 141.4 139 137 135.7 134.6 133.2 131 129.9 128 125.9 124 123.2 121.1 119.8 119.1 118.1 115.3 113.9 113.4 112.3 110.7
82.6 86.1 86.4 90.9 93.1 94.2 97.4 100.2 101.7 103.7 108 115.3 119.5 121 125.9 131.7 132.4 131.6 130.5 128.6 126.5 124.5 120.3 117 114.7 112.3 111.2 108.2 105.8 103.6 101.4 102 104.2 103.9 103.7 103.7 103.7 104.1 104.3 104.5 104.7 104.8 104.8 104.6 104.7 105.2 106.1 107.4 108.4 109.9 111.7 112.3 110.4 115 118.3 119.4 119.2 120.4 123.8 127 128.6 130.6 132 133.6 133.7 134.3 133.3 132.9 134.7 136.5 137.4 139.6 141.8 144.1 146.4 149.2 152.4 157 162.8 168.6 174.4 180.1 187.3 192.7 195.7 198.2 204 207.4 209.9 211.6 212.2 211.8 211.5 211.4 212 214 215.6 217.3 218 219.2 219.8 220.2 220.8 222.3 224.4 229.3 230.9 228.7 226.2 220.8 218.2 215.7 212.3 210 207.7 204.8 203.5 203.1 201.5 199.7 195.2 192.8 190.2 187.5 186.3 185.8 184.6 184.4 185 184 181.7 179.4 176.8 174.2 173.8 167.2 167.3 178.8 196 192.7 189.9 186.9 183 178.8 176.6 175.7 174.9 173.7 171.7 171.4 171.2 170.3 168.4 167.9 166.3 164.4 163.7 164.3 164.5 166.6 169.2 171.8 173.6 172.3 170.7 169.1 167.5 165.9 163.7 161.6 160 158.3 156.7 154.9 152.9 150.6 148.3 145.6 142.4 140.4 137.9 135.8 133.7 132 130.4 128.9 127.7 125.8 125.3 124.9 123.4 121.5 119.5 117.6 115.6 112.3 111.8 112 110.4 108.8
85.4 87.9 89.7 94.4 98.9 100.2 105.1 109.3 111.9 118.7 123.5 123 123.8 125.5 129.2 134.3 136.2 137.1 134.7 132 129.4 126.3 122.7 119.8 117.5 117.8 115.6 112.7 110 107.2 105.6 103.4 102.2 102.1 102.8 102.9 103.1 103.4 103.5 103.5 103.7 103.9 104.2 104 104.1 104.4 104.9 106.2 107.5 108.4 108.8 108.8 111.2 113.7 116 116.4 116.7 119.3 122.8 125.5 127 129 130.8 131.6 130.9 131 129.4 132 136.8 139.2 140.5 140.8 141.8 143.6 145 147.5 150.5 154.9 160.8 166.6 172.4 178.5 185.1 190.9 196.1 197.4 201.9 205.4 206.2 207.9 208.9 208.6 208.3 208.4 208.9 210.3 211.6 214.1 213.8 216.4 219 220.3 219.8 221.4 224.7 226.7 225 222.6 218.8 214.4 211.4 208.7 206.5 204.2 202 199.7 198.3 196.9 195.3 192.9 191.1 188.9 186.4 184.1 182.5 181.4 180.3 179.1 179 177.4 175.9 174.7 172.7 170.6 168.9 163 164.9 184.4 193.3 188.7 183.3 178.2 173.7 171.9 170 169.3 168.6 167.8 168 168.4 168.4 167.8 167 165.3 163.7 162.8 161.8 161.9 164.7 167 169.6 171.8 173.2 171 169.4 168.1 166.4 164.4 162.2 160 158.3 156.6 155.3 153.6 151.5 149.6 147.6 144 140.9 140 138.6 136.6 132.8 131.1 129.4 127.4 125.9 123.7 123.9 123.2 121 119.2 117.3 115.7 114 112.5 110.6 110.5 108.9 107.6
87.5 91.7 95.7 99.8 103 105.6 111.5 116.8 125.8 127.9 128.4 127.9 127.9 129.8 132.5 134.7 136.5 138.6 137 133.8 131.3 127.8 125 122.1 120 119 119.3 116.1 113.5 111 109.1 106.9 104.8 102.7 101.8 102.1 102.4 102.5 102.7 102.5 102.7 103 103.3 103.5 103.7 104 105.1 105 105.5 105.9 106.5 107.5 109.7 111.7 112.8 113.6 116.6 118.5 121.4 124 126.2 128.7 130.7 130.9 130 129.1 127.4 133 138.9 140.8 142 142.4 142.4 144 145.6 148 150.8 154.6 160.3 166.7 174 180.2 183.8 189.1 192.6 196.7 200.2 203.6 204.2 203.7 204.1 205 205.2 205.3 205.8 206.9 209.4 209.6 211.7 213.7 216.1 213.8 216.3 217.9 219.9 221.3 219.3 217.2 210.6 207.4 205.1 202.9 200.9 198.7 196.4 194 192.1 190.6 189.1 187.3 186 184.1 182.2 180 178.7 177.4 176.1 175.3 174.6 173.5 172.7 171.6 169.9 167.6 164.4 161.2 167.7 187.7 181.9 176.3 170.1 166.2 164.8 164.1 162.7 161.9 161.8 161.1 161.8 163.7 164.5 164.8 163.8 161.4 161.2 160.9 159.4 161.4 165 167.6 168.9 170.2 169.7 169.6 168 166.4 164.5 162.4 160.4 158.4 156.7 155.6 154.4 152.3 149.8 147.8 145.8 142.6 139.7 139 137 135.2 132.2 129.7 129.3 128 124 121.1 121 119.8 118.1 116 114.5 113.2 111.7 110.5 109.6 108.7 107.9 106.6
93.3 97.1 100.5 104 108.4 112 118 123.2 130.2 131.9 132.4 132.3 132.7 133.3 135.1 136.9 138.6 138.7 137.4 135.8 133 130.1 127.2 124.4 122.5 121.5 120.8 119 116.7 113.9 111.3 108.9 106.8 104.7 103.1 102 102.2 102.5 102.6 102.4 101.9 102.2 102.6 103 103.3 103.8 104.8 104.6 104.5 105 105.7 106.7 108.2 110.1 110.9 112.8 115.3 117.7 120.3 122.8 126 129.3 132.4 132.5 131.4 127.8 126.8 134.5 139.2 139.2 140.1 140.5 142.7 144 145.9 148.8 152 156.6 163 169.6 175.9 181.2 184.3 187.9 191.1 195.7 198.7 201.9 203 201.7 201.2 201.5 201.9 202.6 205.6 205.6 207.9 209.4 209.8 211.1 209.3 209.3 211.8 210.3 210 209.5 208.5 206 203.5 201.2 199.1 197.2 195.2 193.5 191.2 188.9 186.8 185 183.4 182.2 180.8 179.3 178.2 177.1 175.9 174.7 173.5 173.1 172.2 171.1 169.9 168.5 166.9 164.9 162.4 157.2 161.5 171.5 165.3 164.4 160.5 159 157.1 156.4 155.6 154.8 155 154.7 154.8 158.3 160.5 160.9 159.4 157.4 158.6 157.6 158 160 163.6 166.6 167.8 169.1 168.1 166.8 166.3 164.7 162.6 160.5 158.5 156.6 155.2 154 152.8 150.9 148.6 146.4 144.1 141.9 138.4 136.4 134.3 132.5 131 128.1 127.4 125.4 120.9 117.4 117.3 116.1 114.4 112.7 111.2 110 109.1 107.8 107.1 106.6 106.1 105.6
99.1 103 106.2 110 113.5 118.4 122.6 129.6 133.8 135.7 136.4 136.5 135.9 136.4 138 139.1 139.5 139.6 138.3 137.1 135.2 132.4 129.6 126.9 124.9 123.9 122.6 120.7 118.9 116.5 113.9 111.4 108.8 106.4 104.8 103.3 103.2 103.6 103.6 103.1 102.6 102.5 102.5 102.5 102.9 103.3 103.9 103.8 104.2 104.7 105.3 106.3 107.5 108.8 110.3 112.3 114.9 117.3 119.8 123 126.9 130.1 134.9 137.9 133.9 128.4 125 132.1 135.4 136.6 138.7 141 143.3 144.4 146.8 150.3 154.5 160.5 167 172.1 177.4 180.8 184.4 186.4 188.8 194.1 197.5 199.8 200.8 199.9 198.6 198.7 198.9 202.5 205.5 205.4 206.5 208.6 208 208.8 208.5 208 211 204.5 203 202.9 200.6 199 197.3 195.9 194.4 192.5 190.6 190.5 188.4 186 184.6 183.4 182.1 180.2 178.4 176.7 175.6 174.4 173.3 172.2 171.1 170.9 169.9 168.9 168.1 166.8 165.2 162.9 161 157.5 156.3 156.3 157 155.7 155 153.9 153 151.9 151.1 150.4 150.3 150.6 150.8 152.7 155.8 157.1 155.1 155.1 155.3 155.2 156 158.7 161.4 165.2 166.7 168 166.9 165.4 164.6 163 160.6 158.6 156.7 155.1 153.6 152.4 151.2 149.5 147.4 145.2 142.9 140.2 136.9 134.3 131.8 130.1 128.7 125.5 124.2 121.6 116.7 115.5 114.4 112.9 111 108.9 107.3 106.9 106 106 105.8 105.6 105.4 105.3
104.4 108.7 112.2 115.4 118.2 123.1 126.3 132.2 135.6 137.9 138.5 139.1 139.9 139.4 139.7 140.7 140.8 140.6 139.3 138.2 136.9 134.9 132.1 129.4 127.3 126.2 124.3 122.4 120.5 118.6 116.1 113.6 111 108.4 106.3 104.7 104.5 104.9 104.4 103.9 103.4 103.1 103 102.9 103 103.2 103.2 103.3 103.8 104.3 105 106 107 108.2 109.8 112.1 114.4 116.5 119 122.6 126.5 130.6 134.9 137.2 135 126.9 123.5 127.6 132.9 136.2 139.2 141.7 143.9 146 149.7 154.1 158.1 164.1 169 173.1 176.4 179.5 182.1 183.8 185.6 189.3 192.7 194.5 196.1 196.5 195.8 196.5 197.1 198.6 200.4 201.1 204.2 206.9 209.2 209.2 210.4 210.6 210.9 209.1 207.2 207.1 201.2 199.5 194.7 194.5 191.9 189.3 188.9 187.4 185.7 184.1 183.3 182.2 180.8 179.5 177.9 175.2 173.2 171.8 170.7 169.6 168.8 168.7 168.2 167.6 166.3 165.1 163.1 161.1 159.3 157.2 156.1 154.9 153.3 152.1 152 152 151.4 150.1 149.6 148.7 148.1 148.2 147.9 148.2 150.7 153.3 151.5 151.7 151.9 152 154.1 156.8 160.1 165.7 165.7 166.9 165.7 164.2 162.7 161 158.7 156.8 155.2 153.5 152 150.8 149.6 148.3 146.2 143.7 141 138.2 135.2 132.6 129.9 127.5 125.8 122.5 120.8 118.2 114.9 113.3 111.6 109.8 108.2 106.8 105.5 105 105.1 105.3 105.3 105.1 104.9 104.9
111 114.2 117.2 120.3 122.9 126.3 129.7 134.1 137.7 139.3 140.4 141 141.8 141.7 142 142.3 143 141.5 140.3 139.1 137.8 135.9 134 131.9 129.7 127.9 125.9 123.9 122 119.9 117.9 115.3 112.7 110.3 108.5 106.6 106.2 108 105.3 104.4 103.8 103.9 103.6 103.3 103.3 103.3 103.4 103.5 104 103.9 104.8 105.5 106.5 107.7 109.5 112.1 112.8 115.1 117.8 120.4 123.5 128 132.1 133.2 130.5 123.3 122.8 128.4 133.2 136 138.8 141.2 144.5 149 152.9 157.8 160.9 164.3 168.3 171.2 174.3 177.2 179.1 180.7 182.3 183.9 186.4 188.7 191.3 193.9 193.7 195.9 197.6 201 203 201.4 204.2 206.6 208.4 210.5 211.7 212.5 212.2 211.9 210.1 208.4 205.2 200.5 197.2 194.9 192.1 189 188.5 185.2 183.4 182.8 182 180.9 179.5 179 177.5 174.1 172.4 171.3 170.3 169.6 168.3 167.6 167 166 165.2 164.4 163 160.8 158.5 158.4 156.3 155.2 153.8 152.5 151.3 150.6 149.6 148.8 148.5 147.5 147.3 147.4 146.3 145.3 147.2 148.8 148.9 148.9 149.2 150.2 152.5 156.1 159.8 164.2 164.8 165 163.2 161.8 160.5 158.5 156.6 155.3 153.7 152 150.4 149.2 147.8 146.1 144 141.6 139.1 136.3 133.3 130.7 128 124.5 122.9 120.1 117.9 115.3 113.5 111.7 109.9 108.1 106.5 105.2 104 104.1 104.3 104.5 104.7 104.6 104.6 104.5
115.9 119.2 122 125.2 127.4 129.3 132.6 135.9 138.6 140.1 141.6 142.8 143.5 144.2 144.4 144.7 145 143.6 141.2 140.2 138.8 136.9 135 132.9 130.7 128.7 126.6 125 123.2 121.3 119.2 117 114.5 112.4 110.6 108.7 108.8 112.9 108.7 105.6 104.7 104.9 104.5 104.2 103.7 103.7 103.7 104 104.3 104.3 104.7 105.5 105.6 106.6 108.1 109.8 111.6 114.7 116.8 118.6 119.4 122.4 124.5 124.2 121.3 121.1 127.4 132.7 135.4 137.8 140.2 142.7 145.4 150.1 154.2 158.7 160.8 163 166.6 169.4 172.2 174.2 176 177.6 179.1 181.3 186.5 190.7 192.9 195.8 196.7 197.8 197 199.3 201.1 202.1 204.2 206.2 206.8 208.7 211.1 212.2 212.2 212.2 212.3 210.3 205.6 201 197.5 196.6 195.2 192.7 189.2 187.6 186 183.3 181.1 179.8 178.9 178.5 177.2 174.9 172.7 171.1 170.8 169.9 168.5 167.4 167 166.3 165.3 164.2 162.8 161.3 162.7 161.4 158.9 156.6 154.9 153.7 152.4 150.9 149.2 148.3 148 147.5 147.1 146.4 145.7 145.6 146.1 144 146.4 145.9 146.5 150.2 151.8 155.4 158.7 161.4 161.6 161.2 160.4 159 157.6 155.8 154 152.5 151.4 150.3 148.8 147.3 145.4 143.3 141.3 139.1 136.3 133.5 130.9 128.3 126 122.4 118.9 116.8 115.3 114.2 111.9 110.1 108.2 106.4 104.7 103.4 103.4 103.4 103.6 102.1 103.2 104 102.9 103.8
121.1 124.3 125.9 128.5 131.2 133.1 135.2 138 139.7 141.2 142.6 143.8 145.3 145.9 147.3 147.8 148 145.9 142.6 141.5 139.7 137.6 135.4 133.1 130.9 128.9 127.4 125.8 124.1 122.3 120.4 118.5 116.3 114.5 112.6 111.2 113.6 114.9 111.6 108 106.5 105.8 105.4 104.9 104.4 104.1 104.1 104.3 104.6 104.8 105 105.6 106.1 106.4 106.7 108.4 111 114.1 116.6 116.4 112.8 112.9 113.1 118.6 121.2 125.8 132.1 136.2 138.7 141.4 143.7 145.9 148 150.9 153.5 157 160.7 161.7 164.8 167.3 169.8 171.4 172.6 174.2 177.5 182.7 187.2 192.5 194 195.3 193.8 194.7 196.4 198.8 200.6 202.4 203.7 204.2 204.6 206.2 208.1 208.7 208.7 208.7 208.7 206.4 204.4 201.5 198.6 197.3 195.6 193.9 190.3 189.4 188.4 186.3 184.1 181.5 180.9 180.2 178.8 176.7 174.5 172.6 172.1 170.5 168.7 168.2 167.9 167.5 166.5 163.8 166.1 167.1 167.4 166.3 162.3 158.6 156.9 155.3 153.5 152.1 150.5 149.7 148.7 147.6 147.6 146.6 147.1 146 146.1 147 145.8 142.5 143.9 146.7 149.4 153 156.7 158.9 158.7 158.2 156.9 155.4 154.2 152.9 151.4 149.6 148.3 147.3 146.2 144.4 142.4 140.1 137.9 135.7 133 129.8 126.8 124.3 123.3 120 116.6 113.7 112.6 111.8 110.6 108.5 106.7 104.9 103.3 104 103.9 103.4 102.9 102.6 102.3 101.8 103.7 105.3
126 127.9 129.4 131.5 134.2 137 139.6 139.4 140.6 141.8 142.9 144.1 145.7 147.6 149.4 150.5 150.7 148.8 145.5 142.9 140.2 138 135.7 133.4 131.3 129.8 128.3 126.7 125 123.2 121.3 119.5 118.2 117.1 115.3 114.5 117.4 115 112.8 109.9 108.9 107.7 106.3 105.5 105.1 104.8 104.4 104.6 104.8 105 105.3 105.8 106.3 106.6 106.9 107.8 110.4 112.7 114.7 113.6 113.2 116.8 119.3 123 126.8 131.8 136.8 139.6 141.9 143.7 145.6 147.8 149.5 150.3 152.5 155.1 157.8 159.9 161.9 164.8 166.8 168.2 169.2 171.9 176.2 179.7 182.3 185.7 187.1 190.9 194.4 196.7 198.4 200 200.8 202.4 202.8 203.1 202.6 203 203.6 204.1 204.6 204.6 204.2 201.2 198.6 196.5 194.5 193.1 191.9 191.1 190.4 189.3 187.9 185.7 183.6 181 180 178.1 177.8 176.3 173.7 172.2 171.3 170.1 169 168.2 168.5 168.3 167.4 166.6 167.4 167.7 167.6 166 163.5 160.6 158.4 156.2 154.4 153 151.6 150.6 149.3 148.1 147.6 147.9 149.4 147.7 145.9 145.7 144.6 146.3 141.8 146.1 148.9 151.6 154.6 156.7 156.2 155.5 153.5 151.9 150.7 149.5 148.2 147 145.3 144.2 143.1 141.4 139.5 137.4 134.5 132 129.1 126 123.5 121 120.5 117.9 114.6 111.6 111 109.2 108.2 107.1 105.2 103.3 103.1 104.2 104.4 102.8 100.6 104.6 103.6 103.4 105.3 106.7
128.9 130.3 131.9 136 140 143 143 142.4 142.4 143 143.7 144.4 145.6 148.9 151.1 152.4 152.4 150.8 147.8 145.3 141.7 139 136.5 134.2 131.1 129.5 129.1 127.5 125.8 124.2 122.3 120.9 120.2 119.7 119.1 119.9 117.5 116 114 112.3 110.9 109.6 108.3 107 105.9 105.5 105 105 105.2 105.3 105.5 106 106.5 106.9 107.6 108.2 109.5 110.9 111.6 112.1 114.4 118.8 121.2 125.9 131.8 136.6 139.7 142 143.6 145.5 147.1 148 148.9 149.8 151.5 153.8 155.9 157.2 158.4 161.4 163.7 164.4 165.5 168.7 172.7 176.9 182.8 185.9 188.1 193.3 197 199.4 201 201.1 201.1 201.4 201.7 202 201.6 200.8 200.1 199.6 200.1 200.4 198.9 195.9 193.2 191.5 190.6 189.3 188.5 187.8 187.1 185.9 184.4 182.9 181.3 179.2 177.2 176.2 175.2 174.5 173 171.4 170.3 169.3 168.7 168.5 169 169 170.5 169 167.2 166.8 166.2 163.8 162.5 159.8 157.6 155.7 153.8 153.1 151.1 150.7 150.1 148.7 147.7 148.5 147.7 147.2 145.8 144.1 144.4 143.3 139.8 145.2 148.5 150.2 152.6 154.1 153.6 151.3 149.8 148.2 147 145.8 144.6 143.4 142.2 141.2 140 138.3 136.5 134.6 132.4 129.8 125.8 123.2 120.8 118.6 116.3 115.4 113.1 110.2 110.1 108.4 106.6 104.8 103.6 102 102.2 103.1 103.1 100.7 102.8 104.6 105 105.1 106.6 107
131.1 132.7 135.9 139.8 143.7 145.5 146.2 145.9 145.4 145.5 146.2 146.8 146 147.6 151.4 152.4 153 151.8 150.1 147.6 144.4 140.7 138.2 136.1 132.8 129.7 130.5 128.9 127 125.1 123.8 123.3 122.8 122.3 121.9 121.3 119.4 117.4 115.6 114.3 113.1 111.8 110.5 109.3 108 106.9 106.4 105.7 105.9 106.2 106.3 106.4 106.8 107.4 108 108.7 109.3 110.3 112.1 113.2 115.9 118.8 123.2 129.5 135 138.5 140.8 142.5 144.7 146.1 146.1 146.4 147.3 148.1 149.3 151.4 152.6 153.9 155.2 157.8 158.5 158.9 163.3 167.1 170.6 175.8 181.8 184.3 188.8 193 196.9 200.2 201.1 200.9 200.6 200.5 200.6 200.9 200.4 199.6 198.9 198.2 197.5 197 194.2 191.6 188.9 187.7 186.8 186 185.2 184.5 183.8 182.5 181 180.4 179 176.1 174.5 173.8 173.3 172.7 172.1 170.7 170.1 169.4 168.8 168.4 169.6 178.7 178.6 174.7 172 168.5 165.3 164.1 162.4 158.9 156.2 153.9 151.6 150.8 149.1 148.5 148.2 148.1 148 147.3 146.5 145.7 144.5 142.9 140.7 138.6 142.3 145.3 146 147.4 149.1 151.3 150.6 148.3 146.9 145.1 143.1 141.9 140.7 139.4 138.5 138.5 137 135.3 133.4 131.1 129.9 126.9 122.8 121.3 118.9 116.2 114.1 112.2 110.6 108.9 109.1 107.5 106.4 105.4 104.5 102.6 100.5 99.7 98.9 100.3 104.1 105.1 105.9 106.4 106.8 107.2
132.9 134.4 136.9 140.4 144.4 147.1 148.4 148.8 148.9 148.4 148.7 148.5 147.3 146.4 148.4 150.6 152.4 152.9 152 149.8 147.4 143.6 141.4 139.6 136.8 132.8 132.1 130.5 128.7 126.7 124.5 124.1 123.6 123.2 122.7 121.9 121 119.1 117.5 116.4 115.3 114.1 112.9 111.6 110.3 109.1 107.9 107.3 107.4 107.8 107.2 107.2 107.9 108.4 109.2 108.9 109.4 110.9 112.7 114.4 117 119.3 124.2 130.5 135.7 138.4 140.6 142.8 144.6 145.6 145.3 145.5 145.7 146.4 147.6 148.6 149.6 150.6 151.9 154.3 156 157 161.5 165.5 169.3 174.1 178.6 182.8 188.2 192.5 196.3 199.4 202.5 201.1 200.2 200.1 199.9 199.8 199.3 198.4 197.6 197.2 196.5 193.5 190.6 188 186.1 184.7 183.6 182.7 181.9 181.2 180.5 179.2 178.5 177.9 176.7 173.2 172.6 172.2 171.9 171.6 171.3 170.2 169.8 169.2 168.6 169.4 179 186.5 186.8 183 175.8 171.9 168 164.5 161.5 157.9 154.6 152 149.5 148.5 147.2 146.5 145.8 145.7 145.8 145.9 144.7 143.3 142.2 140.6 138.8 135.7 139.9 142.1 143.5 144.5 146.3 148.7 147.7 146 144.3 141.8 139.3 137.9 136.6 135.3 135.1 135.1 134.6 132 130 128 125.6 123.3 118.9 116.4 117 114.4 115.2 112.2 109.1 109.4 106.1 107.2 106.3 105.3 104.4 105 104.1 102.7 99.5 103.4 104.4 105.2 106.5 106.8 107 107
134.4 136.1 138.4 141.6 144.7 147.8 149.8 150.8 151.7 152.6 152.1 151.4 149.9 148 146.9 149.2 150.4 150.9 151 150.6 148.9 147 144.6 142.2 138.9 135.9 133.9 132.1 130.5 128.2 126.1 124.7 124.3 123.9 123.4 122.2 121.2 120.8 119.5 118.4 117.3 116.2 115.1 114 112.7 111.4 110.9 110.5 110.4 110.1 108.8 108.6 109.7 110.7 110.3 109.7 109.6 110.9 112.9 115.2 117.4 120.2 125.2 130.7 136 138.4 140.1 141.7 142.8 144 144.6 144.7 144.8 144.9 145.7 146.7 147.6 148.6 149.6 152 155.6 159 161.4 163.7 168 172.4 175.4 180.1 186.3 192.1 197.2 198.9 201.4 203.7 202 201.1 201.3 199.1 198.5 198.3 197.4 196.8 193.2 190 187 185.2 183.5 182.3 181.5 180.5 179.4 178.3 177.6 176.7 176.1 175.4 174.5 172.2 171.6 171.2 170.9 170.6 170.3 169.5 168.9 168.9 168.8 171.7 184.3 194.3 194.9 189.2 181.4 173.1 168.7 164.7 161.3 157.4 154.6 152.3 148.7 146.3 145.2 144.5 143.8 143.2 142.8 142.5 141.5 140.5 139.7 138.2 136.5 133.6 134.8 136.8 139.9 141.7 143.6 145.6 143.7 142 139.6 136.3 134 132.5 131.2 131.5 131.8 131.7 129.6 127.6 126.6 124.3 121 117.3 112.6 115.1 119.1 117.2 115.9 112.9 112.5 108.4 105.5 106.2 105.2 104.4 103.5 104.5 104.2 104.3 97 104 104 104.6 105.9 104.9 105.5 105.5
135 137.7 139.8 142.9 145.8 148.7 151.3 152.4 153.7 154.7 155.5 154.6 152.7 150.7 147.5 149.1 148.7 149.8 150.3 149.9 148.3 147.6 146.5 143.9 142.1 140.5 138.1 136.1 132.9 132.5 131 128.1 125.6 124.6 124.2 122.6 121.7 122.1 121.6 120.5 119.3 118.2 117.1 116 114.9 113.8 114.4 114 113.5 112.8 111.5 111.3 112.3 111.8 111.2 110.5 110.1 110.5 114.3 116.6 119.3 122.3 127.3 132.5 136.9 138.5 139.4 140.2 141.3 142.4 142.8 143 143.3 143.7 144.6 145.5 146.4 147.4 148.4 150.9 155.7 159.1 161.2 164 167.2 174.3 182.7 186.8 191.9 194.1 195.7 198.7 201 203.8 204.4 202.2 199.9 197.5 197 197.1 197 194.5 190.6 188.3 185.9 183.5 181.1 180.1 179.4 179 178.7 178.4 178.1 177.5 177 176 174.5 172.5 170.9 170.2 169.9 169.6 169.3 168.6 168.9 168.9 171 176.7 185.2 194.3 191.5 183.9 178.1 172.2 167.6 163.6 160.6 156.6 154.2 152.5 149.5 146.1 144.2 142.8 141.3 140 139.3 139 138.4 137.6 136.9 135.7 135.5 133.2 129.5 131.2 133.4 136.5 136.6 139.6 138.8 137.6 135.8 132.4 129.2 127.4 126.1 126.6 128.6 127.5 126.2 123.5 122.1 119.1 115.5 110 110.9 113.6 114.9 114.5 113.2 111.5 110.8 109.5 101.3 103.2 103.5 103.5 102.9 102.5 102.2 102.4 92.2 101.9 102.7 103.2 102.1 101.9 102.4 103.6
135.5 138.2 140.9 143.9 146.8 149.7 152.6 153.7 154.5 155.9 157.1 157.4 155.6 153.2 149.8 147.3 146.2 147.6 148.7 148.9 148 147.3 146.3 145 143.4 142.2 140 137.1 135.5 134.6 133.2 131.4 129.6 127.4 125.4 125.1 124.5 123.7 123.6 122.6 121.5 120.3 119.2 118.1 117.2 116.4 116.7 116.4 116.1 115.5 114.4 113.9 113.3 112.7 112 111.4 110.7 110.3 115.8 119.9 122.7 125.3 129.4 134.4 136.9 138.2 139 139 139.8 140.3 141 141.5 142.1 142.6 143.5 144.4 145.3 146.2 147.3 150.6 153.7 156.9 160.3 165.2 170.7 177.8 184.3 187.4 190.3 190.8 192.6 194.9 197.2 198.8 201.6 200.3 198.3 195.9 195.5 195.6 195.6 192.9 190.5 187.4 185.1 182.6 180.1 180.7 180.6 180.1 179.5 179 178.6 177.9 177.2 176.4 175.6 173.7 171.8 170 169.2 168.7 168.3 168.8 169.4 170.9 173 176.1 183.5 183.7 182.1 178.9 174.6 170.9 166.2 161.6 158.7 155.7 153.8 151.1 148 145.6 143.8 142.4 140.9 139.7 138.5 137.3 135.9 135 134.2 133.3 132.4 131.3 127.3 128.3 128.8 129.7 129.3 129.5 130.6 131.6 130.5 128.6 126.2 124.4 124 125.6 124 121.9 120.5 119 117.1 114.4 109 107.3 109.5 109.9 111.4 110.9 109.3 106.5 104.5 102.1 99.7 99.4 99.9 100.3 100.6 100.4 100.2 98.6 85.7 98.5 99.2 99.9 99 99.1 99.8 100.9
135.9 138.7 141.4 144.4 147.3 150.3 153.2 154.6 155.5 155.9 156.7 156.9 156.4 154.3 152.1 148.7 146.7 145.7 146 146.5 146.9 146.9 145.3 145.7 144.2 141.9 137.9 136.2 136.1 136.5 135.2 133.5 131.7 131.3 129.9 128.1 127.3 126.4 125.2 124.7 123.6 122.5 121.5 120.7 119.9 119.1 119 118.6 118.1 117.3 116.4 115.5 114.8 114.1 113.4 112.7 112.1 113.4 117.5 121.9 124.9 128.6 131.8 135.4 136.7 137.9 138.8 138.8 138.6 139 139.7 140.1 140.9 141.5 142.4 143.3 144.2 145.4 146.7 149.3 152.3 154.9 159.3 165.5 170.1 175.2 181.5 184.5 187.6 189 191.4 193.9 195.8 194.9 197.2 196.7 195.8 194.4 193.9 195 196.2 193 190.6 187.4 184.3 181.9 180 181.8 182.1 181.6 180.9 180.3 179.3 177.8 176.4 175.2 174.5 173.6 171.3 170.2 169.2 169.1 169.2 169.8 171.5 173.4 175.5 178 180.9 180.1 176.8 173.8 170.3 166.7 163.2 159.6 156.4 154.8 152.2 149.5 147.2 145.2 143.4 142 140.6 139.1 137.7 136.3 134.9 133.3 132.6 131.9 131.1 127.9 125.9 124.4 125.5 126.1 126.2 125.9 125.8 126.2 124.6 123.2 122.4 121.6 119.7 118.9 118.5 117 115.1 114.5 112.7 110.6 107.2 105.5 106.7 107.1 106.8 105.7 104.3 101.6 99.2 98.4 97.2 96.4 95.4 97.6 97.8 96.5 96.7 96.1 83.4 91.2 94.8 95.7 95.8 95.9 96.7 97.4
136.4 139.2 141.9 144.8 147.8 150.6 153.3 154.1 156 155.8 155.8 155.6 155.4 155 152.6 150.2 147.9 146 144.1 144.2 144.7 144.8 145 144 142.6 139.3 137 135.4 136.4 137.5 137.3 136.1 135.6 134.5 133.3 131.5 130.5 129.8 127.6 126.7 125.8 125 124.2 123.4 122.6 121.8 121 120.2 119.4 118.7 118 117.3 116.6 115.8 115 114.2 113.4 113.7 117.4 121.8 127.9 129 132.4 134.8 136 137.1 138 138.9 138.5 138.4 138.1 138.8 139.4 140.7 141.8 142.9 144.1 145.4 146.8 149.1 151.5 153.9 158.1 165.6 170.4 174.2 178.4 182.9 186.7 188.2 190.3 192.7 193.5 193.1 193.4 193.6 194.1 193.1 194.9 195.8 194.7 192.8 190.6 186.4 185.2 183.6 180.8 180.2 180.4 180.4 179.9 179.5 178.8 177.6 176.2 174.8 174.4 172.3 170 169.2 169.3 169.6 170.9 173 175.5 176.9 178.2 180 180.2 178.4 176 172.8 169.2 165.7 162.1 158.6 154.7 152.8 150.6 147.8 144.9 144.1 143 141.5 139.9 138.3 136.9 135.5 134 132.5 132.1 131.3 130.1 127.3 125.8 123.2 122.2 124.1 123.6 123.4 123.1 122.5 120.5 118.4 117.5 115.5 114 113.9 113.4 112.4 110.2 109.2 107.9 106.4 103.2 101.5 102.5 103 103 101.9 99.6 96.7 96.4 95.9 94.6 93.5 91.5 91.6 92.6 92.4 90.5 89.8 80.8 90.2 91.2 92.3 94 94.6 95.3 96.1
135.7 139.4 142.4 145.3 148.1 150.6 153 153.8 154.5 154.9 153.3 153.1 153.1 152.4 152.1 150.2 148 146.2 143.9 142.3 141.3 142.1 142.8 144.4 143.5 138.9 136.9 136.5 137.9 139 138.7 137.8 136.7 135.5 134.4 133.8 133.2 132.6 131.3 129.6 127.9 127.1 126.3 125.5 124.8 124 123 122 121 120.1 119.3 118.5 117.8 117.1 116.3 115.5 114.7 114.3 116.5 122.5 127.8 128.3 133 134.1 135.3 136.1 137 137.7 138 137.3 136.2 136.7 139.2 140.5 141.6 142.7 144 145.6 146.9 148.7 150.8 153 156.9 165.2 169 173.8 179.8 185 188.4 191.7 191.5 191.5 191.9 192.1 192.5 192.6 194.1 198.5 195.9 195.3 193.8 191.3 188.8 186.3 185.4 184.5 182.7 180.1 178.9 178.8 178.4 178.2 177.5 176.5 175.5 174.2 172.6 170.2 168.1 168.4 171.8 173.9 176.5 178.8 180.1 181.8 182.3 181.9 180.5 179.1 176.5 172.4 168.6 165 161.5 158 153.8 151.2 149.4 146.8 144.3 143 142.1 141 139.2 137.5 136.1 134.7 133.2 132.2 131.6 130.3 129 127.1 125.6 124 121.7 119.9 122.9 122.4 121.4 120.1 118.1 116 115.5 112.9 111.2 110 109.4 107.3 105.5 104.6 99.6 98.9 97.7 97.1 97.5 99 98.9 98.3 95.8 94.9 94.6 94.1 92.7 91.3 90.5 90.6 89.4 88.3 86.5 83.3 81.5 86.7 88 91.4 93.4 93.5 94.2 95
134.3 138 141.3 144.2 147.6 150 152.2 152.3 152.5 151.5 150.5 149.9 149.3 148.7 148.3 148 147.6 145.4 143.3 141.9 140.5 139.7 140.5 142.1 140.8 136.8 138.4 139.9 139.7 139.4 139 138.6 137.7 136.6 136 135.2 134.3 133.4 132.7 131.5 130.1 129.2 128.5 127.8 127.1 126.2 125.1 124.1 122.9 121.7 120.3 119.6 118.9 118.1 117.4 116.7 116 115.3 114.8 116.8 122.1 131.1 133.2 133.4 134.3 135.1 135.9 136.2 136.3 135.9 135.3 135.5 138.4 139.8 141.4 142.6 144.2 145.8 147.3 148.8 151.2 153.6 157.9 164.5 168.4 176.8 182.9 186.3 189.3 193 195.8 196.3 194.9 194.4 194 193.6 196.1 197.4 196 194.7 193.1 190.6 188.1 186 185.8 185.3 184.5 182.4 180.5 178 177.1 176.9 176.2 175.2 174.2 172.8 170.4 168.2 167.1 171.4 176.1 179.7 183.6 190 192.5 189.7 187.1 184.3 181.9 180.1 177.3 172.7 167.9 164.4 160.9 157.1 153 150.5 148.9 146.9 144.2 142.1 141 140 138.4 136.8 135.5 134.2 132.9 132.1 131 129.6 128.1 126.6 124.8 123 122.3 113.8 118 119.8 118.4 118.2 116.8 114.7 112 110.1 108.3 107.5 106.6 104.8 103.5 100.5 96.9 94.3 96.8 95.7 94.6 94.7 94.9 94.4 93.2 92.4 92.4 91.9 91.3 89.8 88.4 88.3 87.4 86.4 83.5 80.9 75 88.1 90.5 92.5 92.9 93.2 93.5 93.9
132 134.3 137.1 138.9 142.4 145.3 147.4 148 148.2 147.4 146.8 146.1 145.5 144.9 144.6 144.3 144.5 144.3 142.9 141.6 140.3 139.4 138.8 138.4 137.4 136.7 140.2 140.3 140 139.7 139.4 139 138.5 137.7 136.8 135.9 135 134.2 133.4 132.4 131.4 130.6 130.1 129.7 129.2 128 126.8 125.6 124.4 123.2 121.6 120.6 119.8 119.1 118.3 117.6 116.9 116.6 116.2 116.3 119.4 124.2 125.7 133.7 135.1 134.8 134 134.2 134.2 133.6 133.3 134.6 138 139.3 139.9 142.3 144 145.6 147.3 149 151.3 154.4 159.4 164.7 171.3 181.1 185.2 187.1 189 192.8 195 195.3 194.9 193.3 193 192.6 192.3 194.6 194.2 193.8 192.3 190 187.8 186 185.9 185.4 184.9 184.1 180.6 178.1 175.8 175.6 174.8 173.8 172.4 170.4 168 165.9 167.6 174 180.6 186.5 193.3 193 192.6 190.1 188.2 186.7 184 181.2 176 171.2 166.7 163.5 160.2 156.6 152.9 150 148.3 146.6 144.4 142.1 140.1 138.7 137.2 135.9 134.6 133.6 132.7 131.6 130.4 129.2 127.5 125.4 123.9 122.4 120.9 118.9 104.3 116.5 115.4 115.2 113.8 111.1 108.4 106.6 105.9 105.2 104.4 103.2 101.2 98.8 95.6 92.6 91.3 92.6 92.4 91.8 91.1 91 91.9 90.8 90.1 89.6 89 88.6 86.3 85.5 85.2 83.4 80.6 75 84.8 88.5 90.9 91.9 92 91.8 91.9 92.1
129.4 131.1 132.1 133.7 136.5 138.9 141.3 142.6 143.5 142.7 142.7 142.2 141.7 141.1 140.8 141.2 141.2 140.7 140.7 139.9 139.2 138.8 136.7 135.6 135 137.6 139.2 139.9 140.1 140.1 139.8 139.4 139.1 138.3 137.4 136.6 135.8 135 134.3 133.6 132.8 132 131.2 130.7 130 129.2 128.3 127.1 125.8 124.7 123 121.5 120.7 120 119.3 118.5 117.7 117.5 117.3 117.3 117.2 121.7 130 130.8 134 135.1 134.2 132.3 132 131.4 131.1 134 137.5 139 139.6 141.3 143.3 145.3 147.1 149.2 151.9 155.3 160.3 165.5 172.4 180.4 183.9 186.5 188.6 192.1 194.3 193.2 192 191.7 191.6 191.5 191.2 191.4 191.6 192.2 191.4 189.6 187.5 185.9 185.9 185.5 184.6 183.3 180.8 178.3 175.8 174.2 173.5 172 169.9 167.4 165.4 165.2 169.5 176.9 184.2 190 193.3 193.2 193.4 188.5 186 183.7 179.7 177.5 173.5 169.5 165.3 161.3 158.2 155.2 152.2 149.6 147.4 145.2 143.2 141.5 139.5 137.6 136.3 135 133.7 132.4 131.2 130.4 128.8 127.4 125.9 124.4 122.8 121.2 119.7 118 111.2 100.8 109.6 111.2 110.5 108.3 105.6 103.9 102.6 101.9 101.2 100.1 98.5 96.2 94.3 91.2 90.1 88.8 89.6 90.4 89.8 89.4 89.2 88.6 88.2 87.1 86.5 86.2 86.3 85.8 84.6 78.8 75 81.4 86.8 87 88.2 90.2 90.4 90.3 90.2 90.1
125.9 126.9 128 128.4 129.8 132.2 134.2 135.9 137.6 137.6 137.7 137.7 137.3 137 136.8 137.2 137.3 136.7 136.8 136.7 136.3 135.3 133.6 132.9 134.6 136.5 137.9 139.1 139.6 139.8 140.1 139.8 139.7 139 138.4 137.8 137.2 136.7 136.1 135.1 134.3 133.5 132.7 131.3 130.6 129.9 129.2 128.4 127.3 126 124.5 122.9 121.7 120.9 120.2 119.4 118.6 118.4 118.3 118.4 118.7 120.5 122.7 126.2 129 131.5 131.9 130.2 128.8 128.1 131.4 134.4 137.9 139.4 139.3 140.9 142.9 144.9 147.3 149.6 152.3 155.9 161.1 166.8 172.6 178.2 181.8 184.6 187.5 189.2 189.6 189.4 188.5 188.7 188.5 188.3 188.3 188.5 189.2 189.9 190 187 184.8 186.8 186.4 185.4 184.7 182.1 180 177.8 175.7 173.5 171.5 169.3 167.2 164.9 163.3 166.4 172 179.1 186.3 191.5 193 192.7 191.6 186.3 183.2 180.5 176.3 172.8 169.5 166.5 163.2 158.6 155.8 152.9 149.9 147.2 145 142.8 140.8 138.9 137.1 135.5 134.2 132.9 131.6 130.1 128.7 127.6 126.1 124.6 123 121.5 120.2 119 117.7 116 115.6 105.1 100.7 107.3 107 105 103.2 101.4 99.9 98.6 97.8 96.4 95.1 92.4 90.2 89.2 88.3 87.7 87.9 87.7 87.9 88.3 86.5 85.9 86.3 85.8 84.7 85 85.7 85.7 84.8 75 75 85.5 85.3 85.5 86.5 87.4 87.9 87.8 87.6 87.3
122 123 123.6 123.6 124 125.4 127.4 129.4 131 132.3 132.5 132.6 132.6 132.5 132 131.6 132.3 131.6 131.8 131.9 131 130 129.4 131.4 133.3 134.7 136.1 137.8 139.1 139.3 139.4 139.4 139.3 139.9 140.1 139.5 139 138.4 137.7 136.6 135.8 135 134 131.7 130.9 130.2 129.5 128.7 128.2 126.6 124.9 124.4 122.7 121.9 121.1 120.3 119.5 119.4 119.5 119.8 120.1 120.2 122 123.3 125.2 127.2 128.5 126.9 125.8 128.7 130.9 134.5 137.6 138.5 139.2 140.6 142.7 144.7 147.1 149.5 152.6 156.4 161.2 166 171 176.6 180 182.8 184.8 184.6 184.1 183.9 184.7 185.7 185.5 185.3 185.4 186.1 187.3 187.6 186.5 184.3 184.8 188.6 190.5 185.7 183.4 181 178.2 175.4 172.6 170.3 168.7 166.6 164.4 162.8 162.1 166.6 173.4 182.4 191.3 191.1 191.5 191.7 187.3 183.1 178.8 174.5 170.8 168.1 166.4 164.1 161.1 157.6 153.8 150.5 147.6 145 142.7 140.5 138.5 136.5 134.5 132.9 131.4 129.9 128.4 127 125.8 124.6 123.1 121.5 119.9 118.4 117.2 115.9 114.3 112.7 111.1 106 102.1 98.7 103.9 102.1 100.5 98.9 97.3 96 94.5 93.4 92.3 89.6 88 87.3 87.1 87 86.7 86.6 86.8 86.7 84.9 83.4 84.2 84.6 82.5 82.4 82.3 83.9 81.9 75 84.2 85 84.5 84 84.6 85.3 85.4 84.9 84.3 84
117.8 119 118.9 118.9 118.9 119.8 121.2 122.8 124.3 125.7 126.8 127.3 127.4 127.3 127.1 126.8 126.3 126.4 126.5 126.4 125.8 125.3 125.8 128.5 130.3 131.7 133.1 134.6 136.3 138.2 138.1 138.3 138.8 139.2 139.9 140.7 140.7 140.1 139.2 138.1 137.3 136.3 134.8 132.4 131.3 130.5 129.8 129.5 128.8 127.1 125.5 123.7 123.3 122.8 121.9 121 120.5 120.6 120.9 121.1 120.9 120.6 121.7 122.5 124 126.1 126.7 124.5 126.9 129.2 131.3 132.8 134.9 136.5 138.3 140.4 142.5 144.5 146.9 149.7 152.7 156.4 160.5 165.1 169.7 174.9 178.1 181 181 180.9 180.8 180.8 181.9 182.9 183.5 183.7 185.1 185.3 185.3 184.3 183.9 183.9 187.8 191.5 185 179.2 176.5 174.4 172.2 170.5 168.5 167 166 164.2 163.2 162.2 161.7 166.1 174.3 184.5 189.9 189.9 189.1 186.7 182.6 178.6 174.4 170.2 167.4 164.8 162.7 160.7 157.4 154.1 150.8 148.2 145.3 142.7 140 137.6 135.4 133.1 130.9 129.6 128.2 126.7 125.2 124 122.7 121.2 119.9 118.3 116.7 115.4 114.1 112.5 110.9 109.3 107 104 101.1 95.7 99.9 99.3 97.5 96.4 95.4 93 91.8 90.6 89.2 87.5 86.9 86.3 86.5 86.1 84.7 85.7 85.8 84.4 80.2 79.6 79.5 80.4 79.1 75 77.3 80.3 79.1 78 83 82.8 82.8 82.8 83.4 83.4 83.4 83.2 82.7 81.9
112.9 114.4 115.1 115.6 116.1 116.3 116.4 116.8 117.5 119 120.3 121.4 122.1 122 121.8 121.6 121.3 121.3 121.2 121 121 121.6 122.4 125 127 128.7 130.1 131.5 133.3 135.6 137 137.5 138 138.5 139 140.1 140.8 141.6 140.6 139.5 138.5 137.5 135.5 133.1 131.8 130.9 130.6 130.2 129.5 127.7 126.1 124.4 122.9 123.8 121.5 123.1 122.9 121.9 122 121.7 121.4 120.9 121.1 121.8 122.8 124 125.3 123.3 126.7 129.5 131.7 132.7 134.9 137 138.6 140.7 142.4 144.7 148.7 152.9 154.8 157.2 160.2 164.4 169 173 176.2 178.5 178.6 178.6 178.6 179.1 179.6 180.9 182.1 183 184.9 184.8 184.8 184.2 183.9 185.4 188.8 184.8 191.8 190.8 182 179.3 175.8 170 167.3 165.9 164.1 162.7 161.4 161.7 161.1 165.3 176.3 185.7 186.6 183.2 182.6 180.5 177.8 173.9 170 166.6 164 161.4 159 156.8 153.8 150.4 147 143.7 140.8 138.1 135.5 133.7 131.5 129.3 127.5 126.3 125 123.6 122.3 120.4 118.8 117.5 116.3 115.1 113.6 112.2 110.6 109.2 107.9 106.7 105.7 102.9 99.5 96.8 94.3 96.2 95.3 94.4 93.6 90.3 89.8 89.5 88.4 87.9 87 85.4 85.7 85 83.6 84.4 83.8 81.9 81 83.4 83.2 79.9 80.4 81.2 75 75 75.1 75 78.7 80.9 81.1 81.5 81.4 81.4 81.4 81.2 80.8 80.3
107.1 108.8 110.6 111.9 113.4 114.3 114.4 114.4 114.4 114.3 114.3 115.6 116.5 116.7 116.7 116.7 116.8 117.3 117.4 117.3 117 117 118.6 121.7 123.6 125.1 126.7 128.1 130.1 131.8 133 134.2 135 135.7 136.6 137.6 139 140 140 140.6 140 138.8 137 135.5 134 132.8 131.6 131 130.1 128.4 126.7 124.3 123.2 122.8 122.3 125.4 124.6 122.7 121.9 121.5 121 120.6 121 121.7 121.8 121.6 122.6 122.5 125.5 128.4 131.1 132.3 134.6 136.9 139.1 145.4 151.5 145.8 152 157.1 158.6 158.9 160.8 164.3 167.9 171.6 174.5 176.3 177.1 177.1 178.7 178.5 178.4 179.4 180.7 185.4 185.9 185.4 184.6 185.9 188.3 191.8 187.6 192.6 191.6 189.7 184.1 185.1 180.7 173.9 174.1 169.3 165.6 161.8 161.3 161.3 161.3 166 176.4 183 179.5 177 176.1 174.3 173.8 170.2 166.4 162.6 160.1 157.8 155.5 152.9 150.2 146.8 143.4 139 136.2 133.4 131.8 129.7 127.5 125.3 123.7 122.5 121.3 120.2 118 116.4 115.1 114 112.9 111.7 110.6 109.3 108 106.7 105.5 104.5 103.6 101.8 100.9 99.6 96.4 92.1 91.6 91.4 90.4 89.9 89.5 88.5 87.4 87.5 86.8 84.9 84.4 84.4 86.2 83.6 83.3 86 86 86 85.5 83.9 84.6 83.8 81.2 77 75 75 75 75 80 80 80.6 80.1 79.6 79.3 78.5 77.8
101.1 102.8 104.5 106.8 109.3 111.8 112.4 112.4 112.4 111.8 110.9 110 110.9 111.9 112 112.2 112.7 113.2 113.7 113.5 113.3 113.6 115.4 118.4 119.9 121.2 123.2 124.7 126.5 127.7 128.8 130 130.8 131.5 132 132.9 134.2 135.2 136.3 137.3 138.2 139 137.3 136.9 135.5 133.9 132.7 131.9 130.9 129.3 127.8 124.3 124.5 121.5 123.5 124.3 123.9 122.8 122 121.3 120.7 120.2 120.9 121.6 121.4 120.3 120.5 122.5 124.6 127.3 130 131.9 134.2 136.8 138.9 143.9 140.1 137.8 130.9 161.7 161.3 161.6 163 164.6 167.9 170.5 172.2 173.9 175.6 176.4 178 177.8 177.5 178.6 179.9 185.8 187.5 187.8 187.6 188.7 194.1 192.8 193.3 193.4 191.5 187.2 185 185.4 182.4 177.4 174.1 171.8 167.3 163.2 161.8 161.3 162.4 167.7 175.4 176.9 174.3 172 170.6 171.8 170 166.4 162.9 159.2 155.5 153.2 151.7 147.6 144.1 142.2 138 133.8 131.2 129.3 128.1 125.8 123.5 121.2 119.3 118.6 118.4 117.5 115 113.1 112 110.9 109.9 108.7 107.8 106.8 105.4 104.3 103.4 102.4 101.4 100.4 99.4 98.4 95.4 92 89.9 90.5 89.8 89.4 88.6 87.5 86.4 86.1 85.2 85.2 86.9 85.9 87 87.2 88.1 87.4 88.4 88.6 86.4 84.5 84.9 85.3 83.6 83.1 79.9 75 75 75 75 78.6 79.7 79.7 78.9 78.1 77 75.4
97.5 97.8 99.9 103.6 107.1 108.6 109.8 110 109.4 108.7 107.6 107 106.8 107.3 108 108.7 109.2 109.5 110.1 109.8 109.5 108.4 112.1 114.9 116.2 117.5 119.3 121.1 122.2 123.4 124.5 125.5 126.2 126.9 127.5 128.4 129.4 130.1 131.4 132.9 133.9 134.9 134.3 134 134.2 134 132.7 131.1 129.5 128.2 127.4 123.8 124.6 121.7 120.1 121.4 123.3 123 122 121.4 120.7 120.2 120.8 121.5 120.9 119.6 119.7 122.6 124.6 126.7 129 131.5 134.1 136.9 134.5 132.3 131 131.2 131 164.4 163.9 164.5 166 167.8 169.7 171.4 173.4 175.3 176.2 177.7 179.3 180.7 182.2 184.3 187.2 189.7 190.8 191.4 190.7 190.3 191.9 192.1 192.8 194.2 192.8 185.7 185.9 192.5 188.8 181.8 176.2 174.4 171 165.9 163.5 161.7 161.6 167.5 171.6 172.3 171.1 168.9 169.4 171.5 168.7 165.6 162.3 156.9 151.9 148.2 148 144.7 141 136 132.1 129.5 126.8 124.7 123.4 121.7 119.4 117.1 116.1 115.8 115.5 114.4 112.3 110.3 108.8 107.9 106.9 105.8 105 104.2 103.1 102 100.9 99.8 98.7 97.6 97.1 96.7 94.9 93.2 91.3 89.3 90.9 88.3 87.4 87.5 88 86.5 86.4 86.6 87.7 87.1 86.6 87.5 87.2 86.6 87.4 87.1 86.3 85.3 85.1 85.5 85.5 83.9 81.8 80.3 75 75 75 75 77.4 78.7 77.9 77.1 76.3 75.2
97.5 96.9 105.1 106.7 105.9 107.4 108.2 106.4 105.8 106.2 106.7 106.2 105.6 105 104.8 105.2 105.7 106.5 107.2 106.8 106.5 108.8 109.2 110.7 112.3 113.9 115.3 116.8 117.9 119.1 120.1 120.8 121.5 122.2 122.9 123.8 124.7 125.3 126.6 128.2 129.3 130.2 130 129.7 129.7 129.8 128.8 127.7 126.7 125.6 123 120.5 123.4 121.7 118.2 120.1 122 123.1 122.2 121.4 120.8 120.4 120.9 121.5 119.4 117.2 120.8 123.1 124.9 126.3 128.4 130.7 133.6 136.6 139.1 136.5 129.2 132.4 132.3 164.9 165.8 169.1 171 172.7 174.4 176.2 178 179.7 181.4 183 185 187 188.7 190.5 194.1 194.6 194.3 194.4 194.1 193.4 193.6 194.1 195.2 198.4 193.2 187.1 192.8 201.2 196 187.6 181.9 178.9 176.1 172.4 167.3 165.1 162.4 165.5 167.4 167.4 166.2 164.7 165.2 170 167.7 163.2 156.3 150.5 144.7 142.4 141.2 138.2 134.9 130.6 127.6 125.5 123 121.4 119 117.1 115.1 112.9 113.1 113.1 112.4 111.4 109.6 107.8 106.5 105.2 103.9 103 102.4 102.1 101.9 100.5 99.3 98.2 97.1 96.2 97.4 97.1 96.5 94.7 92.9 90.8 88.3 90 91 91.1 90 88.9 87.6 88 88.4 87.6 86.8 86.4 86.2 86.2 86.3 86.3 85.7 85.1 85.3 85.7 85.6 83.7 83.3 82.4 80.2 77.2 75 77.8 75.3 77.2 76.9 76.1 75.2 74.1
97.2 96.7 100.3 101.8 102.6 104.7 105.7 103.1 102.6 103.4 105.8 105.4 104.7 104.4 104.1 103.8 103.6 103.8 104.3 104.2 104.1 104.7 105.6 107.5 109.2 110.3 111.3 112.5 113.6 114.8 115.5 116.2 117.3 118.3 118.9 119.3 120.2 121 122 123.6 124.6 125.5 125.8 125.5 125.4 125.2 124.3 123.3 122.2 121.1 117.8 118.6 119.4 118.2 117.4 119.1 120.9 122.6 122 121.5 121.1 120.6 121.1 120.6 116.7 119.1 121.5 123.9 126 127.7 129 130.4 133.8 143.4 151.1 142.8 129.2 129.2 155.8 165 167 170.3 172.5 173.9 175.4 177.8 179.6 181.3 184.4 186 188 190.1 192.3 194.8 198 198.9 198.4 197.7 196.8 195.9 195.8 195.7 196.1 195.3 192 189 193.4 199.5 196.4 191.6 185.9 181.7 177.9 175.2 170.4 167.3 164.9 160.3 162 161.3 159.8 158.4 156.1 154.1 152 148.7 145.4 141.9 138.8 136.2 134.3 131.7 128.2 125 123.4 121.5 119.5 118.1 116 113.3 109.8 109.3 109.6 110.1 109.4 108.3 107.3 106.1 104.8 103.4 102 100.9 100.8 100.1 99.7 99.7 98.2 96.9 95.7 95.2 95.8 97.3 96.4 95.2 94.6 94.5 93.5 93.8 93 91.5 90.1 89.3 88.6 88.4 88.9 88.7 88 86.9 87.1 86.8 87.1 86.5 85.7 85.2 85.5 85.9 85.3 85.4 84.5 82.5 80.1 77.6 74.6 60.6 74.1 75.7 74.7 73.8 72.8 71.4
96.5 96.2 97.9 99.9 100.5 100.2 101.6 100 100.1 101.6 103.1 104.5 104.4 104.7 105.2 104.8 103.4 103.1 102.8 102.7 102.3 102.6 103.8 104.5 105.9 106.6 107.8 108.7 109.7 110.5 111.5 112.6 113.6 114.7 115.9 117.1 117.2 117.3 117.6 118.9 119.9 120.8 121.5 121.2 121.1 121.2 119.9 118.7 117.8 116.4 115.5 115.6 116.2 115.5 115 117.8 118.5 119.2 119.9 120.1 120.3 120.5 120.3 119.8 115.6 118.2 121.8 124.5 126.6 128.8 130.3 131.5 136.2 147.3 151.3 148.9 129.2 136.4 159 164 167.5 171 173 174.4 176.2 178.7 181.2 183.6 187.1 189 190.7 193.1 195.5 198.5 200.3 200.8 200.6 200.1 198.9 197.6 196.7 194.1 192.8 192 190.8 189 190.3 194 196.2 192.4 186.2 180.6 177.5 174.4 169.6 165.9 164.2 160.5 155.9 154.5 155.6 154 150.5 147.3 144.5 141.8 139.5 135.4 132.7 130.2 127.6 125.2 122.1 120.3 118.5 117.4 116 114.7 110.4 107.7 105.7 106.1 106.8 106.7 106.3 105.3 104.3 103.4 102.6 101.9 101.1 100.2 100.1 99.7 98 97.6 97.6 96 94.6 94.7 95 96.6 96.2 96.9 97 95.8 95.4 94.9 93.4 92 90.7 89.9 89.2 88.6 89 89.3 89.2 88.9 88.7 88.3 87.8 86.7 85.8 85.2 85.6 85.9 84.7 85.1 82.8 80.5 79.9 77.7 74.3 62.4 67.3 72.6 72 71.4 70.2 69
95.4 95.6 97.5 98.5 99.3 98.5 97.8 98.3 98.8 100.5 102 102.9 103.5 104.3 106.7 112.6 113.3 106.5 104.1 101.3 100.8 101.4 102.3 103.1 104.5 105.2 106.3 107 107.4 107.9 109.2 110.4 111.7 112.1 114.3 114.1 114.2 114.3 114.4 114.6 115.2 116.1 117 117.1 117.7 117.4 116.5 114.9 113.6 114.1 114.9 114.4 113.9 113 112.2 113.9 115 117 117.6 117.8 118 118.7 120 119.9 116.8 116.9 121 124.4 126.7 129 131.1 133.3 135.5 145.7 150.8 149.8 131.6 156.6 160.7 165.5 168.2 171.6 173.9 175.5 177.1 179.5 182.4 185.7 189.2 191.8 193.5 196.1 197.2 198.2 199.2 200.2 200.5 200.7 200.3 199.2 196.9 194.5 190.7 188.8 187.6 186.5 184.5 185.2 184.3 182.4 177.9 175.2 172.9 169.6 165.4 163.3 160.5 157.2 151.4 150.1 150.3 144.7 145 142.2 139.4 135.9 133.6 130.1 127.6 124.7 121.8 119.3 117.4 115.5 113.7 113.5 111.9 110.4 105.7 103.3 102.8 103.4 103.5 103.4 102.9 102.3 101.3 100.4 100.5 100.9 100.6 100.4 100.5 101.2 98.2 96.7 96.2 96.7 96.7 96.7 97.2 98.4 99.2 99.7 99 97.4 96 95.2 94.1 93.1 92 90.9 89.1 88.9 89.2 89.5 88.6 88.1 88 87.6 87.3 86.9 86 85.3 85.6 85.3 84 81.4 79.6 78.5 77.9 77.5 74.3 67.2 60.7 66.3 67.8 69.6 69.4 68.7
94.8 95.1 96.6 97.6 97.7 97.1 96.9 97.1 97.5 97.9 99 100.3 101.1 101.9 103.2 106.1 111.9 112.7 106.2 101.1 100.8 100.6 100.9 102.9 103.9 104.7 105.5 105.6 106.1 107 108.2 109.5 109.6 110.6 114.1 113.5 113 112.6 112.9 113 112.7 113.1 113.7 113.9 114 114.1 113.6 112.7 114.2 115.8 114.8 112.9 112.2 111.3 109.6 111.6 113.5 115.2 115.4 115.6 115.8 116.9 118.3 119 116.2 115.9 121.6 124.8 127 129.3 132 134.4 138.1 145.7 148.9 151.2 154.6 157.5 161.7 166.3 168.8 172.2 174.9 176.3 177.6 179.8 182.7 187.3 191.1 194 195.2 196.7 197.2 197.1 198 198.9 199.7 201.2 202 199.9 197.8 195.4 190.5 186.6 184.6 182.2 180.1 177.6 176.4 174.4 171.5 170 167.1 164.2 161.8 159.1 156.8 153.6 148.8 143.6 139.3 139.8 137.7 137.4 134.3 130.9 128 125.3 122.7 120.1 117.2 114.7 112.7 110.7 110 109.2 107.4 106.3 103.5 100.8 100.1 100.3 100.2 100 99.6 99 98.3 98.6 99.2 99.8 101 100.1 100.2 99.6 97.9 96.6 97.1 98.5 98.7 98.7 99.4 100.4 100.7 100.4 99.1 97.8 96.7 95.5 94.2 93.2 92.1 90.2 88.8 89.1 89.4 89.1 87.4 86.8 86.8 86.6 86.3 85.9 85.1 84.4 84.5 83.4 82.3 80.7 77.4 76.4 76.5 76.3 74.9 72.8 68.2 60.6 61.6 64.5 68.7 68.5
94.5 94.8 95.6 96.3 96.5 95.9 96 96.4 96.2 96 96.4 97.3 98.6 99.5 100.4 101.7 104.2 108.4 105.8 101.6 100.9 100.4 100.4 102.7 103.6 104.5 104.8 104.6 105.1 106.1 108.1 109.7 111.2 112.4 113.5 113.4 113.3 113.6 114.7 114 113.2 111.7 111.5 111.7 111.9 112.1 111.2 111.7 113.6 115.4 114.5 112.1 110.6 109.6 108.4 109.9 111.9 112.9 113.1 113.3 113.7 115.1 115.9 116.4 115.8 115.1 121.4 125.1 127 129.6 132.6 135.1 141.3 147.4 150.3 152.6 155.2 158.4 162.8 164.9 168 171.5 174.7 176 178.2 180.3 183.5 188.7 191.3 193 194.2 195.5 196.6 198.1 200.1 200.2 199.2 202.9 203.5 201.5 198.5 195.5 190.6 186.8 183 180.2 178 175.4 172.4 170.4 167.6 165.3 162.3 160 158 154.4 152.2 149.9 146.5 143 137.8 129.8 126.1 131.3 128 125.6 123.2 120.6 118 115.4 112.9 111.3 110.2 108.3 106.7 104.8 103.6 102.5 100.2 98.7 97.9 97.2 96.8 96.6 96.3 96.2 96.7 96.4 96.8 97.3 98.5 97.5 98.2 98.7 97.4 98.9 100 100.3 100.6 100.7 101.5 101.7 102 100.9 99.7 98.5 96.9 95.6 94.5 93.3 91.1 89.2 88.3 87.7 87.3 87.2 85.9 85.6 85.6 85.6 85.3 84.9 84 83.4 82.6 81.6 80.5 79 77.4 75.9 76.3 74.7 73.4 71.3 70.4 67.1 57.9 59 64.6 65.4
94.5 94.6 94.9 95.3 95.6 95.2 95.3 95.4 95.4 95.5 95.7 95.9 96.7 97.3 98 98.6 99.9 102.2 102.9 100.6 99.8 99.5 99.7 101.5 102.4 103.9 104 103.6 104 106.4 108.6 110.4 111.4 112.8 113.6 113.6 113.7 113.9 115.5 115.1 113.6 112.1 110.2 110.1 110.4 110.7 111.7 113.2 114.3 114.6 112.5 110.1 109 108 107 108.2 110.2 110.5 110.7 111 111.7 112.4 113.1 113.5 111.8 115.8 120.9 124.2 125.8 128.7 132.1 138.9 143 146.2 149 152.9 155.6 157.5 160.5 163 166.7 170.1 173.4 176.2 178.2 180.4 186.2 187.5 189.2 191 192.6 194 195.2 198 200.1 200 198.8 200.8 201 199.4 196.7 193.1 189.4 185.2 181.8 178.1 175.8 173.3 170.3 167.8 165.6 162.1 158.7 156.9 154 150.5 148.2 145.8 142.6 139.7 136.6 134.2 129.7 123.7 122.8 120.5 118.7 116.9 114.4 112.6 110.8 108.6 107 104.9 103.1 101.4 99.7 98.5 96.4 96.1 96.1 95.2 94.5 94 94.3 95.2 95.3 95 94.7 94.9 95.9 96.7 97.1 97.4 99.4 101 101.9 102.2 102.4 102.8 103.6 104.5 104.3 103.1 101.9 101.1 99.2 97.4 95.9 93.7 91 89.4 88.6 87.7 87.4 87 85.4 83.9 84.1 84.4 84.1 83.1 82.2 81.3 79.9 79.6 79.3 78.3 77.7 76 74.2 72.3 70.3 68.2 68.4 67.1 63.3 57.4 60.5 60.4
94.2 94.4 94.5 94.9 95.3 95 94.6 94.7 94.9 95.1 95.4 95.6 95.6 95.5 96 96.5 96.9 98.2 100 99.5 97.9 97.5 99.6 101.7 101.4 104.3 103.5 102.4 103.1 104.8 106.8 108.3 109.4 110.3 112.6 114 114.1 114.3 115.4 114.3 112.3 110.4 109.8 110.1 111.3 111.6 113.5 114.7 113.9 112.1 110.3 108 107.4 106.2 106 106.8 107.4 107.5 107.9 109.1 109.7 109.9 110.3 110.1 111.2 116.9 120.2 122.3 123 127.6 133.8 138.2 141.7 144.6 148.4 152.3 154.4 156.5 158.5 161.5 165.5 168.6 171.5 173.3 178.6 183 184.6 184.7 186.4 187.7 189.1 190.3 191.5 193.2 194.7 195 194.7 196.1 195.8 194.3 191.7 188.4 185.4 181.8 181.3 176.9 173 171.6 169 165.4 162.6 159.1 156.2 153.4 150.5 147.4 144.2 141.7 138.7 135.7 132.5 130.6 128.7 120.3 117.8 116.1 114.6 113 112.3 110.6 108.9 106.6 103.5 101.4 99.7 98 96.3 94.5 93.4 93.4 93.7 93.5 92.5 92 92.7 93.5 93.9 93.6 93.3 93 94.3 95.4 96.4 98.7 100.4 101.4 102.1 102.5 103 104.7 106.1 106.5 105.5 104.9 104.5 103.2 101.6 99.8 98 96 94.1 92.5 91.7 90.6 89.2 88.1 85.7 84 82.4 82.3 81.8 81 80.1 79.7 79 77.9 76.9 76.6 75.2 72.6 70.2 68.4 66.9 65.1 64.3 64.2 62.3 55.2 55.8 56.4
93.3 94 94.2 94.5 94.9 94.8 94.6 94.7 94.9 95.1 95.3 95.5 95.7 94.9 94.6 94.8 95.5 95.9 95.7 95.5 95.7 95 96.8 98.4 97.7 99.1 101 99.8 100 101.3 103.2 104.5 105.7 108.1 110.7 112.9 114.4 114.7 115.2 113.4 110.6 109.7 110.2 110.8 112.4 113 112.9 113.1 112.1 110.1 108.1 106 105.6 104.4 105.1 104.7 104.7 105.4 106.6 107.7 108.3 108.8 109.2 109.7 112.5 114.3 117.1 118.7 122.4 130.6 134.1 137.4 140.6 143.7 147.8 151.2 153.2 155.3 157.6 160.2 163.9 167.4 170.2 173.4 179.1 184.4 183.8 182.8 182.8 183 184.2 185.3 186.4 187.2 188 188.1 187.3 187.9 188.4 186.9 184.5 182.4 179.7 178.7 176.9 173.1 168.3 166.4 163.7 159.5 157.2 154.7 151.5 148.2 145.7 143.4 140.1 137.3 134.5 131.4 129.6 127.2 124.3 121.3 114.2 112.3 111 109.3 107.6 107.8 106.1 102.4 102.1 98.5 96.6 94.7 92.9 91.2 90.6 90.6 91.1 91.5 90.4 90 91 91.6 91.9 92.3 92 93.4 94.6 95.8 96.7 98.4 100.3 101.7 102.3 102.7 103.2 103.8 104.6 105.4 104.9 104.7 104.6 103.5 102.1 100.6 98.6 97.1 95.3 94.1 92.5 90.7 88.8 88.3 86.7 84.4 82.6 81.4 79.5 79.5 79.4 77.9 75.5 73.9 72.9 72.1 71.3 69.1 66.6 64.6 63.1 61.1 59.8 59.3 58.3 60.6 58.5 59.4
93.5 93.6 93.9 94.7 95.1 94.8 94.8 94.8 94.9 95 95.2 95.4 95.7 95 94.2 93.8 94.3 94.5 94.1 95 95.7 92.7 94.2 96.5 97 95.3 96.1 97.3 97.4 98.2 99.5 100.6 103.4 106.1 107.7 110.4 112.8 113.5 112.7 111.5 108.9 109.1 109.7 110.3 111.8 114.6 110.8 110.2 110.7 109.1 107.1 105.1 103.3 103.4 103.8 104.2 104.7 104.4 105.2 106.3 107 107.2 107.5 108.6 110.6 112.4 113.9 115.5 125.4 132.2 134.8 137.8 140 143.1 147.2 150 152 155 157.3 159.7 161.1 165.3 168.8 177.2 178.2 179.4 179.2 181 180.2 179.8 180.4 180.5 181.3 181.8 181.7 181.6 180.4 179.5 178.1 177.2 175.2 173.4 171.5 169 167.5 164.7 161.8 158.9 157.9 153.9 150.9 148.6 145.6 142.5 140.4 138.5 136.1 132.6 128.9 126.9 124.6 121.8 119.6 117.1 115.7 108.4 108.6 106.3 104.1 102.5 102.7 101.1 99.5 96.6 93.9 92 91 89.2 88.1 89.2 89.3 89.2 87.3 87.8 90 91.3 91.1 91 91.6 94 95 96.2 96.9 98.1 99.9 101.7 102.4 102.9 103.1 103.2 103.7 104.3 103.8 103.5 103.9 103.1 101.6 99.9 98.1 96 94.4 93.6 92.1 90.4 88.5 87.7 85.9 84 83 82.4 79.5 79.1 77.5 74.3 72.7 71.2 68.1 67.9 67.3 64.2 62.3 61.2 61.5 62.5 62.8 62.2 61.3 62.2 63.5 63.5
92.7 93.2 93.8 94.7 95.6 95.1 95 95 95 95.1 95.2 95.4 95.6 95.2 94.4 93.6 92.9 92.2 93 94 94.9 94.4 93.7 93.3 93.2 93.1 93.7 94.3 94.9 95.6 96.4 98 100.6 102.6 103.5 104.3 106.5 107.5 108 108.2 109 109.4 109.8 110.2 110.2 112 109.3 109.2 108.1 108.1 106.1 104.1 102.7 103.4 103.8 104.2 104.7 103.8 104.7 104.9 105.7 106.3 107.4 108.6 109.7 111.1 113 119.5 134.3 137.4 139 140.6 140.9 142.7 146.7 149.2 152.2 154.6 157 158.5 158.9 161.6 165.3 169.6 172.4 173.8 174.2 174.2 174.5 174.9 177.7 177.7 177.1 176.4 176.4 175.9 174.2 173 172.1 170.7 168 165.8 163.4 161 158.5 156.1 152.1 149.2 147.7 146.1 144.4 142.1 139.4 136.3 134.1 132.4 130.6 126.1 122.9 121.2 118.9 116.8 114.7 112.8 111.3 109.8 105.4 102.9 99.5 97 94.9 94.6 94.1 93.8 92.5 91.4 90.1 88 87.3 88.1 88.1 86 84.7 87.2 89.5 91 91.4 90.6 92.4 94.4 95.4 96.5 97.1 97.7 99.6 101.3 101.7 101.9 102.2 102.3 102.9 103.5 102.5 102.5 103 101.6 99.7 98.1 96.8 94.6 92.9 91.7 90.7 89 87.4 86.5 85.2 83.4 82.6 82.1 80.4 78.6 75.9 74.7 74.7 71.3 67.5 64.8 62.6 63.4 65.1 66.2 66.5 65.4 65.6 65.2 64.3 63.8 63.9 64.1
92.9 93.1 93.8 94.7 95.7 95.4 95.1 95.1 95.2 95.3 95.3 95.4 95.5 95.3 94.6 93.7 92.7 92.1 92.1 93.1 94 93.5 93.5 92.5 92.1 92.4 92.9 93.5 93.6 93.6 94.1 95.3 97.1 98.2 99.3 100.2 100.9 102.6 105.7 107.1 108.1 109.3 110.3 110.7 110.4 108.8 106.7 107 106.8 106 104.7 102.2 102.3 102.7 103.8 104.2 104.6 103.4 103.4 105.5 106.9 107.5 107.9 108.1 109.4 111.2 116.5 127.6 136.2 138.1 141 142.2 142.4 144.2 146.9 149.5 152 154.3 156.3 157.3 157.9 157.5 159.2 161.9 164.9 166.2 167.8 169.7 168.9 171 174.3 176 173.7 172.4 171.4 170.3 168.5 166.5 165.3 163.3 160.6 158 155.5 153.1 151.1 149.1 145.1 142.2 140.3 138.5 137.1 135.7 133.2 130.4 129.2 127.4 125.1 120.5 117.7 115.2 112.7 110.8 109.1 108.8 107.8 106.7 105.1 102.4 98.1 95.1 92.1 91.4 91 90.6 91.1 90.9 88.9 86.8 85.3 85.7 84.8 83 83.9 85.5 88.6 89.7 90 90.6 92.6 94.1 95.2 96 96.6 96.4 98 98.4 98.3 99.6 100.9 101.2 101.8 102.3 100.8 101.6 101 99.7 97.3 96.3 95 93.1 91.1 89.9 88.8 87.6 85.9 84.6 83.3 82.2 81.7 80.6 79.2 77.6 75.4 74.2 70.7 66.1 63.3 63 67.8 71.7 73.9 74.1 72.6 70.5 67.4 66 65.1 64.8 64 63.2
92.2 93 93.8 94.8 95.7 95.7 95.4 95.3 95.3 95.4 95.5 95.5 95.6 95.2 94.3 93.3 92.4 92 91.8 92.2 92.9 92.9 93.3 92.4 92 91.9 92.1 92.6 92.7 93.1 93.6 94.2 94.7 95.3 96.4 97.1 98 101.2 104.8 106 107 108.3 109.5 110.4 110.6 108.9 106.9 105.4 104.5 103.4 102.7 101.6 102 102.4 102.7 104.2 104.3 101.9 104.9 107.4 108.3 108.7 109 109.2 110.3 114.1 120.3 128.5 135 137.5 140.7 142.9 144.2 145.8 147.4 148.7 150.7 152 153.5 154.6 154.6 154 154.4 154.3 157 158.6 161 162.9 163.2 167.7 167.8 167.5 167.1 166.7 165.7 164.6 162.8 160.4 158.4 155.9 153.1 150.4 148 146.6 145.3 143.4 140.1 136.2 134.1 132.3 130.5 128.6 127 125.1 124 122.6 119.4 116.6 113.8 111.2 108.4 107.5 106.7 106.5 104.2 103.7 102.9 101.6 98.3 94.8 91.9 90.6 88.9 88.7 89.4 89.6 89.3 86 83.3 82.3 81.9 82.2 83.3 84.5 86.2 86.8 87.3 89.5 91.6 93.4 94.5 95.1 94.7 94.6 95.5 95 94.9 94.8 95.2 97.2 98 97.9 96.9 98.3 97.3 95.1 94.7 93.5 91.3 89.2 88.5 87.5 86.2 84.8 83.1 81.9 80.7 79.9 78.6 78.2 77 75.5 74 69.8 65.1 63.3 68.5 73.2 78.8 82.4 82.1 81.2 79 76.3 73 68.7 65.7 64.7 64.4 63.6
93.2 93 94 94.9 95.8 96 95.7 95.4 95.5 95.5 95.6 94.6 93.7 93.4 93.9 92.9 92.3 92 91.7 91.4 91.9 92.3 92.7 92.2 92 91.9 91.9 91.9 92.3 92.7 93.1 93.8 94.5 95.7 96.7 97.1 98.1 100.9 103.4 105 105.9 107.2 108.3 109.1 109.5 109.3 107.5 105.8 104.6 102.7 101.1 101.2 102 102.8 103.1 103.7 101.6 102.4 105.5 106.9 107.7 108.4 108.9 111.1 112.7 115.8 121.7 128.4 133.9 137.2 140.3 142.7 143.6 144.2 145.3 146.9 148.1 149.2 149.8 150.6 150.2 149.6 150.2 149.9 149.7 150.3 150.5 152.2 153.6 156.1 157.8 158 158.2 157.5 156.6 155.9 154.8 152.9 150.9 147.6 146.4 144 141.8 140.4 139 136.9 134.5 131.2 128.1 126.6 125.1 123.7 122.1 120.5 119 117.7 115.5 113.1 111.5 109.5 107.5 106.4 105.4 103.7 101.4 100.3 100.2 99.1 96.9 95 92.2 90.7 88.4 86.7 87.3 87.2 88.7 84.7 83 83.2 81.8 81 81.6 82.4 82.8 83.4 86.2 88.3 90 91.1 91.6 92.1 92.5 92.8 92.2 91.5 91.4 91.3 91.2 91.2 91.8 92.6 91.3 91.9 92.4 91.5 90.4 89 87.3 85.2 84.5 83.8 82.1 81 80.2 79.1 77.9 76.7 75.5 74.8 73.5 71.5 69.4 64.9 64.7 72.6 78.3 85.4 92.2 94.2 87.8 84 80.2 77.7 74.1 69.6 66.8 64.7 64.2 63.7
93.8 93.7 95.1 96.6 97.4 96.5 96 95.7 95.6 95.2 94.5 93.8 93 92.7 93 92.5 92.2 91.9 91.7 91.4 91.3 91.7 92.1 92.1 92 92 91.8 91.6 91.9 92.3 92.7 93.6 95.4 96.3 97.2 97.9 98.9 100.6 102.6 103.6 104.8 105.8 106.4 107 107.1 106.5 106 105.8 104.5 102.2 100 100.2 101 101.8 102.4 101.9 98.3 101.5 104.2 105.4 106.4 107 108.8 110.2 112.6 117.2 122.4 127.7 133.2 136.8 139.2 141.3 142 142.5 143.1 144.5 145.6 146.6 146.9 146.3 145.5 145 145.3 145.6 144.8 144.2 143.1 142.6 142.6 145.3 147.4 148.3 148.5 147.4 146.5 145.2 144 143.3 141.4 140.5 139.7 137.8 135.7 134.2 132.7 130.5 128.1 125.8 124.1 123.3 121.8 120 119.4 117.6 116.6 114.3 112.3 110.4 109.6 108.8 107 105.8 104.4 102 99.4 97.3 97.1 95.7 93.3 91.2 90.3 88.4 86.9 84.9 84.9 83.7 83.1 82.6 82 81.7 80.2 78.9 78.6 78.9 78.3 82.3 85.1 86.2 87.3 87.7 88.1 88.7 89.4 89.5 88.8 88.2 88 88 88 87.9 87.6 87.2 85.8 86.3 85.8 85.5 85.3 83.3 81.5 80.8 80 79.5 77.8 77.2 75.9 75.1 74.2 73.4 72.4 71.1 69.6 67.3 63.4 66.1 74.5 82.5 92.2 97 98.9 93.6 87.2 83.6 78.6 76 73.2 68.8 66.7 64.7 64 65
94.4 94.7 96.2 97.7 98.9 98 97.1 96.6 95.1 94.2 93.8 94 93.3 92.5 92.5 92.5 92.3 92.1 91.9 91.3 91.3 91.1 91.5 91.7 92.1 91.9 91.4 91.3 91.6 92 92.9 94.9 96.1 97.2 97.7 98.2 99.1 100.3 101.5 102.6 104 104 104.3 104.8 104.4 103.7 103.2 102.7 102.5 101.7 99.1 99.2 99.9 100.4 100.8 99.9 96.7 99.7 102.2 103.5 104.6 105.7 108.1 109 112.4 116.5 121.9 127.3 132.6 136.3 138.1 139.7 140.8 141.1 141.4 142.1 143.2 143.3 143 142.2 141.3 140.7 140.6 141 140.4 139.7 139 136.8 137.4 137.5 138 138.2 138.9 138.6 138.1 136.9 135.4 133.6 133.2 133.4 132.6 131.3 129.5 128.1 127.1 126.2 124.4 122.6 120.7 119.7 117.9 116.5 115.9 115.1 114.1 112.3 110.8 108.8 108 107.3 106.6 105.3 102 100.4 97.7 95.9 94.7 93.3 92.1 91.6 90 88.5 87.6 87.9 87.2 87.5 84.6 84.8 83.8 82.7 80.3 79.4 76.9 76.7 77.7 81.3 83.4 83.8 84.2 84.3 84.7 85.2 85.8 85.7 85.6 85 84.5 84.7 84.7 84.7 84 83 81.2 81.3 81 80.3 79.7 78.5 77.5 76.4 75.7 74.8 72.9 71.3 70.4 69.7 68.2 68.1 67.5 66.2 63.5 61.7 66.4 72.4 85.3 93.6 96.6 96.4 94.4 89 84.8 81.4 76.7 73.5 70.5 68.1 65.9 64.2 62.7 63.8
94.9 95.8 97.1 98.4 99.6 98.8 98.2 97.4 96.1 94.5 94.5 94.6 93.7 92.9 92.5 92.5 92.7 92.5 91.8 91.4 91.4 91 91 90.9 92.1 91.6 91.1 91 91.3 92.3 94 95.5 97.2 98.3 98.6 98.1 99.1 100.1 101.1 102.4 102.8 102.8 103 102.9 102.7 102.4 102 100.6 100.4 100 98.3 97.9 98.4 98.9 98.7 98 95.3 98.1 105.6 106 106 106 106 107.5 111.6 115.9 120.7 126 131.9 135.9 137.4 138 139 139.9 140.2 140.5 139.7 139.6 138.9 138.3 137.9 137.5 138.4 138.3 137.9 137.1 136.6 136.7 136.7 137.1 134.1 133.9 133.7 133.9 133.2 132.1 130.6 128.8 127.7 126.9 126 125.2 124.6 123.6 123 121.9 121.2 119.9 119.3 117.9 116.6 115.3 114.4 113.4 112.4 111.3 110 107.7 107 106 104.6 102.1 99.7 99.8 99.7 99.4 98.4 97.5 95.6 94.4 92.5 90.9 90.5 90 89.7 89.9 89.3 88.5 87.1 85.7 86.3 84.9 81.8 78.1 77.4 80.2 81.1 81.2 81.4 81.5 81.5 81.8 81.9 81.3 80.7 79.9 79.3 78.6 78.7 79.6 78.8 77.9 76.7 78.2 77.8 76.8 75.9 74.6 74.2 72.6 70.7 68.6 67.1 65.6 65.3 64.2 63.1 63.6 64.7 65.6 65 69.8 77.5 85.6 92.1 96 97.4 95.5 91.1 84.9 82.9 81.2 78.1 74.1 70 66 64.7 61.9 61.3 60.6
93.9 95.4 97 98.6 99.9 98.3 99.3 99.3 97.1 95.8 95.4 95.1 94.3 92.8 92.5 92.5 93.1 92.3 91.5 91.5 91.5 91.2 91.1 91.7 91.7 91.5 90.8 91.1 92.1 92.7 94.4 95.8 97.2 98.5 99.4 99.1 98.7 99.7 100.8 101.8 101.6 101.6 101.7 101.4 101.3 101.2 100.8 99.8 98.2 98 97.3 96.8 97 97.3 96.6 95.9 94.8 97.2 107 106 106 106 106 106 109.2 114.1 119.2 125.4 131.3 134.6 135.3 135.9 137.7 138.5 138.9 138.6 136.9 135.9 135.5 135.1 134.7 134.4 135.5 136 136 135.6 135.1 137.2 130.1 128.9 141.6 134.9 133.2 131.1 129.9 128.8 127.5 126.1 124.9 123.8 123.1 122.7 122.4 121.7 121.1 120.6 119.9 119.3 118.6 117.3 116.1 115.1 114 113.7 113.1 113.6 112.5 110.6 109.3 109.3 107.5 106.6 105.8 105.4 104.3 103.8 102.3 101.4 99.3 97.1 95 93.3 92.7 91.5 90.8 90.4 89.2 88.2 87.8 87.4 86.2 83.9 81.4 79 75.2 77.1 77.8 78.1 78.4 78.3 78.3 78.3 77 76.2 75.6 75.3 74.5 73.3 72.9 73.7 73.5 73.4 73.4 74.5 74.2 73.2 72.5 71.2 69.7 67.3 65.8 64.5 65.1 66.1 67.2 67.9 68.7 69.7 71.5 73 72 76.7 83.4 88.2 94.4 96.3 94.8 90.8 87.5 83 80.8 78.5 73.8 69.4 66.9 63.3 61.2 59.5 59 58
92.8 94.1 94.7 95.4 96.2 97.8 98.9 99.5 98.1 97 96.4 95.7 93.6 92.4 92.5 92.6 92.1 91.6 91.3 91.3 91.3 91.7 91.4 91.2 91.2 91.2 90.6 90.8 91.5 93.2 94.6 95.6 96.8 98.4 99.8 100.2 99.3 99.4 100.5 100.6 100.3 100.4 100.2 99.9 99.9 100.1 99.5 99.1 96.4 95.8 96.2 96.1 95.7 95.5 95.6 93 93.6 96.5 106 106 106 106 106 106 107.2 113 118.9 125.5 130.1 132.1 133.8 134.3 135.4 135.8 135.2 134.5 133.9 132.5 131.5 131.3 131.1 131.1 132.5 133.1 133.6 134 135.3 135.6 125.4 123.5 134 144.3 140.2 135 133.5 132.4 130.7 128.2 126.8 125.9 125.3 124.5 124.9 125.1 124.6 123.9 123.2 123.4 121.9 120.2 118.7 118.8 117.8 118.1 117.4 117.7 117.4 115.7 113.9 112.6 112.3 112.1 111.5 110.6 109.3 108 106.3 105.1 102.6 100.1 97.8 95.1 93.9 92.8 91.2 89.9 88.7 87.1 86 84.9 83.4 82.3 80.8 78.7 76 74.2 74.7 74.9 75.4 74.5 74.5 74.5 73.6 71.8 70.5 70.6 69.7 69.6 69.9 70.1 70.1 70 70.5 69.7 68.9 67.8 66.3 65.2 65.5 67.2 69.1 70.4 71.9 72.7 73.2 74.4 74.7 74.1 75.7 77 77.7 80.2 84 85.5 87.1 89.3 87.1 85.4 83.2 80.5 77.2 73.9 69.3 64.4 62.7 60.7 59 58.6 58.4 57.3
92.8 93.7 94.7 95.6 96.5 97.5 98.5 99.1 99.1 98.1 97.1 95.8 93.1 92.6 92.5 92.2 91.8 91.3 90.4 90.3 91.1 91.4 91.7 91.2 90.7 90.6 90.6 90.5 90.9 92 93.3 95.1 96.2 98.2 99.7 101.1 100.4 99.6 99.7 99.4 99.1 99.1 98.6 98.4 98.5 98.7 98.4 97.9 95.7 92.8 92.8 93.9 94.5 95 92.9 92.8 92.8 95.6 106 106 106 106 106 106 107.3 112.4 118.6 124.5 126.8 129.1 131.4 131.7 131 130.4 129.9 129.3 128.7 128.3 128 127.1 126.9 128.1 129.3 129.4 129.6 129.8 133.7 140.3 124.7 109 110.1 126.2 146.1 141.7 139.6 137.2 134.8 132.5 131 130.2 129.2 128.6 128.3 128.5 127.7 126.4 126.4 126 124.9 123.5 121.8 122.4 121.5 121.2 121 120.7 121.2 119.1 116.1 115.8 115.7 115.1 113.9 112.4 112.5 111.7 109.7 106.9 104 101 97.9 95.8 94.4 92.7 90.6 89 87.8 86 84 82.4 80.9 79.9 79 78.1 76.2 73.9 72.7 72.3 72.1 70.7 70.9 70.8 70.4 69.9 69.3 68.9 67.6 67.2 67.5 68.2 68.8 68.3 68.9 67.5 67.6 68.1 68.2 67.9 69.8 74.4 76 76.5 76.7 76.7 77.4 78.8 76.1 74.6 74.5 74.8 78.7 81.9 85 85.9 85.2 83.2 80.8 79.9 78.9 76.7 73.2 69.5 64.8 63.4 61.1 59.1 58.3 58 57.8 55.8
92.8 93.2 94.2 95.4 96.5 99.3 100.4 99.2 99.2 99 97.6 96.3 94.8 94.1 93.3 92.2 91.6 90.9 90.7 91 90.8 90.8 91 91.1 90.7 90.8 90.7 90.2 90.4 90.6 91.9 93.5 95.5 97.2 99.4 100.8 100.5 99.8 99.2 98.1 97.9 97.6 97 96.9 97.1 97 96.7 96.3 96.9 92.8 92.8 92.8 92.8 95.4 93.1 92.8 92.8 96.6 106 106 106 106 106 106 108.5 113.3 119.7 123.4 124.9 127.2 128.2 128 127 126 125 124.2 123.5 123 122.7 122.7 123.6 124.7 125.1 125.2 125.2 125.4 128.1 138.8 111.8 109.7 98.6 108 151.2 149 145.7 142.3 139.2 137.1 135.9 134.6 133.3 132.1 131.2 131 130 129.4 129.6 128.2 127.1 126.1 125 124.1 123.3 122.7 122.4 121.9 122.1 119.6 116.3 116.2 116.6 115.4 114.5 113.9 113 110.9 108.7 107.1 104.1 101.1 98 96.3 94.2 92.2 90 88.1 86.9 85 83 81.3 79.7 78.4 77.4 76.3 75.3 74.5 74 73.8 73.4 71.6 70.4 70.3 70.3 70.1 70.5 71.7 71.4 69.1 65.9 66.9 67.9 69.7 69.7 70 71.9 72.1 71.9 71.2 72.1 73.5 75.4 73.8 74.8 75.9 75.9 75.7 75.2 73.5 72.3 71.4 75.8 81.5 84.2 85 83.5 81.4 76.2 74.2 74.8 71.7 67.7 62.6 62.7 62.5 60.7 59.2 57.9 56.3 56.6 56.2
92.8 93.1 93.6 94.6 95.5 98.3 100.7 103 103 101.7 99.8 96.3 95.5 94.5 93.4 92.9 92 91.2 91.2 91.2 90.9 90.7 90.4 90.5 90.6 90.8 91.2 89.8 89.9 89.9 90.5 91.5 92.9 94.7 96.5 99.1 99.9 99.8 99.3 98.6 97.2 95.9 95.4 95.3 95.1 94.9 94.6 94.4 95.4 92.8 92.8 92.8 92.8 94.8 93.1 92.8 94.5 98.7 106 106 106 107.2 107.5 108.8 112 115.8 119.5 122.3 122.9 124.7 124.6 123.9 122.4 121.2 120.6 119.9 119 118.1 117.3 117.3 118.2 119 120.2 120.4 120.6 121.3 122.8 130.6 111.6 106.3 98.6 110.7 144.1 151.4 148.1 146.5 143.6 140.5 138.6 136.4 136.1 135.2 133.2 132.1 131.7 132.1 131.1 129.3 127.8 126.4 124.6 123.7 122.6 122.4 121.4 120.5 119.5 117 113.9 114.3 114.4 113.4 114.2 112.1 110.8 109.1 105.6 103.5 101.7 99.1 97.5 95.3 93.5 91.8 89.5 87.4 86 83.9 82 80.2 78.5 77.2 76.1 75.6 75.4 74.9 74.6 74.9 73.6 71.7 70.4 70.4 70.4 70.6 72.2 73.7 73.8 71 66.4 65.2 69.5 73.5 72.3 73.7 73.9 73.6 72.9 71.5 70 70.3 70.1 69.2 70.1 71.3 71.8 72.1 72.4 71 68.9 67.9 70 74.5 77.1 77.7 80.1 78.2 74 70.7 68.2 65 61.8 58.4 59.9 61.5 61 59.6 57.8 54.4 54.5 56
92.8 92.8 93.3 93.8 94.6 96.4 99.1 101.9 103.5 103.5 102.3 98.2 95.7 94.7 94.3 93.6 92.5 91.3 91.3 91.3 91 90.7 90.6 90.2 89.9 90 91.6 90.7 90.3 89.8 89.7 90.2 90.9 92.2 93.6 96.2 98.4 98.8 98.8 98.1 95.3 93.6 93.1 93.3 92.9 92.7 92.5 92.2 92.6 92.8 92.8 92.8 92.8 92.8 92.8 92.8 97.1 100.4 100.7 107.8 109.3 112 112.9 113.9 116.2 117.6 119 119.8 121.2 121.3 120.9 118.6 116.7 116.4 116.2 115.8 114.7 113.8 112.7 112.4 112.7 113.4 114.9 115.9 117 117.9 118.3 122.5 133.7 108.1 106 115 147.3 146.8 145 142.6 137.5 137.9 138 136.4 134.6 133.4 131.6 130.8 130.5 129.6 128.5 126.9 125 123.3 121.3 120.2 118.7 119.4 118.1 117 115.9 114.6 112.3 111.9 111.7 110.5 109.9 108.6 107.3 104.1 102.7 100.1 98.5 97.6 96.1 94.3 92.7 91 89.2 86.8 84.9 82.8 81 79.1 77.5 76.3 75.8 75.7 75.5 75.1 75 75 73.9 71.8 70.3 70.4 70.6 71.3 73 73.6 73.5 72.4 66.9 65.7 71.3 75.3 73.7 73.2 73.9 73 71.4 70 69.5 68.5 68.7 69.5 68.5 67 67.2 67.9 68 67.7 67.6 66.7 66.2 66.6 67.7 71 74.2 73 70.7 66.7 61.1 57.5 55.2 54.7 56.2 58.4 59.8 59.3 57.9 53.9 50.4 53.2
92.8 92.6 92.8 93.5 94.8 96.2 97.1 99.3 99.6 101.7 103.3 100.5 97.5 96.1 95.5 94.1 93 91.9 91.5 91.3 91.1 90.9 90.8 90.4 90 89.9 90 90.2 89.9 89.5 89.5 89.6 90.1 90.7 91.3 92.1 93.4 93.9 93.7 93.3 91.5 91.3 90.6 90.6 89.6 89.7 90 89.9 90.3 90.9 92.8 92.8 92.8 92.8 92.8 92.8 97.3 101.2 103.9 107.9 112.2 114.1 116.5 116.7 117.1 117.6 117.4 118.2 118.2 117.1 116.1 113.6 112.4 111.3 111.1 110.8 110 109 108.6 109 109.4 109.7 110.8 112.1 113.2 113.9 114.1 115 120.7 132.9 111.2 120 140.8 137.8 136.6 135.4 134.1 132.3 132.6 131 129.6 128.9 127.7 125.7 125.8 125.2 124.2 122 119.8 118.2 116.7 115 115 115.1 114.3 113.3 112.3 111.3 111 110.7 109.7 108.9 109.3 108.5 105.3 103.2 101.5 99.9 98.1 96.8 95.6 94.2 92.5 90.7 88.9 87.2 85.6 83.2 82.3 81.3 79.3 77.7 76.9 76.5 76 75.9 76.2 76.7 74.1 72.1 70.3 70.5 72.2 72.3 72.8 72.8 72.8 73.9 67 67.4 73 74.1 72.6 71.4 72.1 71.6 69.8 68.6 69.5 68.7 68.4 68.9 68.8 68.7 67.8 68.7 66.9 66.2 66.5 67.6 69.6 68 63.6 64.4 66.7 67.2 63.6 60.7 56.1 51.8 50.8 51.3 52.2 55 57.9 58.5 58.6 54.7 48.2 48.6
92.7 92.2 92.2 93.9 95.5 96.9 98.3 98.4 99.3 100.3 101.3 101 98.8 97.5 97.3 95.9 93.6 92.9 92.3 91.9 91.3 91.2 90.9 90.9 90.8 90.5 90.4 89.9 89.5 89.3 89.2 89.4 89.2 89.2 89.5 89 89 88.7 88.4 88.3 88.3 88.2 89 87.6 87.3 87 86.6 86.9 87.2 87.5 88.5 92.3 95 92.8 92.8 92.8 92.8 99.3 103.9 107.7 113.1 115.2 115.5 116.4 116.4 116.3 116.1 115.4 113.8 112.3 111.2 109.3 108.1 106.5 106.1 105.6 104.9 104.9 105.2 105.4 105.7 106 107.1 108.3 109.3 110 110.4 111.3 112.3 115.2 113.1 121.7 125.1 121.7 126.1 125.2 124.6 123.3 123.9 123.9 123.1 122.1 121.1 120.4 120 120.2 118.8 116.7 115.3 114.8 114.1 112.8 113.2 113 112.3 111.3 110.5 110.2 109.9 110 109 108.2 108.6 108.4 106.1 103.8 101.3 100.4 99.8 98.6 97.3 96 94.9 94 93.1 91.3 89.2 87.3 86.7 86.4 84.9 83.3 81.7 80 78.9 78.1 77.6 78.8 76.1 72.1 70.7 72.6 74.5 74.1 72 71.3 72.6 71.1 66 66.7 69.8 70.8 69.7 70.1 70.2 69.3 68.1 68.1 68.6 67.9 67.3 68.2 67.7 67.1 67.2 69.4 68.2 65.4 65.5 68.1 68.7 66.4 62.6 60.3 60.1 60.9 61.6 57.1 52.5 48.3 47.6 48.1 48.3 51.5 54.8 58.1 58.8 56.5 50.8 44.7
93.4 93 93.3 94.6 96.1 97.6 98.7 100.6 101.7 101.9 101.1 100 99.7 100.3 99.6 97.3 94.7 94.1 93.5 93.4 92.8 91.6 91.8 91.8 91.4 91.1 90.9 90.4 90.6 89.9 89.7 89.6 89.5 89.5 88.9 89 94.4 97.5 97.3 96.8 93.6 89.4 89.9 89.4 88.9 88.6 88 87.4 87.1 86.9 86.6 88.5 88.3 88.8 89.7 91.2 92.6 96.3 102.8 106.8 110.8 112 112.6 113.6 114.4 113.5 112.7 111.1 109.5 107.9 106.3 105.1 103.9 102.6 101 100.6 100.4 100.9 101.4 101.7 102 102.3 103.6 104.5 105.4 106.2 106.8 107.7 108.5 109.9 111 111.5 115.4 116 115.6 114.2 114.6 115 115.5 115.9 115.3 115.8 115.1 114.4 114.8 114.7 114 112.6 112.5 112.1 111.7 110.7 111.2 110.9 110.3 109.4 109.1 109.6 111 112.5 112.8 111.7 109.8 109.9 109.2 106.9 104.6 103.5 103.3 103.1 101.8 100.4 99.2 98.4 97.2 95.4 93.6 92.4 92 92 90.8 88.6 86.7 84.6 83.2 81.9 80.3 78.4 76.6 72.1 71.9 74.4 76 75.4 72.9 70.1 69.9 68.7 62.8 65.6 67.7 68.2 66.8 67.1 67.4 67 66.7 66.5 66.7 65.6 66.9 68.4 67.2 66.7 67.2 69.3 70.1 67.6 62.2 63.7 63.3 62 60.7 59.4 56.4 53.9 56 59.2 53.4 46.7 45.4 45 44.9 46.5 52.3 56.6 58.3 55.3 49.1 42.2
94.4 94 93.5 94.7 95.6 96.8 98.6 101.5 103.7 103.8 102 100.1 100 100.7 99.7 99.2 97 95.9 95.6 95.6 94.9 93.1 92.7 92.3 92 91.7 91.5 92 92.2 90.9 90.6 90.5 90.6 91.7 91.6 92.4 96.3 97.9 98.5 98.3 96.2 93.1 92 91.4 90.6 89.8 89.1 88.6 88.2 87.9 88.3 86.7 87.3 88 89.8 90.7 91.4 93.6 96.9 103.8 106.6 108.1 109.5 110.8 111.2 109.8 108.4 106.7 104.9 103.3 102.2 101.1 100.2 99 97.1 96.3 96.4 96.8 97.4 97.9 98.2 98.8 99.8 100.7 101.5 102.3 103.2 104.1 104.9 106.2 105 104.2 104.2 104.8 104.5 104 104.4 106 107.6 108 108.9 109.3 108.9 109.2 109.6 109.3 109 109 108.9 108.8 108.8 108.6 107.9 107.2 107.8 109.8 111.7 113.6 115 115.4 115.3 115.4 114.4 113.1 113 111.7 109.9 109 108.2 107.2 105.9 104.4 102.9 101.8 100.1 98.1 96.1 95 94.9 94.2 92.9 91.6 89.9 88.2 87 85.1 83.2 80.8 74.9 71.7 73 75.7 76.5 76.5 74 70.2 69.1 68.5 63.4 67.4 67.8 68.2 66.6 65.1 65.4 64.8 64.2 63.5 64 63.9 64.8 63.3 63 64.4 65.4 66.4 67.1 65.1 58.4 59.3 59.8 59.1 58.9 57.8 55.7 50.9 49 51.3 54.8 49.5 43.9 42.1 41.5 42.7 44.8 48.9 49.3 45.4 41.6 39.7
95 94.9 94.4 94.2 95.8 98.2 98.9 101.5 103.9 105.1 103.7 101.2 98.3 97.3 98.1 98.3 96.9 96.3 96.4 97 97.2 95.9 94.5 94.3 93.4 93.3 94.1 94 93.5 91.9 91.5 91.2 91.6 92.5 92.8 94.4 97.1 98.4 99 99.1 97.6 95.7 94 92.8 91.6 90.7 90.3 89.7 89.3 88.9 89.3 89.8 86.4 87.3 88.2 89.3 90.4 91.3 96.3 99.7 101.4 103 103.9 105.1 105.7 104.6 103.4 101.8 100.4 99.7 98.3 96.7 95.9 95 93.6 92.1 92.3 92.8 93.3 93.9 94.4 95.2 96 96.8 97.7 98.1 98.9 99.8 100.8 101.9 101.2 100.9 101 101.3 100.8 100.4 98.9 99.3 99.7 101.1 102.2 103.1 103.5 103.7 104.1 103.9 104.8 105.4 105.1 104.7 104.6 106.3 106 105.3 106.7 109.2 111.1 112.9 116 115.5 114.3 114.6 115.2 114.8 114 112.4 111 110.2 109.6 108.5 107.4 105.4 104 102.3 100.5 98.5 96.6 95.4 94.3 93.7 92.6 91.7 90.8 90 88.9 87 85.3 78.9 73.6 71.6 73.2 75.8 76.8 77.3 74.3 70.8 68.2 67.5 65 62.5 67.7 68.3 66.6 65.2 64.3 63.1 62.3 61.8 61.9 61.9 60.4 59.3 58.9 58.8 57.5 57.3 60.1 60 56.2 56.6 58.3 57.6 58.1 57.6 53.2 48.2 46.3 45.5 46.3 43.8 41.1 39.9 39.2 39.1 40.3 40.6 39.3 37.9 37.7 37.2
95.6 95.3 94.9 94.8 97 100.7 101.2 101.8 103.6 104.6 104.5 101.9 98.7 96.8 96.5 97 96.9 96.3 95.5 95.5 95.7 95.8 95.2 94.4 95.1 95.9 96.8 96.4 94.8 93 92.5 92.5 93.3 94.4 94.6 94.7 97.2 98.2 98.9 99.6 98.9 97.7 96.2 94.5 92.8 91.6 91.3 90.9 90.8 90.4 89.5 88.7 87.4 85.9 86.3 87.3 88.5 89.7 91 93.1 96 98.1 98.3 99.1 99.7 99.3 98.3 97.5 96.8 96 94.3 92.6 91.5 90.6 89.5 88.8 89.1 89.6 90.1 90.6 91 91.4 92.1 92.9 93.7 93.8 94.3 95.4 96.5 97.6 97.8 97.7 97.9 97.5 97.1 96.8 96.5 95.7 96 98.3 98.8 98.2 98.8 99.6 100.9 100.9 100.5 100.3 100.2 100.5 101.4 102.3 103.8 104.5 104.5 106.6 108.7 110.7 111.8 112.2 112 112.7 113.4 112.9 111 109.7 109 108.3 107.5 106.6 106.2 104.3 102.4 101 100 98.3 96.5 96.1 94.1 93.3 92.5 91.8 90.9 90.6 90.5 88.7 84 75.4 73.2 72 72.2 75.1 76.6 76 72.5 69.1 67.7 67.4 67.1 58.1 67.7 68.2 66.8 65.5 64.7 62.6 61.5 60.7 59.5 59.3 57 53.5 51.8 48.8 47.3 47.4 50.4 50.4 52 57.2 58.6 58.9 59.2 57.2 51.5 46.7 43.2 42.1 41.5 40.5 39.4 39.1 38.6 38.1 37.7 37.9 36.9 36.2 36.6 37.4
96 95.6 95.2 96.1 98.3 100.7 102.2 102.7 104.4 105.1 104.7 102.7 101.4 98.9 98.8 98.4 97.4 97.3 96.3 95.6 95.4 95.7 96.3 96.3 97.4 98.2 98.7 98.7 97.1 96 95.4 95.7 95.6 96.7 97.5 97.6 97.7 97.7 98.2 98.9 99 98.5 97.5 96.6 95.2 93.6 92.9 92.9 92.9 92.1 91.2 89.6 88.8 87.5 86 84.9 86.2 87.6 88.6 89.8 91 93.1 93.1 93.5 94.2 93.6 92.8 92.9 93.1 92 90.3 89 87.6 86.5 86.1 85.8 86.2 86.6 87.1 87.6 87.9 88.1 88.6 89.3 90.2 89.9 90.5 91.6 92.8 93.9 95.1 95 94.5 94.1 93.8 94.2 93.8 94.2 95 97.6 98.2 98.4 99.4 100.5 100.5 99.9 98.1 96.7 96.3 97.5 98.4 99.4 99.8 100.9 101 103 104.5 106 107.2 107 107.1 107.8 107.7 106.3 104.9 104.8 104.7 104.2 104 103.7 102.3 100.7 99.1 98 97.1 96.5 96 94.7 93.4 92.2 91.8 91.8 91.2 91.2 90.3 87.2 78.6 74.7 73.2 71.6 71.4 73.6 74.4 73.1 70.1 67.9 67.2 67 66.7 60.2 65.6 67.4 66.1 65 64.1 62.7 61.9 61.2 60.4 58.4 53.1 47.1 44.7 43.7 42.3 41.9 42.6 45.5 51.2 57 57.7 56.6 56.1 55 49.2 44.8 40.8 39.1 39.3 38.3 38.4 38.2 38.2 37.7 36.9 36.8 36 34.9 35.5 35.6
96.3 95.9 95.5 96.6 97.7 100.3 102.4 103.2 105.5 105.9 105.4 104.6 103.8 101.9 101.5 100.5 99.1 100.6 99.6 98.5 97.3 98.4 98.7 98.5 99.7 100.3 100.6 100.9 100.2 99.1 98.4 98.6 98.4 98.3 99.4 100.7 99.8 99.6 99.1 99 98.9 98.3 97.5 96.8 95.4 94.4 94.5 94.5 93.5 93 92.1 90 89.5 89.1 88 86.6 85 85.6 86.3 87 88.2 89.2 89.5 89.6 89.7 89.7 89.4 89.3 89.8 89.2 88 86.9 85.8 84.9 84.6 84.6 85.1 85.6 86.1 86.4 86.4 86.3 86 85.8 86.9 87 88.4 89.9 91.3 92 93 92.8 92.4 91.8 91.5 91.9 92.3 92.8 94.6 97 97.9 98.6 99.6 100.2 99.6 97.8 95.9 94.2 93.7 95 96.5 97.1 97.2 97.3 97.6 98.2 99.2 100.5 100.6 100.4 100.4 100.9 100.3 100.7 100.2 100.6 100.4 99.9 99.6 99 98 96.9 95.8 95.1 94.2 93.5 93.2 92.9 90.9 89.5 89.1 87.8 86.3 86.1 84.3 79 75.8 73.9 72.6 71.4 70.4 71.1 71.7 70 68.2 67.4 67 66.7 65.7 64.9 63.9 64.6 63.5 63.4 63.4 62.1 61.2 60.4 59.8 57.4 50 45.3 51.3 52.5 47.6 42.6 41.3 41.6 45.6 50.8 52.3 50.3 49.1 48.1 44.9 42.2 38.8 37 36.7 36.4 37.3 37.1 37 37 36.2 35.9 36.3 36 33.2 32.7
96.6 96.1 95.8 96.4 97 99.4 101 102.6 105.6 106.9 106.1 106.1 106.3 104.9 103.8 102.7 100.2 101.4 102.3 101.4 99 100.1 101 99.5 100.8 101.4 102.1 102.7 103 101.5 101 101.1 100.8 100.6 100.4 101.5 102.1 101.6 101 100.4 99.7 99.1 97.9 96.9 96 95.1 95.3 94.5 93.5 92.7 91.7 90.7 90.3 90 89.4 88.8 87.2 85.8 84.6 84.7 85.2 86.1 86.8 86.9 87.6 87.6 87.4 87.6 88.1 87.3 86.5 85.6 84.5 85.1 86.1 83.8 84.3 84.7 85 85.4 85.4 85.2 85.2 84.8 84.9 85.8 87 88.4 89.4 90.1 90.8 91.3 92.1 92.5 92.8 93.6 93.9 93.9 94.1 95.9 96.6 96.7 97.7 98.4 97.7 95.9 94.2 93 91 92.2 93.8 94 94 92.8 91.8 93.1 94.3 95.4 94.7 93.9 93.7 94 94.9 94.5 93.6 95.2 94.9 94.6 94.5 93.7 93.1 92.2 91.5 91.2 90.1 89.3 88.7 88.1 87.2 86.1 84.1 82 80 78.4 77.4 76.1 74.7 73.3 71.8 70.6 70.2 69.5 68.8 68.4 67.7 67.2 66.8 65.9 65 64.1 64.1 63.5 61.9 61.9 62.8 62 60.2 59.8 58.9 54.1 47 52.1 56.1 56 52.3 44.5 41.2 40.2 40.4 43.8 44.9 44.7 43.8 42.4 41.7 39.6 36.5 35.1 35.6 35.6 36.2 35.9 35.1 34.5 32.5 33.8 32.8 33.7 34.2 33.5
96.6 96.1 96.2 96.8 97.2 97.5 99.4 102.4 106.6 107.9 107.2 107.4 108.2 107.2 106.3 104 101.2 101.3 102.8 101.5 99.4 101.3 101.9 100.4 100.5 101.2 101.8 102.6 103.4 103.6 103.1 103 103.8 103.6 103.3 102.7 104 103.5 102.8 101.5 100.3 99.2 97.5 97 97 96.3 95.6 95.5 93.9 92.8 91.7 91.5 92.1 91.2 90.2 89.5 88.9 87.5 86 84.7 83.9 84.1 84.1 85.4 85.6 85.5 85.4 85.9 86.4 85.6 85 84.2 83.7 83.6 86.1 84.4 83.5 83.8 84.1 84.4 84.6 84.6 84.6 84 83.9 84.9 86.1 87 87.6 88.3 89.3 92.2 93 93.9 94.3 95 95.5 94.9 94.9 94.9 95.3 95.4 95.8 95.9 95.8 94.2 93 92 89.6 88.9 90.6 91 91.3 88.9 87.4 87.2 89.7 91.4 91.6 90.4 89 88.4 89.1 89.1 88.3 88 87.7 87.5 87.4 87.1 86.5 85.7 84.4 84.8 83.8 83.5 83.2 81.6 80.6 79.7 79.5 78.7 77.4 76.7 75.5 75.6 74.1 72.3 70.9 70.5 70.1 69.4 68.7 67.9 67.3 66.9 66.4 65.3 64.4 63.7 63.5 63 60.9 59.9 60.6 60.6 59.1 58.8 57.4 50 45.9 53.7 56.1 56.3 51.9 44.3 40.9 39.4 38.8 40.2 41 41.6 39.9 38.2 38.1 36.2 32.5 34.1 36 35.8 33.8 32.7 31.6 30.9 28.7 29 28.1 27.8 29.7 31.3
96.7 96.4 96.6 97 97.4 97.7 98.5 101.9 106.5 108.9 109.2 109.4 109.2 108.3 107.2 104.9 103 102.2 102 100.8 101.2 103.4 103.3 102.6 101.8 101 101.7 102.7 103.6 104.3 104.4 104.4 106 106.5 106.6 105.9 105.6 105 103.9 102.6 100.9 99.4 97.8 97.4 97.3 97.4 96.9 96.3 94.9 93.7 93.1 92.7 93.2 93.3 91.2 89.8 89.2 88.5 87.8 87.4 88 86.1 83.7 82.9 83.3 83.5 83.6 84.1 84.7 84.1 83.3 83.5 83.2 83 83.4 82.9 82.9 83.1 83.2 83.4 83.9 84.1 83.8 83.3 83.4 84.6 86.2 87.2 87.4 87.6 88.5 90.6 93 94.5 95.7 96.5 95.9 95.1 94.7 94.4 93.3 94.1 94.6 94.5 94.2 93.4 92.3 91.3 89.1 87.4 88.1 89.5 87.6 86.6 86 85.2 84.2 86.1 86.6 85.6 85.1 83.9 84 83.6 82.4 81.9 80.7 80 79.1 79.1 78.9 78.4 78.1 78 78.1 78.2 77.8 77.4 77.7 76.9 76.5 76.3 75.7 75 74.7 74.8 74 72.1 70.7 70.3 70 69.4 68.6 67.9 66.9 66.5 66 64.9 63.7 63.2 63 62.5 60 57.2 58 59 58.2 57.6 54.2 47.7 44.9 48.2 50.9 53.3 49.1 43.6 40.2 38.8 38 37.8 38.3 38.7 37.6 34.8 33.3 30 27.7 27.2 30.1 30.5 28.7 27.9 25.6 26 24.9 24.8 24.9 26.4 27.8 32.7
97.2 97.1 97.5 98.1 98.1 98.3 99 101.4 106.9 109.6 109.6 109.5 109.4 108.9 108 106.1 104.4 103.4 103.2 101.9 103.1 105 104.6 103.9 103.2 102.4 102 102.9 103.7 104.8 105.2 105.8 107.5 109.1 108.8 107.8 106.3 104.5 103.6 102.3 101.2 99.6 98.3 98.2 98.5 98.3 97.7 97.2 95.9 95 94.7 94.3 94.6 94.3 92.2 90.4 89.4 88.7 88.3 88.4 88.6 87.1 86.3 86.2 84.6 83.3 82.6 82.6 82.6 82.5 82 81.8 81 81.7 82.9 82.1 81.9 81.9 82.1 82.5 83 83.4 83.1 82.6 82.8 84.3 85.9 87.4 87.6 87.8 87.7 88.5 89.7 91.1 92.2 93.7 94.8 94.4 93.9 93.5 93.4 93.7 93.8 93.7 93.1 92.2 91.4 90.6 89 87.4 86.6 86.2 85.8 85.4 84.7 82.7 81 80.9 81.5 81.6 82.3 81.8 80.3 80.8 78.5 76.4 76.4 75.6 75.2 75.2 75.4 74.6 74.7 74.5 74.6 74.5 74.7 75.7 75.3 75.3 75.3 75.1 74.3 73.9 73.8 74 73.9 72.1 70.7 70.2 69.8 69.3 68.6 67.8 66.9 66.1 65.7 64.6 63.1 62.7 62.1 61.1 59 48.8 50.7 56.1 56.6 54.7 50.9 46.8 44 45.3 47.2 49.2 47.9 43.8 40.1 38.9 38.1 37.9 37 36.1 35.1 31.6 28.5 27.2 26 24.9 24.4 24.2 24.3 24.1 23.1 22.4 22.4 22.4 22.8 25.6 27.1 30.7
97.8 98.5 99.4 101.1 101.4 101.2 100.6 104.4 105.5 108.8 109.1 109.3 109.4 108.9 108.6 107.9 106 104.8 104.8 103.8 104.8 105.9 105.8 105.1 104.9 104.4 103.7 103.8 104.4 104.1 104.9 107.3 109.5 110.8 110.4 109.4 108.1 105.9 104.6 102.4 101.1 100.6 100.2 99.8 99.8 98.6 98.2 97.9 97.2 96.5 96.1 94.8 94.9 93.8 92.6 91.7 91 90.1 89.3 88.7 88.2 87.9 88.5 88.3 86.9 85 83.5 83 82.5 82.3 82 82 81.3 80.9 81.1 81.2 81.2 80.8 80.6 80.8 81.5 82.3 82.4 80.5 82.3 83.9 85.2 86.6 87.9 88.1 87.8 87.5 88.4 88.2 90.1 89.2 91.1 92.4 92.9 92.5 93 93.3 93.1 92.9 92 91.1 90.7 90.2 88.8 87.3 85.7 84.9 84.5 84.1 82.7 81 79.7 78.9 79 79.4 79.2 78.2 76.9 76.2 75.6 73.7 73.7 72.2 74.2 74 73.3 72.8 71.5 71.2 71 70.8 70.6 73 72.7 72.7 73.3 73.8 73.9 74.1 73.5 73.4 73.2 70.1 69 69.2 69.3 69.2 68.4 67.7 66.8 65.9 65.3 64.1 62.4 61.6 60.6 59.6 57.8 55.4 43.9 51.5 53.8 52.5 49.6 46 43.6 43.8 45.6 46.2 44.1 41.6 39.8 39 38.2 38.1 38.1 34.8 30.8 28.3 26.2 23.8 23.4 22 21.6 21.7 21.9 21.8 21.3 21.4 21.6 21.6 21.8 24.5 27.2 28.1
99.4 102.3 105.1 104.3 110.9 112.9 108.7 102.5 105.6 109.3 108.6 108.8 109.1 108.2 108.9 109.7 108.3 106.9 107.4 106.5 106.2 107.1 107.1 106.9 106.8 106.6 105.9 105.2 105.7 105.3 106.8 109.5 111.3 112.2 112.1 111.1 109.9 108.2 106.9 105.6 103.4 103 102 100.4 99.9 99.1 98.8 98.4 97.8 97.2 96.5 95.2 95.4 95 94.3 93.4 92.6 91.7 90.8 90.3 89.8 89.3 90.3 89.6 88.6 87.7 85.9 84.2 83.1 82.5 82.1 82.2 81.7 81.5 81.3 80.7 80.7 79.4 79.5 79.4 80.9 79.3 77.3 76.4 78.4 80.8 82.8 85.4 87.3 88.4 87.8 87.5 87.7 88.5 88.4 88.1 89.4 89.4 89.4 89.7 90.9 91.6 91.7 90.7 90.5 90.1 90.3 89.7 88.6 86.9 85.2 83.7 83.7 83.8 81.4 79.5 78.4 77.2 76.1 74.1 72.1 70.2 69.1 69 68.4 68.1 69.6 69.6 71.1 72.1 70.5 71.3 70.4 69.5 69.1 69 69.2 70.3 70.1 70.2 70.7 71.5 70.7 71.6 71.1 70.8 68.7 67 67.1 67.3 68 68.3 68 67.5 66.6 65.8 64.9 63.5 61 59.7 58.7 57.4 55.4 53.2 48.3 47.6 51.5 50.3 48.4 45.3 43.7 43 42.9 43.3 42.1 40.6 39.2 38.5 38.3 38.3 38.2 36.8 31.7 27.9 25.9 22.9 22 21.3 22.2 20.9 20.4 20.4 20.2 20.5 20.8 20.8 21.8 24.1 26.9 27.9
101 106.1 106.9 107 111.5 114.2 114.9 109.9 109.2 110.1 110.3 108.8 108.9 109.4 110.2 111.1 110.3 109.4 109.9 109.5 108.7 108.1 108.2 108 107.8 107.9 107.9 107.3 106.5 106.5 107.3 110.3 111.8 112.8 113 112.8 111.7 110.4 109.1 107.9 106.5 104.3 102.5 101.1 100.1 99.6 99.1 98.5 98.1 97.3 96.9 96.1 96.6 96.1 95.5 95 94.1 93.1 92.1 92.2 92.2 91.4 92.2 91.3 90.5 90.3 89.1 87.3 86.2 85.6 84.7 82.9 83.6 84.3 83.9 84.4 82.6 82.7 83.6 84.1 79.9 79.5 80.4 80.9 76.4 74.8 73.1 82.6 85.8 86.3 85.9 86.2 87.7 88.6 87.4 88 89.1 88 86.2 86.1 86 88 88.3 87.5 86.7 88.1 87.4 86.1 85.2 85.3 82.2 81 80.1 80.2 78.6 77.4 75.4 71.9 66.2 66 64.5 63.8 63.3 64.2 66 65.2 64.5 65.7 67.9 68.5 68.9 69.7 69.2 68.2 67.3 67 66.5 66.9 67.5 67.7 68.9 69.2 68.7 67.6 66.2 64.4 64.3 64.7 64.4 64.3 64.9 65.7 66.4 66 65.5 64.4 62.4 61.2 59 57.4 56.5 55.2 52.9 50.9 47.1 44.9 50.1 49.7 47.6 45.9 44.2 42.7 41.7 41.7 40.4 39.4 38.6 39 38.1 38.3 38.4 37.8 33.8 30.9 27.1 24.3 23.3 22.8 25 23 21.4 22.5 22.2 20.3 20.7 21.5 23.9 25.6 25.5 25.3
101.9 105.9 108.7 106.5 105.9 110.2 113.1 113.6 113.2 113.6 113.2 111.5 111.2 111.1 111.3 111.5 111.7 112.2 111.7 110.7 109.8 109.3 108.8 108.8 108.6 109 109.3 109.2 108.4 107.7 107.9 109.6 111.1 111.8 112.2 112.6 112.7 111.2 109.8 108.9 107.3 105.2 103.2 101.9 100.4 99.8 99.3 98.8 98.5 97.2 97.1 96.9 97.7 97.1 96.6 95.8 95.7 94.2 93.7 94 94.3 94.8 95 94.6 94.4 93.9 92.2 92 91.4 90.8 89 87.5 87.6 87.4 87 86.9 86.3 85.6 86.3 87.5 86.8 86.2 85.6 85.4 82.7 79.8 76.6 76.7 82.4 83.5 83 83.3 84.7 85.9 86.2 87.8 87.4 86.3 84.1 82.5 82.4 83.6 84.1 83.2 83.7 82.7 82.3 81.4 81.5 79.4 77.8 76.1 75.3 74.7 73.6 70.5 65.8 64 63.2 62.7 62 60.2 60.1 61.2 62.3 64.5 65.2 67 68.1 68.2 67.4 66.8 67.4 66.9 66 65 64.2 63.3 63.4 65.9 66.5 66.9 67.2 66.9 64.2 64 64.4 63.6 63 61.8 61.9 61.1 58.4 61.1 61 59.8 57.8 53.5 50.7 51.6 51.7 51.3 51.2 49 43.1 47 48.3 47.1 45.5 44 42.6 41.6 40.7 40.1 39.5 39.4 39.5 39.2 37.9 38 38 37.5 37.4 33.8 29.6 25 23.9 23.6 26.4 24.7 24.1 24.6 23.8 22 22.9 25.7 26.3 25.7 24.6 24.3
105.3 107.9 109 105.3 104.3 106.5 110.8 114.6 114.6 115.9 116.3 115 114.5 114.2 112.5 112.3 112.6 112.9 112.6 111.7 111 110.5 110 109.6 109.7 110 110.3 110.5 110.7 110 108.5 109 110.1 110.7 111.3 111.6 111.5 110.5 109.6 108.9 107.8 105.6 103.8 102.3 100.8 100 99.4 99.1 98.8 97.3 96.9 97.8 98.6 98 97.2 96.4 95.9 96.3 95.9 96.1 96.9 98.4 98.5 98.1 97.5 96.9 96.3 96 95.5 94.7 92.5 90.8 89.4 88.8 88.4 88.3 87.8 86.8 86.2 87.5 88.3 87.7 87.1 86.8 85 83.1 79.8 71.5 77.8 79.8 80.1 80.4 81.6 82.7 83 84.8 84.3 83.8 82.7 82.2 82.6 83.5 82.8 81.6 81.1 78.5 79 79.2 78.5 78.8 80.2 78.9 79 76.1 69.3 65.5 64.4 67.8 72.4 73.3 73.7 72.3 65 59.7 58.9 63.7 67.4 67.9 68.5 68.6 67.2 64.9 57.1 56.7 56.7 57.4 59.2 59.5 57.5 56.2 57.4 59.6 63.5 65.1 62.8 63.4 64.7 64 63.1 58.6 54 50.7 46 45.9 46.8 45.7 44.4 42.8 42.2 42.7 42.3 42.4 43.8 44.9 39.1 44.4 45.5 44.8 43.5 42.2 41.1 40.1 39.1 39 39.1 38.6 38 37 36.8 36.4 35.3 36.3 37.3 36.1 31.2 24.8 24.7 24.7 26.7 26.5 24.7 23.1 22.2 23.9 25.4 28.1 29.1 27.9 25.1 25.5
104.8 107.1 106.4 104.9 103.4 104.4 114.5 118.3 118.5 119.3 121.8 120.8 119.4 115.8 114.2 113.2 113.5 113.6 113.6 112.8 112.2 111.7 111.5 111.2 110.8 111 111.3 111.4 111.6 112 110.3 109.8 110.2 111 111.6 111.3 110.9 110.3 109.7 109 108 105.6 104.1 102.7 101.2 100.5 99.6 99.4 99.4 97.8 97.2 98.6 100.6 98.9 97.8 97 96.4 96.9 98.2 98.4 99.5 100.1 100.1 99.4 98.8 98.2 98.4 98 97.4 96.2 94 92.4 91 90.4 89.3 89.1 88.6 88.1 88 88 89.2 88.6 88.3 87.9 87.3 86.8 83.9 83.6 70.4 69.2 72.7 76.3 77.4 78.9 79.6 81.2 81.6 81.7 81.4 81.8 82.5 83.3 82.1 81 79.1 77 79.9 80 78.9 76.9 70.5 68.9 70 69.8 66.7 65.9 76.8 79.9 81.9 78.1 73.1 72.6 72.6 67.7 59 61.1 67.6 68.5 69 68.5 66 57.5 53 52.1 51.1 51.8 51.9 52.6 51.9 49.6 51.8 48.9 52.6 55.4 58.5 61.3 62.2 60.7 56.6 51.3 46.6 44.4 46.1 47.5 46.7 46.1 46.5 47 46.8 45.2 43.9 42.3 40.6 39.8 37.3 39.8 41.2 41.7 41.4 41 39.6 39.5 38.8 39 38.1 36.9 36.9 36.8 34.4 32 31.2 30.6 31 31.8 29.5 25.8 25.5 28.1 28 25.1 23.9 25.7 27.5 27.1 28 28.9 28.9 26.9 25 25.4
102 101.5 102.6 102.6 102.3 103.7 115.6 120 124.5 127.5 129 130.5 124.4 118.1 115.8 114.5 114.2 114.1 114.7 114.3 113.9 114.1 113.7 113 112.7 112.1 112.3 112.4 112.9 113.4 111.7 111.3 111.4 111.7 111.7 111.2 110.7 110.2 109.6 109.1 107.4 105.7 104.8 103.4 102.1 101.8 100.6 100.6 100.4 98.9 98.3 99.7 101 100.4 99.2 98 97.7 98.1 98.6 100.2 101.5 101.1 100.8 100.3 99.6 99 99.2 99.3 98.2 96.6 95.3 94 92.7 91.8 90.6 89.6 89.3 89 88.9 89.7 90.1 91 91.4 91.8 92.1 92.7 91 88.5 84.7 79.8 68.2 62.1 66.1 70.3 71.7 68.8 78.6 79.8 79.7 80.3 80.5 80.6 79.5 77.2 76.8 76.8 77.3 76.7 69.8 68.7 71 69.7 67.2 67.3 71.3 79.9 83.5 83.8 82.6 80.2 77.6 74.1 71.8 69.9 65.4 62.9 67.8 68.4 68.1 67.5 65.5 62.3 58.1 55.1 53.5 53.7 55.1 55.4 55.6 57.8 60.2 55.8 51.4 46.9 50.7 53.5 53.9 52.5 49.9 46.3 45.6 51.9 57.2 57.5 56.9 57.4 56.8 55.7 53.1 49.9 47.8 46 45.8 42.8 39 38.2 39.9 40.8 40.5 40.7 40.9 40.8 40.3 40 39 38.3 38.4 38.3 38.4 37.1 35.7 32.9 30.3 28.2 26.1 25.9 24.8 24.6 24.9 29.2 33.3 33.1 30.5 29.4 29 29.6 28.5 26 23.9 25.6
92.3 94.2 99.4 98.8 100.6 102.3 112.3 123.1 126.9 132.4 136 135.2 128.8 120.6 117.4 115.6 114.7 114.8 115.8 116.1 116.3 116.2 115.4 114.9 114.5 114.1 113.6 113.5 113.8 114.3 113.1 112.7 112.6 112.6 112.2 111.5 111.6 111.1 110.7 110.2 108.4 106.4 105.2 104.2 103.1 102.5 101.5 102.1 101.5 100.7 100.7 101.5 102.5 102.4 101.6 101 100.5 100 99.6 100.2 101.5 101.8 100.9 99.8 100.2 99.8 99.6 99.2 98.4 96.7 95.4 94.8 94.1 93 91.9 90.8 90 89.8 89.9 91.3 93.2 94.1 96.7 98 97.9 98.9 99.6 96.1 93.7 92.9 89.3 84.3 79.9 72.7 66.5 58.6 63.8 67.9 78 78.3 78.1 77.8 76.9 76.4 76.1 75.9 76.9 75.6 74.1 73.4 74.3 74.6 74.1 77.3 80.2 80.8 78.6 79.2 78.3 79.2 78.4 76.4 73.6 69.8 66.8 66.9 67.4 67.7 67.5 65.6 63.2 61.7 59.6 57.7 56.2 56.4 58.3 59.3 58.8 59.7 60.7 60 56 52 49.3 46.5 46.7 46.8 48.5 48.1 44.3 54.7 59.6 60 59.8 57.7 56.3 54.2 52.8 50.7 48.7 46.9 46.4 44.2 36.5 35.4 38.3 40.8 41.4 40.8 41.3 40.6 40.5 40.1 40.2 39.7 39.5 39 38.6 38.7 37.7 36.3 33.9 30.3 28.8 28.3 28.6 29.9 30.7 32.6 34.4 34.9 33 31.2 30.4 29.7 28.3 26.7 25.1 25.8
81.5 87.7 92.5 92.8 98.7 102.9 105 117.7 126.5 129.5 136 135 129.5 121.8 118.3 116.7 115.4 116 117.1 116.8 117.8 118.4 117.9 117.4 117.5 117.4 116.2 115.7 115.2 114.8 114 113.6 113.5 113.5 113 111.9 111.9 112.3 112.3 111.8 110 107.8 106.8 105.7 104.7 103.5 103.5 103.4 103.1 102.9 102.6 103.3 104.1 104.2 103.5 103.3 102.7 101.9 101.5 100.9 100.3 99.8 100.1 99.2 99.8 99.7 99.1 98.8 98.5 96.8 95.3 94.6 93.6 92.7 91.8 91 90.8 90.6 91 92.4 97.7 100 99.4 99.1 100 100.3 99.9 96.9 95 93.1 91.3 88.3 83.4 80.9 80 75.5 59.4 59.3 72.1 76.6 76.2 76.3 76.5 75.8 75.4 75.2 76.2 77.7 79.3 78 77.8 77.1 77.2 77.3 77.3 76.7 76.9 79.2 80 78.9 76.1 71.9 70.7 68.9 68 66.9 66.3 65.8 64.8 61.7 58.9 57.6 56.5 55.2 54.6 55.2 57.4 58.3 58 57.1 58.1 58.8 56.4 52.5 51.5 51.8 52.7 52.5 51.7 50.4 44.2 52.7 55 55.1 55.1 55.1 52.4 51.9 49.6 50.3 50 48.3 44.7 38.6 35.1 37.2 40.9 41.1 41.5 41.1 41.3 40.5 40.2 41.1 40.9 40.2 39.6 38.9 38.2 37.4 36.6 35.4 34.2 31 27.6 27.8 27.5 27.8 28.5 30.4 32.8 33.5 32.6 31.8 30.8 29.9 29 27.8 25.9 26.9
75.6 83.4 86.5 91.2 97.6 102 105.3 108.6 116.2 120.8 128.1 132.1 128.5 122.1 119.5 119.2 118.4 119.1 119.5 120.8 122.5 123.6 125.3 125 124.6 123.7 120.8 118.7 117.4 116 115.3 114.8 114.4 114.3 113.5 112.4 112.3 112.6 112.9 112.9 111.5 109.6 108.8 107.7 105.8 105.2 105.3 105.3 103.9 103.8 104.2 104.7 105.4 105.6 105.2 104.9 104.8 103.4 102.2 101.5 101 100.1 98.8 98.6 99 98.6 98.5 98.5 98.6 97 95.2 94.2 93.2 92.2 91.3 91.4 91.5 91.5 90.9 93.1 97.9 99.3 98.3 100.2 97.8 96.1 94.7 93.5 92.9 92 90.9 88.9 86.8 83.5 82.6 80 76.7 53 73.7 74.6 74.4 74.7 75.9 75.6 74.7 74.5 75.4 77.1 78.4 77.7 79 78.5 77.3 77.4 78.5 77.7 77.5 75.7 74.9 73.6 71.7 69.1 68.6 67.9 67.2 65.9 64.6 63.3 61.4 57.9 54.5 53.4 52.2 51.8 53.3 54.8 56.2 57.9 57.2 56.3 55.6 55.4 53.8 50 51 51.6 51.9 52.3 51.6 48.8 44.3 47.6 50.7 51.5 51.4 53 51.9 51.4 50.7 50.6 50.4 48.4 39.8 34.2 33.7 41.4 41.4 41.6 41.9 42 41.1 41.3 41 40.2 39.5 38.5 37.9 37.2 36.4 35.6 34.8 34.5 33.6 32.3 31.6 29.5 28.9 29 29.7 29.9 30.5 30.8 30.8 30.4 30.4 29.7 29.5 28.6 25.6 26.4
68.2 75.4 79.7 89.8 97.3 100.7 103.1 106.9 111.2 114.4 117.9 123.7 122.6 120.7 120.3 120.3 124.3 126.3 125.9 126.4 129.7 132.2 135.5 134.8 132.3 132.1 131 126.7 121.1 118.2 116.3 115.8 115.3 115 113.9 112.8 112.8 112.9 113 112.8 111.4 109.7 109.4 108.7 107 106.7 107.1 105.5 104.6 104.2 104.9 105.6 105.8 106.1 106.3 106.3 106.1 104.5 102.9 102.1 101.6 100.3 99.1 98.4 97.9 97.5 97.2 97.1 97 97.1 95.7 94.1 93.2 92.4 92.1 92.3 92.3 91.3 93.4 92.9 92.2 94.4 93.8 94.1 92.1 90.9 89.7 89.7 89.7 89.4 89.7 88.6 86.5 84 81.7 79.5 77.6 69.5 59.8 73.7 72.7 73.6 75.3 75.5 74.9 75 76.9 77.8 78.3 78.8 80.1 80.2 79.9 78.3 78.4 77.2 75.8 73.9 72.9 73.4 74.5 73.5 71.5 69.1 66.8 65.2 63.9 62 57.7 54 50.5 50.9 49.8 48 49.6 54.3 55.2 56.4 56.8 55.7 53.2 49.1 46.9 46.8 47.1 48.4 49.3 48.4 47.6 44.3 44 46 48.4 50.2 50.9 51.6 51.7 51.4 50.6 50 47.9 42.7 33.2 42.9 42.7 42.8 41.9 42 41.9 41.4 40.8 41.8 41.2 39 37.9 37.1 36.1 35.5 34.7 33.9 33.4 33.3 32.5 31.5 31.2 30 29.7 28.4 27.6 28.2 28.1 28 28.3 28 28.2 28.1 27.6 27.8 23.3 23.7
72.3 67.8 78.5 90.9 97.1 98.4 101.1 106.1 111.8 113.8 114.7 115.4 117.4 118.4 118.3 121 125.6 126.5 128.9 131.8 132.8 131.9 133.2 132.5 132.9 134.5 135.8 134.3 129.2 121.2 117.6 115.6 114.7 113.6 114 112.7 112.7 112.8 112.8 112.7 111.3 110.4 110 109.4 107.9 107.2 106.8 105.7 105.4 105.3 104.9 104.9 105.3 105.7 106.1 106.5 106.4 105.6 104 102.7 101.8 100.9 100.1 99.3 99.4 98.2 97.5 97.4 97.2 97 96.5 94.6 93.8 93.1 92.9 92.6 92.1 90.3 90.7 91.1 88.9 89.4 89.9 89 88.5 87.8 87.1 87.1 87.2 88.2 89.2 86.4 84.1 81.8 78.9 77.9 78 77.6 54.1 64.2 72.1 72.2 73.9 75.6 76.3 77.4 79.2 79.9 80.4 80.5 81.2 81.9 82.4 80.2 77.2 74.1 72.6 72.6 76.7 80.4 81.3 78.2 74.3 70.5 66.9 64.5 61.4 56 53 54.1 51.3 51.3 51.3 49.5 47 49.1 53.3 54.7 55.5 52.3 49.1 47.9 48.1 47.9 47.9 46.7 45.8 45.2 44.6 44.2 43.6 43.4 45.5 48.4 50.5 51.6 51.6 51.5 50.7 47.9 42 33.1 44.9 46.2 44.8 43.9 43 42.4 41.8 40.9 40.4 40.6 40.1 37.7 37.1 36.5 35.6 33.9 33.1 32.8 32.3 31.2 29.7 28.2 27.4 26.7 26 26.5 25.5 25.8 25.7 25.6 25.6 25.5 25.8 25.3 24.6 24.7 22.7 22.8
75.7 67.4 74.7 86 93.8 97 100.6 104.2 108 109.1 110.3 111.9 113.8 114.7 116.3 119.5 119.1 119.9 124 128.9 125.5 123.3 123 122.1 123.2 124.1 125.1 126.3 126.5 123.4 119.6 116.1 114.7 113.8 112.9 112.1 112 112.2 112.4 112.2 111.4 111 110.6 110 108.9 107.7 107.1 106.4 106.1 106 105.9 105.7 105.9 106.1 106.3 106.3 105.9 105.3 104.2 103.2 102.4 101.5 100.6 99.8 99.6 98.9 98 97.7 97.5 97.4 96.8 95.1 94.4 93.7 93.1 92.9 91.4 89.3 88.3 88.2 87.5 87.3 87.5 87.2 86.6 86 85.4 85.1 86 86.9 85.4 82.5 79.6 78.2 77.5 77.4 77.6 68.1 56.5 67.3 73.2 71.2 72.5 74.6 76.6 78.1 80.3 82.2 83.2 81.1 80.9 81.7 82 79.2 76.1 75.8 75.2 74.3 76.6 80.6 80.2 77.6 72.6 68.5 64.7 61.8 56.4 52.5 53.9 54 52.6 52.5 51.7 50.1 49.1 46.1 49 52.2 52.1 49.9 48.3 49.9 50 50 48.3 46.7 46.6 46.1 46.2 45.9 45.6 44.9 44.3 48.2 50.8 51 50.8 49.7 49.3 44.8 30.1 36 47.5 47 45.2 44.4 43.3 42.2 41.3 40.3 39.1 39.3 38.9 36.4 35.9 35.3 34 32.1 31.2 30.2 29.3 27.9 26.3 25 24.7 24.4 24.1 23.7 23.6 23.7 23.8 23.9 24 24.2 24 24.5 23.6 23.4 19.9 19.7
70.9 65.2 76.6 84.1 91.4 95.1 97.6 100.8 102 102.6 104.4 108.3 110.2 111.9 114.1 114.5 113.2 114.6 119 121.2 119.5 121 120.8 119.6 118.9 119.9 120 120 120.9 122.1 120.2 116.4 114.2 113.2 111.9 111.4 111.3 111.1 110.8 110.6 110.5 110.4 109.9 109.3 108.4 107.8 107.6 107 106.7 106.6 105.7 105.2 105.6 105.7 105.7 105.4 104.9 104 103 102 101.8 101.5 100.6 100.1 99.8 99.6 98.9 98.3 98.1 97.2 96.7 95.6 94.7 93.7 91.4 91.1 90.1 88.7 87.2 86.6 86 85.8 85.6 85.2 84.7 84.1 83.6 83.1 84 83.4 81.3 78.6 77.4 76.1 76.5 77 68.4 57.9 57.1 77.4 75.6 71.4 71.3 73.8 74.9 75.8 78.2 79 78.9 77.2 78 79.1 79.8 80 78.9 78.5 78.2 76.6 72.6 72.4 71.2 68.2 65.4 63.8 61.6 57.5 52.1 54.6 57 56.2 54.8 53.9 51.7 51.2 50.9 49 44.8 46.3 48.5 49.6 48.5 50.6 51.6 49.7 47.9 46.5 47 47.5 47.9 47.8 47.7 46.8 44.7 47 49.3 48.8 48.1 47.6 46.7 36 35.4 45.4 46.8 46.8 44.3 42.1 40.6 39.6 39.9 39.4 38.7 37.3 37.1 33.9 33.2 32.8 30.4 29.5 28.2 27.3 26.3 24.6 23.7 23.2 23 22.9 22.9 22.4 22 22.5 22.8 22.9 23.4 23.5 22.8 22.7 22.6 19.2 15.3 12.4
76 70.5 74.5 80.7 88.4 91.3 94.3 96.4 96.8 97.3 98.4 101.6 104.4 107.8 110.3 109.6 108.5 110.6 115.6 114.1 113.5 115.6 116.3 115.5 114.2 114.5 114.3 114.2 114.8 117 118 115.4 111.6 110.7 110.2 110.4 109.7 109.6 109.3 109 108.8 108.7 108.6 108.4 108.1 107.6 107.1 107.2 106.7 106 105 104.3 104.1 105 104.6 104.1 103.6 102.6 101.7 100.9 100.7 100.5 100.2 99.7 100.1 100 99.5 98.9 98 98.1 96.8 95.7 94.7 93.4 91 89.1 88 88 86.9 85.2 84.4 84.1 83.9 83.3 82.5 81.6 80.6 79.9 79.5 79.2 77.5 76.1 74.8 73.5 73.7 74.2 63.6 48.8 75.7 77.5 76.5 70.9 69.8 70.8 71.6 73.7 74.7 74.8 74.8 74.7 74.6 75.1 75.8 76.5 78 80.5 79.4 77.2 72.8 69.6 67.6 65 65.4 65.1 64.1 56.2 52 57.8 58.1 56.3 54.4 53.4 51.8 51 50.3 45.9 44.2 43.3 45.2 46.5 48.3 49 49 48.8 47 46.1 47.2 48 48.1 48.3 47.5 45.2 43 45 45.7 45.4 44.8 43.3 42.1 31.2 37.3 44.1 43.2 43.4 41.8 39.4 37.9 35.5 35.4 37 35.2 34.5 34.1 32.4 32.9 31.9 29.8 26.6 25.1 24.4 23.2 22.6 22.2 22.2 22.4 22.4 22.3 21.7 21.3 21.4 21.7 22 23.1 22.8 21.7 19.9 15.2 11.3 9.6 9.7
68.1 70.8 73.1 78 84.3 88 91.2 92.7 94 94.9 95.5 96.8 98.9 103.4 105.4 104.7 104 105.3 107.9 108 107.8 109 109.9 110.1 109.7 109.1 108.8 108.5 108.7 112 113.1 110.5 106.4 106.3 106.9 107.3 107 107.3 107.6 107.4 107.2 106.9 106.4 106.7 106.5 106.1 105.8 105.6 105.6 105.6 104.5 103.7 103.5 104.6 103.7 103 102.1 101 99.9 98.9 98.8 99 99.3 99.5 99.7 99.8 99.5 98.9 98.3 98.3 97.2 95.9 94.8 92.9 89.4 87.2 86.2 86.9 85.8 84.1 83 82.5 81.5 80.3 79.3 78.3 77.3 76.6 75.8 75 74.2 73.4 72.1 70.6 70.2 71.7 56.9 55.1 71.2 72.1 72.5 68.5 66.8 67.7 69.6 71.4 72.4 72.5 72.5 72.3 71.1 70.9 71.3 72.4 72.5 72.8 73.2 74.5 73.9 74.4 73.4 69.8 68.5 67.4 60.8 51.3 55.7 60.5 58.5 56.6 54.2 52 51.9 49.2 46.1 45.6 44.2 43.5 42 43.1 45.2 45 44.2 45.4 45.6 44.6 45 45.3 45.2 45.1 44.1 43.5 40.9 43.3 42.1 41.6 40.5 38.5 37.8 32.3 28.6 40.1 39 38.5 36.8 34.3 31.9 30.1 29.1 30.4 32.3 34.3 35.9 33.1 32.5 30.7 26 24 23 22.3 21.9 21.1 20.6 21 21.5 21.9 21.7 21.2 20.7 21 21.6 21.5 22.2 21 17.7 13.6 9.4 9.6 8.9 9.1
68.2 70.4 72 74.9 79.6 83.8 86.8 88.5 90.1 91.7 92.4 94.1 96 99.6 101.8 100.5 99.6 98.5 99 100.3 102.3 102.4 103.4 103.9 103.8 103.7 103.3 102.8 102.4 103.5 104 102 100.7 100.7 100.8 102.6 103.3 103.8 104.6 104.7 104.2 104 103.8 103.9 103.6 103.2 103.4 103.9 103.6 103.7 103.5 102.6 103.3 104.3 102.8 101.4 100 98.8 97.6 96.6 96 96 96.5 97.2 97.4 97.5 97.1 97.4 97.7 97.9 96.7 94.7 93.3 91.4 89.7 86.6 85.5 85.4 84.4 82.9 81.9 80 77.1 76.7 76.2 75.2 74.1 73.8 73.5 73.2 72.4 70.4 69.4 68 66.6 70 48.6 49.6 64.5 66.6 66.2 65.3 63.1 65.2 67.2 68.8 69.8 70.1 70.2 70.2 69.4 68.2 67.6 67.1 66 65.9 67.1 69.2 72.7 76.3 73.4 70.3 67.1 63.7 54.1 54 59.1 60 58.5 55.9 53 49.9 48.1 47.2 46 46.4 47.8 47.6 44.2 44.5 42.1 40.1 39.4 39.4 41.3 40 41 41.2 40.9 42.1 42.1 42 40.9 39.1 38.1 37.6 37.2 36.3 35.3 32.6 23.8 32.3 35.3 35 32.2 29.2 27.2 24.8 25.5 28.3 28.4 28.4 27.4 26.1 25.1 23.7 22.4 21.9 21.6 21.4 21.7 20.6 19.3 19.8 20.3 20.9 21 20.4 21 21.5 21.8 21 19.9 15.3 11.9 8.9 8.7 8.5 8 6.6
67.9 70.5 71 72.4 74.7 77.7 79.5 81.3 83.9 86.6 89.9 92 94.5 96.4 98 97 95.9 94.8 94.8 95.6 97.2 97.3 97.7 97.7 97.8 97.7 96.9 96.5 96.2 96.2 96.5 96.2 95.6 95.3 96 96.9 97.2 97.6 98.6 97.2 99.2 100.7 100.5 99.7 99.6 98.9 99.2 99.9 100.7 100.4 99.6 100 101.1 102.2 99 97.4 96.4 95.6 94.9 93.9 92.9 92.4 92.4 93.2 93.4 94.2 94.5 95 95.4 95 92.5 91 90.1 88.8 87.3 87.3 85.3 83.9 82.8 81.5 79.3 76.8 74.2 73.3 73.1 72.8 72.5 72 72.2 72 71 68.9 66.8 64.1 61 52.9 45.5 50.3 64.1 63.6 64 62.6 60.8 62.5 64.8 66.2 67.2 67.8 67.8 67.9 67.6 66.5 66.1 66.9 67.3 66.8 67 66.7 67.6 69.4 68 65.7 63.1 56.8 52.2 56.7 58.3 57.8 57 54.2 50.9 48.1 46.4 45.2 44.7 45.8 44.7 43.7 42.1 39.4 39.4 38.9 37.7 36.6 38.5 36.6 36.1 36.7 37.5 38.9 38.3 37.7 36.7 36.6 34.9 33.8 33.7 32.1 31.7 30.6 19.5 35.3 35.9 35.2 30.5 27.3 25.2 22.3 24 24.4 24.5 24.5 22.7 23.4 23 22.3 21.4 20.9 20.6 20.4 20.1 19.4 18.8 17.1 19 19.4 19.8 20.5 20.9 22.7 22 17.5 15.3 10 8.6 8.1 7.7 7.5 6.3 5.6
68.9 72.2 69.3 70.5 71.8 72.8 74.9 74.8 75.7 77.9 83.1 89.3 94.2 94.9 93.8 92.9 91.8 91 90.9 91.8 92.4 92.4 91.9 91.4 90.9 90.3 90.3 89.8 89.4 90.7 90.2 90.3 89.8 89 89.4 90.8 91.3 90.5 92 92.1 93.9 95.7 95.3 95.1 94.9 93.6 94.5 94.9 96.4 95.4 95.2 96.1 98.4 97.3 94.4 94 92.8 91.2 90.3 89.3 89 88.5 88.1 89 89.3 90.9 91.7 92.1 91.5 90 87.8 86.9 85.8 85.9 83.9 83.8 82.4 80.3 79 78 76 73.7 71.8 70.6 70.8 71.1 70.8 70.3 70.1 70.6 70.2 67.3 61.9 53.3 44 43.9 52.6 66.7 65 63.9 62 60.5 60.1 59.9 59.7 61.9 63.9 64.6 65.4 65.4 65.7 65.5 64.6 65.3 65.4 65.7 66.9 65.5 63.7 62.8 61.6 59.8 55.5 52.6 50.6 57.6 58.3 54.8 53.6 50.9 49.1 46.4 45.2 43.3 43.1 43.4 41.3 39.3 37.7 37.2 37.6 40 42.4 42.6 41.2 39.2 37.3 34.7 34.8 35.5 35.9 36.6 35.8 35.1 33.9 33.8 33.5 30.7 29.2 27.1 20.4 33.9 34.8 34.2 30.7 27 24.9 22.9 24.3 23.1 23.4 23.8 22.4 22.9 21.8 21.1 20.5 20 19.6 19.4 19 19.8 19.6 14.8 13.3 13.6 14.7 15.7 14.3 17.7 20.4 15.1 11.5 9.3 8.8 7.9 7.6 6.2 5.4 4.8
65.9 70 67.3 68.1 70.6 72.3 73.1 73 72.2 72 74.2 78.5 82.4 90.1 88.7 87.1 87.8 86.4 85.6 86.8 87.7 86.6 85.5 85 84.8 84.4 83.4 82.5 83.1 83.6 83.3 83.1 83.8 83.4 82.8 84.8 86.2 85.4 84.3 85.6 87.9 89.1 88.7 89 89.4 88 88.8 89.7 90.4 91.2 90.9 91 92.4 91.9 89.8 89.8 90 88 85.7 85.4 85.2 84.7 83.1 82.4 83.3 85.6 87.4 87.1 86.1 84.9 83.6 82.5 81.4 80.7 79.7 79.2 80.5 79.9 76.6 74.8 73.1 70.1 69.1 68.4 69.1 69.3 68.8 68.4 68 69.7 70.1 65.9 48.8 44 57.2 65.3 69.6 68.4 65.8 65.2 62.9 60.9 59.2 58.3 57.4 57.3 59.8 59.4 61.3 62.7 62.9 63.1 63.3 63.2 61.5 59.2 64 61.9 60.1 58.8 56.6 55 51.6 49.4 47.8 51.8 52 50.4 49.6 47.4 47.4 46 43.9 42.8 42.5 42 41.2 39.1 37.7 37 38.7 42.4 44 43.2 41.4 40.9 40.5 38.4 37 36 35 35.5 35.2 34.6 33.9 33.2 32.3 30.6 28.8 27.7 18.9 32.2 32.9 33.4 31 27.1 25 23.2 20.1 22.7 23 23.4 22 22.3 21 20.2 19.5 19 19 18.9 18.8 17.6 16.4 19.3 20.1 19.1 19.2 19.1 11.7 10 13.7 11.2 9.2 8.4 8.4 7.6 6.1 5.6 5.6 7.5
64.5 70.5 63 62.9 66.1 69.9 71 71.2 70.5 69.8 69.8 70.7 72.3 75.9 76.7 77.2 77.8 77.6 77.9 78.8 79.7 80.8 79.1 79 79 78.5 77.7 77.2 76.6 76.7 76.4 76.1 76.3 76.5 76.4 78.7 81.1 80.8 80.3 79.2 79.8 82.2 82.5 82.8 83.2 82.5 82.4 83.3 84.6 86.5 86.7 86.5 86 85.9 84.7 83.5 83 82.6 81.5 81.7 80.8 79.8 79.5 79.3 80 80.9 81.4 79.7 79.2 78.5 76.9 76.3 75.7 74.2 73.1 72.6 74 75.5 73 71.2 69.7 65.5 65 65.6 67.1 66.3 66.1 65.4 64.3 66 64.1 61.2 42.2 63.4 65 65.3 64.6 64.6 63.3 62.1 60.7 59 57.6 56.9 56.3 55.8 55.7 55.3 56.8 58.8 59.2 59.4 59.7 59.5 58.1 56.5 57.9 57.9 56.9 55.8 52.8 50.4 46.6 42.7 43.8 42.5 41.7 41.7 43 43.1 43 42.9 42 41.8 41.6 40.6 40.1 39 37.7 37.3 37.2 38.4 41.2 39.9 38.9 37.2 37.3 37.6 35.2 34.4 34.7 34.8 34.5 33.8 33 31.9 31.6 30.3 28.9 28.3 17.9 29.4 30.1 30 29.4 27.1 25 23.3 23.2 24.1 24.1 23.3 23.9 22.3 20 19.8 19.8 19.7 19.5 19.4 19.3 19.9 21.1 22.8 23.7 23.1 22.6 22.2 16.4 11.5 11.5 9.3 7.3 6.7 6 5.7 5.6 5.9 7.5 6.3
64.7 67.6 61.2 60.5 60.5 61.5 62.6 65.2 65.4 65.3 65.4 65.1 65 66.6 69.4 68.4 68.7 69.2 69.4 70.3 71.5 72.2 71.7 71.2 72.1 72.2 71.6 71.5 70.7 69.3 68.7 69.3 69.4 69.8 71 72.8 75.7 75.6 76.2 75.4 74.8 74.4 76.3 75.9 76.4 77 76.2 77.2 78.9 80.7 82 80.6 79.2 78.7 78.2 77 77 77.3 77.5 77.5 76.9 76.9 77.3 77.4 75.6 75.4 73.1 70.8 70.6 70.3 69.7 70.2 69.6 67.2 66.6 66.3 66.1 68.5 69.4 63 64 59.7 60.9 64.5 62.2 59.3 58.8 58.4 58.6 59.6 57.6 56.3 41.4 56 64.7 64.2 62 59.9 58.2 58 56.9 57.7 55.9 55.8 55.4 54.8 54.4 53.3 54.5 54.6 55 55.5 55.7 55.4 54.5 53.5 54.3 55.1 54.2 52.2 49.4 47.1 43.3 45.5 48.6 44 43.4 43.4 42.3 39.8 39.8 39.6 39 39.4 39.9 39.3 38.8 38.3 38.1 38 37.8 37.7 36.7 36.7 36.9 36.1 34.7 33.5 32.3 34 33.9 34 33.7 33 32.3 32.3 31.3 28.9 28.6 28.4 23.6 23.6 27.5 26.5 25.8 25.4 24.6 24.8 25.8 26.4 24.5 21.5 20.9 20.5 21.6 21.8 20.9 20.9 21 20.9 20.7 22.8 22 23.8 24 22.2 14.3 10.8 9.3 9.2 9.1 9.2 7 6.5 7.3 6.2 6.4 7.3 5.8 2.6
64.3 62.8 62.2 61.8 61.4 60.4 61.1 60.6 59 58.1 59.1 58.9 58.6 60.2 62.4 62.8 63 63.4 63.9 64.4 65.6 66.7 66.2 66.1 66.2 66.6 65.9 65.4 64.7 62.7 64 64.2 64.2 64.8 66.3 67.5 70.1 71.8 72.9 72.8 73.1 71.8 71 70.1 70.6 70.7 70.4 71.6 73.2 75 75.9 75 73.1 73.1 72.1 71.8 71.5 71.6 72.7 73.2 71.3 71.5 72 71.3 69.5 67.8 65.7 64.3 62.9 62.4 62.5 63.1 63.2 61.4 60.6 61 60 59 57.8 57 56.1 53.3 58.5 58.9 56.1 54.1 53.2 52.7 54.1 53.5 52.2 49.4 41 40.6 49 63.6 59.1 57.8 55.4 54.1 55.2 56.6 57.5 55.4 50.8 49.2 49.2 48.1 49.3 50.8 51.6 52.1 51.4 51.1 50.5 50.6 50.5 50.1 49.6 47.9 46.9 45.3 43.2 46.6 45.9 46.2 49.2 48.6 46.6 44.9 42.9 41 40.4 40.2 39.5 38.3 37.9 37.7 38.1 37.9 37.8 37 36.4 36.3 36.1 34.5 31.9 31.1 30.9 32.3 33 33.1 32.9 32.2 31.4 31.2 28.1 28.2 28.1 27.7 27.1 19.4 22.6 24.8 24.8 25.1 25.2 26.4 26.6 24.1 22.6 22.4 21.7 21 21.6 22.2 22.2 22 21.7 21.2 21.7 21.3 23.2 24.3 18.5 11 9.7 8.4 7.8 7.1 6.6 6.7 6.4 7.1 7.1 6.4 4.9 3.8 2.3 1.7
