ncols 200
nrows 84
xllcorner 250000
yllcorner 901050
cellsize 50
353.5 352.2 350.6 348.6 345.5 342.3 338.4 333.5 326.8 321.9 317.2 312.4 305.2 295.8 287.5 280.9 275.3 267.4 259.9 254.6 250.9 247.6 243.9 240.9 238.9 236.4 234.4 232.9 231 227.6 224.6 223.6 222.3 220.3 218.1 212.8 213.2 212.8 212.3 211.8 211.3 209.6 207.3 204.4 201.8 201.8 201.5 201 197.3 196 194.3 193.1 193 192.9 192.1 191.9 190.3 186.5 185.6 180.3 179 179.3 178 175.7 173.8 170.7 162.5 159.6 156.9 156.1 154.9 153.4 153.6 154.6 155.4 157 159.2 161.6 164.4 169.6 173.2 176.5 180.5 186.5 193.4 201.8 211.6 220.3 229.6 239.2 248.3 255.9 263.7 269.7 274.3 277.3 280 282.8 284 283.9 285 285.4 285.3 283.8 281 274.5 267.6 260.4 251.9 242.3 235 227.5 221.8 210.4 194.9 184.2 178.2 168.5 162.1 161.4 154.5 142.7 134.1 125.7 121.1 116.6 113.6 112 111.8 111.7 113 113.7 118.4 115.3 109.9 108.7 108.5 109.8 114.1 115.3 116.8 117.6 117.9 117.4 117 116.9 116.7 117.5 120.3 118.3 119.2 120.9 120.6 119.4 118.7 118.5 114.2 108.6 103.2 100.1 94 86.4 83.9 83.9 83.9 89.9 95.3 94.7 94 95.8 100.4 105.2 109.4 108 105.5 105.2 106.7 101.1 101.1 102.5 110.3 117.1 118.2 116.4 114 112.6 113.6 111.3 112.6 113.4 114.8 115.9 119 123.7 124.1 125.5 129 128.5 131.9 134.4
359.7 359.3 357.9 356.1 351.8 347.6 342.1 337.1 331.3 326.1 321.2 315.8 309.3 302.4 288.7 282.3 276 269.4 263.3 259.1 254.7 250.1 246.9 245.3 241.4 239 237 235.7 234 230.9 228.2 227.3 226.3 223.9 218.7 218.5 218.8 218.1 217.2 216 215.1 214 212.1 209.4 208.4 207.9 206.5 203 202.8 200.9 198.9 198.1 197.6 197.2 196.2 195.4 194.4 191.5 189.5 186.9 186 185.5 178.6 174.3 172.9 169 164.5 162 160.4 158.4 156.7 155 152.9 152.4 152.4 152.9 154.3 155.7 157.6 162 165.2 168.3 172.8 178.9 185.3 193 202 211.3 220.9 230.2 239 246 253.5 259.5 265.6 267.9 270.5 274 276.7 279.5 281.1 282.1 282.3 282.1 280.2 276.2 270.5 263.4 256.6 248.4 238.9 230.8 222.4 216.6 207.2 193.9 180.3 171.1 163.5 157.4 150.9 145.9 140.2 133 123.3 120.8 116.8 113 112.7 112.7 112.5 112.9 113.9 118.5 114 109.9 109.9 110.9 114.3 115.7 117.2 118.2 118.8 116.8 116.4 115.8 115.6 115.5 117.6 118 116.2 115.6 115.3 115.8 116.4 113.4 113.3 111.8 107.9 102 94.7 88.9 83.9 83.9 83.7 84 88.8 90 95.3 93.5 96.9 98.9 102.8 105.2 104.6 103 100.6 99.7 105.4 111.4 112.6 115.6 118.6 119.2 117 115.8 115.7 117.6 117.9 118.1 123 121.8 124.4 125.5 128.1 133.1 134.8 133.6 137.5 139.8
366.5 367.7 368.5 366.1 361.3 354.5 347 340.4 334.4 329.5 323.7 317.7 310.7 303.1 293.9 285.1 275.7 269.7 265.5 260.6 257.5 253.5 248.8 247.8 244 241.5 239.5 238.2 236.9 233.7 232.2 231.2 230 226.8 224.7 224.5 223.7 222.9 221.8 220.6 219.5 218.3 216.8 214.6 214.3 212.4 210.5 210.1 208.5 206.6 204.9 205 203.4 201.1 200 199.1 199 196.2 197.2 193.6 190.8 188.6 183.2 178.6 176.3 174.7 171 168.3 167.2 163.5 160.7 156.9 155.6 155.8 151.7 151.1 151.2 152.6 153.6 154.2 157.4 160.6 165.7 171.7 178.6 186 193.7 202.7 212 221.3 229.7 236.7 243.7 249.9 257.2 261.2 263.4 265.5 269.5 274.3 277.2 278.6 279.3 279.1 278.1 275.1 270.4 265.2 260 252.6 244.7 236.2 227.2 217.7 210 198.9 185.2 172.9 163.9 157.6 152.2 145.6 141.4 136.5 127.5 121.8 119.1 114.7 113.2 113.3 112.6 113 114.4 114.9 114.5 112.4 112.9 112.6 116.7 119.2 119.5 121.1 116.9 116.4 115.8 115.3 114.6 114 114.2 114.9 114.9 113.6 112.4 111.2 111.5 110.5 110.7 111.9 109.5 102.6 97.2 91.8 84 83.4 77.5 79.3 84.5 86 87.3 88.5 91.8 94.3 98.8 99.7 101.9 100.7 99.5 103.2 110.4 113.9 115.9 121.2 115.2 120.7 122.7 121.8 118.4 117 121 125.1 127.4 130 133.5 135.7 137.5 139.2 140.5 143.2 144.1 145.6
371.6 373.7 372.5 372.3 369.1 361.7 352.9 346.1 338.4 330.8 325 319.5 311.8 304.2 294.4 285.2 277.5 271 265.5 262.1 259.6 255.9 252 248.7 246.1 244.2 242.2 240.9 239.9 237.6 236.3 234.1 231.3 229.8 229.7 228.6 227.6 226.7 225.6 224.4 223.2 222.3 221.5 220.5 219.6 217.7 216.6 215.8 213.9 212.6 211.6 211.2 208.7 206.6 206.1 205.7 204 202.1 201.2 196.6 194.3 192.3 187.4 184 182.2 181.1 180.4 179.1 179.4 174.4 167 164.3 162.9 159.9 155.3 152.5 151 150.3 151.2 150.8 153.3 156.3 160.1 165 172 179.4 186.7 194.4 203 211 219.8 229.2 236.9 241.8 248.1 254.7 257 258.6 261.7 265.8 269.3 273.2 275.7 277 276.8 275.9 271.1 265.7 262.1 255.1 248.8 240.6 231.6 221.6 210.9 202.2 191.7 177.6 166.4 157.5 152.6 146.6 139.6 132.2 125.7 123.5 120.4 116.8 114 113.5 111.9 112.2 112.5 113 115 114.8 114.1 113.6 115.6 116.8 115.9 116.4 116.6 116.7 116 116.3 114.5 112.9 111.9 111.9 112.6 111.7 110.5 109.3 108.5 108 107.6 108.7 108.4 103.3 98.1 93.4 88.8 82.4 77.8 78.6 81 82.2 83.4 89.6 88.7 90.1 95.8 96.3 97.9 98.4 99.2 107.1 113.1 116 120.7 124 126.9 129.2 128 128.3 126.5 126.4 131.1 136.3 138.1 139.7 142.2 147.4 149.3 150.6 149 148.5 148.5 150.4
374.7 378.5 380 377 372.7 366.2 358.5 350 341.4 332.7 326.4 320.9 314.2 304.5 293.3 286.6 277.9 271.7 268.2 264 260.1 256.2 253.3 251.1 248.5 246 245.3 244.2 242.8 241.1 239 236.6 231.5 235.4 233.6 232.6 231.4 230.3 228.1 227.5 227.3 226.7 226.1 226 224.9 223.8 222.8 221.4 220.4 219.4 218.4 217.4 215 213.9 213.6 211.9 208.8 206.9 205.3 201.8 199.3 197 193 190.6 189.1 188.9 186.8 184.7 181.6 175.2 170.9 171.1 171.7 172 164.4 162.6 155.1 151.7 151 149.2 149.4 151.8 155.1 158.9 164.4 170.5 177.1 184.5 192.2 200.1 208.9 219.1 228.3 237.8 242.7 248.6 250.2 251.6 253.8 257.7 261.7 264.6 268.6 271.5 273.2 274 274.8 270.4 262.8 257.6 251.4 245.1 235.8 225.8 216.4 205.4 195.4 182.4 173.1 159.2 152.9 148 140.7 134.3 130.3 127.4 122.3 118.1 115.4 112.6 111.6 110.5 111.5 111.8 112.4 113.4 113.8 114.2 114.8 114.8 115.3 119.4 118.1 116.8 117.9 116.1 114.4 112.8 111.7 111.2 110.2 109.8 108.7 107.8 106.7 106.2 105.9 105.4 106.2 101.9 96.6 92.9 91.9 84.8 78.2 77.6 79.5 81.2 81.5 87.1 87.6 88.1 91.5 91.2 98.6 101.2 104.5 109.9 114.1 117.2 120.3 128.3 132.2 133.1 132.5 133.4 132.4 134.8 139.7 141.3 142.1 142.6 144.8 150.4 151.6 153.5 154.5 153.2 154.7 155.6
377.1 381.2 384.6 385.6 381.1 371.9 363.9 353.1 344.9 336.4 329.7 323.8 315.6 304.5 292.8 285.5 278.6 272 266.9 262.2 258.1 256.9 254.9 252.9 251.4 249.6 247.9 246.5 244.5 242.9 241.6 239.7 235.6 238 237.2 236.1 234.9 233.5 230.2 230.9 231.9 231.5 231 231 231.3 230.4 229.3 229.2 228.2 227.2 226.2 225 222.6 221.5 219.6 217.6 212.8 213.9 212.9 209.3 206.4 202.9 199.3 197.7 196 193.6 190.5 187 181.8 179.9 177.9 176.1 176.4 176.8 172.3 170.4 160.9 154.4 152.2 150.6 149 148.4 150.6 152.3 157.8 163.2 168.6 174.2 181.3 189.2 198.7 206.1 213.1 224.1 233.7 239.6 243.8 244.6 246.5 250.4 254.4 256.1 259.1 262.9 266.3 267.3 269.1 269.1 265.2 260.3 252.9 246.1 239.6 230.6 221.4 210 201.3 186.5 178.3 166.6 155.8 146.9 140.4 136.2 132.7 125.9 120.5 117.2 114.4 112.9 111.4 110.2 110.9 110.9 111.2 112.2 113.2 113.3 114 114.6 115.4 116.9 117.3 119.3 117.8 115.9 114.3 113.2 112.1 111.1 109 108 107.1 106.2 105.2 104.5 104.6 102.9 102.2 99.2 96.4 93 90.6 86.1 77.3 77.2 78.5 80.3 80.5 83.4 84.5 86.4 89.2 90 97.8 99.9 106 112.1 115.5 119.7 123.8 129.5 133.2 135 138.3 140.8 140.5 143.1 143.5 144.8 145 146.4 147.5 150.6 153.7 155.2 156 156.3 156.9 158.1
374.6 380.4 386 390.2 389.7 385.5 374 361.7 350.9 342.1 335.5 326.8 317.1 306 294.8 284.9 277.5 270 265 260.3 258.9 257.9 256.1 254 252.2 251.1 250.3 248.8 246.2 244.6 243.3 237.4 241.1 241.7 240.9 239.7 238.5 236.8 234.2 234.7 235.9 236.3 236 236.7 237.6 237.1 236.7 238.1 237.1 236 234.7 233 230.5 228.2 225.6 223 219.4 219.6 218.8 215.4 210.5 207 204 202.9 201.3 198.9 195.6 192 189.7 187.7 184.2 180.5 179 176.1 173.2 168.9 161.8 159.3 154.4 155.3 150.7 148.8 147.9 149.5 150.1 152.6 158.1 163.9 170.8 178.4 189.7 195.1 203.2 209.4 219.8 225.6 235.4 238.3 240.8 243.2 246.3 248.8 253.6 257 260.9 263.3 265.1 265.6 263.8 261.5 254.4 248.5 241.9 234 224.3 211.6 204 192.8 179.9 169.8 156 145.9 140.2 138.9 130.1 124.2 119.7 115.3 113.7 112.2 110.7 110.1 109.9 109.4 110.9 112.1 112.6 113.5 114 114.6 116.3 117.9 118 118.2 117.6 115.8 114.6 113.6 113.1 111.9 110.5 108.2 107.4 106.6 106.2 105.1 103.5 101.7 101.5 97.1 94 92.2 89.7 85.6 79 76.8 77.4 78.1 78.6 79.6 81.1 84.9 85.6 92.1 98.9 101.3 109.4 114.5 118.9 122.7 127.8 132.2 133.3 137.6 143.5 146.8 147.8 150.2 152.2 151.1 151.2 152.4 151.4 150.5 151.7 153.8 154.9 156.4 158.1 160.9
369.5 375.6 381.7 389.4 393.2 393.7 386.1 374.7 360.2 348.3 338.1 328.5 318.7 307.1 294.6 285 278.8 271.7 267.2 263.4 260.4 258.9 257 255.2 254.7 253.7 252.2 250.9 248 246.7 243.4 243.1 244.6 245.2 244.5 243.1 241.8 239.7 238.1 238.6 240.1 241.1 241.8 242.5 243.7 245 245.8 246.3 245.7 244.4 243 241 238.5 236.6 234.1 230.5 227.5 226.2 224.4 221 218.4 213.8 210.5 208.9 207 206.3 203.3 200.3 198.2 194.7 191.2 188.1 185.7 184.2 180.3 177.1 169.4 164.6 160.5 161.2 157.8 151.6 149.3 147.5 147.8 148 149.8 153.6 160.5 168.2 176.2 183.9 190.6 198.6 207.4 213.3 224 231.1 233.7 235.3 237.7 245.4 250.6 255 258.6 262.2 263.8 265.3 264.9 260.2 255.3 249.7 242.7 235.8 227 216.2 207 200.3 180.4 170.8 158.7 149 141.3 134.6 131.2 126.2 116.7 115.1 112 110.9 109.9 109.9 108.7 109.7 111.2 112.7 112.9 113.5 114.2 115 115.9 118.3 117.9 117.8 116.8 115.9 115.1 114.7 113.8 112.5 111.4 109.2 108.1 107.6 107.3 106.4 105.3 101.4 97.8 95.2 90.5 89.2 88.6 86.3 80.6 76.1 76.6 76.9 77.1 78.7 83.4 85.9 88 94.7 101.2 105.7 110 113.5 117.6 125.7 128.9 131.4 133.9 137.6 143.6 149.4 151 152.6 155.4 155.2 155.1 155.2 153.5 153 152.8 154.3 156.7 158.9 161.2 164.8
365.5 369.9 376.5 383.7 390.1 399 398.1 388.3 373.6 358.9 345 333.4 323 310.1 297.9 288.1 281.1 275.2 270.3 266.7 263.5 260.7 258.2 257.1 256.2 255.4 255.2 253.3 251.3 249.3 245.1 248.5 248.9 249 247.9 246.3 245 242.3 241.5 242.5 244.3 245.7 247.2 249.4 252.2 255.6 256.8 256.7 255.8 253 251.4 248.9 246.7 244.9 242.5 238.5 236.3 234 232.1 229.5 225.8 221.5 217.6 214.9 213.5 213.1 211.1 208.2 204.5 202.2 200.2 197.3 194.9 190 185.4 181.6 173 172.1 169.1 164.9 157.9 154.9 151.7 148.6 147.5 147.1 147.2 148.7 150.4 156.7 166 174.4 182.4 187.5 197.2 203.6 213.5 221.5 225 226.8 230.8 240.3 247.8 254.3 257.9 261.7 265.1 266.3 265 263 255.6 249.8 243.4 237 227.1 220.3 211.2 198.8 188.1 174.3 160 153.6 146.4 136.5 130.3 120.4 116.5 115.5 111.7 109.3 109.1 110.1 108.6 110 111.6 112.7 113.3 113.9 114.6 115.4 117.6 120.4 120.4 119.3 117.8 117 116.9 115.5 114 113.2 112.2 110.5 108.9 107.8 106.7 105.6 106.1 101.3 96.2 92.8 90.9 90.5 88.4 86.3 80.5 77.1 76 76 77.3 80 83.2 86.4 88.7 94.9 104.4 109.6 109.3 112 116.1 121.3 126.1 129.2 133.4 135.8 140.2 146.4 151.3 153.3 154.5 156.4 156.9 156.9 155.3 154.2 155.3 157.3 159 162.2 166.4 167.5
355.8 365.2 370.5 376.7 384.2 393.8 400 398.6 387.1 372.6 356.4 341.5 328.6 316.7 304 292.4 284.1 278 273.5 269.3 265 261.6 261.6 260.2 258.7 258.1 257 255.5 253.7 249.1 251.5 252.3 252.7 252.3 251.4 249.9 247.4 245.6 244.7 246 248.7 250.4 253.2 257.3 262.6 265.7 266 266.3 265.6 263.7 261 258.1 254.2 253.2 249.9 247.3 244.9 241.7 239.2 236.8 233.2 229.3 225.4 222.2 220.7 221 216.7 213.4 210.9 208.7 206.8 202.2 198.1 194.9 191.8 187.2 184.3 182.3 177.6 170.5 168.7 164.9 158.7 153 150.7 148.6 147.4 147.3 148.4 151 154.9 162 171.5 177.4 188 196.7 205.7 212.2 216.2 219 224.4 228.1 244.3 250.5 256.4 261.1 264.9 266.5 265 261.7 258.5 250.1 243.3 237.7 227.4 219.9 209.1 200.7 191.4 177.8 163.4 151.7 143.2 135.5 125.1 117.8 116 115.9 112.1 108.9 108.2 107.4 109.2 112.5 113.1 113.1 114.3 115.1 115.5 116.4 119.3 120.9 120.6 119.5 119.3 119.2 117.7 116.4 115.1 114.2 113.1 111.7 109.7 108.5 107.3 105.6 106 102 96.2 92.5 90 87.9 87.1 85.7 82.4 79.6 76.1 76.3 78.5 81.1 83.8 86.8 90.2 96 108.5 107.9 109.2 111.8 114.3 117 121.9 128.1 131.8 134.3 137.1 141.8 146.6 151.4 153.1 155.1 157 156.1 155.9 156.7 158.5 161.4 166.5 169.6 170.7 172
354.2 361.2 363.7 370.2 375.9 386.9 394.3 396.9 394.1 385.4 370.4 353.7 338.6 322.7 310 298.9 290 282.3 276.1 271.8 267.4 264.9 263.6 262.5 261.5 260.9 258.8 257 255.5 250.7 254.9 255.7 256.5 255.7 255 252.5 250.6 249.6 249.4 251.7 253.7 255.6 259.8 266.3 272.7 274.1 274.4 275.3 274.7 273 270.7 267.7 263.9 262.2 259.2 256.3 254.1 251.5 248.3 244.3 240.8 237.4 233.6 229.6 229.3 228 223.6 219.8 217.7 215.5 211.8 208.5 206.2 203.5 200 197.3 194.6 189.8 181.1 179.2 179.1 174.3 165.3 160.7 155.2 153.3 150.5 147.9 146.8 148.1 150.2 152.9 157.5 167.1 180.5 190.4 199 204 206.1 211 214.6 227.6 239.7 247.7 253.7 258.6 262.7 267 266.2 262.4 258.2 253.4 244 238.2 231.1 220.7 208.8 201.2 189.8 178.5 164.5 148.6 144.6 134.2 121.6 117.4 116.4 114.4 111.6 109 107.5 108.4 110.4 113 111.4 112.9 117.9 116.8 116 116.8 118.9 119.4 119.9 120.2 120.3 120.4 120.8 118.5 116.8 115.6 114.6 113.1 111.1 109.5 108.6 108 105.9 102.6 97.4 93.3 88.9 85.2 85 82.8 80 77.5 75.7 77.2 78.7 81.1 84.1 86.7 90.2 99.4 107.3 106.4 107.8 110.9 113.4 116.2 119.2 126 132 132.5 134.4 138.5 141.6 146.7 150.9 152.4 154 154.6 156.7 158.5 160.9 164.2 167.5 171.4 176.3 178.4
348.3 355.6 360 361.6 365.3 376.4 386.8 391.2 390.7 385.9 377.1 364.9 349.2 333.3 319 308.4 298.3 289.8 282.5 275.7 271.3 269.1 267.3 265.1 264.8 263.4 261.2 259.2 254.1 257.5 258 258.8 259.4 259.8 259.2 255.6 254.9 255.2 255.3 257.5 259 260.2 266.4 275.5 281.6 283 283.1 283.1 283.6 281.1 279.5 276.8 273.7 270.2 268.7 266 262.9 259.6 256.2 252 248.8 246.4 241.6 237.8 238.1 235.4 230 226.3 224.4 221.7 218.9 217.2 215.2 212.9 210.4 207 202.1 197.2 192.9 189.3 184 179 172.6 167.9 166.6 159.8 157.3 153.7 149.9 147.4 147.3 148.8 150.2 159.1 169.9 180.8 189.7 197.4 200.8 203.6 207.5 212.3 231.4 242.9 250.1 255.6 259 261 264.3 261.9 257.8 253.5 246.9 238.8 230.9 222.7 210.3 202.9 191.2 181.9 169.7 150.4 142.7 134.9 128 120.5 117.5 115.2 112.6 108.6 105.9 109.7 110.8 115 110.3 115 116.4 117.9 116.1 116.2 117.1 118.1 119.1 119.9 121.1 120.1 120.7 120.3 118.8 117.4 116 115.1 113.9 111.6 111.4 107 104.9 102.6 96.7 91.4 88.8 85.1 83 81.4 78.4 77.7 75.2 77.2 78.3 81.6 87.1 87 94.4 100 105.4 106.5 106.9 113.5 116.2 116.8 116.9 121.6 125.9 130.1 132.9 135.2 138.4 142.2 145.6 148.5 153 154.8 156 160.2 163.3 167.6 172.9 176.6 181.5 186.9
345.1 349.3 351.8 352.8 355.5 364.5 379.4 386.4 386.6 382.5 375.7 368 359.2 346.8 330.2 317.2 305.7 296.5 287.9 281.5 278.5 276.1 272.5 269 268.2 265.9 263.6 261.5 260.5 260.8 261.1 261.5 262.2 263.1 262.6 259 260.1 260.8 261.5 262.4 263.1 270.1 275.4 283.5 290.4 292.5 293 292.2 290.9 289.5 289 287 283 279.8 276.8 274.8 272.3 268.4 266.5 261.6 258.5 255.1 250 245.7 245 240.4 236 235.4 232.2 229.8 229 228.7 227.5 225.2 223 218.5 214.1 210.1 206.6 200.6 196.2 190.7 185.3 179.2 173.2 168.9 164.4 161.9 156.1 151.7 148.6 146.8 147.9 150.1 155.8 167.6 181.7 189.3 193.3 196 201.6 210.1 216.2 232.8 244 250 254.3 257.1 257.2 259.3 257 251.9 246.7 239.3 231.2 225.7 212 198.1 189.6 180.8 171.4 154.1 140.1 132.7 126.7 119.9 115.7 114.5 110.1 107.4 106.2 106.6 109.3 112 108.7 116.5 119 117.2 116.4 116.9 117.2 118.2 119 119.8 120 119.8 120.5 120.1 118.6 117.5 116.8 116 115.7 115.2 113.3 108.2 102.7 99.6 94.6 91.7 88.2 83.1 81.7 79.5 76.9 76.8 75.1 77.1 77.6 84.4 89.8 86.9 93.9 100.8 102.5 104.3 105.7 109.2 113.1 113.7 117 120.5 125 128 130.7 133.7 137.1 143.1 145.7 147.2 151.4 152.6 156.1 161.6 169.1 177.9 179.4 181.5 185 191.4
340.3 343.7 344.8 346.9 348.6 356.6 370.8 379.5 381.4 379.6 375.4 367.8 359.1 352 341.7 327.8 314.6 303.4 294.4 287.8 284 280.4 276.6 273.3 272 270.8 267.2 264.9 261.9 264.9 265.3 266.5 266.8 266.7 265.5 263.6 265.6 266.6 267.6 269.8 274.2 279.6 286.5 293.9 300.5 302.4 302.6 301.9 299.7 298.2 297.6 295.3 293 290.2 288.1 283.8 280.6 278.5 274.7 269.7 266 263.3 259.3 253.8 252.3 245.1 245.6 243.7 243 242 242 242 239.6 238.1 236.6 233.2 231.4 228.8 221.7 215.3 208.7 201.6 193.6 184.5 178.9 174.9 171.1 165.7 160.6 158.3 155.1 150.1 147.2 146 149.6 158.1 174.3 181 184.1 187.5 192.9 199.3 209.3 221.7 233.1 242.8 246.9 250.2 251.5 251.5 251.8 250.7 245 238.4 233.3 223.7 212.6 202.3 188.1 180.6 172.8 159.5 144.1 133.6 126.7 121.4 115.5 112.6 108.8 106.5 105.5 104.9 107.4 107.6 108 114.4 118.5 119.1 116 116 116.3 117.2 118.3 119.7 120 119.8 119.4 120.7 119 118.1 117.3 116.5 121.6 119.1 111.4 106.4 103 96.6 92.9 89.8 85.9 81.9 80.4 76.9 76.1 76.5 75 76.1 80.6 87.2 87.7 87.4 93.9 97.7 103.8 102.8 106.5 109.4 111.4 113.3 114.9 118 122 124.7 128.6 129.6 134.5 138.8 143.2 148.2 152.1 155.1 161.7 171.5 176 180.9 185.1 187.4 188.5 192.1
340 338.7 338.3 339.1 341.1 350.1 360.8 368.8 373.3 373.9 371.9 367.5 361.9 353.6 345.1 337.3 326.2 313.2 302 294.2 287.5 282.6 279.8 278.9 277.5 275.2 271.6 271.3 266.7 268.4 269.7 270.9 270.2 270.1 268.3 268.9 270.9 273.6 274.8 277.8 283.4 289.8 297.8 304.7 308.8 311.3 311.6 310.8 310.5 310.9 310.1 308.4 305.3 303.4 299.4 293.6 289.9 287 282.3 278.2 274.8 272.6 269.5 264 258.5 257.9 257.6 257.5 256.3 256 253.8 256 261.6 263.3 261.7 259.5 260.2 254 242.7 233 223.6 214.1 205 193.2 185.9 179 174.3 170.5 166.8 163.8 159.4 153.1 149.7 146.7 145.6 153.2 164.7 172.9 176.3 180 186.9 194.7 198.2 210 221.9 231 236.7 241.7 245.1 245.9 242.1 242.8 243.1 237.9 229.6 221.4 216.1 204 190.9 182.9 174.7 163.4 145.3 136.9 131.7 120.8 116.2 111.8 108.3 107.6 106.1 106.7 103 105.5 107.8 111.2 113.9 114.2 114.5 114.8 115.2 116.6 118.5 118.8 119.1 120 118.2 118.3 118.4 118.7 117.8 117 121.3 117.9 110.1 106.5 102.1 94.6 89.6 88.2 84.1 80.8 77.4 76.6 76.4 75.2 76 76.6 81.5 86 85.4 89.6 94.5 98 100 107.1 110.9 110.4 110.8 112.3 113.2 116 120.3 124 125.2 127.5 131.6 141.3 149.9 157.7 160.9 164.7 171.3 172.9 176.1 180.6 184.8 189.3 193.8 195.3
341.5 338.1 335 334.1 335.1 341.3 352.7 363.5 366.4 368.5 367.5 364.6 360.4 355.8 349.8 341.6 332.8 323.3 312.2 301.6 295.7 287.4 282.9 281.8 279.2 275.8 275.5 273.9 273.7 274.2 275.7 274.8 274 273.6 273.4 274 276.6 279.9 283.3 287.4 293.1 300.1 308.3 314.8 319.1 322.6 324.6 324.7 324.5 325 324.2 321.7 318.2 315.2 311.5 307.1 303.4 297.9 291.1 286.5 282.3 279.5 278.1 272.7 269.4 270.1 268.7 270.4 274.1 279.4 285.4 290.5 292.3 296.5 297.4 294.4 288.4 282.8 270.1 252.8 242.3 234.3 223.1 208.7 197.1 187.9 181.1 175.5 172.2 168.4 163.5 157.5 152.9 149 145.9 145 159.1 165.7 168.9 172.9 177.9 185.6 191.5 199 209.4 218.5 224.5 230.4 235.8 238.3 238.4 236.4 236 236.1 226.7 219.7 212.4 204.3 192.1 183.6 179 167.2 149.7 138.4 132.9 120.2 116.9 112.7 108.1 106.6 106.7 106.5 103.7 103.9 106 109.3 111.3 112.7 114.2 114.9 115.9 117.8 118.6 118 118.1 119.9 118.5 116.9 117 117 117 117 119.6 116.4 110.4 104.9 101 95 90.1 87 83 78.6 76.6 75.9 75.5 76.3 77 78.7 79.4 80.8 85.3 90.9 94.6 103.1 99.4 104.2 106 107 108.3 110.9 113.4 117 119.9 122.7 124.5 129.2 137.2 144.9 150.3 157.2 161 167.5 172.7 175 177.1 180.2 185.7 191.1 196.9 201.7
341.7 340.5 335.5 333.2 333.5 337.4 347.8 358.4 362.6 363.2 363.1 362.5 358.6 354.8 350.8 344.1 336.5 328.7 319.3 309.8 300.3 292.5 289.2 282 277.8 276.9 276.2 275.2 275.5 275.7 276 276.1 277.7 276.2 277.1 278.3 283.1 286.5 290.2 296.7 303.8 311.1 318.4 324.3 328.4 331 332.9 336.4 335.5 335.4 333.6 331.4 329.2 326.3 321.9 320.8 316 308.9 301.1 297.8 292.6 287.8 284.5 279.9 280.3 280.7 283.6 288.1 296.2 303.2 309.2 312.6 315.3 315 313.1 306.5 297.9 288.9 280.3 272.8 262.4 251.2 241.7 225.4 208.2 197.6 188.5 181.6 176.2 172 167.8 162.2 156.6 151.6 147.9 144.1 152.8 158.7 162.7 163.5 167.4 176.8 183.1 189.8 196.7 205 212.8 217.3 223.7 227.2 230.3 229.8 228 228.9 225.1 219.5 210.4 202.9 193.8 184.8 179 170.5 150.9 137.4 130.5 118.3 114.2 111.5 108 105.8 105.4 105.2 104.9 101.6 105.6 109.4 112.4 114.3 114.6 115 116.3 117.3 118.3 118.3 117.5 119.2 117.8 115.9 115.9 116.1 115.7 116.1 117.6 114.8 109 103.4 97.8 93 86.8 82 79.4 77 78.9 75.9 77.1 81.6 84 85.6 82.4 83.4 84.9 88.1 93.9 100.2 100.7 103.1 104.6 106 107.9 109.3 111.9 114.9 118.4 121.6 125 131.5 140.6 149.4 151.7 155.8 160.5 165.4 169.9 173 176.6 184.3 190.8 197 201.7 205.3
337 338.4 335.7 331 331.6 334.4 343 353.9 360.6 362.1 361.7 361.2 358 354.6 350.8 345.4 338.8 330.7 322.1 314.2 307.9 299.5 296.1 283.2 280.1 278.2 277.4 275.8 275.5 276.1 276.7 277.9 279.2 278.4 279.6 281.5 284.2 292.6 299 306.8 313.9 320.6 328.3 334.7 337.3 340.3 341.7 345 344.1 342.8 341.7 339.5 336.3 335 332.7 330.9 327.4 320.3 312.1 305.9 301.2 296.2 290.2 285.2 285.9 288.9 295.2 301.9 309.2 317 322.4 327.2 330.3 326.7 323.8 315.7 308.9 299.4 290.4 280.6 274.6 265.8 259.4 247.9 223 210.3 198.3 189.3 181.9 177 171.8 166.9 159.9 154.5 149.6 145.4 146.3 151.9 158.7 155.5 158.7 167.3 173.1 180.1 187.6 195.6 202.8 206.5 209.6 214.6 220.6 222.7 221.3 220.7 220.7 217.2 208.2 200.8 191.8 184.7 174.1 164.5 153 140.9 128.9 121.3 116 111.8 108.7 106.5 104.6 103.9 102.4 101.1 105.7 111 113.2 114.5 114.9 115.3 115.8 117.9 116.8 117.2 116.1 115.3 115.5 115.5 115.4 114.4 114.6 115.6 116.5 113.5 106.9 100 94.7 89.2 83.1 81 78.4 75.8 75.9 78 84.3 87.6 85.5 84 82.2 85.8 87.8 90.3 94.1 98.5 102.2 102.4 104.8 106.1 107.5 110 112 114.5 117.8 122 127 133.9 140 146.3 152.2 155.8 158.5 162 165.7 169.9 177.2 185.9 194.3 200.6 204.9 208.5
335.3 335.5 332 329 330.5 330.4 337 348.8 358.9 360.6 360.8 359.9 358.4 356.2 353.2 347.9 341 332.9 324.7 318.4 313.6 306.8 299.3 292.6 286.8 281.7 278.1 275.4 274.8 276.1 277.3 278.5 279 278.9 281.2 283.6 287.4 295.5 304.9 313.6 321.7 330.7 338.6 344.4 348.2 349.3 352 352.5 351.2 349.3 348.7 346.8 343.2 339.8 337.9 336.5 333.6 327.5 321 314.1 308.8 302.2 296.6 289.5 290.9 295.7 303 311.3 317.8 322 328 332.7 340.5 345.9 341.8 334 320.6 309.3 304.4 297.8 295.6 284 273.6 262.9 242.7 225.6 210.9 196.8 188.7 182.7 177.9 171.4 164 158.1 152 147.8 144.9 147.6 153.9 150 153.2 160.7 166.1 172.2 180.6 189 196.4 198.7 200 203.9 208.5 213.1 213.1 211.1 212.6 211.8 207.5 199.2 191 180.3 170.2 165.9 156.1 144.6 133.5 123.5 115.2 111.3 109.6 105.8 103.9 102 100.7 97.3 103.5 108.5 110.2 114.8 115.8 116 116.3 116.4 115 114.1 113.5 113.7 114 114 114 113.3 113.8 116.7 115.1 109.3 102.4 96.7 92.3 86.9 83.1 82 75.4 75.2 79.9 86.8 85.6 84.3 83 82.7 84.9 89.3 90.1 97.7 98.1 103.4 105.6 107.1 105.2 106.8 110.5 111.2 112.7 118.3 124.1 127.8 130.5 133.6 137 142.1 149.5 153.2 156.8 160 165.4 169.9 175.1 183.2 191.8 200.6 207.1 210.3
330.3 329.8 329.3 328.1 327.1 327.7 328.8 342.4 354.4 357.6 359.4 358.7 357.1 355.4 352.7 347.8 341.7 334.2 328.9 322.6 318.3 309.3 301.2 295 288.3 285.2 279.5 275.9 275 275.8 277.1 277.8 278.5 281 283.4 284.8 288.9 295.1 307 317.1 327.8 337.2 345.9 352.5 357.6 360.3 361.7 361 359.7 357.5 356.1 352.6 349.5 345.7 345 341.3 339 333.3 326.8 321 314.7 308.9 301.2 296.5 296.6 299.1 306.2 313.3 318.3 324.6 330 336.8 350.7 354.7 350 337.8 325.4 318.1 314.3 311.3 311.5 304.3 287.9 269.8 252.9 238.2 222.6 205.4 194.1 188.3 182.6 176.3 167.4 160.4 154.5 149.5 144.3 144.3 146.7 150 148.9 152.9 157.9 166.4 174.9 182.5 187.3 189.8 192.1 193.7 198.4 205 203.6 201.2 202.3 203.7 204.1 198.8 189.2 177.7 169.5 167.1 159.1 146.4 134.9 125.7 119.6 112.2 111.8 108.6 102.2 102.9 98.9 95.9 101.3 104.5 106.9 115.7 117.2 117.1 117 116.7 114.3 112.8 113.7 112.9 112.5 112.5 112.7 112.3 112 114 113.3 105.5 97.2 93.7 91.2 85.4 81.4 74.9 79.3 83.6 85.3 86.7 85.2 84.3 84.4 85 87.5 92.7 98.8 101.5 103.9 106.3 108.9 112.1 110.4 111.1 113.4 116.2 118.6 126.1 132.4 135.1 134.8 134.9 137.3 142.7 145.1 151.5 155.9 159.7 163.7 168.2 172.3 178.7 188.2 197.2 204.5 208.6
322.8 324.4 325.6 325.6 325.3 326.4 327 333.5 345.8 352.8 354.5 355.3 354.6 353.2 349.4 346.6 342 335.2 330.1 324.8 319.9 312.8 307.2 297.1 292.5 286.1 279.3 277.2 276.4 275.5 276.7 277.2 278.2 282.3 283 285.5 289.6 293.9 305.4 317.5 329.4 340.3 351.2 358.9 364.9 369.5 371.2 370.3 367.9 366.5 363.9 358.9 354.3 349.9 347.4 343.7 339.9 336.4 330.6 325.7 322.1 318.8 310.3 304 302.3 303.3 306.1 311.1 316.7 324.3 327.9 335.4 349.5 360.3 361.6 349.7 331.8 327.8 324.1 320 321.9 318.1 302.1 282.4 260.8 245.6 233.4 218.7 203.4 191.5 184.9 178.2 170 162.7 157.1 151.4 146.2 140 143.8 145.6 146.4 148.8 153 158.3 166.7 173.1 176.1 181.9 184.9 185.9 189 193.6 196.2 192.9 191.4 195.5 196.7 196.7 186.9 175.7 170.8 164.5 158 150.6 138.3 130.4 117 110.8 108.9 107.9 103.2 101.5 98.4 99.3 104.1 105.9 105.9 109.7 118.3 118.4 114.7 113.4 112.1 111.6 111.4 111.2 111.6 111.3 111.4 111.7 111.4 111.9 110.4 100.8 95.8 93 86.8 78.6 74.7 83.3 90.2 91 86.6 86 85.5 84.7 86.4 86.3 93.4 99.1 101.4 109.7 109.1 111.2 114.5 114.2 113.5 115.6 117.5 119.6 123.7 127.9 135.9 138.8 140.3 138.9 139.4 142.3 144.7 149.3 154.1 157.8 161.5 166 169.8 174.6 182.2 190.7 199.2 210.6
318 320.5 322.9 323.2 323.7 325.1 325.9 329.4 338.7 345.9 350.4 350.5 350.1 349.3 347.9 345.8 341.1 335.8 330.7 325.6 318.6 310.3 307.4 296.4 291.5 284.8 280.6 279.3 277.8 276.2 275.9 276.5 277.5 279.6 282.3 286.4 290.3 294.7 301.2 313.7 325.9 339.6 353.6 363.7 370.2 375.4 378.8 378.7 376.6 372.8 367.8 363.7 358 351.9 346.5 340.8 337.7 334.9 330.7 331 330.5 323.6 314.3 309.7 306.6 305.1 305.1 307.5 312.3 316.8 322 327.7 341.4 351.2 360 357.8 343.8 339.1 334 331.8 329.4 330.9 320.7 300.8 272.5 255.3 242.2 225.8 210.5 196.6 187.5 179.2 172.9 165.8 160.1 155 147.4 143.3 141.6 143 144.9 146.8 149.9 154.2 158.5 163.4 169.3 175.4 177.7 179.4 182.7 184.4 186.6 185.3 182.7 181.7 187.8 188 184.9 175.4 169.9 163.1 157.1 151.5 141.9 133 115.6 110.8 108.6 104 96.8 96.8 96.7 97.4 103.9 106.8 106 112.5 120.2 120.4 114 113.1 111.4 110.8 110.1 110.4 111.7 113.6 111.2 110.4 110.2 110.5 102 95.7 93.6 87.7 82.3 76.4 79.6 91.3 92.6 92.9 88 86.2 86 86.3 87.5 89.2 96.6 99.6 111.9 114.9 114.3 115.5 117.7 118.9 118 116.8 118.9 121.9 125.6 129 135.7 139.4 142 142.6 141.5 142.1 143.8 146.8 151.1 155.4 158.6 162.8 166.6 170.2 175.1 185.2 193.8 202.3
313.4 316.4 318.6 320.2 322.7 321.7 323.5 327.4 331.5 341.7 345.4 346.9 346.4 345.9 346.1 344.2 339.3 336.8 332.1 325.7 316.9 306.7 299.7 297.2 290.7 285.7 282.6 281.4 277.9 276.7 281.5 276.8 277.4 282.8 284.4 286.5 291 294.4 299.9 308.4 318 329.7 347.4 363.4 372.9 377.1 379.6 380.9 380.7 376.1 368.6 363.2 357.3 350.7 344.3 338.4 334.3 331.4 328.1 327.6 329.2 328.3 318.7 313.3 309.4 306.2 305.7 305.7 307 312.5 318.3 322.5 326.9 336.4 343.2 349.9 346.3 341.8 341.8 338.2 336.1 335 328.1 312 293.2 268.1 250.1 231.7 217.2 204.7 192.2 183.1 176.9 168.7 162.9 157.8 149.7 143.4 139.5 141.5 143.5 145.8 148.2 151.7 154.4 158.4 161.7 167.3 170.5 172.9 176.3 177.2 177.5 177 173.6 171.4 178 179.3 180.3 174.1 168.4 164.4 159 152.1 138.3 124.5 116.8 110 109.3 102.1 96.8 94 95.5 93 100.9 102.1 102.9 108.5 112.3 114.8 113.7 112.3 110.5 110 109.3 109.5 115.6 116.1 115 111.6 109 103.9 96.7 90.7 87.7 87.2 80.4 74.8 83.7 93.7 96.1 88.3 87.6 87 86.8 87.7 91.1 93.4 97.3 102.5 109.7 115.1 118.7 118.5 119.5 120.8 121.9 122.8 121.8 122.5 124.5 127.6 132.2 137.7 141.7 144.9 144 143.4 144 147 150 153.3 159.2 162.5 164.6 166.2 174.4 181.9 188.2 194.3
307.3 311 313.5 319.2 321.9 320.6 321.2 323.2 328 334.8 340.4 343 343.1 343.3 343.6 341.5 338.8 335.6 331.3 323 316 309.2 302.3 298.9 295.2 290.9 286.2 282.6 280.7 282.1 281.6 277.7 279.8 285.5 286.4 288.6 292.1 295.7 300.2 306.5 313.8 320.7 331.9 348.7 368 374.2 375.2 376.4 375.1 372.2 365.6 358.4 351.5 345.6 340.8 336.3 331.3 327.6 325.3 324 322.6 321.9 318.9 313.7 310.3 307 305.3 304.8 304.9 309.6 314.5 319.3 320.5 324.8 331.8 337 338 340.1 340 339.2 338.7 335.7 330.1 318.2 302.6 279.2 259.3 239.3 225.3 211.4 197.4 189.1 180.7 172.5 165.9 159.6 151.8 146.3 138.3 139 141.4 144.3 146.5 148.2 150.3 154 156.4 160.4 164.5 166.3 169.8 171.7 171.7 168.4 166 163.6 166.5 171.5 171.7 170.1 165.8 162.1 159.1 151.2 137 122.9 113.5 109.4 106.1 99.7 94.5 91.9 91.3 90.8 95.6 99.7 103.1 103.5 107.3 109.2 111.2 111.6 111.1 110.2 109.6 108.5 115 118.7 116.3 114 109.3 101.2 94 88.4 87.6 82.9 77.8 74.7 84.9 90.3 88.3 88.5 89 87.9 89 91.8 93.5 95.3 97.4 102.5 110.8 116.8 120.5 122.1 121.4 122.6 123.8 127 126.8 126.6 126.5 132.8 136.6 137.5 141.1 144.5 146.9 147 149.4 149.5 149.8 151.6 155.9 160.6 162.7 167.3 173 179.8 186 191.5
301 305.6 311.6 315.3 318.3 319.9 320.7 322.3 326.5 331.8 336.4 339.3 340.9 341.3 341.6 341.2 337.7 334.6 329.6 322.7 316.7 308.3 305.7 307.9 299.4 291.7 287.4 283.4 284 287.9 285.9 278.6 282.3 288.4 286.8 290.6 297.1 299.5 304.5 307.5 311.7 316.3 320.3 328.1 341.2 360.1 365.3 368.8 369.1 363.5 358.6 352.9 345.8 339 334.8 331.1 327.5 325 322.7 319.9 318.2 315.3 312.7 312.3 310.8 305.9 304.8 304.3 304.1 305.3 312.6 315.5 318 321.2 329.2 334 332.1 334 335.8 334.5 333.9 331.3 324.8 319 305.5 286.2 264.4 244.7 230.8 217.1 202.8 193 184 175.3 169.2 162.7 154.8 148.3 142.3 139.9 138.4 141.8 143.5 145.9 147.1 150.4 153.5 157.2 159.1 160.2 163.1 165.6 166 163.9 159.3 156.6 156.2 159.4 162.3 161.4 159 158.2 157.1 148.8 137.1 127.5 116.7 109.5 105.1 96.2 94 91.5 90.7 90.2 92.7 98 101.3 99.6 102.1 103.4 105.9 110 109.5 107.7 106.3 107.9 116.5 121.2 120.2 117.3 106 96.9 90 86.3 83.7 81.1 75.9 76.1 85.2 87.1 89.3 91.5 93.4 89.1 91.2 93 94.3 96.3 100.3 105.9 114.7 118.9 121.8 124.5 123.3 127.2 127.4 130.5 130.8 130.7 131.9 130.5 134.8 137 140.6 143.3 145.5 148 149.8 150.6 153.5 153.3 156 158.4 163.5 168.9 172.7 178.8 184.9 190.2
295.1 301 308.3 313.5 317.1 319.7 320.8 321.9 324 328.3 332.4 336.3 338.4 340.2 340 339.9 338 334.9 330.7 324.8 321 314 312.3 310.5 305.3 294.7 295.8 286.7 289.9 293.7 288.8 283.8 284.9 289.3 288.8 297.8 304.2 305.4 309.6 311.1 313.6 317 317.8 319.3 325.1 331.8 346.8 354.1 359.1 357.9 351.1 345.4 338.8 334.5 330 326.3 322.7 320.3 318.5 315.9 313.2 309.4 307.2 305.7 303.7 302.6 303.2 303 303 303.1 309 312.2 315 317.3 323.4 330.6 328.7 326.5 326.4 325.7 324.7 322.7 318.1 309.9 301.3 287.7 267.2 252.3 237.5 222.7 206.7 196.4 185.6 177.2 172 164.3 157.6 152.3 146.9 140.7 136.5 138.2 141.8 143.1 144.3 146.8 149.6 151.5 153.3 154.7 157.1 160 160.9 157.8 154.2 152.2 151.9 152.4 152.9 153.6 153.1 152.2 151.4 145 139.4 127.5 120.9 107.9 103 96 92.7 91.2 90.5 90 90.9 97.2 99.7 97.3 99.7 100.1 101.2 104.6 106.9 105.5 104.9 107 115.2 120.3 120.6 114.8 100.4 94.6 89 87.3 89.6 80.1 75.4 77.8 86.2 89 90.7 90.4 89.1 90 91.3 93 95.4 97.3 102.9 110.2 117.2 121 123.9 126.7 129.9 133 135.8 135.5 133.4 133.4 133.9 133 131.9 135.5 141.3 143.9 144.6 148.9 151.4 153.3 155.6 156.7 157.8 159.7 162.5 166.4 170.5 174.8 179 188.1
292 297.5 305 309.9 312.2 315.3 317.8 320.8 322.1 325.1 328.7 332.7 335.3 337.3 338.4 338.3 337.3 334.4 330.5 325.9 321.8 315.1 314.3 311.3 303.6 301.6 297.2 293.6 295.2 298.8 290.7 287.1 288.6 294.5 296.8 307.3 310.9 313.1 315 316 319.4 318.3 318 318.1 317.2 320.9 324.1 333.1 342.6 344 343.1 338.9 331.8 328.1 325.2 321.3 318 315.7 313.4 309.9 307.1 306 303.3 300.4 301 300.2 300.9 304.7 305.8 306 308.8 312 313.8 314.8 318.8 320.8 322.7 320.6 321.1 318.9 316.3 314.2 306.7 300.9 291.1 280.9 266.5 254 239.5 226.4 211.2 198.7 187.4 179.2 172.5 164.2 159.4 155 150.5 145.2 139.1 135.9 138.3 141 142.4 144.9 145.7 147.2 148.7 149.9 152.7 155.4 154.6 152.9 149.7 148.9 148.7 149 148.2 148.2 148.3 147.4 146.9 142.8 140.5 127.3 117.2 106.6 103 96.1 92.6 90.5 89.3 89.3 90.1 95.6 97.5 95.4 96.1 96.4 97.2 99.5 102.9 104 103.9 106.2 111.9 120.6 115.4 109.4 95.5 91.9 90.4 89.2 83.7 77.9 74.3 79.8 87.7 90.5 90.6 88.4 89.7 91.5 92.6 93.8 94.1 101.9 108.2 115.1 121.2 124.8 129.2 132.7 135.8 138.1 139.9 138.9 139.3 137.3 137.2 137.3 140.2 143.7 145.4 148.1 149 149.5 151.5 154.5 156.7 158.2 158.6 159.9 162.3 165 168.8 171.5 181.6 192.1
290.5 292.9 299.2 308.1 310.4 312 313.9 316 319.4 322.7 325.2 329.1 331.9 334.2 335.5 336.5 336.4 333.2 329 324.5 321.3 316.2 316.3 310.9 306.5 306.8 303.8 301 300.2 300.3 294.4 294.3 298.8 303.7 306.8 313.2 318.5 321.7 322.6 323 323.8 323.4 322.1 319 316.5 314.5 313.4 317.7 320.9 324.1 325.9 325.2 322.6 319.5 316.5 314.1 311.3 308.1 306.4 303.8 303.6 301.3 298.5 298.8 300.9 306.3 309.4 309.9 312.1 312.2 311.5 311.4 313.1 313.1 314.7 316 317 315.3 313.7 311 307.7 304.2 299 290 282.4 271.8 262.9 251.4 239.9 228.2 214.9 201.2 189.7 181.5 172.8 165 160.2 156.3 151.8 147.1 141.6 139.7 134.6 138.3 141.8 144.5 144.9 145.4 146.8 147.2 148.4 148.9 148.2 147.3 145.8 145.6 146 147 146.4 145.7 146.3 146.6 143.8 140.2 135.3 124.2 117.5 109.9 103.2 96.7 93.8 92.6 88.9 87.9 88.3 90.9 93.2 95.7 94.1 93.8 96.2 98.5 99.4 101.3 105.8 106.3 107.9 111.2 108.4 102.5 103.9 97.6 90.5 85.9 85.4 76.3 74.2 83.3 87 90.2 86.8 88.8 90.7 92.3 93.9 94.2 98 104.9 112.7 118.8 122.8 128 132.9 137.1 141.4 144.1 146.3 150 150.8 150.8 149 149.5 151 151.5 152.2 151.5 151.9 151.7 152.2 153.6 157.2 159.2 160.4 161.7 162.6 164.4 167.4 172.2 183.5 191.7
285.2 290 294.8 303.2 308.1 309.3 311 313.3 315.5 318.3 322 325.5 328.3 331.1 332.7 334 333.9 330.8 327.1 324.6 322.2 320.9 318.3 312.7 309.8 310.2 307.9 304 303.5 300.6 302.3 305.9 310 314.5 315.6 321.1 324.7 328.3 329.5 329.4 330.3 330.1 327.9 323.6 316.4 312.3 308.7 308.7 310.7 312.4 314.2 312.7 311.2 308.6 308.6 306.5 304.2 303.2 300.7 299 301.4 300.8 296.5 300.4 309.8 314.3 318.4 319.9 319.1 318.2 315.2 312.9 312.6 312.5 310.8 311 310.9 309.7 306.6 304.1 300.4 295.1 289.1 281.5 273.2 263.7 254.4 245.3 237.3 228 216.4 203.6 191.3 181.5 172.8 164.7 159.8 156.1 152.2 148.2 144.8 140.8 137.5 134.5 139.5 143 144.2 144.7 145.4 145.8 146.1 145.2 144.8 144 143 142.9 144.4 144.4 144.3 144.3 144.7 143.9 140.8 136.4 132.5 124.9 117.8 110.3 106 100.9 97.4 94.1 89.3 86.3 86.7 90 92.7 93.6 93.4 92.5 93.9 95.9 98.4 100.5 107.4 108.1 106.8 111.2 102.8 103.7 100.6 98.2 90.7 82.7 80.1 74.6 75 86 87.7 85.7 87.8 90.1 92 93.8 94.1 98.6 101 106.6 117.6 124.3 127.1 130.7 136.4 141.3 147.4 153.8 157.4 161.6 162 161.8 160.9 158.6 158.7 158.1 156.3 155.2 154.9 154.5 154.2 154.1 156.2 159.3 160.6 162.6 164.6 167.1 168.9 174.4 179.3 188.1
281.8 286 290.8 297.2 303.8 306.6 308.1 309.6 312.2 314.1 317.6 321.3 324.9 327.7 330.1 331.1 331.2 330 327.7 325.6 326.2 323.1 319.7 317.7 315.6 317.2 313.1 309.4 308.2 311.6 314.6 317.5 319.8 322.4 324.8 328.7 331.6 333.8 335.5 337 336.1 333.4 330.4 327.4 321.2 312.9 306.5 304.4 304.2 304 304.1 304.4 302.7 300 301.1 301 300.4 298.3 297.1 295 294.7 295.8 296.9 306.3 316.4 321.9 325.3 326.8 325.2 322.3 319.4 316.1 312.7 311.2 309.6 307.5 306.8 304.7 300.6 297.3 293.7 288.6 281.9 274 266.3 256.4 247.2 239.5 231.8 223.9 214.9 203.5 192.2 181.8 172.2 163.6 158.7 154.7 150.8 147.3 145.9 142.2 138.4 133.2 133.6 141.4 143.6 144.9 145.3 145.5 145.8 145.6 144.3 143.2 142.4 141.5 141.2 141.1 141.7 143.3 142.7 141.5 137.8 134.7 131.7 123.4 114.9 110.4 107.3 103.4 99.4 93.7 89.1 85.8 84.7 86 89.3 91.3 91.6 92.6 90.3 93.4 97.4 102.6 107 109.5 108.6 103.4 102 98.8 91.6 88.8 83.8 80.3 78.3 73.2 76.8 83.6 89.4 91.7 92.4 90.7 93.1 94.1 97.1 100.9 103.4 109.9 117.8 127.3 129.7 135.1 141.6 147.6 154.3 161 163.3 169.4 172.3 171.1 169.3 167.4 165.6 163.4 160.6 159.1 157.6 157.2 157.4 159.2 159.4 158.3 161.4 165.9 166.9 169.2 172.4 175.9 179.9 187
275.3 280.7 286.9 292.5 298 303.3 305.7 307.8 309.5 311.1 313.3 316.9 321.2 324.3 326.6 327.5 328.2 327.5 326.3 325.8 325.2 324.6 322.7 319.7 321.1 319.3 318.2 317 315.2 317.7 322.4 324.9 327.2 330.9 333.3 336.8 339 339.7 340.1 341.6 341.5 338.1 334.6 328.7 322.8 314.9 307.5 301.3 299.1 298.7 298.4 299.3 297.8 297.3 300.4 300.4 298.4 295 293.6 291.7 290.8 291.7 296.7 308.7 319.2 327.2 329.2 329.7 329.8 328 324.1 319.3 313.6 310.5 308.3 305.7 303.3 303.8 299.3 292.7 285.8 280.1 273.3 267.2 258.9 249.8 241.8 234.3 226.9 219.4 211.1 202.2 192.6 183.4 173.6 165 157.6 153.3 149.3 146.6 145 141.5 137.6 133.4 132.2 134.7 144.1 144.7 145 145.2 145.5 145.8 144.9 144.1 142.7 141.2 140.6 140.1 140.3 141.4 142.6 140.9 138.1 134.4 129.8 120.2 111.1 108.2 106.6 106.3 96.8 93.7 88.2 85.1 83.5 83.2 86.4 87.3 87.7 90 87.8 90.9 93.2 99.2 102.9 105.7 101.7 100.6 98.3 99 89.5 86.8 81.9 77.7 76.7 73.1 77.5 88.1 93.2 92.6 91.5 92.1 94.2 96.4 100 102.7 105.5 109.6 116.8 122.1 131.4 137.8 147.1 155.1 161.7 166.7 168.8 174.3 178.1 177.4 176.1 174.2 172.2 168.7 166.3 163.5 161 160 159.6 160.6 161.2 164 164.3 163.8 165.6 168.1 172.8 175.3 178.2 186.7
269.3 274.1 280.9 285.5 292.9 296.7 302.2 304.9 306.6 308.1 309.9 312.6 316.6 320.3 322.5 323.9 324.7 324.5 324.1 323.6 323 322.8 321.9 321.8 322 323.2 322.8 322.2 321.8 324 328.3 331.8 335.1 337.8 341.5 343.5 344.9 346.4 347.1 346.7 345.4 342.1 336.7 330.5 324.1 316.6 308 299.9 296.8 293.5 292.1 292.6 292.8 293.5 301.5 299 296.3 293.7 291.2 289.1 290.1 293 297.5 309.6 319.9 327.6 329 330.3 330.8 330.7 328.9 323.6 317 311 307.4 303.9 300.8 295.9 294.8 289.9 283.6 275.7 268 261.6 253.9 245.4 237.5 229.3 221.8 214.6 207.8 200.3 191.4 182.4 174.1 165.4 156.9 151.3 149.4 145.8 143.4 140 137 132.6 131.4 135.2 143.5 143.5 143.9 144.2 144.5 145.1 143.9 143.7 142.3 140.9 139.9 139.2 138.5 137.8 138.3 138.1 134.9 132.5 127.8 120 112.5 106.5 102.4 99.8 94.7 91.2 88.9 85.8 83.3 82 83.3 83.5 86.1 87.2 86.2 87.5 90.3 96 101.3 106.4 101.5 99.6 96.8 94.1 91.7 86.7 80.7 76.9 75.9 73.5 80.4 88 91.2 91.6 92.6 94 95.7 98.8 102.3 105.1 109.4 114.1 118.7 126.4 130 136.4 146.9 160.2 165.5 170 173.5 177.4 180.5 181.1 179.4 178.2 175.7 172.6 169.4 166.5 163.9 167.3 166.6 166.9 167.3 169.4 171.7 171.6 175.8 175.4 176 178.1 179.7 182
264 268.2 274.9 281.7 286.6 291.1 297.6 301.5 303.7 305.1 306.4 309 311.2 314.6 316.7 319.2 321.5 322 321.6 321.2 320.8 320.6 321 321.9 322.2 322.9 324.1 324.3 326 328.9 332.3 335 339.4 343.1 345 348.5 351.1 352.2 352.8 353.3 351.7 346.6 340.7 333.4 327.1 318.6 309.4 301.5 293.9 291 285.8 285 285.1 289.5 288 287.8 294.6 293.6 290.5 287.8 290.4 293.3 300.1 308.2 318.8 326.7 328.1 327.7 328.7 329.3 327.7 325.2 319.6 313.7 307 302.3 298.2 292.5 287.7 284 283.5 277.1 265.2 259.5 253.1 243.6 233.2 224.5 217.8 210.9 204.3 198.2 189 179.3 171.1 162.3 155.1 149.6 146.7 144.2 142.3 140.2 137 129.1 130.2 138.7 142.4 142.4 142.5 143 143.6 143.3 142.4 142.6 142.1 140.5 140.2 138.7 137.9 137.7 135.9 134.5 132 129.6 127.4 118.2 111.2 105.1 101.2 97.5 95.1 91.9 88.8 86.5 83.6 81.8 81.1 80.7 81.5 83.2 84.2 84.8 86.7 93.1 97.4 100.7 98.3 98.6 94.7 91.2 88.2 83.2 78.8 75.8 73.7 73.6 84.9 94 91.7 92.6 93.9 94.6 97.9 101.1 106.1 110.5 114.6 119.1 125.4 133.3 137.2 141.9 145.6 156.4 161.6 170.9 173.2 176.8 178.7 181.1 181.1 179.1 178.4 178.9 178.5 175.2 174.4 173.7 172.5 170.4 170.8 173.9 176.2 178.8 182.2 181.6 181.7 183.3 185.1 189.1
259.8 263.8 268.5 275.1 280.8 283.4 291.6 296.4 300.9 302.3 303.6 305.1 306.8 309.8 312.8 315.9 318.2 318.9 318.6 318.3 317.9 318.3 318.8 319.5 320.5 321.5 322.4 323.7 326.5 330.4 334.6 339.9 342.6 346.6 349.6 352.3 355.3 357.3 358.6 358.9 358.3 354.5 348.5 339.7 330.7 322.1 312.7 304.4 295 287.2 282.1 278.2 278.2 278.2 284.8 287.6 291.1 291.5 288.7 289 291.1 295.6 302.5 310.2 314.6 320.7 322.5 324.3 324.8 324 322 320.2 317.7 316.7 310.6 301.4 295.4 288.2 283.5 277.5 274.1 272.3 263.1 258.6 251.1 242.6 232.4 223.3 216.4 207.9 201.6 195.1 184.1 173.6 165.5 161 151.2 146.8 145.6 142.2 141.3 138.4 135.5 130.7 135.9 140.1 140.9 140.5 141.2 141.9 142.4 141.6 141.3 141.5 141.8 140.4 140.4 139.1 138.4 138.8 136.4 134.2 131.2 127 124.3 118.8 110.9 103.4 101.8 98.2 94.9 92.7 89.3 86.6 84.2 82.3 82 77.7 78.5 79.5 80 82.3 85 87.9 92.9 94.8 95.6 97.1 94.1 89.3 86 80.6 78.2 74.8 73.6 72.9 91.8 93.4 92.6 93.7 95 96.9 100 103.4 111.1 114.7 118.2 123.9 131.2 141 149.1 152.5 155.3 155.6 159 163.7 166.2 168.4 173.2 176.7 179.8 179.5 182.5 186.3 184.3 181.2 179 177.4 176.1 175.9 175.6 176.6 178.3 181.3 183.3 186.4 186.1 188.6 190.8 192.2
256.3 258.9 263.4 269 275.6 276.4 285.9 291.1 296.3 300 301 302.5 303.7 306.3 309 312.1 314.2 314.6 314.5 314.5 314.2 314.6 315.8 316.9 318.4 319.5 320.4 321.6 325.9 330.8 335.9 341.5 344 347.3 350 352.7 355.5 358 360.9 361.8 363.5 362.5 357.6 348.2 338 327.6 316.8 307 297.9 290.1 282.8 273 270.8 269.1 272.2 276.6 280.6 285.9 282.5 287.9 290.3 296.3 302.1 307 310.1 311.4 315 317.7 319 318.1 316 314.1 312 310.4 308.5 301.7 292.4 285.5 278.7 272.7 269.3 265.5 259 252.5 247.9 241.7 236.5 225.7 216.2 208.1 199.9 191.7 182 168.9 156.3 151.3 148.4 146.1 143.4 141.5 139.1 137.7 131.2 129.5 132.4 134.9 137 138.4 139.5 140.2 140.4 140 140.8 141 141.9 142 140.8 139.8 139.2 138.5 136.3 133.9 132.1 125.9 122.5 117.9 110.7 103.6 99.7 96.3 95.3 93.5 90 87.1 85.3 82.9 81.1 79.3 76.5 77.3 78.5 80.7 82.8 84.8 87.1 91.7 94.2 93.6 95.1 89.1 83.2 79.8 77.4 74.4 73 73.1 89.8 92.6 93.9 95.1 95.9 98.7 102.2 107.7 113.7 118.4 123.7 130.8 139.1 147.1 157 164.1 166.5 165.3 165.4 164.6 163.9 163.4 163.6 168.4 176.3 178.4 180.2 186 188.2 186.1 183.8 181.8 179.9 179.1 178.8 178.3 179 180.8 184.9 187.9 189.9 191.8 193.6 194.5
251.6 254.7 259.1 264.4 270 275.5 281.4 287 291.8 296.4 298.4 299.4 300.6 303.3 305.9 307.7 308.8 309.8 310.4 310.4 310.4 310.9 311.8 312.6 313.8 314.9 316.3 318.3 322.5 327.9 333.1 337.8 341.2 344 347.3 350 351.9 354.9 358.8 362.5 365.8 366.6 363.2 354.8 345.3 334.4 323 312.1 302.5 294.1 285.3 278.7 270.8 261.8 264.2 267.3 271 275.4 274 283.1 287.2 292.5 298 302.5 305 305.8 309.3 310.6 311.7 311.4 309.6 307.9 305.9 302.6 298.5 294.5 287.9 282.2 274.5 269.7 265 261.3 254.4 249.2 243 240.1 234.1 227.7 218.5 209.8 201.5 191.3 183.2 170.5 158.1 152.1 147.5 145.9 143.3 140.6 138.7 137.7 135 131.2 126.4 130.5 133.8 137.1 137.8 138.5 138.3 139.3 139.7 141.2 143 143.6 142.1 140.4 139.2 137.8 135.8 132.9 130.6 125.2 118.7 113.2 105.4 101.1 99 98.9 99 95.4 91.2 88.6 85.6 82.5 79.5 79.6 76.7 76.2 75.8 78.1 79.7 80.7 83.5 86 88.8 90.1 89.7 87 83.8 79.5 77.8 74.4 72.8 73 91.7 92.8 96.6 96.9 99 102.8 105.2 111.7 117 124.5 131 141.3 147.8 154.2 168.5 172.1 173.6 176.3 176.4 178.8 181.9 180.1 174.9 167.7 167.5 171.7 175.5 172.9 182 186.8 187.1 185.4 183 182.2 180.6 180.3 180.6 182 184.2 188.1 190.4 192.1 193.9 196.5
246.9 250.5 254.6 260 265.1 270.2 275.2 280.8 285.8 290 293.7 295.9 297.6 300.3 303.1 304.8 304.7 305.6 305.8 305.8 305.8 306 306.4 307 307.7 308.8 310.5 313.2 318 323 327.3 332 336 338.7 341.4 343.9 346 348.9 353.7 359.3 364.3 367.8 365.3 358.6 349.5 339.2 329 318 309.8 300 291.4 285.3 277.6 263.5 255 257.4 260.7 262.8 269.7 276.4 282.4 287.2 291.8 295.4 298.6 298.7 301.5 302.9 304.2 304.9 303.5 301.7 299.6 296.2 290.6 285.1 280.2 277.2 273 265.3 261.2 257.4 250.4 246.8 239.5 236.7 230.9 223.7 216.7 209.8 201.1 191.3 183.6 171 159.2 152.8 149.3 145.6 143.1 140.6 138.5 135.9 132.9 129.8 125.8 126.8 131.1 134.2 136.7 136.9 136.8 138.5 139 141 142.6 144.6 142.9 142.3 140.3 137.6 135.5 133.2 130.8 125.8 117.7 110.8 108.5 104.6 103.1 103.2 101.5 99.5 93.3 89.9 86.3 83 79.5 77.9 76.1 73.6 74 75.5 76.8 76.7 80.3 84.6 85.7 86.2 87.3 84.4 82.5 77.4 76 73.8 71.6 72.5 90.4 93.5 96.2 98.2 99.7 105.6 107.6 114.5 125 134.5 140.1 147.3 152.9 160.5 171.4 177 178.3 180.8 183.5 185 185.7 186.6 185.9 179 177.3 173 171.6 172.6 172.8 176 178.1 185.1 184.8 185.1 182.4 181.8 181.9 182.6 183.9 187 189.2 191.9 194.5 197
240.8 245 249.4 254.7 259.8 264.9 269.8 274.7 279.7 283.6 288.1 292.1 294.7 297.5 300.3 301.9 301.9 301.8 301.1 301.1 301.1 301.3 301.7 301.1 301.3 302.4 304.1 307.5 312 316.3 320.4 325.1 328.3 331.7 334.7 337.2 339.4 342.9 347.2 354.4 361.3 366.4 366.3 360.7 352.4 343.1 333.4 324.1 317.3 308 298.6 294.5 285.8 267.1 256.1 248.8 252.4 252 261.5 268.5 274.3 279.7 283.7 286.9 290.6 291 292.4 294.7 296.7 297.4 297 293.9 292.5 290.2 285.3 280.3 274.3 269.8 266.8 261.7 257.9 252.7 247.2 241.5 237.3 232.1 230.6 223.8 216.1 208.9 201.2 190.6 184.6 171.8 166.5 158 153.7 146.2 142.8 139.5 136.5 135.1 131.2 128.2 125 124.1 131.5 131.8 133.3 135.5 135.6 137.6 139 140.6 142.9 144.1 142.5 143.9 141.7 138.2 138.3 137.9 135.7 131.1 122.7 116.1 113.2 108.3 106.9 106.7 104.6 99.6 94.8 91.9 88.5 83.3 79.9 76.5 75.5 73.7 73.9 74.8 74.5 74.4 76.5 78.3 80.9 82.5 84.1 82.1 80.4 76.3 75.3 73.3 71 78 89.6 93.1 95.7 97.2 104.1 107.3 110.3 117.9 133.1 142.4 146.6 152.8 158.3 166.1 172.5 178.9 183 186.5 189.3 188.7 187.5 189.2 194.3 188.4 182.1 180.9 181.5 183.9 185.4 185.5 184.5 184 183.6 185.8 183.7 182.8 183.1 183.6 186.8 188.3 191.8 194.5 198.2 202.9
234.7 238.7 243.6 249.3 254.4 259.5 264.4 269.3 273.9 278 282.2 287.4 291.6 294.4 297.4 299.3 299.5 299.3 298.7 298 297.2 296.8 296.8 295.6 295.4 296.4 297.9 300.7 304.5 309.1 313.5 317.4 320.6 323.9 327 330 333.2 336.5 339.6 346.2 354.5 363.1 365.8 361.9 356.7 348.3 340.5 331.8 323 314.3 305.9 302.4 289.4 268.5 255.7 247.1 246.9 246.4 253.7 259.7 265.8 270.8 275.5 278.4 281.2 281.9 282.7 285.2 287.9 288.8 287.8 285.8 282.8 284.3 279.7 276 272.3 269.1 265.9 260.1 253.4 247.6 242.6 238.6 233.1 224.9 223.6 219.8 215.5 206.8 202.1 195.4 183.5 177.6 166.2 158.2 154.4 148.9 144.7 139.6 135.3 133.2 129.9 128.7 124.5 123.7 130 130.3 132.1 133.7 134.3 136.5 138.1 140.4 140 141.2 141.7 143.3 141 140.1 140.4 142.7 140.2 137.2 129.6 122.7 116.7 112.2 110.6 110.1 104.6 99.7 96 94.3 89.8 83.9 79.9 76.4 74.4 73.8 70.9 73.3 72.4 72.7 74 75.4 76.9 79 80.9 80.8 79 77.8 76.1 72.6 70.6 77.9 88.3 91.9 94.7 100.1 104.2 107.9 114.2 124.6 136.6 147.8 154.5 160.2 166.8 169.3 173.1 178.4 184.2 186.6 188.8 191 192.3 191 193.9 195 185.2 184.6 187.2 195.7 197 194.8 191.8 189.4 188.5 187.6 187.2 185 184.8 185 187.2 190.2 194.6 197.9 200.6 204.9
228.2 232.5 237.7 243.4 249.1 254.2 259.1 264 268.7 272.3 276.8 282.4 288 291.6 294.6 296.6 297.1 296.8 295.8 294.9 293.9 293.1 291.8 290.5 290.5 291.1 292 294.8 298.3 302 306.7 310.6 313.5 316.4 319.4 322.9 326.4 329.9 332.9 337.3 347.5 356.4 363.1 365.8 365.8 362.1 352 339.8 327.4 317.1 309.8 305.3 289.3 268.2 257.2 249.7 241.3 237.5 244.4 250 255.8 260.5 265.1 268.4 270.8 272.3 272.7 275.7 278.6 279.3 278 276.6 276.4 276.1 275.6 273.7 270.9 268 264.6 260.8 252.7 247 238.5 232.6 228.2 221.8 218.6 214.3 210.4 203.8 197.3 192.7 185.9 177.4 167.2 158.1 154.1 148.1 143.8 137.3 134.5 131.5 128.8 126.8 124.4 123.9 127.8 129.5 130.9 130.8 132.4 133 135.5 136.3 137.7 140.4 140.1 141.5 143.3 145.2 143.4 145.8 146.4 141.6 135.1 125.5 121.5 117.3 114.4 111.8 104.8 99.8 97.2 93.7 89.4 85.4 80.6 78.1 73.9 72.7 70.8 71.3 71.1 71.2 72.1 72.7 74.4 77 77.4 78.3 77.1 79.3 74.7 72.2 70.3 76.8 88.6 92.3 95.8 99.1 107.1 109.4 118.2 128.2 140.4 155.5 164.4 172.3 178.1 178.5 176.6 179 182.5 185.5 187.7 190.3 194.3 192.8 191.3 192.1 190 185 185.1 196.9 198 197 195.8 194.6 192.9 190.1 187.8 186.6 186.2 186.6 188.6 191.8 196.5 199.5 203.2 207.1
222.4 227 231.7 237.5 243.2 248.8 253.8 258.7 263.6 267.1 271.8 277.5 283 286.8 290.1 292.3 292.7 292.9 292 291.2 290.3 289 287.6 286.1 286 286 286.4 289.3 292.9 296.4 300 303.8 306.5 309.1 311.7 315.4 319 322.4 324.5 328.5 335.5 345.6 355.2 361.2 365.2 371.8 362.2 348.9 335 322.6 311.3 301.6 290 268.3 256.9 250.4 241.4 231 237.1 241.4 246.2 250.3 254.8 258.3 260.4 261.6 262.8 265.9 268.1 268.4 268.2 267.9 267.8 268.7 270.4 270 268.2 266.2 264.2 261.6 255.8 248.9 239.9 230.6 226.4 220.2 214.6 210.3 205.5 199.2 192.1 184.8 180.6 173.5 168.2 161 154.6 147.7 140.7 135.1 133 129 127 125.4 123.2 122.7 125.8 128 128 127.9 129.4 128.6 131.5 135.6 139.3 141.2 144.5 145.6 145.5 146 146.6 148.6 148.8 146.3 135.3 128.3 124.4 121.5 117.5 113.6 105.9 101.6 98.3 94.7 91 87.1 82.2 78.4 74.8 72.4 71.1 70.8 70.6 70.4 70.4 71.5 73.9 73 75.7 74.7 75.9 76.1 71.8 71.1 70.5 76.9 92.8 94.6 96.6 101.3 107.7 112.8 121.9 132.3 141.1 153.6 167.8 176.6 183.9 184.6 181.2 180.1 186.6 188 191 195.8 194.1 197.3 193.2 190.4 189.6 184.4 183.8 190.7 197.8 197.6 196.3 194.8 193.5 192.1 189.5 188.2 187.8 188.6 189.3 193.2 197 199.5 202.9 205.7
217 221.7 226.4 231.4 237.2 243 248.3 253.5 258.4 262.3 267 272.6 278.1 281.8 285 287.5 287.9 288.8 288 287.1 286.3 284.6 282.9 282.2 281.9 281.9 282 283.3 286.9 290.4 294 297.6 300.4 303.1 305.5 308.2 311.8 314.7 316.8 319.7 325.7 333.2 343.8 350.5 355.2 359 364.3 357 345 333.6 314.1 298.3 283.9 271.4 257.9 250.7 240.9 227.9 230.4 234.2 238.1 241 245.1 247.9 250.2 251.3 251.7 253.9 255.9 256.9 258.3 258 257.6 256.8 260.1 261.9 259.6 257.6 259 256.7 254.3 248.3 241 235.5 229.2 221 211.5 205.6 199.2 195 189.3 180.9 176.7 171.7 164.6 158.4 152 145 139.6 136.5 131.7 128.4 126.7 123.7 119.5 121.5 123.3 124.2 124.7 124.6 125.9 125.9 130.9 137.4 141.7 145.9 149.1 149 148 147.3 147.5 149 147.4 146 139.5 133.2 128.3 125.1 122.2 116.5 110.2 105.5 102.2 97.7 94.4 88.2 84.2 79.2 75.4 73.2 71.6 71 70.5 70.4 70.2 69.8 72 71.7 70.6 71 72.2 70.5 70.8 70 70.7 80.9 92.1 96.3 97.1 102.1 108.6 114.7 124.1 133.1 140.7 147.5 162.2 175.4 182.6 187 184.2 182.1 189 192.9 195.3 198 197.6 196.6 196.2 190.6 187.7 184.5 183.1 184 193.3 196.2 195.5 194.3 192.5 190.6 190.4 189.9 189.7 190.1 190.4 194.3 197.4 199 201.4 204.7
210.7 215.6 220.5 225.7 230.6 236.5 242.5 247.8 253 257.8 262.1 267.6 273.1 276.8 279.7 282.6 283.8 284.8 284 283.1 282.3 280.6 279 278.5 278.1 277.8 278 278.5 280.6 284.2 288.7 292 294.6 297.3 299.4 301.4 304.6 307 309.1 311.2 317.1 324.5 330.4 335.2 337.9 338.5 342.7 344.2 342.2 335.6 325.4 303.6 281.9 264.5 254.9 248 238.3 228.8 224.3 230.2 231.9 233.2 236.4 237.7 240 240.6 240.6 242 243.8 245.9 247.8 247.8 247.7 248.4 251 252.5 252.1 249.7 247.1 249.4 247.3 244.3 239 235.4 231.7 223 214.9 208.2 195.3 189.9 183.9 176.7 172.6 171.4 165.6 159 151.7 145.5 141.2 138.7 131.2 127.9 123.8 121.3 118.4 119.4 120.4 120.8 121.4 121.6 121.9 123.5 129.6 138.3 142.5 143.6 145.8 146.9 147.5 147.8 148.3 148.5 148.6 148.5 144.8 138.4 131.5 127.1 123 118 112.4 109.2 106 101.1 97.8 92.7 87.8 83.9 77.5 74.3 72.3 71.1 70.6 70.3 70 69.5 69.1 69.2 69.6 69.9 70.2 70.3 70.3 68.9 72.8 81.7 93.9 98.5 100.1 104.2 110.7 116 126 133.4 142.7 148.2 155.1 168.1 176.7 183.7 185.3 186.4 191.2 196.4 198.4 200.8 198.6 194.8 194.4 191.6 187.1 183.3 181.9 181.2 184.1 190.7 192.8 192.5 191.1 189.3 189.7 189.8 190.5 190.6 191 193.3 196.9 199 200.7 203
204.5 210.6 216.1 219.8 224.2 229.2 235.2 241.3 247.2 252.2 257.2 262.7 268.2 271.5 274.4 277.4 279.8 280.8 279.9 279.1 278.2 277.5 276.3 275 274.5 274.1 273.7 274.2 274.7 278.9 283.5 286.4 288.8 291.3 293.3 295.3 297 298.8 300.7 304.5 309.1 316.1 320.7 323.3 322.6 322.5 321.5 324 324.5 324.2 322.1 310.5 283.2 262.3 252.9 243.6 235.2 228.8 223.1 225.8 225.3 223 225.6 227.7 229.9 229.8 229.7 230.5 232.6 235.9 238.2 238.5 238.8 240.4 242.5 244.1 245.2 244.7 242.7 241.3 241.5 237.6 233.5 230.6 226.9 221.9 214.4 207.7 198.4 190.1 180.5 171.2 168.6 164.3 161.2 157 149.7 148 140.5 135.4 130.2 128.2 122.8 120 117 116.2 117.5 118 118.4 118.5 119.2 121.6 126.8 135.5 141.4 141.1 143.8 146.7 147.6 147.8 149.6 150 149.9 149.6 147 140.3 133 127.4 123.7 119.3 114.1 111.8 109.1 105.5 101 96.1 92.5 88.8 82.7 75.1 73.1 71.8 70.8 70.1 69.7 69.3 69 69 69.2 69.6 69.9 70.2 70.1 68.3 71.7 80.6 92.9 96.5 103.8 108.5 112 120.4 128.5 136.9 143.4 150.4 156.1 163.2 170.7 177.5 184 185.4 186 193.9 198 197.1 198.7 194.6 190.4 189.9 185.9 182 180.8 180.6 180.4 181.7 186.7 188.6 188.4 188.7 188.6 188.9 190.9 191 191.8 193.4 195.1 197.8 199.3 201.5
198.5 205.5 210.1 213.8 217.9 222.8 229.3 235.6 241.2 246.6 251.6 257.1 262.7 267.5 270.8 274.1 276 276.7 276.8 277.1 276.8 276 274.7 273.3 271.9 271 270 269.4 270.2 273.3 278.2 280.7 283.1 285.2 287.2 288 287.9 290.1 293.8 298.3 302.7 307.7 311.4 312.8 311.8 309.2 305.7 302.8 304.6 304.8 302.5 294.7 286.1 266.3 250.2 238.1 229.4 225.5 224.3 213.3 216.7 215.7 215.2 217.7 220.3 220 220.2 220.9 225.7 228.3 229.2 229.8 231.2 233 233.7 234.5 236.6 240.3 239.8 238.8 236.2 234 230.5 223.8 221.8 216.2 212.2 207.5 199.1 189.5 180.3 174.8 169.4 165 162 152.2 145.2 140.2 137.6 135.5 131.1 125.4 121.6 117.5 114.6 114.3 115.3 116.1 116.6 115.9 116.9 118.9 127.1 135.7 140.8 138.1 143 146.6 148.8 149 150.9 151.4 151.1 149.9 147.2 141.6 134.9 128.7 124.9 120.8 116.9 114.6 112 108.7 103.8 100.3 95.9 91.2 83.8 79.8 74.9 72 72.7 71.4 69.5 69 68.9 69 69 69.2 69.6 69.9 68.5 69.2 72 82.5 93.4 97.2 105.8 109.7 115 122 131.7 141 147.2 153.1 158 162.2 168.8 176.2 179.8 183.2 183 184.4 191.8 194.5 192.8 191.4 187.9 185.3 182.9 180.3 179.9 179.7 179.9 180.1 180.4 181.9 184.8 185.8 184.4 187.7 189.6 192.7 193.5 195.4 197.2 198.2 199.7 203.4
194.2 199.4 203.1 206.1 211.2 217.7 223.9 229.5 235 240.5 246 251.5 257.1 262.4 267.6 270.7 272.8 275 276.1 275.8 275.3 274.4 273 271.5 270.2 268.9 268 267.1 267.7 269.3 271.9 274.5 276.2 277.9 279.1 279 278.5 281 285 289.1 293.2 297.3 300.4 300.8 300.8 298.9 296.5 289.7 282.4 286.5 284.9 277 270.8 262.5 247.2 234.4 223.9 220.7 219.4 217.4 207.7 209.6 209 208.9 210.7 211.3 212.9 214.3 217.8 219 220.8 221.7 223.6 222.4 225 226.9 228.6 233.8 235.4 235.7 233.8 230.6 228.7 226.9 221 210.5 208 201.7 194.6 185.8 178.6 173 166.8 160.6 156.7 151.9 149.2 142.2 139.9 135.3 129.5 124.3 120.2 116.9 114.5 113 113.4 114 114.6 114.6 114.5 116.7 124.1 132.3 134.4 136.5 140.2 145 148 149.3 153.2 153.1 151.6 149.5 147.2 143.8 138.5 131.7 127.2 123.6 120.6 117.2 114.5 110.4 105.4 104.3 100 93.6 86.6 84.5 78.9 73.1 73.3 71.9 69.4 68.9 68.9 68.9 68.9 68.9 69.2 67.8 66.9 69.1 72.9 81.2 92.4 97.2 105.1 110.4 116.2 121.9 133 141.8 148.6 154.3 159.3 164.7 170.7 175.4 176.9 178.7 179.6 181.5 182.5 186 186.1 187.1 185 183.3 181.4 179.5 179.3 179.2 179.4 179.6 179.7 181.1 182.4 183.2 183.3 186.1 187.5 189.4 193 195.4 197.8 198 199.7 203.3
190.5 194.2 196.6 199.6 204.9 211.9 217.5 223.1 228.6 234.1 239.6 245.8 251.4 257 262.6 266.5 270.3 272.6 275.5 275.1 274.3 273.4 272 270.4 268.6 267.3 266.1 265.4 265.6 266.3 268 268.6 270.2 270.8 270 269.8 268.3 270.2 274 278.4 282.5 285.9 288.5 289.5 290.1 289.3 287.4 281.4 271.6 265.7 266.2 262.9 258.5 254.1 242.6 229.5 218.3 215.8 218.5 218.7 209.9 204.8 203.3 203 203.5 204.9 206.1 207.7 209 208.5 211.3 214.1 215.4 218.1 216.1 219.1 223.3 226.3 228.5 233.1 232.3 229.3 226.9 220.4 215.5 208.5 202.7 201.7 194.5 183.7 175.5 171.4 164.9 161.9 155.5 150.3 146.1 139.6 136.6 131.1 127.5 123.1 120.2 116.7 113 109.3 111.3 111.9 112.5 112.8 112.3 114 116.7 121.2 129 137 139.3 141 142.9 146.1 152.9 153.5 151 148.7 147.2 144 141.6 135.8 130.6 127.2 125.5 119.8 115.5 111.2 109.6 107.4 103.2 96.9 91.5 88.2 81.9 75.5 74.4 75.9 71.4 68.4 68.3 68.3 68.3 68.4 68.8 67.6 66.6 68.9 72.4 80 93.1 98.8 104.2 111.2 117.2 123 131 140.9 149 154.7 158.7 164.3 171.2 175.4 177.3 178.1 176.6 177.1 177.6 178.3 182 182 180.9 182.1 179.6 178.9 178.9 178.9 179 177.8 177.8 178.7 180.4 181 182.5 185.7 187.8 190 191.5 194.2 198 197.5 198.3 200.3
186.3 188.8 191.1 192.8 198.1 204.6 210.8 216.3 221.8 227.3 232.8 238.6 243.9 250.3 257.2 262 266.3 269.9 273.9 279.1 276.7 273.2 271.6 269.8 268 266.2 265.4 264.9 264.4 263.8 264.1 263.1 262.7 262.7 261.7 260 258.6 259.5 262.6 266.9 270 272.9 276.5 280.3 280.7 279.2 276.7 270.4 264.1 256.2 250.7 246.7 244.9 242.4 236.5 226.2 215.2 209.8 213.6 218.3 209 203.7 200.6 199.9 199 198.9 199.1 200.9 202.9 203 205.6 208.8 211.6 213.1 211.3 216.1 219.7 218.9 220.9 224.2 224.4 228.2 227 219.7 213.5 207.7 203.6 196.7 187.5 180.5 172.7 169.4 163.2 159.6 154.6 150 144 139.6 136 134 128.1 122.9 120 116.8 112.4 109.4 109.3 109.9 110.6 110.8 110.7 111.3 113.3 116.4 128.7 135.9 137.4 136.9 140.4 141.4 145.9 147.9 148.8 146.9 146.7 145.3 142.9 139.5 134.3 130.7 129 124.3 119.4 116.5 111.9 108.3 104.7 100.1 96.6 92.6 85.9 78.9 74.9 74.1 73 68.6 67.3 67.2 67.6 68 68.3 68.2 66.6 68.4 71.9 79.7 93.2 97.7 104.2 112.1 118 122.1 129.8 140 148.1 154 158 161.7 167.2 171.9 176 179.3 175.3 173.6 174 174.5 175.2 177.5 177.5 178.7 176.9 178 178.2 178.5 178 176.4 175.1 175.2 177.1 178.3 182.2 184.3 188.1 191.9 192.7 193.4 193.9 195.6 197.3 197.5
182.2 184.1 185.1 187.2 191 195.4 203 209.3 215 220.5 226 230.9 235.8 243.3 250.8 255.8 260.4 265 268.6 273.8 280.4 278.5 272.3 269.3 267.4 265.4 265.9 265.7 264.7 263.6 262.7 261.2 258.3 253.8 253.5 251.1 248.9 248.8 250.5 252.2 253.7 257.2 261.7 270 272.5 270.1 263.8 259.3 254.2 243.5 237.5 233.7 230.6 227.6 225.5 218.5 211.5 204.8 207.7 206.8 203.1 198.9 197.4 197.7 194.9 195 193.7 195.2 196.7 198 200.6 204.5 209.3 212.3 208.9 208.5 212.4 210.9 212.1 214.1 214.6 219.2 220.9 218.7 212.4 206.8 203.8 198.8 190.8 176.8 170.2 166.2 164.1 158.6 151.6 147.2 143.1 140.1 137.1 132.1 127.3 124.8 121.5 116.6 112.4 109.5 107.9 108.2 108.7 108.8 109 109.3 110.3 112.3 122.8 130.9 131.5 133.2 136.2 137.3 138.2 141 144.1 145.1 144.5 142.5 140.7 139.2 136.2 133.8 131.5 128.2 126.1 123.2 119.6 116.3 108.3 103.3 99.4 95.6 89.1 81.2 75.9 72.6 71.2 72.4 67.3 66.5 67.1 67.4 67.4 67.4 66.3 67.9 73.6 82.5 93.8 99.3 105.9 112.2 117.7 122.2 129.4 138.8 145.7 151.5 155.9 159.4 162.2 167.3 171 177.3 177.6 173.3 170.6 171.1 171.7 170.4 174.3 172.4 172.9 174.3 176.1 177.9 176.7 175 173.9 173 173.9 178.7 180.6 183.1 186.9 191.3 193.9 193.7 193.6 194.1 194.3 195.4
177.8 178.8 178.2 182.2 184.3 188.3 193.8 200.2 206.5 212.5 217.3 222.8 228.2 235.5 243.4 248.9 253.6 258.5 263.1 267.4 270.9 273 273.3 271.4 267.7 264.6 265.5 263.9 263 262.4 261 258.8 257.4 251.7 245.5 243.6 241.3 239.2 238 239.1 240.5 242.7 246.9 253 259.1 259.5 246.7 240.3 231.4 232.1 230.8 227.5 223.7 218.9 214.6 213.4 209 202 198.8 197.3 196 194.3 188.1 192.3 191 190.2 189 189.9 192.6 194.2 196.5 199.5 203.3 204.6 207.3 205.7 205 205.6 203.4 200.5 200.8 201.6 201.9 208.4 205.3 204.3 195.2 188 180.5 174.4 168.2 164.9 159.1 155 149.7 146.1 141.4 139.6 135.9 131.6 128.6 122.9 123.2 118.8 112.7 108.2 107.1 107 106.8 107.3 108.1 108.6 108.3 110.5 115.2 121.3 124.5 130.2 132.9 134.1 135.7 138.3 141.4 142.8 141.2 140 138.2 135.8 134.2 133.9 132.4 130.1 126.5 122.5 121.8 114.5 109.1 106.9 103.1 98.2 89.2 83.2 77.6 73.9 73.7 73.6 67.1 66.4 67 67.1 66.7 66.1 65.2 67.4 74.3 82.3 93.7 101.1 106.7 112 117.4 122.5 130 135.9 142 147.5 152.6 155.1 158 162.1 166.2 170.5 174.6 173.1 170.6 167.6 166.9 167.9 167.6 168.1 169.4 172.9 175.5 176.3 175.3 173.7 172.7 170.6 173.4 178.4 180.3 182.9 185.6 189.7 192.6 193.4 193.3 193.2 193.1 193.5
172.6 170.9 178.7 180.3 180.8 182.2 185.1 189.4 195.9 202.1 208.7 214.1 219.7 226.3 234.1 241.3 246.5 251.1 255.7 260 263.3 266.8 268 269.5 269.3 264.1 263 260.4 259.3 259 258.1 255.8 253.5 248.4 242.9 236.7 234.9 231.7 228.6 228.5 230.3 230.3 234 239.2 240.4 242.4 235.1 223.3 221 225.2 224.9 220.2 217.9 214.4 211.6 207.7 204.2 202.3 199.8 195.5 191.3 186.7 187 186.7 186 185.8 186.1 187.2 189.9 190.2 192.7 194.6 199 204.9 206.3 203.4 199.3 197 197.4 195.7 193 190.7 193 190.1 190.2 187.2 187.5 181.7 173.9 167.8 165 161.4 157.8 150.1 146 143.1 139.7 137 134.4 132.3 127.9 121.8 118.6 117.4 112.3 111.1 106.9 106.1 107.7 106.3 102.7 106.3 106.3 108.4 110.7 113.5 119.4 125.6 128.8 130.1 133 135 138.4 139.4 139.1 138.2 137.3 134.5 132.1 131 130.6 128 124.7 121.8 118.5 115.6 110.2 107.3 100.9 96.4 90.3 84.9 79.7 76.9 72.7 72.4 67.2 66.4 66.7 66.7 66.7 66.4 65.7 66.9 75 83.2 94 102.7 107.8 112.6 117.9 123.4 128.4 134.8 138.3 145.5 148.3 152.4 157 160.2 162.6 164.9 168.5 170.9 170.3 169.9 167.3 165.8 166.2 166 166 168.4 170.5 170.9 171.8 171.8 169.7 169 171.6 174.1 180.6 183.8 185.1 186.4 189.6 190.6 191.1 191.7 191.9 191.5
165.9 165.9 172.8 172.1 174.1 176.9 179.2 183.3 187.5 191.2 200.1 205.7 211.2 217 224.9 231.9 237.8 243 247.5 252.1 255.9 259.3 261.1 262.6 264 264.1 260.1 256.8 254.5 253.7 251.5 249.6 246.7 241.8 237.1 232.7 228.3 224.7 221.7 221.8 220.6 219.9 223.2 226.4 227.3 225.1 219.7 210.8 212.1 215.7 216.8 215.7 214 209.4 207.6 204.1 200.9 197 194.7 192 187.4 184.3 185 184.3 183.5 182.6 183.1 183.1 185 185.4 188.3 190.3 192.3 196.1 197 196.7 194.2 193.2 191.8 189.1 186.2 183.8 182.7 184.4 182 178.8 170.5 165.4 158.6 160 157.2 154.1 153.3 147 143.2 139.8 139.9 133.6 130.7 128.5 123.9 121.6 120.1 116.6 113 111.6 111.1 109.5 108.4 108 106.2 101.3 103.9 106.4 107.7 108.7 110.8 115.2 119.9 123.1 126.3 130.5 133.7 136.7 135.5 136 136 134.2 132.9 131.3 129.4 125.6 123.2 121.4 120.3 117.3 110.9 105.8 103.6 98.7 90.4 86.3 82.5 79.2 76.2 71.9 67.2 66.3 66.3 66.2 66.2 66 65.1 67.1 78.7 86.7 96.3 104.2 109.4 113.1 118.9 124.4 127.3 130.9 137.4 141.1 145.3 150.5 154.7 158.7 159.6 160.9 162.5 164.5 167.3 168.2 166 166 165.6 165 164.9 165 165.2 165.3 167 167.7 166.4 167.4 170.7 174.8 179 182.1 183.4 184 186.3 187.7 188.2 188.9 188.3 189.5
160.7 161.7 164.3 166.7 168.7 170.6 174 177 179.8 184.5 192.7 197.7 203.1 208.9 215.7 223 228.4 234.5 239.3 243.8 247 249.7 252 254.9 256.7 259 261.5 254.9 251.2 246.8 244.7 242.5 239.4 235.1 230 226.1 221.8 217.5 214.9 216.1 214.1 212.2 215.5 216.5 214.8 210.9 207 196.4 200.4 204 206.2 207.4 208.3 205.5 203.4 201.3 196.8 193.2 191.3 187.9 185.4 183.7 181.2 182.5 181.5 180.3 181.2 180.9 180.3 180.4 180.7 183.6 183.4 185.8 187.9 186.4 187 187.2 183.7 180.4 180 178.1 175.8 175 172 169 166.1 164.9 165.3 166.7 165.1 157.6 151.2 147.3 139.6 135.7 134.4 130.1 127.5 125.4 123.9 123.4 121.4 116.2 113.9 112.9 109.1 110.2 109.8 109.3 109.2 104.1 99.8 102.2 103.3 103 106.6 108.2 110 115.7 119.1 123.1 127.8 131.5 133.8 133.6 132.3 132.3 132.3 132.1 127.4 124 122.5 121 118.7 115.7 110 107.1 103.5 97.5 92.5 89.4 84.6 80.7 77.8 73.4 68.6 67.4 65.3 65.2 65.1 64.8 64.5 70.1 78.9 87.7 93.6 102.3 106.2 113 118.6 124.4 127.6 131.4 134.7 138.7 143.5 148.4 152.2 155.2 158.9 159.4 159.3 160.8 163.4 164.2 165.6 166.3 166.1 164.9 164.6 164.5 164.6 164.7 165 165.3 165.7 166.1 167.2 173.2 176.3 178.6 180.5 181.5 182 183.6 185.1 186.1 186.1 186.2
159.7 158.6 159.6 166.4 165.9 165.1 167.4 171.7 173.2 178.9 186.1 190 196 204.2 211.1 215.4 219.2 224.8 230.9 235.1 236.4 238.5 241.4 243.3 247.3 248.3 252.2 257.4 248.3 242.8 239.3 235.3 232 228.9 225.8 222.7 217.7 212.3 209.3 209.7 208.9 206 207.6 208.2 206.4 202.9 197.7 187.4 189.2 194.1 196.9 199.5 199.9 200 199.4 198.5 194.3 190.8 188.3 185.8 184.2 182.6 180.8 180.7 179.2 178.1 179.3 178.5 177.5 177 177 176.7 175.5 175.3 176.2 178.5 177.9 176.8 176.7 175.2 177.9 176.7 174.5 172.9 170.9 169.1 167.6 167.8 168 167.4 163.8 161 155.6 147.5 139 139.2 137.5 134.4 131.8 127.5 125.3 123.5 120.6 116.8 114.9 112.4 110.1 111.3 111.6 111.1 110.9 109.2 106.9 102.1 101.9 99.6 97.6 102.3 104.5 105.6 109.1 113.9 118.3 122.7 124.7 126.1 126.2 127.3 128.6 127.4 124.5 122.6 120.7 118.6 115.1 111.4 108.6 105.3 103.6 102 100.8 94.7 90.8 86.2 79.5 74.4 71.4 68.1 65.5 64.2 64.1 64 64 69.3 78.2 85.4 92.1 98.5 104.9 112.4 116.3 123.6 125.8 129.9 132.5 136.6 141.9 145.1 149.1 153.1 156.6 158.1 158 158.2 159.8 162.7 164.7 164.6 163.9 164.1 164.2 164.1 164 164.3 164.7 165.1 165.5 165.9 166.1 168.3 171.8 173.6 176.3 177.9 178.9 179.9 181.5 182.2 182.5 182.3
154.5 152.7 154.2 155.6 159.7 161.2 162.3 163.5 165.7 171.4 175.8 182.8 189.4 196.7 201.8 206.2 211.1 214.7 220.6 224.1 226.3 227.2 229.3 232 234 235.4 237.6 243.4 242.5 239.5 236.2 231.9 227.5 224.8 221.9 218.2 213.2 207.6 205.2 205.6 203.6 201.2 201.5 201.4 198.7 195.1 188.3 183.3 184.7 189.4 191.7 192.4 191.9 192.2 194.4 194.9 194 189.8 187.1 185.6 184.9 183.4 180.2 178.1 177.5 176.1 177.6 178 175.8 174.1 174 173.9 172.6 171.6 171.3 172.1 175.1 172.3 172.6 173.2 178.9 179.2 174.5 172.5 171.1 170 169.2 169.7 169 167.6 163.2 159.1 156.1 151.6 140.5 145.8 147 144 135.1 130.8 128.4 126.4 121.7 117.6 114.8 113.2 112.3 112.9 112.9 114 116.8 116.4 109.3 111.2 107.8 106.6 107.9 96.5 97.5 97.5 99.5 107.4 110.9 113.8 118.1 120.1 121.9 124.8 123.7 122.4 120.9 119.7 118.2 114.7 112.4 109.2 107.3 106.4 106.6 106.8 101.1 95 89.3 85.2 79.7 76.4 73.4 68.8 65 64.1 63.6 63.5 63.3 70.1 77.5 84.5 90.9 99 106.1 112.6 115.9 121.2 122.5 126 131 135 139.7 143.3 148.1 150.8 154 155.8 156.1 156.1 157.4 159 161.6 162.7 162.8 162.9 162.9 162.9 163.7 164.2 164.7 165 165.5 165.7 166.1 167.6 169.7 171.1 173.9 174 176.2 177.7 178 177.5 177.7 177.9
150.6 149.4 149.3 152.4 152.5 152.9 154.3 157.2 161.2 163.8 168.7 175.1 182 188.2 192.6 197 201.4 207.1 208.7 210.8 213.5 214.4 217.1 217.9 220.8 221.8 223.1 225.8 228 230.5 228.7 225.4 223.1 223.5 218.3 213.7 210.1 205.2 201.9 201.8 200.6 198 201.8 198.5 193.1 189.4 185.8 180 181.4 186.3 187.5 185.8 188.7 188.1 188.3 188.9 190.5 190.6 187.5 185.5 184.9 184.4 182.1 179.9 178.2 178.4 174.9 175.1 175 172.1 173.5 171.9 170.7 169.4 167.8 167.1 169.1 168.5 168.1 168.4 167.4 171.1 171.2 170.6 170.8 170 170.4 171.2 170.7 167.1 165.3 158.7 154.7 151 146.8 147.9 152.5 146.8 136.4 133.2 132.3 128.4 118.8 119.4 117.4 116.8 117.8 115.6 116.6 119 117.8 115.8 115.5 114.1 114.1 111.1 109.2 106.6 103.1 96.9 94.1 99.7 103.4 105.9 108.7 111.8 114.4 117.3 117.6 117 114.7 114.9 114.3 110.4 108.4 108.2 107.8 106.9 107 104.3 97.6 92.3 88.2 83.1 76.7 77.4 74.7 69.4 66.1 64.5 63.9 63.3 63.2 71.1 76.1 83.5 89.5 100 107.8 112.8 114.2 118.8 120.5 123.8 130.5 133.6 138.3 143.5 146.6 149.2 151.8 153.3 155.2 156.8 156.6 157.5 157.9 159.7 161 161 160.9 162.4 163.7 164.2 164.7 165.1 165.4 165.6 166.3 167.8 169.1 171.6 172.2 171.1 172.1 174.4 173.8 174.1 173.6 174.1
147.2 147.4 145.8 147 147 148.5 150.2 152 154.9 161.2 164.3 169.1 173.9 179.4 183.4 187.8 192.1 195.9 198.1 199 199.8 202.1 205.9 206.1 206.4 208.3 210.7 213.5 217.7 220.5 219.2 217.1 216.3 217.9 213.7 209.8 206.1 203.6 201.5 196.1 196.3 194.8 195.6 193.4 189.8 183.6 182 177.2 179.3 184.3 185.2 184 183.3 182.2 182.3 182.7 183.4 184.5 184.8 185.7 185.2 185.1 182.8 180.6 180.2 180.7 178.4 176.5 175.4 176.9 178 176.9 172.1 172.2 171 169 168 166.4 166 165.1 164.8 165.3 167.7 169.7 168.8 167.1 169.6 170.7 170 164.5 166.6 157.1 154 151.3 150.4 149.6 147 142.9 137.7 135.3 136.3 129.2 124.7 124 120.8 119.6 119.3 119.1 119.9 122.5 121.3 121 121.4 121.1 121.5 118.7 115.3 112.1 110.4 105.7 100.6 94.2 94.6 99 101.8 104.8 108.7 108.7 109 109 108.6 108.4 109.3 106.5 105.8 105.2 105.6 105.9 104.3 101.1 95.7 90.8 86.1 80.9 77.8 77.5 73 68.9 65.5 64.4 63.9 63.4 64.6 70.9 75.2 81.3 89.5 98.4 106.1 109.4 111.7 116.7 118.3 121.1 126.6 131.6 137.2 140.4 144.9 146.6 149.6 151.9 155.3 156.6 155.9 156.1 156.5 158.1 158.1 159.3 161.1 162.6 163.7 164.2 164.7 165.1 165.4 165.5 166.5 168 169.4 169.8 171.1 170.6 170.6 170.5 171 171.4 170.9 171
142.7 147.6 143.8 142 143.9 144.5 147.1 147.1 148.9 157.6 161.5 164.6 168.6 172.8 177.8 181.2 183.9 186.2 187.7 188.1 189.1 191.5 194.9 197 198 199.3 201.8 202.9 207.3 209.2 209.7 208.3 206.9 208.4 207 203.7 203.5 200.7 197.9 193.4 190.8 190.1 191.2 188.2 186.6 181.5 182.5 174.5 177.6 183.8 185.5 184.9 181.3 180.3 179.7 180.2 181.3 183.2 184.4 187 186.5 183.6 182 182.5 182.7 185.5 181.6 179.4 179.7 181.5 181.1 178 177.1 177.4 177.7 174.9 175.4 172.6 170.2 169.1 167.1 166.7 165.6 167.5 165.5 163.1 169.2 171.1 169.1 163.4 159.1 157.2 155.4 153.6 152.8 151.2 146.8 146.5 142 129.9 130.2 128.6 127.7 126.9 125.6 125.8 124.4 125.5 125.2 124.6 123.5 125.3 126.7 125.8 125.2 123.4 120.8 119.4 116.9 114.5 112.2 104.9 99.2 89.7 92.3 94.3 99.4 100.5 101.6 102.2 102.7 102 103.9 103.7 103 102.2 102.5 101.4 100.5 97.7 92.6 88.6 84.1 78.6 77.3 75.9 72.2 67.5 64.7 63.3 62.7 62.3 68.3 76.1 74.5 79 85.9 93.3 101.5 105.5 107.9 111.6 115.1 120.1 124.9 128.3 131.7 137 142.7 145.7 147.7 151.8 152.8 153.7 154.2 154.3 154.4 155.3 157.2 160.5 162.3 163.7 164.2 164.5 164.8 165.2 165.4 165.4 166.6 168.5 169.8 170 170.1 169.6 169.1 168.6 168.4 168.1 168.9 169.8
138.2 139.3 140.7 136.3 137.5 138.2 139.8 141 142.7 152.7 157.2 160.1 163.6 168.8 171.2 173.8 176.3 178.4 178.9 179.6 181.4 183.2 186.1 188.7 189.9 191.2 192.4 193.1 195 196.7 198.9 199.4 197.3 198.7 197.5 195 195.1 196.7 194.6 190.4 187.7 179.7 182 184.1 182.3 178.3 174.5 174.5 177.7 181.5 184.5 185.5 181.5 179.2 178.9 179.1 179.9 183.1 188.5 185.3 186.4 182.2 183 184.7 186.4 186.9 184.3 182.3 182.1 183.4 182.3 181.5 181.5 181.4 181.4 182.4 176.9 174.6 174.9 174.1 175.6 174.9 169.4 163.9 164.7 167.8 157.1 163.7 161.2 159.4 156.7 155.9 154.9 155.1 153.9 149.2 146.5 143.2 139.9 141.3 140.7 138.6 135.5 131.5 133.5 134.4 131.9 130.9 130.5 128.4 128.8 130.1 131.8 130.4 128.4 127 127.2 125.9 124.1 121 116 113.2 107.5 102.3 98.1 93.5 86.4 91.6 96.6 96.5 97.5 96.6 97.8 100 97.2 97.6 96.8 95.4 96.2 94.4 90.4 86.4 81.1 73.1 75.8 73 69.1 67.6 64.4 62.2 61.5 65.1 71.3 73.7 74.2 79 84.7 89.1 91.5 97.5 102.6 107.2 111.4 118.3 122.1 125.6 132.3 134.4 137.8 141.1 145.1 146.9 148.7 150.5 150.5 153 154.8 159.4 161.8 164.1 165.6 166.2 165.9 165.7 165.7 165.4 165.4 165.4 168.4 169.3 170 170.1 170.2 169.7 169.2 168.6 168.3 167.9 168.1 168.6
140.5 134.1 132.8 132.1 132.8 133.1 133.7 135.6 137.2 144.7 151 154.2 158.7 163.4 164.5 166.7 168.7 171.2 172.6 173.1 173.9 176.7 178.5 180.4 182.3 184.1 184.7 184.1 182.9 185 187 190.3 188.9 187.6 184.2 185.4 186.3 188 185.5 183 178.7 170.5 177.5 179.3 177.4 176.3 174.5 175.4 177.5 180.6 183.7 181.1 179.5 177.8 177.9 178.3 179.7 185 187.8 183.6 182.9 183 182.9 184.9 187.3 185.4 185.1 183.5 184 185.1 183.5 183.3 184.2 184.6 184.4 183.3 182.7 180.3 180.3 178.4 179.7 175.3 172 170.9 168.9 165.6 161.5 156.6 156.3 155 153 152.5 152.8 155 151.1 145.9 144.5 142.5 143.5 145.9 145.4 143.9 143.1 139.9 140.5 141.8 140.1 135.2 138.3 135.1 136.4 136.6 137.9 134.4 132.7 130.1 129.1 128.5 126.2 121.9 120.7 117.1 112.2 109.6 107.1 101.7 95.1 81.8 84.9 85.8 88.1 88.2 89 93.9 90.2 89 88.3 89 90.1 89.5 86.2 82.6 78.1 68.8 72.4 69 66.4 65.7 63.5 61.1 62.4 67.2 71.4 72.3 78.7 80.5 84 87.5 87.8 96.1 100 103.1 109.6 113.7 118.5 123.6 130.1 129.8 132.5 136 139.7 142.5 144.8 147.1 149.3 152.6 154.8 158.7 161.7 164.4 165.1 165.3 165.3 165.5 165.8 165.5 165.4 166.6 169.2 170.5 170.2 170.2 170.2 169.8 169.2 168.6 168.2 167.7 167.6 168.2
142.4 138.4 133.9 130.3 130.5 130.4 130.3 130.8 132.4 138.5 143.4 146.5 150.1 154.7 157.9 159.6 161.3 165.4 166.4 167.4 168.8 170.6 172.6 174.8 176.1 177.1 177.7 176.4 174.5 173.5 173.9 181.6 181.3 178.4 176.6 178.7 177.6 177.3 177 172.9 165.5 174.2 176.5 176.8 176.5 175.1 174.8 176 176.9 179.2 180.8 177.3 176.7 176.8 177.1 178.1 179.9 183.6 185.9 182.5 184.1 184.8 183.5 185 187.6 186 185.1 185.9 187.1 188.1 188.4 188.2 185.8 185.8 186.5 187 185.3 184.8 183 180.7 180.3 177.6 178.1 176.8 174.8 172.2 168.3 164.2 158.6 155.2 153.1 149.9 148.4 150.3 146.8 150.8 151.7 152.9 151.8 150.8 149.9 147 145.4 144.9 145.8 148 145.8 142 142.3 139.6 141.9 142.5 140.6 139.8 135.7 133.7 131.1 130 128.1 125.8 125.2 121.6 119.4 117.7 113.6 108.2 98.6 88.8 83.1 83.5 76.7 82.2 80.6 73.6 82 79.9 82 81.9 82.5 81.8 79.9 77.3 75.5 71 68.2 65.8 64.3 63.3 62.5 60.3 62.9 69.1 70.5 72.7 78.2 80 81.8 83.5 85 91.9 95.8 99.4 104.7 110.2 114 119.2 123.2 126.6 129.1 131.6 134.7 138.9 140.9 142.3 148.7 151.1 153.8 157.6 160.4 162.7 163.4 164.5 165.3 165.6 165.3 165 165 167.2 171.4 170.9 170.9 170.4 170.3 169.8 169.2 168.7 168.1 167.7 167.2 167.8
141.1 138.6 133.6 131.5 130 129.9 129.9 129.7 130.2 131.9 134 141.2 144.6 146.6 148.5 151.7 156 160.7 161.5 163.9 164.4 165.3 167.3 169 170.1 170.7 170.5 169.6 169 167.9 167.4 173.7 175.8 172.1 168.8 170.6 168.3 169.9 167.2 162.8 167.5 172.8 175.3 176.5 177.1 176.6 176.4 176.7 176.7 178 177.2 176.3 176.6 176.6 176.8 178 181.1 182.9 183.6 182.4 183.6 184.5 183.5 185 189.1 187.5 187 187.2 187.7 189.4 190.7 188.4 187.2 188.9 191 191.6 190.2 187.3 185.7 183.9 182.9 182.1 181.6 179.7 178 176.8 177.1 170.7 161.1 164.2 160.3 156 155.3 154 150.8 156.2 156.3 158.1 157.9 156.3 155.9 155.1 151.3 150.3 152 153.7 150.7 146.3 149.4 147.5 148.1 146.4 142.3 143.3 141.9 141 138.3 136.4 133.9 130.4 129.2 128.3 125.1 124 119.7 114.2 107.2 103.2 98.3 91 88.6 88.4 85.6 81.7 78.4 69.8 74.7 75.5 74.6 74 73.1 71.5 66.8 64.1 63.8 63.8 63 61.8 60.7 61.1 63.1 69.8 71 73.3 75.5 80.9 81.2 81.5 88 92 92.5 96.6 99.7 104 110.2 114.6 118.2 122.3 125.1 127.2 130.8 139.8 137.3 141.2 146.6 151 155.2 159.5 161.8 163.2 163.3 164.8 165.4 165.1 164.8 164.4 164.6 164.6 167.1 170.6 170.3 170.3 170.1 169.8 169.3 168.7 168.1 167.6 167.1 167.6
139.9 136.2 133.3 132.6 128 129.3 129.9 129 128.9 127.5 132.3 137.1 139.4 141.3 143.2 145.8 150.3 151.7 156.7 158.9 159.7 160.6 161.8 163 164.4 165.3 164.5 163.7 161.6 160.6 162.8 166.1 166.9 165.5 160.9 158.7 161.8 164 159.1 159.7 167.1 171.3 173.8 175.8 176.6 177.4 178 177.1 174.9 174.8 175.3 176.7 176.6 176.6 176.5 178 181.3 182.9 183.4 183.1 182.8 184 183.6 184.7 188.4 186.9 187.4 187.6 188.3 189.6 190.6 190 190.2 192.1 193 191.8 191.2 190.6 190.4 188.9 186.9 185 183 180.1 178.2 176.7 173.6 166.3 165.2 166.1 168.9 164 163.3 160.5 155.9 158.7 160.4 162.4 163.1 159.9 161.1 159.2 154.6 154.5 157.5 158.8 157.3 153.4 154.3 153.4 153.8 153.2 147.6 150.2 150.4 147.8 145.4 144.6 143.1 140.1 135.3 137.3 134.4 131.7 127.2 124.6 119.3 115.2 109.8 103.5 96.9 94.2 91.1 86.3 80.7 76.5 73.4 68.9 70.9 69.9 68.1 67.1 64.5 63.5 63.1 62.7 62.2 61.5 60.3 61.2 62.7 68.2 70.5 72.7 75.5 79.6 79.5 82.5 87.2 88.6 89.5 92.5 96 102.2 108.2 112.6 116.1 119.3 119.5 122.2 125.8 134.2 130.3 139.8 146.2 151.7 156 159.5 163.8 166.4 166.5 164.5 165.1 164.5 164.2 164 164 163.7 164.3 165.2 169 169 168.7 168.9 168.6 168.3 168 167.6 166.7 167.1
135.7 133.1 131 127.5 128.7 131.2 129.7 128 127.4 127 127.8 129.9 132.3 135.3 135.9 138 144.7 148.1 151.3 153 154.2 155.6 157.6 160.2 161.4 161.1 160 159.3 158.2 156.6 157.8 159.4 156.4 157.9 153.3 152.8 154.4 155.3 157.5 161.3 166.8 169.7 172.2 174.6 175.9 176.6 177.2 176 173.6 174 175.7 178.1 177.3 176.9 177 178.5 180.4 183 183 183.2 183.4 183.2 183.7 184.9 187.6 187.1 187.6 187.9 188.8 190.2 192.2 193 193.9 194.3 193.4 192.7 192.2 191.4 191.2 189.6 187.8 185.8 184.4 181.7 178.6 176.9 173.6 167.9 167.8 169.2 170.5 167.9 166.1 162.5 161.5 161.6 161.9 163.6 164 161.9 161.9 160.5 158.6 160.1 162.6 160.9 159.6 160 160.5 159.4 157.4 154.8 154.2 154.9 155.8 151.9 150.8 149 147 143.4 141.3 140.7 139 137.5 134.1 130.9 126.3 121.8 114.1 109.1 105.3 100.3 95.9 90.9 87.5 81.1 76.5 73 69.9 66.8 65.3 64.6 62 62.8 62.1 61.2 60.1 60.5 59.4 61.7 63.6 65.7 68.2 70.4 72.1 75 78.6 81.8 87.4 87.7 86.6 89.8 94.2 97.7 102.7 110.2 112.4 116.3 116.3 119.7 123.7 126.4 129.5 139.8 142.5 150.4 154.8 158.2 162.4 164.6 165.6 165.4 164.7 164.9 163.6 163.4 163 162.8 163.4 163.9 164.6 167 167.2 167.4 167.6 167.3 167.2 166.9 166.2 166.9
132.5 131.1 127.1 127.3 129.9 131.5 130.6 129.2 127.5 126.6 127 126.4 126.6 129.5 130.6 130.6 138.6 143.4 145.8 147.4 147.4 150.8 154.8 157.7 159.3 157.9 155.7 155.5 155.8 155.4 155.2 153.6 151.2 150 148.9 148.9 151 154.5 159.4 162.6 165.4 167.4 169.9 172.7 174.6 175.3 175.9 174.3 172.4 174.1 178.4 183.8 179.1 177.2 178.2 182.5 186.1 182.9 182.3 182.5 182.7 183 183.7 184.3 186.6 187.3 187.8 188.3 189.4 191.3 193 193.7 194.1 194.3 194.5 194 193.4 192.3 191.5 189.9 188.3 186.7 185.1 183.1 179.7 176.6 173.1 170.8 172.3 171.6 171.5 171.3 170.7 169.1 167.1 164.8 165.7 166.1 166.6 165 164.4 165.2 161.5 165.3 164 164.3 164.8 165.7 167.3 166.1 165.4 160.1 159 160 161.4 157.6 155.7 153.6 150.6 148.2 147.8 145.4 142.9 140.8 139.3 136.9 132.9 125.7 122.7 115.7 109.7 104.3 99.2 94.8 91.3 84.7 79 75.5 71.7 69.1 67.2 65.9 63.1 62.4 61.5 60.7 60.1 59.3 58.6 60.4 62.3 64.1 67.4 68.6 71.4 74.9 76.8 79.7 83.8 83.6 84.7 89.9 91 94 99.5 101.9 106.2 110.3 114.3 117.9 124.4 122 127.8 132.5 139.8 148.5 153.1 158 161.5 162 162.9 162.9 163.6 165.2 163.3 162.7 162.1 161.9 162.3 162.2 163.1 164.2 165.6 165.9 166.1 166.3 166.5 166.2 165.6 165.2
128.6 127.7 126.5 125.1 125.9 128.5 130.2 129.1 127.6 127.1 127 126.4 125.8 125.6 126.7 126.5 132.2 138.8 141.3 142.7 146.6 151.5 155.6 157.6 156.8 155 153.2 152.8 152.7 151.7 150.1 148.2 146.7 143.6 147.5 147 154.8 160 160.7 162.4 162.9 164.8 167 169.3 171.7 174 174.9 175.5 171.8 174.3 177.8 177.3 177 178 178.3 180.6 181 181.5 181.8 182 182.2 182.4 183.2 184.2 185.7 186.5 187.3 188.4 190.1 191.7 193 193.5 193.9 194.1 194.2 194.4 194.2 193.2 191.8 190.2 188.6 186.9 185.2 183.1 180.4 176.1 173.6 175.2 176 174.4 173.2 172.9 172.3 170.8 168.9 164.6 167.3 168.7 169.2 169.1 167.7 167.4 167.2 166.9 165.6 166.5 168 169.3 169.5 168.5 168.5 165.8 165.3 167 164.7 162.8 160.1 159.9 157.9 154.7 152.3 150.3 145.7 144.7 143.3 140.1 133.9 129.1 126.7 121.9 114.6 108.8 103.9 96.6 91 89.1 81.3 77.7 75.8 72.5 68.2 65 64 62.1 61.3 60.2 59.3 58.5 58.2 60.4 61.7 63.7 66.4 67 69.5 75.8 77.9 80.8 83.6 86.1 87.3 86.9 90.7 92.3 96.6 102.9 105.1 109.6 114.5 114.8 115.8 118.6 124.9 133.2 137.9 142.9 150.6 159.3 161.7 161.4 160.9 161.7 163.7 162.7 162.8 162.1 161.4 160.9 160.7 160.6 160.6 161 163.1 163.6 164.6 164.9 165.3 165.3 164.9 164.4
127.7 125.2 123.2 120.9 122.9 127.6 127.5 126 125.3 125.6 125.8 125.1 125.2 125 126.2 126.7 130.9 136.8 139 139.9 142.5 149.4 158.1 157.8 153.1 150 150.1 148.5 148.7 147.6 147 141.5 146 148.3 151.5 153.7 156.2 161.1 160.5 160.3 160.4 163.5 167.7 163.9 169.3 172.2 173.8 173 171.2 173.1 174.9 176.6 177.7 178 179.2 180 180.5 181 181.3 181.5 181.7 181.9 182.8 183.8 184.7 185.7 187 188.8 190.5 192.2 192.8 193.3 193.8 193.9 194.1 194.4 194.4 193.6 191.8 190.1 188.3 186.5 184.5 182.4 179.9 176 178 179.8 179.5 177.2 174.8 174.5 173.5 171.7 169.8 166.7 168.1 169.9 171.1 172 171.9 169.1 168 167.6 167 168.3 170.6 172.3 172.6 173.2 172.8 169.8 169.8 170 167.6 165.9 164.5 163.6 161.5 159.9 156.9 154.1 150.6 146.8 145.4 140.5 136.5 132.7 127 122.5 119.2 113.6 107.7 101.7 96.8 92.5 88 83 78.6 74.6 68.7 64.9 63.5 62 61.1 59.7 58.5 57.8 58 59.8 61 63.9 64.5 65.6 68.5 71.8 79 77.4 79.5 85 87.9 86.6 87.8 92.4 98 104 107.3 109.8 113.7 114.6 115 117.7 122.7 131.3 133.2 139.2 147.7 154.7 158.8 159.5 159.3 159.9 161 160.8 161.6 160.9 160.4 160 159.6 159.2 159.2 159.2 160.6 160.6 162.5 163.8 164.3 164.1 163.8 163.4
127.4 123.5 120.1 118.6 119.2 124 125.3 124.8 123.5 123.8 124.2 125 125 126.3 126.9 126.6 128.3 135.2 136.8 138 141.1 146.2 151.3 151.4 146.3 143.2 144.8 145.7 137.4 145.2 145.4 146.6 150.3 153.1 156.4 159.3 152.3 159.7 157.7 156.9 159.3 163.7 169.8 165.5 166.8 169 170.4 171.7 171 172.7 174.9 176.3 177.5 178.3 179.2 180 179.7 179.3 180 180.8 181.2 181.5 182.4 183.3 184.1 185.6 187.4 189.2 190.9 192 192.6 193.1 193.6 193.7 194.1 194.4 194.1 193 191.8 190.1 188.3 186.6 183.2 179.4 178.3 179.9 181.8 181.8 180.7 179.1 177 175.5 174.5 173 171.1 168.3 169.9 171.6 172.2 173.3 173.7 171.3 170.8 168.1 169.2 170.1 171.4 172.7 174 175.3 175.9 172.5 171.6 171.8 171.1 169.3 169.2 167 166 164.2 161.5 158.8 155.6 150.9 146.2 141.2 139.2 135.6 128.9 122.6 119.1 114.5 109.8 107.2 102 96.1 91.2 86 82.3 77.9 70.5 65.7 63 62.5 61.4 59.1 58.1 57.3 58.9 59.9 60.3 61.2 63.2 66.9 69.4 65.9 70.6 70.8 80.5 83.5 82.9 81.1 87.6 91.7 97.9 100.9 105.8 109 111.2 112.3 115.8 120.4 125.1 125.6 130 135.4 141.2 146.3 151.3 154.8 160.1 158.1 157.6 157.6 159.1 159.9 159.5 159.2 158.8 158.4 158.1 157.8 157.7 158.7 159.8 161.4 163.3 163 162.7 162.4
125.1 121.9 119.5 116.4 116.9 124 123.1 122.1 123.6 124.4 124.8 125 122.5 127.1 127.1 126.6 130.8 132 132.9 134 137.6 140 141.2 139.1 137.7 138.8 136.2 132.7 142.5 148.5 151.1 151 153.9 156.8 159.3 159.9 158.1 157.3 159 160.9 162.9 166.2 170.7 167.7 167 168.4 170 171.8 171.8 172.6 174.5 175.5 176.3 176.8 177.3 178.2 178.2 179 179.8 180.3 180.8 181.3 182.3 183.5 184.6 186 187.8 189.4 190.8 191.6 192.4 193 193.4 193.7 194.1 194.1 193.2 192.2 191.8 190 188.3 184.4 181.4 182.3 183 184.1 184.4 183.5 182.1 180.5 178.5 176.9 175.5 173.9 172.3 170.1 171.2 172.6 172.8 172.6 172.1 171.3 169.6 169.7 171.9 172.1 172.9 173.9 175.2 176 176.8 175.4 174.8 175.4 174.6 174.2 174.7 171.4 170 168.3 164.8 161.8 158.8 154.7 151.9 148.4 143.8 137.7 135.1 129 123.9 119.5 113.3 109.2 104.2 100.1 94.9 88.1 83.7 79.1 72 66.8 63.2 63.3 63.9 60.4 57.8 58.6 60 59.2 59.1 59.5 61.7 62.5 63.4 68 70.7 69.6 72.5 75.2 79.3 83.2 83.4 92.9 96.6 98.5 101.5 104.2 108.4 112 117.5 119.1 124.8 126.8 131.3 134.4 137.7 140.5 144.1 151 152.5 155.8 155.6 155.9 156.4 156.7 158 158.6 159.8 157.7 157.3 156.9 157 157.1 157.3 159.3 161.3 162 161.7 161.1
122.1 119.9 118 116 115.7 120.5 121 120.1 122.2 122.9 123.1 123.3 121.3 126 126.5 125.8 127.3 127.8 128.7 128.4 123 120.8 123 126.3 126.9 135.9 140.7 141.7 143.4 148.9 155.3 155.4 155.1 157.8 160.3 160.8 164 166.6 167 167.2 167.5 168.8 170 167.4 167.6 168.8 170.4 171.8 171.7 172.5 173.6 174.3 176 176.5 177 177.7 179.1 180.8 181.7 182.1 182.4 182.6 183 183.6 184.8 185.9 187.1 188.4 190.5 191.5 192.2 193 193.5 193.9 194.3 193.5 192.6 191.4 191 189.7 186.3 182.9 182.2 183.7 185.2 185.2 184.7 184.1 183.2 181.8 180 178.4 176.4 174.7 173.1 171.5 171.5 173.1 174.2 173.2 172.2 171.2 171 172.7 173.5 174.3 175.1 176 177 177.9 178.2 177.9 178.4 178.5 177.6 177.4 176.5 176.6 173.6 171.7 168.9 166.2 163.8 158.6 156.6 151.1 145 138.1 134.9 133.7 127.3 122.3 117.5 111.4 108.1 105 97.9 90.5 83.2 78.2 74.5 68.6 64.2 63 62.5 60.7 59.1 57.3 56.9 57.6 58 58.2 59.2 62.3 64.3 69.3 76.1 82.3 76.7 80.1 86 90.9 85.5 89.8 96.7 100.5 103.7 104.2 109 112 115.9 119.8 125.5 128.3 133.2 137.6 138.5 142.6 144.4 145.9 150.1 152.1 154.9 155.8 155.1 155.3 156.8 158 158.3 157.4 156.3 156.1 156.2 156.2 156.3 157.4 159.1 160.4 160.9 160
121.3 118.8 115.6 114.7 115 116.8 116.9 118.8 118 119.2 120.8 121.1 121.4 121.4 122.1 122.2 122.3 114.1 116.8 121.2 129.2 135.2 136.8 136.7 138.9 142.2 144.3 144.6 146.6 150.6 155.6 157.5 157.9 159.5 161.3 164.9 166 169 169.6 169.6 169.3 169 168.7 168.3 168.5 170 171.4 171.5 171.5 172 172.6 173.3 175 177.2 177.6 178.8 180.5 182.3 183.2 183.4 183.5 183.9 184.4 184.9 185.5 186 186.7 188.9 191.2 192 192.8 193.4 193.8 194.2 194.3 193.5 192.6 191.4 189.6 186.5 184.7 183.2 183.6 185.1 185.7 185.5 185.1 184.3 183.3 182.4 181.2 179.1 177 175.3 173.7 172.1 172.9 174.7 175 173.8 172.7 172.5 174.3 175.7 177 177.2 177.7 178.7 179.5 179.9 180.6 181.4 181 181.1 180.2 179.6 179.6 178.5 176.3 174.9 172.2 170.7 168.4 164.3 157.9 153.6 146.6 142 138.3 133.3 129.2 124.3 118.7 113.3 110.3 104.9 97.9 90.9 84.5 79.9 75.4 70.3 66.4 63.7 61.8 60.6 59.6 58.4 57 56.2 56.9 59.2 60.8 64.1 68.6 70.4 77.1 81.3 80.4 86.2 90.1 91.2 92.8 95.4 91.5 91.9 97.3 107.5 109.8 110.1 113.7 118.1 124 128.4 132.1 138.1 139.1 140.6 144.1 149.2 150 150.6 151.8 153.7 153.3 153.8 155 155.9 155.6 155.7 155.1 155.1 155.1 155.2 156.4 156.2 157.3 158.6 158.3 160.7
119.3 118.1 116.1 113.5 115.3 115.9 114.6 114.5 115.2 115 115.4 115.4 117.7 116.9 117.4 117.5 112.5 118.8 124.5 129.1 133.3 139 140.6 142 144.4 146.7 147 148.9 152.6 157.4 160 161.3 160.8 162.7 164.1 165.1 166.1 167.1 169.2 170.1 170.1 170 169.7 169.1 169.2 170.4 171.7 171.7 172.4 173.2 174.2 175.2 176.2 177.3 178.6 180.5 182.4 183.5 184.1 184.5 184.8 185.3 185.8 186.3 186.7 187.3 188.8 189.6 191.8 192.6 193.2 193.7 194.1 194.5 194.4 193.6 192.5 191.3 188.9 187 185.2 184.3 184.9 185.9 186 185.9 185.3 184.4 183.5 182.5 181.4 179.7 177.6 176 174.4 173.6 175.2 176.7 176.5 177.4 174.9 175.7 178.6 179.3 181.2 182.7 181.7 182.3 183.3 183.8 184.4 184.9 184.5 184 184.1 183.5 182.8 181.6 179 177 175 173.5 171.3 167.1 163 157.5 153 148.7 143 138.7 132.2 128.2 121.6 116.3 111.7 104.8 99.4 94.1 87.9 82.6 75.9 72.6 69.4 66.2 62.9 60.4 59.5 58.5 57.5 56 56.7 58.1 61.5 65.8 68.3 74.1 78 81.1 84.4 86.5 90 91.4 93.9 96.6 99.8 102.5 103.4 101.3 104.6 108.5 111.9 115.4 119.7 124.9 130.8 134.5 137.7 139.1 142 145.9 149 150.5 151.3 152.2 152.2 152.5 153.3 153.9 153.8 153.9 153.3 153.9 154.1 155.3 156.1 155.9 155.9 156.6 158.4 159.6
116.4 115.6 114.8 113.5 112 112.5 111 108.5 109.7 110.3 108.7 109.1 111.6 110.7 112.9 114.4 113.7 121.7 128.3 131.7 134.8 138.6 141.5 144.2 147.6 150.4 150.4 152.2 154.9 157.2 160.4 163.3 163.2 164.3 165.1 166.3 170.3 172.1 173.9 175.9 173.4 173.1 171.9 171.5 171 170.9 171.8 174.3 176 175.9 176.1 176.6 177.8 179.1 180.6 182.5 183.6 184.2 184.8 185.4 186.1 186.6 187.1 187.5 187.8 188.9 190.5 191.4 192.4 192.9 193.5 194 194.4 194.6 194.5 193.6 192.6 191.3 188.9 187.5 187.1 186.8 186.2 186.2 186.4 186.2 185.5 184.5 183.6 182.3 181.3 180.3 178.3 176.6 175 173.9 176 177.7 177.6 178.3 175.7 177.2 181.2 183.5 185.3 187.1 186.4 187.1 188 188.6 189.1 189.5 189.4 188.8 188.5 187.4 186.5 184.9 182.4 180.5 178.6 175.9 174.2 169.8 165.7 161.3 156.2 152.6 147.7 140.9 134.4 129.2 125 119.5 113.4 105.6 99.9 96.5 90.4 85.1 79.7 75.9 72.3 68.1 63.3 60 59 58 57.2 56.3 56.1 57.7 60.6 68 71.6 76.1 80.8 88.2 89.9 87.1 90.3 92.6 95.5 98.7 101.1 104.5 106.5 108.4 109.6 106.9 112.7 116.2 118.6 122.3 125.9 131 135.4 138.3 142.1 146.5 147.5 149.5 150.2 150.9 151.3 152.5 153.2 151.6 152.1 152.2 151.5 154.3 154.2 155.5 155.8 155.6 154.5 155.9 157.6 158.9
118.1 112.8 110.2 107.9 94.3 107.9 105.7 104.5 103 102 100.6 102.3 105.7 110.4 107.9 112.9 116.1 122.2 128.7 130.2 134.3 138.3 143.1 147.2 148.7 150.8 152 156 158.2 160 160.1 162.2 164.1 165.6 167 169 174 175.3 175.4 175.6 175.6 174.4 174.1 175.1 173.1 172.4 173.1 175 176.8 177 177 178.2 180.3 181.1 182.7 183.8 184.3 184.9 185.4 186 186.7 187.3 187.8 188.3 188.9 190.2 191.5 192.4 192.9 193.3 193.8 194.3 194.7 194.6 194.5 193.7 192.7 191.5 189.3 188.8 188.2 187.6 187 186.8 186.7 186.5 185.6 184.6 183.5 182.3 181.2 180.2 178.9 177.2 176.3 176.3 178.2 178.5 178.7 178.1 176.5 180.3 184.7 187.9 189.6 192.1 191.7 192.1 192.7 193.2 193.7 193.9 193.9 193.7 192.7 191.4 190 188.2 185.9 184 181.9 179 177 172.7 168.4 164.2 159.4 156.2 153.1 145.5 137.7 134 131.2 125.1 114.3 105.9 101 97 93.5 88.4 83.5 77.8 74.2 69 63.3 59.9 58.5 57.7 57.2 56.6 56.7 57.1 60.7 68.1 73.6 78.5 82.5 89.6 92 89.7 92.6 94.7 97.7 101.1 102.3 106.3 108.9 110.8 112.4 113.4 109.6 112 117.5 122.4 123.9 128.2 131.6 134.2 140.4 144.8 146.2 147.5 148.7 149.3 149.2 149.9 150.3 150.2 149.4 149.8 150.1 152.3 153.1 153.2 155.1 154.8 154.1 156.1 157.2 159.9
112.3 107.4 103.4 99.9 100.5 99.9 100 99.5 99 101.5 106.9 109.6 113.3 112.2 112.5 114.4 117.6 121.5 126.9 132.1 137.9 143 146.3 148.9 149.4 150.4 157.1 156.9 158 161.7 161.2 162.5 164.7 167.6 168.5 169.9 173.2 173.8 175 175.4 175.4 175.3 174.5 174.7 174.9 173.7 174.5 175.2 176.6 177.1 178 180.3 182.5 183.2 183.6 184.4 184.9 185.5 186 186.6 187.2 188.1 189 190 190.9 191.9 192.8 193 193.5 193.9 194.4 194.8 195 194.8 194.7 194 193 191.8 190 189.6 189 188.4 187.9 187.6 187.4 186.8 185.9 184.9 183.5 182.3 181.4 180.5 180 180.2 179.8 179.5 179.4 179.9 180.4 179.3 178.5 183.2 187.6 191.3 193.4 198.1 204.4 206.2 198.4 197.8 198.3 198.3 198.2 197.3 195.9 194.4 193 191.1 189.6 187.7 185.2 182.3 179.5 175.6 171.6 166.9 162.9 158.3 153.2 147.6 142.2 137 133 125 116.9 109.5 104.8 99.9 96.5 91.6 86.2 79.7 74.8 69.3 63.6 59.6 58 57.4 56.8 56.1 54.9 58.6 65.2 70.4 75.6 83.4 84 87.5 87.7 90.8 94.4 98.8 99.9 103.4 104.7 109.3 111.6 113.4 115.1 117 118 119.7 120.7 117.5 121.9 124.5 127.8 131.2 136.2 138.7 142 144.6 145.9 147.3 147.7 148.1 148.8 148.8 148 147.4 148.1 148.7 149.1 149.6 153 150.4 153.9 155.3 156.5 157.1
102.8 102.7 98.2 96.7 97.9 89 99 103.9 102 107.2 108.3 109.6 110 110.8 112.8 114.9 117.7 119.9 124.2 133.3 141 146.6 146.6 147.8 149.3 150.5 153.4 155.4 159.2 164.4 162.5 164.3 166.2 167.7 169.1 170.7 172.2 173.4 174.5 175.3 175.3 175.5 175.2 175 175.4 175.4 175.3 176 176.6 177.2 178.1 181.4 182.8 182.9 183.1 184.5 185.5 186.1 186.6 187.8 189.3 190.3 191 192 192.9 193.8 194 193.8 194.3 194.7 195.1 195.5 195.4 195.3 195 194.3 193.4 192.2 190.7 190.3 189.9 189.3 188.7 188.5 188.2 187.5 186.4 185.5 184.2 183.4 183.4 183.1 182.7 182.9 183.1 183.6 183.5 183.3 183.6 182 180.9 185.2 189.5 194 197.2 201.5 209.4 220.7 212.8 206.9 203.5 202.9 202.1 201.1 198.9 197.5 195.8 194.9 193.9 191.6 190.1 188.4 187 182.4 177.5 172.4 167.2 161.7 156.4 149.7 144.7 139.9 133 125.8 120.9 113.8 107.9 106.4 101.7 93 87.5 80.8 74.6 68.7 62.9 58.3 57.2 56.6 56.3 55.9 54.4 62.3 70.5 72.6 77 82.4 84.8 89.8 92.4 92.7 96.4 99.8 102.3 105.6 106.9 111.4 114.3 116.1 117.9 119.7 120.7 122.3 124 125.8 127.3 127.8 128.1 126.1 129.6 132.9 137.6 141 142.7 144.9 145.8 145.8 146.1 146.2 145.1 146.8 146.9 146.6 146.8 147.3 148.3 150.4 153.2 154.6 156.8 156.5
98.8 95.7 89 91.6 87.3 95.2 104.3 107.3 109.7 109.4 109.1 109.7 110.6 111.7 113.2 115.3 117.3 119.6 125 133 140.1 139.9 143.1 145.3 146.2 147.9 150.9 155.6 159.7 161 162.8 165 167.2 170.8 173.7 173.3 173.8 174.1 174.7 175.3 175.5 175.7 175.6 175.4 175.7 177.2 176.1 176.5 176.8 178.5 178.3 180.7 182.6 182.4 182.6 184 185.5 186.6 188.2 189.9 191.6 192.4 193 194 194.9 195 194.8 194.8 195 195.5 195.9 196 195.9 195.8 195.1 194.5 193.7 192.5 191.5 191 190.6 190.1 189.5 189.3 188.8 188.2 187.2 186.1 185.8 185.8 185.9 185.7 185.3 185.5 185.9 186.5 186.9 187.3 187.1 185.4 187.5 188.7 193.4 197 200.6 202.8 205.3 209.6 218 213.4 210 209 205.6 204.9 202.7 200.5 199.6 199.2 198.4 198.5 198.6 197.6 195.5 191 186.2 181.4 176.6 170.2 162.6 157 150.4 145.8 137.8 132.3 125.7 116.5 110.9 108.6 103.7 96.3 90.5 85.5 77.9 70.2 62.7 57.8 56.4 55.8 55.2 54.5 53.8 61.7 71.1 74 79 84.2 87.2 88.1 95 97.3 98.9 101.8 104.6 107.7 110.8 114.3 117.1 119 120.6 122.3 123.7 125.3 127.2 129.2 130.8 131.7 132.4 133 133.2 134.3 135.3 139.7 139.7 140.6 143 144 143.3 144.2 143.5 143.7 145.4 145.2 145.7 146.4 149.7 152.2 152.4 153 155.9 155.8
99.9 87.1 94.3 94.1 93.4 99.2 104.9 106.5 108.1 110.4 111 110.6 111.4 111.8 113.7 116.5 118.9 121.6 130.7 131.2 131.8 135 137.3 141 143.7 146 150.8 153 157.2 159.5 162.5 165.9 169.5 171.4 174.9 175 176 175 174.8 176.2 175.9 175.4 175.4 175.7 176 178 177 176.7 176.9 177 178.1 179.4 179.8 181.5 182.1 183.6 185.7 187.9 189.9 191.8 193.7 194.5 195 195.9 196 196.1 195.8 195.7 195.8 196.2 196.6 196.4 196.3 196 195.3 194.7 194.1 192.8 192.2 191.8 191.4 190.9 190.4 190.1 189.5 188.8 187.9 187.3 187.8 188.2 188.3 188.3 188 188.2 188.9 189.5 189.8 190.2 191.3 191.3 193.1 193.9 196.3 200.1 202.8 205.1 207.1 208.7 210.8 214.8 213.9 212.3 209.2 208.4 205.6 203.5 203.5 203.2 204.9 205.7 206 205.4 203.3 199.6 194.7 189.6 184.5 177.7 170 162.5 155.6 149.9 143.5 134.5 126.5 118.5 115.3 112.5 106.3 102.3 94.6 92.1 84.2 75 63.4 58 55.9 54.8 53.8 53.1 53.9 63 70.5 74 77.4 81.5 87 92 97.2 101.8 101.5 104.9 108.3 110.5 113.1 116.3 119.5 121.9 123.6 125.8 127.6 129.1 130.7 132.6 134.4 135.2 135.9 136.7 137.5 138.2 140 141.7 142.7 143.6 142.6 142.8 143 143 145.3 146.6 149.2 145.8 151.8 154.7 151.8 150 150.3 151.9 153 154.8
93.4 95.1 101.2 103 103.8 105.1 107.2 110.1 112.4 112.9 113.8 113.9 114.4 115.6 116.7 119.2 122.9 124.2 126.7 126.2 128.3 134.7 135.6 139.5 141.1 143.8 146.2 149.4 153.8 158.2 162 166 169 171.6 173.4 175.7 175 174 174.6 175.2 174.9 174.7 174.8 175.6 175.9 177 176.6 176.9 177.1 175.6 176.7 176.8 177.2 178.6 181.2 183.9 186.1 188.2 190.8 193.7 195.3 196.1 196.8 197 197.1 197 196.7 196.6 196.6 197 197 196.9 196.8 196.2 195.5 194.9 194.3 193.3 192.9 192.5 192.1 191.7 191.2 190.7 190.1 189.4 188.6 188.7 189.2 189.8 190.3 190.7 190.6 191 191.8 192.4 193.1 195 197.1 198.2 199.3 199.3 201.1 203.2 205.8 207.9 209.5 211.1 211.9 213.9 214.3 213.7 211.6 210.6 207.8 206.5 206.5 208.6 211.2 212.8 212.8 212 210.3 207.2 202.8 197.7 192.9 185.6 177.8 169.7 160.7 154.2 145.7 138.1 128.7 123.1 121 115.3 110.7 106.6 100.8 91.9 87.2 78.4 65.4 57.6 55.4 54.4 53.3 53.1 56.3 66.3 72.3 75.4 78.6 82.2 88.9 93.5 101.7 102.4 102.8 107 110 113.7 115.4 117.9 121.4 124 127.4 129.4 131.5 133 134.5 136.1 137.9 138.7 139.5 140.2 141.1 141.9 142.1 143.7 144.2 145.1 143.5 143.9 143.6 145 148.4 149.5 151.2 149.1 150.8 152.1 152.4 151.7 151.6 152.4 153.3 157.3
86.7 98.7 102.5 105 106.5 108.3 113.6 118.5 120 121.1 121.5 122.5 123 123 122.8 122.7 126 128.3 126.3 126 127.8 132.3 137 140.5 140.1 141.4 142.8 145 150.4 156.6 161 165.2 168 170.2 171.2 171.8 173.9 174 174.4 174.1 174.4 174.3 179 176.4 176 176.5 176 174.4 174.4 174.1 174.8 174.9 175 176.4 179.2 182.3 185.5 187.7 190.3 193.1 195.3 196.3 197.5 198 198.3 197.9 197.6 197.6 197.5 197.6 197.5 197.4 197.2 196.6 196 195.3 194.7 194.1 193.7 193.3 192.9 192.7 192.3 191.6 191 190.4 189.8 190.1 190.7 191.3 191.8 192.4 192.9 193.9 194.7 195.6 197 198.5 199.9 201.9 203.9 205.2 206.3 207.7 208.8 210.5 212.1 212.3 213.2 214.4 214.7 215 214.5 213 210.2 209.2 209.3 210.4 213.9 216.4 216.8 216.3 214.9 213.2 210.1 205.8 201.3 193.6 186.3 177.8 168.5 158.4 148.8 139.3 131.4 127.6 121.8 117.4 113.3 107.8 97.6 89.4 86 77.3 67.4 56.8 54.9 53.3 51.9 53.4 59.8 68.8 73.8 77 80.1 84 90.3 97.2 99.7 100.8 102.9 106.5 110.8 115.6 119.2 121.4 123.9 126.9 130.6 133.5 135.4 137.3 138.8 140.3 142.1 142.2 143 143.8 145 145.8 146.2 146.5 146.7 146.7 146.6 147 147 151.1 155.6 153.7 153.6 153.3 153.9 154.4 155.7 155.9 155.4 153.3 154.2 156
98.9 99.2 102.1 105.4 107 110.1 115.2 120.1 123.9 126.1 128.3 129.8 131.6 132.8 131.8 128.1 127.7 128.7 128.7 129.5 131.7 132.4 135.2 136.9 138.5 139.9 141.3 142.8 145.4 151.1 157.5 160.2 163.4 167.1 169.2 171.9 174.4 174.5 173.8 173.4 172.9 172.6 176.6 173.9 173.8 174.7 174.3 173.4 172.9 172.5 172.9 173 173 174.5 177.3 180.4 183.5 186.6 189.4 191.5 193.7 194.9 196 197.1 198 198.5 198.5 198.2 198.1 198.3 198.3 198.3 198.2 197.7 197.1 196.5 196.5 197.1 197.3 196.7 196 195.5 194.2 193.4 192.7 191.7 191.2 191.7 192.6 193.2 193.8 194.2 194.9 196.7 197.4 198.4 199.6 200.9 202.9 205.7 207.3 208.1 209 209.8 210.2 211.6 212.9 213.6 214.4 214.9 215.2 215.5 215.7 215.3 213.1 212.2 212.2 211.3 212.3 215.2 217.1 218.5 218.7 217 215.4 212.2 208 202.7 196.9 188 175.7 164 153.3 141.5 133.8 127.5 123.4 118 110.4 102.5 97.4 90.2 84.3 77.9 71.9 56.7 54.6 52.9 51.2 54.6 60.2 68.4 72.9 77.4 82 89.2 92.7 98 99.7 100.8 103.5 106.7 111.5 116.9 121.2 124.8 127.6 130.4 133.7 137.8 140.8 142.6 144.1 146.2 148.3 149.3 149.1 149.4 150.4 151 151.5 151.7 151.9 150.8 150.3 150.7 151.5 155.9 157.3 157.3 156.8 156.9 155.7 157.8 158.3 162.4 161.2 158.5 154.5 156.8
98.3 100.8 102.5 105.7 108.6 111.2 115 119.9 124 127.5 130.7 133.9 136.3 138.6 138.8 136.3 134.2 133.9 131.9 133 135.4 135.7 135.9 137.4 138.8 139.6 139.2 140.5 141.6 146.6 148.8 152.6 159.8 162.9 165.5 168.7 171.1 172.1 172.6 172.1 171.8 171.5 170.6 169.5 170.3 172.2 172.9 171.2 171.2 171.6 170.9 170.9 171.7 173.1 175.3 178.1 180.5 182.8 184.9 188.1 191.3 192.8 193.8 194.9 195.8 196.4 196.9 197.4 198.6 199.1 199.2 199.4 199.2 200 201.4 204.7 208.3 211.1 211.9 209.9 205.5 201.7 198.7 197.1 195.9 195 192.7 193.3 194.6 195.1 195.5 196 197 199.1 200.2 201.2 202.8 204.6 206 207.3 208.6 209.2 210 210.8 211.6 212.7 213.6 214.4 215.1 215.3 215.5 215.6 215.7 215.9 215.2 213.8 213 211.7 212.3 212.9 215 218.7 221.1 220.4 219.1 216.7 213.5 208.1 201.5 196.8 186.3 172.3 158.6 144.7 136.5 131.9 122.8 115.6 108.9 103.6 98.4 90.5 85.4 77.1 66.8 55.3 53.5 52.4 50.2 55.9 66.7 73 77.4 81.2 85 88.9 95.5 100.5 101.1 103.6 105.6 107.9 113.2 119.2 123 128.1 133 136.3 139.5 142.7 146.1 148.2 150.3 152.5 154.6 156.1 156.5 156.5 156.4 156.3 156.7 156.9 156.9 157.1 156.9 158.2 158.3 158.9 159.6 159.6 159.3 159.1 158.3 157.8 158.5 160.6 162.2 163.5 160.3 158.8
97.6 100.2 102.7 105.1 107.6 110 113.9 119.8 124.5 128.8 132.3 136 139.2 140.5 141.1 142.4 139.8 137.8 135.8 135.8 136.1 136.1 136.7 137.1 138.2 136.8 136.6 137.6 139.8 140.4 142.6 146.2 154.5 157.9 160.1 162.4 166.5 167 169.2 169.9 169.6 169.2 168.5 167.6 167.8 167 167.2 168.4 168 168 168.6 169.5 170.7 171.9 173.2 174.4 176.2 178.5 180.7 183 185.7 188.1 190.4 192.7 193.6 194.2 194.8 195.9 197.1 198.5 200.1 200.4 200.7 203.3 209.9 214.5 218.4 221.6 223.9 223 220.3 216.4 211.8 206.9 205.2 201.4 196.9 196.7 197 196.8 197.3 197.8 198.8 200.6 203.8 204.3 204.9 206.3 207.8 209 210.1 210.7 211.3 212 212.7 213.9 214.7 215.5 215.9 216 216.1 216.1 216.2 216.2 216 214.6 213.8 212.1 212.1 212 213.8 217.1 221.6 222.8 222.8 220.9 218.3 213.5 205.6 197.4 188.9 176.7 162.5 147.2 138.2 130.7 123.6 115.9 109.4 104.7 98.3 90.5 85.1 77.5 68.5 53.1 52.7 51.8 51.6 62.2 72 78.7 82.6 85.3 87.3 92 97.6 100.6 101.8 104.4 105.9 109.2 116.4 122.3 126 131.6 137 140.9 144.2 147.6 150.9 153.3 155.5 157.9 160.3 162.3 163.2 163.2 163 162.9 164 164.4 165.4 165.7 164.5 164.5 164.4 164.2 163.2 162.7 162.1 160.8 160 159.9 162.6 164.4 163.9 165.2 163.9 164.1
96.9 99.4 101 103.6 106.4 108.8 112.7 119.1 124.2 128.7 132.8 135.8 138.8 140.4 141.8 142.7 142.5 141.2 139.4 138.1 136.9 136.8 136.5 135.9 135.1 134.4 134.1 134.6 135.8 135.9 138.3 142.3 146.9 149 153.9 156.1 160.2 164 165 164.9 165.2 166.1 165.6 166.7 166.3 164.8 163.9 163.6 164.2 165.2 166 166.7 168.5 170.3 171.6 172.9 174.2 175.4 176.9 179.3 180.7 182.7 185.2 187.7 190.8 190.8 191.7 193.4 195.7 197.3 199.1 201 201.2 206.4 213 218.9 222.9 226.6 230.8 229.6 228.1 225.7 222.8 216.8 212.7 206.9 201.3 200 200.2 199.4 198.9 199.3 199.9 202.3 203.8 205 206.2 208.1 209.5 210.8 211.6 214 214.6 215.1 215.1 215.1 216 217.2 217.6 217.2 217.1 217.2 217.2 217.2 216.3 215.4 214.3 212.5 211.8 211.7 212.7 215.7 219.5 224.4 225.3 224.1 219.9 215 209.3 201.3 192.1 180.3 167.9 154.7 143.4 136.5 125.6 118.7 110.8 105.1 98.1 90.6 85.4 78.3 66.3 51.6 51.3 48.9 54.6 64.2 74.4 80.1 85.4 90.2 90 95.8 99.5 101 101.9 104.2 107.6 111.5 117.3 123.7 129.2 134.7 140 144.6 148.4 151.8 155.1 157.6 160 162.3 164.6 166.2 168.1 169.9 169.6 170.1 171.2 172.1 173 173 171.4 171.1 171 170.7 169.4 168.4 167 165.4 162.2 162.5 164.4 166 167.6 166.1 167.2 168
