ncols 200
nrows 82
xllcorner 260000
yllcorner 355000
cellsize 50
125.8 123.1 131.4 155.1 164.7 158.7 159.6 164 166 167.6 168.2 175 184.2 205.4 207.8 218.8 231.6 246.9 258.3 271 275.9 279.3 287.1 287.1 292.1 314.2 332.9 350.1 361.8 365.7 370.5 381.8 398 412.4 426.3 444.4 466.1 484.9 503.1 522 539.9 556.5 573.3 589.7 607.5 625.3 644.1 666.3 690.9 713.6 738 761.9 782.2 796.5 807.4 816.8 819.2 817.8 814.8 811.3 806.9 802 800.1 795.5 791.1 785.3 778.7 772.2 766.2 759.8 753.9 746.2 731.4 710.9 675.3 640.3 547.1 518.2 502.9 482.4 458.8 434.4 424.2 423.6 410.8 386 378.6 375.7 375.2 378.5 387.2 404.7 435.4 465.4 488.5 523.9 555.6 584.3 616.8 647.7 674 717.9 700.2 654.5 618.8 594.6 575.4 568.8 559.3 554.8 550.9 557.1 558.4 562.9 570.7 590.3 613.2 626.5 636.1 649.2 668.7 708.9 726.9 747.6 771.9 803.4 790.2 750.9 719.1 688.6 659.4 629.6 606.5 589 582 571.3 535.5 514.4 499.9 497.2 488 480.9 481.4 487.5 499 503.9 532.5 549.1 575.5 589.3 593.7 607.1 603.1 587.4 571.7 566.8 559.5 548.2 540.1 534.4 529.7 525.9 525 526.4 530.3 531.7 533 539 551.4 566.9 578.8 601.2 616.2 634.5 640.5 656.2 658.4 653.1 639.1 577.8 545.7 504.3 467.7 436.5 399.2 377.4 350.2 329.3 315.9 301.9 299 297.9 298.1 296 287.8 283.6 281.9 273.5 272.3 273.4
124.8 119.1 143.8 152 148.9 143.8 157 155.9 158.9 157.8 160.9 166.5 170.1 191.4 198.3 208.4 224 234.2 249 250.2 251 256.6 256.9 284.2 290.8 312.8 336 353.2 368.8 381 390 397.1 404.7 411.3 421.6 444.6 467.3 487.7 507.2 523.7 539.3 556.3 571 590.8 607.4 625.1 644.5 667.1 691 717.6 742.3 762.4 778.7 787.6 793.7 797.2 799.5 799.4 795.6 793.6 791.6 789.4 786 783.2 779.2 774.6 769.7 764.8 758.8 753.7 748.3 741.5 731.9 722.1 709.1 682 600.2 545.5 523.2 500.2 475.1 454.8 441.1 429.1 413 392.2 383.4 380.7 387 381.2 398.7 418.3 442.7 477.6 507.1 535.9 567.8 608.6 632.1 669.8 711 737.1 699.1 661 631.4 618.2 606.7 578.6 559.9 558.8 559.3 559.5 558.2 560.7 581.8 608.7 633 647.6 645.1 647.6 667.1 700 725.8 742.4 763.1 763.5 751.7 728.6 702.5 678.1 660.8 625 604.7 596.8 591.1 569.2 541.1 513.4 505.7 495.2 495.8 487.3 482.5 489.2 500.8 505.4 534.8 555.5 586.6 594 606.8 616 600.1 583.3 576.9 572 561.8 551.3 544.2 537.5 530.4 529.5 533.8 538.8 541.8 545.4 547.5 558.8 572.4 590.3 607.8 629.2 640.4 651.2 655.9 669 669.4 660.6 613.3 576.3 542.2 501 473 426.8 404.1 372.3 347.7 332.3 314.8 302.3 299.4 297.9 296.9 296.7 296 294.3 285.5 275.2 275.9 276.5
118 117.9 127.2 140.1 135.7 141.1 145 144.1 147.9 152.4 153.1 158.8 161.6 179.1 187.3 199.2 216.9 227.9 225.7 225.9 220 232.6 260.7 278.3 295.7 314.3 337.4 357.9 373 385.9 399.2 408.2 419.2 428.7 439 444.5 471.3 489.7 508.5 523.1 541.2 556.2 573.8 588.9 608.5 627.5 645.8 668.3 694.2 720.1 742.3 758.6 768.4 774.1 777 779.3 780.9 778.6 778.6 779 777.5 776.5 774.3 772.2 769.5 766.4 762.4 758 751.9 747.7 743.9 736.8 726.5 713.5 699.2 686.9 631.7 570.3 538.2 512.7 493.3 467.6 456.6 437.5 418.4 405.6 390.7 397.9 400.1 398.3 411 435.3 458.7 485.9 524.6 558.2 594.7 622 651.6 688.8 730.4 751.2 709 669.4 644.6 631.1 614.6 585.5 570.8 575.9 577.2 573.3 568.7 568.4 578.6 607.7 631.5 644.4 657.5 660.8 667.8 696.7 716.8 728.7 744.8 745.4 725.3 706.1 686.4 681.6 666.6 633.7 599.6 595.6 597.1 582.3 539.2 533 523 498.3 503.2 502 484.6 495.7 503 515.5 539.7 560.7 591.5 604.6 623.8 615.7 598.1 589.2 583 577.3 569.1 559.9 551.6 543.6 540.6 541.4 549.2 558.4 562.2 560.9 564.2 576.9 592.9 606.3 629.2 646.1 658.7 663.3 669.9 673.6 673.6 647 605.3 574.8 542.8 487.6 448.7 420.4 393.1 371.1 346.8 330.3 315.5 305.5 300.4 299.3 299.5 299.1 305.3 301.6 291.7 287.3 282.9 283.5
109.3 117.3 122 137.5 131.8 131.5 132.5 135.9 137.9 139.8 151.7 152.4 155.9 165.7 178.9 194.8 209.4 209.4 206.3 196.9 224.6 238.8 253.4 268.1 287.4 311.2 337.4 359.7 374.2 390.8 405.5 418.1 432.4 445.3 460 472.7 482.7 498.2 512.2 526.8 538.5 556.4 572.5 590.8 612 629.5 649.9 669 693.7 715.7 735.7 745.1 751.4 757.7 758.8 759.5 760.9 761.9 762.6 764.6 766 766.2 766 764.5 762.5 760 755.4 750.6 745.3 742.4 740 733.3 724.6 717.5 709.5 706.6 685.7 594.7 552.7 531.1 510.8 486.7 473.8 450.8 434.1 431.5 416.7 423.4 415.9 425.1 465.1 485.4 488.6 506.5 548.1 582.2 599.8 630.6 665.5 702.5 760.7 753.4 715.6 680 671.1 656.9 625.6 601.7 586.2 583.8 589.6 584.5 573.5 579 606.1 616.1 630.8 657.7 679.5 683.3 680.9 682.3 708.1 728.3 735.8 729.7 704.6 686.8 679.9 673.2 656.4 638.3 600.1 597.5 593 563.7 548.3 544.3 532.6 517.8 509.9 514.1 502.9 510.8 515.3 529.4 554.9 574.3 604.7 633.7 637.4 615.2 598.4 592.5 587.2 581.9 573.2 564.5 556 552.7 551.2 552.8 559.7 568 572.8 574.3 580.6 593.7 609.5 631.7 650.3 666 672.8 677.3 681.7 681.7 662.8 626.7 606.7 572.2 523.8 468.6 432.7 404.7 380.6 364.3 348.5 331.2 320.8 311.4 310.4 307.2 303.4 303.7 311 301 293.3 293 289.6 290.3
107.5 117.5 133.8 141.6 130.1 126.3 126.2 128.6 129.8 137.1 148.6 147.3 149.9 155.6 168.6 188.6 203.7 196.2 186.9 200.5 217.6 228.8 241.9 259.3 281.1 304.6 333.2 359.2 380.1 399.1 416.3 433.2 447.2 462.4 475.5 487.9 497.9 507.1 517.3 532.5 550.2 563.7 577.7 594.8 614.6 631.8 651.6 669.6 685.9 710.1 719.2 728.2 734.1 737.3 740.8 742.8 746.9 749.6 752.3 754.7 756.8 757.6 757.9 757.1 754.5 753 749.3 744.3 740.3 738.3 736.6 731.9 720.6 716.1 710.1 697.6 688.1 664.2 571.2 556.7 531.3 505.5 490.9 469.1 452.7 452.4 443.9 450.3 480.8 489.6 521.8 546.2 558 534.7 580.4 598.5 609.9 637.2 683.5 736.4 764 756.9 720 694.3 692.6 673.6 640.8 619.9 600.3 597.2 587.5 579.3 584.2 603.2 614.7 625 652.8 671 685.9 701.7 697.7 687.1 704 723.5 727.6 711.5 690.4 678.7 667.4 660.1 648.8 641.3 612.4 593.8 586.1 561.3 556.6 549.6 542.9 530.1 519.7 520.9 535.7 534.2 532.9 552.1 568.6 604 631.4 645.4 625.2 608.2 601.1 594.9 590.6 586.3 578 568 564.6 559.9 557.6 561.1 568 573.4 579.7 586 597.9 615.5 640.5 653.4 671.2 688.3 695.2 700.9 703.5 662.7 609.2 586.3 564.4 544.4 500 449.4 423.9 396.4 376 359.1 344.6 337.5 337.8 328.7 319.9 314.1 307.3 308.2 310.5 301.6 298.2 299.5 298 298.7
106.7 108.7 113 136.7 133.7 126.4 121.8 122 124.4 133.9 134.8 140 153.2 158 164.8 178.4 187.5 181 184.4 192.2 207.7 216.8 230.7 250.9 273.7 296.3 323 351.6 379.8 406.5 425.8 445 460.2 474.4 487 498.6 509.4 519.1 529 543.7 557.8 569 584.4 599.6 619.4 637.7 653.3 668.7 682.4 696.9 706 711.3 716.8 721.1 725.5 730.5 734.5 737.8 738.5 743.1 746 747.8 748.8 749.7 749.3 746.6 740.9 737.7 736.8 734.9 733.2 727.3 720.3 709.1 699.3 699.4 688.3 657.6 605.7 614.2 606.5 536.1 515.9 490.9 475.9 479.8 479.4 481.3 511.7 514.6 560.6 606.5 588 580.1 616 615.3 625.6 655.9 701 748.1 796.3 765.4 732.1 711.3 709.9 681.9 651.9 635.1 616.4 599.3 593.2 594.5 603.4 614.8 630 650.5 676 695.3 714.4 714.1 713.1 705.9 713.2 730.8 721.8 699.6 684.6 668.1 659 652.4 640.9 626.2 605.1 592 576.3 575.2 577.9 559.1 547.6 538.3 541 543.6 552.2 553.9 562.9 577.7 606.9 635.6 652.8 630.1 618 607.4 600.2 596.8 592.6 589.2 581.1 579.1 575.6 568.4 567.9 570.3 577.2 579.6 587.8 596.7 614.3 631.7 653.3 672.1 690.7 711.8 714.8 724.6 708.1 634.6 591.5 553.6 528 505 475.7 437.7 415.4 396.9 377.4 362.7 356 352.7 350.8 342.1 340.2 323 312.1 320.3 312.6 304.8 304.7 305.5 305.6 304.2
107 106.4 107.6 107 115.5 121.9 114.5 120.1 120.8 125 122.6 135.7 146.5 155.2 163.3 162.1 166.9 163.2 171.8 179 191.9 203.8 222.3 244.1 267.7 289.2 315.9 346.5 378.8 407.4 433.9 453.1 469.1 485.2 498 509.5 520.6 531.3 543 554.3 564.7 578 589.3 607.3 623.7 638.9 652.4 665.6 678.7 686.1 692.9 698.2 702.6 708.9 713 715.8 721 724.6 729.7 734.4 737.9 742.4 745 745.5 743.3 735.7 732.4 731.8 733 731.9 729 724.9 717.7 707.4 699.2 688.9 685.2 692.7 693.9 647 646.2 565.9 541 521.6 502.9 520.7 531.4 519.7 545.1 546.9 587.6 621.2 639.6 620.7 631.4 629.5 636.3 666.6 724.1 786.2 804 782.5 755.2 736.2 723.4 687.5 664.3 643.9 620 608 605 610.8 620.3 632 654.1 682.1 695.7 710.8 732.1 742.6 747.8 736.9 726.3 727.3 712.9 692.2 679.5 675.5 666.9 651.4 629.9 617.4 607.7 595.4 578.2 577.2 576.7 565.7 560.6 566.3 556.1 566.6 573.8 580.5 605.6 632.4 647.2 657.4 646.9 627.8 615.1 606.1 600.3 597.8 596 593.3 589 589.4 584.6 582.5 578.4 582.5 586.3 590.2 602.2 613 637 662.1 681.1 694.5 708.8 726 728.7 732.2 704.6 639.1 574.3 546.1 521.4 489.3 463.8 441.2 414.9 402 383.6 378.5 374.9 372.7 365.9 362.2 343.4 328.3 321.4 318.8 313.2 312.9 309.8 310.1 310.4 308.5
107.4 107.4 108 108.3 107.9 110.5 111.5 121.3 119.9 117.5 119.1 129.3 135.5 152.8 155.3 156 154.4 164.7 157.9 165.7 180.1 193 215.2 233.7 256.4 279.1 311.2 352.7 376.5 402.9 431.1 454.7 475.5 491.9 507.2 520.5 529.7 542.8 553.9 563.8 574.3 585.3 595.3 612.8 627 637.3 650.8 661.3 668.5 675.6 681.7 686.7 692.4 697 701.7 704.3 710.3 716 721.7 727.5 732.1 737.9 742.2 741.4 732.7 727.7 726.7 727.4 728.7 729.8 728.3 721.3 715.9 708.6 696.3 697.6 699.6 699.9 708.5 674.6 673.7 640.3 605.3 554.4 525.7 554.3 566 551.9 566.6 580.6 614.9 649.9 663.7 633.1 634.7 638.1 651 685.3 749.4 799 807.3 802 783.9 776.2 720 684.8 672.5 646.6 628.9 620.4 622.7 634.2 645.6 663.5 687 702 716.6 734.1 762.5 790.6 798.6 772.4 749.9 727.6 704.6 693.8 684.6 674.3 661.1 643.1 633.1 626.8 610.1 597.7 582 579.2 585.1 576.5 580.2 579.8 576.2 588 586.1 607.5 628.9 649.1 662.2 657.5 639.8 624.8 613.1 604.1 600.8 599.5 598.2 598.1 600.2 596.5 596.6 599 603 600.3 599.9 603.7 614.6 638.6 665.3 684.3 702.2 712.7 728.6 743 743.6 733.2 697.6 631.2 593.5 555 519.5 488.3 465.6 440.7 421.2 410.5 403.4 395.2 394.3 390.4 384.5 370.7 350.3 334.1 327.1 318.1 317.8 317.1 312.9 314.9 315.4 312.5
106.5 107.1 107.5 107.5 108.5 109.4 110.1 119 115.6 115.1 119.4 119.4 122.4 128.4 136.2 138.9 147 149.6 148.7 156 170.7 183.2 204.3 220.9 239.7 269.8 300.2 343.4 378.6 393.1 416.3 446.9 467.2 487.1 509.6 530.5 544.5 559 566.3 574.7 583.5 591 604.2 618.3 626.3 635.9 644.6 652.3 659.7 666.9 671.7 675.6 678.1 682.7 689.2 694.8 699.5 706.1 714.9 722.4 728.7 734.9 738.4 730.7 726.6 722.5 722.7 724.6 726.4 728.2 727.9 723.9 712.2 703.6 699 704.5 709.6 706.9 701.4 696.2 698.2 685.2 646 598.2 560.4 580.9 589.6 593 597.6 617 651.1 692.1 695.6 644.5 641.3 641.9 656.1 688.9 735.6 790.7 807 811 811.7 801.7 731.7 696.5 675.2 654.4 639.3 637.5 650.7 656.5 672.8 689.3 715.2 737.1 747.9 762.9 799.5 829.4 841 795.7 759.9 730.7 700.5 693.8 684.8 679.4 656.6 642.1 640.4 643.8 612.9 609.1 587.3 580.3 583.4 585.9 595.4 597.1 598.3 614.6 622.8 631.2 658.8 685.2 670.5 653 634.8 622.5 610.3 604.1 601.6 602.7 603.2 607.3 605.3 607.6 611.7 615.7 614.3 612.6 610.9 618.8 634.3 658.6 684.8 703 719.3 732.6 742.6 752 733.9 714.6 686.3 643.8 598.9 558.8 525.9 501 469.9 453.7 436.2 437.8 435.9 417.2 416.7 405 397.2 379.1 357.1 344.3 335.6 326.1 322.3 320.9 317.4 321.3 320 319.2
106 106.7 107.4 107.6 108 108.8 108.8 111.9 115.4 111.1 119.4 114.2 116.5 120.8 128.1 130.5 135.3 137.2 142.1 151.6 166.4 176.1 188.6 211.2 241.8 262.1 300.9 342.4 396.1 394.2 407.7 433.4 450.6 470.6 499.1 535.6 555.9 569.9 577.8 582.3 587.7 597.9 608 616.7 623.6 630.5 637.9 645.1 652.1 656.5 659.4 662.9 667.1 672.7 678.9 684.9 691.1 699.6 708.1 716.4 726.2 732.8 728.9 722.2 718.5 717.2 719.1 721.3 722.6 725 726.5 722.2 710.2 704.1 704.9 711 716.4 711.2 711.1 717.9 708.6 713.4 669.3 628.9 606.2 629.5 623.7 628.6 636.7 653.1 696.3 731.7 715.2 657.5 644 643.5 658.1 688.2 725.4 772.7 809.2 824.6 831.5 787.2 726.5 704.6 687.7 669.2 662.1 667.1 677.3 688.5 704.7 722.9 750.7 772.8 789.1 803.6 823.2 855.4 838.6 791.7 764.3 731.8 709.3 694.3 685.9 685.1 676.5 662 647.2 636.2 615.8 607.1 592.9 587.2 587.3 596.3 601.5 609.9 619.2 642 662.4 678.5 700.6 695.7 674.7 652.7 636.7 622.7 611.7 605.6 603.9 606 609.3 611.7 612.4 617.1 618.5 620.5 620.2 621 626 636.8 654.9 676.7 700.3 716 731.7 741 748.6 747.2 731.8 712.1 687.4 650.4 603.8 572.2 551.2 517.5 491.9 470.5 481.5 474.3 447.7 448 436.3 432.6 402.8 383 365.1 354.2 343.2 330 328.5 322.9 325.9 327.2 326.9 329.6
104 106.5 107.3 107.9 108.1 108.3 108.1 108.3 109.1 108.5 109.4 113.1 115.3 120.1 122.8 121.3 127.8 131.6 135.9 147.4 156.3 169.1 194.7 228.5 246.9 265.1 299.9 354.9 389.9 401.6 400.7 409.9 428 448.5 478.3 514.9 551.9 570.9 581.5 586.3 590.8 598 606.2 611.2 616.6 622.9 629 634.9 639.8 643.1 646.7 650.7 655.5 659.4 666.9 674.5 683 693.8 703.9 713.4 718.2 717.5 715.2 715 711.5 713.3 716.2 718 718.9 721.1 722.2 718.9 710.2 706.2 711.1 716.6 716.4 720.4 724.4 732.8 731.8 733.4 693.5 667.4 653.6 662.7 662.9 670.6 679.1 703.2 725.1 741.7 734.9 684.7 659.9 651.8 659.9 687.7 721.3 777.4 817.3 836.8 825.6 767 729.3 714.5 703.5 690.7 692.3 697.3 711.3 740.6 755.6 773.4 801.3 827.9 827.2 842.6 854 893.4 852.6 804.9 778.9 752.9 726 707 698.6 692.2 701.9 689.7 662.9 641.1 622.9 610.2 603.7 611.3 620.1 613.2 620.4 629.7 649 682.3 702.5 710 715.3 703.5 676 655.4 639.1 626.9 615.8 610.4 609.8 609.3 614.3 616.8 616.6 623.9 626.8 628.3 628.3 632.9 642.2 662.5 684.7 703.8 715.2 727.7 742.1 750 762.1 747.8 729.2 716.9 693 667.5 630 599.3 579.4 552.6 523.6 502.7 495.2 470.5 475.2 472.4 455.3 437.5 412 393 376.1 369.2 354.4 342.9 336.3 329 333 332.9 334.7 338
107.3 105.4 107 106.9 107.9 108 107.6 107.2 107.8 108.4 109.6 112.5 113.7 114.3 119.1 120.6 121.7 125.8 135.3 144.7 160.8 180.8 195 229.6 240.9 259.1 294.4 343 387.5 368.7 379.1 390.5 405.6 432.9 464.8 496.9 535.4 566.5 583.2 588.6 590.4 591.6 594.9 601.3 606.5 614.1 618.9 622.6 625.8 630.3 635.5 638.9 641.5 646.9 653.4 663.2 677.2 692.1 700.9 706.9 703.6 705.4 703.4 704.9 706.9 711.5 714.2 715.1 715.2 715.2 714.3 711.8 710.3 708 714.3 718.3 719.3 723.1 734.1 750.2 752.7 742.9 712.6 708.1 713.7 732.1 719.8 735.1 753.9 769 772.9 759.9 756.6 721.1 691.3 674.4 680.5 699.5 730.8 776.3 827 854.3 820.1 758.1 728.4 715.7 707.2 715.9 713.6 740.2 769.9 809.3 815.5 855.6 852.5 873.8 871.9 883.8 909.4 928.2 877.6 831.2 806.8 778.9 752.3 729.2 717.9 708.3 707.5 687.1 668.6 645.2 637.1 625.6 617.2 627.9 631.7 633.7 645.1 656.1 677 704.4 722.8 736.8 741.7 714.8 683.9 663.2 647.9 634.1 623.2 620.1 619.6 616 617.1 625.3 629.6 640.4 642.9 643.3 652 657.4 670.9 686.7 702.7 714.2 722.3 732.4 744.9 748.5 754.1 736.7 725.9 711.5 690.2 671.7 658 640.2 608.3 574.6 550.2 524.9 505.1 498 510.4 502.1 471.9 448.7 420.8 403.4 394.7 376.3 365.9 356.9 344.9 337.8 339.6 340 343.3 347.1
139.9 106.5 105 106.2 104.7 107.4 107.5 107.1 107.8 108.8 110.3 111.6 111.9 114.9 116.3 117.3 119.1 121.7 128.3 139.9 166.2 179.1 196.7 225.5 249.2 254.7 286.7 320.9 329.8 333.6 345.9 362.7 385 423 449 482.7 519.3 554.2 574.5 579.7 577.6 576.2 581.8 586.7 593.8 601.2 608.1 611.3 614.7 619 624.2 627 631.4 638.2 640.6 651 672.3 684.8 691.9 688.8 691.9 694.1 696.1 699.2 703.9 708.9 711.4 712.8 712.6 712.5 714.8 712.1 708.2 708 708 716.2 725 739.4 755.7 762.2 767.6 752.6 739.7 742.1 772.5 792.9 812.3 817.4 814.5 822 799 778.3 772.8 750.1 720.5 714.7 704.9 720.1 753.5 800.1 840.9 874.7 827.7 767.6 748.8 722.3 722.9 733.1 772.7 794.8 837.5 868.5 863.1 894.2 910.2 928.9 920.8 930.4 953.4 932.7 888.1 868.3 835.1 803.9 773.7 753 744 734 715.8 687.2 664.3 655 643.4 651.7 635.5 637.6 646.5 654.5 669.4 685.3 714 726.5 741.3 747 750.7 731 696.9 674.4 658.6 643.9 634.6 633.8 633.8 629 635.5 648.3 659.2 659.6 662.9 669.6 674.3 682.8 698 709.8 717.8 720.3 727.4 735.2 739.8 732.2 728.2 719.3 711.9 696.5 681.9 667.5 658.7 648.4 627 600.5 568.2 560.9 555.8 536 552.6 522.3 492.1 459.2 431.4 418 401.6 385.7 376.5 363 355.6 350.5 349.9 352.6 357.3 359.7
167.1 128.3 110.3 107.8 106.6 106.3 106.1 106.4 107.9 108.9 110.3 110.7 112.1 113.2 114.1 114.4 116.3 120.3 131 143.5 145.4 170.5 203.3 218.6 247.3 261.7 272.4 289.5 299.4 307.9 321.6 341.1 367.5 399 428.2 458.6 489.8 539.9 554.2 555.4 550.2 550.6 560.2 572.2 581.1 585.7 592.8 600.8 604.6 607.3 610.5 615 620.3 625.6 634.4 642.9 658.3 667.9 671.4 677.7 684.2 687.7 692.1 695.5 700.8 707.4 709.5 711.7 712.2 712.3 715.3 716.3 709.9 708 710 724.3 739.6 758 770.9 777.8 780.8 765.1 762.6 782.9 807.3 822.7 837.2 847.2 864 859.8 817 792.4 773.5 755.3 743.9 731.4 729 750.1 778.6 825.2 868.6 902.4 844.5 792.1 756.3 740.1 740.1 767.5 815 850.3 857.6 897.6 912.8 914.6 948 963.2 963.1 960.9 955.5 946.3 917.7 893.1 856.9 832 803.5 783.8 770.7 760.8 736.3 695.7 677.4 672.1 662.2 656.3 656.5 661.1 666.3 679.9 712.4 730.9 736.6 745.2 746.6 749.4 746.5 739.9 715.5 692.7 673.8 661.9 652.8 652.2 652.2 660.1 667.2 666.9 676.7 676.9 687.6 700.4 710.9 710.9 715.1 720.5 720.8 724.9 725.5 729.6 726.2 712.2 699.4 696.5 689.3 680 666.1 654.6 648.7 642.1 638 625.8 612.8 605.7 596.6 579.5 559.2 532 494.8 467.9 440.2 425.9 408.4 394 379.9 374.3 373.2 363.6 363.6 365.6 374.6 377.8
191.1 139.3 136.9 131.6 108.5 104.9 105.6 105.9 107 108.9 108.7 110.5 110.6 112.4 112.3 112.7 113.4 129 135.8 133.1 135.7 153 191.7 211.1 228.4 258.6 278.1 270.3 274.8 284.9 300.2 323.5 356.1 374.7 406.5 435.4 468.8 512.3 527.3 519.9 515.5 519.3 541.5 558.8 566.4 572.2 579.8 585.3 591.8 596 600.2 605.5 610.8 617.4 625.3 634.8 645.1 653.6 661.1 669 674.8 687 694.3 699 702.7 707.3 716 717.5 719.8 722.6 717.1 718.2 715.7 721.9 725 746.7 773.4 768 786.2 784.6 785.5 780.7 780.2 799.1 819.5 833.6 851.9 870.4 883.1 874.9 830.3 806.9 780 770.5 767.4 748.9 751.8 773.2 805.1 854.2 904.3 934.1 861.2 820.9 778.7 762.9 765.3 806.6 853.3 889.1 910.9 934.5 958.5 952.6 977 977.2 972.9 969.1 951.5 932.9 921.5 911.9 897.9 867.8 837.9 827.7 812.2 786.3 751.7 715.9 696.6 698.8 714.3 688.9 682.8 686.6 694.5 718 736.4 745.5 745.5 746.7 750 746.9 744.5 740.6 734.7 725.3 705.8 692.6 692.9 678.8 680.3 689.4 691.8 698.8 690.5 696.8 710.6 724.1 729.6 730 725.1 721.6 719.7 718.9 720.3 719.8 709.4 685.2 679.6 677.4 672.2 665.8 649.4 643.1 636.5 631.6 632.5 624.8 621.3 610.8 594.2 577.2 560 527.3 484.6 463.2 446.1 433 418.9 404.3 390.9 385.7 383.5 376 384.6 384.5 390.5 397.2
193.2 169.5 158.5 138.4 120.3 111.3 105.9 106.4 107.1 108.6 108.8 109.6 110.7 110.2 111.5 111.4 111.7 123.9 121.7 123.9 130 158 173.9 204.6 228.9 249 251.1 253.7 258.6 268.6 294.3 308.3 327.8 355.6 382.1 414.3 452 477.9 483.6 481.2 478 501.7 528 544.1 547 556.7 564.4 572.2 578.8 584.5 589.9 595.2 602.3 608.8 618 628.6 637.1 644.5 651.2 660.9 675.1 686.3 698.2 701.8 708 724.1 727.7 727.3 734.8 736.1 733.3 727.8 733.7 746.4 762.5 783.9 794 798.3 797.8 795.2 801.1 800.9 799.2 812.4 840.1 856 879.7 898.1 905.6 893.4 845.4 814.3 792.3 787.6 785.5 779.4 778.3 804.1 843.3 897 937.5 941.1 884 845.1 803.5 792.4 798.7 847.8 885.6 920.5 953.2 977.4 980 980.7 980.7 980.4 974.2 957.9 936.7 922.9 918.3 907.5 899.1 888.6 869.1 854.8 841.5 824.2 776.1 744.3 726.6 723.8 736.1 737.8 726.4 736.8 739.2 737.8 744.5 746.6 746.3 747.1 745.7 743.3 742.7 742.2 737.7 740 742.7 751.1 745 735 734.8 732.3 729.1 726 725.4 732.9 744 748.6 741.8 729.5 724.3 718.9 714.6 709.8 704.8 703 684.6 666.4 663.7 660.5 662.6 647.7 637 632.2 623 621.4 621.9 621 613.5 599.5 584.8 568.6 547.9 517.4 486.3 467 453.3 439.3 421.1 411.5 403.2 398.3 397.9 401 401.5 404.4 410 412.9
219.1 198.2 171.1 151.5 135.8 122.6 111.4 106.4 106.8 107.5 107.8 108.4 109 109.6 109.9 110.3 110.6 111 114.3 123 137.1 166.6 193.9 200.4 230.2 240.7 232.6 237.9 254.4 270.4 279.9 290 315.9 336.9 356.5 398.1 415.9 433.3 446.1 444.6 455.7 488.4 518.5 514.3 523.1 540.6 549.7 558.9 566.8 574.1 580.4 585.8 592.1 600.2 609.2 621.1 631 642.4 649.4 660.1 675.6 693.1 695.2 706 719.6 727.9 733.9 734.4 742.6 744.5 749.7 757.4 760.4 776.4 796.7 813.6 817.5 827.6 819 819.8 827.7 833.1 835.2 843.6 865.2 879.2 902.4 917.6 927.9 913.4 864.9 844.3 811.2 810 812.1 801.5 804 839.7 877.7 927.9 951.5 956.5 915 869.5 842 826.6 837.4 881.6 917.1 947.8 971.9 974.8 988.9 982.5 978.6 975.5 963.5 945.5 927.9 918.6 912.3 901.9 897.2 881.5 867.7 856 839 829.2 804.8 778.4 760.6 757.6 768.1 763.9 759.6 757.9 752.9 744.2 746.5 747.1 748.1 745 743.9 743 743.1 743.1 743 748.1 755.9 768.4 777.2 783.5 775.4 776 769.4 765.4 763.3 763.3 773.3 759.7 745 731.8 723.6 711.9 706.1 701.9 694 675.9 660.5 648.1 644.9 645.4 644.8 628.3 624 617.6 611.8 616.2 617.6 609.9 599.5 583.3 568.4 549.7 529.8 506.1 485.2 471.4 454.9 441.7 430.4 425.1 418.9 412.9 412.8 415.9 420.8 421.8 426.1 431.2
242.7 210.3 186.6 162.7 148.3 132.2 117.9 107.1 106 106.6 107 107.7 107.6 108.3 108.6 109.1 108.9 109.2 119.5 138 160.9 180.6 211 209.6 220.7 221.3 225.7 246.8 262.7 258.1 264.2 275.7 290.5 309.8 335.2 366.3 381.1 394.3 407 406.4 436.5 471.3 489.1 466.8 502.3 517 530.8 543.9 553.7 563 569.7 578 587 597.3 603.1 617.6 634.9 645.1 656.9 666.3 675 685.4 696.7 705.7 717.5 727.9 731.2 736.1 741.9 756.8 771.6 780.8 787.9 798.3 821.1 838.9 847.4 850.8 849.5 853.7 859 867.8 870 876.7 892.7 906.1 924.6 930.4 940.4 931.8 906.2 867.7 832 822.8 822.7 821.6 838.2 876.8 925.9 948.6 953.2 954.6 942.4 902.5 874.5 862.7 876.2 917 947.2 968.5 968.5 970.9 969.5 967.8 967.6 960.3 942 931 918.5 910.7 904 896.8 886.2 873.1 866.4 849.9 838.3 825.8 812.7 798.5 786.3 778.2 775.6 769.8 765.7 761.3 757.4 752.2 747.9 745.8 743.6 742.8 742.1 741.6 742 743.7 747 752.2 758.8 769.6 779.7 789.6 797.7 802.6 804 805.2 800.1 790.4 768.7 759.4 743.7 731.5 714 704.8 701.9 697.4 672.5 660.3 642.3 637.6 632.8 628.1 623 616.8 610.3 605.7 607.9 606.6 605 598 582.9 570.7 555.2 532.6 520.9 507.3 499.9 491.1 474.1 465.6 445.5 439.7 434 425.9 431.2 431.8 432.8 439.9 447.3 448.5
255.2 220.1 212.7 193.8 169.2 144.7 128.7 112 106.5 106.3 106.6 107.5 107.6 107.5 107.4 107.6 108.5 121.4 136 151.2 170.9 195.9 208.5 203.3 202.5 206.7 217.3 227.7 234 244.5 262.6 263.3 267.5 286.7 316.7 333.3 347.5 362.3 371.6 385.2 415.5 453 433.5 455.5 477.5 495.4 510.2 524.4 542 548.5 564.9 578.1 586.5 597.3 606.7 619.1 637.1 653.9 662.2 665.5 676.8 679 687.7 698.2 711.1 718.5 727.5 739.4 764.7 783.7 800.2 806.7 815.5 821.6 853.6 867.4 871.8 875.8 880.5 886.6 892.7 900.1 912.7 913.6 924.2 932.4 947.1 953.3 948.7 945.8 935.3 891.9 844.3 835.5 837.7 849.3 878.6 913 942.3 951.3 950.8 949 940.7 933.5 927.7 912 933.1 961.1 959.2 955.8 954.2 956.2 960.4 960.4 959 942.6 929.8 920.8 910.7 903.7 896.6 889.1 877.9 867.4 858.6 844.9 833 824.3 810.3 800.1 788.9 782.8 777 771 766.8 762.3 757.6 752.1 747.8 742.9 740.4 738.1 735.3 736.6 738.5 743 747 753.4 760.8 769.2 779.6 790.5 798.3 803.5 805.9 804.9 798.2 782.2 767 752 735.9 719.1 705.9 698.3 692.3 668.8 651.6 642.5 633.2 624.5 616.6 610.7 604 601.8 598.3 598.5 597.8 596.2 591.2 582 569.3 554.2 538.8 523.9 515.6 507.9 501.1 493.5 490.1 470.3 456.8 450.5 445 442.6 440.7 441.1 444.7 448.2 448.7 454.1
272.2 251.4 233.1 210.4 183.9 164.3 145 128.3 119.5 114.2 107.4 107.4 107 107.9 107.7 107.6 108.7 115.4 145.5 170.5 180.8 188.9 188.9 189 192.7 197.7 202.5 208.7 218.1 222.6 233.4 240.4 252.3 269.3 293.7 307.5 321 330.8 336.3 365.4 403.7 401.3 396.2 432.2 452.4 479.1 488.4 514.5 533.7 545.6 562.9 576.2 587.4 600.4 612 624.3 638 648.7 660.3 665.6 670 675.2 683.3 694.2 708.5 725.2 745 771 790.6 809.9 826.8 835.2 843.3 849.7 871.5 881.7 886 891.1 899.3 906.5 912.8 919.7 931.5 939.1 944.7 948.4 963.2 964.6 964.4 961.1 965.5 933.9 865.7 865.9 868.1 880.9 916.9 950.6 953.5 950.3 945.1 932.1 918 911.2 909.1 915.6 926.9 945.8 940.3 941.5 941.1 945.4 954.7 954.7 943 929.4 921.6 913.5 905.4 895.3 889 878.6 865.8 858.8 850.4 837.5 827.3 820.2 806.4 796 788.8 782.3 776.4 770.4 766.5 761.5 757.2 751 746.5 740.5 732.1 729.7 727.7 729.4 731.9 737.1 741.2 748.1 756.4 768.2 778.9 788.1 796.2 803.4 806.4 801.8 788.9 772.5 758.9 750.6 739.7 723.7 702.6 696.9 682.5 667.9 641.7 630.5 622.4 612.7 602.6 597.9 596.9 596.1 591 591.4 588.8 581.6 574 562.6 549.2 532.3 520 511.8 506.1 503 497.2 488.8 479.6 464.1 455.1 449.4 449.4 443.8 443.1 443.2 444.6 447.2 450 454.1
295.3 276.5 250.8 229.7 206.6 186 168.8 146.8 135.8 128.1 115.2 107.6 107.6 108.3 108.5 108.3 108.5 111 130.6 158.1 164.6 170.4 173.8 178.5 184 186.7 195.6 202.9 216.7 206.9 210.9 222.9 246.8 268 281.6 283.9 293.8 294.4 316.8 340.9 351.7 359.3 380 393.1 445.4 477.6 498.6 521.3 531.9 541.4 553.9 572.6 587.9 600.8 611.3 625.9 644.2 655 658.1 663.6 667.9 672.2 685.7 699.5 721.7 750.8 775.1 797.9 817.6 841.1 850.9 865 870.7 879.7 887 892.1 895.9 903.8 912.3 920.5 928 938.6 948.5 957.9 964.1 969.5 973.6 973.4 972.1 974.5 975 971.2 919.4 908.8 908 927.1 957.7 962.2 955.3 942.4 927.2 907.2 891.7 886.6 893.4 901.5 906.5 920.6 923.7 921.7 920.9 931.5 932 932.7 931.7 921.2 914.8 904.7 896.6 886.5 877.4 864.1 855.4 849.5 835.7 828.3 821.9 812.6 802 792.2 786.7 781.2 773.4 767.9 764.6 760.8 756.4 751.7 742.9 729.7 722 718.6 720.9 723.9 725.9 728.4 732.2 741.7 751 760.4 771.6 783.7 791.5 794.5 792.8 781.4 764.2 755.1 744.5 733.7 728.9 712.1 691.4 684.1 666.5 645 627.4 622.6 618.7 597 589.4 588.7 588.8 581.3 586 581.7 573.8 565.2 551.4 535.7 524 511.4 506.2 503.7 503 493.9 488.5 475.8 463.9 458.3 450.7 446.1 444.8 442.6 444 445.2 445.1 444.4 446.4 447.1
324.1 304.3 272.9 257.6 237.9 217.4 209.1 164.4 155.3 141.2 127.7 114.6 107.8 108.1 108.6 108.5 108.6 108.9 129.7 149.6 157.1 158.9 162.2 169.6 173 180 184 192 189.8 193.9 202.2 210.1 230.2 239.7 253.9 262.1 270.7 276.9 289 303.1 313.6 339.7 374.4 407.7 448.7 478.5 507.1 521.3 528.9 536.8 546.5 556.2 572.9 592.7 613.5 627.7 638 644.9 658.6 665.7 669.1 678.3 697 719.6 748.2 777.3 801.4 824.7 844.6 862.9 873.2 880.4 884.6 890.2 894.3 897.4 906.2 913.9 923.2 932 938.8 948.3 958.7 970.8 979.8 981.1 981.6 980.3 978.8 977.6 976.4 973.7 964.4 947.7 952.8 957.9 958 955.4 945.3 926.5 903.5 878.4 863.4 867.4 869.2 871.2 875.7 895.4 896 898.2 905 913.3 923.9 924.4 919.2 911 903.7 893.1 883.2 878.6 866 854.6 849.1 840.4 826.9 818.1 813.4 807.1 794.1 788.6 783.7 776.3 766.4 764 762 759.3 754.3 749.3 734.5 724.2 715.9 713.2 713.7 713.9 717.3 719.7 727.3 734.4 743 747.5 759.4 770.2 775.7 773.3 769 756.7 744.4 738.1 730.6 723.2 709.4 699.2 685.6 674.2 660.2 633.4 617.4 609 596.6 574.6 577.7 579.9 574.4 569.7 569.9 561.1 549.7 542.8 532.5 513.6 502.6 498.9 497.6 494.4 488.7 482.9 469.8 461.5 455.7 446.1 443 442.4 444.7 441 444.3 444.4 441.8 438.3 435.8 432
359.4 333.1 310.1 291.7 272.2 259.5 222.8 188.2 174.1 157.8 141.7 126.6 107.8 108.2 108.5 109 107.9 109.1 109.8 126 130 142.4 148.5 152.6 158.4 163.5 167 166.3 173.9 177.7 186.7 200.9 214.7 220.9 230.9 244.1 245.8 254 270 300.3 328 352.4 383.6 417.4 441.4 468.8 506.4 513.7 520.4 530.3 542.7 552.8 565.8 588.5 610.4 624.7 634.8 656 662 668 681.8 699.1 716.7 740.1 772.1 797.7 823.6 847 866.6 880.5 886.7 889.2 890.7 894.3 899.4 905.5 913.2 920.3 932.5 939.4 944.7 953.8 962.3 974.1 987.4 991.2 991.3 984.3 979.3 976.9 975.1 968.8 961.6 958.2 956.3 953.9 949.8 943.7 921.8 901.3 874 854.9 845.8 842.5 834.4 821.8 829.5 854.4 861.5 870.9 879.3 903 926.7 915 908.7 894.8 888.4 884.2 876.2 869.7 854.9 846.6 839.3 827.5 817.6 811.1 806.5 795.3 788.6 783.8 777.2 767.8 763.2 760.8 759.6 755.5 752.3 746.3 733.5 717.9 714 711.2 707.9 707.2 714.1 712.1 717.1 725.6 730.6 734.4 746.4 751.8 755 753.9 755.2 745.5 731.4 723.9 721.1 706.7 694 683.4 677.2 663.5 644.9 623.3 606.2 585.2 573.2 565.2 567 563.5 556.2 549.4 547.8 543.7 536.3 524.7 511 501.3 487.9 488.6 483.2 478.6 473.1 465.8 456.4 452.4 440.9 439.5 438.7 438.4 437.1 436.2 435.9 433.3 428.2 424.4 421.5 421.3
398.3 365.4 346.1 320.7 306.8 283 229.4 202.9 191.5 174.2 152 134.2 115 108.4 108.7 111.6 120.2 108.2 109.9 110.3 111.5 117.2 123.6 134.3 143.3 154.3 154.6 159.2 161.5 162 169.4 183.6 196.8 202.8 209.2 223.2 238.7 262.2 286.3 310.1 330.3 357.9 381.8 408.2 437 463.1 488.5 510.8 521.6 533 545.8 558 568.9 585.5 607.2 629.4 648.5 657.7 665 681.3 704.4 731.4 751.3 777 803 823.1 843.4 865.1 881.6 888.4 889.2 889 891.3 896.4 902.2 907.2 916.5 925.5 938.9 943.9 947.7 955.3 969.3 983.5 993.7 989.3 986.6 984.5 977 968.7 965.2 960.1 955.4 949.4 947.7 942.1 935.8 919 895.7 869.5 853.4 848.3 827.2 810.7 790.3 784.9 790.3 802.3 830 845.4 844.2 861.2 883.5 890.2 890.8 888.2 882.3 876.8 869.2 861.1 846.6 838.8 831.5 816.1 808.2 803.6 797.4 788.7 782.2 777.7 767.8 762.7 758.6 755.6 753.4 751.7 748.9 743.5 733 720 710.9 705.5 710.1 705 698.8 700.9 710.3 718.1 718.8 722.9 733.5 737.7 744.9 745.5 736.7 720.5 712.7 702.2 694.8 681.8 672.4 661 652.6 635.9 616.6 600.6 583.1 572.3 556.8 555.6 553.6 547.4 539 537.8 532 517.2 515.3 506.4 486.4 481.6 477.3 473.6 471 462.6 459.3 454.6 445.5 437.4 432.1 433.4 431.8 430.8 426.5 423.2 421.9 419.9 417.4 416.2 417.4 418.1
449.3 415.4 392.5 363.5 332.5 283.3 250.8 227.4 209.7 190.6 168 151.4 129.7 116.6 119.5 134.9 143.2 131.5 108.8 109.8 110.1 110.8 110.9 111.2 123.3 132.4 137.2 144.2 147.4 150.9 157 161.9 172.7 186.7 200.7 223.2 234.4 252 285.9 318.8 333.9 354.5 383.4 409.3 438.4 466.1 488.7 506.2 521.3 534.9 549.9 567.2 580.8 595.7 611.6 639.9 656.6 663 676.3 700.1 738.6 762.4 781 806.9 832.7 853 870.3 878.9 882.4 884.7 883.3 885 890.3 895.6 900.9 907.9 920.1 929.4 937.9 944.2 948.1 964.5 974.8 982.7 983.9 978.8 972.7 962.9 955.3 955.5 956.2 951.5 943.3 940.8 935.2 927.6 915.3 895.3 861.4 844.8 839.9 842.3 815.7 788.9 768.3 767.3 768.8 779.8 802.3 811.9 805.6 822.3 846.5 856.7 875.1 879.3 874.5 870.6 862.9 853.9 840.6 829.9 823.5 808.6 801.2 795.5 787.8 779.1 774 767.7 761.5 756.3 752.6 749.2 748 746.6 746.1 743.6 734.7 718.3 705 698.3 697.3 695.2 692.4 692.6 691.6 697.8 700.7 709.4 711.4 725.6 724.4 720.4 712.1 698.3 693.1 690.2 679.7 667.2 655.3 647.7 634.1 617.9 604.1 584.1 567.9 557 548 540.4 537.6 527.5 520.4 510.2 504.7 499.9 493.3 477.5 472.1 468.1 464.1 459.8 457.4 450 449.4 441.8 430.2 423.2 423.4 423.2 419.8 416 413 411.2 410.5 410.3 410.6 412.5 413.4 408.1
498.9 453.8 434.2 393.2 336.1 293 270.2 250 231.9 217.5 192.5 166.9 143.4 133.7 138.9 154.5 157.5 138.9 120.3 110 109.9 110.5 111.1 111.3 112 114.9 125.7 131.6 140.5 141.9 150.9 159.2 169.8 181.5 198 210.3 222.9 238.8 269.8 303.4 330 352.3 378 412.1 438.4 460.8 483.4 500.3 521.9 538.8 554.7 574.5 590.4 606.9 622.8 641.9 659.8 679 700.6 735.9 760.4 785.2 809.5 828.2 849.4 862.7 873.6 879.1 877.9 875 876.9 879.7 886.6 892.5 899.1 906.6 921.5 929.6 938.2 942.8 946.5 967.4 976.1 971.5 968.2 960 952.9 947 943.8 946.3 946.8 944.6 934.6 928.4 923.5 914.6 898.8 860 836.1 827.5 831.7 836.3 809.2 783.6 757.6 750.5 749.6 758.4 757.6 770.6 774 787.3 800.8 820.7 851.8 861.2 866.4 868 859 848.5 834.5 821.8 812.5 802.5 793.4 786.8 778.7 769.8 764.2 758.9 752 749.2 743.5 741.9 742.3 742.3 743 743.2 737.1 727.6 709.4 700.7 696.7 697.4 692.5 685.4 677.9 675.6 682.1 687.8 695.3 703.9 701.3 704.4 690.6 681.1 684 680.6 671.7 659.1 644.1 631.9 617.3 600.1 581.6 565.8 557.7 542.5 531.7 524.2 517.7 507 501.6 496.2 487.7 480.7 468.1 459.7 455.3 454.6 452.3 449.8 443.8 438.4 433.9 424.5 416.9 416 417.2 411.9 409.3 404.3 402.7 405.6 402.4 402.5 402.9 399.3 392.4 383.6
511.6 474.1 443.1 393.7 345.5 325.3 297.9 276.1 265.9 239.4 210.1 184.1 165.2 158.7 158.6 160.7 166.7 150.2 138.1 122.5 111.8 112 111.2 111.7 112.4 114.9 122.8 123.6 129.8 139.4 143.3 152.5 161.8 167.4 184.5 194.4 220.6 243.8 279.8 305.8 334.6 353.5 378.7 402.7 422 447.1 475.1 498.6 522.7 547 567.9 587.5 610 624.6 637.6 664.3 677.1 700.3 731.2 760.6 786.5 808.8 826.4 837.2 845.9 856 862.2 864.7 863.2 861.4 867.5 873.2 881.3 889 897.3 910 920.3 929.6 936.5 939.2 945.9 952.4 956.1 952 944.9 937.8 934.8 932.2 934.3 936.8 932.2 927 918.7 915 909 898.6 877.1 839.3 820.7 817.7 826.4 830.9 801.4 767.7 735.7 727 727.2 733.6 735.8 746.6 756.5 755.4 770.8 790.2 809.4 831.2 852 869.1 857.1 842.7 828.9 815.1 803.8 794.6 784.8 777 769.2 760.7 752.8 748.9 744.9 739.3 734 733.6 737 735.1 738.6 734.8 730.7 723.9 705.1 698.2 698.4 698 694.7 686.6 678.8 671.8 670.1 672.7 678.5 688 683.3 675.7 671.1 666.6 662.5 662.2 649.6 639.4 623.6 609.1 592.2 575.1 560.6 553 537.7 527.4 513.1 507 501.2 491.7 486.7 480.3 473.1 460.6 453.1 445 442.8 443.1 441.1 433.3 429.3 424.3 417.9 410 407.6 409 408.2 403.3 397.3 394.9 393.6 393.4 395.8 392.7 387 377.3 369.3 360.9
538.5 487 438.2 415.6 388.8 352.4 332.8 309.2 299.2 278.8 235.4 208.6 191.6 181.6 173.2 169.9 172.9 175.3 151.1 142.7 128.2 114.4 111.4 112 112.7 114.9 117.8 123.5 129.3 131.8 137.9 145.8 152 154.6 166.2 187.2 219.6 257.4 282.1 301.3 325.8 349.7 367 391 413.1 436.8 462.9 500.6 526.6 559.1 586 608.8 633 639.7 663.3 676.3 693.7 722.1 750.9 778.5 802.4 819.1 831.4 833.5 835.7 842.4 845.3 844.4 844.3 849.9 857.8 864.3 872.1 883.2 892.8 904.4 915.6 923.4 931.2 936.2 940 940.5 937.2 930.5 925.4 922.5 921.8 922 924 920.5 912.6 908.1 902.1 898.5 890.7 879.3 847.6 827 816.2 812.5 816.6 807.6 781.9 747.2 713.9 702.3 704.5 710 713.7 727.7 735.5 736.9 743.8 756.3 777.9 804 831.9 854.4 848.9 833 815.7 804.3 792.6 786.5 778.8 770.9 759.7 750.8 742.7 739.2 738.3 729.4 728.4 726.3 726 726.9 727.4 726.9 720.1 717.5 704.2 696.5 694 690.1 689.5 676.2 668.5 662.9 662 663.5 664.4 670.4 672.3 668 655.7 649.2 642 635.6 626.6 612.1 597.3 580.2 567.7 558.3 545.2 536 522 507.8 496.3 488.7 478.4 474 471.7 464.5 453.7 444.4 441 437.4 433.3 430.1 426.6 422.6 415.3 414.8 403.9 401 401.1 403.7 399.2 394.8 386.4 384.5 385 382.2 380.2 371.1 360.2 349.8 339 331.9
541.4 496.1 484.1 448.2 423.6 392.3 360.3 339.2 338.7 300.1 272.1 245.3 218.2 206.9 193.9 182.2 179.9 174.3 181.6 172.2 153.4 136.5 111.5 113 113.2 114.8 116.3 121.8 124.9 128 134.6 140 143.8 151.2 158.5 177.4 200.6 236.1 260.6 281.4 322.3 347.3 364.4 386.1 412.3 434.6 461.1 496.5 530.5 567.6 596.8 626 643.8 655.7 669.2 690.8 719.9 741.3 765 790.4 809.1 814.9 819.7 819.9 821.2 823.3 825.8 825.2 828.5 835.9 845.5 856.1 865.7 879.8 888.9 898.6 908 917.4 920.3 925.3 926.8 922.9 915.5 910.4 912.1 909.4 908.7 908.9 908.8 903.1 893.8 886.4 878.4 872.4 868 851.7 833.2 817 813.2 807.3 793 763.9 747.6 714.4 692 677.5 680.4 678.1 685.4 700 719.2 720.9 724.3 736.7 756 783.5 795.7 813.5 816.9 807.3 796.2 787.8 785.6 781.6 772.8 768.3 754.3 743.7 735.5 730.1 732.3 726.1 720.8 715.1 712.6 715.3 710.4 710.2 712.6 714.8 706 703.9 697.7 687.3 678.1 669 663.2 662.4 660.8 660.3 659.5 656.6 653.5 647.3 645.6 639.8 629.3 620.6 610.8 596.7 581.5 566.2 556.2 541.1 529.5 518.7 502.6 489.3 478.5 472.5 463.7 454.4 453.5 448.4 439.1 433.1 430.1 423.4 420 418.7 415.2 406.4 401.8 396.2 395.2 393 388.3 394.5 387.2 376.8 377.7 373.3 366.7 361.6 353.2 342 329.8 323.3 318.7 309.2
560.9 542.7 527.2 485.7 462.5 419.9 393.4 370.2 365.1 332.7 311 274.9 249.9 230.7 215.1 201.3 187 197.2 194.7 178.1 168.2 147.4 123.4 112.4 113.6 113.6 113.5 116.5 119.4 120.3 128.6 134 138.2 144 154.4 172 187.7 204 240.3 296.5 330.3 366.3 371.1 397.1 418.5 454 481.9 516.4 551.8 585.7 610.1 640.5 656.3 666.6 681 714.7 740.2 762.4 780.5 796 802.1 803 803.3 803.6 804.5 805.3 802.9 806.4 812.8 822.5 832.5 843.8 855.8 870.3 881.2 891.6 900.7 909.6 912.1 911.3 907.2 902.2 895.7 897.7 898.4 894.5 893.9 893.8 890 884.5 869.5 855 839.5 833.1 832.3 826.8 820.9 809.9 809.7 799 769.4 736.4 708.7 695.9 671.3 656.9 653.1 652.5 663.2 676.6 685.9 695.7 703.8 720 737 747.3 760.8 767.3 778.2 777.9 773.4 772 778.7 775.1 766.7 756.5 746.9 736.8 732.1 721.8 718.7 715.5 712.2 699 701.3 703.8 702.3 699.3 701.2 701.2 696.9 698.8 692.9 685.3 674.9 669.8 660.1 657.2 657.1 655.3 648 643.6 637.1 628.7 621.5 611.1 607.7 600.8 589.1 574.7 563.2 546.7 534.3 525 515.2 500.3 485.3 471.9 463.2 455 449 440.1 439.4 434.4 425.4 417.5 413.3 410.9 408.3 406.5 401.4 394.4 388.5 386.6 382.2 381 375.3 378.5 370.3 361.4 358.7 349.8 343.4 333.8 325.8 315.5 311.6 307.4 297 290.3
585.9 577.3 546.4 525.5 496.3 459.5 433.2 405.1 389.9 358.1 331.4 309.4 285.8 265.8 236.9 220.5 220.5 210.2 199.1 188.8 171.8 150.2 127.8 112.8 113 114.2 119.9 116.2 114.4 118.3 121.5 128 137.6 145.4 154.5 185.9 195.9 218.4 261.4 285.2 331.2 362.7 381.2 425.3 452.1 463.1 503.1 534.9 569.9 597.4 622.9 640.8 658.9 675.5 700 734.1 757.2 778.1 795.4 790.8 786.9 786.5 786.1 786.7 785.5 785.5 785 787.6 797.6 811.7 822.6 832.7 843 858.1 871.6 884.8 896 905.7 902.7 897.5 891.1 885.8 884.1 885.6 882.9 880.6 875 873.3 868.4 856.1 833.8 820.5 809.8 806.1 805.5 810.8 805 794.2 792.9 776.1 749.2 708.3 688.4 679.2 659.8 638 629.8 630 642.2 655.8 663.2 673.7 677.2 686.6 701.1 725.9 734.9 748.2 749.6 752.6 748.7 754.7 762.6 755.1 751.3 742 734 734.2 731.9 717.8 710.8 705.3 699.8 684.9 685.4 682.5 680.4 686.9 685 682.1 687.1 686.3 690.4 688.1 680.2 669.8 661.2 658.8 658.3 651.5 644.3 636.4 622.9 614.7 602.3 592.7 589 581 566.5 555.3 542.1 530.3 522 510 496.2 484.9 469.7 454.8 445.4 437.9 435.4 426.9 425.6 418.7 410.1 404.6 401.4 400.5 397.6 394.7 387.4 379.2 376.8 374.6 368.9 368 361.7 356.1 349.2 338.7 333.2 326.6 317.8 311.2 306.4 301.1 295.4 288.6 279.1 273.4
594.1 597.6 597.9 566.3 541.4 492.9 466 436.1 415.4 386 360.3 341.5 320.4 296.2 277.5 259.6 237.3 227.2 215.7 192.6 174.3 150.5 126.2 113.3 113.3 122.1 127.8 119.2 117.2 115.2 119.5 122.4 134.3 145.5 164.2 210.6 232.6 237.2 273.8 296.1 318.3 343.9 375.6 419 452.4 486.2 501.6 535.6 571.2 603.4 619 638.4 655.6 682.8 708 747.5 772.6 789.6 784.9 779.1 773.8 771.9 769.4 766.9 764.4 765 767.1 773.5 782.3 796.4 808.3 817.3 830 845.8 861.7 877 890.2 897.7 892.7 884.3 876 870.8 871.1 867.2 868.7 859.5 856.9 850 837.8 816.7 800.8 787.9 782.7 779.8 786.9 791.2 790.2 777.7 765.2 731.2 705.3 676.1 667.2 655.9 635.2 623.1 606.3 610.9 621.7 634.2 640.8 648.3 655.7 664.1 677.1 697 717.8 720.6 725.3 727.9 730.2 735.7 743 734.9 731.9 724.1 722.2 723.1 717.2 710 704.9 693.9 680.8 669.6 663.5 661 664.1 666.1 664.7 667 675.9 678.6 679.6 684.9 677.7 662.3 659.3 661.1 653.4 647.1 627.3 612.2 602.4 591.6 586.6 579.5 574.8 566.6 557.2 539.8 525 517.5 506.1 493.6 477.8 470.2 452 438.4 428.5 424.3 421 416.6 409.4 405.4 397.3 391.5 387.2 387.5 383.1 377.4 370.3 367.4 365.3 363.4 361 355.1 352.5 341.5 331.2 326.2 315.9 308.4 304.6 296 294.3 288.1 279.7 270.9 260.8 255
592.9 604.8 613.7 587.4 556.2 527.3 491.3 465.1 440 407.6 387.3 361.3 343.8 322.8 299.8 270.7 264.8 265.3 227.2 205.4 178.9 154.6 132 123.7 133.2 133.8 135.4 136.3 133.6 126.3 116.2 118.5 124.2 144.4 165.5 200.4 240.3 260.9 286.6 310.5 333.9 343.8 361.6 398.3 447.9 471 500.9 509.9 543 567.5 593.5 623.6 648.2 675.7 711.7 762.3 779.7 775.5 765.3 763.1 758.8 754.2 749.4 746.1 744.8 747 751.4 756.8 761.6 778.2 790.3 799.8 815.6 830.7 847.7 862.6 876.7 887.1 881.3 872.2 859.7 858.1 857.7 856.9 849.2 841.5 835.2 823.6 797 782.2 771.9 762 761.1 763.1 773 768.4 763.6 747.2 726.1 703.7 675.9 656.8 640.9 626 611.1 599.4 589.9 588.5 603.8 616.7 620.2 625.5 630.3 639.6 653.8 672.6 694.6 697.8 699.1 711.3 711.5 712.1 705.5 710 708.5 699.5 703.4 704.2 705.5 692.9 682.4 671.8 667.7 651.3 647 645 643.8 646 646.3 646.2 648.2 656.3 662 665 659.5 654.2 658.5 654.1 641.9 622.7 600.7 589.7 584.2 575.8 563.7 561.4 556.8 543.5 533.1 520.4 513.4 499.5 489.2 472 461.1 447.9 434.5 425.2 419.1 414.6 411.4 406 397 389.7 383.9 376.8 371.2 366.6 364.3 361 361.3 359.6 355.8 353.4 349.1 346 337 326.2 319.8 312.9 300.4 296.5 293.2 286.9 275.8 270.9 260.9 250 243.2 236
595.5 608.2 610.9 578.9 545.7 518.4 493 473.3 450.3 422 404.3 381.6 357.8 332.9 329.4 300.9 301.5 261 241.1 219.4 190.9 172.7 164.9 154.2 143.4 140.8 144.7 148.5 149.9 142.1 127.3 120.3 119.7 126.9 143.3 175.8 205 241.1 276.3 310.3 339.1 352.9 364 378 407.9 441.7 468.4 484.9 511.6 537.8 564.4 601.1 623.9 659.8 700.8 702.9 719.8 727.4 724.9 739.5 738.3 729.9 725.9 724.8 727.5 730 732.1 733 738.7 757.3 764.9 776.6 798.6 812.2 829.2 843.1 856.5 864.5 864.4 854.6 848 848.5 848.1 846.4 835.3 825.3 814.2 796.4 771 760.9 748.3 743.2 743.1 742.5 745.6 750.9 745.4 713.4 694 675.4 652.5 632.4 622.5 602.1 592.1 576.3 567.9 568.7 581.1 596.5 599.1 607.5 614.6 628.8 645.4 654.4 666.5 676.2 685 690.6 693.9 683.2 683.5 681.4 682.2 682.8 684 683.8 674.7 670.9 662.1 652.2 646.8 635.6 631.6 628.5 629.1 631.5 633.4 633.3 636.1 639.3 641.1 641.5 640.4 647.7 648.5 647.1 633.1 597.6 579.1 572.1 560.9 554.8 547.3 539.1 530.4 522 514 502.3 488.4 475.1 463.6 449 442 432.5 424 416.8 409.4 404 403.5 390.8 385.6 378.7 374.8 360.1 354.3 352.5 351.4 353.1 350.1 345.5 344.8 343 338.6 332 316.6 307.7 297.7 290.9 285.6 282.2 277.4 272.4 262 249 236.7 229.5 228 222.8
593.1 609.4 605.6 566.3 530.8 505.7 490.9 471.8 450.4 430.5 409 395.3 374.6 367.4 348.3 332 298.9 274.7 257.1 234.9 206.8 195.9 177 165.8 156 152.1 154.1 161.9 163.4 161.4 148.8 140.6 123.6 123.2 128.3 143.4 164.9 220.8 253.6 287.3 339.4 356.6 376 393.3 400.5 422.5 434.3 451.4 475.6 499 551.1 585.9 624.3 650.9 644.6 659.6 680 664 698.7 706.6 710.5 706.6 702.6 704.1 709 712.2 713.3 714.7 715.8 722.6 735.1 749.1 771.5 792.2 806.4 823.5 833.6 840.9 842 838.6 839.1 839 838.8 830.6 821.3 808.7 792.3 769.8 748 740.6 734.1 728.8 728.1 719.1 730.4 726.5 703.2 684.3 665.7 644.7 625.2 607.9 597.4 583 571.8 560.3 554.5 548.8 558.9 573.4 584.7 595.8 606.8 622.4 638.5 648.4 656.2 665.6 670.7 671 666.5 662.8 662.2 658 659.1 656.2 656.2 658.7 651.8 646.1 648.7 638.1 625.1 623.6 619.3 615.6 616.4 619.2 623.3 620.1 618.5 623.1 624.2 625 626.3 625.2 624.3 613.5 595.5 580.3 566.6 555.6 546.3 536.5 526.5 516.7 509.5 500.8 488.8 476.8 465.4 455.8 445.2 435.4 430.3 424.7 410.2 403.5 398.4 397.4 385.3 381.2 373.7 368 357.3 342.6 342.2 341.6 343.1 341.9 339.2 338.3 336.8 332 327 315.5 301.5 291.6 283.6 275.9 270.4 267.2 261.5 253.4 243.5 228 219.3 215.6 211.4 208.4
595.3 605.8 610.6 565.4 530.4 508.3 500.4 480.1 459.8 439.6 417.8 409.3 391 383.3 360 347.9 322.7 295.3 278.9 251.4 241.4 219.8 201.9 181.6 172.7 163.7 163.3 174.7 174.3 174.8 164.5 156.6 148 135 126.4 132.7 138 158.6 190.2 236.2 287 319.1 352 361.3 382.8 402.8 409.8 423.4 449.6 478.7 517.8 533.3 559.3 593.3 593.2 626.3 637.6 640.4 649.2 662.9 676.9 679.8 681.5 683 686.7 686.8 689.2 691.9 698.8 704.8 718.2 730.2 748.7 764.2 779.8 797.7 814.7 822.6 828.8 830 829.1 829.4 824.3 809.6 799 784.9 773.9 757.4 735.6 722.9 714.8 713 704.7 690.7 698.4 685.8 661.7 638.3 627.3 616.5 594.2 579.4 567.2 556.8 552.7 542.9 538.9 537 548.2 560.7 576.2 588 598.9 613.2 620.2 635.7 645.5 649.6 656.6 650.8 643.6 639.9 636 634.7 634.7 634.6 634 633.1 631.2 631.4 625 620.5 612.9 610.4 604.6 602.5 602.1 601.7 605.5 604.4 605.5 604.4 608.6 610.4 608.7 604.4 601 592 578.4 561.4 545.9 537.7 528.1 519.1 505.7 492.5 487.6 475.3 463.2 455.7 444.3 434 428.5 416.2 409.3 401 395.3 391.3 391.6 384.9 378.8 370.4 361 348 341.9 338 332.3 333.6 332.9 334.4 332.6 331.1 327 322.6 318 298.5 282.4 280 270.5 265.4 258.8 250.8 243.9 246.2 222.6 216.4 207.7 198.4 197.4 195.8
594.4 603.9 615.6 585.7 546.9 531.9 523.9 504.4 481.5 458.1 439.3 421.7 414.7 390.5 374.6 362.3 347.4 314.9 292.6 283.5 260.3 238.7 218.7 207.2 188.4 173.1 175 188 185.7 178.6 174.1 175.6 183.2 182.7 136.2 129 135.3 137.6 154.7 181.6 231.5 270.4 307.4 328.6 350 365.3 384.7 398.2 429.9 450.2 468.4 490 528.6 534.1 565.9 580.7 589.6 596 609.5 632.7 648.9 659.8 662 663.3 664.2 665.3 666.3 678.7 685.7 693.1 704.8 715.6 732.2 744.2 763.3 787.9 803 811.9 816.8 818.4 815.9 812 798.3 787.9 778.5 763.7 755.5 744.6 724.8 707.9 697.2 683.4 667.4 651.1 642.3 635 612.4 603.8 587.3 576.7 564.7 551.1 538.5 531.3 531 528.3 523.9 525.4 536.7 551.1 565.6 579.1 587.7 598.5 610.6 626.9 631.5 630.2 634.5 622.6 619 615.7 611 615.6 614.1 611.6 615 609.6 608.9 605.9 604.4 602.4 599.2 596.3 595.5 589.8 588.3 589 586.3 589.7 584.9 585.6 588 587.9 589.8 586.2 581.1 571.2 562.2 548.5 524.8 512.7 506.1 494.6 482.8 474.7 466.4 458 445.3 437.3 422.1 420.4 407.4 396.5 383.4 379.7 380.1 381.7 376.9 370.9 366.7 359.9 346.1 336.3 336.1 334.7 324.4 324.3 325.7 325.8 324 321.8 317.2 312.6 298.7 281.9 274.1 267.8 267.8 256.4 247.4 235.7 231.2 215.7 207.2 211.4 198.3 195.4 192.8 192.2
593.2 605.4 616.5 609.4 571.4 561.3 555.1 540.7 509.6 481.7 461.6 446.5 423.5 406.9 395.7 379.2 358.4 335.8 327.8 303.8 279.5 262.3 236.2 219.4 202 190.5 185.4 185.8 184.2 183.9 185.1 188.1 192.3 189.9 158 139.5 134.2 135.5 141.1 156.8 178.1 198 284.5 302.7 322.4 326.8 349.7 376.2 400 412.9 431.8 468 489.2 507.7 533.5 546.9 553 557.8 575.7 596.1 615.3 628 631.2 634.7 634.6 642.4 650 657.1 672.2 685 696.6 705.6 718.1 732.6 753.5 779.9 799.9 809 808.6 804.8 799.4 790.3 782.2 775.3 759 742.7 728.7 718.6 709.3 687.9 670.1 651.5 630.7 614.4 605.1 591.1 573.7 563.7 554.1 546.1 534.6 527.9 519.6 515.7 511.2 508.5 505.2 510.4 523.9 537.2 546.2 565.5 569.6 583.9 596.8 604.8 612.9 614.7 607 604.9 600.3 596.4 595.9 593.1 591.9 592.5 593 589.7 587.8 586.5 589.2 588.6 587.5 583 580.7 575.5 573.6 571.5 570.8 567.5 567.9 566.3 567.4 569.1 570.1 566.7 559.8 551.6 546.2 526.1 505.9 492.6 485.6 476.7 465.4 456.5 448.9 443 419.4 408.9 397.9 385.2 385.8 376.8 371.2 370.2 370.2 370 363.6 360.6 351.8 342.5 333.1 325 321.9 317.4 316.3 316.7 315.6 315.4 313.4 310.5 303.7 298 284.1 263.7 266.4 263.1 250.5 245.1 238 225.4 215.8 202.4 200.4 196.3 192.9 191.6 191 186.5
593.7 606.9 621.7 632 600.4 597.6 602.1 575 538 502.2 479.1 458.5 441.5 435.5 423.9 399.8 381.5 357.4 344.5 329.1 317.3 289.5 257.3 234.4 215.3 203.6 199.1 200 196.8 204.4 208.8 216.6 205.6 193.6 173.7 155.6 145.3 152.3 142.1 144.2 149.2 170.5 195.3 219.8 241.7 269.3 304 347.1 357.2 367.7 417.1 437 459.7 486.4 500.7 516.6 512.6 522.6 542.3 555.7 573.2 583.5 590.9 597 606.1 612 620.6 637.6 653.8 665.9 675 690.9 706.2 725.7 745.2 764.1 784.4 793.3 795.1 793.8 785.1 778.4 763.9 756.4 739.2 724.9 703.4 686.9 685.5 663.6 639.4 615.5 595.7 581.9 565.6 555.4 541.9 533 522.3 510.1 508.1 505.7 498 496 488.1 487 492.5 501.9 515.6 525.1 534.1 547 560 577.2 586 592.4 596.2 595 595.6 591.2 587.5 585.9 581.5 580.8 577.1 576.3 577.8 579.1 574.8 575.3 577 575.6 576.3 572 565.9 562 554.6 554 553.3 550.1 548.8 549 550.5 548.6 548.7 544.7 536.6 529.1 514.9 499 482.9 472 461.7 453.2 447.8 437.9 419.7 412.7 393.1 379.3 369.9 368.2 365 364.5 363.1 362.1 358.5 352.2 350.4 346.2 337.5 327.3 319.4 311.8 309.5 310.1 305.4 306.2 301.4 301.8 299.2 294.9 285.5 276.8 264.3 255.7 252.2 240.2 232.1 234.4 226.1 217.4 205.3 195.4 194 190.9 190.1 189.6 190.1 192.7
591.6 603.5 616.2 629.4 636.9 639.9 638.3 597.1 556.2 522.5 490.8 477.2 470.8 460.1 447.2 431.5 410.6 383 372.4 363.9 335.2 294.9 268.4 242.1 235.9 228.7 216.4 214.5 219.7 225.5 230.4 234 228.7 199.4 183 170.1 160.3 162.7 156.6 142.4 146.2 147.2 166.9 190.3 212 241.3 269.4 272.1 288.4 332.8 391.3 393.7 448.7 460.9 467.6 471 472.3 478.2 500.6 515.5 526.3 545.1 558.7 568.1 581.3 593.1 606.8 624.8 639.1 646.7 656.3 670.6 691.3 711.9 741.1 761.9 780.9 786.6 788.8 780.5 775 764.7 752.9 737.4 721.9 707.6 684.8 666 657.4 637.7 610.4 585.3 563.3 549.7 536.4 523.4 510.1 498.4 485.6 485.5 484.1 479.5 476 472.5 471.3 473.4 480.9 493 505.7 516.3 522.3 539.4 553.4 565.8 576.4 580.6 585.1 581.9 581.5 579.9 573 571.5 567.3 566.6 565.4 561.6 560.5 561.3 563.1 560.7 563.9 564 563.9 561 547.4 540.9 524.9 533.6 532.2 530.5 531.3 532.5 533.5 530.5 526.1 525.4 513.7 500.4 485.1 470 460.5 452.7 440.5 435.5 426.1 410.9 395.1 385 368.2 359.4 355.5 349.9 353.4 354.9 355.6 346.6 342.7 341 338.3 329.1 323 316.5 305.7 303.7 304.2 302.5 299.7 291.2 288.4 283.8 281.8 279.5 270.9 258.1 250.4 242.7 235.7 219.9 220.1 218.2 215.5 207 195 192.3 190.8 188.8 189.5 189.5 192.2 194.2
586 596.9 609.6 622.2 635.1 639.9 642.2 620.5 572.6 533.7 511.8 504.5 501.7 501 478.3 473.3 440.1 408.6 391.6 371.7 328.8 305.1 278.4 263.7 254.3 240.4 236.9 237.5 243.7 242.5 244 236.5 226.7 212.8 210.7 191.7 170.1 170.1 166.5 165.8 148 148.5 157.4 171.3 185.7 192.8 219.2 235.1 284.5 323 331.3 347 399.5 416.1 412.3 423.8 439.4 448 468.4 483.1 500.3 513.3 529 540.3 549.8 581.8 596 610.7 625.3 630.5 635.3 648.9 664.6 686.2 734.7 766.9 781.9 776.2 774.9 770.9 762.4 751.5 739.3 721.2 704.5 689.8 661.3 644.7 630.7 614.7 581 556.3 538.4 525 510.3 495.5 482.9 468 459.7 456.8 459 459.6 453.6 455.1 456.2 455.8 467.1 478.7 497.4 503.4 515.5 526.6 536.4 542.9 552.7 566.6 566.5 569.3 566.2 567.1 560.4 558.6 555.3 553.5 551.7 551.9 548.4 549.5 549.1 551.4 550.8 549.7 546.3 537.6 530.6 520.3 505.3 508.2 509.1 511 511.4 510.7 507.5 500.3 496.4 499.1 479.7 465.6 456.7 448.5 437.9 432.8 425.8 415.7 401.3 385.9 376.3 366.7 354.7 346.2 344.3 344 344 343.8 339.1 330.7 329.3 324.7 320.7 313.5 311.8 306.3 299.5 295.2 294.6 293.1 290.5 281.7 270.4 267.1 264.6 258.8 249.4 242.4 235.7 227 219.2 210.2 206.5 204.4 200.4 195.5 193.1 191.3 189.8 190.3 190.1 190.1 194 198.1
577 589.2 602.1 615.5 625.6 632 633.3 633.7 585.8 569.2 548.1 544 556.9 553.2 534.3 498.8 456.1 430.8 404.1 360.8 337.4 312.6 288.1 273.7 261.8 253.5 247.8 251.4 259.4 254.5 244.6 235 224.5 213.3 205 192.5 179.7 171.4 169.3 162.2 157.5 151.6 150 156.1 158.9 169.7 193.2 204 222.5 252.2 285.3 301.6 343.5 361.5 375.5 394.3 410.3 421.2 440 455.1 478.8 486.1 504.1 509.3 529.9 565.2 575.2 594 606.6 611.3 611.9 618.6 636.4 662.7 696.8 723.7 761.8 767.8 765.6 755.8 749.2 735.9 721 702.9 680.7 659.9 636.9 622.6 605.1 586.7 559.6 533.7 519.4 506.1 490.2 474.4 458.1 445.9 436.8 430.9 431.5 430.1 432.9 432.3 442.3 445.4 451.5 465.5 478.6 492.5 502.5 508.6 520.5 524 530.3 533.7 541.8 546.7 550.2 545.7 539.9 540.2 541.8 539.8 537.7 535.5 536.8 534.8 536.5 539.2 539.8 536.3 527.4 519.6 506.7 499.7 486.8 476.6 484.4 484.8 482.9 478.3 470.8 469.1 461.8 456.5 450.1 443 435 428.1 420.5 416.9 410.4 392.9 377.2 365.2 358.2 352.3 345.3 342.9 338.1 334.9 328.6 328.8 326.3 317.4 315.8 311.7 308.8 303.6 299.9 296.6 291 284.7 280.6 284.1 278.3 266.7 254.1 251.5 248 242.4 234.1 224.1 221.2 214.7 207.2 201.4 195.7 194.8 195.2 192.4 190.8 190.1 190 189.1 189.7 190.7 195.9 200
569 582.7 594.9 605.9 615.7 624.5 629.2 632.9 631.1 629.9 617.3 609.7 602.6 583.7 548.7 519 482.1 459 407 366.5 347.7 321.7 301.2 283.2 274 260.5 255.8 252.5 260.6 257.3 246.2 236.6 228.3 221.6 209.5 198.7 198.3 183.8 179.3 172.6 165.4 160.3 157.6 165.7 157.1 158.7 170.9 181.3 196.9 226.2 253.7 264.7 294.3 312.9 343.4 362.4 374.1 393 422.9 435.6 444.5 453.5 469.2 474.6 504.3 523.3 543.7 566.6 582.3 582.8 589.4 601.4 624 634.3 661.5 687.7 728.2 752.9 749.5 746.8 734.1 718.1 700.8 678.7 653.8 635.2 614.7 598.8 585.5 569.3 535.8 515.7 500.1 488.3 473.4 454.3 441.7 426.3 414.6 411.6 412.4 415.1 419.4 421.9 425.5 434.1 440.8 448.5 465.3 476.4 485.7 492.1 500.3 501.1 506.3 513.2 519.6 521.6 529.5 523.4 523.6 526.2 524.3 527.4 524.9 523.5 522.3 521.8 520.9 524.4 521.9 516.5 508.4 493.5 482.3 472.7 466.3 453.1 456.7 456.9 453.3 448.3 443.6 439.8 437.6 432.5 427.8 421.9 414.6 404.7 401.5 390.3 382.2 370 361.2 355.9 349.5 345.7 330.6 326.5 321.3 318.9 317.8 315.4 312 307.7 306.1 304.5 302.8 300 297.2 291 282.8 275.1 267.8 268 261.6 252.1 240.3 234.1 231.6 225 221.4 211.7 206.7 203.9 199.9 197.7 195.3 193.3 192.4 190.9 190.8 190.1 190.2 189.7 189.6 193.1 196.6 201.9
564.9 576.4 587.6 599.6 609.4 617.5 625.6 633 639.5 651.6 661.2 651.3 649.5 605.6 564.7 533.9 496.1 455.1 397.4 377.2 356.3 331.9 307.9 296.6 282.3 270.5 270.6 266.7 274.3 277.8 262.6 241.9 232.5 222.8 214.3 209.4 203.4 190.3 184.7 182.3 180.6 183.9 179.4 168.5 165.9 163.1 166.8 167.1 179.8 202.8 219.8 224.7 247.5 271.7 309.5 330.8 333.9 371 419.6 447.5 393.2 409 423.8 432.8 450.2 473 492.8 518.7 551.7 565.3 573.5 576.5 588.2 596.1 628.6 653 689.7 733.7 728.5 718.2 710.2 693.8 678.9 657.2 636.2 616.5 594.6 576 558.4 536 518.6 503.6 488 472.1 460.8 444.1 427.6 415.6 399.7 397.1 399.6 404.4 406.2 408.8 412.3 413.8 425.8 436.6 446.4 457.9 468.2 472.1 472.6 479.8 485.2 491.9 497 503.4 502.9 505.9 509.1 507 509.7 511.1 512.2 510.5 509.3 508.4 505.2 502.8 498.8 492.1 481.9 467.5 460.5 454 443.2 435.4 433 432.7 429.2 424.5 419.8 420.8 418.3 409.1 403.2 396.4 388 383.4 376.3 371.3 360.2 353.3 349.9 342.3 333.6 327.4 319.4 314.1 311.6 310.5 308.1 305.2 301.6 300.7 301.9 298.5 297.2 294.9 289.7 276.2 270 262.3 252.1 253.1 245.4 234.5 227.3 222.3 220.6 216 212 204.4 199.3 199.2 197.5 195.6 194.4 193.2 191.9 191.3 190.5 188.9 189 188.7 191.5 195.7 197.3 201
560.3 571.5 582.3 591.1 601.8 612.8 620.1 631 642.5 656.8 672.1 688.4 663 638.4 597.8 535.9 495.3 437.5 403.1 377.7 360.4 339.5 319.5 305.6 293.7 295.4 299.5 333.9 325.3 309.9 287.8 259.1 244.8 231.8 224.5 217.4 210 200.6 192.9 196.5 197 204.4 200.2 184.2 175.8 169.6 170.8 166.3 170.4 181.3 192.7 204.3 223.8 237.9 252.6 267.4 292.3 308.8 326.2 339.7 351 371.2 388.4 396.6 421 445 464.1 486.1 516.7 534.2 545.9 559.4 567.2 575.8 595.6 614.6 655.5 691.5 684.1 684.3 675.5 671.5 653.4 643.9 615.8 590.4 572 556.4 534.8 519 505.9 487.5 473.7 461.7 448.8 437.1 419.9 406 398.9 392.6 390.2 390.5 394.6 397.8 402.6 406.9 414.3 421.6 433 442.4 448.5 453.5 461.7 459.6 462.1 468.6 480.8 484.5 486.6 489.7 490.9 489.9 495.4 498.4 497.3 495 497.3 495.6 488.7 479.2 472.6 464.3 457.3 448.9 442.2 436 429.2 419.7 414.6 412 407.6 401.7 398.5 398.7 393.8 383.6 381.4 377.1 372.4 368.7 360.6 353.6 346.5 339.5 335.1 327.1 319.8 314.7 310.6 308.1 303.8 299 296.6 293.6 294 294.7 293.5 289 286.9 280.1 271 259 252.9 246.1 241.3 232.6 228.4 221.8 217.4 214.9 211 208.3 203.2 197.6 196.8 196.2 194.9 194.6 195 194.7 193 191.4 189.2 190.5 190.3 190.3 191.5 194.5 197.4 198.7
555 567.7 577.6 586.9 595.3 604.5 617.2 629.8 644.3 659.1 676.5 691.6 710.3 653.4 580.3 521.4 478.6 441.8 409.3 382.5 364.9 342.5 327 313.1 322.9 338.8 359.7 355.6 359.1 348.5 307.2 282.2 266.9 246.3 235 232 226.5 230 224.2 221.4 227.3 231.9 219.7 199.8 186.4 181.2 175.2 170.4 167.7 168.6 175.9 183.2 199.5 209.1 220.6 235.1 246.9 258.4 277.9 305.5 313.6 328 338.6 368.5 393.4 423.5 446.9 462.1 476.9 490.1 510.4 530.3 552.6 566.5 577.2 589.8 599.4 617.3 638.9 655.3 656.5 652.3 650.9 636.6 606.1 576.2 551.1 533.6 515.2 495.5 491.3 469.8 461.6 449.6 438.9 429.1 418 403.6 393.5 390.2 387.9 386.2 387.7 392.2 395.4 399.7 405.4 410.8 421.3 428.2 431.7 438.1 442.8 446 449.9 454.7 461.6 462.9 465.8 463.4 466 468.8 469.8 475.3 477.1 476.6 477.2 478.3 469 466.2 458.5 450.8 440.6 435.9 425.2 415.2 408.3 398.5 386.1 384 380.6 377 372.5 374 369.5 367.9 368.3 363.7 358.3 353.7 345.6 338.4 329.1 323.4 316.9 311.7 309.7 306.5 302.9 299.1 297.4 293.3 287.5 286.8 285.7 282 277.3 269.2 263.9 256 248.4 238.5 232.6 230 225.5 219.7 214.8 212.5 211.8 211.4 206.6 202.3 198 195.1 194.6 193.6 193.3 193.8 196.9 195.2 194.2 190.7 189 191.1 190.9 191.2 191.7 195 194.8 193.6
551 563.3 572.9 582.9 591 600.9 614 628.5 643.7 659.1 679.7 699 706.5 636.8 570.7 517.3 479.5 444.7 412.3 390.8 371.2 361.6 347 344.2 340.8 353.7 389.5 399.4 389.4 368.4 346.4 308.4 284.6 275.2 286.7 274.6 258.8 263.2 270 249.3 249.9 241.4 227.6 208.9 196.7 188.2 178 171.9 168.5 169.8 176.4 184.2 184.2 192 203.1 210.7 213.7 227 243.6 262.1 274.7 292.2 316 336.7 362.4 385.8 408 430.8 441.3 458.7 474.5 504 526.2 541.8 548.2 573.5 580.3 603.3 627.4 641.5 646.6 642.9 641.2 629.7 595.9 559.7 532.9 512.7 496.2 482.8 469.3 459.2 450.1 438.9 428.2 421.5 415.5 403 394.5 388.7 387.6 386.1 385.4 386.5 388.6 391.9 398.8 403.2 412.5 417.4 419.8 420.2 426 427.1 430.7 434 436.7 434.1 439.7 441.2 444.8 446.1 448.3 455.1 456.4 459 458.6 454.8 453.2 443.9 436.7 429.3 419.6 410.2 404.2 393.4 388.1 381.2 375.9 368.8 363.2 362.1 361.1 359.1 359 357.2 356.1 354.1 349 345.6 340.7 331.7 323.1 317.4 313.9 305.2 298.8 290.7 287 285.6 284 279.2 279.3 276.9 274.7 270.8 259.7 251.9 244.2 236.2 230.7 224.9 220.1 219.5 215.7 209.7 206 206.3 206.8 206 201.1 197.7 197.3 195 193.4 192.4 193 192.8 193 190.1 189.5 191.1 190.9 189 191 191.5 192 192.1 191.9 191.1
549.5 560.9 569.5 577.7 588.6 598.7 613.8 627.4 642.3 664.4 678.2 704.7 691.4 618.6 564.7 521.8 479.1 448 422.9 404.3 384.3 387.2 409.4 378.5 396.5 378.6 396.8 420.8 417.4 412.3 385.5 349.5 323.5 302.9 326.6 322.7 315.4 327.5 305.1 276.5 269.1 251.2 236.9 217.8 209.3 201.4 189.9 185.7 188.9 186 189.6 193.9 201.5 199.6 192.6 195.7 197.4 204.5 216.9 237.4 245 258.1 284.2 319.4 348.7 362.5 380.2 395.3 413 432.4 465.4 492.2 515.6 523.2 530.8 553.6 574.9 591.5 610.6 634.9 642 641 631.8 615.6 589.3 551.1 523 504.2 485 472.2 461.3 450.8 441.7 429 420 411.9 409.7 399.5 390.4 386.7 386.3 385.8 383.8 384.5 385.1 386.7 386.8 388.9 393.6 398.9 400 400.2 403.7 406.8 405.2 408.8 414.4 416 416.7 420.2 421.5 422.6 426 432.7 437.5 436.4 431.3 429.7 426.8 422.9 410 405.2 396.8 388.6 383.9 377.5 375.7 368.5 361.9 352.6 350.8 350 346.2 344.2 342.3 339.2 338.2 333.5 333.1 329.5 325.6 322.8 321.9 315 308.2 301.8 291.5 285.6 283 277.2 274.6 273.9 270.2 268.6 263.2 258.1 249.6 239.9 234.3 225.6 221.3 218.3 212.8 211.1 207.2 202.5 203.8 203.7 202.3 201.4 197 196.3 195.5 194.2 192.2 192.2 192.7 192.2 194.6 196.6 191.9 191.3 191.1 191.1 191.4 192.4 192.6 192.9 191.3 190.4
552.5 562.3 570 577.4 586.6 597.7 613.8 628.1 644.2 660.6 682.4 699.1 649.6 589.7 553.5 518.2 488.8 453.6 434.5 428.7 406.8 412 438.3 443.5 440.8 420.2 413.2 423.2 436.2 437.7 440.7 421.7 382 358.6 375.2 359.7 350.1 347.5 314.5 295.6 277.3 259 239 232.2 225.4 221.5 208 198 211.3 214.8 208.8 208.7 208.4 202.5 199.3 200.9 195.3 198.3 205.7 217.9 229.4 237 250.8 274.8 317.8 342.7 362.1 369.6 392.3 410.8 441.4 468 503.5 519.9 536 549.2 557.4 580.7 622.6 644 637.9 627.8 615 596.5 565.6 539.4 516.5 497.6 479 462 451.6 446.9 432.6 422.9 417.1 408.6 404.1 395 388.9 385.3 384.8 384.5 385.3 381.4 380.2 379.6 378.7 377.7 381.2 383 382.9 383.9 388.4 392.6 391.5 390.3 388.8 394.7 398 400 399.6 403.5 409.7 413.4 416 410.5 412.4 408.8 403.3 398.4 394.8 386.5 381.4 372.6 371.2 364.1 357.3 351.1 346.4 340.8 335.9 333.7 330.2 328.7 329 330 325.5 324.9 321.3 318.9 315.5 313.8 310.8 306.6 298.6 289.7 283.5 281 276.5 269.3 267.3 262.8 260.3 259.1 254.3 248.7 239.9 231.8 225.6 221.9 218.4 212.7 208.5 206 202.9 200.6 201.5 199.9 198.7 196.2 195.6 195.1 193.9 192.1 193.9 193.4 193.8 194.5 199.4 203.1 199.7 192 191.5 191.4 191.9 191.8 191.9 192.4 190.8 190.8
555.8 565.8 574.7 581.1 587.4 601.5 613.8 626.6 648.5 663.7 684.5 687.8 660.8 607.2 563.5 542.5 510.7 473.5 459.8 459.3 451 441.6 468.9 466.7 469.1 460.6 462.2 459.8 465.3 453.7 470.4 465.9 422.4 419 409.4 391.4 373.6 353 333.4 311.5 286.8 263.7 259.3 250.6 245 240.2 226.8 213.7 217.8 244.6 241 227.8 216.3 201.2 206.1 202.1 198.3 198 200.8 210.4 215.3 212 226.4 249.6 279.2 300.7 321.3 343.5 364.1 393.1 419.9 461.5 492 515.8 555.9 567.1 567 574.5 609.2 625.2 629.5 625.7 606.7 590.5 559.8 536.4 516.5 494 472.9 457.2 448.5 438.5 426.8 416.7 409.3 405.4 396.2 390.8 386.8 384.9 383.8 382.8 379.4 377.5 374.6 373.1 373 373.8 374.3 374.4 373.1 374.3 375.7 379.2 376.4 373.5 374.9 378.4 383.2 385.4 387.6 388.8 391.2 399.7 399.5 395.9 396.1 393.7 389.5 384.9 379.2 370.7 364.8 362.5 355.8 351.2 346.5 340.1 336 327.7 325.5 317.6 318.7 317.6 315.9 313.3 311.5 309.1 307.2 304.5 299.8 299.4 296.6 291.1 286.2 282.7 279.3 276.7 272.5 262.7 259.4 253.9 254.5 249.3 242.8 238.2 233.5 228.5 223.3 216.4 211.6 208.8 204.3 202.7 200.9 199.9 199.1 197.9 195.7 195.7 195 194.1 193.2 194.6 194.6 194.9 195.2 200.6 207.2 212.6 211.9 205.5 192.1 191.8 192.1 191.9 191.7 191.2 191.1 191.9
561 571.9 580 587.3 593.2 600.9 614.2 630.5 650.6 671.1 691.5 702.1 660.7 624.3 601.4 570.7 531.5 499.5 483.8 483 475.7 467.6 482.5 490.4 487.1 484.7 497.5 500.6 494.6 485.6 496.9 477.7 454.8 439.8 411.7 396 374.4 352.8 330.8 316.2 294 283.2 281.4 273.2 264.8 256 242.3 237.6 237.7 241.8 246 237.1 224.9 209.7 208.8 206.4 205.6 206.9 207.9 205.3 208.4 208.1 210.1 222.6 248.6 267 294.9 313.5 341.3 376.2 405.6 446.1 472.1 507.2 565.9 584.6 589.7 593.5 601.6 620.6 617.7 615.5 605.1 575.9 549.6 522.5 503.2 484.5 469.5 457.4 446.2 438.9 423.8 410.7 403.6 397.1 391.8 387.3 385 383.8 383.9 384.2 378.6 375.3 376.1 374 372.3 372.5 372.7 372.2 371.4 373.1 373.8 371.2 368.7 367.1 366.3 368.6 370.6 371 367.4 371.1 376.4 379.9 380.2 382.6 380.5 373.5 370.5 366.1 360.7 357.4 353.3 348.8 344.1 338.9 333.2 327 320 314.8 313.6 307.8 306.3 305.5 303.7 298.5 298 296.8 292.3 290.9 288.3 286 283.5 281.1 276.6 272.7 270.5 265 258.5 255.1 246.2 247.3 244.3 241.3 235.6 231.3 229 224.5 218.6 213.6 209.6 205.3 202.5 200.9 200 199 198.3 196 195 196.3 195.5 195.4 196.4 200.9 202.9 199.9 200.3 204 209.6 221.5 216 209.7 194 192.7 192.5 192.3 192.2 191.9 197.3 202.7
574.5 581.7 587.6 594.2 601 606.3 617.7 633.6 650.9 674.4 694.5 706.3 679.2 643.5 641.3 606.3 554 525.3 508.7 499.4 484.4 491 503.8 507.4 502.8 500.4 516 517.1 523.5 518.8 511.2 493.9 463.2 430.4 414.3 390.9 369.7 353.8 338.1 317.7 307.2 300.2 297.8 288.8 284.3 271.7 261.7 253.5 256.5 252.8 248.8 244.4 232.6 219.8 215.9 212.5 213.1 215.6 218.5 219.1 210.6 209.1 212.7 214.4 224.3 247.7 265 293.5 326 359.3 398.8 450.8 473 505.4 549.1 566.9 583.6 599.5 594.8 603.9 604.2 590.7 577.8 561.5 538.6 517.1 502.8 481 462.6 453.4 442.6 432.2 420.7 410 402.4 395.1 386.3 384.1 383.3 383.7 384.3 384.3 383.3 378.6 379.8 377.6 374.5 374.6 373.2 374 372.8 370.2 372.8 366.5 361.9 358.9 357.1 357.4 352.6 350.6 352.1 352.7 360.1 358.4 359.6 365.8 359.4 355.7 355.3 353.8 350.5 346.5 340 336.2 329.2 324 320.5 314.8 308 304.5 301.1 299.5 295.2 294 289.7 286.4 284.3 283.4 281.4 281.2 277.9 273.1 269.5 267.7 265 263 261.5 254.5 248.8 246.3 243.1 241.6 236.8 234.6 229.9 227 222.9 219.3 215.5 212 208.8 206.6 201.4 198.9 198.3 197.7 198.1 198.1 197.1 198.4 197.5 197.9 201.7 207.8 205.8 205.9 208.2 210.8 221.1 218.7 214.9 208.6 199 194.4 193.6 193.5 194.4 202.7 208.8 212
586.1 593.4 599.1 603.6 608 613.7 619.7 635.3 656.1 680.4 698.6 712.6 699.9 681.7 701.6 641 582.2 547.7 531.9 523.9 501.4 506 526 518.1 519.9 522.8 538.2 541.9 548 541.8 534.6 494.7 448.1 431.8 409.8 383 369.3 355.1 352.3 331.9 321.9 320 320.5 317.6 306.1 293.6 284.7 273.2 276 273.2 269.3 258.7 250.9 240.7 222.1 214.8 217.2 223.3 231.4 247.9 250 224.7 212.2 215.3 215.7 224.6 249.4 283.1 323.8 363.9 405.3 423.1 457 486.1 530.5 555.3 558.6 565.4 584.1 578.7 574.5 560.2 548.4 545.7 525.1 508.8 494.8 478 459.7 445.8 437.6 429.3 418.6 406.4 398.6 388.4 385.1 382.9 387.2 384.1 384.2 383 383 383.5 385.2 385.6 378.5 376 374.6 374.3 373.5 363.7 360.4 360 354.5 348.6 345.5 346.1 343 339.6 338.9 339.9 339.2 343.9 343.3 343.7 342.7 340.5 345.7 340 337.2 333.9 329.7 324.1 318.2 314.5 310.5 304.8 301.2 297.2 290.2 290.4 284.1 282.7 279.1 275.3 272 269.8 269.2 268 266.1 262.1 260.3 258.5 255.1 253.6 250.9 243.3 242.8 240.4 239.2 233.3 231.3 229.1 223.3 220.5 217.8 216.8 214.7 212.6 210.5 209.1 201.3 201.6 202.4 203.1 202.5 201.4 199.4 199.2 197.9 201.1 207.2 208.1 208.9 211.5 216.6 219.1 217 217.2 211 206.8 198.8 196.5 198.3 196.6 203.9 214.9 217.3 227.4
595.3 602.1 607.4 611.7 615.2 619.9 626.9 638 659.5 681.8 702.4 717.4 726.4 722.4 714.7 680.8 606.7 573.6 561 547.2 524.2 528.4 541.8 540.9 539.2 550.1 556.3 564.8 570.5 568.3 535.7 476.4 443 424.5 402.1 384.9 372.9 371.2 386.4 362.4 344.5 336.7 334.5 335.6 325.2 323.2 310.8 306.4 303.2 301.9 289.8 281.3 270.4 263.4 248.5 232.4 228.4 226.8 237.4 244.3 249.8 242.6 222.4 213.4 213.8 214.8 224.4 254.1 300 334.3 361.1 397.1 435.3 458.4 515.8 532.1 539.2 550.2 552.2 558.2 538.9 533.1 525.2 513.8 505.8 495.1 486.4 472.6 457.9 444.5 436 426.9 414 404 392.7 384.7 381.6 381.6 381.6 383.6 383.6 381.9 381.6 384.5 387.7 388.7 384.9 380.8 378.2 375.5 371.6 363.2 352.4 350.3 345.7 340.3 336.9 334.7 332.9 327.8 326.4 329.2 328.6 328.1 326.6 326.7 328.6 334.8 333.6 328 324.2 319.2 317.3 312.6 308.7 305.2 300.6 296.3 294.2 290.1 285.1 280.7 274.5 272.1 269.9 267.1 263.2 259.6 257.5 257.3 254.6 251.9 249.9 246.1 243 241.7 237.7 234.2 235.6 232.2 230.1 228.3 224.2 222.4 220 218.5 216.4 213.4 212 211.7 210.1 207.6 200.8 207.5 211 211.8 211 206.9 202.3 200.5 202.7 206.3 209 210.2 212.7 216.8 220.2 220.2 217.9 215.7 210.7 205.1 200.2 201.9 207.4 213 218.9 221.3 235.4 255.5
602.5 608.4 613.2 617 620.5 625.4 632.4 641.7 661.3 684.2 704.3 719.7 730.7 738.1 733.8 688.1 629.4 597.6 585 570.7 543.7 556.2 559.6 553.4 561.6 571.2 581.1 588.6 593.5 574.9 522.7 477.2 436.9 410.5 394.6 380.3 379.6 384 392.8 380.4 360.1 348.8 346.2 343.4 341.1 344.2 355.7 337.4 333.6 323 311.8 312.3 303.8 295.4 277.9 265.4 253.7 242.6 240 241.4 253.1 251.6 241.2 219.6 215.8 215 216.5 232.7 267.3 304.6 324.6 365.2 395.3 437.4 464.7 495.9 502.9 526.5 524.8 525.9 516.7 508.6 503.8 494.3 486.8 480.9 480.4 469.6 455.4 441.2 431.5 423 413.6 403 388.2 383.3 381.6 381.6 381.6 381.6 381.6 381.6 381.6 384.4 387.2 387.7 386.5 384.5 382.8 379.7 372.6 364.7 352.9 341.5 341.9 338.1 335.9 330.4 328.4 326.5 322.2 317.7 314.7 313.9 315.7 319.4 324.5 324.9 319 314.9 313.1 309.7 306.8 304.7 299.4 295.9 293.8 290.4 284.1 279.3 275.6 272.4 268.8 264.4 264.3 260.4 257.1 254.6 252.9 249.9 246.2 244 240.7 236.7 233.6 231.6 228.1 228.1 227.5 223.7 223.7 221.9 220 218.9 218.8 214.8 211.2 209.3 209.6 209.7 209.5 203.8 203.8 217 223.4 222.8 216.5 208.2 204.7 203.3 208.4 212.9 211.2 214.1 218 221.6 222.8 224.1 221.1 216.2 209 205 206.8 212.1 221.3 224.2 228.3 241.5 261 270.4
608.4 612.5 616.6 620.1 624 628.5 636 644.2 660.8 684.7 704.8 721.5 734.5 743.2 745.7 703.5 654.7 622.8 601.3 590 577.6 584.5 582.1 574.8 578.4 593.2 608 610.8 610 565.3 504.2 460.7 426.6 397.4 389.8 387.7 389.1 390.7 384.6 371.3 362.6 362 355.9 357.1 357.4 387.7 380.8 383.9 369.9 356.7 358.5 348.2 392.1 397.4 338 300.1 289.2 272.1 266.1 251 250.2 256.1 244.8 230.7 220.8 217 216.8 221.3 236.1 268.4 301.2 350.9 378.7 399.3 414.9 446.7 467.6 491 499.1 505.4 505.3 492.9 487.1 480.4 478.1 475.5 466.9 464 451.6 439.7 428.9 421.3 404.1 395.4 384.1 381.6 381.6 381.6 381.6 381.6 381.6 381.6 383.7 387.2 388.4 388.4 386.3 383.9 382.5 382 369.9 360.8 350.7 339.9 332.1 331.7 325.3 320.7 318.4 318.5 315.9 310.7 308.2 309.7 309.3 316.2 317.9 311.6 308 307.1 303.8 301 300.3 297.7 293.5 290.9 289.6 285.8 279.6 273.7 270.9 267.8 263 260.8 258.5 256.6 251.6 248.7 245.9 243.4 241.3 238.3 235 230 224.8 223.5 222.4 221.7 220.1 219 218.7 217.5 215.3 215.4 213.6 211.3 209.3 208.2 207.2 207.2 206 204 214.7 229.2 238.1 231.7 218.1 213.1 208.4 210.3 216.8 218.9 216.6 220.4 223.7 230.1 226.5 227.9 228.1 220.5 209.2 212.1 216.8 226.6 232.8 243.3 245.8 261.5 279.1 292.1
611.7 615.9 619.1 621.8 626.1 630.3 636 646.5 660.1 684.8 704.7 723 738.4 748.8 752.8 715.9 674.4 642 619.3 597.4 606.5 609.9 610.5 595 597.6 626.3 636.5 637.5 588.1 527 493.9 461.9 423.9 397.1 392.6 394.7 399 390.7 385 378.7 373.5 370.8 370 379.1 392 420.4 441.1 448.1 420.4 434.7 447.3 431.1 430.9 437.7 419.9 341.9 340.2 326.9 298.1 279.6 267 254.8 248.9 239.4 230.3 223.4 220.9 218.7 226.5 241.9 281.4 304.3 334.9 353.8 380.9 410.1 447.1 472.4 493 495.1 493.5 482.8 473.1 470.1 466.9 462.2 458.7 457.1 448.8 438 427.6 416.2 397 388.3 381.6 381.6 381.6 381.6 381.6 381.6 381.6 383.2 389.3 392 393.1 391.8 389.9 386.8 382.4 377.6 370.3 360.9 348.8 341.2 325 321.9 315.9 310.8 306.6 304.1 303.9 301.6 302 300.8 304.8 309.4 305.5 301.6 300.3 298.7 296 294.6 292.4 290 289.1 287.7 284.6 280.2 276.4 270.5 263.8 260.8 259.9 256 251.8 255.2 246.6 240.1 238.4 238.2 236.3 230.8 227.6 222.1 219.1 217.1 216.8 217.3 217 215.9 214.5 214.5 214.5 214.8 211.2 209.3 208 206.2 205.8 205.2 204.1 209.3 222.5 235.5 235.9 229.7 220.5 214.9 212.4 217.6 223.4 221.2 223.2 226.1 229.3 232.3 231.6 236.5 238.2 228.4 220.3 224.7 235.8 260.9 252.6 252.6 268 281.8 293.1 306.3
613 617.3 621 624 627.3 631.7 636.3 648.8 659.4 681.3 701.6 724.7 741.9 755.4 760.9 734.4 691.1 662.6 627.5 615.9 623.1 633.4 629.2 619.5 624.9 648 660.8 612.7 551.1 512.5 489.7 465.9 445.5 405.7 397.6 401.1 398.2 394.8 390.4 387.3 387.1 383.8 387.1 410.2 417.8 450.4 469.4 479.5 482.7 481.2 481.4 466.9 460.8 448.9 437.4 377.5 366.9 372.5 330.1 306.7 283.8 268.1 263 252 242.1 235.3 226.4 225.3 223.8 225.7 237.9 268.4 304.8 331.8 353.8 376 393.9 416 458.5 476.9 476.4 467.9 463.4 459.9 456.3 454.2 451.5 442.5 440.1 442.5 424.8 411.3 392 382.9 382.8 381.6 381.6 381.6 381.6 381.6 382.7 389.8 394.6 395.4 396.9 396 393.8 389.9 385 377.6 370.9 362.2 349.2 337.7 327.1 313.2 309 304.6 300.9 298.1 295 290.7 292.6 293.7 293.4 295 293.9 292.4 292.9 291.1 288.4 287.5 286.3 285.5 284.3 281.5 277 274.4 270.6 265.8 261.4 257.4 257.1 252.8 244.7 246.1 240.1 236.1 234.7 233.8 230.7 226.6 221.1 218.5 216 215 214.3 214.2 214 213.2 212.6 212.3 212.8 212.8 210 207.9 205.2 205.4 204.6 204.7 205.4 213.8 224.4 233.3 231.1 225.8 220.3 216.6 218.4 226.4 230.1 225.8 230.9 234.2 238.7 236.7 239.8 240.4 235.2 229.9 238 244.6 255.6 278.1 299.8 290.3 310.1 313.2 340.5 353.9
614.4 618.3 622.1 626.2 630.3 634.7 640.3 647.7 658.3 672.6 696 719.8 743.5 759 767.6 751.9 714.2 667.1 634.4 622.1 624.9 635.7 636.4 638.8 649.8 682.4 662.1 586.4 538.7 509.9 489.5 471.4 449.6 417.9 407.5 409.6 406.8 407.5 403.7 400.2 400.9 398.5 401.1 418.8 444.1 465.6 486.7 504.9 517.4 526.5 529 510.7 494.5 472.3 452.4 424.5 400.8 391.6 359.9 332.8 312.3 288.2 275.1 265.2 259.2 247.8 232.6 231.8 230.7 228.3 230.2 240.2 264.9 291 331.4 349.4 362.9 375.1 403.3 433.3 449 448.7 451 447.5 447.3 444.8 438.1 437.9 435.9 431.9 422 414.4 400.4 389.7 384.9 382.5 381.6 381.6 381.6 381.6 386.7 393 398.8 401.3 400.4 399.2 397 392.2 385.8 377.6 370.2 361.1 349.7 338.7 328.1 309.3 299.9 298.1 293.8 291.9 288.9 286.3 285 287.5 288.2 287.6 286.5 284.4 284.1 284.1 283.9 283.4 282.5 281.3 279.6 277.6 272.2 268.1 263.2 260.2 257.8 255.4 249 246.4 241.9 238.6 237.5 234.9 233.9 228.8 226.1 221.8 218.7 215.5 214.3 212.5 211.9 212.8 212.6 212.2 211.8 210.8 212.5 209.4 206.8 207.9 207 206.7 205.8 206.2 206.5 215.1 222.5 226.2 226.3 224.7 223 222 228.1 238.6 235 237.7 241.7 247.8 247.3 246.3 246.2 245.7 244 254.6 261 261.2 278.3 297.2 316 326.4 332.3 353.7 368 381.4
615.8 619.2 625.7 630 635.4 640 647.1 650.7 655.5 667.7 688.2 710.6 735.6 761.5 771.9 770.9 731.1 688.2 656.9 641.1 640.2 653.3 671.4 673.1 707.4 723.3 670.7 585.9 549.4 512.6 487.6 468.1 453 428.1 422.7 417.6 424 428.4 426.8 432.3 436.2 428.5 453.1 460.4 470.5 510.9 541.4 558.1 570.1 570.1 557.8 546.7 521.9 494.5 469.4 434.8 410.6 398.9 380.3 348.3 334.1 307.6 292 276.5 267.5 259.6 246.3 242.4 242.2 237.2 241.6 241.2 243.9 251.8 272.6 298.4 327.8 342.8 370.5 385.3 421.7 428.9 432.4 439.2 430 427.7 429.1 428.9 427.2 425.4 418.2 412.1 407.8 403.8 393.6 390.5 381.6 381.6 387.4 391.7 399.3 400.7 402.4 408.8 405.8 402 399.6 394.8 387.5 379.3 369.1 360.1 348.5 338.5 326.7 308.7 302.2 293.7 290.4 288.5 286.8 285.7 284.4 285 283.8 281.4 280.5 278.7 278.4 279.7 280.4 280.3 279.6 278.7 276.2 272.1 266.8 263.6 261.5 257.6 254.5 250.3 246.8 240.1 239.5 234.7 237.2 233.5 230.2 227.7 223.4 219.5 216.1 214.3 214.2 213.2 212.6 211.3 211.9 211.8 211.4 210.2 210.1 210.3 209.8 210.5 209.5 208.3 208 218.1 216.9 220.3 218.3 219.6 223.9 226.7 226.2 230 237.6 241.5 241.5 244.7 249.9 256.2 258.5 257.5 255.7 256.6 260 270.9 282.6 302.2 298.4 315.5 330 343.3 360 369.2 381.8 391.1
621.1 628.4 631.4 636.7 638.7 645.4 652.6 653.9 655.7 663.1 680.9 699.2 723.9 747.5 766.7 774.7 758.2 731.6 703.1 683.9 681.3 699.2 715 744.9 745.6 759.6 685.9 604.2 571 524.6 492.8 470.2 454.4 438.5 442.3 440.9 445 446.2 474.5 506.1 523.2 526.8 505.7 501.5 495.9 533.9 576.2 601.2 609.4 593.7 575.9 560.5 538.5 512.8 481 456 418.8 407.6 386.7 362.6 347.3 340.5 318.2 302.7 298.5 287.8 265.4 258.1 257.1 263.4 253.2 252.9 254.9 256.9 254.8 268.3 288.6 303.8 321.5 338.9 367 389.6 403 404.9 409.7 409.9 415.6 418 417.2 415.8 414.5 411.8 413.8 409.8 402.5 398.6 385.5 381.6 389.8 403.9 405.2 408.3 409.1 410.6 412.6 409.3 401.8 397 389.9 380.1 368.9 359.8 348.1 337.1 325.3 312.2 301.6 296.1 289.1 287.9 285.5 283.2 282.3 280.7 273.8 271.6 273.5 274.6 275.6 277.3 276.4 276.5 277.3 275.4 274.9 268.8 263.4 262.6 260.5 256.1 248.6 243.5 240.4 238.8 234.7 233.9 238.5 231.2 226.9 226.2 220.5 216.8 215.1 216.7 214.8 214 213.2 212.3 211.1 211.3 210.9 210.1 211.6 212.1 211.9 212.5 212.2 211.5 217.6 224.3 232.3 233.8 226.7 223 225.2 229.2 234.4 241.2 245.1 244.3 246.4 251.4 259.3 262.9 264.9 266.1 267.6 274.8 277 286.9 296.8 318 314.4 327.9 342.7 354.9 368.8 377.4 388 390.8
620.2 627.2 630.4 634.4 640 643.9 649.7 652.7 653.6 656.5 670.9 686 710.1 735.5 755.2 770.9 783.7 766.8 740.7 734.2 732.1 744.8 766.8 789.5 783.8 768.9 702.2 633.5 600.1 547.1 512.1 484.4 467.6 461.8 461.7 465 473.1 475.1 487 518.4 535.6 544.1 554.1 531.8 525.9 546.7 578.6 610.1 626.3 618 593.1 571.2 544.3 527.5 496.3 463.3 434.3 416.5 396.7 381.7 377.8 368.6 354.6 346.2 312.7 303.9 287.6 274 274.3 280.3 274 265.8 267.9 272.8 272.3 268.7 265.1 274 292.3 304.2 322.1 344.8 363.6 373.8 381.5 387.9 401.6 403.7 404.1 413.5 418.3 421.4 425.4 416.9 407.2 398.3 391.5 381.6 385.5 406.9 409.2 413.4 417.4 420.6 418.2 414.8 407.2 398.3 390.4 381.3 367.3 356.7 346.9 337.4 323.2 311.8 298.5 294.2 291.1 288.9 288.2 283.9 278.8 275.8 274.6 272.1 269.6 271.1 273.8 274.6 273.8 273.6 275 274.6 270.1 265.1 260.8 260.4 256.8 251.1 245.3 240.5 238.1 235.5 227.6 223.2 227.3 222.9 219.4 218.6 217 217.2 221.9 217.2 215.9 213.8 213.3 212.5 211.1 210.9 210.8 212.4 214.7 214.2 214.9 215.3 215.6 220.3 229.1 233.7 239.9 239.7 232.9 229.1 229.8 234.2 243.4 250.6 252.8 249.8 255 260.1 268 270.8 276.8 277.8 284.6 297 299.7 302.4 317.2 325.7 328.3 339.3 351 363.7 371.1 381.5 385 392
615.7 621.1 625.1 629 633.1 638.1 641.4 645.5 647.8 648.8 660.1 676.2 694.4 722.6 749.5 771.5 784.6 793.9 773.8 766.1 768.3 780 812.5 831.6 835.6 782.6 690.2 673.3 654.4 598.4 551.2 513.3 492 493.5 500.4 522.9 522 519.4 519.5 538.4 549 560.6 581.9 562.3 558.6 561.9 582.8 604.1 629.1 636 614.6 582.8 542.3 512.3 494 464.8 437.7 420.4 416.5 395.7 389.4 376 378.3 374.6 356.4 318.2 303.6 285.6 283.8 295 294.2 292 283.7 282.1 284.3 283.2 280.2 274.4 273.1 282 295.2 311.5 336.8 352.1 359.5 378 380.8 388.8 398.6 405.4 412.5 426.9 431.1 422.6 410.6 400.9 389.9 384.6 388.8 399.6 413.7 426.8 430 435.9 429.1 421.9 415.5 403 392.2 381.3 369.1 357.4 347.7 336.7 324.5 313.4 300.2 293.7 293.3 291.4 289 284.2 279.9 276.8 274.8 271.5 268.9 269 272 272.8 273.3 272.4 269.5 269.5 266.4 262.4 257.2 255.2 251.7 245.9 242.7 237.2 237.7 236.4 232.7 229.6 226 223.9 221.8 220 221.8 225.6 226.9 220 215.3 214.2 213.5 212.4 212.3 212.9 213.1 214.7 215.7 216 216.7 218.1 219.6 228.2 236.2 239.6 242.5 242.4 240.6 239 235.2 243.3 252 255.6 258.3 259.3 264.3 269 277.2 282.4 287.7 292 302.1 309.8 312.6 318.5 328.4 343.5 354 363.9 375.7 381.6 384.2 385.6 393.6 395.9
603.3 609.3 612.7 616.3 619.3 619.3 621.1 627.6 637.8 644.1 651.7 666.8 684.4 713.4 739.9 766.3 784.8 798.1 806 803.9 806.1 825.4 841.7 853.4 831.2 785.3 731.8 717.8 705.9 698.7 597.5 544.9 519.5 527.6 535.7 550.3 570.7 573.8 554.1 555.8 571.7 587.1 593.1 584.2 580 580.5 596.1 624.7 646.8 650.3 634.2 574.8 534.2 510.5 495.1 475.1 442.5 433.3 414.7 404.5 393.2 386 383.7 378.5 377.1 361.6 330.4 314.7 295.6 294.5 298.5 300.7 298.6 299.1 293.5 293.8 293.2 288.8 281.6 283.5 286.3 288.9 304 320.2 338.8 351.5 356.1 364.6 373.8 387.2 402.5 416.6 424.3 419.8 413.4 412.4 398.6 389 393 396.7 403.9 433.1 439.6 444.9 436.5 429.2 421.2 408.4 398.6 387.9 374.2 359.6 347.8 336 324.4 314.1 302.9 290.3 289.8 290 285.8 278.7 274.4 274.4 273.1 268.9 268.1 267.5 268.6 270.4 270.1 269.2 267.5 264.7 261.5 256.3 254 249.8 251.7 248.1 244.6 245.5 243.4 239.8 235.5 233.5 230 226.3 226.1 224.8 226.5 229.8 230.2 222.3 216.6 214.9 214.3 213.8 213.9 214.4 215.3 216.8 217.6 217.9 219.2 220.8 225.5 229 239.5 244.6 246.8 245.1 245 244.5 246.8 253.8 259.4 262.2 265 268.3 273.5 277.9 284.4 290.2 296.9 302 313.7 323.8 336 340.2 344.8 353.5 363 371.3 378.8 381.6 388.8 393.7 397.1 404.8
597.2 601.8 604.7 606.9 611.7 614.5 615.4 617.5 621.7 629.2 645.7 660.1 683.5 713 733.6 757.8 780.6 799.8 817 831.4 841 850.1 858 856.7 817.7 776.6 762.2 763 738 704.9 652 590.4 558.7 554 564.7 573.8 589.6 616.9 587.4 581.8 587.9 607.2 608.8 608.1 608.2 616.5 631.4 643.6 650.6 658.6 644.1 587.9 544.4 520.1 498.8 477.5 455.8 443.3 421.8 409.8 402.8 390.4 382.8 378.8 374.5 358.9 333.6 320.4 321.2 311 324.2 312.1 306.8 308.8 307.5 306.6 304.8 300.2 297.9 303.1 301.4 293 292.6 297.1 305.4 319.6 328.7 336.3 351.3 373.7 387.4 395.6 403.9 408 423.9 415.4 404.5 402.7 396.4 398.6 418.6 426.2 449.5 445.7 445.7 438.9 431.7 417.3 405.6 391.4 375.8 361.4 345.8 333.3 322.5 311.8 302.7 290.6 281.8 283.2 278.7 274.4 269.7 271.7 267.3 267 267.3 267.1 267.2 267.4 265.6 264.1 261.7 261.7 263.6 262.1 260.9 258.5 257.8 253.9 252.1 251.4 251.8 249.1 245.1 239.6 236.9 236.2 233.5 229.4 229.8 231.2 231.3 231.3 219.8 216.3 217.8 215.9 215 215.8 216.5 217.9 219.3 220.7 222.3 226.7 232.1 237.6 242 249 250.5 250.3 250.2 251.8 256.5 261.6 267.4 269.7 270.9 278.2 282.2 288.6 294.9 302.2 316.1 332.2 338.6 340.3 344.6 348.2 353.4 365.8 372.4 374.8 381.9 385.7 394 402.2 404.4 414.6
588.6 588 588 589.6 597 603.1 605 608 609.2 620.6 639.1 660 683.1 729.1 754 765.8 779.4 802.9 826.1 842.3 853 861.8 868.2 856.5 821.2 803.9 788.8 763.4 741.2 707.8 652 618.2 603.6 592.5 598.5 603.7 616.6 643 616.7 601.1 604 612.1 619.1 619.1 627.5 646 649.7 656.3 664.5 680.5 657.8 611.6 563 542 518.9 484.7 469.2 462.7 441.9 420.4 408.8 396.1 387.9 384.7 369.8 368.3 346.3 344.3 341.8 342.9 336.1 328.8 329.1 329.8 327.4 322.3 317.3 314.7 312 309.5 314.6 310.3 301.4 297.3 298.5 301.6 306.9 317.6 325 337.5 354.2 380.9 388.2 398 416.4 412.9 408.8 408.2 409 410.1 421.4 434.8 445.8 456 456 446.1 437.7 422.8 410.1 393.6 380.2 360 342.7 329.1 315.6 307.2 301.2 294 284.3 278.5 274.8 272.6 267 267 267 267 267 266.9 266.5 266 267.3 269.5 272 271.9 269.5 268.4 266.6 265.8 264 262 262 261.2 261 259.1 254.2 252 246 242.5 239.3 235.7 233.5 234.5 233.8 231.3 224.3 219.7 218.9 217 215.7 216.4 217.9 219.7 221.4 223.5 226.7 233 238.2 245.1 248.2 251.1 253.4 254 256.9 260.5 265.4 270.1 276.5 280.9 279.9 289.4 294.7 303.7 314.4 317.4 335.3 342.4 346.7 348.8 354.4 362 365.1 370.1 375 383 395.1 400 408.7 415.1 427.5 438.8
578.7 578.7 578.7 580.7 583.6 589.6 594.4 599.7 607.8 630 646 663.7 688.2 725.1 773.4 790.9 798.7 814.4 833.4 850.3 861.7 873.7 880.6 862.1 838.6 819.5 786.9 762 731.7 696.5 675.6 651 649 637.9 645.5 638.3 641.2 649.5 636.7 630.9 635.7 640.3 640.1 637.1 642 651.1 658.5 664.4 691.1 703.1 675.9 629.9 592.1 568.8 537.3 501.1 485.3 471.8 455.8 434.2 420.3 407.3 407.3 393.3 376.6 374.9 367.1 363.9 352 351.2 352.3 347.6 340.1 345.7 351.8 342.8 338.2 329 327.3 322.8 324.8 318.4 320.1 314.8 307.3 307.2 309.8 315.6 323.1 331.4 338.1 347.7 374.3 393.2 401.7 413.2 413.9 413.3 416.7 418.1 424 437.2 452.1 462.9 462.3 458.3 452.1 431 415.2 396 377.6 352.9 336.6 324.3 310.8 298 293.4 288.3 281.9 278.1 274.2 267.2 267 267 267 268.9 270.5 271.6 270.6 271.7 272.1 274 279.4 281.9 279 276.7 276.2 270.4 264.8 267 268 269.9 269.1 267.6 263.7 260.3 255.5 252 247 247.1 240.3 241.1 238.1 237.3 229 225.1 222.5 220.9 218.3 216.9 219.5 222 223.2 227.4 233.5 239.8 246.5 251.2 254.7 255.2 256.7 260.4 265.5 269.4 274.9 282.8 287.4 291.4 293.4 301.9 309.9 321.2 335.9 338.2 343.1 358.9 357.4 357.8 366.4 370 372.7 375.6 385.1 389.7 401.6 413.7 418.1 424.6 430.8 436.3
578.7 578.7 578.7 579.9 580.8 589.4 596.5 605.7 624.2 637.9 657.2 672.7 701.5 731.7 779.7 813.7 821.3 832.5 846.5 865.1 877.1 885.1 883 849.5 827.9 808 776.1 744.3 713.6 687.1 684.4 673.9 660.2 657.7 653.8 646.2 640.3 639.3 651.9 663.2 658.8 656 654.4 658.2 656.5 662.1 670.9 691.5 725.3 739.5 708.5 653.8 620.4 593.1 558.2 515.5 497.2 489.5 477.7 454.5 450.4 428.6 426.9 409.4 400.6 395.6 385 382.4 370.3 359.6 360.9 360.4 360.9 382.7 377.1 373.8 361.6 344.4 340 341.3 342.7 335.4 333.4 329.2 323.1 322.5 327.6 333.9 337 339 341 345.8 350.3 369.7 386.8 413.9 420.1 418.8 412.5 422.4 429.9 447.1 464.3 468.9 460.8 461.6 455.1 435.6 421.5 399.6 372.9 351.6 334.2 320.1 307.1 295.7 285.9 283.3 280.1 276.4 278.3 271.2 267 267 271.2 273.1 276.9 278.9 281.9 281.8 278.5 279.4 281.5 284.4 289 289.5 284.9 280.3 276 275.9 275.1 275.1 276.4 275.8 272.8 270 268.7 264.3 263.3 256.6 255.2 247.4 247.7 241.3 235.8 229.3 228 225.5 222.1 220.9 222.1 224.4 227.5 234 241.1 246 252.1 255 259.3 260.1 261.7 267.1 273.7 279.3 286.1 294.2 300.5 305.7 306.6 312.6 320.2 332.1 339.3 352 354.3 365.9 376.9 372.5 374.8 377.1 380.8 383.1 395.1 401.9 413.5 424.2 428.5 437.1 439.8 443
580.9 578.7 588.6 594.2 589.9 601.5 611.8 622.8 636.8 658.2 672.5 691.3 722 756.9 800.2 831.4 848.3 857.3 870.7 884.4 893.8 899 871.9 842.5 811.2 776.3 745.2 719.1 705.3 691.3 691.6 700.5 688.3 671.3 652.9 643.4 639.3 639.3 654.5 671.6 675.4 679.4 673.7 668.1 678 699.7 703.6 722.2 746.9 765.7 722.6 676.9 651.7 625.3 589.7 544.5 516.5 521.5 506.3 487.4 491.8 457.4 449 433.2 427.2 414.6 409.8 400.3 388.2 378.7 384 382.2 400.4 415.4 401.9 393.8 378.5 356.7 349.9 348 347.7 348.7 345.9 345.9 339.7 339.2 339.1 336.8 342 347 353.1 358.6 355.8 356.4 364 381.7 395.7 402 404.2 415.2 444 456.5 477.4 476.6 464.8 463 452.6 442.5 421.9 401.1 372.3 350.7 328.9 315.2 302.9 290.3 279.3 276.7 278.5 274.1 278.3 271.7 271.7 272.7 276.8 277.9 280.1 284.4 288 289.4 288.3 288.9 289.8 287.6 291.1 293.9 292.9 290.3 291.2 290.7 288.9 287.3 286.4 285.1 283.7 279.6 277.5 272.7 275.9 272.6 264.6 255.4 251.4 248.4 245 236.9 232.5 231.1 229.4 228.3 228.2 226.5 233.5 239.4 247.2 252.3 257.9 263.1 265.5 265.8 268.9 274.1 277.3 288.2 296.8 303.7 309.6 313.4 318.5 326.1 334.3 343.5 351.1 358.6 363 370.7 375.9 382.7 391.2 393.6 394.6 393 403.7 413.4 422.2 429.4 435.1 443.2 447 449.3
606 597.3 603.6 608.2 605.8 613.8 628.9 642 653.9 670.6 692.6 713.6 753.6 798.3 827.4 855.2 873.5 882.7 895.1 905.8 912.2 914.7 879.1 843.1 794.9 760.1 733.1 715.7 696.2 698.1 709.6 705.7 707.7 696.7 677.1 655.7 651.2 641.1 648.4 672.6 682 688.5 689.7 695.5 703.5 714.6 723 734.9 763.4 787.7 754.9 710.5 680.9 655.9 626.6 593.4 545.9 549.2 549.3 526.3 514.8 483.6 467.8 462.5 456.9 440.4 432.8 427.2 419.9 411.6 403.6 412 419.8 426.1 414.1 407.3 394.1 377.6 366.7 358.3 353.8 352.7 357.2 357.7 360.2 357.3 360.8 367.4 363.9 363.3 360.2 364.7 365.7 365.4 359.7 359 366.6 376 391.2 405.5 432.3 450 448 458.4 458.6 453.4 454.4 444.1 432.4 408.4 378 344.3 323.8 311.7 300.5 285.1 274.5 270.2 268.1 271.8 274.5 273 276.9 278.9 281.5 286.8 294.1 297.7 302.4 306.5 303.6 300.3 297.8 296.8 296.2 297.9 295.7 297.8 298.5 299 298 297.5 296.1 296.5 295.9 292.5 286.6 287.4 289.7 285.4 276.6 265.3 259.3 254.1 249.8 243.6 242.9 238.3 236.8 235.8 232.1 233.9 239.6 246.1 253.7 259.8 263.5 267.2 270.8 272.9 277.2 283.2 289 296.5 302 313.1 317.7 322.5 329.9 338 346.1 352.7 360.3 365.6 369.7 377.3 384.1 390.2 395.8 399.3 406.8 409.4 413.8 421.1 429.8 436 442 445.6 450.7 455.1
657.9 645.9 640.7 643.2 631.7 639.4 646.6 663.5 671.6 694.4 726.1 765.7 809.7 846.4 868 885.2 900.2 909.4 920.1 929.5 934.8 923.2 882.4 840.8 799.3 764.2 736 712.2 705.9 702.5 706 713.8 724.9 708.8 695 679.8 652.5 658 654.8 665.1 690.4 694.8 692.3 696 703.3 714.6 727.1 738.8 766.7 799.7 790 758.7 717.9 681.6 662.3 642.2 586.8 577.3 576.3 557.8 540.8 507.8 492.1 481.4 484.3 482.1 468.2 456.9 452.1 442.9 426.7 434.2 436.7 434 425.2 410.9 401 395.2 381.8 375.3 377.4 372.4 367.6 371.3 375 376 381.3 387.7 394.1 390.7 388.8 385.4 385.1 371.7 360.6 353.8 348.7 353.8 366.2 376.1 387.7 398.3 423 434.5 443.7 448.5 457.3 453.5 441.5 410.3 371.2 337.2 321 308.1 298.8 285.3 276.6 269.4 266.1 266.8 273.2 275 284 288.8 297.1 303 304.2 308.4 313.6 313.3 313.5 309.1 309 305.7 302.5 303.4 300.1 302.7 305.6 307.7 308.3 309.3 310.3 307.8 304.9 303.4 297.7 303.9 300.5 296 288.3 276.5 267.3 263.2 256.6 253 250.3 248.9 243.3 239.3 235.5 240.7 244.8 252.3 258.5 265.4 270.1 272.7 277.3 281.7 286.4 291.4 299.1 306.6 314.8 322.6 328.4 333.5 341 348.2 356.2 362.3 367.6 372.7 383.2 390.1 394.3 400.5 406.4 411.9 420.2 422.4 425.3 432.9 438.1 443.5 448.6 455.1 462.4 470.7
740.2 757.2 785.8 684 666.6 674.3 682.7 693.6 714 740.8 768 809.9 865.3 884.2 900.2 912.5 920.5 929.8 941 949.9 956 934.2 892.7 854.3 818.4 769.1 740 728.4 715.6 709.9 720.2 727.7 741.7 764.5 713.7 689.9 685 687.1 677.6 669.1 679.3 703.5 708.5 707 707.8 719.1 728.9 738 761.3 790.7 820.6 789.7 752.4 707.8 687 675.6 641.5 614.8 604.4 592.1 580.1 548.9 520.1 502.2 498.9 502.7 507.6 492.7 485.1 486 464.6 456.1 450.9 439.7 434.3 424.5 415.1 413.2 399.5 386.7 385.5 387.5 382.5 385 393.3 393.7 398 401.7 407.4 415.3 413 408.1 401.6 380.4 359.3 342.9 337 336.9 347.3 355.5 363.4 373.8 387.7 400.7 414.7 430.4 441.8 447.4 430.6 411.9 370.1 331.6 313.7 303.8 295.8 283 275 271.8 265.7 267.1 271.6 281 293.2 303.5 313.2 315.5 315.8 318.8 321.1 324 319.9 315.3 313.6 312.4 311.6 308.6 307.3 306.8 309.7 313.5 315.8 317.2 319.9 320.2 315.4 313.2 311.3 318.2 311.2 306.9 295.6 284.2 276.1 271 263.5 258.2 259.8 253.7 250.2 241.8 240.1 246.5 250.4 257.7 264.1 269.9 274.1 277.5 283.2 289.2 294.6 300.5 309.9 316.3 325.1 333.9 339.6 346 354.8 361.6 367.1 372.1 377.8 385.3 392.8 400.4 405.5 411.5 418.7 421.1 425.8 430.4 433.7 441.1 446.3 451.9 457.1 463.6 470.3 476.1
789.5 778.6 768.7 764.7 763.7 713.8 725.3 744.7 758.5 776.3 812.4 862.5 889.4 903.9 918.4 929.8 940.7 949.3 958.3 967.2 974.2 935.5 897.4 861.7 839.3 786.2 758.3 743.2 731.7 734.7 741.2 754.5 809.9 816.1 741.2 711.2 699.2 700.1 694 671.8 679.2 701.9 709.7 709.2 710.1 716.4 725.4 733 751.9 787.4 824.7 817.4 782.7 736.1 711.1 697.1 686.8 651.7 633.9 614.7 598.1 572.1 544.8 531.5 522.3 515.8 514.8 512.3 518.8 502.9 475.9 468.7 463 451.2 440.4 443.3 432.7 422.1 413.5 403.3 396.1 392.9 398.5 398.9 403 409.4 413.2 417.6 420.7 424.7 421 417.9 405.5 382.8 359.1 344.2 328.6 321.4 326 334.2 344.2 353 367.2 378.9 394 420.8 423.4 424.3 416.5 401.2 357.2 321.9 306.8 297.9 288.1 279.7 271.7 265.9 264.4 271.4 277.8 292.1 303.9 315.9 323.8 326.9 328 328.7 330.6 331.4 328.2 321.9 318.8 316.6 316 315.1 313 311.6 314.5 318.4 321 323.9 327.9 331 327.5 330.4 324.8 328 325.4 317.4 308.5 294.1 284.4 275.2 268.1 261.9 263.7 259.6 254.7 252.9 250.7 253.1 254.9 261.2 266.9 272.4 276.3 281.8 288.7 294.4 302.8 310.9 319.1 327 334.5 343.6 348.7 358.8 367.6 373.4 378.8 382.9 388.3 394.6 399.6 405.3 411.6 417.8 424.6 429.4 433.8 438.3 442.3 448.5 452.3 459.7 465.8 473.1 481.2 485.9
795.2 809.4 828.5 838.4 840.9 836.1 797.2 778 790.3 813.3 860.2 894.1 907.5 920.4 932.5 944.3 953.1 962.6 973.3 983.7 990.4 946.2 905.8 871.4 834.3 799.4 779.5 769.7 762 765.5 774.9 819.3 883.7 848 782 744.5 719.6 706 702.9 682.5 688.4 699 710.7 706 715.4 719.3 724.7 733.6 752.7 785.6 823 858.6 806.3 756.4 728.3 707.6 683.6 649.3 625.8 611.9 606.4 583.2 557.5 546.7 544.8 542.9 525.5 524.4 530.1 515.4 511.1 501.3 481 458.6 445.9 445.4 436.8 426.2 420.9 413.9 410.1 400.2 412.3 414 423.6 425.7 427.9 436 441.9 437.3 427.8 416.7 404.9 384.2 366.9 346.5 328.9 315.2 312.2 318 324.6 333.8 341.3 351 366.6 381.9 397.3 403.5 399.1 381.6 338 311.6 298.1 288.3 273.2 266 262.1 255.9 256.7 268.2 282.4 296.8 311.5 324.3 333 339.1 339 336.4 335.6 333.2 329.3 325.5 322.2 321.5 321.2 320.3 320.3 318.5 322.4 325.6 328.8 331.2 334.4 335.9 336.5 340.7 335.3 335.5 333 327 318.4 306.9 293 282.2 273.4 266.8 265.8 262.4 253.9 254.9 252 255.7 257.7 260.9 267.2 273.8 278.4 286.5 293.2 301.6 308.9 318.8 328.2 336.2 344.7 351.3 359.8 365.2 373.5 380.2 385.1 389.6 394.5 400.1 406.9 412.7 419 425.7 431.6 437.3 442.4 448 451.3 455.8 461.8 469.5 479.2 488.6 494.7 500.5
794.7 813.9 834.5 847.9 858.2 861.4 863 861.6 855.7 870.5 894.7 906.3 918.8 931.5 944 954.6 966.1 977 988.6 998 1004.8 953.9 918.6 881.8 856.9 842 817.7 805.5 818.6 821 842.1 910.2 897.8 869.7 825.7 765.6 743.6 732.7 729.6 726.3 718.6 710.1 711.5 709.4 715.4 726.7 738.6 742.3 760.5 790 826 867.9 822.5 774.9 737.1 711.5 677.6 655 626.5 610.2 608.2 588 570 555.2 549.9 535.9 532.6 536 547.3 563.1 535.9 517 504.9 477.4 466.2 454.9 443.6 433.5 431.2 428 419.1 414.4 429.7 472.4 459.6 462.9 451.1 454.2 447.8 444 438.3 426.7 408.6 391.5 371.2 352 336.1 319.8 300.5 298.4 304.7 310.1 319.3 328.2 342.4 361.2 379.8 392.6 382.6 363.1 325.9 303.5 289.8 280.2 267.2 255.6 252.8 246.5 251.8 273 289.8 305.6 319.5 332.6 341 344.4 343.8 343.1 342.1 336 331.1 328.6 326.6 326.4 324.2 324.7 325.4 323.8 327.4 331.4 336.2 337.1 339 340.4 345.8 347.3 345.2 339.9 337.3 329 321.7 308.7 294.5 282.7 272.7 267.3 263.3 261.4 258.5 258.4 256 256.6 262.5 266.7 268.1 271.5 280.1 290 297.6 306.5 315.8 325.3 334.4 343.2 351.2 358.5 365.5 372.6 381.5 387.7 392.4 397.7 403.3 409.8 418.9 425.1 432.1 436.4 442 448.1 454.3 460.3 466 470.2 476.7 482.8 496.1 503.7 510.1 515
795.7 813 831.7 846.7 856.8 861.8 865.9 872.6 879.8 889.3 900.7 912.8 926 939.2 951.3 963 975.2 988.4 999.5 1009.7 1012.4 967.3 930.1 915.3 894.9 875.2 878.5 874.8 883 901.2 935.9 941.9 915.2 863.1 829.9 808.6 806.4 760.9 758.9 761.7 767.3 741.1 735.5 730.1 737.3 751.1 753.9 763.1 780.9 807.9 845 886.7 839.3 792.4 753.6 724.3 689.9 668.8 641.9 629.8 634.9 611.6 581.3 571.9 567.7 556.4 552.4 552.9 564.6 577.7 574.9 558.1 548.4 510.1 496.2 472.8 473 467.4 449.3 438.8 427 428.5 453.5 493.7 496.4 491.3 490.6 477.2 461.2 461.5 446.3 423.6 409.9 392.8 374.3 356.4 340.6 324.1 304.3 285.2 281.7 287.8 297.8 305.9 318.4 334.3 352.8 367.1 375.7 335.9 304.3 290.7 280.5 268.8 252.3 246.3 241.7 235.3 253.6 275.5 294.9 313 326.6 338.7 343.2 347.1 349.5 346.7 343.2 339.9 333.3 331.6 330.9 329.5 325.9 328.2 328.7 329 331.1 336.5 339.5 342.6 346 346.3 351.6 351.3 352.7 346.2 343.2 336 324.1 310.8 296.4 288.6 280 272.7 269.5 267.2 265.7 263.2 265.4 266.2 267.3 275.1 278.9 281.5 286.1 292.2 301.2 309.3 319.3 330 339.7 347.8 358.6 366.8 371.6 377.2 386.5 394.1 399.6 405.5 411 418.4 426.6 432.2 438.6 447.2 454.9 461.6 469.8 477.1 482.6 489.1 496.8 503.7 514.7 519.7 526.5 535.3
788.4 807.6 825.7 840.2 850.5 857.4 861.8 870.1 881.1 891.7 903.7 917.5 931.5 944.5 957.5 971 984.6 997.6 1007.4 1018.7 1022.9 988.5 978 970.1 960.7 940.2 938 926.4 945.9 962.4 983.7 953.2 922.7 894.4 877.6 865.1 853.3 808.8 778.5 780 786.4 775.3 767.1 758.1 766.9 766.5 773.9 793.7 813.2 839.2 886.7 896.6 851.3 814.2 782.8 743.1 708.3 686.7 672.4 670 653.8 613.5 597 589.6 592.3 578.6 565.4 570 568.9 590 589.2 585.5 575 541.6 523.8 489.6 490.4 502.2 467.1 448.1 447.4 449.4 493.8 526.3 521.7 527.5 510.8 483.4 483.8 467.1 445.2 428.7 410.1 386.6 373.3 360.4 346.2 329.9 315.1 298.7 280.1 267.2 274.9 285.5 293.4 310.3 327.3 349.8 351.4 320.6 293.1 280.3 270.7 254.2 241.1 233.5 228.6 239.1 256.3 278.9 300 317.9 330.1 337.9 343.4 347.7 350.5 348.8 346.6 343.4 339 335.6 334.5 332.8 328.6 331.7 332.7 333 334.2 340.8 343.9 345.7 348.3 351.7 355.7 358.2 358.9 357 350.1 343.7 333.8 314.6 303.9 296.5 288.2 282 277.9 274.9 271.2 269.2 277.1 275.1 274.1 280 284.6 287.5 292.6 298.3 305.3 314.4 323.4 333.4 343.3 354.4 364.7 373 380.8 387.1 393.1 399.8 406.8 414.6 420.7 428.5 437.2 445.3 453.7 459.6 469.2 477.8 485.5 493.7 503.3 511.4 516.9 524.7 530.7 540.9 551.9 561.4
779.8 799.3 815 828.5 838.3 846.9 855.4 866.5 877.6 890.2 904 919.4 933.8 948.2 961.8 975.9 991 1003.6 1015.6 1027 1040.9 1039.3 1034.7 1022.7 1007.9 988.8 991.7 990.9 990 999.3 995.4 975.3 953.5 941.4 923.4 899.6 875.5 843.2 828.9 805.3 806 802.8 799.4 785.7 793.9 792.4 811.1 833.2 852.7 907.6 902.9 882.8 865.8 841.4 807.5 756.1 721.6 695.6 689.3 667.6 644.4 627 603.7 587.2 581.9 569.4 561.6 569.2 585.7 603.6 600.9 590 585.2 570.1 541.7 533.6 541.6 525.4 484.6 475.1 460 463.1 483 514.4 538.6 534.5 510.3 488.9 476.6 463 440.7 419.6 401.2 382.5 376.3 366.4 354.2 340.2 324.8 307.1 288.1 270.6 253.2 262.6 275.9 292.2 306.4 320 326.4 308.6 282.1 268.4 256 240.7 228.4 220.8 219.3 235.7 257 281.9 304 318.3 329.6 338.7 342.7 346.1 349.5 349.7 348.9 346.4 343.3 341 338.8 337.1 332.3 334.5 335.3 336.5 337.8 340.7 345.9 350.3 354.6 360.1 363.3 366.2 366.3 365 360.5 350.8 342.4 326.3 313.9 304.4 296.4 292.1 285 281.2 279.4 277.2 282.9 282.9 282.3 282.2 286.1 291.9 296.7 303.3 311.3 321.2 329.9 338.7 347.8 359.3 371.9 381 389 398.9 406.9 411.7 417.6 423.9 430.7 440.1 448.8 459.7 471.4 481.4 490.5 496.8 505.4 514.4 524.5 534.2 542.8 550.4 554.3 561.7 569.6 575.9
760.4 780 796.1 811.2 821.1 831.5 844.1 855.2 868.6 883.3 900.1 916.6 933.5 950 964 979.1 996.8 1010.8 1021.8 1038.1 1053.6 1062.7 1058.8 1050.2 1043.3 1033 1026 1001.1 992.6 974.2 963.3 947.2 936.8 931.8 911.9 921 903.2 883.1 872.7 880.8 866 836 836.6 820.7 833.3 853.6 879.4 897.1 915.9 890.2 862.2 847.3 826.1 807.4 767.5 730.5 712.4 684.4 663.6 643.6 625.9 609.9 587.6 559.7 549.8 539 532.1 528.8 540.8 543.7 547.6 546.3 548.3 543.6 557.8 554.7 560.3 533.8 516.8 493.4 487.2 478 490.5 516.2 533.6 522.9 505.7 488.8 475 458 440.9 424.7 404.6 390.1 385.1 382.5 361 348.5 337.2 317.3 295.6 273.9 256.8 245.7 254.8 271.1 284.2 298.7 305.1 285 270 255.2 239.1 228.6 216 208.9 215.6 234.9 257.7 279.8 306.5 317.4 327.4 338.6 343.1 345.8 348.4 350.6 350.9 348.3 345.1 342.4 341.3 340.3 337.3 337 338.9 342.8 343 347.4 351 354.6 362.9 366.7 371.7 373 373.3 371.4 364.5 355.3 347.6 336.4 323.8 313.4 307 301.5 297.6 296.7 290 286.4 290.6 289.5 290.1 290.3 292.2 297.6 302 309.8 318.8 328.9 337.4 347.4 356 367.5 380.6 390.3 398.7 408.3 415.1 424.2 434.1 440.9 448.2 455 464.3 478.8 490.4 503.2 513 525.3 527.6 538.8 546.6 557.5 565.1 568.4 574.8 577.9 585.8 593.9
739 760.3 778.5 793.4 803.3 813.6 826.7 842.5 856.2 873.6 893 910.1 930.3 948.4 965.9 983.1 999.6 1014.8 1026.9 1048.5 1061.4 1053.1 1033.9 1016.6 1004.4 990.7 981.2 969 951.2 930.9 910.2 897 889.3 878.6 865.4 861.4 866.4 879.7 883.5 887 884.8 873.2 868.3 855 881.9 886 886.8 890.7 884.1 852.2 829.3 810.9 792 762.1 729.2 704.1 677.3 648.4 626.5 603.3 606.6 594.2 560.9 549.9 533.7 511.4 500.2 493.9 487.7 490.7 494 491.2 497.3 498.1 507.5 529.3 541.4 554.7 552.8 520.2 504.5 500.5 507 537 537.6 530.7 524.8 506 482.2 462.9 443.7 426.8 412 401.4 390.6 379.8 370.9 362 354 339.9 303.9 276.5 257.2 245.9 235.4 252.9 264.4 270.8 275.5 268.7 255.5 240.9 222.9 214.8 203.4 197.7 210.5 232.9 259.1 281.8 300.3 315 330.6 341.1 344.6 349.1 352.7 353.4 352.3 348.7 345.3 344.8 344.1 343.1 341.2 341 344.4 348.4 349 351.3 354.3 359 368.1 372.9 378 385 386 390 378.4 367.6 356.9 343.4 331.1 325 319 311.9 305.4 304.8 300.9 296.5 298.3 298.5 297.7 299 301.3 308.9 312.2 317.9 328.9 338.1 344.7 357.9 367.4 374.3 389.6 399.5 409.9 417.7 427.6 436.6 444.8 452.3 461.8 472.2 483.6 500.1 515.1 527.4 539.9 550.1 557.1 565.7 573.7 580.6 585.2 590.8 594.9 598.8 607 611.7
722.8 742.3 759.9 772.9 783 794.9 810.4 826.5 843.1 861.6 885.7 906.1 928.7 947.7 967 985.6 1001.8 1017.2 1031.4 1036.7 1033.4 1020.3 1003.9 983.9 962.7 947.8 937.3 921.8 904.1 889.7 872.7 845.1 822 808.2 799.5 800.1 818 838.4 842.8 843.2 841.5 837.8 839.8 837.8 840.5 841.9 847.2 847.3 829.5 813.3 790.3 773.2 741.2 721.9 700.2 674.9 642.1 612.1 590.5 582.3 569.7 559.8 552.9 547.8 527.8 500.2 478 467.5 456.8 459.7 460.2 459.3 464.5 471.4 483 496 510.1 524.5 536.7 538.7 541.7 532.1 533.7 533.6 534.5 530.1 528.3 515.7 491.3 467.1 445.4 424.9 412.7 401.9 388.2 378 373 371.5 366.8 354.1 333.7 287.8 264.6 243.5 225.8 233.3 244.7 250.5 253.1 246.1 235.6 224.8 209.8 199.1 189.9 198 215.5 236.8 260.9 282.7 297.4 316.3 334.2 343.5 347.8 354.3 355.7 355.6 352.4 350.1 348.7 346.1 345.5 344.8 345 345.7 347.6 350.7 351.5 352.1 356 363.2 372.2 380 386.6 393.1 398.3 398.8 393.8 380.5 364.3 352.7 343.7 335.4 330.9 322.1 317.3 315.6 307.1 307 307.5 309.5 312.1 312 311.6 317.6 322.2 328.1 340.2 349.6 360.6 372.3 384.2 393.7 401.2 412.2 421.2 429.4 436.6 444.5 455.5 465.3 474.5 484.7 502.4 518.5 534 547.5 559.7 569.1 580.1 587.8 594.9 603.5 609.9 612 615.3 618.4 623.9 630.3
696.4 716.9 735.9 748.5 763.3 777.4 793.1 812.1 833.8 854.8 880.1 904.5 927.4 947.2 967.2 987.2 1003.7 1017.2 1003.3 1000.2 997.3 992 974.6 950.5 931.6 912.9 891.8 878.3 859.7 837.7 821.5 799.3 781 763.7 759.7 762.4 767.5 788.2 786.7 788.3 787.2 791.2 797.3 802.9 801.1 799.8 803.1 801.5 780.9 770.5 742.9 725.3 710.8 695.1 671 645.9 612.5 584.1 573.1 563.4 553.1 543.3 541.3 546.5 500.4 475.8 455.2 441.6 438.1 434.8 437.7 441.2 441.7 444.4 458.5 479 489.6 507.5 517.6 527.9 526.3 532.5 531.3 532.4 537 534.2 521.7 494.3 478.9 468.1 454 436.8 416.1 403.6 393.5 377.7 366.3 361.4 363.6 356.7 338.7 300.8 276 251.8 230.3 214.1 227.1 233.8 232 223.9 215.9 208.2 193.2 187.8 182.4 194.2 217.1 232 256.9 279.4 297.9 318.3 333.1 344.1 355 357.3 358.6 355.5 352.4 350.8 350.2 346.7 346.6 345.4 345.3 347.4 349.6 350.8 353.1 358.8 357 367.7 377.3 387.3 397.1 407.1 406.8 406.9 402.6 392.9 380 364.2 355.5 348.8 340.6 332.5 326.2 321.9 318.5 317.4 315.6 319.8 324.3 324.5 323.8 324.3 331.4 342.1 351 363.3 375 386.7 394.4 407.5 415.3 425 434.3 443.3 451.7 460.9 469.4 477 484.6 498.7 518.1 538.4 553.7 569.3 580 590.1 600.3 605.4 612.4 621 625.2 629.5 631.9 637.3 643 650.6
