ncols 200
nrows 82
xllcorner 350000
yllcorner 812950
cellsize 50
405.1 415.5 426.9 436.9 444 450.5 456 459.8 465 467 459.3 447.3 435.6 422.8 404.5 381.3 361.8 342.9 326.6 310.2 293.2 278.4 261.5 245.6 231.1 217.1 207.9 198.6 191.9 186.9 182.1 178.4 175.8 173.4 169.9 162.7 161.6 159.2 164.5 165.5 166.7 167.5 167.9 167.8 167.3 166.3 164.4 161.4 156 155.5 153 159.3 162.5 164.6 167.1 167.4 168.2 168.8 168.5 168.8 167.5 163.4 161.3 155.8 152.9 152 151 150.4 152 151.5 151.8 152.1 153.3 155 156 156.1 156.3 156.5 156 155.6 155.4 155.4 155.2 154.5 153.2 152.5 151.8 150.6 149.5 149.1 147.6 146.8 146.1 141.3 140.6 140.3 142.6 142.8 142.4 142.1 141.5 141.3 141.5 141.5 139.6 140.3 140.5 140 139.7 139.6 139.4 139.1 138.8 137.5 138 138.8 139.6 139.2 138.8 138.8 138.7 138.3 137.8 137.7 137.4 137.5 137.1 136.8 136.5 135.8 135.1 134.1 133.6 133.7 133.2 133.1 134.7 135.9 137.1 137.1 136.7 136 136.1 136.2 135.8 135.5 135.6 135.3 135.2 134.9 134.8 134.5 133.9 133 133.6 133.1 132.5 132.6 132.2 131.7 131.3 130.8 130.3 130.3 130.2 130 130.2 129.7 129.4 128.7 128.4 128.2 128.1 128 127.8 127.6 127 126.5 126.4 126.4 126.2 125.8 124.9 126.9 126.5 126.8 126.9 127 127.2 127.2 127.2 127.2 127 126.6 126.4 125.8 125.3 124.4 124 125.9
397.2 409.3 420.8 432.6 443 452.9 461.5 470.3 474.5 475.8 468.7 458.5 445.7 430.6 411.1 387.9 366.8 347 328.5 311.9 296.6 281.4 263.1 246.5 234 220.5 209.6 199.9 192.8 186.4 181.7 178.3 175.6 172.7 169.6 163.1 161.3 158.8 162.5 162.2 163.4 165.9 166.2 166.4 165.7 164.9 161.9 157.2 155.9 153.1 162.1 165.2 169.1 171.4 172.2 174.8 177.7 179.2 177.3 174.6 171.3 169.3 166.5 163.4 160 156 152.2 150.3 149 151 150.9 150.7 150.8 150.6 151 151.5 153.1 153.8 153.9 153.7 153.3 153.3 152.7 152.3 151.8 150.9 150.2 149.3 148.3 141.4 140.9 141.7 143.5 143.9 143.2 143.5 143.3 143 142.3 142 141.6 141.4 141.3 141 140.4 140.5 140.6 140.2 139.8 139.3 139.7 139.5 137.9 139.4 140.4 140.6 140.3 139.9 139.6 139.3 139.7 138.7 138.4 139.1 138.6 138 137.7 137.6 137.5 137.3 136.2 136.4 136.6 136 136.1 136.8 138 138.5 138.7 138.4 137.7 137.2 136.7 136.7 135.9 135.8 135.9 135.6 134.7 134.8 134.4 132.6 133 133.4 134.1 133.2 134.1 134.2 133.3 132.9 132.6 132.5 132.2 131.3 130.7 130.4 130.7 130.3 129.7 129.2 129.1 128.9 129 128.8 128.7 127.7 128 127.5 127 126.6 126.3 127.2 127.4 127.7 128 128.1 128.1 127.9 128.3 128.4 128.4 128.4 128.4 128 127.7 127.4 127.2 126.6 126.3 126.5
392.6 405.5 417.5 430.4 440.9 452.4 463.5 474.5 481.9 483.1 476.8 465 450.5 435.1 415.5 394.1 371.4 351.6 332.2 313.9 297.8 283.8 264.9 247.1 236.4 223.8 210.6 200.8 193.3 187.5 182.3 178.3 175.2 172.3 169.2 161.9 160.8 158.8 161.7 161.5 161.1 162.3 164 164.4 164.3 161.8 157.5 156.4 153.7 162.2 168.6 174.1 178.1 181.3 183.8 186.6 189.3 189.1 184.6 179.4 176.3 173.1 169.8 166.5 163.6 160.2 157 150.4 148.6 150.3 150 150.7 151 150.2 150.1 149.5 149.9 150.2 150.3 150 150.5 150.4 149.2 149.1 149.5 145.6 144.6 143.9 142.6 143.9 144 144.3 144.1 143.9 143.6 143.4 143.3 143 142.6 142.1 141.6 141.4 141.3 141.1 140.7 140.4 140.2 140.3 140.5 139.3 138.6 138.3 142.8 142.2 141.8 141.8 141.1 140.4 140 139.7 139.6 139.9 139.5 139.7 139.9 139.1 138.5 138 137.5 137.4 137.5 137.8 137.9 138.1 137.8 137.7 138.4 138.6 138.4 138.3 138 137.5 136.8 136.7 136.5 136.4 136.4 136.2 135.8 134.7 133.6 134.3 134.3 134.6 134.3 134 135.1 134.8 133.7 133.5 133.4 134.5 132.8 131.9 131.7 132.5 132.3 131.5 131.6 131.3 130.6 130.2 130.3 130.5 129.5 129.2 129.3 129.1 128.9 128.6 129.1 128.3 128.5 129.1 129.5 129.8 128.9 128.9 129.2 129.5 129.6 129.9 129.8 129.4 129.2 129 128.6 128 127.6 127.6
386.9 401.8 415.7 429.8 442.2 452.8 466.7 478.1 489.1 488.1 481.3 467.7 452.6 436.4 416.6 395.2 372.8 353.1 335 315 298.1 284 267.4 248.9 237.3 226.4 214.1 201.8 194.3 188.6 183.3 178.3 174.6 171.4 168.6 162.3 160.7 159.2 161.6 161.2 160.8 160.6 160.3 160.3 159.4 157.1 157.2 153.9 162.5 175.4 181.4 185 189.1 192.2 195.1 199.1 200.4 196.9 191 185 180.6 177.1 173.5 169.5 166.8 163.1 160.6 156.2 149.9 149.3 149.4 149.4 148.8 149.1 148.7 147.8 148 147.7 147.5 147.5 147.2 147.2 147.1 146.6 145.5 145.1 144.2 143.7 146 145.5 145.1 144.4 144.1 143.9 143.6 143.4 143.2 142.9 142.6 141.8 141.5 141.6 141.3 141 140.1 140.9 140.2 139.9 140.1 140 139.6 143.3 142.8 142.5 142.1 141.8 141.4 140.8 140.6 140.4 140.3 141.7 140.8 140.6 141.2 140.4 140.1 140 139.6 139.3 139.2 139 139.3 138.9 138.7 138.4 138.2 138.4 138.1 137.9 137.8 137.5 136.8 136.5 136.6 136.7 136.3 136 135.5 134.5 134.4 135.7 135.3 135.1 134.8 134.9 135 134.7 134 133.8 133.7 133.8 133.6 131.3 131.4 133.5 133.6 133.1 133.2 133 132.1 131.3 132.3 131.4 130.2 131.3 130.9 130.8 130.5 130.8 130.7 129.7 129.3 130.5 130.9 130.4 129.7 130.6 130.5 131.1 130.9 131.4 131.1 130.9 130.6 130.5 130.2 129.8 129.3 129
375.8 396.1 413 427.8 443.6 457.5 471.3 481.6 492.1 492.7 483.1 467.8 451.2 435.1 416 394.4 373.8 353.9 336 317.4 297.3 283.1 267.1 250.6 238.2 227 215.6 201.8 195 189.5 183.5 178.7 175.5 173.8 173.7 170.3 159.5 161.1 161 160.7 160.4 160 159.3 158.7 157.4 157.4 154.2 161 179 188.1 193.8 197.2 199.7 202.7 206 209.5 209 203.3 195.8 187.7 183.2 180.7 175.3 171.4 169 165.6 162.8 159.9 158.8 148.3 147.7 146.2 147.9 147.1 147 145.2 144.4 144.1 146.2 147.3 146.8 146.6 146.2 145.9 145.1 144.4 143.2 146 146.1 146.3 145.7 144.5 144.1 143.9 143.6 143.3 143.1 142.7 142.3 141.6 141.4 141.7 141.2 140.3 142.8 143.3 142.6 140.9 141.1 141.3 143.4 143.4 143.2 142.8 142.4 141.9 141.6 141.4 141.2 141 141 141.4 141.7 142 142.2 141.3 141 141 141.1 141.4 141.1 140.8 140.5 140.6 140 139.5 139.2 139.3 138.7 137.6 138 137.4 136.8 136.2 136.1 136.6 135.9 134.5 134.2 134.2 134.4 135.5 135.8 135.3 135 134.8 134.9 134.7 134.6 134.5 134.4 134.7 134.5 131.6 131.5 133.1 133.3 133.7 133.5 132.7 132.4 132.2 132.5 132 131.3 132.4 132.6 132 131.8 132.1 132.3 131.8 130.3 131.9 132.1 132 130.9 131.7 132.1 132.6 133.1 132.9 132.7 132.6 132.6 132.4 132 131.5 130.8 130.3
382 401.2 417.3 431.3 446.9 461 475.8 485 493.6 493.4 481.1 466.8 448.5 431.8 415.6 395.5 373.7 354.4 336.8 318.3 298.4 281.8 265.4 250.4 237.8 228.3 218 206.2 197.2 190.8 185.1 181.4 179.7 178.3 178 175 161.2 159.4 160.6 160.2 159.9 159.3 158.5 158.6 157.7 154.7 165 183.7 196 202.3 206.5 209.6 212.1 214.2 216.6 217.7 214 208.6 200.7 191.6 186.9 182.4 177.5 173.9 170.9 167.7 166.7 168.7 168.1 168 168.1 165.4 164.1 161.5 159.7 156.8 153.6 151.3 150.2 147.1 144 143.9 144.8 145.2 145.4 143.5 145.2 145.7 145.7 146.3 146 144.6 144.1 143.8 143.5 143.3 142.9 142.5 141.9 141.4 141.1 140.7 140.7 143.1 143.5 143.8 143.6 141.2 141.2 140.7 143.7 143.8 143.8 143.3 142.9 142.7 142.4 142.2 142.2 142.2 142.2 142.2 142.3 142.5 143.1 142.8 142.3 142.4 143.8 143.9 144.2 144.3 143.9 142.9 142.3 141.8 141.3 141.3 140.9 140.4 139.6 139.1 138 137.2 137.4 136.1 137 135.6 134.7 135 135.1 135.9 135.5 135.2 135.1 134.6 134.2 134.7 134.4 134.3 134.2 134.7 134.3 131.7 133.8 134.3 133.6 133.8 133.5 133.1 132.8 132.5 132.7 132.1 131.7 132.6 132.3 132.8 132.2 132.6 132.9 131.3 132.3 133.1 133.8 133.3 131.6 133.3 133.8 134.2 134.8 135.1 135 134.7 134.6 134.2 133.8 133.4 132.8 131.9
389.6 408.2 422.8 436.6 452.7 466.4 480.4 489.1 494.7 491.7 479.1 464.8 443.9 427.5 411.3 391.2 370.9 352.6 335.4 317.3 297.9 280.3 264.2 250.1 237.3 228 217.9 208.6 200.5 194.1 188.7 186.4 185.1 182.9 182.2 180.2 175.7 159.9 160.6 160.1 159.7 158.8 158.5 156.8 160.1 172.2 188.5 204.3 213.3 217.4 219 220.4 221.8 224.5 223.8 225.5 222 214.7 206.3 197.2 190.4 185.5 182.4 177.5 174.1 170.8 170.8 173.1 174.7 176.4 178.5 178.2 177.1 174.8 171.5 166.9 161.4 157.6 154.2 150.6 150 149.5 148.1 147.3 146.8 145.8 145.5 145.5 145.5 145.9 145.2 144.6 144.1 143.8 143.3 142.9 142.5 142.3 144.5 144.3 144.8 144.8 144.9 144.8 144.4 144.1 144.4 142.8 142.1 142.3 142.2 144 144.1 144.3 144.3 144.2 144.1 143.9 144.4 144.2 143.9 143.9 144.1 144.3 144.6 145.5 144.9 145.2 146.2 147.6 148.8 148.6 147.8 147.3 146.8 146.2 145.8 145.5 144.6 143.1 142.6 140.7 140 139.6 139.5 140.7 139.4 138.7 137.6 136.1 135.8 135.9 135.7 135.8 136 135.6 135.2 134.7 134.5 134.4 134.1 133.4 132.4 132.9 135.8 134.9 134.1 133.9 134 133.6 133.3 132.9 132.8 132.4 132.2 132.6 133.6 133.3 132.2 132.7 131.6 132.7 133.4 133.7 134.2 133.5 133 134.6 135.2 135.8 136.5 137.1 137.1 137.2 136.6 136 135.6 135.2 134.5 133.6
394.9 412 426.1 442.7 461 472.6 484.8 492.8 496.9 492.6 476.4 459.6 442 423.9 406.6 384.9 367.3 350.3 332.8 315.2 295.7 279.9 263.5 249.6 238.3 231 222.3 215 205.6 197.7 194.3 193.7 192.5 191.8 189.8 186.9 184.4 179.2 157.4 157 156.7 156.2 156 169.5 181.8 196.2 209.7 221.5 227.6 229.7 231.1 231.4 235.1 238.5 237.3 236.2 230.6 220.8 209.6 201.6 194.5 189 185.8 181.3 177.5 175.9 176.8 179.1 182.6 184.1 186 184.9 182.9 179.2 176.2 173.5 167.2 162.3 158.2 155.4 153.6 151.5 148.2 147.6 147.1 146.5 145.5 145.2 145.4 145.6 145.1 144.5 144 143.8 143.4 143.5 144 145.2 145.8 145.4 145.5 145.6 145.3 144.9 144.7 144.6 145.1 142.7 142.3 142.5 144.5 144.6 144.9 145.1 145.8 146.1 146 145.9 145.7 145.8 145.5 145.7 145.9 146.1 146.7 147.3 148 148.4 149 149.4 152.4 154.8 154.4 154.8 155.3 154.4 151.4 151.4 150.6 149.3 148.3 144.6 145.5 145 143.8 141.8 138.5 138 137 136.9 135.9 135.3 135.2 135.9 138 136 136.5 136.6 135.8 132.5 132.3 133.2 134.1 135 135.7 135.5 134.8 134.6 134.7 134.2 133.8 133.2 133.1 133.1 132.8 133.1 133.3 133.2 132.2 132.3 133.2 133.6 133.6 133.8 133.9 134.2 135.1 135.6 136.2 136.9 138.4 139 138.8 139.1 138.3 137.6 137.2 137.1 136.3 135.5
399 415.4 432.7 450.4 467.9 479.7 491.3 498.3 499.4 491.6 475.7 458.9 442.5 425 406.8 385.8 367 349.1 330.2 312.7 296.6 281.3 265.9 255.5 244.5 234 226.7 218.9 209.4 204 205.4 203 201.6 202 198.7 199.6 194.3 191.7 185 181.4 183.7 187.6 192.1 197.3 204.3 216.5 228 237.2 241.5 242.9 242.9 243.1 248.9 252.6 249.4 247.2 239.8 228.6 216.3 207.7 198.5 192 188.3 185 181.8 182 183.6 186.2 188.7 192.9 192.1 190 186.5 182.5 179.6 174.8 169.8 164.7 159.9 157.1 155.1 153.4 149.7 148.2 147.5 147.2 146.2 145.5 145.4 145.3 145 144.4 144 143.7 143.3 142.5 142.6 145.5 145.5 145.6 145.2 145.2 145.2 145.2 145.1 145.1 145.2 143.7 142.3 143.3 145 145.2 145.5 146.1 146.9 147.6 147.9 147.2 146.5 147 147.2 147.3 147.6 148 148.6 149.2 150.1 151.2 151.9 154.3 157.8 159.5 159.1 160 160.7 159.3 157.7 156.2 155.2 153.5 150.4 150.9 150.4 148 146.5 144.7 143.6 142.7 142.3 141.8 141.4 140.4 138.8 134.4 135.3 134.6 133.8 133.1 132.5 133.6 134.6 135.1 135.5 135.6 136.3 136.1 135.6 135.3 135.4 134.9 134.3 134.7 134.2 133.7 133.4 132.4 133.5 133.5 133.2 133.1 133.9 134.3 134.2 134.2 135 135.5 136.1 136.6 137.2 138.2 139.2 139.7 139.7 139.5 139.2 138.8 138.2 137.8 136.9 135.9
402.4 419.4 436.9 456.6 475.5 487.2 498.1 503.9 502.9 494.2 478.6 461.8 445.6 428.2 410.4 389.1 368.4 349.4 330.6 314.7 301 284.7 269.5 260.3 250.4 237 228 220.2 212.1 214.6 219.5 221.9 222.5 218.6 215.9 212.9 209.7 205.8 202.8 201.4 205.3 210.5 215.4 221.6 227.4 236.1 246.2 253.8 258.1 257.3 254.9 256.3 262.2 263.4 259.8 253.4 246.8 235.6 224.8 213.8 204.7 197.8 191.7 189.2 187.9 189.8 191.9 194.4 194.9 194.4 194.3 192.3 188.5 184.5 180 174.8 169.7 164.6 160.3 158 156.3 154.6 152.4 150 148.5 147.3 146.7 145.6 145.4 145.1 144.8 144.3 143.9 143.8 143.5 142.6 142.7 145.5 145.5 145.5 145.2 145.1 145.1 145.2 145.4 145.5 145.4 143.9 143.5 144.6 145.4 145.6 145.8 146.4 147.3 148.3 148.3 148 147.3 147.3 147.8 147.8 148.2 148.6 149.6 150.5 151.1 153.1 156.1 157.8 161.4 163.1 163.7 163.2 162.5 161.7 160.7 159.5 158.1 156.4 154.8 152.9 151.1 150.6 149.2 147.7 146.4 145.4 145.4 145.2 144.9 143.6 142.5 140.7 138.5 136.4 136.2 135.8 136.6 136.8 136.8 136 135 135.7 136.3 136.5 135.7 135.5 135.1 134.7 134.4 135.2 134.9 134.2 133.6 134.4 134.3 134.3 134.3 134.4 134.6 134.9 135 135.2 135.6 136.1 137 137.6 137.9 138.5 139.7 140 140.1 139.9 139.5 139.1 138.5 137.8 136.3 136.1
406.7 424.6 445.5 464.8 481.6 494.5 505.2 512 508.5 498.6 483.2 466.1 449.3 432 414.6 393.3 370.1 350.7 331.5 314.7 301.2 287.3 273.7 264.2 251.8 238.7 228.1 225.7 227.3 230.4 233.8 237.8 236.3 234 231.4 227.5 226.4 224.1 222 223.1 226.1 231.2 236.8 243.3 249.7 256 262.3 270.3 273.8 271.9 269 269.1 273 273.2 265.7 259.7 252.4 242.3 230.6 220.1 209.8 201.4 196 195 196.6 200.3 202.1 203.5 202.8 200.3 198.3 194.2 189.5 184.3 178.7 173.5 168.5 163.9 160.3 158.1 156.4 154.8 151.8 149.3 147.8 147.4 147 146 145.5 144.9 144.6 144.2 144.1 144 143.7 142.9 145.8 145.9 145.6 145.6 145.8 145.2 145.2 145.4 145.6 145.8 145.7 143.5 142.8 144.8 146.6 146.5 146.4 146.6 147.3 147.7 147.4 147.2 147.2 147.3 147.7 148.2 148.3 150.1 150.9 151.9 153.2 157.1 160.9 163.5 165.7 166.3 165.8 164.9 164.4 163.5 163 161.4 161.6 158.7 156.3 154.3 153 151.9 151 149.4 148 147.2 147.2 147.8 148 146.4 144.7 143.1 142.1 141.4 140.5 139.7 137.9 137.8 137.4 137.3 137.3 137 137.1 136.8 136.1 135.6 135.4 135.6 135.1 135 135.2 135.1 134.8 134.9 135.4 135.2 135.3 135.6 135.7 135.9 136.1 136.5 136.4 136.5 137.4 137.6 138 138.9 139.8 140 139.9 139.2 139 138.7 138.3 137.7 137 136.1
413 431.7 454.1 472.1 488.8 501.1 511.4 519.4 515.8 503.5 489.4 469.2 450.7 433.7 417 396.3 371.9 351.9 332.3 315.2 301.3 289 277.6 265.1 251.9 239.1 239.1 239.2 240.7 244.5 249.6 253.9 254.7 251.7 247.5 243.4 242.2 240.6 242.6 243.7 245.7 250 256.5 263.9 269.8 274.5 280.5 287.8 289.8 286.8 281.6 282.1 286.2 284.8 276.7 268.8 259.6 248.6 238.5 226.9 215.6 206.8 202.7 203.8 206.8 210.4 210.7 210.6 209.7 208.4 202.7 197.2 192.2 185.4 179.2 173.4 167.7 163.8 161 158.5 156.3 154.5 153 149.3 147.5 147.2 147 146.5 145.5 144.8 144.5 144.4 144.5 144.2 143.4 146.8 147.7 147.4 147.6 147.6 147.5 147 146.8 146.8 146.5 146.2 145.5 144.1 143.7 145.7 147.3 147.6 147.2 146.9 147.3 147.2 147.4 147.3 147.2 147.8 148 150 151.7 152.8 153.6 155 157.1 161 165.8 168.4 169.8 170.2 169.8 168.6 167.3 166.4 165 163 162.4 160 157.9 160.2 157.1 153.1 151.9 150.3 148.4 147.6 147.6 147.9 147.2 146 144.8 143.6 142.8 142 141.4 140.6 139.4 138.5 138.1 137.8 137.5 137.3 136.8 136.6 136.2 135.2 135.6 135.8 136 135.9 135.4 135.5 135.5 135.5 135.7 136 136 136.3 137.6 137.3 137.3 137.4 137.4 137.4 137.6 137.7 138.4 139.4 140 139.7 139.7 139.6 139.3 138.9 138.2 137.7 137.2 136.6
423.9 444.3 462.7 480.7 495.7 508.8 518.7 525.3 520.2 508.8 495.1 474.6 453.4 434 418.5 398.8 374.4 353.6 333.7 316 301 288.7 275.6 260.6 253.7 254.4 253.4 251.6 254.3 257.9 266.8 273.2 273.4 269.1 264.7 261 259 258.3 257.4 259.2 262.7 269.9 274.8 282.2 288.8 293.3 299.3 306.3 305.8 300.3 295 293.2 296 294.7 287.2 276.2 268.5 257.6 246 233.8 222.5 214.1 209.9 210.9 213.9 218.2 218.3 218 216.1 213 207.1 200.1 193.8 186.2 180.1 174.7 168.8 165.3 160.8 158.3 156.6 155 152.3 149.5 147.9 147.2 146.9 146.4 145.7 145.1 144.6 144.5 143.9 147.3 148.3 148.3 148.9 149 149.2 149.9 149.3 148.9 148.9 148.9 148.8 148 146.8 144.1 143.8 146.7 148 147.9 147.6 147.3 147.3 147.4 147.5 148.1 148.6 149.4 151.1 153 154.8 156.5 157.8 159.6 162.4 166.3 169.8 173.1 175 174.9 174.6 174.8 173.3 170.7 168.2 167.2 165.1 162.9 160.2 159.3 157.2 154.3 152.9 151.2 148.9 147.8 147.3 147 145.9 144.9 143.9 142.8 141.7 140.7 140.4 139.6 139 138.3 137.6 136.9 136.8 136.6 136.5 136.2 135.9 135.5 135.6 136.2 136.2 136 135.8 135.9 136 136.1 136.4 136.6 136.9 137 138.5 138.3 138 138.1 138.2 138.2 138.1 138.2 138.7 139.7 139.9 140.3 140.5 140.3 140.2 139.5 139.1 138.9 138 137.3
436.1 455.3 472.6 488.4 502.8 515.1 524.7 529.8 526.2 515 495.8 476.3 455.6 433.8 419.8 400.1 376.5 354.4 334.5 315.4 300.2 285.4 275 272.1 271.2 271.4 267.7 265.7 267.2 272.9 282.2 290.3 292.8 288.2 281.1 279.3 278.1 277.5 275.7 276.5 280.8 287.1 294.4 301 306.5 311.4 316.6 322.1 320.8 316.5 310 304.9 304.7 302.5 296.4 285.7 276.6 265.8 253.8 242.4 233.8 225.4 222.6 221.5 223.1 226.9 227.3 224.3 220.3 214.7 208.5 202.3 194 186.8 180.5 175.4 169.9 166.4 161.9 158.4 156 154.1 151.2 148.6 148.3 147.5 147.3 146.7 146.7 146 145.7 146.2 147.8 148.3 149 149 149.7 150.2 150.7 151.3 150.8 150.7 150.7 150.8 150.8 149.9 146.9 144.3 144.6 145.6 148.7 148.3 147.9 147.8 148.1 148.4 149 149.9 150.8 152.7 155 156.8 158.6 161.3 163.7 165.9 168.2 171.6 174.4 176.5 177.1 176.5 175.4 175.1 173.9 171.4 169.7 168.5 166.4 164.4 161.7 159.7 157.7 155.7 154 151.9 150.4 148.7 148 147.3 145.8 144.9 143.8 142.6 141.5 140.2 139.4 138.9 138 137 136.4 135.5 136 135.8 136 135.8 135 135.8 135.6 135.7 135.8 135.9 135.9 136 136.1 136.3 136.5 137.2 137.4 137.5 137.7 138.3 138.8 138.9 139 139.1 139.1 139 140 141 141.6 142.1 142.3 141.8 141.3 140.7 140.6 140 139.3 138.7
446.5 462.4 480 495.1 507.2 518.8 529 531.6 527.8 517.7 497.7 478.4 457.4 434.6 419.8 400.7 378 355.5 334.6 315 298.4 294.8 290.4 284.9 284.5 284.4 284.2 282.2 286.4 290.7 297.5 305.8 312 308.2 300.4 300 299 298.7 298.2 299.7 303.2 306.2 312.4 319.2 323.4 327.4 331.8 334.8 333.2 328.7 322.7 315.8 312 311 305.1 295 282.6 274.5 261.2 251.9 244.2 240.1 239.5 232.2 230.2 233.9 231.5 227.4 221.8 215.8 210.1 204.1 196.7 188.7 182 175.6 171.2 167.6 162.5 158.1 155.3 153.2 150.6 150.1 150.3 150.8 150.3 150.8 150.3 149.6 148.9 149.1 148.1 148.6 149.2 149.7 149.9 150.1 150.4 151.7 151.7 151.9 152.1 152.1 151.7 151.1 146.2 142.9 145.5 145.5 148.9 148.8 148.2 148.6 149.4 150.7 152 152.4 154.2 156 158.3 160.8 163.7 167.1 168.9 171.2 173.1 175.1 177.2 177.6 177.2 176.2 174.8 173.3 171.7 169.4 167.7 166 164.1 161.7 159.7 159.4 156.1 155 152.9 151.4 150.1 148.5 147.8 147.3 145.9 144.9 143.8 142.6 141.3 139.9 139 138.4 137.6 136.5 136.4 135.9 135.8 135.8 135.3 134.7 135.5 135.8 135.6 135.7 135.7 135.7 136.2 136.7 137.1 137.2 138.2 138 138.2 138.6 139.2 139.6 140 140.1 140.1 140.2 140.3 140.6 141.5 142.3 143.3 143.7 144 143.8 143.2 142.2 142 141.2 140.6 140
453.1 468.2 482.1 495.9 508.9 520.4 528.7 531.4 527.2 517.5 499.6 479.5 458.4 435.6 418.3 400.6 378.5 355.4 334.9 315.8 314.3 312.9 310.9 305.4 298.4 297.8 298 298.1 300 305.3 311.2 318.5 323.4 322.7 321.3 320.9 318.4 316.7 315.4 314.2 317.3 320.5 326.4 332.7 335 339.3 342 345.1 343 339.6 332.9 323.4 317.1 314.7 309.9 301.3 288.1 279.4 268.5 259.4 253.1 249.7 247.5 239 232.9 234 231.8 227.4 222.2 216.2 210.1 204.1 195.7 187.9 181.5 177.2 172 165.8 161 157.7 155.5 154.4 151.7 152 153.8 155 157.5 160.2 158.5 156.7 154.7 154.3 152.7 151.9 151.5 150.7 150.2 149.9 150 150.9 151.6 152.2 153.3 153.3 152.6 150.2 146.2 142.9 145.7 146.3 149.8 149.6 149.5 150.5 151.8 154.7 155.9 156.4 158.8 161.6 163.7 166.2 169.1 171.3 174 174.6 176 177.5 177.8 177.7 176.7 175.5 173.3 171.5 169.3 167.7 165.8 163.6 161.5 161.4 158.8 156.8 154.5 153.2 151.6 150.9 149.1 148.1 147.3 146.6 146 144.4 143.4 142.5 141.2 139.7 138.5 137.8 136.9 136 135.3 135.9 135.6 135.2 134.8 135.6 135.8 135.7 135.7 135.7 136 136.3 137.3 138.6 139.3 139.9 141.1 141.3 141.3 141.5 141.5 141.6 141.7 141.6 141.7 142 141.9 142.3 142.7 143.5 143.7 144.3 144.9 144.6 144.3 143.8 143.2 142.6 142 141.4
456.3 469.8 481.5 494.1 506.6 517.8 526 529.5 526.1 515.2 499.5 479.7 460.1 437.8 417.9 399.6 377.6 356.5 334.7 334.4 333.4 327.8 323.9 322.2 318.4 314 312.2 312.8 314.2 319.3 325.4 329.4 333.4 335.6 336.7 333.9 331.2 328.8 327 324.9 326.2 329.4 334.2 338.6 342.4 345.9 347.5 350.1 349.1 346.7 340.5 331.5 320.2 316.5 314.5 305.3 292 281.7 274.1 266.1 260.7 256.2 251.5 245 236.5 234 231.1 226.8 222.9 216.7 210.8 204.2 195.5 187.8 181.4 176 170.4 165.6 161.8 158.4 157 155 154.2 156.4 158.5 159.7 161.2 162.5 161.8 160.3 158.7 157.6 156.5 155.1 153.2 152.3 151.9 151 150.1 150.3 150.9 151.3 153.1 152.3 150.4 148.1 146.4 145.6 146.3 148.7 150.8 151.2 151.6 154.8 157.6 160.5 161.2 163.9 166.5 168.1 170.5 173.7 175.3 177.1 178.2 178.8 178.6 178.4 178.1 177.2 177.7 174.6 172.6 170.5 168.7 167 164.7 161.9 161.9 159.7 158.3 157.3 154.4 152.2 150.5 148.6 147.4 147.2 146.7 145.7 145.1 144.1 142.5 141.8 141.1 139.7 138.7 138 137.2 136.2 135.7 135.7 135.2 134.9 134.6 135.4 137 135.7 135.8 135.8 136 137.2 138.8 141 142.5 145.9 146.2 146 146 146 145.7 145.4 145 144.5 144.1 143.9 143.8 143.6 143.6 143.6 143.6 144.2 144.7 144.5 144.2 143.8 143.2 142.6 142.2 141.8
455.1 467.6 478.4 490.4 501.6 513.2 521.4 527 523 514.7 499.8 481.2 462.3 439.5 418.8 399.7 380.5 361.4 352.8 353.4 352.2 348.2 343.7 338.4 334.8 332.7 330.1 329.5 330.4 336 339.4 341.2 345.3 347.3 345.4 341.9 339.1 335.7 333.8 331.5 330.6 333.1 336.1 340 343.3 346.4 349 350.4 350.9 348.9 343.2 333.6 323.7 317 312.4 304.9 293.5 282.7 277.9 270.8 264.9 261 256.5 249 240.7 235.2 232.1 229.4 223.4 215.4 209.6 203.1 195.3 187.7 180.9 175.5 170.1 165.3 161.7 159.2 157.8 156.6 159 163.5 164.6 166.3 164.7 164.4 163.8 162.8 161.3 160.2 159 157 155.6 154.2 152.9 151.9 151.1 150.6 150.3 150.5 150.6 149 148.4 147.9 145.4 146.8 146.9 149.9 152.1 153.3 156.3 160.1 163.3 165.9 167.9 170.1 174.3 176.6 179.1 180.2 181.1 181.4 181.4 180.6 179.9 179.3 177.9 177.3 176 174.9 172 170.1 168.2 165.6 164.5 162 160.7 159.7 157.1 156.1 154.2 151.3 149.7 148.4 147 146.8 146.2 145 143.3 142.5 141.6 141.1 140.4 139.6 138.6 137.7 137.1 136.5 136 135.3 135.8 135.7 135.1 135.7 135.7 135.5 135.7 135.7 136.2 137.2 139.2 142 143.3 147.1 146.9 147 147.2 147.4 147.5 147.5 147.6 147 146.4 146.1 145.8 145.2 144.1 144.4 144.2 144.4 144.6 144.2 143.8 143.2 142.5 142.2 141.7 141.1
451.6 463.5 473.5 483.7 494.6 505.3 515.8 519.9 519.1 513.1 501.2 484.2 465.2 443.9 424.5 404.9 385.2 370.5 374 372.1 368.3 365.4 361.5 356.6 353.1 350 346.5 349.1 349.5 350.7 352.2 354 357.3 356.8 353.2 348 343.4 339.8 336.5 333.7 330.8 332.5 334.2 337.3 340.1 342.7 345 347.1 349.4 348.4 342.4 333.6 325.4 319.6 314.5 305.4 293 284.4 278.9 273.9 267.9 263.7 259.4 253.6 244.3 237.1 232.4 227.2 219.7 212.7 206.5 200.7 194.3 186.5 179.1 174.6 169.4 164.8 162.9 159.8 159.4 160.3 163.8 169 173 173.6 172.5 171.3 169.4 167.1 165.1 163.3 161.4 159 157.8 155.6 153.7 152.5 151.7 151.2 150.9 150.2 149.6 148.8 148.5 146.2 147 148.7 148.5 150.9 155 157.7 161.3 165 168 171.1 175.4 181.1 184.5 186.1 186.6 186.5 185 184.4 183.5 182.3 180.9 179.8 178.3 176.9 175.1 173.6 171.5 169.4 167.6 165.1 164.4 162.2 160.9 160.2 157 156.3 154 152 150.8 149.5 148.3 147.3 146 144.8 143.6 142.8 141.6 140.5 139.8 138.8 138 137.1 136.8 136.3 136.4 135.9 136 135.9 134.8 135.2 135.3 135.4 135.6 135.9 136.3 137.1 139 141.5 143.7 145.5 145.4 145.7 146.1 146.4 147 147.3 147.4 146.9 146.7 146.6 146.2 145.3 144.4 144.4 144.1 143.7 143.7 143.1 142.8 142.5 141.8 141.1 141 140.6
446.6 457.3 467.7 476.1 486.3 495.7 505.6 512.5 514.6 512 502.9 488.4 471.2 450.3 432.8 414.8 397.1 392.3 391.5 389.7 388.3 383.7 378.2 374.5 373.1 370 367.8 366.9 365.2 366.2 366.8 367.8 368.1 366 361.6 352.9 346.6 341.2 336.7 333.8 331 330.2 330.2 332.4 334.6 336.6 339.3 342.7 345.6 347.1 344.2 337.4 326.9 320.8 316 307.3 296.1 286.4 279.2 274.8 269.5 265.1 259.5 253.5 244.6 238.1 231.9 223.8 215.3 209 202.9 197.4 192.6 185.2 178.5 173.1 168.9 164.7 162 160.8 161.7 166 168.3 174 177 175.7 174.2 172.6 170.7 168.6 166.2 163.8 161.3 158.8 157 155 153.7 152.4 151.3 150.5 150.3 150.3 149.7 149 148.3 146.8 147.7 148.6 150.9 154.2 157.5 161.7 165.3 169.1 172.5 177.2 185 192.1 194 193.4 192.7 191.9 189.9 187.8 185.9 184.2 182.5 180.2 178.7 176 174.1 171.5 169.4 168.2 166.3 164.4 164.3 162.6 161.2 160.5 157.4 155.9 154.2 152.4 151.5 150.5 150 148.7 147.5 146.1 144.6 143.1 142.3 140.9 140.1 139.5 138.3 139.2 136.8 136.9 136.5 136.5 135.8 135.4 135.4 135.5 135.3 135.8 136 136.1 136.4 137.2 138.5 141 143.5 144.7 144.4 144.3 144.9 145.6 146.3 146.7 147 146.9 146.6 146.3 145.5 144.8 144.2 143.9 143.8 143.5 142.5 142 141.7 141.5 140.8 140.1 140 139.7
439.3 449.1 460.5 469.1 477.3 486.4 495.4 504.2 509.3 509.8 505.4 492.8 478.7 462.1 446 428.9 418 412.8 412.8 411.5 407.7 402.9 398.8 393.9 388.7 386.5 384.1 381.9 379.6 379 379.5 379.3 377.4 374.3 365.9 357.3 348.7 342 335.9 332.3 328.9 327.1 326.8 327 328.6 330 333.3 337.5 341.1 344.3 345.7 342.1 331.9 320 314.8 307.6 297.5 286.7 277.6 273.9 268.8 263.2 256.8 251.3 243.5 237.1 230.8 221.7 212.5 205.7 200.5 194.6 189.6 183.8 178.1 173.2 169.8 166.4 163.1 162.9 164.4 167.2 171.3 174 175.8 174.8 173.7 171.6 170.4 168.4 166.7 164 161.3 159.3 157.2 155.1 153.7 152.4 151.4 150.8 150.6 150.5 150.3 149.6 147.5 145.1 149.5 152.4 156.8 160.3 162.8 165.9 169.6 173.5 178.6 184.8 192.8 200.3 202.3 200 198.2 196.4 194.1 191.8 188.8 185.9 183.6 181.8 179.3 176.1 173.7 171.7 169.4 167.8 165.7 164.8 164 162.5 161.4 160.6 158.7 157.5 155.9 154.6 153.4 152.9 152.2 150.4 149.2 147.2 146 144.7 143.2 141.9 140.5 139.6 139.1 138.3 137.9 137.3 137.2 136.2 136.4 136.4 135.8 135.7 136 136.4 136.4 136.5 136.7 137.6 139.1 140.8 142.7 144.5 144.3 144.4 144.6 144.7 145.7 145.4 145.6 145.8 145.9 145.2 144.9 144.3 144 143.4 143.4 142.6 142.4 141.4 141.3 140.6 140.2 139.7 139.3 139.1
433.1 441.9 450.8 461 467.2 474.8 486.5 496.2 503.4 507.8 507.7 498.1 486 473.4 460.5 450.2 439.1 433.6 430.8 428.4 424.6 419.9 414.2 408.7 403.2 399.1 395.7 393.8 391.8 390.5 390.4 389.2 386.3 380.2 371.4 363.1 353.2 343.6 335.7 332 327.5 324.4 323.1 322.4 323.1 324.2 327.3 331.9 336.3 340.4 344.6 343.6 332.7 321.6 314.1 307.2 298.3 291 279.1 271.6 265.2 260 253.9 247 240.4 234.5 227 218.7 210.8 205.2 198.6 192.9 187.8 183.8 179.5 174.8 170.3 167.8 165.4 164.6 166.1 169.3 170.5 173.8 174.4 173.7 172.5 171 169.5 168.1 166.4 164.7 162.5 160.2 158.2 156.2 154.6 153.1 152.2 151.8 151.3 150.9 150.6 149.6 147.7 147.3 152.8 158.3 162.3 165.8 169.3 172 174.3 178.3 182.8 189.7 197.7 204.2 207.9 204.9 201.6 199.4 197.3 195 191.3 188.2 185 182.5 180.2 177.3 174.4 172.4 169.4 167.6 165.5 164.6 165 164.3 162.4 161.2 160.1 159 157.9 156.6 155.3 154.4 153.9 152.5 151.3 149.4 147.8 146.4 144.7 143.2 141.5 140.5 139.7 139.4 140.2 138.8 136.8 136.7 136.8 136 135.5 135.8 136.4 136.4 136.6 137 137.9 138.7 140 141.1 142.3 144 144.7 144.3 144.2 144.4 145.5 147.3 145.8 145.5 145.4 144.5 144 142.7 142.7 142.8 142.8 142.6 141.6 141.5 141.3 140.8 140.3 139.9 139 139
426.7 434.7 442.9 451.8 458.7 466.8 477.7 488.4 496.6 503.1 505.4 500.8 492.3 482.9 473.2 463.6 455 448.1 442.4 438.6 435.9 430.1 425 420.2 414.4 408.9 404.6 402.2 400.1 399.6 399.1 397.6 393.9 388 378.2 369.5 360.8 346.9 336.4 330.1 327.1 322.7 319.3 318.3 318.5 319.3 322.4 326.5 331.3 336.6 340.6 341 332.3 322.4 313.5 305.4 297.4 291.2 280.4 270.4 261.3 252.8 245.6 239.9 235.5 229.7 222.9 215.6 208.5 202.4 197.3 192.6 187.6 183.9 179.5 174.8 171.6 169.5 167.9 169.2 167.7 171.3 172 173.2 174 173.3 172.5 171.8 170.4 168.9 167.2 165.5 164.1 161.8 159.7 158.2 156.6 155 153.9 153.4 152.7 152.2 151.9 150.7 148.3 150.8 158.1 162.9 165.7 169.2 172.7 175.8 178.3 182.6 186.7 192.4 200.5 206.5 207.8 207.3 203.9 201.3 199.3 197 194.2 191 187.5 184.4 181.6 178.7 176.5 174.4 172.5 170.9 169.1 166.3 164.8 164.9 165.2 164.9 164.7 160.9 159.5 158.6 156.2 155.7 154.8 153.7 152.4 150.7 149.1 147.1 145.4 144 142.8 141.8 140.5 139.8 139.3 139 137.7 137.1 136.4 136.4 136.2 135.9 136.6 136.8 137.3 137.8 138.7 139.8 141 142.1 143 144.4 144.5 145 145.2 145.4 145.9 146.2 145.7 146 145.2 145.1 145.4 145.2 144.9 144.8 144.3 143.3 143.7 141.7 141.4 141 140.5 140.1 139.5 138.9
419.5 426.8 435.8 443.5 450.8 460.7 471.6 481.2 490.7 498.1 502.6 502.7 498.1 489.8 480.7 472.3 463.6 456.4 449.6 443.9 439.3 434.1 430.3 425.2 418.8 413.7 409.7 407.1 405.5 405.5 405.1 403.8 399.7 392.2 382.9 373 363.2 352.6 339 329.8 325.1 321.1 316.7 312.9 311.5 313.4 317.1 321.3 325.6 330.8 334.7 334 328.5 319.9 311.7 305.9 300 293.3 282.8 270.2 261 252.7 246.9 240.2 235.1 229.5 223.4 216.3 209.5 204 198.6 193 188 185.3 181.6 176.4 173.9 171.4 170.6 172.5 171.5 172.7 173.5 174.3 174.7 174.1 173.4 172.7 171.6 170.1 168.5 167.4 166.2 163.7 161.8 160.4 158.7 156.8 156.1 155.2 154.3 153.8 153.6 152.2 148.7 150.7 161.3 166.9 169.7 172.4 175.7 178.3 182.1 185.3 189.4 194.8 201.2 203.8 206.7 205 202.9 201.4 199.6 198 196.2 193.2 190.1 187.1 184.8 181.5 179 176.3 175 174 171.3 167 166.8 165.5 165.8 165.6 165.3 165.4 160.1 159.1 158 156.5 155.7 154.7 153.5 151.5 150 148.2 146.9 145.5 144 143.1 141.7 141 140.5 140 139.5 138.7 137.4 136.5 136.6 136.9 137.3 138.1 138.3 138.6 139.7 141.2 142.6 143.6 144.5 144.7 145.6 146.1 146.6 146.8 147 147.2 147.3 147.4 146.9 146.5 146.1 145.6 146.2 146 145.1 144.2 143.7 143.1 142.2 141.9 141.5 141 140.6 140.2
410.8 417.8 426.8 435.3 442.7 452.2 464.9 475.6 486.7 495.6 499.7 503.3 503.6 499 489.1 479 469.1 460.9 453.1 445 438 432.3 426.7 421.8 416.2 412.1 409.1 407.3 406.4 407.3 407.2 406.6 402.4 395.6 387.5 377 364.3 354.3 342 330.6 322.3 316.3 310.8 307.4 305.9 309.1 313 317.1 320.5 324.4 327.6 329.4 325.7 319.9 312.1 303.6 297 290.1 281.9 271 260.7 251.6 245.2 239.7 235.2 229.9 224.5 217.8 211.9 206.1 200.6 194.5 189.7 186.4 183 178.7 176.1 173.6 173.4 175.7 174.8 174 174.8 175.5 175.6 175.8 175.1 174.4 173.4 172.4 171.6 170.2 168.7 166 163.7 162.6 161.4 161.1 160.6 158.6 156.7 155.8 154.8 149.2 149.6 149.4 162.8 169 172.2 175 178.3 181.8 184.6 187.3 191.3 195.9 200.8 203.4 204.1 203.6 202.7 201.5 200.6 199.5 197.8 195.7 192.9 190.5 188.1 185.1 182.2 180 177.6 175.7 174 174.6 169.8 165.7 165.9 165.7 165.5 165.6 161.8 161.8 161 157.2 156.5 155.4 153.1 152.1 150.7 149.1 147.7 146.2 144.7 143.5 142.2 141.6 141 140.7 140.4 140.1 139.4 139 139 139.1 138.5 139.1 139.9 140.3 141.3 142.3 143.2 144.2 145.3 145.8 146.7 147.5 148.6 148.9 149.3 149.9 149.5 149.3 148.8 148.5 148.3 148.1 148.1 148 147.4 146.9 146.2 145.2 144.4 143.8 143.1 142.2 141.7 141.1
400.8 407.5 416.3 426 435.9 446.7 458.3 469.2 480.9 488.8 495.2 499.3 502.3 501.9 495.2 483.9 472.6 462.2 452.4 441.8 433.9 426.2 420.3 415.3 410.9 407.4 403.5 400.7 402 402.9 403.5 402.5 400.2 394.7 388.4 381.2 366.7 353.4 341.5 333.8 323.2 315.3 307.3 300.8 300.3 302.9 306.8 310.9 314.1 317.5 320.2 323.1 323.4 319.5 313 305.5 297.2 291.3 283.4 273.3 261.5 251.8 243.1 237.8 233.3 228.5 223.6 218.5 213 207.2 202.2 195.5 192.4 188.1 184.7 181.2 178 177.2 176.9 177.2 176.1 175.7 176.2 176.8 177.1 177.5 177.7 177.2 176.5 175.9 174.8 173.2 171 168.5 165.8 164.4 163.5 162.9 161.6 160.4 159.1 157.7 155.1 149.9 149.7 149.9 161.4 168.4 173.4 177.4 181.2 184.1 186.5 189.7 192.5 196.3 200 202.5 203.4 203 202.6 202.7 202.1 201.3 200.2 198.1 194.9 193.1 190.7 188.2 184.8 182.8 180.2 177.8 176.2 175.5 175.2 172.9 168.1 165.6 165.6 167 165.8 164.8 163.4 162.7 160.4 156.8 154.9 153.3 151.5 149.7 148.2 146.8 145.4 143.7 142.7 142.6 142.6 142.8 142.5 142 140.9 139.6 139.1 140 139.3 140.1 140.2 141.6 143.1 143.5 143.9 144.9 146 147.2 148.5 149.7 150.6 151.1 152.1 152.3 151.7 151.5 151.3 151.2 150.8 150.4 150.2 149.9 149.4 148.7 148.1 147.3 146.6 146 145.5 144.6 143.8 143.2
389.2 398 407.4 417.7 428.5 439.9 450.7 461.6 472.3 480.3 487.9 494.3 497.8 499.1 494.7 486.1 474.1 461.1 448.9 438.3 428.4 420.7 415.1 409.6 405.6 400.8 396.7 393.9 394.5 395 395 394.4 392.8 388.9 382.1 376.9 366.3 352.1 341.6 332.9 322.8 314.2 305.5 297.8 294.1 294.7 299.1 303.7 307.3 310 312.8 315.8 317.9 316.4 313.1 307.5 301.3 295.5 288.4 277.8 266.5 254.2 245.2 237.6 232.4 227.7 222.6 217.8 212.3 207.8 202 197.6 193.2 189.8 187.1 184.3 181.2 179 179.1 178.8 177.9 177.8 178.2 178.8 179 179.7 180.2 179.8 178.9 178 177 175.1 172.8 170.4 168.4 166.5 165.1 164.4 162.7 160.5 159.8 158.4 154.2 150.9 150.1 153.4 156.6 165.9 172.7 176.9 181.5 185 187.9 191.1 194.3 197.4 200.1 201.5 202.6 202.2 202 202.3 202.2 201.8 200.9 199.6 196.9 194.4 192.1 189.7 187 185.3 183 181.1 179.2 177.3 176.7 176.1 175.3 174 173.1 171.4 169 165.8 165.7 164.1 160.8 158.5 156.9 154.9 152.5 150.5 148.8 146.9 145.5 144.3 144 144.7 144.1 145.4 145.2 144.9 144.3 143 141.5 141.1 141.5 140 141.6 141.7 143.7 145.6 146.2 146.6 147.8 148.8 149.8 151.2 152.2 153 153.7 153.8 153.4 153.7 153.3 153.2 152.7 152.4 152 151.5 150.9 150.2 149.7 149.1 148.5 147.8 147 146.3 145.5 144.6
376.7 387.1 398.4 409.4 419.8 431.7 443.5 453.4 463.1 471.1 479.8 487.9 492.6 493.8 491.2 483.3 472.2 458.3 446 432.5 422.8 415 409.1 403.2 396.5 391.8 387.7 385 384.8 384.9 384.9 384.7 383.9 383.6 381.9 375.2 365.4 354.4 342.6 332 321.1 312.2 302.6 294.7 290.1 287.3 291 296.4 300.3 302.6 305.1 307.1 309.7 311.5 311.9 309.7 304.3 298.9 292.6 284.1 271.7 259 248.7 241.4 233.8 228.9 223.1 218.1 212.3 208.2 204.1 199.5 195 191.2 188.4 185.5 183.4 181.2 182 181.2 180.4 180.5 180.9 181.2 182 182 182.1 181.8 180.8 180 178.9 177.1 174.8 173.3 170.7 168.6 166.8 165.6 162.7 161.5 160.3 158.8 154.3 150.9 150.8 150.6 157 162.9 171.5 176.6 181.2 185.1 188.9 192 196.6 200.5 202.8 202.5 202.1 200.9 200.6 200.9 200.5 200.3 200 199.4 198.1 195.7 193.5 191 189.3 187.8 186.1 184.5 182.2 181 180.3 179.9 179 177.9 176.2 173.8 171.3 168.8 166.8 164.3 161.7 159.7 157.6 154.9 153.6 151.2 148.8 147 146.3 145.2 144.5 144.9 146.3 147.2 147.3 147.1 146.3 145.4 144.2 143 143.3 143.6 143.2 142.6 144.6 146.1 147.5 148.2 148.9 149.8 150.9 152 153 154.2 154.7 154.8 154.8 155.7 155.4 154.8 154.1 154 153.6 153.1 152 150.9 150.2 149.7 148.8 148 147.2 146.3 145.7 145.1
367 378.8 389.4 400.3 411.5 422.6 434.3 446.1 455.6 463.2 474 482.7 488.6 490.7 487.6 479.6 468.1 454.5 439.9 427.7 416.6 406.5 397.1 391.5 386.4 381 376 374 373.7 373.3 373.3 372.7 372.6 373.3 372.3 369.7 362.8 353.7 345.4 332.6 320.2 309.8 300.8 292.8 287.7 281.8 283.4 288.9 293.1 294.9 296.1 297.2 299.9 303.3 306.2 306.7 304.6 298.8 292.6 284.5 274.8 263.1 252.2 243.2 237.4 231.1 223.9 218.5 213.4 208.8 204.9 200.9 195.9 192.8 190.9 188.7 185.7 184.8 184.8 184.2 183.9 184.1 184.4 184.3 185.3 185.6 185.1 184.7 183.4 182.2 181.2 179.6 176.8 175 172.8 170.5 168.4 166.6 165 162.1 160.3 159.2 155.7 151.4 151.1 150.7 156.8 161.6 169.5 176.5 181.3 186.2 190.1 194.4 199 203.3 204.9 204.2 202.7 200.9 199.6 199.4 198.9 198.5 198.1 197.8 196.7 195.3 193.6 192 190.8 189.7 189 187.7 186.6 186 184.8 183.2 182.1 180.8 178.8 175.9 172.9 170.5 167.6 165.2 162.8 160.6 158.8 157 153.9 150.8 149 147.6 146.4 146.1 147.1 145.6 148.4 149.1 149.2 149.2 148.5 147.4 146.1 144.7 144.5 144.9 143.9 143.3 144.7 145.2 147.4 148.3 148.9 150 151.3 152.6 153.9 154.9 155.1 155.9 156.7 157.3 157.8 157.4 156.6 155.8 155.2 154.2 152.9 151.8 150.7 149.8 148.8 147.7 146.8 145.9 145.2 144.5
358.1 370.5 381.1 392.2 403.9 414 425.3 438.3 449 459.5 469.8 479.1 485.4 487.9 485 476.3 463.9 449.1 432.7 419.9 405.9 394.9 386.2 379.3 374.9 370.2 366 362.3 360.5 360.3 359.5 358.8 359.6 360.4 360.6 359.4 355.2 349.6 340.4 330.4 319 308.5 299.1 291 284.9 279.9 277.9 280.2 285.2 287.9 288.5 288.7 289.7 294.2 297.2 299.7 300.9 298.1 291.5 284.8 274 264.5 255 244.7 238.8 232.8 226.8 221.9 216.6 211.1 205.6 201.5 197.8 194.5 193.4 191.3 187.7 187.1 186.9 187 187 187.7 188.9 189.3 190.2 190.4 190.7 189.8 187.9 186.4 183.9 181.1 178.7 176.5 174.2 171.9 169.3 167 165.5 163.2 161.4 159.6 157 152.3 151.5 151.2 152.3 162.4 171.1 177.9 183.8 188.4 192.4 196.4 200.9 204.8 205.5 204.5 202.7 201 199.3 198.5 197.4 196.5 196 195.5 195.1 194.5 193.2 192.4 191.7 191.3 191.6 191.1 189.4 188.5 187.2 185.4 183.8 182.5 180 178.2 175.7 172.5 169.7 167 164.8 161.8 159.9 157.8 154 151.2 152.1 154.2 156.6 157.4 156.4 155.8 155.2 150.3 151.2 151.6 151.1 149.5 148.1 146.8 146.2 145.8 144.5 143.7 144.7 144.5 145.4 146.7 148.1 150.2 151.7 153 154.6 154.8 155.2 156 157.5 158.8 159.2 158.5 157.3 156.7 156 154.6 153.6 152.2 151 150 148.8 147.8 146.8 145.8 144.7 144
348.7 360.9 371.2 381.5 393.5 404.4 416.8 432 444.2 455.5 466.9 476.4 483 484.9 482.3 473.3 461.2 445 428.8 414.4 401.4 390.8 381.5 372.3 364.4 359.2 354.5 350.8 347.1 347.6 344.9 343.2 343.8 345.5 344.9 343.8 343.6 342.2 337.4 328.9 320.6 311.3 301.1 291.2 283.9 278.9 274.7 273.2 275.3 278.2 279.3 280.2 280.9 282.4 286.5 290.5 294.7 293.7 287.9 281.8 276.2 266 255.2 247.7 242.8 236.9 231.4 227.1 221.2 216.1 209.9 203.5 200.2 197.1 195.8 194.5 191.9 190.8 189.7 189.6 190.6 192.5 194.7 196.6 197.3 197.4 196.7 195.8 194.2 189.5 186.3 183.2 180.4 178.1 175.4 172.7 170 167.3 165.6 163.6 161.6 159.6 157.2 152.5 151.9 152.8 159 168.3 176.3 182.7 187.7 192.4 196.3 200.3 203.3 205.2 205.6 204.3 202.6 201.2 199.1 197.4 196.1 195.2 194.4 194 193.5 193.1 192.6 192.5 192.1 191.9 191.8 191.7 191.5 190.7 189.3 188 186.2 184.6 182.5 180.8 179.1 175 172.2 169.7 166.9 163.5 161.4 158.6 155.1 158.7 162.2 164.6 167.2 168.7 167.9 166.3 164 161.7 158.9 156.4 153.7 152.6 150.5 148.8 147.4 147.1 145.8 144.6 144.6 144.5 144.5 145.4 147.3 149.2 151 153.6 155 155.2 154.7 155 156.1 157.8 158.3 157.8 157.2 156.6 155.5 154.1 152.5 151 150.1 149.3 148.6 147.8 147 146 145.1 144.1
338.3 349.4 358.8 368.7 380.2 393.7 408.7 427.1 440.8 452.7 466 476.3 483.5 484.6 480.5 473.8 463.6 448.5 431 415.3 401.8 389.5 379.4 368.9 359.6 349.8 345.2 340.7 337.4 334.8 332 330.8 330 330.5 330.8 331.8 333.7 332.8 329.8 325.9 319.1 310.1 300.2 291.5 283.1 278.1 274.8 272.1 269.4 267.6 269.3 273 274.2 275.1 277.7 281.7 286.9 288.4 284.1 278.9 274.8 266.8 260.5 252.8 249.2 244 238.1 233.4 228.5 224.2 219.1 212.3 206.9 201.6 200.1 198.2 195.8 194.1 193 192.6 194.8 197.6 201.1 204.2 204.9 205.4 204.7 203.6 200.7 195 190.3 187 183.5 179.4 175.5 172.9 169.5 166.6 164.7 162.9 160.6 158.9 156.1 153 152.2 153.2 164.8 173.5 180.9 186.6 191.6 195.7 199.8 202.1 203.9 204.9 205.3 203.5 201.6 200.1 197.9 196.3 195.1 194 193.3 192.7 192.5 191.9 191.4 191.1 190.9 190.9 191.5 191.8 192.1 192.4 191.7 190.8 189.3 187.1 185.1 183 180.3 177.6 174.7 171.7 169 165.4 163 159.6 162.7 166.7 169.8 172.8 174.7 174.9 174.4 172.8 170.8 168.4 165.5 162.5 158.7 156.7 154.2 151.6 149.8 148.5 147.3 145.8 144.9 144.7 144.7 144.5 145.6 147.4 149.5 152.3 153.3 153.5 153.7 153.5 154.2 155.5 156.3 155.7 155.2 154.3 153.2 151.9 150.6 149.8 149.2 148.1 147.3 146.6 145.7 145 144.1 143.3
334.7 344.7 355.7 368.6 383.1 399.3 413.7 428.4 441.4 452.5 465.4 476.9 484.3 486.4 482 475.5 468.1 455.8 438.1 420.5 405.9 393.5 381.4 372 363.7 355.2 346.3 339.5 333.8 327.8 324.3 319.9 315.9 318.4 319.7 321.4 321.7 322.9 322.3 319.6 314.6 306.1 297.6 289.9 282.6 278 275.3 273.2 269 267.1 265.3 264 262 263.8 267.5 273.4 278.9 281.7 281.1 279.3 276.4 271.7 265.9 260.9 255.9 252.4 246.6 242.4 237.5 232.4 227.2 219.8 212.9 209.1 206.3 203 199.6 197.5 195.6 196.4 198.5 201.5 206.2 209.9 211.3 211.7 211 209.9 205.8 200.3 194.1 189 184.7 180.2 175.7 171.7 168.4 165.8 164.3 162.6 160.5 158.9 155.1 152.8 152.6 155.4 168.7 177.6 183.3 188.9 193.9 198.7 202.4 204.1 204.7 203.8 202.4 201.1 199.6 197.8 196.2 194.5 193.5 192.9 192.2 191.7 191.3 190.7 190.2 189.9 190.4 190 190.7 191 192.2 192.5 192.5 192.6 191.5 189.4 187.7 185.4 182.9 180.5 177.4 174.2 171.1 168.4 162.2 166.8 170.3 173.1 175.6 177.9 179.2 179.1 178.4 176.7 174.7 172.3 169.4 166.2 162.8 159 156.7 154.3 152 150.5 148.3 146.9 145.9 145.4 144 144.6 144.6 145.2 146.7 148.9 150.5 151.6 152.1 152.2 152.2 152.4 151.8 151.5 150.7 151 150 148.6 147.9 147.3 146 146.2 145.7 145.1 144.7 143.7 142.6 141.8
350.8 358.5 370.8 383.7 394.8 406.9 418.5 430.1 441.6 452.4 464.6 475.9 484.9 488.4 485.3 478.8 471.4 460.9 446.3 429.8 412.9 398.8 389.1 378.3 368.8 362 355.2 345.5 338.4 331.6 325.5 321 316.8 311.9 306.2 309.6 313.3 314.3 313.8 311.5 308.1 302.7 295.8 288.5 282.1 277.9 274.4 271.2 270.3 269 266.7 264 262.2 260 258.2 263.6 272.1 276.9 280.7 283.1 282 278.2 273.2 268.1 264.5 261.6 257.3 253.2 249.2 244 236.4 231.7 223.4 215.6 212.6 208.5 204.4 200.4 198.2 199.4 200.4 203.7 210.4 215.6 217.2 217.5 216.9 214.5 210.5 204.5 197.4 191.1 185.7 180.2 175.5 171 168.2 165.6 163.9 161.7 158.6 157 155.2 153.7 153.3 157.2 171.1 180.7 185.3 190.1 194.7 199.1 203.5 205.3 206.2 205.3 203.8 202.1 200.2 198.1 196 194 192.6 191.8 190.9 190.4 189.9 189.4 189.1 189.1 189 189 189.4 189.8 190.8 191.8 192 192.2 191.7 190.5 189.4 187.5 184.8 181.9 178.9 175.6 172.5 166.1 169 172.5 175.1 177.5 179.3 180.1 180.3 180.1 179.5 177.8 176.1 173.9 170.8 166.4 163.3 160.4 158 155.7 153.4 150.5 148.6 147.1 146.4 145.7 144.5 144.7 144.7 144.7 145 145.5 146.8 149.4 151.1 151.8 151.6 151.8 150.7 149.8 149.4 148.8 147.9 147 146.1 145.1 144.3 144 142.8 141.8 141.6 142 141 140.3
364.6 374.5 386.3 395.9 405.1 414.9 424.2 433.7 443.3 452.4 463.4 474.1 482.8 489.5 487.1 481 472.7 462.5 449.8 433.9 418.1 402.9 389.4 379.5 373.1 365.7 359 351.4 346.4 339.9 330.1 323.7 317.3 310.8 305.7 300.6 304.6 306 305.2 303.4 300.1 296.4 289.7 282.8 278.6 275.8 276 280.4 283 280.9 277 271.9 268.2 264.8 260.4 256.6 262.8 273.2 280.3 285.1 286.9 284.8 281.2 276.3 272.8 273.8 268.8 263.6 258.7 251.9 244.4 238.9 231.3 224.3 217.8 213.6 209.2 204 200.8 200.8 201.6 204.4 211.2 216.6 219 219.8 220.2 215.8 209.6 204 196.4 190.7 184.5 179.2 175.2 171.4 168.8 166.3 164.1 160.1 158.2 157.3 155.8 154.8 153.6 155.6 170.1 180.5 187.3 191.7 195.7 199.1 203.7 208.3 209.7 207.9 206 203.8 202 199.6 197.2 194.9 193.1 191.2 189.8 189.1 188.6 188.3 188.3 188.3 188.3 187.4 187.7 188.5 189.4 190.4 191.2 191.4 191 190.2 189.1 187.3 184.9 181.7 178.7 174.7 169.6 170.4 174.6 178.3 179.8 181.6 183.6 183.6 181.6 179.8 178.6 176 173.8 171.5 168.6 165.6 162.1 159.1 156.9 155.3 153.1 149.9 148.1 147.2 146.4 145.7 144.8 144.7 145 145.1 145.1 144.8 145.7 146.9 148.4 149.1 149.8 149.7 148.9 148.3 148.1 147.4 147 145.6 144.5 144 142.9 142.8 142.5 141.5 140.7 140 139.5 138.8
376.4 387.7 397.1 405.1 412.7 419.7 427.1 435.4 443.1 450.8 460.9 470.3 478.6 486.2 486.4 482 474.1 462.4 451.3 437 420.7 404.8 389.3 380.6 373.4 366.4 360.1 354.1 350.8 344.3 335.1 327.4 317 311.1 305.7 302.2 296.2 297.2 297 295 292.6 286.3 281.7 280.8 280.8 284.6 288.1 290.3 292.1 290.7 286.2 279.7 274.8 269.3 263.1 256.5 254.7 268 278 286 291.1 292.1 289.4 287.5 283.7 280.9 276.6 271 265.9 260.5 252.8 245.6 239.4 232.4 224.7 217.9 213.5 208.2 204.2 202.6 202.2 204.7 208 211.8 213.4 214.8 213.7 211 205.9 200.2 194.8 189 183.2 179.2 176.1 171.9 168.7 166.5 163.8 160.5 161.5 161.9 160.2 156.8 153.9 154.5 167.4 179.3 186.3 191.5 195.5 199.6 203.4 205.9 207.2 206.2 204.7 203.4 202.1 201.1 197.9 195.6 193.4 191.3 189.3 188.6 187.6 187.6 187.6 187.6 186.9 186.5 187.1 187.8 188.5 189.1 189.9 190.3 189.7 189.2 188.2 186.4 183.2 179.4 174.6 172.1 174.3 178.3 180.9 183 183.5 183.7 184.1 183.8 182.3 180.2 177.2 174.1 171.2 168.6 166.3 163.6 160.8 157.8 155.6 154 151.5 149.5 148.4 147.4 146.5 145.7 144.6 144.3 144.6 145.1 145.8 145.1 145.7 146.4 147.4 148.6 148.4 148.9 148.8 148.4 147.7 146.5 144.7 144 142.7 141.8 141.5 141.2 141.1 140.1 139.3 138.6 137.9 137.5
382.3 394.7 403.4 410.8 417.3 423.1 428.6 433.6 439.7 448.7 455.3 462.9 471.9 478.9 481.8 480.6 472.9 460.6 448.7 433.7 418.3 404.2 388.6 380.5 373.7 367.9 360.4 354.7 351.8 345.9 338 328.3 317.8 312.1 305.2 301.7 296.2 293.6 291.5 289.7 287.7 287 286.9 288.9 292.8 295.3 297.5 298.7 299.2 297.5 291.9 284.5 278.1 271.2 264.1 258.7 253.4 262.4 274.9 285.1 292.6 297.5 297.6 294.1 290.5 286.8 282.2 277.9 272.1 266.2 260 252.2 245.8 238.5 230.9 224.6 216.9 210.8 206.6 204.9 202.8 203.1 205.2 206.4 207.6 207.3 206.5 205 201.2 196.7 192.3 188 183.1 179.1 175.3 171.9 169.4 167.8 162.5 165.7 165.2 164.8 162.5 158.6 154.3 154.5 165.5 176.8 183.3 188.5 192.9 197 200.9 202.9 204 204.5 205 205.5 205.4 203.7 201.3 199 196.5 194.2 192.1 191 189.5 186.6 186.7 186.5 185.9 186 186.6 187.2 187.7 187.8 188.1 187.9 187.6 187 186.3 183.4 179.6 176.9 179.1 180.4 182.5 186.5 188.3 187.4 187.3 185.5 183.4 181.5 179.9 177.2 174.4 171.6 169.5 167 164.6 161.6 159.3 157.2 155 153 151 149.7 148.7 147.7 146.7 145.2 144.5 145.1 145.2 145.6 145.8 146.4 147.8 148.4 148.8 149.3 149.3 149.4 149.3 148.9 147.8 146.7 145.3 144.3 143.2 142 141 140 139.2 139 138.1 137.4 136.7 136.3
386.2 397.1 406.8 413.6 418.5 422.6 426.5 430.4 434.4 439 448.5 457 464.4 473.2 475.6 474.6 467.3 456.8 443.7 431.5 417.3 402.1 390 382.1 373.8 367.4 358.7 354.2 350 343.5 338 330 319.5 312.1 306.1 299.3 297.5 297.3 296.1 294.6 293.4 294.5 295.9 298.7 302.7 304 306 306.3 304.8 300.4 294 285.8 278.2 270.5 262.5 259.2 253.5 258.7 274.6 285.2 294.9 301 303.8 301.2 297.5 292.8 288.5 283.5 276.2 269.3 264.6 258.7 250.7 243.7 236.4 229.8 221.9 214 209.6 207.1 204.1 201.6 201.1 201.8 202.5 202 201.1 198.7 196.5 193.2 190.1 186.5 182.9 178.6 175.3 172.1 169.9 165.5 165 166.9 167 165.5 162.7 159.8 155.7 154.2 164.4 172.2 179.1 184.5 189.2 193.6 197.6 200.7 202.6 204.6 205.8 207 208 207.3 204.9 202.6 199.6 197.5 195.3 193.1 191.2 188.6 186 185.2 185.4 185.7 185.9 185.8 185.9 186 185.8 185.3 184.5 183.8 181.8 179.5 180 183.8 186.5 188.3 189.7 190.3 191 190.1 189 187.2 184.5 181.8 179.1 176 173.2 170.7 168.3 166.1 163.2 160.6 158.5 156.6 154.6 152.9 151.2 150.1 149 147.8 146.8 146.4 146.2 147.4 148.3 149 149 149.6 150.1 150.4 151.2 151.8 152 151.7 151.1 150 148.5 147 145.7 144.6 143.5 142.2 141.1 140 139.3 138.4 137.6 136.2 136.5 135.4
385.2 395.7 405.2 414.3 418.5 420.9 423.3 426.2 428.7 433.2 438.6 449.5 458.1 466.9 470.3 469.5 462.8 453.1 440.4 427.8 415.4 401.6 390.3 380.8 373.2 365.2 357.7 351.7 347.2 341.4 335.2 328.1 319.9 310.3 303.7 304.8 304.3 303.3 300.9 302.8 303.7 305.3 307.7 308.8 311.2 311.8 312.5 311.6 308.1 302.3 294.6 285.7 276.8 267.4 261.1 258.1 253.5 252.3 274.1 287.3 295.8 303.1 308.1 306.6 302.6 297.3 291.5 285.2 278.9 272.7 267.3 262.6 256.8 248.5 241.5 233 224.7 217.4 212.6 209.5 205.7 201.7 199.6 199.3 197.8 197.7 196.8 194.6 192.4 189.7 187.1 185.3 182.2 178.9 175.4 170.6 166.9 165.8 168.5 167.6 166 164.5 162.5 160.5 153.5 155.2 155.9 169.1 175.3 180.6 186.1 190.6 194.8 198.4 201.6 203.9 206.3 208.1 209.2 209.3 207.2 204.6 201.9 199.7 197.8 195.6 192.4 190 187.8 186 185.7 185.8 185 184.6 184.1 183.7 183 181.9 181.2 181.1 180.6 181.7 183.9 188.5 190.9 192.1 192.7 192.9 192.6 191.6 189.7 187.7 184.9 182.1 179.6 176.6 173.7 171.6 169 166 162.5 159.8 157.6 155.9 154.5 153.1 151.7 150.6 149.6 148.6 148.7 148.7 149.9 150.6 151.5 151.3 151.2 151.6 152.2 152.2 153.8 154.6 154.4 153.6 152.7 151.4 149.8 148.2 146.9 145.8 144.3 142.9 141.3 140.2 139.3 138.2 137.3 136.5 135.7 135.3
382.5 391.5 400.4 406.6 410.1 413 415.8 418.6 420.7 425.6 432.5 441.5 454.1 462.2 466.5 465.4 460 451.2 437.2 423.2 412 399.6 389.5 379.5 372.6 365.2 357.7 350.4 345.2 339.4 332.5 325.1 317.4 307.2 314.8 315.9 313.2 311.8 309.9 312.5 314.2 316.2 317.3 317.5 318 317.8 316.5 312.9 308.8 302.8 295.2 285.4 275.2 267.5 259.9 256.2 253.2 248.9 272.2 286.6 295.3 303.1 307.7 306.2 302.3 297.3 291.2 285.1 278.5 272.5 267.4 262.6 257.7 251.8 244.3 236.7 228.3 219.2 214.8 210.1 205.8 202.5 199.9 197.6 195.7 194.6 193.6 191.9 189.7 186.7 183.7 181.7 178.3 174.2 170.8 168.8 170.5 170.8 170.5 169.6 167.4 165.4 163.3 161 154.7 155 155.9 168.5 174.9 179.3 183.7 188.2 192.6 197.4 201 203.5 206.4 208.4 209.3 209.7 208.3 206.4 203.5 201.8 200 197.8 194.4 192.8 190.7 189 188 187.2 185.7 183.5 182.8 182.2 181.8 181.4 181.4 181.3 182.6 183.9 185.9 188.8 191.3 193.2 194.4 195.1 194.8 193.4 191.7 189.4 186.6 183.2 180.7 177.8 174.6 171.8 169.1 166.6 163.8 161 158.6 157 155.3 153.7 152.5 151.8 150.9 150.9 151.1 151.3 151.5 152.1 152.5 152.1 152.2 152.8 153.6 153.9 155 154.8 154.1 153.2 151.9 150.9 149.4 147.5 146.6 145.4 144 142.7 141.4 140.1 138.8 137.9 137 136.1 135.2 134.5
375.1 384.4 391.7 397.3 400.2 402.7 405.2 408.2 413.2 419.1 428.5 439.4 450.2 458.7 462.2 461.3 456.9 447.9 436.6 423.1 411.4 402 393.4 384.6 376.6 368.4 361.1 353.3 345.1 338.4 331.9 325.6 316.2 318.2 324 324.2 322.9 321.2 321.3 323.1 324.5 324.1 325 324.5 324.9 321.6 317.3 312.7 308.4 301.2 293 282.8 273.8 265.6 258.6 255.1 251.3 248.1 268.5 283.8 292.7 300.3 304.5 303.1 298.9 293.3 288 281 274.7 270.1 265.4 261.2 257.7 253.3 247.6 239.5 232.2 223 217.1 211.3 206.5 203.2 200.1 196.5 194.3 192.3 190.5 188.8 186.2 182.5 179.5 177.9 173.4 173.7 177.5 177.5 176.8 175.6 174.3 172.5 169.5 166.8 164.1 158.9 155.3 155.2 159.7 171 176.4 180.5 184.5 189.8 193.3 197.2 200.5 202.5 205.5 207.9 209.1 210.4 210.5 210.4 208.8 206.4 203.5 200.9 198.2 196.2 194.1 192.7 191.6 190.3 187.8 185.6 185 183.7 182.6 182.2 182.4 182.9 183.7 184.5 186.2 188.5 191.2 193.6 195.2 196.1 195.8 194.7 193.1 190.8 188.3 185.7 182.7 179.6 176.4 173.5 170.1 167.4 164.5 160.9 159.6 160.2 158.7 157.2 155.3 154.1 152.6 152.8 152.9 152.9 153.5 153.4 153.3 152.7 152.8 153 153.4 153.7 153.9 153.1 152.7 152 150.8 149.5 148.2 147 145.8 144.7 143.6 142.3 140.9 139.6 138.5 137.5 136.5 135.6 134.6 133.7
368.4 376.7 383.8 388.5 391.1 393.2 396.5 400.8 406.4 415.9 426.7 438.8 450 457.2 460.2 457.9 453.1 444.5 433.9 422.2 412.2 404.2 396.8 390.4 383.2 375 366.6 358 349.7 341.8 332.1 324.1 314.3 327 330.5 331.6 330.5 328.5 330.2 332.5 332 331.7 331.6 330.7 328.2 323.7 318.2 312.8 305.6 296.8 288.6 279.8 271.2 263 257.7 253.8 250.5 245.8 262.5 275.8 285.2 293.6 297.3 297 292.5 285.5 278.7 273.2 269.1 265.4 262.7 259.4 256.2 253.3 249.2 240.8 235 226.6 220 213.2 207.4 203.5 199.8 196.2 192.2 188.6 185.5 184.1 181.2 178.7 176.6 175.7 179.8 183.7 184.3 183.8 183 180.3 178.2 174.5 170.6 167.4 163.8 158.9 155.1 155.7 162.4 169.3 178.5 184.6 189.8 193.1 196.3 199 201.2 202.7 204.3 206.7 209.7 212.6 214.8 215.1 213.7 210.5 207.7 204.7 201.8 199.6 197.1 195.4 194 192.5 191.2 188.6 187.5 185.8 184.1 183 182.9 183.4 184 185.1 186.9 189.2 192 194.1 195.3 195.8 195.5 194.8 193.1 191.3 189 186.3 183.8 181 178.1 174.9 171.6 169.1 164.1 164 164.3 162.5 161.7 161.5 159 158.1 157.5 155.8 155.1 154.9 154.7 153.9 153.6 152.8 152.7 152 152.1 152.2 151.9 151.4 151.3 150 148.7 147.7 146.5 145.6 144.6 143.5 142.4 141.3 140.2 138.9 137.8 136.8 136 135 134 133.3
362.2 369.1 376.6 380.1 381.6 385.6 389 393.8 402.7 414.2 426 438.5 450.7 456.6 458.2 455.3 448.5 439.9 430.2 421.4 414.4 406.9 400.6 394.5 387.5 378.9 370.5 361.2 352.4 344.6 334.9 322 326.8 334.9 338.2 338.4 337.2 336.2 337.7 339.2 337.8 337.1 336.3 333 329.2 324.2 318.2 310.9 300.7 291.5 283.3 275.7 268.1 260.6 256.7 252.3 249 242 251.3 264.7 275.2 283.2 286.9 286.8 282.8 276.1 271.2 265.9 262.2 259.6 257.8 256.2 254.5 250.9 247.1 239.9 234.1 228.9 222.5 214.5 208.4 204 199.2 194.9 192.1 189.2 185.8 182.2 179.8 178.9 181.1 186 188.2 188.6 188.6 187.6 184.8 181.8 177.6 173.6 169.9 166.8 163.3 156.4 155.6 160.8 166.9 173.2 181.3 188.2 193.8 196.8 198.8 202 203.4 204.2 205.9 207.4 210.9 214.8 218.4 220.3 218.7 215.9 211.5 207.9 204.9 202 199.5 197.8 196 194.4 192.8 190.7 188.4 186.9 185.1 183 183.4 183.1 184.1 185.6 187.5 189.5 191.4 193.5 194.3 194.8 194.4 194 192.7 191.3 189.3 186.9 184.3 181.5 178.6 176 173 168.7 169.6 170.2 169 167.9 168.1 166.6 164.9 164.1 163 161.2 159.6 158.7 157.2 156.3 155.2 153.8 153 151.8 151 151.1 150.5 149.7 149.3 147.9 146.9 145.5 145.1 144.2 143.3 142.3 141.1 140.1 139.1 138.1 137.1 136.2 135.3 134.5 133.5 133.3
353.2 360.3 366.3 370.5 372.9 378 381 389.3 401.3 413.3 425.6 437.5 448.7 455.2 455.8 452.7 446.2 438.1 427.7 418.4 412.3 407.4 402.2 397.2 389.3 381.1 371.6 361.8 352.3 345.4 333 324.5 335.7 342.6 344.8 345 342.7 341.3 343.4 345 343.9 341.5 338.9 333.7 328.3 322.3 314.5 303.2 292.5 285.4 278.7 270.9 263.8 260.3 256.3 250.6 247.1 243.6 239.8 252.7 264.1 273.3 278.5 279.1 273.6 268.6 263.4 259.1 257 254.9 251.7 248.2 247.9 245.4 241.9 237.1 231.7 227.4 222.4 216 208.5 202.7 198.3 194.8 192.2 188.9 184.9 181.9 181.2 188.1 192.4 196.3 196.4 195.4 193.8 191.7 186.5 181.7 176.7 172.7 169.7 166.3 162.1 155.9 158.5 165.4 171.4 179.1 186.9 192.8 197.7 201 203.1 204.3 205.4 206.6 208 208.7 212.2 216.8 221.9 224.6 223 220.9 217.4 212.5 207.7 205 201.7 199.4 197.4 195.6 194.3 191.7 189.1 188.3 187.2 185.5 185.3 184.1 183.7 186.3 187.4 188.8 189.9 191.3 192.8 193.6 194.2 194.1 193.5 192.1 190.3 188.1 184.9 182.4 180.1 177.9 174.3 174 175.6 175 173.2 172.2 171.2 170.2 169.4 168.1 167.2 166.2 163.9 161.8 159.8 158.4 157 155.8 154.3 152.7 151.1 149.7 148.8 147.4 147.2 146.4 145.3 144.2 143.7 142.8 141.9 140.9 139.9 138.9 137.9 136.7 135.9 135.3 134.6 133.8 133.6 133.2
343.6 350.1 356.2 361.6 364.8 369.5 376.7 386.2 399.8 412.6 425.4 437.2 446.4 452 453.1 449.9 442.8 433.6 421.9 412.7 408 405.5 401 396.3 389.6 381.2 371.8 363.1 354.8 345.2 325.6 334.5 344.4 350.9 353.4 352.2 347.9 348 351.3 351 348.5 345.3 340.2 332.7 326.6 317.2 305.2 293.9 288 282 274.7 268.9 266.5 262.4 257.7 253.1 248.9 244.7 241.2 237.1 252.6 264.5 271.3 270.2 267.6 263.1 258.2 253.5 249 247.6 245.1 240.6 237.6 235.8 233.8 229.9 226.6 222.6 218.4 213.9 207.1 201.7 196.7 194.2 189.4 186.2 183.8 185.5 190.4 197.1 200.8 203.2 205 202.9 198.9 192.9 185.8 180.1 176 172.2 169.3 165.9 160.2 155.9 163.5 169.5 177.6 185.8 194.6 199.7 203.2 205 206.5 207.5 208.3 209 210 211 214.3 220.6 225.6 228 227.8 225.7 222.3 217.8 213 207.5 204.1 202.1 199.9 197.1 195.9 193.3 191.7 192 191 189.7 188.7 187 186.2 187.2 188.3 188.6 188.8 190.4 191.5 192.8 193.7 194.4 194.4 193.2 191.4 189.4 186.9 184.7 182.4 180.2 173.7 179.5 179.1 178.3 177.5 176.2 175.5 174.3 173.4 171.8 170.3 168.7 167 165 162.9 160.6 158.9 157.3 155.2 152.6 151.5 149.9 148.5 147.6 145.7 144.9 143.7 142.9 142.2 141.4 140.6 139.7 138.9 138.1 136.8 135.4 134.8 134.5 133.9 133.5 133.3 132.9
334.4 341.2 347.5 353.7 358.7 365.9 373.6 384.8 398.5 412.7 426.1 437.5 445.7 450.2 450.5 446 438.3 428.4 415.2 406.5 403.1 399.8 395.9 391.5 386.8 378.8 371.5 364 355.2 340.5 333.6 344.2 351.5 357.4 359.9 360 357.1 357.9 358.3 356.4 352.9 347.3 339.1 331.3 320.9 308.4 297.9 291.9 285.9 279.4 277.6 276 273.6 270 263.9 257.2 252.4 247.6 243.2 236.3 244 255.5 265.1 264.3 261.6 257.5 251.5 247.7 242.8 239 234.5 228.5 224.2 222.5 222.2 219.4 217 215.1 213.9 208.4 202.8 196.2 190.5 190 189.7 192.4 189.9 191.8 198 203.2 208.7 208.3 207.4 205.6 200.4 192.8 184.6 180 176.9 171.9 168.9 164.8 157.1 155.4 166.4 174.5 184.1 192.5 200.5 206.9 209.5 210.8 212.6 212.7 211.7 212 213 213.4 218.7 227.1 231.6 233.1 232.9 231.2 228.3 223.9 217.3 212.5 206.8 203.7 201.6 199.4 197.3 195.2 194.4 194.1 193.4 192.3 191 189.8 188.9 189.2 189.4 188.9 189.2 189.7 189.9 192.2 193.7 195.2 195.5 195.6 193.9 190.9 188.4 186.3 184.2 178.9 183.4 183.8 184.2 183.7 183.2 182.9 182.6 180.7 178.4 176 172.7 171.2 169.9 168 165.6 163.1 161.3 159.6 156.9 155.5 153.1 152.3 150.7 149.4 147.9 146.7 145.2 143.2 141.9 140.8 140 138.4 138.1 137.4 135.9 134 133.8 134.1 133.6 133.5 133.4 133.3
333.5 338.1 343.5 351.7 357.3 364.5 373.4 385.8 400.9 415.1 427.2 437.6 444.7 447.9 447.5 442.5 434.1 423.8 411.5 401.7 396.1 392.2 388.9 384.2 379.2 372.6 366.3 360.3 350.6 334.5 342 351.6 358.7 364.4 367.7 367.6 366.5 365.3 363.6 360 354.5 345.6 336.2 325.3 312.6 304.2 297.9 291.8 285.6 285 284.8 283.3 281.9 277.3 270.5 263.5 256.9 250.3 245.4 241.6 234.1 245.5 253.9 256.4 254.7 251.9 246.8 242.5 236.7 231.9 224.2 217.1 213.5 209.3 207.5 207.9 206.1 204.2 203.8 197.4 195.3 194.8 194 194.3 195.7 195.6 194.7 196.8 204.8 213.1 215.1 214 211.3 208.6 202.8 194.5 186.1 180.2 176.5 172.3 167.3 158.8 156.6 156.7 172.8 181.2 190.8 200.7 206.9 211.5 215.7 218.5 219.5 219.1 217.9 217.5 217.9 220.6 226.8 235.2 237.9 238.8 237.9 237 233.6 228.1 219.6 214.3 208.7 206.8 203.7 201.2 199.3 198.4 197.4 196.8 195.9 194.9 193.9 193.3 192.1 191.7 192.1 192.1 192.5 192.5 192.7 192.9 194.6 195.8 196.9 196.6 194.5 191.9 189.4 185.1 181.6 179.8 187.4 188.2 189.3 190.3 190.6 190.3 189.6 188.1 185.4 181.5 177.1 173.7 171.6 169.8 167.6 165.6 164.2 162.5 160.2 157.9 155.7 154.2 152.6 151.4 150 148.9 147.5 145.6 143.7 142 140.8 139.7 138.5 137.5 136.6 135.1 134.5 134 133.6 133.4 133.3 133.2
337.3 341.4 346.8 352.6 358.1 365.2 373.5 387.8 403.6 416.5 428.8 438 443.7 445.6 444.6 439.6 431.1 420.2 409.3 399.1 391.1 385.9 382.9 377.6 370.8 364.5 358.2 353.1 343.4 338.9 350.1 358.7 365.3 371.6 374 374.2 372.2 369.1 365.8 360.3 351.6 341.8 331.7 319.2 310.8 303.8 297.7 293.3 294.8 293.9 292.3 290.1 287.9 283 276.1 268 259.8 253.5 247.5 241.8 236.3 233.1 241.3 245 244.5 244.1 240.7 236.3 230.9 224.1 214.7 212.4 210.7 210.3 210 209.3 208.3 207.8 204.4 203 201.6 199.5 198.3 198.3 198.9 198.7 198.8 201.4 209.6 217 218.9 217.8 215.6 211.4 204.1 195.3 186.7 179.9 175.6 172.2 167.4 158.2 157.6 164.3 177.5 188.5 198.1 206.9 214 218.6 223 225.7 225.9 225.5 224.8 223.7 224.9 228.7 235.4 241.3 243.9 241.3 239.5 240.9 236.9 229.7 222.5 217.9 211.4 208.6 205.1 202.9 201.9 200.8 201.2 200 198.9 198.2 197.6 197.3 196.3 196.2 196.1 196.1 196 195.1 194.4 193.9 195.6 196.1 196.3 195.4 193.9 191.9 188.6 188.1 187.6 190.4 192.4 193.8 196.1 197.4 196.9 196.4 195.3 193.3 190.3 185.7 180 176.6 174.9 172.8 170.5 167.9 165.1 162.7 160.8 158.6 157.2 155.9 154 152.3 151 149.7 148.2 146.7 144.6 142.9 141.6 140.3 139 138 137.1 136.1 135.2 134.4 133.7 133.4 133.2 133.2
341.7 345.6 350.9 356 360.9 367.8 377.2 393.9 407.1 420.9 431.6 438.4 442.3 443.7 442.4 436.9 427.9 417.9 407.3 397.8 389.8 382.7 377.1 370.5 363.6 357.6 353 348.5 339.4 347.8 356.9 365.1 372.7 378.5 380.8 380.4 375.4 370.6 365.4 357 347.1 336.7 327.2 319.3 311.1 304.3 300.9 300.5 303.4 302.5 299.1 296 293.7 287.3 279.6 271 263.2 256.2 249.7 244.3 239.3 235 227.9 228.1 229.8 232.1 231.5 229.1 223.1 214.9 217.9 217.8 214.5 215.5 215.5 215 213.7 211.8 209 206.8 206 204.3 203.4 202.7 202.3 202.2 203.7 207.8 213.5 219.3 221.1 220.8 218.4 212.7 204.4 197.4 188.3 180.9 176.9 172.7 165.4 158.4 158.3 166.6 179.4 190.9 201.7 211.7 218.8 225.7 230.2 232.7 234.7 235.3 233.3 232.2 232.2 235.5 240.5 244.3 245.2 242.9 241.8 242.9 238.3 230.7 222.2 217.1 213.8 209.7 208.7 212.2 212.5 210.8 208.2 205.3 203.6 203.5 202.9 203.3 202.3 201.2 200.2 199 197.8 196.6 195.6 195.1 195.6 196.5 196.4 195.4 193.8 191.7 191.7 190.8 192.6 196.1 197.8 201.8 203.5 204.2 203.8 202.8 201.2 198.5 194.3 188.7 184.1 180.6 177 173.9 171.6 168.9 165.7 162.7 160.7 159.2 157.8 156.5 154.8 153.1 151.9 150.6 148.8 147.2 145.2 143.7 142.2 140.8 139.4 138.6 137.6 136.6 135.7 134.6 133.8 133.5 133.2 133.2
345.9 349.8 353.9 358.6 364.2 373 386.3 401.4 414 424.8 434.3 439.2 442.3 442.6 440.5 434.3 424.8 416.4 407.6 398.3 390.5 383.4 377.5 371.1 364.5 358 352.4 345.4 347.2 354.9 362.5 370.8 378.4 383.4 384.6 381.7 375.5 369 361.5 352.3 342.8 332.7 326 319.3 310.8 310.1 310.4 311.1 311.1 309.7 305.4 300.1 294.4 288 281.2 273.5 266.1 259.3 252.7 247.3 241.7 237.8 233.6 226.6 225.4 224.7 221.7 219.9 218.3 224.7 230.5 231.3 227.9 222.5 219.5 218.8 216.8 215.2 213.3 212 211.6 210.9 211.1 210 209.1 209.3 211.2 214.7 218.7 222.2 223.6 224.2 220.7 213.4 205.8 198.7 190.3 182.5 178.3 173.2 167.8 158.8 159.6 168.1 177.4 192.4 204.4 215.1 223.5 230.3 235.9 238.4 238.7 238.6 237.9 237.1 238.2 241 244.7 247.2 246.9 245.6 244.7 242.9 237.7 229.3 221.6 217.8 216.5 215.3 218.8 221.1 220.5 218.6 215.8 212.1 210.5 207.9 207.3 207.1 206.9 206 204.5 202.5 200.6 198.9 197.7 196.2 196 196.7 196.4 195.1 194.4 194.5 196.2 197.7 199.5 200.7 202.1 206.7 209.2 210.8 210.8 210.1 208.9 202.2 198.7 192.4 187.5 184 179.6 175.9 172.8 170 166.9 164.5 161.9 160.4 158.9 157.6 156.1 154.3 152.8 151.5 149.6 147.7 146.3 144.8 143.4 142 140.8 139.3 137.9 137.2 136.5 135.6 134.6 133.9 133.6 133.3
349.1 353.5 357.1 363.3 372.9 384.5 396.6 408.1 418.5 428.6 436.4 440.2 442 441.7 437.9 431 424.8 417.5 408.4 401 393.2 386.8 379.6 371.7 365 359.4 354 347.5 354.7 360.8 368.5 377 382.4 385.5 385.3 381.1 373.7 365.9 357.8 348.6 339.8 333.1 326.6 321.1 317.6 317.6 319.1 318.3 317.4 315.4 309.5 302.6 295.6 289 281.9 275.2 268.4 261.8 255.5 249.5 243.5 240.1 230.9 231 231.7 230.6 229.8 232.5 234.9 239.7 240.8 238.4 235.7 230.1 225.9 223.5 221.9 220 219.6 219.3 218.6 218.8 218.1 217.3 217 218 219.3 220.6 222.2 224.1 225.1 224.7 221.2 213.8 206.6 200.3 192.9 184.2 179.1 173.6 166.4 157.1 160 170.2 181.3 192.7 204.4 215.2 224.1 233.7 238.5 240.3 242 242.5 243 242.9 244.2 246 247.2 249.3 250.4 250 248.1 243.6 237.3 230.5 224.4 221.4 219.7 221.1 225.8 228.9 229 227 219.3 219.3 217.1 214 211.6 210.7 210.6 209.6 208.1 206 204.1 201.6 199.6 197.7 196.9 196.9 196.4 195.8 196.1 197.5 200.1 201.2 202.8 204.2 205.3 209.2 212.6 214.4 215.3 215.1 213.6 209.2 203.9 199.1 194.1 189.3 184.9 180.8 175.9 172 168.7 165.9 163.5 161.7 160.1 158.8 157.4 155.8 154.1 152.4 150.9 149.3 147.8 146.4 145 143.7 142.4 140.9 139.8 138.6 137.7 136.9 135.9 134.9 133.9 133.8
350.8 356.2 362.1 371.4 381.1 391.3 402.5 412.7 420.9 429.9 437.4 440.3 441.3 440.2 435.4 428.8 424.6 419.1 412.1 403.1 394.5 386.3 380.1 374 365.8 360.4 354.6 355.9 361.5 367.1 374.5 381.8 385.2 386.9 385 379.3 371.9 363.9 355.3 345.8 339.6 333.9 328.5 325.2 323.6 325.3 324.8 324.2 323.7 319.9 313.2 305.6 297.1 289.1 282.3 276 269.8 263.5 257 250.4 245.9 238.3 238.3 238.2 238.7 239.9 242 245.2 247.5 249.8 251.3 246.6 242.5 237.1 232.9 229.7 227.8 227.2 226.8 226.9 225.8 224.2 224.7 223.4 223.2 224 226.3 227.1 226.5 226.4 226.1 224.7 221.1 214.7 207.6 201.7 194.5 186.7 181 174.4 170.2 163.5 159.8 170.5 181.2 192.1 204 214.4 221.1 226.4 232.1 233.7 237 241.9 243.8 245.5 246 246.1 248.9 251.8 254.5 253.6 250.9 245.2 239.4 231.6 226.5 224.4 223.3 227.3 231.7 236.1 237.3 235.5 232.2 225.7 224.3 221.1 217.6 214.9 214 212.9 211 209 206.9 204.4 201.1 198.9 197.8 197.1 196.8 197.4 199.3 201.4 203.2 204.4 205.8 207.4 209 211.2 214.4 217.6 220 220.2 218.3 213.7 208.5 204.2 199.9 195.2 191.1 185.5 180.5 176.1 172.5 168.4 165.3 163.8 162.3 161.1 159.3 157.7 156.2 154.3 152.5 150.9 149.4 148 146.6 145.3 144 142.8 141.6 140.4 139.3 138.3 137.3 136.3 135.3 134.5
355.5 361.1 366.9 374.4 384 394.8 406.2 415.5 423.2 430.3 436.7 440.1 439.9 438.1 432.6 425.9 421.9 416.9 411.1 404.9 396.2 388 380.1 374.7 367.8 361.5 358.3 363.5 367.7 372.9 380.3 385.1 387.2 387.5 384 377.9 370.4 362.3 353.5 347.3 342.6 336.5 333.6 332.6 331.6 330.6 329.6 327.4 323 317.7 312.3 304.5 296.1 288.8 282.3 276.8 270.1 263.5 257.2 250.8 244.2 244.2 245.4 247 248.7 251.3 254.2 258.2 259.2 260.1 258.8 254.2 248.7 243.4 238.7 236.6 235.8 235.5 235 234.4 232.5 230.1 228.9 228.6 228.7 231.8 233.8 234.1 232.2 230 228.2 225.6 222 216.1 209.2 201.5 197 188 180.4 176.1 172.4 167.4 159.2 165.5 177.2 188.4 198 206.4 209.9 216.3 221.2 226.3 231.3 236.8 240.9 241.9 243.7 246.1 249.6 254.3 259.5 257.9 254.1 248.8 242.5 234.6 229.9 228.8 229.1 234.3 239 243 245 243.6 240.6 236.8 233.2 228.5 225 221.2 217.2 214.8 212.8 210.5 208.2 205.6 203 200.6 198.7 198.2 198 198.4 200.2 202.8 205.1 208.2 209.1 210.4 212 213.5 216.7 220.2 225 226.8 225.1 221.5 217.3 212.9 208.4 205.1 199.8 193.7 187.1 183 178.6 173.7 168.7 167 165.4 163.9 161.6 160 158.3 156.4 154.4 152.6 151 149.4 148 146.7 145.7 144.5 143.2 141.9 140.6 139.5 138.2 137.2 136.3 135.3
357 363.6 370.2 377.4 386.9 399.3 409.3 417.2 424.2 429.8 434.8 438.4 437.1 434.2 429 422.2 418 413.8 408.7 401.3 394.4 387 380 374.2 367.5 361.2 365.6 369.2 373 379.2 385.4 388.4 388.7 388.3 383.4 377.3 369.4 361.5 354.9 349.4 345.3 341.6 340.3 338.7 336.5 333.7 331.3 324.8 319.5 314.6 309.9 302.7 294.3 287.5 281.5 275.3 269.2 262.3 257.5 249.8 250.9 252.2 256.4 260.5 263.4 265.7 267.9 269.5 269.5 268.4 265.7 260.5 254.3 248.7 245.4 243.7 243.3 243.2 242.8 241.1 238.7 235 234.3 232.7 235.2 239 240.9 240.3 238.1 234.8 230.9 227.4 222.9 216.1 209.3 203.3 196.5 189.6 183.8 177.5 174.2 169.6 164.6 159.5 172.5 184.9 191.4 197.7 203.4 209.1 214.9 222 228.9 235.5 239.9 241.4 242.9 245.1 248.9 254.4 258.5 259.8 258.6 255.1 249.5 242.2 234.7 233.6 236.3 241.2 246.4 250.3 252.3 251.4 249.3 245.2 241.3 236.7 233.2 227.9 223.6 219.7 216.3 212.4 209.7 208 205.9 204.9 203.3 201.4 200 199.5 200.4 202.4 205 208.3 211.5 214.1 216.3 218.4 220.8 224.4 229 232.3 233 230.8 227.2 223.8 219.2 215.7 208.5 199.5 192.5 187.8 185 180.6 176.7 172.3 168.9 166.8 164 162.3 160.4 158.2 156.1 154.2 152.8 150.9 149.4 148.2 146.9 145.4 144.1 142.8 141.5 140.4 139.1 137.9 136.9 135.7
360 366.8 373.9 383 392.4 402.8 412.2 419.1 424.1 427.8 430.5 433 432 429.5 424.2 418.6 413.7 408.9 404.1 397.6 391.4 385.1 379 373.1 366.3 367.7 372.4 376 379.9 386.3 389.8 390.8 390.4 388.1 382.9 376 368.6 362.5 357.2 353.6 349.8 346.9 345.7 343.4 339.4 334.2 328.5 322.5 317.2 312 306 298.5 291.1 284.7 278.4 273 268 263.9 256 257 258.3 264.6 269.4 274.5 279.6 280.9 280.7 281.8 280.4 276.3 272.8 266.9 259.9 257 253.2 253.1 251.4 249.8 248.9 246.6 244.5 241.3 239.5 240.1 243.9 245.6 246.9 245.7 243.8 240.3 235.8 229.5 224.4 217.7 210.9 204.1 197.6 190.9 185.3 179.8 176.4 171.4 165.7 160.7 160.4 178.5 185.6 192.8 198.1 203.7 209.6 217.3 225.4 232.7 237.6 240.5 242.6 245.1 249.9 255.1 259.9 264.4 265 262.7 258.8 251.5 244 239 242 247.7 252.9 257.1 259.3 258.5 256 252.4 248.7 244.4 239.4 235.5 229.6 225.6 221.5 217 213.4 210.2 208.1 206.6 205.3 204.2 202.7 201.9 202.3 204.2 206.4 208.9 211.8 214.4 217.8 221.9 225.1 227.8 231.5 234.6 236.5 236.1 233.6 230.3 225.9 220.9 213.7 206.5 198.8 193.4 189.9 185.6 181.6 177 174 169.9 166.9 163.8 161.5 159.6 157.4 155.7 154.3 151.9 150.3 149.1 147.7 146.1 144.6 143.2 141.8 140.7 139.4 138.2 137.1 136
363.3 370.1 378.4 387.2 396.3 405.4 413.2 419.2 423 425.8 427.2 427.6 426.4 423.8 419.5 414.8 410.2 405.1 400.7 395.3 390.6 384.4 377.9 373.2 373.4 375.7 380 383.7 387.7 391.2 393.2 393.1 391.9 388.3 382.2 374.6 368.9 365.3 361.4 358.4 355.3 352.5 350.1 345.7 339.5 332.3 325.5 320.2 314.2 308.1 301.4 294.8 288.3 281.9 275.8 270.4 264.8 261.2 261.5 263.2 270.1 276.7 282.7 288.2 294.5 294.9 292.5 291.6 289.6 285.1 280.9 276.7 270.5 265.3 264 262.9 261.7 262 261.3 257.1 252.3 248.2 246.9 251.1 253 252 251.4 249.3 246 242.2 237.5 231.6 224.7 217.2 210.6 204.3 199.9 192 187.1 181.5 177 172 168.3 163.1 160.2 173.4 181.2 186.6 193.3 199.7 209.9 219.8 227.2 233.6 238.2 241.2 244.4 248 252.4 257.9 263.5 268.1 269.6 268.7 265.2 259.6 252.5 247 249.3 254.4 258.5 262.6 265.4 265.1 263.2 259.2 255.5 251 245.9 240.6 235.2 230.7 226.1 221.3 216.7 213.4 211.1 209.6 207.7 206.2 204.6 203.7 204.4 207.1 210.3 212.6 214.8 217.1 219.5 223.3 226.8 229.6 233.5 237.5 240.2 240.3 238.2 234.4 230.2 225.4 219.3 212.9 204.9 199.7 193.9 188.2 184.4 181.1 177.4 173.7 170.2 167.1 164.1 161.2 158.9 157.2 155.1 152.4 151.2 150 148.4 146.8 145.1 143.5 142.2 140.4 139.2 138.1 137.1 136
365.4 373.4 381.8 390.6 399.4 407.6 413.8 418.4 421.5 422.2 422.6 423.1 421.5 419.4 416.4 410.3 405.6 401.8 398 393.3 389.2 382.6 379.7 379.1 381.5 385.1 388.6 392.2 394.8 395.9 396.8 396.1 394 388.9 382.4 375.4 371.7 367.5 364.1 362 358.6 356.1 352.4 345.5 337.8 330.2 323.8 317.7 311.5 305.1 298.7 292.2 285.3 278.5 272.9 268.9 265 264.3 267 273 280.9 288.8 295.9 301.3 307.8 307.7 304.2 301.8 299.1 295.5 291.5 287.1 283.3 280.1 280.6 281.2 278.3 275.4 272.7 268 263.6 258.4 258.2 259.8 260.1 257.9 255 251.6 247.1 242.8 237.2 231.1 225.4 218.1 210 203.4 196.8 191.8 188.6 182.4 178.2 172.9 169.6 165.5 160.7 166.1 174.7 182.4 191.9 201.3 212.8 222.1 229.7 235.1 239.7 241.9 244.3 248.2 252.3 258.4 265.2 270 272.6 272.5 269.4 265.3 259.6 254.6 254.9 258.7 263.3 267.5 270.4 270.2 268.2 265.6 261 255.9 250.5 245.4 240.9 235.8 230.9 225.7 220.6 216.7 214.6 212.5 210.2 208.4 206.3 205.5 206.7 210.6 213.9 217.6 219.8 222.4 224.6 226.4 228.7 231.2 234.5 238.9 243.5 245.2 242.5 238.4 233.6 228.9 223.3 217.5 211.1 204.4 197.3 191.3 188.2 185.5 181 176.8 173.2 170.2 167.3 164 161.4 158.7 155.9 153.5 152.4 150.7 149 146.9 145 143.8 142.4 140.5 139.3 138.1 137.1 136.1
368 375.6 385 393.6 401.3 408.1 413.3 416.1 418.1 418.7 419 418 415.9 411.7 407.4 404 402 399.4 394.8 392 388.5 386.5 386.6 387.9 390.6 394.3 397.9 399.3 401 400.9 401 400.8 397.2 391.4 384.8 378.9 374.3 370.5 367.2 363.5 360.5 355 349.5 342.9 335.9 329.1 322.8 316.2 309.4 302.8 296.2 289.5 282.9 278.5 275.1 271 271.3 272 275.5 283.1 290.2 299.1 307 313.1 318 318.1 314.9 312.3 309.4 306 303 298 297 295.7 297.5 297.1 294 287.2 283.9 279.6 275.3 272 269.2 267.1 266.5 263.6 259.2 254.1 249.6 243.2 237.5 230.8 224.2 217.4 210.5 203.9 198 193.4 187.7 182.3 178.6 174.5 170.8 166.6 160.3 165.7 171.2 179.8 192.4 203.6 214.4 222.8 231.1 237 240.2 242.3 244.2 246.8 250.8 256.4 263.6 269.7 272.4 273.4 272.8 269.6 264.6 260.2 258.8 262.2 267.1 271.2 273.6 273.9 272.6 269.4 265.3 259 252.6 247.3 243 238.6 233.8 229.1 224.2 220.3 217.3 215 213 211.2 210.2 208.5 212 215.6 218.8 221.8 225 227.1 228.9 231 233 235.4 238.9 243.7 246.9 247.7 246.1 243.2 237.8 233.2 227.2 221.3 215.5 209 202.7 197.1 191.4 187 183.2 179.8 175.5 172.9 169 165.6 162.6 159.3 156.9 154.4 152.8 151.1 149.4 147.8 145.2 143.7 142.4 140.8 140 138.6 137.1 136.1
368 376.8 386 394.3 401.1 405.6 408.3 410.1 412.7 416.1 417.3 415.6 413.3 409.1 405.2 401.5 398.6 397.2 395.6 393.5 392.4 393.6 395.1 396.7 400.2 405.8 408.2 409.4 409.5 407.8 407.6 406.5 401.1 395 387.3 382.2 377.3 372.5 368.4 363.9 359.7 354.1 348.2 341.6 334.4 327.4 320.9 313.9 307 300.5 294 289.6 286.8 284.4 281.7 280.3 280.9 282.6 286.9 292.1 299.1 308.3 316.5 323.8 327.7 328.5 324.8 322.1 318.7 315 311.9 309.5 307.7 308 309.6 309.8 305.7 300.4 294.9 289.8 286 284.1 278.4 273.9 272.3 268.8 263.9 258.5 253.5 246.7 238.7 231.1 224 217.4 211.8 204.5 199.3 194.1 187.3 182.4 179 175.1 170.9 166.9 161.4 165.4 169.3 176.3 189.6 203.3 213.9 222.7 231.1 237.7 240.8 242.5 243.4 245.1 247.7 251.8 260.3 267.4 272.9 274.4 273.9 271.7 268.5 264.3 264.6 267.7 272.1 273.4 275.4 275.5 275 271.4 267.3 260.8 254.3 248.6 243.9 238.4 234.4 229.4 225.8 222.8 220.1 218.1 216.5 216.3 215.1 212 217.5 220.4 223.6 226.1 228.8 231.6 234.1 236.8 240.4 245.4 249.5 251.2 252.3 251.7 250.5 247.6 243.2 238.1 232.5 226.9 220.7 214.3 208 201.6 195.7 190.5 186.2 181.6 177.8 173.7 170.3 167.4 163.5 160 157.3 154.8 153.2 151.7 149.8 147.8 145.6 144.4 143.2 141.9 140.6 139.3 137.8 136.8
367.9 375.6 384.3 391.6 396.5 400.8 402.9 404.6 407 410.7 413.9 414.3 413.4 410.2 406.1 403.1 399.4 397.2 397.4 396.8 399.2 401.9 404.3 406.9 410.8 415.3 417.6 418.5 418.6 416.8 414.6 409.6 403.9 397.8 392.3 386.4 380.4 374.2 368.8 363.9 358.6 352.8 346.8 340.2 333.1 326 319 312 305.2 300.9 297 295.1 293.4 291.7 289.9 288.8 289.4 293.2 296.1 300 306.8 316.2 325.5 332.2 336 336.8 333.2 329.6 326.2 322.8 319.9 318.4 317.7 317.4 318.1 316.6 315.2 311.2 305.8 299.8 295.8 292.7 287.5 284.2 280.1 274.4 268.3 264 258.1 250.6 241.6 233.5 225.4 219 213 206.6 201.3 194.7 189.1 183.6 179.2 176.7 172.6 168.2 161.5 161.2 165.6 173.7 185.6 199 209 218.4 227.4 234.7 239.1 240.1 240.1 241.9 243.9 247.6 254.4 261.4 265.2 268.2 269.6 269.5 268.7 268.1 270.9 275.9 277 275.3 274.3 273.9 272.3 269.6 266 261 254 248.5 243.7 239 234.5 229.6 228.8 227.6 225.9 224.7 222.5 220.2 219.7 216.6 221.5 224.7 227.7 230.3 232.2 235.4 238.8 243.5 248.6 252.5 255.1 256.8 256.8 256.7 255.8 254 250.8 246 238.2 233 227.5 220.8 215.3 208.7 201.8 196.4 190.3 185.6 181.2 177.4 172.7 169.3 165.5 162 158.8 156.2 154.5 152.9 150.5 148.5 147.3 146 144.2 143.1 142.1 141 139.5 138.4
367.3 373.1 379.1 383.1 386.3 388.7 391.5 394.5 397.4 401.7 406.2 409.3 410.5 411.3 410.7 408.2 404.7 402.8 402.5 404.5 407.2 410.2 412.8 415.2 418.6 421.9 424.3 425.3 425.6 423.8 420.3 415.1 408.7 400.9 395.7 389.7 383.6 376.7 369.6 363 357.7 352 345.9 339.4 332.4 325.1 317.9 313.1 309.6 307 304.6 302.2 300.6 299 297.6 296.1 297 299.8 302.2 305.9 313.3 323.4 332.2 338.9 343.2 344.2 340.9 337.1 333.5 330 327.4 327.5 327.5 327.4 328.3 325.5 322.4 319.1 313.2 309.3 306.2 302.3 296.6 294.3 290 283.5 276.8 270 263.2 255.2 246.5 237.7 228.5 220.6 214.3 208.4 202.9 196.5 191.7 185.8 181.1 177.4 173.6 169.5 163.4 163.2 162.2 168.7 180 189.4 199.9 210.8 220.9 229.2 233.2 235.2 235.3 237.3 239 242.7 249 254.5 259.7 263 264.3 265 266.6 269.1 273.6 277.2 278.6 276.7 273.7 270.7 267.8 264.8 260.7 256.2 252 247.5 244.3 240.9 236.1 236.7 236.6 234.5 232.3 229.8 227 225 223.1 219.7 224.3 227.4 230.2 233.1 236 241.3 247.8 252.5 256.7 259.7 261.9 262.9 263.2 262.9 261.5 259.7 257 252.9 247.4 240.8 234.1 228.1 222.5 216 210.4 204 197.5 191.2 185.9 181.4 177.1 172.6 168 164.5 161.3 158.7 156.4 154.6 151.6 150.7 149.4 147.9 145.8 144.6 143.6 142.6 141.5 141.8
363.5 367.1 370.3 372.6 374.6 375.7 376.5 378.6 384.6 389.4 394 400.2 404.3 408.9 411.8 412.1 411.6 410.3 411.5 412.8 415.3 417.9 419.9 422.3 425.4 428.2 430.4 431.4 431.5 430.1 426.1 420.4 414.1 407.3 399.7 392.2 385.4 378.8 370.5 362.7 357.4 351.9 345.3 339.8 333.4 327.4 323.2 318.9 317.3 314.9 312.4 309.3 307.1 305.2 303.8 302.7 303.5 305.6 308 312 318.3 328.8 337.7 343.5 347.3 347.7 344.9 340.6 336.9 333.7 332 331.6 332.3 333.4 334.3 332 327.9 324.1 319.2 315.1 313.6 310.1 306.3 303.9 300.9 294 286.6 278.5 269.8 261.3 251.9 242.1 233 224.2 216.7 210.8 204.3 198.7 193.3 188.1 183.8 179.5 176.7 172.7 168.9 162.9 162.7 166.1 171.2 181.9 191.1 201.4 211.2 220.7 226.2 228.6 230.5 230.3 231.5 235 239.3 245.8 250 254 256.4 259.3 262.3 266.3 271.9 275.1 276.2 275.2 264.5 265.8 266.3 262.7 259.4 255 251.3 248.3 245.9 242.2 243.8 243.7 242.3 240.2 237.3 233.8 230.9 228.1 225.1 225.4 227 229.5 233.1 237.4 244.3 250.2 255.7 260.2 263.6 265.9 268 268.6 268.7 267.8 266.3 264.5 261.6 256.9 251.4 246.1 240.2 236.9 230.6 224.1 218.1 209 201 194.9 188.8 183.8 179.7 175 170.9 166.7 163.7 160.5 158.3 155.2 153.9 153 151.1 149.9 148.3 147.1 146 145 144.3 144.7
356.2 358.6 360.5 362 363.7 363.6 362.6 364.1 368.8 376 382.2 390.1 396.6 402.6 408.5 411.9 413.8 416.5 418.6 420.4 422.3 423.8 425.8 428.2 431.1 433.2 435.8 436 437.7 435.9 433 425.5 418.5 411 404.4 395 387 379.6 371.6 363.9 357.7 354.2 348.6 343.7 337.4 334.1 332.1 329.9 328.5 325.1 320.7 316.6 313.7 311.6 310.2 309 308.3 310.7 313.5 316.8 323.4 330.7 337.1 342.7 344.6 343 339.3 334.6 330.7 327.6 326.6 326 327.5 329.9 333.4 335.7 332.8 327.5 324.4 321.7 320.8 318.1 314.9 313.9 309.9 301.9 294.3 285.8 275.9 268.1 260.2 250 241 232.3 222.6 215 208.4 202.6 197.5 193.1 187.9 182.9 179.5 176.1 172.9 163.4 163.6 162.6 165.9 173.4 182.6 190.8 200.4 209.4 218.9 222.7 223.8 223.1 223.7 226.4 230.7 235.9 240.6 243.9 247.2 251.9 256.5 261.7 267.1 270.3 267.9 264.1 268.1 267.7 266.4 265.3 257.7 253.6 250.5 248 245.9 247.5 250.8 248.3 246.1 243.2 238.7 235.6 233.2 230.3 228.2 229.2 230.8 235.8 240.5 245.3 252.3 259.4 264.9 268.8 271.2 271.6 273.5 273.2 272.4 271.1 269.1 266.1 262.6 258.2 254.2 249.7 244.5 240.6 237.2 231.7 225.1 213.4 203.5 197.3 190.9 185.4 181.4 177.2 173 168.7 165.4 162 159.9 157.7 156.5 155.5 154.6 153.4 152.1 151.7 150.7 148.9 147.3 148
349 349.3 350.3 350.7 351.4 351.3 354.1 356.2 362.5 368.6 375 381.2 388.3 394.2 401.2 406.8 411.6 416 420.6 424.7 426.7 428.9 431 433 435.3 437.4 439.3 440.1 442.1 440.1 436.2 429.6 422.1 413.8 406.7 400 390.6 382.9 376.2 369.8 362.3 359.8 355.9 352.4 349.1 346.5 343.2 341.7 340.4 338 334.2 329.9 326.3 323.1 320.9 319.4 318.7 318.8 319.6 320.5 326.4 332 337.4 340.5 339.1 334.8 330.3 326.1 323 320.6 319.4 319.5 321.5 323.7 327.5 330.4 330.9 329.8 328.4 325.2 323.9 321.9 320.3 315.9 311.8 306.5 298.5 290.2 281.2 274.1 268.4 260.3 251.4 241.3 230.8 224.6 216.8 210.7 204.7 199.8 193.7 186.6 181.5 178.6 175.2 170 164.2 163.6 163.7 164 174.8 183.1 191 198.9 207.9 213.2 214.9 214.9 216.4 218.9 223.2 227 231.5 236.3 239.4 243.7 250.3 257.4 263 267.1 268.3 263.7 266.6 265.4 264.8 260.3 256 250.2 249.5 247.8 248.9 250.9 252.1 251.1 248.9 245 240.4 237.1 234.6 231.8 232.2 233.9 236.8 240.9 245.8 251.4 259.4 267 273 276.3 278 278.8 278.4 277 275.4 272.7 270.1 267 262.7 259.2 255.6 251.5 246.3 242.2 237.2 231.6 224.7 215.8 206.2 198.8 192.2 186.2 182.8 178.3 174.5 170.5 167.1 163.9 161.7 160.4 160 160.7 161.6 160.8 158 158.8 158 156 153.7 153.2
341.1 340.7 341 340.6 341 344.2 348.6 353.1 359.1 367 373 376.8 379.1 383.7 390.9 397.9 404.8 412.1 419.3 424.7 428.8 432.3 434.6 436.5 438.3 440.2 442.3 444 444.5 441.5 437.2 431.3 423.8 415.8 407.8 401 394.7 387.8 381.8 376.7 371 366.9 364.5 361.8 358.7 355.8 353.2 351.7 349.5 347.2 344.9 340.8 337.6 334.6 331.7 329.4 327.8 326.6 326.6 326.1 331.2 335.7 338 336.8 332.1 327.2 322 317.9 314.8 312.8 311.4 311.8 313.4 315.8 317.8 319.9 321.1 322.1 323.9 323.3 322.2 322.7 321.7 318.7 313.4 307.5 301 293.1 285.2 278.7 271.5 265.7 259 250.4 239.8 234.4 227.8 219.8 213.7 206.5 200.3 193.7 186.7 180.7 176.7 172.5 168.8 164 164.2 164.4 166.1 174.2 182.5 189.1 197.2 204.1 205.3 207.3 209.5 213.3 216.7 219.9 224.1 228.6 233.3 238 244.9 252.8 259.6 262.8 266.1 265.4 265.2 265.4 259.9 256 251.9 250.9 250.2 247.4 247.1 249 251.9 251.9 247.7 246 241.5 237.8 234.9 236.4 237.6 238.5 240.8 244.2 250 256.4 264.4 272.5 278 281.4 284 284.9 284.8 281.3 277.8 272.9 269 264.7 260.1 256.8 253.9 250.3 245.6 239.7 234.9 229.4 222.1 214.9 206.5 198.7 192.6 187.8 183.2 178.9 175.2 172.2 169.7 166.7 164.8 166.7 167.3 167.9 167.6 166.9 165.7 164.6 162.8 160.6 158.4 158.3
334.2 333.4 332.9 333 334.5 338.5 343 347.8 354.2 361.2 367.6 371.9 373.5 376.7 381.8 387.9 395.2 405.3 413.9 421.7 429 433.4 436 438.3 440.4 442 445.3 445.6 446.8 442.9 437.6 430 422.7 414.9 407.7 401 395.4 390.4 385.2 380.6 376.7 373.2 369.9 368.1 367.1 365.3 363.5 360.9 358.8 357.2 354.8 351.7 348.6 345.2 342.1 339.1 335.6 333.8 332.4 332.2 335.8 337.5 335.7 331.8 326.3 319.6 314.1 310.9 307.2 303.7 302.4 302.5 304.5 306.3 308.2 310.2 311.1 312.3 313.8 315.9 317.8 318.7 318.9 316 314.2 309 301.5 294.1 286.3 282.2 276.1 268.9 263.4 255.5 248.1 241.3 235.2 228.7 223 215.5 209.5 202.4 193.2 185.1 179.9 175.5 172 168.6 164.5 163.8 164.8 165.5 175.1 182.5 188.9 196.3 197.6 201.5 205.4 208.7 211.7 214.4 217.1 220.7 225.9 230.3 238.5 246.9 252.8 255.6 259 260.1 259.2 256.8 253.7 251 248 246.1 245.1 244.4 246 248 250 249.4 247.5 244.3 239.3 239.6 241.4 242.6 243.6 244.3 245.2 248.1 253.7 260.8 268.7 276.9 281.7 285.2 287.7 289.8 287.5 283.9 279.3 274.3 268.7 263.5 258.3 251.5 248.5 246.2 241.6 235.6 229.9 223.6 217.9 210.6 204.6 198.6 192.7 188.1 183.3 180.7 178 175.1 172.5 172.8 174.5 176 176.5 176 174.9 173.2 171.6 170.1 168 165.4 163.2 163.7
330.6 328.9 328.1 327.5 328 331.4 336 341.3 346.2 351.6 356.9 362.9 366.1 368.5 373.7 380.5 387.5 397.5 407.2 416.6 424.1 430.7 436.1 438.1 440.9 441.8 444.9 446.5 446 441.9 435.9 428.6 420.5 412.6 405.7 400.2 394.7 390.6 387.5 383.2 379.8 376.7 374.6 373.3 372 370.7 369.4 368.4 366.9 365.1 362.5 359.3 356 353.3 349.3 345.9 342.2 339.2 336.7 336.8 337.8 337.8 334.5 328.2 321 313.4 307.6 303.3 299.4 295.5 293 292.6 294.5 295.9 297.4 299.8 301.3 302.8 304.2 306.9 310.5 312.9 314.9 314.2 310.6 305.2 298.9 293.4 287.4 282.2 277.3 271.3 264.5 257.2 250.7 244.6 237 234.3 230.2 223.9 217.4 209.7 200 189.7 182.5 177.9 174.3 171.1 164.9 165.1 164.9 165.4 168.7 177.3 184.4 188.9 191 195.9 201.6 206.8 208.6 209.6 211.8 215.5 219.7 225.7 232.4 238.9 244 247.9 250.8 251.6 252.3 248.5 247.2 245.2 242.1 240.3 240.8 242.9 245 246.6 247.1 247 245.4 242.4 243.2 244.9 246.7 248 249.3 250.1 251.2 254.2 259.2 265.7 274.4 281.3 286.4 288.5 289.9 290.3 287.8 283.7 278.9 273.9 268.3 262.4 255.8 248.8 242.3 236.7 231.5 225.7 220.8 216.8 212.2 207.1 202.5 198.5 193.8 190.2 186.5 183.8 181.3 179.8 180.8 181.6 182.3 182.5 182 181.7 180.3 179 177.7 175.7 172.8 169 167.4 166.4
327.4 325.9 324.3 322.9 322.8 324.6 328.4 332.8 337.7 343.4 348.3 352.7 357 359.4 365.7 372.7 380.9 388.5 398.4 408.6 418.6 425.1 429.9 434.1 437.3 439.6 441.5 442.8 442.1 439.1 432.6 424.8 416.4 408.4 402 396.3 392.4 389.6 386.6 382.8 381 378.7 375.1 372.9 372.3 371.9 371.2 371 370.9 369.9 367.4 364.5 362.2 358 354.3 350 346.3 343.5 341 341 339.8 337.7 332.2 325.3 316.4 308 301.6 296.4 293 289.8 287.7 286.1 285.5 286.5 287.9 288.8 290.3 291.7 294.2 298.2 302.2 306.8 311.1 313.1 311.4 305.5 300.4 294.2 288.8 282.9 276.8 270.8 263.9 256.3 249 242.5 235.9 231 226.6 224.5 219.9 213.5 203.9 193.3 185.3 180.8 177 173.2 165 165.5 165.3 165.4 165.8 169 178.1 183.1 186.6 189.9 195.2 200.2 204.4 206.3 209.1 211.2 216.1 222.6 229 232.9 236.3 239 241.2 242.4 241.4 240.2 238.9 236.8 236.1 236.7 238.2 240.5 242.5 244.2 244.8 245 245.1 245.7 247.6 249.6 252.4 255.3 256.5 257.7 259.2 260.1 263.3 269.2 278.8 285.2 289.4 291.6 291 289.3 285.7 281.1 275.7 271.7 266.3 261 252.9 244.4 236.8 231.9 227.4 223.4 219.4 216.6 212.4 208.9 204.9 199.3 196.1 193.7 190.7 188.6 188.5 189.9 190.3 190.9 191.1 190.8 190.1 188.6 187.5 185.2 183.7 181.7 178.5 174.2 172.1 169.1
324.5 321.3 319.5 318.6 318.2 318.1 320.8 324.2 328.5 334.8 339.9 344.3 347.3 350.9 355.8 364.4 373 382.2 390.2 400.3 409.5 417.1 423.6 428.2 431.5 433.8 436.8 438.2 438.3 434.8 428.6 420.6 411.5 403.6 395.9 391.2 387.5 384.9 382.2 379.5 376.7 374.1 371.9 370.1 369.7 369.4 369 368.7 368.4 367.5 366.6 365.5 363.9 361.5 356.8 352.7 348.3 346.5 345.9 344.9 341.2 336.1 330.1 322.3 312.1 304.2 297.4 293 289.6 286.5 284.8 282.9 281.7 281.2 281.1 280.6 280.8 281.4 284.1 288 293.2 299.3 304.7 308.6 309.1 306.1 299.9 293.4 287.8 281.6 275.2 269.5 262.2 253.9 246.9 239.9 233.3 227.8 222.4 218.9 214.7 211 204.8 195.8 186.9 182.5 179 175.7 171.1 165.4 166.1 165.8 166.6 169 176.1 180 182.4 185.3 189.4 194.5 199.2 202.3 204.4 207.6 212.6 219 223.2 226.1 228.9 231.5 234.2 234.6 234.4 234.1 233.7 232.2 231.5 232.1 234.3 236.5 237.8 239.8 242.1 244.2 246.7 249.5 252.7 256.2 259.2 262.5 265 265.3 265.6 265.8 268 273.3 282.5 288.7 291.6 292 290.5 287.8 282.9 277.7 272.2 266.6 261.1 254.5 246.8 239.4 233.9 228.6 224.7 221.1 218.1 215.5 212.4 209.5 205.7 202.3 200.4 198.5 197.3 196.8 198.3 200.2 201.9 203.6 203.1 202.9 201.1 199.5 197 194.7 191.1 187.1 183.8 179.6 175.1 173.3
319.2 316.2 314.2 311.6 310.5 311.3 311.9 314.7 317.3 323 329 333.6 337.3 341.7 348.1 356.3 364.7 374.3 381.5 391.7 400.3 407.3 413.6 419.5 423.8 426.6 428.7 430.7 432.1 429.3 423.9 416.5 407.2 397.9 388.5 381.5 379.4 377.4 374.7 372.1 369.8 367.3 365 363.1 362.3 362.3 361.8 361.5 360.6 360.1 359.7 359.4 359 357.7 355.1 352.3 349.3 348.2 347 344.7 339.4 333.1 327.2 318.8 308.2 301 294.7 290.2 286.7 284.3 281.1 279.2 278.3 276.9 274.1 273.6 271.4 271.3 275.5 279 284 290.3 297.1 302.4 305.6 306.4 302.2 294.8 287.8 279 272 265.6 257.9 250.3 243.2 236.3 229 223.5 218.2 213.6 209.3 205.8 202.4 195.9 187.9 183.2 180.1 175.9 170.9 167.9 166.3 166.8 167.1 168.9 171.7 176.4 180.2 183.6 186.8 190.4 193.8 197.5 201.3 205 209 214.3 217.4 220.6 222.6 224.7 226.5 227.1 227.8 227.7 227.7 227.2 227.2 228.1 230.2 232.8 234.9 237.3 240.6 244 248.2 252.4 256.7 261 265.2 268.3 269.4 269.5 269.8 269.9 272 278.1 285.1 289.5 292.6 291.7 288.7 284.5 279.6 273.2 267.5 261.7 254.1 247.5 241.5 236 231.1 226.5 224.2 221.8 219.5 217.3 215.1 212.8 210.5 210.4 208.4 211 211.7 211.8 212.4 212.7 212.7 213.5 215.3 216.2 214.4 212 207.3 203.5 199.6 194.9 189.4 183.2 178.4 175
316.5 313.5 310.1 307.3 305.5 305.8 306.4 307.6 309.5 311.5 315.2 320.3 326.1 331.1 339.2 347.2 357 366.3 375.8 382.5 390.9 399 405.4 410.6 413.7 416.5 419.2 421.1 421.9 420.2 416.4 409.7 401.5 392 381.4 373.9 370.2 369.1 366.5 362.9 360.1 357.8 356 354.1 353.2 353.2 351.9 350.2 348.8 348.6 348.7 349.1 349.7 349.7 349.1 347.7 346.7 345.9 343 339.3 335 328.6 322.2 314.8 305.6 298.1 291.6 288 286 286.6 285.1 282.7 279.5 278.1 275.6 274.5 271.8 269 267.5 269.5 275.3 281 287.2 294 299.8 301.1 298.4 291.4 283.1 276 267.7 260.2 252.3 244.9 237.5 230.9 223.8 218.3 213.2 208.7 204.9 201.6 198.9 194.8 187.9 183.8 180.5 175.1 171.8 168 167.1 165.4 173.8 176.1 175.6 174.1 175.8 181.1 186.4 189 192.1 194.9 198 201.3 205 209.3 211.9 214.2 215.9 217.6 219.2 220.3 221 221.4 221.7 222.5 223.3 224.1 226.4 229.6 232.3 236.4 240.1 244.7 250.1 255 260.1 264.9 269 271.9 272.6 271.2 270.8 272.2 275.2 279.2 283.8 287.7 291 290.1 287.3 282.9 276.2 270.7 264.2 258.2 251.6 243.9 239.1 235.6 232 228.2 227.4 225.2 223.4 221.7 220.5 220.6 221.3 223.7 226.4 228.8 229.9 229 227 226.5 226.3 226.4 225.1 225.8 225.6 222.5 216.7 210 203.7 196.2 190.3 185.2 179 174.8
312.3 309.8 305 302.6 301 300.1 298.8 299.8 301.1 302.9 306.4 311.2 316.1 321.7 332.3 341.8 348.7 357.8 368.9 373.6 379.4 385.7 393.8 399.9 403.6 405.8 408.3 410.3 410 408.8 405.7 401 393.6 384.7 374.5 365.2 359.7 356.8 354.5 350.6 348 344.7 342 339.8 339.6 339.8 338.1 336.9 335.4 333.8 333.5 334.2 337 338.7 340.3 340.4 339.9 338.9 336.5 333 328.8 322.9 316.1 309.6 301.5 294.7 288 287.3 290.1 291.9 291.4 288.7 285.7 282.5 280.3 277.7 274.3 270.8 267.9 265.8 264.2 271 276.4 282.3 288.4 291.2 290 283.1 275.5 269.8 262.8 255.6 247 239.7 232.3 224.9 218.1 212.1 207.7 203.8 199.8 196.3 193.5 190.6 186.5 182.8 178.5 172.1 166 167.1 166.9 173.7 177.7 181.4 182.4 183.8 183.7 183 184.6 185.3 190 193.9 195.7 197.8 201.1 203.6 207 209 210.7 211.5 212.9 214.5 215.7 216.5 217.2 218.3 219.7 221.6 224.1 227.6 231.5 236.1 240.4 245 251.2 258.3 262.8 267.2 271.2 273.1 273.2 271.5 270.8 271 273.3 276.4 280.3 283.3 284.4 284.5 281.7 276.8 271.1 265.9 260.7 254.5 248.4 243.2 238.8 236.5 235.2 234.6 232.7 231.3 230.3 230.1 231.8 233.7 236 239.8 243 245.9 247.2 246.9 245.9 242.1 241.1 237.1 233.7 231.1 229.5 225.8 220.8 213.9 204.3 195.8 190.6 185.2 179.8 176.8
304.8 303.2 298.9 297.3 297 295.3 293.7 293.9 294.6 296.2 299.6 303.6 309.2 316.6 327.6 336.6 342 347.5 356.4 366.2 371.3 374.4 378.5 385.5 391.3 396.9 399.8 401.4 400 397.5 393.7 389.3 382.8 374.9 366.4 357.2 350.2 343.6 338.3 333.9 329.5 324.6 322.7 323.6 324.8 323.8 324 323.8 323.7 322.9 322.7 322.5 323 324.3 325.8 326.7 328.2 329.9 328.5 325.2 321.4 316.1 310.2 303.9 297 292.7 287.7 287.3 291.8 294.2 295.5 294.8 292.7 289.8 286.6 282.8 279.6 274.5 269.6 266.7 262.8 261.5 266.1 271 275.7 279.7 279.9 274.5 267.4 260.4 254 246.7 239.2 231.4 224.6 218 211.7 206.9 203.9 199.9 196.6 193.4 191.3 188.5 184.8 180.1 174.2 167.3 166.8 169.3 173.2 178.1 181.4 184 187.7 191 191.6 190.9 191 191.3 191.3 191.5 195.8 197.9 199.7 201.2 202.9 204.9 206.4 207.6 209.1 210.5 212.1 213.6 214.8 215.6 217.7 219.9 222.4 225.6 230.7 235.4 239.1 243.8 250.6 257.8 262.8 267 270 272.2 272.9 271.4 269.2 268.7 267.6 271.1 274.5 276 277.8 278.6 274.8 270.1 265.5 260.1 255.5 251.8 246.7 242.8 240.6 239 238.8 238.1 238.7 238.1 239.3 239.8 242.2 245.3 248.7 251.4 254.3 256.5 258.2 259 256.9 253.7 250.4 246.6 241.9 237.6 231.6 226.5 220.2 212.8 204.5 196.9 189.6 185.3 182.2 179.1
298.9 295.1 292.9 292.2 291.6 290.1 289.6 290 291.3 292.6 294.5 296.8 299.9 308.6 317.2 325 333 339 345.1 352.9 359.8 363.7 368.1 372.3 378 383.4 387.3 389.6 390.3 388.3 384.2 377.9 371.2 364.7 357 349.7 341.4 332.4 326.4 320.4 316.5 312.8 312.4 314 314.7 315.2 314.6 314.2 314.3 314.2 314.3 314.6 314.1 313.2 314.1 316.2 316.3 316.8 316.9 315.2 312.2 308 303.2 297.9 293.2 290.3 288.5 288 292.5 295.6 297.5 299.1 299.5 298.4 294.4 289.2 284.4 280 274.8 268.3 264.2 259.6 256.9 260.6 263.8 266.8 268.2 264.1 257.4 250.2 242.2 236.1 229.7 223.3 217.6 211.5 207.3 204.3 201.3 197.7 194.7 192.3 189.8 187 182.2 176.1 166.8 168.1 171.6 174.8 179.3 182.2 184.4 188.6 194.2 198.2 201.2 200.3 199.6 196.6 194.9 195.6 196 197 199.4 200.2 201.8 203.3 204.7 206 207.3 208.8 210.4 212.5 213.6 214.7 216.8 218.9 221.7 224.3 228.3 233.5 237.3 242.9 249.2 255.4 260.6 263.7 266 268.1 268.8 267.8 266.1 264.5 263.8 265.6 266.9 268.1 268.9 267.9 265.8 262.8 260.7 256.8 253.3 249.7 245.6 243.1 241.6 241.1 241.6 242.6 242.9 243.4 245.1 247.1 249.1 251.6 254.3 257.8 261.1 264 266 267 265.2 259.9 255.8 250.9 247 240.9 235.1 228.6 221.7 213.3 205.5 198.1 189.5 186.4 183.5 180.8
292.3 289.5 288.3 288.6 287.2 286.4 286.8 287.3 287.8 288.6 290.1 292.5 294 297.6 304.4 312.6 324.3 331.2 336.8 344.1 348.7 351.8 356.6 359.8 364 369.5 374.5 375.8 375.8 373.5 369.8 365.9 360.4 354.5 347.7 342.1 334.7 325.5 319.8 315.2 310.9 307.2 305.8 305.4 306 305.9 304.6 304.2 304.4 305.2 305.2 304.4 305.1 305.8 306.9 307.1 307.5 307.2 306.4 304.4 301.5 299.2 295.5 291 289 287.7 288.4 287.9 291.5 295.8 298.7 302.2 305.3 306.4 303.6 298.3 292.4 286.6 280.4 274 266.3 260.1 255.1 251.7 252.8 254.7 255.9 253.3 248.3 241.7 232.7 226.4 221.3 216.1 211.9 208.9 205.3 202.1 199.4 196.2 192.8 190.4 188 185.4 179.5 169 167.9 174.1 177.4 181.9 184.7 187 189 194.1 202.2 207.6 209.1 209.8 209.4 205.4 200.6 198.4 198.7 199.2 199 199.8 200.9 202.1 203.4 204.4 205.2 207.2 209.2 211 213 214.1 215.5 217.3 219.2 221.6 224.7 230.2 233.2 238.7 245.1 251.5 256.1 259.4 261.7 263.6 263.9 262.8 261.3 259.8 258.8 258.7 259 259.9 259.1 257.5 256.6 257.8 257.4 254.8 251.7 248.1 245.2 243.2 242.7 242.8 244.2 245.5 246.2 246.5 247.8 249.4 251.3 253.2 256.7 260.1 263.3 266.1 267.6 267.8 266.4 262.2 257.2 253.2 247.7 241.9 235.4 228 218.6 211.5 204.8 196.3 190.9 187.4 184.2 181
288.4 286.4 284.9 285.5 283.2 282.9 282.8 283.8 283.7 284.8 286.9 287.4 289.2 292.9 296.6 305.2 312.6 320.1 324.6 330.3 334.8 338.4 342.3 348.4 351.5 357.4 362.8 365.1 362.4 358.9 356.1 353.9 345.8 339.5 333.2 328.1 322.1 315.9 313 309.5 305.5 302.3 299.9 298 296.7 296.2 296 295.9 295.2 295.6 295 292.3 293.9 296.7 297.4 298.1 298.5 298.3 298.1 296.3 294 291.3 288.1 285.3 283.8 283.5 285.1 286.8 289.6 294 299.1 303.8 308.3 311.4 311.7 308.1 303 295.9 288.3 280.4 272.7 263.8 257 251.2 246.5 244.6 244.6 244.3 239.9 232.1 226.1 221.7 217.2 213.1 209.9 206.9 203.3 199.7 197.3 193.4 189.9 186.1 182.2 177.5 173.3 169.2 170.2 179.9 183.8 188.2 190 192.6 196.5 201.7 209.1 217.4 219.9 219 217.5 214.9 210.6 205.4 202.2 201.8 201.6 200.9 200.1 200.9 201.3 202.2 203.3 205.4 208.2 209.5 211.3 213.5 214.6 216.4 217.6 219.4 221.6 224.9 228.4 234 239.4 245.8 251 254.4 256.3 257.5 258.1 257.3 255.4 253.2 253 251.9 250.5 250 250.6 251.4 252.7 253.4 254.1 252.1 250.1 246.9 244.2 243.6 243.6 244 244.5 245.3 246.3 246.5 248.1 249.6 250.8 252.8 255.4 257.6 260.5 263.1 265.1 265.9 264.8 261.5 256 252.1 246.6 240.1 232.1 225.3 216.5 210.5 204.9 198.3 191.7 188.2 184.7 181.3
285.4 282.9 281.7 281.5 280 279.4 279.5 279 280.1 281.9 283.7 285.3 288.5 292 294.2 296.6 301.1 308.5 313.1 319.5 325.2 328.8 333.1 337.6 342.4 346.2 352.2 354.5 353.2 350.2 344.5 340.3 333.6 328.6 322.9 318.9 314.1 309.6 307.5 303.9 300.4 296.8 294.8 292.1 289.8 288.2 287.7 286.6 287 285.3 284.5 282.2 282.7 285.8 286.3 286.8 287.9 289.4 289.6 289.9 288.2 285.8 283 281.3 280.2 280.2 281.3 283.3 286.5 291.2 296.7 302 307.7 311.5 314 314.6 312.1 306.6 297.2 289.5 281 271.6 261.1 253.2 247.7 243.2 239.2 236.4 232.9 227 223.2 219.4 215.6 213.4 209.9 207.3 204.9 202 198.2 196.3 193.5 189.6 185.6 181.1 176.2 168.6 176.7 184.6 190.6 195.1 198.8 203.1 207.5 211.3 219.5 225.2 227.9 227.3 226.3 224.9 222 217.2 211.6 206.7 204.9 204.1 203.3 201.9 201 202.4 203.3 204.4 205.8 208.4 210.4 211.8 213.2 215 216 216.9 218.3 220.1 222.9 226.8 231.7 238 243.5 247.3 250.1 251 251.7 250.6 248.3 247.3 245.9 244.6 243.1 242 240.3 246 248.9 250.6 250.5 249.3 247.3 245.1 243.5 243.1 242.9 242.5 242.4 242.1 242.2 243.1 244.7 246.5 248.3 249.7 250.3 251.8 254.1 258.1 261.2 261.5 261 258.4 254 249.7 245.5 238.5 232.9 226.4 216.4 210 203.9 197.2 192.2 188.5 184.9 183.4
281.3 279.3 278.8 277.8 276.6 276.2 276 276.2 278.1 280.2 282.2 284.2 286.7 291.3 293.9 297.5 307.1 312.4 315.6 316.6 320.3 322.5 326 328.3 330.1 335.1 342 343.9 344.1 341.9 336.9 331.7 326.1 321.4 317.1 312.6 309.1 305 302.3 299.4 296 292.3 289.5 287.5 284.9 283 281.2 278.7 277.7 276.9 274.8 274.8 273.9 274.9 276.1 276.1 275.9 275.8 278.2 280.8 281.3 279.4 276.8 276.2 276.3 276.9 278.5 281.4 284.3 288.2 292.8 297.8 302.8 307.8 311.5 314.6 316.5 312.7 305.6 297 289.6 280.3 269.9 258.9 250.4 245.4 240.8 236.8 232.3 228.3 225.4 222.3 218.7 215.9 212 209.3 206.9 204.7 200.7 198.1 194.9 191.1 186.6 183.2 179 168.9 176.3 186.2 192.9 200.2 207.7 212.6 214.5 219.4 226.9 230.3 231.9 231.6 231.9 230.9 229 225.8 221.3 217.9 213.1 209.6 207.6 205.6 204.7 205.2 205.7 205.7 206.8 208.5 209.4 210.2 210.8 213 214 214.2 214.9 215.7 217 219.3 224.8 229.6 235.1 239.6 243.8 245.2 245.6 244.5 242.1 241 239 236.8 235.8 235 234.5 240 244.3 247.2 246.6 245.3 243.4 242.1 241 241 240.3 239.1 238.1 237.2 237.3 237.7 239.3 239.7 241.1 243.8 246.2 247.4 250.3 256.9 260.3 261 261.4 258.9 253.1 248.2 244.6 239.1 233.5 227.2 217.9 210.8 206.6 201.1 195.3 190 187.3 184.7
275.6 275.5 275.7 274.4 273.4 272.5 273.7 274.6 276.4 278.2 280.8 282.9 285.4 288.4 292.1 296.8 306.5 312.1 317.3 320.2 323.8 325.4 326.7 324.7 323.3 325.2 329.4 332.7 332.5 330.7 326.6 323 318.1 314.5 311.2 309 306.5 303.6 300.2 296.6 293.1 291.4 289.5 286.8 283.5 280 277.9 275 273.4 271.6 271.5 269 267.6 266.5 265.7 265.7 263.8 262.7 265.5 269.6 270.6 270.8 269.5 269.7 271 272.6 275.1 278.6 282 285.4 289.1 292.4 296.1 300.8 305.4 309 312 313 309.5 304.4 297.3 289.4 279.5 268.9 258.5 249.9 243.3 238.9 234.4 230.8 228.7 226.2 224.1 221.8 219.1 213.1 210.8 206.6 204 202 200 193.1 187.6 183.2 175.1 170.3 169.8 179.4 188.5 198.9 208.6 212.9 215.4 221.3 230.6 235.3 237.2 237.2 236.8 235.6 233.7 231.2 228.7 225.5 221.3 218.4 214.7 212 209.5 209 209.1 209.4 208.6 208.9 210.1 210.2 211.2 210.9 209.3 209.6 211.4 212.1 212.2 215.1 217.6 220.8 225.8 230.4 233.5 235.8 236.8 234.6 232.8 232.6 230.1 227.6 228 228.7 228.6 235.9 240.1 241.7 241.9 241.2 239.6 238.9 237.8 236.2 234.7 233 232.4 232.3 232.6 233.6 235 238.6 238.3 239.9 241.8 244.4 248.4 254.4 259.1 261.9 261.1 259.6 256.7 251.5 246.1 240 232.6 226.1 218.2 212.7 208.8 204.4 200.2 195.8 191 187.9
271.9 272.4 272.6 271.6 270.5 269.6 270.6 273.2 275.7 278.9 281 282.6 284.9 287.7 291.2 295.2 302.6 313 319.5 323.5 327.3 326.5 324 322.2 321.3 320.3 320.3 320.5 320.1 318.1 317.2 314.4 311.6 310.3 309.6 309.2 307 303.9 300.1 299.1 298.6 295 292.5 289.3 286.2 283 279.7 276.8 273.7 272.1 270.5 269.1 267.7 266.2 263 260.9 258.2 256.2 255.5 255.6 261.7 264 264.2 264.2 265 267.9 271.8 276.4 280.1 282.7 285.5 288.3 290.5 292.9 295.7 299.9 303.1 305.7 306.1 304.2 300.3 293.7 286.1 277.1 266.9 258.6 251.6 246 242 240.1 237.9 236.2 235.3 235.2 231.6 225.4 220 215.9 214.3 210.8 206.7 197.2 189.8 184.8 179 170.3 170.9 172.7 182.4 193.7 201.1 207.1 211.9 219.1 229 235.4 240.2 241.3 241.9 242.6 240.9 238.4 235.9 232.4 227.7 223.7 223.9 219.4 216.8 214.2 213.4 214.6 214.2 213.9 213.3 212.9 213.3 212.6 211.5 211.2 210.1 208.7 208.9 210 210.4 213.8 216.3 219.2 221.4 224.6 224.8 223.3 222.7 222.9 222 221.7 223.2 224.2 223.2 231.1 234.5 237.2 238.3 237.9 236.4 235 233.3 231.9 229.9 228.3 228 228.1 228.6 229.5 230.5 232.4 234.7 237.2 239.8 243.1 247.8 254 259.3 263.1 265.8 264 261.5 255.8 250.5 244 236 228.6 219.7 213.5 209.8 205.3 202.3 197.8 194 191
269 268.6 268.7 267.3 266.3 266.5 269.2 273 275.2 277.8 279.9 281.8 284.8 287.5 291.3 297.1 308.2 316 321.9 325.3 325.6 323.2 321.8 319.8 318.5 317.1 316.1 313.3 311.9 311.2 310.1 308.8 308.4 308.3 308.3 307.6 306.1 302.9 301.1 301.4 301.1 298.1 294 290.2 287.5 284.3 281.3 278.7 275.6 274.4 272.3 271.1 270 268.8 267 264.9 263 260.4 257.1 253.3 251.8 253.9 255.5 257.7 260 265.6 272 276.2 278.3 280.1 280.9 283 285 286.3 288.5 290.7 293.3 296.2 298.1 298.1 296.5 292.6 286.9 279.3 271.6 264.6 258.3 253.4 252.4 251.2 249.9 247.5 248.4 248.2 244.6 237.6 231.3 227.9 224.5 220.1 213.3 202.3 193.7 186.5 182.5 176.8 170.5 170.4 175.7 182.4 189.7 197.7 204.4 212 222.5 233.4 242.9 246.8 246.6 245.6 243.9 240.5 237.8 234.9 232.2 231.1 229.1 226.3 224.5 221.1 218.8 218.8 219.3 220.2 218.6 217 215.5 214.2 213.1 211 209.1 206 206.1 205.4 204.9 205.3 204.8 208.6 211.8 213.8 214.9 214 213.1 213.9 215.6 214.7 217.1 217.8 223.7 228.5 231.8 234 235 233.8 231.8 230 228.7 227.3 225.5 225.4 225.4 225.4 225.9 226.7 226.6 228 230.5 234.2 237.9 241.8 247.3 252.8 258.1 262.4 264.3 263.8 262 257.4 252.8 245.8 238.1 231.3 220.9 216.9 211.2 207.7 205.4 200.8 195.7 194.7
265.4 265.3 264.7 263.8 263.4 265.1 268.6 271.9 274.7 276.9 278.7 282 284.7 287.4 292.6 301.3 310.5 316.2 320.5 323.8 322.7 322.3 320.6 318.4 317.3 316.4 315.3 313.6 312.6 311.4 310.1 309 308.3 308.4 308.1 307.8 306.4 305.8 304.3 302.8 301.3 298.4 293.7 290.6 288 285.5 282.8 279.6 277.8 276 274.8 273.2 272.3 270.6 269.3 267.2 265.8 263.4 260.5 257.3 253.4 247.5 247.5 251 255.4 262.4 271.7 275.7 276.6 276.8 276.1 276.7 278.7 280.8 282.8 284.1 286.7 286.5 286.7 288.7 288.5 286.5 283.2 276.5 271.3 266.3 262.1 260.5 259.4 258.8 258.6 257.9 258.2 256.3 251.7 246.2 240.7 237.2 233.2 228 220.3 209.2 198.6 189.6 185 179.8 176.9 171.3 171.8 172 176.4 188.3 193.6 205.1 216.9 230.7 243.7 250.2 251.6 248.5 243.8 240.4 237.9 237.5 237 237.2 237.5 235.1 231.8 228.6 226.5 225.3 224.7 224.1 222.7 221.4 219.7 218.9 215.7 213.7 210.8 207.8 203.4 200.6 199.2 197.4 196.4 198.2 200.6 202.9 204.3 204.9 203.9 203.9 206.5 207.2 209.1 214.2 220.9 225.8 229.6 231.5 231 229.6 227.3 225.2 224.1 222.7 222.1 222.8 223 223.1 223.3 223.9 224.5 225.9 228 231.5 237.3 242 247 251.9 256.8 260.3 262.6 262.1 260.1 257.1 251.3 244.9 238 230.4 221.6 216.6 213.1 209.9 205.4 200.5 197.7 196
