ncols 200
nrows 86
xllcorner 210000
yllcorner 885200
cellsize 50
149.3 148.4 148.5 149.4 150.9 152.4 154.5 156.4 159.5 163.9 172.4 186.3 200.6 216.7 233.9 254.1 278.8 322.2 352.7 364.9 365.5 364.4 364.7 375.2 386.9 401 405.6 411.5 407 399.3 392.1 386.7 380.5 378.1 376.6 374.9 373.7 375.3 376.1 377.8 381.3 391.9 401.6 426 436.5 434 434.1 439.5 436.4 433.7 435.5 436.4 435.2 438.6 440.5 434.4 431.6 428.3 423.6 413.4 403.6 399.2 398 397.3 396.5 393.3 391 391 395.3 405.4 413.6 409.1 400 389.6 385.8 384.8 386.9 387.2 384.2 376.7 374.6 375.2 365.4 358.3 344.8 328.1 313.2 301.7 290.5 284.6 278.7 273.7 280.9 271.9 249.5 235.6 224 213.1 190.6 180.9 171 156.2 142.2 124.9 106.8 89.9 75.9 61.6 49.6 37.5 23.7 11.6 -2 -2 -2 -2 -2 -2 -2 -2 -2 -2 -2 -2 -2 -2 -2 -2 -2 -2 -2 -2 -2 -2 -2 -2 -2 34.1 54.9 74.9 98.2 120.4 142.6 157.9 174.5 188.1 194.4 197.3 199.8 205.6 213.3 210.3 197.7 186.9 179.4 169.3 156.9 149 162.3 176.5 189.7 198.9 199.6 201.5 210.5 235.3 248 256 263 271.2 280 289.8 299.5 303 307.6 315.7 323.7 331.2 338.3 345.4 350.5 355.8 362.3 371.8 378.5 381.5 385.5 388.6 393.6 398.5 403.8 407.9 410.9 413 418.9 421.1 421.5 425.9 430.7 433.2
149.2 148.2 147.9 148.6 149.7 151.2 153.9 155.7 158 160.8 169.1 182.3 199.2 216.1 234.6 254.6 277 322.2 354.2 357.6 359.8 359.3 361.1 372.9 380.6 392.7 404.3 408.8 401.9 393.8 389.3 381.9 377 375 373.4 371.7 371.7 374.1 376 380.8 387.7 397.2 410.6 428.6 431 430.4 433 438.5 433.6 430.1 433.1 433 431.2 434.1 434.2 428.3 422.7 415.4 413 405.3 398.3 396.8 394.5 393.8 392.9 391 391 391 398 412 410.8 403.6 394.3 387.5 385.6 385.4 386.7 385.9 379.4 373.2 371.2 369.4 364.3 360.7 350.5 335.1 318.2 309.2 299 294.8 286 280.4 278 272.4 264.2 247.5 233.6 223.5 213.8 198.4 187.3 177.8 158.1 136.7 118.3 96.8 83.3 69.5 54.6 42.1 27.8 15.3 -2 -2 -2 -2 -2 -2 -2 -2 -2 -2 -2 -2 -2 -2 -2 -2 -2 -2 -2 -2 -2 -2 -2 -2 -2 34.9 56.4 81.1 105.4 124.7 139.1 151.9 164.6 179.1 187.7 194.8 200.8 206.6 214.2 220.2 217.4 210.3 201.4 192.1 181.4 173.3 169.5 167.8 183.8 199.8 207.4 217.6 228.4 238.2 245.4 255.1 263.9 271.8 279.2 290.4 297 304 313.1 322.5 327.7 334.5 343.3 348.5 352.1 358.3 368.1 375.2 377.4 378.1 383.5 386.6 392.2 397 400.4 403.8 405.4 407.5 410.9 414 419.1 424.7 428 430.3
148.3 147.4 147 147.6 148.6 150.5 153.3 155.6 157.6 159.9 165.8 176.1 193.8 213.2 234.2 256.2 282.3 318.1 343.5 347.1 351.7 351 355.8 365.3 371.4 383.1 397.4 401.5 395.4 390.1 384.5 376.8 373.4 372.3 370.4 369 367.4 369.2 371.4 376.6 386 403.4 425 428 425.8 426.9 428.3 432.5 427.4 426.1 427.6 426.2 425.6 428.8 424.9 419.1 414.1 410.1 406.8 400.1 393.5 392.7 391.7 391.6 391.2 393.2 392.3 398.2 406.4 412 404.7 400.7 390.7 386.3 384.9 384.6 389.2 387.2 377.6 374.2 366.8 358.9 354.3 350.1 350.8 344.9 333.1 320.6 315 301.2 292 290.4 285.9 284.3 269.7 256.7 246.7 236.4 225.1 215.9 206.6 195.5 177.2 142.6 129.4 110.1 91.1 75.7 61.6 47 33.1 20 7.1 -2 -2 -2 -2 -2 -2 -2 -2 -2 -2 -2 -2 -2 -2 -2 -2 -2 -2 -2 -2 -2 -2 -2 -2 -2 52.4 73.3 88.7 104 116.3 131.4 151 168.7 181.5 189.1 196.2 205 212.3 217.6 219 216.7 213.3 208.3 199.2 191.5 185.9 181.2 178.8 194 207.8 217.4 227.3 238.6 246.4 252.5 260 271 281.7 290.5 298.1 307.3 315 324.4 333.2 339.5 344.2 348.1 354.2 361.1 368.9 372.2 373.5 378.6 383 384.3 389.2 392.1 394.6 399 400.9 405.2 407.7 413 418.8 419.1 424.3 427.4
144.8 145.8 146.2 146.6 147.8 149.9 152.8 154.8 156.7 160 165 173.8 187.5 206.7 227.8 253.4 292.6 324.2 337.4 338.6 340.7 343.2 351.1 362.7 364.9 377.9 390.4 393 389 385.5 378.6 373.3 371.3 370.7 369.8 368.6 366.8 364.6 366.4 369 378.7 394.7 409.2 416.6 424 431.5 424.4 423.8 421.4 418.8 419.4 415.8 416.8 418.3 417.4 411.4 407.9 406.1 400.4 396.3 392.6 390.3 388.8 389.4 392.5 396.9 400.4 405.1 412.2 412.4 407 398.6 390.7 385.3 383.4 383.9 387.2 382.3 378.5 376.4 369.1 359.4 353.7 347.9 342.4 339.5 337 331 324.2 310.9 304 300.1 300.3 293.2 278.4 266.7 263 252.6 240.1 235.2 224.5 209.2 192.7 172.9 146.4 126.6 103.7 84.4 68.2 52.6 38.7 23.4 10.8 -2 -2 -2 -2 -2 -2 -2 -2 -2 -2 -2 -2 -2 -2 -2 -2 -2 -2 -2 -2 -2 -2 -2 -2 -2 4.2 39.7 60.4 80.8 93.1 110.5 135 158.1 172.3 182.9 187.7 194.8 203.5 207.3 208.3 210 211 211 208.9 203.2 200.2 196 192.8 187.5 204.7 217.3 227.4 235.6 242.9 251.9 261.3 268.7 280.5 293 301.9 309.3 318.5 328.9 335.8 341.9 346.3 349.8 355.3 363 367.6 368.2 371.7 376.9 378.2 381.3 383.9 386 390 394.6 398.5 402.2 405.5 407.1 409.1 416 422.5 424.5
139.1 143.7 144.3 145.8 147.1 148.3 150.7 153.2 155.4 159.6 164.7 173 183.8 199.5 219.3 246 290.3 307.9 319.1 328 334.8 336 341.4 353.5 360 371.1 383.5 385.5 382.8 379.1 371.8 370.5 370.1 369.7 369.7 366.6 363.6 361.1 360.9 362.3 368.3 379.7 391.7 402.5 415.8 418.2 416.6 417.3 414.5 410.6 408.3 408.7 408.9 409 408 404.8 401.8 398.6 397.7 394.2 391.2 389.6 388.1 388.3 392 402.1 407 408.9 415.1 411.6 401.3 393.8 389 383 380.8 380.7 383.3 383 377.7 378.1 370.3 362.6 353.2 345.9 340.8 338.6 335.9 330.3 324.8 318.4 309.1 307.6 296.3 293.1 283.4 278.9 274.2 263.4 256.7 247.5 238.7 225.6 209.9 188.6 166.8 143 118.1 95.4 75.9 58.6 44 30.1 16.3 -2 -2 -2 -2 -2 -2 -2 -2 -2 -2 -2 -2 -2 -2 -2 -2 -2 -2 -2 -2 -2 -2 -2 -2 -2 -2 15.2 40.7 60.6 75.8 94.8 122.7 148.3 163.2 176.7 182.2 183.4 189.2 195.7 197.5 199.5 201.7 207.2 212.1 211.6 208.4 204.8 202.8 198.8 198.7 215.8 228.4 235.6 242.4 250.7 260.8 271.1 283 294 302.7 310.4 320.7 328 334.8 340.1 348.1 353 358.8 362.2 364.9 366.4 371.1 373.8 375.6 381 381 383.4 388.1 392 392.6 397.1 400.4 402.2 410.4 414.9 419.2 421.2
131.3 139.2 142.2 145 146.3 147.5 148.7 150.6 153.7 158 163.4 171.9 183.1 194.7 210.6 234.8 266.8 283.6 297.6 311.1 325.7 326.2 331.7 338.1 349.7 365.4 379.8 378.7 375.7 369.7 364.6 366.4 367.7 368.9 369.9 363.2 359.6 357.8 358 362.1 367.4 375.2 387.2 400.3 407.1 407.8 407.8 407 405.9 404.3 400.9 400 399.1 399.3 401.4 396.6 391.9 392 391.8 389.3 388.5 387.8 387.2 389.3 392.5 399.7 404.5 406.5 406.3 402 394.1 389.1 384.2 379.7 377.4 376.3 377.4 379 375.5 372.4 364.2 358.6 352 347 344.6 341.3 335.8 332.8 332.4 323.5 320 309.8 303.8 296.3 290.2 291 283.1 275 264.6 256.7 251.1 238.1 224.2 204.3 182.9 159.6 135.6 109 85.1 67.8 51.3 38.6 22.8 7 -2 -2 -2 -2 -2 -2 -2 -2 -2 -2 -2 -2 -2 -2 -2 -2 -2 -2 -2 -2 -2 -2 -2 -2 -2 -2 23.8 44.1 61.5 84.5 110.7 138.7 151.1 165 173 175.9 176.6 177.9 180.9 183.5 190.8 199.6 207.5 212 215 212.3 210.3 208.8 204.5 206.9 220.9 234.1 242.1 251.2 261.1 269 279.2 290 300.5 308.5 316.1 323.9 330.4 339.4 344.9 350.4 355.6 360.9 367 368 371.2 374.2 372.5 373.8 374.8 378.6 382.6 385.9 393 398.8 401.2 404.8 411.2 412.1 414.6 423.7
124 131 136.1 140.6 144.2 146.2 147.1 148.6 151 156.5 162.2 169.6 180.8 192.2 206.2 219.7 237.7 256.8 277.8 305.4 315 316.8 319.4 325.7 335.6 351.5 371.1 373.3 369 363 360.2 361.3 359.5 359.6 363 355.6 353.7 352.1 354.6 359.8 365.9 376.4 387.6 397.2 401.3 399.9 397.4 397.2 397.6 395.9 394.1 392.7 393.9 394.9 394.5 387.1 385.6 385.4 384.5 382.8 383.8 384.1 387.7 391.5 396.2 399.6 400.4 402.3 399.7 394.3 388.6 385.4 382.7 376 373.7 373.6 373.3 370.2 368.5 364.7 360.4 357.1 354.3 351.4 345.6 342.7 336.3 335.9 331.2 327.7 320.9 314.3 306 309.2 307.5 301.2 293.9 287 278 269.4 264.1 251.6 233 216.4 197 172.4 150.4 125.1 98.8 76.8 58.9 43.1 28.5 14.1 -2 -2 -2 -2 -2 -2 -2 -2 -2 -2 -2 -2 -2 -2 -2 -2 -2 -2 -2 -2 -2 -2 -2 -2 -2 -2 6.6 28.8 47 69.9 96.7 118.8 134.2 149.4 162.7 167.9 169.7 168.7 170.3 175.4 183.2 191.8 200.7 207.6 213.8 217.8 216.7 215.8 214.6 214.9 214.4 228.3 240.7 249.2 259.3 266.1 274.6 282.3 295.3 302.7 310.3 318.4 326.6 334.3 342.1 346.9 352.4 357.7 361.7 365.3 370.4 372.5 367.2 374.1 378.6 380.9 384.2 388.8 396.4 400.6 401.5 404.6 408.5 412.1 416.4 421.6
118.8 122.9 122.3 132.2 138.1 143 145.6 147.2 149.2 153 159.3 165.6 176.8 190.1 202.3 210.2 225.9 243.6 268.9 287.4 302.7 304.2 306.6 308 319.2 337.1 358.3 365.6 360.7 354.7 355.6 356.7 354.8 355.1 352.7 349.5 347.9 346.9 350.5 355.3 362.7 371.8 382.5 390.3 396.2 393.5 390.7 391 391 389.8 389.1 385.9 387.6 388.5 382.6 378.8 379.6 379.6 378 376.4 376.9 381.3 388.7 389.3 388.7 391.2 392.9 395.9 394.3 392 386.4 381.4 376.4 371.3 367.8 369.1 367.3 363.5 363.1 360.8 358.3 355.4 350.8 346 341.9 338.3 336 333.3 326.4 322.1 323.4 322.3 320.7 317.4 313.8 307.8 303.2 296.7 288 283.4 274.1 261.2 245.3 228.3 208.7 188.9 167.8 140.6 114 90.2 67.6 50 35.2 20.3 -2 -2 -2 -2 -2 -2 -2 -2 -2 -2 -2 -2 -2 -2 -2 -2 -2 -2 -2 -2 -2 -2 -2 -2 -2 -2 -2 7.1 29.8 48.3 73.5 94.3 112.3 131 149.2 159.5 162.5 162.9 162.8 167.3 175.8 185.7 192.9 200.6 209.6 217.6 221 221.3 221.1 221.9 222.6 222.3 236.5 245.6 255.4 263.8 270.9 278.8 290 297.8 305 312.5 320.7 328.2 337.1 341.9 346.5 351.7 357.1 360.3 363.3 364.3 372.6 375.4 376.4 377.3 381.5 384.9 394.3 396.8 398 402.6 406.9 413.6 419.1 421
113.7 115 117.7 123.9 129.1 135.1 140.7 145.4 148 150.4 154.9 161.3 171.9 183.9 193.8 200.5 213.7 229.7 259.5 274.6 283.9 293.2 294.8 296.6 305.2 318.4 345.1 355.8 347.4 348.2 351.2 349.4 347.7 347.5 345.3 343.9 343.6 342.3 344.2 351.3 361 372.6 376.7 380.9 385.6 388.5 386.7 386.4 387.9 387.9 385.8 382.1 380.9 377.1 372.5 372 371.3 368.5 366.6 368.7 368.2 375.4 384.2 384.4 385 381.4 384.1 387.9 389.3 389.6 381.6 377.3 372.7 367.2 363.6 362.8 360.8 359.9 359.5 358.7 357.4 354.3 350.2 344.4 341.2 338.2 336.9 338.8 341.6 345.9 344.9 342.7 334.5 325.1 320.3 317.8 312 303.9 295.8 293.6 286.4 277.3 263.1 252.1 236.5 213 187.3 158.2 129.5 105.6 78.5 58.2 41.1 26.5 -2 -2 -2 -2 -2 -2 -2 -2 -2 -2 -2 -2 -2 -2 -2 -2 -2 -2 -2 -2 -2 -2 -2 -2 -2 -2 -2 -2 8.5 32.2 52.2 71.2 93.6 111.8 133 151.1 154.5 156.5 157.8 160 167 176.2 186.3 192.9 201.1 210.9 217.4 223.6 225.2 226.1 227.3 228.2 234.5 241.5 249.8 259.3 268.4 276.6 285.4 292.4 300.5 307.5 314.8 320.9 329.4 336.7 342.6 348.4 347 359.5 364 366.4 370.8 372.9 374.5 377.4 380.7 384.9 391.6 392.8 396.4 405.3 408.9 413 411.7 412.9
108.9 108.9 112 116.8 121.6 126.6 132.4 138.4 144.4 147.7 151.4 156.8 166.8 176.4 184.5 193.4 204.7 216.4 238.4 265.2 277.5 285.8 286.1 288.6 294 304.2 312.1 330.1 333 346.8 346.5 342.9 338.9 337.1 338.6 339.3 339.2 337.2 343.1 349.6 359 366.6 369.1 370.9 377.1 381.8 380.9 379.8 383 384.2 380.2 373.5 373.2 370.4 372 372.7 369.2 368.1 364.9 363 364.7 371.2 375.8 377.6 374.2 373.1 373.4 376 378.2 379.8 375.5 371.8 367.5 362.8 359.7 358.5 358.1 358.2 357.5 356.2 354.6 351.3 348 346.6 343.6 342.5 343.8 346.3 347.6 352 355.1 355.7 347.1 337.1 332.6 332.2 327.9 316.1 311.3 311.1 311.2 302.1 287.1 273.3 253.1 229.4 202.6 173.8 149.5 121 92.4 64.8 46.9 31.4 12.3 -2 -2 -2 -2 -2 -2 -2 -2 -2 -2 -2 -2 -2 -2 -2 -2 -2 -2 -2 -2 -2 -2 -2 -2 -2 -2 -2 -2 13.5 38.9 55 74.9 92.5 116.4 135.3 146 150.5 153.2 155.6 159.2 165.8 178.2 182.3 192 202.5 211.5 217.4 224 229.3 231.4 233.1 235.6 240.2 246.8 256.3 265.6 274.7 281.5 288 295.6 303.4 311.7 318.4 324.6 329.9 336.8 339.4 352.2 358.2 362.9 365.9 370.8 371.5 371.6 375.7 381.7 384.7 386.1 389.7 393.9 397.6 398.4 400.9 405 410.4
104.8 102.2 109 112.4 114.1 118.4 124.2 130.1 136.1 142.6 147.3 151.5 158.9 167.9 173.7 186.5 194.8 205.5 222.2 254.3 266.1 273.9 278.3 280.7 285.4 287.1 294.4 308.3 326.2 340.7 341.2 335.8 332.7 332.6 333.5 333.9 334.4 334.9 343.1 349.5 357.6 362.5 360.6 362.8 368 370.5 370.7 371.8 372.9 372.1 368 366.2 365.8 365.6 367.8 367.1 365.5 367.1 363.2 357.5 362 368.4 374.4 372 367.6 366.5 368.3 369.1 367.3 368.4 365.4 363.3 359.8 357.6 356.9 356.3 356.2 357.5 357.4 355 353.1 350.6 350 348.4 347.3 346.7 348.5 351.1 352.5 353.8 356.5 355.8 351.9 344.7 339.2 339.4 334.2 328.3 330 332.2 329.8 322.6 305.5 294.3 275.6 256.4 229.2 202.6 174.2 136.6 100.7 72.8 53.4 35.8 21.2 2.2 -2 -2 -2 -2 -2 -2 -2 -2 -2 -2 -2 -2 -2 -2 -2 -2 -2 -2 -2 -2 -2 -2 -2 -2 -2 -2 -2 -2 23.7 42.6 60.1 79.3 102.1 119.2 135.9 142.2 147.6 149.4 149.1 157.9 165.3 172.3 180.3 190.3 202 211.9 221.3 231.1 233.9 236 239.1 241.5 246.1 250.7 259.4 268.4 275.3 281.1 290 300 305.6 313.4 319.7 326.5 335.9 341.6 350.3 355.9 358.9 364.6 369 369.8 370.4 374.7 377.8 381.4 382.4 385.4 393.8 394.5 394.8 396.3 403.1 406.7
99.8 100.8 105.5 107 108.7 111.1 116.2 121.8 127.6 134.2 141.1 146.4 152 158.1 164.4 176.7 186.2 197.6 214.5 239.9 252.8 263.9 272.4 271.3 276.4 276.5 287 299.9 312.5 330.6 331.3 330.9 330.8 328.2 329 328.5 325.4 335.8 343.1 349 352.9 351.7 350.8 359.2 363.2 362.7 364.4 364 362.6 362.2 361.2 359.8 360 360.3 361.9 362 363 366.5 362.6 356.1 358.4 363.1 365.5 363.6 360.2 361.6 363.3 364.7 363.8 362.5 359.9 357.1 355.6 353.8 352.7 353.6 355 355.4 355.3 354.3 353.4 353.4 352.8 352 351.6 352.7 354.5 358.2 360 361 360.9 360.2 355.1 348.4 342.2 339.2 337.5 337 340.3 340.9 343 339.3 332.8 319.2 298.8 272.6 246.6 221.6 182.1 144.1 109.5 78.6 59 40.4 27.4 6.6 -2 -2 -2 -2 -2 -2 -2 -2 -2 -2 -2 -2 -2 -2 -2 -2 -2 -2 -2 -2 -2 -2 -2 -2 -2 -2 -2 -2 11.1 33.3 49.8 67 84.9 104.3 120.3 130.6 137.1 143.9 131.9 144 158.1 166.8 174.9 183.9 193.5 205.6 219 226.4 232.2 238 241.3 237.8 229.6 223.9 244.3 257.3 265.1 278.6 286.7 291.3 304.2 311.5 320.3 328.6 334.4 343.2 348.7 352.6 356.8 361.4 364.6 369.7 371.3 373.4 380.1 381.9 385.4 390 390.8 392.2 393.5 395.8 400.7 406
92.3 94.9 98.8 100.7 103.3 105.6 109.5 112.7 118.5 124.5 132.3 139.1 144.6 150.2 155.2 165.5 177.1 188.1 202.9 224 238.6 244.7 258.8 259.4 261.3 267.2 278.3 283.3 294.3 312.8 319.8 323.3 322.3 325.1 324.7 322.7 327.6 331.8 339.3 346.2 346.8 340.5 349.2 354.6 358.6 359.4 358.2 359.5 362.2 361.4 356.9 357.3 357.4 357.1 357.2 358.6 359.7 361.8 360.7 352.9 355.2 356.6 356.6 354.8 355.5 359.4 362.5 362.6 361.7 360.6 359.3 354 349.9 349.4 349.7 351.8 353 353.3 353.7 354.3 354.3 354.9 356.3 357.3 359.5 363.5 365.8 367.6 368.8 369.2 368.7 363.7 358.3 350.1 347 347.8 348.3 353.3 351.1 354.5 360.2 360.1 354.3 336.7 317.9 288.7 266 237.2 197 152.4 118.7 86.6 58.7 43.3 31.3 14.6 -2 -2 -2 -2 -2 -2 -2 -2 -2 -2 -2 -2 -2 -2 -2 -2 -2 -2 -2 -2 -2 -2 -2 -2 -2 -2 -2 -2 -2 22.1 37.6 55.1 70.9 86.1 105.3 113.7 123.2 133.3 105 126.3 145.1 158.3 167.2 176.4 185 195.7 207.8 211.1 216.3 226.9 217.6 204.7 201.3 213.8 220.2 232.6 245.1 260.5 270.3 289.2 298.5 308.9 318.4 325.6 331.6 337.9 344.9 349.4 351.6 355.4 360.9 365.3 366.7 371.9 382.1 383.4 385.8 389.2 389 393.4 397.4 398.7 401.4 407.8
87 88.5 93.2 97.1 96.8 98.7 101.7 104.4 109.7 115.3 122.1 130.3 138.1 143.9 147.3 154.3 164.8 178.2 192 208.6 220.8 225.3 230.7 240.6 250.5 256.2 262.5 270.8 285 305.9 313.1 314.3 314.8 316.3 315.9 314.7 319.4 324.1 333.3 336.2 332.4 335.3 347 351 352.8 355.1 355.1 360.3 361.3 359.5 354.4 353.5 356.3 355.8 355.1 355.8 356.6 357.8 353.8 349 351.4 355.1 350.7 348.1 354.4 359.2 359.4 358.6 357.7 358.9 356.7 346.5 342.7 343.1 345 348.7 350.3 351.8 353.3 353.9 355.4 357.3 360.5 363.2 365 369.5 374.9 375.5 372.8 371.8 370.1 368.8 365.7 361.9 365.9 371 371.9 371.4 372.1 372.6 372.4 373.5 365.4 349.7 318.5 281.9 255.2 226.3 194.7 163.4 127.8 97.5 68 44.7 34.9 19.1 2.4 -2 -2 -2 -2 -2 -2 -2 -2 -2 -2 -2 -2 -2 -2 -2 -2 -2 -2 -2 -2 -2 -2 -2 -2 -2 -2 -2 -2 10.5 28.5 43.5 59.3 72.4 83.3 99 112.3 123.1 94.5 93.7 123.3 141.8 156.3 166.7 174.1 183.5 191.4 192 189.9 208.2 185.7 190.5 216.7 248.5 248.3 255.7 262.2 261.9 282.2 289.7 295.9 306 312.8 320.1 327.9 334.5 336.8 341.9 347.8 353.8 357.3 358.5 361.7 368.6 377.5 380 381.8 387.6 388.2 392.1 393.3 393.4 397.6 404
79.8 82.8 87 91.3 90.3 90 93.5 95.7 100.7 106.2 112.6 121.7 131.6 139 142 145.3 154.5 170.3 179.1 190.9 203.1 204.7 215.7 227.7 241.7 245.2 251.6 262 277.6 301.6 309.7 308.3 306.5 305.4 310.4 318.8 327 328 328.5 332.1 331.6 333.4 338.3 342.4 346.4 351.4 353.4 351.4 350.9 352.1 352.2 352.6 353.4 354.2 353.1 351.6 351.9 354 350.4 347.3 347.7 347.1 342.9 343.2 351.3 353 353.8 353.6 353.5 351.2 345.7 338.8 337.5 338.8 342.2 346.4 348.1 350.3 352.6 354.3 356.5 359 362.8 366.9 370.8 372.9 373.9 374.1 374.1 375.2 375.3 375.7 380.9 382.5 384.9 386.7 393.2 396.3 391.9 384.8 378.1 365.5 358 328 293.5 263.9 238.2 216.9 189.5 163 135.1 107.1 76.4 49.8 37.9 25.4 7.5 3.6 -2 -2 -2 -2 -2 -2 -2 -2 -2 -2 -2 -2 -2 -2 -2 -2 -2 -2 -2 -2 -2 -2 -2 -2 -2 -2 -2 1.6 18.8 32.5 46.5 61.8 77.6 89.3 103.9 98.8 62.9 76.8 85.1 97.9 141.5 153.4 157 164.4 168.9 155.2 167.2 193.3 192 231.6 245.8 256.8 249.7 257.3 259.5 259.6 258.4 261.1 270.9 294.1 306.6 314.3 321.7 324.8 334.1 339.7 345.8 351.6 354.4 357 361.5 368.3 371.3 377.1 385.5 385.1 386 387.3 387.9 391.1 392.8 395.7
77.1 78.5 81.7 84.1 83.3 82.5 84.9 88.4 93.2 98.8 105.7 114.7 124.2 132.4 136.3 138.9 145.3 156.8 166.3 174.9 184.5 195.6 201.9 215.3 225.4 229.6 238.6 251 269.9 292.4 306.2 301.1 291.5 296.5 312.9 323.5 327.1 328.8 332.9 339.5 336.2 333.8 335.4 338.8 340.9 341.7 344.2 347.9 348.5 350.2 351.3 354 350.9 349 346.7 347.1 348.9 348.3 345.1 342.8 343.4 341 340.5 339.9 344.7 347.7 348.6 349 346 344.5 342.6 337.1 335.1 336.3 337.6 343.4 346.3 349 352.1 354.6 357.1 360.1 363.8 367.2 369.6 372.9 373.7 373.8 375.3 382 387.9 385.9 384.2 386.9 395 402.2 404.6 401.5 391.3 371.8 356.9 335.6 315.6 298.9 281.1 255.9 232.8 210.8 189.2 166.2 140.2 114.6 84.5 56.3 41.6 29.8 16.8 6.1 2 -2 -2 -2 -2 -2 -2 -2 -2 -2 -2 -2 -2 -2 -2 -2 -2 -2 -2 -2 -2 -2 -2 -2 -2 -2 -2 1.8 10.8 28.4 38.5 53.7 67.3 80.8 74.2 57.7 116 120.5 111.8 92.3 109.5 112.9 140.4 134.1 132.2 139.5 165.5 188.6 222.5 236.6 248 263.8 275.4 278.8 279.8 280.9 284.9 285.5 293.4 296.9 291.7 301.6 312 323.4 330.8 336.2 339.2 345 349.4 353.4 359.5 364.6 365.6 373.5 379.2 378.8 380.2 381.7 388.1 389 392.4 396
74.3 74.6 75.7 75.9 76.4 75.5 78.1 81.9 85.9 91.9 99 108.1 116.5 122 126.8 132.4 136.1 143.2 152 161.1 172.3 182.7 192.7 199 207.8 214.6 227.6 244.7 260.8 279.1 292 270.6 296.4 304.1 312.9 320.4 325.3 327.6 333.1 336.5 334.9 333.1 334.3 337.9 339.9 336.4 333.8 335.1 342.6 345.2 352.7 353.7 349.5 344.2 342.2 344.6 344.9 343.5 341.3 338.9 337 336.3 337.8 338.6 342.9 346.1 347.6 343.2 343.5 341.6 335.5 332.3 332.4 333 333.7 339 344.8 348.4 352.7 356.3 359.7 362.7 366.8 368.2 370.8 370.6 371.5 371.3 372.2 372.2 375.2 382.1 383.2 384.4 383.9 382.9 375.2 362 350 338 330.7 312.5 300.6 288.3 269.6 253.1 231.9 209.7 186.4 164.8 140.7 117.8 91.5 62.4 45.3 31 15.4 6.9 2.6 -2 -2 -2 -2 -2 -2 -2 -2 -2 -2 -2 -2 -2 -2 -2 -2 -2 -2 -2 -2 -2 -2 -2 -2 -2 0.6 4.5 8.6 24 36.2 50.9 65.6 70 46.9 85.9 120.4 136.4 131.7 83.9 111.1 133.8 155.7 160 161.6 180.5 199.7 221.8 240 252.9 269.9 278.8 282.1 286.3 289.4 291.8 296.5 300.3 304.1 308 309.4 311.1 311.1 317.3 323.8 329.3 335.5 339.5 344 349.8 356 360.8 361.1 366.7 372.3 369.9 374.5 379.3 382.2 388.3 390.6 399.4
66.9 73.8 69.9 70.3 70.5 70.1 71.9 75.6 79.4 84.4 92 100.7 106.7 112.1 117.4 124.2 129.6 131.3 139.3 151.1 161.7 172.8 181.9 188.6 194 208.7 220.7 236.4 249.2 259 250.3 279.2 295.9 302 307.8 313.1 318.9 321.2 329.7 335.2 333.1 331.1 334.8 339.6 339 332.9 327.5 326.1 327.6 335.4 345.2 348.2 346.9 341.3 337.9 338 339.7 338.1 337.7 338.7 336 334.2 335.3 339.6 341.4 342.8 342.7 338.5 336.6 337.3 331.2 329.9 330.5 331.4 332.5 338.9 346.8 353.7 356.9 361.9 366.2 371.3 378.1 377.5 374.6 370.1 366.5 366.8 368 368.3 364.6 362.6 364.1 359 352.8 348.3 344.8 344.2 335.7 328.2 314.8 300.7 284.5 271.4 257.7 247 229.4 207.7 184.1 164.4 143.2 122.5 94.3 70.5 51.8 25 21.1 10.9 -0.1 -2 -2 -2 -2 -2 -2 -2 -2 -2 -2 -2 -2 -2 -2 -2 -2 -2 -2 -2 -2 -2 -2 -2 -2 -2 3.8 7.3 11.9 19.3 33 46.6 60.2 51.7 69.1 89 109.8 133.5 142.2 129 113.8 115.8 148.7 178.9 190 202.4 216.5 232.7 245.5 263.4 276.5 285.1 294.4 299.3 300.6 303.6 308 312.8 315.5 314.7 319.1 320.1 321.2 320.2 320.8 321.8 327.1 333.7 340.5 345.4 349.9 355.5 355 358.3 361.2 371.3 375.2 376.5 385.6 391.5 393.9 399.7
58.3 62 63.8 64 65.9 65.2 66.8 69.4 72.1 76.2 83 91 97.4 102.8 108.4 115.3 120.5 123.5 128.6 140 152.5 161.5 172.2 174.8 188.5 200.6 210.7 223 232.8 243.2 270 284.3 295.8 300.2 304.2 309.1 314 316.1 320.5 327.3 326.9 328.8 332.7 334.8 334.2 326.1 322 319.5 319.8 327 331.9 332.8 337.4 336.4 333.2 331.2 331.5 332.8 334.6 336.3 334.9 332.6 333.6 338.8 344 343.9 339.7 334.3 333.9 335.4 330.4 330.9 339.7 336.3 341 348.7 355.4 360.8 365.8 371.1 377.3 380.3 378.4 370.8 365.9 362.1 360.1 357.4 356 357 357 355.9 352.3 349.3 346.6 343.5 340 336.4 330.4 323.7 313.3 295.9 277.8 260.3 244.4 235 222.9 207.4 186.6 165.4 146.3 125.4 98.9 75.7 48 40.9 31.5 13 0.7 -2 -2 -2 -2 -2 -2 -2 -2 -2 -2 -2 -2 -2 -2 -2 -2 -2 -2 -2 -2 -2 -2 -2 -2 2.2 5.7 8.9 14.9 20.1 29.3 42.1 51.1 57.7 74.3 87.8 98.2 123.3 147.9 157.5 160 149.2 146.8 182.4 193.2 204.6 219.8 236.6 249.8 266.3 277.9 292.3 301.8 308.2 313.3 314.9 317 318.8 319.5 322.5 326.6 327.7 330 332.8 331.8 328.8 334.3 336.5 339.8 346.9 351.2 355.5 358.2 365.8 370.4 372.5 373.5 375.5 386 389.2 391 396.4
50.8 53.3 53.8 55.1 57.5 59 60.5 62.6 64.8 67.8 73 79.9 86.6 93 97.8 103.4 109.6 113.5 116.7 128.1 143.1 150.6 157.4 166.6 179.6 191 200.4 199.2 235.4 256.7 283.7 297.4 297.4 299.4 302.3 305.9 310.9 315.1 320.4 325.6 323.4 323.2 326.5 325.5 325.6 321.2 318.3 317 315.3 319.9 323.1 324.2 324.6 324.8 327.3 326.7 328.4 331.7 332.5 333.5 333.3 331.6 335 335.1 338.6 340.2 335.6 331.5 331.1 330 329.6 334 341.1 340.9 349.7 357.2 362.8 371.7 375.4 378.4 378.8 371.9 364.5 361 357 352.8 352.9 351.5 349.9 349.9 351.7 349.9 347.5 344.8 342.4 338.9 333.8 330.6 326.3 318.8 310.5 295.3 274.3 257 239.3 226.8 215.3 201.2 183.8 163.9 143.6 116.1 79.5 64.5 60.9 45.5 32.1 16.4 1.7 -2 -2 -2 -2 -2 -2 -2 -2 -2 -2 -2 -2 -2 -2 -2 -2 -2 -2 -2 -2 -2 -2 -2 1.2 5.2 6.5 10.4 15.1 19.2 25.1 20.1 47.3 64.4 77.9 87.7 101.3 118.1 146.9 160.7 173 176.2 151.7 179.3 196.2 206.1 223.9 243.6 259.7 275.8 286.6 295 307.2 319.2 323.7 327.1 327.9 328.4 330.9 336.5 337.1 336.5 337.9 338.9 339.7 338.5 338.9 341.7 343 344.8 354.1 355.4 360 365.1 366.9 367.6 369.2 373.2 380.9 384.1 385.6 390.5
42.8 44.3 44.4 45.7 48.6 52.8 55 55.5 57.3 59.9 63.4 69 75.3 82.2 87.5 93.5 100.6 102.2 106.1 119.7 134.3 139.1 149.6 159.7 167.3 172.7 191.7 210.2 231.1 249.2 292.6 293.5 293.5 295.6 298.1 300.9 304.2 307.6 313.1 317.9 317.8 318.4 321 319.7 318.5 315.7 316.3 315.6 312.7 311 315.1 320 320.7 320.6 321.2 322.7 325.6 328.6 329.8 330.3 329.8 330.1 332.5 331.4 332.3 334.8 329.6 328.8 328.5 329.1 330.3 333.8 341.3 352.1 359.9 362 361.7 362.2 365 365.7 366.2 365.9 364 359.4 354.6 348.9 348.5 348.2 345.1 343.2 344.8 346.8 346.5 342.9 339.4 335.1 332.1 327.6 322.2 313.5 304.3 292.5 276.7 258.1 236.8 221.4 208.2 195.1 180.8 162.3 136.7 103.6 108.3 83.9 69 52.1 39.4 23.9 4.6 -2 -2 -2 -2 -2 -2 -2 -2 -2 -2 -2 -2 -2 -2 -2 -2 -2 -2 -2 -2 -2 -2 -2 3.4 5.4 7.2 9.8 12.9 16.4 24.9 34.3 44.7 59.9 74.8 90 99.7 114.3 140.9 158.5 178 187 188.7 177.6 195.1 209.2 226.6 243.7 262.1 275.1 287.3 302.7 317.8 328.3 334.7 337.3 338.4 343.7 346.8 347.8 348 348.3 344.5 345.4 346 345.7 345.1 344.7 345.8 345.5 346.3 352.9 357.6 363.2 363.7 364.3 365.6 370.7 376 378.6 381.1 387.7
35.9 36.9 38.5 38.6 39.6 43.4 47.3 48.8 49.5 52.1 54.9 58.6 64.4 71.3 77.1 83.5 90 89.5 98.7 109.2 115.1 124.5 130 151.2 164.8 175.7 186.6 200.5 216.2 243.3 281.7 288.7 286.3 288.8 291.6 294.5 297.7 301.8 304.1 308.5 311.9 312.5 314.5 312.7 310.3 309 308.2 306.2 310.8 318.5 319.5 319.5 318.5 318.6 319.6 320.3 320.5 321.2 323.9 325.6 324.7 329.6 328.7 328.9 328.6 329.3 327.2 328.5 329.7 333.1 336.6 340.3 346.5 353.7 358.1 359.4 360.2 360.8 363.2 365.7 365.7 365.5 365.7 357.7 351.7 347.4 346.1 344.2 342.3 341.6 340.4 343.6 346.1 343.8 337.8 332.8 329.4 326.8 319.7 310.3 302.3 290.2 277.2 262.6 238 217.6 201 190.8 180.3 166.8 150 132.5 115.6 97.8 78.8 60.5 43.9 31.4 10 -2 -2 -2 -2 -2 -2 -2 -2 -2 -2 -2 -2 -2 -2 -2 -2 -2 -2 -2 -2 -2 -2 -2 3.9 5.4 7.6 8.5 8.5 16.8 24.8 31.3 41.4 54.7 71.2 86.9 100.1 116.1 136.2 160.1 178.2 194.1 198.6 203.9 193 213.8 226.2 239.7 259.2 268.9 288.7 307.8 321 332.5 342.2 348 351.5 354.3 356.7 356.3 357.7 356.9 355.3 352.9 350.6 349.4 350.2 352.2 351.3 351.4 350.6 352 354.5 359.4 361.5 363.6 365.8 369.8 371.3 371.6 376 385.2
29.5 33.8 33.9 32.4 32.1 35.3 38.9 42.2 42.8 45.4 48.3 51.7 55.9 60.6 65.8 69.6 73.5 81.8 91 94.2 101.7 114.4 135.1 146.7 156.9 173.2 182.4 196.9 208.2 233.2 269.8 274 278 279.8 282.9 286.6 290.5 295.6 298.9 304.8 307.2 307.2 306.3 307 304.1 301.7 298.6 292.5 307.1 316 321 322.3 322.2 321.2 319.7 320.2 320.6 321 321.8 322.7 326.4 325.3 327.2 327.5 327.6 328.1 328.8 329.9 334.5 339.5 340.5 343.5 349.1 355.3 357.6 358.1 359.1 360.1 363.8 366.6 365.9 363 359.6 355.5 351.4 347 344.9 343.3 342.7 342.9 342.3 341.2 342.3 342.5 337.9 333.3 327.8 325.5 318 310.1 301.3 288.4 270.9 252.5 234.7 225.1 218.4 211 191.5 172.3 155.2 140.6 121.7 104.1 82.2 66.5 50.1 36.7 21.4 3 -2 -2 -2 -2 -2 -2 -2 -2 -2 -2 -2 -2 -2 -2 -2 -2 -2 -2 -2 -2 -2 -0.1 1.8 -2 5.3 7 10.2 17.6 23 28.7 37.5 47.6 64.4 82.5 102.3 113.3 134.2 155.7 174.2 195.3 209.1 218.8 223 211.9 228.1 237.7 252.5 266.2 289 306.8 320.9 332.7 343.2 354.5 360.5 364.2 364.6 365.6 363.4 362.2 360.8 360.2 356 353.2 355.1 356.6 355.6 355 353.8 352.5 354.1 356.9 359.6 361.7 364.3 366.7 366.6 368.9 375.8 380.2
22.7 26.9 27.7 25.8 26.7 29.4 31.2 34 36.9 39.7 41.5 44.6 47.9 52.6 56.3 59.2 65.3 73.9 77.9 84.3 93.9 105.8 120.4 134.3 147.3 161.9 176.2 197.4 201.6 224.8 255.3 268.3 269.6 270.1 274.9 279.6 283 287.9 291.9 299.2 303.3 299.9 300.4 299.3 296.4 290.4 280.5 297.6 308.8 314.5 318.4 321.1 322.7 324.5 324.1 322.8 322.3 322.9 328 330.9 333.5 335.1 334.8 334.4 334.3 333.2 334.8 333.2 336.7 339.4 340.9 348.4 350.9 354.9 359 356.9 356.5 358.2 360.9 363.7 363.5 359.1 357.1 352.8 350.4 346.8 345.7 345.6 344.5 344.3 343.4 340.7 338.7 337.4 336.2 336.8 331.7 324.6 323.6 315.5 295.4 276.4 269.1 245.8 247.4 238.5 230.4 211.7 197 176.5 158.3 141.1 119.9 109.9 89.5 74.7 53.9 40.3 26.8 9.5 -2 -2 -2 -2 -2 -2 -2 -2 -2 -2 -2 -2 -2 -2 -2 -2 -2 -2 -2 -2 -2 -2 -2 -2 4.7 5.8 9.6 16.1 20.6 25.4 34.2 44.8 58.5 76.2 97.1 112.2 133.7 159.3 182.8 203.7 219.6 229.7 240.2 241.5 239.5 242.9 251.7 268.2 288.4 304.5 316.9 330.4 345.3 355.9 364.3 367.8 369.7 372.8 372.9 372.1 371.8 368.1 362.8 359.3 357.3 358 359.4 361.3 359.3 356.8 354.8 356.5 358 359.3 361.5 362.8 365.1 367.4 371.3 374.6
17.2 19.4 21.2 22.1 23.4 24.9 26.6 28.4 29.9 31.8 33.9 36.3 40.2 44.1 48.1 52.6 59.1 64.7 67.8 78.1 88 98 111.8 125.7 141.3 155.9 171.9 192.7 193.5 212.6 238.6 259.1 262.4 261.9 263.3 274.1 282.1 286.3 285.7 289 292.6 291.8 292.1 291 284.7 280 284.9 300.2 303.2 306.2 309.5 312.6 317.4 324.2 328.2 330.5 335.3 338.9 340.4 340.6 339.9 341 343.9 345.2 344.3 342.1 339.8 338.4 339.3 339.6 340.5 347 350 349.4 350.9 352.4 353.5 355.5 357.1 358.8 358.2 356.2 353.6 351.9 350.4 348.7 347 347 347 344.3 342.3 340.4 338.1 337.5 336.4 331 330 326.4 324 320.2 311.4 294.2 275.4 263.7 253.6 242.4 230.4 213.7 203.1 187.4 166.3 147 127 113.3 99.5 77.2 59 45 34.1 21.5 4.6 -2 -2 -2 -2 -2 -2 -2 -2 -2 -2 -2 -2 -2 -2 -2 -2 -2 -2 -2 -2 -2 -0.7 2.1 3.3 4.8 9.2 13.3 17.8 25.4 35.9 45.3 60.1 76.9 91.9 114.7 141.4 165.9 189.5 214.7 236 247.6 256.8 260.7 255.8 254.6 256.4 274.3 292.7 298.8 314.2 333.1 346.4 356.1 364.8 372.1 375 377.1 377.7 377.9 376.8 373.7 369.9 364.6 360.9 359 361.1 364.8 365.3 361.7 358.7 355.9 356.7 357.3 358.3 360.7 362.9 364.8 365.8 367.6
9.7 11.5 13.3 20.1 22 23.8 24.8 25.1 24.9 26.5 28.7 31.4 34.5 37.7 41 46.1 52.3 57.2 63.7 72.4 81.8 90.8 104.2 118.3 135.4 150.5 166 182 189.1 200.6 223.3 251.5 254.8 256 255.3 270.6 282.2 279.8 277.3 280.9 281.1 281.4 282.4 282 275.5 260.8 282.6 288.1 295.6 304.7 311.4 319.2 326 332.2 336.8 340.9 342.1 342.6 343.8 344.7 346.5 347.3 348.5 350.9 348.4 347.5 345 342.6 341 341.1 341.4 343.8 346.2 343.9 343.9 349.4 351.1 353.1 355.1 356.2 354.7 354.2 352.7 351.8 351.3 350.1 347.4 347 344.5 342.8 340.8 339.2 339.5 340.2 339.2 335.2 333.1 333.2 331.5 324.7 314.4 302.9 293.5 277.8 262.8 248.1 232.3 221.2 207.9 192.8 173.9 151.5 134.6 114.9 103 82.7 66.4 50 38.4 27.3 8 1.2 -2 -2 -2 -2 -2 -2 -2 -2 -2 -2 -2 -2 -2 -2 -2 -2 -2 -2 -2 -2 -2 0.5 1.5 2.2 8.7 13.9 18.1 26.5 36.3 47 59.4 76.8 97.2 120.3 147.4 176.4 202.7 226.3 253.4 266 275.4 285.3 285.7 278.1 275.1 278.2 289 303.2 317.7 331.4 343.6 352.8 363 370.9 378.3 380.5 380.4 381 379.3 375.3 371.4 369.4 367 364 367 368.3 367.9 367.2 360.6 357.6 356.8 356.5 357.9 359.9 360.6 360.2 364.4 370.6
7.1 5.7 18.4 20.4 21.9 23.8 25.5 24.3 23.7 24.8 26.6 29.1 31.1 33.6 37.7 43.7 48.3 52.6 57.4 64.9 72.4 81.9 96.2 111.1 128.5 144.1 161.6 175.4 178.8 189.8 210.9 238.1 249.8 250.5 249.4 256.1 272 269.9 253.4 255.6 255.3 255.2 258.7 263.9 260.5 263.1 282.3 288.3 294.3 301.8 314.6 325 328.4 331.1 334.1 335.5 339.3 342.3 344.4 346.1 347.7 348.3 349.7 350.3 349.8 348.1 346.2 345.4 344.7 343.7 344.9 345.8 346.3 343.9 343.9 343.9 350.3 351.5 354.1 353.5 354.4 353.6 352.2 352.5 352.4 351.9 348.1 346.5 344.1 342 340.5 339.9 340.2 341.5 342.5 341.9 339.3 337.7 336.1 330.8 325.1 318.9 308.5 296.1 277 256.2 241.1 225.8 210.4 195.9 182.4 154.1 139.5 118.5 107.7 90.6 72.5 52.2 31.6 22.4 11.7 -0.7 -2 -2 -2 -2 -2 -2 -2 -2 -2 -2 -2 -2 -2 -2 -2 -2 -2 -2 -2 -2 -2 -1 -0.1 0.9 5.1 13.2 17.5 27.4 36.4 49.1 62.8 76.3 97.6 123.4 153 183.1 213.1 243.6 270 282.1 294 301.1 304.3 298.4 291.3 285.9 289.4 303.5 316.1 327 338 352 359.8 370.9 377.3 380.3 383 382 382.1 380.8 377 376.2 373.2 372.8 373.7 373.9 369.3 368.2 364.2 360.8 362.1 357.4 358.2 357.9 359.2 361.5 368.1 374.7
7.8 7.1 9.1 20 21.7 23.6 24.7 23 22.3 23.3 25.2 27.1 30.7 34.3 38 42.1 44.8 46.7 48.5 54.5 62.8 73.7 84.1 101.2 119.4 137.4 154.8 170.3 176.2 181.5 198.3 221.8 246.6 245.5 244.3 240.9 236.9 223.5 219.5 222.2 229.8 233.1 252 260 271.4 278.4 287.1 292.2 295.4 297.3 302.6 312.3 320.8 325.3 327.5 331.5 338.5 342.1 344.4 346.7 348.2 348.3 349.2 349.7 350 349.1 347.4 348.3 347.1 346.7 346.9 347.8 348.4 347.9 347.2 343.9 349.2 349.9 350.8 350.6 350.4 351.1 351.2 351.6 352.3 351.9 350.2 346.8 344.5 342.5 340.9 340.7 341.4 342.4 345.8 345.8 346.5 341.5 336.8 333.5 333.2 330.2 322.4 311.3 296.5 273.1 251.9 232.8 215.7 197.2 185.3 154.6 137.4 126.1 110 97.3 76.8 59.3 45.5 35.3 22.9 2.1 -2 -2 -2 -2 -2 -2 -2 -2 -2 -2 -2 -2 -2 -2 -2 -2 -2 -2 -2 -2 -2 -2 -2 -2 1.6 13.7 18.8 27.2 37.2 49.8 64.8 79.1 98.5 123.9 156.3 189.7 217.2 251.7 290.8 304.8 308.7 313.5 314.9 312.6 305.2 299.8 293.1 303.3 313.1 323.9 337.6 347.7 358.5 363.9 371.8 377.5 380.4 382.3 383.3 383.4 380.7 380.1 381.3 379.1 377.3 372.5 370.5 374.3 369.8 368.1 364.7 366 367.3 368.5 367 369.5 375.1 375.4
7.6 8.1 7.5 10.9 9.7 16.9 16.1 20.9 20.5 20.8 23.8 26.3 29.1 32.5 35.9 38.4 40.1 41.4 42.2 47.5 56.2 64.7 74.9 92.4 110.5 128 145.1 160.8 173.9 179.6 189.4 208.2 232.1 237.2 213.5 204.8 209.2 231 247.7 249.1 250.4 258.7 266.8 273.6 278.9 285.7 295.7 301.6 305.4 308.6 309 310.5 315.3 320.4 324.2 330.9 336.2 340.1 343.2 345.6 347.2 347.9 349.4 350.1 350.8 349.9 349.1 348.5 346.7 348.2 348.8 349.3 348.5 348.4 348.7 348.4 349.5 349.4 349.3 348.5 348 348.7 349.1 349.2 350.1 351.1 350.1 347.7 345.4 344.2 342.6 342.4 343.8 343.8 345.2 347 348.8 347.8 338.1 334.4 334.7 337.5 334.8 323.9 307.4 282 259.5 239.5 214.2 199.5 180.7 160.9 144 126 115 102 88.7 68.8 53.9 39 27.8 5.3 -2 -2 -2 -2 -2 -2 -2 -2 -2 -2 -2 -2 -2 -2 -2 -2 -2 -2 -2 -2 -2 -2 -2 -2 -2 12.1 19.6 26.7 37.3 50.3 66.1 83.7 101.1 123.9 158.9 192.9 220.6 262.6 309 319.7 322.6 316.4 318.5 318.7 320.7 310.4 306.2 306.8 317 324.7 335.8 340.9 352.8 357.8 365.8 373.9 380.2 382.2 384.8 383.9 384.4 383.5 383.6 383.3 382 379.2 377.3 374.6 373 369.1 365.7 371.4 371.5 370.3 370.7 372.2 380.4 378.4
8 8.5 8.7 8.5 8 10.3 13.4 14.4 16 20.3 22.8 24.3 27.3 30.6 33.4 34.9 36.4 37.2 37.7 41.4 49.4 57.7 68.2 84.4 100.8 117.6 134.4 150.3 164.6 179.2 188.8 195.2 195.6 179.7 199.2 217.9 243.1 253 258.5 261.3 271.4 280.6 286.7 288.5 294.1 302 311.8 318.6 321.9 319.6 315.7 315.5 317.2 319.4 322.1 325.9 331.8 336.8 340.3 343.5 346 347.4 348.8 350.8 351.4 350.9 350.5 348.4 346.7 348 348 348 347.4 347.8 348.6 348.9 349.1 349.3 348 347.3 346.3 346.8 347.8 347.6 347.4 349 349.2 347.3 346.6 345.2 344.6 344.3 344.4 344.1 344.4 347.1 348.3 346.2 337.2 333.8 334.1 340.5 341.4 336 317.9 296.8 271.3 252.1 223.9 201.7 180.5 160.4 146.3 134.9 120.2 108 95.6 77.1 56.6 44.4 32.8 8.6 -2 -2 -2 -2 -2 -2 -2 -2 -2 -2 -2 -2 -2 -2 -2 -2 -2 -2 -2 -2 -2 -2 -2 -2 -2 8 20.4 27.8 36.1 49.4 65.2 84.1 105.8 124.4 154.1 189.9 227.8 263.3 313.6 336.5 342 336.9 324 334.3 331.7 325 314.6 315.9 320.6 327.1 331.6 337.5 345.8 355 361.9 367.4 375.7 380.3 382.6 384.2 385.5 386.8 386.1 384 381.9 380.6 376.5 372.5 372.3 374.2 377.5 375.9 373.7 373.5 373.9 380.7 381.5 379.9
8.4 8.5 8.7 8.6 8.6 7.4 12.1 12.2 12.8 16.7 20.3 23.3 26.1 28.3 30.4 31.7 33 33.7 34.3 36.5 42.5 51.1 60.8 75.6 91.5 107.2 123.4 138.5 151.2 168.8 174.2 163.6 166.8 199.7 236.9 244.1 250.6 258.5 263.4 281.5 291.2 301.3 311.6 315.9 312.7 310.7 312.6 312.4 314.9 315.8 317.4 318.3 317.9 318.8 320.7 323.8 327.8 332.8 336.7 340.6 344.2 345.9 348.1 349.9 350.5 350.6 351.6 350.1 348.9 348.2 347.5 347 346.3 346.1 348.1 348.8 348.9 348.7 347.5 346.9 345.8 346.8 346.4 346.2 346 346.6 347.5 347.8 346.9 345.6 341.6 344.8 345.2 344.6 344.2 345.4 343 338.7 334.1 333.5 333.3 336 341.1 340.9 330.2 307.5 285.9 263.7 239.5 208.1 179.1 175 161.1 144.9 128 113.7 97.4 79.1 64.4 48.2 31.9 12 -2 -2 -2 -2 -2 -2 -2 -2 -2 -2 -2 -2 -2 -2 -2 -2 -2 -2 -2 -2 -2 -2 -2 -2 -2 3.3 19.3 28.3 36.4 47.9 62.3 83.2 107.5 129.6 153 187.1 222.5 257.8 324.4 348.8 353.5 352.2 345.8 337.3 333.7 326.7 325.6 319.3 323.6 327 329.6 334.6 339.7 348.8 356.6 361.2 369.9 376 379 382.3 385.7 385.2 384.4 387.4 386.6 382.9 376.7 373.9 373 372.7 372.7 372.7 372.7 379.1 377.7 382 383.8 388.5
8.8 8.8 8.8 8.8 8.8 8.8 9.8 10.4 11.4 14 18.5 23.1 25.7 27.1 28 29.4 30.5 30.9 31.7 33.2 37.5 44.7 54 65.9 81.6 96 110.7 123.7 135 144.7 139.4 181.8 218 251.8 250 248.7 251.8 259.7 276.6 295.8 310.4 314.2 314.8 310.4 305.1 304.8 306.4 310.5 318.2 323.1 321.8 318.6 317.4 317.8 320.2 322.7 324.8 327 331.9 337.3 342.4 345.4 348.9 349.7 350.3 350.6 350.6 351.2 350.8 348.7 347.6 347 346.3 345.5 346.7 348.1 348.2 347.3 345.2 336.7 342.3 345.5 345.2 344.3 344.9 345.3 347.4 347.7 346.6 344.8 341.6 346.8 348.2 346.2 344.8 343.8 341.8 335.4 333.9 333.2 332.7 333.1 337 338.3 332.2 316.9 296.9 277.5 256.7 216.4 204 185.7 166.4 150.8 134.8 119.9 105.2 88.7 70.2 49.8 37.8 26.1 4.1 -2 -2 -2 -2 -2 -2 -2 -2 -2 -2 -2 -2 -2 -2 -2 -2 -2 -2 -2 -2 -2 -2 -2 -2 1.7 16.1 27 36.3 46.2 59.9 80.3 105.1 131.1 150.3 171.7 216 259.2 330.1 347.7 354.3 362.7 359.8 346.9 334.3 330.6 328.3 324 324.8 325.5 329.5 331.1 335.4 345.6 352.1 356.7 363.8 371.2 376.3 378.7 381.5 383.6 378.4 378.4 378.4 384.8 380 375.6 372.7 372.7 372.7 372.7 373.6 376.3 379.5 384.7 389.5 390.8
9.5 9.2 9.2 9.2 9.2 9.3 9.2 9.6 10.4 11.8 18.2 23.8 24.7 25.7 25.7 27.2 28 28.4 30.2 31.9 34.7 40.4 49.5 57.3 69.9 82.9 95.9 107.5 109.8 138.9 168.8 188.9 218.4 248.9 251.8 251.6 254.8 262.4 276.6 296.3 306.4 306.3 303.7 303.4 303.6 303.8 304.9 313.7 314.2 314.8 315.3 315.6 315.8 317.1 318.4 319.4 320.8 324.5 326.3 331.6 339 346.2 351.2 349.6 349.5 349.6 349.7 349.7 349.4 349.1 349.8 348.9 346.6 344.1 345.5 344.7 344.8 345.5 343.6 336.7 336.7 342.7 343.4 336.7 336.7 336.7 345.8 346.6 345.2 344.7 341.6 346.4 350.5 350.6 347.4 343.7 340.7 336.2 334.1 333.3 332.5 331.8 332.1 333.9 329.5 319 305.1 283.9 268.4 249.2 217.7 195.6 178.2 160.3 143.1 128.3 112.1 94.2 79.4 62 45.6 32.7 11.6 -2 -2 -2 -2 -2 -2 -2 -2 -2 -2 -2 -2 -2 -2 -2 -2 -2 -2 -2 -2 -2 -2 -2 -2 -2 13.9 26.4 36.1 44.8 57.3 75.6 97.5 127.4 144.8 162.5 214.5 268.4 323.5 340.1 349.3 366.6 366.4 359 339.1 335.5 329.8 327.2 325.3 326.1 328.1 331.3 336.8 342.4 347.3 353.1 359.6 367 373.1 378.2 380.8 383.1 385.4 387.4 384.9 386.5 386.2 383.5 380.6 378.4 376.6 374.2 374.8 378 380.7 387.1 389.7 394.3
19.2 18.9 9.8 9.9 9.9 8 10.1 9.7 10.3 11.6 14.5 19.8 23.5 24.6 23.3 24.8 25.5 26.1 28.2 30.6 33.9 38.2 44.9 51.3 60.7 71.9 85.8 102.7 123.8 142.3 161.5 178.2 203.6 240.9 243.3 245.9 255.4 267 281.6 288.7 295.3 299 300.6 303.6 305 309.2 311.9 311.5 311.4 311.9 312.4 313.2 316.1 317.1 317.9 318.5 319.2 320.1 321 325.3 335.4 341.5 346.1 346.9 347.8 347.5 347.6 347.5 347.4 347.2 347.5 347.8 347.7 345.7 343.9 342.9 343.7 343.7 336.7 336.7 336.7 336.7 336.7 336.7 340.9 336.7 338.6 343.6 336.7 336.7 336.7 344.4 348.9 354.2 346.6 343.6 340.8 337.1 335.2 333.7 332.5 331.4 331.1 330.6 327.7 320.3 311.8 298.6 279.7 256.9 226.7 205.5 191.1 173.4 150.8 132.5 119.4 105.6 88.5 71.3 53.6 38.8 23.6 -2 -2 -2 -2 -2 -2 -2 -2 -2 -2 -2 -2 -2 -2 -2 -2 -2 -2 -2 -2 -2 -2 -2 -2 -2 11.1 26.1 34.7 43.6 53.3 70.5 91.4 115.4 131.1 158 219.5 264.4 305.8 330.5 341.1 360.5 366.6 361 348.2 338.2 332.2 330.5 330.4 331.5 333.4 332.5 338.8 342.2 344.7 352.1 359.1 363.5 369.2 374.7 381 385.6 388.2 389.2 391.2 392.2 388.4 387.7 381.7 380.9 379.1 376.9 378.2 382 385.8 387 390.9 397.3
20.7 20.3 10.2 10.4 10.2 10 10.3 10.2 11.2 11.3 12.5 14 17 18.8 20.1 21.2 22.4 23.7 26.7 29.8 33.3 37.4 41.9 46.4 54.9 64.5 83 98.8 115.7 132.3 146.9 169.4 190 218.1 238.1 244.8 254.4 265 286.3 292.1 293.3 296.2 299.1 303.6 306.2 308.1 309.5 311.4 312.6 313.3 316.7 316.2 316.5 317.3 317.6 317.8 318.6 319.4 320.2 321.9 327.5 332.7 336.5 340.3 342.3 344.1 344.9 344.7 344.1 343.9 344.2 344.3 344.7 344.9 344.3 342.7 336.7 336.7 336.7 336.7 336.7 336.7 344.1 344.1 343.7 342.5 336.7 336.7 336.7 336.7 336.7 336.7 346.9 349 347 344.6 341.6 338.4 336.7 335.2 334.2 333.5 332.6 332.5 329.5 325.3 314.6 302.9 285.8 264.3 237 219.7 202.6 184.2 164.9 143.1 126.5 112.6 95.7 78.8 61.8 45.5 32.3 13.8 -2 -2 -2 -2 -2 -2 -2 -2 -2 -2 -2 -2 -2 -2 -2 -2 -2 -2 -2 -2 -2 -2 -2 -2 10.9 21.9 33.1 41.3 50.3 66.6 85.4 104.5 120.8 160.7 218.2 270.2 297.4 318.6 336.2 348.6 362.3 359.5 354.5 347.3 335.7 333.8 336.1 338.2 335.4 333.5 338.2 341.8 344.1 350.7 354.6 359 364.9 372.9 381 385.8 390.1 391.2 392.2 391.6 390.2 389.5 388.7 388.2 387 385.3 383.8 384 385.3 386.8 395.7 404.2
21.2 21.4 21.3 10.8 9.5 10.6 10.8 11.1 11.4 11.4 12.6 13.8 14.6 16 17.1 18.8 20.7 23 25.2 28.4 31.3 34.5 37.7 42.6 51 64.5 79.6 94.5 109.5 123.9 137.8 155.5 181.7 208.7 227 233.9 248.1 255.4 269.6 288.8 296.9 301.9 304 305.1 307.6 309.4 311.5 313.9 315.7 316.5 317.1 317.8 317.5 317.5 317.6 317.2 317.8 318.5 319.3 322.7 323.5 325.1 328.2 332.2 334.8 337.6 339 339.2 338.9 339.1 339.8 340.5 340.5 340.6 341.1 340.3 342.8 336.7 336.7 336.7 336.7 343.6 345.1 345.2 346.6 344.3 336.7 336.7 336.7 336.7 336.7 336.7 344.6 346.7 348 347.2 343.7 340.3 340 338.6 338.1 337.8 333.6 332.2 330.3 324.9 313.8 300.5 287.1 269.7 245.3 229 214.4 196.9 175.9 152.9 134.8 119.3 103.3 86.7 70 53 37.5 24.1 -2 -2 -2 -2 -2 -2 -2 -2 -2 -2 -2 -2 -2 -2 -2 -2 -2 -2 -2 -2 -2 -2 -2 0.5 4.6 16.8 28.9 37.5 47.1 61.7 80.3 105.9 119.9 160.3 207.8 260 294.7 304.4 329.3 338.2 351 356.6 354.7 349.9 337.3 336 338.3 334.5 333 335.8 340.7 342.8 347.4 350 352 355.8 363.6 370.9 379.3 385.1 389.1 395.4 395.4 394.3 394.3 392.9 392.6 394.4 392.8 390.1 385.4 383.7 386.6 393.7 409.6 424.3
22.1 22.5 21.9 11.1 10.8 11.2 11.4 11.8 11.7 12.1 12.8 13.8 14.8 16 17.3 18.7 20.4 22.5 24.3 24.8 28 32.3 35.6 40.2 49.3 61.4 75.2 89.7 103.8 118 131.8 149.6 172 199.9 221.1 239.6 255.9 270.7 284.3 296.5 305.6 311.9 312.5 313.2 311.5 313.7 316.9 320.5 322.4 323.7 325.7 324.5 320.9 318.6 317.7 317.2 316.6 317 317.8 319.8 320.3 321.3 322.6 325 327.9 330.4 331.7 332.9 334.2 334.7 335.4 335.6 336.4 337.3 337.7 337.4 340.4 342.7 340.9 342.4 341.3 344.8 345.7 346.7 347.1 345.5 345 336.7 336.7 336.7 336.7 336.7 336.7 344.2 347.5 348.8 346.6 343.1 342.3 342.5 340.9 340 334.9 332.9 330.7 322.5 311.3 301.7 290.5 277.7 258.2 239.8 224.8 209.7 195 165.9 143 127 110.2 93.6 76.4 58.9 42.6 31.7 13.2 -2 -2 -2 -2 -2 -2 -2 -2 -2 -2 -2 -2 -2 -2 -2 -2 -2 -2 -2 -2 -2 -2 -2 1.9 6.6 23.4 32.2 44.1 57.8 75.4 94.5 117.8 150.3 200.7 245.4 285.1 300.4 321.5 332.2 348.1 354.4 357.1 353.2 345.3 340.3 340 334.7 334.8 341 343.9 345.5 349.3 350 352.6 359.2 361.6 368.5 372.6 383.2 391.1 396.5 399 397.1 396.9 398.4 398.3 396.8 392.4 391.9 391.4 391 395.3 405.6 421 432.7
23 23.3 22.7 9.9 10.9 11.5 12 12.4 12.6 13.1 12.9 13.7 15 16 17.4 19.1 19.3 21.8 24.1 27 29.5 31.3 34 38 46.9 57.3 70.2 84.2 97.4 111.4 124.1 137.6 159.4 191.3 221.3 243.5 266.9 286.3 304.1 323.6 338.4 337 343.1 345.7 346.4 336.8 335.9 335.6 339.6 347.2 346.8 344.4 339.8 336.9 329.3 321.7 317.4 316.4 315.5 316.4 318.7 319.8 319.9 320.4 322.6 325.1 326.7 328.1 329.2 331.1 332 333.1 334 334.4 333.5 336.1 338.7 341 343 343.9 345.4 345.9 347.4 348 348.8 348.1 347.6 344.8 336.7 336.7 336.7 341.2 343.4 344 346.2 348.3 348.9 346.2 343.2 341.9 340 338.6 334.8 332.2 329.6 321.2 309.7 304.9 294.1 278.2 270 253.5 232.9 218.8 201 175.8 151.3 133.2 117.3 101.2 84 67.3 48.9 35.6 20.6 -2 -2 -2 -2 -2 -2 -2 -2 -2 -2 -2 -2 -2 -2 -2 -2 -2 -2 -2 -2 -2 -2 -2 -2 3.2 19.9 29.4 39.6 52.3 68.7 90.6 115.5 146.6 194.9 234.4 278.2 303 312.7 333.4 346.7 351.3 357.3 357.9 356.8 351.8 346.8 345.6 343.7 346.7 347.4 348.3 352.3 353.5 355.9 357.9 360.7 363.7 373.6 380.5 388.2 393.7 398 399.1 400.3 402 400.7 400.1 400.6 400.5 399.9 400.2 409.1 417.7 425.7 432.4
23.3 23.2 22.2 10.1 11.3 12 12.4 12.6 12.9 13.2 13.6 14.4 13.6 16.1 17.4 18.3 19.5 20.7 23.7 26 27.5 28.7 32.2 36.5 43.7 52.6 64.5 77.8 90.1 103.7 114.7 130.1 156.5 191.4 221.3 248.4 275.1 297.3 331.9 348.2 358.6 364.2 362.5 361.1 357.1 354.1 350.4 348.5 354 362.6 366.6 359.6 353.4 344.4 333.1 325.2 321 317 315.1 314.4 316.8 317.6 318.6 319.2 319 320.4 322.1 323.4 325 329.3 330.6 332.2 333.3 332.2 335 335.3 337 337.7 338.9 339.2 344.9 346.5 347.5 348.8 350.7 349.9 348.9 346.9 344.3 336.7 343.8 346 347.8 347.5 347.9 348.6 350.1 348.2 344.9 342.5 340 338.3 334.1 330.4 328.1 320.1 312.7 307.8 302.4 292.2 275.4 259.9 244.4 231.8 209.9 186.2 161.7 142.3 125.2 109.7 92.6 77 58.5 42.4 27.9 7.7 -2 -2 -2 -2 -2 -2 -2 -2 -2 -2 -2 -2 -2 -2 -2 -2 -2 -2 -2 -2 -2 -2 -2 1.7 15.4 26.2 36.6 48.2 62.9 84.1 110.7 144 187.1 226.5 265.5 297.5 312 330.8 340.8 347.3 354.5 365.3 367.9 363.3 352.3 356 358.5 352 351.4 352.5 355.8 357.9 358.1 358.1 360.5 362.5 369.4 376.8 385.9 390.3 396.7 399.4 402.5 405.1 406.9 405.4 404.9 405.9 405.7 406.8 417 427.9 429.5 454.2
24.5 23.1 21.7 18.7 11.8 12.3 12.5 12.9 13.1 13.3 13.7 14.5 15.1 15.9 16.7 17.6 18.5 19.3 22.4 24.5 25.1 26.3 30.3 34.4 40.4 49.4 58.7 71.4 81.8 93.1 106.2 124.8 147.7 182.1 215.6 244.3 273.4 333.7 351 351.2 356.8 361.8 361.3 360.4 357.7 356.4 358.7 361.2 360.7 367.8 362.6 353.8 347.4 340.2 329.7 326 320 316.8 314 314.2 315.3 315.5 317.4 317.6 317.7 318.1 319.9 325.4 328.4 328.2 327.4 331.4 332 331.5 333.9 330.1 330.1 333.5 336.9 339.7 343.9 345.8 347.5 349.1 350.4 350.4 350.4 348.3 345.1 344.9 347.1 348.8 351.8 351 350.3 350.8 350.3 349.4 346.6 343.5 343.1 337.6 333.6 329.2 325 319.3 314.5 311.2 309.7 301.6 284.9 267.8 251.8 237.2 221.3 199.1 173.7 152 133.7 119 101.8 85.7 67.8 50.1 35 20.6 2 -2 -2 -2 -2 -2 -2 -2 -2 -2 -2 -2 -2 -2 -2 -2 -2 -2 -2 -2 -2 -2 -2 -2 11.4 20.9 34 44.7 57.1 76.4 105 140.1 178.8 217.8 255.1 290.8 306.2 325.1 336.3 344.8 359.4 371.2 373 375 369 364.4 366.7 357.1 354.4 357 358.3 358.6 362.6 360.6 360.8 362.1 369.3 377.1 381 385.8 393.2 398.9 404.4 410.5 413.9 414.3 410 408.9 411.9 416.9 422.3 436.6 448.3 459.3
33.5 28.6 26.7 21.3 14.6 12.1 12.4 12.8 13.1 13.3 13.9 14.5 14.9 15.7 16.5 17.1 17.9 18.7 20.8 22.9 23.6 25.4 28.7 33.8 37.8 44.1 52.5 63.7 75.6 86.9 101.3 119 138.4 165.7 203.3 233.7 268.3 334.5 347.4 349.9 350.1 352.8 359.7 361.6 358 361.1 361.9 361 358.4 357.3 351.2 344.3 336.9 331.9 327.6 323 318.2 315.8 313.1 312.1 313.2 314.4 316.1 315.9 315.7 319.1 322.7 329.5 332.6 332.4 329.9 329.9 331.5 333.4 334.6 330.1 330.1 330.1 337.4 340 342.9 345.2 347.3 349.2 350.5 350.3 350.8 349.4 348.3 350.8 351.8 351.8 352.3 352.2 351.6 351.6 351.5 350.1 349.3 346.9 345.3 339.1 334.8 330.1 325.4 320.3 316.7 313.5 309.9 303.9 291.4 277.2 260.7 246 236.7 215.5 191.3 165.3 144.2 125.6 107.8 92.3 76.2 58.1 41.2 25.5 6.7 1.8 -2 -2 -2 -2 -2 -2 -2 -2 -2 -2 -2 -2 -2 -2 -2 -2 -2 -2 -2 -2 -2 -2 5.4 17.4 30 41.5 53.2 71.1 97.4 131.7 172.6 214.2 248.8 278.8 301.2 319.6 332.3 348.2 365 369.1 374 384.9 383.2 373 368.7 366.3 359.5 354.4 354.4 358.8 369.8 367.4 363.6 364.1 371.2 375.4 377.3 381.9 391.9 401.5 408 415 415.5 418.9 415.6 413 413.5 418.6 429.5 437.2 450.4 462
47.2 46.7 40.6 31.3 21.5 15.9 11.4 12.9 13.1 13.4 14 14.5 14.8 15.7 16.3 16.8 17.7 18.6 20.5 22.9 23.9 25.5 28.3 32 35.7 39.9 47.4 60.3 73.1 83 96.2 111.1 130.1 152.3 188.1 220.3 254.6 316.6 331.9 337.2 343.6 346.1 350.2 353.1 355.2 358.7 358.9 357.6 353.6 350.9 345.5 339.5 334.1 330 325.6 321.1 317.2 316.4 313.2 311.6 311.7 312.4 314.6 316.1 320.9 323 324.2 329.3 331.5 333.4 332.9 334.8 340.1 337.4 335.2 330.1 330.1 330.1 337.4 339.3 342.2 344.1 346.7 348.7 351 351.6 350.9 351 352.2 355.2 355.6 354.6 355.3 354.5 354.3 355.1 353.4 351.5 350.1 349.4 347 342.2 338.2 335.7 329.1 325.4 322.2 317.3 313.8 305.6 296.8 282.8 267.5 257.9 245.8 231.8 211.8 181.6 153.2 129.8 113.3 97.2 80.4 63 46.4 29.1 12.8 -2 0.8 -2 -2 -2 -2 -2 -2 -2 -2 -2 -2 -2 -2 -2 -2 -2 -2 -2 -2 -2 -2 -2 3.7 14.3 26.9 38.3 50.2 63.8 87.1 120.7 165.5 205.2 244.3 270.2 295.5 315 334.6 348.7 357.9 362.6 375.5 388.2 391.6 386.7 372.5 364.2 354.4 354.4 354.4 364.2 372.2 375.4 371.2 367.6 369.8 370.9 372.6 381.2 394.9 403.3 409.8 414.4 412.9 413.9 414.3 416.3 418.6 428.1 437 443.1 449.4 460.6
63.3 62.5 55 43.7 32.6 22.3 16.1 13.5 12.9 13.8 14.1 14.7 14.8 15.1 16.4 17.2 17.7 18.5 20.2 23.6 25 26.3 27.7 30.1 34.6 38.2 45.1 57.7 70 80.1 90.7 103.7 122.1 143.3 179.2 210.7 234.8 264.8 289.2 331.3 345.6 346.6 350.3 353.3 355.2 357.3 359.1 356.6 348.4 345.9 341.1 337.3 333.1 329.4 326.7 322.1 317.9 315.4 310.6 311.2 312.2 311.8 313 316.4 319.7 322.5 325.2 329.1 331.7 334.3 336.3 339.8 341.7 342.1 336.6 330.1 330.1 330.1 335.5 336.8 340.1 343.4 346 348.8 351 352 352.1 352.1 352.8 356.6 359.4 358.6 357.6 356.6 356.7 356.3 354.1 352.1 351 349.4 348 346 344.1 335.8 331.5 329.3 326.9 317.7 313.5 305 296.6 287.8 273.5 263.2 250 234.9 220.2 191.7 159.9 134.3 114.6 102.2 88.1 71 55.4 36.5 23.8 10.1 -2 -2 -2 -2 -2 -2 -2 -2 -2 -2 -2 -2 -2 -2 -2 -2 -2 -2 -2 -2 -2 -2 -2 10.5 22.5 35.6 47.7 59.9 78.2 108.4 152.3 196.4 237.1 264.6 288.6 314.2 330.7 344.2 344.5 352.9 373.7 388.9 395.1 399 391.2 367.9 360.7 354.4 354.4 359 371.3 372.2 368.5 368.6 367.2 367.2 372.9 384 395.4 404.4 407.4 410.7 409.8 410 411.4 416.6 423.5 431.6 438.4 443.1 449.4 460.4
77 72.7 62.4 51.3 39.5 27.6 19.8 16.6 14 13.2 14.2 14.6 15 15.1 16.2 17.2 17.9 17.9 19.5 22.4 25.2 26.9 28.8 30.5 33.1 37.1 44.4 53.9 65.9 76.6 86.3 97.3 115.4 138 170.3 199.8 219.5 256.7 303 339.3 344.1 349.3 353.5 358.4 360.8 358.9 358.3 352.4 345.8 341.5 338.1 333.7 331.4 327.9 325.9 320.9 316.5 314 311.8 310.7 311.5 312.8 314.4 319 319.1 321.2 325.2 330.4 333.9 337.9 341.1 344 346.4 346.4 339.9 335.2 330.1 330.1 330.1 334.6 339.1 343.4 346.8 349.2 350.9 351.7 353.6 352.9 352.7 357.4 360.7 359.7 357.9 357.2 356.6 357 355.9 352.7 352 350.7 349.9 351.5 345 336.9 334.1 333.8 329.5 318.3 311.8 303.3 297.5 289.4 278.8 267 249.8 235.7 215.3 191.8 161.2 133.3 125.4 111.3 95.8 75.6 57.6 44.7 33.1 15 -2 -2 -2 -2 -2 -2 -2 -2 -2 -2 -2 -2 -2 -2 -2 -2 -2 -2 -2 -2 -2 -2 -2 3.6 18.6 32.3 44.2 56.4 71.7 96.4 136.1 180.3 228.9 259.1 283.3 304.9 315.4 331.5 334.8 342.8 367.4 386.6 394.7 399.2 398.6 386.4 368.3 362.1 354.4 354.4 359.4 362.7 363.9 365.8 368.6 370.9 375.7 385.9 392.2 394.3 398.1 404.9 407.7 408.3 408.1 412 421.1 427.9 432.4 439 447.9 457
83.2 75 63.8 53 42.5 30.4 23.1 19.6 16.2 14.6 14 14 15.1 15.1 16.1 16.6 17.8 17.7 17.6 20.3 23.8 28.2 28.4 29.2 30.6 34.8 41 49.5 62.4 72.8 82.5 93.8 112.4 134.8 155.8 189 220.2 254.7 302.6 330.1 338.6 348.8 355.4 360.7 362.3 360 355 348.6 344.3 340.3 337.2 335.8 330.1 326.6 323.6 318.2 314.5 312.8 311 310.3 311.6 314 316.3 320.1 322.2 323.8 325.8 333 342.1 347.2 353.1 351.4 348.9 345.4 338 334.9 332.8 330.1 335 337.3 338.9 342 346.3 349.1 351 351.9 352.7 353.5 354.7 357 358.3 358.5 358.4 356.9 357.2 356.7 355.2 354 352.8 351.7 351.2 351.5 345 337.9 335.8 337 332.3 319.8 310.7 302.9 298.5 289 277.4 260.5 258.3 244.5 221.5 194.8 170.9 152.1 133.8 118.9 95 72.1 72.6 53.2 39.8 23 3.1 -2 -2 -2 -2 -2 -2 -2 -2 -2 -2 -2 -2 -2 -2 -2 -2 -2 -2 -2 -2 -2 -2 -2 14.2 29.3 41.8 53.3 66.5 85.8 118 166.2 215 247.4 270.6 293.4 303.4 313.2 325.6 334.9 357.8 378.4 392.8 394.2 399.5 396.5 383.3 369.2 357 354.4 354.4 354.4 359.6 364.3 367.7 370.5 375.9 381.3 385.9 383.4 386.2 391.8 400.6 404.2 405.7 410.5 418.4 423.2 427 432.2 438 451.1
87.4 75.3 63.1 53.4 43.2 31.1 24.6 21.5 20 17.4 13.3 14.3 15 15.9 16.3 16.3 16.2 17.7 17.7 18.6 22.5 27.3 27.8 28 30.3 33.9 39.8 47.7 59.8 69 79 91.2 110.2 132 155.6 185.5 217.9 254.6 298.5 321.7 332 343.8 355.5 360.7 361 357.6 352.3 348.7 344.5 340.8 336 331.9 327.4 322.9 319.2 315.3 313.1 310.8 309.1 312.2 316.8 319 320.7 324.5 326.4 328.9 329.1 334.7 346.1 357.9 362.2 361.8 352.7 343.6 336.6 334.7 334.8 336.5 337.2 339.4 342.3 344.2 347.6 348.6 350.4 351.8 352.4 353.9 355.5 356.4 357.9 358.1 358.2 357.6 356.6 353.1 354.4 354.2 353.8 352.7 351 350.8 343.6 339.3 337.6 336.3 328.1 322.8 312.9 302.7 292.7 290.8 281.4 272.6 262.3 250.5 231.8 203.5 184 163.1 142.9 123.7 108.1 93.2 81.1 64.8 51.6 32.4 13 1.4 -2 -2 -2 -2 -2 -2 -2 -2 -2 -2 -2 -2 -2 -2 -2 -2 -2 -2 -2 -2 -2 -2 11.9 25.6 39 49.3 63 78.6 105.8 147.7 192.5 232.5 251 278.6 288.8 296.6 308.9 322.3 349.9 370.9 386 390.9 395.4 398.2 393.8 383.9 369.4 354.4 354.4 354.4 360.4 362.4 364.2 368.7 372.5 375.8 378.4 378.9 383.3 384.9 390.9 397 400.3 405.3 407.9 414.6 422.4 427 432.9 446.2
93 75.8 61.9 50.5 39.9 30.4 25.4 24.4 23.4 21 19.3 13.4 15.1 16.6 16.4 17.1 17.2 17.4 17.8 18.5 20.9 23.1 24.8 28 30 33.6 39.5 46.1 57.2 66.5 77.1 90.3 108.5 131.7 157.1 185.6 217 266.1 301.9 309.7 326.8 348.4 357.7 358.6 357.5 354.5 352.5 349.6 345.7 340.7 336.8 334.4 327.8 322.2 318 314.6 311.7 309.3 312.4 318.8 324 330.3 333.8 335.3 335.3 336.7 336.4 337.5 346.8 356.8 363 361.7 356.5 346 339.4 337.4 342.8 342.6 339.7 341.2 343.2 346.1 349.3 350 350.7 352.5 353.2 354.3 356.1 357.5 359.3 359.5 358.8 357.9 356.3 353.1 353.1 354.3 353.7 352.1 350 349.2 342.6 340.3 338.2 334.2 327.1 321.4 314.4 310.7 302.2 291.5 282.4 275.8 264.9 253.1 240.3 222 198.8 172 147.4 132.8 119.1 104.9 91.5 76.6 59.7 45.2 24.9 8.7 3.2 -2 -2 -2 -2 -2 -2 -2 -2 -2 -2 -2 -2 -2 -2 -2 -2 -2 -2 -2 -2 -2 7 17.7 34.1 46.3 58.2 72.2 94.6 130.2 165.5 211.3 234.5 259.9 272.9 281.1 296.6 316.6 341.2 358.6 378.5 384 388.3 392.7 393.4 385.9 373.2 361.1 354.4 354.4 354.4 358.2 354.4 362.1 367.8 373.3 375.9 376.8 378.3 380.5 382.1 387 393.2 397.9 403.1 407.3 414.5 419.5 426.8 443.1
97.5 79.7 63.8 51.5 39 31.2 27.5 27.2 25.7 23.6 21.8 15.1 14.4 16.1 16.2 17.2 17.4 17.9 18.2 18.8 19 21.2 23.4 27.7 29.9 32.5 36.8 43 52.5 63.8 75.5 89.3 106.4 128.9 156.1 186.4 218.2 254.2 278.1 302.2 313.5 339 356.7 365.3 356.1 354.8 352.8 350.9 347.5 342 338.5 336.2 331.7 322.6 317.9 314.5 310.8 309.4 315.2 324.5 336.4 337.9 343.2 349 346.7 343.1 340.9 345.4 348.3 353.7 360.3 356 350.8 346.6 344 341.8 344.4 344.9 347.7 347.9 348.2 349.1 350.2 350.8 352.6 354.1 355.2 355.8 356.8 358.8 360.5 362.7 359.5 358.5 357.8 353.1 353.1 353.1 354.5 351.5 349.3 346 342 340.3 339.3 335.5 330.5 323.9 319.5 317.4 301.6 290.3 287.8 279 268.6 256.6 243.2 229.5 209.5 180.4 162.2 146.3 129.8 115.7 100.4 85.5 68.7 51.5 33 17.9 2.4 -2 -2 -2 -2 -2 -2 -2 -2 -2 -2 -2 -2 -2 -2 -2 -2 -2 -2 -2 -2 -2 9.2 18.1 29.1 43.1 53.8 67.7 84.1 114 146.9 194.1 220.4 239.6 262.5 272.9 284.4 303.5 326.4 344.8 366.3 374.8 380.9 383.5 387.2 385.8 379.3 367 354.4 354.4 354.4 354.4 354.4 354.4 361.6 368.5 372.5 372.8 373.8 375.4 377.3 380 386.6 389.8 398.4 400.3 405.1 409.7 419.8 430.3
94.6 81.4 67.2 54.1 40.3 32.6 31.2 28.6 26.7 25 23.8 16.1 15.4 15.8 15.1 17.7 18 17.9 17.2 18.3 17.8 20.5 22.5 26 28.9 31.5 35.4 40.2 47.3 58.2 72.3 86.8 102.7 123.1 150 182.1 216.5 244.5 267.1 287 307.3 331 349 355.3 356 357 356.6 355.2 346.9 341.1 337 330.9 324.9 318.5 314.1 311.3 309.7 309.8 318.1 330 341.8 343.3 347.6 352.6 354.2 352.1 351.8 353.5 356.1 356.3 356.8 353.5 349.1 346.3 344.2 344 347.8 353.8 361.2 357.1 354.7 354 353.5 354.4 353.2 354.6 357.2 357.9 357.6 358.6 362.4 362.8 361.4 359.7 359.5 360.6 355.8 353.1 356 353.4 349.6 344.5 342 340.1 339.3 339.1 334.6 325.1 326.1 319.2 306.6 297.7 283 277.2 272.6 264.9 244.8 238.4 222.8 198.4 178.1 158.8 138.2 122.7 107.8 93.7 75.4 61.4 44.7 28.8 5.5 -2 -2 -2 -2 -2 -2 -2 -2 -2 -2 -2 -2 -2 -2 -2 -2 -2 -2 -2 -2 1.8 13.8 17.2 24.8 37.9 51.3 63.1 76.9 98.7 129.4 171.1 199.2 229.3 248.2 258.4 272.2 290.2 312.5 331.6 349.5 362.6 368.1 373.4 377.7 380.5 379.9 368.6 355.4 354.4 354.4 354.4 354.4 354.4 362.5 363.1 367.8 369.1 370.8 372.1 372.1 374.3 378.4 383.1 388 392.7 396.8 400.5 410.3 423.4
89.8 79.2 67.9 53.5 39.8 37.6 34.6 30.4 27.6 26.6 26.3 26 22.2 18.9 17 16 17.3 16.2 18.7 18.8 19 17.4 22.4 25.4 28 30.3 34.2 38.9 44 52.2 67.8 83.9 99.3 117.3 143.1 174.3 211.9 237.3 260.2 282.8 299 328.3 349.9 358 362.2 362.9 360.5 354.8 346.5 340 333.5 324.7 318.2 315.1 311.8 310.3 309 308.2 315.8 334.3 339.9 342 347 354.6 356.8 358.7 358.9 361.6 365.7 366.4 361.1 356 351.5 349.3 354.2 354.9 359.3 364.9 366.1 360.9 359.7 355.7 355.7 355.7 355.2 354 355.7 357.2 359.1 360.8 361.5 362.5 362.8 361.7 361.3 360.6 358.5 357.6 357.1 352.4 350.4 344.8 341.3 338.8 337.4 337.8 334.2 330.3 326.9 316.6 306.2 298.1 289.3 283.2 277.8 264.9 263 245.3 231.8 215.1 196 174.3 147.3 128.9 113.8 98.8 77 68.4 54.2 36.5 20.5 1.8 -2 -2 -2 -2 -2 -2 -2 -2 -2 -2 -2 -2 -2 -2 -2 -2 -2 -2 -2 0.4 4.2 10 19.6 32.9 45.8 57.6 71 88.6 119 153.7 185.3 210 227 241.8 257.5 276 297.5 317.9 330.1 351.1 356.6 361.5 365.3 371 370.9 368.9 362.4 354.4 361.5 354.4 354.4 354.4 363.9 364.1 363.8 365.3 366.3 366.2 366.2 367.1 370.4 374.3 378.7 382 387.4 394 403.4 410.8
89.5 81.9 70.8 58.7 45.6 43.9 44.3 39.5 32 28.5 27.7 27.4 25.2 21.2 20.2 18.8 17.5 19.2 19.3 19.3 19.2 17.9 22.3 24.2 26.3 29.1 32.9 37.6 42.4 48.9 62.8 79.8 96.1 115.6 139.5 163.5 189.5 221.9 247.7 275.9 303.9 328.4 349.6 359.4 358.3 364 356.7 351.7 344.8 338.5 328.8 319.2 312.8 311.1 309.9 309.1 308.8 306.8 311.8 323.3 332.1 337.6 346 354.8 360.4 376.6 380.4 378.4 372.7 367.6 365.5 362.5 357.7 357.9 362.1 366.5 371.6 374.4 374.5 369.8 364.6 360.7 359.8 359.2 355.9 354.8 355.2 357.8 360.1 361.5 361.8 360.9 362.9 363.7 362.9 360.7 359.9 360.3 355.6 350.8 348.6 347.4 341.5 338.1 335.3 336.1 336.2 332 323.9 313.8 307.2 297.6 295 285.5 278.9 274.2 268 252.9 239.6 230.7 214 194.2 171 138.6 119.9 101.3 90.3 76.8 63.4 42.2 27.3 5.7 -2 -2 -2 -2 -2 -2 -2 -2 -2 -2 -2 -2 -2 -2 -2 -2 -2 -2 -2 -2 -2 -2 16.3 28.6 40.2 53 66.1 80.9 104.8 136.1 165.4 189.8 208.4 224.2 240.2 260 281.7 304.9 315.7 335.2 347.3 348 349.9 358.7 364.4 363.7 360.2 359.7 364.2 367.9 354.4 354.4 365.3 368.1 362.3 360 360.8 362.6 361.6 361.4 362.3 365.8 371 372.8 381.5 390.4 394.2 400.1
97.1 87 75.9 63.5 53.8 54.8 57.9 51.5 42.5 36.9 32.3 29.5 28.5 26.8 21.2 21.3 20.8 20.9 20.2 19.9 20.2 18.2 22.5 23.5 26.2 27.7 31.8 36.5 41.4 47.9 58.7 74.3 92.2 111.4 133.7 157.2 183.6 215.6 251.1 274.4 312.2 339.1 352 354.4 353.2 357 355 344.3 338.3 336.4 326 316.6 309 307.4 307.6 307.8 307.9 306.2 308.9 315.2 323.1 333.9 348.4 362.2 373.4 377.5 379.8 378 375.6 372.2 371.8 369.5 365.8 367.5 372.4 376.6 381.3 384.4 383.4 378 369.7 365.1 362 360.1 362.4 357.2 359.4 364.8 365.7 362.6 362 361.8 363.7 364.6 363.4 362.3 360.8 360.2 355.6 349.8 346.2 345.2 340.5 339.1 337.8 341.1 341.7 333.7 321 315.3 309.9 304.2 293.4 285.2 279.8 277.6 270.6 258.7 247.5 239.8 226.1 204.1 174.4 146.8 125.3 112.3 100.3 84.4 71 55.2 36.5 17.4 -2 -2 -2 -2 -2 -2 -2 -2 -2 -2 -2 -2 -2 -2 -2 -2 -2 -2 -2 -2 -2 -2 10.1 24 36.6 47.9 61 74.5 91.8 119.6 147.4 171.7 189.6 206 223 242.1 265 288.5 303.4 319.5 333.6 341.7 340 345.2 355.2 357.9 356.2 357.9 361.4 367 369 361.3 361 368.9 364.9 361.4 358 359.9 360.3 360.2 360.3 359.2 361.3 365.6 364.8 379.6 385.6 392.3
114.4 99.9 86.6 74.5 67.9 66.8 70 67.7 63.6 59.5 51.5 46.3 34 30.7 29.1 27.3 26.6 27.7 22.2 20.9 20.8 19.7 22.9 24 26.7 27.6 30.9 35.8 41.4 47.5 56.4 70.6 89.1 107.9 129.5 155 182.9 221.1 247.3 280.3 329.4 351.8 355.5 351.5 348.2 348.5 350.4 341.8 335.7 325.9 317.9 311.5 305.8 304 305.3 307.3 307.9 305.3 306.2 312.6 322.7 337.4 355.4 372.7 376.6 379.4 380.5 379.4 377.2 378.6 376.8 373.8 372.7 378.8 384.3 387.3 390.3 393 388.3 383.1 372 368 364.2 360.1 358.4 357.1 365.7 371.9 376.1 367.9 363.3 364.7 365.5 366.2 365.3 363.2 361.1 358.1 354.4 348.4 343.9 339.8 337.1 339.5 341 340.4 335.3 331.4 325.2 318.7 311.9 306 295.8 294.1 285.9 280.9 273.4 262.6 252 242.8 227 201.5 175.6 153.5 137.2 123.2 109.6 93.7 78.9 63.9 45.1 23.5 -2 -2 -2 -2 -2 -2 -2 -2 -2 -2 -2 -2 -2 -2 -2 -2 -2 -2 -2 -2 -2 -2 -2 17.5 32 44.1 55.9 69.3 84.1 105.1 130.1 153.4 172 189.3 206.5 226.7 250.7 270.4 285.7 300.5 321.2 326.1 331.8 334.2 343.3 354.2 354.8 353.7 354.7 358.3 362 361.8 359.4 361.4 360.6 359.1 358.2 360 360.4 358.8 359.1 356.4 352.7 353.1 358.5 366.8 376.5 382.1
131.9 108.8 100.2 90.9 85 84.6 91 94.5 93.5 100.6 92.5 71.8 57.6 44.6 37.4 38.8 35.8 30.8 28.1 21.5 21 21.3 23.5 25.9 27 27.7 30.5 35.3 41 47.6 56 70.7 89.3 109 129.4 152.9 179.2 215.2 238.9 300 325.7 337 351.3 349.3 345.6 342.8 342.3 335.6 332 321.8 313.9 308 303.3 301.3 302.1 304.8 306.3 304.8 305.9 314.4 322.4 340.3 363.6 374.1 382.7 384.2 383.4 381.7 384.8 396.9 390.7 384.6 384.4 387.8 397.5 398.8 398.3 395.7 388.7 383.9 374.5 369 364.2 359 358.6 361.8 372.7 379.2 377.1 369.6 366.7 366.9 368.2 368.3 364.9 363.1 360.6 357 353.4 347.7 341.6 339.5 337.1 338.8 341.4 340 334.8 334 329.5 324.2 316 307.8 307.8 299 296.1 286.2 275.3 266.5 259.1 250.1 235.6 203.8 185.8 172.4 152.6 135.6 120.4 104.7 86.5 70.7 55 34.7 11.6 -2 -2 -2 -2 -2 -2 -2 -2 -2 -2 -2 -2 -2 -2 -2 -2 -2 -2 -2 -2 -2 -2 16.1 28.2 41 52.8 64 77.4 93.3 114.8 136.7 156.6 173.9 193.2 217.2 235.7 250.3 266 282.4 303.1 312 315.5 320.8 331.2 344.6 350.1 350 349.6 349.4 353.1 353.6 355.1 358.3 354 353.7 353.9 357 358.5 358.2 355.4 351.7 349.2 347.6 349.6 355.5 363.9 374.1
140 119.9 117.3 112.5 108.8 101 98.3 106.9 110.1 104.8 93.9 80.4 68.6 60.8 57.6 55.4 49.6 43.1 30.3 22.1 21.2 21.2 23.7 27 27.4 28.2 29.9 34.8 40.5 47.3 55.8 70.7 89.8 110.4 130.8 151.7 176 204.2 239.9 298.5 318.2 330.9 345.8 345.3 342.2 338.5 335.2 333.3 329.3 320.3 313.5 308.6 302.2 298.8 295.5 297.5 299.6 298.6 305.5 311.3 319.3 344 361.5 377.4 391.1 390.7 390.7 397.7 404.1 405 393 386.2 394.7 402 403.2 403.2 400.1 395.1 390.6 385.4 376.5 369.9 365.6 358.6 358.9 368.7 378.3 379 374.7 369.1 367.1 366.9 370.3 364.5 363 361.5 360.2 357.7 354 349.4 344 340 337.1 337.1 339.3 341.1 337.2 334.2 331.3 326.8 320.7 312.5 309.8 307.5 303.8 286.3 276.9 268.9 266.6 250 245.9 227 205.8 191.1 170.5 149.5 131.5 113.8 98.5 80.4 63.3 45.5 22.8 -2 -2 -2 -2 -2 -2 -2 -2 -2 -2 -2 -2 -2 -2 -2 -2 -2 -2 -2 -2 -2 -2 4.8 23.6 36.5 49.9 58.9 71.2 84.5 102.1 122.9 144.2 162.2 181.2 202.4 217.4 231.3 248.9 266.3 284.3 295.9 301.3 316.3 322.6 334.7 345.2 348.1 348.4 350.5 350.4 352.7 355.3 355.6 352.8 351 351.2 351.1 355.7 356.5 352.2 347.6 347.6 347.6 347.6 347.6 360.4 375.5
147.6 134.8 136.2 135.3 125.3 121.2 116.5 107 107.3 104.4 93.3 81.4 75.2 69.1 66.4 63 54 43.9 33 22.7 21.6 21.3 22.9 27.2 27.9 28.8 30.1 34.1 39.6 47.1 56.6 70.4 89.5 110.3 131.4 153.7 181.2 206.4 251.4 295.3 321.4 328.8 341.2 343.6 341.8 339.7 337.4 334.8 326.4 320.2 312.3 304.9 299.4 292.8 292.5 292.3 297.5 302 305.7 308.7 323.1 345.5 363 376.5 392.2 407.9 408.3 407.4 405.7 400.6 392.5 391.6 396.9 402.4 403.6 404 399.9 395.6 391.7 386.1 376.1 369.8 362.9 359.9 363.5 377.3 378.3 377.1 373.1 368.5 368.2 368.4 367.8 362.3 359.7 359.9 359.3 358.1 355.2 351.2 346.8 337.1 337.1 337.1 343.2 342.4 338.3 336 332.3 329.5 326.1 317.6 313.3 311.3 304.7 294.4 286.9 284.4 269 270.2 256.2 239.6 220.9 211.5 192 167.1 148.9 129 110.5 92 73.5 54.9 34.7 13.9 -2 -2 -2 -2 -2 -2 -2 -2 -2 -2 -2 -2 -2 -2 -2 -2 -2 -2 -2 -2 -2 1.6 17.8 31.6 43.5 53.8 64.7 77.2 91.9 111.4 131.4 149.9 167.1 184 199.1 215 233.5 250.8 268.2 284.6 292.6 306.3 317.3 325 334.4 341.2 347.9 350 351.9 354.6 357.1 355.8 356.7 356.3 350.5 349.7 353.6 354 349 347.6 347.6 347.6 347.6 349.6 357.1 366.4
165.9 160 157.8 151.1 145.8 133.8 125 115.2 106.1 98.2 91.2 84.2 77.2 72.9 69 62.7 53.6 42.6 32.9 24.1 22 21.3 22.9 27 28.5 29.4 30.5 34 39.5 47.7 57.1 69.8 88.8 111 133.5 157.1 180.1 211.5 246.3 297.8 315.1 324.7 332.7 336.7 348.4 347.8 339.1 331.7 324.3 313.3 304.9 299.7 292.6 289.1 288.3 294.4 298.8 303.6 306.9 312.8 327.8 347 367.5 377.3 397.1 409.9 409 406.3 402.6 396.8 395 393.6 394.3 399.3 404 402.4 397.7 395.4 390.7 384.8 376.8 369.3 365.9 363.7 372.7 377.2 376.3 376.5 373 371.7 370.6 369.6 366.8 360.2 357.3 357.5 357.6 357.3 355.2 351.1 346 337.1 337.1 337.1 345 349.7 345.4 339.2 336.4 331.4 330 325.6 318.7 318.9 313.6 306.1 297.1 291.4 281.5 275.9 268.5 254.2 242.5 234.5 216.3 194.6 172.5 147.9 126.8 104.9 84.7 66.5 46.5 24.3 -2 -2 -2 -2 -2 -2 -2 -2 -2 -2 -2 -2 -2 -2 -2 -2 -2 -2 -2 -2 -2 0.3 4.9 26 37.7 48.9 59.8 70.4 83.9 100.7 117.7 135.6 152.7 168.8 186.7 203.3 219 236.7 253.2 272.7 283.9 292.3 307.3 314.9 323.7 333.6 342.3 355 358.9 361.8 362 360.1 359.6 357.5 352.4 349.2 348.4 352.3 350.3 347.6 347.6 347.6 354.1 357 361.6 366.4
206.8 203.8 177.1 162.5 161.7 154.5 139.8 129.6 123.3 108.8 97.5 87.8 80.9 76.1 70 62.1 53.8 41.7 32.5 24.5 22.2 21.7 23.1 24.9 29.3 30.1 30.9 33.3 39.4 47.8 57.3 70.6 91.2 115 139.7 167.4 196.1 226.4 266.5 310.4 322.2 319.1 321.5 330.9 342.1 338.6 336.3 328.8 317.2 308.3 300.3 292.8 289.5 285.3 288.2 296.5 300.3 303.1 306.7 313.9 332.4 350.6 369.8 379.8 393.6 405.4 411.7 408.8 401.7 397.5 396.3 396.3 397 400.3 405.4 402.7 395.9 391.2 386.5 382 379 371.2 368.5 374.1 374.9 374.2 374.6 376.5 378.2 374.2 371.5 367.9 363 357.9 354.8 353.6 353.2 354.2 353.7 349.7 345.2 340.1 337.1 337.1 346.3 354.8 350.8 347.3 339.8 337 332.2 331.1 328.6 323.7 323.7 316.9 307.8 293.8 293.6 287 280.9 271.6 260.6 253.3 242.1 224.6 202.6 172.7 148.5 123.3 100.9 78.7 56.7 35.4 14 -2 -2 -2 -2 -2 -2 -2 -2 -2 -2 -2 -2 -2 -2 -2 -2 -2 -2 -2 -2 0.3 2 19.5 34.1 46.3 55.8 65.3 76.4 90 104.6 121.8 139.7 158.5 177.6 192.5 206.4 222.1 238.8 251.8 271.6 279.8 296.2 310.8 322.9 330.9 340.2 360.4 372.8 372.9 370.8 363.5 361.4 357.1 352 348.9 347.9 352.3 353.5 350.4 350.4 347.5 351.5 356 360.2 365.6
218.7 211 198.2 174.9 169.7 175.4 158.8 141.6 129.3 115.4 103.4 93.4 84.5 77.7 70.9 60.9 52.4 40.2 31.6 27.1 23 20.5 23.8 29.4 30 30.8 31.6 33.5 39.2 46.9 56.7 72.9 95.4 120.7 148.4 180.5 217 254 302.9 319.2 329.7 327.4 327.6 331 333.7 333.8 330.1 329.9 317.7 305.4 294.8 289.2 286.6 284.7 288.2 299.9 301.6 300.9 302.6 314.4 338.7 353.8 375.2 382.5 393.8 405 410.8 407.9 403.7 403.8 400 400.1 399.9 401.8 402 400.8 393.6 386.7 381.7 378.8 382.8 373.7 373.3 380.3 376.4 373.8 373.3 375.4 374.8 370.5 370.1 367.3 360.4 355.1 351.8 348.1 348.8 350.2 350.8 349.3 344.9 338.9 337.1 340.3 348.6 355.8 354.1 353.8 342.3 335.6 335.1 337.4 336.7 336.3 334.2 327.2 317.5 298.1 306.7 301.9 296.3 285.7 278.2 278.6 272.4 254.5 231.1 201.9 172.8 146.7 120.4 93.2 66.9 47.3 22.4 -2 -2 -2 -2 -2 -2 -2 -2 -2 -2 -2 -2 -2 -2 -2 -2 -2 -2 -2 -0.9 0.1 1.5 9.9 28.5 41.5 52.2 61.3 69.8 82.1 94.9 111.5 130.4 148.3 166.3 181.8 195.4 210.4 227 241 260 269.6 283 300.5 313.7 329.7 338.2 349.4 367.9 370.6 362.8 361.7 361.7 364.1 366 352 347 348 348.9 345.4 344.9 345 346.6 350.7 355.9 362
218.5 210.4 202.8 190.5 175.4 178.4 162.7 151.2 138.8 118.4 104.4 94.2 83.3 74.6 67.7 58.2 49.8 38.5 31.3 25.6 23.5 22.4 24.4 30.1 30.8 31.5 32.2 33.8 39.7 47 57 76.4 102 133.1 169.3 204.8 275.4 302.4 313.1 315.8 327.9 330.1 330.4 330.1 332.2 331.1 327.6 322.7 312.7 303.5 296.4 287.7 284.7 282.8 287.4 298.8 300.7 299.1 300.2 317 338.2 360.6 376.9 385.6 400.2 408.7 410.3 407.8 409.9 404.9 402 397.4 399.1 398.7 397.8 397.6 390.6 384.4 378.8 375.4 375.2 373.1 374.7 381 376.7 373.4 372.8 369.3 366.7 366.9 369.2 361.3 355.9 350.4 348.6 347.3 347.3 346.8 348.7 348.6 345.4 342.1 339.3 340.7 353.8 362.5 362.4 360.7 358.4 349.9 349.2 351.8 350.8 341 337 330.5 313.5 307.7 316.2 318.2 307.3 299.4 296.1 297.1 302.4 294.7 278 254.3 208.8 172.9 141.6 111.5 83 58.8 34.2 11.2 -2 -2 -2 -2 -2 -2 -2 -2 -2 -2 -2 -2 -2 -2 -2 -2 -2 -1.5 -0.5 0.6 1.6 2.2 19.7 34.6 47.2 57.4 66.1 75 86.9 101 119.6 137.5 155.3 170.1 184.1 198.3 215 231.4 249.3 259.4 266.6 284.7 302.5 323.1 334.7 342.1 354.3 365.5 369.3 366.1 361.7 363 367.1 364.6 351.9 346.1 345 341.7 342.4 341.4 343.7 348.2 356 364.2
224.6 216.3 205.8 194.4 184.2 177.5 160 151 137.3 118.5 105.4 92.6 80.9 72.4 64.6 55.2 45.8 37.1 30.7 24.6 24.1 21.1 24.7 30.7 31.4 32.1 32.5 34.2 41.4 49.3 64.6 87.3 116.4 165.2 222.3 231.1 282 298.4 311.7 317.3 333.6 333 332.5 332.3 332.4 331.7 326.4 317.3 309.6 299.6 291.3 285.2 284.2 281 282.8 297.6 299.1 297.1 301.7 318.7 341 364.5 381.2 389.4 399.7 410.3 407.6 408.6 405.6 402.3 399.6 396.8 394.2 394.3 393.2 386 382.4 381.3 376 369.9 368.3 370.9 374.6 376.3 374.4 372.4 372.8 367.5 363 362.9 362.7 356.8 349.1 347.3 346.5 347.3 347.3 347.3 347.3 347.6 346.1 342.8 340.8 344.3 358.5 362.9 365.9 369.1 374.6 372.1 362.7 360.6 359.8 353.6 341.8 334.7 316.6 318.2 326.1 332.6 316.3 310 312.4 312.8 320.9 336.4 324.7 300.8 241.2 198.7 162.5 126.9 95 68.7 44.3 23.1 -2 -2 -2 -2 -2 -2 -2 -2 -2 -2 -2 -2 -2 -2 -2 -2 -2 -1 -0.1 0.6 1.3 1.9 8.9 26.7 39.8 51.8 63.5 71.7 79.6 91.8 108.7 126.5 143 156.9 171.6 187.2 203 218.6 230 250 255.1 269.3 290 310.2 327.4 340.3 357.7 365.9 368.4 367.6 363.6 362.3 363.7 362.7 354.8 345.8 341.5 339.1 337.4 338.4 341 347.6 356.5 364.4
236.2 228 211.9 195.7 187.5 172 159 146.4 133.9 117.1 104.2 90.4 77.9 68.9 63 52 44.1 36.3 29.5 24.5 24.4 23.2 25.2 31.6 32.2 32.8 33.4 34.4 41.9 54.5 79.8 102.7 151.5 223.9 232.7 260.5 277 298.8 314.9 329 336.7 334.5 339.3 336.7 330.3 326.1 320.9 311.4 302.8 291.2 285.1 281.1 280.2 279.7 281.8 295.9 295.8 296.2 307.3 325 343.8 367.9 382.5 389.5 395 401.8 404 405 401.8 400.5 399.4 397.9 396.7 393.1 387.9 384.2 377.5 373.3 368.1 367 367 367 373.6 378.9 378.6 374 368.1 365.8 365.5 362.5 357 350.7 347.2 347.3 347.3 346.9 346.5 347.3 346.7 347.3 347.7 347 347.3 348.8 359.5 370.1 378.2 383.1 390.8 385.4 371.8 370.4 367.5 361.4 352.8 340.2 331.2 332.9 332.5 341.7 328.7 321.1 323.8 325 333.9 361.2 336.7 314.9 278.4 222.8 186.5 145.1 109.7 80 53 32.9 14.6 -2 -2 -2 -2 -2 -2 -2 -2 -2 -2 -2 -2 -2 -2 -2 -2 -1 -0.4 0.3 1 1.7 2.3 18.9 33 47.9 59.7 68.4 74.2 84.2 98.6 115.5 130.3 145 159.8 175.6 189.2 202.8 213.5 233.8 247.8 265 280.7 302.6 327.4 342.9 355.8 358.6 358 360.9 364 363.9 362.1 358.5 352.8 345.1 340.6 337.5 334.5 332.9 337.4 345.6 354.7 360.4
236.8 227 216.3 196.8 186.2 168.7 157 144.1 129.9 115.5 104.2 89 75.5 67 60.7 49.9 43.3 35.6 28.7 25.8 21.8 23.5 28.3 32.5 33 33.5 34.1 35.2 47.4 66.3 89 114.1 179.2 230.4 239.3 249.6 269.6 305.1 314.3 331 335.1 334.6 338.4 336.9 328.8 317.6 312.9 307.8 292.7 285.8 280.4 279 279.2 279 281.4 290.3 290.4 295.5 312.2 330.6 347.4 366.4 374.2 385.9 393.5 404.8 407.9 404.4 398.7 399.5 404.2 400.4 398.6 398.4 392.3 386.7 379.5 370.9 367 367 367 367 380.9 388.8 383 379 374 368.6 371.3 365.3 358.9 355.2 347.8 347.3 347.5 346.5 345.8 345.8 347.3 346.7 350.1 352.6 356.3 357.3 371.2 383.9 392.6 394.8 395.4 392.9 382.5 379.4 372.3 372.6 363.9 354 346.5 354.3 351.4 346.9 338.6 329.3 328.7 332.9 346 378.6 366.9 327.7 300.9 269.9 226.1 173.5 135.7 99.7 68.1 45.1 25.7 1.4 -2 -2 -2 -2 -2 -2 -2 -2 -2 -2 -2 -2 -2 -2 -2 -1.3 -0.6 0 0.7 1.4 2.1 11 28.4 42.9 54.6 63.6 70.5 77.6 89.3 104.9 119.4 134.5 149.8 163.6 175.1 187.4 203.9 224.9 243.5 259.9 276.3 295 324.3 341.2 352 351.2 349.6 351.5 356.9 360 359.5 356.3 350.4 342.6 339.4 335.5 333.8 334.1 336.2 338.9 346.4 342.1
239.1 225.8 214 195.5 185.4 168.6 157.8 144.3 128.6 114.6 105.1 88.4 74.5 65.5 58.3 49.3 42.9 35.4 28.6 24.5 22.4 24.3 31.7 33.1 33.3 34 34.6 35.9 51.1 76.8 96.5 123.6 207.2 232.9 244.8 251.4 272.5 301.1 312 330.6 333 333.8 334.2 333.6 329.8 319.5 309.8 305.9 290.1 280.1 277.2 277.4 277.9 277.3 283.3 289.3 293.5 301.7 314.2 325.7 350 361.5 371.1 381.5 390 398.1 398.1 395.2 395.2 398.7 406.1 399.7 396.7 394.3 389.7 383.5 376.3 371.6 367 367 367 373.6 387.6 392.9 388.1 380.4 379.5 372.1 371.4 363.9 361.2 356.9 347.3 347.3 347.3 346.7 347.3 346.9 347.3 346.7 351.4 357.9 366.1 371.1 380.5 393.6 398.8 395.4 395.6 394.4 391.1 386.7 387.3 386.1 381.7 374.4 362.5 368.9 367.2 355.5 347 340.4 337.1 340.1 357 390.4 378.8 355.1 319.2 273.7 235.4 187.6 146.4 118.7 92 60.1 36.9 16.4 1.2 -2 -2 -2 -2 -2 -2 -2 -2 -2 -2 -2 -2 -2 -2 -1.6 -0.9 -0.2 0.5 1.2 1.9 4.3 19.7 34.7 46.1 57.9 66.5 72.6 82.1 95.6 110.1 124.7 137.5 150.7 163.5 176.6 196.1 215.1 234.5 249.6 270.3 284.8 314.1 330.8 343.7 347.1 344.6 347.9 355.1 356.1 358.6 355.2 349.5 342.3 335.9 333 331.7 332.5 333.8 333.8 330.6 327.1
247 228.3 204.4 193.6 179.3 166.1 157.8 143.8 127.4 113 103.4 87.1 73.9 64.2 56.7 48.4 42 35.9 29.6 24.7 22.5 26.1 31.8 33.7 34 34.7 35.2 36.3 52.3 85.9 108.1 141.2 216.5 230.1 241.9 251.5 272.1 294.2 309.6 323.6 330.2 334.4 336 333.9 334.3 322.5 308 298.7 286.9 279 276.3 276.9 277 278.1 287.1 292.8 300.2 311.2 318 332.6 351.1 364.3 373.6 380.9 391 397.1 400 395.2 395.2 402.6 403.8 397.7 392 386.6 382.8 379.7 375.7 372.5 367 367 367 374.6 387.7 394.1 386.3 378.3 373 371.8 366.7 364.4 361.5 351.3 347.3 347.3 347.3 347.3 347.3 347.3 346.3 349.5 355.5 367.2 377.2 381.4 391.9 405.2 403.6 398.1 395.7 403.9 407.2 402.8 397.6 400.3 398.9 390.2 377 386.9 386.3 370.4 354.9 349.6 344.3 350.9 367.1 399.4 396.8 368.1 340.7 297.5 265.7 213.3 159.7 133.3 107 78.1 53.1 29.2 4.2 -2 -2 -2 -2 -2 -2 -2 -2 -2 -2 -2 -2 -2 -2 -2 -1.2 -0.5 0.2 0.9 1.6 2.4 13.8 26.9 42.6 53 62.6 68.2 75.3 86.8 99.9 113.7 126.2 140.4 152.7 164.2 183.5 207.5 217.3 236 258.8 277.6 305.6 322.6 332.5 339.3 340.6 343.3 349.4 350.8 351.4 353.9 348.9 342.9 335.4 331.7 329.7 329 329.5 327 322.5 319.4
247.6 230.6 205.3 191.2 177.8 165.8 156.4 142.6 129.3 111.9 101.4 86.4 73.4 64.7 55.6 46.9 40.8 36.6 31.1 25.9 23.7 27.4 31.7 33.9 34.8 35.3 35.7 36.5 51.4 82.3 112.6 159.9 214.9 223.6 234.7 248.8 266.9 293.5 300.6 313.2 325.1 336.6 339.9 333.9 329.9 322.1 309.3 300.7 288.6 279.4 275.8 275.8 276.2 282.6 291.5 295.2 302.3 319.4 324.8 338.6 352.2 367.7 374.3 385.2 391.7 396.7 400.7 397.1 395.3 398.1 395.4 392.7 384.9 379.7 376.2 376.5 380.3 372.4 368.7 367 367 372.7 385.9 386.7 378 371.7 369.5 369.2 366.4 364.7 360.7 345.5 347.3 347.3 347.3 347.3 347.3 345.8 347.1 351.1 361.2 379.3 386.3 396.4 405.1 412.8 411.1 407 413 419.8 424.4 419.4 411.2 405.5 406.5 393.3 394.9 401.2 399.5 376.8 363.4 357.1 353.4 368.8 379 405.9 407.4 379 345.8 309 271.3 222.5 178.7 143.3 121.3 90 66.5 40.4 19.6 1.7 -2 -2 -2 -2 -2 -2 -2 -2 -2 -2 -2 -2 -2 -2 -1.5 -0.8 -0.1 0.7 1.4 2.2 8.3 18.5 34 45.8 55.6 64.2 69.5 79.1 89.7 102.2 114.8 128.4 141.7 153.1 170.3 194.2 203.1 217.7 241.1 267.5 294.7 312.1 327.2 331.3 339.3 338.8 339.7 341.3 342.5 345 342.1 342 338.1 331 323.6 319 318.1 316.1 315.5 314.3
250.5 229.5 201.1 187.6 176.9 165.6 154.4 142.7 128.3 114.2 100.8 86.5 74.7 66.7 56.2 45.8 41.2 38.1 32.8 27.6 26.9 28.3 31.6 33.6 34.9 35.6 36.1 36.6 50.6 77.1 118.3 190 203.2 219.3 229.3 242.1 258.2 282 295.5 301.8 319.8 334.9 344.1 334.7 328.6 319.7 311 302.9 290.5 278.9 275.1 277.6 279.1 284.6 292.6 297.8 302.4 318.6 329.3 339.9 353.2 369.8 376.6 391 394.6 399.2 403 399.7 396.9 394.3 388 385.2 375.9 372.5 372.5 379.7 380.1 374.1 369 367 366.7 367.3 377.9 376 370.7 368 366.9 367.7 367.5 363.4 357.1 347.3 347.3 347.3 347.3 347.3 347.3 347.3 352.4 364.5 379.1 394.8 405 411.5 418.4 426.6 426.3 430.5 432.6 430.4 433.6 439.5 426 410.3 404.6 400.6 406.7 412.2 399.6 382.2 375.2 367.7 365.9 379 388.8 415.6 413.5 386.6 350.9 313 278.9 238.3 195.8 152.5 128.2 103.2 77 51.3 32.6 11.7 1 -2 -2 -2 -2 -2 -2 -2 -2 -2 -2 -2 -2 -2 -2 -1.1 -0.4 0.3 0.9 1.8 2.7 10.8 25.1 38.6 48.4 59.4 65.9 72.8 82.4 92.7 104.5 118.1 130.5 142.4 156.4 177.3 190.4 206.4 227.1 251.2 278.7 301 315.5 325.9 331.9 331.6 333.3 332.3 332.5 333.1 332.5 335.3 333.9 329.3 324.3 315.8 310.1 308.7 308.1 307
248.4 218.5 198.9 187 174.7 166.6 154.1 140.4 126.2 114.2 101.9 87.6 77.1 68.7 55.1 45.9 43.2 40.9 36.2 29 26.9 28.3 30.1 32.5 33.6 35.4 36.1 37 47.1 76.5 122.8 170.3 194.9 213.8 223.1 234.5 246.7 273.8 290.4 293.5 311.9 327.7 339.3 334.5 326.4 321.6 313.2 306 294.3 279.9 273.6 278.4 278.9 284.5 291 296.9 301.4 320.9 331.5 342.6 353.8 370.8 388.8 403.5 407.3 409.7 406.8 401.6 398.5 395.6 386.1 374.8 372.5 372.5 372.6 374.8 378 375.3 368.5 369.2 365.8 366.5 369.6 369.5 364.2 364.5 363.5 369.2 368.6 359.5 350.6 347.3 347.3 347.3 347.3 347.3 347.3 353.2 370.5 385.7 397.2 414.4 422 429.6 435.3 446.4 456 455.2 450.6 438.6 437.6 448.8 433.9 411.8 405.8 408.3 419.4 408.3 397.7 391.4 383.6 377.1 378.4 380.1 401.2 428.1 412 395.6 365.7 322.2 282.9 251.5 203.4 162.1 134.5 110.2 86.1 63 42.5 25.3 2 -2 -2 -2 -2 -2 -2 -2 -2 -2 -2 -2 -2 -2 -2 -1.7 -1 -0.4 0.4 1.2 2.3 6.7 16.2 31.1 40.7 52.2 61.3 67.1 74.2 83.2 94.7 107.6 119.4 130.9 143.7 161.4 182.3 199.8 218.4 240.6 259.4 283.1 304.4 318.6 323.4 319.7 322.5 319.4 319.6 319.8 320.7 321.3 324.5 324.3 319.5 312.5 307.2 298.9 300 298.9
253.8 224.6 200.9 190.5 175.2 167.4 156.8 140.2 125.6 115.8 105.9 91.4 78.7 67.5 56.1 48.3 45.5 42.6 39.4 32.4 25 27.8 28.9 30.3 31.6 33.7 35.3 36.7 44.6 69.3 104.2 152.3 188.7 205.6 217.5 222.7 237.3 254.7 275.5 282.7 301.4 316.8 329.9 328.7 322.3 322.1 310.5 300.1 292.4 283.7 274.9 274.7 275.9 284.5 289.7 293.3 298.3 319.1 334.3 346.1 359.9 380.7 399.8 411.2 417 418.3 416.3 420.6 408.3 400.2 386.9 375.3 372.5 372.5 378.6 375.6 371 370.5 365.6 368 367.1 366 366.5 362.4 362.4 362.4 362.6 375 374.1 361.4 346.5 345.9 347.3 346.2 347.3 348.1 356.5 372.3 394.1 404.6 426.3 432.6 439.8 449.5 458.8 471.6 473.5 464.9 454.2 451.3 438.7 445 434.4 414.5 408.3 414 419.5 406.8 400.9 396.2 393.8 387.7 382.5 384.2 414.4 427.7 411.6 400.4 377.3 338.1 291.9 258.8 214.7 176 147.8 117.8 95.8 72.3 51.5 33.9 11.9 -2 -2 -2 -2 -2 -2 -2 -2 -2 -2 -2 -2 -2 -2 -2 -2 -0.9 0.1 1.5 2.5 4.3 7 20.3 33 44.8 54.6 60.1 66.4 75.3 85.8 96.8 108.1 119.4 132.4 148.5 170.1 190.5 209.2 225.7 241.9 263.6 287.8 303.2 306.3 305.2 308.4 307.7 306 304.9 305.7 305.9 307.2 310.7 307.3 303.9 300.8 297.6 287.2 289.5
255.5 226.5 204.1 191.4 176.7 166.3 154.2 138.1 128 117.7 109.2 94.1 80.9 68.1 57.5 51.5 47.3 44.7 41.9 37.2 28.6 27.8 28.6 29.8 31 32.2 33.6 35 42.4 63.8 91.3 137.7 184 199.9 211.8 217.2 226.7 244.4 263.7 280.1 290.3 302.7 321.3 320.8 318.1 313.1 301.4 297.9 293.8 284.9 277.1 273 274.7 283 290.8 289.1 300.7 317.2 338 348.1 369.2 388 406.3 411 420.7 421 422.8 428.1 424 413 395.1 379.3 372.5 378.3 386.7 376.9 369.7 367.1 366.8 367.9 371.1 367.9 363 362.4 362.4 362.4 368.5 379.2 377.5 363.8 350.1 349.7 346.8 347.7 349 361.7 377.6 402.5 414.2 432.1 445 450.8 461.3 470 488.8 486 481.4 472.7 458.8 456.1 439.7 439.6 435.5 419.8 410.8 414.5 417 409.8 407.4 407.6 406 404.9 390.6 389.7 415 422.7 411.8 399.4 383.5 347.3 312.6 278.2 224.3 190.8 167 138.4 115.5 86.2 57.9 43.1 25.2 0.3 -2 -2 -2 -2 -2 -2 -2 -2 -2 -2 -2 -2 -2 -2 -2 -0.7 0.7 2 2.4 2.5 5.2 12.2 27 37.6 46.8 54.1 60.5 67.2 76.6 86.1 95.9 106.8 120.7 134.8 152.5 174.1 193.3 208.4 223.5 242.5 266.7 285.2 288.7 289.5 293 292.7 293.6 293.9 292.7 291.9 291.3 292.1 292.1 290.9 288.2 286 284.3 277.4
250 224.4 205.8 191.7 174.9 162.7 152.1 139.4 130.3 120.1 109.9 94.2 81.2 68.9 60.1 54.5 51.2 47.8 44.1 40.4 32.6 26.4 28.6 29.4 30.6 31.9 33.2 34.6 39.5 58.9 81.6 113.9 169.2 188.8 203.1 211.1 221 236.6 259.6 280 284.7 293.6 304.5 309.5 306.5 305.3 294.2 291.5 291.8 284.3 278.7 275.5 272.1 281.6 286.9 286.1 303.9 319.1 334.2 351.4 375.9 389.7 405.1 410.8 418 422.6 429.8 431.6 419 405.6 394.3 381 372.5 376 382.7 378.5 368.8 362 367.8 369.7 374.6 370.1 362.3 362.4 362.4 366.5 374 379.5 371.2 358.2 353.5 353 350.1 351.1 356.6 379.7 409.5 419.1 432 451.7 457.9 475 483.3 494.2 504.4 501.5 486 476 460.9 452.8 445.6 429.2 429.6 421.8 412.5 415.4 419.4 417.8 421 432.4 423.6 414.8 398.8 399.6 406.5 411.6 407.8 397.6 384.1 365.7 334 291.5 239 203 174.3 150.5 125.1 99.3 76.5 54.8 32.5 6.8 -2 -2 -2 -2 -2 -2 -2 -2 -2 -2 -2 -2 -2 -2 -2 0 1.1 2.5 2.7 3.9 5.9 7.7 19 31.1 39.6 48.2 55.3 60.5 67.4 76.1 85.4 96.7 109.8 122.3 136.6 154.6 172 186.7 204 223.3 244.4 263 271.8 276.1 279.2 282.5 282.4 282.1 280.1 281.2 279.1 277.3 275.4 273.7 274.8 274.1 272.3 271.8
244.3 224.8 206.1 187 170.4 160.9 150.1 140.8 131.3 122.3 111.3 97.3 86 75.3 66.6 59.5 56.1 51.5 46.9 43 36.8 30.1 26.2 28.4 30.6 32.1 33.6 35.1 39.6 54.2 74.2 102.3 134.1 169.1 188.5 201.2 215.6 235.3 252.4 273.4 286.7 291.1 300.5 302 301.8 296.4 290.2 287.7 289.9 281.2 278.4 275 275.3 276.6 280.7 288.8 305.1 318.8 336.8 351.7 371.9 390.2 400.9 408.7 417.4 422.9 424.2 421 407.6 399.6 388.2 382.9 375.1 371.4 373.7 373.8 364.9 355.4 367.8 374.1 374.1 369.1 362.4 362.4 362.4 370.6 377.1 376.6 366.2 359.9 356.6 355.2 355.1 355.2 369.6 407.6 419 425.4 442 461.4 477.1 491.8 500.7 501.6 506 503.5 499.8 483.5 469.3 450.8 446.2 425.4 422.7 422 417.3 419.7 425.1 424.8 434 433.4 425.5 414.3 401.8 399.6 399.7 406.1 404.5 396.3 383.4 369.9 344.9 311.4 255.8 218.1 187.4 164.4 142.2 117.7 91.9 65.3 40.6 15.3 -2 -2 -2 -2 -2 -2 -2 -2 -2 -2 -2 -2 -2 -2 -2 2 1.8 3.3 4.3 5.4 5.9 8.2 14.4 24.6 32.8 42.5 49.9 55.5 59.6 66.7 76.4 86.8 98.4 110 122.7 137 152.2 168 186.4 204.9 221.6 237.2 248.3 256.8 264 267.6 268.5 268.5 267 266.7 265.6 263.1 261.1 259.6 257.1 257.9 258.2 258.6
236.5 223.5 199.9 180 169.1 160.2 149.6 142.4 133.7 123.5 116.3 103.9 93.2 84 75.9 68.1 63.3 58.5 52.6 48.1 42.6 35.4 30.1 28.7 29 27.5 33.9 37.7 40.9 50.7 66.5 96.4 127.9 150.2 165.4 186.3 211.4 232.6 245.9 267.9 283 287.6 290.4 296.9 296 291.3 286.5 284.4 282.7 279.1 276.1 278 273.8 275.6 279.5 288.9 303.8 321.5 339.2 354.1 369.6 389.2 401.7 409.2 414.6 415 410.4 411.7 400.7 389.2 382.4 378 371.6 366.3 366.1 362.3 356.8 354.9 365.7 369.6 371.9 368.2 362.4 362.4 367.9 377.5 380.7 376.4 366.2 362.2 360.3 358.3 359.9 369 390.6 420.1 424.4 430 447.2 469.1 485.1 498.3 506 503.8 503.2 502.2 496.6 487.6 473.7 456.9 443.4 429.3 421.9 421.5 420.2 423.7 423.7 430.1 428.1 428.8 423.6 412 401 396.7 394.6 398.6 400.6 392.4 381 372.3 353.2 313 270.4 231.9 207.4 185 161.7 137 116.2 85.5 59 34 8.3 -2 -2 -2 -2 -2 -2 -2 -2 -2 -2 -2 -2 -2 2.5 2.8 3.7 4.7 5.6 6.3 6.3 7.9 11 18.4 26.8 36.8 44.4 50.5 54.8 59 67 75.7 86.1 98 109.1 123.3 137.7 153.5 170.8 186.5 198.8 211.5 223.9 234.1 242.9 250.2 251.7 251.3 251 250.5 250.9 249 247.1 245.8 243.9 244.2 244.2 243.8
230.4 215.8 191.4 177.4 167.7 158.1 149.9 144.5 135.9 131.4 121.3 111.2 114.1 104.2 89.3 80.3 73.8 67.1 60.5 55.5 46.9 39.1 33.6 28.9 32.2 30.2 33.4 38.4 41.9 47.2 57.4 81.8 115.6 139.3 153.1 172.4 197.5 218.4 239.6 260.9 269.7 277.4 283.1 294.5 290.1 286.1 281.8 280.3 278.8 276.9 272.4 276.9 265.7 274.2 277.2 285.2 301.3 320.6 342 353.3 366.7 386.7 406.1 409.2 404.2 400.2 399.1 397.5 392.7 386.7 377.2 370.8 363.9 354.6 356.6 351.7 348 349.2 358.8 365.4 366.7 366.7 364.2 364.7 376.6 380.9 380 374.1 366.7 365.4 366.5 365.3 371.1 389.6 413.8 430.6 430.5 436.8 448.3 472.7 499 503.1 505 500.8 496.3 494.4 489.9 484.8 466.1 459.3 445.8 433 424.4 424.3 425.9 423.6 423.7 425.9 422.8 417.6 411.4 404.3 398.4 394.4 392.7 392.4 392.5 387.2 379.3 379.9 365.1 342 300.9 266.7 231.1 219.6 227.5 200.5 139.3 110.1 80.4 52.7 31.1 -2 -2 -2 -2 -2 -2 -2 -2 -2 -2 -2 -2 -2 1.9 3.3 4.7 5.1 6 7 7.6 8.3 9.4 14.2 22.7 30.1 37.8 44.6 50.1 53.4 58.2 65 74.9 85.4 96.6 108.7 123.2 139 155.2 168.4 180.6 192.1 201.9 211.6 219.6 225.5 228.4 229.2 229.9 231.8 232.1 229.1 227.9 227.5 227.1 227.6 227.3 226.9
228.6 212.7 191.4 179 167.8 156.9 150.7 145.2 138.1 133.6 127.9 123.3 118 109.9 100.3 89.7 83.6 76 67.3 59.7 48.7 39.2 37.1 34.7 35.1 34.6 28.8 39 42.4 48.1 54 69.3 97.9 126.3 140.5 157.2 186.5 207.9 228.3 249.1 257.3 264 271.7 283.1 285.6 281.4 276 275.9 273.9 269.5 269.3 271.5 267 280.1 280.5 285.4 299.6 318.8 338.1 347.8 358.2 376.3 401.9 402.5 389.8 386.7 387 383.7 377.6 381.2 371.8 364.2 357.7 349.6 346.2 341.4 340.9 350.6 354.9 357.8 358.9 362.5 360.6 362.2 375.4 377.8 375.1 369.8 368.7 370.7 374.6 379.7 394.6 411.5 430.2 437.1 443.4 449.6 458.2 485.4 507.1 501 498.3 494.3 489.2 485.8 482.8 476 462.8 458.6 443.5 433.8 427.5 427.5 426.8 424.1 424 422.8 422.2 416.1 409.7 404.2 400.7 393.4 391.6 393.2 391 385.9 384.9 385.5 380.7 370.8 355.3 324.9 307.3 283.4 264.7 229.7 188.7 140.3 94.7 69.2 47.6 18.3 -2 -2 -2 -2 -2 -2 -2 -2 -2 -2 -2 -2 -2 4.1 5.7 5.9 6.5 7.5 7.9 8.9 10.2 11.5 16.6 24.4 30.3 39 45.3 48.5 50.6 55.6 64 73.4 83 95 110.1 125.2 140.3 153.2 164.5 174.4 183.3 190.4 196.6 200.9 201.9 202.4 203.2 204.4 205.4 205.4 204.3 205.4 207.3 207.7 208.3 208.1
231.6 213.1 194.6 185.8 173.8 162.8 156.1 152.2 145.6 138.5 135.5 130.8 124.8 121.4 111.7 99.6 91.7 81.2 69.6 58.8 48 41.9 43.4 48.1 44.3 37 32.4 40.1 42.6 43.8 50 60.3 77 103 125.6 149.9 175.6 197.8 215 240.3 246.9 251.5 265.5 269.6 276 275.2 270.1 267.9 266.9 262.8 265.9 265.4 270.9 277.7 282.7 288 298.9 310.1 326.9 339.9 351.7 368.5 388.1 383.9 377.6 374.5 375.1 369.2 365.8 372 364.9 360.1 351.1 343.3 335.6 333.9 341.3 355.5 350.6 349.3 350.4 357.4 357.6 363.6 366.8 370.9 367.8 368 373.6 382.5 403.6 413.8 416 432.5 443.9 452.5 466.1 468.3 462.2 490.3 504.7 497.3 492.5 490.2 483.7 480.7 478.7 469.8 461.8 453.7 442.4 434.1 429.3 428.5 426.8 424.8 424.2 423.6 423.7 417 409.3 410.6 413.2 401.3 390.5 390.5 387 384.7 390.6 388 380.3 367.5 357 343.2 315.5 287.6 268.2 242.1 198.5 163.5 117.4 77.3 49.8 28.1 -2 -2 -2 -2 -2 -2 -2 -2 -2 -2 -2 -2 3.6 5.2 6 6.2 7 7.9 8.7 9.6 10.9 12.4 13.8 18.4 24.6 32.6 39.1 43.4 46.5 48.7 54.6 62.8 71.5 81.5 97.2 111.9 123.6 135.8 146.2 156.1 164.1 170.9 176.2 178.8 180.4 181 182 182.9 183.2 183.3 183.7 185.9 188 188.4 189.3 189.4
231.7 217.2 205.3 205.4 181.9 171.3 163.5 159.1 151.2 148.8 144.5 143.2 138.1 129.9 118.4 102.9 91.9 82.5 68.1 54.7 46.5 44.2 44.6 50.8 50 43.9 38 39.3 42.6 43 44.7 57 71.3 88.3 112.9 144.2 173.2 191.7 205.9 222.1 233.7 237.6 248.9 260.6 265.2 269.9 262.8 261.2 260.6 258.9 260.7 253.5 266.8 275.9 282.8 287.9 295.2 309.8 318 329.4 339 354.5 373.6 372.1 368.5 366.6 366.7 357.9 358.8 357.6 354.5 352.8 346.7 344 341.4 333.3 340.9 348.6 345.7 343.3 346.3 354.3 354.8 360.1 360 361.3 364.6 367.7 377.8 403.8 417.2 429 437.2 454.9 465.6 480.9 481.3 477.4 465.7 481.6 496.7 492.5 488.8 483.9 479.1 477.1 474.6 464.1 459.2 449.9 441 434 430.2 428.1 427 424.8 424.5 424.7 424.2 420.6 419.5 426.4 417.1 404.6 391.9 387.5 387.2 391 388.7 387 380.6 364.7 354.1 342.4 323.6 288 266.5 246.6 215.7 173.9 135.6 95.7 63.4 37.1 15.8 -2 -2 -2 -2 -2 -2 -2 -2 -2 -2 2.4 4.1 5.1 5.8 6.6 7.6 8.4 9.4 10.5 11.8 13.2 14.4 15.9 21.6 27.5 33.2 39.5 43.3 45 47.1 53.7 60.8 69.6 84.1 96.7 106.2 115.4 125.4 135.7 144 150.8 156.4 159.3 161.7 163.1 164.9 166.3 166.9 167.3 168.3 169.2 170.9 170.6 170.3 170.7
238.1 232.8 219.1 206.9 187.4 180.2 169.1 164.1 155.4 158.6 158.7 154.5 144.2 137.3 125.2 113.9 99.6 85 72.8 62.6 53.1 51.4 54.3 54.6 52.9 52.7 41.2 37.4 41 38.2 38.8 51.8 63.2 77.6 108.1 136.2 165.1 181.1 196.5 215.6 222.9 220.3 228.6 241 248.6 249.5 253.9 256.5 253.2 251.5 255.1 254.9 265 271.6 278.3 284.7 291.2 309.5 321.8 320.3 323.8 337.9 355.3 360.3 357.6 358 355.6 347.6 350.5 346.9 341.2 345.8 346.3 344.3 341.9 333.6 337.6 339.1 339.1 340.2 345.2 348.9 349.5 351.7 353.4 356.2 367.4 368.6 389.7 409 421.1 436.4 451.7 474.1 481.6 486.4 487.6 479 471.7 476.6 485.4 485 481.4 479 476 473.1 470.9 461.4 454.4 446.4 438.2 432 431.3 429.6 426.9 424.8 424.7 424.3 424.4 427.8 431.3 425.8 418.9 406.6 392.5 390 386.6 391.4 390.4 387.8 379.4 366.6 350.9 343.4 325.4 301 269.2 246.8 227.1 194.3 162.5 120.4 77.4 51.1 24.6 -2 -2 -2 -2 -2 -2 -2 -2 -2 0.4 2.7 3.7 4.8 5.9 6.7 8 9.1 9.8 11 12.4 13.7 15.1 16.7 18.9 23.8 28.9 34.7 39.2 40.5 42.3 45.2 51.1 59.2 69.5 79.9 89 96.8 105.5 115 123 129.9 135.8 140.7 143.7 146.1 148.6 150.8 151.7 152.2 153.3 154.2 154.8 153.8 153.5 153.2
249.7 237.2 218.9 203.7 195 187 173.4 172.5 164.2 168.7 165 157.6 147.1 142.5 129.6 119.3 104.4 93.3 82.2 70.8 62.7 61.3 62.4 63.9 60.4 54.6 45.9 40.6 40.7 41.2 41.1 39.8 54.4 71.5 97 125.8 150.9 167.2 184.9 196.7 209.5 209.5 215.6 223 233.8 236.5 244.1 241.7 243.2 242.8 239.7 254.7 258.3 265.8 279.6 281.1 287.1 299.7 318.7 317 313.8 325.5 337.5 346 344.5 342.7 344.5 339.9 334.5 334.4 332.8 340.9 344.5 339.1 336.5 325.6 339.2 336.6 338.5 340.8 341.5 340.6 340.9 344.9 350.3 354.3 361.9 379.2 392.2 404.4 419.2 445.3 462.7 479.9 482.2 483.8 487.6 484.8 473.6 471.5 476.8 478.7 474.1 468.6 468.8 468.1 466.9 462.1 454.8 450.3 441.9 432 430 435 425.4 423.3 424 424.8 430.1 448.2 441.3 428.2 421.4 408.2 393 389.3 387.6 391 387.8 384.8 381.1 367.3 349 336.9 324.4 305.1 276.9 248.6 228.4 201.9 173.4 139.6 98.2 64.8 35.2 8.7 -2 -2 -2 -2 -2 -2 -2 -0.4 1.2 2.7 3.8 4.8 5.9 6.9 7.9 8.8 9.8 11.3 12.6 13.6 14.8 15.5 17.6 20.9 26.2 29.4 33.5 35.3 37.2 39.3 43.5 49.2 55.5 64 72.8 80.4 87.9 96.6 104 110.4 116.5 122.8 126.5 129.4 132.4 134.9 136 136.7 139.7 141.8 142.1 141.7 141.9 140.7
243.2 231.2 216.3 199.5 192.6 184.4 184.8 182.9 169.9 172.3 168.3 158.7 156.2 149.6 138.8 124.8 114 99 87.9 75.8 70.1 65 67.4 71.9 64 58.4 54.4 41.9 41.7 41.9 41.4 41.7 53 67.1 89.4 113.2 135.1 154.8 173.9 185.2 192.5 199.5 205.3 212.4 218.3 218.6 227.5 229.3 229.5 227.2 244.6 251.4 253.7 260 273.5 277 279.3 287.3 308.5 311.9 308.9 314.8 331.3 334.8 329.5 326.4 331.9 326.9 324.2 323.7 329.6 333.5 337.2 327.4 323.9 328.7 332.7 337.3 342.3 342.1 340.2 337.9 333.9 336.9 343.2 349 357.2 381.2 389.7 406.3 423.4 447.8 472.3 477.3 484.3 477.7 488.3 483 475.7 469.9 471.7 471.4 467 461.3 456.5 460.4 461.5 462.4 460.6 455.6 441.6 429.8 426.1 429.8 422.4 422.5 425.4 433.2 449.4 448.1 438.6 428.8 419.4 407.5 394.2 390.1 390.9 391.7 386.2 381.7 383.4 382.4 367.9 349.5 324.6 307.6 282 253.5 226.3 208.1 178.4 148.6 115 80 48.5 20.4 -2 -2 -2 -2 -2 -2 -1.2 0.2 1.7 3 4 5.1 6 7 7.9 8.8 10.1 11.2 12.5 13.6 14.3 16 15.2 17.7 20.1 24.6 27.3 30.1 32.7 34.2 35.9 39.7 45.1 52.4 57.8 64.5 71.5 79.1 86.4 93.7 99.7 105.1 109.1 112.2 115.1 118.1 119.7 120.6 124.8 129.4 130.4 127.8 127.3 127.5
235.3 227.5 216.1 204 199.6 193.2 186.2 176 172.9 173.5 167.7 160.9 168.3 162.3 146.2 132.3 117.9 103.6 91.4 81 70.4 71.3 73.2 72.3 67.3 61.8 55.4 43.7 42.9 42.7 42.4 42 49.2 63.5 80.6 104.7 125.6 141.2 158.8 172 179 187.6 191.6 199.5 207.8 207.6 205.7 208.3 212.6 218.4 233.5 243.2 248.6 252.2 264 269.4 272.4 278 298.5 304.7 302.8 308 318.3 323.5 318.8 318.2 325.8 319.1 309.5 316.5 325.8 324.7 325.2 318.1 307.4 325.5 336.2 338.5 341.1 339.4 338.7 335.6 331.5 329.3 333.9 342.4 358.2 380.5 402.5 405.9 434.8 449.9 465.4 472.2 475.3 478.5 475.5 476.7 473.3 465.9 465 467.9 462.2 456.3 455.8 455.8 460.7 465 457.8 451.3 441.4 426.8 422.1 422.4 422 424.9 437.6 441.7 446.4 443 436.6 427.3 418.2 406.2 393.1 390 390.4 387 382.7 387.6 391.5 385.8 376.8 359.1 328.5 308.3 294.2 260.8 229.7 203.5 182.6 155 124.6 89.4 59.1 30.2 -2 -2 -2 -2 -2 -2 -0.6 0.6 1.9 3.3 4.2 5.2 6.1 7.1 8.2 6.9 10.1 11.6 12.5 13.5 16.6 18.7 20.3 20.4 20.4 20.8 24.5 26.8 29.9 32.4 33.9 33.9 36.7 41 48.6 53.2 57.8 63.2 68.3 75.6 81.9 86.8 90.6 93.6 96.6 100.2 102.2 104.7 108.8 115.4 117.8 114.8 113 112.8
232.7 224.2 212.8 207.9 202 193.8 179.8 173.8 171.3 169.6 171.4 174.7 176.7 166.7 149.6 134.1 119.4 105 90 78.8 71.7 76.3 77 76.9 70.5 59.1 56.5 44.8 43.4 43.6 43.2 42.6 42.5 59.3 73.4 93.9 117 131.3 146.6 160 168.7 179.8 187.2 193.4 197.1 197.9 195.7 192 196.6 201.6 216.5 229.7 240 245.7 253.1 261.2 264.7 270.7 283.2 294.3 296.2 300.5 298.7 303.2 307.9 316.8 314.5 303.1 300.3 309.7 318.3 318 315.9 309.1 311.4 322.9 332 333.9 333.2 334.3 331.6 330.1 327.6 327 331.5 340.8 360.7 383.6 395 414.4 429.9 447.6 458.8 468.8 467.2 477.2 473.6 470.8 466.6 460.7 459.8 464.5 457.6 455.8 455.8 455.8 464 461.4 457.4 448.7 437.3 424.2 418.5 420.2 422.7 435.6 435.2 438.3 439.9 435.8 433.1 426 416.3 403.7 389.9 389.8 387.6 392.6 393.9 396.8 398.3 390.1 379.9 363.4 346.9 313.8 296.4 274.4 232.5 198.5 180.2 157 130.4 99.5 74.9 41.8 18.6 -2 -2 -2 -2 -2 -0.8 0.8 2.5 3.7 4.4 5.3 6.4 7.5 7.3 8.1 9.5 12.3 12.4 14.9 16.8 18.8 20.8 23.4 21.3 21.5 23.6 26.5 27 28.9 30.5 34 35 38.5 42 44.7 49.4 52.8 56 60.6 65.6 70.2 73.3 75.9 80 83.4 86.3 90 94.5 100.9 104.1 102.7 101.4 100.3
227.9 222.4 212.2 207.6 201.7 188.7 178.4 173.2 173.3 179.4 186.6 187.6 184.9 172.4 157.7 139.6 122.7 103.2 86.3 77.2 73.6 80.4 81.4 78.5 71.9 60.1 57.8 46.6 43.3 43.8 43.6 43 42.2 55.9 72.6 85.9 106 121.9 135.8 149.3 158 167.3 182.9 189.5 192.1 190.4 183.8 182.7 180.7 185.1 197.8 215.6 226.7 236.4 244.7 252.1 256.7 262.7 275.5 284.4 286.4 285.3 289.1 293 301.3 306.7 300 289.3 298.7 309 315.3 312 302.8 294.9 308.7 314.4 321.6 323.3 324.4 324.9 327 324.8 322.4 324.5 329.6 337.9 359.9 374.2 390.1 408.7 422.3 438.8 448.6 457 461.8 464.2 470.4 462.1 464.2 457.4 452.9 458.5 455.8 457 455.5 456.6 461.9 457.3 451.7 443.6 430.3 419.4 415 418.6 423.2 430.7 431.5 434.4 434.2 427.7 427 423.9 414.6 400.6 387.8 387.3 390.1 392.2 392.4 394.7 394 395.2 382.8 368.1 348.3 327.6 299.1 275.6 247.1 204.4 176.5 154.3 133.2 107.1 83.7 51.5 28.2 -2 -2 -2 -2 -2 -2 -2 -2 -2 5.4 6.3 7 6.7 7.3 7.9 8.9 12.1 12.1 14.4 16.6 19.6 22.1 24.5 25.5 20.4 23.6 24.7 32 34.8 36.6 38.8 40.6 41.6 44 46.4 46.6 48.4 51.6 53.7 57.1 57.6 59.6 64.2 67.5 70.4 73.6 76.9 78 83 85.4 86.7 87.1 87.3
222.6 208 210.7 203 193.2 185.2 177.3 176.1 181.8 189.2 194.6 197.2 186.1 171.7 158.9 141.1 124.9 105.3 91.7 85.8 84.5 85.4 81.6 77 71 63.2 57.9 49.2 44 43.9 43.9 43.3 41.8 57.3 69.7 83.7 97.3 113.2 128.1 138.6 149.1 165.8 175.5 169.3 194.1 201.6 197.2 188.8 179.3 174.1 179.9 194.2 209 222.2 233.4 243.5 247 250.7 263.4 272.5 275.8 278.2 280.6 284.6 287.2 296.3 294.5 284 290.9 300.1 301.5 300.9 289.8 284 296.8 299.4 309.2 312.5 312.4 315.7 318 317.2 316.9 321 328.1 332.6 345.6 359.5 381.3 398.3 412.8 424.7 437.8 444.7 452.9 456.2 462.3 456 454.4 450.5 446.5 452.9 452.9 452.4 452.6 453.4 456.2 451.9 445.4 438.5 425.7 415.2 412.2 416.1 427.2 427.5 427.8 431.8 432.1 421.8 419.3 420.3 412.5 396.6 389.1 391.7 394.4 394.6 395.3 396.7 395.8 398.7 386.1 370.7 351.6 328.8 306.7 282.6 256.3 212 177.3 152.2 135.3 114.5 89 64.9 38.8 20.1 -2 -2 -2 -2 -2 -2 -2 3.8 4.7 5.3 5.9 6.3 6.6 6.9 7.8 10.6 12.7 15.2 17.3 19.4 21.7 23.8 25.2 27 26.5 30.6 34.1 36.8 39.5 41.8 43.8 45.8 48.2 51.6 54.8 57.8 58.2 57.5 57.6 60.2 61.3 61 60.9 59.8 66.6 69.3 66.9 68.8 74.4 70.7 74.1 76.9
210.7 205.5 202 196.4 190.2 177 178.9 182.7 187.1 195.7 207.8 202.7 186.7 171.3 157.3 143.4 128.5 113.7 103.8 94.5 92.2 88.4 82 79.6 73.9 67.8 59.1 50.3 45 44.7 44.2 43.3 43.2 56.5 68.9 82.2 93.9 105.2 116.8 132.6 147.8 159.7 183.5 207.5 216.8 218.9 207 197.1 185.8 174.3 172.3 183.6 193.5 206.4 217.9 228.9 231.5 235.9 249 260.2 264.5 270.4 270.4 275.4 280.9 286.1 288.6 278.9 281.5 283.5 284.8 285.7 278.3 278.8 282.3 286.6 296.7 301.9 303.2 304.6 307.1 309.7 313.4 319.9 325.8 333.9 338 350 372.1 387.4 404.7 418.7 428 436.5 443.5 450.5 452 453.4 452.7 446.5 442.5 447.6 443.7 443.6 445.1 448.1 448.6 446.9 441.2 434.6 423.6 413.5 407.1 412.3 424.4 423.4 423.9 429.7 428.4 417.6 413.2 412.6 405.6 402 402.7 396 397.7 402.7 401.5 398.9 394.4 393.4 391.4 372 354.5 331.5 311.6 287.8 266.4 229.5 185.8 155.1 132.5 119.9 95.4 70.8 46 27.3 -2 -2 -2 -2 -2 2.1 -2 3.4 4.2 4.7 5 5.4 5.7 5.9 8.3 10.3 12.9 15.3 17 19.1 21.2 23 24.7 27.3 29.3 32 33.6 37.7 41.7 45.3 47.3 49.2 51.5 55.3 59.2 63.5 65.6 65.1 66.3 68 68.9 69.8 71.1 73.1 73.9 75.1 75.4 76.5 77.9 80.9 83.4 82.3
210.3 209.1 205.7 201.5 189.4 183.4 186.6 187.1 190.1 204.9 214.6 210.3 202.4 186.1 174.5 159.6 140.4 124.4 112.4 103.1 98.9 93.8 90.2 84.4 75.3 70.3 61.9 52 46.2 45.5 44.4 43 43.6 55.6 63.3 78.8 97.7 112.3 126.8 142.8 155.4 165.5 180.2 196.6 210.6 213.1 212.9 200 187.2 178.8 167.5 175.4 186 192.9 201.7 206.2 205.6 205.9 221.2 233.3 247 258.4 263.2 270.8 277.2 277.2 281.2 274.1 273.1 271.2 271.4 271.6 271.3 269.8 272 276 288.5 294 295.4 296.9 299.8 304.9 313.9 318 321.9 328.9 335.4 345.2 366.5 379.4 391 404.8 418.6 426.8 438.2 449.9 452.1 452.9 454.4 440.5 434.2 439.4 438.7 436.9 437.1 438.8 440.7 443.2 438.2 428.3 420.2 413.3 404.3 407.3 420.9 420.4 417.5 422.8 421.9 411.6 405.5 404.7 408.5 409.9 405.9 399.1 402.6 405 402 396.7 395 391.8 390.3 374.7 355 337.2 313.6 291.3 266.8 236.8 191.5 161.9 137 118.3 101.8 79.2 56.3 35.2 19.4 -2 -2 -2 -2 -2 2.7 3 3.7 4 4.2 4.6 4.8 5.4 8.8 10.6 12.4 14.8 16.8 18.1 19.6 21.9 26.2 28.3 31.4 33.5 36.3 40.9 46.3 51 53.6 56.9 59.4 61.7 64.6 67.7 69.9 71.3 72.5 73.8 75.6 76.8 78.6 80.6 81.3 81.1 81.4 82.6 84.2 86.2 87.9 89.7
