ncols 200
nrows 82
xllcorner 270000
yllcorner 140150
cellsize 50
381.4 358.8 375.4 379.2 381.9 385.3 389.1 393.2 395.1 395.9 395.1 394.3 392.7 390.4 387.9 383.3 378 371.2 362.4 340.7 325.9 335.8 341.1 345.4 348.8 352 353.7 354.5 353.3 351.4 348.8 336.5 332.9 338 339.2 339.3 338.7 338.2 335.9 334.4 331.7 329.1 326.1 322.8 320.3 318.3 314.4 311.7 310.3 308.8 306.4 303.6 310.1 315.9 320.7 324.1 326 327.3 326.5 326.1 323.8 316.2 317.7 322.1 328.9 335.3 340.3 345 350.3 355 359.4 362.3 365.2 367.1 368.9 369 369.1 368.6 366.5 363.7 357.5 350 339.5 323 308.7 306.6 313.7 323 329.5 335.9 343.3 350.6 357.6 363.8 367.2 371.2 373.2 374.3 374.2 373.4 371.7 371.7 367.5 357.4 336.3 319.8 331.3 332.5 340.4 349 354.7 363.9 374.1 384.4 392.4 399.4 404.2 409 412.9 416.1 418.6 421.4 423.2 424.5 425.5 425.6 424.9 424.1 422.9 421.2 419.4 418.1 416.7 414.4 411.9 408.8 405.9 399.8 397.1 402.3 403.3 403.7 404.3 403.9 403.1 401 397.7 399.1 400.3 400.1 399 397.6 396.3 394 390.5 386.1 381.4 369.4 379.3 380.5 380.4 379.9 379.6 379.7 379.8 379.5 378 375.6 372.2 369.1 365.9 359.5 354.6 352.5 351.8 351.1 348 343.6 336.9 321.2 334.2 337.6 338.2 337.8 338.7 340 340.3 339.6 335.3 320.8 292.3 292 297.2 320.6 337.6 331.5 331.2 336.3 350.6 356.8
390.3 370.3 377.2 382.5 385.7 388.9 392 395.4 398.2 399.2 398.9 399 397.4 395.9 393.4 390.1 383.6 377.7 362.7 339.7 330.2 342.9 346.6 350.3 353.1 356.1 356.9 356.6 355.7 353.9 348.4 341.9 343 347.9 347.8 348.1 347.8 345.9 345.3 342.7 339.2 334 330.6 326.3 323.4 320.3 317.4 315.3 312.8 311.1 309.6 305.9 310.6 318.2 324.2 326.7 329 330.2 330.9 330.5 329.7 327.5 321.6 321 324.9 331.8 338.3 344.2 348.8 354 358.6 361.6 364.8 367.6 369.8 370.7 371.2 371 368.8 364.9 359.8 352.4 341.9 326.1 312.4 307.4 312.8 321.2 328.3 334.7 342.6 350.9 358 364.1 366.7 370.9 372.5 374.3 375.1 375.6 376.4 377 376.5 372.3 355.5 336.4 322.8 329.2 337.3 340.5 351.2 360 371.2 380.6 388.3 396 401.8 407.4 411.5 414.6 417.2 419.9 422 423.5 424.4 425.3 425.4 425.1 424.4 423.1 421.6 420.3 418.7 416.8 413.3 409.6 404.4 400.8 405.5 407 406.8 406.9 407.1 405.8 404.4 402.8 401.5 402.1 402.9 403.4 402.4 401 398.6 396.6 393.6 389.4 383 381.2 385.8 386.6 385.4 384.5 383.9 383.5 384 383.3 381.9 380 377.4 374.9 371.7 368.1 365 362.2 359.1 356.3 351.8 345.1 331.3 335.9 342.8 344.5 344.8 346 346.7 347.2 347.1 344.9 339.4 321.2 300.2 291.7 298.4 311.8 320.6 328.2 343.9 350.8 359.4 364.9
397.5 391.5 371.7 384 388.9 392.1 395.4 398.8 401.4 402.8 403.6 403.6 402.9 402.2 400.7 397.7 390.4 384.1 368.9 347.4 336.2 349.1 352.5 354.9 357.1 359.1 360 359.7 359.3 357.4 351 348.1 353.8 355.4 355.6 357 356.9 355.8 353.6 350.8 348.2 342.2 336.8 331.4 327 324 320.9 319.2 315.6 314.2 311.3 308.6 309.6 318.5 325.6 328.3 330.6 332.4 333.5 333.9 333.8 333.5 331.2 328.4 323.1 330.1 336.7 343.5 349.4 354 359.2 363.2 367.1 369.4 371.9 373 374 373.2 370.7 367.1 361.3 355.1 345.8 332.8 317.6 308.7 310.8 320 326.5 332.8 342.2 349.2 356.5 361.5 365.6 369.2 371.3 373.2 376.1 378.1 380.1 381.4 381.5 380.3 372.9 356.3 338 325.7 331.6 339.2 343.3 351.1 364.2 375.9 384.2 391.6 397.6 403.7 409.6 412.7 415.4 417.7 420.4 422 424.1 424.9 425.8 425.7 425.5 424.8 423.5 422.3 420.4 418.3 413.8 408.6 407.3 409.8 410.5 410 409.6 409.6 409.1 407.5 405.9 404.6 404 404.8 405.5 405.1 404 402.7 400.2 398.8 396.5 392.6 388.6 390.3 390.7 390.7 389.3 388.3 387.7 386.6 386.9 386.2 384.7 382.8 380.2 377.4 374.8 371.9 368.7 365.6 362.4 358.7 353.5 341.8 337.3 345.1 348.2 350 351.2 352.4 352.8 352.5 351 349.4 343.5 321.7 302.1 290.7 299 306.7 311.8 334.8 346.4 353.4 361.5 366.2
404.9 402.2 388.9 383.4 390.4 394.6 398.5 402.3 404.5 406.2 407.2 407.4 407.3 406.7 404.8 402 396.4 390.5 378.6 357 336.3 350.2 356.3 357.9 359.9 362.3 363.5 363.1 361.5 359.1 357.2 360.5 363.9 365 364.4 365.2 365.3 365.7 364.7 361.1 356.5 353.1 347.1 338.4 333.3 329.1 325.1 322.7 320.3 317.7 315.4 310.3 310.9 319.1 324.3 328.6 331.8 334 336 336.7 336.6 336.2 334.8 333.8 329.8 328.8 337.1 343.7 349.9 355.9 361.5 365.6 369.2 371.6 374 375.3 376.3 375.6 373.2 369.9 364.9 359.5 351.1 339.5 325.5 310.7 310.1 319.2 324.5 329.4 339.2 346.9 353.9 358.7 362.9 366.8 369.5 372.7 376.5 380.2 382.9 384.2 384.8 384.5 382 372.5 356.8 335 329.5 338.8 347.6 352.3 352.6 361.2 375.6 382 388.9 399.3 406 410.6 413.6 416.4 418.7 420.7 423.7 425 426.1 426.7 426 425.9 424.9 423.2 420.7 417.5 413.6 411.9 414.5 414.2 413.2 412.7 412.5 412.1 411.3 410.2 408.6 407.8 407.3 407.6 407.2 406.9 405.8 404.2 402.6 401 399.8 397.4 395 395.4 394.8 394.4 393.1 392 390.7 389.8 389.2 387.6 386.4 384.9 382.5 379.7 376.4 373.5 370.3 366.9 363.5 360 352.4 336.1 346.7 350.2 353.1 355.5 356.6 356.3 356 355.5 353.9 350.9 345.6 323.3 303 295 306.5 319.5 316.2 332 344.5 353.5 361 366.6
411.6 409.7 405.1 388.7 391.6 396.6 400.4 404.2 407.2 409.5 410.7 411 411 410 408.2 405 400.3 395.5 387.7 370.3 347.8 351.2 357.8 361 363.1 365.4 367 366.1 365.7 363.1 364.3 368 369.9 373 375.6 377 377.8 376.2 375.7 372.6 367 361.7 355.7 348 341.7 335.8 330.8 327.7 325 322 318.3 311.6 312.8 319.1 324.6 329.4 333.2 335.6 338.3 339.6 339.5 338.8 338 337.4 336.1 333.6 335.2 345.3 352.1 358.1 363.6 367.8 371.2 374.1 376.2 377.6 378.6 377.9 375.7 373 368.9 363.5 355.9 344.9 330.2 311.3 311.2 316 321.7 325.6 334.3 342.2 349.6 355.7 359.9 363.6 368.4 373.3 377.7 381.3 384.8 386.9 387.2 386.9 385.4 380.3 366.2 347.4 329.6 341.4 352.3 361.9 370.1 374.8 380 388.4 393.3 393.9 398.3 404.5 409.3 412.6 417.4 420.7 423.3 425.3 426.4 427 427.4 426.3 425.5 423.6 421.1 418.4 417 417.9 418.2 416.9 416.1 415.3 414.8 414.2 413.4 412.5 411.5 410.6 410.1 409.2 408.7 408.1 406.9 405.8 404.2 403.2 401.4 400.1 399.2 398.6 398 397.3 396.5 395.1 393.2 392.3 390.8 388.8 387.4 385.7 383.3 380.6 377.1 373.2 369.8 366 361.9 358.8 348.1 347.4 351.2 355.4 357.3 358.1 358.8 358.5 357.8 356.6 354.1 350.2 344.3 320.8 300.6 298.2 320.7 331.8 336.8 333.5 334.2 351.3 360.1 366.2
419.9 418.3 414.4 406.2 388.5 399 402.6 405.6 408.7 411.2 413.3 414.5 414.6 414 411.8 409.1 405 399.4 393.3 383.3 363.8 346.9 357 362 365.8 368.8 370.2 370.2 371 368.6 369.9 373.6 375.8 380.5 382.6 384.6 386.1 386.9 385.9 384.4 379.4 373.7 366.8 359.2 352.1 343.3 337.5 333.4 331 328.2 324 315.2 315.2 319.7 324.9 329.6 334.3 337.2 340.1 342.1 342.3 341.6 341.6 341.2 341.2 339.6 334.5 345.5 353.4 359.5 365.5 369.8 373.4 376.5 378.5 379.9 380.9 379.8 377.6 375.3 370.8 366.4 359 349 335.5 316.4 311.8 318.2 324.1 328.3 334.7 339 344.8 351.9 358.2 363.6 368.4 373.3 378.5 382.7 385.6 388.3 389.2 389.2 387.3 384 371.8 350.9 332.9 335.8 355 366.9 376.2 384 389.7 395 398.8 401.9 404.3 407.3 410.6 415.4 418.3 421.1 423.8 425.8 426.7 427.3 427.8 427.1 426.1 424 421.9 420.1 419.9 420.6 420.6 419.1 417.6 417 416.7 416.2 415.5 414.3 413.2 411.9 410.6 409.6 409 408.3 407 405.9 405.6 404.4 403.1 401.9 400.9 400.9 400.2 399.4 398.5 397.2 395.6 393.9 392 389.9 388.4 385.6 382.9 379.8 376.4 372.6 368.6 364.4 360.4 354.9 346.5 352.2 355.5 357.2 358.6 359.4 359 358.5 358.1 356.4 353.5 349 341 319.1 295.1 298.8 324 341.2 346.4 349 349.5 352.6 361 366.8
430.3 428 424.1 418.5 404.4 397.1 404.4 407.2 410.2 413.4 415.8 417.7 418.2 417.6 415.8 413.7 409.1 404.7 398.8 391 378.8 354.1 356.9 362.4 368.8 371.3 373.3 374 374.7 374.4 374.1 378 381.7 385.8 388.8 391.6 394.3 395.8 395.1 393.3 391.4 385.5 378.8 371.1 363.1 352.9 345.4 340.6 337.8 334.5 331.1 316.4 317.6 321.9 328 332.7 336.7 340.4 343.4 345.3 346.7 346.3 347 346.6 346.9 346.7 342.9 343.7 353.7 360.3 366.2 371.3 375 378.8 380.8 382.2 382.7 381.7 379.6 377.5 373.3 368.1 362 354.1 340.9 317.2 312.9 319 325.3 329.7 338.3 344 348.6 352.8 357.9 363.6 368 373.2 378.2 383.4 386.3 389 391.1 391.2 390.4 386.3 373.8 354.5 335.2 335.6 357.6 370.5 378.9 386.9 392.8 397.5 401.4 404.2 407.7 410.7 413.1 415.9 419.1 421.9 424.5 426.4 426.8 427.4 428 427.7 426.6 424.8 423.4 422.1 422.3 422.5 422.5 421.6 420.3 419.2 418.5 418.1 416.5 415.1 413.7 411.9 410.6 408.9 408 407.6 406.7 405.8 404.7 404.2 403.7 402.9 402 401.3 400.7 400 398.9 397.2 395.8 394.5 392.5 390 387.8 384.8 381.4 377.9 374.1 370.5 366.8 362.5 358.5 352 351.9 354.9 357.5 358.4 359 359.6 359.2 358.5 357.2 355.4 352.4 347.6 338.3 320.4 296.9 296.9 320.5 344.3 350.1 353 356.2 359.7 364.1 368.2
440.1 438.3 434.2 428.5 420.7 403 405.7 410.7 412.6 416.1 418.9 420.5 421.3 420.9 419.8 417.9 413.6 408.8 403.7 396.8 387.4 363.5 355 362.7 369 372.9 375 377.2 378.4 378.7 379.6 381.9 386.5 390.1 393.3 396.5 399.1 401.5 403.5 403.9 401.2 397.4 389.7 383.5 376 364.9 354.2 349.7 346.7 341.8 337.5 319 320.3 326.2 332.5 337.5 341 344.5 348.3 349.8 351.7 352.6 352.1 352.6 354.3 354.5 353.3 344.6 353.6 361.5 367.3 372.8 376.7 380.3 382.8 384.2 384.7 384.2 382.5 379.3 375.1 369.8 363.5 356.2 343.8 320.7 313.9 319.7 325.9 330.5 337.8 344.2 349.3 354.8 360.9 365.7 369.7 374.5 379.9 384.9 388.8 391.7 393.2 393.7 392.2 389.1 375.3 354.2 334.3 340.7 360.4 374.2 381.7 388.9 393.5 398.3 401.6 404.7 407.6 411.2 413.8 416.3 419.2 422.5 424.6 426.1 427.5 427.8 428.2 428.2 427.3 426.6 425.4 424.3 424.5 424 423.4 422.9 421.6 421.1 420.5 419 416.9 415.5 414 411.4 409.2 407.5 405.9 405.7 405 403.9 403.6 403.2 402.6 402.1 401.4 400.6 399.9 399 398.3 396.3 395.2 394.1 391.5 389 386.7 383.4 379.7 375.9 371.9 367.7 363.8 360.2 355.8 351.7 355.7 358 359.2 359.8 360.5 360.1 359.3 357.6 356.3 354.4 351.3 347.8 343.6 328.9 304.5 296 315.9 342 352.2 355.8 358.8 362.8 365.7 370
451.2 448.4 444.2 438.9 431 416.9 406.3 413.5 415.9 419 422.5 425 425.8 425.8 424.8 422.4 419.1 413.3 407.7 400.4 391.7 368.8 355.2 365.9 370.4 374.3 377.1 379.9 381.6 382.5 383.5 386.1 389.6 393.1 396.4 399.7 402.9 405.8 407.9 408.9 407.9 406.9 400 393.4 386.3 375 368 361.1 354.1 348.2 341.4 322.5 323.5 329.5 336.4 341.8 346.8 350.3 353.6 357.3 357.7 358.3 359.1 360.2 361.9 361.8 361.2 358.3 350.4 360.9 368.4 374 378.6 382 384.6 386.2 386.5 386 384.2 381.1 376.9 370.8 364.1 357.5 345.8 322.3 315.3 321.9 326.9 332.4 337.7 343.2 349.4 355.9 361.5 367.4 371.6 376.6 381.9 386.4 391 394 395.5 396.1 394.4 390.6 378.3 354.8 338.5 342.9 360.3 375.7 384.3 390.8 394.8 398.9 401.7 405 407.6 410.7 413.5 415.5 418.7 421.6 423.9 426 427.7 429 429.6 428.4 427.7 426.9 426.2 425.8 425.4 424.6 423.7 422.7 421.8 421.4 420.3 418.8 416.8 414.9 412.1 409.8 407.7 405.5 403.6 403.3 402.3 401.2 401.5 401.6 401.2 400.4 399.6 399.4 398.5 397.6 396.5 395.4 394.5 393.3 390.8 388.1 385.3 382.4 378.8 374.2 369.9 365.4 362.3 359.2 356.6 356.5 358.4 360.1 361.2 361.3 361.3 360.7 359.5 357.5 355.4 353.2 350.5 347.2 343.5 332.9 306.3 297.9 305.9 338.9 352.5 356.5 359.5 363.4 367.1 371
458.7 456.4 453.2 448.4 442.2 432.7 421.2 415.3 419 422.2 426 428.5 430.3 431.1 430.3 428.9 425.4 419 413.6 405.9 392.2 369.8 359.8 369.2 373.4 377 380 382.5 384.5 385.7 387.5 390 392.8 396 399.5 402.6 406.1 408.9 411.3 413.2 413.9 412 407.1 400.6 393.4 386.7 379.8 372.7 364.3 355.4 344.5 327.1 329.2 332.4 336.7 344.6 350.6 358.1 364 366.4 369.3 369.2 367.3 369.1 369.9 370 368.5 366 357.9 360.4 368.9 375.7 380.9 383.9 386.5 388.1 388.2 387.6 385.6 382.9 378.3 372.8 366.2 357.9 345.1 320.4 320.5 324.1 330.1 335.3 340.5 345.8 352.1 357.9 362.9 368.4 373.8 378.8 383.7 388.2 392.6 395.6 397.5 397.9 396.6 391.8 381.6 359.5 339 342.1 358.1 374.7 386 392.7 395.4 398.5 401 404.5 407 409.8 412.4 415 417.6 420.1 423.4 426 427.7 429.1 428.2 428.1 427.7 427.2 426.5 426 425 424.1 423.1 421.7 421 419.7 418.6 416.8 414.5 412.7 410.2 407.3 404.2 401.6 400.5 400.1 399.3 398.7 398.8 399.1 399 398.5 397.8 397.4 396.8 396.1 394.7 394.5 393.6 392.4 390.3 387.6 384.6 381.5 378.2 374.1 369.4 365.5 362.9 360.5 359.7 359.9 360.9 361.4 362.6 362.3 361.4 359.9 358.1 356.1 353.7 350.7 348.4 345.5 341.6 332.6 312.3 298.6 306 340.8 352.6 356.7 360.3 363.6 367.2 371.8
463.4 461.8 460.1 456 450.9 445.5 435.2 418.8 423.1 427.6 431.5 433.9 434.8 435.3 435 433 429.4 425.2 418.9 410.7 393.1 371.5 363 373.2 376 379.2 382.1 384.1 386.6 388.9 390.6 392.7 394.9 398.1 402.1 405.4 408.9 411.4 414.4 415.5 416.6 415.2 411.9 406.9 401.6 396.1 389.4 382.5 374.4 363.9 347.6 327.9 332 339.6 341.7 348.7 357.3 364.2 369.3 373.5 377.2 380.8 382.7 382 378.4 377.8 375.6 371.8 365.4 360 369.3 378.3 383.2 385.7 388.1 389.7 389.7 389.1 386.9 383.6 379.8 374.6 368.3 359.1 342.3 318 319.4 326.1 334.8 337.8 342.2 349.2 354.6 360.1 365.1 369.8 375.5 380.6 385.5 389.8 394.3 397 398.8 399.4 398.4 395.3 384 368.3 342.9 342.1 356.7 375.5 385.5 390.4 393.3 395.5 400.4 403.4 406.2 408.8 411.1 413.6 416.7 420.4 422.9 425.3 426.9 427.3 427.4 426.8 426.3 425.9 425.2 424.8 423.8 422.4 420.7 419.8 418.6 417.1 415.5 413.5 411.1 408.9 406.1 402.5 399 395.8 395.3 395.2 395.1 394.7 395 395.6 396 395.7 395.8 395.2 395 394.1 393.8 393.4 393 391.4 389.6 387 383.9 380.2 376.1 372.7 368 364.9 363 361.7 361.2 361.4 361.1 360.9 362.2 361.9 360.2 358.1 355.5 352.8 350.1 347 344.4 342.1 339.1 329.9 308.9 298.7 320.9 340.3 350.7 354.5 358.8 362.7 367.2 370.7
467.6 466.5 464.8 461.9 457.2 452.6 447.1 431.1 427.9 433.4 437.1 439.2 440.7 441.3 440.9 439.3 435.3 430.6 423.6 415.3 396.1 373.5 365.5 372.9 377.9 380.8 383.7 385.5 387.9 390.8 392.8 395.5 397.9 401.4 405 408.9 411.8 414.8 416.7 418.2 419.6 418.7 416.2 412.3 408.6 404.3 398.5 392.9 385.7 375.5 355.3 330.9 339.4 347.7 350 352.1 360.5 369.5 375.4 378.4 383.6 388.4 391.4 392.9 391.4 391.3 387.6 380.4 374 361 371.1 380.1 384.9 387.8 389.4 391.5 391.4 390.4 388.2 385.6 381.3 376.1 370.3 360.2 343 323.5 319.5 327 331.1 336.2 342.3 349.2 356.3 361.7 366.2 372.2 377.9 382.5 387.2 391.4 395.8 398.4 400.2 400.7 399.3 396.9 389.7 377.1 355.4 341.3 352.8 372.7 384.1 387.8 389.6 391.8 395.5 400.8 402.4 406.2 409.4 412.7 415.9 419 421.8 423.8 425.4 425.7 425.7 424.6 423.8 423.4 422.7 422.5 421.3 420.1 418.7 417 415.5 414.1 411.7 409 406.4 403.3 399.7 397.2 394.6 392.7 390.9 390.6 390.4 389.8 390.5 391.9 392.7 393.1 393.3 393.6 393.4 393 392.4 391.6 390.9 390.2 387.3 384.7 381.8 378.1 374.8 371.2 367.5 364 361.4 360.1 359.7 359.1 359.3 359.5 359.6 359.4 357.4 353.3 351.1 348 343.8 340.1 338 335.3 328 317.6 299.7 311.2 325.4 336.3 346.1 352.2 357.3 361 364.4 366.7
471 470 468.6 465.6 462.4 457.9 452.6 441.7 430.4 440.1 443.2 445.5 447 447.8 447 445.6 442.6 437.3 430.3 418.8 398.7 379.3 365.6 372.7 378.7 381.1 384 387.3 390 392.6 396.9 399 402.8 406.4 408.9 412.7 415.1 417.6 420.1 421.7 422.7 422.1 419.7 418.9 416 412.2 407.9 401.4 395.4 386.4 368.3 345 336.2 349.9 355.8 357.7 363.8 371.2 376.9 384.2 389.6 394.1 397.9 401.3 402 399.4 397.6 392.6 383.3 364.8 371.9 382.4 387 391.2 393.1 394.9 394.4 392.9 390.8 387.4 383.2 377.9 370.4 360.4 346.9 330 321.5 323.2 329.8 334.3 340.2 349.2 355.3 360.7 368 374.7 379.7 384.5 389 392.9 396.6 399.2 401.6 402.1 400.5 397.5 392.3 382.8 363.8 342.7 348.7 362.1 375.3 382.8 383.8 385.3 388 392.6 398.2 403.6 406.8 410.1 412.8 416 418.9 421.3 423 423.4 423.7 422.7 421.6 420.9 419.7 418.7 417.6 416.5 415.4 414.1 411.9 409.7 406.2 402.9 399.8 396.8 393.8 392 389.7 387 385.6 385 385.2 385 386.1 387 387.6 389.1 390.4 391.4 390.9 390.5 389.9 389.1 388.4 386.5 385.2 382.6 380.4 377.3 373.5 369.2 365.6 362.8 359.3 356.3 355.9 356.5 356.4 355.8 355.1 353.2 350.3 347.6 344.5 341.3 335.4 330.9 323.1 315.3 308.5 302.1 309.4 318 326.4 334.9 343.9 349.3 355.5 358.3 360.8 362.8
473.7 472.6 471.3 468.6 465.2 461.3 457.2 450.3 436.1 444.8 449.1 451.4 452.9 453.8 453.1 451.7 448.8 443.4 436.4 422 399.8 382.4 371.2 369 374.3 380.1 383.8 388.1 392.7 396.5 401.6 404.9 408.1 411.2 414.1 417.3 419.2 421.6 423.7 424.9 425.9 425.4 424.4 423.5 421.5 419.5 417.2 412.2 403.6 394.6 379 358.3 341.8 348.9 359.3 364.3 366.9 369.9 378.2 387 394.6 398.7 401.4 404.7 406.5 407.1 403.8 402 397.4 377.3 372.9 387.1 391.7 395.5 397.8 398.8 397.6 395.7 393.2 390.3 384.9 379.2 373.2 359.6 345.4 332.5 326.5 323.7 326.1 333 338 346.3 352.1 360.3 367.8 375.3 381.1 385.1 389.5 393.6 397.2 400 402.2 403.5 401.4 399.4 394.5 386.5 371.6 345.8 350.3 356 362.1 371.4 373 374.2 377.7 384.3 394 400.5 403.6 406.6 409.7 412.9 416 418.7 420.5 421.4 421.8 420.7 419.7 417.8 415.8 414.9 413.8 412.7 411.6 410.4 408.2 405 400.1 396.7 393.9 391.8 389.9 387.7 385.1 381.8 379 377 378.9 379.7 380 381.3 382.8 385.4 387.9 389.1 388.6 387.9 386.8 386.3 384.3 383.8 382.6 380.7 378.7 375.2 370.5 366.4 362.8 359 355.5 352 350 349 348.6 349.9 348.7 347.1 344.2 339.7 333 326.4 318.5 312.1 307.9 307.3 314.3 315.4 305.4 317.1 326 334.2 340.9 346.4 350.8 353.3 355.4 357.9
475.3 474.8 473.4 471.2 468.1 465.2 461.7 456.6 449.9 449.2 453.7 455.3 457.4 458.4 457.9 456.9 454.2 449.6 442.3 428.2 408.8 384.1 377.5 369.3 372.6 376.7 381.3 387.4 395 401.9 407.3 411.5 415.3 418.6 420.6 422 423.6 425.3 426.8 428.2 428.4 428.1 427.6 426.6 425.2 424.2 422.4 418.6 409.9 400.7 391.5 375.8 354.2 345.4 360.1 368.3 371.3 373.9 378.1 387.5 396.6 402.3 406.7 411.1 413.1 412.9 413.4 411.5 406.8 393.1 379.6 396 400.6 402.8 403.8 403.5 401.5 399 395.9 392.2 386.9 381 374.8 361.7 347.8 337.4 330.5 326.8 324.9 331.1 336.3 343.1 350.8 359 367.4 374.8 380.3 385.1 388.7 393.3 397.9 401.4 403.6 404.9 404.4 401.4 396.9 390.1 374.6 352.7 347.8 354.9 357.9 360.3 361.6 366 370.6 376.8 385.5 392.4 398.9 401.6 404.1 408.3 411 415.3 418.3 419.6 419.9 418.8 417.4 414.9 412.5 411 410 408.9 407.3 405.7 402.8 399.4 394.6 391.2 388.4 387.4 385.4 382.3 379.1 377.6 376.4 373.7 370.5 370.6 373.3 374.9 376.2 379.6 382.6 385.4 386.2 384.3 383.6 383.3 381.3 379.7 378.6 377.2 375.3 371.6 365.7 361.8 356.7 351.9 350.1 348.7 347.1 345.1 343 340.8 338.6 332.8 329.7 326.2 319.1 312.7 311.4 313.6 325.9 333.4 334.8 323 304.5 311.6 322.7 331.2 335.6 340.6 343.1 345.9 350.6 352.3
477.1 476.1 474.7 473 470.8 468.1 465.3 461.3 456.6 453.6 457.6 458.6 460.6 461.3 461.2 460.2 458.3 454.6 448.2 435.8 413.2 392.2 395.6 390 379.3 374.1 378.1 386.1 397.2 406.9 413.3 419.7 422.7 424.7 426.8 428.1 428.5 429.1 429.8 430.9 430.6 430.5 429.6 428.9 428.1 426.9 425.3 421.9 415.1 407 397.8 387 366 347.9 358.9 371.1 376.3 380.5 383.4 385.9 395.9 404.6 410.5 415.6 421.2 422.3 421.9 418.4 414.8 398.8 390.4 401.8 408.8 411.2 411.4 410.1 407.8 404.5 400.7 395.8 389.9 384 376.8 366.7 356.1 344.6 337 331.9 325.5 325.1 333.6 339.6 348.5 357.3 366.5 373.7 378.4 382.9 387.8 393 398.7 402.7 404.9 406.3 406.3 404.8 400.4 393.1 379.5 357.7 348.8 350.8 354.2 361 365.6 366.4 365.7 371.1 376.9 381.5 385.5 388.7 395.2 403.5 407.7 412.3 416 418.3 419.1 418 414.7 411.5 407.8 407 405.4 403.9 402.2 400 397.3 393.3 388.9 386.4 382.6 377.4 374.3 372.8 371.7 370.5 369.7 367.6 366.3 364.8 363.9 364.4 366.8 372.3 374.3 375.6 377.5 378.2 379.8 380.2 378.8 376.7 374.2 371.6 369.1 364.9 358.6 352.8 347.6 341.8 336.3 335 340.1 342.5 341.5 337.9 333.9 325.4 318.6 314.7 313.9 314.2 318.9 332.9 339.7 341.8 342 335.5 313.6 315.9 327.3 324.7 328.6 333.4 338 339.4 339.2 340.6
476.7 476.4 475.4 474.2 472.5 470.3 467.7 464.6 461.6 459.6 461.4 462.1 463.5 464.1 464.3 463.1 461 457.7 451.5 438 417.1 407.7 416.6 411.1 405.4 393.6 377.3 383.5 398.5 413.1 421.6 427.1 430.1 432.6 434.4 434.6 434.6 434.5 433.6 433.2 433.1 432.7 431.8 430.6 429.7 429.2 427.5 425.6 419.1 412.3 400.7 382.3 372.1 357.8 356.4 374.8 381.7 386.5 390.3 389.6 394.8 405.3 413.4 418.4 424.6 427.2 426.9 424.1 420.6 411.4 406.7 410.3 417.6 418.8 418.6 416.6 413.1 409.8 405.7 401.2 394.7 388 380.2 373 363.3 350.9 342.1 336.2 332.4 327.2 330.2 336.5 345.4 356.3 366.6 372.5 377.1 381.2 385.8 393 399.3 402.8 405.8 408.4 408.6 407.6 405.2 399.8 389.5 371.4 351.8 353.1 355.3 364.3 371.1 376.4 377.7 370.9 372.7 375.6 380.7 390 391.4 394.3 403.5 410.6 414.8 417 417.7 417.6 415.7 412.6 408.3 403.6 400.3 398.7 396.6 395.3 390.9 387 382.1 378.3 377.3 379.5 381.1 383.1 384.5 387.7 388.2 387.2 380.4 376.9 375.9 369.7 359.9 359 367.4 370.6 369.5 372.4 372.5 373.5 374.8 373.4 370.4 365.4 358.7 350.9 343.5 337.3 331.5 330.6 328.4 327.2 325 323.9 322.3 321.3 320.4 317.5 315.3 323 328 330.6 334.9 340.7 344.5 345.3 345.5 345.1 332.1 310.1 319.5 318.4 319.2 320.8 323.2 329 329.8 330.9
475.9 476.3 475.6 474.6 473.5 471.6 469.5 467.1 465.1 464.2 463.9 465 466 466.4 466.4 465.3 463.4 460.4 454.7 444.6 431.1 430.7 427 422.6 418.1 411.9 391.5 382.2 400.6 420 428.7 434.2 437.2 439.6 440.4 441.4 440.8 439.7 438.2 437.5 436.4 434.9 434 433.1 431.6 429.7 427.8 425.7 422.5 415.6 404.6 393.7 381.4 362.5 357.4 375.8 386.6 392.7 397 401.2 400.6 402.6 414 419.4 426.2 429.4 429.9 428.9 426.7 423.7 421 418.7 425.5 425.8 425.9 424.1 420.1 416.8 414 407.9 400.8 394.2 386.3 377.9 367.3 356.1 348.2 341.9 336.8 331.3 329.1 331.4 340.8 353.8 362.4 368.3 373.8 378.7 384.9 390.2 398.6 403.9 406.8 409.7 411.4 410.8 409.2 405.6 399.4 384.4 364.3 354.9 357.2 366.4 376.9 384.3 388 389.1 385.7 388 394.1 400 404.1 403.2 405.2 409.9 413.4 416.5 418.7 418.6 416.4 414.2 409.5 404.5 400.3 395.6 392 388.7 387.1 387.9 387.6 383.2 381.4 386.2 389.2 391.1 392.6 393.8 393.5 392.9 391.1 388.8 385.6 381 370.3 359.1 355.9 366.7 367.1 367.8 364.2 364.5 362.5 361.8 358.7 351.8 344.6 339.7 334.3 333.9 337.7 341.3 348.1 347.2 341.7 336.9 337.2 335.1 330.7 321.3 328.6 340.7 346.9 347.6 346.4 344 347.7 348.1 348.3 347.3 342.7 323.9 311 312.6 316.7 323.6 333 341.4 346 349.1
475 475.4 475.3 474.3 473.3 471.4 469.8 468.6 467.7 466.4 466.6 467.2 467.8 468.4 468.1 467 465.1 461.9 458.1 452.2 445.5 439 434 429.3 424.6 417.5 390.8 385.1 409 428 437.5 442.6 445.2 446.6 446.1 446.1 446.1 445.2 443.9 441.6 439.4 437.4 436.1 434 433.1 431.2 429.1 426.3 422.9 418.2 410.3 397.6 380.4 360 359.7 373.3 389.9 398.9 405.3 406.9 408.5 406.7 413.6 420.2 427 431 432.2 432 430.8 430.1 429 429 431.7 432.4 432.1 430.3 428.4 425.2 421.8 415.7 408.1 400.8 394 384.5 375.1 363.6 354.8 346 339.2 333.8 334.9 330.4 333.4 346.4 355.7 361.6 368.7 374.8 381.8 388 396.8 402.6 407.8 410.7 413 414 412.8 410.5 407.7 400.6 377.4 356.7 360.7 370.2 383.1 392.9 398.5 401.1 401.4 404.1 407.2 408.3 410.6 412.2 413.6 415.6 417.5 418.7 419.7 419.6 417.7 415.3 410.2 405.3 399.8 395.2 392.6 392.3 393.3 394.2 393.3 388.2 383.7 389.5 393.3 394.9 395.8 396.3 396.4 395.8 394 391.3 386.9 374.8 372.9 374.2 364.9 353.8 356.2 361.9 359.5 356.6 353.6 351.1 348.8 342.9 338.8 342.8 349.6 354.9 360.4 365.5 368.8 367.9 365.8 362.2 358.8 350.9 328 329.2 346.9 355.3 356.1 355.3 353.7 352.2 351.6 351.9 351.4 349.7 342.4 323.3 311 311.3 314.1 319.8 330.6 344.4 350 354.8
473.1 473.4 473.7 473.1 472.4 471.3 469.8 469 468.5 468 468.2 468 468.5 469.1 469.1 468.4 466.1 463.3 459.7 455.7 451 445.2 438.9 433.7 428.8 411.1 385.5 395.6 418.6 435.7 444.7 449.3 452.5 453.1 453.3 452.4 451.7 450.8 449.2 446.1 444.3 441 438.1 435.8 433.6 432.5 429.5 427 424.1 419.7 408.7 389.9 375.7 362.5 369.6 390.9 395.8 404.2 409.7 412.8 415.1 414 414.4 421.1 427.4 431.3 433.6 434.5 434.6 434 435.2 435.7 436.9 437.7 437.8 436.9 435.8 433.3 429 423.9 416.5 410.6 402.8 392.8 383.3 370 359.4 350.6 339.4 340.4 341.4 338.1 332.4 335.9 347.7 355.9 365.1 372.5 380.1 386.4 395.9 403.6 408.7 413.5 415.6 416.4 415.7 414.3 412.3 409 392.1 361.9 365.3 375.6 387.5 399.4 404.6 407.1 408.9 411.3 412.9 414.2 415.2 417.2 419.4 420.2 421.1 420.6 420.7 420.5 419.1 416 412 406.2 400.4 397.6 396.7 396.8 397.7 398 396.7 391.8 385.2 390.2 395.4 396.9 397.8 398.5 398.2 397.1 394.6 392.3 391.2 393.2 393.6 392 387.4 373.9 363.5 352 348.7 346.2 349 345.8 349.1 350.6 356.2 366.5 373.1 378.4 378.3 377.8 375.9 373.2 371.2 368.5 363 343.8 324.3 340.3 357.9 360.9 362.2 361.6 359.9 358.9 357.7 356.9 355.5 354.6 352.3 345.7 336.8 320.5 313.4 319.3 328.1 345.3 352.2 356.4
470.9 470.7 471.2 470.6 470.3 470 469.3 468.4 468 468 468.1 468.2 468.6 469 469 468.1 466.2 464.4 461 457.7 453.8 447.2 441.8 435.8 429.5 405.7 389.4 406.5 427.7 441.8 449.8 454.3 457.2 458.4 458.3 457.7 456.7 455.7 453.8 451.1 448.9 445.5 442 438.1 435.6 434 431.8 428.7 425.3 420.8 416.1 406.1 388.5 366.8 380.2 401.2 405.5 410 413.8 418.5 421.2 421.3 421.8 425.9 428.9 432.4 434.4 436.4 437.4 438.5 438.5 439.8 440.7 442.1 442.4 442.3 440.8 439.4 437.3 432.7 426.8 419.1 410.3 400.7 389.4 378.4 366.1 351.8 344 347.1 346.9 343.3 333.9 334.5 340.3 352.7 362.2 370.4 377.5 384.5 396.1 404.3 410.4 414.4 416.9 418.2 418 417 415.1 412.9 400.8 370.8 372.6 385.5 395.2 402.3 408 410.8 412.8 415.1 417 418.5 419.9 422.3 424 424.9 424.1 423.4 422.6 422.7 420.6 418.4 412.9 408.5 404.9 402 401.3 400.7 400.7 400.6 399.5 397.2 385.7 390 396.7 398.6 399.4 399.9 399.6 398.1 396.5 398.1 398.5 398.9 398.6 397.6 396 393 382.8 368.2 373.6 375.4 375.8 374 374.9 378.7 381.9 384 385.6 385 383.4 381.1 378.7 376.2 372.7 368.1 356.5 329.9 334.1 354.4 362.4 364.5 365.8 365.5 364.9 364 362.9 362.8 361.9 360.6 359.1 357.4 355.2 345.2 325.3 314 314 339.8 353.1 357.1
466.8 467.7 468.2 467.7 467.6 467.3 466.3 465.4 466.6 467 467 467.6 468.1 468.4 468.5 467.7 466.2 464.4 461.9 458.3 454.1 448 442.8 436.7 427.1 401.7 396.6 417.9 436.3 446.8 453.6 457.7 460.1 461.8 462.4 462.3 461.6 460.3 458.4 456.3 453.1 449.9 446.3 441.3 437.8 435.8 433.7 430.5 427.2 423.8 418.4 407.8 385.2 367.7 395.9 409.1 411.7 415.1 418.4 422.3 425.9 426.2 427.2 428.9 431.7 434.7 436.6 438.3 440.3 441.2 441.7 443 444.5 445 446 446.1 445.5 444 440.6 436.7 431.1 422.4 414.6 405.9 396.4 383.8 368.1 349 353.8 354.6 353.5 350.3 343.5 335.3 338.2 349.3 360 369.6 376.8 383.5 393.1 403.3 410.9 414.8 417.6 419.2 419.8 418.9 417.2 415.3 408 380.6 373.2 387.5 395.8 404.6 410.7 413.5 416 417.7 420.2 421.7 423.1 425.9 426.9 427.7 427.3 427.4 426.9 426.3 424.8 420.6 416.5 412.4 409.2 406.3 405.1 404.5 403.1 402.5 401.6 400.1 395.1 391.1 396 399 400 400.8 400.8 399.9 399.9 401.1 402 401.9 401.8 401 399.9 397.5 390.6 383.5 390.5 390.2 389.5 388.6 388.2 388.9 389 388.2 387.8 387 385 382.5 380.1 376.5 372.6 366.3 348.7 329.1 350.6 362.8 365.7 367.7 369.3 369.1 368.8 368.2 367.9 367.3 365.9 364.9 362.9 360.5 358 354.7 345.5 328.4 316.4 336.2 352.5 356.9
460.4 461.5 462 462.9 463.3 462.9 462 462.3 463.6 464.8 465.9 466.8 467.5 467.7 468.1 467.2 466.2 464.4 461.9 458.5 453.8 448.3 442.1 435.8 419.1 395.4 408.9 429.9 443.2 451.1 456.3 460.1 462.3 464.3 465.7 466 465.6 464.5 462.8 459.7 456.9 454.1 450.4 445.8 441.2 438.6 436.3 433.8 430.7 427.2 422 406.5 384.7 384.8 406.6 414.4 417.7 420.4 423.3 426.7 428.6 430.3 431.3 432.1 434.3 436.8 439.4 442.2 443.1 444.3 445.6 447 448 448.5 448.9 448.7 448 446.8 444.2 439.7 432.5 425.7 416.8 407.9 399.1 386.4 365.2 353.7 363.6 362.6 361.1 358.5 353.1 344.1 338 349.7 359.3 369 376.6 383.7 392.3 402.6 409.4 414.1 417.2 419.9 421.4 420.3 418.7 417.3 413 390.7 372.5 385.6 395.4 404.8 411.8 414.8 417.1 419.5 422.2 424 425.7 428 429.3 430.1 430.5 430.5 430 429.1 427 423.2 419.8 417.4 414.2 411.5 409.1 406.9 405.4 404.1 403.1 401.1 397.7 391.4 394.5 398.2 400.2 401.3 402.1 402.6 402.8 403.1 404.1 404.3 404.3 403.5 402.1 399.9 397.3 392.4 394.6 394.2 393.8 393.2 392.9 392.5 391.2 390.4 389.8 387.8 385.7 383.2 379.8 376.1 370.9 362.2 341.3 333.3 356.6 365.3 368.6 370.7 371.8 372.1 371.9 371.6 370.9 370 368.9 367.3 365.1 362.3 359 354.7 349 335 316.3 343.7 351.9 355.7
449.9 452.3 454 456.5 457.5 458.3 458.4 459.2 460.7 462.9 464.3 465.9 466.8 467.2 467.6 466.7 465.9 464 461.4 457.7 453.4 446.8 438.1 426.8 408.3 398 419.5 437.5 448.2 454.7 459.2 461.9 464.3 466.2 467.4 468.1 468.4 467.7 466.5 464 461.7 458.3 454.1 450 445.1 442.3 440 437.8 434.5 430.9 425.1 404.4 386 395.4 411.1 418.1 421.8 425.5 428.9 431.2 432.6 433.7 434.7 436.8 438.7 440.3 443.1 444.9 446.3 447.8 449 449.8 450.7 451.3 451.8 451.4 450.2 448.5 445.6 441.5 435.4 427.6 417.4 405.4 391.6 376.8 363.5 366.5 375 372.9 368.9 365.1 360.5 350.7 340 352.2 363 370.9 378 385.1 393.3 401.3 408.6 414.1 417.7 420.4 422 422.1 421.1 419.7 416.8 403.2 378.1 381 394.8 404.1 412 415 417.8 421.1 423.5 425.9 427.6 429.8 431.1 432.1 432.4 432.4 432 430.6 428.8 425.7 423.1 420.7 418.1 415 411.7 408.2 406.2 404.7 402.6 400.6 397.5 393.6 394.1 398.9 400.8 402.8 403.8 404.3 404.8 405 405.6 406.5 406.4 405.2 403.5 401.9 399.5 398 398.7 398.2 397.7 396.7 396 394.4 393.1 391.5 389.3 387.4 384.9 381.7 378.4 373.7 368.6 356.7 334.7 339.9 360.8 368.4 371.1 372.5 373.5 374.3 374.5 373.8 373 372.1 370.1 368 365.2 361.9 358.2 351.3 338.8 323.2 327.6 343.8 350 353
440.1 443.8 447.5 449 450.9 452.6 454.1 454.7 457.7 460.1 462.7 464.4 465.8 466.8 467.1 466.6 465.4 463.8 460.3 455.7 446.6 440.5 429.3 418.6 404 411.3 416.3 438.5 449.5 455.6 459.9 463.1 465.3 467.5 469.3 469.9 470.3 470.1 468.9 467.7 465.2 461.9 458.2 453.6 449.1 446.1 444.1 441.7 438.5 434.6 426.3 406.8 396.7 395.7 413.6 421.3 426.4 430.2 433.6 436.8 438 438 439.1 440.4 442.6 444.6 446 447.8 449.6 451.2 451.9 452.2 452.2 453.1 453 453.4 452.1 450 446.5 442.6 435.5 417 406.3 392.1 380 373.1 373.9 383.5 384.8 381.8 377.7 372.2 368.2 354 342.3 352.5 358.4 372.3 379.6 387.1 393.8 402.1 409.1 413.9 418.4 421 423.5 423.7 423.2 422.2 420.3 414 392.3 376.6 390.6 403.3 411.6 415.5 419 422.3 424.7 427.1 429.5 431.4 432.9 433.1 433.3 433.4 433 431.5 430.1 427 424.6 422.4 420.1 416.5 413 409.5 406.6 403.9 401.8 399.4 397 395 397.8 399.8 402.2 404.8 406 406.6 407.1 407.8 408 408.5 408.2 406.7 405.1 403.8 402.5 402 402.2 401.4 400.5 399.4 397.9 395.9 393.4 390.9 388.5 385.4 381.6 377.4 372.6 367.4 361.1 346.7 334.7 349.9 366 369.5 371.8 373.4 374.7 375.9 376 375.4 374.3 372.5 370.3 366.8 363.3 358.3 351.1 337.7 321.4 318.4 324 335.2 343.4 347.7
430.2 434.5 438.8 441.3 443.4 444.2 445.9 448.9 452.9 456.7 460.3 463.6 465.4 466.8 467.8 467.3 465.1 463.5 461.3 456 448.4 427.5 414.6 414.6 406.4 424.1 434 438.5 448.3 455.3 459.9 463.8 466.2 468.6 470.1 471.2 471.8 471.4 470.5 469.3 467.6 465.3 461.8 457.5 453.1 450.6 448.5 446.1 442.3 439.8 435.4 430.2 414.5 400.4 411.6 424.5 430.3 433.8 436.4 439.1 441.4 442.2 442.6 443.9 445.7 447.2 448.9 450.9 452.8 454.5 454.7 454.8 455.2 455.5 455.4 455.1 453.7 451.4 447.6 443.7 438.2 427.2 404.9 393.6 397.8 399.8 401.5 398.8 393.7 389.6 385.1 376.9 369.2 348.1 344.5 361.4 369.8 372.8 377.8 386.1 396.1 403.5 409.8 414.8 419.1 422.7 424.8 425.8 425.2 424.6 423.5 419.2 404.7 382.2 382.1 399.7 411.1 415.7 419.9 423.4 425.9 428.3 430.5 432.2 433.1 433.8 434 433.8 433.2 432 429.9 427.9 425.7 423.5 420.6 418.2 413.8 410.4 407 403.4 400.2 399.5 399.4 400.1 402.1 403.7 405.6 407.8 408.9 410.4 411 412.3 412.1 411.7 411.4 409.6 408.3 407 405.7 405.5 404.8 404.1 402.7 400.9 398.4 396.5 393.2 390 386.2 381.8 376.9 372 365.8 357.4 348.1 336.2 346.5 359.6 365 368.8 371.6 374 375.3 376.5 376.6 375.9 374.6 372.4 369.3 365.4 358.9 343.8 330.1 324 322.5 331.7 322.8 322.3 326.9 330.2
415.9 420.5 424.4 427.6 429.5 430.3 433.6 439.4 444.1 452.7 457.9 462.7 465.7 467 468.1 468.1 466 464 461.4 454.5 441.4 435.2 444.1 445.4 420.5 416.8 436.4 444.7 451.2 455.9 460.6 463.9 466.4 468.5 470.8 471.9 472.7 472.2 471.7 470.4 468.7 466.6 464.6 461.1 457 454.8 452.1 449.9 447.5 444.7 441.4 437.1 431.8 418.8 407 428.4 434.7 438.4 439.8 442.2 444.5 446.1 446.6 446.9 449 450.4 452.2 454.2 456.2 457.9 457.7 457.8 458.3 458.9 458.5 457.9 456.2 454 450.9 446.9 442.4 429.9 414.6 419.4 423.3 423.8 418.5 411 402.7 394.5 389.2 378.6 360.4 347.5 345.2 366.3 379.2 384.1 387.3 391.8 398.5 404.4 411.1 417.5 421.3 424 426.8 428.6 428.7 428.2 426.7 424 419.5 398.5 382.1 398.4 411.6 416.6 421.5 424.5 426.8 428.9 430.8 431.7 432.4 432.6 433.3 433.8 433.4 432.2 430.5 428.9 426.7 424.6 422.8 420.4 417.4 414 412.6 409.6 405.7 403.8 404.9 406.3 406.6 407.8 409.7 411 412.1 413.6 414.5 415.2 415.2 414.8 413.8 413 411.5 410.3 409 407.6 406.5 405.3 403.6 401.6 398.8 395.3 392 388.3 383.5 378.5 372.4 366.1 359.1 347.7 338.1 339.9 350.7 356.8 363 367.6 371 374.1 375.7 376.5 376.7 375.8 373.8 371.3 367.6 360 341.3 327.1 326 331 342.5 345.5 341.6 335.7 329.7 326.1
399 402.1 404.4 407.6 407.8 409.7 416.5 425.3 436.8 447.4 459.8 463.1 466.1 467.4 468.4 469 466.9 465.3 460.8 449.4 443.9 455.7 456.6 454.3 438.9 418.1 426.5 441 450.8 456.6 461.3 464.7 467.3 469.4 471.4 472.3 473.2 472.8 472.2 471 469.4 467.7 466 463.6 460.7 458.4 455.4 454 451.5 448.7 445.8 442.8 438 429.5 412.2 432.1 439.2 442.6 444.5 445.8 447.7 449.5 450.4 451 453.4 454.3 455.8 457.7 459.6 461.3 461.6 461.5 461.7 462.4 462.3 460.9 459.3 457.1 454.3 450.1 446.5 431.9 438.9 437.9 435.7 434.5 429.2 422.3 413.5 401.5 387.8 375.3 368.9 347 351.5 368.5 385.5 392.8 397.7 402.2 406.4 411.1 416.7 422.4 425.6 428.3 431 432.6 432.4 431.5 430 427.1 423 411 385.8 395.8 412 417.7 422.2 425 427.1 428.8 429.9 430.9 431.4 431.4 432.2 433.1 433.5 432.3 430.8 430 428.2 427.4 425.9 424.6 423.3 421.4 418.9 416.9 413.3 411.6 411.7 412.6 412.5 413 413.7 414.7 415.8 417 417.6 417.7 417.8 416.9 415.7 414.4 412.9 411.1 409.9 408.8 407.8 406.2 404.6 401.8 398.3 393.8 390 385.2 380.2 374 367.5 357.9 344.6 339.6 342.3 351.2 353.9 360.1 364.4 368 371.7 374.5 376.1 376.3 376.5 375 372.7 369 363.1 344.6 329.3 331.2 334.1 343.6 348.2 350 349.4 346.7 344.7 339.6
375.8 379.4 384.5 399.4 412.9 427.9 442.1 445.2 452.5 458.1 462.2 465.5 467.9 468.8 469.3 469.9 468.8 467.8 463.8 462.2 458.6 463.3 463.1 461.3 456 436.3 426.1 428.5 445.4 456 462.4 466.2 468.3 470.4 471.7 472.7 473.5 473.2 472 471 469.4 466.9 465.8 464.5 463 461.6 458.6 457.4 455.5 452.7 449.7 446.6 443.1 438.2 424.6 437.3 443.7 446.7 449.1 450.4 451.7 453.6 455 456.2 457.1 458.1 459.7 461.4 463.1 464.7 465.6 465.7 465.6 465.8 465.8 464.8 463.4 460.3 457.3 454 450.7 449.2 449.3 447.1 444.4 441.4 437.4 431.9 421.2 402.1 398.5 394.2 370.9 348.9 355.5 375.9 394.6 403.9 410.6 414.4 418 420.8 424 429.1 432.4 434.4 436 436.3 435.7 434.6 432.5 429.4 424.4 416.7 399.9 389.7 411.7 418.3 422.1 424.9 426.3 427.3 428.3 429.4 430 430.3 430.8 432 432.9 431.9 432.4 431.7 431.2 430.5 430 429.4 428.2 427 425.3 422.5 420.3 418.6 418.9 418.3 418.7 418.8 418.9 418.9 419.3 419.7 420.1 419.6 419 417.9 416.6 415.4 413.3 411.1 409.8 408.3 407.1 405.8 404 400.8 397.2 392.9 387.1 380.8 375 369.2 361.9 349 342.4 348.4 354.9 358.3 361.4 365.1 368.8 371.5 374.2 376.1 376.7 376.9 376.2 374.3 371.1 366.8 356.4 332.3 334 338.4 343.3 348.6 351.6 353.6 354.4 355 354.1 353.6
387.3 402.6 415.1 424.6 432.7 440.4 447 452.7 456.9 460.1 464.3 467.1 469.1 471 473.9 471.8 471.9 471.1 469.8 469.1 468.4 468.5 467.8 466.8 463.1 445.9 451.6 438.9 439.2 457.1 463.6 467.1 469.4 471 472 473 473.4 472.4 471.2 469.9 468.1 466 465.3 464.3 463.7 462.5 461 459.7 457.9 456.1 453.1 450.7 447.6 444 440.5 444.2 448.3 450.5 453 455.2 456.6 458.4 459.8 460.7 461.4 462.3 463.5 465.3 466.8 467.5 468.2 469.1 469.4 469.9 469.5 468.2 466.7 464.1 461.2 458.2 454.7 453.9 453.6 452.4 450.9 445.2 440.4 437.1 427.3 420.8 411.7 400.7 375.2 351.8 358.9 380.3 405.3 417.4 421.2 425.3 428.7 430.6 433.5 436.5 438.4 439.2 440 439.7 438.7 437 434.6 431.1 424.8 416.7 401.6 397.8 411.9 417.8 421.1 423.5 424.8 425 426.1 428 428.7 429.1 430.2 431.7 432.6 435.3 435.4 435 434.8 434.5 434 433.5 432.8 431.7 430.2 427.4 425.4 424.5 424.5 423.9 423.9 423.5 422.8 422.4 421.8 422 421.7 421.2 420.2 418.8 417 414.6 412.6 410.7 408.2 406.5 405.8 404.9 402.9 398.6 394.8 390.3 384.1 376.9 369.2 363.3 352.6 343.5 351.1 358.1 362.2 365.3 367.6 369.3 372 374.4 376.5 377.4 378.4 378 376.5 374.4 370.8 365.7 348.9 335 339.5 342.7 347.3 351 353.1 355.6 357.3 358.4 358.7 359.2
405.3 414.4 422.2 429.2 436.8 443.2 449.7 455.3 459.4 462.7 465.4 467.5 469.8 471.3 472.2 472.8 473.2 473 473 472.7 472.4 472.1 471.5 470.5 468.9 461.2 460.9 453.4 452.6 450.1 464.1 468.9 471 471.7 472.6 473.7 472.6 471 469.5 467.9 466.4 465 463.5 462.4 462.7 462.9 462.1 461.3 460 458.4 456.3 453.9 451.3 448.4 447.1 449.5 452.5 454.9 456.9 458.7 460.8 462.7 464.4 465.3 466.1 467 467.5 468.2 469.6 470.2 470.7 472 472.8 473.5 473.1 471.9 469.6 467.3 464.4 461.5 458.8 457.2 456.5 455.2 452.7 449.6 442.7 440 437.1 429.8 418.5 395.4 373.4 354.3 361.7 381.7 411 423.1 427.1 431 434.1 438 439.4 441.7 443.4 443.7 443.4 442.8 441.5 439.3 436.6 433.2 425 410.4 401.2 398.1 408.8 415.4 419.3 421.4 421.5 421.8 423.6 425.9 427.7 428.2 429.9 432.4 433.6 436.6 437.4 437.5 437.2 437.5 437.3 436.8 436.5 435.4 433.9 431.5 429.6 428.6 427.7 427.4 427.5 427.5 426.1 425.2 424.1 423.6 422.7 421.5 420 418.4 416.3 413.9 411.7 408.9 405.9 403.6 402.8 402.3 401 396.4 390.6 385.4 379.7 372.6 363.7 351.8 345.4 347.3 360.7 365.6 368.2 370.6 372.6 373.4 375.8 377.3 378.4 379.4 379.5 378.4 376.8 374.2 370.1 364.5 350.2 336 345.9 346.1 347.9 350.9 352.3 355.7 358.3 360.8 361.9 363.3
408 415.7 422.3 430.4 438.4 445.2 451.9 456.4 460.8 463.8 466.5 468.2 470.4 471.3 472.2 473.3 474.2 474.6 475.1 475.6 475.6 475.5 474.8 474.1 473.1 470.8 467.9 465 465.8 465.6 465.6 469.8 472.3 473.1 473.9 473.8 472.6 470.7 469 467.4 465.6 463.1 461.2 460.4 460.6 461.6 461.6 461 460.3 459 457.9 456.9 454.9 453 452.1 453.6 455.6 457.7 460.2 462.1 464.1 465.8 467.7 469.1 470.4 470.9 471.1 471.7 471.8 472.3 472.8 473.7 474.1 474.1 473.9 472.9 471.1 468.9 465.8 463.2 461.5 460.3 458.8 456.9 454.5 450.8 446.7 442.5 439.6 436.7 424.7 395.3 372.6 355 361.7 381.1 408 424.3 429.1 432.1 437.6 441.3 443.8 445.8 446.9 447 446.4 445.3 443.9 441.7 438.8 435.4 430 423.2 411.8 395 405.3 412.1 416.3 417.3 417.8 418.9 420.7 423.2 425.7 427.5 430.3 432.9 434.6 437.3 438.7 439.7 439.7 439.8 439.9 439.9 439.5 438.8 437.2 435.2 433.4 432 431.3 431 430.2 429.3 428.4 427.1 425.5 424.4 423.1 420.8 418.2 416.8 414.9 412.6 410.1 407.2 404.1 400.2 398.6 397.2 395.4 388.8 383.9 379.4 375 366.7 357.3 349.3 347.1 361.6 368.3 372.1 374.2 375.6 377 378.2 378.9 380.1 380.8 380.7 380.4 379.3 377.1 374.4 370.6 364.5 352.6 337.5 344 345.7 346.3 348.9 351.8 355.6 359.7 363 364.8 366.3
407.9 415.1 422.3 430.5 438.9 446.6 453 458.1 461.7 464 466.9 468.4 470.4 471.1 472.1 473.3 473.8 475.4 476.5 477.3 477.9 477.6 477.2 477 476.1 474.9 473.9 472.3 472.1 471.7 472.4 472.9 473.7 474.4 474.1 473.7 472.5 470.6 468.8 466.7 463.3 460.8 458.7 458.3 458.9 459.4 459.3 459.1 458.3 458.3 457.5 457 456.6 456.2 455.9 457.9 459.6 460.4 463 465.4 467.3 468.9 470.5 472 473 473.3 473.9 473.9 473.8 473.4 473.6 473.8 473.5 472.9 472 471.3 469.8 467.5 466.2 464.6 462.9 461.5 460.1 458.1 455.9 452.6 448.8 445.4 443.3 440.8 432.1 404.5 381.2 358.8 361.5 380.1 404.8 421.2 427 432.2 438.8 443.2 445.7 447.8 449 449.1 448.9 447.6 446.1 444 441 437.2 433.1 427.4 418.9 400.5 403.8 409.7 412.7 413.4 413.4 415.3 418.9 422.2 424.5 427.5 430.8 433.4 436.8 438.4 439.7 441.1 442 442.2 442.3 442.6 442.2 441.4 440.5 438.7 436.4 434.8 433.9 433 432 431.1 430 428.3 426.4 424.4 422.4 419.5 416.6 414.7 412.5 410.3 407.9 404.9 401.2 397.6 393.1 391.3 387.2 383.6 379 374.5 370.2 361.2 352.1 347.4 360.8 370.6 374.3 376.8 378.4 379.6 381.1 381.1 381.8 382.5 382.5 381.7 381.1 379.7 377.3 374.5 370.7 365.4 359.7 342.1 348.1 354.2 354.2 347.8 351.1 355.3 361.4 364.7 367.6 369.2
408 414.5 422.3 431.1 439.1 446.4 452.8 457.2 460.9 463 465.3 467.3 468.8 469.9 470.9 472.4 473.1 474.3 475.2 476.1 477 477.8 478 477.8 477.3 476.9 476.2 475.6 475.3 475.1 474.8 474.6 475.3 475.9 475.3 474.7 472.7 470.5 468.6 466.3 463 459.7 456.8 454 455.5 455.8 455.6 455.3 455.1 456.2 457 457.1 456.6 457.4 458.9 459.9 461.2 462.9 465.4 467.7 469.8 471.4 473 474.6 475.3 475.7 475.9 475.6 474.7 473.6 473.7 473 471.7 470.8 469.9 468.9 467.8 466.3 464.8 463.7 462.8 461.4 460 458.4 456.7 455 451.6 448.1 445.5 443 437.8 420.9 398.1 376.2 360.5 377.7 398.8 413.5 422.5 430.8 437.6 443.1 446.6 449.2 450.5 450.8 450.2 449.6 448.3 446.2 443.2 438.8 434.7 429.1 423.4 414 399.3 405.8 407.1 406.7 410.8 411.8 417.5 421.5 424.8 427.9 431.2 434 436.9 438.5 440.3 442.3 443.6 444.2 444.7 444.9 444.7 444 442.7 440.8 438.1 435.5 434.6 433.8 433 431.9 430.5 428.6 426.2 423.9 421.3 418.2 415 411.9 409.3 407 404.3 401 397.5 393.3 386.1 383.1 381.2 377.6 374.1 369.6 363 355.1 348.9 361.1 371 375.2 378.1 380.1 381.8 382.9 383.7 383.4 383.7 383.8 383.5 382.7 381.6 379.9 377.5 374.3 369.9 362.9 352.5 342 355.7 358.9 359.9 358.3 350.9 355.3 362.7 366.5 369.2 370.9
407.9 414.5 421.7 429.6 437.1 443.6 449.9 454.2 457.5 460.1 462.1 464 465.4 466.6 468 469.7 471.1 472.5 473.7 474.7 475.5 476.2 476.4 476.9 476.9 476.7 476.4 476 476.1 476.4 476.9 477 477.9 477 476.4 475.2 473.3 470.7 468.5 465.9 462.2 458.1 455.7 452.6 448.7 452.3 453.3 453.4 453.2 453.2 455.1 455.9 456.5 457.4 459.1 461 462.9 465.5 468.2 469.9 472.2 473.9 475.4 476.6 477.4 477.5 476.9 475.8 475 473.8 472.7 471.1 469.3 467.7 466.3 465.9 464.8 463.6 462.8 461.9 461.1 460.3 458.9 457.6 456.2 454.7 453.2 450.6 445.7 443.2 439.4 431.6 405.8 381.3 363.7 372.4 390.5 409.5 422.2 430.2 436.3 441.8 445.8 449.5 451.3 452.2 452.2 451.7 450.4 448.3 445.2 441 436.6 431.1 426 419.6 407.6 405.1 405.2 409.9 414 416.7 417.9 420.9 425.7 428.8 431.3 434 436.8 439.4 441.7 443.6 445 445.6 446.2 446.7 446.7 445.9 444.4 442.4 439.5 436.7 435.3 434.5 433.3 431.7 430 428.1 425.6 422.9 420.1 416.4 411.8 408.6 405 401.8 399 395.5 389.5 382.9 378.7 373.7 374.1 370.8 366 362.9 355.3 351.6 361.5 369.4 374.9 377.7 380 382 383.5 384.4 384.9 384.9 384.8 384.3 383.8 382.9 381.2 379.4 376.7 373.2 368.2 352 346.1 357.8 362.9 364.3 364.2 363.2 359.2 355.1 363.9 367.6 370 371.7
407 413.6 419.9 427.5 434.4 440.2 444.9 449.4 452.7 454.8 456.8 458.5 460.1 462.4 464.4 466.1 467.7 469.2 470.5 471.7 472.4 473.4 473.9 473.9 474.3 474.8 475.3 475.3 475.8 476.4 477.2 477.7 477.9 477.6 477.1 475.9 474 471.5 468.6 466 462.8 458 453.7 450.2 447 444.5 449.3 450.3 450.5 451 451.4 452.7 453.2 455.8 458.1 461.6 464.8 467.5 470.1 472.1 474.4 476.3 477.7 478.4 479 478.9 477.7 476.5 474.9 473.2 470.6 468.8 467 464.5 462.6 462.1 461.4 460.2 459.7 459.2 458.6 458.1 457.3 456.2 454.3 453 451.4 450.2 446.3 441.6 437.5 432.6 413.6 386 363.2 372.7 390.1 403.3 419.2 428.8 435.5 440.9 445.5 449 451.9 452.9 453.5 453.7 452.5 450.3 447.5 444.3 439.9 433.5 427.7 422.7 417.4 412.9 412.2 413.4 417.7 420.4 421.6 421.9 426.2 428 431.9 434.5 437.6 440 442.6 444.7 446.2 447.1 447.6 447.9 447.5 446.8 445.2 443.3 440.4 437.9 435.9 434.4 432.8 430.7 428.6 426.3 423.8 420.7 417.2 411.9 407.3 401.4 395.9 389.7 385 380.1 375.5 371.5 366.9 365 363.1 360.9 358.1 355.2 352.7 355.4 362.9 370.4 375.5 378.8 381.6 383.4 384.1 384.9 385.1 385 384.2 383.9 383.2 382 380.2 378.4 375.4 371.8 366.2 348.5 362.2 365.7 367.6 367.6 367 366 363.1 356.2 361.7 367.1 369.9 371.9
405.3 410.3 417.5 423 428.9 433.9 438.6 443.7 447 449.1 450.7 453.7 455.4 457.8 459.9 461.5 463.4 464.9 466.8 468.3 469.1 470.1 470.5 471.2 471.6 472 472.3 473 473.4 474.5 475.3 476.2 477.1 477.5 477.2 476.5 474.6 472 468.9 466.1 463.2 460.2 456.5 453.3 448 441.1 444.2 446.3 445.5 446.5 447.7 448.8 450.7 453.9 457.4 461.7 465.5 468.2 470.8 473.6 475.9 477.7 479 479.9 480.5 479.8 478.5 477.2 475.6 473.8 470.3 467 463.9 460.6 458.8 458.3 457.7 456.8 455.8 455.1 455 455 454.1 452.9 451.4 450.4 448.9 447.1 443.9 439.1 434.4 429.1 414.3 390.9 364.4 377.4 401.1 417.2 424.3 429.8 435.4 440.2 445.6 448.9 451.5 453.3 454.3 454.7 454.3 453.2 450.6 446.9 442.3 435.3 430.7 426.4 422.4 419.4 417.2 417.6 420.9 422.5 424.6 425.4 425.1 428.9 431.7 433.5 436.3 439.6 442.7 445 446.9 447.9 448.6 448.8 448.1 447 445.3 443.6 440.7 437.8 435.4 433.2 431 428.7 425.6 422.7 420 415 407.1 401.5 395.6 384.9 377.5 372.9 370.9 368.5 366.8 364.9 362.2 361.2 359.5 357.7 356 359.3 367.5 366.9 363.2 370.1 375.5 379.1 382.1 383.9 384.7 385.2 384.9 384.3 383.5 382.7 381.5 380.3 378.7 376.1 373 368.5 356.7 362.6 368.3 370 370.8 370.6 369.5 367.9 364.9 358.9 360.4 365.8 369 372
402.2 407.2 413.3 418.5 424.1 428.1 433.1 437.9 441 443.6 446 449.2 451.4 453.7 455.9 457.5 459.5 461.4 463 464.3 465.4 466.1 466.4 467.3 468.2 468.7 469.4 470.2 471 472 473.2 474.1 474.8 475.6 475.9 475.3 473.7 471.7 469.1 466 463.5 460.1 457 453.1 449.2 445.8 437.2 437.2 439.6 442 444.1 447.3 452.3 454.8 458.1 462.1 466.6 470.2 472.3 474.7 476.9 479.1 480.2 481.2 481.6 481.2 480.7 479.1 476.7 474.9 471.6 466.8 458.6 456.7 453.7 453.6 453.4 452.5 451.7 450.9 450.7 450.2 449.4 448.5 447.6 446.6 445.5 443.1 439.6 435.7 430.5 424.3 411.2 386.3 369.6 378.8 403.4 418.5 427 432.3 436.2 439.8 444 448 451 452.9 454.3 455 455.1 454.3 452.4 448.9 444.5 437.9 433.5 429.4 426.4 424.2 421.7 422.6 423.8 425.4 427.5 428.4 428 428.1 430.8 432.8 435.6 439 442.3 445 446.7 447.6 448 448.3 447.9 446.8 445.1 442.7 439.6 436.4 433.6 431.1 428.5 425.9 422.4 418.3 408.6 396.1 387.6 383.2 385.6 382.5 384.1 384.4 387.6 387.6 383.6 378.7 373.7 368.1 362 363.1 369 372.2 375.2 376.4 375.7 377 379.2 380.8 383 384.4 385.3 384.6 383.7 383 381.9 381 379.6 377.7 375.7 372.6 367.7 358.7 354.7 368.1 371.7 372.9 373.8 372.8 371.2 368.8 365.8 361 362.7 365.7 368.1 371.3
399.7 403.9 409.3 415.6 419.4 423.3 427.2 432 435.1 437.9 441.7 444.3 447.1 449.4 451.6 453.4 455.4 457 459.1 460.1 461.1 461.4 462 462.9 463.7 464.5 465.1 465.7 466.9 468 469.5 471.1 471.7 472.4 472.8 472.5 471.7 470.2 468.3 465.6 462.9 458.8 455.2 451.6 446.5 442.1 437.2 443.8 449.4 451 452 454.1 456.6 458.2 460.3 463.5 467.4 471.1 474.2 476.6 478.5 480 481.5 482.5 482.8 482.6 482.1 481.1 479 477 473.7 467.9 454 445.5 446 447.2 448.2 448.3 446.8 445.3 445 444.5 443.7 442 440 438.5 436.4 435.9 433.5 430.3 426.8 420.8 406.7 387.4 374.4 375.5 388.9 407.6 422.7 430.8 435.6 439.2 443.6 447 450 452.1 453.6 454.9 455.4 454.8 453.5 450.5 446.8 441.4 436.2 432.2 430 427.7 425.4 425.3 426.4 428.7 430.6 431.4 430.4 430.3 431.3 432.8 435.6 439.4 441.8 444.2 446.3 446.7 447 447.4 446.4 445.2 443.5 441.1 438.1 434.1 430.1 427.5 424.2 421.3 417.1 409.8 391.8 390.1 396.7 402.2 404.2 404.2 403.1 401.3 399.1 397.2 393.6 388.8 381.8 366.9 371.2 374.2 376.7 380.9 382 382.7 382.8 383.3 383.1 383.8 384.1 385.1 384.9 383.9 382.7 381.7 380 378.1 375.8 373.8 371.1 365 356.8 357.6 367.9 373.2 375.1 376.3 376.5 375.2 372.5 368.8 364.6 365.1 366.1 367.3 369 371.4
396.9 401.7 407.1 412.1 416.3 419.8 422.3 425.3 429.3 432.4 436.5 439.2 442.3 444.9 447.2 449.3 451.1 453.3 454.7 455.9 456.6 457.1 457.6 458.4 458.8 459.7 460.3 461.6 462.9 464.6 465.7 467.1 468.2 469.1 469.4 469.4 468.6 467.4 466.2 464.3 461.7 458.7 453.6 446.5 437.2 437.2 437.2 446 451.1 453.5 454.9 457.6 459.8 461.8 463.5 465.9 468.8 472.4 475.7 477.9 479.6 480.9 482.6 483.6 483.9 483.8 483.6 482.5 481 478.8 475.8 470.4 454.2 447.5 435.4 436.5 436.4 436.9 437 436.4 433.6 433.4 428.5 425.2 422.6 420.1 420.6 418.3 416.7 415 409.3 402.2 391.4 383.9 373.8 393.1 409.2 416.7 423.5 429 433.9 439.4 442.8 446.1 448.9 451.4 453.1 454.3 455.9 455.5 454.3 452.5 449.4 444.9 440.2 436.8 433.9 431.3 428.6 428.8 430.2 431.8 433.2 433.5 433.1 431.9 431.7 433.7 436.3 439.3 441.2 443.8 445.8 445.8 446.1 446.1 445 443.2 441.3 438.2 434.7 430.1 426.6 422.6 418.8 415.8 411.8 404.5 396.4 405 407.3 409 409.6 409.7 408.9 407.5 406 403.8 399.7 394.7 382.9 373.4 382.1 383.5 383.3 386.5 387.1 387.4 387.7 387.3 387 386.6 386.7 386.3 384.8 382.9 381.2 379.3 377.4 374.7 372.3 369 361.8 360.9 366.3 370.6 374.8 377.3 379.1 380 379.9 377.6 373.7 367.7 367.1 368.6 369.9 370.3 371.2 372.1
394 399 403.2 408.7 412.9 415.9 418.2 420.4 424 427.4 431.7 435 438.3 441 443.3 445.6 448.1 450 450.9 452 453 453.5 453.6 453.9 454.4 455 456 457.4 458.9 460.4 462 463.1 464.2 465.4 465.7 465.8 465.4 464.3 463.1 461.9 460.2 457.8 453.5 448.1 441.6 444.6 444.2 450.6 454.1 456.5 457.9 460.3 461.9 463.7 466 468.5 470.8 473.6 477.2 479.5 480.8 482.1 483.3 484.4 485 484.9 484.7 483.8 482.2 480.3 477.1 466.2 467.1 467.1 459.4 437.6 425.3 426.3 420.1 418.1 413.8 409.4 403.9 401.3 398.6 397.1 397 395.3 393.4 392 386.9 382.4 376.9 375.2 381.5 400.9 418.9 424.9 429 433.2 437.4 440.4 443.4 446.5 448.8 450.5 452.6 454 454.8 455.1 454.8 453.4 451.8 449 444.8 440.9 437.6 434.6 432.7 432.4 433.6 434.9 434.9 434.9 433.8 433.4 433.5 434.4 436.4 439 441.6 443.4 445.3 445.5 445.3 444.8 442.9 441 438.1 435.1 431.1 426.1 421.4 416.3 413.2 408.5 403.6 396.1 403.9 407.7 410.3 411.3 412.7 413 412.6 411.5 409.7 407.2 403.4 396.8 378.2 385.4 389.6 389.6 390 390.7 391.3 391.1 391.5 390.8 390.4 390 389.2 387.2 385.6 383.6 380.7 377.4 374.1 369.2 366.3 363.1 365.8 370.3 373.1 375.3 378.7 381.2 383.2 383.7 383.5 381.2 375.7 370.3 372.6 374.5 375.6 375.6 375.3 375.5
389.1 393.8 399.9 404.7 407.7 409.6 412.5 414.3 418.6 423.5 427.6 431.2 434.7 437.6 439.6 442.3 444 445.6 447.5 448 448.6 448.7 448.6 448.2 447.8 448.1 450 451.1 453.1 455.6 457.2 458.9 460.1 461.4 462.2 462.3 462.3 461.2 460.3 459.9 458.2 455.1 451.8 445.9 429.4 438.3 447.3 451.3 455.2 458.1 459.5 461.8 463.8 465.7 467.5 470.1 472.5 474.2 476.4 478.8 481.4 482.6 483.9 484.8 485.6 485.9 485.3 484.6 483.3 481.2 477.1 474.3 473.5 471.4 467.5 444.3 449.8 433.8 431.2 424.2 421.7 422.3 414.5 422.8 419.2 409.2 404.1 399.6 400.6 391 397.2 399.9 399.9 405.2 384.3 391.9 411.5 428.3 432.9 436.8 439.7 442.3 444.6 447.1 448.7 450.3 451.8 452.7 453.4 453.8 453.5 453 451.8 449.9 447.6 444.2 440.7 437.8 435.9 436 436.7 436.3 436.6 436 435.1 434.4 434 435.4 437.4 439.5 441.4 443.4 444.8 445.1 444.6 443.2 441.7 439.2 435.6 431.3 426.2 418.6 414.1 410.1 407.5 410.6 407.5 401.3 400.1 408.5 411.6 413.5 415 415.9 415.8 414.9 413.2 410.5 406.6 398.1 379.6 392.8 394.4 394.9 395.1 394.9 395.4 394.9 395.3 394.8 394.1 392.9 391.4 389 386.7 384.4 381.7 378.3 374.8 370.8 366.4 364.2 367.6 371.9 375.8 379.3 382 384.2 386.2 386.7 386.5 384.7 378.8 376.4 380.2 380.3 380.6 380.4 379.8 379.6
384.5 389 395.5 400.1 401.7 403.4 405.3 408.1 413.8 419.8 424.5 428.4 431.6 434.3 436.2 437.6 439.4 440.6 442 442.3 442.6 442.9 442.8 441.9 440.8 440.1 441.1 444.2 447 449.8 452.5 454.7 456 457.2 458.4 458.8 458.8 458.2 457.8 456.4 453.8 452.1 450.1 442.9 425.3 441.5 448.4 452.7 455.2 457.6 460.4 462.9 465.1 466.7 468.5 470.8 473.1 475.2 477.1 478.7 481.3 482.6 483.6 484.6 485.5 485.9 485.7 485.2 483.8 481.6 478.8 477.4 476.3 474.6 471.8 468 467 462.6 453.5 441.9 444.9 449.1 426.6 442.8 445.8 436.9 433.7 427.8 423 406.4 422.4 425.2 423.1 427.4 405.9 387.7 400.4 426.6 434.7 438 440.8 443 445.1 446.9 448.2 449.4 450.4 450.8 451.5 451.7 451.6 450.9 450.1 449.7 447.3 445.9 443.5 441 439.2 438.5 438.1 437.7 437.2 436.5 435.6 435.1 435.1 436.3 437.8 440.4 441.7 443.1 444.9 444.5 444 442.7 441.5 439.2 436.3 432.9 430.6 428.1 425.4 422.9 421.2 419.7 417.3 414 406.2 409.1 412.9 415.4 417.7 418.5 418.5 417.4 415.7 412.9 408.4 399.1 384.6 397.3 398.1 398.8 399.2 399.4 399.4 399.3 398.7 398.2 396.7 395 393.6 391.3 389.1 386.4 383 379.7 376 373.1 371.2 366.4 368.5 374 378.6 382.4 385 387.1 388.6 389.2 388.8 387.2 379.8 383.5 385.6 386.2 385.8 385.1 384 382.9
377.4 384.3 391.4 395.4 396.1 396.3 398.3 404.5 410.2 415.9 421.1 424.7 427.4 429 430.5 432 432.8 433.7 434.5 436.4 436.6 435.8 434.5 431.8 428.4 426 431.7 436.8 440.9 444.6 447.9 450.1 451.6 452.9 453.9 455.1 454.8 454.4 454.2 452.7 451.1 449.1 447.4 438 425.4 441 449.1 452.8 454.9 457.8 460.3 462.6 464.1 466.9 468.9 471.2 472.6 474.5 476.7 478.5 480.2 481.9 483.3 484.3 485.1 485.7 485.9 485.1 483.7 482.9 481.7 480.3 478.8 477.3 475.1 473 471.4 468 464.6 457.4 460.2 457.3 444.5 455.4 454.2 451.6 445.9 442 424.1 420.7 437.3 436.8 435.3 433.8 422.7 407.1 392.1 418 434.2 437.8 440.3 442.5 443.9 445.2 446.8 447.9 448.5 449 449.4 449.5 449.6 449 448.6 448.1 446.9 445.3 444.9 442.7 441.2 439.5 438.3 438 437.2 436.1 435.2 434.6 434.7 435.6 437.2 439.4 441.1 443.4 445 445.2 444.6 443.2 441.8 441 440.4 439.4 437.4 434.1 431.3 430.2 427.6 426.3 423.4 420.8 417.9 407.9 415.7 418 419.9 420.7 420.6 419.4 417.2 413.9 409.1 402 390.1 401.8 402.6 402.5 402.9 403.2 402.8 402.8 401.9 400.9 400 397.8 396 393.7 391.3 388.2 384.9 381.6 379.6 377.8 375.9 369.2 370.7 375.7 381 385 387.5 389.4 390.7 391.6 391.1 389.9 383.6 388.2 390.2 390.3 390 389.2 387.7 387.1
371.1 377.5 383.9 388 389 387.9 396.6 401.4 406.2 411.7 417.1 421 422.7 424 424.9 426.3 425.6 424.9 426.1 426.7 427 425.5 422.6 417.6 409.8 411.3 421.5 430.3 435.8 440.2 443 445.8 448.1 449.3 450.9 451.4 451.4 450.8 450.5 448.8 447.3 445 442.4 428.1 431.3 444.6 449.4 452.4 455 457.6 459.4 461.7 464.4 466.3 467.5 469.7 471.9 474.2 475.8 477.5 478.3 479.7 481.6 483.4 484.5 485.2 485.7 485.7 485.4 484.4 483.6 482.5 481.1 480 478 476.2 473.8 471.7 469.1 466.7 464.6 461.8 461.2 460.2 459.2 457.4 454.9 451 444.2 435.3 444.3 442.4 440.6 438.3 434.8 421.5 397.2 404.1 426.2 435.6 439.1 441.3 442.7 443.8 445 445.6 446.2 446.7 447.2 447.3 447.3 447.1 447 446.6 446.1 444.6 444.6 443.4 441.5 439.6 438.3 437.6 436.5 435.4 434.8 434 433.7 434.8 436.4 438.8 441.4 443.5 444.5 445.7 445.5 445 444.5 444.1 443.6 442.7 441.4 440 438.2 436.3 433 431.3 428.6 425.7 421.8 411.9 418.1 420.3 421.7 422.3 422.1 420.8 418 414.3 406.1 397 400.7 406.8 407.5 406.9 406.6 406.8 407.2 406.7 406.3 405.4 404.2 402.2 399.5 396.9 394.3 391.3 387.5 385.7 383.8 382.2 380 372.1 374.1 378.3 383.5 387 389.6 391.5 392.7 393.7 393.4 392.1 388 390.5 392.9 393.4 393.1 392.4 391.7 391.2
365.6 370.5 374.1 376.6 377.3 385.1 393.1 398.9 402.8 407.7 411 415.2 416.3 416.8 417.7 416.1 413.7 411.1 411.3 412.3 412.7 411.3 407.9 399.1 393.2 399.1 416.7 425 430.8 435.4 439.6 442.4 444.3 445.8 447.4 447.7 448.1 447.5 446.9 445.4 443.8 440.6 429 420.7 437.5 444.9 448.5 451.9 454.4 456.7 458.6 460.9 463.4 465.3 467.1 469.3 470.5 472.5 473.9 475.6 476.9 478 480.1 482 483.2 484.3 484.9 485.6 485.6 485.6 484.8 483.9 482.8 481.7 480.8 479.2 477.1 475.1 473.1 471.1 468.9 466.8 465.7 464.9 463 461.4 458.9 456.8 451.3 449.4 449.5 447.6 444.9 442.4 439.1 434.7 415.5 397.4 415.8 432.9 437.5 439.9 441.3 442.5 442.8 442.9 443.5 444.1 443.9 444 444.2 444.5 444.5 444.4 444.3 444.1 443.5 442.5 441.5 439.7 437.6 436.4 435.4 434.1 432.7 431.6 432 432.9 435 437.6 440.7 443 444.6 445.9 446 445.9 445.4 445.3 444.8 444.6 443.6 442.6 441.2 439.5 436.9 434.7 431.4 428 422.9 415.3 419 422 423.4 423.7 423 421.9 419.2 414.3 412.4 407.6 410.1 411.4 411.8 411.4 411.4 411.4 411.4 410.9 410.3 409.4 408.6 406.1 403.7 401 398.5 395.4 392.8 390 388.3 386.7 383.7 373.2 378 382.2 385.1 389.7 391.3 392.7 394.4 395.4 395.5 394.1 391.9 393.1 395.6 396.8 396.3 395.7 395.2 394
356.8 360.5 362.8 368.3 376.8 382.2 388.9 394 398 401.4 403.4 406.9 406.9 406.7 405.3 402.3 399.1 396.8 396.1 397.6 398.3 396.4 392.4 382.7 379.4 398.5 412.6 420.2 426.1 431.8 435.2 438.6 440.9 442.5 443.8 444.6 444.9 444.5 443.5 441.9 440.3 435.3 418.8 433 439.6 443.8 447.3 450.3 452.3 455.3 457.7 459.8 462 464.1 466.1 467.6 469.4 470.7 471.4 473 474.6 475.9 477.4 479.7 482.2 483.2 483.9 485.4 485.7 485.8 485.6 484.9 483.7 482.2 481.4 481.4 479.6 477.6 476.1 474.5 473 471.3 469.8 468.7 466.8 465 462.7 460.3 456.5 455 453.5 451.1 448.2 445.3 441.8 437.3 416.5 407.4 417.1 428.8 435.8 438.5 440.1 440.8 440.9 440.4 440.8 441.2 440.7 440.9 441 441.3 441.5 441.8 441.5 441.2 440.8 440.2 439.6 437.8 435.7 434.5 433.4 432.1 430.8 428.9 429.7 430.9 432.8 436.6 439.5 441.9 443.5 444.5 445.2 445.3 445.2 444.9 444.8 444.3 444.2 443.9 442.7 441.2 438.8 436 432.7 428.3 423.9 419.1 421.4 423.6 424.8 424.8 424.1 423.2 420.9 420.6 419.8 418.2 417.2 417.3 416.7 416.3 416.2 416.4 416.3 415.9 415.2 414.8 413.7 411.6 408.8 406 403.7 401.3 398.7 395.6 393 390.7 386.3 377.3 383 386.5 389 391.8 393 394.3 396.2 397 397.6 396.5 395.5 396.3 397.9 398.7 398.2 397.6 397.6 397.4
347.2 354.3 360.8 366.7 373.4 378.7 383.7 387.2 390.4 391.7 392.9 392.9 391.3 390.4 391.6 388.6 385.6 383.1 383.5 384.3 384.6 383.3 377.2 370.2 382.4 398.3 410.7 418.1 423.5 428.8 432.5 435.6 438.2 439.8 441.3 441.7 441.8 441.4 440.3 438.8 436.4 431 417.1 431.6 436.9 441.6 445.2 447.9 450.3 452.9 456.8 459.4 461.1 462.9 464.3 465.5 467.3 468.2 469.1 470 470.9 472.1 473.6 476.8 479.7 482.4 483.2 483.7 485.2 485.3 485.4 485.2 483.8 482.8 482 483 481.9 480.4 479.4 478.7 477.3 475.7 473.9 472.6 470.7 468.6 466.4 464.1 461.6 458.9 456.3 453.8 450.7 447.1 441.1 422.9 412 427.2 435.6 429.8 432.6 436.8 438.5 439.1 439 438.5 438.2 437.9 437.5 437.7 437.8 438.1 438.2 438.3 438.1 437.9 437.4 436.8 435.9 434.6 432.7 431 430.3 429.5 428.4 426.4 426.1 428 430.7 434.3 437.3 439.6 441.5 442.8 443.5 443.4 443.5 443.8 443.8 443.6 443.2 442.9 442.4 441.2 438.8 435.9 432.7 427.8 424.9 421.8 424.1 425.2 426.3 425.8 425.1 424.2 424.3 424.5 423.8 422.5 422.1 422.1 422.1 421.9 421 421.7 421.8 420.9 420.3 419.9 418.8 417 414.5 412.4 410 407.1 404.4 401 397.8 393.8 387.5 384.7 388.6 390.6 393.1 394.4 395.4 396.9 398.4 399.1 399.7 399.1 398.3 399.2 399.8 400.4 400 400.1 400.1 399.6
346.2 352.7 358.3 363.3 368.6 372.4 375.7 378.3 378.9 380.3 379.7 379.3 376.7 374.7 375.3 375.8 374.1 371.7 372.8 372.6 371.9 368.4 362 368.8 385.4 400.3 408.8 415.6 421.3 425.6 430 432.9 435.5 436.8 438.5 438.8 438.7 438.2 437 436.4 433.5 425.4 416.1 428.8 434.7 439.3 442.5 445.9 448.7 451.6 454.9 457.2 458.8 460.7 462.1 463.6 464.5 465.3 466.1 467.2 468 468.6 472.2 473.9 477.5 479.6 481.6 482.2 483.4 484.2 484.8 484.9 484.4 483.4 482.6 483.7 483.5 482.9 482.2 481.4 480.4 479.2 478 476.2 474 471.8 469.6 467.3 464.7 461.6 459.1 455.8 452.1 438.1 422.8 431.9 432.6 443.2 441.7 439.6 437.4 436.9 437.9 438.2 437.1 436.8 435.9 435.6 434.7 434.2 434.4 434.5 434.6 434.6 434.1 433.4 432.9 432.3 430.7 429.8 428.9 427.3 426.9 426.6 424.8 422.8 422.6 424.8 428.6 431.9 434.7 437 438.9 440.2 440.8 441.1 441.3 441.3 441.3 441.3 441.7 442 441.6 440.6 438.2 435.4 432.2 428.4 426.1 425.2 426.3 427.4 428.2 427 426.2 425.8 426.7 427.3 427.4 426.5 426.1 426.1 425.6 425.6 426.4 427 427.1 426 425.4 424.7 423.5 422 420.4 417.8 415.1 412.6 409.3 405.4 401.2 395.2 385.6 389.9 393.1 394.7 396.6 397.4 398.5 399.8 401.3 401.8 402.1 401.6 401.9 402.1 402.2 402.6 403 402.6 402.6 402.2
344.6 349.8 354.9 359.6 363.5 366.2 368.9 369.6 369.9 368.9 367.6 363.4 359.7 360.3 360.3 358.8 358.2 357.7 359.1 360.4 357.9 355.8 360.5 378.3 390 400.3 407.1 415 419.8 424.1 428.1 430.9 433 434.2 435.3 435.7 435.8 435.6 434.6 433.5 431.6 423.4 414.4 426 431.1 435.9 439.3 443.4 446.7 449 452 454.6 456.6 458.2 459.4 460.4 461.1 461.8 462.7 463.4 464.7 468 470.5 473 474.9 477.3 479 480.8 481.1 482.2 483.2 483.7 484 484 483.3 484.4 485.2 484.6 483.6 482.7 482.2 481.2 479.9 478.3 476.5 474.4 472 469.6 466.9 463.8 461 457.5 444.7 438.3 448 449.8 447.1 448.3 446.4 444.7 442.9 441.1 438.8 437.7 436.5 434.8 433.9 432.6 431.7 430.7 430.6 430.2 430.7 430.9 430.3 429.1 428.3 427.4 426.3 425.1 424.3 423.1 421.9 420.8 420.2 419.1 419.5 422.1 426.1 429.1 431.6 433.8 435.5 436.8 437.4 437.5 438.3 438.7 438.8 440 440.5 441 440.8 440.1 437.6 434.7 431.8 430.3 428.5 428 428.8 429.8 430.3 429.5 428.9 428.8 428.9 429.2 429.6 429.7 429.3 429.1 428.6 428.9 429.2 429.4 429.7 430 429.7 429.2 428.2 427 425.1 423 419.6 417 413 408.3 403.8 393.6 394.1 395 397.4 398.9 399.3 400.5 401.6 402.8 404.2 404.2 404.3 404.2 404.1 404.8 405 405.4 405.9 406.2 406.1 405.6
342.1 346.7 350.6 354.2 357.4 359.9 361.3 361.5 360.6 357.8 353.9 345.3 343.7 344.6 344.9 344.9 342.5 343.1 344.9 346.5 349.4 354.5 363.6 375.4 387.3 398.8 406.8 414.1 419 423.5 427.3 429.4 431.2 432.3 432.3 432.4 432.2 431.9 431.6 430.9 429.4 419.6 412.9 422.2 427.3 432.8 438.3 441 444.4 447.1 449.9 452.1 454.2 455.2 456.1 457.1 457.8 458.4 459.2 458.5 463.5 466 468.5 470.6 472.4 474 475.9 477.8 479 479.5 480 481.3 482.2 482.7 483.4 483.9 484.3 484.4 484.4 483.9 483.2 482.5 481.4 480.1 478.2 476.1 473.9 471.8 468.9 465.8 462.2 452.6 442.2 455.9 456.1 455.6 454.9 453.5 451.6 449.7 447.3 444.4 441.2 438.3 436.7 435.6 433.1 432.4 430.7 429.6 428.5 427.7 426.8 425.5 425.2 425 423.7 422.9 422.1 421 420.3 419.1 418.3 417.6 416.8 416.4 416.7 420.1 422.7 426.2 428.6 430.3 431.9 433.1 433.7 433.9 435.1 436 436.3 437.8 438.8 439.7 439.8 439.3 437.6 434.8 432.6 431.1 430.4 430.5 430.9 431.8 431.8 431.4 430.8 430.3 430.4 431.1 431.3 431.3 431.3 431.2 431 430.9 430.5 431.3 431.7 431.7 431.6 431.2 430.4 429.6 428.4 426.2 423.7 420.7 415 410.4 405.8 397.9 399.7 400.8 401.3 402.5 403.4 404.1 405.1 406.2 407.2 407.4 407.4 407 406.6 408.3 408.9 409.3 409.8 410.3 409.8 409.1
337.9 341.6 344.4 347 348.7 350.1 350.4 351 349 343.4 335.6 331.3 331.4 332.4 332.6 332.4 337.1 343.2 349.7 358.4 367 374.3 377 371.6 388.7 399.5 408.2 414.3 419.6 423.3 426.1 427.9 429.4 430.1 430.2 430.2 429.2 428.9 428.5 428.1 426.5 421.5 411 417.4 426.3 431.5 436.2 439.9 442.9 445.4 447.9 449.7 451 452.2 453.1 453.1 454 454 452.5 458.3 461.4 464 466.2 468.3 469.9 471.4 473.1 474.9 475.6 476.3 477.4 478.6 479.7 480.7 481.6 482.4 482.8 482.9 483 483 482.6 482 481.5 480.3 478.9 477.1 475 472.7 469.6 465.7 457.1 457.7 460.7 461 461 460.3 459.5 458.6 456.7 454.4 451.5 448 445.3 441 440.8 441.9 442.2 441.2 440.1 438.5 434.6 429.8 428.2 425.8 424.4 420.9 419.2 418.7 417.5 416.6 415.5 415 415 414.5 414.2 413.9 412.3 415.4 419.8 423 424.9 426.7 428.3 428.9 429.7 430.7 431.8 433 433.9 436 437.3 438.1 438 437.8 438 436 434 432.8 432.3 432.7 433 433.2 433.2 432.5 431.9 431.4 431.7 431.6 431.9 432.3 432.4 431.9 432 432.1 432.1 432.2 432.4 432.6 432.8 432.1 432.1 431.3 429.9 427.9 425.5 422.9 419.3 414.3 409.6 405.4 405.1 405.1 405.6 406.6 408 408.7 408.9 409.4 410.5 410.2 410.3 409.9 410.2 410.7 411.6 411.9 412 412.2 413 412.5
331.7 333.7 334.9 336.1 336.3 337 338.1 337.3 333.3 327.4 321.2 321.4 323.2 326.8 331.3 338.2 347.3 355 362 369.8 379 387.2 394.7 397 388.9 404.3 411.3 416.1 420.7 424 425.9 427.6 428.2 428.1 428.1 428 426.5 425.8 425.4 425.1 423.5 422.1 408.4 415.8 425.9 430.9 434.6 438.3 441.1 443.4 445.5 446.6 447.9 448.9 449.1 448.9 447 443.1 453.6 456.9 459.4 461.9 464.2 465.8 467.4 468.9 470.5 471.6 472.4 473.2 474.5 475.6 477.4 478.3 479.6 480.6 481.1 481.3 481.5 481 481.1 481 480.5 480 478.9 477.2 475.1 472.4 469.9 466.6 464.8 465.3 465.1 465.5 465.4 464.8 464 463.2 461.3 458.7 455.8 453.3 448.3 444.2 446.9 448.3 448.5 447.8 448.2 447.9 447.6 446 442.8 439.1 434.2 431.5 429.2 427.9 425.3 423 420.1 417.2 414.3 412.2 411 411 410.6 410.8 415.2 419.8 422.3 423.7 424.7 425.8 426.8 427.8 428.9 430 431.6 433.6 435 436.1 436.5 436.5 437.3 436.8 435.6 435.1 434.2 434.4 433.9 434.4 434.4 433.6 433 432.4 432.2 431.8 431.4 431.9 431.6 431.5 431.7 431.7 431.3 431.2 431.2 431 431.9 432.3 431.9 431.2 430.7 429 427 424.6 422 418.5 414.5 411.9 410.7 410.6 410.7 411.5 412.3 412.6 412.7 412.7 413.5 413.1 413.3 413.7 413.9 413.1 413.7 414 414.1 415.6 415.8 415.7
322.9 322.8 322.3 322.2 322.2 323.3 324.3 322.3 317.9 315.9 318.9 325.7 332.4 338.1 346.3 353.1 360.1 367.3 374.6 382.5 391.4 398.4 402.9 406.1 407.5 409 414.5 418 421.6 424.1 425.8 427 427.4 427.2 426.8 425.8 424.1 422.8 422.3 421.9 421.3 420.2 407 416 425.9 430.2 433.5 436.5 438.9 441.1 442.7 443.9 445.1 445.2 443.2 439.5 438.4 449.8 453.3 456.3 458.5 459.9 461.7 463.1 464.5 465.8 467.1 468.2 469 470.1 471.1 473 474.6 475.6 477.2 478.3 479 479.7 480 480 479.9 480 479.6 479.1 478.7 477.2 475.5 473.9 472.4 470.6 469.2 469 468.8 469.1 469.2 469 468 466.9 465 462.5 460 456.7 451.7 448.2 451.9 452.7 453.1 453.1 453.7 454.3 455 455.3 455.9 455.9 455.2 452.7 450.3 446.9 443 436.4 431.4 429.2 424.5 420.6 418.6 413 409.1 408.5 409.6 413.7 419.4 421.7 422 422.9 423.5 424.8 425.9 427 428.7 430.9 432.4 434 435 435.6 436.3 436.5 436.1 435.6 435.2 434.8 434.7 434.4 434.2 433.3 432.8 432.4 431.5 431.1 430.7 430.5 429.7 429.3 429.3 429.5 429.8 429.4 429.3 429.4 430.3 430.9 430.6 430.1 429.9 428.1 426.2 424.7 423 420.9 418.1 416.4 415.9 415.8 416 416.1 416.1 416.9 416.5 416.7 416.4 415.8 415.7 416 416.5 416.1 416.1 416.3 417.3 418.4 419.1 419.4
307.5 306.1 305.6 305.5 306.3 307.4 309.2 310 314.9 324.5 332.5 341.7 349.5 356.9 364 371.3 377.3 383.2 389.7 395.9 401 405.2 408.2 411.5 413.5 415 416.4 419.2 421.3 423.5 425 425.8 426.3 425.9 425.3 423.8 422 420.2 419.3 418.7 418.3 417.5 405.5 417.3 426.1 430.1 432.8 435.2 437.3 439.2 440.2 441 441.8 441.6 430.7 441 446 449.4 452.9 455.5 457.5 458.3 459 460.2 461.4 462.7 463.9 464.8 465.8 466.5 467.1 469.5 471.5 472.9 474.2 475.3 476.3 477.8 478.2 478.3 478.4 478.5 478.7 478.9 478.8 478.2 477 475.9 474.9 474.2 472.9 472.7 472.5 472.5 472.1 471.6 470.9 469.5 467.5 465.1 462.4 459.6 454.8 454.4 455.5 456.3 456.8 457.6 458.4 460.7 461.9 463.3 464.3 465.2 466 466.6 466.1 465 462.2 457.6 451.9 446.4 442 438.4 432.5 427.7 424.4 417.7 408 407.4 411.7 418.4 419.7 420.5 421.2 422.2 423.3 424 425.7 427.5 429.9 431.6 433.4 434.8 435 435.5 435.9 435.4 434.8 434.6 434 433.6 432.9 432.1 431.5 430.3 429.9 429.5 429 428.9 427.8 427.3 427 427.4 427.7 427.4 427.3 427.7 428.7 429.1 429.1 429.1 429.1 428 426.9 425.5 423.7 422.3 420.9 419.6 419.8 419.4 419 419.2 419.9 420.6 420.5 419.9 419.8 419.7 419.4 419.4 418.8 419 419.7 420.4 421 421.6 422.3 422.5
294 295 302.8 308.4 318.1 321 320.4 323.7 330.9 340.1 347.4 354.2 365 371.1 377.7 383.1 388.8 394.6 400.1 405.5 409.2 411.9 414.2 415.3 417.5 417.9 418.8 419.6 421.4 422.8 424.2 424.4 424.7 424.4 423.5 421.8 420 418.2 417.1 416.5 415.2 411 403.6 421.4 425.9 428.8 431.4 433.6 435.5 436.9 437.8 438.5 438.6 434 431.2 441.9 445.2 448.6 451.4 453.7 455.4 455.9 456.9 457.9 459.1 460.3 461.1 461.9 462.9 464.1 464.5 466.3 467.6 469.8 472 473.6 474.4 475.1 476.2 476.7 476.8 477.2 477.2 477.8 477.9 477.9 477.7 477.2 476.6 475.8 475.5 475.3 475.1 474.6 474.1 473.4 472.3 470.7 468.8 466 462.7 460.5 458.2 458.2 458.4 458.8 459.9 461.5 463.4 465 466.5 468.4 469.7 471 471.4 472.1 472 471.9 471.7 470 467.7 464.4 461.3 455.9 452.1 446.5 444.7 441.9 428.5 412.6 405.3 406.3 413.8 417.4 418.6 419.4 420.1 421.2 423.4 424.5 427.4 429.3 431 432.8 433.3 433.8 434.1 433.9 433.1 433.2 432.5 431.8 431.3 430.8 429.9 428.6 428.1 427.6 427.3 427 426.6 425.9 425.9 425.4 425.1 425.2 425.1 425.3 426.3 426.7 426.9 427.5 427.9 427.5 426.5 426.4 425.1 424.3 423.3 422.6 422.1 422.3 422.4 423.1 423.9 424.5 424.5 423.9 423.2 422.9 423.2 423 422.9 422.8 423.2 423.5 424.4 424.9 425.3 425.4
304.5 312.4 319.4 325.3 329.2 333.4 336.1 342.2 348.1 356.2 363.9 369.7 375.6 381.6 387.4 391.8 396.8 401.7 406.9 410.9 414.3 417.4 419.5 420.1 420.3 420 420.7 421.4 421.7 422.3 422.8 423.1 422.9 422.2 421.5 419 417.1 415.4 413.5 412.5 411.9 406.2 410.5 419.5 423.6 427.2 429.7 431.6 433.2 434.6 435.3 435.8 435.1 422.3 436.9 441.7 444.3 447.6 449.6 451.3 452.9 453.5 454.4 455.6 456.5 457.1 457.7 458.4 459.2 460 461.6 463.1 464.9 467 469.1 471.4 472.9 473.6 474.4 474.7 475.1 475 475.8 476.2 476.1 476.6 476.9 476.9 476.6 476.5 476.5 476.5 476.5 476.2 475.3 474.1 472.8 471.2 468.9 465.9 462.5 460.5 459 459 459.6 460.8 462.4 464.4 466.5 468.2 470 472.2 473.7 474.8 475.5 476.1 476.3 476.4 476 474.9 473.2 471.1 468.4 465.5 462.5 459 456.7 453.7 447 430.7 415.6 404.2 405.7 411.7 414.6 416.3 417 418.7 420.4 422.5 424.9 426.5 428.4 430.5 431.5 431.9 431.8 431.5 431.2 430.7 430.1 429.6 429.2 428.7 428.2 427.3 426.9 426.7 426.2 425.5 424.7 424.2 423.9 423.4 423.5 423.8 423.2 423.5 423.7 423.7 424.4 425.7 426.5 427.2 427.5 427.2 426.8 426.2 425.3 424.4 424.1 424.4 425.2 426.3 427.1 427.8 427.7 427.5 427.1 426.9 426.7 426.6 426.6 425.9 426.3 426.8 427.8 428.1 428.4 427.7
319.4 326.2 331 333.7 336.1 341.2 345.8 352.7 359.6 365.6 371.5 376.5 381 385.7 391.4 395.3 398.9 403.5 408.2 412.1 414.7 417.8 419.5 420.5 420.9 421 421.5 422.2 422 421.8 421.5 421.8 421.9 420.5 419.6 417.1 414.2 412.4 411 409.2 408.7 402.6 408.8 416.9 421.4 424.8 427.2 429.2 430.7 431.9 432 432.5 431.8 423.7 436 441.3 443.7 445.8 447.8 449.1 450.2 451.1 452 453.1 453.2 453.2 453.5 454.2 455.1 455.5 458.2 459.7 462.4 464.9 467 469.1 470.7 471.8 472.6 472.9 473.1 473.6 474.3 474.7 475.1 475.2 475.3 475.2 475.3 475.3 475 475.2 475.4 475.3 474.6 473.4 472.6 470.6 467.8 465.3 462.1 458.9 457.9 458.3 459.5 461.4 463.3 465.8 468.2 470.4 472.3 474.1 476.1 476.7 478 478.6 478.9 478.8 478.1 477 475.5 473.9 471.6 469.1 466.2 464 461.3 458.6 455.1 447.3 430.9 417.1 403.3 406.2 410.5 412.6 414.4 415.6 417.7 420.2 422.2 424.3 426.4 428 428.9 428.9 429.3 428.6 428.4 427.7 427.6 427 425.8 426.1 425.8 425.5 425.3 424.8 424.4 423.3 422.6 422 421.5 421.5 421.3 421.2 420.8 420.5 421.5 421.6 422 423.6 425.1 426.1 427.1 427.2 427.2 427 427 426.5 426.3 426.5 427 428.1 429 429.5 430 430.1 430.2 430.1 430 429.8 429.5 429.8 430 430.6 431.1 431.1 431 430.4
328.7 333.3 336.8 340.7 345.7 349.6 354.1 358.8 363.5 368.5 374.1 379.1 383.6 387.7 392.2 395.9 400 404.1 408.2 411.7 414 416.4 418 418.8 419.8 419.9 420.6 421.6 421.5 421.1 420.8 420.6 420.8 419.5 418.4 415.5 412.6 410.1 408.3 407 406.3 400.6 408.3 414.1 419 422.3 424.4 426.4 427.4 428.3 428.8 428.1 420.2 424.9 435.9 440 442.6 444.1 445.4 446.4 447.6 448.6 449.5 449.9 450 450.2 450.3 450.4 450.5 451.3 453.6 456.2 459.9 462.6 464.7 466.8 468.2 469.4 470 470.4 470.2 471.4 471.3 472.4 472.6 472.3 472.1 472.7 472.6 472.6 472.9 473.1 473 472.5 472.1 471.3 470.2 468.4 466 463.2 460.4 457.2 454.6 456.2 458 460.3 463 465.9 467.8 470.6 472.5 474.4 475.7 477.3 477.9 478.5 479 478.7 478 477.7 476.6 474.8 473 470.7 468.8 466.7 464.6 461.8 459.4 455.5 447.6 430.7 415.7 402 404.6 408.5 410.4 413.2 414.9 417.2 419.7 421.7 423.6 424.8 425.3 425.6 425.4 425.2 424.8 424.6 424.5 424.1 423.2 423.3 423.3 423.3 422.6 422 421.5 421.2 420.1 419.3 418.8 418.1 417.3 417.2 415.9 416.6 417.3 418.4 419.8 421.5 423.1 424.1 425.8 426.4 426.7 427.2 427.3 427.5 427.6 428.2 429 429.9 430.8 431.4 432 432.2 432 432.4 432.5 432.4 432.3 432.5 433 433.5 433.7 433.8 433.4 432.9
331.2 336.2 339.5 343.3 347 350.9 355.6 359.8 364.5 369.4 374.5 379 382.8 386.9 391.3 395.5 398.6 402.3 405.8 408.4 411.4 412.9 414.5 416.2 417 417.4 418.4 419.2 419.9 420 420.2 419.9 419.7 418.8 417.6 414.8 412 409.5 406.8 403.6 401.5 398.5 407.9 412.3 416.1 419.2 421.9 422.9 423.8 424.2 423 413.2 416.1 430.4 435.2 438.2 440.3 441.5 442.6 443.5 444.7 445.7 446.5 446.6 446.7 446.8 446.6 446.2 445.8 446.8 449.2 453.8 456.9 459.7 462 463.9 465.4 466.7 467.1 467.4 467 468.1 468.7 469.4 469.3 468.9 468.9 469.2 469.5 469.6 469.7 469.7 469.7 469.3 468.9 468 466.8 464.9 461.8 459.5 457.2 454.5 447.6 452.9 455.7 459.2 461.6 463.9 466.6 469 470.9 472.3 473.8 475.3 476.5 477.2 477.6 477.6 477.2 476.7 475.4 474.3 472.8 471.1 469.4 467.4 465.6 463.7 461.3 458.8 455 447.8 429.5 411.4 400.5 403.6 407.1 410.1 412 414.8 417 419.1 421 421.5 421.8 422.1 422 421.9 422.2 421.6 421.2 420.4 420.5 420.4 420 419.7 419.5 418.8 418.1 417.3 416.2 415.1 414.4 413.2 413 412.3 410.9 410.9 411.6 413 414.5 417.4 419.6 421.6 422.8 424.5 425.4 426 426.5 426.7 427.7 428.7 429.9 431.1 432.2 432.9 433.5 433.9 433.8 434.3 434.3 434.4 434.3 434.8 435.4 435.9 436.1 436.1 435.9 435.7
329 335.3 339.2 342.2 346.2 350.4 354.5 358.5 362.9 367.5 372.7 376.8 380.6 384.1 388.1 391.7 395.3 398.2 401.1 403.4 404.7 406.7 408.4 410.2 411.4 413.1 415.6 416.6 417.5 418.2 419.1 419.3 418.5 418.3 416.9 415.3 413.1 411.7 408.8 403.7 400.1 399.2 405.1 408.4 411.7 414.4 417.6 418.4 419.1 418.5 407.8 413.2 426.4 430.7 433.8 436.3 437.5 438.2 439.1 440.5 441.5 442.6 443.2 443.4 443.4 443.4 443 442.2 436.9 442.3 447 451.9 453.9 456.1 458.4 460.5 462 463.5 463.8 464.3 463.7 464.3 466 465.7 465.9 465.5 465.3 465.5 465.8 465.9 465.8 465.8 465.8 465.5 464.9 463.8 462.7 460.3 457.7 455.8 452.5 449.7 435.2 449.2 452.9 456.4 459.5 461.6 464.3 466.5 468.3 469.9 471.4 472.9 474.3 474.9 475.5 475.6 475.1 474.5 474.3 473.1 471.7 470.1 468.3 466.6 464.9 463.1 461.2 458.8 456.1 452 444.4 425.4 406.9 399.5 402 406.4 407.7 410.8 414.2 416.1 416.7 417 416.9 416.8 416.8 416.7 417 416.3 416 415.9 414.7 415.3 415.3 415.3 415.3 414.4 413.3 412 409.4 409.2 405.3 404.3 404.8 404 402.9 395.8 403.5 405.1 407.6 410.5 412.9 416.2 418.7 420.9 422.5 423.6 424.5 425.1 426 427.2 428.9 430.7 432.2 433 433.9 434.9 435.1 435.3 435.4 435.5 436.2 436.4 437 437.3 437.1 437.7 437.5 437.3
325.1 330.7 335.5 339.2 342.4 346.8 350.7 355.1 358.9 361.9 365.3 369.9 374.2 378.2 381.2 384.7 387.8 390.7 393 394.9 396.3 397.5 397.3 400 402.8 406.3 408.7 412.5 415.6 416.1 416.3 415.7 416 416.8 416.6 416.7 415.6 414.6 412.2 407.3 400.2 395.9 400.1 403.9 406.9 409.9 411.1 413.2 413.2 403.1 410.1 422.7 426.7 429.6 431.9 433.5 434.6 435.5 436.3 436.6 438.1 438.8 439.6 439.9 439.6 439.4 438.1 437.4 430.6 439.2 443.5 447.1 449.5 451.7 454.1 456.4 458.5 458.9 459.7 459.4 459.2 459.9 461.7 462.4 462.4 462.1 461.4 461.6 461.4 461.5 461.5 461.2 461.1 460.5 459.8 459.2 456.9 454.2 451.9 449.3 446.8 437.5 436.3 446.5 448.9 452.9 456.4 459 461.3 463.3 464.8 466.5 468.1 469.8 471.2 472.1 472.4 472.8 472.6 472.2 471.4 470.5 469.1 467.6 465.9 464.4 462.6 460.8 459.4 457.6 454.9 451.6 447 438 416.5 402.1 399.1 400.9 402.9 403 407.5 408.6 409.5 409.4 409.7 409.6 408.9 408.2 407.7 407.8 407.8 408.3 408 409.3 409.7 409.3 408.9 407.4 405.5 401.8 398.7 395.2 388 388.1 388.2 386.7 385.1 383.6 387.4 394 399.2 402.7 405.6 408.2 411.2 414.8 417.3 418.8 420.2 421.5 423.6 424.7 427.1 428.9 430.8 432.4 433.9 434.6 434.9 434.6 434.4 435.3 435.9 436.1 436.7 437.2 437.2 437.8 438.5 438.9
319.6 323.6 327.7 332 336.1 338.7 342.6 346.1 350.3 354.2 357.3 359.6 364.2 367.9 371.9 375.1 379 380.5 383.2 384.9 386.3 386.4 386.3 388 390.7 395.4 399.7 405.2 409.1 411.6 412.5 411.1 411.1 414.6 417.3 418.8 418.5 417.3 414.8 411.6 406.8 396.2 394.4 396.2 400.7 404.5 407 406.6 399.6 402.7 416.3 421.2 424.1 427 429.1 430.6 431.6 432.2 432.6 433 434.4 434.9 436 436.7 436.3 435.4 433.1 426.1 431.7 436.2 439.8 443.5 445.6 447.2 449.1 451.5 453.3 454.7 455.1 454.4 454.1 454.9 457.2 457.3 458 457.5 457.2 457.2 456.9 456.1 456.3 456.2 454.9 454.8 453.3 452.5 450.2 448.4 446.1 443.2 440.7 425.5 431.4 442.3 445.8 448.7 452.1 455.2 457.8 459.8 461.2 462.9 464.4 465.8 467.5 468.4 468.6 468.9 469.1 468.7 468.1 467.2 465.5 463.9 462.3 461.1 459.8 458.3 457.2 455.3 453.1 450.5 447 442.1 431.5 412.8 399.8 396.6 397.8 398 397.9 397.4 396.5 396 394.8 394 394 392.7 392.7 393 393.8 394.7 395.2 399.6 401.4 401.3 399.7 395.6 389.6 384.2 380.9 378.7 377.1 375.2 374.9 373.5 372.9 373 373.2 376.2 384.6 392.2 396.3 399.6 402.9 405.8 408.7 412.3 414.8 417.6 419.7 422.1 423.8 426.4 428.8 430.6 432 433.2 433.5 433.3 433.7 433.7 433.7 434.9 435.2 435.9 436.8 437.9 438.5 439.2
310.6 313.2 317.6 322.2 326.1 329.2 330.9 335.2 339.1 343.6 347 350.9 354.6 359 363.8 367.3 370 372.4 374.6 375 376.4 375.3 374.8 377.7 381.4 384.4 390 395.3 399 401.3 402.9 399.9 410.8 414.7 417.8 419.7 420 418.9 417.6 414.8 410.5 406.4 394.7 392.8 392.8 396.3 399.1 393.9 400.5 411.5 416.1 419.6 422.4 424.4 426.2 427.5 427.9 428.4 429.1 430.2 431.7 432.6 433.4 433.5 433.1 431.5 427.4 417.8 427.8 431.2 434.6 438.3 441.4 442.8 443.9 445.5 448.2 449.8 450.2 450.3 449.8 448.9 451.7 452.9 452.4 452.8 452.2 451.8 451.9 451.4 450.6 450.1 449 448.3 447.5 445.9 444.2 441.9 440.4 437.1 430.5 413.5 428.3 436.9 440.4 443.1 446.8 450 453.3 455.1 456.3 457.6 459.7 461.4 462.9 463.8 464.4 464.7 464.9 464.7 464 463.1 461.7 460.1 458 457.1 456.3 455 453.8 452.1 450.5 448.7 445.5 442.1 437.7 419.3 419.4 408.1 397.4 397.8 394.9 397.6 396.3 396 393 389.5 388.1 387.2 385.9 385.2 384.3 383.4 383.6 383.5 384.9 385 379.5 375.7 373.7 373.3 374.2 372.9 373.2 371.5 369.2 366.5 365.5 365 365 365 367.2 376.9 385.9 387.9 390 397.7 401.4 404 407.4 412.2 414.8 418.4 421.5 424 426 428.4 429.8 430.9 431.3 431.3 431 430.7 430.9 431.4 432.3 433.1 435 436.1 437.2 438.5
301.6 305.2 308.1 311.5 313.7 317.7 321.4 324.7 327.7 332.3 336.9 341.4 346.6 351.5 355.6 359.1 361.7 363.7 364.8 365.9 366.4 365.3 365.1 368.8 372.3 375 380.1 384.3 387 389.3 395.1 398.7 408.2 413.9 417.6 419.2 420.1 419 418.1 416.4 414 412.1 409.4 401.2 391 390.9 391.8 397.9 406.9 411.1 414.2 417.3 419.9 421.3 423.1 423.7 424.2 425.1 426 427.6 429 430 430.5 430.6 429.9 428.1 421.4 418.1 424.9 428 431.5 435.1 437.5 439 440.5 440.6 442.8 444 445.2 445.9 444.4 444.8 446.6 447.7 447.6 448.2 447.5 447.2 446.2 445.7 445.3 444.7 443.8 443 442.2 440.7 439.4 437.5 435.1 431.9 416.7 398.6 424.7 430.1 433.6 436.5 440.7 443.7 446.5 448.2 450.1 451.9 454.4 455.6 457.3 458.9 459.6 459.8 460.1 460.5 459.9 459 457.6 456.1 454 452.6 451.9 451 450.2 448.9 447.6 446.3 444.8 441.8 438.8 436.1 433.4 427.8 411 415.4 425.7 425 425.6 422 416.9 416.8 415.8 412.1 407.1 405.6 400.8 398.9 393.9 389.3 385.7 383.5 385.7 392.9 398.3 400.2 399.3 398.6 400.7 397.4 394.7 388.9 390.8 390.1 387 378.3 366.9 362 368.3 373.7 382.8 382.2 391.4 395.5 397.9 403.7 409 413.2 416.8 420 422.1 424.7 426.3 427.4 428.4 428.4 428 427.6 426.7 427.3 428.7 431.2 433.2 434.6 436 437.7
290.1 293.3 296.4 298.6 300.5 304.9 308.6 312.7 316 321.6 327.8 332.5 338.7 344 348.5 351.4 353.8 354.9 355.8 354.9 351.8 348.3 353 355.9 359.4 363.1 366.2 369.8 373.9 376.4 387.2 397.7 404.3 410.1 414.7 417.5 419.1 419.2 418.2 416.9 416 414.7 413.4 411 404.5 391.1 390.6 397.7 404.9 409.7 412.8 415.2 417.3 418.6 419.6 420.6 421.7 422 422.4 425.1 426.2 427.3 427.7 427.6 426.9 425 416.3 413.7 422.6 425.7 428.4 431.6 433.3 434.4 434.9 436.7 437.3 439.3 439.8 440.4 435.6 439.2 440.9 442.7 443.5 443.2 442.9 442 440.1 439.6 439.5 439.2 438.5 437.7 436.7 435.6 433.5 431.6 429 424.9 405.2 397.6 419.4 424.7 426.7 428.9 432.4 434.7 439.2 441.3 444.1 446.6 450 451.4 452.6 454.1 454.9 455.4 456.2 456.2 455.8 454.8 453.2 451.4 449.7 448.1 447.9 446.6 446 445.1 444.4 444 443.4 442.1 440.5 438.9 436.7 433.5 422.9 421.9 433.9 435.5 436.3 436.3 434.9 435.4 434.9 433.2 430.2 429.2 421.3 422.4 417.9 413.4 409.7 406.6 410.7 421 428.6 432.1 431.9 425.8 432.3 429.6 426.5 415.5 419 426.5 419.6 408.6 390.3 376.2 364.3 358.2 361.7 374.2 371.4 384.4 386.4 394.4 399.6 406.3 411.2 414.2 416.9 419.2 420.7 422.1 422.8 424 424.1 423.5 422.8 423.7 424.8 428.1 430.8 433.3 435.1 436.4
274.7 277.9 280.3 282 284.2 286.8 291.6 296.5 302.4 308.5 314.4 322.6 328.7 334.6 340.1 343.1 344.6 345 341 326.9 333.4 336.4 341 349.8 349.9 353.7 357.2 364.6 365.5 367.2 380.5 393.2 400.8 406 411.1 413.6 416.5 418.4 419 418.7 418.3 417.2 415.6 414.5 412.6 408.1 388.7 390.9 400.7 408 411.1 413 414.6 415.6 416.8 418.1 418.7 419.9 421.5 422.9 424.5 425.3 425.4 424.7 423.5 421.7 411.4 414.5 419.8 423.3 425 426.6 428.3 429.8 430.5 431.3 432.2 433.4 435 435.3 430.8 434.8 437.4 438.8 439 439.1 438.3 436.2 433.6 432.4 432.8 433.2 432 431 431 429.8 428.3 426.4 422.8 419.3 397.5 397.8 414.4 418.3 420.3 421.9 424.2 427.6 430.7 434.5 438 442.3 445.3 447.4 448.3 450.3 451 451.6 452.1 451.8 451.9 450.7 448.9 447 445.7 444.4 443.7 443.3 442.4 441.9 442 442.2 441.6 441.5 440.7 439.3 437.4 436.3 434.4 430.8 437 438.1 439.5 439.1 439.2 438.9 438.5 438.1 437 436.3 435.5 434.6 433.6 433.4 432.6 431.1 433.7 437.4 439.7 441.6 443.2 444.3 445.5 446.7 446.5 444.6 445.1 443.8 441.4 431.9 413.1 396.8 385.1 378.2 367.7 356.8 361 363.4 370.6 386.4 392.4 397.8 403.1 407.6 410.9 413 414.7 416.2 417.5 418.1 418.9 418.4 417.8 418.8 420.5 424.5 427.6 430.1 432.1 433.4
267.7 270.3 271.6 272.1 273.9 275.6 277.6 279.3 282.7 287.3 292.8 304.7 316.3 324.5 331.2 334.4 336.6 335.9 320.8 337.8 344.6 349.8 353.4 356.9 361.6 365.3 371.3 376 379.2 381.7 377.9 380.3 393.1 399.3 405.1 409.2 413.6 416.3 417.5 418.4 418.4 418.5 417.5 416.4 414.6 412.3 405.3 388.3 391.8 405.7 409.3 410.8 411.5 412.6 413.7 414.4 415.2 418 420.4 421.9 423.2 423.4 422.7 421.6 420.2 417 404.8 412.4 417.1 419.5 420.6 421.3 422.9 423.1 423.8 424.9 426.9 427.6 429.4 429.9 422.2 430.2 433.4 435 435.1 435.2 434 432.7 427.3 425.1 426.7 426.8 426.6 426.3 425.7 424.7 422.6 420.8 417.5 413.8 392.4 397.1 408.9 412.1 413.8 415.7 417.9 419 421.9 425.7 432.7 437.8 441 443.6 445.1 446.6 447.7 448.4 448.6 448.7 448.7 447.3 445.6 443.5 441.2 439.9 438.7 439.2 439 438.7 439.4 439.8 439.9 439.8 439.5 438.6 437.5 436.6 436.1 435.9 437.7 438.8 440 440.4 441.1 441.3 441.2 440.9 440.4 439.6 440 439.9 439.2 439.9 439.3 439.1 441.2 443 444.8 446.5 448.3 449.2 450.2 451.4 451.1 451.2 450.9 449.8 448.1 444.9 436.4 417.2 402.4 392.3 380.5 369.1 361.9 356.3 355.1 370.3 386.3 387.1 394.5 398.1 402 405.2 408.4 410 411 411.4 410.5 411.4 411.2 412.7 417.9 421.3 423.8 426 427.7 429.3
269.9 270.1 270.6 272.9 275.6 273.4 273.1 274.1 276.1 277.1 278.6 283.3 297 307.3 317.1 323.4 323.6 319.3 335.7 343.8 349.5 356.1 360.2 363.9 367.5 372.2 376.1 381.3 385 388.7 390.6 384.9 381.6 391.4 399.5 404.8 408.9 412.6 415.7 416.8 417.1 417.4 417.6 416.6 415 413.2 410.5 400.3 386 401.9 406.9 407.8 406.2 408.4 408.9 410.8 415.1 417.1 419.3 421.2 422.4 422.6 421.7 419.4 413.6 407.5 408.9 412.5 414 415.5 416.6 416.3 415.3 415.7 414.9 418.5 419.6 421.2 420.9 421.9 417.8 427.7 430.1 431.9 432 431.7 430.7 428.7 425.5 413.6 418.5 419.3 420.1 420.3 420.3 418.6 417.4 415.1 409 407.1 387.5 393.6 402.6 405.6 406.2 407.5 408.8 406.8 409.5 417.3 429.2 434.7 437.9 439.9 442.1 443.1 444.2 445.2 445.6 445.5 445.3 443.9 442.2 439.6 437.3 434.9 433.8 434.1 434.5 435.3 436.2 437.1 437.4 437.5 437.3 437.1 436.7 436 435.7 435.8 436.9 438.4 439.7 440.4 441.5 441.7 442 441.6 441.6 441.3 441.8 442.1 442.8 442.7 443 443.3 444.8 446.8 448.6 450.1 451.4 452.7 453.7 454.4 454.8 454.8 454 453 451.1 449 446.4 436.4 422.4 411.1 398.9 391.3 384.2 375 364.2 353.4 370.3 383 380.6 383.5 390.7 396.5 400.3 403 404.3 405.2 406.6 406.1 403.2 409.5 415.1 417.9 419.9 421.8 422.8 423.5
277.8 275.1 275.1 278.6 279.6 279.5 281.6 282.4 284.9 286.9 290.8 296.5 311.6 315.6 320.2 318.1 324.6 330.6 340.1 349 355.7 360.9 366.3 371 375.2 378.3 382.2 387.2 390.4 393.6 395.4 397.2 397.6 388.6 389.6 397.3 403.3 408.2 411.8 415.2 416.4 416.7 416.7 415.9 414.3 412.6 410.1 403.7 384.9 388.8 395.9 395.7 399.4 402.9 406.7 409.9 413.9 416 418.2 420.3 421.1 421.5 420.6 418.9 415.4 407.9 405.1 409.5 411 412.5 413.3 411.1 409 408 409.2 411.4 412.9 413.8 410.3 410.8 420 425.6 427.4 429.1 428.9 428.6 428.1 425.8 422.8 416.2 406.6 410.9 413.1 414.8 414.6 414.7 412.9 410 404.8 392.2 385.7 390.3 394.8 394.4 395.1 394.7 397.1 413.4 418.6 423.4 428.2 432.1 434.6 436.6 438.8 440.3 441.3 442.4 442.7 442.5 441.9 440.4 437.8 435 432.1 429.5 421.4 428.6 429.8 431 432.3 433.3 434.6 434.5 435 434.8 434.6 434.6 434.7 434.7 435.6 436.6 438 439.3 440.2 440.7 441 440.4 440.7 440.6 440.9 441.5 442 443.1 443.9 444.6 446.3 448.2 450 451.5 452.8 454.1 455.1 455.8 456.2 456.2 455.8 454.6 453.2 451.6 450.2 447.4 443.7 434.4 425.9 422.9 410 395.1 380.8 361.9 355.3 373.4 374.2 375.5 380.8 384.7 388.8 392.4 397 397.1 400 401 403.4 408.5 411.3 414 415.7 416.8 417.5 418.5
291 288.3 287.6 288.8 290.2 292.7 296.6 300.7 305.1 309.8 318.3 329.3 332.7 331.5 332.5 332.3 336.2 341.1 345.4 354 361.1 366.8 372 377.9 381.5 385.3 388 391.5 394.6 398 400 401.9 401.6 396.6 401.9 404.3 407 409.4 410 413.3 414.2 415.5 415.2 414.1 412.8 411.4 408.8 397.9 383.5 389.5 398.9 407.6 409.6 410.1 411.2 412 414.1 415.7 417.6 419.4 420.2 420.4 419 417.1 414.7 411.2 399.6 405.5 407.9 409.3 409.1 407.3 404.4 403.2 404.1 406.1 407.8 406.2 403.2 413.8 419.7 423.1 425.2 426.5 426.3 425.8 425.4 423.1 420.8 416.3 411.2 402.5 406.8 409.7 410.3 410.1 408.7 406.1 399.3 387.8 375.8 375.3 378.3 386.7 394.9 402.2 409.8 414.5 418.3 422.2 425.7 429.3 431.8 433.5 435.6 437.2 438.5 439.6 439.7 439.6 438.9 437.2 433.7 428.8 424.9 421.4 417 422.7 424.3 425.9 427.2 428.3 430.2 431.4 431.8 432 432.2 432.6 432.8 433.3 434.1 435.1 436.1 437 437.4 437.9 438.3 438.4 438 438.1 438.1 438.6 439.4 440.2 442.1 444.2 446.2 448.1 449.2 450.9 452.7 454.2 455.7 456.4 456.8 457.2 457 456.5 455.5 454.3 453.1 451.3 448.6 445.8 441.5 435 425.3 410.5 391.2 370.9 352.1 366.8 370 369.8 370.8 376.1 379.2 382.8 385.8 389.6 392 394.6 398.9 404.5 407.3 409.7 410.5 411.8 412.5 413.5
307 304.9 304.6 305.1 307.9 313.4 318.8 323.4 328.7 334.3 339.6 343.6 344 343.1 344.2 345 348 350.8 355.5 358.8 366 372.5 377.6 383.3 387.5 391.8 394.3 398 400.8 403.5 405 405.9 405.9 404.3 405.4 408.4 410.2 411.5 412.3 411.5 412.4 412.9 412.8 412.1 410.9 409.4 406.6 392.4 384.4 403.4 408.3 410.7 412.3 413.2 413.6 414.3 415.3 415.8 417.7 418.7 418.6 419.2 418.2 416.3 414.1 411.1 398.5 401.8 403.6 405.1 405.1 404.2 398.9 397.6 399.3 399.7 397.5 400.9 410.8 415.4 419 421.3 422.9 424.2 424.2 423.4 422.2 420.6 418.8 415.1 410.7 405.9 398.3 404 406.1 406 404.6 401.4 394.6 389.3 372.2 380.4 392.5 397.8 402.4 405.8 409.5 413 416.5 420 423.2 425.6 428.1 430.7 432.5 434.1 435.5 436.7 436.8 436.7 436 433.3 430.7 425.7 416.6 415.9 413 417.1 418.3 419.9 421.9 423.9 425.6 426.9 428 428.4 428.9 429.4 430 430.6 431.6 432.5 433.5 433.9 433.9 433.9 433.9 434.3 434.5 434.2 434.3 435.2 435.5 437 439.1 441.6 444.5 446.5 448.2 450 451.8 453.3 454.8 456.1 456.7 456.9 457.1 457.2 456.8 456.2 455.3 453.4 451.2 447.8 444.1 439.4 431.3 418.4 394.4 379.3 362.3 351.6 354 362.9 360.3 365.6 371.5 377.7 379.7 379.6 382.2 386.8 393.7 399.7 402.5 404.1 405.4 406.6 407.4 408.6
321.5 319.9 320.6 321.4 324.3 329.4 334.6 338.8 343.2 346.7 350.4 350.4 350.7 351.7 354.7 357.6 360.9 363.1 366.2 369.4 372.7 379.8 385.3 389.9 394.4 397.8 400.3 403.3 406.5 408.7 409.8 410.6 411.5 411.5 411.6 412.4 412.4 412.8 412.4 411.6 409.6 409.6 409.1 408.9 408.2 407 403.1 386.5 383.6 403.2 408.1 411.3 413.2 414.4 415.5 416 416.3 417 417.8 417.8 417.8 417.3 416.5 414.9 413 410.2 396.8 400.3 399.7 401.7 401 399 395.7 393.1 393.4 392.9 400.1 405.7 410.2 414 417.4 419.4 421.3 422.1 422.4 421.6 420.4 418.9 416.9 413.7 409.5 404.8 399 398.2 400.9 401.3 400.6 397.7 392 382.3 369.1 381.4 391.9 396.3 400.5 403.9 407.3 411 413.8 417.2 419.9 422.2 424 426.2 428.4 430.7 432.2 432.9 433.4 433.1 432.2 430.5 427.9 424.2 418.2 404.3 408.7 410.8 411.6 413.7 416 418.2 420.5 421.9 423.4 424.2 425.5 426.1 427.1 428.3 429.1 429.8 430.1 430.3 430.4 430.2 429.7 430.1 430.1 430.2 430.5 431.8 433 434 436.6 439.3 441.8 444.8 446.7 448.7 450.3 451.8 453.2 454.3 454.9 455.7 456 456.5 456.3 455.6 454.8 453.1 451.6 448.9 444.9 440.6 432.9 419.3 407 392.4 373.4 351.8 351.2 350.5 355.6 356.4 366.3 364.8 370.8 371.8 371.9 376.6 384.2 392.5 396.5 397.7 398.5 399.3 401 402.6
327.4 328.3 329.5 330.6 332.2 336.7 340.4 344.9 348.1 351.8 355.8 357.4 358.2 360 363.3 367.6 370.6 374.6 376.5 379.6 380.9 384.2 391 396 399.2 401.8 405.2 409.2 411.1 412.1 414.3 415.5 416.1 416.6 416.2 415.6 415.2 414 412.5 410.3 407.5 405.5 405 404.1 403 401.5 397.1 380.6 384 402.5 407.3 411 412.9 414.5 415.6 416.6 417 417.5 417.5 417 415.7 414.8 413.7 412.5 411.4 408.8 398.4 393.8 393.4 396.1 396.5 395 393.1 390 388.3 394.8 400.4 405.2 409.1 412.6 415.8 417.9 419.5 420.2 420.5 419.7 418.6 417.1 415 412.2 408.9 405.4 400.1 394.2 397.2 396.8 396.4 393.4 388.3 384.2 367.6 381.1 389.9 394.6 398 401.3 403.8 407.9 410.4 413.7 416.5 418.2 419.9 422.1 424.6 426.5 428.5 429.2 429.8 429.3 428.5 426.7 424.4 421.6 416.5 407.4 396.9 404 405 407.1 409.1 411.8 414.7 416.7 418.2 419.3 420.9 422.6 424 425.4 426.2 426.8 426.5 426.3 425.4 426 425.5 425.6 425.5 426.3 427.2 428.1 428 430.4 433.3 435.6 438.1 441.4 444.2 446.1 447.7 449.5 450.9 452.3 453.2 454.2 454.8 455 454.8 453.9 453.2 452.6 451.1 448.5 445.7 441.9 437.8 431 419 394.2 382.7 369.1 356.7 349 346.6 347.9 349.7 351.5 354.9 357 362.5 362.5 371.6 378.4 383.2 384.2 384 388.4 391.1 394.1
330.7 331.6 332.6 334.4 336.3 339.7 343.7 347.5 351.4 355.4 358.7 362.8 366.9 370.3 374.7 378 381.2 384 385.9 388.8 392 393.2 398.8 401.9 405.9 410.6 412.4 415.8 419.9 420.6 420.7 421.9 421.2 420.4 419.1 418.4 417.2 414.9 412.2 408.7 404.7 401.7 397.8 395.3 391.6 388.7 384.9 379.3 391.1 402 406.1 409.3 411.5 413.1 414.5 415.1 415.9 416.7 416.4 415.7 414.7 413.4 411.9 410.6 409.6 408 404.3 400.9 388.5 388.8 389.6 390.8 390.2 387 386.8 393.4 399.8 404.2 408.4 412 414.9 416.8 417.5 418.4 418.1 417.5 416.6 415 413 410.5 407.7 404.4 401 390.1 392.9 392.5 392 389.9 385.9 382.4 367.2 375.5 385.7 390.2 394.1 397.4 400.1 403.8 406.9 410 412.8 414.3 415.8 418.3 420.8 423 424.7 425.5 426.1 425.8 425.1 424 421.9 419.2 415.1 408.8 390.9 397.2 398.1 400.7 402.8 405.2 408 411.1 413.5 416 417.8 419.6 421.7 422.5 423.3 423.7 423.4 422.5 421.9 419.7 420.5 420 420.5 420.9 421.2 423.4 424 426.1 428.9 431.7 434.3 437.5 440.6 442.7 444.7 446.4 447.9 449.6 450.8 451.6 452.2 452.4 452.2 452.2 451.6 450.8 450 448.4 446 443.5 439.8 435.6 425.6 402 409.7 387.6 378.8 371.8 362.8 352.3 347.9 347.6 343.4 342.8 344.2 347.4 354.6 361.7 367.1 366.6 362.8 367.4 373.8 375.6
331 332.4 333.7 335.9 338 341.3 344.2 348.6 352.9 357.4 361.9 367.9 373.1 378 382.2 386.1 389.7 391.9 395.1 398.2 400.3 402.6 406.2 411.8 417.2 420.9 423.8 426.2 427.9 429.1 428.8 428.9 427.7 426.5 424.4 422.5 420.1 417 413.5 408.7 404.2 399.6 395.1 389.7 388.2 384 379.9 377.4 391.5 399.2 403.5 406.8 408.9 410.4 411.9 413.2 414.1 414.6 414.4 413.6 412.1 410.9 409.7 408.6 407.8 407.7 406.2 402.9 392.4 385.2 385 386.6 386.8 383.4 387 394.6 400.1 404.6 408.1 411.5 414.4 415.9 416.7 417.5 416.7 415.8 414.2 412.8 411 408.2 405.9 402.8 399.5 393.6 390.1 388.7 387 385.9 383.4 379.7 371.3 363.9 380.4 384.8 388.8 392.2 395.6 399.3 403 406 408.6 411 412.7 415 417.1 419.4 420.7 421.8 422.5 422.4 421.8 421.2 419.2 416.6 413.3 406.4 387.5 392.6 392.4 395.3 397.6 400.1 402.5 405.5 408.8 412.9 415.6 417.4 419.1 419.8 420.3 420.6 419.9 419.1 417.1 414 413.3 412.9 414 414.6 416 417.8 419.3 421.3 424 427 430.4 433.5 436.4 439 441.3 443.4 445.3 446.7 447.8 448.7 449.3 449.7 449.6 449.6 449.5 448.9 448.2 447 445.4 443.7 440.7 437.1 431.5 420.4 420.9 416.7 405.3 394.9 385.1 377.8 372.6 370.5 365 357.3 349.5 341.1 338.6 344.8 346.6 357.2 351.5 347.4 353.2 357.9
329.1 330.5 331.6 334.3 335.2 338 342 345.4 351.1 356.8 363.7 369.7 375.6 381.4 386.3 391 395.3 398.4 401.5 403.7 407.1 409.8 413 417.8 422.1 425.6 428.2 430.2 431.5 431.8 432.1 432.2 431.5 430.4 428.7 426.3 423.1 418.9 414.2 409.6 404.2 399.9 396.4 397.1 396.9 394.5 382.6 375 380.8 393.9 398.9 402 404.7 406.8 408.1 409.4 410.8 411.8 411.8 411.2 410.1 408.5 406.3 404.8 405.6 406.3 405.8 403.5 398.7 392.8 383.9 382.7 383.5 382.6 387 392.4 398.9 403.8 407.8 410.9 413.8 414.9 415.7 415.9 415.6 414.9 413.3 411.6 409.1 406.7 404.1 400.9 397.2 388.7 387.6 388.6 384.9 380.7 378.8 376.9 374.4 362.9 368.9 377 382.8 386.7 390.4 394.3 398.4 401 403.9 407.4 410.1 411.7 413.6 415.4 416.3 417.3 418.5 419 418.6 418 416.5 414 411.4 404.6 385.5 389.2 386.6 389.4 389.5 391.7 397.3 402.5 407.5 411.3 413.6 415.5 417.1 417.5 418 417.8 417.1 415.9 412.1 401.9 403.2 403.5 406.4 406.1 408.4 410.7 413.6 415.9 419.6 423.3 427 430 433.1 435.8 438 439.9 441.8 443.7 444.8 445.8 446.4 446.8 446.7 446.7 446.9 446.3 445.6 444.5 443 441.6 440.3 437.7 434.4 430.8 429.2 427.8 426.4 418.8 414 405 399.8 394.2 386.8 378.9 369 358.7 348.3 339 336.4 338.6 344.4 350 340.5 343
320.1 322 320.3 322.5 326.1 332.5 338 344 350.5 357.3 363.8 370.9 377.5 385.2 391.1 396.4 400.7 403.8 406.8 409.9 412.9 415.6 417.6 422.4 426.1 429.3 431.5 433.8 435 435.5 435.3 435.4 434.5 433.3 431.4 428.8 426.7 423.8 419.3 412.9 408 404.4 402.1 401 400 398.6 393.6 378.8 375.1 382.8 392.1 396.7 399.8 401.9 403.8 405.4 406.3 407.1 407.5 408 407.4 405.9 403.8 401.6 403 404.2 404.2 402.6 398.5 393.1 387.7 379.7 379.7 380.6 388.1 393.9 399.8 403.7 407.8 410.9 413 414.2 414.4 414.4 414.2 413.6 412.9 411.1 407.8 405.1 402.1 398.6 394.5 386.8 384.1 387.7 386.1 382 378 375.5 371.7 364.5 361.9 368.5 371.3 377.5 385.2 389.4 394.8 398.7 402.7 404.7 406.8 408 409.7 411.2 412.4 413.3 414.1 415 414.8 414.8 413.4 411.8 409.6 405.7 394 377.6 383.7 379 385.5 394.1 398.3 402 405.7 408.6 411 413 414.7 415.1 415.8 415.8 414.8 413.6 411.2 408.4 397.7 388.9 396.8 397.2 402 404.3 407.3 411.1 415.2 419.5 423.7 427 430.5 433.1 435.4 437.5 438.9 440.6 441.6 442.3 443 443.5 443.4 443.4 443.6 443.1 442.4 442.2 440.6 439.4 439.2 437.1 435.6 434.6 434.1 432.9 433.3 432.9 431.4 430.3 427.5 422.3 414.7 401.3 390.6 379.3 368.8 357.7 346.4 338.5 334.2 338.6 339.8 339.3
301.8 308.7 320.2 325.3 329.1 334 339.8 345 353 359.3 366.2 374 381.3 388.3 395.2 401 405.9 409.2 412.2 415.4 417.8 420.3 423.4 426.9 429.9 433.1 435.6 437.9 439.1 439.2 439.5 439.4 438.5 437.4 434.9 432.7 430.5 426.9 422.9 419.9 415.7 412.3 409 406.4 404.3 402 397.5 389.1 375.8 374.5 382.8 388.7 393.6 396.7 398.7 400.5 401.4 402.2 402.4 401.9 400.9 400.3 399.8 398.4 399 401.2 402.2 401.3 399.2 395.4 390.1 381.9 378.1 386.6 391.5 396.1 400.3 403.7 407.7 409.9 412.1 413.3 414.2 414.2 414 412.9 411.4 409.1 406.6 403 398.8 394.9 390.8 384 381.2 384.5 384.2 382.5 380.1 377 374.7 372.6 363.3 361.8 372.7 377.1 382.3 389.1 394 398.3 400.8 402.2 403.3 404.5 405.8 407.1 408.3 409.4 410.4 411.1 410.7 411.1 410.4 409.6 407.6 405 398.2 375.9 376.7 371.3 385.5 391.6 396.5 399.6 402.4 405.5 407.7 409.3 411.6 412.6 412.8 412.7 412 411.1 409.3 407 403.6 395.1 383.2 390.6 396.3 397.8 400.4 405.1 413 418 422.1 425.6 428.1 431 433.1 434.8 436.3 437.8 438.3 439.2 439.9 440.1 440.2 440.2 440.3 439.9 439.4 439.2 438.3 437.2 437.1 437.1 437 437.2 436.9 436.5 436.5 436.6 436.2 435.1 433.7 432 428.6 423.4 414.3 402.7 391.1 377.2 363.2 344.9 339.9 331.7 330.8 329.9
313.5 319.6 326 331 335.4 339.2 341.6 347.6 355.5 361.9 367.8 375.9 384.4 391.7 399.2 406 410.9 414.4 418.1 421.2 423.7 426.4 429.6 432.5 435 437.4 439.7 441.1 442.6 442.8 443.1 443.2 442.4 441.4 439.4 437 434.1 430.1 427.3 423.5 420.1 417.4 414.1 410.5 408.5 405 399.4 392.4 380 374.6 373.9 378.2 385.7 388.9 392.8 395.3 396.5 397 396.6 395.4 394.8 394.7 394.7 393.1 395.2 397.1 397.9 397.7 396.2 393.8 390.1 380.1 378.9 391.4 394 397.1 400.2 403.7 406.8 409.2 411.2 412.4 413.3 413.9 413.5 411.9 410.3 408.7 405.4 401.5 396.7 391.3 387.4 381.3 378.9 381.3 381.2 380.5 379.4 377.6 376 371.7 358 367.2 378.1 383.2 386.9 390.5 393.8 396.7 398.3 399.3 399.6 400.2 401.1 402.1 403.5 405.2 406.3 407.1 406.6 407.1 407.9 407.5 405.8 403.8 399.5 388.6 369.2 370.7 382.6 390.6 393.8 396.8 399.1 401.5 403.8 405.7 407.4 408.6 409.6 409.4 408.8 408 406.9 404.9 401.9 398 382.8 379.4 384.6 390.5 400.3 406.9 411.6 416 420.3 423 425.6 428.5 430.7 432.2 433.6 435 435.3 436.5 436.9 437.2 437 437 437 436.7 436.4 436.2 435.9 435.7 435.5 435.9 436.4 437.1 437.4 437.7 438.2 438.4 438.1 437.5 436.1 434.9 432.1 428.4 423.4 418 408.9 397.4 367.4 368.2 364.2 360.1 357 351.9
320.1 325.8 330.6 335.6 339.3 343.2 346.9 350.9 356.8 364.9 372.2 379.8 387.5 396.4 403.5 410.6 416 418.7 423.4 425.3 427.6 430.2 433.4 436 438.4 441.3 442.9 444.7 445.9 446.4 446.6 446.6 445.8 444.6 442.7 440.5 437.8 434.2 430.3 427.2 424 421.1 417.3 414.4 410.8 407.2 402.7 393.1 382.8 382.9 374.5 371.6 373.5 382 385.5 389.2 390.7 391.2 389.8 388.3 388.7 388.4 388.7 387.5 391.1 392.9 394 393.7 392.1 390.2 385.1 374.9 384.6 390.4 393 395.5 398.5 401.4 405.3 407.6 410 411.5 412.4 413.4 412.5 412 410.5 408.6 406.4 403.6 399.3 393 387.2 380.5 371.8 378.1 377.9 377.5 375.5 374.5 372.7 369.7 354.6 367 378.5 383.9 387.3 390.6 393.5 395.2 396.1 396.5 396.6 396.2 397.2 397.2 399.4 400.6 401.7 402.7 402.7 403.4 404.2 405.1 403.9 401.8 398.1 392.2 372.5 370.5 383.3 388.2 391.2 394.2 396.3 398.4 400.5 402.5 404.2 405.8 405.9 406 405.6 404.8 403.4 401.6 398.7 394.2 379.1 383.1 392.2 397.2 401.8 405.3 408.6 413.2 417.3 420.4 423 425.5 427.4 428.8 430.2 431.5 431.9 432.7 433.2 434 433.4 433.3 432.8 432.4 432 432.1 431.9 432.3 433 434.2 435.1 435.5 436.3 437 437.8 438.5 438.5 438 437.1 435 432.9 429.6 425.6 420.1 414.3 398.8 385 393.5 389.4 385.2 379.9 374.3
324 329.8 334.4 337.9 342.7 347.8 352.5 357.7 363 368.3 375.8 383.6 391.8 400.1 406.9 413.7 418.3 421.5 425.3 428.8 431.9 434.6 437.5 439.8 442.1 444.8 446.8 447.8 449.4 449.9 449.7 449.6 448.7 447.4 445.8 443.7 441.1 437.4 434.1 431.2 427.9 424.5 421.1 416.9 413.4 409.3 404.2 392.3 395.8 393.1 387.7 374.7 370.2 371.8 380.4 384.5 385.4 385 383.2 382.2 382.7 383.4 384 383 386.2 388.4 389.6 389.8 388.2 386.4 381 373.6 384.7 388 390.2 394.2 395.6 398 401.6 405.6 407.8 409.6 411 411.7 411.2 410.6 409.6 408.3 406.4 404.2 401.3 396.4 393 389.8 381.9 368.4 374.5 373.6 371.5 369.8 368.2 366.4 354.3 360.1 377.4 383.5 387.3 390.4 392.5 393.6 393.7 393.6 393.6 392.4 392.4 393.1 394 395.7 397 398.3 400 401.3 402.4 403.2 401.5 399.6 395.3 389.8 368.7 366.8 381.5 385.6 389.1 391.5 393.5 395.7 397.7 399.2 400.6 402.3 402.2 402.5 401.9 401.2 399.2 397.2 393.7 380.2 368.5 383.7 391.8 396 399.2 402.3 406.1 409.4 413.3 416.6 419 421.6 423.6 425.4 426.8 428 428.9 429.6 429.9 429.7 429.3 428.8 428.3 427.9 427.8 427.6 427.4 427.8 429 430.7 432.3 433.4 434.2 434.9 435.7 436.3 436.6 435.6 434.5 433.4 431.5 428.3 424.4 420.4 414.1 397.3 403.5 403.2 401 399 396.4 392.2
