ncols 200
nrows 82
xllcorner 350000
yllcorner 770650
cellsize 50
472.9 469 463.2 452.8 443.8 437.4 439.4 444.4 453.4 466.4 479.3 490.6 503.1 513.6 524.5 533.2 540.8 547.7 554.5 564.2 573.3 582.9 593 601.1 607.9 614.8 622.5 623.8 619.5 610.8 590.6 556.9 522 490.4 467.3 450 442.3 437.3 433.1 443.8 457.5 479.4 499.8 512.3 515.9 513.9 512.9 514.9 520 523.5 534.2 557.7 578.6 592.8 601 606.9 609.3 611.8 610.6 614.9 620 625 626.5 624.7 619 614.1 606.9 597.9 586.2 580.5 574.1 566.5 559.2 553.1 549.6 543 529.9 517.7 504.5 487.2 473.5 460.1 446.9 431.1 416.2 404.3 392.2 381.3 371.5 364.5 360.2 356.5 353.2 348.8 346.4 342.5 336.3 329.6 321.3 312.7 304.9 298.6 294.2 287.1 283.8 281.4 280.7 283.7 284.4 282.4 282.7 284 286.4 288.6 291.8 295.1 297.8 302.4 307.3 308.6 306.3 303.3 300.2 296.4 295.5 294.2 289.3 282.3 273.9 263.3 253.2 242.4 233 222.9 208.6 194.8 181.6 171.7 167.3 162.8 156.9 151.2 145.3 149.3 139.6 129.7 123.2 121 112.8 106.2 102.1 103.1 104.5 104.9 109.9 110.5 114.3 121.5 129.1 135.3 136.9 143.9 147.4 147.4 146.8 149.7 150.4 149.7 145.2 147.8 147.6 147.4 148.9 153.5 145.4 144.7 144.9 146.3 149 150.9 153.5 156.3 160.8 175 180 185.6 187 187 181.9 184.1 191.5 195.3 197.8 207 217.9 226 234.4 243.1 253.5 263.4
487.4 482.8 477.2 469.3 461 453.9 455.7 459.8 466.9 478.4 489.6 499.4 509.7 518.3 527.1 532.7 539.4 544.2 552.3 562.4 572.2 581.5 587.9 593.1 598.8 605.9 614.3 617.6 617.9 612.4 598.8 566.2 528.6 495.7 472.7 457.6 448.8 444.2 443.4 447.9 462.1 484.5 510.3 526.6 535.6 539.6 539.7 539 545.6 548.6 552.4 571.1 588.6 603.3 612.7 618.5 621 622 620.2 623.5 626.1 625.9 625.1 620.1 609.9 604.2 595.5 581.3 568.8 558.7 547.4 536.9 531.2 528.9 527.2 523.2 514 506.8 498.4 487.5 476 465.9 452.2 439.6 422.9 409 394.9 383.8 371.7 366.2 358.2 351.5 348 344.6 341.1 337.8 334.1 327.9 320.5 312.3 306.5 297.9 292 288.9 288.7 279.1 276 273 270.8 274.8 274.5 277.2 276.4 277.1 281.6 287.3 287.6 291.6 294.8 299.5 301.2 300.8 298.7 297 297.9 299.2 296.5 288.4 280.3 269.1 258.5 249.7 239.8 227.2 217.9 202.3 189.8 181.4 170.6 166.3 160.1 154.9 148.3 138.8 139.1 130.4 126.2 120 116.4 112.2 108.5 105.4 102.1 101.9 104.8 109 109.4 120.6 126.5 128.9 134.3 136.9 139.8 141.9 142.6 142.8 143.4 142.1 139.8 143 146.1 146.2 144.5 138 144.3 152.4 168.4 175.1 175.6 169.4 171.8 165.4 171.6 182.9 187.5 191.4 193.1 195.5 201.2 204.9 204.4 208.4 212.6 220.8 228.2 235.9 242.6 250.8 257.4 262.9
498.3 493.8 488.8 483.6 477.3 471.5 472.9 476.2 481.4 488.3 498.3 504.9 510.7 520.1 524.3 527.9 531.7 539.2 547 557.4 567.1 575.3 581.1 586.4 590.9 597.3 604.2 609.5 611.3 610.3 603.6 579.7 544.5 517.5 490.8 473.3 459.2 456.2 453.6 456.9 470.3 495 520.5 538.2 549.7 557 562.5 564.5 571.6 575.6 575.9 587.8 601.4 614 621 624.8 629.5 629.4 631.4 629.1 628.5 625.5 621.6 612.8 602.2 590.9 577.8 560.4 545 531.7 520.2 509 503.8 502 501.5 496.3 494.3 493 492.2 485.6 477.6 468.1 456.6 445.9 433.1 417.1 400.8 385 376.2 368.4 358.2 352.2 346.8 338.5 334.4 334.3 330.7 326.8 320.2 311.9 302.5 299.9 301.2 297.7 295.4 290 282.9 277 271.1 267.1 264.5 269.9 268 269.4 270.5 275.1 280 284.5 286.8 287.2 292.3 293.9 294.7 292.9 296.3 296.2 296.4 291.4 282.1 272.5 262.7 254.4 244.2 233 220.6 210.9 198.7 187.2 179.8 170.5 164.1 157.8 151 146.6 136.2 129.3 123.7 120.5 116.6 113.6 112.2 109.2 106.6 105.3 101.6 99.7 107.8 110.1 121.3 127.6 130.5 134 136 137.5 138 137.6 140.5 137.3 135.4 136 141 139.1 136.4 147.7 167.6 181.6 193.5 201.1 199.2 196.4 192.1 192.1 190.8 191.6 195.9 204.6 211.2 219.1 227.3 227.6 224.3 223.6 225.6 229.1 236.4 242.5 247.3 253.8 257.5 261
507 503.9 502.4 498.4 492.1 489 488.9 490.1 491.3 499.1 504.2 510.3 511.8 514.5 515.8 519.2 525.2 531.6 540.9 550.6 561.2 568.1 573 575.9 580.2 585.8 593.1 601 604.7 606.4 604.8 594.3 567.2 533.7 507.9 490.7 480.3 474.5 466.9 465.4 479.4 503.6 528 547.1 561.5 572.4 581 587 589.6 594.8 594.2 602.8 613.5 625 630.9 634.5 636.8 636.8 634.4 631.5 624.3 621.7 615.9 607.3 591.9 577.2 560.9 539.8 522.3 509.4 498.9 485.3 477.5 475.3 472.2 469.6 470 472.7 473.1 474.1 470.3 462.9 457.8 450.3 441 424.7 409.5 393.5 379.3 369.4 361.2 354.5 347.9 342.7 337.5 330 325.2 320.5 319 304.6 310.2 309.8 308.6 306.9 304.4 298.5 291.7 283.8 275.1 270.1 265.3 260.5 261.6 263.1 263.5 265 269.9 276.4 279.9 280.5 280.8 285 286 289.8 292.1 292.4 291 290.3 283.5 274.7 265.5 259.3 250.1 238 228 216.3 205.2 193.1 184.8 176.5 170 161.9 153.8 146.6 143.7 139.8 129.7 122.6 118.3 115.2 113.3 108.9 107.1 105.7 104.5 104 99.1 107.2 111.4 122.9 128.3 130.7 132.1 134.7 136.8 135.6 136.7 135.3 133.1 134.7 135.4 130.3 151.4 170 182.6 197.8 208.5 214.6 217.2 217.3 217.8 219.2 219.7 220.3 224.4 230.4 237 241.2 243.9 241.3 236.2 232.2 230.5 236 241.7 246.3 249.1 252.5 256.9 258.6
512.5 511 509.3 506.2 501.5 498.1 500.7 502.1 505.1 508.3 509 510.8 507.8 505.9 506 507.5 512.7 521.3 532.2 545.3 555 560.6 562.9 564 567.3 574.2 581.5 589.6 597.1 601.8 603 601.6 587.3 558.6 527.8 519 503.2 492.1 482 474.4 488.7 509.2 533.1 553.3 570.3 584.1 595.1 602.4 605.3 608.9 607.9 617.5 626.6 634.5 638.5 639.4 642.6 640 636.9 630.5 622.5 618 606.9 597.7 580.8 562.8 545.6 526.1 508.8 494.2 481.3 469.1 459.3 453.1 448.4 446.8 447.8 448.2 450.9 454.1 453.4 453.3 452.2 447.3 441 429.5 415.1 401.9 388.1 375.3 364 357 351.5 345.9 341 334.1 327.4 323.3 310.4 316 316.5 316.6 317.5 319.5 315 307.9 299.7 294 285 279.9 273.9 260.9 257.4 253.4 256.2 259.1 261 266.7 272.9 275 274.9 274 274.2 280.6 284.8 285.5 284.8 285 280.4 275.6 269.6 260.7 253.7 240 229.5 219.7 210.8 200.2 190.6 182 174.3 167.6 158 149.3 143.9 136 133.3 128 122.2 118.2 114 110 111.7 105.9 104.6 103.6 103 99.1 107.6 118.6 125.5 128.2 129.8 132.9 133.7 133 134.9 132.2 129.9 131.3 132.1 138.8 162 178.7 194.4 207.6 218.9 224.5 225 226.7 229.3 232.2 234.1 237.3 241.8 248 251.9 253 252 249.1 242.4 234.8 232.4 238.4 243.9 247.6 250.4 253.6 255.1 255.5
513.3 513.5 512.1 509.8 508.6 506.6 508.4 511.1 513.8 515.1 511.1 506.2 500.1 495.2 492.7 493.7 499.5 510 523.5 536.8 545.8 549.2 548.7 548.8 554.3 563 570.4 577.3 586.7 594.9 600.4 605.5 603.6 587.4 559 533 516.3 506.9 498.2 492.4 498.5 514.8 537.3 559.1 577.8 592.2 603.9 612.7 616.8 623.2 624.8 630.1 636.8 642.4 645.5 644.7 644.3 639.4 634.4 630.5 620.8 612.8 602.7 588.8 572.2 554.5 536.1 517.3 499.5 485.1 467.2 456.8 450.4 442.7 436.6 432 430.7 431.2 432.4 432.1 436.3 439.6 440.5 438.8 433.3 425.5 416.4 407 394.4 381.3 368.9 359.1 354.3 349 343.2 335.2 328.9 319.5 312.7 321.2 322.7 324.6 329.9 331.1 325.9 317.6 308 303 293.2 285.6 278.7 273 264.7 257 251.8 251 252.7 259.2 262.5 268.8 269.5 268.3 268.3 271.8 276.6 279.9 279.4 278.9 275.4 274.3 268.2 261.3 252.2 245.8 233 222.1 212 204.2 195.1 185.9 180.2 172.4 164.2 153.3 147.8 142.2 137.1 134.7 131.1 124.7 120.7 116.9 109.7 106.9 104.8 103.7 102.5 99.2 104.3 111.7 121 125.8 128.5 130.6 131.5 130.5 132.4 130.6 126.3 123.2 131.4 150.5 168.5 184.8 200.3 212.8 224.6 235.5 235.3 233.5 234.3 236.5 240.4 244.4 249 255.2 259.1 259.5 257.8 254.3 248.1 235.6 232.5 238.5 242.3 246.1 252 252.9 252.5 250.2
510.3 511.3 508.7 506 508.4 509.9 511.8 514.7 517.1 515.3 507.8 497.9 489.5 481.7 477.4 478.7 487.7 499.5 513.2 527.1 534.7 534.8 532.4 534.1 539.4 548.5 556.1 566 576.6 588.3 596.7 604.8 606.4 603 585.6 555.6 530.8 518 514.1 507 512 521.4 544.3 568.3 585.4 599.9 614.2 624.4 631.1 638.1 640.2 641.5 643.7 646.7 645.8 643.9 641.4 639.6 633.5 627.3 619.3 608.5 598.8 585.3 565.7 547.4 531 513.7 490.6 486.3 477.5 466.1 455.3 445.6 437.5 430.1 420.5 421.6 418.4 416.6 418.1 421.4 422.9 422.3 422.2 419.1 413 405.2 393.1 381.6 371.3 362.9 357.1 351.5 345 336.9 331.7 326.4 319.8 328.6 332.1 337.7 341.5 339 333.7 326.7 317.9 309.2 300.1 290.8 283.2 277 270.4 262.5 254.1 248.4 247.6 249.8 254.1 259.1 264.8 264.6 265.3 267.2 271.9 271.9 272.4 271.2 271.9 269.8 265.1 258.4 253.4 247 236.2 226 216.2 205.7 199.9 190.5 184 175.8 168.3 159.4 152.1 146.3 140.1 137.6 135.7 129.7 123.6 120.7 116.7 109.8 112.1 105.2 103 98.9 103.5 107.3 116.3 123 128.1 129.8 130.1 130.1 130 126.5 115.8 127.3 140.9 154.1 170.3 190.5 201.3 214.3 227.5 239.9 245.7 239.3 238.7 240.7 245 248 252.8 259.3 264 264 260.8 256.8 250.1 238.1 229.4 229.5 238.1 242 248.9 249.8 247.4 245.8
503.1 502.9 501 497.8 501.6 503.6 507.3 511.3 512.8 509.2 501.1 487.5 475.8 466.5 462.1 465.7 475.9 489 503.1 514.7 521.2 521.2 518 517.6 525 532.4 541.3 554.2 566.8 579.8 593 602.2 608.4 609.3 603.6 581.3 553.7 532.6 526.4 526.9 531.5 536.7 552 576.3 594.8 610.5 626.2 637.7 646.8 649.6 649.8 650 650.4 652.6 650.6 646.5 641.3 636.2 632.7 623.3 618.3 604.3 591.2 578.4 562.5 547.7 530.5 511.4 508.4 501.5 492.8 481 467.8 456.5 443.4 431.6 424 413.5 412.8 409.2 406.6 405.1 407.1 408.7 409.6 407 401.9 396.3 388 381.1 372.9 366 360 353 347.7 341.4 336.1 321.4 329.7 335.4 342.4 349 351.2 348.8 340 333.5 324.6 316.2 305.7 299.2 291 282.3 275.3 267.5 258.8 250.8 245.3 244.2 247.9 252.2 256.8 259.6 261.5 263.1 265.7 265.6 266.9 265.5 266.3 263.6 258.4 253.3 249.9 244.8 236.9 225.3 219.2 208.9 201.4 192.1 183.9 176.5 171.1 164.1 156.5 150.9 144.3 138 137 132.1 128.7 128.8 128.7 118.2 113.3 109.2 108.5 104.1 98.4 103.2 112.5 117.9 125.3 128.1 128.2 127.5 129 119 125.3 132.7 143.5 157.6 169.9 185.6 200.2 211.6 225.5 237.4 243.8 246.5 242.2 243.5 246.1 249.8 253.2 259 263.2 265.7 263 256.6 250.8 243.7 233.2 225.5 223.6 232.2 237 239.6 239.2 239.2
495.3 492.8 488.6 485.9 490.5 495.5 499.9 503.2 504.7 500.6 490.2 475.9 461.6 453.9 449 453.1 464 477.7 489.8 501.1 506.6 507.5 502.5 502.5 510.1 518.4 529.1 544.2 559.6 574.5 589.4 601.6 610.2 614.2 612.4 603.6 583.7 563.4 549.7 548.9 551.6 558.9 562.6 582 604.4 623.3 639.9 651.1 655.8 656.4 656.8 655.6 654.8 654.2 652.4 647.9 642.6 635.5 628.2 621 612 601.9 586 573.8 563.4 549.7 529.1 531.2 526.8 521.4 509.8 495.6 481.7 467 453.9 441 426.2 417.6 407.2 403.9 401.1 397.1 395.2 395.1 394.6 392.4 389.7 383 379.6 375.4 371.7 366.8 360.9 354.2 349.4 344.2 339.3 325.2 340 347.8 355.6 359.1 359.4 355.6 347 338.6 330.1 322.7 314.9 305.4 296.8 289.7 279.1 271.4 263.5 257 246.3 242.7 242.6 247.6 252.6 252.9 254.4 259.4 262.1 261.9 261 260.3 259.1 259.2 254.5 250.2 244.2 239.6 233.4 224.7 219.5 211.3 202.7 195.2 187 175.6 172.1 167.9 163.8 159 152.7 145.8 140.1 132.9 130.6 131 132.9 130.2 123.3 120.9 111.3 110.7 108.3 98 102.7 117.8 121.4 120.6 120.8 122.6 114.4 125.2 128.8 134.2 147 155.7 170.7 187.4 196.8 210.5 222.3 234.3 244.8 247.2 245.4 243.3 245 247.2 249.9 253.9 256.9 260.9 259.9 255.7 249.7 244.3 238.1 229.3 220.8 218 225.7 227.9 230.2 231.6
485.7 482.6 476.3 472 476.8 482.1 489 492.3 494 490.1 478.7 464.5 450.7 440.2 437.1 440.3 452.2 463.6 477.2 486.8 491.6 492.1 485.7 486.1 495.7 505.9 519.9 536.9 554.7 570.6 586.7 601.4 612.6 618.2 619.4 615.4 607.6 593.9 582.3 579.4 582.5 587.3 589.7 592.7 615.5 635.1 649.6 657.2 662.3 663.2 661.2 659.8 657.7 655.8 653.2 648.1 641.8 633.2 624.5 617.4 608.2 597.7 582.2 567.6 559.3 545.9 549.1 548.5 547.2 540.8 528 510.2 491.5 477.6 463.7 449.2 431.5 420 412.3 405.5 394.2 391.2 388.7 384.2 382.4 380.2 378.6 377 375 371.5 367.4 363.4 359.1 353.2 348.5 344.3 331.3 339 350.5 358.3 363.6 366.2 361.4 357.7 352.7 341.8 332.4 326.3 319.8 310.5 302.7 293 284.1 276 267 257.8 251.4 242.7 240.2 240.2 247.2 248.7 249.9 251.4 258.2 259.2 256.9 256.8 253.8 253.7 249.9 246 240.4 235.8 228.8 223 216.5 209.3 200 193.8 188.5 176 173.2 170.6 168.5 164.7 158.8 153.1 146.2 140.9 135.9 130.2 131.8 133 130.4 122.8 119.6 115.9 110.9 105.7 101.7 98.2 115.5 113.8 109.5 105.5 121.1 127.9 128 134.1 141.3 156.6 171.1 186.4 197.4 206.7 219.7 232.5 244.3 247.2 247 243.6 240.7 240.9 241.6 244.7 246.3 249.4 251.9 251.9 246.7 242.6 239.9 234.3 226.4 216 215.4 219.7 221.5 223.4
475.6 469.7 462.6 457.4 460.7 465.7 472.9 479.4 482.4 478.2 468.2 453.5 438.4 427.6 425.5 428.2 438 451.5 463.3 470.5 475.5 474 471.2 470.7 480.4 495.5 513.3 530.6 550.7 567.4 584.7 601.7 613.6 622.5 625.8 625.3 621.4 616.8 615.2 615.5 616.1 616.2 621.1 618.5 628.6 646.9 657.9 665.3 668.5 668.3 665.7 662.5 659.6 656.8 652.5 647.2 641.1 632.9 624 612.4 603.3 593.2 577.9 569.8 567.4 564.9 566.2 567.3 564 556.1 544.3 528.4 507.6 485.6 470.1 454.2 438 424.4 414.8 405.9 397.8 390.4 382.1 380.7 377.5 376.2 374.2 371.8 370.3 366.8 362.9 359.1 355.4 350.2 344.2 340.2 336.7 350.9 357.1 361.2 366.5 365.7 361.2 355.8 350.8 342.3 333.1 326.6 319.2 312.6 305.8 298.7 289.9 280.4 272.1 263.3 253.4 246.9 237.3 238.6 238.3 245.9 245.2 245.5 250.6 252.4 255 255.3 250.8 248 246 242.5 238.3 232.1 226.1 218.3 211.4 203.4 196.6 193.8 186.5 177.2 174 170.4 169.5 168.3 163.1 157 152.2 146.3 142.3 137 130.4 130 129.5 127.7 123.8 117.7 112.6 109.5 102.7 96.1 102.4 104.1 111.5 129.2 129.1 131.5 128.5 134.1 143.9 156.7 171.8 185.4 197.7 207.2 216 228.5 236.9 242.4 242.5 240.2 237.7 234.3 236.1 236.6 234.5 238.1 241.6 243.4 241.2 239.1 235.9 234 227.4 217.3 211.1 214.9 215.3 218.9
463.9 455.2 448 443.6 445.6 450.2 457.4 464.8 469.2 466.5 458 444 429.4 418.4 414.9 417.2 425.8 437.1 448.5 455.7 458.7 456.1 452 451.1 468.7 488.2 509.3 528.7 547.8 567 586 602.4 616.7 627.2 632.2 634.1 632.1 633.1 635.3 636.2 639.4 642.4 643.7 643.5 648.2 657.7 665.8 669.1 671.1 670.5 668.8 663.8 660.8 657.1 652.3 646.5 640.7 632.4 625.7 616.8 605.5 594.1 588.6 587.4 584.7 584.4 584.6 580.7 577.6 570.7 558.2 540.3 514.9 494.5 475.1 455.8 442 429.5 418.8 407.1 397.6 392.4 385.2 378.9 371.9 368.9 367.8 365.9 362.6 359.7 352.2 349.1 347.3 343.3 341.2 340.4 353.4 357.9 362.5 362.1 363.7 362.5 355.8 351.1 344.6 338.7 331.7 326 319.5 312.3 307.1 300.2 292.5 283.6 275 266.5 257.8 248.8 242 237.9 235.7 241.4 242.6 241.9 245.5 248.9 247.8 249.9 247.9 245.1 241.8 239.1 236.1 229.6 223.8 216.5 207.8 201.6 193.8 187.8 181.2 178.1 178.1 173.7 169.6 168.4 167.6 162.6 156.4 152.1 147.1 143.1 140.4 133.4 128.9 131.3 122.9 121.1 113.5 108.8 95.2 105.8 99.3 107.5 122.1 124.1 127.5 126.1 128.8 132.2 140.5 154.3 166.4 181.9 193.7 206.4 214.4 224.3 232.8 236.1 235.7 235 232.5 227.4 225.6 222.9 221.4 227.1 229.5 231.8 233.1 232.9 232.1 227.8 223.6 218.6 210.3 209.4 211.1 213.6
447.6 437.2 430.2 428.2 431.8 437.2 444.3 452.2 457.7 455.8 448.5 433.6 420.8 410.5 403.7 404.2 413.3 422.4 431.1 437.1 441 438.4 433 456.1 473.4 492.8 512.8 532.4 551.2 570.3 587.8 604.8 621.9 634.4 641.5 644.6 648.8 647.6 647.5 649.2 652.3 654.2 657.2 658.4 661.3 666.9 671.1 673.5 672.7 671 667.6 664.8 659.8 656.3 649.6 645 640.1 634.3 629.1 622.1 612 609.2 602 598.5 596.6 595.4 594.2 590.8 585.9 572.9 555.2 534.7 511.9 492.6 473.7 456.4 442.5 430.3 417.5 408.4 400.2 393 386 380 374.8 367.4 363.8 362.5 361.6 359.7 358.1 359.2 358.3 356.1 357.7 359.5 364.2 365.9 365.8 363.7 358.7 354.9 349.4 343.8 337.9 332.3 327.8 323.4 317.7 311.9 306.7 300.3 293.7 285.9 278 269.8 262 252.8 243.9 239.2 232.8 232.6 240.1 239.7 241.2 245 246.4 246 243.3 243.6 238.8 236.3 233.9 229.1 221.6 216.5 207 197.8 190.7 183.9 179.3 176.8 179.1 176.8 174.1 169.6 166.4 165.6 161.9 155.4 150.1 147.2 145.4 142.1 137.3 131.2 130.1 125.5 116.4 109.4 94.2 110.8 122.6 121.5 121 121.2 124 124.4 124 128.8 133 146.3 162.3 178.2 193.6 206.9 213.9 219.8 223.3 226.1 228.8 227.7 222.4 218 216.6 212 212.3 216.4 218.1 222 222.7 224.7 223.9 222 217.5 214.6 211.6 207 206.5 206.9
432 419.6 414.9 413.3 418.7 426.2 432.3 439.5 445.9 445.6 438.7 424.5 412.4 400.8 390.3 392.8 400.7 409.8 418.4 424.6 425.9 420.2 443 461.2 480.6 501 518.8 537.9 556.5 575.9 592 612.8 629.6 642.6 648.9 655.9 657.4 657.5 657.9 658.5 661.7 663.4 666.2 667.3 669.3 672.2 673.1 673.4 672.7 669.3 665.9 663.4 658.9 657.2 651.1 646.2 641 635.5 630.8 626.9 623.2 616.7 611.7 609.2 605.1 603 597.8 587.4 576.8 564.7 545 524.3 507.5 487.2 469.5 451.6 438.4 425.7 414.9 405.9 399.1 392.3 384.8 377.7 372.8 374.4 372.9 370.3 369.1 369.2 370.4 369.7 366.9 366.3 368.4 372.3 372.1 369.9 366.9 362 355.1 349.2 342.6 336.8 331.1 326.4 322.6 319.5 314.3 308.7 304.7 299.5 294.3 287.6 280.6 271.9 265.1 256.3 246.8 239.9 231.8 231.3 238.5 238.6 239.2 242.3 244.5 245.6 241.6 237.4 235.3 232.5 230.8 226.9 220.7 215.7 207.1 199.1 187.9 182 178.6 176.6 179.2 175.3 176.5 173.8 169.2 164.3 163 160.7 152.6 149.7 147.8 147 142.8 137.9 130.4 127.4 121.9 111.5 102.7 102.2 115.8 121.5 120.9 120.3 123.3 124.4 126.3 126.1 131.3 141.1 156 171.5 187.8 200.4 210.6 217.3 214.7 214.7 214.2 212.7 208.2 206.1 208.4 206.1 204.6 202.9 204.5 204 207.9 213.2 215.9 214.3 211.1 208.8 208.1 205.7 201.4 201.4
417.4 405.4 401.5 399.6 405.5 414.1 421.6 428.1 433.2 432.7 425 414 402.2 391.4 383.5 376.7 388.1 398.3 403.7 408 412.2 432.9 451.6 469.4 487.7 507.6 524.8 544.5 563.1 582.3 601 618.9 634.2 647 654.9 659.9 660.6 660.9 661.6 662.2 664.6 668.9 670.8 672.8 674.5 674.3 674.1 672 671 665.9 663.6 659 655.7 652.7 650.5 647 643 639 634.4 631.9 628.8 625.6 619.5 615.7 610.7 603.6 590.6 575.9 560.4 545.7 531.9 514.3 496.6 480.7 462.2 447.3 433.7 422.6 411.8 397.5 387.6 386.3 385.5 385 383.5 381.5 380.8 379.8 378.9 377.6 379.8 382.2 382.4 382.8 383 383.9 381.6 376.5 369.9 361.9 353.4 345.7 338.7 331.3 325.6 321.2 317.6 314.6 311 306 301.3 298.2 293.2 288.4 281.8 274.5 266.8 258.4 250 240.9 232.4 228.1 232 238 238.1 241.4 244.2 246 242.5 236.7 230.3 228.7 226.8 223.2 218.8 213.7 205.1 198 188.8 181.1 176.3 172.8 172.9 173.2 175.1 175.1 172.5 168.8 163.3 163.9 160.3 155 148.5 146 143.2 139.8 137.7 126.5 125.6 119 109.7 93.4 108.6 114.4 120.8 119.1 119.2 122.5 122.2 121.8 127.2 133.9 148.3 162.5 177.1 188.8 198 203.8 202.9 201.4 204.4 203.3 200.6 199.7 199.5 198.2 197.2 195.2 193.2 195.5 194.5 201.8 200.6 199.5 198.8 199.5 204.1 201.6 197.6 195.3
401.7 394.1 389.1 386.4 393.2 401.7 410.2 416.3 420.1 418.7 412.6 401.8 391.5 381.6 372.8 369.9 378.8 381.9 383.1 399.5 424.7 444.2 461.4 479.9 498.2 516.4 533.8 552.9 571.6 590.2 606 622.9 635.1 648.2 655.4 658.9 658.9 659.3 659.4 660.7 663.8 667.7 671.3 674.1 673.2 674.4 676.4 674.5 669.1 665.1 659 654.9 651 648.2 646.9 644.9 642.4 640 637.3 635.4 633.6 628.7 623.7 617.1 606.1 588.9 570.9 555.8 540.6 525.6 511 498.3 485.1 468.6 453.8 438.6 424.8 409.4 398 397.1 400.9 401.8 401 397.1 394.3 393.3 391.1 392 389.8 391.8 393.1 394.9 396.5 398.3 398.5 394 390.4 383.7 374.9 364.9 354.7 344.4 335.9 328.1 321.9 316.8 313.1 309.9 307.8 303.8 298.9 295.5 291.7 287.6 281.9 275.1 267.7 259.6 251.1 244.4 237.1 226.6 226.8 235.8 238.2 242.8 243.7 246.3 243.3 237.5 230.2 223.1 219.7 219 215.5 209 200.9 194 190.1 182.8 175.5 170 165.9 169.2 172 174.5 173.3 171.4 165.2 162.9 164.3 159.8 154.9 151 147.6 143.5 138.8 133.5 126.3 125.4 113.9 108.7 93.2 107.8 115.4 118.6 118.3 119.9 121.4 121.8 124.1 127.3 140.6 151.6 162.3 176.7 184.6 192.2 194.7 196.1 196.4 196.7 194.8 193 191.6 190.2 190.1 187.1 186.7 186.3 187.6 188 189.7 191 192.2 193.1 198.1 197.9 195.8 189.8
389.8 381.6 378.7 375.9 381.6 390.4 398.1 403.4 407.5 406 398.7 388.5 379.8 371 361 364.4 369.6 391.3 407 423 440.7 457.7 474.5 492.4 508.6 525 542.2 560.5 577.7 594.2 608.4 621.3 633.1 642 648.2 651.9 654 651.8 651.6 655.3 658 662.1 667.1 668.7 673.3 677.7 676.3 674.3 669.7 664.1 658.9 652.6 647.5 642.8 641.3 640.4 640.5 639.3 638.9 637 633.5 627.7 620.1 607.3 587.7 568 552.7 537.2 521 505.2 489.5 476.4 461.2 449.6 435.2 420.9 409.2 403.9 413.4 415 413.9 415.7 415.9 414.3 409.9 407.1 403.5 399.7 401.7 406.3 407.5 408.1 410.5 410.7 408 403.3 396.3 387.9 378.9 370.2 358.2 348.3 336.9 328.3 321 313.8 309.2 306.7 303.8 300.3 295.9 292 288.9 285.9 280.5 274.9 267.6 258.9 252.3 245 238.2 224.6 224.6 228.9 237.5 240.8 243.2 245.5 243.5 237.8 233.2 226.3 217 212 210.5 206.3 195.4 188.5 182.1 177.7 175.6 171.1 164.7 163.5 167.3 171.5 172.5 171.5 168.1 161.3 162.8 165.9 164.2 160.6 154.1 147.5 141.4 136.1 129.7 123 123.7 112.1 108.3 92.8 108.3 115.8 119.3 117.2 116.9 117.1 121.7 125.4 131.8 142.6 153.1 164.1 174.5 182.2 187.2 190.4 190.4 189.1 188.3 185.8 185 183.6 181.7 180.5 180.1 180.6 181 182.3 184.5 185.9 187.8 189 191.1 193.3 191.4 187.8
378.4 370.5 367.9 365.6 371.1 378.7 385.3 392.8 396.4 395.6 389.3 380.1 370.5 362.6 354.2 358.2 380.1 395.7 414.8 431.6 450.6 467 484.5 501.4 516.5 532.7 548.2 566 581.4 596.3 608.8 618.4 626.4 633.2 637 637.6 641.3 640.7 643.1 645.6 649.1 654.4 658.7 663.6 673.1 676.3 675.9 673 668.4 663.7 657.7 651.3 645.1 638.5 635.5 635.8 636.7 636 635.2 632.4 628.5 622.2 611.2 591.2 567.8 551.1 536.5 519.4 500.4 482.9 465 447.3 432 424.3 420.1 424.4 427.6 431.8 433.8 434.2 435.9 435.8 435.6 432.2 427.4 421.2 419.5 418.4 418.3 418.6 420.7 421.2 421.5 419.2 415 409.1 401.3 391.9 382.4 371.8 360.6 351.7 342.4 332.9 323.3 315.1 308.3 301.7 300.7 297.6 292.7 288.3 285.1 282.6 278.5 273.4 267.8 260.7 254.3 248 238.9 232.5 222.1 222.5 234.6 239.7 242.4 243.4 242.8 238.2 232.5 225.9 219.1 209.7 207.3 201.9 189.9 180.8 175.4 171.4 167.7 158.6 157.2 155.7 158.6 167.2 169 168.8 168.5 162.4 162.2 170.8 169 167.2 162.9 156.6 149.3 142.7 136.9 130.3 121.8 116 110.5 104.9 90.6 106.7 118.4 117.6 116.9 116.8 118.3 121 126 132.9 143.5 153.3 163.7 171.4 178.4 181 182.3 182.2 180.3 179.3 179 176.2 175.4 174.5 175.7 175.4 175.3 178.3 178.6 180.6 183.1 184.4 187.4 189 186.9 184.3
367.7 359.6 356.7 352.1 358.7 366.9 375.1 381.5 385.2 384.3 377.6 370.4 363.7 354.6 344.6 365.8 380.6 400.2 418.8 438.7 456.4 475.1 493.7 508.7 522.9 539.2 554.7 568.6 582.5 594.6 604.3 610.3 616 619.8 621.4 622.2 623.2 624.8 629 632.9 638.1 644.3 651.1 663.3 670.1 673.6 672.7 668.9 664.2 662.2 655.9 649.1 643.3 633.3 628 629.6 630 629.7 627.9 624.5 620 613.4 594.8 572.4 551.8 534.9 517.6 498.1 479 455.1 443.2 454.4 451.9 448.5 447.4 447.9 450.4 452.9 453.7 455.7 453.9 452.5 450.9 448.7 444.6 439.9 435.7 434.3 433.4 433.3 433.1 430.8 428.8 423 416.2 410.1 403 393.5 384.2 374.3 363.2 354.4 345.2 339.1 327.9 318.6 309.2 301.3 296.8 293.7 289.7 285.1 280.9 277.6 275.4 271.7 266.3 261.1 254.7 248.2 241.3 233.9 227.4 221.1 229.2 234.7 240 241.7 241.9 238.4 231 223.7 218 211 202.7 195.5 183.2 174.7 169.1 164.3 159.5 164.2 173.4 168 156.8 148.4 153.2 157.4 164 154.8 158.2 158.2 154.7 152.2 151.2 157.7 155.5 148.2 142.4 136.5 129.2 120 115.8 107.8 100.7 93.9 112.4 115.9 117.1 118.8 114.9 119 122 126.1 133.3 141.5 152.1 160.1 169 172 173.5 173.9 173 173 172 170.7 172.1 171.5 169.8 169.3 170.7 171.4 174.4 176.6 178.7 180 182.9 184.6 183.6 182.2
355.4 348.8 345.8 341.9 348.3 355.1 365.3 371.1 373.1 372.8 366.6 360.9 353.7 345.6 346.2 365.2 384.3 404.5 424.7 444.2 463.9 483 500.2 514.8 529.1 546.6 560.1 570.8 582 589.7 595 597.3 599.6 601.1 602.7 603.8 605.1 602.6 606.4 613 621.5 632.9 645.5 658.6 665.7 669.6 668 664.1 660.2 658.1 655.7 649.1 638.8 624.5 617.1 620.8 621.7 620.8 619 615.6 609 601.8 580.8 559.3 536.9 516.8 494.9 469.5 472 478.2 482.4 480.3 472.9 468.8 469.7 470.6 473 474.3 475.8 475.8 475.8 473.2 470.4 466.6 462.7 458.5 454.5 451.9 448.7 445.2 439.9 432 426.3 420.4 413.5 407.7 401 392.8 384.1 373.1 363.8 356.9 349.7 342.4 332.8 323.7 313.5 303 295.2 289.8 286 281.8 278.4 274.9 272.2 269.3 264.9 260.3 255 248 242.1 234.9 228.7 216.8 221 229.7 236.3 239.9 240.7 238.3 232.5 224.6 216.7 210.3 203.4 192.1 177.4 168.2 164.3 163 160.5 187.1 189.1 184.7 177.9 160.1 152.7 144.6 148.4 149.4 143.6 144.2 138.7 132.4 137.2 136.2 151.8 153.8 146.2 140.1 132.8 124.5 116.9 109.4 106.2 92 101.9 116.4 119.5 115.7 114.4 113.6 117.1 121.3 126.4 133.3 141.8 149.8 157.7 163.5 167.9 168.6 166.3 166.1 166.5 166.8 167.9 167.4 165.8 165 165.7 167.6 169.5 172.7 175.7 176.6 178.3 179.8 180.2 178.3
344.4 341 336.2 332 337.3 346.1 352.5 359.6 363.5 361.4 356.7 350.8 344.7 333.4 348.2 367.1 388.8 407.6 430.5 451 469.7 488.7 505.7 520.3 536.4 550.4 562.8 569.9 576.7 581.5 582.4 580.6 579.2 579.3 581.1 581.6 581.5 580.7 585.8 592.9 604.8 623.9 639.2 652.4 661.3 666.5 666.5 663 661.3 657.4 653 644.2 632 620.8 611.5 605.6 609.9 607.9 607.5 605.8 598.5 586.9 569.9 547.2 523.8 498.8 485.1 495.7 503 508.2 508.4 502.9 493.1 490 492 493.6 494.8 496.5 498 496.8 498.2 496.3 493.6 489.9 483.8 477 471.4 464.9 458.3 450.8 439.8 429.8 421.4 414.1 407.9 402.5 395.4 389 380.6 371.8 362.3 355.3 349.1 341.9 334.6 325.6 317.1 307.4 296.8 289.1 283.3 278.5 275.1 272.1 270.1 267.6 264 259.5 254.2 247.8 241.9 236.5 230.6 217.9 214.1 225.5 232.9 237.2 238.6 237.8 232.9 224.6 217 209 197.1 186.5 169.6 165.1 164.3 163.8 186 198.6 201.4 198.1 196.2 192.4 180.9 171.9 164.3 162 158.6 158.6 165.4 156.9 155.8 141 127.1 144.5 140.9 142.2 136.1 129.1 121.4 112.5 108.2 103.3 92.4 113.5 117.4 115.1 115.4 114.3 115.6 116.1 120.2 127.1 134.6 141.7 149.9 153.9 159.2 161.4 162.3 161.1 162.4 161.7 162.6 163.1 161.6 162 161.8 164.3 165.5 169.5 172.1 173.8 174.4 175.3 176.2 175.1
335.1 331.5 326.8 321.5 326.5 335.1 342.5 346.4 352.2 350.6 348.1 340.5 324.7 336.4 353.2 371.9 392.3 413.2 435.1 456.1 473.9 491.6 508.5 522.2 537 549.6 560.3 565.1 567 568.1 566.3 563.5 559.6 557.8 559.6 557.7 558.4 562.2 566.8 577.8 596.2 616.4 634.4 648.7 660.1 664.5 663.6 661.2 661.2 657 649.6 641.6 631.3 621.1 610 593.1 590.8 590.7 591.7 592 583.8 570.6 559.9 539.6 517.7 491.5 513.2 521.8 528.3 531.3 528.9 523.2 512.7 509.5 512.2 515.1 516.1 518.9 519.3 519.3 518.6 517 513.1 507.3 499.9 490.5 481.4 470.8 460.2 449 436.1 424.2 414.4 405.8 399.9 393.2 389.6 381.4 375.4 367.8 359.8 352.5 346.4 339.3 333 326.9 317.9 309.1 298.6 290 282.6 276.3 271.6 266.7 266 263.9 261 256.8 252.3 247 241.8 236.9 231.7 224 213.9 217.4 230.3 234.3 236.6 236.4 233.4 224.7 215.1 206.2 195.1 179 170.2 167.8 172.7 183 201.9 213 214.2 211.8 209.4 205.5 203.8 196.8 192.4 189.4 186.5 184.6 182.2 175.9 171 161.1 136.6 135.5 120.9 124.5 115.6 132.5 124.1 115.4 108.4 100.6 96.4 118.1 117.7 116.4 117.1 112.4 114.8 114.5 116.4 120.2 128.8 133.5 138.8 144.9 151.5 155.4 156.3 157.8 157.8 159.1 157.6 156.5 157.2 156 158.5 160.6 163.4 165 167 169.9 170.7 171.4 172.4 171.3
325.1 320.8 316.3 312.3 316.5 324.5 330.4 335 336.3 336.7 335.9 327.5 322.1 340.2 358.1 376.8 396.2 416.5 438.2 458.6 475.9 489.7 505 517.9 532.4 542.2 550.4 553.3 554.3 552.3 549.1 544.8 540.7 537.3 536.9 535.4 536.9 539 549.2 568.8 590 611.6 631.7 646.4 657.3 662.3 663 658.9 656 653 646.5 642 634 622 612.8 603.8 590.6 576.1 574.2 573.8 568.6 558.3 545.8 528.3 504.9 520.2 537.3 545.1 550.4 553.7 551.4 544.4 537.2 532.7 534.4 536.4 538.2 540.1 542.3 541.3 537.8 530.8 523.2 513 507 495.4 483.7 470.1 456.6 442.8 428.3 415.1 404.1 395.5 389 382.4 378.4 371.9 365.2 357.8 352.5 348 341.8 337.2 330.5 323.5 315.6 307 297.6 289.5 282.1 276.3 271.3 265.1 260.4 258.7 255.7 252.6 249.4 245.1 240.4 236.1 230.8 225.1 220.1 210.2 221.7 231 234.2 234.4 231 222.7 213.4 205.3 189.4 172.4 170 173.6 183 192.3 213 225.4 227.7 224.8 220.7 218.5 213.9 209.1 203.6 196.8 197.4 191.5 189 186.2 183.9 171.6 164.5 153.3 126.5 136.2 112 130.1 127 118.2 104.7 96.7 87.8 117.3 117.4 115.2 112.8 111 113.6 115.7 113.4 116.4 122.3 127.8 133.6 140.5 144.6 149 150.4 152.8 153.1 154.8 153.7 152 153 152.8 156.9 157.1 158.3 160.8 162.3 165.7 167.3 169 169.5 169.5
315.7 311.7 309.5 301.7 307.5 315.3 319.1 321.7 322 323.8 321.1 309.8 328.4 344.4 360.7 378.7 400.2 420 439 456.6 473.1 485.3 496.5 509.6 522.7 530.4 534.2 537.6 536 535.6 531 526.2 520.2 517.2 513.4 512.2 512.8 516.1 539.3 561 583.4 608.4 626.7 642 653.4 658.6 659.7 656.8 653.3 649.6 645.9 642 636.6 631.7 626.3 619.8 606.9 591.9 572.3 559.1 556.7 548.2 535.1 520.8 530.5 544.7 557.7 563.8 569.3 572 572.9 568.6 563.8 559.7 559.8 560.4 562.4 564.4 563.8 559.4 551.8 542.5 531.4 519.9 506.3 494.1 481.5 465.4 447.9 432.7 417.3 403.8 391.9 383 376.2 369.9 365 358.4 352.1 348.1 343.8 339 335.3 329 323.9 319.6 310.4 302.3 294.9 288.8 283.5 277.2 271.9 265.3 257.7 253.8 250.9 248 245 241.5 237.7 233.9 229.6 225.8 220.3 212.9 218.7 227.2 231.2 231.3 226 219.1 209.8 201.9 191.6 171.8 175.8 182.9 190.1 204.2 225 240.4 239.4 239 234.2 227.7 222 216.9 210.9 209.4 201.4 200.7 195.5 191.2 186.3 181.7 174.5 165.3 154.7 143.4 130.1 111.5 99.8 118.1 105.5 96.4 86.2 117.6 115.1 113.5 111.1 109.1 112 115.1 113.3 114 117.4 123.2 129.1 133 135.3 138.5 145.3 148.5 149 150.3 150 149.2 150 150.3 154 154.9 155.4 159 161.1 164.2 167 168.7 169.6 169
307.3 303.9 302.6 298 298.7 305.7 310.1 310.8 312.2 311.6 302.8 316.7 334.5 348.9 365.3 379.6 400.3 420.4 439.1 454.1 466.8 477.6 488.4 500 510.3 518.3 520.5 520.1 518.8 518.4 513.1 507.8 502.5 497.1 492.3 488.9 486.7 503.7 529.4 552.4 576.1 600.3 620.4 637.9 648 654.3 656.1 655.4 652.9 650.7 647.4 646 640.6 638.5 634.6 628.5 620 603 585.6 566.6 554.7 542.1 538.3 542 550.8 564.1 572.9 580.6 587.4 590.5 590.8 589.6 585.7 583.2 584 585.8 586.7 584.7 580.2 572.8 562.8 549.9 536.5 520.9 505 489.1 473.4 454.1 436.1 420 405.7 392 380.6 370.9 363.9 357 350.9 344.9 344.1 343 337.6 331.8 326.9 321.7 317.1 313.2 308.9 300.4 293.1 287.2 281.5 276.7 270.5 265.7 257.7 251.4 245.1 240.9 238.3 236.6 233.9 231.1 228.2 224.6 220 208.1 220 223.9 227.1 227.2 220.5 214.5 208.1 197.4 187.9 174.9 182.6 188.8 198.4 220.4 238.5 246.4 245.8 246.8 243.1 236.6 230.8 222.5 219.1 212.9 209.5 204.5 200.2 196.5 192.4 189.3 183.9 176.7 163 154.3 140.7 133.4 124.1 98.7 107 96.3 96.4 102.8 104.2 104.9 103.7 99.2 101.4 113.6 113.9 112.4 114.4 119.3 124.5 127.2 131.1 134.5 139.3 142.2 145.3 146.5 147.2 147.2 147.6 147.8 151.4 152.5 155 158.8 162.5 165.1 168.1 170.4 170.9 171
297.7 295 293.4 290.7 291.7 297.6 299.4 301.8 304.2 296.3 307.7 323.9 337.3 354.5 367.8 380 397.8 415.1 431.8 444.4 457.5 463.7 476.4 485.8 495.3 503.2 505.2 504 501.2 499.8 496.2 489.9 482.5 476.9 472.3 466.2 470.2 495.5 521 544.6 567.1 591.7 614.7 632.3 642.8 650.3 652.8 653.9 653.9 651.5 649.3 647 644 640.4 637.6 631.1 627 617.2 601.4 586 571.7 560.1 562.1 564.3 568.9 579.3 587.1 596.3 603.4 606.3 606.4 607.1 606.5 604.3 604.2 604.1 601.4 597.3 591.7 583.8 570 553.3 537.4 519.1 500.3 481.4 461.9 442.3 424.8 407.9 396.2 383.1 373.6 362.2 354.7 348.3 345.4 340.8 338.1 337.8 332.7 326.9 321.3 315.7 311.6 308.5 304.6 301.4 293.1 287.1 280.4 275 269.7 264.9 255.1 247.5 242.4 235.9 232.1 228.3 228.4 227.4 226 223.6 219 207.8 216.4 219.2 222.9 222.5 215.3 209.7 200.3 190.9 179.1 176.9 186.9 195.2 215 237.3 252.3 253.7 253.3 255.1 247.8 240.1 234.8 227.8 220.7 218.8 214.4 209.6 205.9 202.2 197 191.5 187.4 181.7 170.1 158.8 148.9 139.6 131.8 121.8 109.1 100.7 101.4 91.5 89.9 82.8 92.5 93.7 93.6 93.3 101.4 113.3 113.8 117.9 121.7 123.8 127 131.1 134.8 138.5 140.9 143.2 144.9 145.6 145.8 146.8 148.5 149.9 154.3 159.3 162.7 165.9 169.4 172.2 173.6 172
289.1 287.4 285.7 283 285.4 289.8 292.9 294.4 285 298.6 315.2 328.2 341 356.9 366.8 378.1 391.3 408.7 420.6 432.1 443.4 451.8 459.9 470 475.7 484.5 485.9 484.9 483.5 480.6 475.1 470.8 466.5 458.2 452.7 446.4 461.3 487.9 510.9 534.4 558 581 605.4 624.6 639.1 646.6 651.9 653.9 653.5 652.4 648.5 649 645.4 642.4 639.6 635.3 629.2 623.3 614 603.5 592.1 587.1 584.4 584.5 586.3 592.2 601.4 609.1 613.5 617.1 619.5 620.2 621.4 619.6 617.9 616.7 613.9 608.3 600.6 592.3 577 557.1 537.1 513.3 490.3 470.4 450.7 434.3 421.3 407.6 394.3 386.7 375.5 366.8 359.1 351.5 345.1 337.5 333.1 329.8 326 322.4 318.1 312.8 307.7 304.4 300.2 296.3 293.8 286.9 280.5 273.4 266.2 262.9 254 248.9 244.9 234.6 226.9 222.9 222.4 223.3 223.2 222 219 206.5 205 212.4 216.2 217 210.1 202.1 192.8 181.1 181.8 192 196.7 210.1 232.5 254.6 261.2 261.9 256.9 257.3 251.4 243.8 233.6 228.2 222 219.1 218.7 215.8 210.9 206.1 200.8 197.2 189.1 180.4 176.3 162.3 156.9 149.8 137.7 127.5 119.6 112.8 110.7 103.8 100.3 98.8 94.4 81.8 92.6 92.8 93.4 106.2 112.2 116.1 118.8 120.4 122.9 127 131.1 133.8 136.9 140.3 142.8 144.3 144.8 146.6 147.5 149.7 153.8 158.7 162.4 166.7 169.4 171.9 173.2 171.4
281.3 279.9 277.6 276.8 277.9 282.8 285.2 277 292.3 306.5 319.2 332.7 343.3 357 364.9 372.3 382.5 397.2 408.8 416 427.4 438.4 444.3 451.5 456.5 461.4 465.8 468.2 467 462.9 458.4 455.1 450.8 443.3 432.3 428.4 452.1 475.2 500.4 523.9 546.1 569.9 594.3 617 634.3 643.2 651 651.1 651.3 651 649.2 647.8 646.5 643.9 641.6 636.9 632.1 626.1 618.4 612.3 607.5 603.5 601.7 600.2 600.2 605.6 612.5 618.6 622.7 625.3 628.8 630.9 631.4 630.6 628.8 625.4 621.2 616.1 610.8 599.6 585.4 565.8 542.4 516.3 493.2 476 461.1 445.7 430.3 417 402.1 393.7 382.4 371.6 363.5 354.3 346.8 337.6 328.2 323.6 320.8 315.9 312.2 308.5 304.5 301 297.4 293.5 289.5 284.4 280.7 273.9 266.3 259.3 252.8 245.7 239.3 231.4 229.7 225.1 219.4 218.7 219.1 218.5 216.2 210.9 200.1 204.7 207.4 207.7 201.9 188.4 185.4 183.1 197.2 201.1 205 224.9 248.9 265.3 267.5 267.8 261.4 259.4 254.4 248.2 239.7 230.9 225.2 219.4 220.1 218.6 216.5 210.8 205.9 200 194.4 186.7 176.9 170.2 162 152.2 145.2 135.5 127.6 117.3 111.7 108.6 104.4 102.2 98.4 89.7 91.7 91.3 91.6 92.8 111.6 113.2 114.9 116 119.2 122.4 127.5 129.9 134 137.4 139.7 141.8 143.8 145.5 147.5 149.8 153.1 157.6 161.2 164.7 168.4 169.6 169.6 163.2
275.6 273.1 270.6 269.4 272.1 267.3 268.8 285.3 298.1 309.3 322.5 334.4 342 351 358.9 365.8 372.7 380.7 393.6 400.2 409.5 421.2 427.6 435 439.1 445.7 451.5 453.2 451.3 449 445.8 441.5 434.7 424.8 414 419.6 445.5 465.8 488.4 514.4 538.2 561.7 586.1 610.8 627.2 639.1 646.6 650.5 649.7 649.7 649.8 646.4 643.8 642.4 639.3 636.3 631.1 626 622.2 618.5 616.4 614 612.3 612.8 614.4 617.1 621.1 625.4 628.2 632.5 635.3 636.2 636.4 634.7 635.5 632.4 627.4 624.3 617.2 607.4 594.3 575.3 552.6 527.8 505.7 486.7 472.3 457.8 443 427.8 416.5 406.1 394.4 383.5 374.7 365 353.1 340.9 331.3 322.7 312.7 312 305.6 302.1 299.2 296.1 294.2 291.2 288.2 284.3 279.5 274.3 267.4 259.9 252.7 242.7 240.2 240.1 235.6 230.3 224.8 214.7 212 208 205.8 203.6 199.7 196.3 197.7 195.8 189 185.2 183.5 201.8 206.4 211.9 224.4 242.4 261.5 270.6 274.2 274.1 267.1 262.7 259.5 252.3 241 230.4 223.4 217.3 216.8 216.3 215.4 210.7 204.2 203.7 194.9 187.6 179.6 171.3 163.8 154.7 146.1 141.9 132.9 124.8 114.6 108.5 104.1 104.1 101.3 95.8 81.7 87.5 90.5 89.3 109.8 110.6 112.5 114.9 116 119.4 123.3 126.7 131 134.1 135.6 139.5 141.2 143.6 146.5 149.5 152.1 155.5 158.7 160.5 161.9 162.4 159.5 158
270.6 265.9 263.3 260.3 264.6 267.9 279.2 290.3 299.7 310.5 319.5 329.7 335.3 342.5 350.4 356.3 363.5 370.2 377.6 383 391.1 401.5 410.6 419.9 426.9 431.9 437.5 439.3 436.7 433.6 430.6 425.5 418.1 407.9 396.7 407.9 431.1 455 480.7 508.8 533.6 556.9 581.1 607.8 625.9 638.2 643.8 649 650 647.9 647.1 644.4 641.2 639.3 636.3 632.8 627.8 626.3 624.2 622.2 621.6 620.6 621.5 620.7 619.3 621.2 624.6 625.4 628.6 631.6 634.8 636.2 638.8 637.1 636.1 634.5 632.1 628.4 622.5 613.8 603.7 587.2 564.7 541.1 520.4 500.6 485.1 469.4 454.8 441.4 431.7 421.7 408.3 394.7 383.2 374.2 361.7 349.1 335.8 326.4 318.3 309.8 301.7 298.8 293.3 291 286.5 283.9 281.4 280.6 276.4 270.3 258.3 251.5 254.3 256.4 255.4 251.8 246.6 240.1 231.3 224.4 219.3 217.4 216.5 215.4 214 208.7 199.8 191.1 188.7 189.3 208.9 219.5 226.1 237.4 247.6 255.9 269.8 277.2 281.2 281 278.2 270.5 265.1 256.1 243.1 230.7 222.1 216.3 211.7 211.6 210.5 208.7 203.9 200.8 195.5 189.3 181.7 175.2 167.6 157.7 150 143.6 136.8 128.5 118.6 111.3 104.4 102.9 103.1 96.3 92.4 81.4 90.1 89.3 107.2 109.1 110.8 113.2 114.4 116.4 119.8 124.1 127.3 131.2 133.3 137.2 138.8 141.4 144.7 148.4 151.8 152.9 152.9 153.8 153.4 152.2 154.6 153.3
266.8 261.4 257.5 254.7 256.2 269.1 277.3 286.2 292.8 301.7 310.5 320.3 326 335.5 338.4 344.9 350.4 356.7 359.6 367 373.3 383.3 392.4 402.2 413 418.4 422.6 424 422.2 416.1 411.1 407.6 402.5 391.8 380.4 401 428.1 453.4 480.3 505.9 531.7 555.7 580.8 606.1 624.2 634.4 641.8 645.3 645.3 645.1 644.1 641.5 638.1 635.9 631.9 625.7 623.9 624.5 626.1 623.4 622.3 621.4 621.1 620 621.8 622.3 622.8 622.7 625.4 626.2 628.1 631.1 632.9 633.9 635.8 634.5 633.2 629.4 624.1 618.3 608.8 595.5 578.3 557.7 536.2 516.5 500 484 470.9 460.7 450.1 437.1 421.7 406.8 392.8 380.2 367.7 355.4 342.2 331.1 322.6 317.1 312.1 307.3 303.4 300.2 295.4 291 286.7 280.3 279.3 274 270.2 266.6 268.2 269.2 266.4 262.5 257.9 251 242.7 233.5 222.8 220.3 220.5 218.8 216.1 212.6 207.1 204.1 209.1 211.6 220.3 229.7 240.6 249.8 258.3 264.1 274.8 285.5 288.7 289.9 286.3 278.6 268.1 257.7 242.1 229.9 225.4 216 206.7 205.7 206.2 205.2 202.5 198.1 195 189.8 183.2 174.5 168.4 158.8 152.2 144.5 138.5 130.9 123.9 116.2 103.7 102.8 102.4 95.4 93.2 90.4 83.2 88.7 103.8 107.7 109 110.6 113 115.4 117 121.1 125.2 127.7 130.1 133.9 136.4 138.3 140.5 143.5 146.3 148.4 148.7 148.4 147.4 148.8 147.1 143.1
263.9 257.1 252.4 250.9 253.7 263.4 272.4 278.2 285.1 292.4 300.8 308.2 315.2 322 329.7 334.5 336.8 342.6 346.2 351.7 359.3 368.3 378.2 388.9 397.2 405.1 409.3 409.7 407.5 400.6 395 390.5 387.7 378 372.3 398 427 454 481.7 507.1 532.2 558.4 581.4 604.1 619.5 629.5 637.5 641.9 642.4 643.2 641.9 638.7 634 629.1 624.2 619.1 620 620.3 621.4 620 619.3 617.6 616.8 616.3 616.1 616.3 616.4 616.4 617.1 617.8 617.7 620.5 623 627.1 630.4 632.5 632.7 629.4 625 620 609.9 598.5 585.7 570.6 553.9 536.9 517.8 502.4 488.5 477 461.9 447.5 431.2 416.6 403.2 388.3 375.6 363.1 351.3 338.7 330.7 325.8 321.6 318.3 314 310.4 306.1 299.5 294.1 289.9 287 283.7 281.4 279.7 278.4 277 274.7 271.7 266.4 258.7 248.1 238.6 227.2 222.9 221.8 219.3 215.6 211.5 214.4 217.9 219.1 223.8 228.4 237.5 245.1 254.7 263.1 270.1 281.3 288.5 290.1 289 284.2 274.4 267.6 255.1 241.3 231 224.7 216.3 208.2 202.9 201.6 200.6 198.5 196.4 193.1 186.4 183.4 175.7 170.2 163.1 152.3 145.8 139.8 135.8 127.7 120.4 113.4 102.9 102.7 102.5 93.9 92.2 86.8 84.4 95.1 107 106.1 108.8 111.7 113.5 113.2 117.6 120.8 123.3 127.5 131.3 133.8 134.4 137 139.3 141.5 143.5 143.8 144.2 143.3 140.3 137.9 135.2
262.9 255.3 249.5 243.6 249.9 257.2 265.1 272 275.8 284.6 291.6 299.4 304.9 309.9 318.1 322.3 325.7 330.6 335.5 340.8 348 356.9 366.6 374.6 383.3 392.9 396.3 395 390.5 386.2 379.1 374 371.7 364 366.4 396.8 427.2 454.6 481.7 507.3 534.6 559 583.3 602.9 616.3 626.2 631 636.8 637.7 639.7 638.1 634.4 627.7 620.8 616 612.9 612.9 613.6 613.6 612.1 610.4 608.8 607.6 608.1 607.2 606 606.6 605.8 605.6 604.1 602.8 604.3 609.4 616.3 621.7 625.8 627.6 625.6 622.7 618 609.2 598.6 587.2 574.5 560.9 546.9 530.2 515.3 498.3 483.9 468.2 452.3 437.5 422.1 408.6 395 381 368.2 359.2 349.4 339 334.8 333.7 331.6 327.5 322 315.4 310.6 304.5 299.6 297.9 295.1 291.5 287.9 285.7 282.8 279.2 276.7 269.9 263.3 252.2 242.2 232.8 226.3 224.7 221 218.9 220 226.2 231.3 231.7 238.6 241.9 241.9 246.8 257.3 267.4 277 283.8 289.4 286.9 283.3 277.6 272.4 263.4 250.9 238.2 229.3 222.6 216.4 209.8 203.9 195.6 196.1 194.2 192.9 190.6 185.9 181.8 176.4 170.1 163.6 154 149.4 139.2 137.2 130.6 124 118.8 106.6 102.4 100.1 98.2 92 90.4 83.5 88.1 104.9 105.4 107.7 108.8 110.9 110.2 113.8 117.4 121.4 127 129.3 130.5 131.3 132.7 134.5 135.3 136 136.3 138.6 137.2 132.8 130.5 130
264.2 254.7 248.5 237.7 245.3 250.6 259 263.6 266.2 271 278.9 290.4 294.1 300.2 303.7 310.9 312.8 319.4 325.1 330.6 337.6 344.7 354.7 362.3 370.5 378.8 380.6 378.5 374.9 369.5 362.3 360.8 357.9 352.9 367.1 397 427.6 454.6 481.1 507.4 535.7 559.8 581.6 600.7 611.3 618.9 623.7 628 632.5 634.8 632.7 628.6 623.4 615 609.3 604.7 604.6 602 599.8 598.6 597 596.9 595.9 595.4 595 594.7 594.5 592.5 589.5 587.5 584.8 587.2 594 603.1 611.7 617.7 620 619.2 615.9 611.5 604.1 597.1 588.6 573.7 559.6 546.4 532.5 517.9 502.4 487.2 470.5 454.7 440.3 425.3 410.6 396.6 384 372.7 363.5 355.6 351 347.8 346.3 346 340.2 332.5 326.5 321.6 315.6 310.5 307.1 302.3 298.8 293.1 288.7 286.6 282.3 278.2 273.9 266.7 258.1 248.8 239.1 233.7 226.6 221.7 225.7 230.7 237.8 243.3 246.7 248.5 251.6 246.8 247.2 257 271.9 277.8 281.4 285.5 282.9 277.3 270.8 265.4 256.5 245.2 236.1 230 225 217.9 207.8 200.7 194.2 191.8 190.1 189 186.9 182.8 179.5 174.7 168.3 165.4 157.4 148.7 143.3 136 133.2 125.3 121 115.9 107.6 102.4 99 98.3 91.3 87.5 77 99.3 100.8 101.8 105.6 108.9 109.5 111.1 114.6 117.9 123.1 126.7 127.6 128.4 128.5 129.6 130 130.7 131.2 131.4 131.2 128.3 126.1 125.9
265.8 254.6 246.3 233.7 239.9 244 251.1 256.8 259.1 262.1 267.3 277.5 284.8 289.1 293.8 298.8 302.7 307.4 314.4 321.1 328.9 335.9 344.3 353.2 359.9 364.8 366.8 363.6 358 351.2 347.8 347.7 344.5 343.8 369.9 400.6 428.6 456 481.6 509.8 533.9 554.7 574.9 588.1 598.8 607.1 613.1 618.5 623.7 627 626.2 622.6 616.8 609 600.8 595.6 591.9 587.8 585 583.4 582.2 579.7 580.3 580.7 580.9 580.4 577.8 575.3 570.8 566.4 566 570.6 578.4 590 600.7 607.8 610.7 610.9 607.9 603.1 598.1 589.9 582.6 569.8 558 543.3 530 517.1 502 487.7 471.1 455.2 441.1 427.3 411.1 396.9 388.3 378.7 371 365.7 361.3 359.8 359.1 357.6 352.8 342.7 334.9 328.6 322.2 317.4 312.7 307.2 302.8 297 291.6 287.4 283.3 278.3 270.8 265.3 259 252.5 244 233.7 228.1 231.7 235.7 240 249.6 253.7 255.1 255.3 258.1 256.7 251.1 261.4 271.3 274.4 275.2 275.5 276.1 269.2 263.6 257.7 250 240.4 234.4 230 225.1 219.7 211.2 201 193.8 187.9 184.5 185 183.5 179.2 177.1 172.9 167.2 164.4 158.5 150.1 145.5 137.2 131.8 129.2 123.2 118 116.3 106.9 103.2 99.3 95.4 90.5 85.8 89.4 99.6 98.8 99 102.3 111.9 108.7 111.9 114.8 117.4 121.2 123.8 125 125.3 125.8 125.3 126.2 127 126.6 126.3 124.7 122.9 123.5
264.4 254.2 244.3 235 232.7 237.7 241.9 248.3 251.7 254.3 258.2 263.9 272.5 278.1 283.4 288.9 293.8 298.7 304.3 312.3 319.7 327.8 337.8 343.8 350.1 353.8 355.7 350.6 342.1 337.8 335.1 328.6 330.4 347.8 376.1 406 431.4 458.2 483.7 506 526.3 541 559.7 569.9 580.2 590.4 599.8 606 613.2 617.7 617.9 614.8 608.7 602.1 593.5 583.3 576.1 572 569.2 566.8 564.6 562.1 561.6 562.4 562.1 560.9 559.5 554.5 550.8 544.7 545.9 553.3 562.3 575.8 588.5 595.8 601.5 601.4 599.4 593.9 587.3 578.8 570.1 561.1 549 537.5 526.5 514.6 502.7 487.3 471.9 456.4 439.6 425.3 410.2 397.2 392 384.7 378 373 373.2 372.8 371.6 366.7 357.7 349 340.5 334.2 328.1 321.5 316.4 309.4 303.4 297.4 291.8 287.2 282.7 278.1 273.8 267.2 261.4 255.2 241.2 240.3 240.3 242.7 248.2 254.3 260 261.3 263.9 263.5 267.5 265.8 258.3 260.3 269.5 271.4 270.1 268.5 268.7 264.7 256.9 249.6 243.2 237.4 232.1 228.7 224.2 218 210.3 201.6 195.3 186.6 180.1 180.2 178.9 175.9 174.2 171.1 166.4 162.3 155.4 148.3 145.9 139.2 131.4 130.1 126 120.4 117.4 115.4 106 102.7 97.5 94.4 75.3 94.9 98.4 97.9 98 99.2 104.9 108.2 109.6 111.9 112.3 115.7 118.5 120.8 121.8 121.8 122.4 123.1 123.5 122.3 121.4 120.4 119.3 118.3
259.7 251.9 242.3 234.4 225.3 230.8 233.1 237.2 243 246.8 250.4 254.7 261.3 268.3 274.4 278.9 284.8 290.1 296.2 303.6 311.7 319.8 329 335.9 340.9 343 342 334.3 327.1 324.6 319.8 323.7 338.3 360.4 385.8 410.7 435.8 459.9 485.3 502.4 516.5 529.4 542.7 550 559.8 571.3 582.8 591.8 600.3 606.3 606.3 602.9 598 592.1 584.4 571 549.5 552 549.3 546 543.8 542.1 541.5 543.5 544 544.2 541.2 534.1 529 526.7 527.3 535.2 546.9 559 574.4 583.7 589.7 592.2 590.8 583.5 574.2 563.9 553.3 543.2 534.1 527.4 521.4 512.3 501.4 487.2 471.7 455.2 439.3 424.7 409.2 399.4 394.3 389.5 386.8 385.4 384.9 382.2 378.7 371 362.1 352.5 345.3 338.4 331.2 323.5 316.5 310.3 303.5 296.9 290.5 285.4 281.5 278 274.5 269.7 262.4 252.7 249.8 248.2 249.7 254.4 260.7 267.2 269.3 270.8 272.1 272.8 273.6 268.5 264.6 256.3 264.2 266.6 264.8 262.3 260.9 257.1 249.9 243.3 237.3 233.7 229.4 225.9 221.7 215.4 210.4 200.4 195.7 187.2 177.5 175.3 174 172.2 171 168 163.8 159.5 154.2 146.7 144.5 139.8 132.1 130.1 127 122.6 117.3 116.1 110.5 105 101.5 88.9 82.6 100.7 98.5 97.2 97.2 98 97.5 103.7 107.5 109.1 107.4 111.2 113.4 115.9 117.6 118.4 118.8 119.1 119.5 118 117.3 116.6 115.5 114.2
256.8 248.5 240.3 233.2 220.8 222.3 226.1 228.2 233.1 237.4 240.7 246.4 251.4 259 264.2 267.7 274.6 281 288.4 296.6 305.3 314.4 323 328.9 333.1 331.6 323.7 316.8 313.7 308.5 317.5 328.8 349.7 371.1 394.6 417.8 441 461.2 482.7 497.5 511.1 519.8 525.3 533.3 543 553.5 564.8 576.5 586.7 591.8 592.3 589.3 585.2 579.9 568.6 553.9 533.9 526.6 526.1 522.6 521.2 518.9 515.3 522.5 526 527 523.7 518.3 513 509.9 512.3 521.2 532.2 544.6 558.8 571 577.5 582.5 578.4 572.2 558.9 546.9 534 521.4 516.8 514 511 504.7 496.1 486.5 474.2 459.1 442.2 431.4 419.5 411.2 405 401.6 400.1 396.5 392.9 387.1 381.3 372.1 362.9 353.6 348.1 339.8 331.4 325.1 319.8 310 302.4 294.8 288.3 283.5 280.3 277.1 274.4 271 263.5 261.7 258.1 257.6 262.4 267.7 274 276.5 278.7 280.4 278.3 279.2 276.2 272.3 265.6 258.9 260.1 262.1 260.4 256.2 252.4 247.8 244.2 238.1 232.8 227.2 224.1 219.6 215.3 214.9 210 199.6 193.1 186 179 170.5 170.4 168.9 168.1 164.3 160.1 155.7 153.8 146.2 141.2 139.5 134 127.8 126.5 123.8 120.1 115.6 114.1 108.4 101.5 95.3 82.3 103.3 100.3 98.3 96.2 96.9 96.4 96.7 103.4 106.2 106.1 105.9 108.6 110 112 113.9 113.8 114.1 114.3 113.9 112.9 111.3 110.4 109.3
252.4 243.1 234.8 229.7 222.8 214.1 218 219.9 222.2 226.7 232.7 237.2 241.8 248.4 253.9 257.7 263.8 270.1 278 288.2 297.3 308.8 316.7 322.3 324.9 320.1 309.9 305.8 303.8 307.6 320.7 342.2 363.6 385 403.9 425 446 462.5 476.6 489.9 501.9 509.4 514 520.1 528.2 537.4 550.3 561.8 573.1 577.6 577.6 575.3 571.9 563.1 552.2 540.5 525.8 506 505.4 503.9 499.7 494.4 493.3 500.5 506.1 508 505.9 501.6 498.3 493.7 496.3 507.1 520 532.7 545.4 559 567.8 571.5 568.7 560.6 546.7 530.5 512.6 501 496.2 495.2 495.9 493.4 487.7 482.7 474.8 464.3 452.4 443.2 434.7 426.7 419.9 415 410.3 404.1 397.2 388.3 380.7 370.8 362.6 352 345.3 337.9 330.9 323.4 314.6 308 300.6 292.3 287.4 282.7 279.1 276.4 273.5 270.7 271.8 271.1 270.2 270.9 276.3 280.9 284.4 288.2 289.8 289.1 284.5 283.7 279.7 270.1 268.2 259.6 251.7 256.1 254.1 248.8 243.1 240 234.4 230.1 226 222.7 217.2 212.4 209.5 209.8 203.3 199.3 191.9 187.6 177.9 168.7 166.6 164.5 163.7 160.3 156.2 151.7 152.1 145.9 138.2 135.2 133.3 126.4 126.4 123.6 121.1 117.9 114.7 113.6 103.9 100.8 74.1 101.7 103.2 100.4 97.9 96.1 95.5 96.9 96 101.6 107 104.5 103.8 105.7 107.2 107.9 107.5 108.5 108.8 109.4 108.2 107.1 105.9 105.8
245.3 238.1 227.2 223.1 218.2 211.5 210.1 212.7 214.2 217.1 222.8 228.3 232.1 238.8 244.3 249 255.2 260.8 269.4 280.5 291 302.7 310 312.4 312.9 307.6 298.4 294.4 288.9 311.3 333.1 356 376.7 396.9 417.5 437 454.4 467 477.1 482.1 488.1 494.5 498.8 503.8 511.5 522.6 537.5 551.5 563.6 565.7 563.5 559.8 552.8 544.6 534.9 524.9 514.6 500.9 486.1 484.5 480.4 475.6 475.9 482.5 485.9 488.8 488.9 489.2 486.4 481.2 483.4 493.3 506.4 520.8 534.4 547.6 558 561.5 558.9 552.6 539.8 516.7 498.7 485.2 477.2 475.2 476.2 477.7 477.6 475.6 472 465.6 457.5 451.3 444.9 435.7 430.2 422.8 415.6 408.7 398.9 388.5 376.8 367.8 359.5 350.3 342.7 336.2 327.8 318.7 310.3 305.8 300.9 293.2 287.6 283.7 279.9 276.8 276.3 277.9 280.4 281.4 282.5 285.1 288.4 291.8 294.6 297.4 296.9 292.1 287.1 283.4 278.4 270.8 263.7 256.6 248.1 247.3 245 240.7 235.6 230.8 226.1 223.9 218.6 216.6 210.4 207.1 203.7 200.4 198.8 196.8 190 182.7 177.2 169.3 163.8 160.4 158.5 156.8 150.8 149.5 148.3 142.1 135.1 129.5 131.6 125.4 126.1 123.2 121.3 119.3 115.9 113.5 112 101.5 73.2 92.9 102 102.5 98.8 95.7 95 96.6 96.4 96.2 102.3 105.1 103.2 102.5 101.2 100.1 100.9 99.2 100.9 103.5 104.9 104.7 102.9 101.5
236.2 230.7 221.8 214.3 211 209.7 206.1 205.8 204.5 208.2 212.4 216.7 221.8 230.4 235.6 240.2 246.3 252.6 260.7 274.2 285.1 294.2 298.9 303.3 302 294.4 283.8 277.9 301.5 322.6 345.2 367.5 389.6 409 431 445.7 457.3 466.1 472.7 477.7 478.6 478.9 480.6 483.8 495.7 512.4 530.4 543.2 553.5 553.2 549.3 544.1 535.3 526 517.1 509.5 502.5 494.5 482.8 466.5 464.1 460.5 455.9 463.7 468 470.8 474.3 477.5 475.9 469.7 468.8 480 493.4 508.7 525.1 539 549.4 553 550.7 544.7 533.2 512 490.4 474 462.1 457.9 458.2 460.8 463.9 464.9 464.4 462.5 460.5 458.3 453.1 445.5 437 427.9 418.3 409.4 398.5 385.6 372.6 362.4 352.2 343.2 336 330.4 322.4 315.8 310.6 305.9 300.9 294.5 289 283.6 284.8 284.3 286.5 289.2 291.5 295.4 296.4 298.3 301.3 303.3 303.6 302.3 298.6 290.4 286.1 281.3 276.2 269.7 260.6 251.9 246.1 240.2 238.7 233.3 226.5 221.1 218.7 214.7 210.3 206.8 204.9 201.3 197.4 193.3 193.1 192.4 187.1 180.7 175.1 168.8 163.6 159.9 156.3 152.8 147.6 147.2 145.4 138.6 132.8 129.6 128.2 123.9 124.5 122.9 120.6 118.6 116.2 114 110.7 103.8 86.5 90.5 99.5 102.4 100.1 94.7 93.6 95.4 97.3 96.5 95.4 94.4 101.3 102 101.8 100.8 102.2 102.1 98.9 97.4 99.6 101.1 96.7 85.2
227.5 222.9 216.9 209.7 200.9 209.4 206.8 201.8 201.8 200.9 200.5 207.8 210.6 218 225.4 232.4 238.1 243.9 251.6 266.2 276.2 283.9 288.8 289.2 287.6 276.8 273.1 287.9 310.4 330.6 354.2 379.1 398.8 417.6 433.7 447.6 454.6 461.3 464.8 467.2 466.1 464.9 464.6 470.5 486.5 506.6 525.5 535.9 543.6 544.2 538.5 530.2 519.3 510.7 503.2 496.3 490.8 484.3 476.1 464.6 448.4 444.7 442.3 446.2 451.7 456.7 460.8 465 463.6 457.7 457.9 467.8 481.9 497.5 513.1 528.7 539.3 543.3 543.7 538.8 530.7 513.1 489.1 470 453.7 443.4 440.2 442.8 446.7 451 454 457.7 457.9 459.1 456.7 452.2 443 432.1 419.9 410.1 397 382.4 366.5 355.6 347.5 340.5 333.8 327.4 322.5 316.4 311 305.1 299.7 293.7 291 292.4 294.5 296.4 298.9 302.2 305.7 306.9 308.8 310.4 311.4 311 309.4 305 299.5 291 281.7 274.9 271.7 265.5 258.3 249.3 242.9 230.6 227.9 225.3 221.3 214.9 208.4 205.9 202.6 200.1 198 194 190 187.3 187.3 186.9 183.2 178.4 175.4 169.4 163.5 159.8 154.1 150 145.6 144.1 141.9 137.7 132.4 128.8 126.1 123.7 122 120.9 119.6 118.3 116.2 113.6 113 111.7 101.7 71.7 78.6 88.3 96.8 95 95.5 92.9 95.1 97.3 97.3 91.1 91.8 94.8 98.1 98.5 101.2 103.7 104.6 103 96.6 95.3 84.3 82.6
220.1 212.6 203.2 202.3 200 196 198.3 198.7 197.7 196.5 196 194.6 193.7 205.2 212.5 220.7 228.8 236.4 241.7 256.1 264.9 271.9 275.6 272.4 267.9 259.9 275.9 293.5 316.2 338.5 362.4 386.3 407.4 420.9 433.1 444.2 451.2 455.3 456.1 453.9 449.9 447.5 451.5 464.4 479.9 500 519.2 530.5 536.1 536.2 529.7 519.9 509.4 498.7 487.6 480.6 476.8 471.9 466.8 457.6 442.6 430.4 432.2 431.3 436.7 442.2 448.6 450.6 450.4 446.2 447.7 455.5 472.5 486.9 501.3 516.2 527.9 534.7 537.2 534.6 527.8 515.9 492.9 470.7 451.3 435.3 428.2 425.8 430.2 436.9 443.5 448.3 451.7 454.2 454.8 453.1 444.8 436.1 423.5 410.8 396.7 380.6 364.6 354.2 347.2 340.8 335.5 328.6 322.8 316.7 311 304.2 301.2 300.3 301.5 304.6 307.5 310 312.3 314.9 319.1 321.1 322.2 321.1 321.5 320 314.1 309.6 302.4 291.9 280.8 273.4 270 263.6 258.2 251.7 245.2 238.8 230.3 222.9 217.4 208.7 202.2 198.6 196.8 195.2 191.5 188 186.2 182.5 182.6 180.7 177.9 176.1 175.3 168.6 162.9 159 154.5 148.1 142.2 141.2 138.7 135 131.9 128.7 126.2 123.3 121.1 120.2 123.2 117.2 114.9 113 110.7 105.9 106.9 101.5 85.4 72.9 70.5 87.3 90.7 89.4 88.6 93.8 91.5 89.5 88.5 91 93.7 96.1 98.8 102.4 102.8 104 97.7 88.7 83.1 82.5
212.2 199.8 207.6 213.8 214.9 213.5 207.1 198.2 195.4 197.3 195.8 194.2 193.4 190.7 189.5 205.6 219.4 227.1 233.6 245 254.2 258.4 260.4 254.4 248 264.8 278.7 303 325.9 347.6 371.2 392.2 409.9 421.6 431.1 441.5 445.2 444 441.7 437.2 433.7 433.6 441.9 461.2 479 497.6 515.7 526 530.6 529.3 521.1 510.4 497.9 485.8 474.9 467.5 461.2 458.6 455.8 448.3 437.8 428.4 422.8 421.8 424 428.1 434 438.2 438.4 434.7 436.9 443.8 461.3 478 492.3 508 519 528 532.1 531.7 525.4 514.9 497.1 474.3 453.4 436.4 422.2 417.2 415.9 423.3 429.2 436.3 441.3 446.9 448.8 448.1 444.3 437.9 427.8 414.5 398.4 380.7 367.1 356.8 349.3 342.4 336.2 329.9 324.6 319.1 314.4 310.3 311.4 314.5 316.7 320.4 322.4 325.2 328.2 331.3 332.4 332.6 333 332.9 329.9 327.2 321.3 314.5 305.1 294.5 283.8 275.6 270.4 264.7 260.1 253.3 246.7 241.8 235.7 227.2 220.6 212.9 206.2 198.7 193.6 188.7 186.5 182.9 180.4 178.1 176.7 173.8 173.4 173.9 169.7 166.8 161.2 156.5 152.6 148.3 140.4 139 142.1 139.5 131 129 126 123.5 120.5 121.1 119.6 115.6 114.1 115 114.2 116.2 107.4 104.6 93.8 82.2 80.2 75.2 70.5 89.4 87.8 87.2 86.7 85.8 85.9 85.6 87.6 88.3 93.4 96.7 101.1 97.2 87.3 81.6 85 89.8
200.3 219 233.2 238 234.9 226.8 219.9 215.3 210.5 205.4 201.8 197.9 195.2 194.5 191.3 186.5 202.3 214.7 224.9 233.4 242.4 245.8 243 238.9 252.7 266.3 290.7 314.5 333.9 356.1 376.9 394.9 409.6 420.1 425.9 431.9 434 432.5 426.7 421.6 418.7 423.8 439.3 458.1 478.2 497.6 514.3 522.7 527.3 524 515.2 502.8 485.8 471.2 459.9 451.9 451.3 451.7 449 442.9 433.5 423 415.3 406.8 412.9 416.2 421.7 425.7 426.6 424.9 423 433.9 451.3 468.8 487.8 501.1 514.1 523.5 530.2 529 523.1 514.2 499.6 478.7 459.2 439.8 422.9 411.5 407.7 409 415.8 423.6 431.8 437.6 441 443.5 441 440.2 432.3 421.1 406.9 390.2 373.6 363.1 356.8 352.8 347.8 342 334.2 327.5 323 324.1 326.7 330.3 333.6 336.4 339.3 342 344.9 346 346.8 349.1 345.4 342.6 337.8 333 327 319.2 310.1 298.8 287.9 279.9 273.8 268.6 261.9 256.7 250.1 246.3 240.4 234.4 224.4 216.3 208.9 202.8 195.6 189.4 181.6 175.4 174.5 173.6 171.9 167.9 167.9 168.2 168.4 163.9 158.8 153.9 150.3 147.2 143.8 139.4 134.5 135.9 135.3 128.5 126.2 123.5 120.2 120.6 117 115.9 114.4 125.8 118.2 112 110.4 107 99.9 94.7 83.9 82.8 79.6 70.3 78.3 87.1 86 83.5 83.5 83.9 84.5 83.9 85.3 88 90.6 80.8 80.2 82.4 91.6 92.1
224.4 242.6 250.2 254.2 253 246.6 236.1 223.5 216.5 211 206.5 205.5 198.9 194.7 192.5 189.6 185.4 205.2 214.4 226 232.7 229.4 227.3 240.8 261.6 284.4 304.8 324.1 344.3 364.7 381.2 394.5 406.8 417.4 417.6 418.4 419.6 416.2 410.6 407.2 407.6 418.7 439 458.6 477.6 498.1 513.2 522.3 525 520.3 511.2 496.6 479.2 462.7 446.3 440.6 439.8 441.8 442.3 437.6 429.5 419.2 412.7 398.9 403.2 405.9 410.3 413.8 414.1 415.7 405.6 427.9 446.2 466.6 483.7 497.1 510.8 521.5 528 526.6 521.2 513.7 502.1 485.7 466 446.4 429.5 414 397.9 399.8 402.7 411.2 419.2 427.7 433.7 437.7 439.3 440.4 438 429.4 418 405.2 393.2 380.6 374.5 368.4 363.5 356.6 350.1 343.2 337.8 339.8 341.5 345.7 348.8 354 357.7 358.6 360.9 362.5 359.9 358.7 353.3 348.4 342.4 336.9 329 322.1 312.7 304.1 291.2 283.2 275.9 269.8 266 261.1 255.6 249.8 245.3 239.5 231.7 224.5 216.8 209.6 201.8 193.1 184.1 173.4 169 169.2 168 164.9 164.2 166.6 166.4 162.2 156.4 151.3 147.5 143.4 139.8 139 133.2 133 137 132.2 130.5 130.2 123.3 119.7 124.4 117.8 126.8 120.9 115.4 114.5 113.5 112.2 109.4 105.4 93.2 84.6 82 79.5 70.1 83.8 81.1 81.3 80.7 80.1 80.3 79.8 78.1 80 79.3 78.3 78.8 86.6 92.2 91.7
247.1 257.9 266.8 271.3 268.4 259.5 251.1 236.2 223.6 215.3 209.8 206.2 201.6 198.8 194.5 190.4 186.5 190.7 206.6 213.4 213.1 224.2 239.5 263.4 283.4 298.7 311.7 332.5 352.5 370.4 381.7 392.2 404.3 404.9 407.3 405.6 404.2 400.1 397.9 395.9 396.6 415.8 436.9 458.7 477.4 496.5 511.1 521.1 522.7 517.9 507.5 493.6 476.3 458.2 440.7 433.2 429.3 430.9 431.4 429.1 423.8 417 409.6 402.4 388.6 396.9 400.7 402.9 405.2 400.7 405.2 425.6 443.8 463.9 479.3 494.1 508.4 518.6 524.6 522.9 516.9 509.6 499.7 485.8 471.6 453.4 435.8 420.1 405.1 390.6 393 397 407.2 416 424.4 430 434.5 440.4 441.9 438.3 428.5 417.9 407.8 396.7 389.3 383.3 377.5 370.2 364.2 357.9 354.9 356.1 357 360.1 364.6 369.4 372.4 372.7 372.2 370.7 369 364.8 356.1 350.2 343 337.1 330.9 323.8 316.2 306.2 296.3 286 279.4 269.5 268.3 264.4 258.3 253.7 247.5 243 237.3 230 221.7 214.1 205.6 196.7 187 177.4 165.5 163.8 163.4 162.5 162.7 164.2 163.3 161 154.9 149.4 145.8 143.6 136.7 138.1 137.1 132.2 133.7 134.3 131.3 131.7 125.7 120.2 123.9 130.9 123.5 117 114.4 115.6 115.8 114.7 111.5 104.6 100.1 90.7 84 81 72.7 77.4 80.2 80.1 79.6 80 78.9 78.9 77.4 77.5 79 78.7 81.8 86.6 89.7 90.1
262.4 273 280.6 284.7 280.7 270.9 262.2 246.5 230.1 220.1 212.3 206 203.3 199.7 195.7 191.6 187.6 186.9 196.8 206.5 220.1 232.1 254.5 272.8 289.8 305.2 319.9 339 355.8 372.1 381.3 388.5 393.6 395.3 394.3 394.3 390.7 388.9 387.6 384.7 393 411.9 433 454.8 476.3 492.8 508.3 518.3 519.5 514.2 504.8 491 476.1 458.2 438.7 426.6 421.6 418.9 420.2 418.8 417.1 413.4 405.5 399.2 389.9 380.4 390.6 394.6 397.9 385.1 405.4 421.9 440.6 459.8 477 493 507.3 516.8 520.5 516.9 509.8 502.8 494.3 482.5 470.3 458.5 443.2 429.6 412.7 396.9 386.4 388 395.3 404.8 413.2 421.4 430.2 438.9 444.4 442.5 436.1 427.7 418.9 407.6 400.8 397.4 391.8 384.7 378.2 373.4 369.9 367.4 368.9 372.2 377.1 382.9 385.3 385.4 381.5 376.7 370.6 364.1 355.4 348.7 341.4 335 330.1 322.6 315.4 304.4 295.8 287.8 278.4 269.5 267.1 264.8 259 254.8 249.4 242 237.7 231.4 225.7 215.3 209.7 196.4 189.7 175.2 166.8 163 158.8 159.1 159.7 161.1 161.6 161.6 156.5 149 143.7 138.9 136.5 134.8 133.2 132.5 130.4 129.5 129.2 132.1 127.3 119.2 119.9 127.3 119.9 116.9 115.7 115 113.6 109.2 106.6 105.7 99.8 98.1 91 80 79.2 71.7 79.4 80.3 79.7 79.2 78.5 77.5 77.2 77.2 78.1 78 78.7 86.5 89 88.6
276.4 285.5 290.9 296 294.5 279.2 267 253.3 237.8 223.7 213.2 208.2 203.8 198.8 196.3 192.7 188 183.2 190.8 210.3 220 235.1 256.9 275.9 292.9 310.9 325.7 340.3 357.1 368.1 376.8 382.9 384.9 383.9 383.2 379.6 378.5 378.9 377.3 371.7 388.5 410.4 430.7 451.8 472.7 489.9 504 513.5 514.4 509.3 500.4 488.8 475.4 460.7 440.4 421.5 413.4 409.8 407.7 408.1 408.3 405.9 401 395.1 389.4 378 379.3 385.5 385.7 383.6 402.9 421.4 439 457.9 477.2 493.6 506.2 514 513.9 509.4 502.1 493.9 485 476.1 466.5 456.6 446.1 433.5 420.3 403.6 388.4 380.7 385.2 392.2 401.5 412.2 422.8 433.4 440.8 440.6 439.3 434.8 429.7 420.9 411 406.5 402 395.8 389.6 385.5 381.8 379.3 380.3 384.5 389.3 394.6 395.1 393.3 387.2 379.6 369.9 360.5 351.6 343.7 336.7 331.7 327.2 321.3 312.4 302.1 292.7 285.5 275.9 267.7 264.1 262.1 258.2 250.7 244.1 242.9 235.4 233.1 227.4 220.1 211.4 198.9 194.2 185.9 177 170.2 162.2 157.4 154.6 157.1 160.8 159.8 159.4 149.4 142.8 139.2 136.5 134 132.8 130.8 129 128.2 128.8 133.1 129.8 124.3 117.9 120.4 121.4 117.3 115.9 114.2 110.8 109.3 107.1 104.4 100.6 97.8 93.8 87.6 78.6 78.5 69.3 79.6 80.2 80 79.2 78.2 77.3 77.1 77.8 78 79.1 85.5 85.6 85.7
285 294.6 301.2 304.6 302 289.6 273.7 260.6 243.7 228.5 215 208.8 204.2 199 195.4 192.9 189.4 182.3 187.6 209.2 218.8 235.9 257 277.2 294.7 313.3 329.3 343.5 355.6 362.5 369 374 371.9 370.9 367.9 366.7 366.2 368 359.4 373.6 386.5 408.4 428.3 448.8 469.3 486.6 498.3 506.7 506.9 502.7 495.7 485.3 473 457 440.4 420.6 406 399.8 398.8 400 401.6 397 394.6 389.9 385.1 377.8 363.5 372.3 366.3 387.5 398 420.5 440.1 459.8 478.1 493.5 504.4 508.8 507 501.9 491 481.8 473.7 466.1 458.2 451 443.3 434.1 421.2 407.5 393.7 375.7 377.2 383.4 391.9 401.5 413.6 425.7 434.5 438.7 438.5 434.4 430.3 422.4 414.9 412.1 408.1 404 399.1 395.1 391.9 389.1 390.5 393.7 396 401 401 397.4 390.5 380.5 367.7 355.3 344 335.3 329.3 323.9 320.6 315.2 307.5 295.9 287.3 280.9 272.2 263.6 257.8 256.8 252 247.5 241.5 241.2 236 234.1 223 220 212.1 204.4 194.1 186.9 178.9 172.3 165.4 160.1 154.3 151.8 152.5 157.5 154.3 145.9 143.1 139.7 136.6 134 131.4 129.3 128.6 127.7 127.7 132.3 128.3 123.6 118.6 116.7 119 117.8 115.1 113.5 111.8 108.5 107.6 105.1 101 97.7 95 92 78.5 77.9 69.2 78.2 80.6 80.4 79.3 78.2 78.8 78 78.2 78.3 78.8 83.5 85.8 85.7
294.3 304.4 306.5 306.5 300.5 291.9 273.8 261.7 246.9 231.7 216.9 207.4 204.5 200.2 195 190.8 186.6 184.8 189.4 211.1 220.3 236.1 258.5 279.2 298.1 316.1 332.4 343.6 350.5 356 360.9 361.4 359.5 356.5 352.6 352.7 355.1 355.9 360.4 368.1 387.5 408.4 426.5 445.2 465.1 482.1 494 498.6 499.4 494.9 488.3 478.9 466 451 435.6 418.8 400.4 393.8 391.1 390.6 389.7 388.7 385.6 382.1 379.1 372.8 359.3 357.2 369.9 384.2 403.7 424.9 445.3 464.3 480.8 493.9 501.1 503.2 499.7 491.8 480.3 469.4 460.1 453.8 448.9 443.4 437.2 429.6 419.3 407 394.4 378.9 370.9 376.2 382.9 392.8 405.1 417.6 428.2 434.3 431.2 425.9 423.5 416.4 412.1 411.6 409.5 407 402.7 400.3 396.1 393.3 393.6 397.2 398.6 403 403.6 400.6 393 379.4 366.4 351.1 338.5 328.3 321.2 315.8 310.4 305.6 298.7 287.2 280.1 275 266.6 257.7 251.8 244.8 245 242.6 238.9 233.8 233.8 231.9 229.4 219.7 210.2 204 194.5 185.9 178.4 172.4 165.9 161.1 156.4 150.2 147.8 149.2 145.5 144.5 143.2 140.2 137.1 134 130.8 128.3 127.4 126.3 125.9 124.6 124.8 123.6 119.2 116.3 118.1 117.7 115.3 113.9 112.5 110.2 109 104 102.5 98.7 94.2 93.7 81.4 78.5 76.7 69 80.2 79.7 78.7 77.5 77.7 78.2 78.5 79.1 83.4 85.6 85.5 86.5
304.6 310.1 312.3 306.2 302.4 292.3 279.6 261.4 250.4 234.6 215.5 207.9 203.3 203.3 194.8 186.5 178.9 194.2 201.1 211 220.5 234.2 258.5 281.7 301.6 315.9 329.7 339.5 345.5 348 350.4 350 347.3 342.8 341.8 343.1 344.1 339.2 355.3 370.6 389.9 408.8 428.3 445 461.4 476.2 486.6 490.5 489.6 483.3 476.6 466 455.9 442.9 430.9 414.6 395.9 387.9 382.9 380.4 380.3 379.8 377.6 373.4 371.4 364.2 351.6 357 371.7 390.1 412 433.1 453.3 471.4 486.4 495.2 499.1 498.3 491.9 482.2 469.9 455.8 446 439.6 436.1 432.1 428.1 421.6 414.6 403.6 392 379.2 363.3 369.1 375.6 385.8 399.2 412.4 421.9 424 419.3 413.1 410.4 407.5 405.1 405.6 405.6 404.3 401.7 400 395.8 386.8 391.8 394.4 396.8 400.6 400.5 397.7 389.7 377.8 364.2 349.2 334.6 324.5 314.6 308.5 302.3 297.4 291.2 282.4 273.5 267.2 259.4 251.1 245.6 241.1 238 235.2 230.2 228.2 228.3 225.6 222.3 216.6 210.1 202.9 195.6 188.1 180.2 174.2 167.2 161.2 153.7 148 149.1 144.1 142.7 143.7 142.5 140.1 137.1 134.4 131 126.8 126.1 126.2 125.6 125.3 123.3 121.2 119.3 117.2 117.9 117.6 115 114.2 112.6 111 107.7 104.3 102.4 100.4 96.4 92.1 85 78.7 77.2 69.6 75.9 78 77.7 77.7 76.8 77.3 77.5 78.1 84.5 86.7 86.8 87.4
314 317.7 318.4 306.6 301.5 291.8 277.8 266.1 251.3 238.8 219.5 207.2 202.4 206.9 198.2 183.1 184 194.4 202.1 211.9 221.1 238.1 260.8 281.9 299.1 314.5 326.2 334.1 339.8 339.9 339.2 337.3 334.4 333.4 332.9 333 334 342.2 355.2 373.4 391.6 410.3 429.5 447.2 460.9 472.1 479.7 478.5 476.7 469.8 461.9 455 445.8 434.6 421.4 406.6 392.4 382.6 375.3 372.9 371.5 370.8 368.4 366.1 362.9 355.5 349.1 360.5 377 400.1 423.2 443.8 463.9 480.4 493.3 500 497.8 492.3 484.9 476.1 462.1 443 429.6 423.3 421.5 419.2 418.4 413.2 406.9 397.3 388.3 377.2 363.1 365 370.8 381.6 394.5 406.4 413.3 412.3 405.3 400.5 397.2 394.6 393.6 396.9 396.8 396.4 395.1 391.2 388.6 379.6 384.7 387.7 389.8 394.7 396.3 390.9 384.6 374.5 360.4 347.6 333.3 321.8 312.7 305.1 297.1 290.8 284.3 274.9 268.4 260.3 253.2 246.1 242 236.2 231.5 228.8 224.2 218.5 220.2 218.9 214.9 212.9 206.9 201.5 196 188.4 180.3 173.5 167.2 161.3 154.8 150 145.4 145.8 141.4 140.3 140.2 139.9 137.5 134.3 131.1 128 128.7 127.6 126.3 124.6 123.1 122.3 122 115 115.6 116.4 112.9 111.5 112.1 109.9 107.4 105.1 104.2 103.3 98.8 94.6 89 77.6 76.9 76.5 68.7 77 76.6 76.9 77.1 76.8 77.5 77.7 80.1 84.7 86.4 86.7
324.3 318.1 313.1 304.4 298.7 290.2 280 264.7 252.3 236.3 218.5 208.2 198.3 205.4 199.4 191.8 177.5 192.5 201.3 211.5 221.5 243.6 262.1 280.5 297.6 312 321 328.4 332.8 332.8 329.6 327.1 325.2 324.3 322.5 324.6 328 339.7 359.1 377.3 394.6 412.6 429.6 447.5 460.3 468 470.6 468.5 462.5 455.8 448.4 441.3 434.3 424.8 411.6 401 390.6 377.6 370.6 364.8 363 361.7 360.4 357.7 354 342.2 348.4 366.3 388.7 411.3 433.7 453.7 474.1 490.1 500 502.8 498.8 491.5 482.5 470.2 456.1 435.2 417 406.1 404.1 405.9 406.6 403.8 397.8 390.2 382.1 372.8 356.8 355.8 362.6 375.2 387.5 397 401.7 398.3 391.6 387.1 383.4 382.1 381.4 384.7 386.3 386 383.9 380.8 377.4 368.8 374.5 378.4 380.1 386.1 389.7 387.3 381.5 371.8 361 350.4 336.9 324 312.6 305 293.9 287.1 277.9 272.4 266.5 260.1 253.3 248.1 241.2 233.5 227.7 222.4 219.2 212.6 211.9 213.8 208.4 206.5 204.1 201.6 194.6 189.8 180.3 172.2 165.2 161.6 157 151.6 144.4 143.6 141.6 138.2 137.1 136.8 136.4 134.1 130.7 129.7 127.6 126 127.8 125 123 121.6 121.3 114.2 114.3 111.8 109.7 108.8 107.7 107.7 106.1 105 105 104.8 101.4 94.4 88.4 82.9 77.5 76.4 74.3 73.9 77.1 77.4 76.5 76.6 75.4 78.1 82.1 86.5 86.1 86.4
331.5 327.4 320.8 302.7 291.6 284.8 275.2 262.7 246.9 233.7 218.6 206.5 196.9 198.2 197.8 193.3 182.1 187.9 196.3 208.2 223 245.1 263.8 283.6 296.9 308.9 317.8 323.4 326.7 325.4 322.2 317.4 316.8 314.5 313.8 311.3 328.9 347 365.5 380.9 397.1 414.5 431 446.4 457.2 462.7 461.6 458.4 451.7 443.7 435.2 430.5 423.8 411.6 401.5 393.7 384.2 372.2 364.8 358.8 354.8 354 353 349.4 341.5 339.1 358.3 379.1 401.1 423.6 443.3 464 483 496.5 504.3 502.7 496.4 488.4 477.4 464.2 448.6 428.7 408.9 395.7 387 391 393.9 393.5 389.7 381.5 375.6 369 358.5 349.3 361.1 370.2 377.6 384.9 388.7 386.1 379.9 375 371.1 369.9 370.8 372.7 375.1 374.7 370.8 367.6 364.2 360 360.7 365.6 368.6 376.4 383.4 383.7 379.9 372.6 362.4 354.7 341.8 328.4 316.5 305.1 294.3 287.1 277.5 272.3 267.7 262.9 256.4 251 246 239.5 231.8 223.8 215.9 210.2 203.8 206.6 202.6 199.7 198.1 196.1 191.7 188.5 184.4 176.6 166.1 160.3 155 149.9 145.5 142.5 139.8 136.4 134.5 133.8 133.5 132 131 131.2 128.3 126.9 124.5 123.4 120.4 118.9 116.8 112.1 111.6 110.3 109.5 108.8 108.3 107.3 105.5 103.9 101.4 100 94.5 92.4 86.1 83 77.3 75.5 74.8 68.4 77.8 76.7 76.1 75.1 75.2 78.9 78.9 84.5 86.3 86.7
340.3 333 323.9 309.6 290.9 279.4 269.4 255.4 243.6 233.3 218.2 206 199.6 194 194.9 192.3 182 177.9 193.9 206.5 224.6 244.7 262.1 280.8 293.9 302.6 314.7 320.7 320.4 318.5 314 310.4 308.6 306.4 301.5 316.1 336.1 352.2 368.5 384.8 402.1 417.8 432.3 444 452.8 456 454.7 450.8 444.9 435.6 427.6 418.5 408.1 395.7 389.8 383.8 375 366.2 358.7 353.6 341.9 345.2 342.8 337.3 333.9 353.4 371.1 392.7 412.8 434.1 453.2 473.4 490.2 501.4 502.5 499.7 492.2 482.6 471.3 458.6 442.9 424.1 404.7 388 378.6 377.1 380.6 380.6 379.6 373 371.4 365.1 358.6 343.1 357.7 363.5 370.8 377.7 380.6 379 373.8 369.1 364.9 363 363.9 365.6 364.9 363.3 360.2 355.9 352.5 349.5 347.9 353.1 358.1 364.8 375.7 378.3 378.4 373 365.1 355.5 344.5 331.9 318.5 304.6 297.4 287.4 280 273.3 269.7 265.4 259.5 255.3 250.3 242.2 235.9 226.8 218.8 209.6 204.1 195.2 197.7 195.2 192 189.1 187.1 183.4 180.3 171.2 163.9 157.7 152 147.4 144.2 141.4 138.5 136.1 134.1 132.5 130.5 130.5 130.4 129.7 129.5 128.3 124.2 121.7 118.3 115.7 113.3 111.2 111.4 112.3 111.5 110.5 109 107.4 106.1 104.8 102 98 94.9 94.5 91.3 83.2 77.8 75.5 72.4 69.9 75.8 76.3 76 75.2 74.9 78.3 78.6 80.4 84.5 85.7
346.5 336.7 322.6 310.4 294 278.2 264.4 251.4 240.5 230.3 217.5 205.2 199.8 193.3 192.2 190.5 185.5 174.9 190.9 206.2 223.3 239.1 256.2 272.1 287.6 302.6 307.1 313.7 314.8 310.7 305 303 300.6 295.8 303.1 324.7 340.7 356.5 372.6 391.5 410.8 425.6 434.2 442.8 447 449 448 442.3 434.6 426.4 414.4 402.3 392.9 384.1 380 373.1 367 359 352.5 348.1 341.1 334.9 326.6 330.9 348.2 365.6 385.4 404.4 424 442.5 460.7 479.4 492.9 498.4 497.9 493.4 485.3 475.9 465.2 451.9 436.7 420.2 401.6 384 370.8 367.7 367.9 370.6 370 367 365.2 361 355.3 338.6 353.7 359.8 367.4 374.7 377.4 375.7 369.9 365.6 360.6 357 357.5 358.3 355.7 353.3 349.7 343.5 341 338.5 338.5 341.8 348.9 356.8 366.2 373.9 376.1 373.5 365.3 356.6 344.9 332.2 319.4 310.2 301.9 293.6 284.7 279.4 276 269.3 267.2 262.3 254.8 246.2 238 230 221.1 209.9 202.7 196.8 191.8 190.3 187.5 184.3 180.7 178.4 172.5 164.5 159.5 153.3 150 146.5 143.7 141.4 138.8 136.3 133.9 131.4 130.8 128.2 128.4 128.3 128.1 127.6 122.6 120.6 117 114.8 112.9 111.6 111.3 114.9 114.3 110 107.3 104.7 102.3 99.1 96.4 94.3 96.7 100.4 93.9 80.6 77.5 75.7 68.2 72.8 74.6 75.3 75.9 74.5 74.6 77.3 78.2 78.5 79.4 84.2
344.1 339.8 324.8 309.8 294 277.5 258 250 237.7 228.9 216.9 207.5 200.6 193.5 190.8 188.7 183.4 173.1 189.6 203.6 218.8 233.6 251.2 266.1 279.2 293.1 305.1 305.6 306 302.5 297.6 293.2 289.8 287.4 311 327.7 343.4 361.1 377.8 398.5 412.7 424.9 433.1 440.2 444 443.2 440.5 435.2 426.8 415.9 402.1 388.2 379.8 375.9 370.4 364.9 357.5 351.5 345.8 341.4 333.7 323.1 328.1 342.6 360 378.8 397.4 414.9 433 449.8 464.1 479.1 488 490.9 490.5 486.4 477.5 467.9 457.2 443.3 428.4 412.3 396.8 379.3 364.8 359.9 359.5 362.1 363.3 360.4 358.5 357.9 350 332.7 350.4 356.4 364.8 372.5 375.3 373.6 366.6 361.6 354.6 349.4 347.9 347.1 346.9 345 340.3 335 330.3 328.6 331.5 333.6 342.3 351.4 359.8 368.2 372.5 370.2 364.2 355.7 342.9 332.2 323.3 312.7 304.2 293.5 286.8 283.3 279.1 274.6 269.4 264.5 257.8 247.9 238.3 228 219.1 207.6 200.1 194.3 191.6 183.5 184 180.5 176.4 173.7 167 161.4 155.3 150.1 147.8 146.6 144.5 141.8 141.2 138.7 136.7 131.8 130.1 127.4 125.7 123.5 121.3 123.8 121.5 118.9 116.7 114.5 113.1 110.6 110.2 110.5 111 107 104.2 101.9 98.1 94.4 93.8 94.7 91.2 93.7 87.7 79.4 76.7 76 67.4 73 74.5 75 75.2 75.1 74.4 76.6 77.7 78 78.3 78
333.2 321.6 326 308.4 290.5 274.9 262.6 245.5 238.4 228.8 218.2 209.2 201.4 195.1 190.5 188.4 182.7 171.8 189.3 200.5 214.2 227.3 244.1 261.2 270.6 282 293 298.2 297.9 292 289 282 277 293.9 310.9 329.8 346.2 362.9 382.1 397.3 408.5 419.5 430.1 436.1 437.9 438.1 437.2 431.4 421 407.1 392.3 378.9 369.3 364.1 360 352.9 348.3 342 338.2 333.8 321.8 324.2 332.6 352.1 370 387.9 404.9 419.7 437.4 451 461.1 470.9 480 482.1 481.6 477.4 470.5 460.6 448.1 433.7 419.3 404.4 388.7 373.3 359.5 350.7 351.5 353 354.7 352.8 350.2 350.3 345 334.8 347.5 354.7 363.9 371.4 374.3 372 364.5 355.9 349.8 343.6 338.9 337.6 335.9 332.3 329.8 325.7 321.9 321.3 323.2 327.7 336.8 346.8 357 363.4 366.5 365.1 360.3 351.8 340.4 328.2 320.5 311.9 303.7 294 288.9 286.9 281.1 275.7 268.4 262.5 253.7 245.5 234.8 224.7 213.1 204.9 197.5 193.4 189 183.9 177.4 175.8 172.5 168.8 162.9 157.5 151.5 148.5 145.6 145 144 142 141.1 140.3 139.9 135.5 130.1 129.8 129 126.6 123.8 119.2 119.2 116.1 113.2 111.1 109 107.3 105.5 107.1 107.6 104.7 101.1 99.1 92.8 94.7 94.4 86.5 82.7 83.2 84.1 79.8 78.5 76.7 66.5 73.4 74.1 74.6 74.7 74.2 73.4 76.3 77.5 77.4 77.6 77.8
358.5 334.5 307.3 307.8 293.1 275.1 257.9 246.9 237.5 229.1 219.6 210 203.3 197.1 190.5 189.2 183.5 171.6 187 198.7 210.9 221.5 234.2 250.4 261.5 272.9 282.4 290.4 288.6 282.7 278.1 271.6 282.5 297.2 316.1 333.2 350.8 368.2 382.4 393.8 401.5 411.4 421.8 429 432.1 433.3 433 426 415.5 400.5 386.3 372.9 362.8 354.3 347.5 342 336.4 332.7 330.4 321.8 314 326.7 338.1 356.3 374.3 390.7 406.7 421 434 443.6 452.1 458.5 467.3 472.9 474.4 470.9 463.7 453.2 440.4 425 409.1 395.4 380.2 366.5 355.2 350 344 343.5 344.2 342.4 342.9 343 330.2 334.7 346 353.2 362.2 369.6 371.7 369.2 362.6 353.7 346.6 339.3 333.1 329 324.6 322 319.4 317.7 314.2 313.5 316.8 322.2 330.2 341.3 353.8 357.7 358.2 359.9 353.4 345.4 336 324.5 317.9 312.3 304.6 295.4 290.1 287.6 281.2 274.9 267 259.3 249.9 239.9 226.4 217.3 210.1 201.2 196.6 192 186.3 182.9 175.5 171.4 169.7 165.5 161.9 157.2 150.7 147.5 145.3 143.9 143.8 141.5 140.9 140.6 141.7 133.5 131 132.5 128.6 125.5 124.8 124.3 120.3 119.1 117.9 115.3 113.3 111.2 109.5 103.9 102.9 103.3 100.7 99 99.3 99.2 100.4 96.3 89.1 81 79.5 78.5 76.5 74.8 71.5 72.3 74.4 74 74.2 74.2 73.4 76.3 77.8 77.5 77.6 77.7
362.6 345.3 323.4 298.7 288.6 271 259.8 248.8 238.9 229.4 223.3 205.6 203.1 197.3 191.4 188.2 184.8 170.8 184.8 195.8 206.2 216.6 226.4 240 253.5 264.3 272 278.7 279.8 274 269.6 269.9 286.3 306 322.8 337.7 355.7 372.7 384.4 392.8 400.1 407.3 414 419.9 425.5 427.6 425.7 418.9 409.4 397.1 382.6 369.1 356.4 345.9 337.9 332.1 328.4 325.2 321.8 308.8 315.7 326.7 341.6 358.5 375.8 389.8 402.9 415.4 424.5 433.1 440.9 449.5 456.3 461.4 463.2 463.1 455.9 445.5 431.6 416.1 398.9 384.5 372.5 361.3 352.4 344.4 337.3 335.5 336.7 336.2 336.6 329.3 320.2 335.8 346.7 354.5 363 370.3 371.4 367.9 361 352.7 344.4 337.9 330.6 320.5 318 314.9 311.8 308.9 306.7 305.9 309.9 316.5 324.9 335.1 345.3 349.7 348.7 346.7 344.5 339.6 333.4 325.1 315.1 310.7 302.2 296.6 289.8 286.9 281 272.9 263.5 253.7 243.2 228 221.8 214.4 207.2 199.1 193.9 188.2 183.7 179.6 173.8 171.3 162.7 162 157.2 154 150.5 147.2 145.4 143.2 142.2 141.4 140.4 140.7 138.9 133.2 132.8 134.8 129.7 125.9 125.3 124.2 122.7 119.1 117.3 116.5 113.2 110.4 109.1 106.4 102.2 102.8 101.7 101.3 100.2 98.8 98.2 95.7 93 81.9 85.5 84.4 81.9 75.1 71 69.9 74.4 74.2 74.1 73.6 74.1 77.8 77.8 77.5 77 77.1
367.7 347.5 328.2 311.8 294 273.6 260.4 249.1 242 231.4 224.2 212 200 196.2 193.7 187.9 184.4 170.3 182.7 190.6 201.1 210.7 219.6 230.6 243.6 254.3 262.4 268.1 269 265.9 258.5 276.4 294.2 313.6 330.5 348.3 361.9 373.7 382.2 388.7 395.7 401.9 407.4 413.2 417.9 420.9 418.9 412.7 403.1 392.7 380 367.4 353.1 339 330 324.5 321 318.5 315.9 305.1 318.2 326.7 342.9 358.8 374.4 387.4 395.7 404.2 414.2 420.9 429.9 437.3 447.1 450.5 450.5 449.6 445.4 436.4 423.2 407.2 391.3 377.7 365.4 356.4 347.7 341.1 335.8 324.4 328.9 328.8 330.2 321.1 324.3 333.6 346.3 356.2 365.3 370.7 371.9 367.8 362.2 353 344.8 338.2 331.9 321.7 310.1 307.7 305.8 302.8 300.8 299.5 303.2 308.1 316.7 325.9 335 339.4 340.7 340.2 338.5 334.4 328.4 322.4 314.2 306.8 299.4 294.9 289.6 283.9 277.1 269 257.3 245.8 234.7 222.8 217.7 210.6 203.8 199.1 193.8 187.5 181.2 176 169.7 163.6 160.3 159.2 153.9 151.4 149.2 146.6 145 143.7 142.2 139.9 139.7 139.3 138.4 133.9 134.1 135.4 129.6 126.2 125.4 123.8 121.6 119.2 117.9 115.3 114.3 111.1 107.5 105.5 105.8 105.9 103.7 100.4 98.7 96.8 92.5 88.7 86.1 88 86.7 86.8 84.5 82.9 74.3 67.9 72.4 73.1 73.9 73.1 73.1 78.2 77.1 77.2 76.7 76.4
380.4 357.8 338.1 318.3 303.7 285.3 270 258.1 244.9 235.6 223.7 214.9 202.3 196 193.8 187.8 183.1 169 178.6 184.9 194.4 203.7 212.3 222.6 234 244 253.6 259.5 259.4 257.7 259.5 280.9 300.8 321.7 339.5 355.8 364.7 371.7 378.1 383.2 387.2 392.6 398 403.5 409.4 413.5 413.9 409.8 401.2 391.8 380 367.3 350.8 335.2 325 317.4 313.1 311 301.7 308.3 315.7 327.4 342.7 357.1 370 380.6 388 393.4 401.1 409.6 418.5 427.3 434.7 438 439.4 437.3 432.6 425.8 414.6 399.8 386.7 374 361.9 351.3 343 336.7 330.4 325.2 321.6 323.4 316 311.7 325.9 340.8 349 358.8 368.1 372.5 374 371 364.8 356.4 347.8 340.6 334.2 325.6 314.3 306.7 298.1 295.7 294.5 293.6 296.9 299 307 314 323.7 330.7 333.6 336 334.2 331.6 328.7 323.7 315 304.1 298.3 293.3 287.5 281.3 272.3 258 240.2 232.4 226.3 220.3 214.1 206.2 201.9 196.3 191.5 185.3 174.7 170.7 167.8 159.5 156 155.3 153.5 150 148.3 145.9 146.8 146.2 146.1 143.7 139.5 136.9 135.9 134.6 134.5 136.1 129.1 125.6 124.7 124.5 121.5 120.3 117.8 117 116.7 114.4 109.9 108.4 107.9 106.9 103.4 100 96.5 93.5 91 87.6 87.1 88 88.9 90 87 82.3 82 62.2 70.4 73.9 73.3 73 73.4 77.7 77.3 76.9 76.4 76.1
393.2 372.7 352.8 333 314.8 297.6 281 267.8 254.1 238.4 223 212.6 201.2 196.3 194 186.7 184.1 176 175.6 181.5 188.7 196 205.7 216.3 226.7 236.9 245.8 250.9 251.1 245.6 264.9 286.8 310.4 330 347 358 363.3 367.3 373.3 376.6 378.6 382.3 387.7 394.6 401.7 407 408.6 405.3 399.1 390.7 378.9 365.2 350.3 333.9 322.2 313.7 307.5 303.6 301.2 309 314.3 327.2 340.6 353.1 364.7 372.4 378.6 384.1 388.7 398.2 409.7 418.7 423.7 427 427 427.6 423.4 415 406.3 395.2 385.3 372.2 358.9 347.8 338.9 331.9 326 321.1 316.1 308.9 304.4 326.3 333.9 342.9 350.9 364 372.8 377.2 377.9 374.6 368.8 359.5 350.7 343.8 337.5 330.1 319.8 308.9 300.1 290.4 285 284.7 289.4 292 297 305.1 313 320.4 326.3 329.4 328.8 328.2 327.3 323.9 315.1 305.2 298.4 291.9 284.3 275.9 264.6 248.7 237.4 227.3 222.5 214.4 210.2 203.6 198.6 193.5 188.1 182.1 174.8 166.8 161.9 157.9 155.1 152.9 151.4 149.6 152.5 152.3 151.6 150.2 148.4 146.5 144.7 141.5 138.7 135.3 134.4 135.3 131.6 125.8 127.3 126.4 122.3 120.5 117.7 117.8 117.1 116.6 111.2 108.7 106.9 104 103.1 98.2 93.9 90.1 88.4 87.4 87.8 86.3 87.5 89.6 88.7 83.6 85 70.9 67.7 72.2 73.2 72.4 73 74.5 76.8 75.9 76.9 76.3
402.9 384.7 365.6 348.2 330.2 314.7 297.6 277.5 261.1 245 232.2 217.3 207.4 200.2 194.9 186.4 187.7 183 167.2 180.1 183.1 189.7 199.4 210.9 220.9 230 238.1 241.9 235.5 253 270.9 293.6 315.8 333.6 348.9 357.7 363 362.7 365.4 367.7 368.3 371.6 376.4 383.6 391.7 398.4 401.2 400.1 395 387.3 379 365.5 350.6 335.6 321.3 310.4 303.6 295.2 298.5 307.9 314.7 326.6 338.6 350.6 358.1 364.8 369.8 374.9 380.6 388.9 399.9 409.3 414.3 416.9 419 417.4 413.4 408.1 399.4 390.4 382.1 368.4 355 343.5 334.6 327.3 320.9 315.4 301.8 298.6 320.2 327.2 336 343.3 355.5 367 375.9 382.9 383.8 379.2 373.2 365.1 356.4 350 342.3 334.9 325.6 315.5 304 294.4 285.8 276.9 281.2 285.3 289 295.2 301.9 309.9 316 320.3 322.1 324.1 322 320.3 313.1 304.5 296.6 289.6 280.9 268.4 254.4 244.7 226.5 220.5 215 210.4 206.4 201.3 196.3 191.4 186.6 180.9 175.1 171 165.2 160 157 157.1 155.9 156.9 157.2 157.1 154.4 153.2 151 149.4 148 144.2 140.6 137 134.7 135.4 132.4 126.9 128.4 127.6 122.6 121 118.1 118.2 116.7 116 110 107 104.4 101.2 97.9 94.2 92.8 90 88.4 88.1 90.5 91.2 88.6 85.8 82.9 87.9 86.6 79 62.2 69.9 72.7 72 72.8 73 74.4 75.4 76 75.8
411.2 395.4 377.9 357 340.6 322.7 307.4 290.2 272.5 254.8 241.3 227.9 216.5 204.4 198.3 188.1 186.1 184.2 171.1 173.1 181 187.5 197 204.8 214.5 224 230 230.7 233.9 254.4 276.3 297.3 317.1 334.5 347.2 353.9 356.6 357.4 355.8 355.6 356.4 359.2 365 372.9 380.4 387.3 389.7 390.7 389 386.1 379.2 366.5 349.4 336.4 321.7 308.7 299.5 294.2 297.7 305.5 311.3 324.4 335.9 345.7 352.8 358.1 361.3 366.3 373 384.5 395.5 402.2 405.2 406.6 406.7 406.8 405.4 398.3 390.4 382.8 373.5 362.6 350.4 338.7 330.1 323 316.7 307.8 293.2 309.6 320.7 327.7 338 347.1 360.9 370.3 381.1 387.7 388.6 384 377.2 369.3 362.5 355.5 347.7 340.8 331.7 320.8 307.9 299.1 287.2 278 268.8 274.7 279.9 284.8 290.8 296.9 303.7 309.5 313.5 315.1 314.5 313.8 308.6 302.2 292 284.7 271 256.1 247.7 233.6 224.6 217.2 212.4 207.5 204.7 199.1 191.9 188 184.8 178.9 174.6 170.3 165 162.5 163 160.5 160.5 161.3 163.5 162 158 156.1 153.9 151.2 150 147 143.1 139.9 135.5 134.2 134.2 127.9 127.7 124.6 123.6 125.5 118.5 118.5 115.6 112.6 107.7 104.7 102.5 99.2 96.7 96.5 94.2 89.9 89.7 90.5 89.4 94.4 92.2 89 90.1 88.1 87.2 83.9 74.4 61.5 70.1 72.4 71.9 70.9 71.9 75.4 75.1 75.3
419.3 402.5 385.3 365 349.4 331.6 314.3 299.7 284.9 268.8 252.6 238.1 225.4 214 202.1 194.2 186.6 183.1 174.3 167.1 176.4 182.9 191.4 200.3 208.4 217.7 219.1 221.6 237.5 256.7 279.1 300.4 317.7 331.7 341.6 348.5 349.2 350.3 349.7 345.9 345.5 346.9 351.8 361.2 369 374.6 378.4 382 384.8 383 377.5 367.2 351.9 334.4 321.4 307.5 298.2 288.8 297.1 302.2 308.6 320 330.7 340 344.7 348.9 354.9 363.7 373.2 384.2 393.4 397.3 397.7 396.4 395 396.4 393.3 386.1 379.9 372.7 365 355.7 344.7 333.3 325.1 318.6 313.4 300.8 292.4 310.9 318 327.6 338.1 349.9 361.5 374.7 384.3 390.6 392.7 387.9 379.2 369.9 363.4 356.5 349.6 343.2 334 323.6 312.8 301.9 289.3 279.3 268.4 264.9 269.3 274.1 279.6 286.5 292.7 298 301.5 305.3 305.9 302.3 299.3 293.6 286 276.1 259.9 249.4 239.7 230.5 220.7 214.2 209.7 203.5 199.1 195.1 191.2 186.7 182.2 177.5 176.7 171 167.9 167.8 167.2 165.1 165.2 167.4 167.6 166.5 161.4 158.8 156.6 153.8 151.8 149.5 145.9 143.2 138.3 133.2 134.1 129.3 126.6 125 123.2 123.6 118.6 114.5 109.8 106.8 105.1 102.5 99.2 97.3 95.9 93.4 92.8 91.9 91.8 93.3 91.6 97.3 92.8 94.8 94.3 88.5 86.6 85 82.7 74.6 61.3 70.9 71.4 71 71.3 71.8 74.7 74.4
419.6 406.7 390.1 369.5 352.1 340.9 322.2 309.2 291.9 278.2 264.1 250.8 237.5 225.8 212.8 200.3 194.6 186.3 178.9 166.3 172 179.3 187.4 195.6 202.7 206.5 215.7 228 238.1 258.2 279.9 297.5 313.8 327.4 335.4 339.6 342.1 344 341.4 338.1 336.7 336.2 339.2 347.4 356.2 362.5 367.9 374.2 379.3 381.1 377.5 367.8 352.3 335.7 322 308.5 295 288.7 294.5 299.2 305.4 315.1 322.7 331.2 335.5 341.6 351.6 362.7 374.8 386.2 395.3 399.3 395.3 389.6 386.4 383.6 379 372.8 367.2 361.6 354.2 347 337 328.1 320.4 314.6 309.2 295.8 293.5 308.7 317.1 326 338 350.5 365 377.5 386.5 392 391 386.6 377.2 367.9 360.1 353.1 346.1 340.3 332.5 322.5 313.9 303.6 292.6 282.1 275 259.1 259.3 262.4 267.4 273.3 279.7 286 289.6 291.7 290.5 289.2 286.3 281.2 273 259.6 251.5 245.9 235.8 224.9 214.4 208.5 204.7 199.3 196.4 193.2 189.5 185 180.5 177.7 176.4 176 175.1 173.1 172.4 172.5 172.7 173.5 171.8 169.3 164.9 161.6 158.9 155.5 153 151.3 148 144.2 141.4 134.9 132.9 130 128.2 126.8 123.5 119.7 114.7 108.5 107.4 106.2 105 105.7 97.7 96.7 100.4 102.7 100.6 101 99.2 96.2 97.9 98.8 95.6 95.2 94.2 90.3 86.3 84.9 83.3 78.9 69.8 60.9 68.9 71 70.7 70.6 74.4 73.9
418.2 404.4 388.7 370.5 353.9 341.2 328.2 316.8 303.4 283.8 271.4 259.7 245.6 233.8 220.3 205 196.4 189.9 182.6 173.9 169.2 174.5 181.8 188.3 192 203.6 216.7 228.8 238.2 257.9 276.7 294.2 309 320.3 329.1 332.5 335.5 339.3 336.1 331.3 328.6 326.6 329.2 335.5 343.6 350.7 358.4 366.5 373.2 378.5 377.7 370.6 354.9 337.2 320.2 306.9 290.8 286.2 291 295.2 301.4 309.4 316.7 322.8 328.6 335.7 349.2 363.9 376.9 388.8 398.5 400.9 395.4 385.6 377.6 370 365.7 361.2 355.4 349.7 343.6 337.1 330.3 322.4 315.6 309.9 305.2 284.2 293.3 307.7 315.5 325.6 338.4 352 364.9 376.6 386.6 391.7 389 381.1 372.8 365.1 356 348.8 342.2 335.4 327.7 319.9 312.9 304.5 293.4 284.7 277.6 269.7 251.4 252.4 255.8 260.6 267.4 272.7 276 278.6 279.2 274.9 270.4 264.5 257.8 254.6 248.1 238.3 227.6 216.4 209.3 204.6 199.8 195 193.1 185.3 182.8 182.1 180 178.5 178.3 178.5 178.2 177.9 176.8 179 178.8 176.8 174.9 171.7 167.8 164 160.6 156.9 153.8 152.2 148.2 145.2 141.8 135.9 133.9 130.9 128.7 127.8 123 115.1 110.1 109.1 110.9 110.3 104 98.5 98 98.3 104.1 108.9 109.6 109.5 106.1 104.8 103.4 101.1 97.4 102 99.1 90.9 86.6 84.7 83.2 80.6 72.5 68.3 60.8 69.5 70.3 73 74.1 73.8
410.6 399 385.3 369.2 354.9 341.4 328.7 319.2 307.9 294.5 279 266.2 254.4 241 227.9 211.9 200.1 191.8 185.8 181 164.2 169.1 175.2 179.8 190.6 204.2 215.6 224.2 237.3 256.9 275.3 291.5 306.6 316.7 322.1 325.9 330.1 330.6 327.1 322.4 319.3 316.2 317 323.4 331.2 340.3 349.8 359.3 367.4 374.7 375.4 370.9 357.8 339.2 321 306.7 293.4 278.6 279.9 291.3 296.8 303.7 310.1 316.8 324.3 336.7 351.8 366.4 380.7 393.8 402.3 403.7 398.4 384.5 373.1 363.3 353 348.7 343.8 339.6 334.4 327.8 321.6 316.3 310.2 305.5 300.5 278.8 290.4 304.9 314.1 325.4 337.2 349.1 360.8 372.1 382.3 385.8 383.1 375.5 369.5 361.8 353.1 345.1 337.6 331.6 324.3 316.4 308.6 301.1 293.1 285.1 276.6 268.3 260.7 243.6 246 248.7 255 260.1 263.8 264.3 265.8 263.7 260.6 255.3 252 248.7 239.8 231 220.8 213 206.1 201.3 197.5 193 188.6 182.8 180.6 179.7 179.2 180.8 181.8 182.9 182.4 182 182.1 183.2 183.1 180.3 177.5 174.7 171.1 166.1 162.3 158.7 154 151.6 147.6 143.9 140.5 137.2 134.8 131.8 128.5 124.1 115.1 109.7 110.3 113.3 111.3 110.9 104.9 101.6 103.9 108.5 112.9 116.8 119.1 117 113.2 109.1 105.2 100.9 102.1 103.5 99 93.3 87.7 85.9 83.3 81 73 70.5 65.5 60.6 68.3 72.3 73.6 73.5
402.1 388.9 376.7 362.7 348.7 336 327 318.4 308.7 297.4 286.7 275.5 262.4 249.3 233.2 219.7 206.5 197.3 188.2 182.8 175.1 164.8 170.5 178.8 188.4 200.9 212.7 220.4 236.3 255.7 274.3 288.3 301.8 312.2 316.4 318.2 318.8 318.9 316.6 313.7 308.3 307.1 308.3 314.9 322.2 331 343.8 353.4 362 370.5 372.8 367.1 357.8 341.3 322.9 306.2 295.1 282.7 278.5 287 292 298.9 305.4 313.2 326.6 340.2 355.2 370.6 386.2 398.1 406.6 405.7 399.5 384.3 370.8 358.5 348.5 340.7 335.3 331.3 324.7 318.5 314.5 309.1 304.9 301 295.6 274.2 286.9 303.2 313 324.9 336.3 346.3 356.3 366.2 373.9 377 376.8 371.8 364 357.2 349.2 341.5 334.2 326 319.2 312.3 304.4 297 289.7 284.1 277.1 270.5 260.8 248.5 234.5 239.8 243 248.5 251.6 252.2 254.2 252 248.4 245.3 242.2 238.1 230.9 222.6 216 208.7 202.8 197.8 192.9 189.7 185.5 182.4 179.3 179.3 179.8 182.9 185.4 186.7 187.1 186.6 186.9 186.6 186.3 183.7 181.3 177.2 173.6 168.2 162.5 158.3 153.9 150.6 146.1 142.8 139.9 137.8 135.5 132.2 126.8 113.6 111.1 110.7 113.7 115.3 109.7 110.3 109.7 109.7 113.2 119.3 126.5 129.1 128.2 125.2 119.8 113.6 107.2 102.5 103.3 102.2 100.8 95.6 88.8 85.9 84.1 81.8 76 70.2 69.6 63.8 60.1 69.5 72.8 73.2
386.5 378 366.7 354.6 343.6 333.6 323.5 315.3 305.7 298.8 290.1 282.4 267 255.1 240.4 226 213.4 204.5 193 184.5 179.9 174.2 164.5 176.5 186.4 196.4 207.7 216.5 234 255.1 272.3 288.1 301.6 305.1 307.1 310.9 311.9 308.5 306.7 304.6 300.2 299.3 301.5 306.2 315.3 326 338.1 348.6 358.2 365.2 367 362.7 353.8 343.2 328.1 309.2 294.4 280 273.8 282.7 283.5 295 302.2 315.5 329.3 343.1 361.2 377.9 391.3 402.9 406.1 402.8 396.2 382.2 366.7 353.3 341.6 334.7 326.4 319 316.1 312.3 306.9 302.8 298.7 296.6 280.8 273.4 293.7 302.4 312.5 325.4 335.6 344.3 352.9 360 366.7 369.6 369.8 365.9 359 351.6 345.7 337.7 330.8 321.1 313.4 306.8 299.7 292.5 285.5 279.9 274.9 267.8 260.7 253.8 242.3 228.3 233.1 237.1 239.8 243.1 242.9 242.2 239.5 238.3 237 229.9 223.2 216.6 210 203.6 199 193.4 189.1 186.4 181.6 179.4 179.3 179.6 182.5 186.8 188.9 190.4 189.7 189.5 190.8 189.1 188.2 185.4 183.5 179.6 175 169.7 163.8 158.6 153.2 149.3 145 142.4 140.5 137.6 135.9 131.3 119.3 113 113.1 113.4 116.6 114.3 110.3 110.3 111.4 114.8 123 131.2 135.5 135.7 133.9 130.3 125 118.1 109.2 103.2 104.6 104.1 102.9 96.2 89.6 86.6 84.7 82.3 80.4 70.6 69.6 68.1 63.9 58.6 68.1 73.1
373 364.1 356.6 347.2 338.9 331.1 322.4 314.9 307.9 300.9 292.2 283.5 272.3 260.9 246.1 232.8 220.1 208.3 198.1 188.6 180.5 177.3 168 164.9 179.5 191.4 201.3 212.1 226.6 250.3 267.5 281.3 295 300.8 301.8 301.8 301.5 299.2 296.7 293.6 291.5 292.3 295.1 300.7 310.3 322.5 334.4 345 355 361.2 362.2 358.1 349.9 341.4 328.1 313.6 295.7 283.8 271.9 273 284.7 290.8 302.2 317 331.7 348 365.5 382 396.1 403.9 404.1 400.7 391.6 378.6 363 349.3 335.7 327.9 318.9 312.2 307.2 304.4 300.6 296.3 293.9 290.5 273.3 273.2 293.1 302.5 312.2 322.7 335.5 343.4 351.3 358.2 362.2 363.6 362.8 359.1 354.1 348.4 342.1 336 329.9 319.8 311.4 302.8 296.1 289.6 282.4 277.3 269.8 264.3 259.1 253 243.7 233.6 221 226.8 230.6 233.7 233.8 233.3 230.1 229.3 228.1 221.9 217.2 211.2 205.9 199.7 194.6 190.6 186.4 183.5 178.7 178.5 179.4 182.3 186.8 191.8 193.9 194.7 193.9 193 192.9 191.7 190.5 187.3 184.1 179.8 174.1 169.8 164.3 159.3 153.7 148.9 145.6 143 139.8 137.6 135.3 132.7 123.1 111.6 114.4 117.9 118.7 115.6 112.9 115 118.8 121.6 130.1 134.6 138.2 138.4 136.6 132.6 127.5 121.5 108.6 104.3 103.6 101.4 99.1 93.8 91.1 87.7 84.6 83 81.1 76.9 69.3 69.3 67.8 65.6 55.5 71.3
361.2 353.4 346.8 340.3 334.6 328.5 321.7 315.2 309.9 303.3 294.3 282.3 275.2 263.9 251.2 237.5 226.7 214.7 205.3 195.2 187.6 177.9 173.9 165.5 173.1 181.9 192.5 205.9 218.9 240.5 259.8 274.4 284.6 292.3 297.2 295.1 293.2 290.6 287.4 283.9 283.1 285.7 289.2 295.1 307.1 319.8 331.2 343.4 352.3 357.3 357.7 351.4 344.4 336 327.1 313.8 299 285.7 270.3 268.3 281.4 288.3 301.8 317.2 334.8 351.2 366.8 383.8 396.5 403.1 401.6 395.7 385.4 373.3 359.1 343 331.3 321.8 312.7 305.8 299 296.8 296.9 292 288.4 284.5 262 280.6 293 301.8 312.5 326 336.2 343.6 350.6 356.4 359.3 360 357.5 354.4 349.4 345.7 340.2 334.1 328.2 319.6 311.9 302.4 293.7 286.8 279.5 275.7 270.3 262.6 252.1 249.6 244.5 239.6 224 213.9 221.1 224.1 227.4 225.6 222.7 220.9 220.1 214.8 211.1 205.5 201.6 195.8 190.8 187.4 183.7 179.2 178.1 178.4 182 186.4 191.7 196.4 196.9 198.3 197.4 197.2 194.9 192.6 191 188.1 184 178.8 174.3 168.8 163.4 157.5 153 149.8 147.5 144 141.6 136.8 132.4 127.6 114.8 119.6 123.6 126.3 121.5 120 120.2 123.2 128.3 131.9 131 135.5 138 137.9 136.1 132.9 128.3 120.9 108.8 104.7 104.4 102 98.4 94.4 92.5 89.5 87.6 84.9 82.2 79.6 70.3 68.7 68.9 66.9 54.2 66.7
346.6 343.4 339.8 333.6 328.9 325.8 321.5 316.9 314 306.6 298.6 287.7 278.4 268.4 256.7 244.9 231.8 222.5 210.4 200.8 193.8 183.8 174.2 164.9 160.3 177.1 186.8 199.6 212.5 230.7 250.5 266 277.3 284 288 288.4 286 281.5 276.2 274.6 276.7 279.7 284.2 290.7 305.2 319.2 330.4 342.9 351.6 352.9 349.5 345.3 337.5 330.4 321.6 310.5 300.6 286.9 274.5 264.5 276.3 285 298.9 315.5 330.6 348.1 365.8 379.9 392 395.3 393.6 389.4 380.8 367.9 354.4 339.2 326.1 315 305.2 297 292.5 289.9 288.4 287.2 283.4 262.4 260.1 279.4 292.2 301.7 314.4 326.2 336 344.3 350.3 354.4 355.2 354.8 351.1 348.3 344.3 340.9 335.9 331 324.1 318.1 311.6 304.3 295.2 286.5 278.6 269.1 263 261.4 253 243.5 239 235.2 229.4 221.7 205.6 209 218.5 218.4 216.9 214.2 211.7 209.3 205.3 200.9 196.3 191 186.7 181.9 179.6 177.6 178.1 180.6 186.1 190.5 194.4 198.2 198.9 199.7 199.9 199.6 197 194.4 191.7 187.6 182.4 177.6 173.8 167.3 160.3 156.6 153.4 149.6 147 145.7 136 122.8 116.1 114.3 120.8 127.4 129.1 128.7 127.1 125.9 128.6 133.9 135.8 136.8 135.5 134.1 135.4 136.4 135 132.2 127.7 122.1 114.3 106.4 104.8 103.9 99.9 95.4 93.3 91.3 88.4 85.9 83.3 80.5 75.6 69.3 68.7 68.2 61.6 61.8
335.8 330.8 328.1 327.8 324.9 321.7 320.5 318 315.6 311.7 304.4 299.2 284.4 275.2 264.3 255.8 239 228.6 217.6 207.2 196.1 188.9 178.1 168.4 164.6 165.9 178.6 193.1 206.1 220.1 236.9 255.5 267.8 274.2 277.5 278.8 278.3 273.6 269.4 269.1 269 274.5 279.4 290.1 305.4 319.9 331.8 342.5 348.7 347.8 344.8 340.1 332.2 325.8 315.4 307.7 298.4 288.1 277.8 262.1 271.7 281 295.7 310.1 324.7 340.6 358.1 373.2 381.5 384 384.5 380.8 373.8 361.8 348.9 333.3 321.2 307.2 298.6 292.5 287.7 280.5 279.5 278.8 275.4 256.8 258.9 281.4 295.5 303.7 315.9 326 337.5 343.9 348.6 350 348.4 348 344.7 340.8 337.8 335.5 329.2 326.3 321.1 316.7 312.2 305.5 297.3 288.3 279.7 272.5 262.5 251.4 246.4 241.7 235.4 229.1 224.2 220.2 218.4 199.3 203.9 211 212.4 209 205.4 202.9 199.3 195.6 192 186.1 180.5 177 176.8 176.8 178.3 182.5 188.1 192.2 196.1 199.1 200.1 201.9 202.9 199.8 197.3 194.3 189.7 184.5 180.2 176.2 170.1 164.8 161 156.8 152.2 146.2 139.6 130.8 117.7 115 116.3 127 132.9 133.8 133.5 133 131.6 132.8 139.2 140.4 141.1 141 139.7 137 133.9 134 133.6 130.3 126.6 122.4 118.3 110.2 104.7 104.6 101.2 97.2 93.7 92.1 88.5 86.1 83.9 81.8 78.1 72.8 68.1 67.9 66 53.2
324.6 321.3 317.1 315.8 317.5 316.2 316 315.8 314.2 311 304.5 304.7 295.8 283.9 275.8 261.2 248.6 233.4 222.6 211.5 204 191 184.2 173.9 163.3 158.3 172.6 186.2 198.4 210.4 226.8 241.4 256 263.7 267.9 270 268.6 267.1 264 262.4 266 269.9 277.2 293 306.6 322.4 334.3 342.8 346.3 345.8 340.5 332.8 324.2 315.5 308.9 303.1 295.8 288.3 279 263 264.5 277 290.7 304.3 320.8 337.7 353 365 371.2 372.9 372.9 371.8 365.3 356.6 344.9 330.5 317.8 307 297.3 289.6 281.4 274.2 271.3 269.6 262 253.5 270.9 284 292.9 303.7 320.2 330.2 337.2 341.8 343.7 342.8 340.7 338.7 337 333.2 330.8 328.4 322.8 319.5 317.3 314.6 311.7 307.4 299.4 290.6 280.3 270.6 262.9 254.1 244.9 231.4 230.1 224.8 217.6 217 214.6 209.7 191.7 201.2 205.9 204.2 202.3 199.4 193.9 190.3 187 182.3 177.2 176.1 177.8 177.9 180.2 184.6 189 193.3 196.7 198.2 201.3 203 201.9 199.7 197.3 193.2 186.5 182.2 176.7 170.1 166.8 165.2 159.7 151 144.5 137.1 128.9 117.9 117.1 123.6 133.1 136.6 139.3 139 139.1 139 140.2 143 145.8 147.2 147.6 145.9 143.1 139.8 134.4 132.4 131.3 128.8 125.5 123.3 119.1 111.3 103.6 104 102.3 97.7 93.3 91.3 88.4 85.8 83.4 81.1 78.9 76.8 73.7 67.9 67.6 67.1
315.7 312 308.9 307.5 306.7 307.3 307.4 308.8 308.4 307 302.4 303.3 297.2 289.9 279.6 266.9 256.4 244.2 226.5 213 208.2 195.2 184.7 180.4 166.1 162.4 166.6 178.7 191.6 203.8 215.7 229.5 241.9 250.9 255.3 257 259.1 259.3 257.5 257 261.1 267.2 280.5 294.6 309.4 323.9 335.9 344.3 347.1 342.8 333.2 324.3 316.6 308.2 302.5 297.6 294.9 288.4 280.2 270.4 260.2 274.3 286.6 300.1 318.1 334.5 347.3 358.5 365.1 367.1 365.6 361.8 359.8 355.3 348.3 334.2 321.6 309.7 299.6 288.7 279.8 269.7 261.3 261.4 246.8 261 273.4 282 291.4 306 320.3 332.5 338.3 339.5 338.9 335.8 333.7 330.1 328.4 325 321.9 319.5 315.2 311.5 310.8 311.5 310 306.5 298.6 291.4 281.5 272.7 264.6 256 245.3 238.8 229.5 220.1 212.4 203.4 208.8 204.9 200.5 184.1 194.6 196.9 195.3 194.4 189.6 185.7 183.1 177.2 174.6 179.2 182.1 181.1 183 186.1 190.1 193.6 197.1 198.4 200.2 200.6 200.2 197.8 194.4 188.7 182.9 178.1 171.3 166 162.4 157.8 150.6 142.1 136.6 128.8 118.8 120.4 128.9 138.3 140.2 143.3 145.5 145.9 147.2 148 152.1 156.3 157.7 155.7 152.9 149.7 145.8 139.2 135.1 131.3 129.1 126.6 124.7 122.2 119 113.3 106.7 104.6 102.3 97.7 93.8 90.7 87.8 85 82.5 80.9 79.3 77.6 74.3 73.1 69.6 67.3
307.6 304.3 302 299.3 298.1 296.2 296.6 297.4 299.9 300.9 295.9 299 295.7 290.8 282.6 272.3 263.8 254.9 238.4 220.6 208.1 196.5 185.9 185.7 174.5 161.8 162.3 168.8 183.2 196.5 206.7 219.1 229.1 235.7 242.5 247.2 250.2 251.2 250.9 250.4 255.2 267 280.2 297 311 325.6 337.5 345.9 347.1 342.1 332.8 320.7 310.1 301.4 295.3 292.6 291 286 279.5 269.2 255.2 270.2 281.4 297.7 313.3 328.9 341 351.8 358.2 360 359.1 356.5 356.1 352.7 344.8 333.7 322.4 311 298.5 287.1 277.4 267.7 258.6 248.7 241 254.2 271.8 281 292.9 307.9 322 333.3 336.7 337.3 335 330.8 327.6 322.8 320.1 316.5 313.3 310.2 306.7 305.2 304.6 305.7 307.5 304.4 300 293.2 284.7 275.5 265.5 255.6 246.5 237.2 230 222.2 215.2 209 200.5 196.3 195.4 185.8 183.5 191.2 189.9 187.8 184.4 181.8 179.7 175.7 173.3 177.9 180.5 181.5 183.5 185.4 189.1 193.1 196.3 197.9 199.1 198.1 196.7 193.9 188.6 182.8 178.4 173.5 166.2 160.8 157.3 150.1 140 130.5 123.6 120.6 127.8 138.1 143.7 145.4 147.8 149.6 152.8 155.7 158.1 162.5 166.3 167.6 164.5 161 156.3 151.4 146.9 140.4 134.1 130.3 127.9 125 123.1 121.1 118.1 112.8 107.1 105.8 103.5 97.2 93.4 90.1 87 84.2 81.8 80.5 78.3 76.8 75.3 73.3 68.6 67.4
300.4 297.5 294.5 292 289.9 287.9 287.3 289.1 289.2 289 289.4 292.2 292 289.2 280.6 272.3 263.8 254.8 243.9 227.7 213.2 201.9 189.6 188 180.8 168.5 158.3 161.2 174.9 186.8 198.2 208.7 217.6 225.5 231.3 236.7 241.4 244.1 243.2 244.2 250.5 264.6 280.9 296.3 313 327.2 336.8 347 346.3 337.7 329.8 317.1 305.6 296 289.5 285.5 283.2 279.9 276.7 267.8 252.6 267.9 276.7 293.4 310.3 324.4 336.7 345.4 350.5 351.3 350.2 349.6 349.5 345.1 340.4 334.1 324 312.2 297.9 284.4 273.3 263.6 256.8 236.6 249.2 259.1 267.1 281 296.5 310 322.7 332 335.2 333.7 329.3 324.6 319.5 315.2 310.1 307.5 303.7 300.7 299.7 299.1 298.8 301.1 303.4 302.2 298.8 293.5 285.6 275.7 264.5 255.4 246.1 238.9 229.9 221.4 214.2 206.3 202.8 192.7 181.7 179.1 183.3 186.3 185.8 184.2 181.7 178 174.8 171.3 170.3 175.2 177.9 179.3 182 185.2 187.8 191.9 194.6 195.8 195 194 190 185.9 182.6 177.3 172.2 167.6 160.9 156.5 147.2 134 125.3 121.9 122.1 132.3 143 148.9 151.2 151.9 153.9 157.3 162.2 165.9 171.5 176.5 176.8 173.7 171.2 163.8 158.5 151.4 148.1 140.2 132.9 128.2 126.1 123 121.2 119.2 116.2 112.2 107 105.9 102.1 97.1 92.5 89 86 83.7 81.8 79.7 78.2 77 75.5 71.5 68.9 67.7
294.5 290.5 287.3 284.8 282.9 281.5 280.8 280.4 280.9 281.5 279.2 283.5 285.2 284.8 279.2 272.6 264.7 255.2 245.3 229.9 222.3 207.9 194 184.9 187.5 175.8 155.8 161.2 167.4 179 189.8 199.4 206.5 214.1 221.4 227.7 232.3 235.2 235.5 237.8 246.7 262 278.5 296.6 310.4 323.5 332.1 335.6 339.4 337.3 326.9 317.8 304 291.8 285.5 280.3 276.6 273 270 266.2 251.5 264.3 274.8 290.8 307.3 321 332.6 340.5 343.9 344.4 345.5 345.4 341.4 341.7 337.2 329 323.2 311.1 296.3 281.2 270.5 260.4 251.5 233.7 245.7 256.3 265.9 281.7 297.9 312.6 324.4 330.1 331.1 328.5 323.9 317.3 311.7 305.4 301.2 296.9 294.1 291.6 292.3 292 294 296.2 298.9 298.4 295.6 290.3 283.4 274.3 264 257.4 248.2 238.9 230.4 220.9 210.9 203.3 198.9 192.4 184.2 170 172 181.6 181.2 180.3 177.9 176.6 174.1 168.7 166.1 172.4 175.7 178.6 181.7 184.7 186.8 189 189.6 188.9 188.6 186.2 183.6 180.1 175.4 171.8 166.7 159.8 151.2 143 129.9 124.6 122.8 127.3 141 150.1 154 157.4 159.1 160.4 162.3 167.3 172.3 179.5 182.6 185.6 184.3 180.5 173.9 166.9 157.6 152.5 146.4 139.1 131.1 127.2 124.2 121.1 119 116.3 113.8 111 107.1 103.8 100.6 95.7 92.1 89.2 85.4 83.3 81.4 79.4 78 76.8 75.6 72.9 70 68
289.1 285.3 281.7 278.7 276.8 275.1 274.3 274 273.3 275.4 274.9 275.9 276.2 277.5 274.9 267 262.9 255.5 247 234.8 225.7 213.8 201.7 186 186 180 170.4 160.1 159.2 170.9 179.9 189.1 197.1 204.6 211.8 217.2 223 226.2 222.9 232.7 242 258 273.4 290.9 303.9 315.7 322 325.6 330.6 333 328 316.4 302.9 291.2 281.5 276.1 271.9 267.8 265.1 262.9 247.2 263 274.3 289.8 307.1 319.8 329.6 334.8 337.1 340.7 341.1 337 335.2 334.2 329.8 322.5 314.3 304.7 292.7 279.7 268.2 257.4 247.6 240.1 236 253.4 266.6 280.7 296.7 314.6 325.3 329.3 327.4 323.8 318.9 312.4 303.6 296.5 292.8 288.5 284 283.4 283.4 284.9 287.9 291.2 293.1 292.5 291.2 289.3 284.6 277.1 266.7 258.9 247.3 237.8 229 219.6 208.8 202.6 196.1 186.4 184.4 169.3 163.3 177.2 175.4 175.2 174.1 173.8 173.2 169 162.9 170 173.4 176.2 179.4 182.1 183.4 183.7 182.3 178.8 176.9 175.8 174.8 173.5 170.4 166.8 160.5 152.3 142.5 132.7 125.7 125.1 133.3 143.1 153 158.2 161.1 164.4 168.1 169.8 171.4 177.2 184.3 187.9 190.5 191.7 189.7 182.7 176.9 167 158.5 150.9 143.2 136.4 131.2 125.9 122.2 118.8 116.1 113.7 111.2 108.5 106.1 103.3 98.7 95.3 92.1 88.3 85.4 83.3 81.6 79.8 78.3 76.8 74.9 73.4 69.8 67.8
