ncols 200
nrows 82
xllcorner 300000
yllcorner 811100
cellsize 50
355.6 358.7 358.7 366.7 375.5 383.8 390.1 398 405.1 411 413.2 415.1 416 418.1 421.3 426.7 431.9 434.5 435.9 435.7 430.2 421.9 408.6 391.9 383.1 373.1 365.5 358.6 353 347.9 344.1 340.3 338.5 336.8 334.4 331.4 326.9 320 302.4 295.4 295.6 297 296.4 300.4 315.8 324 329.7 327 327.8 332.5 333 332.3 332.7 332.7 322.8 318.7 319.3 329.2 330.5 330.3 331.9 336.3 343 348.9 354 359.3 369.4 379.8 388.7 389.5 388.1 386.7 383.4 380.5 378.6 375.4 371.6 368.7 364.6 361.5 358.8 354.6 351.7 348.9 346.4 346.1 345.2 345 345.7 346 346.9 347.6 346.9 345.6 343 337.5 334.5 333.4 333.1 334 334.8 335.3 336.8 339 340.9 342.8 344 346.7 349.8 358.7 367.6 377.1 380.5 382.7 386.4 391.5 398.7 413.7 430 445.7 462.6 475.4 483.1 485.9 480.6 462.6 451.5 442.8 427.6 405.8 404.1 409.3 412.1 436.4 442.6 432.7 417.6 423.6 432 434.6 442.4 445.9 452 453.6 450.4 455.2 451.1 440.8 437.2 439 443.2 443.4 442.6 443 443.9 443.6 443.6 444.2 444.2 442.7 437.3 434.7 438.8 444.6 443.4 447 452 452.8 452 442.3 432.6 427.9 428.5 429.7 432.2 434.7 436.9 438.2 439.1 438.2 436 433.1 429.6 425.1 416 411.5 402.2 400.1 405.9 409.5 414.9 422.9 430.6 437.5 442.9 446 444.6 449.6 453.9 461.3
358.8 360.4 365 372.8 381.5 390.6 397.3 404.9 412.8 418.6 422.2 420.4 422 426 430.6 434.7 441.3 445 445.1 444.8 439.6 430.8 416.7 400.1 387.1 375.7 366.9 360.7 354.8 349.9 344.9 341.6 340.2 338.3 335.1 332.8 329.2 311.2 295.6 296.7 298.3 298.1 297.1 304.9 314.8 327.6 328.5 329.8 331.8 333.2 335 336.3 334.2 326.2 319.9 321.5 330.3 330.9 335.6 340.8 335.4 339 345 350.6 357.3 362.4 372.6 383.4 394 396 396.1 393.1 390.7 389.8 387.2 383.4 381.4 375.8 372.8 368.7 363.2 359.6 356.6 353 350.9 349.7 349.4 349.8 349.2 349.8 350.6 350.8 351 350.3 348 343.9 337.6 335.1 334.7 335.3 335.8 336.1 337 338.1 339.6 341.9 343.8 345.9 349.3 354.2 362.5 375.7 380.1 381.6 384.3 389.1 393.2 404.4 417.9 430.8 444.7 457.3 465.9 471.5 465.6 452.9 438.4 417 412 417.1 430.1 441.3 452 460 451.3 440.4 423.2 433.8 440 447.5 451.1 455.4 459.6 459.4 458.9 459.6 454.8 445.2 449.6 445.9 448.4 447 448.9 450.7 451.4 451.9 451.9 451.8 451 447.7 445.4 443.5 451.4 453.7 452.2 454 455.2 454.5 453.3 450.3 438.9 431.9 431.9 432.3 433.8 435.9 437.3 438 438.5 438.5 436 433.2 430 426.7 421.1 414.9 407.4 401.8 405.9 410.3 414.4 422.2 430.4 436.8 441.9 448.3 451.7 450.8 457.6 462.8
362.1 366.3 371.7 378.9 386.8 396.7 403.7 412.2 419.3 425.5 427.7 430 431 433.6 438.2 442.4 448.1 455.5 457.4 455.4 448.4 436.6 420.5 403.5 387.9 375.8 369.1 362.2 356.7 351.8 347.3 343.3 341.5 338.5 335.9 333.2 332 309.8 296.7 297.6 299 298.4 298.5 307 311.9 321.6 326.5 330.5 333.1 335.1 336.5 336.8 335.3 324.6 321.5 327.3 331.4 330.5 342.9 346 337.9 341.8 346 352.1 359.8 366 376.5 386.6 395.3 401.1 403.3 400.8 399.4 398.5 396.3 391.9 389 387.9 380.8 374.6 367.7 362.9 359.8 357.2 354.6 354.3 353.5 353.7 354.5 353.9 353.3 353.9 354.7 354.7 352.8 349.3 343.6 337.6 335.3 336.3 336.8 337.1 338.4 339.1 340.3 342.7 345.1 345.9 348.6 353.4 359 369.9 376.9 381 383.1 386 390.8 396 404.7 416.2 429.4 439.5 446.2 450 439.6 423 409 413.9 434.4 445.3 465.7 477.2 479.2 475.6 463 451.2 438.9 424.6 443.4 452.8 459.9 466.4 468.8 469.3 461.4 462.5 446.8 456.7 456.7 452.1 455.5 459.1 460 460 458 458.5 458.8 458.1 457.6 455.7 455.5 454.2 453 455.6 455.7 456.6 457.4 459.2 463.5 453 441 434.7 434 434.1 434.7 436.3 436.9 437.4 436.9 437.2 434.7 430.1 428.4 426.7 422.5 417 410.4 403.5 404.1 407 413.8 419.6 429.4 436.1 441.9 448.3 454.6 458.1 459.8 465.8
366.8 371.2 377 383.5 392.4 401 408 415.6 423.7 430.9 434.3 435.8 438.6 442.4 445.4 448.9 453.8 462.3 467.9 464.3 453.8 439.8 420 401.5 388.5 377.6 370.3 363.7 357.9 353.2 349.3 346.1 343.5 338.3 335.5 334 329.1 303.6 297.2 299.2 300.2 300.7 307.1 310.3 312.1 317.9 334.7 334.4 334.1 335.5 338.2 336.7 335.9 326.1 323 326.7 331.5 336 341.7 345.2 342.5 344.7 348.3 354 362.3 369.2 377 387.9 397.5 402.4 404.4 405.5 406.5 405.7 404.5 403.3 397 394.9 389.1 383.2 373.3 367.7 363.7 361.1 359.2 358.4 357.6 358.2 358.6 358.4 356.8 356.9 357.4 357.2 356.1 353.8 349.6 343.2 337.2 336 337.9 338.7 339.6 340.2 341.1 342.7 344.9 346.7 349.6 352.9 357.7 364.7 376.2 380.4 380.7 383.4 387.2 393.6 398.1 404.3 412.5 419.1 426.5 422.9 409.6 412.4 427.4 439.6 465.7 479.8 501.3 502.9 497.5 486.8 475 460.8 443.8 430.3 450.6 456.6 464.1 477.2 482 480.9 479.6 477.8 464.7 461 465 458.7 467.6 471.1 472.7 472.9 472.1 471.6 469.9 469.3 464 461.6 460.6 461.1 461 461.2 461.2 462.7 464.2 465 466.8 457.7 446.9 444.2 436.3 435.8 436.2 436.2 436.6 436.4 435.8 434.7 432.3 428.3 426.5 422.1 419.5 418.7 407.9 405.1 410 407.2 408.2 418.3 425.4 434.9 441.9 448.9 457.1 463.3 465.9 468.9
371.5 379.5 381.1 385.9 393 401.2 408.8 417.3 425.1 432.8 439.3 440.6 444 449 451.6 454.6 459.4 467.9 471.9 467.8 455.2 439.5 418.9 402.1 387.8 379.2 370.6 364.6 358.6 354.9 352.1 346.9 345.4 341.6 336.3 334.8 328.2 304.9 298.6 299 300.7 309.1 311.5 312.5 315.8 318.4 341.7 335.6 336.6 343.3 338.8 336.4 332.2 326.8 325.4 323.9 338.1 346.8 343.1 344.5 345 347.4 352.6 357.7 363.3 371.4 380.2 390.7 402.1 407.6 409.9 412.9 412.9 414.6 410.4 410.7 409.1 399.6 395 388.9 380.8 372.1 368 365.5 363.7 362.9 362.5 362.9 362.5 362.4 361.8 361.4 361 360.9 359.7 357.2 354.2 349.8 342.7 338.9 339.3 340.3 340.8 341.4 341.9 343.1 346 347.9 349.8 353.3 357.7 363.7 369.5 374 378.2 381.2 384.2 389.2 394.4 399.5 403.2 407.3 407.7 398.6 412.4 442.9 463.3 469.3 496.5 509.3 513.9 515.4 509.4 498.6 482.2 467.4 445.8 448.4 459.4 462.6 469.3 486.4 495.2 494.1 493.3 489.5 477.6 474.3 469.6 470 477.8 482.7 484.6 486.2 485.2 484.6 483.7 480.8 479.4 477.8 477.6 476.9 474 471.1 468.6 468.1 468.1 467.1 467.2 464 465.5 454.3 439 437.3 436.6 436.1 435.1 435.4 435.2 432.4 430 427.7 424.4 419 413.5 411.6 407.8 409.5 413.6 413.3 408.6 415.3 422.3 431.4 439 450.1 458.9 467 471.9 474.8
377.6 379.6 382.8 387.8 394.4 403.5 411.9 419.3 425.9 434.3 440.6 444.9 450.4 452.9 453.8 456.7 461.2 466.2 468.9 463.4 452 438 419.3 399.4 389.6 379.3 372.9 366.3 360.8 356.4 353.4 348.5 346.6 342.1 337.7 335.5 329.3 305.5 300.2 300.3 307.5 312.8 313.7 314 315.4 317.6 329.9 330.8 339.8 343.6 338.9 330.6 330.6 336.6 326.2 324.5 332.8 341.7 347.3 345.7 347.5 350.7 356.3 360.8 367.1 374.3 381.8 390.5 400.2 409.8 415.9 423.4 426.7 424.5 422.6 419.2 418.9 412.5 402.4 394.2 387.6 382.2 375.4 371.7 369.7 368.9 367.8 367.7 367.7 367.8 367.5 366.2 365.5 364.6 363.2 361.2 358.3 355.1 349.8 342.4 340.8 341.4 341.9 342.5 343.2 344.5 346.8 348.8 351.3 354.2 357.4 362.9 370.5 380.5 380.2 381.4 383.2 384.7 388.5 392.8 397.3 400 398.9 399.9 417.6 440.3 463.9 485.5 499.6 510.7 516.4 516.8 513.4 505.2 489.8 465.9 439.5 448.4 462.5 474.9 478.2 499.1 507 510.5 507.3 502 493.2 485.5 482.3 481 487.8 492.8 497.1 498.4 497.8 496.5 494.9 491.3 489.1 488.4 487.8 488.9 486.2 482.1 478.7 473.4 468.6 467.6 467.6 469.4 467.5 455.7 443.6 437.9 436.3 435.3 433.3 432.1 431.5 432 428.2 425.5 416 412.9 411.7 409.7 408.8 413 415.3 416.4 414.6 411.2 419.6 427.2 437.1 449.5 460.4 470.2 476.3 480.6
379.7 379.8 384.3 389.8 395.8 404 412.5 419.5 426.6 434.3 441.4 448.3 452.2 452.7 453.5 453.7 455.7 458.9 461 457.9 448 435.2 417.8 399.7 388.4 380.4 374.8 368.2 362.8 358.7 355 350.4 347.1 343.6 340.1 336.4 329.4 307.7 300 300.8 308.2 315.3 317.8 317.5 316.9 317.8 327 340.5 341.7 345 331.3 329.2 334.2 340.2 330.9 326.2 329.4 346.8 346.9 349.9 352.3 354.5 358.8 363.7 370.2 376.7 384.1 392.1 400.5 411.3 420.6 430.9 435.6 438.1 434.4 429.9 423.2 420.9 410.7 402.1 392.9 389 385.7 380.6 376.8 376.8 375.2 374 373.1 372.4 373 372.2 369.5 367.8 366.4 364.6 362.3 359.6 353.8 349.8 342.1 342.6 343.5 344.5 343.8 346.5 348.4 349.8 352.1 354.8 358.4 362.9 370.3 378 381 381.9 383.8 385.4 385.6 387.5 389.9 393.5 394.7 400.8 405.7 428.6 452.1 473.9 492.8 505.5 513.5 516.1 513.5 506.4 483 451.7 460.7 468.4 472.6 487.9 497.1 510.6 521.6 525.4 525.7 520 508.5 501.1 495 489.9 497.6 502.8 507.3 509.4 509.2 506.4 503.9 500.4 498.4 498.2 498.5 498 497 492.7 486.5 480.9 474 468.1 468 469.1 469.8 469.3 450.9 442 435.9 435.1 432.3 429.7 428.1 426.5 424 418.6 416.3 415.4 413.8 412.4 413.3 415.3 417.1 418.1 418.9 417.4 414.3 424.5 435 445.6 456.8 469.9 479.3 487.7
381.8 382.7 385.7 392.4 399.7 406.1 413.1 420.7 427.8 435.1 441.6 447.2 449.4 448.2 448.4 447.5 449.1 451.6 452.9 449.9 443.2 429.6 410.8 398.5 388.6 382.7 376 370.9 365.7 360.8 357.1 352.4 350.5 344.8 341.8 339.1 328.7 308.4 300.7 300.5 301.2 316.7 318.7 318.4 317.9 317.3 324 340.1 344.3 337.9 336.8 338.2 339.5 341.9 332.8 327.6 336.6 346.6 348 351.6 355.8 358.9 361 366.1 372.8 378.7 385.2 393.4 401.4 412.7 424.7 438 444.6 446.3 445.1 441.9 435.4 424.8 419.2 411.5 406.4 399.4 394.7 390.8 388.2 385.7 384.6 381.6 379.4 377.5 378.5 378.4 375 371.9 369.9 367.9 365.9 363.4 359.7 354.7 348.2 344.8 345.6 346.1 344.8 348 350.4 351.6 353.3 355.8 359 364.1 368.9 375.1 380.6 382.3 391.6 396 389.3 384.7 385.9 389.3 395.7 401.4 403.1 415.3 434.7 456.6 479.2 497.7 509 513.5 511.8 504.4 481.2 452.6 477 464.5 477.5 498.3 513.2 524.5 532.8 536.9 535.9 531.4 522.2 510.2 505 498.2 506.5 513 517.3 519.3 518.8 517 513.3 510.1 507 505.8 505.8 505.2 503.8 500.8 495 487.2 480 469.1 467.7 469.8 472.5 472.1 462.7 453.9 445.1 440.5 432.3 429.7 425.4 424 421.3 420.2 420.6 419.2 415.5 415.3 416.4 417.4 418.8 419.8 421.3 421.7 416.4 416 430.6 442.4 453.2 466.3 476.5 486.2
384.8 384.6 388.5 394.8 402 408.2 415.3 422.9 428.8 435 439.9 443 443.7 442.5 441.3 440.7 442.4 444.7 445.5 442.7 433.3 421.4 407.3 395.7 388.6 383.1 376.9 371.6 368.3 363.2 358.4 354.2 351.6 349 344 339.9 332.2 313.1 302.3 301.7 302 302.6 303.7 313 315.7 315.1 323.1 331.1 343.4 336.5 339.1 338.5 337.4 343.1 335.1 328.5 334.4 347.1 349.9 355.4 362.8 364.5 365.9 369 375.3 381.1 388.3 396.5 403.9 411.4 426.9 439.5 449.8 454.8 454.9 450.1 443.2 438.8 430.9 423.3 416.8 410.2 405.3 401 398.2 394.7 393 391.1 388.1 384.8 384 384.3 381.8 377.8 374.3 370.9 367.9 365.8 363.8 359.5 354.6 349.4 348.8 348.1 345.9 350.5 353.1 354.7 355.8 357.1 360.3 364.5 370.2 373.9 379.8 389.2 396.5 390.6 384.3 383.9 385.3 386.5 394.7 401.7 404.2 407.1 419.7 442 465.2 487.1 502.3 510.3 509.6 502.9 490.5 465.4 464.6 471.5 497.9 512.9 528.3 537.5 543.4 546 544 538.5 529.7 521.5 513.4 510.4 516.6 521.7 525.6 528.1 528.8 526.1 522.6 519.3 515.2 512.6 511.3 510.2 507.2 501.8 497 490.7 482.7 472.9 467.1 467.9 472.7 454.2 445.1 453 446.3 444.7 431.2 428.5 427 426.4 425.2 424.8 423.6 420.8 418.7 418.3 419.4 420 421.3 422.5 423.9 424.8 423.4 417.6 426.5 436.4 448.3 460.5 471.6 481.8
388 388.1 391 397.3 403.2 410.1 417.2 424 428.4 433.9 437.4 438.3 437.8 437 436.1 435.8 436.2 437.3 436.7 433.9 426.4 416.9 402.5 395.7 387.9 382.1 377.6 373.3 369.3 365.6 360.7 355.9 353.2 350.2 346 341.4 335.7 324 305.2 303.8 302.9 303 303.5 304.3 306 306.5 308.5 318.3 339.3 335.6 340.5 339.9 341.3 344.6 343.2 330.7 335.7 348 351.1 358.4 365.9 369.1 370.4 373.6 378.9 384.1 390.2 398.6 406.1 415.2 427.8 441.5 454.3 460.8 462.3 460.3 455.3 450.9 446.8 437.8 429.8 422.5 418.6 412.1 407.9 405.9 401.1 397.8 397.6 392.7 388.9 388.4 387.9 385 380.8 375.6 372.3 369.1 366.5 363.3 359.2 355.8 352.4 351.4 347.2 352 354.7 356.8 358.2 359.6 362.4 366.4 370.9 375 383.2 392.9 394 384.5 382.8 384.1 384.8 386.4 390.8 400.7 404.6 405.2 419.1 433.4 452.8 475.6 492.9 506.2 512.4 507.8 496.7 474.4 472.6 485.3 498.7 521 538.4 549.3 553.2 554 551.4 546.1 536.3 529.3 522.4 520.4 526.8 531.4 534 536.1 536.5 533.8 530.9 527.1 522.9 518.6 514.5 510.5 505.9 500.1 493.7 487.3 479.4 468.7 464.6 455.9 448.1 444.9 442.2 439.1 436.1 433.6 432 432.2 431.9 434.1 429 427.7 424.9 422.7 421.3 421.3 422.4 423.5 424.6 425.6 427.1 428 427.8 423.5 420.7 430.7 441.1 453.4 464.9 475.1
390.9 391 394 398.5 404.4 410.8 418 424.2 429.9 433.5 435 435.3 434.5 432.8 431 429.4 430.4 430.5 432.5 429 423.4 414.2 403.5 395.1 388.2 382.8 378.2 373.6 370.2 367.3 363.8 358.9 355 351.3 348.2 341.5 338.4 333.4 321 307 304.4 304.2 304 305.4 305.3 305.7 305.9 308.6 326.2 335.5 340.7 340.8 342.2 346.1 346.6 337.3 334.7 347.6 353.8 361 368 373 375.3 378.4 381.8 386.3 391.4 401.8 410.6 416 429.2 444.1 457.5 466.6 470.2 470.5 466.5 462.3 457.8 451.9 442.8 435.3 429.9 424.7 419 414.3 411.5 407.3 403.4 398.5 392.9 390.9 390.4 390.6 389.5 383.6 378.2 373.1 368.3 365.3 362.1 359.4 355.7 353.7 350.7 352 355.7 358 360.7 363.1 365.4 368.5 372.2 375.9 382.7 392.5 384.7 382.9 382.2 383.2 384.3 386.1 391.3 398.7 403.4 405.6 409.6 428 444.3 465.6 483.6 499.9 510.1 513.3 497.1 472.4 487.2 502.8 512.6 532.5 549 560.3 564.6 564.6 560.8 554.3 543.6 537.2 530.6 529.3 536.1 540.5 543.6 544.5 544.2 541.4 537.7 533.4 528.3 521.8 515.1 508.9 503.1 497.4 489.6 479 469.6 466.6 453.2 452.2 458.9 464.5 451.8 448 442.2 438.8 437.2 436.3 443.7 437.9 433.7 431.1 427.8 425.7 424.4 424.1 425.1 426.4 427.4 428.9 430.1 431.4 430.9 428.6 423.6 424.6 434.5 443.9 458.1 469.5
392 393.3 396 399.1 404.6 409.9 416.9 423.8 429.3 434.6 436.1 435.7 432.2 429.3 426 422.3 421.7 423.5 425.3 423.8 416.5 408.4 401.8 395.3 387.8 383.4 378.4 374.2 371 368.6 365.5 361.2 357.4 355.1 348.8 341.2 340.9 338.3 335.7 327.1 313.7 306.8 305.2 305.5 306 306.2 306.1 307.5 318.3 338.6 337.5 341.3 346.1 348.1 346.9 343.4 334.2 347 355.6 363.1 369.7 376.6 381.2 383.6 386.2 390.6 396.4 404.4 412.5 418.9 432.2 445.1 461.6 473.3 480.4 480.2 477.9 473.7 470.5 465 456.5 449.8 440.4 436.1 429.3 424.2 419 414.6 407.7 401.1 395.3 392.9 391.6 391.2 391.1 389.4 383.3 378.4 370.7 366.5 364.3 362 359.6 356.3 351.9 354.3 356.9 359.8 363.7 368 369.3 370.8 374.9 380.1 381.2 385.5 382.1 381.9 382.1 383.1 384.3 386.7 391.1 397.5 403 405.3 406.9 421.2 436.6 457.1 474.4 491.1 505.6 511.4 499.1 487.4 501 514.4 528.2 546.5 563.7 571.2 577.9 578.1 572.6 563.4 554.6 545.9 540.2 541.5 546.3 548.8 552.1 554 552.3 548.9 544 537.7 531.1 522.6 513.6 506.3 499.4 489.6 477.3 471 469.8 458.1 457.4 472.7 472.2 467.9 465.4 462.9 450.4 442.2 441.5 447 456.5 442 436.8 434 431.1 429.1 428.5 427.2 426.6 428.6 429.5 431.3 432.2 433.3 433.5 431.5 427.8 426.8 429.7 436.2 447.3 460.3
393.6 394.6 395.9 399.8 404.3 409.6 415.9 421.6 428.3 436.1 437 436.1 431 426.2 420.8 416.8 414.6 415.9 417.4 416.2 407.7 403 398.5 394.3 388.6 382.9 378.5 374.4 371.2 369.3 367.1 361.3 359.6 356.6 353.6 342.1 340.8 340.4 339.4 333.6 323.5 315.6 306.6 306.8 306.8 306.6 306.5 308.2 314 331.5 337.8 342.4 348.2 348.3 348 345.1 336.2 347.1 356.7 365.5 371.6 379.2 386.5 390.2 393 398.2 400.9 407.7 415.3 422 434.1 447.6 465.2 480.4 489.7 490 486.1 485.1 483.7 479.8 471 461.7 454.1 443.8 439.8 434.2 426.9 419.8 412.4 403.5 397.5 393.5 391.3 388.6 387.4 387.4 385 380.3 371.9 368 365.8 363.7 361.1 358.7 356.1 355.3 359.1 362.8 367.5 372.7 375.4 382.4 380.7 381.2 383.8 381.3 381.5 381.9 382.4 383.3 384.8 388.2 391.5 397.2 404.6 406 407.9 418 432.8 449.7 466.8 483.6 498.8 505.7 498.1 514.9 515.2 523.3 539.5 556.2 574.6 585.1 588.8 590.2 584.7 574.4 564.2 556.6 550.2 550.9 554.1 556.6 560.8 561.7 560.3 555.7 549.1 541.6 532.7 521.6 511.3 502.7 493.3 479.1 471.9 471.3 471.1 461.3 477.5 480.3 478.2 469.7 474.5 475 463.8 459.7 458.3 461.8 460.5 447 440.7 436.5 433.9 431.1 431.9 430.3 430.3 431.1 432.3 433.5 434.1 435.3 436.4 435.1 432.2 430 428.3 433 439.1 449.9
395.7 395 398.1 399.7 402.4 405.5 412.1 418.7 426.3 431.8 433.3 432.7 427.2 420.8 415.8 409.8 407.8 409 410.6 410 405.2 401.4 397.4 392.5 388.4 384.4 379.2 374.8 371.5 369.2 367.2 361.8 360.6 361 356.1 341.9 341.4 340.5 340.8 330.5 324 317.5 309.2 307.7 307.5 307.4 307.2 308.9 317.1 333 339.9 343.5 348.6 347.7 348.1 340.7 337.9 347.9 357.9 367.2 374.3 382.9 390.3 396.5 402.5 406.1 408.8 413.4 419.2 428.5 438.8 454.5 469.8 484.5 493.9 496.7 494.4 493.1 493.8 491.6 483.5 474 465.7 455.5 445.6 441.1 434.4 424.4 413.5 403.6 398 392.6 388.5 386.1 384.9 384 383.8 378.7 373.4 369.1 367.1 364.2 363 361.4 357.3 356.9 366.2 367.8 370.3 374.9 382.1 386.6 393.2 383.2 381.6 382.1 382 382.5 383.2 383.6 385.5 388.4 392.6 396.9 404 406.2 411 414.8 429 446.2 461.7 478.8 494 499.9 513.4 521.2 520.9 534 549.5 567.5 583.8 596.8 601.2 599.7 594.7 586.3 572.8 566.2 561.4 561 560.1 564 568.7 570.8 566.1 562 554.5 545.2 534.1 520.7 507.7 497.7 485.4 472.4 472.1 474.2 470.5 461.3 477.3 483.4 482.9 479.4 482.7 481.3 478.8 468.3 464.5 463.1 461.9 459.2 445 440.7 437.3 435.5 435.1 434.3 434.3 434.7 435.3 436 436.9 438.6 440.2 439.1 437.5 435.1 430.2 431.6 437.3 442.7
397.6 395.4 396.6 399 400.9 400.6 402.3 411.9 418.4 422.4 424.9 423.9 419 413 408.4 403.7 400.2 399.2 402.4 402.9 401.4 397.3 394.3 389.9 386.4 382.5 378.8 374.9 371.4 368.6 366.3 363.6 358.8 361.3 356.8 346.4 342.2 341.7 339.6 331.7 322 315.3 308.4 308.7 307.8 308.3 308 311.9 320.1 339.8 340.6 341.8 346.5 348 348.7 348.9 337.8 345.8 356.3 365.9 374.5 383.1 391.2 398.3 407.5 414.8 417.6 418.5 424.4 432.2 443.7 457.9 473.1 484.9 494.9 499.9 500.7 500.9 500.8 497.6 492.3 484.6 473.3 464.3 450 441.3 431.2 422.4 409.5 401.3 395.2 389.9 386.4 383.7 382 382 382.8 381.5 376.7 375.6 372.6 367.7 366.4 363.7 361.3 358.8 374.6 377.2 378.5 379.6 384.3 387.3 381.6 380.7 383.2 383.2 382.3 383.6 384.1 384.8 386.9 391 392.5 398.5 402.1 407.2 411.6 414.9 426.9 442.5 457.6 475.7 491.4 500.5 512.8 519.7 530.1 543.2 560.7 576.8 591.4 603.5 612.2 610.1 602.1 595.5 584.4 574.5 570.4 568.9 568.7 571 574.4 576.8 573.9 567.1 558 547.6 533 520.1 504 491.8 476.4 471.5 472 474.1 467.1 463.5 474.4 481 482.1 485.1 490.9 487.3 482.7 476.8 469.9 465.5 461.4 455.6 449.9 445.6 441.7 440.4 439 438.5 438.8 438.8 439.2 439.7 440.5 442.2 444.1 443.8 442.6 440.4 438.8 437.4 433.1 439.5
401.4 400.9 397.9 396.4 401 399.6 397.8 399.4 405.5 409.5 411.1 409.8 408.2 404 399.6 395.3 393 391.1 392.3 393.7 394.5 391.3 388.6 385.6 382.4 379.3 376.2 374.7 372 368.3 366 362 361 359.2 353.5 345.9 342.9 341.4 333.7 325.3 313.4 309 309 309 309.1 308.3 314.8 324.8 330.4 344.2 344.2 341.8 347.4 349 349.4 349.7 349.7 344 357 366.4 374.2 382 391.2 401.2 407.8 414.5 423.2 423.3 428.4 434.5 446 461.3 475.7 486 493.4 499.7 501.4 503.6 504.9 501.1 492.5 484.8 473.1 459 443.8 432.6 422.9 413.6 403.5 398 392.1 387.9 384.7 382.5 382 382 390.7 391.6 384.5 389.3 386.6 381.8 378.4 365.8 363.5 360.1 375.9 378.9 380.6 377.4 378.9 378.1 379.3 382.6 383.7 384.4 386.6 387.2 388.5 388.2 389.7 391.7 393.7 397.2 401.2 407.8 412 415.9 426.8 441.4 454.4 472.1 488.7 499.2 511.6 522.9 536.7 556.3 572.4 585.8 597.7 608.9 617.2 619.2 611.8 602.8 594 584 578.5 576.2 577.3 578.7 580.1 580.2 577.5 572 560.4 547.1 530.2 517.3 500.8 485.8 473 471.3 465.8 464.9 464.8 467.9 473 478.7 484.4 490.6 495.9 496.4 491.6 482.9 476.7 472.7 467.2 460.6 454.6 450.5 445.8 445.7 444.2 442.7 442.9 443.4 443.8 443.9 444.7 446 447.4 447.3 446.7 444.6 443 442.1 439.3 440.5
408.5 407.4 404.8 398.5 394.8 398 395.3 392.3 390 387.4 391 392.1 393.2 391 385.8 387.2 386.5 384.5 383.9 384 383.5 381 380 378.6 376.4 373.5 371.1 369.7 368.1 364.7 363.5 361 357.3 350.4 348.1 346 338.7 333.3 327.2 317.4 311.5 310.4 317.5 319.9 317.6 323.4 329.8 335.9 347.5 354.4 346.8 342.6 345.5 349.6 350.3 349.2 342 346.7 355 364.1 372.9 380.5 389.7 399.5 409.2 413.8 417.8 424 429.6 436.5 444.8 462.2 475.9 487.2 492.7 494.6 496.3 499.2 502.4 498.8 490 477.4 462.3 444.7 433.1 424 414.6 406.7 399.2 394.8 389.5 386.3 384 382 382 385.3 397.3 395.6 392.4 397.3 391 384.7 382.2 367.4 365.3 364 364.7 372.2 373.1 373.9 375.4 378.9 383.1 383.5 384.4 387.7 388.8 390.3 391.6 391.7 392 393.2 395.3 400.1 405.7 408.8 412.4 416 425.9 440.2 453.6 467 481.5 495.6 510.7 527.5 545.5 564.3 581.3 592.7 603 612 620.3 623 619 610.7 603.9 596.4 590.9 587 588.7 587.3 586 583 577.1 568.7 557 542.9 527.1 513.2 496.5 477.8 472.6 470.3 470 468.1 468.6 472.5 477.5 482.1 491.7 499 503.4 505.4 502.5 495.6 488 480.2 475.3 468.3 461.7 455.4 451.3 451.7 450.7 449.2 448 448.3 448.3 447.7 448.1 450.1 450.9 450.9 450.3 449.4 447.2 446.4 445.1 443.1
412.2 410.5 407.2 402.8 399.6 394.6 387.9 383.6 380.6 378.7 374.5 372.3 374.9 371.8 369.5 369.2 376.8 375.5 373.5 369.6 368.4 367.3 367.4 369.2 367.2 366.3 365.7 364 361.4 360.5 359 357.1 353.5 352.1 360.5 362.7 355.8 342.6 332 315.2 313.2 311.9 319.8 329.5 331.2 338 348.8 360.1 358.6 350.4 347.2 343.8 347.8 351 349.8 342.5 344 345.9 353.2 361 369.7 377.7 385 393.5 400.7 407.2 414.5 421.1 428.4 436 443 455.5 468.9 482 488 487.6 486.2 489.2 493.5 491.4 482.2 466.7 446.4 434.8 425.3 417 407.7 400.8 396.4 391.6 388 384.7 382 382 382 394.6 398.1 394.9 393.1 392.9 383.8 379.5 377.2 372.1 369.8 364.3 370.3 366.8 372.1 378.1 383 387.6 389.5 385.7 389 389.4 394.3 395.6 395.1 395.3 394.7 395.1 400 404.4 414.3 412.3 414.6 417.1 424.5 439.2 453.2 464.4 476.9 492.7 511.1 530 548.3 565.6 582.8 597.1 607.7 615.4 621.5 624.6 621.6 616 610 606.7 603.1 600.5 598.4 596.5 593.4 586.3 577.3 564.2 550.9 536.8 523.5 506.6 491.2 475.8 469 470.9 471 471 474 478.2 482.8 488.3 498.5 506 511.2 513 512.3 508 498.6 490 483.2 476.6 469.5 459.1 458.4 457.9 457.6 456.1 455.4 454.8 452.8 452 451.5 453.3 454.8 455.2 455.4 453.9 452 450.8 448.3 447.7
419.7 418.3 414.8 411.6 408.6 405.4 400.5 394.8 391.6 390 387 379.9 373.6 372.3 375.4 374.8 368.4 366.1 367.2 368.3 370 366 361 359.8 359.6 359.4 359.2 358.6 358.5 356.9 356.1 355.1 354.6 353.8 355.1 363.5 353.1 339.4 326 316.8 312.8 312.9 316.8 333.2 348.1 358.1 362.3 363.4 354.7 351.6 347.2 345.2 351.3 351.2 350.5 343.4 345.3 347.1 349.9 358.3 367.1 373.8 380.3 386.8 393.9 400.9 406.8 414.7 422.6 432.4 440.9 449.2 457.2 463.9 470.3 473.6 472.3 476.6 480.8 479.1 469.9 453.4 434.6 425.6 417.8 409.8 402.3 397.1 393.1 389.1 385.5 382 382 382 382 394.3 395.5 388.9 390.8 389.6 384.6 379.8 376.1 374.4 370.4 367.6 372.8 377.6 378.5 385.9 399.1 399.5 393.9 387.8 390.8 395.6 398.5 398.6 398.4 399.8 399.1 404.3 406.6 410.6 416.1 415.9 414.4 418.7 426.3 440 452.1 462.4 476.1 490.6 507.8 528.4 545.3 562.2 580.7 596.8 610.7 618.6 623.6 624.9 622.7 619.8 615.5 613.5 610.7 607.7 607 604.7 599.3 590.6 576.7 558.8 545 530.6 514.8 496.8 481.3 471.6 471.6 473 473 476.4 479.5 483 487 494.1 503.8 512.1 518.3 521.5 520.3 516.7 508.7 499.9 490.5 482.6 468.4 467.2 466.4 464.1 463.4 462.2 461.6 460.2 459 457.6 456 457.2 458.7 459.7 460.5 458.5 455.2 454.4 451 451.5
424.2 421.9 419.8 417.3 414.7 411.7 408.3 404 398.6 396.4 394 391.7 389.8 388.7 387.3 385.6 382.3 378.8 378.1 378.9 374.5 372.4 370.7 368.3 368.1 365.2 363 365.6 363.1 358.8 356.4 355.1 355.3 354.6 354.9 361.8 348.5 330.6 318.7 314.4 314.4 314.4 317.2 331.5 355.3 355.2 355.4 352.2 348.8 346.9 346.4 347.2 351.5 355.1 354.9 347.1 343.8 347 348.5 354.7 362.2 368.9 374.9 380.3 384.8 392 400.1 406.7 415.1 424 432.9 439.8 447 452.8 454.9 456.3 459.5 463.6 466 465.4 457.2 442.6 425 416.6 410.5 405.1 398.7 394.9 391.8 386.9 382.5 382 382 382 388.2 393.6 392.5 387.5 387 385.9 383.9 382.3 377.8 376.2 374.1 370.1 376.8 386.7 386.1 391.4 398.1 393.4 388.9 388.3 394.1 400.4 402.8 402.3 405.9 409.1 413.5 416 417.2 416.9 417.9 417.7 417.4 422.2 429.8 439.6 449.3 461.5 475.8 488.5 504.2 522.8 542.4 559.4 578.3 593.5 608.4 620.1 624.9 625.8 624.2 621.6 620.4 619 618.7 618.1 616.9 612.4 604.1 591.5 574.5 556.1 539.5 523.4 506.3 487.4 475.8 471.6 473.8 475.7 477.3 482.3 486.7 489 492.6 500.1 509.2 517 523.4 527.8 527 523 515.3 506.7 495 481.4 480.9 475.2 474.4 471.5 470.1 468.1 465.6 463.7 463.1 461.7 460.6 461.3 463.2 464.8 464.5 462.6 460 458.3 456.8 453.3
428.2 425.3 423 421.1 419.2 417 414.4 410.4 406.4 402.9 400.5 398.1 395.8 395.5 394.2 393.8 392.2 390.4 388.2 386 382.2 377.6 374 371.2 368.4 367.7 367.2 366 363.2 362 364.1 365.6 363.1 362.3 360.9 359.1 337.5 322.2 316.7 314.6 314.9 315.5 317.5 330.1 347.3 349.6 350.2 349 347.9 347.5 350.2 360.3 363 363.1 356.1 352.9 355.9 348.6 347.6 350.5 358.4 364.8 371.1 374.7 378.7 384.4 391.6 396.7 404.5 413.2 423.4 427.8 435.1 438.4 441.9 443.3 446.1 447.5 450.7 449.4 439.7 429.9 418.3 409.4 405.1 400.6 396.4 392.2 388.6 383.6 382 382 382.1 382 391.7 391.2 387.8 387 387.3 388.1 386 384.1 380.6 378.2 374 371.2 372.8 375.2 388.3 392.1 387.3 388.2 389.1 393.4 398.2 405.7 409 414.8 416.5 419.1 418.6 419 419.5 420 418.8 420 426.4 425.9 431.5 440.1 449.8 460.1 472 485.8 500.8 517.3 538.1 557.5 574.2 589.4 603.1 615.5 624.2 626.5 626.2 625.1 624.2 623.6 624.6 626.8 625.6 618.8 606.5 591.1 571.9 552.3 533.3 514 498.2 479.9 472.6 476.3 478.1 481.2 482.7 489.9 491.4 495 500.2 507.3 513.9 521.3 526.4 530.6 529.9 523.9 517.1 507.2 491.3 495.7 486.7 486.9 482.9 479.6 477.3 475.1 472.5 469.9 467.7 465.5 465.2 465.9 467 468.9 469.4 466.9 464.2 462.1 459.7 458.1
431.8 428.7 426.4 424.3 422.4 420.6 418.3 416.2 413.3 410.3 408.4 406.3 404.2 403.1 401.9 401 399.1 398.3 395.7 392.4 388.4 385.6 381.5 376.4 369.7 367.7 367.1 366.2 362 362.2 366.4 365.7 365.9 366.2 366 361.3 336.3 321.3 317 315.8 318.2 316.9 318.4 331.6 352.6 352.6 354.4 352.7 353.1 353.4 362.5 362.4 363.8 361.2 360 360.8 357.6 355 348.6 347.7 351.6 357.9 363.6 368.4 373.1 378.6 384.6 388.9 395.9 402.2 410.9 417.6 421.7 425.1 427.6 430.4 432 432.6 435.3 435.3 430.9 422.2 412.6 404.6 400.3 397.3 393.1 390.1 386.3 383.3 382 382.1 382.3 386.1 387.6 389.6 387 387 389.2 393.6 389.2 385.6 383.2 380.9 377 378.7 379.1 377.6 379.1 382.1 386.4 388.8 394.3 397.4 404.2 414.1 417.5 421.6 426.3 420 420.9 423.5 428.9 430.1 420.6 422.3 429.7 431 435 442.7 450.5 458.9 469.6 485 497.1 512.3 531.5 551.7 568.9 584 598.2 610.5 619.9 626.6 628.4 628.5 628.3 627 628.7 631.1 631.4 623.9 608.5 587.6 565.7 545.7 526.1 505.1 487.2 475.2 482.4 479.6 481.8 484.2 486.1 492.4 495 504.1 510.3 514.9 520.6 526 530.3 531.7 527.7 521.8 514.6 501.8 504.6 502.4 499.6 495.3 492.3 489.3 486.1 484.1 482.8 479.6 475.5 472.6 470.6 472 473.7 477.9 478.4 476.2 472.1 469.9 469.5 466.7
435.8 432.1 429.6 427.7 425.9 424.1 422.5 419.9 419.2 417.3 415.2 413.6 411.8 410.3 409.5 408 406 403.6 400.5 396 392.2 388.1 383.9 379.3 375.2 370.1 367.5 365.8 365 366 363.6 365.5 365.9 365.8 364.7 358.9 337.9 322.9 317.9 316.9 320 322.2 318.2 328.9 356 357.1 358.3 358.1 361.3 364.5 364.2 363.5 363.3 363.1 363.2 362.2 357.2 362.5 362.1 351.3 351.5 349.9 349.9 358.3 367.1 372.2 376 381.3 386.4 392.2 398.4 405 409.7 413.9 414.5 417.3 418.4 420.3 421.8 421.4 420.5 413.9 406.7 400.5 396.6 394.2 390.6 386.5 384.8 383.3 382.1 382.1 382.3 384.3 384.4 384.9 386.6 387.1 388.2 390.3 389.2 387 384.3 380.8 380.6 381.1 382.1 383.7 384.2 382.7 384 390.3 392.1 399.9 409 416.6 421.4 427.4 423.7 434.7 436.4 437 437.4 433.2 421 434.2 435.1 434.2 439.7 443.9 450.3 459.9 469.4 482.7 494 508.6 525.8 545.5 562.5 577.7 592.3 604.5 615 623.6 629.1 632.6 632.4 631.5 630.8 630.3 628.9 622.9 606.6 586.3 562.5 536.4 515 495.9 478.8 478.9 481.7 482.2 484.3 486.5 492.3 498.8 504.9 513.1 520.5 525.5 529.6 533.2 535 532.8 526.6 518.8 510 515.1 511.9 512.3 511.2 509.4 504.2 501.7 499.1 494.6 489.4 486.5 481.8 478.5 476.5 479.2 479.8 489.2 492.9 487.4 483.4 480.4 480 473.1
440.2 435.4 431.9 429.5 427.9 426.7 425.1 424 422.9 421.2 419.9 418.8 417.8 416.1 415.8 414 412.7 409.1 404.9 400.1 396.1 390.4 385.8 382.3 375.7 369.8 368.2 365.8 367.1 363 362.3 365 365.3 366.7 364.2 351.3 335.6 322.8 317.7 317.9 320.1 319.4 319 321.6 350.3 365.8 367.3 366.5 365 366.2 363.8 364.5 365.3 364.8 363.8 363 363 364.3 362.3 356.3 355.4 355.7 356.6 356.4 355.6 365.4 370.8 375.4 379.8 382.7 388.3 393.8 398 401.1 403.9 404.9 406.6 407.4 409.3 411.3 409.8 406.2 401.5 396 392.3 388.7 386.1 384.6 382.9 382.8 382.3 382.6 382.7 382.7 383.1 384.4 386.6 387.8 388.3 389.1 389.1 388 386.1 382.7 381.2 382.5 384.6 389.2 387.1 385.7 387.2 392.1 395.2 399.4 410.2 418.2 423.1 428.4 440.9 443.9 441.7 443.4 443.2 436.4 434 441.8 441.1 439.7 441.2 445.4 451.7 459.6 469 481.4 491.2 504.2 520.4 538.9 553.9 570.4 585.9 600.4 612.2 621.1 627.9 633.8 635.6 633.6 630.4 626.5 620.9 609.9 593.9 575 553.6 531.5 509.7 486.9 477.6 484.1 483.5 488.1 488.9 492.7 498.8 505.3 514.3 522.2 530.9 535.5 537.8 538.4 537.6 533.2 526.2 520.1 512.3 520.7 519.7 521.4 527.2 526.7 520.2 514.9 512.5 507.5 501.3 495.3 489.6 485.3 482.5 488.7 490.7 490.1 488.7 481.4 478.3 474.7 470.4 467.6
441.1 437.4 433.1 430.1 429.2 428.3 426.9 426.2 425.4 423.9 422.9 421.9 420.5 419 417.8 416.3 414.6 411.4 408.5 404.4 399 393.3 389.3 385.7 375.9 370.8 368.1 365.6 366.8 363.3 365.2 361.5 365.4 366.3 354.1 337.1 325.6 317.7 319.1 318.7 320.5 324.5 319.8 321.9 341.1 366.9 368.3 367.2 366.2 367 364 364.2 365 364.5 364 363.6 363.9 365.3 363.7 363 367.1 366.2 360.9 363.1 357.4 354.4 359.3 366.6 372.8 376.4 381 385.2 390.4 392.4 393.7 395.5 397.1 398.4 398.2 398.7 399.1 396.7 394.1 389.9 387.2 384.8 382.6 381 380.9 382.3 382.5 382.9 384.7 383.7 382.8 384.3 386.2 388 389.6 389.7 390 388.6 386.9 384.5 382 381.6 384.6 387.5 389.9 391.4 390.2 392.5 397.9 401.9 408.1 418.6 425.6 435.9 441.6 444.3 444.4 446.8 443.3 437.6 441.7 446.4 444.9 444.1 443.8 447.8 454.4 461.4 469.8 478.9 488.8 501.1 517.5 532.9 547.2 564.7 581.7 596.6 610.2 619.8 626.7 632.5 635.8 634.4 629.4 622.4 611 594.2 577.6 559.9 539.8 519.1 498.1 477.9 480.6 483.8 488.8 491.2 496 503 508.7 516.3 524.9 532.6 539.3 543.8 545.8 545.8 542.3 534.9 527.1 520.2 520 528.5 529.3 534 539 540.6 537.8 534.1 529.8 524.4 516.6 508.8 501.8 493.6 489.8 490.6 491.1 491.7 490 483.8 480.5 474 477.4 486.3
439.2 437 433.7 429.7 428.4 428 427.8 427 427.2 426.3 424.9 423.2 422.1 420.2 419.2 417.4 415.7 414.5 411.1 407 401.4 395.3 389.5 383.9 376.9 372.1 368.2 367.8 365.9 368.7 368.6 368.8 366.2 360.5 339.8 324.8 318.7 318.7 320.6 320.7 321.2 320.8 322 324.2 341.2 367.4 368.5 367.4 366.7 367.4 364.9 364.6 364.8 365.4 365.4 364.7 364.5 363.9 363.4 363.3 366.4 366.5 363.1 365.7 362.9 358.8 357.5 356.8 365.5 370.5 374.1 378.5 381 385 386.8 387 387.9 389.8 390.7 390.7 390.3 388.8 387.7 385.2 383.1 382 379.4 378.2 379.2 381.8 383.3 384.7 387.7 386.3 383.3 383.9 386.1 387.8 389.4 390 390.4 389.2 388.4 387.8 385.7 385.8 385.9 387.6 391.7 395.3 392.5 394 399 404 416.2 416.6 427.2 432.8 438.1 441.8 442.5 442.9 442.2 441.8 445.9 448 447.2 446.9 446.7 450.1 455.5 462.7 471.2 479.2 488.9 501.3 514.5 530.6 546.6 561.6 580.3 595.8 608.5 618.6 625.6 629.5 630.8 629.3 624.7 616.1 600.8 582.7 562 543.5 526.2 508 486.3 479.5 482.1 490.5 491.7 497 503.5 512.7 522.8 529.9 534.3 542.7 551 554.3 553.2 550.9 546.5 537.5 528.3 525 531.7 537.7 540.7 548.1 550.6 552.9 554.2 549.8 543.9 538.3 529.3 522.4 515 505 498.3 497 495.6 494.6 491.2 486.7 482.7 482.1 482.3 493.8
435.7 432.9 429.7 427.1 426.3 426.4 425.9 425.9 426.2 426.2 425.7 424.3 422.5 421.1 419.8 418 416 414 411.7 407.4 402.2 396.8 390.5 384.1 377.9 371.5 367.6 368.2 368.6 369.8 369.5 368.2 365.1 343.4 325.9 319 318.5 319 320.4 321.3 322 321.9 322.3 325.2 351.5 367.3 369.3 367.9 367.7 367.5 366.3 366.4 365.7 364.5 365.2 366.5 366.3 364.3 364.3 363.5 367.7 366.2 363.6 364.4 366 363.4 362.8 357.3 360.2 364.1 367.4 371 374.4 376.7 379.3 380.4 380.4 381.9 383.1 383.6 384.2 383.5 382.6 381.4 379.9 379.1 376.6 377 378.6 380.4 389.5 391.4 390.3 387.6 383.8 384.9 386.6 387.6 389.2 390.9 391.2 389.9 390.7 389.7 388.4 388.8 387.5 387.8 394.3 400.1 401.9 396.1 400.9 411.6 420.7 426.2 427.8 437.6 441 441.2 442 442.6 443.1 444.7 447.2 448.3 449.1 449 451 452.6 457 463.6 471.3 478.2 487.7 499.2 513.2 529.1 546.5 561.6 579.4 594.6 607.1 616.8 623.9 625.7 621 615.1 607.9 599.3 586.3 569.5 550.9 531.4 514.2 497.2 480.8 480.7 489.8 499.5 503 508 513.8 524.7 536.1 541 546.4 553.2 560.8 566 564.8 559.9 552 539.8 532.6 534.3 541.2 546 550.2 557.9 564.5 567.6 570.3 569.5 562 553.3 545.8 537.1 529.1 516.4 505.8 502.2 500.5 498.3 493.6 489.1 489.5 487.7 486.5 496
431.8 429.1 425.7 423.3 422.1 423.1 422.7 423 423.3 422.3 422.8 423.2 421.9 420.9 420.6 419.5 416.4 412.4 410.1 405.6 401 396 390.2 384.6 378.5 372.1 368.8 368.9 369.1 369.4 369.4 364.6 350.2 330.3 319.2 318.6 318.7 319 319.9 321 322.5 323.6 323.5 329.6 354.7 368.6 369.7 367.7 367.9 366.8 367.2 366.8 365.9 366.5 366.9 367.3 367.7 366 368.5 366.3 365.1 366.7 366.8 367.6 366.9 367.4 367.8 359.8 357 360.5 362.7 364.8 367.8 370.3 372.7 375.2 375.4 375.6 375.5 376.5 377.1 377 377.8 376.3 375.8 375.6 374.8 376.6 379.3 387.7 396.6 394.8 388 386.1 384.9 387.2 387.3 387.8 390.5 391.4 391.5 390.9 391.9 391 391.1 390.7 389.9 390.9 398.1 404.1 408.1 400.2 404 416.3 426.5 427.3 429.4 432.9 437.7 440.2 441.2 442.8 442.6 445.2 446.8 447.9 449.3 452.6 453.3 454.5 458.5 464.8 472.3 479.3 487.2 498.1 511.5 527.3 544.2 561.9 578.6 593.4 605.1 614.2 620.1 618.8 610.3 601.5 591.6 580 566.4 552.9 536.1 521.2 508.7 489.4 481.9 486 494.4 504.4 512.7 520.6 530.5 538.5 544.1 553 559.2 564.9 569.8 574.9 577.1 571.8 556.4 540.9 542.9 545.7 548.4 556.6 562.5 570 577 583.6 587.7 589.1 582.7 572.4 561.5 552.3 542.1 526.1 522.8 514.1 506.6 501.8 494.9 496.4 494.1 493.4 494.8 499.6
428.5 426.7 422.4 419.3 417.6 419.4 419 419.4 419.8 419.3 419.3 419.1 418.1 417.2 416 415.3 413.7 409 404.9 401.8 398.5 394.1 388.3 383.4 379.6 371 370 369.2 369.8 369.3 365.1 347.3 330.9 322.6 319.2 318.5 318.7 319.2 320.3 321.1 329.9 323.6 325.8 334.5 362.1 369.5 368.5 368.8 368.9 368.3 368.6 369 366.5 367.1 367 367.9 367.4 368.4 368.4 368 365.8 368.9 367.3 366.5 366.2 366.8 366.5 361.2 355.5 358.4 360.2 360.8 363.5 365.9 367.9 370.7 371.8 372.6 372.4 373.2 374 373.9 373.6 374.4 374.4 374.4 375.1 381.2 385.1 396.1 398 393.7 387.7 386.7 387.2 388.7 389.4 389.1 389.8 391.7 391.7 392.3 393.2 393.3 396.4 398.6 397.5 398.3 400.8 406.4 413.4 405.1 404.5 413.4 424.2 438 441 439.9 436.9 439.9 441.5 441.7 443.6 444.1 446.2 447.6 449.7 452.2 454 456.1 460.3 465.5 471.8 478.6 486.7 497.2 511.9 526 542.6 561.7 577.6 590.3 601.3 609.7 613 607.4 598.6 588.7 576.6 563.3 549 536 522.3 513.6 501.9 488.2 483.4 489.4 499.2 509.9 523 534.6 542.5 550.1 557.4 565.6 571.9 576.5 580.3 581.9 580.5 572 555 552.5 556.5 560.1 563.9 568.1 573.4 582.7 591.5 598.9 604.6 605.8 603.8 594.1 582.3 570.5 555.5 539.5 535.1 524.8 515.8 508.2 501.3 501.6 499.6 501 502.6 503.8
423.7 422.8 420.4 416.1 412.8 414.6 415.1 415.4 416 415.8 415.4 415.2 414.3 412.7 411.1 409.4 408.4 406.1 402.4 398 395.1 389.1 383.7 378.5 373.9 370.7 370.3 369.3 369.3 366.6 348.8 330 324 322.6 319.8 318.9 319 321.3 323.1 331.3 341 327.2 327.2 332.8 362.4 370.1 369 369.2 368.5 368.4 368.8 369.3 368.1 367.5 367.9 368.7 368.3 368.8 369.9 367.7 366.6 368.7 367.4 367.3 366.8 366.7 366.4 361.4 359.7 356.2 357.8 356.6 358.7 361.5 363.7 365.8 368.1 369.3 370.3 371.6 372.3 371.9 371.7 374.8 373.3 375.3 380.9 388.2 394.1 399.4 395.7 389.3 388.4 388.3 389.2 390.6 393.8 393.2 394.9 396.9 396.4 396 397.5 399.6 402.5 405.6 405.1 405.2 409 413.1 423.7 423.6 406.8 416.6 439.6 442 442 441.9 441.5 442.8 443.3 444.2 446.2 445.1 446.7 449 450.2 452.2 454.7 457.4 461.2 466.2 471.8 478.1 486.2 496.5 511.4 526.8 544.2 560.9 575.8 588.3 596.8 601.2 601.3 596.3 587.1 575.7 562.4 548.1 532.6 524.1 516.9 508.2 498.5 488.1 484.5 492.2 504.3 517.1 534.1 546.2 559 561.2 572.6 579.7 585.3 589.1 591.4 590.2 583.6 568.9 554.5 564.4 569.3 571.7 575 581.1 587.3 595.2 603.7 611.9 618.4 619.3 618.2 613.3 602.8 585.4 569.2 554.7 542.3 535.9 523.9 513.5 507.6 506.3 505.6 507.5 509.2 508.4
422.2 419 417.6 414.4 409.4 409.6 410.4 411.4 412 412 411.4 410.5 409.5 408 406.5 404.3 403 400.5 398.6 390.8 378.3 374.5 373.5 366.5 363 361 361.9 361.1 360.8 354.4 338.1 327.9 324.5 322.7 320.3 318.9 319 327.5 334.6 338.5 339.7 327.8 327.4 330.1 365.7 369.7 370.1 368.6 368.6 369.8 368.4 369 368.8 368.3 369.1 370 369.6 369.9 368.6 369.3 367.4 369.7 368.6 367.4 367.5 367.3 368.3 364.5 361 359.1 358.3 358.6 356.5 357.5 360.6 363.3 364 365.6 367.9 369.3 370 368.6 369.8 370.7 375.2 376.5 383.3 390.7 395.9 400.4 393 389.7 389.2 390.2 392.3 393.6 399.6 401.1 404.4 403.5 403.6 406.6 408.6 409.5 409.3 412.7 412.7 411.5 416.3 422.8 426.8 425.9 409 413.4 437.3 442.6 442.7 443 443.8 443.8 444.1 444.6 446 446.1 450.2 452.9 453.9 455.2 455.8 458.9 462.9 466.8 471.3 477 484.7 498.7 512.3 527.4 544.7 560.8 574.9 585.5 591.7 592.9 590.2 583.6 574.1 564.1 553.1 539.7 527.5 519.5 513 503.4 499.3 494 486 497 516.8 530 543.7 561.8 576.7 585.6 592.7 596.7 600.4 602.4 601.7 596.9 585.6 571.2 561.2 572.4 580.2 586.3 588.9 595.6 602.4 607.9 615 623.1 627.7 630.2 630.6 625 615.5 602.1 583.8 568.8 552.3 543.5 531.1 515.1 512.7 513.6 512.4 513.9 517.9 516.6
421.4 418.1 412.9 410.2 407.2 406.3 404.9 406.4 407.7 408.2 408.1 405.8 404.4 402.9 401.2 399 397.3 393.2 386.5 377.9 374.4 375.2 369.3 364.7 360.7 352.5 346.9 344.9 339.5 335.6 331 329.1 325.2 323.6 320.7 319.3 323.5 344.5 346.1 344.6 344.6 328.6 327.1 333 365.8 371.3 370.8 369 369.5 370 370.4 370 373 369.9 370.4 371.2 370.6 370.8 370.2 369.2 366.2 369.3 368.9 368.9 367.6 368.5 369.8 364.3 359 360.1 360.2 360 359.6 358.4 359 360.2 360.3 362.5 364.6 365.9 365.9 367.6 369 371.3 375.6 380.4 389.9 396 394.5 399.1 395.4 391.7 391 394.4 396.6 401.5 406.4 411 415.2 413.5 412.6 413.6 415.6 415 413.7 415.6 418.8 419.2 425.4 432.9 439 439.8 412.8 413.9 436 443 443.1 443.3 443.6 443.9 444.3 444.7 446.4 449 452.2 454.7 456.9 457.7 458.3 460.9 464.1 468 472.2 477.9 485.7 500.4 513.9 529.1 545.9 561.8 573.8 582.6 586 584.4 579.5 571.7 562.7 554.4 544.6 534.8 524 515.1 507.5 502.3 501.7 497 487.6 504.4 527.7 542.2 555.2 576.4 591.8 603.7 611.2 614.9 616.4 616.1 611.8 603.3 588 574.3 568.7 581 591.2 600.3 604.3 609.9 615.7 620.2 626.2 632.3 636.5 638.3 634.9 627.8 617.3 604.6 589.9 574.4 559.1 545.2 529.8 518.2 519.6 518.7 520.3 520.3 523.7 526.2
413.7 413.3 410.2 406.9 404.8 404.1 401.1 401.6 403.1 404.7 405.1 402.9 400.4 398.6 396.9 395 390.6 384.5 373 379.7 378.7 379.4 375.8 374.4 368.4 368 366.9 351 342.1 337 333.1 329.2 325.7 322.6 320.2 319.7 330.5 351.4 356.3 352.6 351.5 339.1 330.4 331 353 371.1 370.2 370.8 370.8 371.2 377.2 376.5 373.7 377.2 372 371.9 371.7 371.5 371.2 370.2 368.1 371.6 368.3 367.5 367.1 368.8 361.5 359.2 357.6 358.4 360.6 360.3 360 358.8 358.7 358.5 359 358.9 360.2 364.1 366.5 368.1 368.9 371.5 375 386.9 396.6 395.3 396.9 393.8 393.8 395.4 396.9 399.6 402.7 408.8 413.1 415.6 417.8 423 424.7 423.8 422.8 422.8 421.2 420.3 426.3 428.5 440 442.4 443.3 442.6 414.8 420.5 437.7 442.9 443.7 443.8 444 444.6 445 445.8 447.8 452.7 454.8 456.2 459.1 459.4 460.7 463.6 466.9 469.6 474 479.6 488.2 501.9 515 530.8 547.6 562.4 573.9 580.3 581.4 577.3 569.6 560.5 551.3 543.4 537.4 528.5 518.8 511 504.1 501.3 504.7 495.4 489.5 509.2 535.9 553.8 573.6 590.9 605.2 621 630.8 628.8 631.9 629.2 622.2 609.6 593.3 577.6 575.6 588.8 599.6 610.2 616.8 622.9 629.1 633.2 637.1 641.5 642.2 639.2 632.4 622.2 609.4 595.9 581.1 569.5 552.7 540.5 527.8 528.2 532.3 534 531.5 531.4 530.8 535.3
414.5 405 405.2 403 401.8 400.8 398.4 398.3 399.3 401.2 402.4 401.2 398.1 396.3 394.5 390.3 385 377.4 375.4 382 378.9 375.6 379 382 374.9 372.7 371.1 354.6 341.4 337.4 334.1 329.4 325 320.7 320.4 326.6 343.1 361.6 374.2 358.4 360.9 350.2 331.6 331.7 338.5 362.3 371.5 371 371.9 371 376 375.9 377.7 373.4 373 372.5 371.9 370.5 371.1 368.4 371.5 370.5 368.8 365.4 362.2 361.9 360.4 358.8 360.1 360.5 360.8 360.5 360.2 358.8 359.7 360.6 359.5 360.3 362.6 365.8 367.9 370.2 370.1 371.5 376.3 386 389.4 393.7 395.6 393.8 395.5 396.3 398.7 401.1 409.2 413.5 417.3 422.8 429.6 432.4 432.8 433.1 431.3 429.2 427.5 426.3 434.2 438.9 441 442.3 443.7 443.3 433.8 418.8 425.2 443.4 444.4 444.6 444.8 445.4 445.9 448.2 451.5 455.6 457.5 459.1 461.1 462.3 464.3 466.3 469.8 472.4 476.7 481.6 491.2 505.1 518.4 534.1 550.3 565.1 574.1 575.6 573.3 569.9 559.1 545.3 536.8 533.1 528.9 522.8 514.3 507.3 499.5 495.2 496.1 490.6 500.2 519.8 542.8 565.5 586.9 605.3 622.5 637.5 647.7 650.7 646.3 641.8 633.1 615.3 598.5 582.2 586.4 597 609.4 621.3 629.3 636.1 642.2 646.9 650.1 649.2 644.9 635.5 625.4 615.3 601.8 585.6 572.8 565.4 556 533 542.1 551.2 556.5 553.8 549.3 545.2 541.7 544.7
408.9 406.7 406.8 403.4 399.8 397.9 396.5 394.9 395.4 396.4 397.1 396.2 395.4 393 389.1 383.6 377.2 375.4 375.7 377.9 376.3 372.8 375.5 382.9 378.2 372.7 373.2 368.1 348.3 335.6 330.8 327.9 323.5 321.5 323.2 333.2 351.1 373.3 384.5 363.7 370.5 353.5 339.5 332.5 334.5 356.4 362 371.2 371.9 373.9 373.3 373.3 372.7 372.9 372.8 372.5 372.2 369.9 368.7 370.2 371.2 370.3 366.2 365.6 364.8 363.1 362.4 360.3 361.1 361.5 361.2 360.7 360.7 359.5 361 363.5 362.4 361.8 363.5 366.4 369.5 371.8 375 378.9 381.9 389.6 391.9 397.9 396.1 396 397 397.7 400.1 407 412.6 416.8 425.7 434.6 441.3 442.4 443.1 444 443.3 438.3 435.1 433.7 441.1 445.3 444.7 441.6 443.3 442.6 438.9 435.6 422.3 435.3 444.3 445.1 445.4 445.8 450 452.4 456.8 460.2 463.3 464.1 465.8 466.6 469.3 471.1 472.4 475.1 479.5 484.9 496.9 510.4 523.2 536.9 553.3 567.3 578 580 567.8 558.7 547.8 531.4 530.3 527.4 525 518 511.8 504.4 495.4 494.5 492.2 491.8 512 532.4 548.6 573.3 598 617.1 634.5 650.6 661.6 667.6 665.1 655.6 643.7 625.3 606.1 586.7 596.9 608.5 621.7 633.1 644.8 653.4 657.1 659.7 659.9 655.4 645.7 632.5 619.2 606.2 590.7 575.9 562.5 551.9 543.5 551.8 561.9 574.3 578.1 573.9 569 565.5 558.5 556.7
391.1 397 402.7 402.4 400.7 399.5 397.9 396.8 394.7 393.6 392.5 390.4 387.5 384.7 380.6 377 376.4 375.2 377.9 376.4 374.2 371 368 368.6 366 369.1 379.7 367 348.3 331.6 328 325.1 322.8 324.3 325.5 333.4 351.1 375.7 387.2 375.6 376 359.1 340.9 332.6 337.3 343.9 361.1 366.1 374.6 375.6 375.5 375.1 374.3 373.3 372.3 371.4 370.3 369.4 368.2 369.6 369.6 366.7 365.6 368.1 367.4 365.3 364.1 362.7 362.4 362.4 362.4 361.7 362.2 361 363 364.1 364.8 364 364.4 367.6 371 375 379.3 385.7 386.2 392 396.7 398.1 396.1 396.4 397.5 399.5 403 410.4 415.3 422.2 435.8 445.2 449.5 448.1 447.9 447.6 446.4 445.6 440.6 442.6 443.8 444.2 441.3 443.6 444 443.8 444 443.6 425.7 434.1 444.3 445.4 445.9 449 456.1 459 462.9 465.9 469.3 471.6 473.4 473.5 475 476 476.6 478.7 483.1 491.5 500.9 514.1 526.1 539.8 556 570.6 581.9 586.9 583.4 572.6 553.5 538.1 527.5 521.3 514.5 514.8 512.1 506.9 497.9 495.7 495.6 506.9 526.1 541.9 559.3 580.6 608 628.1 642.5 659.4 672.7 682.6 679.5 669.8 654.6 633 613.8 596.1 607.9 620.4 633.7 645.5 657.1 669.6 673.1 671.2 666.7 658.9 645.8 629.2 613.1 597.3 583.4 568 554 554.7 558 565.3 578.5 588.2 593.9 594.8 589 584.9 580 574.4
396.5 392.4 400.1 395.9 399.6 393.9 392.2 390 390.8 392.2 391.8 389.3 382.2 378 377.4 379 376.5 376.4 377.4 375.4 372.4 369.8 366 363.4 358.9 358.2 362 355.2 337.3 325.6 324.9 324 325.3 325.7 326.6 334.6 350.1 373.5 379.8 385.5 388.7 359.5 335 333.9 339.4 342.1 344.6 356.8 373 377 384.6 380.7 379.9 379.8 380.5 379.2 370 367.9 367.4 366.5 366.2 365.6 366.6 369 368.9 369.1 367.1 366.2 365.9 364.9 364.6 364.4 365.2 364.6 365.3 367 366.9 366.2 367.3 369.1 372 379.1 383.3 385.9 388.6 392.4 400.8 395.6 395.3 396.2 400.8 403.2 407.2 412.6 418.5 431.1 443.9 459.8 464.2 464.3 459 452.3 449 447.4 446.1 445.3 445.3 445.9 445.1 444 445.1 444.7 445.5 444.6 433.5 431.4 438.9 446 446.8 455.8 463.8 467.7 470.1 473.4 476.3 478.9 480.9 481.5 481.4 481.6 481.9 483.3 490.5 495 506.4 518.4 530.5 544.3 559.5 573.8 585.1 591.6 589.5 579.7 560.1 545 536.9 529.7 525.8 522.4 515.2 506.3 498.2 498.3 505.1 518.7 534.8 546.4 568.8 591.3 617.4 636.5 648.3 667.3 679.3 687.9 687.6 678.9 664.8 643.7 621.1 604.3 619 632.2 645.5 657.2 668 678.3 685.4 681.6 671 658.9 643.1 625.4 607.4 588.6 569.8 564.4 570 568.1 576 580.4 592.5 602.3 607.4 610.3 609.7 602.7 598.4 594.4
394.8 386.2 397.1 387.8 387 386.6 386.8 386 385 384.3 383.8 381.5 380.3 382.2 385.6 385.1 380.9 375.9 373.7 371.5 370.2 368 363.9 360.7 353.8 349.3 343.9 333.5 328.4 325.6 325 326.3 326.8 326.8 326.1 337.9 353.5 377.4 380.7 386.7 389.5 375.7 339.5 335.9 335.9 344.1 346.1 351.6 371.8 385.1 390.2 388.8 388.5 383.2 380.5 379.6 373.4 368.3 367.3 367 366.7 366.9 368.4 368.8 370.4 369.8 369.3 369 369.4 368.3 366.8 366.4 367 366.2 368.1 368.9 369.4 368.9 368.2 371.3 378.1 379.6 386.8 388 389.6 397.6 398.7 394.1 394.9 398.6 402.8 407.6 413 414.8 421.7 436.5 453 473.1 476.7 478.5 477 469.5 462.2 459.6 451.6 447.9 447.6 447.3 446.5 444.4 445.8 446.3 447.7 445.1 434.3 433.8 443.5 446.9 451 458.8 464.4 470.9 476.3 480.8 483.3 484.9 486.3 487.6 488.2 487.4 488.5 490.5 493.2 499.2 511.8 524.8 535 549.3 562.5 574.9 587.7 594.2 590.2 581.2 564.7 544.5 539.7 533.3 528.1 524.9 515.2 504.9 502 503.3 518.3 529.1 541.4 556.3 579.3 599.1 624.2 643.7 660.5 674.6 684.5 690.1 690.7 680.5 666.2 649.3 629.2 622.4 632.6 645.1 657.5 668.5 677.6 683.5 685.1 680.4 669 655 637.1 618.1 598.7 580.2 580.9 580.1 580.9 580.9 590.4 596.7 605.9 616.3 622 625.4 628.3 626.1 619.6 613.7
387.7 384.4 388.3 386 385.6 385.4 385.2 391.4 387.8 383.7 382 380.7 381.2 385.6 382.8 382.6 377.8 374.6 371.2 368.4 367.5 364.6 360.6 358 349.2 343.4 337.9 331.3 328.6 326.3 326 327.4 327.9 327.7 328.2 340.4 360 381.5 385.4 385.2 389.4 377.8 349.8 336.7 337.3 346.8 349 357.9 376.8 388.8 387 390.7 390.4 389.8 389.1 387.3 374.8 370.1 368.6 368.1 368.5 370.2 370.9 371.1 371.8 371 371.4 371.2 372.1 372.5 370.7 369.4 369.1 368.4 369.7 371.4 373 372.4 372 373.1 376.2 380.4 385.6 389.8 396.1 397.6 393.2 394.7 397.4 401.7 406.4 410.7 414.4 416.2 424.4 439.3 461.1 478.8 487.3 491 491.7 486.6 474.9 471 467.1 456.8 455.3 453 449.2 447.7 447.3 446.2 448.2 446 438.5 436.3 441.3 445.7 451 456.5 466.2 474.9 481.6 486.7 490.2 492 494.2 494.8 495.5 495.1 496.7 496.5 504 509.9 520.8 532 541.6 553.8 564.6 576.2 586.7 591.4 588.1 580.5 568.4 554.5 543.6 535.3 527.5 520.6 511.8 504.2 504.6 512 521.2 537.8 546.9 565.9 585.9 605.5 626.4 648.3 667.4 681 690 694.3 694.3 688.6 676.9 658.6 640 638.9 650.3 660.5 671.1 679.7 685.9 687.4 682.4 673.2 661.9 646.1 628.1 610.2 591.5 594.9 591.3 597.7 600 597.2 602.1 613.3 621 631.3 639 643.8 646.4 646.4 642.9 632.6
391.7 385.4 383.8 384 384.4 384.6 384.5 384.1 382.6 381.5 380.7 379.4 380.1 381.2 381.3 381.6 378.2 372.8 367.5 365.4 363.8 361.1 358.9 355.7 351.1 344.1 336 331.1 328.6 326.5 326.7 327.8 329 329.6 330.7 345.3 365.6 386.3 387 386.5 389.1 377.4 356.1 337.4 338.3 347.9 356.7 373.5 383 386.4 380.4 389.3 391 390.2 387.7 388.1 384.9 372.5 371.5 370.4 371.5 374.2 375.5 375 374.3 373.3 373.1 372.9 375 375.1 373.9 373 372.6 369.6 370.9 372.6 373.8 374.3 375 375.5 380.4 381.2 386.9 396.6 394.1 392.7 394.4 396.9 402.4 404.6 409.9 413.1 415.2 416.7 426.5 439.5 460.2 481.1 494.2 499 499.9 497.2 488.1 480.7 476.5 469 463.3 459.7 455.8 451.1 449.1 449.2 448.7 448.2 443.6 441.5 441.3 448 452 457.1 469.2 479.7 487.5 494.6 498.7 500.6 502.3 503.2 503.5 504.1 506.5 509.9 515.4 521.3 530 541.1 549.8 558.7 567.9 577.2 585.3 586.6 584.8 577.8 567.3 555.3 543.4 531.4 524.1 516.6 505 506.5 508.6 511.5 529.2 545.1 558.2 574.3 591.2 610.9 632.2 652.6 671.8 686.1 697.3 702.3 703.1 697.9 687.7 672.2 664.8 653.1 670.6 679.6 686.7 690.5 693.8 691.7 684.1 672.8 658 639.3 623 612.9 607.5 600.1 608.5 614.9 618.2 617.8 622 629.7 637.1 646.3 657.8 666 668.9 666.8 662.4 656.2
393.6 387 384.7 383.4 383.2 383.7 384.9 386.2 386.1 379.7 377.9 377.4 377.1 381.2 378.8 378.7 375.8 370.4 369.4 366.7 362.3 360.2 358.9 358.2 359.4 348.5 333.5 329.5 327.9 326.2 327.9 329.4 329.2 330.8 331.3 351.1 374.4 390.9 386.9 391.5 391.6 388.3 366.8 339.8 338.9 348.3 365.3 378 385.1 386.9 384.8 387.7 387 389.5 385.9 385.6 390.9 381.7 373.3 373.4 372.9 376.5 378.5 376.5 376.7 375.4 374.2 373.8 374.2 374.8 375.1 374.5 372.5 371.5 371.7 373 374.1 375.6 376.1 377.6 382 390.5 395.1 392.6 394.8 394.9 399 400.3 403.2 408.6 413.7 414.8 418.7 419.3 427.7 441 459.8 480.2 496.1 505 505.7 502.7 499.4 492.8 487.1 477.8 474.3 471.3 467 464.8 460.7 459 461.6 456.1 449.5 447.5 448.8 445.6 453.3 459.5 469.2 480.6 490.8 501.3 506 508.2 509.6 511.2 512.2 515.8 518 522.9 528.1 531.5 538.7 548 555.3 563.4 568.8 576.5 583.9 584 578.4 571 559.2 545.4 540 530.4 521.6 505.7 506.5 508.3 520.5 514.8 533.5 550.3 562.1 579.4 597.6 617.2 637.3 656.5 674.8 690.9 703.7 710.2 711 707.4 701 691.1 686.2 679.2 690.3 700.3 703.5 705.6 703.9 698.8 689.4 676.4 657.1 640 632.4 626 618.8 610.7 628.3 634.2 639.3 641.4 647 650.1 649.8 664.3 676.7 684.5 688.4 688.5 683.4 675.3
395.3 394.2 392.1 383 382.6 382.6 382.9 384.5 382.2 377.9 376.8 375.2 375.3 374.9 373.9 371.6 371.1 367.2 368.4 366.4 363.2 359.9 359.5 359.4 356.5 343.3 332.8 329.3 327.6 327.4 329.8 330.7 330.9 331.4 338 360.1 383.4 391.6 391.1 392.7 392.8 392.3 367.6 341.1 341.4 348.7 369.7 379.6 387 388.2 389 390.7 386.5 383.7 383.2 376.1 384.5 389.2 377.2 374.8 373.1 375.1 376.8 378.2 378.3 376.4 375.5 374.9 374.5 375.1 374.6 374.1 373.5 371.7 372.6 375.2 374.6 376.3 377.6 385 381 384.7 393.2 390.2 394.3 399.5 401.3 402.9 406.1 411.6 413.8 415.4 421.5 421 429.6 445 457.3 477.6 495.7 503.7 504.5 501.9 502.8 503.7 498.6 495.9 493.2 493.8 487 478.8 474.6 472.9 474.2 465.3 459.5 455.6 452.9 456 451.1 454.5 469.3 478.8 491.6 502.6 510.5 515.6 518.8 521.1 523.5 526 528.5 532.6 536.9 543.2 547.9 554.2 562.4 569.4 570.4 568.1 574.6 570.1 565.8 555.7 539.5 531.2 521.6 516.7 512.4 513.6 523 525 529.9 519.8 536 553.2 566.2 581.7 600 618.6 639.4 658.8 676.4 693.7 708.6 717.4 718.5 716 711.9 702.8 702.3 701 706.1 719.6 721.8 721.4 717.7 709.3 699.3 682.3 663.6 654.6 647.1 637 636.6 634.2 643.9 656.4 660.6 662.7 666.2 669.9 670.1 683.3 693.2 700.4 704.2 704.2 699.6 696
395.8 395.6 395.4 392.7 384.2 382.8 381.4 379.9 382.2 379.9 378.2 376.1 374.6 373.7 372.9 371 369.2 368.6 364.5 364.3 362.5 360.6 359.3 359.2 348 337.2 331.8 330.1 328 330.1 331.2 330.2 330.3 332.5 348.7 370 388.1 390.3 390.7 392.4 393.5 390.5 379.7 345.1 342.5 343.8 357 371.7 386.2 390.6 389.9 390.6 389.2 383 380.1 372.7 372 383.1 381.3 380.7 374.4 374.7 375 375.8 376.5 376.1 375.8 375.6 375.4 375.2 374.9 374.6 373.6 372 372.5 376.6 376.6 377.8 381.1 390.5 393.8 388.3 390.8 395.2 396.4 402.9 403.4 407.1 409.4 413.1 415.4 418.1 424.9 421.3 433.3 447.4 459.2 479.4 495.1 507.5 513.4 514.6 515.2 515.7 512.1 505.7 500.1 502.8 499.7 493.8 487.7 493.2 486.9 477.9 471.5 463 460.6 461.3 460.1 456.5 461.4 478.5 490.8 502.3 510.1 519.3 524.1 526.8 529.9 534 536.8 541 548.8 554.1 554.9 562.5 569.3 576.4 570.3 578.3 577.4 580.3 573.4 567.9 564 558.5 549.3 532.4 531.9 541.1 541.7 536.7 535.4 523.1 538.3 555.3 566.5 581.6 598.9 618.3 639.8 658.8 676 692.6 709.2 721 725.6 725.2 724.5 722.4 717.1 720.2 722.7 734.6 739.5 738.3 732.9 723 709.2 693 678.1 673.3 664 656.6 657.2 658 654.8 673.8 682.8 685.9 688.7 692.2 695.7 703.8 708.8 712.7 715.4 715.2 713.1 709.4
400.2 396.2 393.8 388.6 389.8 389.8 384.4 386.4 385.2 381 380.5 378.5 374.5 373.1 372.9 372.1 371.1 368.8 366.2 363.6 357.9 353.9 352.8 354.1 353.5 335.6 333 330.3 330.9 337.8 335.4 333.4 334.5 339.5 358.9 375.2 387.4 385 393.4 393.3 392.8 389.3 391.4 350.5 343 344.5 350.3 357.1 382.3 392 392.3 392.7 391.6 385.7 379.7 375.8 372 375.7 381.5 384.4 384.3 382.8 376.8 375.7 376 376.2 376.3 376.1 375.9 375.7 375.5 375.3 372.7 373 372.9 373.9 377.6 380.3 384.2 392 398 393.8 394.2 397.5 399.5 403.6 407.6 412.1 413.4 414.8 417 422.8 426.1 422.8 437.7 447.9 458.9 478.5 495.5 508.4 518.9 521.9 527.3 527 523.2 513.1 507.3 509.7 511.3 506 500.5 507.5 498.1 489.9 482.7 477.8 474.4 470.2 467.3 464.6 463.6 474.9 489 499.8 508.7 519.3 523.8 529.7 533.3 540.5 544.9 550 555.2 560.5 563.8 569.6 575.5 576 590 592.3 593.8 591 586.5 582.1 575.5 569.6 552.6 559.1 554 551.2 544.1 541.6 537.2 533.3 546.8 555.3 567.1 580.5 596.3 615.1 635.7 655.3 672.8 688.9 704.3 718.9 728.6 733.3 736.1 738.8 739.3 739.9 742.2 748.2 754.5 755.8 750.9 737.7 722.6 710.3 700.2 691.1 683.2 677.8 676.8 677.7 679 684.7 701.5 708.5 711.9 714.4 717.4 722.6 723.6 724.5 724.5 723.9 722.9 722
408.6 399.8 396.5 390.1 386.9 386 385.4 390.2 394.3 394.6 389.4 384.7 378.9 376.1 375.9 372.5 370.6 368.9 367.6 365.6 364.3 361.2 351.3 346.1 339.7 338.5 333.3 330.6 332.7 338.3 337.5 337.5 342.2 356.4 373.6 380.2 381.1 387.6 393.7 394.2 393 392.2 391.4 366.2 344.6 345 346.6 354.9 382 391.2 393.4 394.5 393.5 387.9 388.8 386.8 373.8 375 384.4 379.9 380.3 388.6 381.5 377.5 376.6 376.2 376.6 376.6 376.3 376.1 377 375.1 376 376 378.1 378.2 381.5 388.1 390 400.2 394.6 396.9 398.2 400.4 403.6 404.7 411.1 416.3 414.9 417.2 421 426.4 423.1 428.1 440.4 450.1 457.3 476.6 495.3 508.9 521.8 529.3 535 536.8 527.5 512.9 508.6 514.4 515.9 509.5 511.1 509.1 508 503.9 497.9 492.3 489 481.4 476.5 477.6 466.9 468.1 477 489 500.3 508.5 517 524.6 533.1 542.7 549.8 554.6 559.6 565 569.3 575.6 582.5 592 598.5 601.6 597.4 596.7 589.7 583.9 578 566.7 567.6 564.7 560.1 555.6 550.4 546 540 537.3 548.1 555.3 566.6 579.9 593.4 611.3 630.9 650.5 667.5 683.2 698.5 713.9 727.7 737.2 743.1 746.9 749.9 751.8 755.8 759.6 766.4 770.5 768.5 757 741.3 730.5 722.5 714.5 706.4 702.7 700.6 698.7 698.6 705.6 713.2 726.2 731.1 732.4 733.1 737.2 737.4 736.3 733.7 732 730.7 729.9
407.5 404.8 402.4 399.5 392.3 389.7 388.3 390.7 389.6 389.1 389.1 390.7 388.7 383.2 383.5 377.5 371.3 368.6 367.4 365.5 364.9 364.2 361.5 357.5 350.6 336.9 333.1 331 337.9 347.4 349 354.4 366.4 372.3 375.3 377.4 377.3 384.4 393.7 394 393 392.2 391 385.8 357.4 345.6 345.4 361.2 380.3 393 394.2 394.2 393.6 392.4 392.5 390.4 383.2 377.5 378.3 381.6 380.2 377.5 377.3 377.5 377.9 376.4 377.2 377.4 378.1 379.3 376.2 381.6 380.5 379 387.8 388 391.4 395.5 401.3 403.1 404.1 400.3 402.6 404.1 405.7 405.9 411.1 415.2 418.5 425.3 430.2 426.5 425.5 430.6 439.9 449.6 457.3 478.2 494.4 508.5 522.6 532.5 539.9 536.2 521.8 512.4 511.9 520.2 518.9 511.9 512.9 516.5 517.2 514 508.6 507.4 504.7 500.5 490.6 484 475.2 473 474.9 481.1 491 498.8 510.3 519.3 528.8 538.8 549 556.3 563.1 568.1 573.1 581.2 590.5 597.7 604.7 609.7 609.5 605 599 591.7 582.3 578.2 572.1 565.8 563 558.1 553 549.8 546.3 535.8 549.7 555.1 564.7 577.9 591.7 606.8 626 643.5 660.7 676.5 692.8 708.4 723.1 736.4 747.2 754.2 758.5 761.9 765.6 769.5 775.6 780.8 781.8 779.5 766.4 754.8 746.3 741.9 735.1 728.5 724.6 719.9 719.1 723.6 731.7 738.7 745.9 749.1 749.8 749.8 749.5 748.9 746.8 743.4 742.4 739.1
410.6 409 407.8 402.5 398.5 396.2 391.7 391.6 389.9 390 390.5 391.5 392.6 389.9 384 382 371.5 368.1 367.7 364.6 364.6 364.2 364.6 359.6 352.3 335.8 332 331.9 343.1 354.7 355.8 372 374.9 375.3 374.4 373.6 377.7 381.1 382.7 385.5 384.3 387.1 382.5 385.8 371.8 347.8 348 371.4 384.4 394.9 393.6 394 393.7 393.8 394.2 394.1 392.6 388.6 384.7 384.2 379.6 377.6 377.1 377.2 376.9 379 380.1 382.3 386.1 388.3 390 395.1 389 385.9 385.2 392 402.1 399.6 403.1 402 403.5 404.2 405.5 405.8 406.9 407.4 415.5 415.8 422.4 428.2 429.3 427.5 429.7 437.8 445.6 451.2 464.7 478.6 493.3 507.6 521.4 528.9 521.6 515.3 525.4 522.4 516.3 517.2 515.6 512.9 521.1 526.2 525.8 521.2 518.5 519.3 518.6 514.5 505.9 493.3 487.8 485 487 481.1 483.3 494.1 503.1 513.9 523.3 533.2 545.7 554.3 560.8 566.9 573.4 583.5 594.5 602 609.8 614.7 615.4 610.3 603.6 598.7 592.7 585.5 579.7 571 562.6 559.3 555.1 552.9 549.5 543.1 549.9 555.7 561.4 574.7 588.9 602.8 619.4 636 652.4 668.7 685.3 701.4 716.6 730.7 745.7 757.9 765.3 769.4 774.4 778.2 783.2 788.1 793 795.1 793.1 783.5 773.9 767.8 763.8 756.9 747 742.8 740.4 741.9 746.4 750.9 755.7 760.2 760.6 758.8 758.5 757.4 756.3 753.4 750.9 747.7
420.6 411.7 410 406.8 400.9 396.7 394.4 395.6 391.6 391.5 391.1 391.2 391.4 390.4 386.1 380.3 372.7 371 366.8 364.8 364.7 365.4 365.7 362.8 351 334.9 332.2 334 338.6 346.4 359.2 378 383.1 379.1 373 373.2 379.9 382.1 375.8 380.1 378.2 381.2 384.7 384.3 369.8 347.3 352.6 381.2 393.8 395 395.2 394.8 393.4 394.3 394.5 393.6 393.4 393.3 391 384.8 377.7 378.2 378.9 379.4 381 380.8 381.5 387.1 393.9 395.6 400.8 402.3 400.4 399.3 400.2 397.1 391.9 399.2 395 400.6 403.9 405.7 405.2 406.4 409.5 417.4 417.1 415.9 426.2 429 429.3 430.9 434.8 444.9 449.6 453.2 467.8 480.8 492.4 506.5 519.1 530.8 538.5 538.9 534 527.4 519.7 517.4 515.5 521.1 532.5 537.6 535.2 526.9 529.1 530.8 529.4 523.7 515.8 506.1 501.3 504.6 501.4 493.2 497.5 491 500.2 508.2 521.1 534 541 548.7 557.7 565.7 574.4 585 595.8 604.8 612.9 618.3 618.7 613.9 606.4 599.2 594.7 589.2 584.2 574.2 563.8 560.2 558.6 556.3 553.5 550.6 543.7 555.1 561.4 571.9 585.2 599.1 613.3 628.3 643.9 659.5 676.3 693.1 708.1 722.9 738.5 754.4 766.1 773 778.4 782.5 788.4 795.3 801.6 805.2 806.8 804.4 798.4 790.7 783.1 777 769.7 761.3 758.2 758.8 760.4 763.2 765.4 768 770.3 769 766.4 764.6 763 760.8 757.5 754.6
427.7 416.5 415.6 414 407.2 402.3 395.7 395.2 395.8 391.3 391.1 391.2 391.2 388.2 383.4 377.8 378.6 375.8 373.4 370.8 366 366.8 364.6 363.1 353.3 334.5 332.4 332.7 343.5 341.1 354.9 379.9 386.7 388.4 387.4 383.9 376.1 374.6 376.1 378.5 385.9 381.8 390.8 379.5 361.4 349.1 358.3 389.2 394.5 395.7 395.6 396 394.9 395.3 395.3 395.3 394.2 394.2 392.9 391.1 379.8 379.3 378.8 379.9 381.2 383 386.9 392.4 399.2 401.5 406 407 405.9 407.3 403.8 401.4 400.1 402.8 395.3 398.1 402.2 403 405.1 410.7 417.4 417 417.3 423.1 425.7 425.9 428.8 436 444.1 453.6 454.3 455.2 470.7 482.9 496.4 508.2 519.8 532.6 543.2 543.4 550.1 551.9 547.9 538.8 534.9 534 541.1 545.2 541.9 533.6 536.4 538.5 535.8 530.4 525.1 517 511.4 512.7 506.2 500.8 500.6 498 497.9 505.9 518.6 530.1 541.7 547.2 555.7 565.1 573.9 585 595.2 604.1 613.2 619.4 620.7 616.9 611.2 608 601.1 592.6 577.3 575.9 571.1 565.5 562.3 560 557.7 556.9 554.7 557.3 561.7 571.2 581.6 594.2 607.4 621.4 635.5 649.9 667.1 685 701.4 716.3 731.3 746.3 760.1 770.5 778.1 783.4 791 798 804.3 810.1 813.8 815.4 812.8 807.1 800.4 793.5 786.4 779.3 773.4 773.8 772.8 772.9 773.3 773.2 775.4 776 774.6 772.2 770.4 768.3 764.7 761.1
432.5 427.1 418.2 413.9 407.7 403.4 399 396.6 398.7 397.5 391.8 391.6 390.3 390.8 388.9 381.1 380.4 379.7 375.7 375 371.9 368.3 367.1 364.8 358.5 338 332.6 332.5 341.5 344.2 355.8 374 377.9 379.3 381.7 379.3 370.3 372.6 385.5 391.8 386.5 381 380.8 377.6 355.5 349.3 359.9 395.9 395.8 396.4 396.2 395.5 395.2 395.8 393.5 394.6 394.3 390.6 389.4 386.2 383.1 390.6 389.1 387.1 388.9 387.1 393.2 398 401.5 405.4 407.7 405.9 406.3 406.8 406.6 406.5 405.4 405.4 406.9 405.2 404.2 410.7 416.4 417.3 418.2 421.9 423.3 424.3 425.6 427.7 434 443.5 450.7 456 457.9 460.6 473.9 486.7 498.9 510.2 523 534.5 543.8 543.5 564.4 568.2 564.1 554 549.5 545.5 545 543.5 541.6 538.4 542.4 543.7 542.2 538.4 534.1 529.5 523 520.3 515.8 510.7 510.6 507.4 507.2 506.8 509.5 524.3 535.4 545.7 555.9 564.7 573.2 583.8 593.8 602.5 610.7 617.1 620.4 618.8 615.4 611.6 605.3 594.1 590.8 584.7 579.3 570.6 567.1 564.4 561.5 560.7 559.4 559.1 567.4 571.6 580.6 590.9 602.9 615 628.7 643.4 661.3 678.1 694.7 709.8 723.5 737.9 752.1 764.6 775.9 782.7 791.1 798 804 809.9 815.4 818.8 819.6 817.7 812.5 808.1 800.6 794.1 789.7 787.3 784.7 782.6 781.8 779.9 779.3 779.3 779.1 778.7 776.6 773.5 770.2 766.4
439.2 433.8 427.8 420.9 413.3 408.8 405 398.7 397.6 397 395.9 396.5 397.5 396.3 390.2 387.6 385.9 380 378.3 378.1 375.3 372.7 369.8 370.4 360.4 345.5 333 332.5 342.9 346.8 362.4 373.4 377.5 378.3 374.6 369.1 368.6 387.4 391.7 389.5 383.7 380.6 383.1 378.8 352.8 351.6 362.3 396.1 396.8 396.4 396.3 396.4 395 390.7 386.5 388.1 383.8 381.2 383.3 385 388.8 395.4 394.9 394.5 395.1 391 400.8 405.9 406.6 407.5 407.8 408.3 407.7 411.1 412.4 414.2 407.4 412.5 418.3 419.3 422.4 423.6 421.9 421.6 419.6 422.3 425 426.8 433.7 439.5 445.3 453.8 454.2 457.1 462 470.2 479.1 490.7 502.6 513.3 525.8 537.1 545.8 559.4 572.6 581.6 583.6 574.8 564.3 557.8 552.3 550.3 550.7 546.1 547.1 548.4 546.8 544.8 542 539.3 534.8 530.7 525.4 521.6 521.3 521.8 520.7 520.4 521.3 517.1 532.4 541.9 551.4 562.7 571.9 581.9 590.9 599.6 607.2 613.7 618.1 619.8 617.8 612.3 607.9 606.9 598.9 591.5 585.2 577.2 572 568.9 568.2 567.7 566.6 568.2 568.9 575.5 581.1 589.3 599.8 611.1 624 640.8 656.9 672.7 687.5 702.2 716.6 730 743.6 756.9 771.5 780.6 788.7 795.5 801.7 807.3 812.2 816.2 819 819.7 818.3 815.6 812.2 806.8 802.8 799.1 795.8 793 790.2 787.3 785.1 783.2 782.1 780.9 780.6 778.5 776.4 771.8
447 440.1 433 427.6 421.5 415.6 409 406.5 399.3 398.8 400 399.7 399.5 399.7 395.2 387.5 384.5 380.6 379.5 377.7 373 371.7 368.3 368.6 361.3 349.3 334 332.7 344.2 361.6 367.4 370.7 371.3 372 371.7 369.7 376.7 389.4 388.5 395.1 382.3 381.1 390.3 381.9 353.1 352.2 363.1 394.5 393.4 396.3 388.6 394.1 393.1 390.5 393.7 389.6 392 395.3 395.3 392.9 389.4 390.7 396.4 399.7 399.1 392.5 401.9 408.1 408.1 408.1 409.9 411.3 416.9 419.5 417.9 410 414 424.1 427.9 435.3 435.2 436.4 438 436.5 431.1 432.6 434 441.2 443.5 446.8 455.1 457.8 456.1 463.3 470.2 473 483 495.5 507.9 517.5 529.9 540.2 553 568 582.5 598.7 600.5 596 584.8 573.6 564.5 556.4 556.8 559.4 554.2 557.8 559.6 557.6 555.7 550 544.7 540.8 537.4 534.8 531.9 534 536.6 535.1 535.4 535.4 526.4 538.4 550.2 560.1 569.9 579 587.7 596.9 603.5 610.1 615.8 618.7 614.9 614.5 614.3 607.4 603.5 594.5 591.6 586.4 579.9 576.2 575.2 576.5 576 576.2 578.4 582.8 584.3 590.6 598.4 609.3 623.3 639.6 653.9 668.1 682.6 695.5 709.6 723.1 735.8 749.5 763.1 775.1 784.5 790.9 797.5 802.7 807.1 810.9 813.7 815.6 816.5 817.2 816.3 813.3 810.3 807.3 804.2 801.4 798.4 794.3 791.3 787.9 784.3 783.7 783.5 781.6 779.7 776.8
455.2 445.4 437.7 431.6 425.8 420.5 412.8 409.1 407.3 403.8 400.8 400.3 399.5 397.9 393.1 393.1 391 383.5 380 374.3 372.7 370.7 368.5 363.8 356.1 349.1 336.1 332.9 345.8 363.4 366.1 369.3 373.7 375.3 379 383.5 385.6 382.9 381.1 381.3 381.8 388.5 389.4 372.3 353.8 353.9 377.9 391.6 397.3 395.2 393.5 392.1 389.6 389.8 389 391.4 393.3 395.4 401.1 396.5 395.1 395.3 394.9 398.2 398 399.8 396.9 407.7 408.3 412.4 415.7 415.7 423.3 422.2 414.1 421.3 427.1 431.3 437.7 444.5 449.3 453.1 453.5 451.7 449.6 447.6 448 457.2 456.3 458.7 459.7 458.7 459.9 470.8 474.7 479 485.5 498.7 513.1 523.2 534.7 544.9 565 579.1 598.5 611 617.7 614.8 607.6 596.8 583.8 575.4 571.7 569.7 571.5 570 568.8 569.9 567.3 558.9 552.7 549.7 548.9 547.4 546.3 550.1 552.4 550.5 553.2 551.6 531.5 553.7 547.5 558.5 568.2 577.3 586 594.1 602.2 607.5 613.1 616.4 620.5 619 612.1 611.4 613.4 610.8 602.2 593.9 588.4 585.2 583.8 586.2 587.9 587.5 586.9 589.1 589.4 595.8 603.5 612.9 624.6 637 651.6 664.4 678.9 691.7 704.1 715.3 730.6 742.9 754.5 764.5 776.2 784.2 789.7 795.1 800.3 803.3 806.1 808.1 809.7 811.7 812.9 812.5 812 811.9 809.9 807.2 804.4 800.7 796.9 792.9 789.1 786.6 785.8 784.4 782.2 780.2
466 455.8 445.8 436.7 429.4 422.9 416.7 411.8 408.6 406.3 402.8 404.2 404.3 403 398.5 396.8 393.1 384.6 378 375 375.4 374.4 373.9 366.7 360.8 353.1 337.2 333 343.8 363.4 369 371.2 374.7 378.6 380.2 385.2 386.8 382.3 374 371.2 373.6 386.4 377.5 354.5 355.1 361.2 378.8 390.6 394.6 388.6 391.4 388.8 382.9 384.7 387.2 388.5 395.5 403.9 402.7 401.9 396.2 398.1 397.5 396.6 400.3 405.9 399.6 409.1 408.8 418 417.2 422.4 424.1 415.7 419.9 429.5 432 437.7 443.2 453.4 460.5 459.5 460 459.3 459.4 458.2 459 459.5 459.4 460.9 461.2 473.2 475.2 478.4 479.8 485.7 488.7 501.3 516.1 528.6 539.4 555.1 572.8 593.5 614.5 627 634.4 636 629.1 618.2 607.2 594.5 587.2 581.8 585 582.7 581.3 579.3 577 576.3 570.9 565.3 561.9 562.8 558.6 558.7 556.4 556.8 556.6 547.6 538.1 556.8 555.5 562.7 574.8 579.3 586.7 593.8 600.9 606.1 611.7 616.4 619.5 623.8 623.7 623.9 624.4 622.2 617.1 602.7 596.4 593.2 593.6 597.6 600.2 598.8 597.8 596.9 596.4 601.4 610.5 619.6 630.7 642.2 653.2 665.5 677.5 689.7 700.5 712.8 724.9 736.3 746 755.9 764.2 773.5 780.5 785.3 790.7 794 796.2 798 800.8 803.2 805 806 807.1 809.1 809.8 809.3 807.7 804.4 800.8 797 793 790.2 788.4 786 783.3 781.5
476.9 465.7 454.4 441.8 432.9 426.2 418.9 414.3 410.1 408.1 407 407.2 406.4 403.1 397.9 397.6 396.1 385 383.5 378.9 375.6 374.8 373.2 365.1 362.2 353.2 339.5 333.6 341.2 360.4 371.5 373.6 375.6 378 378 375.4 379.2 375.2 372.3 370.1 372.9 371.3 356.3 355.5 363.4 373.6 376.7 382.1 383.8 381.3 385.6 383.6 380.7 387 386.3 392.9 391.7 399.5 404.7 404.1 399 400.7 400.8 398 404.2 410.7 402.4 409.1 409.4 419 420 426.6 419.7 420.5 427.2 433 435.7 445.3 451 460.8 464.1 465.8 465.6 465.1 463.6 464.3 466.5 473.7 477.1 480.8 485.5 486.2 486.2 487.5 492.2 493.4 495.8 502.8 520.9 531.6 544.8 564.9 584.2 607.9 627.3 639.6 648.7 651.9 647.9 638.6 627 616.1 604.6 595.9 594.7 594.7 594.5 592.5 591.9 591.5 586.3 579.7 577.2 575.7 569.4 566.4 564.6 565 563 557.2 553.2 560.1 562.5 566.2 578.4 587 587.3 594 599.6 604.9 611.4 617.8 623.2 628.5 630.9 631.5 630.5 629.3 626 615.2 605.6 602.5 603.8 608 611.9 612 607.9 606.3 606 606 618.3 626.5 636.6 646.6 657.3 668.3 679 689 698.9 709.1 719.4 730 738.3 746.1 754.1 760.5 768.1 773.6 777.6 782.5 785.3 787.1 788.8 792 794.7 797.5 798.9 800.9 803.5 806.9 808 806.3 803.3 799.8 795.6 792.7 790.2 787.2 784.3 780.8
486.1 473.1 460.1 447 433.9 427.6 422.7 419.2 413.2 409.9 409.1 407.6 406.2 404.8 401.7 400 398.8 394.5 387.4 381.5 376.9 375.3 372.2 359.6 347.7 339.5 334.7 334.2 343.6 363.7 373.1 374.9 375 376.1 378.4 372.4 368.2 365.7 363.9 364.5 366.9 358.6 357.6 359.7 373.4 373.1 372.1 372 373 374.6 375.3 377.1 378.3 380.3 386.7 399.4 395.4 391.7 396.4 396.2 398.4 401.7 404.5 403.8 402 409.1 404.1 409.3 412.2 417.1 425 424.8 420.9 424 431.2 436.1 437.6 451.5 459.6 464.3 475.6 479.1 479.6 475.3 475.9 480.3 482.9 486.5 490.8 496.2 498.7 502.8 498.8 497.9 502.4 502.9 504.5 508.4 524.3 536.9 551.6 573.8 597.9 621.8 637.4 650.5 662 667.2 666.2 657.6 644.8 632.4 620.1 609.2 610.4 611.3 610.6 607.8 609.2 605.1 599.5 591.6 587.1 583.4 580.4 576 572.8 570.4 568.7 568 554.9 566.4 568.1 570.6 580.6 588.4 594.3 594.4 599.4 603.6 611.3 619.5 626.4 633.7 637 639.2 639.9 637.2 633.7 627.8 616.9 612.7 612.4 618.4 622.6 623.9 621.6 617.4 619 619.8 626.1 633.8 641.6 651.7 663.4 672.2 680.7 689.6 697.2 705 713.2 722.2 730.6 737 743.7 750.2 755.4 761.6 767.1 770.3 773.5 776.5 779 780.9 783.7 786.5 790.6 792.4 795.3 799.1 802.7 804 803.6 801 797.5 793.7 790.8 788.2 785.4 782.4
493 478.1 464.3 450.3 438.2 432.2 427.9 424 418.5 413.3 410.2 407.8 407 404.9 401.9 401.8 402.9 394.1 386.2 382.6 380.2 378 362.8 343.6 335.6 335.3 335.8 343 362.2 374.6 376.7 377 377.1 377.4 376.6 370.4 364.8 364.5 363.7 362.9 361.3 359.3 363.2 365.5 363.5 364.2 368.1 369.5 370.3 373.5 375.8 378.4 382.8 386 383.5 383.9 385.7 386.4 388 389.3 395.3 402.6 404.9 408.2 410.2 407.9 405.2 408.4 413.8 421.2 422.9 422.2 422.1 427.7 433.1 439.3 443.8 460 468.6 465.8 484 488.5 489.6 492.2 493.9 496.4 493.8 496.8 505.1 509.5 511.3 515.5 516.2 514.1 514.8 514 515 515.7 532.1 545.1 562.7 584.5 608.5 631.1 647.7 660 673.7 680.8 681.1 675.7 666.6 652.5 641.7 630.2 626.4 627.3 627.8 626.1 626.2 619 613.6 606.7 598.4 591.9 588.7 584.8 580.5 577 573.9 572.2 558.2 576.5 578.9 578.5 581.3 590.5 599.3 605.9 597.4 602.2 613.4 624.8 634.1 640 645.4 648.8 650.6 650.9 645.1 640.8 630.9 625.4 623.2 628 632.5 635 636 630.2 630.4 629.2 633.2 639.8 645.9 653.8 666.4 674.7 681.6 687.7 696 703 709.2 715 721.9 726 730.5 738.1 743.7 748.9 752.8 757.8 761.4 765 768.6 771 772.9 775.9 779.3 782.7 786.3 790.7 794.4 797.2 798.9 798.4 796.2 793.5 790.4 787.9 786 785.1
498.2 481.4 467.4 452.4 442 435.5 433.1 428 423.3 418.2 414.8 410.4 407.3 404.5 403.9 402.3 402.1 397.5 386.4 384.4 382.2 378.2 359.1 338.2 338.3 338.8 340.4 357.5 374.3 375 381.6 381.8 380.5 380.7 375 368.9 364.5 364 364 364 361.3 361.9 362.8 365.3 365.7 368.4 369.8 371.5 374.5 378.7 379 383.1 385 391.6 395.2 394.4 395.5 390.1 387.3 388.6 390.1 396.3 400.3 404.3 409 408.8 408.5 408.3 409.9 418.9 422.2 422 423 429.1 435.1 442.5 452.1 473 482.8 476.1 497.3 500.5 504.7 505.3 506.2 507.2 504.1 506.4 519 525.1 527.4 529.2 532.8 531.8 532.9 531.9 530.6 525.7 539.7 557.6 576.5 596.6 619 640.6 655.9 670.6 684.8 692.9 696.1 694 686.2 675.5 661.1 651.2 639.2 639.9 644.7 645.6 643.6 637.4 627.9 619.4 612 602.7 595.6 589.7 586.2 583.9 580 572 577.1 584.7 586.4 584.7 588.5 598.3 607.2 611.9 607.3 609.3 618.9 629.4 640.4 648.1 653.9 657.6 658.9 660.2 658.7 655.8 646.2 641.3 636.9 637.5 642.9 645.3 648.8 645.7 641.5 638.7 640.1 645.5 652 657.8 668.2 675.3 679.7 686.5 693.4 699.5 705.3 710.6 714.7 718.7 721.8 726.5 731.2 736.3 740.6 742.2 745.8 750.2 756.1 760.1 763.5 766.4 769 772 776 781.8 786 789.3 790.9 791.8 791.5 790.5 789.3 787.6 785.2 784.8
502.2 483.3 470 454.7 443.7 439.9 440.7 432 426.6 423.3 419.3 415.6 411.2 409.4 407.9 405.7 402.1 402.7 392.3 387.3 382.6 375.7 355.9 340.4 339.3 340.8 351.2 372 375 381 382.5 385.5 386.7 383.6 379.2 375.4 367 365 365.1 365.7 362.9 365.9 368.5 369.1 369.9 370.2 372.4 372.9 379.2 381.3 381.5 382.6 383.3 386.3 398.5 400.3 397.6 394.9 389.4 389.4 391 391.9 398.7 405.7 408.6 408.8 409 407.9 410.1 412.2 420 420.5 423.5 429.8 436.1 444.8 456 478.9 488.4 489 508.1 507.9 512 515 515 516.6 513.3 512.2 530 535.3 538 542.2 545 543.9 548 547.2 543.2 539 546.4 569.3 588.2 607.6 628.8 647.3 662.4 679.4 694.3 704.2 709.4 709.8 705.8 696 680.7 668.8 656.2 651.9 658.1 660.9 659.5 652.5 642.5 632.1 624.3 620.1 612 601.1 591.8 587.7 582.6 572.7 582 586.2 587.3 590 597 605.4 610.6 609.8 607.1 615.1 625.8 636.7 649 657 662.3 666.7 670.5 672.6 672.2 669.2 662.7 657.3 654.1 651.5 653.9 658.9 660.7 659.5 653.3 649 647.6 650.7 656.6 660.3 669.2 675.6 681.2 685.9 691.2 696.3 701.1 705.1 709.4 712.1 714.2 716.9 719.4 724.4 727.4 729.2 731.3 734.1 742.1 748.7 753.4 756.3 759.1 762.4 766.4 771.6 776.4 780.1 782.7 783.7 784.3 784.8 784.9 785.5 785.5 784.5
502.9 487.8 472.3 458.4 448.2 442.6 441.3 433.1 429.5 425.7 422.6 417.9 416.3 413.5 412.8 404.9 405.2 403.3 391.1 387.6 383.7 381.3 364.7 341.6 338.9 347.5 363.5 384.4 391.6 389.7 392.5 392.5 391.5 391.5 385 379.3 373.8 369.1 365.9 366.8 365.4 367.8 370.5 371.5 372 373.3 376.3 380.9 382 382.3 382.6 382.8 382.9 386.3 397.6 399.3 400.2 396.3 392.4 391.6 391.8 392.3 395.7 399 403.4 407.2 407.5 408.5 409.7 412.2 415.1 417.4 423.8 428.4 438 446.8 455.5 474.4 477.8 495.8 512.9 514.1 522.2 524.9 524.7 527 523.3 518.7 539.7 546.8 549.8 554.8 558.9 559.5 554.8 556.9 557.2 552.6 554.2 578.6 598 617 635.6 652.3 670.1 687.1 702.9 715 721.4 724.3 721.3 714.3 702.5 685.9 673 667.9 672.7 673.1 673.4 668.9 657.3 648.3 637.7 630.4 623.9 617 604.1 593.9 586.1 580.4 570.8 581.9 587.2 591.7 599.1 604.7 607.9 609.1 610.1 618.3 632.5 646.3 656.8 665.5 671.5 676.5 681.5 684.3 685 682.4 679.9 677.1 672 667.3 668.7 670.1 671.8 671.6 666 658.1 655.5 655.5 660 664.5 669.6 676.2 680.9 685.1 689.5 693.3 696.6 699.3 702.4 705.1 707 708.5 711.3 712.6 714.7 718.2 717.7 721.5 728.6 734.2 738.9 743.3 748.6 753.4 757.4 762.1 766.1 769.3 772.7 774 774 776 777.7 779 781.3 783.4
509.7 492.4 476.7 463.8 453.7 446 440.8 435.7 431.1 427.1 423.2 419.1 418.5 415.3 412.3 406.1 404.7 395.8 396 391.7 386.5 384.6 367.4 346.3 340.2 344.7 368.8 392.3 394.9 395 396.7 393 392.6 390.8 388.7 384.6 382 375.8 368.8 367.9 367.4 366.4 371 373.5 374.8 378.2 383 384.8 382.9 382.2 382.7 383 383.6 389.2 393.4 397.7 398.9 397 398.2 396.2 392.6 393.7 398 406.7 408.4 404.7 405.1 408.4 409.1 411.2 413 421 420.4 427.1 436.3 446.3 457.3 470.3 483.8 500.1 512.3 521 528.7 531.5 531.2 535.6 532 522.1 544.4 552.9 559.3 566 568.1 573.4 572.5 574.2 572 566.6 557.7 581.8 604.8 623.9 641.8 657.7 678 697.3 712.2 726.3 733.1 738 737.1 731.9 719.3 707.1 691.2 688.3 688.7 687.2 685.2 679.9 669.8 660.2 648.7 638.9 631.9 624.7 612.9 603.1 595.3 583.4 581.2 579.4 586.7 591.8 599.2 604.7 608.3 611.1 614.6 624.1 641.1 653.7 664.2 674.1 681.1 686.8 691.4 694.4 694.5 692.9 689.2 686.8 685.7 683 680.1 679.7 681 680.8 676.3 668.1 662.4 662 663.9 667.2 670.1 675.9 680.4 683.9 687.2 690.1 692.4 694.1 696 697.9 699.6 700.7 702.5 704.5 706 707.9 708.8 712.7 717 721.6 725.8 729.5 735 741.5 748.7 754.2 758.4 761.6 763.5 765.9 767.8 768.6 770.6 773.5 775 777.3
516.2 496.9 481.3 468 458 450.3 442.5 435.5 430.4 426.9 423.2 419.7 417.8 415.7 412.8 411.3 406.3 394.8 402.5 398.8 394 392.2 371.7 347.3 342.1 342.7 369.1 395.5 394.7 397.3 396.8 392.7 394.1 389.4 392.6 388.3 384.9 376.2 368.1 369.6 368.3 369.1 373.4 377.3 379.4 383.6 384.8 383.7 382.9 382.1 382.7 384.8 388 392.3 395 399.1 402.9 402 402.8 401.4 395.2 396.5 401.1 406.2 405.2 404.6 405.3 406.9 408.5 409.9 411.7 420.2 423.2 427.5 433.6 443.5 453.4 463.6 477.6 492.5 505.4 517.1 528.7 533.2 536.4 542.4 542 519.7 550.8 555.5 568.1 574.3 577.5 585.5 585.4 586.6 587.5 583.1 578.2 584.8 609 629.9 646.9 665.7 687.6 704.8 721.7 735.5 748.5 751 750.4 747.2 739.4 724.8 710.9 703.2 700.7 699.2 695.3 688.9 680.5 671.6 658.9 648.5 638.3 630.8 619.3 610.5 599.3 590 582.6 588.4 590.1 592.6 596.9 602 606.2 613.2 622.9 634.8 648.3 661.3 672.9 682.6 689.2 695.2 701.3 702.7 703.3 701.2 697.1 695.1 692.4 691.6 688.8 687.6 688.8 688.5 685 677.3 668.8 666.9 666.8 667.5 670.9 675.1 678.8 681.6 684.2 686.4 687.4 689 691.1 691.3 692.3 693.5 695.1 696.2 697.6 698.4 700.8 703.7 707.6 711.3 715 717.9 724.4 731.8 738.6 745.1 749.8 754.1 757.6 759.6 762.6 763.2 765.1 768.3 769.4 770.7
525.6 504.8 485.3 471.7 462.4 453.4 444.6 436.9 431.4 426.8 423.9 419 414.7 416.4 412.9 410.4 403 396.8 406.8 402.9 399.4 399.6 377.7 351.7 342.9 343.9 371.4 398.1 396.9 395.4 396 396.5 397.9 396.5 398.2 395.3 383.9 373.7 370.4 371.8 370.5 373.4 377.4 378.9 383.3 384.3 381.9 382 381.7 382 382.7 386.7 392.6 395.2 396.5 402 401.7 399 398 398 400.2 396.6 398 400.2 404.4 408.8 409 409 408.4 409.7 410.6 416.1 422.1 429.1 428 436.9 445.6 453.8 470.1 480.7 494.2 505.2 518.8 529.5 537.1 543.3 543.7 523.6 557.7 552.2 571.8 572.5 589.1 595.1 596.7 600.6 600.8 601.9 598.1 591.6 614.2 636.3 656.7 675 693.5 709.5 728.3 746.3 762.2 765.7 765.8 762.5 755.8 745.3 733.6 721 717.2 713.2 708.6 703.2 695.2 682.4 671.7 657.4 647.5 634.4 625.8 616.6 606.9 595.1 593.1 595.9 596.1 595.7 594.1 599.4 607.1 618.3 629.4 643.1 656.6 668.3 679.7 690.1 697.3 703 707.9 710.2 710.5 708.6 706.2 702.6 699.6 697.1 695.1 693.6 694.3 694.9 692.7 685.8 678.2 671.6 668.8 669.2 670 672.7 676.8 679.1 680.4 682.3 684.2 684.2 684.2 685.9 686.8 686.7 687.5 689.2 689.6 690.7 692.2 695.8 699.1 702.6 704.4 708 715.8 722 728.7 735.9 741.8 746.5 750.5 752.8 757.3 759.3 762.1 762.7 765.4 765.4
531.4 510.5 491.9 478.8 468 457.4 448.1 439.1 432.7 426.4 422.5 417.1 414.8 414.6 413.2 405 396.7 403.4 405 403.2 401.2 399.7 381.1 354.8 344.1 346.8 374.7 399.6 399.1 397.4 393 390.6 389.1 394.3 402.4 398.9 385.2 372.3 372.5 374.5 371.9 373.3 379.3 381.8 383.7 382.9 380.6 380.7 380.9 381.4 384 387.4 394.1 397.4 399.2 402.1 401.5 398 398 397.7 398.7 399 397.7 399.3 408.1 409.6 404.4 405.3 407.4 409.3 410.9 412.9 420.3 427.6 429.1 433.8 437.7 446.1 462.1 470.8 481.8 493 504.9 516.3 529.8 538.8 544.4 535.5 558.3 558.3 564.7 587.9 596.4 603.6 609.1 614.3 617.5 615 613.5 612 622.5 643.7 663.4 682 698.5 716 733.7 752.3 771 776.1 776.2 775 770.2 760.8 748.9 736.9 726.7 724.2 719.1 713.6 707.8 696.4 682.5 665.9 656.5 644.6 633.7 623.2 612.5 605.3 604.3 603.6 602.6 599.5 599.3 604.6 613.3 625.4 637.2 650.6 664.5 678.3 687.3 697 704.7 710.5 714.9 715.6 716.5 715.7 713 708.6 704.1 702.1 699.2 699.4 698.2 698.6 698 693.1 687.9 677.4 671 668.6 668.7 670.7 673.4 676.1 676 678.1 679.7 680.3 678.8 679.7 679.5 680 680.8 681.7 681.6 682.9 684.9 688.2 691.3 694 695.9 698.6 705.6 711.6 718.1 724.8 731.8 737.4 740.6 746.2 751.7 755.5 757.9 759.9 759.9 760.3
535.5 515.4 497.4 486.1 473.1 460.2 450.4 440.9 433 427 422.2 415.6 414.6 411.7 407.9 402.1 398.8 402.6 404.6 403.6 400.9 399.2 384.8 360.5 345.8 350.7 379.5 398.5 396.5 396.4 389.9 385 385 385 397 395.7 383.2 376.2 376.7 377.9 377.3 373 379.3 381.1 379.8 379.6 379.7 381 381.4 381.5 384.8 387.6 392.4 398.1 398.8 401.1 401.8 404.5 401.1 398.2 398.6 403.2 405.2 404 401.6 402.1 403 407.3 407.9 409.5 409.6 411.7 417.6 424.2 428.1 430.2 436.7 438.5 452.8 461.2 471.4 482.5 493 503.9 515.9 529.8 538.5 537.3 556.8 563.7 575.2 589.6 601.3 611.7 619.9 626.8 631.3 633 635.7 636.3 640.1 653.1 668.9 689.6 705.6 724.8 740.2 758.9 774.6 783.5 782.3 782.8 779.8 771.9 761.9 749.5 740.9 733.6 728.2 722.7 716.6 707.1 694.8 679.6 664.1 653 643 632.6 617.9 615.5 616.8 614.6 613.1 607.7 607.4 611.7 625.4 636.1 647.2 659.6 673.9 687.2 696.7 704.3 711.3 716 719.3 720.8 721.4 720.6 718.6 713.7 708.7 706.5 703.6 702.6 700.7 700.4 700.6 698.1 691.7 685 676.2 671.8 670.8 669.7 669.9 672 672.8 673.7 674.5 675 675.3 674.2 674 672.8 673.3 675.1 675.7 676.1 678 680.6 684 685.6 687.5 691.1 695.7 701.9 706.9 713 719 723.1 726.9 735.2 743.1 750 754.1 756.1 755.8 755.8
539.8 519.8 504 491.5 474.9 462.6 452.2 441.1 433.9 425.9 421.2 415.3 413.5 410.1 408.2 401.5 401.8 405.7 407.6 404.4 401.6 400.3 390.8 367.6 345.3 353.9 382.2 397.9 398.2 394.4 391.9 385 385.3 385 385 384.3 384.1 382.6 380.9 381.2 378.3 374.3 376.5 380.3 380.2 380.6 381.1 381.6 381.8 381.3 383.2 385.2 392.3 397.3 398.2 397.5 397.8 398.4 397.4 394.2 403.3 403.1 404.9 413.7 410.8 408.8 409 409.4 410.4 412 414.2 415.2 415.3 420.3 425.1 429.7 433.3 435.3 441.4 452.6 463 471.5 481.4 491.7 504.2 518.6 529.7 531.4 552 562 574.1 590.7 603.6 615.5 627.1 634.5 640 644.9 649 654.4 657 666.9 682.3 698.4 713 731 745.8 761.5 776.1 785.2 788.8 789.3 786.4 779.2 769.5 758.4 749.2 741.7 735.6 730.4 725.3 716.5 705.5 691 675.3 662.1 652.1 641.2 630 628.4 629.1 626.5 625.3 622.2 615.7 621.5 635.1 648.4 659.3 671.6 682.8 694 703 710.4 716.9 721 723 725.1 725 724 722.4 718.6 714.2 709.8 707.3 704.7 702.8 700.7 700.9 700.6 695.5 688.9 681.5 673.5 672.3 670.8 668.7 667.9 668.4 669 670.4 670.8 669.7 668.9 668 665.9 668.1 668.4 668.6 670 671.6 673.2 676.1 677.6 680.2 683.7 687.3 692.1 697 701.8 706.4 710.9 713.9 723.1 734.1 743.2 749.2 751.2 750.9 750.7
544 524.4 507.1 494.4 475.9 465.4 452.8 442.3 435.1 426.6 420.5 413.5 411.7 406.7 403.8 400.9 406.2 409.2 410.1 409.1 407.3 402.1 391.6 368 345.9 357.7 372.8 393.1 400.2 397.8 392.3 392.3 393.4 386.2 385.9 385.5 384.1 384.4 380.1 386.9 383.8 376.8 376 381.6 381.5 381.3 381.8 382.2 382.3 382 382 382.9 387.3 393.1 395 394.7 395.2 395.2 394.7 395.9 404.3 410.3 416.5 413.7 411 411.1 411.7 413.4 414.6 414.9 416 418.5 422.1 423.7 425.4 427 429 432.6 437.3 445.3 452.2 460.5 470.6 481.9 490.4 506.5 520.6 528.6 539 554.1 570.2 584.7 603.6 616.7 630.3 639.8 647 654.4 661 667.1 672.5 681.8 695.2 707.8 721.2 733.5 752.1 764.8 776.4 786.7 793.3 794.7 791.3 784.8 775.3 765.6 756.6 751.1 744.2 738.2 733.1 725.7 715.7 704.4 685.6 671.3 661.8 646.8 648.1 643 643.1 640.8 642.6 637.2 630.9 627.5 643.9 658 668.6 680.3 691 700.7 708.2 714.7 720.6 724.7 727.2 728.6 728.2 727.7 725.7 722.8 717.7 712.9 710.7 707.3 703 701.8 700.6 700.3 696.3 691.1 685.8 677.7 673.4 671.5 669.1 664 664.9 665.2 665.9 665.6 664.8 664 663 661.5 661.5 662.1 662.2 664.5 666.1 668 669.1 670.3 674.1 676.5 680.4 682.7 687.4 691.1 694.6 697.2 704.7 715.7 725.7 734.4 741.7 744.3 743.9 744.7
544.7 523.7 507.7 493.5 478.1 466.1 453.3 441.5 433.7 427 420.6 410.7 410.2 404.2 399.2 404.4 406.8 407.4 411.8 412.9 412.9 406.2 386.8 363.2 356 358.7 369 386 397.1 397.8 392.7 392.5 396.8 397.9 389 391.9 389 386.9 380.3 385.9 386.1 378.7 380.8 383.3 382.6 383.4 382.6 382.7 382.8 382.8 382.7 383 383.6 395.4 394.1 394.3 395.3 396.4 396.5 401.9 409.5 416.5 416.4 412.8 418.6 418.6 415.1 415.3 416.1 414.9 417.5 419.1 426.3 430.3 428.3 422.7 426 429.9 433.1 438.9 446.9 453.5 461.1 471.7 481.5 494.7 509.6 522 532.4 543.5 562.6 573.6 597.9 614.8 629.9 641.5 652.4 660.9 668.9 676.4 683.6 692.1 704.1 715.4 726.7 740 756.1 768.1 779 787.8 795.7 798.2 794.8 788.4 779.4 771.3 763.3 758.2 752 744.7 739.1 732.6 723.3 713.4 698.6 680.3 667 664.5 664.1 657.7 658.1 655.1 654.5 652.5 649.8 644.8 648.1 665.6 676.1 687.7 696.8 704.8 712.7 718.5 723.2 727 729.2 730.2 729.8 729.3 727.8 724.7 720.3 715.7 712.7 708.7 705 702.8 699 698.4 695.6 692.3 686.9 679.6 673.6 670.6 667.9 664.8 659.5 661 660.7 660.2 659 656.8 654.9 656.1 655.9 656.3 657.4 658.4 658.6 661.7 663.3 666.1 669.3 670.7 673.3 675.1 678.2 680.9 683.7 689.2 698.2 707.6 717.2 725.8 732.2 734.7 735.2 734.3
549.7 528.7 508 492.6 477.8 467.8 454.7 443.5 434.6 427.7 420.3 409.4 408.5 403.9 399.6 402.4 407.6 408.6 410.5 412.2 410.2 396.3 375.5 354.7 362.7 368.2 373.7 383 399.4 396.7 396.1 398.2 402.7 400.7 393 398.5 391.2 391.1 386.6 382.6 382.9 380.1 380.2 383.5 383.8 384.2 383.3 383.5 383.7 385.3 388.5 386.9 385 391.6 390.9 392.1 394 398.7 399.2 404.5 411.3 414 411.8 416.7 416.3 417.6 416.1 416.1 416.5 415.4 417.6 418.7 425.4 435.1 437.8 428.6 426.9 429.1 430.4 434.5 440 447.9 452.4 463.1 473.7 485.4 496.9 510.6 523.1 534.6 551.2 566 588.4 610 627.1 641.5 655.6 665.4 674.6 682 690.3 699.4 709.6 720.4 731.3 744.3 758.9 772.2 782.3 790.1 796.4 798.6 795.6 790.3 782.4 775.9 770 763.7 757.4 751 744.3 737.3 728.9 719.5 706.9 689.3 680.8 681.3 679.9 667.4 671 671.9 667.2 665 664.3 663.4 661.8 672.6 683.8 693.6 701.7 708.2 715 720.9 724.2 727.4 729.7 730.9 730.9 730.2 729 726.8 722.4 718.3 714.3 710.6 707 703.3 699 695.3 693.7 690.9 689.2 682.3 673.7 668.8 665.2 663.3 660.2 657.9 656.8 655.2 653.5 652.1 650.3 651.4 649.5 650.7 651.5 652.8 654.2 655.5 658.3 660.9 663 664.7 666.8 668.9 670.7 673.5 674 682.6 690.7 699.2 708.8 716.7 721.6 724.8 725.1 724.5
554 532.1 512.8 495.5 480.3 468.9 459.4 444.1 433.3 424.2 411.6 407.5 406.5 405.3 398.4 401.4 406.9 408.3 411 411.8 408.3 388 361.6 351.5 365.2 371.7 376.3 387.1 397.3 397.3 397 400.4 400 399.5 399.5 398.2 398.4 397.6 389.6 384.8 383.8 382.6 381.7 382.5 384.3 385.4 385 384.3 384.7 389.2 392.2 387.3 386.5 393.1 392 391.5 393.2 401.3 405.7 404.5 411.9 413.9 412.6 412.6 415.1 417.7 417 417.6 417.6 415.8 419.3 422.7 427.8 438.6 435.3 429 430.5 430.6 429.9 432 436.8 440.1 443.9 452.6 469 477.4 487.7 497.8 512.2 524.5 540.8 558.3 576.3 600.7 619.1 638.6 655.7 667.7 678.6 686.6 694.6 703.4 712.6 722.6 733.5 747.8 761.6 775.7 787.1 795 798.7 798.9 794.8 789.9 783.6 778.7 772.7 767.1 761.5 755.4 748.7 740.9 732.2 724 714.8 706.2 695.7 693.2 691.7 681.5 689.5 689.3 686.1 684.2 683.9 681.7 678.5 679.7 691.3 698.1 704.8 711.1 716.2 720.9 723.9 726.7 728.9 730.2 730.6 730.2 729.1 726.8 723.4 719.4 715.6 711.7 708.3 704 699.1 694.5 692.9 690.4 688.2 685.2 676.3 667.7 663.3 660.1 658.2 655.8 653 648.8 646.9 645.8 645.9 646.2 645.1 645.4 647.5 647.9 650.8 652.4 654.5 656.8 657.5 659.1 660.7 662.7 665.2 666.1 668.4 676 683.4 691.3 699.1 705.5 710.6 713.4 712.7 712
564.8 539.2 522.3 503 485.7 471.5 459 445.4 433.3 422.1 409.1 404.7 404.5 404.1 398.4 398.4 403.4 407.8 409.8 410.7 400.1 382.6 363.1 353 367.2 375.2 379.7 390.5 397.1 398.9 398.7 400.1 402.7 400.8 401.1 404.4 400.5 401.3 386 390 390.7 388.2 383.9 385.2 386.5 385.8 386.2 385.8 388.9 389.4 392.5 387.3 388.6 390.8 391.1 391.4 394.8 404.9 411.5 409.5 418.4 412.6 412.6 412.6 417 419.6 420.3 421 420.3 420.4 421.5 424.4 436.8 443.7 432.2 431 432.3 431.9 432.1 432.1 434.6 436.4 438.2 448.9 461.2 471.6 478.6 488.1 504.1 517 533.5 550.3 564.1 589.5 610.9 630.6 650.6 667.2 678.6 687.6 695.9 704.7 713.4 723.8 734.8 749.7 763.4 777.4 790.1 801 802.6 799.4 794.9 789.7 784.4 779.2 773.8 769.3 764.1 758.3 751.7 744.3 735.8 727.2 719.6 713.8 706.6 704 703 696 702.2 700.4 699.8 697.4 695 692.1 689.2 689.2 696.8 702.2 705.7 711.7 715.7 719.1 723.2 725.6 727.2 728.6 729.3 729.4 727.9 726.2 723.2 719.6 716.3 712.6 708.5 704.3 700.5 696.7 692.4 688.6 685.5 684.2 680 671.4 663.4 658.7 654.8 654 650 643.9 642.9 642.2 642.2 642.4 641.1 644 643.7 644.9 646.1 647.8 650.2 652.2 652.5 654 655.5 656.2 658.8 660.1 663.9 668.5 675.8 682.7 689.1 694.4 698.1 700.7 701.1 701.2
569.6 544.6 526.4 507.3 487.6 474.3 463.3 444 433.8 421.9 407.1 403.1 401.7 400 399.7 399.8 398.8 402.7 406.8 407.7 393.4 367.1 358.2 371.5 376.8 379.3 385.8 397.8 398.6 401.9 402.8 404.3 403.1 407.7 407.2 406.7 406.7 389.1 396.1 398.6 398 394.9 392.1 387.1 389.5 389.1 389.2 387.1 387.4 389.1 391 390.4 389.4 390.5 392.9 397.2 400.7 405.5 410.6 412.9 413.7 417.9 419 418.9 422 426.4 428.1 429.2 431 430.5 429.8 430.2 441 444.9 430.7 431.5 434 434.2 433.9 433.3 436.6 437.7 439 443.2 453.6 462.6 469.5 483.2 496.1 509.5 524.2 542.1 556.5 579.3 600.1 621.5 641.8 659.9 673.5 684.4 693.7 703.5 712.7 722.4 734.4 748.4 761.6 773.3 787.9 799.4 801.7 798.5 792.3 787.2 781.4 777.2 772 769.6 765 759.8 753.3 746.4 738.2 730.6 724.5 717.9 716.3 714.6 713 710.9 713.9 713.6 712.2 707.6 704 700.2 698 697.8 700.7 704.4 708.5 711.6 715.3 718.5 721.7 724 725.7 727.1 727.8 727.6 726.6 724.6 722.5 719.9 716.6 713.4 709.8 705.7 701.6 696.8 693.3 689.8 687.1 682.5 678.3 673.2 665.8 656.8 653.4 649.5 645.5 640.7 639.1 637.6 638.1 638.7 640 640 640.2 640.6 641.8 644.3 645.5 647.6 648.3 649.3 650.9 651.4 652.3 653.1 659.3 662.7 668.9 674.7 679 683 686.9 689.6 690.3 691
567.8 543.9 526.5 504.5 489.7 474.4 461.7 444.6 433.5 418.8 406.9 403.1 400.5 396.8 392.4 392.3 392.7 394.9 387.4 389.6 387.1 365.1 362.4 366.6 378.4 386.8 398.2 405.8 406.5 405.4 407.8 407.1 407.9 409 408.4 407.5 393.9 395.2 401.6 403.7 404.2 401.8 397.7 389 388.6 391.1 390.6 389.1 388.4 389.3 391 391.3 390.8 390.8 393.8 396.9 399.8 401.8 408.4 417.8 419 419.3 423.1 423.2 428.3 432.5 435.7 440.7 441.9 440.6 438.5 438 442.7 439 437.2 439.1 440.1 439.5 437.5 438 440.8 445.7 439.9 441.7 445.3 454 465.2 475.5 487.6 500.7 514.7 531.6 549.2 567.3 587.4 608.8 629.5 647.2 662.1 675.4 687.1 698.1 707.8 717.9 729.2 742.6 753.5 763.6 776 789.5 793.9 791.7 786 780.1 775.8 772.6 770.7 768 763.8 759.5 753.6 747 739.4 734.3 728.7 724.7 721.1 720.8 719.7 718.7 720.7 721.2 720.8 718.3 713.6 706.8 704.5 704 704.5 706.2 709 711.3 713.7 716.8 719.5 721.6 723.7 724.8 725.8 725.6 724.9 723.8 721.7 719.3 716 713.7 709.7 705.7 701.8 697.5 694 690 685.9 681.9 677.3 674.2 667 659.8 651.7 643.6 642.4 638.9 636.9 633.7 633.8 634.5 635.8 637 637.4 636 637 640.5 640.9 642.4 643 644.9 645.9 646.1 646 648.6 653.5 657.5 660.9 666.7 670.8 674.7 679 681.4 682.3 682.9
567.7 542.6 524.3 500.8 484.4 470.9 453.3 440.2 428.9 416.1 408.7 403.6 398.2 392.2 390 384.8 379.4 373 368.2 367.1 371.4 363.8 365.7 369.8 378.3 398.4 407.4 408.5 408.5 408.5 407.6 409.5 410.5 409.4 408.3 408.8 390.5 402.8 408.5 407.5 407.7 403.4 401.4 397.2 392.4 394.1 392.5 392.7 391.4 390.5 391.4 391.9 392.3 392.5 394.3 398.5 398.7 401.1 413 413.2 418.2 419.8 423.6 426 433 436.3 448.3 452.6 452.8 451.1 447.9 445.3 444.3 447 446.5 447.9 446.7 445.7 442 445.6 443.9 450.2 451 442.9 444.5 451.3 458.6 469.6 478.8 491 506.9 521.7 538.3 556.4 572.6 594.7 612.9 630.7 647.1 661.2 674.3 687.6 698.4 710.1 720.1 732.8 741.5 751.4 762.3 774.2 780.3 780.9 774.7 769.7 768.3 767 765.5 764.2 761.8 758.2 752.8 746.5 740.3 735.3 731.8 727.8 724.7 725.3 724.1 724.4 725.8 727 727.2 725.4 721.1 713.6 709.9 708.7 707.3 708.4 709.3 711 712.6 715.3 717 718.4 720.8 721.6 723.9 723.6 723.1 722.2 720.9 718 714.7 712.2 709.1 705.7 699.8 696.8 693.9 689.9 689.5 686.6 681.7 675.2 670.6 662.4 656.3 645.8 639.6 635.1 634.1 631.4 630.7 629 631.3 633 634.2 633 634.4 635 637.4 637.7 639.2 640.2 640.6 641.1 640.5 644.2 646.5 649.5 652.5 658.1 663.2 666.8 670.6 673.8 675.5 675.8
562.6 536.9 514.5 493.3 477.7 461.1 445.2 432.7 422 412.3 406 399.2 396.7 390.1 384.3 377.9 370.4 369.5 368.7 367.5 365.6 365.9 367.4 372.6 379.1 394 410.5 412.6 410.8 411 410.4 412 412.5 410.7 407.5 407.8 391.7 409.3 410.2 408.8 406.4 406.9 404.4 402.1 394.6 395 397.6 395.5 397.3 394.4 394.4 393.2 393.8 393.9 394.3 397.5 400.2 405.4 407.6 412.7 420.7 420.3 425.1 432 436 443.6 456.2 462.2 463.9 461.2 454.5 453.9 456 454.5 455.4 455.3 454.4 451.8 453.6 450.4 446 453.1 456.8 450.2 446.3 448.8 459.9 470.6 476.7 483.2 498.8 514.3 530.7 545.7 558.9 577.4 595.1 612.3 629.3 644.8 659.2 672.5 683.8 699.4 708.8 719.1 727.2 736 744.9 755.2 761.5 762.4 761.5 760.9 760.1 760.9 760.6 759.4 757.2 754 748.8 744.7 740.3 737.5 734.3 731.8 730.2 729.3 725.3 728.6 730.3 731.9 732.6 731.9 727.2 722.1 715.6 712.8 711 710.7 710 711.1 711.5 713.4 715.2 715.6 717 718.6 720.4 720.7 721.3 720.8 719.1 716.5 712.6 710.3 707.3 705.9 700.7 697.7 694 693.1 690.8 687.2 683.6 678.4 672.1 666.4 659.5 650.3 640 635.7 631.8 628.6 625.3 626.2 626.5 628 629.4 628.8 630.4 630.7 633 633.9 634.8 636.1 636 636.3 637 638.1 640.3 642.8 646.2 650.6 655.7 660.9 664.1 667 669.5 669.5
549.8 527.4 504.1 485.1 469 454.3 438.3 425.2 413.6 404.8 399.4 394.3 394.2 390.1 383.9 370.8 373.2 374.4 372.7 369.5 369.8 373.9 375.5 383.1 392.5 398.9 400.2 415.7 413.9 410.3 410.2 411.4 407.1 402.1 405.1 394.7 403.7 413.1 413.1 413.3 411.6 410.4 407.5 406.3 403.1 399 399.4 400 399.2 396.3 394.7 394.4 395.5 395.3 396.4 397.2 400.1 405.9 411.5 414.6 421.4 422.3 427.9 434.2 439.6 445 461.3 469.4 471.5 469.5 465.9 465.4 465.9 464.1 463.1 462.3 462 459.8 461.9 450.6 452.4 458.9 459.7 448.3 453.2 449.1 457.7 465 469.5 478.4 491.7 505.2 520.6 534.9 548.6 561.8 578.1 595.7 613.2 628.5 642.6 656.9 670.1 682.7 694 704.2 712.6 720.6 728.8 738.1 744 748 749.9 750 750.6 751.9 752.5 751.9 750.3 747.5 743.9 741.7 739.3 737.8 736 735.1 734.4 732.2 727.5 732.1 733.8 735.5 736.6 735.3 732.3 726.8 721.2 716.2 713.2 711.1 709.9 709.7 710.8 711.3 712.9 713.3 715.4 716.4 717.7 718.8 719.5 719.3 717.4 715.2 712.4 709.3 707.6 706.3 700.3 698.3 695.9 694 690.9 687.2 683.9 679.2 674.3 665.3 661.2 653.3 645.5 637.8 632.9 628.5 623.9 621.1 622.6 624.2 625.1 624.4 626.6 627.3 628.7 630.3 631.2 632.1 632 630.9 631.8 633 634.8 636.9 640.8 644.8 649.5 655.1 659.1 661.4 663.4 664.6
530.8 511.9 494.2 477.2 460.9 444.6 431.7 419.1 407.3 398.6 393.5 391.9 390.9 381.8 370.2 375.9 382.1 386 383.9 386.9 393.8 402 399.6 403.4 415.2 415.1 401.4 416.8 415.1 414.7 409.6 410.2 412.2 410.7 403.2 409.7 415.1 416.1 415.1 414.1 412.6 410.8 412.1 413.5 406.6 405.2 398.4 403.3 399.6 398.8 395.2 395.7 397.4 397.9 397.6 401.5 403.7 410.3 412.6 414.6 421.6 425.8 430.1 435.3 441.4 445.3 460.7 472.8 478.8 479.9 477.9 478.7 477.2 473.4 470.9 469.6 472.3 470.8 462.8 452.5 458.3 468 460.5 454.6 453.4 451.6 453.9 458.4 462.7 473 481.9 495.7 509.7 524.5 538.3 551.1 562 579.4 595.3 610.7 623.4 637 652.8 664.6 676.2 686.4 695.9 703 711.7 721.9 729.1 733.8 735.5 736.8 738.1 740 742 741.7 740.6 739.3 738.8 737.6 737.4 737.4 737.6 737.4 737 733 733.6 735.4 737.1 738.6 738.9 737.6 734.9 730.9 724.8 719.7 714.2 711.9 710.5 710.4 709.7 709.9 710.7 711.3 713.4 714.5 714.8 716.7 717.5 717.2 716.3 714.7 711.6 708.1 706.3 705 702.3 698.8 696.9 694.7 691.2 687.1 682.6 679.9 675.2 666.9 661.5 653.5 648.7 641.7 634.5 630.7 625.6 622.4 618.5 619.9 621.1 622.3 622.6 623.2 625.2 625.3 626.1 626.4 626.5 625.3 627 628.5 629.7 631.7 634.5 640.7 645.8 651.2 654.7 656.9 658.3 660.1
514 497.1 481.4 465.1 452.1 437 424 411.3 399.7 392.4 389 387.7 378.1 370.9 382.9 388.3 388.6 387.5 397.5 407.2 415.6 417.1 417 418 419.1 417.3 417.9 415 415.7 412 412 414.5 415.5 408.5 411.5 419.1 417.8 416.5 415.9 414.4 412.9 413.1 415.2 415.8 415.1 408 400 406.5 404.5 401 396 396.5 399.6 400.4 402.8 404.9 408.4 413.9 414 417.7 422.1 427 431.2 434.8 440.3 445.3 459.1 473.2 482.7 488.3 489 486.8 483 479.9 479.3 481.3 488.3 467.7 459.8 457.6 467.4 467.7 461.9 457.7 456.1 453.4 455.7 458.7 461.2 464.5 469.9 485.7 500 512.1 524.2 537.8 550.3 562.3 577.3 591.9 604.9 617.7 629.9 644.4 655.9 665.4 676.3 684.5 692.5 702.9 710.5 716.2 717.4 720.9 723.4 727 729.4 729.2 729.2 729.2 731.3 733.2 734.8 737.1 738.5 738.9 737.7 732.6 737.7 738.4 740.4 742.3 741.6 740.9 738.4 734.5 728 722 716.5 713.9 710.9 710 708.6 708.3 709 710.5 711.7 712.7 713.5 714.4 715.1 715.1 714.8 712.8 711 709.5 706.4 704.7 702.9 699 696.5 692.8 690.3 687.3 682.9 679.3 676 669.7 660.8 653.1 649 646.2 641 638 628.9 623.5 619.5 617.9 618.2 619.3 619.1 619.5 621 620.2 621.2 622 622.1 622.8 622.8 624.1 624.7 629.1 631.3 636.8 641.9 646.9 649.7 651.3 653 656.6
497.8 481.4 465.3 454.8 444 429.8 415.7 402 389 384.8 382.9 374.4 375.2 387.6 390.4 389.5 395.5 402.4 404.5 414.5 416.9 419.2 418.4 419.3 417.4 417.2 415.5 415.6 415.7 412.5 415.4 414.4 413.3 411.3 419.1 420.3 419 416.8 415.2 414.3 415.3 415.9 416.2 416 415.9 405 407.5 408.9 406.8 404.2 402.3 401.3 403.4 402.7 405.3 408.7 412.4 416.1 419.7 420.9 424.1 428.9 432.5 434.5 439.7 446 454 470.7 482.7 492.2 495.7 489.1 493.6 492.4 490.6 487.9 480.8 474.3 466 470.3 474.5 470.1 464.6 457.2 456.1 455.3 455.3 460.3 463.5 470.9 476.8 470.7 490.5 499.4 510.9 523.7 535 546.7 561.3 574.1 585.8 597.6 608.6 620.1 632.9 641.1 652.7 664 673.5 682 688.6 696.1 699.3 703.2 706.9 711 714.7 716.3 717.9 719.6 723.8 727.8 732.1 735.8 738.4 738.3 739.6 740.3 740.8 743.1 745.5 746 745.6 744.6 742.2 737.6 730.5 722.7 717.7 714.6 713.1 709.6 708 707.2 708.1 709.2 710.3 710.9 712.3 712.9 713.3 713.3 713.2 712.6 711.5 709.7 707.9 705.4 701.8 698.1 695.9 691.2 688.9 687.2 682.3 679.4 676.1 672.6 666.5 658.4 653.4 648.9 646.6 645.2 637.1 627.9 621.6 615 616.6 615.5 616.2 616.9 617.8 618.1 618.1 618.3 618.5 619.2 618.5 619.7 622.9 625.4 627.9 632.5 637.8 641.6 643.9 645.8 649.2 652.1
485 466.8 447.1 434.5 424.5 410 396.9 385.9 380.1 378.8 373.8 381.9 386 391.1 390.3 390.7 398.2 403.9 406.1 408.4 410.7 418.1 419.7 415.1 415.1 415.1 419.2 418.8 419.8 414.8 415.7 415.1 416 418.6 418 420.5 418 416.7 416.4 417.6 417.4 417.2 416.8 419.5 417.1 405.3 412.7 413 410 407.8 406.1 406 407.4 407 405.4 410.3 413.7 419.8 421.7 425 427.2 430.1 433.6 436.9 442.1 446.5 448.2 466.6 480.2 491.9 494.2 493.8 502.3 503.2 499.9 494.3 487.7 484 484.3 483.6 483.6 478.7 472.7 468.4 463.1 459.5 459.7 462.1 466.7 472.3 481.9 476.4 474.7 480.4 497.8 509.1 519.3 531.8 545.1 558.2 567.6 576.5 587.2 597.4 606.5 615.8 626.9 639.3 649.8 659.9 667.2 674.2 679.6 684 688.6 694.4 698.1 700 704.9 710.8 716 722.1 728.4 733.6 737.4 737.4 740.2 741.3 744.8 747.9 749.4 750.1 748.6 747 744.2 739.2 732.2 724.5 717.9 715 712.4 709.9 707.4 706 706.7 707.7 708.7 708.7 709.3 710.4 711.4 712.1 712.2 711.7 710.8 709.6 707.7 704.5 701.2 698.6 693 690.3 687.4 686.6 683.8 679.9 678.3 674.4 669.7 663.9 657.4 652.7 650.5 648.5 644.2 634.3 627.2 619.5 614.1 612.6 612.5 613.9 615.1 615.1 615.2 615.4 615.3 615.9 614.4 616.4 620 622.2 625.1 629.1 633.1 636.7 638.7 641.7 645.5 648.5
482.1 467.2 449.2 427.1 403.1 388.7 380.1 374.4 372.8 372.8 381.9 389.1 388.4 388.4 392 392.8 394.8 398.5 404.2 405.9 411.3 414.2 417.1 415.1 416.7 419.8 417.4 417 414.7 414.4 415.1 416 419.4 421.4 423.4 425.8 424.6 425.2 424.6 423.2 422.1 421 422.6 422.4 417.3 414.5 411.7 416.6 412.9 409.8 408.4 412.1 413.9 411.9 409.2 414 418.4 420.9 425.5 429.6 430.7 433.2 436.7 438.7 440.6 443.6 447.9 461 476.2 487.5 494.3 497.5 506.7 509.3 508.6 503.6 496.7 494.1 492.2 493.1 493.3 487.6 483.4 476.7 476.7 471.9 468.1 468.3 472.5 477 487.4 491 487.9 480 491.6 499 509 517.8 530.9 542.1 549.1 556 564.9 573.7 583.8 590.4 600.6 616.5 626.4 636.1 644.8 650.4 656.8 663.3 671.3 676.9 681.6 684.3 689.4 698.6 708.1 716.7 724.5 730.1 735.1 737.9 743.4 745.8 747.7 751.3 752.7 753 752.2 749.1 745.9 741.2 733.8 724.2 718.5 714.5 711.7 709.8 707.2 704.7 705.2 705.4 705.5 706.2 706.3 707.6 709 710 710.2 709.9 709.2 707.8 704.7 703.9 699.9 696.9 694.5 690.7 688.6 687.8 684.5 681.6 679 675.8 671.7 667.1 662.1 656.3 653.8 650.8 646.7 640.6 633.1 625.5 617.4 614.1 610.8 610.5 612 611.9 612.8 613.8 612.6 612.8 611.3 615 617.2 618.8 622 624.8 627.8 631.5 634.5 638.8 641.4 643.9
481 465.8 443.1 417.6 397 380.4 377.3 372.8 373 373.7 383.6 387.9 391.4 393.7 393 394.1 398.3 399.8 402.5 405 410.6 414.7 418.8 417.5 415.1 415.1 416.1 417.9 417.8 416.7 417 416.9 418.6 422.9 428.3 432.8 433.3 428.5 427.5 425.3 423.5 422.4 423.1 420.7 419.2 419 410.4 422 419 413.8 413.1 415.9 417.4 417.2 412.3 415.8 419.2 423.1 427.4 430.3 432.5 434.3 437.7 440.8 441.9 446 448.5 455.6 472 484.7 492.8 499.1 507.9 512.6 515.4 513.1 508.2 504.3 501.9 501.1 501.3 498.3 495.8 493.6 491.9 485.3 486.3 485.2 491.9 490.5 491.8 492.1 496.4 493.4 482.6 485.8 506.6 515.3 522.7 526.3 532.7 539 545.8 553.4 559.8 568.5 581.3 597.7 609.1 614.5 620.5 628.3 632.2 642.3 653.2 659.9 665.6 668.1 673.7 686.8 698.5 711.2 720.4 727.3 732.7 737.9 743.6 748.1 750.3 752.5 754.8 755.3 754.2 751.6 747.8 743.1 736 726.7 717.7 714.5 711.7 709.4 707.2 704.8 703.9 704 703.9 702.4 703.1 704.5 705.8 707.3 707.7 707.3 706.9 704.4 704.6 702.6 699.8 695.6 692.9 690.7 689.9 687.4 686.1 682.7 679.3 676.1 672.6 668.2 663.2 660 656.3 653.2 648.9 645.2 640.2 631 623.4 615.4 611.8 607.9 609 609.3 610.9 613.6 611.8 610.4 610.3 612.7 614.1 615.8 618.8 621.2 623.6 626.8 631.7 635.6 638.3 638.6
