ncols 200
nrows 97
xllcorner 220000
yllcorner 205050
cellsize 50
128.8 127.7 125.5 125.4 124.7 123.1 120.5 119.1 117.8 116.8 114.3 112.2 108.2 106.3 105.1 104.2 102.3 102 99.8 99.4 98.4 101.7 102 102.7 104.7 107.3 109.1 110.5 109.6 106.8 105.3 106.5 107.2 107.2 113 116.6 120.1 123.7 126 128.2 130.7 133.1 133.6 132.2 130.4 131.5 137.8 141.2 144.1 147 150.9 154.6 157.6 160.1 161.8 163.6 166 168.5 171.6 174 176.1 176.5 175.5 174.4 175.5 176.9 180 182.6 183.3 183.1 182.2 180.4 176.7 172.4 167.9 161.8 155.5 146.9 128.2 133.6 128.7 113.8 133.3 139.4 146.9 152.8 156.9 161.1 163.7 165.6 167.4 168.3 167.8 165.3 161.6 159.4 156.1 150.4 142.9 142.1 143.2 136.9 128.2 124.9 115.6 109.7 113.2 119.9 134.6 147.1 149.7 150.3 150.3 149.7 148.8 147.4 144.3 140 135 130 125.4 122.7 119.5 115 103.4 83.4 57 59 74.3 85.1 97 102.6 103.2 91.2 68 86 114.9 127.2 134.8 137.6 134.2 128.6 117.5 110 101 101.7 101.4 103.5 107 106.1 106.3 105.7 101.7 80.7 52.6 43.9 64.3 73.8 74.9 74.1 70.6 64.1 55.3 46.2 44 42.3 40.3 40.4 50.1 62.5 70.5 77 81.6 83 81.9 79.7 77.7 72.3 68.2 61.1 52.7 42.7 38.7 41.1 42.7 47.8 56.3 66.7 70.4 73 74.1 74.9 76 75.8 78.3 81.7 83.7 85.1 85.1 85.4
131.9 130.2 129 128.1 126.9 125.2 123.4 121.2 119.8 118 115.9 112.1 109.1 105.7 104 101.7 100.6 100.5 99.3 98.8 96.5 98.6 98.6 100.1 101.6 103.2 105.3 106.3 105.7 104.2 100.6 101.1 99.8 107.4 110.7 112.9 116 119.1 121.9 124 125.8 128.3 128.1 125.4 123 128.1 133.7 136.5 139.4 142.6 145.9 150.7 153.7 155.5 157.3 158.6 161.3 164.8 167.9 170.3 172 172.2 171.7 171.4 173.4 177 180.4 183.4 185.1 185 182.8 180.2 176.6 172.5 166.1 160.5 154.2 147.8 136.2 114.8 114.1 118.4 128.4 133.6 143.7 149.9 154.1 158 161.7 163.2 165.2 167 166.4 164.3 160.7 157.3 154.2 149.1 140.2 130.2 127.3 121.9 126.5 125.7 123.5 122.5 126.8 140.3 152.1 154.1 153.8 152.8 152.2 151.6 150.5 148.5 145.8 142 135.5 128.8 122.1 115.4 112.3 102.9 91.4 77.5 70.7 54.1 50.9 63 69.7 76.9 80.6 72 56.8 84 113.1 124.1 130.4 131.6 129.7 124.3 116.1 105.6 74.7 65.5 64.6 72.7 83.5 94.2 100.3 97.5 91 73.3 47.1 37.1 56.2 62.3 59.5 56.9 52.4 43.8 35.2 32 30.6 32.1 35.8 49.9 56.9 62.8 68.6 74.8 78.9 78.3 77.6 77.1 73.8 68.6 63.6 57.7 48.8 43.1 41.4 45.1 50.6 60.2 69.7 74.9 77.5 78.5 79.2 77.8 75.6 74.1 75.2 77.5 79.5 81.5 81.5 81
136.1 134.7 132.5 132 130.4 128.5 125.1 122.9 121.5 119.2 118 113.8 110.5 106.8 104 101.8 100.8 99.2 97.8 96.8 94.9 95.3 96.2 97.8 98.6 100.2 101.2 101.8 101.8 100.1 98.6 98.5 101.6 104.9 107.6 110 111.9 114.6 117.4 119.5 122 123.8 123.7 120.8 117.3 125.5 129.4 132.4 135.1 137.3 140.2 144 147.8 150.1 151.9 152.8 156.4 159.9 163.4 166.3 167.6 167.7 165.9 166.5 170.3 175.3 179.2 182.2 184.4 184.8 182.3 179.3 176 170.2 164.8 158.6 152.3 146.1 137.2 117.2 108.3 123.7 130.2 136.3 143.3 147.7 151.5 155.4 159.4 162.3 163.4 164.9 164.3 163.2 159.7 156.2 153.3 143.2 138.1 139.9 139.2 138.7 140.2 141.4 137.3 140.7 147.8 152.9 155.6 156.3 155.3 154.3 153.4 152.6 151.3 149.6 148 144 139.4 132.7 124.6 114.7 109.9 107.3 103.7 101.8 94.3 75.1 56.4 39.8 43.1 47 53.3 47 57 86.1 113.2 119.2 124.1 127 123.6 117.6 112.8 102.8 80.6 54.1 45 50 61.1 81.3 89.2 85.7 80.6 65.8 41.3 30.5 47.5 50.1 46.5 38 31.5 25.8 25.5 29 31.6 32.4 35.5 40.8 48.5 58.4 64.2 68.3 71.1 71 70.7 70 66.1 62.3 57.2 51.3 45 44.2 47.8 58.5 65.7 71 76.5 80.2 81.3 80.8 78.9 75.8 71.1 68.4 67.4 66.9 69.1 71.1 70.5 67
140.8 140 140.5 136.3 134.1 131 129.5 125.8 122.5 121 120.1 118 114.9 111.2 107.4 105.4 102.9 100.1 97.4 95.6 94.8 94.2 93.4 94.3 95.5 97.1 97.3 98.2 98.2 97 95.9 96.9 98.7 101.9 104.6 107.1 108.9 110.7 113 115.3 117.3 118.9 117.2 113.8 113.8 121.3 124.5 127.8 130.1 132.5 135.2 138.6 142.3 144.3 146.1 147.8 151.3 155 158.2 160.9 161.7 161.9 156.3 161.7 168.3 173.5 177.6 180.1 182.1 183.4 182.9 179.9 175.5 170.4 162.4 155.5 148.4 142.4 134.4 114.9 105.5 117.7 131.4 136.1 142.5 145.9 149.7 152.4 156.6 161.1 162.3 162.6 162.5 161.9 158.4 154.7 148.9 144.4 148.4 149.8 149.8 149.3 149.1 148.5 147.5 150 152.6 156 157.3 157.6 156.4 155.6 154.6 153.6 152.3 150.8 149 146.2 142.9 137.5 132.6 129.6 127.2 125.9 124 121.1 112.3 99 83.1 66.5 48.5 33.7 25.2 27.8 55.7 84.4 103.4 110 113.7 116.9 115.1 112 107.7 102.2 90.1 65.5 43.5 34.4 44.3 63.5 70.3 66.7 64.4 54.2 39.8 23.8 29.5 31.5 24.9 22.2 21 24.3 29.9 39.5 48.2 49.7 47.4 42.8 42.2 47.5 51.8 55.6 57.9 62.4 60.9 60 57.5 53.8 49.5 47.1 47.5 51.3 57.5 65.1 69.5 74.9 78.6 80.6 80.2 78.3 74.9 69.4 64.9 54.2 46.7 44.1 44.6 52.7 49 48
146.8 147.1 145.9 142.7 138.9 135.5 133.1 128.9 125.3 123.8 122.4 120.9 117.4 113.7 110.8 109 104.7 101.6 98.4 96 94.6 92.6 90.7 90.5 91.7 92.8 93.5 94.6 94.4 92.8 91.5 94.2 96.5 98.6 100.9 101.9 103.8 106.5 109.1 111.1 113 113 112.7 107.5 110.2 116.5 120.4 122.8 125.2 128.1 130.5 133.8 136.8 138.7 140.4 142.8 145.9 149.5 151.7 154.3 155.4 155.1 148.9 158.3 166.2 171.7 175.5 178.2 180.4 182.3 182.4 180.1 175.7 167.6 163 155 147.8 138.6 126 107.2 108.5 124.8 133.1 139.1 143 147.1 150.9 154.8 158.1 161.1 162.1 161.8 161.8 160.2 156.8 153.5 150.5 150 152.2 153.1 153.5 153 152.9 152.5 152.6 154.4 156.2 157.1 157.7 157.5 156.9 156.2 154.9 154.5 152.5 152 149.8 147 144.2 142 139.1 137.9 137.7 136.1 133.3 130.4 125.7 117.7 105.4 90.6 75.5 59 36.3 17 35.1 62.7 87.4 97.7 103.2 106.3 106.4 104.7 98.4 95.3 88.7 74 51 30.4 32.2 42.2 47.1 46.1 45.3 40.3 33 17.5 17.2 16.1 17.4 20.6 27.6 38.1 51 56.1 54.6 53.5 54.1 54.3 50.7 48.3 46.7 46.9 46.3 45.3 48.7 48.6 44.6 46.4 47.5 49 53.5 59.1 61.6 65 67.5 72.4 76.5 77.3 76.6 73.8 58.8 44.4 29 22.8 7.6 5.5 12.1 17.5 11.6 23.6
149.7 150.2 150.3 150.3 146.8 141.8 136.8 133.2 130.4 127.3 126.2 123.3 122 119.1 116 113.6 111.4 104.6 101.5 98.5 96.3 94.4 91 88.6 88.3 88.6 89.2 89.5 89.6 87.9 88.3 91 93.5 94.7 97.1 97.8 99.4 102.5 104.4 106.2 108.3 109 108.9 103 106.5 112.4 115.2 118.5 120.1 121.9 125.2 128.8 131.7 133.1 135.4 138.4 141.3 144.7 147.4 148.7 149.4 147.2 143.9 154.2 163.6 168.9 172.6 175.9 178.2 180 181 179.3 175.1 168.7 162.2 154.2 145.4 135.5 116.8 95 112.3 125.4 133.5 138.7 142.8 146.6 150.7 155.4 159.7 161 161.3 161.6 160.6 158.5 155.4 152.8 151.1 151.7 152.4 153.9 154.7 154.5 153.8 153.9 154.5 155.9 156.6 157.4 157.4 157.1 156.5 155.5 154.6 153.7 152.9 152.2 150.1 148.5 146 144.1 141.7 140.8 139.9 139 137.3 133.5 129.4 125.3 120.1 112 102.5 83 54.9 21.2 19.3 46.4 68.9 80.8 86.7 90.4 90.8 84.4 81.4 76.3 65.7 55.6 46 32.6 20 25 26.6 26.4 25.5 25.7 22 14.4 12.1 17.8 25.2 32 42.4 44.8 48.7 49.5 48.5 50.5 52.1 55.7 58.1 61.4 59.5 51.9 44.1 39.4 33.1 36.9 42.2 48.2 54.9 61.7 65.2 65.8 63.2 61.7 60 67.6 71.8 73.5 71.1 56.9 28.9 5.5 3.9 3.8 4.3 4.3 3.9 5.7 3.9 4.4
151.9 152.5 153.3 153.1 152 148 145.2 139.1 135.6 132.9 129.8 127.1 123.9 120.8 118.2 116.5 114.4 112 108.7 105.1 102.7 100.1 97.7 94.7 90.3 86.3 85.1 77.3 84.5 85.1 85.8 87.6 89.3 90.4 92 93.5 95.4 98 100.1 102 103.5 104.5 104.2 99.1 102.6 107.9 110.3 112.3 112.9 116.3 120.7 124 127.3 128.6 130.7 134.3 137.4 139.7 142.1 143.8 144.3 135.8 141.4 151.8 160.2 165.9 169.5 173 176.3 178.5 179.5 178 174.2 166.9 160.7 152.7 144.5 133.2 110.6 90.4 109.9 127.7 132.9 137.2 140.8 145.2 150.6 154.8 157.8 159.7 161.2 161.6 158.9 157 153.3 150.6 150.1 151.9 152.5 153.4 154.1 154 153.9 154 154.9 156.5 156.7 157.2 156.5 155.8 154.9 153.7 152.4 151.2 151.1 150.8 149.7 148.1 146.5 145.2 143.8 143.1 141.9 140.9 138.6 135 129.6 125.8 122.6 116.5 107.8 93.5 63.3 29.9 11.7 27.3 48.6 56.3 64.2 65.2 62.5 56.9 52.5 47.3 40.5 31.1 22.1 16.5 13.1 13.1 15.3 13.3 13.1 11.6 10.4 8.8 8.8 19.7 31.1 40 41.6 37 36.2 39.4 40.9 43.8 47.6 52.7 64.8 67.7 67.4 64.2 54.7 33 30.6 37.8 52.1 59 63.3 66.6 68.1 64.4 56.9 47.2 43.9 55.9 58.4 53.4 47 29.4 4.4 3.8 3.2 3.5 3.7 4.1 3.6 4.5 3.8 3.8
152.6 154.1 155.7 156.2 154.2 150.2 148.4 145.8 140.5 136.8 135.5 133.3 130.4 124.4 121.1 120.3 117.2 114.3 112.3 110.2 108 105.3 101.8 99.8 95.8 94 90.5 88.7 79.6 83.2 82.9 82.6 81.8 81.5 85.4 88 90 92.7 95.8 98 99.2 100.4 99.6 97.2 97.8 99.2 99.3 104.6 108.5 113.3 116.9 120.3 121.8 125.5 127.7 130.3 132.8 135.2 137.5 138.1 138.9 129 138.2 151 156.7 162.7 166.6 170.5 174.1 176.1 177.7 176.2 173.2 166 159.9 152.5 142.9 128.7 106 85.8 106.6 126.5 131.3 134.6 137.5 142.5 148.1 151.7 154.7 156.6 158.3 158.4 155.8 155.1 151.4 146.8 148 150.1 151.3 151.9 152.3 152.1 151.9 153.5 154.7 155.1 155.3 154.8 154.1 153 152.8 151.5 150 148.5 148.3 149.1 148.6 147.5 145.7 143.8 142.9 143.2 141.2 138.8 136 132.5 126.8 123.2 117.4 111.5 100.6 91.6 72.2 38.6 9.1 11.6 28.8 35 35 35.1 33 28.1 24.9 23.2 17.6 11.5 9.1 8.7 9 10 9.7 8.2 7.3 6.4 5.3 6.2 6.5 15.3 23.4 26.5 29.3 25.3 26.4 28.7 33.8 40.5 42.7 58 65.3 68.1 68.1 64.4 53 28.6 26.8 54.2 56.4 57.9 58.6 60.4 56.8 44.1 28 8.5 23.3 26.8 27.4 19.2 15.2 3.5 3.7 3.6 3.2 3.1 3.4 3.4 3.1 3.3 4 3.6
154 155.2 157.4 156.4 155.1 153.5 150.3 147.1 144 140.8 139 139.2 137 132.8 127.7 122.2 120.7 118.2 116.7 114.6 111.2 104.2 103.8 101.5 97.2 96.8 97.6 96.7 93.4 89.3 85.1 82 79.8 79.8 79.6 82.3 84.6 87.2 90.2 93.4 94.9 95.9 95.9 93.4 94.8 98.7 103 105.6 108.4 110.9 112.7 117.5 121.1 122.4 123.7 127.1 126.5 130.9 133.1 133 130.9 125.6 137.5 148.1 153.4 158.6 164.3 167.8 171.6 173.4 174.8 173.9 171.2 165.8 159.3 152 142.6 128 104.4 81.5 101.9 123 128.4 131.2 133.1 137.6 142.6 148.9 150.9 151.6 152.8 152.8 152.8 152.6 148.6 144.8 142.9 147.3 148.4 148.6 148.9 149.3 150.1 151.6 152.5 153.2 153 152.4 150.9 150.7 150.1 149.2 147.8 146.4 139 144.6 145.1 144.4 143 140.9 140.1 140 138.1 136.2 130.5 124.5 119.8 115.4 108 96 81 68 58.7 41.1 13 6.9 15.5 18.5 18.9 17.2 15.8 14.6 12.3 9.1 6.5 5.4 5.1 5.1 6.4 6.8 7.1 5.7 4.4 4.5 4.2 5.3 5.1 6.6 8.3 10.3 13.2 15.7 17.1 19.4 23.8 37.4 50 57.6 58.5 51.9 55.1 55.1 47.7 24 19.6 38.8 47.8 47.4 45.2 36.1 24.4 13.9 3.7 3.6 3.8 3.9 4.1 3.1 3.2 3.2 3.5 3.6 3.2 3.2 3.1 3.2 3.1 3.1 3.7 3.4
153.7 154.5 155.3 155.3 154.4 153.2 151.3 147.6 145.7 142.8 143.9 142.9 141.7 138.9 134.3 129.5 124.9 121.7 118.9 117.6 114.9 112.2 108.4 105 101.1 102.6 103.4 101.8 98.5 96 93.8 88.9 86.7 85 82.9 79.3 78.5 80.9 85.3 88.8 90 91 88.5 90.3 96.8 100.9 104.6 108 110.9 111.9 114.7 117 118.9 120.2 121.5 122.3 124.6 126.2 127.4 127.2 121.4 128.2 138.3 145.4 150.1 155.4 161.1 165.4 168 170.7 170.7 169.8 168.3 164.8 157.4 151.4 142.4 127.4 101.4 75.2 98.2 118.7 124.7 125.7 127.4 132 137.1 142.1 143.4 143.5 145.4 146.1 147.8 148 145 141.8 135.5 142.6 144.2 144.8 144.5 143.7 146.4 148 148.9 150.4 150.7 149 147.3 146.8 146.3 145.5 144.6 143.6 120.8 127.4 140.3 140.9 140 137.5 135.3 135.7 134 132.6 124.8 109.9 100.2 94.4 84 71.8 54.4 41.1 32.8 20.9 6.3 5.3 8.4 11.1 10.4 9.7 8.2 6.3 5.7 3.7 3.7 3.8 3.9 3.8 4.7 5 4.2 3.5 3.6 3.7 3.3 4.3 4.3 4.2 4.7 5.3 6.2 8.4 8 10.1 15.9 30.1 55.2 55.7 45.8 43 24.3 40.2 48.6 15.7 10.6 20.2 24 19.2 13.1 4.4 3.1 3.3 3.6 3.7 3.8 3.9 3.1 3.2 3.1 3.1 3.1 3.7 3.3 3.2 3.1 3.1 3.3 3.5 3.2 3.6
152.8 153.5 154.1 153.5 152.9 152 150.2 148 146.6 145.7 145.4 146.4 144.9 142.7 139.4 135.1 130.3 126.9 123.8 121.6 118.5 115.4 111.8 109.9 108 107.7 108 105.9 104.1 101.4 97.8 95 92.6 87.2 87.1 81 79.3 77.2 78.6 84.4 85.2 82.5 82.6 93 97.8 101.7 105.4 108.9 112 112.2 114.7 116.3 116.8 116.8 117.3 119.8 120.9 121.9 121.9 120 118.4 128.7 132.8 142.1 146.7 152.3 157.9 162.3 165 167.2 167.4 166.3 164.4 160.4 155.4 149.4 140.9 126 102.8 73.8 93.5 115.7 119.7 115.1 118.4 124.5 129.2 134 135.3 135.9 136.2 140 141.7 144.8 143.1 138.1 128.8 136.6 139.3 140.3 140.4 140.1 142.3 144.1 145.7 146.9 146.8 145.3 143.7 142.3 141.6 140.9 139.4 128.4 102.8 106.8 127 136.4 135.8 131.7 128.4 128.6 127.8 126.8 113.6 93.1 74.1 67.8 57.8 46.5 34.8 24.5 16.8 7.8 4.8 4.1 4.6 4.5 5.8 4.5 4.2 3.4 3.2 3.3 3.4 3.5 3.5 3.4 4 3.5 3.8 3.3 3.5 3.8 3.5 3.1 3.8 3.6 3.9 3.7 3.9 3.9 4.3 6.1 10.8 28 50.6 60.4 36.5 33.4 24.2 43 36.2 17.2 7.2 6.4 4.9 3.5 3.5 3.6 3.3 3.4 3.7 3.8 3.8 3.7 3.2 3.3 3.3 3.2 3.2 3.4 3.2 3.1 3.2 3.4 3.2 3.4 3.1 3.1
150.9 151.7 151.6 151.2 150.8 149.9 148.8 147.6 145.5 146.4 147.2 148.4 147.5 145.5 142.2 139.1 135.5 133.3 130.1 126.7 121.8 118.9 115.7 114.8 113.5 112.3 111.6 110.3 108.6 104.5 102.4 99.7 97.3 94.8 91.6 88.7 84.4 79.5 73.7 76.7 77.3 77.8 87.1 92.2 96.2 100.3 105.2 108.4 110.7 112.2 113.5 114.3 114.3 113.2 113.4 115.1 116.7 117.5 116.8 112.4 117.9 125.2 130 136.2 143.5 148.7 154.2 159 161.9 163.3 163.1 162.1 160.2 157.7 153.1 146.4 137.4 123.4 97.1 67.5 90.3 111.7 111.7 98.2 96.7 104.7 111 117.1 121.2 121.8 129.8 136.9 139.1 140.3 138 133.8 121.1 128.2 133.8 135.2 135.7 132.6 137.1 139.1 140.2 142.3 142.6 141 138.6 137.3 136.7 136.3 130.4 105.8 84 85.1 108.1 121.5 125.9 121.5 116.3 116.7 117.7 114.2 102.3 74.8 55.6 43.6 34.1 25.9 18.7 15 10.6 7 3.9 4 4.1 3.8 3.5 3.8 4.1 3.2 3.1 3.1 3.7 3.1 3.5 3.3 3.1 3.1 3.4 3.1 3.3 3.4 3.9 3.7 3.2 3.6 4 3.5 3.7 3.6 3.6 4 7.5 20.9 48.6 56.3 22.1 29.6 24 22.7 12.5 6.5 5.4 3.9 3.1 3.1 3.5 3.2 3.3 3.5 3.7 3.6 3.5 3.4 3.3 3.3 3.4 3.4 3.6 3.4 3.1 3.2 3.4 3.6 3.7 3.3 3.4 4.4
148.8 149.7 149.7 149.8 148.9 148.7 147.4 145.6 145.4 146.1 147.1 147.7 148.8 147.5 144.4 142 139.4 136.7 134.4 130.8 128.1 124.4 121.6 119.9 117.2 117.4 115.7 113.2 111.3 108.1 105.4 102.8 99.5 96.4 94.5 92.5 90.1 86.4 80.3 72.4 72.8 78.8 86 90.4 94.4 98.5 103 105.2 109.5 110.1 111.2 112 111.8 110.1 109.6 111 112.3 112.7 112.1 108.2 115.6 121.4 126.2 133.3 140.2 146.2 151.5 155.7 158.2 158.8 158.7 157.5 156 153.4 148.5 141.4 134 119.8 90.8 62.6 89.7 105.3 93.6 79.8 78.6 91.6 104.5 115.6 122.6 129.6 133.6 138 140.5 138.4 133.1 129 113.2 117.8 128.3 129.7 131.2 134 132.6 134 134.9 137 138 136.6 133.6 132 130.9 129.3 110.6 88.8 67 68.5 90.8 104 105.1 95.7 92.2 97.7 101.5 97.5 81.1 59.2 40.4 27.7 21.3 15.8 10.8 8.2 3.9 3.3 3.2 3.3 3.4 3.4 3.3 3.4 3.6 3.2 3.1 3.1 3.6 3.6 3.4 3.2 3.2 3.4 3.1 3.2 3.6 3.8 3.8 3.9 3.9 3.9 3.8 3.5 3.4 3.4 3.4 3.5 6.5 24.2 49.9 43.5 -3 -2.8 2.5 18.2 9.7 4.6 3.6 4.1 3.4 3.2 3.2 3.3 3.4 3.7 3.4 3.3 3.3 3.1 3.1 3.3 3.6 3.8 3.9 3.6 3.2 3.5 3.7 3.9 4.1 3.9 3.6 3.2
147 147.4 148.5 147.5 147.2 146.4 145.8 145.1 145 145.3 145.8 146.8 146.9 146.7 144.2 142.6 140.3 138.9 135.5 134.2 131.9 128.8 127.4 124.9 124.2 120.7 120.1 116.6 114.7 112.1 109.5 106 102.1 98.9 96.6 94.5 89.2 88.8 85.6 79.6 70.6 77.3 83.1 87.6 91.6 94.8 99.8 103.4 105.7 107.3 108.7 108.9 109.1 107.7 106.2 107.2 108.3 108.7 107.8 106.3 112.9 119.2 123.9 130.9 137.4 143.1 147.9 152.3 154.5 155.1 154.1 153 151.6 149.1 145 138.8 131 111.3 86.6 59.2 80.3 96 76.9 69 90 108.1 116.3 122 128.8 133.4 136.8 140 139 134.5 129.1 122.9 103.2 112.6 122.2 124.2 125.6 124.6 127.3 128.8 130.2 131.5 131.4 130.7 128.6 121.8 124.6 109.7 89.5 70.7 52.3 52.4 69.3 80.8 77.8 69.9 66.3 72.7 75.3 71.3 57.7 40.6 24.5 17.5 12.8 8.3 4.5 4.1 3.6 3.7 3.9 3.5 3.1 3.1 3.2 3.5 3.8 4.1 3.2 3.1 3.4 3.4 3.3 3.6 3.4 3.1 3.1 3.3 3.7 3.2 3.5 3.6 3.8 3.4 3.8 4.1 3.4 3.3 3.4 4.1 6.6 25.2 55.6 21.3 -3.1 -3.2 -2.3 11.6 7.5 3.3 3.4 4.7 4.2 3.7 3.8 3.2 3.3 4.1 3.3 3.1 3.1 3.1 3.3 3.1 4 3.3 3.5 3.8 3.3 3.2 3.1 3.5 3.7 3.7 3.3 3.2
142.5 145 144.7 144.8 144.2 144.4 143.8 143.6 144.1 143.7 144.4 144.8 144.7 143.9 143 142 141.3 139.2 136.9 136.2 134.9 131.3 131.2 129.8 130.3 127.3 123.6 120.7 117.4 115.3 113.2 109.9 105 101.3 98.7 96.4 94 90.2 85.8 79.2 72 72.8 78.2 83.5 85 91.5 96.3 98.5 101.4 103.7 104.6 104.9 104.8 104.6 103.6 103.2 104.7 104.5 103.3 104.6 110.7 116.2 121.5 128.4 135 140.4 145.1 148.3 150.6 150.8 150.3 148.5 146.4 144.1 140.8 137.6 129.9 110.2 85.7 60 65 72.3 61.7 72.4 92.5 109.7 118.6 125.9 131.9 135.6 137.2 138.8 137.8 131.8 125.4 118 94.1 107.5 115.7 117.5 119.1 119.6 121.5 123.1 123.2 123.3 124 122.5 118.8 108.2 100.8 87 69.8 50.1 38.3 36.9 52.6 55.8 52.1 42.5 39.3 42.4 45.1 41.2 30.6 20.7 13.2 9.4 7 3.7 3.5 3.7 3.7 3.7 3.8 3.6 4.1 3.7 3.1 3.2 3.5 3.8 3.3 3.1 3.2 3.1 3.5 3.7 3.1 3.1 3.1 3.1 3.2 3.5 3.7 3.5 3.8 3.5 3.8 3.9 3.8 3.9 3.8 4.1 8 31.7 52.6 5.7 -2.7 -3.4 0.9 9.8 3.3 3.3 3.8 4.8 3.6 3.3 3.6 3.4 4.2 3.2 4.4 3.7 3.4 3.8 3.1 3.7 3.3 3.2 3.4 3.2 3.7 3.1 3.2 3.1 3.9 3.5 3.1 3.4
142.4 142.5 142.5 142.4 142 142 142.4 141.7 141.8 141.8 141.9 142.5 142.6 141.8 142.5 141.1 139.7 138.4 138 137.6 136.5 135.8 135.6 135 135.4 133.5 128.8 123.7 120.4 118.9 117.2 113.7 107.8 104.1 101 97.1 94.5 91.5 85.9 80.1 78.3 73.3 70.9 78.3 83.9 87.7 90.9 93.7 96.6 98.9 100 101.2 100.5 100.4 100.2 98.4 99.9 100.3 100.6 103.9 109.1 113.3 117.3 124.6 131 137.1 140.8 144.3 146.3 146.2 144.5 143 141.3 139.8 137.5 134.5 128.3 117.2 93 68 50.2 52.7 61.9 81.6 99.2 111.1 120.7 128 133 135.7 135.9 135.8 133 128.8 122.4 113 88 96.3 108.1 109 111.5 113.3 114.7 116.5 114.9 114 114 112 105 88.4 80.1 67.4 50.7 34.7 26.4 26.7 27.5 28.2 27.9 28.3 25.9 23.6 22.1 19 13.8 9 5.6 3.7 3.6 3.2 3.8 3.6 3.4 3.5 3.4 3.3 3.7 3.1 3.1 3.1 3.2 3.4 3.5 3.1 3.3 3.5 3.8 3.1 3.1 3.1 3.1 3.1 3.1 3.4 3.5 3.3 3.2 3.4 3.5 3.5 3.5 3.5 3.9 4.2 9.1 35.8 44.3 5 -2.3 -2.4 1.8 9.2 3.1 3.2 3.2 3.8 4.3 3.6 3.4 3.9 3.4 3.2 3.4 3.6 3.8 3.4 3.2 3.5 3.9 3.8 3.6 3.1 3.3 3.1 3.1 3.1 3.7 3.3 3.4 3.5
140.9 140.3 140.3 140.9 140.1 140.7 140.5 140 140.2 140.4 140.4 140.6 140.4 140.2 139.6 139.1 138.1 136.8 137.5 137.7 137.2 137.5 138.2 138.5 138.3 137.6 133.7 128.2 126 122.5 120.8 116.6 110.9 107.1 104 100.3 95.7 92.5 88.4 85.8 85.5 82.5 76.3 68.6 78.5 85 87.9 90.4 93.3 94.9 96.1 96.7 95.8 95.4 95.1 95.2 95.5 96.3 100.9 104.3 106.8 110.2 114.9 120.6 126.9 133.7 137.2 140 141.2 140.9 139.2 135.6 135.8 136.5 136.2 133.6 129.2 124.1 102 76.8 51.9 44.9 60.8 75.3 95.4 110.3 120.7 127.4 131.4 132.5 134.2 134.4 130.6 123.9 117.6 108.6 86.3 83.4 100.5 102.8 104.3 103.8 101.3 104.1 96.1 96.4 97.5 91.3 81.7 69.2 59.8 46.8 30.7 23.4 20.6 15 12.2 16.5 16.2 15.6 15.6 12.9 9.5 7.6 5.9 3.7 3.3 3.5 3.1 3.4 3.6 3.4 3.2 3.2 3.1 3.1 3.1 3.1 3.1 3.1 3.1 3.1 3.3 3.1 3.1 3.5 3.4 3.1 3.1 3.1 3.1 3.1 3.1 3.7 3.7 3.6 3.6 3.8 3.6 3.7 3.5 3.5 3.2 4 10.4 30.4 32.2 -2.2 -2.3 -2.3 4.1 3.3 3.5 3.5 3.5 3.8 3.9 3.3 3.8 3.9 3.4 3.2 3.5 3.8 3.5 3.8 3.5 3.6 3.6 3.8 3.1 3.4 3.2 3.7 3.7 3.2 3.3 3.5 3.3 3.6
139.5 139.2 138.7 138.4 137.8 138.3 138.3 138.4 138.4 138.8 138.5 138.6 138.1 137.5 137.4 137.5 136.5 136.7 137.9 138 138.1 138.6 139.3 140.3 141.9 140.3 138.1 135 131.6 127.7 125.2 120 113.9 110.8 105.6 102.9 98.5 93.8 91.6 89.7 88.9 86 81.6 65.6 71.2 80.9 85 86.9 89.9 90.9 92.9 92 92 91.9 92 92.2 95 99.1 100.9 103.7 106 108.9 113 118 123.5 129.6 132.7 135.6 136.4 136.2 134.8 131.9 130 131.6 132 131 128.9 125.2 105.6 80.2 55.8 38.5 50.8 65.8 89.6 107.1 116.7 122.6 126.9 128.4 129.6 130.6 129.1 123.4 114.1 104.1 80.4 73 90.8 95.3 98.4 99.4 86 73.9 70.5 69.5 70.5 65.6 58.7 47.2 37.2 26.8 17.7 13.7 10.1 9.5 7 7.2 8.3 7.6 7.7 6.6 4.6 3.9 3.2 3.3 3.3 3.2 3.1 3.1 3.2 3.1 3.1 3.1 3.1 3.1 3.1 3.1 3.1 3.1 3.1 3.2 3.2 3.1 3.1 3.2 4.8 3.1 3.1 3.1 3.1 3.1 3.1 3.2 3.4 3.9 3.6 3.3 3.2 3.3 3.5 3.6 3.2 3.4 5.9 20.7 24.7 10.1 10.7 -2 7.7 3.7 3.2 3.2 3.2 3.5 3.3 3.3 3.8 3.8 3.7 3.4 3.6 3.6 3.5 3.9 3.2 3.3 3.4 3.6 3.5 3.5 3.2 3.3 3.3 3.2 3.8 3.9 3.4 3.7
136.8 136.5 135.9 136.1 135.7 136.6 137 137.1 137.2 136.4 136.4 136.6 136.8 135.6 137.1 136 135.9 137.3 138.2 139.4 139.9 140.5 141.4 142.5 143.4 141.8 139.5 136.4 133.5 131.2 128.1 124.3 117.5 113.4 107 104.5 101.2 97.2 94.6 92.2 90.2 88.1 82.8 69.3 67.1 77.6 81.6 84.6 88.1 89.3 89 87.6 86.5 87.7 87.3 95.2 97.6 101.7 102.3 101.5 104.9 107.8 111.6 116.3 120.2 124.4 128.5 130.4 131.4 131.5 130.4 127.7 125 125.8 127.4 126.6 125.2 124.2 116.6 93.8 75.1 48.1 38 51.7 74.7 101.7 110.6 116.7 120.5 121 122.1 122.4 122.1 119.5 112.5 97.7 73.4 61.5 80.2 81 84.6 80.6 64.7 49 45.9 43.8 43.7 41.1 34.5 25.8 16.7 12.7 9.5 8.2 4 3.9 3.5 3.8 3.4 3.6 3.3 3.3 3.2 3.2 3.3 3.7 3.2 3.2 3.2 3.1 3.1 3.6 3.2 3.1 3.1 3.1 3.3 3.5 3.1 3.1 3.4 3.6 3.1 3.5 3.7 3.1 3.3 3.9 3.1 3.1 3.2 3.1 3.2 3.6 3.8 3.5 3.2 3.1 3.3 3.6 3.9 3.3 3.2 3.2 3.9 5.5 22.1 23.1 11 5.8 3.4 3.7 3.1 3.2 3.2 3.4 3.9 3.3 3.7 4.1 3.3 3.3 3.4 3.8 3.3 3.7 3.4 3.5 3.5 3.6 3.6 4.4 4.3 3.1 3.1 3.2 3.3 3.1 3.5 3.5
134.8 132.7 132.4 133.7 133.5 134.4 135.1 135.2 135.5 135 134.5 134.5 134.3 134.6 136.1 135 136.1 137.2 138.6 140.4 142 142.4 142.6 143.3 144.2 141.5 140.7 137.5 135.5 132.6 130.1 126.7 122.7 114.2 111.6 107.1 102.7 100.4 96.9 94.2 92.1 88.7 83.2 74.1 63.1 72.2 77.5 81.8 81.3 82.2 81.1 82.9 83.7 83.7 91.5 95.3 99.6 101.8 100.4 100.9 104.1 106.4 109.9 113.8 116.5 123.6 123.4 125.2 126.1 125.8 124.4 121.9 119.4 120.8 122.9 123.1 122.7 122.1 116.8 107.5 86.5 57.5 32.9 43.8 65 90.5 104 110.7 114.5 115.8 117.8 118.3 116.2 111.8 105.1 89.6 68.2 44.8 62.3 61.5 56.2 54.8 41 31.8 28 24.4 21.7 18.3 14.1 9.2 7.7 8.2 3.9 3.1 3.2 3.6 3.4 4.1 4 3.6 3.2 3.2 3.2 3.2 3.4 3.1 3.2 3.2 3.2 3.1 3.1 3.3 3.2 3.2 3.1 3.3 3.5 3.7 3.1 3.4 3.9 3.7 3.1 3.4 3.6 3.4 3.1 3.2 4.5 3.3 3.1 3.1 3.3 3.2 3.3 3.2 3.1 3.7 3.8 3.6 3.4 3.5 3.6 3.2 3.7 3.7 4.2 9.7 9.5 3.5 3.6 3.2 3.2 3.2 3.2 3.2 3.9 3.8 3.7 3.9 3.9 3.4 3.4 3.8 3.4 3.5 3.4 3.9 4.4 3.6 4.7 3.3 4.7 3.3 3.3 3.5 3.7 3.2 3.5 3.2
132.9 129 129.1 130.3 131.2 131.6 132.7 133.5 133.5 133.7 133.3 133.3 133.2 133.6 134.6 135.5 136.6 137.2 138.5 140.2 142.2 143.4 143.8 144 142.9 141.5 139.6 137.5 135.5 133.4 130.3 126.7 122.8 119.4 114.5 109 105.9 102.1 100.2 96.6 94 90.1 84.1 81.8 75.4 62.4 69.2 71.7 73.1 77.8 79.5 82.7 83.7 88.4 91.5 94.9 99 100.3 98.6 100.6 102.7 105.7 108.5 111.4 113.7 119.1 120.9 120.6 121.6 121.5 119.3 116.7 114.1 115.9 118.6 119.1 119.2 119.1 113.9 107.5 93.1 62.1 33.6 32.7 53.9 78.6 97.5 104.6 109.4 112.4 114.4 114.4 110.7 103.3 92.1 75 57.5 31.6 37.9 40.4 33.6 31.4 24.8 19.1 16.7 14 12 8.3 6.4 4.7 4 3.5 3.2 3.2 3.2 3.3 3.4 3.8 3.6 3.2 3.1 3.1 3.1 3.1 3.4 3.2 3.2 3.2 3.1 3.1 3.1 3.3 3.4 3.3 3.3 3.3 3.4 3.6 3.2 3.8 4.3 3.5 3.2 3.3 3.4 3.2 3.1 3.6 3.6 4.8 3.1 3.1 3.4 3.6 4 3.6 3.3 3.7 3.8 3.6 3.5 3.4 3.7 3.2 3.5 3.3 3.6 3.6 3.1 3.2 3.2 3.3 3.5 3.2 3.2 3.3 3.5 3.4 3.3 4 3.9 3.5 3.4 3.3 3.9 3.9 3.6 4 3.6 4.2 3.6 4.3 5 3.5 3.7 3.6 3.7 3.2 3.2 3.6
130.7 125.8 126.1 127.5 127.3 129.6 131.5 132.3 132.2 131.6 131.3 131.9 132.8 133.5 134.5 135.3 136.3 136.6 138.9 140.7 142.5 144.1 144.7 144.1 142.8 140.9 139.5 137.8 135.8 133 130.7 129.4 125.8 121.6 119.1 114.7 111.3 106.4 103.2 100.8 96.8 92.1 87.9 86.5 83.7 76.6 61.6 64.9 79.2 80.6 84.5 87.5 90 90.1 93 94.9 97 100.1 97.6 98.1 101.2 104 105.8 107.5 109.2 110.5 112.8 115.6 116.1 115.3 114.6 112.1 109.6 110.9 113.1 114.8 115.7 116.2 111.1 105.4 93 63.5 37.4 24.3 41.7 66.1 88.8 100 105.3 109.4 109.8 108 102 92.4 74.7 55.8 33.6 23.4 18.7 19.2 17 14.5 12.9 10.5 9 6.4 5.5 3.8 3.5 3.2 3.2 3.2 3.2 3.2 3.2 3.2 3.8 3.3 3.3 3.3 3.6 3.1 3.1 3.2 3.1 3.1 3.1 3.1 3.1 3.1 3.1 3.3 3.5 3.5 3.1 3.4 3.6 3.7 3.7 3.3 4.7 3.3 3.3 3.1 3.2 3.1 3.1 3.1 3.3 3.9 3.1 3.5 3.2 3.3 3.5 3.5 3.4 3.6 3.7 3.5 3.5 3.3 3.3 3.8 3.7 3.6 3.7 3.9 3.2 3.3 3.4 3.5 3.6 3.6 3.3 3.8 4.2 3.8 3.4 3.4 3.3 3.4 3.6 3.9 3.2 3.6 4 3.9 3.8 4.8 4.1 4.1 4.5 3.9 3.9 4.3 4.2 3.2 3.8 3.6
128.7 123.2 123.4 124.2 124.6 127.9 129.9 130.7 130.8 129.6 129.3 129.8 132.5 134 135.6 136.2 136.9 137.7 139.5 140.8 142.2 143.5 143.2 142.6 139.8 139.1 138.8 137.1 135.6 133.5 133.3 131.8 128.1 125.5 122.1 117.9 114.9 110.8 107.4 104.1 100.1 95.6 92.2 89.7 85.9 82.2 70.2 61.3 83.5 87.1 87.1 89.1 90.7 91.8 93.5 96.7 99.3 99.5 97.2 96 99.9 102.8 104.5 105 104.3 104.5 106.8 108.6 108.7 108.6 108.4 107.6 102.3 104.3 107.9 110.6 110.7 111 107.3 102.6 91.9 65.7 35.9 21 32.2 57.7 82 95 102.2 105.2 104 98.3 90.7 74.1 57.7 39.3 24.2 16.5 12 10.1 10 8.1 6.1 5.4 4.1 3.5 4.2 3.8 3.1 3.1 3.1 3.2 3.2 3.2 3.2 3.9 3.4 3.7 3.7 3.6 3.6 3.1 3.1 3.7 3.1 3.1 3.1 3.1 3.1 3.1 3.1 3.3 3.5 3.7 3.2 3.8 3.7 3.6 3.5 3.7 4.4 4.3 3.1 4.5 3.8 4 3.5 3.7 3.2 3.1 3.7 3.1 3.3 3.2 3.3 3.6 3.6 3.6 3.8 3.3 3.3 3.6 3.9 3.4 3.5 3.5 3.7 3.7 3.3 3.4 3.5 3.6 3.7 3.1 3.3 3.6 4.1 4.1 4 4 3.2 3.3 3.8 3.5 3.6 4.3 4 3.5 3.6 4 4.3 4.6 5.1 4.8 3.8 3.8 3.4 3.3 3.4 3.3
124.4 114.8 116.8 116.8 123.6 125.8 127.5 128.4 127.5 126.9 127.1 131.5 131.6 133.3 134.6 136 137.4 138.1 138.7 140.3 141.1 142.3 142.5 141.8 140.5 139.6 138.3 137.5 136.6 135.5 136.4 135.4 131.4 128.2 124.5 120.6 117.7 114 110.4 107 102.2 98.5 96.3 94.1 90.6 87.6 78.5 60.4 83.9 87.1 87.5 90.1 91 91.6 92.3 94.5 97.2 98.2 93.1 97.2 100.1 101.6 103.2 102.6 101.6 99.6 98.4 100.4 101.1 101.3 102.1 101.3 97 97.4 103.1 105.2 105.9 105.8 103.7 99.4 89.9 64.9 36.8 18 25.7 51.9 76.7 91.8 97.8 100.9 100.3 93 74.1 55.5 39.4 24.5 17.3 9.9 7.9 6.1 5.8 5 3.9 3.5 3.4 4.1 3.7 4 3.1 3.1 3.1 3.2 3.4 3.2 3.1 3.1 3.3 4 4.1 3.9 4.2 3.6 4.6 3.9 3.3 3.1 3.1 3.1 3.1 3.1 3.5 3.5 3.8 3.1 3.1 3.6 3.2 3.2 4.3 3.6 4 3.3 3.2 4 3.4 3.2 3.8 3.2 3.3 3.1 4.1 3.7 3.3 3.1 3.2 4.3 4.1 3.9 3.8 3.1 3.5 3.7 3.2 3.2 3.2 3.2 3.3 3.3 3.4 3.5 3.7 3.8 3.6 3.1 3.2 3.5 4 4 3.9 3.8 3.3 3.3 3.7 3.8 3.9 3.7 3.6 3.6 3.6 4.6 4.9 5.4 4.9 5.3 4.5 3.7 3.5 3.5 3.5 3.3
118.2 109.3 106.9 117.6 121.9 124.2 125.1 125 122 121.2 127.7 129.6 130.6 133.2 133.7 134.4 136.4 137.6 138.5 139 139.7 140.6 140.8 140.9 140.8 140.2 139 138.2 137.1 137.6 137.5 136.2 133.8 130.2 126.6 124 120.2 117 113.4 109.9 105.2 101.3 99.4 98.1 94.8 91.9 83.8 57 75.4 84.9 89 89.7 90.5 90.7 90.8 92.4 93.9 92.2 91 99 100 100.4 100.9 99.6 99.1 96.5 98 94.3 94.2 94.3 95.1 94.6 90 91 98.4 101 101.9 101.8 99.3 96.6 89.9 71.1 44.3 18.8 18.8 43.2 66.2 87 92.9 96.2 94.8 83 58.4 35.4 24.7 18 12 7.6 5.1 4.4 4.5 4.1 5 4 4 4.4 4.2 4.1 4.1 3.7 3.2 3.2 3.1 3.2 3.4 3.4 3.6 4.1 3.8 3.2 3.9 3.6 4.7 4.2 3.7 3.2 3.1 3.1 3.1 4.9 4.9 4.9 3.8 3.1 3.1 3.2 3.5 4.2 3.3 3.7 3.8 3.6 3.4 3.3 3.3 3.8 3.4 3.2 3.2 3.2 3.6 3.6 3.3 3.1 3.5 3.3 4 3.5 3.1 3.2 3.4 3.5 3.4 3.4 3.5 3.7 3.8 3.4 3.5 3.7 3.8 3.6 3.6 3.1 3.4 3.4 4 3.8 3.5 3.4 3.6 3.7 3.7 3.5 3.6 4.3 3.9 3.7 4.3 6.1 4.5 4.4 5 4.6 4.6 3.8 3.7 3.8 3.6 3.5
105.1 93.4 109.7 118 119.7 121.3 121.4 118.9 115.1 125.5 126.3 127.8 129.7 132 134.2 134.4 135.3 136.7 138.2 139.2 140 140.2 139.8 139.9 140.9 140.5 140.3 140.6 140.5 139.6 139.2 139 136.2 132.9 128.7 124.9 123.1 120.5 115.7 113.2 110.2 107.3 103.5 102.3 99.4 98.3 87.4 61.9 69.9 82.9 88.5 89.9 90.4 90 88 87.8 88 87.3 92.6 96 97.6 97.7 97.8 96.8 95.7 93.2 89.9 86.3 87.1 87.2 87.9 86 80.6 90.1 95.7 98 99.2 98.3 95.6 90.6 87.3 76.6 49.5 23.6 13 34.1 55.2 74.8 86 86.9 83.7 63.6 41 24 17.1 10 8 4.9 4.8 3.8 3.9 3.7 4.5 3.8 4.1 4.3 3.9 3.6 3.7 3.4 3.1 3.2 3.2 3.3 3.4 4.8 4.3 3.4 4.4 4 3.9 4.1 4.7 4 3.2 3.5 3.1 3.1 3.2 3.9 5 5 4.9 3.7 3.1 3.3 3.7 3.2 3.3 3.5 3.6 3.8 3.6 3.4 3.1 4.2 3.4 3.8 3.3 3.5 3.8 3.5 3.1 3.9 3.9 3.5 3.1 3.1 3.3 3.4 3.4 3.6 3.1 3.8 3.5 3.3 3.5 4.1 3.9 3.7 3.8 3.5 3.7 3.2 3.3 3.4 3.7 3.4 3.7 3.5 4 4 3.7 4 3.8 3.7 4 3.7 3.8 4.7 4.4 4.8 5 4.3 4.3 4.1 3.4 3.5 3.4 3.6
89.4 96.2 111.3 113.9 115.5 117.1 116.1 107.3 115.7 122 125.7 126.7 128.5 130.7 133.6 134.2 135.6 136.3 137.9 139.7 140 139.9 139.5 140.2 140.6 140.8 141.4 142.1 142.1 141.6 141 140.9 138 134.1 130 128.4 125.6 122.3 120.3 119.5 118.6 115.2 111.6 107.6 104.6 100.4 86.6 56.1 74.1 86.9 87.6 88.9 87.8 86.9 85.2 82.7 79.4 88 91.4 91.5 93.4 94.3 93.8 92.9 91.2 88.8 85.6 80.4 78.1 77.6 80.1 81.3 72.8 86.1 92.1 95.7 96.1 92.5 87.6 81 79 68.1 47.8 27.1 11.8 17.2 39.2 60.6 71.9 68.4 59.6 44.3 25.3 15.4 9.2 7.6 5.7 4.4 3.7 4.3 3.6 3.9 4.4 3.6 3.7 3.8 3.5 3.7 4.4 3.3 3.2 3.6 3.3 3.5 3.6 4.7 3.6 4.1 3.9 3.6 3.3 3.3 5 3.3 3.6 3.4 3.9 4.5 5 4.8 4.7 4.5 4.7 3.6 3.1 3.1 3.8 3.9 3.3 4.2 4 3.7 3.7 3.4 3.1 3.6 3.6 3.6 3.3 3.6 3.4 3.1 3.7 3.8 3.6 3.6 3.2 3.2 3.2 3.6 3.6 3.7 3.7 3.7 3.3 3.9 4 4.1 3.5 3.7 3.6 3.6 3.5 3.7 3.5 3.7 4.3 4.8 3.6 4.5 4.3 4.2 3.6 4.4 3.9 3.8 4.2 4 3.7 4.7 3.9 4.6 4.9 4.1 3.8 4.2 3.1 4 4.1 4.4
87.5 99.8 106.2 109.2 109.6 111.3 102.8 108.1 114.6 119 121.7 124.4 127.4 130.2 132.9 134 134.5 136.1 137.4 138.1 138.7 138.6 139.8 140.3 140.8 141.2 141.7 142.2 143.2 142.5 142.1 141.7 139.1 135.6 133.3 130.7 128.1 124.4 124.2 124.7 123.2 123.7 119.2 111.4 107.5 102.2 93.9 64.1 57 77.4 86.1 88.3 87.1 83.9 80.8 77.7 78.3 85.6 89.3 90.1 89.6 90.3 89.3 87.7 86.4 84 80.8 76.2 71 69.1 74.4 75.3 56.1 77.4 85.9 89.9 88 81.7 72.4 68.1 62.5 48.9 31.3 21.1 19.5 6.6 19.5 42.5 50 46.4 40 26.3 13.7 8.2 6.5 4.7 4.4 3.8 3.9 4.4 4.2 4.8 3.7 4.2 4.6 3.8 3.9 4 4.5 4.2 3.9 3.5 3.1 4 4.1 3.5 4.6 5.2 6.2 3.3 3.5 3.3 4.4 4 3.2 3.9 3.9 4.3 4.6 4.2 4.2 4.4 3.9 4.1 3.1 3.1 3.9 3.4 3.9 4.1 3.9 3.5 3.7 3.5 3.2 3.5 3.4 3.2 3.5 3.4 3.3 3.5 4.3 3.8 3.6 4 3.7 3.5 3.2 3.4 3.5 3.8 3.9 3.9 3.4 3.5 3.4 4.1 3.5 3.6 3.8 4.1 4 5 3.9 4.5 3.9 4.1 3.6 3.5 3.8 4.1 3.9 4 4.1 4.4 3.9 3.9 4.6 4.4 4.3 4.2 4.4 3.8 4.3 3.8 3.7 4.2 3.8 4.1
80.6 84.3 89.9 94.8 101.8 105.8 95.9 106.4 110.1 112.5 117.7 121.2 126.2 128.3 131.1 132 134.1 135.8 136.9 137.9 138.3 138.9 139.8 140.3 141.2 141.4 141.8 142.3 142.2 142.6 142 140.4 138.7 137.1 136.1 133.1 130.6 129.9 127.6 128.4 127.7 126 122.6 117 110.9 104.7 98.8 81 54.1 53.3 77.5 84.4 83.7 80.8 75.3 69.5 77.5 84 87.7 88.5 87.2 84.1 84.7 80.5 80 78.6 75.8 72 66.5 60.6 66.7 66.5 43.6 61.5 79.1 79.5 65.3 50.4 46.5 44.4 39.2 27.8 16.5 7.5 5.6 6.7 14 25.1 28.9 27 21.2 10.9 7.1 5.6 3.6 4.1 4.6 3.9 4.2 3.9 4.2 4.3 3.9 4.1 5 4 4.2 4.6 5.2 5.1 4.4 3.5 3.2 3.3 4 4 4.3 4.2 5.7 3.5 3.6 3.4 3.7 3.6 3.3 3.6 3.5 3.5 4.6 3.9 3.4 3.9 3.9 3.7 3.1 3.1 3.1 3.5 3.6 3.8 4 3.5 3.7 3.5 3.7 3.2 3.1 3.1 3.4 3.9 4.2 4 3.8 3.8 3.9 4.1 4 3.8 3.6 3.4 4.1 3.7 3.3 3.7 3.9 3.4 4.2 3.6 4.1 4.3 4.1 3.6 4.5 4.4 4.8 4.3 4.2 3.7 3.6 3.8 3.8 3.9 4.1 3.8 3.7 3.6 3.8 4 4.3 3.6 3.9 4.2 3.9 4.1 4.6 3.9 3.6 4.3 4.4 4
69.7 75.7 77.9 81.3 84 86.4 93.1 100.7 105.6 109.5 114.1 119.8 123.8 126.8 130 132.5 134.6 135.8 136.9 138.1 138.8 139.7 140.3 140.6 141.3 141.7 141.9 142.4 142.6 142.3 140.6 139.8 139.8 138.3 137.4 135.1 132.2 130.6 131.5 133.4 131.2 129.9 126.6 119.5 114.2 107.9 99.8 91.7 69.7 43.3 58.1 82.3 80.6 77.7 69.1 68.8 79.3 83.6 86.6 86.7 85.5 84 77.8 70.3 72.1 71.6 70.4 66.7 62.3 46.2 56.1 49.9 29.6 48.6 68.9 54.3 42.7 33.6 26.6 26.4 19.5 12.9 6.4 5.3 5.5 5.7 7.9 11.7 11.7 10.9 8.5 5.1 3.9 3.6 3.5 3.7 3.9 4.1 4 4 4.8 3.9 3.8 4 4.5 5.5 4.9 4.8 4.9 5.4 5.1 4.8 3.3 3.4 4.8 3.9 3.4 4.1 4.1 4.4 3.6 4.1 3.9 3.8 3.1 4.4 4.8 5.4 4.3 4.7 3.1 3.4 3.6 3.4 3.1 3.1 3.1 3.1 3.3 3.2 3.9 3.7 3.5 3.3 3.3 3.2 3.2 3.1 3.5 4 4.6 4.1 4.1 4.5 5 4.1 4 3.9 3.6 4.1 3.8 3.2 3.4 3.6 3.9 3.5 3.9 3.3 3.3 4 3.8 4.5 3.9 3.9 3.6 4 4.8 4.3 3.8 3.7 3.6 3.6 3.5 3.6 3.6 4.1 3.9 3.8 4.1 4.4 4.1 3.6 4.3 4.1 4 3.9 3.6 4.2 4 3.8
85.7 94.1 101.2 102.4 97.3 100 95.9 101.6 105.3 111 116.1 121 125.5 128.8 130.8 133 134.7 135.9 137 138.1 138.7 139.5 140.1 140.2 140.7 141.5 141.7 141.4 141.6 140.6 138.7 139.3 139.1 138.1 137.6 136 133.6 135.4 137.3 138.3 136.4 133.3 130.3 124.1 117.8 110.3 101.2 94.1 79.5 56.8 40.1 58.2 76.7 63.7 62.7 73.2 80.3 83.4 85.8 86.1 84.5 82.1 76.8 70.7 61.4 62 60.5 58.9 55.2 35.9 37 29 22 38.6 41 31.1 20.8 15.9 17.6 11.6 8.5 5.9 4.4 5.1 4.4 5.1 4.9 5.6 6.3 5.8 4.5 3.8 3.9 3.3 3.5 3.5 4.1 3.9 4.7 4.7 4.2 4.3 4.5 4.6 4.6 5 4.9 5.8 5.7 5.4 5.8 6.7 4 4.3 5.5 3.6 3.2 3.5 3.8 4.5 3.8 4.1 4.3 4.4 3.8 3.4 3.3 4.8 4.5 4 3.5 3.3 3.4 3.4 3.2 3.4 3.7 3.2 3.1 3.8 4.4 3.7 3.3 3.6 3.3 3.2 3.2 3.2 3.6 4.3 3.9 5 4.7 5.1 5.9 5.1 4.9 4.2 3.9 3.4 3.5 3.8 3.6 3.6 3.6 3.7 3.7 3.3 3.7 4.3 4.3 4.5 4.2 4.2 4 4.1 4.1 4.4 4.1 3.9 3.8 3.8 3.7 3.6 3.8 4.1 4.3 3.9 3.8 4.4 4.1 3.8 3.8 3.9 4 4 3.8 4.2 3.9 3.6
99.5 104 106.8 108.2 110.7 110.1 109.5 108.9 109 111.6 118.6 123 126.8 129.9 132.5 134 134.7 136 137.1 138.1 138.5 138.5 139.9 139.9 140.4 141.3 141 140.6 140.1 139 138.6 138.5 138.4 138.5 137.8 136.6 136.9 137.8 137.7 138.9 138 136.1 132 127.4 120.4 112.3 104.3 96.7 85.9 70.3 50.9 38.6 50.1 47.6 71.7 78 81.1 83.5 85.5 85.5 84.7 83.5 78.8 64.1 60.2 49.8 47.1 47.4 38 31.4 18.6 14.9 14.3 16.9 17.1 15.3 12.3 8.9 7.5 6.4 5.2 5.8 4.9 4.6 4.3 4.7 5.4 4.2 4.2 4.9 3.6 3.4 3.4 3.8 4.5 3.8 4.6 4.5 4.2 4.8 5.5 4.9 5 5.1 5.1 5.1 5 5.2 5.2 5.5 5.6 5.3 5.1 4.6 3.8 4.2 3.9 4.1 4.4 4.2 3.7 4.6 5.5 4.8 3.9 3.6 4.3 4.3 3.7 4.7 4.9 3.5 4.1 3.7 3.5 3.4 3.3 3.5 3.1 3.7 4.2 3.4 3.9 3.6 3.3 3.2 3.2 3.3 3.5 3.6 3.8 4.1 5.1 5.7 5.4 5.8 5.7 4.3 3.9 3.6 3.6 3.8 3.1 3.8 3.6 3.4 3.3 3.7 3.8 4.5 4.3 4.3 5 4 4.4 4.2 3.8 4.1 4.3 4.3 4 4 3.9 3.7 4.2 4.5 4.3 4 3.7 4.6 4.4 4.2 4.1 4.2 3.9 3.7 4 4.1 3.9 3.6
114.4 118.8 119.4 118.7 121.9 121.8 120.2 117.5 117.1 118.4 119.2 123.4 126.5 130.1 133.1 134.4 135.1 136.2 137.1 138 138.2 138.2 139.1 139.4 140.3 140.7 140.5 139.9 138.9 137.8 136.6 135.8 137.6 138.5 137.7 137.2 137.5 138.2 138.3 140.6 139.4 137.5 132.9 127.2 121.5 113.8 107.3 100.5 92.8 85.2 71.4 50.7 38.1 48.3 71.4 77.1 80.9 83.2 84.6 85.4 85.4 84.4 82 78.7 58.2 49.7 32.6 28.4 21.8 15.4 12 10.1 9.2 9.1 8.9 7.9 6.7 5.5 5.2 5.1 5.4 5.6 5.3 5 5 5 4.6 4.8 3.9 3.8 4.1 3.9 3.8 4 3.7 4.8 5.2 4.2 4.7 4.8 4.8 5.2 5.4 5.4 5.4 5.4 5.3 5.5 5.2 5.6 5.6 4.9 5.7 4.9 4.4 4.3 4 3.5 4.2 3.8 4.1 4.6 4.5 3.4 4.1 4.6 4.2 4 3.9 4.4 4.2 3.8 4.3 4.2 4 3.8 3.6 3.1 3.1 3.9 3.9 3.5 4 3.7 3.3 3.2 3.2 4 3.8 3.6 3.8 4.2 4.6 5.5 5.6 5.8 5.7 4.8 4 3.5 3.5 3.8 3.5 3.4 3.5 3.4 3.7 3.8 3.3 4.5 4.2 4.1 4.7 4.2 4 4 4.3 3.8 3.5 3.8 4.1 4.1 3.8 4.1 4.5 3.9 3.7 3.8 3.7 4 4.4 4.5 4 4.3 4.5 3.7 3.8 3.7 3.8 3.7
122.1 126.8 128.6 127.8 129.7 130.6 129.9 128.6 127.7 126.1 125 124.8 127.3 130.4 133.1 134.4 135 135.6 136 137.1 137.7 137.9 137.7 138.7 139.1 140 140.1 139.2 138 135.4 133.4 134 135.1 136.9 137.6 138.2 138.6 138.5 138.5 139.2 139.5 136.7 131.7 127 123.4 116.2 110.7 100.7 92.5 90.2 82.4 63.3 37.1 46.9 68.2 75.8 79.7 82.9 84.4 85.1 85.3 84.1 81.6 78.2 69.2 47.3 27.5 18.8 13.1 10.4 8.2 6.6 6.2 6.4 6 5.3 4.9 5.5 5.9 6 6.2 5.7 5.4 5.5 5.3 5.7 6.4 5.6 5 5.6 4.5 4.6 3.8 5.4 4.8 5.6 5 5.3 5 4.7 5.1 4.7 5.7 5.7 6 6.1 5.7 5.4 5.2 5.4 5.9 5.2 5.8 5 4.7 4.2 3.9 3.5 4 4.2 3.6 4.1 4.3 3.8 4.6 4.8 4.3 4.2 4 4.5 4.6 4.2 4.5 4.7 4.6 4.3 4.1 3.9 3.1 3.9 3.7 3.7 3.2 3.2 3.4 3.2 3.6 4 4.6 3.7 3.7 4.3 4 5.6 4.9 5.3 6.7 5 5.1 3.8 3.3 3.6 3.2 3.5 3.5 3.6 3.5 3.8 3.8 4.6 4.5 4 4.6 4.3 3.7 3.8 3.8 3.6 3.8 3.9 3.9 4 4 4.4 4.4 3.8 3.8 3.8 4 3.8 3.9 4.1 3.9 4 4.1 4.6 3.8 3.9 4.6 3.7
127.2 130.2 133.4 132.9 135.8 136.9 138.4 138.8 138.9 137.1 130 127.1 125.8 126.8 130.7 131.5 132.8 134.3 134.9 136.5 137 136.8 136.8 137.1 137.8 138.7 139.7 138.5 136.1 133.3 130.9 130.1 132.6 133.7 135.5 136.9 137.3 138.7 138.3 139.5 138.6 136.9 131.3 128.2 125.5 120.2 115 102.6 94.6 88.2 83.1 63.9 39.6 41.9 61.9 73 78.7 82.1 83.9 84.9 85 82.3 79.8 76 66.4 38.5 21.3 11.6 10 6.7 5.9 5.6 4.9 5.2 5 5 6.1 6.1 5.9 6.4 7.1 5.9 6.2 6.6 6.1 6 6.5 5.9 5.9 5.7 5.5 5.7 5.3 5.9 5.7 5.6 5.6 5.6 5.7 6.1 4.3 5 6 5.9 5.8 5.7 5.8 6.1 5.5 6 5.7 5.6 4.8 5.1 4.7 4.5 4.4 4.1 3.7 3.8 4.2 4.4 3.2 5 5 4.8 3.8 4.1 4.4 4.7 5 4.6 4.8 4.8 5.1 4.9 4.3 4.1 3.8 3.9 3.8 3.8 3.2 4.4 3.4 3.7 3.7 4.1 3.9 4.6 3.6 3.8 4 4.3 5.5 5.8 5.3 5.6 4.7 4.2 3.8 3.6 3.2 3.4 3.7 3.9 3.9 3.8 4.1 6.8 4.4 4 4 4.1 3.7 3.9 3.8 4 4.5 4.4 4.1 4.1 4.3 4.6 4.2 3.7 3.8 3.8 4 4.1 4.3 4.6 4.1 4 3.8 4.1 4 3.9 3.9 4
130.8 133.3 135.4 135.3 139.2 141.1 143 143.9 145.1 144.8 135.1 127.3 123.5 124.1 129.9 128.5 128.3 131.9 134.6 135.8 136.4 135.2 134 135.3 137.2 138.2 139.1 138.8 135.4 132.5 128.9 127.6 127.7 130.7 132.2 135.5 136.1 138.9 139.6 137.6 138.3 135.9 131.6 128.3 125.5 122.3 115.5 106.5 96.8 86.8 78.6 57.9 32.3 41.2 58 71.1 77.9 81.6 83.6 84.5 83.6 80.4 77.8 71.7 54.3 31.7 15.6 8.1 7.5 4.4 4.4 5.1 5.8 6.5 6.4 6.2 5.4 5.8 6.9 7.4 7 6.8 7.1 7.1 6.3 6.8 7.1 7.2 6.9 6.5 6.7 5.9 5.9 6.2 6.3 6.1 6.3 6.6 6.2 6 5 5.2 5.9 5.9 5.8 5.7 6 6.5 6.3 6.2 6 5.4 4.9 5.5 6.5 6.1 5.7 4.1 4.4 4.5 4.4 3.9 3.9 5.3 5.2 5 4.3 4.4 4.8 5.1 5.3 5 5 5 5.3 5.5 5.1 4.4 3.6 3.6 3.5 3.2 3.4 3.8 4.6 5.8 3.6 4.1 5 4.2 3.6 3.7 4.1 4.6 5.7 5.6 5.4 5.4 5.1 4.1 4 3.8 3.4 3.7 3.9 4.2 4.2 4.1 4.2 4.4 4.1 4.7 4.5 4.5 4.6 4.4 4.2 4 4.7 4.7 4.7 4.8 4.8 4.6 4.1 3.8 4.1 4.3 4.5 4.1 4.3 4.5 4.3 3.9 3.8 4.5 4.4 4.3 4 4.2
131.8 134.6 139.4 140.9 142.7 145.5 147 148.2 148.6 149.6 140.1 126.2 119.1 119.5 127.6 120.8 125.7 130.1 133.9 135.1 134.8 132.8 129.4 131.8 135.3 138.2 138.5 138.1 135 132.1 128.5 125.4 125.4 127.6 131.7 131.8 135.3 139.9 138.5 137.9 136.7 134.8 131.9 128.6 125.9 122.3 115.3 108.5 98.4 85.9 76.4 49.4 25.3 41.9 57.5 69.2 76.6 81.1 83.7 83.7 83.4 81 77.6 71.7 47.9 25.7 14.2 6.8 6.1 5.8 6.4 6.2 5.6 5.5 5.6 7 6.5 6.5 7.1 7.7 6.9 7.2 7.4 6.6 6.6 6.9 7.5 7.1 7.6 7.7 7.1 7.5 6.4 5.7 5.1 9.7 7 8.9 7.9 6.9 6.4 5.1 5.9 5.8 5.8 5.9 6.1 6.3 7.5 7.5 6.6 6 5.7 5.9 5.7 6 6.6 4.3 4.6 4.4 4.6 4.7 4.8 5.5 5.4 5.2 5 4.7 5.1 5.4 5.7 5.5 5.3 5.2 5.4 5 4.6 4.7 4.1 4.1 4.5 4.5 4.5 4 3.7 4.1 4.2 4.1 3.8 4.4 3.9 3.6 4.1 5.9 5.5 5.3 6.9 7.5 8.4 5.2 3.9 3.9 4.9 5 4.3 4.4 4.5 4.5 4.7 6 5 5.5 5.4 4.5 4.4 4.2 4.1 4 4.6 4.4 4.4 4.3 4.7 5.3 5.2 4.7 4.8 4.3 4.6 4.1 4.1 4.2 5.3 5 4.7 4.7 4.8 4.9 4.4 3.9
133.4 137.4 140.5 142 144.1 147.6 150 151 149.6 149.5 135.7 122.2 115.4 115.6 118.1 116.3 122.9 127.2 132.4 134.7 133.7 126 124.3 130.4 134.4 137.3 137.5 135.8 133.4 131.6 126.1 122.2 122.2 124.8 127.4 127.4 132.1 139.5 138.9 138.1 135.8 133.6 129.3 127.5 125.2 121.3 115.7 105.8 95.9 82.9 61.4 35.3 28.3 45.4 61.1 69 79.1 81.4 84.1 83.9 82.9 81.2 77.5 71.9 49 20.9 10.2 6.2 6.3 5.3 6.5 7.1 7.4 8.5 9.9 8.6 9.5 8.3 8.5 9 8.3 7.1 7.5 6.4 6.7 6.9 6.4 6.8 8.1 7.1 7.9 10.2 8.6 7.9 11.2 7.6 10.5 9.7 7.3 7.3 7.5 6.5 6.1 6.2 7.2 6.7 6.7 6.8 7 8.7 7.8 6.4 6.5 6.4 6.4 5.8 6.1 4.5 4.5 4.3 4.4 5 5 5.6 5.5 4.7 5.6 5.5 5.1 5.7 6 5.8 5.6 5.6 5.8 5 7.6 5.4 5.1 5 6 5.4 5.5 4.8 4.3 4 3.8 4.1 4.3 4.4 4.2 3.5 3.5 4.6 5.7 5.5 6.5 6.6 6.6 7.9 5.9 4.5 4.4 4.9 5 4.9 5 5.7 6.2 5.7 6.5 6.7 8.4 5.6 5.7 5.6 5.8 5.5 4.7 4.9 5 5.1 5 5.7 6.2 5.8 4.6 4.7 4.7 4.5 4.2 4.9 4.5 4.5 4.6 4.3 4.4 4.1 4.2 4
133.6 136.4 139.7 142.5 144.2 146.1 148.4 147.8 143.1 132.3 121 115 112 110.5 110.9 112.7 119.5 125.8 130.4 132.3 131.2 111.6 115.9 125.8 132.3 135.7 136.2 132.6 126.2 124.7 120.5 119.1 117.9 121.6 121.3 123.1 128.1 133.8 136 136.9 135.1 133.2 129.9 127.2 123.3 120 114.1 103.5 88.9 69.4 46.5 21.5 34.8 52.1 67.3 76.5 82.1 83.5 84.6 84.1 82.9 81.6 77.1 69.6 44.1 21.6 8.5 6.5 6.5 6.9 8.6 8.9 9.6 10.7 11.4 11.2 12.6 12.2 11.8 9.3 11.1 12.5 12.5 10.3 11.9 10.6 10.9 10.4 9 9.7 9.3 9.6 8 10.7 12.4 13.1 10.7 11.3 13.5 10.3 9.3 10.2 8 9.4 10.7 9.3 7 7 8.1 8.9 7.2 7 7.1 7.5 8.2 7.5 6.9 6 5.5 4.8 5.4 4.9 5.2 4.9 5.4 4.7 5.3 6.7 5.9 6.3 5.7 6.3 6.1 7 7 5.3 5.5 5.8 6.1 5.9 5.8 5 4.3 4 4.1 4.5 4 4 4 3.9 3.9 4.3 3.8 3.5 3.9 4.9 5.6 5.3 6.1 5.5 7.1 5.8 6 5.9 5.6 5.3 6 5.7 6 6 6.3 7 6.4 5.8 5.7 5.7 7 6.5 6.3 5.9 5.9 6 5.3 6 6.7 6.3 5.7 7.2 6.9 5.6 5.8 5.8 5.6 4.8 4.8 4.2 4.3 4.4 4.2 5
125.7 127.1 132 136.7 140.8 139.8 136.7 129.8 118.9 112 108.4 107.8 108.8 107.9 106.8 108.9 118.7 122 125.2 124.3 109.4 95.7 106.5 123.7 128.2 133.1 133.1 128.4 120.3 115.9 116.3 115 115.3 114.4 116.5 117.9 124 129.7 132.6 134.5 134.4 132.3 129.4 126 121 117.3 111.8 99.6 82.6 57.8 35.9 19.5 38.4 58.9 73.6 81.5 83.4 84.8 86.1 85.7 83.8 82 79.3 75.2 54.6 25.4 9.2 3.1 3.2 3.6 5.5 7.9 9.3 10.4 13 12.8 13 11.5 13.9 10 9.1 11.8 9.9 10.2 11 11.2 11.9 11.5 12.1 12.3 11.8 8.2 12 12.5 10 12.9 14.9 12.6 13.3 8.9 12.3 13 8.7 11.1 11.7 11.1 8.9 7.5 7.9 9.6 7.6 7.5 7.5 9.7 9.6 8.4 7.5 9.7 6.7 5 4.6 5.3 6.4 6.5 7.3 6.1 6.2 5.7 5.4 6.3 6.6 6.3 6.1 6.1 6.4 5.9 5.6 5.5 5.9 6.4 6.5 6.3 5.4 4.3 4.4 4.1 4.2 4.5 3.8 3.6 4.8 4.5 4.1 4.1 3.7 4.5 5 5 5 5 5.4 7.5 9.9 7.4 8 7.3 7.1 6.9 9.4 9 8.7 7.2 7 6.8 9.5 7.7 7.8 6.7 6.9 7.1 7.3 7.5 6.3 6.5 6.4 6.6 8.2 9.2 7.5 6.6 6.5 6.8 7 8.7 6.8 5.6 5.3 5.2 5.3 5.8
105.8 106 106.8 111.2 114.4 112.7 108 102.9 96.7 89.4 87.4 85.1 87.7 101.1 81.6 96.5 106 106.9 107.8 100.9 84.8 86.6 105.8 115 121.4 122.8 124 122.3 116.2 109.1 111.8 111.7 110.1 110 111.3 114.4 119.5 124.5 128.6 132.4 133.6 130.6 129.6 125.7 119.6 115.4 106.4 89.1 65.1 44.5 27.4 21 42.9 62.1 73.2 80.7 84.9 86.2 87.5 86.7 84.9 82.2 79.9 72.6 55.8 30.6 2.7 2 2 2 2.1 2.3 2.3 3 2.9 3.8 7 8.4 12.8 11.6 12.8 11.1 10.4 12.3 11.1 10 8.9 6.4 9.8 11.7 8.8 10.3 12.9 10.4 9.3 11.3 12.4 10.9 11.4 12.2 11.2 8.8 15.8 12.8 11.6 10 11.8 12.6 10.5 7 10.3 11.1 7.1 11.2 7.6 12.8 7 8.1 7 8.1 7.1 8.2 13.1 10.1 6.8 9.4 7.8 7.1 6.6 7.3 7.4 6.9 6.3 6.2 6.2 6.5 6.5 6.8 9.5 6.5 11.6 6.9 5.7 5.3 4.9 4 4.1 4.8 4.7 3.9 5 4.8 4.6 4.1 3.7 3.8 4 4.2 4.6 4.9 4.9 4.3 6.9 9 6.2 6.7 7.1 7.8 8.8 7.8 8.3 11.3 10.2 7.4 8.2 8 9.3 8.1 7.9 7.1 7.2 8.1 6.6 7.1 6.5 6.6 8.9 8.4 8.1 8.3 8.6 7.3 6.7 7.9 9.2 7.4 8.8 7.8 5.6 5.3
83.5 83 85.7 88 90.8 89.9 85.2 79 72.2 58.1 59.9 63.5 72.2 69.5 60.2 78 89.6 92.2 87 82 72.2 83.7 96.3 101.4 106.5 110.6 112 113.4 111.9 104 105.7 106 105.5 106.5 107.9 111.5 116.3 124.1 127.9 129.4 131.9 130.7 129 126.3 118.4 110.5 95.7 76.2 53.7 27.8 19.6 23.4 46.3 58 70.2 80.8 88.5 89.5 89.4 87.7 86.1 83.7 77.8 50.6 21 2 6.3 1.9 1.8 1.8 1.7 1.7 1.8 1.9 2 2.2 2.6 3.4 2.8 3.2 3.6 5 6.7 8.8 9.6 10.3 9.8 9.3 9.3 9.8 9.7 10.3 11.4 11 9.3 8.7 9.7 13.7 16.8 16.2 11.4 14.4 13.7 8.8 9.7 11.8 7.4 13.8 11.9 11.2 12.5 11.5 6.5 15.4 11.6 11.9 14.9 10.9 6.3 8.9 5.7 13.2 12.1 9.7 9.1 9.9 10.9 8.9 8.7 7.5 6 7 6.4 6.3 6.3 6.5 6.8 6.2 5.8 5.9 8.9 8.2 5.7 5.7 5.4 5 4.7 4.9 4.8 4.9 5 4.9 4.8 4.8 4.4 4 4.2 4.4 4.6 4.8 4.8 4.5 4.8 6 12.9 7.9 6.8 7.3 9 7.9 7.4 9.8 8.7 10.2 12 7.2 7.4 9.5 6.8 6.8 9.6 9.3 9.3 10.6 7.6 9.4 8.7 7.8 7.5 8.9 9 8.9 8.1 11.8 10.2 9.4 8.1 7.3 7.4 7.5
63.9 63.6 69.3 70.9 69.6 65.9 56.8 51.6 44.4 46.3 45.6 49.4 51.5 51.6 52.6 57.7 65.8 71.6 69 61.9 61.5 73.2 79.6 86.2 94.1 101.2 103.6 101.7 102.9 96.5 99 99.1 100.7 102.9 105.3 111.6 113.6 121.4 124.3 127.2 129.9 129 127.2 125 116.6 103.5 82.1 63.9 44.4 22.9 16.1 21.3 39.5 49.7 76.3 85.5 94.7 95 88.4 85.5 86.8 76.5 51.8 2 1.6 1.6 1.5 1.5 1.4 1.3 1.3 1.3 1.4 1.5 1.6 1.7 1.7 1.8 1.9 2 2.2 2.4 3.3 2.8 3.3 3.3 3.6 3.8 5.3 9 10 10.6 9.1 9.4 9.8 11.2 12.4 11.7 11.9 14.7 13 10.8 8.7 8.1 10.2 9.4 8.4 10.3 11.2 11.5 12.6 7.6 7.8 14.9 9.2 14.7 11.7 6.7 13.3 16.4 13.1 6.9 12.8 12.7 13.9 11.1 12.3 10.8 11.8 6.6 6.6 6.8 6.4 6.4 6.3 6.4 10.1 6.2 6.1 5.9 6.7 5.9 5.7 6.1 5.8 5.5 4.8 4.8 4.7 5.4 4.9 5 5 4.7 4.7 4.2 4.3 4.6 4.8 4.7 4.7 4.7 4.4 4.6 5.7 6.1 7 7.1 6.6 6.9 7.8 7.6 8 7.1 7.9 7.5 7 7.3 9.3 7.3 8.7 11.8 8.2 11.3 9.6 7.6 10.7 7.4 8.5 8 7.5 10.9 10 7.2 7.9 11.7 15.4 9.4 10.5 8.8
48.9 44.8 47.9 45.2 41.7 40.3 34.4 32.9 33.4 34.5 37.1 38.6 40.1 38 44.5 50.5 51.1 51.9 50.3 48.7 50.4 59.5 68.1 74.6 81.3 87.2 90 89.2 87.7 89.6 90.5 91.3 93.1 95.7 102.5 107.9 110.7 116 119.8 125.2 126.5 128.8 127.3 123.9 110.1 90.4 69.4 49 34.9 19.5 12.8 21.7 33.4 49.3 69.4 87.8 97.8 94.4 82.1 75.9 63.8 50.2 1.9 1.5 1.1 1 1 1 1 0.9 0.8 0.9 1 1.1 1.2 1.2 1.3 1.4 1.5 1.6 1.6 1.7 1.8 1.9 1.9 2.1 2.3 2.4 2.6 3.5 3.8 3.9 4.6 7.7 9 10.2 11.1 10.4 10.5 10.6 11.4 11.7 12.8 11.5 9.8 13.3 12 9.5 10.3 9.8 8.6 10.4 13.8 12.1 8.9 7.4 17.5 8.2 14.3 14.6 13.3 17.4 14.4 13.4 14.5 9.6 7.7 6.2 11.6 8.1 5.5 6.6 5.7 6.9 9 6.5 6.1 6.3 6.3 5.7 6.5 5.7 6.1 6.3 5.8 5.4 5.1 4.5 4.6 5.4 4.8 5.2 4.8 4.6 4.6 4.5 4.5 4.8 4.8 4.4 4.4 4.5 3.7 4 5.5 5.7 6.2 5.8 6.5 7.8 7.2 7 6.2 6.6 6.5 7.4 7.9 8.4 7.8 13.2 12.7 7.5 14.7 14.1 12 8.5 21.1 7.8 10.2 11.2 12.8 9.4 6.8 8.7 11.8 8.6 13.2 8 11.5 10.1
35 30.3 28.3 27.7 26.8 26.4 27.1 26.1 25.5 26 27.3 29 30.3 28.7 34.7 36.2 39.5 38.8 39.8 40.5 43 50.7 58.8 63.1 69.1 72.8 74.8 77.1 75.2 79.1 80.9 83.9 86.7 87.9 98.2 103 107.8 111.8 116.8 120.8 123.6 125.9 125 121 101 77.8 54.8 34.9 24.5 13.2 9.6 21.6 30.8 50.1 70.7 87.2 98.9 91.4 76 62.1 11.3 1.8 1.4 1 0.7 0.5 0.5 0.6 0.5 0.4 0.4 0.5 0.6 0.7 0.7 0.8 0.9 1 1.1 1.1 1.2 1.3 1.4 1.4 1.5 1.6 1.7 1.7 1.8 1.9 2 2.2 2.6 2.8 3.1 3.5 3.5 7.2 9.8 10.3 10.3 10 11 11.2 9.7 9.5 9.5 9.4 11 12.5 9.6 12.6 12.5 11.6 11.3 9.7 9.4 11.6 9.9 11.5 9.8 15.1 11.5 12.8 15.6 11 10.2 14.7 11.7 17.3 13.6 14.3 9.6 11 5.4 7 6.3 6.6 11.9 5.2 6.1 6.1 6.2 6.2 5.9 5.5 5 5.2 5.1 5.3 4.9 4.8 4.6 4.6 4.7 4.7 4.7 4.8 4.3 4 4 3.9 3.7 4.6 5.2 6 6 6 6.2 6.6 7.1 6.6 7.4 9.1 8.7 5.9 6.2 11.5 6.4 14.3 11.4 10.6 10.8 9.9 12.7 7.9 11.3 10.2 17 10.3 10.6 8.7 9 14.8 11.5 15.1 12.2 10.1 13.8 10.2
21.6 20.3 17.9 19.2 17.9 18.6 19.2 17.1 15.9 17.5 18.7 19.8 20.7 21 24.2 28.8 27.2 29.3 30.8 32.4 34.6 43.5 50.6 54.4 59.4 61.9 64.3 66.2 65.3 66.3 67.1 71.9 77.8 83.2 91 96.9 101.2 107.7 112.6 114.7 117 119.1 120.5 111.7 91.6 64.3 37.1 9.8 7.3 7.6 9.2 14.2 24.9 42.1 64.4 79.1 92.1 88.8 66.5 35.6 1.7 1.1 0.9 0.5 0.2 0 0 0.1 0.1 0 0 0.1 0.2 0.2 0.3 0.4 0.5 0.6 0.6 0.7 0.8 0.9 1 1 1.1 1.2 1.2 1.3 1.4 1.5 1.6 1.6 1.7 1.8 1.9 1.9 2.1 2.5 2.9 3.1 3.1 4.2 4.5 7.2 8.4 10.8 10.4 8.9 10.8 11.1 10.9 10.1 10.9 9 10.8 12.2 11.7 12.6 11.5 10.9 11.2 10.7 9.7 11.1 12.1 12.5 13 11.5 14.1 14.1 12.3 11.9 7.3 7.4 6 5.8 10.1 9.2 12.3 5.7 6 6.1 6.1 6.2 6.1 5.6 5.1 4.7 4.8 4.9 5.6 5.4 5.2 5.4 5.2 5 4.8 4.5 4 3.8 3.9 4.4 4.3 5.7 5.9 6 6 6 6 6.3 6.2 6.9 7.1 8.5 8.5 9.3 8.5 6.7 11.9 10.1 8 7.1 7.1 7 12.9 11.4 7.3 14.2 8.4 18.8 10.9 6.7 9.4 11.7 15.4 19.8 18.1 19.3 21.1 15
1.9 1.9 2.5 3.8 5.4 11.3 11 11.9 11.5 13.1 13.8 14.2 15.2 15.1 15.7 17.8 19.2 21.4 21.8 23.7 27.2 33 39.3 46.2 50.6 53.6 57.1 58.3 56.3 56.3 59.3 62.1 69 72.1 83.6 90 90.4 97 102.8 106.8 109 112.8 114.3 102.8 80.6 55.1 26.6 6.1 7.1 7.7 7.9 7.7 15.3 33.9 53.8 71.1 86 74.7 48.7 1.7 0.9 0.4 0.1 0.1 -0.3 -0.5 -0.5 -0.4 -0.4 -0.4 -0.4 -0.3 -0.3 -0.2 -0.1 0 0.1 0.2 0.2 0.3 0.4 0.5 0.5 0.6 0.7 0.8 0.8 0.9 1 1.1 1.1 1.2 1.3 1.4 1.4 1.5 1.6 1.7 1.8 1.8 1.9 2.2 2.4 3 3.4 3.3 3.8 4.6 6.5 10.6 11.6 11.3 11 10.3 10 10.1 8.5 9.6 9.6 10.9 11.5 9.5 10.6 8.8 14.1 11.7 10.7 8.1 7.7 5.7 7.9 8.5 9 7.4 7.3 9.2 9.2 5.7 5.6 6 6.3 6 6.1 6.2 6.2 5.7 5.3 4.9 5.8 4.6 5.2 5.2 5.8 5.1 5.5 5.3 5.1 4.7 4.6 4.5 4.5 5.4 6.1 6 6 6 6 6 6 6 6 6.2 5.8 5.1 6.8 6.9 7.4 7 8.3 6.7 8.7 8.6 6.4 6.6 7.4 6.9 8.1 7.9 7.4 15.8 6.9 6.7 6.7 8.9 8.6 13 15.1 13.8 17.2 17.6
1.1 1.2 1.3 1.4 1.5 1.6 1.7 1.8 1.9 3 5 7 10.1 10.3 11.5 12.2 12.7 14.4 15 15 19.6 25.2 28.7 33.4 38.4 42.7 46.8 47.8 46 46.5 50.6 54.9 59.5 65.7 71.9 79.3 82.4 88.9 93.8 97.4 100.2 104 106.8 95.5 71.9 45.5 15.4 1.6 1.9 1.8 1.9 2.3 3.5 5.6 33.3 65.8 71.8 51.4 1.6 0.7 0.1 -0.3 -0.7 -0.6 -0.8 -1 -1 -0.9 -0.8 -0.9 -0.8 -0.7 -0.7 -0.6 -0.5 -0.4 -0.3 -0.3 -0.2 -0.1 0 0.1 0.1 0.2 0.3 0.3 0.4 0.5 0.6 0.6 0.7 0.8 0.9 0.9 1 1.1 1.2 1.2 1.3 1.4 1.5 1.6 1.7 1.8 1.9 2 2.2 2.4 3 3.6 3.9 3.9 5.5 9.1 10.7 11 10.4 9.9 8.6 8.7 11 8.3 8.7 8.3 9 9.9 8.2 10.8 10.4 12.2 11.9 9.3 9.9 12.3 11 8.4 6.2 5.7 6.5 6.7 6.9 5.9 5.9 6 6.3 6.2 6.1 5.8 5.2 5.2 5.4 5.7 5.9 5.1 5.5 5.7 5.4 4.8 5 6.2 4.5 6 5.8 5.9 5.9 5.9 6.1 6 6 6 6 6 6 5.6 5.7 5.8 6 5.9 6.7 7.4 8.8 7.9 6.5 6.9 6.5 5.9 6.8 7.7 12.5 7.2 7.2 11.2 6 5.6 6.4 12.7 6 11.8 10.3 14.9
0.4 0.4 0.5 0.6 0.7 0.8 0.9 1 1.1 1.3 1.4 1.5 1.7 1.8 1.9 2.9 4.4 7.4 7.9 9.2 10.9 14.4 19 23.3 27.2 31.1 35.2 37.2 37.9 38.3 41.3 46.1 51.6 58.2 63.2 66.5 72.4 78.6 85 88.4 91.2 95.4 97.1 78.2 57.7 30 4.6 1.5 1.1 0.8 0.8 0.9 1 2 37 66.2 51.9 1.7 0.4 -0.5 -0.9 -1.2 -1.4 -1.4 -1.3 -1.5 -1.5 -1.4 -1.3 -1.3 -1.2 -1.2 -1.1 -1 -0.9 -0.8 -0.7 -0.7 -0.6 -0.5 -0.4 -0.4 -0.3 -0.2 -0.1 -0.1 0 0.1 0.1 0.2 0.3 0.4 0.4 0.5 0.6 0.7 0.7 0.8 0.9 1 1.1 1.2 1.3 1.4 1.4 1.5 1.6 1.7 1.8 1.9 1.9 2.1 2.7 2.9 3.1 3.8 4.9 6.8 9.4 10.9 12 9.8 7.3 6.8 7.3 8.5 8.4 8 9.8 7.9 7.3 6.6 7.6 9.1 9.9 10.1 10.2 12.2 9.9 8.4 13.4 6.5 5.8 5.8 6 6.1 6.4 5.4 5.3 5.3 5.7 5.3 4.9 5.2 4.9 5 4.8 4.7 4.7 4.8 6 5.9 6.2 7.1 6.7 6.1 6.3 6 6 6 6 6 5.8 6.7 6.2 6 6.4 5.7 5.5 6 7 6.9 6.5 6.3 6.4 6.1 6.4 6.9 7.3 6.5 6.3 6.6 8.2 9.4 12.5 7.1 8.1 8.5 7 10.9
-0.4 -0.3 -0.2 -0.1 0 0.1 0.2 0.3 0.4 0.5 0.6 0.7 0.9 1 1.1 1.2 1.4 1.5 1.6 1.8 1.9 3.4 7.2 9.4 13.1 18.9 23.4 26.6 26.9 28.7 30.6 36.8 44.7 47.9 52.5 56.7 62 68 74.9 81.2 82.7 87.8 87.3 63.7 43.9 13 1.7 0.8 0.2 -0.1 -0.3 -0.4 -0.1 1.2 26.4 36.4 1.8 0.2 -0.8 -2.2 -2.2 -2.2 -2.2 -2.2 -2.2 -2.2 -1.9 -1.8 -1.8 -1.7 -1.7 -1.6 -1.5 -1.4 -1.3 -1.2 -1.2 -1.1 -1 -0.9 -0.8 -0.8 -0.7 -0.6 -0.6 -0.5 -0.4 -0.4 -0.3 -0.2 -0.1 -0.1 0 0.1 0.2 0.2 0.3 0.4 0.5 0.6 0.7 0.7 0.8 0.9 1 1.1 1.2 1.3 1.4 1.5 1.5 1.6 1.7 1.8 1.9 2 2.3 2.6 2.9 3.4 4 5.8 8.8 10 11.1 9.2 9.6 8.8 7.4 6.6 7.3 6.8 6.1 8.3 7.2 8.6 9.4 7.6 5.5 5.1 5 5.4 5.9 12.1 10.2 10.7 6.9 8.5 7.4 7.3 5.4 5.2 5 5.3 5.5 5 5.6 6.1 5.6 7.2 6.3 5.8 6 6 6.1 6.2 5.9 6 6.1 6.3 5.8 6.4 5.8 6.2 6.3 6.2 6.1 6.3 5.7 6.2 6.8 7.2 6.7 6.5 5.9 5.4 5.2 5.8 6.7 6.2 5.7 6.2 6.6 7.9 8.1 7.6 8.3 7.5 7.5 7.7
-1.1 -1.1 -1 -0.9 -0.8 -0.7 -0.6 -0.5 -0.4 -0.3 -0.1 0 0.1 0.2 0.3 0.4 0.6 0.7 0.8 1 1.1 1.2 1.4 1.6 1.8 1.9 6.8 13 18.2 21.2 24.4 26 28.9 34.3 38.6 44.2 52.3 58.1 62.4 68 72.9 78 71.3 50 28.4 2.9 0.5 -0.2 -0.7 -1.1 -1.4 -2.2 -2.2 -2.2 -2.2 -2.2 -2.2 -2.2 -2.2 -2.2 -2.2 -2.2 -2.2 -2.2 -2.2 -2.2 -2.2 -2.2 -2.2 -2.2 -2.1 -2 -1.9 -1.8 -1.7 -1.6 -1.6 -1.5 -1.4 -1.3 -1.3 -1.2 -1.1 -1.1 -1 -0.9 -0.8 -0.8 -0.7 -0.6 -0.6 -0.5 -0.4 -0.3 -0.3 -0.2 -0.1 0 0.1 0.1 0.2 0.3 0.4 0.5 0.6 0.7 0.8 0.9 1 1.1 1.1 1.2 1.3 1.4 1.5 1.6 1.7 1.7 1.8 1.9 2.1 2.4 3.1 5.4 4.4 5.2 8.4 7.5 9.6 10.3 10 9.9 10.5 8.4 6.4 6.6 7.3 8.8 8.9 7.4 6.9 5.6 6.7 5.2 5.1 5 6.1 5.7 6.7 9 8.5 8.5 10.1 11.5 7.2 5.6 6.4 8.8 6 7.7 5.2 5.6 5.8 5.8 5.8 5.8 6.1 6 5.7 5.9 6.4 5.8 6.2 6.1 6.4 6.3 7.5 7 6 6.1 6.6 7 6.6 6.4 6.2 6 5.8 4.8 6.1 5.2 5.3 6.1 6.3 6.5 6.6 6.8 7.1 6.8 6.9 7.8
-2.2 -1.8 -1.7 -1.6 -1.5 -1.5 -1.4 -1.3 -1.1 -1 -0.9 -0.8 -0.7 -0.6 -0.5 -0.4 -0.3 -0.1 0 0.1 0.3 0.4 0.6 0.8 0.9 1.1 1.3 1.5 1.8 4.9 10.9 19.2 24.1 24.5 27.5 32 39.8 47 52.4 54.6 61.1 68.3 52.5 34.1 3.5 0.5 -0.9 -2.2 -2.2 -2.2 -2.2 -2.2 -2.2 -2.2 -2.2 -2.2 -2.2 -2.2 -2.2 -2.2 -2.2 -2.2 -2.2 -2.2 -2.2 -2.2 -2.2 -2.2 -2.2 -2.2 -2.2 -2.2 -2.2 -2.2 -2.2 -2.1 -2 -1.9 -1.8 -1.7 -1.7 -1.6 -1.5 -1.5 -1.4 -1.3 -1.3 -1.2 -1.1 -1.1 -1 -0.9 -0.8 -0.8 -0.7 -0.6 -0.5 -0.5 -0.4 -0.3 -0.2 -0.1 0 0.1 0.2 0.3 0.4 0.5 0.6 0.7 0.8 0.8 0.9 1 1.1 1.2 1.3 1.4 1.5 1.5 1.6 1.7 1.8 1.9 2 2.3 3.6 3.4 4.5 5.3 7.6 7.6 7.9 8.7 10.4 9.4 10 9.5 9.5 8 7.8 7.7 8.8 8.7 6.7 6.6 5.8 5.9 6.1 6.3 5.6 5.7 5.5 4.7 4.8 4.9 4.8 5.9 5.2 5.9 5.9 6.4 6.4 6.1 6.1 6.1 6.1 6 5.8 5.9 6.1 6 5.8 5.9 6 7.2 8.4 6.5 6.3 6.1 6.4 6.8 6.5 6.3 6.1 5.9 5.5 4.7 5.3 4.8 5.1 5.8 5.7 5.8 6 6.3 6.8 6.5 6.9 7.7
-2.2 -2.2 -2.2 -2.2 -2.2 -2.2 -2.2 -2.2 -2.2 -1.8 -1.7 -1.6 -1.5 -1.4 -1.3 -1.2 -1.1 -1 -0.8 -0.7 -0.6 -0.4 -0.3 -0.1 0.1 0.3 0.5 0.7 1 1.3 1.6 1.9 2 7.1 19.2 24.2 31.4 37.7 41.3 44.5 50.6 57 38.9 7.1 1.2 -2.2 -2.2 -2.2 -2.2 -2.2 -2.2 -2.2 -2.2 -2.2 -2.2 -2.2 -2.2 -2.2 -2.2 -2.2 -2.2 -2.2 -2.2 -2.2 -2.2 -2.2 -2.2 -2.2 -2.2 -2.2 -2.2 -2.2 -2.2 -2.2 -2.2 -2.2 -2.2 -2.2 -2.2 -2.2 -2.2 -2.2 -2 -1.9 -1.8 -1.8 -1.7 -1.6 -1.6 -1.5 -1.4 -1.3 -1.3 -1.2 -1.1 -1 -1 -0.9 -0.8 -0.7 -0.6 -0.5 -0.4 -0.3 -0.2 -0.1 0 0.1 0.2 0.3 0.4 0.4 0.5 0.6 0.7 0.8 0.9 1 1.1 1.2 1.2 1.3 1.4 1.5 1.6 1.7 1.7 1.8 1.9 2 2.6 3.3 4.4 5.2 8.1 7.8 6.4 10.6 9.9 10.3 9.5 9.3 9.6 8.5 8 7.4 6.8 8.6 8.8 8.3 6.9 7.3 6.9 7.6 6.3 6.8 6 5.3 5.4 5.2 4.6 5.5 5.8 5.4 5.5 6.2 6.1 5.9 5.8 5.9 5.7 7.4 6.4 6.1 6.4 6.8 6.5 6.8 6.6 6.4 6.2 6.6 6.4 6.3 6.1 5.8 5 5.3 5.4 5 4.6 5.1 5.4 5.2 5.4 5.9 6.3 6.3 6.3 6.9
-2.2 -2.2 -2.2 -2.2 -2.2 -2.2 -2.2 -2.2 -2.2 -2.2 -2.2 -2.2 -2.2 -2.2 -2.2 -2.2 -1.9 -1.8 -1.7 -1.6 -1.5 -1.3 -1.1 -0.9 -0.7 -0.5 -0.3 -0.1 0.2 0.5 0.8 1.1 1.4 1.7 5.5 5.2 21.8 26.7 26.5 30.8 41.8 44.5 26.4 2 -2.2 -2.2 -2.2 -2.2 -2.2 -2.2 -2.2 -2.2 -2.2 -2.2 -2.2 -2.2 -2.2 -2.2 -2.2 -2.2 -2.2 -2.2 -2.2 -2.2 -2.2 -2.2 -2.2 -2.2 -2.2 -2.2 -2.2 -2.2 -2.2 -2.2 -2.2 -2.2 -2.2 -2.2 -2.2 -2.2 -2.2 -2.2 -2.2 -2.2 -2.2 -2.2 -2.2 -2.2 -2 -1.9 -1.8 -1.8 -1.7 -1.6 -1.5 -1.5 -1.4 -1.3 -1.2 -1.1 -1.1 -1 -0.9 -0.7 -0.6 -0.5 -0.4 -0.3 -0.2 -0.1 0 0.1 0.1 0.2 0.3 0.4 0.5 0.6 0.7 0.8 0.9 0.9 1 1.1 1.2 1.3 1.4 1.5 1.6 1.6 1.7 1.8 1.9 2 2.6 3.3 4.3 5.8 7.5 8.5 6.8 8.8 10.4 10.2 9.8 10.6 9.8 9.5 9.6 8.5 9.2 12.2 10.4 8.6 9.2 8.9 8 7.7 7.1 7.4 6.6 6.5 6.2 5.5 5 5 4.8 5.7 5.6 5.5 6.7 5.8 7 6.5 7.1 6.7 6.8 6.8 6.7 6.6 6.4 6.4 6.4 6.2 6 5.4 5.3 5.5 5.5 5.5 4.8 5.2 4.9 5.5 4.8 5.8 6 6 6.1 6.1
-2.2 -2.2 -2.2 -2.2 -2.2 -2.2 -2.2 -2.2 -2.2 -2.2 -2.2 -2.2 -2.2 -2.2 -2.2 -2.2 -2.2 -2.2 -2.2 -2.2 -2.2 -2.2 -1.9 -1.7 -1.5 -1.3 -1.2 -1 -0.6 -0.3 0 0.2 0.4 0.6 1 2 2.8 2 5.9 10.7 29.4 21.7 3 -0.1 -2.2 -2.2 -2.2 -2.2 -2.2 -2.2 -2.2 -2.2 -2.2 -2.2 -2.2 -2.2 -2.2 -2.2 -2.2 -2.2 -2.2 -2.2 -2.2 -2.2 -2.2 -2.2 -2.2 -2.2 -2.2 -2.2 -2.2 -2.2 -2.2 -2.2 -2.2 -2.2 -2.2 -2.2 -2.2 -2.2 -2.2 -2.2 -2.2 -2.2 -2.2 -2.2 -2.2 -2.2 -2.2 -2.2 -2.2 -2.2 -2.2 -2.2 -2 -1.9 -1.8 -1.7 -1.6 -1.6 -1.5 -1.4 -1.3 -1.2 -1 -0.9 -0.8 -0.7 -0.6 -0.5 -0.4 -0.3 -0.3 -0.1 0 0 0.1 0.2 0.3 0.4 0.5 0.6 0.7 0.8 0.9 0.9 1 1.1 1.2 1.3 1.4 1.5 1.6 1.6 1.7 1.8 1.9 1.9 2.1 3 4.5 6 6.2 7.3 7.6 6.4 6 7.8 7.9 8.2 7.7 9.2 8 9.2 9.8 12.2 10.5 10.1 10.4 10.3 10.1 8.4 9.1 6.6 5.6 6.6 6.1 5.6 5.4 5.3 5.7 5.3 6.4 7.2 6.8 6.5 6.8 6.8 6.7 6.6 6.5 6.4 6.3 6.1 5.7 5.3 5.6 5.6 5.6 5.6 5.7 4.8 5 5.4 5.3 5.8 5.8 5.8 5.9 5.9
-2.2 -2.2 -2.2 -2.2 -2.2 -2.2 -2.2 -2.2 -2.2 -2.2 -2.2 -2.2 -2.2 -2.2 -2.2 -2.2 -2.2 -2.2 -2.2 -2.2 -2.2 -2.2 -2.2 -2.2 -2.2 -2.2 -2.2 -2.2 -1.5 -1.3 -1.1 -0.9 -0.7 -0.5 -0.3 0.7 1.4 1 0.8 1.4 4.6 1.9 -2.2 -2.2 -2.2 -2.2 -2.2 -2.2 -2.2 -2.2 -2.2 -2.2 -2.2 -2.2 -2.2 -2.2 -2.2 -2.2 -2.2 -2.2 -2.2 -2.2 -2.2 -2.2 -2.2 -2.2 -2.2 -2.2 -2.2 -2.2 -2.2 -2.2 -2.2 -2.2 -2.2 -2.2 -2.2 -2.2 -2.2 -2.2 -2.2 -2.2 -2.2 -2.2 -2.2 -2.2 -2.2 -2.2 -2.2 -2.2 -2.2 -2.2 -2.2 -2.2 -2.2 -2.2 -2.2 -2.2 -2.2 -2 -1.9 -1.8 -1.7 -1.6 -1.5 -1.4 -1.2 -1.1 -1 -0.9 -0.8 -0.7 -0.6 -0.5 -0.4 -0.3 -0.3 -0.2 -0.1 0 0.1 0.2 0.3 0.4 0.5 0.6 0.7 0.8 0.9 1 1.1 1.2 1.2 1.3 1.4 1.5 1.5 1.6 1.7 1.8 1.8 1.9 2.4 3.3 4.2 5.1 6.1 6.3 8.4 8.1 8 6.6 6.1 6.9 10.5 9.5 8.6 8.7 8.2 8 8.7 8.7 10.1 12.3 10.2 10.6 7.9 9 8 9.3 9.2 11.4 9.4 6.4 7.2 6.3 6.7 6.7 6.6 6.6 6.5 6.2 6.2 6 5.6 5.6 5.7 5.7 5.9 6.2 5.7 6.2 5.2 5.2 6 6.1 5.9 5.7 5.5 5.8
-2.2 -2.2 -2.2 -2.2 -2.2 -2.2 -2.2 -2.2 -2.2 -2.2 -2.2 -2.2 -2.2 -2.2 -2.2 -2.2 -2.2 -2.2 -2.2 -2.2 -2.2 -2.2 -2.2 -2.2 -2.2 -2.2 -2.2 -2.2 -2.2 -2.2 -2.2 -2 -1.8 -1.6 -1.4 -0.8 -0.4 -0.6 -0.8 0.2 0.7 -0.7 -2.2 -2.2 -2.2 -2.2 -2.2 -2.2 -2.2 -2.2 -2.2 -2.2 -2.2 -2.2 -2.2 -2.2 -2.2 -2.2 -2.2 -2.2 -2.2 -2.2 -2.2 -2.2 -2.2 -2.2 -2.2 -2.2 -2.2 -2.2 -2.2 -2.2 -2.2 -2.2 -2.2 -2.2 -2.2 -2.2 -2.2 -2.2 -2.2 -2.2 -2.2 -2.2 -2.2 -2.2 -2.2 -2.2 -2.2 -2.2 -2.2 -2.2 -2.2 -2.2 -2.2 -2.2 -2.2 -2.2 -2.2 -2.2 -2.2 -2.2 -2.2 -2 -1.9 -1.8 -1.6 -1.5 -1.4 -1.3 -1.2 -1.1 -1 -0.9 -0.8 -0.7 -0.6 -0.5 -0.4 -0.4 -0.3 -0.2 -0.1 0 0.1 0.2 0.3 0.5 0.5 0.6 0.7 0.8 0.9 1 1.1 1.2 1.2 1.3 1.4 1.5 1.5 1.6 1.7 1.8 1.9 2 2.4 3.2 3.9 4.4 5.5 6.2 6.9 8 7.4 6.9 6.7 6.4 6 6.7 6.9 8.6 8.4 11.2 10.9 10.2 9.8 10.1 9.8 9.3 8.4 6.8 9.5 7.5 6.1 6.1 6.6 6.7 6.6 6.5 5.9 6.2 6 5.8 5.7 6 6.3 6.5 6.4 5.9 5.9 6.3 6.8 6.8 5 4.7 5.3 5.2 5.4 5.7
-2.2 -2.2 -2.2 -2.2 -2.2 -2.2 -2.2 -2.2 -2.2 -2.2 -2.2 -2.2 -2.2 -2.2 -2.2 -2.2 -2.2 -2.2 -2.2 -2.2 -2.2 -2.2 -2.2 -2.2 -2.2 -2.2 -2.2 -2.2 -2.2 -2.2 -2.2 -2.2 -2.2 -2.2 -2.2 -2.2 -2.2 -2.2 -2.2 -2.2 -2.2 -2.2 -2.2 -2.2 -2.2 -2.2 -2.2 -2.2 -2.2 -2.2 -2.2 -2.2 -2.2 -2.2 -2.2 -2.2 -2.2 -2.2 -2.2 -2.2 -2.2 -2.2 -2.2 -2.2 -2.2 -2.2 -2.2 -2.2 -2.2 -2.2 -2.2 -2.2 -2.2 -2.2 -2.2 -2.2 -2.2 -2.2 -2.2 -2.2 -2.2 -2.2 -2.2 -2.2 -2.2 -2.2 -2.2 -2.2 -2.2 -2.2 -2.2 -2.2 -2.2 -2.2 -2.2 -2.2 -2.2 -2.2 -2.2 -2.2 -2.2 -2.2 -2.2 -2.2 -2.2 -2.2 -2 -1.9 -1.8 -1.7 -1.6 -1.5 -1.4 -1.3 -1.2 -1.1 -1 -0.9 -0.8 -0.7 -0.6 -0.5 -0.4 -0.3 -0.2 -0.1 0 0.1 0.2 0.3 0.4 0.5 0.6 0.7 0.8 0.8 0.9 1 1.1 1.2 1.2 1.4 1.5 1.5 1.6 1.7 1.8 1.8 1.9 1.9 2 3.9 3.9 5.1 5.3 5.9 7 7.2 7.5 7 5.9 5.7 5.5 5.5 6.8 5.9 6.1 7 6.8 6.6 7.1 7.7 6.9 6.6 6.5 6.5 6.4 6.6 6.4 5.9 5.4 6.1 5.9 5.7 6.3 6.9 7.2 6.7 6.2 5.7 6.1 6.5 6.9 6.7 7.2 5.2 6.1 5 5.6 5.5
-2.2 -2.2 -2.2 -2.2 -2.2 -2.2 -2.2 -2.2 -2.2 -2.2 -2.2 -2.2 -2.2 -2.2 -2.2 -2.2 -2.2 -2.2 -2.2 -2.2 -2.2 -2.2 -2.2 -2.2 -2.2 -2.2 -2.2 -2.2 -2.2 -2.2 -2.2 -2.2 -2.2 -2.2 -2.2 -2.2 -2.2 -2.2 -2.2 -2.2 -2.2 -2.2 -2.2 -2.2 -2.2 -2.2 -2.2 -2.2 -2.2 -2.2 -2.2 -2.2 -2.2 -2.2 -2.2 -2.2 -2.2 -2.2 -2.2 -2.2 -2.2 -2.2 -2.2 -2.2 -2.2 -2.2 -2.2 -2.2 -2.2 -2.2 -2.2 -2.2 -2.2 -2.2 -2.2 -2.2 -2.2 -2.2 -2.2 -2.2 -2.2 -2.2 -2.2 -2.2 -2.2 -2.2 -2.2 -2.2 -2.2 -2.2 -2.2 -2.2 -2.2 -2.2 -2.2 -2.2 -2.2 -2.2 -2.2 -2.2 -2.2 -2.2 -2.2 -2.2 -2.2 -2.2 -2.2 -2.2 -2.2 -2.2 -2.2 -1.9 -1.8 -1.7 -1.6 -1.5 -1.4 -1.3 -1.2 -1.1 -1 -0.9 -0.8 -0.7 -0.6 -0.5 -0.3 -0.2 -0.1 0 0.1 0.2 0.3 0.4 0.5 0.5 0.6 0.7 0.8 0.9 1 1.1 1.2 1.3 1.3 1.4 1.5 1.5 1.6 1.7 1.7 1.8 1.8 1.9 1.9 1.9 2 3.7 4.6 6.2 7.3 6.9 7.5 8.7 8.4 7.4 6.5 6.9 7 6.9 6.8 7.3 5.7 6.3 6.3 6.4 6.5 6.5 5.9 5.3 5.5 5.9 5.7 5.4 6.2 7.9 7.3 6.6 6 5.9 6.4 7 6.8 7.5 7.1 5.6 6.2 5.2 6.1 5.4
-2.2 -2.2 -2.2 -2.2 -2.2 -2.2 -2.2 -2.2 -2.2 -2.2 -2.2 -2.2 -2.2 -2.2 -2.2 -2.2 -2.2 -2.2 -2.2 -2.2 -2.2 -2.2 -2.2 -2.2 -2.2 -2.2 -2.2 -2.2 -2.2 -2.2 -2.2 -2.2 -2.2 -2.2 -2.2 -2.2 -2.2 -2.2 -2.2 -2.2 -2.2 -2.2 -2.2 -2.2 -2.2 -2.2 -2.2 -2.2 -2.2 -2.2 -2.2 -2.2 -2.2 -2.2 -2.2 -2.2 -2.2 -2.2 -2.2 -2.2 -2.2 -2.2 -2.2 -2.2 -2.2 -2.2 -2.2 -2.2 -2.2 -2.2 -2.2 -2.2 -2.2 -2.2 -2.2 -2.2 -2.2 -2.2 -2.2 -2.2 -2.2 -2.2 -2.2 -2.2 -2.2 -2.2 -2.2 -2.2 -2.2 -2.2 -2.2 -2.2 -2.2 -2.2 -2.2 -2.2 -2.2 -2.2 -2.2 -2.2 -2.2 -2.2 -2.2 -2.2 -2.2 -2.2 -2.2 -2.2 -2.2 -2.2 -2.2 -2.2 -2.2 -2.1 -2 -1.9 -1.8 -1.7 -1.6 -1.5 -1.4 -1.3 -1.1 -1 -0.9 -0.8 -0.7 -0.6 -0.5 -0.3 -0.2 -0.2 -0.1 0 0.1 0.2 0.3 0.4 0.5 0.6 0.7 0.8 0.9 1 1 1.1 1.2 1.3 1.3 1.4 1.5 1.5 1.6 1.6 1.7 1.7 1.7 1.8 1.8 1.9 1.9 1.9 2 3.1 5 6.7 7.4 8.2 9 8.9 6.8 6.5 8.2 8.3 8 7.9 7.6 7.1 6 5.1 5.4 5.4 5.5 5.3 5.6 5.4 5 4.9 6.7 5.8 6.1 5.6 5.7 7.1 6.1 6.3 8.5 6.7 7.2 7.6
-2.2 -2.2 -2.2 -2.2 -2.2 -2.2 -2.2 -2.2 -2.2 -2.2 -2.2 -2.2 -2.2 -2.2 -2.2 -2.2 -2.2 -2.2 -2.2 -2.2 -2.2 -2.2 -2.2 -2.2 -2.2 -2.2 -2.2 -2.2 -2.2 -2.2 -2.2 -2.2 -2.2 -2.2 -2.2 -2.2 -2.2 -2.2 -2.2 -2.2 -2.2 -2.2 -2.2 -2.2 -2.2 -2.2 -2.2 -2.2 -2.2 -2.2 -2.2 -2.2 -2.2 -2.2 -2.2 -2.2 -2.2 -2.2 -2.2 -2.2 -2.2 -2.2 -2.2 -2.2 -2.2 -2.2 -2.2 -2.2 -2.2 -2.2 -2.2 -2.2 -2.2 -2.2 -2.2 -2.2 -2.2 -2.2 -2.2 -2.2 -2.2 -2.2 -2.2 -2.2 -2.2 -2.2 -2.2 -2.2 -2.2 -2.2 -2.2 -2.2 -2.2 -2.2 -2.2 -2.2 -2.2 -2.2 -2.2 -2.2 -2.2 -2.2 -2.2 -2.2 -2.2 -2.2 -2.2 -2.2 -2.2 -2.2 -2.2 -2.2 -2.2 -2.2 -2.2 -2.2 -2.2 -2.2 -2 -1.9 -1.8 -1.6 -1.5 -1.4 -1.3 -1.1 -1 -0.9 -0.8 -0.7 -0.6 -0.5 -0.4 -0.3 -0.2 -0.1 0 0.1 0.2 0.3 0.4 0.5 0.6 0.7 0.8 0.9 0.9 1 1.1 1.1 1.2 1.2 1.3 1.4 1.4 1.4 1.5 1.5 1.6 1.6 1.6 1.7 1.7 1.8 1.8 1.9 1.9 2 2.5 3.6 4.4 5.6 6 6 6.8 6.8 7.9 9.7 9.5 8.8 9.1 7.7 8.1 10 10.6 9.9 7 10.2 5.8 3.3 3.3 3.9 3.9 3.9 3.9 3.9 3.9 3.9 4.1 4.3
-2.2 -2.2 -2.2 -2.2 -2.2 -2.2 -2.2 -2.2 -2.2 -2.2 -2.2 -2.2 -2.2 -2.2 -2.2 -2.2 -2.2 -2.2 -2.2 -2.2 -2.2 -2.2 -2.2 -2.2 -2.2 -2.2 -2.2 -2.2 -2.2 -2.2 -2.2 -2.2 -2.2 -2.2 -2.2 -2.2 -2.2 -2.2 -2.2 -2.2 -2.2 -2.2 -2.2 -2.2 -2.2 -2.2 -2.2 -2.2 -2.2 -2.2 -2.2 -2.2 -2.2 -2.2 -2.2 -2.2 -2.2 -2.2 -2.2 -2.2 -2.2 -2.2 -2.2 -2.2 -2.2 -2.2 -2.2 -2.2 -2.2 -2.2 -2.2 -2.2 -2.2 -2.2 -2.2 -2.2 -2.2 -2.2 -2.2 -2.2 -2.2 -2.2 -2.2 -2.2 -2.2 -2.2 -2.2 -2.2 -2.2 -2.2 -2.2 -2.2 -2.2 -2.2 -2.2 -2.2 -2.2 -2.2 -2.2 -2.2 -2.2 -2.2 -2.2 -2.2 -2.2 -2.2 -2.2 -2.2 -2.2 -2.2 -2.2 -2.2 -2.2 -2.2 -2.2 -2.2 -2.2 -2.2 -2.2 -2.2 -2.2 -2 -1.9 -1.7 -1.6 -1.5 -1.3 -1.2 -1.1 -1 -0.9 -0.8 -0.7 -0.6 -0.5 -0.4 -0.3 -0.2 -0.1 0 0.1 0.3 0.3 0.4 0.5 0.6 0.7 0.7 0.8 0.9 0.9 1 1 1.1 1.1 1.2 1.2 1.3 1.3 1.4 1.4 1.4 1.5 1.5 1.6 1.6 1.7 1.7 1.8 1.8 1.9 1.9 1.9 2 2.7 3.3 3.7 4.1 4 4.6 4.6 4.5 4.4 3.8 3.4 3.1 3.4 3.6 3.5 3.2 3.1 3.5 3.5 3.5 3.6 3.6 3.6 3.6 3.8 4
-2.2 -2.2 -2.2 -2.2 -2.2 -2.2 -2.2 -2.2 -2.2 -2.2 -2.2 -2.2 -2.2 -2.2 -2.2 -2.2 -2.2 -2.2 -2.2 -2.2 -2.2 -2.2 -2.2 -2.2 -2.2 -2.2 -2.2 -2.2 -2.2 -2.2 -2.2 -2.2 -2.2 -2.2 -2.2 -2.2 -2.2 -2.2 -2.2 -2.2 -2.2 -2.2 -2.2 -2.2 -2.2 -2.2 -2.2 -2.2 -2.2 -2.2 -2.2 -2.2 -2.2 -2.2 -2.2 -2.2 -2.2 -2.2 -2.2 -2.2 -2.2 -2.2 -2.2 -2.2 -2.2 -2.2 -2.2 -2.2 -2.2 -2.2 -2.2 -2.2 -2.2 -2.2 -2.2 -2.2 -2.2 -2.2 -2.2 -2.2 -2.2 -2.2 -2.2 -2.2 -2.2 -2.2 -2.2 -2.2 -2.2 -2.2 -2.2 -2.2 -2.2 -2.2 -2.2 -2.2 -2.2 -2.2 -2.2 -2.2 -2.2 -2.2 -2.2 -2.2 -2.2 -2.2 -2.2 -2.2 -2.2 -2.2 -2.2 -2.2 -2.2 -2.2 -2.2 -2.2 -2.2 -2.2 -2.2 -2.2 -2.2 -2.2 -2.2 -2.1 -1.9 -1.8 -1.7 -1.6 -1.4 -1.3 -1.2 -1.1 -1 -0.9 -0.8 -0.7 -0.6 -0.5 -0.4 -0.3 -0.1 0 0.1 0.1 0.3 0.3 0.4 0.5 0.5 0.6 0.7 0.7 0.8 0.8 0.9 0.9 1 1 1.1 1.1 1.2 1.2 1.3 1.3 1.4 1.4 1.5 1.5 1.6 1.6 1.6 1.7 1.7 1.8 1.8 1.9 1.9 2 2.3 2.9 3.6 3.9 3.4 3 2.8 2.7 2.8 3.1 3.5 3 2.9 3.1 3.2 3.2 3.3 3.3 3.3 3.3 3.5 3.6
-2.2 -2.2 -2.2 -2.2 -2.2 -2.2 -2.2 -2.2 -2.2 -2.2 -2.2 -2.2 -2.2 -2.2 -2.2 -2.2 -2.2 -2.2 -2.2 -2.2 -2.2 -2.2 -2.2 -2.2 -2.2 -2.2 -2.2 -2.2 -2.2 -2.2 -2.2 -2.2 -2.2 -2.2 -2.2 -2.2 -2.2 -2.2 -2.2 -2.2 -2.2 -2.2 -2.2 -2.2 -2.2 -2.2 -2.2 -2.2 -2.2 -2.2 -2.2 -2.2 -2.2 -2.2 -2.2 -2.2 -2.2 -2.2 -2.2 -2.2 -2.2 -2.2 -2.2 -2.2 -2.2 -2.2 -2.2 -2.2 -2.2 -2.2 -2.2 -2.2 -2.2 -2.2 -2.2 -2.2 -2.2 -2.2 -2.2 -2.2 -2.2 -2.2 -2.2 -2.2 -2.2 -2.2 -2.2 -2.2 -2.2 -2.2 -2.2 -2.2 -2.2 -2.2 -2.2 -2.2 -2.2 -2.2 -2.2 -2.2 -2.2 -2.2 -2.2 -2.2 -2.2 -2.2 -2.2 -2.2 -2.2 -2.2 -2.2 -2.2 -2.2 -2.2 -2.2 -2.2 -2.2 -2.2 -2.2 -2.2 -2.2 -2.2 -2.2 -2.2 -2.2 -2.1 -2 -1.9 -1.7 -1.6 -1.5 -1.4 -1.3 -1.2 -1.1 -0.9 -0.8 -0.8 -0.6 -0.5 -0.4 -0.3 -0.2 -0.1 0 0.1 0.1 0.2 0.3 0.4 0.4 0.5 0.5 0.6 0.6 0.7 0.8 0.8 0.8 0.9 0.9 1 1 1.1 1.1 1.2 1.2 1.3 1.3 1.4 1.4 1.5 1.5 1.6 1.6 1.7 1.7 1.8 1.8 1.9 2 2.2 2.4 2.3 2.3 2.3 2.4 2.7 3 2.7 2.6 2.8 2.8 2.8 2.9 2.9 3 3 3.2 3.2
-2.2 -2.2 -2.2 -2.2 -2.2 -2.2 -2.2 -2.2 -2.2 -2.2 -2.2 -2.2 -2.2 -2.2 -2.2 -2.2 -2.2 -2.2 -2.2 -2.2 -2.2 -2.2 -2.2 -2.2 -2.2 -2.2 -2.2 -2.2 -2.2 -2.2 -2.2 -2.2 -2.2 -2.2 -2.2 -2.2 -2.2 -2.2 -2.2 -2.2 -2.2 -2.2 -2.2 -2.2 -2.2 -2.2 -2.2 -2.2 -2.2 -2.2 -2.2 -2.2 -2.2 -2.2 -2.2 -2.2 -2.2 -2.2 -2.2 -2.2 -2.2 -2.2 -2.2 -2.2 -2.2 -2.2 -2.2 -2.2 -2.2 -2.2 -2.2 -2.2 -2.2 -2.2 -2.2 -2.2 -2.2 -2.2 -2.2 -2.2 -2.2 -2.2 -2.2 -2.2 -2.2 -2.2 -2.2 -2.2 -2.2 -2.2 -2.2 -2.2 -2.2 -2.2 -2.2 -2.2 -2.2 -2.2 -2.2 -2.2 -2.2 -2.2 -2.2 -2.2 -2.2 -2.2 -2.2 -2.2 -2.2 -2.2 -2.2 -2.2 -2.2 -2.2 -2.2 -2.2 -2.2 -2.2 -2.2 -2.2 -2.2 -2.2 -2.2 -2.2 -2.2 -2.2 -2.2 -2.2 -2.1 -2 -1.8 -1.7 -1.6 -1.5 -1.4 -1.2 -1.1 -1 -0.9 -0.8 -0.7 -0.6 -0.5 -0.4 -0.3 -0.2 -0.2 -0.1 0 0.1 0.2 0.2 0.3 0.3 0.4 0.5 0.5 0.5 0.6 0.6 0.7 0.7 0.8 0.8 0.9 0.9 1 1.1 1.1 1.2 1.2 1.3 1.3 1.3 1.4 1.5 1.5 1.6 1.6 1.7 1.7 1.8 1.8 1.9 1.9 1.9 2 2.1 2.2 2.4 2.3 2.4 2.4 2.5 2.6 2.6 2.7 2.7 2.9 2.9
-2.2 -2.2 -2.2 -2.2 -2.2 -2.2 -2.2 -2.2 -2.2 -2.2 -2.2 -2.2 -2.2 -2.2 -2.2 -2.2 -2.2 -2.2 -2.2 -2.2 -2.2 -2.2 -2.2 -2.2 -2.2 -2.2 -2.2 -2.2 -2.2 -2.2 -2.2 -2.2 -2.2 -2.2 -2.2 -2.2 -2.2 -2.2 -2.2 -2.2 -2.2 -2.2 -2.2 -2.2 -2.2 -2.2 -2.2 -2.2 -2.2 -2.2 -2.2 -2.2 -2.2 -2.2 -2.2 -2.2 -2.2 -2.2 -2.2 -2.2 -2.2 -2.2 -2.2 -2.2 -2.2 -2.2 -2.2 -2.2 -2.2 -2.2 -2.2 -2.2 -2.2 -2.2 -2.2 -2.2 -2.2 -2.2 -2.2 -2.2 -2.2 -2.2 -2.2 -2.2 -2.2 -2.2 -2.2 -2.2 -2.2 -2.2 -2.2 -2.2 -2.2 -2.2 -2.2 -2.2 -2.2 -2.2 -2.2 -2.2 -2.2 -2.2 -2.2 -2.2 -2.2 -2.2 -2.2 -2.2 -2.2 -2.2 -2.2 -2.2 -2.2 -2.2 -2.2 -2.2 -2.2 -2.2 -2.2 -2.2 -2.2 -2.2 -2.2 -2.2 -2.2 -2.2 -2.2 -2.2 -2.2 -2.2 -2.2 -2 -1.9 -1.8 -1.6 -1.5 -1.4 -1.3 -1.2 -1.1 -1 -0.9 -0.8 -0.6 -0.5 -0.5 -0.4 -0.3 -0.2 -0.1 -0.1 0 0 0.1 0.1 0.2 0.3 0.3 0.4 0.4 0.4 0.5 0.6 0.6 0.6 0.7 0.8 0.8 0.9 0.9 1 1 1.1 1.1 1.2 1.3 1.3 1.4 1.4 1.5 1.5 1.5 1.5 1.6 1.6 1.6 1.7 1.7 1.8 1.8 1.9 2 2.1 2.2 2.2 2.3 2.4 2.4 2.5 2.5
-2.2 -2.2 -2.2 -2.2 -2.2 -2.2 -2.2 -2.2 -2.2 -2.2 -2.2 -2.2 -2.2 -2.2 -2.2 -2.2 -2.2 -2.2 -2.2 -2.2 -2.2 -2.2 -2.2 -2.2 -2.2 -2.2 -2.2 -2.2 -2.2 -2.2 -2.2 -2.2 -2.2 -2.2 -2.2 -2.2 -2.2 -2.2 -2.2 -2.2 -2.2 -2.2 -2.2 -2.2 -2.2 -2.2 -2.2 -2.2 -2.2 -2.2 -2.2 -2.2 -2.2 -2.2 -2.2 -2.2 -2.2 -2.2 -2.2 -2.2 -2.2 -2.2 -2.2 -2.2 -2.2 -2.2 -2.2 -2.2 -2.2 -2.2 -2.2 -2.2 -2.2 -2.2 -2.2 -2.2 -2.2 -2.2 -2.2 -2.2 -2.2 -2.2 -2.2 -2.2 -2.2 -2.2 -2.2 -2.2 -2.2 -2.2 -2.2 -2.2 -2.2 -2.2 -2.2 -2.2 -2.2 -2.2 -2.2 -2.2 -2.2 -2.2 -2.2 -2.2 -2.2 -2.2 -2.2 -2.2 -2.2 -2.2 -2.2 -2.2 -2.2 -2.2 -2.2 -2.2 -2.2 -2.2 -2.2 -2.2 -2.2 -2.2 -2.2 -2.2 -2.2 -2.2 -2.2 -2.2 -2.2 -2.2 -2.2 -2.2 -2.2 -2.2 -1.9 -1.8 -1.7 -1.6 -1.5 -1.3 -1.2 -1.1 -1 -0.9 -0.8 -0.8 -0.7 -0.6 -0.5 -0.4 -0.4 -0.3 -0.2 -0.2 -0.1 0 0 0.1 0.1 0.2 0.2 0.3 0.3 0.4 0.4 0.5 0.6 0.6 0.7 0.7 0.8 0.8 0.9 0.9 1 1.1 1.1 1.2 1.2 1.3 1.3 1.3 1.3 1.3 1.3 1.4 1.4 1.4 1.5 1.5 1.6 1.7 1.8 1.8 1.9 2 2.1 2.1 2.2 2.2
-2.2 -2.2 -2.2 -2.2 -2.2 -2.2 -2.2 -2.2 -2.2 -2.2 -2.2 -2.2 -2.2 -2.2 -2.2 -2.2 -2.2 -2.2 -2.2 -2.2 -2.2 -2.2 -2.2 -2.2 -2.2 -2.2 -2.2 -2.2 -2.2 -2.2 -2.2 -2.2 -2.2 -2.2 -2.2 -2.2 -2.2 -2.2 -2.2 -2.2 -2.2 -2.2 -2.2 -2.2 -2.2 -2.2 -2.2 -2.2 -2.2 -2.2 -2.2 -2.2 -2.2 -2.2 -2.2 -2.2 -2.2 -2.2 -2.2 -2.2 -2.2 -2.2 -2.2 -2.2 -2.2 -2.2 -2.2 -2.2 -2.2 -2.2 -2.2 -2.2 -2.2 -2.2 -2.2 -2.2 -2.2 -2.2 -2.2 -2.2 -2.2 -2.2 -2.2 -2.2 -2.2 -2.2 -2.2 -2.2 -2.2 -2.2 -2.2 -2.2 -2.2 -2.2 -2.2 -2.2 -2.2 -2.2 -2.2 -2.2 -2.2 -2.2 -2.2 -2.2 -2.2 -2.2 -2.2 -2.2 -2.2 -2.2 -2.2 -2.2 -2.2 -2.2 -2.2 -2.2 -2.2 -2.2 -2.2 -2.2 -2.2 -2.2 -2.2 -2.2 -2.2 -2.2 -2.2 -2.2 -2.2 -2.2 -2.2 -2.2 -2.2 -2.2 -2.2 -2.1 -2 -1.9 -1.7 -1.6 -1.5 -1.4 -1.3 -1.2 -1.1 -1 -0.9 -0.8 -0.7 -0.7 -0.6 -0.5 -0.5 -0.4 -0.3 -0.3 -0.2 -0.2 -0.1 -0.1 0 0 0.1 0.1 0.2 0.3 0.3 0.4 0.5 0.5 0.6 0.6 0.7 0.7 0.8 0.9 0.9 1 1 1.1 1 1 1 1 1.1 1.1 1.1 1.1 1.2 1.2 1.3 1.4 1.4 1.5 1.6 1.7 1.7 1.8 1.9 1.9
-2.2 -2.2 -2.2 -2.2 -2.2 -2.2 -2.2 -2.2 -2.2 -2.2 -2.2 -2.2 -2.2 -2.2 -2.2 -2.2 -2.2 -2.2 -2.2 -2.2 -2.2 -2.2 -2.2 -2.2 -2.2 -2.2 -2.2 -2.2 -2.2 -2.2 -2.2 -2.2 -2.2 -2.2 -2.2 -2.2 -2.2 -2.2 -2.2 -2.2 -2.2 -2.2 -2.2 -2.2 -2.2 -2.2 -2.2 -2.2 -2.2 -2.2 -2.2 -2.2 -2.2 -2.2 -2.2 -2.2 -2.2 -2.2 -2.2 -2.2 -2.2 -2.2 -2.2 -2.2 -2.2 -2.2 -2.2 -2.2 -2.2 -2.2 -2.2 -2.2 -2.2 -2.2 -2.2 -2.2 -2.2 -2.2 -2.2 -2.2 -2.2 -2.2 -2.2 -2.2 -2.2 -2.2 -2.2 -2.2 -2.2 -2.2 -2.2 -2.2 -2.2 -2.2 -2.2 -2.2 -2.2 -2.2 -2.2 -2.2 -2.2 -2.2 -2.2 -2.2 -2.2 -2.2 -2.2 -2.2 -2.2 -2.2 -2.2 -2.2 -2.2 -2.2 -2.2 -2.2 -2.2 -2.2 -2.2 -2.2 -2.2 -2.2 -2.2 -2.2 -2.2 -2.2 -2.2 -2.2 -2.2 -2.2 -2.2 -2.2 -2.2 -2.2 -2.2 -2.2 -2.2 -2.2 -2 -1.9 -1.8 -1.7 -1.6 -1.4 -1.4 -1.3 -1.2 -1.1 -1 -0.9 -0.9 -0.8 -0.7 -0.7 -0.6 -0.5 -0.5 -0.4 -0.4 -0.3 -0.3 -0.2 -0.2 -0.1 0 0.1 0.1 0.2 0.2 0.3 0.4 0.4 0.5 0.5 0.6 0.7 0.7 0.8 0.8 0.8 0.8 0.8 0.8 0.8 0.8 0.8 0.8 0.8 0.9 0.9 1 1.1 1.1 1.2 1.3 1.3 1.4 1.5 1.5 1.5
-2.2 -2.2 -2.2 -2.2 -2.2 -2.2 -2.2 -2.2 -2.2 -2.2 -2.2 -2.2 -2.2 -2.2 -2.2 -2.2 -2.2 -2.2 -2.2 -2.2 -2.2 -2.2 -2.2 -2.2 -2.2 -2.2 -2.2 -2.2 -2.2 -2.2 -2.2 -2.2 -2.2 -2.2 -2.2 -2.2 -2.2 -2.2 -2.2 -2.2 -2.2 -2.2 -2.2 -2.2 -2.2 -2.2 -2.2 -2.2 -2.2 -2.2 -2.2 -2.2 -2.2 -2.2 -2.2 -2.2 -2.2 -2.2 -2.2 -2.2 -2.2 -2.2 -2.2 -2.2 -2.2 -2.2 -2.2 -2.2 -2.2 -2.2 -2.2 -2.2 -2.2 -2.2 -2.2 -2.2 -2.2 -2.2 -2.2 -2.2 -2.2 -2.2 -2.2 -2.2 -2.2 -2.2 -2.2 -2.2 -2.2 -2.2 -2.2 -2.2 -2.2 -2.2 -2.2 -2.2 -2.2 -2.2 -2.2 -2.2 -2.2 -2.2 -2.2 -2.2 -2.2 -2.2 -2.2 -2.2 -2.2 -2.2 -2.2 -2.2 -2.2 -2.2 -2.2 -2.2 -2.2 -2.2 -2.2 -2.2 -2.2 -2.2 -2.2 -2.2 -2.2 -2.2 -2.2 -2.2 -2.2 -2.2 -2.2 -2.2 -2.2 -2.2 -2.2 -2.2 -2.2 -2.2 -2.2 -2.2 -2.2 -1.9 -1.8 -1.7 -1.6 -1.5 -1.4 -1.3 -1.3 -1.2 -1.1 -1 -1 -0.9 -0.8 -0.8 -0.7 -0.7 -0.6 -0.6 -0.5 -0.4 -0.4 -0.3 -0.2 -0.2 -0.1 0 0 0.1 0.1 0.2 0.3 0.3 0.4 0.5 0.5 0.6 0.6 0.6 0.6 0.6 0.5 0.5 0.5 0.5 0.5 0.5 0.6 0.6 0.7 0.8 0.8 0.9 1 1 1 1.1 1.1 1.1
-2.2 -2.2 -2.2 -2.2 -2.2 -2.2 -2.2 -2.2 -2.2 -2.2 -2.2 -2.2 -2.2 -2.2 -2.2 -2.2 -2.2 -2.2 -2.2 -2.2 -2.2 -2.2 -2.2 -2.2 -2.2 -2.2 -2.2 -2.2 -2.2 -2.2 -2.2 -2.2 -2.2 -2.2 -2.2 -2.2 -2.2 -2.2 -2.2 -2.2 -2.2 -2.2 -2.2 -2.2 -2.2 -2.2 -2.2 -2.2 -2.2 -2.2 -2.2 -2.2 -2.2 -2.2 -2.2 -2.2 -2.2 -2.2 -2.2 -2.2 -2.2 -2.2 -2.2 -2.2 -2.2 -2.2 -2.2 -2.2 -2.2 -2.2 -2.2 -2.2 -2.2 -2.2 -2.2 -2.2 -2.2 -2.2 -2.2 -2.2 -2.2 -2.2 -2.2 -2.2 -2.2 -2.2 -2.2 -2.2 -2.2 -2.2 -2.2 -2.2 -2.2 -2.2 -2.2 -2.2 -2.2 -2.2 -2.2 -2.2 -2.2 -2.2 -2.2 -2.2 -2.2 -2.2 -2.2 -2.2 -2.2 -2.2 -2.2 -2.2 -2.2 -2.2 -2.2 -2.2 -2.2 -2.2 -2.2 -2.2 -2.2 -2.2 -2.2 -2.2 -2.2 -2.2 -2.2 -2.2 -2.2 -2.2 -2.2 -2.2 -2.2 -2.2 -2.2 -2.2 -2.2 -2.2 -2.2 -2.2 -2.2 -2.2 -2.2 -2 -1.9 -1.8 -1.7 -1.6 -1.5 -1.4 -1.4 -1.3 -1.2 -1.1 -1.1 -1 -1 -0.9 -0.9 -0.8 -0.7 -0.7 -0.6 -0.5 -0.4 -0.4 -0.3 -0.2 -0.2 -0.1 -0.1 0 0.1 0.1 0.2 0.3 0.3 0.4 0.4 0.4 0.4 0.3 0.2 0.2 0.2 0.2 0.2 0.2 0.3 0.3 0.4 0.4 0.5 0.6 0.7 0.6 0.7 0.7 0.7 0.7
-2.2 -2.2 -2.2 -2.2 -2.2 -2.2 -2.2 -2.2 -2.2 -2.2 -2.2 -2.2 -2.2 -2.2 -2.2 -2.2 -2.2 -2.2 -2.2 -2.2 -2.2 -2.2 -2.2 -2.2 -2.2 -2.2 -2.2 -2.2 -2.2 -2.2 -2.2 -2.2 -2.2 -2.2 -2.2 -2.2 -2.2 -2.2 -2.2 -2.2 -2.2 -2.2 -2.2 -2.2 -2.2 -2.2 -2.2 -2.2 -2.2 -2.2 -2.2 -2.2 -2.2 -2.2 -2.2 -2.2 -2.2 -2.2 -2.2 -2.2 -2.2 -2.2 -2.2 -2.2 -2.2 -2.2 -2.2 -2.2 -2.2 -2.2 -2.2 -2.2 -2.2 -2.2 -2.2 -2.2 -2.2 -2.2 -2.2 -2.2 -2.2 -2.2 -2.2 -2.2 -2.2 -2.2 -2.2 -2.2 -2.2 -2.2 -2.2 -2.2 -2.2 -2.2 -2.2 -2.2 -2.2 -2.2 -2.2 -2.2 -2.2 -2.2 -2.2 -2.2 -2.2 -2.2 -2.2 -2.2 -2.2 -2.2 -2.2 -2.2 -2.2 -2.2 -2.2 -2.2 -2.2 -2.2 -2.2 -2.2 -2.2 -2.2 -2.2 -2.2 -2.2 -2.2 -2.2 -2.2 -2.2 -2.2 -2.2 -2.2 -2.2 -2.2 -2.2 -2.2 -2.2 -2.2 -2.2 -2.2 -2.2 -2.2 -2.2 -2.2 -2.1 -2 -1.9 -1.8 -1.8 -1.7 -1.6 -1.5 -1.5 -1.4 -1.3 -1.3 -1.2 -1.1 -1.1 -1 -1 -0.9 -0.8 -0.7 -0.7 -0.6 -0.5 -0.5 -0.4 -0.3 -0.3 -0.2 -0.1 -0.1 0 0.1 0.1 0.2 0.2 0.2 0.1 0.1 0 0 0 -0.1 -0.1 -0.1 0 0 0.1 0.1 0.2 0.3 0.3 0.3 0.4 0.4 0.3 0.3
-2.2 -2.2 -2.2 -2.2 -2.2 -2.2 -2.2 -2.2 -2.2 -2.2 -2.2 -2.2 -2.2 -2.2 -2.2 -2.2 -2.2 -2.2 -2.2 -2.2 -2.2 -2.2 -2.2 -2.2 -2.2 -2.2 -2.2 -2.2 -2.2 -2.2 -2.2 -2.2 -2.2 -2.2 -2.2 -2.2 -2.2 -2.2 -2.2 -2.2 -2.2 -2.2 -2.2 -2.2 -2.2 -2.2 -2.2 -2.2 -2.2 -2.2 -2.2 -2.2 -2.2 -2.2 -2.2 -2.2 -2.2 -2.2 -2.2 -2.2 -2.2 -2.2 -2.2 -2.2 -2.2 -2.2 -2.2 -2.2 -2.2 -2.2 -2.2 -2.2 -2.2 -2.2 -2.2 -2.2 -2.2 -2.2 -2.2 -2.2 -2.2 -2.2 -2.2 -2.2 -2.2 -2.2 -2.2 -2.2 -2.2 -2.2 -2.2 -2.2 -2.2 -2.2 -2.2 -2.2 -2.2 -2.2 -2.2 -2.2 -2.2 -2.2 -2.2 -2.2 -2.2 -2.2 -2.2 -2.2 -2.2 -2.2 -2.2 -2.2 -2.2 -2.2 -2.2 -2.2 -2.2 -2.2 -2.2 -2.2 -2.2 -2.2 -2.2 -2.2 -2.2 -2.2 -2.2 -2.2 -2.2 -2.2 -2.2 -2.2 -2.2 -2.2 -2.2 -2.2 -2.2 -2.2 -2.2 -2.2 -2.2 -2.2 -2.2 -2.2 -2.2 -2.2 -2.2 -2.1 -2 -1.9 -1.9 -1.8 -1.7 -1.6 -1.6 -1.5 -1.4 -1.4 -1.3 -1.3 -1.2 -1.1 -1.1 -1 -0.9 -0.8 -0.7 -0.7 -0.6 -0.5 -0.5 -0.4 -0.3 -0.2 -0.2 -0.1 -0.1 0 -0.1 -0.1 -0.1 -0.2 -0.2 -0.3 -0.3 -0.4 -0.4 -0.4 -0.3 -0.3 -0.2 -0.2 -0.1 0 0 0 0 0 -0.1 -0.1
-2.2 -2.2 -2.2 -2.2 -2.2 -2.2 -2.2 -2.2 -2.2 -2.2 -2.2 -2.2 -2.2 -2.2 -2.2 -2.2 -2.2 -2.2 -2.2 -2.2 -2.2 -2.2 -2.2 -2.2 -2.2 -2.2 -2.2 -2.2 -2.2 -2.2 -2.2 -2.2 -2.2 -2.2 -2.2 -2.2 -2.2 -2.2 -2.2 -2.2 -2.2 -2.2 -2.2 -2.2 -2.2 -2.2 -2.2 -2.2 -2.2 -2.2 -2.2 -2.2 -2.2 -2.2 -2.2 -2.2 -2.2 -2.2 -2.2 -2.2 -2.2 -2.2 -2.2 -2.2 -2.2 -2.2 -2.2 -2.2 -2.2 -2.2 -2.2 -2.2 -2.2 -2.2 -2.2 -2.2 -2.2 -2.2 -2.2 -2.2 -2.2 -2.2 -2.2 -2.2 -2.2 -2.2 -2.2 -2.2 -2.2 -2.2 -2.2 -2.2 -2.2 -2.2 -2.2 -2.2 -2.2 -2.2 -2.2 -2.2 -2.2 -2.2 -2.2 -2.2 -2.2 -2.2 -2.2 -2.2 -2.2 -2.2 -2.2 -2.2 -2.2 -2.2 -2.2 -2.2 -2.2 -2.2 -2.2 -2.2 -2.2 -2.2 -2.2 -2.2 -2.2 -2.2 -2.2 -2.2 -2.2 -2.2 -2.2 -2.2 -2.2 -2.2 -2.2 -2.2 -2.2 -2.2 -2.2 -2.2 -2.2 -2.2 -2.2 -2.2 -2.2 -2.2 -2.2 -2.2 -2.2 -2.2 -2.1 -2 -1.9 -1.9 -1.8 -1.7 -1.7 -1.6 -1.6 -1.5 -1.4 -1.4 -1.3 -1.2 -1.1 -1 -0.9 -0.9 -0.8 -0.7 -0.7 -0.6 -0.5 -0.4 -0.4 -0.3 -0.3 -0.3 -0.3 -0.3 -0.3 -0.4 -0.5 -0.6 -0.6 -0.6 -0.6 -0.7 -0.7 -0.6 -0.6 -0.5 -0.4 -0.4 -0.3 -0.4 -0.3 -0.3 -0.4 -0.5
-2.2 -2.2 -2.2 -2.2 -2.2 -2.2 -2.2 -2.2 -2.2 -2.2 -2.2 -2.2 -2.2 -2.2 -2.2 -2.2 -2.2 -2.2 -2.2 -2.2 -2.2 -2.2 -2.2 -2.2 -2.2 -2.2 -2.2 -2.2 -2.2 -2.2 -2.2 -2.2 -2.2 -2.2 -2.2 -2.2 -2.2 -2.2 -2.2 -2.2 -2.2 -2.2 -2.2 -2.2 -2.2 -2.2 -2.2 -2.2 -2.2 -2.2 -2.2 -2.2 -2.2 -2.2 -2.2 -2.2 -2.2 -2.2 -2.2 -2.2 -2.2 -2.2 -2.2 -2.2 -2.2 -2.2 -2.2 -2.2 -2.2 -2.2 -2.2 -2.2 -2.2 -2.2 -2.2 -2.2 -2.2 -2.2 -2.2 -2.2 -2.2 -2.2 -2.2 -2.2 -2.2 -2.2 -2.2 -2.2 -2.2 -2.2 -2.2 -2.2 -2.2 -2.2 -2.2 -2.2 -2.2 -2.2 -2.2 -2.2 -2.2 -2.2 -2.2 -2.2 -2.2 -2.2 -2.2 -2.2 -2.2 -2.2 -2.2 -2.2 -2.2 -2.2 -2.2 -2.2 -2.2 -2.2 -2.2 -2.2 -2.2 -2.2 -2.2 -2.2 -2.2 -2.2 -2.2 -2.2 -2.2 -2.2 -2.2 -2.2 -2.2 -2.2 -2.2 -2.2 -2.2 -2.2 -2.2 -2.2 -2.2 -2.2 -2.2 -2.2 -2.2 -2.2 -2.2 -2.2 -2.2 -2.2 -2.2 -2.2 -2.2 -2.1 -2 -2 -1.9 -1.9 -1.8 -1.7 -1.7 -1.6 -1.5 -1.4 -1.3 -1.2 -1.1 -1.1 -1 -1 -0.9 -0.8 -0.7 -0.6 -0.6 -0.5 -0.5 -0.5 -0.5 -0.5 -0.5 -0.6 -0.7 -0.8 -0.9 -0.9 -0.9 -1 -1 -0.9 -0.9 -0.8 -0.7 -0.7 -0.7 -0.7 -0.7 -0.7 -0.8 -0.9
-2.2 -2.2 -2.2 -2.2 -2.2 -2.2 -2.2 -2.2 -2.2 -2.2 -2.2 -2.2 -2.2 -2.2 -2.2 -2.2 -2.2 -2.2 -2.2 -2.2 -2.2 -2.2 -2.2 -2.2 -2.2 -2.2 -2.2 -2.2 -2.2 -2.2 -2.2 -2.2 -2.2 -2.2 -2.2 -2.2 -2.2 -2.2 -2.2 -2.2 -2.2 -2.2 -2.2 -2.2 -2.2 -2.2 -2.2 -2.2 -2.2 -2.2 -2.2 -2.2 -2.2 -2.2 -2.2 -2.2 -2.2 -2.2 -2.2 -2.2 -2.2 -2.2 -2.2 -2.2 -2.2 -2.2 -2.2 -2.2 -2.2 -2.2 -2.2 -2.2 -2.2 -2.2 -2.2 -2.2 -2.2 -2.2 -2.2 -2.2 -2.2 -2.2 -2.2 -2.2 -2.2 -2.2 -2.2 -2.2 -2.2 -2.2 -2.2 -2.2 -2.2 -2.2 -2.2 -2.2 -2.2 -2.2 -2.2 -2.2 -2.2 -2.2 -2.2 -2.2 -2.2 -2.2 -2.2 -2.2 -2.2 -2.2 -2.2 -2.2 -2.2 -2.2 -2.2 -2.2 -2.2 -2.2 -2.2 -2.2 -2.2 -2.2 -2.2 -2.2 -2.2 -2.2 -2.2 -2.2 -2.2 -2.2 -2.2 -2.2 -2.2 -2.2 -2.2 -2.2 -2.2 -2.2 -2.2 -2.2 -2.2 -2.2 -2.2 -2.2 -2.2 -2.2 -2.2 -2.2 -2.2 -2.2 -2.2 -2.2 -2.2 -2.2 -2.2 -2.2 -2.2 -2.1 -2 -2 -1.9 -1.8 -1.7 -1.6 -1.5 -1.4 -1.4 -1.3 -1.2 -1.2 -1.1 -1 -0.9 -0.8 -0.8 -0.7 -0.7 -0.7 -0.7 -0.7 -0.8 -0.8 -0.9 -1.1 -1.1 -1.2 -1.2 -1.3 -1.3 -1.2 -1.2 -1.1 -1.1 -1 -1 -1 -1 -1.1 -1.2 -1.2
-2.2 -2.2 -2.2 -2.2 -2.2 -2.2 -2.2 -2.2 -2.2 -2.2 -2.2 -2.2 -2.2 -2.2 -2.2 -2.2 -2.2 -2.2 -2.2 -2.2 -2.2 -2.2 -2.2 -2.2 -2.2 -2.2 -2.2 -2.2 -2.2 -2.2 -2.2 -2.2 -2.2 -2.2 -2.2 -2.2 -2.2 -2.2 -2.2 -2.2 -2.2 -2.2 -2.2 -2.2 -2.2 -2.2 -2.2 -2.2 -2.2 -2.2 -2.2 -2.2 -2.2 -2.2 -2.2 -2.2 -2.2 -2.2 -2.2 -2.2 -2.2 -2.2 -2.2 -2.2 -2.2 -2.2 -2.2 -2.2 -2.2 -2.2 -2.2 -2.2 -2.2 -2.2 -2.2 -2.2 -2.2 -2.2 -2.2 -2.2 -2.2 -2.2 -2.2 -2.2 -2.2 -2.2 -2.2 -2.2 -2.2 -2.2 -2.2 -2.2 -2.2 -2.2 -2.2 -2.2 -2.2 -2.2 -2.2 -2.2 -2.2 -2.2 -2.2 -2.2 -2.2 -2.2 -2.2 -2.2 -2.2 -2.2 -2.2 -2.2 -2.2 -2.2 -2.2 -2.2 -2.2 -2.2 -2.2 -2.2 -2.2 -2.2 -2.2 -2.2 -2.2 -2.2 -2.2 -2.2 -2.2 -2.2 -2.2 -2.2 -2.2 -2.2 -2.2 -2.2 -2.2 -2.2 -2.2 -2.2 -2.2 -2.2 -2.2 -2.2 -2.2 -2.2 -2.2 -2.2 -2.2 -2.2 -2.2 -2.2 -2.2 -2.2 -2.2 -2.2 -2.2 -2.2 -2.2 -2.2 -2.2 -2 -1.9 -1.8 -1.7 -1.6 -1.6 -1.5 -1.4 -1.4 -1.3 -1.2 -1.1 -1 -1 -0.9 -0.9 -0.9 -1 -1 -1 -1.1 -1.2 -1.3 -1.4 -1.4 -1.5 -1.6 -1.6 -1.5 -1.5 -1.4 -1.4 -1.3 -1.3 -1.4 -1.4 -1.4 -1.5 -1.6
-2.2 -2.2 -2.2 -2.2 -2.2 -2.2 -2.2 -2.2 -2.2 -2.2 -2.2 -2.2 -2.2 -2.2 -2.2 -2.2 -2.2 -2.2 -2.2 -2.2 -2.2 -2.2 -2.2 -2.2 -2.2 -2.2 -2.2 -2.2 -2.2 -2.2 -2.2 -2.2 -2.2 -2.2 -2.2 -2.2 -2.2 -2.2 -2.2 -2.2 -2.2 -2.2 -2.2 -2.2 -2.2 -2.2 -2.2 -2.2 -2.2 -2.2 -2.2 -2.2 -2.2 -2.2 -2.2 -2.2 -2.2 -2.2 -2.2 -2.2 -2.2 -2.2 -2.2 -2.2 -2.2 -2.2 -2.2 -2.2 -2.2 -2.2 -2.2 -2.2 -2.2 -2.2 -2.2 -2.2 -2.2 -2.2 -2.2 -2.2 -2.2 -2.2 -2.2 -2.2 -2.2 -2.2 -2.2 -2.2 -2.2 -2.2 -2.2 -2.2 -2.2 -2.2 -2.2 -2.2 -2.2 -2.2 -2.2 -2.2 -2.2 -2.2 -2.2 -2.2 -2.2 -2.2 -2.2 -2.2 -2.2 -2.2 -2.2 -2.2 -2.2 -2.2 -2.2 -2.2 -2.2 -2.2 -2.2 -2.2 -2.2 -2.2 -2.2 -2.2 -2.2 -2.2 -2.2 -2.2 -2.2 -2.2 -2.2 -2.2 -2.2 -2.2 -2.2 -2.2 -2.2 -2.2 -2.2 -2.2 -2.2 -2.2 -2.2 -2.2 -2.2 -2.2 -2.2 -2.2 -2.2 -2.2 -2.2 -2.2 -2.2 -2.2 -2.2 -2.2 -2.2 -2.2 -2.2 -2.2 -2.2 -2.2 -2.2 -2 -1.9 -1.8 -1.8 -1.7 -1.6 -1.6 -1.5 -1.4 -1.3 -1.2 -1.2 -1.1 -1.2 -1.2 -1.2 -1.2 -1.2 -1.3 -1.4 -1.5 -1.6 -1.7 -1.8 -1.9 -1.9 -1.9 -1.8 -1.8 -1.7 -1.7 -1.7 -1.7 -1.7 -1.8 -1.9 -2.2
-2.2 -2.2 -2.2 -2.2 -2.2 -2.2 -2.2 -2.2 -2.2 -2.2 -2.2 -2.2 -2.2 -2.2 -2.2 -2.2 -2.2 -2.2 -2.2 -2.2 -2.2 -2.2 -2.2 -2.2 -2.2 -2.2 -2.2 -2.2 -2.2 -2.2 -2.2 -2.2 -2.2 -2.2 -2.2 -2.2 -2.2 -2.2 -2.2 -2.2 -2.2 -2.2 -2.2 -2.2 -2.2 -2.2 -2.2 -2.2 -2.2 -2.2 -2.2 -2.2 -2.2 -2.2 -2.2 -2.2 -2.2 -2.2 -2.2 -2.2 -2.2 -2.2 -2.2 -2.2 -2.2 -2.2 -2.2 -2.2 -2.2 -2.2 -2.2 -2.2 -2.2 -2.2 -2.2 -2.2 -2.2 -2.2 -2.2 -2.2 -2.2 -2.2 -2.2 -2.2 -2.2 -2.2 -2.2 -2.2 -2.2 -2.2 -2.2 -2.2 -2.2 -2.2 -2.2 -2.2 -2.2 -2.2 -2.2 -2.2 -2.2 -2.2 -2.2 -2.2 -2.2 -2.2 -2.2 -2.2 -2.2 -2.2 -2.2 -2.2 -2.2 -2.2 -2.2 -2.2 -2.2 -2.2 -2.2 -2.2 -2.2 -2.2 -2.2 -2.2 -2.2 -2.2 -2.2 -2.2 -2.2 -2.2 -2.2 -2.2 -2.2 -2.2 -2.2 -2.2 -2.2 -2.2 -2.2 -2.2 -2.2 -2.2 -2.2 -2.2 -2.2 -2.2 -2.2 -2.2 -2.2 -2.2 -2.2 -2.2 -2.2 -2.2 -2.2 -2.2 -2.2 -2.2 -2.2 -2.2 -2.2 -2.2 -2.2 -2.2 -2.2 -2.1 -2 -1.9 -1.8 -1.8 -1.7 -1.6 -1.5 -1.4 -1.4 -1.4 -1.4 -1.4 -1.4 -1.4 -1.4 -1.5 -1.6 -1.8 -1.9 -2 -2 -2.2 -2.2 -2.2 -2.2 -2.1 -2 -2 -2 -2 -2.2 -2.2 -2.2 -2.2
-2.2 -2.2 -2.2 -2.2 -2.2 -2.2 -2.2 -2.2 -2.2 -2.2 -2.2 -2.2 -2.2 -2.2 -2.2 -2.2 -2.2 -2.2 -2.2 -2.2 -2.2 -2.2 -2.2 -2.2 -2.2 -2.2 -2.2 -2.2 -2.2 -2.2 -2.2 -2.2 -2.2 -2.2 -2.2 -2.2 -2.2 -2.2 -2.2 -2.2 -2.2 -2.2 -2.2 -2.2 -2.2 -2.2 -2.2 -2.2 -2.2 -2.2 -2.2 -2.2 -2.2 -2.2 -2.2 -2.2 -2.2 -2.2 -2.2 -2.2 -2.2 -2.2 -2.2 -2.2 -2.2 -2.2 -2.2 -2.2 -2.2 -2.2 -2.2 -2.2 -2.2 -2.2 -2.2 -2.2 -2.2 -2.2 -2.2 -2.2 -2.2 -2.2 -2.2 -2.2 -2.2 -2.2 -2.2 -2.2 -2.2 -2.2 -2.2 -2.2 -2.2 -2.2 -2.2 -2.2 -2.2 -2.2 -2.2 -2.2 -2.2 -2.2 -2.2 -2.2 -2.2 -2.2 -2.2 -2.2 -2.2 -2.2 -2.2 -2.2 -2.2 -2.2 -2.2 -2.2 -2.2 -2.2 -2.2 -2.2 -2.2 -2.2 -2.2 -2.2 -2.2 -2.2 -2.2 -2.2 -2.2 -2.2 -2.2 -2.2 -2.2 -2.2 -2.2 -2.2 -2.2 -2.2 -2.2 -2.2 -2.2 -2.2 -2.2 -2.2 -2.2 -2.2 -2.2 -2.2 -2.2 -2.2 -2.2 -2.2 -2.2 -2.2 -2.2 -2.2 -2.2 -2.2 -2.2 -2.2 -2.2 -2.2 -2.2 -2.2 -2.2 -2.2 -2.2 -2.2 -2 -1.9 -1.8 -1.8 -1.7 -1.6 -1.6 -1.6 -1.6 -1.6 -1.6 -1.6 -1.7 -1.7 -1.8 -2 -2.2 -2.2 -2.2 -2.2 -2.2 -2.2 -2.2 -2.2 -2.2 -2.2 -2.2 -2.2 -2.2 -2.2 -2.2 -2.2
-2.2 -2.2 -2.2 -2.2 -2.2 -2.2 -2.2 -2.2 -2.2 -2.2 -2.2 -2.2 -2.2 -2.2 -2.2 -2.2 -2.2 -2.2 -2.2 -2.2 -2.2 -2.2 -2.2 -2.2 -2.2 -2.2 -2.2 -2.2 -2.2 -2.2 -2.2 -2.2 -2.2 -2.2 -2.2 -2.2 -2.2 -2.2 -2.2 -2.2 -2.2 -2.2 -2.2 -2.2 -2.2 -2.2 -2.2 -2.2 -2.2 -2.2 -2.2 -2.2 -2.2 -2.2 -2.2 -2.2 -2.2 -2.2 -2.2 -2.2 -2.2 -2.2 -2.2 -2.2 -2.2 -2.2 -2.2 -2.2 -2.2 -2.2 -2.2 -2.2 -2.2 -2.2 -2.2 -2.2 -2.2 -2.2 -2.2 -2.2 -2.2 -2.2 -2.2 -2.2 -2.2 -2.2 -2.2 -2.2 -2.2 -2.2 -2.2 -2.2 -2.2 -2.2 -2.2 -2.2 -2.2 -2.2 -2.2 -2.2 -2.2 -2.2 -2.2 -2.2 -2.2 -2.2 -2.2 -2.2 -2.2 -2.2 -2.2 -2.2 -2.2 -2.2 -2.2 -2.2 -2.2 -2.2 -2.2 -2.2 -2.2 -2.2 -2.2 -2.2 -2.2 -2.2 -2.2 -2.2 -2.2 -2.2 -2.2 -2.2 -2.2 -2.2 -2.2 -2.2 -2.2 -2.2 -2.2 -2.2 -2.2 -2.2 -2.2 -2.2 -2.2 -2.2 -2.2 -2.2 -2.2 -2.2 -2.2 -2.2 -2.2 -2.2 -2.2 -2.2 -2.2 -2.2 -2.2 -2.2 -2.2 -2.2 -2.2 -2.2 -2.2 -2.2 -2.2 -2.2 -2.2 -2.2 -2 -2 -1.9 -1.8 -1.8 -1.8 -1.8 -1.8 -1.9 -1.9 -1.9 -1.9 -2.1 -2.2 -2.2 -2.2 -2.2 -2.2 -2.2 -2.2 -2.2 -2.2 -2.2 -2.2 -2.2 -2.2 -2.2 -2.2 -2.2 -2.2
-2.2 -2.2 -2.2 -2.2 -2.2 -2.2 -2.2 -2.2 -2.2 -2.2 -2.2 -2.2 -2.2 -2.2 -2.2 -2.2 -2.2 -2.2 -2.2 -2.2 -2.2 -2.2 -2.2 -2.2 -2.2 -2.2 -2.2 -2.2 -2.2 -2.2 -2.2 -2.2 -2.2 -2.2 -2.2 -2.2 -2.2 -2.2 -2.2 -2.2 -2.2 -2.2 -2.2 -2.2 -2.2 -2.2 -2.2 -2.2 -2.2 -2.2 -2.2 -2.2 -2.2 -2.2 -2.2 -2.2 -2.2 -2.2 -2.2 -2.2 -2.2 -2.2 -2.2 -2.2 -2.2 -2.2 -2.2 -2.2 -2.2 -2.2 -2.2 -2.2 -2.2 -2.2 -2.2 -2.2 -2.2 -2.2 -2.2 -2.2 -2.2 -2.2 -2.2 -2.2 -2.2 -2.2 -2.2 -2.2 -2.2 -2.2 -2.2 -2.2 -2.2 -2.2 -2.2 -2.2 -2.2 -2.2 -2.2 -2.2 -2.2 -2.2 -2.2 -2.2 -2.2 -2.2 -2.2 -2.2 -2.2 -2.2 -2.2 -2.2 -2.2 -2.2 -2.2 -2.2 -2.2 -2.2 -2.2 -2.2 -2.2 -2.2 -2.2 -2.2 -2.2 -2.2 -2.2 -2.2 -2.2 -2.2 -2.2 -2.2 -2.2 -2.2 -2.2 -2.2 -2.2 -2.2 -2.2 -2.2 -2.2 -2.2 -2.2 -2.2 -2.2 -2.2 -2.2 -2.2 -2.2 -2.2 -2.2 -2.2 -2.2 -2.2 -2.2 -2.2 -2.2 -2.2 -2.2 -2.2 -2.2 -2.2 -2.2 -2.2 -2.2 -2.2 -2.2 -2.2 -2.2 -2.2 -2.2 -2.2 -2.1 -2 -2 -2 -2.1 -2.1 -2.1 -2.1 -2.1 -2.2 -2.2 -2.2 -2.2 -2.2 -2.2 -2.2 -2.2 -2.2 -2.2 -2.2 -2.2 -2.2 -2.2 -2.2 -2.2 -2.2 -2.2 -2.2
-2.2 -2.2 -2.2 -2.2 -2.2 -2.2 -2.2 -2.2 -2.2 -2.2 -2.2 -2.2 -2.2 -2.2 -2.2 -2.2 -2.2 -2.2 -2.2 -2.2 -2.2 -2.2 -2.2 -2.2 -2.2 -2.2 -2.2 -2.2 -2.2 -2.2 -2.2 -2.2 -2.2 -2.2 -2.2 -2.2 -2.2 -2.2 -2.2 -2.2 -2.2 -2.2 -2.2 -2.2 -2.2 -2.2 -2.2 -2.2 -2.2 -2.2 -2.2 -2.2 -2.2 -2.2 -2.2 -2.2 -2.2 -2.2 -2.2 -2.2 -2.2 -2.2 -2.2 -2.2 -2.2 -2.2 -2.2 -2.2 -2.2 -2.2 -2.2 -2.2 -2.2 -2.2 -2.2 -2.2 -2.2 -2.2 -2.2 -2.2 -2.2 -2.2 -2.2 -2.2 -2.2 -2.2 -2.2 -2.2 -2.2 -2.2 -2.2 -2.2 -2.2 -2.2 -2.2 -2.2 -2.2 -2.2 -2.2 -2.2 -2.2 -2.2 -2.2 -2.2 -2.2 -2.2 -2.2 -2.2 -2.2 -2.2 -2.2 -2.2 -2.2 -2.2 -2.2 -2.2 -2.2 -2.2 -2.2 -2.2 -2.2 -2.2 -2.2 -2.2 -2.2 -2.2 -2.2 -2.2 -2.2 -2.2 -2.2 -2.2 -2.2 -2.2 -2.2 -2.2 -2.2 -2.2 -2.2 -2.2 -2.2 -2.2 -2.2 -2.2 -2.2 -2.2 -2.2 -2.2 -2.2 -2.2 -2.2 -2.2 -2.2 -2.2 -2.2 -2.2 -2.2 -2.2 -2.2 -2.2 -2.2 -2.2 -2.2 -2.2 -2.2 -2.2 -2.2 -2.2 -2.2 -2.2 -2.2 -2.2 -2.2 -2.2 -2.2 -2.2 -2.2 -2.2 -2.2 -2.2 -2.2 -2.2 -2.2 -2.2 -2.2 -2.2 -2.2 -2.2 -2.2 -2.2 -2.2 -2.2 -2.2 -2.2 -2.2 -2.2 -2.2 -2.2 -2.2 -2.2
-2.2 -2.2 -2.2 -2.2 -2.2 -2.2 -2.2 -2.2 -2.2 -2.2 -2.2 -2.2 -2.2 -2.2 -2.2 -2.2 -2.2 -2.2 -2.2 -2.2 -2.2 -2.2 -2.2 -2.2 -2.2 -2.2 -2.2 -2.2 -2.2 -2.2 -2.2 -2.2 -2.2 -2.2 -2.2 -2.2 -2.2 -2.2 -2.2 -2.2 -2.2 -2.2 -2.2 -2.2 -2.2 -2.2 -2.2 -2.2 -2.2 -2.2 -2.2 -2.2 -2.2 -2.2 -2.2 -2.2 -2.2 -2.2 -2.2 -2.2 -2.2 -2.2 -2.2 -2.2 -2.2 -2.2 -2.2 -2.2 -2.2 -2.2 -2.2 -2.2 -2.2 -2.2 -2.2 -2.2 -2.2 -2.2 -2.2 -2.2 -2.2 -2.2 -2.2 -2.2 -2.2 -2.2 -2.2 -2.2 -2.2 -2.2 -2.2 -2.2 -2.2 -2.2 -2.2 -2.2 -2.2 -2.2 -2.2 -2.2 -2.2 -2.2 -2.2 -2.2 -2.2 -2.2 -2.2 -2.2 -2.2 -2.2 -2.2 -2.2 -2.2 -2.2 -2.2 -2.2 -2.2 -2.2 -2.2 -2.2 -2.2 -2.2 -2.2 -2.2 -2.2 -2.2 -2.2 -2.2 -2.2 -2.2 -2.2 -2.2 -2.2 -2.2 -2.2 -2.2 -2.2 -2.2 -2.2 -2.2 -2.2 -2.2 -2.2 -2.2 -2.2 -2.2 -2.2 -2.2 -2.2 -2.2 -2.2 -2.2 -2.2 -2.2 -2.2 -2.2 -2.2 -2.2 -2.2 -2.2 -2.2 -2.2 -2.2 -2.2 -2.2 -2.2 -2.2 -2.2 -2.2 -2.2 -2.2 -2.2 -2.2 -2.2 -2.2 -2.2 -2.2 -2.2 -2.2 -2.2 -2.2 -2.2 -2.2 -2.2 -2.2 -2.2 -2.2 -2.2 -2.2 -2.2 -2.2 -2.2 -2.2 -2.2 -2.2 -2.2 -2.2 -2.2 -2.2 -2.2
-2.2 -2.2 -2.2 -2.2 -2.2 -2.2 -2.2 -2.2 -2.2 -2.2 -2.2 -2.2 -2.2 -2.2 -2.2 -2.2 -2.2 -2.2 -2.2 -2.2 -2.2 -2.2 -2.2 -2.2 -2.2 -2.2 -2.2 -2.2 -2.2 -2.2 -2.2 -2.2 -2.2 -2.2 -2.2 -2.2 -2.2 -2.2 -2.2 -2.2 -2.2 -2.2 -2.2 -2.2 -2.2 -2.2 -2.2 -2.2 -2.2 -2.2 -2.2 -2.2 -2.2 -2.2 -2.2 -2.2 -2.2 -2.2 -2.2 -2.2 -2.2 -2.2 -2.2 -2.2 -2.2 -2.2 -2.2 -2.2 -2.2 -2.2 -2.2 -2.2 -2.2 -2.2 -2.2 -2.2 -2.2 -2.2 -2.2 -2.2 -2.2 -2.2 -2.2 -2.2 -2.2 -2.2 -2.2 -2.2 -2.2 -2.2 -2.2 -2.2 -2.2 -2.2 -2.2 -2.2 -2.2 -2.2 -2.2 -2.2 -2.2 -2.2 -2.2 -2.2 -2.2 -2.2 -2.2 -2.2 -2.2 -2.2 -2.2 -2.2 -2.2 -2.2 -2.2 -2.2 -2.2 -2.2 -2.2 -2.2 -2.2 -2.2 -2.2 -2.2 -2.2 -2.2 -2.2 -2.2 -2.2 -2.2 -2.2 -2.2 -2.2 -2.2 -2.2 -2.2 -2.2 -2.2 -2.2 -2.2 -2.2 -2.2 -2.2 -2.2 -2.2 -2.2 -2.2 -2.2 -2.2 -2.2 -2.2 -2.2 -2.2 -2.2 -2.2 -2.2 -2.2 -2.2 -2.2 -2.2 -2.2 -2.2 -2.2 -2.2 -2.2 -2.2 -2.2 -2.2 -2.2 -2.2 -2.2 -2.2 -2.2 -2.2 -2.2 -2.2 -2.2 -2.2 -2.2 -2.2 -2.2 -2.2 -2.2 -2.2 -2.2 -2.2 -2.2 -2.2 -2.2 -2.2 -2.2 -2.2 -2.2 -2.2 -2.2 -2.2 -2.2 -2.2 -2.2 -2.2
-2.2 -2.2 -2.2 -2.2 -2.2 -2.2 -2.2 -2.2 -2.2 -2.2 -2.2 -2.2 -2.2 -2.2 -2.2 -2.2 -2.2 -2.2 -2.2 -2.2 -2.2 -2.2 -2.2 -2.2 -2.2 -2.2 -2.2 -2.2 -2.2 -2.2 -2.2 -2.2 -2.2 -2.2 -2.2 -2.2 -2.2 -2.2 -2.2 -2.2 -2.2 -2.2 -2.2 -2.2 -2.2 -2.2 -2.2 -2.2 -2.2 -2.2 -2.2 -2.2 -2.2 -2.2 -2.2 -2.2 -2.2 -2.2 -2.2 -2.2 -2.2 -2.2 -2.2 -2.2 -2.2 -2.2 -2.2 -2.2 -2.2 -2.2 -2.2 -2.2 -2.2 -2.2 -2.2 -2.2 -2.2 -2.2 -2.2 -2.2 -2.2 -2.2 -2.2 -2.2 -2.2 -2.2 -2.2 -2.2 -2.2 -2.2 -2.2 -2.2 -2.2 -2.2 -2.2 -2.2 -2.2 -2.2 -2.2 -2.2 -2.2 -2.2 -2.2 -2.2 -2.2 -2.2 -2.2 -2.2 -2.2 -2.2 -2.2 -2.2 -2.2 -2.2 -2.2 -2.2 -2.2 -2.2 -2.2 -2.2 -2.2 -2.2 -2.2 -2.2 -2.2 -2.2 -2.2 -2.2 -2.2 -2.2 -2.2 -2.2 -2.2 -2.2 -2.2 -2.2 -2.2 -2.2 -2.2 -2.2 -2.2 -2.2 -2.2 -2.2 -2.2 -2.2 -2.2 -2.2 -2.2 -2.2 -2.2 -2.2 -2.2 -2.2 -2.2 -2.2 -2.2 -2.2 -2.2 -2.2 -2.2 -2.2 -2.2 -2.2 -2.2 -2.2 -2.2 -2.2 -2.2 -2.2 -2.2 -2.2 -2.2 -2.2 -2.2 -2.2 -2.2 -2.2 -2.2 -2.2 -2.2 -2.2 -2.2 -2.2 -2.2 -2.2 -2.2 -2.2 -2.2 -2.2 -2.2 -2.2 -2.2 -2.2 -2.2 -2.2 -2.2 -2.2 -2.2 -2.2
-2.2 -2.2 -2.2 -2.2 -2.2 -2.2 -2.2 -2.2 -2.2 -2.2 -2.2 -2.2 -2.2 -2.2 -2.2 -2.2 -2.2 -2.2 -2.2 -2.2 -2.2 -2.2 -2.2 -2.2 -2.2 -2.2 -2.2 -2.2 -2.2 -2.2 -2.2 -2.2 -2.2 -2.2 -2.2 -2.2 -2.2 -2.2 -2.2 -2.2 -2.2 -2.2 -2.2 -2.2 -2.2 -2.2 -2.2 -2.2 -2.2 -2.2 -2.2 -2.2 -2.2 -2.2 -2.2 -2.2 -2.2 -2.2 -2.2 -2.2 -2.2 -2.2 -2.2 -2.2 -2.2 -2.2 -2.2 -2.2 -2.2 -2.2 -2.2 -2.2 -2.2 -2.2 -2.2 -2.2 -2.2 -2.2 -2.2 -2.2 -2.2 -2.2 -2.2 -2.2 -2.2 -2.2 -2.2 -2.2 -2.2 -2.2 -2.2 -2.2 -2.2 -2.2 -2.2 -2.2 -2.2 -2.2 -2.2 -2.2 -2.2 -2.2 -2.2 -2.2 -2.2 -2.2 -2.2 -2.2 -2.2 -2.2 -2.2 -2.2 -2.2 -2.2 -2.2 -2.2 -2.2 -2.2 -2.2 -2.2 -2.2 -2.2 -2.2 -2.2 -2.2 -2.2 -2.2 -2.2 -2.2 -2.2 -2.2 -2.2 -2.2 -2.2 -2.2 -2.2 -2.2 -2.2 -2.2 -2.2 -2.2 -2.2 -2.2 -2.2 -2.2 -2.2 -2.2 -2.2 -2.2 -2.2 -2.2 -2.2 -2.2 -2.2 -2.2 -2.2 -2.2 -2.2 -2.2 -2.2 -2.2 -2.2 -2.2 -2.2 -2.2 -2.2 -2.2 -2.2 -2.2 -2.2 -2.2 -2.2 -2.2 -2.2 -2.2 -2.2 -2.2 -2.2 -2.2 -2.2 -2.2 -2.2 -2.2 -2.2 -2.2 -2.2 -2.2 -2.2 -2.2 -2.2 -2.2 -2.2 -2.2 -2.2 -2.2 -2.2 -2.2 -2.2 -2.2 -2.2
-2.2 -2.2 -2.2 -2.2 -2.2 -2.2 -2.2 -2.2 -2.2 -2.2 -2.2 -2.2 -2.2 -2.2 -2.2 -2.2 -2.2 -2.2 -2.2 -2.2 -2.2 -2.2 -2.2 -2.2 -2.2 -2.2 -2.2 -2.2 -2.2 -2.2 -2.2 -2.2 -2.2 -2.2 -2.2 -2.2 -2.2 -2.2 -2.2 -2.2 -2.2 -2.2 -2.2 -2.2 -2.2 -2.2 -2.2 -2.2 -2.2 -2.2 -2.2 -2.2 -2.2 -2.2 -2.2 -2.2 -2.2 -2.2 -2.2 -2.2 -2.2 -2.2 -2.2 -2.2 -2.2 -2.2 -2.2 -2.2 -2.2 -2.2 -2.2 -2.2 -2.2 -2.2 -2.2 -2.2 -2.2 -2.2 -2.2 -2.2 -2.2 -2.2 -2.2 -2.2 -2.2 -2.2 -2.2 -2.2 -2.2 -2.2 -2.2 -2.2 -2.2 -2.2 -2.2 -2.2 -2.2 -2.2 -2.2 -2.2 -2.2 -2.2 -2.2 -2.2 -2.2 -2.2 -2.2 -2.2 -2.2 -2.2 -2.2 -2.2 -2.2 -2.2 -2.2 -2.2 -2.2 -2.2 -2.2 -2.2 -2.2 -2.2 -2.2 -2.2 -2.2 -2.2 -2.2 -2.2 -2.2 -2.2 -2.2 -2.2 -2.2 -2.2 -2.2 -2.2 -2.2 -2.2 -2.2 -2.2 -2.2 -2.2 -2.2 -2.2 -2.2 -2.2 -2.2 -2.2 -2.2 -2.2 -2.2 -2.2 -2.2 -2.2 -2.2 -2.2 -2.2 -2.2 -2.2 -2.2 -2.2 -2.2 -2.2 -2.2 -2.2 -2.2 -2.2 -2.2 -2.2 -2.2 -2.2 -2.2 -2.2 -2.2 -2.2 -2.2 -2.2 -2.2 -2.2 -2.2 -2.2 -2.2 -2.2 -2.2 -2.2 -2.2 -2.2 -2.2 -2.2 -2.2 -2.2 -2.2 -2.2 -2.2 -2.2 -2.2 -2.2 -2.2 -2.2 -2.2
-2.2 -2.2 -2.2 -2.2 -2.2 -2.2 -2.2 -2.2 -2.2 -2.2 -2.2 -2.2 -2.2 -2.2 -2.2 -2.2 -2.2 -2.2 -2.2 -2.2 -2.2 -2.2 -2.2 -2.2 -2.2 -2.2 -2.2 -2.2 -2.2 -2.2 -2.2 -2.2 -2.2 -2.2 -2.2 -2.2 -2.2 -2.2 -2.2 -2.2 -2.2 -2.2 -2.2 -2.2 -2.2 -2.2 -2.2 -2.2 -2.2 -2.2 -2.2 -2.2 -2.2 -2.2 -2.2 -2.2 -2.2 -2.2 -2.2 -2.2 -2.2 -2.2 -2.2 -2.2 -2.2 -2.2 -2.2 -2.2 -2.2 -2.2 -2.2 -2.2 -2.2 -2.2 -2.2 -2.2 -2.2 -2.2 -2.2 -2.2 -2.2 -2.2 -2.2 -2.2 -2.2 -2.2 -2.2 -2.2 -2.2 -2.2 -2.2 -2.2 -2.2 -2.2 -2.2 -2.2 -2.2 -2.2 -2.2 -2.2 -2.2 -2.2 -2.2 -2.2 -2.2 -2.2 -2.2 -2.2 -2.2 -2.2 -2.2 -2.2 -2.2 -2.2 -2.2 -2.2 -2.2 -2.2 -2.2 -2.2 -2.2 -2.2 -2.2 -2.2 -2.2 -2.2 -2.2 -2.2 -2.2 -2.2 -2.2 -2.2 -2.2 -2.2 -2.2 -2.2 -2.2 -2.2 -2.2 -2.2 -2.2 -2.2 -2.2 -2.2 -2.2 -2.2 -2.2 -2.2 -2.2 -2.2 -2.2 -2.2 -2.2 -2.2 -2.2 -2.2 -2.2 -2.2 -2.2 -2.2 -2.2 -2.2 -2.2 -2.2 -2.2 -2.2 -2.2 -2.2 -2.2 -2.2 -2.2 -2.2 -2.2 -2.2 -2.2 -2.2 -2.2 -2.2 -2.2 -2.2 -2.2 -2.2 -2.2 -2.2 -2.2 -2.2 -2.2 -2.2 -2.2 -2.2 -2.2 -2.2 -2.2 -2.2 -2.2 -2.2 -2.2 -2.2 -2.2 -2.2
-2.2 -2.2 -2.2 -2.2 -2.2 -2.2 -2.2 -2.2 -2.2 -2.2 -2.2 -2.2 -2.2 -2.2 -2.2 -2.2 -2.2 -2.2 -2.2 -2.2 -2.2 -2.2 -2.2 -2.2 -2.2 -2.2 -2.2 -2.2 -2.2 -2.2 -2.2 -2.2 -2.2 -2.2 -2.2 -2.2 -2.2 -2.2 -2.2 -2.2 -2.2 -2.2 -2.2 -2.2 -2.2 -2.2 -2.2 -2.2 -2.2 -2.2 -2.2 -2.2 -2.2 -2.2 -2.2 -2.2 -2.2 -2.2 -2.2 -2.2 -2.2 -2.2 -2.2 -2.2 -2.2 -2.2 -2.2 -2.2 -2.2 -2.2 -2.2 -2.2 -2.2 -2.2 -2.2 -2.2 -2.2 -2.2 -2.2 -2.2 -2.2 -2.2 -2.2 -2.2 -2.2 -2.2 -2.2 -2.2 -2.2 -2.2 -2.2 -2.2 -2.2 -2.2 -2.2 -2.2 -2.2 -2.2 -2.2 -2.2 -2.2 -2.2 -2.2 -2.2 -2.2 -2.2 -2.2 -2.2 -2.2 -2.2 -2.2 -2.2 -2.2 -2.2 -2.2 -2.2 -2.2 -2.2 -2.2 -2.2 -2.2 -2.2 -2.2 -2.2 -2.2 -2.2 -2.2 -2.2 -2.2 -2.2 -2.2 -2.2 -2.2 -2.2 -2.2 -2.2 -2.2 -2.2 -2.2 -2.2 -2.2 -2.2 -2.2 -2.2 -2.2 -2.2 -2.2 -2.2 -2.2 -2.2 -2.2 -2.2 -2.2 -2.2 -2.2 -2.2 -2.2 -2.2 -2.2 -2.2 -2.2 -2.2 -2.2 -2.2 -2.2 -2.2 -2.2 -2.2 -2.2 -2.2 -2.2 -2.2 -2.2 -2.2 -2.2 -2.2 -2.2 -2.2 -2.2 -2.2 -2.2 -2.2 -2.2 -2.2 -2.2 -2.2 -2.2 -2.2 -2.2 -2.2 -2.2 -2.2 -2.2 -2.2 -2.2 -2.2 -2.2 -2.2 -2.2 -2.2
-2.2 -2.2 -2.2 -2.2 -2.2 -2.2 -2.2 -2.2 -2.2 -2.2 -2.2 -2.2 -2.2 -2.2 -2.2 -2.2 -2.2 -2.2 -2.2 -2.2 -2.2 -2.2 -2.2 -2.2 -2.2 -2.2 -2.2 -2.2 -2.2 -2.2 -2.2 -2.2 -2.2 -2.2 -2.2 -2.2 -2.2 -2.2 -2.2 -2.2 -2.2 -2.2 -2.2 -2.2 -2.2 -2.2 -2.2 -2.2 -2.2 -2.2 -2.2 -2.2 -2.2 -2.2 -2.2 -2.2 -2.2 -2.2 -2.2 -2.2 -2.2 -2.2 -2.2 -2.2 -2.2 -2.2 -2.2 -2.2 -2.2 -2.2 -2.2 -2.2 -2.2 -2.2 -2.2 -2.2 -2.2 -2.2 -2.2 -2.2 -2.2 -2.2 -2.2 -2.2 -2.2 -2.2 -2.2 -2.2 -2.2 -2.2 -2.2 -2.2 -2.2 -2.2 -2.2 -2.2 -2.2 -2.2 -2.2 -2.2 -2.2 -2.2 -2.2 -2.2 -2.2 -2.2 -2.2 -2.2 -2.2 -2.2 -2.2 -2.2 -2.2 -2.2 -2.2 -2.2 -2.2 -2.2 -2.2 -2.2 -2.2 -2.2 -2.2 -2.2 -2.2 -2.2 -2.2 -2.2 -2.2 -2.2 -2.2 -2.2 -2.2 -2.2 -2.2 -2.2 -2.2 -2.2 -2.2 -2.2 -2.2 -2.2 -2.2 -2.2 -2.2 -2.2 -2.2 -2.2 -2.2 -2.2 -2.2 -2.2 -2.2 -2.2 -2.2 -2.2 -2.2 -2.2 -2.2 -2.2 -2.2 -2.2 -2.2 -2.2 -2.2 -2.2 -2.2 -2.2 -2.2 -2.2 -2.2 -2.2 -2.2 -2.2 -2.2 -2.2 -2.2 -2.2 -2.2 -2.2 -2.2 -2.2 -2.2 -2.2 -2.2 -2.2 -2.2 -2.2 -2.2 -2.2 -2.2 -2.2 -2.2 -2.2 -2.2 -2.2 -2.2 -2.2 -2.2 -2.2
-2.2 -2.2 -2.2 -2.2 -2.2 -2.2 -2.2 -2.2 -2.2 -2.2 -2.2 -2.2 -2.2 -2.2 -2.2 -2.2 -2.2 -2.2 -2.2 -2.2 -2.2 -2.2 -2.2 -2.2 -2.2 -2.2 -2.2 -2.2 -2.2 -2.2 -2.2 -2.2 -2.2 -2.2 -2.2 -2.2 -2.2 -2.2 -2.2 -2.2 -2.2 -2.2 -2.2 -2.2 -2.2 -2.2 -2.2 -2.2 -2.2 -2.2 -2.2 -2.2 -2.2 -2.2 -2.2 -2.2 -2.2 -2.2 -2.2 -2.2 -2.2 -2.2 -2.2 -2.2 -2.2 -2.2 -2.2 -2.2 -2.2 -2.2 -2.2 -2.2 -2.2 -2.2 -2.2 -2.2 -2.2 -2.2 -2.2 -2.2 -2.2 -2.2 -2.2 -2.2 -2.2 -2.2 -2.2 -2.2 -2.2 -2.2 -2.2 -2.2 -2.2 -2.2 -2.2 -2.2 -2.2 -2.2 -2.2 -2.2 -2.2 -2.2 -2.2 -2.2 -2.2 -2.2 -2.2 -2.2 -2.2 -2.2 -2.2 -2.2 -2.2 -2.2 -2.2 -2.2 -2.2 -2.2 -2.2 -2.2 -2.2 -2.2 -2.2 -2.2 -2.2 -2.2 -2.2 -2.2 -2.2 -2.2 -2.2 -2.2 -2.2 -2.2 -2.2 -2.2 -2.2 -2.2 -2.2 -2.2 -2.2 -2.2 -2.2 -2.2 -2.2 -2.2 -2.2 -2.2 -2.2 -2.2 -2.2 -2.2 -2.2 -2.2 -2.2 -2.2 -2.2 -2.2 -2.2 -2.2 -2.2 -2.2 -2.2 -2.2 -2.2 -2.2 -2.2 -2.2 -2.2 -2.2 -2.2 -2.2 -2.2 -2.2 -2.2 -2.2 -2.2 -2.2 -2.2 -2.2 -2.2 -2.2 -2.2 -2.2 -2.2 -2.2 -2.2 -2.2 -2.2 -2.2 -2.2 -2.2 -2.2 -2.2 -2.2 -2.2 -2.2 -2.2 -2.2 -2.2
-2.2 -2.2 -2.2 -2.2 -2.2 -2.2 -2.2 -2.2 -2.2 -2.2 -2.2 -2.2 -2.2 -2.2 -2.2 -2.2 -2.2 -2.2 -2.2 -2.2 -2.2 -2.2 -2.2 -2.2 -2.2 -2.2 -2.2 -2.2 -2.2 -2.2 -2.2 -2.2 -2.2 -2.2 -2.2 -2.2 -2.2 -2.2 -2.2 -2.2 -2.2 -2.2 -2.2 -2.2 -2.2 -2.2 -2.2 -2.2 -2.2 -2.2 -2.2 -2.2 -2.2 -2.2 -2.2 -2.2 -2.2 -2.2 -2.2 -2.2 -2.2 -2.2 -2.2 -2.2 -2.2 -2.2 -2.2 -2.2 -2.2 -2.2 -2.2 -2.2 -2.2 -2.2 -2.2 -2.2 -2.2 -2.2 -2.2 -2.2 -2.2 -2.2 -2.2 -2.2 -2.2 -2.2 -2.2 -2.2 -2.2 -2.2 -2.2 -2.2 -2.2 -2.2 -2.2 -2.2 -2.2 -2.2 -2.2 -2.2 -2.2 -2.2 -2.2 -2.2 -2.2 -2.2 -2.2 -2.2 -2.2 -2.2 -2.2 -2.2 -2.2 -2.2 -2.2 -2.2 -2.2 -2.2 -2.2 -2.2 -2.2 -2.2 -2.2 -2.2 -2.2 -2.2 -2.2 -2.2 -2.2 -2.2 -2.2 -2.2 -2.2 -2.2 -2.2 -2.2 -2.2 -2.2 -2.2 -2.2 -2.2 -2.2 -2.2 -2.2 -2.2 -2.2 -2.2 -2.2 -2.2 -2.2 -2.2 -2.2 -2.2 -2.2 -2.2 -2.2 -2.2 -2.2 -2.2 -2.2 -2.2 -2.2 -2.2 -2.2 -2.2 -2.2 -2.2 -2.2 -2.2 -2.2 -2.2 -2.2 -2.2 -2.2 -2.2 -2.2 -2.2 -2.2 -2.2 -2.2 -2.2 -2.2 -2.2 -2.2 -2.2 -2.2 -2.2 -2.2 -2.2 -2.2 -2.2 -2.2 -2.2 -2.2 -2.2 -2.2 -2.2 -2.2 -2.2 -2.2
-2.2 -2.2 -2.2 -2.2 -2.2 -2.2 -2.2 -2.2 -2.2 -2.2 -2.2 -2.2 -2.2 -2.2 -2.2 -2.2 -2.2 -2.2 -2.2 -2.2 -2.2 -2.2 -2.2 -2.2 -2.2 -2.2 -2.2 -2.2 -2.2 -2.2 -2.2 -2.2 -2.2 -2.2 -2.2 -2.2 -2.2 -2.2 -2.2 -2.2 -2.2 -2.2 -2.2 -2.2 -2.2 -2.2 -2.2 -2.2 -2.2 -2.2 -2.2 -2.2 -2.2 -2.2 -2.2 -2.2 -2.2 -2.2 -2.2 -2.2 -2.2 -2.2 -2.2 -2.2 -2.2 -2.2 -2.2 -2.2 -2.2 -2.2 -2.2 -2.2 -2.2 -2.2 -2.2 -2.2 -2.2 -2.2 -2.2 -2.2 -2.2 -2.2 -2.2 -2.2 -2.2 -2.2 -2.2 -2.2 -2.2 -2.2 -2.2 -2.2 -2.2 -2.2 -2.2 -2.2 -2.2 -2.2 -2.2 -2.2 -2.2 -2.2 -2.2 -2.2 -2.2 -2.2 -2.2 -2.2 -2.2 -2.2 -2.2 -2.2 -2.2 -2.2 -2.2 -2.2 -2.2 -2.2 -2.2 -2.2 -2.2 -2.2 -2.2 -2.2 -2.2 -2.2 -2.2 -2.2 -2.2 -2.2 -2.2 -2.2 -2.2 -2.2 -2.2 -2.2 -2.2 -2.2 -2.2 -2.2 -2.2 -2.2 -2.2 -2.2 -2.2 -2.2 -2.2 -2.2 -2.2 -2.2 -2.2 -2.2 -2.2 -2.2 -2.2 -2.2 -2.2 -2.2 -2.2 -2.2 -2.2 -2.2 -2.2 -2.2 -2.2 -2.2 -2.2 -2.2 -2.2 -2.2 -2.2 -2.2 -2.2 -2.2 -2.2 -2.2 -2.2 -2.2 -2.2 -2.2 -2.2 -2.2 -2.2 -2.2 -2.2 -2.2 -2.2 -2.2 -2.2 -2.2 -2.2 -2.2 -2.2 -2.2 -2.2 -2.2 -2.2 -2.2 -2.2 -2.2
-2.2 -2.2 -2.2 -2.2 -2.2 -2.2 -2.2 -2.2 -2.2 -2.2 -2.2 -2.2 -2.2 -2.2 -2.2 -2.2 -2.2 -2.2 -2.2 -2.2 -2.2 -2.2 -2.2 -2.2 -2.2 -2.2 -2.2 -2.2 -2.2 -2.2 -2.2 -2.2 -2.2 -2.2 -2.2 -2.2 -2.2 -2.2 -2.2 -2.2 -2.2 -2.2 -2.2 -2.2 -2.2 -2.2 -2.2 -2.2 -2.2 -2.2 -2.2 -2.2 -2.2 -2.2 -2.2 -2.2 -2.2 -2.2 -2.2 -2.2 -2.2 -2.2 -2.2 -2.2 -2.2 -2.2 -2.2 -2.2 -2.2 -2.2 -2.2 -2.2 -2.2 -2.2 -2.2 -2.2 -2.2 -2.2 -2.2 -2.2 -2.2 -2.2 -2.2 -2.2 -2.2 -2.2 -2.2 -2.2 -2.2 -2.2 -2.2 -2.2 -2.2 -2.2 -2.2 -2.2 -2.2 -2.2 -2.2 -2.2 -2.2 -2.2 -2.2 -2.2 -2.2 -2.2 -2.2 -2.2 -2.2 -2.2 -2.2 -2.2 -2.2 -2.2 -2.2 -2.2 -2.2 -2.2 -2.2 -2.2 -2.2 -2.2 -2.2 -2.2 -2.2 -2.2 -2.2 -2.2 -2.2 -2.2 -2.2 -2.2 -2.2 -2.2 -2.2 -2.2 -2.2 -2.2 -2.2 -2.2 -2.2 -2.2 -2.2 -2.2 -2.2 -2.2 -2.2 -2.2 -2.2 -2.2 -2.2 -2.2 -2.2 -2.2 -2.2 -2.2 -2.2 -2.2 -2.2 -2.2 -2.2 -2.2 -2.2 -2.2 -2.2 -2.2 -2.2 -2.2 -2.2 -2.2 -2.2 -2.2 -2.2 -2.2 -2.2 -2.2 -2.2 -2.2 -2.2 -2.2 -2.2 -2.2 -2.2 -2.2 -2.2 -2.2 -2.2 -2.2 -2.2 -2.2 -2.2 -2.2 -2.2 -2.2 -2.2 -2.2 -2.2 -2.2 -2.2 -2.2
-2.2 -2.2 -2.2 -2.2 -2.2 -2.2 -2.2 -2.2 -2.2 -2.2 -2.2 -2.2 -2.2 -2.2 -2.2 -2.2 -2.2 -2.2 -2.2 -2.2 -2.2 -2.2 -2.2 -2.2 -2.2 -2.2 -2.2 -2.2 -2.2 -2.2 -2.2 -2.2 -2.2 -2.2 -2.2 -2.2 -2.2 -2.2 -2.2 -2.2 -2.2 -2.2 -2.2 -2.2 -2.2 -2.2 -2.2 -2.2 -2.2 -2.2 -2.2 -2.2 -2.2 -2.2 -2.2 -2.2 -2.2 -2.2 -2.2 -2.2 -2.2 -2.2 -2.2 -2.2 -2.2 -2.2 -2.2 -2.2 -2.2 -2.2 -2.2 -2.2 -2.2 -2.2 -2.2 -2.2 -2.2 -2.2 -2.2 -2.2 -2.2 -2.2 -2.2 -2.2 -2.2 -2.2 -2.2 -2.2 -2.2 -2.2 -2.2 -2.2 -2.2 -2.2 -2.2 -2.2 -2.2 -2.2 -2.2 -2.2 -2.2 -2.2 -2.2 -2.2 -2.2 -2.2 -2.2 -2.2 -2.2 -2.2 -2.2 -2.2 -2.2 -2.2 -2.2 -2.2 -2.2 -2.2 -2.2 -2.2 -2.2 -2.2 -2.2 -2.2 -2.2 -2.2 -2.2 -2.2 -2.2 -2.2 -2.2 -2.2 -2.2 -2.2 -2.2 -2.2 -2.2 -2.2 -2.2 -2.2 -2.2 -2.2 -2.2 -2.2 -2.2 -2.2 -2.2 -2.2 -2.2 -2.2 -2.2 -2.2 -2.2 -2.2 -2.2 -2.2 -2.2 -2.2 -2.2 -2.2 -2.2 -2.2 -2.2 -2.2 -2.2 -2.2 -2.2 -2.2 -2.2 -2.2 -2.2 -2.2 -2.2 -2.2 -2.2 -2.2 -2.2 -2.2 -2.2 -2.2 -2.2 -2.2 -2.2 -2.2 -2.2 -2.2 -2.2 -2.2 -2.2 -2.2 -2.2 -2.2 -2.2 -2.2 -2.2 -2.2 -2.2 -2.2 -2.2 -2.2
-2.2 -2.2 -2.2 -2.2 -2.2 -2.2 -2.2 -2.2 -2.2 -2.2 -2.2 -2.2 -2.2 -2.2 -2.2 -2.2 -2.2 -2.2 -2.2 -2.2 -2.2 -2.2 -2.2 -2.2 -2.2 -2.2 -2.2 -2.2 -2.2 -2.2 -2.2 -2.2 -2.2 -2.2 -2.2 -2.2 -2.2 -2.2 -2.2 -2.2 -2.2 -2.2 -2.2 -2.2 -2.2 -2.2 -2.2 -2.2 -2.2 -2.2 -2.2 -2.2 -2.2 -2.2 -2.2 -2.2 -2.2 -2.2 -2.2 -2.2 -2.2 -2.2 -2.2 -2.2 -2.2 -2.2 -2.2 -2.2 -2.2 -2.2 -2.2 -2.2 -2.2 -2.2 -2.2 -2.2 -2.2 -2.2 -2.2 -2.2 -2.2 -2.2 -2.2 -2.2 -2.2 -2.2 -2.2 -2.2 -2.2 -2.2 -2.2 -2.2 -2.2 -2.2 -2.2 -2.2 -2.2 -2.2 -2.2 -2.2 -2.2 -2.2 -2.2 -2.2 -2.2 -2.2 -2.2 -2.2 -2.2 -2.2 -2.2 -2.2 -2.2 -2.2 -2.2 -2.2 -2.2 -2.2 -2.2 -2.2 -2.2 -2.2 -2.2 -2.2 -2.2 -2.2 -2.2 -2.2 -2.2 -2.2 -2.2 -2.2 -2.2 -2.2 -2.2 -2.2 -2.2 -2.2 -2.2 -2.2 -2.2 -2.2 -2.2 -2.2 -2.2 -2.2 -2.2 -2.2 -2.2 -2.2 -2.2 -2.2 -2.2 -2.2 -2.2 -2.2 -2.2 -2.2 -2.2 -2.2 -2.2 -2.2 -2.2 -2.2 -2.2 -2.2 -2.2 -2.2 -2.2 -2.2 -2.2 -2.2 -2.2 -2.2 -2.2 -2.2 -2.2 -2.2 -2.2 -2.2 -2.2 -2.2 -2.2 -2.2 -2.2 -2.2 -2.2 -2.2 -2.2 -2.2 -2.2 -2.2 -2.2 -2.2 -2.2 -2.2 -2.2 -2.2 -2.2 -2.2
