ncols 200
nrows 82
xllcorner 250000
yllcorner 882750
cellsize 50
331.6 334.7 338.1 342.1 348.2 356 363.3 370.6 377.6 386.3 393.8 400.7 409.6 418 427.3 437.2 448.5 458.7 469.2 478.9 487 494.1 506.2 517.9 523.9 527.3 529.5 532.2 535.3 536.3 536.7 538.3 538.7 538.7 540.8 538.5 531.6 523 514.6 509.7 503.7 496.7 494.6 496.6 501.8 505.9 510.7 514.5 513.7 511.7 507.4 501.4 500.2 499.2 493.3 485.7 478.6 467.4 455 447.7 446.3 451.4 461.1 462.2 457.8 458.8 464.4 470.9 476.5 484.7 488 489.1 486.4 486 485.7 483.4 479 479.8 480.5 479.1 479.1 480.7 480 482.5 485.6 490.4 490.6 485.5 481.6 477.8 477.9 474.3 466.8 458.5 451 447 443.5 437.1 429 426.9 429.8 429.4 427.5 423.2 416.9 409.8 402.2 392 384.8 375.8 364.7 355.2 347.4 337.3 324.8 314.6 308.8 302.3 298.4 295.1 290.9 286.1 279.4 275.8 272.3 268.7 264.3 259.6 256.6 254.2 251.8 249.5 246.5 244.1 241.2 238.5 235.7 233.3 231.7 228.6 225.2 223.9 222.3 219.3 226.3 226 227.8 229.4 231.4 232.8 234.2 235.4 236.5 237.4 238.7 239.7 240.3 241.1 242.5 243.5 244.1 244.3 244.4 244.6 244.6 244.4 244.2 244 243.9 243.9 244.1 243.8 242.9 241.7 238.7 235 229.3 227.5 225.8 224.1 221.8 220.1 218.9 217.6 218.8 219.4 221.2 222.8 222.5 221.3 220.3 220.2 220.8 221.1 223 224.9 228.2 229.4 231.6 233.2
332 335.4 339.1 342.9 348.9 356 363.4 370.5 377.8 386.6 394.2 401.5 409.5 418.1 426.8 437.1 447.7 458.1 467.9 477.1 485.1 491.9 501.5 509.9 516.6 521.6 526.5 528.8 530.3 532.9 536.2 541 541.6 536.8 534 537 530.5 518.1 504.7 496.6 492.3 489.7 489.3 489.9 491 495.6 498.8 500 501.6 501.8 499.8 498.5 498 496.4 489.1 480.3 471.7 464.3 449.7 442.7 442.7 452.6 454.5 454 451.6 453.7 459 464.8 469.3 475.3 477.5 475.3 476.8 478.9 480.5 476.9 476.8 476.9 476.3 476.9 479.5 482.6 484.5 484.9 484.1 484.9 482.2 478.5 471.9 474.4 471.7 464.1 456.5 448.7 444 442.7 438.7 433.8 430 426.8 425.6 424.1 420.7 417.2 411.2 403.8 396.1 391.5 383.8 378.7 369.7 361.1 353.3 346.1 336.9 328.2 319.9 312.8 306.9 303.9 299.1 294.2 287.4 281 276.3 272.6 268.4 262.9 258.7 256.1 254.1 252.1 249 246.9 244 241.1 239.2 237 234.7 231.9 229 226.4 224.4 222.8 224.3 227.2 229.5 231.4 233.2 234.3 235.6 237 238.5 239.6 240.8 241.9 242.6 243.7 245 246.4 247 247.4 247.6 247.8 247.8 246.9 246.1 245.7 245.4 245 244.3 243.3 241.6 240.1 237.1 233.5 229.8 226.6 224.1 222.3 220.6 219 217.7 216.8 215.9 215.7 218.4 221.1 223.4 223.4 222.8 222.7 222.7 224.8 226.4 227.5 228.2 230.8 232.4 228.8
332 336.1 339.6 343.7 348.7 355.4 362.5 370 378.1 386.8 393.7 400.8 409.2 417.8 427 436.8 447 456.7 465.2 474.6 482.4 489.6 496.6 503.1 507.8 517.5 522 520.3 524.6 533.9 542.6 543.4 540 533.1 521.1 514.1 508.9 501.3 492.6 486.7 482.5 478.2 476.6 476.5 478.3 481.4 486 489 491.8 492.5 493.4 492.3 491.3 487.6 481 475.7 469.8 460 445.7 438.8 439.9 447.1 449.8 449 446.2 447.4 450.7 457 460.5 463.5 464.9 465.4 466.4 469.5 469 469 470.3 471.5 471.4 475.8 481.6 484.9 485.3 480.6 477.8 475.9 473.1 466.8 468.6 467.4 460.3 454.2 447.4 441.9 439.7 438.8 439.5 433.1 427.5 426.1 426.2 425.4 420.3 415.7 407.9 401.4 394.7 387.8 381.5 378.1 373.6 368.4 361.3 355 347.1 340.3 330.8 324.2 318.3 314.6 308.3 300.3 294.6 288.1 281.3 277.3 272.2 267.3 262.7 259.5 257 254.7 250.9 248.8 246.3 243.4 241.5 239.6 237.8 235.2 231.7 228.6 226 226.6 228.1 230 232.3 233.7 235.5 236.8 238.2 239.8 241.1 242.1 243.3 244.8 245.6 246.4 247.6 248.4 249.4 249.8 250.1 250.3 250.1 249.2 248.1 247.2 246.4 245.4 244.5 242.6 240.6 238.6 235.8 232.6 228 225.1 222.3 220.5 218.9 217.3 216.2 215.3 214.4 213.8 215.3 218 221 221.9 222.3 222.7 226 226.5 223.8 220.5 218.2 217 213.5 209.5
332.8 337.5 340.5 344.3 348.6 355.4 362.4 369.9 377.8 386.2 393.5 400.4 408.5 417.3 427.1 436.1 445.7 455.2 463.9 472.7 480.6 488.2 494.5 498.6 501 503.7 507.3 512.1 519.5 530.9 537.2 537.8 534 522.4 511.7 502.4 496 488.2 482.9 475.8 472.5 470.1 467.4 467.9 468.9 471.9 475.5 479.1 483 484.8 484.5 484.3 482.8 478.4 472.3 468.4 462.3 449.9 436.9 433 437.6 441.2 443.1 439.7 437.7 439.3 442.2 447 451.2 454 455.3 456.3 458.2 460 460 460.2 463 465.5 468.5 474.4 479.3 480.7 478.3 474.2 471.4 468.7 462.5 458.8 455.7 456.4 449.6 443.9 440 436.6 438.1 438.4 436.1 428.4 426.6 427.7 426.1 425.3 422.2 414.5 406.3 399.8 393.2 387.2 381 379 379.5 373.8 366.6 360.5 354.2 347.1 339.5 331.6 326.4 323.7 317.8 311.3 303.8 296.2 289.5 283.3 277.2 272.4 268.1 264.2 260.6 257.3 253.9 251.8 249.6 246.1 243.6 241.5 239.7 238.3 233.5 229.9 226.4 229.3 231.2 232.9 235.5 236.8 238.1 239.3 240.6 242 243.3 244.6 245.9 247.6 248.6 249.3 250.2 251.1 252.1 252.4 252.5 252.1 251.2 250.2 249.1 248 247.2 245.9 243.8 241.2 238.5 236.2 235.6 231.4 227 225.2 221.2 218.7 217.1 215.8 214.7 213.8 212.8 212.1 211.6 213.3 216.3 217.3 218 218.3 218.9 218.8 215 210.5 207.6 203.9 198.3 195.3
333.8 337.2 340.3 343.8 348.8 355 361.9 369.5 377.4 385.6 393.3 400.9 408.7 416.9 426.2 436 444.8 453.4 462.4 471.8 479.4 487 492.3 496.1 497.7 499.1 500.2 503.5 510 517 522 521.9 514.1 505.5 497.3 489.3 481.7 475.8 468.4 465.4 462.3 459.2 457.7 457 459.4 463.5 467.1 472.7 477.7 475.3 472.7 474 472.8 471.5 465.4 457.2 448 434.4 428.4 429.2 432.3 431.5 431.8 430.9 430.2 431.7 435.2 440.7 444.7 447.6 449.7 450.9 451.8 452.1 451.2 454.6 458.3 460.8 466.9 471.6 473.3 473.6 471 466 462.5 457.8 456.1 449.5 446.5 444.3 439.8 438.4 435.8 435.5 436.5 436 429 427 431 426.5 426.3 429.1 422.9 415 407.4 400.1 393.1 386 380.8 376.5 375.7 372.2 368.4 365.4 359 351.7 346.5 339.2 332.5 329.8 325.1 320.2 312.3 304.4 297.8 289.6 282.8 277 273.1 268.7 264.5 261 257.9 255.7 253.6 250.5 247.1 243.5 242.1 240.6 235.2 231.7 228.8 232 233.5 236.9 238.7 240 240.8 241.6 242.4 243.7 245.1 246.4 248 249.7 250.7 252.1 253.3 254.3 255 255.8 256 255.1 252.9 251.3 250.1 248.7 247.1 245 242.8 239.5 235.9 232.9 232 229.3 225.3 223.1 221.1 218.2 215.9 214.4 213.3 212.1 211.1 210 209.9 209.7 209 210.4 210.5 210.5 209.6 207.5 204.8 201.3 198.1 193.6 189.2 186.2
334.9 338.3 341.1 344.6 348 352.6 361 368.6 376.8 385.4 393.5 401.8 409.1 417.1 425.7 435.9 444.9 453.5 462.4 470.7 478.7 486.3 493.1 495 495.3 495.4 495.5 498.4 504.2 507.9 508.9 508.3 503.4 497.1 490.9 485 479.5 468.8 461.9 457.2 453.4 449.7 447.7 448.3 451.6 456.3 461.5 465.6 467 461.8 461.8 461.8 461.2 457.1 449.7 443.4 434.3 425.7 421.9 421.7 422.8 423.9 423.3 422.6 423.4 427.6 432 435.6 441.2 443.7 444.6 445.8 446.3 445 447.3 450.6 453.6 458.3 463.1 466.3 467 464.6 459.4 456.7 453.8 453.3 445.8 439.8 435.5 434.7 431 430.8 433.9 434.9 431.8 427.5 426.1 424.7 423.3 423.7 426.4 425.5 423.6 418.1 407.4 399.3 390.4 385.3 381.1 378.8 377.4 376.3 373.7 368.6 362.8 356.5 350.1 343 336.5 332.9 328.3 322.1 316.7 310.4 303 296.8 290.1 283.8 277.6 272.9 268.7 264.9 262 259.8 257.6 255.3 251.6 247.4 245 241.6 236.6 233.2 230.8 232.8 235.7 239 241.1 242.1 243.4 244.3 245.1 246 247.3 248.7 250.4 252.1 253.7 254.9 256 257.1 258 258.6 258.3 256.3 254.3 252.4 250.7 248.5 246.5 244.2 241.7 238.6 234.8 231.6 229.1 227.6 224.9 222.5 220.3 218.2 216 213.9 211.8 210 209 207.5 206 205.8 205.4 204.1 202.8 201.7 199.4 197 195 193.1 190.2 187 183.5 179.8
334.9 338.3 342.5 347.1 351.2 356.1 362.7 370.4 378 386.9 394.1 402.5 411.3 417.9 426.1 436.8 445.3 453 462.3 469.8 476.8 483.7 488.1 490.7 490.7 491.1 491 494.6 501.6 507.2 509.3 510 507.6 503.2 498.6 493.7 486.8 475 465.5 457.4 450.5 446.7 444.3 443 444.8 449 453.5 453.9 452.2 453.2 454.1 454.1 449.7 443.9 437.9 430.8 422.9 418.7 419.2 416.1 415.8 415.3 416 418.7 422.6 425.6 427.7 431.6 435.6 437.2 439.1 440.5 440.6 440.3 442.3 446.8 451.1 455.1 458.8 459.7 457.5 455.8 450.9 449.6 447.7 442.7 437 428.8 425.4 427.2 427.1 428.8 430.4 428.7 427.2 426.3 425 423.4 422.4 418.4 419.5 420.5 416.8 411.4 402.1 397.7 389.7 384 381.8 380.2 378.7 377 374.8 370.2 365.4 359.1 353.7 347.8 341.1 335.8 331.9 328.4 322.1 315.4 309.4 303.9 297.3 290.2 283 277.2 273.1 269.7 266.2 264 261.7 258.7 254.7 250.4 245.6 240.6 236.7 234.6 233 232.6 237.9 240.8 242.9 244.5 246.2 247.3 247.8 248.7 250.2 251.7 253.5 255 256.5 257.5 258.6 259.7 260.3 259.7 258.6 256.9 255.1 253.3 251.3 248.8 246.2 243.3 241.4 237.3 234.4 231 228.7 226.6 224.5 222.2 219.9 217.8 215.4 213 210.7 208.8 206.1 204.4 202.2 201.8 201.3 200.3 199.3 197.5 195.6 193.5 191.1 188.3 186.2 183.1 180.6 176.6
336.3 338.9 343.2 347.4 352 357.3 364.8 373.3 381.1 389.2 396.7 404.9 412.7 419.6 427.6 436.5 444.9 452.6 461.5 468.1 476.6 482.2 485.7 487 487.2 488.4 489.5 494.5 499.9 504.4 507.6 507.8 507.4 504.5 501.6 497.5 488.2 478.7 468.8 460 451.8 445.8 443 440.5 439.5 440.2 441.4 443.6 443.9 444 441.5 438.3 434.1 430.3 428.2 423 417.3 415.5 414.3 413.7 413.9 414.8 416.4 418.3 419.8 422.4 424.2 426.4 427.7 429.6 431.9 432.2 434.5 435.6 440.7 443.7 446.9 449.4 450.9 448.6 446.8 443.4 444 444.1 438.5 432.6 426.7 422.8 422.6 423.3 423.8 425.5 425.5 426 425.9 425.3 423.9 423.1 420.4 417.4 414.5 409.4 406.4 401.6 393.9 390.5 386 382.6 381 380 378.7 376.6 374.2 370.4 365.9 360.6 356.8 351.7 346.2 340.3 336.9 332.5 326 321.1 316.3 311.3 304.4 297.4 289.7 282 276.7 273.3 270.4 268 265.6 261.2 256.5 251.7 246.4 241.8 238 236.3 235.4 235.2 240.1 242.7 244.8 247.3 249.1 249.9 250.5 251.5 252.7 254.1 255.8 257.6 259.3 260.2 261.3 262.2 261.1 259.5 258.2 256.7 255.1 253.6 251.9 249.3 246.9 243.9 241.8 237.7 234 230.4 227.5 225.6 223.6 221.7 219.3 216.9 214.6 212.2 209.7 207.3 204.5 202.1 199.3 197.8 197.3 196.1 195.1 193.8 191.8 189.8 187.7 184.7 182.3 180.4 177.9 174.3
337.3 339.6 344.5 348.5 352.9 358.8 366.7 374.6 383.8 392.1 400.3 408.7 415.8 423.7 430.7 438.7 445.5 453.9 460.8 467.5 474.4 480.3 483 484 485.5 486.3 489.6 493.6 499 502.7 505.5 506.4 505.9 504.7 501.4 496 488.1 480.2 469.4 460 453 446.3 441.9 439.4 437.3 435.8 433.9 433.3 433.6 433.5 432.3 430.8 427.7 425.4 423.4 420.2 416.1 415.3 414.7 412.4 411.4 414 414.8 415.4 416.8 418.6 420.4 421.1 421.9 423.3 424.8 425.9 428.2 431 435 438 438.9 440 440.7 439.4 437.1 437.9 437.5 434 428.8 424.7 422.5 420 417.5 417.8 419 420.2 423.6 424.8 425.1 424.9 423.2 422.9 420 420.5 412.5 404.6 400.4 396 390.9 387.5 384.1 380.4 379.6 378.2 376.6 374.7 372.3 369.7 363.8 361.8 358.9 354.3 350.7 345.1 341 336.9 332.2 327.2 323 319.6 312.1 304.1 296.2 287.6 280.6 276.7 274.5 272.1 267.9 263.5 259 253.4 248.3 243.9 239.7 238 236.1 236.6 241 244.5 247 249.7 251.4 252.2 252.9 253.6 254.6 256.1 257.8 259.5 261.1 262.7 263.1 262.5 260.9 259.3 257.7 256 254.3 253.7 252.4 249.7 247.2 244 242.2 239.4 235.3 231.1 227.9 224.6 222.5 220.6 218.2 215.9 213.6 211.4 208.6 205.6 202.9 200.1 195.7 194.3 193.8 192.2 190.9 190 188.6 187 184.7 182.1 180.2 178.2 175.5 171.4
340.4 341.5 346.2 350 354.6 361 368.7 376.7 386.5 394.4 403.2 412 420.5 427.6 434.9 443.3 450.1 456 462.2 467.3 473.9 478.8 482.2 483.4 483.3 486.4 490.2 493.8 498.9 502 504.9 506.9 507.2 505.2 500.2 494.8 490.1 483.9 474.4 466.2 457.2 448.2 442.2 439.5 438.6 436.2 435.1 432.3 431.1 426.9 423.3 421.7 420.8 419.2 417.4 415.2 412.9 411.5 410.2 409.9 409.2 411.3 412.4 413 414.8 416.7 417.5 418 418.9 420 421.9 424.1 425.3 427.2 429.6 430.6 429.5 429.5 430.6 430.4 430.4 429.7 428.7 425.5 420.3 421.5 419.4 416.8 415.3 414.4 414 419 422.4 424.5 423.7 422.3 420.3 419.6 421.1 416.8 407.7 401.1 395 391.3 387.4 384 381 378.6 378.6 376.4 373.8 371.6 368.7 365.6 361.5 360.6 358.7 355.9 353.5 349.7 346.7 343.5 338.9 333.1 328.2 324 317.1 309.3 301.7 293.7 285.2 280.3 278.6 274.6 270.2 265.8 260.8 255.3 250.3 245.5 241.5 238.1 233.9 238.4 242.7 246 249 251.5 253.8 254.5 255.2 255.9 256.5 257.5 259.2 260.9 262.6 263.7 263.5 262.3 260.7 259 257.4 255.7 253.9 253.2 252.5 250.5 246 244.2 241.6 238.8 235.8 231.9 228 223.3 220.7 218.4 216.1 214.1 212.4 210.4 207 203.8 201.1 198.6 194.8 191.3 190.2 188.5 187 186.6 186.6 185 182.6 180.6 178.9 176.7 173.2 167.5
344.4 340.8 346.6 353.2 356.5 362.5 369.6 379 387.6 396.7 406.3 415.7 423.8 431.7 439.4 447.1 452.7 458.8 465 469.9 475.4 480 482.4 484.3 486.9 489.4 490.6 495.2 499.6 503.3 506.1 509.3 509.1 506.3 499.5 494 488.7 479.7 471.2 464.9 458.8 450.9 444.3 440.1 440 438.7 437.1 437.9 439.1 434.4 426.5 420.4 418 416.5 415.1 412.4 413.1 410.5 409.2 408.5 407.6 409.2 410.1 412.4 413.9 415.2 415.7 415.9 416.9 418.1 419.5 422 422.9 422.9 424.1 424.6 424.9 425.1 425.7 423.7 421.3 421.3 419.7 415.9 420.6 418.4 415.8 413 409.7 406.9 413.7 417.5 419.9 420.7 421.3 419.2 417.9 416.7 411.6 408.1 400.9 398.1 395.2 391 387.8 384.2 381.2 377.9 374.2 372.6 369.8 367.1 364 361.4 358.2 358.8 357 355.4 354.1 353.3 352.2 350.6 345.8 340.3 334 327.5 321 313.7 306 297.7 289.3 283.7 280.9 276.7 272.2 267.6 262.9 257.2 251.6 246.8 242.5 237.9 237.4 241.5 244.6 247.7 250.6 253 254.7 255.4 256.4 257.1 257.8 259 260.5 262.3 264 264.4 263.5 262.2 260.5 258.8 257.2 255.5 253.2 252.5 249.8 247.6 245.3 243 240.7 238.1 235.2 232.1 229 225 220.9 217.8 215.2 212.2 209.6 208.8 205.2 202.3 199.9 197.9 195.7 192.4 189.6 187.6 185.4 183.3 184.3 183.3 182.3 180.6 179 176.2 171.9 167.8
350.6 342.7 346.8 353.5 357.9 363.5 371.6 381.1 390 398.9 409.3 418.7 427.7 435.9 443.7 449.6 456.1 462.1 466.6 471.6 476.6 481.1 485.2 487.9 490.3 493.4 496.2 498.5 502.3 506.6 509.5 511.1 511.7 507.4 500.4 493.1 485.8 476.8 470.4 462.7 455.3 448.9 445.1 441.9 442.1 443.4 445.9 442.9 438.7 432.8 426.4 421 418.2 416.4 415.8 415.3 414 411.3 409.4 408 407.4 408.8 410.7 412.8 413.9 414.6 414.2 414 415.1 415.3 418.3 418.6 418.2 419.7 421.3 421.7 422.1 420.5 420.7 418 413.7 412.7 411.2 412.7 411.2 410.6 406.1 404.5 401.8 408.3 411.8 414.5 415.2 416.2 416.7 416.2 414.5 410.4 405.7 401.7 398.7 396.6 394.1 390 386.3 383.2 378.9 375 371.5 369.3 367.3 363.5 361.1 357.3 355.6 354.7 354.3 353.3 353.2 352 352.7 352.6 348.2 343.2 336.6 330.5 325.1 318.3 311.1 304 295 287.7 283.1 279.1 274.6 269.8 264.6 258.8 251.9 247.1 242.6 237.8 240 243.4 246.4 249.3 251.8 253.7 255.4 256.4 257.4 258.2 259 260.3 261.8 263.5 264.6 264.1 263.5 261.8 259.9 258.3 256.5 253.8 252.5 250.7 248.5 246 243.7 241.5 239.8 237.2 234.2 231.9 228.7 225.3 221.9 219.2 216.7 213.9 210.7 207.9 205 202.7 200.5 198.4 196.2 193.9 191.4 189.2 187.1 184.2 180.2 181 180.2 178.1 176.6 174.1 169.7 168.7
353.7 350 344.3 352.6 358.3 365.2 372.6 381.5 391.7 400.8 411.2 421.4 430.9 439.8 446.5 453.5 459.8 464.1 468.7 475.3 479 483.4 487.4 491.9 494.7 498.8 503.1 505.6 506.2 507.4 510.6 511.7 510.5 505.7 498.9 490.7 481.9 475.5 469.2 461.4 450.1 446.8 445.5 444.1 444.4 447.7 445.7 441.2 437 429.1 422.9 418.8 416.5 415.8 417 414 411.6 410 408.3 406.1 408 409.4 411.4 413.1 414.2 414.3 413.5 413.1 411.9 412.4 413.6 413.3 413.3 415.7 416.1 415 414.1 414.7 413.6 409.9 409.3 408.5 407.4 405.2 403.3 400.7 400.1 398.6 403 404.9 407.8 410.2 411.1 411 410.3 409.9 407.9 405.5 402.9 400.1 397.5 396.3 393.3 389 384.9 382.1 377.7 374.5 368.7 364.5 363.9 359.9 355.9 352.5 351.1 349 349.2 348.8 348.9 347.8 350.4 350.9 346.9 342.2 337.3 332.2 327.5 321.3 315.1 308.5 300.7 292.2 286.6 282.2 276.9 271.5 265.3 258.6 251.5 247.1 243.2 239.1 241.4 245.2 248 250.6 252.7 254.5 256.2 257.3 258.4 259.3 260 261.4 263 264.6 264.7 264.5 263.4 261.5 259.6 257.1 255 252.9 250.3 247.9 246.1 244.6 242.2 240.1 238.6 235.8 232.9 230.5 227.8 224.7 222.2 219.4 216.5 214.8 212.4 209.5 206.7 203.8 201.2 199.2 197.1 194.9 192.4 189.9 187.5 185.4 178.6 175.4 175.1 171.4 171 171.5 171.8 179
356.5 354.5 352 352.2 360 366.2 373.1 381.6 392.8 402.2 413.6 424.6 434.1 442.2 450.4 456.7 463.3 468 473 477.3 480.5 484.7 490.5 494.4 497.1 501 504.4 507.5 508.9 510.2 510.9 512.2 510.5 505.5 499.2 491.8 480.4 470.8 464.3 455.5 447.5 444.3 444.9 443.7 444.8 445.9 441 437 431 425 419.2 415.2 413.8 416.6 414.7 410.7 409.3 407.9 407.1 405.8 408.5 409.8 411.7 412.8 413.7 413.5 412.9 412.4 411.5 410.1 408.9 408.9 409.8 408.6 408.7 408.2 407.1 405.4 404.1 404.5 405.5 404.8 402.9 400.1 398.4 397 396.9 396.4 399.7 400.6 402.3 404.4 405.7 406 405.2 404.5 403.8 402.5 400.7 398.5 396.5 394.4 390.3 385.8 381.9 378.7 374.4 369 361.9 359.9 356.2 355.1 350.9 345.8 343.8 342.9 341.3 340.2 341.4 339.4 341.9 342 342 341.2 339.1 333.1 326.3 320.5 316 310.1 304.1 296.9 290.6 283.9 279.1 272.6 265.3 259 252.7 247.7 244.2 242 245.5 248.5 250.3 252.5 254.4 256 257.3 258.1 259.2 260.2 261.1 262.4 264 264.8 264.6 264.2 263.1 261.3 259.3 256.7 254.4 252.2 249.5 246.7 244.6 242.6 240.8 238.7 236.3 234 231.4 228.9 226.1 222.9 220.8 218.6 216.5 214.6 212.6 210.8 208.6 205.7 202.9 199.3 196.8 194.2 191.3 188.6 185 181 179.2 177.5 176.4 174.8 173.7 176.9 186.4 185.8
357.9 358 354.2 351.4 358.7 366 373.1 383 393.6 404.9 416.5 427 436.4 445.7 454.1 460.8 466.4 471.3 475.1 478.2 481.9 487.4 493 497.1 500 502.1 505.3 507.8 510.9 514.1 515.2 513.4 509.6 504.3 496.6 488 475.8 464.3 455.6 450.1 441 435.8 435.6 437.9 438.5 437.4 433.3 428.4 423.2 418.8 413.6 411.9 411.9 410.5 409.2 407.2 406.8 407.3 408.2 408.4 409.2 410.7 411.6 412.1 412.7 412.5 412.4 411.3 410 409.6 407.6 406.2 406 404.2 402.3 401.3 400.3 399.8 398.6 399.6 399.4 398.8 395.9 393.8 393.4 393.1 393.9 392.5 393.4 394.6 395.3 397.5 397.8 399 398.3 398.7 399.3 399.5 398.7 396 392.2 388.7 385.9 381.3 374.1 369.9 367.7 366.4 364.2 359.7 355.6 347.5 344.9 339.1 335.9 334 333.3 331.2 331.8 329.9 333 334.5 336.9 338.8 339.7 333.4 325 319.1 315.6 312 306.9 300.3 291.9 284.9 278.8 271.3 264.7 258.9 253.7 249.3 246.9 244.7 248.8 251.2 252.8 254.2 255.6 257.2 258.2 259.1 260 261 262.1 263.4 264.5 264.8 264.8 264.1 262.6 260.7 258.7 256.3 253.9 251.6 248.9 246 243.3 241.3 239.4 237.1 234.8 232.3 229.6 226.9 224.1 221.2 219.4 217.4 216 214.5 213.1 211.5 209.8 208.4 206.5 202 197.8 194.9 192.2 189.2 183.6 180.5 177.7 179.3 178.2 177.1 186.2 186.7 190.2 188.5
364.3 363.1 359.4 351.8 361.3 365.1 373.3 384.7 395.2 407.2 419.6 429 439 447.7 456.3 462.6 467.6 471.6 476.3 479 483.2 489.2 494.6 498.6 500.4 503.2 505.7 507.1 510.7 515 517.2 515.4 509.9 501.8 491.6 481.9 470.2 459 450.4 442.8 436.3 428.9 429.3 432 430.4 430.4 429.4 424 419.2 413.4 410.2 409.8 410.1 408.5 406.4 407.1 408 409.3 409.2 409.4 409.6 410.4 411.1 411.5 411.8 412 412.2 412.5 411 408.7 405.8 404.1 400.7 400.1 398.6 397.3 397.1 397.1 396.2 396.2 395.5 392.3 391.4 391.2 389.3 388.8 389.1 387.4 388.7 389.9 390.3 391.2 391.5 390.7 391 391.5 393.8 393.5 392.4 390.6 387.3 384.2 381.1 380.1 376 370.7 367.1 363.6 357 353.3 351 344.3 337.7 333.8 331.1 328.5 326.1 324.6 323.9 323 323.7 326 328.7 329.7 328.8 325.5 318.2 317.3 315.2 312.1 308 298.4 289.2 282.9 275.5 269.3 264.5 259.5 256.1 252.1 249.5 249.8 252.3 254.1 255.1 256.3 257.6 258.2 259.2 260.1 260.9 261.7 262.5 263.3 264.1 264.6 264.5 263.6 261.9 259.9 257.9 255.8 253.5 250.9 248.2 245.4 242.6 240 238.3 235.9 233.3 230.6 227.9 225.1 222.4 219.6 217.7 216 215.1 214.1 213.2 212.3 211.8 210.5 207.3 203.1 200 197.6 195.1 188.2 182.1 180.8 182.7 181.5 187.2 188.7 188.9 193.2 193.6 192.1
369.2 364.5 364.2 357.4 358.8 364.6 373 385.5 395.8 408.8 421.3 430.6 440.2 448.8 457.2 462.7 468 472.6 478 481.3 485.2 489.5 493.9 496.9 498.3 501.3 505.3 505 505.2 508.6 512.2 511.6 505.9 495.6 485.9 476 465.4 458.1 448.9 439.4 429.2 423.5 423.6 424.3 424.8 426.2 422.5 418.6 413 408.5 410.4 408.2 406 406.9 407.3 406.5 407.1 408.4 407.6 408.9 409.3 409.7 409.8 410 410.6 411.2 411.7 411.3 408.6 406.4 404.2 400.9 393.7 395.2 396.2 394.6 393 392.2 390.5 390.6 391.1 390.3 389.4 389.6 387.8 385.1 386.1 384.1 386.5 386.8 386.6 386.7 386.2 386.4 385.8 385.5 385.9 385.3 385.2 385 383.9 383.8 382 378.8 372.4 366 362.5 357.5 353 349.6 345.7 341.7 338.4 329.4 325.3 323.9 321.5 321 320.1 318.5 317.6 317.7 318.9 320.7 318.9 316.7 312.9 312.6 311.5 310.3 305.7 295.5 286.3 279.9 271.8 268.2 264.7 261.7 258.1 254.4 250.9 253.2 255.5 256.5 257.2 258.1 258.5 259.1 260.1 260.6 260.9 261.6 262.5 263.1 263.5 263.8 263.5 262.8 261.6 259.6 257.5 255.6 253.5 250.8 248.1 244.9 242.1 239.1 236.1 234.3 231.4 228.2 224.7 222.7 220.3 217.9 216.2 215 214.4 213.7 212.8 212.4 212.2 209.4 206.4 203.8 201.7 200.2 193.2 178.5 185.3 189.8 190.3 188.2 190.9 190.8 192.3 197.1 196.8 197.2
374.9 370.2 364.6 360.5 359.3 364.1 372.6 385 396.9 410.2 422.1 432.7 442.6 451.4 460.1 466.1 470.2 474.5 479.1 482.6 485.3 488.1 491.8 494.5 497 498.6 499.4 498.4 499.8 503 503 502.3 497.3 491.8 482.8 476.3 471.8 460.8 449.2 438 427.7 421.6 420.8 420 421.2 420.5 417.4 413.4 409 411.6 412.1 411.2 410.9 410.2 409.5 408 405.3 404.9 406.8 407.9 408.4 408.3 408.4 408.3 408.1 408.3 407.5 407.2 405.6 403.3 401.1 395.6 391.3 391.7 392.4 389.9 388.3 387.2 386.8 388 389.2 389.3 388 387 385.6 384.2 383.6 383.2 384.9 384 384.3 383.6 384 383.9 382.6 382.6 381.3 380.6 381.4 379.1 378.7 377.8 376.4 370.9 363.2 357.2 356.1 349.5 343.3 339.1 333.9 332.9 326.9 321.3 319.6 314.5 309.2 317.6 316 315.2 313.2 311.1 309.5 308.7 308.8 306.3 305 303.5 301.7 303.5 300.1 292.2 281.1 274.9 269.6 267.5 264.4 261.8 259.1 256.4 252.6 256.6 258.2 259 259.1 259.1 259.5 260 260.7 260.8 260.8 261.4 262 262.4 262.5 262.8 262.3 261.8 261.2 259.7 257.8 255.9 253.8 251.3 248.2 245 241.8 239.1 236.3 233.2 228.9 225.5 221.7 220 217.6 215.7 214.5 214 213.6 212.9 212.2 211.8 210.4 207.9 205.5 204 202.3 198.6 180.2 186.3 188.8 193.4 191.9 193.2 195.1 196.4 197.8 198.6 198.1 198.7
383.8 378.2 371.6 368.2 363.5 362.7 374.3 385.2 397.2 410.1 420.8 433.7 445 453.6 461.6 467.5 470.9 475.4 479.6 482.8 484.5 487.6 490.5 494.9 496.1 492.8 491.4 491.4 493 497 498.1 497.3 493.7 488.6 480.5 474.7 467 456 445.7 434.8 424.6 420.7 418.9 419.6 420.1 418.6 415.8 411.8 412.1 413.7 416.2 417.6 417.1 415 412 410.1 408.4 407.6 404.3 405.5 406.8 406.6 405.9 405.2 404.5 403.6 403.1 402.2 400 398 393.8 392.2 390.4 389.5 388 387.7 386.9 386.1 385.9 387.4 388.2 388.8 388.2 387.4 386 384.3 382.7 382.6 383.5 383.2 383 381.3 382.1 379.8 376.6 379.9 381.7 379.7 380.3 382 379.1 378.2 376.1 375 369.5 367.9 365.2 357.9 352 349.3 344.9 338.3 333.1 330 326.4 322.6 306.9 313.2 311.9 312.5 309.9 307.4 304.7 300.8 298.2 296.7 294.6 293.8 293.1 293.4 291.7 287 276.9 271.2 268.7 266.1 263.5 261.7 259.7 257.2 257.4 259.7 260.8 260.5 260.4 260.4 260.6 260.7 260.8 260.9 260.8 261 261.5 261.6 261.6 261.5 261.3 261 260.3 259.4 258.1 256.1 254 251.7 248.8 245 242.4 240.2 237.2 234.2 229.3 225 222.1 219.3 215.8 214.3 213.5 212.6 212.1 210.9 211.1 210.2 208.6 206.7 205 203.6 201.4 189.9 184 184 192.9 195.4 195.8 196.1 198 199 199.7 202.9 200.8 200.5
397.6 390.2 382.5 377.2 370.9 369.9 369.5 383.8 398.2 410 421.5 435.7 445.8 454.6 462.3 467.7 471.5 475.1 479.1 481 482.6 484.5 487.5 488.1 487.9 487.2 487.7 488.7 488.9 493.9 501.1 499.3 491.6 482.4 472.1 466.6 459.4 450.7 443.4 432.4 424.6 421.3 419.8 419.3 418.7 416.9 415.1 416.6 417.2 419.4 420.6 419.8 418.5 416.5 414 411.7 410.2 408.9 407.9 405.6 402.5 402 402.2 402.3 400.5 398.8 397.4 395.9 394.4 392 390.7 389.9 389.3 387.9 385.9 385.9 385 385.4 385.5 386.3 387 387.1 387.8 387.9 384.3 383.1 381.6 379.3 381.6 380.1 380.6 380.4 378.9 380.6 383.2 383.1 382.9 383.2 383 383.3 383.3 382.9 381.7 376.5 374.2 371 366.3 360.2 349.9 350.5 346.6 339.1 334.2 328.4 324.3 318.7 309.5 300.5 300.6 308.4 306.7 304.4 299.2 297.5 293.5 290.5 288.1 283.9 283.1 284.5 280.5 274.6 270.4 268.9 269.2 263.2 261.3 260.2 258.9 258.7 259.5 261.2 261.7 261.3 261.1 260.7 260.6 260.7 260.6 260.5 260.4 260.5 260.8 260.8 260.9 260.8 260.5 260.3 259.4 258.6 257.9 256.4 254.4 252.2 248.7 245.8 242.9 240.6 237.7 234.2 229.8 226.1 223.2 220 216.7 215.2 213.7 212.5 211.4 210.2 209.7 209.9 206.5 204.3 203.7 201.5 189.6 185.4 186 185.1 195.8 197.8 199 199.5 200.9 200.9 206.2 205.9 205.2 205.5
404.9 397.5 394.1 386.5 379.9 377.3 369.8 382.3 395.2 411 423.3 434.7 445.3 454.3 462.3 466.3 471.5 476 479.4 481.4 481.4 483 484.8 484.9 486.4 486.4 487.4 488.3 488.2 491.6 493 488.5 484 473.8 467 462.4 455.6 450.2 438.9 429.3 423.1 421.4 420.7 419.9 419 418.9 421.5 424.9 425.9 425.5 424.7 424.1 422.1 420.6 416.7 413.4 412.2 412 410.3 408.3 406.9 406 403.1 396.4 396.1 393 393.8 392.2 391.2 389.3 389.1 388.9 389 387.8 386.8 386.3 386.3 384.9 383.1 384 385.5 385.3 384.8 382 382.5 382.1 383 382.9 382.8 382.7 382.1 382.1 380 383 384.7 386.2 384.9 385 385.4 385.6 386.5 384.9 386.4 388.4 383.5 376 375.2 367.9 357.6 349.9 340.8 334.4 329 322.9 320.1 316.2 313.7 309.5 302.8 295.5 296.5 297.6 297.5 297.1 293.8 286.4 283.1 278 274.6 270.8 272.9 270.9 269.2 267 265 264 263.1 263.1 262.3 261 261.2 261.5 261.7 261.5 261.2 260.9 260.5 260.7 260.3 260.1 260 260 260.1 260.1 260.1 260 259.8 259.4 258.6 257.9 257.3 256.2 254.7 252.9 249.9 247 243.6 240.9 238 234 230 226.3 222.8 219.9 217.6 216.1 214.6 213.1 211.6 209.7 207.5 207.2 204.9 201.8 193.7 187.4 186.5 185.8 187.1 196.6 199.9 201.6 202.3 203 205.2 204.7 206.7 207.3 207.5 207.6
413.2 408.4 401.8 393.1 386.3 383.9 381.4 380.3 394 408.9 422.1 433.2 443.4 452.9 461.2 467.7 472.4 476.2 479.2 481 482.4 484.2 485.9 487 487.9 489 490.7 488.9 488 487.1 484.8 481.6 477.1 471.7 465 459.6 451.5 440.8 436.3 432.1 424.3 421.2 422.4 422.9 423.7 426.5 430.1 432.4 432 430.9 430.7 428.9 427.7 424.5 420.4 418.1 416.9 415.2 414.2 411.9 410.5 407.5 404.8 401.4 397.3 394.3 390.4 389.4 389.8 389.2 388.8 388.9 388.6 388 387.7 387.7 386.8 385.5 385.1 384.2 382.1 383.9 384.8 384.5 384.7 382.8 384.3 384.5 383.9 383.2 382.5 381.7 383.5 384.9 387 387.9 388.2 387.2 388.5 390.2 390.1 392.3 393 394.8 391.6 390.7 385.9 379.2 367.6 360.8 352.2 345.6 340.7 333.5 322.3 315.5 311.5 306.4 303.8 299.6 295.3 289.9 289.8 286.3 285.5 281.5 284.5 281.1 276.7 273.3 268.6 267.5 270.1 269 266.1 264.6 263.7 262 261.4 262 261.6 261.3 261.3 261.2 260.9 260.6 260.3 260 259.9 259.8 259.7 259.5 259.4 259.4 259.3 259.2 259 258.7 258.1 257.5 256.8 256 254.7 253.5 251.6 248.2 244.4 241.3 237.7 233.8 229.9 226.5 222.8 220.1 217.6 216.1 214.5 213.2 211.5 209.1 206.6 203.4 201.9 192 189.8 188.9 188.2 195 201.2 202.5 203.7 205.2 205.7 206.1 207 206.9 207 208.9 210.3 211.7
426.8 423 407.5 396.1 391.7 389.7 388.1 385 394.4 407.2 419.9 431.2 441.4 450.9 460.1 467.4 472.8 476.6 480.8 483.9 487.2 489.4 490.4 490.7 491.8 494.4 494 492.6 490 488.9 487.3 485.1 482.6 478.3 474.6 467.5 458.1 450.5 447.9 441.2 429.6 425.4 427.4 429.3 432.6 433.7 434.6 436.4 437.2 437.2 436.5 434.3 432.2 428.3 425 422.7 421.5 419.4 417.6 415.2 413.1 410.3 406.2 400.2 397.2 394.5 391.2 389.2 385.9 385.1 388.2 387.9 388.2 388.1 388.3 387.3 385 382.3 383.5 381.2 385.3 386 386 385.7 385.1 384.7 383.8 383.7 383.2 382.9 382.4 383.2 385.1 388.7 390.7 392.4 392.4 391.5 394.9 398.9 402.4 406.8 406 408.3 407.6 404.5 399.3 390.9 381.2 368.6 358.9 355.2 347.3 340.1 331 322.5 311.8 310 309.1 308.8 306.2 302.9 288.2 302.6 297.3 295 294.2 288.8 284.8 276.9 271.8 267.3 265 263.5 262.2 265.1 263.5 261.6 260.4 262 261.6 261 260.8 261 260.7 260.4 260 259.7 259.4 259.3 259 258.8 258.7 258.5 258.3 258.3 258.3 258.1 257.6 257 256.2 255.4 254.6 253.4 251.9 248.2 244.8 241.5 238.5 234.4 230.2 226.5 222.9 219.3 217 215.7 214.3 212.4 210.6 208 204.8 200 192 191.1 190.5 198.7 203.1 204.6 204.4 205 206.8 208.1 208.6 207.7 207 209.2 210.5 214.2 215.9 217
441 429.5 415 400.7 392.8 392.2 390.2 386.5 396.4 406.6 417.5 429 438.7 448.5 456.7 464.8 471.6 476.1 480.5 485.9 489.5 491.9 493.7 496.3 496.2 495.1 494.7 494.8 493.6 492.8 492 491.9 488.5 487.5 483.8 478.6 470.6 463.6 456.1 448.2 439.1 439.6 438.5 438.4 438.5 439.5 441.9 443.2 444.2 445 442.9 440.3 436.3 434.5 431.5 427.7 425.1 421.8 419.1 416.8 414 410.2 403.3 398.8 395.5 392.5 390.8 388.5 387.2 386.2 386.9 387.4 387.4 387 386.3 385 383 381.7 382.4 384.1 386.4 386.9 387.1 386.4 387.4 385.8 384.7 384.5 385.4 384.6 384.1 384.9 388 391.4 393.2 394 394.6 395.1 399.9 409 413 415.1 415 417.9 416.1 413.8 408.6 403.5 394.8 382.8 371.7 360.9 355.6 345.3 334 328.7 320.5 318.4 317.4 316.4 316.4 315 312.7 309.2 305.6 301.2 297.1 292.9 287.7 283 278.9 272.8 265.1 261.1 260.9 259.9 257.8 257.8 260.1 261.9 261 260.8 260.4 260.6 260.4 259.9 259.5 259.2 259 258.7 258.4 258 257.7 257.4 257.3 257.5 257.5 257.3 257.1 256.4 255.4 254.5 253.6 252.4 250.9 247.8 244.6 242.1 238.8 234.6 230.3 226.5 222.9 219.1 217 215.8 214.4 212.2 209.2 203 194.1 193.6 192.8 192.1 193.6 203.6 205.4 206.9 208.7 209.8 208.9 210.1 211.5 211.3 214 213.4 217.8 220.4 221.6 222.3
460.7 443.8 427 411 397.1 393.2 393.4 390.9 397.7 405.3 416 425.6 435.9 446.3 451 457.9 467.4 471.1 478.3 485.2 490.7 493.8 495.7 497.1 497.3 497.1 497 497.8 497.6 497.2 497 497.8 499.3 494.9 488.5 483.4 477.4 472.2 463.5 456.2 445.8 446 443 442.6 443.9 447.4 448.9 450.3 451.3 451.5 448.5 446 444 440.5 437.4 434.8 429.7 423.4 419.5 416.9 412.4 407.5 402.8 397.7 393.8 393 390.7 388.6 387.7 386.8 384.2 386.2 385.9 385.3 385.3 383.9 382.7 385.3 385.8 387.3 386.9 388.8 388.9 393 391.8 387.6 388.9 390.1 389.8 389.7 391.7 392.4 392.9 399.2 403.8 401.6 403.2 406.2 410.1 418.5 422 423.2 426.2 427.1 426.1 423.5 418.4 411.5 404.4 393.1 382.2 371.3 361.5 357.5 343.2 335.4 329.3 327 328.5 328.8 327.2 322.5 318.8 314 310 304.6 300.8 294.6 288.5 283.1 281.2 278.1 273.1 268.5 261.8 257.8 256.3 256.6 257.8 258 259.7 260.2 260 259.7 259.4 259 258.7 258.5 258.2 258 257.5 256.9 256.6 256.3 256.1 256.3 256.3 256.2 256 255.5 254.5 253.5 252.5 251.5 249.5 247.5 245 242.4 239.4 235 230.2 226.8 223.3 220.2 217.8 216 214.5 212.5 201.8 194.7 195.6 195.3 194.4 196.6 205.8 205.9 208.3 210.8 213.5 214.8 214 213.4 215.9 219.1 220.4 221.1 224.4 225.3 228 228.7
473.5 460.4 442.1 425.7 410.8 399.2 394.8 390.4 397.2 405.8 415.3 421.1 432.3 443.9 446.7 450.4 456.6 463.3 473.7 480.4 487.9 491.6 494.1 495.6 496.8 498.3 499.6 500.3 500.4 500.1 502.3 503.5 502.2 498.1 495.4 494.2 489 479.8 471 461.5 457.7 452.9 448.7 448.5 451.3 454.1 455.4 457.1 458.8 458.2 455.2 454.6 450 447.2 443 440 434.6 425.8 421.6 416.7 410.4 406.8 404.4 399.9 397 396.1 393.1 389.5 389.1 387.4 385.6 384.4 384.1 382.6 382.1 382.2 386 387.4 390.9 392.4 392.4 390.7 390.4 394 391.3 390.8 391.8 395.8 397.8 398.3 400.4 403 402.4 407 409 408.7 411.9 416.6 421.2 426.7 431.6 435 437 439.2 438.6 435.5 430.6 423.5 414.8 405.1 395.1 384.8 380.2 367.4 352.4 346.7 341.2 339.6 341.2 336.9 332.3 329 323.4 319.4 314.3 308.6 303.2 297.3 288.5 286.9 286.3 282.6 275.6 271.9 266.4 260.2 257.2 255.8 254.8 254.2 254.3 255.4 258.6 258.1 258.4 258.3 258.2 257.8 257.5 257.2 256.4 255.7 255.3 255.1 254.7 254.9 255.2 255.1 254.8 254.4 253.6 252.5 251.4 250.3 248.5 246.7 244.5 241.3 238.5 233.8 229.5 226.8 224.1 221.2 218.8 216.1 213.6 207.8 199.6 195.4 198.1 205.3 207.1 205 206.7 210.2 212.1 214.8 216.3 218.6 220.7 220.9 223.3 225 224.9 228 230.5 233.3 232.1 231.9
487.7 474.2 458.3 441.9 425 406 398.1 392 396.9 407 414 417.1 424.2 432.2 437.7 442.7 443.5 454.6 465.1 472.8 481.7 486.5 488.4 491.6 495.5 498.3 499 500.3 502.4 505.6 507 505.7 503.3 502 499.4 493.3 487.3 480.3 472.2 465.9 463.4 459.1 456.1 456.4 457.8 459.6 460.3 463.1 463.6 463.2 462.5 458.7 459 453.9 448.4 442.8 436 431.1 424.3 418.1 413.6 411.9 408.7 401.5 400.3 402 397.1 393.1 393.4 388.3 386 384.5 383.7 385.5 386.3 387.2 388 390.8 393.5 393.6 394.1 392.3 392.5 393.2 396.1 398.6 400.2 400.5 402.6 405.4 407 408.5 407.9 409 412.5 416.4 419.4 423.5 428.5 434.6 439.1 443.6 448.4 452.7 454.3 452.5 449 441.5 432.3 421.6 414 403.5 389.4 371.7 363.6 357.4 353.3 352.3 350.3 345.3 340 334.7 328.2 321.4 315.6 310.3 303.5 298.7 294.6 292.4 291.2 284.3 278.7 273.3 269.6 264.6 259.8 256.7 256.1 257.1 255.6 252.1 256.6 257.6 257.3 257.4 257.5 257.2 256.8 256 255.1 254.4 254.1 253.9 253.6 253.6 254 253.9 253.6 252.7 251.8 250.6 249.6 248.6 247.5 245.8 242.9 239.6 236.6 232.4 229.2 226.5 224.6 222.3 219.7 216.3 214 203.7 197.6 198 208.6 210 211.2 212 213.6 217.2 218.4 220.4 223.6 225.4 227.3 229.5 229.1 229.8 234.5 237 238.1 239.9 239.7 238.6
501.8 485.6 467.6 454 432.2 412.9 398.5 394.2 399.5 405.3 409 411.1 415.1 419.4 427.8 433.6 439.7 446 453.3 462.4 471.6 477.9 480.9 486.3 491.7 495.3 498.3 500.4 505.5 508.4 508.5 508.6 506.7 503.9 499.3 490.7 483 477.9 475.5 473 470.1 466.2 463.9 465.3 466.6 467.2 467.3 466.8 467.9 469.1 467.9 468.8 466.6 461.8 458.4 451.5 443.5 435.7 429.3 423.1 417 415.5 412.5 407.8 410.1 409.9 404.3 401.3 397.7 391.9 388.1 385.5 385.2 387 388.4 389.7 392.7 394.9 398.1 396.4 396 394.7 395.4 397.1 399.4 403.4 405.4 406.7 408.9 410.3 411.2 414.5 415.7 416.7 418.4 420 425.5 431.5 438 444.4 450.9 456.9 461.5 466.4 469.4 469.2 464.8 456.3 448.3 437.7 423.2 408.2 392.3 382.4 373.4 369.3 363.9 361.6 358.2 354.7 348.4 342.3 335.8 326.5 320 310 306.6 301.3 298.5 294.9 289.3 284.2 280.2 277.1 272.6 265.5 260.3 257.6 257.8 258.7 259.7 250.6 256.9 257 256.2 256.3 256.5 256.3 255.7 254.7 253.7 253.3 253 252.8 252.1 252 252.7 252.6 251.9 251.3 250.4 249.2 248 246.9 245.9 244.3 241.4 238.3 235.2 232.2 229.6 227.2 224.4 222.4 219.8 216.6 211.3 198.8 199.1 200.7 210.6 213.6 216.4 216.8 219.3 223.3 224.3 226.4 229.6 236.1 238.2 239.5 241 243.8 243.7 246.4 246.6 248.1 247.3 247.8
506.8 490.7 475.2 460.4 437.1 418.7 402.1 396.9 400.7 405.4 407.5 408.9 410.8 413.6 419.1 426.8 433.1 436.8 442.6 452 460.2 465.6 469.7 478.5 485.8 491 495.2 499.1 502.4 505.4 507 509.3 509.3 502.3 495.7 488.5 480.8 480.1 480.1 479.7 478.5 476 475.3 479 480.6 478.2 473.6 477.1 476.1 475.1 474.7 472 470.2 467.6 463.1 458.8 449.2 440.8 433.7 431.7 423.4 420 417.6 417.8 426.6 414.3 408 402.5 396.3 390.2 387.7 388.3 387.4 387.3 389.5 392.3 394.8 398.5 399.8 399.1 398.5 398.9 401.6 402.4 404.1 405.9 409.4 412.4 412.8 415.2 420.2 423.5 424.7 423.7 426.2 428.6 434.7 439.7 444.6 452.5 460.7 466.2 471.9 477 480.4 479.9 474.4 466.3 457.1 443.7 430.4 415.1 403.7 392 386.4 381.7 375.8 373.5 369.4 362.6 355.4 347.9 340 333 325.6 318.5 313.2 309.4 304.2 299.5 294.2 290 283 279.1 274.3 270.6 266.2 262 257.5 255.3 254.7 250.3 257.9 256.3 255.2 255.1 255.4 255 253.9 253.1 252.3 252.1 251.9 251.8 251.1 251.1 251.3 251.2 250.6 250 249.2 247.9 246.5 245.2 244 241.9 239.6 236.6 234.5 231.9 229.3 226.5 223.7 221.6 217 203.8 202.5 200.6 200.6 208.1 214.4 218.8 218.8 221.3 224.8 226.9 230.6 234.5 237.3 240.6 242.7 246.3 248.2 249.7 252.2 256.2 257 256.4 256.6 254.9
501 490.7 482.9 467.7 445.5 425.2 409.5 401.2 399.1 404.3 408.1 408.4 407.7 409.5 413.2 417.5 424 427 432.2 439.5 447.6 452.3 459 468.1 474.8 484.5 488.3 490.8 494.9 497.5 502.7 506.8 506.3 499.9 495.1 487.3 481.8 482.6 483.2 483.4 483.3 481.8 484.9 487.7 487.8 484.7 485.2 485.5 483.3 484 484.3 480.8 478.6 473.2 470.7 464.3 455.5 447 445.7 437.5 427.1 423.5 425.5 428.1 422.6 412 409.8 404.1 395.3 395.5 392.1 390.9 391 390 390.4 392.8 395.8 398.7 400.5 400.1 400 404.3 407.7 409.6 410.5 413.7 418.1 420.7 421.8 423.9 428 429.2 433.2 432.5 435.6 437.5 440.4 446.2 450.7 457.2 465.4 472.3 478.2 482.7 486.4 489.6 488.3 483.7 468.3 449.7 435.1 424.3 411.9 403.3 398.7 392.2 386.3 381.3 377.2 370.5 360.2 352.3 345.3 338.3 330.8 325.6 322.5 316.7 308.6 301.2 300.2 294 287.6 281.9 276.9 273.8 267.3 263.8 260.1 256.3 252.9 248.4 251.9 254.3 253.9 253.9 253.3 252.9 252.1 251.2 250.7 250.8 250.8 250.8 250.7 250.2 250.5 250.3 249.9 249.2 248 246.7 245.3 244 242.1 239.7 237.6 235 233 230.5 228 225.7 223 213.7 206 204 201 202 215.2 217.5 219.5 223.2 223.4 227.9 230 233.8 238 241.8 245.7 245.8 248.6 251.3 253.3 257.3 261.6 265 267.6 266.6 269.9 268.2
505.9 495 490.2 471.5 446.2 424.7 413.9 404.5 401.4 404.7 406.3 406.7 405.5 405.8 406.9 408.8 412.1 417.6 421.2 426.5 433.6 439 447.9 456.2 462.1 469.3 474.6 479.5 484.1 489.5 496.8 500.8 500.6 497 491.7 485.5 485.3 484.1 483.6 484.7 484.7 487.2 493.2 493.5 493.6 492.6 494.1 493.9 492.6 495 493.7 491.6 490.3 486.9 480.4 469.1 465.8 455.6 448 438.1 430 431.3 434.4 428.7 422.7 413 410 402.1 401.1 403.1 403.3 401.5 402.2 400.8 399 397.1 397.1 398.5 401 401.8 404.2 407.3 413.9 418.5 419.8 423.9 430.5 431.3 433 435.5 437.3 439.2 438.5 437.5 438 440.9 446.9 450.7 455.3 462.5 469.7 475.9 481.5 487.1 495.5 501.9 497.8 484.8 469.2 455.3 443 430.9 422.7 419.8 410.2 401.7 396.1 388.4 383.1 372.4 364.6 358.3 352.1 343.6 336 333.1 327.7 316.6 312.7 309 301.8 298.5 291.9 286.1 281.4 272.4 269.8 267.1 262.7 257.8 254 248.8 249.6 251.5 253.5 252.4 251.1 250.6 250.2 249.2 249.1 249.2 249.6 249.7 249.7 249.6 249.6 249.3 248.6 248 246.8 245.5 244.2 242.8 241.3 239.3 236.8 233.7 231.6 229 226.6 224.5 220.8 205 206.5 204.1 203.8 210 218.8 223.3 225.2 229.3 229.2 231.7 238.3 241.6 245.2 248.7 252 254.6 256.3 260.1 263.1 267.2 271.9 274.9 277.4 279.2 281.1 281.6
509.2 503.7 487.3 463.2 435.8 423 417.5 411.2 407.9 402.5 403.9 403.9 404.7 404.2 404.6 404.6 405.3 409.1 412.2 415.8 419.6 425.5 433.1 440 447.4 453.6 461.4 466.8 475.5 484 490.4 492.3 494.2 491.3 488.3 488.9 489.6 486.3 485.8 487.4 490.9 503.4 506.1 502.7 500.8 502.3 504.3 502.5 502.7 502.8 502.2 500.6 500 491.9 483 475.2 464 468.8 459.5 449.1 440.3 445.9 439.8 433.4 425.5 419.2 413 406.4 413.1 408.9 415.1 415.3 409.1 414 408.5 405.4 401.8 401.9 404.4 409.3 413.8 419.6 422.1 426.1 431.5 435.5 440.2 442.4 445.8 447.2 446.3 444.9 443.2 440.7 442.8 443.9 448.8 452.1 457 464.2 471.1 477.4 486.2 493.9 502.4 504.1 497.6 485.7 472.4 458.8 445.3 440.5 433.5 425.3 417.6 411.6 405.2 394.3 385.9 376.2 369.2 363.9 357.6 350.8 344.1 339.4 332.1 324.2 317.5 309.7 306.5 300.5 294.1 286.8 278.2 277.4 272.5 266.2 264.2 260 256.2 250.5 247.6 247.3 250.8 250 249.6 249.4 248.7 247.4 247.2 247.3 248 248.6 248.6 248.2 247.7 247.4 246.5 246.4 246 244.6 243.2 241.8 240.6 239.1 236.7 234.1 231.3 226.6 221.2 213 208.4 209.2 206.7 209.8 214.5 218.3 223.8 228.9 231.4 232.6 238.6 241 245.9 248 251.4 255.3 257.9 260.7 263.3 266.7 270.8 275.1 279.1 281.9 284.1 284.8 286.2 286.8
515.1 504.2 479.5 455.8 437.4 430.9 424.7 419.6 413.4 408.2 406.4 404.7 403.5 403.9 403.4 403.2 403.9 404.7 406.3 408.6 412 416 420.3 427.8 434.1 442.6 452.1 458.9 465.3 475.4 482.2 484.8 485 483 484.8 491.4 491.8 490.4 491 493.6 501.1 512.9 515.2 512.2 511.2 512.2 513.6 512.4 516.1 514.8 509.8 496.5 488.7 478.5 472.1 469.5 470.5 480.6 469.2 456.6 452.5 449 439 434.4 427.2 420 415.5 420 416.9 418.3 421 417.6 420.1 419.1 413.4 410.8 410.5 406.8 412.5 416.4 421.6 427.3 430 432.9 439.5 444 447.5 451.3 455.2 455 455.9 451 447.8 444.5 445.7 448.2 450.9 454.7 459.9 466 473.7 482.5 492.1 500.3 506.5 507.4 500.8 487.7 475.8 471.5 466.1 456.2 443.7 434.8 427.5 417.9 409.6 399.4 390.5 383.9 377.3 371 366.4 359.3 352.7 344.7 337.8 328.2 321.9 313.6 307.8 300.9 291.1 285.4 282 277.1 271.8 268.1 267 262.5 258.8 255.9 253.9 252.7 245.9 245.7 246.1 247.6 247.8 245.7 244.1 245.2 246.5 246.7 246.5 246.1 245.6 245 245 245.1 244.6 243.1 241.7 240.5 239.3 237.5 229.5 221.3 215.3 212.9 211.8 210.4 208.7 214.6 218 220.3 221.1 225.1 228.9 232.6 238.4 238.3 244.8 248.8 251.8 254.1 258.1 261.3 264 267.7 270.3 274.7 278.7 283 286 287.9 288.6 288.7 288.1 287.6
516.9 506.9 491.2 464.6 448.6 439.5 434 426.9 419.5 413.9 408.5 406.8 405 404.1 404.5 404.5 404.1 404.1 404 405.2 407.8 410.1 411.9 416.4 420.8 431.5 442.1 450.1 456.1 464.3 472.9 474.5 476.7 477.5 481.7 487.6 490.2 491.8 493.8 498.7 509.5 517.3 520.3 520.4 522.8 523.4 522.1 522.8 516.9 513.7 493.5 480.6 472.2 467.8 467.2 469.5 475.5 470.9 466.3 459.6 452 443.5 437.3 431.8 423.8 424.8 426.5 425.1 423.6 428.1 429 433.3 432.5 423.5 421.1 421.2 420.2 418.3 423.1 428.4 430.6 433.3 437.8 442.9 447.7 450.3 454 457.4 459.8 460.6 459.4 454.8 450.2 448.8 450.6 452.3 454.8 458.2 463.1 469.8 478.9 488.4 497.4 506.3 512.7 513.9 509.1 494.3 484.6 478.2 470.8 462.5 453.7 443.2 434.2 424.9 413.8 405.1 398.5 392.2 383.9 378 372.3 366.2 359.8 350.7 341.1 332.2 325.3 317 308.4 297.4 291.3 291.2 289 283.9 279 277.1 271.7 267.5 264.5 260.9 256.6 255.6 253.2 248.5 245.9 243.9 243.7 243 242.2 240.6 243.6 244.9 245.1 243.9 243.1 242.8 242.4 242.6 241.6 240.9 239.8 238.1 229.9 226.8 219.9 218.2 217.7 214.7 212.9 215.6 222.1 223.5 224.4 226.3 227.8 230.8 232.1 238.4 242.9 246.8 251 254.4 257.4 260.4 263.2 265.8 269.2 272.4 276.5 281.1 285 288.8 292.2 294.2 295.6 295.8 292.9 289.9
511.1 499.3 485.7 467.9 457.2 446.5 437.7 431 421.8 416.4 414.7 412.7 410.9 407.2 406.7 405.5 404.8 404.4 404 403.4 404.9 406 407 408.8 411.7 418.3 429.4 436.9 445.5 451.7 458.7 465.1 471.2 475.8 481.7 484.5 487.8 493.7 499.3 507.3 517.2 524.4 528.5 530.4 530.3 529 527.3 520.5 505.3 487.1 477.6 471.5 466.2 465.1 463.6 466.9 467.7 467.1 461.9 461.3 451.7 443.8 438.3 434.6 428.7 426.4 429.9 428.7 429.5 432 438.1 438.5 434.8 435.4 431.3 427.6 426.3 430.9 434.7 440.4 442.8 444.5 445.2 449.6 455.6 458.6 461 465.1 465.7 465.3 463 458.5 453.9 453.1 454.5 456.2 458.6 462.5 466.8 472.4 482.6 492.7 501.3 510.5 514.2 512.4 506 496.5 490.1 481.3 475.3 470.5 458.8 446.7 438.1 427.6 419.1 411 404.6 398 390.3 385.3 380 371.9 362.8 353.9 343.5 335.2 328.1 317.1 308.8 299.2 303.9 302.1 299.4 293 284.7 285 277 274.1 270.6 265.2 260 257.6 255.4 252 248.8 246.1 243.2 242.4 244.3 243.1 239.9 239.6 242 241.8 238.7 240 240.6 233.5 237.8 236.7 235.4 226.8 226.4 220.4 218.5 229.1 228.2 227.9 225.5 227.3 229.2 229.7 230.4 232.7 234 235.7 241.8 243.8 247.7 252.5 255.2 259 262 264.5 267.7 271 274.1 278.1 282.7 287.4 291.9 295.7 299 302.2 304.6 304.4 302.5 299.6
502.9 492.2 481.8 472.3 462.1 452 440.3 430.2 427.5 423.9 420.8 418.5 415.9 412.6 410.4 407.4 405.6 404.8 404.4 404.1 403.9 403.9 404.3 404.8 406.9 410.1 417.3 425.7 433.7 441.6 450.5 459 467 474.9 480 484.3 488.9 496 505.5 515.3 524.7 531.9 536.3 535.6 533.5 528.8 521.1 508.4 489.1 480.4 474.1 460.2 458.7 460 460.3 461.7 460.8 459.2 462.3 456.1 449.9 445 443.8 438.9 435.8 432.6 435.3 434.8 437.1 439.1 443.5 443.2 442.3 440.9 437.7 435.8 437 443.9 448 451.7 454.6 458.5 462.3 465.2 468.3 468 467 467.9 467.5 466.9 466.5 462.4 460 457.5 456.7 459.4 462 465.5 470.4 476 481.9 489.2 498.4 505.1 507.5 509.6 506.7 496.7 488.5 481.6 477 470.1 460.1 451.4 442.4 433 426.1 418 410.5 403.5 395.7 392.1 385 375.7 367.1 358.1 348.8 341.3 331.4 319.1 308.9 316.7 316.9 312.8 307.1 301.4 300.4 296.9 288 281 275 267.7 263.2 259.2 257.9 255.4 250.9 249.1 247.9 245.3 244.3 243 240.8 239.2 239.5 237.2 240.4 241.3 237.7 236.3 234.3 229.5 227.8 227.9 225 225.4 235.4 234.1 232 232.5 234 233.2 235.3 236 236.7 239.9 239.4 241.5 245.4 250.2 252.8 257.3 260.8 263.6 266.8 269.9 272.8 276.1 279.4 284.4 289 294 298.8 303.4 307.5 310.6 313 313 311.9 309.1
495.8 489.2 481.2 473.6 457.8 451 443.5 441.3 437.2 433.6 430.2 426.7 422.8 419.4 415.8 412.1 409.9 407.6 405.6 405.6 405.9 405.9 406.1 405 404.9 406.3 409.8 415 423 433.7 443.6 453.4 464.8 473.6 480.6 485.7 491.6 500 511.1 521.8 530.7 537.3 540 540.8 535.7 528.9 516.4 500.8 486 476 464.4 454.5 453.6 454 456.7 456.8 456.1 455.6 454.1 451.5 447.9 446.6 445.1 440.8 440.7 440.6 442.1 443.6 446.6 449.3 450.1 448.2 446.9 445.7 443.1 444.3 447 450.9 452.9 457.2 461.2 465.8 470.4 472.6 473.3 474.4 474.1 472.5 471.8 470.7 467.5 464.1 461.3 460 457.4 458 461.7 465.6 470.1 476.5 480.2 482.8 487.3 495.6 499.9 497.3 494.6 490.9 485.6 478.4 475.3 468.8 460.4 453.7 446 439.6 432.1 423.7 416.4 409.6 403.2 396.7 389.3 379.6 371.3 362.2 353.8 345.3 333.4 325.2 326.1 328.6 327.3 324.3 321 318.8 315 307.8 299.5 286.5 279.2 270.8 264.1 261.5 259.7 257.6 252.8 251 249.3 246.9 244.8 242.4 243 242.5 241.4 244.9 245.7 244.4 244.2 242.8 241.7 241.7 236.6 235.6 229.1 225.4 238.1 236 236.7 240.3 240.2 239.9 240.9 242 243.4 244.5 243.5 245.8 251 255.1 258.5 262.9 265.9 268.4 271.9 275.5 278.5 281.6 284.8 289.8 296.1 301.8 307.1 311.6 316.1 319.4 321.4 322.1 321.1 317.5
487.9 486.6 483.7 479 473.4 464.1 457.8 455.5 453.3 449.5 444.2 439.7 434.1 429.2 424.4 419.5 415.5 412.6 410.1 408.8 409.5 409.5 408.1 407 405.3 404.7 406.3 408.2 414.6 424.3 437 449.1 460.4 472 480.3 487.3 494.3 504.1 514.9 525.3 535 540.1 541 536.7 528.5 519.6 507.9 494.4 487.8 475.3 465 454.6 453.4 455 455.7 456 455.5 454.1 452.8 450.4 447 448.8 447.1 446.2 447.3 448.8 452.3 453.8 456.3 458.6 457.2 455.1 453 452.4 454.5 454.7 454 454 455.8 459 463.4 468.2 472 475.2 478.2 478.1 478.3 479.7 479.2 472.6 467 463.8 460.6 457.4 455 455.2 458.5 463.1 467.3 472.1 474.8 476.6 480.3 484.2 488.3 488 487.8 485.6 478.2 471.7 469.2 464.5 459.9 454.9 449.1 444 436.7 428.6 421.5 415.8 408.9 402.3 394.6 384.9 375.8 365.5 358.9 349.5 340 336.3 335.4 334 330.5 327.6 328.4 326.7 320.7 315.4 304.1 294.1 283.1 275.8 269.5 264.1 262 259.6 254.5 252.7 250.8 246.8 244.2 246.4 246.8 247.4 247.9 248 247.6 246.4 244.8 243.2 242.5 240.4 233.9 230.4 229.5 240.6 240.9 243.3 243.2 246.2 245.4 247.3 248.4 249.4 249 251.6 252 255.2 257.2 259.9 264.9 267.7 270.5 273.7 276.7 280.9 283.9 286.9 290.3 295.6 302.4 308.9 314.5 320.2 323.9 327.1 328.4 328.5 327.1 324
497.8 497.6 495.3 492 488.7 483.8 478.7 474.1 468.4 464.8 460.9 457.3 451.9 445.6 440.3 434.9 426.6 420.4 416.8 413.8 412.9 412 410 409.2 407.6 406.4 405.2 405.7 408.8 415.6 429.5 442.3 454.1 465.4 476.5 486 495.5 505.6 517 527.6 536.1 542.4 534.6 525.7 513.3 504.9 497.6 493.2 478 472.4 462.5 454.3 453.9 453.9 455.7 455.9 455.1 452.5 451.7 450.9 450.4 451.1 451.9 453.8 455.9 459.9 462.8 464 466.8 466.2 465.5 464.3 462.3 463.8 463.8 462 459.8 457.1 457.1 460.1 462.2 467.3 471.5 475.3 475.5 474.7 473.5 472.3 469.8 465.1 461.4 458 456.2 453.2 451.7 450.8 453.8 457.8 462.8 466.6 468.4 470.3 471.9 475.7 479.2 481.6 479.3 473.3 467 464.9 464.9 460.8 458.9 453.9 448.6 444.5 437.9 431 423.9 418.3 411.6 405.3 396.2 387.5 379.1 372.8 360.9 357.1 351.6 347 344.3 341.2 340.7 338.6 332.9 332 326.3 319 308.9 300.3 288.8 279.3 273 267.7 266 259.5 256 254 251.9 245.9 247.1 249.3 248.6 249.1 249.2 248.5 247.9 246.5 244.9 244.3 239.3 236.4 232.9 232.5 242.8 243.7 246 247.9 250.3 252.5 251.5 253.7 256.1 256.1 256 259.1 259.6 262.6 265.2 267.4 270.4 273.1 275.4 279.5 283 286.7 289.5 292.9 297.5 302.1 309.1 316.4 322.7 328.4 332.1 333.5 334.1 333.1 331.7 328.6
505.9 507.4 505.9 505.4 502.4 500.1 496.8 495.2 488.5 483.9 480.8 475.6 470.5 462.7 456.9 452.7 442.7 434.8 426.6 419.9 418.5 414.6 413.7 412.3 410.2 408.2 406.9 405.1 405.1 410.7 420.8 433 445.1 457.6 470 482.4 493.4 505.9 517 527.1 537 535.2 525.2 514.7 504.2 499.5 495.9 482.6 474.5 466.1 455.9 453.9 453.2 452.8 454.9 455.8 456.2 456.1 453.2 453.3 454.3 456.7 459.6 462.7 466 470.7 473.7 475.5 475.6 474.8 474.8 475 474.9 470.8 468.9 466.3 462.7 458.6 461.2 461.8 463.6 467.1 469.3 470.8 471.4 470.9 469.4 467.1 463.4 459.4 457.4 456.1 453.8 450.4 445.6 444.2 445.1 448.8 454.4 457.3 460.3 462.9 464.8 466.8 470.2 471.2 468.8 463.4 459 458.7 459.2 456.2 454.3 450.1 447.2 442.5 436.9 430.8 424.9 419.4 413.5 406.3 397.7 393.5 385.9 378.8 366.8 366.8 361.5 359.2 357 349.8 349.8 349.8 344.6 344.8 338.7 330.7 318.5 304.2 291.2 281 274.9 270 264.5 259.7 256.2 253.9 250.6 247.2 250.4 250.3 250.4 250.6 249.8 249 248.3 246.7 246 246.1 243.6 240.4 242.6 243.8 245.5 247.7 250 254.2 258.3 260.2 258.2 260 260.9 262.2 263.2 265.7 266.6 269.3 272.5 274.4 276.1 278.7 281.7 285.3 289.1 291.5 295.5 299.4 304.6 310.3 317.2 324.5 331.2 336.9 339.5 339.4 338.4 338.2 336.7 333.3
513 514.2 514.7 513.3 511.7 512.5 509.5 508.7 499.9 499.4 498.6 492.9 485.4 480.8 475.9 472.8 463.3 450 439 430.6 426.8 425.3 421.9 415.7 412.4 409.9 407.9 406.2 404.9 405.9 413 422.5 436 449 460.8 475.3 489.3 502.8 514.6 525.1 532.3 527.7 521.4 506.3 498.1 496.7 490.2 481.9 466.9 458.7 455.1 452.6 451.6 454.4 460.5 459.1 457.4 457.1 455.5 457.6 460.1 463.2 466.4 472.2 476 478.3 481 482.2 482.9 484.4 482.5 480.8 479.8 477.1 471.8 466.9 463.6 463.1 463 463.2 464.4 465.7 466.6 467.9 467.5 468.3 467 464.3 459.5 455.4 452.2 449.1 446.5 442.9 440.2 438.9 441.2 443.2 447.1 452 455.3 457.1 460 461.3 462 460.6 458.6 455.1 451.8 450.3 449.7 448.8 447.5 444.7 442.7 439.1 434.1 428.3 423.5 419.2 414.5 408.2 402.1 397.8 391.3 382.2 379.2 375.2 370.6 366.8 363.4 358.6 356.9 357 352 348.1 341.4 331 319.3 305.1 292.1 282.3 276.5 269.6 264.9 260.1 256.8 252.7 250.8 251.2 251.4 251.8 251.9 251.2 250.5 249.7 248.1 247.3 246.7 244.3 242.6 239 245.4 246.6 248.3 253.3 257 260.8 264.8 264.9 265.6 267 267.9 270 270.4 272.5 273.9 276.4 278.9 280.5 281.8 285 288.3 292.2 295.1 297.8 300.8 305.4 310.9 316.8 323.9 332.2 338.5 342.6 345.1 345.2 343.9 342.6 340.9 336.9
517.3 518.8 520.5 520 519.7 520.8 519.4 519.4 516.5 511.9 513.5 509.5 505.5 497.6 491.4 486.7 477.9 463 450.5 445.9 440 438.3 432.9 425.2 419.7 413.9 411.1 408.5 407.7 404.7 408.8 416 425.9 437.5 449.2 464.2 480.9 495.8 509.4 520.6 523.5 516.7 504 496.3 494.4 486.6 477.8 466.1 458.2 455.5 453 450.9 452.7 458.7 460.4 461.5 460.2 459.9 459.8 461.8 465.6 468.4 473.3 479.6 484.2 487.1 487.2 488.1 489.2 488.5 485.4 481.9 479.3 476 472.1 467.2 463.4 463.7 463.1 463.5 463.7 463.6 464.2 463.9 463.5 461.7 460.6 458.4 455.6 451.5 447.6 443.2 440.4 437.7 435.9 435.1 435.9 440.3 444.5 448.9 451.4 453.8 455 454.2 453.9 453.4 452.5 450.1 447.4 443.5 442.2 441.2 440.3 438.6 437.1 434.2 429.9 424.7 421.3 418.3 414.6 410 405.8 402.6 398.4 392.1 387.9 383.3 381 377.8 375 369.7 359.9 358.8 349.7 342.8 335.3 324.1 313.7 304 291.9 281.4 276.3 270.6 264.6 259.7 255.4 254.9 255.3 251 253.6 252.8 252.1 251.4 250.6 249.5 247.9 247.6 242.3 242.8 244.3 246.8 248.8 250 254.5 259.4 261.9 266.1 269.8 271 273.1 275.3 276.2 277.4 279.2 280.2 281.1 282.8 285.6 287 287.7 290.9 293.8 297.9 300.8 303.1 306.2 311 316.8 323.6 330.6 338.7 344.8 349.3 351.7 350.5 348.8 346.7 344.3 339.3
521.7 523.5 524.5 525.9 526.8 527.2 527.5 526.7 526.2 526.8 526.6 525.7 519.6 510.9 503.4 493.8 484.5 472.6 462.6 458.3 454 448.6 446.9 439.5 429.2 420.9 415.4 410.6 408.5 407.9 408.8 411.5 418 426 436.5 451.4 467.4 483.4 498.8 509.1 510.3 501.1 494 492.6 483.3 472.3 463.6 457.1 452.3 451.1 450.5 452.3 455.7 459 462.1 462.4 461.5 463.3 463.1 466.5 469.8 474.3 479.1 484.3 488.8 491.3 493.8 494 494 492.2 488.9 485.7 482.3 477.9 474.2 471 467.7 465.2 463.6 462.8 462.3 462.2 461.1 460.7 457.9 456.6 455 453.6 449.1 444.7 440.8 437.8 435.1 434 433.1 432.2 433.4 437.5 441.8 445.6 448.9 449.7 452.3 452.2 452.4 451.8 449.9 445.9 440.4 436.9 437 436 434.7 432.6 431.1 428.9 425.7 421.9 419.3 417.5 414.5 411.6 408.9 407.4 402.7 398.4 396.5 394.8 391.5 389.3 383.7 374.3 364 354.2 348.1 338.9 331.3 325.4 313.6 302.5 290.6 283.5 279.1 270.4 265.9 262.5 259 259.1 254.8 253 253.1 252.7 251.8 250.8 249.2 248 247.5 243.7 243.4 247.7 249.6 251.1 252.3 254.8 260 263.7 267 271.4 276.1 278.4 280.2 282.8 283.5 285.4 286.2 286.6 287.3 289.7 290.9 291.5 290.9 294.5 298.2 301.9 305 308.1 312.1 316.6 323.1 329.6 336.4 344.1 351.9 357.9 358.8 357 354.4 351.9 348.6 344.7
525.8 527.4 529.6 531.8 532.2 532.9 532.8 533.9 534.9 536 535.5 532.5 526.2 517.6 509.2 499.3 490.8 482.1 477.1 473.3 465.4 461.4 457.5 450.4 439.5 433.1 425.6 414.4 409.2 407.2 404.4 404.7 411.9 417.3 425.1 437.2 453.1 469.9 483.3 494.5 495.7 491.2 488.8 483 473.6 459.8 454.3 452.7 448.2 450.5 452.3 455.5 459.6 462.7 464 464.2 464.3 465.9 468.7 472.6 475.9 481.2 485.8 489 494.3 498 498.8 499.4 500.5 498.3 494.6 491.1 486.9 481.9 477.1 472.8 470.4 468.2 464.6 461.8 460.3 459.1 457.3 455.8 453.3 451.6 449.5 447.7 445.7 443.2 440 437.1 434.5 433.1 432.3 431.3 434 437.8 441.3 444.6 448.5 451.4 452.8 452.6 451.6 449.8 445.4 439.2 434.3 431 431.5 431 429.4 427.8 425.8 423.7 420.9 418.3 417 415.9 413.6 411.3 409.6 408.6 406.9 405.9 405.3 401.1 394 388.5 381.4 372.5 362.7 353.3 345.7 335.1 326.2 320.1 309 298.2 290.4 286.4 275.5 272.8 267.4 264.9 261.6 259.7 257.3 255.7 254.3 253.1 252.3 251.4 251.1 249.1 246.9 243.9 248.1 251.1 252.2 253.4 256.1 260 264.5 268.8 271.6 276.7 282.8 285.1 288.1 290.5 292.3 293.4 293.2 293.3 293.9 294.5 295.2 295.6 294.8 297.9 302 305.2 309 312.4 316.9 322.3 328.1 334.7 341.5 349.5 357.4 362.8 365.4 363.8 360.6 356.3 352.9 347.6
529.9 532 534.5 537 537.2 538.7 540.2 541.4 543.7 544.7 543.8 539.5 531.6 522.9 514.6 507.1 499.5 495.3 489.7 484 480.5 476.2 471 462.4 452.6 446 432.3 420.3 416.6 412.2 404.4 404.4 404.4 412.8 420.3 429.6 441.9 456.8 468.9 478.3 481.9 483.6 480.6 471.1 457 451.9 450.6 447.9 449.3 451.8 454.2 458.1 460.5 462.9 465 467.3 468.8 472.3 474.2 476.5 479.4 484.2 489.4 495 500.4 502.7 503.8 504.7 505.1 502.9 500.4 496.5 493.5 486.8 480.2 474.5 470.8 467 465.4 463.9 463.2 461.6 459.8 456.1 454.3 453.3 451.3 449.5 446 443 439.5 437.9 436.5 434.8 433.3 432 434 437.6 440.3 445.1 448.7 450.5 451.2 451.2 450.5 447.6 442.9 436.8 430.2 425.7 425.4 425.3 424.1 423.1 421.1 418.7 416.6 416 415.3 412.7 410.5 409.1 407.9 408.1 409.2 407.7 405.7 399.9 391.5 382.9 374.4 366.7 358.9 349.2 339.6 329.7 323.7 316 306 297.4 288.6 283.7 278.7 271.6 268.5 265.6 263.2 263.4 259.5 257.4 255 254 253.5 252.9 249.8 246.5 244.9 245 251.6 253 254.2 256.1 262.1 264.8 268.2 272.7 277.7 283.2 289.2 292.5 296.5 298.8 300.9 300.8 300.7 300.5 300.2 299.7 300.2 301.3 300.5 303.1 306.6 310.9 314.3 318.8 321.7 328.7 333.5 339.1 345.7 354.6 361.8 366.3 368.5 368.1 365.7 361.5 357.4 350.3
534.9 536.7 540.1 542.5 544.2 546.2 548.3 549 551.2 552.6 550.1 545.3 539.1 531 522.3 516.3 511.3 508.9 504.7 500.6 498 492 485.1 476.3 465.8 459.3 442.5 427.5 430.6 415.9 404.4 404.4 404.4 406.4 414.3 422.8 432.7 445.9 456.9 465.9 470.7 469.7 463.7 454.5 448.6 448 447 448.5 450.1 452.6 455.3 458.4 461.2 464 467.3 470.3 474.1 475.6 476.9 479.1 481.8 487.2 493.9 500 503.1 505.7 508.2 511 510.2 507 503.5 499.2 494.1 487.4 480.7 474 470.7 467.5 466 465.4 464.6 463 460.4 457.3 456.4 454.8 452.2 449.2 445.3 441.3 439.5 438.4 437.2 434.9 433.5 431.2 433.5 435.8 438.9 443.8 447.2 449.2 449.7 449.7 449.5 445.8 440.2 434.5 427.5 422.8 420.4 419.4 418.7 417.9 416 413.9 413.5 413.7 413 410 407.2 406.2 405.9 405.6 404 402.2 400 394.9 386.5 376.4 367.7 359.7 352.4 343.8 333.3 324.5 319.3 310.9 304.7 295.7 289.4 282.8 277.4 272.4 269.6 266.5 264.7 262.5 260.3 257.5 254.9 254.1 254.8 251.7 249.2 246.5 245.3 251.5 252.6 253.8 255.8 261.9 265.2 268.2 272.7 277 283.4 289.5 295.8 300.5 305.2 307.7 309 308.9 309 308.5 307.6 306.9 307.2 307.9 306.5 307.4 311.4 316 320.1 322.6 329.9 332.8 338.9 344.4 351.4 359.7 366.4 370.2 371.5 371.1 368.2 363.5 359.5 351.1
539.7 542.5 545.9 548.5 551.6 553.8 554.6 557 560 561.4 558.9 552.6 547.1 540.7 532.6 527.2 524 521.3 517.8 514.6 510.8 505.7 497.1 485.4 474.5 467.4 453.3 442.5 432.1 415.9 404.4 404.4 404.4 404.4 410.1 415.7 423.8 435 444.9 451.1 453 451.9 448 447 446.6 445.5 447.8 448.8 450.5 452.7 455.1 457.9 460.9 464.6 468.5 472.2 475.5 477.5 478.4 481.8 485.1 491.3 499 503.6 506.8 509.2 513.6 516.4 515.4 512.2 506.3 498.5 493.8 489 480.7 475.1 470.6 468.3 467.5 468.6 465.7 462.9 461.5 461.5 460.6 457.4 452.5 449 446.5 443.7 440 438.6 434.9 432.7 431.4 429.1 431.6 433.2 437.6 442.1 444.7 446.9 448.4 448.3 446.2 441.9 436.1 429 423.6 421.4 417.1 414.5 414.5 413.1 411.8 410.9 411 410.9 409.2 406.4 404.2 402.7 402.5 400.6 398.1 394.6 390.9 385.5 378.9 369.2 361.2 353.6 342.6 334.4 328.1 320.5 315.5 310.5 304.2 296.8 288.2 282.3 277.8 273.4 270.2 268.2 265.4 263 261.1 258.8 255.7 253.5 252.5 250.9 249.3 248.2 245.7 247.2 252.7 255.6 260.1 264.4 267.8 271.2 277 282.2 289 296 303.1 308.3 313.3 315.8 316.9 317.6 318.2 318 316.9 315.4 314.8 314.1 312.8 314 316.7 321 325.4 329.3 333.5 337.7 340.2 349.9 357.4 365.5 370.4 372.9 373.1 371.9 369.2 363.7 357.6 350.7
544.5 548.1 552.6 555.1 558.9 560.6 562.9 565.4 568.4 569.5 566.4 561.9 556.2 550.3 544.3 538.2 534.5 531.7 528.9 525.9 522.9 514.6 507.5 498.6 495.1 482.5 462.7 453.2 432.8 413.7 404.4 404.4 404.4 404.4 404.4 411.3 416.8 423.9 432.9 439.1 441.3 443.7 444.3 444.5 444.3 447.2 449.2 450.1 452.1 454 456.6 459.4 462.1 465.9 470.5 474.9 477.6 478.4 479.9 483.1 487.7 494.6 500.3 504.8 508.7 513.1 516.9 520 520.7 517 507.2 498.3 495 491.8 482.2 480 475.2 470.8 468.4 466.4 463.6 463.5 464.6 462 460.4 456.3 453.5 450 447.7 446.3 442.4 439.2 436.3 431.8 429.2 427.2 427.3 430.2 434.1 438.7 442.1 444.5 445.8 444.4 442 437.8 432.7 426.8 422.7 418.2 415 410.7 411.6 410.3 409 407.5 407.6 406.8 406.3 403.6 401.1 398.8 397.1 395.5 392 386.2 382 376.4 369.3 360.9 354.6 346 340.3 335.2 328.7 321.6 317.8 310.8 303.1 295.9 288.4 281.6 278.1 274.8 271.5 269.8 266.9 263.6 261.7 259.4 256.4 252.8 252.8 252 251 247.6 248.3 249.9 255.2 259.6 263.1 266.7 271.2 275.5 281.5 288.5 295.6 302.6 309.5 315.6 320.6 323.6 326 327.4 328.1 327.9 325.6 323.1 322.7 321.1 321.8 323.8 324.4 324.4 331 334.5 337.2 343.7 349.4 355.4 363.4 371.5 376.2 377.2 374.6 372.2 369.1 363 359.4 354.1
552.3 556.3 561.5 564.5 567.6 570.2 573 575.7 577.8 578.5 575.8 571.9 565.5 560.9 554.5 548.8 544 541.9 538.9 535.4 531.5 524.5 513.8 506 501.8 479.1 464.2 449.8 431.8 415 404.4 404.4 404.4 404.4 404.4 408.6 412.5 418.2 424.3 430.2 435.5 439 441.6 443.3 445.8 447.9 450.3 452.8 454.9 457.1 459.2 461.6 465 469.1 472.2 474.2 476 477.9 480.3 484.4 490.2 495.3 499.4 504.9 509.3 513.9 516.5 517.5 516.9 510.9 501.2 495.2 494.8 489.5 481.5 478.8 472.1 467.4 465.8 463.1 460.9 460.1 460 459.3 457.6 456.1 454.7 452.3 449 445.9 443.5 438.9 435 430.8 428.1 425.9 424.7 427.8 431.4 436.2 440.3 442.1 442.8 442.3 439.6 435.3 431.4 426.9 422 417 410.9 409.9 409.3 408.2 406.9 405.9 404.5 404.4 403.6 401.5 398 395.6 393.2 389.4 385.6 380.1 373.8 367.3 359.8 352.1 345.7 341.2 336.2 331.1 326 321 315.3 307.8 301 295 287 282.5 279.2 276.3 272.8 270.7 267 264.4 261.9 259.5 254.4 252.4 252.2 252.9 247.5 250.1 252.4 254.7 256.5 261.9 265.5 269.8 274.8 280.2 287.2 294.3 301.3 308.8 315.8 322 328.4 332.4 335.6 336.9 337.2 336.4 333.9 332.1 332.2 332.4 333.2 333.6 332.8 330.9 336 342.1 345.6 350.9 356.5 363.9 371.2 377.7 380.4 379.6 378 376.2 373.8 369.5 364.3 359.3
560.9 566.6 571.1 574.7 578.2 581.5 584.3 586.1 588.1 588.1 585.7 581.8 575.5 568.5 563.7 559.3 554.8 550.9 547.1 541.8 535.3 527.1 515.3 506.8 491.3 471.6 463 450.4 431.1 413.3 404.4 404.4 404.4 404.4 404.4 404.4 409.3 415 420.2 424.9 430 435.1 437.5 443.4 446.9 449 451.7 454.3 456.7 459.2 461.5 464.3 466.8 469.4 471 473.2 476.9 479 481.7 485.8 490.7 495.8 499.7 503.9 507.2 509.2 510.1 508.8 507.3 499.7 492.6 492.2 490.8 484.2 477.4 468.8 461.9 460.2 460.6 459.8 459.3 458.5 458.3 457.5 455.9 454.9 453.2 451.3 449.3 444.4 440.9 436.5 431.6 428.3 425.9 423.8 422.4 425.9 429.4 434 437.8 439.5 440.1 440.1 438 435.6 431.4 425.9 419.9 414.4 409.9 406.6 407.1 405.9 404.4 402.9 401.9 402.1 401.1 398.5 395.4 393.1 389.4 384.6 378.8 373 367.4 361.9 356.3 347.7 341.2 337.4 333.8 329.8 324.2 318.8 313.3 307 299.7 293.9 288.4 284.7 281 278.3 275.2 272 269 265.2 261.4 257.7 254.2 253.5 251.5 251.1 249 253 254.6 256.5 259.8 264.8 268.9 273.8 279.2 285 292.1 299.2 307.1 314.9 321.7 329.2 335.5 341.1 344.2 346.5 347.6 346.2 344.2 342.5 342.9 342.4 342.2 341.4 340.9 340.6 343.6 348.3 353.8 360.2 367.4 373.6 378.4 382 384.2 383.4 383.1 382.1 377.8 373.9 368 362.6
571.3 578.2 582.2 585.5 588.4 591.6 593.5 595.2 596.7 597 594.9 590.6 581.3 571.5 568.1 565.6 562.2 558.9 552.6 544.5 538.1 527.4 516.1 502.7 486.1 473 472.8 451.8 435.5 413.3 404.4 404.4 404.4 404.4 404.4 404.4 408.1 412.7 417.1 421.6 426.7 432.9 439.2 443.4 446.8 449.7 450.4 454.1 456.8 458.5 461.2 463.7 466.7 468.7 472.4 475.5 478.2 481.3 484.7 488.4 493.3 496.9 499.6 501.3 502.2 500.6 498.7 497.7 492.3 487.8 485.5 485.5 480 471.5 464.3 457.4 455.8 456.2 456.6 458.4 458.4 458.6 456.6 452.7 452 450.7 449.4 447.4 443.8 439.7 436.5 432.1 428.2 425.4 423.8 422.7 422.1 423.7 426.6 430.8 433.8 435.5 437.5 438 437.8 433.2 428.3 423.4 418.1 413.2 408.4 405.5 400.9 403 401.7 399.5 399 399.1 397.9 394.8 393 391 387.2 381.7 371.8 366.7 363 357.8 351 343.5 338.9 335.3 332.6 328.2 322.6 316.2 311.2 305.1 298.8 293.7 290 286.2 282.1 279.3 277.3 273 268.7 265.5 261.7 258.3 255.7 255.4 251 254 255 254.3 255.5 258.4 264 268.6 272.8 278.4 283.7 289 296.6 304.1 311.8 319.6 327.3 335.3 341.8 348.8 353 355.9 357.3 357.1 356.3 355 353.3 352.8 351.8 350.8 349.7 349.3 351.7 357.1 364.5 370.7 377.7 382.7 385.6 388.2 389.1 387.3 388.9 386.9 385.9 380 374 367.2
584.8 589.4 592.3 594.5 596.9 599.8 601.3 602.6 603.3 604.1 601.8 590.4 579.8 570.7 567.6 565.3 563.6 560.2 554.3 546.8 534.8 523.9 512.2 500.6 488.5 481.6 462.7 448.9 422.6 407 404.4 404.4 404.4 404.4 404.4 404.4 407.2 411.2 416.8 421.3 426.5 432.8 438.2 440.5 444.4 448.3 451 454.3 458 460.8 463.2 466.4 469.9 472.3 474.3 477 480.3 484.3 488.1 492.2 496.4 498.7 499.2 498.8 496.4 493.9 489.5 485.2 484.8 483.3 480.3 474.1 467.1 462.4 458.3 454.5 454.6 455.3 456.6 457.5 458.2 455.1 450.6 448.3 448.2 448.8 445 442 438.4 434.6 430.1 426.8 424.2 422.9 421.1 417.9 420.5 422 423.9 425.9 428.7 432.4 435 435.4 433.1 429 424.9 421.3 417.4 413.9 409.4 405.8 403.3 400 400 398.2 396 396.1 394.2 391.7 389.9 387.7 383.7 379.6 371.8 365.5 358.5 353 349.2 342.8 338.5 333.6 330 326.1 320.3 313.6 308.6 304.2 300.1 294.6 290.8 287.5 284.8 281.1 278.8 273.6 269.7 266.5 262.5 258.9 257.1 255.6 252.8 253.1 256.2 255.6 257.4 262.4 267.7 272.9 276.7 282.1 287.5 294.8 301.6 309 316.1 323.7 331.5 340.7 348.5 356.3 361.5 366.3 368 369.2 369.2 369.5 368.2 365.3 363.9 361.5 359.8 359 362.5 368.1 375.1 381.8 388.2 391.2 391.3 392.5 392.1 390.4 389.4 390 387.4 385.3 379 371.6
594.2 598.3 600.8 602.8 604.9 607.4 608.5 609.1 609.1 606.4 597.9 585 575.5 566.2 562.3 560.1 558.9 556.2 552.1 545.1 538.3 520.1 507.8 495.7 483.4 469.2 453.1 428.5 411.9 404.4 404.4 404.4 404.4 404.4 404.4 404.4 409.7 412 414.6 420.7 426.6 431.4 436.8 440.5 444.1 447.7 450.2 453.4 458.1 462.5 466.3 469.6 472.3 474.6 476.4 479.2 483 486.4 490.5 494.5 498 499.3 498.9 497.5 494.5 490.5 485.3 479.4 476.6 473 467.8 463 458.2 455.5 454 454 455.1 455.9 456.4 458.3 455.7 451.3 447.1 444.2 442 441.5 437.9 435 432.4 429.1 426.1 424 421.8 420.5 419.7 417.8 419.4 420.4 422.5 424.1 426.9 429.9 431 430.4 429.1 426.3 424 421 418 413.9 409.2 406.1 403.2 401.4 399.2 396 391.3 392.2 390.3 388.3 386.8 383.9 378.5 374.5 366.8 360.6 354 349.2 345.5 341.2 335.8 330.9 327.3 323.2 317.9 311.8 307.7 303.9 300.2 295.3 292 289.3 285.8 280.7 276 271.9 267.9 263.6 261 259.4 257.5 256.9 254.7 253.4 256 256.3 260.8 266.1 271.5 276.5 280.5 286.4 291.5 298.8 305.4 312.9 320 327.7 335.7 345.2 354.3 362.9 370.9 375.9 379.9 382.1 384.4 384.7 383 380 378.2 376.4 374.5 371.2 374.4 381.2 385.4 391.8 398.7 399 396.7 395.3 395 393.8 391.3 391.1 391 388.8 383.7 381.2
603.6 606.8 609.8 611.2 612.6 613.9 613.6 611.8 609.9 601.2 588.3 575.3 566.2 558.7 555.3 553.6 553.4 552.2 549.5 541.6 530.4 506.9 493.5 480.5 464.4 452.6 433.8 416.4 409.6 405 404.4 404.4 404.4 404.4 404.4 409.4 411.8 414 417.7 421.8 426.5 430.8 436.5 440.9 445.2 449.1 452.9 457.4 462.7 466.9 470 472.4 474.4 475.6 478.1 482.8 486.1 489.2 492.5 496.2 499.5 500.3 499.3 495.4 490.4 485.4 481.9 477.2 472 466.7 461.5 457.8 454.7 452.8 453.6 455.6 456.6 457 459.7 458.4 453.2 447.2 442.6 439.3 436.3 435.8 433.5 431.5 429.1 427.5 424.4 422.5 420.3 418.9 418.3 417.1 418.7 419.5 421.1 421.2 422.7 424.2 425.1 425.9 425.6 423.5 422.2 420.6 417.9 412.6 408.7 406.1 403.5 401.6 399.2 396.3 392.4 384.7 387 385.4 383.4 379.7 375.2 367.9 360 353 348.6 345.3 340.7 336.9 332.3 326.9 323.7 320 314.9 311.1 307.2 303.3 298.9 294.2 289.6 285.6 283.1 275.9 274.3 271.2 265.1 260.9 259.9 259 256.8 255.8 254.4 253.6 256 257.6 264.6 269.4 274.1 279.1 283.9 289.4 295.2 302.3 308.3 316.3 323.4 330.7 339.9 348.7 358.6 370.7 379.5 385.7 390.6 394.7 397.8 398.3 396.7 395.4 393.8 391 387.6 385 389 391.5 394.8 400 405.9 405.8 402.8 402.3 405.6 399.6 394.3 393.8 395.8 391.2 388 385.2
612 616 618.4 619 619.9 620.9 617.2 610.4 602.2 592.7 581.6 570.5 561.1 554.9 550.4 546.9 546.8 545.5 542.3 535.8 524.2 507.3 487.7 471.5 452.9 434.9 420.7 411.1 410.3 408.8 404.4 404.4 404.4 404.4 404.4 410.4 412.8 414.8 418 422.3 426.5 430.8 435.7 441.7 446.6 450.9 455.5 459.1 463.6 467.4 470.3 472.3 474.8 477.7 483 486.2 488.7 490.6 492.9 495.7 498.9 499.3 495.7 490 482.2 479.3 477.5 472.5 468.2 462.1 456.9 453.1 451.7 452.5 455 456.2 457.9 458.7 456.7 453.7 447.8 444.2 440.3 436.6 435.1 432.7 431.2 429.5 426.7 425 421.9 420.4 418.3 418.6 418.7 417.8 417.3 418.1 419.6 419.3 419.2 419.3 420.9 422.1 421.6 420.2 417.3 416.1 413.5 410.4 407.3 405.4 402.8 400.8 398.3 395.1 390.4 386.1 380 382.4 379.7 376.7 372 366.3 356.9 349.3 344.8 341 336.8 333.1 328.1 322.9 320.2 316.6 312.4 308.7 304 300.4 296 290 284.9 281.1 276.2 274.6 272.4 267.2 262.3 260.9 260.5 258 255.4 255.3 254.4 254.5 259.5 261.2 268.7 274.1 278.7 283.6 287.1 292.4 297.5 304.9 311.4 318.6 325.9 333.6 343.3 352.3 362.8 375.4 387.1 395.1 400.5 404.5 408 410.3 409.4 409.6 409 405.5 401.4 399.7 400.9 400.8 402 404.6 406.7 406 404.3 404.7 404.9 398.4 395.1 395.4 395.6 394.6 392 388.9
619.2 623 625.6 626.3 627.6 629.3 619.5 606.5 593.3 582.8 574.8 563.3 552.9 544.8 539.4 537.7 538.8 538.1 533.2 523.7 514.8 500 479.8 463 447.2 433.4 422.5 417.9 418.2 413.1 410.4 404.4 404.4 404.4 404.4 410.4 412.7 415.3 417.8 422 426.1 430.3 435.5 441.6 446.9 452 455.6 458.6 463 466.4 469.3 471.3 474.8 480.4 485 488.2 488.3 490.4 491.8 493.1 493.1 491.4 487 481.2 476.8 476.7 469.4 465.2 462.7 458.5 452.2 448.6 448 451.5 454.8 455.9 457.7 455.7 450.9 448.8 445.7 442.7 439.3 436.1 434.5 432.1 429.6 427 423.8 422.5 420.8 420.7 421.1 419.8 419.9 419.5 419.2 416 418.7 417.7 416.8 416.7 416.5 415.9 415.7 412.9 411.4 410.7 408.6 406.9 405.4 403.7 401.7 399.3 396.3 393.2 388.2 382.7 380.4 378.1 377.4 373.3 368.4 362.6 354.6 347.4 341.8 336.9 332.6 327.2 321.9 318.2 315.4 311.8 308.6 303.5 299.4 295.7 291.7 286.4 283.1 279.7 277.4 272.8 269.3 264.9 262.4 261.9 261 256.2 255.6 255.2 254.3 258 260.4 266.5 273.3 278.6 282.4 287.5 290.7 294.7 300.4 306.9 313.6 320.6 327.8 336.6 345.9 355.3 365.5 378.1 393 402.7 410 415.2 420.3 420.9 421.2 422.3 421.9 417.2 411.5 406.7 407.6 407.4 406.6 407.1 407.5 404.9 403.8 403.7 399 396.9 397.7 400.4 401.5 400.6 398.2 395
624.2 628.7 631.8 638.6 640 627.8 609.8 592 581.3 572.8 568.2 554.9 542.9 532.3 528.6 529 528.9 527 522.3 515.1 501.9 485.8 473.3 461.1 449.2 440.3 436.8 434.5 428.2 415.4 410.5 409.5 406.4 409.3 408.7 410 411.4 414.2 416.3 421.5 425.7 429.4 434.7 440.6 446.2 451.2 454.4 457.2 461 464.2 467 470.1 474.7 478.4 482.8 485.3 487.5 489.8 489.2 487.4 485 481.4 477.5 473.3 472.4 466.8 464.1 461.6 458.1 455 449.7 447.2 447.6 449.9 453.1 454.7 455 451.8 449.4 447.5 444.7 441.8 439 436.3 435.1 432.4 429.7 426.7 424.7 421.8 422.5 422.6 421.6 421 420.8 420.5 420.2 418.1 414.2 414 413.8 414.4 412.9 410.4 409.2 407.6 407.4 406.7 405.9 404.8 403.3 402.4 399.7 397.6 394.4 390.2 384.1 379.8 378.1 375.3 374.3 370.8 366.8 359.4 353.4 345.9 338.5 332.1 326.4 321.2 316 312.5 310.1 306.8 303.2 299.8 296.2 292.5 288.7 285.2 282.3 279.5 275.7 270.1 267.3 265 263.1 261.3 259.5 256.6 255.8 256.1 254.5 258.9 262.2 268 277.3 281.7 286.2 289.4 292.4 295.7 300.7 308.3 315 322.9 329.9 338.8 347.8 356.5 367.6 379.4 395.1 408.5 418.4 424 429.5 431.4 432 432.1 430.9 426.1 418.7 411.4 410.2 409.9 408.7 407.9 406.8 403.2 402.9 399.2 398.2 400.4 403.8 405.7 406.3 406.4 405.1 403.2
628.1 633.4 640.6 642.4 635 618.3 595.6 579.3 567.1 560 552.1 542.3 529.8 524 524.5 524.7 523.9 521 517.5 509.6 495 480.2 469.5 460.4 452.5 445.8 441.2 437 428 419.9 414.9 411.2 407.3 410.3 410.6 410 413 415 417.6 420.5 424 428.7 434.4 440.3 445.7 449.7 452.5 455.3 458.1 461.5 463.4 466.5 469.2 472.5 476.8 480.5 483.3 485.7 484.4 481.5 477.1 470.6 468.1 469.4 463.2 460.5 457.6 456.6 454.3 449.4 447.1 446.4 448.2 448.4 448.6 449.2 449.9 450.6 449.4 448.2 446.1 443.4 440.7 438.5 434.8 431.4 426.5 424.7 425.6 426.3 425.6 424.3 424 423.3 423 422.3 420.6 418.3 416.7 413.1 408.3 409.8 407.4 406.2 404.7 404.1 404.6 405.2 404.3 403.4 402.6 401.1 398.7 395.5 391.3 388 380.2 376.7 376 373.3 369.2 368.3 364.9 358.6 350.6 343.5 335.4 328.2 321.9 316.6 311.9 308.5 305.8 302.2 299.3 296.5 293.1 290 286.9 283.5 279.7 276.4 271.8 268.7 265.4 262.8 261.2 259.9 258.9 258.1 256.6 257.5 258 260.6 264.8 267.6 277.3 281.7 285.9 289.2 292.4 295.3 300.4 307.9 315.1 323.1 330.8 340.1 349.1 357.4 367.6 378.3 394.4 410.3 422.5 428.7 433.3 435.1 438.4 441.2 439.6 434.6 427 420.3 415.8 411 406.3 404.9 403.8 399.5 398.8 399.2 402.6 406.5 408.5 409.8 411.2 412.1 411 411.6
627.9 634.3 639.5 637 623 600.9 581.1 563.4 553.4 545.8 537.7 530.4 525 520.9 519.7 518.1 516.2 513.4 510.4 500.7 490.4 478 467.2 462.7 454.8 448.5 442.8 435.4 429.4 424.6 416.9 411.2 409.3 411.1 411.1 412 413.8 415.1 416.9 419.1 422.6 427.9 433.9 439.4 443.5 447.5 450.7 453.4 457.1 458.5 458.4 459.1 460.2 463.9 468.8 472.7 476.1 477 476.2 473.3 467.7 460.7 456.2 453.7 454.2 453.6 449.6 447.3 447.4 446.1 445.4 448 449 447.6 448.4 448.3 450.5 451.2 451.1 449.6 447.9 445.1 442.1 439 435 433.8 431.5 429.2 429.5 430.3 429.2 427 426.9 426.6 426.4 424.9 422.9 421.2 419.4 415.7 411.7 405.4 402.6 403.2 402.3 401.4 402 402.5 401.4 400.3 399.9 398.9 397.1 393.5 389 382.5 377.1 373.5 371.8 371.2 368.9 361.7 361.8 352.7 343.6 334.7 328.3 325.4 319.1 314.1 310.2 305.3 301.7 298.8 296.4 293.9 290.4 287.3 284.5 281.5 277.2 274.2 270.8 266.6 263.6 261.6 260.8 259.7 258.5 257.4 257.5 258.8 259.6 262.1 267.4 269.5 277.3 281.7 285.7 289 291.5 294.8 300.5 306.9 315.5 323.8 331.2 340.1 349.1 357.1 366.6 377.2 390.8 409.5 421.3 427.1 429.4 431.4 438.2 445.2 446.9 442.3 434.8 422.8 415.5 408.2 401.5 398.6 396.8 397.1 398.5 402.9 406.4 409.1 412.1 414.6 416.6 418.7 419.1 416.2
620 626.1 627.4 622.3 610.1 587.9 567 554.2 545.4 538.8 533.7 528.8 522.8 518.4 513.6 512.8 511.3 509.9 504 495.1 486.7 475 467.5 461 454.3 447.9 440 433.6 429 423.7 419.8 413.2 411.2 412.5 412.1 412.5 413.4 414.7 416.7 418.8 421.5 426.4 432.8 438 440.6 444.9 449.7 454.7 454.1 452.7 450.4 449.5 451.1 454.7 460 463.3 465.7 465.6 463.9 461.1 457.8 452.3 446.7 447.8 449.2 444.3 440.8 440.7 444.1 445.2 446.1 448.5 448.3 447.2 446.9 449.5 451.5 451.6 451.9 450.2 448.7 447.5 444.5 440.2 439.5 437.2 434.3 433 433.8 433 431.3 431.1 431.8 431.1 429.8 428.1 426.2 423.7 420.6 416.2 411.1 406.9 402.5 400.8 400.2 398.4 399 397.9 398 398.1 397.4 397.3 394.6 389 385.7 381.4 377 373.6 371.1 367.9 366.7 364.7 360.8 355.1 348.6 341.9 334.3 325 319.1 313.5 307.2 301.8 298.6 295.6 293.9 291.2 289.1 286.2 283.1 279.2 274.8 270.4 267.8 265.6 264 261.2 260.3 259.8 259.4 259.1 259.2 259.4 261.9 264.4 269.7 272 276.1 282.2 284.8 288 290.6 295.3 300.7 307.2 315.5 323.2 330.4 340 348.2 356.4 364.9 374.9 384.8 402.1 415.8 421.1 421.9 423.1 428.2 436.4 440.9 437.5 428.2 414.6 402.3 397.9 394.6 393.7 394.4 397.5 403 407.5 410.3 412.2 416.7 419.1 421.2 423.5 423.8 421.6
610.1 608.7 607.3 600.1 587.6 573.4 560.6 552.9 543.5 540 533.9 527.3 521 518.7 515 512 510.9 501.8 495.6 487.9 480.9 472.6 467.1 460.3 456 448.7 441.7 437.1 431.3 425.4 419.2 414.3 413.1 413.1 412.9 412.8 413 414.5 415.7 417.4 420.3 424.9 431.4 436.4 439.3 446.1 452.2 454.6 448.9 444.3 441.8 442.2 444.4 445.7 449.4 454.4 454.2 453.6 453 451.7 448.9 445 442 442 438.9 436.5 438.3 439.5 439.6 441.9 442.6 443.6 443.3 443.4 445.2 447.8 449.9 450.5 450.6 449.9 448.7 448.3 446.7 445.2 442.6 441.1 441.1 440.2 440.3 438.1 436.2 436.1 436.4 434.8 434.2 433.3 430.2 425.6 420.4 416 411.8 406.8 402.6 399.9 396.6 395.9 395.6 395.2 394.9 395 394.9 394.4 392 387.3 383.2 379.9 376 373 370.4 368.5 365.7 362.7 359.1 354.2 348.1 341.7 335.6 327 320.2 311.9 305.3 301.1 297.5 293.9 290.8 288.9 287 285.1 282.4 278.5 275.2 270.7 266.9 267.2 263 262.8 262.8 261 260.4 261.2 261.9 260.8 262.2 266.4 269.8 273.8 275.8 280.7 283.9 288.4 292 296.4 301.2 307.3 314.7 322.3 330.4 338.7 347.4 355 363.2 371.3 379.9 390.3 402.4 407.5 410.7 412.2 412.5 420 426.5 424.7 416.3 403.2 393.6 391.9 391.4 391.6 395 400.1 405.2 409.5 413 417.2 421.3 424.1 427.3 427.6 427.3 425.7
599.7 596.8 593.6 588.9 581.6 572.1 562.6 555.2 549 543.4 534.2 524.7 519.2 516.5 507.7 504.9 500.4 495.3 490.9 483 476.4 470.6 466.8 463.1 459.6 454 446.9 441.9 434.2 425.1 421.5 417.7 414.8 414.2 413.5 412.9 412.2 413.1 414.9 415.5 417.7 423.2 429.4 432.4 434.9 443.8 446.3 442.5 438.6 434.9 433.3 433.8 433.3 435.4 439 442.7 445.5 447.6 448.8 445.5 440.8 439.2 438.1 435.5 434.4 434.6 432.4 431.3 434.7 437 438.4 438.9 440.3 442.1 444.9 447.1 449.1 449.8 449.6 449.8 448.7 449.6 449.5 449.6 448.8 449.6 448.7 447.9 448.1 445.2 444 443.6 444.2 443 441.3 438.9 435 429.3 423.6 419 413.7 406.1 400.3 398.1 396.7 392.3 393.6 392 392.1 392.8 393.2 392.6 390.7 386.5 382.2 377.7 375.2 371.8 369.3 367 364.5 362.1 359.4 353.7 349.2 342.4 333.9 325.4 317.9 309.6 305.5 301.4 296.8 293.6 291 288.4 283.9 280 278.5 274.7 272.8 269.5 270.3 264.5 263.9 265.9 264.9 263.3 262.1 262.7 262.3 262.3 262.3 268 270.4 274.6 278.8 281.5 284.9 288.6 292.7 297.4 301.9 308.3 315.7 322.7 330.1 338.5 345.9 353 360.4 366.9 374.4 381.9 391.6 395.5 395.5 398 398.2 400.5 406.1 407.3 399.9 391.1 387 386.3 387.6 390.1 396.7 402.2 406.9 411.8 416.4 422.3 426.6 429.8 431.4 431.6 431.5 431.1
593.6 591.2 589.8 586.7 581.7 575.8 566.2 561 554.6 549 540.5 528 518.1 508.6 502.7 501.4 496.8 491.1 486.1 480.8 475.1 471.9 467.9 463.3 460.1 454.1 449 442.5 435.7 430.2 424.6 419.1 416.2 414.5 414.1 412.8 410.8 412.5 413.4 411.4 415.9 422 423.8 423.4 425.1 429.4 430.4 429 428.8 427.3 424.6 426.1 426.6 426.6 430 434.8 439.5 441.8 438.4 434.7 435.1 437.1 435.1 432.5 433.9 432.7 429.3 429.2 431.9 433 435.1 436.2 440.5 442.5 444.3 446.3 447.4 446.8 448.6 450 451.4 452.1 453.1 454.9 455.5 456.7 455.9 454.9 455.1 454.4 454.8 455.6 455.4 453.7 451.5 445.6 441.1 434.9 429.1 421.5 412.9 404.2 399.7 397.7 396.2 394.2 389.6 390.7 389.7 390.9 391.3 390 387.7 384.6 380.1 375.5 372.8 370.7 368.3 366 363.9 361.1 359.2 353.9 348 340 331.9 322.9 316.8 311.3 304.3 299.3 295.9 293.8 291.4 287.9 285.7 282.4 278.9 276 272.2 273.2 268.6 269.6 268.3 268.5 266.8 266.1 265.2 264.4 264.5 263.2 265.3 266.8 271.7 275.8 278.8 281.7 285.9 288.7 292.8 296.9 302.3 308.3 315.5 322.6 329.3 337.5 344 350.3 357 363 368.7 375.2 379.7 383.6 385.2 386.2 386.4 387 387.2 387.8 384.2 382.4 381.9 382.3 386 393.8 399.6 405.3 409.5 414.6 420.1 425.6 430 433.4 435.9 436.9 437.8 436
590.4 587.2 584 582.2 581.1 576.9 572.4 563.4 555.3 547.9 538.7 527.8 517.5 508.9 501.8 496.4 492.5 487.7 482.5 477.9 472.4 468.6 464.9 461.3 457.5 453.5 449.1 445.9 440.3 434.5 429.3 424.3 419 415.5 414.6 413.9 409.3 410.7 410.5 408.8 412.6 418.4 414.6 411.9 413.1 414.4 419.5 422.2 421.4 419.1 417.1 417 417.6 419.4 423.4 428.8 429.7 427.9 427.5 429.8 432.7 430.9 428.4 428.6 427.7 425.8 425.5 425.9 427.7 431 434.4 437.7 440.5 442.2 442.5 444.2 446.7 447.1 449.9 451.5 453.7 456.4 458.1 459.8 460.8 461.4 461.4 462.5 463.6 463 465.2 467.1 468.2 465.7 462 456.6 450.4 443.7 435.1 426.1 416.1 405.1 400.3 397.8 395.5 392.6 390.7 387.5 386 385.3 387 386.1 383.4 380.1 376.8 372.8 370.3 368.5 365.6 363.9 361.1 357.7 354.2 349.6 344.1 337.7 329.6 324.5 319.1 310.3 303.3 298.3 295.5 293.4 291.2 287.9 283.5 279.7 277.4 277.5 276.2 272 273.5 272.7 271.8 271.8 269.8 269.3 268 266.8 266.6 264.8 265.8 268.3 269.8 276.2 280.1 283.3 286.4 289.3 292.1 297.1 303.2 309.6 315.9 322.1 328.3 334.8 341.5 347.3 353 358.2 363.5 368 371.4 374.2 375.5 376.8 378.4 379 379.7 380.2 380.4 380.2 380.7 384.9 391.2 396.6 401.5 407 411.5 417.9 422.9 428.4 433.3 436.9 440.4 441.9 442.3 442.1
593.2 590.7 587.9 584.2 582.4 580.3 572.9 562.5 553.4 545.7 535.4 525.4 518.8 513.3 507.5 500.8 493.8 488.8 484.9 479.1 474.8 471.1 467.6 463.7 459.4 454.9 451.4 449 444.8 439.1 434.6 429.9 424.3 419.1 415.6 414.4 413.2 407.2 411 409.9 405.1 403.4 402.1 401.8 403.2 404.3 408.3 410.5 414 414.5 413.3 413.3 412.5 414.4 418.4 419.7 420 421 422.2 424.6 424.3 422.1 421.7 420.8 421.2 422.1 423.1 425.6 428.6 431.1 434.7 438.6 441.8 443.5 445 446.2 447.9 449.7 452.3 454.2 456.7 460 462.1 464 465.6 467.9 469.9 473.2 475.1 476.6 476.9 479.6 479.9 478.6 475.4 469.9 462.1 452.1 440.8 430.8 419.6 409.3 403.8 401.1 398.3 393.2 389 389.1 390.5 390.4 387.5 378.7 378.9 375.6 371.6 366 364.5 360.9 356.9 355.2 352.9 349.7 348.7 343.7 338.5 333.1 327 321.5 314.3 308.6 302.3 298.1 295 293 290.7 287.7 283.2 283.5 281.8 278.8 274.6 277.5 276.6 276.1 275.5 275.8 274.4 274.1 272.3 270.1 267.9 267.8 266.3 269.5 272.2 273.3 276.9 281.7 286.7 289.8 294 298.8 304.1 309.3 315.4 321 325.7 332.6 338.4 343.2 348.6 353 357.6 361.5 364.5 366.9 368.7 370.7 372.8 374.7 376.7 378.2 378.9 381.1 384.4 389 394 398.8 403.5 408.8 413.5 420 424.7 430.5 436.1 440.3 444 445.9 447 446.5
594.7 592.4 590 588.3 585.4 578.2 569.7 561.2 553.5 544.7 535.3 529.1 524.2 516.9 510.9 503.3 496 492.2 486.5 483 478.9 474.8 469.9 464.3 461.3 457.7 452.1 446.1 444.7 442 438.6 434.8 430.4 424.9 420.4 416.1 411.4 405.9 406.1 408.6 404.7 398.3 395.1 396.1 397.2 398.5 399.4 402.8 405.5 407.1 407.7 408.9 407.6 408.1 408.6 410 413.6 417.1 419.4 418.1 416.5 416.7 415.8 416.6 417.7 419.9 421.6 424.5 427.8 430.5 433.9 437.7 440.9 443.1 444.9 446.2 448.5 451.6 454.3 457.1 459.9 462.7 465.9 468.9 472 475.5 478.6 481.6 484 486.5 489.2 490.8 492.3 491.2 486 479.3 469.6 458.5 446.8 436.6 426.7 415.4 413.3 409.8 402.4 395.8 393.8 391 391.7 392 390.4 387.7 383.1 382.7 379.6 377.6 373.9 371.2 366 358.9 358.8 356.9 353.1 348 340.8 333.6 327.5 321.5 313.9 302.8 300.3 297.4 294.6 292.1 289.1 284.6 285.4 285 282.8 278.4 280.7 280.4 279.6 279.2 280.5 279.8 277.9 278.1 276.9 273.7 269.2 267.1 268.1 270.5 274.1 277.5 280.3 281.3 282.7 288 294.2 298.9 303.3 309.3 315.3 320.2 323.7 329.1 334.5 339.4 343.8 348.6 352.7 355.5 358.3 360.6 361 365.8 369.6 372.2 373.5 376.3 379 382.3 385.9 389.7 394.8 400.5 405.5 411.1 416.4 422.3 427.2 433.6 438.8 442.8 446.4 448.9 451.5 452.4
596.4 594.2 590.1 587.2 582.4 573.7 565.7 558.3 551 543.7 537.6 534.3 526.5 518.4 512.6 504.8 497.4 494.1 490.4 487.5 483.2 478.5 472.8 470.2 464.6 460.1 454.6 447.9 442.6 439.1 434 430.5 430.3 429.9 425.4 418.9 412.2 406.4 401.8 400.8 399.1 395.3 391.9 392.2 392.9 392 393.5 394.8 396.2 396.7 398.5 400.6 400.6 400.7 401.9 404.2 408.7 413.2 413.7 412.7 412.4 412.2 412.5 412.7 416.4 419.8 421.6 424.1 426.5 429.7 433 436.4 438.9 441.1 443.2 446.5 450.4 453.2 457.2 460.3 463.2 466 469.9 473 476.6 481.8 485.5 488.8 492.5 495.8 500 503.8 504.5 503 497 487.7 477.1 464.5 453 442.5 430.9 420.3 413.6 409 405 403.1 398.3 394.5 393.5 395.5 394.2 391.8 389 386.3 383.6 380.2 376.7 373.3 370.4 366.5 360.2 352.1 346.8 341.1 335.5 333.5 329.6 323 317.4 309.7 300 296.2 294.3 290.9 288.6 288.9 287.9 286.4 282.9 283.3 282.5 283.1 283 282.9 283.5 283.3 282.6 282.2 278.4 274.5 270.1 268.6 270.5 273.7 276 278.7 282.4 285.8 287 290.4 292.7 292.8 301.6 307.5 313.4 317.5 322.4 327.2 331.9 336.9 341.1 344.9 347.6 349.7 352.4 354.5 357.6 362.5 365.7 369.3 371.4 373.8 376.8 380.4 385.2 389.2 394.9 401.5 407.1 413.4 419.1 424.4 429.3 435.5 441.3 445.1 449.8 453.4 456.1 457.4
594.9 592.9 588.2 581 574.3 567.6 561.8 555.1 548 544.1 541.2 535.4 528.8 521.3 514.8 508.2 502.9 497.8 495.1 491.1 487.2 480.8 479.2 474.6 467.8 460.9 454.2 448.7 443.2 436.1 428.9 425.6 422.4 418.7 415.1 410.6 406.9 405.3 400.5 395.6 392.7 391.3 390.4 389.4 389.4 389.2 389.3 389.7 391.7 392.8 392.9 393.1 393.4 396.4 396.8 398.1 402 404.4 406.6 407.6 408.5 409.3 407.7 411.6 414.7 417 420 422.7 425 428.2 431.7 434.8 437.1 440.5 443.5 447.4 451.4 455.1 458.7 462.2 465.7 469.9 473.2 476.2 481.3 486 490.9 496.2 501 507.2 513.4 516.8 516.3 514.4 507.2 496.9 482.7 467.7 456.3 447.4 435.5 430 423.4 417.7 410.4 405.5 398.6 395.8 398.5 399.2 398.3 396.1 392.3 389.7 386.3 382.5 378.9 375.6 371.8 368.3 361 359.3 356.3 349.1 339.5 329.2 325.1 320.2 313 304 300.1 298.5 295.7 292.6 291.6 290.4 289 284.8 283.2 286.9 285.8 286.9 287.1 286.9 286.8 287.1 286 285.6 281.6 275.3 271.4 270.4 272.5 275 278.1 280.9 284.4 287.5 290.2 293.6 296.2 299.5 299.6 303.2 302.2 307.3 318.2 323.6 329.5 333.6 337.9 341.2 343.9 346.8 349.3 350.8 350.7 358.1 362.7 364.4 366.4 371.6 374.8 378.6 384.6 388.8 394.2 401.2 407.3 413.6 420.1 425.2 431.2 438 443.6 448.1 452.9 457.7 460.7 462
591.8 588.2 583.8 576 568.9 561.3 556.2 550.3 547.1 544.5 541.1 536.4 531.7 526.3 519.8 513 507.2 502.8 499.3 492.2 489.6 487.5 484.9 478.5 470.5 462.8 456.1 451.3 443.4 436.5 432.2 425.8 418.6 412 409.8 406.4 405 404.5 401.2 394.7 391.9 389.5 388.3 386.9 386.7 386 385.8 386.7 387 387.6 387.3 388.4 388.8 390.6 391.8 393.3 396.6 400.1 402.3 403.3 403.9 404.3 408.9 410.6 411.8 414.7 418.5 421.9 424.9 427.3 430.5 433.9 436.7 440.2 444.1 447.5 451 455.2 459 463.1 467.7 471.7 475.9 478.6 484.4 490.2 495.3 503.8 511.8 517.3 522.9 525.4 524.9 519.9 512.9 502.1 489.3 474.4 463.8 451.9 442.6 439 432.4 423.6 417 406.8 398.2 401.8 404.6 403.2 402.9 400.1 396.4 392.9 389 385.7 382.5 378.8 374.7 371.6 367.3 363.8 358.8 352.3 343.4 334.2 321.9 316.9 311.2 307.4 304 299.4 296 295.2 294.2 291.8 289.3 288.7 288.4 290.2 289.4 290.5 290.6 290.5 290.4 289.4 288.5 287.4 282.7 277.3 274.2 271.5 274.1 276 278.8 282.1 285.8 289 292.1 295.2 298.3 302.3 306.3 310.1 313.3 316.8 313.3 313.4 321.7 325.2 332.6 332 334.3 337.6 340.7 345.3 356.9 354 362.6 366.1 368.7 366.2 372.9 375.7 381.6 387.4 393.5 399.3 405.4 412.6 418.7 425.6 432.3 439.5 445.9 451 456 462 465.1 466.7
585.7 581.5 576.3 568.6 562.4 555.8 550.8 548.2 546.1 543.9 541.6 538.8 535.7 530.1 523.5 518.2 513.1 508.9 502.6 499.4 494.9 493.9 488.8 482.9 476.3 469.6 464.3 458.2 447 438.6 432.1 427 421.8 415 410.1 405.6 402.8 401.9 399.9 396.3 393.1 390.2 387.4 385.1 383.7 383.5 384.1 384.6 383.9 384 383.9 384.5 384.5 386.3 387.8 389.7 390.9 393.7 396.2 398.4 397.5 405 407.3 408.8 410.1 413.8 417.4 420 422.6 426.8 431 434.3 437.6 440.7 444.1 446.7 450.9 456.4 461.1 465.9 470.1 474.4 478.2 480.6 486 491.4 498.3 509 517.1 524 528 529.4 530.6 527.7 520.5 511 497 484.9 471.7 458.4 452.3 446.8 439.5 430.7 420.5 410.2 406 411.4 411.9 408.5 406.4 403 400.9 397.6 392.7 389.1 385.5 381 377.2 374.7 372.4 369.6 362.2 354.7 346.3 338.8 330.6 323.3 314.4 308.4 304.4 299.9 297.6 296.9 294.8 293.1 292.2 290.2 292.8 293.2 294.1 294 294.5 296 296.5 294.6 291.3 287.8 285 279.7 276.7 273.5 274.3 277.3 279.9 282 285.2 289.1 292.9 296.7 300.1 303.9 307.8 311.9 315.9 319.9 323.2 325.6 321.3 333.9 336.4 341.3 339.8 346.6 350 355.1 358.6 361.7 365.8 368.9 372 374.2 374 372.2 379.3 384.7 391 395.5 402.6 412 418.6 425.8 432.9 440.3 447 452.9 459.3 464.7 468.3 470.3
578.1 572.2 567 560.2 554.3 549.8 547 546 545.5 543.9 542.1 540.5 537 532 527.4 520.8 515.9 513.2 507.9 505.2 502.3 500.5 496.2 490.7 484.3 478.6 472.6 462.6 454.1 446 440.4 430.3 423.1 418.9 414 410.2 405.7 399.2 396.7 395.7 393.3 390 389.9 386.3 383.4 382.1 382 382.4 381.7 381.6 380.2 381.4 382.6 383.6 385.7 387.3 388 388.6 390.2 395.4 400.4 403.5 405.4 406.9 409 413.3 416.5 419 423.4 427.6 431.2 434.6 438.4 442.5 445.9 448.8 451.9 457.3 462.7 467.6 472.1 476.2 479.7 482.1 485.4 491.8 498.6 508.7 517.2 524.3 526.7 528.1 530.2 530.9 527.9 517.4 508.4 495.2 480.9 467.1 460.3 452.9 442.9 433.2 428.7 417.8 416.5 420.4 419.9 416.9 412.9 406.8 403.4 400.8 397 392.4 387.2 384.3 383.8 381 379.2 375 366.4 358.8 352 346.8 336.7 327.3 320.4 312.3 306.5 301.4 299.9 298 296.7 296 295 293.3 294.9 296.5 297.1 297.8 298.2 300.8 299.7 298.3 295.9 289.9 286.2 282.2 278.7 276 274.6 277.2 280.4 283.5 285.1 288.4 292.1 296.7 301.1 305.7 309.5 313.5 317.5 321.7 325.1 328.9 331.8 335.2 338.1 341.5 345.5 349 352.4 356.3 360.6 364.7 368.9 373 376.3 378.4 379.3 379.3 375.5 380.7 388.6 395.6 404.3 411.6 418.4 425.6 433.4 441.1 447.3 453.8 460 466.2 470.3 472.8
570.9 565.3 559.6 552.7 549 547.4 546.5 545.7 544 542.6 540.7 539 535.3 532.4 528.7 524.9 521.6 518.8 514.5 511.9 509.5 506.7 502 497.8 492.2 486.9 481.1 472.2 461.8 454 447.1 435.3 428.2 421.7 417.4 413 407.5 404.4 401 397.2 393.9 391.9 390.3 386.7 384.4 382.9 380.2 379.7 379.3 380.4 379.4 379.6 380.2 382.1 383.7 384.7 384.5 386 390.1 393.8 397.4 399.9 401.6 405.6 407.3 409.2 415.5 419.8 424.2 428 431.5 435.2 439 442.6 445.9 449 453 458.2 463.7 467.5 471.8 475.7 479 481.1 484.4 490.9 496.8 501.5 510.4 517 520.3 522.3 525.7 528.9 528 522.4 511.4 498.3 483.2 473.2 466.4 457.9 450.1 442.9 434.3 426.1 428.5 429.7 427.3 423.8 419.7 414.9 408.4 404.1 399.4 395.6 391.5 390.7 391.3 386.9 388.2 382.3 374.8 367.3 359.9 351.6 341.6 332.6 325.4 316 308.6 304.9 302.6 299.1 299 298.2 299.3 294.4 298.7 300.1 300.6 301 303.6 303.8 303.8 300.3 296.4 292.4 287.7 284 279.9 277.4 276.4 278.6 281.4 285 288.4 291.5 294.5 296.8 300.4 305.9 310.1 314.9 319 323.4 326.8 330.8 333.7 337.2 339.8 342.6 346.8 350.7 354.3 359.1 363.4 369.1 374.8 379.3 383 384.1 384.8 384.6 384 385.3 384.6 392.8 403.4 411.6 417.8 424.7 434.1 441.4 447 452.6 459.2 466.5 470.3 474
568.8 561.4 555.3 549.6 547.2 547.5 547 546.1 543.9 542 539.9 537.1 534.7 533.6 531.9 529.3 525.9 524.5 521.1 518.4 516.2 513.2 509.3 504.9 500.6 496.1 488.7 480.5 472.9 464.1 453 443.1 434.4 428.2 422.2 417.9 414 411.8 407.8 401.7 397.4 393.8 389.7 385.8 384 384 383.3 381.9 379.7 377.3 378.4 378.4 377.9 378.7 380.7 381.8 379.2 382.8 386.8 389.3 392.9 394.7 398.2 400.1 402.5 409.4 415.4 420.1 424.5 428.2 431.7 435.4 439.2 442.8 445.6 449.8 453.1 458.2 464.7 469.4 472.6 475.4 477 478.3 481.5 487.6 493.2 496.7 500 505.8 510.3 516.9 522.4 527.3 528.9 527.1 516 500.6 487.1 477.1 470.7 465 457.5 449.9 440.4 439.3 440.8 438.9 435.9 431.4 424.2 419.2 417.2 411.2 410.2 403.6 399.8 399.4 397.1 396.8 395.8 390.1 381.5 372.8 363.6 354.6 345.1 337 326.5 318.4 312.5 308.5 304.4 301.7 300.9 301.8 301.5 298.9 302 302.8 303.5 304.2 306 307 304.6 301.6 298 294.5 290.5 286.5 281.9 278.9 278.2 281.5 283.7 286.4 290.2 293.7 296.9 300 303.5 304.2 309.9 314.1 318.9 324.1 328.1 332.6 335.5 338.6 341.7 345.9 348.8 353.2 355.1 361.6 367.6 376.2 382.3 386.9 391.9 393.2 392.8 391.2 390.7 391.2 394.1 397.3 397 409.8 417.8 423 434 441 445.6 450.8 455.9 462.1 468.5 477.4
565.4 559.1 554 549.7 548.3 548.3 547.6 546.8 544.9 543.2 541.7 539.7 537.4 536 534.2 532.2 530.1 527.4 524.6 522.7 520.1 517.2 513.5 509.2 506 501.6 494.8 487.3 477.2 468.7 456.9 446.6 437.5 431.6 428.8 425.8 424.1 416.5 412 406.2 401.2 396 389.3 385.8 386.2 385.2 383.5 382 380.4 378.1 375 376.5 375.5 377.2 377.9 377.7 376.4 379.8 381.3 383.2 386.8 390.3 392.3 396 402.3 408.9 414.3 418.4 421.7 425.7 430.6 434.3 438.5 441.9 446.5 449.6 453.7 458.8 465.3 470.2 472.4 474.2 474.8 476 478.6 481.8 486.4 489.3 493.6 498.9 503.9 509.9 517 523.8 527.7 526.6 518.2 505.8 494.6 483.7 476 470.4 464.2 455.8 452.4 453.1 452.1 448.2 442.8 437.2 429.5 423.1 419.1 417.3 412.6 410.9 407.7 403.6 402.7 403.2 400.8 395.4 386.2 379.1 368.6 361.6 351.6 339.7 328.1 322.1 318.5 311.2 306.1 303.5 304.9 305 303.9 300.5 304.8 305.5 306.2 307.1 308.3 308.5 307.2 303.7 300.1 296.6 292.3 288 285.4 282 282.3 283 287 288.4 291.1 295.1 298.5 302.2 306.3 309.2 312.6 314 318.3 323.4 328.8 333.9 337.2 340 343.4 345.7 351.7 356.5 360.8 368.2 376.3 385.4 390.6 395.1 399.1 401.1 400.4 398.2 398.1 398.6 402 403.3 407.9 405.4 409.1 424 429.2 438.1 444.2 449.3 454.1 459.9 474.1 482
564.1 558.4 553.8 552.3 551 549.7 549.3 548 546 544.6 544 542.2 540.2 537.5 536.1 534.3 533 531.3 528.5 526.5 524.1 521.3 518.1 514.2 510.5 505.7 500.2 492.5 482.8 472.1 461.8 451.1 443.3 436.7 435 431.3 426.2 421 415.8 409.8 406.3 399.8 390.7 388.1 387.4 385.7 383.5 381.4 379.5 377.2 375.2 374.8 374 374.4 375.2 374.9 373.7 374.8 376.8 379.5 383.1 386.3 388.5 394.3 400.7 406.3 411 414.9 420.3 424.8 427.9 432.2 436.7 441.2 445.7 450.4 453.7 458.5 464 469 470.9 472.5 473.1 474.9 476.6 479 481 485.1 489.5 494.4 499.2 505 511.9 518.5 523.2 524.1 518.2 511.1 502.3 492.3 484.7 479.4 473.8 469.5 468 465.3 461.4 455.9 449.5 443.3 435.9 429.2 423.2 421.4 416.5 416.3 413 407.8 405.4 405.3 403.4 396.1 387.8 378.1 371.1 361.9 352.5 339.9 331.8 327.3 319.9 312.4 307.6 305.7 306.6 307.3 306.3 302.9 307.5 308.5 309.6 311.4 311.8 311.7 309.5 306.2 302.7 298.8 294.5 291.5 289.1 285.5 286.7 284.7 288.5 291.6 292.4 296.9 300.3 303.8 307.1 310.6 313.8 318.6 320.8 324.4 329 334.4 338.9 342 345 350.2 356.6 362 364.1 374.9 383 391.9 397.9 402.5 406.2 407.8 408.4 407.4 405.9 406.8 409.3 410.5 413.1 418.9 414.4 426.9 432.6 438.8 441.3 448.6 454.7 466.9 477.3 485.9
564 560 557.3 556 554.4 552.1 550.4 549 547.8 547.2 545.2 544.1 542 539.9 538.5 536.7 535.6 533.8 531.2 529.4 526.9 524.5 521.6 518.2 513.6 509.3 502.8 494.8 486.7 476.4 467.1 458.9 450.3 443.9 437.1 433.3 429.5 424.1 421.1 414.5 408 402.4 395.8 391.8 389.2 386.9 383.9 380.4 380.7 380 379.3 376.1 374.5 371.9 371.9 372.3 372.6 372.7 372.9 375.6 378.6 381.2 385.3 390.1 395.5 400.5 409.1 414.2 418.1 421 424.6 429.6 435 440.1 444.5 448.8 453.3 457.4 463.4 467 469.5 470.4 471.6 472.7 473.8 476.1 478.3 482.5 487.2 491.6 496.9 502 507.9 513.6 517.3 519.2 516.6 512.3 504 495.8 490.5 488.4 484.7 481 478.4 474.5 468.6 461.4 455.1 448.2 441.9 435 429.1 424.7 421.5 420.5 417.2 413.2 409.1 404 402 395.9 388.3 378 369 361.3 351.3 341.1 336.5 329.1 321.1 313.5 310.1 307.7 308.6 309.5 308.6 306.2 309.8 311.3 312.8 314.4 315.5 314.3 311.3 307.9 305.3 301.8 297 294.6 291.4 288.1 288.9 290.6 290.5 293.3 295.2 298.2 302.5 306.4 309.8 313.3 315.2 319.5 324.9 327.9 331.6 335.8 341 345.7 350.1 356.7 362.2 367.6 373.4 380.3 389.4 396.2 403 407.7 412.9 415.7 417.3 417.7 415.3 415.9 418 418.8 421.7 425.8 431.2 426.6 432.2 445 447.8 451.7 461.8 474.4 482.3 488.6
565.8 563.3 562 560 557.7 554.5 552.4 550.8 550.5 549.2 548 546.5 544.7 542.6 541.2 539.5 538.3 536.8 533.8 532.2 530.2 527.9 524.3 521 515.6 511.5 504.4 498.8 492.5 482.6 474.4 466.1 458.4 450 442.2 437.7 434.4 430.6 424.6 417 409.4 402 396.9 395.4 391.4 387.7 385 384.1 383.8 381.9 379.2 376.6 375.4 373.8 372.3 370.4 370.2 370.3 371.2 373.2 375 377.8 381 385.3 390.2 396.1 403.9 409.5 413.2 415.9 421.6 427.5 433.1 438.6 443.1 447.5 452 456.4 461.2 464.7 466.4 469 469.8 471.2 471.5 474.6 477.2 482.2 485.7 490 494.5 498.8 503.1 508 511.4 512.3 512 509.4 503.4 499.6 495.7 493.4 492.9 490.7 486.7 480.7 472.8 464.7 457.6 451.3 445.2 438.3 433.3 428.6 425.2 422.5 419.4 415.1 411 404.8 399.5 394.6 386.1 375.7 366.9 360.3 351.9 345.3 338.2 331.9 325.1 317.8 312.5 310.1 311 311.2 309.3 308.5 311.1 313.4 314.9 316.1 317 316.3 313.5 310.6 307.8 302.8 300.7 297.7 294.3 289.1 290.1 293.2 293.3 296.5 298.4 300.9 303.7 308.7 312.2 315.9 318.6 320.1 324.6 329.1 335.7 339.7 341.6 348.3 354.4 361.2 367.2 373.3 379.7 387.9 396 402.9 409.3 414 421 424.4 428.8 425.7 425.2 424.2 425.3 426.6 427.8 430.8 437.7 437.7 438.3 440.3 453.1 462 467.2 480.6 488.5 495.1
570.4 567.5 565.8 563.4 560.5 557.3 555.2 553.2 552.5 551.2 550.6 548.6 547.2 545.7 543.6 541.6 540 538.7 537.6 535.9 532.7 529.9 527.3 524.6 520.7 515 509.6 504 497.3 491.2 482.6 473.6 465.4 456.7 449.6 443.2 438.5 433.1 428.2 420.2 412.6 403.2 397.6 391.4 393.9 391.8 388.7 386.9 383.4 380.1 377.5 375.4 373.9 373.2 372 369.2 370.4 368.2 369.7 370.3 372.8 375.2 376.9 379.9 383.2 388.8 396.2 402.4 406.9 413.3 420 425.9 431 435.4 440.3 445.2 449.6 453.4 458.1 461.5 463.4 465.1 466.4 468 469.6 473.2 476.8 480.9 485 487.7 491.3 495.5 499.6 503.3 505.2 507.1 504 502.7 501.1 499.9 500.2 498.4 497.7 495.8 491.4 483.6 476.4 467.4 459.8 453.4 446.4 439.9 435.9 431.3 426.8 423.5 420.2 415.8 410.5 405.1 398.3 393 384.7 374.1 365.5 360 355.4 348.9 342.2 334.7 327.9 321.6 316 312.3 313.3 312.4 311.7 310.3 313.6 315.4 316.7 317.9 317.9 316.6 315.7 313.1 308.2 306 303 300.3 296.6 292.1 292.4 294.7 296.3 299.1 300.7 303.9 308 310.4 313.6 317.9 321.4 324.4 328.6 334.2 339.7 344.1 347.4 351.5 356.1 364 370.4 377 385.7 393.9 402.1 410.2 416.3 422.3 430.6 434.5 435.7 434.4 434.5 432.7 433.7 435.2 435.9 438 441.6 441.6 441.7 449.7 456.5 467.3 475.3 487.5 494.2 499.7
575.4 573.4 570.3 567.4 564.1 560.8 557.9 555.6 555 553.4 552.6 551 549.1 547.9 546.1 545.4 543.7 543.2 541.9 540.6 538.5 535.5 533 528.2 524.8 519.6 513.6 507.4 502.3 495.9 488.5 481.2 472.5 464.7 457.8 450.8 443.2 438.7 432 423.6 414.7 406.1 402 401.4 399 396.5 392.5 389.4 386.4 383.5 379.4 377 374.5 373.3 371.6 370.7 368.7 367.8 368.4 367.3 369.9 372.4 373 374.8 376.9 381.8 388.8 395.1 402.1 409.1 416.5 422 427 433.1 438.9 442.8 446.5 451.1 455.4 458.9 460.9 462 462.3 466.1 469.7 471.9 476.2 480 482.9 485.1 488.8 491.3 495 497.2 498.9 500.7 498.9 498 499.2 499.4 499.8 499.8 499 498.3 493.6 486.7 478.5 470.1 461.5 454.2 447.4 440.5 435.3 431.2 426.6 423.8 420.6 415.5 409.9 403.9 397.9 390.8 382.4 373.3 367.8 363.4 358 351.2 344 337.5 331.2 325 318.9 316.1 315.1 314 314.2 313.2 315.2 317.2 318.5 319.4 319.5 318.5 317.5 314 311.4 309.4 305.3 302.5 297.8 296.2 295.6 296.7 299.3 301.6 303.9 306.7 310.3 313.9 316.7 320.4 324.4 329.1 332.6 338.2 343.6 348 352 356.8 360.5 364.8 372.9 381.8 389.9 398 406.4 414.6 422.6 430.3 440.3 443.4 444.7 442.2 441.5 442 443.6 445 445.1 444.9 447.7 449.6 448.8 456.2 460 471.7 484.3 492.9 498.9 503.5
578.5 577.8 575.8 572.4 569.4 566.7 563.5 560.1 558.3 556.7 555.1 554.1 553.1 551.6 550.3 550.4 549.8 550.1 548.2 546.5 544.5 541.7 537.8 533.5 528.9 523.1 516.3 510.7 505.3 499.9 493.2 486.9 479.9 472.7 464.9 457.3 449.6 442.4 435.8 429.7 411.1 412 413 411.3 409.3 406.5 402.9 396.3 392.9 387 384.1 382.7 380.5 380.3 377.1 375.1 373.9 371.1 367.1 367.1 366.5 368.9 369.7 370.9 373.3 376.3 381.8 389 396.2 404.1 411.8 416.9 423.9 430.2 436.3 441 444.2 447.3 451.4 456.1 458.6 459.2 463.9 466.4 469.1 472.2 474.9 477.9 479.7 482 484.6 487.1 489.6 490.7 492.5 493.5 493.9 494.6 495.4 496.9 497.8 498 497.8 498.1 493.6 487.1 479.1 470.7 461.4 454.1 446.9 439.7 433.1 429.8 427.1 423.6 419.8 414.6 409.6 403.6 398.2 391 383.8 377.8 372.5 365.7 359.4 351.9 344 338.3 333.6 327.2 322.6 318.6 316.9 316.9 316.5 315.4 316.9 318.3 319.8 320.7 321.5 321 319 317.4 315 311.2 308.6 304 298.9 299.3 298.4 300.6 301.9 304.8 307.2 309.5 313.3 315.9 320.2 324.2 328 332.2 337.8 342.4 347.3 351.7 356.2 360.8 365.5 370.1 372.9 382.9 392.1 401.1 409.1 417.2 427.6 437.5 447.2 452.5 452.5 450.5 450.7 451.6 454.3 455.9 456 455.6 455.5 456.8 454.5 461.9 466.8 482.6 490.8 497.6 502.2 506
585.6 583 580.9 579.3 576.6 574.7 571.5 568.9 566.2 563.5 562.2 560.8 558.5 556.7 555 554.9 553.8 553.7 553.4 552 550.4 547.7 543.3 538.4 532.3 526.1 520.2 514.7 509.6 504.1 498.7 492.9 485.4 479.1 473.3 465.8 456.8 449.8 441.9 427.9 426.1 425.1 422.4 420.8 417.1 415.6 412.8 406.5 401.8 396 391.3 388.5 389.4 388.9 387.3 382.2 378.2 374.7 371.7 367.8 365.1 365.4 367.3 368.1 370.2 371.8 375.6 382.7 390.3 397.6 405.3 413.4 420 426.6 431.4 437.2 441 441.4 440.8 449.1 455.1 460.3 463 465.6 467.8 470.5 472.8 475.1 476.8 478.3 480.3 482.1 483.9 485.3 486.7 487.2 487.4 488.9 489.9 491.9 494.2 495.3 495.3 494.6 490.4 485.5 477.9 468.5 459.1 452.2 445.2 437.2 431 428.6 426.3 423 418.4 414.3 409.7 404.3 398.5 391.8 388.4 382.5 377.3 370.8 363.7 356.1 348.1 339.4 334.9 330.8 326.5 321.1 319.4 319.4 319 317.7 316.7 319.7 321 322.1 322.9 323.4 321.6 319.4 316.7 314 311.1 305.8 301.8 301.7 301.9 304.3 305.5 307.9 310.8 313.2 315.6 319.9 323.8 327.5 331.7 336.1 340.7 346.2 351 355.3 359.7 364.4 369 374.1 380.1 386.2 389.5 398.4 410.1 418.5 429.7 441 452 457.8 458.6 457 457.5 460.5 463.7 465.2 465.5 465 462.9 466.8 464 470.8 482.4 492.2 497.9 502.5 505.9 509.5
591.9 590.1 588.2 585.1 582.9 580.9 578 574.9 573.3 570.3 567.9 566.4 564 562.1 560.1 558.6 558.4 558.8 558.2 557 554.9 551.7 547.4 541.7 535.3 530 523.3 518.1 512.2 506.9 502.2 496.9 489.1 483.4 478 471.2 462.3 453.5 443.2 438.9 437.6 435.5 433.3 429.4 424.2 423.7 420.4 414 410.4 406.9 399 396.6 397.5 394.6 394.5 389.8 383.3 380.3 375.9 372.5 366.9 363.4 365.9 366.6 366.7 368.5 372.1 378 385.1 392.6 401.3 409.2 415.9 422 426.7 432.1 432.6 441.5 447.2 453 455.8 459.5 461.6 463.3 465.4 467.8 469.9 471.1 473.2 474.7 476.2 476.9 478.5 479.9 478.8 479.3 480.4 481.9 484.3 487.4 490.4 492 493.3 490.8 487.4 481.8 473.8 465.6 457.2 450.4 444.4 435.5 430.2 427.4 424.5 420 416.6 414.1 409.6 404.8 400 397.6 393.7 389.5 385 380.1 370.8 361.9 352.5 346.2 338.4 334 328.7 324.8 322.7 321.6 320.9 319.2 318.8 320.4 322.3 323.5 324.1 324.5 323.8 320.6 320.6 316.2 312.3 308.2 306.3 305.6 305.9 307.5 309 311.2 313.3 317.7 318.8 322.6 326.4 330.5 334.6 339.8 344.1 349.5 354.3 358.4 363 368.1 372.8 379.2 385.6 391.7 398.5 403.4 408.4 412 428.8 439.7 450.7 458 461.3 462.5 465 470.1 472.5 472.7 471.9 469.8 472.5 473.3 480.5 488.5 494.1 498.7 503.3 507.8 511.2 513.9
