ncols 200
nrows 83
xllcorner 410000
yllcorner 411950
cellsize 50
199 195.5 192.3 189.6 187.1 183.8 180.8 178.3 175.7 172.9 169.3 166.9 164 161.3 156.3 153.2 149.6 146.2 143.4 140 135.8 132.2 128.8 123.4 121.7 116 112.3 107.7 103.8 100.1 96.5 94.2 93.3 91.4 90.7 90.2 89.8 89.4 91.5 93.7 93.7 94.6 93.9 90.1 86.9 87.5 84.4 86.1 98.5 99.5 100 100 99.3 99 99 97.6 96.9 96.1 94.6 89.3 82.1 80.8 80.5 79.4 76.4 75.6 78.7 79.7 74.4 73.5 75 76.5 76.2 75.1 74.7 74.2 73.4 73.9 73.7 73.6 73.6 73.1 72.3 72.8 73.9 74.8 73.1 75 75.5 76.8 76.2 76.3 74.1 69.3 67.3 68.4 65.4 65.6 66.1 66.7 66.1 66 65.9 66.3 67.8 67.9 68.4 73.2 80.4 85.7 91.5 94.3 98.4 103.3 106 106.9 107.7 104 101 102.5 107.1 111.3 119.6 129.4 146.8 153.3 150.5 138.4 131.1 123.1 116 111.1 107.6 105.3 102.6 101.8 105 112.6 120.3 124.7 125.9 124 121.1 120.2 120.1 118.5 115.9 113.2 110.1 106.7 102.3 96.8 91.1 87.8 86.9 84.4 82.6 75.6 68.4 70.3 70.7 72.4 77.5 82.2 86.7 90.1 97.3 105.7 114.3 123.3 137.8 144.6 146.4 150.9 152.5 155 156.3 156.4 156.4 154.2 152.5 153.5 153.3 152.5 154.4 158.8 159.6 160.1 161 161.4 159.5 157.7 156 153.8 152.5 151.3 153.2 154.9 156 152.7
200.6 197.5 193.7 191.2 188.6 184.9 181.8 179.2 176.6 173.6 170 167 163.8 159.7 156.5 152.7 148.5 145.7 142 139.9 136.8 124.2 123.5 123.3 121.2 115.9 112.6 108.4 104.2 100.7 95.1 93.2 91.6 91 90.4 89.4 89 88.7 88.7 88.1 86.1 87.4 87.4 87.5 86.6 84.1 82.9 82.4 82.1 80.3 85.7 86.4 84.4 84.3 83 84.1 83.5 83.9 79.6 76.8 77.3 79.5 80.3 80.3 80.4 79.7 81.7 86.5 86.7 84 82.9 81.1 81.6 76.2 76 74.5 74.2 72.8 73.9 74.5 73.9 73.4 72 69.6 71.4 73.3 70.5 69.5 73.1 74.7 74.5 75.4 68.3 69.1 68.8 68 65.6 66.2 66.5 66.9 66.3 66 66.3 68.7 68.4 69.3 72 78.9 85.2 92.3 97.3 104.2 109.3 112 114.1 114.2 112.1 109.2 104.2 106.6 109.4 114.1 122.5 133.6 155 155 151.2 143.3 133.2 129.6 124.9 120.6 117.5 112.6 111.3 112.8 117.4 121.3 125.9 126.9 126.4 126.2 123.8 121.4 120.3 118.7 116.2 113.2 110.5 107.4 103 98.6 95.6 92.6 91.5 90.1 86 78.1 73.2 70 70.5 71.8 75.9 80.2 84.1 87.4 89.2 96.1 105.7 117.3 125.6 139.1 144.1 147.2 151.2 156 158.5 158.3 156.4 155.4 155.9 156.6 156.1 158.2 161.7 164.4 164.6 164.5 164.8 164.4 162.9 162.1 160.9 158.8 158.9 157.2 160.5 162.9 164.1 160.4
201.8 197.5 195 192.4 189.8 186.3 183.1 180.1 177.5 174.1 170.2 166.7 163.3 160.3 156.4 151.2 148.5 143.5 142.1 139.7 127.1 131.8 128.7 123.4 121.3 115.3 110.9 104.4 98.6 96.7 93.5 90.7 89.6 89 89.3 89.5 89.6 88.3 86.8 87.3 86.3 85.1 86.3 87.3 84.7 82.5 82.3 81.9 81.4 83.3 83.3 82.1 81.5 81.3 80.8 80.8 81.4 83.4 86.1 88 95 91.1 89.9 92 90.6 90.2 90.8 90 88.3 87.4 86.1 84.1 82.7 77.6 74.8 74.2 74.2 74.1 73.6 73.1 72.9 72.3 71 70 69.5 71.5 70.5 69.7 69.7 70.1 73.5 69.6 69.7 69 68.6 67.3 65.3 65.9 67 67.2 66.4 66 67.1 69.5 69.2 71 78.5 85.2 91.6 97.7 105.3 112.3 115.7 117.9 118.1 116.4 114.3 111.1 108.1 109.1 111.5 115.6 124 134.7 150.1 156.2 152.9 148.4 142.5 138.4 133.7 130.5 127 122.1 123.2 125 127.5 129.3 129.2 128.2 127.7 126.6 124.3 121.9 120.1 118.5 116.8 114.3 111 107 104.5 100.2 98.5 97.4 96.3 92.8 90.8 81.2 73.4 70.8 70.4 71.3 74.8 80 84.8 85.9 87.4 89.5 95.8 114 124.6 132.3 141.2 146 150 154.7 158.5 158.6 157.1 158.7 159.4 160 162.2 165 166.7 167.5 169.6 169.1 168.5 168.8 168.8 168.5 167.5 167.1 166.3 166.2 167.9 170.5 172.1 168.4
202 198.7 196.3 193.6 190.9 187.8 184.6 181.3 178.3 174.3 170.3 166.3 159.9 155.5 149.7 145.3 143.3 137.8 125.8 131.6 122.4 119.5 118.1 116 114.5 107.9 102.2 97.5 93.9 91.8 90.4 92.1 91.1 90.6 89 86.9 88.5 88.6 88.1 88 86.4 86.5 86.3 86.7 81.6 81.7 81.5 81.6 83.3 83.5 83.3 85.5 89.1 92.3 94.8 96.1 98.2 101.5 103.9 103 106.5 104.7 101.5 97.6 96 96.7 97.7 94.6 91.3 89.2 87.8 87.5 85.5 79.6 75.1 74.3 73.7 73.7 73.8 73.3 72.5 72 71.6 71 71.2 69.2 70.4 68.9 69.6 70.2 70.7 69.8 69.1 70.1 69.1 67.4 65.9 66.3 67.9 67.3 67.9 69 69.2 71.6 72 79.4 85 90.6 94.9 102.7 112.2 118.3 121.3 121.1 119.7 117.8 115.9 113.4 110.7 111.7 113.2 117.4 125.1 134.3 146.6 156.7 154.7 152.9 150.1 145.8 142.9 138.9 136.1 134.1 133.2 133.5 134 133.5 132.2 130.4 128.3 126 124 121.9 119 118 116.3 113.9 111 107.9 105.3 103.1 104.1 108.5 109.1 94.4 89.7 84 75.4 71.8 71 71.6 73.8 80.2 85.8 86.9 87.2 88.7 95.1 112.5 124.8 128.1 138.6 144.5 150 155.7 157.6 158.1 160.6 162.8 164.8 165.5 166 169.3 170.9 171.9 173 174.5 175.3 174.2 174.2 174.5 173.9 173.9 172.7 173.5 175.3 176.8 175.1 172
202.5 199.7 197.4 194.2 190.9 187.8 184.7 181.4 177.9 171.9 164 157.2 152.6 146.7 138.2 134.3 126.3 119.4 116.8 112.8 111.7 110.7 107.7 105.1 103.1 96.5 92.7 92.9 94.3 95.2 97.8 95.1 94.3 92 91.7 90.5 89.3 87.4 87.4 88.1 87 86.9 86.6 86.5 83.3 83.6 90.7 98.9 100.5 102 103.6 105.9 108.1 109.6 109.5 110.4 114 118.4 115.8 113.3 108.9 106.5 102.6 101.1 99.8 98.3 98.7 96.6 93.9 91.8 90.5 89.5 87.9 87.1 82.7 75.4 74.7 73.4 74 74.4 73.2 72.5 72.5 72 71.2 70.1 67.7 68 69 69.1 69.5 69.6 69.3 69.1 68.2 66.4 66.5 67.9 68.7 67.7 67.8 71.1 73.1 75.6 81 87 91.7 93.4 96 105.9 116.4 122.1 123.6 122.6 121 119.4 117.6 115.2 113.4 113.8 115.7 119.4 125.4 134.1 144.7 155.4 159.2 158.5 154.2 152.6 149.2 145.6 142.8 140.6 139 137.8 137.4 134.3 132.3 131.6 128.3 125.5 123.3 120.4 118.6 116.7 115.6 114 111.1 108.9 106 104.5 105.8 103 98.7 92.1 88 82.5 75.4 71.8 71.9 72.4 72.8 80.8 86.6 87.8 87.9 88.8 99.2 114 125.1 130.4 137.7 143.1 149.5 155 158.3 160.5 164.3 167.6 168.7 169.5 170.4 173.2 174.5 176.2 178.1 180 180.6 180.5 180.1 179.3 178.2 178.7 178.3 178.2 180.7 179.7 176.5 173.9
204.2 201.1 197.8 194.4 190.8 187.4 182.7 177.8 171.8 164.7 156.3 152 139.2 131.5 127.4 119.7 114.4 108.8 105.2 100.1 98.7 95.6 97.9 97 94.3 94.7 94.8 98.2 103.5 103.1 99.4 98.2 95.4 94.9 92.4 91.3 88.2 89.9 89.1 89.8 89.2 86.8 89.1 91 92.5 97 105 111.1 113.6 116.6 118.4 121.1 121.7 122.5 124.2 124.5 122.3 119.7 117.1 114.7 110.7 108.1 104.7 102.8 100.6 99.6 100.7 98.8 99.5 97.9 95.7 92.7 92.1 93.1 91.9 85.6 79.9 78 77.3 74.8 73.9 73.7 72.5 71 70.4 70.4 70.2 70.4 68.5 67.9 69.1 69.2 68.6 66.8 67.3 68.4 67.8 68.4 70.6 70 72.1 74.4 76.8 81 87.3 93.6 94.9 97.8 105.2 112.6 117.8 122.9 124.5 123.7 122.1 120 119 116.1 113 112 117.2 120.6 124.9 132.1 141.2 153.2 160.5 163.2 160.8 156.9 153.2 150 147.3 144.1 142.3 140.7 139 134.2 132.9 131 127.8 125 122.4 118.8 116.1 113.5 113.2 111.9 110.8 107.4 104.1 101.7 98.8 94.3 91 87.4 84.2 80.1 75.7 73 71.6 71.3 72.9 81.9 88.4 89 89 89.7 103.9 117.2 124.8 130.9 139.5 143.9 151.1 155.8 158.7 162.8 167.7 170.2 172.5 173.3 174.7 177 179.7 181.3 182.3 184.3 184.8 184.5 183.6 182.5 182.8 182.6 182.2 183.4 182.3 180.9 178.8 175.7
205 202 197.7 194.2 189.6 180.8 174.7 168.5 160.9 157.4 149.8 137.2 128.8 121.2 112.1 111.7 107.8 102.4 99.5 97.8 97.1 98.4 98.1 97.3 97 98.3 100.2 104.8 108.6 107.2 104 100.9 98.1 97.3 97.7 96.8 94.4 92.4 91.2 91.8 92.3 94.1 95 96.9 100.7 109.8 118.8 128 133.2 134.7 136 135.1 133.5 131.4 128.5 126.1 123.7 121.5 118.9 115.2 112.7 110.2 106.9 104.5 103.5 99.7 104.5 104.4 102.6 103 101.6 101.5 100.6 99.8 99.4 94.4 86.9 80.9 76.2 74 72.9 71.8 71 70.4 70.2 70.9 70.5 71.6 72 72.9 71.8 70.7 70.1 70.2 71.3 70.9 71.7 72.4 74.1 74.6 76 77.2 78.5 83.2 90.9 95.3 102.6 110.1 116.1 121.3 121.9 121.7 124.8 124.6 123 121.2 119.3 116.8 116.4 115.3 118 122.3 125.8 129.1 138.5 148.3 156.9 163.3 162 159.8 156.4 152.7 149.3 146.3 143.1 140.8 139.2 135.4 132.3 130.7 127.3 124.5 121.1 117.8 115.2 112.1 111 108.8 106 103.9 101.4 98 94.4 90.7 87.8 84.5 81.8 78.2 76.1 73.8 72.1 72.1 73.3 82.3 88.7 90.1 90.4 93.6 106.8 119.2 127.7 134.6 139.9 146.1 152.4 156.9 160.3 165.4 169.2 173.2 175.9 177.5 178.9 182.4 185 186.4 185.8 186.9 186.8 186.7 186.3 187 187.3 185.1 186.2 185.6 183.8 182.1 179.7 177.3
201.8 194.4 191 187 178.9 170.9 163.4 155.9 152 147.9 134.7 128.6 115 110.5 108.9 107.2 103.5 98 100.1 101.4 102.7 102.7 98.3 98.2 100.5 104.9 109 113.1 111.8 108.8 105.9 102.5 101.7 101.3 101.3 102.2 102.6 103.5 100.8 100.9 102.6 103.6 103.5 106.5 114.6 128.1 137.4 143.8 145.9 144.1 141 138.1 135.3 132.8 130.4 127.3 125 122 119.4 117.9 114.8 112.3 109.2 106.6 104.2 101.3 109.4 108 109.8 110.4 109.3 108 107.8 106.7 104.2 99.3 87 80.1 73.8 72.3 71.8 71.3 70.6 68.3 70.2 71.2 73.1 79 83.2 86.5 85.5 83.6 80.5 76.1 75.6 75.1 76.1 76.7 78.4 80.3 81.1 81 81.7 85.7 93.2 99.7 108.7 118.6 125 126.3 127 125.8 126.6 125.2 123.7 122 119.2 119.1 120.8 119 122.5 127.9 131.7 133.4 133.9 143.2 152.3 159.1 163 159.8 158 155.4 151.3 147.4 144.4 141.1 138.8 134 131.6 129.7 125.2 122.7 119.8 117.2 114.8 111.3 107.7 104.6 102.4 99.5 97.8 95.9 92.4 88.7 86.8 84.7 83 82.5 78.3 74.7 72.2 72.4 73.4 81.6 89.4 92.7 94.6 98.6 108.7 120.6 129.6 136.1 142.3 149.2 153 157.7 162.8 168.4 171.4 175.9 179.2 181 184 186.5 189.2 189.5 189 188.9 188.8 188.5 189.2 189.9 189.5 187.7 188.5 187.4 185.5 182.9 180.4 178
188.5 185.9 179.1 172 164 158.3 152.4 149.8 142.5 130.8 124.3 117.2 109.6 105 102.7 100.5 99.6 102.7 106 108.3 109 115.1 113 112.9 114.7 115.8 118.1 115.3 111.7 107.9 106 105.8 104.5 106 106.4 109.1 111.5 112.9 114 114.3 113.1 113.2 121.8 131.2 139.8 154.4 159.4 155.1 151.9 147.8 143.2 140.1 136.9 134.2 131.2 128.7 125.9 123.8 121.4 118.7 116.7 113.7 110.9 111 112.8 109 115 117.1 117 114.6 113.2 112.2 109.9 105.8 101.4 93.1 83.5 77.1 73.3 72.6 71.8 70.8 70.5 69.6 70.7 74.5 83 88.6 93.7 96.8 94.6 91.7 88 83.5 79.6 80.2 81.9 83.2 87.5 91.5 90.9 89.2 85.9 88.4 96.3 103.8 115.2 124.7 129.2 131.4 130.9 128.5 128.3 126.8 125.3 122.4 118.6 123.4 124.3 120 126.4 133.1 138.7 142.5 145.5 141.2 140.6 151.6 161.7 162.5 159.9 156.1 152.1 148.1 145.3 141.2 137.1 134.3 130.8 128.4 126.2 123.9 122.6 120.1 116.8 113.3 109.6 106.8 102.4 99.8 96.3 94.9 93.5 91.5 90.9 90.5 92 89.5 82.1 76.4 74.6 73.6 73.6 80.3 89.2 95.2 97.8 101.1 110.7 119.3 126.8 134.5 142.9 147.8 153.2 158.6 164.5 170.1 174.3 178.5 181.4 184 187 189.7 189.5 189.9 190.8 191.1 190.9 190.5 191.4 190.8 189.9 190.4 189.5 188.6 186.6 183.7 180.8 178.7
177.4 172.6 166.5 160.2 153.9 147 145.6 134.3 128.4 121.1 114.4 105.7 102.6 100.4 105.9 110.2 108.3 113.4 117.8 119.1 125.1 129 128.2 129.4 125.4 122.3 119.4 115.6 112.9 110.7 108.7 109.5 110.1 111.1 111.5 115.7 119.2 121.9 123.6 124.9 132.7 137.8 146.5 158.3 165.3 165.3 163.3 159.5 155.2 150.7 145.3 141.6 138.9 135.9 132.4 129.8 126.8 124.5 122.1 119.6 116.9 115.4 115.4 120.2 119.4 119.3 122.1 119.9 119 117.1 115 111.7 106.3 100.4 92.5 86.3 80.3 73.7 72.8 72.1 71.3 69.8 70 70.9 77.2 85.8 91 97.3 100.7 99.5 98.4 96.6 92.5 87.5 83.2 84 89.6 95.4 100.6 102.3 101.6 98.3 94 92 98.5 105.5 119.1 128.6 132.4 133.1 133 132.2 130.7 129.2 127.4 123.6 125 127.6 128 123.7 130 137.8 144.6 153.2 155.1 152.2 148.3 145.1 155.1 162.6 160 155.7 152.1 148.7 144.9 141.1 138.4 135.6 132.8 131.5 130 127.6 125.6 122.9 119.7 116.6 112.3 109.1 106.5 103.9 101.4 100.1 100.8 101.2 101.5 103.1 100.7 94.8 86.1 77.3 73.9 74.8 74.2 78.6 87.6 95.3 99.8 101.1 107.6 115.3 119.8 128.9 137.9 143.5 151.4 157.9 165.1 169.9 174.3 179.7 182.2 183.8 186.4 189.6 189.5 189.7 190.4 191.1 190.6 190.8 192.2 191.4 190.4 190.9 190.4 188.8 187 184.1 181.8 180
168.6 163.6 157.9 153.8 146.1 141.3 133 125.3 116.9 106.6 102.7 102.2 102.5 112.8 119.1 122.2 124.8 124 134.7 133.6 140.2 137.3 134.8 130.6 127 123.6 120.4 117.2 113.6 112.5 115.4 116.2 117.6 118.4 122.3 126.2 128.6 127.4 132 142.4 151 160 170.7 171.6 169.6 167.3 164.5 161.2 156.3 153.1 148.7 144.5 140 137.3 134.5 130.9 129.6 125 122.5 119.4 117.5 116.6 116 119.6 126.2 125.6 123.8 120.6 117.9 115.3 112.9 106.9 101.3 93.8 87.9 81.7 77.4 73.7 72.7 71.7 70.8 69.7 70.6 77.2 85.8 91.8 99.3 104.2 104.7 105 104.2 102 99.4 94.8 87.2 89.4 96.7 104.5 109.3 110.3 107.6 103.4 97.9 95.4 99.8 108.4 122.1 131.6 135.6 133.8 135.4 134.4 133.2 131.5 129 126.2 126.1 129.8 131.7 131 134 142.3 150.5 160.5 158.6 156.2 152.3 148.8 149.2 156.1 161.3 158.4 154 150.6 148.1 143.5 141.4 139.2 136.3 135.2 132.7 131 127.9 125 122.1 118.6 116.1 112.7 111.3 109.9 107.9 109.7 112.5 111.8 110.2 108 103.3 95.2 85.6 76.4 74.1 73.6 75.4 75.8 85 94.2 100.5 101.2 104 108.9 114.9 120.7 133.9 141 151.6 156.1 163.1 168.7 173.1 176.8 178 178.9 180.9 184.4 186.3 186 186.6 188.5 189.2 190.2 192.2 191.7 191.2 191 190.4 189 187.1 184.6 182.7 181.1
162.8 158.7 153.4 146.1 138.8 132.4 122.3 111.7 102.7 102.6 102 101 111.6 122 129.2 134 138.4 147.4 151 146.6 143 139.2 134.7 131.4 128.6 125.2 121.6 117.1 115.9 118.4 121.8 123.6 127.1 131.6 137.8 141.7 144.9 148.1 153.2 161.8 169.7 175.7 175.5 173.7 171.2 168.2 164.8 161.4 157.1 153.7 150.9 148.3 144.5 140.8 136.6 133.7 130.1 126.3 122.8 120 119 117.2 115.6 118.8 119.6 118.6 119.5 116.8 114.7 113.1 109.3 102 95.6 90 83.6 79.3 73.5 73.8 72.7 71.9 71.2 72.7 79.4 87 93.3 100.4 106.7 109.2 109.9 109.2 107.9 104.7 102.8 100 91.6 92.5 100.1 108.2 113.9 115.2 112.5 106.7 99.3 100.1 103.3 111 124.9 134.6 138.6 139.2 137.9 136.7 135.8 132.9 131.2 129.6 128.4 132.7 135.7 136.1 137.8 144.6 153.5 160 160.1 157.7 154 151.9 152.3 154.8 158.6 160.6 158.1 153.8 151.1 147 143.9 142.2 139.8 137.6 134.6 132.1 129.8 126 124.6 120.5 118.1 117.2 117.9 118.6 117.1 118.3 119.1 116.2 113.1 109 102.3 92.1 83.6 78.6 75.1 74.6 75.1 75.8 78.9 88.5 95.5 98.7 102.6 106.7 112.2 121.5 132.4 140.2 147.8 155.4 161 166.7 171.2 171.7 172.8 174.1 176.1 178.7 180.5 181.2 182.2 184.3 185.3 187.4 190.2 190.9 189.7 189.7 190.6 189.6 187.3 185 183.6 182.2
157.8 153.1 146.9 138.2 128.8 122.8 113.2 102.6 103.6 103.4 103.3 113.5 123.1 130.8 138.9 141.6 145.3 152.6 152.2 147.9 144.5 140.4 136 133.5 130 126.1 122.3 119.2 121.6 125.7 128.5 134.1 139.7 144.4 152 157.1 166.6 172.4 170.4 174 175.3 179.1 177 174.7 172.1 168.1 166 161.8 158.8 154.5 152.4 150 147.6 144.3 142.4 138.1 132.7 128.9 124.7 121.1 118.8 116.4 112.5 115.1 114.6 104.6 111.9 110.2 109.1 105.6 101.8 97.9 92.1 85.7 81.1 77.7 74.3 72.5 72.5 72 69.4 82.3 90.2 97.2 103.4 107.9 111.1 114.2 113.7 113.1 111.7 110 107.5 103.8 95.7 96.8 102.4 109.8 115.7 116.2 113.9 109.3 104.7 105.2 107.6 113.9 127.7 138.1 142.4 142.6 141.6 139.4 137.8 134.9 133.1 133.5 135.7 138.2 139.7 141.9 145 148.4 156.1 162.3 161.1 157.5 154.5 153.7 161.5 164.7 162.6 160.6 160.5 157.3 154.1 150.4 146.8 144.5 142.7 139.5 136.6 134 131.6 129 125.9 122.4 121.5 120.8 122.8 125.4 123.1 122.1 116.9 113.6 110.9 106.9 99.3 89.6 83.2 80.6 77.1 75.6 73.9 74.3 77.1 81.2 88.2 93.5 97.5 104 111.4 122 132.3 140.9 148.2 154.6 159.3 165.3 168 167.3 168.3 169.9 171.4 175.6 176.4 177.1 178.1 179.9 182 183.7 186.1 189.3 189.1 189.6 190.7 190.2 187.7 185.6 184.1 182.9
149.9 146.4 135 130.2 122.7 114.6 105.4 104.2 103.6 107.9 117.4 125.8 132.7 139.5 146.2 153.4 157.2 156.5 152.5 149.3 145.3 141.2 136.8 133.5 130.1 126.8 123.5 124 128.6 130.9 137.4 144.6 151.9 157.2 163.8 171.5 180.5 177.7 183.8 182.9 182.2 180.6 178 175.2 172.2 169.3 166.7 164.1 159.9 157.4 154.2 152.1 150 147.9 145.6 143.4 139 129.7 125.6 121.5 118.2 115.2 110.4 108.5 108.1 103.9 107.2 105.2 103.2 100.7 97.7 92.8 87.3 82.6 80.8 76.7 73.7 72.2 71.8 72.6 80.2 92.4 100.8 107.2 112.7 117.2 116.9 116.9 117.1 118.4 117.7 116.4 111.6 107.3 100 99.7 102.6 111.4 115.8 113.8 112.2 110.1 107 105.5 108 115.9 130.3 140.5 144.9 145.5 144.2 141.5 139.4 136.1 136.7 139.8 142.3 145.2 147.1 148.4 151.7 155.7 159.1 162.1 161.2 158.5 156.6 164.1 172.9 173.8 170.7 166.1 162.4 160.5 157.2 153.7 150 146.6 144.6 141.9 138.5 135.2 132.3 129.4 126.2 122.9 121.5 121.5 120.7 122 121.8 114.7 110.6 106.6 102.5 101.2 98 91.5 89.8 88.3 82.3 76.2 74.6 74.5 76.2 80.5 85.1 92.7 99.8 105.1 112.9 123.7 134 142.1 148.8 153.1 156.3 161.2 164.2 163.9 164.8 167.9 168.9 172 174.3 174.3 174.9 176.4 178.7 179.9 181.9 184.9 185.7 187 189.5 189.8 187.7 186.2 185.3 183.8
140.9 134.8 131 123.7 116.1 107 104.4 105.1 111.2 121.6 128.8 133.6 141.7 147.2 157.9 164.5 161.4 157.4 153.7 150.1 146.2 141.8 137.8 134.1 130.8 130.8 129.9 131.6 135 140.6 146.2 153.2 161.4 170 177.9 190.1 190.9 188.1 187 186 183.7 181.5 179.3 175.7 173.1 171.4 168.8 166.1 162.2 158.6 155.9 152.5 151 151 147.4 144.4 140.7 132.9 125.9 121.6 116.8 112.1 109.3 105.9 102.6 103.5 98.8 96.4 95.9 95.3 91.2 88.2 85 80.9 79.5 75.4 73.3 71.9 72.2 70.4 91.1 103.7 111.6 115.2 120.4 120.2 120.8 121.8 125 126.4 125.9 121.2 117.2 109.8 103.1 103.1 104.6 113.1 116.2 113.7 112.1 110.2 107.7 106.5 109.4 116.8 131.5 142.4 147.7 147.8 146.5 143 140.9 140 143.1 146.7 150.5 152.5 154.2 154.9 154.1 158 161.6 161.8 161.8 159.4 161.8 171.9 177.7 178.1 175.2 172.2 167.7 162.8 159.7 154.2 150.9 148.2 145.5 142.5 138.2 134.4 131.1 128.1 125.2 121.7 119 115.5 112.9 110.7 107.1 102.7 102.9 99.2 97.9 99.4 96.6 97 96.6 95.5 88.4 79.3 75.3 75 75.7 77.7 84.1 92.1 99.1 108.2 116.3 125.5 135.3 142.6 148.9 152.2 154.4 157.9 161.3 163.1 164.2 165.3 166.5 168.4 170.9 172.7 172.5 174.8 175.8 176.6 178.1 179.1 181.5 183.5 187 188.5 188.1 186.7 185.3 183.8
137.8 132 125.5 119.1 113.6 106.4 105.4 111.2 121 129.7 135.4 141.5 147.4 158.8 166 167 163.1 159.9 154.7 151.4 147.4 142.7 138.9 135.2 131.6 134.2 136.5 139.9 143.5 150.4 156.1 164.2 174.7 186.1 194.9 196 193.9 190.5 189.4 186.8 184.3 182.8 180.9 177.8 175 173.4 170.3 167.5 164.6 161.6 159.3 155.7 152.3 150.8 148.2 145.3 139.8 132.5 126 120.5 116.7 113.6 110.1 106.4 103.5 103.3 95.7 92.8 91.1 90.7 88.7 85.7 83.2 79.9 76.2 74.6 73.5 73.8 71.2 83.2 99.9 114.9 119.7 120.9 122.5 123.2 124.5 131.6 136.3 134.8 133.3 127.4 119.7 111 106.7 106.9 107.6 116.1 119 116.2 114.3 112.1 108.9 109.4 111.8 118.4 131.1 143.9 149.7 150.1 148.4 144.8 142.4 145.5 151.1 155.2 158.6 159.8 162.2 161 157.4 159.6 163.4 164.2 162.4 164.2 171.1 180 182.6 180.9 177.4 173.9 169.6 165.6 161.3 157 152.7 149.9 145.4 141.6 137.7 133.9 130.5 127.1 124 121.6 117.8 114.8 111.9 109.9 108.4 107.5 105.5 105.4 104.7 104.7 103.1 102.3 99.5 96.6 92.9 84.6 75.4 75.3 75.4 75.7 84.2 90.8 99.6 109.5 118.4 126.6 135 141 147.2 151.8 154.9 158.3 159.7 161.3 162.1 163.9 164.9 165.8 166.6 169 171.2 172.1 172.9 173.3 174.2 175.8 178.7 180.6 183.9 186.6 187.4 186.6 185.7 184.3
126.6 124 120 115.7 109.4 103.8 106.1 117.8 128.8 136.2 143 149.1 155.5 165.4 170.9 168.4 164.1 160.4 156 151.9 147.9 144.5 140.6 138 138 140.5 143.5 147.5 153.7 158.9 167.7 177.6 187.8 198.3 199.8 198.5 196.2 193.7 191.3 189.6 186.4 184.2 181.1 178.6 176.4 173.4 171.9 168.7 166.6 164 160.2 156.2 153.8 150.2 146.7 141.5 134.7 128.9 125.4 125.8 122.6 118.6 113.2 108.1 104.8 103.7 97.4 93.7 88.3 85.3 85.2 84 82.3 78.7 76.4 74 73.7 71.1 74.6 94 107.9 119.4 122.9 124.8 125.6 127.4 135.7 143 144.9 143 138.7 133.7 125.8 118.2 111.6 111.1 112.6 119.8 122.4 120.9 117.3 114.2 111.9 112.4 115.2 120.7 133.4 145.8 151.5 152.3 150.5 146.5 145.5 153.9 159 164.1 167 171.2 171.1 167.2 161.8 158.8 164.9 164.9 165.4 171.3 181.7 187.9 185.6 182.4 178.6 174.7 170.2 166.2 161 158.3 153.9 149.7 144.9 141.1 137.3 133.7 130.1 127.6 124.9 123.5 121.7 118.8 116.4 115.7 115.4 115.3 116.3 114.4 112.6 109.5 105.1 103 99.9 96.9 93.8 88.5 76.8 75.7 75.8 76 79.9 89 98.5 107.8 118 127.4 134.7 140.4 145.6 149.5 152.8 156.1 158 159.5 160.2 162.3 163.6 164.4 165.1 166.9 169.7 170.6 171.4 171.2 172.1 173.2 175.1 178.3 181.3 183.9 186.6 186.2 186.1 185.6
121.8 119.8 116.2 112.6 107.8 104.5 115.7 128.4 136.1 144.1 150.5 158.3 164 171.1 172.7 169.6 166.1 161.7 157.4 153.1 149.6 146.7 143.4 143.7 143.7 147.1 150 156.7 161.6 170.6 180.9 190.2 201.3 202.4 202.3 200.5 198.3 196 193.3 190.8 188.3 185.2 182.5 180.3 178.4 174.8 172.3 170 166.9 164.5 160.8 156.6 151.9 147.6 144 138.9 138.1 136.2 134.3 132.9 128.8 123.1 117.2 110.6 105.5 104.6 98 94.7 91 87 83.5 80.1 78.7 77.8 74.5 72.5 70.9 74.8 80.9 102.5 113.6 123.2 126.3 128.8 130.2 138.3 147.3 152.6 151.3 147.8 144.6 139.9 133.3 124.6 118.8 116.1 117.3 123.3 126.1 125 120.6 118.7 116.4 115.9 119.9 124.6 138 148.2 153.5 153.5 150.7 146.9 150.3 161.7 166.5 172.3 180.1 183.4 178.6 172.7 165.4 163.5 166.5 167.5 170.5 179.4 188.8 190 187.4 183.7 179.7 174.9 170.1 166.4 162.7 157.6 155.6 149.5 145.7 142.1 138.9 135.4 132.2 129.2 127.3 125.1 122.8 120.3 118.1 116 115.7 117.5 118.3 114.8 111.6 110 106.3 103 99 95.1 91.7 86.6 77.4 76.4 76.2 76.4 75.8 84.9 93.1 104.3 114.3 125.4 131.7 139.4 142.3 145.5 146.1 148 155.4 157.9 159.6 160.8 161.9 162.9 163.6 164.7 166.1 168.4 169.5 169.3 170.2 171.4 173 175.3 178.1 180.6 184.5 187 187.1 187.1
117.7 114.8 112.2 109.8 106.3 114 126.2 137.5 143.5 151.9 159.8 168 172.1 175.8 173.6 170.5 167.4 162 158.5 155.2 151.1 148.2 148.9 148.5 149.9 153.7 159.1 164.3 171.9 185 196.6 205.6 206.1 205.5 204.5 202 200.3 197.6 195.1 192.4 188.9 186.8 183.9 181.5 179 175.9 172.3 168.1 165.2 162.3 157.8 152.6 149.3 146.7 145.2 145 144.1 142.5 139.5 136.6 131 125.4 120.2 112.5 107.5 105.1 97.8 95.5 92.7 89.7 87.1 81 77.3 75.8 73.3 71 72.9 82.1 96 107.6 117.8 125.7 128.9 131.6 137.8 146.6 153.8 156.6 153.5 150.8 147.5 143.6 136.9 128 123.4 118.9 119.6 127 128.4 127.9 124.4 123.1 121.1 121.2 126.3 130.2 140.4 150.8 155.3 154.2 151.3 151.9 159.1 169.6 175.5 182 188.2 187.2 183.3 176.7 172.6 169.8 169.4 171.3 175.9 184.9 193 191.1 188.2 183.8 179.9 175.1 170.4 166.9 162.4 158.8 155.8 151 147.6 144.6 141.1 137.4 134.4 130.4 126.6 123.9 121.6 120 117.3 114.7 112.7 112.3 112 111 108 106.1 101.9 98.9 94.8 90.7 85.4 81 77.6 77.3 77 76.1 76.3 77.3 87.6 98.2 109.6 118.1 125.1 132 136.9 140.3 143.4 146.8 151.7 155.9 157 158.2 159.3 160.3 160.3 161.8 163.6 164.9 166.7 168.7 169.6 170.5 171.1 173.6 176.3 178.6 182.2 185.4 186.7 188.2
108.9 108.8 108.6 105.7 113.3 125.4 136.3 145.6 152.8 160.6 170 178.5 178.2 176.9 174.8 171.4 168.1 164.6 159.3 156.3 154.6 153.9 155.3 157 157.9 162.9 168.2 177.2 188 203 208.8 207.5 207.6 206.8 205.8 203.2 200.8 198.4 195.9 192.6 190.2 186.9 184.8 181.3 178.4 174.5 169.8 164.4 161 159.4 155.8 153 150.4 150.4 150.2 147.9 145.9 144.1 141.4 138.1 134.3 128.3 122.9 114.1 108.3 105.9 101.1 97.4 93.7 89.3 85.7 79.4 75.8 72.6 72.6 75.9 80.5 92 101.9 111.8 120.8 126.1 130.4 134.2 144 154.4 157.6 157.6 155.2 152.2 149.9 145.2 139.4 132.2 126.2 125.3 128.5 130.6 131.6 131.5 128.9 128 126.7 130.8 136.3 140.4 146.2 154 156.9 155.2 154.2 158.3 165.5 173.3 185.7 193.1 190.1 188.6 185.8 182.5 178.6 173 172.2 173.5 181.4 190.1 194.3 191.5 188.1 183 179.6 174.1 169.9 166.8 163 160.3 157.5 154.3 151.4 149.4 143.9 140 135 130.3 126.1 122.9 119.7 117.9 114.3 112.1 108.5 104.9 102.5 99.9 98.2 96.5 93.9 92.2 87.9 84.1 80 78.4 78.1 79.2 79.6 77.3 76.3 77.3 81.8 89.7 101.2 108.9 116.2 122.6 129.7 137.1 144 148.8 151.5 152.7 153.8 154.9 156.3 157.7 157.8 159.2 160.2 161.2 164 166 167.8 168.4 170 171.1 173.3 177 179.6 182.9 187.5 188.3
109.4 109.8 112.7 118.3 125.5 137.2 146.1 152.2 160.4 169.2 179.2 184.9 182.3 179.8 176.7 172.8 168.9 165.1 162.1 161.1 162.2 161.9 164.6 166.5 169.9 174.9 183 195.2 204.9 209.9 210.9 209.6 208.5 207.6 205.7 203.4 200.9 198.2 195.3 192.2 189.7 185.7 183 180.1 175.1 169.9 164.7 164.1 161.4 160.1 158.7 157.3 156.5 154.3 151.8 149.2 147.4 145.4 142.1 138.7 133.7 128.6 124.9 119.4 116.8 106.4 104.8 98.4 94.3 89.3 82.2 76.2 74.7 75.1 76.4 78.7 86.3 95.5 104.9 113.2 120.5 126.4 130.7 135.2 145 153.1 158 157.6 156.4 153.2 150.4 148.1 144.2 139 131.3 131.6 134.5 136.1 135.9 134.9 135.3 135 132.6 139 145.4 150.4 154.5 156.2 157.2 156.2 157 162.2 170.3 179.2 190.4 195.8 193.2 190.1 187.9 184.4 180.7 177.8 174.5 176.1 183.8 193.9 195.1 191.3 187.1 182.6 179.4 174 170.1 167.5 164 161.4 158.7 157 154.2 149.3 146.2 141.1 136.6 130.1 125.4 121.5 117.7 114.3 110 108 106.7 103.9 100.6 96.6 95 93 89.4 86.7 84.2 81.2 79.6 79 84.5 87.2 83.4 80.4 77.2 77.4 77.7 85.6 91.3 98.6 105.3 110.1 123.1 135.2 144.8 148 149.6 149.1 148.4 150.2 153.2 154.6 155.4 156.4 157.6 159 159.9 164.4 165.7 167.4 168.5 169.8 171.9 175.5 178.9 182.5 187.7 189.4
110.9 116.8 124.2 130.1 137 145.2 152.6 160.8 170.6 179.6 188.8 187.2 184.4 181.5 177.3 174 171.7 167.9 168.5 169.7 172.5 175.4 178.7 182.5 186.1 193.8 202.1 209.2 213.5 213.5 213.4 211.2 209.5 207.1 205 202.2 199.4 197.4 194.1 191.1 186.9 183.5 179.8 173.8 168.5 168.1 169.8 169.2 168.1 165.5 163 160.9 159.1 156 153.1 150.4 148.3 146.3 142.9 140 135.3 129.7 127.1 123.3 120.8 107.3 107.3 98.7 92.2 86.9 78 73.9 74 79.2 79.9 81.2 85.3 94.7 104 110.6 118.3 125.3 128 134 143.2 151.9 158.4 157.9 156.8 153.8 151.3 149.7 147.5 144.1 139.2 137.8 140 141 140.7 142.2 143.3 140.7 137.2 144.2 153 158.6 160 158.7 158.4 157.2 161.5 165.9 174.2 181.7 192 197.1 194.9 191.4 189.7 186.1 182.2 179.3 176.4 174.2 184.6 192.2 193.3 191.8 187.7 182.2 179.5 174.3 170 168.1 165.1 162.8 161 157.2 153.9 148.7 144.8 141.3 133.1 128.3 122.7 118.2 114.5 110 104.3 102.7 103.1 102.9 100 96.5 93.7 91.8 88.9 85.8 81.8 81 79.3 85 92.8 92.7 87.6 83.7 78.9 77.8 77.9 80.1 87.1 93 99.2 108.1 121.3 136.2 141.7 143 144.8 146 146.2 146.8 149.6 149.6 149.3 153 155.1 156.8 158 160.1 164.5 165.1 166.9 169.1 171.2 174.5 177.7 182.6 186.5 189.3
116.5 124.2 132.6 138.8 146.6 152.6 160.8 169.2 179.2 188.2 190.4 189 186.3 182.3 177.8 175.2 174.6 174.7 177.2 180.3 186.3 192.4 196.2 202.8 211.2 216.3 216 216.7 217.4 216.2 213.5 210.6 209.2 206.1 202.7 201.4 198 195.2 192.3 189.2 184.4 179.8 174.1 173.9 175.1 175.3 174.8 173.3 170.3 168.8 165.7 163 160.5 156.8 153.9 151.3 149.7 147.8 144.1 140.3 136.8 133.3 131.8 127.5 124 107.5 106.8 92.3 84.5 77.5 76.5 72.5 80.3 84 86.6 86.7 86.5 91.6 101.5 108 115.7 124.1 130.1 133.6 140.4 150.8 157 157.3 157 154.7 152.5 151 149.1 146.1 142.5 141.7 142.5 145.3 148.1 150.6 151.7 147.3 143 148 156.8 162.7 163.9 161.9 159 160.6 164.4 169.9 178.6 185.8 193.1 198.1 195.9 192.9 190.8 187.7 183.8 180.8 178 175.6 182 188 191.8 191.6 187.1 182.5 179.3 175 170.7 169.2 166.1 163.2 160.7 156.8 150.7 144.6 139.7 133.9 128.7 124.7 120.7 114.9 110.6 106.4 102.5 97.8 98.2 96.4 97.1 95.9 93 89.5 86 82.8 80.6 82.8 85.3 92.7 96.8 94.4 90.2 85.7 79.3 78.1 78.6 79.7 84.2 90.7 98.5 108.8 123.8 133.7 138.3 138.4 140.3 141.6 144.3 144 144 144.8 145.1 147.5 150.6 153.1 155.6 158.5 160.9 164.2 166.4 168.5 170.6 174.5 177.4 182.9 188.4 190.1
122.7 129.6 138 145.8 152 159.6 167.9 177 187.1 194.4 192.5 189.5 187.4 184.1 180.4 177.9 179.9 182.8 187.3 194.6 201.8 210.8 217.8 221.2 219.3 218.3 220.4 220.2 218.9 217.1 214.6 210.7 207.7 204.9 201.8 199 196.6 193.6 190.6 186.8 182.1 178.4 179 180.3 181 179.6 178 175.9 173.5 171.2 167.8 163.2 160.4 157.3 155.2 152.6 150.3 148.4 145 141.7 138.5 136.5 135.5 133.1 126.3 107.6 92.1 80.3 76 75.3 74.7 80.7 85.4 87.4 89.9 94.2 97.2 100.1 104.1 108.1 116.2 124.4 129.3 133.6 139.6 149.5 156.9 158.2 157.4 155.6 153.7 152 150.7 147.5 146.1 145.9 149.1 154.1 157 159.8 160.4 155.1 148.5 153.7 162.2 165.8 164.8 163.4 162 164.1 168.6 174.3 184.4 194.2 200.8 199.8 196.8 193.9 190.9 188 185 181.8 179.8 177.8 184.4 190.8 194.9 193.6 189.1 183.8 180.4 176.3 171.7 168.7 166 163.3 158.8 151.6 145.2 139.7 134.4 129.2 124.5 121.8 117.8 111.8 106.5 101.8 98.1 95.2 93.5 91.9 90 87.7 88.8 85.2 82.5 82.8 85.1 87.5 93.6 97.3 97.5 94.1 90.3 87.3 82 77.2 77.4 78.4 82.2 88.9 97.6 108.4 122 131.3 135.9 136.3 137.3 139.5 139.4 139.5 139.4 139.2 141.6 144.2 146.9 150.3 153.7 157.2 160.3 164.8 166.9 169 171.1 173.3 177.1 182.3 187.6 190.8
129 137.2 144.7 150.7 157 165.3 174.7 182.7 190.5 196 193.4 191.1 189.3 186.5 184.8 185.7 187.4 192.8 200 210.5 220.4 224.8 224.3 225.3 225.1 224.4 222.2 220.9 219.4 217.6 213.8 210.4 207.1 204.7 201 198.7 196.5 193 190.6 185.8 182.3 182.9 184.3 184.3 184.6 182.1 180.1 177.6 175.3 173.4 170.1 166.4 161 157.9 156.9 153.4 151 148.2 145.6 142 140.1 139.1 137.5 129.4 112.6 93.3 85.6 77.4 75 75.1 78 87.8 89.5 93.6 96.5 102.5 105.5 105.9 108.8 111.1 119.4 127 130.8 134.3 140.9 149.6 157.6 159.4 157.8 156.1 154.7 153.6 152.2 151 150.6 151.6 154.8 161.2 171 176.7 170.4 163 156.6 159.9 165.4 166.9 166.4 164.7 166.5 168.2 173.2 180.8 189.4 196.8 203.5 201.2 198.1 195.2 192.4 189.7 186.9 184.1 180.7 182.7 187.6 193.7 197.2 195 190.3 184.5 179.7 174.7 172.9 170.1 166.2 160.7 154.5 147.2 142.3 137 129.8 127.2 122.2 118.5 115.3 110.1 103.5 99 96.4 93.5 91.7 89.1 87 84.6 84.2 85.5 86.8 90.2 94 91.7 97.7 100.2 98.9 97.1 94.6 90.1 86.2 79 78.6 78.8 79.8 86.4 95.2 103.1 116.1 124.3 132.8 136.3 136.9 137.6 137.1 136.6 135.6 134.9 137.4 140.5 143.3 147.7 153.9 157.1 161.4 164.4 167.4 169.6 171.9 174.2 177.5 181.3 187.1 190.3
133.5 141.4 149.7 157.6 169.1 173.8 180.8 187 198.4 197.2 195.4 193.5 191.9 192.2 193.6 195.1 199.3 204.3 217.1 226.2 230.6 233.1 229.5 227.1 228.1 226.7 223.5 221.9 219.9 217.2 214 210.1 206.8 204.9 200.9 199.1 196.8 194.9 191.2 185.7 187.4 188.5 188.8 188.5 186.5 184.2 181.5 178.5 176.3 174.1 171.3 166.4 162.4 159.5 156.1 155.8 152.3 149.4 145.8 143 139.9 134.4 125.1 115.2 94.6 91.2 79.5 77.4 76.7 78.3 90.3 92.6 94.9 102.4 105.9 110.3 111.5 110.7 114.5 119.5 124.1 129.3 132.1 136.5 144.7 152.2 159.3 158.9 157.9 158 156.4 155.4 155.3 154.6 155.9 155.6 158.3 165.3 173.9 182.8 179.5 172.6 167.5 163.7 166.5 169 167.5 168.6 170.5 173.2 179.1 188.2 197.6 203.3 204.8 202.6 199.4 196.1 192.8 190.6 187.3 185.3 182.7 185.3 190 196.7 198.1 194 189.2 184.5 181 176.9 174.3 169.4 163.3 157.7 150.8 146.1 141.5 136.4 131.7 128.7 122.4 117.5 112.5 109.4 105.1 100.8 96.4 93 89.4 87.5 86 87.7 90.2 93.9 95.6 101.5 103 99.7 100.2 102.5 101.8 101.6 99.8 95.2 88.9 80.9 80.2 79.9 79.7 83.5 93 100.8 110.5 118.7 129.9 134.2 134 134 133.4 132.6 131.5 131.3 133 135.2 139.9 148.3 155.5 160 164.1 166.4 167.7 169.9 172.2 173.8 176.6 180.2 186.8 190.5
137.5 145.4 153.3 160.5 171 178 188.4 199 199.7 198 195.8 194.4 195.9 198.7 201.7 207.6 214.5 222.7 233.7 232.5 236 232.2 231.3 230.8 230.2 227.9 224.9 222.5 219.3 216.8 214.7 210.6 207.2 206.3 202.3 200.1 197.7 195.2 192.9 191.2 192.2 192 191.6 189.7 187.7 185.5 182.7 179.9 177.3 175.1 172.1 168.5 163.7 159.6 156.6 155.9 152.6 149.9 147.9 141.1 132.7 123.1 112.6 97.1 93.1 84.4 77.4 77.1 73.9 93.5 97.2 98.2 100.2 110.2 115.6 117.3 116.7 117.7 123.2 126.1 128.8 131.2 134.8 140.2 149.9 157.1 161.3 159.8 158 160 158.7 158.6 159.4 160.2 161.2 161.4 162.5 166.3 174.9 183.1 182.9 179.9 176.2 167.4 169.7 170 170.2 171.8 174.1 178.8 185.4 192.4 201.6 207.8 206.4 203.5 200.3 195.3 194.6 191.2 189.1 187.4 186.3 188.5 192.7 198.2 198.2 196.2 191.2 185.9 181.6 178.2 174.7 169.8 161.9 155.5 150.1 146.1 141.7 135.9 131.6 127.6 120.8 116.2 111.4 108.2 103.1 98.1 94.8 91.1 87.5 91.9 93.5 96.5 101.1 103.8 107.7 110.2 108 105.7 104.4 105.7 106.1 105.7 103.2 100 92.2 83 81.3 79.8 80.3 83.3 90.8 97.2 105.3 116.9 125.5 129.9 126.9 128.6 128.1 124.1 126.5 132.4 135.3 138.9 143 148.2 158.2 163.9 165.7 166.4 167.9 169.4 170.7 172.1 175.3 179.1 185.9 190.3
141.9 149 156.4 167.3 174.1 184.3 194.7 200.6 200.8 198.6 196.3 198.8 203.1 207.3 213.6 221.9 230.1 238.1 241.9 243.1 242.3 239.6 236.4 233.8 231.6 229.4 225.4 222 220.9 217.8 214.4 212.1 209.8 206.9 204.6 200.1 196.9 194.3 194.7 195.7 195.5 194.1 192.8 190.9 188.7 186.9 184.2 181.4 178.6 176.2 172.3 167.9 165.2 161 158.2 156.8 153.5 151.3 143.1 133.2 122.9 109.5 97.8 94.4 84.3 78.8 78.3 73.3 94.4 103.3 108 107.2 105.9 117.9 123.2 124 125.6 126.6 128.5 130.5 132 134.8 137.1 147.7 155.9 161.7 162.4 161.5 159.9 160.6 161.5 163.1 165.1 167 166.9 168.6 167 168.4 173.6 184.2 183.5 181.2 178.2 173.6 173.4 172.5 173.2 175.9 179.9 185.6 193.2 200.4 205.4 208.5 206.2 203.5 200.1 196.5 194 192 189 187.5 185.5 188.2 193.1 202.6 200.5 197 188.6 182.7 180.2 175.2 167.1 163.1 157.1 153.3 149.1 144.8 139.3 133.1 125.9 122.7 117.8 112.2 106.2 101.4 98 95.7 93.1 90.9 94.9 98.2 104.3 110.1 113.7 114.5 117.3 116.5 110.9 109.2 108.4 110.7 111.1 109.2 106.8 104 97.7 82.4 80 80.4 80.8 80.9 88.3 95.7 102.3 111.5 117.9 117.9 117.5 116.8 117.7 119.4 126.1 132.3 135.8 137.8 141.6 151.8 160.4 165.4 167.3 165.9 166 168 169.9 171.5 174 178 183.8 190.1
147 154.3 161.4 169.6 181.2 191.5 200.8 203 201.1 199.2 199.7 203.3 210 217.1 226.6 234.1 242.1 248.6 249.7 248.3 245.2 241.7 239 236.3 232.5 231 227.6 223.5 221.4 219.3 214.5 211.8 210.2 206.8 204 201.2 198.7 198.2 197.2 197 197.1 195.8 193.8 192 190.1 187.7 185.1 182.4 179.8 176.6 173.6 169.5 166 163.3 160.5 157.4 153.1 142.9 134.3 123 109.1 96.2 92.7 86.4 76.9 77.4 76.5 91.6 102.4 115 118.8 116.3 114.5 123.2 129.1 131.5 132.8 132 131.1 134 136.2 140.3 146.5 154.5 159.7 163.4 162 161.2 161.8 164 166.3 169.1 172.2 172.9 173.3 173.7 174.8 173 176.8 183.8 183.7 182.3 179 177.2 176.1 175.4 177.5 181.4 186.6 194.3 204.7 209.8 209.8 209.6 207.2 204.5 201.8 198.8 195.8 192.9 188.8 184.4 182.2 184.4 187.9 192.4 191.6 188.5 179.8 173.5 170.2 165.4 159.8 156.6 151.6 150 142.7 138.4 133.4 129.8 123.8 118.6 117.7 111.5 105.3 101.6 98.2 92.8 92.7 96 104.8 111.2 116.7 121.2 123.6 123.9 123.5 120.5 114.8 113.6 113 114.7 115.3 113.5 110 106.1 101.8 88.9 80.4 80.8 81.5 82.1 87.6 93.3 97.6 102.9 108.5 110.1 109.1 109.2 112.1 119.2 125.6 131.3 135.2 137.1 140 149.6 159.2 165.2 166.4 164.9 164.3 166.4 168.4 170.6 172.4 176.2 181.3 188.2
151.9 158.9 168.5 174.1 194.1 204.9 205.9 205.1 202.5 203.2 205.1 209.8 217.5 228.3 237.3 244.1 250.9 254.1 254 251.3 247.9 245.4 241.4 238.6 234.8 231.2 226.9 225.7 222.4 218.7 215.7 212.2 210.3 206.8 199.8 199.5 200 201.2 199.3 198.9 197.8 195.9 194.1 192.2 190.1 187.9 185.9 183.3 180.6 177.1 174.2 171 168.2 165.2 162.7 152.9 144.6 132.4 119.3 108.4 93.8 90.3 78 75.7 75.7 74.1 78.3 100.1 112.7 123.8 123.3 122.8 121.7 129.2 134.6 137.3 137.6 135.9 134.7 136.8 139.6 144.5 151.6 158 163.1 162.4 161.1 160.3 163.1 166.6 170.1 174.9 177.4 178.7 180.7 182.6 181.5 179.5 176.9 182.2 184.1 182.6 180.2 178.6 178.9 179.9 183.7 188.4 194.2 204 212.3 214.8 214.1 210.8 207.9 205 202.1 199.2 196.4 192.9 188 183.4 181.2 177.4 179.7 180.8 180.5 177.4 171.1 164.9 159.3 155.1 150.5 146.6 144.3 141.9 138.9 134.4 131.3 127.6 124.3 121.1 117.6 112.1 105.7 100.6 95.3 96.4 100.7 106.2 116.3 123 126.9 130.4 130.6 129.5 127.1 121.5 119.2 118.1 116.8 117 115.8 113.9 110.8 107.3 100.8 88.9 79.5 80.6 81.6 82.8 85.9 89.7 93.1 96.9 99.3 102.6 103.3 106.8 113.5 118.2 125.1 129.1 134.5 136.4 138.5 144.6 154.5 162.8 164.8 162.7 161.9 164.8 167 169.7 170.7 174.3 179.4 182.4
156.4 163.3 174.3 182.2 202.9 207.7 208.3 206.8 206.2 206.3 211.2 218.4 228.4 237.7 245.6 252.4 255.5 258.2 256.9 253.8 250.2 246.4 243.2 239.5 236 231.5 227.6 226.3 222.5 218.1 216 213.7 210.8 207.3 200.7 203.5 200.8 204.4 203.4 202.3 198.2 197.7 190.2 192.3 190.1 187.8 186 184.2 181.5 178.2 175.3 172.5 169.8 167.5 157.4 146 136.7 125.1 111.6 97.7 86.8 77.3 77 76.8 76.7 86.6 100.5 111.5 122.1 127.4 125.1 125.2 126.3 132.9 139 142.2 141.6 140 138.6 140.1 144.6 151.9 158.2 161.5 160.9 159.7 158.6 160.3 163.7 169.2 174.8 179 182.1 186 190.3 191 189.4 185.9 182.7 181.3 184.2 183 182 182.9 185 186.8 190.6 196.6 204.3 215.3 217.1 215.2 214 211.1 207.9 205.2 202.4 199.4 195.9 192.3 187.8 182.8 179.3 175.7 172.9 171 168.4 165.3 161.1 156.5 151.4 147.8 145.3 142.5 143.4 140.2 138.6 134.6 131.9 128.5 125 121.8 116.7 112.5 104.4 96.3 94.8 102.1 107.9 117.2 125.9 132.2 136.7 138 136.8 132.9 127.9 124.5 121.7 120.6 118.6 118.2 116.3 114.4 110.6 107 100.6 92.5 82.3 80.3 81.5 82.7 85.7 88.4 94.4 96.1 99.3 101.8 104.1 109.5 113 116.1 123.2 128.3 133.9 136.4 138.1 140.2 151.1 159.4 162.4 161 157.5 162.3 165.6 167.6 169.1 171 174.6 176.4
160.4 169.3 177.4 193.5 206 208.9 209.2 207.5 207.7 212.8 217.9 226.5 236.6 246.9 258.6 263.2 262.9 262.3 259 255.4 250.6 246.9 243.1 239.5 235.9 233 230.6 227.8 224.4 218.8 216.3 214.7 211.5 208.9 205.2 204 200.8 205.3 202.9 201.1 197.1 183.8 181.7 193.2 190.9 189 186.9 184.7 182.2 179 176.1 173.5 170.6 162.2 150.2 136.3 128 115.3 99.2 93.4 77.3 77.8 77 76.8 86.6 99.4 108.6 119.4 125.5 127.9 127.2 127 129.4 138.4 145.8 148.2 146.9 142.5 141.5 145.4 154.8 157.4 158.4 158.8 158.4 157.4 156.7 159.4 162.8 169.3 177 182.3 187.7 193.3 194.8 194.4 192.1 189.6 187 185.9 184.3 185.3 186 188.5 191.5 193.5 197.5 207.6 217.7 220.6 218.6 215 212.9 210.2 205.6 202.5 201.5 198.3 194.5 191 186.7 180.4 176.7 175.6 168.9 163.6 156.6 154.7 152.1 148.7 143.7 140.1 137.4 136.2 137.9 137.1 136.4 135.2 132.6 131.4 126.5 118.8 111.5 104.3 98.7 97.2 100.6 107.1 116.2 127.3 133.8 140.4 146.2 146.3 141.9 135.2 130.6 127.3 124.3 122.5 120.4 119.2 117.3 114.6 110.3 106.5 102.5 96.5 87.2 80.7 81.5 82.7 84.5 88.6 94.1 97 101.5 103.2 105.2 108.1 110.9 114.2 121.2 126.9 131.5 134.7 136.7 141.1 149.9 155.7 159.5 159.9 157.7 159.4 164 165.4 166.7 168.1 169.2 171.3
167.4 174.4 185.5 199.5 207.2 209.5 209.1 209.1 211.2 217.1 225.4 233.5 243.2 255.1 260.1 259.4 265.2 262.7 259.5 256 251.8 247 242.9 239.5 236.7 233.9 231.6 228.9 225.9 222 218 215.4 213.8 213.6 204.3 204.4 205.7 205.1 204.9 204.5 195.1 175 177.2 194.7 192.5 190.3 188 185.2 182.4 179.5 176.6 173.6 167.7 156.3 142.4 129 117.3 104.6 97 89.6 77.3 78 78.1 82 95.3 107.4 125.8 128.1 130.6 130.9 129.6 129.3 134.7 144.2 151.9 154.6 151.3 146.4 145.5 150.7 156.7 156.5 156.5 155.6 155.6 153.9 155.2 156.7 162 168.5 179.7 185.1 193.2 195.9 195.9 194.7 193.1 191.4 189.7 188.1 187.6 188.7 189.8 193 198.2 201.4 206.7 212.9 221 222.1 218.3 214.6 211.5 208.2 200.7 193.7 194.3 192.8 188.1 180.3 171.6 165.5 162.7 160.6 156.3 150.9 146.9 145.5 140.8 138.4 134.6 131.3 129.5 128.5 128.7 130.9 130.8 132.9 131.3 125 118.1 111.2 102.7 97.8 96.2 102.2 107.6 115.6 127.3 135.4 140.7 149 154.6 152 145.6 140.1 136.4 130.4 126.4 124.3 122.2 120.1 117.5 114.2 110.7 108.1 104.6 101.6 94.7 83.6 81.3 82.8 84.8 87.8 92.4 95.7 99.4 102.8 105 106.8 110.6 113.9 118.9 123.8 126.6 131.4 135.2 141.4 147.8 151.3 156 158.2 158.5 158.1 161.2 163.8 164.7 165.5 166.2 166.9
171.2 176.9 193 202.2 207.6 209.7 210.6 211.7 215.7 222.2 229.5 236.9 251.9 266.5 262.6 268.2 265.9 262.5 259.1 254.8 250.9 246.6 243.1 240.2 237.1 234.1 231.9 229.6 225.8 221.6 219.7 217.7 217.7 215.1 204.4 203.9 205.7 204.4 207 204.9 197.3 184.1 178.2 196.9 194 190.9 188 185.2 182 178.3 175.2 171.4 162.7 149.1 133 120.5 106.1 100.1 95 86.7 77.3 77.9 78.4 86.4 100.4 111.5 130.2 133.5 133.5 132.9 131.1 132.5 138.9 149.1 157.5 157.3 154.1 151.6 150 152.2 155.3 154.9 154.5 153.8 152.5 152.7 152.7 155.2 160.2 168.7 179.7 186.8 195.7 196 195.8 195 193.4 191.9 190.2 189.6 190.3 191.8 194.6 198.5 204.6 210.4 214.9 222 223.6 222.1 219.9 216 210.1 204.4 196.7 192.6 192.4 189 180.1 170.8 157.2 153.8 151 148.4 145.8 142.2 136.6 134 132 129.2 126.7 124.7 123.9 122.3 120.4 121.7 121.9 120.6 116.5 113.5 107.6 100.8 97.8 99.8 105.6 109.7 114.8 126.8 136.5 142.4 149.6 157.2 159.9 157.2 150.6 146.4 142.2 134.3 127.6 125.4 123.2 121.4 117.7 114.7 112.1 109.1 106.5 103.5 98.7 90.5 81.7 82.7 84.6 86.1 90.4 95.6 99.1 102.8 104.9 104.8 108.7 111.6 113.9 116.1 120.4 126.7 131.9 139.5 145.1 148.6 150.8 154.3 157.6 158.2 158.1 161.5 162.2 162.8 163.2 163.3
174 181 198.2 204.6 208 209.6 210.9 214.4 219.6 225.4 232.7 241.2 256.5 265.6 262.2 265.4 265.2 261.8 257.8 253.6 250.6 246.3 243.3 240.2 237.2 234.1 231.9 228.7 225.3 224.3 223 221.5 220.7 220.7 209.8 204.8 204.1 204.7 207.1 203.1 189.2 188.7 201.4 197.2 194.2 191 188 184.8 181.2 176.9 173 168.3 157.3 140.9 119.7 115.4 103.2 97.9 92.3 82.4 77.4 77.9 78.5 90.7 109.7 112.6 132.5 135 135.2 134.3 132.6 135.9 143.4 152.8 160.4 158.4 157.1 155.6 152.9 154.2 154.1 153.9 152.3 152 149.9 150.7 149.7 154.5 160.3 169.6 179.1 190 194.9 194.7 194.4 194.3 193.3 192.3 192.1 191.8 192.3 196.6 200.1 207.1 214.2 219 225.2 227.2 227.1 225.6 222.5 217.8 212.3 205.3 197.1 195.7 192.3 186.9 179 169.3 157.2 147.6 143.5 139.7 137.1 135.7 132 128.2 125.7 123.2 121.2 119.2 118.7 117 115 113.4 109.1 105.1 103.6 101.4 100.5 100.6 103.5 109.7 112.5 116.9 127.1 138.1 145.4 149.7 158.3 163.9 164.3 160.9 155 152.4 146.4 136.4 127.8 125.2 123.7 121.4 118.3 114.3 111.3 108.1 104.8 101 96.5 92.2 82 83.1 84.3 86.3 90.9 95.1 97.6 100.7 102.6 102.1 101.5 104 107.1 109.2 112.6 117.6 126 134.7 140.6 144.9 148.2 152 155.3 157 157.5 158 157.8 159 159 159.4
177.9 189.9 201.2 205.2 206.5 208.5 211.2 216.8 222.8 229 236 246.3 262.3 268.9 268.8 266.6 264.3 260.2 256.1 252.4 250.2 246.7 242.6 239.7 236.7 234.3 231.8 229.5 228.4 225.8 223 222.9 223.1 221.4 210.8 202 199.6 211.2 211.3 208.4 187.3 205.8 200.6 197.5 194.8 191.2 187.7 184.1 179.8 175.4 170.5 164.3 152.2 135.3 120 113.2 101.7 95.8 89.9 79.4 78.4 77.3 79.1 97.4 111.8 112.7 129.7 137.6 135.8 135.3 135.1 137.5 146.8 155.7 161.7 160.1 159.2 157 155.9 154.5 154 149.4 148.3 147.4 147.6 147.9 148 152.9 160.1 168.2 176.8 187.3 193.2 192.9 192.7 192.4 191.4 190.6 191 192.2 196.4 202.5 208.7 216.1 223.7 226.1 230.9 234.3 237.6 235.3 229.3 222.3 214.7 207.1 199.6 197.4 192.3 186.2 178.8 169.3 158.5 147.8 142.3 137.7 133.4 130.3 127.3 122.9 121.4 118.2 115.7 114 114 111.7 109.5 107.5 104.2 103.9 104.3 106.4 106.8 108.3 112.8 114.5 118.5 124.6 136.3 147.5 152.5 159.4 166.2 169.2 168.6 164.2 161 155.9 149 136.8 127 124.7 122.7 118.9 114.6 112 110.3 106.1 99.6 91.9 88.9 88.5 85 83.9 84 85.8 88.6 91.6 94.7 97.9 98.5 100.6 100.7 101.1 103.9 105.3 107 110.4 118.9 128.4 133.8 139.8 145.3 148.7 151.8 154.9 156.5 156.1 155 154.9 154.8 156.3
182.9 194.4 201.8 205.3 206.6 209 212 217.1 224.2 231 237.6 250.7 263.9 268.3 268.7 265.7 261.9 258.8 254.8 251.4 248.7 245 242.2 239.8 237.6 235.4 233.6 231.8 228 219.5 219.8 216.5 223.5 216.7 205 197.4 204.3 212.5 212 209.2 206.4 203.4 201.3 197.4 194.3 190.9 187.5 183 178.3 174 168.7 161.9 148.6 133.9 121.4 111.4 101.9 94.3 89 79.8 79.2 79.8 79.1 84.5 105.7 112.7 114.7 138.6 137 136.3 136.7 138.1 148 158.4 161.7 160.1 160.2 158.7 156.6 155.2 152.5 147.9 144.1 144.4 145.2 144.5 146.1 151.1 157.3 162.5 168 179.8 189 190.7 190.8 190.9 190.2 189.6 191.2 194.5 201.3 209.1 218.3 227 233.2 236 240.3 247.2 252.8 242.6 233.2 224.1 215.3 207.9 202.3 197.8 191.7 184 175.7 167.1 156.4 146.7 141.2 137.7 133.8 129.5 127.1 124.5 121.5 118.3 115.9 113.4 111.6 109.9 107.7 104.6 107.5 109.7 111 110.6 111.6 114.6 117.5 119.4 125 134 146.1 152.8 159.4 167.5 173.4 173.7 171.5 168.4 164.5 159.1 151.1 138.4 128 124 120.5 115.4 109.3 111.5 109.7 105.4 101 98.7 96.1 94.3 90.7 84.6 83.9 85.7 87.4 88.4 91.3 93.9 93.6 97.4 100.6 101.2 102.1 101.7 102.9 105.5 113.1 120.1 125.7 133.1 139.4 144.2 147.8 150.7 152.1 150.7 150 150.4 150.8 151
185.7 196.5 202.5 204.4 205.9 208.5 213 218.5 226.2 231.1 241.5 258.1 266.4 268.8 267.8 265.2 261.8 257.4 253.6 250.6 248.1 246.6 244.6 241.8 240.4 237.7 235.7 233.8 225.4 213.9 212.5 212.2 224 208.4 201 201.3 210.4 212.1 211.5 210.5 206.1 202.8 199.3 197.2 193.8 190.5 186.6 181.9 176.5 171.5 167.6 159.9 147.1 133.8 120.3 109.5 101.6 93.5 89.1 82.7 80 80.3 80.6 79 92.7 108.4 113.8 139.8 138.5 137.4 137.9 139.7 146.9 155 162.5 160.2 159.7 158.4 156.3 154.3 149.4 146.9 143.4 141.6 139.4 140.7 143.9 148 152.1 155.8 161.7 168.3 177.5 187 187.4 188.5 188.2 189.4 193.5 199.2 207.8 217.3 226.1 234.3 240.6 247.4 253.7 256.4 254.7 243.9 231.8 221.2 214.2 207.5 202.3 195.3 187.2 178.3 170.4 163.7 154 145.9 140.6 136.8 133.8 131.5 129 126 123 119.8 117.3 114.9 112.7 111 107.9 106.3 111.8 112.8 114.2 114.6 116.6 119.4 122.1 125.9 133.7 141.5 151.8 158.9 166.1 173.7 178.6 176.7 174.5 171 167.1 161 152.4 140.3 128.8 124.3 120.9 116 111.1 111.9 110.7 108.4 105.5 103.6 101.8 99.8 96.9 86.7 83.9 85.5 86.5 88.1 89.5 91.6 91.9 92.3 94.9 96.4 96.7 97.8 98.9 100.1 102.3 108.5 115.5 124.4 129.2 137.2 140.4 142.4 145 142.3 144.3 144.4 145.3 146.2
190 201.4 204.1 204.4 206.2 209.9 213.5 220.3 226.6 231.8 246.2 262.4 266.9 268.4 266.1 264.3 261.4 258.1 254.5 252.3 250.9 249 247.1 245 241.1 239 237.4 235.7 228.2 210 205.9 207.9 214.9 214.9 202.6 204 211.2 211.2 210.7 208.6 206.3 202.7 199.1 196.2 192.3 189.4 185.3 180.9 175.6 171 166.3 157.5 145.9 131.4 115.9 106.2 98.7 94 88.9 82.6 80.3 79.5 78.7 79 81.4 93.8 108.4 116.7 132.7 136.8 138.2 139.7 144 151.5 159.5 161.2 160.3 158.1 155.8 153.9 150.3 145.6 141.3 136.5 135.7 138.6 141 144.5 149.1 153.5 158.8 164 168.5 176.8 184.1 185.8 186.4 190.3 196.4 203.7 215.8 225.4 232.8 241.1 253.7 265.3 264.5 257.2 247.9 238 227.1 219.4 214.2 209.4 204 194.9 183.8 174.8 166.6 159.5 151.6 145 141.2 137.6 134.2 132 130.2 127.4 124.4 121.3 118.5 116 112.8 110.3 108.5 112.8 114.5 115.9 117.4 119.5 123.4 126.4 129.8 138.4 147.2 154.8 161.2 169.9 175.8 181.8 181.5 179.6 175.9 172.4 168.7 162.5 154.2 144.1 131.4 125.7 121 117.4 112 113.7 114.5 110.4 107.7 105.2 102.8 102.3 99.6 87.1 84.5 84.6 88.1 89.5 92 94.3 94.1 94 94.2 94.6 95.8 97.2 97 97.1 101.5 103.8 106.9 116.4 118.8 128.1 132.1 134.8 137.8 136.7 137.3 137.3 138.2 138.8
193.8 202.3 205.2 206 207.8 211.5 214.8 222.6 227.8 233.9 250.2 262.7 267.6 268.5 267 265.3 263.1 260.9 258.8 256.7 254.5 251.9 249.2 245.5 242 239.7 237.7 235.9 235.2 211.8 205.3 211.8 225.2 219.1 212.3 204.5 208.8 210.3 210.1 207.5 205.2 202 198.4 195 191.5 188.4 184.6 179.4 175.3 170.7 164.4 155.4 144.3 124.8 113.5 107.3 99.7 94.9 89.6 81.6 80.8 80.1 78.9 79 79.7 81.3 92.4 110.1 121.1 132.4 136.1 137.5 140.8 144.7 150 158.5 158.6 156.4 154.5 152.6 148.6 143.9 138.5 134 133.3 136.4 138.3 142.3 146.6 149.7 157.1 162.8 168.8 176.3 181.5 185.1 187.2 192 199.7 210.5 222.9 231.4 239 251.4 268.3 266.9 264.1 255.5 243.7 232.8 223.5 216.9 213.5 209.5 203.3 192.6 181.4 172.1 164.7 157 150.1 144.9 141.2 138.3 135.5 132.5 130.5 128.3 125.2 122.1 119.3 116.4 111.6 111.3 113.3 115.5 119.2 120.9 122.3 125.7 130.7 134.8 142.8 152.6 159.8 165.8 174.3 180.8 185.4 184.7 184.2 181 177.2 173.5 169.8 164.5 155.4 145.9 132.7 127 123.3 119.8 114.3 118 117.2 112.2 107.5 105.3 104 103.4 99.8 86.4 84.4 84.7 88.2 93 95.6 98.5 100.1 100.7 100.8 100.7 100.9 101.6 104.5 108.8 110.4 109.1 107.3 103.4 107.8 118.1 124.6 130.6 132.4 132.7 132.4 131.1 130.4 129.4
194.2 201.8 205.2 206.6 207.5 213.7 218.5 222.1 228.2 236.1 250 264.3 269.8 269.5 267.9 266.4 264.3 262.2 260.3 258.4 256.5 253.6 250.2 246.4 242.9 240.4 238.1 236.3 233.9 221.7 217.7 225.6 219.6 217.3 215.6 213.1 206.7 208.9 208.9 206.4 203.9 200.7 197.1 193.7 190.4 187.8 184.8 179.6 175.1 170.1 164.4 156.9 145.9 130.9 117 110 102.7 96.1 89.7 81.8 81.3 80.9 80.6 78.6 78.8 79.9 80.9 94.5 109.8 120.7 130.1 135.6 136.2 139.3 142.2 146.9 149.5 150.6 148.8 146.1 143.6 138.7 134.5 130 132.9 134.1 140.8 147.5 151.4 154.6 155.5 163.5 179.7 181.2 181.6 184.1 189.1 195.1 205.1 218.1 229.5 237.6 247 265.4 268.2 266.1 262.7 251 238.7 227.3 220.6 215.4 212.2 207.3 200.2 189.9 177.9 169.8 162.9 155.8 149.3 145 141.2 139 136 133.1 130.6 128.5 125.6 122.3 119.4 114.5 114.5 115.9 118.4 119.1 122.8 125.5 129.4 132.9 138.3 146.1 154.9 163.4 171.6 179 185.4 189.1 190.3 188.4 185.5 182.1 178.3 174.6 172.2 167 157.6 145.1 132.2 127.5 123.5 118 118.3 118.6 118.5 113.3 108.9 105.6 102.8 101.4 97.1 86.7 84.2 86.7 91.4 95.3 98.8 103.3 108.1 112.5 114.6 115.4 116 114.7 118 119.3 119.6 117.4 114.5 110.8 105.4 105.5 114.7 122.6 127.1 128.2 127 124.1 122.8 121.7
196 201.8 205.9 206.5 209.1 214.2 221.1 225.4 230.1 238 253 265.2 271.1 270.3 269.1 266.6 265.2 263.4 261.6 259.8 256.9 254.2 250.8 247.2 243.7 240.6 237.5 234.5 232.6 226 226.4 220.5 215.3 204.5 206.5 199.9 203.5 211.8 209.1 205.2 201.7 198.9 195.8 193 191.2 188.8 184.2 179.6 175.2 170.8 165.7 159.3 150.9 138.7 123.5 114.9 106.7 100.1 91.8 83.4 82.7 82.4 81.6 80.9 80.8 79.6 80.8 85.3 101 114 126.1 130.4 134.5 133.8 134.5 135.9 136.1 138.1 137.7 136.4 135.2 131 128.1 128.6 134.2 142.5 148.8 154.6 158.8 159.7 162 161.6 171.3 179.4 181.3 185.6 191.1 199.2 211.7 223.9 233 242.1 257.4 268.5 268.1 266.2 255.2 240.6 229.3 222.2 217.8 213.3 208.6 202.4 196.1 185.1 173.4 167 160.2 153.7 148.8 145.2 142.4 139.5 136.6 133.8 131.1 128.7 125.9 122.6 117.9 116.8 120 121.2 123.5 127.2 129.2 132.8 136.3 142.6 151.5 158.6 167.7 175.7 185.5 191.4 195.7 194.5 192.2 189.9 186.3 182.8 179 176.8 173.9 167.3 156.5 141.5 132 126.9 124.4 122.4 120.4 118.8 119.2 114.8 109.8 105.9 102.3 99.5 92.8 87.4 86.5 88.1 94.4 98 101.5 109.2 116.6 120.5 124.5 126.2 126.3 126.3 127.4 130.2 127.8 124.8 121.3 117.6 113.5 105.6 106.4 112 115.3 117 118.4 117.4 116.9 116.1
199.9 203.3 206.3 206.6 212.7 214 221.2 226.7 232.9 242.4 262.1 270 272.5 271.3 269.1 266.6 264.4 264.3 261.7 259.4 257.4 254.6 250.6 247.5 243.2 241.1 236.6 232.6 230.4 225.5 221.7 218.7 205.3 194.6 197.1 208.6 208.4 208.4 209.2 202.8 199.5 196.9 195.8 194 192.2 189.8 186.4 182.2 175.2 170.2 163 158.3 154.7 145.7 131.8 119.1 112 104 97.1 87.7 84.1 83.2 82.3 81.6 81.4 82.2 78.6 83.1 96 108.9 119.5 119.7 132.4 130.8 129.5 128.7 128.7 129.9 130.6 129.9 127.7 125.5 128 134.4 140.1 148.2 154.4 161.7 166.6 168 168.8 174.7 175.3 178 182.6 187 194.7 204 217.4 229.1 236.1 247.8 264.8 271.1 267.7 254.2 241.7 230.1 223.3 218 214.7 211.2 203.1 193.9 188 177.8 169.6 163.1 157.9 152.5 148.2 145.4 142.6 140 137.2 134.4 131.7 128.9 124.2 118.6 119.2 123.4 124.8 126.5 132.1 139.7 143.1 143.2 150.3 157.7 164.5 172.3 178.5 188.8 196 201.2 199.3 196.7 194.1 190.8 187.1 183.8 180.9 178.3 173.5 165.1 150.3 136.3 131.8 129.6 128.7 124.9 123 120.6 120.1 117.2 111.3 106.5 103.2 100.3 93.5 88.6 87.7 87.9 95.5 98.9 105.8 113.5 121.2 128.3 132.2 133.6 134.5 135.1 135.3 135.3 134.1 131.4 126.5 122.8 118.1 113.7 111.2 110.8 110.6 110.3 111.1 112.8 117.7 120.7
200.8 203.1 206.6 210.5 213.4 215.8 225.1 231.1 236.6 251.2 268.8 270.3 272.6 271.1 267.8 264.9 264.9 263.1 261.1 258.7 248.2 236.5 244.4 246.6 243.2 239.9 236.3 232 227.7 223.7 221 217.2 194.8 193.4 208.4 205 202.8 201.6 200.5 198.9 198.6 197.9 196.1 194.2 192.1 190 186.3 181.5 176.4 168.8 162.6 161.5 159.2 151.8 141.2 129.2 117.9 111.5 103 89.4 85.5 84.3 83.1 82.3 82 82.4 81.2 81.3 92.6 105.6 114.3 125.4 130.1 130.2 127.6 125.4 123.8 123.3 122.9 122.7 122.7 128.7 136.3 141.8 146.5 152.1 160.1 168.5 175.3 177 174.5 178.2 177.2 179.4 183.7 188.2 197.2 210.5 222.9 229.9 235.9 246 253.9 257 249.2 239 230.1 223.7 219 215.1 212.1 207.2 197.5 187.3 179.3 172.1 165.4 160.9 156.3 151.5 148.4 145.6 142.8 140.2 137.4 134 130.1 125 120 122.4 124.5 127.1 130 137.2 147.1 154.9 158.8 160.9 163.8 172.1 177.7 181.6 191 199.1 203.2 203.4 201.2 198.5 195.3 192 188.2 185.4 182.7 179.7 172.4 159.5 144.5 138.4 135.4 137.6 135.1 128.1 125.4 122.3 121 118.7 113.6 109.4 105.8 101.3 93.1 87.7 87.7 88.4 93.5 99.2 108.9 117.4 124.2 131.9 135.2 138.6 140.2 139.3 139.6 140.2 137.7 135.4 133.2 128.8 125.2 117.8 116.6 116.7 118.1 118.4 120.1 121 122.3 124.8
203.6 205.9 208.2 212.9 214.3 220.7 228.7 233.5 242.9 258.8 267.9 270.8 271.1 269.4 266.7 265.1 264.2 265.6 265 257.4 234.2 241.6 244.7 245.8 240 238.6 235.4 231.2 227.5 223.6 220.7 217.9 214.8 212.4 208.3 205.8 203.9 200 198.2 198.7 199.3 197.2 194.5 190.6 188.3 186 182.1 177.9 173 167.3 162.4 162 159.9 155.6 147.9 138.7 129.9 122.4 113.4 98.3 88.1 86 85.3 83.7 83.6 83.5 81.3 80.4 89.7 101.7 111 117.2 122.1 124.6 121.3 123 121.6 120.6 119 120.8 125.4 135.6 143.7 150.7 156.1 158.3 165.9 175.8 185.8 183.4 179.9 179.3 179.1 180.9 185.8 191.9 204.2 216.7 226.4 229.8 232.1 233.4 237 237.8 232.7 226.9 222.3 217.8 216.3 214 209.5 202.2 192.5 183.3 174 166.7 162 157.5 153.5 150.3 147.6 145.1 142 139 135.1 129.9 123 120.4 126.4 128.6 130.3 133.4 140.8 151.4 161.8 168.8 171.9 174.3 177.9 183.3 186.8 193.8 202.4 209.3 207.2 205.1 202.3 199.3 196.1 193 189.4 186.5 184.3 179.7 168.7 155.3 146.4 144.8 145.5 146.4 141.9 133.3 126.9 123.6 121.4 119 116.3 111.7 107.3 102.1 94.4 87.7 87.9 88.7 93.2 99.3 109 118.3 124.5 132.1 136.5 140.3 142.2 145 145.9 146.3 144.2 139.7 135.3 132.9 129.5 125.3 127 127.1 126.9 126.1 126 126.1 126.9 127.4
208 209.1 212.1 214 217.2 224.9 232 237.7 250.6 267 268.9 270.1 269.5 267.8 265.6 264.1 263.3 266.8 266.4 254.1 243.4 248.8 246.2 243.1 240.2 237.7 235.4 231.5 228.4 224.7 220.9 217.6 214.2 212.7 209.8 206.8 204.3 200.7 198.4 196.7 196.9 194.4 189.9 185.7 181.7 178.3 174.9 169 164.1 164 161 159.4 158.2 154.1 149.1 141.6 135.8 135.1 124.5 105.6 92.9 88.3 87.1 85 84.6 84.1 84.3 84.7 82.9 92.8 106.3 112.4 115.9 116.7 115.5 121.1 117.2 116.1 117.3 122.3 130.4 141.6 147.6 157 158.7 160.5 168.3 177.3 187.3 185.7 182.9 180.9 180.6 182.5 187.7 195.7 210.9 223.9 225.7 225 226.4 227.7 226.2 225.6 222.5 220.4 218.2 215 213.7 211.3 206.4 197.6 185.7 177.4 169.6 163.4 159.2 154.9 151 147.5 145.4 143.7 140 136.1 132.1 124.7 126.4 128.5 129.3 134.2 136.5 142.2 152.3 163.6 174.4 183.6 190.4 189.5 188.5 190.4 197.4 206.4 212.5 211 208.3 205.9 202.8 199.8 196.8 193.7 190.6 186.7 183.4 180.6 165.2 156.4 152.5 155.8 157.8 153.8 147.6 137.3 129.1 125 121.8 119 115.9 112.3 107.2 101.6 95.3 92.5 89.8 88.4 93.1 100.1 106.4 116.3 122.2 126.5 135.2 138.9 143.5 146.9 146.9 146.9 145.7 143.8 139.1 135 132.9 131.4 131.1 132.2 132.5 131.8 131.4 129.9 129.6 130
211.2 212.3 214.5 215.9 221.3 227.6 234.2 245.1 263.4 267.5 268.2 269.4 268.1 266.4 264.2 261.7 258.5 258.8 264.1 255.4 247.7 248.2 245.9 243.7 241 237.1 234.9 232 228.6 225.6 222.6 218.7 215.7 212.8 209.8 206.5 204 201.7 198.7 195.8 191.5 188.2 186.6 183.3 178 172.5 165.2 160.9 155.8 155.9 156.6 155.6 152.6 148.1 148.4 138.9 132.4 128.4 119.9 106.1 95.3 90.8 88.3 87 84.5 84.1 84.3 82.7 83.6 90.4 99 105.4 108.5 108.5 108.5 112.1 121.9 117.6 118.7 124.3 134 142.1 146.1 153.3 157.7 159.3 165.7 172.7 184.2 186.5 183.8 182.1 181.9 184.9 190.3 199.4 214.2 224.1 223.4 222.7 222.3 222 220.9 219.8 219 217.3 215.1 212.1 209.4 206.2 197.3 189.2 179.5 171.4 165 159.8 156.5 152.9 148.8 144.1 139.1 137.4 135.3 128.8 124.9 126.5 131.2 132.7 132.2 137.8 143.7 151.8 161.6 173.2 183.6 196.1 195.3 193.5 193.8 199.3 208.7 216.4 214.2 212 209.5 206.4 203.3 200.3 197.3 194.2 190.8 187.1 182.8 177.1 168.9 164.6 161.8 166.4 165.1 159.6 152 141.1 131.7 126.8 122.6 118.8 115.6 112.7 109.7 104.4 97.1 93.6 89.8 90.1 94 99.4 105.2 113.4 119.7 124.9 131.2 137.4 142 146.8 147.3 147.5 146.7 145 141.9 136.7 135.4 134.3 134.2 135.6 135.9 135.2 133.7 132.3 132.3 132.2
212.9 214.2 216.5 219.2 225.2 231.7 238.5 253.7 265.3 268.1 268 267.9 266.4 264.7 263 260 259.1 257.6 256.1 249.9 248.6 247.7 245.8 243.1 239.6 236.3 233.3 231.3 228.6 225.6 222.3 218.8 215.8 212.4 209.4 206.1 203.5 200.7 196.7 192.2 188.6 184.9 181.5 179.2 177.3 175.1 171.5 164.2 152.4 145.4 147.9 146.6 142.8 136.6 132.3 126.9 121.7 116.4 110.1 102.8 95.2 89.8 90.9 91.1 85.4 84.3 84.3 82.4 83.2 83.5 89.2 96.8 98.7 99.7 105.6 112.1 119.6 120.2 119.6 124.1 131 137.2 142 145.4 151.9 156.2 161.5 167.4 176.8 185.1 184.8 183.5 183.7 187 194.5 204 220.7 221.5 220.9 220.2 219.7 219.2 218.6 217.5 215.8 214.2 211.9 208.1 202.6 197 187.1 177.6 170.8 165.3 161 156.7 152.7 149.6 147.3 139.7 139.5 138.9 136.5 131.8 132.8 130.5 135.3 136.6 138 142.9 150.6 159.1 168.1 179.3 189.1 197.5 196.9 196.8 201.1 210.7 218.4 218.1 215.6 213 210.1 206.9 203.9 200.8 197.7 194.4 190.7 187.2 183.3 178.9 176.8 174.2 171.5 171.4 169.3 164 154.6 144.1 134.4 127.6 121.8 118.4 115.3 112.3 110.3 105.4 97.6 93.9 91.3 91.4 94.1 101 105.6 111.6 117 123.1 129.1 134.8 140.8 147.4 147.5 147.5 147.6 147.2 145.3 142.7 140.2 138.1 138.3 138.3 138.1 137.5 136 134.7 135.5 136.7
215.1 215.9 217.7 222.7 229.6 235.5 244.7 261.4 266.2 268.3 267.6 266.1 263.9 262.5 260.4 256.9 257.5 255.7 250.6 249.3 247.8 246.8 244.8 241.7 238.2 235.2 232.3 229.6 228 224.5 221 218.3 214.8 211 206.9 204.2 201.6 199.3 197 196.3 192.6 189.2 186.1 183.9 181 178.2 174.9 169.8 159.4 149.8 141.6 137.3 131.6 126.9 119.6 112.2 107.1 100 96.5 102.3 102 103.9 104.4 99.5 91.7 85.7 84.8 83.6 83.6 83.6 83.9 88.2 92.2 96.8 102.4 108.9 114.1 121.7 118.9 121.9 131.6 137.8 142.6 145.7 148.2 150.2 154.7 161.2 166.5 175.5 181.8 184.6 185.8 189.4 197.8 212.7 218.1 218.6 218.3 217.6 216.9 216.5 216.4 215.6 213.9 212 209.6 204 194.8 187.5 176.9 170.8 165 160.2 157 153.7 150.1 151.1 148.8 146.4 143.7 141.2 137.8 136.3 136.1 133.1 138.2 140.6 142.8 148.6 156.7 164.3 172.6 182.1 189.6 199.2 199.8 202.5 212.6 220 220.5 219.2 216.5 213.5 210.5 207.4 204.4 201.1 197.8 194.6 190.6 187.5 184.9 182.7 180.6 177.1 175.3 174 170.7 165.9 157 144.9 135.5 128.1 122.6 119.1 115.8 112.9 110.5 107.2 101.1 96.2 92.1 90.4 94.3 102.1 107.4 113.2 117.7 122.3 129 134.9 139.9 145 147.1 147.5 148 148.4 147.3 146.5 145.2 142.7 140.5 140.4 140.1 139.6 138.6 138.3 140.3 141.9
218.4 217.5 219.2 227.1 232.9 241 254.9 265.2 266.1 266.7 266.9 264.2 262.2 260.5 257.8 255.1 253.3 251.2 249.8 248.5 247 245.5 243.1 240.3 237.4 234.7 231.9 229.7 226.9 223.6 220.3 217 213.1 210.3 208.6 207.2 203.8 201.5 199.2 197.4 194.7 190.9 189.2 185.9 182.4 180.1 177.2 172.7 167.6 158.6 147.9 135.7 126.3 118.6 106.8 102.3 98.3 100.9 105.1 108.9 114.3 118.5 117.3 110.8 97.7 92.2 84.7 84.5 84.5 83.7 84.1 84.4 85.9 91 95 101.2 106.5 112 116.2 119.7 131 138.5 142.1 145.6 147.3 149.2 151.3 156 165 176.5 183.7 184.7 187.8 191.6 199.1 210.8 215 216.6 216.1 214.9 214.1 213.8 213.7 213.6 211.9 209.5 203.7 197.1 188.6 178.9 171 164.9 160.5 156.5 153.7 152 152 151 149.8 146.8 143.1 139.5 139.7 139.7 138.7 136.4 140.2 143.4 147.6 153.9 160.9 168.2 175.3 182.7 192.8 199.5 204 212 220.6 223.7 222.5 219.6 216.6 213.7 210.7 207.8 204.5 201.3 198 194.6 191.6 188.6 185.5 184.1 182.2 179.2 177.5 173.9 170.8 167.3 158.1 145.5 135.1 128.1 123.7 120.4 117 114.4 111.5 108.7 104.3 98.5 92.2 89.9 92.3 101.5 109 118.1 123.7 126.5 132.1 136.9 141.3 145.4 147.1 147.7 148.4 149.6 148.8 147.9 147.1 145.2 143.4 141.7 141 140.8 141.4 141.7 144.4 146.6
221.9 221.9 224.3 230.9 236.6 246 261.9 266.7 267.1 266.9 265.6 262.8 260.8 259.1 256.8 253.8 251.3 250.3 249.1 247.6 246.1 244.1 242 240.1 237.5 234.6 231.6 229.3 226.1 222.9 220.1 217.3 214.5 211.9 210.2 208.6 206.1 203.7 201.1 198.4 195.9 192.6 189.7 186.7 183.7 180.3 176.7 173.2 168.5 163.8 153.3 137.3 122.5 111.7 108.7 107.8 109.3 113.6 119.1 124.4 129.1 131 129 121.8 108.8 94.7 92.8 85 87.5 84.4 84.5 84.1 84.9 85.8 87.8 92.2 97 101.4 122.9 120.7 132.9 140.3 142.5 145 147.1 149.3 152.2 159.5 167.9 180.7 185.5 185.3 188 194.1 205.2 214.1 216.1 215.8 215 213.7 212.6 212 211.9 211.6 210.8 206.8 198.8 184.8 178.6 171.4 165.3 160.6 156.2 154 154 153.1 151.2 149.3 147.7 146 144.2 142 143.5 142 140.4 139.7 143.2 147.1 150.8 158.5 164.3 170.7 178.8 187.7 196.4 203.8 212.5 220.5 225.2 225.5 222.9 219.7 216.7 213.7 210.8 207.7 204.4 201.2 197.7 194.5 191.3 188.8 186.4 184.7 182.9 180.8 178.4 174.2 170.3 167.9 159.3 147.6 137.9 130.7 125.2 121.6 118.3 115.4 112.5 109.6 104.7 100.4 95.7 90.8 89.9 97.3 107 117.1 133 135.3 138.3 142.5 147.6 148.8 148.9 149.5 150.4 150.2 149.8 149.3 148.6 147.1 145.9 144.1 143 143.3 143.8 145 149.3 150
224.6 225.6 229.8 234.7 241.9 253.4 264.7 267.2 266.7 265.9 263.9 261.3 259.4 257.7 255.8 252.5 249.8 247.7 246.5 245.8 244.5 242.9 241.2 238.4 236.5 233.8 231.9 229.7 227.4 224.4 221.2 218.6 216.2 213.6 211.7 209.2 206.2 203.6 201.8 198.2 195.2 191.1 187.4 184.4 180.9 177.2 174.9 171 167.2 161.9 150 133.3 117.3 107.3 111.5 119 123.5 129.7 134 137.9 140.1 140.7 138.5 132.4 122.2 107.9 98.4 94.1 91.7 90.2 87.2 85.9 85.6 85.6 86.3 87.4 90.8 97.5 112.7 123.1 138 143.5 143.6 144.8 148.8 152.5 157.1 158.8 167.4 176.9 183.5 185.6 190.5 202.8 216.6 217.9 215.9 213.6 212.7 212.5 211.8 211 210.4 209.2 204.9 195.5 185 177.1 171.1 165.6 160.3 158 155.8 153.8 153.5 152 150.7 150.4 149.1 147.1 145.5 146 145.4 143.9 142.3 144.4 147.5 152.6 159.7 166.4 168.4 174.4 185.5 193.4 203.3 211.9 221.4 227.3 228.8 225.9 223 219.9 216.7 213.8 210.8 207.6 204.2 200.4 197.5 194.6 192 189.5 187.2 185.2 183.4 181.4 179.1 175.4 171.8 169 161 151.5 139.3 133.4 127.8 121.7 117.6 115.3 112.8 109.4 107.4 104 99.3 93.5 90.6 93.5 105.9 113.8 124.1 143.8 151.5 152.2 152.3 152.7 152.8 152.7 153.2 153.2 153 152.2 150.6 149.2 148 146.5 146.2 146.5 146.8 148.2 149.6 153.5
227.4 230.8 234.9 239.4 246.9 258.5 265.6 266.6 265.8 264.9 262.3 260 258.3 256.5 254.6 251.5 248.9 246.5 244 243.1 242.5 241.2 239.1 237.7 236.2 234.1 232.3 229.9 227.6 224.5 221.4 218.5 216.1 213.7 211.4 208.1 206.8 204.4 200.9 196.7 190.8 184.8 180.4 175.5 171 167 164.3 161.1 157.3 150.9 137.7 124.8 111.6 116.1 126.3 134.4 140 142.2 145.1 146.6 147.7 147.8 145.4 140 132.3 121.8 109.5 104 97.5 95.2 92.8 89.5 87.1 85.4 86 86.7 88.2 95.8 108.5 126.4 134.7 143.8 146.6 148.8 155.1 159 161.7 165.4 169.5 176.4 182.8 188.2 195.5 208.5 219.7 217.8 214.7 213.2 211.6 211.3 210.4 209.3 207.2 200.9 194 186.4 169.6 167.5 162.6 159.8 159.4 157.7 156.1 155.3 154.6 154 154.9 153.9 151.9 149.8 149.4 149.6 148 146.3 144.6 148.4 152.9 160.4 167.5 174.5 178.4 183.7 191.9 201.8 209.7 222 229.9 231.3 228.8 225.8 223 220 216.9 213.8 210.7 206.5 203.9 201.2 198.2 195.3 192.7 190.2 188.1 185.9 184 181.8 179.5 176.3 173.3 169.5 160.9 152.5 139.9 133.8 128.7 121.7 116.9 114.8 113.3 110.8 108.8 106.4 101.6 94.1 91.4 93.8 98.6 106.9 120.6 134.4 153.2 153.3 153.5 153.9 154 154.8 155.2 154.8 155 154.7 153.2 151.6 150.3 148.9 148.4 148.6 148.7 148.7 151.2 155
231.7 233.4 237.4 245 253.5 262.3 265.7 266.3 265.2 263.4 261.2 259 256.7 254.7 252.3 250 247.8 245.4 242.9 240.5 239.7 239.3 238 236.6 235.2 233.7 232.2 229.8 227.3 224.3 221.1 218 215.6 213.2 210.9 208.6 206.3 204 197.4 189.4 181.7 172.8 166.4 164.3 157.3 147.7 149.5 148.9 140.3 136.3 124 112.2 120.8 132.6 143.1 145.9 147.4 149.6 151.4 152.2 151.2 150.3 148.9 145.3 140.3 133.2 124.9 117 110.7 106.2 102.9 97 89.9 86.8 85.7 86.6 88 97 112.7 126.9 135.1 143.6 148.3 153.4 160.4 163.5 165.4 169.1 176 182.4 188.9 194.2 201.9 212.5 219.7 217.6 215.2 214.2 214.5 212.5 209 206.4 204.2 192.5 190.1 187.1 180.8 173.6 170 166.9 162.4 160.9 160.4 160.3 159.8 159.5 158.7 157.3 155 152.9 154.3 154.3 151.6 149.5 145.5 152.7 159.6 167.3 174.7 181.7 187.7 193.3 199.5 208.5 220.5 230 233.9 231.4 228.6 225.8 222.9 220.2 217.1 213.9 210.4 207.4 204.5 201.7 198.7 196.1 193.4 190.7 188.4 186.1 184.1 181.9 179.7 178 171.8 169.6 161.6 151.9 142.2 134.7 128.2 121.7 115.8 114.2 112.6 111 108.8 104.2 99.3 95 93.7 94.5 96 99.1 112.3 126.7 139.1 153.9 154.1 154.5 154.3 155.4 155.5 154.8 154.1 153.6 154.1 152.9 152 151.2 151.2 150.3 149.4 150.7 153.7 156.4
235.5 237.3 244.6 252.1 259.1 263.9 264.8 264.9 263.8 261.8 259.3 256.5 254.3 252.6 250.2 248.1 246.1 244.1 241.7 239.1 237.2 236.3 235.7 235 233.6 232.4 231.5 229.4 226.9 224.2 221.2 217.9 214.9 212.4 209.5 206.8 204.2 196 186.9 178.1 171 160.7 154.3 140.9 141.7 140.7 132.9 134.7 134.7 132.8 126.1 127.7 137.7 149.5 152.1 153.2 154.1 153.6 155 153.5 152.3 151.2 149.9 147.5 144.1 139.2 132.7 123.3 120.9 119 114.9 102.4 90.9 85.9 85.8 87 93.2 102.9 118.2 131.8 144.9 147.3 149.7 156.5 162.1 166.1 168.9 174.7 181.7 190.9 198.2 204.6 210.5 218.7 219.7 218.1 216.1 214.7 215.3 214.2 210.6 208.2 205.2 200.9 197.6 193.4 188.5 182 178.2 171.3 167.9 165.7 165.3 166.9 166.6 165.6 163.2 160.7 157.7 158.8 161.1 156.9 154.5 150.8 151.3 158.6 166.2 173.9 181.6 189 194.1 200.2 208.3 219.3 231.9 236.1 233.8 231.2 228.4 225.6 222.8 220 217.2 214.1 210.9 207.7 204.5 201.6 198.3 195.5 192.7 190.4 187.6 184.8 183.2 181.4 178.9 172.6 167 161.9 157.2 148.8 140.2 133.8 127.8 121 114.5 112.3 111.3 108 103.9 100.2 97.9 100.6 97.6 95 95 95.5 106.3 119 131.4 144.1 153.8 154.7 154.5 155.7 155.5 155 154.7 153.6 153.1 153.4 152.5 152.7 153 152.6 151.7 152.6 156 158.7
238.2 242.5 249.9 256.5 262.8 264.1 263.7 262.3 261.1 259.1 256.9 254.1 251.7 250.4 248.2 246.2 244.2 242.2 239.8 237.8 235.7 232.4 232.7 232.4 232 231.1 230.2 228.9 226.4 223.2 221.1 218.1 214.6 211.4 206.7 200.7 192.6 181.3 171.8 160 163.3 162.9 161.5 160 156.3 151.7 141.6 135.3 134.6 131.9 137.7 144.8 154.9 158.4 159.6 159 158.5 157.4 155.7 154.6 153.3 151.9 150.1 148.2 144.4 140.3 135.9 132.2 128 127.6 117.9 103.2 89.6 87.5 86.1 90 97.3 110.3 121.1 129.3 145.6 149 152.2 160 165 168.4 172.6 179 188.6 194.6 203.5 214.5 220.9 221.9 221.3 219.7 218 217 217.9 215 213.2 211.4 208.4 204.8 201.9 198 193.4 187.6 178.3 178.3 173.8 172.8 174.4 176.4 173.9 170.4 167.9 164.9 164.7 168.2 165.7 160.1 155.6 153.4 160.3 167.4 173 181.1 188.7 196.3 200.4 208.2 216.9 230 237.1 235.6 233.5 230.9 228.2 225.4 222.5 219.6 216.7 213.3 210 207 203.9 200.5 197.6 194.8 192.5 190.4 186.7 183.6 180.6 175.4 170.1 163.7 157.6 151.8 146.7 142.3 135.3 128.4 123.7 118.1 113.3 109.4 106.1 102.2 101.6 105.2 106.9 109.1 104.1 95.6 96.3 95.2 98.9 107.8 120.6 133.5 149.4 153.2 154.1 155.1 155.8 155.5 155.2 154.1 153.3 152.5 152.9 153.7 153.8 153.7 153.5 153.8 156.8 160.8
240.8 246.6 253.2 259.3 263.2 264.3 263.4 261.7 259.4 256.6 254.5 251.5 249.1 247.8 245.9 243.4 241.1 239.1 237.9 236 233.5 230.5 228.2 228.4 229.8 229.2 228.5 227.4 225.5 222.8 219.9 216.1 212.7 208 199.9 190.9 179.7 170.5 175.8 178.2 178.8 178.2 175.9 173 168.2 161.9 153.3 145.4 143.5 148.8 154 162.2 165.9 165.7 163.9 162.1 160.5 158.9 156.4 154.3 153.8 152.2 150.1 148.4 146.5 143.6 140.6 137.3 134.2 131.8 116.3 98.6 86.4 85.8 87.6 92.6 103.5 116.3 126.2 129.5 145 150.9 155.8 161.3 166.7 169.5 176.2 186.2 194 197.4 207 220 226.4 222.8 222.6 221.7 220.5 220.9 222.7 219.8 216.6 214.3 210.7 207.1 203.6 199.8 196.9 189.8 187.6 185.5 182 181.6 182.8 183.1 179.9 176 172.1 170.3 174.3 175 171.5 162.9 165.3 169.8 171.2 173 177.9 187.2 195.4 200.8 205.8 214.8 227.1 238.7 237.1 235.3 233.1 230.6 228.1 225.1 222.1 218.4 214.8 211.4 208.1 205.3 202.1 199.6 196.7 193.7 191.7 188.9 184.3 179.4 171.8 166 160.3 154.5 148.2 143.4 140.5 136.1 129 124 119.3 113.5 109.1 105.7 105.6 107.6 108.8 110.2 110.3 112.1 107.7 99.5 95.2 95.5 95.8 102.6 120.5 124.6 137.4 147.8 153.7 154.5 155.5 155.8 154.8 155.2 154.5 153.9 153.4 153.9 154 153.7 154.2 155.6 157.3 161.3
242.5 248.4 253.5 259 262.9 264.1 262.6 260.5 257.9 254.7 252.1 248.8 246.5 245.1 243.1 240.5 238.2 236.1 235.4 234 231 228.8 227 224.9 226.4 226.4 225.8 224.6 222.7 217.9 214.5 212.1 206.4 198 190.6 173.2 182.8 186.8 189.2 189.8 191.6 189 187 184.7 178.8 174.2 163.9 154.6 155.7 160.8 165.7 167.3 168.7 167 165.2 163.2 161.6 159.7 157.3 154.7 153.6 152.1 151.7 149.7 148.2 146.4 143.9 140.9 136.4 127.7 110.5 89.7 87 87.2 88.3 97.8 110.7 120.6 131.7 139.7 148.4 154.8 161.8 165.5 168.2 170.2 177.4 190.2 195.9 197.5 205.6 213.6 222.3 222.6 221.9 221.2 220 227.9 227 224.7 221.8 218.1 213.7 209.2 205.1 201.7 198.1 194.2 193.1 191.7 189.6 189.2 190.5 189.5 186.6 179.6 176.4 178.7 179.4 179.3 175.5 170.6 172.5 175.5 173.3 176.2 180.4 189.6 198.5 203.8 211.1 221.4 234.1 239 237.2 235.3 232.7 230.2 227.5 223.7 220.2 216.5 212.9 208.7 205 201.9 198.2 195.3 192.9 190.7 188.3 183.8 178.6 170 160.4 156.4 150.5 145.6 141.9 138.7 134.7 126.5 119.2 115.8 114.2 108.5 108.2 109.9 112.9 113.5 113.2 111.9 112.3 112.6 110.2 102.3 96.1 95 95.1 97.2 107.1 117 125.7 135.3 144.2 149.7 153.8 154.3 154 154.5 154.7 154.2 153.4 153.4 153.5 154.8 156.4 157.4 158.2 160.9
242.9 247.9 252.3 258.1 262.3 263.4 261.4 259.4 257 253.8 250.6 247.2 244.2 242.1 240.9 238.8 236.2 234.6 232.8 230.3 229.6 227.6 226.1 224 218.8 221 221.5 219.3 216.9 212.5 206.8 202.3 193.6 185.8 189.1 192.9 197 199.4 197.6 197.7 195.3 193.3 190.6 188 183.1 174.9 165.5 159.4 160.2 166.7 169.6 171.1 169.6 168.4 166.2 164.4 162.4 160 157.6 155.4 154.4 153.3 152.7 151.1 149.4 147.7 145.9 142.9 135.7 122.8 103.6 87.9 86.8 87.4 93.4 104 115.1 123.4 134.6 145.4 151.5 157.2 167.5 168.3 168.7 169.9 174.4 183.2 189.7 194.2 199.3 207.1 212.9 221.2 221.8 220.5 220.8 227.8 228.2 225.5 223.3 221.9 217.5 211.7 207.2 203.4 200.4 198 196.9 195.8 193.9 192.9 193.2 191.8 189.6 185.4 183.6 182.8 180.5 180.6 177.2 171.8 172.8 179.1 182.1 183.8 188 195 201.6 208.9 216.3 227.9 237.8 238.8 237.1 234.9 232.3 229.7 226.6 222.2 218.7 213.9 208.6 204.1 198.8 194 188.9 184.6 181.7 180 176.4 171.4 165.8 158 150.8 147.4 144.6 140.9 137.2 133.9 127.5 118.5 114.5 113.3 114.3 114.6 114.8 115.1 115.9 116.2 115.9 115.2 113.7 113.2 111.2 105.2 98.4 97 95.4 98.1 103.3 110.2 117.3 120.7 131.8 138.1 144.1 151.4 153.5 153.9 154.4 154 153.4 153.5 153.6 154.6 157.3 158.2 158.7 159.4
241.2 245.2 250.6 256.3 257.9 262.6 260.9 259 256.7 254.1 250.9 247.9 245 242.1 238.4 236.4 233.9 232.2 230.2 228.5 227.2 223.2 223.9 222.2 218.9 210.2 214.1 211.6 209.8 205.5 199.8 194.2 198.1 199.2 199.9 203.7 202.9 201.5 199.4 199.4 196.7 193.9 191 188.1 181.2 174.5 167.5 162.5 165.6 169.9 173.6 174.3 172.2 169.9 166.7 164.9 162.5 160.1 157.8 156.6 155.7 154.6 153.6 151.9 150.1 148.4 146.6 143.6 134.9 119.5 96.4 87 86.5 88.9 97.6 108.1 117.4 124.3 132.7 143.4 149.7 154.5 165 169.2 168.3 166.8 167.7 172.8 179.7 185.7 192.1 199.5 206.6 213.1 218.1 216.2 218.1 224.6 227.1 226.7 223.7 221.5 218.6 214.7 210.4 207.1 204.8 202.4 199.5 198.6 196.7 195.4 194.7 192.7 191.3 189.5 187.7 186.1 182.7 181.1 179.6 176 176.7 180.2 188.1 193.2 197.1 202 208.2 214.4 222.1 233.1 240.1 238.5 236.9 234.1 231.4 229 226 221.9 218.1 213.4 207.5 200.8 192.1 186.9 180.6 175.1 173 169.4 165 160.1 155.1 150.3 147 143.9 139.7 138.5 135.4 129 121.3 116.3 117.8 120.9 122.1 122 121.3 120.7 119.8 118.5 117.9 117.1 115.9 113.7 110.9 107.7 99 96.2 96.1 96.6 100.8 102.8 109.1 113.7 118.7 124.9 132.8 140.3 146.4 148.8 150.3 153.5 153.5 153.3 153.2 154.9 156.8 158.2 158.8 159.4
240.2 243.9 249.8 254.7 255.9 259 260.6 258.4 256.2 254.1 251.2 248.2 245.2 242.1 239.6 236.5 233.4 231.8 229.8 227.3 224.8 221.3 218.4 215.3 214.2 209.4 206.6 203.3 198.3 199.3 201.8 205.7 208.4 209.9 208.4 207.7 204.9 203 201.4 199.6 196 193.3 190.5 185.3 180.3 173.9 165 163.8 166.8 171.4 175 174.9 173.8 170.7 167.7 164.2 162.5 160.4 158.6 157.8 156.9 155.9 154.3 152.6 150.8 149.1 147.3 144.2 134.6 117.5 91.6 87.3 87.1 88.3 98.3 108.5 117 123.5 127.9 136.8 144.1 149 154.9 162.6 165.5 162.9 163.2 163.9 168.1 175.3 184.5 192.1 198.8 203.3 204.8 209.6 214 219 224.2 226.1 223.2 220.9 218.6 216.2 213.8 211.5 209 206.9 203.8 201.1 199.7 199.2 198.2 196.9 195.1 192.8 190.8 189.6 187.5 185.2 182.5 180.9 179.7 182 191.1 199.1 204.2 209.1 214.8 219.4 228.2 238.4 240.2 238.6 237 234.3 230.8 227.3 224.3 220.6 216.7 210.5 203.7 197.2 187.8 183 178.5 175.5 170.5 165.3 160.3 154.6 151.2 147.5 144 139.7 136.7 135.9 131.1 127.4 124.1 124.4 126.6 129.2 132 132.4 130.6 126.8 124.7 122.6 121.1 120.9 120.5 116.5 111 106.5 101.3 96.9 96.8 98.6 100.4 101 102.6 106.7 111.7 115.6 120.7 128.4 135.1 140.4 144.5 151.1 149.9 151 152.8 154.2 155.8 156.4 157.9 158.6
246.1 248.1 249.9 252.5 256.2 253.6 260.6 258.5 256.4 254.2 251.2 248 245 242.3 239.7 236.9 234.6 233.2 230.5 228.3 226.4 224 221.5 219.4 217.7 215 211.7 208.4 206.8 207.6 209.6 212.5 214.2 213.4 211.7 210.5 207.3 204.1 201.7 199.1 194.9 190.7 187.7 183.4 176.5 168.8 162.6 162.9 167.2 171.6 175.1 176.1 173.6 171.4 168.3 164.9 163.3 160.8 160 159 157.7 156.3 155.1 153.4 151.6 149.8 147.9 144.7 135.2 117.5 92 87.6 87.6 88.1 95.3 104.8 113.6 119.2 123.6 128.7 134.9 139.8 130.5 151.1 154.8 154.1 152.5 156.3 158.1 165.5 174.7 183 189.6 194.1 195.6 201.7 207.6 212.8 217.1 221.4 222.2 219.9 217.7 216.4 214.6 212.9 211.8 210.5 207.8 206.2 204.7 204.3 203 201.7 200.4 199.1 197.6 195.5 192 188.4 185.5 185.6 187.8 189.3 193.1 203.2 213.4 217.9 219.9 225.1 234.6 241 241 238.9 237 234.5 231 227.5 224.5 219.4 214.6 209.2 201.9 197.7 194.6 190.7 185.3 179.2 172.3 165.6 158.8 152.3 148.3 144.7 140.8 138.1 136.4 132.4 129.4 128.6 130.2 134.5 140.1 145.2 146.4 143.4 140.4 136.2 133.8 131.2 129.8 128.9 127.4 122.4 115.8 106.7 102.9 97.7 97.2 99.6 100 100.7 100.7 101.6 106 109.7 113 117.7 121.9 127.3 133.3 142.4 147.8 147.3 150.5 153.6 154.9 154.5 156 156.8
252.4 252.4 252.4 254.6 256 259.4 261.1 258.6 256.5 254.5 251.1 247.9 244.5 242.9 240.5 237.9 235.7 234.2 232.1 229.1 227.5 226.2 223.8 222.1 220.7 219.2 212.7 211.2 214.5 214.7 216.1 216.8 215.8 214.3 213.5 211.2 208.6 204.2 201.1 197.4 192.5 188.7 183.9 178.4 170.3 162.8 159.8 160 166.7 169.9 173.2 174.7 172.7 170.7 168.8 166 163.2 161.4 160.6 159.6 157.9 156.4 155.9 154 152.2 150.3 148.2 145.6 136.7 121 93.5 87.9 87.8 88.5 88.9 97.7 105.8 112.1 117 121.7 126.1 129.6 136 136.6 142.8 140.9 140.3 143.1 148.3 155.9 162.2 171.2 178.3 188.9 192.9 197.7 205.6 208.6 209.8 213.7 219.2 218.9 216.6 215 212.7 211.5 210.7 209.6 208.3 207.4 207.3 207 206.7 205.3 203.7 202.2 203.7 203 199.7 195.2 191 192.3 197.8 200 202.6 208.8 218.8 223.1 226.3 232.4 239.2 242.3 241.5 239.5 237.1 234.7 231.2 228.4 225.5 220.8 216.7 212.6 207.9 204.6 200.5 195.8 189.5 181.1 172.6 164.7 157.3 152.3 148 144.5 141 137.7 135.7 133.3 134.5 140.6 144.4 149.5 154.2 159.3 155.7 152.8 149.5 146.3 143.2 140.2 139.3 136.3 131.8 125.5 117.1 106.4 102.4 98.5 98 99.6 101.9 103.3 105.4 105.9 106.2 105.4 107.9 110.6 113 115.9 121.4 125.8 133.3 141.5 147 149.8 150.2 151.3 153.9 156.1
252.4 252.4 252.4 253.4 256.8 263.1 262.4 259 257 254.8 252 248.1 245.6 243.4 241.1 238.8 236.9 234.1 231.7 229.9 227.9 226 224.1 222.4 221 217.8 211.3 215.6 218.4 218.5 218.5 217.6 216.5 215.3 213.7 211.6 206.8 202.1 199.6 195.6 190.4 185.8 179.9 172.3 160.4 145.2 152.9 159.6 165.1 168.1 171.6 171.9 171.6 169.6 167.5 165.9 163.5 161.1 160.5 160.9 159.3 157.6 156.5 154.6 152.7 150.6 148.3 146 139.5 127.6 111.9 96.3 90.7 89.3 89.1 89.8 96.5 100.8 106.6 112 116 119.8 122.9 127.7 133 131 131.9 133.5 137.8 147.7 156.1 168.8 181 188.2 190.4 193.8 202.9 202.2 203.9 206.7 213.2 218.1 215.6 213.6 211.7 210.1 209.1 208.3 207.4 206 208.1 208.9 208.7 207.2 205 205.4 206.9 207.5 204.5 203.3 201.7 201.9 205.8 208.5 212.5 217.3 222.5 226.7 231.4 237.3 241.9 243 242 239.9 237.5 234.9 232.1 229.4 226.5 223.1 219.4 216.2 212.7 208 203.1 198.1 189.1 179.5 170 163 156 152.1 147.2 144.6 141 139.2 137.6 139.3 146 151.9 157.2 160.2 161.2 162.3 159.7 158.3 155.2 152.6 149.7 146.8 143.9 140.8 132.1 122.7 114.7 105.8 102.7 99.1 98.5 100.8 103.7 108.5 111.9 114.5 115.6 115.5 113.4 112.8 112.3 111.3 114.7 115.5 121 128.1 138.5 143.2 144.7 148.6 154.6 155.5
252.4 252.4 252.4 252.7 254.9 263.9 262.7 260 257.5 254.3 252.3 249.7 246.4 243.2 240.8 238.6 235.8 233.3 230.9 228.7 227 225.2 222.8 221.7 220.2 218.2 212.3 218.6 219.5 219.6 219.5 218.3 217 215.7 214.1 211.6 206.2 201.7 197.9 192.8 188.1 181.5 175.1 161.5 150.8 143.1 147.4 155.8 165 167.7 170.1 171.2 170.4 168.4 166 164.2 162.5 161 160.3 160.7 160.3 158.8 156.8 154.7 152.6 150.3 148.1 145.8 140.6 132.1 124.1 114 102.3 90.5 89.3 89.6 90.5 94.1 96.9 100.3 103.1 106.4 110.2 115.2 124.6 122.2 119.8 127 135.6 146.8 158.1 169.7 185.9 186.8 186.6 188.3 191 192.4 194.5 199.8 204.8 210.9 211.9 210.8 209 207.3 205.7 203.1 203.2 205.9 208.7 208.2 208.2 207.6 207.6 208 208.5 209.2 204.7 207.2 207.5 208.2 211 219.1 224.4 225.4 226.7 230.2 234.9 240.4 244 243.6 242.5 239.8 238.2 235.1 232.2 229.2 226.7 224.2 221.1 217.9 214.1 209.3 202.8 195 182.5 174 167.2 160.6 155.8 151.9 146.3 142.1 141.7 140.6 143.3 151.9 158.5 162.9 165.9 167.7 166.9 165.4 162.6 160.5 157.1 153.4 148.4 146.1 142.7 134 126.3 117.8 110.8 105.1 102.3 99.1 99 102.5 106.5 113 121.5 123.9 126.5 128.3 126.2 126 124.5 122.3 121.3 119.2 115.2 121.6 126.4 133.4 140.8 149.5 154.6 155.4
252.4 252.4 252.4 252.5 255.1 261.8 263.5 260.6 257.3 254.3 253 250 246.7 243.5 240.4 237.4 234.9 232.5 230.1 227.8 225.8 223.8 221.7 220.9 220.1 216.5 217.8 219.6 220.8 220.7 219.9 218.7 217.4 216.1 214.6 211 203.2 199.3 195.9 188.6 182.4 171.6 161.6 150 143.1 141.1 143.4 155.2 166.6 169.9 170.3 170.6 169.1 167.3 165.6 163.5 161.5 160.9 159.8 159.3 159.1 158.7 156.6 154.5 152.3 150 147.8 145.5 142.9 134.1 130.5 124.7 116.2 106.1 94 89.5 89.8 89.2 90.5 91.9 89.3 93.3 94.6 98.1 108.8 121.8 122.6 131.8 140.8 149.7 158.8 170.2 182.6 186.2 184.5 184.8 185.3 185.3 184.3 189.1 194.9 198.6 201.4 201.4 200.1 198.8 196.9 194.7 195.8 201.5 205.7 206.3 206.1 207.6 208.8 209.7 209.2 208.3 209.5 210.8 212.8 214.6 219.5 225.6 228 229.5 231 234.3 238.9 243.4 244.2 243.8 242.4 239.7 237.3 234.6 232 229.4 226.9 224.1 221.3 218.1 213.5 207.6 201 192.2 183.3 174.7 167.3 161.1 156.1 151.7 145.9 145.5 144.7 147.9 156.4 163.6 167.9 170.2 170.7 169.2 167.9 166 163.5 160.1 155.8 148.9 140.1 132.5 129.4 122.9 119 113.7 108 106 104 100.6 100 101.3 109.1 119.9 129.9 133.8 137.9 138.1 137.6 135.7 132.5 129.3 126.9 126.5 122.4 118 121.9 128 135.9 144.1 150.4 152.7
252.4 252.4 252.4 252.4 254.8 261.2 263.7 260.5 257.2 255.1 252.9 249.7 246.3 243.3 240.2 236.9 234.4 231.9 229.4 227 224.7 222.7 221.6 220.4 219.5 218.4 219.9 220.6 221.4 220.6 219.2 217.8 216.5 214.9 212 207.9 200.4 195.5 186.8 178.7 170.5 159.9 148.7 142.4 136.4 133.7 142 155.7 169.9 173 172.5 171.1 169.6 167.9 165.2 163.4 162.3 161.2 159.5 157.9 157.4 156.4 155.7 154.2 151.9 149.5 147.2 145 142.6 137.8 135.6 132.1 125.9 118.5 108.9 98.8 91.4 91.6 91.9 92 92.7 93 93.8 94.2 98.3 113.9 133.3 138.1 145.4 153.3 159.4 167.6 177.7 184.1 183.7 182.7 180.3 179.6 178.9 176.6 182.6 186 187.7 186.3 187.3 186.1 184.1 184.4 186.3 193.6 199.5 203.2 205.5 207.2 207.7 208.3 209 211.2 214.8 218.4 220.7 222.4 226.3 228.8 231.2 232.8 235.1 238.2 243 245.6 246 244.7 242 240 237 235.3 233.5 230.4 227 224.3 221.6 218.4 214.8 209.4 201.9 194.7 183.6 174.6 168.3 162.5 156.2 151.2 148.8 149.3 151.8 161.1 168.2 172.6 174.3 174.2 170.8 169.8 169.2 167.8 162.9 156.8 150.6 140.6 130.5 124.4 120.3 117.9 113.8 110.2 109.3 107.9 104.7 102.5 101 101 109.8 121.9 135.9 140.9 147.5 146.9 145.3 143.8 140.4 136.5 131.6 128.4 126.2 121.9 121 125.9 129.8 135.1 144.6 147.6
252.4 252.4 252.4 252.4 253.4 260.9 263.9 261 257.7 254.3 251.6 248.5 245.4 242.5 239.8 236.7 234.1 231.6 229.1 226.6 224.6 223.1 222 220.9 219.5 219.7 220.2 221 221.7 221.1 219.8 217.9 214 209.9 205.6 198.8 191.6 183.6 174.2 165.7 156.6 148.9 139.9 133 128.4 127.5 140.8 157.3 170 174 174.3 172.3 171.2 169.6 168.2 165.3 164.3 163.3 159.3 157.7 156.1 155.1 154 152.2 151 148.7 146.5 144.4 142.3 139.8 138.1 135.6 130.7 125.3 118.2 108.3 101.1 98.8 95.4 94.5 94.2 94.1 94.6 92.5 95.1 112.7 126.7 134.1 146.7 154.9 159.8 165.5 172.1 180.7 180.9 179.5 177.7 176.4 175.5 172.1 166.3 172.3 173.2 170.1 170.8 169.6 170.3 171.7 175.2 185.1 191.8 195.8 203.8 205.8 206.3 206.8 211 219.7 222.8 224.6 226.3 227.2 228.8 231.6 234.6 237.2 240.7 244.1 247.9 248 247.7 246.1 242.8 240.8 238.1 235.9 233.8 230.5 227.1 224.5 221.8 218.6 214.8 210.6 203.3 192.8 180.6 172.9 166.2 161.1 155.1 151.5 153.6 156.6 165.9 174 176.3 178.9 178.4 174.1 171.3 170.5 169.8 165.7 158.2 149.4 140.9 133.9 132.9 127.8 124 119.2 115.5 112.5 111.5 111.2 107.3 105 103.9 102.2 107.8 121.1 136.9 146 151.7 152 152 151.7 147.8 141.1 135 130.2 128.2 124.4 124.1 127 132.9 137.1 143 145.9
252.4 252.4 252.4 252.4 252.4 259.5 263.2 261.4 258.1 254.2 251 248.6 245.4 241.8 239 236.5 233.8 231.3 228.8 227 225.5 223.7 222.4 221.3 219.8 219.5 219.7 220.5 221 221.4 220.5 218.5 212.4 205.8 197 188.4 179 169.7 161.3 151.3 142.6 137.7 131.3 126.8 123.4 124.6 135.5 145.8 157.8 166.4 175.6 173.6 172.6 171.3 170 168.7 166.9 164.4 160.6 158.1 155.1 153.9 152.9 150.3 149.4 148 145.9 143.7 141.6 139.1 136.2 133.3 129.5 126.7 122.8 114.9 109.3 103.8 101.6 99.1 97.8 95.5 94.2 93.9 97.1 110.9 126.6 135.7 140 153.7 158.2 161.3 166 170.1 173.3 176.9 176.5 174.5 172 169.7 165.3 157.1 161.1 161.8 161.6 164.2 165.5 166.4 168.1 173.7 182.8 187.3 195.4 204.4 207.1 209.6 218.3 223.3 226.4 228.8 230.9 232.5 233.8 235.6 240.1 244.5 246.7 248.8 251 249.3 248 246.1 243.6 241.1 238.2 235.9 233.4 230.6 227.2 224.6 222 218.5 213.8 207.7 197.9 185.9 175.1 169 163.6 159.3 157.1 157.4 160.6 170.3 180.8 183.6 182.6 183 180.4 176.9 173.4 170.9 164.8 158.7 149.4 147.1 145 144.5 144.4 136.6 130.3 123.4 118.6 116.6 116.7 117.1 111.4 107.8 104.6 102.5 108.3 120.3 135.2 146 152.8 154 153.5 152.5 149.9 143.4 137.2 134.2 129.7 125.4 123.6 129.7 137.4 142 147.3 150
252.4 252.4 252.4 252.4 252.4 257.1 263.8 261.4 258 254.4 250.9 248.1 245.2 242.6 240 237 233.9 231.9 229.5 227.9 226.3 224.5 222.9 221.8 220 218.7 219 219.8 220.3 221.3 220.1 213 204.8 196.7 186.4 174.4 165.2 155.7 146.5 139.9 133.9 128.7 123.9 121.3 119.3 118.8 125.6 133.8 142.3 151.5 161.5 171.9 175 174.3 171.9 170.7 169.4 166.4 163.6 159.6 156.5 154.6 152.8 149.1 147.4 145.9 145.2 142.7 140.4 138.6 133.7 131 128 125.7 122.7 116.2 110.1 104.6 101.7 99 95.8 94.3 92.8 94.1 104.4 115.1 129.5 139.2 149 147.7 156.6 157.6 158.7 160.8 164.6 168.8 171.1 169 166.2 161.3 152 151 151.8 154.9 157.8 160.7 161.8 161.8 164.6 170.9 173.1 180.7 189.9 199.9 203.6 206.8 217.1 222.6 228.3 231.1 233.5 235.6 237.7 242.7 247.9 250.8 252.3 253.1 252.2 250.1 247.6 246 243.9 241.1 238.6 236.1 233.2 230.3 227.3 224.2 220.6 217.2 208.6 197 187.6 179.5 172.3 167.3 162.9 162.1 162.6 165.1 173.2 183.7 189.3 187.7 186.2 184.4 181.1 178.6 174.9 171.9 170.2 162.3 157.5 154.3 152.5 153.9 152.2 142.7 136.1 125.9 120.1 123.9 126 122.8 115.6 109.8 105.7 103 110.1 122 134.8 145.8 151.9 153.7 153.3 152.1 149 145.7 142.5 142.2 136.4 130.2 125.9 131.7 141.6 145.3 146.7 149.5
252.4 252.4 252.4 252.4 252.4 255.9 261.8 261 258 254.6 251 248.6 246 242.4 240 237.6 235.7 233.5 231.2 228.8 227.2 225.4 223.6 222.1 220.3 218.2 215.2 218.6 218.8 217.6 210.9 202.8 195.3 185.4 175.3 164.8 152.8 144.2 138.1 131.9 126.6 122.3 119.2 117.6 116.9 116.6 116.6 119.6 122.7 132.4 145.5 158.4 169.6 177.9 174.7 173.1 171.4 168.7 165.8 162.2 158 155.2 152.2 149.2 147.2 145.4 144 141.1 140 137.8 134.3 130.2 128.7 124.4 118.4 110.4 103.9 98.4 97.4 96.7 94 93.1 94.6 101.6 109.8 121.2 132.7 139.7 142.2 145.5 151 153.2 153 154 155.4 157.3 160.9 160.3 158.1 153 147.9 145.2 145.1 149.5 154.7 157.4 158.3 160.2 164.7 166.7 172.2 176.2 186.6 196.8 202.4 205.7 212.9 222.3 227.3 232.5 234.7 237.7 243.9 249.5 253.4 254.8 254.7 253.2 251.9 250 247.4 245.8 243.7 240.8 238.3 235.5 231.7 226.4 222 218.1 213 206.2 195.4 186.8 180.3 174.4 170 167 166.3 167.8 172 179 187.1 192.7 192 190.1 187.8 185.9 182.4 180.2 176.7 174 172.2 169.6 163.9 159.2 156.8 157.1 154 146.6 136.4 126.7 124.8 133.2 137.6 128.1 119.3 113.4 108.7 104.3 109.9 124.1 135.3 149.6 152.2 152.8 151.9 150.8 148.1 145.5 145.8 145.7 142.7 136 126.4 128.1 134.2 138.5 144.2 148.7
252.4 252.4 252.4 252.4 250 253.5 257.9 260 257.7 254.4 250.7 248.4 245.5 242.6 240.6 238.6 236.3 233.8 231.2 229.9 228 226.1 224 222.1 220.6 216.3 207.1 205.3 202.4 199.1 194.9 188.8 181.7 172.8 162.7 153.6 143.4 138 132.4 126.3 122.2 119.5 116.7 115.9 115.5 115.2 114.3 113.7 112.6 117.6 127.4 142.6 156.5 169.7 176.9 175.3 172.5 169.4 166.4 163.7 161.1 157.5 152.8 150.5 149.9 146.6 144.9 142.3 139.7 137.6 134.5 129.1 123.2 117.4 109.8 102.3 99.3 98.7 97 95.4 93.3 93.2 98.6 106.8 114.9 127.4 134.5 138.1 141.7 144.4 136.6 148.4 148.1 148.8 148.1 148.1 151.3 151.5 150.2 146.3 142.5 138.6 143.1 148.5 153.9 154.3 159.5 164.9 170 174.8 177.3 177.2 183.1 194.9 201.7 205.2 211 219.8 225.7 232.4 236 241.7 248.5 253.7 257 256.7 254.8 253 251.7 249.6 247.4 245.6 243 240.2 236.8 230.7 224.5 218.3 209.7 202 197.8 192.1 186.2 180.8 175.3 173.1 172.5 172.6 175.1 180.9 186.8 193.7 196.7 196 194.3 192.5 190.2 187.8 184.4 182.1 179.5 174.6 171.5 171.3 168.1 163.4 159.4 156.7 151.4 143.1 134.4 129.9 129.3 140.6 141.3 133.8 122.8 115.3 109.4 104.9 104.6 124 136 147.9 152.7 151.6 150.3 148.8 147.4 145.6 145.3 144.9 145.1 141.2 131.2 137.1 139.4 134.4 141.2 147.6
252.4 252.4 252 247.2 245.4 248.9 254.3 258.6 256.7 254.1 250.2 247.3 244.1 243 241 238.8 236.2 233.6 231 229.1 227.7 225.6 223.6 221.7 219.6 211.3 198.5 189.9 184.9 181.9 178.5 173 166.6 158.8 150.3 144.8 138.4 132.8 129.6 123.6 120.6 117.8 115.5 115.1 114.6 113.6 112.2 112 111 110.5 114 126 140.8 154.1 165.1 173.6 172.7 169.8 166.9 164.4 162.1 159.9 155.9 153.4 150.8 148.1 145.8 142.6 139.2 134.1 130.4 123.6 115.7 108.2 100.8 101 100.5 102.5 100.4 96.1 94.6 96.3 104.8 112.1 118.8 128.7 133.5 134.7 136.6 138.2 138.8 136.8 142.9 143.3 142.7 142.5 142.8 144.5 144.7 143 138 142.9 146.7 151.5 157.3 159.5 165.3 171.7 179.5 186.7 189.2 190.3 184.5 194.3 200.3 204.5 210.1 219.2 225.3 231.6 237.5 244.7 252.1 257.6 257.6 257.1 255.1 253.1 251.5 249.4 247.2 244.9 241.1 237 232.1 224 217.9 212.3 206.2 201.4 195.3 188.5 185.1 182.5 179.7 178.1 180.9 185.6 190.7 195.7 199.9 200.7 199.9 198.3 196.6 194.9 192.2 189.1 186.3 184.1 182.4 178.9 172.5 173.7 168.4 167.1 161.9 155.1 147.9 143.7 138.7 135.3 136.6 141.6 142.3 138.1 127.1 118.4 111.4 106 105.2 123.6 132.4 145.2 151.7 151.4 149.8 148.1 146.2 145.2 144.7 144.3 144.3 141.8 131 140.9 143.1 139.7 141.7 146.4
252.4 252.1 246 242.3 240 245.4 248.9 257.2 255.9 253.4 250.2 246.5 244.5 242.8 240.8 238.5 235.9 233.5 230.9 228.5 227.1 225.2 223.2 220.9 217.9 209.4 193.8 173.8 170 166.6 161.1 156.7 152.7 147.9 142.6 138.2 133.4 128.6 125.5 121.6 118.3 116.3 114.5 113.1 112.5 110.8 114 112 110.3 109.2 108.8 113.4 123.5 137.3 149.4 158.9 165.2 166.8 165.6 163.6 161.5 158.1 155.1 152.1 149.4 146 142.5 138.7 133.4 127.7 120.3 113.6 107.1 100.5 98.4 105 108.9 107.7 103.1 98.2 95.7 99.6 106.7 110.4 119.5 128.5 130.4 130.4 130.9 132.5 133.2 135.4 137 137.7 137.5 137.3 138 138.6 138.7 138.3 139.5 145.4 151.1 155.8 160.2 165.2 175.6 185.1 192.5 198.3 199.4 198.5 197.2 197.1 200.4 204.1 209.6 219.5 225.1 231.7 239 246.6 253.4 258.1 258.1 257.5 255.4 253.3 251.1 248.5 245.8 242.4 239.5 236.1 231.9 228.8 226.3 218.7 215.2 209.2 202.6 194.5 193.7 192.2 187.7 189.5 194.2 199.3 203.1 206.4 205.3 203.8 202.1 200.4 198.7 197 193.8 191.3 188.9 186.4 185 182.4 177.8 175 173.1 168.8 164 157.6 153.7 151.4 148.1 142.4 142 143.7 142.5 136.6 128.8 120.1 112.8 107.7 105.2 116.7 128.3 136.4 150.6 151.4 149.5 147.7 146.1 145.5 144.7 143.9 142.7 138.7 133.1 138.6 143.1 144.7 143 144.1
248.9 245.7 243.1 240 235.8 241.4 245.2 251.5 255.1 252.6 249.7 245.7 243.1 241.4 239.8 237.7 235.4 233.1 230.6 228.1 226 223.8 222.1 219.5 215.4 205 189.9 170.9 160.7 155.5 151.3 147.2 143.8 141.2 137.3 133.6 129.3 125.6 123.2 120.1 115.8 113.1 113.9 112.2 111.1 115.5 119.5 119.2 117.5 112.7 110.6 108.6 109.1 118.3 131.1 141.3 148.8 153.3 154.4 154.3 152.8 150.6 147.6 144.5 141 137.7 133.9 129 123.1 115.5 106.4 102 99.2 98.3 104.5 112.8 117.9 110.3 102.9 98.1 96.5 100.7 105.7 109.2 116.7 124.2 128 127.9 126.6 127.3 127.4 128.5 137.3 132.1 131.8 132.4 132.7 131.5 131.1 136.6 142.8 150.2 155.9 162.6 167.3 178.1 187.8 196.7 204.1 209 208.6 204.3 201.8 200.6 199.5 204.3 210.3 219.6 225.7 232 238 245.7 254.6 258.8 258 257.1 255.3 254.1 252.5 249.4 246.3 243.7 242.1 240.3 238.4 233.9 231.4 226.7 223.1 217.2 207.1 207 206.4 202.9 196.2 202 205.4 208.7 210.8 209.7 208.1 206.1 204.1 202.4 200.7 198.7 196 194.1 191.9 188.7 186.7 183.6 179.8 175.9 174.9 169.2 164.4 159.4 158.7 157.4 154.6 151.2 145.4 143 138.6 130.8 123.4 116.4 110.9 108.9 106.1 117.1 128.1 135.2 147.1 151.7 150.4 148.8 147.4 147.3 145.8 144.6 142.9 139.6 139.2 140.7 142.7 145.1 145.4 144.1
248.1 244.6 240.3 236.7 233.5 235.4 239.1 244.4 254.2 251.2 248 244.5 242.1 240.4 238.7 236.8 234.5 232.2 229.5 227.2 224.8 220.4 216.3 213.6 208.3 199.1 186 169.7 161 152.7 145.1 142.6 141.1 137.1 132.5 129.9 126.8 123.5 120.9 119.1 115.4 114 115.3 118.5 121.6 122.6 123.1 123 122.4 119.4 116.4 113.7 107.4 107.2 113.3 121.2 129.5 135.8 139 140.5 139.5 138 134.5 130.1 126.9 124.2 119.7 113.9 108.3 100.5 100.4 100.8 105.5 110.4 114.9 119.6 116.9 110.2 102.9 96.7 96.8 100.1 104 106.7 111.5 117.6 122.3 123.8 121.5 122.1 123.1 124.4 130.6 127.9 127.2 128.1 127.8 129.4 134 138.6 146.1 154 160.5 167.5 177.1 187.4 196.8 205.5 215.8 218.4 216 213.2 208.4 208.1 208.5 210.6 214.2 220 225.8 233 238.7 247.9 255.9 259.2 259 258 256.8 255.6 254 251 247.9 246.4 244.7 242.8 240.8 238.8 235 231.2 227.6 220.6 215.4 219 217 209.2 207.4 211.5 213.7 215.8 214.3 212.6 210.5 208.4 206.4 204.4 202.6 200.2 198.7 195.1 193.4 191.6 189.5 184.3 181.4 178.3 176.2 170.7 165.5 165.5 164.1 161.5 158.3 153.3 145.9 140.9 129.1 123.6 121.7 118.4 113.8 108.7 107.5 115.8 127.1 134.6 144.2 151.8 153.3 152.1 151.5 149.2 147.5 145.4 143.6 141.7 143.2 142.7 141.7 144.1 146.9 146.5
244.7 241 236.7 231 225.6 230 232.7 239.7 249 249.5 246.5 243.4 241.2 239.5 237.7 235.9 233.5 230.6 226.2 224.3 220 213.7 207.8 203.6 202.2 195.1 182.1 168.1 159 152.5 145.5 143 138.6 131.5 130.1 127.3 125.1 122 119.1 117.7 115.2 116.4 119.9 122.2 124.8 126.6 128.8 129.5 128.4 126.1 122.6 118.6 114.3 107 106.3 106.5 109.7 116.1 120.1 121.8 121.9 120.1 114 107.7 104.9 108 102.1 101.7 102.2 100.6 103.8 109.5 116.5 120.4 123.2 121.6 116.8 111.4 105.4 97.6 96.1 98.9 101.9 104.1 107.5 109.9 114.2 115.8 116.2 117.6 119 120.6 122.2 129.9 123.7 124.8 126.2 133.3 136.7 139.9 149.4 158.7 164.4 171.3 179.9 192.7 203.5 216.2 223.5 224.6 222.2 218.5 216.9 216 216.4 217.2 221 223.5 228 235.8 240.5 249.9 258.2 261 260.9 259.7 258.2 257 255.6 252.6 250.1 248.6 247.1 245.2 243.2 241.1 238.8 235.8 231.8 226.8 226.9 225.7 223.5 219.2 217.7 218.9 219.5 218.7 217 214.8 212.8 210.7 208.6 206.6 204.3 201.7 199.8 197.2 194.8 191.9 190 187.5 185.4 180.7 178.5 176.4 171.8 169.7 169.5 167.8 160.1 154.5 145.1 141.3 142.4 140.9 134.6 128.3 120.1 112.6 108.3 113.7 127.1 135 143 152.2 154.4 157.1 155 151.5 148.7 146.7 144.3 143.4 145.3 145.7 143.6 144.2 147.8 149.4
238.6 234.5 229.5 224 221.5 223.9 226.7 232.4 239.7 246.4 246 242 239.1 237.7 236.2 234.3 231.5 227.6 223.1 219.4 213.2 205.8 200.6 201.4 198.1 193.5 181 162.9 158.6 153.8 146.5 142.6 134.2 130.3 128.9 126.5 123.1 120.9 118.1 116.5 114.8 121.6 124.8 127.9 131.2 135 138.3 140.9 140.9 137.1 130.4 124.3 119.1 113.8 108.1 107.8 105.4 105.2 105.5 106.6 106 104.4 102.7 103.2 107.8 114.6 114.4 111.2 106.1 105 111.9 118.6 126.7 130.2 132.5 124 117.5 112.8 107.7 100.9 96.9 97.7 99.4 100.9 101.8 105.8 110.1 111.4 112.5 113.3 114.9 117.3 120.4 138.2 123.9 120 132.4 138.9 142.5 145.3 150.6 160.3 166.8 174.7 183.1 195.6 208.2 219.6 226.8 228.6 228.3 226.2 225.8 227.6 228.7 225.5 227.7 232.1 237.1 238.3 243 253.9 260.4 262.6 262.9 261.4 259.8 258.6 257.2 254.6 252.3 250.9 249.5 247.6 245.5 243.1 240.3 238.4 235.5 233.4 231.8 228.7 224.8 222.7 223.6 224.3 223.2 221.3 219.5 217.2 214.9 212.8 210.8 208.8 205.4 204 199.5 197 195.9 193.3 191.4 189.7 188.4 183.7 180 177.9 174.6 170.1 169.7 169.4 161.1 154.1 151.2 150.3 148.8 147.4 142.9 133.7 125.4 118.8 108.7 114.2 129.2 138.8 144.4 150.8 155.4 159.8 159 154.1 150.5 148.2 145.9 146.1 148 149 147.9 144.1 148.4 152.3
232.1 227 223.5 219.7 217.1 220.2 221.7 226.1 233.8 241.7 244.5 240.5 237.1 235.6 234.2 231.9 228.4 224.9 220.8 214.8 213.4 210.6 206.9 205.1 201 194.6 184.7 169.6 162.1 155.7 147.5 141.3 134.5 130.1 127.8 125.8 122.3 118.6 117.4 118 122.3 127 130.2 135 142.2 147.2 151.6 156.8 157.2 153.9 146.8 136.6 126.7 119.8 117.1 114.2 110.8 107 105.1 104.4 105.9 106.9 111 117.2 122.3 128.3 130.5 123.3 106.9 109 117.9 127.1 135.9 137.3 136 129.6 119.5 114.6 109.3 103.7 97.6 98.5 99.4 99 99.6 104.5 106.7 108.6 109.8 109.8 112.7 115.5 123.8 136.9 132 134.5 141.9 150.4 153.4 150.1 152.6 162 170.3 179.6 189.5 202.4 209.4 217 225.6 229.8 230.9 233.1 236.4 237.7 238.5 239.7 241.8 244.1 245.3 245 252.7 259.1 263.4 264.4 264.6 263.1 262.4 260.6 259.3 257.1 254.9 253.2 251.9 249.7 247 244.6 242.2 240.3 237.8 236.3 233.1 229.8 226.7 228.9 228.6 228 226.1 224 222 219.6 217.2 215 212.9 211 207.4 203.6 201.9 196.8 196.7 194.3 192.3 191.5 190.9 185.3 180.9 178.7 173.6 172.7 170.3 169.6 167.4 158 156.9 155.2 153.1 151.1 144.9 137.2 125 117.9 109.8 118.4 134.3 143 147.4 151.2 156 159.1 161.6 159.5 154.7 150.3 148.2 149.2 152 155 152 148.4 146.5 154.5
227.5 225.6 222.3 217.7 214.3 215.6 217.7 221.2 228 236.6 243.7 241 237.9 235.8 234.1 231 228 224.9 222.3 221.1 220.8 218.6 210.3 208.4 204.5 198.9 190.2 180.4 170.3 159.8 150.9 142.9 135.1 129.9 126.6 123.9 119.6 119.5 118.4 122.9 128.1 132.7 138.4 146.9 156.5 160.2 165.1 171.1 172.1 169.7 164.1 156.5 147.4 137.4 128.2 121.5 119.9 117.2 113.7 114.2 114.5 116.4 121.4 130.8 133.7 140.3 142.3 133.2 111.2 109.7 121.9 133.6 136.7 136.5 133.3 130.7 122.1 116.6 110.4 104.1 98.7 99.4 99.1 99 100.3 102.4 104.4 105.7 107.5 111.3 118.8 120.1 126.7 135.4 136.7 141.7 151.5 163 160.5 155.7 156.3 163.4 170.1 180.2 196.4 205 208.9 215.2 224.6 230.6 233.5 240.9 247 250.5 251 251.8 253 254.3 254.3 255.4 259.4 263.8 266.1 266.7 266.4 265.2 264.3 262.8 261.9 259.8 257.6 255.4 254 251.9 249.6 247.2 244.8 242 239.8 236.5 233.2 233.3 233.7 233.1 232.4 231.1 229.7 227.3 224.4 222.6 220.5 217.1 214.2 211.5 208.8 205.8 202.9 197.8 195.5 195.1 194.4 194.7 192 185.6 181.4 178.2 173.5 173.3 170.7 169.6 167.5 163.3 161.8 159.4 156.9 153.3 146.4 136 124.8 117 109.8 122.1 136.4 145.5 149.2 153.8 159.2 164.3 167.2 163.3 158.2 153.3 150.8 153 157.2 159.4 156 153.8 151.4 152.7
225.5 223.9 220.7 217.2 213 211 214.3 218.1 223.1 232.3 244.2 242.4 240.2 236.2 234.6 232.3 230.1 227.5 225.6 224.8 220.9 215.4 213.8 210.9 206.1 200.2 194.5 183 170.9 160.1 150.8 141 133.4 128.4 124.5 120.1 121.4 121.8 125.6 131.6 134.5 141.5 150.4 163 171.7 177.3 181.5 184.3 183.8 181.9 176.8 171.5 164.5 156.4 148.5 139.6 135.4 132.2 129.8 130.7 127.2 130.6 137.4 144.3 144.8 145.2 142.7 137 115.7 111.9 128.9 131.3 133.3 135.7 132.1 128.9 124.9 116.7 110.2 105.3 101.1 100.3 99.9 99.6 100.6 100.9 102 104.2 106.4 113.3 118.9 121.4 129.1 133.6 138.4 143.8 156.6 167.4 166.4 162 161 164.1 168.4 178.1 189.4 200.6 206.9 213 220.8 228.8 235.2 244.9 256 257.7 260.1 259.6 259.8 261.2 262.2 263.1 265.5 267.8 268.7 268.9 268.7 268 267.3 265.6 264.1 262.4 260.2 257.8 255.9 254.2 251.8 249.3 246.8 243.6 240.2 239.2 238.5 238 236.7 236 234.8 233.3 231.5 229.5 226.2 223.6 222.1 218 214.7 212 209.4 206.9 204.6 202.2 199.3 197.6 195.1 195.4 191.2 186.2 183.2 179.9 174.1 173.5 172.7 170.7 169.1 167.3 165 162.4 159 154.2 146.3 135.9 124.4 116.4 119.2 128.3 139.3 146 150.5 156.2 163.7 168.8 169.8 166.7 161.6 154.7 155.4 158.4 161.5 162 157.6 160.7 159.9 157.8
223.3 222 219.1 216.1 212.7 209.3 210.7 213.7 218.6 225.5 237.7 242.8 239.9 237.1 234.9 233.1 231 228.8 227 225.5 221.2 221.6 218.3 213 207 201 190.2 179.1 166.6 155.3 144.7 138.2 131.5 126.5 121.8 124.2 127 129.5 134.2 139.2 146.3 154.9 167.9 178 185.3 189.7 192 192.9 190.4 188.3 185.3 180.8 175.2 169.1 163.5 158.6 154.1 152 150.3 148.5 148.2 148.9 151.7 151.8 149.6 146.5 142.7 138.1 120.4 112.6 120.4 122.5 127.7 132.3 130.8 128.3 123.9 116.9 113.7 110.4 104.8 100.7 100.5 100.1 99.7 100.1 102.2 103.2 104 111.1 117.4 122 127.2 132.9 138.1 144 155.3 167.7 167.7 165.7 166.5 167 168.5 174.9 182.2 190.3 202.4 211.9 218.5 226.2 235.3 247.4 258.8 260 261.1 262.2 263.6 265 266.6 267.8 269.6 271 272 272.5 272.1 271.2 270.3 268.6 266.9 265 262.6 260.2 257.8 256.2 253.8 251.2 248.5 244.9 243.8 242.6 241.5 240.6 239.5 237.9 236 234.7 233.1 229.4 226.5 224.4 222.2 218.9 215.3 212.6 210 207.8 205.4 203.1 200.9 198.3 195.8 194.1 189.8 187.8 185.7 182.6 178.5 177.6 176.2 174 171.4 168.7 166.8 164.2 161.4 154.9 146.3 136 125.9 116.7 124.6 136.4 145.1 149.4 154.7 162.3 172 174.3 172.6 168.5 165.9 160.1 161.1 162.9 163.9 163.4 163.7 167.7 167.4 163.1
223.4 219.4 216.8 214.6 211.5 208.8 207.5 209.7 214.6 221.2 230 240.8 239.1 237 234.5 232.4 230.8 227.7 225.3 222.9 219.3 217.2 214.8 209.9 203.6 194.4 182.8 169.3 158.5 147.9 139.2 133.9 128.5 123.4 122.8 128.1 131.9 136.2 140.9 152.9 162.2 171.9 181.6 189.5 194.8 197.6 196.8 193.5 192.8 191.4 188.8 185.2 181 176.6 173.1 169.9 166.4 165.8 165.5 162.2 160.5 157.2 154.2 151.4 149 146.8 142.3 138 128.5 118.8 116.6 116.3 116.9 129.8 130.6 128.2 124.7 120.5 119.5 115 106.6 100.5 99.2 97 100.4 100.4 100.4 101.1 102.1 107.8 114.9 121.3 127.1 132.9 141.1 144.1 151.5 159.9 166.3 168.1 168 168.7 173.3 174.7 180.8 188 200.8 212 218.6 224.3 233.4 246.2 259.6 262.2 263.1 264.5 265.9 267.4 269.6 271.5 272.6 274.1 275.1 275.2 274.6 273.7 272.9 271.4 269.8 267.8 265.6 263.4 261.1 258.2 255.1 252.8 250 247.6 246 245 244 242.2 240.5 238.7 236.1 234.1 231.9 229.5 227.1 224.8 222.3 219.4 215.9 213.2 210.9 208.7 206.3 204 201.4 199 196.5 194 191.8 189.6 187.7 186 182.7 179.8 177.9 175.5 172.7 170.2 167.8 165.2 162.4 154.3 144 134.1 124.2 122.8 132.5 142 151.3 154.5 160.9 168.5 180.4 178.9 174.6 170.9 169 167.5 167 166.5 165.8 165 166.7 173.3 173.5 167.8
