ncols 200
nrows 96
xllcorner 100000
yllcorner 931750
cellsize 50
-1.7 -1.7 -1.7 -1.7 -1.7 -1.7 -1.7 -1.7 -1.7 -1.7 -1.7 -1.7 -1.7 -1.7 -1.7 -1.7 -1.7 -1.7 -1.7 -1.7 -1.7 -1.7 -1.7 -1.7 -1.7 -1.7 -1.7 -1.7 -1.7 -1.7 -1.7 -1.7 -1.7 -1.7 -1.7 -1.7 -1.7 -1.7 -1.7 -1.7 -1.7 -1.7 -1.7 -1.7 -1.7 -1.7 -1.7 -1.7 -1.7 -1.7 -1.7 -1.7 -1.7 -1.7 -1.7 -1.7 -1.7 -1.7 -1.7 -1.7 -1.7 -1.7 -1.7 -1.7 -1.7 -1.7 -1.7 -1.7 -1.7 34.7 36.1 43.5 50.7 52.4 50.8 51.3 53.1 55.6 57.9 56.4 50.2 43.7 44.2 46.2 50.1 54.3 55 55.3 54.5 54.5 53.1 47.2 42.3 37.4 31.6 29.8 29.8 29.8 29.8 29.8 29.8 29.8 29.8 34.6 36.2 44.7 45.6 46.6 51.9 56.8 54.1 60.7 64.6 61 60.4 60.5 59.9 61.2 69.8 89.6 99.8 115 123.2 125.8 125.2 118.2 114.2 110.1 111.3 111.4 113.1 113.3 106.5 120.1 127.4 126.7 127.2 124.9 124.1 117.3 116 118.7 121.4 113.3 99.5 101.8 106.5 115.9 102.3 104.3 107.4 99.8 96.8 89.7 76.8 79 65.8 -1.7 -1.7 -1.7 -1.7 -1.7 -1.7 -1.7 0.1 -0.2 0.1 0.6 1.1 1.6 2.4 9.8 21 40.4 49.5 59 68.5 68.9 70.7 75.8 75.7 61.7 56.9 43.4 50.5 55 43.1 30.3 24 23.8 16.9 8.8 6.7 5 3.1 3.9 5.1 13 33.8 33.4
-1.7 -1.7 -1.7 -1.7 -1.7 -1.7 -1.7 -1.7 -1.7 -1.7 -1.7 -1.7 -1.7 -1.7 -1.7 -1.7 -1.7 -1.7 -1.7 -1.7 -1.7 -1.7 -1.7 -1.7 -1.7 -1.7 -1.7 -1.7 -1.7 -1.7 -1.7 -1.7 -1.7 -1.7 -1.7 -1.7 -1.7 -1.7 -1.7 -1.7 -1.7 -1.7 -1.7 -1.7 -1.7 -1.7 -1.7 -1.7 -1.7 -1.7 -1.7 -1.7 -1.7 -1.7 -1.7 -1.7 -1.7 -1.7 -1.7 -1.7 -1.7 -1.7 -1.7 -1.7 -1.7 -1.7 -1.7 -1.7 -1.7 34.8 34.7 38.8 46.4 50.1 51.4 52.6 51.5 53.4 54.3 53.4 47.7 44.2 44.5 47.6 53.5 55.7 56.8 57 57.1 57.1 55.6 50.9 45.3 39.1 32 29.8 29.8 29.8 29.8 29.8 29.8 29.8 29.8 29.8 32.6 36.1 43.9 46.4 50.8 52 56.9 66.5 63.7 60.5 60.6 60.6 60.8 61.5 68 86 99.4 112.5 119.6 124.4 120.4 120.1 122.8 117.8 121.9 122.8 120.4 113.9 129.9 131.9 131.7 132.8 130.4 133.4 129 122.7 121.8 119.2 123.7 112 97 96.2 94.2 102.6 107.6 106.7 100.1 92.2 87.5 81.3 82.5 82.7 71.3 47.5 1.7 1.6 5.4 15 17.9 9.8 1.4 1 1.1 1.6 2.3 3.7 12 16.3 26.2 42.3 51.8 64 67.5 66.6 64.7 66 69.1 58.7 48.6 51.9 51.7 46 39 33.5 27.8 23.2 20.1 14.8 10.8 6.6 3.6 3.4 4.1 18.4 29.8 29.8
-1.7 -1.7 -1.7 -1.7 -1.7 -1.7 -1.7 -1.7 -1.7 -1.7 -1.7 -1.7 -1.7 -1.7 -1.7 -1.7 -1.7 -1.7 -1.7 -1.7 -1.7 -1.7 -1.7 -1.7 -1.7 -1.7 -1.7 -1.7 -1.7 -1.7 -1.7 -1.7 -1.7 -1.7 -1.7 -1.7 -1.7 -1.7 -1.7 -1.7 -1.7 -1.7 -1.7 -1.7 -1.7 -1.7 -1.7 -1.7 -1.7 -1.7 -1.7 -1.7 -1.7 -1.7 -1.7 -1.7 -1.7 -1.7 -1.7 -1.7 -1.7 -1.7 -1.7 -1.7 -1.7 -1.7 -1.7 35.4 -1.7 -1.7 33.9 36.1 40.7 47.6 49.4 51.1 51.5 51.5 49.7 46.9 43.9 44.2 45.3 47.9 54.7 56.7 57.4 58.3 58.6 58 57.6 51.9 47.6 42.6 33.4 29.8 29.8 29.8 29.8 29.8 29.8 29.8 29.8 29.8 31.9 36.9 46.3 50.5 57.9 62.5 64.5 64 59.7 60.9 62.9 61.4 62.1 62.6 70.6 83.6 96.5 110.9 121.6 120.4 127.7 129.4 128.1 126.8 124.2 128.6 120.2 131.4 135.4 138.3 137.4 134.9 133.7 133.8 127.9 124.5 128.9 119.4 115 108.5 92.6 90.5 90.5 104.1 107.8 98 98 93.2 91.3 81.2 84 81 82.2 71.4 34 2.1 12.4 20.2 22.9 16.2 11.9 1.9 1.9 2.4 4 10.7 13.5 19.9 34.9 40.7 53.9 69.8 66.4 65 68.4 70.6 65.5 59.7 53.8 57.6 53.5 44.7 37.7 32.6 31.8 32.8 25.6 20.3 11 4.7 4.3 3.9 11.2 28.5 29.4 24.9
-1.7 -1.7 -1.7 -1.7 -1.7 -1.7 -1.7 -1.7 -1.7 -1.7 -1.7 -1.7 -1.7 -1.7 -1.7 -1.7 -1.7 -1.7 -1.7 -1.7 -1.7 -1.7 -1.7 -1.7 -1.7 -1.7 -1.7 -1.7 -1.7 -1.7 -1.7 -1.7 -1.7 -1.7 -1.7 -1.7 -1.7 -1.7 -1.7 -1.7 -1.7 -1.7 -1.7 -1.7 -1.7 -1.7 -1.7 -1.7 -1.7 -1.7 -1.7 -1.7 -1.7 -1.7 -1.7 -1.7 -1.7 -1.7 -1.7 -1.7 -1.7 -1.7 -1.7 -1.7 -1.7 -1.7 29.6 44.6 34.6 30.2 30.6 34 38.1 41.3 45.8 47.6 48.9 48.9 47.1 43.5 43.2 43.9 46.1 48.3 54 56.1 59.1 60.4 60.1 60.3 57.9 52.7 48.7 42.3 34.8 29.8 29.8 29.8 29.8 29.8 29.8 29.8 30.9 30 34 42.6 50.3 59.6 68 71.4 65.3 64.8 61.1 63.9 63.6 63.6 62.7 65.6 74.1 85.3 98.2 110.2 116.2 126.3 130.7 135.1 135.6 135.2 128.3 126 129.1 136.5 141.2 140.6 145.2 143.7 140 134.4 129.2 124.1 125.3 117.8 110.7 101.2 90.5 90.5 90.6 97.7 102.5 93.4 93 95.4 87 84.2 82.8 93.3 91.4 79.2 51.6 10.7 13.8 19.7 20.1 16.6 13.4 2.8 2.5 3 7.3 12.1 14.9 30.3 42 50.4 53 62.1 71.8 71.1 63.1 67.2 65.5 65.4 56 60 55 45.2 37.1 38 37.8 29.3 30.8 15.1 5.5 4.4 5.6 18.8 18.1 18.2 18.5 16.7
-1.7 -1.7 -1.7 -1.7 -1.7 -1.7 -1.7 -1.7 -1.7 -1.7 -1.7 -1.7 -1.7 -1.7 -1.7 -1.7 -1.7 -1.7 -1.7 -1.7 -1.7 -1.7 -1.7 -1.7 -1.7 -1.7 -1.7 -1.7 -1.7 -1.7 -1.7 -1.7 -1.7 -1.7 -1.7 -1.7 -1.7 -1.7 -1.7 -1.7 -1.7 -1.7 -1.7 -1.7 -1.7 -1.7 -1.7 -1.7 -1.7 -1.7 -1.7 -1.7 -1.7 -1.7 -1.7 -1.7 -1.7 -1.7 -1.7 -1.7 -1.7 -1.7 -1.7 -1.7 -1.7 -1.7 38.1 45.9 33.4 28.2 28.5 32.7 36.4 38.7 40.9 42.2 43.2 43 42.1 42.5 43 44.7 46.3 48.9 54.8 56.6 60.6 62.5 62.7 61.4 59.8 56.1 49.1 42 34.6 29.8 29.8 29.8 30.3 29.8 30.9 36.4 40.6 40.8 43.4 47.7 53.3 64.1 68 68.2 64.7 61.1 65 65.7 66.5 63.2 62.9 69.1 76.2 85.4 101.3 112.1 127 130.2 134.3 137.2 138.3 137.1 129.4 133.7 131.5 143.5 147.5 148.1 150.1 146.3 141.3 143.1 136.6 127 125.7 112 102.3 92.5 90.5 90.5 90.5 92.2 94.6 93 92.6 88.6 91.7 85 95.4 98.9 92.3 90 69.8 18 11.5 22.7 20.3 19 12.2 8.5 3.2 3.5 10.1 14.7 20.1 44.7 55.7 58.7 62.7 64.8 77.2 72.6 62.2 59.6 69 67.3 64.3 56.2 55.7 46.5 44 43.1 34.6 40.6 33.5 17.6 4.2 3.9 5.1 24.1 16.4 13.1 7.8 4.6
-1.7 -1.7 -1.7 -1.7 -1.7 -1.7 -1.7 -1.7 -1.7 -1.7 -1.7 -1.7 -1.7 -1.7 -1.7 -1.7 -1.7 -1.7 -1.7 -1.7 -1.7 -1.7 -1.7 -1.7 -1.7 -1.7 -1.7 -1.7 -1.7 -1.7 -1.7 -1.7 -1.7 -1.7 -1.7 -1.7 -1.7 -1.7 -1.7 -1.7 -1.7 -1.7 -1.7 -1.7 -1.7 -1.7 -1.7 -1.7 -1.7 -1.7 -1.7 -1.7 -1.7 -1.7 -1.7 -1.7 -1.7 -1.7 -1.7 -1.7 -1.7 -1.7 -1.7 -1.7 -1.7 -1.7 46.2 39.6 30.7 28.9 28.6 32.5 35.4 38 38.3 39.3 40.6 40.7 41.4 42.6 43.7 45 46.8 50.1 53.3 56.9 61.8 65.4 65.7 64.1 62.3 59.8 52 41.6 33.6 29.8 29.8 29.8 35.2 37.5 38.9 42.5 48.5 48.5 49.8 51.3 57.8 62 64.5 62.8 62.8 62.4 66.3 64.7 64.3 64.4 64.6 71.8 77.7 97.4 120.7 130.5 136.4 135.9 139.6 137.9 137.9 132.7 133.9 141.5 142.6 147.3 149.7 151.1 150.8 150.4 146.5 145.1 137.9 129.1 119.8 104.4 90.5 90.5 90.5 90.5 90.5 96.7 92.5 90.4 90.4 89.8 97.7 95.3 98 91.3 90.4 80.2 67.3 26.7 10.3 20.3 26.2 18.5 12.6 10.1 8.1 4.9 12.6 20.3 31.2 53.2 69.3 67.8 70.7 77.7 70.7 68.2 61.6 57.9 68 70.3 66 62.1 55.2 49.8 46 39.5 40.2 46.7 43.6 31.3 17.2 7.2 5.2 18.4 19.5 10.4 1.9 1.9
-1.7 -1.7 -1.7 -1.7 -1.7 -1.7 -1.7 -1.7 -1.7 -1.7 -1.7 -1.7 -1.7 -1.7 -1.7 -1.7 -1.7 -1.7 -1.7 -1.7 -1.7 -1.7 -1.7 -1.7 -1.7 -1.7 -1.7 -1.7 -1.7 -1.7 -1.7 -1.7 -1.7 -1.7 -1.7 -1.7 -1.7 -1.7 -1.7 -1.7 -1.7 -1.7 -1.7 -1.7 -1.7 -1.7 -1.7 -1.7 -1.7 -1.7 -1.7 -1.7 -1.7 -1.7 -1.7 -1.7 -1.7 -1.7 -1.7 -1.7 -1.7 -1.7 -1.7 -1.7 -1.7 -1.7 46.7 41.6 35.7 34.8 29.7 33 35.3 37.8 37.7 39.2 39.9 39.6 41 41.6 43.1 45.1 47.4 50.4 54.3 57.6 62.2 67.5 69.2 67.2 64.9 60.5 54 42.7 35.4 31.7 31.7 33.2 40.1 47.8 49.1 50.5 52.8 56.3 55 57.5 62.6 66 66.8 64.2 64.4 69.9 68.6 67.1 65.3 64.8 67 76.3 84.3 119.9 131.3 136.1 138.4 139.5 140.8 138.4 136.4 136.2 146.6 146.5 146.5 149.2 149.6 147.9 150.5 151.3 150.2 147.1 139.2 119.9 107.6 98.6 90.8 90.5 90.5 90.5 94.2 94.3 89.5 89.3 91.4 103.4 98.7 90.7 93.7 88.1 88.9 82.1 64 28 9.8 16.9 22.3 15.7 15 13.3 6.7 10.1 15 24.7 49.7 65.4 82.4 78.5 83.6 84.7 81.7 72.1 67.2 55.2 56.5 66.2 60.6 60.4 58.2 51 45.3 40.8 40.7 51.3 47.6 44.7 21.8 11.3 19.2 11.7 12.3 6 1.9 1.7
-1.7 -1.7 -1.7 -1.7 -1.7 -1.7 -1.7 -1.7 -1.7 -1.7 -1.7 -1.7 -1.7 -1.7 -1.7 -1.7 -1.7 -1.7 -1.7 -1.7 -1.7 -1.7 -1.7 -1.7 -1.7 -1.7 -1.7 -1.7 -1.7 -1.7 -1.7 -1.7 -1.7 -1.7 -1.7 -1.7 -1.7 -1.7 -1.7 -1.7 -1.7 -1.7 -1.7 -1.7 -1.7 -1.7 -1.7 -1.7 -1.7 -1.7 -1.7 -1.7 -1.7 -1.7 -1.7 -1.7 -1.7 -1.7 -1.7 -1.7 -1.7 -1.7 -1.7 -1.7 -1.7 52.7 51.6 44.7 41.8 38.7 33.7 33.7 36.4 38.9 37.9 37.3 37.7 39 40 41.5 42.7 46.7 49 52.2 55.1 58.7 63.2 68 71 70.8 66 62.4 53.7 43.1 36.9 33.7 32.1 36.4 47.7 58.1 58.7 59.5 60.9 60.9 63.2 64.4 66.9 70.8 71.2 71.9 71.5 71.5 67.6 70.9 68.2 65.9 70.4 79.6 97.2 125.1 131.6 136.2 139.5 142.4 142.7 146.2 149.5 148.8 153.4 148 151.2 148.9 145.8 147.4 148.4 148.1 148 141.8 131.3 122.2 111.2 103.5 97.5 91.6 91.6 90.5 99.4 99.5 89.3 94.6 93.3 94.7 91.6 82.8 88.9 85 84.2 86.6 69.7 35.2 12.2 9.4 17.5 14.1 13.1 6.7 7.9 15.1 26.3 42.8 68.6 71.9 82.7 84.2 90.2 94.6 92.8 76.2 62.5 54.9 54.2 63 59.1 59.3 57.3 55.1 49 45.9 40.8 56.5 49.1 39.8 27 20.4 17.5 3.6 3.1 5.4 3.6 2.1
-1.7 -1.7 -1.7 -1.7 -1.7 -1.7 -1.7 -1.7 -1.7 -1.7 -1.7 -1.7 -1.7 -1.7 -1.7 -1.7 -1.7 -1.7 -1.7 -1.7 -1.7 -1.7 -1.7 -1.7 -1.7 -1.7 -1.7 -1.7 -1.7 -1.7 -1.7 -1.7 -1.7 -1.7 -1.7 -1.7 -1.7 -1.7 -1.7 -1.7 -1.7 -1.7 -1.7 -1.7 -1.7 -1.7 -1.7 -1.7 -1.7 -1.7 -1.7 -1.7 -1.7 -1.7 -1.7 -1.7 -1.7 -1.7 -1.7 -1.7 -1.7 -1.7 -1.7 -1.7 39.6 48.9 50.3 42.3 41.5 41 36.1 39.1 35.7 36.5 37.4 37.2 37.5 38.9 39 41.6 43.9 47.9 52.1 54.7 55.9 58.8 63.7 70.2 73.6 71.8 66.3 62.1 52.6 44.5 38.2 34.9 34.3 38 53.8 64.2 65 65.5 65.9 67.3 69.5 70.9 69.3 72.3 73 75.9 80.6 70.9 68.6 73.9 68.9 68.9 73.4 90.3 107.8 136.9 147.3 154 155.6 153.6 151.7 156 156.2 161.4 158.4 151.8 152.1 148.5 144.3 146 148.7 152.2 147.9 140.4 130.5 129.3 118.2 111.8 111.1 95.3 93.3 90.5 91 89.6 90.3 93.4 100.9 86.4 81.1 77.4 87.5 85 82.1 79.8 84.2 54.4 16.4 7.6 7.5 11.2 11 7.1 12 25.1 43 61.6 81 84.9 92.9 88.3 91.5 90.8 88.6 75.4 60.1 56.1 53 56.4 59 57.8 55 49.9 48.4 44.2 38.2 42.1 43.5 35.2 23.8 20.3 13.8 3.3 3.5 7.5 7.2 2.2
-1.7 -1.7 -1.7 -1.7 -1.7 -1.7 -1.7 -1.7 -1.7 -1.7 -1.7 -1.7 -1.7 -1.7 -1.7 -1.7 -1.7 -1.7 -1.7 -1.7 -1.7 -1.7 -1.7 -1.7 -1.7 -1.7 -1.7 -1.7 -1.7 -1.7 -1.7 -1.7 -1.7 -1.7 -1.7 -1.7 -1.7 -1.7 -1.7 -1.7 -1.7 -1.7 -1.7 -1.7 -1.7 -1.7 -1.7 -1.7 -1.7 -1.7 -1.7 -1.7 -1.7 -1.7 -1.7 -1.7 -1.7 -1.7 -1.7 -1.7 -1.7 -1.7 -1.7 -1.7 36 43.4 46.7 46.4 38.8 40.2 40.1 39.7 38 37.1 35.7 38.4 38.6 37.7 39.1 42.1 45.1 48.6 52.5 56.4 58.7 59.6 62.7 71 73.4 71.5 67.3 59.7 50.7 44.4 39.6 36.5 36 40.6 57.5 63.5 67.6 67.9 69.5 72.8 74.9 73.6 72.7 72.3 73.6 82.2 84.2 71 70.6 70.5 71.8 75.2 86.2 105.8 117.9 146.9 156.3 161.8 166.8 163.3 172.8 171.5 169.4 166.2 161 157.2 151.4 147.6 147.8 145.5 147.4 144.4 142.4 134.5 136.8 132 126.7 119.2 114.4 102.1 99.7 98.2 96.3 92.5 89.3 92.4 87.4 82.3 77.2 75.4 75.4 78.3 77 76.9 79.5 43.3 16.9 8 7.4 7 7.5 6.8 15.6 35.4 49.8 68.2 79.3 88.2 106.5 108.4 86.3 79.5 77.5 73.9 67.5 58.4 52.2 53.7 56.6 52.6 52.8 50.7 50.3 41.4 34.1 42.3 45.1 36.1 26 15 3.3 3.3 3.3 9.2 5.8 4.2
-1.7 -1.7 -1.7 -1.7 -1.7 -1.7 -1.7 -1.7 -1.7 -1.7 -1.7 -1.7 -1.7 -1.7 -1.7 -1.7 -1.7 -1.7 -1.7 -1.7 -1.7 -1.7 -1.7 -1.7 -1.7 -1.7 -1.7 -1.7 -1.7 -1.7 -1.7 -1.7 -1.7 -1.7 -1.7 -1.7 -1.7 -1.7 -1.7 -1.7 -1.7 -1.7 -1.7 -1.7 -1.7 -1.7 -1.7 -1.7 -1.7 -1.7 -1.7 -1.7 -1.7 -1.7 -1.7 -1.7 -1.7 -1.7 -1.7 -1.7 -1.7 28.7 -1.7 -1.7 36.4 36 43.1 46.3 40.1 46.2 42.9 41.3 43.8 39.3 35.1 35.8 36.1 36.7 39.3 41.8 45.2 48.3 52.7 57.5 60.6 61.8 62.2 68.4 71.1 69.8 66.6 58.9 49.7 44.6 40.9 37.3 39 43.5 58.2 67 69.1 69.8 71.5 75.4 76.9 74.8 71.1 72.1 78.3 79.8 81.6 75.8 75.6 79 82.2 88.6 105.3 117.6 125.7 154.7 169 179.2 174.6 179.6 182.7 180.8 176.5 166 165.2 159.2 153 151.9 148 145 139 136.4 130 133.7 134.9 129.4 125.8 119 113.4 111.6 110.8 110.7 104 96.8 89.6 89.7 84.6 82.4 81.1 79.5 74.9 78.8 75.1 70.9 61.8 49.3 21.1 7.8 7.3 7 6.8 7.4 16.2 31.3 49.8 70.5 77.5 93.3 105.2 98.6 84.6 69.9 60 63.3 70.7 57.3 50.6 50.6 55.5 56.5 51.6 49.3 48.2 40.6 32.6 41.2 51.9 46.9 29.5 14.7 3.8 3.2 3.3 4.1 5.5 4.1
-1.7 -1.7 -1.7 -1.7 -1.7 -1.7 -1.7 -1.7 -1.7 -1.7 -1.7 -1.7 -1.7 -1.7 -1.7 -1.7 -1.7 -1.7 -1.7 -1.7 -1.7 -1.7 -1.7 -1.7 -1.7 -1.7 -1.7 -1.7 -1.7 -1.7 -1.7 -1.7 -1.7 -1.7 -1.7 -1.7 -1.7 -1.7 -1.7 -1.7 -1.7 -1.7 -1.7 -1.7 -1.7 -1.7 -1.7 -1.7 -1.7 -1.7 -1.7 -1.7 -1.7 -1.7 -1.7 -1.7 -1.7 -1.7 -1.7 -1.7 -1.7 32 21.7 34.4 36.6 37.4 37.8 38.5 46.8 45.2 45.9 44.2 44.5 36.9 36 33.8 33.3 37 39.1 41.7 44.1 49.3 54.2 58.5 62.1 64.1 62.8 64.6 66.4 67.8 65.7 57.4 50.2 45.6 41.3 38.4 40.3 44.3 60.7 69.9 70.5 71.5 73.9 75.6 75.6 76.7 70.3 73 80.4 82.4 83.1 83.2 87.9 86.9 96.2 108.6 111.2 122.1 138.3 166.1 181.4 182.9 185.5 190 187.4 187.2 179 167 163.5 162.9 157 153.9 148 144.6 134.5 130.9 125.1 126.8 127.7 124.4 118.8 113.8 115.6 121.5 121.2 116.3 105.6 92.7 95.9 96.3 89.1 87.4 90.5 82.5 75 74.6 74.2 72.7 62.8 52.8 25.2 9 7.2 7.3 10.3 8.1 13.9 27.4 45.3 68.6 67 76.5 97.4 91.8 79.2 66.5 58.3 62 59.5 54.5 50.6 50.6 61.8 53.6 52.1 41 38.8 36.6 32.2 32.6 41.6 30 14.5 7.8 13.4 3.1 3.2 3.2 4.2 6.5
-1.7 -1.7 -1.7 -1.7 -1.7 -1.7 -1.7 -1.7 -1.7 -1.7 -1.7 -1.7 -1.7 -1.7 -1.7 -1.7 -1.7 -1.7 -1.7 -1.7 -1.7 -1.7 -1.7 -1.7 -1.7 -1.7 -1.7 -1.7 -1.7 -1.7 -1.7 -1.7 -1.7 -1.7 -1.7 -1.7 -1.7 -1.7 -1.7 -1.7 -1.7 -1.7 -1.7 -1.7 -1.7 -1.7 -1.7 -1.7 -1.7 -1.7 -1.7 -1.7 -1.7 -1.7 -1.7 -1.7 -1.7 -1.7 -1.7 -1.7 -1.7 5.9 27.6 33.1 34.4 32.6 36.6 36.4 41.6 42.4 44.7 45.5 37.7 34.2 33 32.5 33.9 36.1 39.2 42.3 45.1 47.9 54.4 58.1 63.5 65.4 64.7 63.4 65 65.1 63.9 57.5 51.3 44.9 42.5 39.8 42 46.6 63.6 70.7 70.6 72.1 74.8 73.2 75.1 73.4 70.9 80.9 83 88.8 90.5 96.5 98.8 93.1 103.8 115 119.3 141.9 154.6 166 182.6 185.8 199.7 197.3 192.6 185.9 176.8 173.3 168 162.4 156.3 147 144.1 138.6 130.8 125.7 124.9 126.9 120.9 116.5 115.7 116.6 125.4 127.3 121.3 109 104.2 96.6 99.7 92.9 89.4 92 92.4 76.3 75.1 80.2 77.8 74.1 71.8 57.1 38.9 18.8 14.6 7.5 10.8 8.2 11.8 23.7 39.1 60.2 57.3 69.2 88.1 89.1 78 69.2 56.8 55.6 52.5 50.6 50.6 50.6 57.6 53.3 50.1 46 38.7 33.5 33.4 32.3 31.8 35 38.8 30.7 21.8 5.4 3.2 3.2 3 4.7
-1.7 -1.7 -1.7 -1.7 -1.7 -1.7 -1.7 -1.7 -1.7 -1.7 -1.7 -1.7 -1.7 -1.7 -1.7 -1.7 -1.7 -1.7 -1.7 -1.7 -1.7 -1.7 -1.7 -1.7 -1.7 -1.7 -1.7 -1.7 -1.7 -1.7 -1.7 -1.7 -1.7 -1.7 -1.7 -1.7 -1.7 -1.7 -1.7 -1.7 -1.7 -1.7 -1.7 -1.7 -1.7 -1.7 -1.7 -1.7 -1.7 -1.7 -1.7 -1.7 -1.7 -1.7 -1.7 -1.7 -1.7 -1.7 -1.7 -1.7 28.5 -1.7 24.7 25.3 32.4 35.1 36 34.8 35 41.6 41.1 36.5 26.7 30 27.8 35.6 36.4 40.2 39.8 43.6 45.3 47.8 54.6 57.6 62.7 65.8 67.2 63.9 63.3 63.4 62 57.8 51.3 46.7 42.3 40.3 42.2 48.4 64.8 71.1 71.3 72.1 72.8 73.2 74 71.7 73.6 84.9 89.2 95.9 101.4 101.6 100.3 100.5 104.7 118.5 125.5 153 172.6 171.6 176.1 196.2 203.5 199.9 190.4 178.9 175.7 171.1 163.8 159.5 153.1 142.2 138.9 135 126.6 124.8 124 122.9 119.5 116.8 116.6 123.2 126.8 120.1 111.9 111 107.1 101.5 94.2 89.8 89.8 83.3 78.9 76.4 77.8 79.5 78.8 75.1 73.1 68.2 50.3 39.9 27.7 17.6 13.1 6.8 9.9 20.8 30.1 44.6 57.7 71.8 73.7 75.5 74.5 63.2 54.5 50.6 50.6 50.6 50.6 50.6 50.6 68.7 76.7 74 69.5 53.5 42.5 33.6 38 50.9 47.6 34.3 18.8 6 4 3.2 3.2 4
-1.7 -1.7 -1.7 -1.7 -1.7 -1.7 -1.7 -1.7 -1.7 -1.7 -1.7 -1.7 -1.7 -1.7 -1.7 -1.7 -1.7 -1.7 -1.7 -1.7 -1.7 -1.7 -1.7 -1.7 -1.7 -1.7 -1.7 -1.7 -1.7 -1.7 -1.7 -1.7 -1.7 -1.7 -1.7 -1.7 -1.7 -1.7 -1.7 -1.7 -1.7 -1.7 -1.7 -1.7 -1.7 -1.7 -1.7 -1.7 -1.7 -1.7 -1.7 -1.7 -1.7 -1.7 -1.7 -1.7 -1.7 -1.7 -1.7 -1.7 -1.7 -1.7 18.2 23.2 30.2 30 29.2 28.5 30.2 33.3 34.8 21.1 16.8 18.3 30.7 36.1 34.7 39.3 41.3 42.8 45.1 49 53.7 56.6 61.4 64.4 67.6 64.7 62.6 62.2 60 57.5 52.2 46.8 42.6 40 43.4 51.8 67.4 71.9 73 72.3 70.4 70.3 71.8 73.8 83.4 89.5 91.5 100.5 104.5 106 105.9 101.1 109.3 118.6 144.2 156.5 166.9 171.1 181.2 189.7 195.9 194.4 184.2 177.6 169.5 163.1 157.8 153.7 148.2 137.7 135.8 131.4 126.7 126.5 127.3 127.4 125 123.2 121.6 123.1 119.9 112.4 111.5 109 104.1 99.2 89.4 85.7 81.3 80.9 79.3 83.6 84.4 86.7 83.8 82 73.1 64.5 62.6 62.8 48.7 29.9 15.6 7.6 7.7 17.4 27.2 40.5 59.3 64.7 65.3 66.2 60.8 56.9 50.6 50.6 50.6 50.6 50.6 50.6 55.7 77.5 92.2 78.5 73.6 64.3 54.5 42 42.4 50.3 54.1 39.7 20.3 19.5 9.8 3.2 3.2 3.4
-1.7 -1.7 -1.7 -1.7 -1.7 -1.7 -1.7 -1.7 -1.7 -1.7 -1.7 -1.7 -1.7 -1.7 -1.7 -1.7 -1.7 -1.7 -1.7 -1.7 -1.7 -1.7 -1.7 -1.7 -1.7 -1.7 -1.7 -1.7 -1.7 -1.7 -1.7 -1.7 -1.7 -1.7 -1.7 -1.7 -1.7 -1.7 -1.7 -1.7 -1.7 -1.7 -1.7 -1.7 -1.7 -1.7 -1.7 -1.7 -1.7 -1.7 -1.7 -1.7 -1.7 -1.7 -1.7 -1.7 -1.7 -1.7 -1.7 -1.7 -1.7 -1.7 0.6 -1.7 23.1 23.2 20.9 18.4 20.7 22 15.8 13.8 14.7 21.1 33.5 33.2 39.3 35.9 41.4 41.9 43.3 48.1 52.2 56.8 61 63.1 64.3 63.8 61.6 61 59.9 56.9 53.1 48.3 42.7 40 44 56.7 68.4 69.8 72.2 68.1 68.1 71.4 76.2 78.2 82.6 90.7 96.1 102.3 104.5 107.9 105.8 105.4 119.1 129.8 149.4 153.8 160.2 177.4 184.9 180.2 182.5 176.5 176.5 172.9 165.7 159.2 153.7 147.5 140.3 131.9 128.7 132 126.1 130.4 132 126.2 122 123.8 123 118.5 115.2 111.6 110.2 107.6 113.8 107.3 98.3 86.4 84.1 84 84.9 89.6 89.2 89 85.5 77.3 80.7 69.9 72.4 83.8 75.5 37.7 20.2 9.9 6.4 14.1 23.5 37.9 58 72 80.6 74.4 73.1 69.3 57.4 50.6 50.6 50.6 50.6 50.6 58.2 73.9 88.1 84.3 77.3 62.2 53.3 40.2 53.1 54 53.4 43.3 32 28.7 20.4 7.7 3.2 3.2
-1.7 -1.7 -1.7 -1.7 -1.7 -1.7 -1.7 -1.7 -1.7 -1.7 -1.7 -1.7 -1.7 -1.7 -1.7 -1.7 -1.7 -1.7 -1.7 -1.7 -1.7 -1.7 -1.7 -1.7 -1.7 -1.7 -1.7 -1.7 -1.7 -1.7 -1.7 -1.7 -1.7 -1.7 -1.7 -1.7 -1.7 -1.7 -1.7 -1.7 -1.7 -1.7 -1.7 -1.7 -1.7 -1.7 -1.7 -1.7 -1.7 -1.7 -1.7 -1.7 -1.7 -1.7 -1.7 -1.7 -1.7 -1.7 -1.7 -1.7 -1.7 -1.7 -1.7 -1.7 15.8 13.7 -1.7 -1.7 6.9 10.1 10.8 11.8 13.5 27.8 34.4 33.4 34.9 33.7 34 37.7 42.1 47.3 52.6 57.3 61.1 62.7 62.5 61.3 60.6 59.8 58.1 55.9 52.8 47 40 40 43.7 57 67.1 70.5 68.1 68.1 70.5 76.2 79.2 79.8 83 92.6 97.7 103.1 107.6 109 110.5 117.8 127.6 140.1 144.7 152.3 162.9 170.3 172.7 170.3 167.6 164.8 167.1 164.3 161.5 157.1 151.9 142.6 137.4 130.3 127.3 126.7 125.9 134.3 124.4 121.3 120.7 120.7 119.5 119.3 119 117.6 115.6 112.9 110.2 105.9 94.4 92.2 87.3 86.5 94.9 101.4 93.8 92.9 83.3 82.4 85.2 76.4 92.6 87.9 81.7 61.1 32.1 13.6 3.8 9.9 23.6 31.6 53.4 74.3 87.3 83.4 79.8 81 71.6 55.6 50.6 50.6 50.6 50.6 59.5 79.2 84 86.3 75.8 64.3 58.5 57 59 50.4 49.6 50.9 42.7 29.3 29.6 24.1 3.2 3.2
-1.7 -1.7 -1.7 -1.7 -1.7 -1.7 -1.7 -1.7 -1.7 -1.7 -1.7 -1.7 -1.7 -1.7 -1.7 -1.7 -1.7 -1.7 -1.7 -1.7 -1.7 -1.7 -1.7 -1.7 -1.7 -1.7 -1.7 -1.7 -1.7 -1.7 -1.7 -1.7 -1.7 -1.7 -1.7 -1.7 -1.7 -1.7 -1.7 -1.7 -1.7 -1.7 -1.7 -1.7 -1.7 -1.7 -1.7 -1.7 -1.7 -1.7 -1.7 -1.7 -1.7 -1.7 -1.7 -1.7 -1.7 -1.7 -1.7 -1.7 -1.7 -1.7 -1.7 -1.7 2.5 -1.7 -1.7 -1.7 1.9 14.8 16.1 15.5 17 24.2 31.8 29.5 31.1 32.8 34.1 39.2 43.2 48.4 51.5 56.2 60.6 63.2 62.4 61.1 58.5 58 56.3 54.7 51.4 45 40 40 43.9 59.5 67.3 68.2 68.3 69.6 74.8 78.8 80.8 82.3 89.4 95 97.6 104.6 107.7 112 117 122.3 129.5 137.1 141.4 152 153.9 155.8 158 163.2 163.5 158.1 153.5 155.5 151 148.7 142.3 136.2 136.7 127.8 128 129.8 128.4 127.2 123.3 121.6 121.1 121.5 122.1 124.5 123.5 121.3 120.9 112.8 109.7 101.8 95.9 90.1 87.9 89.1 105 102.2 94.6 89.6 85.6 87.1 76.5 77.6 93.6 93.2 81.9 71.5 57.9 20.4 3.3 6.4 19.6 26.2 49.4 72.1 87.2 82 86.3 91.9 82.4 68.3 66.8 60.7 50.6 50.6 66.1 77.3 83.6 83.3 87.3 66 58.5 65.6 59.5 58 46.8 43.9 51 35.9 52.6 33.5 3.2 3.2
-1.7 -1.7 -1.7 -1.7 -1.7 -1.7 -1.7 -1.7 -1.7 -1.7 -1.7 -1.7 -1.7 -1.7 -1.7 -1.7 -1.7 -1.7 -1.7 -1.7 -1.7 -1.7 -1.7 -1.7 -1.7 -1.7 -1.7 -1.7 -1.7 -1.7 -1.7 -1.7 -1.7 -1.7 -1.7 -1.7 -1.7 -1.7 -1.7 -1.7 -1.7 -1.7 -1.7 -1.7 -1.7 -1.7 -1.7 -1.7 -1.7 -1.7 -1.7 -1.7 -1.7 -1.7 -1.7 -1.7 -1.7 -1.7 -1.7 -1.7 -1.7 -1.7 -1.7 -1.7 -1.7 -1.7 -1.7 -1.7 1.9 8.3 11.3 13.9 17 23.2 31.4 30.8 31.2 35.6 34 40.4 46.2 47.6 52.1 56.3 61.1 64.2 63.6 61.9 58.6 55.9 54.6 52.7 49.6 44.6 40 40.4 43.1 56.2 63.6 66.4 74.9 73.9 76.1 81 82.6 83.8 87.1 94 99.9 107 110.5 112.2 120 122.2 125 132.4 133.6 140.3 144.8 148.2 148.8 151.6 151.5 149.9 146.3 141.7 139.3 137 134.6 132.3 129.2 127.8 131.2 136.9 132.8 129.1 126.8 124.9 124.9 126.5 129.8 137.2 132.5 129.1 122.6 115.3 109.1 104.9 99.4 97.9 90.8 98.1 103.1 102.7 100.6 87.4 86 82.2 76.2 85.4 99.4 91.5 87.9 72.8 58.7 31.1 8.7 1.9 9.2 25.5 44.3 67.3 88 85.1 84.8 91.1 89.6 72.8 81.1 83.3 66 55.4 70 72.1 80.5 84.7 86.4 69.9 55.3 67.4 69.3 60.2 50 39.5 48.4 41.3 52.9 23 3.2 3.2
-1.7 -1.7 -1.7 -1.7 -1.7 -1.7 -1.7 -1.7 -1.7 -1.7 -1.7 -1.7 -1.7 -1.7 -1.7 -1.7 -1.7 -1.7 -1.7 -1.7 -1.7 -1.7 -1.7 -1.7 -1.7 -1.7 -1.7 -1.7 -1.7 -1.7 -1.7 -1.7 -1.7 -1.7 -1.7 -1.7 -1.7 -1.7 -1.7 -1.7 -1.7 -1.7 -1.7 -1.7 -1.7 -1.7 -1.7 -1.7 -1.7 -1.7 -1.7 -1.7 -1.7 -1.7 -1.7 -1.7 -1.7 -1.7 -1.7 -1.7 -1.7 -1.7 -1.7 -1.7 -1.7 -1.7 -1.7 -1.7 10.8 12.6 12.3 23.6 22.6 32.1 32.2 34.4 31.6 33.2 34.6 40.6 45.8 47.4 51.7 56 60.8 65 66 64.6 59.1 54.7 51.5 50.7 48 42.6 40.4 43.5 45.7 50.5 57.9 67.5 74.9 72.8 79.6 80.5 80.7 85.1 87.8 96.9 102.8 107.7 108.4 109.8 118.3 123.2 122.4 122.9 127.3 136.5 142.6 146.1 147.8 149.8 147.7 146.3 143.6 135.7 133 133.2 129.3 128.4 127.4 130 134.4 134.9 136.3 129.4 132.7 129.4 131.1 131.9 140.1 137.7 130.7 127.5 122.8 118.8 111.3 110 107 104.1 95.7 109.1 107.8 107.9 92.4 91.1 86.3 78.4 90 89 92.9 91.3 83.5 71.2 59 39.8 20.4 1.7 8.2 20.5 42.6 58 73.7 86.1 84.4 95.3 87.1 75.8 95.6 106.9 91.1 68.6 62.7 68.3 75.2 84.5 84 71 61.4 66.1 69.7 61.2 50 44.1 36.4 36.6 43.4 32.2 8.1 3.3
-1.7 -1.7 -1.7 -1.7 -1.7 -1.7 -1.7 -1.7 -1.7 -1.7 -1.7 -1.7 -1.7 -1.7 -1.7 -1.7 -1.7 -1.7 -1.7 -1.7 -1.7 -1.7 -1.7 -1.7 -1.7 -1.7 -1.7 -1.7 -1.7 -1.7 -1.7 -1.7 -1.7 -1.7 -1.7 -1.7 -1.7 -1.7 -1.7 -1.7 -1.7 -1.7 -1.7 -1.7 -1.7 -1.7 -1.7 -1.7 -1.7 -1.7 -1.7 -1.7 -1.7 -1.7 -1.7 -1.7 -1.7 -1.7 -1.7 -1.7 -1.7 -1.7 -1.7 -1.7 -1.7 -1.7 -1.7 11.8 16.3 16.4 20.7 28 29.2 33.3 34.9 37 32 33.3 36.3 42.5 44.8 47.8 51.8 54.8 61.1 65.1 66.6 66.5 60.5 54.9 49.9 46.8 45.9 40.3 40.8 46.3 48.6 50.1 56.4 62.4 68.6 71.7 75.2 76 79.6 85.4 91.7 96.4 102.3 101.9 105 107.3 111.4 119.9 119.1 121.9 127.3 134.6 141.1 147.4 147.3 144.9 141.3 137.9 136.7 130 127.6 125.6 124.5 125.8 128.9 131.9 135 135.7 132.5 131.1 134.8 136.5 134.2 142.8 140.2 133.7 133.3 130.1 127.5 121.5 114.9 112.3 113.7 104.7 98.1 104.4 106.8 105.6 90.9 91.3 80.3 84.7 93.4 97.3 87.1 83 85.4 66.9 56.4 38.9 19.9 2.5 1.7 13.1 34.9 63.6 66.3 77.8 83 88.1 82.5 77.2 110.4 126.3 113.6 83.5 64.5 65.6 69.2 80.1 77.4 69.1 62 69.9 69.7 54.1 46.2 37.2 36.6 35.8 46.1 36.1 15.9 3.8
-1.7 -1.7 -1.7 -1.7 -1.7 -1.7 -1.7 -1.7 -1.7 -1.7 -1.7 -1.7 -1.7 -1.7 -1.7 -1.7 -1.7 -1.7 -1.7 -1.7 -1.7 -1.7 -1.7 -1.7 -1.7 -1.7 -1.7 -1.7 -1.7 -1.7 -1.7 -1.7 -1.7 -1.7 -1.7 -1.7 -1.7 -1.7 -1.7 -1.7 -1.7 -1.7 -1.7 -1.7 -1.7 -1.7 -1.7 -1.7 -1.7 -1.7 -1.7 -1.7 -1.7 -1.7 -1.7 -1.7 -1.7 -1.7 -1.7 -1.7 -1.7 -1.7 -1.7 -1.7 -1.7 7.1 9.6 16.8 17.4 19.4 25.6 29.7 31.2 31.1 35.2 35.8 31.2 36.4 37 41.2 44.5 46.4 51.5 55.3 60.1 63.3 66.5 66.9 62.1 56.4 48.3 44.1 41.2 40.2 40.2 48.8 47.9 53.6 60.6 66.4 70.9 74.7 74.8 76.3 80.9 86 94.7 96.1 96.5 98.9 102.7 106.5 110.1 114.4 117.8 122.1 126.6 131.2 143.3 149.1 143 140.2 139.6 132.8 131.3 125.5 124.4 122.1 120.7 122.8 124.1 131.6 136.6 132.8 131.4 132.2 138.9 137 135.5 136.3 132 133.9 135 134.3 128.3 123.1 117 116 109.7 97.7 98 104.5 102 93.8 88.9 82.7 88.1 90.5 85.4 89.9 79.3 79.2 78 74.2 52.4 39.6 32.9 14.1 1.7 4.9 26.3 57.9 65 67.7 75.3 81.3 78.4 78 113.8 132.6 128.1 108.4 75.2 77.4 66.6 73 74.8 62.5 62 74.6 79 61.4 38.9 36.8 38.3 39.9 43.9 41.1 23 29.7
-1.7 -1.7 -1.7 -1.7 -1.7 -1.7 -1.7 -1.7 -1.7 -1.7 -1.7 -1.7 -1.7 -1.7 -1.7 -1.7 -1.7 -1.7 -1.7 -1.7 -1.7 -1.7 -1.7 -1.7 -1.7 -1.7 -1.7 -1.7 -1.7 -1.7 -1.7 -1.7 -1.7 -1.7 -1.7 -1.7 -1.7 -1.7 -1.7 -1.7 -1.7 -1.7 -1.7 -1.7 -1.7 -1.7 -1.7 -1.7 -1.7 -1.7 -1.7 -1.7 -1.7 -1.7 -1.7 -1.7 -1.7 -1.7 -1.7 -1.7 -1.7 22.7 -1.7 19 8.5 8 15.3 16.7 18.6 19.9 26.6 28.9 33.1 30.4 33.1 33.1 30.3 33.7 34.8 39.1 42 46.6 51.4 55.7 59.1 62.1 66.2 65.3 61.5 56.5 47.7 42.7 40.2 40.2 42.4 46.5 47.8 51.2 61.6 71 71 75.7 74.5 79.4 80.7 86.7 91.7 92.3 94.6 97.7 101.6 105.6 109.5 113.2 116.3 120 124.8 128.9 136.6 138.4 139.8 138.2 136.4 128 123.7 121.7 121.5 121.3 120.7 122.7 123.4 126.5 128.7 130.7 130.3 133.9 139.4 137.6 130.8 130 133.2 136 137.1 134.6 128.4 122.2 116.5 110.7 105.6 98.9 97.2 98.1 89.2 94.5 81 77.3 85.5 83.1 86.4 84.1 79.8 84.3 82.4 68.3 53.1 45.3 33.8 18.7 2.1 1.7 14.3 47.5 66.8 65.4 68.8 73.4 74.4 73.1 105.9 131.1 125.7 115.7 87.5 71.8 70.7 64.6 66.9 58.8 65.6 80.5 72.1 54 40.4 37.8 36.8 43.6 34.5 40.7 24.9 37.3
-1.7 -1.7 -1.7 -1.7 -1.7 -1.7 -1.7 -1.7 -1.7 -1.7 -1.7 -1.7 -1.7 -1.7 -1.7 -1.7 -1.7 -1.7 -1.7 -1.7 -1.7 -1.7 -1.7 -1.7 -1.7 -1.7 -1.7 -1.7 -1.7 -1.7 -1.7 -1.7 -1.7 -1.7 -1.7 -1.7 -1.7 -1.7 -1.7 -1.7 -1.7 -1.7 -1.7 -1.7 -1.7 -1.7 -1.7 -1.7 -1.7 -1.7 -1.7 -1.7 -1.7 -1.7 -1.7 -1.7 -1.7 -1.7 -1.7 -1.7 24.2 27.3 26.7 23.1 15.8 14.5 15 16.3 20 20.9 27.6 27.8 29.4 28.7 30.1 32.7 29.7 29.8 30.9 34.8 41.6 50.5 48.1 55.4 59.1 61.3 63.6 64.4 60.9 56.7 46.9 42.9 40.5 40.2 43.9 47.3 48.9 50.1 64.1 66.7 69.2 72.7 69.7 78.4 83.6 82 85.9 89.8 93.7 97.3 100.3 104.2 108.9 111.3 115 118.3 121.1 127.5 133.7 136.4 139.7 134.5 129.3 126.3 120 120 120.4 121 121 121.7 123.3 125 128.1 130.3 129.3 128.2 135 128.3 128.5 130.7 134.4 136.2 135.7 130.5 123.7 117.8 111.9 106.7 100.9 99.2 92.3 86 84.8 83.7 77.3 83.3 83.2 82.9 82.9 90.6 90.4 81.9 69.9 57.1 54.7 65.7 43.8 28.8 10.2 1.7 2.2 28.7 59.8 70.7 63.1 66.1 66.7 69.8 90.9 119.5 125 115.4 104.1 74.5 66.1 61.8 60 59.2 70.7 78.4 72.4 59.7 51.6 38.3 40.6 35.9 31.2 30.4 30.3 34.2
-1.7 -1.7 -1.7 -1.7 -1.7 -1.7 -1.7 -1.7 -1.7 -1.7 -1.7 -1.7 -1.7 -1.7 -1.7 -1.7 -1.7 -1.7 -1.7 -1.7 -1.7 -1.7 -1.7 -1.7 -1.7 -1.7 -1.7 -1.7 -1.7 -1.7 -1.7 -1.7 -1.7 -1.7 -1.7 -1.7 -1.7 -1.7 -1.7 -1.7 -1.7 -1.7 -1.7 -1.7 -1.7 -1.7 -1.7 -1.7 -1.7 -1.7 -1.7 -1.7 -1.7 -1.7 -1.7 -1.7 -1.7 -1.7 -1.7 -1.7 37.7 26.5 30.1 25 19.9 20.1 19.5 19.9 17 23.5 23.5 22.8 26.8 28 27.8 29.9 29.6 28.9 32.6 32.2 36.3 42 43.2 49.5 56.9 59.9 63.2 62.5 59.6 56.6 47.4 43.3 41.1 40.3 44.3 51.8 50.2 51.7 54.2 58.3 61 62.3 67.9 75 76.4 78.6 84 88.8 92.7 96.1 98.6 102.7 105.9 110 113.4 116.4 119.2 125.1 129.8 131.3 135.2 128.1 121.8 119.3 117.9 118 119.5 119.4 121.2 121.1 122.6 122.2 124.7 125.2 122.2 122.2 125.2 125.5 127.6 130.6 133.6 132.1 128.4 124.8 121.1 115.7 108.7 100.7 96 88.8 83.9 83.1 82.8 78.4 77.3 81.9 88.3 83 96.8 94.1 80.9 72 71.6 60.8 63.8 71.3 72.3 37 17 1.7 1.7 11.6 52.6 63.4 57.4 56.9 57.3 61.2 77.7 105.3 115.1 110.4 98.1 81.7 69.6 63 59.6 61.1 69.2 76.7 72.5 62 48.8 38.5 43.8 30.3 35.3 30.3 30.4 34
-1.7 -1.7 -1.7 -1.7 -1.7 -1.7 -1.7 -1.7 -1.7 -1.7 -1.7 -1.7 -1.7 -1.7 -1.7 -1.7 -1.7 -1.7 -1.7 -1.7 -1.7 -1.7 -1.7 -1.7 -1.7 -1.7 -1.7 -1.7 -1.7 -1.7 -1.7 -1.7 -1.7 -1.7 -1.7 -1.7 -1.7 -1.7 -1.7 -1.7 -1.7 -1.7 -1.7 -1.7 -1.7 -1.7 -1.7 -1.7 -1.7 -1.7 -1.7 -1.7 -1.7 -1.7 -1.7 -1.7 -1.7 -1.7 34.6 44.8 36.8 30.4 30.5 27.2 21.2 22.9 22.3 25.5 15.9 14.8 17.8 23.9 24.4 23.7 27.8 30.6 30.6 29.3 31.4 29.2 34.1 37.2 40.1 46.1 51.3 56.9 62.6 60.6 58.9 54.7 48.7 44 40.9 40.8 45.7 57.3 54 55.7 54.6 57.7 60.5 61.7 66.1 72.8 75.6 79.1 78.8 83.1 92 94.6 95.7 99.7 103.9 108.1 110.8 114.6 117.5 119.6 122.8 123.3 121.7 118.7 116 116.5 115.4 115.7 117 118.4 120.8 120 120.5 120.5 120.7 120.8 120.2 120 120.4 122.5 128.2 127.2 127.1 125.5 124.3 121.6 117.5 111.6 105.4 98.2 92.4 84.8 83.1 83.1 82.7 79.8 77.3 86.6 87.2 89.2 97.4 90.8 76.2 69.7 65.6 66.6 73.6 84.1 75.7 50.3 23.2 1.7 1.7 2.8 17.9 42.4 52.5 49.7 50.3 50.1 62.6 82.2 93.8 94.9 88.8 93.9 77.7 67.4 61 57.8 66.9 77.7 75 63.4 51.2 45.1 38.1 36.8 30.3 30.5 30.7 36.1
-1.7 -1.7 -1.7 -1.7 -1.7 -1.7 -1.7 -1.7 -1.7 -1.7 -1.7 -1.7 -1.7 -1.7 -1.7 -1.7 -1.7 -1.7 -1.7 -1.7 -1.7 -1.7 -1.7 -1.7 -1.7 -1.7 -1.7 -1.7 -1.7 -1.7 -1.7 -1.7 -1.7 -1.7 -1.7 -1.7 -1.7 -1.7 -1.7 -1.7 -1.7 -1.7 -1.7 -1.7 -1.7 -1.7 -1.7 -1.7 -1.7 -1.7 -1.7 -1.7 -1.7 -1.7 -1.7 -1.7 -1.7 -1.7 28.3 39.4 33.3 31.4 28.8 27.4 24.6 25 26.2 19.5 14.2 15 19.6 20.4 24 23 26.8 29.8 28 27.9 29.5 27.4 30.2 36.5 41.7 43.2 46.1 53.2 58.1 57.4 56.5 52.4 48.3 44.9 41.4 41.2 46.3 52.6 53.2 56.9 53 57.9 59.6 61.6 65.6 70.9 75 76.8 76.6 78.6 85.2 91 94 96.7 100.7 103.9 106.9 110.2 113.1 113.7 113.2 110.3 108 109.4 112.1 114.1 113.4 114.2 115.2 115.8 117.1 118.7 118.5 117.4 118.7 119.6 119.7 118.2 118.5 119 120.2 121.5 120.1 120.9 120.4 118.3 114.3 109.1 104.4 95.6 92.6 87.9 83.2 81.5 87.5 79.9 83.2 83.5 87.2 91.5 89.5 81.3 71 68.8 80.4 79.2 88.5 90.7 93.8 70.6 29.1 7.1 1.7 1.7 9.5 23.2 39 44.1 46.8 48.6 47 58.4 71.4 81.3 82.7 90.8 76.2 67.3 67.4 52.1 56.6 67 65.3 54 44.1 40.6 43.1 41.1 32.3 30.3 34.9 38.7
-1.7 -1.7 -1.7 -1.7 -1.7 -1.7 -1.7 -1.7 -1.7 -1.7 -1.7 -1.7 -1.7 -1.7 -1.7 -1.7 -1.7 -1.7 -1.7 -1.7 -1.7 -1.7 -1.7 -1.7 -1.7 -1.7 -1.7 -1.7 -1.7 -1.7 -1.7 -1.7 -1.7 -1.7 -1.7 -1.7 -1.7 -1.7 -1.7 -1.7 -1.7 -1.7 -1.7 -1.7 -1.7 -1.7 -1.7 -1.7 -1.7 -1.7 -1.7 -1.7 -1.7 -1.7 -1.7 -1.7 -1.7 -1.7 23.6 35.4 27.2 28.3 27 25.5 24.4 27.3 27.4 15.2 16.7 18 16 18.8 20.7 21.4 23.3 24.5 26.3 29 28.9 26.4 29.8 32.4 37.1 41.3 46.8 47.1 51.6 54.2 55.1 52.1 45.5 44 44.8 45 44.5 46.6 51.1 53.9 51.1 55.5 57.8 62.1 68.1 70.7 74.4 74.6 76.3 78.1 83.9 89.3 91.8 94.1 97.3 100.4 103.9 103.6 107 107.8 103.9 101.7 103.8 105.3 109 111.2 110.9 111.2 111.8 111.6 115 115.8 115.2 115.7 115.3 116.8 118.4 117.6 117 116.3 115.4 115.5 115.7 116.4 116 113.7 108.9 104.5 99.4 95.9 93.9 89.1 78 77.3 87 79.4 83.3 87.7 88.1 79 75.7 78.2 71.4 78.7 83.6 89.3 100.8 113.5 101.1 85.6 45.7 15.9 1.7 1.7 2.8 12.3 23.3 33.2 40.4 49.7 43.7 45.1 57.9 66.3 75.7 78.6 75.4 72.3 65.2 51.8 48.5 52.9 48.2 47.3 39.1 41 51.4 56 40.7 35.3 36.4 40.1
-1.7 -1.7 -1.7 -1.7 -1.7 -1.7 -1.7 -1.7 -1.7 -1.7 -1.7 -1.7 -1.7 -1.7 -1.7 -1.7 -1.7 -1.7 -1.7 -1.7 -1.7 -1.7 -1.7 -1.7 -1.7 -1.7 -1.7 -1.7 -1.7 -1.7 -1.7 -1.7 -1.7 -1.7 -1.7 -1.7 -1.7 -1.7 -1.7 -1.7 -1.7 -1.7 -1.7 -1.7 -1.7 -1.7 -1.7 -1.7 -1.7 -1.7 -1.7 -1.7 -1.7 -1.7 -1.7 -1.7 -1.7 -1.7 20.5 23.6 20.8 25.2 23.8 22 21.6 27.5 23.5 11.4 15.1 20.6 15.9 17.4 22.3 24.4 24.3 26 22.8 31.1 26.4 25.3 29.3 31.9 32.7 39.2 44.8 42.7 45.4 52.3 52.8 47.4 41.7 43.6 46.6 48.3 46.4 44.6 46.9 53.4 48.6 51.7 54.7 64.4 66.9 68.8 72.6 74.9 78.6 77 79 85.8 87.9 90.3 93.5 96.9 94.6 95.7 95.7 99.9 96.9 97 99.6 101.2 104.3 110.7 109.2 105.9 106.1 109.1 108.6 111.3 111.2 113.2 112.8 113.3 116.5 117 115.1 112.5 110.6 112.3 112.5 112.4 112.6 109.4 105.1 100.4 97 95.2 93.3 83.9 74.3 79.5 84.7 73.9 73.9 82.8 84.6 79.7 75.3 76.8 76.2 82.3 83.4 98 114 113.5 107 83.3 53.7 24.5 9.2 1.7 1.7 3.7 14.8 26.7 34.4 43.4 49.4 40.8 44.6 56 66 71.8 75.4 75.5 61.6 53.8 48.1 47.4 43.2 42.1 44.1 55.3 53.4 59.8 40.8 35.5 37.1 38.1
-1.7 -1.7 -1.7 -1.7 -1.7 -1.7 -1.7 -1.7 -1.7 -1.7 -1.7 -1.7 -1.7 -1.7 -1.7 -1.7 -1.7 -1.7 -1.7 -1.7 -1.7 -1.7 -1.7 -1.7 -1.7 -1.7 -1.7 -1.7 -1.7 -1.7 -1.7 -1.7 -1.7 -1.7 -1.7 -1.7 -1.7 -1.7 -1.7 -1.7 -1.7 -1.7 -1.7 -1.7 -1.7 -1.7 -1.7 -1.7 -1.7 -1.7 -1.7 -1.7 -1.7 -1.7 -1.7 -1.7 -1.7 -1.7 26 21.5 22.9 21.8 21.5 20.2 20.4 25 14.7 10.4 10.7 16.3 17 14.8 15 18.9 24.3 23.6 18.4 18.4 18.4 18.4 21.2 31.1 31.6 36.8 38.8 39.2 41.9 45 46.1 44.8 36.8 38.1 46.7 50.1 50.5 42.9 43.1 45.8 45.9 48.3 52.7 60.2 63.5 65.1 69.3 73.6 77.1 76.1 75.9 78.8 82.9 85.9 87.8 91.4 87.5 87.9 88.6 89.4 92.4 93.7 95.2 96.3 96.4 100.5 104.2 100.3 102.4 104 106.5 107.7 109.6 110.9 110.4 110.2 113.7 116.4 111.5 108.2 107.2 108.1 109.2 107.9 105.5 103 100.6 97.4 93.1 92.8 89 80.9 73.9 73.9 73.9 73.9 77 82.3 81.3 76.3 78.4 78.4 80.7 81.9 90.5 99 111.7 111.6 102.6 88.6 75.1 41.5 18.1 9.4 2.1 1.7 6.3 19.5 30.3 36.9 48.9 41.2 40.2 47.3 56.6 64.2 68.1 69.5 60.5 51.6 47.6 46.6 46.2 55.7 61.2 63 63.5 63.3 48.6 45.4 39.1 40.1
-1.7 -1.7 -1.7 -1.7 -1.7 -1.7 -1.7 -1.7 -1.7 -1.7 -1.7 -1.7 -1.7 -1.7 -1.7 -1.7 -1.7 -1.7 -1.7 -1.7 -1.7 -1.7 -1.7 -1.7 -1.7 -1.7 -1.7 -1.7 -1.7 -1.7 -1.7 -1.7 -1.7 -1.7 -1.7 -1.7 -1.7 -1.7 -1.7 -1.7 -1.7 -1.7 -1.7 -1.7 -1.7 -1.7 -1.7 -1.7 -1.7 -1.7 -1.7 -1.7 -1.7 -1.7 -1.7 -1.7 -1.7 -1.7 14.2 16.2 22.6 20.3 15.7 15.2 21.3 19.1 10.4 10.4 10.4 14.7 20.3 11.4 12.8 16.8 20.5 18.4 18.4 18.4 18.4 18.4 18.4 24.4 28.5 31.1 38.4 38.5 40.2 41.6 42.8 38.8 31.4 33.1 43.2 49.1 49.1 43.1 41.5 42.6 43.5 45.7 50.6 52.8 60.5 61.3 66.5 69.6 71.9 71.2 72.3 74.6 77.9 80.4 79.9 80.2 80.6 81.3 83.9 86.1 87.3 89.5 91 91.8 92.8 94.2 94.5 97 98.5 99.7 101.5 103.7 105.7 108.7 108.5 108.3 107.9 109 106.7 104.1 103.2 104.5 103.8 102 99.6 98 96.4 94.4 91.2 86.7 81.9 75.9 73.9 73.9 73.9 73.9 79 79 77.6 80.4 81 80.2 85.4 98.6 99.5 103.8 104.3 101.5 98.3 94 69.6 49.9 26.2 17.8 8.4 1.7 2.7 13.2 24.4 33.8 39.5 41.7 37.2 42.9 52.3 60.6 63 62.2 62 52.2 47.9 48.6 43.8 47.9 64 66.8 71 72.9 61.9 51.7 46.8 39
-1.7 -1.7 -1.7 -1.7 -1.7 -1.7 -1.7 -1.7 -1.7 -1.7 -1.7 -1.7 -1.7 -1.7 -1.7 -1.7 -1.7 -1.7 -1.7 -1.7 -1.7 -1.7 -1.7 -1.7 -1.7 -1.7 -1.7 -1.7 -1.7 -1.7 -1.7 -1.7 -1.7 -1.7 -1.7 -1.7 -1.7 -1.7 -1.7 -1.7 -1.7 -1.7 -1.7 -1.7 -1.7 -1.7 -1.7 -1.7 -1.7 -1.7 -1.7 -1.7 -1.7 -1.7 -1.7 -1.7 4.4 -1.7 4.7 10.9 13.2 14.3 12.8 14.2 14.9 12.1 10.4 10.4 10.4 10.4 10.4 10.4 14.6 14.7 23.3 18.4 18.4 18.4 18.4 18.4 18.4 19.3 22.7 31.2 34.2 38.6 39.2 42.5 38.7 32.2 27.1 27.1 38 43.5 44.6 42 40.5 41.6 43.4 45 47.3 50 53.1 60.5 63.4 64.6 68.5 71.2 71.1 71.4 72.6 73.5 75.7 78.1 78.8 79.4 80.1 81.3 83.3 84.5 86.4 88.4 89.7 89.7 90.6 92.4 94 96.2 98.1 100.3 103.4 106.7 106.7 106.1 104.4 104.2 103.8 101 100.1 99.3 98 97 96.7 95.9 95 92.9 90.3 85.8 77.8 74 73.9 73.9 73.9 76.7 79.3 78.6 76.8 77.3 81.7 78.6 90.2 98.6 107.4 111.7 107.5 100.1 97.3 84.1 71.8 62.6 34.4 22.6 18.2 7.4 3.2 9.7 20.1 26.2 35.2 35.8 35.9 40.2 46.8 56.3 58 57.4 56.5 59.7 54.5 48.3 43.3 48.1 59.9 67 77.2 68 68.4 53 56.7 44
-1.7 -1.7 -1.7 -1.7 -1.7 -1.7 -1.7 -1.7 -1.7 -1.7 -1.7 -1.7 -1.7 -1.7 -1.7 -1.7 -1.7 -1.7 -1.7 -1.7 -1.7 -1.7 -1.7 -1.7 -1.7 -1.7 -1.7 -1.7 -1.7 -1.7 -1.7 -1.7 -1.7 -1.7 -1.7 -1.7 -1.7 -1.7 -1.7 -1.7 -1.7 -1.7 -1.7 -1.7 -1.7 -1.7 -1.7 -1.7 -1.7 -1.7 -1.7 -1.7 -1.7 -1.7 -1.7 -1.7 18.4 5.2 7.8 10 9.8 11.2 10.7 10.6 10.4 10.4 10.4 10.4 10.4 10.4 10.4 10.4 12.7 19.3 18.4 18.4 18.4 18.4 18.4 18.4 18.4 18.4 20.2 24 29 35.6 39.4 40.6 35.4 26.5 22.4 24 31.3 37.1 38.9 38.7 39.3 42.4 43.4 44.5 48.6 49.6 51.7 57.1 58.5 61.8 64.3 67.5 69.5 69.3 70 70.7 73 76.3 78.9 78.5 76.7 77.3 79.2 81.3 83.1 84.7 88.1 86.8 87.9 88.2 90.4 93.2 95.8 97.6 101.9 104.1 105 103.9 103.1 101.7 101.2 98.7 97.9 96.4 96 95.7 96.1 95.1 94.2 92.4 89.5 84.9 77.1 74.6 73.9 73.9 73.9 75.1 81.4 78.1 78 81.1 78.6 82.3 88.9 99.7 108.5 112.2 106.5 100 89.2 85.6 74.6 63.8 49.1 27.5 24.9 15.4 3.3 10.9 20 15 30.2 34.3 33.6 37.2 43.1 49.9 51.1 55.1 63.4 65.2 56.1 46.2 42.7 41.3 48.1 63.2 72.1 73.2 71.6 59.7 52.5 48.5
-1.7 -1.7 -1.7 -1.7 -1.7 -1.7 -1.7 -1.7 -1.7 -1.7 -1.7 -1.7 -1.7 -1.7 -1.7 -1.7 -1.7 -1.7 -1.7 -1.7 -1.7 -1.7 -1.7 -1.7 -1.7 -1.7 -1.7 -1.7 -1.7 -1.7 -1.7 -1.7 -1.7 -1.7 -1.7 -1.7 -1.7 -1.7 -1.7 -1.7 -1.7 -1.7 -1.7 -1.7 -1.7 -1.7 -1.7 -1.7 -1.7 -1.7 -1.7 -1.7 -1.7 -1.7 -1.7 23.3 26.9 9.4 9.1 9.9 11.1 14 13 12.6 10.4 10.4 10.4 10.4 10.4 10.4 10.4 18.2 22 20.9 18.4 18.4 18.4 19.8 18.4 18.4 18.4 19.3 22 23.4 26.7 31.5 37.3 38.4 35 22.3 19.3 22.1 27.7 32.1 33.2 34.2 35.6 40.4 43.4 44.5 46.1 48.9 50.5 51.9 56 56.8 61.3 63.9 67.4 68.2 69 69.4 71.9 74.8 77.4 79.1 74.4 75 77 78.6 80.9 81.6 82.1 83.6 84.5 84.8 87.1 91.4 94 95.8 98.2 101.7 104.2 103.1 101.1 100.2 99.3 97.4 96.2 95.4 95 94.7 94.8 94.8 94.4 92.9 89.1 83.3 78.7 75.4 73.9 73.9 74.9 81 77.5 78.4 81.8 78.6 79.1 85.8 89.3 100.7 104.4 104.7 101.3 90.1 85.4 71.6 70.4 62.9 55.1 31 23.6 10.2 2.2 13.3 18.8 19.3 22.3 30.9 30.4 35.7 42.8 47.4 53 59.2 65 65.7 53.3 44.2 39.9 38.8 45.6 51.1 60.4 67.8 67.1 59.3 38 39.2
-1.7 -1.7 -1.7 -1.7 -1.7 -1.7 -1.7 -1.7 -1.7 -1.7 -1.7 -1.7 -1.7 -1.7 -1.7 -1.7 -1.7 -1.7 -1.7 -1.7 -1.7 -1.7 -1.7 -1.7 -1.7 -1.7 -1.7 -1.7 -1.7 -1.7 -1.7 -1.7 -1.7 -1.7 -1.7 -1.7 -1.7 -1.7 -1.7 -1.7 -1.7 -1.7 -1.7 -1.7 -1.7 -1.7 -1.7 -1.7 -1.7 -1.7 -1.7 -1.7 -1.7 -1.7 21.2 31.8 25.9 12.1 11.5 16.1 21 20.7 16.7 19.3 12.1 12.4 14.9 13 10.4 16.4 18.9 26.4 21.3 23.3 25.4 24.3 18.4 18.4 18.4 18.4 18.8 21.2 24 27.4 29.1 32.2 34.8 36.4 35 19.1 17.2 21.6 27.3 29 30.1 30.1 31.4 34.9 41.6 43.7 45.3 47.2 48.8 51.3 51.6 53.7 57.4 60.1 63.2 66.4 67.3 67.9 69.6 72.2 74.8 73.9 70.8 72.5 74.4 75.5 77.8 77.6 78.5 79.1 81 82 84.7 89.3 91 93.1 95.7 98.1 101.4 102 99.6 98.1 97.3 96.5 94.9 94.5 94 94.1 94 94.6 94.5 93.5 88.9 83.6 78.2 73.9 73.9 73.9 78.6 79.5 78.3 80.1 81.4 82.6 86.3 87.5 88.5 97 100.2 91.9 84.1 80.5 69.3 62.2 61.5 61.6 51.9 36.2 17.8 9.7 1.9 9.2 16.4 23.1 14.1 23.8 23.3 34.4 43.6 52.9 59.5 62.2 67 69.3 65.4 54.7 41.7 38.6 38 48.4 50.4 57.4 60.3 50.6 43.8 31.7
-1.7 -1.7 -1.7 -1.7 -1.7 -1.7 -1.7 -1.7 -1.7 -1.7 -1.7 -1.7 -1.7 -1.7 -1.7 -1.7 -1.7 -1.7 -1.7 -1.7 -1.7 -1.7 -1.7 -1.7 -1.7 -1.7 -1.7 -1.7 -1.7 -1.7 -1.7 -1.7 -1.7 -1.7 -1.7 -1.7 -1.7 -1.7 -1.7 -1.7 -1.7 -1.7 -1.7 -1.7 -1.7 -1.7 -1.7 -1.7 -1.7 -1.7 -1.7 -1.7 -1.7 -1.7 30.6 35.6 23.9 14.5 18.7 25.6 31.3 24.8 20 24.9 19.2 22.6 20 15.7 17.6 23.3 30.8 27.3 25.3 23.9 29.1 20.6 19.1 19.5 18.4 22.4 27 21.1 24.9 26.9 29.3 33.1 34.3 33.4 30.6 14.2 11.9 19.5 26.7 25.9 31.4 29.4 28.7 31.7 37.1 41.8 45.3 46.4 47.8 49.5 50.4 51.7 53.2 57 60.2 63.1 65.8 66.8 66.6 67.2 69.9 69.5 68.1 69.5 72.2 72.7 73.3 75 74.9 75.1 77.4 80.1 83.1 86.4 88.7 91 92.6 94.6 97.3 98.6 97.4 96.5 95.5 95.2 94.6 94 93.6 93.5 93.4 93 92.5 92.1 88.3 82.2 76.6 73.9 73.9 76 81.8 80.9 80 81 83.7 81.6 79.8 81.9 87 87.6 84.3 79.8 78 66.5 60.2 57.7 55.2 53.6 53.3 33.4 14 4.6 1.9 1.9 11.9 21.3 19.6 11.8 20.2 34.1 43.5 54.4 61.8 68.2 71.6 71.1 67.9 63.2 49.9 42 34.8 36.7 44.2 54.4 46.9 40.5 35.9 32.2
-1.7 -1.7 -1.7 -1.7 -1.7 -1.7 -1.7 -1.7 -1.7 -1.7 -1.7 -1.7 -1.7 -1.7 -1.7 -1.7 -1.7 -1.7 -1.7 -1.7 -1.7 -1.7 -1.7 -1.7 -1.7 -1.7 -1.7 -1.7 -1.7 -1.7 -1.7 -1.7 -1.7 -1.7 -1.7 -1.7 -1.7 -1.7 -1.7 -1.7 -1.7 -1.7 -1.7 -1.7 -1.7 -1.7 -1.7 -1.7 -1.7 -1.7 -1.7 -1.7 -1.7 -1.7 38 35.3 19.6 21.3 29.3 36.4 38.2 34.2 31.2 23.4 23.1 20.8 22.6 20.2 24 29 28.7 26.5 28.8 27.1 31.6 32.8 28.1 23.8 20.7 18.4 19.3 24.2 24.3 23.6 27.6 32.7 32.1 30.8 20.3 6.1 4.6 18 27.2 20.5 27.6 31.2 27.5 30.6 34.4 39.4 44.7 46.7 48.4 49.3 50.7 50.6 52.1 54 57.2 59.9 62.9 64.3 64.6 64.3 64.3 64.5 65.4 65.3 67 69.7 69.1 70.3 71.1 71.2 73.4 76.9 80.8 83.3 85.5 88.2 90 91.3 93 95.7 95.9 95.1 94.5 93.3 93.6 92.8 92.8 92.7 92.4 91 90.6 89.6 86.8 84.7 77.8 74.7 74.6 76.6 81.2 82.8 77.4 81.7 82.7 79.3 74.2 74.4 74.4 75.7 74.9 69.1 61.8 51.9 56.3 51.6 50 53.6 51.6 36.9 11.2 1.1 -1.7 -1.7 13 22.2 22.1 23.9 19.7 27.6 42.7 52.8 65.9 64.5 70.1 73.5 70.7 66.5 62.1 36 30.6 28.7 37.1 45.5 60.5 38.5 29.3 24.1
-1.7 -1.7 -1.7 -1.7 -1.7 -1.7 -1.7 -1.7 -1.7 -1.7 -1.7 -1.7 -1.7 -1.7 -1.7 -1.7 -1.7 -1.7 -1.7 -1.7 -1.7 -1.7 -1.7 -1.7 -1.7 -1.7 -1.7 -1.7 -1.7 -1.7 -1.7 -1.7 -1.7 -1.7 -1.7 -1.7 -1.7 -1.7 -1.7 -1.7 -1.7 -1.7 -1.7 -1.7 -1.7 -1.7 -1.7 -1.7 -1.7 -1.7 -1.7 -1.7 -1.7 27.6 41.5 28 19.7 31.7 39.8 45.3 48.6 41 31.1 27.9 24 24.7 23.3 23.2 27.1 30.6 29.5 33.8 34.2 33.9 38.6 37.8 36.1 26.2 26.6 18.4 18.4 19.8 22.3 21.7 24.8 25.7 27.7 26.2 14 2.8 2.8 14.1 20.6 16 19.5 27 25.6 29.3 32.4 37.5 43 46.6 48 50.1 50.5 50.2 52.1 53.5 54.8 56.9 59.2 61.4 62.4 62.8 62.1 62 62.2 62.8 63.7 64.6 66.6 68.7 68.3 68.4 70.1 74.5 78.2 80.5 82.7 85.8 87.4 89 89.6 91.6 93.1 92.8 92.4 92.1 91.3 91.4 91.8 91.3 90.4 89.2 89.5 85.3 84.2 83.5 77.2 76.9 72.7 73.8 76.5 74.5 72.2 71 71.7 68 64.4 62.1 60.4 57.9 57.1 53.9 48.4 41.1 41.7 39.4 45 43.7 38.4 29.7 9.3 1.1 -1.7 -1.7 13.1 20.6 29.2 17.4 12.8 16.1 37.2 50.8 57.7 58.8 66.7 67.6 67.9 62.6 55.5 32.7 22.3 25.6 23.6 33.8 51.4 47.2 28.5 25.9
-1.7 -1.7 -1.7 -1.7 -1.7 -1.7 -1.7 -1.7 -1.7 -1.7 -1.7 -1.7 -1.7 -1.7 -1.7 -1.7 -1.7 -1.7 -1.7 -1.7 -1.7 -1.7 -1.7 -1.7 -1.7 -1.7 -1.7 -1.7 -1.7 -1.7 -1.7 -1.7 -1.7 -1.7 -1.7 -1.7 -1.7 -1.7 -1.7 -1.7 -1.7 -1.7 -1.7 -1.7 -1.7 -1.7 -1.7 -1.7 -1.7 -1.7 -1.7 -1.7 -1.7 28.5 33.1 19.8 26.9 36.9 43.1 49.1 44.9 40.1 35.8 30.6 26.5 26.3 23.6 23.5 27.3 32.9 33.8 35 40.8 36.3 36.3 35 30.7 27.7 24.6 18.4 18.4 18.4 19.7 23.1 26.1 27.5 26 22.5 2.8 1.7 2.6 3.5 9.5 12.3 14.2 23 24.4 27.2 30.1 36 41.2 45.6 47.3 48.8 50 50.3 52.4 53.7 54.1 54.9 56.3 58.5 59.6 61.1 60.7 60 59.8 60.7 61.7 63.2 63.5 66.3 63.9 66.4 67.7 69.8 76.1 78.7 80.7 82.4 85.6 86.5 87.2 87.7 89.7 90.4 89.7 89.2 89.6 89.7 89.6 89.5 88.7 87.7 85.4 78.9 76 71 58.7 47.9 49 55 62.3 48 36.3 27.9 41 29.6 19.4 11.9 12.8 8.6 16.8 12.1 8.9 2.4 2.7 4.1 6.5 -1.7 -1.7 -1.7 1.3 -1.7 -1.7 -1.7 -1.7 -1.7 15.2 7.2 14 4.2 27.5 46.4 55.8 51.8 62.4 63.6 59.7 50.7 42.7 24.4 10 9.4 12.9 22.1 33.9 40.3 27.6 32.3
-1.7 -1.7 -1.7 -1.7 -1.7 -1.7 -1.7 -1.7 -1.7 -1.7 -1.7 -1.7 -1.7 -1.7 -1.7 -1.7 -1.7 -1.7 -1.7 -1.7 -1.7 -1.7 -1.7 -1.7 -1.7 -1.7 -1.7 -1.7 -1.7 -1.7 -1.7 -1.7 -1.7 -1.7 -1.7 -1.7 -1.7 -1.7 -1.7 -1.7 -1.7 -1.7 -1.7 -1.7 -1.7 -1.7 -1.7 -1.7 -1.7 -1.7 -1.7 -1.7 -1.7 -1.7 19.3 31.4 30.4 34.2 34.1 43.5 40.9 38.6 32 27.5 26.6 21.9 21.9 25.6 26.7 33.6 37.8 36.4 35.9 33.1 33.7 34.7 30.9 31 30.7 24.1 22.1 25.3 26.1 27.2 27.8 30.5 26.2 18.2 2.1 1.6 1.6 1.8 7.9 13.8 11.4 18.7 20.6 23.5 29 33.8 40.5 45.5 48.5 49.1 50.4 51.5 52.6 53.6 54.7 55.3 55.4 56.1 57.6 58.9 59.5 57.8 57.7 58.9 59.6 61.7 61.6 62.4 61.5 62.2 65 65.9 72.2 76.5 76.1 77 81.8 81.6 83.5 84.9 85.5 86.3 87.5 87.7 87.1 88.5 86.6 83.8 84.6 79.9 73.2 66.8 56.5 39.5 24.2 13.8 16.2 16.5 12.3 10.9 10.3 10 9.2 10.9 15.1 17.7 20.1 17 12.4 17.4 16.3 25.1 24.2 21.4 16.4 -1.7 -1.7 -1.7 -1.7 -1.7 -1.7 -1.7 -1.7 -1.7 -1.7 -1.7 -1.7 -1.7 11.6 35.1 47.6 44.3 45.8 48.2 44.3 37.6 26.4 10.3 3.1 -1.7 -1.7 -1.7 18.4 25.5 22.6 22.7
-1.7 -1.7 -1.7 -1.7 -1.7 -1.7 -1.7 -1.7 -1.7 -1.7 -1.7 -1.7 -1.7 -1.7 -1.7 -1.7 -1.7 -1.7 -1.7 -1.7 -1.7 -1.7 -1.7 -1.7 -1.7 -1.7 -1.7 -1.7 -1.7 -1.7 -1.7 -1.7 -1.7 -1.7 -1.7 -1.7 -1.7 -1.7 -1.7 -1.7 -1.7 -1.7 -1.7 -1.7 -1.7 -1.7 -1.7 -1.7 -1.7 -1.7 -1.7 -1.7 -1.7 -1.7 13 22.2 22.8 29.4 33.3 36.2 39.6 36.8 29.3 26.1 21.9 21.9 21.9 27.7 25.5 34.4 35 32.7 31.2 31.6 33 34 37.1 43.6 38.5 33.5 28 29.2 29.7 28.5 30.7 29.8 23.5 8.1 2.1 1.6 -1.7 3 7.1 9.5 9.8 18.4 22.8 23.2 27.6 33.1 40.7 45.8 50.1 51.4 52.2 53.1 53.8 54.3 55.2 55.3 55.3 54.5 55.8 56.3 58.1 56.6 56.3 56.5 58 59.7 60.3 61.3 60.9 58.2 57.1 61.3 63.8 70.4 69.3 70.4 74.3 77 79.7 82.5 82.7 82.4 71.8 73.1 65.5 73.9 68.5 59.1 73 69.5 66.5 64.5 58.1 37.2 15.1 11.4 12.1 10.9 10.7 19.5 26.1 32.7 41.7 49.3 52.6 65.4 77.5 66.9 70.8 71.6 68.1 65.5 57.9 47.5 46.2 35.5 32.2 17.5 10 -1.7 -1.7 -1.7 -1.7 -1.7 -1.7 -1.7 -1.7 -1.7 -1.7 -1.7 23.9 28.9 28 27.3 27 27.7 17.6 9.5 2.5 -1.7 -1.7 -1.7 -1.7 18.3 16.2 21.2
-1.7 -1.7 -1.7 -1.7 -1.7 -1.7 -1.7 -1.7 -1.7 -1.7 -1.7 -1.7 -1.7 -1.7 -1.7 -1.7 -1.7 -1.7 -1.7 -1.7 -1.7 -1.7 -1.7 -1.7 -1.7 -1.7 -1.7 -1.7 -1.7 -1.7 -1.7 -1.7 -1.7 -1.7 -1.7 -1.7 -1.7 -1.7 -1.7 -1.7 -1.7 -1.7 -1.7 -1.7 -1.7 -1.7 -1.7 -1.7 -1.7 -1.7 -1.7 -1.7 -1.7 -1.7 13.1 15.9 17.7 26.2 32.8 36 33.4 31.8 25.8 26.9 21.9 21.9 21.9 22 27.9 33.3 32.8 35.2 30.6 33 36.2 40.9 41.9 44.3 39.4 37.1 39.2 31.2 31 32.4 30.5 27.4 18.2 1.7 1.9 -1.7 -1.7 9.2 8.4 6.4 8 16.2 24.3 25.4 27.4 33.4 41.1 46.5 50.9 53.3 53.3 54.2 54.4 54.5 55.2 56 55 53.6 54.4 53.8 54.9 56.2 54.1 54.8 56.2 57.6 58.9 59.9 61 59.4 55.3 50.8 53.2 59.6 59 51.2 56.7 68.7 72.7 72.4 62.4 48.5 37.2 29.9 31 29.4 37.1 50.2 66.3 66.9 64.8 63.7 56 18.5 12.3 15.2 20.7 22.5 34.9 52.1 48.7 48.7 53.1 61.3 66.8 73.7 82.1 82.5 76.4 80.6 76.2 69.2 59.9 47.9 56.7 42.8 41.7 22.4 10.4 3 -1.7 -1.7 -1.7 -1.7 -1.7 -1.7 -1.7 -1.7 -1.7 -1.7 9.1 15.5 12.2 17.3 20.8 19.1 15.9 10 1.6 -1.7 -1.7 -1.7 -1.7 -1.7 -1.7 -1.7
-1.7 -1.7 -1.7 -1.7 -1.7 -1.7 -1.7 -1.7 -1.7 -1.7 -1.7 -1.7 -1.7 -1.7 -1.7 -1.7 -1.7 -1.7 -1.7 -1.7 -1.7 -1.7 -1.7 -1.7 -1.7 -1.7 -1.7 -1.7 -1.7 -1.7 -1.7 -1.7 -1.7 -1.7 -1.7 -1.7 -1.7 -1.7 -1.7 -1.7 -1.7 -1.7 -1.7 -1.7 -1.7 -1.7 -1.7 -1.7 -1.7 -1.7 -1.7 -1.7 -1.7 -1.7 -1.7 11.4 16.6 25.4 35.3 36.5 30.6 29.2 29.2 27.7 28.9 25.5 21.9 21.9 31.5 33.1 32.1 29.7 29.1 32.8 37.8 41.2 42.5 43.5 41.1 37.2 38.7 36 32.8 32.4 30.4 20.5 7.7 1.9 0.4 -1.7 1.7 9.6 5 2.4 11.8 14.7 25.6 27.9 28.7 34.4 40 46.3 50.8 54.1 54.5 54.9 55 55.1 55.2 55 53.6 52.1 51.2 51.9 52.8 54.2 54.5 52.8 54.1 55.5 56.9 58.1 59.1 60.9 58 50.8 48.4 41.4 32 31.8 32.5 54.6 58.8 49.5 37.5 29.1 28 28 27.6 28.3 29.7 31.5 56.5 66.3 66 59.3 28.7 21.8 42.8 41.5 51.5 57.2 60.6 56.4 56.4 54.9 63.2 70.8 74.7 75.7 75.5 83.6 81 80.9 77.3 75.4 67.8 55.5 57.8 52.4 42.6 29.4 16.6 11.2 3.4 2.6 -1.7 -1.7 -1.7 -1.7 -1.7 -1.7 -1.7 -1.7 -1.7 -1.7 5.3 9.2 14.3 16 14 9.5 -1.7 -1.7 -1.7 -1.7 -1.7 -1.7 -1.7 -1.7
-1.7 -1.7 -1.7 -1.7 -1.7 -1.7 -1.7 -1.7 -1.7 -1.7 -1.7 -1.7 -1.7 -1.7 -1.7 -1.7 -1.7 -1.7 -1.7 -1.7 -1.7 -1.7 -1.7 -1.7 -1.7 -1.7 -1.7 -1.7 -1.7 -1.7 -1.7 -1.7 -1.7 -1.7 -1.7 -1.7 -1.7 -1.7 -1.7 -1.7 -1.7 -1.7 -1.7 -1.7 -1.7 -1.7 -1.7 -1.7 -1.7 -1.7 -1.7 -1.7 -1.7 -1.7 -1.7 6.5 19.9 24.6 33.1 32.4 26.8 26.5 26.8 26.1 31 25.2 24 26.8 33 33.6 30.4 28.4 27.8 28.9 35.7 39 40.8 40.5 39.5 38.9 41.3 41.3 38.5 26.7 23.8 14.4 1.8 1.2 -1.7 -1.7 2.5 1.7 1.9 2.4 20 18.8 26 33.5 33.4 34.2 39.9 44.3 51.4 53 54.6 55.3 55.8 55.9 55.1 54.3 53.5 50.5 49.2 50.4 48.5 50.5 54.3 52.8 51.1 53.6 54.6 55.8 55.3 61.1 56.1 34.4 33.9 40.1 46 30.5 30.5 46 40.5 29.9 28.4 28.7 31.4 36.9 43.2 36 27.9 27.7 27.7 51.6 59.4 28 24 60.2 68.6 71.5 72 68.5 61.6 61.7 62 61.5 67.7 75 76.2 76.5 76.7 83.3 85.4 89.2 82.6 81.1 69.1 68.5 63.3 57.4 51.6 40 31.3 13.9 9.1 10.4 8.7 5.7 9.3 13.7 15.1 10.9 -1.7 -1.7 -1.7 -1.7 -1.7 3.5 8.4 12.1 11.5 7.8 -1.7 -1.7 -1.7 -1.7 -1.7 -1.7 -1.7 -1.7
-1.7 -1.7 -1.7 -1.7 -1.7 -1.7 -1.7 -1.7 -1.7 -1.7 -1.7 -1.7 -1.7 -1.7 -1.7 -1.7 -1.7 -1.7 -1.7 -1.7 -1.7 -1.7 -1.7 -1.7 -1.7 -1.7 -1.7 -1.7 -1.7 -1.7 -1.7 -1.7 -1.7 -1.7 -1.7 -1.7 -1.7 -1.7 -1.7 -1.7 -1.7 -1.7 -1.7 -1.7 -1.7 -1.7 -1.7 -1.7 -1.7 -1.7 -1.7 20.5 30.4 30.5 9 6.8 17 20.8 26.6 25.7 26.6 29.5 26.7 23.6 26.3 26.3 23.9 29.6 30.9 28.6 27.8 27.8 27.8 28.3 33.7 38.3 38.5 37.6 36.9 40.4 42.8 42.8 38.9 34.5 20.3 8.4 1.6 0.2 -1.7 0.6 1.9 -1.7 3.2 8.1 21.5 27.5 26.2 35.1 37.9 36.5 38.6 42.3 49.8 51 53.6 55 55.6 55.4 54.5 54.1 51 48.7 45.2 44.3 42.7 44 50.3 48.3 47.1 51.9 52.5 49.8 43 39.4 37 41.7 50.7 49.8 52.9 37 29.2 31.5 28.9 29.6 46.8 58.3 60.6 64 61.6 58.3 56.3 52.8 30.1 26.7 25.9 24.6 29.1 67.2 69.8 72.6 73 67.1 64.1 63.5 64.4 69.2 74.7 79.1 81.6 78.8 80.6 91.1 91 91.6 85.4 78.3 69.1 70.1 71.1 72 62.7 51.5 40.5 22.7 12.3 22 24.6 20.8 17.1 21.6 24.2 14.9 -1.7 -1.7 -1.7 -1.7 -1.7 -1.7 5.2 10.3 10 7.8 2.2 -1.7 -1.7 -1.7 -1.7 -1.7 -1.7 -1.7
-1.7 -1.7 -1.7 -1.7 -1.7 -1.7 -1.7 -1.7 -1.7 -1.7 -1.7 -1.7 -1.7 -1.7 -1.7 -1.7 -1.7 -1.7 -1.7 -1.7 -1.7 -1.7 -1.7 -1.7 -1.7 -1.7 -1.7 -1.7 -1.7 -1.7 -1.7 -1.7 -1.7 -1.7 -1.7 -1.7 -1.7 -1.7 -1.7 -1.7 -1.7 -1.7 -1.7 -1.7 -1.7 -1.7 -1.7 -1.7 -1.7 -1.7 -1.7 31.6 33.7 31.6 26.9 13.7 5.9 11.6 22.7 24.8 25.4 23 19.7 24.1 23.1 22.7 30.7 31.6 28.8 27.8 28.2 28.3 28.3 27.8 32.6 35.8 36.6 35.1 36 38.2 42.5 41 39 33.2 15.3 2.2 1.1 -0.2 -1.7 -1.7 -1.7 -1.7 11.3 18.5 22.5 28.9 30.6 35.6 39.7 37.3 38.1 39.3 44.1 47.3 51.4 53.6 53.7 54.4 54.7 51.9 49.3 45.3 42.3 40.8 38.3 37.7 37.5 37.9 45.1 41 42 44.7 51 54.7 52.5 55.9 55.5 49.7 52.5 30.3 29.6 29.4 41.6 62.7 63 62.4 63 65.1 61.6 60.4 55.1 61 45.1 41.5 59.4 54.5 64.4 69.9 74.8 75.3 69.4 69.7 69.1 68.3 72.2 77.2 81.3 88.2 87.3 86.1 87.6 89.8 92.4 98.2 88.9 79.1 78.3 78.6 80.7 73.9 60.5 55 40.5 29.9 23.8 26.6 31.7 33.7 32.4 29.7 24.4 19.5 -1.7 -1.7 -1.7 -1.7 -1.7 -1.7 -1.7 9.8 8.6 6.9 1.9 -1.7 -1.7 -1.7 -1.7 -1.7 -1.7 -1.7
-1.7 -1.7 -1.7 -1.7 -1.7 -1.7 -1.7 -1.7 -1.7 -1.7 -1.7 -1.7 -1.7 -1.7 -1.7 -1.7 -1.7 -1.7 -1.7 -1.7 -1.7 -1.7 -1.7 -1.7 -1.7 -1.7 -1.7 -1.7 -1.7 -1.7 -1.7 -1.7 -1.7 -1.7 -1.7 -1.7 -1.7 -1.7 -1.7 -1.7 -1.7 -1.7 -1.7 -1.7 -1.7 -1.7 -1.7 -1.7 9.2 -1.7 -1.7 31.1 33 31 23.5 9.6 3.9 5.5 15.7 19.9 20.2 18.3 19.6 19.5 20 19.4 24.5 27.9 28.6 28.9 29.5 29.5 27.6 27.7 29.4 33.3 32.9 34 35.5 36.6 37.8 36 37.8 25.4 10 1.6 0.5 -0.6 -1.7 -1.7 2.7 8.3 18.3 25.1 26.8 31.4 33.6 36 41 38.2 35 35.4 41.8 45.4 48.6 52.5 52.3 50.8 50.1 48.8 46.8 43.5 38.5 39.9 37.7 34 33.4 33.9 35.9 38.8 42.1 48.6 52.9 57.3 59.4 60.8 55.5 38.4 36.5 47.6 61.2 34.6 58.8 60.2 61.8 62.9 63 63.7 62.7 59.7 58.9 62.8 65.9 68.5 68.5 67 69.8 73.2 80.4 80.4 74.8 75.8 73.7 71.5 75.7 80.1 87.8 96.2 99.8 101 102.9 103.8 102.2 101.5 100.1 92.8 79.3 82.6 82.2 68.9 61.4 57.3 43.3 30.1 25.8 26.2 42.5 36.4 27.3 28.3 28.8 19.5 10.6 -1.7 -1.7 -1.7 -1.7 -1.7 -1.7 9.2 7.1 5.1 1.8 -1.7 -1.7 -1.7 -1.7 -1.7 -1.7 -1.7
-1.7 -1.7 -1.7 -1.7 -1.7 -1.7 -1.7 -1.7 -1.7 -1.7 -1.7 -1.7 -1.7 -1.7 -1.7 -1.7 -1.7 -1.7 -1.7 -1.7 -1.7 -1.7 -1.7 -1.7 -1.7 -1.7 -1.7 -1.7 -1.7 -1.7 -1.7 -1.7 -1.7 -1.7 -1.7 -1.7 -1.7 -1.7 -1.7 -1.7 -1.7 -1.7 -1.7 -1.7 -1.7 -1.7 -1.7 -1.7 -1.7 -1.7 -1.7 19.7 24.1 -1.7 -1.7 5.4 5.1 10.8 7.8 14.8 15.9 14.3 18.9 20.9 21 19.4 24.8 26.7 30.5 30.8 29.8 29.1 31.4 30.1 27.5 30.4 31.8 33.4 34.1 32.9 31.7 34.6 31.6 20.6 4.5 1.2 0.1 -1.7 -1.7 0.1 2.8 9.2 20.8 23.3 31.4 33.5 35.5 36.1 36.6 35.2 32.2 32.2 40.4 43.2 47.3 48.8 48.5 47.3 46.1 45.1 43.8 38.1 35.1 35.1 39.9 34.4 32 32.4 35.5 38.4 43.6 48.8 53.2 58.4 60.7 62.2 54.5 45.9 54 59.7 62.8 54.5 55.8 58.6 62.3 64.8 64.9 63.1 60.4 59.8 60.9 62.8 66.5 68.7 68.8 67.5 72.2 75.5 83 85.3 84.4 80.1 75.7 72.8 75.6 83.8 92.6 102.2 107.2 112.2 115.3 114 110.5 108.8 103.3 97.8 84.5 82.7 77.4 70.7 58.8 57.5 46.7 37.1 28.7 36.6 38.5 35.3 33 33.6 34.3 25.1 23.3 26 -1.7 -1.7 -1.7 -1.7 -1.7 6.9 7 4.6 1.8 -1.7 -1.7 -1.7 -1.7 -1.7 -1.7 -1.7
-1.7 -1.7 -1.7 -1.7 -1.7 -1.7 -1.7 -1.7 -1.7 -1.7 -1.7 -1.7 -1.7 -1.7 -1.7 -1.7 -1.7 -1.7 -1.7 -1.7 -1.7 -1.7 -1.7 -1.7 -1.7 -1.7 -1.7 -1.7 -1.7 -1.7 -1.7 -1.7 -1.7 -1.7 -1.7 -1.7 -1.7 -1.7 -1.7 -1.7 -1.7 -1.7 -1.7 -1.7 -1.7 -1.7 -1.7 -1.7 -1.7 -1.7 -1.7 0.9 1.8 -1.7 -1.7 -1.7 9.9 8.3 9.9 8.6 10.8 12.7 16.3 19 17.4 20.7 25.5 28.9 32.5 31 31.4 29.2 28.9 29.7 27.2 31.4 33.4 32.6 34.3 31 30.5 28.4 26.4 20.1 1.9 0.9 -0.2 -1.7 -1.7 0.4 1.7 9.5 15.5 23.6 33.2 40.4 34.3 37.8 35.7 32.5 26.9 30.6 35.7 39.5 45.9 47.2 43.9 42 40.8 39 36.7 34.1 31 32.9 37.7 37.7 31 31.9 35.3 37.6 44.2 48.6 52.9 58.9 61.5 62.9 63.7 59.2 55 60.4 55.4 56 58.1 60.2 63.2 66.7 67.2 63.9 60.4 62.7 62.8 63.2 66.8 68.9 68.6 70 75.5 79.1 83.1 90.5 90.4 92 86.9 79 86.5 93.5 100.9 106.8 117 126.3 127 122.6 118.1 116.9 106 98.5 87.5 83.8 78.3 73.4 68.7 58.4 44.5 37.1 34.8 39.5 43.4 47.8 52.5 53.6 43.5 28.8 28.1 32 17.5 -1.7 -1.7 -1.7 -1.7 2.9 7.6 5.1 1.6 -1.7 -1.7 -1.7 -1.7 -1.7 -1.7 -1.7
-1.7 -1.7 -1.7 -1.7 -1.7 -1.7 -1.7 -1.7 -1.7 -1.7 -1.7 -1.7 -1.7 -1.7 -1.7 -1.7 -1.7 -1.7 -1.7 -1.7 -1.7 -1.7 -1.7 -1.7 -1.7 -1.7 -1.7 -1.7 -1.7 -1.7 -1.7 -1.7 -1.7 -1.7 -1.7 -1.7 -1.7 -1.7 -1.7 -1.7 -1.7 -1.7 -1.7 -1.7 -1.7 -1.7 -1.7 -1.7 5.1 -1.7 -1.7 -1.7 -1.7 -1.7 -1.7 -1.7 -1.7 -1.7 -1.7 11.3 6.3 12.5 12.6 12 12.7 20.3 30 31.1 30.9 27.9 28.4 31.2 32.7 30.3 26.7 29 32.6 35.2 32.6 31.8 26.6 26.4 20.3 15.7 1.6 0.4 -0.7 -1.7 -1.7 0.1 1.4 4.1 15.6 22.2 35.1 29.7 33.3 37.4 33.6 24.8 21.3 29.1 33.7 36.4 41.1 38 35.7 35.7 32.8 30.2 27.4 30.9 29.3 30.7 31.5 30.2 33.2 33.6 35.2 37.9 44.5 48.5 52.1 58.7 62.4 62.5 63.9 59.6 57.4 55.8 55.4 58.1 59.2 60.2 64.8 67.7 69.1 60.8 60.4 63.8 60.4 63.6 66.8 70 71.9 73.2 77.6 82.3 88.1 94 96.7 101.1 97 96.5 94.5 103.5 108.1 118.6 131.6 135.3 131.2 126.2 125.1 118.6 108 101.6 91.8 88.9 74.2 72.3 62.5 54.8 62.4 46.1 51.7 45.8 48.3 58.1 57.7 54.6 41.2 34.9 27.4 23.4 25.2 24 -1.7 -1.7 -1.7 -1.7 6.4 5.3 -1.7 -1.7 -1.7 -1.7 -1.7 -1.7 -1.7 -1.7
-1.7 -1.7 -1.7 -1.7 -1.7 -1.7 -1.7 -1.7 -1.7 -1.7 -1.7 -1.7 -1.7 -1.7 -1.7 -1.7 -1.7 -1.7 -1.7 -1.7 -1.7 -1.7 -1.7 -1.7 -1.7 -1.7 -1.7 -1.7 -1.7 -1.7 -1.7 -1.7 -1.7 -1.7 -1.7 -1.7 -1.7 -1.7 -1.7 -1.7 -1.7 -1.7 -1.7 -1.7 -1.7 -1.7 -1.7 -1.7 -1.7 -1.7 -1.7 -1.7 -1.7 -1.7 -1.7 -1.7 -1.7 -1.7 -1.7 -1.7 -1.7 -1.7 2.5 6.2 13.2 22.4 31.4 30.4 26.1 23.9 25.5 27.2 30.6 28.2 26.7 27.6 30.4 30.9 29.3 26.4 26.1 25 16.5 10 1.3 0.1 -1.1 -1.7 -0.6 0.5 1.6 7.9 13.5 20.9 22.6 24.9 28.4 34.7 24.2 17.7 17.9 27.5 32.8 31.6 29.6 23.4 22.7 27 29 24.6 23.1 27 27.1 27.9 28.2 32.6 36.8 39.1 36.3 37.7 44 49.6 53.8 56.3 59.4 62.6 61.9 60.3 57.2 55.3 58 61.8 62.5 62.2 64.6 66.4 64.6 60.4 60.4 61 60.5 65.2 68.2 70.6 73.8 78.1 82 85 91.7 97.8 103 106.6 106.7 107.4 106.8 108.8 115.5 126.3 138.5 137.4 135.4 130.9 129.4 117.6 109.6 102.3 92.1 77.9 72.7 71.5 75.4 72.3 72.2 60.8 68.6 55.3 58.4 59.4 52 53.3 37.6 28.8 25.5 25.7 27.9 23.9 19.8 -1.7 -1.7 -1.7 2.5 4.8 -1.7 -1.7 -1.7 -1.7 -1.7 -1.7 -1.7 -1.7
-1.7 -1.7 -1.7 -1.7 -1.7 -1.7 -1.7 -1.7 -1.7 -1.7 -1.7 -1.7 -1.7 -1.7 -1.7 -1.7 -1.7 -1.7 -1.7 -1.7 -1.7 -1.7 -1.7 -1.7 -1.7 -1.7 -1.7 -1.7 -1.7 -1.7 -1.7 -1.7 -1.7 -1.7 -1.7 -1.7 -1.7 -1.7 -1.7 -1.7 -1.7 -1.7 -1.7 -1.7 -1.7 -1.7 -1.7 -1.7 -1.7 -1.7 -1.7 -1.7 -1.7 -1.7 -1.7 -1.7 -1.7 -1.7 -1.7 0.6 -1.7 -1.7 -1.7 -1.7 -1.7 17 15.7 24.6 21.1 20.2 21.2 22.2 25.7 24.3 27 27.2 26.9 27.8 23.4 25.8 26.3 20.9 16.2 2.8 1.3 0.1 -1.1 -1.7 -0.4 0.7 1.8 8.2 11.3 15.3 17.5 18.9 18.9 16.9 14.4 12.4 15.7 20.9 27.3 20.6 12.8 13.9 15.5 16.3 18.4 15.7 21.6 26.5 26 25.9 28.8 32.9 35 44 40.2 39.7 44.6 50.9 53.8 57.5 58.5 60.6 59.5 57.8 56.1 56.5 59.9 63.8 64.8 64.4 65.3 67.7 67.3 64.1 60.4 60.4 60.7 65 68.5 72.8 76.4 81.8 83.8 89.1 95.3 102.3 111.2 115.6 115.8 114.6 117.4 114.6 122.3 126.1 141.5 137.6 138.2 132.8 125.2 113.8 110 93.2 83.5 80 75.2 83.2 79.9 73.9 67.3 73.1 65.8 55.2 49.7 47.9 42.6 40 36.8 30.6 32.7 27.3 23.4 18.9 13.8 -1.7 -1.7 -1.7 -1.7 1.9 -1.7 -1.7 -1.7 -1.7 -1.7 -1.7 -1.7 -1.7
-1.7 -1.7 -1.7 -1.7 -1.7 -1.7 -1.7 -1.7 -1.7 -1.7 -1.7 -1.7 -1.7 -1.7 -1.7 -1.7 -1.7 -1.7 -1.7 -1.7 -1.7 -1.7 -1.7 -1.7 -1.7 -1.7 -1.7 -1.7 -1.7 -1.7 -1.7 -1.7 -1.7 -1.7 -1.7 -1.7 -1.7 -1.7 -1.7 -1.7 -1.7 -1.7 -1.7 -1.7 -1.7 -1.7 -1.7 -1.7 -1.7 -1.7 -1.7 -1.7 -1.7 -1.7 -1.7 -1.7 -1.7 -1.7 -1.7 -1.7 -1.7 -1.7 -1.7 -1.7 -1.7 -1.7 -1.7 -1.7 9.5 12.2 12.8 15.3 20.6 24 28.6 25.8 19.6 18.5 20.4 22.7 23.8 23.8 15.8 2.1 1.1 -0.1 -1.7 -1.7 -0.2 0.7 1.7 8.8 10.6 12.8 14.6 8.3 9.5 10.5 5.1 12.3 11.8 12.8 11.7 5.8 6 8.7 11.6 10.6 12.5 13.9 16.5 24.7 24.4 21.6 27.1 34.7 39.8 42.9 40.8 41.3 45.2 51.5 55.2 58.2 59.6 58.4 57.1 56.4 55.7 58.6 62.6 65.9 66.7 66.4 67 67.3 65.8 60.4 60.4 60.4 60.4 65.6 70.8 77.3 80.1 80.8 84.9 92.3 99.8 107.1 115.3 121 124.1 122.1 126.5 125.4 123.4 127.1 129.8 136.8 135.6 130.9 121.2 105.6 98.9 85.9 90.2 89.9 78 77.4 76.1 72.7 73.2 73.1 78.7 73 58 50.5 46.9 41.4 44.5 34.1 29 28.2 20.7 16.6 13.6 9.8 -1.7 -1.7 -1.7 -1.7 -1.7 -1.7 -1.7 -1.7 -1.7 -1.7 -1.7 -1.7
-1.7 -1.7 -1.7 -1.7 -1.7 -1.7 -1.7 -1.7 -1.7 -1.7 -1.7 -1.7 -1.7 -1.7 -1.7 -1.7 -1.7 -1.7 -1.7 -1.7 -1.7 -1.7 -1.7 -1.7 -1.7 -1.7 -1.7 -1.7 -1.7 -1.7 -1.7 -1.7 -1.7 -1.7 -1.7 -1.7 -1.7 -1.7 -1.7 -1.7 -1.7 -1.7 -1.7 -1.7 -1.7 -1.7 -1.7 -1.7 -1.7 -1.7 -1.7 -1.7 -1.7 -1.7 -1.7 -1.7 -1.7 -1.7 -1.7 -1.7 -1.7 -1.7 -1.7 -1.7 -1.7 -1.7 -1.7 -1.7 -1.7 7.6 10.3 10.3 16.2 19.6 23.6 20.2 16.2 25.3 21.7 20.1 19.4 22.9 13.9 2.7 1.4 0.1 -1.7 -1.7 0.8 1.7 1.9 6.3 7.7 1.7 1.4 1.9 -1.7 -1.7 -1.7 8.8 9.8 4.7 4.2 3 3.3 4.9 6.3 13.3 14.9 15.6 15.7 18.7 19.5 19.7 26.3 36.8 41.7 45.4 47.1 46.9 46 49.7 54.1 56.3 60.8 56.3 57.2 55.9 58.7 60.8 63.8 67.1 68.8 69.4 68.3 67.5 61.2 60.4 60.4 60.4 60.8 68.2 74.8 80.1 80.4 81.6 87.1 91.8 102.4 109.2 117.4 125.2 133.9 129.5 129.2 127.3 121.8 123.8 129.4 133.7 132.7 127 113.2 104.9 98.8 98.4 99.5 98.9 88.3 82 80.6 81.5 83.2 91.6 84.2 75.8 69.6 60.9 51 44.2 37.8 28.9 27.2 27.2 29.7 34.9 21.8 21.3 -1.7 -1.7 -1.7 -1.7 -1.7 -1.7 -1.7 -1.7 -1.7 -1.7 -1.7 -1.7
-1.7 -1.7 -1.7 -1.7 -1.7 -1.7 -1.7 -1.7 -1.7 -1.7 -1.7 -1.7 -1.7 -1.7 -1.7 -1.7 -1.7 -1.7 -1.7 -1.7 -1.7 -1.7 -1.7 -1.7 -1.7 -1.7 -1.7 -1.7 -1.7 -1.7 -1.7 -1.7 -1.7 -1.7 -1.7 -1.7 -1.7 -1.7 -1.7 -1.7 -1.7 -1.7 -1.7 -1.7 -1.7 -1.7 -1.7 -1.7 -1.7 -1.7 -1.7 -1.7 -1.7 -1.7 -1.7 -1.7 -1.7 -1.7 -1.7 -1.7 -1.7 -1.7 -1.7 -1.7 -1.7 -1.7 -1.7 -1.7 -1.7 1.7 7.5 6.6 7.2 12.1 12 13.8 15 19.8 19.1 18 19.7 22.4 14.2 10.1 5 1.1 -1.7 -1.7 1.8 1.9 1.9 12.3 -1.7 -1.7 -1.7 -1.7 -1.7 -1.7 -1.7 3.1 3.4 3.6 2.8 2.3 2.7 3 8.4 12.9 15.8 18.6 19.5 19.1 19.2 21.9 29 38.7 43.8 47 48.2 50.4 47.8 49.2 52.4 55.9 55.6 56.1 56.3 59.1 60.9 62 64.8 68.2 70.7 71.6 71.8 68.7 65.4 60.4 60.4 60.4 64.8 69.1 75.1 79.6 81.5 83.8 89.2 92.2 100.9 112.4 122.3 128.5 135.7 131.5 132.7 131.5 127.5 124.2 127.3 128.9 122.7 115.9 109.4 105.6 104.4 104.3 103.3 99.7 92.7 85.3 86.6 87 89.7 86.8 82.6 79.3 66.1 50.8 40.6 39 36.2 28.8 27.2 28.4 35.2 31.4 28.5 29.3 21.8 -1.7 -1.7 -1.7 -1.7 -1.7 -1.7 -1.7 -1.7 -1.7 -1.7 -1.7
-1.7 -1.7 -1.7 -1.7 -1.7 -1.7 -1.7 -1.7 -1.7 -1.7 -1.7 -1.7 -1.7 -1.7 -1.7 -1.7 -1.7 -1.7 -1.7 -1.7 -1.7 -1.7 -1.7 -1.7 -1.7 -1.7 -1.7 -1.7 -1.7 -1.7 -1.7 -1.7 -1.7 -1.7 -1.7 -1.7 -1.7 -1.7 -1.7 -1.7 -1.7 -1.7 -1.7 -1.7 -1.7 -1.7 -1.7 -1.7 -1.7 -1.7 -1.7 -1.7 -1.7 -1.7 -1.7 -1.7 -1.7 -1.7 -1.7 -1.7 -1.7 -1.7 -1.7 -1.7 -1.7 -1.7 -1.7 -1.7 -1.7 -1.7 -1.7 -1.7 -1.7 9.5 12.9 14.1 14.6 19.7 23.9 17.7 20.1 19.6 17.7 17.4 11.4 3.8 0.5 -1.7 0.8 3.6 4.2 -1.7 -1.7 -1.7 -1.7 -1.7 -1.7 -1.7 -1.7 2.5 11.3 5.8 2.5 1.7 2.1 2.4 5.4 11.4 18.4 22.2 24 25 26 27.9 31.9 37.3 46.4 45.8 47.7 51.1 51.2 49.1 53.6 55.2 58.1 56.3 56.9 59.8 61.2 62.6 66.2 69.1 71.5 73.7 74.5 71.7 66.6 63.3 60.4 66.7 67.6 71.5 78.3 79.1 79.8 84 87.7 91 99.2 113.9 123.5 124.8 128 132.6 132.2 131.9 128.4 125.8 124.8 123.3 122.3 116.2 113.8 111.8 110.1 110.4 109.4 103.8 99.5 90.6 90.2 89.3 83.3 78.9 77.2 72.5 66.1 46.3 46.9 48.1 33.6 32.4 29.2 27.6 32.7 29.4 31.1 24.7 24.8 -1.7 -1.7 -1.7 -1.7 -1.7 -1.7 -1.7 -1.7 -1.7 -1.7 -1.7
-1.7 -1.7 -1.7 -1.7 -1.7 -1.7 -1.7 -1.7 -1.7 -1.7 -1.7 -1.7 -1.7 -1.7 -1.7 -1.7 -1.7 -1.7 -1.7 -1.7 -1.7 -1.7 -1.7 -1.7 -1.7 -1.7 -1.7 -1.7 -1.7 -1.7 -1.7 -1.7 -1.7 -1.7 -1.7 -1.7 -1.7 -1.7 -1.7 -1.7 -1.7 -1.7 -1.7 -1.7 -1.7 -1.7 -1.7 -1.7 -1.7 -1.7 -1.7 -1.7 -1.7 -1.7 -1.7 -1.7 -1.7 -1.7 -1.7 -1.7 -1.7 -1.7 -1.7 -1.7 -1.7 -1.7 -1.7 -1.7 -1.7 -1.7 -1.7 -1.7 -1.7 14.3 17.4 16.4 17.5 19.2 18 17.8 18.5 16.5 20.2 20.2 17.5 10.7 1.4 -1.7 0.1 6.8 14.1 -1.7 -1.7 -1.7 -1.7 -1.7 -1.7 -1.7 -1.7 9.8 14.8 12.8 6.5 1.6 1.7 1.8 4.1 9.7 20.2 25.8 29.2 31.1 33.7 32.6 34.1 37.2 41.5 45.6 51.2 50.5 49.2 50.9 53.5 53.8 55.9 58.5 57.5 59.2 60.9 63.7 66.7 69.2 72.4 77.1 76.5 76.6 68.8 67.5 64 68.7 72.2 69.7 73.6 78.5 80.9 85.4 87.2 91.6 98.8 106.5 112.6 118.1 122.1 128.2 130.5 131.2 131.8 129.3 130 128.4 126.4 124.7 125.3 118.3 117 114.1 111.3 108.1 100.8 96 93.3 88 84.1 80.1 77.5 74.1 62.1 47.2 47.7 39.3 35.8 33.4 30 29.2 27.8 28.5 25.7 22.1 17.8 8.2 -1.7 -1.7 -1.7 -1.7 -1.7 -1.7 -1.7 -1.7 -1.7 -1.7
-1.7 -1.7 -1.7 -1.7 -1.7 -1.7 -1.7 -1.7 -1.7 -1.7 -1.7 -1.7 -1.7 -1.7 -1.7 -1.7 -1.7 -1.7 -1.7 -1.7 -1.7 -1.7 -1.7 -1.7 -1.7 -1.7 -1.7 -1.7 -1.7 -1.7 -1.7 -1.7 -1.7 -1.7 -1.7 -1.7 -1.7 -1.7 -1.7 -1.7 -1.7 -1.7 -1.7 -1.7 -1.7 -1.7 -1.7 -1.7 -1.7 -1.7 -1.7 -1.7 -1.7 -1.7 -1.7 -1.7 -1.7 -1.7 -1.7 -1.7 -1.7 -1.7 -1.7 -1.7 -1.7 -1.7 -1.7 -1.7 -1.7 -1.7 -1.7 -1.7 1.3 13.8 24.6 28.3 31.6 25 19.4 18.3 18.9 13.8 19.5 20.3 14.9 11.2 3.6 -1.7 0 1.6 7.8 -1.7 -1.7 -1.7 -1.7 -1.7 -1.7 -1.7 -1.7 13 15.6 14.7 12.9 1.4 1.6 1.3 4 10.7 20.6 30.2 35.6 37.2 38.5 38.4 40.2 38.4 42.6 46.5 51.5 50.1 52.6 50.8 55.3 53.3 56.8 57.8 58.9 59.9 62.2 63.7 67.6 68.9 72.6 77.6 77.3 74.2 70.5 71.5 67 73 77.5 71.8 69.6 76.1 80.3 85 91 91.1 100.7 106.5 112.4 115.8 121.6 126.1 129.5 132.5 135.7 135.4 135.4 129.5 128.3 133.4 128.7 126.9 121.8 117.4 115.1 110 103.7 100.8 97.3 93.8 90.3 84.9 78.2 69.8 56 46.4 47 46.7 46.6 35.4 32.5 33.1 30.2 28.3 24.8 20 15.4 -1.7 -1.7 -1.7 -1.7 -1.7 -1.7 -1.7 -1.7 -1.7 -1.7 -1.7
-1.7 -1.7 -1.7 -1.7 -1.7 -1.7 -1.7 -1.7 -1.7 -1.7 -1.7 -1.7 -1.7 -1.7 -1.7 -1.7 -1.7 -1.7 -1.7 -1.7 -1.7 -1.7 -1.7 -1.7 -1.7 -1.7 -1.7 -1.7 1.9 -1.7 -1.7 -1.7 -1.7 -1.7 -1.7 -1.7 -1.7 -1.7 -1.7 -1.7 -1.7 -1.7 -1.7 -1.7 -1.7 -1.7 -1.7 -1.7 -1.7 -1.7 -1.7 -1.7 -1.7 -1.7 -1.7 -1.7 -1.7 -1.7 -1.7 -1.7 -1.7 -1.7 -1.7 -1.7 -1.7 -1.7 -1.7 -1.7 -1.7 -1.7 -1.7 -1.7 1.6 10.9 22.6 28.8 36.3 30.6 23.4 20.4 11.3 11.1 17.1 14.1 11.6 7.1 3 -1.7 -0.9 0.2 0.6 -1.7 -1.7 -1.7 -1.7 -1.7 -1.7 -1.7 -1.7 10.2 12 13.1 6 1.3 -1.7 1.6 7.7 12.6 21 33.3 36.7 43.8 43.5 43.8 42.2 40.3 41.5 46.6 48.9 50 49.5 51 51.8 51.1 57.5 59.4 59.8 63.2 64.8 65.1 66.6 68.6 72.6 75.3 74.4 72.2 72.6 73 66.6 74.6 82 75.8 69.6 73.7 79.1 84.6 91.8 89.9 101.3 107.1 111.3 116.1 123.6 129.2 132.7 137.2 139.1 137.1 135.3 131.9 129 131.1 135.3 133.1 125.8 120.8 116.2 111.4 108.1 105.6 102.4 100.8 94 85.2 75.3 61 53.3 52.3 51.6 46.4 45.3 34.8 33.8 31.7 26.7 29.4 20.4 19.3 14.5 -1.7 -1.7 -1.7 -1.7 -1.7 -1.7 -1.7 -1.7 -1.7 -1.7 -1.7
-1.7 -1.7 -1.7 -1.7 -1.7 -1.7 -1.7 -1.7 -1.7 -1.7 -1.7 -1.7 -1.7 -1.7 -1.7 -1.7 -1.7 -1.7 -1.7 -1.7 -1.7 -1.7 -1.7 -1.7 -1.7 -1.7 -1.7 1.9 7 -1.7 -1.7 -1.7 -1.7 -1.7 -1.7 -1.7 -1.7 -1.7 -1.7 -1.7 -1.7 -1.7 -1.7 -1.7 -1.7 -1.7 -1.7 -1.7 -1.7 -1.7 -1.7 -1.7 -1.7 -1.7 -1.7 -1.7 -1.7 -1.7 -1.7 -1.7 -1.7 -1.7 -1.7 -1.7 -1.7 -1.7 -1.7 -1.3 -1.7 -1.7 -1.7 -1.7 8.4 16.2 21.7 25.9 28.9 26.9 26.8 17.8 7.9 11.4 14.2 12.5 11.9 9.4 6.7 -1.7 -1.7 -1.7 -1.7 -1.7 -1.7 -1.7 -1.7 -1.7 -1.7 -1.7 -1.7 8.3 5 8.1 1.8 -1.7 -1.7 1.5 12 14.1 20.9 30.4 36.8 45.3 48.4 47.1 45.1 37.9 44.5 47.6 47.3 50.1 49.7 49.2 49.9 51.8 57.2 63.4 63.4 65.3 69.1 67 67 68.9 70.7 72.4 72.5 73.5 73.9 72.6 67.1 74.9 83.4 83.9 69.6 71.8 74.5 83.1 83 89.3 102.8 109.1 115.2 120.8 134.8 137.5 140.3 147.5 144.3 146.1 144.7 140 132 131.6 134.5 134.4 128.5 122.7 117.3 114.2 110.6 109.3 107.1 102.5 96.7 83.2 69.7 58.1 55.6 57.9 53.1 48.7 44.8 38.5 39.7 33.5 31.1 29 16.7 10.9 9.3 -1.7 -1.7 -1.7 -1.7 -1.7 -1.7 -1.7 -1.7 -1.7 -1.7 -1.7
-1.7 -1.7 -1.7 -1.7 -1.7 -1.7 -1.7 -1.7 -1.7 -1.7 -1.7 -1.7 -1.7 -1.7 -1.7 -1.7 -1.7 -1.7 -1.7 -1.7 -1.7 -1.7 -1.7 -1.7 -1.5 -1.7 -1.7 -1.7 -1.7 -1.7 -1.7 -1.7 -1.7 -1.7 -1.7 -1.7 -1.7 -1.7 -1.7 -1.7 -1.7 -1.7 -1.7 -1.7 -1.7 -1.7 -1.7 -1.7 -1.7 -1.7 -1.7 -1.7 -1.7 -1.7 -1.7 -1.7 -1.7 -1.7 -1.7 -1.7 -1.7 -1.7 -1.7 -1.7 -1.7 -1.7 -1.7 3.7 -1.7 -1.7 -1.7 2.6 7.4 21.4 26.1 25.3 17.2 21.2 19.3 12.8 2.2 6.6 11.6 15.6 8.4 2.2 -1.7 -1.7 -1.7 -1.7 -1.7 -1.7 -1.7 -1.7 -1.7 -1.7 -1.7 -1.7 0.6 2.9 2.3 1.4 1.1 -1.7 -1.7 1.8 12.3 15.2 22.7 31.9 39.5 45.1 51.7 51.8 43.5 37.4 43.4 49.5 48.3 50.1 49.9 50.5 53.2 54.8 56.4 61.1 65.4 65.5 68.5 67.9 67.1 68.6 71.7 72.2 72.7 75.3 75.5 70.6 69.4 73.4 77.7 78.6 73.7 74 77.9 79.7 82.6 96.4 107.5 120.8 123.7 129.1 137.8 142.4 144.9 154.4 158.7 157.2 150.2 144.9 135.8 135.9 134.6 131.3 128.7 122.8 117.5 115.7 112.9 109.8 108.1 102.7 92.8 80.9 65.2 63.7 63.4 60.7 59.4 53.5 42.8 39 39.9 35.7 33.1 22.2 13.9 10.9 11.4 28.3 -1.7 -1.7 -1.7 -1.7 -1.7 -1.7 -1.7 -1.7 -1.7 -1.7
-1.7 -1.7 -1.7 -1.7 -1.7 -1.7 -1.7 -1.7 -1.7 -1.7 -1.7 -1.7 1.6 -1.7 -1.7 -1.7 -1.7 -1.7 -1.7 -1.7 -1.7 -1.7 -1.7 -1.7 28.8 -1.7 16.3 12 -1.7 12.7 -1.7 -1.7 -1.7 -1.7 -1.7 -1.7 -1.7 -1.7 -1.7 -1.7 -1.7 -1.7 -1.7 -1.7 -1.7 -1.7 -1.7 -1.7 -1.7 -1.7 -1.7 -1.7 -1.7 -1.7 -1.7 -1.7 -1.7 -1.7 -1.7 -1.7 -1.7 -1.7 -1.7 -1.7 -1.7 -1.7 -1.7 1.9 5.5 9.4 1.9 1.9 6.2 19.7 26.3 20.4 16.5 16.1 13.6 -1.7 -1.7 -1.7 -1.7 11.2 -1.7 -1.7 -1.7 -1.7 -1.5 -1.4 -1.3 -1.5 -1.7 -1.7 -1.7 -1.7 -1.7 -1.7 4.6 2 1.6 3.4 -1.7 -1.7 1.5 1.3 9.2 16.7 24.7 32 43.3 46.8 50.4 50.3 43.7 36.7 37.7 47.6 47.7 48.3 51.1 53.7 55.5 55.3 58.9 59.7 65.2 65.2 66.5 68.4 68.4 69.8 72.1 71.5 70.5 71.9 71.1 70.7 70.8 73.1 73.2 74.8 75.2 80.1 81.6 82.2 87 97.3 111.7 122.7 128.3 137.2 145.6 154.6 165.5 170.2 170.2 166.2 153.7 144.4 138.8 136.7 133.7 131.7 126.4 121.9 119 115 112.2 108.5 106.7 100.2 93.5 78 62.7 61.1 62.6 60.7 59 50.5 41.8 40 37.2 33.9 30.1 29.5 27.5 16.7 13.5 17.6 9.4 -1.7 -1.7 -1.7 -1.7 -1.7 -1.7 -1.7 -1.7 -1.7
-1.7 -1.7 -1.7 -1.7 -1.7 -1.7 -1.7 -1.7 -1.7 -1.7 -1.7 -1.7 19.7 -1.7 -1.7 -1.7 -1.7 -1.7 -1.7 -1.7 -1.7 26.5 34.9 39.5 35.5 33.1 27.3 22.2 -1.7 -1.7 -1.7 -1.7 -1.7 -1.7 -1.7 -1.7 -1.7 -1.7 -1.7 -1.7 -1.7 -1.7 -1.7 -1.7 -1.7 -1.7 -1.7 -1.7 -1.7 -1.7 -1.7 -1.7 -1.7 -1.7 -1.7 -1.7 -1.7 -1.7 -1.7 -1.7 -1.7 -1.7 -1.7 -1.7 -1.7 -1.7 -1.7 -1.7 1.9 1.8 3.3 -1.7 -1.7 11.8 15.8 16.5 15.8 10.1 -1.7 -1.7 -1.7 -1.7 -1.7 -1.7 -1.7 -1.7 -1.5 -1.3 -1.2 -1.1 -1 -1.1 -1.4 -1.7 -1.7 -1.7 -1.7 -1.7 -1.7 7.2 5.5 6.1 -1.7 -1.7 1.8 2 8.5 10.8 22.3 34.7 44.4 47.5 45.1 41.4 44.6 40.4 36.7 48.5 54.3 49 53.1 55 52.9 55 60.2 64.3 67.2 67.9 67.6 68.7 72 71.6 72.7 70.8 69.9 69.9 69.9 72.8 75.3 74.4 74.9 77.1 81.2 84.3 85.4 86.7 91.6 96.5 114.5 125.7 137.4 149.4 164.7 172.6 174.8 178.4 175.8 168.3 151.9 143.4 147.2 141.5 135.8 131.8 127.1 120.7 117.4 115.2 112.4 107.9 103.8 96.8 87.3 75.8 65.4 60.8 63.5 64.5 62 48.7 41.4 37.1 34.8 33.2 44.8 45.8 43.7 33.8 16.7 10 5.9 -1.7 -1.7 -1.7 -1.7 -1.7 -1.7 -1.7 -1.7 -1.7
-1.7 -1.7 -1.7 -1.7 -1.7 -1.7 -1.7 -1.7 -1.7 -1.7 -1.7 -1.7 17.2 32.2 -1.7 -1.7 -1.7 -1.7 -1.7 -1.7 -1.7 24.6 31.1 37.3 39.7 37 34.6 27.1 -1.7 -1.7 -1.7 -1.7 -1.7 -1.7 -1.7 -1.7 -1.7 -1.7 -1.7 -1.7 -1.7 -1.7 -1.7 -1.7 -1.7 -1.7 -1.7 -1.7 -1.7 -1.7 -1.7 -1.7 -1.7 -1.7 -1.7 -1.7 -1.7 -1.7 -1.7 -1.7 -1.7 -1.7 -1.7 -1.7 -1.7 -1.7 -1.7 -1.7 -1.7 -1.7 7.9 -1.7 -1.7 -1.7 6.4 12.7 9.3 8.4 -1.7 -1.7 -1.7 -1.7 -1.7 -1.6 -1.5 -1.3 -1.2 -1 -0.9 -0.8 -0.7 -0.7 -1 -1.3 -1.6 -1.7 -1.7 -1.7 -1.7 14.7 11.6 -1.7 -1.7 1.9 1.3 1.4 2 11.7 24 31.7 35.2 34.6 33.8 35.2 35.1 34.7 38 42.1 49.8 49.2 50.6 54.3 52.8 57.7 63.7 67.2 68.4 71.2 67.7 70.7 73.9 75.2 69.9 69.9 69.9 69.9 72.3 80.3 83.3 82.1 79.3 80.9 86.7 91.7 97.8 97.5 100.1 103.6 119.6 135.8 151 165.1 176.3 183.3 185.6 182.6 176.5 161 149.8 145.8 145.6 141.2 137.5 134.9 131.9 124.7 118.8 115.7 113.8 107.7 102.3 94.3 84.9 75.6 66.4 62.4 66.7 61.2 52.4 45.6 40.8 37.7 36.5 40.4 56.2 54.6 45.3 35.6 16.4 10.3 2.2 6.9 8.4 9.4 10 11 11.1 -1.7 -1.7 -1.7
-1.7 -1.7 -1.7 -1.7 -1.7 -1.7 -1.7 -1.7 -1.7 -1.7 -1.7 -1.7 4.1 40.7 37.8 -1.7 -1.7 -1.7 -1.7 -1.7 -1.7 24.9 27.6 33 32.7 33.8 34.1 27.2 -1.7 -1.7 -1.7 -1.7 -1.7 -1.7 -1.7 -1.7 -1.7 -1.7 -1.7 -1.7 -1.7 -1.7 -1.7 -1.7 -1.7 -1.7 -1.7 -1.7 -1.7 -1.7 -1.7 -1.7 -1.7 -1.7 -1.7 -1.7 -1.7 -1.7 -1.7 -1.7 -1.7 -1.7 -1.7 -1.7 -1.7 -1.7 -1.7 -1.7 -1.7 -1.7 -1.7 -1.7 -1.7 -1.7 -1.7 10.4 5.3 -1.7 -1.7 -1.7 -1.7 -1.7 -1.7 -1.3 -1.1 -1 -0.9 -0.7 -0.6 -0.5 -0.4 -0.4 -0.6 -0.9 -1.2 -1.4 -1.7 -1.7 -1.7 11.5 11.3 -1.7 -1.7 -1.7 0.8 1.3 1.8 14.5 26.6 30.6 29.3 32.8 34.6 41.5 39 33.9 35.2 38.8 41.3 48.4 48.9 49.9 54.6 57.6 63 70.3 71 73.1 68.7 70.1 74.3 69.9 73.7 73.8 73.1 75 76.8 84.2 89.1 87.3 86.9 86.7 93.3 99.8 110.4 114.2 112.7 111.7 125.1 141.7 162.9 175 186.2 191.8 189.4 184.6 168.7 159.5 155.6 149.8 145.9 143 140.6 138.2 134.7 126 118.7 116.5 112.8 107 100.1 92.7 87.3 79.2 66.2 61.4 59.7 56.7 54.4 49.7 43.8 41.9 42.1 41.8 53.5 47 41.6 27.9 15.9 7 10.9 13.7 17.5 21.4 20.3 20.2 18.3 9.5 3.3 -1.7
-1.7 -1.7 -1.7 -1.7 -1.7 -1.7 -1.7 -1.7 38.9 40.7 40.1 38.5 41.4 39.5 39.4 -1.7 -1.7 -1.7 45.1 -1.7 36.7 30.2 29.2 29.1 29.9 32.5 30.1 29.5 -1.7 -1.7 -1.7 -1.7 -1.7 -1.7 -1.7 -1.7 -1.7 -1.7 -1.7 -1.7 -1.7 -1.7 -1.7 -1.7 -1.7 -1.7 -1.7 -1.7 -1.7 -1.7 -1.7 -1.7 -1.7 -1.7 -1.7 -1.7 -1.7 -1.7 -1.7 -1.7 -1.7 -1.7 -1.7 -1.7 -1.7 -1.7 -1.7 -1.7 -1.7 -1.7 -1.7 -1.7 -1.7 -1.7 -1.7 -1.7 -1.7 -1.7 -1.7 -1.7 -1.7 -1.7 -1.4 -1.1 -0.8 -0.7 -0.5 -0.4 -0.3 -0.2 -0.1 0 -0.2 -0.5 -0.8 -1.1 -1.3 -1.7 -1.7 2.1 -1.7 -1.7 -1.7 -1.7 -1.7 1.5 2.6 13.6 24.2 30.1 28.8 32.8 31.5 39.3 40.2 33.1 33 34.1 37.6 45.2 45.5 45.9 50.7 54.6 59.7 65.2 66.6 70.9 69.7 71.8 76.2 76.8 77.9 76.3 76.9 80.2 82.4 85.6 91.5 90.3 90.4 94.7 100 108.6 117.2 126 124.7 122.3 130.5 150.2 167.9 183.3 193.4 193.3 190.6 180.9 171 164.6 162.8 157.8 149.1 147.3 144.1 139.7 133.5 127 118.6 117.6 112.9 105.5 98 92.6 86.9 80.9 69.7 64.1 62.6 60.5 58 60.6 51.9 50.4 45.6 41.4 46.6 36.5 30.4 22.8 11.7 12.3 22.3 27.4 32.8 35.4 31.4 28.7 25.9 12.8 7.3 4.2
-1.7 -1.7 -1.7 -1.7 -1.7 -1.7 -1.7 -1.7 35.8 40.8 41.7 40.8 42.3 42.4 39.2 -1.7 34.1 46.4 44.1 49.3 43.6 41.2 36 34.2 32.7 33.5 37.2 -1.7 -1.7 -1.7 -1.7 -1.7 -1.7 -1.7 -1.7 -1.7 -1.7 -1.7 -1.7 -1.7 -1.7 -1.7 -1.7 -1.7 -1.7 -1.7 -1.7 -1.7 -1.7 -1.7 -1.7 -1.7 -1.7 -1.7 -1.7 -1.7 -1.7 -1.7 -1.7 -1.7 -1.7 -1.7 -1.7 -1.7 -1.7 -1.7 -1.7 -1.7 -1.7 -1.7 -1.7 -1.7 -1.7 -1.7 -1.7 -1.7 -1.7 -1.7 -1.7 -1.7 -1.7 -1.6 -1.2 -0.9 -0.6 -0.4 -0.2 -0.1 0 0.1 0.2 0.3 0.2 -0.1 -0.4 -0.7 -0.9 -1.7 -1.7 -1.7 -1.7 -1.7 -1.7 -1.7 -1.7 1.2 9.7 12.6 23.8 30.8 29.1 27.5 27.9 31 42.1 33.1 33.5 36.4 38.3 42.4 49.6 46.9 47.4 52.5 58.7 62.9 62.9 67.6 74.3 78.1 79.3 81.1 77 81.5 83.3 86 87.2 88.7 90.6 91.7 95.1 104.8 108.8 110.5 115 126.4 131.4 125.8 134.9 158.1 170.9 185.8 192.6 193.5 186.9 179.8 174.3 167.5 167 159.5 152.9 153.5 150.2 145.7 139.5 123.2 119 116.8 111.8 96.9 95.7 89.9 85.2 80.2 70.5 68 66.7 62.4 60.5 56 53.4 50.5 48.3 36.7 34.7 29.2 15.2 11.7 14.4 29.8 39.8 44.4 46.3 48.1 42.1 35 25.8 20.3 10.8 6.7
-1.7 -1.7 -1.7 -1.7 -1.7 -1.7 -1.7 19.9 36 42.7 42.9 43.1 43.4 44.1 34.4 1.9 39 43.7 49.3 54.2 51.8 50.4 45.7 41 39.6 41.1 39.3 -1.7 -1.7 -1.7 -1.7 -1.7 -1.7 -1.7 -1.7 -1.7 -1.7 -1.7 -1.7 -1.7 -1.7 -1.7 -1.7 -1.7 -1.7 -1.7 -1.7 -1.7 -1.7 -1.7 -1.7 -1.7 -1.7 0.1 -1.7 -0.5 -1.7 -1.7 -1.7 -1.7 -1.7 -1.7 -1.7 -1.7 -1.7 -1.7 -1.7 -1.7 -1.7 -1.7 -1.7 -1.7 -1.7 -1.7 -1.7 -1.7 -1.7 -1.7 -1.7 -1.7 -1.7 -1.3 -1 -0.7 -0.3 0 0.1 0.2 0.3 0.4 0.5 0.6 0.5 0.3 0 -0.3 -0.5 -1 -1.7 -1.7 -1.7 -1.7 -1.7 -1.7 -1.7 -1.7 10.2 12.8 19.5 26.5 26.8 27.1 28.5 34.3 34.1 33.3 32.8 32.8 39.1 44.2 49.4 42.4 44.7 51.6 56 59.2 63.2 69.5 76.9 79.5 80.3 73.4 83.1 87.2 89.7 92.5 93.8 95.1 94.9 98.2 102 110.5 118 115.7 117.4 125.8 123.7 124.2 130.3 156.9 172.2 181.4 187.1 184.4 183 177.9 168.3 167.3 166.8 163.8 157.9 151.2 149.5 146.3 135.7 126.9 120.8 116 100.8 91.6 87.8 83.7 79 75.5 70.2 67.3 64.9 60.4 56.9 48.1 46.9 47.1 32.3 25 18.9 13.4 12.7 17.3 30.1 42.6 52.8 50.9 58.1 61.7 54.5 40.6 27 24 13 8.8
-1.7 -1.7 -1.7 -1.7 -1.7 -1.7 6.6 16.5 39.1 46.7 47.1 47.3 49.4 48.6 36 22.4 37.2 43.1 52.4 52 50.5 48 45.8 44.6 42.5 37.5 25.8 -1.7 -1.7 -1.7 -1.7 -1.7 -1.7 -1.7 -1.7 -1.7 -1.7 -1.7 -1.7 -1.7 -1.7 -1.7 -1.7 -1.7 -1.7 -1.7 -1.7 -1.7 -1.7 -1.7 -1.7 -1.7 -1.7 -1.7 -1.7 -1.7 -1.7 -1.7 -1.7 -1.7 -1.7 -1.7 -1.7 -1.7 -1.7 -1.7 -1.7 -1.7 -1.7 -1.7 -1.7 -1.7 -1.7 -1.7 -1.7 -1.7 -1.7 -1.7 -1.7 -1.7 -1.4 -1.1 -0.8 -0.4 -0.1 0.2 0.4 0.5 0.6 0.7 0.8 0.9 0.9 0.7 0.4 0.2 -0.1 -0.4 -0.7 -1 -0.9 -1 -1.2 -1.3 -1.7 -1.7 -1.7 10.7 14.1 23.9 22.5 22.5 36.2 36.8 35.4 38.2 31.7 33.1 32.2 36.1 37.7 43.3 45.5 49.3 55.1 57 64.3 72.3 77.4 76.1 76.3 79.4 87.2 93 94 96.5 99.1 100.6 101 101.8 107.8 114.2 118.4 118.3 117.3 120.3 122.2 125.2 134 144.3 167.6 171.7 179.9 184.6 181.7 170.5 170.7 170.8 167.2 162.1 156.8 152.9 148.4 146.8 137.7 129.9 124.9 113.1 96.2 90.6 84.5 79.1 75 70.6 66.7 61.6 60.3 52.9 45.7 47.5 42.2 32.6 23.8 17.4 15 14.3 21.3 31.2 41.3 46.5 55.2 65.8 70.9 72.5 69.1 57.2 34.2 22.2 15.3 11.6
-1.7 -1.7 -1.7 -1.7 -1.7 -1.7 13.7 32.3 43.7 49.4 48.6 50.1 52.3 49.8 40.4 34.6 36.6 44.9 54.1 50.4 48.2 47.5 47.4 44.7 44.1 37.9 19.1 3.2 -1.7 -1.7 -1.7 -1.7 -1.7 -1.7 -1.7 -1.7 -1.7 -1.7 -1.7 -1.7 -1.7 -1.7 -1.7 -1.7 -1.7 -1.7 -1.7 -1.7 -1.7 -1.7 -1.7 -1.7 -1.7 -1.7 -1.7 -1.7 -1.7 2.8 -1.7 -1.7 -1.7 -1.7 -1.7 -1.7 -1.7 -1.7 -1.7 -1.7 -1.7 -1.7 -1.7 -1.7 -1.7 -1.7 -1.7 -1.7 -1.7 -1.7 -1.7 -1.5 -1.2 -0.9 -0.5 -0.2 0.1 0.4 0.7 0.9 1 1 1.1 1.2 1.3 1 0.8 0.8 0.6 0.3 0 -0.2 -0.2 -0.2 -0.4 -0.5 -1.1 -1.7 -1.7 5.1 12.1 23.4 16.6 20.3 33.7 43.4 40.6 39.3 30.7 31.2 31.8 33.4 35.1 41 43.3 48.2 51.3 53 58.1 66 61 74.6 77.3 83.5 90 95.8 98.4 100.1 101.4 105.6 104.2 107.1 109.3 112.2 114.1 116.4 123.4 119.5 122.3 129.9 137.6 143.2 159.1 173.1 179.4 181 171.9 169.6 171.7 167.9 165.2 165.4 162.5 159.8 149.1 146.1 136.3 129.4 118.1 102.7 97.4 92.5 87.8 79 73.5 67.1 62.7 58.1 49.7 42.3 34.7 32.5 28.8 23.7 20.4 17.6 17.6 23.5 38.4 44 49.5 60.4 76 77.2 77.1 76.4 74.9 73.3 56.5 32.5 17.2 14.3
-1.7 -1.7 -1.7 -1.7 -1.7 -1.7 33.4 44 49.4 50.6 52.2 54.7 55.1 54.6 46.2 39.1 42.1 46.6 47.7 48.6 48.5 47.1 48.1 48 42 31 19.6 14.1 -1.7 -1.7 -1.7 -1.7 -1.7 -1.7 -1.7 -1.7 -1.7 -1.7 -1.7 -1.7 -1.7 -1.7 -1.7 -1.7 -1.7 -1.7 -1.7 -1.7 -1.7 -1.7 -1.7 -1.7 -1.7 -1.7 -1.7 -1.7 -1.7 -1.7 -1.7 7.3 -1.7 -1.7 -1.7 -1.7 -1.7 -1.7 -1.7 -1.7 -1.7 -1.7 -1.7 -1.7 -1.7 -1.7 -1.7 -1.7 -1.7 -1.7 -1.6 -1.3 -1 -0.6 -0.3 0 0.3 0.7 1 1.2 1.3 1.4 1.4 1.5 1.6 1.4 1.5 1.5 1.2 1 0.8 0.7 0.7 0.6 0.4 0 -0.6 -1.7 -1.7 -1.7 11.5 24.1 15.9 13.8 34.3 37.3 36.3 32.2 27.9 33.6 33.9 32.5 33.7 34 40.6 53.7 47.7 48.3 49.2 51 62.4 73 77.5 84.3 90.5 97.6 105.4 106 105.3 105.9 106.8 108.7 112.6 111.3 111.9 114.6 117.9 119.3 123.2 126.8 134.4 140.2 158.1 166.6 173 169.9 166.3 168.6 172.9 173.1 173.1 171 164.7 159.6 146.9 139.8 134 124.8 112.6 106.1 101.2 97.8 91.8 84.6 74.4 68 58.4 56.9 46 36.7 32.9 31 35.5 32 21.2 18.5 30.4 33.8 49 60 66.2 68.1 77.3 80.6 79.9 84.6 86 78.2 72.5 58.4 26.1 16.8
-1.7 -1.7 -1.7 31.1 -1.7 35.1 39.6 46.3 50.2 54.1 56.8 60.4 62.2 59.3 47.1 44.1 44.8 51.2 56.3 49.4 49.6 49.8 48.3 44.6 36.5 25.3 16.7 11.1 0.8 -1.7 -1.7 -1.7 -1.7 12.5 -1.7 -1.7 -1.7 -1.7 -1.7 -1.7 -1.7 -1.7 -1.7 -1.7 -1.7 -1.7 -1.7 -1.7 -1.7 -1.7 -1.7 -1.7 -1.7 -1.7 -1.7 -1.7 -1.7 -1.7 -1.7 -1.7 -1.7 -1.7 -1.7 1.9 -1.7 -1.7 -1.7 -1.7 -1.7 -1.7 -1.7 -1.7 -1.7 -1.7 -1.7 -1.7 -1.7 -1.7 -1.4 -1.1 -0.8 -0.4 -0.1 0.2 0.6 0.9 1.2 1.5 1.6 1.7 1.7 1.8 1.9 5.8 7.5 6.5 2 1.8 1.6 1.5 1.5 1.4 1.1 0.6 -0.2 -1.1 -1.7 -1.7 8.5 22.2 13.5 10.8 24.6 35.2 28.5 25.4 27.2 33.7 37.8 33.7 28.4 32.5 41 52.7 44.1 42.4 46.2 56.4 58.2 70.5 78.4 84.5 89.1 99 103.4 104 105.7 107.7 108.3 109.6 110.2 112.7 114.2 110.6 118.3 120.2 118.3 124.9 127.6 135.5 139.9 150.4 152.2 157.9 166.1 174 177.9 174.5 172.6 168.5 159 154.6 142.9 137.4 131.9 122.2 117.6 112.2 105.5 100.6 95 89.6 76.4 62 50.5 51.9 48.8 35.4 32.4 31.9 30.4 30.1 23.8 24.2 31.8 39.4 57.2 71.1 73.8 79.7 88.3 90.1 86.7 90.1 94.9 84.9 87.5 71.7 46.6 21.4
-1.7 -1.7 -1.7 30 37.1 41.4 43.5 45.9 50 56 59.3 65.1 68.5 60.8 54.2 50.8 50.3 53.2 53.5 49.9 49.9 49.6 49.7 44 34.6 24.1 16.6 17.2 14.4 0.4 -1.7 -1.7 -1.7 1.9 -1.7 -1.7 -1.7 -1.7 -1.7 -1.7 -1.7 -1.7 -1.7 -1.7 -1.7 -1.7 -1.7 -1.7 -1.7 -1.7 -1.7 -1.7 -1.7 -1.7 -1.7 -1.7 -1.7 -1.7 -1.7 -1.7 0.7 3.3 9.7 1.4 -1.7 -1.7 -1.7 -1.7 -1.7 -1.7 -1.7 -1.7 -1.7 -1.7 -1.7 -1.7 -1.7 -1.7 -1.1 -0.9 -0.4 -0.1 0.2 0.5 0.8 1.1 1.5 1.7 1.9 1.9 1.9 1.9 8.1 8.6 7.1 9.4 9.9 4.4 4 2.6 2.3 2.6 1.8 1 -0.2 -1.6 -1.7 -1.7 7.9 22.7 6.6 9.1 12.2 17.7 20.9 30.3 24.9 32.4 41.1 33.9 27.2 25.7 27.9 32.3 39.4 40.8 43.1 50.5 59.8 67.5 78.5 81.4 87.3 94.9 100.3 103.2 103.4 107 109 110.3 110.2 113.9 117.7 114.1 110.5 111.8 113.9 115.6 119.3 124.7 133.6 137.3 144.9 160.3 168.5 177 177.7 176.2 174.4 164.2 157.3 151.2 143.4 136.4 130.7 123.1 119.1 111.8 105.6 102.6 98.2 90.4 74.7 54.5 48 45 42.4 42.2 36.2 37 30.3 27.1 27.6 28.3 43.6 49.4 61.1 77.7 87.7 88.1 87.3 88.6 88.8 89.2 90.5 98.9 94.3 78.9 58.5 32.6
-1.7 -1.7 6.1 39.4 44.3 51.6 51.1 48.2 50.2 58.7 62.1 68.1 70.8 64.7 59.7 59.6 57.9 54.1 53 51.6 50.6 50.7 54 47.7 37 27.8 30.3 27.6 18.6 1.9 15.4 26.8 16.8 2.7 -1.7 -1.7 -1.7 -1.7 -1.7 -1.7 -1.7 -1.7 -1.7 -1.7 -1.7 0.3 -0.6 -1.6 -1.7 -1.7 -1.7 -1.7 -1.7 -1.7 -1.7 -1.7 -1.7 -1.7 -1.7 -1.7 1.7 9.5 10.8 2.4 -1.7 -1.7 -1.7 -1.7 -1.7 -1.7 -1.7 -1.7 -1.7 -1.7 -1.7 -1.7 -1.7 -1.7 -0.7 -0.3 -0.1 0.1 0.5 0.8 1.1 1.4 1.7 1.6 1.3 1.3 1.3 4.3 8.3 5.8 6.4 7.3 6.7 2.8 2.7 2.6 2.2 2.3 -1.7 -1.7 -1.7 -1.7 -1.7 4 11.7 18.2 3.9 3 4.7 9.9 20.2 24.9 19.5 27.4 27.2 32.2 23.5 23.8 28.3 42.4 41.8 42.6 42.9 50.8 57.9 69.1 76.5 81.7 86.5 90.9 96.3 98.1 102.8 108.9 109.9 110.5 110.8 114 112.4 112.4 112 111.6 111 111.4 114.7 121.6 127 136.1 147.4 159.1 177.2 181.1 181 178.6 175.6 167 161 153.7 143.6 136.2 132.9 124.9 117.8 113.6 100.8 102.9 86.2 80.1 68.8 55.2 49.4 48.8 50.6 48.2 41.1 41.1 34.6 34.3 34.9 39.7 50.4 52 53.9 83.3 86.7 87.6 86.9 84.1 84.7 83.8 87.1 101.9 98.8 85.5 69.4 47.7
-1.7 -1.7 38.6 44 55.1 57.6 56.3 51.8 52.7 58.5 63.2 66.9 67.6 62.6 59.4 57.5 57.2 55 54.4 53.9 54.6 55.2 54 47.6 39 34.8 32.6 26.5 4.3 21.3 20.7 28.2 21.9 12.3 6.6 16.3 13 16 -1.7 -1.7 -1.7 -1.7 -1.7 -1.7 14 10.4 10.9 2.9 -1.7 -1.7 -1.7 -1.7 -1.7 -1.7 -1.7 -1.7 -1.7 -1.7 -1.7 6.7 11.2 19.3 22 17.5 13 6 -1.7 -1.7 -1.7 -1.7 -1.7 -1.7 -1.7 -1.7 -1.7 -1.7 -1.7 -1.1 -0.4 0.3 0.6 0.8 0.9 1.2 1.5 1.8 5.7 8.1 6.8 8.3 6.9 7.1 10.6 7.2 7.5 4.1 3.8 2.3 2.2 2.9 2.9 -1.7 -1.7 -1.7 -1.7 -0.9 -1.7 9.8 16 2.3 1.6 1.6 1.5 11.1 8.8 12.9 15.4 18.2 14.4 19.2 22.3 26.4 35 40.4 41.7 43.5 42.4 49.6 57.1 67.1 72.8 78.8 82.9 90.7 98.6 98.1 103.1 107.7 109.7 110.3 109.8 110.1 110.8 109.7 112.4 114.3 115.5 110.6 112.6 118.5 125.1 138.5 152.2 168.4 179 188.5 190.1 187.1 176.6 166.6 162.5 152.7 140.6 137.3 133.2 125.5 114.4 103.9 94.7 89.2 85.2 82.2 70.9 58.6 50.1 52.6 56.6 52 44.6 41 33.2 38.9 40 47.2 52.7 59.8 60.7 84.7 82 82.7 84.2 82.2 76.6 79.1 90 97 99 79.9 68 49.3
-1.7 -1.7 46 49.5 58.7 59.7 55.9 52.1 55.5 61.6 63.9 65.3 65.7 58.6 57.6 56 57 56.3 58.2 59.8 61.9 61.6 60.2 51.2 43.8 40.3 32.8 20.9 4.1 15.7 24.5 27 30.9 19.2 17.2 17.8 22.5 25.3 33.4 -1.7 30.9 25.2 24.2 24.7 20.9 17 15.2 14.6 -1.7 -1.7 -1.7 -1.7 -1.7 -1.7 -1.7 -1.7 -1.7 -1.7 -1.7 15.8 14.8 18.1 19.2 19.2 16 12.9 -1.7 -1.7 -1.7 -1.7 -1.7 -1.7 -1.7 -1.7 -1.7 -1.7 -1.7 -0.6 0.1 0.8 1.2 1.4 1.6 1.8 1.9 7 10.6 17.2 10.6 5.7 5.3 6.1 7.2 6.6 4 1.9 1.4 1.7 1.5 1.8 -1.7 -1.7 -1.7 -1.7 -1.7 -1.7 -1.7 12.2 -1.7 -1.7 -1.7 -1.7 1.5 1.6 1.7 7.1 10.7 10.5 16.9 19.4 24.3 25.8 34.6 37 38.1 41.2 40.4 46.4 55.4 65.8 75 81.4 87.5 92.3 93.3 98.7 103.6 104.5 105.8 108.4 109.1 108.7 106.7 107.7 112.9 114.9 110.4 108.3 111.1 118.7 128.2 137.7 160.7 175.7 191.5 196.2 197.5 190.8 179.1 169.7 165.2 146.5 139.6 135.4 132.9 120.5 108.9 100.8 96.2 92.6 85.9 86.4 69.3 57 51.4 55.2 60.7 56 51.3 44.6 36.5 40 43 49.7 59.9 65 64.8 75.9 81.8 78.7 86.3 81.3 77.1 78.4 87.5 95.6 90.1 83.6 72.9 60.7
-1.7 -1.7 49.1 55 59.1 58.5 60.7 53.5 60.7 62.8 61.3 58.6 58.6 58.5 58.2 57.9 59.1 59.8 62.8 65.4 65.1 62.5 59.4 52.3 47 42.3 32.8 19 4.7 20.9 36.4 35.1 37.6 31.4 19.9 18.2 22.4 40.9 46.6 43.3 39.3 34.5 31.4 24.8 27.6 25.3 16.6 -1.7 -1.7 -1.7 3.6 -1.7 -1.7 -1.7 -1.7 -1.7 -1.7 -1.7 -1.7 15.5 17.7 12.7 18.2 20 19.2 16 7.9 -1.7 -1.7 -1.7 -1.7 -1.7 -1.7 -1.7 -1.7 -1.3 -0.8 -0.1 0.5 1.2 1.9 1.9 1.9 1.9 1.9 9.1 14.1 21 18.7 11.5 8.5 6.3 5.4 4.6 3.8 3.2 3.5 6 10.7 5.6 -1.7 -1.7 -1.7 -1.7 2.1 17 15.7 -1.7 -1.7 -1.7 -1.7 -1.7 -1.7 -1.7 -1.7 3 6 18.8 26.8 26.4 28.9 25.1 29 33.5 35.2 40.6 38.8 45.8 57.8 65.9 80 85.2 90.5 92.6 93.8 96.4 101.8 104.6 104.9 105.5 107 106.9 104.7 106 109.6 109.8 108.3 108.3 112.5 120.9 131.9 143 156.7 177.3 190.3 198.7 197.1 188.7 179.9 167.9 160 140.6 136.6 135.8 131.1 114.5 109 107 98.7 94.3 92 84.5 67.6 60.4 52.8 58 65.6 60 53.9 49.4 40.4 40.9 52.4 56.6 63.4 66.1 64.1 67.8 79.1 77.2 83.7 79.7 75.9 77.1 84.8 98 91.8 82.2 70.8 60.3
-1.7 52.8 51.4 58.1 59.7 57.3 56.9 54.4 61.2 60.2 58.6 59.1 59.3 59 60.6 62.6 62.3 63.1 64.9 65.9 63.1 61.4 59.9 55.4 48 41.7 31.2 14.4 5.4 35.4 44.2 38.3 32.5 27.3 23.2 25.1 37 46.4 51.6 48.9 45.8 40.2 36.1 28.8 28.5 26.1 12.6 5.2 13.4 6.3 8.4 8.2 -1.7 -1.7 -1.7 -1.7 -1.7 -1.7 -1.7 2.2 8.5 14 15.8 20 23.3 14.5 1.9 -1.7 -1.7 -1.7 -1.7 -1.7 -1.7 -1.4 -1.1 -0.7 -0.3 0.2 0.8 1.5 10.6 20.3 16.4 10.7 1.8 9.3 15.9 18.4 18.8 20.2 20.3 9.7 4.1 3.9 3 1.7 8.2 14.3 16 13.9 9.7 -1.7 -1.7 0.9 2.1 5.3 13.3 -1.7 -1.7 -1.7 1.9 1.9 1.9 -1.7 -1.7 -1.7 -1.7 17.1 22.2 28.9 30.5 24.9 27.9 28.7 29.6 34 38.6 46.2 57.1 64.1 75.9 83.2 85.4 91.1 92.6 94 97.6 102.7 104.2 105 105.3 105.3 103.5 103.1 106.8 108.3 108.3 108.3 118 125.3 136.3 144.6 154.8 173.8 183.9 191.9 189.8 179.1 174.4 162.6 144.5 136.6 135.6 133 128.8 115.4 108.7 107.3 102.3 98 85.5 79.4 66.2 62 53.7 58.9 61.8 62.6 54.8 45.9 46.5 49.9 57.7 59.7 61.3 69.4 67.5 67.4 76.9 80.3 75.7 75.6 71.8 83.5 92.2 92.8 87.7 77.5 64.2 49.6
49.1 56 54.2 60.6 60.1 58.9 55.3 56.5 58.4 59.5 59.8 60.4 59 58.9 60.1 63 65.4 65.4 65.7 65.6 62 59.5 56.1 53.9 47 37.6 23 15.4 22.9 38.6 46.5 42.3 33.4 35 44.9 43.9 41.5 49.7 49.3 49 45.3 41.4 34.3 30.1 28.7 13.7 5.2 5 6.7 6.6 10.4 7.3 -1.7 -1.7 -1.7 -1.7 -1.7 -1.7 -1.7 -0.2 6 12.9 14.5 15.7 21.3 22.4 18.5 -1.7 -1.7 -1.7 -1.7 -1.4 -1.1 -0.8 -0.7 -0.3 0.2 0.7 1.2 1.7 8.7 20.5 29.7 19.1 6.2 7.4 11.6 22 23.5 20.1 17.6 5.8 3.7 2.9 2.2 2.2 7.6 16.7 23.4 25.5 21.4 -1.7 -1.7 1.2 1.1 -1.7 -1.7 -1.7 -1.7 -1.7 2.1 1.6 1.7 -1.7 -1.7 -1.7 -1.7 15.4 25.6 26.7 28.3 23.5 28.1 25.8 30.2 34.1 35.3 37.3 50.2 64.7 72 75.1 76.6 82.9 89.6 93.1 100.9 104.6 105.1 106.6 104.8 105 103.1 103.1 106.7 108.3 108.3 114.2 124.1 127 134.3 144.9 149.6 166.5 179.1 182.7 179.6 173.6 164.1 149.3 138.1 135.7 134.3 134.1 131.1 127.3 106.9 108.3 105.8 89.7 85.8 80.6 68.3 56.3 54 54.5 53.8 54.7 51.9 51.6 46.7 49.6 57.4 62.9 61.7 71.9 69.2 64.6 72.4 75.2 72.6 66.9 71.5 85.7 92 90 72.9 64.9 53.6 38.6
38.9 54.2 57.1 63.6 62.7 61 55.1 56.4 57.7 57.8 59.7 60.8 60.3 58.9 58.9 61.7 63.1 63 63.1 61.4 60.2 58.2 53.3 48.6 42.8 36.2 17.8 31.4 33.4 40 45 44.8 46.7 52 56.3 55.6 52 44.8 50.9 52.6 47.2 42.6 36.2 29.7 17.4 7.5 5.6 5.3 5.7 7.9 13.4 5 1.5 -1.7 -1.7 -1.7 -1.7 -1.7 -0.9 0.6 7.1 7.8 13.7 14.6 23.2 25.7 21.3 -1.7 -1.7 -1.7 -1.4 -1.1 -0.7 -0.4 -0.2 0.1 0.5 1 1.6 2 16.4 23.1 34.1 32.2 11.6 5.8 8 33.1 21.1 15.3 16.5 7.8 4.7 9.1 10.4 5.6 6.1 16.3 25.7 31.7 32.8 24.3 -1.7 -1.7 -0.4 -1.7 -1.7 -1.7 -1.7 -1.7 2.2 3.7 6 7.9 -1.7 -1.7 8.8 11.3 21.3 20.7 25.8 23.3 28.6 22.3 30.9 29.8 28.8 32.6 44.7 53.2 60.7 70.9 80.3 88.1 93.4 95.9 99.1 100 101 101.9 102.6 104 103.1 103.4 107.4 107.7 111 117.8 124.5 129 132.8 141.4 148.2 162.5 172.7 173.6 171.6 163.3 148.2 142 138.6 140.7 133.1 135 129 127.2 105.5 100.8 102.8 89.2 86.8 85 69.7 54.9 53.5 53.7 52.7 55.8 52.4 52.2 52.3 50.2 56.7 60.2 63.3 67 66.7 61 65.5 63.3 69.9 65.1 67.5 74.3 78.5 82.5 67.5 56.8 45.3 41.3
25.5 54.8 61.5 66 64.1 59.6 55.6 56 57.9 57.1 59.9 60.7 61.9 61.3 59.5 59.8 59.1 59.8 59.4 58.7 57 54.6 50.5 46.6 41.5 34.6 13.7 39 46.3 47.5 51.1 46.7 50.2 57.7 59.3 61 56.3 50.5 43.1 45.9 44.9 37.6 26 21.6 17.7 9.4 6.9 13.9 7.1 6.3 5.5 5.1 5.5 8.9 -1.7 -1.7 -1.7 -1.7 0.2 1.9 18.9 22.1 13.5 18.8 25 24.4 20.4 -1.7 -1.7 -1.4 -1.1 -0.7 -0.4 -0.1 0.3 0.5 0.9 1.3 1.9 13.9 13.6 22.3 26.7 29 15.1 8.3 9.1 21.4 19.5 13.3 8.8 11.6 10.3 12.2 8 3.7 6 15.2 25.1 35.4 34.4 19.7 -1.7 -1.7 -1.7 -1.7 -1.7 -1.7 1.7 4.1 6.1 11.3 17 15.1 9 3.4 13.3 13.2 16.3 20.6 20.5 21.7 19.4 19.5 20.7 23.4 26.1 30.1 40.4 46.4 57.6 72.3 85.5 92.8 95.8 96.1 97.2 98.7 100.2 102.7 101.8 104.1 105 105.5 107.9 108.3 112.4 121.4 124.9 129.6 136.6 146.3 154.7 159.3 160.1 155.9 153.4 144.6 143.9 143.8 140.8 139.9 133 127.7 125.8 121.5 109 98.1 92 89.7 87.6 83.6 69.2 55.4 55.8 52.9 56.8 52.8 51 50.5 52.3 49.8 50 57.5 62 67 66.5 58.4 57.8 60.7 62.8 59.5 59.7 60.3 63.3 64.9 57.2 48.5 40.3 35.7
52.8 55.6 62.6 67.7 64.2 58.5 56.2 56.8 57.1 57.8 59.5 61.1 63 63.2 59.6 57.3 56.6 55.9 55.1 54.8 51.9 49.7 46.9 43.2 38 28.8 15 49 58.5 57.6 53.7 48.9 49 60.1 62.7 61.3 57.2 48.3 39.4 35.3 31.2 25.3 22.7 23.5 20.2 12.7 19.3 25.3 14.3 13.1 12.5 8.8 11.9 8.1 -1.7 -1.7 -1.7 0.6 1.4 12.5 23.6 26.9 16.3 18.1 21.9 27 16.6 -1.7 -1.4 -1.1 -0.7 -0.4 -0.1 0.3 0.6 0.9 1.2 1.7 8.1 12.2 12.6 16.1 16.7 19.3 17.9 10.6 9.4 14.4 16 8.9 8.7 8.7 9.7 16.7 4.8 4.2 7.1 14.8 23 36.3 25.7 13.3 6.5 15.6 11.7 9.4 -1.7 -1.7 8.6 5.4 7.8 12.1 17.7 14.4 9.1 5.2 5.4 15.1 13.8 16 13.3 19.2 17.9 18.3 18.7 19.6 21.8 24.2 36.5 43.5 55.8 71.3 87 102.3 102.7 97.7 99.9 99.4 98.5 99.7 102 104.9 106.2 107.4 109 110.5 113.5 119.6 126.7 132.4 141.6 148.6 157.3 163.8 155.7 150.6 146 147.8 153.6 151.5 140.4 131.7 130.6 124.5 121.5 118.7 115 100.3 91.1 87.7 84.4 74.3 58.8 55.1 55.4 52.5 51.9 50.9 50.2 49.9 49.1 49.3 49.3 49.8 57.3 59.3 58.1 58.5 55.8 54.5 54 48.9 49.6 46.8 54.6 56.8 50.6 42.9 36.6 31.2
51.2 58.4 62.6 64.8 61.7 56.2 57.1 57.5 58.7 59.3 59.5 58.9 62.4 62 58.8 57.8 56.9 54.4 51.6 49.3 47 46.2 42.2 37 32.2 22.4 26.6 44.5 52.2 59.1 57.6 52 50.1 60.8 61.4 55.2 53.9 56.1 53.8 43.5 31.6 28.2 25.4 27.7 23.3 19.1 31.8 31.8 22.6 19.4 19.1 13.4 16.1 16 8.9 23.3 20.3 1.9 7.5 12.7 25.7 27.4 17 15.1 23 21.1 15.6 -1.7 -1.4 -1 -0.6 -0.2 0.2 0.6 0.9 1.3 1.6 8.8 10.6 11.9 10.2 17.4 26.8 40.7 29.1 17.3 14.3 11.1 12.1 8.6 8.6 13 9.1 10.5 4.9 4.1 5.6 15.9 23.5 28.8 18.3 17.8 27.5 17.1 2.8 1.9 -1.7 -1.7 3.6 4.2 7.6 14.2 11.1 15.9 12.5 10.6 2.3 13.3 10.4 14.9 14.2 19.6 18.4 18.1 18.6 17.7 19.1 23.9 31.4 44.9 54.5 69.7 89.8 99.2 104.8 97.8 97.2 96.8 98.1 98.9 103.5 105.7 107.3 108.5 110.8 113.1 116.7 118.9 126.8 135.1 142.5 148.6 157.4 159.2 153.8 146.4 147.2 155.3 155.6 148 141.6 124.1 128.3 121.3 123.1 121.4 115.5 99.6 90.1 86.8 73.8 69.2 57.5 55.5 53.8 52.7 51.4 50.5 50.3 50.3 48.8 48.1 47.4 47.4 47.3 57.2 59.2 61 49.8 46.3 42.8 40.3 40.3 40 45.4 46.2 42.6 38.2 28.8 28.3
53.8 59.9 60.7 58.6 56 56.7 58.7 59.6 60.5 60.6 59 58.5 60.3 62.3 60.1 57.8 55.9 53.5 49.9 47.6 45.5 44.4 44.7 36.2 19.2 17.5 29 46.2 50.5 60.1 58.9 53.1 52.5 57 56.1 61.5 64.3 66.4 60 58.4 40.8 31.2 26.6 26.2 25 37.8 40.5 39.9 26.4 23.7 21.3 28.1 24.2 33.6 24 31.7 40.3 27.2 14.8 14.1 20.5 24.3 16 14.5 16.7 16.7 -1.7 -1.7 -1.4 -1 -0.6 -0.2 0.2 0.6 1 1.4 1.8 8.1 13.4 12.2 10.1 23.5 35.6 39.8 28.5 21.4 18.8 13 8.8 8.5 8.6 7.7 9 5.9 4.4 4.2 8.1 18.9 31.2 33.4 24.6 29.4 21.2 6.3 2.2 1.9 1.8 3 3.4 5.5 7.4 11.6 9.8 13.8 8.4 16 17.2 14.6 16.5 17 17.1 18.7 17.6 16.6 17 18 20 26.8 31.5 41.7 50.2 65.6 86.1 91 96 100.4 93.1 95.7 98 100.5 102.1 108.5 108.5 110.8 112.1 115.9 115.7 118.2 124.2 135 142.2 150.4 154.9 146.4 143.3 145.6 147.4 150.7 150.9 147.2 127.5 122.9 120 120.8 125.5 120.2 112.3 104 89.7 79.6 70.2 63.7 58.2 57.8 56.8 56 51.6 50.5 49.9 51.8 48.3 48.6 47.4 47.4 47.4 49.2 53.2 51.8 44.4 40 33.4 32.5 32.1 32.2 33.9 37.7 32.7 30.3 28.1 25.8
32.1 58.8 55.3 52.3 53.2 60.7 62.6 60.4 62.5 64 63.4 60 59.7 60.5 60.7 58.6 56 52.5 49.9 48 45.3 42.1 36 25.4 18.4 25 31 36.5 41.8 51.1 56.3 58.8 62.3 65.8 60.5 61.7 68.1 68.9 64.4 49.5 43.1 35.1 28.9 27.8 33.6 45.9 46.5 45.5 43.4 37.5 34.6 34.6 30.4 38.3 30.4 35.4 46.8 34.8 25.8 16.9 20.4 24.4 20.7 5.9 11.1 -1.7 -1.7 -1.7 -1.4 -1 -0.6 -0.2 0.2 0.6 1 1.3 1.7 9 11.4 11.4 10.4 13.7 22.7 30.1 26.8 26.1 22.1 13.6 8.5 7.8 8.9 11.3 7.6 9 4.8 4.8 10.7 28 40.6 38.6 30.5 18.9 16.6 8.5 2.1 2 2.2 7.9 7.9 5.4 8.4 9.9 9.9 9.9 11.4 18.3 23.5 26.9 13.7 13.6 16.5 20.5 16.1 16.3 17.5 18.4 24.2 26.4 27.1 32.3 44.5 57.2 66.3 76.7 89.2 89.7 101.1 99.9 101.8 100.2 100.6 106.5 111.4 109.2 110.9 113.4 115.5 120.3 124.1 133.7 141.4 149.3 151.2 139.2 142.6 143 146.3 136.1 133.3 130.1 127.1 124.8 122.8 121.6 115.3 114 107 97.9 86.6 75.9 64.3 67.3 66.3 64.9 60.4 57.6 51.7 51.2 50.3 50.2 51.5 52.4 50.9 51.8 47.8 50 49 43.3 34.7 31.6 30.6 30.2 29.5 29.2 28.1 28.8 29.6 19.5 19.9 15
-1.7 8.3 53.1 53.1 53.5 57.4 62.9 61.7 63.5 65.9 65.7 58.6 61.4 62.3 62.5 60.9 58.8 54.4 50.6 47.4 43.2 36.2 23.8 18.7 25 39.2 39.3 45.7 60.8 66.7 65.9 68.5 64.2 62.6 62.1 63 61.1 58 53.6 49.4 47.2 37.7 31.2 33.9 51.1 54 54.9 51.9 48.9 44.5 40.8 39.2 38 39.3 34.8 36.2 52.6 48.5 38.4 23.6 18.8 17.5 12.7 1.9 0.8 -1.7 -1.7 -1.7 -1.5 -1.1 -0.7 -0.3 0.1 0.5 0.9 1.4 1.9 1.9 10.6 11.7 11.5 12.9 23.7 35.4 30.5 30.9 25.1 14 8.5 9 23.5 18.4 8.5 4.6 5.1 4.9 22.3 40.3 38.9 36.3 26.3 21 12.9 8.1 3.9 7.2 5.6 11 9.5 7.1 9.8 13.4 10.9 12.1 19.5 19.7 21.6 26.5 15.6 10.7 18.8 14.2 13.7 20.1 19.9 18.1 21.9 24.1 25.9 32.7 42.9 52.8 61.1 77.6 90.5 92.1 92.7 97.3 99.1 101.5 101.9 104.3 106.3 106.7 109.8 112.5 114.4 119.4 123 129.7 137.3 139.8 136.4 137.9 138.4 137.5 136.2 135.1 136.8 134.2 130.1 127.4 122.5 121.2 116.7 107.5 97.5 92.1 85.2 75.8 73.2 78.9 78.7 72 67.8 67.9 57.5 53.3 52.5 51.8 53.7 52.6 56.7 52.4 47.6 45.6 46 37.7 32.9 30 30 28.9 28.6 29.4 31.3 33.5 35 31.3 24.6 20.5
-1.7 8.2 55.6 59.6 53.2 56.2 58.4 58.9 60.3 64.7 60.4 58.9 61.1 65.7 62.9 60.4 62.1 56.2 53.9 46.2 39.8 33.5 20.3 20.9 34.6 49.2 46.5 45.3 51 57.2 58.2 59.5 61.9 64.3 63.6 66.3 65.7 63.3 60.1 57 49.4 40.8 38.4 42.8 56.5 61.3 57.9 56.4 51.1 46.1 43 41.2 39.6 35.5 37.2 36.3 53.5 52.1 49.9 29.9 17.1 8 1.9 0.6 -0.9 -1.7 -1.7 -1.7 -1.5 -1.1 -0.7 -0.4 0.1 0.6 1 1.5 1.9 1.9 9.3 10.1 10.9 24.2 32.4 35.2 31.8 29.5 24.7 15.6 9.3 7.8 19.6 20 5.4 4.8 5.1 12 34.6 38.9 35.5 26.5 24.7 22.6 16.7 12.7 9.5 12.9 12.9 12.5 12.1 13.1 12.5 14.2 15.1 15.2 18 23.1 21.1 20.9 18.4 8.7 8.7 13.1 21.7 21.3 19 17.1 19.4 25 24.6 29.6 38.3 50.8 62.2 78.1 87 91.4 87.9 94.2 99.1 99.7 101 103 99.6 105.3 108.7 111.2 116.1 118.6 123.1 128.2 130.9 132.9 137.9 143.3 138.7 137.2 138.3 137.8 140.8 141.4 131 129.2 120.3 114.9 110.5 106.8 104.1 97.8 89.8 75 81.6 93 91.5 83.8 78 78.3 73.9 55.7 55.3 55.3 55.1 52.3 60.4 53.6 49.1 45.5 43.9 38.8 34.6 31.1 30.3 30.4 30.4 31.9 36.7 40.4 45 40.9 33 25.6
-1.7 37.3 59.2 55.8 53.8 57.7 57.8 57.8 60.4 58 56.3 58.6 59.5 60.6 57.8 56.8 55.1 53 52 44.9 38.6 25.9 20.4 29.4 41.4 48.5 46.4 46 46.5 47.8 54.1 63.9 71.4 69.1 69.4 75.4 70 64.3 60.6 59.5 52.5 46.4 46.7 60.1 57.4 58.1 57.2 54.5 51.2 47.5 42.1 42.2 38.9 38.2 37.8 37.6 52.7 53.3 51.3 37.3 12 4.3 1.9 0.6 -0.2 -0.6 -1.7 -1.7 -1.7 -1.2 -0.7 -0.3 0.2 0.7 1.1 1.6 1.9 1.9 10.5 10.5 21 27.5 35.3 30.9 29.5 25.3 20.7 18.9 14.6 8.6 9.9 12.5 5.4 5.2 5.2 13.6 28.5 33.5 27.9 32.3 36.4 31.7 24.3 17.1 12.8 13.9 18.6 17.5 14.6 15.6 16.2 15.7 16.8 20.9 19.4 19.9 19.6 17.8 14.3 11.8 8.7 14.4 15 15.7 15 17.9 18.2 23.5 19.7 20.5 30.5 47 64.3 68.9 78.1 83.1 82.2 85.4 88.9 90.8 92 96.1 98.7 106.3 107.9 109.3 114 119.1 127.6 132 135.9 136.2 137.1 146.9 145.5 139.4 145 140.9 145.2 144.4 135.6 128 119.3 113.4 111 109.4 106.4 97.8 91.8 82.2 93.7 104.3 104.9 93.4 87.2 87 91.5 77 59.1 57 53.7 54.4 61.4 55.3 53.1 44.5 40.3 36.9 37.7 32.5 31.9 34.6 35.6 39.6 46 52.7 61.2 60.4 51.2 43.2
-1.7 -1.7 -1.7 52.3 55.6 59.1 60.5 56.5 52.7 52.3 55.5 60.3 61.3 61.2 56.5 54 52.3 52.4 49.7 45.3 38.1 23 28.2 34.3 42.5 51.3 51.6 48.2 53.2 56.4 72.1 77.3 74.7 72.6 73.7 73.7 73.8 77.3 70.2 60.2 54 53.3 68.2 67.1 61.3 52.4 52.2 51.2 48 43.7 41.6 41.9 38.5 39.6 38.3 39.5 48.4 50.2 49.1 42.7 15.3 5.5 1.9 1.3 0.7 0.5 0.2 -1.7 -1.7 -1.1 -0.6 -0.2 0.3 0.8 1.2 1.7 1.9 10.1 14.5 13.9 22.3 27.5 30.3 29.4 27.5 29.4 22.3 24.6 12.6 8.4 8.7 8.5 6.2 8.3 6.6 13.6 24.3 26.3 25.8 30 37.1 32 22.5 19.1 13 13.4 18.6 21.4 20.3 18.2 18.8 18.2 19.8 21.3 19.2 19.3 17 12.9 10.5 8.7 12 13.7 10.8 15 13.9 16.5 17.6 19.8 17.7 18.4 27.9 41.5 56.1 64.1 66.6 67.3 75.6 78.2 88 89.5 91.8 103 102.7 106.2 107.5 109.2 112.9 119.8 131.1 137.3 143 146.3 137.3 136.9 141 139.1 141.8 140.9 140.9 141 132.4 119.9 115.9 114.4 113.5 112.6 104.3 97.8 88.4 90.4 109.8 115.7 112.1 105.5 96.7 98.3 104.9 98.9 77.9 61.9 55.2 55.5 63.8 56.5 54.1 49.1 40.2 37.3 36.9 32.8 34 42.2 42.6 50.4 58.9 70.9 82.5 86.8 71.1 50.1
-1.7 -1.7 -1.7 42.1 29.7 58.8 56.9 51.5 52 54.6 58 61.1 62.6 60.5 57.8 54.2 53.5 54.6 53.2 45.7 34.9 21.3 27.9 35 45 48.2 49.8 54.3 63.2 70.3 77.3 76.8 80.7 82.8 84.4 85.7 83 81.2 76.7 60 60.1 65.9 69.7 64.7 63.5 54.2 52.7 53.2 48 44 46.1 43.9 39.6 37.3 37.3 37.3 50.8 52.6 51 42.5 29.8 11.4 6.3 4.1 1.8 1.6 1.5 0.7 -1.7 -1 -0.3 0.1 0.4 0.8 1.3 1.8 11.9 22.6 30.6 20.6 21.1 26.2 26 32.6 33.7 32.4 27 25.3 18.3 11.6 8.7 8.5 14.2 18.9 8.5 30.9 35.8 25.4 23.8 22.3 19.7 18.5 17 14.5 12.7 12.9 16.9 24.4 23.4 22.6 22.6 20.8 21.1 23.4 20.8 18.9 16 12.3 8.7 8.7 8.7 9.4 8.7 9 15.4 17.8 16 15 13.8 18.1 22.5 40.3 51.7 53.2 57.8 56 62.8 73.2 81.1 85.4 87.4 99.1 113.2 115.5 113.1 111 115.9 120.9 128.4 133 149.2 155.4 146.8 134.4 140.6 139.1 138.1 138.7 136.3 131.5 124.8 120.7 117.4 116.8 117.7 112.6 105.2 94.6 95.4 104.9 122.4 125.3 118.3 117.3 110.6 111.9 100.9 98.7 97.7 79.1 62.6 60 64.5 54.8 52.7 48 43.5 38.5 39 33.7 38.7 51 49.5 65.3 77.7 90.8 104.9 110.3 88.3 58.8
-1.7 -1.7 -1.7 -1.7 -1.7 -1.7 1.4 43.5 53.3 57.4 58 61.2 61.6 60.3 57.7 54.5 56.1 57 52.1 42.6 27.8 21.3 34.4 40.2 48.3 51.7 52.5 62.5 65 76.8 81.2 83.7 84.8 85.1 88.4 87.6 83.8 80.9 76 63.1 64.5 70.5 64.7 63.7 63.3 58.4 53.6 47.3 47.4 43.6 44.3 41.6 37.3 37.3 37.3 37.5 54.3 53.9 50.4 48.2 43.6 25.8 18.5 13.7 16.2 17.7 16.3 8.9 -1.7 -1 -0.2 0.4 1.1 1.5 1.9 8.6 20.2 25.3 24.8 22.4 23.6 24.3 27 38.4 41.6 35.9 36.5 35.8 29.8 22.8 22.3 18.5 26.8 10.7 8.5 31.6 37.3 33.6 29.3 29.1 25.6 15.8 14.7 16.1 13.5 13 15.1 24.1 29.9 25.8 26.6 26.6 25.2 26.7 22.5 21 19.6 13.4 10.1 8.8 8.7 8.7 8.7 8.7 17.5 14.3 11.9 10.1 14.2 15.3 18.6 28.7 34.9 39 43.4 46.2 55 66.8 73.5 92.5 102.4 116.1 123.9 123.7 117.4 115.7 117.9 121.1 128.9 134.9 146.2 158.4 148.7 135.8 132.3 133.6 128.6 126.9 126 125.2 122.5 119.1 117.7 118 116.1 115 107.4 106 111.3 116.5 131.2 132.8 126.2 122.5 109.6 106.6 100.8 100.4 101.4 95.9 68 66.3 62.8 55.2 52.3 51.2 49.8 43.7 42 38.6 44 50 59.4 82.1 93.6 107.5 125.4 127.8 107.4 78.7
-1.7 -1.7 -1.7 -1.7 -1.7 -1.7 -1.7 54.4 56.1 57.6 59.5 61.5 61.4 62.3 58.5 55.7 56.5 58.1 45.7 40.3 21.6 25.6 47.3 48.6 51.4 52.1 53.9 58.8 70.3 78.7 82.3 83.1 83.5 87.9 86.5 84.6 83.5 78.8 74.1 65.6 66.1 68.8 71.7 70.5 70.4 62 57 47.8 43.2 43.2 42.7 39.9 37.3 37.3 37.3 37.3 54.8 54.9 53.3 50.9 52 51.3 43.9 25 23.2 23.9 20.6 12.5 -1.7 -1.7 -0.1 1 1.6 5.3 5 13.9 22.1 28.5 27 30.1 28.6 33.1 44.1 46.6 50.3 56.5 48.1 44.1 40.2 32.8 32.7 35.3 23 8.6 8.9 17.3 19.9 34.8 25.2 20.5 16.9 15.7 16.6 22.5 28.6 15.9 14.5 19.4 34.1 29.9 28.8 30.7 30.2 28.6 28 22.3 19.9 20.8 14.4 12.2 8.7 8.7 8.7 8.7 8.7 8.7 8.7 8.7 8.7 11.9 14.5 17.3 19.9 27.7 32.6 36.1 48.3 63.5 82.7 97.8 112.8 121 133.6 127.8 123.9 118.7 119.4 121.8 125.2 136.3 143 149.6 147.1 130.6 128.3 129 126 125.5 124.8 122 121.6 118.4 117.8 117.1 115.7 113.3 113.4 118.7 119.4 128.4 135.7 136.9 132.7 122.4 108.9 103.2 102.9 101.1 107.6 95.2 77.7 65.7 60.7 58.1 54.5 56.7 57.5 47.6 46.3 41.6 49.5 58.2 74.2 97 108.5 124.8 136.2 141.4 127.2 91.8
-1.7 -1.7 -1.7 -1.7 -1.7 -1.7 19.5 56.1 59.5 58.2 60.2 61.9 61.6 60 58.7 56.6 55.8 50.3 42.6 37.9 27 37.2 51.4 53.8 53.3 59.3 60.7 67.6 78.1 80.4 83.5 82.7 83.4 86 85.2 84.2 82.8 84.7 73.3 66.7 73.5 74.8 73.9 73.7 69.8 66.2 57.3 48.8 44.2 41.7 40.2 37.3 37.3 37.3 37.3 37.3 55.2 55.6 50.7 52.6 52.9 51.1 51.3 47.5 32.6 25.8 21.8 20.1 4.2 -1.7 -0.1 1.1 8.9 11.3 12.4 18.6 27.7 33.2 32.9 32.6 32.4 43.3 48.2 48.2 56 72.3 58.3 56.4 46.8 39.8 38.6 29.4 11.2 8.6 9.1 12.4 14.9 30.1 36.2 31.1 25.6 23.2 18.3 24.4 36.1 20.9 20.4 19.9 24.7 42.6 31.3 30 32.5 30.7 30.1 29.4 23 21.4 17.1 15.5 13.6 8.7 8.7 8.7 8.7 8.7 8.7 8.7 8.7 8.7 8.7 13.1 15.9 19.9 31.8 38.4 50.1 69.7 79.7 108.3 117.9 122.8 138.7 134 123.2 121.1 120.5 122.1 124 136.5 140.2 140.7 139.9 128.3 128.3 130.3 126.8 125.3 125.8 122.2 120.1 118.8 117.9 116.4 114.7 115.1 123.9 125.4 123.8 133.4 131.8 143.7 135.1 128.1 116 106 105.5 102.2 104 98.1 81.9 67.4 68.7 60 54.5 56.6 56.8 48.1 45.4 47.8 57.1 65.4 88.4 102.9 122.1 139.5 148.6 147.7 140.2 107.3
-1.7 -1.7 -1.7 -1.7 63.4 60.4 54.4 56 57.5 58.8 61 61.6 62 61.4 57.8 55.2 51.7 40.1 35.8 34.5 26.7 38.5 49 55.7 61.4 63.3 65.9 76.5 79.4 82.7 87 82.7 82.6 83.3 88.1 88.9 86.8 84.7 70.9 69.8 73 76.6 72 67.3 62.9 58.3 57.7 57.5 55.3 42.8 37.3 37.3 37.3 37.3 37.3 37.3 53 54.4 52.4 52.6 53.3 53.7 53.1 52.4 48.7 30.4 22.3 13 6.4 -1.7 0.2 1.8 12.4 14.9 12.7 27.7 39.1 36.5 34.1 33.8 34.3 39.8 44.2 52.6 63.3 68.2 60.7 54.4 48.6 45.4 44.9 28.1 18.4 9.4 9.3 17 23.4 35.3 42 41.5 33.2 34.5 35.4 23.8 31.9 22.5 24.2 22.5 24.1 28.1 33.7 30.7 30 31.1 31.9 33.3 29.2 23.3 20.7 16.9 13.6 12.2 10.2 8.7 8.7 8.7 8.7 8.7 8.7 8.7 8.7 8.7 12.2 21.2 36.1 42.4 54.5 70.1 74.8 95.4 118.3 124.9 135.2 134.6 122.5 122.2 120.5 121.6 124.5 130.1 137.1 138.2 132.2 129.6 130.9 131.8 127.2 126.1 124.1 122.4 123.1 127 133.3 130.1 126.5 127.5 125.1 126.3 131.8 133.6 132.4 146 142.1 130.1 117.8 108.9 106.3 103 105.2 101.8 90.1 73.8 67.4 58.2 57.1 59.6 58.9 61.2 59.3 55.6 66.7 70.8 97 114 136.6 147.6 149.9 152.9 129 104.5
-1.7 -1.7 -1.7 -1.7 63.9 57.5 56.7 56.8 58.4 60.6 61.1 61.2 60.5 63.6 55.2 48.4 39.5 33.3 31.8 30.7 28.9 40.5 50.9 56.6 62.6 62.1 63.3 70.8 78.7 84.2 81.3 82.2 82.7 84.6 86.5 88.6 83.2 77.2 71.5 68.4 68.1 67.1 68.2 63.8 61 64.6 65.3 54.7 52.4 44.2 37.3 37.3 37.3 37.3 37.3 37.3 40.7 46.1 50.3 53.5 54.2 52.3 53.2 52.2 51.1 42.6 23.4 11.9 7 -1.7 -1.7 18.4 20.6 16.6 12.6 25.4 33.3 35.1 33.6 33 30.9 39.3 44.3 50 62.5 67.1 59.1 56.2 51.6 50.7 49.5 30.8 23.3 9.2 9 16.8 31.3 47.9 48 40.9 37.2 45.4 36.7 28.5 28.3 22.6 26.2 31.9 25.3 27.1 30.2 32.5 28 29.6 33 31.8 29.6 23.9 20.8 19.4 16.7 15.5 14.6 8.7 8.7 8.7 8.7 8.7 8.7 8.7 8.7 8.7 14.1 25.6 40.7 47.2 51.9 68.1 77.7 89 103.7 118.8 130.2 130.2 125.2 126.8 120.6 121.4 122.6 128.9 131.6 132.2 132.4 134.3 131.4 129.5 128.4 129.3 130.9 137.7 147.5 161.3 166.9 158.8 142.9 137.2 132.9 127.6 131 140.8 133.2 144.6 142.8 133.4 116.5 109.5 107.1 109.3 116.2 112.8 98.3 96.9 90.6 77.3 72.4 66.7 63.7 66.9 67.6 60.9 71 76.6 100.3 126.7 142.1 153.5 150.9 147.6 129.8 112
-1.7 -1.7 -1.7 -1.7 58.9 54.2 56 58 59.5 61.4 61.7 60.6 59.5 57.6 49.9 40.9 33.4 31.2 29.7 28.9 29.9 36.9 48.8 56.2 61.2 62.1 63.7 70.7 75.3 79.9 83 82.1 87.4 89.8 90.9 95.2 83 76.6 73.9 67.8 63.1 60.7 59.8 58.8 56.4 62.9 57.4 48.4 37.6 37.3 37.3 37.3 37.3 37.3 37.3 37.3 37.3 42.1 46.3 51.9 54.3 53.7 53.3 53.8 53.5 47.1 32 17.8 9.4 -1.7 -1.7 16.6 22.1 14.6 13.3 22.2 27.3 31.7 30.6 30.6 30.6 31.7 40.5 47.2 54.9 57.5 56.2 55 49.9 49.1 37.4 31.8 28.8 12.4 9.2 10.4 28.5 45.4 44.8 47.7 47.8 45.1 33 31 23.9 20.9 28.9 25.7 26.4 31.2 26.4 26.6 26 28.3 35.9 31.3 32.7 23.2 21.7 20.7 17.5 15.2 13 10.8 8.7 8.7 8.7 8.7 8.7 8.7 8.7 8.7 13.3 25.9 45.3 49.9 47.2 60.4 71.9 83.4 99.1 118 125.4 124.9 116.6 123.6 117 118.5 122.2 134.3 139.7 137.4 139.8 142.9 138.5 132.4 139.9 148.2 155.3 161.2 171.8 184.6 181.3 172.5 156.6 143.1 139 130.7 134 140.1 140.7 134.8 140.9 133.8 128 114.2 117.8 118.5 119.5 113.4 130.9 123.4 125.8 108.2 76.1 69.9 65.4 68.3 71.8 68.6 76.9 81.2 109.4 130.2 145.7 156 154.1 144.6 135.5 126.1
