ncols 200
nrows 82
xllcorner 290000
yllcorner 654300
cellsize 50
234.5 233.1 231.3 230.5 231 231.2 231.5 231.2 231.4 231.1 232.1 234.1 236.3 238 239 238.1 238 238.3 237.9 238.2 237.3 237 236.2 235.2 233.3 231.5 232 232 232.1 232.2 232.5 231.6 229.2 223.8 226.2 227.6 226.2 223.6 223.5 224.2 225.8 228.3 229.6 230.9 232.1 231.8 228.8 234.7 238.6 239.8 245.5 247.3 248.3 249.7 250.7 252.3 254.2 256.1 257.8 259.8 263.2 265.4 266.5 267.7 268.9 270.1 271.3 272.4 273.8 275.2 275.9 275.6 274.8 273.2 273.8 274.9 278.6 277.9 281.1 283.3 279.4 282.1 285.6 283.2 286.7 292.8 299.1 295.8 297 297 295.1 294.6 293.8 294.6 295.6 297 299 301.2 302.5 303 302.6 301.6 300.4 299.2 298.7 298.8 301.3 303.7 306 308.4 310.9 313.7 314.8 314.9 313.9 313.3 312.4 311.5 310.3 309.7 310.1 311.7 313.5 314.7 314.5 315.6 317.2 318.8 321.9 324.7 327.8 330.5 332.4 334.2 335.6 335.9 336.6 335.9 336.8 338.5 339.8 341.5 342.6 344.9 345.5 345.8 345.7 344.6 343.3 342 340.8 339.2 337.6 335.6 333.2 330.7 328 324.9 321.7 319.1 316.9 314.7 312.8 311 309.3 307.5 305.8 304 302.3 302.1 301.7 300.8 299.1 297.8 295.7 293.6 291.4 289.4 285.9 285.4 289.1 289.7 290.1 289.9 289.9 291.2 292.7 293.4 294.1 294.1 293.9 293.7 293.6 293.5 293.4 293.3 293.1 292.8 292.4 292.1
232.7 232.4 231.1 231.5 232.5 232.2 232.4 232.3 232.4 233.2 234.9 236.8 238.3 239.5 239.3 238.2 238.1 238.3 238.4 238.1 236.9 235.6 234.3 232.7 231.2 231.2 231.5 231.4 231.3 231.8 231.6 230.7 226.9 222.5 226.9 229.1 227.7 224.6 224.5 226.7 229.2 230.9 232.4 233.7 235 234.8 232.9 240.2 242.8 240.5 242.2 245.9 248.6 250.3 252.1 253.2 255 256.9 258.9 262.3 265.6 268.2 269.4 270.6 271.8 273 274.2 275.4 276.6 277.4 277.9 277.1 275.8 273.8 275.9 278 280.4 279.2 282.1 284.7 282.9 284.1 284.1 285.6 288.5 295.1 300.8 297.8 294.8 298.6 296.9 296.1 296.3 297.6 298.9 300.6 302.6 304.1 305.1 304.5 303.9 303 301.8 301.7 301.5 301.3 303.8 307 309.4 311.5 313.5 315.6 316.5 315.9 315.1 314.1 313.1 312.1 311.2 311.5 311.9 313.8 316.4 317.8 318.7 319 320.2 321.7 324.4 327 330.2 333.6 335.4 337.3 338.7 339.2 338.8 338.1 338.6 341 343.3 344.7 346.2 347.1 347.4 347.8 347.5 346.5 345.2 343.9 342.6 340.8 339 336.9 334.6 331.7 328.3 325.3 322.3 319.8 317.4 315.4 312.9 310.9 309.2 307.4 305.8 304.4 303.8 303.2 302.3 301.3 299.6 297.8 295.8 293.8 291.8 290.1 286.8 285.5 290.7 291.1 291.3 291.5 291.6 293.2 294.8 295.1 295.1 294.6 294.3 294.4 294.2 294.1 294 293.9 293.6 293.1 292.7 293.3
231.9 231.4 231.4 232.6 233.3 234.2 234.9 235.3 235.1 235.8 237.9 239.9 240.9 239.9 239.6 238.6 238.5 238.5 238.2 237.6 235.8 234 232.1 230.8 230.6 230.9 230.1 230.6 230.3 230.3 230 228 224 225 227.2 229.4 227.8 226.3 225.6 228.4 231.6 233.2 234.8 236.9 239 236.6 236.6 242 242.8 242.8 244.5 248 250.5 252.8 254.2 255.1 256.1 258.2 261.7 265.2 268.7 270.5 272 273.6 274.8 276 277.2 278.3 279.2 279.2 279.4 278.6 277.8 277.3 278.1 279.9 282.1 282.3 284.9 287.7 285.7 284.1 284.1 288.5 292.3 296.5 300.2 300.7 293.7 300.7 298.9 298.5 299.4 300.9 302.2 304 305.6 307.1 306.8 306.2 305.2 304.5 304.4 304.2 304 303.9 305.7 309.3 312 313.8 315.4 317.2 318.1 317.5 316.8 315.6 314.6 313.6 312.9 313.5 314 315.7 318.4 320.1 321.6 322.5 323.5 324 325.6 328.6 333 335.9 337.7 339.6 341 341.6 341.9 341 342.1 344.2 346.2 347.5 348.7 349.1 349.5 349.7 349.4 348.4 347.2 345.9 344.2 342 340.2 338.1 335.9 332.7 329 325.9 323.1 321.1 318.3 315.9 313.4 310.5 308.7 307.5 306.2 305.7 305 303.9 302.9 300.9 299 297.9 296.7 294.7 293.4 291.4 288.7 285.6 289.7 291.7 292 292.7 294.8 296.5 296.5 296.2 295.9 295.4 294.9 295 294.8 294.6 294.6 294.8 294.9 294 294.1 294.7
231.7 231.2 232.2 234.1 234.5 235.4 237 237.9 238.3 239.4 240.9 242.3 242.5 241 239.9 239 238.9 238.3 237.3 236.6 234.8 232.3 231.4 230 229.6 230.1 230.1 229.3 227.4 227.2 224.5 223.6 224.9 226.5 228.1 228.8 228.1 226.7 226.8 231.4 233.6 235.9 237.7 240.5 241.9 237.7 237.2 241.2 243.7 245.1 247.3 249 251.5 254.3 255.8 256.9 257.9 260.8 264.5 268 270.8 272.6 274.2 275.7 277.2 278.7 280.2 281.3 281.5 281.4 281.2 280.9 280.3 280 278.7 276.4 284.1 285.6 287.9 290.6 290.2 287.2 288.7 293.9 297.5 303 303.1 303 299.4 301.7 301.8 301.8 302.9 304.8 305.9 307.5 308.7 308.9 308.4 307.6 307.1 307.2 306.8 306.7 307.2 306.6 308.1 312 314.2 315.9 317.4 318 319.4 319.3 318.4 317.1 316.1 315.4 315.2 316.2 316.6 317.5 320 322.4 324 325.3 325.9 326.2 327.8 330.9 335.3 337.9 339.5 341.1 342.4 343.5 344.5 345 345.8 347.4 348.9 350 350.9 351.2 351.6 351.6 351.3 350.3 349.1 347.9 345.7 343.4 341.4 339.3 337.5 333.5 329.8 326.6 324.3 322.3 319.5 315.5 312.4 310 309.2 308.3 307.7 307.1 305.7 304.4 302.5 300.3 298.8 297.8 296.9 295.8 294.7 292.6 290.3 286.6 289.3 292 292.9 294.2 298.3 298.3 297.8 297.1 296.8 296.3 295.8 295.8 295.5 295.4 295.5 295.6 295.8 295.5 296 295.7
232.3 231.8 233.7 234.9 235.8 237.4 238.6 239.7 241.1 242.2 242.8 243.1 243.1 241 239.4 238.8 239.2 236.6 235.9 234.8 232.4 231 230.2 229.9 228.5 228.6 227.9 226.2 224.7 224.9 225.1 225.6 226.6 228 228.5 230.1 229.9 230.1 227.5 235.6 238.5 240.1 241.5 242.3 242.5 238 238.1 242.4 246.1 247.5 250.3 251.5 253.2 255.7 257.7 259.1 261.8 264.4 267.2 270.6 272.6 274.7 276.3 277.8 279.1 280.4 281.8 282.9 283.1 283.2 283.1 282.7 282.8 274 275.8 279.4 284.3 287.9 290 291.7 292.5 292.6 292.7 300 301.7 306.1 305.5 305 304.6 304.1 303.6 305.2 307.5 308.8 310.1 311.5 311.4 310.7 310 309.6 309.9 309.9 309.4 310.3 310.7 307.4 309 313.9 316.4 317.8 319.2 320.3 321.1 321 320 318.9 317.8 317.4 317.5 318.6 319.3 320.2 321.6 324.2 325.6 326.8 327.8 329.6 331.8 335 338.1 340.1 341.5 342.8 343.5 344.6 346.4 348 348.9 350.1 351.4 352.5 353 353.3 353.7 353.4 353.2 352.1 351.1 350 348.2 345.9 343.7 341.8 339.2 334.9 330.9 327.3 324.4 321.8 318.4 314.9 311.3 309.8 309.1 308.9 308.5 307.7 306.4 304.1 301.9 299.8 298.7 297.8 296.7 295.8 294.9 293.1 290.6 287.7 291.4 293.2 293.9 294.6 298 299.3 298.9 298.3 297.7 297.2 296.8 296.5 296.4 296.3 296.3 296.5 296.8 297.1 296.9 296.1
232.6 233.9 235.2 237 238.6 239.7 240.9 242 243 242.9 242.9 243.1 242.3 240.7 238.8 237.9 236.2 234.5 234.3 232.9 231.5 230.7 230.9 231.7 228.7 227.4 226.4 224.6 225.1 225.6 226.3 227.3 228.3 229.2 230.5 232.7 233.8 235.3 230.4 239.9 241.8 243.3 243.9 243.5 242.4 239.6 239.7 243.8 247.8 250.4 252.7 253.9 255.1 257.5 259.9 262.2 265.6 268.4 270.9 272.9 274.9 276.9 278.2 279.6 280.9 282.3 283.6 284.6 284.8 284.9 284.9 285 285.5 276.7 278.9 282.6 289.2 289.9 292.6 297.1 298.1 296.3 297 303.5 308.3 308.5 308.1 307.3 306.8 309.4 308.5 309.2 311.5 312.8 313.9 314.1 313.6 313.1 312.5 312.4 312.7 312.6 313.5 313.8 312.9 310.9 310.6 313.6 318.6 320.1 321.2 322.5 323.2 322.9 321.9 321 319.8 319.5 319.8 320.8 322.1 323.4 322.8 325.1 326.5 327.8 330 333.2 334.9 337.9 341.3 343.7 345.1 345.9 346.1 347.4 348.9 350.8 351.7 352.7 353.8 354.8 355.1 355.4 355.5 355.1 354.5 353.8 353.1 352.2 350.6 348.9 346.8 344.4 340.8 337 332.6 328.3 324.3 320.1 316.6 312.8 309.8 308.7 308.9 308.6 308.5 307.8 306.4 303.8 301.4 299.4 298.3 297.4 296.5 295.5 294.4 292.1 289.6 288.5 290.3 294.3 294.9 296 297.9 299.9 300 299.4 298.7 298.1 297.6 297.3 297.2 297.2 297.2 297.6 298.3 297.7 296.8 296.2
234.8 236.3 238.3 240 241.6 243.1 244.1 244.5 244.6 243.9 243.7 243.2 241.3 240 237.7 235.8 234.2 234.4 235.1 233.6 231.9 230.8 230.6 230.6 229.1 227.2 224.9 225.7 226.3 227.1 228.5 229.9 230.5 231.1 232.9 236 237.3 238.7 238.1 242.4 245 245.3 244.5 243.3 242.8 242.2 240.3 245.3 249.6 253.1 255.3 256.6 258 259.9 262.7 265.6 268.9 271.5 273.9 275.5 277.4 278.9 280.2 281.6 282.9 284.3 285.4 286.4 286.5 286.6 286.6 286.6 284.1 278.2 275 282.5 289.4 290.6 292.8 298.8 296.3 299.6 299 304.8 310.3 310.3 310.7 310.8 310.9 307 313.9 315.7 315.5 317.2 317.3 317 316.7 316.8 316.9 315.8 316.2 316.7 317.2 316.1 313.3 312 311.7 314.1 318.6 321.8 323 324.6 325.3 324.9 323.9 323 322 321.9 322.5 324.5 325.6 325.4 324.4 325.6 326.4 328.1 332.4 335.7 337.9 340 343.1 345.7 348.3 349.3 349.2 350.3 351.6 353 353.8 354.7 355.4 356.2 356.6 356.9 357 356.5 355.8 355.1 354.2 353.3 352.4 350.6 348.5 346.5 344 339.9 334.6 329.4 324.6 317.9 314.2 310.3 308.5 307.7 308.1 308.4 307.3 306.8 305 303.1 300.6 299.1 298.1 297.1 296 295.5 294.5 291.4 289.1 289.1 291.3 296.1 296.9 298.4 299.6 300.2 300.6 300.2 299.4 298.8 298.3 298.1 297.9 297.8 298.5 298.8 299.2 296.4 294.6 295.1
237.5 239.1 241.1 242.8 244.5 245.4 246.8 246.9 246.1 245.2 244.3 242.7 240.9 238.7 236.2 234.7 233.8 233.3 234 233.2 231.4 230.1 229.2 228.5 227.6 226.5 226.6 227.2 227.6 228.7 230.2 231.9 232.2 234.4 237.1 239.4 240.8 242.4 243.1 244.2 246.5 245.7 244.5 243.3 242.8 244.4 242.2 247.2 251.7 255.2 257.6 259.3 260.2 262.1 265.8 269 272 274.5 276.9 278.2 279.6 280.9 282.3 283.6 285 286.1 287.1 288.1 288.3 288.2 288.1 287.8 287.3 281.6 276.5 280.5 290.6 292.4 296.5 301.8 304.4 301.3 302.7 304.4 312 313.4 314.4 314.5 315.4 317.3 318.3 317.4 321.1 320.6 320.6 320.6 321 321.1 320.5 320.2 321.1 321 319.9 318.2 315.1 313.1 312.5 315.7 320.1 323.2 325 326.8 327.4 326.8 325.9 324.9 324.1 325.1 326.2 327.5 327.2 326.7 325.4 326.2 327.4 329.7 333.5 338.2 340.7 341.9 344.7 347.7 350.4 351.9 351.8 352.6 353.6 354.8 355.5 356.4 356.8 357.4 357.8 358.2 358.2 357.9 357.1 356.1 355.2 354.2 353.5 352.3 350.1 348 344.4 340.3 335.3 329.9 324.2 318.7 312.7 308.3 306.9 306.1 306.2 305 303.4 302.2 300.9 300.3 299.9 298.9 297.4 296.2 295.5 295.4 294.6 291.8 290 290.5 293.1 298.6 299.5 300.1 300.5 300.9 300.9 300.8 300.1 299.5 299.1 298.9 298.7 298.8 300.2 300.2 297.9 295.2 293.6 294.2
240.2 241.9 243.5 245.6 246.5 247.3 247.8 247.8 246.9 245.8 244.8 242.6 239.2 236.5 234.5 233.7 233 232.3 232.4 231.6 230.8 229.4 228.7 228 227.3 227.1 227.7 228.2 228.9 230.4 231.9 233.9 235 237.8 240.4 242.8 244.1 246 245 246.4 246.7 247.4 246.6 244.8 245.6 247.4 248.1 248.4 253.7 257.4 259.5 260.7 261.7 264.5 268.7 272.1 275.1 277.4 278.8 280.2 281.4 282.8 284.2 285.6 286.8 287.8 288.8 289.8 289.7 289.6 289.6 289.5 289.3 284.8 279.7 283.8 291 292.5 300.2 304.2 307.7 307 306.3 310.2 314.7 316.2 317.3 319.6 320.8 321.8 323.2 319.7 322.4 324.9 324.4 324.2 324.3 324.9 325.2 325.6 324.5 322.4 320.7 318.5 317.7 314.9 315.3 318 321.5 325 327 329 329.3 329.3 328.4 328.4 328.2 329 329.4 328.9 328.4 327.7 326.7 327.6 328.8 331.4 334.9 339.9 343 344 346 349.1 352 354.3 354.5 354.8 355.5 356.6 357.2 357.8 358.2 358.3 358.8 359.1 359.1 359.1 358 357.1 356.1 355.2 353.8 352.2 349.4 346.2 342.6 339.5 334.4 328.7 322.3 317.2 312.2 308 304.8 303.4 302.4 301.3 300.1 299.2 298.5 297.6 297.5 297.6 296.7 295.2 294.9 294.7 293.9 291.4 290.8 292.8 295.4 299.5 302 302 301.2 301.1 301.1 301 300.8 300.1 299.9 299.7 299.6 299.8 300.3 298.2 295.6 293.7 292.2 293.3
242.6 244.4 246 247.9 249.3 250.1 249.7 248.8 247 245.8 244.5 241.5 237.5 235.4 234.2 233.2 232.2 231.2 230.7 230 229.6 229.1 228.4 227.5 226.6 228.1 228.5 229 229.8 231.3 233.5 236.7 238.8 241.1 243.4 245.7 247.7 249.4 242.7 247.1 248.8 250.2 248.2 246.2 248 250.1 248.6 249.7 255.3 259.2 261.1 262.4 263.6 267.8 271.7 274.7 277.3 279.1 280.3 281.7 283.2 284.5 285.9 287.1 288.4 289.4 290.3 291.1 291 290.9 290.8 290.9 284.9 277.3 283.8 291.9 295 296.9 303.5 307.1 312.6 313.5 307.4 314.8 317.8 319.2 321.9 324 325.1 326.5 327.8 329.1 327.6 328 328.8 328.3 329.1 329.7 329.4 327.6 325.2 322.6 320.2 319.3 318.7 317.8 318 320.3 323.7 327.1 329.1 330.4 330.7 331.1 331.8 332.3 332.6 331.5 330.4 329.8 329.1 328.3 327.9 329 330.3 332.7 336.7 341.1 344.8 346.4 347.4 349.8 352.8 355.3 356.4 356.6 357.2 357.7 358.2 358.9 359.5 359.2 359.3 359.3 359.1 359.3 359.7 359 357.7 355.3 353.4 349.9 346.3 343.1 340.1 337.3 331 324.9 319.2 313.9 309.9 306.8 304 303 302.3 301.5 300.4 299.3 298.5 297.3 296.2 295.6 295 294.5 294 293.7 292.8 291.1 291.5 295.2 298.8 302.8 303.9 302.7 301.9 301.6 301.4 301.3 301.2 300.9 300.8 300.7 300.4 300.1 298.3 296.2 293.6 291.2 290.2 292.9
245.2 246.8 248.4 250 251.7 251.4 249.7 248 246.5 244.6 243.1 240.3 236.8 235 233.9 232.8 231.8 230.8 230.3 229.9 229.5 228.9 228.1 227.4 228.1 228.6 229.2 230.7 232 235.4 233.2 238.2 241.3 243.6 246.7 249.9 250.8 250.4 242.5 248.5 251.7 252.4 249.4 247.7 250.9 251.9 248.9 253.9 257.3 261 262.7 264.5 267 270.5 274.5 277.3 279.2 280 280.9 282.6 284.3 285.9 287.1 288.6 289.9 290.9 291.9 292.4 292.3 292.2 292.1 291.9 283.9 284.1 295 292.9 293.7 298.8 306.2 310.4 323.2 311.8 309.6 315.9 320.3 321.9 326 327.2 329.1 330.5 331.5 332.6 333.2 334.1 334 332.3 332.9 333.6 331.8 328.7 324.6 322 320.8 320.2 319.6 319.1 319.4 321.8 325.4 329 330.9 332.4 332.9 333.7 335.1 337.4 337.3 333.3 331.1 330.4 329.6 328.8 328.8 329.8 331.1 333 336.5 340.6 345.9 348.7 349.1 349.7 352.3 356 357.5 357.6 358 358 358.1 358.6 358.8 358.7 358.8 359.3 359.2 359.5 360 359.9 357.6 355.1 353 349.6 345.5 341.8 338.3 333.3 327.6 323.2 317.8 313 309.3 306.4 304.5 303.5 302.7 301.7 300.6 299.4 298.4 297.6 296.5 295.7 294.9 294.2 293.3 292.5 292.7 291.9 293.6 297.3 300.9 305.1 305.7 303.7 302.8 302.2 302 301.8 301.5 301.3 301.1 300.5 299.6 297.8 296.3 294.5 292.4 289.6 289.1 290.7
248 249.3 250.7 251.4 251 250.2 248.7 247.2 245.9 243.5 241.7 237.9 235.6 234.6 233.5 232.5 231.4 230.8 230.4 229.7 229.3 228.7 227.9 228.2 228.6 229.2 230.6 232.5 235.2 240.5 233.7 240.7 243.7 246.8 249.9 252.1 251.7 244.2 248.9 251.5 253.9 251.8 250.9 250.2 253.2 248.6 253.3 258.3 261.3 263.2 265.2 267 270.1 272.7 276.1 278.4 279.4 280.2 281.2 283.2 285.2 287 288.5 290.1 291.3 292.4 293.3 293.7 293.5 293.4 292.5 292 288.2 288.9 291.3 291.9 300.6 305.3 311.8 319.6 327.4 322.1 320.2 319.1 324 327 329.2 331.1 333.8 334.9 336.1 336.9 338.1 338.6 337 336.2 335.8 335.1 331.2 326.8 323.3 321.7 321.3 320.8 320.3 319.9 320.4 323.1 326.6 329.7 331.9 333.5 335.1 337.1 338.4 339.8 337.6 332.2 331.4 330.7 330.1 329.4 329.5 330.1 331.1 332.9 336.1 340.3 346.4 350.1 351.1 349.9 351.8 355.2 356.9 357.2 357.1 357.1 356.8 356.7 356.9 356.8 357 357.6 358.2 359.6 360 358.5 356 353.4 350.9 347.7 343.6 340.5 336.6 330.8 326.3 322.2 316.9 312.7 310 307.9 306.5 305.1 304.1 302.6 301.2 300.1 299.1 298.3 297.5 296.1 295.7 295.3 294.4 292.9 292.3 292.6 295.2 298.7 302.4 306.4 306.5 305 304.1 303.1 302.4 302 301.6 301.2 300.9 300.5 298.5 295.8 293.3 291.2 289.7 288.7 288.1 288.3
249.7 249.8 249.8 249.6 249.4 248.7 247.7 245.9 244.1 242.3 240.3 237.4 236.1 235.1 233.8 232.6 231.3 230.8 230.5 229.8 229.1 228.6 228.4 228.8 229.5 230.2 232.5 235 239.6 240 234.5 242.3 247.1 250.1 252.4 252.4 247.9 249.3 253.2 255.1 255.1 253.6 253.6 252.6 252.3 252.6 257.4 262.2 263.4 265.3 267.5 269.4 271.5 273.9 276.6 277.9 279.1 280 281.6 283.7 285.7 287.7 289.8 291.5 292.8 293.9 294.6 295 294.8 293.9 293 293.5 293.2 292.2 294.8 302 305.5 315.1 324.8 338 340.5 341 338 326.4 327.6 331.5 332.2 335.7 339.4 341.2 338.9 340.6 341.7 342.7 341.7 340.9 338.4 334.7 328.3 324.9 322.3 321.5 321 320.6 320.1 319.7 320.6 323.5 327.3 330.3 332.7 334.6 337.5 340.3 340.1 337.9 334.4 332.2 331.7 331 330.4 329.7 330 330.7 331.5 332.8 335.9 340.4 347.4 351.8 352.1 350.3 351.3 353.3 354.8 355.8 355.7 355.3 354.9 354.8 354.9 354.9 355.5 356.4 357.3 358.2 358 356.7 354.3 351.9 349.3 345.6 342.1 339.2 335.6 330.6 325.1 320.7 316.7 313.8 311.3 309.9 308.5 307.1 305.9 304.3 302.8 301.2 299.9 299.1 298.1 297.9 297.6 297.1 296.4 295.3 294.3 293 296.8 301.4 304.5 307.2 306.9 306.4 305.3 304.3 303.2 302.6 301.4 300.5 300.2 299.1 296.8 293.9 291.5 289.8 288.5 287.9 287.3 287.6
248.1 248 248.4 247.8 247.5 246.6 245.7 244.4 242.8 241 239.1 238 236.8 235.6 234.3 232.9 231.8 231.1 230.6 229.9 229.2 228.9 229.4 229.7 230.4 232.5 235.1 241.9 247.7 243.1 240.6 246.6 250.1 251.7 251 249.5 245 251 254.2 256.2 256 255.8 256.5 254.6 253.3 258.3 262.6 263.6 264.7 266.5 268.8 270.2 272.3 274.3 275.6 276.9 278.5 279.8 281.7 284 286.4 288.4 290.6 292.6 293.9 295.5 295.8 296.1 296.2 295.5 295.1 294.9 297.5 299.4 300.7 302.1 312 325.4 335.5 332.1 320.3 331.3 331.5 327.4 331.7 334.5 338 340.9 344 346.4 343.1 344.4 345.7 346.1 345.3 343.7 336.8 331 324.4 322.8 321.9 321.4 320.8 320.4 319.9 319.4 320.6 323.6 327.6 330.7 333 335.5 339.2 341.1 337.7 334.6 333.4 332.7 331.8 331.3 330.7 330.2 330.4 330.9 331.4 332.5 335.7 342.1 349.5 351.9 352 350.4 349.9 351.7 353.2 353.9 353.8 353.5 353.1 352.9 352.7 352.3 353.9 354.7 354.5 355.8 356.9 356.2 353.3 350.6 347.4 344 340.5 337.4 333.1 329.2 324.4 320.2 317.4 314.9 313.4 311.9 310.5 309 307.4 305.6 303.7 301.9 300.5 299.4 298.9 298.6 298.2 297.8 297.8 297.8 296.8 295.3 298.1 302.5 305.9 308.1 307.8 307 306.4 305.3 304.3 303.4 301.4 300 298.5 297 294.9 292.2 290.1 289.1 288.2 287.4 286.6 286.4
246.9 247.4 247.9 247.5 246 245.1 244.2 243.1 242.6 240.7 239.1 237.9 236.7 235.2 234.4 233.3 232 231.3 230.6 229.6 229.8 230.1 230.5 230.6 232.5 234.9 237.6 242.8 249.6 252.9 251.5 250 250.7 251.2 249.8 248.1 245 251.1 254.2 257 256.9 257.9 258.9 254.6 256.8 263 264 264.5 265.1 267.3 268.9 269.9 271.6 273.8 274.5 276.3 278.4 280.2 282 284.2 287.3 290 292 294.2 295.6 297.3 298.5 298.4 298.1 297.7 297.8 300.6 301.2 303.9 300 303.3 315.6 331.2 332.1 320.1 320.1 320.4 320.2 333.7 341.5 344 343.1 345.3 351.4 351.6 348.8 348.7 349.1 349 347.3 343.5 333.8 326.2 323.2 322.6 321.8 321.3 320.7 319.8 319.4 318.9 319.5 322.4 326.7 330.6 333 335.4 336.2 337 334.9 333.6 333 332.4 331.8 331.4 331 330.6 330.2 330.4 330.9 332.2 335.7 342.2 349.5 351.9 351.8 349.7 349.4 350.5 351.1 351.7 351.8 351.5 351.2 351 351.5 351.9 351.8 352.4 353.3 354.3 356.8 356.3 353.3 349.9 345.8 342.4 338.9 335.5 330.2 326.6 323.3 320.1 317.7 315.4 313.6 312 310.4 308.9 307.7 305.5 303.3 301.3 300.7 299.9 299.5 299 298.4 298.3 298.3 298.3 298.5 297 298.9 303 307.2 309 308 307.5 306.9 306.4 305.3 304.8 302.7 299.9 297.3 294.7 292.7 290.6 289.6 288.7 287.8 286.9 286 285.5
246.7 246.7 246.7 245.8 244.8 243.9 242.8 242.6 242.5 240.8 238.9 237.8 236.4 235.8 235.2 234.1 232.5 231.4 230.4 230.2 230.7 231.1 231.4 231.9 234.2 237.8 240.7 244.2 250.2 257.2 258 255.7 251.5 251 249.7 247.1 249.9 252.6 255.3 258.6 258.5 260.1 260.1 255.8 256.1 262 262.9 263.3 264.5 266.5 268.5 269.7 271.4 273.2 274.9 277.7 280 281.9 284 286.2 289 291.7 294.1 296.3 297.8 299.2 300.7 301 300.7 301.3 302 305.5 308.8 308.4 303 314.5 315.3 315.5 317.6 320.2 320.3 320.5 322.2 338.1 344 347.1 350.6 353.4 355.8 356.7 354.1 350.2 351 351.2 345.6 336.8 328.5 324.3 323.1 322.4 321.6 320.8 319.9 319.1 318.5 318.3 318.6 320.6 324.9 328.9 331.8 333.7 334.1 334.3 333.6 333 332.6 332.2 331.8 331.4 330.8 330.1 329.9 330 330.6 332.5 335.4 341.4 347.4 350.5 350.8 349 348.6 349.2 349.6 349.7 349 348.5 348.4 348.7 349.1 348.7 349 349.2 350.6 352.4 355.7 356.2 353.2 349.7 345.7 341.3 337.7 334.2 329.1 325.7 322.6 319.9 317.4 315.5 313.4 311.8 310.4 308.8 307.1 304.8 302.4 300.9 300.6 300.2 299.7 299.2 298.6 298.7 298.8 298.9 299 298.8 300.3 303.4 307.1 308.5 308.4 307.9 307.3 306.8 306.1 305.3 304 301.2 297.5 292.9 291.3 290.2 289.3 288.4 287.5 286.5 285.6 284.9
245.5 245.4 245.1 244.3 243.5 242.6 242.6 242.5 241.7 239.6 238.6 237.7 237.2 236.6 235.7 234.5 232.9 231.5 231 231.2 231.6 232.3 232.7 233.2 237.1 240.7 243.6 246.5 251.9 259.4 260.8 258.3 252.2 251.7 250 247.4 252.1 255 258 259.9 260.7 262.9 263.6 259.9 258.5 261.8 262.6 263.3 264.5 265.9 267.8 269.5 271.4 274.3 276.6 279.9 282.7 285.2 288.1 289.9 291.8 294.4 296.5 298.5 300 301.4 302.7 304.3 305.8 306.8 307.5 307.9 310.4 310.4 305.1 314.8 315.6 315.9 318.4 320.5 320.6 320.8 333.4 340.4 344.1 346.5 356.5 357.6 359 359.3 353.2 351.3 355.7 349.3 339.1 331.4 326.5 324.2 323 321.8 321.1 320.2 319.3 318.4 317.8 317.8 317.9 319.1 322.9 327 330.6 331.6 332.1 332.9 332.6 332.2 331.8 331.3 331 330.6 329.9 329.5 329.4 329.9 330.4 331.7 335.2 339.8 344.1 346.8 347.3 347.4 347.8 348.1 347.4 345.2 344.6 344.6 345.6 346.8 347.3 347.3 347.5 348.1 349 349.9 352.8 354.2 353.7 349.8 345.6 341.1 337.2 333.5 329.1 325.7 322.5 319.6 317.5 315.6 313.3 311.5 309.9 308.2 306.5 304.4 302.4 301.2 300.8 300.4 299.9 299.4 299 299.2 299.3 299.5 299.8 300.8 303.9 306 308.2 310.3 308.6 307.9 307.4 306.9 305.2 302.4 300.2 298.3 295.1 291.4 290.4 289.7 289 288.1 287.1 286.2 285.3 284.6
243.3 243.1 243.1 242.8 242.5 242.5 242.5 241.7 240.8 239.9 239 239.1 238 237.4 235.1 233.3 232.4 231.9 232 232.4 233.3 234.2 234.7 235.3 240.4 243.6 246.4 249.3 254.2 261.3 260.6 256.6 253.5 252.1 247.2 249.8 254.1 257.5 259.6 261.1 262.9 265.4 264.8 262.6 258.8 261.1 263.8 264.6 265.3 266.6 268.2 270.7 273.8 276.6 279.6 283 286.1 289.2 291.9 294 294.8 297.2 299.5 301.5 302.9 304.5 306.3 309 310.9 312.3 312.8 311 313.4 314.1 309.5 314.9 316 316 318.9 320.7 321.5 320.8 333.6 337.5 345.1 347.8 355.9 360.4 360.9 360.6 352.8 352.5 352.9 341.4 333.4 328.6 326.3 324.4 322.4 321.1 320.4 319.8 318.9 318 316.5 316.6 317.1 318.7 321.8 325.7 329.2 330.6 331.4 332.2 331.7 331.3 330.9 330.5 330 329.6 329.2 329 329.2 329.7 330.1 331.2 335.1 338.6 341.3 343.3 344.2 345.2 345.7 344.2 342.1 342 342.1 342.8 344 344.6 345.2 345.8 346.6 347.3 348 348.6 351.7 355.1 357.1 352.7 347.1 341.3 336.9 333.1 329.4 326 322.6 319.2 317.6 315.6 312.9 310.7 309.1 307.4 305.9 304.3 302.7 301.7 301 300.5 300.1 299.6 299.4 299.7 300 300.4 300.7 303.4 308.2 310.7 311.8 311.8 309.8 308.2 307.4 306.5 303.8 300.4 298 293.9 291.9 290.6 289.4 288.7 288.1 287.5 286.8 285.9 285 284.3
243.2 242.8 242.7 242.5 242.4 242.4 242.3 241.9 241 240.9 241.3 240.9 238.3 235.8 234.1 233.4 233 233 232.9 233.8 234.9 236.1 237.5 240.1 244.6 246.2 249 251.7 256.8 262.3 260.5 258.4 253.9 249.5 251.3 252.6 256.1 259.4 261.9 264 266.6 265.8 263.8 261.2 260.7 261.9 264 265.1 265.9 267.5 269.5 273 277.1 280.2 283.1 286.6 289.8 292.8 294.9 296.9 298.8 301.2 304 306.2 307.8 310.3 313 315.3 317.6 318.2 318.1 318.1 317.2 316 317.4 320.8 320.6 321.7 321.5 325.2 333 335.7 331.7 331.9 333.7 346.9 351.8 360.2 360.1 356.9 350.5 351.2 344.8 336 330.9 327.9 326 324 321.9 320.3 319.8 319.4 318.5 317.4 315.2 315.2 316.3 318.6 322 325.1 328 329.8 330.7 331.4 330.9 330.5 330.1 329.6 329.3 329 328.7 328.5 329 329.4 329.9 331.4 334.5 337.7 338.6 340.4 341.3 342.2 341.3 339.6 339.5 339.8 340.6 342 342.8 343.7 344.5 345.4 345.9 346.6 347.2 348.2 351.7 356.8 351.6 353.4 347.2 341.1 336.1 332.2 328.4 324.8 321.2 317.5 315.2 314.1 312.3 309.9 308.3 306.8 305.5 304 302.8 301.9 301.1 300.6 300.1 299.6 300 300.3 300.8 301.1 301.5 304.2 308.2 311.3 313 311.1 309.1 308.4 307.5 305.4 300.9 297.8 295.5 292.2 291.1 289.8 288.6 287.7 287.1 286.6 286 285.3 284.1 283.1
242.3 242.4 242.4 242.4 242.5 242.5 242.5 242.3 242.3 242.5 243.4 241.5 238.8 237.1 235 234.6 234.3 234.6 235.4 236.5 237.6 239.1 241.6 243.9 246.3 248.6 250.8 253.3 259.3 262.4 261.2 258.6 253.1 249.5 253 254.9 257.8 261.4 266.6 267.4 265.6 265 262.8 261.9 262.3 262.6 264.3 265.3 266.6 269.9 273.8 277.3 281 283.8 286.7 289.9 293.1 295.4 297.6 299.8 303.2 305.8 308.3 311.9 314.3 316.5 318.9 321.4 323.4 324.4 324.6 324.5 321.2 316.9 324.4 328.9 326.8 328.9 328 327.1 328.1 329.6 331.3 333.3 335.2 338 350.4 359.1 357.7 352.3 346.3 342.2 338.1 333.5 330.2 327.2 325.7 324.1 321 319.5 319 318.8 317.9 316.3 313.8 313.9 315.1 318.6 322.1 324.7 326.8 328.9 329.9 330.5 330.1 329.8 329.5 329.1 328.8 328.5 328.2 328 328.6 329.2 329.3 332.7 333.5 334.6 335.8 337.5 338.7 338.9 337.1 336.9 337.3 338.1 339.8 341.6 342.3 343.2 344 344.7 345.4 346 346.7 347.9 352.4 352.7 351.6 350.2 344.1 338.9 334.7 331 327.1 323.4 319.6 314.6 312.3 311.9 310.5 308.9 307.7 306.3 305 304 302.9 301.7 300.9 300.3 299.8 299.9 300.2 300.8 301.2 301.9 302.5 304.6 307.3 310 311.2 308.5 307.7 307.4 305.8 303.2 298.2 294.7 293 291.2 290.4 289.1 287.8 286.6 286.1 285.6 285.2 284.7 283.1 281.7
241.4 241.9 242.6 242.9 242.9 243 243.2 243.3 243.8 244.5 244.3 240.5 238 236.3 236.6 235.9 236.2 236.9 237.6 238.4 239.6 242.7 245.9 247.7 248.9 251.1 253.6 257.1 262.1 262 259.9 257.5 250.1 253.1 254 256 258.7 263.7 268.7 267.6 265.6 264.3 263.5 263.9 263.9 263.9 264.4 265.9 268 272.7 277.4 281.2 285.4 288 289.1 292.7 295.7 297.9 300.6 305.2 311.2 309.8 313.1 312.9 319.5 323.6 326.4 327.6 328.5 329.9 331 333.8 333.5 331 334.7 336.2 328.2 328.8 328.5 328.6 329.2 330.7 333.7 334.3 335.4 339.6 349.5 352.9 353 347.7 341.8 337.9 335.5 332.2 329.3 326.4 324.9 322.9 319.5 318.6 318.1 317.8 316.8 314.8 312.5 312.4 314.4 318.1 321.5 323.6 326 328.3 329.3 329.9 329.6 329.3 329 328.6 328.3 328 327.8 327.6 328.5 329.6 331 329.9 330.7 332.3 333.1 334.4 334.5 334.2 334 333.5 336 338.7 340.3 341.6 341.8 342.6 343.5 343.9 344.1 345.3 346.5 347.7 350.6 352.9 350.5 346.7 341.5 336.6 332.2 329 325.7 322 317 312.8 310 309.6 308.6 307.5 306.3 305.1 304.3 303.5 302.7 301.7 300.8 300.1 299.9 300.1 300.4 301 301.6 302.8 306 309 309.9 309.3 309.2 307.2 305.3 304.5 302 299.4 295.4 293.2 291.6 289.9 289.3 288.1 286.8 285 284.7 284.5 284.2 284.2 283.6 282.6
241.3 241.9 242.5 242.9 243.2 243.5 244 245 245.5 245.7 243.1 239.6 237.6 237.4 237.6 237.5 238 238.5 239.3 240.2 242.9 245.2 247.5 249.7 251.7 253.3 255.5 258.6 261.7 260.4 257.6 250 253.4 254.4 255 256.7 259.6 266.4 268.7 266.4 265.4 264.6 264.8 265.5 265.1 265.3 265.6 266.7 269.4 275.1 280.4 284.5 289.3 292.5 293.4 295.3 298 304.5 304.8 308.9 311.8 305 309.8 313 317.9 323.1 325.7 331.1 332.7 334.1 335.9 337.8 341.9 344.3 348.5 347.5 330.1 328.7 328.7 329.6 344.6 347.5 348 344.6 342.3 345 343.7 342.9 345.4 340.7 337.7 335.6 333.1 330.5 327.7 324.8 322.6 320.3 318.8 318.2 317.6 316.9 315.3 313.2 311.3 311.3 313.2 316.7 318.9 322.4 325.9 328.1 329.3 329.3 329.1 328.8 328.5 328.1 327.8 327.5 327.4 327.7 328.7 329.9 328.4 328.5 329 329.4 330.2 331 330.6 330.7 329.9 333.6 336.7 338.8 340.3 341.8 342.6 342.4 343 343.1 343.1 344.1 345.5 347.1 349.3 352.7 350.4 343.8 339 334.3 330.1 326.4 323.4 319.1 314.5 311.4 308.8 307.8 307.2 306.1 304.9 303.8 303 302.4 301.6 300.9 300.3 299.8 300.2 300.4 300.6 301.1 301.9 303.9 308.4 311.1 311.3 309.2 308 307.3 306.5 303.4 300.4 297.3 294.3 292 290 289 288 287.1 285.7 283.8 282.8 282.8 283 283.5 286.4 284.8
241.6 242 242.5 243 243.7 245.3 246.4 247.2 247.6 246 241.3 239.1 238.5 239.4 239.5 239.6 239.9 240.3 241.4 243.2 245.9 248.1 250.3 252.8 254 255.5 257.1 258.4 259.5 258.3 253.5 252.3 254.9 255.4 255.7 258.5 262.1 267 265.3 264.4 265.2 266.1 266.2 266.3 267.5 267 267.1 268.1 271.5 276.4 282.3 288.1 293.2 296.4 296.8 297.2 300.1 305 309 313.2 316.7 309.2 312.7 317 320.8 325 327.3 330.7 332.6 334.9 335.6 337.7 340.5 343.7 344.6 347.7 339.6 332.3 332.1 334 335.9 337.7 340.4 341.5 341.2 341.3 339.3 338.7 338.1 336.9 335.1 333.3 330.8 328.5 325.5 322.4 319.9 318.7 318.4 317.9 317.3 316.3 313.9 311.5 310 310.2 311.5 314.1 317.8 322 325.3 328.2 329.3 329.1 328.6 328.2 327.9 327.5 327.1 327 327.9 328.3 328.1 327.6 326.6 326.7 326.6 326.2 326.8 327.8 327.8 326.4 330.2 334.3 336.7 338.7 340.1 341.6 342.5 342.5 341.7 341 342.5 343 344.2 345.4 346.4 347.1 344.8 340.5 336 331.6 327.5 323.4 320 316 312.4 309.9 308.1 307.1 306 304.8 303.7 302.5 301.6 301.1 301 300.3 299.7 299.5 299.9 300.3 300.6 301.3 302.9 305 308.6 310.5 309.7 307.5 307.1 305.4 304.3 300.9 296.8 295 293 291.9 290.2 288.5 287.5 286.1 284.5 282.6 280.8 280.4 280.7 282.3 288 282.7
242.2 242.6 243.3 244.7 246.3 247.9 249.3 249.5 248.6 246.3 240.9 239 240.7 241.4 241.7 241.8 242.2 243.8 245.3 247.4 249 250.8 253 255.5 257.1 258.4 259.1 259.1 257.6 253.6 251.7 253.3 254.4 255.7 256.3 259.1 260.9 262.6 262.9 264.6 266.8 267.7 267.9 268.1 270 271.4 268.7 270 275.4 283 284.2 288.1 293 300 299.8 299.2 303.5 308.5 312.9 317.5 320.4 313.4 315.2 317.8 322.9 326.1 333.6 338.3 340.5 341.4 341 342.7 343.9 344.8 345.4 344.1 342.9 342.4 342 342.7 342.1 340 339.6 338.1 337.3 336.7 336.2 336 335.8 334.8 333.1 330.9 328.4 326.2 323.3 319.9 318.6 318.1 317.9 317.6 316.9 315.4 312.7 309.8 308.8 309.2 310.5 314.3 318.5 322.9 326.4 329.3 330.4 329.7 328.4 327.8 327.4 327 326.8 326.8 327.2 326.5 326.4 325.6 324.6 323.9 323.7 323.6 323.5 324.8 323.7 326.8 330.5 334.2 337.4 339 340.2 341.4 341.7 341.3 340.2 339.4 340.6 341.6 341.7 342.3 341.6 341.6 340.3 336.8 332.2 328.6 324.5 320.6 317.2 313.7 310.7 308.4 307.3 306.2 305.6 304.5 303 301.5 300.4 299.6 299.3 299.3 299.1 299.2 299.6 300 300.6 301.2 302.1 305.4 306.7 307.4 306.8 305.1 303.8 302.6 300.9 298.3 295.2 293.3 292.1 290.7 289.4 288.1 286.8 285.7 283 280.9 279.7 277.7 279.5 281.5 283 279
243.1 243.4 245.2 247.1 248.4 249.2 249.4 248.4 246.6 243.5 241.4 241.4 243 243.7 243.8 244.6 246.3 248.2 249.5 250.5 251.7 253.4 255.8 257.8 259.3 260.8 260.7 259.4 255.6 252.2 251.9 254.2 254.7 255.8 256.8 258.6 260.2 261.3 264.2 266.8 268.5 269.6 269.9 271.3 273.3 275.1 273.6 275.5 282.5 286.3 289.9 291.6 294.4 299.2 300.3 301.9 307.9 311.9 316.5 320 323.6 321.3 316.9 320.1 325.4 328.4 340.1 342 343.2 343.5 343.3 344.3 344.1 344.6 343.4 343.2 342.4 341.4 341.3 340.8 340.1 339.1 338.3 337.7 337.2 336.4 334.9 333.4 333 332.5 330.1 328.3 326.1 323.9 321.5 318.5 317.8 317.4 317.2 317 315.7 313.7 310.4 308.2 307.8 308.4 310.4 314.6 319.4 323.7 326.8 329.3 330.9 330.1 328.7 327.1 326.9 326.7 326.5 326.3 325.9 325.2 324.5 323.6 322.7 321.7 321 320.7 320.6 320.6 324.5 327.6 330.8 334.5 337.5 338.9 339.7 340.7 340.2 339.8 339.2 337.7 338.3 339.3 339.3 339.2 337.5 335.5 334.7 332.6 329 325.4 322.1 318.6 315 311.6 308.7 307.3 306.3 305.8 305.3 304.2 302.7 301.4 299.9 298.1 297.3 297 297.3 298.6 299.3 299.9 300.4 300.9 301.2 301.5 302.1 304.2 304.1 304.3 303.2 300.8 298.6 296.9 294.2 292.5 291.6 290.2 288.5 287.3 284.6 282.7 281.2 279.6 277.8 275.7 278.3 279.3 278.3 275.5
244.6 245 247 248.4 248.6 248.6 248.3 247.7 245.5 243.8 243.1 243.9 245.6 246.1 246.5 247.3 249.3 250.9 251.5 252.3 254.3 257.2 259.8 260.7 261.7 261.9 260.6 256.8 253.3 252.3 253.2 253.6 255.2 256.3 257.2 258.3 260.3 262.6 265.7 268.7 270.5 271.9 272.4 274.2 276.2 276.8 275.8 280 286.3 290.1 294.6 298.6 299.6 299.1 300.7 304.1 308.6 313.8 318 321.9 324 326.2 328.6 331.8 334.4 336.4 338 338.8 339.9 341 342 342.9 343.5 343.8 343 342.4 341.8 341.3 340.8 340.3 339.5 338.7 338 337.3 337 336.1 334.6 332.6 331.5 329.1 326.9 325 323.3 321.2 319.6 317.6 317 316.6 316.3 315.9 314 311.2 307.8 307.1 307 308.3 312 315.9 321 323.6 326.4 327.8 329.3 329.4 328.1 325.9 325.5 325.5 325 324.5 324.2 323.5 322.8 321.8 320.9 319.8 318.8 318.3 318.3 320.9 324.8 327.7 331.2 335.3 337.4 339.1 339.6 339.6 338.7 337.1 336.3 336.2 335.5 336 335.8 335.3 333.7 331.9 329.6 328 325.5 322.5 319.4 316.1 312.7 310.2 308.1 306.7 305.8 305.3 304.9 304 302.7 300.8 298.9 297.2 295.5 295.2 295.8 297.3 298.9 299.6 300.1 300.4 300.6 300.8 301.5 302.6 302.4 302.9 302 300 297.1 295.3 293.6 291.9 290.6 289.8 288.9 286.4 283.5 281.1 278.8 277.6 275.4 274.1 275.3 275.4 274.3 273.1
246 245.6 248.3 249 249.1 248.9 248 246.8 245.8 244.7 245.3 246.2 248.3 248.9 249.6 250.4 252.2 253.1 253.4 254.6 257.5 260.1 261.4 261.5 262 261.4 259.5 254.5 253 252.2 252.9 253.6 255.1 256.5 257.4 259.9 262 265.5 268.1 271 273.3 274.9 275.7 277.8 280 280.5 280.9 285.1 289.9 293.9 298.3 301.5 301.9 301.3 301.5 304.1 307.8 312.6 316.5 319.7 322.4 325.4 327.9 331.1 333.6 335 337 338.4 339.8 340.8 341.8 342.7 343.8 343.3 342.8 342.2 341.6 341 340.4 339.8 338.8 337.9 337.2 336.5 335.9 335 333.1 331.2 329.1 326.8 324.8 322.8 320.6 319.4 317.8 316.9 316.2 315.7 315.5 314.4 311.6 308.6 306.4 306 306.6 310 313.8 317.3 320.8 323.4 325.1 326.8 328.5 328.5 326.3 324.7 324.6 323.9 323.4 322.9 322.4 321.9 321.3 319.9 319 317.9 316.9 316.3 316.8 320.1 324.2 327.9 331.7 335.5 337.5 338.6 338.9 338.3 336.2 335 333.2 333.7 332.8 332.3 332.2 331.8 330.3 328.8 327 324.6 322.6 319.6 316.6 313.4 310.7 309.2 307.5 306.5 305.7 304.8 304.2 303.1 301.6 299.7 298 296.2 294.5 293.7 294.7 296.9 298.6 299.2 299.3 299.4 299.5 299.8 300.1 300.4 300.3 300.2 299 298.9 297.1 294.5 292.6 291.2 289.6 288.3 288 285.4 282.3 279.9 277.6 276 273.7 272.2 274.5 272.8 271.5 270.7
247.1 246.3 249.6 249.5 249.5 249.2 248.4 247.6 246.5 246.6 247.8 249.4 250.5 250.9 252.3 253.5 254.4 255 255.5 256.9 258.6 260 261.2 261.4 261.8 261.3 257.9 254.2 253.3 252.5 252.9 254 255.2 256.6 258.4 261.2 264.7 267.6 271 274.6 278.7 278.6 279 281.9 284.3 284.8 285.2 289 293.3 296.8 300.9 305.1 304.1 302.9 302.6 304.5 306.7 310.3 316.2 319.5 322.1 325.5 328.8 331.5 334.1 336.1 338.2 339.4 340.6 341.8 343.1 343.8 343.6 343.1 342.6 342 341.4 340.8 340.2 339.3 338.3 337.3 336.3 335.4 334.1 332.9 331.3 329.4 327.4 324.9 322.8 320.9 319.2 318 316.9 316.2 315.5 314.9 314.3 311.9 309.1 306.2 305.4 305.5 307.4 311.1 315.3 318.2 320.5 323.1 324.6 326.1 327.7 328.3 326.1 323.9 323.2 322.5 322 321.4 320.9 320.3 319.7 318.3 317.1 316.1 314.9 313.8 315 319.1 324.3 328.5 332.2 335.3 337.2 336.9 336.2 334.6 332.5 331.8 331.1 331.4 330.6 329 328.8 328.6 327.9 326.6 324.8 322.9 320.6 317.1 313.7 311.2 309.7 308.4 307.5 306.5 306 306.5 307.6 304.2 301.7 299 297.3 295.5 293.6 292.3 293 295.7 298 298.3 298.3 298.3 298.3 298.4 298.5 298.1 298 296.4 294.2 293.6 292.3 292 291.3 290 290.5 288.2 285.7 283.8 280.6 278.6 276.4 274.5 272.2 270.6 273.1 272.5 270.3 269
247.6 249 249.8 250.5 250.3 250 249.6 248.9 249.1 249.3 250.8 252.3 252.9 253.8 254.8 255.3 255.7 256.2 256.8 257.6 259.3 260.9 262 262.6 262.7 259.6 255.7 253.9 253.2 252.7 253.3 254.7 256 257.2 260.1 262.7 267.3 271.5 274.5 280.6 282.6 282.2 281.4 284.7 287.7 288.7 288.8 290.7 294.1 297.1 301.5 307.5 305.1 304.1 304.2 306.1 308.2 313.1 317.7 321.8 324.8 328.3 331.2 333.2 335.1 337.3 339.3 340.7 342.2 343.6 344.1 343.7 343.4 342.9 342.3 341.8 341.2 340.6 339.9 339 337.9 337.3 336.3 334 332 330.7 329.1 327.5 325.7 323.3 321 319.3 317.8 316.7 316.2 315.5 314.7 313.6 311.7 309.2 306.4 304.8 304.1 306 308.8 312.2 316 318.9 321.2 323.1 324.7 326.3 327.6 326.9 323.9 321.8 321.3 320.9 320.4 319.7 319 318.3 317.6 316.4 315.3 314.2 312.8 311.5 313.3 316.9 323 327.5 330.6 332.7 334.4 333.2 332 331.7 331.2 330.5 330.3 330.1 329.6 327.6 325.8 324 324.9 325.5 323.7 321.8 318.5 314.8 311.5 309.7 308.3 307.6 306.9 307 306.9 307.7 307.4 304.9 301.7 299 296.6 294.5 292.8 291.5 291.7 294.3 296.7 297.4 297.3 297.3 297.3 297.7 297.4 296.9 295.3 293.4 291.8 290.5 290 289.7 288.6 288.8 288.4 287.2 283.8 281.5 278.6 276.1 274.1 273.1 271.5 268.5 270.4 270 268.7 267.4
248.9 250.4 251.2 251.8 251.5 251.2 250.7 250 250.5 251.8 253.9 254.7 254.8 255.9 256.4 256.7 257 257.2 257.8 258.8 261 261.9 263.1 263.2 262 259.1 255.1 253.5 252.7 253.1 254.3 255.6 256.9 258.3 261.6 264.5 269.7 274.8 278.1 282 285.3 285.8 284.5 287.3 290.4 291.3 291.4 291.9 294.1 296.9 303.6 306 305.4 305.3 305.7 307.3 310.3 314.9 319.5 324.3 327.7 330.5 332.9 334.8 336.6 338.7 340.5 342.2 343.2 342.7 343.1 342.9 342.8 342.8 342.1 341.6 341 340.3 339.7 339.1 338.5 337.4 335.9 333.1 330.8 328.9 327.2 325.7 324.2 322.4 320.4 318.2 316.7 315.4 315 313.8 312.5 311.3 308.9 306.5 304.8 303.3 303 306.9 308.8 312.3 316.2 319.2 321.6 323.6 325.5 327.2 327.4 324.6 321.4 320 319.5 318.9 318 317.3 316.6 315.9 315.2 314.6 313.6 311.5 309.7 309 312.2 314.8 320.1 325.3 328 329.2 330 329.9 330.1 330 329.9 330 329.8 329.1 328.3 326.4 324.2 324.4 320.7 324.5 322.7 320.2 316 312.6 310 307.9 307.1 306.7 305.9 307.5 308.3 307.3 306.7 304.2 300.9 297.9 295 293.5 292 290.5 289.7 291.9 294.2 295.7 296.3 296.3 296.5 297 297.6 297.1 295.2 291.3 290.4 289.3 288.5 287.5 286.5 286.3 285.7 284 281.2 278.5 277 274.7 273 271.7 270.8 269 267.3 267.8 266.8 265.7
251 251.8 252.5 252.6 252.7 252.1 251.2 251.6 252.1 254.2 256.2 257.1 256.7 257 257.5 257.8 258.2 258.4 258.8 260.3 261.9 262.9 263.2 262.6 261.3 257.7 254.6 252.6 252.9 253.9 255.2 256.4 257.6 259.4 261.9 266.5 271 275 280.9 284.7 288 288.7 288.3 289.2 291.6 292.1 292.1 293.1 295.4 298.8 302.8 304.1 304.4 305.5 307.1 309.6 313.3 317.4 322.2 325.7 328.7 331.1 333.5 335.6 337.9 340 341.5 342.7 342.7 342.3 342.1 342.2 342.2 342.5 342.1 341.4 340.8 340.4 340 339 338.4 337.4 335.1 332.3 329.7 328.1 326.4 324.7 323.2 321.9 320.5 318.3 316.3 313.8 313.8 312.4 311.1 309.2 306.7 304.8 303.4 302 303.2 306.8 308 310.6 315 319.4 322 323.9 327 328 325 321.9 319.6 318.5 317.7 316.6 315.7 314.9 314.2 313.5 312.9 312.2 311.6 309.4 306.9 307.3 311.4 314.4 317.9 322.1 325.2 326.7 327.8 328.5 328.4 328.7 329.5 330.1 329.8 328.9 328.1 326.4 322.9 319.3 318.3 317 322.3 319 314.7 311 308.1 306.1 305.7 304.2 302.6 304.7 308.8 307.9 305.6 303.2 300 296.2 293.2 292.5 291.3 290.2 289.4 289 289.8 290.9 294.4 295 294.9 294.9 296.7 297.1 294.7 291.4 289.5 288.7 288.5 289.7 287.4 284.4 281.9 280.8 277.6 274.8 273.6 272.8 271.9 270.7 269.7 268.1 266.8 265.1 265.2 264.1
252.7 253.5 253.9 253.9 253.6 252.7 252.9 253.4 254.6 256.9 258.2 258.2 257.8 257.8 258.4 258.7 258.9 259.2 260.3 261.3 262 263.2 262.8 262.2 259.4 255.2 253.1 253.5 253.8 255 255.9 257.1 258.5 260.6 263.7 268.9 273.4 278.2 283.3 286.9 289.1 290.4 291.5 291.1 291.6 292.6 293.1 295.5 299.4 302.6 302.9 302.8 303.5 306.3 309.1 311.4 314.9 319 323.3 326.2 328.6 331.1 333.9 336.6 338.9 340.4 341.2 340.7 340.5 340.8 340.7 341.3 341.7 341.9 342 341.5 341.2 340.8 340 339 338.1 336.3 333.1 330.3 329.2 327.7 326 324 322.3 321.3 320 318.4 315.9 312.7 311.7 310.9 308.8 306.8 304.7 303.3 302.2 301.6 303.2 305.3 306.5 308.7 314.2 319.3 322.6 324.3 327 326.2 323.1 320.4 318.5 316.8 315.5 314.3 313.3 312.5 311.8 311.2 310.8 310 308.7 307.3 304.8 306 310 313 315.9 319.8 322.5 324.4 326.2 327.1 327.9 328.7 329.5 330.3 330.1 329.5 328.9 328.2 325.7 323 323 319.8 314.6 315.3 312.5 309.4 307.5 306.8 306.3 306.7 307.1 299.1 304.3 306.3 304.4 301.9 299.1 295.5 292.4 290.7 289.4 289.2 289 288.4 287.9 287.6 289.1 290.9 293.2 293.7 293.4 293.2 292.4 290.2 288.3 287.6 289.2 289.3 289.5 288.3 283.2 278.3 275.4 273.5 272.9 271.9 270.4 269.4 268.6 267.7 266.4 263 263 263.7
254 254.6 254.9 254.4 254.5 255.1 254.8 256.9 257.2 258.5 259.3 259 258.6 258.3 259 259.4 259.6 260.2 261.9 262.3 263.3 263.4 262.7 261.4 257 253.4 253.5 253.9 254.8 255.6 256.4 257.9 260.3 263.6 267.5 272.2 276.6 281.2 285.1 287.9 289.6 291 291.8 291.7 291.5 292.6 293.8 295.3 297 300.3 300.9 302.2 304 307.2 310.5 313.3 316.9 320.4 322.7 325.6 328 330.8 334.2 337 338.7 339.5 339.1 338.3 338.4 338.7 339.1 340.5 341.8 341.9 341.9 341.8 341.5 341.1 339.9 338.9 337.4 334.1 330.4 329.4 328.7 327.4 325.6 323.9 322.5 320.7 318.9 316.9 314.7 311.5 310 308.9 306.9 304.8 303.2 302.5 302.1 301.7 302.3 304 304.4 306.7 312.4 318.2 321.7 323.8 325.2 324.2 320.8 318.1 316 314.2 312.9 311.7 311 310.2 309.6 309.2 308.8 307.7 306.6 304.7 304 306.4 309.7 312 314.1 317 319.8 321.8 325.3 326.6 327.7 328.7 329.5 330.3 330.3 330.2 329.7 329.2 328.4 326.9 327 324.7 318.9 311.9 309.5 308 308.6 308.9 308.7 309.8 310.3 308.7 301.4 296.4 300.7 299.9 297.1 293.7 290.7 288.7 287.9 287.7 287.5 287.2 287.3 286.8 286.4 287.9 291.4 293.2 291.6 291.7 290.7 288.5 286.3 286.6 288.3 286.9 286.2 285 283.9 280.9 275.3 273 272 272.1 270.5 268.7 267.5 266.7 265.7 265.2 264 260.8
255 255.8 256.1 255.9 257.1 256.3 257.1 258.8 257.8 259.6 259.8 259.5 259.2 259 259.5 260 260.4 261.8 263 263.4 264.2 265 263.3 258.3 253.9 253.6 254.4 254.9 255.2 255.6 256.4 258.8 262.3 264.9 269.6 273.9 277.7 282.4 286.5 287.9 289.8 291.2 292 292.1 292.4 292.9 293.5 294.8 295.9 297.8 299.5 302.1 304.6 307.8 311.2 314.4 316.7 319.1 321.2 324.3 327.2 329.9 333.8 335.8 336.9 336.5 336.5 336.3 336.4 336.7 337.8 339.6 341.7 342 341.9 341.9 341.6 340.7 338.8 338 335 331.3 329.7 328.8 328 327.2 325.2 324.4 323 320.9 318.9 315.3 312.4 309.8 308.5 307.1 305.1 304 302.7 301.9 301.7 301.7 301.9 302.9 302.9 305.3 310.8 316.4 320.2 321.8 322.6 321.3 318.3 315.5 313.4 311.7 309.9 308 308 307.9 307.5 307.1 306.8 305.4 304.3 302.3 304.6 307.1 309.7 311.9 314.1 316.4 318.9 322.2 325 326.1 327.1 328.1 329.1 330.3 330.7 331 330.5 330.1 329.2 327.8 325.1 321.9 317.3 313.2 309.9 309.5 310.4 310.8 311.1 311.5 310.3 309.7 306.8 299.1 291.9 294.2 296 290.4 287.6 286.5 286.4 286.3 286.1 285.7 285.7 285.8 285.6 285.1 288.7 289.3 288.8 289.4 288.1 286.2 284.7 286.3 285.7 285 285 283.5 283 280.4 275.3 271.3 270 270 270.4 268.6 267.4 267.9 269.2 267 264.4 262.8
256.2 258.3 258.8 259.4 258.6 258 260.3 259.2 258.9 260 260.1 259.8 259.5 259.6 260.2 260.7 261.5 263.4 263.7 263.9 263.5 262.2 260.6 255 253.8 254.2 262.3 256.7 255.6 255.9 256.9 259.7 263 266.2 270.8 275.1 279.1 283.4 287.3 288.9 290 291.2 292.2 293 293.4 293.8 294.3 294.6 296 297.6 300 302.7 305.3 308.4 311.4 314.2 315.8 317.7 319.9 323 326 328.4 330.7 332.5 334 334.3 334.7 335.2 336.4 337.5 338.6 340 341.4 341.9 341.8 341.7 341.4 340.4 336.6 334.4 332.1 330.4 329.5 328.5 327.5 326.7 325.4 323.9 322.7 320.3 317.4 314.2 311.1 308 306.7 305.3 304.2 303.2 302.1 301.9 301.7 301.7 301.8 302.4 301.5 305.2 309.8 315.1 318.4 319.7 319.8 318.1 315.5 313 310.8 309 306.6 304.3 304.8 304.9 304.8 304.7 304.1 302.6 302.2 302.2 305.7 308.2 310.6 313.9 316 317.9 320.2 323 326 327 328.1 329.1 330.2 331.3 331.6 331.8 331.4 330.9 329.9 327.5 324.2 319.8 316.6 314.6 311 311.3 312 312.3 312.4 311.8 310.4 309.1 306.7 302.7 296 287.7 293.6 288.7 285.9 284.6 284.6 284.6 284.5 284.2 283.9 283.4 283.9 286.8 288.7 288.2 286.6 285.6 284.4 283.6 283.6 284.7 283.8 284 284.2 281.9 279.5 277.9 274.1 269.6 268.6 268.1 267.6 266.5 266.5 267.7 270.9 267.2 262.6 261.3
259.6 260.1 259.9 260.1 261.6 262.1 260.8 259.8 259.7 260.4 260.4 260.1 260.1 260.2 260.8 261.4 262.2 263 263.3 263 262.2 260.9 258 254.5 253.5 254.3 261.5 256.4 256.2 256.4 257.6 259.8 263.5 268 273 277.6 280.1 283.2 286.8 288.4 289.5 290.3 291.1 292.3 293.6 294.7 295.1 295.3 295.8 297.6 300.9 303.4 305.8 309.1 311.9 313.6 314.9 316.6 318.9 321.4 324.1 325.6 327.5 330.9 332.5 332.5 334.1 335.5 336.6 337.9 339.2 340.3 341.3 341.9 341.6 341.5 341.2 339 335.3 333.1 331.4 330.5 329.6 328.6 327.7 326.7 325.3 321.8 320.2 317.9 315.3 312 308.9 307.1 305.6 304.2 303.4 302.4 302.1 301.8 302 302.1 301.2 300.9 301.1 304.9 309.2 313.6 316.7 317.6 316.8 314.8 312.6 310.3 308.1 305.4 302.7 300.8 301.9 301.5 301.7 301.9 300.4 299.5 301.7 303.3 306.6 309.3 311.7 314 316.3 318.4 321 324 326.9 328 329.1 330.4 331.7 332.5 332.7 332.7 332.3 331.7 330.1 327 322.8 319 316.6 314.5 313.1 313.2 313.6 313.9 312.7 312.1 310.7 308.6 305.1 301 296.5 282.9 285.6 288 284.2 282.8 282.7 282.6 282.3 282 281.6 285.2 286.2 289.1 289.4 288.7 287.6 284.3 283 283.2 282.7 282 281.2 280.3 280 276.5 274 272.9 270.9 267.9 267.4 267 266.3 264.5 264 265.7 267.9 266.1 260.9 259
261.3 261.5 261.4 263.5 265 263.1 261.2 260.7 260.5 260.8 260.7 260.7 260.7 260.8 261.4 261.9 261.9 262.2 261.9 261.7 261.5 259.7 256.9 254 253.6 254.6 255.8 256.5 257.1 257.6 258.7 261.3 265.7 271.4 276.1 279.3 281.4 283.9 286.3 288 288.7 289.6 290.8 292.6 294 295.4 295.8 296 296.5 298.6 302.3 303.2 307.1 309.7 312 313.2 314.6 316.4 318.2 320.6 322.8 325.3 327.2 329.6 331.7 332.6 334.3 335.6 336.8 337.9 339 339.6 340.6 341.8 341.6 341.3 340.6 337.6 334 331.9 331.3 330.6 329.7 328.7 327.8 327 324.5 320 317.3 314.5 312.1 309.5 307.8 306.2 304.7 303.2 302.4 301.7 301.3 301.4 303.1 303.1 300.8 299.6 301.2 304.8 308.6 311.9 315 315.8 314.5 312.2 309.9 307.1 303.7 300.8 297.9 297 298.2 295.9 297.7 299 297.3 301 305.1 305.4 308 310.9 313.7 315.8 317.6 319.6 322.5 325.1 327.4 329.1 330.7 332 332.8 333.6 333.8 334.6 334.8 333.4 330.1 324.9 321 318.9 317.4 315.6 315 315.2 315.4 314.7 313.3 312.4 310.2 306.9 303.4 299.3 294.7 289.3 278.1 282.8 281.3 280.9 280.8 280.6 280.1 279.8 280 286.5 288.8 289 288.9 288.1 286.5 283.4 282.2 283.1 281.5 280.2 279.2 278 276.6 273.2 271.4 270.2 268.4 267.6 266.3 265.8 265.5 263.8 263.2 265 263.6 260 257.6 257.2
263.9 264.8 265.1 266.1 265.2 263.4 261.7 261.5 261.4 261.2 261.2 261.2 261.2 261.4 261.9 261.9 261.8 261.8 261.5 261.2 260.8 257.6 257 253.8 254.1 255.2 255.9 256.9 258.6 258.9 259.4 263.9 268.9 274.1 278 280.7 282.9 284.9 286.8 288.2 289.2 289.6 290.2 292.7 296.3 297.7 297.1 297.1 297.6 300 303.6 305.7 308.3 310.1 311.5 312.8 314.9 316.9 319.6 321.9 325.2 327.6 329 330.3 331.6 332.9 334.2 335.2 336.3 337.2 337.9 338.6 339.7 341 341 340.2 338.6 335.8 333.3 331.7 331.2 330.6 329.7 328.8 327.8 325.2 322.6 318 314.3 311.7 309.2 307.6 306.2 304.7 303.1 302.2 301.4 300.8 300.7 300.9 301.3 302 300.1 298.9 301.6 304.8 307.9 311.1 313.4 313.8 311.9 309.5 306.3 302.5 299.3 296.5 292.2 298.1 302.2 302.3 303 299.5 300.6 304.4 306.4 307.2 309 311.9 314.6 317.2 319.1 321.7 324.7 327 329.1 330.9 332.3 333.1 333.9 334.7 334 337 336.1 333.3 328.7 323 320.9 319.7 318.2 317 316.8 317 316.7 315.3 314 311.6 308 304.3 300.8 297.2 293.5 288.9 282.2 277.1 278.4 278.9 278.9 278.4 278 278.1 279.2 283 289.5 289.1 288.2 287.1 286.1 284.7 283 280.1 280.1 278.7 277.9 277.1 274.4 272 270.5 270 269.6 267.8 266.9 264.6 264.2 261.8 262.1 260.6 259.7 260.9 259.4 254.9
267.1 267.2 267 265.5 265.2 263.4 262 261.7 261.5 261.5 261.6 261.7 261.8 261.9 261.9 261.8 261.7 261.4 261.1 260.7 259.4 256.1 255.7 253.7 254.7 255.7 256.7 257.5 259.4 260.2 262.7 267.3 271.5 275.4 279.6 282 284.4 286.1 288.3 288.3 288.9 289.5 290 294.2 300.1 299.4 297.8 298 298.9 300.8 304.2 306.4 308.1 309.7 311.2 312.8 315.7 318.7 320.8 323.7 326.9 328.2 329.1 330.2 331.4 332.6 333.7 334.8 335.9 336.9 337.6 338.2 339 340.1 339.4 338.5 337 334.5 333.1 332.1 331 330.5 329.8 329.1 326.5 322.1 318.9 316 312.4 309.5 307.7 306.1 304.6 303.2 302.1 301.3 300.6 300.3 300.2 300.1 300.2 300 299.4 298.3 301.1 304.3 307.2 309.9 311.9 311.5 308.7 305.5 301.8 298.2 295.5 292.8 293.8 298.9 302.1 303.8 303.5 303.6 304 305.1 306.9 308.3 310.6 313 315.1 318.1 321.2 324 326.9 329 331 332.7 333.9 334.5 335 337.9 334.1 338.2 335.3 331.2 326.8 322.7 321.4 320.5 319 318.6 318.2 317.8 317.5 315.4 313.3 310.5 304.9 300.5 296.6 294.4 291.8 288.2 282.8 275 276 277.2 277.2 277 276.6 278.2 282.6 282.4 286.8 288.4 287.7 286.7 286.3 285.8 286.6 280.7 277.7 277.5 276.8 275.8 273.4 271.7 270.7 269.9 269.3 268 267.4 265.7 264.5 266.7 266.6 263.9 264.7 262.6 260.7 259.4
268.5 268.2 267.6 265.9 265.2 263.2 262.2 261.8 261.6 261.7 261.7 261.9 262 261.9 261.8 261.7 261.4 260.7 260.6 260.3 257.9 255.9 254.1 253.6 254.7 255.8 256.9 257.8 259.2 261.2 265.1 268.9 273.2 276.3 280.5 283.5 285.6 286.6 287.5 287.9 288.4 288.9 289.7 294.8 300.2 300.1 298.7 298.9 300.4 303.8 304.8 306.6 307.9 309.2 310.7 313.6 316.4 318.8 321.3 325.5 327.7 328.8 329.4 330.2 331.2 332.1 333.1 334.2 335.4 336.5 337.3 338.1 338.8 338.9 338.3 337.3 335.9 334.1 332.9 332 330.8 330.2 329.2 327.6 323.4 319 316.2 313.4 310.4 307.8 306.2 304.6 303.1 302.1 301.4 300.6 299.9 300 300.1 300 299.5 298.7 298.5 297.8 300.6 303.3 305.8 308.1 309.9 308.4 304.9 301.2 297.3 293.9 292 291.1 295.4 299 301.5 302.9 303.9 304.7 305.4 306.1 307.6 309.1 310.8 313.5 315.8 318.9 322.6 326.3 328.9 330.9 332.9 334.4 335.3 335.8 336.5 335.7 334.3 338 333.2 328.8 326 323.5 322.8 321.2 320.2 319.8 319.4 319 318.1 315.9 313.2 309.6 302.2 297.2 294.3 291.5 289.6 286.1 281.6 277.3 274 275.3 275.4 275.4 275.3 278.6 283.6 284.5 285.9 287 286.8 286.5 286.2 285.9 286.2 282.9 279.3 277.5 276.7 274.8 274.2 274.3 271.5 270 269.3 268.5 267.9 267.1 267.5 268.4 267.9 264.6 263.9 262.4 261.3 260.6
269 268.4 267.6 266.4 264.7 263.1 262.5 262.1 261.9 261.9 261.9 262 262 261.9 261.7 261.5 260.8 260.2 259.9 258.8 256.8 254.8 253.4 254.3 255.5 256.9 258 258.7 259.3 262.3 264.8 269.2 272.9 276.1 279.4 282.1 285.1 286.3 287.1 287.6 288.2 288.7 289.7 294.4 301.3 302.2 301.4 300.9 301.6 304.3 305.4 306.4 307.5 309 312 315 317.8 320.2 322.5 325.9 328.1 329.3 329.6 329.8 330.5 331.4 332.4 333.6 334.8 335.9 337.2 337.9 338.2 338.3 337.5 336.4 335.3 333.9 332.7 331.8 330.8 329.2 327.5 323.8 318.9 315.4 313.1 310.4 307.8 306.4 304.7 303.1 302 301.4 300.7 299.9 299.2 299.5 300.1 300.3 299.5 298.5 297.5 297.4 299.3 301.6 304.1 306.4 307.2 304.7 300.7 296.6 292.9 291.2 289.5 292.6 295.7 298.7 300.8 302.3 303.8 305.4 306.2 307.1 308.4 309.3 310.4 313.4 317.1 320.9 324.6 328.5 331.6 333.3 334.5 335.5 335.3 335.5 336.4 332.9 333.1 336.6 330.5 327.6 325.9 323.8 322.7 321.6 321.3 321 320.5 320.1 318.4 315.2 312.4 307.8 300.5 295.7 290.9 287.9 286.3 283.5 279.6 276.6 273.8 275.1 275.4 275.2 274.7 278.3 283 285.3 285 284.5 286.1 286.3 285.8 285.2 285.2 283.8 280.3 277.7 277.8 276.5 274.9 273.9 272.7 271.1 269.9 269 268.5 268.5 272.2 271.5 269.1 264.7 263.4 262.1 261.5 260.3
269.1 268.1 266.6 265 263.9 263.4 263 262.6 262.2 262.2 262.1 262.1 261.9 261.8 261.6 261.6 260.9 260.1 259 257.9 256.7 255.5 253 255.2 256.5 258.3 259.3 259.9 260.6 264.3 267.5 270.7 275.6 279.6 282 284.1 285.4 286.1 286.9 287.5 288 288.5 289.4 294.4 302.6 304.9 303.8 302.5 303.1 304.1 305.2 306.1 307.2 310.1 313.3 316.3 318.9 321 323.4 326.1 327.9 329.1 329.1 329.4 330.1 331 332.6 334 335.1 336.2 337.5 338.6 338.1 337.6 336.7 336 335.4 334 332.5 331.1 329.1 326.5 322.3 318.1 314.6 312.1 309.8 307.3 305.3 304 302.8 301.8 301.3 300.6 299.9 299.3 298.6 298.6 299.2 299.4 299.2 298.6 297.5 296.4 298 300 302.4 303.9 303.7 299.7 295.8 292.6 290.2 289.2 290.7 294.7 297.8 300.9 302.7 303.9 304.6 305.7 306.7 307.8 308.8 309.8 311.3 314.7 318.5 322.8 326.6 330.8 333 334.7 335.6 335.8 335.4 335.1 335 335.1 335 332.8 328.5 327.4 325.5 324.5 323 322 322.4 322 321.7 321 318.8 315 310.9 305.9 298.2 292.9 287.2 284 282.6 280.8 277.5 274.3 271.5 275.4 275.5 275.1 274 278 282.6 284.1 283.3 282.7 284.6 286.2 285.7 285.3 283.9 281.2 281 279.9 279.3 277.5 275.5 274.4 273 271.7 270.9 270.7 271.7 269.9 270.8 270.8 269.4 266.2 263.5 262.8 262.4 262.3
269 267.3 265.9 264.6 264.3 263.9 263.5 263.1 262.7 262.4 262.1 261.9 261.7 261.6 261.4 261.4 261.2 260.1 258.9 257.7 256.6 255.4 254.4 255.9 257.6 259.4 260.4 261.4 262.1 266.5 270.8 274.7 278.7 281.6 283.6 284.7 285.3 286.1 286.7 286.7 287.7 288.3 289.3 295.3 303.5 305.4 303.9 302.5 302.6 303.5 304.3 305.5 307.4 310.5 313.5 316 318.5 321 322.8 325.5 327.6 328.5 328.5 329.5 330.3 331.8 333.5 334.6 335.6 336.6 337.5 338.4 338.2 337.3 337.1 336 334.7 333.7 331.7 327.8 323.3 320.2 317.2 314.1 311.4 308.9 306.7 304.6 303.6 302.6 301.7 300.6 300 299.5 299.7 299 297.8 297.4 297.7 298.3 298.1 297.8 297 296.2 297.2 298.9 300 300.6 299.5 294.3 291.9 290.4 288 289.3 293.5 297.1 299.9 302.9 304.4 305.8 306.3 307 307.9 308.6 309.6 310.6 312.6 317 320.7 324.8 328.5 331.2 333.4 334.9 335.2 335.2 334.6 334 333.5 333.1 332.1 330.1 328.3 327.2 325.5 325.2 323.7 322.3 323.3 323 322.7 321.3 317.8 313.3 308.6 303.6 295.9 290.2 283.5 280.8 279.7 278.1 275.4 272.6 270.6 274 275.7 273.7 273.6 278.3 281.7 283.1 282.5 281.8 282.6 284.3 283.9 284.2 286.7 285.2 282.2 279.5 277.5 277.1 277.7 277.9 274.8 271.8 271.2 272.2 275.4 272.7 270 269.3 268.9 266.3 263.7 262.6 263 262.8
269.5 267.5 265.7 265 264.8 264.4 263.9 263.5 263 262.5 261.9 261.7 261.5 261.4 261.2 261.1 260.8 259.6 258.4 257.2 256.1 254.6 255.2 256.9 258.7 260.5 262 262.8 264.3 265.6 272.7 275.9 275.8 281.2 282.5 279.7 282.3 283.8 284.4 285.9 286.9 287.9 290.1 298.2 302 304.3 303 302.5 302.3 302.8 303.5 305 307 310 312.7 315.1 317.8 320.1 322.1 324.5 326.1 327.5 328.9 329.5 330.3 331.8 333 334.5 335.4 336.4 337.2 337.5 337.3 336.4 335.3 333.9 332.7 330.7 327.8 323.8 320.1 316.9 314.2 311.3 308.8 306.8 304.8 303.5 302.5 301.5 300.5 299.5 298.6 298.2 298 298 296.5 295 295.9 296.8 296.9 296.6 296.2 296 296.7 297.5 297.5 296.8 294.2 290.7 289.4 288.1 287.2 291.4 295.8 299.3 302.2 304.6 306.1 307.7 308.1 308.2 308.9 309.7 310.4 311.5 314.8 319.2 323.1 327 330.2 332.3 333.6 334.3 334.6 334.2 333.6 332.9 332.3 331.3 329.8 329.2 328.5 327.1 326.2 326 324.1 322.8 323.6 323.9 323.1 320 316.3 311.7 306.9 300.5 293 286.7 282.1 278.2 276.9 275.4 273.7 271.6 270.1 273.3 275 275.5 274.3 278.6 281.4 282 281.5 281 280.2 281 280.9 282.5 287.7 287.8 284.7 282.9 280.6 275.3 273.9 274.8 276.8 273.3 271.3 271.5 273.6 274.3 270.8 269.6 268.8 266.1 263.9 262.9 262.4 260.5
269.3 267.1 265.8 265.7 265.4 264.4 264.1 263.8 263.3 262.7 262.2 261.5 261.3 261.2 261 260.9 259.8 258.5 257.3 256.2 255 255.2 256.1 257.5 259.3 261.2 263.1 264 267.8 271.1 273.1 275 279.8 281.1 282.3 285.3 285.9 284.6 284.8 285.9 286.2 287 289.1 295 300.2 302.3 302.1 301.7 301 301.4 302.7 304.1 306.3 308.8 311 313 315.2 317.8 320 321.9 325.1 328.2 328.6 329.3 330.3 331.4 332.6 334.3 335.3 336.3 336.5 336.3 335.8 334.6 333.4 331.7 330.3 327.2 324.1 321.2 318 314.5 311.4 308.7 306.4 304.7 303.2 302.3 301.3 300.3 299.4 298.5 297.8 297.2 297.1 297 296.5 295.6 295.5 294.8 295.1 295 294.4 294.1 294.8 296.1 294.9 293 289.8 287.9 286.7 285.6 289 294.1 298.2 301.7 304.1 306.4 307.9 309.1 309.2 309.3 309.8 310.5 311.1 313.2 317 321.4 324.5 328.1 331.9 332.1 332.5 333.2 333 332.5 331.3 330.5 330.2 329.8 328.3 327.6 327.4 327.4 327.4 325.9 323 322.2 323.3 323.9 321.6 318.5 314.8 310 305 298.9 290.2 283.1 279.2 276.6 274.7 273.5 271.9 270.2 269.5 269.7 269.3 272.3 276.1 278.5 280.5 280.5 280.2 279.4 278.1 278.5 279 279.7 282.2 285.6 284.7 283.7 282.8 278.8 271.5 269.6 271.8 271.8 268.5 267.4 267.7 268.8 267.1 268.1 269.9 267 265 263.7 261.9 259.2
269.2 267.3 266.1 266.3 265.1 264.4 264.2 264 263.4 262.8 262.1 261.7 261.4 261.2 261 260.6 258.9 257.3 256.2 255.2 255.4 255.9 256.9 258.7 260.8 262.5 264 264.9 268.3 272.3 276.5 279.3 282.6 284 286 287.2 287.8 287.9 287.8 287.7 287.4 287.1 288.4 293.3 299.3 300.8 300.8 300.4 299.7 300.1 301.8 302.9 304 306.3 308.7 310.9 313.1 315.6 317.6 318.3 322.7 326.3 328.3 329.1 330.1 331.3 332.4 334.1 335.2 335.5 335.6 335.1 334.2 333 331.5 329.6 326.7 323.6 320.6 317.8 315.5 312.3 308.9 306.5 304.7 303.2 302.1 301.2 300.2 299.2 298.3 297.7 297 296.3 296.6 296.3 295.9 295.3 295 294.4 293.6 292.5 291.1 291.2 291.8 293.3 291.7 288.7 285.9 284.5 284.9 289.3 293 297.1 301.3 304.7 306.5 308.1 309.3 310.2 310.3 310.4 310.6 311.3 312.2 315.4 319.4 323.3 325.9 329.3 331.7 331.8 331.9 331.6 331.1 330.6 329.7 328.3 328.2 327.4 326.2 327 327.4 328.3 326.5 324.3 322 320.8 322.7 322.5 320 316.6 312.4 307.7 302.6 296.4 288 281.2 277.4 275.6 273.8 272 270.1 268.3 266.8 267.6 271.4 274.4 275.9 277.6 278.3 278.1 276.4 276.6 276.1 276.5 276.9 277.1 279.6 282.4 283.2 283.5 282.7 282.1 275.8 268.2 267 268.2 266.8 265.5 265.3 264.7 265.2 269.5 272.4 269.8 266.3 263.7 262.1 258.9
269.7 267.7 266.9 266.1 265 264.6 264.4 264.2 263.4 262.7 262.2 261.9 261.5 261.2 261.1 260.4 258.8 256.6 255.2 255.5 255.9 256.5 257.8 261.4 262.7 263.3 264.5 265.9 269.1 273.5 277.8 281.5 284 285.8 287.5 287.9 288.4 289 289.3 289.3 289.7 289.1 288.4 292 298.6 299.5 300.3 299.7 298.7 299.8 301.7 302.2 302.9 305.5 308.6 310.6 312.6 313.9 314.3 318 322.4 326.1 328.3 329.5 330.8 331.9 333 334 334.8 334.8 334.7 334 332.5 330.8 328.8 326.3 322.8 320 317.3 315.2 312.9 309.7 306.7 304.5 303.3 301.8 300.9 300 299.1 298.1 297.2 296.8 296.2 295.4 295.1 295.5 295.1 294.2 293.6 292.9 292.2 291.2 290.3 289.9 289.6 289.6 288.6 286.4 284 283.5 284.8 290.1 294.6 299.3 303.5 306.6 308.2 309.6 310.7 311.1 311.5 311.8 311.9 313.3 314.1 317.9 321.8 324.7 327.4 330.4 331.4 331.2 330.5 329.9 329.4 328.8 328.1 326.8 326.3 325 324 326.2 328 326.9 324.9 322.7 320.8 318.6 320.4 320.2 318.2 314.5 309.7 304.6 299.5 293.8 285.6 279.4 276.6 274.4 272.7 270.9 269.1 266.8 264.8 266.2 270.3 272.8 274.5 275.8 276.2 275.6 274.5 274.2 273.6 274.3 274.9 274.7 276.9 279.6 281.9 282.6 282.1 280.1 275.3 267.8 264.9 267.2 266.3 264.7 264.6 263.9 263.3 268.9 271 268.5 264.9 262 260 256.6
270.2 268.1 267.3 266.3 265.3 264.9 264.6 264.4 263.4 262.6 262.3 262 261.7 261.4 261.1 260.1 257.9 255.6 255.8 256.2 256.6 257.2 261.3 264.8 266.4 265.7 266.8 267.8 269.2 273.5 278.4 283 285.3 286.9 288.1 288.4 289 289.6 290.3 290.8 292.7 291.1 288.9 290.4 295 298.6 299.1 297.8 297.2 299.2 301.3 302.8 303.8 306.2 307.3 310.2 312.1 314.3 317 320.3 323.5 326.5 328.7 330.2 331.6 332.6 333.7 334.2 334 333.9 333 331.4 329.7 328 326.1 323.1 319.5 317 314.9 312.6 310.2 307.2 305 303 301.8 300.6 299.7 298.8 297.9 297 296.3 295.6 295.1 294.6 294.2 294.3 294.1 292.7 292.1 291.5 290.8 289.9 289.7 289 288.1 287.6 286 284.1 283.7 283 286.8 291.3 296.6 301.3 305.2 308.2 309.8 311 311.6 311.9 311.6 311.4 312 314.8 316.9 320 323.3 326.2 328.9 330.7 330.5 329.5 328.8 328.1 327.7 327.2 321.9 325.1 324 322.3 322.8 325.4 326.4 325.4 323.4 320.8 318.3 315.8 317.2 317.8 316.2 312.2 306.6 301.4 296.3 290.8 282.6 277.8 275.2 273 271.2 269.3 267.8 264.9 262.5 268.2 269.5 270.9 272.6 274.1 273.9 273.5 273.1 273.2 273 272.4 272.8 272.6 274.2 277.8 280 281.1 280.6 277.6 272.5 266.8 263.5 265.7 265.3 264.3 265.4 263.6 262.4 263.3 265.3 264.7 263.1 259.7 257.6 254.2
270.5 268.4 267.5 266.5 265.5 265.2 264.9 264.3 263.3 262.4 262.1 261.7 261.4 261 260.1 258.8 256.8 255.5 256.2 256.7 257.1 258.9 264.2 267.4 267.4 266.9 267.7 269.6 271.5 274.2 277.8 282.8 285.3 287 287.9 288.9 289.5 290.1 290.7 291.3 291.4 291.2 289.7 289.6 291.8 294.7 295.9 295.3 297.2 299.2 301.1 303 304.7 306.9 309.1 310.8 312.4 314.2 317.6 320.8 324.1 327.1 329.3 330.9 332.4 332.7 333.2 333.2 333 331.8 330.1 328.9 326.9 324.9 322.4 319.9 317.5 315.5 313.5 310.5 307.8 305.4 303.3 301.6 300.3 299.5 298.6 297.7 296.8 295.8 295.3 294.8 294.4 293.8 293.2 292.7 291.8 291.1 290.9 290.3 289.6 289.2 288.8 287.7 286.6 285.5 284 282.5 283.2 285 288.7 294.1 298.9 303.3 307.4 309.7 311.1 311.9 312.3 312.6 312.4 312.1 312.1 314.5 318.1 321.1 324.5 327.6 330.1 330.9 329.7 328.3 327 326.4 325.3 323.4 322.3 321.4 320.5 321 321.4 323.6 324.4 323 320.4 318.3 315.1 312.4 312.8 313.7 312.5 308.3 303.3 298.3 292.9 287.3 280.9 276.3 273.6 271.3 269 267.6 266.3 262.3 262.9 267.9 269.1 270 271.4 271.9 271.4 270.9 271.2 271.5 271 270.1 270 269.9 271.7 275.4 277.5 278.5 278 275.9 270.3 264.5 261.3 263.8 265.3 263.4 264.6 263.6 262.1 261.5 260.6 260.4 259.9 257.5 254.9 252.7
270.2 268.6 267.6 266.7 265.7 265.4 264.6 263.8 262.9 262.1 261.7 261.3 261 260.1 259.1 257.9 256.1 255.7 256.3 257 258 261.6 265.8 266.5 267.2 267.2 268 270.3 274.8 278.4 277.7 279.8 283.1 285.8 287.3 288.9 289.7 290.4 291.1 291.4 291.7 291.6 290.8 290.9 291.3 293.2 294.2 296.7 298 299.7 301.3 303.5 306 307.8 309.6 310.9 312.7 315.2 318.2 321.3 324.5 327.7 330.1 332.3 334 334.7 333.1 331 330.3 329.4 326.1 324.7 325 322.6 320.3 318 316.2 314 311.8 309.1 306.1 303.6 302.1 300.9 299.1 298.1 297.5 296.4 295.4 294.6 294.3 294 293.6 293.3 291.7 290.1 289.4 289 288.8 288.8 288.7 288.2 287.7 286.5 285.4 283.7 281.9 281.7 284 285.7 288.9 294.2 300.7 305.4 308.9 311.1 312.2 312.5 312.9 313.3 312.8 312.4 312.8 314.7 318.5 322.2 325.1 328.5 330.5 330.8 329 327.5 326.1 323.8 322.1 319.5 318.2 318 317.3 318.2 319.9 321.2 321.8 319.7 317.4 315 313.2 309.6 308.6 308.3 305.9 303.4 299.4 294.8 289.6 284.3 278.7 274.7 272 269.7 267.8 266.3 262.8 260 266 267.5 268 267.7 269.7 269.6 269 268.8 269.1 269.4 268.8 268.1 267.4 267.4 268.7 271.7 273.7 274.3 274 271.9 267.4 262.4 260.1 260.2 262.3 262.5 262.6 261.9 261.4 260.8 260.1 259.1 257.5 255.5 253.6 252.5
270.1 268.9 268 267 265.8 265 264.1 263.3 262.5 261.8 261.3 260.9 260.1 259.1 258.1 257.1 255.6 256.3 257.1 257.8 259.5 261.9 263.7 265.4 266.1 267 269.1 272.2 275.6 279 282.4 283.9 285.2 286.1 287.8 289.5 290.1 290.8 291.3 291.6 291.8 292 292.1 292.5 293.3 294.3 295.5 297.8 299 300.7 302.3 305 306.8 308.5 309.5 311.1 312.9 315.7 318.6 321.9 324.9 328.7 331.2 333.3 334.6 334.2 332.7 331.8 330.9 329.1 326.2 322.7 321.5 320.9 319 317 314.8 312.9 310.2 307.4 304.5 302.1 301 300.1 299 297.2 296.5 295.5 294.4 293.4 293.1 292.9 292.3 291 289.9 288.8 287.8 287.2 286.8 287 287.3 287.2 286.5 285.8 284 282.1 280.5 282.8 284.9 287.4 290 295.7 303 307.4 310.4 312.1 312.5 313.2 313.8 313.8 313.3 312.9 314.2 316.6 320.2 323.5 325.3 327.5 330.2 329.5 327.2 324 322 321.1 319.6 316.9 313.9 314.9 315.2 316.7 317.2 317.6 317.8 315.7 313.6 311.6 309.8 307 304.2 303.2 300.6 298.6 295.5 290.9 286.4 281.7 277.4 273.1 270.2 268.8 267.3 264.3 257.1 263.9 267.3 266.6 265.3 265.3 266.9 268.1 267.2 267 267.1 267.2 266.6 265.9 264.9 264.7 265.2 266.6 267.9 268.2 267.7 265.8 263.2 260 258.4 257.6 259.6 261.2 261.2 261.3 260.7 260.1 259.5 258.6 257.2 254.8 252.6 252
270.8 269.9 268.8 267.6 265.6 264.6 263.7 262.9 262.1 261.3 260.9 260.2 259.3 258.4 257.5 256.8 255 257 258 258.7 260.5 261.7 262.9 264.8 266.1 267.5 270.5 273.9 275.9 279.5 283.8 285.5 286.7 287.6 288.4 289.6 290.5 291.1 291.5 291.7 292 292.2 292.6 293.5 294.3 295.5 296.7 298.6 300 301.3 303.4 305.6 307.1 308.1 309.3 311.3 313.1 315.4 317 319.7 323.1 327.2 330.2 331.6 334 333 332.2 331.9 331 329.3 326.8 324.7 321.9 317.8 317 315.6 314.6 310.8 309.4 306 302.9 300.8 299.7 298.9 298 296.8 295.7 294.7 293 291.3 291.5 290.9 290.2 289.4 289.2 287.9 286.7 286 285.7 285.9 286.3 286.1 285.8 285 282.9 280 281.3 283.9 286.2 289.2 292.4 297.7 304.5 308.4 311.5 312.5 313.1 313.8 315.1 315.5 315.1 314.6 315.7 318.2 321.9 325.5 326.2 328 328.8 326.3 323.8 320.7 318.7 317.3 316.9 316.1 312.9 310.5 311.8 314.1 313.8 313.7 313 311.2 309.3 307.7 306 302.4 299.9 298.9 297 295.2 291.8 288.1 284.3 280.7 276.2 271.8 269.6 268.5 266.9 257.9 261.3 265 266 266.5 267.2 266.8 266.5 266.1 265.3 265.2 265.3 264.9 264.2 262.9 262.1 262.2 262.6 263.2 263.2 262.8 261.8 260.5 260 258.3 256.9 256.9 258.3 259.5 260.2 260.4 259.9 259.5 258.9 258.2 256.7 254 251.7 250.5
271.4 270.3 269.4 267.5 265.5 264.2 263.3 262.5 261.6 260.7 260.2 259.5 258.7 257.8 257.1 256.5 256.3 257.5 258.7 259.9 261.5 263 264.1 265.7 267.6 270.3 274.7 277 277.6 280.5 284.5 286.6 287.8 288.4 289.1 289.9 290.7 291.3 291.5 291.7 291.9 292.1 293.6 294.4 295.2 296.5 297.7 299.2 300 302 304 305.8 306.5 307.7 310.4 311.1 312.9 314.3 316.2 318.4 321.6 324.9 330.3 329.2 330.8 331.4 332.1 331.1 328.5 327 324.8 322.6 321.5 320.3 318 317.3 315.1 311.9 309.5 305.5 301.6 299.7 298.5 297.7 296.8 296.1 294.9 293.8 291.2 290.2 290.5 288.6 288.1 288.1 288.6 287.3 286.1 285.9 285.7 285.5 285.4 284.6 284 283.2 280.2 279.7 281.8 284.3 287 290.8 294.7 300.1 305.5 309.4 311.9 313.4 314.1 315.4 316.6 317.1 316.5 315.7 315.9 318.3 321.9 325.6 326.9 327 326 323.9 320.5 318.5 316.4 313.9 312.5 311.6 310.4 306.8 308.1 310.8 309.4 308.3 308.7 307.2 306 304.1 302.9 299.4 296.4 296.2 294.4 292.4 289.5 285.7 281.6 277.9 273.9 270.6 268.5 266.5 265 256.3 261.1 262.7 263.7 264.7 265.6 265.2 264.3 264.1 263.4 263.5 262.9 262.3 261.6 260 259.8 260.1 261 261.9 261.5 260 258.4 257.8 257.7 256.5 255.7 255.1 257.1 257.8 258.8 258.7 258.6 258.3 257.3 257.5 255.2 253 251.3 249.6
271.8 270.8 269.1 267 265.2 264 262.9 262 261.1 260.3 259.5 258.8 258.2 257.6 257 256.5 257.6 258.6 259.7 261.1 262.9 264.3 265.3 267.5 271.1 273.8 276.1 278.8 279.1 282.1 284.8 286.9 288.7 289.1 289.8 290.6 290.9 291.1 291.3 291.5 291.7 291.9 294.3 295.3 295.4 296.5 298.5 299.5 300.5 302.5 304.6 306.4 306.3 309.5 309.8 310.9 312.2 313.4 315.5 317.6 319.9 322.5 325 326.4 328.6 329.7 330.1 328.6 326.2 324 322.6 322 321.2 320.2 318.9 317.1 314.7 312 309.3 306.2 303.3 300.1 296.5 295.6 295.3 294.3 293.3 292.1 289 288.9 288.6 287.1 286.6 287.1 288.2 286.6 286 285.9 285.7 285.4 283.8 283 282.2 280.8 279.2 279.5 281.5 283.9 287.3 291.1 296.7 302.8 307.2 309.7 312.2 314.2 315.8 317.3 317.3 317.5 316.8 315.4 315 318 321.9 324.7 326.6 325.8 323.4 320.4 316.8 315.5 316.1 315.8 310.6 306.5 305.7 303.8 304.7 305.5 304.8 304.2 304.5 303.5 302.8 302.2 299 296.7 294 293.1 291.7 289.4 286.6 282.9 278.7 274.7 270.9 268.3 265.9 264.6 264 261.6 255.4 259.4 260.4 261.9 262.3 262.2 261.9 261.8 261.6 261 260.3 259.7 259 258.5 258.4 259 260.2 261.7 261.1 259.4 257.3 255.9 255.6 254.9 253.9 253.5 254.2 256.2 257.3 257.1 257.1 256.9 255.8 256.3 253.6 251.3 250.1 248.5
272.2 270.8 268.7 266.6 265 263.9 262.8 261.6 260.7 259.8 259 258.5 258 257.5 256.8 257.3 258.4 259.8 260.8 262.3 263.6 264.5 265.8 267.9 271.8 274.5 277.5 279.7 281.2 283.5 285 287.2 288.9 289.7 290.2 290.4 290.6 290.8 291 291.2 291.5 291.7 292.2 293.5 294.5 297.5 299.6 300.2 301 303 304.5 305 306.3 308.3 307 309.2 310.9 312.9 315.5 317.8 319.5 322.1 323.8 325.3 327.5 328.4 327.9 326.7 324.7 323.2 322.2 321.4 320.7 319.7 317.7 315.5 313.2 310.9 308 305.4 302.5 300.7 298 295.6 293.6 291.5 289.6 288.7 287.7 285.9 285.1 284.9 285.1 286.7 287.4 286.3 285.9 285.8 285.4 284.1 282.8 281.6 280.4 279.3 279.6 288 283.5 285 288.6 293.4 300.6 305.4 308.2 310.5 313.2 315.4 316.8 318.6 317.9 316.2 315.7 315.2 313.3 316.2 319.8 322.3 322.9 321.3 321.1 317.4 314.9 312.6 312.5 314.4 310.9 305.4 301.3 302.1 298.4 299.8 299.6 300.1 300 299.7 299.4 298.5 296.1 294.3 292.3 290 288.7 286.2 282.8 279.6 275.8 271.8 267.2 263.1 260 258.8 260 261.1 256.7 256 257.1 258.4 259.3 258.9 258.8 259.1 259.2 258.2 257.5 256.9 257 257.1 256.9 257.8 259.7 260.3 259.8 257 255.4 253.7 253.6 253 252.1 252 252.1 254.1 254.9 254.9 255.8 256.7 255.2 253.4 251.8 249.9 249.4 248.1
271.9 269.9 267.7 266.5 265.7 264.8 263.6 262.1 260.1 259.2 258.7 258.2 257.7 257.4 257.6 258 258.9 260.3 261.8 262.9 263.8 264.7 266.4 267.6 270.7 274.3 277.1 279.2 282.1 284 285.3 287.7 289.2 289.9 290 290.2 290.4 290.5 290.2 290.2 290.4 290.7 291.2 292.1 293.6 297 299.1 300.6 301.5 302.6 303.1 303.6 305.3 305 306.4 308 310.8 313 307.3 316.6 319.2 320.8 323 324.4 326.7 327.5 326.7 325.5 324.4 323.2 322.2 321.7 319.7 317 315.9 313.9 311.6 309.4 306.6 304.3 302.2 300.6 298.4 296.3 294.4 293.2 291.2 290.2 288.7 286.4 283.5 284.3 285.7 286.4 286.7 286.2 285.9 285.6 284.9 283.7 282.6 281.4 280.1 279 278.5 284.7 285.1 286.1 290.4 297.1 304.5 307 309.6 312.1 314.8 316.7 317.7 318.7 317.5 314.6 314 316.3 314.4 314 317.2 318.2 317.2 316.2 316.1 315.9 312.3 309.4 308.3 308.5 307.8 304.3 297.6 296.1 293.7 295.4 296.3 296.8 296.2 295.3 295 294.4 293.7 291.9 289.7 287.2 285.4 282.1 279.8 276.6 272.8 269.4 264.4 259.8 256.6 256.1 255.7 256.6 254.1 252.6 253.8 254.6 255.4 255.8 256.3 256.6 256.6 256.2 255.1 255 255.5 255.7 255.3 256.4 256.9 257.5 257.6 254.3 253.2 251.5 251.1 250.8 250.3 250.2 250.2 250.7 250.7 251.2 252.7 254.7 255.7 252.9 249.9 248.6 248.6 247.8
269.8 268.7 267.8 267.1 266.3 265.7 263.7 260.8 259.5 258.9 258.4 258.1 258.1 258.1 258.4 259 259.3 260.6 262 263.1 264.1 265.3 266.7 268 270.8 273.6 275.7 277.9 280.4 284.9 286.9 287.9 289.3 289.9 289.9 290 290.2 289.9 289.6 289.3 289.3 289.6 290.6 291.8 293 295.2 297 298.8 300.5 301.5 301.7 302.4 302.8 304.2 305.9 307.4 309 310.7 307.3 312.5 314.9 318.4 322.3 323.8 325.8 326.6 326.3 325.7 324.9 323.6 323 321.7 318.6 315.4 313.1 311.6 310 307.8 305.3 303.3 301.9 300.5 298.3 303.9 300.5 292.5 291.1 289.1 286.5 284.5 282.3 283.7 284.8 285.2 285.7 286 285.6 285.1 284.5 283.5 282.4 281.2 279.9 278.7 279 281.5 282.7 287.5 293.3 299.2 305.6 306.9 310 313.8 317 317.6 317.7 317 316.3 313.8 313.2 313.8 312.8 313.1 313.1 313.9 312.5 311.9 312.9 313 309.8 307 303.4 302.6 302.5 300 295.1 293.4 290.8 292.7 294.7 295.5 294.2 292.7 291.2 289.6 290.1 289.1 287 284.2 281.5 279 276.9 273.9 270.2 266.9 262.9 258.4 254.8 254.8 255.2 255.3 254.1 254.5 250.1 251.8 254.3 253.1 253.8 254 254 253.9 253.7 254 254.9 254.7 253.8 253.5 254 254.4 254.3 252.8 251.5 249.9 248.9 248.7 248.6 248.5 248.5 249 249.8 251.5 252.9 253.7 254.8 253 249.3 248.8 247.4 246.7
269.5 268.7 268.2 267.5 266.4 265 262.6 259.8 259.3 258.8 258.9 258.8 258.8 258.5 259.2 259.9 260.1 260.7 262.3 263.3 264.4 265.8 267.4 269.5 271.7 273.7 275.3 278.8 281.4 284.5 285.9 287.9 289.8 289.9 289.9 289.8 289.6 289.4 289.1 288.7 288.4 289.2 290.5 291.8 292.7 294.1 295.7 297.5 299 300.1 300.1 300.3 301.5 302.7 304.7 307.8 313 314 316.2 317 319.2 320.4 321.8 323.6 325 326.2 326.2 325.9 325.3 324.3 322.2 320.1 316.5 312.9 311.4 309.4 305 303.2 303.3 302.9 301.5 300.1 298.3 304.3 309 309.6 303.7 288.9 286.5 284 282 283 283.6 284 284.6 285.1 284.6 284.1 283.6 282.8 281.8 280.9 279.8 278.8 279.5 281.4 283.2 288.5 295.3 299.7 304.2 306.6 311 315.3 318.3 317.4 316.7 315.2 314.5 312.9 311.2 310 311 311.4 310.2 309.2 308.5 309.4 311.4 310.7 307.5 303.8 300 297.9 298.1 295.5 291.7 290.7 288.9 289.9 290.8 291.5 289.6 287.8 287.9 286.3 285.1 284.3 282.5 280.6 278.2 276.2 274.1 271.6 267.7 264.4 261.3 258 255.6 255.5 256 255.6 254.1 253.1 254.1 250.1 250.7 250.7 250.9 251.5 251.8 252.1 252.5 252.6 253.6 252.7 251.7 250.7 250.9 251.8 251.7 250.6 249.3 248.6 247.2 247 246.9 246.9 247.7 248.8 250 252.9 253.5 252.8 252.3 252 249.6 247.7 246.4 245.8
269.8 269 268.3 267.2 265.4 262.9 260.9 259.6 259.2 258.9 259.7 259.8 259.4 259.1 260 260.8 260.9 261.6 263 264.5 265.4 266.7 268.4 270.1 272.9 274.1 275.6 278.1 281.1 283.5 285.7 288 289.5 289.4 289.4 289.3 289.1 288.7 288.4 288.1 287.7 289 290.3 291.4 291.6 292.8 294.4 296 296.9 297.8 298.6 299.3 300.2 301.9 304.4 309.4 313.3 312.9 315.1 314.3 316.6 318.9 320.9 322.8 325.1 326.4 326.5 326.1 325.5 324 322 319.4 314.5 309.5 306.4 305 301.7 298.8 296.9 298.8 300.2 299.3 297.9 295.2 297.1 293.8 294.7 287.7 286.4 285 282.7 282 282.5 283.1 283.7 284.1 283.7 283.1 282.6 281.9 281.2 280.4 279.2 277.4 280 281.6 283.8 290 296.7 299.3 303.5 306.1 312.1 315.2 316.3 316.6 314.5 313 312.8 308.7 311 306.5 307.8 306.1 306.5 305 305.1 305.5 307.7 307.6 304 300.5 297 294 294.1 293 289.4 288.1 285.8 288.1 287.7 287.4 286.9 284.5 282.7 281.1 281 279.4 277.7 276.5 275.4 273.6 271.5 269.3 265.9 263.8 260.5 257.5 255.9 257.7 258.4 256 252.9 252.4 253.7 253.5 246.5 247.7 248.9 249.8 250.1 250.5 251 251.5 251.4 250.5 249.6 249.2 249.1 249.9 249.3 248.4 247.3 246.6 246.2 245.8 245.8 246.1 246.8 247.9 250 252.5 253.6 252.7 251.4 250.7 248.4 246.8 245.3 244.3
270.5 269.2 268.2 266.3 263.5 261.2 260.2 259.5 259.5 260.5 261.8 262.5 261.5 260.4 261.6 263.7 264.3 264.3 264.5 265.4 266.3 267.8 271.5 270.5 271.8 274.1 276.9 278.8 280.9 283.9 286.2 287.7 288.6 288.6 288.5 288.7 288.6 288.1 287.7 287.4 287 288.5 290.2 291 291.1 290.7 292.2 294.5 294.7 295.9 297.1 298.1 299 301 303.5 305.1 306.8 309.3 311.6 313.5 316.1 318.2 319.9 322.4 325 326.1 323.7 326.2 325.6 324.4 322.4 318.7 312.3 307.1 303.6 300.9 298.4 296 295 294.4 293.6 296.5 296.8 291.8 290.3 288.1 286.6 286.7 285.7 284.4 281.8 281 281.7 282.3 282.9 283.1 282.7 282.2 281.7 281.2 281.2 279.2 277.9 281.4 281.1 281.6 283.7 290.5 295.6 299.4 302.5 304.3 310.9 313 313.8 314.6 312.4 310.3 309.6 307.5 306.4 306.7 302.2 299.9 300.4 300.7 301.6 302.8 303.3 303.5 300.9 297.3 294.2 292 290.5 289.6 287.1 285.8 284.2 286.3 284.2 284.2 283.5 280.8 277.9 276 274.8 275.2 273.5 273.2 272.6 271 268.9 266.7 264.9 262.8 259.7 257.4 258 258.1 259 255.2 251.4 252.3 253.5 251.5 246.7 246.4 246.8 247.6 248.5 248.8 249.1 249.6 249.5 248.6 248.1 248 247.4 247.7 246.9 246 245.5 245.3 245.1 244.8 244.9 245.2 245.6 247.1 249 251.8 254.1 253.8 251 248.6 247.1 246.2 244.5 243.4
270.8 269.5 267.3 264.6 262.3 261 260.2 260.3 262.6 265.9 268.7 268.6 266.7 263.7 264.1 265.5 266.1 266.5 266.8 267.1 267.4 268.5 270.9 274.1 274.7 273.7 275.7 279.2 281.4 283.7 285.1 286.3 287.7 288.2 287.8 287.7 287.9 287.1 286.9 286.6 286.2 286.7 289.7 291.2 290.1 289.2 290.4 293.2 293.1 294.6 295.2 296.4 297.8 299 301.2 303.5 305.3 307.9 310.6 312.7 314.4 316.3 319 322.3 324.6 325.8 326.4 324.1 325.5 324.8 321.8 316.4 309.5 303.8 300.5 297.9 295.6 294.1 293.4 292.7 291.9 291 291.1 289.8 289.4 288.3 287 285.7 284.4 283.2 281.3 280.3 280.6 281.3 282 282.1 281.7 281.2 280.7 279.1 278.5 276.8 277.6 281.1 280.9 281.6 284.2 290.3 294.8 298.5 301.4 303.1 307.3 311.7 311.6 311.1 310.4 308.6 306.7 305.3 303.5 302.2 302.2 296.9 295.6 296.1 297.9 299.4 299 298.1 296.6 293.6 291.7 290.3 288.1 286 283.4 281.9 282 282.8 279.8 279.6 278.8 276.8 275.5 273.3 271.7 271.8 270.5 270.2 269.8 268.6 267.1 265.5 263.1 261.2 259.1 257.4 256.5 254.4 253.9 253.6 250.5 251.3 251.8 249.3 249.5 244 245.1 246.1 246.9 246.5 247 247.9 247.6 246.9 247.1 246.7 246.2 245.9 245.6 245 244.7 244.8 244.5 244.3 244.3 244.3 244.5 245.7 246.7 250 251.9 250.7 248.6 247.3 245.6 244.4 243.1 244.3
271 269.1 266.4 264 261.8 261.4 260.5 261.8 265.8 269.4 274.8 277.3 274.9 268.8 265.8 267.3 267.8 268.3 268.6 268.9 269 269.7 271.2 273.3 275.7 277.6 276.7 278.3 281 284 284.9 285.7 287 287.2 287.2 287.7 286.8 285.4 285.4 285.6 285.2 284.9 286.8 288.2 287.8 288.4 289.6 290.5 292.1 293.5 294.3 295 296.4 298.1 300.1 302.1 304.2 306.8 309.5 311.3 313.1 315.3 318.3 321.9 324.2 325.2 326.1 326.1 324 323 318.3 313.1 307.2 301.7 297.8 294.9 293.4 292.8 292.2 291.7 291.2 290 289 288.5 288.3 287.3 285.9 284.6 283.3 282.2 281.8 280.7 280.8 281.6 281.2 281.1 280.7 280.3 279.6 277.7 275.5 276.2 278.4 280.7 280.9 282.4 284.8 291 294.8 298.3 301.2 302.8 303.8 308.9 308.8 307.5 308 306.4 304.6 302.6 300.1 297.1 296.2 296.8 292.4 291.9 293.7 296.5 294.8 294.4 292.4 290.8 288.8 286.1 283.7 282.2 281.5 280.9 278.9 278.5 277.6 274.2 273.3 272.1 271.9 271.5 270.1 268.9 268.3 267.9 267.8 267.3 265.8 264.4 262.2 260 257.9 256.2 255 253.3 252.8 251.2 250.2 249.5 249.2 248.2 247.1 244.9 243.8 244.4 244.5 244 243.7 245.4 246 245.3 245.2 245.4 245.3 245.4 244.7 243.9 243.8 243.6 244 243.8 243.8 243.7 243.3 243.3 244.7 246.7 246.4 244.4 245.9 242.2 242.4 242.5 244.3 245.4
269.7 267.1 264.9 264 262.9 261.9 262.4 265.3 267.1 271.3 277.1 280.4 278.9 271.9 266 269 269.6 270.1 270.4 270.4 270.4 271.3 272.8 274.6 277.9 280.4 282 279.4 280.4 283.6 284.6 285.3 285.8 287.5 287.8 287.1 286.3 284.4 284.1 284.4 284.3 283.5 283.9 285.5 286.2 287.9 288.9 289.9 291.5 292.4 293.4 294.2 295.2 297.2 299.2 301.3 303.5 305.7 308.4 310 311.7 314.5 317.9 321.1 322.8 323.7 324.7 325.6 324.5 319.3 314.9 306.2 305.2 300.1 295.3 293 292.3 291.9 291.4 290.8 290.5 289.4 288.1 287.6 287.1 286.1 284.9 284.6 284.3 284.1 283.8 282.9 282.1 282.3 280.5 279.1 278.6 278.7 278.3 276.3 274.7 278.1 279.5 280.6 281.3 282 286.1 290.2 294.3 298.1 301 302 301.8 305.3 306.4 304.9 304.5 303.9 302.3 300.6 298.4 295 291.8 291.3 289.1 288.3 288.9 291.7 292.3 292.7 290 287.2 284.7 281.9 280.3 279.9 281.7 280.2 277.8 275.2 274.8 272 269.4 266.3 266.7 268.2 267.7 267.5 266.4 266.4 266.6 266.5 264.8 263.2 261.9 260.2 258.5 256.4 254.5 252.8 252 251.8 251.6 249.8 248.4 247.5 246.8 247 246.1 242.4 242.3 241.9 242.3 242.9 244.9 244.1 243.3 243.4 244.6 244.7 243.8 243 242.9 242.8 242.8 243.1 242.7 242.3 242 241 241.1 242.1 240.8 241.8 242.2 244.1 244.1 244.8 245.5 246.8
267.3 265.5 264.7 263.8 263 262.8 265.4 266.6 267.8 272 277.9 281.3 281.1 274.2 269.4 270.4 271.3 271.8 271.8 271.8 271.9 273.2 275 277.7 280.6 281.6 282.2 281.7 281.2 283.4 284.6 286.2 286.8 286.9 287.6 286.6 285.7 284.2 283.2 283.1 283.2 282.5 283.4 285.9 286.5 288 288.8 289.7 290.6 291.4 292.3 293.5 294.9 296.3 298.4 300.6 302.8 304.9 307 308.6 310.9 314.6 317.6 320.5 321.5 322.2 323.1 323.7 321.8 317.6 311.5 306.5 306 298.1 293.6 292.1 291.6 291.1 290.5 290 289.7 289 288.6 287.8 286.9 286.2 285.8 285.5 285.1 284.8 284.5 283.9 283.1 282.2 280 276.9 276.6 276.3 277.4 275.7 273.4 278.2 279.8 280.7 280.8 282.4 286.5 290.1 293.9 298 300.5 300.4 299.5 301.6 304.1 302.9 301.6 300.5 298.6 296.6 296.3 292.3 289.4 287.3 286 285.3 286.4 286.5 289.1 291.4 289.9 286.2 282.7 280 278.1 277.6 280.1 279.1 277 272.7 272.1 269.9 267.4 264.9 264.2 263.9 265.7 265.6 265.7 266.1 266.2 266 265.4 264.2 263.3 261.1 258.5 256.6 255.3 254 254.6 253.6 251.5 249.9 248.3 247.1 246.2 246.3 245.1 243.6 242.8 242.5 241.4 240.8 243.1 243.6 242.2 241.5 242.9 243.6 242.9 242.3 242 241.9 241.9 242.3 242 241.5 241 239.9 240.6 241.5 242.4 244.2 244 245.2 245.2 245.4 246.4 247.8
267 265.5 264.7 264.6 264.2 265.5 267.7 267.9 269.2 272.4 278.2 281.5 281.9 276.4 270.7 271.5 272.5 272.8 272.8 273.2 274 275.8 277.8 279.7 281.2 281.8 282.6 282.8 282.5 283.9 285 286.1 286.6 287 287.3 286.4 285.4 284.4 283.5 282.1 281.7 281.4 283.3 286.7 288 288.1 288.9 289.7 290.3 290.6 291 292.4 293.8 295.5 297.7 299.9 302.1 304.2 305.8 307.3 310.5 314.5 317.2 319.2 320.2 320.6 321.5 320.8 318.8 314.7 309.4 304.4 300.2 295.7 292.8 291.6 291.2 290.8 290.1 289.9 289.8 289.4 289.1 288.2 287.4 286.7 286.3 285.8 285.4 284.7 284.3 283.9 283.3 282.3 280.9 278.9 277.7 277.4 276 273 274 277.7 279.1 279.6 280 282.6 286.3 289.6 293.7 297.8 300 299.3 297.9 299.2 302 300.9 299.1 297.4 295.5 293.5 291.5 289.7 286.6 284.6 282.8 282.5 282.7 283.5 284.9 285.1 284.3 282.8 280.8 278.3 277.1 277.8 275.7 274.4 274.1 271.9 269.5 267.3 265.3 263.4 263.3 263.8 263.8 264.8 265.4 265.9 266 265.7 265.7 264.4 263.8 261.4 258.9 257.7 255.8 254.4 253.6 252.1 251.2 249.6 248.3 247.2 246.5 245.8 245.2 244.8 244.5 244.3 243.1 241.7 240.4 241.2 240.8 240.3 241.3 242 241.9 241.4 241.2 241.4 241.4 241.3 241.2 240.7 240 242 242.8 243.9 245.4 244.3 244.7 245.1 245.7 246.2 247 248.4
267.9 266 265.4 265.8 265.7 269.4 273.4 273.6 274.4 276 279.5 281.6 280.7 277.2 271.8 272.9 273.6 274.3 275.2 276.5 277 277.9 279.3 280.3 281.4 282 283.2 284.6 285.1 284.7 284.5 285.3 286.1 286.7 287.1 286.2 285.2 284.2 283.3 282.2 280.9 281.3 283.1 286.7 287 288 288.7 289.3 289.7 290 290.5 291.3 292.7 294.7 296.9 299.3 301.7 303 304.4 305.9 309.2 312.6 316 317.9 318.9 319.2 318.8 317.7 315.6 312.3 306.9 301.9 297.3 294.1 292.4 291.6 291.1 290.8 290.6 290.4 290.2 289.9 289.5 288.7 288 287.4 287 286.6 286.3 285.4 284.5 284 283.4 282.4 281.2 280.1 279.2 278.4 277.5 274.9 270 277.7 278.9 278.4 279.6 282.2 285 288 292.6 297 298.5 298.8 297.5 297.3 299.7 297.4 295.5 293.7 292.4 290.6 287.9 285.8 284 282.3 281.9 278.9 279.2 280.7 282.2 282.9 280.7 278.6 277.5 276.3 275.8 275.7 274.5 272.6 270.8 268.4 267.2 265.3 263.7 261.8 261.2 263.3 263.3 264.1 264.7 265.4 266 266.1 265.4 264.2 263.7 261.6 259.8 257.9 255.9 254.7 253 251.4 250.3 249.5 249 249.3 248.8 247.1 246.1 245.8 245.7 245 244.3 242.7 241.2 239.7 239.2 239.2 239.5 240.4 240.4 240.2 240.1 240.5 240.8 240.3 239.7 239.4 239.9 242.1 243.7 243.7 244.6 245 245.4 245.7 246.1 246.9 247.8 249.4
268.4 266.7 265.9 266.6 268.6 271.6 277.4 280.8 281.4 281.5 281.9 280.7 279.9 278.3 273 275 275.6 276.3 276.9 277.6 278.5 279.3 280 280.8 281.7 283 284.8 286.2 287 286.3 285.4 285.4 286 286.6 286.3 285.6 284.7 283.8 282.9 282.5 282.2 281.9 283.7 285.3 286.3 287.7 288.4 288.8 289.3 289.6 290.3 291.1 292.7 294.9 297.2 299.5 301.2 302 303 304.5 307.8 311.2 314.4 316.5 317.3 317.3 316.5 315.4 312.5 309.8 304.3 299.3 294.9 292.7 292 291.6 291.2 291 290.8 290.6 290.3 290.1 289.9 289.4 288.8 288.2 287.8 287.5 287.1 286.3 285.2 284.3 283.8 283 281.9 280.8 279 278.8 279.2 278.8 271.7 277 279 278.8 279.7 281 285.3 287.2 291.3 295.3 296.5 297.7 296.6 295.5 294.7 292.4 291.3 290.9 289.4 287.4 284.7 282.6 281.5 279.8 278.6 277.3 275.7 276.9 278.2 279.3 280.6 279.4 277.5 276.7 276.9 276.1 272.6 271.4 269.5 267.7 264.7 263.1 262.4 261.1 261 262.3 263 263.5 264 263.7 263.8 264.3 264.8 264.3 264.4 261.8 259.8 258.8 257.2 254.3 252.6 250.7 249.8 249.8 251 250.2 248.6 247 246.1 246.3 246.7 245.9 245.1 243.5 241.7 239.9 237.1 237.5 238 238.4 238.8 238.9 239 239.3 239.3 239.4 237.4 240 240.4 241.5 242.5 243.3 245.1 245.7 246 246.4 246.9 247.7 248.6 251.1
268.9 267.2 266.6 268.5 271.4 273.1 278.8 284.5 285 283.9 282.8 281.5 279.2 277.5 275.7 277 277.4 277.8 278 278.3 279.1 279.7 280.4 281.9 283.2 286.8 288.8 288.6 288.2 287.2 286 285.9 286.1 285.7 285.4 285 284.1 283.2 282.3 281.2 281.4 281.7 283.4 284.4 285.4 285.8 286.6 287.5 288.5 289.2 289.7 290.9 292.8 295.1 297.4 299.2 300.3 301.1 301.8 303.1 306.5 309.5 312.5 315 315.7 315.2 314.3 312.7 309.8 306.7 301.8 297 293.4 292.3 292 291.7 291.4 291.3 291.1 290.6 290.4 290.2 290.1 289.8 289.3 288.7 288.3 287.9 287.3 286 285.1 284.2 283.5 282.5 281.4 280.1 279.1 279.5 280.1 279.8 272.8 275.5 278.4 278.4 279.3 281.2 286.6 289.3 292.1 293.3 294.4 295.7 295.3 294.2 292.1 289.9 288.7 287.7 285.9 283.8 281.2 280.3 279.8 277.8 276.1 274.7 273.2 273.9 276.3 276.1 279.1 280.7 278.6 276.9 275.8 275 271.7 268.3 267 265.8 263 261.7 261.5 260.3 260.6 261.4 262.6 263 262.5 262.1 262.7 262.7 263.5 262.5 263 262.1 261.2 258.9 256.7 254 252 250.5 250.2 250.3 249.4 248.5 247.4 246.3 246 247 246.9 245.9 245 243.9 242.4 240.6 238.7 237.1 237 236.8 237.1 237.6 237.9 237.9 237.9 238.2 239.6 240.5 240.9 241.7 242.8 244.1 245.6 246.3 246.7 247.4 247.8 248.3 249.7 252.5
269.6 268.2 268.1 270.6 273.5 275.7 281.2 285.9 285.8 283.9 281.9 280.2 278.9 278 276.2 278 278.3 278.5 278.8 279.2 279.8 280.9 282.4 283.5 284.8 286.4 287.9 288 287.5 287 286.4 285.7 285.4 285 284.5 284.2 283.5 282.6 281.6 280.5 280.3 281.1 282.7 284.1 284.3 284.3 284.8 285.7 286.9 288.2 289.3 291 292.9 295.2 297.3 297.8 298.7 299.4 300 301.9 304.8 307.8 310.6 313.2 313.5 312.8 311.2 309.6 307.2 304 299.7 295.3 292.8 292.1 292 291.8 291.7 291.5 291.1 290.7 290.5 290.4 290.2 290 289.5 289.1 288.5 287.9 286.9 285.7 284.6 283.6 282.7 281.7 280.5 278.6 278.9 279.9 280.5 280.2 271.7 271.2 278.1 278.7 279 281.7 285.9 289.4 290.7 291 292.1 293.7 293.1 291.8 289.5 288.3 286.4 284.2 282.3 280.3 278.1 277.2 276.3 274.6 274.7 273.9 273.2 271.5 275.7 277.5 274.5 275.7 277.3 276.3 274.9 273.2 270.5 267.5 264 262.7 261.2 261.3 262.9 260.1 260.8 260.7 261.8 261.3 260.8 261.5 261.9 261.6 262.1 262.1 262 263.3 261.8 258.9 255.7 253.9 252.2 251 250.1 249.4 248.4 247.7 246.7 245.5 246.1 247.5 247 245.6 244.8 243.7 242.6 240.8 239 237.4 236 236.5 236.8 237.8 238.2 237.9 237.8 239 239.6 240.4 241.3 242.9 244.6 245.6 246.4 247 247.8 248.3 248.7 250.5 252.7 255.2
270.2 270.9 273 273.9 277 280.7 281.2 282.8 283.8 282.8 281.1 280.3 279.3 278.4 278 278.7 279 279.1 279.3 279.9 281.5 282.8 283.3 283.9 285.4 286.7 288.2 288.3 287.8 287.3 286.8 286.1 284.8 284.2 283.8 283.4 283 281.9 280.6 279.7 280.2 281 282.2 283 282.8 282.8 283.2 284.5 285.8 287 288.8 291.1 293 295.3 296.3 296.6 297.1 297.9 298.5 301.2 303.2 305.9 308.4 310.2 310.8 310.1 309.1 307.5 305.3 301.7 297.6 294.3 292 291.8 291.7 291.9 291.9 291.6 291.1 290.9 290.7 290.5 290.3 290.1 289.8 289.2 288.4 287.8 286.5 285.4 284.2 283.4 282.5 281.5 279.3 277.9 278.9 279.3 280.2 280.6 275 270.7 277.3 276.9 277.6 281.8 286 285.9 289.2 289.6 289.2 290.1 289.4 287.6 287 286.8 284.9 283.2 281.3 278.4 276.4 274.7 274 273.3 272.1 270.9 270.9 271.1 270.9 274.8 275.5 271.9 275.8 274.8 272.8 270.5 267.2 264.6 261.7 260.2 258.9 258.5 258.2 256.9 256.9 257.7 259.3 258.5 258.2 257.8 257.9 259.2 261.6 263.7 264 263.3 260.4 257.4 255.4 254.1 252.8 251.8 251 250 248.4 247.3 245.9 244.5 245.2 246 245.7 244.5 244.2 243.2 242 240.8 239 237.8 236.3 235.3 236.7 238.2 239 239.1 238.7 239.1 239.6 240.5 243 244 245.6 246.5 247.3 248 248.8 249.4 250.8 253.3 255.7 257.9
272.9 274.5 275.3 276.1 279.2 279.5 279 279.6 280.4 281.9 280.9 280.1 279.1 278.2 278.1 279.5 279.9 279.9 280.2 281.3 282.8 283.5 284 284.8 286.3 287.3 288.1 288.5 288.1 287.6 287.1 286.7 285.5 284.3 283.2 282.6 281.4 280.6 279.6 279.5 280.4 281.3 281.6 281.1 280.7 281 282.1 283.5 284.8 286.6 288.5 290.9 293.1 294.3 295.1 295.4 295.8 296.4 298.2 300.3 301.3 303.6 305.8 307.6 308.2 307.5 306.4 305.3 302.9 299 295.1 292.5 291.3 291.4 291.6 291.7 291.9 291.6 291.2 291 290.8 290.6 290.4 290.2 290 289 288.3 287.6 286.2 285.4 284.6 283.8 282.9 281.6 279 278.3 279.1 278.3 277.7 277.3 278.2 273.8 275.6 276.1 276.8 282.6 285.4 284.7 287.6 289.5 287.9 286.7 285.7 284.8 284.1 283.8 283.1 281.5 279.5 276.4 274.6 272.9 271.7 271.5 271.1 269.1 267.6 267.7 267.9 269.5 272.6 270.9 269.5 271.1 269.9 267.2 263.7 261.3 259.2 257.7 257 256.8 257.3 258.2 258.6 257.4 256.9 255.4 255.9 253.3 256.2 262.8 264.4 265 264.5 270.8 261.2 258.4 256.3 254.8 253.8 252.8 252.3 251 248.9 247.2 245 243.9 244 243.8 243.5 243.2 242.9 242.3 241.2 240.2 239 237.5 236.1 236.3 237 238 238.7 239.4 239.4 239.9 240.8 243.6 243.6 245.2 246.5 247.3 248.2 248.9 249.7 251.5 253.3 255.3 257.9 260.3
273.6 275.8 276.6 277.2 280 278.8 279.6 282.5 281.4 281.6 281.2 280.1 278.2 279 279.3 280.3 281.1 281.5 281.9 282.8 284.1 284.2 284.8 285.9 287.2 287.8 288.4 288.5 288.3 287.9 287.4 286.9 286 284.9 283.8 282.7 280.9 279.7 279.4 278.6 280.2 281 279.6 279.1 278.9 279.8 281 282.5 285.1 287.4 288.9 290.6 291.9 293.2 293.8 294.2 294.6 295.2 297.2 298.8 299.8 301 303.4 304.7 305.2 304.7 303.7 302.6 300.3 296.7 293.2 291 290.6 291 291.2 291.4 291.6 291.3 291 291 290.9 290.7 290.6 290.4 289.4 288.5 287.2 286.2 286.1 285.5 285 284.2 282.8 281 279.5 279.3 279 276.9 275.2 275.1 273.1 267.9 272.8 275.3 277.1 282.5 282.8 283.5 286 289.4 286.6 285.8 285.3 284.9 284.5 282.9 280.8 278.5 277 273.9 272.5 271 269.1 269.2 268.1 266.4 265.4 265.6 266 266.7 266.9 269.1 268 266.6 265.5 263.8 260.9 258.4 256.7 255.5 255.4 255.7 256.2 257.7 261.1 262.2 259.9 256.1 255.9 256 254.4 261.5 262.1 260.1 259.5 270.8 269.6 259.7 257.5 256.1 255.4 254.4 253.1 251.3 248.9 246.5 244.3 242.8 242.7 242.4 242.2 241.9 241.6 241.2 240.3 239.3 237.5 236.4 236.3 237.1 237.6 238 238.8 240 240.8 241.6 242.3 243.3 245.3 246.4 247.3 248.2 249 249.9 252 254.1 255 259.1 261 263
274.5 275.5 276.4 278.3 279.3 278.8 281.3 283.9 282.3 282 281.4 280.2 279.9 280.5 281 281.3 282.1 282.9 283.7 284.5 285 285.1 285.7 286.6 287.5 289.1 289 288.8 288.4 287.9 287.5 287 286.2 285 283.6 282.3 280.7 280.9 279.3 277.6 278.7 279.8 278.6 278.1 278.1 278.9 279.9 281.5 285.2 287.4 288.9 290.3 290.4 291.3 292.2 292.6 293.1 294.8 295.8 297 298.3 299.6 300.8 301.9 302.7 302.8 302.1 300.9 298 294.5 291.4 290 290.1 290.5 290.8 291.1 291.2 290.8 290.4 290.5 290.5 290.5 290.1 289.3 288.2 288 287.6 287.5 286.8 286.2 285.5 284.1 282.6 281 279.8 279.4 279 278.6 277.5 277.1 275.4 266.7 268 271.8 274.1 277.7 279.4 280.7 282.6 285.5 284.8 284.1 283.2 282.7 283.7 283.3 281.9 279.2 276.8 273.9 271.6 270.1 267.9 266.4 265.3 264.3 264.9 266.6 264.4 263.5 262.7 264 264.6 263.6 262.6 260.5 258.4 256.2 254.7 254.2 254.4 254.9 256.3 256.8 257.9 258.4 256.2 257.5 261.9 261.9 253.9 255.4 256.3 257.7 259.6 265 265.3 259 256 255.4 255.3 254.5 252.9 250.7 248.3 245.9 243.6 241.9 241.2 240.7 240.9 240.6 240.3 239.9 239.3 238.3 236.5 236.2 236.9 237.5 238.1 238.6 239.3 240.1 243.3 242.3 243.6 244.5 246.7 247.8 248.5 249.6 250.4 251.5 254 256 257.4 262.3 266.3 267.1
275.4 275.6 276.5 278.3 279.4 279.4 281.6 283 282.9 282.2 281.6 281.6 281.8 282.1 282.1 282.6 283.5 284.3 285.2 286 286.2 286.1 286.6 287.5 288.4 289.1 289.2 288.9 288.5 288.1 287.6 287.2 286.4 285.1 283.8 282.2 282.2 281.5 280.6 278.9 277.8 278.4 277.7 277.5 277.3 278 279 280.4 282.6 287.1 288.4 289.4 289.3 289.3 291 292 292.2 293.5 294 294.6 295.9 297.3 298.5 299.5 300.4 301.2 300.4 299.1 295.9 292.4 289.6 289.1 289.6 290 290.3 290.4 290.6 290.2 289.9 289.8 289.6 289.2 289 288.8 288.7 288.8 288.5 288 287.2 286.4 285.2 284.1 282.7 281.2 280 279.6 279.2 279.4 278.8 277.3 276.1 268.8 261.1 269.9 272.1 274.1 276.8 278.1 280 280.4 282.5 282.6 281.9 280.7 279.2 278.2 278.2 277.4 275.9 272.7 269.9 269.3 266.2 265 264.3 263.3 261.5 262.2 261.3 259.9 259.6 259.9 260.3 261.2 259.3 257.3 255.6 254.1 253.1 253.2 253.5 255.8 257.4 254.5 254.6 255 259 263.4 265 265.4 261.1 255.5 260.4 253 251.8 252.7 254.2 252.6 252.1 250.9 249.6 250.1 249.2 248.5 246.7 244.8 242.5 240.8 239.6 239.3 239.4 239.3 239 238.6 238.3 236.2 235.6 236.4 237.4 238 238.6 239.2 239.8 240.1 241.7 242.8 244.5 245.8 247.2 248.4 249.5 250.6 251.9 252.9 256.4 258.8 262 265.2 271.1 272.4
276.1 276.6 277.1 277.8 278.9 279.6 280.4 282 282.1 282.1 282.2 282.4 282.3 283.2 283.2 284.1 284.9 285.8 286.6 287.2 287 287.3 287.8 288.4 289.3 290 290.6 289.3 288.8 288.3 287.9 287.4 286.6 285.4 284.3 282.3 283.2 282.9 281.8 280.8 279.1 277.6 277.5 275.7 276.6 277.1 278.1 279.3 283.6 287.4 288.1 288.1 288.3 287.8 289.5 291 291.4 292 292.4 293 294.3 293.7 296.1 297.6 298.7 299.5 298.5 295.8 292.9 289.9 288.3 288.1 289.1 289.5 289.3 289.3 289.8 289.1 288.7 288.8 288.4 288.5 288.9 288.7 288.6 288.6 288.5 288.3 287.5 286.3 284.8 283.5 282.8 281.4 280.2 279.8 279.3 279.4 278.8 276.7 274.5 266.9 263.3 266.9 269.8 272.8 273.7 275.4 278.2 278.9 279.7 280.9 280.5 279.4 278 275.5 274.1 273.9 272.4 270.3 267.8 266.9 264.8 264 264.4 264.2 260.6 256.6 256 255.3 255.1 256.6 257.6 257.7 256.9 255.1 253.7 252.3 251.9 252.2 252.8 254.6 256.1 256 257.3 258.6 262.4 265.8 267.3 265.9 263.9 257.9 253.3 252.1 252.2 252.4 250.3 250.1 249.1 247.9 246.7 244.1 244.2 244.6 244.4 242.8 242.1 241.5 240.2 238.8 237 237.5 237.1 236.1 234.6 235.9 236.6 237 237.6 238.5 239.1 239.7 240.5 241.7 243 244.8 246.9 247.9 248.9 249.8 250.8 252.2 253.5 255.7 259.3 261.8 267.9 270.1 273.3 274.6
276.1 276.7 277.4 278.2 279.1 279.9 280.8 281.7 282.2 282.2 282.7 283.2 282.9 283.6 284.6 285.2 285.9 286.6 287.3 287.9 288 288.4 288.9 289.4 290.2 290.7 291.1 290.4 289.1 288.6 288.1 287.5 286.8 285.6 284.3 284.1 284.5 283.7 282.6 281.9 279.7 278.9 278.7 278 276.7 275.9 276.5 279.2 283.3 287.4 287.2 287.6 287.5 287.5 288.7 289.7 290.4 290.8 290.6 291.6 293.1 293.9 295 293 296.9 297.4 296.4 292.4 290 287.7 286.8 287.3 288.2 288.7 288.1 288.7 288 287.5 287.5 287.7 287.5 287.8 288.1 288.5 288.5 288.4 288.3 288.1 287 285.6 284.1 283.1 282.6 281.5 280.5 280 279.5 279 278.1 275.3 273 271 265.2 261.7 268.1 271.1 271.5 271.3 273.1 276.5 277.4 278.8 279.1 277.9 276 273.7 273.4 274 272.3 265.4 266.7 264.9 261.9 259.3 257.8 256.4 253.8 250.9 250.7 251.3 250.9 252.4 254.7 254.7 253.8 252.8 251.8 250.7 251.3 252.2 252.6 253.6 257.9 259.9 260.3 262.4 264.4 266.8 268.4 266 263.7 260.6 260.7 260.2 261.3 260.4 256.5 256 256.6 256.6 252.9 249.2 247.6 246.8 246.8 244.4 243.3 244.2 243.2 240.5 238.9 237.1 234.8 235.4 237.3 237.4 237.5 237.9 238.3 238.9 239.6 240.2 241.6 243.3 242.4 245.7 247.8 249.9 251.2 252.2 253.1 254.3 256.3 260.3 262.6 265.4 270.8 274.5 274.3 272.2
276.3 277 277.8 278.6 279.6 280.4 281.4 281.6 282.3 282.7 283.2 283.8 284.2 283.4 284.4 285.5 286.5 287.3 288 288.4 288.6 289.1 289.6 290.3 292 292 291.7 290.9 289.8 288.9 288.3 287.7 287 286 285.6 285.9 285 283.8 284.4 283.3 282.4 280.9 280.1 279.5 278.2 277.2 276 277 281.4 286.6 286.9 286 287.3 287.5 287.6 288.1 288.4 288.8 288.9 289.9 291.2 292 293.8 295.1 295.4 293.2 291.7 290 287.4 285.9 287.1 290.1 286.7 287.2 286.9 286.7 286.4 286 286.3 286.6 286.8 287.1 287.4 287.8 288.2 288.3 288 287.7 286.9 285.4 283.7 282.8 282.1 281.3 280.7 280.3 279.6 278.3 276.6 274.9 272.3 269.8 267.2 256.8 265.3 267.9 268.7 269.4 271.4 274.4 277.3 276.4 273.4 273.1 271.5 270.6 269.6 266.1 262.3 259.8 257.4 257.5 255.7 253.4 251.7 250.5 248.3 247.2 246.8 247.4 247.6 249.2 251.3 251.7 250.6 249.7 249.4 250 251 252.4 252.8 256.5 260.2 263.2 263.8 266 267.9 268.1 267 265.7 263.9 262.2 262.5 264.3 263.5 262.5 262.8 262 260.3 258.2 255.6 253.5 250 250.3 250 247.4 243.5 245.3 245.2 242.3 240.3 238.1 235.5 235.7 239.2 238.8 238.3 238.3 238.9 239.5 240.1 241.3 242.6 245.7 245.2 247.8 250.4 251.8 253.3 254.7 256.3 258.3 260.4 263.8 266.4 270 275.6 277.2 274.2 272.2
276.8 277.3 278.1 279.1 280.6 281.5 281.9 281.5 282.8 283.3 283.8 284.3 284.8 284.8 284.7 285.3 286.4 287.6 288.6 288.8 289.1 289.6 290.2 291.6 293.2 293 292.3 291.5 290.4 289.6 288.9 288.3 287.7 286.8 286.8 286.9 285.1 285.4 285.8 285.5 285.3 283.8 282.4 281.1 280 278.7 277.3 274.4 277.9 282.8 285.5 283.9 286.1 286.5 286.1 286.6 286.7 286.8 287.3 287.9 289.2 290.1 292.3 294.5 293.3 290.9 288.5 286.6 285.4 284.7 285.1 285.8 285.4 285.6 285.6 285.5 285 284.6 285 285.7 286.1 286.4 286.7 287 287.6 288.3 287.7 287.3 286.9 285.4 283.6 282.1 281.3 281 280.9 280.2 278.8 276.7 275.1 273.4 271.9 269.7 267.5 262.2 262.7 265.7 266.2 266.6 268.4 272.7 277 277.4 275.9 274.6 271.1 266.9 264.4 261.9 259.8 259.2 255.2 252.6 250.6 248.3 246.1 245.1 244.7 244.2 244 244.6 245.2 246.6 248.3 248 247.7 248.2 248.7 249.6 251 252.7 253.9 257.1 260.5 263.7 267 268.8 269.6 269.8 268.3 266.4 264.9 263.7 264.2 266.4 265.2 265 264.6 262.7 260.6 257.9 256.1 254.7 251.1 250.9 251 249.6 245.1 243.5 243.4 242.3 241.1 239.1 236.5 232.9 238 238.3 237 238.5 238.9 239.5 240.6 241 242.5 242.4 246 248 251.4 253.9 255.2 256.9 259.5 261.9 264 266.3 270.4 277.5 280.1 279.2 276.1 273.6
277.3 277.8 279.4 281.4 282.6 283.1 282.9 282.3 283.1 283.8 284.3 284.8 285.3 285.8 285.9 285.8 286.8 288.2 289.1 289.4 289.7 290.4 292.2 293.9 294 293.8 293.4 292.9 292.4 292.2 292.5 291.8 289.9 287.5 287.8 287.5 285.5 286.4 287.2 287.3 287 286.3 284.9 283.5 281.8 280.9 279.7 279.6 275.4 274.2 278.3 284.1 285.7 285.5 285.3 285 285.5 285.4 285.7 286.2 287.3 288.7 291.5 292.2 289.9 287.8 286.1 284.5 282.9 284.1 283.4 284.2 284.4 284.3 284.3 284.2 283.7 283.3 283.3 284.2 284.8 285.3 285.7 286.6 287.8 288.4 288 287.3 286.7 285.1 283.2 282 281 280.6 280.5 279.8 277.4 275.2 273.6 272 270.4 270.6 267.9 265.3 259.4 264.3 265.3 265.1 267.9 269.8 274 275.7 275.6 274.3 271.1 268.1 262.9 258.4 256.2 254 251 247.6 245.3 244.1 243.5 242.7 242.1 241.7 241.8 242.5 243.5 244.9 246.2 247.4 247.8 248.2 248.8 250.4 252.5 254.2 255.9 258.4 262 265.5 269 270.8 271.1 270.6 269.7 267.7 266.3 265.5 265.6 266.6 266.6 266.4 264.9 262.6 259.9 257.3 255.1 254.9 252.1 250.5 250.1 248.6 248.2 243 241.9 241.1 240.5 239.2 237.7 233.3 236.8 237.6 236.1 237.4 238.8 239.6 241.1 241.4 244.3 243.2 245.4 248.2 252.7 255.6 257.4 259.9 262.6 265.2 267.5 273.2 278.4 281.3 281.2 278.5 273.7 272
277.8 278.2 281.2 283.7 285.1 285.9 285.3 284.6 283.1 284.4 284.9 285.3 285.7 286.5 286.9 287.4 287.9 288.9 289.6 290 290.3 291.7 293.9 295 295.1 294.9 294.8 294.7 295.3 295.1 295.2 294.7 294 290 288.4 287.4 287.5 288.3 288 288.3 288 287.7 286.4 284.9 283.7 283.1 282.8 284.5 282.1 271.9 274.2 280.3 284 284.9 284.4 283.4 283.6 283.9 284.2 284.7 285.7 288.4 291.2 289.9 287.6 285 283.7 281.8 280.9 282.1 279.8 282.3 282.8 283 282.9 282.9 282.4 281.9 281.7 282.7 283.6 283.9 284.3 285.5 287.4 288.6 288.2 287.5 285.8 284.1 282.4 281.3 280.6 280.5 279.7 277.9 276.1 273.8 272 270.7 270.2 269.8 267.7 266 257.9 255 262.3 263.1 264.7 266.7 269.8 270 270.3 268.7 264.8 262 259 257.2 254.1 251 247.6 244.6 242.7 242.2 241.6 241 240.5 240.5 241.8 242.9 244.4 245.9 247.5 248.5 248.9 250 251.2 251.8 253.4 255.1 257.3 261 264.5 268 271.8 272.4 271.9 271.3 270.6 269.1 268.1 268.3 269.1 267.8 267.6 266.3 264.4 262 259.5 256.3 254.9 252.9 251 249.6 247.8 246.9 246.3 244.9 242 240.6 240.3 239.5 238 236.3 230.6 233.3 236.7 238.8 239.4 239.9 240.6 242 243.7 243.1 246.2 250.8 256.6 258.5 261.1 263.2 265.7 268 270.5 276.8 282.5 282.8 279.5 273.8 272.5 272.5
278.4 279.1 281.2 283.9 285.5 286.2 286.1 285.8 285 285.1 285.4 285.7 286.3 287.2 287.8 288.1 288.9 289.7 290.3 290.8 291.8 293.5 295.2 296 296.3 296.2 296.3 296.4 295.4 295.3 294.4 292.8 291.9 289.5 289.6 288.6 288.1 288.6 288.9 289.4 289.2 288.8 287.8 286.4 285.7 285 284.4 284.8 283.3 275 271.8 273.4 280 283.7 283.2 282 282.3 282.8 283 283.4 284.6 286.7 289.6 287.6 284.9 282 280.5 278.9 279.1 279.3 278.9 280.7 280.8 281.2 281.6 281.6 281.1 280.5 279.9 281.9 282.6 283 283.5 285 287.6 288.6 288.3 287.4 285.7 284 282 280.9 279.8 280 277.9 275.9 274.3 272.7 270.8 269.7 269.3 268.9 267.6 266 264.1 262 257.1 264.8 266.4 265.2 267.8 266.5 264.1 262.7 260.8 257.6 254.9 254.4 251.6 248.2 245.7 242.7 241.4 240.8 240 239.7 239.9 241.4 243.6 244.9 246.4 248 249.5 250.7 251 251.7 252.6 253.6 254.3 256.1 258.7 262.6 266.5 271.2 273.8 273.2 272.7 272.1 271.5 270.5 270.2 271 272.2 270 267.5 265.7 263.5 261.3 259.2 256.8 254.3 251.2 249.8 248.9 246.6 246.2 245 245 242 240.6 240.3 238.3 238.1 236.1 230.7 234.1 237.6 238.5 239.2 239.8 240.5 242.1 241.2 243.5 246.5 251 256.6 261 263.5 266 266.4 268.6 273.2 279.3 282.4 280.9 275 273.7 274 274.2
279.1 280.2 283.3 285.3 286.6 286.6 286.7 286.5 286.4 286.4 286.6 286.9 286.9 288.7 289.8 289.6 289.7 290.4 291.2 292 293.6 295.2 296.4 297.1 296.7 297.9 298 297.7 296.3 296 295.3 293.8 292.4 289.1 291.1 289.9 289.3 289.3 290 290.7 290.8 290.5 290 288.3 287.7 286.9 286.2 285.9 284.1 281 274.5 270.7 272.8 280.1 281.3 280.6 281.5 281.9 282 282.2 284.4 285.9 285.7 284 281.3 278.7 276.7 276.4 276.4 276.9 279.2 278.8 279 279.3 279.7 280.1 278.9 278.2 279.8 281.3 281.7 282.3 283.4 286.2 288.1 288.5 288.3 287.4 285.5 283.5 280.9 280.1 279 278.1 276.5 275 273.4 271.7 270.1 268.8 268.5 268.2 267.1 265.6 263.8 261.3 254.4 264.4 265.8 263.2 266.3 267 264 259.6 257.1 254.1 251.5 249.7 247.8 245.2 243 240.8 240.2 239.8 239.2 239.6 241.1 243.8 246 247.6 249.5 251.3 252.1 252 252.3 252.9 253.8 254.8 255.6 256.9 259.9 264.4 268.5 272.7 274.2 274.3 273.5 272.9 273.6 273 272.2 273.7 272.8 269.8 267.2 264.9 262.4 260 258.1 255.9 252.5 249.8 250.7 250.4 245.7 244.2 242.9 242.9 241.2 241.2 242.6 239.3 237.5 234 231.2 234.5 237.8 238.4 239.1 239.7 240.4 241.7 240.2 244.6 246.8 251.4 260.3 264.5 265 266.5 266.5 269.2 274.2 278.1 279.3 275.3 273.4 274.7 275.1 275.2
