ncols 200
nrows 88
xllcorner 170000
yllcorner 764050
cellsize 50
5.5 6.5 6.9 7 7.1 7.2 7.2 7.3 7.4 7.5 7.6 7.7 7.8 8 7.9 8.3 8.4 8.3 8.3 8.2 7.9 8.2 8.5 9 9.2 9.4 9.4 8.7 7.3 8.3 8.1 8.5 10.2 10.6 10.7 10.7 10.8 10.6 10.4 10.3 10.3 10.3 10.3 10.1 9.9 10 10.3 10.2 9.9 10.9 11.3 8.1 2.5 2.5 2.5 2.5 2.5 2.5 2.5 2.5 2.5 2.5 2.5 2.5 2.5 2.5 2.5 2.5 2.5 2.5 2.5 2.5 2.5 2.5 2.5 2.5 2.5 2.5 2.5 2.5 2.5 2.5 2.5 2.5 2.5 2.5 2.5 2.5 2.5 2.5 2.5 2.5 2.5 2.5 2.5 2.5 2.5 2.5 3.6 2.5 8.2 2.5 2.5 2.5 2.5 2.5 2.5 2.5 2.5 10.3 19.3 18.2 14.5 14.5 14.5 17.6 27.5 33.7 29.5 33.2 49.6 51.7 63 64.3 64.4 76.5 77.8 78.1 77.5 69.9 62 59.4 23.9 12.5 3.4 2.5 2.5 2.5 2.5 2.5 2.5 2.5 2.6 4.5 8.8 9.7 10.4 17.3 35.2 57.3 75.6 91.8 117.1 104.8 104 103 95.3 106.7 122.2 140 147 143.1 131.5 117.8 105.5 98.6 92.4 87.6 85.8 84.6 82.7 75.5 56.2 37 20.6 11.3 11.8 10.3 3.8 6.6 8.5 15.4 18.7 20.2 20.3 24.2 35.7 52 62.4 82.5 118.1 140.7 131.8 152.9 167.1 180.6 183.6 190.6 197.7 197.4
4.5 6.1 6.6 7.1 7.2 7.3 7.6 7.7 7.8 7.8 7.9 7.8 8 7.2 7 8.1 8.5 8.5 8.4 8.4 8.6 8.8 9 9 9.2 9.3 9.6 9.3 9.6 9.8 9.4 7.5 9.5 10.5 10.8 10.9 11.2 11.3 10.9 10.8 10.9 11.1 11.1 11 10.9 10.9 10.8 10.8 11.1 11.5 11.2 4.8 2.5 2.5 2.5 2.5 2.5 2.5 2.5 2.5 2.5 2.5 2.5 2.5 2.5 2.5 2.5 2.5 2.5 2.5 2.5 2.5 2.5 2.5 2.5 2.5 2.5 2.5 2.5 2.5 2.5 2.5 2.5 2.5 2.5 2.5 2.5 2.5 2.5 2.5 2.5 2.5 2.5 2.5 2.5 2.5 2.5 2.5 2.5 2.5 2.5 2.5 2.5 2.5 3.9 2.5 2.5 2.5 2.5 11.2 16.2 14.5 14.5 14.5 14.5 19.4 28.2 21.6 25.9 26.9 36.7 42.2 55 56.7 68.9 83.5 92.6 87.9 84.2 70.3 60.7 38.4 20.1 15.2 8.7 4.1 2.5 2.5 2.5 2.5 2.5 4.3 11.4 13.3 12 12.2 19.2 26.6 35.7 47.7 68.7 88.8 113.1 124 119.7 116.4 112.9 115.6 140.3 156.7 156 139.6 123.7 110 95.5 93.2 87.9 82.2 81.6 84.6 82.3 77.5 61.8 42.6 24.9 12.9 13 11.5 10 7 6.4 6.3 9.3 17.8 19.3 20.8 28.7 47.5 53.6 81.1 110.7 166.7 163.6 157.8 176 196.7 202.2 197.8 199.6 195.6
3.4 5.7 6.3 6.6 7 7.1 7.1 7.4 7.8 7.4 7 7.2 7 7 7 7.1 8.6 8.7 8.6 8.8 9 9.2 9.2 9.3 9.3 9.3 9.7 9.8 9.9 10 10.1 9.3 9.4 10.5 10.9 11.1 11.4 11.7 11.8 11.3 11.5 11.7 11.9 11.8 11.8 11.5 11.2 11.2 11.6 11.8 11 2.5 2.5 2.5 2.5 2.5 2.5 2.5 2.5 2.5 2.5 2.5 2.5 2.5 2.5 2.5 2.5 2.5 2.6 5.1 4.1 8.3 4.5 2.5 2.5 2.5 2.5 2.5 2.5 2.5 2.5 2.5 2.5 2.5 2.5 2.5 2.5 2.5 2.5 2.5 2.5 2.5 2.5 2.5 2.5 2.5 2.5 2.5 2.5 2.5 2.5 2.5 2.5 8.6 14.5 8.8 2.5 2.5 2.5 6.9 15.8 14.5 14.5 14.5 14.5 20.2 20 23.3 27.3 26.2 39.3 40.4 39.9 59.4 71.7 79.6 80.4 82.6 73 55.8 38.2 20.4 17.3 14.7 11.1 8.5 5.5 2.5 2.7 2.5 5.1 11.1 17.4 23.5 24 24.8 27.3 36.9 54.1 71.9 81.4 87.2 105.8 125.2 134.6 129.8 126.4 123.6 132.8 155.9 165.1 145.1 117.9 102.9 96.2 91.9 85.9 79.6 79.5 82 82.3 77.4 66.2 45.7 26.6 17.9 13.9 12.7 11.4 8.5 7.2 6.8 6.4 14 13.8 14.5 17.6 32.4 44.2 77.2 92.6 142.2 150.8 163 165.7 182.2 184 196.5 194.3 180.8
6.1 5.5 3.5 4.9 5.5 6 6.6 7.4 7.5 7.1 7.4 7.4 7.6 7.3 7.3 8.6 8.7 8.8 8.9 9.1 9.3 9.4 9.5 9.5 9.5 9.5 9.7 9.8 10 10 10.2 9.2 10.2 9.9 10.7 11.4 11.7 12 12 11.8 12 12.2 12.4 12.5 12.3 11.5 11.1 11.7 11.7 12.1 11.8 8.5 2.5 2.5 2.5 2.5 2.5 2.5 2.5 2.5 2.5 2.5 2.5 2.5 2.5 2.5 2.5 2.5 5.3 6.9 9 11.8 10.1 2.5 2.5 2.5 2.5 2.5 2.5 2.5 2.5 2.5 2.5 2.5 2.5 2.5 2.5 2.5 2.5 2.5 2.5 2.5 2.5 2.5 2.5 2.5 2.5 2.5 2.5 2.5 2.5 2.5 2.5 15.8 17.5 10.7 2.5 2.5 2.5 2.5 14.4 15.4 14.5 14.5 14.5 14.6 15.2 14.5 15.9 17.1 29.2 32.2 48.2 59 65.3 72.3 74.3 67.6 46.8 30.3 20.9 19.7 17 13.4 10.7 7.4 6.9 7.2 6 8.1 9.2 15.8 26.9 38.7 40.2 45.1 50.5 57.8 63.2 82.7 99.7 104.4 112.5 130.6 143 140.7 133 130.6 128.2 141.8 158.3 142.1 107.1 96.3 92.9 89 81.1 77.6 77 77.1 78.2 74.5 68.7 46.8 27.7 15.4 14.8 11.1 9.9 8.4 7.7 6.7 7.8 8.5 8.5 10.1 14.7 29 39.7 61.8 68.2 98.3 126.6 133.7 140.9 147.3 156.1 162.7 166 162.3
7.1 7.1 6.8 6 4.9 5.3 5.7 7.5 7.6 7.9 8.2 8.5 8.6 8.8 8.6 8.7 9 9.3 9.8 9.9 9.9 9.7 9.7 9.8 9.8 9.9 9.8 9.9 10 10.5 10.8 9.4 8.3 10.3 11.5 11.9 12.1 12.3 12.1 12.3 12.5 12.7 12.9 13.1 12.8 12.2 11.6 12 12.6 12.6 12.4 12.6 10.5 7.1 2.5 2.5 2.5 2.5 2.5 2.5 2.5 6.4 2.5 2.5 2.5 2.5 2.5 2.5 2.5 7.8 12.9 13.7 9.2 2.5 2.5 2.5 2.5 2.5 2.5 2.5 2.5 2.5 2.5 2.5 2.5 2.5 2.5 2.5 2.5 2.5 2.5 8.7 5.5 2.5 2.5 2.5 2.5 2.5 2.5 2.5 2.5 2.5 2.5 3.9 14.1 3.8 2.5 2.5 2.5 2.5 12.9 16.8 16.4 15.3 15.1 24.3 22 20.7 19.4 20.8 25 41.2 54.9 58.9 58.8 66.1 71.6 48.5 24.5 20.5 18.6 17.3 14.8 12.5 10.3 9.8 10.5 10.7 10.1 9.4 11.9 21.6 34.2 60.6 47.5 50.9 62.4 75 81.9 80.5 103.3 113.5 124.9 128.4 136.2 137.3 131.5 129.1 119.6 125.9 131.5 117.1 96.4 92.9 89.4 83.7 77.4 74.2 73.5 72.7 75.8 69.3 54.5 36.3 30.6 25.6 20.6 12.8 10.1 8.5 7.6 6.6 6.6 6.1 6.7 9.3 15.4 22.7 32.9 51.6 49.4 57.2 73 100.6 114.7 107.6 122.1 128.8 124.7 127.6
7.7 7.8 7.6 7.5 7.4 5.6 6.6 7.8 8.3 8.6 8.9 9 9.1 9.2 9.3 9.5 9.6 10 13.5 10.1 10.8 10.4 10.1 10.1 10.4 10.7 10.5 10.2 10.2 10.7 11.1 10 8.8 10.5 11.4 11.9 12.3 12.5 12.6 12.8 12.9 13 13.2 13.3 13.2 12.9 12.4 12.3 12.7 12.8 12.9 12.8 12.4 9.3 4.8 10.5 9.4 8 2.5 2.5 2.5 2.5 4.4 2.5 2.5 4.8 2.5 2.5 2.5 8.1 15.3 15 9.4 2.5 2.5 2.5 2.5 2.5 2.5 2.5 2.5 2.5 2.5 2.5 2.5 2.5 2.5 2.5 2.5 2.5 3.6 9.8 9.8 2.7 2.5 2.5 2.5 2.5 2.5 2.5 2.5 2.5 2.5 2.5 2.5 2.5 2.5 2.5 2.5 8.7 16.4 18.5 19.9 23.4 28.8 26.7 25.4 24.3 22.1 32.3 41.5 53.1 53.6 44.7 46.2 51.1 37 27.4 28.8 33.2 35.8 22.2 15.2 12.5 11 11.7 13.4 13.9 15.7 19.6 20.7 25.5 35.3 38.4 43.8 58.9 70.3 86.6 89.6 92.2 92.4 104 117.5 123 126.4 134.1 123.5 120.8 109.1 106.5 107.9 97.6 92.6 90.4 86.5 81.3 75.7 70.6 64.7 60.1 51.5 47.2 44.9 41.4 38.1 33 25.4 17.8 11.5 8.7 8 6.1 6.2 7.2 6.3 7.9 16.6 20.9 17.3 23.3 28.4 33.1 48.1 72.7 92 92.9 92.7 104.8 96.8 94
8.1 8.4 8.8 7.4 7.1 6.1 6.8 8 8.8 9.1 9.2 9.6 9.6 9.5 9.7 9.8 10 10.3 10.5 11.4 11.7 11.3 10.7 11 11.2 11.5 11.2 10.8 11.1 11.3 10.8 9.4 9.9 9.2 11 11.9 12.4 12.6 12.9 13 13.1 13.2 13.3 13.4 13.4 13.2 12.9 12.6 12.8 12.9 13.1 12.9 12.7 11.5 11.1 11.8 12.1 10.9 2.5 2.5 4.2 6.3 5.6 4.1 2.5 2.9 2.5 2.5 2.5 8.8 13.3 12.6 6.4 2.5 2.5 2.5 2.5 2.5 2.5 2.5 2.5 2.5 2.5 2.5 2.5 2.5 2.5 2.5 2.5 2.5 8.2 12.1 8.9 8 4.7 2.5 2.5 2.5 2.5 2.5 2.5 2.5 2.5 2.5 2.5 2.5 2.5 2.5 2.5 6.8 18.2 21.2 30 33.8 35.5 39.4 33.7 28.4 26.3 51.8 61.5 63.4 53 40.9 34.4 30.6 25.2 36.7 44.4 42.3 36.7 19.1 15.9 13 12.9 13.8 14 20.8 28.6 36.6 43.2 38.5 46.6 53.3 56 58.5 64.1 73.4 81.9 91.5 94.9 97.6 103.2 119.1 118.2 123.6 119.4 110.3 105.1 97.3 93.3 89.4 85.4 81.2 78.6 77.7 75.2 66.2 57.3 71.9 69.5 63 61.8 55 50.3 42 30.3 22.7 16.1 9.5 8 6.8 6.4 7.6 7.7 6.3 6.4 8.4 6.4 9.2 15.9 24 28.3 43.5 68.7 73 74 77 71.2 68.5
8.7 8.8 8.9 8.8 8.2 4.3 7.8 8.3 9.1 9.6 9.8 10.3 10.4 10.2 10.3 10.2 10.4 10.9 11.4 12.7 12.6 12.2 11.8 11.9 12.1 12.3 12.1 12 12 11.3 10.3 11.2 11.2 10.1 9.5 11.5 12.4 12.8 13.1 13.3 13.3 13.3 13.4 13.5 13.6 13.6 13.6 13.5 13.3 13.1 13.2 13 12.7 12.8 12.7 12.7 12.4 11.9 4.7 10.3 11.4 8.9 6 8.1 2.5 2.5 2.5 2.5 2.5 4.6 11 12.5 5.1 2.5 2.5 2.5 2.5 2.5 2.5 2.5 2.5 2.5 2.5 3.2 2.5 2.5 2.5 2.5 2.5 2.5 5.8 14.6 12.6 8 2.5 3.2 2.5 3.9 6.3 6.3 2.5 2.5 2.5 2.5 2.5 2.5 2.5 2.5 2.5 7.6 24.7 31.9 34.5 40 44.3 45.3 36.5 25.3 30.1 48.7 61.1 56.7 59.3 46 25.1 20.7 21.5 21.9 27.7 37.1 26.3 19.7 16.5 15.5 16.1 18.2 26.3 42.1 52.1 61.1 68.9 64.8 58 61.6 76.4 86.4 91.1 101.6 94.5 105.1 104.7 106.1 120.6 113.3 112.9 112.3 112.7 100.7 95.2 89.3 87.4 81.6 85.2 78.2 72.7 72.2 76.2 76.6 81.9 80.6 78.3 72.6 72.4 65.3 61.7 49.4 40.2 27.7 20.6 10.6 9.7 8 8 11 11.7 8.5 8.5 8 8.7 6.4 6.4 9.3 16.8 26.1 39.9 49.5 42.8 35.2 36 39.4
10.1 9.3 9.3 9.2 8.7 5.8 6.9 8.7 9.3 9.9 10.2 10.8 11.5 11.7 12 11.6 11.5 12.1 12.7 12.6 12.5 12.6 12.5 12.4 12.4 12.3 12.5 12.4 12 11.3 10.8 11.6 11.4 11.2 10.5 10.1 12.3 12.7 13 13.2 13.2 13.3 13.4 13.5 13.7 13.4 13.3 13.5 13.2 13.2 13.3 13 13 13.1 13.1 12.8 12.4 10.4 6 10.7 12.4 13.1 13.4 12.9 10.6 7.5 5.6 2.5 2.5 4 5.6 8.2 2.5 2.5 2.5 2.5 2.5 2.5 2.5 2.5 2.5 2.5 2.5 2.5 2.5 2.5 2.5 2.5 2.5 2.5 6.7 14.6 10.9 7.3 6.9 2.5 2.5 8 8.1 9.4 10.1 4.5 2.5 2.5 2.5 2.5 2.5 2.5 2.5 11 25.9 34.6 33.3 36.9 37.3 34.7 25.8 22.9 26.8 39.7 46.5 41.1 38.9 29.7 19.3 24 30.1 28.5 29.1 29.9 25.3 18.5 23.2 19.3 19.7 29.4 45.8 68.1 86.3 97 103.9 95.7 76.2 71.9 93.9 106.1 107.4 116.7 118.1 117.8 118.8 115.6 117.6 118.9 120 113.8 111.2 103.9 98.2 93 92.5 82.9 84.1 82.2 78.8 82.4 85.3 89 99 97.9 85.7 82.2 81.3 75.4 72.9 58.4 52.2 38.4 24.6 17 12.8 10.1 9.5 10.9 10.8 10.1 10.4 10.2 9.7 6.5 6.4 6.4 9.9 15.2 16.1 24.7 27.6 7.5 11.7 19
11.2 10.6 10 9.8 9.2 9.1 8.7 8.4 8.9 9.5 11 12 12.2 12.2 12.1 12.2 12.4 12.5 12.6 12.3 12.2 12.2 12.2 12.3 12.4 12.4 12.6 12.4 11.9 11.1 11.3 12 11.8 11.4 11.2 10.1 10.2 12 12.9 13.1 13.3 13.3 13.3 13.5 13.6 13.3 13.5 13.5 13.3 13.2 13.2 13.2 13.2 13.2 13.2 12.9 12.1 9.8 6.7 10 13 13.6 13.7 13.7 11.6 8.3 10.6 9.4 8 10 9.7 2.5 2.5 2.5 2.5 2.5 2.5 2.5 2.5 2.5 2.5 2.5 2.5 6.6 2.5 2.5 2.5 2.5 2.5 2.5 6.2 9.5 9.2 7.2 7.5 8 2.6 8.1 11.5 10.7 11.7 10.6 9.8 6.4 3.6 2.5 3.7 3.6 6.3 15.7 29 35.6 34.6 33.1 30.4 26.2 18.4 18.7 21.7 29.7 34.7 24.7 16.7 17.4 29.2 37.5 44.8 48.9 51.2 49 31.2 20 22.8 28.2 27.6 40.7 64.8 94.2 115.1 123.3 137.6 125.6 105.8 96.1 94.1 96.3 107 116.2 118.1 127.5 129.3 137.7 129.6 136.6 129 122.4 117.4 110.7 104.5 100.3 96.5 94.5 90.2 87.3 86.3 84.1 91.7 99.9 107.4 108 97.6 92 87.3 81.5 82.3 69.6 64 50.9 36.9 27.6 19.6 13.3 11.1 12.3 16.5 15.8 12.2 11.3 10.8 9.8 8.6 7.7 6.4 6.4 8.4 6.4 9.7 6.4 6.4 6.4
11.2 10.7 10.7 10.5 10.1 9.8 8.8 6.5 8.5 9.8 11.5 12.4 12.4 12.3 12.3 12.4 12.5 12.6 12.9 13.1 13.3 13 12.5 12.3 12.4 12.4 11.6 12.2 11.9 12 12.2 12.4 11.9 11.5 11.5 11.3 10.4 9.7 12.2 13 13.1 13.2 13.3 13.4 13.4 13.5 13.6 13.6 13.8 13.8 13.7 13.5 13.4 13.3 13.3 12.8 11.6 6.8 9.8 12.3 13.6 14 14.2 14.4 13.3 11.7 8.9 8.1 12.6 15.4 18.1 15 4.9 3.1 3.3 3.3 2.5 2.5 2.5 2.5 2.5 2.5 2.5 5.8 2.5 2.5 2.5 2.5 2.5 2.5 2.5 8.2 10.6 9.1 7.6 7.6 6.5 10.1 14.8 13.4 13 11.4 14.1 15.3 11.9 10.7 9.1 5.4 6.2 16.2 26.5 30.1 22.4 25.9 17.8 13.3 15.1 15.3 15.9 19.5 19.2 16.5 28.5 38.7 50.6 57.3 63.3 65.8 64.5 61.2 33.2 22.7 29.2 32.2 39.9 59 89.7 118.1 141.9 150.8 162.9 165.1 144 126.3 124.3 123.3 113.6 109.3 116.2 125.7 128.8 139.5 145.7 141.1 136.6 128.4 124 119 110 103.6 96.1 99.2 94.8 89.4 91.7 91 93.4 102.5 108.8 107.9 102.2 96.8 94.8 86.8 97.6 95.8 80.8 66.4 51.8 40 29.7 21.5 17.5 16.9 18 20.2 11.4 14.7 14.1 13.8 9.6 9 7.7 6.4 6.4 6.4 6.4 6.4 6.4 6.4
11.3 11.1 10.5 10.8 10.7 9.9 8.4 4.8 9.2 10.1 11.5 12.4 12.5 12.5 12.5 12.5 12.7 13 13.4 13.9 14 13.6 13 12.6 12.5 12.3 11.8 12.2 12.3 12.5 12.7 12.8 12.8 12.8 12.7 12.3 12.2 11 9.9 12.8 13 13.1 13.2 13.4 13.4 13.5 13.6 13.8 14.1 14.1 14 13.8 13.7 13.6 13.6 12.2 10.6 13 13.6 14.1 14.3 14.4 14.6 14.8 14.2 13.2 11.1 8.4 13.3 16.9 24.1 26.7 22.8 16.3 9.2 9.6 8.9 9.6 9.4 4.5 2.5 2.5 2.5 2.5 6.4 2.6 2.5 2.5 2.5 2.5 2.5 3.7 3.9 5.4 3.8 6.4 6 8.2 20.1 16.5 13 12.9 16.1 16.4 12.5 10 9 5.2 5.5 7.8 12.3 11 12.3 12.8 13 14 14.9 15.1 15.3 15.6 15 23.5 36.8 46.9 60.5 66.2 71.6 75.4 69.8 55.2 29.8 26.7 34 44.3 56.4 82.4 108.6 137.5 159.6 166.6 179.3 184.6 174.7 174.1 164.1 150.3 141 132.2 125.1 122.3 124.6 135.8 139.5 138 136.2 131.6 127.2 117.2 113.6 103.8 104.2 101.5 98.8 96.4 96.2 95.7 98.4 105.2 110.3 112.6 107.1 98.4 102.3 109 115.8 115.3 107.5 84.9 71.3 55.1 45.3 34.5 28 28.4 23.8 29.5 18.7 20.5 23.1 17.6 13.6 11.8 10.8 8.5 6.4 6.4 6.4 6.4 6.4 6.4
11.3 11 10.8 11 11 9.9 8.5 4.8 8.3 10.4 11.5 12.4 12.5 12.5 12.6 12.6 12.9 13.2 14.9 18 14.7 14.1 13.6 13.2 12.8 12.6 12.3 12.3 12.5 12.7 12.9 13 13 12.7 12.5 12.5 12.1 11.4 9.5 12 12.9 13.1 13.2 13.3 13.4 13.5 13.7 13.9 14.2 14.2 14.3 14.2 14 14 14 7.5 13.3 13.9 14.2 14.5 14.6 14.7 14.9 15 14.5 13.8 11.7 8.4 14.3 17 25.4 31.2 33 27.3 21.8 12.3 11.3 11.8 11.7 10.9 2.5 5 12.1 10 5.5 8.2 2.5 2.5 2.5 2.5 2.5 2.5 2.5 2.5 2.5 5.5 5.7 6.3 13.4 14.9 12.1 13.1 11 11.4 10.5 8.3 7.3 5.9 5.8 12.8 17.2 22.5 24.5 23.1 15.1 14.6 15.1 15.6 16 16.5 19.1 16.9 25.7 38.2 49 67.3 79.3 80.5 75.5 56.7 33.4 28.7 45.6 67.5 90.1 103.5 124.6 149 161 178.2 182 182.9 190.3 192.7 195.9 182.8 163.1 148.9 141.1 138.3 137.9 133.3 134.8 135.9 136.4 132.9 129.1 119 113.8 109.1 108.4 107.3 104.2 101.8 102.9 103.1 112.3 114.9 118.6 120.1 116.8 109 123.5 133.5 130.8 134.9 142.6 112.7 89 75.8 66.4 53.8 42.1 35.5 28.3 25.1 20.4 26 33.3 27.6 24 20.9 19.5 17.3 16.7 13.5 11.3 8.3 6.4 6.4
11.6 11.4 10.9 11 10.9 10.8 9.3 7.6 9.4 10.6 11.4 12.2 12.4 12.5 12.6 12.7 13 13.3 19.7 20.7 16.5 14.4 13.9 13.5 13.1 12.9 12.6 12.5 12.7 12.8 13 13.1 12.9 12.7 12.5 12.6 11.4 11.2 10.4 11.7 11.9 13 13.2 13.3 13.4 13.5 13.8 13.9 14.1 14.2 14.1 14.2 14.2 14 12.5 10.1 14.3 14.5 14.5 14.7 14.7 14.8 15 14.9 14.5 13.8 12.7 11.9 15 17.1 26.2 35.7 41.8 46 36.5 25.1 13.7 13.8 14.3 14 12.8 12.3 10.8 11.9 12.8 11.7 10.4 5.4 7.5 7.4 6.7 5.9 7.7 8.2 8 7.6 6.6 7.7 9 10.8 9.9 10.3 10.5 10.2 9.9 8.8 7.7 9.9 10.3 16.1 21.2 24.9 27.8 29.1 28.5 22.4 15.9 16.3 16.1 21.5 32.2 26.4 29.5 31.8 38.2 50.8 61.7 63.3 63.1 47.3 32.6 34.7 59.3 84 108.4 127.5 139 152 168.4 174.4 186.7 192.3 199.7 210.6 219.2 218.2 204.8 180 160.3 151.3 149.7 149.4 144.3 141.4 140.3 136.8 129.6 126.7 113.2 114.7 113.8 110.4 107.2 108.1 107.8 109.8 114 119.1 127.5 125.8 120.1 143 157.6 163.4 163.5 152.4 136.8 128.6 118.8 100.7 90.3 72.1 56.4 43.6 34.3 28.8 25.1 28.7 42.1 41.7 40.6 38.6 37.1 36.5 36.5 35.3 31.7 23.3 10.9 6.4
11.1 11.3 10.9 10.6 10 9.5 9.5 6.6 8.7 10.2 10.9 11.7 12.3 12.4 12.6 12.7 13.1 14.2 18.6 23.7 21.5 17.9 14.6 13.8 13.5 13.2 13 12.7 12.6 12.7 12.9 13 13.1 12.8 12.6 11.9 11 11.4 11.8 10.4 10.5 12.5 13.2 13.3 13.4 13.6 13.9 14 14.1 14.3 14.2 14.1 14 13.8 7.5 13.2 14.4 14.6 14.7 14.8 14.7 14.9 15.5 16.1 15.7 14.6 12.6 11.7 14.3 15.7 25 34.7 38.7 39 36.2 25.5 16.6 12.7 13.1 14.2 14 11 10.6 12.7 13.6 13.8 15.1 14.5 13.2 11.9 11.6 15.1 15.6 16.2 15.7 15.5 10.6 13.7 11.6 10.6 10.1 10.6 11.4 11.6 11.2 9.9 10.9 12.8 14.3 19.5 23.8 27 30.6 32.9 35.1 34.3 20.4 18.6 25.2 42.4 44.9 41.4 39.8 52.6 45 49.7 55.1 58.6 59.4 45.1 34.9 48.3 66.5 99.8 119.9 128.2 142.6 155.2 172 181.6 184.1 195.1 217 220.8 227.2 225.9 224 218.3 195.8 186.9 166.5 152.4 144.4 142.9 141.8 140.8 134.8 116 117.4 118 117.4 114.7 110.7 108.8 110.7 114.5 118.4 123.7 126.5 135.8 153 175.2 190.1 184.8 190.1 178.9 164.1 148.2 128.7 112 102.2 85.5 69.2 54.3 40.9 36.1 32.6 35.1 43.3 53.5 58.5 59.3 59.5 61.3 61.1 58.6 53.4 42.6 27.4 14.3
11.1 11.4 11.3 10.7 8.6 8.5 8.3 7.6 7.8 9.8 10.5 11.2 11.6 12.1 12.3 12.8 13.3 14 17.9 23.3 22.4 15.1 14.7 14 13.5 13.5 13.3 13.1 12.9 12.8 12.7 12.8 12.8 12.7 12.4 11.7 10.5 11.7 11.7 11.6 10.1 11.3 12.9 13.4 13.6 13.8 14 14 14.1 14.3 14.2 14.1 14.2 14.1 7.4 13.7 14 14.3 14.6 14.9 14.9 15 15 15 14.7 13.2 10.4 11.6 13.6 14.3 22 27.9 30.2 29.4 27.2 21.3 20.2 14 13.9 14.1 14 11.1 10.6 14 14.4 15 15.4 15 14 14.5 14.5 16.7 22.8 27.4 26.3 25.5 19.7 21.6 22.4 22.3 17.1 12.9 11.8 12.2 11.7 10.9 12 15 18.6 20.2 25.8 29.1 37.9 43.6 49.4 43.2 31.2 32.2 42.9 58.4 58.3 55.6 50.6 48.8 54.2 62.1 74.9 73.9 66.4 43.2 39.9 59.4 76.4 88.9 104.7 119 132.7 151.4 171.8 186.9 191.2 200.8 207 218.3 218.3 229.6 230.6 228.4 218.9 203.1 200.8 180.7 159.7 146.5 151.2 153.7 124.4 130.2 125.2 123.5 120.6 116.9 111.3 109.7 111.6 116.2 126.3 132.7 147.9 167.8 187.2 194.9 208.2 193.5 201.5 193.6 185.7 173.6 145.5 138.7 121.4 99.7 83.6 62.1 50.3 51.2 47.1 43.7 53.6 67.3 79.8 86.8 87 88.6 87.7 78.2 74 64.7 51.4 35.1
11.4 11.4 11.6 10.3 8.2 8.5 10.9 9.5 8.4 8.6 9.4 10.1 10.4 11.2 11.8 12.8 13.1 13.4 14.2 14.3 14.6 14.7 14.4 14 13.6 13.4 13.4 13.4 13.2 13.1 12.9 12.7 12.7 12.2 11.4 11.5 11.2 11.7 11.8 12.2 11.2 11.1 12.5 13.4 13.8 13.9 14 14.1 14.2 14.3 14.3 14.3 14.4 14.3 12.2 12 13.9 14.4 14.7 14.9 14.9 15.2 15.1 15 14.2 13.1 11.2 12.2 13.1 13.9 18 19.1 21.2 22.5 22.8 26.7 26.4 18.8 13.4 13.9 13.4 11.5 12.2 14.5 14.7 15.3 15.6 15.4 14.5 15.6 17 18.7 26.6 32.6 35.1 34.5 30.4 28.4 29.8 25.5 33.4 29.9 24.9 21.1 16.5 15.1 17.4 25 28.9 31.4 36.7 37.7 50.6 52.9 53.3 39.8 38.7 51.7 59.5 81.4 83.3 73.6 62.4 59.9 67.2 75.2 78.7 79.2 64.3 40.9 45 64.5 88.9 103.8 113.3 117.8 121.5 124.7 142.7 164.1 179.1 201.2 208.1 208.2 208.2 212 230.4 228.5 224.9 224.1 220.1 214.4 192.5 165.1 152.6 148.2 148.7 150.5 141.2 132.1 125.4 120.8 114.6 112.3 113.4 118.1 130.2 143.2 159.7 176.4 193.6 208.9 213.2 206.1 209.8 215.7 205.6 191.9 172.3 150.3 131.3 114.6 95.2 72.9 58.8 61.8 54 46.3 64.8 81.2 95.9 111.4 119 118 110.6 100.5 91.9 85.2 72.7 59.4
10.6 11 10.4 9.9 10.8 10.8 11 10.3 8.9 8.3 8.5 8.8 8.9 9.7 10.5 12.3 13 13.2 13.4 13.5 14.6 14.5 14.3 14 13.9 13.6 13.4 13.5 13.5 13.3 13.1 12.8 12.7 12.1 11.7 10.8 11 11.7 12.4 12.5 12.2 11.3 11.4 13.2 13.7 14 14.1 14.2 14.3 14.4 14.3 14.5 14.6 14.2 13.2 11.3 13.5 14 14.7 15.1 15.1 15.2 15.4 15.4 15.1 14.3 12.9 11.1 13 14.4 14.8 15.8 17.4 20 26.8 30.7 30.6 25.1 14 13.5 12.3 11.8 13.1 15 15 15.1 15.4 15 15.1 15.5 17.6 22.4 27.7 33.5 38.8 39.4 38.4 35.6 36.2 36 35.5 44.6 43.6 44.3 41.6 33.2 36.7 21.9 34.2 43.6 50.4 56.9 65.9 65.9 49.3 46.2 54.6 65.7 79.8 78.6 80.1 80.5 76.4 71.7 76 80.6 84.6 77.1 49.8 47.5 52.7 62.1 89.3 109.6 121.1 127.4 132 139.3 161.5 170.7 182.5 185.6 190.7 194.5 208 222.7 227.8 220.8 231.2 236.5 239.1 224.6 222.5 196.8 176.6 142 149.6 159.3 153.8 144 133.4 127.4 122.5 121.2 120.7 124.9 134.2 151.6 165.8 179.3 192.3 212.1 214 209.7 209.2 212 206.8 199.6 177.2 153.8 139.6 121.3 102.1 81.3 70 70.3 63.4 58.8 67.1 82.1 102.2 120.6 135.4 140.5 135.4 125.7 116 107.2 92.9 80.9
10.6 9.5 9.4 10 12 11.4 11.2 10.4 9.6 8 7.7 8 7.4 8.4 8.9 10.5 12.3 13.2 13.5 14.8 14.6 14.5 14.1 13.8 14.1 14 13.7 13.6 13.7 13.5 13.3 13 12.7 12.6 12 10.3 11.8 12.1 12.7 12.7 11.9 10.8 11.9 12.6 12.8 14 14.2 14.3 14.3 14.4 14.4 14.4 14.6 14.7 14 11.7 11.6 13.9 14.6 14.9 15.3 15 15.7 16 16.4 15.4 13.6 11.6 12.5 14.6 14.4 15.2 16.9 20.2 26.4 29.7 32.4 28.5 19.7 12.7 11.9 11.9 12.9 15 15.8 16.3 15.5 15.4 15.5 15.7 26 33.8 33.2 36.7 35.9 46.1 48.7 40.4 41.1 41.5 39.7 54.4 55.2 62.2 72.6 57.1 50.9 42.3 21.7 36.5 53.3 55.6 54.8 51.6 47.4 53.2 65.1 74.9 79.9 78.6 77 79.2 80.3 77.6 79.7 82.2 75 56.3 50.8 54.5 60.5 71.2 88.4 114.9 132.7 138.8 143.7 146.4 168.5 183.1 186 195.4 207.6 205.1 211.9 222.8 235.7 234.3 239 237 246.1 242 217.8 201.5 181.3 154.5 158.6 158.6 158.4 151.7 145.2 140.9 138.1 139 137.5 143.4 152.5 161.2 175 175.8 189.1 196.2 208.9 212.6 213.1 203.8 197.4 191.4 171.4 155.1 142.6 126.9 112.2 97.8 84.1 80.9 74.6 73 63.7 88.5 107.4 135.4 141.5 150.8 154.9 148.7 141.2 133.5 122.4 105
10.7 9.1 10.8 11.2 11.4 13.2 11.7 11.1 10.4 10 9.6 8.8 7.8 8 8.8 8.7 10.9 12.5 13.5 17.2 16.4 14.5 14.1 14.2 14.4 14.3 14.2 14 13.8 13.7 13.5 13.2 12.9 12.6 11.7 11.1 11.8 12.4 12.9 12.8 12.5 11.2 10.6 11.4 12.8 14 14.1 14.3 14.4 14.5 14.4 14.3 14.4 14.5 14.3 13.7 12.1 12.3 14.4 14.8 15.2 15.2 16.8 17.3 27.9 27.9 18.9 13.4 11.6 13.6 14.8 15.4 16.8 18.5 23 27 35.5 29.6 20.7 12.6 11.5 12.9 13.6 14.6 15.1 15.1 16.2 16.8 16.6 20.9 32.4 39 38.2 40.9 41.8 40.4 51.4 48.3 50.3 49.6 44.6 62.5 69 78.8 91.3 86.7 76.2 59.5 42.5 27.5 31.1 33.4 37.4 44.8 54.4 59.1 66.3 73.6 76.2 69.8 68.4 68.9 69.1 67.9 67 65.6 63.8 57.7 59.3 65.5 70.2 81.6 106.8 125.6 142.8 152.1 155.9 160.9 165.1 174.7 191.5 218.5 229.3 237.5 242.1 248.4 243.3 240.6 247.1 249.5 242.2 236.1 218.4 198.8 186 173.1 168.4 167.1 165.8 164.9 165.2 163.8 161.4 162.6 160.7 166.2 179.4 179.6 186.7 191.4 195.4 197.9 207.2 219.8 218.9 211.4 200.4 191.4 172.9 157.5 147.6 134.2 122.9 108 97.1 94.7 93.3 89.8 73.4 86.4 105.2 129.3 148 159.5 161.9 163 161.6 157.1 147.6 131.9
11.3 9.9 11.9 12.4 12.3 12.7 12.7 11.8 11.3 11 10.4 10.1 10.6 10.8 10.6 8.9 10 11.1 15.6 19 12.6 13.4 13.9 14.4 14.6 14.6 14.5 14.4 14.2 13.9 13.6 13.3 13.1 12.6 11.4 11.1 11.8 12.4 12.9 12.8 12.6 11.9 10.9 11.2 13.1 13.9 14.1 14.3 14.5 14.5 14.5 14.4 14.4 14.5 14.5 13.7 12.2 11.4 14.2 14.8 15.1 15.4 16 16.9 24.5 23.6 16.9 14.4 12 12.2 14.2 14.9 15.7 16.7 18.3 18.3 24.7 21.7 15.2 11.1 12.2 13.9 13.7 14.3 15.1 15.6 16.5 16.7 16.7 24.6 33.3 38.4 41.9 47 45.9 47.3 48.8 54 52 59 58 58.6 74.8 88.1 97.7 99.7 90.6 75.1 64.5 60.9 54.9 50.5 36.3 44.5 54 58.1 55.9 59.5 78 82.5 74.7 80.1 85.5 85.8 85.3 77.6 70.8 60.1 65.2 71.4 76.8 86.7 100.4 131.7 144.7 150.9 157.9 183.7 185.2 193.6 199.4 208.9 216 261.1 263.5 279.6 269.3 264.4 272.1 270.6 253.8 246.2 215.1 192.8 187 183.4 183.8 187.8 195.9 200.2 190.7 193.7 201.8 187.8 188.2 190.2 197.7 207.7 205.2 212.2 213.4 217.8 214.2 212 217.3 216.4 209.3 193.9 173.3 156.5 148.5 138.8 127.9 114.7 108.3 109.6 104.5 102.3 90.6 76.4 105.8 121.9 144.8 159 160.1 164.3 168.5 169.3 161.3 154.4
12.8 12.3 12.8 13.7 13.8 13.9 12.6 12.4 12.2 11.9 10.7 12.1 12.4 12.2 11.8 11.4 8.8 8.8 9 9.8 10.5 11.6 13.7 15.3 15.1 15 15 14.6 14.3 14.1 13.8 13.5 13.3 13 12 11.2 11.9 12.3 12.8 12.8 12.6 11.9 10.7 11.4 13.3 13.9 14 14.3 14.5 14.6 14.6 14.5 14.6 14.6 14.6 14.3 11.3 12 13.5 14.2 14.4 14.9 15.7 16.6 19 18.4 16.5 14.6 13.1 13.2 13.4 14.8 14.5 15.2 16.3 17.3 19.8 17.4 15.9 13.9 14.7 14.4 14.4 15.1 16 16.5 22.2 25.1 26.9 30.3 36.7 49.3 50.4 52.2 48.5 51.3 55.9 64.7 61.8 59.5 65.6 65.2 74.9 89.9 94.9 85.9 91.8 89.2 90.6 82.5 77.3 67.3 56.8 55.9 59.2 61.8 67.7 76.5 72.2 88.7 82.8 91.2 99.4 110.9 110.4 92.6 80 65.1 74.2 78.9 89.3 96.3 109.7 132.8 172 171.2 185.2 188 203 211.4 217.3 227.9 239.3 268 291.3 303.7 290.3 290.5 303 293 259.1 226.3 203.9 191.9 188.5 191.5 191.8 193.3 211 220.8 220.7 218.2 217 217.3 216.5 211.1 217.6 228.4 235.4 230.8 230.8 229.9 230.6 222.8 218.2 220.8 210.9 194.4 174.3 158.4 149.2 140.1 131.4 121.4 116.4 117.1 109.9 107.1 101.5 86.6 99.6 118.6 135.6 146.9 153.3 154.6 158.9 162.1 162.5 158.4
16.6 14.3 14.1 15.6 17.6 16.9 14.8 12.9 12.5 10.7 12.1 12.5 13.3 12.9 12.6 12.1 9.4 9.4 10.8 10.7 10 9.9 15.2 25.4 23.3 16 15.4 14.7 14.5 14.2 13.9 13.7 13.5 13.4 12.4 11.4 11.8 12.5 13 12.9 12.6 11.7 10.8 11.4 13.3 13.9 14.1 14.3 14.6 14.6 14.6 14.6 14.6 14.5 14.5 14.2 11.7 11.2 12.5 13.1 13.7 14.6 15.4 16.5 21.9 17.7 16.1 14.8 14.6 14.4 14.4 15 15.5 14.9 16.4 22.7 29.9 30 25.1 17.8 14.9 15.3 15.3 15.7 15.8 22.2 27.1 31.8 36.2 40.6 40 52.2 53.9 58.4 63.5 64 60.4 71.2 75.6 70.4 61.7 67.4 69.7 72.4 86.6 104.9 110 104.1 103 96.9 96.4 81.8 73.6 73.9 77.1 91.9 97.7 98.8 93.9 93.6 97.1 110.4 125.7 134.2 114.9 96.9 76.8 89.3 91.1 99.8 108.4 120.9 131.9 165 174 192.2 199.6 199.9 217.9 228.2 234.7 252.4 270.6 285.5 301.5 299.2 302 304.2 310.6 304.2 252.5 224 204.3 194 189.4 191.5 191.2 195.2 212.7 233.5 230.7 230.5 233.7 236.1 240.3 243.8 244 250 245.8 248.2 244.6 242.4 238.7 233.4 230.9 228.8 213 195.3 171.2 154.5 145.2 137.5 128.4 122.8 114.1 110.3 105.4 100.6 97.6 89.5 99.6 112 132.4 147.3 165.1 174.2 178.2 177.1 175.7 173.6
21 15.1 13 18 20.7 18.2 16.7 16.2 14.2 14 12.6 13.5 12.7 13.6 12.2 11.1 9 15.4 15.8 12.9 16.2 13.7 10.5 12.7 21.6 16.4 18 17.9 16.1 15.5 15 14.1 13.7 13.6 12.6 11.5 12.5 12.9 13.2 13.1 12.5 11.9 12 10.3 11 13.9 14.2 14.4 14.6 14.7 14.8 14.8 14.2 14.2 14.1 12.9 13.6 11.4 11.2 12 13 14 15 15.9 15.9 16.1 15.5 15.5 15.9 15.8 17.5 20.1 17.8 15.1 19.4 28.8 39.3 44.7 43.9 37.3 26.6 16.8 15.7 16.2 21.8 29.1 36.1 41.3 49.6 57 59.4 58.6 65.1 72.7 79.5 81.7 75.1 75.9 78.6 74.9 79.1 76.3 79.2 79 99.5 123.9 133.7 126.8 122.7 113.9 101.5 102.2 102.1 101.6 101.6 113.3 124.6 121.9 113 106.1 109.6 127.1 143.7 135 118.7 95.1 87.4 103.7 106.2 120 134.1 157.4 165.7 185.4 201.1 210.7 217.2 226.5 227 237.8 256 271.1 278.9 293.3 301.9 310.8 314.9 318.9 316.9 297 247.7 225.3 207.9 196.5 192.7 198.5 195.5 197.8 209.3 231.7 237.7 249.2 253.3 276.8 267.9 275.5 275.3 278.4 265.3 259.2 256.1 253.6 248.5 247.9 241.4 229.4 213.4 194.2 170 161.2 153.3 144.5 130.3 122.3 119 119.2 119.4 111.9 105.6 103 108.4 122.9 143.6 164.2 192.2 210.8 209.9 203.8 196.6 189.7
27.6 14.6 14.2 23.2 25.5 21.6 24.1 21.1 21.3 14.7 13.1 12.8 12.3 12 9.7 9.4 18.6 23 22.3 23.7 27.5 28 14 11 12.9 15.9 18.4 24.4 24.8 21.6 19.6 15.1 14.6 13.9 12.9 11.6 14.9 15.9 15.2 16.6 13.1 12.9 12.9 10.6 10.6 11.8 14.3 14.5 14.7 14.9 15 14.9 14.6 13.9 13.7 11.8 13.7 13 11.3 11.5 12.4 13.4 15.8 19.7 17.3 16.1 15.5 15.7 16.5 19.3 19.8 19.5 16.7 19.3 22.5 31.1 47.8 56.1 60.9 53.8 37.9 30 33.3 28.7 26 33.1 43.9 51.2 62.9 74.2 77.4 80.2 73 81.1 94.5 98.7 88.6 76.8 77.1 87.9 93 93.4 93.9 94.1 107 130.8 143.3 141.1 145.4 140.3 127.3 115.9 125.8 140.1 137.5 144.8 145.1 138.7 134.9 131 127.5 139.7 141.4 136.4 122.4 99.3 111.8 123.5 122.6 134.6 161.4 202.8 215.1 212 224.1 245.4 249.5 245.4 250.2 256.8 273.2 278.1 287 296.4 303.5 308.9 318.4 325.1 315.3 285.9 255.1 225.2 210.9 201.1 196.4 199.8 200.5 217 222.9 243.4 255.5 259.7 274.6 280.8 294.4 291.7 293.9 292.6 284.1 279 266.9 259.6 255.3 252.7 244.7 232.7 210.4 195.4 185.7 184 179 160.1 144 134 134.6 145.1 145 137.9 121.6 113.4 120.4 130.6 146.5 173.3 200.4 223.6 240.1 240.6 231.6 218
25.8 18.1 19.4 26.9 32.1 35.6 32.9 34.8 30.5 26.2 16 15.9 16.6 11.8 8.4 12.6 26.5 31 28.5 41.3 35 42.4 24.7 14.7 18.5 16.6 13.6 23.1 27.4 21.6 17.5 15.6 14.3 13.6 12.8 12.8 16.2 17.7 19 19.9 16 14.7 14.8 13 11.3 12.2 13.9 14.4 14.8 15.3 15.2 15.1 14.9 14.3 13.6 12.6 13.9 13.8 12.6 11.3 11.9 12.9 15.6 27.4 25.8 17.8 15.9 15.7 17.2 24.1 24.7 23.1 18.5 20.2 24.3 33.2 42.3 54.8 64.6 64.7 55 42.5 49.4 43.5 33.7 41.7 50.9 58.7 64.7 69.9 80.2 86.3 92.2 88.1 91.8 98 89.5 83.8 84.9 98.6 103.4 107.5 104.5 103.9 114.8 137 149.4 159.4 152.8 152.9 156 154.8 147.4 159.6 163.2 167.9 167.5 160.5 149.7 143.8 148.4 151.6 156.3 150.9 127.4 109.1 137.9 147.7 149.2 144.8 170.6 198.1 219.2 238.7 239.4 256.4 254.8 261.2 282 297.1 301.8 307.3 310.5 311.9 320.1 321.5 318.4 321.9 316.8 286 253.9 232.7 216.3 206 203.6 203 211.1 225.1 231.7 247.5 271.7 284.9 295 317.6 322.3 313.7 319 321.2 311.8 308.7 302 286.5 272.5 261.8 257.1 237.9 223.3 211.2 206.5 205.6 196 185.2 164.5 153.3 148 147 151.4 144.7 130 118.5 132.1 144.8 159.4 183.6 209.8 228.7 247.6 256.7 250.6 244.7
21.1 25.2 32.7 35.1 52.2 46.2 43 36.3 33.2 30.8 31.3 18.9 18.9 13.6 8.8 13.4 22.6 31.6 41.2 45.1 42.3 48.9 46.9 34.2 21 32.7 19.6 17.4 24 20.2 18.2 16.2 14.8 13.5 19.2 22.4 22.1 21 23.8 27.3 21.6 19.1 23.2 24.6 14.9 11.5 12.9 14.5 15 15.5 15.7 15.5 15.3 14.2 13.3 12.9 13.8 13.9 13.1 11.9 11.4 12.1 13.3 16.1 14.9 14.7 15.1 15.7 17.4 23.2 25 22.6 20.7 20.8 29.1 36.4 41.3 48.3 57.2 66 67.4 59.6 64.3 63.8 57.6 58.6 74.3 85.1 90.3 93.8 98.2 98.2 106.3 108.1 101.8 92.8 95.2 99.2 98.1 115.6 129.4 123.6 121.1 113.8 116.6 139.1 149.9 156.2 158.7 159.7 170.8 173.5 177.5 179.7 177.7 179.5 179.2 167.5 159.5 163.4 169.9 176.7 174.3 157.7 125.1 131.2 166.6 170.3 172.1 176 176.7 183.1 207.9 224.7 242.8 245 259 271.5 291.4 304.2 301.5 303.2 313.9 314.5 319.5 334.6 333.4 326.7 309.1 274.4 250.5 230.7 225 213.3 210.8 207.1 214.5 235.3 241.3 256.5 285 289.5 305.1 320.7 335.7 334.4 331.6 334.9 344.5 342.9 337 321.9 307.2 289.2 267.6 254 247.7 232.3 231 230.8 233.4 219.6 196.9 181.1 165.2 165 155.4 150.7 142.4 128.8 143.7 156.7 175.7 191.9 215 227.2 241.9 257.6 267.5 272.7
28.1 40.2 49.7 40.4 51.7 53.7 48.6 45.1 43.9 38.4 43.3 36.5 21.2 21.4 14 18.3 23.1 35.8 48.7 48.4 51.1 58 59 46.4 29.3 31.4 25.7 16.3 21.5 32.8 27.3 24 21.9 25.5 32.9 33.4 33.1 31.2 33.6 33.9 32.1 30.3 32.3 27.9 19.6 12 12.7 15 15.2 15.7 16.4 16.8 16 14.5 13.6 13.8 14.4 14.4 13.6 13 12.2 12.3 12.8 13.3 14.7 15.7 16.7 17.3 17.2 17.5 19.3 22.2 25.4 26.4 33.9 47.7 58.1 64.8 73.9 94.1 99.9 93.5 91.7 85.6 88.5 87.3 89.9 100.5 112.9 109.3 112.2 109 119.8 120 110.5 96.7 100.6 110.1 113.8 124.9 135.8 135.5 131.5 126.7 128.4 135.8 144.7 145.8 159.4 178.3 195.2 203.3 202.2 197.1 189.2 184.7 182.5 178.1 170.8 177.7 177.9 182.3 180.2 155.1 137.2 155.3 170.4 185.5 187.6 200.3 203.1 206 220.2 226.4 228 237.7 261.4 276.3 290.9 292.8 294.6 311.6 325.1 332.2 341.4 340.6 337.4 324.6 296.7 270.3 252.1 233.9 227.7 230.7 228.5 217.4 218.1 236.3 258 260.2 285.5 310.4 319.9 323.2 328.8 350.2 356.7 359.2 354.4 359.5 363.1 352.3 335.8 319.1 295.5 281.9 268 249.5 255.5 260.8 247.8 250.7 230.7 214.3 184.1 179.1 166.6 164.5 155.5 147.4 157.9 182.6 203.4 207.7 209.3 219.6 233.5 250.8 259 266.5
42.6 53.5 60.9 61.8 53.8 61.6 63.2 60 59.5 46.7 47.1 52.9 33.6 18.7 17 19.9 27.5 44.3 55.8 58.7 54.8 59.6 59.1 56.3 43.3 34.4 31.7 22.1 23 35.8 33.2 33.4 31.4 36.5 41.9 42.6 44.8 39.2 47 48.4 38.4 36.3 34.3 29.2 24.2 13.6 14.1 14.8 15.8 16.5 17.6 25.1 20.5 21 15.2 15.5 15.5 15.9 15.5 15 13.5 12.8 13.9 15.8 18.1 26 30 32.2 29.4 25 20.3 25.1 33 36.2 32.4 55.1 63.5 75.7 87.1 97.7 106.5 104.4 110.9 116.7 105.3 103.5 111.5 108.2 122.1 131.2 128.5 129.4 130.2 122.6 112.7 113.9 110.4 116.8 126.6 122.5 130.1 134.1 134.7 140.6 139.9 137.2 142.5 145.9 158.9 189 203.4 211.7 202.2 208.5 210.8 204.6 201.6 199 193.2 199.9 203.4 207.4 190.6 153 166 177.6 192.8 202.3 217.8 232.2 235.3 239.9 245.2 250.2 251 260.6 282.4 293 303.4 316.4 322.3 330.4 336.6 344.4 352.4 359.5 344.9 337.9 307 275.1 251.3 239.3 230.3 235.8 243.4 245.4 235.9 240 263 279.5 285.7 314.5 329 337 338.8 351 366.5 380.5 374.9 376.1 367.9 376.3 363.5 354 332.8 309.9 292.6 274.3 278.7 278.9 269.5 255.6 243.5 237.2 205 194.7 180.9 170 164.4 157.9 164 186.7 198.8 199.6 204.9 218.8 224.5 239.6 252.2 257.5
54.9 57.6 65.3 73.5 67.8 65.8 71.6 69.6 65.5 53.8 54.8 53.6 40.2 22.5 18.9 23.8 43.1 58.9 61.7 63.2 64.2 69.5 68.9 64.8 53.1 41.8 32.4 33.9 31.3 31.6 38.7 36.5 39.5 43.5 48.8 52.3 53.4 50.3 56.9 59.9 53.2 43.3 39.3 32.3 22.6 16.2 14.5 15.1 16.5 17.9 21 21.2 22.7 22.6 18.6 18.2 19.5 17.9 17.7 16.8 16.1 14.8 14.2 17.3 20.9 34.8 46.6 51 46.1 43.9 29.2 29.3 38.4 45.1 48 53.4 69.7 82.6 96.2 95.1 102.2 107.2 115 127.4 121.8 118 128 128.9 132.8 142.7 146.6 145 139.7 129 134.1 139.5 130.6 130.2 137.4 141.3 145 152.1 157.3 154.4 146.6 148.6 153.2 157.5 171.6 184.1 194.2 207.2 218.6 222.1 233.5 232.2 222.5 216.4 215.4 214.1 218.7 217.5 196.4 187.7 207.4 212.3 216.5 222.3 232.1 262 264.9 268.8 273.9 275 276.8 292.2 303 304 324 338.7 345 349.2 360.4 371.2 365.8 355.7 347.1 347.9 317.3 281.9 257.5 245.6 237.7 241.3 247.5 261.5 261.5 245.4 264.7 283.5 294.4 312.8 327.9 350.8 349.4 353.7 371.4 394.3 402.2 396.7 385.9 370.6 360.9 360.4 355.3 334.2 322 311 304.2 309.4 303.7 292.4 272.4 240.1 214.2 201.4 193 183.7 174 165.6 162.3 174.8 183.9 186.3 194.5 209.1 218.4 232.8 244.4 244.2
62.5 77 78.8 76 81.5 75.4 81.3 84.6 76.1 62.8 58.1 56.8 49.6 28.7 22.7 27.6 42.5 52.5 63.5 65 68.5 72.9 80.3 73.8 57.1 45.2 53.4 52.4 46.2 43.4 37.1 42 45.7 51.6 57.6 59.5 54.8 54.1 67.5 68.8 62.2 53.4 49.9 40.1 25.4 16.9 15.3 15.3 16.4 17.7 19.6 26.4 29.9 26.2 24.3 27.5 25.2 23.5 22.1 19.5 18.8 16.7 13.7 15.6 19.3 37.8 58.3 65.5 66.5 56.4 47.5 40.6 44.8 56.9 63.6 68.7 70.5 85.9 104.9 110.4 109.1 114.3 119.2 126.7 136.1 128.7 137.3 141.2 144.1 154.5 159.7 156.1 151.1 138.2 145.5 148.2 146.8 149.7 151.5 156.6 164.6 170.9 170 171.9 172.6 168.6 176.4 173.9 183.6 198.5 225 238.3 247.4 250.7 246.2 240 238.2 239.9 226.8 237.4 250.4 234 201.2 218 226.2 233 247.6 255.9 256.9 258.8 274.1 284.2 292.2 293.4 303.6 308.5 317.9 336.6 351.9 364.6 374.6 375.3 378.9 372.3 370.8 368.1 358.2 338 322 295.3 265.2 251.7 250.8 260.1 262.5 274.4 277.1 272.6 265.1 286.7 303 324.2 340.8 360.2 366.7 367.8 380.3 404 412.8 413.1 404.3 393.5 372.8 360.1 357.5 353.4 350.8 343.2 335.4 338 330.2 312.5 294.1 270.5 243.6 219.4 209 201.2 182.7 170.9 164.2 164.3 170.3 177.1 183.4 197.8 212.5 222.4 232.3 229.8
83.7 99.9 106 103.4 90.6 84.3 86.2 90.8 84.7 71.6 62.5 56.5 48 39.4 30.2 43.5 59.7 73.1 69.7 75.6 73.2 74.3 76.9 67.6 62.8 61.9 64.8 59.4 58.1 56.9 49.4 44.9 50.9 59 62.9 65.1 60.3 60.5 72.1 73.7 65.5 61 56.5 46.6 29.8 25.2 16.6 17.1 19.1 25 24.1 29.9 37.7 33.4 32.6 39.1 34.6 27.8 24 23.9 21.3 21.2 17.6 15.8 16.8 31.7 59.9 73.6 76.9 72.6 64.7 57.8 55.7 63.9 78.9 85.9 83 91 101.4 112.1 117.5 122.1 130.9 142 151.2 147.5 147 153.4 154 159.6 164.8 166.8 164.4 157.8 156.4 155.1 157.9 163.4 172.5 178.9 187.5 198.3 197.5 192.6 192 188.6 201.8 209.4 213.7 229.1 246.4 264.1 267.6 269.4 265.7 260.2 251.5 254.2 261.2 262.5 261.3 244.1 241.7 239.3 235.2 238.2 249.9 256.3 270.2 280.2 301.9 317.7 320.8 324 326.8 348.6 360.7 370.9 393.8 400.9 411.1 402.3 406.7 411.8 402.5 407.6 382.1 348.6 322.3 296.1 274.6 260 266.1 289.2 293.3 295.9 293.6 286.7 280.1 290.3 306.6 327.9 345.6 362.9 381.2 390.6 407.3 422.3 418.2 424.7 420.3 407.1 395.8 384.2 376.4 368.5 363.2 358.2 343.1 339.4 329.7 324.6 309.2 277.7 261.1 246.4 225.2 220.2 200.8 199.2 182.5 174.9 180.2 185.5 187.8 196.8 202 207.5 212.8 215.9
108.5 118.8 122.4 130.1 113.5 99.5 93.3 98.1 93.8 76.4 68.9 61.7 58.1 55.1 50.3 55.1 65.1 77.7 85.9 79.5 82.4 79.3 77.5 75.9 70.1 70.9 74.8 71.6 64.6 61.8 56.8 50.3 50.4 60.4 68.7 67.5 61.2 63.8 75.6 78 71.1 62.9 61.8 52.9 37.8 32.9 25.7 24 24.8 26.1 28.2 28.9 36.8 36.8 39.4 40.1 40.4 34.9 29.6 27.5 24.5 24.4 20.7 17.2 18.6 28.8 51.9 75.3 78.2 71.5 77.3 74.2 73.7 79.1 90 96.7 100.6 99.4 104 112.5 115.6 133.3 137 145.5 156.9 166.9 164.2 172.4 172.6 179.4 190.1 183.9 188.4 178.4 180.5 183.9 176.3 187.6 191.6 205.9 214.7 212.6 210.7 210.3 201.3 204.2 208.2 215.2 224.3 235.2 255.8 268.8 277.8 278.6 268.2 257.4 267.4 273.2 280.9 291.4 289.8 252.5 268 270.6 273.9 268.5 265.4 269.8 287.7 312.7 332.1 346.3 353 357.2 353.9 378.9 396.8 413.2 427.7 439 434.7 424.5 433.1 440.3 439.3 438.2 422.9 377.7 337.2 302.6 284.2 272.1 280.1 306.5 327.9 317.8 315.2 306.6 306.7 294.8 303.2 322.3 335.8 353.7 379.1 401.5 406.3 422.2 430.9 427 423.4 429.2 423.7 418.5 404.3 387 385 369.5 352.5 336.8 329.6 316.7 308 294.5 273.6 259.4 244.4 226.4 218.2 211.2 201.2 195.4 197.2 192.2 196.4 191.6 194.9 195.6 201.2 206.5
113.2 123.4 130.4 133.7 131.3 120.4 103.5 104.9 101.6 83.9 75.1 67.8 60.2 63.6 59.5 65.7 77.1 89.5 98.9 96.1 92.5 82.8 79.5 82.5 74.3 76.5 78.4 79.2 72.7 68.2 65.1 55.1 55 57.2 56.1 57.4 58.4 61.8 69.3 74.8 70.7 63.1 59.6 53.2 51.4 44.3 39.3 40.3 37.9 30.1 31 32.3 40.5 44.4 44.3 43.3 43.1 42.8 38.9 33.1 29.3 29.8 24.3 26.9 20.2 27.4 40.2 59.8 66 72.6 80.7 87.2 87.6 90.3 96.9 106 111.5 113.7 115 118.7 122.2 128.5 135.8 141.5 164.4 184.2 179.7 185.1 188.1 197.4 200.1 199.5 201.2 203.1 197.8 207.9 203.9 210.1 217.2 224.7 230.2 231.2 234.6 224.1 222.5 217.9 225.5 225.7 244.2 265.4 283.9 289 293.4 276.8 273.4 287 292.3 297 304.7 312 295 287.4 301.2 299.7 299.7 294 294.6 291.1 299.8 315 341.9 374.6 384.1 390.3 402.5 395.1 414 429.3 442.7 445.3 448.4 464.3 462.3 464.4 463.3 456 432.9 392.2 345.5 318 296.4 283.4 291 310.5 351.9 346 338.8 326.7 319.1 319.8 323.7 323.8 337.6 349.4 375 393.6 399.9 406.8 417.2 423.7 421.7 426.6 421.2 418.7 403.9 392.6 388.7 371.9 358.9 353.2 330.4 323.3 315.1 314.8 290.4 264.4 256.6 237.5 228.5 220.3 219.1 218.7 218.4 206.8 202.3 200.3 191.9 191.2 195.9 199.3
114.9 124.9 131.3 137.4 137.5 131.8 123.4 113.8 111 93.9 79.2 74.5 67.8 73.7 67.2 75.2 88.8 98.1 105.9 104.6 91.8 86.1 90.3 92.7 83.7 80.8 84.3 84.3 80.9 77.6 72.8 58 57.9 64.9 66.3 62.1 63.2 59.4 63.4 63.4 60.9 59 55.3 55.4 58.6 63.9 58.9 51.5 45.1 41.5 41.4 39.3 41.3 50 49.8 46.9 48.6 50.5 46.3 40.8 35 29.7 28.2 29.2 26.6 28.9 35.6 47 53.4 75.7 87.3 90.1 98.9 101.1 103 114.4 119.5 124 126.1 125.5 127.6 134.9 142.4 150.4 166.4 180.2 187.6 192.3 194.7 199.6 201.4 213.3 214.3 216.8 221.8 221.2 228.6 223.3 232.5 237.1 245.6 247.8 249.2 246 244.2 236 236.5 240.2 260.1 270.7 282.3 294.2 290.8 270 292.9 307.1 312.5 317.1 319 314.8 295.5 302.3 310.6 323.4 335.3 331.7 331.8 334.6 333.3 338.3 361 389.8 402.6 411.7 418.9 422.2 433.5 440.7 442.8 444 444.3 455.2 469.2 475.2 479 485.2 456.1 403.6 361.1 329.5 305.9 292.6 296.7 318.4 343.8 364.6 367.5 351.3 336.2 328.7 343.7 355.4 354.1 352.5 358.7 379.8 394.3 399.4 412.3 411.9 417.7 421.5 431.8 425.3 423.5 426.4 404.2 386.8 365.1 367.1 351.4 329.7 329.1 313.9 310 292.2 274.1 252.3 235.5 229.4 236.3 232.7 225.8 214 208.6 200.7 192.6 191.7 195.1 199.4
124.2 128.5 135.8 141.7 142.4 141.4 138.8 123.9 117.6 102 83.4 77.3 81.9 84.3 82.2 89.1 96.3 109.6 114.6 108.1 96 94.9 94.4 97.9 94.4 92.4 97.4 91.6 82 81 80.2 68.6 64.9 73.4 68.6 68.8 66.2 60 63.6 62.6 59.7 57.4 58.5 61.4 62.3 73.9 75.6 61.9 50.6 50.5 54 55.2 48.2 57.7 58 56.2 57.5 57.3 52.8 48.7 45.4 37.3 34.3 32.3 33.7 37.2 40.1 44 57.7 79.3 94.6 96.2 104.8 113.5 110.3 117.4 129.3 132 134.6 137.1 136.7 141.6 156.9 159.3 179.7 190.7 198.7 203.8 206.7 202.2 208.2 221.6 226.4 225.9 240.5 241.6 243.9 248.9 249.6 257.5 258.3 265.7 266.3 266.1 265.2 267.2 263.5 267 278.6 282.6 294.9 292.2 279.8 279.6 307.4 320.4 330.1 333.1 331.6 316.1 314.1 323.2 321 336.2 350.8 357.7 366 374 373 370.4 397.4 425 433.5 439.3 447.3 448.5 443.5 447.3 460.5 459.2 467.1 473.1 486.5 500 515 497.6 451.6 419 386.5 354.9 329.4 315.6 309.4 319.3 322.4 344.9 374.2 371.7 349.9 344.3 342.7 353.5 367.2 372 369.4 378.8 390.9 398.2 402.8 411 434.6 428.3 432.4 422 423.3 423.2 411.9 386.4 370.5 374.3 354.4 338 328.5 329.4 313.2 298.4 281.3 254 244.3 242.6 250.6 237 230.2 219.5 208.9 198.4 192.6 193.2 195 198
129 130.3 142.8 148.3 148.1 148.1 148.3 130.6 125.5 110.3 90.5 80.1 99.3 102.5 94.5 96.7 110.9 117.9 117.3 108.6 107.3 106.6 103.2 101.4 100.4 99.5 98.5 97.6 89.9 83.8 81.2 71.5 64.4 77.2 77.1 82.2 72.7 60.5 63.4 64.8 63.2 60.4 59.6 64.5 67.5 77.5 80.2 68.1 59.1 59.4 62.4 65.8 59.8 62.1 68.2 66.8 62.6 65.3 61.3 56.4 52.4 55.2 47.1 42 40.9 44.5 46.9 50.5 57.2 76.9 94.8 103.5 111.5 117.1 126.4 130.4 135.5 137.2 146.8 152.3 147.6 150.5 165 174.9 181.8 191.4 201.9 211.2 212.6 209.3 217.4 228.6 235.1 240.6 249.2 264.4 261.2 272.2 268.6 275.1 283 284.1 286.2 286.9 286.2 281.9 283.3 283.8 287.8 288.7 284.7 283.8 277.7 293 326.5 336.9 335.1 336.7 327.4 337.1 342.6 353 351.3 367.1 378.6 389 393.2 405.2 426.3 415.5 418 434.6 452.1 463.8 470.6 479.5 476.7 476.6 479.9 490.6 490.9 501 508.8 516.9 512.8 507.4 468 438.6 417.2 385.6 365 336.8 343.4 341.2 352.4 341.3 360.3 381.7 367 360 353.5 358.7 377.2 375.7 381.6 379.6 387.5 404.4 411.7 421.9 431.9 436 431.6 425.7 418.6 412.8 405.5 394.7 379.3 374 359.6 352.6 334.2 317.5 307.9 294.7 273.4 265.7 254.2 250.8 252.8 238.4 227.2 218.2 206.9 195.7 193.2 193.6 194.5 197.1
133.3 136.2 147.4 155.9 160.2 154.8 150.7 139 129.9 116.7 98.9 84.4 89.2 102.2 95 102 115.7 118.7 116.8 116.3 112.1 114 111.9 112.5 109.5 105.4 106.5 104.4 97.5 91.5 85.7 77.4 71.2 72 77.3 76.9 71.1 63.6 61.7 66.1 67.3 65 66.4 68 73.7 81.5 76.9 71.6 66.1 63.2 66.3 72.9 73.5 74.4 78.4 80.9 77.4 74 73.5 64.2 63.3 66.1 60.6 52 51.6 56.7 59.2 59.3 63.8 76.9 90.4 111.4 122.9 127.4 132 137.9 145.3 153.1 155.1 163.6 158 158.9 176.9 188 197.9 204.7 212.5 213.5 215.3 221.9 239 247.6 248.3 253.3 264.2 276.1 283.1 288.3 289.2 283.9 296 302.5 308.4 309.2 308.4 300.1 300.9 296.8 293.2 288.9 287.5 285.8 288.5 302.5 314.3 321.9 326.8 334.4 345.9 370.8 368.6 379.1 386.8 394.6 416.7 423.5 438.5 447.3 455.5 464.8 465.5 469.2 471.6 492.8 508.3 508.9 514.8 510.7 513.9 512.5 518.5 524.3 527.2 524 520.8 510.8 480.3 458.2 424.8 395.7 372.7 367.4 361 376.5 384.9 374.8 353 382.1 393.9 377.5 375.6 377.7 396.3 388.8 392.5 393.2 393.1 406.4 413.1 426.6 432.8 442 431.2 435.6 428.9 417.8 406.2 397 383.1 383.4 376.1 359.6 339.6 325.6 311.6 300.5 284.7 272.9 266.1 259.1 253.7 240.7 227.8 215.1 204.4 195.6 193 193 194.1 195.6
135.7 141.8 146.5 157.8 161.9 160.8 157.8 154.3 132.4 121.8 106.9 87.3 90.6 97.2 97.2 102.8 114.2 120.9 122.4 119.1 117.1 118.8 117.2 121 116.7 111.9 114.2 110.1 102.1 98.3 90.3 81.7 76.4 73.3 78.3 78.3 75.5 67.3 61.2 70.1 70.1 69.3 68.6 70.4 73.8 81.5 82.1 80.7 71.2 69.3 68.5 72.1 78.6 83.7 84.2 89.3 89.2 83.2 80.1 75.6 74.4 73.6 70.2 62.8 65.8 69.1 68.5 65.1 68.3 79.2 92.1 113.6 129.6 132.8 143 151.4 157.9 167.4 167.3 168.4 170.9 178.5 188.8 195 206.1 214.1 226.8 233.5 234 236 238.2 254.5 263.1 268.6 279.1 286.1 298.5 304.8 306.1 307.2 310.3 322.8 328.4 332 320.6 313.2 315.6 311 302.6 293 295.7 290.9 297.4 313.9 330.5 346.3 350.6 357.8 371.1 395.6 400.8 413.5 424.2 436 451.4 459.7 469.9 485.5 501.4 501.6 503.5 502.3 517.8 520.8 528.7 540.5 552.7 547.4 540.3 548.2 541.3 544.1 541.4 532.9 527.3 500.2 477.2 460.2 429.6 406.8 401.3 392.8 379.7 399.7 411.2 400.3 380.3 371.4 396.6 406.6 398.5 401.1 409.4 407.3 408.2 407.3 401.9 408.4 411.5 427.2 438.2 439.5 452.3 447.3 438.9 423.7 414 408.8 396.2 401.4 382.7 359.3 344.9 336.1 316.2 308 299.3 288.5 281.9 265.1 259.2 244.4 229.7 214.8 203.5 194.1 193.8 194.7 194.6 198.5
137.2 143.5 146.5 157.7 163.4 164 161.2 159.4 138.2 124.1 106.7 89.9 98 100.1 101.5 103 116 120.1 123.1 121.2 121.1 123 121.8 123.2 121.2 116.4 118.3 121.3 114.4 106.8 99.3 95.6 82.9 78.2 82.2 83.6 82.8 76.1 66.1 70.8 73.2 71.9 70.8 71.8 74.3 78.2 81.7 84.4 82.4 81.2 75 75.6 80.3 85.6 91.5 96 95.4 96.8 86.2 84.3 84.4 84.3 77.4 72.7 78.2 76.6 77.4 76.1 77.2 84.1 98.5 107.6 129.9 138.5 143.5 156.6 161.8 172.2 173.3 178.5 178.1 187.4 205.7 211.7 213.6 221.6 237.6 245 256.5 254.7 255.5 268.5 277.9 280.4 287.5 294.2 307.7 313.3 325.4 330.3 328.4 332.9 341.6 343.3 342 346 338.6 319.8 305.9 306.7 317.1 315.8 328.5 338.1 363.3 378.1 380.7 382.2 396.2 417.9 435.1 446.6 453.6 465.6 485 498.9 506.1 524 526.1 540.3 535.5 536.1 536.3 557.7 560 565.1 566.1 570.2 563.7 560.7 557.6 551.2 548.7 548.9 519.3 491.9 478.6 467.9 448.2 438 430.5 418.5 401.5 427.5 439.2 414.8 407.2 398.7 399.9 411.3 418.7 425 436.4 437.9 431.2 435.3 421.3 417.5 422.9 433.6 448.3 442.2 465 458.1 446 440.3 441.1 427.7 413.9 402.5 386.8 366.4 357.1 337.5 333.8 330.6 323.1 305.3 290.4 272.6 265 249.8 230.8 217.1 201.6 194.7 195.6 195.8 195.5 202.9
145.9 149.6 156.7 164.2 165.6 167.2 164.9 161.8 140.1 126.9 114.2 93.6 102.6 108.1 104.1 106 121.9 124.7 126.7 127.2 126.9 127.5 127 124.6 122.7 120.4 120.5 124.2 121.2 111.9 103.8 97.2 88.3 84.8 84.9 89.3 90.8 85.7 73.4 70.5 76.5 79 72.1 73.4 76.4 80 84.2 87.4 88 87.6 85.3 83.8 90.5 87.9 94.4 103.6 103.9 98.1 92.1 95.6 93.4 91.3 86.5 84.4 89 85.8 88.1 89.1 92.2 97.5 100.6 114.5 124.3 138.2 143.2 152.8 166.9 172.7 184.7 189.7 194.3 193.3 206.8 214.6 227.4 245.7 244.6 254.9 264.2 275 270 279.8 296.6 299.7 301.7 304 315.6 327.4 338.8 348.9 344.2 344.4 351.4 355.6 352.7 339.3 330 317.7 318.7 324.9 334.4 344.9 362.3 377.5 384.7 412.4 415.1 425.6 433.4 441.6 461.8 479.3 485.9 501.5 508.1 527.5 535 543.4 548.8 550.3 570 573.8 575.8 569.1 575 584 587.2 578 578.4 570.9 571.4 559.3 555.1 530.2 504.3 493.2 490.7 485.3 469.4 467.5 456.6 437.4 426.9 442.7 453.6 444.5 434.8 429.7 420.1 416 422.5 432.3 459.5 463.9 462 450.2 452.2 433.8 432.7 437.8 453.8 447.5 461.7 474.5 459.9 465.6 455.7 440 423.4 407.6 388.6 374.7 365.8 366.8 360.2 356.2 341.5 318 291.7 278.3 260.7 246.1 233.4 216.5 204.3 196.6 196.6 196.7 198.2 208.8
156 154.9 156.6 164.3 163.8 163.2 162 159.4 144.4 130.3 118.7 103.2 105.1 107.2 106.8 107.6 122.8 126.2 128.4 131.7 130.7 133.1 133.1 129.6 123.9 120.9 119.7 122.3 118.6 112.4 106.5 98.8 97.3 90.6 91.4 92.9 94.7 91.3 81.7 74.1 75.9 77.6 73.1 76.9 81.1 84.1 89.5 94.1 92 92.2 93.9 98.8 96.4 95 96.6 110.1 115.3 102 95.1 98.4 100.3 98 98 96.9 101.9 97.1 105.1 102.5 103.6 106.7 111.9 118.8 133.5 144.1 149.6 162.1 171.5 180.5 195.3 196.6 205.6 208.7 216.3 234.2 250.4 261.8 264.3 267.5 272 283.4 296.4 291.5 306.1 317.4 326.6 330.4 333.7 341.1 351.7 360.2 360 359.8 364.8 366.8 358.2 344.9 333.6 342.2 345.5 351.2 359.8 375.8 399.2 415.5 419.6 431.5 446.1 460.5 467.5 475.9 495.7 511.5 514.4 528.2 541.9 558.7 569.5 579.4 582.9 583.6 591.4 602.2 595.9 590.3 594 590.1 587.3 581.4 577.2 577.9 575.2 555.5 535.5 516.3 508 512.4 502.6 497.3 493.2 487.8 478.7 465.4 461.8 463.7 475 468.9 460.7 451.2 436.9 425.6 422.6 433.6 451.5 469.3 478.1 471.4 464.1 446.9 447.7 445.1 457.3 454.4 475.1 480.2 484.4 491.7 477.6 449.1 443.2 411.9 393.4 389.4 391.1 377.7 367.9 349.7 332.1 312 292.3 278.1 263 245.9 226.2 215.7 203.5 202.1 197.5 196.5 202.4 216.5
165.9 165 159.1 156.8 159.5 162 158.7 157.1 145.9 132.7 122.1 113.7 112.1 112.1 110.8 118.9 137.7 135.2 132.8 135.6 138.9 140.3 138.4 132.1 129.7 123.2 118.6 117.3 115.6 113 109 104.7 99 95.9 97.5 98.8 100.4 97.6 88.5 78.3 75.1 76.6 74.8 76.5 81.7 88 92 98.6 99.2 97.4 97.4 104.6 103.4 101.8 99.7 109.7 113.8 108.4 99.5 101.7 105.9 104.7 106.5 105.2 107.5 115.3 119.7 114.3 114.7 120.6 126.4 126.7 136.7 147.7 152.8 170.4 188.7 188.8 201.1 213.1 214 225.1 223.5 240.5 257.7 268.8 274.6 281.4 293.6 295.1 308.4 312.4 315.7 318.3 333.2 339.7 352.9 357 365 378.9 379.3 377.2 377.4 372.5 354.3 344.2 345.6 362.5 380.5 395.3 394.2 399.6 422.5 449.5 457.9 466.5 476.8 487.4 499.8 519.9 530.7 550.5 566.9 570.9 588.5 596.8 599.1 605.1 612 618.1 623.9 628.2 621.8 615.8 613.8 610.9 602.7 588.2 573.1 568.8 559.4 539.7 526.3 519.2 517.3 522.1 529.3 526.2 518.7 522.5 508.7 494.7 483.3 495.4 499.7 498.4 490.5 473 455 444.9 436.7 435.8 442.3 458.3 471.9 476.1 462.8 454.7 460.2 464.5 464.2 465.6 480.3 487.4 509.3 503.7 486.4 457.5 438.7 421.1 411.4 415.4 407 395.6 375.7 350.8 325 309.9 289.9 272.4 257.7 242.4 226.3 212.7 203.7 201.1 198.5 198.7 207.7 225
162.3 170.3 158.9 155.9 156.5 162.7 158 151.3 145.1 132 125.3 115.8 116.1 114.4 122.7 135.7 143.4 148.6 139.4 139.6 143.2 143.7 141.9 133.5 130.8 126.8 119.4 115.6 114.5 114.3 110.9 107.2 100.6 104.1 100.9 103.6 104.4 102.1 95.1 86.3 77.9 77.9 81 77.6 80.3 85.2 89.5 95.4 99.6 98.1 99.4 103.1 105.3 105.2 103.4 108.8 118.4 115.5 107.1 103.8 109.6 109 108.2 115.3 125.2 124.4 126.2 126.7 128.9 134.2 137.6 138.6 140.1 153.9 160.2 184.8 199.1 203.8 206.3 224 228.4 234.5 237.9 246.2 255.1 272.4 290.2 297.5 312.8 324.4 328.4 331.7 327.9 340.2 343.6 354.7 360.1 371.6 378.5 394.3 394.9 387.2 372.7 359.8 353.9 361 379.8 388.2 403.5 425.1 436.3 442.2 449.8 467.5 482 487.6 509.5 520.7 545.1 549.3 573.6 590 603.4 614.3 624.6 629.9 633.4 636.4 646.7 651.6 652.9 650.9 651.8 639.1 641.1 635.7 617.9 586.1 569.5 564.7 551.8 539.8 532.2 523.3 527.7 531.4 535.9 537.2 538.2 538.1 516.4 503.2 497.7 502.2 516.9 525 517.7 498.7 480.8 466.9 459.6 448.9 446.9 452 460.7 466.7 469 467.3 473.7 481 483.7 486.1 493 505.2 512.4 499.9 479.2 454.5 445 435.3 429.8 418.6 401.3 389.6 365.3 341.7 322.3 302.5 283.6 267.5 253.8 239.4 223.6 210.3 203.3 199.9 199.8 203.6 212.1 230.2
153.4 162.8 166 152.9 152.9 153.5 149.5 149.4 146.7 134.7 132.8 125.7 121.7 126.2 141.6 146.7 148.1 160.4 152 143.2 143.8 143.6 142.5 133.4 128.2 124.1 117.8 114.1 116.4 117.3 114.4 104.9 101 101.9 103.5 106 107.2 106.1 97.9 90.5 85.8 82.1 78.9 80.7 82.7 92.1 93.9 94.5 95.3 97.5 99.1 101.7 105.6 106.8 106 108.9 117.1 120.1 112.4 108.7 112.4 112.2 114.5 123.2 133.7 136.3 131.8 137.1 140 144 146.7 145.5 151.4 156.7 173.3 186 205.2 215.2 216.5 225.3 236.2 245.7 251 257.8 271.3 280.8 294.4 302.9 324.9 340.4 351.9 354.3 355.7 360.5 360.1 368.5 373.2 387.1 387.5 391.9 388.7 373.3 362.6 366.2 382.8 391.7 402.5 407.6 419.2 436.3 448.5 463 476.3 495.6 515.5 514.6 534.9 556.7 574.5 583.7 611 630.1 640.7 650.5 658.3 671.6 667.9 669.3 670.5 671 674.8 672.8 667.5 652.5 653 648.4 633.7 595.8 573.1 567.3 555.2 546.4 539.3 538.3 547.7 551.9 554.5 559.3 558.6 550.3 532.5 511.4 504.2 518.5 531 537.4 534.1 523 508 488.2 483.2 466.7 459.2 456.8 459.1 467.6 477.8 479.1 482.9 492.5 500.2 493.9 511.3 519.8 514 496.8 481.3 461.1 446.7 437.9 432.4 411.3 408.5 392.3 369 341 318.1 298.5 279.1 263.1 250.8 238.1 225 216.2 210.8 202.1 205.1 210.3 219.6 234.1
149.2 157 174.2 151.8 147.4 145.5 147.2 151.5 151.5 144.7 146.4 136.2 133.4 132.7 143.5 149 149 158.7 159.6 150.6 149.1 146.1 142.3 138.6 125.4 121.6 118.7 112.4 115.3 117.3 108.8 100.6 102.4 103.4 105.2 108.7 108.5 104.3 99.2 91.6 88.8 85.7 77.6 79.2 82.1 95.4 98.9 100.5 100.9 101.3 98.6 101.9 108.5 110.3 111.4 107.9 115.8 118.1 117.7 115.7 117.3 116 115.7 128.5 136.5 141.7 139.9 141.2 145 148 154.8 156.5 159.8 161 172.9 190.3 209.4 222.8 224.6 226.2 247.9 260.7 267.2 271.4 282.8 290.5 307.8 310 330.4 352.5 366.5 374.4 376.9 377.6 387.4 393 396.9 397.5 396.9 394.2 379.6 373.5 377.6 394 411.3 415.6 421.2 427.3 433.3 445.5 461.3 474.5 494.3 514.8 533.2 543.2 554.1 584.5 600.6 622.8 640.6 656.4 667.9 677.1 688.8 697.5 695.4 701.8 702.9 693.5 689.2 696.3 688.7 678 663.6 659 640.1 611.7 584.4 576.5 564.7 556.7 547.8 551.7 569 573.2 579.7 581.4 573.9 567.9 548.1 535.7 524.4 540 549.3 554.6 543.4 537.3 531.6 515.1 505.3 486.2 479.1 480 474.5 473.5 484.8 488.9 496.1 507.9 503.7 500.5 519.4 519.8 518.3 510.1 499.8 464.5 447.3 435.2 420.6 404.7 394.5 376.1 354.6 332.8 315 298.2 280.2 263.6 248.6 237.9 225.2 215.6 210.6 204.6 211.6 221.5 230.6 241.2
139.7 155.5 167.7 163.5 148 142.8 144.9 150.8 154.6 154 152 145.9 135.7 132.3 144.7 149.2 145.1 152.8 157.4 155.6 150.6 150.2 142.1 139.5 127 123.2 119.9 111.5 108.8 106.8 101.8 102.2 103.7 105.2 106.9 106.6 105.3 101.7 97.4 94.6 92.7 90.3 85.2 78.7 83.1 94.7 106.4 110.7 109.6 107.6 103.5 105.2 112.1 113.3 115.5 114.7 111.7 117 123.3 122.7 124.7 124.4 126.3 135.6 139.5 144.3 144.9 145.9 149.3 153.6 159.4 164.4 168.9 170.4 174.7 191.5 212.8 224.6 231.7 235 251 270.9 276 284.6 288.7 303.8 316.8 327.4 341.7 360.6 376.2 387.5 388.6 405.6 412 416 419.6 417.5 411.1 396.4 382.7 389.9 414.1 425.3 423.7 428 434.5 442.2 452.2 453.3 469.8 487.5 508.4 527.9 555.2 563 583.4 602.6 619.7 632.9 653.7 662.5 677.6 694.3 691.1 701.9 712.8 719.2 720.5 706 698.5 706.6 704.6 693.2 675.2 674.1 651.7 628.3 600.3 587.2 583 582.3 565 563.8 576.5 587.3 592.9 590.2 582.4 573 559.8 550.3 543 549.9 567 576.4 564.5 557.1 552.1 534 520.7 504.7 501.6 496.1 488.7 482.6 490.1 497.7 515.9 512.1 518 518.3 530.5 534.1 535.9 518.7 500.2 468.4 452.9 434.9 413.9 396.2 379.1 357.8 341 328.7 312.9 298.2 282.1 264.8 249.9 238.1 230.2 224.8 215.1 210.7 221.4 231.2 238.9 249.1
139.4 150.3 163.9 163.6 145.8 142.1 142.4 149.2 150.8 151.8 151.4 151.1 136.3 131.2 142.5 144.9 141.2 145.8 151.2 152.2 155.1 150.3 144.9 137.3 128.1 126.8 122.3 113.7 109.5 111.5 112 106.3 106.6 105.3 106.6 105.5 101.9 96.5 95.3 96.4 101.1 97.8 92.9 83 83.6 93.7 102.7 113.2 116.5 116.1 113.4 112.7 113.4 120.5 123.1 122.7 120.7 119.2 123.2 126.9 130.3 131.7 134.7 139.4 145.2 144.7 147.9 149.3 153.9 158.7 163.5 169.5 174 177.8 176.3 192.2 219 231.6 239.9 243.5 253.4 280.1 283.7 290.1 301.4 314.6 325.3 335.1 352.1 366.4 382.3 397.5 408.5 424.5 437.4 436.7 423.6 414.1 406.5 400.1 411.8 417.2 423.3 430.4 431.7 443 451.5 462.5 467.9 473.2 476.5 493.8 514.7 533.3 562.3 572.4 590.2 602.6 614.6 638.3 650.7 658.8 665.9 691.5 699.9 709.3 712.5 713.3 727.6 713.1 720.6 734.1 728.2 717.8 696.7 687.3 676.9 649.2 620.4 604.5 604.9 599.8 589.6 582 578.6 584.9 595 596.5 590.4 578.7 572.6 570.9 572.6 577.5 590.2 589.6 584.1 580.7 575.5 557.3 541.5 526 518.7 515.7 505.9 495 495.5 506.7 521.9 531.5 538 533.9 534.2 528.6 526.6 522.2 487.6 471.5 451.1 430.6 413.9 400.4 370.7 349.1 330.8 321 308.2 295.9 281.2 265.6 251 242.6 236.7 228.9 222.6 214.7 226 237.9 245 253.9
137.7 149.8 162.2 160 144.6 142 137.3 144.1 147.4 152 150.4 150.8 129.9 127.4 138.1 137.7 133.1 137.2 147.6 153.1 156 148.7 146.3 136.6 127.8 126.1 122.7 116.3 113.2 119.3 119.9 114.8 113.8 112.6 112.1 105.8 101.5 105.2 105.9 105.3 109.1 106.2 100.7 94.6 83.8 88.1 102.8 110.3 113.7 121.1 120.2 122.5 120.9 118.8 122.9 124.2 124.7 123.3 126.3 132.9 138.6 141.1 145 148.4 150.2 149.4 152.3 154.3 157.1 163.7 168.6 172.9 176.8 179.9 177.7 192.5 212.9 230 243.5 250.6 256.9 274.2 284.7 297.7 304.5 319.1 332.6 345.3 357.6 377 396.9 414.4 427.9 438 444.6 429.6 422.2 415.9 409.9 433.6 446 450.4 464.4 467.5 463.7 459.5 462.5 471.1 478.2 482.6 488.7 499.3 518.2 547.7 566.5 576.7 593.5 598.5 626 626.9 644.2 650.8 666 682.9 694.2 703.4 720.1 728.5 725.5 717 728.5 737.2 733.1 723 720.1 711.1 693.9 674.3 647.5 631.6 627.1 619.9 612.7 606 588.2 584.1 587.6 590.3 586.8 589.9 597.7 598 592.1 606.4 614.9 608.9 601.7 598.7 586.3 574.5 554.4 551.6 543.6 532.4 516 515.6 511.3 522 537.5 542.3 541.3 534 532.5 527.1 519.3 502 472.5 456.5 441.9 423.8 404.1 387.2 360.1 336.7 324.9 311.7 301.4 290.8 279.2 265.6 254.1 245.9 240.6 236.3 226.4 226.8 235.1 241.1 248.9 257
130.1 143.1 152.1 151.7 141 137.8 135.2 139.4 146.5 152.7 147.6 143.7 120.1 124.9 130.2 131.6 132.4 141.7 151.2 153.2 150.1 146.3 142.8 132.1 128.8 131.4 122 115.3 117.7 120.9 122 121 116.1 115.2 112.2 106.6 103.4 108.5 113 115.4 117.1 112.7 106.6 101.1 94.6 91.8 98.6 107.3 111.5 113.4 118.5 122.3 125.4 124.5 124.1 125.7 127.4 128.9 131.4 137.2 141.6 151.3 151.7 153.4 160.9 155.1 153.1 160.2 161.4 168.1 172.1 175.6 179.8 183.2 182.3 190.7 212.6 235.1 253.7 265.5 265.7 284 292.8 307.3 316.9 326.5 341.3 355.1 368.4 384.8 399.5 425.7 437.7 446.8 450.5 440.7 425.4 415.8 430.8 446 465.1 469.6 480.2 486.3 493.2 483.5 487.2 486.1 496.9 505.8 517.5 536.4 544.1 562.2 564.7 578.2 598.1 604.6 611.4 621.2 635.4 652 667.6 679 683.6 700.6 722.8 737.8 733.2 728.2 727 740.6 743.3 741.1 737.5 720.1 712.6 692.9 674.9 652.3 642.8 637.3 634.6 629.6 605.7 593.7 590.9 595.5 599.9 609.1 625.3 622.5 625.5 636.6 633.2 623.1 615.2 605.7 599.3 589.2 580.6 572.5 560.5 547.9 527.7 523 530.6 538.4 547.4 544.6 538.9 532.2 528.4 518.1 518.9 493.1 471.6 447 430.4 412.6 397.7 377.5 351.4 332.6 317.4 305.2 294.9 284.9 274 263.5 255.6 247.7 243.5 236.4 234.9 235.3 238.7 248.8 257.7 264.1
134.6 136.8 144 145.5 138.9 135.7 134.5 138.4 148.6 146.9 141.6 136.1 117.7 122.4 130.6 133.7 127.6 135.3 141.4 146.1 146 141.7 136.2 130.3 127.6 127.2 122.5 114.6 116.3 119.1 122.5 121.1 117.5 116.4 110.4 105.5 106.9 110.2 115.3 118 122 118.5 112.2 106.1 99.7 100.9 93.5 101 109.3 116 122.6 124.3 124.5 126.7 128.2 128.7 129.7 131.7 137.1 144.6 141.9 149.6 151.8 158.8 168.3 166.9 156.3 157.8 165.1 172.1 175.5 178.3 182.7 186.4 193.1 197.8 215.7 233 263.2 273.6 277.5 288.6 299.2 309 320.1 332.3 345.1 363.7 380.2 394.1 411.1 426.2 439.6 446.4 449.4 434.2 429.2 427.7 447.3 455.5 466.8 479 481.1 488.3 491.5 494.4 501.3 493.4 496.7 501.6 512.9 527.1 543.2 553.3 558.8 577.5 590.4 593.7 606.8 616.9 631.5 644.4 666.1 668.8 675.3 693.6 721 739.9 740.3 745.2 742.7 742.2 740.7 741 735.9 731.6 723.9 713 688.4 669.5 653.2 650 649.5 634.2 612.3 604.5 605.1 604.3 610.1 624.9 644.2 647.5 651.4 662.1 669.4 649.1 637.5 624.2 620.7 607.4 604.8 586.2 570.6 551.5 543.5 542 548.5 554.2 560.3 546.8 538 530.4 522.8 513.9 513.7 482.1 469.3 440 421.9 409.7 393.8 364 340.1 328.2 312.9 299.8 290.1 278.6 270.2 263.9 253.8 248.6 246.2 243.5 242.5 246.8 247.9 257.5 258 268.8
134.9 136.8 137.2 141.4 138 135.4 132.9 139.3 147.5 146 138.9 138.1 115.3 123.2 130.6 132.1 124.8 130.4 134.8 137.5 139.9 132.5 131.4 130.2 122.5 118.9 113.7 112.6 111.6 115.1 122.8 120.9 117.2 114.7 111.1 105.7 106.9 109 111.8 118.4 122.2 121.9 115.1 108.6 103.8 104.8 102.8 98.6 108 115.5 119.6 123.5 126.2 130.2 134.4 134.9 132.3 131.8 136.1 144.4 145.7 146.3 151.4 159.5 170.4 172 164 155.2 163.7 174.8 177.6 180.8 187 194.8 202.4 205.7 218 234.9 262.5 276.2 281.8 289.4 300.9 305.6 317.6 327.4 343.6 363.7 383.9 396.2 416.8 430.4 447 454 443.1 442.2 442.4 457.2 462.4 466.6 471.8 479.6 488.1 490.7 497.8 506 499.8 501.6 507.7 503.8 508.1 518.8 534.9 541.3 545 565.9 570.7 592.7 610.8 624.8 634.7 642 660.3 667.3 676.4 698.9 719.9 741.9 747.8 755.1 748 738.3 738.3 737.8 740.5 739 730.6 722.4 700.7 676.7 667.3 654.6 650.2 640.8 628.6 625.9 628.8 619.2 625.8 644.8 662.2 668.1 682.1 686.9 681.4 664.6 652.8 641.6 634.8 627.9 619.9 601.2 582.3 572.4 564.2 560.7 565 568.6 557.4 549.9 539.8 527.4 518.3 507.5 488.8 468.1 451.3 430.7 414.1 398.7 378.2 352.2 335.4 317.8 307.4 294.5 286.9 274.9 272.3 267 264.1 261.5 264.1 266.5 263.9 263.9 262.2 265.6 265.8 273.5
141.3 137.5 136.7 136.8 134.6 135 132.1 140.3 146.6 141.3 131.8 129.4 115 122.8 128.9 127.4 121.2 124.9 128.8 129.4 129.7 129.4 130.3 127.1 120.6 114.8 113.5 109.9 109.1 108.1 113.1 113.6 114.7 113.4 110.1 107.1 108.7 113.8 118.1 119 123.2 123 117.5 109 104.5 104.4 103.5 104.2 103.4 114.5 118.7 123.4 126.9 132 138.3 138.7 139.5 135.7 135.6 140.5 148 150.9 149.7 158.1 167.6 167.8 167.8 163.8 162.1 172 179 182.9 188.3 194.8 202.6 211.5 217.7 236.9 260.2 275.2 282 292.2 299.5 303.5 314.4 325.6 345.5 367.1 375 393.2 412.1 428 439.5 432.2 446 458.7 468.3 463.9 475 481.9 484.9 488.2 495.4 497.7 491.8 492.9 502.2 498.8 503.8 505.6 503.9 507.9 519.3 524.2 535.6 549 565.1 584.8 606 621.9 636 647 662.7 681.3 694 702.7 721.2 739.5 742.1 738.4 738.3 740.6 742 754.1 754.8 753 745 730.9 711.5 686.1 674.2 664.6 663.1 664.7 661.3 653.6 657.1 641.4 650.3 681.6 683.4 687.3 695.1 696.9 691 675.1 660.5 649.2 641.4 629.9 622.5 602.3 590.3 585.9 581 576.6 572.1 571.3 561.7 550.1 543 527.4 518.6 499.9 480.4 462.4 445.4 427.7 411.1 390.5 366.3 345.4 343.9 329 314.6 305 294 284.1 279.3 277.2 273.6 276.7 280.3 283.2 284.1 279.6 271.9 271.3 271.2 282.6
140.6 141.7 138.4 135.9 132.1 130.4 130.8 137.3 141.4 133.7 129.2 114.8 114.6 120.6 123.1 122.4 118.8 121.4 124.1 122.9 126 125.3 124.9 120.5 112.8 113 108.9 106.1 104.5 105 108.7 112 116.7 116.6 112.8 110.1 112.5 117.1 121 121.2 125.5 126.4 122 113.7 106.6 105.4 105.6 107.4 109.2 109 116 120.6 123.6 127.3 132.1 139.3 142.2 139.8 137.5 140.1 150 149 148.4 153.4 161.4 165.9 171.8 172.4 169.8 169.7 179.8 185.4 188.4 191.6 198.2 205.8 213.3 233.5 255.2 273.8 279.6 284.1 293.7 305.6 310.6 327.9 346.8 360.8 373.4 390.1 399.9 413.3 415 430.8 448.8 459.1 474.6 482.7 475.7 483.4 490.4 496.1 493.3 495.6 495.6 491.8 492.4 493.4 494.7 494.3 499.9 505.4 507.3 513.1 524.5 535.2 559.7 586.8 605.1 620 639.7 650.5 676.4 693.5 705.6 715.1 720.4 726.2 733 738.3 742.5 751.3 745.2 753.2 757.2 753.9 745.4 731.4 716.4 700.8 693.3 680.7 684.3 682.1 675 668.2 664.4 663.8 686.8 714.5 717.1 716.6 712.5 706.3 692.4 683.1 670.6 658.7 647.4 636.6 618.1 607.7 605.8 602.5 600.5 592.3 580 580.1 565.9 551.2 538.4 526.8 514.3 495.2 476.7 460.3 449.6 427.2 409.2 388.3 369.4 365 352.5 337.7 334.3 322.6 310.3 304 295 291.2 298.3 299.8 306.7 308 297.2 285.6 282.8 278.3 278.6 289.8
138.7 142.5 141.3 135.6 130 130.6 134.3 134.9 131.4 128.7 118.9 111 117.4 119.2 119.4 117.3 115.9 115.6 118.6 118.8 124.2 125.3 118.4 112.6 110.7 107 104.9 104.8 105.8 110.6 110.3 117.3 122.7 115.8 111.2 110 114.7 120.1 123 124.6 126.1 129.9 126 116.2 106.1 109.4 111.5 114.9 117.3 115 114.9 117.2 123.7 125.2 131.9 141.5 148.6 140.9 139 139.7 145.4 146.2 146.9 149.1 155.6 162.7 173.4 173.8 171.5 177.5 177.7 180 187.7 191 197.2 202.5 207.9 224.4 242 262.1 274.4 277.7 288.1 299.1 310.1 320.5 338.8 354.7 367.2 383.5 390.7 388.5 405.4 429.4 449.8 459.9 476.9 486.8 483.2 478.6 485 494.8 499.4 494.9 488.3 487.7 490.5 488.7 485.7 488.5 500.8 501 501.3 508.2 517.5 527.9 552.9 571.6 601.5 625 635.8 653.8 674.7 690.5 698.7 699.3 703.7 715.3 730.4 742.1 753.9 757.3 762 760.7 769 763.4 757.4 743.7 737.3 724.2 707.3 704.3 712.2 705 699.6 687.7 688.4 697.8 730.1 747.1 746.9 749.1 739.4 723.9 699.1 686.2 675.6 661.8 648.4 636.3 628.3 616.4 617 610.3 606.4 598.9 581.8 585.9 568.9 551.8 539.7 528.5 512 491.4 473.8 460.1 447.5 426.7 405.9 390.4 389.9 380.1 363.3 356.9 347.7 335.7 332.9 323.3 312.1 318.5 318.3 328.8 322.2 313 301.3 297.3 293.7 287.7 293.7 308.3
135.8 141 140.6 136.8 131.5 131.7 137.1 141.6 133.3 124 111.2 111.4 116.4 117.8 113.9 113.9 115.7 111.1 113.5 114.1 118.4 117.1 111.1 106.3 109.6 103.6 104.7 103.6 104.2 107.3 110.6 114.8 113.1 109.4 108 108.1 119.7 125.6 128.2 128.5 126.6 127.6 125.6 118.9 108.3 109.8 113.5 116.7 122 118.8 119.7 118.3 116.3 119.6 126.8 138.6 146.7 141.3 138.7 138.9 145.3 145.8 145.9 146.2 150.7 157.4 165 169.3 172.7 177.6 179.6 179.4 182.4 188 192.2 203.4 204.4 212 229.4 250.5 264.5 270.1 275.9 289.4 302.6 311.9 330 345.2 357.3 365.5 365.3 381.2 399.1 419.8 442.6 461 473.1 475.3 480.2 482.7 475.5 487.6 488.9 488 487.1 486.7 486.3 486.7 485.6 486.7 493 495.5 496.4 503.8 520 525.6 541.6 574.7 592.5 624.1 649.2 652.7 669.2 669.8 670.9 678.6 701.6 711.8 730.6 741.4 752 757.4 767 773.8 777.9 776.9 767.2 764.4 760.8 754.1 739.9 732.9 736.2 724 719.4 723 721.9 734.4 766.8 764.9 762 758.9 740.3 725.5 707.2 688.4 675.1 658.9 639 629.6 619.9 619.3 620 611.9 610.3 598.6 582.6 582.6 557.5 537.1 521.7 515 503.3 485.7 470.6 456.9 438.6 416.4 403.7 409.6 405 388.1 379.1 370.6 358.3 355.9 350 337.2 335.3 336.9 339.7 339 327.8 322.3 312.1 314.2 309.2 307 313.1 336
130.2 135.2 136 137 134.1 133.3 135.6 143.9 133.6 122.5 110 111.6 111 110.7 108.6 107.8 109 108.8 106.7 112 114.6 115 104.5 103.2 103.1 102.7 103.8 103.1 104.6 107.1 109.7 110.9 109.9 106.7 107.6 110.3 116.8 123.8 131.2 133.7 130 128.2 125.7 121.1 112.9 108.8 111.6 116.4 121.9 126 124.6 123.2 123.2 118.2 122 132.2 147.1 138.6 137.8 137.7 140 144.2 144.1 145.4 149.5 154.5 158.4 163.7 169.3 173.6 180.4 180.2 180.4 182.6 187.9 199.3 200.2 205.4 222.1 244.2 261.5 262.7 269.8 280 290 304.2 320 329.2 334.2 344.3 361.3 375.6 392.8 410.8 430.5 450.2 459.5 468.3 476.8 474.9 469.5 461.5 467.1 474.2 482.1 479.8 479.6 480.5 479.9 482.2 485.5 485.2 486.5 495.8 510 514.2 532.7 560.1 590.6 616.6 637.9 652.4 647.4 647.8 654.4 662.2 682.7 696.1 709.7 725.4 748.2 757.6 769.7 781.3 794.3 799 789.8 791.5 788.4 779.4 769.7 762 755.4 754.8 753.9 752 757.3 767.7 774.8 768.4 762.7 752.1 739.5 723.6 705.3 689.4 673.5 659.2 646.4 632.3 622.7 620.7 617.8 612.3 607.7 593.3 576.2 559.6 543.2 527.6 513.1 501.3 485.9 472.9 463.7 448.1 433.8 431 425.9 430.1 409.8 398 391.5 380.5 369.4 369.8 357 352.9 350 355.3 354.1 347.3 340 338.7 327.4 328.8 325.3 331 337.1 343
124.4 126.8 132.5 133.6 133.2 127.3 137.1 143.4 134.5 123.1 111.8 109.1 108.3 106.8 107 107.4 108.6 108.2 103.6 105.7 110 110.3 102.6 107.1 108.7 106.8 104.7 103.3 104.9 106.4 108.4 109.9 108.3 107.2 107.5 111.4 117.2 127.2 132.7 133.4 132.4 130.4 128.3 122.6 114.4 109.5 111 113.3 120.3 124.3 126.6 125.4 128 127.6 120.5 126.9 133.1 130.7 136 135.9 136.5 143.6 142.3 144.3 148.7 152.8 156.5 159.7 162.5 167.7 170.9 172.4 178 177.3 180.2 191.6 195.1 200.2 214.6 232.7 253.4 259.8 260.6 273.5 283.1 295.3 303.8 308.9 313.5 337.2 347.9 361.3 376.1 395.7 414.4 422.6 438.7 439.1 443.1 453.4 449.2 444.6 442.3 451.5 462.3 471 471.8 471.6 473 475 474.7 476.4 482.6 495.8 497.9 506.9 532.6 558.2 575.8 603.6 623.2 615.2 622.9 631.4 642.6 645.7 655.5 668.5 698.2 732.2 754.3 780.3 796.9 802.6 812 810.2 807.2 815 807.6 795.1 789.9 789.1 791.3 790.5 792.4 796.8 794.3 787 776 762.1 752.3 741.7 731.4 721.8 700.7 686.5 673.9 664.7 655.8 640.2 628.9 630.7 617.3 609.7 595.5 583 565.3 544.7 530.3 518.5 507 494.8 474.6 466 456.9 440.8 444.6 440.1 446.7 429.5 413.3 403 396 387 381.5 371.8 369.1 364.1 368.5 364 361 348.5 347.8 344 338.1 340.1 339.3 347.2 355.3 359.4
117.7 119.4 124.8 132 129.2 127 139.3 146.9 135.7 124.6 115.1 111.4 108.2 107.9 107.8 107.7 104.8 107 102.7 104.9 107.3 106.9 106.3 113.9 114.4 109.8 107.5 105.9 105 105.5 107.5 108.1 107.7 107.3 107.1 111.5 118.7 125.6 130.1 130.8 132.3 132.2 129.1 124.5 115.7 108.4 111.2 112.5 117.6 122.8 125.3 126.5 128.2 131.1 126.7 123.2 123.7 125.4 131.2 133.7 132.9 138.5 136.7 143.7 149.1 152.9 155.6 158 161 162.9 164.2 164.6 168.7 169.9 177.1 186.2 191.3 196.3 206 223.1 241 247.3 252.3 265.9 270.1 281.5 285.4 299.9 310.5 327.1 339.7 349.8 359 373.4 388.4 402.9 411.1 416.2 415.8 423.1 425.3 429.3 430.4 433.7 447.2 463.7 464.4 464.4 462 467.9 465.6 469.6 482.3 492.7 498.4 509.3 529.5 556.3 581.3 582.4 583 590.6 598.3 607.9 619 635.6 650.7 674.5 695.5 737.1 774.2 802.4 817.1 824.4 828.9 825.5 824.3 821.8 821.4 809.5 812.5 819.3 825.7 819.6 826.7 814.4 801.1 784.8 765 749.8 737.5 728.9 724.4 711 698 683.6 673.2 664 650.9 638.6 630.1 624.7 608.6 597.1 587.3 574.6 554.8 538.4 518.5 506.4 491.5 480 467.1 456.6 446.9 444.3 445.1 446.3 440.4 427.1 413.7 403.3 393.9 389.5 381.4 378.7 374.5 373 378.7 369.8 363 354.6 349.5 348.1 345.8 347.4 354.3 358.6 368.9 377.1
112.4 119.1 125.1 128.5 129.8 126.8 141.5 145.2 137.2 125.7 117.7 114.7 110.3 111 112.1 109.6 106.3 105 100.5 99.1 103.8 103.1 112.8 119.5 120.1 116.6 109.1 106.9 108.2 108.2 107.9 109.1 108.4 107.2 107.2 111.5 116.6 122.9 127.1 129.9 132.1 131.2 127.1 121.9 115.5 107.1 108.8 111.8 117.2 123.4 126.3 127.5 130.6 133.4 129.2 124.3 122.4 124.2 124.5 129.3 133 126.1 128.9 142.1 151.6 154.9 156.6 156.6 155.8 158.6 159.3 159.3 162.5 168.5 172.5 179.8 187.3 191.6 197.8 212.6 222.4 235.2 238.2 247.6 254.1 251 264 287.5 296.7 310.2 324.4 333.5 339.1 349 359.4 376.3 380 393.3 396.2 399.9 406.8 415 423.4 428 430 440.6 447.6 453.7 456.4 462.7 462.1 470.5 483.1 488.7 496.3 513.5 535.7 553.9 562.1 562 562.8 566.6 582.3 599.9 630.5 652.2 667.4 691.3 709.1 744.5 775.9 810.5 838.4 839.7 840.1 832.8 836.7 821.7 827.4 820.1 820 825.8 829.1 810 797 788.1 780.5 769.2 748.6 732.5 721.1 715.7 715.4 700.8 682.6 670 662.6 652.8 638.5 626.9 619.3 605.7 592.9 579.7 566.6 560.5 546 529.5 510.7 498.2 481.5 467.1 459.5 447.1 444.7 439.7 437.9 439.3 428.3 420.6 411.2 403.2 394.5 390.3 389.3 387.2 385 386 382.4 375.2 368.1 363.4 361 353.8 356.1 359.1 365.6 374.8 381.8 388.4
112.5 119 124.2 131.2 130.4 125.2 139.4 145.7 135 121.6 120.9 117.7 112.4 114.3 114.5 109.2 105.6 98.6 92.6 95.2 95 108.9 115.4 122 123 119.6 112.7 109.3 111 113 111.6 110.6 108.7 107.2 107.7 110.5 116.2 121.3 125.2 127.7 130.7 130.8 126.5 119.3 112.1 104 106.4 108 112.5 120.4 128.2 130.8 134 137.1 135.5 135.4 122 120.2 123.8 119.7 126 118.4 120.1 138.5 149.5 155.6 156.6 155 153.8 154.9 155 154.9 157.9 165.3 173.8 177 181.5 185 190 194.7 208.4 218.5 222.4 226.6 231.2 241.4 258.6 272 286 298.9 310.6 314.7 324.7 332.9 347.1 354.9 361.7 368.2 374.9 380 390.5 399.6 412.3 419.4 422.8 426.4 430.5 435.8 459.7 464.3 461.5 470.1 485.1 495.2 504.8 511.5 524.8 537.9 538.6 543.4 550.9 562 583.8 610.4 646.4 672.1 687.8 710.2 730.5 756.7 778 812.3 828.5 831.1 812.9 798.6 799.1 799.2 813.8 810.2 803 797.8 788.8 778.6 777.4 776.6 761.4 748.6 733.1 714.7 708.8 702 698.6 683.6 666.4 658.9 648.1 635.4 625.2 617 601.7 587.6 574.4 566.8 552.9 542.9 525.1 509.4 493.5 481.4 463.5 448.7 440.2 435.3 434.6 433.8 435.6 432.1 422 414.2 405.7 400.8 399.1 400 398.1 394.3 392.2 392.9 386.8 380 374.2 372.7 365.3 363.4 370.4 373.2 377.3 382.1 385.1 387.7
110.2 118.1 122.8 126 125.8 125.8 139.8 146.3 139.9 123.5 123 120.3 113.4 113.3 110.8 102.4 102.4 94.8 89.3 86.7 98.6 105.7 113.3 120.3 124.8 120.9 115.3 113.1 111.8 114.1 112 111.9 108.8 107.4 107.4 111.7 114.4 119.7 122.3 127.4 129.2 129.4 125.8 117.8 111.2 104.6 103.7 105.5 110.3 117.8 128.8 137 138.4 141.1 135.6 131.4 124 117.9 108.1 108.2 111.9 107 111.1 129.4 143.8 152.6 152.1 152.7 151.1 149.9 150.4 150.8 156.6 162.4 168.2 172.4 171.2 175.6 179.1 180 191.9 200.9 203.6 212 218.6 234.8 251.7 263 275.6 286.1 292.2 304.6 317 319 330.4 341 342.5 345.5 350.6 356.4 369.2 386.7 400.6 411.3 416.5 420.4 422.2 424.8 436.3 450.9 456.8 461.7 472.3 493 497.8 495.7 499.1 508.4 517.6 530.2 547.4 567.3 589.2 605.7 636.9 680.3 711 728.8 747.1 758.6 772.4 780.9 781.4 784.7 783.9 768.6 767.7 767.4 775.8 775.9 780.1 775.8 772.1 765.2 761.2 753.6 743.4 733.7 715.5 705.3 691.8 687.9 677.1 666.1 655.1 646.2 631.1 616.3 609 604.4 581.8 564.1 554 554.4 536.4 522.5 507.8 487.3 477.8 460.9 446.7 429.7 420.5 417.6 421.4 417.4 423.3 417.7 411.3 410.4 406.4 402.2 402.8 406.9 406.7 400.1 399.2 396.4 391.3 387.3 382.3 378.2 374.7 375.8 377.3 381.3 384.2 386.2 383.6 380.8
107.9 115.3 121.9 126.9 121.8 128 137.7 145.3 137 124.9 122.9 116.2 110.4 106.5 99.3 94.9 93.1 88 84.6 83.8 94.1 100.9 108.7 116 122.1 127.1 117.7 115.4 113.6 114.4 116.1 115.4 109.4 108.4 109.6 112.8 114.9 118.1 124.7 130.5 130 126.9 122.4 115.9 108.9 104.9 103.7 105.1 108.7 112.6 127.9 131.7 139.1 142.5 138.1 129.9 126.2 123.7 112.5 99.3 102.5 99.1 102.9 121.1 133.6 142.8 143.8 145.1 146.7 143.3 146.6 147.7 153.8 160.2 162.9 163 166.7 167.2 168.5 170.7 175.2 180.5 201.1 208.6 212.9 221.9 239.6 253.5 264 266.7 271.5 282.9 294.5 302.8 306.7 313 312.7 315.5 336.4 361.8 375.7 368.1 378.7 392.9 411.5 418.9 426.1 427.4 433.7 433.1 438.5 445 452.1 461.1 465.8 474.2 490.3 495.6 507.4 528.8 544.7 574.1 602.3 613.1 631 659.8 699.7 727.2 745.3 762.4 766.7 768.8 769.4 765 756.1 745.8 738.6 734.3 736.4 746.4 746.2 747.9 748.7 746.6 744.6 737.1 722.5 709 694.2 691.6 676.7 668.3 657.8 650.4 642.9 630.5 617.6 599 589.2 579.6 560.6 550.1 533.3 531.2 524.3 496.7 487.8 467.3 452.9 438.1 426.7 408.7 403 404.7 406.8 403.5 410.3 409.5 407.5 411.8 407.8 406.3 411.2 414 410.3 404 406.5 400.6 396.9 393.5 385.4 381.4 382.3 382.6 382.3 386.1 386.5 383.4 379.8 373.2
107.6 116.8 117.1 125.1 122 124.2 133.6 142.1 132.8 126.3 120.8 113.1 106.4 100.2 92.5 86 84.2 82.5 81 83.8 89.8 97.1 104.6 109.8 112.6 119.2 121.6 118.1 118.1 119 122.7 123.8 116.1 110.3 109.7 113.4 115.2 119.7 124.6 127.9 130.7 126.8 122.3 116.1 110 101.7 105.5 102.9 106.4 109 117.3 134.9 138.5 142.3 141.4 131.8 127.4 121.8 113.1 101.4 92.8 93.2 95.5 109.8 123.6 133.1 132.1 137.4 140.3 130.7 128.2 127.6 135.8 146.8 160.6 162.1 171.6 171.8 172.9 169.3 174.5 178.2 185.9 192.3 204.3 214.2 222.7 229.8 237.2 241.7 245.9 260.3 268.4 286.4 298.3 321.7 325 339.4 354.7 368.4 389.2 401.6 415 417.3 417.8 426.3 429.9 433.4 433 437.2 441 446.1 449.2 460.9 468.7 476 481.9 497.1 520.1 527.9 557.1 584.3 606.2 618.5 635 649.9 668.9 691.9 711.8 731.9 742 733 742.6 728.8 721.7 723.8 722.4 726.8 723.5 716.1 715.3 719.9 718.7 721.7 719.4 716.1 703.7 692 675.7 667.5 654.3 644.9 640 640.2 630.4 614.3 599.6 583.8 574.3 561.1 545 528.7 513.3 503.2 494.7 471.5 463.5 448.3 434.1 419.1 405.7 391.6 386.9 388.6 390.5 396.8 401.4 401.1 406.4 412.6 409.4 415.9 415.6 416.1 414.1 408.7 411.8 401.7 398.5 398.1 394.4 386.9 391.2 395.4 390.3 388.8 392.3 388.2 381 366
102.7 109.2 114.8 122.5 122 120.2 128.1 133.1 126 126.5 122.5 114.7 106 98.7 91.5 86.7 81.6 80.3 79 84.3 90.3 93.8 100 105.5 114.3 126.9 127.1 125.7 122.5 123.7 125.7 126.8 122.9 114.3 113.3 114.8 116 118.5 122 126.4 128.5 126.1 121.3 116.7 110.2 98.5 104.5 102.6 105.3 102.1 111.2 123.1 127.6 134 127.8 136.6 133.1 120.6 111.2 103.6 91.3 90.9 93.5 107 120.1 125.2 126.1 130.7 135.2 127.9 141 144.7 144.3 150.2 167.6 175.6 181.5 185.4 187.1 184.7 182.5 183.6 194 202.9 213.3 222.1 225.4 225.1 229.5 242 257.4 268 285.9 296.3 305.7 318.8 330.6 339.9 360.1 368.1 389 398.6 410.3 421.3 426.6 430.6 431.6 429.5 431.2 435.6 441.6 444.4 453.3 459.6 470.5 485.6 494.7 503.8 525.2 540.5 553 574.5 587.7 606.4 627.1 648.3 663.8 678.4 687.4 701.9 706.5 700.2 693.5 693.3 695.6 695.1 701.7 714.1 712.5 708.7 703.6 697.8 696.1 696.2 693.1 688 685.4 669.8 649.1 640.9 628.9 626.3 619.8 618.9 614.2 600.3 584.9 568.6 567.7 548.5 522.7 509 490 475.4 466.1 449.9 438.4 430.1 414.7 399.7 386.7 377.1 368.6 371.6 381.2 387.8 391.4 395.6 404.5 405.7 405.6 412 417.8 418.9 413.2 413.1 409.8 405.8 405.2 402.1 396.4 398.5 402.8 403.3 397 393.9 390.7 384.3 373.6 362.2
100.8 113.5 111.4 122.5 125.3 121.6 120.8 127.4 122.4 127.1 126.4 120.1 107.9 96.9 89.8 83.5 77.1 78.1 81.9 87.2 92.8 96.5 98.6 102.5 114.5 124.6 132.2 127.2 126.2 126.2 127.1 126.9 125.1 119.2 119.7 115.9 116.5 118 119.4 124.5 126.1 125.7 122.1 117.3 108.8 97.3 98.9 100.4 105.1 98.9 104.2 118.9 115.8 116.3 116.1 123.5 125.2 115 110.1 100.9 89.3 89.7 89.5 96.3 109.8 118.7 119.5 125.2 121 129.9 138.1 142.2 148.7 157.1 166.9 173.9 181.3 186.9 192 193.2 188.5 186.2 197 203.1 212.7 225.2 233.4 242.7 247.6 254.7 268.1 277.3 284.3 292.1 305.9 315.7 325.3 340.9 350.9 362.5 376.8 388.3 403 412.7 421.6 422.3 426.4 431.1 436.2 446.6 448.4 450.4 454.1 462.2 471.2 487 497.8 512.8 527.1 538.5 557.7 572.4 586.4 593.4 607.6 618.7 638.2 660.6 669.2 671 674.1 675.6 665 662.4 674.3 670.9 668.2 694.2 684.6 696.2 694.9 680.8 673.2 666.4 670.4 671.4 660.7 647.7 623.8 612.5 600 600 605.2 602.6 595 585.5 568.5 555.3 543.3 525.6 495.6 485.6 468.9 452.6 441.1 427.6 417.7 406.9 395.1 385.1 369.1 360.1 352.7 361.5 369.8 374.8 384.3 391.4 398.5 402.7 403.4 406.3 414.5 416.1 416.6 416.6 414.8 411.6 407 400.5 406.9 415.8 413.5 409.5 401.3 396.3 389.6 377.9 364 360.9
101.6 111.6 119.8 120.6 127 122.9 117.7 119.7 117.3 125.1 127.4 118.3 104.1 92.6 85.5 79 79.1 82.7 86.2 88.9 93.3 96.4 100.1 102.2 105.8 113.9 120.4 123.9 128.9 128 128 128 126.7 126 123.2 117.9 115.9 117 118.4 119.5 124.2 125 124.4 118.2 108.4 98 94.5 99.7 104.9 98.4 100 111.7 111.9 111.8 107.1 115.1 118.7 111.4 107.3 98.8 89.1 90.1 90.2 85.2 100.5 109.1 110.5 107.3 118.8 129.3 140.7 149 163.8 166.4 167.6 173.7 181.2 187.8 193.9 201 201.8 191.7 193 201.4 209.3 219.8 227.5 238.1 244.9 254.7 262 271.2 280.3 294 300.4 312.9 327.1 340.9 348.1 359.6 376.8 390.8 400.7 408.1 412.2 418.9 427.2 438 437.5 446.3 464.4 478.4 485.2 476.6 473.7 481.4 494.5 509.6 542 559.7 565.9 567.1 571.8 584.5 588.9 594.6 598.9 615.2 615.1 618.2 632.3 637.2 641.3 636.2 637.2 642.5 640.4 645.2 661.3 672.5 675.7 661.9 657.9 646.5 633.8 627.4 626.1 615.3 596.8 586.6 576 577.4 579.8 585 583.3 575.9 556.6 541.1 521.6 501.1 477.8 464.6 447.2 432.6 420.9 407.3 396.6 386.9 379.9 365.4 352.2 345.1 345.1 353.1 358.8 370.8 378.1 389.8 401.5 403.4 405.3 406.4 409.8 420.8 421.6 425.2 421.7 414.9 408.5 416.7 422.5 426.3 419.8 408.8 401.7 394 384.1 370.3 360.9 358.5
109.8 113.6 121.8 124.1 126.4 125.9 116.7 114.2 105.5 113.8 114.8 107.3 96.6 86.8 79.2 73.6 81.8 87.3 90.8 92.5 95.1 94.5 98.2 99.3 103.5 110.5 117.8 121.1 126 126.4 126.9 128 128.3 130.2 128.1 122.9 115.5 114.3 115 117.1 120.5 122.8 122.4 117.8 110.6 98.2 94.4 96 99.2 95.1 97.4 104.2 113 107.6 97.9 101.8 102.7 96.3 92.7 90.8 86.6 86.2 88.6 83.3 80.3 83.1 95.4 117.9 147.4 156.2 163.7 166.2 170.3 173.5 173 174.7 180 186.5 196 202.4 207.2 203.3 199.9 202.2 208.7 214.8 218.8 227 233.8 240.6 252.5 263.6 276.2 287.1 302.5 311.3 326 335.6 355.5 358.6 375 391.7 402.9 408.5 410.3 417.1 426.7 439.2 447.6 452.7 461.3 477.5 497.4 496.7 486.5 482.1 501.2 520.2 547.9 578.2 585.2 584.7 574.2 570.9 571.8 574.2 574.5 577.4 582.2 585.5 595.8 600.6 610.7 604.8 610.5 613 612.1 620.4 635.7 655.8 646.9 643 636.1 621.4 606.3 597.5 589 576.6 567.6 561 555.1 560.6 567.4 570 564.8 552.6 537.3 517.1 499.3 476.7 456.9 441.4 428.8 414.7 402.3 389.7 378.6 368 360.2 349.5 336.3 327.6 334.9 343.9 355 365.3 380.4 396.4 402 401.2 407.3 408.1 411.4 413.4 421.3 420.2 420.4 420.2 421.7 434.3 433 430.2 420.5 406.9 393.8 385.2 374.5 360.1 358.4 355.8
117.4 116 124.3 126.3 125.2 121.2 117.9 108 99.3 102.2 100.9 95.6 87.6 81.1 73.5 72.1 84.4 94 94.7 95.8 97.9 100.9 102.3 102.9 105.4 109.8 115.1 118.9 123.4 125.2 125.3 126.2 128.3 132.3 133.3 127.4 112.2 109 110.8 116.5 121.2 122.3 120.7 117 113.9 98.8 95 94.8 95.2 92.6 91 103 108.9 102.1 91.1 90.1 85.6 79.5 76.5 76.4 73.7 66.9 70.5 93.2 96.7 109.2 118.1 135 154.3 166.2 168.2 172.9 176.9 180.1 179.4 179.8 181.6 187.1 195.2 201 208.2 208.1 203.2 202.4 207.2 210.4 215.1 215.7 222.7 230.2 245.5 255.7 268.3 281.4 297.5 311.2 319.3 335.4 350.1 356.7 366.9 384.8 398.5 406.7 415.1 425.5 441.7 443.3 448.1 453.7 466.5 483.7 501.7 521.1 521.2 524.4 521.6 547.4 560.7 588.4 600.8 600.7 591.8 583.5 577 570.9 570.9 570.9 570.9 570.9 576.7 580.9 585.1 588.3 589.3 589.9 592.6 597.4 604.6 611.8 615.8 611.1 602.5 594.9 582.8 570.5 559 547.6 538.7 534.8 530.7 536.5 544.3 545.2 537.4 522 511.2 492.4 475.4 458.3 437.5 425.9 411.4 397.1 385.5 374.1 361.2 352 343 331.4 321.2 323.8 328.4 340.6 354.6 367 385.4 398.8 401.3 402.4 412.3 410.1 408.9 410.1 413.9 421.3 425.8 430.7 432.9 442.3 437.5 432.2 415.1 402.6 389.9 379.5 367.3 361.4 357.4 351
121.6 120.8 118.6 128.2 122.3 120.3 119.9 100.8 94.4 90.4 89.7 87.2 85 77.2 72 72 81 94.9 96.4 101.8 101.6 105.1 107.5 108.5 110.7 113.3 117.6 125.2 124.1 125.6 125 123.9 123 132.4 136 131.7 119.9 106.9 108.7 117.2 119.8 123.6 119.7 117.4 116.7 113.1 98 93.9 95.4 92.3 86.5 92.2 93.9 88.7 83.6 81.2 65.3 57.7 81.9 89.1 88.7 92.8 101.9 105.8 108.3 107.6 118.2 131.5 148.3 164.1 166.8 175.4 180.8 184 184.9 187.1 186.1 189.5 194 201.9 209.8 208.4 204.3 204.3 205.2 210.5 209.9 212 217.2 221.4 235.2 249.9 260.8 278 290.9 304.5 315.7 329.8 342.3 352 358.6 375.4 388.1 393.6 409 425.8 440 440.7 446.9 457 461 481.7 501.3 512.1 527.6 548.6 556.2 561.7 570.3 579.5 576.7 575.8 582.8 592.9 587.8 584.2 571 570.9 574.6 588.4 580 581.3 574.9 571.2 572.9 570.7 568.5 568.9 571.5 578.2 584.6 586.9 578.5 569.2 558 546.6 532.5 518 512.5 514.2 506 502.4 512 511.1 506.3 496.8 487.4 468.2 455.8 432.3 423.1 410.1 394.2 380.9 369.8 357 345.1 334.2 323.3 316 314.1 323.1 337.1 349.1 359.3 370.1 384.1 400.4 401 404.1 410.4 408.5 408.6 415.3 427.4 429.2 435 436.5 442.1 440.1 435.4 430.2 413.9 397.2 387.3 376.6 366.9 357.8 351.5 347.3
121.3 127.2 124.9 115.3 114.3 118.6 122.2 99.4 89.1 83.5 77 75.3 75.1 67 62.5 70.6 81.8 92 93.6 94.9 104 109.4 110.6 112.1 113.9 117.6 115.2 124.9 124.3 129.3 126.4 121.8 119.5 122.9 128.4 124.3 118.6 107.5 105.1 108.7 114.1 120.4 120.1 115.7 115.7 118.2 101 92.4 91.6 92.5 88.5 78.8 78.8 76.1 80.7 69.3 57.3 78.7 87.2 90.3 97.2 105.9 116.3 124.2 121.1 120.4 112.6 127.7 141.9 155.8 164.6 172.4 180.5 185.9 189.2 190.1 190.6 191.5 193.6 201.7 209.2 214.1 213 206.2 206.5 210.4 210.3 208.7 210.3 216.9 232.4 245.3 257.9 272.2 277.4 300.4 313.1 323.9 331.5 347.9 349.1 363.1 371.5 385.3 399.8 413.5 427.4 435 443.1 459.2 471.2 479.4 486.8 500.1 522.4 545.9 548 550.5 554.8 567.7 579 585.2 593.5 593.7 608.1 599.6 587 575.5 578.2 578.7 577.8 571.2 564.6 560.2 554.6 551.9 543.9 540.4 551.4 562.2 564.7 570.3 554.8 543 528 517.3 506.1 494.9 495 480.5 477.4 476.7 486.6 482.7 476.9 469.6 460 444.5 426.2 418.3 405.5 391.3 379.4 363 352.8 340.7 328.6 317.8 308.5 308 317.8 331.4 343.3 350.6 364.3 381.1 389.7 402.6 404.7 408.2 410.8 409.1 412.2 422.2 427 436 447.1 458.7 446.6 439 437.4 429.2 412.2 401.1 383 374.4 363.2 358.1 351.2 343
123 123.1 131.6 124.9 110.8 110.3 114 95.8 83 81.2 69.5 64.5 62.7 59.5 60.6 72.1 82.6 91.5 92 93.8 98.2 107.8 110.2 109.3 110.1 115.5 108 114.8 118.4 123 125.6 125.1 119.2 114.9 117 117.7 110.3 110 103.7 103.6 109 115 119.4 112.5 112.5 113.5 98.3 93.7 84.8 87 87.1 78 71.4 66.3 66.8 50.2 70.8 83 92 98.2 108.3 116.9 125.5 131.8 133.8 131.3 124.2 122.6 134.7 150 162.8 170.6 179.3 188.3 193.2 194.1 194.7 195.2 193.8 200.6 209 210.1 212.4 207.1 206.7 207 208.3 210.1 209.6 211.6 223.1 238.4 247.6 260.3 271.9 282.3 288.1 302.8 319.4 339 340.8 346.9 361.5 370.4 390.8 405.2 422 430.9 439.4 448.6 456 463.3 469.2 485.9 495.7 510.6 534.5 540.7 555.9 567.2 589.3 603.1 595 593.2 611.6 610.8 600.7 582 575.1 569 559.5 550.5 545.3 540.5 531.2 534.8 526.6 514 521.5 525.4 522 533.6 523.2 506.9 497 487.4 474 473.5 463.9 453.8 449.2 451.9 454.1 458.9 458.5 443 434.7 420.4 404.8 396.2 387.2 371.4 362.8 348.9 342.8 325.6 313 305.1 302.7 310.8 320.7 335.2 346.9 351.8 368.1 383.4 396.3 396.4 402.8 406.1 402 405.7 416.4 422.7 437.9 452.6 458.5 455.2 455.3 442.2 435.2 423.4 413.2 396.6 383 371 362.6 354 346.8 342.2
115.9 114.4 127.8 125.9 107.3 99.7 97.7 89.6 77.1 73.6 64.3 60.1 56.8 54.8 62.4 72.2 86.1 93.5 94.9 93.7 91.6 102.9 108.6 108.5 105.4 107.5 105.6 108 116.3 119.5 125.2 121.1 125.1 115.7 113 113.7 108 105.7 103.3 103.1 103.3 104.6 104.9 107.5 106.2 99.6 92.3 87.3 74.2 80.4 72.4 64.3 58.6 52 41.2 61.6 78.1 90.2 96.8 98.8 114.1 125.2 139.5 141.3 140.2 137.3 136.8 128.8 132.2 141.3 158.2 165.3 176.4 185.6 193.7 195.6 199.4 198 195.1 198.3 202.3 207.7 212.1 210.3 207 206.8 206.9 209.8 215.3 212.7 217.8 227 243.8 252 260 268.1 277.8 287.1 302.4 317.3 329.8 338.3 354.2 370.3 391.9 401.3 419.7 427.8 435.6 447.8 454.9 466.9 472.1 494.7 518 525.8 548.1 558.9 564.1 581.1 593.1 600.9 605.4 599.7 598.8 616 608.7 589.8 567.9 559.2 546.1 529.5 517.7 517.1 512.2 507.1 496.7 489.5 482.6 483.3 482.1 488.4 482.4 473.3 460.2 447.8 442.3 442.9 437.7 421.8 426 433.4 426.1 432.4 435.3 418 411.4 401.5 388.1 375.8 370.9 356.7 348.3 334.2 323.9 313.1 301.8 295.8 302.4 308.8 319.8 336.4 346.9 357 368.5 381.9 389.5 393.6 398.2 397.6 403.5 409.7 421.9 437.4 456.2 468.5 464.7 463.5 456.1 448.2 434.4 425.5 412.7 396.8 385.6 371 360.6 351.4 347.3 342.8
101.3 107.5 127.3 122.7 105.2 96.4 88.6 82.9 75.7 62.9 54.9 51.3 48.5 55.5 60.7 70.3 83.7 97.1 93.6 88.8 87.2 92.1 100.3 101.5 104.6 106.6 105.2 106.3 118.5 118.2 118 119.9 125.5 118.9 115.8 112.1 108 107 104 102.6 99.9 93.5 95.4 96.2 97 77.2 80.1 75.7 64.6 68.5 58.3 45.2 41.5 40.1 41.6 57.2 78.8 94.9 106.1 122.8 125.6 127.8 137.1 141.9 142.9 141.8 138.9 136.2 141.4 142.4 155.2 164.2 176.8 183.5 191 195.6 199.6 199.4 197.2 197 201.9 205 207.4 207.6 205.4 205.4 205.9 206.6 207 215.8 213.4 217.9 228.8 237.4 250.4 257.5 264.4 276.5 286.7 299.8 308.9 321 333.8 350.6 369.9 388.4 405.3 417.7 437 449.6 458.5 479.4 486.6 506.5 522 534.5 545.9 559.7 563.9 577.6 590.5 600.7 603.7 603.4 601.3 596.4 591.1 581.4 562.5 541.7 525.8 514 503 495.5 488.2 484.3 476.7 461.2 458.5 450.7 443.3 449.6 444.1 438.7 425.5 414.9 409 409.5 408.6 393.6 402.1 408.5 400.5 406.1 406.4 395 391.5 383.4 374.3 361.5 350.3 341.2 331.7 320.3 310.9 303.4 292.1 294.8 301.2 309.6 324.9 339.5 354.6 360.5 367.8 383.2 391.1 389.1 390.4 401.1 413.5 422.9 441.5 455.5 470 473.7 476.1 463.4 461.5 450.5 437.2 421.5 413.2 399.6 389.2 375.3 361.9 352.9 347.9 341.6
92.7 102.6 116.8 113.4 101 94.2 83 80.4 69.3 53.2 46.6 44.7 45.7 61.1 59.1 68.1 75.5 91.4 94.3 87.3 84.7 90.9 96.5 97.8 99.3 98.4 96.9 99.9 110.5 110.2 111.7 121.9 128.3 124.2 117.9 117.4 110.2 106.2 101.2 98.5 93.5 84.4 82.8 81.2 70.8 64.9 57.8 61.4 47.7 46 40 35.8 33.4 37.9 46.7 57.2 76.8 99.5 113.4 126.1 136 145.4 144.7 146.9 148.2 147.7 140.7 141 149.3 153.8 160 165.8 176.5 182.3 188.2 192.1 199.9 201.4 202.6 200.7 200.3 202.2 202.9 203.3 203.7 203.8 204.2 205.3 206.1 207.6 210.7 215.4 224.9 235.3 247.2 254.9 260.7 270.1 277.5 285.6 299.8 315.6 330.9 343.8 368.5 387.5 400.1 413.3 426.3 434.5 453.1 475 492.9 502.5 510.2 529.9 538.8 553.9 562.8 567.8 575.8 583.1 588.7 587.8 590 584.5 566.7 556 550.4 538.9 517.6 502.6 489.4 477 470.5 463 453.9 437.2 431.4 426.6 418.9 411.6 408.4 403.9 399.7 390.9 382.3 381.3 377.1 369.5 377 381.1 381.6 384.4 384.1 379.3 375 367.5 357.8 348.1 337.7 327.4 318.8 310 303.1 292.2 293 294.2 303.5 314.9 330.7 346.9 351.8 355.9 366.5 377.5 386.8 390.6 406.6 418.4 424 433.9 453.4 470.1 475.8 477.9 477 473.8 463.2 451.2 436.9 428.9 417.2 402.6 392.9 381.5 363.2 353.3 347.2 340.7
85 94.1 105.8 101.3 95.3 86.8 70 66.2 54.4 43.6 38.8 42.4 46.4 55.5 58.2 64.7 69.3 87.6 90.8 82.4 83.5 89.2 91.8 93.8 94.2 92.4 90.3 92.7 94.7 97.1 102.4 113.1 123.4 120.3 115.9 115.9 116.7 110.6 103.4 97.8 95.7 82.5 79.4 62.1 49.3 47.9 39.7 39.5 32 34.1 32.6 31.5 29.5 39.6 49.9 57.5 70.7 89.5 111.7 126.7 137.7 150 151.2 157.6 157.9 158.2 150 146.2 155.9 163.8 168.1 176.3 183.9 188.6 189.5 191.3 194.6 200.3 202.6 206.9 202.2 202.1 202.1 202.5 202.6 202.3 203 206.2 208.1 208.8 209.2 211.9 223.5 227.2 237.2 245.6 254.7 261.7 268.8 276.4 289.5 299.4 317 336.9 353.9 375 387 400.3 413.6 430.4 449.9 467.9 488.6 504.5 510.8 520.2 532.8 544.4 565.4 569.7 580.6 585.6 578 577.1 574.6 567.6 567.3 548.7 548.5 533.3 516.3 488.7 469.8 455.9 445 437.3 426 414.1 408 402.9 396 389.3 383.7 378.7 374.4 366.8 358.9 356.5 355.2 351.6 353.3 363.6 366 366.8 367.3 365.1 360.6 353.9 343.4 335.4 327.1 314.9 307.7 300.9 294 287.8 293.4 294.1 300.2 315.8 328.6 336.9 348.7 356.7 364.7 377.1 391.7 405.1 418.8 434.5 444.3 459 474.9 492.2 501.2 502.3 490.5 476.2 463.4 449.5 443.9 431.5 417 405.1 395.5 380.3 363.8 353.8 344.6 338.3
79.7 87.3 95.7 87.7 85.8 71.4 65.6 49 41.2 35.6 37.9 41.7 54.6 59.3 57 57.8 58.8 71.5 75.7 74 80.6 81.5 89.2 86.3 86.5 88 84.8 86.8 84.6 88.3 92.6 99.8 111.1 110.4 107.1 108.4 106.9 101.5 98.7 94.3 88.5 74.2 65.1 60 36.2 32.4 29.2 27.8 26.7 28.7 29.2 28 32.5 39.5 47.9 54.9 67.6 84.7 111.8 124.5 143.8 152.2 156.7 164.3 165.2 164.5 162.7 156.5 163.7 174.2 171.8 180.6 188.6 192.9 199.3 191.9 193.2 199.2 201.2 202.8 201.1 200.6 201.6 201.4 201.2 201.7 204.6 210.5 210.5 210.8 211.3 212.9 216.5 224.1 225.3 237.4 244.2 254.2 257.3 264.9 273.8 283.2 297.8 319.7 352.4 368.8 380.4 405.4 432.9 449.7 462.4 477.5 495.3 508.6 520.6 526.2 529 539.2 554.3 561.2 564.3 571.2 571.1 558.8 563.6 558.9 566.7 557 540.2 529.6 511.2 481.2 459.4 441 426.1 414.8 404.6 394.8 385.4 382.1 377.4 367.6 364.7 356.6 348.5 343.8 339.8 334.3 332.8 337.2 337.3 346.2 348.8 351.1 354.8 349.7 348.5 339.3 328.4 319.9 313.2 303.5 297 290.2 284.6 294.2 294.1 293 302.3 314.6 325.2 340 351.7 362.6 370.8 391.1 412.9 417.4 425.3 442.9 463.5 491.5 501.9 507.7 508.6 497.7 484 474.6 467.8 455 443.8 435 418.2 405.3 390.6 372.9 359.6 350 342.6 335.1
73.5 77.5 76.7 72.4 70.1 61.2 56.5 56.7 45 36.8 37.9 43.6 55.7 58.8 54.7 53.1 49.8 61.6 64.9 67.6 76.4 72.3 73.6 74.4 76.5 74.7 75.2 81.7 79.9 81.4 84.7 91.7 101.9 106.3 105.8 103.8 100.3 95.9 88.8 79.1 69.2 61.1 48.9 40.8 28.8 25.4 25.8 20.1 31.3 28.4 33.7 35.8 36.4 44.1 55.1 63.7 75.1 90.5 110.3 131.1 146.2 156.5 163.8 168.4 171.3 169.6 165.6 165.6 170.6 178.3 178.1 180.5 190.2 192.9 196.8 198.3 192.9 193.6 198.1 199.4 200.4 199.3 199.6 198.4 198 203.3 206.6 214.7 217.8 216.2 218.1 214.3 222 218.8 219.3 225.6 234.4 246.9 255.6 260.7 268.5 280.5 294.5 315.9 344.2 364.8 384.3 397.2 426.2 441.3 462 480.4 497.2 515.8 524.9 532 538 546.9 555 561.4 566.1 570.8 568.5 560.3 553.1 551.2 564.2 551.7 540.1 520.7 500.3 473.3 448.8 430.9 417.5 402.2 389.7 378.9 368.4 358.6 352 345.4 342.3 338.8 331 327 319.7 318.6 321 322.5 323.2 328.4 331.7 336.9 338.5 337.4 333.1 324.3 314.3 305.7 300 292.7 286.4 282.7 281 287.7 285.8 294.4 306.9 317.4 334.6 346.4 357.7 369.3 392.3 410.8 420.2 420.2 442.6 478.6 493.6 502.5 505.3 505.2 501.6 492.3 487.2 476.4 464.3 450.9 440.4 433.6 416.1 399.4 386.8 372.4 361.8 350.2 340.6 332
73.3 64.7 60.2 58 59.7 61.2 53.1 50.6 45.1 39.9 31.1 41.2 50.8 55.6 52.6 48.2 42 52.4 61.3 62.5 69.1 68.8 70.5 68.1 69.9 64.5 66.9 76.3 75.4 78.6 85 86.2 90.2 100.2 105.2 102.6 104.5 97.1 86.2 72.2 61 46.8 37.8 28.4 22.1 17.5 15.9 21.1 34.4 32.5 35.8 39.1 41.7 48.8 61.8 72.4 82.9 100.5 122.4 135.6 158.2 170 174.1 179 173.9 172 169.2 170.1 179 189.4 189.1 179 185.6 189.7 192.8 196.5 194.9 191.8 193.9 193.3 195.3 196.6 196.1 195.6 196.2 201.8 206.4 212.4 217 225.6 219.4 220.5 220.3 226.6 223.2 229.2 235.3 241.5 246.9 251.6 258.8 278.9 292.6 311.1 338.1 357.4 373.7 387.5 414.6 439.1 459.1 479.6 497.5 512.6 522.8 529.4 538.5 551.2 559.8 564.2 558.8 558.8 561.3 559.3 551.9 550.2 551.7 537.3 526.7 509 478.2 458.4 440 420.4 409.1 396 382.9 373 355.3 342.3 332.3 329.2 323.4 321 317.4 312.1 309.4 302 301.8 302.2 303.8 307.8 319.1 323.8 324.7 322 316.4 310.4 300.2 297.7 290.1 286.4 279.9 275.8 278 277.5 285.7 297.9 311.9 327.4 338.3 350.7 366.7 386.8 409.3 420 421 441.4 466.6 503 509.7 512.7 506.3 499.2 495.9 490.7 480.7 467.8 456.8 451.2 435.7 420.7 406.9 393.4 381.1 371.8 362.1 348.1 337.4 327.2
61.9 50.7 41.1 42.5 58 63.2 59.4 40.5 37.8 42.5 31 34.5 44.7 51.1 48.7 41 38 46.5 56.3 60.1 62 63.8 66.8 65.5 63.6 61.7 64.3 67.9 72.2 72.9 71.7 75.1 84.5 94.3 103.4 103 97.8 95.9 92.3 71.1 55.9 35.4 22.5 16.3 15.2 16.2 17.5 20 34 36.9 35.4 40.7 49.5 57.5 63.2 70.9 84.4 107.1 134.3 144.7 153.1 164.8 173.2 179.6 186.1 175.3 174.2 177.5 187.7 202.2 199.2 194.8 185.9 188.6 189.3 189.9 193 190 189.2 187 187.2 189.8 189 190.7 193.1 197.9 204.5 207.8 214.2 218.7 218.6 223.4 224.6 224.4 224.9 225.3 237.4 239.3 243.7 248.6 253.5 277.1 291.7 306.3 322 340.4 367.3 392 415.5 438.2 462.9 487.9 502.7 513.3 522.6 528.5 538.2 552.3 557.2 559.2 562.2 558.6 556.4 552.2 548.1 544.1 547.4 532.7 517.3 494.9 464.9 442.1 430.1 415 411.1 388.1 380.1 366.3 349.5 334.9 318.1 317.2 314.6 306.1 305.3 301.1 292.4 286.1 287.9 291.2 296.4 290.7 305.3 308.6 307.3 305.3 300.8 296 291.3 287 283.1 279 273 265.9 272.9 283.4 293 305.1 318.2 331.8 355.1 371.8 389.8 406.6 420.9 426.5 439.5 460.7 488.8 510 515.4 510.3 508.6 506.2 503.2 493 479.9 464.9 453.3 439.9 428.7 416.5 405.1 393.3 381.2 368.9 356.6 345.9 333.6 326.9
52.4 37.1 32.2 30.8 37.8 43.8 33.2 33.5 35.5 38.1 34.5 29.4 37.4 40 38.4 35.4 36.4 42.2 54 60.2 60.7 62.4 64.5 64.1 62.2 61 61.1 66 66 68 62.1 64.5 73.8 91.9 100.8 105.5 92.8 89.6 86.8 61.4 36.7 24.2 14.5 13.7 13 15.4 17.3 23.5 37.3 38.5 36.1 41.6 51.3 59.7 62 67.5 84.3 106.2 131.8 153.3 157.4 165 179.5 184.2 191.8 186.4 178.7 184 193.6 206.4 205.7 200.5 196.8 188.9 189.9 185.5 185.3 185.4 182.3 188.3 189 190 190 187.6 188.6 197.1 202.6 204.5 212 217.1 221.8 219 223.1 230.7 229.7 229.4 237 239.6 242.1 248.6 252.7 273.2 288.6 306.5 330.2 349.9 373.4 394.7 415.6 434.9 459.5 485.7 503.9 521.5 527.8 530.7 538.4 548 549.5 553.8 552 548.9 549.6 560.6 557.7 557.5 549.1 531.8 519.5 498.4 464.3 441.9 421 406.7 391.4 380.5 366.8 355.7 339.2 324.9 314.3 305.6 305.1 301 300.4 291.4 285.9 278.2 278.9 281.3 281.4 282.7 292 293.5 293 292.5 288 285.8 283.5 280.3 275.9 271.9 262.5 269.1 276.5 286.4 295.7 310.5 325.9 341.9 361.6 384.7 413.9 426.8 431.2 448.3 462.3 485.2 506.1 517.5 522.1 514.3 512.5 507.1 500.7 492.4 475.2 462.6 444.7 435.2 425.4 413.3 399.7 389.4 378.2 366.8 356.8 341.7 334.8 325.1
43.7 31.5 28.1 28 21.9 25.3 27.2 31.4 36.4 36.4 35.6 30 26.2 30.6 30.5 31 34.4 40.5 55.2 64 60 61.8 64 64.3 61.8 60.4 56.5 58.5 61.9 56.1 56 57.4 67.5 85.2 92 97.4 88.1 81.8 69.2 47.2 24.2 17.9 12.7 12.5 13.2 16.7 23 27.8 38.2 39.5 38 42.1 59.5 64.9 69.4 73.7 84.5 107.3 132.2 156.4 165.9 167.6 175.6 186.3 190.8 190.2 182.4 184.1 187 194.2 204.1 209.8 203.8 201.4 186.8 181.7 179 178.4 181.6 180.2 194.1 188.4 188.5 184.9 185.4 189.7 197.7 206.5 211.9 219.8 221.2 218 220.1 231.6 236 234.4 236.8 238.4 240.8 252.4 259.3 268.8 284.6 309.6 333.6 354.4 373 394.4 414.3 436.6 453.4 473.1 498.1 516.3 518.5 529.4 537.7 548.8 551.1 554.5 555.3 560.3 566.2 566.5 568.6 560.5 556.1 541.9 528.5 511.9 471.5 441.4 421.6 398.7 383.4 374.3 356.8 344.6 333.2 317.8 309.8 301 293.8 290.6 289.3 282.5 277.1 273.9 270.8 270.5 272.2 273.7 277 278.7 279.1 279.7 278.8 274.1 273.7 269.7 268.4 264.5 261.4 266.3 274.4 283.5 301.4 320.4 340.8 362.7 380 410.5 424.5 437 450.5 474.2 491.1 508.2 513.9 523.5 522.5 512.5 505.9 503.1 497.1 485 470.8 459.3 448.7 432.6 424.4 410.1 397.3 381.6 370.6 362.2 349.6 343.5 333.6 323.8
32.4 19.4 17.4 18.3 17.7 22.1 24.4 33.5 35.9 34.9 33.7 32.2 31.2 27.8 23.2 27 28.3 37.7 50.9 54.8 53.2 59.8 64.5 65.4 62.2 59 52.2 58.9 58 52.3 54.4 58.3 66.9 76.6 83.7 84.8 71.2 61.5 48.9 29.6 19.6 19.3 13.1 9.2 16.5 29.1 36.2 38 36.3 41.2 36.2 43.3 61.6 68 72.6 78.5 81.5 111.2 137.6 160.6 174.7 182 179.7 186.6 191.3 193.9 191.3 188 186.9 193.2 199.7 204.9 205.1 202.5 191.6 176.9 170.5 171.8 173.9 176.9 182.4 182.8 182.8 181.7 179.1 189 191.3 202.7 209.5 213.7 219.8 217.6 216.3 226.1 234.6 235.1 237.6 234.6 236 252.8 263.2 266.5 280.8 306.4 328.6 354.2 370.2 387.4 405.8 427.6 451.7 464.4 486.6 500.2 509.7 516.1 523.9 538.1 552.3 563.4 569.4 566.2 567.6 561.6 556.9 553.8 547.5 537.1 524 518.4 479.6 447.8 425.6 405.7 387.4 370.4 354.7 340.5 328.9 317.6 309.2 301.3 292.6 281.6 277 275 274.6 272.3 265.5 263.7 266.6 268 266.6 266.5 267 266.6 267.3 267.4 266.3 264.3 262.7 258.3 259.5 265.1 275.6 295 314.8 332.8 353.2 376 396.9 415.2 434.2 439.1 458.7 492.7 505.5 511.1 513.9 516.7 513.7 507.4 509 499.6 489.5 477 464.7 454.6 443.4 432.9 423.4 407.4 390.3 375.9 364.3 357.1 352.7 344 332.7 324.7
16.8 10.6 12.4 14.6 14.4 19.6 22.4 32.2 38.2 33.8 32.7 34.5 35 30.5 24.4 25.2 26.2 33.2 42.4 48 47.2 53.8 63.8 69.2 60.6 53.7 48.5 52.9 52.8 50.9 54.1 56.8 66 73.5 75.4 68.2 51.6 40.4 23.7 16.2 18.4 20.2 14.5 10.9 17.3 32.8 36.9 45.6 38.9 38.4 32.1 40.7 64.4 66.3 68.3 72 78.6 106.4 142.9 154.4 177.9 187.4 192.3 191.6 191.9 195.5 197.5 192.6 189.7 196.1 199.2 203.8 207.5 205.1 190 179.2 168.2 164.8 168.6 170.5 172.8 180.5 176.4 173.8 176.9 185.1 191.1 193.5 200.2 207.2 207.8 212.3 218.2 228.1 235.8 234.2 229.3 230.4 237.8 253.9 263.7 268.1 280.1 296.7 316.3 341.8 363.3 379.5 396.8 412.8 429 447.8 470.1 474.6 488.7 493.9 510.9 531.9 551.2 567 568.1 561.8 555.3 550.9 549.7 540.6 530.6 517 517.4 512.1 481.9 455.2 435.2 413.2 389.7 374 355.8 343.1 329.6 318.9 309.5 304.9 291.4 280.9 271.5 268.1 267.7 264.5 261.4 260 261.7 260.4 259.5 257.2 258.1 257.6 259.3 258.6 259.5 258 252 257.4 263.1 270.5 290.3 307.1 325.2 343.2 369.7 389.5 410.9 425.1 440.8 442.1 470.6 490.9 506.6 513.2 512.8 508.7 509.8 507.4 499.6 488.9 478.6 468.5 457.2 447.2 439.2 429.3 416.1 402.9 390.7 372 364 364.1 354.1 343.7 331.1 322.5
9.9 6.6 8.5 15.4 17.1 22.1 26.6 27.5 30.9 32.9 31.9 33.8 36.1 35 25.3 20.3 23.8 27.2 33.8 39.6 41.3 45.3 50.8 54.8 49.2 47.9 44.5 40.8 43.4 46.7 53.9 48.3 55.6 58.8 55.2 43.3 33.2 16.8 12.7 16.9 21.5 18.5 13.5 8.4 11 22.3 28.7 42.1 37.3 37.4 30.4 36.9 58.5 63.2 62.2 66.8 80.2 104.8 129.3 153.9 172.6 183.8 193.9 199.4 196.3 199.2 199.7 198.1 194.3 197.9 201.6 203 205 203.6 189.3 177.4 172.1 160.3 156.1 165.6 166.5 167.6 169.3 169 172.6 178.8 190 195.2 196.4 200.1 204.3 208.3 213.6 230.7 231.8 238.6 232.8 229.3 236.9 251.4 259.6 266.7 276.6 291.2 306.3 325.3 350 364 384.3 396.5 415.1 434.7 453 459.7 468.9 482.7 499.4 517.8 542 545.9 549.4 554.6 556.6 544.3 543.2 530.9 525.6 521.6 507.7 499.3 485.3 464.9 443.7 420.9 397.7 374 356.1 343.3 329.2 325.3 319.1 310.3 294 283.2 270.7 264.9 257.9 258.6 257.1 254.7 255 255.2 254.2 253.1 252.6 252.5 252.6 253.3 253.8 252.3 250.9 256.5 264.6 278.6 297.4 315.9 336.1 358.7 376.8 399.3 415 432.9 441.2 451 471.8 489 506.9 513.4 511.9 507.9 508.1 500.2 492.4 478 472 463.2 448 438.3 431.9 422.4 408.5 398.2 385.2 371.1 367.9 360.6 350.3 337.3 327.7 319.9
5.4 3.9 4.2 15.7 16.2 23 32.1 34 31.7 31.4 31.6 28.1 28.9 28.9 20.8 17.7 22.1 30.8 36.6 42.1 40.2 43.8 47.5 47.4 42 42.1 37.7 35.4 33.2 36.3 39 33.4 35.6 32.6 28.3 18.9 12.2 10.1 11.7 21.2 22 17.6 13 10.3 8.1 15.6 23.6 33.5 37 33.8 30.1 35.5 49.8 54.8 54.9 61 81.2 102.9 125.8 151.1 168.5 182 189.7 202.6 205.9 207.5 203.1 200.9 197.2 198.2 206.2 204 204.3 204.2 189.5 177.3 165.9 158.5 153.2 154 156 163.5 164.6 166.5 170.8 180.2 184 188.8 193.7 193.2 199.2 209.7 214.3 219.7 224.7 230.2 230.2 229.3 232.3 250.4 258.5 267.1 277.7 284.4 299.6 314.1 345.4 357.7 373.9 391.9 405.7 424 436.6 442.5 451.5 472.4 488.9 510.3 520.3 532.8 541.5 542.1 540.4 535.3 534.4 530.8 525.4 522.7 512.1 494 478.7 474.4 441.2 423 399.8 378.8 359.3 344.5 335 331.2 320.7 311.1 295.3 282.8 271.9 264.3 256.6 251.2 251 249.9 249.9 249.6 248.2 246.8 246.5 246.7 246.2 247.8 248.1 241.5 250.8 259 269.7 285.8 310.5 328.5 352.5 369.5 386.7 404.8 421.1 435.6 446.2 459.9 476.6 503.7 512 510.9 512.6 498.7 491.7 486.5 478.6 469.8 462.7 449.3 437.9 434.6 426.8 411.4 403.4 391 378.1 372.2 363.9 355 345.6 336.2 325.8 319.8
2.4 2.4 3 6.5 11.6 19.9 29.5 36.3 35.7 33.3 32 26.5 23.1 21.6 17.3 13.9 18.9 28.7 35.4 41.1 38.6 40.7 37.2 38.6 33.9 32.3 25.3 25.6 29.5 31.2 25.6 22.4 18.6 12.5 9.7 7.7 8.2 8.3 9.1 16.4 18.5 13.8 9.3 5.4 10.3 11.7 22.4 30.2 28.3 26.4 27 35.9 38.9 46.8 50.7 60.5 81.3 101.2 119.3 140.9 156.9 171.4 183.4 194.6 200.7 206.6 206.4 203.4 200.8 200.9 205.9 209.2 204.1 202.8 195.8 177.3 165 156.1 151.8 152 154.4 154.1 160.3 167.9 174.4 181.8 184.2 185.8 188.7 189.5 192.5 201.5 212 214.3 217.3 219.6 223.1 232.2 233.9 248.8 250.7 264.9 274.3 278.6 294.3 308.3 330.1 343.6 355.9 378.5 390.9 406.2 413.4 422.6 440 448.6 472.6 486.7 511.7 519 536.2 552.3 552.7 540 550.2 537.2 528.7 519.6 505.1 491.2 471 452.8 433.6 422.2 396.7 381.4 364.9 346.5 338.6 331.2 322.4 309.1 297.3 284.9 275 266.3 254.7 247 246.9 244.1 242.7 242.3 243.2 240.8 240.5 239.8 240.4 241.7 237.9 245.8 258.9 270 279.7 296.8 319.4 341.4 362.3 378.9 395.2 408.9 425.5 441.1 455.2 466.2 489.2 509 512.5 509 507.2 501.2 482.4 468.2 463.7 458.3 448.2 440.1 434 426 416.1 404.6 392.7 381.1 375.2 371 359.6 350.7 340 333.4 324.7 315.6
2.7 2.4 3.3 4.5 13.7 15.6 26.2 31.7 32.7 33.4 36 34.4 26.5 18.8 13.5 9.5 14.5 23.4 31.2 38.7 34.4 30.5 29.4 27.5 24 19.6 15.1 12.5 12.7 16.9 11.4 7.6 5.4 5.4 5.8 5.9 6.3 6.9 7.7 9.5 10.3 8.6 6.5 5.1 9.6 10.6 12 16.2 20.1 18.9 20.6 27.1 35.4 45 52 63 79.7 98.4 117.7 133.8 149 163.3 174 186.7 197.9 201.8 203.9 204.4 204.3 204.6 206.9 213.5 206.4 199.5 186.5 176.2 167.3 161.6 154 150.4 150.7 154.1 155.7 160.6 168.3 176.3 177.5 178.3 186 187.3 191.1 197.1 204.3 207.6 210 211 217.9 227.2 233.1 240.8 249.7 256.4 269.2 275 285.3 296.9 316.5 330.3 346.9 359.9 371.2 388.8 391.5 401.7 418.6 428 450.4 473.4 485.3 520.8 530.7 535.9 537.8 538.4 536.6 532.2 527.7 518.1 501.3 485.5 465.9 444.9 431.4 415.2 397.2 376.7 365.2 361.7 349 338.4 324.5 312.1 299.2 287.7 276.2 266.4 254.9 246.7 241.9 238.7 237.3 237.4 236.7 235.2 233.6 236 238 235.3 238.5 253.8 267.4 279.6 291.9 308.2 325.9 350.1 369 384.3 400.3 415 431 444.6 456.4 468.5 499.8 510.1 508.2 508 500.9 487 475.4 467.3 455.2 448.9 440 436.4 428 419.1 404.7 396.1 379.6 380 372.5 363.4 358.1 340.9 332.7 327.1 319.1 310.9
