ncols 200
nrows 82
xllcorner 320000
yllcorner 791900
cellsize 50
537.1 534.9 539.5 540.8 541.3 543.5 549.4 555.5 567.9 567.3 563.4 547.4 536.2 529 520.1 511.2 506.4 496.3 493.4 493 491.5 489.9 488.4 488.3 488.4 488 487.9 488.5 490.6 495.9 502.2 507.4 515 521.2 533.3 547.1 557.5 562.2 560.8 560 555.5 531.6 515.2 500.3 483.7 474.8 468.2 462 453.1 443.5 441.4 439.4 436.9 435.5 437 438.3 439.6 440.1 440.3 438.9 435.5 437.6 435.7 433.6 432.2 431 426.9 423.7 420.5 417.9 413.7 411.2 406.9 402.3 397.6 395 391.4 388.5 389.7 391.3 394.3 398.2 401.5 400 399.3 407.2 414.4 420.7 425.7 431 432.5 429.1 428.9 427.6 427.5 426.3 424.1 423.9 421.1 418.5 415 404.3 390.7 382.7 377.6 368.7 359.2 352.5 349.3 345.4 344.8 340.7 338 336.7 335.2 330.2 329 327.7 330.9 334 336.7 336.2 342 339.9 342 351.2 358.1 363.7 372.9 384.9 397.1 408.3 420.2 431.2 437.7 446.9 455.3 462.5 460.2 450.8 442.3 431.4 417.9 413 410.8 405 402.3 399.8 395.3 392.2 388.3 385.9 383.4 382.3 380.3 378.4 377 373.6 371.6 369.7 366.5 363.9 360.8 358.2 355.5 352.6 352.2 353.1 352.7 353.2 352.4 350.6 348 351.2 351.5 349.2 346.6 343.6 341 339.9 333.1 327 320.9 309.5 303.3 302.9 294.6 285.7 278.8 275.4 268.5 263.4 257.5 254.9 253.7 252.3 250.3 249.7 250.3 248.1
524.7 520.7 519.2 523.4 528.3 532 537.8 546.3 553.7 551.4 541.1 532.8 531.2 520.6 513.8 505.4 497.2 487.5 485.5 484.1 484.2 483.5 482.9 482.3 482.8 482.9 482.5 482.5 485.1 491.9 497.8 504.7 512.7 520.4 533.4 548.6 560.5 568.6 569.2 566.1 560 552.4 527.3 506.5 489 477.3 468.7 462.1 455.9 450.6 446.3 444.2 439.6 434.6 430.7 431.5 434.9 435.1 434.5 432.6 431.6 428.6 428.4 424.5 422.6 421.8 418.6 415.7 412.6 410.7 407.1 405.6 402.1 397 392 390.2 388.4 384.2 384.1 386.4 388.5 390.8 392.5 395.9 400.2 390.3 405.2 414 419.6 422.8 424.1 423.5 423.1 423.7 419.5 418 419.1 418.1 418.4 417.9 414.8 412 398.8 386.8 378.5 368.9 361.9 353.6 349.3 344.2 343.9 341.5 339.4 338.3 336.4 334.3 331.3 328.3 322.9 328.3 330.4 332.9 335.3 335.9 346.3 354.7 359.7 366 377.7 388.1 395.8 410 420 426.3 436.4 446.9 456.2 455 448.8 451.5 440.4 429.9 422.9 414.6 407.6 402.1 398.7 392.4 392.4 389.4 386.2 383.1 380.1 377.9 375.6 373 371.7 368.6 366.6 365.1 363.2 359.8 357.3 354.1 351.5 347.9 346 346 346.2 345.3 344.7 343.9 335.5 337.5 340.8 335.4 334.7 331.3 328.3 324.7 319.1 312.7 306 295.5 289.8 285.6 279.3 269.4 266.3 261.8 257.7 254.9 253.6 252.8 251.4 250.8 250.4 250.9 250.8 248.5
517.3 511.9 508.3 506.1 510.9 519.5 521.7 530.4 540.4 529.8 525.9 524.4 524 512.5 504.6 496.2 486.9 480.9 480.2 479.4 479.5 478.4 477.7 476.9 477 476.7 477 477.8 480.4 486 492.5 502.1 510 520.2 531.8 545.2 556.1 564.6 567.3 566.8 567.6 561.1 537.2 513.5 497.4 482.6 472.4 463.8 458 453.1 448.5 443.3 439.5 435.3 430.2 426 427.1 427.8 428.2 426.3 424.5 422.4 420.8 418.6 418 412.5 414 411.7 408.7 407.2 402.2 398.4 395.6 391.6 388 385.7 384.1 380.2 378.2 377.1 379.9 383.1 386.1 389.1 388.4 383.3 398.4 405.7 412.2 418.1 420 419.7 419.4 414.9 411.4 411.7 411.1 408.5 409.8 411.1 407.9 405.6 396.5 382.6 377.1 365.3 359.9 354.8 349.8 348.8 347.3 344.9 342.4 339.3 337.1 333.5 329.5 326.5 322.1 322.7 325.1 327.9 328.3 338.3 346.9 355.2 361 371.1 384.2 397.1 407.4 414.5 425.5 432.5 442.6 452.1 453.7 449.3 444.3 443.5 438.8 430.2 425.6 417.1 411 404.3 396.2 391.9 389.4 385.9 385.3 381.4 378.1 374.7 372.9 369.6 367.4 365 362.1 359.7 357.7 354.3 351.2 348.3 344.7 341.8 339.7 338.2 337.8 338 336.8 335.5 330.3 327.1 326.4 324.3 322.5 318.9 315.2 309.2 304.5 298.8 290.9 282.7 275.4 271.7 267.6 260.7 256 253.6 252.8 253.6 252.6 252 252.4 251.4 251.2 251.5 250.8 248.6
506.9 502.9 500.7 496.7 495.9 498.8 505.8 513.8 515.8 514.4 515.3 513.7 511.9 503.8 495.5 488 479.7 477.6 476.4 476.1 476.2 474.5 473.1 473 471.5 471.1 470.9 472.3 475 480.6 487.1 498.4 506.9 515.9 526.6 538.2 549.9 557.2 561.7 565.2 566.6 565 554.9 528.9 516.1 492.7 477 468.3 461.7 456.9 450.6 444.3 438.6 433.4 431.7 426 423.9 421.3 418.7 417.6 420.1 417.1 412.9 410.5 410.4 407.8 409.4 406.5 403.5 399.4 394.9 393.4 390.8 387.6 384.9 381 378.5 376.8 374.8 374.4 374 375.2 378.2 382.4 387.3 374.5 393.7 398.4 402 409 412.9 413.4 413.5 411.1 410.9 405.4 401.1 401.5 399.6 399 395.4 390 382.9 377.2 369.4 361.6 360.1 354.1 352.4 351 347.9 345.3 341.8 339.1 336.5 333.8 331.2 330 330 326.6 316.9 326.1 335.8 340.4 346.4 354.4 359.9 377.2 392.1 407 420.3 421.8 428 439.1 445.9 456.5 458.2 451.1 440 431.4 431.6 425.7 418.2 412.9 406.8 401.4 394.5 388.4 386.4 384.3 380 378.8 374.7 371.2 367.5 366.1 362.4 358.8 356.8 353.4 350.1 347.1 345 341.6 338.2 336.1 334.3 332.6 330.7 331.7 331.6 327.3 323.7 322 314.6 313.1 312.3 307.7 302.5 296.2 292 287.5 281.3 273 271.5 262.8 256.8 254.4 254.7 255 254.4 253.9 253.2 253 252.9 252.4 251.5 252.4 249.9 249
498.5 497 488.6 487 482.6 482.7 491.4 493.6 497 502.9 499.6 497.4 497.2 489.9 483.1 476.7 472.4 471.2 471.3 472.3 473.2 473.7 471.9 469.7 467.9 466.4 466.4 463.3 470.2 475 483.1 491.7 499.6 509.1 518.2 527.8 539.6 549.2 556 561.7 563.3 567 565.7 547.4 523.2 502.3 485.4 475.1 468 461.3 453.2 448.7 439.4 431.5 428.9 425.9 422.7 419.8 418.8 408.9 412 408.3 406.7 404.9 401.5 398.1 397.8 397.6 396.2 394.6 391.7 388.4 386.3 383.6 381.3 377.9 375.1 373.2 370.4 371 369.1 370 371.8 375.1 375.5 372.2 386.7 393.7 392.1 397.1 404.1 407.2 407.9 414.6 411.4 396.9 390.7 391.7 388.9 388.2 384.1 378.5 372.5 370.4 362.9 358.1 355.9 352.3 349.3 349.1 346.4 345.3 342.3 338.6 335.8 335.4 333.6 332.3 330.4 324.9 314.6 324 334.6 339.9 345.4 353.7 360.7 380.7 391.5 409.1 417.6 421 431 441.8 452.9 459.7 462.6 451.1 429.8 423 419.6 411.7 407.7 404.9 398.7 391.6 389.8 386.4 380.5 379.1 377.2 373.5 368.2 368.1 358 358.9 355.9 353.7 350.5 346.7 343.5 339.4 335.7 333.6 332.3 329.7 327.9 326.2 323.6 322.8 320.8 318.5 315.3 308.9 307.3 302.7 302.3 299.3 295.4 292.6 281.2 275.2 270.8 266.7 258 255.7 255.1 255.6 255.5 255.3 254.7 254.2 253.1 253.4 253.3 252.8 252.1 251.4 249.3 249
484.1 482.5 478.2 475.8 476.5 475.6 478.1 481.1 485.3 488.1 489.5 486.9 480.1 477 472.6 472.1 467 465.9 468 469.9 470.1 469.2 467.6 465.1 468.4 466.4 457.4 462.5 465.5 470.2 476.4 484.2 490.4 500.3 509.1 518.4 530.5 541.5 548.8 556.6 562.3 568.6 570.8 565.6 545.4 521.5 498.9 485 474.7 466.7 459.9 453.3 442.4 433.4 428.1 424.7 421.6 419.2 415.3 412.1 404.5 402.5 400 398.8 397.4 396.7 394.7 394 391.5 389.3 384.8 382.5 380.6 378 376.4 373.9 371.5 370.9 368.8 366 365.4 363 364.1 367.3 368 366.1 379.7 384.9 388.2 381.5 393.4 397.9 401.9 400.9 399.6 388.7 382.8 382.8 379.4 375.4 372.5 368 362 365.7 354.6 351 351 347.6 346.6 348.1 346 342.5 340.2 337.4 333.8 333.2 331.6 329.3 327.1 322.9 313 327 332.5 337.9 343 350.5 357.4 370.9 386.4 398.9 410.7 424.6 433.4 453 458.7 462.8 455.4 437.8 419.5 411.5 407.7 400.7 396 395.1 393.4 387.1 383.5 378.7 375.3 373.8 368.1 362.4 360.7 358.6 354.8 349.6 348 347.6 343.6 339.1 336.4 333.8 329.8 326.9 324.4 321.9 320.2 319.3 317 315 313 311.8 310.7 307.7 294.8 296.5 296.5 294.7 290 284.8 274 266.9 257.1 257 256.4 256.3 255.3 255.1 255.1 255.6 254.9 254.2 253 253.1 253.3 252.1 251.1 250.2 249.2 249.2
472.2 468.6 464.7 466.2 468 465.6 466.9 469.8 472.6 474.7 478.9 473.9 470.4 469.3 467.6 466.2 464.3 462.7 463.9 464.8 462.7 458.9 458.6 457.7 456.5 455.8 451.1 457.4 461.2 463.3 469.2 474.9 481 489.9 500.3 509.2 521.7 531.4 542.7 550.4 562.6 570.8 574.3 573.9 566.9 548.6 521.5 499.6 483.6 473.9 465.1 458.8 452.5 440.7 430.7 425.9 419.9 415.1 411.6 407.5 402.3 398.8 396.4 395.4 393 392.1 391.5 389.1 387.3 385.9 382.4 379.2 375.5 372.7 370.4 368.4 367.4 367.5 366 363.5 361.6 359.5 357.1 360.4 363.8 362.1 365.5 375.9 381.7 380.5 385.4 388.4 393 388.3 381.3 380 374.9 371.1 370.6 369.9 364 353.1 351.7 354.8 348.7 343.6 345.7 343.5 344.4 341.5 340.8 339.2 335.6 334.6 330.7 329.4 327.5 326.6 322.9 319.9 308.5 313.5 329.3 335.2 340.7 347.4 354.3 360.6 375.7 391.8 409 422.8 439.2 455.7 462.9 458.8 452.2 432.8 413.8 397.3 393.5 386.7 384.2 384.2 384.4 379.4 375.9 372 368.7 364.6 361.6 357.9 353.9 350.4 346.1 337.9 338.4 334.8 333.9 329.7 325 324 320.2 320.8 317.8 313.4 311.5 310.5 309.1 307.4 307.4 307 308 306.2 295.2 286.9 289.8 286.7 278.8 272.3 261.7 257.2 256.5 253.4 252.9 252.3 251.9 250.7 251.7 251.3 253.6 252.2 252.3 252.5 251.5 251.1 250.8 250.2 249.1 249.4
457.2 456.2 450.8 451.5 455.7 454.1 455.2 457.3 458.9 462.5 463.7 462.7 464.7 465 463.1 458.8 455.6 453.4 457 458.7 455.7 453.3 451.2 448.7 448.4 448.7 445.3 450 453.6 458 463.7 468.2 473.8 481.2 489.8 498.2 510.7 525.6 537.7 549.5 560 567 574.2 579.5 577.2 561.5 546.2 523.7 501.9 484.9 474.6 465.8 460.9 448 437.5 427.1 419.2 414 409.5 405.2 401 394.1 392.3 392 391.1 389.1 387.1 384.2 383.5 383.1 381.3 379.1 376.9 374.4 371 367.9 365.3 363.5 363.5 360.2 356.2 354.7 353.6 353.8 357 361.6 358.7 362 374.4 373.5 380.1 381 381.5 379 373.4 370.2 365.6 361.3 361.3 356.7 353.3 344.9 341.5 340.9 340.4 335.9 335.7 334.6 335.6 334.9 335.6 333.3 328.7 331.3 329.2 322.7 323.6 323.4 319.6 318.7 317.4 305 326.2 332.6 338.2 343.1 351 352.4 364.8 384.7 401.7 420.4 436.7 452.4 461.7 458 443.4 425.2 405.2 386.8 377.7 375.4 374.7 373.7 371.7 366.4 367.9 364.9 361.4 359.1 354.1 351 347.2 343.7 337.6 332.7 328.6 324.2 322.8 319.6 316.4 314.4 312.5 309.2 307.1 304 300.4 299 300.7 296.3 299.9 300.4 299 295.8 289.6 281.1 274.8 274.5 271.8 260.7 257.1 253.9 252.8 252.1 250.5 250.1 249.8 249.9 250.7 250.2 249.5 249.6 249.3 252.4 251.9 251 250.9 250.5 249.4 249.3
438.4 437.9 437.4 438 441.8 442.7 444.4 444 448.5 450.6 452.5 453.7 455.8 455.9 454.3 452.6 450.6 450.6 450.7 450.5 451.2 448.1 445.6 443.5 442.3 442.8 441.1 445.6 449.5 454.7 458.8 463.3 467.7 470.9 478.7 488.8 500.3 516 532.3 542.9 552.6 563.5 572.5 580.1 580.3 572.1 560.2 545.7 517.1 499.3 490.2 475.8 466.2 455.9 442.1 431.8 422.5 417.5 407.7 402.4 395.8 391.8 390.5 389.9 389.3 388.3 386.6 385.4 383.1 381.3 380.3 379.3 377.5 375 372.3 369.2 365 362.8 359.9 355.7 353.3 351.5 351.7 349.4 350.3 354.1 355.9 352.4 366.6 370.3 370.1 371.5 370.2 367.2 364.1 360.7 357 352.1 350.7 346.8 341.8 338.6 333.1 332.6 328.8 327.9 325.9 324.1 323.3 323.4 324.4 321.7 318.9 318.1 315 315.2 318.4 316.3 314.6 315.6 301 313.7 322.1 330.4 331.4 333.2 340.7 344.6 360.7 378.7 397.4 417.1 434.4 452.9 462.9 455.5 439 420.3 398.6 373.4 365.6 367 366.9 362.5 353.6 357.9 358.4 355 351.8 346.5 344 338.4 336 332.6 328.3 323.1 316.2 311.8 309.6 305.2 302.3 301 300.8 299.6 297.4 292.5 289.8 287.6 290.1 285.3 289.8 286.3 284.9 282.5 277.7 275.5 265.4 265.3 258.1 254.6 253.5 250.9 250.8 250.7 253.7 253.3 252.7 252.1 251.8 251.6 251.7 250.6 249.1 247.4 252.1 250.8 251.3 250.3 246.3 246.2
421.6 423.5 424.9 427.3 432.2 434.5 432.1 433.5 434.2 437.7 439.7 441.6 446 449.1 450.4 449.4 446.8 446.9 449.4 447.7 447.6 442.6 440.8 438.9 437.8 435.7 437.5 440.5 443.3 449.6 452.5 457.9 461.7 465.9 471.3 478.9 492.6 507.2 524.7 539 550.3 563.3 573.5 581 582.9 573 565.4 550.6 527.7 511.4 502.9 488.7 476.2 465 452.2 438.3 428.8 417.6 409.6 400.7 392.1 389.1 387.7 387.2 386.5 385.7 385.3 384.2 383.2 380.9 378.7 378.1 376.3 373.8 372 369.8 368.1 364.3 359.6 355.7 351 344.9 345 344.9 342.7 346.6 351 349.4 353.8 356.2 360.9 360.8 357.1 356.4 354.4 352 346.7 343.9 339.5 335.4 331.9 327.8 324.8 325.1 318.4 318.3 315.2 314.3 313.6 313.4 312.7 310.3 309 308.9 308.7 310 312.3 313.3 312.5 311 302.1 299.7 319.1 327.6 327.3 335.9 344.2 340.7 358.4 374.4 394.3 414.2 433.7 448.5 456.8 448.4 427.9 401.2 373.3 362 358.7 359.9 359.7 352.6 347.4 346.5 345 343.8 339.3 333.2 331.7 325.6 323.2 318.5 312.2 307 298.5 293.8 294.6 290.5 286.8 289.5 292.4 292.5 291.6 286 284.7 284.4 280.4 275.2 275.4 272 266.2 266.4 265.7 263.4 257.9 256.9 253.4 251.2 251 253.3 254.2 254.1 253.8 253.6 253.3 252.6 251.8 251 251.2 250.4 250.5 249.5 247.5 247.5 249.2 246.4 247.8 258.1
413 415.3 416.1 416.7 419.1 420.9 423.2 423.8 424.6 425.6 429.8 432.9 438.2 440.2 442.8 444.9 443 442.6 446.4 444.4 440.2 438.2 435.9 434.3 432.3 431.8 432.7 436.5 439.1 442.6 446.7 450.1 456.4 460.2 466.2 472.1 484.5 498.1 518.5 534.8 548.8 562.6 573.8 582 588.7 580.6 569.4 554.6 540.2 529.6 515.3 506.5 491.2 477.7 463.7 443.6 432.3 419.1 409.1 400.5 393 386.3 384.2 384 383.2 382.7 382.7 383.2 382.4 381 378 375.9 373.8 370.2 369.1 367.7 366.3 362.2 357.3 352.9 348.4 343.3 338.4 339.6 337.7 339.7 344.9 348.1 338.9 350.7 355.5 354.1 350.4 346.2 342.8 340.1 337.3 332.9 329.6 325.2 322 320.1 315.1 314.3 308.6 308.2 306.7 305 305.6 303.5 305.6 302.9 304.1 301.7 304.6 305.9 307.9 310.3 312.8 309.4 295.8 301 313 320.2 322.7 333 332.7 340.7 355.7 374.9 395 413.9 432 445.6 447.4 438.6 413.9 378.4 360.2 352.6 349.4 347.3 347 340.9 335.9 332.7 330.6 328.6 321.8 317.7 314.5 309.3 306 302.5 297.5 292.1 287.1 285 281.4 279.4 281 284.2 287.7 285.6 284.6 282.9 281.2 279.2 274.9 265.8 259.7 257.4 257.6 255.7 255.1 256.4 254.7 253.1 251.6 252.4 255.5 255 254.8 254.2 253.9 254.2 254 253.8 252.5 251.8 251.4 251.5 250.8 250 248.9 247.4 246.7 259.4 263.6 266.1
404.4 405.7 405 406.4 409 410.3 412.4 412.9 414.1 416.7 421.4 423.2 430.5 433.7 436.4 437.7 438.3 439.7 442.3 441 436.8 432.9 430.8 429.9 428.5 428 428.7 432.9 435.9 437.5 439.8 443.2 448.8 455 459.8 469 479.3 492.4 515.3 530.2 542.2 558.2 571.5 584.1 592.5 584.1 573.7 567.2 551.4 540.7 528.4 517.2 508.5 485.4 475.3 451.1 436.6 423.5 413.7 403.3 392.4 385 382.9 382.5 381.7 380.9 380.6 380.9 381.7 380 377.4 373.3 367.6 366 365 362.7 359.5 356.8 351.9 347.7 342.9 337.2 334 332.3 332 332.6 337.7 342.7 337.7 344.3 346.8 345.1 342.3 338.3 336.2 333.3 329.5 326.8 321.6 317.2 311.2 313.8 307.3 304.7 301.7 300.3 298.5 299.5 297.7 296.7 297.8 297 297.9 297.2 300 302.5 306.9 304.8 303.3 302.4 290.8 304.5 308.3 315.1 321.4 327.5 327.5 336.6 353.7 373 394.7 412.4 427 433.2 431 411.1 379.9 361.3 350.4 342.4 336 333.1 332.7 327.9 321.5 318.1 313.7 307.9 304.9 299.8 296.3 292.4 286.5 284.3 284.4 281.6 279.7 278.5 276.9 276 276.5 277.5 280.6 281.7 280.1 278.6 275.3 272.5 260 257.6 257.5 256.8 256.3 255.3 254.9 254.7 251.7 251.7 256.3 256.1 255.9 255.8 255.2 254.3 253.7 253.2 253.2 253 252.1 252.1 251.8 251.7 251 250.9 250.3 252.5 262.7 266.4 271.1 280.5
396.9 394.4 392.9 395.4 394.9 397 401 402.7 404.8 407.5 412 416.7 421.8 424.8 427.5 428.8 432.4 435.5 436.8 436.4 432.8 428.9 426.8 425 424.6 422 425 427.3 430.1 432.7 435.7 437.5 440.3 449.4 456.3 465.9 478.7 495.6 510.1 523.4 535 548.7 565.4 576.3 586.4 583.2 571 561.2 552.1 542.6 535.1 527 522.8 511.8 488.4 462.3 450.4 438.5 423.1 408.5 398.1 390 385.4 384.3 381.9 380 379.9 379.8 377.9 377.5 374 369.5 366.7 361.4 357.9 354.6 351.3 346.1 343.7 339.1 334.2 330.9 328.7 325.9 329.8 329.4 330 332.9 334.3 337.2 337.6 336.5 337.1 333.2 328.7 326.3 321.2 317.4 313.5 308.8 306.3 304.9 300.7 298.2 297.4 294.8 293.5 294.4 290.8 289.1 291.3 290.7 292 293.6 294.7 297.4 298.1 300.4 299.5 298.7 285.7 301.4 303 310.1 316.1 323 324.5 333.1 350.2 372 392.6 405.4 410.9 406.4 381.3 366.6 350.3 341.6 335.4 325.8 319.4 315.7 315.3 309.9 305.4 302.1 297.3 292.5 289.7 287.1 280.8 277.7 275.9 276.6 276.2 275.6 276.1 274.3 273.3 274.2 274 273.3 271.7 272.4 268.4 264.6 260.6 258.6 258 257.7 257.1 257 255.3 255.6 253.3 251.8 251.7 257.1 256.5 256.3 256.2 255.1 255.3 254.5 253.4 253.2 253.9 256.3 256.8 257.1 256.7 254.8 252.2 254.5 259.7 267.3 272.9 279.8 286.1 293.8
387 386.4 383.1 382.2 381.3 385.1 385.8 391.8 395.4 397.6 403 408 413.4 416.7 418.9 421.9 424.1 427.9 431.6 431 426.3 423.1 422.7 420.9 419.5 418 420.9 423.3 426.3 429.6 432.8 436.1 439.1 445.2 452.8 464.6 477.9 489.6 505.8 517.3 529.3 542.5 554.9 566.5 575.1 574.8 560.8 557.6 543.8 538.8 534.8 531.3 528.7 523.6 509.3 484.5 465.1 443.2 431.3 418.9 404.5 394.2 388.1 386 382.9 379.7 378.3 377.3 373.9 371.1 369 363.8 361.4 355.9 347.1 344 343 338.7 327.6 328.6 327.6 325.6 324.3 321.8 325.4 323.9 322.3 322.1 324.9 328.1 326.6 328.5 327.6 326.3 321.4 319 315.4 309.9 307.8 303.6 304 301.3 298.7 295.4 294.5 293.8 291.4 290.6 287.3 281.6 276.8 277.1 277 275.8 276 278 283.7 288.5 296.1 294.2 282.5 296.1 303.4 305.1 310.8 319.1 320.7 324.5 345 366.1 387.9 402 387.6 362.5 350.6 338.1 329.7 327.5 319.6 310.9 303.2 301.1 298.7 294.6 292.7 289.9 285.2 283.2 277.9 275.5 276.9 277.3 273.3 276.1 271.3 272.4 273 271.5 270.7 268.7 267.4 265 263.5 262.4 260.5 259 256 253.6 253.3 253.3 253.3 253.3 252.6 252.1 256.1 258.7 256.9 256.5 256.1 255.6 256.5 255.1 257.5 258.1 257.5 257.4 256.6 256.9 256.8 256.5 255.7 253.5 255.5 266.4 275.4 280 286.5 299.8 299.6 301
371.5 373.3 369.7 369.7 365.5 364.6 368.9 372.5 379.5 385.5 393.2 400.7 403.7 406.5 409.4 412.7 417.2 419.2 421.3 420.4 419.3 419.3 418.2 416.8 415.5 413.5 418.2 419.3 421.9 426.8 429.6 431.7 435.4 443 453.2 463.5 474.4 488.1 501.8 512.7 522.2 533.5 545.4 554.8 563.5 564.3 553.8 541.7 535.8 531.8 529.5 527.3 528.6 525.2 517.7 504.5 475.8 451.8 442.6 430 416 400 392 388.8 385.4 380 377.4 373.2 368.4 364.1 359.7 356.3 353.3 348 342.2 337 333.1 330.4 327.2 321.1 322.1 320.2 319.6 318.1 320.1 318.7 318.3 319.7 320.6 320.2 317.2 317.7 317.7 316.8 312.3 310.3 304.7 301.6 297.1 296 296.2 299.3 295.1 298.2 296.3 288.1 279 277.6 277.2 275.2 274.7 273.5 272.4 272.3 272.1 271.9 271.6 274.9 276.8 281.7 278.1 287.1 298.6 302.5 309 314.3 316.4 322.1 335.6 356.1 378.3 396.3 373.6 352.3 334.8 328.5 318.5 309.8 301.9 294 290 288 285.6 284.9 281.1 279.6 279.2 279.3 277.3 272.5 277.6 274.8 268.1 266.5 271.5 275.5 268.1 268.2 267.4 266.2 264.4 262.8 261.9 260.5 258.7 254.6 254.5 257.5 256.6 256.8 256.7 256.8 258.7 258.8 258.6 257.6 256.6 256.1 258.5 259 258.5 258.3 258.7 257.8 257.8 257.6 257.2 256.4 256.3 255.4 254.3 260.8 273.2 284.9 294.8 297.1 301.7 313.3 317.3 323.2
375.1 374.6 373.3 371.3 370.2 369.4 364.5 360.1 359.4 371.3 381.5 388.9 392.1 396.1 398.3 402 405 409.4 412.6 411.7 410.8 411 411.3 411.9 411.6 409.9 415.8 418 418.9 424 427 429.3 434 444.3 452.5 462.2 470.7 483.4 496.6 509.1 516.2 525.3 535.3 542.1 543 546.5 536.3 530.2 523.4 521.1 522.9 525.1 524.5 524.1 520.1 514.6 491.5 468.2 455.4 446.3 431.2 411.8 398.5 391.6 387.8 381.7 378.2 373.3 364.1 352.4 352.7 348.8 345.8 339.9 335.6 329.4 327.2 323.9 324.1 320.6 316.4 314.9 314.3 314.9 314.6 316.7 318.9 314.4 316 313.9 315 310.6 310.6 309 302.7 303.3 299.3 297.3 293.5 290.9 290.6 291.1 291.5 287.8 277.2 275.8 273.3 272.9 272.6 272.5 272.5 276.9 276.5 275.7 275.5 274.3 272.4 271.1 274.3 275.6 277.8 276.6 285 301.2 306.2 308.3 313.5 317.7 325.3 342.7 364.9 378.9 365.5 345.7 328.4 312.7 305.1 293.2 286.2 284 282.2 282.4 282.2 281 280.3 275.4 279.8 277.3 273.6 271.4 270.2 269 268.6 269.5 268.3 266.8 266.6 266.7 266.2 264.9 263.5 261.7 258.8 257.6 254.8 255.3 258.1 259.8 258.8 258.1 258.1 257.3 257.5 257 256.9 256.6 256.9 259.2 259.2 259.1 259.2 258.7 258.4 257.9 257.9 257.6 256.8 256.3 256.2 255.9 267.5 280.2 290.7 299.7 308 314.5 324 333.9 339.5 339.8
385.5 384 382.8 381.2 380.6 377.5 376.3 372 366.5 356.5 364.7 375.8 380.8 383.7 385.8 390 395 398.6 402.4 403.7 405.3 405.1 406.9 406.4 405.4 409.6 412.2 413.5 414.9 419.7 423.5 427 433.5 441.5 450.9 459.7 468.2 478.9 487.5 501.3 506.9 517.4 521.1 526.4 523.9 518.3 514 510.6 508.7 511.4 511.8 513.6 514.5 515.8 516.3 514.1 510 487.5 473.7 458.5 448.1 426.4 406.9 396.5 389.6 382.7 376.9 369.5 359.4 352.1 344.1 342.8 339.6 335.6 331.9 327.7 324.3 321.5 319.3 315.9 313.3 311.9 311.7 313 312 313.5 311.8 312.1 311.7 305.5 313.1 304.7 304.3 305 302.5 296.7 294 292.8 291.2 289.3 288.8 283.5 274.8 274.8 274.5 275.1 276.4 275.8 277 278.3 277.9 278.1 277.6 277.1 276.8 276.1 275.9 273 270.7 274.1 274.9 275.1 275.9 283.1 295.4 300.5 309.1 313.5 316.5 329.2 346.1 357.8 354.8 339.3 325 309.4 300.2 288.8 285 281.5 281.6 281.7 280.8 280.5 278.6 273.7 275.5 276.3 270.8 269.5 269.1 268.7 268.4 267.7 266.9 266.7 266.8 266.5 265 262.4 260.1 258.4 257.2 256 255 259.4 259.7 260.1 259.3 258.5 258.4 257.7 258.1 257.3 257.7 258.9 259.4 259.3 260.2 260 259.6 259.3 258.8 258.5 258.1 257.5 256.9 259.9 267.1 274.2 286 294.2 308.4 316.3 326.7 338.1 346 357.8 365.7 370.4
396.6 394.7 393.8 393.5 390 389.6 384.8 381.3 377.4 369.5 355.5 360.9 369.3 371.4 375 380.7 385.2 390.9 395.6 397.6 400.5 399.7 401.4 400.3 397.4 405.1 405.9 408.8 411.7 415.9 420.9 424.5 429.8 436.6 447.8 456.7 465.4 470.9 476.6 488.9 491.4 496.7 500.4 502.4 498.6 498 498.1 496.2 495 496.1 495.5 496.5 502.3 503.3 503.3 503.4 505.7 500.4 490.7 482.8 460.1 438.8 419.2 403.1 392.4 382.2 374.7 364.7 357.9 349 342 337.8 334.8 332.3 328.5 323 317.7 315.1 312.7 310.3 309.7 310.1 310 310.1 310.3 310.9 308 306.1 303.7 303.5 304.8 302 299.6 297.9 298.7 296.6 293.3 292.3 290 289.8 274.8 274.8 277.5 278.4 279 278.8 277.4 278.3 279.2 278.3 278.7 278.3 278.4 278.6 277.2 278.8 279.3 277.2 273.6 270.1 270.6 272.7 274.4 274.2 280.6 291.6 303.2 307.2 309.7 317.4 333.9 338.7 335.8 326.8 311.8 302.5 292.1 284.7 281.7 280.8 278.2 280.9 275.3 279.8 277.2 273.3 271.9 281 270 269.7 269.3 268.7 268.1 267.5 267.3 258.7 257.5 257.4 257.4 257.2 256.7 256.6 255.6 255.3 260.7 260.2 260.3 259.3 259.3 259.2 258.2 258.5 259.2 260 261.1 260.5 260.4 260.6 260.2 260.1 259.6 259.3 258.4 257.8 257.7 261.9 269.3 273.5 281.8 291.5 303.4 311.7 323.4 338.5 348.6 358.9 372.1 382 387.7 388.5
404.3 404.4 401.8 399.5 398.6 397.2 391.9 382.6 381.3 375.2 365.4 353.5 358.2 363.9 367.5 370.1 379 384.9 387.4 389.9 393.4 395.4 396.5 395.2 397.5 398.9 401.3 405.1 408.7 411.2 414.7 421.3 425.8 434.5 445.2 452.1 458.6 465.4 469.2 474.2 480.3 481.7 481.9 483.8 482.7 482.5 483.7 480.6 478.8 481 480.8 483.5 487.9 489.5 492.7 493.3 492.1 495.9 495.1 488.8 476.5 455.6 438.3 417.1 396.8 384.6 375.6 366.1 356.9 347 339.4 329.6 325.5 322.7 319.4 314.9 312 311.2 309.4 307.7 308.1 309.6 309.6 308.3 307.7 307.4 305.2 302.5 301.2 298 297.6 295.9 293.7 292.8 289.6 289.8 289.9 288.6 284.5 274.8 275.6 279 279.3 279.4 279.6 277.5 277.9 278.1 278.5 281.1 279.8 278.9 281 280.5 278.5 278.9 278.7 277.3 276.4 274.5 269.6 269.6 270.7 274.2 273.1 280.8 285.8 291.6 302.4 309 320.5 318.7 314.8 304 294 283.8 282.8 280.9 280 283.1 282.8 282.5 290.2 278.4 273.6 272.9 279 272.2 270.4 269.7 268.6 267.7 268.1 267.9 258 258.7 259.6 259.1 259 258.9 258.8 259.4 260.4 261.4 261.3 261.5 260 258.7 258.7 258.6 259.1 261.2 260.9 261.5 261.2 260.9 260.5 260.3 259.7 259.6 259.4 259.4 258.6 262.4 271.4 273.3 278 285.5 294.4 307.5 318.2 328.2 341.7 352.2 363.5 377.2 392.9 401.6 408.1 409.6
411 409.5 407.7 405.6 402.9 401.9 397.7 394.3 390 378.4 371.7 361.3 351.6 352.6 357.1 361.8 368.8 376.8 382.9 385.4 383.4 390.7 390.2 381.6 392.5 393.9 395.2 401.3 404.4 406.6 411.5 415.7 420.7 429.6 438.8 444.8 454.1 461.8 466.3 465.8 465.6 468.3 470.2 470.1 463.7 462.3 462 462.2 464.3 468.3 468.3 470.7 473.1 475 477.6 478.5 477.1 483.3 487.2 488 483.7 479.6 454 422.1 405.5 390.7 377.8 367.3 357.6 345.4 333 325 319.8 316.1 312.6 310.6 308.3 307.6 306.4 305.7 305.4 306.6 308.7 308.7 306.9 304.7 303.3 301.1 299.1 296.4 294.6 292.9 290.7 289.6 287.6 284.8 285.4 281.7 275.3 274.8 280.6 280.6 280.4 279.9 278.7 277.9 278.4 281.3 281.8 281.4 281.5 281.4 280.2 279.8 279.7 278.9 278 277 275.8 275.3 274.7 273 269.5 270.6 272.3 272.5 275.2 284.6 287 296.9 304.3 298.5 293.8 286.8 284.4 278.7 277.2 281.4 277.6 273.2 273.6 276.9 273.1 273.2 273.1 274.1 270.9 270.9 268.8 269.3 268.2 268.2 264.8 258.5 259.8 259.6 259.1 258.6 258.4 259.3 261.3 262.4 262.4 261.6 260.9 258.5 258.8 259.2 259.5 261.9 262.7 263.9 261.7 261.9 261.4 261 260.7 260.4 260.3 260 259.6 260.7 268.5 266.1 273.2 278.7 291.9 300.7 315.3 330.1 335.2 347.4 360 372 384.9 396.3 410.4 418.8 426.9 430.7
418.6 416.1 414.1 411.8 408.6 403.4 399.7 396.5 391.2 385.6 375.2 367.7 355.2 350.6 349.3 347.6 357.4 368.5 375.8 379.6 382.1 381 386.3 376 380.7 387.3 389.2 395.4 398.7 403.2 405.9 408.3 412.4 422.1 431.8 435.7 447.6 459.1 463.7 461.3 462 462.5 461.4 460.1 455.5 448.4 446.9 444.7 446.5 451.2 452.3 458.6 459.8 460.6 461.2 460.4 466.5 472.8 476.5 482.3 486.9 481.5 447.1 438.9 419.2 393.2 381.5 370 361 348.5 337.8 326.7 318.9 314.9 312 309.8 307.8 303.5 302.5 303.5 302.6 302.1 304.1 304.1 305 305 303.6 303.7 301.7 298.4 293.7 292.4 292.2 290.3 285.3 284.9 281.8 277.2 275.7 280 280.7 280.6 280 278.9 277.3 280.2 279.8 280.4 281.9 281.3 281.6 281.6 281.1 279.2 278 277.1 275.8 276.4 275.3 275 275.6 274.9 273.1 269.2 271.7 273.8 274.1 275.6 278.3 286.8 290.6 287 285.5 283.4 280.9 281.1 275.3 286.5 281.7 279.8 279.5 271.6 273.3 272 271.5 270.1 269.3 268.7 268.3 268.1 268 267.2 259.5 258.7 260.3 260.3 260.4 260.8 261.5 262.4 262.3 262 262.6 261.7 259.1 259.6 259.5 260.9 263 263 263.1 261.7 262 262.1 261.7 261.4 261.2 261 262.4 262.1 263.6 272.3 271.8 275 281.7 289.6 304.3 320.2 337.8 353.4 362.5 370.2 383.9 395.2 404.9 413.3 426 439.1 455.9 451.1
426.5 424.3 424.3 419 416.4 409.8 402.7 398.8 391.9 386.4 380.2 365.8 360.4 365.2 350.7 349.1 346.3 357.9 366.9 369.6 373.5 372.2 375 368.9 370.9 378.2 383.7 388.8 391.4 393 397 401.8 403 408.2 419.4 430 439.1 449.5 456.8 458.4 458.5 456.6 454 450.6 440.4 433.4 433.8 429.8 427.8 434 436.7 437.7 439 440.8 445.5 449.3 454.6 461.2 466.5 471 474.8 472 470.5 447.7 432.5 420.3 396.6 376 361.5 350 340 330.3 324.5 319.4 314.4 309.5 305.3 303.3 301.4 300.8 300.3 300.3 301.5 303 301.8 301 302.2 303.8 300.7 296.5 292.2 292.5 286.6 285.5 285.1 283.3 280.7 275.8 275.8 280.6 280.4 279 277.2 278.6 282.4 281.6 281.8 281.4 282.9 282.1 281.2 281.5 279.1 277.2 276.5 277.4 277.8 277.8 278 276.8 275.6 275.7 275.6 272.9 268 271.5 271.8 272.9 275.6 277.7 284.8 283.6 281.5 277.7 276.1 281.9 278.8 280.1 273.1 273.9 271.3 271.8 270.2 269.8 269.3 269.1 268.7 268.4 268 267.8 267.2 260.5 259.4 259.3 260.8 261 261.4 262.1 262.9 263.2 263 261.1 261.7 259.4 259.1 261.1 262.3 262.1 262.5 262.7 262.5 262.2 262.5 262.9 262.6 262.1 261.6 267.6 265.9 264.2 266.4 273.5 280.1 283.5 293.2 305.9 319.5 341.7 360.5 372.8 382 396.9 412.1 426 434.6 440 444 457.2 474.4 472.7
437 430.7 432.5 426.9 422.2 416.2 407.9 401.5 395 387 381.1 374.4 360.9 363.6 351 357.2 346.2 348.7 356.1 361.2 365 362.8 368.2 361.7 362.7 368.5 379.3 380.9 384.5 387.7 391 394.6 390.3 398.6 409.3 420.6 427.5 435.9 445.6 454.8 457.8 453.1 447.9 438.6 430.4 424.7 421.2 418.4 415.9 417.8 420.5 418.7 422.5 428.5 434 441.5 448.8 450.4 454.3 463 469.1 477.3 467.9 458.5 459.4 441.7 413.8 391 366.4 358 350 341.2 331.1 323.3 317.5 313.3 307.3 303.8 300.3 299.8 299.4 299.7 299.7 301.3 299.9 299.6 299.9 296.7 293.5 293 287.7 285.9 286.7 285.8 283.2 282.6 279.6 275.9 277.9 280.6 280.5 278.3 281.7 282.9 283.1 283.5 283.6 282.2 282.1 281.6 281.2 278.3 277.8 278.4 279.2 282.3 282.6 282.3 285.3 285.3 280.7 275.5 275.4 274.9 267 269.3 271.5 271.7 272 273.4 275.1 276.9 276.3 275.5 275.5 276.6 275.1 274.5 274 271.2 272 271.5 270.4 270.7 268.9 269.4 269 269.1 268.9 268.5 261.4 260.9 259.2 261.5 261.5 262 262.6 263.2 263.8 264.2 261.7 260.5 259.6 259.9 264.3 263.1 262.6 263.3 262.4 263.3 262.6 262.3 262.6 263.5 263.5 263.1 262.5 276.2 269.8 266.6 272 283.4 287.4 297.1 307.1 318.3 330.3 355.5 378.3 388.5 401 422.5 447.9 453.6 459.6 464 461.7 473.1 484 480.9
453.4 440.6 436.6 434.2 425.4 417.8 412.4 405.3 398.7 391 383.8 378.6 363.9 357.7 356.9 348.8 347.4 344.5 344 351.1 354.4 358.5 361.7 351.2 355.9 364.2 371.9 375 379.1 381.7 384.8 387.8 384.1 386.7 396.5 406.3 416.3 421.3 433.8 446.3 449.2 447.7 443.8 436.8 431.1 421.3 415.7 413.4 408.9 407.5 406.5 407.6 407.6 412.7 421.3 431.4 436.9 441.7 448.5 453 464.2 471.7 469.8 478.2 469.7 446.1 421.3 398.2 375.9 365.6 356.4 348.2 340.2 332.5 324.2 316.6 309.8 304.6 300.3 298.8 299.1 299.1 299.3 299.3 298.1 297.6 295.9 291.8 288.7 293.5 286.2 286 286 283.7 282.8 282.2 279.3 276 278.9 281.2 280.1 282.4 282.5 283.2 283.4 282.6 282.9 282.8 281.3 279.8 278.9 277.4 280.5 285.5 286.1 286.9 286.7 284.6 285.4 284.8 285.8 284.9 279.5 275.6 271.2 266.7 269.4 271.2 271.5 272 272.7 273.8 274.9 274.1 274.1 273.3 273.5 272.7 273.2 272.1 271.7 270.5 270.3 269.4 269.5 269.6 270.2 270 269.3 265.3 261.3 261.3 259.3 262.1 262.9 263.3 263.9 264.5 265.5 261.8 261.4 261.1 264.4 265.2 264.1 263.1 262.1 264 264 264.1 263 262.7 262.9 263.9 264.3 264.4 266.3 278 270.3 280.6 286.2 288.2 293.3 306.5 315.9 327 344.8 367.5 386.9 398.8 419.2 444.8 467.9 474.4 483 481.8 482.3 489.7 489 484.6
458.7 450.4 437.3 437.7 427.1 421 415 406.7 400.2 394.3 387.5 380.5 377.1 369.1 363.4 356.1 345.7 343.3 342.8 342.5 345.8 345 349.1 345.9 350.5 352.7 361.4 366.5 370.7 375.2 377.6 381.2 382.2 378.9 381.9 389.8 399.8 409.6 421.1 432.2 437.5 443 443.8 438.2 432.2 419.2 413.9 410.9 408.5 405.7 402.1 398.5 396.7 401.4 407.9 418.4 425.8 433 437.7 445.1 453.2 462.6 468.1 471.2 470.2 451.4 423.3 403.3 394 382.7 373.4 360.6 352.7 343.8 332.9 322.6 312.5 305.9 301.4 297.4 298.9 299.1 298.4 301.1 300 296.7 294 289 287.3 287 285.9 286.3 284.4 282.9 282.5 280.9 277.4 276.1 279.8 280.8 282.1 282.7 282.8 283.1 282.9 282.3 282.5 281.8 281 278.9 278.7 287.2 295.2 294.9 291.1 286.7 285.6 285.3 285.4 284.8 284.9 284.9 284 278.3 274.4 270 266.7 270.8 271.6 271.6 271.6 272.6 273.7 274 273.4 273.1 272.7 272.4 273 271.7 270.7 271.4 271.4 270.9 270.5 270.9 270.4 270.2 269.7 261.6 261.4 259.4 260.4 263 264.4 265 265.1 263.1 261.1 261.3 263.3 265.4 264.6 263.6 262.8 264.3 265.1 263.7 263.8 264.3 263.8 263.8 265 268.2 265.3 268.5 268.3 272.8 281.7 289.1 289.9 294.5 303 314.4 324.4 336.8 352.7 372.6 390.9 404.8 424.1 445.6 472.2 485.5 490.9 495.7 498.2 503.2 499.4 498.7
468.4 461.2 444.6 438.3 428.9 418.9 415 407.6 400.3 394.4 390.8 385.9 379.9 376.6 371.8 365.4 357.7 348.4 341.7 340.4 341 339.9 340.7 341.6 338.9 337.8 344 349.6 359.6 365.3 367.7 369.6 371.1 374.9 373.7 377.6 384.7 392.5 407 416.7 427.7 435.9 440.2 434.7 428.6 424.8 419.5 412.3 409.3 407 403.6 400.4 395.8 393.8 398 405.8 413.9 420.6 425.2 432.5 445.4 447 453.6 460.8 460.2 450.1 435 429.6 412.2 408.4 402.5 385.8 368.9 352.7 342.8 331.7 318.3 308.4 301.1 297.2 297.7 297.3 297.4 296.7 294.8 295.4 289.2 287.4 287.1 287.2 285.9 285.1 284 282.4 281.9 279.6 276.3 279.5 281 283.1 283.4 283.3 282.7 282.2 281.7 281.3 280.6 280.3 279.6 285.3 291.1 307.3 307.8 310.2 301.1 292.5 286.8 286.2 285.9 285.3 285 284.3 282.6 281.6 275.8 270.5 269.8 266.6 270.7 271.1 271.1 271.5 272.1 273.5 273.5 273.8 272.4 272.8 272.7 272.8 271.2 271.9 271.6 270.8 271.3 271.3 270.8 270.2 262.5 260.8 261.1 259.4 263 264 265.3 264.5 261.6 261.6 265.2 268.4 269.9 270 269.4 267.2 266.3 264.4 264.2 264.4 263.7 264 265.6 266.4 267.8 267 269.1 269.1 270.8 276.9 288 291 293.1 304.6 312.6 315.4 331.8 344.6 360.2 378.2 393.7 407.4 425.4 445 470 484.5 492.9 500.3 511 520.7 512.6 495.2
473.9 466.4 451.2 438.9 429.2 416.6 410.3 404.9 396.9 393.8 390.8 389.4 383.2 379.5 374.5 368.4 362.5 357.2 353.6 340.4 338.8 338.9 338.7 337.7 336.2 333.6 333.3 333.3 342 351.5 357.8 362.2 363.5 365.5 369.9 369.6 373 371 387.5 402.9 415.3 426.5 433.8 432.1 431.8 429.2 418.4 412.6 408.1 405.6 401.2 398 392.8 387.7 389.8 391.2 398.4 405.4 410.5 418.5 429.2 434.5 439.3 447.4 446.4 444.2 445.8 442.4 429.9 432.7 432 422.7 399.1 368.1 352.8 342 328 314.9 306.2 298.6 295.7 295.5 297.2 296.9 293.9 289.6 286.6 286.7 287.6 285.3 285.1 284.2 283.7 282 280.8 277.4 276.8 282 284.7 288.4 289.5 291.8 291 290.9 290.4 288.6 286.9 287.5 292.4 306.2 314.1 322 326.2 326.7 315.3 311.4 299.7 287.5 287.9 285.4 285.2 284 282.1 282.8 274.6 272.9 269.6 266.6 269.7 270.5 270.6 271 271.4 272.2 272.9 272.6 272.6 272.4 271.7 271.4 270.7 270.9 270.8 270.9 270.4 270.2 268.9 264.8 262 261.7 259.4 261.3 264.1 265.4 265.7 262 263.2 272 277.5 273.2 273.8 276 275.1 274.3 275 273.5 269.7 268.3 266.4 266.3 267.1 271.2 270.4 269 269.3 271.7 273.9 283 285.4 293.5 305 302 316.3 327 338.6 347.6 360.7 378.9 393.2 406.5 423 441.1 461.2 478.8 493.9 502.3 509.3 524.1 515.2 493.8
472.5 463.8 450.5 440.9 428.2 416.7 406.5 398.5 394.8 393 389.8 389 384.2 380 376 373.1 367.9 361.2 358.3 350.5 347.3 348.7 348.1 345 341.9 335.6 332.3 331.6 331.4 333.3 344.9 355.5 356.1 355.4 361.1 365.9 365 367.1 369.8 386.4 400.5 412.2 425.3 432.2 436.8 429.7 417.4 407.8 403.9 399.1 393.5 391 387.2 385.9 383.5 384.4 387.8 394.2 400.2 407.5 416 422 429.9 437.5 442 452.1 453.7 453.9 455.2 458.6 457.7 450.8 431.3 390.4 357.7 353.4 334.5 321 310.2 302.5 299.2 297.6 291.5 292.3 292.4 287.9 286.7 287.1 287.6 285.6 284.8 283.6 282.3 281.7 280 277.1 282.7 289.9 292.9 296.2 297.1 299.6 300.5 299.4 300.3 297.9 298.4 305.2 317.7 328.8 336.4 340.1 344.9 346.5 331.3 318 305 292.7 288.9 288.7 285.1 283.7 276.7 274.9 279 273.8 269.4 268.5 266.1 269.3 270.6 270.7 270.6 271.6 271.7 272.5 272.6 272.1 271.8 271.6 270.4 271.3 271 270.3 269.8 268.2 266.6 262.4 262.6 259.6 259.4 264.4 264.8 265.6 265.4 266.6 276.7 286.5 285.9 282.1 282.5 281 279 280.9 280.2 277.9 275.6 274.4 271.4 270.3 270.3 272.4 273.7 269.3 269.6 274.4 281.6 285.6 293.1 288.8 303.8 315.2 315.9 331.7 343.9 355.3 359.8 378.3 391.9 403.3 417.8 433.3 451.2 473.4 486.7 499.1 502.9 518.5 518.9 485.4
474.5 465.8 452.4 441.1 426.6 416.3 405.1 396.2 390.3 387.2 386.5 386.3 381.7 378 375.1 371.9 368.9 365.2 361.3 357.8 354.1 352.3 353.5 349.7 347.8 345.2 339.1 336.5 331 329.4 329 339.1 348.3 352.3 352.6 358.7 361.3 363.2 365.3 368 382.1 395.7 410.8 423.8 429.3 425 415.5 409 403 395.2 388.6 386.5 383.8 384.5 381.8 380.9 383.4 387.9 393 397.2 402.5 410.1 422 431.2 443.2 454.8 459.5 464.5 471.7 474.9 473.5 468.3 453.1 412.5 377.5 349.9 341.2 327.2 315 303.9 300 299.2 297.8 291.3 288.8 287.3 286.6 287.7 286.2 285.8 283.6 283.2 282.3 281.4 277.7 281.9 293.5 301.1 302.1 305.2 306.2 307.6 306.9 308 307.2 310.6 316.3 325.4 337 347 350.1 353.2 348.3 342.1 333.5 323.8 308.6 297.5 291.6 289.3 286.4 283.5 274.5 271.6 272.1 273.5 270.1 268.3 266.4 265.9 269.6 269.6 269.9 270.7 270.8 271.5 272.3 272 271.6 271.3 270.4 268.7 269.8 269.4 269.5 264 262.7 263 259.6 260.1 265.1 264.6 265.4 265 268.1 279.3 286.2 292 293 290.6 288.2 288 285.5 287.7 285.3 281.8 281.3 278.7 276.8 274.4 274 274.7 274.9 271.2 271.4 276.4 284.2 289.9 297.2 301.1 295.6 315.8 315.6 326.3 342.5 355.9 361.3 374 387.2 395.4 409.8 424.4 442.1 462.2 474.8 486.2 492.4 502 506.6 476.5
470 460 449.5 437.4 423.6 407.9 401.9 393.6 390 387.1 386.3 387.1 381.9 378.5 375.4 373.1 370.7 366.8 363.3 360.3 357.7 354.6 351.9 353.4 348.7 345.8 336.9 339.3 335.9 328.7 327.5 326.3 336.2 347.4 349.1 349.7 352.9 357.5 362 360.3 366.8 382.5 395.1 408.1 415.6 414.6 409.9 404.6 396.7 388.9 386.6 384.4 383.7 381 380 378 377.2 380.4 382.6 388.7 394.9 402.7 413.9 428.1 438.7 448.8 458.3 465.8 473.7 477.5 477.1 476 467.5 423.5 398.1 368.4 347.8 333.3 323.8 312.6 304.9 300.8 295.9 290 287.7 287 286.9 286.5 287.3 284.2 283.2 280.2 279.1 278.8 278.8 288 298.7 306.8 309.9 307.5 312.6 312.7 313.1 315.3 318.2 324.7 332.6 343.3 353.4 358 369.4 369.4 370.2 351.8 337.7 324.2 311.1 301.2 292.6 291.6 284.7 284.3 278.6 273.2 274.6 276.5 272.7 268.1 268.3 265.8 268.5 269 269.3 270.7 270.8 269.8 271.5 271.9 271.9 271.5 270.6 268.8 268.2 268.1 264 263.3 261.8 259.6 261.9 265.5 265.4 266 266.1 270.2 280.1 291.3 295.9 301.2 303.1 300.8 298.2 297.4 292.4 294.7 293.6 292 288.5 284.2 281.5 278.8 276.7 275.6 273.9 271.8 274 280.3 285.8 294 301 305.9 295.6 309 324.8 335.1 339 352.4 362.2 371.2 382.4 391.3 401.7 415.6 431.8 449.3 465.9 480 485.4 489.4 483.1 463.4
471.7 455.7 443.7 433.3 420.1 405.5 398.9 391.6 388.6 387.5 386.9 385.6 381.6 377.5 374.1 370.8 368.2 366.4 363.7 361.3 361.1 356.4 351.9 352.6 349.4 347.1 343 338.7 333.2 335.5 329.9 326.8 325.6 328.5 342.5 345.4 346.7 350 356.2 353.2 355.5 369.5 382 389.6 401.9 408.9 409.8 403.6 394.2 384.9 384.4 384.7 383.2 377.5 373.2 374 371.9 373.9 376 381.6 388.5 398.1 407.2 418.5 428.6 441 451.2 460.9 472 481.4 484.6 475.9 454.2 433.4 413.5 388.1 357.4 341.4 331.2 322.4 307.2 301.9 297.3 292.8 292.9 286.5 289.8 286.8 284.5 283.6 279.6 279.4 281.2 280.4 281.2 292.4 295 304.3 317.2 319.9 320.3 320.1 321.5 325.6 329.6 338.3 351.6 361.6 366.5 368.4 372.8 377.4 367.3 353.5 339.1 327.6 322.4 309.1 296.5 288.5 283.6 282.1 278.9 274.6 277.9 278.3 272.9 268.8 267.7 265.7 267.8 267.7 267.6 267.8 269.3 270.5 268.9 270.9 271.2 271 270.4 268.9 267.1 263.8 260.6 260 259.7 263.6 265.6 266 267.9 272.5 280.2 286.4 291.6 296.6 300.9 308.7 311.3 311.6 309.1 302.1 299.8 301 298.3 294.8 291.1 286.4 283.5 280.4 278.1 275.9 276.6 277.2 276 283.2 288.5 294.8 304.1 306.7 294.8 307.8 330.5 338.4 340.7 350.5 361.2 367.7 375.9 385.5 394.2 406.3 421.6 437.1 451.8 465 471.2 472.3 467.4 458.4
472 457.2 440.8 430.3 420 408.9 401.1 394 389.3 387.9 387.3 388.5 382.2 381.2 376.2 371.8 369.8 367.3 365.5 362.9 362.4 359.8 354.8 351.1 349.1 349.2 348.3 346.3 346.5 341.6 333.9 329.7 324.9 323.5 325.1 334.9 337.2 341.3 346.2 347.9 349 357.5 366 375.7 387.6 400.2 409.3 405.4 390.5 382.8 380.7 377.1 373.7 369.7 368.5 366 364.5 366.7 371.8 376.3 382.3 392.2 401.4 408.5 418.4 429.3 441 453.7 466.2 478.7 479.2 468.1 456.8 445.8 433.5 406.5 376.7 348.6 334.7 326.4 316 307.7 301.1 296.6 290.8 291.6 286 284.3 283.6 281.1 280.1 282.3 281.6 281.7 288.4 293.2 303.5 308.6 316.9 325.7 327.1 329.9 333 334.9 338.9 348.7 358.5 370.1 373.6 373.8 379.9 384 382 347.6 338.5 327.2 320.1 315 302.6 294.9 284 281 278.4 277.8 280.7 280.7 272.3 268.4 267.4 265.5 267.7 267.7 266.8 266.6 266.2 264.7 267.2 267.4 267.2 268.2 265.8 263.1 261.4 261.5 263.1 264.7 267.7 271.9 274.3 278.7 282.7 285.8 288.9 292.9 295.4 300.6 307.7 310.9 313 316.4 313.3 305.2 302.8 302.8 299.2 295.5 292.2 289.6 286.1 282.9 280.2 282.4 282.5 280.8 277.2 284.8 291.8 294.8 302.9 310.3 297.3 296.4 308.5 331.3 341 348.6 360.4 366.8 374.2 382.1 392 400.9 416.1 431.4 445 458.1 469.7 475.6 470 456.3
476.7 462.7 450.6 439.5 430.3 421.5 412.5 403.9 396.8 395.1 392.3 393.9 388.1 385.4 379.5 376.5 373.1 369.5 369 368.1 365.7 363.2 361.8 358.6 352.4 353.3 354 350.6 349.4 344.3 337.8 332.9 327.5 326.3 321.7 322.8 326.2 334.1 341.1 343.8 344.4 349.8 354.7 363.3 372.9 384 390.1 392.1 379.9 375.3 369.9 366.7 364.5 361.8 360.9 363.6 359.9 362.4 367.7 372.5 377.5 387.5 392.4 401.4 408.7 416 427.3 440.1 449.2 456.2 462.1 458.1 455.1 452 437.7 412.4 398.2 370.6 350.5 337.7 329.3 322.1 301.8 295.8 292.7 287.3 284.5 283.9 281.5 280.1 281.8 281.5 282 285 292.4 294.7 304.7 311.6 317 329.7 332.7 337.5 339.1 342.2 348.5 356.1 361.5 374.5 382 384.4 388.7 393.9 388.7 351.2 338.8 328.9 321.1 313.1 304.8 298.8 287.7 282.4 281.7 279.3 281.3 281 271 267.7 267.2 265.3 268.3 268.4 267.9 267.2 266.4 266.6 265 264.9 264.5 261.7 261.7 261.7 262.8 266.4 269.9 277 282 282.7 283.6 287.1 291.2 293.6 295.8 297.3 302.7 304.7 311.6 314.3 313 313.9 309.1 307.7 304.3 302.3 300.3 297.5 293.8 292.5 289.2 283.7 285.9 287 286.9 285.7 283.3 287.1 292.2 296.4 301.9 310.8 310.6 302.7 299.8 317.8 336 344 360.2 366.5 375.7 382 390 398.5 412.4 426 439.5 453.6 470.5 477.1 467 456.9
488.5 477.6 467 455 448.7 439.7 428.9 419.5 411.9 405.3 404.8 404.1 399.9 396.4 391.3 382.7 379 376.1 374.5 375.2 374.9 373 371.4 371.2 368.3 365.2 358.6 354.4 353.9 344.9 338.7 333.2 329.6 324.8 323.9 320.7 319.7 324 331.7 338.5 342.5 342.8 347.5 353.5 358.5 365.4 371.9 373.3 367.8 364.5 361.5 359.3 358.9 358 358.1 357.8 355.4 359.4 364.4 366.7 369.9 378.9 386.9 392.7 398.7 403.5 414.1 423.3 432 440.8 443.5 443.2 441.8 434.3 431.6 428.3 411.1 386.9 378.8 353.4 338.7 323.2 303.1 293.1 289.4 285 283.9 283.3 280.4 282.7 282.9 281.2 285.5 293.1 293 297.1 305.2 313 320.7 331.7 337.5 340.9 343.9 350.5 357.4 366.8 370.9 379.7 384.4 385.5 394.6 400.4 372.6 352.2 338.3 326.7 316.6 310.6 303 296.6 290.5 284.8 282.6 281.4 281 279.9 273.5 269.3 267.1 265 265.9 267.2 267.4 268.5 265.4 264.8 262.4 262.3 261.9 264.2 263.9 264.4 268.9 275.6 280.7 284.2 285.9 286.2 288.6 293.1 297.6 299.3 300.8 303.6 304.8 308.4 313 313 314.2 313.9 311.2 308.6 306.4 304.5 300.9 298.7 297.3 295.6 287.7 290.4 290.6 291.2 291.6 290.3 286.6 287.3 292.6 296.8 302.8 310 315.7 315.6 300.9 311.1 325.9 344.9 358.7 365.6 371.9 380.4 387.6 396.6 407.7 419.6 432.8 447.2 460.4 467.5 465.7 461.3
511.5 490 478.7 472.8 468.8 460.4 448.3 430.6 422.6 414.8 414 414 411.6 406 401.8 392.8 382 383.5 385.2 390.5 391.2 389.8 380.5 380.2 376.9 370.3 366.2 359.4 354.9 349 335.9 332.7 331.7 324.7 321.5 320.7 320.7 319.1 324.4 333.4 337.1 338.5 338.4 343.8 348.3 353.7 357.9 356.7 353.7 355.5 353.9 353.6 354.1 352.3 351.5 350.5 351.9 358 361.4 362.5 365.2 371.2 377.6 383.5 389.9 394.7 400.8 407.8 415.7 420.6 419.5 416 412.5 410 409.6 403.9 398.4 390.6 376.8 346.8 338.1 317.3 300.8 290.2 284.6 283.3 280.6 280.6 282.4 282.9 283.1 286 292.1 294.5 294.4 297.5 308.2 315 322.9 333.5 339.5 345.7 351.9 360.4 364.3 372.4 377 388.7 391.6 388.8 397 396.8 383.1 360.8 341.8 328.6 318 308.4 301 295.7 290.6 286.2 282.7 282.3 281.2 280.7 280.6 278 269.6 267.9 264.6 265.5 265.4 263.8 263.5 263 265.7 266.1 266.7 269.2 271.7 276.6 281.8 284.1 288.3 290.5 292.2 293.2 295.9 300.1 302.1 302.9 304.3 305.1 309 312 313.3 313.2 313.4 313.6 312.4 310.7 308.8 306.6 303.1 300.7 298.6 294.1 294.9 294.7 294.6 294.3 294.8 292.6 289.1 287.2 291.5 295.8 300.9 309.2 315.3 318.7 303.8 313.1 326.8 345.1 354.5 363.3 369.7 377.9 388.5 394.8 404.4 416.5 428.5 443.1 461.9 466.8 468.8 466
529.7 507.3 494.8 488.2 489.6 478.9 458.4 439.2 426.4 422.5 421.9 421.4 417.9 413.5 408.5 399.4 390.9 396.5 398 400.2 401.1 393.7 388 383.1 375 371.6 367.4 360.4 355.9 346.4 337.9 329.7 326.3 321.8 320.4 319.5 319.6 318.7 317.2 325.3 329.5 334 334.4 339 343.9 346 347.2 345.5 348.6 346.2 347.6 348.5 347.4 346 346.3 347.3 351 356.4 358.6 359.5 362.1 367.3 372.3 377 379.7 383.5 389.1 394.5 398.6 396.4 395 386.9 383.9 381.5 381.4 383.4 373.9 362.4 343.3 324.3 316.1 301.3 289.7 283.1 281.4 280.9 280.9 284 283.9 284.6 286.3 292.5 295.8 296.6 297.3 302.3 310.4 317.8 327.9 339.3 344.6 352.1 359.3 367.1 374.3 376.6 381.8 385.9 388.9 390.7 390.4 392.1 375.9 361.7 345.2 331.4 319.8 309.2 300.2 298.7 294.1 287.6 283.2 281.2 281.2 281.3 280.5 281 279.8 276.9 269.6 266.4 265.2 267.4 269.7 270.7 272.8 278.7 286.8 286.9 286.1 292.1 295 295.6 298.5 299.8 302.2 300.7 303 304.4 304.9 306.3 307 308.9 312.1 314.4 315.7 316.3 315.5 314.2 312.6 311.2 309.4 307.6 304.8 302.5 297.7 296.5 298.6 298.2 297.6 297.7 297.2 296.7 293.5 292.5 291.6 295.9 301.3 307.5 313.8 312.5 305.5 329 330.3 344.4 354.8 361.4 368.8 376.2 386.9 395.5 404.7 416.5 429.3 445 463.5 475 478.5 473.8
537.2 532.5 512.5 491.5 493.4 484.7 463.8 437.6 430.4 424.5 421.2 421.2 419 413.5 409.7 402.7 404.2 405 402.8 407.8 405.3 399.9 394.7 385.6 376.7 368.8 362.3 354.3 351.5 341.3 336.2 329 321.8 321.2 321.1 318.6 318.7 318.6 317.7 316.9 319.3 325.3 328.7 334.9 340.4 339.1 336.2 341.4 341.7 342.2 342.5 341.7 340.2 341.5 343.9 346.5 348.7 352.3 354.7 355.5 360 365.8 367.6 371.1 373.9 372.1 378 381.2 380.5 379 375.3 363 359.6 356.2 357.4 351.5 342.8 334.9 327.8 311.5 295.5 286.5 282.1 281.6 281.1 285.1 284.7 284.5 284.5 286.6 293.3 295.3 296.8 296.3 298.7 306.2 314.2 323.6 331.9 343.4 349.1 357.7 366.7 371.8 377.8 384.4 383.7 391.8 390.8 393.6 393.6 393.1 375.8 360.5 347.5 336.2 320.8 309.5 300.2 300.1 291.7 290.4 290.2 283.5 284.8 283.3 281.7 283 281.7 280.4 279.8 280.2 283.2 281.3 282.3 285 286 289 295.9 303.8 302.1 297.6 302.9 305.8 307.7 308.4 308.9 306.5 308.2 309.2 308.5 309.7 311 313.2 315.4 317.4 319.4 318.4 316.4 314.1 312.8 310.9 309 307.5 305.6 302.5 298.2 299.9 301.1 301.4 301.9 301.5 300.8 301.1 300.7 296.7 293.6 298.1 303.6 309.2 314.3 307.1 312.9 336.3 335.6 344.8 354.8 360.7 368.7 376.9 387.7 397.1 405.2 417.2 431 444.9 461.2 474.5 480.1 482.5
533.2 532.1 520.3 492.2 488 479.6 453 434.8 427.1 421 414.2 414.5 410.2 411.4 408.7 409 407.8 406.9 404.4 406.7 405.6 406.3 400.8 384.3 370.6 360.8 355.8 350.8 343.9 335.3 327.8 325.2 321 320.5 318.9 317.7 317.3 318.3 316.6 315 316.3 317.8 321.3 328.2 330.2 332.9 332.9 338.1 337.9 338.6 339.2 337.7 338.6 339.6 340.7 341.9 344.4 346.5 348.9 351.9 356 360.3 363.7 367.4 367.3 366.7 363.7 364.1 362.7 356.7 349.5 342.4 337.7 338.3 330 323.5 313.9 307.6 297.9 289.9 282.6 281.7 281.7 282.3 285.4 285.2 284.7 285.1 286.6 293.8 295.5 297.1 297.2 299.8 301.9 308.8 317.7 327.6 337.2 347.9 354.2 364 370.5 375.9 381.3 381.8 384.5 389.3 393.8 397.2 402.9 394.8 379 362.5 348.6 338.3 325.1 313.7 304.6 301.5 300.6 295.8 295.1 291.6 285.7 286.4 283.9 284.6 284.7 285.1 285.7 285.1 285.5 286.4 287.2 290.7 294.2 299.2 302.6 311.6 309.5 306.7 311.1 311.9 312.7 314.2 313.9 312 312.7 312.2 312.7 312.6 315 316.7 319 319.7 319.7 318.1 315.9 313.5 311.7 310.5 309.3 307.2 305.3 302.4 299.7 303.2 303.7 304 305.3 305.2 305.5 305.8 306 303.6 299.8 301.8 307.1 311.9 312.5 308 324.8 337.7 341.6 343.7 355.9 362.2 370.8 379.9 389.3 400.9 409.9 421.7 436.1 448.6 467.9 480.4 492.4 491.2
517.6 511.9 500.3 485.5 477.6 462.5 443 428.2 418.2 408.1 404.8 402.7 405.4 403.8 402.1 403.8 405.7 404.2 408 409.8 401.8 398 382.1 371.5 362.1 355.2 348 345 339.2 329.3 324.4 321.7 320.7 319.8 320.3 317.3 316.6 316.8 318.5 316 315 315 317.3 319.5 318.8 327.2 329.7 332.9 334 335.8 336.1 336.2 336.6 335 336.9 336.8 339.4 341.8 345.2 350.6 351.7 356.3 359.2 359.8 358.3 358.3 357.4 349.7 348 337.9 328.6 323.2 320.6 316.7 312.1 304 293.4 285.2 281.9 281.7 281.7 283 283.3 282.1 282.3 285.5 285.6 287 294 299.3 297 298.7 300 302.1 308.8 314.3 324.5 333.4 345.4 352.9 362.9 369.6 370.8 373.5 380.3 383.1 383.6 386.3 395.5 401.9 402.5 394.4 380.3 367.8 357 341.5 329 316.6 307.8 303.6 297.5 296 292.4 289.7 288.8 289.1 289.4 288.5 290.9 290.2 291.4 290 294.1 295.7 300 302.3 303.8 309.1 315.3 323.2 319.6 313.3 316.2 317.1 317.4 318.8 316.7 314.7 314.4 314.7 315.5 315.7 318 319.6 321 321.1 321.1 319.2 317.9 315.4 313.3 311.1 309.2 306.9 304.7 303.2 301.5 303.8 305.6 306.6 307.9 308.8 308.3 310.2 309.2 307.7 305.1 304.6 310.5 315.4 312.6 319.3 335.2 340.6 344.5 350.1 359.4 367.5 376.2 383.3 393.9 406.5 415.5 428.8 444.1 457.6 473.3 485.9 491.5 492.4
501.3 491.3 480.2 469.2 463.1 450.1 434.5 418.6 403.4 397.1 395.8 396.8 396.6 393.2 393.6 396.6 400.5 398 399.2 393.9 386.4 380.5 370.4 359.8 356 350.6 344.5 337.7 333.3 326.9 322.9 321.1 320.4 320.6 319.4 316.5 315.7 315.3 315.6 314.4 312.9 314.3 314.1 316.9 316.7 319.9 318.9 324 327.4 329.5 330.9 331 332.4 333.2 331.5 334.4 337.3 340.1 344.7 346.9 346.2 348.3 349.3 351.1 346.8 348.2 344.9 339.1 334 323.4 314.8 312 309.4 302.5 294.7 288 283.3 282 281.9 284.9 284.7 285 284.2 284 283.6 285 286.1 287.2 299.1 299.6 298.8 298.5 303.6 303.5 311.7 321.9 331 341.6 353.1 362.5 372.8 374.7 374 374.6 374.5 376.3 378.9 387.6 395.3 398.2 400.8 400.3 385.1 370.4 359.2 346 331.8 322.4 311.6 307.1 298.8 303.7 299.7 297.1 297 294.3 290.7 294.4 294.2 295.7 298.7 299.7 301.3 304.9 309 313.4 317.6 323.6 328.3 331.3 325.2 317.1 322.3 320.6 319 317.6 316.8 316.5 316.3 315.7 316.1 320 322 323 325.8 324.2 323.3 323 322.6 319.5 315.1 312 311.6 308.8 306.4 304.8 303 305.2 307.2 310.1 311.3 312 310.9 313.2 314 313 310.6 307.7 313.2 314.6 310.6 327.9 336.3 343.1 347.6 353.8 362 370.7 380 386.5 397.4 410.2 421.2 437.5 452.7 471.3 481.2 483.8 492.2 494.6
498.6 484.6 467.7 457.9 446.3 439.1 429.2 413.1 401.4 391.4 387.8 385.4 381 380 383.2 388.6 392.5 388.8 386.6 381.3 373.3 366.8 359.7 352.8 348.3 341.7 338.1 333.2 327.5 323.7 320.9 319.5 318.4 317.8 318.9 317 317.1 314.7 314.1 313.9 313.5 310.9 312.3 315.2 315.2 316.1 315.9 318.8 321.8 323 324.2 326 326.3 325.8 327.8 331 332.1 334.2 337 338 335.6 334.8 336.2 336.1 333.2 333.1 327.5 324.9 319 308.1 300.2 298.8 295.2 289.9 284.6 282 282 284.9 285.1 284.5 285.3 285.5 286.2 284.1 285.1 287.4 288.2 288.7 296.8 298.4 298.9 299.3 306.7 308.9 318.5 327.9 338 350.4 362.5 373.6 385.2 390.6 386.4 386.3 375.2 375.9 378.3 388.6 393.7 396.8 398.8 397.6 384.7 374.8 361.1 347.7 335.9 326.7 314.4 306.3 305.6 307.1 303.6 300.9 298 299 297.4 298.5 300.2 301.3 306 308.3 309.9 312.2 312.7 317.1 317 321.2 326.7 326.5 320.5 318.8 321.8 320.3 320.3 319.4 318.4 318 318.9 322.8 324.7 326.9 328.6 328.9 329.2 331.2 332.9 330 328.9 327 321.7 317.8 314.9 309.8 310 306.3 304.6 307.2 310.3 313.6 315.5 316.3 315.6 316.3 316.9 316.2 315.1 311.3 308.9 309.7 319.1 331.7 338.3 344.7 349.4 356.9 364.1 373.6 383.3 390.2 400.4 411.8 427.6 444 464.3 478.2 490.4 488 492.2 498.2
496.9 484.6 469.2 452.1 440 433 421.9 409.2 398.8 386.4 382.5 376.9 373.2 373.6 375.1 377.9 378.9 374.1 369.1 365.8 361.2 357.1 353.3 347.1 341.6 336.3 331.9 326.1 322.8 320.8 318.2 316.7 316.1 315.4 317 314.9 316.1 313.9 313.3 313.3 312.5 310.7 310.6 311 310.8 316.2 313 315.6 317.6 318.6 320.1 321.7 321.9 322.1 323.6 323 322.8 322.7 329.9 327.5 325.4 325.5 325.7 324.9 322.1 318.2 311.9 310.2 307.7 300.3 296.3 291.7 286.9 282 282 286.7 285.7 285.7 287 287.2 286.3 286.3 285.6 286 286.3 288.8 289.4 291.3 292.6 298.2 299.6 305.9 312.8 316 325.5 335.3 346 359.6 369.1 379.3 387.8 391.2 393.6 383.3 373.9 375 378.7 387.5 393.6 397.7 399 396 388.1 375.4 367.1 350.9 340.7 327.3 312.7 304.8 311.3 310.1 306.7 305.5 303.9 306.9 305.5 308.3 308.1 306.9 308.1 308.8 312.9 316.4 316.4 315.5 317 316.6 318 319.3 319.7 319.9 320.5 320.6 321.3 321.4 321.5 323.4 325.6 329.2 331.4 333.7 335.8 336.4 336.9 339.9 339.3 336.6 334.8 330.9 326.8 320 318.9 312.2 310.5 307.9 307.1 309.4 313.3 315.6 317.7 318.7 318.8 318.5 318.1 319.1 318.8 316.3 314.9 310.5 319.3 332.7 339.7 345.7 351.2 358.4 365.1 374.9 384.8 392.7 401.5 413.1 428 446.8 469.9 490.4 494.2 501.9 498.5 505.6
500.9 488.8 472.3 450.1 434.5 424.9 417.5 407 393.1 383.5 377.7 372.8 369.1 369.9 369.4 371.7 368.2 364.7 359 357.2 355 350.9 343.6 339.8 335 330.8 326.2 322.3 321.5 317.3 316 315.3 315.2 314 313.7 313 312.3 312.4 312.4 312.3 311.6 310.7 309.1 311.2 309.9 309.6 310.9 314.4 314.8 316.2 316.7 316.6 318.4 320.2 318.3 321.5 321.5 321.6 320.4 317.9 314.5 313.9 313.1 312.2 309.5 305.1 302.5 301.5 296.3 294.3 287.3 285.5 282 283.3 286.2 285.8 286.9 287.8 289 287.6 287 287.2 287.7 287.7 288.4 295.7 297.1 296.5 293.7 300.3 300.1 308.7 317.1 323.9 332.9 343.9 357.1 367.2 377.1 381.1 385.3 388.3 389.3 376.2 371.4 373.5 377.7 384.4 393.3 396.1 396.8 393.9 390 379.7 367.6 353.7 343.1 324.9 308.4 315.8 315.9 313.1 312.7 309.4 314.6 322.9 325.2 318 318 313.1 308.9 310.4 311.3 314.4 313.2 313.3 313.6 313.9 314.6 315.5 316.5 317.5 319.5 321.7 323.2 324.6 325.5 328.4 331 335.8 340 343.7 344.9 345.9 347.7 347.4 344.7 342.2 340 336.2 332.4 328.6 323.2 313.7 314.1 311 309.4 310.7 314 317.5 319.7 320.5 320.2 320.8 322.5 324.3 321.3 317.5 317.4 312.1 316.8 335.1 341 346.5 353 360.5 367.7 375.4 385.4 394.2 400.7 411.2 426 444.4 468.3 492.2 498.3 505.7 505.6 508.3
495.9 481.5 461.3 442.6 428 418.7 412.1 401.8 391 383.2 377.5 370.7 365.6 364.4 365.2 364.9 361.4 356 353 350.5 348.1 343.7 336.5 331.7 326.7 324.9 323.1 320.1 318.4 316.9 316.5 315.3 314.9 315.4 315.6 315.2 315.6 314.6 314.1 314.3 310.4 310.2 307.9 308.9 308.9 309.6 310.3 311.3 313.3 315.4 314.3 312.1 313.7 317.3 317.2 314.8 314.8 311.1 313.8 313.4 310.2 305 302.4 299.9 299.8 300.1 297.5 295.1 292.7 286.8 282 282 286.5 286.9 287.5 288.5 289.4 289.3 288.9 287.9 288.1 288.5 287.9 288.1 297.5 299.3 301 298.6 299.1 298.5 305.4 313.5 320.8 331.6 343.6 355.2 369.3 375.9 382.7 383.5 380.7 383.7 380 370.9 370.1 371.5 378 382 390.4 394 396.1 395.5 392.7 379.7 364.2 355.5 337.3 314 324.3 326.1 323 317.2 316 322.8 326.8 334.3 339.2 329 323.3 315.5 309.3 309.1 311.6 313.9 314 313.1 313.3 314.1 314.6 315.4 317.3 319.3 322.3 323.9 325.1 328.5 331.6 335.4 339.5 344.4 347.8 353.2 357.1 360.3 356.9 352.8 349.7 344.8 341.8 338.3 334.2 329.8 324.6 315.4 316.6 316.2 314.7 315.2 317.9 319.5 322.5 323.4 322.7 323.6 325.8 324.2 326.2 322.1 317.1 319 312.6 327.4 342 348.6 355.3 361.1 368 375.8 383.3 392.4 400.3 409.4 426.1 442.6 463.2 486.5 495.6 507.4 519.2 523.7
485.9 478.1 453.7 437.9 424.3 413.9 408.3 398.5 386.5 381.3 374.5 367.3 361.9 360.2 360 357.3 352.5 348.8 346.9 344 339.3 334 328.7 325.6 323.6 322.2 321 321.2 321.8 320.3 318.8 318.5 321 322.8 323.2 322.6 320 318.8 318.4 316.6 315.3 310.7 309.6 307.4 307.7 308 307.6 307.3 308.9 313 313.2 310.2 310.4 310.6 309.2 307 303.4 303.2 302.1 301.7 301.3 299.8 296.9 296.6 295.4 291.1 292.1 291 286.5 282.9 282.2 287.9 287.2 288 289.5 289.3 289.7 289.5 289 288.3 289 289.9 290.4 289 295.9 299.2 300.6 300.6 303.5 299.6 312.9 318.8 327.7 339.1 354.7 368.8 378.3 385.5 386.2 379.1 373.5 370.5 368.2 364.9 366.9 372.4 373.1 379.3 388.8 392 392.9 390 383 377.1 363.1 355.8 341.2 339.3 336.8 333.4 326.5 317.9 331.3 336.1 337.6 342.1 344.4 336.1 325.9 317.8 313.4 314.1 313.9 314.5 314.5 314.5 314 315.3 316.9 319.5 321.7 323.5 324.3 327.2 330.2 332.9 336.8 340.8 345.3 350.5 357.3 363.7 370.1 366.8 359.6 354.9 349.8 346.6 344.3 340.2 336.3 332.7 324 320.2 322.1 319.8 320.2 321.8 321.9 324.2 324.8 324.8 324.8 326.6 325.5 328.2 330.2 327.3 320.3 321.9 320.8 319.2 333.5 346.8 356.1 364.8 370.7 377.3 383.7 391.3 399.3 408.3 421.7 438.2 455.3 475.2 491.8 502.5 519.8 526.5
478.2 472.8 443.6 427 416.7 408.8 401.9 387.6 382.2 377.2 368.7 363.7 358.3 355.1 352.8 348.9 343.8 340 337.9 335.1 329.6 326.3 324.1 323.5 322.8 323.6 323.5 323.3 322.3 322.7 323 327.5 331.5 334.8 337.2 338.5 341.6 333.9 328.1 327.3 323.3 316.2 313.2 308.4 306 305.9 306.6 305.6 304.6 304.2 306.2 304 303.3 301 300.6 295.1 293.8 293.1 293.2 291.3 291.7 292.4 291.2 289.6 289.3 290.1 288.3 285.9 284.5 283.6 289.8 287.7 288 289.4 289.1 289.2 288.9 289 288.7 288.6 289.5 291.7 295.9 292.8 291.4 299.9 300.9 306.1 306.9 301.3 316.7 323.8 334 347.2 359.8 371.9 381.6 387 382.7 376.2 360 356.4 358.7 361.1 365.4 369.4 372.5 378.9 383.3 388.2 386.8 383.1 378.9 368.6 359 355.7 349.9 345.3 341.5 333.8 323.7 341.2 353.2 351.9 348.4 347.4 347 335.6 320.1 315 313 311.9 314.2 314.6 315.3 315.6 317.4 318.7 321.4 323.8 325.4 326.5 327.3 329.3 333.2 335.7 339.5 343.5 349.2 358.1 364 371.3 376.1 367.4 361.1 354.3 350.4 347.4 344.4 340.1 337.9 334.2 322.9 329.4 327.1 324.4 324.2 325.1 326 327.1 327.2 326.1 326.5 326.3 328.7 332.4 332.4 329.1 324.6 319.6 318.4 326 337.4 347.9 358.3 366.5 373.5 380 386.1 390.8 398.6 406.4 415.2 430 446.9 469.2 488.4 496.9 511.4 525.8
466.6 462.1 430.6 417.2 405 396.8 394.7 381.4 377.1 370.7 363.3 356.7 352.4 347.9 345.5 339.9 336.2 333.4 330.3 326.7 324.5 324 323.6 323.3 323.4 324.9 325.2 326.7 325.7 326.8 330.6 337.4 343 347.7 352.5 361.7 366.7 364.7 342.7 334.5 326.8 320 314.6 308.1 304.7 304.3 303.9 303.5 301.4 300.7 299.9 298 297.4 297.3 296.6 295.6 294.9 294.3 293.4 292.5 291.6 291.3 290.1 290.6 289.1 290.1 286.7 285.2 284.4 289.7 287.2 288.3 289.4 290.1 288.6 289.7 290.6 288.3 288.7 289.7 291.1 299.4 295.4 299.6 295.8 294.7 308.8 313 315.6 302.4 313.5 326.8 336.3 347.6 357.7 369 377.8 381 379.5 363.2 350.4 351.5 355.1 358.2 362.8 367.6 371.4 375.8 377.1 383.9 383.8 377.4 371.7 365.3 367.9 364.3 355.4 349.1 340.3 330.1 358 373.6 375.2 362 353.9 344.7 338 330.9 320.4 315.7 315 314.6 315.8 316.6 317.9 319.7 321 323.3 325.1 326.7 328.1 329.7 330.1 331 332.5 336 339.9 345 352.8 362.3 368.5 372.9 373.5 367.5 361.6 355.5 352.8 349.6 345.7 342.3 338.1 329 332.8 332.7 333.3 332.7 330 329.4 329.6 330.3 330.4 330.4 331.7 333.3 335.5 337 336.7 332.4 327.4 324.4 321.3 333.6 341.3 352.1 360.6 365.7 374.2 381.5 386.6 391.8 397.3 404 411.8 424.6 440.8 459.8 480.8 490.1 505 521.1
452.4 429.4 406.9 403 392.2 386.5 380.3 369.1 367 359.8 355.1 350.7 347.9 342 338.7 334.7 330.5 327.3 324.9 324.2 323.8 323.7 323.2 323.8 324.9 326.6 328 330.3 332.4 335.7 338.1 343.6 351.1 360.2 374.7 388.1 395.5 390.6 374.4 347.4 332 324.1 317 309 306.4 303 302 301.5 304.4 300.4 299.5 298.4 297.5 296.7 296.4 295.4 294.8 294.3 293.4 292.5 291.9 291.2 291.9 292.4 291.3 288 284.6 284.6 290.2 289.5 288.4 289.1 290.5 289.3 290.2 290.6 290.3 288.6 288.7 292.8 297.2 301.4 304.9 303.8 305.2 295.9 295.3 308 315 303.7 312.4 324.2 332.9 341.3 351.9 361.7 366.3 369.6 363.8 351 346.9 348 350 353.6 357.8 361.9 365.3 366.8 369.6 371.7 372.6 370.9 366.5 376.5 372.2 364.9 352.1 340.5 334.3 370.2 393.9 397.2 388.7 373.4 354.2 342.1 336 326.2 318.9 315.6 316.3 317.7 318.2 319.1 322.1 323.3 325.5 327.1 328.3 330.4 332.1 332.6 333.1 332.6 332.5 334 338.9 345.1 353.3 359.7 365.9 369.6 370.1 367.3 363 358.4 355.8 353 348.7 344 336.9 329.1 335.6 335.3 334.8 334.7 333.4 333.2 333.7 335.5 337 337.6 339.2 340.6 340.1 339.7 338.2 334.4 329.9 328 324.3 331.8 340.7 348.9 358.7 364 372.5 380.4 386 389.6 397.3 403.6 410.7 420.6 437.2 454.3 471.8 483.6 493.8 510.1
422.3 400.3 391.1 389.7 380.9 376 367.4 359.9 355.8 348.1 345.4 343.4 340.9 337.2 333.4 329.7 326.5 324.7 323.3 323.2 323.4 323.7 323.6 325.6 328 329.7 331.8 333.7 337.5 342.1 346.2 351.2 362 375.9 394.2 413.2 422.2 406.8 393.1 356.5 345.1 333.9 324.9 313 307.9 305.6 303.8 302.5 302.3 300.5 299.3 298.6 297.7 296.7 296.1 295.4 294.7 294.4 293.7 293.1 292.4 292.7 292.4 291.5 288.5 284.6 284.6 290 290.3 288.8 289.8 290.4 290.2 289.6 290.2 290.1 288.2 290.6 297.5 298.3 300.6 304.7 304.8 306.9 310.3 309 296.7 299.8 303.6 308.7 312.9 316 326.5 333 340.9 345.3 351.7 351.8 348.9 345.5 342.1 344 345.3 347.5 351.6 354.9 358 359.4 360.2 360.6 359.4 364.2 369.5 368.4 361.9 352.5 337.1 339 367.7 396.9 409.6 407 396.5 376.7 354 341.5 332.3 324 318.9 321 322.3 321.6 320.3 323.5 324.7 327.5 330.8 332.4 333.8 335.5 335.9 336.6 336.8 336.5 335.6 334.6 337.6 342.4 349.3 356.1 361.2 366.9 368.9 368.6 364.8 361.1 358.4 355.6 352.3 347 340.2 332.3 338.5 338.6 338.2 338.9 339.2 338.9 339.9 342.3 342.8 344.1 345.9 347.3 345.5 344.6 342.8 340.6 337.4 333.5 328.9 334.2 341.6 350 355.4 361.2 369.1 377.8 384.4 388.4 396.3 403 409.6 418.3 430.6 447.2 463.6 475 482.9 495.9
390.9 377.4 374 372.8 366.4 359.7 357 349.8 344 338.9 338.1 336 333.8 331.1 327.5 326 324.1 323.5 323 324.6 324.8 325.1 326.7 330.4 332.3 335.6 337.6 340.9 342.8 348.4 353.3 363.1 374.7 390.3 409.8 428.9 442.6 421.4 391.8 373.9 357.7 345.1 332 320.2 310.6 306.8 305.7 304.7 302.8 301.1 299.4 298.7 297.7 296.7 296.1 295.5 294.7 294.2 293.8 293.3 292.3 292.8 292.8 289.9 284.6 286.2 289.3 290 290.4 290.4 290.5 290.7 290.6 290.1 289.5 288.6 293 301.5 303.4 303.2 305 307.5 311.1 311.3 313 310.5 306.9 301.4 301.7 307.9 312.1 314.3 319.8 324 329.3 334.4 339.3 339.6 339.8 339.4 336.7 338.3 341.5 341.8 343.6 347.2 346.7 348.1 347.1 349.5 349.8 356.6 357.4 355.1 348.5 338.6 349.2 375.1 399.4 412.7 413.9 410.7 391.5 372.4 355.6 343.5 333.5 325 322.1 322.4 322.4 322.4 324.3 328.2 330.1 333.7 336.9 339.7 341.2 342.3 342.2 342.4 340.3 340.2 338.8 337.3 336.2 340.4 345.2 351.7 357.8 363.1 371.6 371.4 366.9 363.4 361 358.1 354.8 349.8 338.2 340.2 342.8 343.7 345.3 346 346.2 347.3 347.6 347.1 348.2 352.5 355.3 356.4 355.2 350.6 348.5 346.8 345.1 341.1 335.6 338.5 344.7 351.2 357.3 362.6 368.1 375 382.3 387.3 393.5 401.4 407.6 415.7 425.9 439 455.8 466.2 475.3 484.2
369 364.3 363.2 354.9 351.6 349.8 344.6 341.1 338.3 335.9 332.9 329.4 327.6 326.3 325 324.3 323.7 323.8 324.3 326 327.3 330.1 333.5 336.7 338.5 342.9 347.1 350.4 350.5 353.1 361.4 376.7 388.2 402.8 420.2 440.9 458.6 445.6 406.7 385.5 365.9 350.2 334.6 321.5 314.1 307.1 306.9 305.2 304.6 301.6 299.3 298.6 297.6 296.6 296 295.3 294.9 294.7 294 293.3 289.6 291.4 291.1 284.7 285.4 288.8 290.2 290.4 290.4 290.6 290.4 290.5 290.1 290.8 289.1 293.6 299.5 304.2 306.4 306.7 309.5 313 313.5 312.8 312.7 309.3 307.7 306.6 305.3 305.1 308.6 311.6 314.7 315.6 321.8 325.9 327.8 328 327.4 329.7 330.5 332.6 334.8 335.8 336.6 336.7 337.3 340.7 341.7 342 344.3 348.6 347.2 345.7 347.9 355.9 374.8 405.8 425.2 427.5 416.7 404 389.1 374.2 358.1 348.9 334.9 325.5 323.3 326.9 323.3 325.7 331.2 335.2 337.7 342.2 346.2 349.9 350.7 349.5 348.1 346.9 345.5 344.8 341.2 338.6 337.6 339.3 342.2 347.5 353.2 357.7 362.9 368.9 368.8 365.8 363.4 359.1 356.2 345.4 336.1 347.7 349.2 350.2 351.7 351.6 353.6 355.5 355.5 354.6 355.3 357.8 361.4 361.6 361.5 361.2 358.1 354.5 355 350 350.6 341.4 348.1 353.5 358.2 363.8 369.5 376 381.8 387.5 393.5 399.9 406.3 413.5 422.6 434.4 446.8 458 469 479.6
355.9 353.1 349.6 344.5 342.6 340.2 339.4 334.4 331.3 329.8 326.3 325.6 325.1 324.9 324.2 323.5 324.2 324.4 327.4 331.2 335.1 338.2 341.4 343.3 346.3 350.1 354.2 358.9 358.2 363.2 374.6 385.8 397.4 412.7 430.4 447.9 459.9 442.1 434.3 416.7 375.3 356.3 341 328 315.1 307 306.5 306.2 303.8 301.5 298.7 299.6 297.3 298.7 295.4 295.5 294.9 295.1 294 293.2 291.6 290.5 288.1 285 288.4 289.7 290.6 290.7 290.7 291.1 291.3 291.1 290.6 290.4 296.3 302 306.1 306.9 308.1 310.2 311.4 314.4 315.5 312.2 310.9 310.2 309.4 309.5 309.3 307.3 307.1 311.5 312.6 313.7 315.7 317.7 322.3 324.2 322.2 324.2 326.7 327 329.8 332.6 330.9 329.9 330.5 332.6 334.4 339.3 341.7 348.1 351.4 357.8 366.5 379.4 401.9 422.9 434 436.3 420.1 408.7 395 373.9 358.7 348 336.8 328.3 326 331.7 331.7 334.2 338.4 342.7 347.9 351.2 354.9 358.3 357.6 357.9 354.2 350.6 349.3 347.6 344.6 340.7 339.6 340.1 340.8 344.2 349.3 353.3 357.1 360.4 364.7 365.5 364.7 359.7 355.6 337.9 339.1 352.9 355.5 357.5 359.6 359.5 359.4 360.9 360.1 360.3 361.7 363 365.7 367.5 368.1 367.9 363.6 361.5 361 359 363.6 346.1 353.4 357 358.5 364.1 371.2 378.7 384.1 388.2 394.6 399.2 406.3 412.5 419.8 429 440.6 451.1 462.1 475.1
347 343.5 342.1 339.4 336.8 333.7 331.4 329.8 329.1 327.4 325.7 324.7 323.6 323.4 323.1 324.2 326.3 332.2 335.5 339 342.6 344.2 347.3 352.1 354.8 358.8 362.4 365.3 366.1 373.6 382.2 393.4 405.8 422.4 438.8 453.5 458.7 460.7 436.8 406.9 373.5 360.4 347.6 332.8 319.7 309.7 306.9 305.2 302.6 300.6 299 299.8 296.6 296 295.2 295.6 294.1 292.7 293.1 291.5 290.9 290.8 285.5 286.2 289.4 290.4 290.9 290.9 291.1 291.6 291.9 291.3 296 300.6 306.1 307.5 307.6 308.8 311.7 313.2 313.3 315.2 314.4 311.8 311.7 313.1 312.7 313.7 311.9 311.8 309.8 309.4 312.6 312.8 313.4 315.2 318.4 318.9 318.6 320.6 322.3 325.1 327.8 327.8 326.9 327.9 329.3 331.5 333.6 338.7 343.5 351.7 358.1 365.4 378.6 393.2 412.1 429 438.3 436.4 423.3 412.3 397.9 374.9 358.1 347.4 341.9 337.5 332.1 331.2 339.8 341.4 347.3 352.5 357.3 359.8 362.5 364.4 364.7 364.7 361.4 357 353.8 351.5 348.4 344.8 343.1 341.7 343 344.2 346.6 349.9 353.4 355.5 357.3 358.5 359.2 358.8 353.6 338.7 353.9 357.3 363.4 365.8 367.5 366.4 366.8 367.6 366.5 369.4 366.8 368.4 371.4 372.6 373.8 374.2 370.3 369.5 367.9 367 363.6 357 360.1 365.8 366.4 365.7 366.3 377.6 381.7 388.5 393.1 399.3 404.1 410.6 416.7 426.5 436.3 446.2 456.3 469.8
341.4 337.7 333.7 332.8 332.3 328.8 326.2 326.3 326.8 325 323.7 324.3 324.1 324.4 325.2 329.3 334.1 340.2 344.2 347.7 351.4 353.3 357.3 361 364.1 367 370.4 372.2 375.7 384.4 393.8 404.9 416.2 428.8 441.1 455 466.1 455 428.2 388.2 372.6 358.2 345.7 332.1 319.8 308.6 306.4 304.5 303.4 302.9 299.8 298.4 295.9 295.3 294.4 294.6 294.1 291.6 290.5 291.4 291.7 288.7 286.8 289.6 290.2 291.2 291.2 291.4 292 292.1 292.8 300.9 308.6 311.7 311.9 313.8 313.6 315.4 316.2 317 317.9 318.7 316.1 315.3 315.9 315.7 317 316.1 315.8 316.4 315.3 313.4 313.6 312.8 313.9 314.4 316.5 316.2 316.5 317.3 318.4 320.4 321.3 322.5 324.3 326.3 328.2 332.5 338 346.5 349.5 357.8 365.1 373.7 385.1 400.9 417.3 433.5 438.9 435.9 429.9 416.8 397.6 377.2 356.8 349.6 345.7 343.1 337.5 342.5 345.4 349.8 357.4 361.3 364.7 368.6 370.8 374.2 374.6 371.8 368.6 363.1 359.2 355.1 352 349.2 346.7 344.5 346 347.4 347.5 349.4 351 353.9 355.6 357.5 358.9 349.7 349.3 350.2 360.2 360.5 370 372.1 373.3 372.4 372.8 373.9 374.4 373.9 374.5 375.3 376.1 378.3 379.1 379.5 380.5 377.9 373.9 371.2 368.6 366.2 365.6 371.1 372.6 373.8 371.4 379.2 383.5 390 394.3 399.1 404.9 409.6 416.8 425.2 433.4 443.1 451.5 464.7
333.2 330.1 328.5 329.9 328 326.4 325.2 325.2 325.9 325.6 324.5 325.1 325.1 327.5 330.7 335.6 341.4 345.5 349.8 354 357.6 361.5 365.7 368.6 372 375.5 377.8 382.3 386.4 394.8 404.4 414.4 422.9 432.8 444.7 463.2 463.8 437.9 413.6 384.9 372 359.9 341.7 328.2 318 308.3 306.9 306.1 302.9 300.9 297.7 297.3 296.6 295.5 294.5 293.5 292.3 292.4 292.3 292.9 288.9 286.8 289.9 290.2 291 291.3 292.4 293.5 294.9 297.3 303.8 312.7 324.1 326.9 320.7 319.2 321.2 323.3 326.2 326.6 325.3 325.4 325.3 321.9 322.3 320.8 320.8 320.3 320.8 320.2 319.4 317.5 314.7 314.3 314.4 314.7 314.9 315.1 315.7 316.4 316.3 318.8 320.1 322 323 327 330.6 334.8 343.9 351.2 356.4 362.5 368.8 379.1 390.6 406.4 421.3 435.2 434.3 431.5 425.9 414.8 393.9 378.2 365.5 354.4 351 346.2 345.2 347.1 353.5 357.4 365.5 370.4 375.3 379.2 383.9 386.6 385.4 377.6 373.2 367.2 362.8 358.7 354.4 351.5 348.9 347.7 348.6 349.4 350.9 352.2 352.5 353.7 355.5 353.6 354.6 346.2 359.6 363.5 367.1 370.4 377.7 379.9 379.3 378.1 378.9 379.5 380.8 380.3 381.1 381.8 381.1 384 385.6 385.4 386.2 385.9 381.7 375.9 375.3 374.3 372.6 376.3 377.7 375 374.8 382.2 386.1 390.2 394.7 399.4 405.4 410.4 416.3 423.7 431.1 439.8 448.6 462
328.3 326.9 327.2 326 325.5 325.5 325.9 326 327 327.1 327.5 328.3 330.2 334.7 339.4 344.8 348.3 350.9 355.5 358.4 363.1 368.6 370.7 374.4 376.1 380.5 384.8 388 396.6 404.8 412.3 421.7 428.7 438.9 456.5 464.6 450.6 432.5 421.7 392.2 369.1 359.2 345.8 328.1 318.1 310.4 307.4 307 301.9 299.4 297 296.6 297.3 294.2 293.3 292.3 293.3 292.9 293 287 287 288 289.9 290.3 291.3 293.6 297 299.7 300.6 303.3 315.6 323.6 332.3 334.4 332.8 328.9 334 335.3 336.8 336.4 336.9 335.4 333.7 330.4 328.4 326.5 324 323.6 323.1 321.5 321 318.3 315.2 313.9 314.3 314.5 314.9 315.1 315.4 316 318 319.4 322.2 323.1 325.6 331.6 335.2 341.2 349.2 355.1 362.2 367.3 374.9 386 395.9 408.9 419 432.9 431.3 427.7 424.2 406.2 390.2 376.1 366.4 359.5 355.8 350.1 356.4 355.6 360.6 366.8 376.3 385.2 389.4 391.3 394.6 394.8 394.3 388.2 379.5 371.9 365.4 360.6 356.7 352.8 350.2 350.5 351.1 352.2 353.9 355.9 356.9 357.4 358.6 359 355.3 348.9 350.4 365.4 371.4 377.7 385.2 389.1 389.7 385.8 384.3 388.3 390.4 389.6 387.5 389.4 387.4 390.5 392.1 392.1 392.6 391.8 388.6 384 381.8 381.1 380 381.1 383.2 382 381.3 382.4 387.1 390.8 396.1 400.5 405.4 410.3 415.5 422.4 430.2 438 447.8 460.7
327.8 327.2 325.8 326.5 326.2 326.7 327.3 327.6 328.3 329.1 330.9 334.1 337.8 342.8 344.9 349.8 354.3 356.3 359.2 363.9 367.9 371.6 374.5 377.8 381.7 386.8 391.3 399.1 406.9 414 420.9 428.7 439.1 450.8 453.6 447 429.9 430.8 426.2 411.7 385.2 353.5 332.2 321.1 314 309.5 306.9 302.6 302.7 297.2 296.9 294.1 292.4 293 292.4 292.2 293.2 290.7 287.7 287.6 289.9 290.7 290.8 293.1 297.3 306.2 305.8 306.9 307.2 314.2 321.1 328.3 335.1 340.6 345.3 342.9 343.4 344.9 344.8 346.5 349.1 349.1 344.1 339.4 333.5 330.4 326.3 324.8 323.1 320.4 319.3 319 317.1 313.9 314.2 314 314.3 314.8 315.5 317.9 320.4 322.5 324.4 328.5 332.1 336.7 340.5 346.1 353.5 358.9 364.5 370.9 382.3 390.6 401.3 409.6 417.4 423.6 431.9 432 416 396.5 384 375.8 368.1 366.2 363.6 355.2 359.2 363.1 369.8 378.4 387.3 397 400 402.9 405.4 402.3 401.3 398.2 387.4 370.8 368.1 363.3 359.3 355.9 353.3 352.9 353.8 354.8 356 357.6 359 360 360.7 361 359.2 362.1 352.5 355 377.4 385.3 392.5 394.1 394.8 391.9 390.4 394.5 398.4 397.9 394.5 393.4 393.8 397.4 400.9 402.1 402.3 401.5 398.1 392.3 387.4 385.5 384.2 385.3 386.2 385.1 385.7 386.3 389.2 392.1 396.6 399.7 405.9 411.5 416.2 422.8 429.9 438 447.2 457.6
327.5 327.4 326.3 329.2 328.1 327.6 329.1 329.8 330.7 331.9 335.2 339.6 343.4 346.5 350.4 354.2 357.8 361.4 365.5 368.5 372.5 376.4 378 381.7 387.1 393.4 400.2 407.8 415.4 421.8 428.9 440.5 443.3 436.5 434.1 430.3 426.4 424.6 420 409.4 391.5 355.4 329.6 317.1 310.6 306.6 302.6 301.5 297.7 294.6 294.3 292.3 292.7 292.8 294.6 293.9 291.3 289.1 288.8 289.4 291.2 293.6 297.1 300.9 301.5 308.2 313.5 316.2 319.9 321.8 327.9 335.1 343.4 347.3 352.5 353.4 352.7 354.5 356.2 359 361 358.7 352.6 344.4 339.4 333.9 329.4 325 321.6 317.7 316.4 316.2 315 313.9 314.4 314 313.9 314.7 317.4 321.4 324.6 325.2 327.5 332.8 337.3 342.4 346.9 351.2 358.5 362.8 367.3 377.1 387.2 394.5 403.4 412 416.7 418.3 418.1 417.1 402.9 392.4 383.5 377.8 372.2 369.7 366 361.4 364.9 374.8 383 390.7 398.7 406.5 412.4 416.8 417 410.6 408.3 401.7 386 371 367 364.6 361.2 357.5 356.3 356.6 357.4 358.2 358.8 360.6 361.9 362.8 362.6 362.4 363.2 366.2 354.9 356.9 381.4 391.5 395.7 398.2 399.1 397.1 396.5 399 401.8 401.2 398.4 398.9 399.3 402.4 407.1 411.2 411.5 410.3 406.3 401.8 396.9 390.4 388 387.6 390.5 390.6 389.5 389.2 394.3 395.7 397.9 401.4 406.2 413 417.8 424 430.6 440.3 447.1 456.3
328.1 327.9 326.4 329.3 329.5 329.6 331.6 332.8 334.1 336.4 341 343.5 346 350.2 354.4 358.2 361.8 364.3 367.8 370.8 375.1 378.3 383.3 387.6 394.4 402.4 409.5 415.9 421.4 429.6 443 441.3 431.3 425.8 419.8 420.9 421.2 418.2 411.2 393.7 365 338.6 325.3 312.9 307.4 303 300.3 296.3 295.3 293.7 294.2 293.9 295.1 295.7 292.7 289.3 289 289.6 290.6 292 294.3 298.3 302.8 307.1 308.6 315.2 321 324.2 327.3 331.7 335.5 345.1 351 357.1 359.7 362.7 363.4 362.3 367.1 373.7 370.5 367.3 360.9 353.9 347 341.9 333.5 326.2 318.7 316.5 314.9 314 314.4 314.7 314.3 313.9 316.1 317.5 321.2 327.1 330.7 329.5 329.5 337.7 343.4 348.6 353.2 357.9 362.6 369.5 376.5 380.9 393.1 401.2 404.7 411.6 413.3 415.1 413.3 406.2 399.1 389.1 383 377.5 371.7 366.2 363.4 367.9 377.4 385.3 393.1 400.2 407.8 416.6 428.1 432 432.2 428.9 415.9 406.5 393 377.6 366.6 363.5 361.9 360.5 359.7 359.9 360.3 361.3 361.7 363.7 364.4 364.8 365.4 365 364.5 362.4 369.1 370.7 380.4 394.7 401.9 405.3 406.3 404.9 402 402.5 404 403.5 402.9 403.6 404.3 407.2 414.4 420 419.8 417.5 411.2 406.7 400.8 396.2 390.2 389.4 390.8 392.4 392.3 392.5 396.4 398.8 401.6 404.5 411.6 416.8 420.8 425.3 431.1 437.6 446.7 455.2
326.7 327.9 328.8 329.5 330.2 331.8 334 336.5 338.8 341.5 345.6 346.8 350.2 352.9 355.8 360.3 363.8 366.8 369.5 373.2 378.6 384.4 388 392.7 398.6 407.5 414.1 420.9 428 436.7 436.7 425.1 416.3 411.3 408.4 408.4 407.8 402.6 386.5 365.2 347.6 331.2 317.9 307.1 303 297 294.4 295.2 295.4 294.3 295 295.1 293.6 292.7 289.4 289.6 290.8 292.2 296.9 299.3 301.6 304.6 308.2 311.1 316.8 322.6 326.5 329.9 334.3 340.2 345.1 355.2 364.5 372.7 378.2 380.1 381.5 380.3 384.8 382.9 382.5 372.6 369.4 361.4 353.9 345.1 335.9 324 316.5 316 316 315.8 315.6 315 316.7 318.5 320.3 322.5 324.7 330.1 333.3 333.8 336.9 343.3 345.4 349.4 356.6 362.2 367.4 373.9 384.2 388.2 397.9 406.4 409.2 408.8 411 411.3 408 401.4 393.2 385.9 379.8 375.7 367.2 366.6 373.5 378.6 385.3 393.7 401.1 409.8 419.8 427.7 436.7 439.1 439.6 432.7 419.2 403.1 391.8 377.3 367.6 364.5 363.4 362.2 363.7 366.7 365.9 365.9 366.9 366.8 368.3 369.1 368.4 368.3 367.2 362.7 376.4 379.7 380.4 397 404.3 410.1 410.4 411 409.4 407.6 406.8 406.5 406 408.2 411.1 412.9 419.2 423.2 423.2 421 414.8 407.7 402.7 396.5 392.5 390.8 390.3 391.8 394.2 396 397.6 400.1 403 407.6 412.2 417 421.2 426.4 433.2 439.1 446.2 455.1
328.3 328.9 329.7 331.5 333.1 334.5 337.1 340.5 343 346.9 348.4 350.9 352.9 354.5 356.6 362.4 364.1 367.7 371.3 376.5 382.3 387.7 391.3 395.5 404.2 410.7 417.4 422.6 427.7 429.3 418.7 408.5 402 397.4 394.3 391 387.1 377.9 366.5 350.3 332.7 318.8 311.2 303.2 295.7 295.3 295.2 294.5 295.6 294.4 294.2 292.7 292.7 289.5 289.6 291.6 297.9 300.3 301.3 307.3 312 313.9 317.1 318.7 324.3 329.3 334 337.6 343.8 351 357.3 367.7 377.2 388 398.8 409.3 406.8 403.8 394.5 391.8 388.8 382.7 374.1 364.5 356.8 344.5 331.9 322.5 316.9 316.1 316.1 316.1 315.9 316.5 317.6 319.7 323.1 326.1 328.1 331 332.8 333.8 336.9 345.7 346.8 350.8 361.3 365.4 371.5 375.1 384.9 394.1 402.9 408.7 410.2 410.1 410.3 402.1 402.2 397.6 389.1 382 378.4 373.3 370.1 374.6 380.9 387.9 394.9 401.3 411 421.2 432 437.7 440.9 439.3 431.6 427.3 416.1 400.9 385.2 372.1 366.9 366.1 367.7 365.6 367.7 367.7 370.6 372.6 372.5 372.5 373.5 373.7 373.2 372.7 371.6 371.1 371.1 379.4 376.4 397.3 404.3 409 411.5 413.1 413.4 409.8 408.2 409.1 410.4 413.3 417.2 417.1 419.4 421.7 422.4 421 414.2 407.2 402.6 398.9 394.6 392 391.3 392.5 395.3 397.6 398.4 402.2 405.4 410.4 414.3 418.5 422.4 428.1 435.3 441.2 448.1 456.7
329.9 329.6 330.7 332.9 334.8 336.5 340.2 342.5 344.5 347.5 349.7 351.4 354.6 356.2 358 360.6 364.1 369 373 378.1 384 389.8 393.6 400.1 406.8 413.2 420.5 428.8 423.9 412.9 402 391.1 386.4 381.1 374.2 369.3 363.3 355.1 346.3 334.7 318.4 308.8 301.3 295.7 294.5 294.8 295.8 295.6 294.9 291.9 290.4 289.7 289.5 289.4 294.4 301.7 303 305.2 306.6 314.4 319.3 323.4 325 325.9 330.2 335.5 341.6 347.6 355 361.3 369.6 378.7 390 401.4 409.9 420.3 434.2 437.4 410.2 398.2 391.5 382.8 372.9 362.4 351.1 339.9 327.4 320.5 316.4 316.2 316.2 316.4 316.2 316.8 319.4 323 325.7 327.6 329.5 331.7 333.2 334.6 339.8 345.8 349.9 353 363.8 370.2 375.6 379.9 391.2 397 403.1 408.2 409 408.6 405.9 402 397.8 391.1 386.4 382.9 378.2 373.8 377.1 379.6 385.9 393.1 401.2 411.1 423.2 434 437.2 438 437.3 433 424.1 416.6 405.5 393.6 379.6 371 369.3 366 367.4 369.1 375.2 375.4 378 379.4 379.3 379.1 379.6 379.4 378.6 377.4 377.4 377.4 374.7 375.6 372.3 394 399.7 404.9 407.5 409.9 410.1 410.5 410.5 411.5 413 416.8 419.6 419.7 418.7 417 416.4 413.5 409.6 405 404.6 401.2 398.1 394.6 392.8 394 395.2 397.1 398.8 403.2 408.8 411.6 415.1 420.3 424.3 429.9 436.4 443.6 450 457.7
331.1 331.3 332.8 336.2 336.5 340.9 343.7 344.6 346.7 349.8 351.7 354.1 355.1 356.5 358.9 361.7 364.7 368.7 373.9 378.7 385.2 391.6 396.8 402.8 407.1 413.5 419.3 421.8 410 398.7 384.5 375.7 369.1 363.6 355.7 347.5 339.4 331.7 323.8 316.4 306.4 296.8 294.3 294.5 296.4 294.1 293 291.8 290.9 290.5 290.6 291.3 292.6 297.7 303.2 304.5 306.4 308.4 314.9 321.4 328.1 332.2 333.6 334.5 337.5 343.3 349.6 356.3 362.8 371 379.3 387.9 398.9 409.4 422.4 434.3 441.3 445.7 442.1 403.6 388.5 376.7 367 356.3 342.3 332.6 322.5 317 316.3 316.2 316.8 316.9 316.7 317.9 321.6 324.2 326.6 328.3 330.6 332.5 335.5 336.9 341.5 346.2 351.8 355.9 364.5 372.8 377.8 384.8 391.9 401.1 403.3 403.4 408.2 405.3 402 396.8 393.1 391 384.3 380.8 378 376.9 381.5 384.2 390.5 397.7 407.6 418.5 431.7 439 442.9 444.4 440.4 432.8 422.5 413.4 399.8 389.7 379.1 371.8 370.3 370.2 369.6 377.1 380.7 385.5 390.6 395.1 394.6 394 394.2 392.5 389.8 388.5 385 381.7 379.2 378.7 374.1 387.7 396.6 401.7 404.5 407.2 410.7 412.5 413.3 413.1 415.5 418.4 422.8 421.9 419.1 414.5 412.6 411.2 407.1 405.9 404.6 402.4 399.7 396.5 396.2 396.3 396.9 398.7 400.7 404.5 408.8 412.6 417.2 421.6 425.4 429.7 436.1 443.5 450.9 460
333.2 333.2 335.2 337.1 340.6 343.9 346.9 348.2 349.4 351.7 353.5 354.6 356.1 357.1 358 361.5 365.4 369.5 375.7 381.7 388.3 392.6 398 404.7 409.4 416.3 414.2 404.4 395.4 384.9 373.4 364.5 355.4 346.7 336.9 328.7 323.5 315.6 308.8 298.8 296.3 296.5 296.9 294.8 292.3 291.2 291.2 291.1 291.9 293.5 294.1 299.2 305 306.4 311.5 313.8 312.5 316.8 322.8 328.7 334.5 339 340.2 340.9 343.9 350.2 356.1 362.5 368.2 378.2 386.1 394.2 405 415.5 425.5 434.2 439.6 443.2 444.6 409.9 383.1 371.5 360.8 347.7 337 330 322 317.2 316.8 316.9 316.8 316.7 317.4 318.6 321.2 324.3 326.7 329.9 332.2 333.8 335.4 338.2 342.7 347.4 352.8 359.4 366.1 373.4 380 386.9 394.8 401.4 406.8 406.3 403.9 402.4 401.4 398.1 396.9 392.2 389.1 384.1 383.4 381.9 384 386.6 392.8 401.8 411.6 423.5 435.7 444.1 447.7 449.7 446.8 437.1 426.9 412.8 400.1 389 383.3 376.7 372.4 372 373.2 380.5 390.7 402.8 404.4 411.1 408.4 405 402.3 400.9 398.8 395.8 389.9 386 382.1 379.5 379.5 384.1 393.2 399.2 403.5 407.5 410.9 412.8 414.4 416.1 418.3 420.1 423.6 423.8 421.9 417.5 414.3 411.4 408.8 407.4 405.8 403.3 401.5 398.8 397.4 397.6 399.7 401.9 404.8 408.9 412.9 416.5 418.8 423 426.5 430.5 437.8 446 455.6 461.6
335.8 335.3 338.8 343.1 346.2 348 350.1 351.5 351.5 352.7 353.8 355.1 356.5 357.4 361.1 364 366.9 371.3 378.1 384.9 390 394.6 400.3 408.6 412.6 417.6 403.7 391.6 383.9 372.2 361.3 354.1 340.6 332.2 321.5 313.6 312.5 301.7 297.8 296.7 296.6 296.5 294.2 292.2 291.3 292.2 294.1 294.6 296.8 300.2 302.4 306.7 306.3 309.3 313.9 314.5 319.2 325.7 328.6 333.1 339.7 344.2 345.1 346.3 349.4 354.7 360.6 365.7 373.2 380.4 388.8 398.3 409.3 419.9 428.3 435.2 439.7 439.8 430.9 401.7 383 370.2 355.6 344.4 336 327.5 322.1 318 317.5 317.6 317 318.2 319.2 320.2 321.3 324 327.8 330.6 331.4 334 336.1 339 343.7 348.6 354.1 360.5 366.8 373.7 379.3 391 396.6 403.4 407.1 406.5 407.2 411.4 412.3 419.4 417.5 397.6 393 388.4 384.1 385.4 386.5 391.7 396.5 406.3 415.9 428.2 439.8 449.5 453 454.7 451.9 442.1 428.6 412.1 397.2 388.6 385.8 380.8 375 374.6 376.1 382.2 391.3 399.4 404.9 411.2 412 410.2 407 404.4 401.7 397.9 393.6 389.5 384.6 381.8 381.3 385.3 391.8 397.8 403.2 408.4 412.1 414.8 416.3 418.1 421.1 422.2 425 426.3 425.3 422.9 415.5 412.6 409.3 406.9 405.7 404.9 403.4 401.1 400 399.5 402.6 405.6 408.2 412.1 414.9 419.3 422.8 425.4 427 432.1 439.5 450.3 459.6 465.6
339 341.1 345.7 347.8 349.7 352.1 352.3 352.8 353.2 354 354.5 355.4 357.9 360.1 363.6 366.8 370.7 375.3 382.4 388 392.9 397.2 403.5 409.3 413 416.6 388.6 379 370.5 362.3 348.9 342.1 331.2 320.9 312.7 304.1 299.4 297.6 296.8 295 295.1 292.9 292 292 294.7 294.8 296.4 300.1 302.4 306.1 308 308.5 310.6 313.6 316.1 321 324.7 328.9 333.7 338.8 344.4 347.9 350.1 351.6 353.4 358.9 365 370.2 376.7 383.1 390.6 399.4 410.3 419.4 429.4 436.5 441.4 437.8 420 391.8 380.2 366.9 356.3 346.3 336.7 328.9 322 318.2 318.4 319.1 319.4 320.7 321.6 322 322.3 324.7 328.6 331 331.5 333.7 337.1 339.6 344.8 348.8 356.4 363.4 374.1 374.7 380 391.9 396.8 404.5 408.7 410.3 415 427.7 438.1 438.1 427.7 417.6 401.9 393 394.9 390.7 394.1 395.2 404.9 411.7 420.5 431.3 444.3 454.1 458.8 459.8 454.9 443.1 430.9 412.2 399.1 388.4 387.3 381.5 380.7 379.5 381.2 384.9 394.3 401.3 404.1 406.9 411.2 411.7 408.4 405.1 401.1 397.1 393.5 389.7 385.1 382.8 383.6 387 391.9 396.9 402.8 410.4 413.9 417 418.2 420 422.3 423.9 424.8 425 426.3 425.3 418 413.1 409 406.2 404.9 404.7 404.9 404 404.6 402.7 406.1 409.6 412.4 415.1 416.2 421.2 425.1 427.7 428.3 431.5 442.3 451.6 459.8 462.8
345.9 348.3 349.9 351.8 353.3 354.1 354.1 354.5 355 355.4 356.6 359.2 361.8 364.7 367.3 369.7 374.2 380.4 386.7 391 395.4 399.2 403.6 410.6 406.2 390.3 378.7 369.7 356.9 350.5 338.7 328.7 316.3 310.1 306.1 299.6 297.4 295.3 293.8 292.7 292 292 295.3 297.4 299.4 301.9 304.6 305.9 307.2 309.9 313.2 313.3 315.3 317.8 321.3 326.9 330 334.2 339.7 344.6 350.8 354.8 356.5 358.5 361.1 364.9 369.9 374.7 380 386.5 393.5 399.6 411.5 419.8 430.5 438.2 443.5 433.2 411.8 395.8 384.6 366.6 357.1 347.5 338.5 330.4 324.9 321.3 319.1 319.8 321.7 320.8 321.9 323.5 324.3 327.6 329.8 331.8 332.4 332.8 338.1 340.9 345 350.7 358.1 366 375.4 377.9 384.4 389.1 398.2 404.4 410.7 413.8 422.8 440.3 454.4 455.7 436.5 427.3 419 405.3 403.3 399.9 406.2 404.8 409 413.8 424.6 434.8 447.3 458.1 462.7 461.5 453.3 448 435.4 421.4 406.2 394.6 389.4 385.1 383 383.9 386.9 388.8 398.4 399.7 403.3 405.1 405.3 406.5 404.7 401.4 399.1 393.6 390.9 388.5 385.6 383.5 386 389.7 393.7 398.6 404.4 413.1 417.3 420.5 420.5 421.6 422.8 424.6 425 426.3 428 426.3 421.8 415.3 409.7 406.6 405.5 406.6 406.5 410.9 409 407.6 408.4 413.4 414.6 416.3 418.7 422.3 424.4 425 427.3 429.2 437.6 444.4 452.2 457
350.1 351.5 352.9 352.8 355.1 355.5 356 356.3 357 357.9 358.9 362.1 364.5 367.7 370.7 373.9 378.4 384 388.9 394.1 396.2 400.4 401.3 392.5 386 378.1 368.8 356.9 349.1 336.1 327.6 317.9 312 303 297.4 296.6 294 292.8 292.7 294.4 294.3 296.7 302.1 302.9 303.6 307.7 309.2 309.7 311.2 314.1 320 320.4 323 324.1 327.9 332.8 336.4 340.6 346.4 350.7 356.1 360.8 362.7 365.1 366.1 370 375.2 380 384.1 389.9 396.4 402.6 409.7 418.9 427.6 431.5 432.1 417.4 404.2 389.7 382.8 373.7 361.4 348.7 340.2 332.1 326.9 323.6 321.9 321.2 323.6 322.9 324.3 324.7 326.2 328.8 330.7 331.6 331.9 332.6 337.4 342.6 345.7 352.5 361.6 369.5 373.4 380 386 392.2 400.8 407.3 411.3 416.4 424.8 445.6 462.7 468.5 464.1 447.2 429.5 415.2 408.4 409.3 409.4 410.4 414.8 419.5 425.2 438.5 448.3 457.9 467.5 466.8 456.8 450.3 440.3 429 415.9 403 393.8 386.1 384.9 387.9 390.8 393.7 397.3 400.9 402.1 403.6 403 401.4 399.4 397.7 396.4 393.2 389.9 387.5 385.3 385.4 389.1 393 396.9 401.1 406.9 413.7 420.9 422.9 423.2 423.7 424.4 426.5 426.5 427.2 429.1 427 423.7 416.5 410.9 407.3 406.1 406.5 407 407.3 409.5 409.7 409.5 412.7 412.6 417.2 418.1 421.5 421.7 420.7 423.1 425.4 429.9 434.1 440.9 446.6
353.7 352.8 353 355.6 356.7 356.7 357.8 358.4 359.7 360.5 362.4 365 367.1 370.4 373.4 378.7 382.5 387.2 392.5 393.5 398.6 404.4 394.5 380.9 374 368.7 354.3 342.9 332.3 318.6 311.9 307.6 299 297.8 294.3 293.8 293.2 296.1 297 295.8 298.8 305.6 304.1 304.8 307.9 309 311.9 312.8 318.1 319.2 324.2 326 328.4 332.7 338.2 342.5 345.1 348.4 352.7 358.2 362.9 365.5 369.3 369.8 372.3 375.3 379.8 383.9 387.7 392.1 398.2 404.2 408.5 414.4 416.5 417.6 415.6 407.3 396.3 386.4 379.6 373.2 362.2 351 343 336 329.6 327.6 325.9 326.3 326.4 324 326.3 327.2 329.4 329.6 330.7 331.4 331.6 333 336.1 341.6 345 352.8 360.9 369.3 374.8 379.7 386 393 401.6 407.9 413.7 414.6 424.5 440.4 464.7 477.3 482.3 473.8 453.6 432.2 422.4 420.2 426.8 426.3 429.2 434 433.7 440.9 450.8 456.3 463.7 471.7 462.3 450.6 436.4 421.5 410.5 405.7 400 394.5 390.9 391.1 394.1 397.1 402.7 404.7 403.8 402.2 400.8 399.9 397.5 394.9 395 392.6 389.6 386.7 386.8 389.7 392.8 398.4 401.4 405.2 411 413.9 423.3 425.6 426.1 425.8 426.2 428.2 427.6 427.7 428.6 428.8 425.4 417.8 411.6 408 407.3 407.4 407.9 407.4 409 409.9 409.5 409.9 411.3 414.5 416.3 418.9 418.3 415.4 418.2 420.3 420.8 423.5 430.1 436.4
354.7 355.3 356.8 358 358.4 358.8 359.2 360.7 362.3 363.9 365.7 367.9 369.4 372.7 377.8 381.7 385.5 390.2 392.9 398.7 404 399 382.6 378.6 372.1 352.2 340.6 330.6 318.7 302.6 298.9 296.5 295 293.4 293.4 294.4 296.6 297.6 298.2 297 301 305.2 304.2 304.6 308.5 312.9 317.1 320.6 325.5 330 332.2 336 337.8 342.2 347.7 352.4 355 356.9 362.2 365.8 368.4 371 373.1 375.3 376.9 380 383.2 387 390.7 394.8 398.5 402.9 406.2 408.6 408.7 408.1 402 395.8 386.3 378.4 372.2 367.1 356.2 349.9 343.3 339.3 334.4 330 328.2 328.2 329 327.3 326.1 327.8 329.2 329.5 329.7 329.6 330.3 333.1 335.9 341.3 345 353.9 361.3 369 376.7 380.2 386.6 392.8 401.6 408.4 413.5 415.9 422.7 434.7 460.8 478.4 482.5 483.6 476.8 461.6 444.8 443.6 444.4 444.1 444.8 445.6 445.3 444.7 451.3 454.4 455.1 458.8 460.3 450 432.6 420.5 414.3 411.5 405.6 402.1 400.8 399.9 398.7 401.6 403.3 404.9 403.8 402.7 401.4 399.1 396.8 395.6 393.1 392 388.3 388.8 390.1 391.7 395.8 400.8 405.8 411.5 415.8 420.8 422.3 429.1 429.6 427.7 428.8 429.7 429.3 427.5 427.1 426.6 425.1 418.8 410.8 408.5 407.9 407.8 408.1 408.4 408.8 411.2 410.5 409.9 410.1 413.5 414.6 412.6 411.2 410 410.1 410.6 416.1 415.7 418.4 424.5
354.5 357.7 362 362.7 363.5 365 364.5 364.3 365.6 365.6 367.2 369.2 372 376.1 381.4 385.3 388.5 392.5 399.3 405.2 410.3 387.5 376.2 370.7 361.6 341.2 328 316.5 300.9 294 293.5 293.7 295 296.4 298 300.3 299 298.6 298.7 298.1 306.1 306 304.6 308 312.5 318.5 322.5 327 332.2 335.2 336.8 340.7 344.7 349.2 354.8 358.7 362 365.7 369.3 372 374.7 377.2 378.9 380.8 381.9 384.2 387.2 389 391.7 394.4 395.9 398.5 399.7 400.9 400.7 397.8 390.1 381.2 374.7 370.1 364.8 361.3 352.7 348.2 343.1 340.3 337.4 333 332 331.5 332.6 328.5 326.8 327 329.3 329.9 330.3 330.3 330.3 333.2 336.2 341.2 345.5 352.4 361.6 367.9 374.7 380.3 386.2 392.1 400.9 408.3 414.3 418.7 422.4 433.9 457.8 476.6 492.6 493 487 483.6 462.3 460.6 464.1 465.4 461.9 458.2 453.1 451.4 449.1 448.2 450.8 452.8 449.4 444.2 432.1 419.9 416.1 413.6 409.2 406.6 406.7 406.3 405 402.7 403.5 405 403.8 403.1 401.8 400.7 398.6 396.2 392.5 390.3 390.3 390.4 392.4 395.1 398.8 403.9 408.6 417.4 422 424.2 427.1 430.5 431.7 430.6 431.3 432.3 431.3 428.3 426.7 426.7 423.2 416.5 410.1 408.9 408.5 408.1 407.1 407.9 408.7 409.9 411.7 409.5 409 409 408.6 409.7 408.7 404.8 403.3 405.6 406.8 409.3 410.5 416.2
364 368.2 370.6 373.9 377.7 375.8 375.4 374.2 371.4 371.5 371.3 371.9 376.2 379.5 385 389.2 393.3 399 406.2 411.2 397.4 378.2 372.7 362.1 347.1 330.9 316.7 301.2 295.1 296.2 297.2 297.9 300.6 302.2 301.7 299.8 299.2 298.1 297.8 298.6 305.7 304.9 308.1 312.1 316.1 321 326.8 332.3 336.7 341 344.7 349.4 350.5 355.6 360 365 368.4 371.7 375.3 378.5 381.3 382.9 383.9 385 385.7 387.8 388.8 389.6 390.1 391 391.5 392.2 393.3 395.8 391.7 384.7 378.4 371.8 365.8 362.5 360 356.7 350.6 345.2 342.6 341.4 338.6 335.4 332.7 331.6 330.7 330.1 329.6 327.3 327.8 330.4 330.9 331 331.3 333 337.4 341.2 345.9 351.4 359.3 365.5 371.1 377.4 382.8 389.6 398.3 406.9 414 420.2 424.5 435 458.9 478.1 487.8 492.9 496.6 496.9 480.8 484.8 487.5 485.9 480 469.8 465.5 457.1 451.2 448.9 447.5 448.5 444.5 436.6 430.4 423.5 417.6 415.7 415.5 414.8 412.9 408.8 406.9 406 404.7 406.2 405.6 403.8 402.8 401.2 398.9 396 394 392.8 390.9 392.8 396.1 399.6 402.6 407 410.7 417.4 424.5 428.1 430.1 431.5 433.7 433.2 433.8 433.8 432.6 430 428.3 427.4 423.4 417.3 412.7 409.2 409 408.2 406.5 405.1 407.2 409.2 411 408.7 406.1 404.2 403.6 403.9 402 400.1 397.8 397 397.1 402 403.6 407.6
379.4 382.6 383.6 387.3 387.6 386.8 383 382.8 382.5 381.8 379.6 379.2 381.9 384.6 389.8 394.5 401.3 404.5 407.4 405.4 389.9 373.8 365.4 355.6 336.7 321.3 304.9 295.4 296.9 298.8 303 304.3 303.6 303.1 302.3 300.8 299 298.3 299.3 302.6 305.2 309.4 311.9 316.8 322.3 330.4 335.2 337.9 341.4 347 351 353.4 357.9 361.8 365 370 374.9 378.6 382.1 384.8 386.7 387.8 388.8 388.3 388.5 389.2 388.6 388.2 386.4 386.4 386.2 385.4 385.8 388.1 382.6 374.9 369.9 366.7 360.6 359.1 354.8 352.4 348.3 345.4 344 341.7 337.9 334.4 333.3 332.7 332.2 331.3 330.8 328.2 327.7 330 331.5 331.9 332.5 333.9 338.4 342.5 348.5 351.7 359 364.1 369.7 375.9 381.4 386.7 394.1 405.6 413.8 421.1 427.2 439.1 461.2 479.7 491.7 496.3 496.2 494 498 507 507.5 505.7 500.1 491.2 485.7 476.1 459.9 454.1 448 445.3 442.9 436.9 430.9 426.3 424.1 422 419.4 417.9 416.2 411.3 409 408.6 408 405.8 404.9 403.4 400.8 398.8 396.8 395.2 393.7 393.1 394 396.4 399.2 402 407.5 411.3 414.7 420.7 425.1 430.2 433.4 435.2 436.4 436.8 436.9 436.5 436.7 433.2 432.6 428.7 425.7 420 414.4 410.1 408.4 407.8 406.6 405.2 405.5 405.9 407.1 404.8 400.8 398.9 395.5 394.8 393.7 391 390.5 390 390.3 392.2 396.6 400.2
390.3 393.9 397.2 398.6 406.7 407.8 401.5 398.4 396.1 393.3 391.7 389.9 390.7 392.9 396.4 401.3 406.2 408.7 410.4 402.5 384.9 371.9 354.2 340.8 326 312 299.4 295.4 298.7 302.4 303.2 304.7 304.5 303.7 302.5 301.2 299.4 298.9 299.8 307 306.6 311.1 316 323.1 330.4 337.5 341 344.3 346.9 351.4 354.6 357.7 361.8 367 371.1 375.8 380.5 384.6 387.2 389.2 390.4 390.6 390.4 391.3 390.4 388.6 386.8 386.6 384.5 383.6 381.6 377.8 377 376.2 370.8 366.8 362.2 360 357.6 356.5 353 350.8 348.7 344.2 341.1 339.1 336.7 335.3 334.7 334.2 333.6 332.3 331.8 330.9 331.3 329 330.1 331.7 334 334.5 338.8 342.9 348.2 352.3 357.1 362.1 368.1 373.6 379.9 384.3 392.4 404.9 411.9 422.3 430.5 441.5 461.7 477.3 485.5 495 501.7 503.6 509.8 515.9 517.8 517.1 513.4 507.5 502.1 490.1 471.7 460.3 453.3 447.3 443.5 438.6 435 430.2 427.9 424.4 424.3 423.9 420.9 414.7 413.5 411.6 410.1 407.9 405.4 403.8 402.8 400.6 398.4 395.8 395.7 397 398.1 400.2 403.6 407 407.8 414 417.9 423.7 427.9 432.2 434.6 438 438 439.8 438.8 438.3 439 436.8 435.7 431.8 430.3 426.4 417.5 411.9 409.1 407.9 406.4 404.9 404.3 403.9 401.4 399 395.8 392.6 392.6 390.4 386 385.5 382.2 384.2 383.5 385.2 388.9 391.8
406.6 405.6 408.2 414.1 421.7 426.8 425.3 423.8 419 418 412.2 408 404.1 405 405.9 410.5 413.8 415.8 418.2 411.8 384.4 365.1 347.3 331.7 318.8 305.9 298.7 296 301.3 304.3 304.5 305 304.1 302.6 301.4 300.7 299.4 299.5 305.9 307.6 310.5 314.5 317.9 328.6 334.9 342.1 344.7 349.4 352.3 355.9 358.6 362.7 367 372.2 376.4 381.2 385.3 388.1 390.5 391.1 391.3 390.3 390 389.1 387.9 386.5 383.9 384.5 381.3 378.9 373.9 372.5 369.4 366.3 367.1 360.7 359.2 358.5 356.1 353.9 350.6 347.4 345 342.2 340.5 338.9 337.4 337.5 336.3 336 335.1 335.2 335.3 335.5 336.2 336.4 335.8 336.5 334.9 336.4 338 346.3 350.1 353.7 356.4 360.8 366.4 372.1 379.1 384.9 391.4 403.9 414.4 422.2 431.6 442 455.8 468.3 480.8 489.7 498.6 506.1 518.9 526.3 528.6 524.9 522.3 520.2 514 507.4 493.3 477.9 466.7 454.7 445.5 443.5 441 438.8 436 434.6 434.1 431.7 425.8 423.1 420 416.3 413.8 409.6 407.8 405.8 403.5 400.5 399.4 398.8 399.1 400.4 401.9 404.3 407.4 410.1 411.7 415.8 420.6 425.2 430.5 434.3 438.3 439.7 439.9 442 442.8 441.3 440.2 438.8 439 436.5 435 430.6 422.8 416.3 412 408.8 406.6 405 402.7 400.1 397.7 394 392 387.6 384.9 382.4 380.9 380.2 376 374.7 376.1 378.1 381.4 385.2
431.4 433.8 428.8 433.6 440.6 449.1 455.5 454.8 453.9 456.2 448.9 434.9 425 420.1 421.5 425.5 426.6 425.3 428.2 406.2 383.3 360.8 344.2 325.5 318.7 300.1 300.3 296.4 303.5 305.8 305.3 304.1 303.5 301.4 300.7 300.3 299.8 303.3 308.7 311.5 313.2 315.7 324.4 338.5 342.4 344.2 349.7 351.2 354.2 358.2 362.2 366.2 371.7 375.1 380.7 384.2 386.8 389.3 390.5 388.9 389.5 389.1 387.4 385.4 383.7 382 380.2 378.9 377 373.3 369.2 367.5 363.3 363.8 360.3 357.6 357.2 353.9 352.8 349.4 347.4 346 343.9 341.9 340.7 340.3 339.6 339.7 339.9 339.8 339.5 340 340.1 339.4 339.8 338.3 339.4 340.9 338.1 336.8 340 346.1 350.9 355.3 357.7 360.9 366.7 372.9 380.1 385.6 392.2 403.3 413.6 423.5 430.5 440.1 453 463.8 476 486.1 494.1 509.7 526.3 533.7 536.9 529.5 526.7 526.9 522 520.5 513.5 495.8 477 465.3 459.9 448.8 444.9 444.8 444 442.5 442.1 436.5 433 428.4 423.8 420.8 417.7 413.9 411.1 408.7 407 405.5 403.5 402 402.5 403.7 405 407.8 411 413.1 414.5 417 421.6 428.1 432.7 436.8 439.9 442.9 444 446.7 446.9 445.6 444 443.3 444.2 441.6 440.7 436 428.1 421 416.5 412.7 409.8 407.3 406 404 400 395.3 391.3 387.3 380.7 378.1 376 373.7 371.8 370.8 371.6 373.5 376.9 379.9
463.8 470 466.8 469.2 472.7 484.1 489.2 491.8 486.4 490.7 486.9 468.3 451.1 442.6 443.6 443.8 440.9 442.4 418.3 398.1 379.3 361 343.3 325.9 315.7 300 299.2 296.7 305.4 305.8 305.9 303.4 302 300.8 300.5 300.7 304.3 309.5 311.9 312.6 315.4 319.7 328.5 341.7 346.9 346.7 352.7 357 358.8 361.7 365.8 370.9 374.6 377.2 380.6 383.3 386 388 387.8 385.6 385.4 384.6 383.8 382 380.4 377.5 375.3 373.8 372.9 369.7 365.7 362.8 361.7 360 357.6 357.3 353.7 351.8 349.8 348.8 347.6 345.7 346.2 345.3 344.9 344 342.9 344 346.5 345 345.5 346 344.5 344 343.6 343.8 344.7 344.3 346.4 337.8 342.3 349.4 352.6 356.5 359.1 362.2 367.3 374.3 382 386.8 395.6 405.7 414.6 423.5 432.7 439.7 449.6 462 472.8 482.8 493.3 513.8 529 540.2 545.2 536.4 528.7 529 531.9 533 530.1 523.2 498.6 483.7 471.6 461.1 453.6 451.4 450.5 446.7 447.5 440.1 437.4 435.7 429.9 425.4 423.2 419.4 416.2 413 411.2 410.8 408.7 406.6 406.7 407.5 408.8 411.5 414.6 416.5 419 419.7 421.4 425.2 433.5 441.1 444.8 446.2 448.2 452 453.5 452.9 450.4 448.8 449.4 447.6 445.7 443.5 433.8 427.4 422.5 417.8 414.3 414 415.5 413.8 407.9 402.1 394.4 389.6 384 379 375.4 372.4 369.9 367.8 365.8 370.2 372.9 376.6
470 480.6 484.7 488.2 500.1 517.2 519.7 515.6 507.1 504.3 502.3 486.4 485.4 479.3 472.6 459.8 463.2 459.2 417 395.1 378 359.5 340.8 325.8 314.9 301.1 297.2 297.5 304.7 305.5 305.1 303.5 301.5 300.9 301.2 307.4 311.3 312.2 321.2 328.8 327.1 326.2 334 345.2 348.6 352.3 355.5 359.7 362.2 366.1 368.3 372.8 375.5 376.4 378.6 379.9 381.4 381.2 381.5 380.5 379.6 381.1 380.7 379.8 376.7 374 372.1 370.8 368 367.1 362.7 360.8 358.7 357.6 356.5 354.9 352.9 351.2 350.6 350.8 350.1 349.8 349 348.8 349 349.1 345.6 350.3 351.2 351.5 351 350.9 349.6 348 349.3 349.6 349.2 348.9 347.8 345.9 341.8 351.9 354.9 357.6 360.7 364.7 367.7 374.8 382.6 389.3 397 405 414.3 423 431.3 438.9 447.1 458.6 469.6 482.6 496.7 513.2 529.6 542.6 549.7 540.5 533.9 537 537.1 537.3 537.4 537.4 531.5 508.4 496 482.6 467.7 457.2 453.8 449.9 449.5 447 439.4 439.3 434.8 429.6 427.4 422.5 419.8 417.2 416.2 414.5 412.2 411 411.3 413.8 413.2 416 418 420.5 423.1 425.7 427.4 430.4 434.1 442.5 448.5 452.2 452.3 455.9 458.8 458.4 459 456 454 455.7 450.4 448.2 440 432.6 428 423.4 419.4 421.4 422.5 420.3 411.7 406 399.9 393.2 387.1 381.8 377.3 374.1 371.3 368.5 366.2 366.5 369.7 372.1
478.7 487.4 494.4 509.6 524.9 535.7 539.6 536.2 520.9 510.4 512.3 507 504.5 493 477.6 475.6 478.6 449.9 412.1 396.6 380.4 360.8 341.9 324.4 314.3 302.2 297.3 298.3 305.9 305.4 304.3 301.1 301.8 301.8 307.1 316.8 316.2 320 325 330.9 332.9 333.8 336.8 346.1 348.9 352.3 356.7 360.9 364.6 366.6 368 371.1 373.4 374.7 374.5 374.7 375.3 374.6 373.7 372.8 374.1 376.1 376.2 373 371.6 369.4 369.3 367.4 365.3 364.5 361.7 359 358 357.5 355.7 354.2 353.9 354.9 354.8 353.1 353.9 354 353.6 352.8 353.7 351.8 352 355.2 356.6 356.9 356.9 355.4 354.9 352.9 353 352.9 350.9 351 350.6 352.5 345.7 352.3 356.1 359 362.8 368 373.9 375.8 382.3 391.2 397.9 405.7 414.3 422.8 430.2 437.8 444.8 455.1 469.6 484.7 498.3 511.4 528.8 542 550.6 542.4 542.3 545 546.5 544.6 547.5 550.3 551.4 535.1 520.1 502.5 483.7 468.7 460.7 454.9 450.1 444 439.7 437.4 435.4 430.6 428.3 425 422.5 420.7 420.1 419 417.9 415.3 416.6 418.3 418.8 419.2 421.5 423.5 425.5 427.7 430.2 431.8 433.3 442.3 447.9 452.4 454.5 456.3 461.8 466.5 467.6 463.8 459.3 462.1 459 453.2 445 437.5 435.2 429.4 426.3 426.6 426.4 423.9 416.8 410.7 402.5 394.5 388.1 383.1 378.3 373.6 370 367.2 361.8 364.2 368.3 370.6
482.4 492.7 508.8 523.7 536.7 546.3 550.7 548.4 544 523.7 517.6 516.8 506.7 495.8 492 490.9 465.8 435.5 413.7 404.9 388.3 371.3 351.5 327.6 314 305.4 298.3 298.3 306.8 307.5 305.2 302.9 304.2 304 319.5 319.5 322.6 321.2 324.3 326.7 329.7 335.1 341.4 349.2 351 353.4 356.9 360.6 364.9 365.9 366 368.7 369.8 371 370.9 370 369.5 368.8 367.3 367.4 367.5 369.3 369.1 368.3 368 367.3 366.5 363.3 361.6 361 360.1 359.2 358.9 357.6 356.1 356.2 357.2 357 357.4 357 357.7 357.6 356.9 358.3 355.4 356.5 356.4 359.7 362.6 362.8 361.3 359.2 357.8 357.8 357.5 356.1 353.9 354.4 353.9 352.1 345.9 352.8 358.5 362.3 367.9 374.1 379.7 381.8 383.8 391.5 398.6 406.5 413.1 421.2 429 437.3 443.5 454.6 466.1 481.3 495.2 511.2 527.4 541 551.2 547.3 546.2 547.5 547.6 550.6 555.8 559.1 559.5 553.7 538.1 518 506.5 487.3 468.6 460.2 454.2 447.2 439.8 436.3 431.1 428.8 428.7 427.5 425.7 424 424.4 423.6 424.1 422.2 422.2 423.4 423.8 423.5 424.5 426.5 427.9 429.9 432.1 432.6 434.4 439.4 446 450.6 454.1 456 460.1 465.6 469.2 468.9 466.5 465.5 465 461.5 454.1 445.9 439.4 433.7 431.3 431.1 431.1 429.7 420.4 410.6 403.9 395.4 388.1 381.8 376.5 371.5 368.7 365.9 364.1 358.3 364.7 366.4
483.1 499.1 514 527.3 538.7 552.5 557.5 556.5 554.2 537.1 520.4 514.1 510.4 514.8 498.4 481.4 462.1 445.1 437.3 420.2 402 380.3 355.2 332 320.1 310.1 299.3 297.8 307 309.7 305.6 304.9 307 310 309.5 316.2 320.3 325.8 326.8 327.6 330.9 335.1 343.3 349.5 352.6 354.3 356.3 360.1 363.6 364.3 364.7 365.3 366.1 366 365.2 365 363.6 363.1 361.9 360.8 362 364.2 365.1 364.7 363.2 363 362.9 362.3 362.1 361 361.4 361.2 361.2 361.2 359.3 359.5 360.3 363.1 362.3 362.7 361.2 362 363.1 361.1 361.3 359.9 360.4 362.2 364.9 366.8 364.8 363.2 360.8 360.8 360.7 358.6 357.6 356.7 355.6 354.3 354.9 347.9 360.3 366.1 371.2 377.4 381 384.9 390.1 394.2 399.4 406.3 413.8 422.1 429 436.5 442.9 450.5 462.1 476.6 491.3 508.8 524.7 539.2 550.4 547.8 547.3 548.1 548.1 552.8 553.5 559.1 564.4 561.1 551.5 538.5 531.8 507.5 487.6 468.2 460.6 453 444.1 439 432.1 429.2 429.4 430.8 429.6 429.2 429.5 427.5 426.7 429.8 427.8 428.3 428.3 428.3 428.3 429.3 430.6 431.9 433.1 433.6 435.7 438.8 443 447.1 451 456.1 458.9 462.8 468.3 472.8 471.5 469.8 466 463.2 458.7 454.4 447.7 440.5 436.4 431.9 429.7 424.3 418.3 410.6 402.1 394.2 387.1 379.6 374.2 370.4 367.5 364.6 362.7 356.2 361.9 361.4
482.6 495.2 510.1 526.1 537.9 551.5 559.6 559.5 553.4 542.1 522.1 515 517.1 518.8 499.7 479.5 463.8 461 449.5 444.3 419.5 375.5 350.6 331 321.6 313.5 300.3 297.8 308.4 311.4 304.6 308.1 314.1 315.2 318.7 313.7 318.7 328.6 331.3 330.4 333.1 336.4 343.2 347.9 349.9 350.9 353.3 357.3 361.2 361.3 362.2 362.5 362.4 361.2 360.8 360.1 359.1 358.4 358.2 357.9 357.9 358.7 360 361.4 361.5 362.5 363 363.2 363.4 364.1 362.8 363 363.8 364 364.4 364.8 368.5 366.8 367.3 367.6 367.6 368.6 367.8 365.8 364.9 363.9 363.5 364.3 366.3 367.9 366.2 365.2 364.3 362.4 360.6 359.6 358.9 358.2 357.2 358 358.8 349 360.1 366.8 374.3 379.7 384.5 386.8 391.6 396.4 401.6 407.3 414.7 423.5 429.5 436.5 442.7 449.1 458.7 472.8 488.2 505.7 522.8 536.4 546.2 554.2 557 549.1 550.3 550.7 552 553.4 561.1 566.4 563.3 556.6 547.8 527.4 508.1 486.2 470.4 459.5 452 444.9 437.4 432.1 430.6 433.6 434 435 432.7 434.7 434.2 435.6 434.2 433.5 433.1 433.7 433.1 431.9 432.3 432.9 433.7 434.5 436.4 439.3 441.9 444.9 448.6 454.1 458.3 461.2 465.7 468.5 471.5 471.7 467.1 465.6 462.9 459.3 454.2 446.7 440 435.4 429.5 423.1 416.3 407.5 399.8 391.4 384.2 377.7 373.6 368.3 365.2 362.5 359.5 355.4 356.6 357.3
