ncols 200
nrows 82
xllcorner 400000
yllcorner 351850
cellsize 50
251.3 235.1 225.6 219.9 213 206.7 210.7 215.6 224.5 232.5 237.5 240.5 242.2 242.7 242.8 243.7 246.4 249.1 251.9 254.1 258.4 264.1 273.4 280.9 283.8 284.5 283.6 281.5 278.4 274 271.2 271.3 271.8 271.8 274.8 279.3 286 294.5 304.4 311.5 320.8 326.5 330.9 335.6 339.3 343.2 347.2 350.6 358.5 370.8 379.1 387 394.3 399 401.1 399.5 389.6 381.7 375.8 369.1 360.3 354.2 348.7 342.5 337.3 334.5 330.6 325.5 318.6 312.7 309.8 307.5 308.8 311.1 312.4 309 315.6 319.4 322.9 325.8 327.1 327.6 328.1 327.3 327.8 328.6 328.6 325.2 320.2 314.2 308.1 300.8 294.5 293 304.8 313.7 322.8 330.6 335.9 334.7 331.6 327.1 317.7 306.5 301.2 309.3 310.5 307.2 310.4 318.5 325.6 331.8 333.2 333.7 337 340.5 345.2 349.5 353.3 356.9 358.5 359.4 360.3 360 359.2 358 355.5 352.1 348.2 343.8 338.3 331.5 322.9 316.5 314.6 316.7 317.3 315.4 313.2 308.1 303.1 300.4 300.3 296.9 298.5 299.8 298.3 295.4 298.4 298.8 297.8 296.2 295.2 293.8 291.5 288.8 286.1 283.3 279.8 275.6 267.3 259.3 252.8 244.1 236 238.4 247.1 253.3 260.3 267.7 271.5 271.9 269.7 265.5 260.7 251.7 230.1 214.5 204 220.9 233.4 238.9 241.3 240.1 235.4 231.2 227.7 222.2 218.8 214.2 205.4 194.8 188.9 186 205.1 224.4 207.5 200.2 230.2 259.5
242.7 227.2 220.5 213.6 206.4 209.7 212 217.7 225.7 232.9 237 239.4 240.7 241.7 242.3 243.5 245.7 247.5 249.3 252.4 256.2 261.2 270.4 277.5 281.4 282.1 281.9 281.7 282.2 278.4 273.2 270.5 270.5 270.4 272 276.4 282.1 289.5 300.8 311.5 320.2 325.1 329.4 333.5 337.9 341.8 344.8 348.7 355.2 365.9 374.8 382.8 391.3 397.5 400 399.6 392.7 384.1 376.9 369.6 362.8 351.7 348.4 343 337.4 332.6 327.3 320.4 320.7 324 319.6 309.5 305.1 306.1 307.4 305.6 310.7 314 317.4 320.6 322.4 322 321.5 321.3 321.6 324.7 324.9 322.7 318.3 312.9 306.3 298.7 292 295.2 304.7 312.7 321.2 328.6 331.2 330.7 325.7 319.2 312.9 303.8 299 306.2 306.7 302.4 308.7 316.8 323.5 328 326.6 330.4 333.8 337.2 342.7 346.9 351.5 355.4 358.5 359.9 361.1 360.8 360.1 358.9 356.1 352.9 348.8 344.1 337.4 329.3 321.6 323.6 321.3 321.7 321 319.1 316.1 310.9 306.4 306.1 302.3 303.5 304.7 303.8 301.7 301 303.6 304.1 303.4 301.1 299.9 297.8 295.4 292.6 289.5 286.3 282.2 275.8 267.6 259.5 253.6 252 246.3 234.8 233.7 240 248.9 257.7 263.9 267.5 265.5 262.7 258.4 248.6 228.9 213.8 212.1 234.6 250.5 257.3 263.1 266 263.2 258.4 251.6 243.1 234.5 224.6 212.4 198.3 188.7 183.8 210.8 227.4 210.4 190 222.4 255.4
232.1 222.5 214.2 208.4 206.1 209.8 213.5 218.7 225.6 232.4 235.8 236.8 239.9 241.5 242 243.2 245.7 247.7 249.5 251.2 254.5 258.7 265.6 271.4 276.9 279.1 279.3 280.7 281.7 279.5 276.8 273.2 270.4 269.7 271.1 274.7 279.4 286.7 298.1 309.4 319 324 328.5 332.5 336.4 340.3 344.1 348 353 360.6 372.2 379.8 388.2 394.8 399.2 398.4 392.8 386.4 378.8 371.3 365 355.9 344.4 341.1 336.5 329.1 325 325.7 329.6 330.7 326.8 322 314.9 306.9 305.4 302.4 302.7 304.8 310.4 313.6 316.5 316.9 316.3 316.3 317.5 320.5 322.1 320.7 317.3 311.2 304.6 296.7 290.8 295.6 305.3 313.4 318.1 323 325 325.3 320.7 315.8 308.9 299.6 297.6 301.8 301.2 301.3 310.4 315.1 319.5 322.9 319.9 326.8 330.5 335.7 341.6 346.7 352.9 355.7 359.5 360.8 361.9 361.6 360.8 359.4 356.6 354.2 349.7 343.3 334.5 331.6 331.6 330.1 328.3 326.7 325.8 323.4 319.1 313.4 312.2 308.8 308.6 309.5 310.5 308.8 306.2 306.4 308.8 308.7 306.9 306 304.1 301 297.8 295.4 292 287.1 281.8 273.8 266 265.4 265 261.5 256.1 247.1 235.6 228.5 235.1 246.7 254.1 259.1 259.2 257.5 254.9 248.9 230 210.9 221.8 249.1 269.8 278.9 279 284.4 285.6 284.6 274.4 260 247.7 234.2 219.4 200.5 186.9 185.8 205.9 215 205.7 195.6 226.1 257.3
223 215.7 208.4 204.9 207.6 213.9 218.6 223.2 227.8 230.6 232.5 236.2 239.3 243 242.6 242.4 245.1 247.8 249.6 251.2 253.5 257.5 263.1 267.5 271.7 275.8 276.5 278.2 280.8 281.5 280.6 277.3 272.2 269.4 270.6 273.1 277.3 283.4 293.4 305.2 316.1 322.9 326.6 330.2 334.7 337.7 342.3 346.5 351.5 357.8 367.7 377.2 384.7 391.5 398.8 397.7 394.2 387 379.7 371.3 368.7 362.7 356.1 345.7 334.7 337.2 332.7 329.6 330.2 327.8 326 320 320 320.4 316.6 309.5 304.3 300.7 301.1 304.4 308.2 311.7 311.3 311.3 312.8 314.7 317.8 317.3 315.2 310.2 303.6 295.5 288.8 295.4 304.2 310.9 315.8 317.4 318.3 319 316 310.6 304.1 298.6 293.9 296.8 295.4 300.9 308 311.6 314.1 317.1 317.6 323.2 328.9 335.1 341 348.2 354.2 357.9 360.6 361.6 362.7 362.3 361.7 359.8 357.4 355 350.5 342.4 341.2 340.1 338.8 336.6 334.3 331.1 331 327.2 322.5 319.1 318.4 314.8 315.2 315.1 315.7 313.5 310.4 312.1 313.7 313 311.4 309.7 306.8 302.8 298.4 293.7 289.5 284.7 278.8 273.6 275.7 276.9 274 269.7 265.4 257 246.3 239.1 227.5 233.4 244 251.3 251.6 249.9 249.3 243.4 224.4 207.8 235.8 262.8 288.2 293.8 292.6 295.4 298.4 300.8 290.3 271.9 256.7 245.3 233.8 211 185.9 185.3 191.8 198.4 192 199.6 226.3 259.5
219.8 208.7 212.9 205.6 215.3 223 225.3 228.5 231.5 232.9 234.8 236.8 238.6 243 242.5 241.9 243.6 246.7 249.1 250.8 252.9 256.4 261.3 265.9 270 273.1 275.7 278.7 281.2 283.4 283.6 279.9 274.5 269.3 269.3 271.1 276.1 282 290.5 303.1 313.5 320 324.3 329 332.9 337.2 341.1 345.2 350.2 355.2 361.9 372.2 381.4 389 396.2 396.6 394.6 388.9 383.6 377.8 373.1 367.6 360.8 349.6 345.7 341.6 338.3 334.8 332.4 328.3 323.8 322.9 324.1 324.5 321.9 314.4 313.6 309.3 301.6 298.1 299 303.3 305.8 304.4 306.6 309.5 312.6 312.4 311.9 309.2 303 294.2 289.5 291.4 299 305.9 309.2 310.6 311.9 311 310 307.1 302 296.6 291 292.8 296.3 298.5 304.3 306.9 308.7 307.8 316.1 322.2 327.7 334.1 341.8 348.2 355.6 359.1 361.3 362.2 363.4 362.9 362.5 360.6 358.3 356 353.9 350.8 347.7 345.8 344.4 342.1 340.7 336.7 336.5 332 326.9 325.9 324.8 320 321.1 321.2 320.6 318.6 316.6 319.7 317.8 316.4 314.8 312.6 307.4 302.2 297.2 292.8 288.4 284.9 283.6 284.4 284.8 283.2 280.5 275.9 271 265.5 257.1 247.2 238.1 229 233.2 241.8 243.9 240.5 239.2 229 212.4 225.2 250.6 273.2 296.6 305 303.1 302.2 305.7 306.7 299.6 280 264.9 257.9 254.5 232 195 183.8 184.9 185.5 184.6 193.8 213.6 233.7
210.8 201.2 202.4 213.3 220.1 227.7 229.8 231.5 231.4 232.6 234.6 236.5 237.8 240.1 240.7 241 242.8 245.5 248.2 250.2 252.7 255.9 260.2 264 268.1 271.6 274.7 277.8 281.1 283 284.6 281.4 276.5 270.3 268.1 269.9 273.7 280.2 288.2 296.8 308.1 316.8 323.1 326.9 331.3 335.9 339.8 343.5 348.2 353 358.2 367.3 377.7 385.6 392.5 395.6 396.3 392.3 387 382 376.6 371 365.1 358.2 353.6 348.8 343.4 339.8 335.4 330.8 328.6 327.6 325.3 324.8 322.7 317.4 319.5 316.8 310.6 308.8 299.9 297.6 295.6 295.7 297.3 299.8 303.6 305.8 305.8 305.1 301 294.6 287.9 287.6 293.4 299.6 303.3 305.2 305.7 307.1 306.3 302.5 298.6 294.7 289.3 292.4 293.9 296.3 299.9 301.1 301.3 309.1 313.8 319.9 326.3 333.2 341.2 349.1 355.9 359.6 362 362.9 363.3 363.3 362.8 362 359.7 358.2 357.6 356.1 352.9 351.6 350.4 346.7 344.7 342.9 341.5 337.2 332.7 333.6 330.5 326.9 327.6 327 325.6 323.6 321.6 323.7 322.7 320.8 318.2 314.3 308.5 303.4 301 297.2 293.2 290.6 291.5 290.9 289.2 287.1 284 279.7 274.8 269 261.8 252.8 243.3 232.7 222.6 231.2 235.5 231.8 224.7 215.5 220.9 244.4 264.8 284.2 301.4 311.8 310.2 308.6 311 312.5 306.4 287.5 272.5 266.8 261.6 234.9 218.5 201.5 190.7 184.6 182.9 182.2 195.3 207.1
202.9 200.7 205 211.5 219.1 227.8 230.7 230.6 231.2 232.4 234.4 235.8 237.1 237.9 239.1 240.7 242.3 244.4 247 249.6 252.5 255.7 259 262.8 267.8 271.4 274.8 277.6 279.9 282.3 283.6 282.9 277.4 271.5 267.8 269.3 273.9 279.4 285 293 305.5 314.8 321.7 325.8 329.9 334.6 338.4 342.1 346.4 351.2 355.8 363.5 373.9 382.3 388.2 395.1 398.9 395 390 385 379.7 374 368.8 363.9 359.1 353.9 349.1 343.7 339 334.7 333.2 332 328 325.7 323.3 321.9 321 319.8 318.9 317.3 314.7 312.3 303.2 298.4 292.5 292.7 295.8 298.4 299.2 298.3 295.7 293.1 289.4 285.4 287.8 292.7 296.4 299.8 301.1 302.7 301.7 297.9 294 291.2 287.2 289.9 292 294.6 294.5 299.5 301.4 307.7 311.2 318.5 324.2 332.3 340.6 349.3 355.6 359.7 360.1 361.3 362.9 363.4 363 361.9 361.2 359.7 360.7 360.5 358.7 357.8 355.9 352.4 350.8 349.4 346.8 342.4 338.7 339.3 335.4 333.3 333.8 333.1 331.1 327.4 327.1 328 326.3 324.6 321.3 317.5 311.3 307.5 304 300.6 297.6 297 295.3 292.3 289.7 286.4 282.9 279.2 274.7 269.4 262.3 254.3 245.1 236.7 227.4 219.9 224.6 223.6 216.2 218.8 240 259.3 277.3 291.2 304.8 315.7 315.4 313.5 315.1 316.2 310.8 294.2 279 276 257.2 232.2 223.6 220 211.1 194.6 186.8 183.3 192.1 211.7
199 201.6 209.2 215.5 221.1 221.9 228.6 229 231.1 232.2 233.8 235.1 236.5 237.3 238.6 239.9 241.7 243.8 247.1 249.6 252.4 255.3 258.2 262.2 268.1 273.3 275.3 276.9 278.8 281.2 282.6 283.2 279 273.1 267 268.3 272.4 277.3 282.8 289.1 298.6 311.3 319.4 324.8 328.8 333 337 340.7 344.6 348.6 353.5 361.5 372.1 378.4 385.6 392.7 398.9 399.6 393.3 389.2 383.4 379.1 372.9 367.6 362.2 357.5 351.9 347.4 343.5 339 336 333.6 330.7 328.2 325.2 323.7 322 321.1 322.1 322.1 320.6 318.6 314.6 309.8 304.4 297.8 291.8 290.3 292.3 291.6 290.8 287.9 287.4 285.3 285.1 286.5 291.3 294.5 296.2 297.8 296.8 293.2 289.4 288.5 285.4 288.4 291.6 293.8 295.3 298.7 302.9 309.2 314.9 319.5 326.4 331.8 339 347.9 354.4 357.4 357 359.4 361.8 362 362.8 362.5 362.1 362.7 363.5 365 365.2 363 360.7 357.8 357.5 354.5 352.2 348 345.5 344.3 341.2 341.3 341 338.8 336.1 331.1 333 332.2 330.5 328.1 323.7 319.1 315.9 312.6 308.7 304.7 302.6 300.3 297.4 291.9 287.5 278.1 276.8 274.3 270.5 266.6 259.1 251.2 242.8 234.3 226.8 220.1 217.5 215.8 216.9 234.3 253.9 270.8 283.1 294.7 306.8 317.2 319.6 318.4 319.1 317.4 312.6 297.4 281.8 278.9 259.7 234.9 221.3 213.2 203.4 193.1 183.8 182.6 201.3 228.5
199.4 204.8 212.2 216.9 222.1 224.1 224.4 228.1 230 231.8 233.1 234.4 235.6 237 238.3 239.5 240.8 242.1 245 248 251.3 254.4 257.5 262.4 269.7 272.9 273.7 275.3 276.9 279.2 281.4 282.7 280.7 273.6 267.8 267.8 271.5 276 281.2 286.6 294.4 307.2 316.3 323.5 327.9 332.5 336.4 340 343.1 346.6 352.4 360 368.4 376.2 383.4 390.7 397 401.2 398.8 391.9 386.9 381.2 376.1 370.9 365.8 359.9 353.5 349.2 345.7 342.7 338.9 335.2 331 328.8 327.4 325 322.7 321.7 322.4 323.2 322.6 320.2 316.6 312.9 308.4 304.3 301.1 296.1 289.7 287.6 286.6 286.1 286.9 284.5 284 283.2 286.7 289.1 291.2 291.8 291 288.5 287.7 286.7 283.6 285.1 288.3 294.2 298.5 302.4 306.3 311.2 316 320.2 325.5 332.1 337.4 344.1 349.8 351.6 354.6 357.5 359.4 361.8 362.1 362 362.3 363.2 364.9 366.9 367.9 366.1 365.4 365.4 363 360.8 357.8 353.7 351.9 350.2 347.6 348.1 347 344.7 340.2 335.5 337.4 336.8 335 331.3 326.6 324 320.8 316.9 312.9 308.9 306.6 302.2 299.3 295.8 290.7 279.6 269.8 263.5 259.6 258 251.8 243.7 235.5 230.5 231.5 230.6 225 229.6 235.1 247 264.3 276 286.2 297 307.2 317.8 323.2 322.4 321.6 318.6 314.3 302.8 284.9 277.2 272.3 243.1 217.3 200.4 190.5 183.7 181.8 192.8 217.1 242
199.9 207.1 214.3 217.6 221 224.1 225.7 226.5 227.9 230.3 230.8 232.3 233.5 235 236.3 237.7 239.1 241.9 243.9 246.4 249.8 253.2 258 264.5 269.7 270.9 272.2 273.5 275 277.1 279.3 281.5 281.4 276 268.1 266.8 268.8 272.8 277.2 282.9 291.6 302 310.5 323.1 328.3 332 335.5 338.4 341.4 344.9 349.5 355.9 365.5 374.1 381 387.9 394.1 399.4 399.8 396.1 388.5 383 377.9 372 366.2 360.3 355.2 351 346.7 342.7 339.6 334.8 329.9 327.9 326 325.4 323 322.2 321.4 321.6 320.6 318.2 313.4 310.2 307 303.7 300.8 297.6 293.1 288.3 286.2 285.9 285.5 284.2 283.3 282.2 282.6 281.6 284.6 286.4 286.1 285 285.2 282.5 286.7 291.7 296.7 302.4 305.9 305.7 306 308.9 314.3 318.6 322.6 327.5 331.7 339 343.8 345.6 349.6 354.4 358.8 361.3 361.7 362.1 362.3 364.3 366.1 368 368.8 369.2 368.5 367.3 367 365.3 362.4 358.3 356.8 355.2 353.6 354.1 352.9 349.6 344.6 340.2 341.7 341.3 338.8 334.5 331.3 328.1 324.4 320.7 316.6 311.8 308.8 304.3 301.8 298.3 287.5 276.7 271.4 267.2 260.8 256.5 252.8 246.9 243.9 242.1 239.5 237.8 231.7 245.7 251.1 258.4 268.8 278.6 288.5 297.2 306.9 317.4 324.1 326.3 324.3 321.1 316.6 308.8 291.8 274.4 264.6 239.9 207.5 184.7 180.7 187.9 197.9 213 231.9 251.3
200.4 207.8 213.6 217.6 220.3 222.5 224 225.2 226.7 227.7 229 229.4 231.4 232.9 234.3 236.8 239.6 242.4 244.1 247.1 250.1 253.9 260 265 268.3 268.5 269.3 271.1 272.8 275.6 277.7 279.9 281.8 278.4 271 266.5 266.2 269.7 274.1 279.3 287.5 299.3 306 318.1 326.2 329.4 332.8 335.7 339.8 344 348.5 353.1 361 370.2 377.6 384.8 391.1 396.6 400.2 397.2 391.3 384.8 379.4 372.5 367.1 359.7 355.7 351.1 344.5 338.1 334.4 332.2 328.6 325.3 321 322.5 321.8 319.4 319.5 317.9 316.1 314.6 311.2 309.2 306.7 302.7 298.7 295 292.4 289.6 287.9 289.3 286 284.7 282 282.5 282.5 281.4 281.3 281.2 281.9 282.2 282.3 284 289.2 293.9 299.9 305.5 308.8 305.6 301.4 304.1 309.6 313.6 315.9 321 326.3 332.4 336.7 339.7 344.9 350.9 356.8 359.6 361 361.2 360.8 362.8 365.7 368.1 369.3 369.8 371.1 370.5 370.4 369 366.1 363.6 361.1 359.5 358.6 360.1 358.5 354.4 349.3 346.4 346.9 344.6 341.5 337.7 335.1 331.4 327.7 324.1 318.7 314.5 310.9 307 303.4 295.8 287 282.3 281.5 280 274.4 267.5 263.9 258.1 255.9 251.3 249.3 242 235.6 249.8 260.1 266.3 273.2 282.7 290.5 298 306 316.2 324.9 330.1 328.7 324.3 318.6 312.8 298.8 279 258 232.2 199.8 179.1 184.3 197.4 210.3 223.7 240.2 257.4
199.7 206 212.3 216 218.9 220.8 221.8 223 223.9 225 226.8 228.1 229.1 231.8 234.5 237.3 240.1 242.7 244.3 247.7 251 256.5 259.9 263.9 266 265.6 267.2 269 270.7 273.8 276.3 278.4 280.5 279.6 272.7 267.2 265.6 266.4 269.8 274.2 282.2 291.8 304 313.8 323.9 329.1 333.3 336.7 340.2 343.4 348 352.9 358.5 365.1 372.6 380.5 388.6 394.5 399.9 398.4 391.9 385.7 380.5 372.1 366.6 359.3 353.7 349.2 344.1 342.3 338.8 333.3 330.1 325.6 320.7 317.3 316.2 316.3 316 314.9 312.3 310.6 309 307 305.1 303 299.3 295.2 291.2 291.6 292.5 293.4 293.2 288.8 287.5 285.9 283.9 282.8 282.1 280.2 281 280.5 281.4 284.9 290 293.3 296.3 299.6 300.4 299.1 296 297.7 300.2 306.8 310.5 314.7 320.8 326.4 330.3 334.4 340.2 347.7 354.4 357.5 359.1 359.3 358.5 361.5 364.5 367 369.1 370.4 369.7 372 372.1 371.7 369.2 367 365.5 363.7 364 365.5 363.2 359.1 353.9 353 351 347.2 343.2 341.1 338.5 334.6 330.7 326.1 321.5 317.4 312 307.5 303.3 295.4 293 292.8 294.7 290.3 285.4 281.2 273.9 267.4 262.7 259.2 256.4 248.1 242.4 253 263.9 271.5 277.4 284.5 291.9 298.6 306.1 313.9 323.4 330.1 331.5 326.3 320.3 314.5 304.4 285.3 259.5 230 196.3 180.5 185.7 199 212.9 223.5 240.8 258.3
198.7 204.8 210.8 214.2 217.1 218.8 219.7 220.4 220.4 221.2 223.4 225.5 229.4 232.7 235.6 238.2 240.7 242.6 244.9 248.2 252.9 256.5 258.2 261.5 262.4 262.8 264.8 266.8 268.6 271.6 274.7 277 278.5 278 273.7 270.4 267 265 266.6 269.6 277.1 282.5 295.2 311.7 320.9 327.6 331.6 334.8 338.5 342.4 347.8 352.6 356.6 361.8 367 374.2 383.8 391.6 398 400 395.7 386.9 382.3 375.3 369.4 364.4 359.5 353.3 347.2 343.2 339.4 335.5 331.8 327.8 322.9 317.1 312.2 309.2 308.2 310 309.2 307.4 305.4 304.2 301.7 299.2 295.9 293.6 294.5 297 298.5 301.3 300.7 296.2 291.7 288 286 285.1 284.4 280.6 279.7 279.7 279.9 283.3 289.5 293.1 291.7 290.6 291.5 291.4 291.3 291.5 293.7 298.9 303.7 309.6 315.5 319.7 323.6 328.8 334.6 344.2 351.4 354.7 356.9 357.7 357.1 360.3 363.3 366 368 370.9 370.9 372.8 373 372.3 370.5 369.6 368.8 367.3 368.3 369.4 367.2 363.3 358.8 357.8 354.7 351.7 347.6 344.5 341.5 337.4 332.1 329.2 323.7 317.4 313.1 308.4 301.2 299.4 299.6 304.4 303.1 299.1 295.7 291.6 284.2 275.8 270.7 265.9 261 250.2 252 256.7 267.4 274.8 280.7 286.2 292.7 298.6 304.5 310.7 318.8 327.6 332.5 328.5 322.4 316.1 307.4 290.9 267.1 239.6 208.2 184 181.5 194.5 208.4 221.4 235.3 250.4
196.8 202.9 209 212.5 214.8 216.2 217 217.3 218.5 220.2 222.4 225.1 229.4 233.6 236.9 238.9 240.8 242.1 244.8 248.5 254.4 256.7 257.4 258.1 259.8 260.8 262.4 264.5 266.5 269.4 272.4 274.8 276 275.9 276.1 277.5 272.1 267.7 264.7 267.3 272.1 277.8 289.9 307.9 315.5 324.2 329.5 333.1 336.6 341.2 346.2 350.9 355 360.2 365.9 373.3 382.3 389.9 396.7 400.3 398 394.1 385.5 379.5 373.7 367.7 363.7 357.9 352.6 347.7 343.2 339.1 334.9 330.3 324.3 322.4 319.1 315.8 312.6 307.5 304.7 302.2 300.9 301.9 298 297.2 297.6 297.5 298.5 302.6 307 306 303.3 299.7 295.3 291.1 288.9 288.1 284.6 281.8 280.8 279.3 279.2 279.5 286.4 288.8 290.6 287.7 287.4 286.6 287.1 288.8 290.9 295.1 299 305.2 309.8 313.3 317.4 322.6 330.9 339.7 348.4 352 354.6 353.7 355.2 358.4 360.9 365 367.5 369.9 372 372.5 372.9 372.5 371.4 371.1 371.1 370.3 371.1 372 370.2 367.1 364.3 362.2 358.9 356.2 352.2 348.6 343.6 339.5 334.7 328.6 325.3 319.4 314.1 307.2 305 306.3 307.4 310.8 308.9 306.8 303.6 297.9 290.7 284.4 279.3 273.3 264.3 257.9 263.8 266.6 272.4 277.3 283.7 288.4 292.3 297.2 301.9 306.7 313.2 321.4 329.5 330.5 323.7 317 308.4 293.9 274.4 253.3 227.3 201.5 177.6 185.4 200.2 215.3 228.7 241.4
194.7 201.1 207.2 210.6 212.6 213.3 213.6 214.3 217.4 219.4 221.3 224.9 229.1 233.4 236.8 238.5 240.4 241.6 244 248.9 254.6 256 256.1 256.6 257.7 259.5 260.5 261.8 263.6 265.9 268.6 271.3 273 275.3 278.2 280.6 279.3 274.4 266.2 265.9 268.9 274.6 284.6 296.7 314.8 323.1 328 331.4 335.4 340.8 344.9 349.2 354.5 359.8 365 371.9 381.7 388.4 393.7 398.5 400 396.6 392.7 384.5 377.7 371.9 367.3 361.8 357.7 352.7 347.4 341.4 336.5 332.6 329.5 325.3 323 318.3 314.6 310.4 310.6 309.4 307.4 305.8 301.3 303.3 301.9 303.8 307.1 309.1 309.1 307.7 305.6 302.6 297.6 293.6 290.5 287.7 284.9 282.7 279.1 278.9 279.1 278.2 282.3 284.4 284.9 284.7 284 284.1 285.1 287.7 289.3 292 296 300.1 303.8 307.5 312.4 318.6 326.7 335.5 344.4 348.9 352.2 351.2 353.2 356.2 358.9 363.2 366.4 368.8 370.1 371.2 372.2 372.1 371.6 372 372.4 372.8 372.9 374.7 372.9 370.6 368.1 365.6 363.5 359.8 356.4 350.7 346 341.6 337.4 333.2 326.6 321.4 315.1 310.7 311.6 312.1 312.5 315.6 315.5 313.4 308.3 302.3 296.5 291 284.9 277.8 269.5 267.6 274.3 274.7 278.1 282 285.6 288.7 291.7 293.8 298.1 302.2 307.8 315.6 325.7 330.2 325.6 316.7 309.1 295 276.9 259.5 239.9 217.7 194.8 177.8 188.6 205.5 219.9 232.2
193.1 199.4 205.4 209.2 209.8 209.9 211.3 213.5 216.3 218.5 220.4 224.4 228.8 232.7 236 238.1 239.9 241.1 243.2 248.9 253.9 254.1 253.7 253.6 254.2 255.4 257 258.6 260.5 263.8 265.2 268.1 270.9 273.8 277 280.1 281.8 280.4 268.3 264.2 266.3 272.8 279.5 289.5 304.2 319.4 325.3 330.3 334.4 338.9 343.8 348.4 354.1 358.6 363 369.4 377.2 382.9 389.1 394.7 398.1 397.9 394.8 390.4 382.5 376.4 371.6 366 360.4 356.9 351.7 344.3 340.6 336.9 335.2 333.1 328.7 323.1 317.5 317.3 314.5 311.7 309.1 308.5 310.3 313.4 313.9 313.7 311.8 309.3 308.2 307.3 305.3 302.3 298 294 289.4 287.1 285.9 283.8 281.7 280.8 279.4 277.9 279.5 278.8 279.8 281 280.6 281.3 283.1 285.4 287.8 290.6 293.4 296.8 300.1 303.9 309.8 316.9 325 334.8 343.3 347 349.6 346.5 350.3 353.5 355.5 360.7 364 366.4 368.3 369.5 370.5 370.8 371.6 372 372.8 373.7 374 375.5 373.6 372.5 370.8 368.5 366.1 362.2 357.8 353.3 348.5 343.7 340.8 335.4 330.6 325.1 320.5 318 318.8 317.9 317 319.5 319.9 318.1 313.4 307.6 302.2 296 287.6 282.4 273.3 276.4 280.6 282.5 284.1 285.3 287.7 289.1 289.1 291 293.5 297 302 307.7 318.9 327.3 327.9 317.5 307.4 290.7 273.4 254.7 239.2 227.2 207.2 187.5 178.9 193.3 208.1 218.6
194.1 200.3 204.7 206.7 206.8 208.4 210.5 212.7 215 216.9 219.5 223 227.5 231.1 234.1 235.8 238.3 239.6 242.6 247.6 250.2 252 251.9 251.6 251.4 252.5 254.4 256.1 258.1 260.2 263.1 265.9 268.7 271.9 275.1 278.3 281.3 281.9 270.8 264.3 265.2 269.2 275.7 285.2 299.2 316.1 323.8 329.2 333.3 337.7 342 347 352.2 356.5 360.8 366.8 371.5 377.5 384.3 390.8 393.5 397.5 396.1 392.5 388 382.4 376.1 372 366.1 360.7 356 351.3 347.6 342.6 341.2 337.2 331 325.4 321.5 320.6 317.5 315.1 312.6 311.7 316.2 317.8 316.6 314.2 312.2 309.6 307.2 306.4 304.3 299.9 297.4 294.2 290.6 287.7 285.8 284.6 283.5 282 280.6 279.1 277.8 277.6 277.9 278.7 279.8 281.8 282.7 284.8 287 289.9 292.6 294.5 299.2 303.8 309.3 315.3 321.1 332.1 340.1 343.5 345.8 343.4 348.4 351.8 353.6 358.1 361 363.9 365.8 367.7 368.9 370.2 369.9 370.9 371.9 372.9 375.2 375.5 374 373.8 372.4 370.8 368.1 364.4 359.7 355.8 350.9 347.2 344.1 339.6 335.4 331.3 326.1 325.1 324.7 323.7 323.4 324.5 324.9 322.3 317.2 312.2 306.9 299.9 293.5 285.2 281.4 285.3 288 289.4 288.8 288.8 289.9 289.3 287.8 286.3 287.8 291.2 295.2 300.2 309.4 321.3 322.2 314.7 297.4 278.8 262.7 247.3 234.5 227.1 210.6 192.4 179.8 184.6 199.2 208.8
194.9 201.6 204.2 205 206.3 208.8 210.5 212 214.7 217 219.5 222.4 222.2 217.5 223.6 232 236.4 238.6 241.5 246.1 248.1 247.9 248.7 249.6 249.7 250.5 252.3 254.2 256.1 258.4 261 264.3 268.9 270.7 273.2 276.6 279.9 281.8 271.8 264.7 263.9 267.1 274.8 283.3 296.4 313.8 319.6 328.2 333 337.4 341.7 346.1 350.1 354.5 358.9 364.3 370 375.5 381.4 388.1 391.9 394.9 396.4 394.5 391.5 387.1 382.9 376.9 371.1 365.6 360.9 356.8 352.7 350.4 346.9 340.8 335.6 331.1 327.7 325.6 323.2 319.6 317.9 317.9 319.6 319.9 317.3 314.3 311.8 309.6 307.4 304.9 302.6 302 299.1 295.8 291.7 288.2 285.9 284.2 283.1 282 281.6 280.3 277.8 277.6 277.5 277.2 277.6 281.6 286.5 293.1 297 296.7 296.8 302.6 305.4 305.5 308.3 313.6 317.4 328.5 335.4 339.5 340.3 343.7 346.9 349.6 352 355.1 358.2 361.2 362.2 364.6 366.6 368.1 367.7 368.9 370.2 371.7 374.2 374.9 374.6 374.2 372.2 371.1 368.8 366.4 361.8 357.6 354.6 351.3 347.4 343.8 340.6 336.9 333.6 332 330.6 330.1 329.4 330.1 328.7 325.7 321.3 317.3 311 304.4 297.9 287.3 289.2 292.5 293.8 294.2 292.9 290.7 290.9 288.3 285.7 282.3 280.9 284.9 288.9 292.4 300.6 310.1 312.7 307 283.7 262.4 244.8 231.2 222.6 213.4 201.8 189.2 178.8 184.3 201.6 219.7
197.9 202.9 202.8 203.7 206.3 207.9 209.7 211.5 213.6 216.1 219.2 221.9 224.6 227.8 230 224 223.9 236 238.7 242.3 243.2 243.7 244.6 246.8 248 248.7 250.7 252.6 254.6 257 259.8 262.6 266.5 269.1 272.6 275.7 279 281.6 275.7 265 262.7 266.6 273.3 282.4 295.5 310.6 318.4 326.8 333.6 337.6 340.5 344.7 349 353.9 358.8 362.8 368.3 373.4 378.4 383.4 387.7 391.5 394.4 394.6 393.1 390.8 387.1 382.8 376.4 371.7 367.3 364.6 359.5 355.3 350.7 347.1 340.7 337 333.9 332.3 329.5 325.9 322.5 323 322.5 320.7 317.9 314.7 310.9 308 303.8 300.4 299 295.8 293.8 292 290.5 288.7 287.2 286.1 284.5 283 281.8 281.2 276.8 276.6 277.7 276.2 276.6 278 291.9 300.7 305.5 308.1 307.7 306.9 309.3 308.2 308 308.9 315.1 322 329 337 343.4 345 345.7 347.8 349.2 351.8 355.3 357.9 360.3 362.6 363.4 363.4 365.4 366.9 368.5 370 372.3 372.2 373.1 372.8 371.2 371 368.7 366.6 363.5 359.9 356.1 353.3 350.3 347 343.6 342.5 341.5 340.5 339.5 336.9 335.5 333.9 331.9 329 324.3 320.7 315.9 308.9 300.1 295.8 297.5 297.9 298.2 297 295.5 293.5 291.4 288.1 284.9 279.5 275.7 278.1 281.1 284.1 288.2 283.3 283.9 281.2 262 241.7 221.8 205.8 196.1 189.8 181 176.8 172.9 205.1 219.4 229.1
202.5 204.3 201.7 202.2 205 206.9 208.7 210.8 213 215.7 218.8 221.6 223.9 227 229.1 231 231.7 224.9 231.6 238 238.8 239.5 241.7 244 244.8 247 249.1 251.1 253.1 255.8 258.7 261.4 264.8 267.8 271.3 275.2 278.3 281.4 278.2 266 263.1 266.2 272 280.3 292 305 317.6 325.3 332.4 336.2 339.5 343.8 348.2 352.6 357.7 361.9 366.3 371.4 377.1 381.2 385 388.5 392 393.3 393.1 391.7 389.7 386.3 383.2 377.1 373 369.6 366.8 362.3 358.2 352.3 347.8 345.3 343 340.9 334.9 331.4 329.9 327.8 325.9 323.7 319.5 315.2 310.3 307.1 306.7 305 301.9 301.1 297.4 294.3 291.6 290.5 289 287.5 285.9 284.4 282.9 281.5 280.1 276.8 275.5 276.2 276.4 275.3 290.2 298.6 303.1 306.6 308.2 306.3 306.4 305.1 301.5 311.9 318.7 325.4 331.4 337.2 342.7 345.4 343 344 346.3 348.6 351.2 356.4 355 358.5 360.2 361.6 363.3 363.6 365.1 366.8 369.2 370.1 370.9 370.9 370.4 370.2 368.5 366.3 363.5 360.7 357.7 355.5 353.4 350.1 348.4 348.2 348.1 347.7 345.6 343.3 340.6 337.7 335 330.8 327.3 323 318 311 306.3 304.2 302.9 302 300.9 298.7 297.1 295 292 287.4 282.1 276.5 270.2 271.1 269.6 267.5 257.4 247.6 250.4 249.1 237 217.4 195.5 179 173.1 180.9 193.5 202.7 215.7 236.3 239.7 237.4
204.5 202.6 198.1 202.6 205.7 208 210.2 212.4 213.4 216.2 218.4 221 223.3 225.6 227.3 229 230 230.5 232.4 227.6 235.2 236.4 238.8 242.3 244 245.5 247.5 249.5 251.8 254.8 257.6 260.3 263 266.6 270.1 274.6 277.9 280.7 278 265.4 261.9 264 270.9 278.9 287.8 298.6 311.9 324.1 329.8 334.9 338.6 343 347.3 351.7 356.4 360.9 365.9 370.5 375.1 379.2 383.9 387.3 390.4 392.5 392.5 392.4 390.7 389.3 387.2 383.5 381.3 375.6 372.9 368.7 364.6 360.1 354.3 352.9 350.9 347.3 342.2 339.4 337.5 335.4 331.9 326.5 319.9 316.5 313.8 311.4 310.2 308.3 306.8 303 299.5 295.9 293.5 290.8 292.2 288.8 287.3 285.8 284.3 282.7 280.3 278.4 276.6 275.8 275.3 274.5 276.1 292 296.5 300.8 302.9 302.9 301.7 298.8 299.3 309.3 316.8 324 328.6 334.1 340.1 343.1 342 341 343.3 345.8 348.2 349.6 354.2 356.3 356.5 358.4 360.1 360.7 361.6 363.8 365.5 366.3 368.1 369 369.2 368 367.7 365.7 363.4 361.2 358.8 357.4 355.5 353.4 351.8 351.5 351.9 351.9 349.8 346.7 343.7 340.4 337 332.8 329.6 324.7 319.5 313 311.1 309.7 307.6 306.1 303.5 300.7 298.6 295.9 292.7 287.5 281.3 273.5 264.8 261.9 254.1 243 228.8 223.3 220.5 219.2 214 199.1 175.2 177.4 191.1 211.5 233.6 247.3 261 283.6 263.6 251.6
203 196.6 200.7 203 207.1 209.6 211.8 213.2 214.8 215.9 217.8 219.6 221.5 223.7 224.5 225.5 225.5 227.1 229.4 230.5 229.1 235.8 238.3 241.8 243.2 244.6 246.2 248.2 250.8 253.8 256.5 259.3 263.2 266.3 268.7 273.1 276.6 278.8 275.4 264.4 261.1 263.3 267.7 275.2 282.9 292.8 304.2 319.2 327.5 333.5 337.8 342.1 346.4 350.8 355.1 360 364.8 368.7 371.9 375.6 380.9 384.9 388.7 391.9 393.2 392.8 391.7 390.7 389.2 388 386.1 383.3 379.9 375.3 370.6 366.6 364.3 360.9 358.1 354.5 349.9 348.6 346.7 343.8 337.7 330.8 323 320.9 317.1 314.6 312.2 310.4 307.4 303.6 300.3 296.8 295.7 298.1 294.9 292 288.7 287.2 285.8 284 281.4 279.2 278.1 277.2 275 274.5 274.4 281.6 288.9 291.8 295.2 297.2 296.2 290 297 304.1 311.7 321.2 326.3 332.2 337.2 340.9 339.5 337.3 338.7 340.7 342.5 347.8 350.5 354.2 353.1 356.6 357.2 357.5 358.4 360.2 362.1 363.9 365.7 367.2 365.9 366.1 366.1 364.8 363 360.9 359.3 357.6 356.9 354.8 353.5 354.4 355.4 354.3 352 348.9 344.8 341.2 337.8 334.1 330 325.2 321.5 318 315.9 313.8 311.5 309.1 306.1 303.1 299.8 297.1 293 287.7 282.3 274.3 265.8 251.9 236 229.9 225.5 222.6 210.5 201.8 197.4 187.2 176.4 183.6 203 235.1 260.9 275.4 287.6 282.9 273.5 263.7
198.5 196.1 201 203.6 208.1 210.8 212.4 212.6 213.2 214.1 215.5 216.5 217.4 218 220 223 225.1 225.9 227.8 229.6 230.6 233.2 238.2 241.1 242.5 243.8 245.4 247.9 250.6 253.3 256.5 260.2 262.9 265.6 268.5 271.4 274.7 276 272.8 263.2 260.1 263.4 268.6 273.4 283 293.7 304.4 314.1 327.3 333.2 337.5 341.8 346.1 350.4 354.2 358.5 363.2 367.2 370.7 374.3 378 382.6 387.1 389.8 391.3 392.5 392.6 391.5 390.7 389.3 388.4 387.4 385 382 378.1 374.9 371.7 368.3 364.7 358.7 358.9 355 352.6 348.7 342.9 332.3 328 324.5 320.4 317.1 313.4 311.1 307.3 303 300.5 298.3 301.7 300.5 296.8 293.8 290.9 289.1 287.7 285.1 282.6 280.6 279.9 278.7 277.8 274.4 274.2 273.7 277.5 284.9 288.9 290.6 290.1 287.8 294.3 299.5 308.1 316.8 322.3 329.5 334.8 338.3 336.1 331.2 334.1 334.2 340.1 344.7 348.6 350.5 351.6 353.9 353.8 354.1 354.6 356.1 358 359.9 362.1 364.2 363.3 364.8 363.8 362.6 361.6 360 358.4 358.2 357.4 356.4 355.7 355.9 356.1 355.6 352.7 349.7 346.3 342 338 334.1 330.4 326.4 323.2 320.7 317.6 315.4 314.2 311.8 308.5 304.5 301.1 297.3 293.1 287.6 281.1 273.4 262.9 249.5 241.1 246.8 250.6 249.3 238.5 222.3 205.6 186.1 175 184.8 207.3 231 254.8 269.7 276.6 280.1 276.2 270.4
194.2 198.2 200.4 202 207.7 211.1 211.6 211.7 211.8 212.3 210.9 211.3 214.6 217.7 221.5 225.1 227.8 227.5 229.3 231.5 232.9 232.8 238.2 240.8 242 243.4 246.8 248.7 251 253.7 257.2 259.7 262.1 264.9 267.8 270.2 272.5 272.9 267.9 260.1 260.3 264.4 269.8 276.2 285.3 294.1 305.6 314.8 325.8 332 337.3 341.6 345.2 348.8 352.6 357.1 361.5 365.6 369.3 373.1 376.8 381.4 385.4 387.6 389.3 390.8 391.7 391.1 391.2 390.8 389.7 388.7 387.7 384.6 382.7 380.9 378.3 372.9 369.9 367.1 364.4 359.1 352.7 348.6 342.4 335.2 331.8 327.2 322.4 319.4 314.9 311.3 307.4 304.3 303.3 304.3 305.1 302.6 299.3 295.9 293.7 292 290.5 287.3 284.2 281.8 280.9 280.2 278.1 277.6 273.9 273.3 273.3 273.2 282 283.6 282.3 286 291.8 295.1 302.5 310.2 317.3 323.9 330.8 333.4 329.4 328 325.2 332.5 338.4 343.5 345.8 347.4 349.7 351.2 349.6 350.3 350.6 352.3 354.3 357 359.8 361.6 361.7 362.6 361.2 359.8 359.2 358.6 357.3 358 357.9 356.8 356 356.5 356.8 355.8 353.5 350.2 346.8 343.5 338.7 335.6 331.8 328.5 324.9 320.4 317.3 314.5 313 310.7 307.5 304.3 300.8 296.8 292.5 285.4 274.2 264.3 262.9 257.8 260.4 262.2 272.2 279.4 266.7 240.2 216 191 175.6 182.5 204.9 226.9 245.8 259.2 269.8 275.1 279.2 277.4
192.3 197.5 199.9 202.8 205.7 211 210 208.2 208 207 207.7 211.8 214.8 218.2 222 225.8 228.2 229.1 230.9 233.1 234.8 236.4 231.8 241.6 243.2 245.4 248 249.9 251.8 254.2 256.6 258.9 261.4 264.2 266.6 268.6 270.8 271.1 265.3 259 260.6 266 273.3 280 291 301.9 312.3 317.8 323.4 328.9 335.8 340.1 343.4 346.9 351.2 355 358.1 360.9 364.3 368.3 373.2 378.2 382.4 385 386.8 388.2 389.5 390.5 390.8 391.3 391 390.2 389.5 387.7 386 384.5 382.8 380 376 371.2 366.7 362.1 357.1 350.6 344.9 339.6 334.8 329.1 324.7 320.6 316.8 313.2 311 309.3 308.9 308.8 307.1 304.9 301.5 298.2 299.2 297.1 293.6 289.9 286.6 283.7 282.4 281.3 280.2 278.7 276.6 274.4 273 272.9 273 277.5 279.6 284.3 286.4 293.3 301.6 307.8 314.2 320.3 323.6 326.4 324 320.6 323.5 330.9 336.3 339.2 341.7 342.5 346.5 347.7 346.5 345.7 345.5 347.6 352 354.6 357.4 359 358.9 359.8 359.1 358.2 357.7 356.7 356.9 357 357.2 357.2 356.3 356.9 357.6 356 353.6 350.6 347.3 343.9 340.1 335.9 333.2 329.3 325.4 320.9 316.7 311.4 307.6 304.5 301.4 299.5 298.1 294.9 289.6 281.6 269 266.4 270.8 273.2 273.4 273.9 275.7 282.3 272.9 246.5 220 194.6 175.4 174.8 199.7 219.2 234.8 247.4 259.2 270.1 276.3 280
194.1 197 198.3 200.2 203.1 204.4 204.4 204.2 202.5 205.3 208.5 211.2 213.9 218.5 222.4 225 227.5 229.2 231.3 233.5 236.2 238.1 239 234 243.2 246.2 248.9 250.6 252.2 254.1 255.8 258.1 260.7 263.1 265.1 267 268.6 268.4 262.1 258.6 261.2 268.3 278 286.3 293.8 303.5 311 316.8 321.2 325.7 332.8 339.1 342.9 345.7 349.7 351.4 354.3 357.1 360.1 363.3 367.5 371.7 376.7 381.7 384 385.4 386.7 388.3 390.5 391 392 391.2 392 391.4 389.6 387.9 386.3 384.1 381.5 377.1 371.5 364 359.1 354.3 349.2 342.4 337.4 333 328.6 324.7 321 318 315.4 314.6 313.6 313.1 311 308.2 304.1 305.5 303.9 300.5 295.9 292.6 288.2 285.8 283.9 282.2 281.1 279.4 278.8 276.3 274.2 272.3 272.9 273.5 276.2 279.2 284.4 291.4 297.6 302 308.5 313.3 318.3 319.1 317.5 314 322.1 328.5 332.5 334.5 334.4 341.2 344.1 344.4 342.1 341.5 339 344 348.4 352.4 354.6 354.9 356.5 356.9 356.4 354.8 355.9 355.4 355.6 355.5 355.6 355.9 356.3 356.7 356.9 355.3 353 350.2 347.4 344.1 340.4 337.5 334 330.2 327 322.4 316.5 314.7 312 306.5 302.8 296.1 290.7 287.4 282.1 272.5 274.4 282.8 281.4 282.8 282.7 281.1 279.5 282.1 275.4 248.1 220.6 197.3 180.1 173.6 192.3 208.4 220.9 234 245.7 257.1 272 279.6
191.8 192.7 194.3 193.9 198.4 198.5 197.4 198.2 202.3 204.9 206.9 209.7 212.8 218.5 221.4 223.9 226 229.7 231.8 236 238.6 239.4 240.4 238.2 240.1 246.2 248.4 250.5 252.1 254 255.3 257.3 259.5 261.4 263.3 265.3 266.5 266 263 259.5 263.6 270.2 277.5 286.3 292.6 298.8 309.1 314.5 318.6 322.5 327.1 334.9 342.2 344.5 347.6 349.3 350.8 353.8 357.1 359.7 363.4 367 372.4 375.1 379.1 382.3 383.9 386.2 388.5 391.3 392.2 393.4 394.9 395.8 394.1 392.4 390.2 386.8 384.7 380.7 375.8 368.2 363.6 359.5 354.1 348 342.7 339.2 334.9 330 324.7 323.5 321.4 319.7 318.2 317.4 315.7 311.6 308.8 308.1 306 304 299.6 294.8 290.2 287.9 286.2 283.8 282.3 280.9 280.5 279 277.5 272 272.5 272.7 272.7 274.9 279.2 286 290.7 294.6 301.4 305.6 309.9 311.9 309.5 311.3 320.2 325.3 327.2 326.6 334.3 337.3 340.3 339.9 339 337.1 334 339.1 346.5 349.9 351.6 352.4 353.6 354.4 354 353.6 353.6 353.8 354.2 354.2 354.2 354.2 353.1 355.1 355.3 354.3 352.2 349.8 347.1 344.3 340.7 338 334.7 331.3 327.6 323.2 321.5 319.2 314.8 312.9 308.5 301.8 295.6 290.2 281 285.4 290.3 294.7 291.5 290.3 287.5 284.9 282.6 282.8 279.4 254.3 226.8 203.7 185 174 183.3 195.2 203.9 217.2 229.9 242.2 258.4 271.8
188.5 192.6 194 195.7 194.7 197.7 199.8 201.3 200.9 203.9 205.5 208.1 212.1 216.7 219.7 221.5 225 230.1 234.1 239.2 242.5 241.6 241.5 241.9 238.4 245 247.8 250 252.1 254 255.9 257.2 257.9 259.7 261.5 263.5 264 263.8 260.4 258.8 264.2 269.7 273.8 281.9 288.8 294.8 303.6 310.9 315.9 319.6 324.3 329.3 338 343 345.2 346.9 348.4 350.1 353.7 355.8 359 362.6 365 367.5 371.4 375.5 381.2 384.1 387.1 389.8 392.5 394.5 396.1 397.8 398.4 396.8 394.2 391.2 387.4 383.5 378.5 376.3 372.3 366.7 360 356.2 351.9 345.3 340.9 335.8 331.6 329.8 327.8 325.2 323.4 321 319.4 316.2 312.6 308.9 306 303.4 299.3 295.6 291.9 290.1 288.3 286.3 283.9 283 282 280.5 278.9 277.3 271.9 271.9 271.7 271.8 273.2 277 281.2 286.1 292.8 297.6 304.1 304.2 301.3 310.8 317.2 319.9 318.8 324.1 329.9 333.4 335.1 334.6 334.1 332.4 328.4 338.5 344.7 347.5 348.2 348.7 350.1 351.9 351.9 350.9 351.3 352.2 352.6 352.8 352.8 352.9 353.6 354.4 353.7 352.7 350.8 348.8 346.7 344 341.1 338.6 334.4 331.9 329.3 327.9 325.7 322 319.1 316.6 312.6 306.2 300.4 295.4 289.5 296.6 300.4 300 296.7 294.2 291.8 288.2 285.3 284.3 284.4 268.1 240.5 212.4 192.7 178.6 175.3 180.6 186.3 197.9 208.7 219.2 235.3 249.7
194.4 196.6 198.9 199.8 200.7 201.8 202.9 203.7 203.6 203.1 204.3 206.7 209.1 213.5 216.5 219.6 223.4 227.6 233.2 238.2 243.2 241.5 241.6 242 242.3 236.2 246.4 249.2 251.5 253.9 255.7 256.7 257.1 258.3 260.1 261.6 261.8 260.6 258 258.7 262.9 267.8 272.8 279.3 286.5 291 298 306 312.4 317.5 322.1 326.7 332.8 339.6 342.3 343.9 344.7 347.2 349.9 352.3 354.4 358 360.1 362.6 365.1 369.2 375.5 380.9 385.6 388.7 391.6 394.2 397.9 400 401 400 397.8 394.7 390.9 386.5 384.7 382.8 379.9 375.6 369.1 362.7 358.9 354.1 346.2 342.3 341.1 338.7 335.9 330.9 329.3 326.1 323.7 320.4 315.1 309.9 305.8 302.4 298.7 296.7 294.2 292.4 290.5 288.7 285.7 285.3 283.1 281 279 276.9 276.2 270.9 270.9 271 271.1 272.7 274.6 279.8 286.4 291.7 297.2 295.2 297.3 306.1 312.5 314.4 313.1 320.3 324.5 328.1 330.8 330.5 328.7 326.3 326 335.9 342.9 344.4 345.4 346.8 348.8 350.1 349.8 348.7 349.3 350.8 350.7 350.5 348.9 350.2 351.7 352.5 352.3 350.7 349.2 347.4 345.4 343.4 340.4 338.4 335.3 334.1 332.4 329.3 326.8 323.1 321.5 318.9 315 310.2 306 297.9 295.9 302.2 303.4 301.7 299.5 296.6 293.7 290.4 287.6 286.2 286.3 282 254 230.5 211.6 194.3 180.4 173.9 175.6 178.3 185.1 194.6 209.7 224.9
197.3 198.7 200.1 201.4 202.8 203.9 204.9 205.8 206.8 206.8 206.2 206 207.6 209.7 213.1 216.6 220 225.2 230.1 235.3 238.3 238.4 239.1 240 240.9 243.4 242.2 247.9 250.4 252.6 253.3 254.6 256.6 256.8 258 259.5 261.2 260.3 257.4 257.9 261.1 265.6 270.4 274.9 281.5 288.3 294.8 301.2 308.2 314.2 319.8 324.6 329.3 333.8 338.1 339.8 343.2 345.3 347 349.2 351.1 354.4 356.5 359 361.4 364 368 374.1 378.9 384.2 387.7 393 397.5 401.3 402.4 401.8 399.6 397.7 394.7 390.8 388.8 388.6 386.2 381.8 377.3 368.5 363.2 359.6 354.2 349.8 347 344.4 341.1 338.2 335.5 332.7 329.5 323.9 318 313.7 306.6 304 301.8 298.4 297.3 294.6 292.6 288.8 288.8 287.3 285.2 283.1 281.1 280.8 278.2 274.9 270.3 270.1 270.2 270.6 272.2 274 278.7 284.2 290.4 287.9 292.9 298.6 304.2 304.8 309.7 315 319.9 323.4 326.4 325 323.1 319.2 323.4 333.7 339.2 340.6 342.5 344.9 346.2 347.8 347.4 347.1 348.8 349.1 349.4 348.1 347.6 348.5 350 350.1 349.9 348.9 347.3 345.7 344.1 342.5 340.2 338.1 336.8 335.3 333.5 331.5 327.8 324.7 322.9 319.9 316.9 312.6 309 301.2 300.7 305.1 304.5 302.7 300.8 298.4 295.5 292.7 290.1 288.1 286.3 282.4 268.3 251.9 232.9 210.4 197 189.6 182.3 175.1 173 173.9 180.4 197.3
198.2 200.1 201.5 202.8 204.2 205.4 206.5 207.5 208.5 209.2 209.2 209 208.9 208.6 210.5 213.8 217.6 221.4 226 230.5 233.8 235.3 236 236.9 239.1 242.1 244.1 246.9 248.2 250.2 250.8 252 253.4 255 256.4 258.1 259.6 259.3 258 256.6 258.6 263 267.3 272.7 276.4 285.3 294.2 299.5 303.9 309.7 314.6 319.5 324.2 329.4 332.6 335.2 338.5 342.1 344.6 346 348.4 351.4 353.7 355.7 358.1 361.2 364.2 367.5 372.4 377.9 382.6 388.6 394.4 399.4 403.7 403.4 402.1 400.4 397.4 395.7 392.1 391.7 390.7 386.3 381.5 375.6 369.5 363.6 360.7 357.6 353.9 348.6 345.8 341.3 338.2 333.8 328.9 324.2 319.1 313.3 309.5 307.5 305.2 300.9 297.7 296.5 294.6 292.8 291.7 289.4 287.2 285.2 284.1 281.9 279.3 278.7 270.9 269.9 269.6 269.9 268 269.8 274.1 280.9 285.1 282.4 287.8 293.6 296.6 297 304.1 309.8 314.8 319 321.1 319.5 316.9 313.8 321.1 329.3 333.7 338.2 341.4 343.1 344.7 345.5 345.2 345.4 347.9 348.2 348.4 347.6 346.1 346.9 347.7 347.6 347.3 346.7 345.5 344.1 343.3 341.9 340.3 338.2 336.7 335.3 334 332.2 328.7 325.7 323.2 319.5 315.6 311.7 305.8 301.7 305.2 305 303.5 302.3 300.5 299.2 296.8 294.3 291.9 290.1 290 289.5 288.7 274.8 257.6 238.4 222 211.1 201.4 191.8 184.8 179.7 172.6 168.8
199.8 201.8 203.1 204.4 205.5 206.5 207.8 208.8 209.7 210.5 211.3 211.6 211.2 210.8 209.9 211.3 215.2 218.9 222.7 226.1 230 231.9 232.7 233.9 236.3 239.2 243.5 244.4 247.2 249.3 249.5 250.2 252.2 253.2 254.6 256.3 257.8 258.5 256.3 255.7 257 259.4 264 269.2 274.4 279.5 289.1 296.5 301.4 306.3 311.2 315.4 320.1 324.2 328 331.9 334.5 338.6 340.7 343.7 345.1 348 350.6 352.6 356.1 358.9 361.8 365.1 368.8 373.7 378.6 384.1 390.1 396.8 402.5 404.7 403.7 402.4 400.1 397.5 394.6 394.2 393 389.9 385.1 380.7 374.7 368.6 364.6 360.6 357.7 354.7 350.9 345.6 341.6 335 327.9 324 319.8 317.1 313.2 310.7 307.1 303.4 301.6 299.5 297.4 295.5 294.5 292 289.7 288.3 286.1 283.5 282.5 280.4 277.4 270 269.5 269.1 269.2 268.2 268.5 275.7 278.7 277.3 284.5 287.8 288.5 295.7 300.2 303.7 306.8 311.5 314.7 314.2 310.3 308.3 317.5 327.8 334.2 338.1 340.4 341.5 343.4 343.8 342.7 345.2 346.9 347.1 347.2 346.6 344.8 345.2 345.3 345 344.8 344.3 343.7 342.8 341.8 340.3 338.7 337.3 336 334.7 333.3 330.5 328 325.5 323 319.2 314.4 309.7 309.1 307.5 306.4 305.2 302.1 299.4 298.9 297.6 296.8 295.9 293.6 292.3 291.4 291.7 293.8 292.4 282.3 261.5 240.2 222 212.8 204.3 196 190.8 178.9 171.1
201.3 203.3 204.5 205.7 206.6 207.5 209.1 210.1 210.9 211.7 212.6 214 213.9 213.6 212.7 212.2 213.1 216.4 220.8 224.1 226.5 228.2 229.3 231.4 233.6 235.8 238.2 243.9 243.3 247.7 247.6 248.5 250 251.5 252.2 254.7 256.1 256.4 256.9 255.2 255.7 257.2 259.9 264.2 268.7 273.4 279.8 287.5 294.4 300.9 304.4 309.6 313.8 318.5 321.4 324.8 330.1 333.2 336.4 340.5 342.6 344.7 347.4 350.7 353.9 356.6 359.4 362.6 365.6 369.9 375 380.6 388 393.8 399.3 404.3 405.3 403.6 401.3 398.9 396.5 394.1 393.1 392.2 388.6 384 377.8 374.5 370.8 365.7 360.7 357.1 352.4 347 343.6 338.8 332.1 326.8 323.4 319.8 316.3 313.4 309.8 306.7 304.7 302.5 300.3 298.5 297.3 294.7 292.6 290.8 288.7 286.3 285.5 282.5 280 277.9 275.1 269.2 268.1 267.7 267.5 269.5 273 276.1 278.9 280.3 288 293.8 294.8 298.8 301.6 304.4 307.4 308.1 301.7 307.3 318.4 327.1 332.4 336.7 339 339.9 341.5 341.7 342.8 344.1 345.5 346.1 346.1 345.4 343.9 343 342.7 342.5 342.3 342.1 341.9 341.7 340.9 339.6 338 336.6 335.3 334 332.6 330.4 328.5 325.5 322.3 318.8 314.3 314.8 313.6 311 307.7 305.1 303.5 301.5 299.2 296.9 295.2 295.6 295.5 294.5 293.1 293.5 295.1 296 291.2 273.1 251.4 230.2 215.3 208.3 200.9 193.7 184.4 172.3
202.2 204.5 205.8 206.7 207.6 208.6 210.4 211.3 212.1 213.2 214.3 216.3 216.6 216.4 215.7 215.3 215.2 214.7 217.6 220.5 222.5 224.7 226.7 228.8 231 233.3 235.9 237.4 240 242.9 244.3 246.4 247.7 249.1 250.8 252.9 254.4 255.5 256.1 254.9 254.7 255.2 256.2 258.7 263.3 267.8 272.5 280.1 285.4 293.2 298.7 303.8 306.4 310.2 314.4 318.5 323.8 327.8 332.7 336.6 339.3 341.5 344.4 347.4 351.3 354.2 355.7 360.5 364.1 367.6 370.7 376.6 383.1 389.9 396 401.5 405.1 404.8 402.3 399.4 397.8 395.1 392.2 391.8 388.9 386.1 382.7 378.5 374.3 370 365 359.4 353.1 348.1 343.6 338.8 335 330.8 327.2 323.7 320.1 316.7 313 309.9 307.7 305.5 303.2 302.3 301.4 299.1 295.7 293.5 291.4 289.9 288.2 285 282.7 280.1 277.7 274.9 272.7 267.5 266.9 268.8 270.9 273.7 274.9 280 285.9 290 289 293.9 296.9 299.9 302.1 300.6 297.7 307.7 317.3 324.9 329.6 333.6 336.6 339 339.9 339 342 343.1 344.2 345.4 345.1 343.3 342.7 341.8 341 340.8 340.6 340.4 340.7 340.5 339.9 339.3 338.3 337 335.1 333.3 331.8 329.5 324.7 322.4 319 316.5 316.6 317.3 315.1 311.9 307 303.4 301.6 299.9 298.5 296.4 292.3 294.8 296 295.7 295.9 294.5 295.7 298.3 294.8 281.2 258.3 234.7 218.5 210.7 202.2 194.9 186.3 174.8
202.8 205 206.2 207.5 208.6 209.7 211.7 212.7 213.8 214.9 216.1 218.6 219.1 219.1 218.7 218.7 218.8 218 216.3 217.5 219.9 222.4 224 226.3 228.5 231.7 233.7 235.2 237.1 239.1 241.3 244.1 247 248 249.4 251.4 251.7 253.9 255.8 256.9 255.8 254.2 254 255.2 258 264.2 267 271.5 277.1 283.3 290.1 294.6 300.1 303.5 309.2 314.2 319.3 324.2 328 332.1 334.7 339.6 342.8 345.7 348.6 351.6 354.9 358 361 364.1 368 372.7 378.5 385.6 391.9 397.3 402.2 404.2 402.5 399.9 398.1 395.7 392.8 391.3 388.9 386.5 383.3 379.9 376.1 372.3 366.8 361.2 355.4 349.3 344.6 340.7 337.2 333.2 329.5 326 322.7 318.3 315.3 312.8 310.5 308.3 306.2 305.7 304.9 303.4 300.1 296.8 294.8 293 291.3 288.3 286 282.2 280.1 277.9 275.4 271.3 267.6 266.8 268.4 270.9 272.3 278.2 282.8 283.8 285.1 289.6 292.4 294.6 296.5 293.8 297 306 316.6 322.6 328.9 333.1 335.9 338.1 337.2 338.9 340.9 342.2 343.3 344.4 344 342.4 341.9 341.2 339.7 339.1 338.9 338.7 338.6 339.3 338.3 338.6 337.8 337 335.9 334.2 332.7 330.2 327.4 324.9 322.9 319.2 318.8 318.1 316 311.2 306.3 302.4 299.9 296.8 294.9 293.5 289.1 292.6 296 296.2 296.2 296.9 297.5 298.4 296.2 286.7 266 242.3 223.7 213.1 203.4 194.2 184.9 174.7
202.7 203.9 204.3 206.2 208.5 210.3 212.6 214.4 215.6 216.7 217.8 220.8 221.5 221.8 222.7 223 222.5 221.8 220 219 219.4 219.8 221.4 223.7 227.1 230 231.6 233.1 235.3 236.9 239.5 242.7 245.4 247.1 248.3 249.6 250.8 253.6 256.3 258.4 259.6 258.2 254 253.3 255.9 260.1 263.4 268.2 273.4 277.6 282.2 289.8 294.9 300.1 305.4 309 315.3 320.2 322.9 328.4 332.3 337.1 340.7 344 346.8 349.3 352.8 355.8 359.1 362.6 365.8 369.5 374.1 381.2 387.5 392.9 397.5 402 401.2 398.8 398.1 396.1 393.4 391.5 387.8 384.2 382.3 379.2 376 372.4 367.9 361.6 357.4 352.4 347.2 343.2 339.2 335.5 331.9 328.3 324.5 321.1 318 315.6 313.4 311.3 309.1 308.9 307.9 306.9 304.3 300.9 298.5 296.3 294.4 291.8 289 285.3 283.5 280.9 277.9 275 271.1 266.1 267.2 268.6 271.5 275.1 278.6 278.8 281.4 283.3 286.2 289.9 289.6 290.1 297.9 307.5 316.1 322.8 328.3 332.4 335.6 333.9 336.9 338.6 339.8 340.9 340.9 342 342.5 342.4 341.8 340.8 339.3 337.7 337.2 337 336.8 337.6 336.9 337.7 337.1 336.3 335.5 334.7 333 331.1 329 327.1 323.5 321.2 319.6 318.3 314.5 310.1 305.6 301.8 298.1 293.7 289.7 287 283.8 286.8 291.9 295.9 297.7 298.6 299.6 300 296.2 288.7 271.3 251.1 230.3 217 208.3 196.8 183 173.7
200.4 200.6 201.2 204.8 207.4 209.4 212.1 214.9 217.3 218.4 220 222.9 224.2 226.8 227.2 226.8 226.1 225.4 224.1 222 221.8 222 222.8 223.8 226.1 227.9 229.5 231.5 233.5 235.6 237.9 241.1 243.2 245.7 249.1 248.8 249.7 252.5 255.4 258.6 260.2 260.7 258.7 252 253.4 256.5 260.9 265.7 270 273.8 280.7 287.4 292.5 298 302.1 306.6 311.6 315.8 320.7 324.8 328.8 333.8 339 342.5 345.9 347.8 350.6 354.1 357.7 361.1 364 367 370.8 375.7 381.1 387.5 392.2 397.5 399.6 398.9 398.1 396.4 394 391.2 388.5 385.4 380.4 378 374.9 370.4 367 363.5 358.9 354.2 349.6 346.3 342.1 338.4 334.8 330.9 328.4 325.1 321.4 318.3 316.3 314.2 312.5 312 311 310 307.8 305.1 302.7 300.3 297.3 294.2 291.9 289.4 286.3 283.4 280.4 277.5 275.5 268.2 266.6 267.5 267.9 269.6 272.7 274.5 276.8 278.7 279.9 281.6 284.6 291.1 299 306.8 314.7 320.8 326.6 331.1 333.1 331.2 335.6 337.1 337.5 338.4 338.5 339.4 341.1 341.4 341 340.6 339 337.6 335.6 335.9 336.1 336.2 336.7 336.9 336.4 335.1 335.3 334.3 333.4 331.5 329.6 327.4 325 322.7 321 317.8 314.7 311 307.3 303.4 299.5 294.9 289.5 283.4 279.1 279.8 284.8 290.5 294.1 297.3 298.6 298.5 293.9 287.4 276.7 257.5 237.8 222.4 212.4 199.6 184.9 173
192.8 197 201.1 203.7 207.8 209.7 212.1 214.4 217.2 220 222.1 225.5 229.3 234.1 232.5 229.7 229.2 228.8 227.6 226.3 227.3 226.3 226.9 227.5 227.4 225.8 227.3 230.1 232.1 234.3 236.6 239.3 241.8 244.7 246.3 247.4 248.5 251.5 254.4 257.3 260.1 261 260.7 252.5 251.9 254.9 259.3 262.7 265 269.2 277.5 285.6 290.9 295.6 299.7 303.6 306.8 311.6 316.7 321.3 325.4 329.7 334.8 340.3 344.8 347.3 349.9 352.8 356.3 359.4 362.2 364.9 367.7 371.6 375.5 381.1 387.4 391.9 395.3 397.9 398.2 396.6 394.3 392.2 389.6 386.7 381.9 377.6 375.3 373.9 369.5 365.7 360.5 356.2 351.8 348.4 345.4 341.3 337.8 334.7 332.2 330 326.4 323.9 320.8 317.6 315.7 315.1 314.1 313.2 311.3 308.6 305.3 302.1 299 296 295 291.9 288.9 285.9 283 280.1 277.2 273 266.8 267.4 266.7 267.2 270.1 271.6 272.2 272.1 274.7 279.4 285.2 292.5 299.2 305.5 312.5 318.5 324.5 328.6 329.2 331.1 334.1 335.2 334.5 335.3 335.9 337.2 339.5 339.9 340.2 340.4 339.2 337.1 335.1 333.7 333.3 335.3 335.5 335.7 335.4 335.1 335 334 333 332 330.3 328.1 325.8 323.2 321.7 319.2 316.1 312.7 309.3 304.5 299.8 296.5 291.1 285.3 279.3 273.5 275.8 282.5 288.1 292.7 294.1 293.2 289.3 282.9 275.8 262.2 244 227.7 217.7 207.3 191.5 174.5
190.1 199.3 205.6 208.5 211.6 213 215.3 217.7 219.5 221.3 224.5 230.3 235.3 239 236.6 233.5 232 231.5 232.1 232.3 234.2 234 233.3 233.4 232.1 229 227.9 228.8 231 233.3 235.6 238 241 243.5 245.3 246.8 249.1 253.7 252.8 255.8 258.6 260.4 259.6 253.4 251.3 254.1 257.7 260.8 263.2 270 280.6 284.8 288.7 293 297.1 300.2 304.9 308.9 312.9 317.3 322 327.4 331.9 337.1 340.5 344.6 347.9 351 354.3 357.6 359.9 363 365.4 368.3 371.7 375.7 379.8 384.5 388.2 391.7 394.4 397.3 396.2 393.8 391.2 387.3 383.1 381 377.6 375 371.8 368.5 364.9 360.9 356.5 352.3 349.4 345.4 342.1 338.6 336.2 334.7 332.4 329.8 326.7 325.1 323 319.7 318.7 316.7 313.6 310.7 307 303.8 300.8 297.6 295.8 293.3 290.1 286.9 283.8 281 278.1 274.9 270.7 265.6 266 266.1 265.8 268.5 269.6 269.5 274.9 279.9 286.4 292.4 299.5 305.7 310.5 316.6 321.3 323.7 325.4 330.7 331.9 333 332 332.9 333.8 335 337.6 338.6 339.3 339.6 338.8 336.8 335.6 333.1 332.3 334 334.3 334.6 333.5 333.5 333.9 334 333 332 330.8 328.6 326.7 324.3 323.1 320.7 317.5 314 309.9 304.9 300.1 295.9 291.2 285.6 279.4 274.2 268.9 273.1 281.4 286.5 286.3 285 280.7 275.9 270.9 263.4 247.8 232 223 213.5 204.7 191.2
197.1 205 208.6 210.9 213.3 215.4 217.3 219.2 220.9 223.4 226.6 233.7 240.1 243.4 239.5 236.8 236.1 235.4 235.9 236.2 239.5 241.3 240.9 240.6 237.3 233.9 230.9 229.9 230.6 232.9 235.2 237.5 240.3 242.1 243.8 246.4 248.6 250.5 252.8 254.6 257.1 257.8 258 253.7 251.6 252.7 257.4 261.6 266 272.3 278 282.7 286.4 290.2 294.1 297.8 301.5 306.1 309.5 313.6 318.3 323.8 329 334.2 339.1 343.7 347.4 350.6 353.3 355.3 357.2 360.9 363.6 366.1 369.5 373.5 375.9 378.4 382 385.3 388.8 392.8 395.4 395.4 392 388.2 385.7 383 380.1 377.6 373.9 370.9 367.5 363.7 360.2 354.8 352.5 349.9 347 342.7 340.2 337.7 336 335 332.2 329.5 325.5 323.3 322 319.6 316.3 312.7 308.6 305.5 302.2 299.5 296.3 293.3 290.7 287 283.8 280.8 277.8 274.9 270.6 268.1 265.5 264.9 264.1 264.5 266.2 270 274.8 279.9 286.5 293.1 299 304.1 309 312.1 313.9 320.9 328.1 329.5 329.6 330.2 329.9 330.6 331.5 334 335.4 336.5 337.6 338.8 338 336.6 335 332.6 329.9 332.8 333.3 333.1 332.7 333.5 333.6 333.4 332.7 331.6 329.8 329 327.2 326.5 324.3 322.1 318.6 314.5 310.6 305.6 301 296.7 292 286.8 281.6 277.2 268.7 266 269.6 277.4 279 275 269.4 266.3 265.4 260.4 250.5 236.9 227.7 219.9 214.9 210.3
194.2 203.2 207.5 209.5 212.6 215.5 218.1 220 222.3 225.1 228.5 236.1 245.2 246.8 243 240.6 239.9 239.2 239.7 241.7 246.4 247.7 247.7 245.6 242.8 239.8 235.6 232.6 230.9 232.4 234.7 236.7 238.7 240.5 242.7 245.8 248.2 250.1 252.1 255 256.6 257.9 257.4 254.2 250.8 252.5 255.9 260.6 264.9 270.1 275 279.9 284.1 287.6 291.2 294.4 299.3 302.8 306.2 310 314.7 320 325.7 332.1 337.6 342.9 346.6 349.5 351.8 353.5 354.9 358.2 361.6 364.5 367.4 370.4 372.5 374.9 377.3 380.5 383 387.3 390.2 394.1 393.4 390.3 388.4 385.9 382.3 381.5 377.4 373 369.6 366.4 363.3 357.2 355.6 353 350.5 347.8 344.9 341.3 339.7 338.3 335.7 332 328.1 325.5 322.8 321 318.7 312.5 308.7 306 302.8 300 296.4 292.7 290.2 286.6 283.5 280.5 276.3 273.6 273.5 271.9 269.8 266.7 264.7 264.4 264.6 270.9 274.8 279.8 285.8 289.6 293.9 298.9 304.2 309.7 317.8 324.3 327.9 327.7 327.4 327 326.9 327 329.3 332.2 333.9 335.2 336.3 336.9 336.7 335.6 334 331.5 328.1 330.2 331.8 330.9 331.9 333.5 332.8 332.3 331.7 330.8 329.7 327.8 328.3 327.9 325.8 323.2 319.9 315.3 311.3 306.3 302 298.6 293.8 287.6 281.9 278.3 274.2 268.1 262.2 261.7 267.9 266.4 262.8 260.7 259 257.6 251.4 240.9 232.6 224.9 220.4 216.6
188.8 196.5 202.2 203.5 208 212.2 218.1 221.3 224.2 226.9 230.2 236.8 244.7 248.6 247.4 245.3 243.2 243.1 244.8 246.8 253.4 256.7 254.5 251.7 247.2 243.8 240 235.9 233.5 232.7 233 235.3 237.3 239.2 241.7 245.2 247.7 249.8 252.4 254.8 255.6 257.7 258.2 254 251.1 250.8 254.2 258.5 265.7 270.7 274.5 278.9 282.5 285.5 288.9 293 297.1 299.7 302.9 306.4 311.1 315.7 321.1 328.3 335.4 340.1 343.9 346.4 349 351.9 353.7 355.5 358.7 361.4 365.2 367.7 370.2 372.7 375.3 377.9 380.2 382.7 385.1 388.5 390.7 391.2 390.7 388.9 384.3 382.5 379.8 375.7 371.7 369.2 366.3 363 358.7 356.5 353.6 350.3 347.4 344.9 342.5 340.1 336.7 333.4 330.5 325.4 322 319.4 316.3 309.6 305.6 304 301.9 298.5 295.6 290.7 285.4 282.8 280.7 278.1 280 281 277.7 274.9 273.7 270.5 264.2 263.7 263.8 267.4 273.4 277.8 281.6 285.4 289 298 307.2 314 319.5 324.1 326.2 325.8 325.4 324.6 324.1 325.2 327.7 330.6 332.8 333.9 335 335.1 335.4 334.5 332.5 330.1 326.4 328.6 329.2 330.7 331.9 332.2 331.2 330.6 330.5 329.7 328.5 329.1 329.3 328.3 326.9 324.2 320.5 316.3 312 307 302.9 299.5 293.5 291.3 286.7 283.8 280.4 273.9 266.8 259.6 254.3 252 250.4 249.9 253.3 256.8 252.6 245.3 236.2 228.9 224.3 219.5
192.6 192.2 197.4 199.1 203.5 211.7 217 221.2 225.7 228.8 231.5 237.2 242.5 249.7 251.9 250.3 247.8 247.1 249.1 251.9 260.4 264.4 262.2 258.3 253.5 248.6 243.9 240.3 236 233.9 233.5 235.2 238 240.4 242.7 244.7 246.5 248.6 253 254.7 255.7 257.8 259.7 257.7 251 250.8 251.9 259.5 265.9 270.4 273.8 277.7 280.8 283.8 286.8 291 295.2 298 300.7 303.4 307.8 311.6 315.3 321.2 327.7 333.8 338.6 341.2 345.2 350.1 353.2 355.5 359.1 361.3 363.6 365.5 367.5 370.7 374.1 376.3 378.7 381 382.7 385.1 385.8 386.4 385.9 384.8 382 379.5 377 374.5 371.5 368.9 366.7 364.5 361.9 359 355.8 352.8 349.9 346.8 342.8 339.6 336.4 332.1 328.4 325.5 321.9 317 311.6 309.1 306.3 302.1 298.7 296.1 292.5 290.6 283.2 284.1 286.3 284.8 285.6 285.2 281.6 278.9 276.5 273.4 271.1 263.2 262.8 263.3 269.3 272.8 276.5 283 291 298.9 306.3 313.4 318.4 321.9 324.5 324 323.4 321.2 320.5 323.8 326.7 329.7 331.8 332.7 333.5 334 334 332.8 330.3 328.1 324.5 326.2 327.3 330.6 332 331 330 328.9 328.3 328.8 327.6 327.4 329.7 328.7 326.9 324.7 320.4 316.1 311.8 307.6 302.7 298.6 297.2 296 291.8 287.9 282.7 276.2 271.3 265.9 259.2 254.9 246.6 241.1 243.8 249.8 252.9 247.4 240.4 233.7 226 219.5
194.2 191.9 194 197.2 205.4 214.1 218.2 222.7 225.9 229.5 232.9 237.3 243 249.6 254.5 257.1 253 252.1 254.4 261.8 268.4 270.4 268.5 263.8 258.5 253.2 247.9 243.9 238.9 235.2 234.6 236.6 239.9 243.1 245.2 246.7 247.2 248.4 250.9 254.7 256.4 257.3 259.1 260.1 255.2 251.1 251.2 256.7 263.1 267.6 272 276.2 279 281.8 284.9 288.5 292.8 295.3 298.1 300.9 304 307.8 310.8 315.7 321 326 331 336.3 342.9 348.4 351.1 353.1 357.8 359.1 361.2 364.2 367.2 369.5 372.8 374.7 377.1 379.3 380.4 382.6 383 383.3 382.9 381.7 380.2 377.3 374.5 372.3 369.5 367.2 365.3 363.5 360.9 358.4 356.5 353.8 350.6 347.5 343.8 339.9 335.1 330.4 326.9 323.9 321.5 318 315.7 312.2 309.2 305.4 301.1 298.1 296.1 294.9 292.9 294.8 295 290.2 289.7 286.7 283.7 280.9 278.1 275.2 271.3 266.7 263.2 262.2 264.2 269.9 277.6 283.6 290.1 296.9 304.9 311.8 316.3 319.8 322.8 322.1 320.8 318.4 320 322.8 325.8 328.3 330.4 331.5 331.7 332.4 331.9 330.5 328.2 325.9 322.8 323.6 328.3 330.4 331.6 330 328.6 327.6 327.1 326.9 326.7 329 329.7 327.7 327.1 324.1 320.5 315.9 311.3 306.8 303.4 303.7 302.4 298.5 294 288.4 282.7 278.7 272.6 268 261.7 255.4 250.7 244.2 235.4 243.6 247.1 244.2 240.7 235.2 226.4 215.4
196.3 192.7 192.6 197.5 209.9 217 220.3 223.2 226.2 229.9 234.2 238.6 244.7 251.1 256.6 261.2 256.9 257.5 265.7 272.3 275.8 275.8 271.4 265.7 260.3 254.9 249.9 245.3 241 237.2 235.7 238.4 241.7 244.8 246.8 247.7 248.6 250.4 254.2 255.2 256.1 257.2 258.3 260.1 257.6 258.2 256.3 254.7 261.2 265.4 270 274 277 279.8 283 286.3 290.9 292.9 295.5 298.5 301.6 304.9 308.6 313.3 317.7 321.7 326.4 331.7 337.1 343.4 347.5 351.4 355.9 358.6 361.4 364.2 366.5 368.4 371.2 373.1 375.4 377.4 378.4 379.8 380.1 380.5 380.8 379.7 378.7 376.2 373.6 370.2 367.6 365.5 363.9 362.2 359.1 357.5 355.6 353.5 350.9 347.7 343.5 338.8 335.7 333.4 329.8 327 324.1 320.5 317.7 314.5 310.8 307.2 304.3 302.1 299.5 298.4 298 298.3 297.5 294.9 291.2 287.5 284.8 281.9 278.9 276 272.2 269.9 267.2 261.4 262.2 270.7 276.4 281.3 286.7 293.2 301.9 308.4 314.4 317.7 320.7 319.9 318.6 316.4 318.6 321.9 324.9 326.9 328.5 329.5 329.9 330.3 329.2 327.9 325.4 322.7 321.4 324.3 328 330 331.4 330.1 328.3 326.3 325.4 324.1 325.7 327.7 329.3 328.4 327.2 324 320 316.4 312.2 308.9 306.2 305.1 302.6 299.4 294 287.9 281.8 276.1 271.2 267.3 261.5 254.4 248.7 241.6 232.6 233.1 238.2 234.8 232.6 230.8 221.9 207.4
196.5 191.9 191.8 195.4 204.4 211.6 215.7 221 225.9 229.9 234.5 239.3 244.5 250.9 256.5 260.1 260.2 264 273.8 280.2 281.8 277.9 272.9 267.5 261.2 255.4 251.2 247.8 244 239.7 236.8 239.9 243.1 245.8 248.4 249.6 250.8 253.5 256.9 257.9 258.1 259 258.9 259.5 258.2 252.4 257.6 261.5 260.1 264.9 268 271.8 274.9 277.9 281 283.9 287.5 291.2 293.1 296.2 299.6 303.1 306.5 310.5 314.5 318.6 323.5 328.5 333.6 339.4 344.7 349.7 354.4 358.5 361.5 364.1 366.2 368.4 370.3 372.1 374.1 375.4 376.4 377 377.3 377.6 378.2 377.7 376.7 375.1 372.8 370.5 366.7 364.3 362.7 360.1 357.9 356.4 354.7 352.3 349.2 346.8 344.8 342.4 338.9 335.4 332.1 328.8 326.5 322.6 319.6 316.6 313.3 310.2 308.9 307.9 306.1 301.4 300.9 300.8 299 295.9 292 289.5 287 283.6 280 275.9 274.1 271.3 268.5 264.4 261.4 266.9 273.7 276.9 282.3 290 298.2 305.4 311.8 315.9 318.2 317.8 315.5 310.7 317.2 320.7 323.6 325.2 326.3 327.3 327.8 327.8 326.6 324.2 321.6 318 319.5 325.9 328.3 330 331.1 329.8 328.3 326.4 324.1 320.3 323.9 325.9 328 327.4 326.1 323.2 319.6 317.6 314.2 311 308.7 307.6 304.8 300.6 295.4 291.1 286 280.6 275.1 269.8 263.1 256.9 251.3 245.8 236.5 226.6 221.3 220.7 217.5 220.1 214.9 202.3
193.7 191.3 191.2 194.4 199.6 205.8 211.8 217.6 223.8 229.9 234.7 239.2 243.3 249.1 255.3 258.5 260.8 267.1 277.8 284.4 282 277.8 272.6 267.2 262.3 256.1 252.3 249 246 243.2 238.2 241.2 244.3 247.8 250.2 251.4 252.6 255.4 258.8 260.3 260.3 259.8 259 258 256.1 249 246.6 254.5 259.8 263.7 267.7 270.9 274 276.2 279.2 282.4 285.8 288.2 290.9 294.1 297.9 301.6 305 308.9 313 316.5 321.2 326.3 330.9 335.8 341.6 347.9 353.7 358.7 361.9 365 367 369.3 371.1 372.1 372.6 373 373.7 374.6 375.6 375.7 375.9 375.5 374.9 372.5 371.6 369.6 366.8 364.2 361.9 359.7 357.7 355.8 354.7 353.1 350.4 348.9 346.9 344 340.6 337.3 334.8 332.3 328.8 325.1 321.9 318.9 316.4 313.7 312.9 311.4 308 305.7 304.5 302.9 300.3 297.8 294.2 291.6 289 285.9 281.2 277.7 275.5 272.6 269.4 266.3 260.9 261.5 266.9 272.7 276.2 285.3 294.1 301.7 308.7 314.3 316.1 315.6 312.7 309.3 315.4 318.5 322 323.3 324.6 325 325 324.2 322.8 320.4 317.2 314.3 321.8 326.3 328.7 330.4 330.7 329.1 327.4 325.2 323.1 320.5 322.5 324.6 327.1 326.1 324.7 322.8 320.6 318.3 316 314.1 312.8 310.9 308.7 305.9 301.3 296.3 290.8 285.5 279.7 272.9 265.7 260.1 254.8 249.6 244.4 238.3 229.4 214.4 202.6 198.7 199.9 194.3
190.9 190.4 190.6 194 204.4 211.3 215.2 218.5 223.3 229.6 234.8 240 245.4 250.8 254.5 257.1 259.8 268.6 278.6 280.1 277.8 275.1 270.1 265.6 261.5 256.7 250.5 247.4 245.6 241.8 239.9 241.2 246.1 249.7 251.8 253.1 254.3 256.6 259 261 261.3 260.2 258.8 252.2 247.2 244.5 247.4 251.5 259.7 263 266.6 270.7 272.1 275.2 278.1 281.2 283.9 286.1 289 292.3 296 299.8 303.5 306.9 310.5 315.4 318.4 322.8 328 334.3 340.6 346 351.7 356.9 361 364.1 367.3 368.3 369 370.6 371.9 372.2 372.5 373.4 373.5 373.6 373.7 373.8 373.9 372.1 370.7 369.2 367.3 365 363.7 361.5 359.6 357.7 356.1 354.2 351.8 350.8 348.9 345.8 342.5 339.9 337.7 335.7 332.2 328.7 325.7 322.6 319.2 317.9 316.5 314.1 310.8 308.6 306.7 304.6 301.9 299 296.5 293.8 291.2 286.8 283.3 280.3 277.2 273.5 270.3 266.6 260.3 260.5 262.8 266.8 274.2 281.6 291.2 299.7 307.5 312.7 314 312.9 308.3 308.8 313.7 317.6 320.2 321.7 321.7 320.9 320.4 320.2 319 315.7 311.6 314.5 322.6 326.2 329.1 330.2 330.3 328.6 326.6 324.3 321.8 316.8 321.2 323.4 324.7 324.1 323.4 322.2 320.9 319.3 317.8 317.2 316.6 316.6 315.7 312 307 300.9 294.6 288.3 280.7 271.5 264.8 258.2 253.9 249.5 244.8 234.7 218.8 201.7 191.2 184.6 187.9 186.8
188.9 189.9 191.2 195.2 208.4 218.4 219.5 222.2 224.7 229.2 235.6 240.6 245.1 249 252.3 254.6 258.9 267.2 276.9 277.1 274.8 272.4 269 264.7 260.7 255.3 248.2 243.9 242.2 239.4 238.1 240.8 246.6 250.2 253 254.6 254.9 256.1 257.4 261 261.6 260.4 258.4 246.3 243.8 244.4 247.5 249.9 259.3 263.2 266 267.7 270.7 274 276.7 279.9 282.8 285.1 288 290.6 294.5 298.3 301.2 303.8 307.9 312.3 316.4 322.1 326.5 332.5 336.8 344 349.3 354.7 359.3 363.6 366 366.1 366.7 368.4 370 370.6 371 371 371.5 371.5 372.2 372.6 372.9 372.7 371.4 370.1 368.1 366.9 365.5 363.5 361.6 359.6 357.3 355.4 353.5 352.5 350.8 347.6 344.9 342.8 339.7 337.5 335.4 331.7 328.5 325.3 322.5 322 319.9 317.6 315.2 311.8 308.9 306.4 304 301.6 299.6 296.7 292.8 289.1 284.9 281.8 278.7 274.9 271.5 268.6 260 259.4 259.1 264.6 271.9 278.3 286.9 296.2 305.5 311.1 311.8 310.2 303.6 308.4 312.4 315.7 318.5 319 318.2 317.5 316.7 316.8 315.4 310.9 311.3 317.1 323.5 327.2 329 329.8 329.7 327.9 325.3 322.3 319.4 317.3 319.2 322.2 322.9 322.6 321.6 322.2 320.7 319.5 320 320.6 321.3 321.6 318.9 314.8 309.5 303.4 297.3 290 279.3 268.9 260.5 253.9 249.3 242.8 229.8 212.4 195.8 183.4 173.8 173.8 172.2 174.5
189.5 190.9 193.6 197.1 208.3 218.3 223.7 226.2 228.7 231.9 234.9 239.5 243.2 246.5 249.4 252.7 258.3 265 273 274.4 271.6 270.1 267.7 262.7 256.2 251.3 245.2 240.6 239.2 237.6 236.5 240.1 245.9 250.3 252.9 254.1 253.3 253 253.3 257.7 261.4 259.3 257.6 241.1 243.9 250.6 254.1 252.3 255.6 261.8 265.8 268.2 269.3 274 275.4 278 281 283.9 287.1 289.6 292.9 295.6 298.5 301.4 304.6 307.9 312.2 318.4 324.4 328.7 333.1 339 344.5 349.7 353.9 358.6 362.6 363.8 364.5 366.1 366.8 367.1 367.2 367.2 367.1 369.8 370.7 371.2 371.3 370.9 369.7 369.1 369.7 368.9 367.4 365.4 363.4 361.5 358.9 356.5 355.1 354.1 352.7 349.5 347.3 345 342 339.8 338 334.5 331.1 327.8 324.9 324.4 322 319.7 317.5 314.1 311.3 309 306.6 304.2 302.2 298.6 295.2 291.2 287.5 283.3 280 276.3 272.6 269.6 261.9 259.3 258.7 259.8 267.3 274 282.5 294.1 301.9 308.7 309.8 307.8 298.9 305.9 310.4 314.7 316.4 316.6 315.7 314.8 313.8 313.4 310.5 306.2 313.6 320.1 324.2 327.1 328.6 329.5 328.9 326.7 324.1 320.7 317.6 316 317.4 320.7 320.6 321.6 321.6 322 322.7 323.5 323.1 323.7 323.7 321.1 316.9 313 307.7 302.8 296.4 287.7 276.8 264.9 254.6 247.2 241.9 226.7 208.5 194.1 177 183.1 186.5 183.6 182.2 175.2
191 194.2 200.3 202.1 207.5 216.3 225.5 229.1 231.3 233.4 236.3 239.7 242.3 244.8 247.9 251.7 257.4 263.8 266.3 265.8 268.4 267.6 263.5 257.3 249 244.5 240.1 238.6 237.5 236 236.7 240.4 244 248.5 251.7 250.2 242.2 242.3 241.7 250.4 251.2 250.6 248.6 241 247 257.4 261.5 254.8 252 258.8 264 267.3 271.3 271.9 274.3 276.9 279.6 282.1 285 288.3 290.6 293.2 295.7 298.5 301 304.3 308.1 313.2 317.9 323 328.6 335.1 342.1 346.7 352.2 356 358.4 360.5 361.6 362.1 362.6 362.9 363.2 364.1 365.5 367.7 368.9 369.3 369 368.3 367.2 367.5 368.4 369.1 368.6 367.3 365.3 363.3 360.5 357.7 356.7 355.8 354.6 351.9 349.5 347 344.5 342.3 340.1 337.2 334 330.8 328.1 325.9 323.6 321.4 319.2 315.6 313.1 310.9 308.8 306.7 304.3 300.6 295.9 293.1 288.5 285 281.3 277.1 273.8 270.8 267.3 259.7 259.2 258.8 260.2 269.7 278.3 291.1 299.4 305.4 308.2 305.6 299.3 303.5 307.6 311 313.8 314 312.6 311.2 309.5 308.9 302.8 308.4 316.4 321 323.6 326.5 328.3 328.9 328.3 326.1 323.9 320.4 316.1 314.9 313.6 316.6 316.8 321.4 321.9 324.5 326.8 326.3 326.2 325.4 323 318.7 314 309.1 303.7 298.8 292.9 283.4 272.7 261.9 250.2 241.4 228.5 211.6 190.8 176.4 187.4 198.1 201.3 198.5 194.8 190.2
195.1 202.6 210.4 212.9 216.8 220.3 226.6 230.7 233.5 235.3 237.1 239.7 242.3 244.9 248 251.5 255.4 260.6 262.1 261.3 260.2 259.8 254.7 248 241.3 238.3 237.2 235.6 235.2 234.7 237.8 240.1 243.1 242 239 235.4 236.2 234 234.7 236.7 237.6 238.3 239.7 245.3 255.8 267.9 270.8 264.3 254.6 255.2 264.6 267.8 270.5 271.8 273.4 276.3 279.2 280.9 283.1 285.5 288 290.7 293.6 295.7 299.1 302.1 305.6 310.6 312.5 317.8 322.4 329.4 335.5 342.5 348.2 354.1 357.2 357.8 358.2 359.7 359.6 359.3 359.7 360.6 362.1 363.4 364.3 366.9 366.6 365.6 365 366 366.5 367 367.8 366.9 366 364.5 362.7 360.7 359.1 357.7 356.5 353.9 351.2 348.5 346.1 344.1 341.9 339.5 337 333.8 331.1 328.4 326.2 323.5 320.1 316.8 314.5 312.4 310.4 308.4 305.6 301.8 298 293.4 288.1 285.7 282.2 278.9 275 271.3 267.8 262.1 258.6 258.5 257.5 263 270.6 281.9 292.8 300.1 304.6 305.3 297.8 300.1 304.5 308.2 311.1 310.7 309.2 305.7 301.1 299.1 306.7 312.7 318 321.4 323.4 325.8 327.8 328.5 328.1 326.6 323.8 321.1 320.2 318.7 312.5 309.9 315.9 321.3 323.8 326.4 327.6 327 324.6 322.4 319.2 314.4 308.9 302.9 298.5 293.6 287 278.2 268.3 258.3 246.5 233.2 216 196.9 177.9 191 205.5 215.9 217.9 212.5 211.4 206
202.5 213.1 220.7 223.7 224.9 224 227.1 231.4 235 236.1 238.4 240.6 242.6 245 248.1 251.6 255 256.2 257.1 254.8 248.7 246.8 243.7 238.4 234.4 233.2 233.2 231.7 231.5 233.2 236.5 236.8 235.2 231.7 232.6 232.3 233.8 235.1 239.3 239.8 240.4 244.9 249.8 257.4 268.6 280.5 278 267.6 256.8 254.5 262.8 265.8 269.3 271.4 273.6 276.2 278.3 279.8 281.5 284.3 286.9 289.1 291.4 294.9 298 300.3 303.1 306.5 309 312.5 316.4 322 330.9 336.4 342.7 349 353.1 354.7 355.1 355.8 356.6 356.5 356.2 356.5 356.4 357.1 358.7 361.3 363.8 363 363.4 364 364.1 364.9 366.1 366.8 365.8 364.5 362.9 361.2 360 358.5 357 355 352.3 349.6 347.6 345.7 343.7 341.4 338.7 336.8 334.1 331.7 328 324.8 320.6 318.4 316.1 312.4 310 307.2 305 301.4 298.5 293.6 287.9 284.8 281.5 278.2 275.1 271.4 267.3 263.1 257.9 258.2 256.6 259.8 269.6 278 285 297.5 302 302.1 297.8 296.4 302.7 306.6 308.4 307.3 304.8 298.5 295.7 305.7 311.2 315.6 318.8 321.7 323.4 325.1 327 328.2 327.8 327.2 326 326.6 324.6 323.3 319.1 311 311 320.3 324.4 328.2 326.9 323.2 319.3 315.4 312.4 308.5 304.4 297.9 292.3 287.1 281.7 273.2 263.9 253.9 238.8 219.8 202.9 184.6 190.9 208.3 221.5 229.2 227.1 223.8 220.5 216.1
213.3 222.1 230.8 233.8 234.3 231.8 230.9 233.8 237.1 237.8 239.8 242.1 244.2 246.2 247.6 250.8 252.3 252.7 253 248.7 238.5 233.2 229.6 224.3 224.5 224.2 225 226.7 226.2 226.9 227.9 229.1 229.5 230 230.8 234 240.2 245.7 249.8 251.6 253.6 257.8 265.1 274.4 285.6 288.3 281.4 269.7 259.2 259.9 264.5 266.1 270.3 272.4 273.1 275.3 277.4 279.1 281 283.7 285.8 288.1 290.4 293.3 296.5 299.7 302.4 304.1 305.9 308.5 312.3 315.6 321.1 329.6 336.4 342.9 347.3 349.6 350.4 352.6 353.7 353.8 352.7 352.4 352.4 353 353.5 355.1 355.7 360 361.4 361.6 361.9 363.6 364.5 365.2 365.1 364.2 363.1 361.3 360.1 358.8 357.3 355.8 353.5 350.9 349.1 347.2 345.3 343.3 340.7 337.9 336.7 334 330.9 327.2 324.3 321 316.3 313.2 309 305.6 303.3 301.2 299.2 294.7 290.9 286.6 282.9 279.5 274.6 270.5 266.1 263.3 260.5 257.2 256.6 260.5 277.7 282.5 287.3 293.7 297.1 297.8 294.9 292.5 299.6 304.7 305.7 303.9 299.3 290.2 302.2 308.2 312.4 316.4 319 320.8 322.5 324.2 325.4 327.3 327.1 328.1 329.7 330.5 329.7 327.3 324 318.3 306 312.9 319.2 323.7 323.8 319.5 313 307.6 305.4 302 298.9 294.1 287.8 281.6 276.3 269.4 261.9 247.8 225.8 201.9 187.7 189.7 208.8 225 236 238.2 236.2 233.7 226.7 209.3
223.3 228.7 238 242.8 243.8 238.9 235.7 236.9 238.3 239.8 241.3 243.4 245.8 247.5 248.8 248.3 248.7 249.2 246.9 240.2 231.5 224.9 222.2 222.3 224 225.8 226.1 225.3 227.1 229.7 231 229.6 230.6 232.6 233.9 238.8 246.8 254.6 260.4 262.2 265.7 271.6 281.8 290 292.4 292.4 285.4 272.8 260 259.9 265.5 268.2 270.5 271.8 273.6 275.4 277.6 278.9 280.7 282.9 284.8 287.4 289.8 292.7 295.8 298.8 300.7 302.5 304.1 306.1 308.8 312 316.3 322.1 329.5 335.3 339.8 342.6 343.1 345 347.1 347.6 348.5 348.3 348.9 349.4 349.7 351 352.8 354.1 356.8 357.7 360.3 361.7 362.7 363.2 363.6 362.9 361.3 360.6 360.3 359 357.5 356.1 354.6 352.4 350.5 348.6 346.5 344.5 342.6 340.4 338.2 335.7 332.9 329 326.3 321.8 318.8 315.6 312.3 308.8 306 303.1 300.2 296.4 292.6 287.6 283.1 278 274.4 269.7 264.8 262.3 260.1 256.3 255.9 266.5 283.5 289.2 289.5 291.6 291.8 292.8 289.7 290.7 297.4 300.9 301.9 299.5 292.4 293.4 303.9 308.8 312.6 315.9 317.8 319.3 320.9 322.5 323.6 325.9 326.8 329.9 332.8 334 332.8 330.2 326.6 320.6 311.2 301.1 308.1 315 318.5 315.2 306 300.2 297.7 296.5 294.1 290.4 284.8 279 275.2 270.4 266.4 240.4 214.3 192 184.8 206.4 226.7 242.4 250.3 252.2 249.5 243 232.9 211.5
232.1 234.6 238.2 242.4 245 247.4 245.5 240.7 240.3 241.8 243.3 244.8 246.9 248.3 247.5 245.5 244.8 242.8 238.7 233.1 225.8 221.1 225.2 228.6 230.1 231.8 234.1 236 235.9 237.4 239.1 237.9 239.6 239.9 243.1 247.4 253.2 262.8 269.5 279.5 281.3 284.5 292.3 295.4 296.9 294.9 286.8 276.6 263.1 258.4 266 268.3 271.2 272.2 274 275.5 278.2 279.5 280.6 283 284.9 286.7 289 292 295.1 297.1 298.9 300.6 301.8 302.6 306.6 308.5 313 315.7 321.4 327 332.2 335 336.3 337.4 339.8 340.7 341.7 342.6 343.3 345.2 346.3 347.5 348.9 349.8 351.2 352.7 354.9 357.9 360.7 361.2 362 360.6 359.3 358.6 358.4 358.2 356.7 355.3 353.3 352.2 350.7 348.6 346.5 345.1 343.3 341.2 339.2 336.8 334.1 330.8 327.4 324 320.7 317.5 314 311 307.7 304.4 301.1 297.8 293.2 288.5 283.6 277.9 273.6 268 263.7 260.7 258.3 256.5 261.1 270.9 285.1 291.6 292 289.5 288.2 288.1 285.4 288.2 293.6 296.1 296.7 292.1 284.2 295.9 303.2 308.7 312.3 314.6 315.5 315.9 318.7 320.7 322 324.3 326.9 330.6 334.3 336.5 334.4 331.8 328.4 324.2 315.7 306.3 297.7 304 310.9 309.4 300.1 294.3 290.4 289.9 288.7 286.4 283.1 279.5 276 272.8 255.7 229.8 202.6 179.3 199.7 222.1 244.2 260.5 268.4 269 263.9 253.3 237.1 216.4
238.2 242.2 243.9 245.4 249.1 251.8 251.9 248.5 244.2 244.2 245.7 247.2 247.7 247.8 245.7 242.4 238.3 235.8 232.1 226.6 221.5 224.6 236.5 238.7 243 243.6 245.1 247.7 245.8 245.6 246.5 245.5 246.6 247.5 249.8 253.5 258.4 271.1 280.7 289.2 292.6 295.9 299.5 300.5 300.7 295.8 287.6 277.6 264.3 258.8 264.5 268.9 270.9 273 277.6 275.9 277.3 279.1 280.9 282.4 284.4 285.6 287.7 291.2 293.5 295.3 297.2 299.1 301.2 297.9 302.1 306.7 309.8 312.7 316.9 321.2 327.4 328.4 330.9 332.2 333.6 335.4 337.4 338.4 339.3 340.8 342.9 344 345.1 346.5 348 350.1 351.4 353.6 355.9 357.7 357.9 356.9 356.3 356.3 356.3 357.1 355.1 353.1 351.1 350.2 348.8 347.3 345.8 343.6 342.4 340.7 339 337.1 334.6 331.2 327.5 324.1 320.7 317.3 314 310.7 307.6 304.4 301.2 297.7 293.3 288.8 283.7 278.1 272.8 267.2 262.7 259.3 255.9 255.6 267.2 281.5 291.7 293 291.7 288.7 286.6 284.9 279.7 283.1 289.5 291.7 289.8 283.9 288.1 296.9 304 307.5 310.2 311.4 311 311.3 314.8 316.3 318.7 321.9 325.4 330.3 334.8 335.9 334.5 334 331.8 326.6 320.7 311.1 302 292.4 299.1 300.6 295.3 289.8 284.3 281.4 282.4 282.5 281.1 279.1 275.6 268.8 244.2 216.3 188.3 187.3 212.8 237.8 260.4 280.8 294.8 285.5 278.2 264.3 247.4 226
245.1 247.5 249.3 252.8 254.9 259.4 258.3 255.4 251.3 248.4 247 248.1 247.1 245.3 242 235.9 231.7 228.9 224.9 220.2 220.7 232.8 237.6 241.5 246.2 250.3 256.5 256.2 252.7 252 253.1 253.3 252.8 253.7 256.8 259.7 266.2 283.1 291.4 295.1 298.6 300.9 303.2 304.4 304.1 298.2 289.9 280.7 267.7 258.9 264 268.9 271 272.9 274 276.1 277.3 278.1 279.9 281.9 284.5 286 288.1 290.1 292 293.9 295.8 298.1 296.2 295.5 298.9 301.6 306 311.4 314.2 318.3 322 325.1 327.6 328.6 330 331.6 333.6 334.7 336.3 337.9 339.2 340.5 341.9 343.4 344.8 346.9 348.9 349.8 350.5 351.2 352.7 352.8 353.1 352.7 353.9 353.4 353.3 351.2 349.2 347.6 346.2 345.4 344.3 342.4 341.3 339.6 337.9 336.3 333.8 331.1 327.5 324.1 320.6 317 313.4 309.8 306.7 303.6 300.5 296.5 292.3 287.9 283 277.4 270.7 265.9 262.1 258.3 255.1 254.7 274.4 294.5 298.1 298.8 293.1 289.1 286.8 285.3 278.4 279.1 283.7 286 283.7 279 290.6 297.4 303.1 305.5 306.9 306.9 306.1 306.8 309.8 312.2 317.3 320.4 323.9 329.1 334.2 335.4 336 336.1 335.6 331.1 326.2 316.5 307.6 298.5 289.1 287.7 284.6 282.1 274.4 270.3 274.8 276.7 277.8 276.3 272 257 232 207 177.6 198.6 226.6 251.6 276.1 298.2 315.2 301.7 289.6 273.9 255.3 236
251.4 253 255.7 260.8 270.4 272.4 264.3 261.6 257.5 252.9 250.7 248.8 244.6 239.2 233.9 229.3 223.8 219.1 221.3 228.1 232.4 236.9 238.3 241.3 246.7 254 262.2 264 260.5 259.7 260.8 264.6 265.9 262.8 263.4 270.5 281.9 291.1 296.6 300.4 303.5 306.5 308.8 309.2 306.1 300.5 292.1 280.6 271.9 261 263.3 265.7 270.3 271.4 273.9 276.2 277.9 278.2 279.2 281.5 283.8 284.9 287 289.8 291.8 293.2 294.5 293.9 292.2 295.2 298.7 301.7 304.9 310.1 313.8 316.9 318.9 321.7 323.9 325.3 326.9 328.9 330.9 332.1 333.7 335.4 336.9 338.1 339.2 340.5 341.8 343.1 345.7 346.9 347.7 348 347.8 348.9 349.4 349.7 351.1 351.6 351.5 349.9 348.1 346.1 344.4 343.6 342.8 341.5 339.9 337.9 336.3 334.7 333 330.3 327.3 323.6 319.9 316.2 312.3 309.2 305.9 302.7 299.1 295 290.3 286.3 282.1 275.8 269.6 264.4 260.3 257.4 255 256.9 281.6 297.7 303.8 302 294.9 289.7 286.6 285.6 283.4 274.7 278.1 279.2 273.8 283.1 292.1 297.9 301 302.3 302.4 301.9 300.7 301.6 305.8 310.9 315.3 319.2 322.7 327.7 333.2 336.5 337.1 337.7 337.8 334 329.2 322.2 313.2 306.9 303.8 298.4 292.4 284.5 278.8 271.1 262.3 263.8 267.7 268.5 263.8 244.7 221.8 197.1 180.3 207.5 235.9 262.6 287.3 311 321.5 316.4 301.1 281.9 260.7 240.8
257 261.6 266.3 271.5 280.6 279.8 273.3 267.6 264.1 258.3 254.4 248.8 238.9 228.1 221.6 216.9 218 229.9 236.4 238.6 239.7 240.8 241.5 244.7 248.4 255.5 265.1 269.4 268.8 268.6 270.5 275.2 276.1 273.4 276.7 283.7 291.8 296.4 300.5 304.1 307.6 310.2 311.5 311.4 307.8 301.7 293.5 279.1 273.1 261.9 267.5 269.6 270.7 273.1 275.3 277 278.7 279.8 280.4 281.4 282.7 284.5 286.7 288.9 290.6 290.7 289.6 290.7 294.6 297.2 299.9 302.5 305.6 309.9 312.6 315.2 317.4 319.4 321.3 323.4 325.5 327.5 329.4 330.4 331.5 333.2 334.5 335.6 336.7 337.9 339.2 340.4 342.1 343.8 344.5 344.7 345 345.6 346.6 347.2 348.3 348.6 348.4 348.1 347 345.1 343.1 342.1 340.9 340.1 338.6 336.5 334.4 333.2 331.6 329.4 326.8 323 319.2 315.4 311.1 308.1 305 301.5 297.8 293.5 288.8 284.4 280.6 275.6 269.9 264 259.9 255 255.2 268.7 283.6 298.3 306.4 303.3 297.1 291.2 286.4 281.5 282.7 279.7 272.8 271.5 274.5 285.3 292.4 296.3 297.7 297.8 297.6 296.5 294.3 297.6 304.6 310.5 313.4 318.1 321.7 327.7 335.7 338 338.4 339.1 337.7 336.5 332.2 328.6 321.5 316.9 314.7 312.2 306.8 297.6 286.9 279.1 271.7 262.9 255.4 254.7 252 233.3 214.8 189.5 182.7 213.5 243.2 270.3 296.1 316.4 323.7 327.1 310.3 288.6 266.8 244.4
267.3 271.4 274.7 278.3 283.9 284.7 280.4 275.5 270.4 262.8 255.3 245 228.7 216.3 213.2 215 227 239.8 249.2 251.9 249.5 247.3 245.8 248.4 252.7 260.4 268.3 272.8 274.7 276.9 281.2 283.8 283.8 286.3 289.5 292.2 295.3 299 302.4 307.1 309.7 311.4 312.2 310.5 306.9 301.5 292.1 280.4 271.9 263.5 269.3 271.4 272.2 273.9 275.3 277.3 279 280.2 281.4 283.2 283.4 285.2 286.3 287.2 287.8 289.2 291.2 292.6 295.8 297.8 300.3 303.5 307 309 312.1 314.9 316.8 319 320.3 322 324.1 326.1 328 329.1 330 330.9 332.1 333.1 334.2 335.3 336.5 337.6 339 339.9 341.1 341.4 342.3 343.1 343.8 344.4 344.7 344.2 343.8 343.7 343.5 342 340.3 339.5 339.1 338.6 337.4 335.3 333.8 332.2 330.4 328.5 324.9 321.6 318.5 314.5 310.2 306.8 303.9 300.1 296.2 292.3 287.7 283.5 278.9 273.3 269.2 264.2 259.1 254.2 257.2 272.3 286.1 301.4 304.6 302.3 298.9 293 286.8 279.2 278.5 279.3 270.9 267.3 278.8 284.8 289.1 292.1 293.8 293.5 292.2 290.4 289.5 297.3 303.1 306.1 313.3 316.9 321 329.7 337.4 339.6 339.9 340.5 340.8 340.5 338 335.3 331 328.2 326.6 323.1 316.7 302.9 293.1 284.6 278.5 272.9 263.8 249.9 234.3 221.9 204.7 185.8 182.5 216.3 247.3 274.8 301 315.5 323 329.1 315.3 291.5 271 250.5
274.7 278.7 280.6 283.1 284.8 283.9 282.3 278.5 273.6 266.6 253.9 241.2 222.3 211.3 215 222 229.7 245.9 261.6 266.3 262.3 259.6 259.7 257.1 260.4 265.7 271.2 276.4 279.9 285 289 290.3 289.7 291.7 293.7 295.1 298.1 300.8 304.5 307.1 309.3 310.7 310.1 307.8 303.6 298.1 286.5 278.7 272 264 269.3 272.9 273.7 275.4 276.6 277.5 279.2 280.5 281.7 283.6 285.2 286.5 287.5 288.6 289.8 292 293 294.7 297 298.9 300.8 304.1 306.6 308.8 311.2 313.4 315.4 317.8 320 320.7 322.7 324.6 326.5 327.8 328.5 329.6 330.3 331.3 332 332.6 332.6 334.2 335 335.9 337.1 338.4 339.6 340.5 341.3 341 340.9 341 341.2 340.2 339.6 337.9 336.3 335.4 335.2 335.8 335.4 334.5 333.1 330.7 329.1 327.5 324.4 321.4 317.8 314.1 310.4 307.1 303.8 298.8 294 289.8 286.5 282 278.9 273.7 269.3 264.6 259 253.6 259.2 274.4 286.7 300.2 302.2 300.3 298.9 293.9 286.8 278.6 274.5 275.7 267.4 268.2 277.2 282.3 284.9 287.7 289.1 287.6 286.3 284.3 289.9 297.1 301.2 308.7 312.2 315.6 319.5 330.2 338.6 339.2 339.5 340.2 343.9 344.6 342.6 339.6 337.8 335.3 331.2 325.7 317.3 301.6 291.8 284.4 279.3 274.8 268.9 259.3 241 220.6 205.2 186.8 189.3 218.6 250.2 275.9 301.3 314 321.2 326.1 317.2 295.3 276.5 258.9
278.6 280 281.7 284.1 283.9 282.8 281.8 280.1 276.6 264.7 251.8 237.1 217.4 209.7 215.2 224.5 232.6 250.4 266.9 275.5 270.1 271.8 274.9 272.2 270.3 273.4 275.8 281.4 285.9 291.5 294.2 293.7 293.5 293.6 295.1 296.5 300.5 304.1 307 308.1 306.6 307.5 306.3 304.4 299 291.5 284.9 279.7 270.2 266.2 269.8 273.3 275.4 276.7 277.8 278.9 279.7 281 282.3 284.9 286.5 287.7 288.7 289.9 291.3 293.3 295 296.5 298.6 299.4 301.7 304 306.2 308.4 310.6 311.5 314.4 316.3 319.1 320.3 321.3 323.2 325.1 325.9 327.7 328 327.8 328.1 328.6 329.1 329 330.3 331 331.9 332.7 333.1 334.7 335.9 337.9 338.5 337.7 338.4 337.1 335.8 334.9 333.9 332.5 331.7 331.3 331.5 331.6 331.3 330.7 328.9 327.3 325.7 323.2 321 317.9 314.6 311 307.3 303.3 299.3 295.3 291.3 287.1 282.7 277.8 273.1 268.1 263.5 256.4 253.2 262.2 278 289.2 297.3 297.2 297.6 298.5 293.6 287.6 279.2 269.6 270 263.8 264.6 273.7 277.4 280 282.7 283.2 281.9 279.4 280.1 288.5 296.8 301.8 307.3 310.6 313.9 317.8 327.6 336.8 337.3 337 338 341.2 345.6 343.9 341.7 341.2 336.1 330.1 323.7 313.1 298.8 289.7 282.7 277.5 273.2 267.3 259.6 245.3 225.4 206.8 188.3 196.4 226 253.6 278.1 298.3 312.9 321.7 326.5 322.5 301.1 285.3 269.9
277.7 279.9 281.7 283.4 283.2 282.1 281.1 277.3 269.8 259.4 246.6 232.5 218 209.7 215.4 226 235.4 252.2 266.8 276.6 280 283.9 288 288 283.8 281.6 283.6 289.3 293.9 296.9 296.4 295.4 294.4 294.4 296 297.6 300.8 304.1 306.5 307.3 304.4 302.4 301.4 299.7 294.2 289.1 284.4 279.4 274.3 266.6 270.7 274.1 276.3 277.5 278.7 279.9 281.4 282.4 283 285.2 286.9 288.3 289.4 291 292.9 294.3 295.4 296.6 298.9 301 302.6 303.6 305.8 308 310.1 311.9 314.1 316.1 318 319.7 322.1 323.2 323.9 325.2 325.9 326.1 325.5 325.4 325.7 325.2 325.4 325.1 327.3 327.6 328.6 328.7 329.8 330.8 332.8 334.8 334.3 334.7 333.6 332.5 331.3 330.1 328.6 327.8 327.7 327.9 327.7 327.5 327.3 326.9 325.3 323.7 322.2 320.3 317.2 313.9 310.5 306.9 303.1 299.1 295.1 290.7 286.1 281.6 277.1 271.8 266.7 261.7 257.8 252.7 262.9 281.5 287.8 290.3 291.4 295.7 298 296 293.6 285 274.2 262.7 259.6 260.7 269.4 272.4 274.5 275.7 275.8 272.9 274.3 280.5 286.8 294.3 300.6 306 309.3 312.5 315.3 323.1 331.8 335.1 333.6 334.7 337.9 339.9 340.5 340.6 339.7 334.3 327.7 320.6 307.2 295.8 286.6 279.7 274.6 270.4 264.9 256.2 242.9 222.3 203.1 187.8 206.7 234.5 257 278.6 296.2 313.1 323.6 330.6 331.7 312.8 296.5 280.6
276 278.2 279.8 281.5 281.7 280 276.5 270.3 261.2 249.9 237.5 224.9 213.2 208.9 217.1 226.1 235.9 252.4 267.4 279.6 288.7 289.8 290 290.8 289.7 287.5 292.1 297.1 299.2 298.8 297.5 296.2 295.3 295.1 296.7 298.4 300 302.5 304.3 304.6 301.8 299.5 298.2 294.7 291.1 287.3 283 279.4 275.7 268.6 270 273.4 276.5 277.7 279.1 280.2 281.7 283.2 284.6 285.8 287.3 288.3 289.3 290.6 292.2 294.5 295.5 296.6 298.8 301 302.6 303.7 305.6 307.7 309.5 311.1 313.1 315.7 317.7 319.4 321.6 323 323.1 323.9 324.1 323.9 323.2 322.9 323 322.8 321.7 321.5 322 323.4 323.6 324.6 325.7 325.8 327.2 329 330.2 330.3 330.1 329.1 328 326.8 325.5 324.1 324.1 324.2 323.9 323.7 323.7 323.9 323.1 322 320.7 318.1 315.4 312.3 309.5 306.3 302.9 298.9 294.5 290 285.4 280.7 276.6 270.3 266.4 261.1 256.8 252.2 264.6 277.1 278.8 284.2 290.5 294.4 296 295.8 296.2 287.9 279.4 268.8 255.5 257.2 265.1 266.8 268 268.7 267.7 268.7 273.7 279.8 286.3 292.6 300 304.6 308 310.4 312.4 318.5 326.7 330.8 329.6 329.5 330.8 333.2 335.1 335.5 338.1 331.8 325.1 316.9 304.1 292 283.1 276.4 271.2 267.1 262.1 254.6 236.4 214.9 198.5 193.9 218.2 241.1 261.3 278.7 296.2 314 327.4 335.9 339.3 320.2 303.9 289
274.7 276.5 278.1 279.7 280.2 277.2 267.2 259.8 250.2 236.3 224.3 211 209.5 210.4 216.9 223.8 234 248.5 266.7 281.3 286.9 286.4 289 292.5 293.5 296 299.6 300.8 300.2 299.1 298.2 297 296.1 295.9 297.2 298.5 299.4 300.4 301.1 301.7 299.4 297 294.4 292.2 290 285.8 281.7 278 275.2 271.4 270.9 274.3 276.6 278.2 279.4 280.5 282 283.5 284.9 286.3 287.2 288 289.2 290.5 292 294.5 295.8 296.7 298.8 301 302.6 303.8 305.3 307.1 308.8 310.4 311.9 314.2 316.5 318.8 320.9 321.6 322.2 322.7 322.6 322.2 321.6 320.8 320.7 320 318.8 317.6 317.8 318.3 318.4 321.3 323.1 322.9 322.2 322.9 324 325.1 325.2 324.8 323.5 322.2 321 320.7 320.4 320.5 320.6 320.8 320.9 321.1 320.3 319.3 318.3 316 313.4 310.8 308.3 304.9 301.5 298 294 289.3 284.8 279.7 273.8 268.8 264 260.4 255.7 252.1 263.3 271.7 276.4 284 288.9 293.3 293.9 294.2 295.5 287.9 280.5 271.4 257.7 252.7 258.8 262.5 263.8 265.4 262.7 264.1 268.9 275.2 282.3 289.2 297.9 303.2 305.9 307.5 309.4 314.4 322 326.5 324.9 323.5 324 326.4 328.7 332.9 336.7 332.2 324.9 317.4 303.6 290.9 281.3 274.4 269.4 263.3 254.7 243.6 222.2 200.9 192.6 206.5 226.5 246.5 264.1 279 296.8 315.4 329.8 339.6 344.5 325 309.7 294.9
272.7 274.2 275.2 276.6 274.6 264.7 253.7 248.1 237.7 222.5 210.8 207.2 216.2 222.3 219.7 221.6 230.2 245.5 263.2 278.2 279.4 280.3 286.5 292.5 296.7 300.8 302.1 300.6 299.5 298 296.8 295.4 294.9 295.1 296.9 298.3 298.7 298.2 298.5 299.1 297.6 295.6 293.5 291.5 289.3 285.3 279.5 278.2 275.5 275.1 270.5 274.2 276.7 278.6 279.7 280.7 282.2 283.7 285.2 286.5 287.1 287.8 289.2 290.6 292.1 294.3 295.4 297.2 298.8 301.1 302.6 303.9 305.5 306.5 308 309.6 311.4 313.5 315.8 318.2 319.9 320.4 321 321.2 320.6 319.7 319.3 318.4 317.8 316.9 315.8 314.8 314.1 314.7 316.4 318.2 318.6 319.3 319.2 318.4 320.3 320.9 320.3 319.8 319.2 318.1 317.7 317.5 317.2 317.4 317.6 317.7 317.8 317.9 317.4 316.6 315.8 314 311.2 308.4 305.7 302.6 299.3 295.7 292 288.2 284.1 279.9 272.8 267.1 261.8 258.4 254.2 251.3 262 268 276.1 282.7 288.7 291.1 291.3 291.7 293 285.7 279.5 273.2 262.7 249.1 252.2 255.8 261 264.6 261.5 259.8 263.5 269.8 278 287.6 296.9 302.8 304.9 304.5 305.8 309.9 315.8 319.8 318.8 317.2 317.7 320.1 324.8 331.8 336.6 333.7 326.8 319.4 305.3 291.8 282.1 275.2 269.3 263.8 246 231.7 205.7 183.9 192.3 209.5 228.9 247.8 265.1 280.7 297.8 317.3 332.1 342.6 348.6 326 313.4 299.6
269.6 271.4 273.2 272.5 263.5 254.2 245.9 237.7 226.9 216.5 209 218.6 228.2 233.6 232.7 224.6 228.4 243.4 253.8 262.6 266.4 269.7 283.3 290.6 296.1 298.5 298.2 298 295.5 288.3 288.7 291.9 291.4 294 295.8 298 297.7 297 296.5 296.6 296.3 294.1 292.6 290.7 288.1 284.1 283.3 279.5 278.7 278.1 272.7 272.2 275 277.3 279.3 280.8 282.5 284 285.4 286.4 287 287.9 289.4 290.8 292.3 293.9 296 298.1 300.5 301.1 302.8 304.1 305.5 306.1 307.8 309.5 311.5 313.6 315.8 317.8 318.9 319.4 319.9 319.3 318.3 317.4 316.5 316.3 315.9 314.6 313.4 312.5 311.9 311.4 313.8 314.8 314.7 314.7 315 315.7 316.4 317.2 317 316.4 315.5 314.8 314.4 314.2 314 314.3 314.4 314.5 314.7 314.6 314 313.3 312.6 311 308.7 305.9 303.1 299.9 296.4 293.2 289.4 286 282.1 278.3 272 266.1 261.1 257.4 252.3 251.2 263 274.9 280.6 285.5 287.8 287.8 288.3 287.8 288.7 282.7 276.6 270.9 264.3 254.3 245.9 250.8 258 262.4 261.1 256.8 259 267.3 275.5 284.8 294.6 301.2 304.6 301.4 302 305.4 309 311.7 311.9 310.9 311.5 314.8 322.1 331.7 338.1 335.8 329.4 322 308.4 293 282.8 276.2 270.8 267 264.9 246.4 214 186.4 190.1 205.4 224.5 245.4 264.2 282.2 300.1 319.7 335.2 345.9 344.4 326.8 314.9 303.6
266.5 268.6 270.1 264.9 254.9 242.9 234.1 226.4 214.3 205.7 212.7 227.7 239.2 246.7 246.1 237.2 227.3 238.1 244.7 249 254.2 261.8 271.2 281.6 291.8 292 293.1 285 279.7 281.8 286.5 291.8 294.5 293.4 295.2 297.9 297.5 296.6 295.7 294.8 294.7 292.5 291 288.6 287.6 286.6 284.6 281.5 280.8 280.4 278.2 275.7 276 275.4 278.7 280.8 282.3 284.2 285.7 286.4 286.9 288.2 289.7 291.1 292.6 294.9 297.7 299.7 301.8 302.9 303 303.7 305.2 306.6 308.1 309.7 311.8 314 316 316.9 317.7 317.9 318.2 317.5 316.7 315.8 314.9 314.7 313.9 313 311.1 310.4 309.7 307.8 310.2 312.1 311.3 311.2 311.2 311.8 312.6 313.4 314.1 313.1 312.4 312 311.2 310.9 310.7 311.1 311.2 311.4 311.4 311.1 310.6 310 308.9 307.6 305.8 303.3 300.3 296.5 292.7 289.8 286.5 282.6 279.4 275.2 270 264.6 260.5 256.4 251.7 250.5 263.3 274.2 281.5 287 288.5 286.4 285.4 283.7 283.3 278.6 272.6 267.4 261.6 255.5 249.5 245 250.3 256.4 257.3 253.7 257.1 265.4 273.5 280.9 290.4 297.2 302.2 299.5 297.7 300.3 303 304.6 305.8 305.7 306.8 311.8 319.8 333 341.4 338.8 332.1 324.2 311.4 294.3 282.5 276.2 273.1 272.9 273.3 258.9 230.8 202.9 185 190.9 212.2 238.3 261.2 281.8 301.8 322.7 339.6 350.2 339.5 328.1 316.2 306.8
264.4 266.6 268.1 258.5 244.8 227.6 220.9 216.1 204.4 209.5 220.2 234.8 248.8 261 260.4 252.9 237.6 236.4 234.9 238.9 241.8 248.7 255.8 269.9 277 275.1 277.7 274 280.2 292.1 290.9 289.4 296.8 297.7 297.6 298 297.5 296.7 295.9 295.1 294.1 293.1 292.1 290.6 288.8 287.6 285.9 283.6 282.9 282 279.7 278.4 278.2 278.7 279 278.7 281.9 283.7 285.9 286.4 287.1 288.6 290 291.4 293.8 296.7 299.4 301.8 304.2 305.3 305.3 305 305.5 307 308.9 310.7 312.8 314.3 315.1 316 315.5 316.7 316.4 316 315.2 314.2 313.3 312.7 311.9 311.1 309.4 307.8 307.5 304.6 307.7 308.2 308.6 308.7 308.6 308.5 308.9 309.5 310.3 310.3 309.2 309 308.6 307.8 307.4 307.6 308.1 308.1 308.1 307.7 307.1 306.6 305.6 304.2 302.7 300.2 297.1 293.1 289 285.7 282.4 278.8 276.6 272 267.4 264.1 260.2 253.6 250.4 252.5 261.6 274.2 282 286.4 288.7 286.5 283.9 280.4 276.6 272.9 268.7 264.2 259.3 253.4 249.7 243.5 243 249.4 252.2 250.1 255.9 264 271.2 277.5 283.9 291.9 296.7 297.2 293.8 295.7 297.3 298.7 300.2 300.6 303.5 309.8 321.3 334.9 343.4 340.8 334.2 326 311.6 292.1 281.7 276 273.3 274.9 275.7 265.9 248.7 223.9 204 188.7 197 228.3 254.9 279.7 302.1 326.1 343.6 353 338 328 316.6 307.2
261.9 264 265.4 253.3 235.4 222.8 214.9 209.6 204.6 208.8 223.2 237.2 250.7 270 276 269 262.4 257.6 252.2 248.3 243.1 242.2 250.2 260.1 266 268.2 271.4 284.5 292.6 296.1 296.8 295.1 295.9 299.7 299.8 299.4 298.7 298 296.9 295.9 294.8 293.8 292.8 290.9 289.2 288 286.8 285.8 285.2 283.8 282.2 281 280.5 280.8 281.2 281.2 281.7 283.6 286.4 287.1 287.7 289.2 290.8 292.7 294.9 297.7 301.8 304.3 306.7 307.7 307.2 306.7 307 308.9 310.1 311.9 313.7 313.5 313 314 314.5 314.8 314.5 314.1 313.7 313.2 311.5 310.6 309.8 307.8 307.7 305.7 304.9 302.3 303.7 305.1 306.1 306.1 305.9 305.4 305.8 306.2 306.6 307.2 305.8 305.2 305.5 305.6 304.5 304 304.9 304.8 304.8 304.3 303.9 303.2 302.4 301.4 300 296.9 293.7 290.3 286.2 282.2 278.8 276.1 273.8 271 266.6 263.3 259.4 253.5 250.3 251.2 262.4 273.7 278.2 285.7 289.2 288.9 286.6 282.4 275.1 268.3 263.1 261.1 256.6 252.5 251.5 247 240.7 242.2 247.1 246 252.3 260.6 267.8 273.7 279.6 284.9 292 294.7 290.6 290.5 291.7 293 294.3 295.5 300.9 309.7 325.1 337.5 342.7 341.2 334.1 325 306.1 289 280.7 276 273.6 274.8 277.1 268.7 256.7 237.9 219.8 202.1 186.9 216.8 247.4 274 300.5 325 343.7 351.9 338.1 327.4 317.1 308.3
258.3 261.2 262 249.3 228.5 218.3 206.4 203.6 207.3 215.2 223.6 235.2 246.2 260.8 277.2 279.6 277.9 277 271.3 267.1 263.5 260.7 256.9 253.6 262 270.2 281.5 289.8 296.1 298.4 299.6 297 295.6 297.7 299.7 299 299.6 298.8 297.6 296.6 295.5 294.5 293.3 291.5 289.6 288.9 288.3 287.5 286.5 286.7 285.3 284.4 283.6 283.4 283.4 283.6 283.7 284.1 285 287.7 288.6 290.1 292.1 294.3 296.3 299.3 303.9 306.7 309.5 310.6 309.6 309.3 309.5 310.9 312.3 313.2 313.4 312.8 312.2 311.7 311.9 311.7 311.6 311.4 311.2 310.8 310.2 308 307.2 306 305.3 304.7 303.2 302.3 300.4 301.7 303.2 303.9 303.4 302.8 302.8 303.2 303.6 304.2 303.7 302.5 302.4 302.4 302.4 301.7 301.8 300.8 301.5 301.1 300.6 299.8 298.9 298.1 297 293.7 290.4 287 283.2 279.2 275.6 273.6 271 268.5 266 263 259.3 254.9 249.9 249.8 260.9 272.7 279.2 287.4 290.8 290.8 290.1 287.1 278.2 271.9 266.2 261.4 257.4 255.5 251.9 248.8 243.2 236.5 242.9 243.9 249.2 256.7 264 268.9 275.1 280.8 286.2 291 289.6 285.9 286 287.2 288.3 291.1 298.2 311.9 329.8 340.5 344.6 341.3 334.4 322.8 302.1 287.8 280.4 275.6 272.8 273.5 274.3 270.4 261.7 247.2 230.2 208.3 189.7 215.7 243.8 269.9 296.6 320.5 339.3 349.2 338.2 327 317 309.4
254.5 257.8 258.6 245.5 230.1 216.2 201.2 205.5 212.8 221.2 228.6 234 247.2 260.3 274.5 279.6 283.5 286.2 286.4 280.5 278.1 278.2 274.6 265.6 269.6 276.2 285 293 296.8 299.3 299.7 299.9 299 299.7 299.7 300.5 300.8 299.9 298.7 297.4 296.2 295.2 293.9 292.3 291.5 291.2 290.7 289.9 290.3 290 289.5 288.6 287.7 287.4 287.1 287 286.8 286.1 284.6 288.6 289.5 291.5 293.5 295.4 297.3 300.5 304.7 309.3 312.8 313.4 313.5 312.3 312.2 313.6 313.4 313.1 311.6 310.7 310.1 309.9 309.8 309.4 309.2 308.9 308.7 308.5 308.7 306.7 305.1 303.6 302.8 302.5 302.2 299.2 298.3 300.8 301.2 301.5 301.2 300.8 300.1 300.2 300.7 301.3 300.8 300 299.7 299.7 299.7 299.3 299.1 298.3 297.5 297.9 297.2 296.4 295.5 295.1 293.6 290.8 286.9 283.5 279 276.2 272.1 270.1 268.2 266.7 265.1 261.6 257.7 252.6 249.7 250.9 262 273.6 284.2 291.8 294.4 292.8 290.2 288.6 280.6 273.6 267.4 263.3 258.8 255.4 252.9 248.6 247.3 239.7 236.9 240.3 244.9 251.9 258.3 263.7 269.6 274.5 280.7 286.6 288 284.4 279.7 280.8 281.9 287.1 296 313.2 330.5 341.1 344.7 341.8 334.2 320 301.3 286.6 280.3 275.1 272.3 271.6 272.8 272.2 265.1 252.6 236.8 208.8 187.1 213.9 242.3 266.5 289.8 311.9 332.7 343.4 338.4 328.1 316.8 310.1
251 253.2 254 244.9 232.5 215.5 200.9 204.7 215.6 225.3 236.3 247.8 252.4 258.1 268.5 278.2 283.9 288.8 289 287.5 285.3 288.9 288.9 281.9 280.1 280.4 285.9 293.3 294.2 298.1 299.3 301.1 302.1 302.6 301.3 302 301.8 300.9 299.7 298.5 297.3 296 295.1 294.3 293.5 293 292.7 293.1 293.8 295.2 295.5 294.8 293.9 292.6 291.5 291 290.2 288.9 287.9 289.5 290.6 292.6 294.5 296.5 298.4 301.6 306.5 310.9 313.5 315.4 316.4 315.9 315.1 313.6 312.4 311.1 309.7 308.5 308 307.9 307.6 307.2 307 306.7 306.4 306.1 304.7 303.2 302 301.1 300.8 300.6 300.3 299.2 296.9 298.7 299.2 298.8 298.1 297.7 298 298 298.3 298.1 297.7 297.4 297 297.4 296.4 296.2 296.1 295.9 294.6 294 294.3 293.5 292.8 292.4 290.1 287.6 284.7 280.9 275.6 274 270.2 268.3 266.8 265.4 264.2 260.1 256.3 252.3 249.3 249.9 262.8 274.6 286.6 293.8 295.7 295.1 292.2 287.4 281.2 274.2 268.3 262.9 260.4 256.7 253.3 252 250 246.9 238.3 236.5 240.4 245.6 252.6 258.7 263.9 268.4 273.1 280.6 283.3 282.7 278.1 273.3 277 283.1 294.5 312.4 326 335.9 342.1 340.1 331.8 318.3 302.4 288.3 280.8 275.4 271.5 270.1 271.9 271.9 265.9 253.5 232.7 200.2 191.9 214 236.8 260.4 282.7 302.9 322.6 337.5 339.4 330.9 321.4 313.4
246.4 248.8 249.5 248.6 237.2 214.9 192.6 202 212.6 222.7 236.1 251.7 254.2 256.1 260.6 272.3 279 285.2 290.1 290.9 291.2 292.7 294.4 293 291.7 292 292.2 295.3 296.2 298.2 300.1 302.3 303.6 304.3 303.7 303.8 302.9 301.9 300.7 299.6 298.3 297.1 298 296.1 295.4 295.6 296.5 298.5 301.1 302.9 303.4 303.5 303.4 302.4 300.3 297.7 295 292.3 290.1 288.1 291.3 293.3 295.4 297.4 299.5 302.2 305.5 309.2 312.5 316.4 318.2 316.9 314.8 311.7 310.5 309.2 307.9 306.4 306 305.8 305.4 305 304.7 304.5 304.1 303.7 302.1 300.6 299.3 299.3 299.1 298.8 298.2 297.3 294.7 296.7 296.5 296.2 295.9 295.5 295.2 295.8 296 294.9 294.6 294.4 294.7 293.9 293.6 293.4 293.3 293.1 292.6 291.7 290.9 291 290.3 289 287 284.4 281.6 279.1 276.2 272 268.4 266.4 264.5 262.8 261.4 258.6 255.7 252.4 249.9 249.6 264.1 279.6 289.7 293.7 296.7 295.5 292.2 288.2 283.6 276.9 271.4 265.9 261 257.8 255.6 255 251.4 247.7 244.8 236.2 234.3 240.2 246 251.7 257.5 261.6 265.4 271 274.6 277.9 276.1 269.3 271.5 278.9 292.2 308.7 316.8 326.8 335.1 335.3 325.3 315.3 302.6 290.5 282.9 276.3 272.1 267.9 269.1 268.2 261.8 250.6 230.4 199.2 189 205.6 226.9 250.7 274 296 315.2 332.9 340.9 334.1 326 317.1
241.1 243.6 245.3 243.3 241.2 219.5 201.4 196.7 207.9 218.6 235.6 248.7 257 258 257.8 267.7 276.2 280 284.8 290.6 294.1 294.9 296.4 298.1 297.5 297.5 298.6 299.9 300.4 301.8 303.4 306.1 306.7 306.9 305.7 304.9 304 302.9 301.8 300.6 299.4 299.1 299.8 298.8 298.5 299.6 301.4 302.8 306.3 306.9 307.5 307.5 306.8 305.3 302.2 300.2 297.2 294 292.4 290.2 291.8 293.9 296 298 300 301.9 304.3 308.5 312.8 317.8 319.7 316.7 313.6 309.8 308.6 307.2 305.9 304.6 303.9 303.6 303.2 302.9 302.5 302.2 301.7 301.2 299.6 298 297.3 297 297.2 297 296.3 295.6 293.7 293.2 294.4 294 293.7 293.2 292.8 293 293.3 293.2 292.4 291.7 291.6 291.4 291 290.8 290.7 290.7 290.7 289.8 289 288.2 287.8 285.9 284.1 281.5 278.4 275.5 272.3 270.1 266.7 264 261.8 260.4 259.2 256.8 254.2 250.6 248.8 251 263.9 279.9 287.5 289.7 292.7 293.8 292.1 287.9 284.7 279.5 274.6 269.5 264.6 264.9 261.6 256.4 251.7 247.9 244.8 240.1 234.6 235.1 238.8 243.7 248.8 254.7 258.7 263.6 267.3 270.4 271.6 265.3 266.2 274.3 287.1 300.7 308.3 312.5 324.8 330.7 321.2 313.4 302.6 293.3 286.1 278.5 272.7 268.1 264.7 261.3 255.7 247 232.3 208.6 191.5 191.8 206.5 235.2 263.2 289.7 311.5 328.8 339.2 336.3 328.7 320.3
235.1 238.2 240.2 238.5 234.1 218 202.8 196.7 194 214 233.5 244.5 255.7 258.9 257.2 267.6 274.5 276.6 280.4 286.7 289.6 292.1 293.7 296.6 297.4 298 299.7 301.5 304.8 305.7 307.5 310.5 309.4 308.8 308 307.1 306.3 304.2 303 301.8 300.6 300.8 300 301.4 302.3 304.6 305.7 306.8 308.2 309.2 309 308.8 308.4 306 303.3 300.6 297.6 294.7 293.1 291.5 291.3 294.3 296.5 298.6 299.9 302.5 305.3 308.7 314.2 319.8 320.8 317 311.8 307.9 306.6 305.3 304.2 303 302.1 301.5 301.1 300.7 300.4 299.9 299.3 298.8 297.1 295.9 295.2 294.8 294.9 295.1 294.6 294 292.8 290.1 291.7 291.8 291.4 291 290.5 290.3 290.6 290 289.3 289.4 289.3 288.9 288.5 288.2 288 288.3 288.7 287.9 287.1 286.2 285.3 284.1 282.4 278.1 275.5 273.1 270.7 266.6 264 261.8 259.2 257.6 255.9 254.9 251.5 248.3 248.4 258.8 273.6 281.4 283.1 284.1 286.8 289.8 293.3 290.2 285.8 282 277.9 274.3 270 267.2 264 258.3 252.7 248.7 245.5 242.1 239.6 235.6 233.8 238.4 243.7 249.6 253 257 260 262.7 265.5 261.4 259.6 270 281.8 292.2 298.1 303.8 315.8 326.6 319.2 310.9 301 293.2 286.4 279.4 272.7 266.9 260.4 251.1 248 242.5 232.3 218.6 200 192.7 188.8 223 255.2 283.1 307.8 324.5 336.8 336.9 329.6 324
230.9 234.6 235.1 233.1 227.7 209.8 193.8 187.6 191 212.5 230.7 238.9 250.1 254.7 260.7 266.8 270.8 273.7 277.1 279.7 283 284.4 287.9 290.7 293 297.7 300.4 303 308.1 309.9 312.5 315.5 312.2 311.2 310.4 309.6 308 306.5 304.5 303.2 302.1 302.5 304.4 305.8 307.4 309.6 308.8 308.5 307.9 307.3 307 306.6 306.3 304.8 302.5 300.8 298.3 295.4 293.2 293.3 293.9 294.1 297.7 298.1 300.7 303.6 306.4 309.3 315.2 320.9 319.1 315.2 310.3 306.8 305.3 304.1 302.9 301.9 301 300.1 299.3 298.7 298.3 297.8 297.2 296.7 295.5 293.9 293.2 292.8 292.5 292.6 293.1 292.4 290.7 289.8 290 289.6 289.1 288.6 288.1 287.7 287.8 287.3 287.1 287 286.7 286.3 286 285.6 285.6 286 286.4 286.9 286.4 285.7 283.8 281.6 279.9 277.8 273.9 270.9 267.7 264.7 262.1 259.5 256.8 255.5 254.8 253.1 248.5 247.6 250.8 264.8 273.1 277.1 278.1 278.6 281.5 287.5 293.4 291.7 288.6 284.4 281.5 276.7 272 269 264.2 259.4 257.1 253 249.1 245.3 240.7 236.7 232.8 232.9 237.6 243.8 247.2 249.3 251.9 254.8 257.1 256.6 254.1 265.3 275.4 282.4 290.5 299.4 311.2 322.5 317.6 308.5 299.5 292.6 285.7 279.5 273 265.8 259.6 250.1 242.3 234.8 222.9 209.3 195.8 190.6 193.1 221.4 254 282 304.2 320.2 331.7 332.2 330.2 326.5
226.2 229.8 230.3 228.9 223.9 208.5 186 187.5 199.8 211.6 223.3 231.1 242 250.6 257.9 264.1 268.9 271.8 274.8 278 280.3 282.5 285.9 289 290.8 294.4 298.3 304.9 315.4 313.6 314 324.6 316.3 314 312.7 311.1 309.1 307.6 306.2 304.7 304.4 305.8 307.5 310.7 313.4 311.6 309.8 308.4 307.6 306.5 305.6 304.7 303.8 302.4 300.9 299.3 297.8 296.1 294.7 294 295.7 295.4 299 298.4 300.5 303.4 306.3 311 316.6 320.4 317.5 311.6 308.1 306 304.4 302.9 301.8 300.8 299.9 299 298.2 297.3 296.5 295.8 295.4 294.6 293.4 292.2 291.3 291 290.7 290.5 290.7 290.8 290.2 289.1 287.1 287.5 287 286.5 285.9 285.4 284.9 284.6 284.4 285.4 284.9 283.9 283.4 283 283.1 283 284.2 285.4 285.4 285.4 283.2 280.7 278 275.8 271.9 268 264.2 261.2 258.8 256.6 254.3 253.4 252.4 250.6 247.5 248.6 258.1 265.5 269.2 269.6 270.2 273.5 279.3 285.5 291.5 294.6 291.5 286.7 283.5 280.2 275.7 271.4 268.3 264.3 260.8 257.5 253.1 249 242.8 238.6 233.8 230.9 232.8 238.3 240.6 241.5 243.1 245.7 248.2 247.6 248 260 267 270.9 280 292.1 306.9 318.9 313.8 306 297.7 291.6 285.5 279.4 273.1 265.9 258.6 250.5 242.1 233 214.7 189.9 191.7 195.7 207.4 230.8 257.2 280 301.2 315.7 324.7 327.2 327.2 327
221.4 224.6 226.1 224.7 222.3 208.7 192.5 185.6 197.4 207.5 212.8 221.8 232.1 242.2 250.6 257.1 264.4 269.8 272.4 275.6 278.7 281.2 283.5 285.7 286.4 290.2 292.6 298.3 303 307.5 312 319.6 321.5 317 314.4 312.4 310.3 308.6 307.3 306 306.1 308.3 310.5 313.2 313.8 311.9 309.8 308.1 307.1 306.1 305 304.1 303.1 301.7 300.3 298.4 296.4 296.6 296.6 295.3 297.1 296.6 297 298.2 300.6 303.1 306.5 310 313.7 316.3 314.2 310.5 306.9 305.3 303.7 302.4 301.3 299.8 298.7 297.9 296.9 295.9 294.9 294.1 293.7 292.5 291.3 290.5 290.1 289.4 289.2 289 289.1 288.9 288.4 287.6 285.4 285.1 285 284.4 283.9 283.6 282.6 282.2 281.8 281.9 281.8 281.2 280.6 280.1 279.6 280.8 282 283.3 283.9 283.5 282.6 279.8 276.8 273.7 270.3 267 263.3 259.9 255.7 252.9 251.1 250.9 250 246.8 247.5 251 255.4 260.2 259.8 266.1 269.8 272.7 275.1 283 288.4 293.3 293.9 289.8 285.9 282.4 277.7 274.5 271 268.6 266.7 262.7 258.7 251.7 246.7 242.1 237.3 234 230.6 232.3 232.6 233.3 234.2 235.7 238.7 237.2 238.6 250.5 256.2 261.6 270.7 283.1 296.6 304.2 305.2 301.7 294.2 287.3 281.8 276.3 273.3 265.3 257.5 249.5 240.2 227.1 205.6 191.3 198.3 206.5 222.9 243.3 262.8 281.1 297.3 310.4 319.2 323.6 324.7 325.5
215.3 219.4 221.4 221 217.1 204.6 192 183.7 187.3 201.9 211.4 215.5 220 232.3 241.3 248.8 258.1 265 269.2 272.4 275.2 277.9 281.1 282.6 283.7 286.1 288.6 291.5 295.6 301.2 306.5 310.8 322.1 319.7 315.8 314.3 312.3 310.8 308.7 307.3 307.3 309.2 311.4 313.4 313.2 311.4 309.5 307.7 306.7 305.6 304.5 303.4 302.4 301.4 299.8 298.1 298.9 298.9 298.1 297.1 297.8 298.6 298.2 298.9 298.4 302.3 305.1 307.9 310.2 312.6 312.6 309 306.2 304.6 303 302 300.9 299.8 298.4 297.2 296 294.7 293.5 292.4 291.6 290.7 289.8 289 289.2 288.2 287.6 287.4 286.9 287 286.3 285.1 283.2 282.6 282.9 282.5 282.2 281.3 280.4 279.9 279.4 278.7 278.8 278.2 277.7 277.4 277.2 278.1 279.4 280.8 282 281.5 280.6 279.1 276.2 273.1 269.8 266.2 262.1 258.8 255.3 251.2 247.6 246.7 246.7 246.8 250.1 256.1 256.8 257.5 259.9 262.2 265.3 268.4 274.3 279.8 285.3 289.9 291.1 290.1 287.4 284.2 280.4 277.7 274.7 271.7 269.4 266.6 262.3 257 251.3 246.3 239.4 235.8 231.8 230.1 230.2 229.6 228.8 227.7 227.5 227.6 233.5 241.5 245.5 251.7 259.7 272.2 282 289.9 293.3 292.6 289 282.6 277.2 273.5 270.4 262.8 254 245.5 237.7 222.7 203.3 191.8 194.6 208.5 227.3 252.4 268.8 279.5 293.1 304.8 314.9 320.2 322.7 324
209.9 214.3 217.2 217 209.2 197.4 183.4 177 180 202.3 216.3 223.9 223.4 222.1 232.1 238.4 246.3 256.1 261.8 265.6 270.1 274.1 276.2 276.6 280.7 284.4 287.4 289.7 291.8 296.2 300.5 305.4 312.5 317 317 315.8 314.3 312.8 310.8 309 308.4 309.8 311.4 313.3 312.2 310.4 308.7 307.3 306.3 305.2 304.1 303 302.4 301 300.2 300.4 300.5 300.5 299.7 298.6 298.7 299.7 299.9 299.7 300.6 301.7 303.1 305.9 307.5 309.3 309 307.5 305.5 303.9 302.6 301.5 300.7 299.9 298.8 297.6 296.4 295.3 294.1 292.1 291 289.2 288.3 287.9 287.9 287.4 286.5 285 285 285.1 284.4 283.1 282.1 281.3 280.3 280.9 280.2 279.1 278.3 277.6 276.9 276.2 275.7 275.2 275 274.7 274.8 275.4 276.7 278.3 279.4 279.7 278.4 277.2 274.7 272.2 269.1 265 261 257.1 252.6 247.2 246.4 247.2 251.3 256 257.7 259.7 261.7 263.2 265.9 267.6 271 271 273.9 275.8 282.6 285.5 286.3 285.8 285.2 283.7 281.4 278.2 276.6 274.1 271.3 268.3 265.5 260.7 255.7 251.2 244.5 239.5 236.7 234 237.4 239.3 238.3 237.8 233.7 226.1 225 230.1 234.5 241.4 249.7 259.3 268.9 276.1 280.3 282.4 280.6 276.2 271 267.8 264.5 260 250.8 243 235.4 221.6 207.1 198 194 197.7 221.1 245.7 265.6 276.6 288.6 299.7 309.9 317.2 320.7 321.6
