ncols 200
nrows 86
xllcorner 190000
yllcorner 842000
cellsize 50
368.4 362.4 356.7 356.8 361.5 370 370.4 374.8 387.7 407 422.8 423.8 422.9 423.6 427.8 430.1 430.2 428.3 425.4 442.4 447.6 468.8 482.7 503.2 502.3 492.1 486.7 484.7 489.2 491.6 495 493.6 487.6 483.9 482.7 480.7 482.5 485.6 489.3 498.1 508.6 521.6 512.5 506 504.1 499.7 495.2 491.8 490.2 488.9 502 500.3 497.3 487.3 475.6 466.4 462.1 460.7 451.2 436.3 429.1 422.8 415.1 408.1 399.3 390.2 382.2 373.5 368.7 356.5 351.9 342.6 336.4 328.3 320.9 313.4 305.6 294.5 284.4 282.6 278.2 271.5 265.4 259.8 253.4 245.8 239.8 233.1 227.5 217.3 207.8 201.1 193.4 182.9 169.5 160.8 152.5 140.1 129.2 114.4 100.6 90.6 82 74.5 72 66.6 71.3 74.4 80.3 88.1 96.9 112 122.1 148.8 176.5 196.8 211.3 222.6 231.8 240.2 242.2 247.5 254.1 261 266.6 271.7 280.2 284.7 286.3 287.3 286.9 287.5 289.6 286.6 295.2 308.2 316 311.5 304.8 300.5 296.5 294.9 284.8 275.7 265.7 255.8 245.5 238.9 229.9 219.1 206.7 192.6 170.4 159.8 150.9 141.9 131.2 116.1 103.8 87.1 68.1 50.7 44.6 39.3 35.3 30.8 14.2 14.2 14.2 14.2 27.9 33.7 34.9 32.4 32.5 31.4 32.7 36.6 37.3 35.3 34.5 35.7 40 46.8 65.9 90.9 114.2 139.4 170.3 204.7 230.1 255.4 280.5 301.8 316.2 324.8 332.6 336.2 337.3 336.1
397.9 384.1 375.5 370.5 368.7 372.4 379 392.6 400 408.4 417.5 415.6 417.1 416.9 417.9 420 419.8 417.8 416 433.4 452.4 465.7 478.9 489.9 481 472.3 472 477.7 480.1 478.5 480.5 479.9 472.1 466.9 468.8 469.6 475.8 472.6 481.7 486.5 490.2 505.4 504.9 497.9 497.6 496.4 493.8 491.9 492.5 493.6 512.1 510.5 508 501.2 490.6 480.3 464.4 456.9 449.6 445.9 443.5 431 421.7 412.6 403.8 395.9 388.7 382.7 375.3 362.5 353.7 345.4 338.8 332.1 324.2 312.7 301.1 290.9 286.9 283.3 279.3 274.5 266.7 257.5 251.8 247 240.4 234.3 226.8 217.6 208 200.5 191.9 184.6 169.6 160.1 156.2 145.3 130.1 114.7 102.4 91.4 84.4 79 72.1 68.8 66.1 71.4 74.1 82.2 89.6 99.7 107.8 134.4 165.3 188.6 209.2 215 227.8 231.1 234.7 240.5 247.2 255 260.5 265.3 270.8 273.8 278.7 279.3 278.5 281.7 281.1 277.2 286.9 293 297.3 295.5 290 286.7 281.4 279.1 266.2 257.1 249.8 242.6 234.5 229.4 221.3 213.2 202 186.5 167.7 141.4 135.5 123.9 113.9 101.7 82.5 67 51.3 43.3 40 40.2 32.7 30.8 14.2 14.2 14.2 14.2 31.3 35.2 34.2 34 33.8 33.5 36 36.5 36.9 36.4 41 42.1 50.8 66 80 110.2 136.2 163.7 193.4 222.2 247.2 271.9 295.1 310.8 320.9 330.6 336.3 340.8 338.6 337.3
405 397.6 391.2 382.1 377.2 391.8 409 412 407.7 405.1 407.5 412 412 411.8 411.9 412.9 410.8 408.1 412.1 431.8 454 476.4 477.4 470.9 463.7 458.6 469.6 470.5 464.5 465.7 467 462.2 455.8 453.7 454.1 460.4 466.2 467.7 471.6 476.8 482 497.3 495.3 496.7 496.2 497.7 494.2 492.3 492 498 512.7 519 520 515 505.9 496 474.8 459.7 453.7 451.8 448.9 441.3 432 417.4 408.9 400.1 394.8 385 373.8 361.9 349.9 343.6 339.2 332.6 322.6 307.6 301.1 296.8 285.8 283.1 276.9 272.9 268.5 262.5 251.8 244.8 237.9 231.1 223.8 217.8 207.3 197.3 188.8 182.4 171.4 160.5 156.6 148.4 134.9 117.4 103.2 90.4 83.4 78 73.3 69.6 62.4 67.8 70.7 76.9 82.2 92 101.3 120.6 153.2 178.7 198 208.8 219.2 225.3 228.3 236.1 241.9 251.7 258.2 262.2 263.9 266.1 268 271.6 275.2 278.6 275.4 271.9 274.2 280.6 282.7 279.8 276.3 275 268.5 258.4 247.9 238 233.3 227.3 222.2 214.6 212.4 206.8 195.5 175.2 159.8 140.9 112.8 106.3 96.6 81.2 60.2 50.5 43.5 40.5 38.1 28.7 24.9 14.2 18 14.2 14.2 30.2 36.3 38.5 34.9 36 36.1 36.4 36.9 37.1 38.5 40.6 46.1 48.7 59.7 80.9 100.4 121.9 152.6 188 212.4 237.7 260.3 284.6 304 313.6 322.1 330.8 339.6 340.5 338.2 337.1
423.1 411.1 410.2 410 402.7 413.3 419.4 420.4 413.1 410.3 404.6 404.6 408.7 408.6 407.1 404.8 404.6 407.9 417.9 432.6 461.7 470.9 462 452.4 446.1 451.4 452.8 449 450 452 448 447.2 444.6 443.1 440.2 451.1 452.9 468.6 470.5 473.3 477.8 488 494 495.1 492.3 493.3 492.3 492.3 495.1 503.9 514.3 526.6 526.5 520.1 511.8 496.3 479.6 466.4 457.5 458.1 454 445.7 435.3 418.8 407.3 398.1 388.9 380.3 370.6 361.7 353.3 344.3 334.3 324.9 316.5 310.1 305.3 298.2 296.1 291.4 288.8 284.1 278.4 271.2 262.2 252.3 244.1 237.9 230 221 211.1 198.5 189.2 182.2 172 159.3 153.5 148.3 135.5 119.2 104.8 92.6 84.3 78.3 75.1 70.5 66.3 60.4 66.2 73.5 77.4 87.6 94.6 105.6 141 174.2 190.4 202.3 215.7 219.8 223.6 232.8 246.3 254.9 258.2 260.6 265.5 268.2 273.8 281.9 285.5 283.5 279.9 276.4 265.4 261.4 264.1 261.7 259.6 254.3 246.1 240.9 230.3 224 218.4 214.3 209.2 207.1 201.5 194.1 182.2 163.7 148.2 132.6 108.2 84.2 74.7 58.7 46.2 42.9 40.7 35.9 33.6 14.2 14.2 14.2 14.2 14.2 14.2 31.3 36.8 38.4 36.9 37.5 38.2 37.6 37.4 38.6 41.6 43.7 49.3 57.3 72.9 98.5 123 149.4 177.6 188.8 222.1 242.7 263.8 289.5 300.3 309.1 322.2 331.8 337 338.9 338.5 336.7
439.4 429.8 431.1 421 419.8 421.8 423.2 423.3 417 404.6 404.6 404.6 404.6 404.6 404.6 404.6 404.6 404.6 412.7 430.6 458.8 459.2 447 438.5 441.7 442.5 432.7 429.9 434 431.7 433.6 434.8 433.5 434.4 429.5 441.8 462.8 474.8 479 482.1 483.5 485.6 492.3 493.8 492.3 492.3 492.3 496.2 503.8 520.4 523.5 528.9 523.6 516.4 502.5 488.4 478.6 471.6 464.7 462.2 457.4 452.2 432.8 418.2 409.7 400.6 392.4 380.5 369.7 360.7 353.6 347.6 342 333.2 325.2 318.3 309.1 304.8 298.6 294.5 292.4 290.1 286.4 280.4 273.1 265.1 255.2 243.9 234.2 225 214.6 203.4 190.8 181.4 171.8 163.9 151.1 144.9 136.5 121 106.6 94 85.2 79 75.1 70.7 67.1 59.1 64.8 70.6 73.6 79.1 85.6 98 130.1 162 174.6 198.1 206.8 211.5 216.9 236 246.7 254.1 256.9 260.7 267.9 272.8 282 290.8 289.9 290.6 291.4 285.9 272.9 263.8 256.2 250.7 242.2 227.9 231 228.2 221.9 215.6 208.6 201 195.5 189.4 184.4 178.9 164.8 146.4 127.7 114.9 89.1 68.4 55.1 47.7 42.1 39.3 37.8 35.9 14.2 14.2 14.2 14.2 27.5 33.3 34.3 33.7 36.9 37.4 37.5 38.4 38.8 38.6 38.7 40.5 42.6 45.1 55.4 70.6 88.1 119.3 143.8 167.6 197 214.1 223.8 222 238.7 278.8 290.3 308.3 318.2 326.4 332.3 337.3 336.4 333.9
465.8 451 446.2 439.4 435.2 435.1 432.4 432.9 424.2 411.8 404.9 406.2 407.5 404.6 404.6 404.7 405.8 413 420.1 434.6 456.8 449.1 433.7 426.2 432.1 422.6 412.5 413.1 415.7 420.3 425 426.1 423.6 424 427.9 447.1 466.9 478.6 484.8 488.9 488.1 488.5 492.1 492.3 492.3 492.3 493.9 495.9 517.7 529.9 527.6 521.8 514.7 502 493.3 487.7 482.9 478.1 472.1 465.4 457.9 447.5 429.8 420.8 413.4 402.6 392.3 381.6 374.6 368.7 359 351.2 343.4 335.2 330.1 324.8 320.6 313.7 305.2 298.7 294.7 292.8 293.9 289.4 282.8 275.7 262.9 250.8 239 228.4 217.9 206.7 194.7 179.1 167.7 161.4 148.4 142.1 134.8 120.6 107.3 95.9 86.8 78.5 74.1 69.8 65.4 59.5 64 66.3 70.4 74.3 75.2 89.2 111.9 139 162 184.1 193.7 194 221.8 235.3 246.9 252.6 256.4 263 269.8 276.6 289.3 298.8 302.6 296.6 294.7 289.7 276.9 264.2 251.3 245.1 238.2 229.8 217.9 208.8 209.5 206.6 197.6 188.9 181.7 174.1 165.7 158 147.3 129.9 111.1 90.3 67.9 56.4 48.6 41.9 40.2 36.7 35.2 29.6 14.2 14.2 29.4 30.5 33.7 34.9 35.7 36.4 34.8 36.1 37.1 37.8 37.8 38.5 39 41.2 43.4 57.8 71.4 90.1 113.3 137.6 160.8 183.2 206.6 227.3 243.3 258.5 255.5 265.9 274 309 318.9 323.5 327.7 329.7 331.2 332.8
479.2 467.8 462.4 456.5 451.4 443.2 439.8 438.6 432.1 433.8 439.7 451.3 451.3 450.5 448.7 446 446 446.1 446.1 450.4 448.6 435.3 425.4 422.1 417.9 407.3 399 398 403.9 413.7 412.7 418.5 415 411.5 434.8 449.6 470.2 485.4 490.5 493 491.7 493 491.2 492.3 492.3 492.3 492.3 499 508.5 514.6 516.7 512.8 505.1 499.2 494.7 488.9 484.4 480.3 470.3 460.9 449.6 437.5 427.6 419.6 415.1 406.8 394.7 384.5 376 369.2 360.7 353.3 346.8 339.4 333.8 331.6 330.7 327.2 320.2 309.5 299.2 294.3 292.9 291 288.4 281.2 270.6 254.1 241.7 230.7 223.3 211 199.2 185.8 171.5 155.2 146.5 136.1 128.7 119.8 108.7 96.4 87.1 77.8 73.3 68.9 62.4 57.4 60.5 61 63.7 67.3 71.2 83.9 101.6 123.2 140.7 158.6 167.5 195.6 219.8 231.4 240.3 250.4 256.8 264.1 274.1 286.6 295.3 300.8 302 295.2 293.4 289.3 277.7 261.4 249.8 236.1 231.8 220.3 208.4 190.2 190.6 180.4 176.1 169 162.5 157.5 151.6 139.3 125.5 117.4 93.6 78.7 53.5 45.3 41 39.5 36.2 32 26.6 14.2 14.2 23.6 29.2 31.1 34.5 35.5 36.7 37.3 36.8 36.4 37.3 37.9 38.9 37.8 41.2 43.1 50.7 71.1 90.2 113.3 137.3 156.8 184.8 210 228.5 241.3 263.9 277.9 287.9 301 305.9 321.2 323.3 327.6 327.1 327.5 328.3 331
497.1 481.7 478 476 468.3 456.6 455.8 447.5 456.9 469.3 470.4 469.4 464.8 459.8 458.4 457.5 459.2 456.6 448.9 442.2 433.5 419.5 420.2 415.5 406.4 390.8 387.1 386.2 400.2 407.4 402 394.7 398.3 422.8 442.6 460.7 483.5 493.8 500 505 505.3 497.7 492.3 492.3 492.3 492.3 494.8 500.5 505 508.1 509.1 506.5 503.8 497.6 493 490.7 489 482.9 471.6 455.8 440.3 429.7 421.9 414.9 405.7 399.8 390.4 384 376 365.4 360.6 355.4 349.7 345.3 341.2 339.2 336 334.2 329.1 319.3 310.2 299.2 290.7 283.2 277.6 273 270.3 257.3 240.7 229.8 222.3 215.6 204.7 192.8 178.2 161.5 148.3 136.8 122.4 115.4 105.8 94.8 86 77.6 70 65.3 58.7 54.8 56 55.5 58.6 62.1 68.8 77.4 90.4 114.3 136.4 147.2 166.3 193.2 214.1 227.2 238.2 246.7 257 269.7 283 300.5 304.1 301.5 296.9 289.2 284.6 285.1 270.3 253 242.8 228.3 214.8 210.5 196.8 187.8 174 168.1 158.1 148.9 138.7 135.1 123.4 113.7 102.8 93.9 71.4 57 42.4 39.9 37.7 35.3 30.1 26 14.2 14.2 30.8 32.4 33 30.9 33.7 35.7 37.2 37.2 35.9 36.4 36.9 37.8 39.1 39.6 42.4 47.9 60 84.4 106.4 131.2 160 183 205.7 227.2 244.8 265.3 277.9 296.2 312.3 316.1 315.8 322.9 326.3 328.3 325.4 324.6 325.2 328.8
502.4 493.3 502.3 507.4 492.5 473.3 464.3 460.2 468.5 469.5 471.9 472.9 469.2 467.2 466.4 461.8 458.6 449.9 441.5 429.2 420.5 423.2 416.4 407.5 390.3 376.5 370.7 371.7 391.2 393.7 387.1 375.1 400.6 426.7 444.1 469.9 490.5 504.3 515.2 518.3 511.6 494.3 492.3 492.3 492.3 492.3 490.9 496 499.3 521.5 512.3 509.1 506.3 500.6 498.9 495 489.2 482.1 466.4 448.6 433.1 425 417.4 417.1 412.7 407 400.5 391.6 386.3 384.4 380.6 372.8 366.7 354.9 346.1 344.7 343.2 339.9 327.9 316.6 309.8 298.7 289.1 276.2 265.7 260.2 257.5 248.9 237.1 226.1 218.9 212.3 205.2 197.1 188.5 171.8 154.9 139.9 126.5 111.3 98.6 90.7 82.2 73.9 65.4 60.5 55.2 49.9 47.8 51 53.5 56.1 62.4 71.6 82.4 106.1 128.5 137.1 167.9 191.8 211.1 221.9 232.7 244.8 255.9 269.7 294.5 307.1 306.8 302 290.9 283.3 274.7 274.4 261.4 239.7 230.8 220.7 204.1 191.4 181.4 173.9 167.7 162.2 153.6 140.8 120.3 106.4 96.4 87.6 76.9 62.9 54 42 39.2 37.6 33.5 32.6 14.2 14.2 14.2 31.1 32.9 34.1 35.2 34.3 32.1 35.5 36.5 36.4 36 37.8 39.1 40.2 41.6 42.2 45.8 54.4 70.8 97 119.7 150.3 179 206.6 224.1 241.5 263.7 284.2 297.6 309.3 320.6 325.5 324.4 322.7 326.1 324.4 324.2 323.9 321.5 325.5
511.4 513.7 513.5 503.7 490.9 478.6 469.7 470.8 468.9 468 470.1 473.8 472.5 471.8 466.6 459.7 453.4 445.5 436.5 430.4 426.2 423.8 412.3 394.3 381.2 370.1 355 358.8 371.4 369.7 365.3 381.7 404.5 422.3 441.2 470.5 485.4 499.8 515.2 521 509.5 497.2 492.3 492.1 492.3 491.2 493.7 493.1 506.6 526.4 510.7 510.4 506.9 504.4 501.9 496.5 484.8 476.8 455.5 438.7 426.8 424.2 429.1 433.8 427.3 419.5 412.7 406.4 397.9 399.7 402.3 399.8 389.6 377 363.4 349.5 342.6 333.6 321.9 313.3 305.4 294.1 284.9 274.9 262.9 256 247.6 240.7 234.7 224 216.7 208.8 202.1 195.7 186.9 177.5 161.9 144.3 131.1 115.7 100.4 86 77 69.2 60 54.5 49.1 44.3 46 47.3 48.6 51.6 57.3 64.8 74.8 90.7 111.4 140.4 163.6 185.8 201.7 214.6 227.2 238.5 249.3 279.8 299.5 304.5 300.4 293.6 290.1 278.7 257.7 245.6 239.9 227.1 213.2 201.8 193.8 182.6 168.5 156.8 151.6 142 139.3 125.6 106.2 82.9 73 53.6 47.5 42.3 42 38.2 37.8 32.2 33.7 32.5 14.2 28.4 30.1 32.7 36.2 39.4 37.2 37.2 34.3 34.7 36 37.7 37.2 39.6 41.7 43.4 44.3 45.1 52.9 66.8 86 109.2 131.5 164 192.6 221.3 238.9 257.3 282.8 299.4 315 323.3 328.9 330.7 325 323 324.4 323.5 323.7 324.9 321.5 327
507 508.3 506.6 490.7 475.6 470.9 468.4 468 467.1 468.3 470.6 472.4 471.5 470 463.1 457 450.2 447.9 441.9 434.9 425.5 414.5 401.1 389.5 372.5 357.9 346.6 353.9 354.6 357.7 358.3 385.3 400 414.5 438.7 467.8 478.7 487 497.8 502.6 502.4 506.5 501.9 501.4 496.5 498.8 496.9 493.1 507.1 520.3 505.2 508 506.1 502.3 499.7 493 487.5 471 447.9 435.8 430.9 432.5 437.6 439.6 432.4 428.5 420.8 410.7 404.9 399 415.8 411.9 404.3 386.3 365.2 350 330 318.2 310 306.5 299.4 290.9 284.5 274.5 262.9 252.5 243.9 237.3 229.6 219.8 205.4 202.3 200.7 196.1 188.2 174.3 164.1 148.6 134.3 119.1 102.3 89.1 75.1 64 53.4 48.7 45.9 41.5 44.6 44.9 45.1 46.8 51 57.6 69.8 84 110.7 134.5 161 178.2 194.7 204.9 221.3 231.9 244.8 276.2 292.2 294.4 285.8 275.3 266.7 260.6 244.4 226.6 215.4 204.1 196.9 186.6 177.1 166.2 155.8 142.3 132.1 126.1 114.1 102.6 85.4 64.1 51.9 43.3 40.4 38.6 36.2 35.1 31.8 33.7 28.5 14.2 33 34.2 36.7 38.6 39.9 40.2 37.5 38.9 37.2 35.6 37.2 38.1 40.1 43.7 44.7 46.7 47.3 51.7 63.1 79.7 101.4 124.2 146.1 174.1 207 230.8 253.2 279.9 302.2 320.3 330.5 334 334.5 335.3 335.6 335.6 334 325.8 323.2 323.2 325.2 324.6
492.1 500.2 494.5 479.8 471.8 466.6 465.6 464.5 467 468.9 471.1 473.1 472.1 465.6 463.2 463.5 456.7 450.2 440.4 430.8 423.9 412.9 400.1 384.6 370.5 349 334.2 345.4 351.5 341.8 356.7 378.3 391.6 409.2 432.8 464.4 472.5 473.3 477.6 480.5 499.4 505.8 502.3 500.6 501.9 502.4 493.7 496.5 506.4 509.7 504.9 506 501.3 498 506.9 493.5 481.5 464.6 446.4 437.2 438.3 437.4 436.5 438.9 434.6 422.6 414.8 406.6 396.5 394.8 420.7 413.2 400.5 388.1 360.5 345.8 324.9 314 304.9 297.2 294.3 289.3 281.1 271.1 263 252.5 241.7 237.2 229.9 222.9 215.1 205 196.1 171.3 176.4 170.4 160 148.4 135.6 121.8 105.5 91.6 77.7 63.2 51.9 45.2 43.8 40.3 42.3 42.9 42.3 43.1 46.2 53.2 66.7 85.5 106.6 124.8 152 170.4 184.6 195 215.8 225 245.1 263.5 269 268.7 259.9 252.2 243.4 240.5 228.9 213.7 200.9 191.8 181.9 170 158.1 149.5 137.1 121.2 109.2 101.2 87.5 72.4 61.9 45.2 41.2 39.3 37.5 36.1 34.1 35 34.2 35 33.3 14.2 34.6 42 41.3 40.6 40.9 39.7 38.5 37.8 37 37.5 37.9 40.3 41.5 44.5 47.7 50.1 53 59.1 78 94.4 119 140.1 162.4 194.5 223.2 249.6 276.5 305.7 328.4 334.5 338.2 339.8 341.5 343.7 343.4 340.7 337.1 327.1 323.3 322.8 322.3 322.6
487.3 491.3 483.8 473 468.1 461.4 460.9 462.8 466.9 471.7 475.8 476.6 474.8 473 466.2 462.3 457.9 448.9 440.6 432.7 420.5 408.4 395.8 376 356.2 341.7 326.9 336.3 339.1 335.5 356.7 373.4 386.1 405.1 426.3 451.1 455.8 452.5 457.2 478.7 494.8 500.4 500 495.6 497.8 497 489.3 495.9 498.3 500.3 498.7 496.3 493.3 500.4 512.1 498.8 476.6 460.1 449.2 444.2 445.1 450.1 450 446.5 439.3 428.9 404.2 394.7 389.6 385 407.1 402 386.7 373.7 347 331.2 314.7 304 296.8 289.3 286.5 285.9 280.9 271 259.1 246.8 239 240.4 234.7 228.6 221.8 212.4 199 188.9 176.1 157.8 138.6 140.7 132.5 119.8 106.6 94.2 80.9 67.8 56.2 51.1 47.1 41 40.2 40.2 39.7 41.9 44.9 48.8 58.1 76 94.3 112.6 143.6 161.7 173.2 184.6 203.3 219.8 236.7 251.8 253.6 252.9 242.7 234.9 230.5 225.5 214.8 200.8 188.6 178.5 169.7 159.3 145.5 132.9 115.7 97.8 86.7 76.8 63.2 51.1 42.7 40.4 39 36.9 37.6 35.2 36.9 36.6 36.3 35.6 29.9 31.2 37.6 42.6 41.4 40.5 39 38.5 39.7 38.8 38.1 38.2 39 40.7 42.9 45.6 49.5 55.1 60.2 73.9 92.2 110.2 139.8 166.4 185.5 212.9 246.2 275.9 309.4 332.5 341.4 342.2 344.9 346.3 346.7 344.7 343.6 338.4 333 329.9 326.5 324.8 323.5 323
496.7 491.6 486.6 478 467.5 460.6 455.5 459.9 463.6 467.4 472.5 476.8 481.5 476.3 468.4 455.1 447.8 445.5 442.5 430.6 419 404.2 385.2 366.8 352.7 338.2 316.3 327.8 320.1 334.9 353.9 366.5 380.6 401.8 421.9 439.5 441.6 440.3 452.7 478.8 488.9 493 494 493.5 491.2 487.2 480.4 486.9 501.1 500.2 491.9 493.2 491.9 512.8 510.2 491.6 473.5 465.1 457.6 455.2 455.8 450.1 445.8 441.4 438 424.5 400 384.6 379 377.2 379.7 372 361.3 348.4 333.2 320.3 310.9 302 291.3 282.9 275.5 270.7 267.4 265 259.7 250.5 244.3 240 234.8 229.3 222.5 216.3 208.4 192 178.2 166.9 155.3 141.6 121.9 109.1 107.7 94.6 82.4 69.2 59.6 52.4 47 40.4 39.2 38.8 37.4 37.2 39.8 43.7 53 67 84.8 100.6 128.4 148.8 161.8 175.2 196 210.8 221.9 222.1 227.5 226.4 215.3 204.6 198.9 195.9 191.2 184 175.4 168.1 158.4 144.9 133.1 117 100 83.4 70.8 58.2 50.6 43.4 39.3 37.9 35.8 35.7 34.7 35.1 36.9 37.9 38.8 35.7 14.2 38.3 39.6 40.1 40.3 41 38.5 38.5 44.1 39.4 38.6 39 40.5 41.8 44.7 48.2 53.5 61.1 68.3 86.2 105.9 131 159.7 184.9 206.8 234 269.8 304.4 327.2 339 342.2 343.4 346.1 348 345.5 347.4 345.9 336.4 332.4 330.9 329 326.5 326 327.1
492.5 488 477.7 466.2 462.7 456.6 453.3 454.7 456.2 454.5 460.3 473.6 479.5 472.7 462.9 452.4 444.4 439.2 427.3 425.1 409.2 390.4 384.1 366.9 350.6 334.1 317 319.1 313 333.5 349.2 363.8 379 398.1 410.3 421 424.9 432.2 451.4 469.3 477.4 482.3 489.2 486.4 476.7 472.4 479 488.3 496.1 491.9 491.6 491.9 498.3 522.6 511.9 489.8 470.8 472 467.4 458.2 449.4 442.4 437.7 432 427.4 416.2 394.8 381.7 376.4 368.8 363.2 354.2 344.9 332.3 324.1 316.3 308 298.6 289.6 280.5 274.4 271.5 265.3 261.3 253.3 247.9 243.4 245.5 243.3 234.5 222.4 212.5 205.9 199 183 163.1 152.7 140.2 128.6 114.2 104.7 94.3 82.8 73 61.9 50.2 47.4 42.9 36.4 36.8 34.4 33.8 33.7 40.7 46.8 56.3 72.6 87.6 111.1 140.5 156.7 168.8 182.8 193.1 196.5 197.6 200.5 195.1 188.6 183.9 177.4 174.1 168.2 163.9 158.3 153 139.8 123 111.4 96.2 80.7 66.8 54.4 49 43.8 40.3 37.4 36.5 35.8 35.3 34.7 35.7 36 36.7 39.2 30.7 30.9 35.7 36 38.8 39.8 40.7 38.5 38.5 39.9 39.2 38.9 39.5 41.2 44.4 47.5 50.9 57.5 67.2 82.6 99.9 123.6 147.8 176.8 199.4 225.5 258.8 292.1 316.6 332.6 336.6 340.3 345.2 341 341 346.5 346.3 346.8 337.3 333.5 332.7 331.8 329.4 332.1 334.7
467 468.3 454.8 451 452.6 448.5 447.2 449.7 449.7 454.7 461.7 462.5 463.3 458 451.7 439.4 431.6 426.7 414.7 408.9 403.8 391.1 376.4 362.6 344.1 326.3 314.8 308.8 307.1 327.3 341.8 357.9 372.4 388.1 400 409.7 419.1 431.7 452.4 455.9 471.7 472.8 471.8 480.3 469.7 467.3 474.9 480.3 492.8 497.8 503.7 498.8 514.5 513.6 510.5 482.3 474.8 473.9 464.4 454.4 447.4 440.3 431.8 424.3 414.7 401.7 384.9 376.6 371.4 361.7 355.1 346.2 336.3 327.7 319.3 313.3 307.1 300.6 292.2 284.5 278.6 273.9 267.3 258.2 251.8 245.4 244.8 247.1 241.8 234.1 229.6 221.3 210.9 199.6 186.4 166.7 150 135.7 125.8 115.8 107.8 98.1 88.5 75.2 64.1 55.8 47 42.8 39.6 38.5 40.5 36.9 31.5 38.2 40 49.9 61.9 74.5 99.9 127.8 150.8 156.3 167.8 172.4 173.6 174.5 171.2 170.2 167.8 166.2 159 157 155.5 145.7 131.9 125.6 112.8 98 86 73.6 59.2 52.9 51.5 42.9 41.3 37.7 36.2 36.5 36.5 36.1 37.8 38.5 37.6 37 39.3 14.2 32.5 35.8 37 38.6 39.7 40.5 38.8 41 40 40 41 40.6 42.5 46.5 51.4 57.5 64.9 78.3 97 118.5 140.3 163.8 189 212.8 242.7 276.7 301.5 321.9 327 333.8 342.3 343.3 341 341 347 345.2 345.9 339.1 345.4 340.2 335.1 335.4 340.6 343.7
444.6 438.8 430.3 432.7 436.4 437.4 438.9 442 446 448.4 450.3 447.2 440 431.6 424.7 421.4 416.7 410.7 406.9 396.6 389.5 380 372.3 362.2 350.8 334.4 323.2 303.7 304.2 319.1 334.1 349.4 367.7 381 393 410.6 415 427.2 440.5 439 446 454.4 466 475.2 465.1 463.4 466.4 477.6 498.8 508.6 504.5 499.6 520.8 511.4 492.7 480.6 473.5 464 453.8 446.4 440.5 436.7 429.4 419.4 397.7 385.1 376.2 368.7 363.6 356.1 350.5 340.6 332.8 325.2 319.6 312.8 308 301.2 289.3 282.4 277.4 271.2 265.9 259.5 251.9 246.1 242.6 238.5 233.2 227.1 222.9 218.4 208.3 191.9 182.5 171 154.8 141.2 127.1 117.6 110.2 101.2 92.5 78.3 68 58.9 50.2 44.5 41 41.2 42.1 37.9 34.2 35.5 37.4 40.9 48.8 63.4 87.1 109.3 129.9 136.2 141 148.6 154.5 151.7 150.1 148.1 148.2 146.3 140.6 142.5 135.8 123.6 114.8 100 86.1 72.2 62.8 52.3 52.9 51.8 42.2 40.8 38.1 36.6 36.4 36.4 36.7 36.5 36.5 38.5 39.7 39.1 38.1 14.2 34.7 35.9 36.9 37.8 38.7 39.2 40 41 39.7 40.3 41.4 42.2 45.4 50.3 57.3 67.2 77.3 95.5 114.9 136.1 157.6 177.7 193.3 192.5 255.6 289.5 305.3 314.8 323.4 333.6 338.6 342 342.7 345 345.4 345 344.3 349.8 349 346.1 345.6 345.4 350.2 351.6
423.9 422.9 422.3 424 426.5 424.3 426.4 430.8 430.3 429.4 429.7 428.3 426.2 421 415.2 409.6 405.2 397 396.1 388 389.2 382.1 379.6 370.4 356.1 338.5 317.7 301.4 299.5 310.9 326.8 343 356.2 372.1 386.8 399.9 410.5 418.7 424.5 431.4 437.5 448.3 454.6 460.5 462.7 465.7 468.5 484.1 493.9 505.6 501.9 505.5 513.8 503.7 481.3 473.9 464 455.5 444.5 437.4 428.5 423.1 419.7 412 395 379.8 369.1 359.1 353.7 348.5 341.6 335.1 328.2 322.7 316.6 311.1 306.4 299.6 290.1 280.7 274 266.7 258.6 249.6 244.9 238.8 233 230 228 222.8 214.2 209.9 207.3 191.8 175 162.9 154.2 143.5 128 118 109.9 102.7 93.7 80.8 72.4 64.3 58.1 50.2 46.5 45.1 45 40.2 35.2 28.8 31.3 35.6 40.5 54.2 71.5 92.6 112.4 123 124 130.7 130.6 124 131.4 130.1 126 123.9 121.6 118.3 106.7 102.1 89.2 74 61.9 53.8 50.3 51.1 50.4 41.1 40 38.1 37.2 37 37 38.3 37.8 38.3 38.7 39 39.4 39 38.6 14.2 34.4 34.3 35.1 33.8 35.6 38.8 40.1 40.2 39.8 40.9 42.2 43.5 48.7 57.1 67.6 80.6 92.7 106.8 133.7 158.6 173.6 190.5 215.9 241.1 244.4 289.5 300.3 314.6 325.7 332.1 337 339.7 345.6 350.1 348.2 351.4 352.5 353.4 354.7 356.2 355.1 353.3 357.2 357.5
414.3 413.2 413.2 415 416 413.5 417.8 424.9 425.5 423.8 421.2 418.6 417.4 415.5 409.5 406.7 400.1 388.9 384.4 382.5 393.4 393.6 386.9 371.9 355.7 340.3 323.3 302.5 290.1 304.4 318.2 325.8 346.2 366.5 376.4 382.4 390.3 406.1 426.8 434.9 447.7 466.2 474.9 472.9 469.3 475.5 489.5 498.3 501.5 497.3 494.6 507 501 489.8 470.6 463.2 461.5 456.1 449.8 438.5 422.4 413.2 407.1 399.6 387.3 372.9 363.7 354.3 348.3 340.4 333.1 327.7 323.8 318.8 313.5 307 299.2 295.1 291.6 280.4 269.5 260.5 252.3 243.7 236.5 227.4 224.6 220.5 216.6 212.7 205.2 203 197.7 191.3 169.8 152.8 142.3 131.9 124.4 116.3 108.8 101.4 94.4 87.5 75.8 63.9 60.7 53.7 50.8 50.5 50.6 45.3 35.5 32.1 26.1 29.9 36.3 44 57.4 76.5 93.7 105.2 105.3 116.5 107.9 106.3 108.8 109.9 106.1 101.5 98.3 95 83.4 71.9 59.3 50.2 47.6 48 48.7 44.3 39 39.5 39.8 39.3 37.4 37.4 37.3 38.2 38.9 38.7 37.7 38.2 39.2 38.9 37.7 14.2 35 35.4 34.3 34.1 34 37 39.2 39 40.1 41.5 42.5 45.2 54 63.5 77.2 91.6 109.8 127.2 148.5 170.5 186.1 201.8 232.9 257.5 272.7 290.6 305.8 317.3 329.8 335.3 339.2 344.5 350.4 352 354.8 358.7 359.6 364.5 366.5 365 368.8 366.8 367.4 365.9
405.2 406.2 405.4 405.4 404.7 405.8 409.8 416 421.9 423.6 423.3 419.4 413.8 411.6 405.7 403.3 400 388.6 382.5 383.9 392.8 389 387.5 371.9 357.8 339.5 322.6 301.9 283.9 298.9 312.4 330.3 344.9 344.9 354.6 384.2 404.6 418.6 437.3 455.6 476.9 490.9 491.8 484.3 477.6 492.8 495.5 493.1 495.2 492.3 490.6 496.1 485.9 470.3 465.4 458.9 453.5 446.7 442.9 435.7 427.3 413.5 396.2 387 378.4 366.7 359.2 350.5 343.5 336.7 327.1 319.3 315 309 304.3 300.4 293.7 285.4 281.3 277.3 271.2 256.3 247.7 238.6 229 219.7 211.2 208.4 205.2 201.5 199.8 194.6 190.8 180.4 170 148.6 133.4 122.1 116.3 111.4 103.5 97.3 90.5 85.8 77.4 65.7 59 55.4 55 56 57.2 53.8 40.4 32.6 27.9 27.5 33 40 47.8 59.5 71.1 81.1 84.8 87.3 87.9 92.3 90.5 87.4 85.6 79.2 74.7 66.5 57.6 47.3 46.3 44.5 43.6 36.9 35.8 37.4 38.4 38.1 38.2 38.1 37.4 38 37.2 37.7 37.4 37.2 37.1 36.1 37.6 37.9 34.1 14.2 36.1 36.8 35.9 33.4 34.7 36.6 39.1 38.5 40.4 42.1 42.7 48.9 61 75.9 90.5 109.2 126.6 142.8 160.2 178.4 201.6 221.9 247 268.8 288 303.8 316.1 324.4 333.5 341.5 345.8 350 356.3 364.5 369.9 373.2 374.4 378 378 375.9 375.4 378.6 379.4 375.4
400.6 401.7 401.1 399.4 397.9 398.5 400.6 405.8 413.6 412.9 420.5 414.1 420 415.8 414.1 413.4 404.9 394.5 385.3 384.7 369.3 369.3 370 359.5 347.6 332 314.3 294.8 279.9 290.2 309.2 317.8 318.9 347 364.2 385 423.5 438.5 447.2 459.1 476.1 481.5 482.6 470.9 472.6 482.7 484.2 486.6 487.7 486.4 481.2 482.8 475.2 458.8 456.7 454.8 451.7 445.6 431.6 419.4 414 409.5 399 376.4 366.3 357.6 350.4 343.8 335.9 327.8 320.2 312 306.7 300.9 297 292.9 284 278.2 271.5 265.9 260.8 248.6 237.8 228.1 217.3 211.7 205.1 198.4 192.1 187.7 180.7 177.2 172.9 166.1 153.9 137.8 126.6 116.8 108.7 101.5 95.2 90.5 84.3 78.5 69 61.6 57.5 53.6 55.2 58.7 62 57.7 42 36.9 27.5 26.5 31 36.7 40.6 46.4 57.3 64.8 69.3 69.3 69.1 74.3 75.2 72.2 67.1 60.2 49.7 44.2 44 43.1 39.4 30.6 34.2 33.5 34.8 35.7 37.1 37.3 37.5 37.5 37 37.5 36.7 36.2 36.1 36.2 35.6 35 35.6 37.7 31.7 14.2 35.4 36.6 36.8 35.5 35.9 36.4 37.4 38.3 40.6 43.2 47.9 55.2 71.2 90 107.5 125.8 143.1 157.7 174.5 194.7 211.4 239.5 268.9 286.9 300.1 313.5 323.2 331.8 338.3 344 350.2 362.7 371.6 380 389.1 394 390.8 390.7 386.4 383.7 382.5 384.8 387.9 379.8
399.8 399.3 398.4 396.6 393.3 394.3 396.5 395 398.6 413.3 416.9 410.5 416.4 424 416.1 406.4 399.8 392.4 379.4 374.8 361.5 354.2 352.2 342 331.2 318.6 303 290.5 275 283.2 290.5 308.6 326.5 344.4 358.7 382.9 415.8 428.3 432.4 448.1 459 467.1 461.4 458.4 464.2 480.2 492.1 489.3 485.2 476.5 465.5 465.6 461.9 455.6 453.5 447.4 440 436.1 433.3 412.9 400.2 394.7 392.8 372.3 359.1 349.8 342.5 336.1 326.5 316.9 309.4 302.9 298.1 292.8 288.4 283.7 273.9 265.3 259.3 253.3 244 233.5 227.7 217.2 206.9 199.3 193.4 187.9 183.8 177.6 170.2 164.5 157.6 152.1 144.1 124.2 113.8 108.3 101.6 94.1 87.8 81.3 74.4 66.9 58.8 53.4 51.9 51.1 53.1 53.8 54.2 51 41.5 36.6 30.5 30 31.1 35.7 40.3 43.5 48.1 51.7 54.4 54.3 56.4 59.4 58.9 51.2 45.4 43 42.4 42.1 37.4 34.2 29.1 32.6 35.4 37.9 34.7 35.2 36.5 37.3 37.8 36.6 36.2 36.7 35.9 35.5 35.3 35.3 34.7 34.2 35.2 34.9 30.3 14.2 36.5 37.1 37.4 37.1 35.8 36.3 36.6 38.8 41.2 45.2 53 64.3 81 104.7 123 138.3 155.7 175.2 193.1 212.9 236.2 258.3 278 298.8 311.2 323.9 334.8 344.4 351 360.7 371.8 382.1 391.9 403.2 410.3 405 399.9 395.4 391.6 387.9 388.9 387.7 386.1 382.2
412.9 411.4 403.2 397.5 391.5 390 389.5 393.9 397.3 405.8 409.4 404.1 407.4 409.3 405.4 397.4 390.2 376.4 367.1 358.7 346.2 335 335.3 329.5 315.6 308.1 295.6 284.2 271 281 292.6 302.6 312.9 333.4 352.2 371.4 394.5 411.4 416.8 428.9 441.1 442.6 440.7 447.8 467.8 480.7 490 489.4 492.5 487.5 474.7 462 452.3 446.5 442.4 438.8 428.6 424.4 418.8 406.9 394.4 385.7 378.3 367.2 351.4 340.5 332.5 325.9 318.3 309.4 300.2 290.8 286.9 281.5 274.3 268.1 261.1 249.8 242.4 234.9 229.1 224.2 218.2 209.2 199 192.3 185.7 181.2 175.3 167.5 159.9 152 145.2 140.7 130.4 116.7 106.1 99.8 93.3 87.2 80.5 74 66.5 59.1 52.3 45.7 46.8 48 48.6 47.4 43.9 41.4 37.4 33.1 29.4 28 30.5 35 40.2 41.5 42.8 44.9 44.3 43.5 42.9 41.4 41.2 41.1 40.4 40.5 35.2 34.5 34.9 28.4 29.8 32.6 35.5 35 40.8 40.7 38.7 37.6 36.7 35.9 35.6 35.8 35.3 34.9 34.5 34.5 33.7 33.9 34.6 33.7 29 28.5 36.5 37.1 37.6 36.6 34.9 35.4 37.6 41 44.4 47.9 57 73.6 90.9 111.1 132.1 152.8 171.3 198.2 221.2 243.8 261.8 280.9 301.2 310.7 325.8 340 351 361 370 383.5 392.4 402.4 412.2 422.3 421.2 409.1 402.8 397.3 392.2 390.1 387.6 385.5 385 384.2
424.5 419.5 411.5 405.3 396.1 387.9 386.9 390.5 396.1 398.7 402.5 396.5 394 393.4 391.5 384.2 373.1 363.4 353.7 342.2 335.7 324.2 315.4 309.7 303.7 297.7 287.3 278.2 263.7 276.3 279.9 283.9 297.3 320.5 339.4 352.9 371.6 392.7 401.6 407.2 419.6 424.3 434.2 454.8 474.4 483.6 486.4 487.9 495.3 483 472.8 461.2 453.5 446.4 438.6 427.4 422.2 412.4 407.4 399.7 391 384.2 366.3 356.5 342.9 329.1 320.6 313.4 305.6 299.2 291.4 281.6 276.4 269.3 261.7 255.1 249 243.1 236.5 223.2 221.3 213.2 208.2 203.3 195.2 185.4 178 170 160.8 152.3 146 138.8 133.8 128.2 114.7 106.6 101.1 93.7 85.5 79.4 72.9 65.6 60 54.8 47.3 42.8 43.7 44.1 43.7 42.4 39.9 37.3 34.4 30 21.9 28.1 31 34.6 40.9 41.2 40 39 38.7 37.8 36.1 36.8 35.2 35.3 34.2 33 30.7 30.8 28.6 29 30.5 32.6 34.5 41.4 42.2 40.1 38.5 37.8 37 35.4 35.1 34.9 34.6 34.2 33.8 32.3 32.3 34.3 33.9 33.1 27.4 29.8 35.3 36.7 36.4 34.7 33.8 35.3 39.1 44.6 52 57.2 71 90.6 108.3 130.3 153.1 176.1 201.7 228.6 253.7 272.4 288.5 302.2 320.4 334.7 343.6 360.9 375.5 389 394.9 404.1 412.2 421.9 429.2 431.2 420.4 410.1 403.9 399 393.3 388.9 386.9 385.5 385.2 385.5
420.6 414.6 405.9 399.3 397.7 391 389.1 382.9 385.5 387.5 391.8 387.2 379.1 377.4 371.3 364.5 357.2 347.8 336.5 329.5 321.9 313.9 302.2 295.8 287.6 285.4 281.7 273.7 258.4 266.9 269.7 271.6 283.8 305.5 319.9 335.6 352.1 373.4 383.8 389.5 399.1 411.9 435.4 459.5 480.2 479.9 480.7 482.3 483.5 477.7 470.1 460.2 452.1 450 445.2 433.2 418.6 404.8 394.5 388 375.7 369.9 354.8 341 336.9 324 310.7 302.9 297.3 291.7 284.2 275.2 265.4 259.5 250.4 247.2 241 237.8 232.6 226.8 215.1 206.7 195.1 195.5 187.7 176.3 166.1 157.2 148.1 140.7 135 127.3 125.5 119.9 106.9 100.6 96.2 89.4 81 72.7 62.9 55.9 52.8 47.3 42.9 40.4 41.3 41.2 39.2 37.3 34.3 33.9 32.6 27.2 23.9 28.7 31.4 33.3 34.8 35.2 34 33.9 32.2 32 31.7 31.4 31.8 30.6 30.8 29.3 29 28.7 27.1 29.6 30.2 31.7 40.7 42.8 39.7 38.3 37.6 37.3 36.2 35.3 34.9 34.4 34.2 33.7 33.1 33.1 34.6 34.7 33.3 33.1 21.6 28.9 34.5 35.5 34.9 33.1 34.3 39.2 40.8 46.3 63.3 73.2 91.7 110.4 134.3 154.4 180.3 200 226.4 251.5 271.7 291.1 307.7 327.5 348.5 359.6 366.2 387.8 408.8 416.7 419 423.4 433.3 438.5 440.9 430.5 413.8 411.6 406 398.9 393.5 391.3 388.2 385.4 384.4 384.9
403.5 403.7 399.4 395.3 389.5 383.9 382.5 381.1 376.7 377.9 376.5 372.5 367.2 364.1 356 347.8 343.8 337.6 329.5 322.4 315.2 306.8 299.9 284 277.2 274.6 268.2 263.1 245.3 250.2 254.5 257.4 271.1 285.2 299.8 318.8 336.8 352 365.3 376.1 379.4 403 423.9 449.2 471.9 479.7 474.9 470.1 469.9 465.9 462.7 456.8 452.7 451.4 447 438.7 422.1 406.1 385.3 366.8 362.5 353.9 346.2 333.3 325.5 320.2 306.8 295.9 290.4 284.6 277.7 271 265.4 258.2 251.4 243.3 235.8 230.3 222.5 217.5 207.3 200.2 193 189.8 176.5 165.7 155.2 147.6 141.1 135.8 128.7 120.5 119.2 111 101.5 93.8 88.4 79.2 73.1 68.3 55.8 51.8 49 43.4 40.4 38.9 38.7 38.2 36.2 34.2 32.6 31.1 26.4 22.5 24.2 27.5 30.7 31.7 31.7 30.3 30.4 30.8 31.3 29.9 24.5 23.8 24.3 25.3 26.9 27.8 27.9 25.5 28.4 29.2 29.7 31.6 38.3 40.9 39.2 37.7 37.3 37 35.4 34.2 32.7 32.7 33.3 33.4 32 33.9 34.1 33.2 32.8 32.7 29 26.1 34 32.8 33.1 34.4 37.5 39.7 42.4 55.7 72.7 91.5 106.9 129.4 153.1 171.8 197.8 220.9 246.7 272.9 294 315 335 352.5 372.2 385.9 395.1 409.5 428 433.1 434.5 444.4 448.2 443.3 433.7 420 414.8 411.6 405.2 398.4 394.4 391.4 386.3 383.6 383.7 386.7
405 403.2 401.6 400 393 383.8 376.8 372.7 375 371.5 370.3 358.2 352.5 346.9 340.5 339.2 335.3 326.7 319.8 312.5 305.5 301.8 294.2 279.9 266.8 256.7 251.3 249.4 242.3 236.8 240.3 245.1 255.3 266.9 278.4 302.3 317.9 332.8 350.5 354.1 374 393.6 413.4 432.9 461.1 468 461.9 460.1 462.2 462.8 458.6 454.4 451.1 446.6 442.9 432.2 419.3 402 379.2 364.9 355.6 340.1 334.3 327.3 316.6 306 300.7 289 278.5 271.5 265.4 260.9 258.7 254.5 246.1 239 232.3 226.4 217.6 202.7 197.4 188.6 183.8 180.8 173.4 168.4 159.3 149 140.6 128.9 118 112.6 112.7 106.4 95.3 86 76.6 68.9 61.2 58.3 52 47.8 46.1 41.1 38.1 37.6 36.8 35 33.6 31.8 30.2 26.3 24 20.7 23.8 27.9 28.7 28.9 28.9 29.2 29.7 29 25.8 22.9 20.6 21 21.4 22.3 25.1 25.9 24.7 27.5 28.1 28.7 30.5 31.6 36.9 39.7 38.3 37.6 37.4 35.9 34.7 32.8 24.8 25.1 25.8 32.9 33 33.4 39.4 32.7 32.6 32.1 28.6 26 32.2 34.3 32.7 35.6 36.2 39 44.2 67.4 87.1 109.4 130 141.4 167.5 190 219.4 252.4 273.4 301.5 331.3 346.6 364.2 381 402.2 416.1 420.7 427 438.6 446.2 454.3 458.3 449.1 438.8 426.5 417.5 412.5 408.2 403 397.8 394.5 391.7 386.4 382.4 382.3 382.6
405.9 410.7 404.9 398.3 390 377.5 370.9 364.8 360.1 355.8 350 346.5 341.7 336.2 330.1 326 322 312.7 306.4 301.9 297.8 296.5 292.7 276.7 264 249.6 236.8 234.5 229.7 221.6 228.6 232.1 241.9 249.4 263.1 283.6 299.4 318.8 333.5 339.8 368.4 384 402.3 423.5 453.5 455.9 453.5 451.8 463.8 469.8 457 453.1 450.8 449.3 447.4 433.3 418.8 399.4 377.8 361 345.2 333.2 318.1 312 306.9 299.8 287.8 277 267.5 262.2 257.9 248 246 242.7 238.4 231.6 224.8 217.4 211 203.3 194.3 185.1 180.6 178.1 174 164.9 149.3 140 132.7 125.3 118 112.3 104.6 104.1 89.7 82.6 72.1 63.6 54.4 50.6 47.9 43.9 42.2 39.3 36.2 35.6 34.6 31.9 30.9 26.5 26.1 24 18.1 23.2 23.2 27.2 27.4 24 27.9 28 22.2 20.8 20.1 19.6 20.5 21.3 21.3 21.7 22.3 23 26.1 27.2 28 29.3 30.6 35.5 35 38.7 38.1 37.3 36 35.1 33.6 24.5 24.9 25.4 25.7 26.4 33.2 34 34.6 31.7 31.8 29.7 27.8 21.9 31.6 32.9 35 38.2 39 46 63.5 86.3 106 131.1 155.3 170.3 190.8 213.9 240.5 272.7 309.1 340.8 358.8 378.1 395 424 445.5 457.8 456.8 458.8 457.4 460.2 465.3 463.1 449.6 437.1 425.9 414 410.2 408 402.8 397.3 392.5 390.4 386.5 383.2 381.2 382.3
404.3 402.7 397.4 387.8 378.9 366.9 360.9 354.3 349.6 343.7 336.8 336.8 329.8 323.4 317.4 313.7 308.4 305.6 300.2 294.3 290.7 287.7 283.1 275.1 261.5 246.5 236.9 224 220.1 217 219.2 221.2 228 234.2 249.9 266.2 286.1 304.1 316.6 331.6 351.7 371.5 391 416.9 438.6 437.6 440.8 445.6 462.7 467.2 458.1 451.2 452.5 452.5 444.9 435.7 418.5 394.4 374.3 359.4 343.9 327.3 311.1 302.3 291.7 287 274.8 263.5 257.5 251 246.6 239.6 234.9 232.3 229.3 225.8 217.9 208.1 202.7 195.2 189.8 181.6 173.7 168.5 160.2 154.2 145.8 132.6 124.3 117.2 110.9 105.1 98.9 92.5 85 76 66.6 59.3 50.4 45 42.9 41 39 35.7 34.8 34.6 31.8 27.7 25.8 25.4 24.4 19.4 20.9 22.4 22.3 24.7 25.1 24.1 21.7 20.3 19.2 20 20.9 21.3 21.4 21.8 22.3 23.1 25 25 26.2 26.8 29.7 34.7 33.2 36.1 36.6 38.7 38.5 36.5 35.4 34.3 26.9 24.7 24.8 25.8 25.9 25.7 25.7 33.3 35.5 30.9 29.2 29.1 26 28.1 30.4 35.1 38.4 43.3 52.2 73.3 90.7 108.1 126.8 151.3 173.3 193.1 214 237.7 264.7 296.5 340.2 369.9 393.8 403 432 451.6 469.5 478.2 480.5 480.1 472.8 469.2 463.4 452.3 441 434.5 422.8 413.7 409.9 407.5 402.8 395.4 390.6 387.6 384.9 383.2 380.6 380.6
406.7 398.4 390.5 381.9 375.1 364.5 356.8 348.5 341.1 334 326.4 318.5 317.7 313.7 307.1 304.3 301.8 303 300.7 293.6 289.6 286.3 278.9 269.7 257.6 244.6 233.2 224.5 212.1 211.2 211.5 212.7 214.9 221 231.6 249.8 270.7 287.5 301.1 317.5 337.4 356.5 375.5 396.6 412.3 421.4 432.9 444.6 459.1 459.7 451.5 449.3 445 442.4 435.2 427 410.6 389.1 369.2 353.8 338 323.9 313.4 301.4 287.2 272.7 265.5 258.7 250.3 240.7 236.6 232.3 226.1 222.5 217.9 215.1 210.3 202.7 194.2 186.8 177.8 169.8 161.7 154.1 147.8 141.5 134.8 124.8 116 108 100.8 93.6 87 78.2 72.2 64.8 58 52.3 46.5 39.7 36.8 37.4 35.8 34.1 33.3 33.3 27.7 25.4 24.9 24.1 22.8 20.2 19.9 20.8 20.6 22.1 23.1 21.8 20 19 20.5 20.9 21.1 21.5 21.7 22.2 22.8 24.7 25 24.8 26 27.3 27.1 30.4 32.7 34.6 36.1 37.8 37.3 36.4 35.4 34.5 33.4 24.1 24.8 25.8 26.5 25.8 26.3 26.9 27.4 28 28.1 26.4 14.2 27.6 36.7 38.5 42.5 57.1 73 92.6 111.4 127.7 147.2 170.3 194.9 218.3 232.1 255.7 289.4 335 380.4 402.2 411 432.1 452.3 468.1 483.5 488.3 490.6 489 483.1 472.1 461.5 448.2 443.5 436.7 424 414.1 407.3 402.1 397.6 391.4 389 385.3 383.8 382.5 381.5 380.4
404.3 393.6 385.8 378.2 369.9 359.1 349.1 338 330.3 327 323 317.7 307.6 301.9 296.3 295.9 294.4 294.5 294.8 293.9 287.5 281.9 276.4 271.7 259.1 245.6 234.1 224.5 214.7 208.3 203.3 206.3 206.6 212 217.8 235.4 251.9 268.2 288.7 304.9 324.3 348.1 363.8 385.8 396.3 414.4 431.7 451.2 449 440.6 442 441.8 436.1 431.1 420 415.3 398.4 382.4 368.1 355.4 340.4 322.9 306.6 291.9 278.9 268.2 255.4 251.1 243.2 234.8 228.2 223.8 218.8 213.1 209 204.9 201.3 193.1 185.8 175.7 168.6 160.6 152 142.8 137 131.5 123.8 115.7 106.3 98.3 89 81.4 74.2 65.8 60.2 55 49.1 43.8 38.4 33.9 32.4 32.6 32.7 31 29.6 27.5 25.2 23.8 23.5 23.3 18.1 19.9 18.1 18.2 20.7 21.2 21.5 19.5 18.9 20.4 21 21.1 21.2 21.6 22 22.5 22.9 23.3 23.2 23.9 25.9 25.6 26.5 28.5 31.6 34.1 35.5 36.9 36.8 36.1 35.4 34.6 33.3 31.4 24.1 25.8 26 26 26.3 26.7 27 27.4 27.4 20.7 22.5 35.2 38 45.2 59 75.8 90.9 106.4 127.6 146.8 166 188.2 212.9 233.8 259.5 279.4 321.4 375 403.9 421.8 436 451.9 471.3 482.5 490.3 498.1 501 498.3 488.2 474.3 459.1 448.1 443.2 434 425 417.5 409 402.9 397.6 389.5 385.5 384.6 381.3 378.3 377.7 378.4
413.6 398.7 392.9 382.1 371.9 366 351.3 337.7 328.8 316.8 318.6 315.6 310.2 303.7 296.8 290.4 287.8 287.3 284.9 284.8 280.4 274.6 268.9 264.1 257.8 247.8 235.8 224.1 213.1 205.2 196.6 201.4 201.5 201.4 208.8 219.9 236.8 255.4 276.1 297 316.8 336.6 352.2 369.8 391.6 409.9 429.4 445.4 438 435.9 435.7 435.5 425.8 419.7 411.6 403.1 397.1 384.9 366.8 353.2 332.5 313.1 297.5 283.3 271.7 261.1 251.5 243.6 238 230.2 222.9 215 210.7 204 200.5 194.2 189.2 182.4 176.4 168.3 158.1 153.2 146.3 138.3 128.6 120.3 111 104.2 96.2 87.9 79.3 70.7 64.1 56.9 48.6 44.6 41.1 36.8 32.2 30.5 30.6 30.4 27.5 23.7 23.5 23.6 23.1 23.1 22.5 21.9 18.3 18.2 14.7 14.7 20.2 19.9 19.6 18.7 19.9 20.6 21 21.2 21.3 21.4 21.9 22.4 22.7 23.1 23.9 23.2 23.4 23.9 24.1 26.4 30.4 33.8 35 36.4 37.1 36.2 34.5 35.2 26.6 24.8 24.2 24.6 25.1 25.9 26.3 26.5 26.7 26.9 14.2 25.1 36.3 40.7 49.9 64.9 77.8 91.6 108.2 126.4 144.7 163.3 184.4 203.3 226.7 258 299.1 316.6 356.2 404.1 428.8 445 461.8 474.1 486.3 493.8 500.9 509.9 508.3 500.2 488.9 474.8 460.6 452 449.7 439 426.2 416.7 408.3 400.9 395.7 389.5 383.9 380.5 377.8 375.3 376.2 377.5
435 418.4 412.7 402.8 386.7 380.2 361.2 343.9 330.8 321.5 312.4 306.6 303.2 299.1 295.5 288.8 288.9 287.2 283.7 281.1 277.5 270.3 263.2 251.7 246.6 238.3 228.8 220.1 210.8 203.4 195.5 196.1 197.1 195 198.4 206 224.7 245.4 263.8 286.4 307.6 326.6 343.5 362.3 380.2 408.2 433 442.5 436.7 433.1 429.6 425.2 418.1 411.7 406.6 401.3 395.4 382.7 359.7 341.9 320.1 304 289.1 276.5 265 254 246.3 239.2 233.2 222.7 217.6 208.4 200.3 194.7 188.7 184 179.6 173.3 166.9 158.5 148.8 138.3 134.7 129.8 121.3 111.2 100.5 93.9 86.2 78.8 70.2 61.8 54.9 48 40 36 33 29.8 28.9 28.1 26.8 24.8 22.4 21.4 22.3 22.4 22.3 22.5 22 20.9 15 14.7 14.7 16.3 18.1 19.1 18.2 19.4 20.5 20.7 21 20.8 20.3 20.6 21.1 21.8 22.4 23 23 23 23 24 23.5 23.5 26.7 30.2 32 35.8 37.2 36.1 35.7 35.1 23.6 24.1 24.9 24.6 25 25.3 25.2 25.6 26 24.2 14.2 36.8 42.3 53.8 66.1 79.6 93.5 108.7 125.4 145.1 163.3 180.3 199.1 222.1 254.9 301.5 340 354.6 377.7 429.3 447.4 466 480.4 481 497.3 503 510.3 513.3 508.3 496.2 482.5 473.6 465.4 458.9 446.9 435.1 424.6 415.7 405.4 396 391.5 387.2 383.2 379.9 376.7 373.7 376 377.1
463.6 449.1 442.5 429.9 415 405.6 382.4 360.2 347.7 332.5 316.8 305.1 299.3 297.6 298.7 301.7 302.1 300.3 296 290.5 283.9 276.8 269.3 260.5 250.1 236.4 221.7 207.2 201.9 195.9 191.6 192.1 189.1 188.5 191 198.1 216 233.7 252.3 274.4 299.2 316.9 336.6 356.7 377 408.1 431 438.7 429.8 426.7 422.4 414.1 410.9 406.5 403.5 396.3 387.2 372.6 355.6 333.9 312.2 292.8 280 267.1 257.3 247.8 240.1 235.9 228.1 216.9 212 198.7 194.9 189.2 185.7 177.5 170.2 164.3 156.5 148.8 138.4 126.1 122.1 118.4 112.2 103.7 94.8 84.2 77.2 69.8 62 53.6 45.9 38 32.6 31.2 28.8 27.4 28.2 24.3 20.7 20.5 20.8 21.2 20.1 19.6 21.8 21.8 20.6 19.6 16.8 15.3 14.7 18.6 18.4 18.4 18.6 19.8 20 20.3 20.3 19.8 19.5 19.9 20.4 21 21.7 20.4 22.1 21.8 14.2 14.2 14.2 14.2 18 19.8 14.2 21.5 34.8 19.6 14.2 14.2 14.2 14.2 14.2 14.2 22.7 23.7 23.8 18.8 14.9 31.3 38.7 48.7 57.7 70.5 83.9 96.9 110.9 125.7 141.5 163.6 185.9 202.5 215.2 247.1 293 337.2 359.7 383.9 397.8 441.7 467.6 480.3 487.1 494.4 501.8 509.5 510.5 506.1 501.5 488.9 483.1 476 468.1 453.1 440.3 432.4 423.8 412.4 401.7 392.1 385.7 382.2 378.2 374.8 372.1 375.4 376.8 378.5
507.6 495.1 488.5 501.6 480.8 451.9 418.6 387.7 367.6 342.9 323.8 314 309.2 309.6 309.7 310.5 309.5 307.4 303.2 296.5 288.8 281.1 272.3 262.6 251 236.1 222.2 209.8 198.6 191.8 186.4 180.1 182.7 184.6 184.9 193.2 207.9 224.3 243 267.8 292 311.4 331.5 350.3 373.3 393.2 401.8 412.1 418.3 415.2 413.1 411.9 401.8 395.4 390.7 384.1 378.4 362.8 341.8 323 305.1 288 275.1 259.2 247.6 238.3 232.1 227 217.2 207.2 200.5 197.8 186.8 182.1 182 173.6 162.4 154.6 146 138.2 129.8 119.4 112.2 108.4 103.4 96.9 88.9 79.1 69.6 60.7 53.3 44.2 36.6 32.3 29.7 28.7 27.7 24.7 27.5 23 19.5 20.9 20.9 21.2 19.6 21.4 21.4 20.1 19.3 18.4 17 15.6 18.2 18.5 18.3 18.6 19.1 18.3 16.8 16.8 17.9 18.4 18.8 19.3 20.1 20.9 21.4 21.8 15.2 14.2 19.6 19.6 20.2 20.9 22.2 22.8 22.6 19.1 21.1 21.7 22.5 22.8 23 24.5 24.5 24.1 16.3 14.2 19.9 30.6 34.9 41 50 61.1 74.3 87.9 102 115.7 127.4 143.8 162.2 183.8 206.9 224.8 244.7 284.4 335.3 354 379 399.4 414 445.3 474.3 486.6 497.4 496.1 503.8 505.7 499.8 499 495.3 490.9 485.7 478.1 461 451.3 438.7 427.4 418 407.6 398.4 389.2 381.9 378.5 373.1 369.5 372.5 375.5 378.5 381.6
574.2 551.8 565 541.8 505.7 481.8 444.2 410.2 391 361.2 338.7 324.2 319.2 321.3 322.3 322.1 321.1 316.2 309.7 304.9 298.6 287.5 275.3 264.4 251.6 238.5 225.1 212.1 199.3 189.7 183.5 178.1 178.2 181.8 181.6 189.1 201.9 218.4 239.4 263.8 288.1 308.3 327.5 343.7 364.2 379.1 390.2 402.7 407.7 407.4 407.9 407.8 396.9 387.1 376.9 368 361 350.9 328.7 310.7 295.8 280.2 265.2 250.1 240.9 230.4 225.7 212.4 204.6 197 189.2 185.2 176.6 173 170.5 160.6 150.6 141.6 132.6 125.5 118.6 109.6 102.5 100.7 96.4 91.1 83.6 74.5 63.6 53.4 44.5 35.7 30.9 28.5 27.7 26.9 25.7 22.5 20.7 19.8 18.7 20.2 20.4 20.9 20.9 19.6 19.1 18.8 18 17.2 16.4 17.4 17.6 17.9 17.8 18.4 18.4 16.2 16.5 16.9 17.4 17.9 18.6 19.1 19.5 20.5 20.3 20.8 14.2 19.3 19.3 19.7 21.3 22.4 23.1 23 23.6 20.4 21.6 22.8 21.4 22.1 23.7 23.3 23.8 24.7 26.1 32.7 35.5 38.8 46.7 55.3 64.7 75.8 89.2 102.9 119.1 133 147.3 163.4 184.4 203.4 230.6 256.7 277.2 322.7 346.1 369 394.7 418.5 443.2 450.2 482.3 491.5 499.3 498 497.7 501.5 494.1 492.6 496.3 490.8 484.5 472.4 461.8 445.7 432.6 418.8 410.1 401.8 392.3 382.7 374.7 373.9 369.4 367.9 372.3 376.5 378.9 383.1
649.1 624.1 617 587.4 551.5 503.6 465.2 438.1 411.2 392.7 371.4 352.9 340.1 340.3 338.2 339.3 337 328.9 321.2 315.5 307.8 293.6 281.7 274 257.3 242.5 230.9 216.7 203.6 189.7 181 175.4 175.6 176.5 178.9 185.7 197.6 212 237.2 260.6 281.6 300.2 319.9 340.7 358.7 372.7 386.4 393.4 398.5 410.7 404.6 397.1 389.2 385.4 373.9 356.5 344.8 329.8 309.3 293.7 279 268.5 254.5 241.3 232.9 219.1 210.2 197.6 187.5 181.5 176.4 170.8 166.4 160.4 152.9 146.1 138.4 128.8 119.9 112.8 106.8 99.2 92.2 90.1 87.7 83.4 76.8 67.4 57.1 47.4 38.7 28.3 26.8 26.5 25.6 25.5 23.2 20.8 19.2 18.8 18.8 20.1 20.1 20.1 20.7 19.4 16.5 16.7 16.6 15.7 14.4 16.9 17.2 17.6 17.6 18 16.8 16.2 16.9 17.6 18 18.2 18.4 19.4 20.1 20.4 20.6 20.2 15.5 19 19.6 20.8 21.8 23 23.4 23.5 23.7 20.2 22.2 23 23.3 23.6 23.7 22.8 23.4 25.2 31.6 38.5 43.5 52.3 60.6 70.8 80.7 92.3 105.6 120.7 138 149 163.2 181.9 201 229.4 262.2 277.1 303.7 341.1 366.8 394.2 414.1 439.6 447.5 454 484.4 495.8 499.5 504.3 499.2 500.5 486.2 490.3 490.2 484.7 478.9 470.7 455.6 439.4 423.9 411.1 403.4 395 386.1 376.5 368 366.8 364.2 367 370 373.2 378.8 384.7
669.3 657.6 641.4 615.5 570.2 526.7 490.3 474.6 454.9 432.9 412.8 392.6 377.2 371.3 368.6 374 366.2 355.5 333 322.2 311.8 301.6 293 276.3 263.4 250 236.8 223.5 207.2 192.4 182.7 174.3 169.9 171.1 176.5 181.1 195.2 207.7 229.5 252.4 271.9 293 314.9 337.9 353.5 368.1 379.8 390.3 407.5 419.7 404.7 391.2 382.4 375.7 371.2 348.7 325.8 306.2 292.2 280.4 267 256.1 244.5 231.4 217.3 204.1 194.1 183.7 177.2 170 161.6 156 150.9 146.7 141.8 138 129.1 120.1 110.4 100.6 97 89.5 84 78.4 75.4 72 66.2 58.6 50.5 41.2 32.7 24.7 25.3 24.8 23.7 22.3 20.6 19.3 18.1 18.4 19.3 19.9 19.8 19.9 20.1 19.6 15.2 15.2 15.4 15.4 15.6 16.3 16.7 17.1 17.2 15.7 15.8 16.4 17.3 18 18.2 18.4 18.4 19.8 19.8 20.2 20.6 20.3 16.8 18.9 19.6 24.7 24.1 23 23.2 23.6 23.8 21.6 23.2 22.8 22.8 22.7 22.5 22.3 33.7 35.3 39 46.9 56.1 66.9 75.9 89 99.3 112.5 127.2 142.1 153.4 166 183.7 200.6 243.7 283.8 294.8 305.8 337 365.5 397.4 413.2 435.4 445.5 456.8 465.2 480 497.1 503.9 504.1 498.5 484.9 481.7 485.7 481.7 481.3 476.2 461.6 444.9 431 418.6 406.9 396.6 389.1 378.8 370.7 362.1 356.9 360.5 364.3 366.2 370.8 375.6 380
681.5 667.6 655.2 631.3 608 567.3 556.7 547.7 505 462 438.6 420.4 407.8 413.8 399.8 386.4 374.4 359 347.4 337.5 323.4 310.8 298.1 285.5 269.5 255.1 241.3 226.3 210.5 194.9 183.8 173.1 169.3 171.2 174.6 180.3 194 207.3 226.1 247 263.2 281.6 310.3 335.8 343.7 360.7 376.5 393.5 412.3 406.4 395.4 389.7 379.8 362.2 347.7 332.1 316.6 294.9 274.2 262 249.7 237.9 226.9 214.8 204.1 192.9 179.9 170 165 156.5 150.5 144.8 142 139.1 127 122.2 116.1 110.9 104.6 95.2 90.6 84 75.7 69.9 64.5 62.5 58.2 52 43.6 35.6 25.8 23.8 24.2 24.9 24.2 22.6 19.5 17.8 18 18.6 19.3 19.6 19.5 19.5 19.4 16.2 15 14.8 14.6 15.1 14.7 15.2 15.4 16.2 15.3 16.2 16.5 16.9 17.4 17.8 18.1 18.2 18.7 19.4 19.5 19.8 20.1 20.4 14.7 18.8 23.7 23.9 23.6 23.6 23.9 24.2 24.7 21.2 23.1 23.7 22.6 22.2 28.1 36.2 38.1 40.8 48.1 59.8 68.8 80.5 94.7 106.7 119.1 136.5 151.5 164.5 173.3 185.8 213.4 262.1 298.6 315 317.3 341.5 365.3 402.8 414.2 439.8 449.6 460.6 467 474.1 475.2 500.4 504.7 498.4 485.9 481.4 487.1 484.1 481 476.8 464.8 450.5 438.1 426.9 415.7 400.4 388.1 377.9 368.2 362.3 357.7 353.2 357 360.5 363.6 369.7 376.3 380.3
673.2 657.3 654 646.4 632.4 604.1 590.8 564.5 536.6 495.7 465 442.8 435.1 425.5 414.7 402.5 399.1 395.3 392.8 382 361.2 332.4 314.1 293.6 274.5 258.5 245.3 229.3 215.7 195.8 182.5 170.7 163.4 169 174.3 180.8 195.1 207 224 242.3 256.9 277.7 300 323.4 336.3 355 369.4 394.4 397.4 395.6 388.1 387.3 369.8 350 335.9 320.7 308.4 287.4 265.4 247 234.8 223.5 211.4 201 189.6 176.3 163.4 155 150.1 145.4 140.8 135 132.8 127.8 113.2 106.5 103.4 99.5 93.7 87.8 84.2 79 66.2 59.8 55.9 52.9 49 43.7 36.2 26.7 23.1 23.3 23.5 23.9 22.2 21.9 19.2 17.3 18.4 19 18.9 19.2 19 17.4 14.7 14.7 14.8 14.8 14 13.1 13.8 13.1 15.2 15.3 15.4 15.7 16.3 16.4 17.2 17.7 18 18.2 18.9 19.1 19.5 19.8 20.1 20.1 14.2 18.9 23.9 23.3 24 24.3 24.9 25.5 25.9 25.6 26.8 26.9 30.4 33.1 35 40.4 47 53.5 63.3 73.9 85.5 97.9 113.6 127.3 147.2 164.7 177.2 184.1 196.6 221.9 263 289 321.1 337.6 348.8 378.2 398.7 418.7 429.3 454.6 462.1 465.6 468.6 475.9 480.6 500.1 500.4 490.9 483.5 490.1 489.7 483.9 475.4 463.8 454.5 443.4 431.7 419.1 404 390.9 377.7 367.5 359.4 356.1 353.1 350.6 355 357.3 362 368.4 371.9 379.8
664.6 668.1 675.6 668.9 647.1 617.7 586 559.7 536.5 504.1 477.4 463.7 455.6 455.6 456.2 444 450.2 437.7 421.5 399.9 376.4 353.2 325.8 303.7 281.9 264.7 250.9 234.9 218.2 198.3 182 171.8 163.8 164.8 172.4 182.2 189.8 200.5 220.9 239.8 253.6 273.8 290.8 311.3 328.1 347.7 364.5 381.9 382 384.2 380.5 374.7 360.4 342.6 324.9 308.2 293.8 276.1 256.8 240.2 224.8 210 199.8 187.5 175.5 163.2 150.7 142.8 137.3 133.5 129.7 123.3 120.3 116.4 108.7 101.1 94.5 83.3 80.2 75.3 71.3 66.2 58.2 51 47.2 43.7 40.3 34 26.7 22.5 22.5 23.2 23.7 22.2 21.1 19.4 17.6 17 17.9 16.3 15.9 17.1 16.5 13.8 14.1 14.3 14.3 14.5 14.1 13.5 14 14.3 13.1 15.6 15.3 15.3 15.5 15.9 16.7 17.4 18.3 18.8 18.7 18.8 19.6 19.8 19.9 19.3 14.2 23.5 24 24.4 25.2 25.6 26.2 26.5 26.4 26.1 30.5 35.1 36.5 36.9 39.9 47.3 58.8 69.9 81.1 93.3 106.1 119.2 133.9 154.7 172.8 183.5 194.3 219.3 232.7 271.9 294.1 312.1 342.4 354.2 379.3 399.4 412.6 423.3 448 458.4 461.1 463.5 472.6 476.4 480.2 489.3 487.1 473.4 483.6 488.9 484.4 473.4 463.5 457.7 448.8 438.5 425.3 412.2 395.5 381.6 369.6 358.5 351.5 349.7 346.4 347.7 351.3 357.6 361.9 365.3 372 387.2
672.1 678.2 682.6 683.5 663.7 627 598.3 577.2 562.4 544.3 524.9 510.4 521.4 512.6 522.2 519.4 508.2 470.9 438.3 411 386.4 361.8 337 302.6 283.2 269.6 252.6 242.5 221.6 204.6 187.8 176.7 165.4 163 169.5 178.3 184.7 198.4 220.2 236.1 250.6 268.3 282.4 299.4 317.4 335.1 355.9 364.1 366.7 372.8 380.2 367.7 353.2 335.4 315.8 299.9 278.1 262.6 244.7 230.5 217.4 201.4 188.2 177 164.6 152.8 138.7 134.3 129.1 124.1 119 113.4 110 107.2 102.3 98 91.1 81.5 71.1 55.2 55.5 52.7 47.8 42 38.6 35 31.7 25.6 22.1 21.8 22.2 23 23.7 21 20.7 19.4 15 15.1 13.8 13.3 14 14.6 13.5 13.6 14.1 13.7 14 13.9 13.8 12 13.7 14.4 14.5 13.1 15.6 16.1 16.1 16.1 16.2 16.8 18.9 17.7 18.1 18.3 18.7 18.2 17.9 17.6 14.2 26.5 27.1 27.2 27.5 27.6 28.1 27.8 26.8 33.8 35.4 36.7 39.1 47.2 56.4 69.6 81.2 91.6 102.5 118.6 130.4 153.2 167.7 182.6 198 209.6 225.8 247.1 277.5 312.2 326.5 342.2 358.9 372.5 398.9 411.6 415.9 440.4 454.6 457.4 454.1 468.3 476.8 477.5 475.1 476.1 465 470.1 482.2 485.4 473.9 466.4 463.1 453.6 444 429.9 413.7 397.4 385.4 373.9 363.2 354.2 347.2 341.3 342.8 344 349.5 355.2 360.3 371.6 387.3 399.9
673.6 677.1 682.1 687.6 686.2 670.7 659.1 635.8 618.3 591.7 571.8 559.8 550.4 549.1 553.5 544.6 523.7 487.5 448.5 420 389.6 365.7 340.5 308.7 289.4 272.7 269.3 256.7 230.2 205.4 186 174.5 166.7 160.7 166.3 172.4 184.5 198.2 216.4 233.5 250.6 265.8 280.6 294.8 307 321.5 339.5 351.8 351 350.1 350 344.6 329.4 317.5 301.9 282.3 259.3 241.7 230.5 220.7 207.6 190.4 177.6 164.6 152.7 138.3 128.5 124.5 121.1 115.3 108.7 103.5 100 95.4 88.9 85 79.7 73.5 64 53.1 45.8 41.4 38 33.1 29.5 26.1 23 21.3 21.2 21.1 21.8 22.7 21.8 20.9 19.4 19.7 14 13.8 12.8 12.4 13.1 13.8 12.9 13.1 13.6 13.3 13.3 13.4 14 13.5 13.1 13.9 14.9 16.4 15.3 13.3 16.1 15.5 14.7 14.7 14.2 14.7 14.5 14.2 16.5 16.6 16.6 14.2 20.9 29.1 29.4 29.9 30.6 31.5 32 31.8 34.1 36.3 40.3 49.7 59 70.6 81.5 93.6 103.2 115.7 133.6 154.7 168.3 179.8 195.2 208.4 224.6 245.1 255.7 280.3 314 343.2 356.2 364.5 368.4 390.9 405.5 415.2 427.9 449.5 459.3 455.5 459.3 470.3 476.6 478.6 469.1 461.1 458 469.6 476.8 474.1 468.3 465.1 457 446.1 430.3 413.2 400.8 388.2 376 365.4 356.8 348.8 341.4 337.8 338 340.9 345.1 353.9 367.9 383.4 398.9 411.8
677.1 692.1 702.9 710.3 718.3 720.2 710.3 698 676.8 634.5 605.7 598 583 574 558.3 530.8 500.9 477.4 450.2 421.2 392.1 365.5 335.8 310.9 294.1 281 282.7 260.6 231.2 200.6 183.2 171.7 163.6 155.5 161.3 171.7 184.7 198.2 215.2 229.6 250.9 268.1 281.6 292.3 301.5 315.4 327.2 334.6 335.7 330.6 325.7 315.1 306.9 300 284.9 267.9 246.2 229.9 218.8 209.4 197.9 183.4 169.2 156.4 143.5 130.1 120 114.1 110.1 103.1 97 93.6 87.4 79.4 74 71.4 67.7 62.4 54.5 45.8 37.4 25.2 28.8 25 23 20.3 19.6 20.7 20.7 20.7 21 21.5 20.5 19.5 17.9 16.1 14 13.7 9.5 11.5 12.2 13 12.5 12.5 12.8 13.3 13.2 12.9 14 13.2 11.7 14.4 15.2 15.7 15.8 16.8 19.8 22.7 19.5 20.8 26.5 26 24.2 26.4 28.1 29.3 29.7 30.2 30.1 30.3 31.3 32.4 33.8 34.8 35.1 36.1 42 52 62.8 75.6 89.7 101.4 112.7 118.8 128.1 148.1 168.5 181.8 192 204.2 217.9 239 261.3 276.1 285 311.3 346.6 360.3 369.2 375.5 397.1 408.5 411.2 417.1 440.1 451.5 454.2 453.4 456.6 472.2 482.1 473.4 458 452.4 459.2 462.6 468.3 466.1 460.5 456.3 447.7 429.4 414.3 402.8 389 377.5 368.8 357.9 350.2 343.1 332.1 333.1 336.3 340.8 347.3 357.4 371.3 386.1 404.8 421.5
692.6 699.1 707.3 716.8 724.4 726.8 715.3 698.5 681.1 658 632.7 609.9 590.1 565.2 521.8 496.5 478 463.6 430.8 411.5 394.5 361.9 332.3 314.4 300.6 292.9 284.9 260.7 225.9 196.7 180.4 168.2 158.6 156.2 161 170.3 184 200.5 216 231.7 251.3 268.7 281.6 288.2 297.6 313 319.6 324 327.3 317.8 308.5 297.4 285.5 274.5 263.5 247.8 233.1 218.9 210.3 200.1 186.4 171.6 158.5 146.7 134.2 122.9 112.9 105.1 98.6 92 87.2 80.7 71.7 64.9 60.1 58.4 55.3 51.2 44.5 38.3 32.1 27.8 23 20.1 19.8 18.4 19.2 20.2 20.2 20.2 20.3 20.4 19.5 18.2 16.7 15.4 13.5 9.1 11.5 11.9 11.1 12.2 12.2 12.5 12.6 12.7 13.1 12.8 12.6 11.7 14.1 14.4 14.7 15 15.2 16.5 19.2 22.7 19.9 26.4 26.1 24.8 24.1 26.7 28.1 28.8 29.1 29.8 29.8 30.9 31.8 32.5 33.9 34.8 41.6 53.3 66.3 80.6 95.4 113.6 129.2 139.2 150.9 161.2 167.3 175 189.1 204.5 215.8 228.6 250 277.3 295.3 310.9 315.8 338.2 367.3 378.4 386 392.5 403.5 412.8 408.2 420.9 437.8 447.5 449.4 448.5 457.8 476.3 473.4 460.5 446 455.8 451.5 454.8 461.3 462 456.2 446.4 436.2 418.7 405.1 388.9 377.3 366.5 355.8 348.5 342.8 335 322.8 327.2 334.8 341 352.6 365 376.6 388.7 408.2 425.9
694.4 695.5 712 717.6 719 721.2 715.4 703.5 679.9 665.1 643.2 617.9 584.7 545.5 513.8 491.4 478 462.4 429.6 402.1 379.5 354.3 331.5 313.7 302.4 300 287.9 254.9 217.3 194.3 176 164.2 152.5 154.6 160.7 169.9 184.7 202.1 215.9 232.4 251.8 273.5 279.7 279.5 298.6 309 307.2 307.4 315.7 303.8 289.6 278 266.4 257.5 246.5 229.3 221 207.6 196.2 186.1 173.3 160.9 148.9 136 123.9 112.2 102.3 93.6 84.9 78.7 73.7 66.7 59 52.3 48.4 47 44.3 41.1 36 30.5 25.3 21.7 20.8 19.3 17.8 17.7 19.2 19.8 19.8 20.1 20.1 19.4 18.6 17.4 16.1 14.7 11 10.6 11.9 10.2 9.7 9.8 10 12.4 12.5 11.1 11.2 16.8 24.7 26 23.6 20.8 16 21.5 15.8 16.3 17 21.5 22.6 25.1 25.9 23 25.5 27.2 28.1 28.7 29.4 30 30.7 31.7 31.9 34.9 44.5 57.8 64.3 86.2 100.8 121.4 136.9 157.4 172.1 180.3 187.3 193.3 197.3 205 215.1 226.7 238.1 256.6 289.4 318.8 328.1 333.9 339.1 362.9 379.9 392.6 398.3 398.2 401.5 405.8 406.5 419.2 436.5 441.5 444.8 445.9 458.9 467 462.5 448.3 443.6 444.3 446.2 452.3 459.6 453.9 445.7 431.5 421.3 407.6 392.3 379.3 364.8 355.2 347.8 340.3 334.8 329.4 318.6 324.6 332.8 346.3 359.9 371.4 388.8 403 415.6 430.2
687.1 700.2 711.6 718.3 712.7 710.3 704.4 692.4 672.4 657 646.1 620.6 581.9 543.7 516.8 503.1 488.2 469.6 432.6 394.4 371.8 350.4 331.5 309.8 305.5 298.9 285.6 243.2 213.7 193.2 171.6 160.2 151 153 159.4 168.8 182.7 201.4 214.4 232.1 252.1 270 270.4 272.9 283.3 290.3 292.2 290.2 295.6 287.6 271.6 260.7 251.2 239.9 224.3 212.4 203.8 198 189.3 176.7 161.3 145.6 135 123.2 111.7 100.4 90.9 81.6 72.9 65.5 61.4 55.5 49.8 43.3 38.3 35.9 33.9 31.2 26.9 21.2 18.5 19.1 18.7 16.5 17.5 17.4 19.2 20 20.5 20.8 20.1 19.2 18.2 17 15.5 13.9 9.4 11.7 11.9 12 11.7 12.4 12.4 12.1 11.8 12.5 19.4 25.7 25.9 25.3 24.4 24.3 23.8 23.1 15.7 16 17.1 21.7 22.9 25.2 25.9 24.8 25.8 28.9 29.2 29.6 29.9 30.7 31.4 35.1 46.2 59 74.9 94.1 104.1 126.7 144.5 157.5 178.8 192.5 201 206.3 209.8 218 220.6 227.5 241.6 250.3 259.3 279.6 304.9 327.1 336.2 341.5 352.8 372 389.3 400.4 400 402.3 408.2 405.2 408.9 417.6 429.6 434.2 440 444.6 452.5 457.4 447.9 440.1 436.7 435.1 442.4 447.4 449 445.1 428.2 417.7 407 393.1 379.2 367.9 354 347.9 342.8 332.2 325.1 321.5 315.7 324.5 336 348.7 357.6 372.1 395 410.3 422.9 431.1
678.9 688.4 704.2 712.9 714 710.9 705.3 695.5 678.3 660.3 647.8 625.5 596.6 569 543.7 523.1 501 477.8 431.7 396.8 368.6 353.5 325.1 305.5 298.8 291.8 263.4 231.9 211.6 186.4 166.9 157.9 146.5 150.9 156.7 165.4 178.9 197.7 215.9 230.2 252.9 265.7 263.1 273 277.7 277.2 277.1 274.6 277.7 273.6 261.8 247.4 229 217.2 210.6 201.2 194.3 185.7 175.3 164.1 144.6 131.7 122.7 109 98.5 88.3 80.2 71.5 63.4 55.5 49.2 43.1 37.5 32.9 28 23.6 22.9 21.3 17.6 16.8 16.8 17.3 16.5 16.5 18.2 18.4 19.5 20 20.4 20.5 19.7 18.9 17.8 16.6 14.8 15.7 9.5 10.8 11.5 12 12.3 12.3 12.1 12.5 12.7 13.5 23.7 25.5 24.9 24.5 24.1 23.9 23.4 22.9 17.7 18.5 21.4 23.7 25.5 23.8 23.9 26.1 27.5 28.4 29.1 29.7 30 32.6 48.7 67 74.3 88 106.6 125.9 136.9 164.1 183.8 196.1 206.3 215.5 222.1 227.5 234.1 237 238.4 252.5 260.2 274 285 306.1 332.5 341.6 347.7 347.8 362.1 384.1 397.3 402.5 399.4 408.5 403.9 406.7 415.1 422.6 431.7 432.2 432.9 435.6 440 439 435.3 434.7 429.7 431.4 433.5 435.6 432.6 426.3 416.3 403.9 392.2 378.2 367.8 354.9 346.2 338.1 328.7 319.8 312.8 308.3 309 325.1 338 346.3 358.7 377.8 398.2 415.3 425.9 434.2
671.1 677.4 691 706.1 717.1 710.4 702.5 695.2 682 668.9 652.2 639.4 620.7 600.1 568.7 543.7 522.9 492.2 455.6 416.1 374.7 352.5 318.1 300.2 288.1 267 240.7 219.7 193.9 177 166 157.6 146.4 146.6 154.1 162.1 174.3 194.5 211.5 224.7 241.9 253.7 260.3 269.6 265.7 263.3 263.6 261.5 260.7 258.6 245.8 230.2 212.6 200.4 200.5 191.4 185.4 171 161.6 147.4 130.6 119.5 109.8 99.4 88.4 80 69.9 60.8 52.6 44.9 38.1 32.9 27.6 23 19.1 16.6 15.4 15.4 15.9 15.8 15.7 15.8 16 17.3 18.8 19.2 19.6 19.8 19.9 20.1 19.3 18.5 17.6 16.5 15 15.2 9.1 11.2 11 11.6 11.9 11.8 12.2 12.2 12.2 16.3 23.8 23.8 24.1 23.7 23.4 23 22.7 22.8 20.9 22.1 19.7 22.6 23.5 23.9 26.6 26.9 27.3 29 29.7 32.6 45.2 62.9 80.3 94.9 106.7 119 137.6 157 178.7 196.2 198.1 216.4 225.3 228.5 236.5 245.8 251.6 257.9 261.4 270.4 275.3 300.1 315.2 331.9 346.8 350.3 357.6 361.4 371.4 386.2 395.8 396.7 398.5 399.4 403.2 416.1 421.2 432.3 432.5 428.1 426.3 422.9 421.7 426.5 426.5 424.9 420.3 421.3 419.1 421.1 418.5 413.5 400.6 387.2 377.8 364.1 352.9 345.6 332.7 325.4 316.7 307.5 302 302.4 314.1 324.1 336.7 350.9 363.7 380.5 400.8 414.4 429.7 436.1
660.4 671.8 685.5 705 711.8 700.8 695.7 693.9 679.7 665.9 653.6 639.9 623.7 606.8 580.9 553.3 530.5 510.4 474.4 446.3 410.6 352.5 317.1 294.4 277.4 249.5 230.8 201 181.6 170.9 161.3 156.2 146 141.7 149.8 156.7 166.9 186.6 204.3 216.7 236.7 250.4 253.7 257.3 254.1 251.8 250.7 249.5 249.6 237.4 225.2 213 196.7 189.5 177.7 165.8 158.7 148.5 141.5 127.8 115.1 106.3 95.4 84.4 74.7 66.7 58 50.2 43.8 37.3 31.9 26.5 21.4 17.4 15.5 14.4 14.4 14.7 14.9 15 15 15.6 16.3 16.2 18.6 18.9 19.1 19.5 19.7 19.7 19 18.2 17.4 16.4 15 8.6 17.2 23.1 16.7 12.3 11.4 11 10.7 11.1 11.8 16.7 21.3 22.2 23.2 22.8 22.8 21 21 21 23.3 23.1 23.3 22.4 23.8 25 25.7 26.2 28.7 31.1 46.5 55.3 77.8 94.5 111.3 131.7 137.9 154 171.2 192.6 210.8 221 230 234.7 235.7 240.9 250 260.8 268.6 278.5 285.7 288.7 302.4 334.5 333.9 342.1 353.3 357.8 364.3 370.7 375.9 383.5 388.8 393.1 395.5 396.8 409.1 418 427.3 430.6 425.5 420.7 414.5 409.1 416.7 420.5 419.6 414.4 409.7 408.8 403.1 404 399.5 393.3 382.7 369.3 360 348.2 340.1 331.9 321.4 311.1 302.3 294.3 303.1 309.4 313.9 324.7 338.6 355.8 376.1 387.2 401.4 414 424 434
655.6 665.6 676.9 710.6 705.1 696.4 683.9 676.3 666.8 653.1 650.1 636 616.2 599.4 576.7 556.7 537.2 519.8 495.1 463.8 414.7 348 310 288.3 267.8 241.7 222.4 188.6 175.7 164.6 156 149.7 143.1 130.1 144.6 150.6 159.2 174 190.3 208.8 239 251.2 242.2 241.4 243.9 241.6 239.1 235.9 231.6 219.3 210 194.5 176.8 171.4 160.6 149 138.9 129.7 123.2 114.5 106.1 95.6 81.1 69.4 62.5 55.5 47.3 41.1 35.1 29.2 24 20.9 17.3 14.5 13.4 13.2 13.6 13.8 13.8 14.3 14.2 15.3 16.3 17.1 17.4 18.2 18.5 19 19.4 19.1 18.5 17.8 16.5 16.9 13.1 10 19.5 23.4 26.7 23.6 20.4 14.5 11 11.1 11.2 20 20.3 21.2 22 22.6 22.8 22.8 22.9 23.4 23.2 23.6 24.2 20.2 20.2 21.8 24.1 25.9 37.6 54.9 72.6 85.3 109.5 132.7 156.6 166.8 169 184.9 202.9 217.4 231.9 238 245.8 250.6 248.9 251.7 262.4 272.5 283.7 297.1 301.1 312.1 333.4 344.7 342 349.6 356.3 364.7 369.7 377.9 383.9 390.6 395.2 395 394.8 395.7 405.9 413.9 421.8 419.7 417.4 410.5 408.8 407.9 412.9 410.7 407.4 404.4 401.1 392.8 387.6 386.1 382.6 379 368.1 355.3 345.9 336.4 326.2 318.2 305.4 294.5 292.6 302.7 306.5 310.4 314.1 324.1 342.3 365 386.3 398.2 403.3 409 418.6 434.4
666.5 671.8 690 703.3 699.4 687.4 673.6 656.6 644.3 636.7 633.6 623.2 606.6 593.7 572.5 554 536.6 519.6 496.9 473.5 419.7 355.7 305.5 284.1 259.7 232.5 209.8 183.8 168.1 159.5 152.8 144.1 139.9 128.5 134.6 144.1 154.3 165.2 181.1 204.6 240.7 242.2 232.8 225.7 223.9 221.4 215 212.9 207.7 200.4 189.3 174.7 165 156.5 146 134.8 125.4 114.5 107.1 99.9 89.1 78.7 67.9 58.5 53 47.1 40.1 34.8 29.5 25 21.3 18.4 15.1 12.9 12.2 12.5 12.9 13 12.9 13.4 14 14.9 15.8 16.3 14.7 17.8 17.8 18 18.3 18.4 17.7 17.3 16.2 13 8.2 15 20.1 20.2 26.3 29.7 28 26.3 23.5 17.2 17.8 20.6 19.5 20.4 21.3 22.3 23.5 24 24.4 24.5 24.3 24.5 24.3 22.7 23.9 29.3 42.3 51.3 68.8 81.3 96.7 118.4 139.3 160.3 175.8 186.6 197.1 211.6 220.1 230.8 243.7 249.9 255.9 263.2 263.4 262.4 277.1 288.7 299.9 307.9 315.6 338.5 349.8 357.6 353.7 354.4 355.9 365.1 376.3 385.1 391.1 397.5 399.6 396.5 393.7 392.1 399.9 404.9 406.6 409.5 406.4 406 403.9 408.9 405.8 404.6 397.2 392.8 388.2 380.7 371.5 370.9 370.4 361.8 352.5 341.5 335.6 324.1 312.7 301.5 290.7 291.2 304.5 307 308.7 311.1 317.4 331.5 354.8 374.4 387.4 397.6 406.5 413.9 425.8 438.2
675.9 684.6 701.5 708.8 696.9 678.1 668.3 647.5 631.6 625 617.1 609.8 599.6 585.9 571.1 552.1 535.3 518.2 502.1 475.5 432.5 360.6 315.6 283.1 255.6 229 202.5 181.4 161.7 151.5 142 135.7 130 123.1 126.7 139.2 149.3 159.3 177.2 205.4 228.5 224.7 220 212.9 208.5 203.1 195.9 193 187.9 180.7 170 158 150.1 140.7 130.6 122 114.9 105 92.5 83.1 72.4 65.1 57.3 50.1 45.2 39.7 35.3 29.8 24.8 21.6 18.3 15.3 13.2 11 10.6 11.7 12.2 12.3 12.1 12.7 13.5 14.4 15.3 16.2 15.8 16.5 16.8 16.9 17.1 16.8 16.5 15.5 12.7 10.9 10.1 18.7 19.7 19.6 19.7 21.4 26 29.5 28.1 26.4 24.6 22.9 21 20.2 20.9 22.4 23.9 24.9 25.4 25.9 26.1 26.8 26.6 27.2 33.4 46.1 63.8 78.7 92 109.9 137.8 156.6 171.9 188.8 199.1 203.2 219.7 230.2 238.8 244.6 255.7 264.1 267.1 268.2 267.7 272.5 290.4 303.7 315.7 330 343 351.2 357.6 361.5 359 359.3 365.3 377.9 388.2 393.8 393.5 395.1 396.8 395.4 391.2 392.1 397.4 399.5 401.7 400.3 399 396.4 399.9 401.3 399.8 395.3 388.5 380.8 372.3 368.3 361.7 357.2 352.8 348.7 337.9 330.6 323.2 309.6 296.2 284.5 290.7 302.7 305.3 306.3 308.4 312.6 323.7 342.8 367.6 379.2 391.2 404 412.5 422.2 431.8 440.5
678.1 685.8 709.6 702.5 686.4 666.8 652.2 639.2 631.5 621.6 608.4 596.7 584.9 576.2 561.7 549.9 531.1 513.3 499.2 472.6 419.6 368.3 321.5 282.8 255.1 234 206.8 182.8 162.7 145.8 138 130.2 120.9 116.3 121.7 134.5 142.4 155.1 176.2 203.3 214.3 213.5 208.6 198.1 190.6 184.4 178.8 176 165.8 158.5 151.2 147.7 140 126.2 116.1 108 100.5 91.1 82.5 71.4 62.3 54.7 49.3 44.6 39.8 35.4 31.7 26.1 21.1 17.9 14.9 12.4 10.5 10.2 10.5 10.8 11.3 11.5 11.6 12.3 13.1 13.9 14.8 15.7 15.5 15 15.8 15.9 16.1 15.1 13.6 12 10.8 8.2 13.9 18.6 18.6 18.6 18.8 19.4 20.4 23.6 26.2 31.6 29.4 29 28.3 27.9 27.1 25.6 25.3 25.6 25.7 26.6 30.8 31.3 31.8 37.5 50.4 69.6 84.2 93.8 108.1 133.9 160.8 177.9 199 215.5 219.1 223.1 239.8 248.2 250.3 258 268.2 271.4 270.5 271.8 279 289 305.5 321.9 332.8 349.3 354.2 358.2 360.8 362 364.4 368.4 374.1 385.7 391.7 395.8 396.7 397 393.1 390.6 390.4 392.2 396.4 401.9 400.6 395.3 394.6 389.3 391.8 391 386.7 386.1 377 367.5 358.7 358.3 350.9 342.7 338.1 332.2 325.6 317.6 307.9 293.4 282.1 283.4 296.9 300 302.4 304.2 306.7 317.3 332 352.9 367.7 380.6 391.5 404.9 418.4 429.2 439.7 446.3
682.6 696.5 708 689.7 672.2 654.6 639.5 634.2 625.2 616.3 603.6 593.9 578.3 565.9 558.5 540.8 524.4 507.7 489.1 463.6 433.7 390.4 327.5 285.4 261.2 243.5 219.6 187.7 164.8 147.5 130.8 119.8 114.7 108.3 119 129.6 138.5 152.9 172.5 195.7 203.3 196.6 189.3 180.1 169.2 161.7 154.1 147.8 140.8 137.1 134.2 129.8 123.4 112.8 106.5 98.9 90.7 81.1 71.1 61.8 52.6 46.9 42.9 39 33.9 29.6 24.6 20.9 17.5 14.3 11.7 10.4 9.7 9.3 9.5 9.8 10.4 10.6 11.2 11.9 12.7 13.5 14.2 14.5 14.4 11.9 15.1 15.2 11.7 8.4 11.3 10.6 10.4 12.6 17.9 18.1 17.5 17.6 18.2 19 19.6 20.2 20.9 23.1 25.3 29.3 31.5 32.9 32.5 30 26.3 27.1 24.9 28.7 32.4 32.2 43.2 56.1 69.6 86.8 99.7 115.4 138.4 167.3 183.6 202.7 221 230.9 235.2 241.3 251.6 257.5 262.4 270.7 279.2 280.3 279.7 281.8 297.4 308.2 309.9 335.9 354.3 357.2 357.9 361.8 365.6 367.7 367.1 370.9 379 386.8 391 389.4 387.6 387.7 387.6 389.6 392.3 396.8 393.6 390.7 387.4 388.9 388.6 383.1 383.8 384.1 382.1 372.9 363 355 350.6 349.5 344.1 335.1 322.3 318.7 311.1 304.3 293.4 281.1 277.8 289.7 294.1 297.3 298.6 301.9 309.2 326 338.5 351.2 367.3 379.4 396 406.7 423.9 438 446.8 446.5
686.3 707.4 699.2 678.3 666.3 649.4 631.7 627.6 619.9 612 595 579.9 565.6 552.4 542.8 525.6 507.2 500.6 486.4 460.3 434.7 390.5 332 293.4 264.6 250.2 229.9 190.5 165.7 149.2 130.2 115.5 110.4 97.8 115.9 125.8 137.7 148.4 163.5 172 177.4 175.2 171.2 160.7 151.6 142.5 136.8 130.2 125.5 121.9 118.1 111.7 106.2 101.6 96.7 92.2 84.9 75.5 64.6 53.2 46.7 41.9 37.9 33 27.8 23.7 19.9 16.4 13.1 10.6 10 9.5 8.7 8.2 8.8 9.4 9.9 10.5 11.1 11.7 12.2 12.8 13.3 13.4 13.1 12.8 11.8 8.4 8.4 9.7 10 9.7 8 17.1 17.8 17.7 16.2 16.2 17.2 18.1 18.8 19.6 20.3 21 21.8 25.6 26.9 30.3 28.9 26.7 27 27.6 28.8 31.8 36.9 45.1 58.6 71.4 86.8 102.2 119.3 145.8 176.2 196.5 202.2 221.3 235.2 246.4 249.7 252.6 262.2 267.9 273.6 282.2 287.2 288.7 294.7 300.2 314.2 324.2 338.9 352.4 355.3 359.7 366 364.9 367.8 368 369 376.1 384.4 389.3 387.8 389.3 383.8 384.1 389.1 393.6 392.8 391.8 389.5 386.5 383.3 382.5 377.1 382 379.8 374.9 370.4 361.4 350.9 345.5 343.2 343.5 336.5 326.9 315.6 304.5 295 286.7 281.7 273.9 280.4 286 287.4 291.8 295.8 302 311.9 326.2 339.4 351.6 365.6 384.1 403.5 416.1 431.6 438.9 445 447.3
686.8 694 683.7 666.1 653.2 637.7 626.2 617.6 607.7 600.4 588.3 574.3 562.3 550.7 522.8 503.4 491.5 483.4 473.9 455.9 425.9 390.6 334.5 295.2 268.6 251 227.6 192.4 166.1 148.1 126.4 112.5 105.6 96.3 113.5 123.9 135.7 142.8 148.7 152.8 146.9 150 152.6 143.2 133.9 127 121.5 118.6 113.5 108.9 103.7 99.5 95.5 92.7 89.8 84.9 77.1 66.8 56.6 48.1 42 36.5 32.4 28.2 23.3 19 15.5 11.7 10 9.4 9.1 8.7 7.7 8.3 9 9.7 10.2 10.5 11.2 11.6 11.9 12.3 12.3 12.3 12 11.8 11.2 8.4 10.1 9.2 9.8 7.3 16.1 17.6 17.8 17.3 16.2 17.4 17.2 17.6 18.7 19.7 20.8 21.7 22.4 23 23.5 24.4 25.2 26.7 27.8 29 30.9 39.8 49.9 58.8 70.8 91.3 102.6 117.6 141.2 176.4 193.9 205.6 219.9 238.7 248.4 253.6 258.1 263.3 271.2 276.5 279.4 288.1 295.6 300.8 309.3 318.4 333.4 345.5 360.6 362.7 363 363.8 363.8 365.8 366.8 369.5 376.2 379.4 384.6 386.3 385.7 386.4 382.8 386.2 391.2 393.1 392.3 389.2 383.7 380.3 380.2 374 366.6 374.9 371.5 365.7 354.9 346.3 340.6 336.7 337 332.4 322.9 317.4 305.3 291.6 279.3 277.3 276.5 273.9 278.3 278.9 282.9 289.2 293.6 300.7 313.6 324.8 337.7 354.4 374 393 409 422.6 431.3 434.1 437.3 447.2
679.3 679.6 670.7 659.2 644.6 625.9 614.8 606.6 595.6 587.3 575.1 566.7 560.8 534.4 509.1 495.1 480.4 472.4 463.5 451.2 415.8 380 340.4 297.4 265.3 247.2 224.8 194.5 168.8 145.2 124 109.9 101 96.5 109.9 123.3 131.4 132.4 134.7 134.1 132.4 131.2 134.6 127.7 118.1 112.6 108.2 105.6 99.7 93.8 89.8 87 85.6 80.5 76.3 70.3 64.8 56.8 50.4 44.5 37.4 32.9 28.1 23.3 19.1 13.2 9.8 8.9 8.7 8.7 8.4 7.2 8.1 8.6 9 9.5 10.2 10.6 11 11.4 11.6 11.8 11.6 11.2 11 9.5 7.4 8.4 8.3 7.3 7.3 15.5 16.7 17.4 17.4 17.2 17.2 17.2 17.3 17.8 18.8 19.9 20.7 21.6 22.7 23.4 23.8 24.6 26.1 28.6 30.9 33.2 40.6 50 55.8 69.5 90.6 107.8 124 140 173 193.6 208.8 221.4 235.1 247.8 251.5 260.8 264.8 271.6 279.4 284.2 289.7 298 305.3 313.3 324.2 338 349.4 363.3 373.3 372.2 370.7 369.2 370 370.1 371.9 372.6 374.7 375.5 378.1 380.5 385.6 386.4 382.7 382.5 390 394.5 393.3 386.7 376.7 370.3 369.2 361.2 358.8 362 356.6 348.9 340.5 331.4 325.3 323.5 318.9 315.3 310.3 301.3 290.9 280.2 272.3 272.7 272.8 269.1 272 277.9 284.4 291.6 299.5 309.6 322.1 332.3 337.3 360.7 379.9 396.4 410.8 419.6 422.3 432.7 439 450
669 665.1 657.6 647.3 633.7 617.6 604.8 592.8 583.3 574.3 564.1 560.1 553.4 524.1 500.8 486.1 470.7 454.1 446.4 445.5 400.8 362.4 334 292.6 262.5 243 221.3 192.7 166.8 139.4 120 105.8 95.8 95.3 108 118.8 121.3 123.6 123.7 122.5 120 119.1 122 114.9 108.2 100.5 94.8 91.9 88.4 84.3 80.1 76.7 73 66.6 62 56.8 52.9 47.5 43.4 38.1 32.7 28.2 24 20.6 14.2 8.1 8 7.9 7.9 7.9 6.9 7.5 8.1 8.6 9.1 9.6 10.5 10.6 10.9 11 10.6 10.8 10.5 10.2 8.3 7.2 6.9 9.7 15.1 16.1 16.6 16.9 17.1 17.1 17.2 17.2 17.1 17 17.3 17.9 19 19.9 20.7 21.4 22.4 23 23.9 24.6 25.8 28.6 33.4 38.4 45.6 55.9 70.4 90.8 104.7 127.1 145.3 171.4 193 205.7 216.2 231.6 239.9 251.5 261.7 269.1 276 285 289.2 296.2 302.9 310.2 316 325.9 337.3 347.4 361.4 376.2 382.1 378.4 377.5 376 376.8 377.2 379.6 376.3 370.6 370.6 373.6 377.7 381.5 383.4 377.7 382.1 386.8 390.9 390.3 382.5 371.7 363.5 363.6 354.2 341 341.5 340 331.5 324 319.9 311.9 311.3 307.6 305.5 296.2 288.3 278.7 272.6 267.2 266.7 263 268.2 272.5 280.1 287.7 298.8 307.6 322.1 334 347.4 364 372.3 378.9 393.9 404.5 416.7 424.7 432 445.6 453.6
656.7 643.8 637.7 633.8 623.3 609.5 596.2 576.2 564.8 556.3 546.3 545.6 539.7 518.4 497.7 481.2 462.5 443.1 430.2 419.9 379.9 345.7 314.7 280.9 255.6 237 214.6 191.1 162.8 137.1 117.6 103.1 89.9 94.3 107.2 113.4 115.3 119.2 116 113.4 110.1 107.1 106 102.3 96.8 90.1 84 81.1 78 73.6 69.4 66 62.1 55.5 50.2 45.6 41.8 38.8 34.8 30.2 25.7 22.2 15.2 7.8 7 7.4 7.6 7.3 7 6.7 7.2 7.5 8 8.6 9.3 10.1 10.5 10.8 10.7 10.6 10 9.5 10 7.7 8.1 9.3 9.3 13.3 15.7 17.1 17.1 17 16.9 17 17.1 17.2 17.3 17.1 17.2 18.1 19.2 20 20.7 21.1 21.5 22 23.2 23.9 25.3 30 38.7 44.6 53.8 67.4 80.9 101.9 119.5 145.4 168 190.3 203.3 214.8 223.4 240.2 251.7 261.4 271.7 278.9 284.8 290.9 297.8 307.2 313.5 321.5 330.5 341.7 354.4 369.2 384.5 391.2 389.4 384.1 382.5 381.1 381 381.7 382.1 381.4 377.7 370.6 374.9 380 379 375.9 376.8 380.5 383.6 386.7 383.3 375.3 364.7 356.2 352.4 343 333.3 327.6 327.1 322.9 313.7 308 303.4 301.9 296.1 291.7 279.1 273.8 270.1 266.3 261.8 262.2 255 265.9 273.2 282.7 293.7 306.8 319.9 332.5 346 366.1 375.8 385.3 394.1 405.8 415.4 422.1 427.8 441.7 452.1 456.5
635.9 628.5 621.7 615.8 611.7 600 588.2 572.2 555.2 543.9 534.9 530.2 522.1 512 509.4 487.5 459.4 439.3 416.6 400.5 359.7 324.1 293.7 267.4 245.5 228.6 211.3 185 156.5 135.2 113 94.6 86.7 90.3 102.4 106.4 109.2 108.9 106.8 105.8 102.1 97.4 93.5 90.6 85.3 81.3 76.8 71.7 67.7 64.7 60.6 56.5 52.2 49.2 44.8 39.6 35.3 32.3 28.2 23 19.2 13.3 7.3 6.8 6.5 6.8 6.6 6.7 6.9 7.1 7.3 7.6 8 8.6 9.1 9.6 9.8 10.6 10.6 9.3 8.9 8.7 9 7.3 8.9 8.9 10.1 14.8 16.3 16.9 16.9 16.8 16.8 16.7 17 17.1 17.4 17.1 17.3 18.4 19 19.6 20.3 20.8 20.9 21.2 22.8 24.9 33.6 38.9 46.5 61.2 75.3 90.4 105.3 121.5 142.1 166 182.7 197.5 211 221.8 235.7 252.7 265.1 275.3 282 288.6 294.6 302.6 308.6 317.5 329 337.2 346.2 360.4 372.6 384.3 394.5 401 398.6 391.4 386.1 385 384.8 384.5 382.1 381.6 377.5 376.5 380.4 388.2 388.4 380.7 375.9 378.8 379.9 378.4 376.1 364.9 353.8 346.1 339.8 329.6 320.8 315 315.4 309.6 303.4 298.5 292.9 290.1 282.9 272.9 266.9 260.8 257.6 257.1 255.7 252.2 261.6 269 279.2 288.8 300.9 313.8 326.6 338.3 358.8 370.5 384.4 393.4 405.3 414.1 419.2 422.3 435.5 448.4 457.2 459.6
620.6 612 606.1 597.6 593.8 586.7 571.1 558.8 546.7 541.9 525.4 510.1 499.9 494.3 497.7 491.3 463.9 436.7 411.8 385.1 344.9 311.3 280.4 254.3 235.9 219.7 201.1 176.7 148.9 127.4 111.7 92.3 77.8 87.9 97.3 99.6 99.7 98.4 97.3 93.5 90.7 87.4 82 79.4 75.6 74.1 70 64.2 58.1 55.6 51.1 48.5 46.1 43 39.2 32.9 27.7 22.5 17.4 7.8 6.8 6.6 6.3 7.1 7 7.5 7.2 7 7.2 7.3 7.2 7.4 7.7 8.2 8.6 8.9 9.1 10.1 9.6 8.9 8.9 8.8 6.3 8.7 9 9.1 12.5 15.3 16.3 16.7 16.8 16.7 16.6 16.5 16.8 17.1 17.4 17 17.7 18.4 18.7 19.2 19.8 20.1 21 21.5 25.9 35 41.7 49.7 66.4 90.3 110.2 119.2 132.4 149.2 160.7 176.9 196.2 209 223.7 237.6 251.2 262.7 276.4 284.4 294.4 300.7 304.1 311 316.5 324.4 333.8 345.5 363.6 377.8 388.9 387.8 395.8 399.9 397.2 391.2 391.3 395.9 394.5 388.6 379.9 378.6 375 379.6 380.2 385.8 393.2 390.8 380.6 380.1 373.6 361.2 362.1 351.5 343.2 334 322.5 316.7 312.6 306.2 306.7 298.5 295.2 287.6 282.3 278.2 268.4 259.9 256.1 247.4 245.4 243.2 253.5 260.1 266.8 276.7 285.5 295.6 308.3 320.2 332.3 350.6 366.7 381.6 392.6 406.7 415.4 419.4 419.5 425.4 441.4 453.2 457.3 456.9
600.3 594 583 575 574.7 569.5 559.6 546.6 539.9 537.6 522.7 507 489.1 471.2 469.8 463.8 455.7 424.8 403.3 369.1 333.2 307 277.3 249 230.7 212.9 190.7 169.6 144.8 122.4 107.2 92 74.8 83 91.5 93.2 92 90.1 87.2 83.9 81.4 78.6 72.6 68.6 66.4 63.2 60.4 56 50 46.7 44.9 41.9 37.9 33.8 27.6 21.1 12.6 7.5 6.8 6.4 6.1 6.6 7.2 7.5 7.5 7.8 7.3 7 7.2 7 6.9 7.2 7.5 7.7 7.9 8.1 8.3 9.5 10.1 8.7 8.4 8.8 6.3 8.6 9 10.2 13.1 15.2 16.2 16.5 16.6 16.5 16.4 16.3 16.1 16.8 17.3 17.1 17.7 18.2 18.5 18.9 19.4 20.2 20.7 25.9 39.4 47.5 55.8 72 91.4 110.4 127 144.1 160 171.9 186.4 196.3 211.4 223.3 234.9 242.9 256.8 266.7 278.8 288.5 297 302.4 307.4 311.8 319.2 330.4 338.3 350.9 366.6 379.6 384 386.6 386.6 392.7 393.2 399.3 406.4 399.6 397.4 392.1 384.8 377.5 373.9 377.1 378.3 383.6 390.7 385.8 379.4 377.4 372.6 356.2 339.9 334 328.7 320 313.6 310 303.7 300.1 292.6 288.2 283 275.7 272 264.8 256.1 249 245.3 236.4 244.6 251.3 259.2 265.5 274 283.8 293.7 305.4 316.2 327.6 341.7 362.7 378 391.2 401.2 413.4 422.1 421 426.6 439.9 453.9 455.6 456 460.4
574.4 558.5 555.4 556 550.1 539.7 533.9 525.5 519.9 523.1 511.6 496.8 482.3 458.5 443.5 437.4 442.7 417.9 391.3 361.8 334.1 306.9 276.1 251.3 229.3 205.8 180.3 163.8 141.2 117 101.9 89.1 76.7 75.4 84.7 87 85.9 82.2 78.7 75.7 72.9 67.6 62.5 60.4 58.7 55 51.7 48.6 45.6 39.3 35.6 29.8 24.4 21.1 14.6 7.9 7.2 6.9 6.5 6.2 5.9 7 7.3 6.8 7.4 7.4 7.1 7 7.1 6.8 6.7 6.9 7.2 7.5 7.5 7.6 7.8 8.2 8.6 8.7 8.3 8.5 6.2 8.1 9.1 10.4 12.4 14.5 15.9 16.2 16.4 16.3 16.1 15.9 15.5 16 16.5 16.7 17.3 17.8 18.2 18.4 18.4 20.8 30.1 41.4 52.3 67.8 82.7 110.9 127.8 153.2 172.9 186.6 191.7 203.4 209 211.8 221.3 229.8 241 248.5 259.5 268.8 279.6 291.8 299.5 303.9 310.4 311.2 318.6 328.9 338.7 349.6 358.9 368.8 374.5 377.8 379.6 387.1 397.3 408.4 407.1 401.7 398.4 392.1 391 383.6 373.1 372.3 373 379.6 382.8 382.1 376.7 375.4 366.1 355.6 342.3 331.3 319.4 305 305.7 301.6 291.2 287.9 281.7 274.9 270.6 261.5 257 252.2 245.1 241.3 231.5 238.6 246.1 252.5 261 271.3 280.8 292.9 304.2 316.2 326.3 338.5 358.3 374.1 386.5 400.6 407 417.3 418 419.5 431.9 457.3 470.4 461.3 456.9 462.9
538.7 530.7 526.6 525.6 527.8 519 512.2 504.4 499.5 494.4 485.7 477 465 445 433.4 422.2 421.4 405.1 375 349.6 331.2 305.5 270.1 244.3 218.1 194.3 173.7 156.4 134.3 112.9 97.9 86.6 77 64.1 76.9 80.4 79.4 76.1 74.4 69.5 65.8 58.5 55.4 52.9 50 47.9 45.1 41.6 38.9 32.3 25.1 21.5 18.2 13.1 8.5 7.5 8.1 7.9 7.2 6.6 6.2 6.7 6.2 7.8 7.6 7.3 7.2 7 6.9 6.7 6.4 6.7 7.1 7.3 7.3 7.3 7.5 7.9 8.4 8.3 8.5 8.9 6.1 8 9.4 10.9 11.6 13.5 15.3 15.7 16.2 16.1 15.9 15.5 15.4 15.6 16.3 16.5 16.8 17.3 17.6 17.7 23.8 34.5 48.1 54.9 71.8 90.7 113.5 134.2 149.4 172 194.8 212.4 221.5 222.6 219 220.7 228.1 236.1 245.6 251.6 259.2 269.5 279.8 288 294.8 303.1 306.9 309.9 315.2 324.7 332.8 343.1 356.5 364.8 370.4 375.5 378.5 380.3 392.9 402.2 401.3 398.6 392.6 387.8 385.4 383.5 383.5 374.2 366.4 371.5 375.1 374.7 371.2 370.1 361 350.4 334.2 325.5 315.7 303.9 294.4 290.4 283.8 272.9 266.5 260.5 254.9 246.1 242.5 239.1 238.2 231.1 231.3 239.6 246.1 253 264.3 276.5 288.8 301.2 313.5 324.8 335.2 353.5 366.3 381.5 395.4 405.1 409.7 413.2 414.2 423.4 447 464.7 461.6 457.9 461.5 467.8
513.4 506.8 501.6 500.2 505.9 507.7 498.6 486.9 477.1 472.5 466.5 461 453.4 436.5 426.1 417 404.5 387.2 365.8 347.6 324.4 291.6 255.8 231.2 210.5 189 169.1 148.7 133.1 105.3 91.3 83.8 76.1 63.1 71 74.4 73.1 71.1 66.6 62.8 56.7 52.5 48.7 43.7 41.2 41.1 39.1 35.9 31.3 29.1 22.1 16.5 11.9 9 8 7.9 8.6 8.4 7.5 6.9 5.5 5.6 6.9 6.8 7.6 7.8 7.2 7.1 6.7 6.6 6.4 6.6 6.9 7.1 7.2 7.4 7.6 7.7 8 8 8.4 8.7 6 7.9 9.3 10.8 11.5 13 14.8 15.3 15.9 16 15.3 14.5 14.8 15.8 16 16 16.3 16.6 17.1 20.9 28.4 46.1 58.9 72.2 87.7 107.5 129.3 142.7 163.1 185.7 209.5 226.3 234.8 233.8 228.9 229.3 235.4 241.1 246.6 254.3 262.8 270.7 277.4 282.7 290.3 297.8 301.4 306.6 315.3 319.6 326.8 339.5 353.2 363.5 370.3 371.8 373.5 373.8 380.8 389.2 392 383.8 378.3 377.1 378 377.7 382.5 371.6 363.5 365 362 363.5 363.4 361 353 338.1 326.5 315.8 304.9 297.3 288.7 270.7 274 263.3 252.4 247 239.1 235.6 229.8 233.3 225.7 224.5 233 239.9 245.6 254.5 267.6 281.5 296 309 319.3 330.2 342.3 359.8 370.8 384.8 395 402.3 403.7 409.2 415.9 438 452.3 453.7 450.4 455.9 460.2 470.7
494.2 485 479.1 476.3 476.4 483 478.5 469.2 455.3 454.8 444.8 442.3 440.7 426.2 419.6 411.4 393.4 371.2 355.6 332 298 267.3 242.4 217.3 196.2 180.9 164.1 144 125.4 102.2 88.1 79.1 72.9 65.8 61.8 68.4 67.1 64.5 60.7 56.4 50.6 47.7 42.1 34.8 34.9 34.6 33.6 30.6 25.9 23.8 19.4 14.6 10.9 8.8 8.2 8.6 8.6 8 7.3 7.4 6.1 5.6 6.8 5.9 5.7 6.1 6.6 7.1 6.4 6.3 6.4 6.6 6.9 7 7.2 7.4 7.6 7.6 7.7 7.9 8.2 8.6 6 7.9 9.1 10.5 11.4 12.3 13.6 14.8 15.4 15.4 14.8 13.9 14.6 15.1 15.4 15.6 15.6 16.1 17.8 25.6 38 55.4 70.2 84.3 100.7 118.3 134.3 156.1 174.2 193 210.5 225.1 232.2 236.7 235.4 240.5 239.2 242.2 247.2 254.4 266.3 271.9 274.5 276.8 283.6 292.2 298 303.6 308.4 313.4 324.2 336.7 351 360.3 363.8 363.7 363.6 364.9 366.5 369.4 370.1 362.9 366.1 369.6 371.4 365 370.6 364.4 362.6 359.7 351.4 352.6 350.9 342.3 336.1 326.9 314.9 302.9 293.9 287.3 279.6 269.3 260.1 253.1 239.4 232.9 229.1 224.7 220.2 220.5 218.5 228.6 235.4 242.3 249.7 258.2 270.7 280.9 290.3 304 315 329.2 343.1 358.8 370.5 381.5 389.7 393.3 398.5 408.4 419.9 434.1 438 438.4 445.6 452.5 469.2 492.9
480.7 467.9 459.8 455.3 453.5 448.4 445.8 444.4 435.2 436.9 432.6 426.4 421.8 417 408.5 398 379.9 361.4 334.7 308.3 279.7 250.5 227.2 204 186 169.2 153.3 137.3 119.8 102.1 87.4 75.6 70 64.2 53 62.9 61.2 57.4 53.7 49.4 43.3 38.2 33.5 29.3 28.3 27.4 26.9 26.4 24.1 20.6 16.6 12.6 10.8 9.6 8.7 8.8 8.6 9.3 7.9 7.5 5.5 5.2 5.5 5.4 5.3 5.3 5.9 6.4 7.1 6.7 6.3 6.5 6.8 7 7.1 7.3 7.9 7.5 7.7 8 8.4 8.3 8.4 6.3 8.9 10.4 11.5 12.4 13.3 14.2 15 14.8 14.2 13.6 13.7 14.3 14.7 14.8 14.9 16.6 22.3 31.1 46.7 62 76.2 95.2 107.1 123.6 141.2 163.7 182.7 196.9 212.3 222.3 228.2 232.7 240.8 249.4 250.4 253.3 254.3 255.7 261.4 266.3 267.8 272.2 278.6 288.7 292.9 293.9 305.2 314.2 328.7 334 338.4 347.4 351.6 351.9 348.8 354.2 358.2 352.4 351.9 355.2 358.2 363.3 357.6 351.9 357.7 362.3 361 350.6 342.1 338.4 333.6 324.5 317.4 311.4 300.5 291.6 279 275 266 257.9 241.8 241.1 227.3 226.2 221.1 217.4 216.7 214.7 224.2 230.9 237.1 244.7 251.9 261.2 274.9 289.2 299.9 311.2 322.9 336 343.5 349.6 363.1 373.6 379 387 397.3 410 423.6 430.8 434.5 438.8 450 470.4 484.6 496.3
465.2 456.2 445.4 434.9 434.4 432.2 426.7 426.2 421.8 418 414.4 403.4 406.8 408.1 396.5 387.5 374.3 352 328 293.4 257.3 227.8 210.8 197.1 179.4 163.5 149.7 129.1 112.5 97.9 84.5 74.9 67.8 62.1 48.4 58 55.1 51.3 47.5 40.4 35.3 31.3 28.4 25.5 23.1 21.6 18.2 16.6 16.1 17.3 14.8 13 11.2 9.9 9.2 8.9 9 9.5 9.4 7.8 5.5 4.8 5.1 5 5 4.8 4.9 5.1 5.7 6.5 6.2 6.4 6.7 6.9 7.1 7.4 7.7 7.5 7.8 8.2 8.3 8.2 8.1 5.8 8.1 9.7 11 11.5 12.2 13.8 14.5 14.3 13.7 13.2 13.2 13.5 13.9 14.1 15.2 21.4 28.2 38.5 53.5 69.2 83.3 97.6 111.4 127.9 148.6 166 182.5 199.9 214.4 223.8 230.6 236.5 246.4 249.4 253.4 261 259.4 257.1 260.6 263.4 266.5 271.4 276.8 283.1 284.9 291.9 302.4 314.8 322.9 328.2 332.3 336.8 335.4 334.3 335.9 340.8 347.1 343.9 342 347.8 346.6 347.7 345.2 346.7 356.7 363.5 352.7 342.6 330.8 322.5 317.6 311.2 301.7 294.6 285.6 274.8 270.9 260.9 252.7 245.2 234 226.9 219.7 218.1 212.8 211.2 218.6 224.3 228.5 234.4 243.5 252.4 260.5 269.2 283.3 294.4 308.5 322.5 334.3 345.6 355.3 365.8 369.2 375.5 383.9 395.1 403.9 417.2 426.2 435.3 440.8 452.4 464.5 476.3 478.3 488.2
452.3 442.5 431.7 424 414.4 416.7 418.2 419.4 413 402.5 395.5 379.7 379.3 375.3 366.4 374.3 362.1 340.2 321.2 287.4 257.2 220.5 195.6 185.8 165.9 153.2 140 121.3 107.5 95.1 80.6 72.3 65.5 59.7 53.3 45 48.1 45.3 40.4 32.3 28.2 25.8 25.3 23.1 21.4 17.7 18.6 19 13.8 13.9 14.4 13.4 11.7 10.2 9.7 9.1 9.6 9.4 9 6.3 5.2 4.9 5 4.8 4.7 4.4 4.7 5.1 5.5 5.8 6.3 6.2 6.4 6.7 7.1 7.2 7.2 7.5 7.8 8 8.1 8.2 8.4 7.6 5.4 9.5 10.2 10.9 12 13.5 13.4 13.2 12.9 12.7 12.6 12.8 13.2 14.8 19.7 24.1 34.9 50.9 60.1 73 88.4 103.7 117.6 135.2 153.2 171.4 186.3 203.7 217 225.8 233.3 240.9 249.6 249.8 252.1 258.7 259.1 259.3 263.6 264.2 268.8 272 275 280.3 282.4 289.5 300.8 309.5 314.2 323.4 325 321.6 321.5 328.1 331.8 340.5 339.2 335.2 333 330.7 332 337.1 338.1 341.9 351.9 351.3 342.3 331 319.8 310 303.4 296.8 287.1 279.4 269 265.5 254.9 247 240.6 232.8 222.5 215.8 213.5 208.7 213.9 219.9 225.2 229.4 235.8 246.5 257.2 264.1 271.6 283.3 302 319.6 336.4 345.4 352.6 365.1 373.5 381.1 382.8 384.6 392.5 402.2 414.4 427.3 438.6 444.6 452.7 458.1 462.1 473 485.7 507.2
441.6 429.1 417.3 409.2 400.3 403 401.6 397.8 397.9 391 373.9 364.2 355 354.4 349 343.5 338.9 326.8 308.2 276.2 251.5 219.3 192.3 171.4 157.4 143.9 127.5 112.5 101.1 89.2 78.1 68.4 62.8 56.5 50.7 43.7 37.5 39.1 34 34.9 36.3 32.6 27 26 28.7 29.9 27.9 24.4 18 14.1 11.6 12.6 11.6 10.6 10.2 9.5 9.1 9.8 8.1 5.8 4.8 5 4.9 4.7 4.3 4.7 4.9 5.3 5.5 5.7 6.2 6.2 6.4 6.7 7 7 7 7.3 7.5 7.7 8 8.2 8.1 7.6 6.8 8.4 9.7 10.9 12.1 12.5 12.4 12 11.8 11.8 11.9 12.1 13.1 18.1 23 29.1 40.8 52.3 63.9 73.8 91.2 109.5 125.2 143.1 162 180.9 195.7 213.4 224.1 229.9 232.8 243.3 246.2 249.3 255.8 262.5 266.3 263.7 266.9 267.2 271.7 271.9 271.9 276.1 275.6 283.8 294.5 301.8 310.3 317.7 314 311.4 312.4 318 325.3 331.3 327.9 321.8 320.4 317.9 323.2 327.2 327.9 332.1 336.6 337 329 316.8 306 295.1 287.6 279.5 273.4 265.3 255.8 250.6 241.8 235.4 226.8 223.1 212.8 211 203.9 215.1 219.2 222.9 228.4 237.2 246.9 259.8 271.8 277.4 287.4 305.3 331.1 345 354.4 359.1 365.4 372.8 386 394.9 397.3 400.8 400.6 406.8 415 432.1 435.6 437.2 442.2 453.7 477.1 494.5 514.8 537.8
424.4 415.9 407.4 396.4 393 391.6 390.2 384.7 383.1 374.8 362.7 352.8 342.3 337.4 333.1 325.2 315.6 310.3 297.1 264.9 239.9 209.8 187.9 171.1 152.2 136.4 120.2 106.5 94.5 82.7 72.6 64.6 59.2 52.9 48.6 48.2 43.4 36.4 31.9 43.2 40.7 36.4 34.7 33.5 34 32 29.6 24 18 14.6 10.8 11.4 10.7 10.1 9.6 9.7 10.4 8.9 7.1 5.1 4.6 4.7 4.6 4.8 4.7 4.9 5.2 5.4 5.6 5.8 6 6.2 6.5 6.7 7 6.8 6.8 7.1 7.3 7.5 7.9 8.1 7.6 7.3 7.4 7.3 9.6 10.8 11.3 11.3 11.4 11.7 11.5 11.6 13.5 12.5 14.2 19.8 26.2 37.6 43.8 54.4 68.1 83.6 100.7 117.5 130.6 150.8 168.5 184.9 198.9 213 224 226.4 232.4 237.9 243.5 249 259.3 266.8 269.7 265.6 264.6 267.1 274.3 271.7 270 269.6 270.9 274.5 284.9 292.3 296.3 303.2 303.9 303.8 301.9 305.4 310.8 311.2 308 309.2 313.5 312 316.1 317.8 317 320 325.6 325.1 317.3 304.2 292.2 282.9 273 266.2 257.5 249.4 240.8 235.6 230.1 223.7 215.4 212.8 205.9 203.5 212.2 217.3 223 227.3 233.5 246.3 261 277.7 285.8 292 311.5 332.1 351.6 367.1 371.5 368.8 371.9 386.4 394 396.5 396.9 401.3 404.6 415.1 419.9 420.4 423.1 434.7 449.2 466.3 489.1 508.3 523.8 527
407.1 405.8 397.6 386.7 374.3 375.1 374.4 370.8 372.8 367.6 355 346.3 336.2 328 328.5 317.9 307.8 296.4 279.2 254 228.1 203.6 182 165.4 150.2 130.7 112.1 99.3 85.1 76.7 66.3 59.2 51.8 48.6 45.9 47.7 45.1 41.5 43.2 42.4 40.2 38.7 36.2 34.8 33.3 32.1 28.4 23.2 17.1 13.1 8 9.9 10.2 9.5 9.2 9.1 8.1 7.4 6.1 4.7 4.4 4.4 4.4 4.8 5 5.1 5.3 5.5 5.7 5.9 6 6.2 6.5 6.7 6.8 6.6 6.6 6.9 7.2 7.3 7.5 6.9 7 7.2 7.9 5.3 9.9 10.3 10.4 10.5 10.6 16 13.7 12.8 14.2 14.3 16.1 22.5 30.6 39.5 49.5 62.6 80 93.4 110 125.3 135.3 155.3 174.4 190.1 199.6 209.1 217.1 224.2 232 235.9 241.3 249.9 258.6 267.7 269.5 267.3 264.4 263.9 268.9 271.3 266.2 265.5 267.2 270.7 277 280.3 284.8 289.4 291.2 291.7 290.9 292.7 298.4 300.3 299.8 307.9 307.2 302.6 301.2 302.3 304.9 310 312.5 307.2 299.3 286.8 275.7 266.7 259.6 249.1 242.5 235.8 227.5 222.5 216 209.4 206.1 202.6 201.5 207.1 214.3 219.6 225.4 232.8 246.3 260.2 272.5 286.9 294.2 313.6 329.1 348.7 360.5 366.1 367.8 371.8 379.5 383.9 387.1 391 390.6 393.6 400.8 408.9 415.4 418.8 422.2 425.6 439 455.1 466.2 482.3 495.2 499.5
394.2 391.3 389.8 379.1 366.7 361.3 354.1 350 351.1 358.3 349.4 334.8 325.8 317.9 308.8 305.5 295.7 293.5 278 248.5 217.9 192.1 171.5 153.9 139.7 119.8 104 91.5 80.8 69.7 59.6 52 47.4 44.2 42.1 42.7 41.9 41.1 42.5 41.7 39.9 39.1 37.5 36.4 34.3 28.1 23.7 20 14.2 12.5 10.6 9.6 10 8.6 7.9 7.3 6.8 6.2 5.6 4.2 4.4 4.5 4.7 4.9 5.1 5.3 5.4 5.6 5.8 5.8 5.9 6.2 5.9 6.2 6.5 6.5 6.6 6.8 6.9 7 6.9 6.7 6.7 7.1 7.3 4.9 9.4 9.8 9.6 9.8 17 17.8 14.1 18.3 17.8 17.7 21.6 29.8 40 46.2 56 70 86.1 105.1 121 132.1 142.9 162.8 180.6 194.5 204.7 207.4 212.2 223.2 229.9 234.7 236.7 247.6 257.4 263.1 264.9 267.5 264.8 264.5 263.2 264 261.5 256.8 262.5 269.1 274.1 274.6 273 272.8 277.5 277.3 282.1 287.3 288.3 289.8 295.3 297.5 295 289.8 287.1 290.6 296.7 302.8 299.4 289.4 279 269.1 260.4 254.1 242.8 232.5 225.2 218.4 215.5 209.3 204.5 200.2 199.3 198.4 203.3 208.8 214 220.2 228.8 239.4 250.7 263.5 276.3 289 303.9 324.4 333.1 344.6 348.8 357.4 363.3 367.9 373.3 374.3 378.5 384.1 386.2 387.9 396.2 412 421.3 428.2 428.9 430.5 439.4 449.5 452.8 456.8 464.5 481
380.7 381.7 384.6 372.3 362.3 352 351.8 341.9 333.4 325.5 321.5 318.4 315.4 304.9 296.5 283.9 269.1 264.1 256.6 235.5 206.3 183.2 163 145.5 126.6 109.7 94.6 85.4 74.1 63.8 55.2 48.5 43.9 39.7 38.8 39.1 39.1 38.1 39.5 39.7 37.2 36.1 35 33.2 31.7 26.7 22.5 17 12.5 11.4 9.7 9.3 9 8.4 7.7 7 6.2 5.4 4.8 4 4.3 4.6 4.7 4.8 4.9 5.1 5.4 5.5 5.8 5.9 6 5.9 5.8 6.2 6.3 6.5 6.6 6.6 6.7 6.7 6.7 6.5 5.7 6.7 6.8 4.5 8.8 9.1 8.8 10.4 18.2 14.6 19.7 20.7 20.9 21.4 28.2 39.1 45.9 51.9 62.6 73.9 92.4 117.2 133.7 136.9 142.8 165.9 180 193.5 204.7 204.7 205.8 217.7 225.9 231.9 241.4 250.9 258.3 259.2 262.4 264.3 263.9 263.7 262.1 258.6 256.9 248.1 254.7 263.8 270.2 270.2 267.3 262.2 268.6 268.3 269.8 270.2 273.4 280.5 285.5 281.4 277.5 277.4 278.8 283.8 287.4 284 279.4 274.6 266.1 258 245.9 236.2 225.1 215.1 207.3 205 200.3 197.2 192.3 192 190.4 194.4 200.4 205.6 213 220.9 231.4 241.5 252.1 264.3 274 284.6 296.8 310 326.9 340 350 354 359.3 364.7 372 378.9 390.6 391.8 390.7 393.8 407.7 421.9 431.4 433.1 439.4 445.8 441.9 439.2 443.1 452.7 463.9 474
364.7 371.4 368.5 355.6 348.4 340.7 345.1 334.8 321 308.5 301.4 295.5 293.3 288.3 281.2 268.6 253.6 242.8 230.7 214.6 190.8 175.2 157.9 134.7 117.3 101.7 87 76.1 66.9 56.7 49.8 43.9 37.7 35.6 35.6 35.4 34.9 33.6 32.4 34.2 32.8 29.9 28.6 28.3 25.9 24.2 21.3 16.8 11.7 9.8 8.2 7.3 8.4 8.1 7.6 6.9 6.1 5.2 4.3 3.7 4.1 4.4 4.7 4.7 4.7 4.9 5.1 5.2 5.6 6.2 6.2 6.1 5.9 6 6.1 6.3 6.4 6.2 6.4 6.4 6.4 6.4 5.4 6.5 5.8 8 8.6 9.2 9.9 11.2 17.2 20.3 21.4 22.4 22.5 24.7 32.1 42.3 48.6 55.7 67.9 78.8 99 124.8 139.9 143.7 145.6 165.2 177.1 189.6 197.5 199 201.7 210.3 221.3 233.2 247.7 255.5 256.4 255.6 254.7 257.2 260.2 263 261.2 255.1 247.6 241.1 247.6 256 262.8 266.1 261.1 253.6 253.8 251.1 253.2 256.4 258 259.5 262.5 264 266.6 268.7 265.5 263.6 264.1 267.4 266.5 262.4 250.4 238.7 227.6 218.2 209.8 200.5 196.7 193.5 189.1 186.1 183.6 181.9 183 190.2 196 204.2 212.2 221.1 229.9 240.2 250.5 264.5 278.8 299.9 319.7 325 338.3 348.3 353 357.6 362.4 370.4 381.7 392 396.8 398.4 402.8 406.5 407.9 418.4 427.1 434.1 437.9 436.9 433 439.3 446.3 451.8 457 470.8
349.3 351.6 351.4 342.1 327.9 327.2 327.9 322.1 311.6 297.5 287.4 284.7 293.3 281.1 271.5 258.8 242.5 229.5 213.1 194.4 178.7 162.3 144.4 122.6 106.6 90.7 82.6 70.5 60.7 51.7 44.5 38.2 33.9 32.9 32.8 32.3 31.6 30.6 28.6 29.1 28.4 26.1 21.8 23.6 22.6 20.6 18.8 14.2 10.3 7.8 7.5 5.9 7.7 7.6 7.4 6.1 5.3 4.8 4.3 -2.2 4.5 4.7 4.7 4.7 4.7 4.9 5 5.2 5.6 6.2 6.1 5.9 5.8 5.9 6.1 3.1 3.1 4.2 4.7 6.1 6.1 5.8 5.9 4.2 8.7 9.4 9.9 10.5 10.7 12 18.2 20.9 22.1 23.4 24.9 30.1 35.3 44.1 53.3 64.5 76.6 85.6 101 122.9 133.5 141.4 147.8 161.4 174 186.1 189.4 189.8 197.7 207.6 216 229.4 242.4 248.1 245.8 244.3 247.5 251 257.7 260 257.3 250.8 242.2 233.2 238.5 245.7 252.9 253.8 250.1 243.6 238 236.1 240.4 245.9 246.4 245.2 247.7 249.9 254.2 259.3 252.6 250.9 251.2 250.3 246.7 239.7 228.4 217.4 209 203.2 194.6 184.6 182.1 183 181.5 171 182.6 187.3 188.9 193.7 198 205.7 215.2 227.3 237.9 250.1 262.2 275.3 290.3 309.1 324.2 335.1 343.1 348.2 359.7 365.9 368.4 378.8 392.2 393.5 394.5 395.5 402.5 404 404.4 408 413.8 419.7 421.7 424.8 431.7 438 448.3 458.9 468.1 480
334.5 335.2 330.2 323 310.5 308.7 307.1 303.6 297.3 286.3 277.7 283.4 284.6 273.6 260 249.5 238.4 221.2 201 181.8 170.4 156 130.4 110.6 97.4 83.8 73.8 64.8 54.8 46.4 40.7 34.5 31.5 30.3 30.2 30 29.2 27.8 26 25.9 25.1 24.8 22.8 16.8 19.5 17.2 15 11.3 7.8 7.3 6.2 5.6 6.1 5.5 5.4 5.1 5 4.5 4 -2.2 -2.2 3.1 4.7 4.7 4.7 5.2 5.3 5.4 6.3 6.1 5.9 5.7 5.6 5.8 3.1 6 6.7 6.7 6.8 5 4.7 6.8 7 8.7 9.4 10 10.5 11.4 13.3 13.1 14.1 20.7 23 24.5 30.3 37.9 43.1 48.6 60.3 71 79.1 90.7 103.4 117.9 128.7 137 146.7 155.8 165.8 175.5 175.4 185.4 198.5 203.2 206.9 218 231.2 238.3 238.7 236.3 242.2 242.2 247 249.4 249 245.8 238.5 227.4 231.7 238 239 237.6 233.8 229.1 224.5 229.5 234.7 240.5 238 233.6 233 234.5 240.5 239.8 235.6 234.8 234.1 226.7 220.8 216 208.3 198 192.4 186.7 180.8 177.1 176.2 168.5 173.1 178 179.1 183 188.9 190.9 195 198 219.4 232.4 243.6 254.3 265.8 281.7 298.9 315.4 330 333.3 338.1 353 363.6 367.4 371.7 374.1 378.1 381.5 382.5 384.6 386.9 391.5 394.1 396.7 400.7 405.9 416.4 421.6 427.3 444.4 458.5 466.7 471.2 483.9
321.6 317 309.4 302.2 295.5 289.2 289.7 289.5 282 271.9 265.6 269.4 267.9 262 251.1 237.5 227.6 207.1 186.2 168.7 156.5 138.6 118.8 100.1 89.5 78.2 68.3 58.8 49.5 41.6 36.2 30.5 28.5 28.1 27.8 27.6 26.7 25.7 24.2 22.4 21.8 21.1 20.9 18.1 14 12.6 11.2 8.4 7.1 5.8 5.1 5.1 5.3 4.5 4.3 4.1 4.5 4.1 3.1 -2.2 2.5 3.4 4.8 4.6 4.8 5.3 5.6 5.8 6 6 5.6 5.4 5.3 3 5.7 6 6.2 6.1 5.9 6.4 6.7 6.8 7.6 8.9 9.8 10.5 11.2 11.9 13.1 13.9 15.3 17.2 23.2 26 31.5 36.5 42.8 50.5 59.3 67.5 74.5 86.6 96 109.8 121 130.7 142.4 146.7 150.9 159.2 171.4 181.8 192.6 196.7 201.9 212.6 225.7 236 235.9 231.5 228.6 234.2 237.4 238.3 235.1 231.5 231 220.1 219 222.6 222.7 223 225.5 224.5 219.7 226.7 234.5 234.5 233.2 227.1 219.5 223.6 224.6 219.1 221.6 219.7 214 208.2 203.5 196.1 191.1 183.4 178.2 174 171.1 161.1 169.6 172.8 176.2 179.9 183.8 186.4 192 200.2 206.9 212 218.2 232 246.7 257.5 267.5 281.4 295.1 307.7 321.5 327.9 335.2 332.5 349.1 361.6 368 375.7 386 387.2 387.9 388.1 389.4 390 394.9 400.5 407.9 414.9 418.9 423.7 436.2 449.7 457.1 466.1 477.3 493.7
315.2 307.8 301.1 287 281.6 281.5 274.1 271.5 267.4 260 255.8 254.8 256.8 250.7 239.1 225.2 213 192.9 171.8 153.7 138.2 124.5 103.9 88.8 78.8 69.6 62.1 53 44 37.9 31.7 25.9 25.8 25.8 25.7 25.5 24.9 23.9 23 21.2 19.5 17.8 16.4 17.7 16 9.6 9.1 9 7.1 5.1 4.2 3.8 4.3 4.1 4.1 4 3.8 3.3 2.5 -2.2 -2.2 3.2 4.7 4.5 5 5.4 5.7 5.7 5.6 5.5 5.4 5.4 5.3 4.1 5.7 5.5 5.6 5.7 6 8.6 9.3 7.6 8.3 9.4 10.3 11.3 11.9 13.1 13.7 14.8 16 17.2 20.7 26.5 30.2 36 42.3 48.6 56.5 61.1 66.5 77.5 87.8 102.4 113.5 121.5 128.9 129.7 142 154.9 164.4 174.5 181.6 187.2 199 210 219.4 227.7 226.3 221.6 213.9 219.5 220.3 225.7 225.3 221.1 219.3 214.6 212.1 214.1 217.3 218.6 215.6 214.1 217.7 220.2 220.4 220 221.1 215.7 208.2 208.6 207.4 207.7 207.4 203.3 196.7 192.9 185.5 176.7 172 163.6 158.4 159.1 165.9 170.6 175 177.2 181.3 187.5 192.6 195.9 202.5 210.7 219.5 225.9 234.5 223.5 249.9 257.7 254.4 251.8 253.1 277.6 315.2 330.5 343.6 364.4 380.9 387.8 391.8 398.5 400.4 397.6 396.7 397.7 397.6 396.3 396.9 403.2 411.2 416.5 421.4 427.9 438.7 451.3 466.3 486.9 502.6 498.1
310.6 287.2 282.9 274.4 268.3 262.5 259.8 260.7 257.3 249.9 238.8 240.9 239.6 235.1 225.7 213.8 200 182.3 156.9 142.3 125.2 107.2 94.1 82.5 71.5 61.6 53.4 45.5 38.1 33.1 27.2 23.2 23.4 23.5 23.6 23.4 23.1 22.2 21.3 19.8 18.9 17.3 15.1 13.6 11.3 9.6 9.4 8.6 6.1 4.5 3.7 2.8 2.8 3.2 3.2 3.3 3.1 2.9 2.1 -0.3 -2.2 2.8 3.6 4.2 4.3 4.6 5.2 5.5 5.3 4.8 4.6 4.7 4.9 4.2 5 5.3 5.5 5.8 6 8.1 8.1 8.1 8.6 9.7 10.4 11 11.7 13.8 14.6 15.4 16.5 18.1 19.7 26.7 30.2 36 39.6 35.4 37.2 54.6 63 71.1 79.8 92.9 104.3 110.7 115.8 123.8 134.2 146.9 157.7 166.3 175.2 180.9 193.4 200.9 206.9 212.6 210.8 206.6 203 201.8 205.8 211.6 211.8 213.2 210.1 203 207.4 210.3 213.1 213.4 206.2 205.2 207.5 207.8 204.6 204 203.1 198.6 194.1 193.5 195.2 192.6 187 185.1 180.6 175.5 168.8 153.5 155.7 167.1 170.5 172.7 176.3 178 181.4 187 190.9 198.3 203.6 209.8 214.5 224.4 233.9 243.2 249.3 254.7 253.6 267.1 285.4 297.3 306.3 314 327.1 339.6 354.4 371.5 383.6 396.6 403.1 397.7 392.1 387.2 387.5 389.5 391.5 396.3 401.2 406.8 408.9 414.5 422.8 435.7 454.7 478.1 487.6 490.2 481.6 476.9
287.6 273.9 273.6 259.5 252.9 252.4 247.8 246.9 246 235.3 226.3 227.2 224.6 219.6 210.6 202.6 185.9 167.7 144.6 130.3 114 98.5 84.1 72.2 65.5 55.8 46.5 39 33.2 28 22.8 21.4 21.4 21.5 21.7 21.6 21.1 20.3 19.4 18.7 17.8 16.5 14.4 12.1 10.2 9.5 9 7.3 5.1 3.9 3 2.7 2.7 2.7 2.5 2.5 2.5 2.5 1.6 -0.5 -2.2 3.8 2.6 3.2 3.5 4.1 4.8 5.3 4.6 4.1 4.3 5.1 4.6 4 5 5.1 5.1 5.5 6.1 7.7 8.6 8.6 9.1 10 10.5 11.1 12.3 14 15 16 17.2 18.8 20.1 22.6 26.4 19.1 35.4 41.9 34.5 58.8 67.1 71.6 78.7 84.6 94.4 104.6 113.1 120.7 130.4 143.2 154.1 162.5 168.6 174.3 184.6 194.5 200.1 197.3 190.3 192.4 194.9 190.5 192.4 194.6 200.8 200 197.8 195 202.8 206.5 206.6 205.5 196.9 198.6 199.1 195.4 191 188.1 188.4 184.6 180.5 180.2 180.1 176.5 173.1 170.2 165.3 157.6 158.9 165.9 169.2 172.9 174.7 177.7 181.9 186.6 191.9 198.5 206 212.5 219.9 226.9 233.2 244.7 252.2 261.5 268.5 275.9 283.9 299.3 316.7 323 323.7 325.2 336.1 343.9 353.6 365.3 376.3 382.6 387.3 380.1 375.8 377.1 382.3 390.7 401.5 408.1 411.7 414.2 414.7 417.8 427.7 444.8 462.6 474.9 470.3 465.9 464.1 464.7
267.2 258.5 261.1 255 243.2 236.6 230.7 227.9 225.9 222.2 219.4 211.9 213.1 208 207.5 203.2 182.9 155.7 133.9 119 102.6 87.5 75.7 64.2 55.2 47.2 40.1 34 28.8 24.7 20.1 20 19.9 19.8 19.7 19.7 19 18.3 17.6 17 16.2 15 13.4 11.4 10 9.3 7.6 6 4.5 3.1 2.5 2.6 2.5 2.5 -2.2 -2.2 -2.2 1.8 0.7 -1 -2.2 4.1 3.9 2.5 3.3 3.9 4.5 4.9 3.3 4 4.2 4.8 4.5 3 4.3 4.6 4.9 5.2 6.1 7.5 8.3 9 9.5 10.1 11.4 11.3 12.5 13 12.9 13.3 13.9 15 17.8 26.8 31.3 36.9 44.2 49.2 47.8 42.5 66.3 73.2 80.4 83.8 84.7 101.3 108.1 116.5 123.6 134.8 143.8 151.6 158.2 163.8 169.6 178.3 184.7 184.6 188.7 184.1 186.3 189.9 184.7 181.8 184.5 188.8 186.9 189.5 198.7 195.8 188.1 185.7 182.2 188.7 190.2 181.5 176.6 176.4 172.6 171.1 169 167.1 164.9 162.3 162.4 157.5 159.7 163.9 166.6 171.3 174.8 178 180.1 183.6 188.6 197.4 206.9 214.9 221.2 228.3 234.9 245.6 255.2 264.7 273.5 283.8 287.8 299.7 314.4 319.8 327.2 334.2 337.1 340.2 344.6 347.6 353 361.1 366.9 368 370.7 372.1 375.8 382.9 396 412.4 416 415.8 414.4 414.8 418.1 422.8 429.7 442.3 448.4 456.9 466.6 473.1 470.6 470.9
247.1 240.9 245.3 238.9 227.6 221.2 220.2 217 211 207.1 201.8 196.2 197.9 196.5 188.6 178.3 153.1 133.1 120.7 105.9 90.1 77.8 67.7 58.9 49.9 40.9 34.6 29.6 24.9 21 18.5 18.4 18.3 18.2 18.2 18 17.7 17.3 16.4 15.4 14.6 13.3 11.9 10.8 9.5 7.8 6.2 4.7 3.3 2.2 2.5 2.5 2.6 -2.2 -2.2 -2.2 -2.2 -1.7 -0.2 -2.2 -2.2 4.9 4.6 2.5 3.8 3.9 3.5 2.9 3.4 3.7 4.1 4.5 4.5 3.1 4 4.4 4.7 5 6.8 7.4 7.7 8.1 9.2 10.4 10.7 11.1 12.2 11.6 10.3 14.1 15.7 20.5 28.3 30.7 34.6 48.1 56.2 58.3 57 37.9 58.3 47.4 54.8 82.6 71 96.2 106 111.9 118.1 127.6 133.8 140.8 147.2 155.7 164.7 171.6 178.3 180.5 179.3 181.8 189.1 188.9 176.8 176.6 175.1 174.5 175 178.6 183.6 178.8 173.2 170.7 168.6 169.1 166.8 163.7 161.1 162.5 160.3 156.2 156.5 156.2 154.7 156.5 147.7 161.2 165 168.7 172.7 176.3 179.2 182.4 185.7 191.4 200.4 212.2 225.4 234.7 240.4 243.6 252.8 264 274.8 285 297.4 302.2 314 332.3 334.1 335 339.9 344.8 346.2 343.9 350.8 354.5 356.3 358.5 362.9 365.3 371.3 377.2 383.5 391.3 405.5 410.3 410.4 410.1 409.9 412.9 418.4 428.1 441.5 457.1 475.6 485.1 487.6 481.4 477.4 470.4
226.3 223.5 227 214.8 207.5 203.6 202.4 199.9 195.2 191.1 186.9 174.9 170.1 166.9 159.2 146.1 130.2 115.5 101.7 89.7 78.6 72.1 60.7 50.7 42.6 37.2 30.3 25.9 22.2 18.7 17 16.9 16.9 16.8 16.7 16.5 16.3 16 15 14 13 11.6 10.7 9.9 8.3 6.4 4.5 -2.2 2.7 -2.2 -2.2 -2.2 2.5 -2.2 -2.2 -2.2 -2.2 -2.2 -2.2 -2.2 3.4 2.9 3.4 -2.2 2.6 -2.2 2.5 2.7 4 3.9 4 4.5 3.4 3.9 4 4.7 5.5 6.3 7 7.3 7.6 8 8.5 9.6 10.5 8.8 9.5 12.7 15.8 23 23.8 26.8 29 34 43.4 57.3 63.2 65.3 66.3 65.7 66.5 74.4 82.2 86.8 82.6 93.5 103.4 109.3 114 121.4 129.2 135.8 142.3 150.3 157.1 165.5 172.1 169.4 175.3 177.2 175.1 173.2 170.8 166.7 164.4 161 162.4 163.8 163.2 161 161.3 155.9 154.7 154.8 151.4 149.2 149.1 147.9 146.8 146.5 147.7 148.9 150.1 157.8 163.1 167.9 172.1 177 180.3 181.5 184 188.8 196.3 204.6 220.4 238.7 258.4 257.6 255.9 261.5 270.8 283.5 293 301.6 301.2 312.2 321.9 327.7 332.1 338 343.1 350.7 349.8 348 350.8 354 356.1 358.6 363.9 372.8 377.8 381 383.4 387.2 393.2 396.3 398.5 401.9 406.5 412.1 421.4 438 460.9 482.9 494.3 498.6 491 481.7 472.8 460.5
207.3 199.9 196.3 192.6 187.6 187.1 183.7 180.7 175.8 175 175.7 167 151.2 147.6 136.9 125.3 113.1 101 88.7 78.8 70.3 62.8 53.7 45.3 37.2 32.2 27.6 23.3 19.5 16.2 15.4 15.5 15.4 15.3 15.2 15 14.6 14.1 13.5 12.5 11 10.2 10.3 8.9 6.7 4.4 2.8 -2.2 -2.2 -2.2 -2.2 -2.2 -1.6 -2.2 -2.2 -2.2 -2.2 -2.2 -2.2 1.9 2.9 1.7 0.1 -2.2 2.7 2.6 2.4 2.5 3.8 3.8 3.6 3.6 3 4.8 4.6 5 5.8 6.3 6.8 7.3 7.7 8.1 9.1 10.3 7.5 10.6 12 21.8 23.2 24 25 26.6 34.6 41.1 46.5 51 56.2 61.4 63.8 63.8 70.6 80.8 88.3 95.3 93.4 76.8 99.7 104.5 111 115.4 124.1 131.1 137.9 143.7 148.6 153.4 158.7 162.6 163 161.1 159.5 159.1 157 155.5 151.7 147.2 149.3 150 147.7 146.3 147.7 142.4 141.8 141 137.2 137.1 134.8 140 142.7 146.4 150.9 155.3 164.3 172.4 173.8 179.3 187.2 191.1 189.4 188.9 193.8 201.6 211.2 226.1 243.2 265.4 270.4 266.9 269.9 277.5 290.7 304.4 308.8 310 312.3 319.7 330.1 342.5 352.9 355.6 351.4 351.3 351.4 351.6 352.3 356.1 360.8 365.5 381.8 385.8 382.2 381.4 381.5 383.9 387.8 390.8 394.1 400.4 407.8 419 432.7 456.9 480.3 493.7 503.6 502.9 485.4 471.4 461.2 451.2
