ncols 200
nrows 82
xllcorner 350000
yllcorner 852900
cellsize 50
229.5 236.1 243.6 251.3 261.8 269.8 275.7 279.3 280.3 280.4 279.5 278.6 279.7 280.2 278.8 278.2 277.3 271.6 267.1 259.6 251.8 246.1 241.9 236.6 232 227.9 223.8 218.7 215.3 212.8 210.5 208.2 205.9 204.5 202.1 199 197.9 196.5 196.2 195.8 194.6 194 192.1 193.2 193.9 196.9 199.6 199.6 198.7 197.7 195.3 195 195.3 196.1 197.9 198.9 201.1 202.6 204.1 204.7 204.9 204.5 204.3 204.6 204.6 204.3 203.1 202.6 202.5 204 204.8 205 205.1 204 203.5 203.9 202.9 200.3 199.9 198.8 196.8 191.3 186.4 180.6 175.5 170.8 167.1 163.8 162.2 160.5 158.2 157.1 156.6 154 155.4 154.3 154.8 154.4 154.5 151.5 152.7 151.1 149.6 149.8 150.2 151.1 151.2 151.3 151.3 150 148.8 148.4 146.9 145.3 144 142.7 141.4 139.4 136.7 134.4 132.1 129.5 128.1 127.3 125.4 123.5 121.1 119 117.8 115.4 112.5 108.6 105 102.9 102 102.2 104.9 107.6 109.9 112.1 112.4 112.7 113.4 115.9 113.8 112.6 113.5 115.4 117.5 120.9 125.7 128.1 130.6 134.8 139.1 142 144 146.8 148.7 149 150.3 153.9 154.7 156 162.1 164.6 164.7 163.1 159.7 156.2 153.2 151.5 149 146.8 145.1 143.4 138.5 137.5 137 137.8 136.9 136.5 135.5 137.2 134.7 132.6 130.4 128.8 127.5 128.4 128.6 127.5 126.6 129.7 130.4 130.3 132.1 131.9 131.3 130.5
228.4 234.2 241.3 250 257.3 266.1 269.6 271.4 274.2 274.3 274.8 275.6 275.2 274.4 272.4 272.8 272.3 266.7 261.1 253.5 247.2 243.8 239.9 236 230.9 225.6 220.7 216.3 212.3 209.8 207.7 206.1 204.9 203.2 201.9 199.2 198.8 197.7 196.3 194.9 192.4 192.2 191.4 191.6 192.1 195.5 198.3 198.1 197.6 195.8 194 194.3 194.2 198.4 199.1 199.6 201.8 203.6 204.7 206 206.8 206.6 206.5 207.4 206.9 207 206 206.9 207.2 207.7 207.8 208.1 208.5 208.3 207.7 206.1 206.4 204 202.9 203.2 200.6 195.6 189.3 184.8 178.9 174.7 171.2 166.6 164.3 162.6 160.8 159.9 158.5 157.5 157.6 156.9 156.7 156.8 156.1 154.3 154.9 151.5 151.3 151.3 152.5 152 151.6 151.2 150.9 150 149.1 148.3 147.5 145.8 144.4 142.1 140.5 139.2 137.4 134.7 132.2 128.8 127.1 126.8 124.8 122.5 119.7 117.8 115.6 114.7 111.7 107.8 104.8 103 102.6 104.2 108 110.4 112.5 114.8 114.6 114.1 113.4 114.5 116.8 116.5 115.5 117.3 120.3 124 127.3 133.2 134.9 139.2 143.4 146.4 148.5 151 152.9 154.3 154.2 156.2 157.1 159.1 164.7 168.5 167.9 164 160.6 157.1 154.1 151.7 149 147.5 145.8 141.7 138.4 138.7 140.3 138.7 138.9 140 139.4 138.9 136.3 133.6 131.5 129.7 128.5 128.7 129.2 129.1 128.4 130.9 131.4 131.2 132 131.6 130.9 131.3
228.3 233.6 240.5 249.1 257.1 259.7 259.4 263.3 266.1 267.2 268.1 269.2 269.6 268.2 263.9 266.3 263.1 260.4 254.3 247.4 244.2 242.2 238.9 235.5 230.4 223.9 219 214.4 210.5 208.4 206.3 204.8 203.2 201.7 199.7 198.1 197.9 197.7 197.6 195.8 194.4 191.4 189.6 190.8 191 193.9 196.2 196.2 194.4 193.1 192.7 192.9 194.2 198.5 200.7 199.8 200.7 204.8 206.9 207.7 208.2 207.3 209 209.7 209.8 209.7 209.3 209.7 210.3 211.4 211.9 212.3 212.8 212 212.1 211.6 211.1 208.8 207.1 206.7 203.8 199.7 193.7 187.9 183.3 179.4 174.4 170 167.1 165 163.1 161.4 160.9 160.5 161.2 159.2 158.9 157.7 157.4 157.5 155.4 153.2 152.7 154.6 152.6 152.5 151.4 151.1 151.1 150.6 149 148.3 147.6 145.8 143.8 142.2 140.9 138.4 135.8 134.1 131.5 128.1 126.3 125.7 123.2 120.5 119.1 117.3 114.5 112.9 111 107.1 103.9 102.7 104.9 106.8 110.2 112.8 115.2 117.2 117.4 116.1 114.6 114 116.7 117.9 117.8 120.2 123.1 127.3 130.2 136.3 140.4 142.5 147 149.8 153.3 155.8 158.3 158.5 158.3 159.2 160 161 166.3 170.6 168.6 164.9 161.1 157 154.3 151.6 148.9 148.8 145.3 140.7 142 142.5 142.5 140.3 142.1 141.2 141.9 141.7 137.7 134.6 133.1 131.9 129.5 129.7 130.2 130.2 130.1 131 131.5 131.3 131.1 131.7 131.9 132
226 232.6 239.8 247.2 251.1 252.8 253.9 255 256.8 258 258.8 263.1 263 260.7 257.4 257.1 255.2 252.3 246.9 243.4 241.9 240.2 237.1 233 227.3 221.2 216.8 212.8 209.2 206.7 203 203.3 202.3 200.1 198 196.7 197.5 196.6 198 197.6 195 191.6 189 190.6 189.9 192.8 194.3 194.8 192.8 192.1 192.1 193 195.5 196.9 199.1 200.3 202.5 205.1 208.6 209.4 209.6 210.3 211.1 211.7 211.7 212.3 212.3 212.8 214.3 215.1 215.8 216.4 216.4 217 217.6 217.4 215.8 214.1 211.8 210.9 207.9 202.9 196.4 190.8 186.5 182.3 178 173.6 170.3 167.4 165.7 163.7 162.8 163.5 162.8 160.2 159.6 159.2 161.7 157.6 156 156.5 155.6 154.6 153.3 152 152.1 151.3 151.1 149.3 148.2 147.7 146.9 145.1 144.1 142.9 140.3 138 135 132.7 130.3 127.3 126 124 122.8 120.8 117.5 116 112.5 112.2 110.7 107.4 104.6 104.9 106.5 109.1 112 114.2 116.8 119.7 119.3 117.4 116.3 115.8 116.3 118 120.8 122.9 126.4 130.4 135.7 139.4 144.3 147.6 150.2 154.6 157.2 160.2 163 162.8 162.5 162.6 162 163.1 166 168.5 167.4 163.8 160.4 157.4 155.1 152.7 152.3 150.1 142.3 146.7 146.7 146 142.8 145.3 144 143.9 144.7 142.2 140.1 136.6 133.7 132.3 131.7 130.6 130.9 131.4 130.8 129.5 130.2 131.1 131.3 131.8 132.3 133
225.4 231.1 237.9 244.4 246.3 246.3 245.5 247.1 249.4 250.3 250.3 253.7 249.6 251.8 249.9 248.8 247.9 245.6 242.1 239.9 238.5 237.1 233.1 227.9 222.8 217.4 214.2 211.2 208 204.2 200.5 202.6 201.3 199.9 198.1 195.7 195.4 195.9 196.5 195.8 194.6 192.4 188.6 187.6 189.3 193.1 193 191.7 191.2 190.9 192.4 194 197 197.2 198.5 201.5 204.6 205.8 210.4 210.6 210.8 211.6 213 213.7 213.6 214.7 215.2 216.7 217.8 218.9 219.6 219.8 220.1 221.6 222 222.1 220.9 218.7 216.2 213.9 213.4 208.8 201.4 193.1 188.4 184.2 180 176.3 173 169.8 168.1 168.3 165.1 164.6 164.4 162.4 162 163 161.1 158.7 158.5 159.3 157 156.2 154.2 153.1 152 151.6 150.8 149.4 149.6 147.4 146.2 144.9 143.3 140.9 138.8 137.4 134.5 131 129.1 127.3 126.7 125.4 123.4 119.4 115.9 114.3 111.3 109.8 108 106.3 104.9 108.4 109.2 111.4 113.8 115.9 118.1 120.6 122.3 119.6 118.1 118 117.6 118.9 121.8 126.1 131.6 136.8 141.3 143.6 148.9 151.6 155.1 158.1 161.1 165.1 166.8 167.7 166.8 165.3 164.7 164.8 165.7 166.8 165.5 162.5 159.6 157.8 155.9 153.3 150.7 146.7 149.2 151.3 151.3 149.7 148.1 147 145.6 146.6 145.6 143.5 141.3 137.2 134.2 134 133.1 131.9 132.2 132.1 132.1 131.9 130.2 130.4 131.7 131.5 131.5 133.1
224.2 229.8 234.8 240.3 242.5 241.4 240.7 240.9 242.5 243.3 241.1 243.4 244.9 245 244.8 242.4 240.8 239.2 236.8 235.9 234.7 232.3 228.3 223.1 218.2 213.5 211.1 209.4 207.1 203.7 198.3 200.4 199 197 195.5 193.1 192.7 193 193.7 192.9 191.9 189.7 188.4 186.2 187.9 192 190.6 188.8 189.3 190.5 192.7 195.4 198.1 199.5 199.7 201.2 205.7 206.8 210.3 211.9 212.1 213.6 214.4 215.2 216.1 216.8 219.1 221.9 222.5 223.5 224.1 224.9 225.3 224.9 226 226.6 226 224.8 220.2 216.7 215.1 211.8 206 197 190.3 186.3 182.5 178.9 176 172.5 172.4 169.3 167.4 167.3 168.4 165.7 165.5 163.6 161.9 161.1 164.1 160.5 158.7 156.9 155.3 153.8 152.8 152.4 150.8 149.2 149.3 147.8 145.7 144.5 143.1 140.8 138 136.2 133.4 132.5 130.1 126.8 125.1 122.8 120.7 117.2 113.8 111.4 113 111.3 108.3 108 108.4 108.8 113.2 114.1 115.7 117.5 120 121.3 122.2 122.3 120 119.5 119.1 120.2 124 129.2 137.9 143.7 148.6 149.7 153.6 156.4 159.3 163.2 167.7 169.9 172.6 172.6 171.8 168.8 167.8 165.8 165.3 166 164 161.1 160 158.1 154.7 154.4 153.6 148.7 153.3 156.1 154.8 153.1 151.1 148.7 148.3 148.5 146.6 144.7 141.6 137.8 135 133.6 132.7 132.4 132.5 132.9 133.9 133 133 131.4 130.8 131.2 132.7 133.1
222.9 228.8 232.3 237.1 237.6 236.1 235.5 234.7 236 235.8 233.9 234.2 238.7 239.7 239.4 237.9 236.4 234.2 232.3 230.8 229.4 225.9 221.9 217.7 212.9 209.9 208.5 207.1 205.4 201.7 197.2 195.7 195 193.9 193.1 189.1 187.7 188.9 188.7 188.8 188 185.5 183.3 186.3 184.7 185.3 184.5 188 189.8 191.1 194.4 196.6 198.8 200.9 201.5 202.4 206.6 207.9 210.4 212.7 213.2 214.2 215.4 216.7 218.3 219.3 224.8 228.2 229.5 228.8 228.1 228.2 227.5 227.7 230.4 230.8 230.4 228.9 225 219.2 215.3 211.9 206.9 199.2 193.1 188.7 184.7 181.9 178.9 176.9 173.9 172.4 170.9 169.7 169.3 169.9 167.1 164 162.9 165.4 163.2 161.4 159.3 157.3 155.1 154.1 153.7 152.6 151.1 149.6 149.5 147.7 145.6 143.6 143 141 137.8 135.9 133.8 131.4 127.6 124.9 123.2 121.2 119.2 116.7 113.4 113.7 112.3 110.5 111 110.8 110.6 111.5 112.8 113.7 117.7 120.1 120.5 121.2 121.9 123.9 122.1 121.6 120.4 123.2 128.1 136 143.7 151.6 155.1 157.5 159.2 161.2 165.5 169.6 173.8 177 177.4 177.1 176 172.5 170.7 168.1 166.6 166.1 163 160.2 159.4 158 156.7 157.4 157.1 156 159 159.8 157.6 155.6 153.1 150.9 150.3 149.2 148.1 146.1 142.9 138.9 137.1 134.7 134.5 134.1 134.2 133.8 134.1 134 133.8 133.4 132.4 132.6 133.1 133.1
219 225 229.7 232 231.6 231.1 229.2 227.9 228.8 229.3 227.8 226.9 232 234.3 233.9 232 230.8 229.1 225.1 224.1 222.3 219.1 215 211.2 209.3 208.5 206.2 204.7 202.2 198.5 195.6 188.2 191.1 190.5 189.5 188.3 186.5 184.1 183 182.2 182.6 183.1 182.6 182.1 184.1 180.8 182.1 192.5 190.7 192.1 193.5 196.5 199.3 201.3 202.6 202.8 207 208.9 211.2 212.5 214 215.2 216.9 218.9 221.5 226.5 232.2 234.9 235.5 234.3 232.2 231.5 230.3 230.5 233.1 234.3 234.2 232.5 229 222.4 214.6 210.3 205.7 199.3 194 190 186.2 184.6 181.5 180.1 177.2 175.9 174.7 173.5 173 170.4 166.6 166 166.8 165.6 162.7 161.6 159.9 157.5 155.2 153.6 153.4 152.2 151.4 150.6 148.5 147.5 145.9 143.8 141.6 139.4 138.4 138.1 132.9 128.9 125.9 124 121.9 119.8 117.5 114.6 113.3 114.9 112.8 112.2 111.7 110.8 112.2 113.6 114.5 116.2 116.5 120.8 123.6 124.1 123.3 124.5 124.8 122.5 122.3 127.6 134 141.2 150.2 158.1 162.4 164.3 166.3 168.6 172.8 176.5 180.2 183.1 183.1 183 180.9 177 173.9 171 169.1 165.5 162.3 160.1 158.8 158.8 159.8 160.7 160 162 163.6 163.1 161.7 158.5 155.3 153 153.1 151.1 149.5 146 143.7 140.7 139.4 137.2 135.5 135.6 135 135.2 135.7 135.3 134.2 134.3 133.4 132.6 134 133.8
214.8 220.1 225.4 226.5 226.6 225.6 223.6 221.9 222.4 224 221.5 220.7 223.9 226.1 225.4 222.7 222.1 223 217.9 217.6 215 212.1 210.1 209 208.1 207.5 205.3 202.4 197.9 193.8 189.8 184.3 185 185.5 184.4 183.7 182.9 181.4 180.8 178.3 176.6 177.6 180.2 183.4 179.2 178.3 184.7 189.8 192.9 192.9 194.6 197 199.7 201.4 202.3 203.5 206 209.2 210.9 212.1 213.5 215.7 218.3 220.9 226.7 232 240.4 241.6 240.9 240.6 237.8 235.6 234.8 234.4 235.6 236.4 236.3 234.9 232 225.3 216.7 209.1 204.9 200.1 194.3 191.8 189.5 187.1 185.3 182.4 181.1 180.2 177 176.1 173.4 169.9 169.2 170.5 169.3 164.4 162.7 161.5 160 157.8 155.8 154.9 152.4 151.7 150.2 149.2 147.8 146.9 145.9 143.7 141 138.8 138.6 133.8 130.2 128.3 125.3 122.9 120.8 118.2 115.2 113 114.1 113.6 113.3 112.4 113.1 112.8 115.2 116.1 116.4 118.2 120.1 120.7 122.3 125.9 125.3 124.4 125.3 126.5 125.4 130.9 138.4 147.2 155.8 165.8 169.8 171.9 173.4 176 180.9 183.7 188.2 190.4 190.7 189.9 187.5 181.9 177.6 174.1 171.5 166.4 163.1 160.4 159.4 161.3 163 163.8 165.4 168.1 168.4 167.4 165.1 160.6 156.7 155.6 153.6 152 150.4 147.5 144.9 142.8 139.9 137.9 136.8 136.7 136.1 136.3 135.9 135.8 135.4 135.1 134 134 133.9 133.6
209.6 214.6 218.6 220.2 220.9 220.8 219.4 217.8 217.2 217.2 217 216.4 216.4 215.9 215.5 214.7 214.5 214.1 213.4 212 210 209.5 209.1 208.5 206.4 206 203.7 199.4 193.4 188.2 183.1 180.2 180.7 179.9 178.9 178.6 177.8 176.7 176.6 175.2 174.8 178.8 174.9 175.7 172.5 181.7 187.6 189.3 193.5 193.9 195.3 197.5 199.5 202.4 203.2 204.1 206.3 207.8 210.4 211.4 213.5 217.6 221.9 227.5 231.1 239.4 245.4 246.6 246.1 245.8 242.9 241.2 240.9 238.9 236.6 236.7 237.1 236.8 233.6 227.1 218.3 209.2 204.1 199.6 195.1 193.1 191.4 190.3 188 185.9 184 182 181.8 177.1 175.4 175.8 173.2 171.1 166.6 164.2 163 162.2 160.2 159.5 158.4 157.1 154.5 152.6 150.5 148.7 148 146.6 144.5 142.7 141.3 139.7 136.1 132.5 130 127.7 124.1 121.3 118.6 117.1 116.1 113.7 114.1 115.8 115.4 114.7 114.6 114.4 116.2 118.2 118.1 120.1 122.4 123.5 124.5 125.2 127.7 126.9 125.6 128.6 127.9 134.9 143.4 151 164.4 171.2 175 177.6 178.8 181.4 186.8 191.7 194.7 197.2 198.1 196.8 193 188.1 181.7 177.4 173.8 168.4 164.1 161.7 161.5 164.5 166.2 167.2 171.4 173.3 172.5 170.8 168.3 163.7 160.4 156.9 154.5 153.4 151 148.6 145.5 142.1 141.1 140.1 140 138.8 137.6 138.1 137.2 137.4 137 136 134.6 135.1 133.8 133.8
205.6 209.7 212.2 213.7 215.2 215.2 214.9 215.2 215.1 213.1 213.4 213 211.3 211.1 211.6 211.9 211.8 211.8 210.9 210 208.5 208.3 208.1 208 204.3 201.3 198.1 193.1 186.4 182.3 178.5 177.2 176.3 176 174.5 173 171.4 172.2 173.1 172.5 170.4 171 166.9 175.4 179.4 183.7 189.1 191.9 192.7 195.2 195.1 198.2 200.2 202.5 203.7 203.8 206.4 208.7 210.1 212.2 217.1 221.9 227.6 232.5 236.3 242.3 248.7 251.9 251.7 250.9 247.8 246.7 245.6 244.8 237.9 236.2 236.3 235.1 233.2 226.1 217 208.6 206.5 202.8 198.9 196.1 193.7 192.7 192 189 188 186.2 182.8 181.1 179.1 176.9 174 168.1 166.7 165.1 164.3 163.6 162.1 158 156.2 155.3 153.7 152.4 149.9 148.4 147.9 146.5 145.1 143.9 143.6 137.6 135.3 133.3 130.4 126.4 123.3 120.7 118.4 117.3 116 114.4 115.8 117 116.6 116.2 115.6 115.9 116.8 118.7 119.5 121.9 123.8 125.6 127.1 126.8 127.3 129.2 127.2 127.2 134.1 137.5 146.3 155.6 169.2 174.2 177.2 180 181.9 186.3 190.4 196 201.2 203.5 204.4 203.5 199 193.1 185.9 180.4 175.8 169 165.3 164.2 163.6 165.5 169.1 171.1 175.7 178 177 173.8 171.1 165.7 160.6 157.4 155.9 154.3 153 149.2 146 144.5 143.1 142 140.6 140.2 138.8 139 139 138.2 138.4 136.9 136 135.6 134.3 134.4
200.3 204.2 207.7 210 211.5 211.8 211.7 211.9 211.1 210.6 210.3 210.4 209.5 209.2 209.8 210.6 210.9 211.2 209.9 208 207.4 207 206.1 203.4 198.9 194.6 189.4 184.6 180.4 178.4 177 175.2 174.5 173.1 172 172.4 171.2 168.9 169.4 169 165.9 166.7 171.1 176 180.8 183.7 188.3 191.9 193.9 195 198.1 199.1 199.6 200.4 203.2 205 206 209 211.8 214.3 219.3 226.7 232.4 237.1 240.5 245.2 251 256.5 257.3 256.1 252.7 249.4 248.5 244.6 238.2 235.7 234.1 232.8 230.2 222.7 216.1 210.3 210.1 206.9 203.2 199.6 196.9 196.7 194 193.2 191.3 187.1 185.5 183 181.9 177.6 174.4 171.3 168.7 168.2 165.7 162.9 160.2 158 156.4 155.6 153.4 151.2 151 149.3 149 147 145.1 144 140.9 137.1 134.8 132.2 131.1 127.2 122.4 118.7 118.1 116.4 115.1 114.9 116.8 118.2 117.5 117.5 117.1 117.9 119.6 119.9 121.1 123.1 125.4 127.1 128.3 128.4 126.9 129.8 129.6 128.4 132.4 140.3 148.5 158.5 170.7 177 176.8 178.7 182.2 187.5 192.8 198.9 203.8 207.8 209.5 208.2 204.3 197 190.8 184.7 176.9 170.8 167.7 165.4 164 168.5 172.2 175.5 178.8 179 178.7 176.5 172.2 166.3 161.8 157.8 156.1 154.1 153.4 149 147.5 146.7 145.4 142.9 141.7 140.7 140.7 140.6 140.7 140.8 139.9 139.2 136.9 136.4 135.3 134.3
197.5 201.5 204.9 207.7 208.9 209.8 209.6 210 209.7 209.7 209.2 208.5 207.8 209.5 210.9 211.2 212 211.8 209.7 206.7 202.9 202.9 200.1 196.7 191.3 184.3 180 178.1 177.6 176.8 175.1 173.2 172.1 170.7 169.8 168.9 168.9 169.1 168.5 164.8 163.6 169.2 171.6 175.7 179.1 184.4 187.7 190.6 193.5 195.3 198 200.7 200 200.2 201.6 204.1 207 209.9 211.9 215.7 223.6 229.7 234.5 239.4 244.7 247.6 253.3 259.8 263.1 261.2 256.7 251.8 248.5 243.3 238.3 234.5 232 229.8 225 220.3 217.1 216 214.4 211.4 207.1 202.6 201.2 199.4 198.4 193.8 190.8 190 188.4 186.8 182.6 178.3 175.9 172.2 169.7 167.9 165.1 162.5 160.7 158.8 157 156.2 154.5 151.6 151.1 149.1 147.7 146 144.6 143.1 139.4 136.7 134.7 132.3 129.8 125.9 120.9 119 117.5 116.4 114.9 116.6 118.4 118.9 118.5 117.9 117.8 119.4 120.7 122.7 123.1 124.5 127 128.7 129.5 129.7 129.1 129.3 130.7 130.7 132.8 141.5 149.3 158.1 170.7 175.1 174.7 176.8 181.8 188.5 195 199.8 205.1 209 212 211.8 208.4 201.2 194.2 188.1 179.5 174.5 169.7 166.2 166.7 171.2 175.1 178.9 181.1 180.6 179.1 176.4 173 166.8 161.9 158.2 156.5 154.7 153.7 151.1 149.9 147.6 145.6 144.7 143.3 142.2 142 142.2 143.4 143.2 141.2 139.2 138.3 137 135.8 135.2
194.7 199 202.1 203.7 204.8 206.1 207.9 208.8 209 209.1 208.9 208.4 206 208.3 209 209.2 209.3 208.1 207 203.3 198.4 195 192.4 188.2 182.1 177.8 177.2 176.5 175.7 175.2 173.6 172.3 170.9 169.9 169 168.3 167.2 166.5 167.1 165.3 161 166.3 169.5 174.1 179.7 183.1 187.8 191 194.1 196 197.3 199.3 199.7 200.4 201.3 202.9 206.8 211.4 214 218.1 225.7 233.3 237 241.9 246.9 250.6 257.7 265.4 269.6 269 261.9 256.4 248.3 243 238.2 232.9 229.3 226 222.8 220.9 220.4 222.4 218.8 216.1 210.8 207.8 205.1 201.3 199 194.9 193.5 191.9 192 187.8 184.3 178.6 175.6 173.1 170.3 168.7 165.1 162.5 160.5 158.7 157 154.6 153.7 151.6 149.2 148.5 149 146.2 144.6 142.7 140.1 137.1 133.7 130.6 126.2 123.2 119.6 117.2 116.4 116.5 119.7 119.6 119.6 119.3 118.8 118.8 118.8 120.1 121.7 124.5 126.1 126.2 128.4 130.1 130.2 130.9 131.2 130.8 130.2 133.1 134.8 141.2 148.5 158.2 165 168.9 172 174.9 180.3 186.3 194.3 201.3 206.1 209.7 213.8 216.3 211 204.5 198.2 191.1 183.1 175.6 169.9 167.8 168.7 173.1 176.2 181.4 182.2 181.6 179.3 176.3 173.1 167 161.6 158.1 158 156.7 155.2 153.1 150.4 148.7 147.3 145.7 144.2 144.1 144.7 144.9 143.8 142.4 141.5 140.4 140.4 138.2 137.5 135.8
193.4 197 199.3 201.7 204.7 207.3 208.1 210 209.5 208.5 207.7 206.6 204.5 204 204.9 206.2 204.8 203 202 197.9 192.6 188.8 185.9 182.1 178.2 176.4 175.9 175.2 174.4 173.5 172.1 171.7 169.9 169.5 168.9 167.7 166.9 166 164.5 163.8 160.7 162.1 168.3 173 177.3 182.8 186.1 191.4 195.1 197.3 198.5 198.3 199.5 199.5 201.7 204.1 208.6 211.8 215.8 220.2 227.9 233.5 238.7 244.1 248.9 253.7 262.3 271 274.8 275.2 269.6 258.6 249.8 244.5 239 233.2 228.7 225.2 223.9 224.4 225.8 228.4 225 219.3 215.7 210.8 207.2 203 199.3 197.1 196.3 196.2 190.8 188.6 187.6 182.5 176.8 173 171.2 169 166.2 162.6 161.3 158 156 154 152.2 151.6 150.6 149.8 149 146.5 143.7 141.6 137.6 135.2 132.5 129 125.5 122.7 118.6 117.1 118.5 120.7 122.8 122.2 121.1 120.6 121.3 120.8 120.4 121.1 122.8 124.9 127.5 127.8 129.3 131.4 131.6 132 132.4 132.4 131.5 133.4 136.7 140.5 147.4 156.5 163.3 166.5 169.7 173.4 180.8 188.6 194.8 201.8 206.5 210.3 213.8 215.1 212.1 205.7 200.3 194 184.8 176.7 172.2 170.6 169.2 174.4 179.2 182.9 183.5 182.1 179 176 172.8 167.4 162.6 160.5 159.8 159 157.3 156 153.3 151.5 149.1 146.9 146.2 147 147 145.6 144.7 143.9 143.6 141.6 140.2 138.6 138.3 136.6
191.3 193.6 196 200.3 202.9 206.5 207.4 208.9 207.8 206.5 204.9 203.3 200.8 197.4 199.6 199.6 198.5 197.9 195.1 192.1 187.9 185.1 182.2 179.9 176.9 175.7 174.4 174 174.7 173.7 173.4 172 171 169.5 168 166.9 165.7 164.7 163.7 161.7 159.8 161.5 166.9 170.6 175.3 180.1 185.9 190.9 194.7 197.8 198.5 197.8 198 198.4 200.7 205.2 208.5 211.2 216.4 221.6 228.5 234.6 239.9 245.7 251.9 258.1 267.5 275.8 279 280 275.2 260.8 249.9 245.2 240 235 229.7 228.8 228.4 230 234.5 235.4 230.4 225 217.9 212.7 209.3 205.2 203.3 204.5 199.1 195.4 193.3 190.2 187.5 184 180.2 173.7 170.9 169 166.5 164.1 161.7 157.3 154.3 152.8 151.6 150.3 149.8 148.3 146.5 145.7 143.5 138.8 136 133.3 131.1 127.1 124 120.3 118.8 117.6 121.7 124.1 124.1 123.3 122.2 122 122.2 122 121.6 122.2 123.9 126 128.1 129.9 130.8 132.8 132.8 133.2 133.7 133.2 132.5 134.5 135.9 140.2 146.6 153.4 159.2 163 166.4 171.8 179 187.3 195.1 200.3 206.5 207.8 210.4 211.4 209.8 205.9 200.2 195.3 185.9 178.8 175.5 173.7 174.3 178.5 181 182.1 182.7 180.7 178.7 175.7 172.4 166.5 163.5 162.3 160.7 161.4 160.2 158.4 155.7 153.4 150.7 149.4 149.1 148.4 147.6 146.5 146.2 145 143.7 143 141.3 140.1 139 137.5
187.6 192.5 198.1 200.3 202.5 202.3 204.2 205.3 204 202.7 201.2 199.6 197.3 192.9 193.5 193.4 192.6 192.6 190.5 187.3 183.3 181.9 180.4 178.6 175.5 174.1 173.9 173.5 173.4 174 173.4 171.8 170.4 169.4 167.9 167.2 165.6 164 162.5 161.7 159.4 157.2 162.2 166.7 172.1 178.2 184.6 190.3 193.4 196 196.9 196.5 195.1 196.7 199.2 204.3 208.9 212.6 218.5 224 229.1 236.3 242.8 249.2 255.3 261.8 271.5 279.8 283 283.5 278.6 263.1 249.4 244.9 239.8 235.3 233.3 234 236.3 240.2 242.8 242.2 237.9 229.8 219.9 214.8 210.4 208.1 205.7 204.9 200.1 196.3 194.2 192 189.4 184.4 180.1 175.4 172.5 167.7 165.9 162.3 159.5 156.8 154.5 151.9 150.9 149.2 148.5 148 146.2 144.6 141.3 138.7 135.7 133.2 131.4 128.6 123.7 123.1 120.7 119 124.1 125.6 124.9 125.3 124 123.3 123.5 122.9 122.6 123.7 125.1 127.2 129.4 130.8 131.8 133.4 134.5 134.7 135 133.6 133.6 135.2 137.5 141 145.8 150.8 156.9 159.3 165 171.2 179.4 185.7 192.8 197.5 201.6 204 205.7 206 206.7 203.3 199.7 195.1 187.3 179.9 174.9 173.9 177.6 180.9 183.2 183.8 183.7 180.8 177.2 174.7 171.1 166.5 164.2 163.7 162.5 163.2 161.8 160.7 158.5 156.6 153.1 150.9 149.7 149.4 148.9 148.2 146.7 145.6 145.8 143.8 142.6 141 139.9 138.9
188.4 192.8 196.9 198.4 201 201.8 201.1 201.9 200.1 198.9 197 194.9 192.7 189.5 188.1 187.6 187.5 187.5 185.9 182.6 180.6 179.1 176.6 175.4 174.8 172.7 172.2 172.3 172.5 172.5 171.9 170.6 169.8 168.7 167.2 166.1 163.7 162.6 160.3 160.1 158.5 156.4 158.3 163.2 168 175.2 183.1 189.5 191.5 193.4 193.7 194 193.1 196 199.2 203.3 208.3 213.7 221.5 227.1 231.6 237.7 244.7 251.7 258.6 265.7 275.3 283.1 286.1 286.8 279.4 261.2 250.4 243.7 238.9 236 237.2 239.5 243.3 248.4 250.5 249.3 243.6 235.6 222.3 216.4 213.1 209.4 208.1 205.9 201.8 197.3 196.4 193.2 190 183.7 179.8 176.1 171.7 168.6 163.6 164.5 160.6 157.8 154.5 151.6 150.9 149.4 149.7 147.9 147.4 145.5 143 140.1 138.2 135.2 131.9 129.2 125.6 123.7 120.9 122.2 124.9 126.3 127.2 125.3 125 124.5 123.9 124 123.6 125.2 126.3 128.5 130.5 133.2 133.9 134.5 135.5 136.5 135.7 135.3 135.4 135.7 138.8 141.6 145.1 149.9 156.2 158.3 166.4 171.5 177.9 184 189 192.7 196.4 198.6 199.9 200.5 199.5 198.8 197.4 193.4 186 179.9 176.2 175.7 180.6 183.5 185 185.6 185.1 182.6 180.5 176.8 170.8 167 165.6 165.4 164.8 166.1 165 163.1 161.3 157.2 153.6 151.3 151.3 150.2 149 148.9 148 147.2 147.3 145.3 143.8 142.6 140.9 140.2
187.9 192.4 196.4 197.2 196.9 198.8 198.7 197.2 196.1 194.5 192.6 190.6 188.2 186.2 184.9 184.1 183.7 183.5 182.3 181 179.7 178.9 176.3 173.3 173.1 172.7 171.7 172.1 172.2 171.7 171.2 170.2 169.1 167.5 165.8 164.6 162.9 160 158.7 158.5 157 155.5 157.5 160.4 165.1 171.3 180.2 186.4 189.1 189.7 190.8 191.6 191.5 195.5 199.8 203.3 208.1 215.5 220.5 226.3 233.1 243.8 252.7 259.1 264.7 271 279 286.5 289.1 288.3 279.3 264.9 253.7 246.3 242.4 240.8 242.6 247.1 251.8 255.6 258.6 255.7 249.6 237.8 225.1 218.7 214 210.7 208.8 206 201.8 198.5 196.1 192.6 190.4 185 180.1 175.1 172.5 170.5 166.8 162.6 159.7 157.8 154.9 152.5 150.4 150 151.4 150.1 147.1 146.1 144.2 142.1 140.6 136 133.7 129.9 126.2 123.6 122.6 125.1 127.1 127.8 128 126.9 126 125.5 124.5 125.6 125.3 125.6 127 129.6 131.3 134.6 136.2 136.7 137.1 137.8 137.8 137.5 137.3 137.5 139.4 140.7 143.9 147.5 155 157.7 160.8 171.2 176.2 180.9 185.4 187.9 191.1 192.4 193.3 193.8 193.7 193.9 193.2 190.3 185 180.1 177.8 177.9 184 186.5 188.2 187.9 186.2 184 182.8 179 172.3 169.1 167 166.3 166.3 167.6 167.7 165.6 162.4 159.5 155.1 153.5 152.6 151.7 151.1 150.4 149.7 148.9 148.9 146.9 145.7 144.2 143 142.7
187.4 190.9 193.5 195.2 195.2 195.2 194.6 192.4 191.8 189.9 188 186.6 185 183.6 183.5 181.7 180.9 180.4 179.9 179.4 177.8 175.6 173.2 171.9 172.3 171.6 171.3 171.8 171.1 170.4 169.7 169.2 168.4 167.1 165.4 164.7 162.8 159.3 157.6 157.1 155.7 155 156.5 159.6 161.6 167.5 176.4 182.6 186.9 187.4 186.1 185.5 190.6 192.9 197.9 202.9 209.3 216.9 222.6 228.2 237.3 246.2 256.5 264.1 268.1 276.3 285.3 291.5 294 292.1 283.2 270.5 255.7 251.4 248.2 249.2 253.7 255.8 258.7 266.8 268.7 263.1 253.1 242 228.9 222.7 215.2 211.6 209.7 206.3 203.1 200.2 196.2 193.3 190 184.3 180 177 174.1 169.1 165.7 162 159.5 157 155.3 152.6 153.5 155.8 153.5 149.5 147.5 145 141.7 139.1 136.8 133.5 131.2 130 126.3 124.4 125.5 127.5 129.1 128.7 129.2 128.7 127 126 125.8 126.4 126.9 127.5 129.2 130.7 132.4 135.6 138.3 138.8 139.1 139.8 139.4 138.6 138.9 139.1 140.2 141.9 143.6 148 153.1 157 160.8 167.8 174.5 178.9 181.9 183.9 185.9 186.7 188.2 188.3 188.3 188.8 189.5 186.8 183.9 181.2 179.1 181.2 186.5 189.1 190.1 190.5 189.2 187.2 184.2 179.4 175.2 171.9 168.3 167 167.9 170.1 169.7 166.1 164.1 160.8 157 154.9 153.7 152.9 152.9 152.4 151.6 151 150.7 149.3 147.6 147 145.5 145
186.6 188 188.9 189 189.5 190.6 189.3 188.2 186.5 185.5 184.5 183.5 182.4 181.5 181.4 180.9 178.8 177.9 177.5 176.2 175 172.7 170.7 171 171.4 170.6 171.7 171.5 171 170.9 170.2 168.9 168.3 166.9 164.6 163.4 160.4 157.4 155.6 154.7 153.9 155.2 156.4 158.4 160.5 164.5 172.5 178.5 182.3 184.5 185.2 184.2 187.5 191.2 197.7 204.4 210.8 218.1 226.4 233.1 241.4 249.7 258.3 265.4 272.3 281.4 290.5 298.3 302.1 298.1 288.6 274.6 263.6 260.8 258.8 258.7 261.6 263.4 270.8 278.9 278.7 270.1 257.7 245.1 233 225.3 218 213.6 210.1 206.7 203.1 199.8 196.1 192.7 189.4 184.5 183.2 178.1 172.5 168.3 164.6 161.4 159.2 157.7 156.7 156.1 154.5 154.4 150.4 148 146.3 143.8 141.6 139.5 136 132.9 128.2 127.7 124.5 124.7 126.9 130.5 132.4 130.4 129.7 129.1 128.5 127.7 127.6 127.1 128.8 129.4 130.9 132.6 134.2 137.2 139.4 140 140.6 141.7 140.9 140.3 140.8 140.5 141.3 144.4 144.2 147.9 152.3 155.5 159.8 167.1 172.2 176.5 179.5 180.3 181.7 182.5 183.8 184.3 185.2 185.8 185.7 185 183.2 181.4 182.6 185.1 188.7 191.8 192.5 192.3 192.2 189.7 184.8 180.7 176.5 173.1 169.5 167.7 169.2 171.3 170.4 168.3 165.1 163 158.4 156.7 155.5 155.3 155.1 154.8 154.3 154.4 152.6 151.1 148.8 148.1 146.7 146.8
184.6 184.6 185.7 186.1 187 187.6 185 183.2 182.3 182 181.8 181.2 180.5 179.4 179.3 178.7 175.4 175 173.6 172.2 171.2 169.9 172.7 173.2 171.1 171.1 170.4 170.9 171.3 171 170.2 169.2 167.7 165.4 163.1 161.7 158.9 155.8 153.7 153.2 153.3 155 156.7 157.8 158.5 162.8 168.4 172.3 175.8 179.1 178.8 186.4 186.3 191.3 196.9 204.2 212.7 219.9 227.6 236.7 245.3 253.4 261.3 268.9 278 286.4 299.3 310.1 312.6 307.8 297.1 282.2 274.7 271.1 267.8 266.9 269.5 274.7 284.1 289.6 285.4 274.5 260.5 249.9 237 228.3 220.6 215.7 211.2 206.7 203.1 198.7 195.3 191.9 189 186.8 181.3 176.3 171.2 169 165.3 162 161.1 159.7 155.2 152.9 151.7 151.3 148.2 146.3 144.6 142.9 141.4 138.8 135.7 131 125.8 124.7 124.5 125.8 127.8 130.7 133.2 131.4 131.3 130.6 130.4 129 128.7 128.3 130.3 131 132.7 134.3 136.3 139.6 139.6 141.9 141.7 143.3 141.8 142.2 142.7 142.7 142.8 144.9 147 147.1 151.7 154.9 159.6 167 171.5 173.8 177.3 178.1 178.6 179.6 180.5 181.5 182.2 183.4 183.8 184.3 183.7 182.9 184.6 188.8 191.7 193.3 193.8 194.2 195.4 193.2 186.5 180.5 176.8 173.5 169.3 169.1 171 171.3 171.4 168.9 166.4 164.5 159.7 157.7 157.4 157.6 157.5 157.5 158.7 157.6 155.7 152.6 150.8 149.2 148.6 148
182.4 184.7 183.9 185.8 185.5 180.7 180.6 179.4 179.7 178.5 179.3 178.4 177.5 177.6 177.7 175.9 174.1 172.6 170.5 169.6 169.6 169.7 172.3 173.2 171.8 170.6 171.1 170.7 170.7 170.9 169.5 167.8 166.9 165.1 161 158.9 155.7 153.5 151.2 153.2 154.1 154.8 155.7 156.6 158.1 160.4 163.6 167.7 170.1 176.6 180.5 186.3 187.6 191 198.4 204.9 213.2 221.5 230.8 240.2 249.1 258.1 267.3 273.9 285 294.4 312.8 324.5 324 318.6 305.7 293.2 285.2 279.5 277.6 277 280 287.2 297 298.9 290.4 277.7 264.2 253.8 240.3 230.2 223.6 217.5 212.4 206.2 202.3 197.9 194.5 191.2 187.6 183.9 179.9 174.7 173.3 168.8 165.5 162.2 160.5 157.7 155 154.1 151.1 150 149.8 147.9 145.6 145.2 142.3 140.6 136.2 130 124.9 127.2 127.9 127.2 127.7 129.6 131.4 133.9 132.5 132 131 130.5 130.1 129.9 131.9 132.2 133.7 136.4 138.6 141.6 140.6 144.4 143.7 143.7 144.2 144.6 144.3 145.2 144.5 145.2 147.8 147.7 150.3 154.4 159.4 164.5 168.2 172.7 175.1 176.8 177.3 178.1 179.8 181.2 182.3 182.8 183.3 184.6 184.9 184.8 187 191.2 194.1 194.7 194.8 194.5 197 193.2 186.6 180.9 177 174.4 171.5 171.3 171.6 171.4 170.8 168.7 166.7 165.4 161.5 159.5 159.4 161.3 162.6 162.7 162.7 159.4 156.9 154.8 151.8 150.3 150.9 150.7
180.2 181.3 180 182.2 181.7 177.6 177.3 178.8 176.1 175.1 176 175.9 176.1 176.1 175.7 173.8 171.8 170.4 169.4 168.6 169.7 169.8 171.3 170.5 169.2 169.3 170.2 169.4 169.6 169.6 167.8 166.3 165.3 163.8 159.5 155.6 152.4 150.7 152.2 152.9 154.4 154.7 156.9 157.2 158.3 160.3 163.6 169.9 174.2 178.5 181.6 184.1 188.1 190.8 198.6 206.3 215.9 223.5 234.3 243.3 252.7 261.8 270.2 281.5 291.7 306.9 329.6 336.6 336.4 332.3 320.5 306.5 298.5 291.3 288.9 288.9 291.9 297 304.4 303.1 294.1 280.6 266.2 256.1 240.9 231.4 223.7 219.2 211.8 205.1 201.3 197.9 195.3 191.3 185.6 182.9 179 174 170.9 168.7 165.3 163.1 159.7 158.4 157 155.3 152 150.7 149.2 148.2 147 144.8 141.3 138.8 135.6 129.1 126.9 128.3 128.1 128.2 129.2 131.1 131.2 133.5 134.7 133.4 132.4 132 131.2 131.7 133.9 134.6 135.4 138.9 140.9 143.6 142.1 145.8 146.4 146.1 146.1 147.1 147.2 147 147.3 146.1 148.8 149.2 150.7 155.5 160.1 164.9 168.9 172.9 175.1 175.9 177.4 178.9 181.6 182.6 183 183.9 184.1 184.8 185.7 186.8 189.3 193 195.2 195.1 194.7 194.7 196.1 192.4 185.8 180.7 177.3 174.4 172.9 171.6 171 170.4 169.7 167.9 166.8 165.8 162.9 161.6 161.2 164 166 166.3 165.2 161.8 158.2 156.3 154.1 153.2 153.5 152.5
177.8 176.9 176.8 179.7 178.4 176.8 177.3 175.4 173.1 173.6 175.7 174.5 174 173.6 173.5 171.1 169.1 168.9 168.4 168.2 169.4 169.1 169.7 168.7 167.9 168.1 168.5 168.2 168.4 167.9 166.1 164.8 164.3 160.8 155.5 151.5 150.1 151.5 152.8 153.7 154.7 154 156.5 157.6 159.7 161.7 165.9 171 175.9 178.6 181.9 183.9 188.3 192.4 198.9 209.5 217.8 226.6 237.8 248.2 257.1 266 277.2 289.9 302.5 322.7 342.7 350.5 350.3 346.9 338.3 325.5 316 308.7 304.5 303.7 303.7 305.8 308.3 305.8 296.4 282.6 269.1 257.7 240.7 229.3 222.8 218.6 211.2 205.7 200.1 197.2 194.1 190.4 186.7 182.3 178.6 174 175.2 167.9 163.2 160.6 159.5 159 158.4 155.2 153.4 152.1 149.8 147.9 146.4 145.4 142.1 136.9 131.8 127.6 126.8 128.4 129.3 130 131.9 133.4 133.5 134.8 136.3 135.6 134 133.9 132.4 133.6 135.7 135.9 137.4 139.6 142.3 145 144.1 146.7 147.9 148.2 148.8 150 150.5 149.9 150.7 148.6 150.2 151.8 153.2 157.3 163 166.8 170.2 173.6 176.2 178.4 180.1 182 184.4 184.8 184.8 185.6 186.5 187.2 188.2 189.3 191 192.8 194.3 194.2 194.5 195.1 194.7 191 185 180.6 177.9 175 173.1 172.2 170.5 169.3 168.1 166.9 166.1 164.6 162.4 162.6 163.7 166.4 168.8 169.4 167.1 163.7 161.5 158 155.6 154.1 154 154.7
175.5 177 177.5 174.8 173 171.6 170.3 170.7 171.8 173.1 173.4 173.8 173.9 170.9 169.6 167.7 167.1 167 167.3 167.9 167.8 167.2 167.9 167.5 167.1 167.1 167.5 166.6 167 166.4 164.7 163.4 161.6 156.6 150.6 149.9 150.1 152.6 153.5 154.7 154.7 155.9 156.3 157.8 160.8 164.9 169.3 174.5 177.8 179.4 182.4 185 188.1 195.2 201.4 211.4 221.3 229 240.2 250 259.8 269.6 283.3 296.1 316.8 338.9 356.3 362.9 365.1 362.8 356.5 349 340.3 328.2 323.3 319.5 314.8 314.1 313.5 308.4 298.7 285.7 272.5 256.9 239 228.4 222.1 217 210.7 204.9 199.8 195.3 191.6 188.8 185.4 182.2 179.2 179 174 168.1 163.8 161.5 162.4 161.5 158.1 157 156 154.1 152.4 149.6 148.5 147.5 144.2 138.9 132.8 127.9 130.8 128.9 131.1 133.7 133.9 136.1 136 135 136.5 138.3 136.9 136 134.1 135.2 137.6 138 139.2 141.6 144.3 146 146 148.3 150.3 150 151.5 153.1 153.6 153 151.6 152.7 151 154.5 156.6 159.8 165.8 168.9 172.2 176.6 179 181.9 184.4 186 188.5 188.5 187.1 188.5 190.2 191.4 191.5 190.4 191.3 191.8 192.8 193.8 193.9 194.4 192.4 188.7 184 180.2 177.5 175.4 173.6 171.4 169.5 168.3 167 165.9 165.2 163.8 163 163.2 164.9 167.8 171.2 171.4 168.5 164.1 162 158 155.9 154 154.5 152.9
173.8 177.2 172.7 170.4 170.9 169.1 169.5 170.1 171.1 171.2 171 170.8 168.8 167.6 166.6 166.2 165.8 165.8 165.8 167.4 168.5 167.6 166.2 166.3 165.4 164.4 164.9 165.5 164.5 162.7 161.8 160.5 157.2 151.6 149 149.3 150.5 152.6 153.2 154 154.4 155.6 156.5 158.9 162.7 167.1 172.3 176.6 180 180.9 183.7 186.1 190.6 195.3 204 214.1 224 232 241.7 251.3 261 271 285.9 302.6 326 347.7 366.8 375.4 378.2 375.8 371.5 365.5 357.5 349.1 341.5 335.5 330 325.2 320.4 312.8 300.3 289.2 275.8 257.4 239.8 228.6 221.9 215.3 209.9 206 199.1 193.9 189.8 187.9 185.4 183.3 177.6 174 169.5 166.7 164.3 162.3 163.2 164.6 160.4 157.6 155 153.5 151.9 150.2 147.1 144 139.8 136.7 135.1 132.6 130.2 131 132.9 134.6 134.1 136.8 136.9 136.1 137.6 141 142 138.3 135.9 137.4 139.1 140.4 141.3 143 146.3 146.7 147.5 149.8 151.6 152.3 153.8 155.2 155.9 155.4 154 155 153.3 156.3 159.5 162.9 167.9 171.8 174.7 178.6 182.9 187.3 189.8 190.8 192.5 190.9 189.3 191.5 193.5 194.5 193.5 192.2 191.3 190.5 190.3 191.4 191.2 190.4 188.9 185.7 182 179.5 178.2 175.4 172.4 169.9 168.6 167.4 166 164.7 165.1 163.7 163.1 165.2 166.1 169.9 173 172.6 168.8 163.8 159.3 156.8 155 153.3 154.7 152.5
174.7 170.8 168.7 169.6 168.9 167.6 167.8 168 168.4 168.5 168.4 167 166.1 165.9 165.6 165.4 165.1 165.1 165.3 167.7 168.2 167.3 165.6 163.6 163.7 162.6 163.3 163.1 161.1 159.9 158.1 155.4 152.3 148.2 148.3 149.3 150.8 152.3 153.1 153.6 154.9 156.5 157.7 160.7 165.6 170.9 174.3 177.6 181 182.4 184.4 187.4 191.9 197.5 207.7 215.8 224.3 232.2 242.5 252.3 262 273.7 289.1 308.6 333.7 355.1 373.3 383.4 386.5 385.7 383.4 380.1 371.8 364.7 357.9 350.8 343.4 336.5 329.1 317.8 302.8 294 279.7 258.5 241.5 232.3 223.1 217.1 211.8 206.4 200 193 190.1 188.5 186.2 180.9 175.7 171.6 168.7 167.2 164.5 162.7 160.7 160.1 157.8 156.7 155.3 154.9 153.4 150.2 147 144.3 141.4 136.9 133.9 132.8 131.1 133.1 135.5 137.1 136.3 137.9 138 137.9 140 141.7 142.9 140.6 138.7 140.1 141.9 142.2 142.8 144.7 147.3 148.6 150.9 151.3 152.7 154.2 156.9 157.9 158 157.8 157.7 157.1 156.7 158.4 161.9 165.4 169.9 173 177.4 182.5 187 192.9 196.5 196.3 197 194.9 193.4 194.2 196.5 197.2 195.7 194 192.5 190.5 190.3 189.4 189.1 187.2 185.1 182.5 180.4 177.1 175.4 173 170.6 168.4 168 166.1 165.6 164.2 162.8 162.8 162.7 164.8 167.2 170.8 173.2 173.5 168.5 163.7 159.2 156.3 154.7 153.6 153.4 151.7
168.1 168.2 167.4 167.8 166.8 166.7 166.4 166.5 166.6 166 165.9 166.1 165.4 164.6 164.9 164.3 164.3 164.6 165.2 166.7 166.7 166.1 164.6 163.1 162.5 160.5 160.7 159.2 158.1 154.5 152.4 151.3 148.8 147.1 148.6 149.2 150.9 151.5 152.3 153.5 155.4 157.8 159.2 162.1 167.3 172.9 176 179.1 181.2 183.7 185.4 188.6 193.4 200.7 208.6 217.9 225.3 233.1 241.3 252.3 262.8 276.2 290.2 312.5 335.6 357.2 374 383.7 390.8 392.2 391.8 389.5 384.1 376.7 370.7 364.2 356 348.4 338.7 323.9 308.7 298.5 284.3 260.5 240.9 234.1 227.6 218.2 211.8 203 197.6 195.5 191.9 189.7 185.7 179.8 175.9 172.7 169.7 166.4 164.3 163.4 161.9 160.2 160.2 159.4 157.6 155.1 154.2 151.8 147.6 144.8 142.5 138.2 133.7 131.9 133.1 137.6 141.4 141.1 139 139.2 139.5 140.5 141.8 142.9 144.8 143.2 140.7 143.6 145.8 145.2 144.2 146.1 148.3 150.3 152.1 153.2 155.2 155.5 158.2 160.2 160.6 159.7 159.4 159.6 160.6 161.8 165 168.1 172.1 176.6 182.7 186.9 193.5 199.6 202.8 203.3 203 199.8 197.1 197.9 200.1 200.2 197.4 195 193.3 192.2 191.4 190.9 187.3 185.8 183.6 181.2 178.3 175.3 172.7 170.5 169.6 168.1 166.1 164.5 163.7 163.3 161.7 161.8 162.8 165.2 167.4 171 172.8 173.2 167.2 163.2 158.9 156.1 153.4 152.2 151.7 149.9
166.3 166.6 166.3 165.8 165.2 165.6 165.3 165.1 165.9 165.6 165.3 165.3 164.6 164 164.2 164.1 163.7 164.1 165 165.7 165.3 163.9 162.8 161.5 162 159.6 157.5 154.9 153.5 151.5 149.7 149.2 147.5 147 149.3 149.8 150.7 152.2 153.3 154.7 155.9 158.4 160.4 164.9 169.8 174.3 176.8 179.5 182 183.9 186.6 190 196.3 203.6 211.1 217.7 225.7 232.3 241.5 250.3 261.5 275.9 291.3 312.9 333.3 353 369.2 377.9 388.1 393.1 395.8 394 392.1 388.5 381.1 375.1 367.7 359 346.2 329.5 314.6 305.9 289.9 266.1 245 234.8 228.4 218.8 211.9 206.2 201.9 197.7 193.7 187.9 184.6 180.6 176.7 175.8 169.8 167.6 166.2 165 163.7 161.6 161.7 160.7 159.4 156.8 154.6 152.2 148.7 144.9 142.2 137.6 135.1 132.3 135.7 140.3 144.7 144 141.2 140.6 141.2 142.7 143.1 143.4 146 144.7 143.1 142.9 146.8 148.6 146.9 148.6 149.3 152.2 153.7 154.6 157 158.8 160.7 161.8 162.3 161.8 161.4 162 163.8 165.2 167.6 170.7 174.9 179.8 186 192.5 199.5 206.8 210.7 211.6 210.1 207.1 204.3 201.8 203.5 203.3 200 197.4 196.3 194.8 193.5 190.8 188.9 187.2 184.9 182 179.4 175.5 172.7 170.1 167.4 165.8 164.7 163.8 163 161.3 161 161 161.8 164.6 166.4 170 171.6 170.8 166.2 162 158.1 155.4 153.2 150.9 149.7 148.4
165.5 164.9 165.1 164.7 164.6 164.3 164.2 164.4 164.2 165.1 165.5 164.9 164.3 164 164.1 163.7 163.3 162.6 163.5 163.8 162.8 161.6 160.7 160.9 159.7 156.7 154.6 153.9 152.2 151 149.1 146.9 146.1 147.6 148.8 150 151.2 152.8 154.6 155.2 157 160 162.5 167.5 171.9 173.9 177.1 179.7 181.7 184 186.6 191.7 198.3 205.2 212.2 218.6 225 231 239.3 249.5 261.8 274.8 288.2 310.6 328.8 346 360 370.8 380.5 389.3 395.4 399.9 401.9 399 393.7 386.8 378.6 366.8 354.3 338.9 322.8 311.4 296.2 270.6 247.9 235.1 228.2 220.4 212.1 208.3 203.3 200.6 194.3 188.8 186.4 182.4 180.6 176.7 171.7 169.3 167.6 166.3 164.5 163.5 162.5 161.1 160.6 157.7 155.6 152.8 149.4 145.1 142.4 135.8 135.8 134.2 137 141 145.2 147.6 145.1 143.4 143 144.4 144.8 145.1 146.7 147 145.7 145.3 145.9 148.1 149.8 151.6 152.4 152.6 155.2 156.8 158.5 159.6 162.8 164.2 164.4 163.6 163.6 165.2 166.7 167.6 170.5 173.2 179.4 183.9 190.2 198.1 206.1 214 218.5 219.8 217.5 214.2 209.7 206.1 206.9 206.6 204.1 200.6 199.2 198.1 196.3 195.4 191.5 189.1 187.4 182.7 180.1 177.1 173.1 169.8 166.3 164.5 163.5 162.3 161.7 160.5 159.9 159.4 160.4 162.6 166.2 168.8 170 167.9 164.6 159.9 156.5 154.2 151.9 150.3 148.6 145.9
164.1 164 164.1 162.4 162.7 163.2 163.5 162.3 163.7 164.8 165.3 165.7 164.7 164.1 163.6 162.9 162.4 162.2 160.9 160.8 161 160.7 158.8 159.1 158.4 155.8 152.9 151.6 151.4 149.9 147.3 145.7 146.7 148.3 149.2 150.3 151.4 153 154.9 156.7 158.1 161 164.6 169.1 172.6 174.6 177 179.4 181.9 184.3 187.2 192 199 204.7 211.5 217.9 223.7 230.1 238 248.7 261.5 271.4 285.9 306.9 322.7 338.2 352.5 363.8 375.3 385 395.3 403.8 407 408.5 402.9 395.8 387.1 375.9 362.7 346.4 330.4 316.9 301.6 277.1 252.3 239.9 229.6 221.9 214.7 209 205.7 199.2 195.6 191.1 188.2 187.2 181.9 177 173.2 171.1 167.4 166 165.7 163.6 162 160.3 159.4 157.9 155.4 151.2 147.7 145.2 143.3 137.6 136.1 135.1 138.3 142.2 145.6 147.1 149.3 144.7 144.9 146.7 147.3 147.1 149.7 149.7 148.2 147.4 147.4 148.6 151.4 155.4 155.9 155.6 157.9 158.8 160.6 162.1 164.7 166.5 166.5 167.4 166.1 166.6 169.1 170.5 172.6 175.4 182 187.4 194.4 202.2 210.2 217.8 225 225.3 224.2 220.7 215 211.2 210.3 210.2 208.4 204.6 203.9 204.3 202.4 199.8 195.9 193.7 189.8 186.2 182.9 179 173.4 169.3 166.3 163.9 163 161.3 160.4 159.1 158.8 159.6 160.2 162.8 165.4 167.2 167.2 164.6 161.4 157.6 155.2 152.8 151.3 150.1 147.3 145.2
162.9 162.5 163.2 162.1 162.2 161.8 162.5 162.9 163.5 164.2 165 165.4 165.1 164.4 163.1 161.5 161.9 161.6 159.9 160.1 160.2 159.2 157.5 155.1 155 153.9 151.5 149.4 149.7 147.5 145.2 146.2 147.2 148.4 149.9 151.7 153.5 154.4 155.5 158.2 159.7 161.8 164.9 168.6 172.3 174.6 176.8 178.1 180.5 182.9 187.7 192.9 198.9 205.1 211.2 217.2 222.8 228.4 237 248.5 259.7 266.5 281.3 299.5 314.1 328 342.9 359.1 372.9 385.3 397.1 407.7 414 413.2 410.3 403.7 395.9 384.6 370.4 354.7 336.7 321.5 306.1 281.6 260.5 244.6 235.8 224.8 219 212.6 206.6 201.5 198.6 195.1 190.7 185.7 182.5 179 175.8 170.8 169 168.4 167.5 163.3 160.8 159.4 158.2 156.2 154.2 151 147.1 143.6 141 139.3 137.2 137.2 139.6 142.1 144.9 146.1 148.6 150.1 149.7 150.9 149.9 149 150.4 150.5 151 150.2 149.2 150.8 151.6 155.9 156.4 157.7 159 162.8 163.8 165.5 168.5 169.1 169.6 170.3 169.7 169.7 171.3 173 174.3 178.4 184.2 190.6 197.6 207.5 212.7 220.5 227.9 228 227.9 224.6 220.2 216.7 214.9 213.3 212.7 209.4 209 209.8 208.8 204.5 200.3 196.5 192.7 189.2 186.1 180.5 173.3 168.8 166.4 165.7 163.2 161.5 160 159.6 158.5 158.5 159.1 161.5 163.7 164.5 164.6 161.8 159.2 154.9 153 151.5 150.1 148.9 147.4 145.3
162.4 162 161.9 161.8 161.6 162.1 161.8 162.4 163.4 164.7 164.6 164.5 164.9 164.5 163.3 161.8 160.7 159.6 158.1 157.8 157.3 156 154.9 153.5 152.1 152 150.3 148.1 146.6 144.9 145.3 147.2 148.6 149.6 150.6 152.3 154.2 155.9 157.1 158.6 160.8 162.8 165.1 167.6 171.1 173.5 175.7 176.6 177.8 180.8 186.5 192 197.2 203.8 210.5 215.4 221.1 226.8 232.9 244.7 254.9 261.5 270.4 285.5 298.1 316 336.5 354.6 371.7 384.9 399.2 410.6 416.5 418.2 416.2 410.9 403.2 391.7 377.2 360.5 342.2 326.1 310.5 290.2 267.1 250.3 238.6 229.7 223.7 216.3 209.3 205.3 201.9 198.8 192.3 187.8 184.2 180.9 177 173.6 171.2 167.4 163.6 162.2 160 158.3 156 155.3 152.9 150.1 146.5 142.7 140 138.5 141.8 140.5 144.1 144.9 147.9 149 150.6 152.3 154.5 154 152.3 150.7 152.5 152.1 153.7 152.2 151.9 152.4 153.9 157.4 160 160.7 161.4 165.6 168.3 171.3 173 173.2 173.1 173.8 173.7 172.8 173.5 176.4 178.2 181.5 186.6 193.2 199.9 207 212.5 221.6 228.7 230 230.5 227.5 223.4 220.5 218.1 217.3 217.8 214.7 214.6 215.9 213.6 207.5 203.1 199 195.1 192 187.9 182 174.7 170 167.7 165.2 162.9 161.3 160.2 158.7 158.1 157.8 157.5 159.8 161.3 162.7 162 159.5 157.3 154.3 151.7 151.4 150.9 149.5 146.2 143.1
161.5 161.4 161.3 161.2 161.3 162.6 162.4 163.2 163.4 164.6 164.3 163.8 163.6 162.9 163.3 162.4 161 160.3 158.7 154.2 154.4 153.2 152.4 151.6 150.8 149.6 148.7 147.7 144.5 144.6 147.2 147.7 148.7 149.7 151.2 152.5 154.3 156.2 159 159.1 160.8 163.3 164.5 167.8 169.8 172 173.9 175 175.6 178.9 184.3 190.3 194.5 202.9 208.2 213.8 219.3 225 232 242.5 250.5 256.8 264.7 274.1 288.3 307.3 329.9 351 369.5 385.1 397.8 411.7 417.9 420.6 419.7 417.2 408.6 396.5 382.4 366.4 347.8 331.1 314.8 296.5 272.1 256.8 243.6 235.7 228 221.4 215.5 212 206.3 198.4 193.4 190.4 185.6 183.2 179.4 173.2 168.7 167 163.9 161 159.4 157.6 155.6 154.1 151.3 148.7 145.8 142.3 140.2 139.1 139.5 144.6 148.6 148.9 150.8 151.8 152 155.3 155.8 156.3 155.7 154.3 156.8 154.5 156.2 155.2 155.1 155.8 156.6 159.2 162.7 163.3 165.2 169 172.1 173.5 176.2 177.1 178 177.8 178 177.8 177.4 178.8 181.6 182.6 188.1 193.8 200.6 206.8 212.8 219.6 228.2 231.3 233.4 231.8 227 224.6 223.2 220.8 222 219.9 220.1 220.4 216.3 209.4 204.7 200.8 196.7 193.3 189.2 183.4 177 172.1 167.5 165.4 163.6 161.3 160.4 158.6 158.1 157.7 158 159.2 160.4 160.8 159.3 156.9 155.2 154.5 153 151.8 149.3 148 146 143
160.9 160.7 160.9 162 162 162.4 162.9 163.1 163.6 164.4 164.4 163.9 163 162.5 162.3 161.6 160.4 158.7 157.2 153.7 152.9 152 151.3 151.1 150.8 150.1 148.3 145.4 143 145.8 147.2 147.7 149.2 151.1 153 154.8 156.7 157.4 157.6 160 161.3 163 165.2 167.2 168.6 170 172.9 174.1 174.7 177.3 182.7 188.4 193.7 202 207.6 212.9 218.3 223.6 230.2 239.6 246.2 251.8 258.9 267 281.9 299.9 322.2 344.6 365.5 382.2 395.8 409.7 420.5 426.8 424.1 421.9 413.4 401.4 387 370.4 353.5 336.3 321.9 305.1 281.6 266 251.9 240.8 231.9 223.9 218.5 212.1 205.5 199.4 194.4 190.7 186.2 181.4 177.1 172.7 169.8 165.9 162.8 160 157.9 156.6 154.5 152.9 151.1 147.9 145.1 141.4 141.5 142.5 142.4 142.5 150.8 153.5 154.2 154.8 155.4 161.1 158.8 157.4 158.9 158.3 159.6 159.3 159.1 157.8 159.6 159.7 160.2 161.6 165.1 168.1 170.5 173.7 177.2 179.4 182.4 182.2 182.6 182.2 182.4 181.7 181.2 181.3 184.2 187 191.9 196.8 202.1 207.4 212.2 217.9 228.4 234.4 236.4 235.4 231.4 230.9 228.5 225.6 227 225.1 223.2 222.8 217.6 211.2 207 202.7 198.8 195.1 191.1 185.5 179.7 172.6 169.4 167 164.4 162.5 161 160 157.6 157.3 157.6 158 158.4 158.4 157 155.3 154.8 153.8 151.8 149.3 147.7 146 144.5 142.8
160.8 160.7 162.8 161.6 162.8 162.3 163.3 162.9 163.2 163 162.9 162.5 161.9 161.6 161.4 160.5 158.7 157.1 154.8 153.6 151.7 150.3 150.1 149.9 149 148.4 148 144.8 143.1 145.2 146.5 148.1 149.8 152.8 154.4 157.2 159.3 160 160.6 160.6 161.4 162.5 165.3 166.8 168.2 170.3 172.5 173.1 173.9 176.2 180.6 186 193.1 200.9 206 211.5 216.7 220.8 225.7 236.1 242.9 246.3 253.5 262 274.2 288.9 312.2 335.8 359.1 377.5 393.9 409.9 420.5 425.8 428.4 425 416.6 404.8 390.5 373.9 357.9 341.8 326.4 309.7 291.1 275.2 257.8 244.3 234 227.3 220.3 212.5 206.9 201.4 197.2 191.5 185.4 181 176.7 172.6 169.3 165.5 161.7 158.8 157 155.7 153.7 152.6 150.4 147.3 144.1 142 142.6 142.6 143.8 144.8 149.9 155.4 157.9 158.9 158.5 163.6 164.1 160.2 159.4 161.3 159.6 160.7 160.3 159.8 161.9 163.4 164.1 166.1 166.8 171.9 174.2 179.2 183.2 186.6 189.6 188.8 188.2 187.1 188.2 187.7 185.2 184.9 186.5 190.5 193.2 198.1 202.8 207 212.2 218.4 228.5 238.7 241.6 240.5 237.4 236.1 233.5 232.9 232.2 228.6 225 224.2 219.3 213.5 209.6 204.1 202.2 198.6 192.7 187.4 179.3 174.4 172.6 169.1 166.4 163.9 162.5 160.2 158.5 157 156.7 156.4 156 155.6 154.5 154.2 152.2 150.5 149.3 146.8 145.9 145.8 143.8 139.4
158.8 161.2 160 160.3 161.2 162.1 162.6 162.7 162.5 162 162.1 161.1 160.7 160.4 159.9 158.9 157.2 154.6 152.6 151.6 150.4 150.3 149.1 147.9 148.7 147.8 146.5 142.1 143.2 145.4 147.6 148.7 150.4 153.1 155.4 157.9 160.5 160.7 160.7 161.1 161.8 163.1 165.3 166.4 168.2 170 171.2 171.7 173.2 175.2 178.7 185.3 192.6 199.1 204.5 209.8 213.6 217.7 221.6 230.7 235.1 241 248.2 258 269.2 282.2 304.5 327.5 348.3 368.7 387.6 403.1 415 424.5 428.2 426.4 417.9 407.5 393.1 376.6 360.7 346 329.5 314 297.4 281.7 267.5 253.6 239.5 229.7 220.8 214.6 208.6 201.6 195.5 190.9 186 181.6 177.7 173.5 167.8 164.2 160.2 157.3 155.9 153.7 152 151.5 149.7 147.3 144.1 143 143.1 143.5 145.5 148 151.9 156.3 161.4 162.9 163.6 166.2 169.2 164.3 161.9 163.3 163.1 162.3 162.3 160.7 162.7 163 165.3 168.9 172.4 174.8 178.1 183.7 190.9 193.3 196.3 195.7 195.1 193.2 193.8 193.9 190.6 189 189.4 194.3 197 201.3 205.4 210.8 216.7 224.9 235.2 242.5 245.8 245.1 241.9 240.1 238 237.5 235.1 231.8 228.1 225.8 221 217.3 212.2 206.9 203.8 200.7 195.1 189.3 183.1 178.4 174.6 170.7 168.1 166 163.9 161.7 160.1 158.6 156.7 156.9 156.1 155.1 154.3 153.1 152.4 151.6 150.5 148.7 147.4 147.4 144.8 140.7
158.7 159.4 159 159.5 160.4 161.3 161.5 161.2 161.4 161.2 161.1 160.2 159.6 159.2 158.1 156.2 154.9 152 151 150.9 150.6 150.2 149.7 148.8 145.4 147.3 145.9 141.8 143.6 145.8 149.2 150.5 152.2 153.9 156.6 159.1 160.1 159.9 160.4 161.2 162.1 163.7 163.9 165.9 166.8 168.5 169.7 170.7 172.4 174.7 177.8 184.6 190.8 196 200.7 206.3 208 212.1 216.9 222.9 230.3 236.2 243.5 253.8 266 277.2 295.9 314.7 334.6 353.3 373.1 392 404.3 416.2 423.6 422.4 415.1 406.8 392.3 377.4 362.4 347.1 330.9 317.3 302 285.9 270.8 258.4 245.4 230 221.6 215 207.5 201.1 196 191.1 186.3 183 178.8 173.6 168.1 162.7 158.5 155.6 154 151.6 149.3 149.8 148.7 145.9 143.9 146.1 145.2 147.7 147.1 150.6 155.3 159.3 164.3 167.5 167.7 169.1 171.4 168.4 165.5 165.7 166.4 164.6 164.9 163.2 166.6 167.6 168 171.5 174.7 179.5 182.2 188.4 194.4 199 201.2 201.1 201 201 202 201.2 198 194.4 195 197.7 201.2 205.3 211.3 218.3 224.9 233.2 242.1 247.7 249.6 248.6 246.1 243.4 240.6 239.2 236.9 233.3 229.9 227.4 222.8 219.1 214.1 209.1 204.8 202.1 197.4 190.9 184.2 180.6 176.1 173.7 170.9 168 164.3 161.8 161.7 160.3 158.2 157.6 157.1 156.2 155.2 154.3 153.7 153.4 152.2 150.4 148.6 145.7 142.9 140.3
159 158.9 159.3 159 159.4 160.3 160.3 160.3 160.3 160.5 160.1 159.4 158.5 158.1 156.9 153.9 152.2 151.7 150.9 149.9 148.8 149.6 149.4 149.2 147.9 143.8 140.9 142.7 144.6 147 150.1 152.3 154.2 156.4 157.9 157.9 158.9 160.1 161.2 162.4 163.5 164.1 165.1 165.9 166.3 167.2 168.4 169.8 171.4 173.2 176.4 181.3 187.7 192.1 195.6 200.2 203.2 207.6 211 218 222.7 229.2 238.3 251.7 262.4 276.8 290.3 301.4 318.7 336.4 356.2 378.2 394.2 403.2 413.2 413.4 408.1 399.6 388.2 375.3 361.1 346.2 333.1 318.4 303.2 288 273.2 258.2 245.2 231.2 221.9 213.5 208.1 203 197.6 191 185.3 180.6 176.6 173.6 169.9 165.2 160.5 156.4 152.9 150.1 148.8 147.8 146.9 145.7 146.4 147.9 147.7 148.9 150.3 153.9 159.2 163.6 168.3 172.3 170.6 172.6 174.6 171.2 169.9 166.9 169.4 168.6 168.7 167.9 168.6 171.3 172.4 174.5 176.9 181.7 187.7 193.5 199.2 203 205.8 207.2 208.7 207.9 208.4 207.7 205.5 201.2 202.1 202.4 205.2 210.7 217.7 226 232.6 240.2 247.3 252.4 253.7 252.1 249.2 246.6 242.5 241 238.4 234.8 231.1 228.9 224.7 220.4 215.6 211 205.8 202.9 197.9 191.7 185.6 182.3 178.2 175.5 171.7 168.9 165.1 163 161.5 160.4 159.6 158.6 157.9 157.5 155.8 154.5 153.2 152.1 150.7 150 147.1 143.9 141.3 139
158.7 158.9 158.2 159 159.7 159.6 159.9 159.5 158.6 158.7 158.2 158.3 156.5 156.4 154.2 153.2 151.4 149.4 148.4 148.6 149.1 148.9 148.7 148.3 146.7 144.7 140.5 141.7 144.8 147.7 151.3 153.7 154.7 157.2 159.3 159.8 160 161.4 163 164.2 164.9 164.9 165.4 165.6 166.7 166.9 168.4 169.2 170.7 172.4 175 179.5 185.3 189.2 192.3 195.7 199.6 202.7 206.4 211.1 217.4 223.9 233.1 244.4 255.3 269.2 282.3 290.9 300.9 318.1 337.7 358.9 376.6 390.4 398.5 400 396.9 391.3 381.1 372.4 358.1 344.9 330.9 317.6 302.5 286.6 270.4 257.3 243.4 227.9 221.6 214.7 208.1 203.1 196.1 190 186.2 182.1 177.6 174.2 169.8 165.3 162.1 159.1 153.4 150 148.6 148.3 147.3 145.6 147.1 147.4 148 149.8 153.3 157.6 162.3 168.1 173 175.7 175.4 177.7 178.2 175.6 173.6 172.4 170.6 172 171.8 172.9 173 174.8 176.6 179.7 179.8 183.8 191.7 197.6 202.3 207.1 210.8 212.7 214.3 214.9 214.4 213.1 211.7 210.3 209.2 209.1 210.4 215.6 222 229.4 238.6 244.8 251.8 256.7 258.4 256.4 252.9 249.3 243.9 241.6 239.6 236.3 232.6 230.9 226.5 220.9 216.6 211.7 206.7 203.1 198 192.4 187 183 180 177.2 173.2 169.7 166.6 164.2 161.9 160.9 160.2 158.9 158.3 157.4 155.3 154 152.8 151.9 150 147.4 147.1 143.1 142.9 141.9
157.3 157.6 156.6 157.3 158.8 158.5 158.2 159.1 157.9 157.6 157.6 156.2 153.7 154.8 153.4 152.6 149.8 148.9 148.2 148.7 148.8 148.2 147.7 146.7 145.5 141.9 140.1 141.3 144.5 148.7 151.4 153.8 154.2 156.6 159.7 160.9 161.8 162.4 164.3 165.7 165.5 165 165.2 165.8 166.3 167.5 167.7 168.8 170.4 172 173.7 176.6 181.1 185.3 189.5 192.8 195 197.7 200 205.4 210.4 215.4 224.7 235.2 246.3 253.7 263.3 276 286 298.8 315.4 336.8 358.1 374.6 383.2 386.2 384.2 378.5 372 363.8 353.2 340.8 326.8 312.8 297.7 282.3 266.9 253.1 238.2 226 218.9 213.2 207.3 201.4 196.4 191.6 188.2 184.9 178.9 176.5 172.9 168.5 163.1 157.5 153.6 150.6 148.6 147.4 146.9 147.4 146.8 146.8 147.5 151.5 155.9 161.5 167.3 172.5 175.9 179.1 182.4 184.5 184 181.3 177.1 176.6 175.5 175.9 177.3 178 179.8 181 181.6 184.1 184.7 189.4 196.5 200.5 207.2 210.8 215.6 217.5 219.4 220 219.6 218.6 219.5 218.2 217 215.2 216 219.1 224 232.3 241.5 248.7 255.4 259.6 261.2 261.2 256.5 251.7 244.8 241.3 239.5 236.4 232.6 228.7 226.8 221.4 218 211.7 207 202.1 196.4 190.7 186.3 184.4 180.3 176.9 174.3 171 167.1 164.7 162.9 161.7 160.7 159.1 158.1 157.7 155.9 154.9 154 153.1 152.2 149.4 146.2 146.2 145.4 146.1
155.7 156 155.9 154.6 155.9 156.7 156.7 156.9 158.2 157.7 154.6 153.8 153.7 153.1 152.3 150.5 149.4 149.6 148.8 147.4 146.8 147.5 146.5 145.6 144.6 140.8 140 141.8 146.6 150 152.6 153.1 154.3 156.8 160.5 161.7 162.6 163.3 164.3 166 166 165.4 165.4 166 166.7 167.1 167.8 168.6 170.4 171.6 172.8 174 177.1 181.6 185.9 188.8 190.6 192.4 195.2 199.8 205.6 212.4 219.7 228.1 236.4 245.4 252.9 261.3 273.6 285.1 297 316.7 341.7 357.4 365.4 369.7 370.3 366 359.3 352.8 342.3 332.3 319.3 305 289.2 273.9 259.2 245.7 230.9 224.3 218.1 213 208.7 202 195.9 190.2 185.8 183 180.8 178.5 173 166.7 162.4 159.5 155 151.5 149.4 147.4 146.7 147.4 148.2 147 149.5 153.4 160.5 166.6 172 177.7 182.6 186.7 190.9 192.7 192.7 188.6 184.8 179.8 180.8 180.6 182 180.8 183.7 188 188 188.6 189.3 192.8 198.4 204.3 208.8 214.1 219 221.6 222.4 223.7 224.4 224 224.8 223.8 222.4 221.1 220.1 221.8 226.7 233.7 242.8 251.1 258.1 261.6 262.9 263.4 259.6 253.8 245.7 240.9 239.1 236 231.1 227.3 225.4 220.4 214.8 208.6 203.2 199 193 188.5 184.7 183 180.5 177.6 174.8 171.1 167.1 164.6 163.1 161.7 160.7 159.5 159 158.5 157.1 156.4 155.2 154.5 153.6 150.8 147.7 146.6 144.1 144.9
154 154.2 153.2 153.9 155.1 156.2 155.6 154.2 155.8 154.6 153.3 153.6 152 150.8 149.7 149.5 149.4 148.4 146.9 146.7 146 146.4 146.4 144 142.3 139.9 139.7 142.7 147.1 150 152.9 155 155.7 159.2 162.1 163.1 164.3 164.8 166.2 167.1 167.1 166.3 166.5 166.6 167.7 167.8 168.1 167.8 169.2 170.6 171.8 172.7 174.8 178.5 183.6 185.1 186.6 188.1 192 197.3 202.3 210 217 224.2 232.3 241.4 248.4 255.3 264.5 276.1 287.6 306.8 328.7 340.2 346.3 350.3 352 350.1 345.4 339.3 329.4 320.3 306.6 294.5 279.5 264.4 253.1 237.8 229.5 223.8 219.2 214.7 209.9 203.6 196.7 192 187.4 184.7 182.9 180.1 174.7 167.6 163.8 158.1 154.9 151.8 150.2 147.6 146.7 146.6 146.9 147.8 152.4 157.4 165.2 173 177.9 183.6 189.1 196 201.1 202.4 201.1 197.7 192.1 185.7 186.1 184.2 185.1 186.9 188.6 189.6 194.2 195.3 195.3 196.3 200.6 206.5 211.7 217.2 221.5 223.9 225.2 227 228.1 227.7 227.8 227.4 226.5 225.5 225.6 225.6 229.3 235.4 244.3 250.9 257.9 261.3 262.7 262.5 259.2 252.6 244.9 241.1 238.9 236.3 232.3 227.5 222.3 218.7 212.1 205 200.2 194.5 189.9 186.5 182.7 180.8 179.1 176 172.6 169.4 166.6 164.3 163.2 161.7 160.6 159.7 158.8 158.5 158.1 157.4 156.5 155.5 153 151.8 149.5 147.8 145.3 144.3
153.7 153.5 151.2 151.7 152.2 151.7 152.5 153.3 152.1 153.5 152.4 151.1 149.9 148.4 147.6 147.6 148 147.5 146.5 146.4 145.6 145.7 143.4 140.6 139.6 139.5 140.4 144.3 148.2 151.4 153.6 156 158.1 160.7 163.4 164.6 166 167.4 168.2 168.8 168 167.2 167.6 168.7 169 168.1 168.3 168.3 169.1 170.2 171.5 172.1 173.2 176.2 179.7 181.7 183 185.6 189 195.4 200.5 206.6 213.9 220.7 228.5 235.3 242.1 246.7 255.7 263.7 273.3 294.4 312.6 326 329.8 331.6 330.6 328.9 325.4 322.1 314.1 305.8 295.1 283.2 270.3 257.5 245.4 233.4 227.1 223.1 219.7 214.7 209.3 201.8 196.1 191.2 188 187.5 186 182 174.1 168.2 162.8 156.5 153.5 150.2 149.9 149.4 147.3 147.5 147.9 149.2 154.9 160.7 169.1 177.1 184.8 192.1 197.8 204 209 211.9 210.3 206.4 199.6 193.2 190.1 189 190.9 194.4 196.3 196.3 198.6 200.4 200.9 199.9 202.7 206.9 213 218.5 223 225.9 227.2 228.7 229.4 230.2 230.5 230.3 229.8 230.2 229.3 229.2 231.8 239.1 247 250.8 256.4 259.8 261.2 260 255.7 248.2 243.3 240.7 238.7 237 232 226.9 221.5 215.6 208.9 201.9 197.3 192.5 187.1 184 181.5 178.9 177.7 173.8 171.1 168.6 166.5 163.7 162.9 162.3 160.6 159.9 159.1 159 159.2 158.5 157.5 155.2 153.8 151.2 149 147.7 145.7 141.8
152.7 151.6 148.8 149.6 149.9 151 150.9 152.6 151.9 149.2 149.1 148.2 147.6 146.1 146.9 146.8 146.6 146.2 145.3 145.4 144.6 142.9 141 139.7 138.6 138.8 142.8 145 149.1 152 154.1 156.5 159.2 162.3 165.4 167.2 168 169.8 171.4 171.6 170.1 168.4 171.1 170.8 169.5 168.7 168.7 169.4 170.2 171.3 170.7 171.7 173.4 174.2 176.8 179 180.9 183.4 186.7 193.1 200.1 205.4 210.9 217.6 224.4 230.7 235.1 242.1 247.1 254.3 261.5 280.1 296 306.2 310.7 313.6 313.1 311.3 306.2 302.6 297.1 288.6 282.8 272.9 262.6 251.6 239 230 225.4 220.9 215.8 211.4 207 202.3 197.7 192.1 189.8 190.2 188.1 182.4 174.2 165.9 159.5 154.4 152 150.6 150.3 148.1 147.6 147.2 149.3 152.3 157.5 164.7 173.7 182.2 192.2 200.4 207.8 211.9 217.3 221.1 219.7 215.5 208.8 199.6 196.3 195.3 198 201.2 204.3 204.1 205.1 206 206.6 206.4 207.3 208.8 212.7 218.4 223.6 225.9 228.3 229.7 230.7 231.5 232.6 232.8 233.3 233.9 234.1 233.9 235.7 241.8 247.5 251 254.7 258.1 258.7 256.9 253 246.9 243.4 242.3 239.3 235.4 230.7 226.3 220.4 214.6 206.8 200.2 194 189.2 185.4 182.9 180.1 177.6 175.4 173.1 170.8 168.9 165.6 164.5 163.8 162.9 161.7 160.4 159.8 159.3 159.4 159 159 156 153.5 150.9 148.2 146.4 144.2 142.7
150.8 149.7 148.5 148.4 149 149.4 149.8 149.4 149.5 149 147.5 146.8 145.3 144.9 145.6 145.2 145.5 145.3 144.3 143.8 142.6 141 139.2 138.3 138.3 139.4 143.6 146.9 150 152.7 155 158.7 162.2 165.8 168.4 170.1 170.9 172.6 173.7 174.1 172.3 172.9 173.5 172.7 171.3 170.3 169.9 170.2 171.3 171.4 171.6 172.1 172.6 173.2 175.4 177.9 179.1 180.6 184.2 189.8 196.8 203.6 208 213.9 220.3 224.7 229.4 234.4 238.2 246.3 251.7 263 276.4 286.4 288.5 293.8 295.2 294.4 289.9 287.8 283.5 277.8 268.8 261.8 253.5 241.9 232.1 226.8 221.9 217.9 212.2 208.7 205.3 201.7 196.7 193 192.1 192.4 188.8 181.6 172.8 166.2 159.1 155.5 151.9 152.2 151.9 150 147.9 147.8 149.1 153 159.5 168.9 179.1 189 197.6 207 214.6 219.9 225.6 229.8 229.3 225 217.8 206.9 201.6 202.4 205.1 209 211.7 213.6 216 216.7 216.1 215 212 212 215.4 218.7 222.9 225.6 228.6 230.2 231.1 232 233.9 235.7 236.1 237.6 238.8 239.5 239.3 243.2 247.4 250.5 253.6 255.9 255.7 252.1 250.9 247 244.3 242 238.1 234.8 230.3 226.8 218.6 213.1 207.1 200.3 193.6 189.3 185.1 181.6 179.2 176.2 174.5 172.4 169.6 168 166 164.5 163.7 162.7 161.8 161.1 160.2 159.3 159.6 158.8 159.8 156.4 152.5 151 150.4 148.3 146.4 146.2
149.7 147.7 147.7 146.4 147.1 147.9 147.8 147.6 146.9 146.5 144.9 144.2 144.3 143.5 143.9 143.8 144.3 143.5 142.9 141.9 140.6 139.4 138.4 137.7 137.8 142.3 145.3 148.1 150.6 152.9 156.9 161.3 165.6 169 170.5 172.5 173.9 175.2 177.3 177.5 178.5 177.3 176.2 175.8 173.4 171.6 170.7 170.2 172 171.5 172 172.5 172.9 173.5 174.6 175.6 176.8 178.7 181.4 186.5 193.4 200.6 206.9 210.5 214.6 218.6 221.5 225.9 233.1 239.2 244.8 251.6 260.4 264.3 267.7 271 276.9 277.1 273.7 271.3 268.1 266.4 258.8 250.4 242.3 233.6 229.3 224.2 219.2 214 211.4 207 203.8 201.3 197.3 195.5 194.3 192.4 186.4 177.6 168.7 161.4 156.8 152.4 149.7 149.3 149.3 149 148.2 148.7 150.8 156.4 163.3 172.1 182.7 193.5 200.6 211.1 219.6 227.4 233.3 235.1 236 234.7 227.1 214.4 206.8 207.3 210.8 213.7 217.7 221.3 224.8 226.9 225.9 222.9 218.8 217.2 217.3 219.3 222.3 225.9 228.1 230.4 231.5 233.5 235.6 237 238.1 240 241.5 242.8 242.8 243.9 246.4 248.1 249.5 252.6 251 247.9 248.2 247.6 245.3 239.3 236.5 232.7 228.4 224.4 217.9 211.6 205.1 199.4 193.5 189 184.6 180.6 177.6 174.2 171.6 169.1 166.7 165.3 164.2 162.9 162.8 160.9 160.1 160.6 160.1 159.5 159.2 160.2 159.1 156.2 153.1 153.6 151.5 150 147.7 146.3
148.2 147.4 146.5 145.2 145.8 145.9 145.7 145.6 145.2 143.8 143.8 142 142.7 143.2 143.6 143.6 142.7 141.9 141.6 141 139.6 138.3 137.7 137.5 139.7 142.3 145.4 148.2 150.7 154.2 159.1 163.3 167.5 171.7 173.2 175 177.7 178.4 180.5 182.1 182.5 180.6 180.3 178.3 175 172.9 172.6 171.2 171.4 172.3 172.4 171.7 172.1 172.7 172.8 173.8 175.2 175.6 177.6 183.6 190.2 196.9 203.4 205.7 208.8 212.7 216 220 225.1 230.7 235.7 240.1 244 250.7 254.9 258.3 260.7 260 257.4 255.1 255.1 253.6 246.7 238 233.3 228.5 225 221.3 216.1 211.8 208.3 206.2 204.7 200.9 198.8 197.5 194.9 191 184.2 176.8 167.6 160 154.8 153.3 153 153.1 151.1 147.7 148.1 147.3 150.8 158 166.1 175.5 186.4 196.2 203 213.9 223.3 232 237.5 239 242.9 242.8 238.1 222.1 210.4 209.9 213.8 216.9 220.8 226.3 233.2 236.1 235.8 233.1 227.6 222.4 220.8 221.1 223.6 226.8 229 230.5 232.5 234.5 236.2 238 239.1 241.6 243.4 244.3 244.2 244.2 244.5 244.6 246.3 248.5 246.6 245 247.1 245.1 242.5 239.5 235.4 231.6 228.1 222.7 216.8 211.1 203.7 197.3 191.9 188.6 183.4 178.9 176.1 173.4 171 168.4 165.8 164.3 163.6 162 161.8 160.7 159.9 159.8 160 159.7 160.1 160.2 159 157.1 156.3 154.8 152 149.2 147.5 145.5
146.5 145.7 145.1 142.8 143.5 143.6 143.7 143.5 143.4 142.1 142.6 141 141.2 142.8 142.7 142.4 141.7 141.2 140.5 139.9 138.9 138.1 136.8 136.7 140.6 142 145.4 147.4 151.6 156.7 162.4 166.2 169.5 172.5 176.1 178.2 181.7 182.6 183.1 184.6 185.8 185.4 183.8 181.5 179.4 177.7 175.9 174.2 171.9 171.8 172.3 171 171.8 172.4 172.6 172.8 172.8 173.4 176 181.1 187 193 197.7 200.2 203.6 205.9 210.6 214.7 218 223.3 229.3 232 236.7 242.1 246.1 247.9 249.5 248.3 247.5 246.1 246.2 244 239.4 234.6 229.5 224.2 220.1 216.4 213.2 208.8 205.6 204 202.6 201.1 200.1 197 194.3 188.7 181.9 172.7 165.1 157.2 152.1 148.7 147.8 148.2 150.6 147.7 146.9 146 152.1 158.9 169.1 178.9 190 199.4 206.7 216.1 225.3 234.1 241 249.6 255 257.4 242.1 226.6 215.3 212.8 214.8 217 221.5 227.7 236 242.7 243.1 241.3 235.7 229.1 225.6 223.3 224.6 226.6 228.4 231 233 235.2 236.6 238.7 240.6 243.1 245 245.3 245.3 245.2 243.8 242.4 243.3 245.2 243.6 242.4 243.6 241.1 238.9 236.9 234.3 230.7 226.3 220.7 214.8 210.1 203.2 196.2 192 185.6 182.8 179.4 176.1 172.8 170.6 169.1 166.5 165.3 164.3 162.9 160.6 160.2 160.3 160.1 160.7 160.8 160 159.6 157.5 156.2 154.6 153.4 151.2 148.3 147.4 146.2
145.2 144.2 142.7 142.6 141.3 141.5 141.6 141 140.3 140.5 139.9 140.4 140.5 140.7 141.1 141.5 141.1 140.5 139.9 139.3 137 137.1 136.9 136.1 140.9 144.5 145.3 149.1 149.8 156.3 163.8 167.4 170 175 178.4 182 185.6 188 188.4 188.2 189 187.9 185.9 183.9 181.9 180.8 179.5 176.5 172.3 171.1 170.8 170.6 171.1 170.8 171.3 171.3 171.5 171.3 173.3 176.2 182.2 187.3 192.3 195.1 198.9 200.9 205.2 208.7 213.5 218.4 221.8 226.8 230.8 235.5 238.5 241 240.8 240.5 240.1 238.4 236.6 233.9 231.8 228.7 226.3 221.2 217 213.7 211.2 208.2 205 201.6 200.9 200.1 198.1 195.7 191.6 185.4 178 171 163 155.6 152 149.5 147.1 145.8 144.9 145.3 145.5 145.8 152.5 159.7 170.6 182.1 193.7 203.4 209.6 218.1 226.4 235.5 245.3 255.7 261.7 257.6 243.5 229.8 217.4 214.5 215.6 216.9 220.4 225.9 235.4 245.8 247.4 245.7 240.7 235.2 231.4 227.2 226.3 227.9 228.9 231.3 233.8 235.2 237.4 239.4 241.6 243.5 245.2 246.1 245.3 244.2 243.4 241.5 241.6 242.4 241.6 240.5 240.4 237.8 236.3 235.6 233.3 229.2 224.3 218 212.8 208.3 202.2 195 190.1 185.1 182.8 178.2 174.1 169.9 167.6 167.1 165.1 164 163.2 160.4 159.4 159.4 159.4 158.2 159.1 159.5 158.5 158.5 156.5 155 154.1 153 151.3 150.2 149 147.8
143.7 142.6 142.3 142.3 140.5 140.6 140.3 140.5 139.9 139.8 139.5 140 140 139.4 140.4 140.5 139.8 139.2 139.4 138.1 137.5 136.2 135.8 136 141.2 143.9 145.6 151.6 153.8 153.3 164.7 169.3 175.1 179.9 184.9 187.2 191.5 192.4 193.4 192.9 192.7 191.6 190.2 187.2 185 182.3 180 176.1 173.5 171.5 170.9 170.3 170 170.5 170.3 169.7 169.5 169.2 171.4 173.7 178.1 182.4 187.2 190.4 193.5 196.1 199.9 203.4 207.7 212.4 217.1 221.1 224.2 228.1 230.8 232.7 232.8 233.6 232.5 231.4 228.2 227.3 225.4 224 222.3 217.3 214.1 211.9 208.3 204.8 200.7 197.8 196.1 195.4 193.8 190.8 186.1 179.5 174.2 168.6 162 156.6 151.9 149.6 148.1 146.1 146.2 146.5 143.1 144.6 152.1 160.8 172.4 185.7 197 204.9 209.7 216.5 225.1 234.6 246 252.5 255.1 245.8 237.9 228 216.9 214.5 215.1 216.8 220.1 225.2 236.4 249.9 253.1 249.6 244.7 239.8 236.3 231.5 228.6 229.2 230 233 235.3 237.1 238.9 241 242.1 243.5 245.2 244.8 244.2 242.1 241.6 240.8 240 240 240.1 238.2 236.8 235.9 235 233.6 231.4 226.7 221.6 216.1 210.5 204.6 200.5 194.3 189.5 184.5 179.8 173.8 171.4 166.6 165.8 166 164.3 163 161.4 159.6 159 159.1 158.5 157.1 156.9 157 156.9 157.5 156.9 156.6 155.4 154.3 152.4 151.9 150.2 148.4
141.9 141.3 141.1 140.8 140 139.4 138.8 138.7 138.1 138.6 138.1 138.2 139.4 140.1 139.3 139.2 138 138.2 137.8 138.6 137.6 136.5 135.6 134.8 140.1 143.2 147.8 151.8 151 156.7 164.8 174.5 178.9 183.6 187.9 191.3 193.5 197 196.9 198.2 197.7 195.9 195.1 192.4 188.9 184.7 181.3 178.2 175.1 172.7 171.1 170.2 169.7 170.2 169.8 168.4 167.3 167.5 168.6 171.3 175.1 179.1 182.6 185.2 188.8 191.6 196.1 199.7 202.7 207.3 211.7 214.8 219.1 222.2 224.7 225.8 227.8 227.8 225.1 223.6 221.7 220.8 219.7 218.8 217.9 214.9 211.4 209.6 206.2 200.5 197.5 195.4 191.1 189.4 187.6 184.9 179.5 174.8 170.7 164.7 159.1 156.4 152.7 149.3 147.2 145.8 143.7 145 142.7 144.7 151.9 163.6 175.9 188.7 200.2 205.7 207.7 210.9 220.3 228.3 235.7 239.6 237.6 234.1 227.3 219.7 214.9 212.5 214.6 216.2 220.7 227.4 243.2 256.9 258 252 248.4 244.1 241.2 234.4 230.2 230.5 231.4 233.2 234.8 236.8 238.4 240.8 241.8 242.6 243.8 243.5 242.2 240.6 239.6 238.9 238.8 239.1 239.1 236.9 235.7 235 233.3 231.1 228.9 224.3 218.9 212.6 208.8 205 198.5 192.4 187.1 182.1 178.4 174.5 171.5 168.9 167.7 165.4 163.1 161.9 159.3 158.5 158 158.4 158.4 157.5 156.8 156.2 157 157.6 158.2 158.4 157 155.6 154.2 153.3 151.3 149.6
140.3 139.7 138.8 138.3 138.2 138.7 138 138 137.3 136.6 135.9 136 136.9 137 137.2 136.4 137.2 136.9 137.1 137.8 137.7 136.2 135.5 134.6 141.9 142.5 147.5 150.2 157.6 162.5 169.9 177.3 182.5 186.6 191.1 194.5 197.8 199.8 201 201.7 202 201.6 200.1 195.9 192.5 187.9 183.5 180.6 177 174.2 171.9 170.6 169.8 169.8 170.4 167 165.6 165.9 166.7 169.1 171.8 175.2 178.7 182.1 186.3 187.8 192 194.6 198.1 201.7 206.6 209.9 212.9 215.8 219 220.4 221.3 220.2 218.7 218.5 217.1 216.1 214.9 213.6 213.3 211.3 209.2 206.4 202.4 198.8 195.6 191 187.9 183.4 180.7 179.4 176 171.8 167.7 162.1 157.5 153.2 150.1 147.8 146.5 143.8 142.2 141.9 141.9 147.8 154.6 167.2 178.2 190 202.7 206.7 202.6 205.3 211.7 218 223.6 226.2 223.8 218.2 217.1 214.5 211.5 211.5 213.5 216.4 222.3 230.5 250.5 262 264.6 256.7 251.5 248.6 245.3 238.2 233.4 232.7 233.3 235.3 237.3 236.6 237.1 238.7 240.3 241.8 242.7 241.4 239.8 237.4 235.8 235.1 235.6 236.4 236.6 235.2 233.8 233 230.5 228.2 225.9 222.6 217.3 212.2 208.3 202.2 194.1 188.1 181.8 178.7 175.1 171.9 170.2 169.2 165.8 164 163.3 162.5 161.7 159.4 158.8 157.5 155.5 156.6 156.9 157.5 158 157.4 155.9 156.1 156 155.5 155.6 153.6 152.9 151.9
139.4 139 138.9 138 138.3 138.6 138.2 138.2 137.5 137.4 137.5 136.6 133.6 137 137.8 138.1 136.6 136.5 137 136.7 135.5 134.7 134.8 136.1 141.3 142.8 146.4 150.2 162.1 166.7 175.8 180.9 186.1 189.9 194 197.5 200.9 203.6 204.7 205.7 207.1 207.3 206 199.6 196.3 191.5 185.9 181.9 177.4 174.5 171.7 170.4 169 169.5 169.5 166 163.6 163.4 164.8 166.6 169.6 172.7 175.9 178.9 181.2 184.8 188.3 192.3 196.1 199 203 205.5 209.5 212.5 214.6 215.9 216.3 215.4 214.5 214.7 213 211.6 210.3 207.9 207.1 206.9 206 203.5 200.5 195.6 192.7 190.2 184.7 180.9 176.2 172.5 171.1 166.9 163.3 159.5 156.2 152.3 148.9 147 144.1 140.2 141.1 141.4 142.3 148.2 156.8 168.3 179.7 191.8 202.8 199.6 197.6 199.5 201.7 205.9 210.9 212.8 214 212.4 209.8 208.7 208.3 209.9 213 218.1 226.6 237.5 257.1 265.7 269.6 262.4 255.8 253.5 248.1 241.9 236.7 236.5 237.7 238.5 238.5 237.5 236.7 236.8 238.3 240.3 240.5 237.8 235.3 233.5 231.6 230.4 230.4 232.8 233 232.5 232.2 230.6 228.9 226.2 223.8 220.3 214.6 208.9 203.2 196.8 190.2 182.2 176.3 173.2 171.5 168.3 166 163.8 161.5 160.7 160.7 160.9 160.9 159.9 158.6 157.1 153.6 153.9 154.4 155 155.6 154.6 153.2 153.1 154.2 155.4 154.7 153.9 153.5 153.7
138 138.6 139.3 139.3 138.7 138.5 138 136.7 137.3 136.5 135.6 134.1 132.3 134.1 135.6 136.1 136.3 135.7 135.1 134.2 133.7 134 133.5 138.5 141 143 147.3 160.7 165.3 172.7 178.8 183.2 188.3 193.1 196.5 200.5 203.2 205.5 208.2 210.6 212.7 212.1 209.1 202.8 197.7 192.9 188.3 182.5 177.6 174.1 172 169.9 168 168.5 168.6 164.8 162 161.4 163.4 165.4 168.5 171.1 172.3 174.9 178.2 181.9 186.6 190.5 193.2 195.8 199.6 203 206.2 209.4 211.5 212.3 212.1 212 210.8 210.8 209 207.7 205.2 201.4 201.1 201.7 201.4 198.8 196.7 193.6 190.1 186.2 183.6 179.1 175.4 171.9 165.4 163 157.8 153.9 151.6 151.1 148.3 146 141.3 138.8 140.3 140.5 146.1 150.8 157.4 169.6 179.2 188.6 193.1 193 192.6 194.3 196.9 200.1 203.9 205.7 207.1 206 205.1 205.6 207 208.7 214.4 220.6 230.3 242 259.2 267.7 270.8 265.3 259.1 257.4 251.6 244.7 241.6 242.6 244 243.7 239.8 238.5 237.2 235.7 235.5 238 237.8 234.9 230.8 228.9 227.3 226.3 226.4 227.9 230.6 231.4 230.3 229.4 226.8 225.2 221.8 217.4 209.7 202.7 197.1 191.4 186.6 181.3 175.4 169.5 165.8 163.2 160.1 158 157.3 157.9 158.6 158.5 157.2 156.7 156.1 154.4 152.1 150.7 150.1 151.3 152 152.5 154 153 153.7 155.3 156.1 155.8 155.4 156.9
138.1 138.2 138.7 138.6 137.8 138.5 138.2 137.8 136.9 137.6 136.9 135.6 134.1 131.3 132 133.3 135.1 133.6 132.6 132.8 132 133.3 137.9 140.5 142.4 145.5 154.3 163.6 170.1 176.5 180.5 185.2 188.4 192.9 196.9 201.6 204.3 207.1 209.9 212 214 215.4 213 207.9 200.6 195.8 188.4 183.3 177.3 174.4 172.1 169.5 167.5 165.8 166.3 162.5 159.8 160.2 161.9 164.9 166.7 167.8 169 172.6 176 179.7 183.7 187 190.8 194.5 197.9 201.3 204.5 207.3 208.8 209.7 209.2 208.9 207.4 206.9 204.5 201.7 198.7 197.3 196.5 196.7 196.1 196.2 194.4 191.9 190 183.8 179 177.1 172.3 169.5 166.6 163.5 157 153 149.9 145.8 144 142.9 139.6 138 138 138.5 145.5 149.9 157.7 168.2 176.7 184.4 187.4 188.8 189 190.2 192.3 194 196.8 201 202.3 202.2 202.6 202.5 205.5 209 215.3 225.7 235.1 245.3 260.7 266.3 269.7 264.5 261.1 259.6 252.9 247.9 246.5 248.4 249.9 249.4 243.5 240.3 237.9 236 233.6 234.6 234.6 231.2 227.2 225.1 223.9 223.7 223.7 225.8 227.7 229.1 229 226.6 223.9 221.9 219.8 213.7 206.1 199.3 194.4 189.5 182.8 177.6 172.6 166.7 162.9 159.9 158.3 157.4 157.7 158.5 158.5 155.8 153.8 153.3 153.3 152.2 150.5 148.7 148 147.6 149.5 151.5 152.5 152.3 151.9 153.3 155.7 156.7 157.9 159.2
138.4 139 140.1 139.3 138.1 138.7 136.7 137 135.7 135.9 135.8 133.8 132.4 129.2 129.1 130.1 130.2 130.9 134.7 136.9 135.9 136.9 138.8 141.5 143.5 146.9 154.2 165.7 171.2 175.6 181 184.4 188.7 193.3 197.9 202.4 206.4 210 211.6 213.9 216.3 217.8 216.3 210.7 204.9 197.3 188.8 181.7 177.4 174.1 172.1 169.6 167.5 166.4 165.7 159.9 159.2 159.7 161.2 162.7 164 165.6 167.5 170.2 173.9 177.4 180.7 184.4 188.9 193.6 197.3 200 202.6 205.1 207.4 208.4 206.8 205.2 202.4 199.3 197 194.4 193.2 192 191.1 190.8 190.5 191.2 190.4 189.8 185.7 182.6 177.6 170.9 169.3 164.2 162.1 161.1 157.8 154.4 152.1 148.4 144.2 139.8 142 139.6 136.6 137.3 144.2 149.7 157.3 164.6 172.5 178.6 181.2 183.9 184.2 185.5 186.5 187.4 189.7 194.7 198.8 199.2 200.5 201.7 204.5 209.9 217.9 230 238.9 246.4 259.5 265.2 264.9 261.8 259.7 260.4 254.8 250.2 250.5 253.5 256 253.5 244.2 240.5 236.8 235 232.5 231.1 229.7 227 224.8 222.8 221.4 221.1 221.3 223.1 226.1 226.3 225 221.3 218.5 215.4 213.8 208.3 199.6 194.2 188.5 184.5 179.5 174.3 169.6 166 162.4 159.2 157.8 156.4 156.2 155.8 154.9 152.9 151.6 151.1 151.2 150.4 148.9 147.3 146.7 146.4 146.5 149.7 150 150.5 150.1 150.8 153.9 156.9 159 161.3
138.6 138.1 140.7 139.9 139 139.3 138.4 137 135.7 135.3 133.5 133.1 130.1 128.7 129.1 131.7 130.9 132.7 135.4 136.1 136.7 138 140 142.1 143.1 154.2 161.4 166.9 171 176.3 180.4 183.7 189.1 191.6 198.8 203 207.3 210.1 212.4 215.6 218 219.9 218.2 212 204.7 195.9 188.8 182.2 177.7 174.1 171.4 169.7 167.4 166.4 163.1 159.1 158.9 158.9 160.5 161.5 162.1 163.1 165 168.4 171.2 175.2 179.4 183.7 188.7 192.5 196.3 198.7 200.6 203.3 204.9 203.7 200.2 197.5 194.7 191.3 190 188.4 187.4 186.5 184.6 184.7 185.7 186 186.5 185.4 182.4 178.7 174.4 168 164.5 162.1 159 155.2 153.8 152.1 150.1 146.7 144.8 140.2 137.4 139.2 141.4 138.6 140.1 147.6 153.4 160.4 166.8 172.7 177.2 178.5 178.7 178.6 179.4 180.5 183.5 190.7 195.9 198.6 199.7 203.2 206.6 213.1 219.3 231.4 238.9 245.9 255.5 260.3 260.8 255.7 253.8 257.2 252.9 252.6 252.9 256.9 259.4 255.6 244.8 239.7 237.5 235.3 231.6 229.1 226.8 225.1 223.1 220.4 220.6 218.9 219.4 219.3 222.1 222.6 220.1 215.9 212.4 209.5 207.8 202.6 195.3 188.9 183.2 178 175.5 171.5 168.2 164.9 160.2 157 155.1 154 151.3 150.4 150.8 150.6 150 149.2 149.2 148.8 147.8 147.6 146.9 146.3 145.5 146 146.8 148.2 149.2 150.4 152.5 156.9 159.2 162.1
138.8 140.1 140.2 139.9 139.6 139.2 138.6 137.2 135.6 133.3 132.5 130.4 130.3 128.6 131.6 132.7 133.5 134.5 136.1 136.6 137.2 138.1 139.8 144.6 150.3 157.2 164.1 168.7 172.1 176.5 181.1 185.4 190.5 192.9 198.9 204.2 208.5 210.9 215.1 218.8 220.7 223.2 219.2 211.9 204.9 197.3 189.7 182.2 178 173.8 171.7 169.5 167.2 164 160.7 158.4 157.9 158.4 159.7 159.7 160.1 160.8 162.8 165.8 170.9 175.1 178.8 184.3 188.9 192.8 194.7 196.4 198 198.9 199.2 196 191.3 188.9 187.6 185.8 184.4 182.6 181.1 181.2 180 179.7 180.2 179.6 179.2 179.3 176.4 173.6 171.1 167.7 163 158.1 155.8 154.1 151.2 148.3 144.4 142.3 141.7 141.5 135.5 135.4 137.7 136.5 140.3 146.7 151.9 156.4 162.4 167.9 170.4 171 171.9 172.3 173.3 175.5 183 188.8 193.2 196.5 198.1 202.6 208.2 214.1 221 231.1 237.2 241 248.3 254.9 256.1 251.7 247.2 251.2 251.6 251.3 254 258.9 263.6 256 244.4 240 238.7 236 233.1 227.9 225.2 223.5 221.3 219.2 217.8 217 218 217.1 217.5 217 214.6 212.2 208 204.1 201.4 197.1 189.9 184.5 178.5 176.1 171.5 168.4 164 161.8 158.3 154.6 152.8 149.7 148.4 147.3 147.5 148.5 148.3 147.4 147.2 146.5 145.5 145.2 145.4 145 142.4 141.7 143.8 147.3 148.2 149.5 152.4 156.1 159.5 162.5
139.2 140.1 141.9 140 140.2 139.4 137.5 136.5 134.7 132.6 130.4 129.9 127.2 129.9 131.1 132 134.1 135.9 136.7 136.9 138 139.6 142.7 149.2 155.4 158.9 163.9 170.1 173.2 177.1 181.9 186.1 190.2 194.9 201.1 204.7 209.8 213.9 218.1 221.3 223.2 224 217.3 211.6 204.5 196.9 189.8 181.2 176 171.5 170.7 169.5 165.8 161.9 159.5 158.1 157.7 157.9 157.7 157.6 158.3 159.4 161.8 165.2 170.1 174.6 179.4 184.7 188 190.8 192.6 193.5 193.7 191.8 190.4 186.3 183.2 181.3 180.3 179.3 178.7 177.3 176.1 175.8 175.2 174.6 175.9 175.6 173.5 172.7 171.8 169.3 167.8 164.1 159.3 156.4 152.1 150.7 149.2 146.3 143.6 140.1 137.4 137.6 136.4 133.8 133.5 133.8 141.5 145.2 149.2 153.3 158.6 163.1 164.7 166.2 166.2 166.2 170.5 176.1 181.1 187.4 191.6 195.2 198.6 203 209.4 215.1 221.6 228.2 233.1 236.8 241.6 246 248.6 243.8 242.3 243.6 247.5 250.7 253.9 255.3 259.7 255.2 244.8 241.3 239.1 236.9 233.3 229.7 224.7 222.7 219.3 217.8 216.2 215.5 215.9 216.1 214.3 213.1 211 208.2 203.7 199.3 195.3 188.8 184.1 180.5 176.4 173.7 168.9 164.9 162.4 158.8 155.5 152.8 148.6 146.6 145.5 145.1 145.4 146.9 146.5 145.6 145.3 144.1 142.8 142.2 142.8 143.2 141.8 139.9 142.1 145.6 146.4 148.7 151.4 154.2 158.6 162
139.8 141.4 141 140.5 140.2 138.2 136.4 135.3 133.8 131.7 129.3 128 127.9 130.1 132.1 132.3 134 135 136.9 137.9 138.8 141.9 146.7 151 156.7 161.7 167.3 171.7 175 179.3 183.1 187.7 192.5 196.2 202.4 207.3 212.6 216.4 220.9 223.5 224.5 224.3 216.4 210.9 203.5 196.3 187.4 179.9 174.1 170.1 168.9 166.2 163.2 160.1 157.6 156.6 156.5 156.7 156.8 156.2 157 158.2 160.6 164.6 169.3 174.3 179.1 184.4 187.5 188.5 188.4 187.5 185.7 184.2 180.9 179.2 176.1 174.6 173.2 172.8 172.5 172.3 172 171.3 170.2 170.2 171.8 171.8 170.9 170.8 169.4 167.3 165.2 162.1 157.5 154 150.9 148.5 146.2 144.1 142 138.1 135.2 133.9 133.7 132 132.4 135.5 139.9 143.8 147.3 150.8 155 157.3 159.6 160.8 160.5 165.6 170.4 174.6 178.6 185.7 190.5 194.3 198.4 203.1 209 214.9 220.1 225.4 229.5 232.8 236.2 239 238.8 239.4 239.2 240.7 245.4 249.7 251 251.7 255.9 253.2 245.1 242.6 240.7 238.4 235.7 231.2 224.4 221.9 220 218 214.6 215 214.3 213.6 212 210.2 206.4 202.7 197.8 193.6 187 181.9 178.2 175.3 172.6 170.4 167.3 163.9 159.6 156.2 151.6 148.4 145.9 144.4 143.7 143.3 143.8 144.4 145.4 145.3 142.9 141.4 140.1 139.2 140 140.8 138.9 138.6 142.1 144.3 145.8 147 149.4 152 156.1 159
141.1 140.9 140.7 140.8 139.2 137.7 136.1 134.5 132.6 132.9 130 127.3 126.7 130.2 132.4 132.6 133.2 134.3 136 138.1 140.6 144 147.7 153.5 159.7 164.6 169.2 174.1 177.8 181.9 187.2 191.6 195.9 200.8 205.9 211 214.9 219.7 224.6 225.8 226.1 224.2 216.2 209.9 201.5 193.8 185 176.8 172.3 168.9 166.7 163.9 160.5 158.2 156.6 156.2 156.3 156.2 155.2 155.8 156.7 157.3 160.3 164.8 168.8 174.2 178.9 182.9 184.2 183.4 181.5 179.8 177.6 174.7 172.2 170.4 170.3 169.3 168.3 168.1 168.3 168.2 166.6 166.6 166.2 166 167.1 166.6 166.7 167.2 166 165.3 163.7 161.7 157.9 153.9 151.1 148.4 145 141.7 139.1 136.3 133.5 132.4 131.3 130.9 133.3 137.3 139.9 142.9 145.9 149.2 152.5 154.9 155.1 156.1 160 164 168.5 172.1 175.9 181.5 188.2 191.5 196.9 202.2 208.7 214.6 219.4 223.4 226.9 229.9 232.1 234.6 234.8 236 238.3 241.3 246.1 248.9 247.8 247.5 249.8 248 245.4 244.2 242.4 238.4 235.1 230.9 224.8 221 218.1 216.3 214 212.3 212.2 211.2 209.4 206.7 200.7 194 191.3 188.2 183.3 179 174.7 171.6 167.9 164.9 164.1 161.4 157.9 153.8 149.3 146.4 144.5 143.1 143 142.1 142.8 143.6 145.8 146 142.6 139.5 138.4 137.2 136.8 137.2 136.8 138.5 140.8 142.8 145.3 146.5 148.1 151 154.8 157.2
141.9 141.1 141.4 140.1 139.1 137.5 136.1 133.6 132.3 130.7 128.7 125.7 126.8 130.8 133 133.7 134.3 133.7 136 138.1 142.5 145.9 151.5 156.2 161.6 167 171.3 176.6 181.5 185.4 190.6 195.6 199.1 204.6 208.6 213.6 218.4 222.7 227.2 227.6 227.5 225.6 216.5 208.5 199.7 191 181.7 175.6 172.1 169 165.9 162.4 158.9 156.4 155.2 155.3 155.9 155.5 154.2 155.1 155.2 157 159.7 164.7 168.3 172.9 176.7 178.8 177.7 176.4 174.8 171.9 170.1 168 167.1 165.5 164 163.7 163.4 163.3 163.6 163.1 161.7 163 161.6 161 162.3 162.2 163.6 163.7 163.3 163.4 162.5 159.4 156.9 155 150.9 147.5 143.9 140.8 137.3 134.7 134.6 132.8 130.9 129.8 134 137.8 140.4 143.3 145.8 148.4 151 153 152.6 155.2 158.3 162.7 166 170 174.9 180.8 188.7 191.8 197.9 203.1 208.5 214.4 218.9 221.8 224.3 227.8 230.4 231.8 233.3 235.5 239.7 244 246.5 246.5 244.2 244.4 246 247.5 246.4 245.8 241.5 237 232.7 228.4 224.5 221.2 218.1 215.6 214.6 212.6 208.5 205.6 204.4 203.2 199.9 192.9 186.5 183.3 179.8 176.4 173 167.6 163 160.7 158.4 157.5 155.8 152.7 147.8 144.6 142.8 141.9 141 141.2 141.5 142.7 144.8 145.7 142.1 138.2 137.1 136 134.6 134.2 134.2 137.2 139.9 141.6 144.3 145.5 147.5 149.8 152.6 154.9
141.5 141.4 141.3 140 138.2 137.3 135.2 133.3 131.6 130.1 129.4 125 127.4 129.2 132.1 133.4 133.9 133.8 136.8 139.2 145.1 148 155 160.1 165.3 169.7 174.1 178.6 184.7 189.1 193.2 198.2 202.9 208.3 212.2 217.3 223.5 227.8 229.8 229 227.7 224.3 216.7 205.5 196.5 187.7 180.3 175.1 170.9 167.1 164.4 160.8 157 156 155.4 155.4 155.7 155.2 155 153.7 155.1 156.8 159.4 164 167.5 171.2 172.8 172 170.9 169.5 167.5 165.2 165.1 162.5 161.5 159.5 159.4 159 158.9 162.9 158.9 157.9 157.5 158.3 157.7 158.3 159.1 160.3 160.7 160.6 160.4 160.1 159.8 157 153.5 152.6 149.7 146.8 142.3 138.9 136 133.5 134.7 133.5 131.4 129.5 131.8 136.2 139.2 141.5 144.9 148.2 149.3 150.2 151.9 154.9 158.1 160.9 164 167.8 173.3 179.7 186.5 192.6 197.7 203 208 214.6 217.6 219.6 222.5 226.5 229.4 231.4 232.4 236 240 242.4 242.7 241.4 240.1 241.2 243.8 247.5 245.2 243.1 239 232.9 228.8 226.5 223.2 220.6 218 216.6 215.7 213.8 210.9 207 202.1 197.9 200 193 187.5 181.6 176.1 172.7 170.2 166.6 161.4 156.3 151.9 151.9 151.1 150.5 147.7 144.2 141.4 140.9 140.4 140.7 141.5 142.4 144.2 144.5 141.9 137.9 136.5 134.8 133.6 132.5 134.6 136.9 138.9 140.6 142.7 145.3 147.4 149.4 152 153.7
141.9 140.9 140.6 139.2 138.2 137 134.8 132.1 130.3 128.9 127.8 123.8 127.6 130.6 132.2 132.4 132.2 134.1 138.2 142.8 147.2 151.8 158 162.9 168.7 174.1 178.1 182.7 186.7 193.7 197.6 203.1 206.5 212.8 218.1 223.4 227.9 231.6 232.4 230.6 227 223.3 218.4 208 195.5 183.9 178 173.2 168.4 164.6 161.5 158.5 156 154.8 154 154.9 154.7 154.4 154.2 152.4 154.3 156.4 159.6 162.6 165.1 166.1 166.8 165.4 164.4 163.2 161.4 160.2 159.2 157.6 156.2 155 154.1 154.1 153.6 153.7 152.9 153.3 153.6 153.5 154.2 155.4 156.9 157.4 158.8 158.3 157.9 156.9 156.7 155 151.4 149.6 148.3 146.1 141.9 137.7 133.7 132.3 132.9 134.4 133.8 128.7 130.4 134.1 138.6 142.2 144.1 146.3 147.6 149.5 150.2 153.4 156.4 159.4 162.7 166.3 172.1 179.1 187.2 191.7 198 203.1 208.7 214.6 216.2 218 220.3 224.1 227.7 230.8 232.3 235.5 237.2 237.1 237.4 236.4 237 239.1 242.1 244.1 240.9 238.4 233.8 228.8 226.2 224 222 219.6 217.8 216.7 214.7 213.7 210.4 205.9 201.7 197.4 193.2 190.4 185.8 180.9 176.6 171.8 166.5 164.2 160.2 155.7 150.2 148.2 148 147.1 145.7 144.4 142.1 140.8 140.8 139.4 141.3 142.2 144.5 144.3 140.9 135.7 133.9 132.6 132.6 131.4 133.4 136.4 138.7 141.9 143.7 146.1 147.5 149.3 151.1 152.5
141.7 140.8 139.9 139 137.2 135.4 133.4 131.4 129.3 128.3 127 125 128.5 129.3 129.1 127.6 130 136.1 140.4 145.8 151 156.5 161.7 169 173.3 178.1 183.7 187.9 192.6 198.1 203 207 210.5 217.4 224.1 229.4 234 235.4 235.2 232.3 227.8 223 217.1 206.9 192.9 181 175.8 171.4 165.8 162.4 159.5 157 155 154.4 154 153.9 153.5 152 152.6 151.4 153.3 155.8 158.4 160.1 162.3 161.9 161.3 160.1 159.1 157.8 156 154.9 154 152.5 150.7 149.8 148.9 148.3 148.1 148.2 147.6 148.9 149.5 150.7 152 153.1 154.4 156.2 157.8 156.8 155.8 154.8 153.6 152.8 150.1 147.6 145.3 144.1 140.7 135.6 132.1 131.5 131.7 131.8 132.2 127.8 129.4 136.5 138.9 140.9 143.7 144.8 146.3 148.4 149.4 152.5 155.7 159.3 161.8 165.4 171.6 179.8 187.8 192.7 198.2 203.6 208.5 213.8 215.4 216.6 218.7 222.1 225.8 229.3 232.4 232.7 233.9 232.5 232.4 233.9 236.4 238.1 239.6 238.8 235.9 232.6 229.6 225.9 224 222.8 221 218.5 217.9 217 215.4 213 209.2 205.2 201.9 198.6 192.3 186 182.6 177.7 174.2 168.7 165.2 160.8 156.7 151.2 147.4 145.5 144.9 144.6 143.2 141.8 140.1 139.4 139.6 139.7 139.6 140.9 144.7 143.8 139.8 134.9 131.6 130.8 130.3 132.2 134.1 137.3 140.4 143 145 146.7 147.8 150 151.3 152
141.6 140.7 139.8 138.3 135.8 134.4 132.5 130.5 128 127.2 126.3 124 125.2 125.7 125 125.1 130.6 138.9 144 149.5 155.4 160.5 166.4 172.3 177.5 183.2 189.2 194.2 197.9 202.7 207.2 211.4 217.2 221.9 229.9 237.5 240.2 239.8 236.4 232.9 227.3 220.4 214 202.3 189.9 178.6 173 168.5 163.8 160.8 157.9 155.9 154 153.1 152.3 152.2 151.5 150.5 150.1 149.4 152.2 154.2 156.4 157 158.2 158.1 156.8 155.8 155.3 153.5 152.3 149.7 148 146.4 144.9 143.8 144 143.4 142.5 142.3 143.1 144.8 146.9 149.3 149.8 151.1 152.3 153.4 155.1 155.4 153.4 152.9 152 149.8 148.3 145.6 143.4 140.8 138.3 134.2 131.3 130.9 129.4 129 129.2 127.6 131 135.9 139.8 141.4 141.8 143 145.1 147.2 148.8 152.3 155.5 158.6 161.2 165.8 173.4 180 187 193.5 199.6 203.5 208.5 211.8 213.4 215.6 218.2 219.6 222.4 226.7 230.5 228.8 229.1 229.7 231.4 233.4 235.6 237.2 236.5 234.6 231.8 229.4 227.3 225.9 222.6 221.4 219.7 218.9 218.3 216.5 215.5 213.2 209.8 206.2 202.7 199.2 195.2 189.4 185.4 181.3 177 171.9 167.5 163.5 159.6 154.3 150.3 145.5 141.4 141.5 140.3 139.1 139.7 139.2 138.2 136.8 139.6 140.7 143.2 142.2 137.7 133.3 130.6 129.2 129 131.2 133.5 137.1 140.8 143.5 145.8 148 149.6 150.7 151.9 152.3
141.7 140.6 139.2 137.1 135.9 133.1 130.7 128.8 127.1 126.1 125 121.6 124.1 124.5 124.2 125.9 136 142.1 146.7 153 158.8 164.4 169.7 176.3 182.3 188.9 193.8 198.7 202.9 206.5 210.4 217.3 224.8 232.7 239.8 242.2 244.1 239.7 236 230.6 222.1 214.1 208.7 199.1 187.8 175.6 169.4 165.5 161.4 158.9 156.1 154.7 153 152.1 151.1 150.4 150.1 149.6 148.5 149.4 151 152.4 153.7 154.3 154.8 154.4 153.9 152.6 150 147.8 146.4 144.2 142.6 140.9 138.6 137.8 136.9 138.1 138.1 138.5 140.7 143.3 145.5 147.5 148.4 149.4 150.5 151.5 153.1 153.4 152.3 151.2 149.9 147.2 145.7 143.6 143.6 139.1 135.3 132.6 130.9 129.3 129.4 127 126.6 127.9 131.8 136.3 138.6 139.6 140.5 143 144.2 146.8 149.1 152.6 155.8 158.4 161.7 166.6 173.2 180 187.6 194.4 199.2 204.5 208.2 212.2 212.6 214.3 215.9 216.7 218.2 224 226.1 225.9 226.7 228.5 230.5 233.5 236 235.8 234.1 231.1 228.9 227.6 225.3 223.2 221.5 219.9 219 218.9 218.3 217.4 216.4 214.3 212 209.2 205.5 201.6 198.2 192.8 187.2 183.5 178.6 173.5 168.1 163.7 158.2 153.3 149.3 145.3 140.4 137.1 137.9 137.6 139 138.6 137.1 135.3 136.8 138.6 140.4 139.7 136 131.9 130.8 129.2 128.3 130.7 132.7 135.6 139.2 144.3 146.9 148.9 150 151.6 151.6 152.3
141.6 140.9 138.9 136.7 134.7 132.1 128.9 127.1 125.5 123.9 122.8 119.9 124 123.9 124.5 130.8 140 144.4 150.9 157.9 162.8 168.9 175 181.2 188.1 193.8 197.8 203.1 209.2 214.7 219.1 226.5 234.8 240.1 240.7 241.3 240.4 235.3 230.5 223.2 215.9 211 205.8 194.8 182.4 172.9 165.7 162.4 159.2 156.9 154.6 153.3 152 151.1 149.4 149.4 148.1 147.9 147.4 148.1 149.5 150.9 152.3 153.6 153 151.9 151 148.5 146.3 143.1 140.8 138.5 136.2 133.9 132.4 132.7 133 134 135.1 137.1 139.5 142.3 146.2 146.6 147 147.7 148.7 149.7 150.3 150 149.8 149.2 147.5 144.7 143.6 143.3 141.8 137.7 134.7 131.1 129.6 127.5 127 125.6 126.5 128.4 131.1 134.9 136.2 137.4 141.2 142.7 145 147.1 149.8 152.6 155.2 157.9 161 166.1 172.6 179.9 187.6 194.5 199.2 204.6 208.2 210.6 212.5 213.2 213.8 212.7 214.1 218.5 221.5 223.7 226.2 228.2 230.4 233.9 235.6 235.3 233.8 230.4 227.8 225.8 224 222.4 220.5 219.5 218.9 219.6 217.8 217.2 216.5 215.1 214.3 211.7 207.9 202.4 197.8 193.1 187.6 183.4 179.1 173.1 168.1 162.8 157.2 152.7 148.2 144.3 139.2 136.4 135 136.5 137.6 138 137 134.5 134 135.7 137.2 136.4 133.1 129.8 129.4 128.3 127.7 130 132.7 136.7 139.9 143.9 147.9 149.7 151.4 151.5 152 151
140.7 139.1 138 135.8 133.4 130.4 127.1 125.5 124 122.4 120.8 120 123.5 124.9 128.2 135.8 142.7 149.6 155.4 160.5 166.5 173.1 180.2 187.8 194.4 199.5 205.4 209.6 217 224.5 230.5 236.4 241.7 241.7 241.6 239.7 235.7 230.5 223.6 217.1 214 207.9 200.8 188.6 178.3 167.4 163.7 159.8 157.7 155.4 153.5 152.2 151.3 149.3 147.8 148 147.4 146.2 146 146.6 148.4 149.7 151.4 151.6 150.6 149.6 146.6 143.3 139.8 137.8 135.1 132.8 130.5 129.5 129.4 130.2 131.1 133.3 133.8 135.8 138.1 142 145.2 145.7 146.2 146.8 147.2 147.8 148 147.7 147.1 145.9 144.3 142.3 141.3 141 140.4 135.9 132.8 128.9 127.5 125.8 124.6 125.6 127 127.9 130.9 133.7 134.7 138.1 140.7 142.8 145.5 147.8 151.2 153.6 155.8 157.9 160.4 165.5 172.8 180.6 188 194.3 200.1 204.8 208.4 210.1 211.1 210.6 209.6 209 210.6 214.2 218.4 222.8 226.1 229.1 232 235.3 236.8 235.5 233 230.5 228.3 225.3 222.8 221 219.5 217.7 218.1 218.2 217.7 215.1 215.6 215.4 215 213.6 208.8 202.9 197.1 194.1 188.2 182.9 178.6 173.7 167.7 162.8 157.7 151.9 147.5 143.2 138.8 135.9 133.7 135 135.4 136.7 137.1 135.2 131.9 133.2 134 133.2 130.3 128.1 127.9 127.2 127.1 130.2 133.3 137.7 140.9 145.2 148.4 149.9 151.6 151.8 150.6 149.3
140.6 139.1 137.1 134.3 131.2 128.2 124.8 123.9 122.4 120.8 119.6 120.6 122.2 125.5 131.8 139.1 145.7 152.5 159.5 164.8 170.5 178 185.4 192.8 200.2 206 214.7 222 232.2 237.9 240.5 241.9 241 239.2 236 232.3 228.6 222.5 216.9 215.3 209.4 202.9 193.9 184.2 171.3 165.4 163.6 160.4 156.4 154.6 152.5 152.3 150.6 148 146.7 146.5 146.1 144.9 144.7 145.8 146.8 149.3 149.8 149.2 148.2 145.3 141.7 138.3 134.6 132.2 130.6 129.2 128 128 128.4 128.5 129.5 132.1 132.9 134.5 137 140.8 143.6 143.8 144.3 144.9 144.7 144.7 144.1 143.7 143.9 142 141 141.2 140.5 139.8 137.3 134.2 131.3 127.3 125.3 123 126.8 125.5 126 127.3 129.7 132.1 134.2 137 140.3 143.1 146.1 148 150.9 153.7 155.4 157 160 166.4 172.9 180.9 188.4 195.1 199.8 203.7 207.6 208.8 208 207.2 205.9 205.8 207.7 212.1 216.7 222.4 226 230.2 233.7 237.1 239.4 236.5 233.8 229.9 226.5 223.6 221.6 218.9 217.7 216.1 217.6 218.2 217.1 213.9 211.3 212.5 213.4 212.6 208.2 202.4 195.5 191.7 187.3 181.4 178.4 174 169 163 157.5 152.3 147.6 144.3 138.9 135.8 132.7 132.2 132.6 134.7 136.6 135.2 132.2 130.9 130.8 129.3 127.9 126.5 126.6 126.6 126.5 128.6 133.8 138.3 142.4 145.6 149.6 151.6 152.6 151.5 150.1 148.7
139.1 137.9 135.7 132 129.3 125.9 123 122.2 121.3 118.9 119.5 119.9 122.3 126.5 135.2 143.7 150.7 157.4 162.4 167.8 175.7 183.4 192.4 202.6 210.5 220.5 230 238.3 244 245.9 243.2 239.9 236.7 233.3 229.2 223.8 219.3 216.3 213.7 209.3 203.4 195.8 187.4 176.2 166.9 162.9 160.1 157.7 154.7 152.9 151.7 150.5 148.7 147.3 145.9 144.4 144 143.6 143.2 144.1 145.4 147.1 146.8 146.6 144.6 141 137.6 134.1 131.9 129.1 128.1 127.4 126.4 126.2 126.8 127.1 128.3 130.3 132.2 134.1 136.6 139.6 141.5 142.4 142.4 142.5 142.8 142 141.9 141.1 141 140.5 140.3 140.7 140.2 138.8 134.8 132.4 129.6 127.4 123.6 123.8 125.3 126.6 126.5 127.7 129.7 132.4 134.2 137.1 140.4 143.5 146.5 148.7 150.7 153.4 154.3 156.7 160 166.2 173.8 182.9 190.1 194.7 199.8 203.2 206.1 206.8 205.9 204 201.3 202.3 205.5 209.6 214.6 221.2 226.3 230.5 235.5 239.4 240.1 236.1 233.1 229.2 226 221.8 219.6 217.9 216.8 215.4 214.9 216.6 213.6 210.5 207.8 207.8 208.8 207.1 205 200 193.2 187.4 185.3 180.5 176.8 173.7 169.7 163.9 157.5 153.2 148.3 143.4 139.3 135.7 132.8 131.1 130.9 132 134.1 135.1 132.4 129.5 128.5 127.5 126.5 125.3 125.5 126.1 126.7 128.8 133.8 138.6 143.1 146.3 149.6 152 152.9 151.4 148.7 146.6
137.6 135.8 133.4 130 127.1 123.8 121.4 120 119.2 118.1 118.2 120.2 123.5 131 139.8 149.9 156.4 159.4 165.2 171.6 179.4 188.6 198.5 211.3 222.9 234.7 241.7 246.3 247 244.4 239.9 234.1 227.7 222.5 217.7 215.3 213.2 210.9 208.2 202.7 195.8 188.8 179.1 169.5 164 161.7 157.6 154.4 152.5 151.5 150.6 149.1 147.4 146.2 144.8 143.4 142.3 141.2 142.1 143 143.6 144.7 144.2 141.7 139.8 137 134 131.5 128.7 127.6 126.8 126.5 124.8 124.5 125.2 126.2 127.1 128.7 131.1 133.1 135.8 139.6 140.7 141 141.5 140.2 140.1 140.2 140.3 139.9 140.1 140.1 140.3 139.2 138.8 137 133.9 130.9 128.6 126.4 122.1 123.2 124.7 126.5 128.1 128.5 129.6 132.1 134.5 137.3 140.6 144.1 147.3 148.8 150.7 152.7 154 156.4 160.1 166.3 173.9 181.9 188 193.8 199.2 203.1 204.4 203.9 202.1 199.9 198.5 199.6 203.6 206.6 212.5 218.5 225.2 231.8 237.1 239.8 240.3 236.4 231.6 226.2 222.9 218.8 217.3 216.2 214.8 213.8 211.6 213.3 210.8 208 205.3 203.2 202.7 201.7 199.2 195.4 189.2 183.9 183.4 180.9 176.2 171.8 168.9 164.4 158.7 153.5 148.7 144.4 140.6 136.6 133.3 132.1 129.1 130 132 133.5 132.1 129.5 128.2 126.5 125 124.3 124.5 125.3 126.3 128.5 134.7 139.3 144.6 147.7 150.8 152.6 152.9 151.1 148.5 145.9
135.8 133.2 130.4 127.4 125 121.7 119.9 118.2 117.9 117.7 119.3 121.7 128.4 136.3 144.8 152 158.2 163.8 168.6 175.6 183.9 194.6 205.8 221.5 232.4 243 246.2 246.2 243.1 237.9 232.1 225.8 218.6 215.5 212.9 208.7 205.7 200.8 198.8 193.6 185.9 180.2 170.9 165.2 160.8 157.3 154.8 153 150.8 149.8 149.1 147.8 145.4 144.9 143.7 142.4 141.7 138.9 139.6 141.4 141.5 140.9 139.2 136.4 134.6 132.6 129.9 128.5 127.4 126.6 125.5 124.6 124.7 123.2 124.2 124.4 126 127.4 129.7 132.2 135.6 139 139 138.9 139 139.4 140.2 140.7 139.7 140 139.7 139.4 139.6 138.4 137.4 135.2 131.9 129.8 126.9 124.9 121.9 122.9 123.5 125.7 127.6 130.3 129.6 131.7 134.1 138 141.3 144.5 148.1 148.6 150.2 151.6 153.8 157.1 160.2 166.7 174.3 180 187.4 192.1 198.7 201.5 201.2 199.2 197.9 196.2 195.9 198.6 202.4 205.7 210.6 217.4 224.9 231.4 239.2 240.2 239.3 236 231.1 223.9 218.8 215.2 213.3 212.4 212.1 210.8 209.5 207.9 206 203.7 201.3 199 198.1 196.9 194.9 190.4 184.7 181.7 180.5 179.1 174.2 170.1 167.1 164.4 159.7 154.5 149.6 145.2 142.1 138.7 135.2 132.1 129.9 128.2 130.4 131.9 131.6 129.4 128.8 126 125 124 123.9 125.4 126.3 129 135.3 140.2 145.5 147.5 150.5 152 152 151.4 148.5 145.1
133.2 130.4 127.5 124.9 122.5 120.3 117.8 117 117.3 117.6 120.6 125.7 132.9 140.9 147.8 155.3 161.2 166.9 173.2 180.3 190.8 200.6 214.2 227.5 238.7 244.8 244 240 233.8 228.2 224.7 218.6 214.8 211.6 207.3 201.9 197 192.3 187 182 173.8 170.4 166.8 164 158.9 157.2 154.9 151.5 149.7 148.7 147.8 145.5 144.6 143.4 142.2 142 141.2 138.6 137.8 139.3 138 136.1 133.8 132.8 131.6 129.5 127.9 126.9 126.4 125.6 124.7 123.7 122.3 122.7 123.5 123.4 124.7 126.1 128.2 131.5 135 137.7 137.6 137.7 138 138.5 139.1 139.6 140 140.3 138.6 138.2 138.3 136.9 135 132.9 130.6 127.8 125 123.2 121.8 122.5 123.4 125.2 127.8 131.4 131.8 133.4 136.2 140.1 140 144.5 147.8 149.5 150.8 152 154.6 157.5 160.7 166.7 173.1 178.7 185.1 190.3 196.6 198 196.9 196.7 194.9 192.9 194.2 197.5 201 204.5 209.7 216.4 224.4 231.2 239.5 240.4 238 233.2 226.9 220.5 216.1 212.7 211 209 207.7 207.4 206.6 205.2 201.4 199.5 196.6 195.3 194 193 192 187.9 183.6 180.5 177.8 177.3 172.3 168 164.9 162.5 159.1 154.7 150 145.6 142.3 138.8 135.5 131.4 129.4 127.2 128 129 128.8 128.6 128.2 126.1 124.4 124 123.8 125.8 126.3 129.9 135 140.5 144.8 148.4 150.8 152 152.6 151.1 148.4 145
131.1 127.7 125 122.4 120.4 118.7 116.7 116.7 117.9 118.9 122.3 129.4 138.6 144.9 150.9 158 164.4 171.3 179.5 186 195.6 205.8 218.8 230.5 239.9 240.9 237.2 231.4 225.8 221.1 217.9 214.2 209.7 205.6 199.5 195.3 189.4 182.5 177 173.4 169.5 166.1 163.8 160 158.6 156.7 153.1 149.6 147.4 146.9 145.6 144 143.5 142 141.2 139.9 139.2 137.5 134.4 134.8 133.3 132.2 130.8 130.6 129.5 127.8 127 125.6 125 124.9 124 122.9 121.9 122.5 122.5 122.6 123.8 125 127 130.8 133.7 136.3 136.3 136.4 136.9 137.5 138.6 138.6 137.9 139.6 138.9 138.7 136.6 135.1 133.5 130.5 127.4 125.7 123.6 122.5 121.8 122.3 123.7 125 128.2 131 133.8 134.5 137.5 141.2 144 145.9 147.9 150.3 151.3 153.1 154.7 157.3 160.8 165.3 171.7 177.5 182.3 187.4 192.6 192.6 190.9 192.3 190.9 191.6 193.3 196 199.6 204.2 209.8 216.1 222.4 230.9 236.8 237.9 234.2 230 224.3 217.8 213.7 211.4 209.2 206.8 204.9 203.7 202.1 200.2 198.1 197.2 195.1 192.9 192 189.9 188.6 184.6 181.6 176.4 174.6 171.5 170.6 165.7 162.4 159.6 157 153.7 149.5 145.8 141.3 138.2 134.9 131 129.2 127.3 125 126.4 126.8 126.3 126.1 125.2 123.6 123.1 124.3 125.4 126.2 128.8 135 140.1 144.5 148 150.7 151.1 151.2 150.3 148.5 145.8
128.5 125.9 122.9 120.7 119 117.2 116.4 116.5 117.2 120.9 125.2 132.1 140.3 147.8 154.7 160.3 168.5 175.9 184 191.3 199.1 209.2 219.9 230.7 236.6 236.3 231.8 227.7 222.5 216.9 212.7 208.3 201.8 195.4 191 186.4 179.8 175.3 171.2 168.5 165.8 162.9 160.4 158.6 156.5 153.9 151.1 148.2 146.7 145 144.1 143.3 142 141.2 140.9 139.6 136 134.2 132 132.1 130.6 129.4 128.6 128.3 128.4 126.7 125.7 125 124.6 124.1 122.9 121.7 121 121.2 121.4 121.8 122.8 123.2 125.7 128.8 131.2 132.5 133 134.4 135.4 136.7 137.7 137.9 138.6 139.3 138.9 137.7 136 132.4 131 128.9 126.7 123.4 122.1 121.1 121.9 121.9 123.9 125.2 127.7 130.9 135.3 137.7 138.5 143 145.3 147.7 150.7 151.5 152.3 153 154.7 157 160.8 165.6 171.5 176 179.7 184 186.7 187.3 187.9 188.4 189.2 190.6 193.4 196.7 200.8 206 212.3 216.6 222 228.6 233.5 234.7 231 226.2 220.9 216 213.6 212.3 210.8 207.8 206.1 203.6 202 198.7 196.9 195.7 194.9 192.9 190.7 187.9 188.4 187.2 184.1 180.5 176.5 174.5 167.2 165.5 158.6 156.5 154.5 151.4 148 144.3 140.2 135.9 133.1 130.7 128.6 128.2 125.5 123.8 125.1 125.3 125.5 125.1 124.5 123.7 124.3 125.6 127 129.9 135.4 139.1 143 147 149.4 149.2 149.4 149.9 148.2 146.5
125.6 124.2 121.2 119.1 117.3 116.6 115.2 116.2 119.2 123.2 128.5 136.3 144.2 151.4 158 165.4 172.9 180.9 187 194 202 212.1 221.2 230.3 234.5 234.6 230.2 225.7 219 213.6 208 201.9 195.9 189.9 183.1 176.9 171.8 168.4 166.5 164.4 162.8 160.7 158.4 157.7 154.9 152.2 149.5 147.5 145.7 144.1 143 141.7 140.7 140.3 138.9 137.8 134.5 131.6 130.5 129.2 128.5 127.8 127.3 127.4 126.5 126.6 125.4 124.8 124.2 122.9 121.7 120.3 120.3 120.3 120.3 120.5 120.5 121.1 123.8 127 128.9 129.6 128.8 131.4 133.6 135.5 136 137.5 138.5 138.1 137 135.5 133.1 130 129.2 127.7 125.4 122.2 121.1 121.3 121.1 121.9 124 126 128.1 131.1 136 139.4 141.5 145.4 148.3 150.2 152.1 152.9 152.6 153.8 155.4 157.5 160.5 164.9 169.6 174.3 177.9 181.2 182.2 183.8 184.7 186.2 188.9 191.5 195 198.6 203.4 207.9 212.6 216.7 221.4 226.4 232.1 230.9 228.1 223.8 219 215.8 213.5 212.2 211.2 208.7 207.7 205.4 203 200.8 199.1 197 196.2 194.8 192.7 191.6 191.5 189.6 185.8 182.1 178.4 175.7 174 169.3 163.1 158.6 156.1 149.6 144.4 141.4 141.3 139.6 137.6 133.4 130.2 129 126.8 123.8 122.6 123.3 124 125.7 125 123 124.5 125.9 128.3 130.8 134.9 138.7 142.8 146.1 148 148.7 148.1 149.2 148.4 147.2
122.8 121.3 119.6 117.3 115.3 115.4 114.9 118.3 120.8 125.8 131.6 139.5 146.8 153.7 161.6 168.6 176.5 184.4 191.8 195.6 203.2 211.5 220.7 228.9 232.3 233.5 231.9 226.1 216.6 209.6 202.8 197 189.5 182.9 175.8 171.1 167 165.6 163.2 161 160.1 158 156.9 155.4 152.6 150.3 147.4 145.9 144.6 142.5 142.4 141.1 139.5 139.3 137.6 135.2 132.7 130.9 129.1 128.6 127.9 127.3 126.4 126.3 125.3 125.3 125.1 124.3 123 121.7 120.5 120.1 119.6 119.6 119.6 118.5 119 120 122.1 123.9 125.9 125.8 127.7 130.4 132.3 133.7 134.9 136.4 137.7 137.3 136 133.2 131.5 129.3 127.1 124.9 122.6 121.7 120.7 121.1 121 122.2 124.3 127.1 128.2 131.7 136 139.5 143.4 146.8 149.4 151.1 152.4 153.6 153.9 154.2 155.1 156.9 159.5 163.2 168.2 172.6 175.5 176.4 179.8 183.3 184.2 187.1 189.9 193.1 197 199.9 204.9 209 212.3 216.4 220.6 225 227.9 228.4 225.7 221.2 218.6 216.5 214.3 214 211.9 209.2 208.4 206.9 206.9 205.4 203.2 200.7 198.8 197.3 196.9 195.8 195 192.8 188.6 185.1 180.9 178 175.9 170.2 164.9 159.8 156.7 152.4 148.7 145.4 142.3 140.5 138.8 135.7 131.3 129.3 127.5 125.8 122.7 121.1 123.1 125.2 125.7 122 125.5 126.6 129.1 131.6 134.8 138.5 142.3 145.4 147 147.8 147.5 148.6 148.8 146.5
119.9 119.1 118 115.3 114 114.6 116.5 120 123.2 128.8 135.4 144 150.6 157.3 164.4 172.1 180.8 187.5 193 197.6 204.2 212 219.3 226.4 231.2 233.8 232.6 227.9 217.6 206.3 199.7 192.1 184.4 177.3 171.3 165.8 163.7 162.6 160.1 159.4 159.5 157.8 156.3 154.3 151 147.8 145.5 144.2 143.5 141.2 140.7 140.4 139.3 138.2 135.5 132 130.4 129.3 127.9 128.1 127.3 126.7 125.8 125.4 125 124.7 124.4 123.8 122.7 121.3 120.5 120 119.5 118.8 118.7 118 118.5 119.4 121.1 122.2 123.1 122.9 125.8 129 131.1 132.4 134.1 135.5 136.5 135.5 133.6 132.4 130 126.7 125.1 123 121.6 121.1 120.8 120.1 121.1 122.6 124.7 127.8 129.6 132.8 136.5 139.6 143.5 147 150.5 152.2 153.5 154.4 155.2 155.2 155.1 156.7 158.3 162.8 166.2 168.9 173.5 177 179.3 182.7 185.2 188.7 191.4 195.2 198.8 202.4 206.4 210.2 214.3 216.5 219.5 223 225 225.6 222.3 221.2 218.4 217.2 216.1 214.9 213.9 213.1 211.5 210.3 210.8 208.8 206.8 204.5 202.6 202.8 201.7 200.3 199 195.7 192.2 187.4 183.1 179.8 177 173.2 167.7 162 157.3 153.4 149.1 145.3 141.8 139.7 137.8 134.6 131.5 128.6 126.3 125.5 122.9 121 120.3 121.7 120.4 122.9 125.9 127.8 130 132.5 135.6 139.3 142 144.8 146.2 147 147.5 148.4 149.1 147.9
118.5 117.9 116.6 114.4 113.3 115.2 117.7 121.5 126.1 131.6 139.9 147.7 156 162.6 170.9 177.8 184.9 189.7 194.7 200.7 205.8 213.3 217.9 225.8 232.8 234.7 231.7 225.5 213.9 203.6 195.9 188.4 179.7 170.6 166.3 163 161.9 161.1 160.2 158.6 157.6 156 154.1 153.4 151.4 148.2 146.3 143.9 142.6 140.9 140.4 139.4 138.3 137 132.8 130.9 129.5 128.3 127.3 126.8 126 126.1 126 125.4 124.8 124.6 123.4 122.8 122.2 120.6 119.8 119.3 118.8 118.3 117.9 117.4 118 119 120.1 120.5 120.6 120.7 123.5 126.4 129.7 131.2 133.2 134.3 134.6 133.6 131 130.5 127.6 125.9 122.9 122 120.4 120.6 120.4 120.3 121.1 123.2 126.2 129.5 130.5 133.5 137.2 140 144.4 148.6 151.9 154.2 155.3 154.7 154.7 155.2 155.3 156.7 159.5 162.3 164.2 170.1 173.2 177.4 179.9 183.3 186.6 190 193.6 197.7 202.3 205.9 209 212.4 216.5 218.4 219.7 220.8 221.6 221.9 221.6 220.7 218.6 218.6 217.3 216.3 215.5 215.2 215.1 214.4 214.3 211.9 209.6 207 205.3 206.6 205.8 204.7 202.9 200.1 196.4 191.5 185.9 180.3 178.5 176.4 170.3 164.1 158.5 154.4 149.8 144.9 141.5 138.4 137.1 136.7 132.6 129.8 127 124.6 122.8 121.5 118.7 118.5 120.8 123.5 126.8 128.5 131.5 133.7 135.8 140.3 142.1 145.3 146.2 147.1 146.7 148.5 149 148.2
