ncols 200
nrows 82
xllcorner 320000
yllcorner 661650
cellsize 50
293.4 293.4 294.8 297.8 301.2 307 315.8 323.6 330.3 337.6 347.4 356.9 365.8 373 371.4 364.7 358.8 356.7 355.9 357 360.2 368.1 374.8 382.9 397.5 411.1 423.3 424.1 420.6 415.5 409.8 402 390.8 377.7 368.9 368.9 377.2 379 378.5 374.2 365 361.7 359.9 363 368.6 373.8 379.2 385.3 392.6 400.7 407.7 406.9 393.8 373.4 356.7 346.5 338.1 335.9 334.7 330.3 324.8 322.2 317 319.1 323.2 324.3 326.8 329.8 331.3 331.9 332.5 337.1 347.1 354.3 358.3 359 357.1 349.5 347.7 346.9 353.6 364 374 376.9 373.1 357.6 342.6 324.8 302.7 284.5 268 255.6 244.8 233.3 221.9 213.3 205.6 202.9 197.5 192.4 188.8 185.4 182.7 180.8 179.5 178.3 174.3 170.6 168.7 168.2 168.4 168.1 167.8 166.2 165.7 166.2 168.5 171 171.7 171.6 168.9 168.3 168.1 168 166.7 166.3 165.8 160.5 156 155.1 155.4 156 158 158.2 158.1 157.8 157 155.8 154.2 153.7 152.8 152.1 152.1 151.8 151.1 150.4 149.8 151.3 151.8 151.9 151.3 151.4 151.1 151.4 151.3 151.6 151.2 150.4 149.9 149.6 149.5 147.7 145.9 145.2 144.3 143.5 141.4 140.3 135.8 134.6 132.7 131.6 130.8 130.8 133.6 134.8 134 132.4 130.2 124.5 116.8 114.3 113.1 112.8 112.6 112.1 110.6 107.8 105.4 103.7 101.5 100.1 101 101.8 103 103.9 101.6 100.7 92 79.6
294.7 295.8 298.2 301.6 306.1 311.6 319.7 327.4 335.1 344.2 354.1 363.4 373.1 383.1 380.2 371.6 364.8 359.6 356.4 356.1 359.7 366.2 377.8 392.3 406.3 416.5 422.3 422.2 418.3 411.9 403.4 392.2 378.3 364.9 355.5 354.6 363.7 366.6 365.9 362.2 358.3 356 354.5 359.8 365 370.2 375.2 381 387 396.2 407 409.9 403.4 384.7 365.8 350.1 337.6 327.7 322.3 319.5 316.5 315.3 311.6 313.3 316.2 318.4 318.7 318.4 321.6 322.3 324.3 329.5 337.7 344.4 348.1 347.8 344.5 340.8 339.4 335.4 345.4 354.1 363.8 367 360.8 345.1 330.3 314.7 295.4 278.2 260.5 246.2 236 225 215.7 207.7 204.4 201.4 195.9 192 189.6 186.3 183.3 181.4 179.9 177.7 174.3 172.3 170.5 169.4 168.6 168.3 167.9 166.4 165.6 165.6 166.6 170 171.2 171.1 168.9 168 168 167.9 167.7 168 168.5 164.7 160.1 158.9 157.2 158 158.1 159.3 158.9 158.4 158 157.4 156.2 155.1 153.1 152.2 152.1 151.7 151.4 151.6 152.2 153 153.6 153.1 152.6 152.4 152.4 152.3 152.1 151.6 151.2 150.8 150.2 149.9 149 147.3 146 145.2 144.3 142.5 140.7 138.2 137.4 136.2 135 133.6 132.4 132.4 134.5 134.9 133.2 130.5 126.8 119.6 114.9 113.3 113.4 112.9 112.3 110.7 104.9 94.9 90.6 89.9 93 100.5 100.7 101.7 104.1 104.3 103 104 88.5 75.2
296.7 299.1 302.5 307.4 313.8 320 327 333.6 342.2 353.2 363.9 373.7 382.2 392.7 389 377.8 368.6 359.9 354.5 354.2 357.6 366.6 381.3 398.2 410.7 419.2 422.8 421.8 416.6 408.8 397.9 385.7 372.8 360.8 348.5 344.2 349.4 355.3 357.2 355.1 352.4 350 351.8 357.7 362.5 367.6 372.8 378.5 385.4 393.8 407.4 414.9 414.1 400.6 379.7 361.5 346.6 333.5 322.4 316.6 311.6 309.4 307.3 306.3 308.6 310.6 309.3 310.5 310.5 311.9 314.5 317 323 329.6 335.2 336.1 333.7 328.9 327.7 324.3 332.8 343.5 351.9 352.4 346.2 332.8 316 300.1 281.4 266.4 250.1 237.8 226.9 217.4 211.1 205.4 202.3 199.9 195 192.8 191.2 188.6 185 181.7 180.1 177.3 176.2 174.7 173 171.6 170.3 168.3 167.3 166.2 165.4 165.5 165.6 166.5 168.7 171.4 169.4 168.4 167.9 167.9 167.9 168.2 168.9 166.4 161.8 160 159.2 159.4 159.9 160.4 159.9 158.7 158.4 158 157 155.2 154 153.1 153.1 152.1 152.3 152.6 153.6 153.9 154 153.8 153.2 153.1 153 152.7 152.4 151.8 151.2 150.8 150.5 149.7 148.4 147.5 146.3 145.2 143.9 142.1 140.3 139 138.4 137.3 136.7 135.5 133.3 133.4 134.5 134.2 131.1 126.5 123.2 117.7 113.1 113.1 113.4 112.7 108.4 100.7 90.6 84 80.3 79.7 82.1 91.4 100.6 100.9 103.5 102.2 100.7 92.7 81.9 69.3
298.8 302.2 306.4 315 321.5 327.8 333.8 341.5 352.6 364 375.7 386 392.4 397.4 395 382.1 369.6 359.9 351.5 351.4 355 367.9 384.5 400.1 411.1 418.4 420.8 418.1 412.8 405.4 394.8 383.9 368.9 358.5 346.9 339.6 339.3 346.1 349.5 347.1 345 341 350.7 356.1 360.6 366.3 372.4 379.5 390.6 401.8 412.8 423.1 424.5 414.2 395.3 376.5 358.9 344.2 331.2 321.9 314.8 309.2 305.4 302.9 301.8 302.5 302.1 302.9 302.3 302.9 305 305.3 307.5 314.7 320.1 319.3 315.9 315.1 313.3 311.8 320.6 330.3 336.7 334.6 331.4 318.7 298.9 281.2 265.3 251.7 240.2 228.7 219.4 212.6 206 202.4 200.2 198.3 194.9 192.7 191.5 190.1 186.6 182.9 180.5 179.1 178 176.3 174.8 173.3 171.1 169.3 168.3 166.8 166.1 166.1 167.5 168.4 170.6 173.4 170.7 169.6 167.9 167.8 167.4 168 168.4 164.5 161.9 161.6 161.5 161.6 162.1 161.3 160 158.9 158.4 158 157.7 156.6 155.4 154.3 154.6 154.3 154 154.1 154.7 154.7 154.7 154.5 153.9 153.5 153.2 153 152.6 151.9 151.2 151.2 150.3 149.4 148.4 147.6 146.5 144.8 143.3 142.4 141.3 140.4 139.1 138.7 136.6 134.9 132.8 132.2 132.6 131.3 127.8 123.6 122.9 119.7 107.6 107.9 111.3 101.9 94 87.7 82 77.1 70.7 73.1 78 82.6 87.4 91 89 87.2 84.7 79.7 70.8 65
300 304 309.1 317 324.4 331.7 340.6 350.3 360.9 373.6 386.4 397.2 402 401.7 398.4 384.8 369.7 359.2 350.8 347 351.4 366.3 378.9 394.6 406.4 414.7 415.3 412.1 407.3 400.7 392.5 382.6 368.2 357.2 348.2 340.3 333.8 336 337 338.1 334.9 343.2 347.6 352.7 358.4 365.3 375.3 386.9 400 414.9 425.9 432.7 431.3 422 410.4 392.8 373.8 355.1 341 332 322.8 314.8 309.6 306.1 303 299.9 295.5 295.2 295.5 295.3 296.2 296 295.7 298.7 302.9 303.5 300.3 299.9 298.9 302 310.7 318.1 323.3 319.9 311.5 298.2 281.7 265.9 251.9 240 229.2 220.9 213 207 202.8 200.6 198.7 198 194.8 192.4 191 190 186.8 183.6 181.6 180.4 179.5 177.7 175.9 174 172.6 171.5 169.8 167.3 166.9 167.4 170.1 171.2 171.9 173.1 170.3 168.7 166.7 166.5 166.5 166.9 166.7 162.6 163.1 163.2 162.8 163.2 162.6 162.1 160.1 160.1 159 158.6 158.9 158 156.9 155.8 156.1 155.6 155.3 155.8 155.8 155.5 155.4 155.2 154.4 153.7 153.5 153 152.3 151.8 151.5 150.9 150.1 149.3 148.5 147.6 145.5 144.5 143.8 142.4 141.2 140.2 139.1 138.1 136.2 134.4 132.7 129.9 131.5 130.6 126.2 123.2 119.7 113.3 101.4 95.6 95.3 89.1 82.3 79 76.2 69.1 67.1 66.9 69.2 74.6 78.1 79.1 76.3 72.1 69.4 68.5 64.8 64.6
301.6 306.1 311.6 317.9 325.7 334.9 345.8 358 370 382.4 395.1 405.1 409.1 408.5 404.7 390.2 371.3 360.4 351.1 344.8 347.6 361.5 372 385.7 396.9 402.2 403.8 403 400.6 398.1 391.8 383.1 369.6 357.1 349.3 340.8 335.9 328.5 331.8 327.7 337.1 340.3 344.9 351 357.2 365.6 380.1 393.7 408.9 426.2 435.9 437.4 432.9 425.3 416.4 402.2 385 367.6 353.6 342.9 332.2 322.8 315.9 311.5 308.4 305.9 302.6 298.7 293.7 286.2 289.5 288.8 287.3 286.7 287.9 289.6 291.9 289.6 286 298 302.3 307.2 310.8 305 295.4 281.9 268 254.6 242 230.2 221.9 214.6 208.4 203.3 200.1 198.7 198.1 197.7 194.5 191.2 189.5 189 186.6 184.7 183 181.5 180.4 178.3 176.1 174.6 173.1 172.4 170.3 168 168.1 169.5 170.5 171.8 172.3 171.8 168.4 165.5 165 164.9 165.1 165.5 165.8 163.2 164.9 164.5 164 164 163.6 162.8 161.6 161.3 161.5 160.3 158.8 159.3 157.9 157.1 157.4 156.1 156 156.6 156.1 155.7 155.5 155 154.3 153.5 153.3 153.1 152.6 151.8 151.6 149.9 149.7 148.8 147.9 147.1 145.5 145.6 143.8 143 142 141.4 140.7 140.3 138.1 133.1 128.8 127.4 125.2 127 125.7 118 111 103.8 95.9 88.6 85.1 77.4 72.2 71.7 69.8 67.3 66 66.5 66.3 67 67.5 66.6 66.2 67 66.7 65.3 64.5 63.5
304.7 309 314.3 319.7 328.4 339.6 351.7 365 377.2 389.2 400.7 409.7 413.4 415.5 414.6 398.7 376.3 362.5 351.6 344 344.2 353.2 363.9 375.6 387.8 392.4 393.3 394.2 394.4 394.3 391 384.2 370.1 358.8 349.8 342 336.2 333.2 322.4 328.7 334.6 338.8 343.4 348.8 354.8 364.5 378.5 392.3 405.7 416.9 426 429.8 427.5 422.8 417 405.6 391.1 377.5 364.7 352.6 341.5 333.1 324.7 318.8 315.5 312 308.8 304.8 300.1 295.4 290.1 284.4 278 278.4 280 281.9 279.3 277.1 276.6 282.7 287.3 293 294.1 289.3 279.8 266.3 255.3 244.8 233.5 224.2 216.4 209 204.5 200.8 198.1 197.5 197.3 197.1 193.3 191.5 188.9 188.4 186.7 185.1 183.4 182.3 180.2 178 175.9 174.6 174.4 171.4 169.7 168.8 170.3 170.5 170.6 171.6 171.7 170.8 168 165.4 163.8 163.6 162.7 164.3 164.7 164.9 164.8 164.6 164.2 164 164 163.6 162.6 161.7 161.9 160.6 159.1 159.6 159 158.3 157.6 156.9 157 157.4 156.9 156 155.5 155 154.3 153.5 153 152.8 152.5 152 151 150 149.8 149.1 148.4 148.1 147.1 144.4 144.3 144.5 144 143.4 145.7 145.2 142.9 137.9 132.7 125.8 117.1 116.7 115.7 109.4 100.3 92.6 87.4 83.4 75.6 72.1 71.1 69.8 67.3 65.6 64.6 65.6 65.3 65.3 61.6 63.3 60.9 64.1 65.2 64.4 63.9 62.7
307.5 311.8 316 321.4 330.1 340.8 350.3 363.6 378.9 391.7 402.3 410.5 414.7 417.7 418.2 408.7 384.1 366.4 353.6 344.3 339.2 343.8 353.3 364.6 374.9 382.2 385.8 387.5 388.6 388.1 386.4 380.2 365.3 355 347.3 340.3 334.4 331.4 320 328.6 334.1 337.8 341.8 346.8 352 358.7 367.5 379.1 389.2 399.9 409.4 418 420.9 419.9 416.3 407.3 397.7 386.9 375.7 365.4 355.7 347.4 340.2 332.5 326.3 322.2 318.4 314 308 302.1 296.2 290.2 283.4 274.7 269.4 272.2 271.3 269.4 264.6 269.7 272.2 275.6 281.3 279.2 266.7 256.2 245.9 235.7 227 219.5 212 205.4 201 197.8 196.9 196.6 196.5 196.2 192.5 191.7 190.1 188.5 187 185.5 184.1 182.2 179.2 176.9 175.1 174.6 172.4 172.2 170.9 171.7 172.1 171.9 171.4 171.1 171.4 170.3 168.7 166.8 164.5 162.9 162.6 163.4 164.2 164.5 164.9 165.6 165.9 165.6 164.4 163.3 162.7 161.8 161.4 159.4 159.4 159.8 159.8 159 158.2 157.5 157.6 157.8 157.1 156.1 155.5 154.9 154.3 153.5 152.7 152.5 152.3 151.8 151 150.5 149.8 149.4 149.4 149.1 148.2 145.1 145.4 145.7 145.8 145.8 146.2 145.3 142.8 139.6 134.5 126.8 116.2 106.1 102.4 98 91.6 86.7 83.4 79 73.2 70.5 69.1 66.6 63.6 62.3 62.2 61.9 61.7 64.1 66 66.2 67.4 65 59.8 67.4 72.2 80.4
310.9 314.2 317.7 322.7 330.7 338.3 347.2 363.7 381 393.3 402.5 410.2 414.7 417.8 418.3 414.1 393.5 369.4 356.3 346 338 336.8 341.2 351.2 362.3 370.8 375.8 379.7 382 382.1 379.7 370.8 356.4 347.7 342.2 335.7 331.3 326.5 312.3 326 332.3 335.6 339 343.6 348.5 354.1 360.9 368.6 376.5 385.5 393.5 405.4 413.6 417.7 419.4 412.7 404.2 395.2 386.4 378.3 369.4 360.8 353.7 346.8 340.8 335 329.9 325.4 317.6 310.3 302.6 295.7 286.8 276.8 269.5 258.1 261.8 259.3 251.9 256 258.7 260.7 263.3 262.9 254.7 245.4 237.5 229.8 222.3 214.9 207.7 202 198.7 196.5 195.8 195.8 195.7 195.2 192.7 193.3 192.8 189 187.1 185.3 183.9 181.4 177.8 175.6 174.7 174.3 173.6 172.8 171.7 172.2 173 172.9 171.8 171 170.7 169.8 168.6 167.2 164.8 162.8 162.6 164.2 164.7 164.2 165.4 166.4 166.4 166.5 165.2 163.6 162.2 162 160.3 159.3 159.5 159.6 159.6 159.3 158.4 157.9 157.7 157.8 156.9 156.1 155 154.3 153.8 152.8 152.6 152.7 152.4 152.3 151.9 151 150.4 150.3 150.3 149.8 148.7 147 147 147.1 146.8 145.6 145.2 143.9 142.3 138.2 133.3 126.3 116.7 104.7 96 90.8 87.1 84.4 81.7 77.4 72.7 70 66.9 62.9 65.2 65 66.1 67.8 68.5 71.9 72.5 74.7 77.5 80.9 84.7 89.8 91.9 96.7
313.8 317 320.1 324.6 331.5 337.9 347.2 364.4 378.8 391.3 401.9 409.8 414.2 416.8 417.8 414.8 402.6 378.2 359.9 347.6 338 331.1 333.1 337.2 347.8 359.1 365.8 370.9 374.3 373.2 367.9 357.8 347.5 341.6 337.1 331.6 327.5 321.4 308.2 326.7 326.7 330.2 337.2 341.7 346.6 353.9 361.4 368.8 376.4 384.5 392.7 401.7 412.8 419.7 422.1 417.4 410.1 402.4 394 383.4 372.7 364.6 359.8 357.1 354.5 349.1 345.3 340.3 332.3 320.9 311 302.7 293.7 285.5 274 260.3 251 242 240.7 241.5 244.2 247.9 249.1 248.5 242.2 236.1 230.7 225.2 217.9 210.3 204.3 198.6 197 195.5 195.1 195 194.9 194.4 193.6 194.6 194.2 189.7 187 185.2 183.1 179.9 176.4 174.9 174.5 174.3 174.3 173.8 172.3 172.4 172.9 172.7 172 171.4 170.3 169.4 168.5 167.3 164.6 162.7 162.6 164.4 164.9 165 165 165.5 166.5 166.6 164.2 163.3 162.2 161.5 160.7 160.3 160.1 159.9 159.7 159 158.1 157.3 157.3 157.1 156.7 155.7 154.1 153.6 153.3 152.7 152.9 153 153.2 153.2 153.4 152.6 151.3 151.1 150.9 149.9 148.9 149.5 149.4 148.6 147.4 145.6 144.2 142.9 140.8 137.2 132.7 126.5 115.3 100.9 94.3 89.1 85.6 83.7 82.3 76.5 67.6 65.5 66 65.4 65.9 71.2 77.9 78.2 77.6 77.6 77.8 78.3 83.6 89.1 94.1 100.5 102.6 104.8
315.9 319.1 322.3 327.5 333.1 339 347.5 361.1 375.9 388.7 399.1 406.9 411.3 414.7 416.1 414.9 408.5 389.9 367.3 351 340.3 331.2 326.4 328.8 334.3 346.2 355.3 361.5 365.2 362.4 353.2 346.7 340.8 335.7 331.7 327.4 323.3 316.2 308.3 321.5 320.3 327.8 333 339.9 346 353.4 361.3 368.8 377.6 384.7 393.1 405 415.4 422 423.1 418.6 411.3 403.2 393.8 382.1 373.8 369.8 368.7 369.3 365.5 363.4 359.6 353.5 346 333.5 322.1 309.4 298.3 290.3 280.5 270.2 263.5 257.3 249.8 240.9 232.1 231.3 235.7 235.5 232.5 228.1 224.1 218.7 212.5 205.5 200.5 197.5 195.3 194.8 194.2 194 193.8 193.7 193.4 193.3 195.5 191 185.9 183.9 181.5 177.7 175.6 174.6 174.2 174.3 175 174.4 172.6 172.7 173.1 172.8 172.3 171.6 170.3 168.8 167.8 166.6 163.8 162.4 162.4 164.1 164.8 164.8 164.6 164.8 166 165.6 163.6 162.9 161.7 160.4 160.8 161 160.7 160 159.1 157.8 156.5 155.9 156 156.4 156.4 155.1 153.5 152.8 152.5 152.7 153.1 153.4 154.8 155.3 154.8 153.3 151.5 150.6 149.9 149.2 143.6 148.9 148.2 146.4 146.1 144.6 143.3 141.5 139.7 136.8 132.9 127.7 112.1 99.4 92.4 88.4 85.6 83.3 74.6 67.6 66.6 63.3 66.4 65.5 75 79.3 79.6 79.5 79 79.3 80.9 83.4 91.6 97.8 103.2 106.4 108.1 109.1
317.9 321.2 324.7 329.6 334.5 340.2 348.7 359.6 372.2 384.2 394.3 401.5 407.1 410.9 413.1 413.1 410.3 401.2 380.1 360 344.5 333.4 324.9 322.7 324.7 333.1 344.7 351 353.3 350.5 343.3 339.8 335.3 330.2 326.4 323.2 320.6 314.1 301.6 304.5 319.2 327.4 335.7 343.6 349.4 355.4 365.1 373.7 381.2 389.9 401.5 413 420.8 423.1 421.8 416.9 409.5 399.7 387.9 373.6 367.3 367.7 369.1 366.2 374.5 373.9 371.4 366.6 358.6 346.9 330.9 317 306.8 296.5 284.3 275.3 266.4 259.9 253.4 248.1 243.6 236.9 228.3 223 226.3 222.6 217.1 212.6 207.3 202.1 198.8 196.4 195 194.5 193.4 193.9 193.9 193.8 192.7 191.8 195.5 192.2 185.1 182.2 179.2 175.7 174.7 174.5 174.3 174.4 174.8 175.2 173.7 173.5 173.6 172.9 171.5 171.1 169.5 167.7 166.5 164.9 163.2 162.4 161.8 163 163 163.8 164 162.3 163.5 163.5 164.5 162.4 159.5 159 160 160.7 160.1 160.3 158.5 157.8 155.9 155.5 155.3 155.8 155.4 155.2 154.2 152.2 152 152.3 153.3 154.4 155.9 156.7 156.6 155.4 154 152.7 151.1 149.2 144 145.9 144.2 143.9 143.3 142.6 142.6 139.9 137.8 136 133.5 125.4 114.3 99.1 93.7 88 78.3 70.7 67.7 67.4 66.4 63.5 66.4 66.6 80.8 81.8 81.2 81.3 81.5 82.8 86.4 90.3 95.4 103.3 106.2 108.1 111.2 113.1
320.1 323.6 327.3 331.5 336.1 341.8 349.2 358.7 368.7 378.5 387.5 394.7 401.2 406.1 409.1 411.2 412 409.9 395.2 373 352.8 338.3 326.9 319.7 318.8 322.4 332.5 341.8 342.8 340.2 336.1 332.9 329.5 324.9 322.2 319.9 316.6 300.3 304.5 320 324.1 331.4 340.4 349 354.4 360.3 370.8 382.8 392.5 403.7 415.3 421.7 422.4 419.4 415.4 409.3 401.3 392.7 381.4 364.7 355.7 357.5 361.5 367.7 378 379.9 379 375.1 367.5 354.2 338.1 323.4 311.2 300.7 288.4 278.7 269.6 260.6 253.6 247.9 243.9 239.6 232.8 225.7 218.6 211 209.5 207.9 204.1 200.9 198.3 196.5 195 193.8 193.3 193.5 193.3 192.9 190.6 191.4 194.2 191.5 185.4 181.6 177.3 174.6 174.4 174.4 174.8 174.2 174 173.9 175 173.9 173.8 171.5 169.8 169.1 168.4 167.5 166 164.5 163.6 162.6 162.2 162.5 162.8 161.6 161.8 160.3 160.2 162.8 161.9 161.7 158.1 159.1 159.2 159.8 159.8 159.6 158.2 157.1 155.7 155.1 155 154.8 154.6 155 155.1 152.9 151.8 152.4 153.4 155.4 156.4 156.6 156.6 155.7 154.6 153.2 150.5 147.4 144.1 141.7 140.8 139.9 138.6 137.3 135.8 134.7 137 136.8 130 118 110.9 101.2 94.3 80.1 70.6 68.5 67.8 67.3 65.9 66.8 74.6 83.1 87.9 89.6 89.3 86.8 86.3 89.4 93.2 97.6 102.5 104.5 107.1 109.5 112.8 114.6
322.5 326.2 330.2 334.1 338.3 344.4 349.2 355.1 362.9 371.4 379.1 386.4 393 399.2 403.9 408.8 412.5 412.7 406.5 392.1 367.3 345.1 330.5 322 316.2 315.2 318.8 328.3 331.5 329.6 327.2 325.7 322.6 319.7 317.6 316.9 309.6 291.9 313.9 323.1 327.7 333.3 341 351.6 362.4 369.6 379.8 393.3 406 417.9 425.7 426.4 423.2 418.4 410.8 402.8 394.4 384.7 372.2 355.8 346 347.4 352.8 363 372.4 377.8 382.1 378.1 368.3 352.8 340.5 326.3 312.8 301.4 290.2 280.8 271.6 262.4 253.9 247.6 242.5 237.9 231.7 227.5 223.3 216.3 208.6 204.7 202.8 200.3 198.4 196.6 194.8 193.1 192.6 193.1 193 192.8 188.7 189.5 193.4 190.6 183.1 179.8 177.5 175.4 173.1 173.5 174.1 175.5 176.9 177.2 176.7 174.3 172.9 170.2 168.3 167.2 167.1 167 165.9 164 163.7 163.2 162.9 162.4 162.2 161.3 161 160.8 160.2 160.4 160.4 160.6 157.9 158.5 158.6 158.8 158.4 158.3 156.7 155.9 155.1 154.4 154.1 153.9 153.6 153.7 154.2 154.1 151.6 151.9 153.2 156.6 156.9 156.2 156.4 155.9 153.4 150.4 147.7 144.3 140.8 137.7 136.1 133.3 128.8 123.5 122.5 121.9 124.7 126.3 117.7 112.8 115.6 103.7 89.6 73.7 70.3 69.2 68.4 66.9 63.9 73.1 80.5 91.4 95.9 98.6 98.3 96.9 96.9 98.3 102.9 107.4 111.3 112.6 112.3 112.8 115.2 115.1
324.9 329.5 334.2 338 342 346.5 348.6 351 354.3 360.8 368.3 375.7 382.7 390 398.4 405.9 410.6 412 408.5 397.5 380 355.5 336.6 325.7 319.2 312.3 311.5 314.8 319.1 319.7 319.5 318.1 316 314.9 314.8 313.3 296.6 296.7 315.2 323.3 329.8 336.1 344.4 356.8 370.9 381.8 392.9 405.3 417.5 427.9 431.3 429.4 424.5 417.7 409.1 399.6 388 370.1 356.4 342.5 336.8 338.7 345.1 353.5 362.4 369.9 380 376.6 366.2 352 340 326.7 314 301.4 290.8 281 272.7 263.6 254.5 247.3 241.6 235.1 228.8 225.6 221.1 214.2 208.1 203.1 200.8 199.5 197.7 195.9 194.1 192.4 191.5 192.5 192.3 191.8 187.1 188.5 192.1 189 182 181.3 179.2 175.2 173.1 173.3 173.6 178.3 178.2 177.3 175.3 173.5 171.4 168.9 166.9 166 166 166 165.5 163.9 163.6 163.5 163.5 163.3 162.2 162.1 161.7 161.9 161.4 158 158.8 157.6 158 158 158 156.9 156.6 156.7 155.2 155 154.1 153.5 153 152.7 152.7 152.7 153.1 153.1 152.2 151.5 151.8 155.7 157.1 156.1 154.5 152.1 148.4 145.5 144 141.1 138.6 135.1 132.3 127.6 121.9 115.5 110.9 111.1 111.5 113.4 104.3 101.1 104.3 99.3 85 73.2 70.5 69.2 65.9 67.2 74.1 79.8 90.2 99.2 104.3 108.6 109.4 107.7 108.4 109.1 113.9 117.5 118.5 119.1 118.3 117.6 117.4 115.3
328.8 334.7 340.2 344.1 347.6 349.2 348.1 346.8 346.1 348.7 356.4 364.1 371.2 378.4 387.5 396.3 403 406.1 404.9 396.8 381.8 359.8 343 330.7 322.8 317.2 305.7 304.5 309.5 311.8 312.5 312 311.2 310.9 312.6 301.4 283.3 307.7 318.7 327.1 337.5 346.2 356 366.2 379.8 395 409.3 422.4 436 446.3 444.3 435.7 426.9 416.9 406.2 393.1 377.9 360.6 343 332 326.4 327.3 335.5 345.2 353.4 361.5 372.3 372.6 363.9 349.3 337.2 325 312.4 301.4 291.1 281.6 273.5 263.1 253.5 246.3 240.8 234.7 226.8 221.2 216.9 211.1 206.1 202.2 199.7 198.2 196.9 195.3 193.5 191.7 190.7 191.4 190.8 190.3 186.8 186.6 188.7 186 181.3 181.2 179.8 175.5 174.1 173.5 173.2 174.6 175.2 175.2 173.3 171.3 169.3 167.4 166 165.4 165.5 165.6 164.9 164.2 164 164.1 164.1 163.6 163.1 163 162.4 162 159.5 159.2 157.5 157.1 157.9 157.5 157.1 156.7 156.3 156.5 154.7 153.8 153.6 153 152.7 152.4 151.9 152.4 152.5 152.4 151.7 150.2 150.2 151.4 152.1 152.4 150.2 147 144.3 141.4 140.7 138.3 135.6 132.8 127.3 121.5 115.4 109.8 104.6 102.5 101.3 97.9 91.5 87.8 87.6 86.4 80.8 73 69.8 64.8 68.2 72.4 75.9 82.4 93 103.2 110.7 117.4 120.7 121.1 121.3 121.1 122.4 125.5 124.7 123 121.5 119.9 117.8 115.8
335.5 342.2 346 349.3 352.1 352.3 349.6 344.5 340.2 338 343.2 351.7 358.6 366 375.3 385.2 393.7 398.5 398 393.5 383 363.8 346.1 335.5 326.6 319.7 311.5 306.3 295.6 303.7 304.9 306.3 305.2 306.8 301.5 282 294.3 311 322.7 337.8 348.8 358.9 367 376.7 391.7 408.1 423.8 440.2 452.5 458.1 458 451.5 441.4 428.8 415.1 401.1 380.7 360.2 341.2 328.1 319.7 318.2 325.7 334.7 344.4 350.8 357.8 359.8 352.3 340.3 330.2 318.8 308.1 298.2 288.6 280.2 271.2 261.1 252.5 244.2 237.9 231.5 225.2 220 214.7 209.2 204.6 201.1 199 197.5 196.3 194.6 192.8 191.1 189.9 190.5 190.6 189.2 186.6 184.2 184.2 183.6 180.5 180.1 178.2 175.3 174.2 173.3 173.1 173.4 173.6 173.6 172.2 170.3 168.4 166.7 165.9 165.5 165.5 165.4 164.9 164.7 164.7 164.7 164.4 163.7 163.1 163.1 162.7 161.7 160.1 159.7 158.7 158.4 158 157.4 155.8 150.9 152 152.3 152.2 151.2 149.2 148.6 150.9 151.9 151.9 152.1 152.5 151.6 150.3 148.7 149 149.7 150.7 150.8 147.9 144.1 141.9 140.1 137.3 132.8 129.4 124.7 120.4 114.8 108.8 102.5 96.5 95.6 92.7 88.9 81.1 80.8 75.5 78.2 74.2 69.9 65.6 69.1 70.2 74.9 79.4 86 97.4 106.5 115.3 122.5 125.9 126.8 127 127.4 127.3 127.1 126.2 124.3 122 120 118.1 116.6
342 347.2 350.7 354.1 357.4 358 354.4 346.4 338.9 332.6 329.6 339.6 346.6 353.6 362.8 372.4 379.9 384.9 387.1 386.2 381.5 368.9 351 340.6 331.4 322.5 313.5 306.7 299.6 286.1 292.3 296.6 303.7 298.7 284.1 284.6 302.7 312.2 325.7 340.1 350.3 361.4 375.6 387.7 405.7 423.3 439.3 456.7 467.3 470.4 468 461 451.9 441.3 425.6 407.2 386.9 365.2 343.8 327.3 318.9 313.3 317.3 327.7 334.8 340.4 343.3 342.6 338.7 331.4 322.7 310.8 301.5 292.9 283.9 275.9 266.6 257.3 248.8 240.8 234 228 221.8 217.2 213 207.9 203.8 200.4 197.8 196.3 195.3 193.7 192.2 190.4 189.5 190 189.9 189.2 186.6 183.5 180.9 180.2 178.6 177.3 176 175.4 174.4 173.6 172.5 171.8 172.2 171.9 171.1 170 168 166.8 166.2 165.6 165.5 164.9 164.8 164.9 165.2 164.7 163.8 163 162.8 162.4 162.1 160.9 160 159.8 158.6 158.7 158.3 157.5 155.5 149.8 147.4 147.4 147.4 146.4 144.2 143.2 142.3 146.9 153.8 156.6 159.7 156.8 150.8 147.7 147.3 148.1 149.2 148.3 145.3 142.5 139.6 133.9 124.3 117.6 113.1 110.4 108 104 96.8 88.9 87.1 88.7 88.3 83.6 93.5 95.6 85.3 72.2 70 67.1 67.8 70 72.6 78.1 83.2 89.7 100.5 108 115.9 124.5 126.8 127.5 127.6 127.5 127.3 126.8 125.1 123.3 121.1 119.4 118.3 117.1
345.4 351.3 355.3 359.6 364.5 365.7 361.7 351.5 340.9 332.3 325.8 326.6 335.5 342.4 350.5 358.4 366.3 372.6 378 379.7 378.1 371.2 354 343.4 333.7 324.8 316.8 309.1 303.2 298.4 283.7 289.4 297.5 283.6 276.4 296.2 306.3 314.7 323.5 334.4 346.4 364.5 382.6 400.5 418.1 437.9 455.6 471 478.8 480.8 476.5 468.4 458.5 444.3 426.7 403.7 383 362.7 342.3 324.9 318 310 309.4 317.6 321.4 325.6 327.8 327.4 323.7 316.9 310 302.1 294.4 285.5 278 270.7 262 253 243.8 236 229.1 223 217.9 213.2 209.5 205.6 202.7 199.7 197.3 194.9 194 192.5 191 189.5 189 189.5 188.4 185.3 183.2 182.3 180 178.7 177.7 177.3 177 176.3 174.8 173.6 172.4 171.8 171.1 170.5 169.8 168.8 167.8 167.1 166.4 165.8 165.1 164.6 164.3 164.4 164.5 164 163.2 162.3 162 162 161.4 160.1 159.2 160.1 159.7 159.4 158.9 157.9 156 154.6 153.7 154.8 155.2 154.2 152.6 151.5 149 141.5 146.4 157.3 161 160.5 157.2 152.4 149.2 147.1 146 145.6 142.7 138.6 133.1 126.5 106.9 116.1 111.4 103.4 98.9 98.4 99.3 100.8 101.5 100.3 97.3 92 92.3 87.9 79.7 71.9 67.9 68.6 70.6 71.4 77 83.6 88 97.3 104.5 109.6 116.5 124.1 127.5 127.9 127.7 127.3 126.6 125 123.3 122 121.2 120.2 119.1 117.9
347.4 353.5 359.1 367.5 373.2 373.6 369 359.6 345.8 334.9 327 321.1 322.3 329.8 337 344.4 351.8 358.9 365.9 371.5 373.3 369.8 355.6 344.6 335 326.1 317.8 310.7 304 300.2 287.6 279.5 286.4 267.1 288.8 301.3 309.2 317.1 325.3 333.7 343.8 364.8 390.5 412.8 431.3 449.7 462.6 474.9 482.1 485 480.6 472.5 459.4 441.8 419.6 395.7 374.1 353.9 336.9 325.4 317.2 304.9 300.3 306.9 309.2 309.9 310.5 308.7 306.2 302.8 299.5 292.5 284.8 276.7 271.1 265.1 256.8 247.5 237.9 229.7 223.5 218.1 213.6 209.9 207 203.8 201 198.3 196.2 193.9 192.8 191.7 189.9 188.4 188.1 188.6 187 183.3 181.4 181 179.9 178.9 178.7 178.5 177.3 175.9 174.6 173.8 172.1 171.2 170.5 170.1 169.1 168.4 167.7 166.8 166.3 165.5 164.7 164.2 163.6 163.5 163.5 163.7 162.7 161.4 160.8 161.3 160 158 157.3 160 160.6 160.4 160 159 158.4 157.6 157.6 157.4 157.2 156.2 155.8 154.6 152.5 145.8 139.3 155.1 162.1 162.3 160.2 158.8 157.1 156 156.4 153.2 142.2 132.2 124 116.7 118.1 133.9 125.6 114.5 112.5 113.2 114 114.7 113.1 104.5 91.5 80.1 68.1 69.5 72.9 72.4 72.1 73.3 77.2 78.3 83.5 87.2 94.5 103.8 109.2 114.2 119.4 125.2 128.2 128.7 128.3 126.9 125.3 123.8 123.4 123.1 122.1 121.3 120.2 119.1
347.8 354.9 363.5 375.8 381.1 381.8 377 368.2 354.8 339.7 329.7 322.6 317.1 314.8 320.8 328.6 336 343.5 350.8 358.1 363.4 364.3 353.6 345.1 336.2 326.6 317.8 310.5 304.2 299.2 287.7 273.1 275.9 274.7 293.2 301.9 311.7 319.4 326.8 333.7 342 366.1 394 421.6 441.2 456 466.6 468.1 473.1 476.6 474.1 469.1 454.4 434.6 409.5 387.8 367.8 348.2 336.1 320.8 307.6 299.9 292.1 294.8 296.9 295.1 293.7 291.5 290.6 287.3 284.3 279 273.4 267.5 263.6 257.9 248.2 238.6 230.4 224.2 219 214.2 210.3 207.1 204.4 201.7 199 196.9 196 194.3 193.5 192.3 189.2 187.3 186.8 187.7 185.1 182.6 181.6 180.7 179.9 179.8 180 178.7 176.9 175.4 174 173.1 171.5 170.1 169.6 169.2 168.7 168.1 167.3 166.6 166 165.3 164.5 164 163.3 162.6 162.6 162.6 161.5 160 158.9 160.8 155.7 154.9 157.5 160.5 160.8 160.8 160.9 160.7 160.3 161.2 160.6 158.5 158.2 157.7 157.9 157.3 154.9 152.1 147.2 158.2 166.7 167.9 167.7 167.2 165.8 164.6 164.6 157.4 139.5 125 114.5 113.8 126.1 136.7 130.7 125.7 126.4 127.5 128.2 125.2 114.9 99.5 82.7 69.1 72.8 74.5 74.9 74.9 76.6 82.4 85 86.8 89 93.6 102.9 108.5 113.4 118.2 123.9 127.8 128.8 128.6 127.6 126 124.4 124.8 124.9 124.8 123.7 122.8 121.5 120.3
344.1 353.4 366.9 380.1 386.5 389.7 385.9 376.7 364.8 349.6 334.4 325.3 318.2 311.4 309 311.1 314.3 320.1 327.2 336.5 346.4 350.8 345.4 339.4 331.9 323.6 317 310.4 304.7 299.8 288.7 272.4 263.9 278.4 291.1 299.2 307.3 314 323.5 333.4 344.8 370 399 425.6 444.1 452.3 453.3 453.3 459.3 462.6 464.1 458.6 444.8 422.2 399.5 379.9 361.1 343.5 329.3 314.5 304.3 296.1 286.5 284.9 284.1 281.1 278.8 275.7 274.4 271.8 269.1 265.5 262.3 258 252.8 245.4 236.4 230.6 225.4 220.3 216.2 212.7 209 204.9 202.2 199.6 197.2 196.1 195 193.9 192.6 189.5 187.5 186.7 185.9 185.2 184 182.6 181.5 180.5 180.1 180.2 180 178.6 176.7 175 173.5 172.5 171 170 169.3 168.4 168.3 167.9 167.1 166.3 165.7 165.1 164.4 163.7 163 162.3 161.6 161 159.5 157.8 158.4 158.7 157.7 158.7 159.6 161 161.2 161.3 161.7 162 162.8 165.6 167.5 164.4 159.3 158.7 162.2 160.9 158 155.7 157.4 162.3 167.8 168.6 167.9 167.1 166.4 165 159.2 146.2 130.2 117.6 118.1 127.6 137.3 139.5 136.2 134.5 133.3 131.4 130.5 128.8 119.7 102.9 84.5 70 73.6 75 76.6 77.1 81.8 85.4 87.4 90.5 94.5 102.5 109.1 114 118.5 124.7 128.6 129 128.7 128.2 127 125.5 125.5 126.2 126.7 126.4 125.3 124.1 122.7 121.4
336.7 350.4 365.6 379.1 387 391 389.2 383.4 374.1 361.8 346.8 331.7 322.9 315.2 307.6 303.9 303.2 304.8 306.2 309 321.9 332.9 335.5 330.1 325.2 316.9 311.3 306.9 303.7 299.8 294.9 282.3 259.7 274.3 285.1 293.3 300.9 311.2 328.1 343.6 356.5 378.4 402.1 425.6 438.6 441.3 435.5 429.1 440.4 446.9 446.4 441.6 430.2 411.4 392.7 374.7 357.6 340.5 326 313.3 304.2 295.3 287.6 277.1 274.3 274 269.2 263.7 261.3 258.1 254.4 252.5 249.9 245.2 239 233.2 228.3 224.7 219.8 216.2 213.2 209.7 206.7 203.2 200.5 198 196.4 195.2 194 192.3 190.5 189 188.5 187.7 187.1 187 184.9 182.8 181.3 180.4 179.9 179 179.1 179.2 177.3 174.7 173.1 171.8 170.8 170.1 169.6 168.5 168.3 167.8 166.7 165.8 165.4 164.6 164 163.6 162.6 161.6 160.7 159.9 160 160.2 161 160.6 159.9 160.1 161.4 162.3 163 163.5 163.4 164.2 165.1 166.9 167.7 168.9 165.4 161.9 165.1 164 162.3 162.8 165.1 166.4 167.2 167.3 166.3 165.4 162.1 156.5 141.3 129.3 119.9 121.5 131.6 140.1 142.1 141.2 138.4 135.1 133.2 131.4 129.4 129 125.7 110.5 90.1 69.4 73.7 75.3 76.9 79.3 86 90.7 95.3 99.8 103.1 107.5 113.5 119.5 125.2 129.1 129.5 129.1 128.5 127.8 126.4 125.8 127.1 128.1 128.9 128 126.4 124.9 123.6 122.4
325.1 339.5 358.4 371.6 380.4 386.9 386.5 382.9 377.5 369.8 358.3 344.4 332.3 322.5 314.1 306.8 297.8 295.2 296.4 297 301.3 316 321.1 319 314.8 308.7 303.8 301.6 299 297.6 295 284.9 265.6 264.8 278.6 286.2 302.9 322.2 344.2 356.7 369.3 390.5 407.8 422.7 432.9 427.5 413.1 400.1 411.9 422.7 425.2 423.2 415.6 406.6 390.3 374.2 357.8 343.6 330.9 321.6 310.5 300 292.6 284.2 275.2 265.9 261.5 258.2 252.8 247.4 243.2 240.9 237.4 233.7 229.5 224.6 220.4 216.8 213 210.4 208.1 206.2 203.9 201.8 199.7 197.8 196.1 194.4 192.9 191.6 190.2 189.7 189.3 188.4 189.2 189.7 186.7 182.8 181.2 180.9 181.7 179.5 177.7 178.3 176.9 174.9 173 171.8 171.2 170.5 169.9 169 168.4 167.6 166.4 165.6 165.1 164.4 163.8 163.1 162.3 161.7 162.1 162.2 162.8 162.6 161.6 161.4 161.3 160.7 161.7 162.4 163 163.9 164.8 166.8 167.1 166.9 166.6 167.5 167.5 165.1 165.8 165.3 166.8 168.9 168.1 167.5 166.4 165.6 164.6 162.8 154.2 148.4 138.3 125 122.9 131.4 140.8 142.7 142.2 141.1 138.1 134.9 132.9 131.1 129.4 125.9 118.5 113.5 99.1 79.7 73.8 75.7 78 80.7 91.9 98.4 102.6 109.3 110.8 111.3 115.7 123.5 126.8 128.4 128.7 128.4 128.3 127.4 126.3 126.9 128.9 130.3 130.3 129 127.2 125.5 124.3 123.1
311.3 325.5 340.5 355.2 361.5 378.1 382.7 382.7 382.1 377.4 370.6 359.8 347 334.6 323.9 314.8 303.4 294.5 286.3 286.7 286.3 299.3 308.6 306.9 304 300.7 298.2 296.4 295.3 294.9 293 284.5 271.2 253 271.6 280.9 307.1 334.2 349.5 369 382.8 398.3 411.4 415.9 416.3 407.8 389.5 375.9 387.1 399.5 402.7 403.4 402.8 398.1 385.3 375.7 363 350.5 340.1 330.6 320.7 311.1 302 291.4 284.3 277.7 271.1 262.5 255.8 249.2 244.9 240.4 234.6 229.2 225.9 221.6 217.8 214.3 210.8 208.1 206.5 204.6 202.3 200.9 199.1 197.7 195.9 194.3 193 191.9 190.4 189.5 189 188.9 190 190 185.6 182.8 182 181.3 181.1 179.2 177 176.3 175.3 174 172.7 171.8 171.3 170.7 170.1 169.2 168.3 167.6 166.5 165.6 164.8 164.2 163.6 163 162.9 162.9 163.4 164.1 164.5 164 162.2 161.2 160.4 161.1 161.4 161.9 162.5 164.9 167.4 168.5 168 167 165.7 165.3 165.4 164.4 164.6 166.6 169.1 169.1 168.6 167.7 166 164 162.1 159.2 150.7 143 140 135.2 132.6 139.3 142.9 142.7 142 140.2 137.9 134.8 132.8 130.9 125.6 115.5 103 95 97.2 93.1 73.7 75.7 78.1 82 93.6 102.7 107.5 113.5 114 114.5 116.9 120.6 124.6 126.6 127.5 128 128.4 127.5 127.1 128.4 130.6 131.5 131.3 129.6 127.7 126.2 124.9 123.6
301.9 313.8 324.4 332.6 344.4 366.7 382.2 391.8 393.3 391.7 387 379.2 367.4 352.8 339.8 328.1 313.4 300.4 291.4 282.3 277.2 285 293.7 293.8 291.7 291.6 291.8 291.5 291.7 292.2 289.2 280 271 251.8 264.8 283.4 309.5 338.3 357.4 376 392.4 404.1 407.9 411.5 405.7 391.2 372.2 352.2 365.1 376.1 380.7 385.6 384.3 380.6 373.4 369.7 363.8 354.7 348.3 340.6 331.9 320.5 311.9 300.7 293.9 288.8 281 272 264.1 255.4 248.9 243.6 238.5 231.6 227.1 222 217.8 213.3 210.1 207.7 205.7 203.9 201.9 200.2 199.2 197.6 196 194.8 193.7 192.7 191.3 189.6 189.3 189.7 190 188 184.6 183.2 182.5 181.9 181.2 180.2 177.5 175.8 174.6 173.4 172.5 171.6 171 170.6 169.8 168.8 168.2 167.7 166.9 166 164.8 163.9 163.3 163.5 163.8 163.3 163.8 164.8 165.6 165.1 162.8 161.2 160.4 161.4 162.4 161.9 163.3 167 168.5 168.3 167.5 167.1 165.4 163.1 161.9 161.8 162.5 165.4 167.7 168.6 168.2 166.8 164.2 161.7 159.1 156.1 150.8 145.3 145.6 143.9 139.7 141.7 143.1 142.7 142.1 140.5 137.2 134.6 132.6 131.4 127.8 112.2 95.6 85.3 84.1 91.7 91 76.1 76.8 83 94.7 105 111.4 114.7 116.1 118.1 123.1 127.3 130.3 131.2 130.5 129.7 129.3 128.3 128.1 130.2 132.3 133 132 129.9 128 126.7 125.5 123.8
295.5 303 309.9 318.4 340 361.4 377.5 391.3 400.5 401.5 398 390.3 381.3 370.2 356.9 342.6 326 307.7 294.8 285.6 275.5 273 278.5 282.3 281.8 283.2 284.6 285.2 286.1 287.5 283.9 275.1 262 248.2 272.2 290.5 316.3 334 350.4 369.7 389.4 401.7 402.6 403.6 397.1 380.9 356.6 334.9 338.6 351.3 361.4 367.7 366.3 364.1 362.2 358.5 361 357.7 354.9 347.9 337.4 330.9 325.7 317 306.4 297.4 290.6 283.1 273.8 263.3 253.4 246.3 240.3 233.3 227.1 221.9 217.4 213 210 207.7 205.4 203.5 201.4 199.6 198.6 197.3 196.2 195.6 195.9 194.7 192.3 189.9 189.3 189.9 189.3 187.1 184.5 183.2 182.7 182.3 181.8 181.2 179.2 177 174.7 173.5 172.5 171.5 170.8 170.3 169.3 168.7 168 167.6 166.9 165.7 164.8 163.9 163.5 164.5 164.7 163.6 163.8 164.7 165.6 164.4 162.9 160.9 161.6 162.7 163.6 162.7 166.5 169.1 168.7 167.9 167.6 167.3 165.6 162.9 160.2 159.1 158.6 160.1 162.4 164.7 165.9 164.7 161.7 158.8 156.4 154.4 151.5 149.8 147.5 141.7 140.5 142 142.7 142.5 142 141 137.8 134.9 133 132 124.9 106.2 90.3 79.1 77.6 86 90.9 89.8 81.1 76.2 91.7 106.7 113.5 116.7 119.9 123.2 127.2 133.3 136.8 135.8 133.8 132 130.8 129.5 129.9 132.3 134.1 134.3 132.4 130.2 128.4 126.9 125.7 124.8
290.3 297.5 306.4 321.3 342.5 363.7 379.3 391.5 400.1 405.1 403.9 398.5 391.1 380.3 367.6 350.6 330.1 313 300.1 288.9 278.8 270.2 265.8 271.7 274.1 275.6 275.9 277.8 279.4 280.7 279.6 270.5 251.6 254.1 279.8 286.5 302.7 324 339.3 357.3 373.5 385.5 389.5 388 384.6 371.7 349.9 322.2 315.6 329.4 344.2 346.6 346.2 345.6 346.3 349.3 353.1 354 355.7 349.1 339.3 335.2 333.9 329.7 320 311 299.2 289 279.8 269.7 258.7 248.5 241.1 233.8 226.4 220.9 216.6 212.5 209.8 207.9 205.6 203.3 201.2 199.2 198.3 197.4 197.3 198 197.6 196.1 193.6 190.4 189.5 189.5 189.4 187.4 184.5 182.9 182.5 182.1 181.6 180.9 179.2 176.9 175.1 173.7 172.4 171.3 170.4 169.7 169.2 168.6 167.9 167 166.2 165.8 164.8 164.1 164.4 165.7 166 163.7 163.1 163.9 165.2 163.8 163 160.9 163.2 164.7 166 167.3 168.8 169.8 169.1 168.1 168.3 167.2 165.9 163.6 160.9 158.6 155.8 154.2 155 157.6 160.5 160.4 158.2 155.8 153.6 152.4 151 149.1 143.4 140.5 141.1 142.1 142.3 142.2 141.5 140.4 138.2 135 132.4 131.4 120.7 102.6 88.1 79.7 80.5 81.3 84.8 87 87.7 82.5 76.2 97.7 115.1 121.3 127.8 130.7 132.5 138 140.9 139.1 136.4 133.7 131.2 130.5 132.2 134.4 135.4 134.7 132.7 130.4 128.4 126.9 125.5 124.4
285.5 295.7 313.7 333.2 350.9 366.2 378.6 387.9 396.8 402.5 405.5 402.3 398.6 388.8 370.5 351.4 331.5 313.6 301.6 291.6 281.9 273.4 265.9 263.5 267.6 268 267.3 269.8 270.6 271.9 272.2 267.1 248.3 254.7 266.6 268.9 283.6 308.9 325.1 340.4 350.3 362 369.8 372.3 369.3 360.9 340.6 315.8 302.9 310.2 327.6 331.9 333.3 332.4 333.2 332 341.6 346.6 349.7 345.5 338.4 338.7 338.7 334.1 324.1 314.2 303.1 290 278.8 269.7 258.5 247.6 240.8 234.1 226 220.9 217 212.1 209.8 208.1 206.3 203.8 200.9 199.3 198.8 199.1 199.3 199.3 198.1 196.3 193.7 190.7 189.4 189.7 189.4 186.9 183.6 181.9 182 181.8 180.8 179.5 178.1 176.6 175 173.5 172.2 170.9 170.2 169.5 169.1 168.5 167.6 166.8 166 165.8 164.9 164.7 165.4 165.9 166 163.2 162.4 163.2 163.1 163.1 162 162.8 165.7 167.2 168.2 169 169.5 170 170.6 169 168.4 167.3 166 164.9 162.2 159.5 155 151.8 150.3 150.6 153.6 155.4 154.5 153 151.8 151 149.9 145.9 140.4 140.6 140.9 140.9 141 140.6 138.7 135.3 135 133.5 131.1 127 113.7 98.6 87.3 80.9 83.8 80.6 80.9 79.3 80.2 83 82.3 75 113.3 125.7 137 138.3 139.1 140.6 141.2 139.4 136.2 133.1 132 133 134.6 136.5 136.5 135.1 132.7 130.4 128.7 127.2 125.7 123.4
283.4 301.3 323.4 339.5 355 367.9 375.5 380.5 386.9 395.3 399.8 398.6 394.5 385.6 367.3 348.3 329.7 313 300.8 291 283.6 276 268.5 261 260 261.1 260.9 260.5 260.8 262.3 262.9 261.3 255.2 239.2 253 261.1 274 289.9 309.3 324.1 329.8 338.2 343.7 348.9 350.7 346.7 330.9 308.4 291.4 291 312.8 313.5 311.3 315.8 316 316.1 328.4 335.8 337 340.1 340.1 338.1 336.4 329.4 319.2 308.4 296.5 285 274.2 263 252.5 244.9 238.4 232 224.7 219.9 215.7 211.7 209.5 208.1 207.2 204.5 201.5 199.8 200.5 200.5 200.3 199.9 198 196 193.1 190 189.3 189.4 188.7 185.3 183.5 182.1 181.9 181.3 180.2 179 177.6 175.9 174.3 173 171.9 170.7 170 169.3 168.7 168.2 167.3 166.5 166 165.9 165.9 165.5 166.1 166.2 165.1 163.1 161.9 162.8 162.3 162.8 161.9 165 167.3 168.6 168.9 168.7 168.8 170 170.4 170.2 168.3 166.8 165.6 165.2 163.2 159.7 154.8 151.3 148.4 147.2 147.3 149.3 151.4 150.9 149.6 149.1 147.8 141.8 140.7 141.5 141.4 140.8 138.8 138.1 133.9 126.4 121.9 121.9 121.6 115.6 107.6 96.2 87.2 84.2 83.3 77.5 82.6 88 84.8 80.4 75.4 75.2 117.4 128.9 137 140.3 141.2 141.3 140.1 137.3 134.3 134 134.3 135.8 137.5 138.2 137.1 135.5 132.8 130.5 129 127.6 126.2 124.1
284.2 308.4 328.2 342.5 356.8 366.9 372.2 375.9 378.4 381.8 386.5 387.1 384.2 375.9 359.4 342.7 325.8 311.2 299.1 289 281.4 275.8 270.5 265.3 259.8 253.7 253 252.2 253.3 254.1 254.5 253.6 251.4 232.8 246.7 257.8 267.4 275.1 292.9 305.9 313.8 311.6 312.2 324.5 334.3 336.5 321.9 303.9 288.5 286.6 297 291.7 294.5 297.6 302.1 312.2 318 325.9 330.2 335.7 338.1 332.4 327.4 318 311.3 298.3 288.8 278.5 267.8 256.4 248.2 241.1 234.8 229 223.6 219.7 215.6 212 208.9 207.1 206 203.7 201.7 201.1 203.4 202.6 200.9 199.3 197 194.6 192 189.3 189.4 189.2 186.6 184.2 183.4 182.2 181.5 180.7 179.6 178.3 176.6 175 173.4 172.4 171.4 170.5 169.7 169.1 168.3 167.6 166.8 167 166.7 166.5 166.6 166.3 166.7 166.8 165.3 163.3 161.9 161.4 161.7 162.3 164.1 166.7 167.9 168.4 168.2 167.5 168.3 169.7 169.5 169.2 167.8 166.4 165.7 165.2 163.1 159.1 154 150 147.3 146.2 145.2 144.3 146.5 147.8 141.5 140.3 143.5 141.4 142.1 142.7 142.4 140.6 137.9 135.5 134.4 131.6 120.6 114.9 109.9 104.9 100.2 95 89.3 84 83.4 90.1 100.8 105.9 98.1 89.9 89.4 105.2 123.6 133.1 139.5 141.1 141.2 141.5 139.2 135.5 135.4 135.6 136.5 138.8 139.8 139.8 138.3 135.7 132.9 130.9 129.4 128.1 126.8 125.1
286.4 315 332.7 344.7 355.7 365 369.6 371.8 371.7 371.5 372.2 371.8 368.3 361.6 349.6 334.8 319.6 304.4 294.9 285.7 278.2 273.2 268.8 265.1 261.1 257.9 253.3 245.2 245.6 245.1 246.4 246.2 246 228.7 246.1 254.7 258 265 274.4 283.4 291.2 288.8 294 306.2 313.3 320.6 312.9 301.2 288.4 284.1 285.8 287.7 288.3 289.4 296.6 311.1 320.2 325.5 329.1 330.2 331.3 324.7 315.9 308.3 300.1 289.9 282 271.1 259.6 250.5 243.8 237.9 233.3 228 223.4 219.6 216.1 212.6 210.1 208.2 205.7 203.7 203.2 203.9 205.7 203.8 201 198 195.6 192.6 190.1 189.1 189.2 187.4 185 183.7 182.6 181.9 181.2 180.1 178.8 177.4 175.7 173.9 172.8 171.5 170.5 169.9 169.4 168.6 167.8 167.1 167.4 167.9 167.4 167 166.8 167.4 167.5 166.9 165.9 163.9 163.1 161.4 161.3 161.6 166.1 167.3 167.5 167.7 167.4 166.3 167 169.2 168.8 168.2 166.8 165.6 165.3 164.3 161.9 157 151.3 147.2 146.1 145.5 144.7 143.5 142.3 141 134.2 130.5 139.5 142.4 143.6 143.4 141.8 140.2 139.7 139.9 141.1 138.8 129.1 119 113.4 107.6 98 93.2 88.2 85.1 84.3 104.4 114.2 115.3 111.5 109.8 115.6 121.3 126 133.4 137.9 138.5 138.6 138.2 136.1 135.4 135.7 137 139.3 141.3 141.9 141 138.2 135.4 133.2 131.1 129.7 128.5 127.4 125.9
285.5 313 330.2 341.1 351.5 362.4 366.7 367 363.2 360.2 358.1 355.9 352.2 343.7 333.5 320.5 307.8 297.9 288.8 281.3 274.2 269.1 265.2 262 260.2 258.3 256.1 249.8 237.6 235.8 237.5 239 234 233.4 242.5 246.1 249.5 255.1 261.3 267.5 271.9 273 277.7 288.5 301.5 311.7 310.2 297.1 290.6 281.9 282.9 284.4 285.5 285.9 292.4 301.8 313 323 327.8 328.8 326.5 320.2 310.2 302.3 294.4 283.6 274.8 262.5 253.3 246.1 240.8 236.6 232.4 227.6 222.5 218.9 215.6 212.6 210.6 208.8 207.1 206.6 206.2 206.2 206 204 200.7 197.1 194 191.1 188.9 188.8 188.2 186.3 184.8 184.1 183 182 180.9 179.5 178 176.5 174.8 173.1 171.7 170.4 169.8 169.3 168.9 168.3 167.6 167.6 168.3 168.4 167.7 167 166.8 167.4 167.5 166.9 165.9 164.6 162 161.2 161.7 163.8 166.5 167.2 167.3 166.9 166.2 164.8 165 167.2 168 166.4 164.4 164.1 163.7 162.3 158.5 151.6 147.4 146.6 145.9 145 143.7 141.1 137.7 134.1 129.5 132.9 140.4 143.1 143.9 143.7 143 143.1 143.1 143.2 141.6 137.5 130.1 123 118.2 111.6 98.5 93.6 89.3 85.6 83 106.9 116 116.7 117.5 120.4 125.3 129.6 129.6 132.5 135.3 135.9 136.6 136.3 136 136.3 137.4 139.2 141.9 142.7 141.9 140.6 137.5 134.8 132.9 131.3 130.1 128.9 127.6 126.4
273.1 301.1 322.9 335.9 346.8 356.5 360.8 358 350.1 343.9 342.2 338.5 333 323.8 314.7 308 299 290.6 283.1 276.3 270.6 266.1 263.1 260.1 258.2 257.3 255.5 252 243.6 232.6 228.9 229.8 224.6 230.5 234.5 237.6 241.9 245.5 250.7 254.2 260 263 265.3 276.3 285.3 292.6 293.6 289.2 285.7 280.1 278 274.6 281.2 284 288.8 299.1 304.8 315.7 321.6 327.8 327.9 320.2 306.4 293.4 284 275.5 265.1 256.2 248.3 243 238.9 235.4 231.1 226.5 221.3 218.4 215.3 212.3 210.7 209.3 208.1 207.8 207.8 207.3 205.9 203 199.4 195.5 192.5 189.8 188.7 188.4 187.1 185.2 185.4 185 183.5 182.2 180.4 179 177.4 175.9 174.1 172.5 170.9 170 169.2 168.6 168.5 168 167.7 168.2 168.8 168.2 167.6 167.1 167.1 167.5 167.7 166.6 165.6 164.4 162.1 161.2 161.7 164.4 166.4 167.1 166.9 166.3 164.9 163.4 163 163.8 165.3 163.4 161.6 161.7 161.3 158.4 152 148.2 147 146.4 146 144.8 141.9 138.6 139.8 138 135.9 139.7 141.2 142.5 144.1 144.1 144.4 144.6 144.7 143.6 139.6 136.2 132.7 129.4 123.6 112.3 101.2 95.4 92.5 88.6 81.5 94.3 109.3 117 121 125.5 131.4 135.6 134.3 133.6 136 137.9 138.4 138.3 139.3 140.1 140 142.1 143.4 142.8 141.5 139.6 136.9 134.2 132.8 131.9 130.5 129.3 127.8 125.9
259.9 286.1 305.8 322.4 340.6 350.2 352.7 347.9 340 329.7 326 321.1 313.1 306.4 301.6 297.5 290.8 284.5 279.2 273.4 268.3 264.5 261.9 260 257.9 255.9 252.4 246.3 240 233.8 226.9 226.3 226.3 226.5 229.2 230.7 233.6 237.5 242.8 245.7 250.8 256.1 258.2 263.3 266.3 270 274 277.5 277.8 276.9 275.7 273.2 277.2 281.6 283.5 291.5 298.2 307.4 315.8 325.2 320.8 309.7 298.1 286.6 276.3 267.5 259.4 252 246.5 242.3 238.1 233.4 228.9 225 219.9 217.1 214.4 212.5 211.7 210.3 209.2 208.2 207.7 207.1 204.3 200.8 196.8 193.4 191.4 189.6 188.3 188.2 186.9 185.2 185.8 186.2 184.9 182.7 180.7 178.9 176.9 175.2 173.4 171.9 170.8 169.9 168.8 168.1 168.2 168.2 168.5 168.9 168.4 167.9 167.4 167.4 167.2 167.5 167.4 166.4 165.1 163.7 162 161.2 162.3 164.7 166.1 166.3 166 165.3 163.9 161.8 160.7 160.7 162 161.4 158.6 157.9 156.2 151.7 148.3 147.1 145.8 145.4 144.5 142.7 140 141.2 141.1 139.4 139.4 141.5 142.8 144.1 144.4 144.6 144.8 145.2 144.6 143.6 142.4 138.9 134.1 131.4 124 118.5 112 103.8 97.3 93.1 81.6 89.5 107.2 120.6 127.2 132.6 138.1 139.2 138.2 136.7 138.3 140.7 140.6 141.2 141.8 142.4 142.2 143.3 143.4 143.2 141.4 139 136.2 133.8 132.9 132.4 131 129.6 128 125.9
249.7 270.9 288.1 304.5 324.3 337.3 340.2 338.7 331 321.7 316.2 312.5 303.9 296.8 292.6 289 284.1 279.5 275.3 271.4 267.8 264.4 261.6 258.8 256.7 252.5 250.2 243 234.2 230.3 226.4 226.3 226.2 226.3 226.3 226.2 227.3 230.7 235.1 237.9 243.1 249.6 255.1 260.2 258.4 257 258.2 262.7 266.3 269.5 273.4 271.4 273.5 279 280.3 288.2 297.4 303.2 305.1 304.7 301.2 293.2 285.8 278.7 272.1 264.3 256.9 250.8 245.8 240.9 235.3 230.2 226.8 223.1 218.6 215.8 213.4 212.4 211.8 211 209.5 208.1 207.2 205.1 201.1 197.5 194 192 190.6 189 188 187.7 187.5 186.5 187.6 187.1 185.1 182.2 180.9 178.7 176.3 174.2 172.6 171.8 171.3 170.4 169.2 168.4 168.4 168.5 169 168.9 168.2 167.7 167.4 167.3 167.3 167.2 166.8 166.5 164.6 163.3 162.2 161.6 162.7 164.9 165.4 164.9 164.3 163.5 161.6 159.5 158 158.2 158.2 158.7 155.9 153.7 150.6 148.1 146.5 144.2 142.4 141.8 141.8 142.6 143.2 142.7 141.3 140.4 141.4 143.2 144.2 144.3 144.9 145.3 145.6 146 145.5 145.2 144.6 141.6 136 131.5 125.2 125 119.6 113.7 109.9 100.4 83.4 91.7 114.7 127.5 135.7 139.9 141 140.8 140.4 139.3 140.7 142 142.9 143.5 144 143.4 143.1 143.2 143.4 143.1 141 138.5 135.6 133.5 132.7 132.3 131.1 129.2 127.5 125.8
248.8 257.9 273.5 288.1 305.8 316.6 321.5 318.9 315.5 311.1 305.9 305.2 299.1 292.8 288.4 284.7 283.3 282.7 279 273.8 268.6 265.3 262.1 257.8 253.5 248.1 239.7 236.9 229.4 226.3 226.3 226.3 226.3 226.3 226.2 226.2 226.3 226.2 227.7 231.1 236.6 243.2 250.2 252.8 252.7 254.1 255.2 257 259.3 261.5 269.8 268.7 269.2 274.6 277.9 283.6 292.5 298.7 301.4 299.3 293.3 285.2 279.3 273.6 267.9 261 254.2 247.8 242.2 236.6 230.9 227.4 224.1 221.2 217.7 214 211.8 212.2 211.3 209.8 208 206.6 204.4 202 199.1 195.4 192.4 190.9 189.9 188.8 187.9 187.6 187.6 187.6 188.2 187.6 184.2 181.6 180.1 176.9 174.6 173 171.8 171.7 172 170.9 169.9 169.3 169.5 169.7 169.5 169.1 168.3 167.8 167.6 167.3 167.3 167.3 166.9 167.3 166.3 163.4 161.9 162.1 163 164.1 164.5 163.7 162.6 160.3 158.5 157 155.7 153.8 151.5 151.4 150.7 149.8 147.6 145.5 143.2 143.1 144.3 145.1 142.9 144.5 144.1 143.1 142.8 142.4 145.5 147 146.4 146.1 146.9 147.1 147.5 147.2 146.4 145.4 144 141.7 137.2 132.5 128.9 129.1 124.8 121.6 118.4 108.5 88.5 93.8 119.9 130.5 139.2 141 141.5 141.6 141.2 141 142.4 143.8 145 145.6 145.4 144.5 143.9 143.5 143.4 142.8 140.9 138.4 135.6 133.5 133.1 132.2 130.6 128.5 126.7 124.9
249 256.6 264 272.1 283.4 292.7 297.9 297.8 295.4 299.6 296.8 296.5 293.9 290.8 287.9 285.6 289.1 289.8 288.2 285.3 279 272.1 266.7 260.2 253.5 249.8 241.2 229.7 226.3 226.2 226.2 226.3 226.3 226.2 226.2 226.3 226.2 226.3 226.3 226.3 230.9 237.7 245.6 250.2 250 251.2 252.6 254 255.6 257.4 263.9 265.7 266.7 271.5 275.3 281.7 294.8 303.8 303.4 297.4 288.6 280.9 274.3 268.5 262.5 255.7 248.8 242.1 236.9 231.1 227.8 225.2 221.8 219.2 216 212.3 210 212.3 211.9 208.1 204.9 202.8 199.9 199.8 200.7 197.6 193.1 190.4 189.5 188.8 187.9 187.5 187.6 187.6 187.8 186.8 184.2 181.6 179 176.1 174.1 172.5 171.5 171.4 171.6 171.5 171 171 171.8 171.8 171 169.8 168.6 168.2 168 167.4 167.2 167.2 167.5 167.3 165.9 163.6 161.8 162.1 162.7 163.4 163.9 162.7 160.4 157.3 155.1 153.7 153.2 152.6 152.4 149.3 146.8 145.8 145.2 145.3 146.4 146.8 146.5 146.4 146 145.1 144.8 144.5 145.3 146.5 148.2 148.3 148.8 148 148.8 149 149.8 149.5 147.1 144.8 142.9 141.1 137.3 133.2 131.4 130.5 128.4 128.4 124.7 116.5 96.5 92.7 120.3 132 139.8 140.9 141.7 141.9 142.1 142.4 143.6 144.9 146.2 146.6 146.1 145.1 143.9 143.6 143.2 142.2 140.3 138.2 136.2 134.1 133.7 131.9 129.9 127.8 126.1 124.3
248.5 254.1 258.9 261.2 265 271.9 276.5 279.5 280.5 284 284.3 284.6 285.8 284.6 285.3 285.8 288.9 293.3 296.6 296.4 291.1 281.4 272.1 261.3 252.8 245.7 238 232 226.3 226.3 226.3 226.2 226.3 226.3 227.2 226.2 226.3 226.3 226.3 226.2 226.3 230.3 240.8 246.6 243.5 242.9 243.7 248.7 251.6 256.7 260.6 262.3 264.6 269.3 273.8 274.5 289.3 298 295.7 289.8 282.2 275.4 269.9 264.2 256.6 249.7 243 236.8 231.9 228.5 226.5 224 220.5 216.1 211.6 208.4 207.8 209.9 209.6 205.4 201.4 198.6 197.1 196.8 198.3 198 194.9 190.4 189.2 188.6 187.8 186.7 186.5 186.9 187.4 187.1 184.9 182.1 179 176.7 174.4 172.5 172 172 172.3 172.8 173.1 173.2 173.1 172.8 171.9 170 169.2 169.3 169.3 167.8 167.2 167.9 168.2 168.5 166.3 164.1 162.5 161.6 161.9 162.1 162 160.9 158.6 155.8 156 155.1 154.5 154 152.8 149.9 147.6 147.1 147.6 147.9 148.1 148.2 147.7 146.4 147.4 147.2 147.7 148.5 149.2 149.3 149.6 149.4 149 148.8 149.5 149.7 149.9 149.8 147.4 144.6 141.8 140.8 138.2 135.4 132.7 130.8 129.1 130.4 129.2 122.6 103.8 82.8 118.8 132.7 139.3 140.5 141.8 142.3 142.9 143.4 144.5 146.1 147.1 147.2 146.5 145.5 144.2 143.5 142.8 141.6 140 138.3 136.5 134.9 134 131.9 129.4 127.2 125.4 124
247.3 248.9 252.5 254.8 256.4 259.3 264.1 266.9 268.9 271 271.7 274.8 275.3 274 275.8 280 284.6 291.8 298.7 302.4 298 288.9 272.3 254.6 247.6 241.1 234.9 229.6 226.2 226.2 226.3 236.5 243.5 245.8 244.4 240.2 232.5 226.3 226.3 226.3 226.3 226.2 231.4 233.7 231.5 241.1 249.3 250.3 251.4 253.6 256.6 260.5 263.6 268.4 272.3 271.9 276.3 282 282.5 279.6 275.1 270.5 265.8 259.4 251.2 244.4 238.9 233.9 230.8 229.1 226.5 223.1 218.5 213.5 208.6 204.8 203.6 204.3 203.3 200.8 197.7 196.2 195 194 193.5 192.8 190.7 189.2 189 188.5 187.1 185.7 185.7 186.3 186.5 186.5 185.3 183.5 181.7 178.6 175.5 173.2 173.1 173.3 173.6 173.8 174.3 173.9 173.9 173.9 173.9 170.7 170 170 170.1 167.8 167.2 168.1 169.1 169.2 166.7 164.6 163.4 163.2 162.6 161.1 160.1 158.6 157.5 157.7 157.2 155.8 153.8 152 150.6 149.2 147.9 148.7 149.4 148.8 149.2 149.4 149.3 149.6 150 150.3 149.9 150.6 151.2 150.6 150 149.4 149.3 149.8 150.8 150.9 149.6 148.8 146.2 144.1 142.4 142.2 140.1 136.5 133.6 131.4 130.9 131.5 130.5 127.3 111 82.6 118.2 133.4 137.2 136.1 137.6 142.3 144 144.4 144.8 146.3 146.9 147.1 146.8 146.2 144.9 143 141.8 140.6 139.3 137.7 136.5 135.2 134 132.1 129.4 126.8 125.1 123.6
247.9 247.5 247.7 248.2 249.2 251.3 254.4 257.9 259.6 261.2 261.1 263.6 264.9 265 266.4 271.6 276.8 284.7 291.7 298.9 290.6 275 255.6 246.4 241.3 235.3 230.7 226.3 226.2 226.2 249 260 266.4 264.4 259.6 254.4 247.7 230 226.2 226.3 226.3 226.3 226.3 225 235.4 245.9 249.3 250.4 251.1 252.3 258.5 262.2 263.4 265.7 268.7 269.6 270.5 278.1 274.5 272.5 270.4 266.9 262.1 254.6 246.9 240.5 236.1 232.9 230.7 228.4 224.7 220 216.2 212.7 208.5 204.1 200.9 200.3 197.3 195 193.6 193.8 192.8 192.6 191.7 190.5 189.4 188.7 188.7 187.9 186.4 185.4 185.1 185.5 185.6 185.6 185.2 185.3 183.8 180.8 177.2 175 174.8 175.3 175.4 175.5 175.7 175.5 174.9 173.8 173.9 173.6 172.3 170.7 169.1 167.5 167.2 168.8 170.2 169.2 167.2 165.5 164.7 166.5 167 163.9 162.2 161.3 160.1 157.1 155.4 153.7 152.2 151 150.9 149.6 148.9 150.3 151.2 151 151.2 151.1 150.7 150.5 150.5 152.5 151.2 150.4 150.6 150.5 150.5 150 150.8 151.6 152.3 151.5 150.6 149.4 147.3 143.6 141.5 142.5 142.1 136.3 133.3 132.4 132.4 129.7 128.2 125.7 112.2 82.6 119.9 131 129.5 128.2 132.5 140.8 145.7 145.3 145.2 146.2 146.9 147.1 147.1 146.8 145.6 143.3 141.2 139.7 138.4 137.3 135.7 134.2 131.1 132 129.2 126.7 127.2 123.1
250.7 251.7 250.8 248.2 246.2 244 245.8 249.9 251.1 253.7 253.8 254.4 255.3 255.7 256 261.6 266.8 273.2 278.6 280.8 270.1 253.8 243.8 239.3 234.5 229.8 226.2 226.3 230.9 256.1 267 273.7 279.8 276.1 271.1 264.2 249.7 226.3 226.2 226.3 225.8 225.8 226.2 225.9 233.1 242.4 249.2 249.9 250.9 254.4 261.5 263.9 264.2 265.2 265.5 266.7 267.5 269.2 270.4 271.3 268.7 264.3 258 250.4 242.5 236.7 233.3 232 229.9 225.8 220.3 215.9 212.7 210.2 207.1 202.5 197.7 195.2 191.7 191.1 191 191.4 191.8 192.7 191.2 189.4 188.6 188.4 188.2 186.8 185.8 185 184.6 185.5 186 185.6 185.6 186.1 185.4 183 179.6 176.4 176.7 177.6 177.5 177.3 177.1 176.9 176.1 173.9 173 172.6 172 170.8 168.9 167.5 168 169 170.2 169.1 167.3 166.3 165.8 168.6 168 166.1 164.3 162 158.9 155.7 153.8 152.4 151.5 151.1 150.8 150.1 150.4 153 154.5 154.2 153.8 152.3 151.5 150.7 151.6 152.6 150.6 150.7 150.6 150.8 151 151.5 152 152.7 152.5 151.6 150.1 148.5 147.5 145.2 143.7 142.9 140 135 133.2 132.6 128.6 116.3 108.8 109 99.8 82.6 115 120.3 120.7 125 130.4 140.2 147.6 146.3 145.3 146.7 147.2 147.5 147.6 147.1 145.6 143.6 141.6 139.7 138.8 137.3 135 131.8 129.6 129.8 128.2 122.9 122.2 123.9
260.5 255.9 255.7 251.9 246.4 243.6 242 242.2 243.2 246.1 247.5 247.3 248 249.1 247.6 248 251.9 254 258.2 256.7 245 233.9 232.5 231.2 226.7 226.3 226.3 236.6 258.4 272.7 280.3 282.7 282.9 277.5 274.7 270.4 258 243 226.3 226.2 226.2 226.2 226.3 226.3 229.8 239.2 246.6 247.1 249.1 254.1 261.4 264.3 264.3 264.1 263.4 263.1 264 267.2 270.2 269.5 265.4 260.4 252.7 244.1 236.6 233.1 232 230.5 226.4 221.6 216.7 213.5 210 204.9 201.8 198.6 195.5 192.1 190.3 188.8 188.8 189.8 190.8 190.8 189.2 188.7 188.4 188.3 187.5 186.3 185.4 184.6 184.6 185.2 186.2 185.9 185.5 186 185.9 184 180.1 178.1 178.3 179.4 179.4 178.7 178.3 178 177.5 175 173.6 173 172.2 171.1 169.5 168.4 168.9 170.2 169.6 169.2 167.8 167 167.4 168.2 167.4 166.3 164.2 161.3 157.9 155.4 153.7 152.7 151.8 151.5 151.7 150.9 151.7 153.9 156.5 156.3 154 153.1 152.9 152.2 151.1 151.3 150.9 151.3 151.8 151.8 151.5 152.2 152.4 152.8 152.5 152.4 151.7 149.5 146.5 144.3 143.9 141.4 135.4 133.5 133.2 126.8 107.8 83.4 89.3 86.1 84.7 94.3 114.5 120.2 129.4 136.9 137.3 140.6 147.3 145.9 145.6 146.5 147.5 147.8 147.9 146.7 145.2 143.9 142.2 140.2 139 137.9 136.6 134.9 133.3 130.5 130.1 125.8 124.2 123.1
261.9 265 263.8 257.3 252.3 245 241.7 239.6 237.8 239.2 240.5 241.6 241.6 241.9 240.7 238.7 236.6 235.7 233.8 229.3 224.6 226.3 226.3 226.2 226.3 226.3 234.4 247.2 265.6 279.7 286.8 287.7 286.1 286.3 283.5 276.7 267.5 258.3 238.5 226.3 226.3 226.3 226.3 226.3 225 231.5 238.7 240.1 242.1 246.7 255.7 263.1 262.3 260.5 259.4 259.5 263.1 267.6 268.8 265.7 260.3 252.7 244.5 237 233 231.8 230.6 227.4 222.3 218 215 211.9 207.3 201.8 198.1 195.4 193.7 191.4 190 187.6 187.2 189 190 189.7 188.9 188.7 188.7 188.1 186.8 185.6 185 184.5 184.3 184.3 184.8 185.1 185.6 186.1 186.1 184.1 180.9 179.6 180.3 181 181.3 180.3 179.3 179 178.1 175.4 174.3 173.3 172.1 170.9 170 168.9 169.1 169.1 169.2 169.2 169.5 169.5 168.8 167.2 166.4 166.1 163.6 161.1 157.8 155.4 154.4 153.8 153.3 152.3 152.4 151.4 152.2 153.8 155.4 156.5 154.5 153.9 153.7 153.5 153.4 152 152.2 153.2 154 153.3 152.1 152.3 152.8 151.9 151.3 151.3 150.9 148.9 145.3 141.3 139.8 135.2 131.1 132.5 130.9 114.3 91.7 92.1 106.1 106.9 112.6 126.9 130.8 133.5 140 145.6 144.7 140.5 145 145.3 145.7 146.5 147.2 147.3 147.1 145.7 144.4 143.6 142.8 141 139.6 137.9 136.3 134.7 132.7 130 127.7 125.4 124.3 123.3
277.7 272.8 271.8 264.8 262.3 260.1 256 247.4 239.4 236.3 235.4 235.2 235.3 234.5 233.3 231.2 228.5 226.4 225.9 225.8 226.3 226.3 226.3 226.3 224.8 239.9 252.7 260.4 266.8 280.4 290.1 293.3 300.2 301.9 298.5 290.9 280.8 270.4 259.8 243.2 237.6 228.6 224.6 224.2 223.9 222.5 226.4 229.4 231.9 238.5 248.7 254.2 254 253.5 251.2 257.7 262.6 266.3 265.4 259.8 252.4 244.5 236.9 232.1 231.1 230.2 227.3 222.6 218.4 215.2 212.6 208.4 202.8 198.1 195.2 193.6 192.2 191.2 190.6 188.3 183.6 185.6 186.9 187.1 187.4 188 188 187 186.1 185.5 185 184.7 184.3 183.9 184.2 184.5 185.1 185.8 185.3 183 181.2 181.6 182.3 182.5 182.7 181.2 180 179.2 177 175 173.5 172.6 171.6 170.5 170.2 170.1 170.7 170.4 170.3 169.9 170 169.3 168.3 167.4 167 166.3 163.8 161.5 158.9 157.5 156.4 155.9 155 154.2 152.5 152.2 153 154.5 155.8 156.8 155.3 154.6 154.6 154.4 154.4 153.9 154.1 155.1 155.9 153.8 152.1 151.8 152.2 151.5 151 150.8 150.6 147 141.3 136.4 132 128.7 125.5 125.7 121.7 105.3 86.3 98.5 119.6 128.3 129.7 136.7 141.7 144.3 147.1 147.4 146.9 144.1 143.1 144.1 145.6 146.3 146.2 146 145.5 144.6 143.9 143 142.1 140.9 139.1 137.5 135.9 133.5 132.5 129.9 127.4 126.9 125.5 123.7
284.6 280.4 278.8 275.5 275.2 274.1 272.3 267.3 260.2 254.8 250 247.3 244.5 240.7 235 229.1 227.2 226.6 226.4 226 226.3 226.3 226.3 235.3 250.2 261.5 263.2 273.7 278.3 285.5 296.2 307.6 318.2 322.1 314.8 305.7 294.7 278.2 267 257.3 253.7 241.4 216.9 203.3 211.4 207.7 208.4 214.6 223.8 230 237.4 242.3 242.6 243.3 246.8 256.1 261.8 262.1 257.2 251.3 244 236.1 230.8 228.8 228.8 226.9 222.2 217.3 214.6 213.1 207.8 201.7 197.5 194.6 193.4 191.8 190.4 189.8 188.3 184.4 178.1 177.9 178.3 180.8 184.1 184.8 187 186.5 186.2 185.6 185.5 185 184.4 183.9 183.7 183.7 184.3 184.9 184 182.8 182.5 182.4 182.5 182.7 182.5 181.3 179.6 177.7 175.9 174.6 172.7 171.2 170.8 170.7 171.1 172.3 172.5 171.5 170.4 169.6 168.8 168.2 168.6 168.9 168.2 166.6 164.1 161.9 160.1 159.3 158.4 157.1 155.5 155.1 153.4 153.2 154.3 155.8 156.3 156.4 155.5 154.8 154.7 154.7 155.3 155.6 155.6 155.8 155.1 153 152.2 151.8 152.1 151.9 151.4 151.2 149.4 143.4 138.1 133.4 129 122.1 111.7 100.7 96.6 89.1 87.7 120.7 132.5 134.9 138.7 144.5 147 147.8 147.7 146.7 145.6 145.3 144 143.6 145.1 145.3 145.1 144.8 144.4 143.9 143.4 142.5 141.6 139.7 137.9 136.6 135.4 134.9 134.4 131.9 129.3 129.2 127.5 125.4
295.1 290.8 288 287.8 287.8 287.3 285.4 282.2 276.2 272.2 269 264.9 259.2 252.8 244.4 231.9 227.6 227 226.7 231.3 240.8 247.1 253.1 262.1 274.8 279.8 277.6 284.8 292 296.5 309.2 322.9 331.3 329.7 321.9 310.3 297.1 283.1 273.3 269.6 265.1 260.7 247.3 231.1 221.4 213 204.4 204.1 214.7 222.5 229.3 230.8 232.6 229.5 244.3 253.9 258.2 255.4 249 242.3 235.9 229.7 225.9 225.1 224.3 221 216.3 212.3 208.5 204.7 199 195.8 194.2 192.5 190.8 189.4 187.8 187.9 183.4 176.2 173.9 173.4 173 172.8 174.4 177.7 182.4 186.4 186.1 185.6 185.7 185 184.3 183.7 183.3 182.7 183.4 183.8 182.9 183.3 183.5 183.2 182.9 182.4 182 181.1 178.9 176.8 175 173.8 172.6 171.5 171.4 171 172.9 174.6 173.8 173.2 171.1 169.2 168.3 168.7 169.1 168.9 167.3 166.2 164.1 162.2 160.5 159.7 158.9 157.2 155.5 155.1 155.1 154.9 155.7 156.7 156 155.4 155 154.6 154.7 155 156.4 156.6 156.1 155.2 153.9 152.8 152 152.3 152.6 152.3 151.8 151.4 147.2 140.1 134.5 130.4 118.7 101.8 84.8 93.2 95.5 100.2 117.6 132.5 137.2 142.2 146.5 147.5 147 147.3 147.1 146.5 145.7 146.1 145 144.5 144.5 144.9 144.5 144.2 143.6 142.2 140 141.7 142.4 139.6 138.5 137.5 135.7 134.3 133.9 133.1 133.6 133.5 132.1 130
305.3 301.9 299.2 298.3 297 294.4 292.9 288.4 279.4 272.3 266.9 262.8 257.2 250.7 238.7 229.7 227.8 226.4 242.1 251.2 258.5 266.8 274.4 286 295.7 296.9 294.4 297.2 307 316.2 327.5 339.8 346.7 343.5 331.4 316.3 300.3 288.9 286 281 276.4 272.1 266.9 257.5 244 234.2 221.5 199.2 207.9 217 220.6 222.9 223 229.6 241.7 248.2 250.2 246.7 240.5 233.5 226.9 221.7 218.9 218.9 217.7 214.1 210.4 205.8 199.7 196.5 194.3 192.7 191.1 188.9 185.9 184.4 182 180.3 175.2 173.6 173.1 172.6 172.2 171.3 170.3 168.3 174.8 180.4 181.7 183.8 185.4 185 184.3 183.6 183.5 182.9 183.1 183.2 183.2 183.6 183.8 183.8 183.6 182.7 181.9 181 178.9 176.4 174.7 173.7 172.6 172.3 172.7 173.9 176.3 176.1 174.9 174.1 172.5 171.6 169.5 168.2 167.1 166.3 165.1 163.3 162.5 161.1 159.8 159.7 158.7 157.1 156.3 156.1 156.2 156.1 156.3 156.9 156 154.8 154.3 154.1 154.8 155.4 156.8 156.9 156.1 154.6 152.7 152.6 152.3 152.8 152.9 152.5 151.9 148.7 141.8 137.3 133.5 120.1 96.6 95 107.8 117.4 121 126.3 134.7 141.1 145.5 147.3 147.2 147.2 147 147.6 147.4 147.1 146.5 146.2 145.7 144.6 144.6 144.7 144 141.9 144.1 144.3 144.3 142.6 140.5 139 139.3 137.7 135.8 134 134.5 136.8 137.5 137.6 137.7 134.8
315.4 311.5 309.6 304.9 300.7 296.5 291.5 286.2 277.6 269.6 261.9 257.4 252.1 243.3 233.1 229.5 227.4 241.9 258.1 266.5 276.6 286 296.9 311.4 320.7 321.6 318.1 319.6 327.6 338 347.8 357 361.1 357.8 341.8 320.3 305.6 297.2 292.8 288.3 284.1 278.4 273.3 267.7 254.1 233.3 214.7 198.8 207.5 213.1 212.5 213.8 210.2 227.1 237.5 242 242 237.4 230.6 222.7 217 213.5 212.1 208.4 207.9 205.5 201.5 195.8 193.1 192.3 190.5 189.7 187.4 183.9 181 179.9 177.1 175.2 173.7 172.9 171.5 170.7 171.3 170.4 169.6 169.7 169 170.4 174.2 178.8 182.8 184.6 184.1 183.4 183.9 181.9 181.3 183.2 183.7 184.2 184.7 184.8 183.9 182.9 181.9 180.5 178.3 176.1 174.6 173.8 173.1 172.5 173.6 175.9 177.6 176.6 174.6 172.8 171 169 169.1 168.1 166.3 164 163.5 162.9 162.3 161.5 160.4 159.5 158.4 157.8 157.4 157.2 157 157.2 157.2 157.4 156 154.8 154.3 154.2 154.7 155.7 156.5 156.5 155.7 153.6 152.8 153.1 153 153.6 152.9 152.3 150.5 145.2 139.6 136.4 129.3 108.3 85.7 113.3 129.4 135.6 137.5 139.8 143.9 146.9 147.2 147.3 146.9 146.7 146.9 147.5 147.3 146.9 146.9 146.5 146.1 145.1 144.7 143.6 145.2 145.7 145 144.5 143.9 141.9 139.5 139 139.2 137.6 135.5 134.4 137.4 140.4 140.3 139.7 139.5 137.7
323.6 319.4 313.8 307.3 301 293.4 286.2 278.4 272.4 265.5 257.8 252 246.1 236 230.4 229 240.7 251.1 266.4 278.6 290.9 304.6 321.1 335.7 343.7 346.4 342.5 346.8 353.6 363 371.9 379.4 381.4 377.5 357.9 331.6 312.9 308.9 304 297.1 292.5 288.9 282.1 269.2 254.2 224.2 201.5 201.5 211.8 207.8 206.9 205.3 205.9 218.4 227.7 230 228.5 225 217.7 211.1 206.9 204.7 202.1 197.4 198.5 197.5 192.5 185.1 184.4 185.9 185.2 184.2 181.2 178.8 177.7 176.7 175.7 175.2 176 176.2 176.9 174.8 173.5 172.2 170.7 169.8 169.4 168 167.9 171.2 174.6 179.1 182.4 183.9 183.6 181 180.7 183.7 184.3 184.9 185.5 185.5 184.3 183 181.7 180.2 178.6 177.1 175.3 174 173.4 174.1 175.4 177 178 176.5 173.8 170.3 168.9 168.6 168.6 167.7 166 164.5 163.9 163 162.8 162.3 161.3 159.9 159.4 158.9 158.3 158.1 157.7 157.8 157.7 156.8 155.4 155.3 154.7 154.5 154.8 155.8 156.4 156.2 154.9 152.5 152.5 152.9 153.4 153.3 152.6 150.9 148.2 145.5 139.1 135.9 128.7 103 97.2 127.7 137.6 144.5 146.8 147.2 147.6 147.6 147.4 147.2 146.7 145.8 146.1 147.3 147.2 147.3 147.3 147 146.5 145.8 145.7 146.5 147.5 146.8 145.6 144.6 143.2 141.3 139.7 139.1 139 137.8 135.5 136 140.4 142.7 142.5 140.9 140.5 140
325.5 319.1 311.6 304.9 295.6 288.8 279.6 270.8 264.8 258.6 252.2 245.9 238.5 232 230.2 238.4 255.3 264.3 272.6 287.5 304.3 322 341.7 356.9 363.4 365.3 361.6 369.3 380.4 388.7 395.1 399.5 395.4 383.8 361.8 335.3 325.8 319.4 313.3 308.6 302.4 293.4 283.7 269.8 253 218.4 196.6 204.9 208.5 202.8 200.2 196.3 194.3 201.4 206.8 211.7 214.8 211.3 206.2 202.2 198.5 194.4 190.3 186.5 188.8 186.2 182.8 182 181.4 181.1 180 179.7 179 178.1 177.1 176.6 176 178.6 186.2 185.4 187.8 185.9 183.9 178.9 171 169.9 170.7 168.5 167.9 167.1 166.6 170.5 174.3 178.2 181 175.9 181.5 182.8 184.7 185.5 185.8 185.2 184.8 183.8 182.6 181.1 179.4 178.1 176.8 174.5 174.6 176 177.2 177.8 177.3 175.6 173.3 169.6 168.4 168 167.6 166.7 166 165.9 165.5 164.4 162.9 162.2 162.8 162.3 161.2 160.5 159.8 159 158.3 158.1 157.9 157.6 155.5 155.6 155.1 154.8 155.1 155.6 156.2 155.3 152.7 152.4 152.1 153 153.3 152.5 151.2 148.5 148.1 144.8 138.4 135.3 119.6 99.7 105.4 131.4 142.1 147.8 148.5 148.4 148.1 147.8 147.5 147.2 146.1 145 145.7 147.2 147.9 147.9 147.8 147.2 146.6 146 146.8 148.4 148.3 147.6 145.8 145.1 144.3 142.4 139.7 139.6 139.1 137.9 135.6 138.2 142.3 143.9 143.1 142.5 141.6 140.2
326.1 317.3 307.8 299.9 291 282.4 273.6 265.4 258.9 254 247.9 241.6 234.2 231.3 240.8 256.9 266.8 279.2 288.8 299.4 311.4 331.6 352.9 372.2 380.6 382.7 383.7 395.8 409.2 415.8 418.5 419.1 411.6 391.5 362.3 345.1 337.3 339.5 340 330.4 315.8 296 282.9 270 253.2 222.5 195.7 196.7 203.7 197.9 194.3 192.9 191.9 191.1 190.8 193.2 196.3 193.5 191.9 191.8 190.7 187.1 185.1 184.2 184 183.1 182.5 182.1 181.5 180.7 180 179.1 178.2 177.3 176.7 176.9 179 188.4 193.4 192 189.8 188.9 186.8 183.6 178.9 177 178.9 169.8 167.5 167.2 166.3 165.4 166.9 170.7 172.2 178.1 182 181.6 183.7 185.1 185.2 184.8 184.5 184.4 184.1 182.2 180.5 179 177.5 176.1 176.7 177.7 177.5 177.6 176.4 174.5 171.9 168.6 167.3 167.2 167.2 167.4 167.2 166.7 165.9 165.4 164.7 162.3 162.9 162.9 163.1 162.4 161.4 159.8 158.3 158.1 158.1 158.3 156.6 156.2 155.7 155.3 155.4 155.2 155.4 152.7 152.1 151.8 151.9 153.1 152.9 151.4 146.8 147.3 147 142.4 137.6 127 104.9 87.2 115.1 134.6 144.9 148.4 148.6 148.6 148.8 148.5 148.3 147.9 146.6 145.7 145.9 147.3 147.9 148.5 148 147.6 147.1 146.6 147.3 148.7 149.3 148.5 146.7 146.1 145.5 142.7 139.6 140 140 138.9 136.5 140.3 143.2 144.6 143.6 143.2 142.8 139.5
323.6 316.6 308.6 299.9 288.2 279.5 269.5 262.1 255.8 247.7 237.6 233.7 232.7 240.4 259.3 271.4 284.2 298.1 307.2 314.5 328.3 343.4 361.2 380.5 393.4 399.5 407.1 420.6 435.1 440.4 438.1 436 415 390.4 366.5 357.4 357.8 360.5 353 334.1 316.2 298.6 283.8 273.3 258.8 236.4 197.1 195.3 195.5 193.5 192.8 191.7 191.5 189.9 189 189.1 189 187.6 186.9 186.5 186.3 185.4 184.7 184.1 183.6 182.9 182 181.8 181.3 180.7 180.1 178.4 177.7 178.2 183.2 189 193.1 194.8 192.8 190.2 188.2 187.7 187.2 185.2 183.3 180.8 178.9 174.2 168.3 166.8 166.4 165.9 164.8 165.6 166.1 175.3 181 180 182.6 184.9 185.1 184.5 183.9 184.1 184.3 183.7 182 180.5 179.1 178.8 178.5 178.5 177.5 176.3 174.2 172 169.6 168.1 167.4 167.7 168.3 168.5 167.5 166.9 166.1 165.2 164.2 163.8 164.3 164.5 164.6 164.2 163 160.6 158.4 157.9 158.1 157.9 158.1 156.6 155 154.7 154.2 153.6 148 144.9 148.9 150.8 150.7 152.4 151.7 142.7 137.5 137.7 137.4 137.8 132.7 119 87.9 110.9 127.2 140.8 148 148.5 148.6 148.7 148.8 149 148.9 148.5 147.2 146.4 146.7 147.8 148.1 148.3 148.3 148 147.6 147.1 147.2 148.2 149 148.8 147.5 146.8 145.7 142.4 140.1 140.7 140.1 139.1 137.9 141.3 143.6 144.4 143.3 143 142.1 139.3
325.3 318.2 306.2 294.1 282.5 273.3 263.5 257.3 251.6 237.1 235.1 233.8 247.8 260.5 273.6 286.8 300.2 311.3 320.8 331 342.8 361.2 374.1 383.8 401.7 414.2 426 443.9 457.2 455.5 447.5 430.5 410.4 389.5 374.6 372.7 366.8 355.7 344.6 330.8 315.5 300.9 285.7 274.8 263.1 242.3 215.9 197.3 193.6 193.1 194.3 194.2 190.8 202.1 191.7 187.6 188.3 186.6 186.7 185.2 186 185 184.4 184.2 183.4 182.8 182.2 181.3 181.3 181.4 178.9 178 182.8 190 195.3 197 195.6 192.7 190.4 188.3 187.4 187.4 187.2 185.9 184 182.8 181.2 178.3 175.2 169.1 166.2 165.9 164.8 164.1 162.6 167.3 171.1 174 179 182.8 183.9 184.3 183.5 183.5 183.8 183.4 182.9 182.3 181.5 180.6 179.9 178.9 177.2 174.9 171.3 169.4 168.2 167.9 173.1 172.3 169.8 168.1 167.4 167 166.1 165.1 165.4 165.7 165.7 165.9 165.2 165.1 163.9 162.1 158.2 157.3 157.6 158.1 157.6 156.1 149.9 144.9 142 142 138.4 136.1 138.6 142.5 148.5 151.9 145.6 134.6 128.5 124.5 119.6 126.3 123.8 97.3 111 128.6 141.5 148.7 149.5 149.3 148.7 148.8 148.9 148.9 148.7 148.3 147.4 147 147.4 147.9 147.8 147.9 148.1 148.3 147.8 147 146.3 147.4 148.4 148.5 147.5 146.6 145.4 142.4 140.5 140.8 140.3 139.4 139.2 142.6 144 143.7 142.7 142.5 141.7 127.1
319.3 309.9 298.7 287.2 276.5 266.4 257.2 250.7 240.9 236.1 236.7 246.9 260.6 272 283.5 299 311.4 322.6 335.7 347.9 359.7 375 389 400 412 428 440.1 456.2 463.1 454.7 436.1 414.7 395.4 382.3 373.9 362.5 351.7 341.3 331.9 320.1 307.9 295.7 283.1 274.2 265.5 255 243.6 230 220.1 211.5 210.5 212.3 214.5 211.1 204.6 200 189.2 188.3 187.7 186.3 184.4 183.5 185.4 185.3 184.8 185.5 186.1 182.6 181.4 180.3 183.6 188.8 193.9 199 199.2 196.7 193.6 190.9 188.9 188.1 187.4 186.4 186.6 186.1 184.4 183 182.1 179.5 175.8 171.5 168.3 166.7 167.1 167.5 165.3 163.2 163.6 167.9 173 178.7 182.2 183.3 183.7 183.3 183.5 182.8 182.2 182.2 181.8 181.3 179.9 178.8 176.6 172.8 170.2 168.5 168.5 172.3 176 176 174.5 170.8 168.1 167.3 166.3 166.2 166.1 166 166.2 166.7 166.4 165.7 164.5 162.9 159.2 156 154.8 154.4 154.7 151.8 143 138.7 136 135.1 134 133.7 134.2 136.6 144.5 150 137.2 126.2 115.5 107.3 99.9 108.5 104.4 99.2 126 142.3 149.5 150.2 150.4 150.2 149.7 149.4 149.4 148.9 148.6 148.1 147.9 148 148.1 147.9 147.9 147.8 147.8 147.9 147.6 147.1 146.4 146.3 146.5 146.6 146 146.6 146 143.2 141.2 141.5 141.2 140.4 140.3 144.5 145.6 144.9 143.6 143 141.6 141.4
312.3 301.9 290.6 278.8 267.3 259.9 251.4 242.8 236.8 241.8 247.7 253.6 267.7 280.1 293.4 307.9 319.2 331.5 349.1 363.4 379.6 391.8 405.6 420.1 430.8 440.2 449.3 455.8 451.7 442.7 424.7 403.1 383.1 369.5 358.2 346.2 336.5 325.5 315.5 302.4 291.2 283.3 277.6 270.3 263.5 254.3 243.8 235 229.2 222.4 222.4 217.4 208.1 202.1 198.5 195.9 197.6 200.2 197.4 195.9 193.6 194.5 196.7 196.5 194.4 195.8 195 190.1 187.4 190.8 193 197.1 200.6 201.3 199.4 195.8 192.1 190.3 189.1 189 186.9 185.1 184.1 183.2 183.3 181.7 178.2 173.5 169.1 169.8 172 170.9 173.2 176.7 172.9 168.7 163.8 162.5 167.1 173.7 179.4 182.7 183.9 183.3 183.1 182.3 181.7 181.7 181.8 180.6 178.6 177.7 174.4 171.4 169.3 169.2 171.6 175.9 178.2 178.7 177.8 176.4 173.5 169.3 168.4 167.5 166.2 166 166.7 167 166.5 165.8 164.7 164 161.8 157.8 155.5 152.5 147.6 143.8 139.6 136.7 134.8 131.5 128.2 126.7 127.5 124.3 136.4 140.5 125.6 112.2 101.3 100.8 105.6 103.9 104.9 119.9 139.5 148.1 150.9 151 151 150.6 150.3 150.1 149.7 149 148.8 149 149.4 149.7 149.6 148.9 148.7 148.3 147.9 148 147.5 147 146.5 146.1 145.7 145.1 144.5 145.6 145.7 144 143.3 143.2 142.5 141.8 141.1 143.8 144.7 144 143.4 142.3 142.3 141.9
305.1 294.8 282.3 270.6 259.1 250.7 240.6 238.2 241.1 253.4 258.3 259.8 270.2 281.7 296.1 313.5 327.6 340.2 357.5 375.8 391.3 405 421.9 437.2 448.8 452.8 456.6 458.2 449.3 436.9 418.4 399.2 382.1 365.7 349.1 334.1 321.8 310 299.7 288.4 282.7 277.9 270.1 262.6 254.9 245.6 237.8 233 228.2 219.3 211.5 207.7 208.9 208.1 206.7 207.6 208.8 208.9 207.3 205.9 205.3 203.4 201.4 200.2 198.7 196.9 192.9 190.6 193.7 197.4 199.7 201.5 202.5 200.6 198.2 194.6 191.8 190.6 188.7 187.4 186.1 184.5 183.4 181.2 179.3 175 173.5 174.6 176.3 177.5 177.9 178 180 181.7 179.1 176.1 169.2 160.2 163 167.9 177 182.4 183.8 182 181.2 180.2 179.8 179.9 179.7 178.3 177.1 175.6 173.4 170.8 170.3 170.2 172.1 175.5 178.1 179 179.5 178.4 177.7 175.9 172.5 169 167.5 167 166.9 166.7 166.5 166 165.4 165.4 164.3 161.1 157.2 154.1 145.4 139.9 137.3 135.4 129.1 114.4 103.1 102.3 105.3 106.4 123.3 131.4 117 101.7 102.6 113.2 118.8 125.3 131.3 133.8 138.3 146.1 149.4 149.9 150.1 150.4 150 149.8 149.5 149.8 149.9 150.2 151.3 151.4 151.2 150.6 149.9 149.1 148.6 148.4 147.8 147.2 146.6 145.9 145.3 144.4 143.8 146 146.3 145.5 144.9 144.2 143.4 143.3 142.5 142.8 143.3 143.9 142.9 142.8 142.7 142.4
295.7 281.8 268.4 257.9 248.5 240.6 238.9 246.1 256.5 265.4 269.5 273.4 275 284.2 294.3 313.1 328.4 346.3 364 381.5 399.6 418.9 436.5 448.2 463.5 471.2 470.5 458.2 442.8 430.8 414 399.2 383.8 366.7 347.3 334.7 321.6 307.8 293.6 283.6 276.9 271.6 264.3 256.2 246.5 238.8 235.4 229.6 219.7 216.5 216.8 218 218 218.1 218.5 217.3 214.8 211 207.8 206.3 205.3 203.1 200.8 199.6 196.9 196 197.1 195.9 198.9 201.7 202.9 203 201.7 199.1 196.8 194.8 193.1 190.8 188.3 186.3 185.1 185.6 186.2 185.3 183.7 178.7 181.9 183.4 184.1 184.7 184.7 184.6 183.9 183.2 182.5 181 174.7 165.7 160.9 162.8 170.2 179.3 183.1 181.8 179.2 177.6 177 176.9 176.5 175.4 174.6 172.6 170.9 168.8 168.4 169.9 171.6 173.5 176.4 178 179 178.9 178.8 177.6 176.6 174.7 171 168.1 167 166.9 166.6 166.6 166.3 167 164.7 160.4 155.2 150.1 145.7 137.6 134.8 126.6 112 99.6 101.8 101.1 99.1 98.8 105.3 122.9 111 96.6 110.1 123.5 130.3 138.7 146.9 149.8 149 145.8 144.8 149.3 150.4 150.9 150.7 150.6 150.7 151.4 151.4 152 152.8 152.6 152.4 152 151.3 150.5 149.2 148.3 147.8 147.3 146.4 145.7 144.9 144 143.9 146.1 146.9 146 145.5 144.9 144.2 143.8 141.8 140.1 143.2 143.8 143.5 143 142.7 140.7
279.7 266.3 252.9 244.4 240.4 246.2 254.4 262.3 270.8 277.6 281.9 285.2 283.8 295 300.6 308.8 326.1 345 364.8 383.1 402.9 426.5 444.8 457.6 471 480 475.8 458.8 439.7 420.3 409.3 398.1 379.4 361.9 345.9 333.2 319.6 304.8 290.1 282 274.9 267.1 258.6 251 242 235.3 229.4 225.8 225.7 225.4 226.3 227.7 229.4 227.9 224.6 219.5 213.6 209 206.2 205 203.9 202.2 199.3 199.1 199.9 200.5 200.5 201.8 202.8 204 204.1 202.4 200 197.8 196.9 195.7 192.9 190 187.4 185.4 185.9 186.5 186.2 185.1 183.4 184.5 186 187.4 188.4 188.4 187 186.2 185.9 185.3 184.5 182.7 180.4 173.1 163 159.8 162.8 167.9 177.2 180.5 178.1 176.7 175.8 175.1 175.6 175.5 172.9 171.7 169.1 168.3 166.1 168.1 172 172.4 174.3 177.5 178.2 179.2 178.9 178.1 176.8 176 173.1 168.1 167.3 166.6 166.4 166.6 166.5 164.8 158.8 153 148.9 144 137.3 132.4 121 103 102 103.6 103.2 102.4 100.8 98.2 104.9 121 104.7 105.7 115.4 127.8 134.9 144.6 151.3 151.8 152 150.8 151.2 153.2 154.1 153.9 153.5 153.3 153.1 153 153.3 153.7 153.8 153.5 153.3 153.1 152.1 151.2 149.9 148.4 147.9 147.4 146.6 146 144.6 145.2 145.6 147.1 146.5 146.4 145.8 144.8 145 142.8 141.3 141.1 141.8 143.1 143.1 142.9 140.8 134.9
259.7 245.9 242.2 245.1 257.2 262.8 269.1 279.1 285.8 290.8 296 294.3 288.9 307 313.5 317 323.5 340.3 361.1 381.5 404.1 428.9 448.1 469.9 487.3 487.5 479 461.3 439.6 416.1 397 380.2 365.4 352.6 338.1 324.9 311.6 300.1 287.3 279.1 270 264 256.1 249.8 247.3 243.1 235.3 234.7 234.9 235.2 236.5 238 235.9 231.9 225.9 218 211.6 208.5 206.4 204.6 203.2 202 202.1 202.2 203.2 203.9 204.5 206.5 206.5 205.3 203.6 201.3 199.3 198.3 196.7 194.9 191.8 188.7 186 186.2 186.7 186.4 185.6 184.7 185.2 186.8 188.6 190.3 190.9 190 188 187.3 186.7 186 184.5 182.8 181.4 178.5 171.5 160 160.8 161.6 168.3 175.6 176.2 175.3 174.4 174.3 176.4 174.6 171.6 170.5 168 167 166.4 166.7 169.6 171.4 171.3 175 177.8 179.2 178.6 177.7 176.8 174.4 169.1 168.3 168.4 167.6 166.4 165.4 162.9 156.2 147.9 146.3 140.5 133.4 122.9 114.6 106.6 100.9 104.9 104.7 103.7 102.4 101.4 99.1 106.8 121.9 95.7 112.1 120.5 128.3 135.7 147 151.1 151.8 151.6 151.6 153.7 156.2 156.7 156.1 155.4 155.2 154.8 154.6 154.9 155.2 154.9 154.6 154.4 154.5 153.5 152.5 150.7 148.9 148.5 148.1 147.4 146 144.6 144.4 144.8 145.4 146 146.2 145.8 144.3 144.6 142.7 141.7 142.2 141.1 138.2 140.4 138.7 133.5 128.3
245.2 246.2 256.9 262.9 270.5 278.4 284.3 294.4 301.5 306.9 310.4 305.1 300.5 312.1 320.1 325.8 333.1 342.7 358.1 380.4 405.9 432.2 453 475.4 491.2 494.3 481 461.8 441.5 414.8 389.3 366.4 348.4 335.7 323.8 312.9 301.7 290.8 282.6 275.7 274.5 269.2 261.3 260 254.9 246.9 245.3 245.2 245.4 246.2 246.3 244 239.5 232.8 224.7 217 212.1 209.7 208 206.8 205.7 204.9 205.3 205.5 206.2 207.8 210.5 213.7 214 207.8 204.7 201.9 200.5 196.9 195.2 193.3 190.3 187.4 187.2 187.7 187.2 186 185.6 185.7 187.3 189.5 191.7 192.7 192.5 190.2 188.5 187.4 186 185.2 183.8 182.7 182 180.3 176.2 164.7 157.1 158.8 161.5 166.6 169.8 170.4 172.2 175 174.1 171.6 171.3 170.3 168.4 168 166.6 166.4 166.5 168.1 172.2 171.8 174.9 178 178.1 177.6 175.8 170.7 169.2 168.7 167.5 167.1 165.2 161.5 154.3 147.6 141.2 136.8 129.6 116.7 108.8 105.4 104.9 99.4 108.7 111.9 107.8 102 101 97.8 110.4 110.9 99.4 120.1 130.4 137.3 134.4 140.5 148.9 151 151.9 153.3 155.9 157.5 158.3 157.9 157.3 156.7 156.4 156 156.1 156.4 156.3 155.9 156.6 156.9 155.9 153.7 151.9 150.7 149.4 149 148 147.1 145.4 144.4 143.7 143.2 143.3 145.2 145.5 144.9 144.3 143.2 142.5 142.8 142 138 133.6 132.1 130.8 136.7
248.3 263.2 271.1 274.6 279.7 291.1 300.6 308.6 316.9 325.3 325.3 317.1 310.5 315 328.3 335 345.7 356.5 368.5 385.4 406.6 431.6 457.1 476.5 493 502 482.4 461.9 440.3 414.3 387.3 365.7 346.3 331.1 317.2 306.7 298.5 291.9 286.9 282.6 277.3 273.5 270.9 266.5 262 251.6 254.7 254.9 256 254.3 251 246.7 240 231.5 223.4 218 214.5 212.7 211.2 210 208.4 208.2 208.8 209 209.8 211.7 215.8 218.8 210.8 215.3 206 202.7 201.7 198.4 194.5 192.2 189.5 188 189 188.6 187.7 187 186.5 187.6 190.3 193.6 194.4 194.4 192.5 190.2 188.7 186.9 186.2 184.8 183 182.4 182.1 180.3 176.6 171.1 160.4 156 158.3 161.3 162.4 165.1 168.1 169.5 169.9 170.2 169.8 169.3 170 168.7 166.7 166.2 166.9 170.9 172.2 170.1 171.2 175.6 177.6 176.4 172.1 170.3 169.3 168 165.4 163.2 157.9 152.9 144.2 132.4 125.6 118.8 109.2 105.3 101.9 101.4 101.3 105 123.1 120.4 114 104.2 99.8 98 107.7 104.8 109.9 132.3 142.6 150.6 150.9 148.3 150 152.1 153.2 155.2 157.3 158.8 159.7 159.5 159.1 158.2 157.4 157.1 157.4 157.8 157.6 157.2 157.8 158.4 157.6 155.3 153.3 152.6 151.5 149.9 148.6 146.9 145.6 144.6 143.6 142 141.9 143.7 144.8 144.7 144.4 143.7 142.4 141.2 141.6 138.7 132.1 133.6 138 141
269.7 272.7 282.9 287.2 291.7 301.7 315.5 322.9 331 339 336.1 328 322.7 319.1 331.5 342 355.7 369.1 385.3 403.2 418.4 435.3 457.9 477.7 491.9 497.5 475.9 458.1 440.2 411.2 384.9 363.8 345.5 333.8 323.9 313.5 304.4 297.4 291.2 286 280.2 276 272.6 269.6 266.3 259.2 260.3 260.3 260.3 258.9 254 248.3 239.9 232.5 225.5 220.6 218.4 216.3 214.7 213.2 212 211.7 211.7 212.1 212.3 215.9 218.5 210.8 210.8 209.8 202.3 202.4 202.7 197 193.8 191.4 189.3 189.8 190.5 190.1 189.2 188.5 189.1 191.2 194.3 195.6 195.6 194.6 192.7 190.7 187.5 186.5 184.8 183.2 182.6 182.2 181.6 179.7 175.5 170.9 164.2 156.5 158.3 160.3 160.5 164.4 168.2 169.6 168.9 168.2 169.4 170 169.8 168.5 166.3 165.5 165.9 168.6 169.4 169.3 168.5 172.1 176.7 172.5 169 165.5 162 160.8 157.8 153.3 149.1 141.7 126.1 108.4 102.3 109.4 111.8 111.5 110.6 110.3 114.6 129.8 132.2 128.2 119.1 109.4 98.2 101.2 103.6 101.6 117.8 138.7 152.6 159.6 158.5 155.1 155.6 157.3 156.9 157.7 159.1 159.9 160.6 160.8 160.2 159.4 158.5 158.5 158.9 159.2 158.9 158.5 158.6 159 158.3 156.5 154.6 153.8 152.9 150.9 149.2 147.4 146.1 144.8 144.1 142.1 141.1 142 142.7 143.9 144.2 143.4 142.1 140 140 134.4 134.7 137.7 141.1 141.3
287.4 288.3 295.2 303 306.2 311.7 325.2 337.5 344.2 350.2 346 337 325.9 330.4 338 348.1 364.1 381.8 403 422.5 438 453.8 466 478.8 486.4 479.5 457.9 445.6 428.9 404.3 387.7 368.1 351.1 337.8 327.5 318.9 309 298.3 291.8 285.9 280.7 274.1 269.5 268.8 267.1 269 266.3 265.5 265 262.9 257.4 249.5 241.4 235.8 230.6 225.3 222.8 219.9 218.6 217 216.4 215.8 216.9 216.5 217.8 216.7 218.4 210.8 210.8 205.7 202.9 202.6 201.5 195.3 192.7 191 190.7 191.6 192.4 191.8 191.5 191.9 192.7 195.4 196.6 196 195.9 194.8 193.1 189.7 187.2 185.2 183.9 182.8 180.9 181.1 181.3 178.8 172.9 169.2 164.9 157.7 156 161.3 158.9 168.1 171.7 171.1 170.7 169.2 169 170.4 170 168.5 166.2 164.6 164 162.6 162.6 167.6 167.8 169.3 173.2 167.7 166.3 162.9 160.2 155.2 149.6 145.1 139.2 125.3 104.7 115.1 127.9 132.7 133.6 134 133.5 132.6 136.2 139.4 135.9 130.2 122.4 111.3 98.6 97.3 95.9 101.9 123 143.1 158.6 161.4 159.3 156.1 157.2 159.3 159.3 159.6 160.3 161.1 161.7 161.8 161.4 160.1 159.4 159.8 160 160.2 159.8 158.9 158.3 158.5 157.9 157.1 156.2 154 152.4 150.9 148.6 146.6 145.4 144 142.4 141.5 142.1 142.6 141.2 143.3 143.1 142.1 141.1 137.2 136.5 137.4 135.9 139.1 140.5 140.5
300.5 304.9 305.8 315.4 318.2 327.1 336.2 348 354.4 358.5 351.4 343.1 333.4 339.6 352.4 364.3 376.9 395.6 418.8 439.7 454 468.2 480.3 484.7 478.9 460.5 442 427.5 411.6 402.2 392.1 376.8 358.4 343.7 331.2 320.9 310.6 301.2 294.8 290.8 284.1 280.3 277.8 275.8 274 273 272.1 272.3 270.7 265.6 257.6 249 242.4 238.7 234.3 232.1 228.6 224.9 223 222.1 221.8 222 222 221.4 218 215.6 213.1 211 209 203.4 203.2 202.6 196.6 193.8 193.8 192.8 192.6 193.4 193.4 193.4 194.3 193.6 195.2 196.5 197.4 196.4 196.5 195.1 191.3 188.6 186.5 184.9 184.8 184.4 182.6 178.8 178.3 176 169.8 166.2 162.8 162.3 155.5 158.1 158.7 169.8 171.4 169.9 168.9 168.4 169.4 170.3 169.8 168.6 166.3 164.4 163.2 161.5 162 163.2 166.4 169.1 170.2 169.3 168.4 165.5 163.3 158.5 150.1 144.9 133.1 116.3 109.7 124.8 137.1 141.3 143 142.6 141.4 141.4 141.5 140.1 135.7 129.7 124 111.5 100.9 100.3 104.8 116.2 132.7 148.9 161.4 161.2 158.8 155.7 157.7 159.9 160.7 161.1 161.8 162.5 163 163.3 162.8 161.4 160.5 161 161.4 161.1 160 159.2 158.4 158 157.8 157.4 156.5 154.3 151.7 150 147.5 145.5 144.3 143.9 142.6 142.1 142.7 143.5 143.6 143.3 141.6 140.7 138.8 137.4 139.8 140.1 135.9 138.5 139.7 138.6
316.7 319.8 317.3 328.5 333.3 341.3 352.8 362.4 366.4 367.9 360.1 349.8 343.3 346.2 365.4 385.1 397.7 410.2 431.6 452.1 463.2 477.3 490.2 480.6 461.6 443.9 426.4 411.4 406.4 402.2 389.4 374.9 360.3 345.9 333.2 322.6 312.3 304.7 300.6 297.6 292 288.6 285.7 283.4 282.4 281.6 279.5 276.2 271.5 264.9 257.4 250.7 245.4 241.1 238.9 236 233.1 229.7 227.6 225.5 224.1 223.9 224.8 222.3 219.5 216.6 214 211.1 204.1 203.5 203.3 199.8 197.3 196.9 195.7 194.7 194.8 195.3 194.4 194.9 195.5 195.8 195.6 196.3 197.1 196.3 195.4 193.6 190 188 186.7 186.1 186.1 185.2 182.6 181.3 175.3 170.6 166.1 163.7 162.9 160.4 153.7 156.1 158.4 170.8 172 169.8 169.4 170.3 169.4 169.4 169.5 168.3 166.5 164.5 162.8 161.5 161.1 162.7 166.2 169.8 169.5 170.2 168.3 165.5 162.2 153.2 147.8 141.7 130.1 114.3 107.5 125.4 141.8 148.1 149.4 147 142.8 141.8 141.9 141.2 135.9 128.7 123.6 115.7 107.4 110.8 117.2 128.6 139.7 154.4 161.1 160.5 158.7 158.1 159.4 160.8 161.7 162.6 163.3 163.9 164.4 164.8 164.1 162.2 161.4 162 162 161.5 160.4 159 158 157.5 156.4 155.7 155.4 153.2 151.3 148.9 146.1 144.6 144 144.3 144.2 143.5 143.3 143.9 144.3 143.4 140.9 140.1 140.7 140.6 139.9 138.3 135.4 135 135.1 134.7
332.3 333.5 330.8 338.1 349.9 358.1 371.2 377.1 380.7 380 373.3 363.6 355.6 354.9 378 401.4 415.8 426.8 443.2 456.5 468.5 479.6 474.3 460 442.1 429.4 414.8 397.8 401.8 394.1 381.3 369.1 356.8 344.9 333.1 323.4 318.3 312.9 307.7 304.8 301.2 298.2 296.3 293.3 291.2 290.2 288.2 279.4 271.5 265.3 259.3 253.6 248.8 245.2 242.3 239.8 236.7 233.1 229.8 227.7 227.1 226.7 225.3 223 220.5 217.8 215 211.5 206.1 203.4 202.6 198.9 199.7 199.2 197.9 196.7 196.5 195.7 196.3 197.3 199.4 199.4 197.2 196.5 196.1 195.1 193.6 190.9 188.4 186.4 186.2 186.3 185.9 183.7 182.4 181 176.3 167.9 163.3 161.9 160.4 159.3 154.3 156.1 162.3 172.8 172.7 170.5 169.9 170.2 169.4 168.8 168.4 167.7 166.2 164.5 163 162 159.9 161.1 165.8 168.7 169.1 169 167.5 161.4 152.1 149.2 144.4 137.9 128.9 113.6 105.3 120.3 143.5 151.1 150.8 150.1 147.2 143 142.7 141.5 135.5 128.7 124.2 120.7 118.5 119.9 128 139 149.7 159.9 161.9 160.8 160.6 160.6 161.5 162.4 163.2 164.1 164.8 165.4 166.1 166.4 165.1 163.1 161.9 162.4 162.4 162 160.8 159.1 157.7 156.6 155 151.5 153 151.9 149.5 147.1 144.9 143.6 144 144.2 144.7 144.5 144 143.7 143.4 143.1 141.8 140.8 140.7 137.7 132.9 129 129 129.1 128.6 129.2
348.9 349.6 347.6 346.4 363.3 374.6 385.3 396.6 404.5 397.2 388.4 380.1 368.1 367.8 390.2 413.2 428.7 439.1 446.7 457.6 462.6 458.3 451.9 440.6 428.2 418.1 396.9 388.9 392.8 383.9 374.5 366.4 355.8 344.6 335.8 331.3 325.4 320 315.2 312.1 309.4 306.9 305.4 300.3 297 293.7 287.7 278.5 271.8 266.2 261.3 257.4 253.7 249.9 246.2 243.3 239.3 235.2 231.8 230.8 230.1 227.9 225.6 223.1 220.5 217.7 214.2 210.8 207.5 207.5 202.2 201.7 202.4 201.2 199.6 199.1 198.2 198.6 199.1 201.7 203.3 202.1 199 196.6 195.2 193.7 192.3 189.1 187 186.3 186.5 186.1 185 183.6 181.8 180.2 173.9 166.5 161.3 159.7 158.4 156.6 152.9 155.8 164.4 172 172.8 169.5 168.2 169.8 170.4 169.9 168.7 166.4 165.4 164 163.7 163.2 160.8 159.9 163.3 167.6 168.4 168 166.1 159.2 151.5 145.5 140.6 135.9 124.1 113.7 107.3 116.1 140.7 151.7 151.6 151.2 150.6 147.1 145.4 145 142.1 132.6 126.1 124 123.8 129.5 139.6 151.1 158.8 162.8 162.3 161.3 162.1 163.1 163.8 164.5 165.2 165.8 166.5 167.4 168.1 167.6 165.9 164.1 162.3 162.8 163.2 162.6 161 159.4 157.6 155.8 153.8 151.6 151.4 150.7 148.8 146 143.5 142.4 143.8 144.6 145.2 144.4 143.7 143.3 143 143 142.3 141.5 137.9 130.7 128 126.5 123.7 123.2 123.4 124.4
361.1 363.1 361.7 361.1 370.6 387.6 397.6 411.9 419.6 412.8 405.5 396.7 379.5 384.9 403.7 420.9 433.7 436.8 444.3 451.4 448 441.5 433.9 420.7 410.7 397.6 383.7 377.9 380 375.3 370 363.4 354 347.5 344.1 338.5 331.8 326.8 322.5 318.7 316.3 313.9 310.3 305.3 298.8 292 285.4 279.2 273.4 269.3 264.9 261.6 258.4 252.9 247.8 244.3 241.7 238.2 236.3 233.8 231.2 228.7 226.2 223.7 220.9 217.9 214.2 210.9 208.5 206.5 204.9 204 204.4 202.8 202.2 202.5 202.6 203.1 202.7 203.9 203.4 200.8 198.4 196.1 194.2 192.5 190.8 188.3 186.9 186.2 185.9 185.5 184.2 182.5 181.3 179.3 173.1 162.5 157.3 156.2 155.2 152.8 153.7 155.1 168.6 173.3 171.5 166.7 166.2 167.4 169.5 169.6 167.9 166.2 165.3 164.5 163.6 163.8 162 159.6 159.8 165.8 167.8 167.7 164.3 154.8 148 142.6 140 136.8 126.7 115.3 107.8 117.6 145.4 151.9 151.8 151.7 151.6 150.8 149.5 150.6 148 140.3 132.5 131.4 132.3 140.8 150 159 161.7 163.6 163.6 163.4 164.6 165.5 165.9 166.4 167 167.7 168.7 169.4 169.6 168.2 166.5 164.8 162.4 163 163.5 163.1 161.6 160 158 156 153.9 150.3 149.6 148.7 146.7 144.8 142.1 139.9 140.8 141.8 140.9 139.3 141.4 142.5 142.6 142.3 141.6 139.4 134.8 128.8 128.9 128.8 125.8 121.3 119.4 119.5
375.5 378.8 380 377.7 383.6 387.8 409.1 421.8 431.9 432.7 425.1 409.7 389.2 403.8 420.7 430.3 422 417.5 420 427 424.8 415.7 408.1 397 388.2 381.5 371.3 367.2 370.1 369.4 370.6 364.5 358.6 358.5 352.3 344.2 337.6 331 325.3 321.6 318.6 316 313.2 307.6 299.7 292.9 288.4 285.1 280.6 274.3 268.4 263.5 259.7 254.1 248.7 246.1 243.7 241.1 237.9 234.9 232.4 230.5 228 225.2 221.9 218.5 215.2 212 210.2 208.3 206.5 205.3 204.9 204.2 204.7 205.1 205 204.6 204 203.2 202 199.5 196.8 194.4 193.3 192.2 190.7 189.2 187.3 186.7 185.5 184.5 183.5 182 180.7 179.7 171.7 157.4 155 152.7 152.8 151.4 153 160.9 172.2 171.8 169.2 164.4 164.9 166.9 168.6 168.6 167.6 167.3 166.2 165.5 163.3 163.5 163 160.1 155.7 166.3 168.3 167.4 164.6 155.3 146.4 142.6 139.9 137.7 130.2 117.4 109.7 121.7 148.9 151.9 152.3 152.1 151.7 151.7 152 152.5 153.3 149.4 143.9 144.7 147.5 152 158 162.9 164.5 165.3 165.8 165.3 166.6 167.5 167.7 168.2 168.8 170 171.1 171 170.3 168.7 167 165.4 163.2 162.8 163.3 163.6 162.4 161.1 158.6 156.5 153.5 149.4 148.2 145.6 144.3 143 140.5 138.8 137 136.2 134.9 133.4 134.8 137.4 138.7 141.4 140.4 138 132.7 129.4 130.9 131.2 129.8 126.5 123 119.8
394.3 397.7 399.9 396.9 402.2 404 418.7 441 452 452.9 433.3 414.3 409.5 424 437.9 439.3 422.9 410.8 399.9 395.8 390.8 384.4 380.2 375.1 368.1 361.7 357.5 355.6 360.3 365.9 368.3 365.8 367.7 365.4 355.4 346.5 338 330.4 326.1 321.7 317.1 318 315.6 311 303.6 299.5 296.7 292.6 287.4 279.6 271.5 264.1 260.1 254.5 249.5 247.1 244.8 241.5 238.9 236.2 234.4 232.6 229.6 226.2 222.9 219.5 216.2 213.6 212.7 210.6 208.7 207.2 206.2 206.2 206.9 207.1 206.9 205.7 204.2 202.5 200.3 197.9 195.2 194 193 191.8 191.7 189.9 187.4 186 184.9 183.1 182.1 180.8 180.2 177.4 166.8 157.1 153.7 150.4 150.5 150.8 150.9 157 166.5 169.1 166.8 162.3 162 165.8 167.6 168.8 167.7 168.1 167.1 165.9 163.5 162.7 162.1 155.6 159.4 167.2 167.9 167.5 165.9 158.9 149.8 144 140.6 139.1 135.6 119 105.9 126.7 144.1 152.1 152.5 152.7 153.1 153.3 153.6 154 158.2 155.1 154.4 155.7 157.8 160.8 163.9 166.1 166.5 167.3 168.1 167.4 168 169.2 169.5 170.1 170.8 171.9 172.1 171.8 170.7 169.1 167.5 165.7 163.9 162.8 163.1 163.6 163.4 162.1 159.7 158 154.4 150.2 148.5 145.3 143.7 143 141.9 139.8 136.7 136.2 136.2 133.9 133.1 132.5 134.7 139.8 139.4 136.8 132.5 130.9 132 131.4 130.6 128.5 126.2 123.3
408.6 418.8 420.6 418.6 424.9 430.8 434.1 453.7 471 466.9 442.3 429.1 429.5 444.9 452.3 451.8 446.7 437.6 421.4 408.2 386.5 371.3 362.3 357.5 355 352.4 349.4 347.1 350 357.1 362.6 365.7 373.4 363.4 351.5 341.3 334.4 329.1 323.7 315.7 321.4 320.5 317.7 314.4 312 309.6 306.6 302.7 293.5 282.9 275.2 267.5 260.7 255.6 251 247.8 245.1 242.2 239.9 238.3 236.8 234.2 230.8 227.4 223.9 220.8 218 216.6 215.2 213.4 211.7 209.5 208 208.2 208.5 208.2 206.6 204.7 202.9 200.9 198.6 196.2 194.1 193.5 192.9 192.8 192.2 189.6 186.9 184.9 182.9 181.2 180.7 180.4 179.4 175.5 165.7 157.2 149.4 150.9 151.1 150 147.9 146.4 145.6 158.7 158.7 158.2 160.3 164.1 167.2 168.4 168.8 167.9 166.9 165.7 163.8 161.7 160.2 150.3 160.5 166.2 166.3 165.7 165.4 164 156.2 149.6 142.8 140.3 139.3 120.6 110.8 130.9 140.8 148.8 153.2 153.9 153.8 154.3 158.9 162.3 162.6 160.1 161.4 162.2 163.9 165.3 167.6 168.4 168.6 169.2 169.4 169.6 170 170.9 171.1 171.6 172 172.6 172.8 172 171 169.4 167.7 165.9 164.2 162.7 163 163.2 163 162.2 160.7 159.1 155.6 151.7 148.4 145.9 144.3 142.5 140.6 138.9 137.6 138.4 138 137.6 137 135.9 132.7 134.1 136.6 134.1 132.3 133.7 133 132.2 130.3 128.9 127 120.5
412.2 431.1 440.8 442.2 448.5 455.9 459.1 470.2 488 481.2 457 454.4 450.6 459.2 465.9 470.4 463.3 446.1 426.3 406.5 385.2 372 359.6 350.6 347.4 344.7 341.7 339.7 341.4 346.4 355.5 361.3 365.5 354.9 342.8 334.7 329.6 323.1 315.2 319.1 320.7 321.3 321.9 322.2 322.9 321.1 317.1 310.7 299 284.5 276.3 268.8 260.5 254.5 249.8 246.9 244.5 243 241.7 240.4 238.4 234.5 231 227.4 224.7 222.2 220.1 218.6 217.3 216 214.7 213.5 211.6 211.7 210.8 208.2 206.2 203.8 201.5 199.4 196.8 194.4 192.8 192.6 192.7 193.2 191.8 188.5 185.9 183.4 180.4 180.2 179.9 179.1 176.9 174 169.4 160.5 148.5 148.7 145.9 148.4 144.9 146.5 143.5 144.2 153.7 156.4 157.6 162.1 166.2 167.8 168.4 166.8 166.6 165.2 164.1 160.1 152.8 149.9 160.9 162.1 156.8 151.1 150.2 153.7 150.4 141.7 130.8 128.9 131.7 116.8 111.2 127.6 137 145 151.9 154.4 156.5 161.4 164.9 165.2 163.8 162 164.8 166.7 168 169.3 170.4 170.9 171.3 171.1 171.2 171.5 171.9 172.4 172.4 172.8 173.2 173.3 173.4 172.7 171.3 169.6 167.9 166.2 164.6 163 162.2 162.2 162.2 161.6 160.3 158.3 155.7 153.1 150.1 148 144.9 142.4 139 139.1 140 139.6 140 141.4 140.9 139.5 137.6 135.8 135.7 133.4 134.1 135.6 135 133.4 131.9 130.4 124.2 119.5
416.4 440.1 459 465.2 471.9 479.1 485.6 495.6 504 498.7 482.5 477.7 472.9 471 478.6 472.8 455.2 433.8 413.4 392.5 376.9 367.8 354.6 347.3 342.4 339.8 336.4 334.8 334.5 336.9 345.8 353.4 356.6 346.5 336.2 328.7 323.8 318.5 310 313.6 321 327.4 331.2 334.2 333.4 330.4 324.7 313.2 298 282.3 274.5 266 257.9 251.7 247.8 246.3 245.3 244.4 243.3 241.4 238.1 234.4 230.9 228.4 226.2 224.1 222.1 220.5 219.1 217.8 216.6 216 215.6 214.1 211.2 208.4 205.5 204.4 200.5 197.8 194.9 193.3 192 191.9 192.2 191.8 190.6 188.1 184.1 181.2 179.6 179 178.5 177.2 175.1 172.9 172 164.4 157.9 153.2 149.7 150.7 152.1 146.1 144.4 141.3 145.9 151.2 153.4 160 164.2 166.5 166.8 165.5 165.8 165.4 163.7 161.2 155.2 148.3 160.6 153.8 142.9 135.4 129.3 129.4 132.2 122.5 116.9 113.3 108.8 106.9 112.5 122 130 137 144.4 155.5 162 166.6 168.2 166.8 165.4 165.9 168.7 169.8 171.2 172.3 172.9 173.4 173.8 173.9 173.5 173.7 173.4 173.2 173.6 174 174.4 174.5 174.2 172.9 171.5 170 168.4 167.1 165.6 164 162.3 161 160.9 160.4 159.3 157.9 156.2 154.5 151.7 148.9 145.8 142.6 140.3 141.3 141.9 141.3 140.1 140.7 141.9 141.8 140.9 140.3 138.8 135.3 137.9 137.8 136.5 134.8 133.1 129.8 121.3 124.1
430.6 450.3 470.5 484.7 498.4 508.4 516.8 522 525.9 521.4 509.9 504.3 494.4 489.1 481.8 463 442.3 424.4 403 383.1 370.2 357 349.6 344.8 339.9 335.6 333 331.4 329.6 329.2 333.9 343 345.5 339.2 332.3 325 319.9 312.2 306.3 317.9 331.5 337.1 340 340.3 340.2 333.4 323.6 307.4 291.1 277.7 271.1 261.2 254.9 251.1 248.4 247.9 247.4 246.4 244.3 241.5 238.4 234.9 232.2 229.6 227.9 225.8 224 221.7 219.8 218.7 217.7 217.1 215.4 212.8 209.9 205.9 203.6 201.9 200.6 196.7 194.3 192.6 191.1 191 191.2 190.2 189 187 183 179.7 179.1 178.1 176.3 175.7 172.8 172.5 169.5 168.4 165.3 160.7 158.8 158 157.1 152.8 151.8 145.1 139.2 145 149.6 157.9 163.6 166.1 166.7 165.6 165.6 166.1 165 163.6 156.6 139.7 147 141.5 131 121.5 115.6 111.3 112.3 115 113.5 112 107.7 119.4 126 127.8 133 143.5 145.6 150.6 162.6 167.3 168.6 168.3 167.6 169.4 171.9 172.4 173.3 174.8 175.3 175.5 175.8 175.8 175.3 174.8 174.3 174.1 174.6 175 175.4 175.1 174.3 173 171.7 170.7 169.4 168.2 167.6 166.5 163.3 161.8 161 160.2 159.3 158.3 156.8 154.8 152.3 149.5 146.1 143.7 144 145.2 145.9 145.7 144.4 141.7 140.9 142.2 141.8 140.7 139.4 139 139.3 139.2 138 136.3 134.5 128 124.3 129.2
450.9 465.1 485.9 508.4 525.5 536.8 545.3 551.9 551.9 544.3 532.7 521.8 512.3 497.4 473.8 454.1 435.2 413.7 393.3 377.7 365.3 358.7 353 345.3 338 333.5 330.3 328.3 326.9 325.5 325.7 332 338.4 337.1 330.4 323.3 314.8 303.3 316.8 328.9 339.3 343.9 344.4 343.2 338.7 330.5 314.7 298.8 282.9 272.9 267.8 258.9 253.8 251 250.7 250.4 249.1 247 244.5 242 239 236.4 233.7 231.1 229 227.3 225 222.7 220.6 219.2 218.4 216.7 213.9 210.9 206.6 204.1 203 198.8 196.7 195.1 192.7 191.1 190.1 189.2 189.6 188.9 187.5 183.5 180.7 178.8 177.9 176.7 175.6 174.3 172.6 170.8 169.7 168.5 165.7 162.8 161.6 160.1 159.2 157.7 153.9 151.6 141 140.9 145.4 155.5 161.2 165.6 166.9 167 166.6 165.9 158.4 150.8 141.4 128.5 132.4 127.6 120.7 117.1 114.9 112.8 115 112.6 110 110.1 116.9 129 136.8 142.8 146.8 154.3 159 155.4 150.7 156 167.7 170.3 171.5 173.7 175.7 175.6 176 177 177.1 177.1 177.4 177.1 176.3 175.6 175.3 175.2 175.5 176 176.1 175.3 174 172.9 171.7 170.9 170.2 170 169.4 168.9 164.7 163 161.3 159.9 159.2 158.5 156.2 153.6 151 148.2 145.9 144.8 146.1 147.9 149.3 149.1 147.6 143.9 141.9 140.6 139.7 139.1 140 139.7 139 139.9 139.2 137.7 134.5 126.2 129.2 133.5
474.9 490.1 505.7 524 541.4 556.7 565.8 571.4 567.6 554.1 541.5 530.8 512.3 490 467.4 447.8 426.4 408.4 392.9 378.3 369 361.7 352.5 342.9 336.3 332.7 329.8 326.7 324.6 323.3 323.1 328.8 337.9 334.7 328.3 320.2 307.3 310.9 322.3 334.3 343.2 344.9 343 339.2 333.3 320.3 303.7 286.7 274.4 269.3 266.6 257.7 253.8 253 253 252.6 250.2 247.3 244.8 242.3 239.7 237.2 234.5 232 229.7 227.7 225.6 223.6 221.5 219.9 217.9 215.3 212.2 207.4 204.7 201.2 198 197 194.8 194.6 193.6 189.6 186.8 185.9 187.1 186.6 183.7 181.5 179.1 177.4 176 175.8 174.7 173.2 171.7 169.9 169.4 167.4 164.2 162.4 160.6 160.2 159.7 157.2 153.3 152.9 150.4 144.7 138.6 151.9 158.3 164.7 166.9 166.4 157.1 141.8 131.9 122.5 115.4 119 123.2 122.2 119.3 116.4 115.1 113 117.1 116.6 118.7 123.5 129.7 135.4 144.9 151.9 154.5 158.9 163.6 165.8 165.5 161.6 165.8 171.9 174.4 176.4 177.3 177.4 178.1 178.6 178.6 178.7 178.7 178.2 177.2 176.4 176.4 176.3 176.5 176.9 176.3 175.1 173.8 172.8 172 171.6 171.2 171.6 171.4 170.9 167.2 163 161 159.8 159.1 157.7 155.2 152.3 149.8 147 146.8 147.6 148 149.1 149.8 149.7 147.9 146 145.8 145 143.6 143.4 145 144.5 143.1 142.2 141 139.1 132 128.2 134.7 137.8
493.3 503.5 517.2 532 547.4 560.7 566.7 564.7 556.5 545.9 532.8 515.3 497.5 478 459.1 441.2 422.7 407.5 394.1 378.8 367.6 358.8 349.4 341.1 339 334.6 330 326.3 323.9 322.1 321.5 325.8 333.1 330.1 324.6 315.3 301.2 314.8 327.1 335.4 339.4 339.4 335.3 329.1 318.6 306 290.5 278.2 271.6 267.8 263.2 256.5 254.5 254.8 254.3 253.7 250.7 247.1 245 242.5 240 237.6 235.1 232.2 229.7 227.5 225.6 223.6 221.6 219.2 216.3 213 209.1 205.2 202.5 199.5 196.1 195.2 195.3 194.7 193.6 193 189.6 184.9 183.5 183.6 180.9 179.6 177.8 176.3 175.5 175 173.5 172.4 170 168.3 167.7 164.5 161.5 158.1 157 158.5 159 156.3 153.1 152.2 149.8 144.6 136 150.3 157.4 164.5 167.3 162 144.8 130.9 122.2 120.1 121.7 117.9 116.5 121 119 116.4 114.7 118.6 121.8 124.2 131.7 136.3 145 153 156 156.3 158.8 164.1 167.3 169 170.6 169.4 165.3 173.8 176.8 178.2 178.5 179 179.9 180.2 180.3 180.6 180.1 179.1 178.1 177.4 177.4 177.5 177.5 177.5 176.2 175 173.8 173 172.3 172.3 172.5 173.1 172.9 172 169.2 164.4 161.2 159.4 158.9 157.6 155.3 153.1 149.9 149.9 150.7 150.8 150.9 150.8 150.9 150.3 149.1 148.5 149.2 149.1 148.6 148.8 148.2 147.2 145.7 144 142.8 138.8 130.9 135.3 141.1 142.7
496.7 501 513.2 527.7 538.2 544.7 551.8 550.2 539.1 527.1 512.6 495.1 480.2 463.4 445.4 434.1 419.7 404.2 388.2 373.3 362.1 354.5 349.1 346.7 343.4 338.2 332.6 326.1 323.4 321.6 320 321.8 325.1 325.3 320.8 306.9 304 316.5 326.4 330.9 333.6 330.6 324.5 313.2 303.5 292 280.3 273.9 269.6 267.4 260 256.5 256.3 255.9 254.7 253.1 250.2 247 244.9 243 240.7 238.5 235.4 232.1 229.3 227.1 224.8 222.5 220.2 217.5 214.2 209.2 206.3 203.4 200.4 196.2 195.3 195.9 195.4 194.8 194.5 192.8 189.8 186.3 179.7 180.2 179.8 178.5 176.9 175.7 174.7 173 170.8 170.5 168.5 166 162.4 154.6 145.5 139.8 139.4 141.6 149.1 152.2 151.9 149.6 147 140 139 153.8 161.9 167.3 167.4 160.2 144.9 125.4 118.2 123.6 122.6 120.9 117.5 116.4 117.6 113.3 122.3 130.1 133.7 137.9 143.6 155.7 157.1 157.2 157.5 159.4 164.6 168.4 170.5 172.9 174.8 174.5 168.4 175.8 178.6 179.3 179.6 180.2 181.2 181.8 182.1 182 181 180.4 179.8 179.4 178.7 178.3 178 177.4 176.3 175.1 174 173.3 172.9 173.1 173.7 174.3 174.4 172.1 169.7 165.4 161.1 159.3 159.5 157.9 155.9 152.7 154.4 154.8 154.8 154.8 154.3 153.2 152.7 152.1 151.5 150.9 152.2 152.3 152.3 151.8 151 149.7 147.8 146.1 144.2 137.6 138.8 144 147.1 147.1
483.4 479.6 494.9 509.3 516.3 522.7 530.9 531.2 519 502 491.6 476.3 461 443.3 430.6 420.3 412.1 397.6 382.6 368.8 361.2 357 356.4 354.6 350 343.6 336.2 328.6 325.2 322 320.4 320.1 323.2 323.4 316.5 299.1 305.7 314.1 321.5 326.8 323.1 318.7 309 301.9 292.9 282.3 277.2 272.8 269 266.2 262.3 258.1 257.3 256.3 254.2 251.8 249.2 247 245 243.2 241.6 238.8 235.1 231.8 229 226.4 223.5 220.8 217.8 214.4 211 206.8 204.3 201 199.3 196.4 196.5 195.9 194.6 194.9 193.6 191.6 187.3 184 179.9 177 178.3 177.8 175.5 173.9 171.8 170.6 170.4 168.6 164.3 160.3 148 133.8 143.9 146 147.3 141.6 136.1 145.5 148.3 143.7 141.5 136.3 140.6 156.9 167 167.9 167.2 158.1 140 125.2 117.6 125 123.3 123.4 121.7 118.9 121.5 129.8 137.4 144.3 150 153.2 157.6 158.4 158.2 158.8 160.4 164.3 168.8 172.3 174.8 177.6 179.6 178.9 173.1 178.6 180.6 180.9 181.1 181.2 181.3 182.7 183.1 183 182.3 181.8 181.5 180.9 180.2 178.9 178.3 177.6 176.5 175.4 174.4 173.7 173.4 174.2 174.5 174.9 174.2 172.1 169.8 166.3 162.3 160.3 159.8 157.7 154.7 154.7 156.9 157.6 158 157.8 157.1 156 155.1 154.4 154 153.6 154.6 155 155 154.5 153.5 152 150 148.4 145.5 135.5 144.7 149.4 151.8 150.8
460.5 459 479.9 493 506.6 514.9 520.1 516.1 500.4 480.6 470.4 456.9 441.8 425.9 412.5 404.3 404.3 393.9 379.5 371.6 366 365.2 366.1 362.1 356.7 349.3 339.7 332 327.1 323.2 319.9 318.1 320.6 320.5 309.2 293.2 303.9 309.6 311.2 316.8 310.6 303.4 298.3 293.9 284.3 277.9 274.3 271.8 268.6 267.3 264.7 260.3 258.3 256.5 254 251.5 248.8 246.4 244.9 243 240.8 237.6 234 231.3 228.6 225.6 222.1 218.4 215.2 211.8 207.7 204.4 201.5 199.3 197.5 197.1 195.7 194.7 194.7 194.3 192 188.9 184.3 181.6 179.8 177.4 175.5 173.9 170.9 169.6 169.2 168.3 168.9 164.9 157 146.7 138.7 147.3 156.7 157.4 155.1 148.5 140.9 131.9 143.3 137.5 132.8 134.7 143.5 156.5 161.1 161.6 160.9 151 135.3 123.2 118.8 128.6 123.1 123.9 130.1 136 140.9 148.8 150.8 154.6 156.8 158 158.7 158.9 159.8 161.9 164.8 169 173.8 178.6 180.9 182.9 184 182.5 174.9 181.1 182.4 182.7 182.9 183.1 183.1 184.1 184.9 184.9 184.4 183.7 183.2 182.4 181 179.7 178.7 178 176.9 176 175.2 174.2 174.3 175.2 175.2 174.8 173.7 172.1 170 167.2 163.7 160.8 159.8 157.2 154.7 156.7 158 159 160 160.6 159.7 158.3 157.3 156.9 156.6 156.4 156.9 157.4 157.5 156.8 155.6 154.1 152.4 150.3 146.9 138.5 144.4 152.9 155.5 154.6
438.1 442.3 459.5 477.7 492.9 506.4 515.3 509.1 486.2 466.7 449.9 436.2 423.4 404.8 393.3 388.5 394.4 387.7 380.6 373.3 371.5 374.4 373.1 369.7 362 353.4 343.8 335.7 330.3 324.4 319.8 316.1 315.5 314.1 304.9 290.7 297.9 301.7 302.8 303.2 297.9 293.5 291.9 284.9 278.2 274.2 271.6 269.2 267.5 267.5 264.6 261.1 258.4 256 253.5 251.4 249 246.1 244.8 242.4 239.1 236 233 230.5 227.1 223.3 219 216 212.5 208.6 206.2 202.6 199.1 197.8 197.2 195.9 195.3 195.1 194.7 192.7 189.6 185.3 181.9 180 178.7 175.7 172.5 167.6 165.7 163.8 160 156.2 155 156.1 147.5 138.5 137.3 156.7 159.6 159.7 156.3 150.1 143.4 134.9 136.3 133.7 131.4 134.5 140.3 149.9 156.6 159.9 159.3 150.9 136.7 124.7 118.3 131.2 129.3 136.4 147.8 151.7 153.9 155.5 156.6 158.2 158.7 159.4 160.5 162 163.9 166.3 169.4 173.4 178.7 185.2 188.5 189.9 187.2 183.4 178.4 182.6 184.2 184.5 185.1 185.7 186 186 186.5 186.7 186.2 185.6 184.7 183.3 181.8 180.4 179.4 178.3 177.5 176.7 176 175.8 175.8 176.3 175.6 174.7 173.3 171.7 169.9 167.5 164.7 161.9 159.1 156.8 156 159 160.8 161.1 161.4 162.4 161.6 160.7 159.7 159.9 159.8 159.6 159.3 159.5 159.6 159 157.7 156.1 154.7 152.7 151.3 146.2 143.8 148.6 152.8 153.8
