ncols 200
nrows 82
xllcorner 250000
yllcorner 64350
cellsize 50
142.7 145.6 148.4 152.6 156.6 160.8 165.2 169.3 173.6 177.9 182.7 186.7 190.6 193.4 195.9 197.8 199.5 200.4 201.6 202.6 203.4 202.7 201.8 201.5 200.1 197.3 192.8 188.1 183.3 177.2 169.5 164.1 159.2 154.7 147.8 142.5 143.1 143.5 137.7 136.4 136.3 138.2 146.2 150.5 153.4 156.1 158.8 161.6 162.7 164.6 166.7 170.4 174.4 178.2 181.8 185.3 188.8 192.4 194.3 195 195.2 194.5 193.6 191.9 186.8 180.4 182.3 186.7 191.4 194.2 197.1 199.8 202.8 206.3 209.5 212.6 215.7 218.9 222.2 225.5 229 232.6 237.1 242.3 247.9 254 260.1 265.8 270.2 274.9 279.7 284.6 289.3 291.5 292.9 293.4 293.2 290.2 284.4 272.9 258.7 244.3 232.2 226.3 218.3 218.3 218.3 218.3 218.3 218.3 218.3 218.3 218.3 218.3 218.3 223.9 231.3 239.3 248 254.5 259.2 265.2 271.9 277.8 285.2 291.9 297.2 303 308.7 318.2 326.2 336.6 346.1 348.5 347.6 336.2 322.8 311.1 304.7 301.7 299.5 300.2 300.3 299.5 298.1 297.1 298.9 301.6 303.2 302.2 298.4 292 286.8 279.9 272.5 278.4 286.5 289.8 290.2 288.3 287.5 281.7 278.3 275.4 271.7 269.4 269.5 268 268.8 274.5 283 294.9 297.8 303 311.4 312.7 312.9 316.3 322.5 329.9 335.1 339.6 345.4 351.8 358.7 366.1 374 381.9 391 400.3 408.2 415.8 422.7 428.9 434.4 439.1 443.3 446.1 447.4 447.3
146.1 148.7 151.4 154.9 158.9 162.9 167.1 171.2 175.5 179.4 183.7 187.6 191.1 194.2 196.4 198 199.4 200.3 201.4 202.5 202.9 202.6 201.7 200.7 199.8 197.1 193.1 188.1 182.5 175.9 170.3 164.9 159.7 155.1 151.7 149.1 146 146.7 144.4 140.5 140.7 142 146.9 153.7 158.1 161.4 163.3 165.9 168.8 170.7 172.6 174.9 176.8 179.5 183.4 186.8 189.8 191.4 192.9 193.3 191.9 190.7 190.2 187 179.8 179.7 185.2 189.5 192.9 195.5 197.9 200.1 203 206.6 209.7 212.2 215.1 218.4 221.9 225.5 229.6 233.4 238.3 243.9 250.4 255.9 260.3 264.8 269.2 273.3 278.4 283.4 286.9 288.4 289.9 290.9 290 287 278.2 266.8 253.8 237.8 225.6 218.3 218.3 218.3 218.3 218.3 218.3 218.3 218.3 218.3 218.3 218.3 218.3 224.4 232.3 241.5 250.4 258.8 265.4 272.2 278.4 284.3 290.2 296.7 302.5 309.5 316 326.2 336.7 353.9 356.5 357.3 352.8 343.2 331 320.5 312.9 309 306.8 305.8 304.6 303.2 301.2 299 299.9 300.9 300.8 300.4 298.4 294.4 289.8 286.6 281.4 282.7 290.6 293.7 294.5 292.7 293.9 293.5 292.9 293.6 290.2 284.5 281.3 280 278.6 276.3 281 298.8 307.4 310.8 314.3 316.7 317.6 317.4 320.4 327.2 333.6 338.2 344.2 350.2 356.9 364.3 372.3 380.5 389.7 398.3 406 413.5 420.6 426.9 432.7 437.1 440.8 443.4 444.7 443.6
149.5 152.8 155.2 157.7 161.4 165.1 168.7 172.6 176.7 181.2 184.5 188.2 191.5 194.6 196.6 198 199.2 200.2 201.3 202 202.4 201.9 201.2 200.1 198.8 196.6 192.5 187.9 182.5 175.4 170.3 165.3 162.2 159.6 156.6 155 151.9 148.6 147.4 145 145.6 147.1 149.8 155.7 160.7 164.4 167.1 169.2 171.6 174.2 176.9 178.6 180.7 182.5 185.4 187.4 188.9 190.6 191.3 190.4 188.8 187 183.4 179 176.4 180.8 185.6 189.1 192.1 195.1 197.5 199.8 202.6 206.1 208.7 211.3 214.5 217.7 220.7 224.5 228.7 233 238.5 246.2 250.4 254.5 260.2 264 268.5 271.6 275.2 279.9 283.7 285.5 287 288.5 288.1 285.1 275.6 262.6 248.8 231.8 218.3 218.3 218.3 218.3 218.3 218.3 218.3 218.3 218.3 218.3 218.3 218.3 218.3 221.8 230.5 240.5 251.1 260 268.3 276.1 283.2 289.9 295.6 301.7 307.5 313.7 320.1 329.7 347.2 361.2 363.9 358.7 353.3 345.8 336.2 327.1 319.2 314.6 311.4 309.5 307.4 305.4 303 300.1 299.1 299.3 299.5 299.6 298.9 297.8 295.3 291.4 287 282.4 291.8 295.1 296.1 296.1 297.7 299.4 301.7 303.5 305 303.5 300.6 298.1 296.1 292.3 282.4 292.8 305.2 310.7 314.4 316.4 318.5 319.5 320.4 325.5 332 337 342.1 347.5 354.7 362.8 370.9 378.6 387.2 395.9 403.5 411.1 418.3 424.7 429.9 434.4 437.3 439.9 440.9 440.4
156.4 159 160.5 162.9 164.6 167.2 170.9 174.5 178.8 182.7 186.3 189.5 192.3 194.6 196.8 198.1 199 200.1 200.8 201.5 201.4 201 200.5 199.8 198.7 196.7 192.8 188.2 183 177.4 173 169 166 164.2 162.7 160.5 157 152.8 151 149.4 150.3 152.3 155.4 159.3 163.8 167.7 170.5 173.2 176.2 179.1 181.4 183.3 184.1 185.7 187.6 188.3 189.1 189.9 189.7 188.4 186.4 182.5 178.2 175.5 175 179 183.7 187.2 190.6 193.7 196.4 199.1 201.6 204.5 207.2 210 213.2 216.2 219.6 223.1 227 231.5 239.2 245.8 251.2 255.3 259 262.9 266.6 269.9 273 275.7 279.6 282 284.1 285.5 285.8 283.2 277.1 263.2 245.9 227.4 218.3 218.3 218.3 218.3 218.3 218.3 218.3 218.3 218.3 218.3 218.3 218.3 218.3 219.6 228.4 237.2 248.6 258.1 268.3 278.2 285.7 292.2 300.1 306.8 312.1 317.4 322.4 331.2 351.4 364.9 363.5 358.9 353.4 346 338 330.3 324.1 318.9 314.4 311.7 308.7 305.9 302.9 299.8 297.6 297 297.5 298.7 299.5 299.7 298.2 295.9 292.2 287.5 290 294.4 295.7 297.9 300.6 302.3 305.1 308.2 310.4 312.8 313.6 313.2 311.9 307.9 303.4 301.1 298.2 305.3 308.9 312.1 316.5 316.8 320.5 322 328.6 331 337.5 347.9 354.7 362.9 369.4 376.9 385.5 393 400.7 407.7 414.3 420.3 425 429.4 432.7 434.9 436 436.1
161.2 163.3 165 166.6 168.5 170.4 174 177.4 181.2 184.9 188 190.6 193.2 194.9 197 198 198.9 199.7 200.4 200.7 200.5 200.1 199.7 199.2 198.1 197 192.5 189.1 185.2 181.4 177.9 173.8 170.6 169 166.8 163.8 160.6 157.7 156 153.6 155.9 158.1 161.3 164.7 168.8 173.7 178.3 181.9 186.1 188.8 189.8 189.4 188.9 189.4 189.1 188.9 188.7 187.6 186.8 186.1 183.2 178.7 173.9 171.9 174.1 177.8 181.7 185.6 189.1 191.7 194.4 197.2 199.9 202.5 205.3 208.1 211.8 215.4 218.8 222.4 226.2 230.5 237.7 245.2 250.2 254.1 257.8 261.5 265 267.7 270.3 272.8 275.9 278.4 280.9 282.6 283.4 282.3 276.8 262.6 245 227.9 218.3 218.3 218.3 218.3 218.3 218.3 218.3 218.3 218.3 218.3 218.3 218.3 218.3 219.6 226.9 235.2 244.1 254.1 264.9 276.3 286 294.3 302.6 310.3 315.3 319.8 324.2 331.5 354.8 367.1 362.9 357.8 352.4 344.5 338 331.9 326.1 321.2 316.5 312.5 309.2 305.8 302.2 298.6 295.3 292.6 294.6 297.7 299.6 299.7 300 298.2 295.6 290.9 289.2 292.3 295.7 298.7 301.9 305.1 307.9 311.3 314.3 317.2 319.4 320.1 320.5 318.2 315.5 313.5 308.3 302.1 307.6 306 311.8 319 321.5 324.7 327.6 333.7 335.4 347 355.1 361.2 368.1 375.5 383.2 390.1 397.3 404.1 410 415.3 419.4 423.8 427.2 429.2 431 431.1
165 166.9 168.6 170.3 172.3 174.1 177.1 180.1 183.1 185.8 188.5 191.2 193.8 195.5 197.1 197.5 198.2 199.2 199.9 199.6 199.4 199.2 198.8 198.3 197.7 196.6 193.6 190 186.7 183.2 180.4 178.4 175.4 172.7 170.9 167.3 165 162.4 162 159.7 165.2 167.5 169.1 170.9 174 179 183.5 187.8 191.3 194.3 194.2 195.4 194.3 192.7 191.2 188.4 187.2 185.4 183.6 182.1 180.2 174.6 170.1 168.8 172.4 176.4 180.5 184.3 187.2 189.7 192.4 195.1 197.7 200.5 203.3 206.5 210.5 214.3 217.4 221.4 225.3 229.5 236.2 243.3 248.6 252.5 256.2 259.6 262.4 264.7 267.2 269.8 272.7 275.3 278.1 280.1 280.7 279.7 274.4 261.7 243.7 228.5 218.3 218.3 218.3 218.3 218.3 218.3 218.3 218.3 218.3 218.3 218.3 218.3 218.3 219.9 226.5 234.8 241.1 250 260.8 270.8 282.5 294.6 303.6 310.8 315.5 320 323.7 330 349.2 365.9 361.3 355.8 349.7 343.4 337.1 330.8 325.5 320.2 315.1 311.3 307.4 303.4 299.5 295.6 291.8 289.2 293.1 296.2 298.3 299.1 299.4 299 296.3 293.4 288.7 292.2 296.3 299.2 302.4 305.7 309.1 312.7 316 319 322.1 323.4 324.7 324.1 323 321.8 319.4 319.1 321.2 323.5 322.8 319.3 321.4 323.6 328.5 333.1 339.2 343.5 354.8 361.4 368.6 375 381.2 387.9 394.4 399.6 405.8 410.1 414.2 418.2 421.6 423.5 424.7 425.3
167.9 169.7 171.3 172.8 174.4 176 178.2 180.9 183.6 186.3 189 191.7 193.4 194.8 195.6 196.2 196.9 197.5 197.9 198.2 198 197.8 197.8 197.6 197.3 196.7 194.6 191.2 188.7 185.6 183.1 180.4 179.8 176.6 174.6 171.5 169.9 167.1 166.3 167.4 172.7 176.9 177.7 178.8 179.9 182.9 187 190.9 194 195.3 196.9 197.4 196.3 194.3 191.9 188.3 184.7 181.9 179.6 177.2 175.2 169.8 165.4 167.2 171.4 175.3 179.3 182.1 184.6 187 189.4 192.4 195.4 198.5 201.7 205 209.1 212.9 215.9 220.3 224.4 229 234 241.3 245.9 249.8 253.8 256.6 259.3 261.7 264.1 266.5 269.5 272.5 275.3 277.4 277.9 276.4 270.4 256.6 240.6 224.7 218.3 218.3 218.3 220.3 222 218.3 218.3 218.3 218.3 218.3 218.3 218.3 218.3 222.2 227.8 234.3 241.2 246.6 255.3 264.6 277.2 289.1 300.6 307.4 310.9 315.3 318.2 325 342.5 359.5 363.5 349 344.3 339 333.2 327.5 321.8 317 312.7 308.2 303.6 299.2 295.4 291.4 288 287.5 290.7 293.9 296.4 298.3 298.8 298.7 296.3 293.5 291 291.6 295.3 299.4 302.9 306.1 309.4 313.2 316.9 320.3 323.1 325.7 327 328.3 327.7 327.5 326.5 327.5 329.4 331.6 331.9 331.2 330 331.7 334.5 337.9 344.4 351 356.7 362.5 368.7 374.5 381.1 386.8 392.6 397.5 402.8 406.5 410.7 414.2 415.9 417.4 418.5 419.6
169 170.8 172.5 174 175.1 176.7 178.8 181 183.7 186.1 188.4 190.7 191.9 193.2 193.8 194.2 194.9 195.7 196 196.4 196.5 196.2 196.5 196.8 196.9 196.9 195.3 193.1 190.5 188.5 186.3 184.4 182.8 182.1 180.1 178 175.9 174.6 174.4 176.8 178.4 181.5 184.4 185.3 186 187.4 189.2 191.3 193.5 195.3 196.8 197 196.7 194.9 191.3 187.6 183.3 179.3 175.1 172.5 169.7 164.4 161.9 163.5 170 173.6 176.5 178.8 181.2 183.7 186.8 190.4 193.7 196.9 200.3 203.6 207.2 210.6 214.2 218.5 222.6 227.4 232.6 237.8 242.4 246.1 249.8 252.6 255.1 257.3 259.6 262.6 265.6 268.3 271.9 274.3 274.3 273 267.5 254.3 236.8 221.9 218.3 218.3 218.6 226 230.1 227.3 221.7 218.3 218.3 218.3 218.3 218.3 218.3 222.5 228.8 234.1 239.6 245.3 251 258.7 268.8 279.8 290.7 296 301.2 304.4 307.8 313.8 321.9 329.1 339.9 338.8 336.2 332.1 327.4 322.2 317.5 312.9 308.1 303.1 298.5 293.9 289.2 285.3 281.9 284.9 287.9 291.2 293.7 295.8 297.8 298.2 296.8 294.8 292.5 292 294.8 299.6 303.1 306.4 309.5 312.8 316.4 320.4 324.1 327 330 331.2 331.7 332.3 333.1 334.7 336.9 339 339.9 339.5 337.8 337.5 339.9 343.8 348.9 354.1 358.8 364.2 369.5 375.7 381.6 386.5 391.8 396.4 399.9 403.4 407.1 409.9 411.8 413.6 415 416.2
170.1 171.9 173.7 174.8 175.8 177.1 179 181.1 183.6 185.9 188 189.2 190.3 191.4 192.3 192.6 193.1 193.9 194.3 194.6 194.7 194.9 195.3 195.7 196.3 196.8 196.1 194.1 193.1 191.5 189.9 188.9 187.8 186.6 186.8 184.3 183.6 181.7 181.5 181.9 182.3 184.8 186.9 188.4 189.4 190.5 191.1 191.4 192.5 194.4 196 196.9 197.1 194.9 191.3 186.8 182.1 177.7 173 168.3 164.6 160.6 159 164.7 168.6 170.9 173.2 175.5 178.2 181.7 185.2 188.8 192 194.9 198.2 201.7 204.2 207.9 211.6 215.5 219.4 224.7 229.4 234.6 238.7 242.3 245.6 248.6 250.7 252 254.5 257.2 260.9 264.5 267.3 269.9 271.1 269.8 264.6 252.1 235.3 221.4 218.3 218.3 228.4 236.9 237.8 234.9 231.5 223.6 221.4 218.3 218.3 218.3 218.3 224.3 228.1 233.3 238.6 243.6 248.1 253.7 261.1 269.3 278.6 284 288.1 290.8 294 299.9 306.7 311.6 321 324.6 324.4 322 318.2 314 310.6 307.3 302.7 297.7 292.7 287.9 283.1 280 275.6 281 284.9 288.1 291.3 294.9 297.2 298.3 298.4 296.9 294.6 293.2 295.2 299.4 302.8 305.9 308.9 312.4 316.4 320.9 325.6 328.5 331.5 334.5 335.9 337.5 339.6 341.5 344 346.2 347.5 347.7 346.3 344 345.9 349.8 353.9 357.9 363 368.3 373.2 377.6 382 385.9 390.2 393.7 397.1 400.2 402.9 405.6 407.9 409.7 411.5 412.9
170.8 172.8 174.3 175.1 176.2 177.5 178.9 181.1 183 185.2 186.6 187.7 188.7 189.6 190.5 191.3 191.7 192.1 192.7 193.2 193.8 194.1 194.5 195 195.7 196.4 196.4 195.7 194.8 194.7 194.7 193.8 192.7 191.3 189.3 188.9 187.2 186.4 186.7 186.6 186.4 188.3 188.8 189.8 190.6 191.4 191.9 192 192.8 193.5 194.1 195.2 195.8 194.2 191 186.9 182.6 177.8 172.7 167.5 161.9 158.7 159.8 163.7 165.8 167.6 169.8 173.1 176.5 180 183.4 186.7 189.7 192.4 195.4 198.8 201.4 205.2 208.6 212.2 216.2 221.5 226.5 230.8 235.1 238.1 240.5 243.4 244.8 246.4 249.1 252.3 255.6 259.7 262.6 265 266.6 265.9 261.5 251 231.8 217.5 197.5 206.6 231.4 242.5 243.5 240.4 237.6 233.1 222.7 222.6 218.3 218.3 218.3 223.2 227.6 230.7 236.6 241.1 245.2 249.5 256.4 263.6 270.6 276.8 279.4 282.6 287.6 293.7 298.9 303.9 308.9 312.1 312.1 310.6 308.3 306.3 302.9 300.5 297.3 292.9 287.6 282.6 278.1 275.5 273.2 275.1 279.7 284.7 289.9 294.8 297.4 298.1 298.4 298.5 296.3 294.4 295.7 297.9 302.1 305.4 308.5 312.5 316.9 321.8 326.8 330.1 333.4 337.3 339.9 342.4 344.8 347.3 350.2 352.4 354.2 354.7 353.6 351 350.1 354.8 358.5 361.8 367 371.3 375 378.4 381.2 384.8 387.9 390.8 393.3 396.1 398.8 401.3 404.2 406.3 407.4 410.1
170.7 172.6 174 175.1 176.4 177.6 178.9 180.6 182.4 183.9 185.1 186 186.8 187.6 188.4 188.9 189.3 189.9 191 191.9 192.5 193.3 193.8 194.5 195.3 196.4 196.5 196.1 195.7 195.8 195.7 194.9 194.3 193.7 192.9 191.6 190.3 190.1 189.1 188.6 189 189.1 189.4 190.4 191.1 191.6 192.2 192.5 192.3 191.9 191.9 192.7 192.6 191.6 190 187.4 183.8 178.6 173.2 167.5 161.5 155.2 157.6 160.4 161.9 164.2 167.8 171.6 174.9 178.4 181.4 183.9 186.4 189.3 192.2 195.1 197.9 201.4 204.9 208.5 212.1 217.6 223.1 226.3 230.4 233.1 234.6 236.8 238.9 240.5 243.5 247.4 251 254.4 257.9 260.3 261.7 260.9 257.9 249.4 228.8 214.2 196.7 204.8 229.9 244.7 245.9 243.8 241.1 236.6 230.6 221.9 223 218.6 218.3 223.8 227.2 229.7 233.7 238.2 242.2 246.6 251.2 257.7 264.8 268.5 271.5 275.3 279.5 285.5 290.7 295.1 299.4 302 302.6 301.5 299.9 298.3 297.1 295.1 292.2 288.7 282.6 276.4 273.1 271.2 270.4 273.9 278.2 286.1 290.8 294.6 296.5 297.7 298.7 299.2 297.7 296.2 297 299 300.3 304.3 308.6 312.9 317.3 322.7 327.8 332.1 336 339.8 343 346.1 348.9 351.9 354.5 357.1 359.6 360.6 359.4 356.5 355.6 357.6 361.7 365.8 369.2 372.5 375.4 377.9 380.5 383.1 385.2 387.5 389.5 392 395 397.4 401.1 403.5 406 409.7
170 172 173.7 174.8 176 177.4 178.5 180 181.5 182.5 183.7 183.9 184.6 184.7 184.9 185.6 186.8 187.8 189 190.3 191.1 191.8 193.5 194.2 195 195.9 196.4 196.7 196.6 196.5 196.1 195.5 194.8 194.1 193.2 192.3 191.7 191.2 190.1 189.5 189.3 189.3 189.3 189.2 190.1 190.7 191.1 191.2 190.6 190.3 190.3 189.7 189.2 188.5 187.3 186.1 184.5 180.4 174.3 167 160.4 152.8 155.1 157.5 159.8 162.5 167.1 170.5 173.5 176.4 179.3 181.7 183.5 185.8 188.6 191.4 194.1 197.5 200.9 204.1 207.2 212.9 218.2 221.9 225.5 228 229.8 230.9 231.5 233.5 237.8 242.2 246.5 249.8 252.9 255.4 256.5 256.7 253.7 243.3 225.4 209.2 196 203.9 227.2 242.3 244.6 243.1 240.8 237.5 232.9 225.8 215.2 216.1 219.2 222.7 226.3 228.9 231.7 235.1 239.6 243.9 248.4 253 258.9 262.7 265.5 267.6 272.1 277.1 282.1 286.8 290.9 293 293.8 293.6 293.1 292.1 291.3 289.4 287.2 283.4 277.8 272.2 269.9 267.1 271.5 277.2 281.4 286.1 290 293.2 295.3 296.7 297.1 298.3 298 297 297.6 300.1 302 305.1 309.1 313.2 317.6 322.8 328.6 333.6 337.7 341.8 344.8 348.2 351.1 354.4 357.6 360.7 364 365.6 364.2 361.3 360 359.8 363.7 367.1 369.8 372.5 374.6 376.8 378.7 380.8 383 384.5 385.7 387.8 391 394.8 400 404.1 407.3 411
169.3 171.3 172.9 174 175.7 177.3 178.1 179.2 180.2 181.2 181.8 181.9 181.6 182 182.2 183.4 184.7 185.6 186.7 187.8 189 189.9 191 192.4 194.8 195.3 196 196.2 196.6 196.5 196.2 195.7 194.5 193.5 192.7 191.9 191.2 190.7 190 189.4 188.9 187.5 188.2 188.6 189.2 189.7 189.6 189.4 188.4 187.9 187.4 186.7 186 185.5 184.9 184 182.8 180.1 175.5 167.3 158.9 151.8 152.9 154.9 158.9 162 166.2 169.1 172.1 174.6 176.6 178.2 180.3 182.4 184.9 187.7 190.4 193.8 196.9 200 202.8 205.9 211.6 216.9 220.2 222.3 223.9 225.1 225.2 228.6 233.1 237 241.7 244.5 247.1 249.4 251.3 251.9 249.6 237.6 220.5 205.2 191.4 197.3 222.7 236.6 239.4 239.2 237.4 236 233.3 227.9 217.8 213.8 217.1 221.7 225 227.8 230.1 232.4 236.2 240.8 244.9 248.5 252.7 256 259.4 261.6 263 268.5 272.9 277.8 282 284.5 286.1 286.1 286.4 286.4 285.3 283.1 280.8 276.9 272.2 268.2 266.1 263.8 271.6 277.6 281.9 285.4 288.6 291.4 293.2 294.6 296.3 298.5 299.1 298.2 298.3 300.9 302.7 305.7 309.5 313.7 317.9 323 329.3 334.6 339.5 343.5 346.6 350.1 353.3 356.5 359.4 362.2 365.5 366.9 366.4 364.9 363.3 362 364.2 367.2 369.4 371.2 373.2 374.7 376.3 378.4 379.1 381 383.8 387.4 392.7 397.4 401.4 405.4 409.1 412.3
168.5 170.3 172.2 173.2 174.6 176 177 178 179 179.8 179.7 179.6 178.6 178.8 179.6 181.2 182.8 183.7 184.5 185.4 186.5 187.5 188.4 189.9 191.6 195 195.5 195.5 196.1 196.3 196 195 193.9 193 192.2 191.5 190.7 190.1 189.8 188.6 188 187.7 187.2 187.6 188.2 187.9 187.7 187.5 186.2 185.4 184.7 183.9 183.3 183 182.5 181.8 180.8 178.3 174.4 167.6 158.7 149.7 150.8 152.9 157.9 161.8 164.9 167.9 170 172.2 173.6 174.6 176.4 178.2 180.9 183.8 186.7 189.7 192.8 195.8 198.7 201.3 205.2 209.7 213.2 215.4 217.2 218.1 219.4 223.9 228.2 232.5 236.8 239.5 241.9 243.8 245.5 246.3 245.2 238.9 219.1 201 186.2 193 215.1 229.9 232.3 231.8 231.1 230.4 228.6 224.7 218.9 214 215.8 219.3 222.5 225.5 227.9 230.4 232.7 236.9 241.1 244.5 246.6 250.6 253.8 255.7 258 260.6 264.1 269 273.9 277.5 278.9 280 280.6 280.4 279.3 277.1 274 270.1 264.5 264.3 261.5 260.7 269.4 276 279.7 283.4 286.6 289 290.9 294.2 298.1 299.9 300.5 299.4 299.6 301.4 303.4 306.2 309.3 313.5 318.2 323.5 330 335.9 340.8 344.8 348.1 351.2 354.3 356.7 359.6 362.5 364.8 366.7 366.8 366.2 365.5 364.4 365 366.4 367.9 369.3 370.9 372.4 373.3 374.3 376.7 381.1 385.4 389.5 393.8 398 401.9 406 410.4 413.4
167.1 169.1 171 172.5 173.8 174.9 175.8 176.9 177.7 178.3 178.3 177.2 176.2 175.3 177.1 179 179.9 180.4 181.2 182.4 183.7 185 185.9 187.8 189.7 191.7 195.1 194.9 195.6 195.9 195.3 194.3 193.3 192.6 191.8 191 190.3 189.6 189.1 187.5 186.3 186.1 186 186.2 186.4 186 185.9 185.1 184 183.2 182.3 181.1 180.4 180.6 180.1 180.3 179.2 176.6 172.3 163.9 156.4 148.4 149.4 152.3 157.6 161.8 164.6 166.7 168.3 169.3 170.1 171 171.5 173.8 176.8 179.9 182.9 185.9 188.8 191.6 194.4 196.4 198.9 201.9 204.2 207.1 209 210.2 212.2 218 222.7 227 231 234.9 236.9 238.4 240 239.6 238.1 234.2 218.3 198.1 181.5 188.6 210.7 223.1 224.3 223 221.7 217.6 218.6 219.2 217.3 214.7 214.8 215.9 219.6 223 225.4 227.7 229.7 233.4 235.9 238.1 241.1 245.2 248.3 251.2 253.7 256.3 260.2 264.5 268.3 271.1 273.4 274.2 274.9 274.6 272.8 270.5 268.5 264.5 262 260.1 256.7 259.8 265.5 272.1 276.2 280.6 282.9 286.9 291.2 295.1 299.4 301.1 301 300.2 300.4 301.9 303.5 306.4 309.4 313.6 318.4 323.6 330.2 336.7 341.5 345.3 348.4 351.3 354.2 357 359.6 361.5 363.5 365.5 365.9 366.6 366.2 365.1 364.3 364.6 366 366.4 367.3 369.2 370.9 374.2 377.2 382 386.1 390.1 394.2 398.2 401.2 404.5 408.3 411
166 167.9 169.7 171.3 172.7 173.8 174.7 175.8 176.4 176.5 176.2 174.7 173 172.6 174.8 175.7 176.4 176.7 177.6 179.3 180.9 182.2 183.9 185.8 187.8 189.9 191.8 194.7 195.1 195.1 194.7 193.7 192.8 191.8 191 190.2 189.4 188.7 185.8 184.8 183.5 184 183.6 183.9 184.2 184.3 183.6 182.7 181.7 180.8 179.5 178.3 177.7 177.6 178 178.1 177.5 175.1 170.5 161.1 151.9 146.1 148.7 154.6 159.1 161.8 163.8 165.1 165.9 166 166.6 166.5 167 170 173.1 176.1 179.2 182.2 185.1 187.5 190 191.8 193.7 195.9 198.5 201.1 203 203.1 205.7 212 217.4 221.6 225.6 228.8 230.8 232.6 233.5 232.8 227.7 226.3 213.6 194.4 177.6 183.2 205.5 216.2 216.3 213.3 210.4 206.8 207.7 211.6 210.5 211.4 212.7 213 215.5 217.3 221.3 224.2 226.4 228.2 230.2 232.7 234.6 239.9 243.6 246.6 249.9 252.4 256.2 260.7 264.4 266.3 267.9 268.7 269 268.2 266.3 263.8 261.9 258.5 257.2 256.4 253.9 257.4 260.1 265.8 270.5 273.7 281.2 287.7 292.8 297.7 300.4 301.9 301.5 300.3 299.5 301.4 303.3 305.9 309.6 313.8 318.3 323.7 330.7 336.8 341.2 345.1 348.6 350.9 353.1 355.7 358 360 362 364 365 365.4 365.5 364.7 362.3 361.1 360.9 361.2 365 368.7 372.7 376.6 379.5 382.7 386.6 389.8 393.5 397 399.7 402.3 405.1 406.8
164.8 166.7 168.5 170.1 171.6 172.6 173.5 174.2 174.2 173.6 173.1 171.4 169.6 170.5 172 173 169.1 170.7 173.5 174.9 176.2 178.3 181 184 187 189.4 191.4 193.5 194.6 194.5 194.2 193.3 192.4 191.6 190.6 189.5 187.9 185.9 183 181.4 180.5 181.3 181.2 181.5 181.7 181.8 181.3 180.4 179.3 178 176.7 175.3 173.8 174.2 175 175 174.7 172.9 167.6 160.5 148.1 144.8 149.2 158.1 161.6 163.5 162.9 162.8 163 162.7 162.4 162 163 166 169.2 172.3 175.4 178.4 181 183.5 185.7 187.6 189.4 191.8 193.7 195.7 195.8 195.5 198.9 203.9 209.5 214.3 218.7 222 224.3 224.4 224.4 224.5 221.5 217.8 203 188 173.5 180.5 199.9 205.9 205.8 207 209.9 212.1 210.2 217.5 221.9 222.1 221.1 218.8 216.7 215.9 217.1 219.9 220.1 221.8 225.3 228.7 230.5 233.7 237.1 241.8 245 247.7 250.9 255.1 258.7 260.5 262 262.9 263.2 262.7 261 259.2 256.7 254.9 253.9 251.5 252.6 253.9 255.9 257.5 262.4 273.1 282.1 288.6 293.9 298.5 300.9 301.8 302 300.4 298.7 300.9 302.8 305.6 309.7 313.7 318.1 323.9 331 336.4 340.8 344.5 347.3 349.6 351.7 354 356.2 358.3 360.3 362.2 362.7 363.4 364.3 363.6 361 355.8 356.2 362.5 366.8 370.9 375.2 379 381.5 384 387 390 392.8 395.6 398.2 400.2 401.7 402.6
163.8 165.4 167.1 168.6 170 170.9 171.4 172 172.2 171.1 169.9 167.1 166.5 168.2 169.7 169.6 166 165.1 166.7 169.6 171.9 175.2 178.5 183 186.4 189.1 191 193.8 193.9 193.8 193.7 192.9 192 191.2 190.4 189.5 185.9 183.3 180.8 178.8 176.7 177.1 178.6 179 179.2 179.3 179 178.7 176.8 175.4 174.4 171.3 169.7 169.1 170.5 171 170.6 167.8 162.8 155.5 143.7 145.2 151.8 158.5 162.3 163.1 161.9 159.8 158.8 157.4 156.7 156.8 159.8 162.1 165.3 168.4 171.6 174.5 176.9 179.4 181.2 183.4 185.2 187 187.8 188.6 187.9 187.2 190.2 196.1 200.5 204.2 209 212.9 214.3 214.8 213.7 213.4 212.6 205.7 192.5 178.3 169.6 173.7 191.9 203.4 210.1 213.5 216.1 218.7 221.3 224.2 228.4 228.4 226.7 224.1 221.7 220.3 220.4 218.7 218.3 218.7 220.6 222.9 225.7 227.6 231.4 235.4 238.4 241.1 244.3 248.5 251.9 253.7 255.4 257 256.7 256.2 255.2 252.6 251.6 250.8 249.5 250.1 250.4 251.7 253.8 256.7 262.3 274.1 281.8 287.2 292.6 297 299.4 300.9 300.8 299.2 297.4 299.3 302.1 305.2 309.3 313.6 318.2 324.1 330.3 335.4 339.8 343.3 345.8 348.1 349.9 351.6 354 356.3 358.4 359.5 360.3 361 361.4 361.2 358.5 352.9 357.1 363.9 368.5 373.1 377.4 380.9 383.2 385.6 387.7 389.9 392.4 393.7 395.4 396.6 397.6 398.4
162 163.6 165.2 166.9 168.1 168.7 169.2 169.8 169.8 168.5 164.9 162.7 162.8 165.9 167.1 165.5 161.7 161.1 164.3 167.1 170.7 174.6 178.6 183.1 186.2 188.6 190.9 191.9 193.2 193.3 193.2 192.5 191.5 190.7 189.8 186.9 185.1 183 180.3 177.2 174.3 173.2 174.6 176.2 177 177.2 176.2 173.6 174.4 173 170.3 167.9 166.2 165.1 165.1 164.9 163.8 160.8 155 145.3 141.6 147.7 154.7 158.5 160.6 161.3 160.1 156.9 154.3 152.9 152.1 152.7 155.4 158.4 161.6 164.8 167.9 170.4 172.8 175.2 176.1 177.9 179.2 180.3 180.9 180.4 179.9 180.1 182.4 187.5 191.8 194.5 197.8 200.5 202.5 202.7 201 199 197.2 192.1 180.3 169.2 166.6 185.3 201 212.5 221.4 223.8 224.4 225.9 228.3 231.1 233.1 232.6 231.1 229.9 228.5 227.5 226.9 226.3 222.9 220.8 220.8 221.3 221.6 222.9 225.7 227.6 229.3 230.9 234.2 238.4 241.6 244.7 247 248.3 247 247.8 247.4 246.5 246.7 247.2 247.9 250.2 252 254 256.8 256.5 262.8 274.3 280.6 285.1 290.3 295 297.7 298.7 298.4 297.1 296.4 299.3 301.1 304.4 309.1 313.3 318.3 324 329.1 333.9 338.3 341.4 344 346 347.8 349.6 351.5 354.1 356.1 356.9 357.6 358.3 358.5 358.1 356 349.3 357.9 364.1 369.4 374.2 378.5 382 384.8 386.7 388.5 389.2 389.9 390.7 391.3 392.2 393.2 393.8
159.8 161.5 163.2 165 165.7 166.4 166.9 167.4 166.8 165.2 160.3 157.8 160.9 163.2 163.6 160.2 157.7 161.6 165.5 168.8 172.9 177.3 180.5 183.9 186.7 188.9 191.2 191.8 192.2 192.9 192.9 192.5 191.6 190.2 189.1 186.8 184.6 182.6 180.4 178.6 174.7 168.5 170.5 173 174.3 174.7 173.5 172.4 171.1 170.2 167.1 164.7 162.9 160.8 160.8 160.6 158.5 154.8 145.6 138.9 144.2 150.5 154.3 156.2 157.1 156.7 155.2 153.1 149.9 148.1 147.2 148.7 151.6 154.8 158 161.1 164 166.6 169.1 171 171.5 172.4 172.8 172.7 173.6 173.4 173.8 174.2 176.4 179.8 183.2 185.9 187.2 189.4 189.6 189 187.8 186 183.2 175.8 167.5 164.9 170.1 189.5 205.8 216 225.5 231.8 233.2 233.3 234.9 236.6 238 237.2 235.9 235.5 235.2 234 232.7 232.3 231.5 229.4 228.4 227.4 225.2 223.8 223.7 223.6 224.8 225.6 227.6 229.3 230.4 232.4 234.4 237.8 241.9 245.4 246.6 247.8 247.9 249.3 250.5 251.9 254.5 260.9 265.4 264.7 262.6 271.6 279.1 283.3 288.4 291.8 294.2 295.4 295.3 294.3 295.1 298.1 300.2 303.3 308.1 312.9 318 323 327.9 332.3 336.2 339.1 341.8 344.2 346 347.9 349.5 352.1 353.4 353.9 354.3 355 354.7 354.1 351.3 347.3 357.7 363.6 368.9 373.8 378 381.7 384.5 386.4 387.6 388.2 387.5 387.6 386.6 386.7 387.6 388.3
157.4 159.3 160.7 162.2 163 163.8 164.5 164.4 163.8 162 155.3 153.5 157.5 158.7 159.5 154.3 158.3 163.7 167.7 170.7 174.1 178.3 181.4 184.7 187.4 189.5 191.4 191.7 192.7 192.9 193 192.5 191.7 191.4 188.4 186.4 184.4 182.1 179.9 178.2 175.1 166.8 166.3 169.1 171.2 171.8 170.9 169.9 168.7 166.5 163.6 161.4 158.2 156.4 156.8 155.2 152.5 146.7 137.4 141.4 147.2 150.9 152.4 153.2 153.4 151.7 149.6 147.5 144.5 142.9 142.1 144.2 147 150.7 154.3 157.3 159.8 162.8 164.6 166.6 167.5 166.6 166.4 166.3 166 166.4 167.3 169.4 171.1 174.7 177.4 179.1 179.2 179 178.5 176.7 175.9 173.5 169.9 165.1 164.3 163.4 169.5 191.6 208.3 218.4 227.8 236.3 240.9 242.7 244.2 244 243.2 241.8 241.1 241.1 240.6 239.6 238.8 238.5 237.5 235.9 234.6 233.4 232.3 231.3 231 232.8 230.4 231.7 232.3 233.5 232.4 235.5 238.3 242.7 246.8 249.7 251.3 250.7 250.8 251.9 253 255 259.3 267.9 273.9 275.3 272.6 268.7 275.7 281.8 285.4 288.5 290.8 291.8 292.4 292.5 294.1 296.6 299 302.1 307.2 311.9 316.7 321.5 326.2 330.4 333.9 336.8 339.8 342.6 344.3 346 347.6 349.5 350.5 350.8 350.9 350.5 350.2 349.4 346.2 348.8 356.7 362.8 368.3 373.4 377.5 380.8 383.3 384.5 385.8 385.8 384.9 384.2 382.4 381.6 382.1 382.8
155.1 156.9 158 159.4 160.2 160.6 160.9 160.4 159.6 156.9 149.9 148.9 151.8 153.1 152 152.3 159.4 163.7 167.6 171 174.6 178.6 181.7 184.9 187.5 189.2 191.1 192.1 192.6 192.8 193.1 192.5 191.8 191.5 188 185.2 183.3 180.6 177.6 174.3 170.9 160.9 163 165.3 167.8 168.7 168.7 167.7 165.5 163.6 160.5 157.5 154.7 152.4 151.9 150.8 147.6 138.4 137.8 144.2 148.4 150.9 150.5 150.1 148.4 146.2 143.2 139.9 137.9 137.3 137.8 139.5 142.2 145.6 150 153.1 155.6 157.7 159.5 160.4 161.6 162 161.6 160.8 161.3 161.4 161.9 164.4 166.5 169.2 171.4 173.1 173.5 171.8 169 165 166.1 165 162.9 161.2 161.5 161 171.9 194.1 209.4 220.2 228.9 238.1 244.6 248.5 250.5 250.2 249.5 248.3 247.2 247 246.2 245.2 244.9 244.5 243.6 242.2 240.9 239.6 238.8 238.7 239.5 240.1 239.3 239.5 239.8 239.8 239.9 240.5 244.9 249.9 252.5 253.9 255.2 254.5 254 254.4 255.3 259.6 267.8 277.6 282 283.4 281.8 277.9 277.3 277.5 280.1 282.4 283.8 285.3 288.6 291.3 293.2 295.5 298 300.9 305.8 310.7 315.3 320 324.7 328.7 332.1 335.4 339 342 343.5 344.5 345.8 346.6 347.7 347.5 346.5 345.7 344 342.1 339.8 349.1 355 361.1 366.8 372 375.5 378.3 380.7 382.5 383.2 383.4 382.1 380.2 378.3 377 377.2 377
152.9 154.4 155.5 156.6 156.9 157.2 156.4 154.7 153.7 149.7 144.6 143.6 144.7 146.2 147.2 151.6 157.5 162.6 166.7 170.7 174.5 178.1 181.3 184.3 186.7 188.7 191 191.9 192.4 192.9 193.4 192.8 192.1 190.6 187.5 184.3 180.9 177.3 171.3 166.2 162.6 160 159.7 162.2 163.8 165.3 165.7 165 163 160.8 157.7 154.5 151.2 148 146.1 145.4 141.4 133.9 138.8 143.8 146.6 148.4 147 144.6 141.7 137.6 132.9 130.5 130.5 130.4 131.1 133.7 135.9 137.8 141.7 147 149 151.1 151.5 151.9 153.3 154 155.6 155.8 156.5 157.1 156.9 158.7 161.1 162.9 164.5 165 166 164.4 160.6 159.5 160.9 161.6 161 160 160 159.3 169.4 190.8 208.1 220.6 228.6 236.9 245.6 250.8 253.3 254.2 254.1 253.7 253.2 252.5 251.5 251.1 251.4 250.9 250 249.3 247.8 246.7 246.3 246.1 246.8 247.4 247.4 248.4 247.3 246.3 247.4 251.1 254.2 256.9 258.9 259.3 259.5 258.5 258 258.1 259.1 265.2 275.5 283.7 288.9 289.1 287.2 285.3 284 283.1 286.3 286.8 288.8 289.7 290.3 288.4 290.7 294.5 297.2 300.2 304.7 309.3 313.7 318.6 323.1 327.3 332 336.2 340.2 343.2 344.3 344 344 344.2 344.2 343.8 342.7 339.8 337.1 333.5 339.8 347.4 352.7 358.2 363.2 369.1 372.6 375.3 377.7 379.7 379.8 379.7 378.3 376.6 374.3 371.6 370.3 369.8
150.6 152.1 153.2 153.9 153.8 152.8 150.9 148.8 146.6 140.9 138.3 139.4 141.6 144.9 148.1 152 158.4 161.4 165.6 170 174 177.6 180.3 184.1 186.3 188.5 190.9 191.9 192.6 193.1 193.6 193 192.2 190.5 187.3 182.9 177.9 172.4 167.2 163.2 159.5 159.5 157.2 158.9 160.6 162.1 162.4 162.2 160.2 157.8 154.9 152.1 148.1 144.2 141.8 140.2 135.7 133.4 137.9 140.8 142.5 142.3 140.3 137.7 134.2 128.8 128.1 128.9 128.7 129.1 129.9 130.4 130.7 131 132.8 138.1 141.4 143.7 144.5 145.4 146.7 147.5 149 151 151.8 152.4 152.5 154.5 155.8 157.7 159.5 160.8 160.1 158.9 157 158.3 160 160.1 159.7 158.9 158.1 160.3 165.3 185.5 204 216.4 225.5 233 244.9 251 254.6 257.1 257.9 258.2 257.9 257.2 256.8 256.9 257.3 257 256.2 255.7 254.7 254.7 255.2 256 256.3 256.1 256.7 257.7 256.7 255.3 255.8 257.6 260.9 263 264.1 264.4 264.9 264.3 263.8 263.3 263.6 267.9 278.9 286.4 290.7 291.5 290.1 288.7 287.9 287.1 290.4 291.6 292.5 293.3 293.5 292.1 291.1 293 296.6 298.9 303.7 308 312.1 316.9 321.9 326.6 332 337 340.9 343.9 344.5 343.3 341.3 341 340.8 340.1 338.5 335.2 330.5 331.4 340.4 345.3 350.1 355.3 360 364.7 368.3 371.3 374.2 375.9 375.9 374.8 373.5 371.2 367.9 364.4 362.6 362
148.4 150.1 150.9 151.2 151.1 149.2 145.8 142.1 136.5 133.7 135.9 139.2 142.5 146.2 150.3 154.8 159 163.3 167.1 170.6 174.2 177.7 180.5 183.9 186 188.3 191.2 192.4 193.2 193.5 193.9 193.6 193.1 190.6 187.2 182.3 176.9 171.6 166.9 162.1 157.9 156.5 153.7 158 161.2 159.8 158.9 158.4 156.8 154.4 151.5 148.8 144.7 140.5 137.5 135.2 131.4 132.4 135.6 136.7 136.2 134.7 133 131 129 126.8 126.9 127.5 127.8 127.8 128.6 129.5 130.3 130.4 130.8 131.5 132.7 135.5 137.9 140.2 142.9 143.4 145.4 146.8 148 148.5 150.2 151.5 152 153.6 155.4 156.1 155.6 154.4 155.3 157 157.9 158.9 158.7 157.6 155.8 159.9 163 174.9 194.8 211.5 221.5 229.9 242.3 250.1 255.1 258.9 260.7 261.9 262 262.1 261.9 261.9 261.7 261.9 262.4 262.5 262.2 262.7 264.5 265.1 265.1 265.3 265.6 265.4 264.7 263.8 264.8 265.9 267.9 269 269.7 270.2 270.3 271 271 271 271.2 274.5 279.9 286.9 291.1 293 291.9 291.3 291.2 291.6 294.6 295.8 296.3 296.6 296.7 295.7 294 291.2 294.4 298 302.3 306.4 310.3 315.1 320 325.9 331.4 336.4 340.7 343.4 343.8 342.1 339.3 337.7 337 335.8 333.9 330.7 325.9 331.6 338.9 343.1 347.4 351.8 356.2 360 363.4 366 368.2 370.2 370.7 368.9 366.6 362.4 358.6 355.2 353.4 351.7
146.7 148 148.7 148.5 148.1 146.2 140 133 130.3 133.4 137.3 141.1 144.2 147.8 151.9 155.9 159.6 163.7 167.7 172 175.6 178.6 181.6 184.3 186.6 188.9 191.7 193.6 194.7 195.1 195.5 195.8 194 190.8 187 182.4 176.6 171.6 166.7 161.8 156.9 155.8 150.9 151.8 153.7 155.3 155.5 154.7 153 151.1 148.1 145.2 141.1 137.6 134.4 131.2 128.8 129.7 131.7 132.1 131.4 129.8 127.4 126.3 126.7 127.1 127.2 128 129 128.4 127.5 128.1 129 129 129.6 130.6 130.8 131.4 131.6 134.2 136.7 138.3 140.9 143 144.2 146.3 146.9 148.1 148.6 150.1 151.2 151.8 151.7 150.8 152.9 155.6 156.3 157.2 157 155.8 153.9 159.1 162.5 165.4 186.3 205.2 216.2 225 237 249.5 255 260.4 263 264.7 266.8 268 269.4 269.6 269.7 269.3 269.5 269.7 270.8 272.3 273 273.2 272.8 272.9 273.2 272.7 272.2 271.6 272.8 274.1 276 276.8 277.8 279.2 279.6 279.8 279.3 279.4 279.4 280.9 285.3 289.5 292.5 294.8 294.6 294.4 293.5 296.5 298.7 300 300.6 300.7 300.1 298.7 297.1 294.8 291.9 295.7 301 304.5 308.6 313.2 318.1 324.8 330.6 335.3 339.8 342.2 342.4 340.2 336.7 333.8 332.6 331.1 329 325.9 324.8 332.3 336.5 340.8 344.2 348.3 351.9 355.3 357.8 359.8 361.6 363.3 362.5 359.7 354.7 349.8 346.8 345.2 345.6 348.4
145.4 146.3 146.3 146.1 145.1 141.7 131.4 126 130.8 135 139.2 143 146.3 149.9 153.6 157.3 161 164.8 169 173.3 176.6 179.5 182.6 185.4 187.9 189.8 192.6 195.5 196.5 197.5 197.9 196.8 195.2 192 187.8 183.7 176.9 172.1 167.2 162.3 157 155.6 147.8 147.2 150.1 152 152.4 151.7 150 147.8 144.9 141.3 137.9 135.6 132.6 130.2 127.5 127.9 127.7 127.4 127.7 126.8 125.4 126 127.1 127.7 128.5 130.3 131.3 131.9 132.2 132.3 131.6 133.4 132.8 133.6 134.7 133.7 133.7 133 134.1 135.7 137.5 139.2 141.5 143.9 144.6 144.7 145.8 147.1 148.8 149.2 148.6 148.8 151.7 154.4 154.8 155.9 155.4 154.3 151.8 158.5 161.4 164.6 181.9 200.2 211.9 221 232.7 245.5 253.9 260.7 265.7 268.7 271.4 274.7 277.7 279.2 281.3 281.2 280 279.3 280.8 283.3 284.8 284.5 283.8 283 282.9 282.2 280.2 279.3 280.6 282.9 285.4 287.8 289.4 290.7 291.5 291.6 290.4 288.8 288.2 288.9 291.2 294.1 296.6 298.4 298.8 298.3 298 301.2 302.8 304.3 304.9 305.1 303.7 302.3 300.2 298.1 296.2 295.2 299 302.9 306.5 311.8 317.4 323.7 328.9 333.4 337.4 339.7 339.4 336.9 333.6 329.8 328.1 326.2 324.1 321.2 326 330.5 334.7 337.7 341 344.2 347.3 349.7 351.6 353.6 354.2 354 352.9 348.4 339.5 335.9 342.3 348.5 355.4 362
143.7 144 143.9 144 140.6 131.4 124.5 127.6 132.7 137.3 141.4 144.8 148.2 151.4 155.2 159.1 163.5 167.7 171.7 175.3 178.6 181.4 184.2 187.1 189.5 192.7 196.5 198.8 200 200.8 200 198.5 197.8 193.9 191.5 188 181.1 175 169.8 165.1 159.2 154 149.8 142.9 146.2 148.7 149.3 148.6 147.4 144.7 140.8 137 134.5 132.2 130.2 127.3 126.1 125.7 126.2 125.7 125.7 125.7 125.5 126.8 128.9 131.1 132.5 134.3 136.2 138 138.2 135.8 135.2 133.6 137 137.9 139.8 141.5 140.8 138.8 134.8 133.9 136.1 138 139.3 140.4 141.9 142.1 143 144.5 146.7 146.8 146.4 148.1 149.9 151.8 153.3 154.6 153.7 153.2 152 158.8 162.2 163.8 181.1 197.1 207.9 217.3 228.6 240.3 250.8 259.3 266.1 271.6 275.7 280.3 283.3 285.5 287.5 289.4 290.9 291 291.7 294.6 296.8 297.2 296.9 296.1 294.8 292.3 290 289.3 289.9 291.1 293.6 296.5 298 299.6 301 300.8 299.9 298.7 297.3 296.4 297.1 298.4 300.7 302 302.9 302.9 302.9 305.2 307.3 309 311.1 311.6 311.6 309.1 304.8 301.5 298.3 294.1 299.4 302.3 305.4 310.5 315.8 321.1 326.4 331 334.3 336.3 335.6 333.7 330.6 326.6 322.8 321.2 320 319.2 325.1 328.8 331.7 334.6 337.8 339.5 342.4 344.3 345.5 346.7 345.8 343 339.1 332.8 333.7 346.9 357.6 364.1 368.7 372.7
141.1 139.9 140.3 136.5 129 121.7 126.8 131.7 135.6 139.5 144 147.8 150.9 153.2 157.2 161.4 166.7 170.8 174.2 177.9 181.4 184.9 188.3 191.5 194.6 198 200.4 202.3 203.5 203.7 202.3 200.8 199.5 197.9 194.8 192.1 185.8 178.7 173.4 167.7 161.7 152.9 147.1 140.3 142 145.9 146.6 145.9 144.5 141 136.3 132.9 130.9 127.6 124.9 124.7 124.6 125 125.3 125.7 125.4 125.6 128.4 130.9 133.2 135.1 137.6 139.8 141.5 143.2 144.3 142 136.9 134 136.7 140.4 146.4 149 152 151 145.5 136.7 135.2 137.2 138.6 139.6 140.4 141.4 142.4 142.9 144.3 144.7 144.8 145.7 147.7 150.4 151.9 153.4 152.7 150.3 153.6 159.3 163.5 169.6 185 196.5 206.7 216.2 225.6 235.7 245.9 256 264.2 271.2 277.1 282.4 286.2 289.6 292.1 295 297.6 299.9 302 304.3 305.6 307.2 306.8 304.6 303.4 302 300.4 299.1 300.7 302.4 303.5 304.6 305.5 307.2 308 308 307.3 306.3 305.2 303.8 302.7 303.8 305.3 306.5 307.2 308 308.5 311.9 315.2 318.2 319.8 321 318.6 315 310.2 304.7 299 296.8 298.8 302.2 305 309 313.7 319 324 328.7 330.9 332.7 331.8 330.1 327.3 323.2 320.3 318.5 315.4 318.1 323.2 326.4 329.1 331.7 333.5 335.1 337.2 337.6 337.2 336.3 332.5 328.7 327.7 336.9 349.3 360.5 368.7 372.8 376.1 379.3
137.9 135.9 131.4 123.3 120.1 124.8 131.4 138.6 141.3 145.2 148.2 151.2 153.3 156.2 160.7 165.1 169.7 173 176.4 179.9 183.3 186.7 190.3 194.1 197.7 200.9 202.5 204.9 205.9 206.8 206.2 205.4 203.1 201.9 199.6 194 190.7 187 179.8 170.4 163.5 154.6 149.6 137.4 137.3 142.8 143.7 143.1 141.4 136.6 132.6 128.9 125.6 124.1 124.1 124.4 124.7 123.4 125.6 127.8 129.4 131.5 133.4 135 136.5 138.2 140.9 143.8 146.1 148.2 148.8 146.3 141.7 137.5 137.5 141.2 147.9 153.6 157.7 159.9 158.6 150.5 139 136.9 138 138.9 139.3 140.5 140.9 140.6 140.5 142.5 144 142.4 146.6 149 150.6 150.8 151.5 149.9 153.8 159.6 164.2 173.9 185.8 196.6 205.9 214.5 223.7 232.9 241.2 251 260.7 268.4 276 281.8 286.9 290.4 293.9 297.9 301.3 304.5 306.8 308.8 310.8 312.1 313.1 312.1 310.5 308.1 308.5 308 309.6 311.5 311.7 312.4 313.7 315.6 316.4 316.1 314.3 313 312.3 311.1 311.2 313 314.1 316.3 317 317.3 319.5 322.5 326 329.4 330.8 330.8 326.2 319.9 313.8 307 299.8 297.8 297 301.1 304.8 308.1 312.1 317.5 322.2 326.3 328.2 328.7 327.8 326 323.1 319.8 317.5 313.8 314.2 316.7 321.3 324.1 326.6 329 329.9 330.2 330.6 330 327.9 322.9 326.4 336 344.9 352.8 361.4 368.8 373.6 377.9 381.6 384.9
134.5 127.9 120.2 117.8 123.6 130.5 136.9 142.3 145.8 148.6 151 153.7 156.4 159.6 162.9 166.9 170.3 172.9 176.7 180.2 183.6 186.9 190.8 194.7 198.4 201.6 203.7 205.7 207.6 208.5 209.4 209.5 208.7 205.4 202.9 199.7 198.1 193.3 186.3 176.8 165.5 155.2 150.8 135.4 133.1 139.8 141.1 140.6 137.3 133.3 129.2 124.3 123.2 123.7 123.8 122.9 125.3 129.2 131.2 133.5 136.1 137.9 139.7 140.3 140.6 141.5 144.4 147.4 149.8 151.8 151.3 149 145.8 140.2 139.9 139.9 142.3 148.5 154.2 160.6 164.8 162.9 152.9 135.9 138.6 138.5 138.7 139.6 139.4 140.6 142.7 145.8 150.1 149.9 144.1 147.8 149.4 148.5 147.4 153.4 159.5 163.3 164.9 175.3 186.9 195.9 204.1 213.1 221.8 230.7 238.2 246.8 256.7 264.7 272.5 280.6 285.6 291.1 295 299.1 303 306 309.7 312.2 314.8 316.3 317.1 317 315.8 314.3 314.6 314.8 315.4 316.8 318.1 319.4 319.9 321.3 322.9 322.9 322.3 319.5 319.1 318.4 319.5 321.7 323.8 326.1 327.3 329.6 331.3 333.1 336.1 338.2 341.4 340.8 333.3 324.4 315.8 308.9 304.4 298.8 297.3 299.4 302.2 306.4 310 315.7 320.5 323.9 325.9 325.1 323.5 321.8 319.2 316.4 313.8 310.8 313.1 316.3 319.7 321.6 323.9 326.3 326.2 324.8 322.5 320.8 319 328.6 339.1 347.4 354 360.1 366.2 371.8 376.6 381.3 386.4 390.1
126.5 116.4 116.4 123.1 130.2 135.4 140.4 144.7 148.4 151.2 153.3 156.1 158.6 161.6 164.6 167.6 170.8 174 176.9 179.8 183 186.2 190.2 194 197.8 201.1 203.9 205.9 207.9 209.9 210.8 211.5 211.3 209.7 206 203.6 200.5 196 192.2 183.8 171.1 160 150.2 135 130.6 135.6 135.4 133.8 130.9 128.2 125.7 122.9 123.4 123.4 124.9 129.6 134.1 138.3 140.5 142.4 144.8 147.6 148.5 149.5 147.4 146.3 149.1 151.8 153.6 154.7 153.5 151.8 148.6 144.4 143.6 143.3 144.3 144.5 145 154.1 163.3 167 165.5 158.3 146 138.3 137.9 140 141.2 140 142 149.6 153.6 154.6 152 149.1 146.2 152.4 157.9 162.6 169.9 175.7 177.3 171.9 181.6 195 203.1 212 221.1 228.7 235.6 243.3 250.7 258.4 267.6 275 283.2 289.2 294.2 299.6 303.2 306.9 310.6 314 316.9 318.9 319.6 320.3 319.7 319.6 319.5 319.5 319.8 320.9 322.4 324.3 325 324.8 325.4 326.6 326.1 324.4 323.6 324.4 325.4 327.3 331 334.4 337.1 339.8 341.5 341.3 341.3 344.2 345.8 346.3 335.9 325.6 316.5 309.6 305.6 300.3 298.3 298.6 300.7 304.4 308.4 314.4 319.5 322.4 323.8 324.3 321.7 318.7 316.5 314.2 310.5 310 311.6 314.9 318 320 321.7 322.9 322.2 319.2 316.2 314.4 326.5 336.5 344.1 351.8 357.5 362.7 368 373.7 379.8 385.3 389.8 392.3
111.9 114.6 122.2 129.4 134.2 138.4 142.9 146.2 149.3 152.1 154.8 157.3 159.9 162.5 165.2 167.8 170.8 173.7 176.5 179.2 182.3 185.4 189.3 193.5 197.1 200.7 203.4 205.4 207.7 210.5 211.5 212.4 212.4 211.2 208.3 205.3 202.1 198.9 194.9 187.6 178 166 152.4 136 127.1 129.6 128 126.1 125.3 123.7 122.5 122.5 123.2 127.6 132.9 140.3 149 152.8 153.9 154.1 154.9 156.4 156.5 155.8 153.7 151.7 153.9 157 158.9 158.7 156.2 155.5 153.4 151 149.9 150.3 150.7 151.1 150.8 148.4 155.9 163.9 168 168.7 166.2 160.8 150.3 137.2 142.8 144.8 154.3 156.8 157.5 158.7 158.1 156.4 157 159.8 165.4 172.2 180.2 184.5 186.3 183.4 177.7 189 199.6 208.5 217.4 225.1 232.2 239 246.5 254.2 261.5 269.3 278.6 286.1 291.6 298.1 302.7 307.5 311.4 314.9 317.3 319.8 321.1 321.8 321.9 321.5 321.4 321.5 321.6 322.8 324.6 326.4 327.1 327.5 327.6 327.5 327.1 325.5 325.3 327.1 328.9 331.8 334.7 339.7 343.5 346.1 347.2 346.4 344.4 345.4 344.8 343.1 336.1 324.5 314.9 309.8 306.2 298.5 298.3 298.6 300.5 302.7 309.6 314.3 319.5 322.3 323.6 323.1 320.9 317.4 314.8 312.1 309.1 309.2 310.6 314.3 315.7 317.2 318.9 319.5 317.5 313.7 311.6 316.8 330.2 338.6 346.4 353.5 358.4 363.4 368.6 375.1 381.8 387.1 391.3 394.1
114.4 121.6 128.2 133 137.1 141 143.9 147 150.1 153 155.4 157.8 160.5 162.6 165.1 167.4 170.2 172.4 175.4 178.1 181.1 184 187.6 192.1 195.6 199.6 202.5 204.9 207.7 210.3 211.8 212.9 212.8 211.6 209.2 206.3 202.3 198.9 195.5 190.9 181.2 167.1 150.8 133.3 125 124.3 122.9 122.8 122.9 120.6 120.4 124.9 134.6 142.2 147.4 156.4 162 164.2 165.1 165.3 165.3 165.2 165 162.6 159.3 156.9 158.6 161.2 163.6 163.5 163.4 160.9 158.8 157.1 156.1 156.3 156.3 155.8 155.3 153.6 150.6 159.2 165.4 169.2 171.4 170.9 167.8 163.2 162.4 163.6 164 165.7 166.5 167.5 166.6 168 168.5 172.6 177 184.5 191.8 196.2 197.8 195.1 192.9 192.5 193.6 202 209.6 220.8 228.3 235.6 243 250.4 257.9 265.4 273.9 282 289.3 295.5 301.5 306.5 311.1 314.3 316.9 318.9 320.4 321.1 321.2 321.1 321 321.3 321.2 322.5 323.9 325.4 326.7 327.2 327.5 327.4 326.6 325.9 326 326.9 329.3 333.1 336.9 342.7 346.5 349.1 349.9 348.1 345.2 344.2 342.3 338.6 332.3 321.7 314.3 309.9 306.3 300 298.3 299 301.3 305.9 311.2 315.7 320.6 324.1 325 323.4 320.8 317 313.5 310.2 307.1 307.2 309.9 311.9 313.3 314.6 315.5 315.5 313.6 310.1 312.4 319.4 331.4 339.5 346.5 352.7 358.5 363.6 369.1 376 382.5 387.7 391.9 395.1
122.3 127.8 132.2 135.7 139.4 141.7 145 147.3 150.7 153.6 156 158.4 160.6 162.6 164.7 167 169.3 171.7 174.5 177.2 179.8 182.6 185.5 190.2 194.4 198.3 201.2 203.9 206.7 209.3 210.9 212 212.3 211.1 209.8 206.6 202.8 198.8 195 190 178.1 162.1 142.3 127.8 122.9 121.5 120.8 120.4 121.5 124.5 132.8 144.5 150.1 155.6 162 166.4 167.8 168.6 170.8 171.6 171.6 171.7 170.7 167.6 164.2 162.4 163.2 165.2 166.8 167.7 167.5 166.5 164.9 163.4 162.3 161.8 160.9 160.5 160 157.9 153.7 156 162.7 169.6 173.3 175.1 176 175 173.1 174.5 174.8 179 181.5 183 185.1 186.4 187.3 188.4 190.9 194.3 202.6 206.5 207.4 204.3 202 202 203.7 206.3 208.9 216.7 222.4 231.1 240.7 248.3 255.9 263.5 271.8 279.4 286.6 293 299.6 305.4 310 313.2 315.7 317.2 318.8 319.6 319.9 319.4 319.3 319.1 319.7 320.6 321.8 323.2 324.3 325.3 325.7 325.1 324.3 323.5 324.1 325.3 327.7 331.4 335.6 340.6 346.7 348.9 350.1 348.4 345.6 342.6 339.2 334.7 328.7 320.1 314.2 309.7 306.6 301.4 298.6 301.5 305.1 308.7 313.1 317.5 322 326.1 326.3 323.5 320 316.3 312.8 309.2 305.9 305.7 308 309.6 310.5 311.7 312.1 311.3 309.5 310 318 325.2 331.6 338.2 344.9 351.9 357.6 363.4 369.8 376.5 382.2 387.7 392.1 395.5
127.3 131.5 134.7 137.9 140.6 142.2 145 147.8 150.6 153.2 155.7 158.5 160.4 162.2 164.1 166.4 168.6 171 173.4 175.6 178 181 183.9 187.3 191.6 196 200.2 202.4 205.2 207.6 209.3 211.1 211 210.1 208.8 206.8 203 199.1 194.9 187.8 174.6 155.4 135.5 124.8 121.6 120.6 120 121.9 126.9 137.1 149.2 157.3 160.7 164.2 165.8 167 168.5 169.4 170.8 172.9 174.2 174 173.2 171 168 167.3 167.8 169.6 171.1 171.7 172.3 172.1 171.2 170.3 168.6 167.4 166.5 166.1 165.5 163.1 158 154.8 160.1 170.3 177.4 180.9 182.2 183 184.3 186.9 187.5 191.5 196 199.2 202 204.4 205.2 205.6 205.7 205.7 209.6 212.3 214.6 212.4 211.7 212.3 213.6 216.3 219.7 223.9 228.9 233.5 240.9 247.4 255.9 263.9 270.6 278.1 285.1 291.4 297.8 303.6 308.1 311 313.3 314.8 315.9 316.7 316.7 316.5 316.5 316.5 316.5 317.8 318.9 320.1 321.2 322.4 322.7 322.2 321.4 320.8 321.3 323.5 326 329.5 333.5 338 342.3 346.3 348.5 347.2 343.5 340 337 332.1 325.8 319.3 313.7 309.1 306.4 301.1 298.8 303.7 306.8 310.5 314.9 319.4 324 328.2 328.2 322.7 319 315.1 311.7 307.9 304.1 304.6 305.5 306.9 308.1 307.8 308.7 307.9 308 313.4 320.2 325.7 332 337.6 344.2 351.1 357.7 363.5 370.2 376.3 381.9 387.5 391.8 395.3
130.5 133.8 136.8 139.6 141.7 143.2 145.6 148.1 149.9 152.5 154.8 157.4 159.5 161.6 163.6 165.8 167.6 169.3 171.6 173.9 175.9 179 181.9 185.1 188.8 193.2 196.8 200 203 204.8 206.9 209 209.4 209.1 207.8 205.2 202.1 198.6 193.9 186.5 172.9 149.4 131.2 121.3 120.6 119.8 121.5 125.7 138.7 150.6 157.1 160.4 162.6 164.3 165.2 166.7 168 169.4 170.7 172.4 174 174.5 174.1 173.7 171.5 171.8 172.5 173.9 175.6 176.6 178.2 178.9 178.9 177.8 175.6 173.3 172.1 171.5 170.9 169 164.4 158.5 157.8 165.8 176.5 183 187.4 189.3 189.9 192.8 196 199.2 202.2 205.3 208.6 211.8 214.7 216.4 217.2 216.5 218.7 221.7 225.8 226.6 225.4 225.9 225.8 227.5 229.5 232.8 236.9 241.4 247.3 252.6 256.6 262.5 271.1 277.9 285.4 291.6 297.5 302.7 306.4 309.2 311.1 312.3 312.6 313 312.9 312.8 312.6 312.3 312.4 313.6 315.1 316.5 318 318.8 318.6 318.4 318 317.7 318.9 321.3 323.7 327.2 331.2 335.2 338.5 340.9 343 343.5 340.9 337.3 334.4 330.6 325.4 319.2 313.3 308.2 306 299.9 299.5 305.5 308.3 312.4 316.8 321.7 326.8 330 327.5 322.1 317.4 313.4 310.1 306.9 303.9 303.4 302.9 303.7 304.4 304.6 305.2 306 309.8 315.8 320.7 325.3 329.4 336.5 343.7 350.3 356.9 363.6 370.1 376.2 381.9 387.3 391.6 395
132.8 135.9 138.8 141.1 143.2 144.9 146.4 147.7 149.2 151.6 153.9 156.2 158.3 160.3 162.1 164.1 166 167.5 169.6 171.3 173.5 176.5 179.8 183 186.7 190.4 194.2 197.4 200.2 202 205 206.4 207.1 207.8 206.6 203.7 201 198.3 194.8 187.3 172.3 145.1 129.8 121 120.1 120.4 125.7 135.8 144.8 149.5 154.2 158 160.4 161.5 163.1 164.8 166.9 168.7 170.5 172.2 174.1 174.8 175.4 175.1 175.3 175.9 176.9 179.1 181 183.9 186 187 186.9 185.2 182.5 180.2 178.9 178.5 176.5 174 170.4 163.6 159.8 161.5 170.6 181 186.6 190.6 193 195.2 198.9 202.3 205.1 208 211.5 215.3 218.2 220.6 222.2 224.8 226.6 229.6 234.3 236.4 237.8 239 239.8 240.6 242.6 243.9 246.6 250.5 255.7 259.4 263.8 268.9 273.7 278.6 285.8 292 297.6 302.2 305 307.5 309 309.9 309.9 309.5 309.6 309 308.4 308.1 308.1 309.3 311.1 312.4 313.4 314.2 314.2 313.8 313.4 313 315.1 317.7 320.9 324.5 328.3 331.9 335.2 337.1 338.8 338.4 336.9 334.7 331.6 327.9 323.2 317.9 312.4 307.2 305.4 300.3 304.6 305.8 310.2 314.4 318.8 324.6 329.1 331.1 327.1 322 315.9 311.7 308.3 305.1 301.9 300.7 300.9 301.8 302.9 304.1 303.8 306.9 311.2 314.2 319.9 325.3 330.7 336.4 342.4 349.4 356 362.7 369.4 375.9 381.7 387 391.4 394.4
134.3 137.5 139.9 142.1 143.9 145.2 146.3 147.4 148.3 149.9 152.1 154.5 156.7 158.7 160.4 162.3 164 165.4 166.8 168.7 171 173.8 177.2 180.4 184.8 188.7 191.9 194.3 197.7 199.4 202.8 204 205 205.5 204.2 202.3 200 197.8 193.6 187.6 174.2 145.3 127.7 120.1 118.6 120.7 127.1 136.3 142.1 145.9 149.9 153.5 156.2 158.5 160.7 163.2 165.2 167.1 170.3 172.6 174.4 175.3 176.6 177.5 178.6 180.4 181.7 184.7 187.7 191.4 194.2 194.9 193.9 192.1 189.3 186.4 184.5 182.6 180.6 178.4 175.2 169.6 164.1 160.3 166 176 183.9 188.8 192.7 196.5 199.9 203.2 206.8 210.4 214 217.7 220.5 223.5 227.1 229.7 231.9 233.6 238.2 242 245.1 247.6 250.9 251.1 251.1 253.1 254.6 257.8 261.9 265.6 269.3 273.7 278.4 282.5 288 292.9 297.3 301.4 303.8 305.7 306.7 307.3 306.9 306.5 306 305.3 304.6 303.9 303.9 305 306.5 308 308.7 309.3 309.7 309.2 308.7 309.4 311.6 314.6 318.2 321.8 325.2 328.6 331.7 333.7 334.7 335 333.7 331.6 328.6 324.8 320.3 315.1 310.3 305.6 303.5 298.9 304.5 307.8 312.4 316.9 322 327.2 331.1 331.6 327.3 321.4 314.6 310.1 306.5 303.2 299.8 299.8 300.1 300.6 301.5 301.7 305.2 307.3 309.4 312.6 317.4 324.2 330.1 335.6 341.3 347.6 355 361.9 368.7 375.3 381.2 386.7 391 394.3
135.7 138.9 140.9 142.6 143.9 144.9 146 145.4 146.1 147.4 149.8 152.2 154.9 157 158.7 160 161.6 162.9 164 166.1 168.5 171.4 174.7 177.9 182.3 187.1 189.9 192.6 195.9 197.9 200.4 201.8 202.9 203.3 202 200.6 197.8 195.2 191.6 187.3 175.3 145.3 126.5 120.1 119.7 118.8 123.7 133.8 138.6 142 145.8 149.2 151.8 154.9 159.1 162.1 164.3 167 170.2 173.2 174.9 176.7 177.9 179.8 182.2 184.7 187.1 190 193.3 197.2 200.2 201 201.1 199.2 196.6 193.9 191.7 189.3 186.7 183.3 178.9 174.3 169.3 163.7 162.7 170.9 180.8 187.2 191.8 195.5 199.2 203.5 207.4 211.1 215.1 219 222.7 225 228.3 232.2 234.8 237.3 240.3 243.6 247.3 250.8 253.4 255.4 257 259 261.1 263.2 266.8 270.2 274.3 278.8 283.2 287.7 291.9 295.7 299 301.2 303.5 304.5 304.7 304.4 303.9 303.4 302.7 301.8 300.7 299.6 300.2 301.4 302.6 304.2 304.8 305.4 305.7 305.2 304.8 306 308.4 311.8 315.5 319.1 322.5 325.5 328.4 330.2 331.1 331.4 330.4 327.5 324.5 321.3 316.3 311.2 306.9 303.6 301.3 302.5 305.5 309.6 314.5 319.6 324.3 328.7 332.1 331.7 326.7 320.4 313 307.5 304 300.4 297.8 299.4 300.2 301.1 303.5 305 309.2 312.2 314.2 315.9 316.5 322.4 328.7 334.5 341.2 347.7 354.9 361.8 368.8 375.6 382.1 387.5 391.6 395
137 139.2 140.9 142.6 143.9 144.6 143.5 143.4 143 144.9 147.8 150.2 152.6 154.9 156.2 157.3 159.1 160.2 161.6 164 166.5 169.6 172.7 176 179.6 184.9 188.4 191.3 194 196.7 198.8 200.4 201.7 201 199.5 197.8 195.4 192.7 189.2 183.4 170.8 147.4 127 120.4 120.2 120.1 123.1 129.8 134.8 138.5 142.4 146.2 149.4 153.4 157.5 160.6 164 166.9 170 172.9 175.9 178 179.8 182 185.4 187.8 191.5 194.8 198.2 201.5 204.9 206.9 208.3 208.6 207.9 209.5 208.4 204.3 198.9 195 189.9 184.6 179.1 168.6 163.5 166.4 176.7 185 190.4 194.8 198.4 203.1 207.4 211.7 215.9 220.1 223.3 226.3 229.5 233.6 236.3 239.4 242.7 245.5 248.6 252.1 254.2 256.4 258.8 261.2 263.5 266.4 270.2 274.1 277.8 281.6 286.2 290.8 294.6 297.6 299.3 301.5 302.8 303.1 303.1 301.9 300.8 300.3 299.4 298.5 297.6 296.7 296.7 297.8 298.9 300.2 300.9 301.6 301.7 301.2 301 302.6 305.6 309.1 312.7 316.3 319.7 322.5 325.2 327.3 328.1 327.9 327 324.1 321.1 316.9 311.5 307 303.2 300.8 297.6 303 306.9 310.8 314.9 319.3 323.5 327 330.5 329.3 325.1 317.8 309.9 304.1 300 297.7 298.6 297.4 299.4 301.4 306.4 310 313.3 317.4 320.3 322.1 322.2 320.6 328.2 335.4 342 348.9 356.3 363.3 370.2 377.4 383.7 388.7 392.3 395.1
136.3 138.3 140 141.8 142.3 142.3 141 140.3 140.5 143.7 146.6 149 150.6 152.9 153.9 155.4 156.5 157.2 159.2 162.7 165.4 168.6 171.5 174.9 179.5 183.1 187.1 189.8 193 196.1 197.6 199.4 200.8 199.7 198.9 196.7 194.3 191.5 186.8 179.2 162 144.3 127.4 120.7 120.2 119.8 120.3 125.8 131.9 136.5 140.8 144.8 148.4 152.5 156.5 160 163.4 166.5 169.3 172.3 175.3 178.8 181.8 184.8 188.5 192.1 195.6 198.7 202.8 207.1 211.7 214.8 216.6 217.1 218.7 220.1 221.5 217.9 214.4 209.8 204.3 197.2 190 178.5 166.4 165.9 173.5 182.3 188 193.5 197.7 202.5 207.3 211.8 216.2 220.1 223.9 227.5 231.2 234.3 238.1 241 245.2 247.9 250.6 252.6 254.7 256.7 259.1 261.4 264.7 267.3 271.7 275.8 280 284 288.8 293.6 297.1 299.4 301.4 302.5 303 302.5 301.6 300 298.3 297.1 296.2 295.3 294.4 293.5 293.5 294.5 295.5 296.5 297.3 298 297.8 297.1 298.2 300.2 303.5 306.8 310 313.7 316.9 319.6 322.2 324.3 325.1 324.7 323.5 320.8 317.3 312.4 307.1 302.7 298.8 295.1 297.4 302.5 305.7 308.9 312.1 315.9 318.5 322.6 325.5 325.7 321.7 314.1 305.9 301 297.4 296.8 297 299.1 302.8 306.9 311.2 315.7 319.7 323.7 326.5 328.7 328.8 326.2 326.8 336.8 344.5 352.8 359.1 366.6 372.7 379.8 384.9 389.6 392.9 395.4
135 135.8 137.2 138.7 139.7 139.8 138.1 136 139.4 142.2 144.7 146.8 148.6 149.3 150.6 152.1 153.8 152.6 157.5 162.1 165.6 168.2 172 175.9 180.5 183.9 187.2 190.3 193.3 195.9 197.3 198.1 198.6 198.9 197.8 195.3 193.7 190.5 186.5 179.8 163.4 146.3 132.5 121.2 120.4 119.5 120.1 125.1 133.6 138 141.6 145 148.4 152.4 156.1 159.6 163.1 165.8 168.7 173 176.9 180.3 183.6 187.2 191.6 196.2 199.5 203.5 207.4 210.8 214.7 217.6 219.8 221.5 223 224.1 225.5 224.4 220.8 216.8 211.4 204.7 198 186.6 174.5 167.5 171.1 178.8 184.3 189.2 194.2 201.9 206.8 211.5 215.3 219.5 223.3 227.4 231.3 234.6 237.8 241.8 245 248.1 249.9 251.7 254.2 256.3 259 261.9 264.8 268 272.3 276.8 281.5 286.2 290.8 295.2 298.5 300.9 302.4 303.3 303.1 302.4 301.3 298.8 297.2 295.1 293.6 292.6 291.6 290.7 290.6 291.2 292.2 293.2 294 294.6 293.5 294.1 295.5 298.3 301.7 305 308.2 311.2 314.1 316.8 319.3 321.4 322.3 321.8 320.1 317.4 313.5 308.2 303.1 298.8 294.6 292.9 297.2 300.2 303.2 305.7 308.3 311.2 313.9 315.8 318.7 318 314.7 307.5 301.3 297.1 295.6 295 301.3 306.8 311 315.1 319.7 322.7 326.3 329.8 332.6 335.2 336.2 334.6 330.3 336.1 347.8 356.2 363.4 370.1 376.1 381.3 386.4 390.2 393.1 395.8
130.7 132 133.5 135.2 136.4 136.5 133.8 134.1 138.4 140.4 142.8 144.4 145.3 144.9 145.1 147.2 147.7 151.5 155.2 160 164.9 168.6 172.3 176.7 180.8 184.2 187.5 190.6 193.6 195.7 197.4 198.7 198.6 198.5 196.7 195.1 194.4 190.1 186.6 180.9 172.1 158.5 144.5 121.4 119.7 118.2 118.5 120.2 127.5 136.6 141.6 145.1 148.1 152 155.6 159.3 163.3 165.9 168.4 174.1 178.4 181.8 185.5 189.8 194.3 198.1 202 206.1 209.9 212.9 215.6 218.4 221.5 223.2 224.4 225 225.4 225.4 223.3 219.9 214.7 208.4 200.3 190.1 178 171 170.2 175.8 180.9 185 193.8 200.3 205.8 210.2 214.3 218.5 222.5 226.5 229.9 233.2 236.4 240.1 242.9 245.3 247.2 249.7 252.1 254.5 258 261.1 264.1 267.7 272 276.8 281.6 286.2 291.5 295.7 299.5 302.2 303.4 303.7 303.2 302.6 300.8 298.3 296 293.8 291.4 290.2 289.3 288 288 288.5 289 289.9 290.8 291 291.1 292.3 294 296.8 299.9 303.3 306.4 309.4 312.3 315 317.1 318.6 319.4 318.8 316.8 314.2 310.3 305.2 300.1 295.9 291.7 291.5 294.3 297 299.5 301.8 304.2 306.7 309 310.3 310.4 310.2 307.6 302.5 296.1 294.3 293.8 301.2 311 316 320 323.8 326.7 329.3 332.3 335.9 338.8 341.7 343.2 342.7 339.2 333.7 350 359.9 366.9 372.9 378.4 383.1 387.5 391 393.6 396.3
124.3 126.4 127.6 128.9 129.1 128.2 126.9 132.7 136 138.4 139.3 140.7 139.1 137.1 137.4 141.1 144.5 149.9 155.2 158.1 163.6 168.5 172.4 177.3 181.1 184.4 187.6 190.7 193.8 195.5 197.2 198.2 197.9 197.9 196.4 194.7 192.8 190.5 187.7 184.9 182.5 175.7 158.1 136.8 120.1 118.3 116.7 117.6 120.4 130.9 139 143.2 147.2 151.1 155.4 159.7 164.1 167.4 171.2 175.4 179.6 183.6 187.6 192.2 195.8 199.6 203.6 207.6 210.9 213.2 215.9 218.8 220.6 222.6 223.7 224.2 224.4 223.5 221.9 219.7 215.7 207.6 197.3 189.9 181.4 175.2 173 172.1 177.8 181 190.7 197.2 203.4 208.5 213 216.9 220.8 224.2 227.3 230.6 233.7 236.6 239.5 241.4 243.7 246.2 249.2 252.3 255.2 258.6 262.6 266.4 271.4 275.8 280.9 286.1 291 295.6 299.2 301.6 303.5 303.9 303.4 302.2 300.4 297.8 295.2 292.9 290.5 288 286.7 285.4 285.3 285.8 286.3 286.8 287.6 287.9 288.4 290.3 292.8 295.7 298.7 301.7 304.6 307.6 310.5 312.9 315.1 316.2 316.5 315.4 313.4 310.8 307.1 302.7 297.5 293.1 288.9 288.9 290.8 293 294.8 296.5 299 301.5 303.3 305 305.3 303.9 301.4 296.3 293.2 293.2 297.4 311.3 318 322.5 326.3 329.9 332.8 335.7 338.6 342.2 345.9 348.4 349.8 350.2 347.3 338.7 350.3 361.7 368.6 374.5 379.8 384.4 388.5 391.7 394.4 397
111.7 115.9 117.4 115.9 116.2 118.4 122.4 127 129.8 131.4 130.9 130.1 132.4 138 141.8 144.2 147.3 150.7 154.5 158.7 163.7 168.3 173 177.9 182.1 185.1 187.8 190.9 193.7 195.4 197.3 197.7 197.4 196.3 194.7 193.1 191.1 188.4 186.4 184.7 183.6 180 173.6 151.6 131.6 119.9 117.5 116.8 116.9 124.8 134.3 141.4 145.9 151 156 160.2 165 170 173.9 177.8 181.5 185.3 189.5 193.6 197.3 201 205 208.2 210.6 212.6 214.8 216.9 218.9 220.9 222.3 223 222.6 221.1 219.7 217.8 214 206 194.8 188.1 182.4 178.4 175.4 173.4 174.4 180.2 187.2 192.6 199.5 205.7 210.3 214.7 218.8 221.9 224.7 227.4 229.7 232 234.2 236.3 238.9 241.9 245 248.1 252.1 256.7 260.8 265.1 270.2 275.1 280 285.1 290 294.5 298.2 301 302.8 303.2 302.9 301.5 299.8 297.4 294.9 292.5 290.2 287.5 285 283.4 281.9 283.8 284.2 284.5 284.6 285 285.8 288.7 291.3 294.2 297.2 300.2 303.1 306 308.8 311 312.8 313.8 313.6 312.1 309.7 307.2 303.4 299.1 294.3 290.3 286.6 286.4 287.4 288 289.4 291.3 293.8 295.8 297.4 298.3 298.6 297.8 294.7 292.5 292.2 292.7 308.2 316.3 322.1 326.6 330.5 334 337.2 340.4 343.7 348.5 351.5 354.7 356.3 357.6 355.1 345 350.3 363.5 370.8 376.1 380.8 385.4 389.2 392.5 395.4 398
108.6 107.6 108.8 112.8 115.1 116.6 117.7 119.7 122.4 125.2 130 134.4 138.4 143.4 146.1 148.6 150.7 153.6 157 161 164.8 169.1 173.5 178.8 182.8 186.3 188.9 191.5 194.4 195.9 197.6 197.3 196.1 194.7 192.9 191 188.5 186.2 184.3 182.7 181.3 179.1 176.3 166.9 146.4 128.1 118.4 116.8 116.2 123.5 132.8 139.1 144.8 150.1 155.2 160.9 165.7 170.7 175 179 183.1 186.9 190.7 194.8 198.6 201.6 204.1 207 209.4 211.1 212.9 214.9 216.6 218.9 220.4 221 220.5 218.5 216.8 214.8 210.6 202.4 193.8 188.3 183.7 180.5 177.9 176.5 176.3 177 182.8 187.7 194.1 200.6 207.1 211.8 215.6 218.6 221.5 223.9 226.1 228.1 230.3 232.6 234.9 237.7 241.5 245 248.9 254 259.3 263.9 268.9 273.7 278.8 283.7 288.6 293.1 297.4 300.2 302.1 302.7 302.2 300.7 299.1 297.1 294.6 292.2 289.8 287 284.3 281.9 280.7 280.9 281.9 282.4 282.6 282.2 284.6 286.9 289.5 292.5 295.6 298.7 301.6 304.6 307.1 309.3 310.7 311.1 310.5 309.4 306.7 303.4 299.5 294.5 289.9 286.7 284.5 283.8 283.6 284 284.6 285.8 287.8 290.1 290.8 291.9 291.6 290.1 290.4 290.6 290.9 303.8 313.4 320 325.1 329.2 333.1 337.2 341.1 344.4 347.5 351.9 356.4 359.3 361.8 362.2 360.4 352.2 350 364.2 371.6 377 381.8 386.1 390 393.3 396.6 398.8
123.3 124.5 126 128.2 127.4 121.5 124 129.2 133.4 136.4 139.2 142.1 145.3 148.5 151.1 153 155 157.4 159.9 163.3 166.7 170.7 175.1 179.7 183.5 187.4 190.6 193.6 195.4 196.6 197.8 197.7 196.1 194.1 191.4 188.3 184.9 182 179.5 177.4 177 175.9 174.4 171.4 166.2 143.1 121.2 117.4 116.2 123 129.5 135.5 141.6 148 153.9 159.7 165.2 170.4 175.6 179.7 183.8 188.1 192 195.7 199 201.4 203.2 205.2 207.5 208.9 209.9 212.1 213.9 216.5 218.1 219.2 219.4 217.1 214.5 210.9 205.9 199.5 194.2 190.2 186.7 183.3 180.9 180 179.5 178.2 179.8 185.7 190.9 196.2 202.1 208 211.6 214.8 217.6 219.8 221.9 224.1 226.3 228.5 231.4 234.2 237.6 242.4 247.3 251.8 257.1 261.7 266.6 272 277.3 282.2 286.9 291.4 295.7 298.9 301.4 301.9 301.4 300 298.4 296.7 294.3 291.9 289.3 286.7 284.3 282 279.9 278.8 279.5 280.3 280.7 280.7 282.9 285.1 287.8 290.8 293.9 296.9 300 303.1 305.4 307.5 308.6 308.6 308.1 306.5 304.2 299.8 295.2 289.4 285 282.1 282.6 282.1 281.5 281.3 282.8 283.6 284.4 284.7 285.7 287.2 287.3 289.4 288.7 290.6 297.6 308 316.1 322.3 327.3 331.2 335.2 339.5 343.4 347.2 350.9 353.9 358.4 361.4 364 365 364.3 356.6 355.4 364.7 371.3 377.2 382 386.5 390.7 394.1 397.4 400
132.6 134.2 136.9 137.2 136.5 128 128.6 137.1 140.4 143.6 146.1 148.3 151 152.9 155.2 157.2 159.2 161.6 164.1 166.6 169.6 173 177.8 182.1 186 190 193.6 195.3 197 197.9 198.9 197.9 196 194 190.9 187.1 183.6 178.9 175.2 172.4 170.2 169.4 168.6 167.4 165.2 150.7 137 118.6 116.2 119.1 126 132 138 144.5 150.9 157.1 163.5 169.2 174.4 179.2 184 187.9 191.9 195.5 198.8 201.2 202.9 204.2 205.1 206.1 207 209.3 212.1 214.3 216 217.5 217.6 215.5 213.5 209.2 204.1 199.8 196.3 193 189.8 186.5 184.1 183 182.2 180.9 180.9 181.7 186.8 192.1 197.3 202.6 207 210.6 213.6 215.2 217.4 219.3 222 224.3 228 232.4 236.2 240.8 245.2 249.9 254.7 259.5 264.4 269.5 274.6 280.4 285.1 289.7 294.1 297.5 300.1 301.1 300.7 299.5 298 296.4 294 291.6 289 286.7 284.3 282 280 277.9 278.1 278.6 278.6 279.6 281.5 283.5 286.1 289 292.1 295.3 298.8 301.7 304.1 305.7 306.8 306.8 306 303.6 301 296.5 290.7 284.1 281.5 279.6 280.6 281.6 281.6 282.8 284.5 286.9 290.6 291.1 291.2 289.6 289.6 289.9 290.7 294.3 304.4 312.8 319.4 324.8 329.2 333.3 337.3 341.6 345.7 348.7 351.8 355.2 358.5 362.2 365.9 367.6 367.3 362.4 361.8 365.4 371.2 376.3 381.2 386.5 391 394.7 398.2 401.3
134.6 138 140 140.2 139 131 131.3 136.8 142.2 146.2 149.5 152 154.7 156.3 158.7 161.1 163.2 165.7 168.2 170.7 173.7 177.1 181.1 185.3 188.5 191.9 195.5 197 199.1 199.9 199.8 199 196.8 193.7 190.3 186.8 183.2 178.7 174.3 169.4 165.4 161.6 158.9 157.9 154.3 148.3 141.1 129.1 116.7 116.9 118.5 127.3 133.6 140.5 147.4 154.6 160.8 166.9 172.3 177.3 182.4 186.7 190.8 194 196.7 199.1 200.9 202.4 202.8 203.1 204.6 207.4 210.3 212.2 214 215.8 216.3 214.5 212.7 209.2 205.8 202.3 199.7 197.4 195.6 192.1 190.2 189.1 188 187.6 185.2 186.2 183.3 188.1 192.6 197.8 202.1 205.4 208.1 209.9 212 214 217.5 221.6 226.1 230.5 235 239.5 243.9 248.1 252.4 257.2 262.2 267.2 272.3 277.9 282.6 287.7 292 296 298.3 300.1 299.8 299.3 297.7 296 293.6 291.8 289 286.6 284.3 282.2 280.1 277.7 276.3 276.5 276.4 277.6 279.6 282.1 284.8 287.6 290.9 294.4 297.9 300.4 302.8 304 304.9 304.9 303.6 301.2 298.2 293.1 285.7 280.9 280.2 279.9 280.8 282.3 283.6 284.4 287.7 292.8 296.1 298.1 299.3 300.1 299.5 300.1 301.5 305.7 310.8 316.6 322.4 326.7 331 335 339.2 342.7 345.9 349 352.1 355.2 358.5 362.8 366.2 368.3 368.9 367 364.1 366.5 371.3 375.4 380.3 386 391.3 394.8 399.1 403.1
135.9 139.2 141.6 142.3 141.3 134.8 132.3 135.8 141.9 146.8 150.5 153.5 156.5 159.6 161.9 163.9 166.1 168.5 171.2 173.9 176.6 180.2 183.9 187 189.5 192.2 194.9 198 199.5 201 202 201 198.8 195.8 192.5 188.9 184.7 180.8 176.9 170.3 165.3 161.5 156.4 152.7 150.2 144.8 140.9 131.9 122.1 115.8 116.3 118.7 128.8 136.1 142.8 150.5 157.5 163.8 168.8 174 178.7 182.9 187.3 190.1 192.6 194.8 196.9 199.2 199.9 199.5 201 204 207.8 210.9 213.1 214.7 216.3 215.3 213.6 210.8 208.9 207.6 207.4 206.7 206.2 204.9 202.8 201.8 202 199 195.8 193.4 191.1 187 187.9 193 196.7 200 202.2 204.5 208.6 212.8 217.4 221.5 225.6 229.9 234.2 239.1 242.7 246.8 250.8 255 260 265.3 270.5 275.6 280.5 285.7 290.4 294.5 297.2 299.1 299.2 299.1 297.6 295.9 294.1 292.6 289.7 287.4 285 282.6 280.5 277.7 275.9 275 274.8 277.3 279.5 281.9 285 288 291.2 294.5 297.8 300.4 302.4 303 303 302.9 300.9 298.6 295.3 289.3 281.5 279.1 279.3 279.3 281.5 283.5 284.5 285.9 288.7 294.6 298.6 301.5 304.2 306.3 307.7 309.2 311.6 314.2 317.3 321.1 324.6 328.7 332.9 336.1 339.8 342.9 346.1 349.2 351.9 354.9 358.1 361.9 365 368.1 369.3 369.3 369.4 371.4 373.4 377.2 382.9 387.1 391.4 396.3 400.7 404.9
137 140.2 143 144.6 143.9 140.2 136.9 137.3 140.1 146.2 150.7 154.5 157.8 160.6 163.6 166.2 168.6 171.1 173.8 176.1 178.5 181.9 184.6 187.6 189.9 192.4 194.6 196.8 199.1 200.3 200.8 200.9 200.6 197.7 194 190 186.6 183 179.6 175.4 170 165.4 163.4 160.3 154.9 150.4 147 140.4 134.7 119.2 115.4 115.4 124.4 131.8 137.8 146.1 153.5 159.5 164.8 169.4 173.2 176.6 179.9 182.8 185.9 188.2 190.4 191.7 194 195.5 197.7 201.2 205.4 208.8 211.8 213.4 215.1 216.2 215.4 213.4 212.9 212.9 214.1 214.1 214.8 217 214.7 212.8 212.1 210.5 208.4 205.9 202 196.2 193.8 193.6 193.1 195.2 199.2 204.9 209.4 215.2 220.1 223.9 227.5 231.2 235 239 243 246.8 250.8 254.9 259.5 264.7 269.6 274.9 279.8 284.6 289.5 293 296.1 298 298.8 298.5 297.8 296.4 294.8 293.3 291.2 289.3 286.7 283.7 281 277.4 275.7 273 275.7 278.3 280.7 283.1 286 289 292.1 295.3 298.3 300.1 302.1 302.4 302 300.9 298.6 296.1 292 284.4 279.2 278 277.3 285 289.1 291 289.6 289.4 289.2 293.7 299.5 303.4 306.5 309.3 311.5 314 316.4 318.8 321.5 323.8 327 330.6 333.7 337 339.9 342.9 345.6 348.4 351.5 354.6 357.6 360.8 363.9 366.7 368.5 370.5 372.2 374.9 377.9 381.3 385 389.8 393 397.9 402.5 406.9
138 141.1 144.2 146.8 147.5 147.3 143.7 143.1 143.1 146.6 150.4 154.2 158.1 161.3 164.3 167.6 170.3 172.9 175.4 177.9 180.3 183.1 185.5 187.9 190.2 192.4 193.6 195.2 197.4 199 199.5 199.6 199.4 198 194.3 191.1 187.7 183.9 180.9 176.9 172.6 167.8 165.6 162.6 159.5 155.2 151 148.1 138.4 128.8 115.8 115.3 117.3 127.1 132.7 140.6 147.1 152.6 157.8 162.4 166.4 170.2 173.5 176.1 179 181.7 183.3 186.2 188.9 191.7 195.2 199.2 203 206.7 210.1 212.1 213.8 214.8 215.5 215.7 215.8 216.1 216.5 217.5 218.6 219.9 219.1 217.8 218.7 218.2 216.6 213.6 209.3 202.9 199.1 198.3 197.7 198.5 200 203.9 212.2 217.8 222.4 226 229.2 232.2 235.6 239.9 243.9 247.6 251.6 255.9 260.8 265.7 270.7 275.3 279.8 284.9 289.1 292 294.8 296.6 297.7 297.7 297.3 296.4 295.3 294 292.4 290.6 288.3 285.2 281.6 277.2 274.6 270.7 277 279.5 281.9 284.4 287.3 290.2 293.3 296.5 299.3 300.4 301.6 301.5 300.6 298.9 296.3 292.5 287.7 280.9 277.5 277.4 285.6 290.8 293.1 293.7 293.2 292.3 291.3 291.7 299.9 304.6 308.1 311.2 314.6 316.9 319.1 321.6 324 326.3 328.3 331.1 334 336.5 339.3 341.5 344.4 347.4 350.5 353.6 356.6 359.7 362.8 366.1 369.4 371.5 375 378.4 382.3 385.5 388.8 392.2 395.3 398.5 404.8 408.8
138.8 142.2 145.4 148.6 150.5 151.9 151.6 150 148.4 147.2 150.1 153.8 157.8 161.8 164.9 168.2 171.1 173.9 176.4 179 181.4 183.5 185.9 188.3 190.3 191.9 193.1 194.3 195.7 197.1 197.6 198.2 197.8 196.5 193.9 190.9 187 183.1 179.7 175.4 170.8 167.1 163.6 160.4 158 156.2 153.3 148.2 141.8 130.7 119.2 114.9 116.2 120.6 127.2 130.3 137.8 144 149.1 154.4 158.6 162.5 166.1 170 173 175.9 179.1 182.3 185.3 188.8 192.3 195.9 200.2 204.4 207.5 210 211.9 212.9 215 215.4 216.4 217.4 218.4 219.4 219.9 220.7 218.7 220.5 222.1 222.2 220.7 217.8 212.7 207.1 203.9 202.8 202.3 202.6 203.5 203.7 211.9 218.2 222.9 227.5 230.6 233.7 236.7 240.3 244.8 248.7 252.7 257.5 262.6 266.1 271.2 276.5 281.1 285.2 288.1 291 293.7 295 296.1 296.8 296.6 296 295.1 293.4 291.7 289.9 287.5 284.3 280.5 276.4 271.9 272.1 277 280.2 283.6 286.6 289.4 292.4 295.4 297.9 299.9 301 301.5 300.7 299.9 297 293.9 289.7 284.5 278.5 275.3 278.3 287.9 292.4 295.8 296.9 296.3 295.2 294 292.2 299.6 305 309.1 312.6 315.6 318.7 321.5 323.4 325.3 327.6 329 331 333.3 335.8 337.7 340 342.7 345.5 349 352.4 355.6 358.7 362.2 366.2 370 373.8 377.4 382.1 386.4 389.8 393.4 397.6 400.8 403.4 405.8 411.3
139.4 143.3 146.6 149.9 152.1 154 154.8 153.8 152.7 151.3 151.5 153.8 157.6 161.6 165.5 168.8 172 174.9 177.6 179.9 182.1 184.2 186.3 188.4 190.4 191.5 192.2 193.3 194.5 194.7 195.5 196.2 195.8 194.3 192.3 189.8 186.2 182 177.9 172.8 167.3 164.7 161.1 158.2 155.5 151.3 147.1 143.9 138.1 130.1 118.7 113.8 114.7 115.2 122.1 126.8 131 135.9 141.3 146.8 151.8 155.6 160.1 164.4 168.1 171.9 175.3 178.4 182.7 186.2 189.7 193.6 197.9 201.7 204.8 207.5 209.6 210.9 213.1 214.8 214.9 213.3 214.9 218.4 222.4 223 223.3 225 225.3 225.3 224.2 220.4 216.6 212.1 208.6 207.9 207.1 206.7 207.1 208.1 209.9 216.8 222 226.8 230.6 234.1 237.1 240.4 245 249.5 253.4 258 262.7 266.9 271.8 276.8 281.2 284.3 287.1 289.8 292.1 293.5 294.6 295.3 295.9 294.9 292.8 291 289.6 287.7 285.6 282.4 278.6 274.1 269.4 271.2 277.6 281.8 285.6 289.2 292.3 295.2 298.2 300 301.1 302 301.9 301.3 300 296.5 293.1 287.9 282.3 276 275.7 278.6 288.6 293.5 296.8 298.8 298.8 297.6 296.2 295.2 297.7 305.4 309.2 312.8 315.7 318.8 321.5 323.9 325.9 327.4 329.4 330.8 332.7 334.5 336.1 339 341.5 345 348.5 352.1 355.7 359.6 363.5 367.2 371.2 375.3 379.6 384.9 389.8 394.3 398.2 402.9 406.3 409.5 411.1 412.1
140.8 144.4 147.7 151 153.8 155.5 157 157.3 156.9 155.4 154.5 156 157.8 161.7 165.2 168.7 172 174.5 177.2 179.8 182.1 184.5 186.6 188.2 190.1 191 191.8 192.3 192.8 193 193.7 193.8 193.4 192 190.2 188.7 183.8 178.7 174.2 168.4 163 160 155.5 152.5 147.7 140.8 135.6 131.3 127.9 129.4 119.2 115.3 112.9 114.9 116.8 119.8 124.1 128.6 137.6 139.8 146 150.8 154.3 161 165.1 168.8 172.6 172.3 180.2 183.8 187.3 191.6 195.1 198.9 202 204 206.4 207.1 207.8 208.2 216.5 219.2 221.1 223 224.2 225.3 226.5 228.1 228.1 228.1 227.3 224.9 221 218.1 215.7 213.9 212.6 211.9 212 211.4 209.5 215.3 221.1 226.2 230.2 233.9 237.5 241 245.5 249.4 253.1 257.8 261.9 265.9 270.5 275.3 279.9 283.2 285.6 287.6 289.5 291.1 292.8 293.6 293.7 291.9 289.8 288.2 286.3 284.6 281.7 278.5 274.8 270.5 267.3 270.6 277.2 281.6 286.1 290.5 294.5 298 300 301.5 302.5 302.4 302.4 301.7 300.2 297.2 293.9 289.6 283.1 275.9 275.3 278.2 287 293.2 297.8 300.3 300 299.5 298.5 296.9 298 304.9 309.3 312.8 315.8 318.4 320.8 322.4 324.3 326.4 328.2 328.7 330.6 333.6 336.2 338.9 341.9 345.5 349.7 353.2 357.1 361.3 365.2 369.4 373.4 377.5 382.7 388.1 393.4 398.3 402.9 407.5 412.2 415.6 417.3 417.9
142.6 145.7 149 152.7 156.3 158 160.2 160.3 159.8 158.4 157.8 157.8 158.1 161.4 164.9 168.3 171.6 174.1 177.1 179.8 182.3 184.6 186.8 188.5 189.8 190.8 191.5 191.7 191.6 191.7 191.9 191.5 190.8 189.1 187.5 183.6 179.1 174.3 168.8 161.7 157 152 147.3 144 142.7 140.4 138.5 139 133.2 131.8 122 116.5 113.2 114.9 116.5 119.9 122.8 126.3 130.2 134.5 142.3 147.4 148.8 156.8 161.2 165.5 167.4 169.1 173.6 181.6 184.9 189.9 193 196.1 198.6 199.4 202.6 209.3 212.6 216 218.3 220.8 222.8 224.7 226 227.8 229.6 231 231 231.1 231.3 232.2 231.7 230.2 228 224.1 220.9 218.5 217.5 216.9 215.8 214.9 220.7 226.4 230.3 234 237.7 241.6 245.5 249.4 252.8 257.6 261.2 264.9 269.1 273.3 277 279.8 282.1 284 286 287.7 289.8 291.1 290.8 289.3 286.8 284.1 282.8 280.6 278 274.5 270.3 265.2 265.3 271.7 277.1 281.5 286.1 291.4 297.2 300.1 301.8 302.4 301.9 301.3 300.7 300.3 299.1 296.9 293.7 289.3 283.1 275.2 274.1 278.5 288 294.1 299.2 302.1 301.9 301.2 300.9 300.6 300.4 302.8 308.2 311.1 314.2 316.8 318.9 320.3 322.3 323.4 326.2 329.3 331.9 333.9 336.7 339.2 342.4 346.6 350.9 354.8 358.9 363.3 367.5 371.8 376 380.8 385.5 390.5 396.5 401.8 407.5 413 418.9 422 423.4 424
145.8 148.2 151.4 155.3 158.8 161.7 163.3 163.2 162.5 161.6 160.6 160.9 161 161.2 164.5 167.9 171.2 173.9 177.1 179.8 182.2 184.7 187 188.8 189.7 190.6 191 191.3 191.3 191.5 190.6 189.2 187.6 186 183.3 178.6 173.6 169.1 163.2 158.1 152.9 149 147.4 147.3 146.6 148 149.4 147.9 145.4 139.4 124.7 115.2 112.9 114.7 115.3 123.8 128.2 131.2 134.6 138.8 142.4 146.3 150.8 156 161.7 166 170.4 174.1 178.1 180.3 183.5 186.2 190.1 192.9 198.6 203.8 207.4 210.9 214.3 217.1 220.3 222.6 224.5 226.6 229 231.3 233.2 234.4 235.3 236 236.5 239.1 239.3 238.3 236.1 232.5 227.9 224.3 222.6 221.7 221 220.4 220.7 226.1 230.4 234.2 237.9 241.6 245.3 249.1 252.3 255.9 259.8 263.1 266.7 270.2 273.7 276 278.4 280.5 282.5 284.4 286.3 287.1 287.4 285.7 283.3 280.6 279.3 277.5 274.9 271.2 266.3 261.5 263.1 270.6 276.1 281.4 286 291.3 298.8 302.5 301.3 300.6 299.5 299.4 298.8 298.7 297.9 296.3 292.9 288.7 281.9 273.4 274 277.9 288.8 295.5 300.7 304 304.1 303.9 303.4 302.8 302.3 302.3 306.3 309 311.7 315.1 316.9 318.5 320.5 324.9 327.3 329 332.1 334.2 337.6 340.4 344.2 348.6 352.9 357.3 361.6 365.4 370.4 374.8 379.1 383.7 388.5 393.8 399.8 405.8 411.9 418.7 423.8 426.7 428.6 428.6
152.3 154.2 156.7 160.5 162.9 164.8 166.4 166.2 165.6 164.7 163.5 163.3 163.4 164.1 165.9 167.7 170.7 173.5 177 179.7 182.2 184.9 187.3 189.5 190.5 190.8 190.8 190.9 190.1 190 188.4 186.2 184.9 183.4 180.1 175.9 171.7 167.6 163 156.7 152.8 152.5 150.6 151.7 152 154.1 155.5 154.2 149.9 146 125.7 115 113 113.3 115.7 128 133.5 136.8 140.1 142.2 145.4 148.9 154.5 159.2 163.2 168.4 172.7 176.8 180.8 184.2 187.9 191.4 194.3 197.8 201.8 205.3 209.4 212.8 216.3 219.4 222.7 225.1 227.4 229.8 232.3 234.4 236 237.5 238.9 240.2 241.6 243.3 243.9 242.6 240.3 236.8 232.1 228.1 226.8 225.8 225.4 225 224.8 227.5 231.1 234.6 238 241.5 245.4 248.2 251.1 254.2 257.5 260.2 263.3 266.8 270 272.4 274.3 276.1 278.1 280.1 282 282.6 282.9 281.5 279.3 276.6 275.2 274.3 272.1 268.8 263.5 260 259.6 267.9 273.5 278.9 283.5 287.8 292.9 296.1 297 297.3 296.8 295.9 296.2 295.9 296 294.3 291.6 287.1 279.4 273.7 273.6 282 290.9 297.2 302.6 306.4 307.6 306.8 305.6 305.3 305.5 306.2 307 311.2 312.5 313 315.7 320.4 322.8 324.9 327.4 329.9 332.3 334.7 338.4 341.9 346.3 350.8 355.4 360.1 365.1 370 373.8 378 382.5 387.2 392 397.3 403.5 409.9 416.3 422.5 427.5 431.1 433.7 434.5
158.7 160.1 162 164.2 165.9 167.2 168.2 168.2 167.6 166.9 166 165.7 166 166.9 168.6 170.1 171.6 174.2 177.1 179.9 182.7 185.5 187.7 189.4 190.8 190.8 190.7 190.7 190.1 188.6 187.2 186.1 183.9 181.6 179.2 174.9 170.6 166.3 161.1 156.6 155.7 157.5 159.7 160.6 161 160.8 160.7 159.8 157.8 146.9 125 113.5 112.4 112.8 117.8 128.8 136.7 142 146.7 149.7 151.9 155.4 159.8 163.5 167.5 172.1 176.5 180 183.5 186.7 189.8 193.1 196.7 200.1 203.2 206.8 211.4 215.1 218.8 222.1 225.3 228 230.5 233 235.2 237.1 239.8 241.5 243.2 244.9 246.3 247.4 247.5 245.9 243.1 239.6 236 232.8 230.5 229.7 229.6 229 228.4 228.7 231.8 234.8 238.9 242.5 244.7 247.6 249.6 252.1 254.7 257.2 259.8 262.6 265.2 267.5 269.7 271.6 273.7 275.7 277.6 278 278 276.7 274.4 271.9 270.7 270.3 269.5 267 262.9 259 261 266 270.8 275.7 280.5 284.3 287.8 291.1 292.1 292.5 292.1 292 292.2 292.2 292.2 291.8 288.7 283.9 277.2 272.7 276.9 286.2 293.4 300.1 304.9 308.7 310.3 310.2 308.9 307.8 308.4 309.1 310.1 312.9 314.9 317.2 317.2 316.8 320.2 324.6 327.4 330.2 333.3 336.3 340.6 344.7 348.9 353.3 358.2 363.7 368.5 373.7 378.8 382.5 386.9 391.1 395.8 400.8 407 413.4 419.2 425.2 431.1 434.9 437.3 439
163.7 164.2 164.8 166.1 167.3 168.6 169.2 169.4 169.4 168.8 168.4 168.6 169.3 170.2 171.3 172.9 174.4 175.8 178.6 179.8 182.5 185.6 187.9 189.6 190.5 190.5 190.4 190.4 189.5 187.7 186.2 184.5 181.8 179.1 176.6 172.8 168.8 164.7 160.6 157.8 159 160.8 162.3 163 163.4 163.7 163.1 162 158.6 145.9 124.5 112.7 112.3 113.3 121 130.3 137.8 143.2 148.5 153.6 158.6 161.7 165.2 169.4 174.5 179.2 183.5 186.6 189 190.8 193.5 196.1 199.1 202.4 205.3 209.2 214.4 218.5 222.4 225.4 228.5 231.1 233.5 236 238.3 240.7 243.4 245.5 247.5 249.1 250.1 250.9 250.5 249.2 245.8 243.5 242.2 240.6 238.6 235.9 233.7 233 232 231.8 233.6 236.4 239.9 242.7 244.5 245.8 247.1 249.6 251.4 253.5 256 258.3 260.3 262.5 264.9 267.2 269.2 271.2 273.1 273.5 272.6 271.4 268.9 267 266.3 266.1 265.9 264.8 261.8 257.1 257.7 262.9 267.8 272.5 276.4 280.1 283.5 285.7 287.1 287 286.8 286.5 287.1 287.3 287.5 287 284.5 279.6 275.5 272.6 281.1 289.7 296.7 303.4 308.2 311.9 313.6 313.9 312.7 311.9 311.7 312.3 313.4 314.8 316.8 318.7 320.1 321.8 323.1 323.7 327.8 331.1 334.3 338.5 342.7 346.9 351.3 355.9 361.5 367 372.8 378.3 383 388.3 392.1 395.3 400.1 405.1 410.5 416.6 422.2 428.1 434.4 438.2 440.7 443.2
165.2 165 165.6 166.7 167.8 169 169.6 169.6 170.8 170.7 171.3 172.5 173.2 174.1 175 176.2 177.6 179 180.3 182.1 184.1 186.1 187.9 188.7 189.7 190.3 190.2 190 188.4 186.7 184.9 181.8 178.9 175.9 173.2 169.8 166.5 163.8 161.6 160.7 161.6 162.9 164.2 164.7 165.1 165.4 164.3 162.2 158.5 146.8 124.4 112.7 111.3 114.2 122.5 130.6 137.7 143.7 149.7 155.2 160.4 164.8 169.5 175 181.3 186.3 190.7 194.4 197.2 199.2 200.7 202.8 203.6 205.2 208.4 212.8 217.9 222.6 227 229.6 232.4 234.6 236.5 238.6 241.5 244.3 246.9 248.9 250.7 252.1 254 254.9 255.1 254.3 252.1 249.9 249.7 250 247.7 242.6 238.1 236.7 235.5 234.9 236.7 238.6 240.5 242.1 243 243.8 244.8 246.3 248.3 250.4 251.9 253.8 255.9 258 260.4 262.8 264.9 266.9 268.7 269 268.2 266.9 264 262 261.1 261.5 262 260.9 259.1 255.2 255.7 260.1 264.4 267.6 271.7 275.3 277.8 279.6 280.6 280.9 280.9 280.9 281 281.1 281.6 281.3 278.9 276 273.6 271.9 282.9 292.4 299.7 306.7 311.3 315 316.8 317.6 316.7 315.8 315.6 316.3 317.4 317.9 319 320.5 322.1 324.1 325.2 328.2 330.7 332.5 336.4 340.8 345 349.2 353.7 358.7 364.5 370.4 375.8 381.8 388.4 393.7 397.7 400.9 404.7 409.1 414.1 419.7 425.4 431.8 436.6 441 444.2 446.9
164.2 164.2 165.5 166.4 167.4 168.8 169.6 170.6 171.9 172.7 173.8 175.2 176.4 177.4 178.3 179.3 180.4 181.7 183 184.3 185.7 187.1 188.2 189.1 189.9 190.1 189.5 188.8 187.3 185.7 183.4 180.1 177.1 173.9 171.3 168.8 166.6 165.2 163.8 163.4 163.6 164.3 165.3 166.2 166.6 165.9 164.7 161.5 155.8 146.6 125.3 113.1 110.6 114.9 121.8 129.3 136.4 142.8 148.9 155 160.3 165.2 171.3 178.1 184.8 190.2 194.5 197.9 201.2 204.6 208.1 209.2 209.4 209.6 212.3 216.4 220.4 225.2 229.3 232 234.5 236.6 239 241.2 243.4 246.6 249.8 252 254.1 256.2 257.7 259.1 259.9 259.8 258.6 256.5 258 257.8 255.3 250.2 243.7 240.8 238.3 237.3 237.9 238.8 239.4 240.4 240 240.9 241.8 243.1 244.7 246.3 247.8 249.4 251.5 253.4 255.8 258.3 260.5 262.3 264.1 265.2 265 263.8 260.8 257.7 256.1 255.9 257.1 256.3 254.9 252.1 252.2 256.5 260.1 263.3 266.3 269.6 271.9 273 273.9 274.7 274.9 274.5 274.8 275 275.1 274.7 273.8 274.6 270.4 273.9 285 294.7 302.2 308.5 312.8 316.4 319.4 320.6 320.5 319.7 319.6 320.4 321.3 321.9 323 324.4 325.9 327.9 330.2 332.4 334.1 334.9 339.3 343.1 347.3 351.7 356.3 361.7 367.7 373.7 378.7 387 397.8 400.6 403.6 406 408.8 412.8 417.4 422.6 428.1 434.3 438.8 443.2 446.5 449.4
161.9 163.1 164.1 165.5 167.2 168.7 170.3 171.6 172.8 174.1 175.9 177.6 179.3 180.1 180.9 181.7 182.8 184.1 185.3 186.5 187.7 188.7 189.1 189.6 190.2 189.6 188.7 188.1 186.2 184.5 182.5 179.7 177.5 175.5 172.9 170.7 169 167.4 166.6 166 166.1 167 167.5 167.9 168 167.7 166.4 163.6 158.4 148.2 128.6 112.6 110.8 113.4 119.7 127.2 135.2 141.8 147.2 153 159 165 171.6 178.4 184.8 190.6 195.4 199 202.5 205.4 209 211.3 212.1 212.9 214.8 217 221.5 225.9 229.3 232.6 235.1 237.4 239.9 242.7 245.5 249.1 253.1 255.3 257.2 259.3 261.6 263.3 264.9 265 263.8 263.5 264.4 263.8 261.3 254.9 247.6 243.8 240.8 239.3 233 237.9 237.9 237.6 237.5 237.7 238.5 239.3 240.7 242.2 243.6 245 246.9 249.1 251.2 253.8 256.5 258.6 261 261.8 261.8 260.6 256.8 253.2 251.3 249.6 249.8 250.1 250.1 247.5 248.6 253 255.8 259 261.5 263.9 265.8 266.7 267.3 267.9 267.7 267.2 267.4 267.5 267.6 268.2 269.3 267.7 266.6 276.3 287.4 296.2 302.6 308.5 313.8 317.6 320.6 322.9 323.9 323.6 323.9 324.6 326.2 327.1 328 329.5 331 332.5 334.5 336.6 338.9 341.3 343.9 346.7 351.2 355 359.2 364.7 370.6 376.6 384.2 393.3 403.5 407.1 408.1 410 412.5 415.5 419.8 425.1 430.6 436.2 440.9 445.4 448.4 451.2
158.7 160.3 162.5 164.5 166.5 168.6 170.4 172.3 173.6 175 177.3 179.5 181.3 182.6 183.3 184.2 185.1 186.4 187.6 188.9 189.9 190 190.2 190.5 190.4 189.8 189 187.8 186.2 184.1 183 181.7 179.5 177.6 175.5 173.2 171.6 170 169.2 168.4 168.5 169.5 170.4 171.2 171.1 170.1 168.7 167.1 163.6 155.1 135 118.3 111 112 115.9 124.7 133 140.3 145.4 148.8 155.8 164 171 177 183.6 189.4 194.5 198 201.6 204.5 207.9 210.2 211.8 212.9 214.8 217.6 221.3 225.1 228.1 231.2 234 237.1 239.8 243.3 246.9 251 254.9 258.5 261.1 263.4 265.2 267 268.5 269.3 270 269.5 268.3 266.5 264.2 258.5 249.8 245.7 241.9 235.1 234.4 236.2 236.2 235.9 235.5 234.7 235 235.2 236.4 238.1 239.8 241.2 242.3 243.7 246.9 248.7 251.9 255.3 257.3 258.5 259 257.2 253.3 247.7 245.7 243.4 243.8 243 245.8 244.5 245.2 249.2 252.1 254.5 256.8 258.5 260.2 260.8 260.7 259.6 258.8 257.4 259.1 263.6 264.8 262.4 263.7 267.5 269 279.7 288.5 296.4 302.9 308.5 314 318.5 321.7 324.2 326 327.2 328.3 330.6 332.9 334.9 336.2 338.1 339.4 341.6 343.1 344.8 346.5 347.2 347.3 349.9 353 357.3 362.1 367.5 373.4 380.1 386.7 394 401.5 407.5 410.9 413 415.3 418.4 421.7 427.2 432.6 437.6 442.3 446.6 450 453.7
155.5 157.8 161.1 163.4 165.5 167.8 170.4 172.6 174.3 175.9 178.1 180.1 182.3 184 185.8 186.9 187.9 189 190.2 191.2 191.9 191.4 191.4 191.5 191.2 190.2 189.5 188 186.6 185.1 184.5 183.3 182 180.2 178.1 176 174.3 172.7 171.4 170.7 170.7 171.9 173 173.5 173.4 172.7 171 168.9 166.2 161.5 149.1 127.2 111.8 111.3 114.4 121.2 131.4 138 142.7 147.7 156.1 162.9 168.7 174.7 181.3 185.7 191 195.1 198.8 202 205.5 208 210.1 211.9 214.2 217.5 220.4 223 225.9 229.2 232.4 235.5 239 242.5 246 250.8 255.5 259.4 262.5 265 267.2 269.1 270.7 271.7 271.9 271.3 269.9 267.8 264.7 259.5 251.7 247.3 241.4 229.5 232.4 230.6 234.5 234.1 233.1 232.2 232.1 232.3 233.3 234.7 236 237.3 239.3 240.8 243 245.2 247.9 252.6 254.6 256.3 256.5 254.9 250.2 242.5 238.3 238.3 236.8 237.1 238.6 241.7 245.2 246.3 248.9 250.9 252.6 254.2 255 252.5 251.2 256.2 260.7 263.6 265.5 267.7 270.1 271.8 273.1 274.8 276 274.3 287.1 296.5 302.9 308.5 313.9 318.5 322.3 325.3 327.6 329.6 331.9 335.1 338.3 340.7 343.5 345.9 348 349.6 351.3 351.8 352.4 352.9 353.6 355.1 358 359.2 365.2 370.7 376.1 382.2 388.3 394.5 401.2 407.4 411.4 414.3 417.2 419.8 423.1 428.8 434.3 438.9 443.5 447.7 451.8 455.7
153.2 155.9 159.4 162.5 164.9 167.4 169.8 171.9 174.2 176.1 178.5 180.7 182.8 184.7 186.7 188.9 190.5 191.7 192.7 193.7 193.7 193.7 193.9 193 192 191.1 189.9 188.9 187.6 186.1 185.6 184.6 183.5 182.2 180.2 178.1 177 175.5 174.4 173.5 173.4 174.8 175.4 175.6 175.4 174.9 173.1 171.2 169 166 159.7 137 112 111.7 114.7 120.5 127.2 136.4 142.3 149.8 155.5 161.1 166.3 172.3 176.7 181.5 186.5 191.2 195.5 198.8 202 205.2 207.4 209.5 213 215.7 218.4 220.7 223.9 227.2 230.6 234.1 237.7 241 244.5 249 254.9 259.5 263.7 266.5 268.9 270.6 272 272.7 272.4 271.3 269.9 267.3 263.8 259.3 252.2 247.9 242.5 229.5 233.3 231.1 233.6 231.9 230.8 229.8 229.1 229.3 230.5 231.9 232.6 233.3 235.6 238.1 240.3 242.6 245.1 248.5 251.8 253.9 254.3 253.1 247.6 238 235.6 235.8 236.8 241.6 243.2 241.4 242 241.8 243.4 246.1 246.9 247.1 250.5 252.8 254.5 259.1 264 266.9 269.4 271.6 273.6 274.8 275.7 277.7 278.8 280.2 287.9 296.6 303 308.8 313.6 318.4 322 325.5 328.2 331.2 334.1 337.9 341.3 344.6 348.2 351.1 353.9 355.9 357.5 358.3 358.3 358.3 358.9 360 361.6 364.2 365.9 371.5 377.7 383.8 389.7 395.2 401.4 407.6 411.5 414.4 417.3 420.9 424.9 430.3 435.9 440.3 444.5 448.4 452.5 457.5
151 153.8 157.2 160.8 163.3 165.8 168.4 170.5 173.1 175.6 177.8 179.8 182.2 184.5 186.9 188.7 190.4 192.2 193.9 195.1 195.7 196.3 195.4 194.2 193.1 191.6 190.3 188.8 187.1 185.4 185.2 184.5 183.3 182 180.7 179.7 179.2 178.1 177.2 176.5 176.6 177.1 177.6 177.4 177.3 176.8 175.3 173.5 171.7 168.7 162.3 143.7 121.6 110.8 113.2 117.5 126.3 133.7 139.9 147.2 153.2 159 163.9 168.9 173.9 178.2 182.8 187.2 191.5 195.3 198.6 202 205 207.1 210.8 214 216.6 219.1 221.9 225.3 228.9 232.5 236 240.2 244.6 248.5 252.7 257.7 262.4 265.4 268.6 270.6 272.2 272.8 272.1 270.9 268.9 265.8 262.4 258.8 252.8 248.4 243.8 233.4 229.5 230.9 232.2 231.5 229 227.6 226.3 226.3 227.7 229.2 230 230.4 231.3 234.7 237.7 239.3 242.3 245.7 249 251.6 252.6 251.4 246 235.4 233.5 232.4 239.5 243.7 247.1 248.2 246.2 244.4 245.3 246.3 248.4 249.3 251.1 252.4 259.5 266 270.6 274.1 276.7 278.5 279.9 281.4 282.4 283.1 283.7 285.6 282.8 296.6 303 308.7 313.5 317.8 321.9 325.4 327.9 331.6 335.4 339.1 342.9 347.2 351.2 354.8 358 360.6 361.9 362.5 363 363.1 363.9 364.9 366.2 368.4 371 373.9 379.3 385.7 391.3 396.2 401.3 407.2 411.3 414.5 417.9 421.7 426.5 431.4 436.7 441.3 445.1 449 453.9 459
148.7 151.8 155.1 158.7 161.6 164.1 166.7 169.2 171.7 173.6 176 178.5 181.1 183.3 185.7 188.1 189.7 191.3 193 194.4 195.2 195.9 195.9 195 193.2 191.6 189.7 188 186.4 184.8 184.3 183.4 182.5 181.7 180.4 180.2 180.2 179.5 178.2 178 178.1 178.3 178.6 178.5 178 177.1 175.8 173.8 171.8 169.1 164.6 150.3 127.1 110.4 111.4 115.5 123.9 131.3 136.7 143.9 150.6 156.1 161.1 165.7 171.2 175 179.3 183.7 187.7 191.7 195.3 198.9 202.4 206.1 208.5 211.5 214.8 217.2 220 223.5 227.1 230.8 234.4 238.6 243 247.4 251.3 255.7 260.7 264.2 267.4 270.1 271.6 271.9 270.7 269.1 267.6 264.3 260.9 257.3 253.3 248.8 244.2 240 237.2 235.1 228.6 228.6 228.1 225.7 224.4 223.7 225.1 226.1 225.2 226.7 228.2 231.4 234.6 236.6 239.6 243 245.9 248.6 249.9 249.8 246 236.4 230.8 236.6 241.7 247.1 252.1 254.4 254.5 253.6 250.1 248.8 249.3 250.2 251.2 258.1 267.3 273.1 277.5 281.5 283.7 285.5 287 287.9 288.4 288 288.6 289.3 291.4 293.6 302.9 308.4 313.4 317.1 320.8 323.8 327.2 331.1 335.5 340 344.2 348.5 352.8 356.8 360.5 363.6 365.5 366.3 366.9 367.4 368.6 369.5 371.1 372.8 375.2 378.5 381.7 384.8 388.9 396 401.1 406.5 410.8 414.7 418.8 422.8 427.8 432.7 437.9 442.3 446 449.9 455.1 460.5
146.6 150 153.2 156.6 159.8 162.4 165 167.6 169.7 171.7 173.9 176.4 179.1 181.4 184.3 186.6 188.8 190.2 191.7 193.1 194.1 194.5 194.4 194.2 192.9 190.6 188.7 187.3 185.4 184 183 182.1 181.1 180.7 179.9 179.5 180 179.7 178.9 178.5 178.3 179.1 179.2 178.9 178 177.2 175.4 173.3 170.5 167.5 162.8 152.5 132.1 113 109.5 114.3 120.9 128.6 133.6 139.7 146.4 152.9 157.7 162.4 167.3 171.7 175.7 179.3 183.6 187.9 191.7 196.1 200.1 203.8 206.5 209.1 212.8 215.3 217.8 221.5 224.6 228.9 232.8 237 241.4 245.8 249.5 253.2 257.7 262.4 265.8 268.7 270.4 270.3 269.5 268.2 266.2 262.7 259.1 255.4 252.3 249 244.6 241.2 237.2 228.1 230.6 229.8 228 225.6 222.6 221.9 223.6 223.7 222.6 223.1 224.8 227.8 232.3 233.9 237.3 240.1 242.7 244.7 245.8 246.6 244.7 237 230.2 234.9 242.5 248.3 252.2 255.1 257.4 258.3 258.1 257.7 257.1 257.7 261.3 266.3 273 277.6 282.2 286.4 288.5 292.1 294.4 294.8 294.7 294.1 294.1 294.6 295.3 295.8 299.5 307.4 312.2 316.3 320.4 324.3 327.9 332 336.1 340.3 345.3 349.7 353.9 357.8 361.8 365.5 368.1 369.6 370 371.3 372.8 374 375.8 377.5 379.7 382.1 385.6 389.3 393.2 397.3 401 406.1 410.8 414.8 419.2 424 428.7 433.6 439 442.8 447 451.4 456.2 462.2
144.5 148.1 151.4 154.9 158.1 160.5 163 165.4 167.7 169.9 172.1 174.3 176.6 179.4 182.7 185.2 187.4 189.2 190.6 192 192.9 192.7 192.5 192.2 190.7 189.3 187.9 185.8 184.1 182.6 181.6 180.6 179.6 178.5 177.7 177.4 178.2 178.6 178.9 178.8 178.5 178.9 179 178.5 178 176.9 174.6 171.9 168.1 164.7 159.2 151 134.4 115.6 110.3 113.2 118.8 125.7 130.2 135.5 141.9 148.2 153.5 158.4 163.1 167.8 171.5 174.9 179.2 183.6 188.7 194.3 198.2 201.5 204.6 207.2 210.6 213.2 215.6 220 223.6 227.2 231.2 235.4 239.9 244.2 247.9 251.3 255.6 260.1 263.7 267.1 268.7 268.7 268.3 267.3 264.4 260.7 257 253.3 250.8 247.6 244.8 241.2 238 228.1 228.1 234.3 228.4 225.2 223.1 220.3 221.3 221.4 220.9 220.3 222.6 226.3 230.2 231.9 233.9 236.2 238.7 240.6 241.7 243.1 241.2 236 227.4 234.1 242.1 247.4 250.6 253.8 257 258.9 261.2 262.7 264.1 264.8 267.7 271.9 275.8 280.7 285.6 290.1 294.6 298.5 301.6 302.9 303 303.3 302.4 300.3 300.2 300.3 300 305 310.8 315.2 319.3 322.9 326.7 331 335.5 340.1 345.6 350.5 355.6 359.7 363.7 367.1 370 371.7 373.1 375.3 377 378.4 380.3 382.2 384.4 386.6 389.7 392.7 396.2 399.6 403 407.4 411.7 415.7 420.3 425.2 429.6 434.6 439.7 444.4 448.8 453.7 459.3 464.5
142.4 145.9 149.4 152.4 155.6 158.4 160.9 163.3 165.6 167.8 170 172.2 174.7 177.5 180.7 183.7 185.9 188 189.4 190.5 191.4 191 190.7 190 188.9 187.6 186.3 185 183.1 181.1 179.1 177.7 176.6 175.7 175.5 175.2 175.3 176 176.8 177.1 177.4 178 177.6 177.2 176.1 174.9 172.3 169.2 165.3 161.1 156.3 147.9 134.6 117.1 107.6 111.5 116.4 122 126.8 131.3 137.1 143.1 148.9 154.1 158.6 162.4 167.3 172.2 177.6 183.1 188.2 193.2 196.8 200.3 202.2 204.9 207.4 210.6 214.7 219.4 222.8 226.3 230.6 235.3 238.7 242.5 246.5 251.1 254.9 259.1 262.6 265.9 267.4 267.9 267.6 266.2 263 258.9 254.8 251.2 248.6 246.3 244.1 241.1 237.9 234.3 228.1 233.1 226.8 224.6 223.1 219.6 219.3 219.2 218.8 218.7 222.2 224.5 227.6 229.5 231.1 232.4 234.4 235.3 236.6 238.5 236.6 232.5 226.6 232.2 240.4 245.4 249 252.3 255.6 258.7 261.2 263.6 265.4 267.2 270 273.3 277.3 282.6 287.4 291.9 297.1 301.8 305.4 307.9 310.1 309.7 308.9 306.7 305.6 304.8 304.5 304.3 307.7 314.1 318.2 321.7 325.5 329.9 334.3 339.6 345.8 352.1 357.6 362 365.6 368.6 371.8 375 377.6 379.7 381.3 382.8 385.2 387.3 389.3 391.7 394.2 397.2 400.3 402.9 406.6 409.6 413.2 417 421.7 426.3 431 435.9 441 445.9 450.5 456.4 462.7 468.5
139.9 143.4 146.9 150 153 155.6 157.9 160.7 163.3 165.5 167.7 170.4 173.2 175.8 178.7 181.7 184.3 186.3 188.3 189.2 189.9 189.5 189 188.1 187.1 185.8 184.6 183.1 181.6 179.5 177.1 175.4 174.3 173.6 172.6 171.8 172.2 172.6 173.5 174.2 175 175.8 176.1 175.4 173.7 171.8 169.2 166.3 162 155.9 148.6 139 128.8 117 107.9 109.2 113.2 117.9 122.5 126.2 129.4 135.7 141.9 147.5 153.2 160.3 167.1 172.9 179.2 184.4 188.9 192.8 196.4 198.1 199.9 200.5 204.7 209.2 213.9 218.9 222.7 226.8 231.3 235.8 239.7 243.8 247.7 252.3 255.9 259 261.2 264.6 266.1 266.7 266.2 264.4 261.1 256.5 251.7 247.6 244.9 243.6 242 240.3 237.6 234.2 231.5 228.8 225.8 223.5 221.7 219.6 219.1 218.6 216.2 219.2 220.7 222.8 225.1 226.1 227.3 228.7 230 230.8 231.6 232 231.3 228.5 224.4 229.4 238.1 242.9 246.7 250 253.2 256.7 259.9 262.3 264.4 266.5 269.5 273.6 277.7 283.5 287.4 292.4 297.9 302.8 306.4 309.6 311.7 312.9 312.6 310.7 309.3 308.3 308.4 308.9 309.8 311.5 317.2 320.8 325.2 329.2 333.9 339.1 344.9 351.4 357.3 362.6 366.8 371.9 376.1 380.6 383.8 386.1 388 389.2 391.1 393.3 395.7 398.4 400.5 402.4 405.2 407.3 410.4 413.7 417.2 419.8 422.8 428.4 432.9 437.3 442.3 447.3 453.2 459.3 465 470.2
137.5 141 144.4 147.5 150.2 152.5 155 157.9 160.8 163.3 165.8 168.9 172.2 175.1 177.8 180.7 183.3 185.3 186.9 188.2 188.1 187.6 187 186.1 185.2 184.2 182.9 181.3 179.9 178.1 175.7 174 171.5 169.5 168.6 168.3 168.7 169.2 170.3 171.8 172.7 173.5 173.9 172.7 171.5 170.3 167.6 163.9 159.7 154.3 146.7 138.3 130.5 120.5 110.8 108.1 109.7 113.6 116.7 119.9 126 132.3 141.3 148.5 155.1 161.8 167.5 173.4 179.9 184.8 189.2 192.9 195.1 195.6 196.1 198 202.3 207.6 213.3 218.6 223.6 228.1 232.6 237 241.2 245.1 250.2 254.3 257.6 260.2 262.6 264.1 265.4 265.1 264.4 261.9 258.2 253.1 248.2 243.2 240.6 239.9 239.3 238.3 236.1 233.6 230.5 227.2 224 222 220.2 218.9 219 218.3 212.7 216.4 218.5 220.7 222.1 222.7 223.9 225.3 226.2 227.1 227.9 228.1 227.6 227.1 223.2 225.3 235.1 239.4 244.3 247.5 250.7 253.9 257.1 259.8 262.1 264.3 267.6 272.1 277.4 282.6 287.1 292.2 297.3 302.2 306.5 309.7 312.5 313.9 313.7 314.6 313.1 311.7 311.6 312.4 313 315.1 314.5 321.1 325.1 329.1 333.4 338.5 344 350 356 361.5 367.3 372.6 377.8 382.8 386.2 389.5 392.1 394.4 396.7 399.4 402.1 404.7 407.1 409.1 411.1 413.6 416 419.1 421.8 425 428.2 431 435.5 439.6 444.8 449.9 456 461.5 466.7 471.4
136.4 138.8 142 145.3 147.2 149.4 152.1 155.6 159.5 161.9 164.8 168 171.1 174.3 177.2 180.1 182 184 185.3 186.5 186.1 185.6 184.9 184.1 183.4 182.6 181.4 180.1 178.7 176.8 174.6 171.7 169 166.2 164.6 164.5 164.9 166 167.3 168.7 170.1 171.2 171.5 170.7 169.8 168.5 166.7 164.1 160.8 156.2 150.9 144 135.7 127.2 116.6 107.6 108.5 111.8 114.4 118.2 125 132.1 140 146.9 154.7 162 167.6 173.7 180 184.6 189.2 191.4 192.1 191.5 191.4 196 200.4 206.4 212.2 217.7 223.9 229.2 233.9 238.2 242.6 248.2 253.1 257 259.7 261.8 263.6 264.9 264.9 264.1 262.1 258.6 254.4 248.1 242.8 238.2 235.7 235.1 235.3 234.5 233.6 231 228.2 225 222.2 220 217.2 214.8 213.8 211.9 212.2 212.2 215.8 217.5 219 218.7 221 222.3 222.4 223.3 222.5 225.1 224.1 225 222.6 223.2 231 236.8 241.4 244.8 247.8 250.7 253.6 256.4 259.1 262 265.9 270.6 276.1 281.6 286.6 291.5 296.4 300.9 305.5 309 311.8 313.7 315.2 317.5 316.7 316.5 316.1 315.9 316.5 317.4 319.1 321.3 325.3 329 333 338 342.7 348.3 354.4 360.2 366.3 371.9 377.3 382.2 386.8 391.1 394.2 397.5 400.6 403.9 407.1 410 413.2 415.9 418 420.1 422.4 425.1 427.8 430.6 433.2 436.2 439 443 447.7 452.8 458.1 463.5 468.8 472.8
140 142 144.6 147.4 149.6 151.9 154.5 157.5 160 163 165.8 169.3 172.4 175.2 177.4 180.3 181.6 182.9 184.6 184.6 184.3 183.9 183.5 182.5 181.7 180.9 180 178.9 177.3 176 173.1 169.9 166.9 163.9 160.9 160.3 161.3 162.6 164.2 165.5 167.1 168.6 169.1 168.5 168.1 167.9 166.5 164.5 161.9 158.6 153.5 149 142.6 135.8 125 115.5 106.6 109.4 111.8 116.5 124.3 131.6 138.6 144.9 154.1 161.8 167.8 173.8 179 183.6 187.1 189 188.4 187.1 189.3 194.3 198.5 204.8 211.2 217.4 223.7 229.9 235.7 240.7 245.4 251.5 255.9 259.9 261.7 263.4 264.3 264.6 263.9 262.8 259.8 255.4 249.6 243.3 237.6 233.3 230.3 230 231.2 230.6 229.7 228.1 224.4 220.3 216.6 215.7 212.1 208.7 209.2 212.5 212.1 212.4 212 212.9 213.8 215.1 216.6 218 218 221 221.7 221.8 221.3 221.9 221 221.5 225.1 232.8 238.6 242 244.9 247.8 250.5 253.3 256.4 259.5 263.6 268.6 274.1 279.5 284.3 289.6 294.5 299.1 304.1 309 312.1 315.1 317 319.2 320.2 320.9 320.2 319.7 319.9 320.4 321.7 321.5 325.5 329.2 332.9 337.3 342 347.2 352.9 359 365.2 371 376.3 381.4 386.2 390.5 395.1 399.2 402.8 406.7 409.9 413.7 417.3 420.2 422.3 425.4 428.1 430.7 433.5 436.3 439 441.5 443.7 446.5 450.7 455.4 460.3 465.7 470.9 475.2
150.8 151.9 153.4 155.5 156.7 157.2 159 161 163.6 166.3 168.8 171.7 174.7 176.4 178.4 180.4 181.5 182.5 182.5 182.8 182.4 181.9 181.9 180.9 180.1 179.3 178.4 177.5 176.5 175 172.1 170.4 166.9 163.5 159.6 156.8 157.9 159.2 161.1 162.8 164.5 165.7 166.5 166.9 166.7 166.7 166.7 164.8 162.9 160.5 157.4 152.7 148.9 143.3 134 123.5 112.1 108.3 108.7 111.7 119.3 126.9 134.8 142.8 153.2 160 166 172.1 177.8 181.8 184.5 185.5 182.5 180.2 185.7 191.9 196.8 203.5 210.6 217.2 223.6 230.5 236.8 243.2 248.5 254.6 258.7 261.9 263 263.2 263.7 263.4 262.4 260.7 257.1 252.1 245.2 238.3 232.7 228.2 225.3 225.1 226.4 226.3 225 223.2 219.9 215.3 210.3 207.9 206.4 207.6 208.5 207.8 209.7 210.2 211.1 211.2 210.6 211.4 211.7 215.7 216.8 218.2 218.8 219.5 219.6 220.3 220.3 220.1 223.8 231.7 236.9 240.2 243 245.2 247.8 250.8 253.9 257.1 261.7 266.3 271.7 277.1 283 287.8 292.7 297.8 303 308 313.3 317.6 320.5 322.8 324.6 325.4 324.6 324.2 323.9 323.8 324.4 325.5 325.2 329.9 333.6 337.1 341.4 346.1 351.7 357.7 364 369.6 374.7 379.9 385 389.6 393.9 398.8 403.9 407.9 411.9 415.9 419.9 423.6 426.5 429.3 432.4 435.8 438.9 441.8 444.5 446.1 448.3 450.4 453.9 458.3 462.7 467 471.8 476.2
159.7 160.1 161.5 163.3 163.7 164.2 165.5 166.9 167.8 170.3 172.4 174.5 177.1 178.4 180.3 181 181.3 181.6 181.6 180.8 179.9 179.4 179.1 178.9 177.8 177.4 176.9 176.1 175.4 173.5 171.8 170.2 167 163 159.1 155.2 153.9 155.8 157.3 159 161.3 163.2 164.3 164.6 164.9 165.6 166 165.2 163.9 163.3 160.9 158.5 155.7 151.6 143.8 133.3 121.7 112.3 108.1 105.7 114.4 122.2 128.9 138.6 149.2 157.1 164.1 170.4 175.6 178.8 180.5 178.9 174.1 177.1 182.5 188.7 196.3 203.3 211.2 218.2 224.9 231.2 237.5 243.9 249.7 254.6 258.5 260.7 261.7 261.5 261.4 261 260.2 258.4 254.8 249.6 242.3 234.8 228.6 222.9 220.5 218.6 219.4 220.4 220.2 218.5 215.5 208.9 206.4 206.9 207.8 208.6 209.5 209.4 209.4 210.7 209.5 210 211.3 212.3 213.3 212.9 215.2 217.3 217.9 217.7 218.2 218.6 218.8 219.3 224.6 231.4 235.1 237.9 240.1 242.4 245.5 248.7 251.6 255.2 259.6 264.2 269.1 274.7 280.7 285.9 291.3 296.1 301.7 307.9 313.7 319.3 324.2 328.9 330.9 330.4 329.7 329.3 328.7 328.1 327.6 327.9 328.7 328.4 332.7 336.9 340.9 345.3 350.5 355.8 361.8 367.3 372.4 377.6 382.7 387.9 392.7 397.8 403.2 408.1 412.4 416.7 421.1 425.2 428.8 432.8 436.1 439.8 443.7 446.7 449.4 450.5 451.4 453.6 456.1 459.9 464 468 472.2 476.3
166.1 166.9 167.4 168.3 169 169.9 170.8 171.2 171.9 173.5 175.3 177.3 179.1 180.3 180.7 181 181.3 180.7 180.4 179.1 177.9 175.9 174.7 174.9 175.1 175.5 175.4 174.7 174 172.8 171.4 169.8 167.1 163.7 159.6 155.1 150.8 151.4 153.1 154.6 156.8 159.3 161 162.7 163.1 164.1 164.7 165.1 165.6 165.5 165 163.3 160.3 156 149.3 142.3 131.8 121.3 111.5 107.1 108.5 115.3 122.8 132.8 145.2 153.4 161 167.6 172.2 174.9 174.4 168.3 163.6 173.5 181 188.3 196.6 204.7 212.1 218.8 225.3 232.1 237.9 243.2 248.5 252.7 256.2 258.3 258.6 258.5 258.7 258.6 257.5 255.4 252.2 247.3 239.1 231.2 223.7 217.4 214.2 211.4 211.7 211 209.5 209.3 206 204.7 206.6 207.7 209.1 216.4 213.2 213.5 211.5 211.1 212 211.6 213 213.5 213.4 213.9 214.4 215.2 216.2 216.2 216.6 217.3 217.9 218.2 224.3 229.8 233.5 235.5 237.7 239.9 242.7 246 249.4 253.3 257.6 262.2 266.9 272.6 278.2 284.3 289.8 294.6 299.9 306.1 312.9 320.3 325.1 330.3 334.8 335.2 334.7 333.8 333.1 332.1 331.5 330.6 331 331.3 334.3 337.4 340.5 344.7 349.3 354.6 359.7 364.9 370.1 375.2 380.4 385.6 390.4 395.6 401.2 406.9 411.3 415.6 420.5 425.1 429.9 433.8 437.5 441.5 445.7 449.3 451.8 453.1 453.8 455.7 458 461.3 464.9 468.5 472.2 476.2
171.5 172.1 172.7 173.3 173.9 174.7 175.2 175.6 175.9 177.3 178.9 180.2 180.8 181.6 181.8 181.4 181.3 180.2 178.7 177 174.3 172 170.4 170.3 171.4 172.6 173.6 173.1 172.5 171.5 170.4 168.7 166.8 164.4 159.9 155.3 148.7 146.5 149 150.6 152.2 154.6 156.8 159.4 161.2 161.9 162.9 163.5 164.6 166 166 165 162.7 158.7 153 146.8 140.5 130.6 117.8 104.5 106.6 108.2 115.3 125.3 137.9 147.4 155.6 162.5 167.3 168.6 164.5 155.3 158.3 169.3 180.4 189.7 198.5 205.9 212.8 219.8 226.1 232.6 237.7 242.1 247 250.2 253.4 254.5 255.2 255.3 254.4 254.5 253.5 251.8 249.2 243.7 235.8 226.2 217.7 212.5 206.4 201.6 200.2 198.8 200.8 204.7 207.1 207.1 207.8 210.3 222.1 222.1 224.3 225.5 220.5 215.6 213.2 213.5 214.2 214.2 213.9 214 214.5 215.4 215.9 215.7 215.1 216.2 217.2 217 223.8 227.8 231.9 234.4 236.8 239.1 241.5 244.5 248.1 251.9 255.8 260.2 264.9 270 275.7 282.3 287.2 293 298.7 304.4 311.7 319.4 325 330.3 334.5 337 337.5 338 337.4 336.6 335.4 334.6 333.4 333 335.4 337.7 340.3 344.5 348.7 353.3 358.2 362.9 367.7 372.8 377.8 383 388.1 393.4 399 404.8 409.8 414.6 419.4 425.2 429.6 433.7 437.7 442 446.1 449.5 452.2 453.6 455.1 456.8 458.7 461.5 464.4 467.8 471.7 475.7
175.1 175.8 176.4 177.4 178.4 179.3 179.7 179.8 180.1 181.1 182.1 182.7 183.3 183.6 182.8 182.4 181.5 179.3 176.8 174.4 171.4 168.3 166.2 166.6 167.7 169.2 170.4 170.8 170.5 170.3 169.2 167.3 165.3 163.1 160.3 155.1 147.9 143.3 144.3 146.5 148.4 150.5 152.6 154.8 157 158.7 160 161 162.3 163.6 164.2 164.1 162.4 158.6 154.3 148.6 141.4 135.2 124 113.2 107.3 106.3 112.6 120 130.7 140 148.4 155.1 159.4 157.5 150 144.6 154.3 168.7 179.6 189.9 199.1 207.4 214.3 221 227.1 233 237.6 242.1 246 248.4 249.9 249.8 250 249.2 248.4 249.1 248.7 247.6 245.2 240.7 231.6 220.9 211.8 205.9 199.1 196.7 196.2 210.4 215.1 215.8 215.5 213.2 211.3 222.1 222.3 224.4 231.4 232.2 230.8 224 216.6 214.9 215 215.6 215.1 214.6 216 214.8 215.9 214.2 215.5 217.1 217 219.7 223.5 226.5 229.6 233 235.5 238.6 240.7 242.5 245.7 249.3 253.5 258 262.9 268 273 279.3 286.1 292 297.5 302.7 310.1 317.3 323.7 328.9 333.7 337.2 339.9 341.4 341.8 341.1 339.9 338.2 336.6 335.6 336.7 338.7 340.8 344.3 348.1 352 356.7 361.4 366 370.4 375.2 380.6 386 391.2 396.7 402.2 407.6 412.9 417.8 423.6 428.4 432.7 436.9 441.9 445.3 448.4 451.7 453.2 454.8 456.6 458.4 460.8 463.7 467 471 474.9
178.8 179.4 180.1 181.2 182.7 183.2 183.6 183.7 184 185.1 185.9 186.5 186.2 185.4 185.2 183.4 181.6 178.9 176.4 173 168.7 165.7 162.7 162.9 164 165.7 167.1 168.1 168.1 168 167.6 165.9 163.7 161.3 158.8 154.3 147.6 141.1 139 142.3 144.7 146.8 148.9 151.1 153.6 155.6 157 158.5 159.8 160.8 161.4 161.6 159.8 156.7 152.7 147.3 141.1 135.6 128.5 120 109.8 105.4 108.7 115.7 125.9 133.5 136.1 139 141.4 138.3 134.3 141.7 153.3 165.7 178.1 191.2 199.8 208.7 215.7 222.2 228.6 233.9 239 242.9 246 247.8 247.8 246.5 244.5 243.2 242.3 242.2 242.1 241.8 239.6 235.1 227.9 216.8 206.5 199.7 195.5 195.1 197.1 214.6 217.2 218.7 218 216.8 215.6 222.5 223.1 230.9 232.9 232.6 232.2 230.1 221.7 219.4 216.6 217.6 218.4 216.7 216.9 218.2 216.1 216.3 217 218.7 219.1 219.2 221.3 224.1 227.2 230.3 233.2 237.1 239.7 241.8 244 247.3 251.2 255.6 260.7 265.8 271.1 278 284.4 289.6 295.4 300.9 307.6 314 320.6 326.8 331.7 336.2 340.1 344 346.7 345.4 343.6 341.6 339.3 337.7 337.3 339.2 341.6 344 347.8 351.6 355 359.5 364 368.7 373.7 378.9 384.1 389.1 394.7 400.3 405.7 411.2 416.3 421.9 427 431.6 435.8 440.7 444.5 447.5 450.5 452.7 454.4 456.3 458.1 460.1 462.9 466.3 470.3 473.8
