ncols 200
nrows 82
xllcorner 320000
yllcorner 605100
cellsize 50
532.2 508.7 485 467.3 449.6 431.5 421 410.4 402.7 396.2 388 395.9 414.5 433.6 455.3 477.3 496.8 514.4 526.8 532.1 535.5 532.7 524.5 520 515.4 510.5 511.1 514.2 517.8 521.1 522.3 511.9 495.9 483.3 472.1 466.4 465.4 456.3 441.3 434.5 425.1 424.7 439.7 455.2 468.8 482.4 493.2 505.9 511.8 516.1 520.2 518.8 516.5 513.3 511 506.3 500.7 498.5 487.2 479 473.6 475.1 474.7 476.1 483.4 492.2 501.2 507 508.7 509.1 508.6 505.4 501 495.5 486.7 476.7 474.4 471.2 464.4 458 450.7 442.2 435.4 427.9 422.1 410.4 409.8 406.6 400.9 396.9 392.8 385.6 369.7 370.4 367.6 373.3 373.5 372.5 372.6 370.6 373.9 379.9 394.1 408.4 420.9 433.5 448.6 457.1 459.9 460 460.1 458.8 455.8 448 433.7 426.1 411.2 397.2 383.7 371.9 360.1 349.1 340.4 332.1 343 347.6 354.1 358.9 366.6 368.7 369.3 370.1 368.7 369.3 371.1 371.6 362.6 354.5 346.9 341.2 335.6 331 324.7 316.9 311 308 294.1 292.7 296.2 302.9 308.9 318.4 330.5 341.9 353.1 364.7 375.4 382.9 387.1 389.5 396.5 400.6 400.4 399.8 397.4 393.1 385.2 374.1 363.2 358.4 354.5 350.5 343.9 351.1 356.3 358.7 361.3 363.6 363.2 362.7 361.6 361.8 362 362.6 359 357.6 361.1 364.3 376.1 385.7 394.1 403.1 406.8 408.2 407.5 405.5 404.1 400.5 397.3 392.8
536.7 513.6 482.5 464.1 448 433.7 422.3 411.1 402.5 394.9 388.3 402.9 419.8 435.8 459.7 481.9 502.6 519.7 532.2 540.6 547.2 546 533.6 529.2 525.3 522.6 521.7 522.5 523.3 522.3 520.9 515.5 500.6 488 480.8 478.4 474.3 465.2 456.6 446.6 435.6 423.8 429.8 443.1 457 473.5 484.8 493.6 500.8 509.5 517.3 518.1 516.8 516.7 515.1 512 507.7 502.9 490.7 481.5 474.1 467.2 466.9 469.6 473.8 480.5 493.9 503.7 509.7 513.4 515.2 511 506.4 500.1 490.7 481 478.8 475.6 470.1 463 456 448.5 441 433.7 425.8 422 417.8 413.6 408.1 402 395.3 384.8 375.4 365.1 363.3 360 362.8 362.7 363.6 364.9 362.9 366.7 378 388.2 398.5 412.5 427.7 438.1 440.3 443 445.5 443.8 437.4 431.3 423.1 415.5 405.5 395.5 384.8 375.8 366.4 352.3 341.9 332.8 330.6 342.7 349.5 353.7 357.4 359.7 359.4 361.4 360.4 359.7 358.1 355.8 351.4 346.3 341.5 336 330.6 325.7 319.7 313.8 308.3 300.2 293.6 293.2 302.3 307 314.2 325.7 337 349 360.5 373.1 383.4 389.2 393.7 394.3 396.2 398.8 399.1 396.9 393.8 387.7 378.3 367.5 360.2 356.7 354.4 344.1 350.2 362.1 367.9 370.2 373.9 376.2 375.7 374.8 374 372.6 370.3 371.5 365.7 361.4 362.2 369.1 379.9 389.3 399.2 407.4 413.9 415 412 409.7 407.4 404.2 398.7 393.2
531.1 505.1 478.4 461 447.3 434.3 423.7 412.1 403.1 394.6 395.3 410.1 424.2 436.4 463.7 487.3 507.3 523.8 539.4 549.5 557.3 555.5 543.5 539.1 536.6 533.5 533.6 530.4 527.1 523.7 524.7 514.1 504 491.8 491.6 490.4 483.8 476.4 468.4 458.2 445 431.7 419.9 432.7 445.6 459.4 467.9 478.9 491.2 499.5 513.9 519 516.6 519.5 520.5 517.4 514.8 508 495.7 482.3 473.6 466.1 460.7 464.3 465.5 471.4 482.1 499.3 508.5 514.8 519.9 514 509.1 503.8 499.5 483.7 481.2 479.1 472.6 466.5 459.9 454.3 446.1 436.3 431.6 430.2 426.4 422.5 416.7 409.3 401.1 395.6 390 383.1 375.9 367.3 359.2 356.5 354.7 354.7 358.6 360.8 367.1 376.9 384.8 393.7 408.5 421 422.1 425 430.9 427.8 422.3 416.9 413.4 406 399.5 393 385.2 377 365.8 353.7 345.2 335.7 328.1 337.4 343.8 347.8 348.5 348.3 349.8 352.7 351.4 350 348.7 347.1 344 339.3 334.9 330.5 325.9 320.7 315.1 309.7 305.4 295.1 293.8 297.9 305.3 310.2 319 330.9 342.7 354.8 366.8 380.1 389.7 396.9 400.7 400.4 399.5 399 396.6 392.8 388.4 381.8 371.5 362.6 355.9 352.4 348.8 347.2 359.5 368.7 375.4 380.6 385.3 388.7 386.3 387.4 386.3 382.8 379.9 380.2 377.9 372.5 371.2 376.6 387.8 394.4 406.3 414.8 421.3 422.3 418.3 414.3 410 404.2 398.6 393.5
527.8 502 478.2 459.8 446 432.4 422.4 410.8 402.5 394.3 399.1 417.5 430.1 443.9 471 493.1 511.7 529 544.9 559.5 565.4 565 554.6 553.7 553.5 551.2 546.3 541.5 531.9 524.4 519.3 514 507.8 500.4 498.1 494.4 488.4 483.4 477.6 467.6 455.7 442.6 428 420.8 429.3 441.2 449 460.1 474.4 486.2 497.5 511.4 515.4 521.4 524.5 520.9 517.4 511.3 497.4 483.9 473.9 465 456 459.6 461.3 463.4 473.6 489.4 504.3 511.2 516.2 515.1 510.9 506.3 500.4 487.3 483.3 479.6 474.2 469.1 463.3 457.6 450 439.8 439.3 436.8 437.2 432.1 427.2 419 411.1 405.8 399.4 392.5 385.1 377.6 372.6 367.6 355.9 353.4 351.4 353.6 360.9 367.1 372.8 380.1 386.3 402.2 404.4 410.7 412.1 413.7 409.6 404.5 401.6 396 391.3 387.8 381.6 373.6 364.9 356.7 349 338.2 327.5 328.1 338.9 340.9 343.7 342.1 342.2 342.9 343 341.7 340.5 338.9 335.5 332.2 328.5 325.8 321.4 316.6 311.6 307.3 299 294.1 297.1 305 308.9 313.3 324 335.4 346.8 359.7 373.8 385.8 395.1 402.6 406.9 407.7 406.5 405.1 397.3 392.2 386.5 377.4 367.5 360.9 359.2 355.7 350.1 347.2 358.3 368.4 376.2 383.8 390 393.6 396 397.2 397 395.5 392.3 390.5 389 386.8 382.7 386.5 397.6 405.3 413.7 423.1 427.1 424.7 420.5 415.7 410.5 404.6 399.4 394
524 499.1 478.1 459.1 446.5 435.6 424.4 412.2 405.5 400.2 411.6 427.4 442.6 462.6 481.8 500.4 517.4 532.4 550.9 564.1 572.9 575.3 567.8 565.3 566.5 566.3 555.4 545.9 540.1 525.2 521.4 517.1 511.1 507.5 505.4 500.1 496.8 491.6 485.8 477.4 466.2 455.3 442.9 430.6 417.6 422.6 431.4 440.1 455 468.1 481.1 494.4 510.8 518.8 521 522.4 517.7 512.3 499.1 486.4 475 463 453.9 453.9 457.2 458.7 466 480 498.9 507.5 516.8 514.4 509.3 504.2 496.3 487.4 484.7 480.6 476.8 471.5 465.7 459.9 451.2 446.9 445.2 448.1 450.5 445.5 438.4 429 421.6 416.5 410.7 402.6 393.5 385.7 378.3 372.3 366.8 363 351.1 349 349.4 361.6 365.5 369.9 377.5 384.1 388.7 393.1 396.1 397.5 396.1 392 389.6 385.4 383.2 380.2 375.7 369.4 365 358.2 351.7 342.6 331.2 323.3 333.2 336.5 337.6 337.8 336.3 336 335.7 335 333.9 330.9 327.4 325.2 323.6 321 317.1 313.7 309.4 305.6 294.7 295.9 302.4 307.8 312.7 318.3 327.5 339.2 351.3 364.2 379.1 390.4 400.9 407.1 411.4 412.8 412.8 410.4 401.7 395.5 387.4 377.6 369 363.8 360 354.8 349.2 351.9 355.5 365 378.1 389.2 392.1 398.1 402.3 405.1 404.3 401.9 399.9 398.5 398.3 396.8 397.4 397.5 402.7 412.1 422 427.2 427.7 426.6 422 417.1 411.2 406.1 402.1 397.4
518.9 496.6 477.2 459.2 446.2 438.6 428.9 417.9 408.5 409.2 423.8 437.6 461 477.6 493 507.5 523.7 538.6 556.4 570.6 581.6 586.6 575.5 568.8 577.4 570.1 554.9 549.3 538.9 529.4 526.1 522.8 521.6 516.4 509.6 504.9 503.5 499.7 494.9 486.5 477.6 467.2 456.3 444.1 433.4 422.1 412.7 416.7 434.6 451.6 464.2 481.9 502.6 515.1 516.7 520.1 515.8 510.9 499.3 488.8 474.7 459.4 452.2 449.7 451.5 453.7 458.9 472.5 490.8 505.3 512.5 509.8 505.5 502.4 494.7 489.6 486.3 482 477.5 472.9 469.4 464.2 457.6 454.3 453.9 457.6 461.2 458.6 451.1 441.9 435.5 426.4 420.8 411.4 403.5 394.8 385.5 376.1 369.7 365.3 361.9 356.2 347.2 346.6 358.6 361.3 366.4 373 376.9 378.8 381.4 382 381.6 379 377.1 375.8 376.3 372.8 367.9 365 361.2 357.8 351.5 343.3 337.5 326.8 322.9 329.4 331.3 332 332.3 330.6 329.3 328.9 327.8 323 321.1 320.7 318.8 316.5 312.9 310.3 308.2 297.5 295.3 297.7 305.2 310.2 313.9 321.6 331.2 342.2 354.4 367.7 382.2 393.8 403.8 411.4 415 417 418.2 413.5 406.6 397.6 388.3 377.3 370.3 365.7 362.3 355.2 352.6 355.8 355 361.5 372.9 385.3 391.9 400 406.2 408 408.4 406.4 405.6 406.5 406.7 406.9 407.4 407.9 411.9 420.7 428.3 431.8 430.2 426.8 422.5 417.9 412.4 409.8 404.4 399.9
514.6 494.1 476.2 459.7 448.2 440.5 431.3 422.6 410.6 422.5 436.6 456.1 477.2 492.8 507.3 517.8 527.8 544.3 563.1 577.7 583.9 588.5 574.1 568.3 576.2 564.6 554.4 547.7 539.2 535.3 531.5 532.5 526.2 520.3 515.4 510.2 509.8 509.1 502.7 496.8 488.6 478.9 469.2 457.2 447 435 418.8 403.8 415 435 449.9 470.8 494.1 509.3 512.4 516 514 508.5 497.9 484.9 469.9 456.4 452 445.3 446.4 448.6 452.6 465.2 485.1 499.5 505.3 502 502 499.2 492.5 489.1 486.7 482.6 478.6 473.8 472.4 471 464.8 462.5 465 467.8 467.4 467.3 461.5 453.3 443.2 439.2 430.8 423.7 411.5 402.9 391.7 380.5 369.9 363.6 360.5 358.2 355.8 345.4 346.2 353.3 358.8 363.5 366.8 369.5 372.5 371 369.8 369 366.7 367.5 368.4 365.6 362.4 360.2 357.8 354.6 350.4 345 339.3 333.6 321.8 318.6 319.8 326 327 326.5 325 323.5 322.1 319.5 317 315.9 314.3 312.1 310 307.5 301.3 297.2 296.6 302.9 307.7 312.2 316.3 324.8 334.6 344.4 357.2 371.4 384.8 396.3 406.7 414 418.5 421.1 422.1 417.2 410.5 400.4 389 380.8 373.6 367.6 361.5 359 357.6 356.9 357.1 360.3 366.1 377.5 391.2 398.9 406.1 408.4 409.6 410.4 411.1 412 412.6 415.3 416.4 417.6 422.9 430.9 435.6 434.8 429.9 426.2 422.2 418.2 413.7 410 407.1 404.3
515.5 496.1 477.4 461.1 450.9 440.1 435.9 423.8 429 436.1 449.6 473 492.2 506.9 519.4 527.5 536.6 551.5 570.8 581.4 584.1 581.4 569.6 563.6 566.6 557.8 551.7 544.6 539.2 535.8 536.4 529.3 532.6 523.3 521.7 518.6 519.6 514.9 509.6 507.1 499.5 489.3 479.6 469.9 459.5 448 425.7 402 401.9 419.2 438.8 461.5 486 502 507.1 509.7 509 505 495 486.7 465.4 454.7 449.1 444.8 442.8 445.4 447.7 458.2 477.2 488.4 494.2 495.4 497.8 495.1 491.4 489.2 487 483.2 479.4 476.8 476.5 477.2 475.9 474.8 476.8 478 477 474.4 472.3 464.3 453.8 445.8 439.4 430.4 420 406.8 393.2 382.8 372.4 366.5 360.2 354.5 355.4 347.8 342.9 342.2 352.8 356.9 358.7 362.1 365.1 363.5 361.4 359.8 358.7 358.7 358.7 358.8 357.7 357.2 355.4 352.7 348.9 344.8 340.8 336.1 328.9 319.9 316.3 320.1 322.5 322.4 321 319.6 317.3 315.6 313.2 311 308.7 305 303.3 299.6 299.4 297 304.5 308.6 310.2 313.3 319.6 328.3 338 347.6 359 374.5 388.1 398.9 407.7 414.9 421.3 424.8 423.8 418.7 411.1 398.9 391.9 383.3 376.3 368.4 366.5 367.1 367.4 367.7 366.4 361.6 365.2 372.2 381.5 392 401.1 408.1 410.5 412.6 414.7 415.8 419.9 423.7 425.7 428.2 433 437.4 439.5 436.4 431.6 426.5 422.1 418.4 414.6 412 409 405.1
518.2 497.2 478.7 464.2 454.4 448.3 440.5 432 439.6 446.7 468.8 490.1 506.7 519 530.7 537.4 547.9 561 577 582.3 584 575.8 564.8 556.3 563 552.8 546.9 540 535.6 534.6 531.9 524.4 526.9 524 526.3 526.4 525 522.4 519.3 513.7 507.7 498.3 489.7 480 464.8 453 434.5 409.6 390.1 402.3 424.3 449.4 471.2 492.4 500.8 504.9 504.5 499.7 492.3 482.4 462.3 452.6 448.6 444.9 440.2 440.2 443.6 453.6 471.8 482.8 488.4 491.8 495 493.8 490.3 490 487.6 486.4 483.7 482 481.8 480.7 482 483.9 487.3 488.8 485.8 479.8 478.1 472.4 465.5 458 449 434.1 422.7 408.6 399.3 388.1 377.1 370.8 364 356.3 352.6 351.2 343.7 340.6 348.2 352.7 353.6 355.5 357.7 357.8 355.7 353.3 351 350.7 351 351.6 352.2 353.1 351.9 349 345.9 341.9 339.4 336.3 330.1 319.4 316.5 314.7 317 317.7 316.5 315.5 312.7 311.6 309.4 306.4 302.3 301.5 299.7 298.7 298.5 299 301.8 308.9 311 316 323.5 331.7 341.1 351 361.3 376 390.5 401.7 410.6 417.8 423.5 427.3 424.3 419.6 411.8 398.9 393.1 385.9 377.2 374.7 380.1 380.1 380.6 378.1 374.9 369.2 365.3 369.1 375.2 387 397.6 407.4 411.1 414.1 419.8 424.6 428.2 432.1 435.4 437.9 439.5 441.2 441 437 432.2 427.3 422.2 418.3 414.1 410.1 407.8 403.6
524.5 504.4 483.5 473.2 464.4 452.7 448.3 447.3 449.6 468 488 505.2 519.6 530.6 540.3 549.1 559.1 568.1 577.3 579.1 576.1 566.3 559.1 550.6 551.4 545.8 537.2 533.9 528.7 521.3 522.6 518.8 520.9 523.6 525.5 525.5 524.3 529.1 523.8 520.8 511.7 503.1 495.8 488.4 476.2 455.8 436.8 416.3 396.7 388.6 411.7 435.6 460 484.6 497.5 502.7 500.6 495.6 488.1 477.8 461.1 450.6 447 443.4 439.4 437.2 441.9 451.2 470 478.2 483.8 487.4 491.2 492.3 490.3 490.4 487.9 488 485.9 485.4 485.3 483.5 485 487.5 491.6 488.2 486.4 485 484 479.3 473.3 466.5 449 435.2 424.5 413.5 403.5 392 381.3 375.2 368.1 360.7 357 353.7 347.1 338.3 341.7 347.9 349.1 350.1 349.7 350.2 348.9 346.7 344.3 344 344.6 345.5 346.5 345.7 344.6 341.5 339.5 337.6 336 332.8 329.1 324.4 319.1 313 311.6 311.7 312 310.9 310.4 307.8 305.2 303.7 302.5 301.6 299.5 299.5 303.3 303.8 303.4 307.4 311.9 318.1 327.3 336 345.1 354.6 364.8 380.4 392.7 404.4 413.7 421.1 425.5 430 425.4 420.7 412.3 400.9 395.3 390.4 380.4 388.2 392.2 394.8 389.9 385.8 380.8 375.4 370.6 369.4 378.9 385.1 395.8 405.1 410.3 417.7 423.8 427.9 432.2 436.4 439.9 440.8 441.8 441.6 439.8 435.9 431.3 426.8 422.6 418.1 413.7 409 405.5 401.5
529.4 511.1 495.7 483.4 474.8 466.7 459.3 463.3 475 490 503.7 515.8 527.7 539 550.4 558 565.6 573.3 576.9 575.4 566.1 558.8 547.8 543.2 541.5 533.7 528.5 529 522.4 517.7 511.9 513.7 517.9 520.6 521.7 522.6 522 522.5 526.3 522.8 512.9 506.6 498.1 491.4 483.1 463 440.2 419 400.3 383 397.3 424.7 449.6 474.8 491.1 500.4 501.6 497.3 483.5 473.6 460.4 449.5 445.2 441.7 438.1 434.8 439.4 448.2 463.5 474.8 479.5 480.8 484.9 488.6 490.4 490.1 488.1 488.5 488.4 487.4 487.1 485.3 483.2 485.2 486.7 488.2 489.5 489.6 488.9 486.8 478.4 468.7 453 442.4 428.6 417 405.8 395.3 386 378.7 373.1 364.2 359.9 355.9 351.2 343.9 337.1 335 338.8 341.3 341.5 341.1 338.9 338.9 336.9 337.2 338.4 339.5 339.8 338.3 337.4 336.9 335.2 333.1 331.6 329.6 325.9 323.9 320.6 316.8 312.3 310.8 308 308 308.2 306.1 304.4 303.4 302.6 301.7 299.3 305.7 309.7 310.5 309.4 307.4 312.9 320.5 330.2 339.7 351 361.5 370.4 383.5 394.8 406.6 417 423.7 428.2 431.5 427.4 422.3 413.7 404.7 397.7 394.4 390.4 397.9 405 405.5 398.7 392.8 388.2 384.1 380 375.9 375.3 385.2 392.5 402 410.7 418.4 425.1 430.1 434.5 438 439.5 441.1 441 440.1 438.1 434.3 430.6 426.7 422.5 418.3 414.1 409.9 404.9 401.5
541.4 526.6 512.1 499.8 491.3 483.4 485.4 489 497.5 507.6 518.2 527.5 535.8 545.3 555.6 566.2 568.2 575.2 575.9 570.9 557.7 546.6 538.1 535.1 532.4 528.5 521.7 516.6 513 512.6 506.8 510.5 514.5 515.7 515.9 517.3 518.1 519.5 521.6 521.2 516 508.1 500.8 494.7 486.7 467.6 442 420.6 400.2 382.8 384.6 406.2 436.9 465.1 483.9 497.5 503.6 496.9 483.4 471 459.2 447.3 443.4 440.1 436.7 432.7 439.6 445.6 459.3 469.4 470.5 471.8 476.2 482.7 486.3 486.5 487.7 490.2 491.5 489.8 488.8 486 482.9 479.8 479.8 483.2 487.3 488.1 487.6 485.1 479.4 467.8 455.9 445 434.1 421.6 410.9 401.7 392.5 383.2 376.5 370.4 364.2 359.1 355 350.8 345.7 334.9 333.5 333.2 331.2 329.6 328.4 327.6 327.2 327.6 331.3 332.3 332.2 330.7 331.4 331.6 330 328.5 326.5 323.3 321 320.5 319.6 317.3 314.7 312.2 309.1 308.2 306.6 304.9 303.4 302.7 301.8 303.9 307.6 311.6 314 315 314.9 308.1 313.3 320 332.3 342.3 353.4 364.7 377 388 398.5 408.9 418.5 425.9 429.6 432.4 429 424.7 413.6 405.5 400.4 395.9 399.8 407.9 409.9 409.6 406.9 401.4 398.5 395.6 391.9 387.3 378.4 384 393.7 401.4 409.4 418.6 425.8 431.1 436 439.6 440 439.6 438.4 437.4 436.4 433.5 430.3 426.8 423.1 419.4 417.5 413.4 408.2 403.4
551.6 541.7 530.2 521.5 515.4 512.1 511.7 513.9 516.5 520.9 529 536.1 543.8 552 559.1 570.3 576.5 580 575.5 568.5 557.4 542.5 535.9 530.9 528.8 528.6 522.9 513.6 508.7 505.8 502.5 505.8 507.5 509.9 512.5 513.8 516.1 517.5 516.9 521.4 514.3 512 506.4 499.5 490.2 473.2 442.3 417.2 398.5 382.4 372.2 393.6 424.8 452.4 478 494.8 500.4 495.2 485.8 471.7 457.4 446.3 442.4 438.7 435.1 430.8 437.2 443.4 453 462.2 463.7 464.6 469.1 474.3 479.3 482.8 486.4 492 493.7 493 491.3 487.8 482.6 476.2 473.1 476.4 479 481.2 480.5 480 475.3 468.9 458.9 447.3 435.3 424.9 414.1 405.8 395.5 390.1 384.2 378.8 372.2 365.7 360.7 356.3 351.3 349.8 346.1 342.6 341.5 342.1 333.7 327.6 326.6 325.5 324.9 321.5 321.4 319.9 325 322 320.5 320.7 319.6 317.2 316.8 316.7 316.6 314.8 312.9 311 308.6 306.6 305.1 303.9 303.4 305.8 311.5 313.1 313.4 315.6 318.1 319 320.1 316.9 314.5 321.6 330.9 343.4 354.6 366.5 380.3 390.3 398.8 409.2 419.7 425.4 429.2 433.1 429.7 425.9 415.5 406.5 401.5 400.5 408.5 415.5 416.6 415.2 412.4 410.7 407.4 402.6 397.9 395 389.1 385.5 395.3 403.5 412.3 421.6 427.7 432.5 437.2 441.1 440.9 437.5 435.5 434.6 433.7 432.7 429.9 426.7 424.8 422.9 422.4 418.2 413.2 408.1
564.4 552.2 544.8 537.8 532.8 530.4 530 530.5 534.1 537.5 540.1 544.7 551.2 556.3 563.6 567.3 571.3 580 577.2 569.2 560.1 547.5 537.5 531.9 530.1 525.8 520.9 515.3 510.6 502.3 497.7 500.1 502.8 506.6 507.3 509.8 513.6 513.3 514.5 518 514.4 512.1 509 501.1 490.9 473.6 440.1 416.6 396.6 379.5 367.1 384.4 413.7 444.8 471.4 491.3 498.1 496.5 486.2 473.4 458.8 446.5 441.3 437.6 433.9 429.8 433.4 438.1 447.4 454.8 457.2 458.5 462.8 468 472.5 478.5 483 491.1 496 496.9 494.2 489.5 484.1 475.6 469.2 470.6 472 472.6 473 472 471.7 466.2 458.7 448 438.1 430.1 417.6 407.7 399.8 395.2 391.5 386.5 380.4 373.6 366.8 361.7 357.2 354 350.4 351 348.7 344.9 342.2 339.3 330.1 324.3 324.4 323.1 322.7 319.8 318.1 318 317.1 316.2 315.1 314 313 313 313.5 313.6 311.7 309.8 307.6 305.9 305.9 305.9 310.6 315.5 316.3 316.8 318.7 321 322.6 323.4 324.6 324.9 321.9 326.4 328.5 340.8 352.9 365.7 380.1 392.1 401.6 412.1 420.7 426.4 430.6 433.6 430.8 426.1 417.1 409 404.6 409.4 415.8 421.6 422.7 422.9 421.4 417.2 411.4 406.4 401.7 397.9 391.8 390.7 399.1 408.4 417.7 424.9 430.2 434.5 439.2 441.2 438.2 435.8 432.8 431.4 430.4 429.2 428.6 427.9 426 424.5 423.6 422.8 417.5 411.6
583.5 568.7 558.8 551.1 546.9 547.1 546.5 547.2 550.8 552.2 554.1 555.3 557.3 561 565.9 564.7 567.4 572.9 573.9 572.7 562.6 550.1 539.5 534.5 531.8 528.8 517.8 503.2 502.6 496.2 494.5 496.4 497.8 502.5 503.3 506.4 508 510.1 511.6 512.5 514.8 513.5 508.2 501.1 490 464.6 438.4 417.3 397.1 378.3 360.4 378 404.8 441.1 468.7 488.4 499.1 498.5 487 473.8 458.5 445.5 440.2 436.4 432.5 427.3 430.1 434.9 439.6 447.3 450.9 452.9 456 461.4 465.3 472.2 478.7 488 495.1 496.8 495.8 491.3 485 474.8 460.4 462.4 464.6 465.1 465.4 468.6 468.4 465.2 460.2 452.2 445.5 433 422.3 413.5 407.7 402.4 399.3 394.2 388.3 381.1 374 368.3 363.6 362.2 360.2 358.4 353.8 349.1 346.1 343.1 340.9 337.2 332.9 326.9 323.2 320.9 320.4 318.6 317.8 316.5 314.9 313.4 312.5 311.8 311.3 312.1 310.5 308.5 306.6 313.5 316.1 317.1 319.6 320.1 320.7 322.6 325.8 327.5 327 328.9 330.5 332.4 329 324.4 339.3 337.5 348.7 361.4 375.2 391 404.8 414 421.6 428.4 434.2 434.3 433.2 426.2 418.1 413 412.2 415.5 422.4 426.3 426.9 427 426.5 421.4 414.3 409.9 403.5 400.7 388 396.7 405.8 414.8 421.6 427.8 432.7 437.8 440.6 439.2 434.8 430.8 429.6 428.5 425.4 425 424.5 426 426.6 425.3 423.8 421.5 417.9 414.2
610.8 593.9 577 568.9 565 562.9 559.6 561.5 563.8 563.1 563.7 564.6 564.8 565.6 561.3 556.7 556.7 560.9 565 560.5 558.1 551.1 541.8 535.1 530.6 526.3 518.6 508.8 496.5 490.8 488.1 488.8 489.8 496.7 501.8 503.2 504.6 508.3 508.5 510.3 511.1 513.5 506.1 498.7 486 461.5 432.2 413 394.6 378.8 362.7 372.8 400.7 435.1 465.5 486.3 496.4 496.3 487.3 474 458.4 443.8 438.2 434.9 429.6 424.6 427.4 431.6 435.7 440.4 445 446.9 448.7 452.3 456.5 464.3 473.5 484.7 491.5 495.5 494.7 492 486.7 476.6 462.7 449.4 454.7 455.7 456.9 462.6 468.2 468.2 464.3 460.8 450 436.8 428.3 422.2 416.6 415.1 408.2 401.2 395.3 388.5 381.3 375.7 373.4 371.7 367.1 363.7 359.5 356.2 353.3 350.2 346.5 341.3 337 332.8 327.9 322.6 320.2 317.7 316.8 316.5 315.5 314.3 313.5 312.3 311 310.3 309.3 307.6 316.6 318.4 319.6 321.6 323.7 324.9 327 329.1 331.4 332.6 334.1 336.2 337.9 339.6 340.3 335.5 334.2 342.5 343.7 354.6 367.7 386.5 399.7 409.2 418.7 427.9 433.8 435.3 433.6 427.5 421.6 418.6 417.8 419.8 425.6 430.1 430.5 425.6 425.7 421.4 414.6 408 402.5 397.6 393 403.1 411.5 418.8 425.4 431.6 434.8 439.2 438 436.9 432.2 427.6 424.3 422.8 419.7 416.9 417.6 418.7 422.9 423.3 422.6 419.4 415.5 412.5
626.9 611.8 594.7 582.8 575.5 574.7 570.3 569.6 570.3 568.9 567.8 570.4 565.5 555.6 552.1 547.7 544.5 547.4 562.1 558.9 553.7 548.1 540.3 534.5 529.9 523.9 514.7 502.8 492.2 485.2 481.3 482.5 484.4 490.3 497.3 499.7 501 501.4 504.7 505.2 508.9 508 506.5 495.5 478.9 455.2 428.2 407.9 390.6 374.7 359.9 363.4 393.2 427.7 461.7 481.5 492 493.8 488.2 474.9 459.1 444.1 436.2 432.8 428.1 422.9 425.9 429.9 430.3 433 438.1 439.8 442.5 445.3 447.7 453.1 463.7 477 487.7 496.2 496.2 493.6 487.8 480.3 463.6 449.5 439.4 446.8 449 455.5 463.9 467 465.5 463.3 453 444.3 437.9 433.1 428.6 422.1 415.6 409.1 402.4 395 389.4 384.2 380.6 378.1 375.6 370.8 366.9 363.6 360.7 356.5 351.8 346.1 340.4 335.4 329.8 325.8 322.9 319.3 317.2 316.3 315.2 314.3 313.1 311.8 311 309.2 307.9 316.9 319.9 321.8 324.9 326.7 328.9 331.6 333.8 335.8 337.6 339.8 342.1 344.4 345.7 347.1 349.3 348.2 338.7 340.6 350.3 351.8 362.2 377.9 392.7 403.1 412.6 422.9 430.8 435.9 433 428.6 425.2 424.8 423.6 425.2 428.2 428.5 428.6 424.1 421.1 414.9 410.4 404.7 395.8 392.1 400 406.6 415.4 423.1 429.2 435.2 437.6 438.9 437 434.6 430.5 426.5 421 415 410 408.2 409.5 411.7 417.4 417.1 416.5 415.8 411.5 408.9
632.9 615.6 600 589.7 580.2 579.2 574.2 573.4 571.3 569.6 567.6 564.4 558.3 549.1 540.8 535.1 531.2 533.5 545.4 552.9 550.2 543.5 536.5 534.5 530.1 519.5 510 500.5 490.1 483.8 478.7 478.3 483.4 487 491.5 493.5 494.9 495.9 499.5 498.1 504.3 505.3 503 491.5 472.2 446.9 419.3 400.5 383.4 368.5 354.5 356.1 387.8 422 454.8 474.9 483.8 489 485 473.2 459.4 445.1 435.2 430.7 425.8 421.1 424.2 426.4 427.4 427.8 429.9 432.6 436.3 439.2 443.4 446.7 454.3 470.2 483.1 493.4 496.4 494.8 489.8 482 468.5 450.3 437.7 434.5 439.9 445.5 454.3 459.2 461.3 463.8 458.9 453.7 448.4 442.8 436.6 427.9 421.9 414.9 407.4 402.2 396.6 391.2 387.8 388.6 387.2 380.5 377.1 372 367.8 363.8 357.1 349.4 341.3 337 331.6 326.3 325.2 321.9 316.6 315.8 314.8 313.7 312.2 311.3 311 309.2 317.2 320.9 324.4 327 330.2 333.2 335.9 338.6 341.1 343.2 345.4 348.2 350.8 353.8 355.5 357.5 358.8 359.3 354.3 346.4 337.1 354.5 361.2 372.7 386.9 397.9 407.5 416.9 427.4 436.2 433.9 429.7 425.8 426.2 427.3 427.2 425.5 422.3 420.1 418.1 414.3 411.1 404.2 403.1 403.2 397.7 403.5 410.4 419.4 427.3 433.7 437.4 438.9 439.6 438.2 435.4 431.2 425.9 420.9 415.4 408.1 403.8 403 405.8 409.3 409.8 409.9 408.7 406.7 405.2
633.3 612 596.7 581.6 575.9 573.5 571.3 570.1 567.6 560.8 556.5 550.4 547.3 542.5 529.1 525.6 520.3 522.8 533.2 538.2 539 537.3 533.6 531.1 526.4 517.1 509.8 501.1 492.4 487.2 478.4 472.1 474.4 479.1 485.3 488.3 490.8 492 495.6 493.4 494.1 496.9 496.8 485.7 462.7 437.2 410 391.6 376.3 362.1 348.1 358.2 381.3 414.6 447 468.7 478.5 482.7 480.6 470.9 458.1 444.7 434.3 429.2 425.8 419.4 421 423 424.3 424.8 424.5 425.2 429.7 433.5 437.8 438.8 445.4 461.2 477.2 490.3 497.1 496.2 491 484.6 472.1 451.3 436.6 424.8 430.7 436.5 444.3 454.2 461.3 464.8 462.9 458.2 450.4 441.2 437.3 431.1 426 420.7 413.4 407.7 402.3 399.3 398.4 398.5 396.9 391.8 386 381 376.3 369.4 361.7 355.2 345.3 339.1 333.1 327.2 324.5 320.6 316.3 315.5 314.6 313.4 311.5 310.4 313.4 318.9 323.1 327 330 332.9 336.7 340.3 342.9 345.6 348.1 352 355.8 359.2 362.5 365.9 368.1 370.8 371.9 369.4 365.2 355 349.5 352.9 363.2 372.9 383.2 395.3 405 413 425.8 433.8 434.5 430.9 426.8 427.5 428.9 426.1 421 417.2 415.4 413.6 411.9 408.5 406.4 407.1 406.5 403.8 406.2 413.5 422.9 430.5 434.2 437.9 440.2 440.5 439.4 436.4 431.6 425.3 420.1 415.9 410 403.3 399.3 399 401.6 403.7 403.1 402 401.8 400.3
628.8 607.5 587.3 573 565.3 566.4 565.9 561.9 557.1 552.1 543.2 537.7 535.9 530.5 522.4 516.2 513 515.1 524.4 525.3 527.9 528.3 527.7 526.8 521.5 515.4 512.5 502.8 494.4 488.8 478.7 472.1 465 471.8 479.6 480.5 481.5 483.3 485.9 482.5 485.3 484.3 488.8 477.2 453.8 426.2 399.6 378.9 368.6 356.2 345.1 353 375.7 405.8 436.3 460.4 471.9 476.9 475 467.8 457.9 444.1 434 430 426.1 421.6 417.4 418.9 419.6 420.6 421.6 420.9 423.9 427.6 431.2 432.2 438.8 453.3 470 487.4 496.5 497.4 492.5 484.1 469.4 452.1 435.5 421.5 423.7 428.9 436.1 449.5 460.1 464.6 462.6 455.7 447.8 440.8 435.8 432.1 427.6 424 419.7 414.6 408.8 407.3 406.6 405.6 405.3 401.6 395.9 388.2 381 374.1 365.7 356.3 348 340.7 334.4 332 327.9 319.9 316.2 315.6 314.5 313.6 312 316.3 320 324.8 329.1 333.1 335.9 339 343 346.9 350.4 353 356.9 360.7 364.7 369.8 373.9 377.9 381.5 386.2 386.4 384.1 381.5 370.6 360.6 352.1 360.1 370.5 380.9 391.4 400.4 409.9 424.6 430.4 432.6 431.2 427.5 428.2 428.5 425.7 420.6 416.7 414.8 413 412.2 410.7 409.6 410.8 409.6 408.9 408.7 414.4 423.4 430.3 433.5 438.4 440.7 441.6 439.5 436.6 431.7 425.4 419.7 415.4 411 405.2 399.4 393.9 394.2 393.4 395.3 395.1 395.5 394.8
623.9 602 575.2 565.2 558.8 560.2 559.2 553 548.8 543.4 536.4 532.8 529.6 524 517.6 514.2 511.3 510.9 512.7 515.9 518.5 519.9 521.6 523.1 519.3 515 510.6 504.2 497.2 489.2 478.4 470.3 461.2 458.4 466.5 469.2 470.8 473.7 471.5 470.4 471.1 473.1 470.5 464.3 442.1 415.4 389.7 370.2 359.3 349.4 341.8 348.4 370.1 395.4 424.9 448.7 462.7 469.1 467.6 462 456 442.6 433.3 429.5 426.3 423.7 420.7 415.2 414.2 415.3 417 419 420.3 421.7 424.5 426.4 430.9 445.4 463.5 483.3 495.8 498.5 491.9 480.4 462 444.5 428.2 420.1 418 423 429.9 443.8 456.5 462.2 461.5 452.5 444.5 436.2 431.5 428.9 428.5 428.3 424.8 421.2 418.8 416.8 418.2 416.6 412.4 407.8 403.4 396.5 386.4 377.5 367.8 357.9 347.4 342.4 338.2 333.8 326.2 319.4 316.9 315.7 314.1 312.7 315.2 321.1 325.7 330.2 334.7 338.7 342 345 348.9 352.4 355.6 359.9 366.6 370.7 374.6 378.7 384.7 390.3 395.2 398.8 399 397.2 393.2 384.6 373.4 362.2 352.1 367.4 375 387.5 398.4 408.3 420.4 427.7 430.3 429.9 428.7 428.7 428.2 425 421.7 417.8 415.7 414.9 414.6 414.3 414 415.6 415.6 413.5 413.6 416.3 421.6 426.5 431.8 437.2 438.9 439 438.1 435.7 430.1 424.8 419.5 414.2 409.1 404.5 399.5 394.5 389.8 388.4 387.6 388.5 389.1 388.4
616.6 597.8 569.5 561.6 554.1 552.3 550.8 546 542.4 537.9 534 527.3 520.8 517.7 514.5 512.9 510.5 509.4 508.9 510.8 512.4 514.8 516.9 520.4 518.1 514.1 510 502.7 496.5 487.3 478.6 468.2 459.1 443.1 454.6 455.1 459 460.2 456.5 447.4 449.6 449.8 449.4 445.5 428.1 403.6 380.6 363.1 352.9 344.8 340 345.8 366.5 388.7 413.9 436.3 453.6 459.6 460.4 457.1 450.7 439.5 432.5 429.2 426.5 425.4 423.9 421.7 416.8 409.9 410 414 416.9 417.3 419.9 421.7 423.9 438.8 456.1 477.1 491.3 494.9 489.1 474.9 455 434.9 424.5 416.8 413.2 417.2 423.6 438.3 451 457.3 455.4 447.7 440.6 434.1 429.3 424.8 424 424 424.3 425.3 424.9 427.7 428.6 426.8 424.2 419.5 412 402.6 390.1 380.4 369.4 358.8 348.4 343.6 339.4 332.1 324.9 318.8 316.3 315 313.9 315.7 319.6 325.3 329.6 334 338.5 342.9 346.9 350.4 354.4 358 361.1 368.7 375.6 381.9 386.4 391.4 399.9 404.7 408.4 408.6 407.6 407.3 402.8 395.3 383.8 372.5 361.5 363.6 373.4 381.3 396.8 407.8 417.4 425.4 427.8 429.4 428.4 429.2 428.1 425.3 422.1 418.9 418.7 418.5 418 418.1 418.8 421.6 421.3 420.3 418.3 418.4 420.1 423.7 429.1 432.4 435.1 435.1 434.2 432.6 427.6 422.9 417.9 412.9 408.1 402.9 398.2 393.9 390.3 383.2 382.7 382.6 382.7 383.1
606.4 583.9 570.1 559.6 552 550.5 546.9 542.5 540.5 537.7 535.6 529.4 526.2 523.2 519.3 516.2 512.9 510.6 508.4 507.3 509.1 509.6 512.4 514 513.4 512.3 508.2 501.7 492.8 485.3 477.3 466.9 456.9 439.1 423.8 435 442.3 443.5 429.7 425.8 430.5 431.1 428.2 422 410.4 391.7 370.1 354.6 348.9 342 336.3 343.9 361.6 382.2 404.6 422.5 440.8 451.1 452.4 450.2 444.6 436 432.4 428.9 429 428 426.4 425 422.8 418.1 408.2 405.9 409.8 414 417.3 417.6 418.8 432.6 449.8 469.4 480.7 483.3 479.7 467.1 449.4 434 421.9 411.5 409.7 411.6 418.1 432.4 445.8 450.5 449.2 444 435.6 428.2 423.8 420.8 420.4 420.1 421.2 423.1 427.4 432.5 435.4 435.2 431.5 425.1 415.8 406 393.1 381.4 369.8 357.4 351.5 345 336.8 329.9 322 318.7 315.5 314.7 314.7 319.4 324 328.8 333.3 337.7 342 346.1 350.4 354.7 358.6 362.7 369.4 377.4 384.8 392.5 401.4 408.4 413 417.7 419.5 417.5 415.7 412.1 406.4 398.1 389.6 378.9 373.4 378.4 386.1 392.3 395 406.6 414 420.2 424.7 427.2 428.8 430.2 428.4 427.7 424 422.2 422.3 422.7 423.8 424.8 426.4 430.4 429.5 428 424.9 422.1 422.7 425.6 427 427 429 429 428 427.4 423.4 420.1 417.4 411.6 404.9 400 396.1 391.9 388 385.6 382.3 379 378.8 379
604.2 585.4 573.1 558.7 551.3 548.4 546.5 544.6 543.5 540.8 536.3 533 531.3 527.2 524.6 520.6 517.8 514.9 511.4 506.2 506.6 506.4 506.6 507.6 506.9 507.5 503.9 496.2 488.7 482.5 474.2 464.9 450.2 436 407.4 412 413.9 411.6 404.3 403.4 406.7 410.5 404.7 399.9 386.7 368.5 357.5 347.2 341.8 337.7 333.5 344.5 357.4 376.4 396.9 414.5 431 441.9 443.9 442.7 437.2 433.1 431.4 429.4 430.2 430.7 429.3 428.4 425.3 421.6 415.8 407.1 399 407.1 412.7 411.3 417.3 424.6 442.5 459 469.7 471.8 468.4 460.3 447.8 429.8 419.1 407.5 408.8 410 413.8 426.5 440.5 445.6 445.9 440.8 430.4 423.6 419.3 416.9 416.5 416.7 419.8 423.2 427.8 435.3 440.1 441 435 427.1 419.1 407.9 395 381.3 368.9 357.7 352.1 340.4 332.5 325.1 319 317.7 316.5 316.6 317.4 320.3 327 331.5 335.9 339.9 344 348.1 352.4 357.2 363.8 370.2 375.3 385.4 394.2 404.7 414.2 421.4 425.8 428.3 427.8 424.8 419.1 414.6 405.3 397.7 390.2 380 383.5 387.5 392.4 397.8 396.9 396.5 409.5 420.4 425.6 428.4 430.9 432.3 430.2 429.8 428.2 427.7 429.6 430.5 432.8 434.6 434.8 438.1 437.8 434 430.1 427.1 426.5 426.7 425.6 423.2 422.4 422.4 421.7 421 418.1 414 411.8 406.2 401.8 395.9 393.8 389.6 385.7 384 380.8 376.9 375 375.4
609.3 594.7 578.2 563.5 555 550 547.4 547.6 544.4 543.6 540.6 537.6 535.2 532.1 529.6 527.2 522.6 518.2 514 509.3 500.7 501.1 502.9 501.8 500.2 498.3 494 487.4 480.1 476.4 468.2 458.7 442.5 426.9 408.3 390.3 391 391.1 390.1 385.9 382.8 386.5 392.2 379.7 363 349.8 344.7 339.7 336.3 333.1 333.4 343.4 354.7 372.8 393 409.8 423.4 432.5 437.5 435.4 431.1 430.2 429.1 429.9 431.1 432.2 432.9 432.1 427.8 423.3 418.2 412.5 404 392.5 405 410.3 415 419.6 435.3 448.4 457.6 460.6 457.9 451.7 440.3 428.6 414.1 405.6 406.3 409.6 410.5 421.5 434.1 440.3 440.3 436.4 428.7 419.7 415.5 412.9 411.9 414.5 420 425.3 431.4 438 437.9 436.4 432.8 426.5 418.8 406.5 393.6 380.9 367.6 355.5 346.7 335.2 328.3 320.5 317.7 317.7 317.7 316.9 321.1 320.8 328.7 333 337.2 341.1 345.1 349.2 354.3 360.3 366.8 374.5 382.3 393.9 403.5 415.2 424.3 432.6 435.7 436.9 434.3 431.6 424 413.4 403.9 396.4 390.1 386.6 391.5 395.5 400 403.3 405.7 407.7 405.9 415.6 426.4 430.6 432.9 435.1 436 436.9 434.8 435.1 436.3 437.6 439.3 440.9 441.5 443.1 443.1 439.3 435 432.2 431.7 429.2 425.9 422.8 418.3 415.4 415.2 415.1 412.3 407.9 403.7 401.7 395 391.4 390.2 385 383.3 382.3 379.8 375.1 374.1 372.7
620 610 594.1 571.7 559.5 553.2 550.1 548.3 547 546.4 545 542.6 540.9 537.3 534.9 532.9 528.4 522.3 517.7 511.1 505.1 500 494.7 497.2 494.8 491.4 486.9 480.7 474.9 469.1 461.3 444.9 429.1 410.4 411.9 405 388.9 373.5 369.6 375.2 381.8 371.7 369 359.4 356.6 360.7 350.7 340.1 333.6 331.1 333.7 343.1 353.9 372 388.8 403.1 416.3 424.9 428.7 428.5 428.5 427.9 426.9 430.4 432.4 434.5 435.5 436.2 432.3 425.7 419.9 413 405.9 395.8 396.8 405 409 413.5 427.5 439.5 446 449.4 447.8 443.4 430.9 423.2 411.3 399 396.6 404 407.9 417.3 427.9 434.7 436 434 427.7 417.2 412.8 408.7 409.1 413.8 420.2 427.6 436.3 434.7 432 429.7 427.3 421.9 413.5 401.9 391.2 378.3 364.3 351.8 341.3 331 322.3 317.7 317.7 317.7 317.5 320.3 324.1 324.6 328.1 334.5 338.4 342.3 346.3 350.4 356.9 362.6 370.1 378.4 388.1 399.9 411.4 422.9 434.2 440 443.8 444.8 443.6 434.7 425.9 413 402.8 396.8 389.8 393.4 398.2 402.9 407.6 409.6 411.5 413.8 416.7 420.7 427.9 433.4 437.5 440.8 441.9 442.2 440.8 438.8 440.1 441.3 442.3 444.2 446.3 447.3 446 442.4 438.8 438.3 437.1 432.7 427.2 422.5 415.8 411 408.8 407.9 404.1 399.1 392.6 392.5 389.8 387.3 386 382.9 380.4 380.1 378.7 376.5 375.9 374.2
636.2 624.2 611.2 588.3 569.5 561.4 557 553.1 552 553 550.5 548.5 546 543.3 540.8 537.7 533.5 526.5 519.7 514.3 508.2 502.6 497.7 488 489.7 488.6 482.1 475.3 467.3 459.6 448.2 451.2 449.8 441.5 434.3 422.5 406.4 393.6 382.7 366.6 355.3 359.2 357.5 361.5 356.5 353.5 348.6 339.4 331.6 326.3 332.3 341.5 351.7 370.5 386.4 401 412 418.7 419.7 420.7 422.5 424.4 425 429 433.2 436.3 438.7 441.2 440.5 432.8 423 414.1 406.4 399.5 392.1 400.9 407 409.3 417.8 430.9 436.6 439.5 438.2 434 424.5 414.2 404.3 398 391.7 395.8 402.3 413.1 423.7 431.2 431.8 429.2 422.9 414 409.9 405.8 406.9 412.6 419.3 428.9 432.7 429.5 426.3 423.2 421 414.9 407.8 395.9 387.9 372.6 360 347.5 338.3 326 317.7 317.7 317.7 318 318.5 321.3 325.3 328.8 330.5 332 336.8 343.9 347.9 352.5 358.8 365.7 374.3 382.7 394 405.8 419.2 431.3 438.2 444.7 450.5 451.5 450.3 443 427.9 411.9 402.8 397.3 394.8 398.5 402.9 407.7 413.6 416.4 418.8 421.4 425 427.8 431.4 437.5 443.5 446.3 446.2 444.9 444.8 445.1 444.4 443.1 442.3 444.3 446.8 449.4 448.8 447.3 443.6 442.5 438 432.8 427.6 420.5 414.3 407.9 402.7 400.1 393.9 387.2 386.9 386.7 386 384 382.8 380.8 379.9 380.4 380.8 379.9 378.9 378.2
654.5 641.5 628.5 608.3 588.1 573.2 566.2 562.2 559.9 559.2 557.6 556.1 552.9 551.8 547.4 542.8 537.3 530.9 523.6 515.2 509.3 504.4 500 496.6 490.1 483.6 472.7 470 465.1 465.4 467.3 465.7 466 464.4 458.5 444.6 426.4 412.1 397.5 388.9 375.8 364.9 346.6 334.9 346.9 349.4 346.2 340.3 331.8 324.4 330.8 338.9 349.5 366.5 384.7 398 407.4 412.4 415 417.1 418.9 421.4 425.1 429.8 434.9 439.8 443.7 445.7 445.3 439.8 426.3 414.7 407 402.6 388.8 396.1 403.6 407.7 417 423.7 426.4 428.3 427.3 422.9 414.5 407.5 403.3 395.4 386.3 391.2 392.4 405.8 419.5 424.9 425 422.3 417.3 409.3 406 402.9 405.2 412 418.6 426.8 428.5 425.1 421.7 418.5 414.5 409 402.4 390 381.6 368.2 356.8 345.2 332.9 320.2 317.7 317.7 317.8 318.3 319.5 322.2 326 329.6 333.2 335.8 338.3 344.3 349.7 354.8 361 368.7 377.7 386.4 397.3 409.5 424.6 434.9 443.4 451.3 456.9 459.9 457.1 447.6 428.2 410.8 403.5 398.7 398.6 402.3 407.3 412.8 421 423.5 426 427.6 430.3 433.4 436.1 442.1 448.2 450.5 449.1 446.8 445.6 444.7 443 441.8 441.3 442.7 447.3 449.8 450.9 450.5 447.4 443.2 438 432.8 426.9 420.7 414.9 408.8 401.5 394.5 389.5 386.3 385.5 384.8 383.9 382.5 382.2 382.6 383.4 384.2 384.1 383.4 382.9 382.3
669.2 658.6 646 628 606.1 590.5 579.1 572.7 570.4 569.6 566.1 565.8 563 561.6 556.1 551.9 541.5 537 529.4 517 510.6 505.5 502.3 498.5 496.7 492.6 488 484.3 480.3 477.4 478 481.3 484.7 486.7 481.9 468 448.7 428.7 417.2 404.5 393.9 377.6 356.8 339.9 329.5 342.2 342.1 338 330.6 321.5 330.6 340.1 350.3 365.1 382.9 395.9 404.3 408.8 411.9 414 417.8 421.6 427.2 432.3 437.6 440.5 444.5 448.1 444 437.7 427.9 415.2 410.8 405.2 394.5 388.7 398.8 403.6 411.9 417.7 419.8 418.8 415.6 412.4 408.7 404 397.8 391 376.9 385.2 389.7 397 411.9 418.2 417.9 415.1 410.9 405.1 402.4 399.4 403.4 410.7 417 425.9 424.2 419.5 415.9 412.5 407.4 402.1 395.4 384.3 376.1 366.7 353 340.7 325.2 317.7 317.7 317.7 318 318.5 321.7 323.8 325.4 330.9 334.4 338.2 342.4 346.1 348.4 355.6 361.9 370.6 379 387.7 399.7 413.1 426.2 437.5 448.3 457.4 462.7 463.7 462.2 451.3 431.4 413.1 405.8 401.4 401.5 405.9 411.8 420 428.2 430.6 432.4 434 435.3 437.2 440.6 446.8 452.6 452.3 448.7 447.1 446.1 444.7 441.9 440.7 440.1 441 445.7 450.5 451.5 450.4 447 442.7 437.7 432.2 427 420.8 415 409.2 402.4 395.3 390.6 385.6 384.1 383.4 383.3 384.2 386.1 387.3 388 388.5 388 387.5 387 386.4
679.5 671.6 660.7 643.9 625.5 607.4 594.9 589.1 584.1 581.8 577.8 574.1 568.6 564.9 561.8 555.7 546.4 538.6 532.3 519.4 512.6 507.1 503.2 501.2 500.4 497.7 495.3 493.2 489.3 487.6 492.1 499.2 501.5 505.2 497.3 480.8 457.7 443.8 434.5 421.2 406.1 386.1 361.2 339 324.3 336.8 337.4 332.9 328 319.5 330.9 339.5 350.7 365.6 381.2 395.3 403.6 407 409.2 413 419.1 425.5 431.1 435.2 437.9 438.7 442.1 444.9 443.9 436.9 428.4 416.3 410.4 404.3 399.6 383.6 394.2 400.7 408.4 412.1 413.7 413.5 411.7 407.6 402.8 397.3 391.9 386.2 376.1 380.1 384.2 395.1 401.2 410.8 411.7 409.2 407.4 402.6 399.3 394.9 399.1 407.2 415 425.9 421.6 416 408.3 404.2 399 394.9 389.2 380 373.7 360.8 348.9 332.4 320.7 317.7 317.7 317.7 318.1 319.8 323.9 327.5 329.4 328.5 336.4 340.4 344.5 348.7 353.5 359.6 366.3 372.1 376.1 385.1 398.1 411.6 426.5 437.2 451.8 461.3 464.8 466.8 465.3 453.1 433.3 416.5 408.2 404.9 404.4 408.6 416.7 424.9 433.1 437 439.2 440.1 440.9 440.8 443.9 448.6 452.7 451.3 447.1 444.4 441.9 441 440.6 439.2 438.2 439 443 448.3 450.7 450 445 441.6 437.3 431.5 426.1 420.8 415 409.5 403 398.4 394.6 389.1 386.3 386.1 386.9 389 390.7 392 392.6 392.5 392 391.3 390.9 390.1
687.2 677.2 668.3 654.4 639.2 622 612 602.2 594.4 587.9 583.4 580.4 575 564.1 561.9 556 549.1 536.8 530.5 521.2 514.8 509.6 507.6 504.9 503.4 507 508.6 508.5 505.4 504.3 510.8 518 519.2 514.8 501.3 487.2 462.9 453.7 449.6 429 414.7 386.9 364.1 342.9 326.5 324.6 332 327.8 321.1 321.9 331.1 339.9 351.9 366.1 380.4 395.3 405.1 408.3 409.1 412 421.9 429.6 435.1 439 438.9 436.6 437.4 440 442.1 436.3 428.7 418.8 409.2 402.2 397.1 385.3 387.5 397.8 403.1 406.7 408.1 406.9 405 401.1 395.6 390.1 387.2 382.6 371.8 372.7 379.9 388.2 396.3 400.6 406 406.8 405 399.5 394.1 391.2 396.2 403.9 412.3 421.9 419.7 413.6 404.3 397.2 391.7 387.8 384 376.2 366.4 353.8 344.2 327.6 318.7 317.7 317.7 317.8 319.4 323.1 327.5 330.6 333.6 335.9 337.4 343.3 347.9 352.7 358.2 364.8 371.2 377.5 385.6 393 400 409.8 425.9 439.3 454.6 464.4 466.2 467.1 466.3 457.4 437.2 419.9 412.1 407.6 407.9 411.9 419.8 427.7 435.9 440.7 443.9 444.1 444.1 443.9 445.5 447.4 451.3 447.1 442.4 437.6 434.8 435.4 435 434.1 432.9 435.7 439.7 444.3 448.3 448.2 443.9 441 435.5 430.6 425.2 420.3 414.5 409 405.5 401.6 398 393.3 392.9 392.9 393 393.8 395.2 396.1 396.1 395.8 395.2 394.8 392.9 391.3
685.1 677.1 666.8 655.7 641.7 626.8 621.3 612.2 601.5 593.5 587.1 582.5 572.8 562.9 556.3 552.5 545.8 537.2 529.3 524.2 516.7 513.7 511.1 508.9 508.2 509.8 517.5 518.3 517.3 523.8 531.5 527.9 520.7 513.1 503.4 485.3 463.3 463.4 453.3 434.2 410 383.5 364.9 346.6 329.9 318 323 319.3 314.2 325 330.6 339.5 351.8 365.9 379.7 393.6 403.6 407.8 408.3 411.6 420.9 428.6 433.7 437.4 436.4 433.2 434.9 435.5 438 437.3 432.3 422.8 412.3 403 396.9 388.2 380.9 391.8 396.5 400 402.2 401.1 398.2 394.1 388.5 384.7 383.3 378.7 368.3 366.4 375.5 381.7 389.9 392.4 395.1 400.9 397.4 392.2 387.8 387 396.8 404.4 412.8 424.3 419.9 413.6 404.4 391.8 385.4 379.4 375.2 367.8 356.4 347.9 337.9 325.9 318.5 317.7 317.7 318.5 320.1 325.7 329.8 332.9 336.5 339.4 338.8 347 351.9 357.3 362.9 369.5 377 385.1 394 403.7 413.2 417.4 426 444.7 459.1 467.8 471.6 471.6 470.1 461.3 445.5 426 417.1 413.1 411.9 414.9 422.4 429.6 437.7 442 445.3 443 441.8 442.3 444.2 446.4 446.8 442.9 434.2 429.9 425.8 427.4 425.1 426.3 428 432.5 435.6 439.3 443.8 443 441 437.1 432.2 427 422.7 417.1 412.7 408.6 405.5 403.2 400.6 398.9 398.8 399.6 399.1 398.4 397.7 397.5 397.1 396.7 395.2 393 391.1 389.7
664.6 655.6 650.9 644.1 635.6 625.6 621.6 611.2 600.3 591.9 584 576.5 567 559.7 551.1 548.9 543 535.1 531.2 527.5 519.3 515.3 513 512.2 513.6 509.9 514.5 519.1 526.3 536.3 533.2 524.6 517.7 506.2 492 476.8 464.9 459.9 447 427 400.6 385.8 370.6 346.6 328.2 316.7 318.9 315.7 313.6 322.8 330.1 338.9 351.2 365 378.1 390.7 399.2 404.5 405.6 407.9 414.4 421.2 426.2 429.7 429.3 428.5 431.7 432.4 434.2 436.5 435.2 425.7 415.4 404.3 397.9 391 379.1 385.9 390.3 393.1 395.9 395.1 392.1 388 382.8 382.5 380 374.5 364.5 362.2 370 376.2 382.9 384.7 387.9 390.5 388.3 385.5 381.7 382.4 392.1 402.8 412.6 424.3 421.4 414.7 401.7 385.9 377.7 368.6 365 356.6 349.2 342.6 331.4 324.7 319.1 318.5 318.3 319.3 321.4 326.8 331.4 337.3 340.9 344.4 347.3 348 356.8 362.2 368.9 376.4 384.2 393.5 403 414 423.4 431.5 440.5 452.5 462.3 471.3 476.3 477.2 473.7 463.6 451.2 435.5 422.4 416.9 415.4 415.6 422.7 429.3 439.5 442.7 444.2 439.6 438 439.1 440.7 440.9 437.4 430.6 427 422.3 419.5 417.9 416.7 418.1 423.9 428.2 431.4 434.1 438.7 437.7 435.1 431.7 428.1 424.3 420.2 415.6 412.3 408.6 406.2 403.9 402.6 402.3 402.7 402.5 400.5 400.6 398.7 398.5 398 395.6 393.9 391.6 389.8 388.1
631.4 628 628.5 629.7 627.8 623.4 618.7 604.8 595.8 588.2 581.2 571.1 560.7 554.6 547.5 540.9 537.4 533 530.6 526.5 522.3 518.4 514.8 511.2 510.6 505.6 508.4 514 521.9 524.9 521.2 517.8 506.5 492.8 479.7 472 463.4 449.9 435.4 419.2 398.1 389.9 373.6 348 329.4 314.5 312.6 311.5 314.4 320.4 328.8 338.8 349.7 362.4 375.3 387.5 396.2 401.2 402.1 404.3 407.9 413 417.7 421.5 423.1 422.8 426.6 429.1 429.6 431.7 431.6 427.2 418 407.8 400.1 392.7 381.3 380.3 385.1 388.3 389.9 388.8 386.3 384.2 378.5 379 378 371.4 361.4 348.4 364.6 371.4 375.1 377.8 381 382.2 381 377.7 373.7 377.9 388.5 400.1 410.5 420.2 418.3 412.5 394.5 378.3 368 358.3 352.4 345.2 340.8 335.8 328.1 321.1 321.6 322 323 324.2 327.8 333 336.7 341.8 346.3 349.9 353.2 352.2 360.5 367.4 375.6 383.3 392.1 401.5 411.5 423.2 433.6 443 452.7 460.8 469.4 475.3 479.4 478.2 474.3 465.2 452.9 442.4 430 423.3 419.4 417.7 422.2 428.7 436.9 439.6 438.6 434.6 431.4 431.7 432.9 430.3 427.1 423.9 419 415.5 412.9 410.6 410.3 413.2 418.8 422.7 427.2 429.2 429.1 428.5 426.9 424.7 421.7 420.8 418.2 414.7 411.4 408.8 406.4 404.9 404.6 404.3 402.7 400.3 400.6 401.9 400.6 399.1 396.1 393 392.5 390.2 388.5 386.8
614.2 614.1 618.6 616 613.9 612.8 607.5 598.8 589.5 581.7 572.4 563.9 555.2 551 544.8 535.6 532.1 529.8 528.3 526.7 524.8 522.4 518.2 507.3 503.2 500.5 503.3 510.5 516.9 513.8 511.8 501.9 491.6 479.1 468.6 468 454.3 439.5 424.8 411.7 399.3 391.9 375.3 347.8 333.5 317 312.2 308 311.3 318.4 327.7 337.9 348.7 360.2 373.8 383.5 390.5 397 399.1 400.7 403.8 406.9 411.2 415.3 416.3 416.8 420.1 423.4 424.9 426.7 427.9 424.3 418.5 411.2 401.5 393.7 385.8 373.2 381.4 383 384.1 383.3 381.4 378.9 374.1 373.8 372.5 365 357.9 342.1 356.9 364 367.4 368.1 372.7 375.3 374.1 370.8 365 370.9 383 394.8 404.3 412.7 413.1 398.5 380.3 368.9 360.4 350.5 342 339.3 335.1 330.5 323.1 324.3 326.3 326.7 327.1 328.2 333 338.6 343.1 347.6 352.4 356.3 359.6 361.6 364.5 373.2 382.3 390.5 399.8 409.7 420.7 432.5 444.2 453.6 462.2 469.6 475.2 478.6 480 479.4 476.3 465.8 454.9 445.6 437.9 427.3 422.4 417.7 417.5 422 427.9 433.4 431.2 426 423.8 423.3 420.1 418 417.3 416.7 411.4 408.4 406.5 404.9 405.6 409.9 413.8 416.9 422.4 423.5 422.3 421.2 418.8 417.5 416.5 415.6 414.4 413.1 409.9 407.3 405.6 405.1 404 402.4 398.8 396.9 396.9 401 399 396.8 393.5 390.5 390 388.8 387.1 385.4
600.5 598.2 600.8 597.6 601.7 600.4 595.7 592.6 582.8 570.7 566 559 552.2 547.5 539.7 529.3 525.6 525.1 525.4 527.8 526 524.3 518.8 506.8 496.2 493.7 502.2 505.3 507 503.5 496.8 490 480.1 469.1 461.5 454.6 443.6 429.9 417.9 408.5 395.6 384.6 366.7 350.3 337.2 325.2 311.7 304.8 308.3 315.7 325.7 334.9 346.9 358.6 369.5 379.8 387.2 392.9 395 397.8 400.3 402.5 405.9 410 412.7 412.6 413.8 415.2 419 421.9 423.1 420.4 416.6 412.7 403.7 395.3 387.6 378.4 370.8 378.6 380 379.4 378.1 374.1 371.3 368.3 366.2 359.6 352.6 336.8 349.2 354.8 358.5 361.1 364.6 366.3 366.1 363 356.9 361.2 373.2 386 394 398.8 400.3 385.2 367.9 355.5 348.8 344.3 341.4 334.2 331.2 327.1 322.4 327.5 328.3 328.7 330.3 333.6 338.5 343.3 348.2 353.6 358.3 362.4 366 368.6 369.5 378.1 387.5 396.5 407.9 419.2 429.9 441.2 452.2 461.8 468.4 473 478.1 480.9 481 479.4 475.3 465.4 457.6 448.9 441.3 433.1 425.2 415.9 410.7 413.3 420.9 425.1 420.5 415.7 414.6 412.3 408.9 410.9 412 409.5 404.8 402.3 400.6 401.5 403 407.7 410.5 412.9 415.8 419.2 419.2 417.2 413.9 412.9 413.4 412.5 412 410.7 408.5 405.8 404.4 403.8 401.8 399.7 396.9 396.9 396.4 400 397 394.6 390.9 387.9 387.4 386.6 385.6 384.1
582.2 580.4 587.8 583.9 586 589.5 584 578.2 570.7 565.5 562 555.8 549.4 543.5 535.4 523.9 518.2 519.2 523.4 527.1 527.9 524.1 515.5 504.4 492.6 486.3 493.1 492.2 492.4 489.1 485.2 477 468.6 459.3 450.3 441.9 430.5 419.5 409.7 400.5 388.6 378.2 367.6 352.1 340.9 329.6 314.7 305.6 304.6 312.7 322.1 331.1 344.4 357.1 367.8 377.3 383.8 390.3 392.1 394.8 397.9 400.2 402.3 403.1 406.5 407.7 408 409.8 412.9 415.8 416.5 415.6 413.4 410.4 405 397.5 390.2 381.8 376 367.2 370.7 373.7 371.9 369.7 368.5 362.6 360.3 338.4 331.6 325.4 328.8 339.7 342.1 351.4 355.2 356.2 355.5 354.3 348.5 350 363.2 371.7 380.2 382.7 380.9 372.1 356.5 348 341.2 338.4 333.1 330.5 328 325.1 324.6 328.1 329.4 331.3 334 339.9 344.1 349.5 354.6 360.3 365.5 369.6 374.6 376.2 374.5 381.4 391.5 400 413 426.1 437.6 448.5 458.1 466.2 472.7 476.5 478.6 480.2 481.7 480.1 473.1 464.2 457.9 450.1 441.7 434.8 427.1 417.3 406.3 404.4 408.1 410.4 406.5 404.2 405.8 401.8 401.1 403.1 404.6 402.2 397.8 396.5 396.4 397.5 401.1 403.5 406.3 407.7 409.4 412 412.7 412.7 411.1 410.7 410.2 409.6 408.8 407.6 406.4 403.9 402.7 402.1 400.3 398.3 396.9 396.9 400.6 400 396.1 392.8 388.5 386.1 384.2 384.5 385.2 385.8
567.9 565.7 563.9 563.8 572 575.3 572 570.9 569.3 561.7 556.6 552 546.2 535.4 530.3 517.3 509.6 511.6 519.1 526.1 528.9 524.6 516.9 504.7 490.2 481.4 480.7 481 479.6 477.7 472.2 465.3 459.3 450.7 441.8 433.1 423.6 414.8 405.5 393.8 382.9 374.5 365.7 350.6 342.4 333.5 321.7 306.5 302.4 311.4 319.3 329.7 341.8 355 366.3 373.8 380.5 387.8 390.2 391.7 394.8 397.2 399.5 399.4 401.9 403 405.4 408.5 410 410.3 411.2 411.9 410.1 408.1 405 399.5 392.9 389.6 384.1 379 372.7 363.8 355.1 359.4 359.3 351.7 340.9 341.7 346.6 340.5 331.6 317.2 320.9 326.5 337.4 344.6 345.5 344 341.8 343.2 350.8 357.2 362.3 365.4 365.2 361.4 350.5 339.4 332.9 330.4 327.9 326.3 325.1 324.7 328 330.7 333.8 336.2 340.5 345.3 350.1 355.7 361.3 367.6 373.1 378.3 384 384.9 383.9 384.6 394.3 403.5 415.2 428.1 440.6 451.7 461.4 468.5 472.9 475.9 478 479.6 481.3 479.7 472.8 465.3 458.4 450.5 443.3 437 428.5 416.8 404.6 397.8 394.7 394.4 393.4 394 393.3 393.9 393.3 394.8 397.3 393.8 391.1 390.8 391.8 393.9 397.2 399.1 401.2 403.4 405.3 405.2 406.3 408.6 407.8 406.8 405.9 406 405.2 404.8 403.4 401 398.5 399.2 398.8 397.9 396.9 396.7 398 396.3 394.3 391.3 386.3 386.2 386.7 387.4 388.1 388.6
556.1 552.5 549.8 550 559.1 566.6 566.2 565.8 563.3 558 554.5 550.7 542.8 530.5 517.8 508.4 501.1 503.4 511.3 522 525.6 519.8 512.6 503.1 487.3 478.5 468.4 467.7 468.4 466.5 462 456 448.9 442.4 433.2 426.5 419.8 411.6 399.7 388.3 379.2 370.7 364.6 354.7 346.8 336.3 326.3 310.9 299.4 307.4 316.3 327.9 339.4 352 363.1 369.9 375.5 384.2 386.4 388.5 391.2 393.5 395.7 395 396.9 399.3 400.1 403.8 407.1 407.3 407.5 407.9 409.5 407.6 404.7 400.1 397.9 396.4 390.1 381.8 376.3 371.3 365.3 361.7 356 353.2 352.8 355.6 356.5 355.5 349.4 344.3 331.8 315.8 313.4 331.6 334.1 334.7 333.7 335.2 337.2 340.9 345.3 348.7 352.3 352.2 344.3 332.3 328.7 326.9 326 325.2 325.1 327.7 330.2 333 335.9 339.2 345.6 349.9 355.9 362.5 368.8 375 382 388.6 392.9 392 390.7 387.9 396.5 405.5 416.2 428.8 441.8 454.4 462.2 466.2 469.6 473.7 476.3 477.7 476.7 474.5 466.8 460.5 456.1 450.8 446.4 437.1 428.4 415 400.8 387.7 387.8 384 383.3 382.9 383.5 385.9 385.6 386.3 387.6 384.7 385.1 386.4 388.2 391.6 395.1 396.8 398.2 400.3 399.8 399 401 403.4 403.2 402.2 401.8 401.9 402.2 402.2 399.9 397.2 394.1 395.7 398.1 396.9 396.9 395.9 396 394 392 389.9 388.4 388.8 389.5 390.1 391.9 393.9
548.2 543.2 538.6 540.5 544.7 552.7 558 559.9 558.4 553.6 549.6 545.8 537.1 524.1 509.7 498 494.6 491.5 501.3 513.5 517.3 513.2 505.8 497.3 485.7 474.1 466 456.5 458.4 458.8 453.9 448.2 441 434.2 428.8 421.5 414.5 404.8 393.4 384 376.2 370.9 366.3 358.8 348 340.5 331.3 317.6 301.7 300.3 314.2 326.1 337 348.6 359.2 367.1 372.9 378.3 382.6 385.2 389.2 390.5 390.8 389.9 390.9 393.5 396.7 400 404.1 404.5 404.8 405.6 406 406.2 404 401.8 403.9 398.5 394.8 387.2 378.9 374.4 368.4 364.3 362.5 360.4 359.9 360.8 361.3 362.5 360.7 356.1 347.8 323.7 311.7 312.7 326.7 327.9 326.5 328.4 330.4 333.6 337 341.2 343.9 344 336.8 331.4 328.1 326.7 326.7 326.9 327.6 330 332.8 335.9 339.1 342.5 350.3 355.7 362.1 369.7 377.4 384.5 391.9 398.9 401.5 399.3 395.9 396.9 398.4 407.5 418.8 430 443.1 454.1 460.6 462.3 465.7 470.5 472.8 471.8 469 465.2 455.8 450.9 450.7 446.8 441.2 432.8 426.9 413.3 398.4 385.5 378 377.3 376.3 375.5 376 379 377.7 377.8 378.4 379.4 380.5 381.9 385.2 390.5 393.6 394.9 395.9 396.4 393.8 393.2 395.7 398.2 398.3 397.6 398.1 398.8 399.3 399.5 397.7 395.1 393.3 392.3 394.5 395.1 394.2 394.7 394.8 393.1 391.2 390.1 389.5 390.7 391.3 393.5 396.8 399.6
541 535.5 531.4 532.5 534.5 542 547.9 550.5 553.4 550.5 547.2 540.1 528 515 501.7 493.8 481.7 477.4 491.5 504.4 509.8 507 499.3 489.9 479.3 470.3 461.1 452.4 449.6 450 445.7 440.2 433.6 427.7 422 414.5 405.6 398.3 388.3 382.3 377.8 373.5 368.1 362.5 350.2 344 334.4 320.4 307 296.6 309.1 324 333.9 345.9 357 364.4 369.4 374.1 378.9 384 388.4 388.1 385.8 384.9 386.5 389.7 393.3 396.7 399 401.5 402.2 404.1 403.9 404.1 403.4 405 405.8 400.7 395.5 388.3 380.8 375.4 370.1 364.9 364.6 360.1 360.3 364 368.1 365.9 367 364.6 349.3 324 312 304 320.6 323.7 321.9 323.2 325.8 328.8 332.7 335.1 336.8 335.7 333.3 331.9 330.4 329.4 328.5 328.9 331.3 333.7 336.5 339.4 342.5 347.3 357 361.9 368.9 378.1 386.9 394.6 402 408.2 411.4 406.5 402 402 403.1 411.9 422.8 432.5 443.7 452.8 456.7 460.3 462.4 464.7 463.9 461.9 458.6 449.2 440.4 441.5 440.5 436.5 431 425.2 418.8 409.3 397 384.1 372.1 369.5 369.6 368.9 371.1 371.8 371.4 371.7 371.2 373.2 376.1 379.8 385.2 389.9 391.6 392.7 393.2 390.9 388.5 388.3 391.1 392.2 391.5 394.6 395.4 395.9 396.6 397.7 396.6 394.7 392.8 390 390.9 392.2 392.3 393.9 393.5 392.2 391.1 390.6 391.1 392.6 394.7 398 401.4 405.7
532.1 528.1 524.6 523.1 526.9 535.6 542.4 547 549.1 548.8 545.9 537 522.6 510.8 498.8 485.6 473.8 471.4 480.9 494.2 502.7 499.4 493.9 484.2 475.4 466.4 457.1 448.2 439.6 439.4 437.3 432.8 426.4 419.1 414.7 406.1 399.3 393.7 388.5 383.1 379.2 375.1 368.4 364 353.6 345.3 336.4 323 308.9 296 303.8 318.3 321.7 342.4 353.7 361.5 367.1 371.5 377.2 382.9 387.1 384.6 382.1 379.9 383.8 387.4 391.1 392.7 394.4 397.6 401.1 403 402.7 402.5 402.9 405.7 406 400.3 393.2 388.8 381.3 374.2 366.7 360.9 360.3 356.3 356.4 366.9 372.9 369.6 367.8 363.1 343.4 324.2 310.6 302.4 314 317.8 316.3 319 322.2 324.6 328.4 331.7 332.1 332.2 333.6 333.8 333.5 333.2 332.4 332.1 334.5 337 340 342.9 346.5 352.7 361.1 367.1 378.6 389.3 396.5 406.4 412.4 418.6 421.4 415.3 410.3 409.7 410.7 417.2 426.8 435.4 443.3 450.8 454.2 457 460.2 457.1 451.8 449.8 443.3 429.8 419.5 423 424.5 423.1 421.5 417.3 411.9 405.9 394.7 381.3 370.9 359.5 360.3 362 363.6 364.8 366.3 366.7 364.6 372.7 377.8 381.3 385 388.4 389.7 390.4 389.2 387.3 385.1 385.2 386.3 384.3 388.6 391.6 393.3 394.1 395.6 397.2 395.7 393.9 391.3 387.7 387.9 390.4 391.6 392.9 392.5 391.9 391.4 391.3 392.7 395.5 398.8 402.2 407.1 411.5
524.6 519.7 518 519.6 523.6 529.2 536.2 541.9 546 547.3 542.8 534.2 517.1 503.4 492.7 477.6 468.6 464.8 472 485.8 491.7 489.7 485.6 480.5 473.5 466.1 456.4 446.2 436.9 431.9 430.7 426.6 421.4 414.6 410.7 404.5 397.8 394.6 389 381.6 375.5 371.7 369.5 366 356.8 347 337.7 324.2 308.8 296.6 298.2 307.1 323.8 338.8 351.4 361.5 365.6 369.7 375.4 381.4 385.7 381.3 379.5 376.6 380 385.4 388.1 389 390.7 395.7 400.2 401.9 401.6 401.3 401.8 402.6 400.4 397 392.5 387.9 380.3 370.2 362.6 355.3 353.5 350.2 352.6 363 368.3 366.1 361.8 349.9 335.5 324.8 312.5 302.2 306.1 310.3 307.7 315.7 318.1 318.7 322 320.9 327.4 327.1 333.8 336.5 336.9 337.1 336.9 335.9 338.6 341.4 343.8 347.4 350.9 357.8 365.5 375.7 387.4 396.1 408 419.3 424.7 427.8 430.2 426.4 421.2 418.4 420.2 423.3 430.3 436.6 442.7 449.9 452.7 454.6 450.8 443.2 435.8 431.4 422.7 410.6 405.4 408.6 411.4 412.6 411.9 409.1 406.4 399.6 390 377.1 367.7 358.4 352.7 356.4 358.8 358.4 361.1 360 364.7 373.5 378.5 381.4 384.2 386.2 387.2 386.8 385.4 384 383.6 383.4 381.6 382.4 387.3 389.5 391.4 394 395.9 397 395.8 393 388.8 385.5 385.8 388.7 390.3 392.3 393.2 393 392.9 393.4 396.4 399.3 402.6 407.6 412.7 417.2
520 515.4 511.6 516.1 519.5 523.1 529.3 536.1 541.5 544.3 541.5 530 512 498.5 483.9 471.6 462.7 453.5 460.4 472.3 483 481.2 479.4 477.9 472.8 466.3 457.1 445.7 435.8 426.5 423.2 421 416.6 413.3 407.5 401.8 396.4 391.9 387.9 381.1 374.4 371.4 369 366.9 359.4 347.7 336.4 323.8 311.7 300.5 297.3 309.2 319.3 338.1 348.6 357.3 362.8 368.9 374.1 383 381.4 379.1 377.7 374.8 377.6 384.1 385.3 386.6 390.4 394.4 398.8 400.9 401.1 400.4 401.9 403.4 400.7 395.2 393.1 386.8 378.1 365.6 356.6 348.6 346.3 343.4 346.3 352 356.5 352.4 345.4 335.8 326.9 315.7 307.2 299.1 303.5 305.2 308.5 312.3 313.4 313.6 311.6 319.7 326 333.6 338.4 339.2 339.8 340.4 341.4 342.4 343.5 345.4 347.3 351.5 357.4 364.2 371.8 381.4 396.1 408.9 419.4 427.8 433.5 436.1 437.7 435.9 430.8 424.7 425.2 429 434.2 439.4 444.7 450.2 452.9 454 443.6 433.5 419.6 412.9 403.5 395 394.1 397.9 400.3 399 402 401.1 400.5 392.8 382.2 368.9 363.1 356.5 350 350.5 353.6 353.7 354.8 360.9 366.4 373.5 377.9 379.8 381.5 383 384 383.1 381.9 380.8 381.2 380.7 376.9 382.2 386.3 388.7 392 395.9 397.1 397.1 394.5 391.3 387.9 385.1 385.3 387.6 389.9 392.7 395.4 395.9 396.3 397.4 400 403 408 413 418 422.1
513.5 511.3 509.9 510.6 513.2 517.4 524 530.7 537.3 540.6 539.5 529.7 510.6 494.2 478.2 465.5 457.2 451.9 452.1 461.5 473.8 474.1 474.3 474.8 472.1 466.4 458.4 447.4 436 426.4 418.7 413.5 414.2 410.9 405.1 398.7 393.8 389.4 385.6 380.1 375.9 372.2 368.6 366.4 358.9 348.2 334.4 324.2 312.5 300.4 293.6 307.1 318.7 334.4 347.1 354.8 360.6 366.4 371.2 376.7 377.8 377.3 373.3 372.5 376.4 381.2 383.6 386.1 389.3 393.3 398.8 400.8 401.3 397.5 398.5 399.7 398.6 395.5 392 386 374.2 360.8 350.4 342.4 338.3 333.3 339.2 340.1 343 339.7 334 325.9 319 307.7 299.3 295.3 299.9 300.8 302.6 306.2 304.2 309.7 316.5 324.9 332.1 337.7 340.6 341.3 341.9 342.7 344.1 345.4 346.9 348.8 350.7 354.8 360.9 370.4 378.9 392.7 406.8 417.3 426.8 434 439.8 442.3 443.5 440.6 435.3 428.7 429 433.2 438.6 443.7 447.7 452 453.2 449.2 438.2 423.8 410.4 397.9 389.4 385.6 384 383.4 385.8 387.3 390.3 393.9 392.2 386.9 373.1 364.9 358.7 354.5 348.1 346.7 348.5 349.3 352.3 359.2 365.4 371.2 376 378.5 379.5 380.5 381 379.9 378.6 378.5 378.8 373.4 376.2 381.8 385 387.9 392.7 397.3 397.1 396.3 392.7 389 385.5 382.3 384.8 387.5 390.2 393.6 396.6 398.1 400.4 401.9 404 407.4 412.3 417.3 422.3 426.4
509.3 506 505.3 504.8 507.6 511.5 518.3 524.9 532 537.2 535.1 526.8 511.8 491.9 475.8 459.9 452.5 446.5 445.3 452 461.7 467.6 468.5 470.4 470.9 465.6 458.6 449 437.5 426.6 418.9 413.6 408.4 405.4 401.5 398.3 392.6 387.2 383.8 380.1 376.8 373.5 369 363.2 354.7 346.3 334.4 322.8 312 300.5 292.3 302.3 313.3 331.4 343.4 350.9 358.2 361.4 366.6 373.3 376.5 372.6 370.9 373.5 375.5 380.3 383.4 385.3 388.7 394.2 399 400.4 398.9 393.7 394.1 395.2 394.9 394.5 389.3 384.1 370.2 356.1 345.1 337.5 331.2 330.4 332.7 330.6 328.9 326.8 321 314.3 309.3 301.6 291.5 290.8 293.6 294.4 299.6 304.7 310.4 314.1 318.1 327.4 333.4 339.2 342 343.3 344.1 345.4 346.9 348.4 350.2 352.3 354.5 358.5 363.9 373.5 381.9 400.2 413.7 423.6 432.9 439 444.1 447 447.8 444 438.4 432.1 432.1 437.3 443.1 446.8 450 452.3 451.5 444.1 434.1 420.3 403.8 388.3 380.9 379.2 377.9 376.5 374.3 377.1 380 384.3 382.8 375.1 366.2 360 356 351.8 346.3 343.8 346.1 347.4 351 357.1 362.6 368.4 373.2 375.5 376.9 377.5 377.4 375.9 374.9 374.6 373.7 369.6 376 381.1 384.1 387.2 392.3 396.7 396.6 394.1 390.7 387 382.9 381.3 384.6 388.1 391.7 396 400.1 403 405 406.5 408.4 411.7 416.1 421.6 426.4 429.9
501.1 499.7 499.4 498.7 501.6 505.9 511.2 519.2 529.3 534 531 523.6 511.4 491.1 471 456.1 448.8 442.2 437.2 443.8 451.2 459.2 463.4 465.7 468.9 464 457.7 449.4 437 425 418.6 413.5 408.6 403.8 400.2 397.6 393.6 388.5 380.8 377.4 376.6 373.1 368.2 360.6 350.4 343.1 331.3 318.8 306.9 294 288.4 299 308.1 327.9 340.5 348.3 355.2 361 366.1 369.9 370.3 370.2 368.8 372.2 374.8 378.9 382.5 384.3 388.5 394.7 398 398.3 393 389.8 391.2 393.2 393.8 391.8 389.6 380.4 365.4 349 338.4 331 324.8 323.4 323.4 318.5 315.3 313.2 311.2 308.3 302.6 294.7 287.6 289.4 295.4 303.8 311.7 320.8 327.6 326.6 325.2 330 336.3 339.6 342.2 345.5 346.8 348.2 349.6 351.6 353.9 356 359.1 363.8 369.3 378.1 390.2 404.8 418.1 428.3 437.4 443.9 447.2 450.2 449.9 445.4 440.1 434.3 434.7 440.1 443 446.5 448.8 449.2 447.1 439.1 429.3 413.6 398.6 382.1 372.8 370.1 370.7 368.5 368.3 371.3 374.4 375.3 372.7 365.3 361.3 356.4 352.8 349.6 343.5 341 344.7 346.8 349.3 353.8 359.4 365.4 369.6 372.1 372.7 371.8 372.7 372 371.2 370.9 370.6 371.3 376 380.3 383.4 386.5 391.4 394 393.1 390.9 388.6 384.6 380 382.1 385.5 390.1 395.7 400.6 404 407.2 409.7 411.2 412.9 416.2 420 425.4 430.3 433.7
494.2 493.5 494.2 492.4 495 501.1 506 515.7 525.6 530 527.2 520.6 509.5 489.8 470.2 455 445.4 438.3 431 436.7 443.9 450.5 457.1 462.5 465.5 462.3 456.5 449.8 436.8 424.1 417.1 411.9 407.2 402.9 398.8 395.5 393.2 389.3 382.8 375.8 371.4 369.1 363.4 357.2 348.8 342.2 331.3 316.3 305 292.3 280.8 293.1 305 323.7 333.8 344.5 353 358.6 362.4 367 367.8 367 364.5 369.2 372.9 377.8 381.4 383.4 389.1 391.1 394.3 393 387.1 385.7 387.7 390 390.4 388.6 384.6 373.7 359.3 341.8 329.7 325.9 318.8 311.7 312.3 308.5 306.3 306.2 305.4 302.4 298.5 289.5 286.7 295 302.2 316.2 329.1 335.9 339.6 337.9 336.3 335.8 336.6 341.4 344.2 347.4 349.1 350.9 353.1 355.4 357.8 360.4 364.6 370.1 377.1 385.6 397.6 411.3 422.3 431.6 439.8 445.5 449.9 452.1 450.2 445.3 440.3 433.3 432.9 436.1 440.3 442.5 444.8 445.2 439.4 431.2 422.2 404.9 389.9 374.4 365.4 362.5 362.9 362.9 364 366.5 368.2 369 364.7 360.2 357.4 353.5 349.6 347.2 342.3 339.3 343.5 345.8 348.5 352 356.3 362.1 365.4 366.8 366 364.8 367.7 368.2 367.8 367.2 363 370 374.7 379.4 382.8 385.8 388.2 390.1 389.8 388 385.8 382.3 377.1 382.4 386.1 391.5 400.4 405.4 407.9 411.3 414.4 416.1 417.6 421.1 424.5 427.7 431.5 434.8
491.1 489.7 487.5 479.3 487.3 495.1 503.2 512.4 521.2 524.7 523 517.3 508.2 489.4 467.8 453.8 443.4 434.7 424.9 430.8 437.4 444.1 450.7 455.8 459.7 459.8 455.6 449.6 439.4 427.8 416.7 410.1 405.4 400.7 396.6 394.5 392.5 388.3 382 375.4 372 364.1 356.1 350.7 344.6 336.7 327.5 315.7 305.6 293.8 283.3 283.4 302.6 317.5 327.1 337.7 347.3 354.4 360.1 361.4 360.7 360 359.1 365 370.8 375.8 380.2 383.7 385.6 386.4 388.5 386.7 383.3 380.7 385.4 385.7 385.7 384 378.8 365.8 352.5 335.9 323 316.8 308.8 304.5 303.5 298.3 298.4 299 298.5 296.2 292.9 284.6 290.5 301 315.5 331 343 350.8 351 348.9 346.7 345.3 343.1 345.3 348 350.4 352.7 354.9 357 359.3 362.7 366.2 371.2 378.1 386.7 396.7 406.7 416.2 425.1 432 438.5 445 448.7 448.2 446.4 442.6 436 426.1 423.9 428.1 435 436.8 437.6 436.5 429.9 421.6 411.6 396.4 380.3 367.6 361.1 356.8 357.7 358.2 360 361.7 362.5 362.7 359.4 356.4 353.6 350.9 347.6 343.6 339.1 337.5 341.8 344.6 347.5 350.3 354.3 357.3 358.8 358.8 358 360.1 362.7 364.1 364 363.5 366.8 370.7 374.7 378.6 382.3 384.7 387 388.1 387.6 385.8 384 382 377.7 381.4 386 395.5 404.6 411.1 413.1 415.2 418.3 420.9 422.4 424.2 426.6 428.9 431 432.6
488.2 486.9 484.5 477.4 482.9 488.3 497.4 508.4 516.6 521 520 515.9 505.8 486.1 468.8 454.9 442.1 431.5 421.1 424.2 430.9 437.6 444.2 449.9 454.3 455.9 455.4 450.1 442.2 431.7 419.7 409.2 404.3 400 396 393 390 386.7 382 376.1 371.3 364.6 357.2 349.7 340.1 330.7 317.3 307.6 297.1 293.6 288.2 279.5 295.5 311.8 322.6 332.1 340 350.9 354.6 354.9 354.6 352.2 356 362.6 368.3 373.4 377.7 381.7 381.4 380.9 382.6 379 375.8 377.3 381.3 382.1 383.1 379 372.9 358.5 344.1 328.5 315.2 307.3 298 295.5 291.5 288.1 287.7 288 284.7 276.2 276.7 281.8 298.5 314.4 327.2 343.3 357.3 362.9 361.7 360 357.7 354.7 350.7 351.4 353.2 355.3 358.1 360.2 361.7 366.2 370.3 375.9 381.8 389.2 399 407 415.1 420.8 426.6 430.5 436.1 440.1 442.9 442 438.8 434 426.9 413.9 410.9 418.8 424.5 427.9 430 428.3 421.1 411.6 399.8 387.4 373.1 362.6 357.3 352 353 353 355.4 356.4 357.4 357.5 354.1 352.5 350.2 347.7 345.3 341.4 334.3 336 339.7 342.1 343.8 346.6 349.5 352.2 353.4 354 354.9 356.7 357.8 359.2 360.3 360.2 366.1 370.2 374.2 378.1 381.5 384.5 386.9 388.3 387.3 385.5 383.3 380.5 378 381.2 387.5 397.4 408.7 414.5 417.3 420.5 423.8 425.8 426.4 427.4 428.8 430.3 430.4 431.7
483.4 483 479.1 476.3 477.4 484.5 493.8 504.9 513.9 518.3 519 513.5 504.1 485.9 468.2 453.7 440.7 429.1 418.1 417.5 424.1 431 438.6 446.3 451 453.7 453.7 450.2 444.4 434.9 421.6 409.9 404.1 399.9 396 392.4 388.1 383.9 381.4 376.9 371.1 365.4 359.6 350.4 339.8 331.4 323 313.7 304.2 296.5 291.2 283.4 290.4 306.6 317.6 326.3 333.4 341.2 348.5 350.7 350.2 344.9 352.5 360 366.1 371.2 374.6 379 377.8 375 373.5 371 370.2 373.6 376.9 379.4 378.9 375.5 366.2 350.8 335.1 321.1 306.3 297.2 287 283.4 277.3 276.4 276.3 278.2 274.4 280.4 291.8 299.9 307.3 322.1 339.4 355.1 365.2 369.2 370.4 369.9 366.1 363.2 361.6 359.2 361.3 364.1 366.9 370.1 372.7 377 381.6 388.8 395.1 401.6 410.5 418.3 423.3 427.3 428.6 429.4 429.3 432.1 432.5 431.7 426.9 419.3 412 402.7 398.4 403.9 413.6 417.3 418.8 418.3 413.5 403 390.5 376.5 364.8 358.4 353.7 348.6 347.3 348.7 352.4 352.6 352.5 353.1 349.5 348.7 347.1 344.7 342.4 339.6 334.1 333.6 337.5 339.3 340.7 342.5 344.6 347 349.5 351.3 353 353.7 350.6 355.8 358.9 363.2 365.5 369.2 372.8 376.7 380.4 383.8 386.9 388.7 387.1 384.4 381.4 378.3 371.4 379.6 386.9 397.6 410.1 416.9 420.6 425 429 430.3 430 431 431.9 430.5 430.2 430.8
475.5 475.1 473.3 467.7 471.2 478.7 490 502.2 511.8 516.3 517.7 513.2 504.3 488.8 468.5 453.2 439.1 427.4 416.4 408.7 417.5 425.7 434.2 442.7 447.3 451.7 451.9 450.5 446.5 437.6 425 413.5 405.4 399.2 394.9 391.7 387.7 383.7 379.9 376.8 372.6 365.4 359.2 349.6 340.2 332.7 323.2 313.8 304.7 299 293.6 286.8 286.6 300.8 312.3 319.7 328.1 333.1 338.8 346.4 342.9 340.8 348.2 356.9 364 369.5 373.2 372.9 371.6 370.7 366.7 366.4 366.4 370.1 374.2 376.5 375.6 369.8 358.9 341.5 324.8 310.5 297.3 287.2 281.2 272 273.1 271.8 273.3 272.2 281.5 290.6 297.2 306.3 314.9 329.3 349 361.3 371.7 378.7 378.7 378.7 375.7 373.8 372.3 372.5 373.8 375.6 377.6 380.7 384.8 389.9 396.3 401.8 407 413.4 419.3 426.4 432.5 434.1 432.3 428.1 423.4 422.6 421.3 419 412.2 403.8 397.2 392.2 391.2 394.8 399.6 407.5 410.8 407.7 401.8 391.5 381.2 369.7 359.5 353.8 349.7 345.7 343.8 346.4 349.3 350.9 350.2 349.4 346.9 346.1 344.6 342.3 339.7 336.8 331.7 331.4 335.4 336.7 337.2 338.6 340.4 342.4 345.6 348.1 344.7 350 353 355.8 358.9 362.7 364.8 366.9 370.1 374.1 378.5 382.6 386.1 387.6 385.9 382.7 379.3 374.8 369.7 377 387.6 397.2 410 417.9 423.7 427.9 430.9 433.2 433.9 434.2 433.5 431.1 430.6 429.6
467 467.5 466.2 458 467.5 473.6 486.4 499.2 510.3 514.8 517.2 513.5 504.6 491 472 452.9 438.4 426.9 417.4 403.6 412 421.7 429.7 437.5 443.8 449.1 452.6 451.8 449 440.7 429 416.8 406.7 399.1 394.8 390 386.4 383.3 379.3 376.6 372 366.8 360.1 353.7 344.3 334.1 324 314.9 306.3 300.6 294.9 286.5 280.7 291.2 301.7 311 320.8 323.2 327.8 335.4 334.1 339 344.1 355.8 360.5 365.7 369.7 368 368.2 366.9 360.9 359 360.7 364.4 370.5 373.1 371 362.2 346.7 333.2 317.6 300.7 288.4 278.4 270.3 269.3 269.2 272.9 277.8 284 289.7 296.1 304.6 312.8 322.9 336 353.9 366.7 374.7 378.5 383.7 382.2 380.1 382.1 386.9 383 385.8 387.2 390.1 394.6 401 406 409.8 411.6 416.5 421.1 426.8 432.2 436.9 439 435.8 427.9 418.7 412.6 407.9 404 398.7 392.9 388.4 383.3 385.1 387.1 390.9 397.2 402.1 396.4 388.9 382.3 374 365 355.5 350.7 346.8 343.4 341.2 346.5 348.7 349.6 349.3 347.9 345 343.3 342 339.9 336.5 333.7 331 329.9 333.7 333.8 333.8 335 337 339.1 340.9 340.3 346.3 349.5 353 357.1 360.2 362.7 364.2 366 367.9 370.6 375 379.7 383.3 384 382.6 380.6 376 368.5 369.5 373.1 382.7 396.9 408.2 417.2 424.9 430.1 433 435.3 437.4 437.4 435 432.7 430 427.3
459.6 459.6 458.4 450.2 462 469 484 496.5 508.1 513.8 517.9 513.8 505.6 492.6 474.6 455.1 438.7 426.6 416.4 406.6 403.3 415.9 423.4 433.1 441.3 447.4 451.4 454.9 454.3 446 435.3 420.5 410.5 401.9 395.7 390.1 385.1 381.4 380.2 377.1 372.8 367.4 361.6 355.5 346.1 335.4 325.6 316.7 302.8 302.2 292.8 282 275.4 283.3 291.2 299.7 308.9 313.4 316.8 325.1 330.5 332.9 337.5 347.1 353.8 359.6 362.9 364.2 365.9 361.5 355.8 352.6 355.2 359.8 366.7 368.3 364.2 354.2 340 322.4 304.7 290.7 280 269 267.9 268.3 269 281.2 284.5 288 294.3 303.2 310.7 318.9 328.5 339.1 353.4 366.3 372.9 379.3 379.9 378.8 382.3 387.9 386.7 390.9 396.5 397.5 400.8 410.5 415.1 415.1 416.7 418.4 420 425.7 431.8 434.8 438.7 439.6 435.9 428.2 416.8 407.2 400.7 395.7 390.1 384.9 379.5 376.6 378.8 380.9 383.6 390.2 388.4 383 377.3 373.4 367.4 358.5 351.4 347.5 343.7 338.4 343.6 347.9 348.4 348.9 348.2 346.3 344.5 342.1 339.5 337.3 333.2 330.4 327.5 327.5 329.8 330.4 330.5 332.5 334.1 335.4 340.3 344.4 347.2 349.7 353.8 357.9 361.5 364.2 365.5 366.8 367.7 369 372.4 376.1 377.7 379.1 378.4 377 371.1 362.3 366.1 369.5 381.7 396.6 406.6 415.9 424.7 430.6 433.9 437.2 439.7 439.2 435.5 431.3 427.6 425.1
451.5 452 451.8 445.3 456.8 464.1 480.9 495.7 507.3 513.6 516 513.8 506 494.1 477 457 439.3 427.2 414.8 406.7 392.8 406.2 418.6 429 437.6 445.6 450.3 454.4 457.1 451.8 441.1 425.7 413.3 406.1 398 392.3 387.7 383.2 377.5 373.4 370.2 366 361.2 355.5 343.1 335.9 327.5 317.4 311.6 304.9 296.1 283.3 273 274.7 282 288.4 296.6 301.8 306.2 313.1 320.3 324.3 330.5 337 349.1 358.1 359.9 361.6 361.2 354.4 349.8 345.8 350.7 354.5 359.7 361.6 356.2 343.4 325.8 310.8 297.9 283.3 273.3 266.6 265.3 266.3 277.1 282.7 286.1 292.3 300 307.2 316 324.3 333.4 342.2 352.2 362.8 371.3 375.7 375.6 376.5 382 384.1 387.5 398.4 403 405.6 413.3 420.3 420.7 419.5 419.6 418.3 419.6 425.9 431.2 433.2 435.5 436.9 432.7 426.2 416.7 405.6 396.1 389.1 383.9 378.4 373.8 371 373.1 375.6 377.3 379.5 379.8 377.1 371.6 366 359.9 353.3 348.3 344.5 340.5 340.8 345.6 349.1 348.7 348.5 348.7 347 344.5 341.8 339.3 335.8 332.1 327.6 325.9 326.1 326.5 326.9 327.4 328.8 332 337.1 341.1 344.6 347.6 351.2 354.9 358.6 361.8 364.8 365.3 365.2 366.1 367.3 370.4 371.2 371.8 373 374.1 371.2 366 358.8 363.6 366.4 378.3 393.5 404.3 413.9 422.5 429.5 433.9 437.1 437.7 436.4 433.2 429.1 425.3 422.6
442.7 443.6 444.5 443.3 452.3 460.3 476.9 493 504 510 511.6 510.5 504.6 494.5 478.5 458.5 440 426.8 414.9 405.4 391.9 399.9 413.5 424.5 434.5 442.6 449.2 454.1 459.1 456.3 447.2 432.8 420.1 411.4 403.6 397.2 390.8 384.6 379.5 376.1 372.5 366.8 362.2 356.3 350 341.7 332.5 322.5 312.7 304.5 295.6 281.4 273 270.7 273.9 281.6 286.1 289.6 292.7 304.7 310.5 315.8 323.8 330.1 336.9 348.1 353 351.2 350.9 345.6 344.2 340.1 345.8 348.2 351.6 354.5 347.7 331.4 316.5 303.2 292.4 277.9 270.4 263.7 265.3 269.9 277.9 281.9 288.3 295.7 307.9 315.9 320.2 327.6 339.2 348.4 356.2 360.8 367.2 371.9 372 374 378.8 381.5 389.3 397.7 401.4 413.2 418.6 422.6 417.8 414.1 416.8 414.3 416 421.7 427.8 429.8 431.2 433.1 430.8 424.6 416.4 405.5 394.5 386.2 378.9 374.2 370.2 367.1 368.3 369.5 371.1 373.8 377.4 373 367.5 360.9 355.4 349.7 344.9 340.6 335.2 341.9 346.6 350 350.3 350.5 351.5 350 347.1 343 338.7 334.8 331.3 327.6 324 324.2 324.2 325.2 326.9 329.8 334.2 337.4 340.3 344 347.8 352.9 356.4 358.9 362.1 364.2 364.7 364.2 364 365.5 368.1 368.7 367.9 368.5 369.2 365.3 360.2 355.8 360.9 363.2 372.8 387.9 399.6 409.1 419.9 427.2 432 434.8 434.3 433 429.9 426.7 423.1 420.2
432.6 433.8 427.2 442.4 447.2 456.8 474.2 489 499.5 504.6 507.2 506.6 500.6 492.6 474.6 457.6 440 426.1 414.2 404.8 391.1 395.2 408.4 420.3 430.7 439.3 447.6 453.6 459 459.3 453.2 439.4 428.2 418.5 407.8 400.5 393.9 386.7 382.3 378.3 374.1 368.4 364.1 358.6 352.4 345.5 337 326.7 317.7 307.3 299.6 287.9 278.4 273.4 268.5 272.7 276.3 278.2 287.3 293.1 299.2 304.5 312.3 321.5 327.7 334.2 340.5 342 342.7 340.3 338.8 336.1 341.3 342.2 347 345.9 338.9 323.3 308.1 297.5 289 277.1 262.7 262 264.3 270.4 276.9 283.6 291.8 301.2 312.4 321.1 325.8 333.5 342 350.6 356.7 362.9 367.6 367.4 368.8 371.1 374.9 379.1 388.5 393.7 398.4 406 411.1 411.5 410 408.7 408.8 407.5 410.8 415.6 421.3 423.2 426.5 426 423.6 422.1 416.3 408.3 397.7 389.1 379.8 373.3 368.8 364.2 363.1 363.7 364.8 368.9 370.1 368 362.5 357.7 352.1 346.4 341.9 336.9 337.2 341.9 346.6 349.5 352.3 354.6 357 354.4 350.3 345.8 341.4 336 331.6 327.6 324.9 322.3 322.4 324.6 328.7 331.3 334.1 335.9 339.5 343.9 348.6 352.9 357 359.5 361.9 363.5 364 363.2 362.7 363.5 365.1 364.9 364.3 364.6 362.9 358.4 353 354.6 357 359.4 366.4 377.2 389.9 404.8 416.3 424.8 429.2 430.8 431 429.6 425.9 422.7 419.7 416.8
419.4 419.8 431.6 437.9 443.8 454.4 470.5 483.4 493 498.6 500.5 498.1 492.3 482.9 468.9 454.7 437 424.6 412.6 403 388.4 391.1 403.5 416 426.4 436 444.7 451.9 457.2 460.5 455.3 447.5 434.2 426 411.6 402.5 396.1 390.1 384.4 379.8 375.7 370.6 365.9 360.7 354.8 349.1 342.4 332.8 323.4 313.6 304.7 294.3 285.4 278.1 270.3 268.5 267.5 272.8 279.7 283.3 287.5 293.8 301.1 311.4 317.4 324.6 328.8 332.5 333.6 335.2 333.9 330.7 335.7 338.4 339 338.2 329.8 315 300.3 290 282 270.5 264.8 260.7 264.4 272.8 284.9 292.6 301.2 311.6 317.7 326.8 331.6 339 346.6 354.8 359.3 363.3 362.9 362.8 365.4 368.8 369.9 378.7 387.1 390.8 395.6 401.7 406.7 404.4 403.1 401.8 400.5 400.7 407.4 410.1 412.4 417.5 419.1 420 421.1 421 418.8 411.9 402 392.9 384.6 376.7 371.1 366.5 361.9 357.9 358 360.7 361.4 361.1 359 354.4 348.7 342.8 338.7 331.1 336.7 341.3 345.2 348.5 353.1 359.5 360.2 358.2 354.1 349.1 344.2 338.8 333.3 329 326.4 322.2 321.7 324.3 327.3 329.9 332.4 334.4 338.8 344.9 349.9 353.7 357 359.7 362.1 363.2 362.9 361.2 360 361.9 361 360.3 359.5 358.5 355.1 350 348.9 352.8 355 357.3 363.4 372.2 386.5 402.5 412.4 421 425.9 426.9 427 426 421.5 417 412.7 410.1
408.9 417.6 426.9 433.8 440.3 451.9 465.8 479.6 487 489.3 490.4 488.8 482.3 473.8 461.9 446.3 432.7 423 411 400.4 387.9 386.8 399.1 411 421.8 432.1 441.9 449.3 454.2 458.8 455.7 447.9 439.2 427.5 414 405.1 399.8 394 388.2 381.9 378.6 372.8 367.8 362.6 357.2 353.3 346.9 338.8 330.6 319.2 311.8 304.9 295.5 286.8 277.4 270.2 263.4 267.7 271.9 276.5 280.4 284.3 289.3 298.6 306.5 313.5 319.5 322.4 326.5 328.8 328.6 328.2 332.4 334.7 333.9 329.8 321.2 308.5 297.4 286 277 268.2 261.9 259.5 268.9 278.6 291.8 299.6 309.5 318.9 324.8 332.2 337.1 344.8 355.5 361.8 360.1 359.3 358.1 358.1 359.8 362.9 365.7 377.5 383.8 387 391.3 395.1 396.6 393.3 390.4 390.3 390.2 394 397.7 399.8 404.2 408 411 414 416.3 417.4 416.8 413.2 406.5 398.3 391.3 383.3 376 368.5 363.5 359.2 350.6 354 355 355.5 353.7 348.9 343.7 338.1 334.9 329.3 335.9 340.3 344.9 350 355.6 361.8 362 360.2 355.8 351.2 346.5 340.6 334.6 329.9 326.8 323 321.6 321.9 324.4 326.8 329.1 334 339.5 345.1 349 352 355.8 359.9 361.9 363 361.3 358.9 358.3 358.8 359 357.2 356.1 351.9 349.1 344.4 346.2 350.1 353 355.9 363.7 375.3 388.8 400.6 411.3 419.2 421.4 422.8 422.7 422.4 418.8 410.6 405.1 402.2
404.3 414 422.5 429.4 436.8 449.2 461.3 473.1 478.1 479.7 480.8 479.2 472.1 462.2 450.7 438.1 427.9 419.5 409.5 398 387 381.7 392.9 406.1 417.3 427.6 437.9 445.8 451.3 455.8 454.3 450.7 440 430.6 416.4 407.8 400.7 397.5 391.7 385.3 379.9 375.8 369.8 364.6 360.1 356.7 352.7 343.9 335.2 327.7 321 311.9 304.1 295 286.5 278.6 272.5 260.6 262.6 268 273 277.7 281.7 288 294.2 302.8 310.2 315.5 319.4 321.6 321.4 324.1 327.8 328.2 328.6 324.7 316.1 304.5 292.6 278 270.3 265.3 261.9 261.2 272.6 284.9 296 306.5 315.1 325.5 333.4 337.1 342 349.2 362.8 366 362.2 357.5 356.5 355.8 356.8 358.8 362.5 370.4 376.9 380.4 382.5 383.9 383.4 379.5 379.5 381.3 384.1 383 385.4 388.4 393 398.2 402.1 405.9 412.2 415 417.3 417.1 414.6 409 400.1 394.4 381.1 371 364.7 358.1 349.4 347.5 348.9 348.6 346.7 342.3 335.8 333.6 324.8 331.2 335.7 340.3 346.7 353.3 359.4 362.2 362.8 360.8 357.3 352.6 347.5 341.9 336.7 331.8 328 323.8 321.2 320.8 321.6 323.9 326.3 332.8 338.2 342.9 347.3 350.2 353.5 357.7 360.2 360.2 358.4 356.2 356.7 357.2 356.9 354.7 351.1 347.6 344.7 339.4 343.4 346.8 349.7 355.8 364.5 376.7 387.9 399.5 409.7 416.8 420 419.8 418.7 417 412.3 403.4 397.6 394.8
402.8 410.4 418.9 426 435.2 446.3 457 464.5 469.3 472.4 471.8 466.6 461.1 450.5 439.1 430.2 421.6 414.7 405.3 395.3 385.5 375.7 387.4 401.2 412.8 423.1 433.5 441.1 447.3 453 452.5 449.3 441.8 431.3 417 408.3 401.6 398.5 395.3 388.6 383.9 379.2 373.1 367.8 364.8 362 357 350.8 342.6 335.1 330 320 311 303.4 294.8 287.5 278.7 272.2 263 256.1 262.7 269.7 275.4 280.6 285.3 290.9 299 304.3 309.9 313.6 315.7 320 323.6 324.8 324.2 318.4 310.9 300.6 287.6 274.2 264.8 261.5 259.2 262.5 276.3 289 301.4 312.4 322.3 332 340.3 339.2 342.3 350.7 364.9 363.6 360.2 358.6 353.4 353.5 355.2 356.7 362.4 369 377.1 378.8 376.5 372.7 372.9 372.8 372.6 373.9 374.2 376.9 377.2 379.5 384.9 391.5 395.5 405 412.9 418 423.5 423.6 420.4 417.2 409 401.1 392.8 379.1 365.4 359.5 355.5 343.4 341.4 341.6 340.1 333.3 332.3 325.6 324.4 330.9 335.3 339.8 347.6 355.2 359.3 362.4 363 360.5 358.5 354.9 350.1 344.3 339.1 334.6 329.4 325.1 321.1 319.6 320.3 321.3 324.9 329.7 334.1 337.9 342.5 347.1 351 353 357 356.3 355.1 354.5 354.4 354.7 353.5 350.1 346.5 343.8 339.1 334.5 339.9 343.3 347.6 356.4 365.7 377.2 388.3 397.9 405.9 411.9 414.5 413.8 412.5 409.9 403.5 394.2 388.7 386.5
397.1 405.4 414 422.6 431 442.3 452 459.4 463.9 465.4 465.3 460.9 454.5 441.8 431.2 422.7 415.9 409.3 401.6 392.3 384.5 371.5 382.7 396.3 408.3 418.7 429.1 436.9 442.9 447.8 449.9 447.6 438.5 428.3 419.4 411.3 403.8 399.3 395.4 391 386.5 381.8 377 372.4 368.7 366.9 361.2 355.6 349.6 342.7 336.9 329.5 323.4 311.8 305.4 297.6 288.3 279.9 271.9 263.8 256.7 256.4 266.9 273.5 277.3 279.9 286.8 292.8 299.9 304.8 311.4 315.8 319.2 319.8 319.2 314.8 307.3 294.2 285.1 272.9 263.5 258.8 257.6 268.3 280.9 295 307.8 317.8 325.9 335.4 341.2 339.1 341.8 351.2 362.9 361 359.3 353.4 349.8 351.2 353.1 355.6 362.3 368.9 377.1 376.8 372.1 368.5 366.9 365.3 365.2 366.1 367.9 369.9 372.3 374.7 380.4 387.7 392.3 403.7 413.4 421.3 428 428.9 426.7 423.6 416.3 406.2 399.6 388.8 378 368.1 360.2 348 335.2 335 334.5 332.2 327.8 321.9 324.3 329.7 334.8 340.5 348.8 356 359.5 362.4 363.7 362.7 360.1 357.4 353.5 348.1 342.7 338.5 332.3 326.6 322.9 320.2 319.8 320 323.1 327.3 332 336.4 341 345.7 348.7 350.6 352 351 349.3 349.6 349.8 349.8 348.9 345.7 342.8 340.7 337.5 332.8 336.5 340.7 347.7 356.6 366.8 378.1 387 395.3 401.2 404.9 406.8 407 405.5 401.6 393.2 384 382.1 380.4
392.3 400.6 409.5 418.1 426.9 436.5 445.8 453.9 459.4 461.3 459.6 456.6 449 435.5 425.4 416.7 409.4 403.1 396.9 389.6 382.5 371.5 377.8 391.9 402.5 413.8 425.3 435.4 441.8 445.5 445.8 444.2 435.6 425.8 419 411.9 405 399.8 397.2 392.4 387.2 383.1 379.3 375.1 371 368.2 364.2 361.2 357 350.9 343.9 337.8 330.4 319 313.2 308.6 297.3 289.5 280.3 270.7 264.1 255 254.9 265.1 270.4 274.1 275.6 280.4 291.5 296.7 305 311.4 317.2 315.9 314.1 309.2 302.9 294.9 284.5 272.5 264.5 253.9 257.6 271.7 283.3 299.3 311.8 321.9 332.5 339.2 340.2 337.2 339.1 346.2 356.9 358.8 356.1 348.7 347.5 349.5 351.3 356.2 362.7 366.2 373 371.4 368.1 365.3 360.8 360 360.4 361.7 363.7 366.4 370 373.6 378.2 386 394.4 405.6 412.9 421.3 430.6 434.3 432.9 430.6 426.1 413.6 403.5 396.4 385.9 375.6 364 350.1 337.4 325.1 331.2 328.1 324.2 318.1 324 328.8 333.9 341.7 350.7 357.3 361.4 364.4 365.7 365.2 363.1 361.1 357.6 352.2 345.6 341.2 335 329 325.1 322.3 319.6 318.5 321.9 325.6 329.7 334.3 338.5 340.8 343.8 345.4 346.7 345.7 344.5 344.7 344.7 344.3 343.3 341.4 339.8 338.5 334.5 329.6 333.3 338.4 347.3 356.3 366.8 377.2 385.8 392 395.3 396 397.8 396.9 395.3 390.7 381.4 378.5 376 375.9
387 395.6 404.8 413.7 422.4 429.3 439.9 448.3 454.6 457.5 457.3 453.4 444.6 430.9 420.7 411.8 403.2 396.5 390.8 385.8 379.9 369.4 371.7 385.7 396.6 409.9 424.2 434.8 441.8 445.5 445.9 441 433.9 424.2 417 411 404.8 399.9 397.7 395.4 389.7 384.1 380.2 376.2 372.3 368.6 366.9 364.5 362.3 357.9 351.8 345.9 336.3 327.1 321.2 317.8 308.4 296.3 287.3 277.3 268.9 260.4 250.9 252.9 262.8 266.7 268 270.7 277.9 290.2 298 305.4 310.4 312.7 309.9 304.7 298.5 291.1 281.9 270.2 254.8 253.9 262.9 274.1 289.7 302.6 313.9 326.4 338.9 343.3 338 333.7 336.5 344 353.3 355.7 352.4 347.2 345.2 348.5 351.6 358.1 361.3 363.9 366.6 367.2 365.2 361.1 357.4 356.4 357.3 359 361.3 364 368.1 372.2 380.1 389.6 397.4 405.2 412.8 420.4 429.4 436.4 437.5 433.3 427.8 420.1 409.4 402 392.2 379.7 365.7 351.5 337.5 327.4 321.9 323.4 320.3 317.7 323.3 327.8 334 342.6 351.6 356.9 362.1 364.2 368.2 367.7 366.8 364.5 361 356 349.5 343.8 337.8 331.7 327.1 324.7 322.3 316.4 320.3 324.2 327.5 331.6 335.5 338.2 339.5 339.9 341.4 340.3 339.8 339.6 339.6 339.1 338.4 336.7 335.9 335.6 331.4 330.1 332.7 337.8 345.8 354.3 364 374.4 382.1 385.6 386.8 386.9 387.3 386.9 384.8 379.6 375.3 370.5 369.7 373.5
383.3 390.7 399.8 408.7 417.9 426.5 433.5 444.2 449.3 453.1 455 448.8 435.4 425.5 416.5 407.9 397 390.6 385.6 381.7 377.8 369.6 367.2 380.1 391.6 407 422.5 433.2 440.4 443.2 444.7 438 430.6 421.1 415.5 410 404.6 400.2 398.8 395.5 390.2 384.9 380.8 377.8 374.8 370.2 368.3 366.9 366 362.5 357.4 350.2 342 336.3 330 323.6 318.1 304.3 292.3 281.5 273.8 265 255.2 251.6 250.5 260.3 263.4 266 271 282.2 291.4 298.9 307 309.4 306.6 301.2 293.9 286.9 278.4 267.3 253.9 252.9 265.5 277.7 292.2 308.5 324.2 336.2 343.4 345.9 336.9 332.7 335.2 341.5 349.2 350.5 347.1 344.9 342.7 347.9 353 356.4 359.4 361.6 363.2 365.3 365 361 355.2 354.1 354.5 357.6 360.6 362.5 367.3 374.9 383.5 391.1 397.5 405 413.3 420.8 426.4 434.7 437.3 433.2 427 419.2 409 401.8 392.4 381.4 364 349.8 335.5 325.2 317.7 319.5 316.4 317.6 322.5 327.1 334.5 344.6 353 359.8 367.4 369 372 371.9 370.1 366.7 362.8 359.3 352.9 346.5 341.5 335 329.5 327.1 324.8 321.1 317.6 322.7 325.8 328.7 332.1 335.1 335 335.5 336.5 336.4 336.5 336.5 336 334.8 333.8 333.5 333.1 332.1 326.2 327.9 332 337.4 343.5 351.9 360 367.6 374 377.1 378.7 379 379.1 379.1 377.9 370.7 365.7 368 372.4 375.9
379.3 385.8 394.6 403.2 412.6 422 430.6 435 444.1 446.9 445.4 440.8 430.3 421.6 413.8 403.9 392 385.4 380.9 377.2 373.4 368.4 363.1 375.2 387.9 403.7 419 430 437.6 442.2 439.2 434.4 429.1 422 415.4 409.4 404.1 400.7 396.5 393.5 388.6 382.6 378.1 375.3 373.6 371.4 368.8 368.3 367.4 365.2 360.1 354.9 348.3 342.9 339.3 330.4 324.8 313.5 303.2 288.5 279.7 268.4 259 250.4 249.9 247.9 255 259.9 265.9 273.9 284.2 294.9 301.7 303 300.9 295.8 290.4 282.9 276 264.3 252.2 253.5 267.6 279.2 295.1 312.1 330.4 339 343.5 342.2 333.4 330.2 333 338.9 345.8 348.3 347 340.9 340.3 347.2 352.9 356.1 358.7 361.5 362.8 363.3 362.9 357.7 352.6 352.2 353.1 357.3 361.8 365.4 370.5 378.8 385.5 391.9 397.9 406.4 413.4 419.3 424.2 429.8 434.3 430.2 424.6 415.3 404.8 398 390.1 378.3 359.6 343.9 331.6 321.2 314.5 314.2 313.5 316.9 321.7 327.5 337.6 347.9 355.8 363.2 369.6 373.8 376.3 375.1 373.2 369.8 365.9 361.8 355.5 347.6 342 335.9 332 328.9 326.2 322.8 315.7 320 323.7 326.4 328.3 329.7 331.2 332.9 334.4 335.1 334.9 334.6 333.8 333 332.5 332 331.9 329.6 320.4 326.7 330.6 335 339.4 346.2 354.3 359.2 364.7 368.3 371.1 371.2 370.9 370.5 366.9 362.9 363.7 368.1 372.9 379.3
374.9 381.4 389.5 397.8 406.6 416.2 423.8 431.2 439.5 443.4 440.6 433.6 424.3 418 410.6 400.6 388.9 380.5 376.6 373.1 369.6 365.4 355.8 372.2 384 399.6 415.1 425.2 434.9 439.7 438.7 433.3 428.7 423.5 416 409.5 404.4 400.5 394 387.3 383 378.1 373.6 370.6 370.8 368.6 367.4 367.3 366.5 365.3 361.5 356 350.8 347.2 345.7 336.1 328.2 317.1 301.4 292.2 281.2 270.1 262.5 252.9 248.5 247.5 247.7 256 261.2 266 277.3 288.4 294.3 296.3 295.8 291.1 285.5 279.8 270.3 258.3 250.4 256.9 269.7 283 296.6 315.8 331.7 337.6 340.1 337.7 329.2 327.3 329.9 334.5 344.3 345.7 342.6 337 339.5 345.5 351.5 354.5 359.5 363.2 362.9 360.7 357.6 353.8 350.5 352.4 354.5 357.7 362.5 368.6 373.9 380.6 385.9 392.2 397.3 404.1 411.5 416.1 417 420.5 421.4 419.2 413.9 406 396.7 391.9 385.8 374.4 355.1 340.5 328.7 318.4 312.3 311.2 311.7 316 320.8 329 340.3 350.6 359.5 366.9 372.7 377.8 379.6 378.3 376 372.7 368.2 362.4 356.6 349.1 342.2 338.1 334.5 330.9 327.6 324.3 320.3 313.8 320.6 323.7 324.7 326.1 328.5 330.7 332.6 334.2 334 333.1 332.2 331.9 331 330.3 329.5 329.7 318.1 324.5 327.5 331.5 335.9 340.4 347.6 352.3 357.1 359.8 363 365.3 364.5 363.7 358.4 359.9 364.5 369.3 375.6 384.2
370.4 377.1 384.5 392.9 400.5 409.6 417 423.9 432.4 438.4 437.2 427.8 420.2 414.2 406.7 397 386.7 376.4 372.5 369.1 366.1 362.4 356.7 369.2 379.7 393.3 409 421.4 431.6 436.5 437.7 434.8 429.8 424.8 418.7 413.1 406.4 399.5 393.8 386.4 379.8 375.1 371.3 369 366.9 364.7 363 363.9 363.8 363.2 361 356.5 351.1 347.7 343 333.1 330.7 315.8 304.6 295.5 283.4 273.2 264.6 259.6 247.2 247.5 246.5 251.8 257.6 262.4 269.5 282.7 289.8 292.2 289.8 286.3 281.9 277.1 264.7 255.3 250.2 257.9 271.2 284.8 300 316 332.4 335.8 336.7 333 324.7 323.6 326.5 330.1 339.7 339.2 334.4 333.5 338.6 343.9 349.1 353.4 360 362.5 359 356.9 354.6 352.2 351.3 353.5 355.6 359.8 366.3 373.3 378.8 382.9 387.1 391 396.3 402.1 407.9 411.3 408.5 409.7 410.4 408.8 401.9 391.5 388.4 384.4 377.8 364.1 348.8 335.5 325.7 316.6 310.4 309.8 310.9 314.4 320.6 332 343.5 353.1 362.1 370.3 376.1 379.8 382.6 381.8 377.9 373.2 367.8 362 356.1 349.9 343.7 339.4 335.9 332.5 329.9 326.8 322.5 315.5 314 319.2 321 323.4 325.8 328.3 331.1 332.8 332.4 331 331 329.7 327.7 326.8 325.9 327 318.3 320.4 324.8 328.4 332.4 336.7 339.9 345 349.7 353 356.6 359.9 359.8 359 354.3 360 365.4 373.4 381.7 390.8
365.8 372.8 380 387.6 394.3 402.9 410.3 419.1 428.3 433.9 433.4 423.6 416.4 410.5 402.7 393.5 383.8 373.1 367 364.6 362.1 358.8 354.5 366.6 378.9 389.4 402.7 415.3 428 432.5 434.6 434.1 430.4 427 421.6 416 407.3 399.5 394 387.7 382.1 376 370.7 367.2 362.8 360.5 359.9 359.8 359.7 359.7 358.7 355.4 350.3 346.9 341.3 336.5 328.2 318.8 306.7 295.4 285 276.3 270 260.7 250.2 245.6 244.6 245.1 253.3 258.9 263.8 275.4 285 285.9 284.4 281.1 277.7 271 260 249.1 248.1 260.7 274.8 285.9 299.8 317.8 330.8 331.9 332.5 326.6 320.1 319.8 322.1 326.6 333.3 334.2 329.9 333 337.2 342.5 348.2 353.3 356.6 357.1 354.3 353 350.8 350.2 352.2 354.5 357.3 362.7 369.9 376.6 382.6 387.2 388.9 391.4 395.3 398.3 400.1 402.2 400.3 397.9 397.6 394.1 386.3 379.9 377.9 374.6 367.9 357.4 342.9 332.5 324.1 315.1 308.8 308.7 311.3 314.8 323.9 334.9 345.7 355.6 364.8 372.3 377.8 381.3 384.3 382 377.9 372.6 367.2 361.6 355.6 350 345.3 341 337.2 334.2 331.8 328.5 323.3 317.2 311.5 314.1 318.6 321.3 323.4 325.9 328.3 330.6 329.6 328.6 327.8 325.9 325.5 325.2 324.5 322.8 317.1 318.1 322 325.8 329.6 330.9 334.4 339.2 344 348.9 352.8 355.5 356.3 353.9 355 361.5 371.2 381.5 390 398.5
362.8 369.1 376.3 383.2 389.4 396.2 404 414.8 424.4 429.3 426.7 419.7 413.5 407.1 399.9 390.7 379.8 371.3 361.8 356.7 356.6 351 352.4 362.8 375.4 387.1 399.6 411.9 423.9 429 431.7 433.3 428.7 429 424.4 416.4 407.3 399.8 394.9 389.6 384 376.2 370.3 366.9 362.8 357.5 355.7 355.7 355.6 355.3 354.7 351.9 348 343.8 340.4 341.4 333.5 319.7 309.9 299 290.1 279.8 271.3 263.4 253.7 246.1 243.7 244 251 255.7 260.4 268.6 277.5 279.4 278.3 276.4 272.8 262.7 254.9 248.7 247.6 263.2 274.1 286.5 298.3 315.6 326.1 327.2 326.5 320.8 316.9 316.2 318.3 321.8 327.5 329.4 326.8 328.8 334.6 340.6 347.3 350.9 352.8 351.6 349.5 349.1 348.3 350.5 353.4 355.8 359.6 366 372.8 379 384.5 387.9 390.5 392 393.1 392.6 391.3 390.4 387 384.3 383.4 378.7 372.3 370.5 368.5 365.3 359.3 348.9 338.3 329.8 321.6 313.9 309.1 308.1 311.2 316.1 326.2 337.2 347.1 357.1 366.1 373.6 376.9 382.3 382.2 379.3 374.1 369.2 365.4 360.7 354.4 350.1 346.8 342.5 338.5 335.9 333.4 330 325.1 318.4 312.5 309.1 314.3 319.4 321.6 323.8 326.2 328.5 328.5 328.1 327.7 322.9 323.3 323.2 323.6 320.8 315.9 315.2 318.5 322.1 327.2 330.6 335 339 342.8 346.7 350.2 352.2 349 352.5 358.4 366.5 377.4 388.8 397.4 403.1
360.2 365.9 371.4 378.4 384.6 391 398.7 409.7 418.4 422.5 420.7 414.5 410 405.1 397.4 387.7 377.2 368.1 361.2 355.1 351.4 347 353.7 359.3 367.8 385.6 398.2 410 420.9 425.7 431.6 433.2 429.1 427.4 423.3 415.5 406.2 398.9 394.8 390.1 384.4 376.7 370.4 366.8 362.5 356.7 351.1 350 350.2 350.3 350 347.8 344.2 340.5 340.3 346.2 336.4 323 312.5 302.7 293.7 282.8 273.3 265.3 255.4 247.9 243.5 242.2 244.5 254 259.3 265.5 272.4 274.4 274.1 272.1 263.6 254 249.9 246.1 257.6 265.6 275.6 287.2 297.3 309.4 320 321 319.4 316.3 313.9 313.3 315.3 318.6 323.5 326.3 321.7 325.3 331.1 337.3 343.5 347 348.5 347.4 345.2 346.6 348.7 350.7 353.2 357.4 362.6 369.2 375.5 381 385.7 388.4 390.8 392.1 390.2 386.3 381.4 377.8 376 371.6 369.8 365.9 364.9 363.8 361.2 358.1 353.2 345.1 335.2 327.8 319.7 312.3 307.3 307.9 311.4 318.3 329.2 339 349.1 358.6 366.6 372.4 375.2 378.7 380.3 376.2 370.9 366.4 362.3 357.3 352.4 349.3 346.2 342.9 340 337.2 334.5 331.8 327.2 319.3 311.9 307 311.2 317 319.6 322.2 325.3 327.2 328.4 328.3 327.3 323.7 318.5 320.6 319.9 316.9 313.1 312.8 315.2 317.6 320.7 325.9 330.7 337.3 340.8 343.7 343.9 344.8 351 358.6 363.6 371.5 381 391.7 400.1 404.8
358.2 362.3 367.5 373.7 380 386.4 393.3 404.8 413.8 416 414.9 412.2 408.9 403.6 395.8 385.6 375.4 367.1 360.9 355.2 349.6 345.2 350.8 355.6 367.2 382.4 394.3 406 417.7 423.1 429.3 432.1 430.3 426.9 423.1 416.2 406.6 398 394.4 389.7 384.9 378.3 372.2 366.7 362.2 355.2 350.4 346.5 344.5 344.5 344.4 342.9 337.7 337.8 341.6 347.4 339.2 325.1 315.2 305.1 294.7 284.3 276 268.1 257.4 248.5 242.9 240.8 241.5 245.3 254.9 263.2 267.7 268.5 268.7 264.8 260.4 257.4 247.4 244.5 260.7 267.4 276.4 285.2 295.7 305.7 311.5 314.6 314.9 312.4 310.7 310.7 312.5 315.4 319 321.5 318 323.5 328.7 335 338.7 342.5 342.8 343.5 342 345.9 348.7 351.4 354.6 359.8 365.3 371.4 377.6 383.1 386.4 389.4 392.8 392.4 387.5 381.5 377.7 372.2 367.4 364.1 360.9 360 359.3 357.6 355.7 354.9 348.7 340.5 333.8 326.8 318.6 310.8 305.7 308.5 312.1 319.8 330.7 340.2 349.5 358.7 366.6 371.8 374.8 375.1 375.2 372 366.5 361.5 357.9 353.7 350.4 348.3 345.5 342.8 341.9 339.1 336 332.9 328.7 322.4 313.3 306.8 308 314.3 317.6 321.7 327 329.9 330.7 328.7 325.8 322.4 318.1 314 313.9 311.4 311.3 314 317.6 322.4 323.8 328 329.3 327.2 333.2 337.7 343 347.7 353.3 360.7 366.3 375.1 382 390.1 399.1 403.6
354.6 358.7 363.5 369.1 375.6 382 388.4 398.5 406.8 409.1 410.3 410 407.6 403.6 394.6 386.1 375.5 367.5 361 353.5 345.9 344.7 346.6 352.2 365.5 378.6 390.8 402.8 415.4 418.9 424.5 428.5 429.8 426 422 416.6 408.3 401.4 396.7 391.7 386.1 380.9 372.7 366.8 362 356.4 352.3 345.3 339.3 338.6 338 336.3 333.4 335.6 340 347 343.8 330.6 318.2 306.7 295.1 286.6 277.4 268.7 261.3 252.6 243 240 240.2 240.6 246.3 257.3 262.2 263.7 263.7 261 257.9 254.9 247 254.8 261.5 267.9 275.2 283.8 293.9 303.4 309 311.4 310.3 308.7 307.3 308.8 309.9 311.7 315.1 317.9 315.5 320.7 326.6 333.3 335.4 338.1 340.6 339.1 342.5 345.9 349.2 352.2 358.2 363.9 369.3 374.7 380.1 385.4 388.1 391.6 394.1 390.9 386.4 381.3 375.9 370.4 365.8 360.9 356.9 354.7 353.6 351.8 350.4 348.1 343.8 336.8 330.4 324.2 314.3 307.3 305 307.9 311.9 321.5 331.3 340.2 349.3 358.1 365.6 370.1 373.8 373 369.7 366.9 360.3 357 353.9 350.9 349.3 347.6 345.4 344.5 343.7 341.3 338.2 335 331.4 324.9 315.1 306.5 306.5 312.8 316.6 321.9 327.2 331 331.3 329.2 324.6 320 316.4 309.8 307.1 310 314 319.5 323.8 328.4 330.6 332.9 332.9 332.8 339.2 342.4 346.9 353.4 360 364.1 369 378.1 384.2 387.5 393.6 399.8
350.9 355 359.4 364.5 371 377.9 385.1 395.3 402.4 407.3 408.7 409 407.3 402.1 394.7 386.1 376.2 368 361.2 353.9 345.4 340 342.5 349.7 362.3 376.3 387.7 400.1 409 414.9 420.7 425.7 428.4 426.2 422.2 417.2 412 405.8 400.8 395.2 389.4 382.8 375 367.5 361.8 355.5 349.3 343.8 338.5 333 332.5 332 332.6 334.5 338.2 340.4 340.1 329.7 319.3 306.3 295.8 287.8 277.7 269.2 262.3 253.8 245.7 238.5 239.5 239.8 243.1 251.3 256.2 258.2 259.4 257.8 254.3 250.1 243.4 256.3 262.8 268.7 274.7 283.5 292.4 300.7 306.6 307.6 306.1 305.2 303.4 305.5 307.2 309 311.6 314.2 312.2 319 323.9 328.8 330.6 333 331.4 340.3 344.2 346.9 349.6 355.8 362.4 367.9 373.4 379.5 385.2 388.9 391.4 394.3 395 391.4 386.8 381.2 375.8 370.1 364.5 360.3 354.1 349.1 347.5 347.3 346.1 342.9 338.4 331.9 325.5 319.4 310.4 304.7 304.6 307.7 311.7 321.7 331.8 340.2 348.6 356.4 362.5 367.3 370.1 369.8 365.3 361 356.9 353.9 351.2 349 348.5 346.8 346.2 345.5 345.4 344.1 340.5 337.2 333.5 326.8 316.4 305.7 304.7 311 317 322.9 328.7 331.1 331.6 329 324.2 319.3 313.3 308.8 306.5 315.9 321.8 325.3 329 334 336.6 338.9 340.9 341.7 339 343.3 350.5 357.2 362.9 366 369.6 377.3 382.4 384.9 387.7 393.6
347.3 351.3 355.7 360.3 367.5 374.7 382 392.7 399.2 403.7 406.9 407.8 406.2 401.9 394.9 386.9 377.7 369.9 361.9 354.2 346.1 341.2 339.1 345.8 357.5 372.6 385.7 394.1 402.6 412.2 418.9 424.4 426.8 427.8 423.7 419.3 415.5 412.5 408.5 400.9 393 385.5 378 369.4 361.3 354.9 349.4 343 338 333.7 329.1 328.8 327.6 330.4 332.6 333.5 335.5 325.9 316.3 303.8 300 288.7 279.2 268 260.7 254 246.8 238.9 238.2 238.6 240.9 246.2 250.5 254.2 255.7 254.6 250.1 243.5 250 257.7 264 269.4 274.3 281.9 290.1 298.2 303.6 304 303.6 302.7 300.4 302.4 304.2 306.1 308.2 310.4 312.3 316.5 319.8 324.5 322.8 329.3 335.8 339.6 345.5 349 353.3 360.2 368 372.7 378.5 384.9 390.3 392.8 395.1 396.5 395.8 392.4 388 382.1 376.7 370.9 365.7 360.2 353.5 347.5 342.3 340.2 339.5 336.6 332.1 327.2 320.6 314.2 309 303.3 304.1 307.5 312.9 323.5 331.6 339.2 346.7 352.7 358.4 363.7 366.4 365.2 361.3 357.4 353.5 351.1 348.7 348.2 347.7 346.5 346 347.1 348.8 347.4 343.9 340 335.4 328.6 315.8 304.6 302.9 311.4 318.9 325.5 329.7 331.1 332 329.5 324.6 317 308.2 304.8 312.8 319.6 325.8 332.1 335.8 339.5 342 344.1 345.6 346.9 347.2 341.9 349.7 355.6 360.7 364.9 368.7 374.4 378.3 381.1 383.7 387.9
343.9 347.4 352 357.1 363.7 371.2 378.6 389.6 399 400.6 403.9 406.2 404.4 401.1 395.4 388.2 379.9 371.9 362.3 353.1 345.1 340.3 337 343.6 354.5 369.7 382.7 393.1 402.4 410.8 417.4 422.7 425.7 426.2 426 422.2 420.1 417.2 413.8 405.6 397 388.5 378.4 371 362.1 355.9 350.6 344.1 339.5 332.7 329.6 325.6 324.8 326.4 329.2 333.8 332.2 324.3 314 304.9 298.7 290.3 280.2 267.5 264 256.9 248.5 240.2 237.3 238 238.6 241.5 245 248.2 251.7 251 242.8 239.8 250.7 258.3 264.4 269.4 273.6 280.3 287.1 294.2 299.5 301.1 301.1 299.5 298 299 301.4 303.5 305.6 304.2 310.6 313.6 314.8 320.6 324.7 329.3 335.2 340.6 346.5 354.2 360.1 366.9 373.6 379.9 385.5 390.9 394 396.2 398.4 399.5 396.6 392.4 387.8 384.1 377.6 372.5 365.9 359.6 352.8 347.4 342.4 335 332.4 331.6 327.3 322.7 318.1 313.3 308.4 304.9 301.8 306.8 315.3 322.7 331 337.4 346.1 350.5 354.3 358.3 360.8 358.9 356.2 353 349.9 348.5 347.8 347.3 346.8 347.5 348.2 349.3 350.6 349 346.2 342.5 337.7 329.5 315.9 302.7 304.7 311.6 320 326.5 330.1 330 329.4 329.5 323.1 315.1 306.6 304.8 314.5 321.3 328.1 335.1 340.5 343.7 346.5 348.7 350.1 351.8 353.3 353.6 347.6 355 358.7 361.2 363.2 369.5 374 378.6 382.2 384.7
337.9 342 347.5 353 359.8 367.3 375 387.2 396.9 400.7 402.7 406.6 404.7 400 395.2 388.8 381.1 372.8 361.8 351.1 343.3 338.1 335.7 341 350 363.9 378.8 392.1 401.8 412.5 419.2 423.4 426.6 426.6 425.9 426.8 425.5 422.1 416.2 405.3 397.8 387.9 378.7 368.8 361.2 356.4 350.5 343.1 336.6 332.2 328.8 325.4 322.5 324.1 328.2 331.5 330.6 323.2 315.1 304 296.8 288.8 279.6 268.6 261.3 256.4 249.2 240.4 236.1 237.1 237.3 237.1 238.5 242.3 245.3 245.2 241.8 241.8 251.1 259.2 264.7 268.8 273 279.4 284.4 291.1 296.1 298.4 298.7 297.9 296.6 298.4 300.4 301.8 301.8 303.6 306.9 305.9 314.4 317.4 321.8 328.6 338 343.8 351.6 360.8 367.9 374.6 382.8 389.1 391.9 395.5 397.3 399 399.9 398.7 396 392.3 386.6 383.4 379.2 373 362.6 357 352.4 347.2 341.5 333.8 327.6 326.8 323.7 318.8 313.5 311.4 307.9 303.8 300.2 307.7 315.2 320.3 326.2 334.8 342.4 347.2 350.3 353.3 354.9 353.8 351.9 349.4 346.3 345.5 345.2 344.9 344.7 346.2 347.7 350.4 350.7 350.1 348.6 346.1 339.4 330 316.8 303 302.4 310.9 321 327.9 330 329.1 326 325.2 320.6 312.3 303.5 307.4 316.2 323 330 337 344 347.5 350.8 353.3 355.5 357.9 359.4 359.6 357 355.6 359.3 364.8 368.7 372.2 376.2 379.5 382.1 384.8
337.9 336.5 342.4 347.8 355.5 363.2 372.4 383.9 394.9 401.4 404.2 405.8 405 400.2 395.3 389.4 382.3 374.5 363.2 351.5 342.1 336.9 332.9 334.3 345.2 361 375 388.2 401.3 412.5 420.8 424.5 424.7 424.1 423.4 427.7 428.3 424.8 416.6 405.1 395.4 385 376.2 365.7 360.4 354.7 348.6 342.2 335.9 330.3 326.8 323.6 320.3 321.6 324.4 327.3 327.3 320.7 313.3 304 296.2 288.8 279.8 267.2 258.8 255.2 249.3 240.5 233.7 235.7 235.9 236 235.5 236.9 238.6 238 238.6 239.4 252.7 257.9 262.7 267.4 272.3 278.3 282.7 289.5 293.2 296.2 297.2 296.5 295.3 297.2 298.9 299.7 298.7 301.4 299.1 308.1 310.5 315.6 321.3 330.6 339.9 348.5 357.7 367.5 376.3 384.4 393.4 398.9 402.7 405 404.8 403.4 400.6 397.2 394.3 389 383.1 379.3 375 368.6 359 355.3 351.8 347.5 340.4 332.6 325.9 321 316.8 315.8 311.3 308.7 305 300.5 298.8 308.9 316.1 321.2 326.8 333.3 339.3 342.7 346.1 349 350.5 350.7 348.9 346.5 343 341.7 342.4 342.8 342.6 344.9 348.4 350.7 351.7 352.8 351.4 348.4 339.9 330.4 318.6 305.2 298.6 309.3 320.1 327.2 329.3 327.3 324.5 323 318.7 308.7 301.1 309 317.4 325.4 332.6 339.8 345.5 350.7 354.9 358.7 361.4 363.9 365.3 365.4 364.9 365.3 367.2 367.5 370.7 374.5 376.4 379.8 382.7 385.3
337 334.7 338.6 344.6 351.3 359.3 369 381.9 395.5 401.9 404.2 406 405.5 400.6 395.6 390.3 383.5 376.4 365.1 353.7 343.3 336.6 332.6 331.8 340.3 355.5 371.9 385 399 409.5 417.6 421.5 422.1 421.5 422.1 425 425.7 422 413.8 401.8 391.9 382.2 372.9 365 358.8 354.2 347.9 342.3 335.3 329.9 325.8 321.8 319.1 318.9 319.3 322.8 324.9 317.1 312.3 303.6 295.5 287.4 278.4 267.2 260 254.9 249.6 244.7 235.4 233.9 233.7 235.2 234.6 235.7 236.5 236.9 236.9 244.6 252.6 256 263 269.7 275 279.8 282.1 286.6 291.5 294.6 296.5 297.7 295.3 295.1 296 295.3 296.8 295.8 301.8 306.2 309.7 316.2 322.6 332.1 343.7 355.4 366.2 376.7 386.4 395.4 403 408.7 409.5 411.1 409.1 405.6 401.5 396.6 390.7 385.4 378.6 374.3 368.7 365 358.8 356.5 353.3 347.6 339.6 331.4 324.5 319.6 313.6 308.8 307.9 306 302.2 297.6 301.6 309.3 316.5 322.6 328.3 333.7 338.2 339.9 342.5 344.7 346.6 346.8 346.8 343.8 340.5 339.5 340 340.8 341.9 346.1 349.8 352.6 354.2 356.7 355 347.7 339.8 330.3 318.8 306.3 298.7 308.9 318.4 324.9 326.9 325.3 323.5 320.4 314.8 305 303.8 311.9 319.5 328.1 336.1 341.7 346.3 351.2 357.3 363.5 366.1 369.2 370.8 370.6 368.7 368.9 369.9 369.4 371.1 373.6 375.3 379 382.8 386.1
337.8 332.8 334.5 341 347.8 354.5 364.2 379 395.5 402.4 405.1 406.5 406.3 401.1 396 390.4 384.9 378.1 367.7 356.2 345.3 336.4 332.6 329.6 336 350.9 367.4 380.8 393.4 405.1 413.6 417.5 418.9 417.3 416.5 418.5 420.7 416.7 408.4 399.9 386.8 379.2 371.4 365.3 358.7 351.6 346 341.7 334.7 329.7 325.8 320.3 316.7 315 316.1 318.2 319.9 318.6 312.7 308.5 295.4 287.1 277.4 266.7 260.9 255.6 248.6 244.5 234.7 233.9 233.1 232.9 233.6 234.7 235.4 235.5 237.6 247.5 253.7 258.7 264 271.3 277.4 283.7 288 290.4 293.9 296.2 298.4 299.5 297 293.9 293.4 292.1 292.4 295.6 300.8 303.4 307.3 315.6 323.2 335.2 347.6 359.1 371.9 383.6 393.6 401 410.3 413.2 412.2 413.5 412.1 407.7 401 395.9 388.1 380.8 374.5 370 366.1 362.3 358.1 356.2 353.8 347.7 340.1 330.8 322.7 317.5 312.1 307.6 302.8 302.4 297.9 297.1 303.3 309.4 316.4 323.7 329.2 334.1 337.2 338.5 338.9 340.7 342.6 343.9 343.4 340.9 338.3 338.4 339.2 340.6 343.3 347.9 351.4 354.2 357.2 359.1 352.9 346.1 338.5 329.4 318.3 306.1 298.5 307.6 316.6 322.5 325 323.5 320.9 316.9 309.4 299.6 306.3 313.5 320.4 328 335.6 341.8 346.9 351.8 357.9 364.4 368.4 370.4 372.5 372.1 372.4 371 371.4 371.2 370 371.7 373.6 377.6 381.7 386.1
340 335.2 333.2 335.6 342 350.2 359.4 374.1 393.6 402.1 405.7 406.9 407.5 403.5 398.3 392.6 385.8 378.6 369.8 359.5 348.5 338.1 332.6 327.2 333.9 347.2 361.8 374.3 389.6 400.3 407.9 410.3 410.3 409 409.1 411.7 414.6 413 405.8 394.7 383.9 376.6 369.6 363.3 357.1 351.2 345 340.2 334.5 330.5 325.4 319.8 315.8 313.1 313.8 315.8 319.1 316.9 312.2 305.7 294.7 287.6 276.9 267.2 261.2 255 247.3 241.9 240.4 233.4 232.7 232.1 231.5 233.5 233.2 234.8 237 246.1 254.5 260 266.7 272.9 278.4 284.5 291.1 294.1 295.3 298.4 299.9 300.9 298.4 295.8 292.5 290.6 292.4 293.9 296.8 300 306.2 314.2 323.9 336.8 349.9 362.8 375.5 388.7 395.3 402.6 410.6 412.8 411.1 410.7 411.5 406.6 400.4 393.5 385.7 379.1 373.8 368.5 364.6 361.1 356.5 354.5 350.5 345.6 338.4 329.9 321.8 315.8 310.2 304.8 300 297.8 293.4 297.7 303.6 308.8 316.7 324.8 331.6 335.7 337.7 338.1 337.6 338.4 340 341.2 339.1 337.9 337.2 338.3 339.5 341.3 344.8 349.1 352.9 355.7 359.7 361.1 355.9 346.2 337.1 327 316.4 305.3 298.8 306.4 315 320.8 323.9 322 318 312 301.5 297.7 307.1 314.1 321.2 328.1 334.3 339.7 345.5 351.3 357.9 363.2 366.8 369.8 371.9 373.3 373.6 372.8 371 369.7 369.8 372.2 376.6 381.3 385.9 389.1
344 334.5 331.2 330.8 337.7 346.8 354.7 366 385.7 400.8 405.6 407.1 408.7 405.8 400.3 394.6 388.5 380.7 370.5 362 351.9 341.6 335.1 327.3 331 341.8 355.8 368.7 383.1 392.3 398.2 400.1 400.2 399.1 400.4 404.8 407.4 408.2 401.1 392 380.6 373.6 369 363.1 357.7 350.9 344.3 340.4 336 330.8 325.7 320.3 315.1 309.8 312.7 314.2 317.4 313.2 308.6 303.2 293.4 285.4 274.6 266.4 259.9 253.6 245.6 243.6 241.6 235.1 231.3 230.7 230.1 230.7 233.1 234 239.7 247.6 254.4 260.8 267.4 275.1 282.4 287.8 294.8 298.3 301 302.8 303.8 302.5 299.4 296.9 293.5 289.2 289.7 291.6 293.7 297.5 304.2 313 322.9 336.1 350.3 363.4 375.2 387.2 393.2 402.1 407.5 408.4 406.9 407.4 407.2 402.6 396.4 390.6 383.6 379 374.1 369.1 363.3 358.7 354.1 350.3 346.6 342.5 336.8 328.6 321.9 315.1 306.9 301.4 297.8 293.6 291.6 298.8 303.6 309.7 317.8 325.7 333.1 336.3 336.9 336.5 336.5 336.4 336.5 336 334.4 334.7 336.7 338.3 340.1 342.5 346.2 350.1 353.8 357.7 361.6 362.1 357.4 344.6 334.4 324.8 314.9 303.4 296.3 304.2 313.1 318.4 319.8 317.4 313 306.3 298.3 296.4 305.6 314.1 322 328.9 335 338.4 342.3 349.2 355.6 361.2 366.3 369.2 371.2 373.5 373 371.8 370.4 369.8 370.6 374.3 377.2 380.6 385.7 390
