ncols 200
nrows 82
xllcorner 330000
yllcorner 643600
cellsize 50
553.6 548.3 545.2 543.2 541.8 533.6 547.2 560.8 570.1 576.3 580.7 584.7 590.7 594.5 597.7 599.3 600.5 601.8 605.5 608 609 608.3 607.1 606.2 605.3 605.9 606.1 611.2 617.1 621.7 624.7 625.9 625.8 623.8 622.8 620.3 618.7 616.6 613.2 609 605.6 601.6 598.2 594.3 591.5 587.9 585.1 582 581.2 579.1 581.4 582.5 585 587.3 589.7 591.5 592.4 592.1 592 590.3 587.9 585.7 582.3 579.6 576.3 573.5 571.3 566.2 560 553.9 542.8 537 532 533.5 532.2 527.1 517.6 508.9 500.2 493.2 485.3 477.8 469 462.5 457.3 449.9 441.1 433.6 426.7 419.2 411.2 398.1 377.2 363.7 358.8 362.5 355.3 337.4 343 356.7 386.5 408.3 423.6 451.3 473.5 485.7 490.8 491.7 489.9 486 483.5 480.6 478 475.1 470.7 465.3 458.2 450.3 450.9 453.6 455.2 454.4 454.3 453.2 453.1 459.8 468.4 477.9 486.6 493.6 499.8 503.9 507.2 507.8 506.6 503.8 494 478.3 479.9 473.5 465 453.8 444.4 435 431 429 435.8 453.2 474.3 491.2 502.4 513.2 523.7 530.6 531.3 527.6 522.2 512.9 505.3 496.1 476.8 458 441 445.1 465.4 483.7 498.4 510 520.4 524.4 521.9 514.9 506.4 496 484.1 471.6 460.1 448.6 435.8 424.6 415.6 405.6 395.9 386.6 376.5 368.7 362.7 353 347.6 366.9 380.7 394.8 408 418.2 425.3 430.6 433.7 433.7 431.9 429.1
565.7 559.3 554.8 551.7 549.2 545.7 547.7 557.1 562.8 566.4 570.6 576.1 581.2 585.3 588.9 592.1 594.2 597.4 600.6 602 601.6 600.4 599.7 599.3 599.3 598.2 607.3 613.8 619 622.3 624.4 626 626.1 624.9 624.4 622.6 619.7 617.1 614.2 610.6 606.9 603.2 599.7 595.7 592 589 585.6 583 578.3 578.9 580.4 582.6 585.2 587.8 590.4 590.9 591.4 591 590.7 588.9 586.2 584.3 581.1 578.9 576.4 574.1 571.8 566.2 560.2 553.2 550.8 550 548.5 544.7 540 533.2 524.9 515.2 506.6 496.4 487.6 478.6 471.7 465.2 456.7 448.3 440.4 432 424 415.8 404.3 382.7 381.8 383.7 378.2 374.1 357.4 338.3 338.7 366.1 395.5 420.8 438.3 459.9 477.2 487.3 491.9 492.4 489.6 486.1 482.1 478.6 473.5 469.2 463 455.4 454.8 457.6 459 459.9 460.6 460 460 458.8 459 458.5 469.9 478.1 487.1 494.7 503 509 512.2 513.3 512.6 510.6 502.3 500.4 498.3 493.5 485 469.9 455.2 448 441.7 436 439.7 448.9 466.4 482.7 493.3 502.6 511.7 519.2 522.9 521.9 517 511.8 505.6 495.3 474 453.2 437.8 439.4 458.7 478.5 494.9 506.7 517 519 515.1 507.9 499.8 489.7 477.9 466 454.2 441.8 429.5 419 407.5 398.9 389.5 381.1 372.7 365.6 359.9 356.1 343.5 368.8 382.5 393.9 406.5 416.4 423.6 429.4 432.4 434.3 434.9 432.9
573.9 567.1 561 556.8 552.7 550.6 548.2 548.9 544.8 543.5 551.4 562.8 567 574.5 581.8 584.5 586.9 592.6 594.8 595.5 594.1 593.5 593.2 592.7 596.1 602.1 608 614.1 618.8 622 624.5 626.2 627.3 627.5 626.1 624 621.5 618.5 615.3 611.9 607.6 603.8 600.6 597.3 593.5 589.5 586.9 583.7 578 575.3 579 582.6 586.2 588.8 590 591 591.1 589.8 588.9 586.9 584.9 583.5 581.5 579.5 576.8 573.7 570.7 564.5 560.4 560.7 558.6 557.6 554.6 549.9 543.6 537.2 528.9 520.4 509.9 499.9 489.6 480.5 472.9 465.3 456.8 448.5 439.2 429.8 417.9 407.5 387.8 393.3 401.7 400 392.4 374.9 355 339.1 345.9 371.2 400.5 426.4 447.6 468.1 481.4 489.7 493.8 493.4 491.6 486.4 481.7 476.9 469.5 462 458.6 459.1 462 463.4 463.8 464.1 465.4 465.6 465.7 464.9 466.5 467.4 471.3 478.8 489.2 497.7 505.6 512.5 517.4 519 517.5 515.1 512.7 510.6 507.4 504.3 496.7 483.7 472 466.4 455.6 446.6 443.1 450.5 459 474.6 485.5 495.9 506 513.2 517.6 518.3 515.8 512.2 507.4 494.8 469.9 448.1 431.1 433.1 453.1 472.3 488.9 501.9 509.9 510.9 508.7 502.2 494.7 484.2 471.3 459.7 447.2 435.5 424 412 400.9 391.2 383.4 376 365.2 355.3 350.1 348.2 348.8 368.2 379.6 390.6 401.5 412.2 421.2 428.8 432.1 434.8 436.1 434.8
580.1 571.7 565.1 558.9 553.8 548.9 540.6 532.5 537.1 549.2 555.7 552.6 559.2 561.4 568.5 576 583.7 587.8 589.4 589 588.4 588.4 589.5 592.9 597.3 602.3 607.6 612.8 618.2 622.2 625.1 626.9 629.3 629.1 627.4 624.7 622.1 618.9 616 612.7 608.9 605.2 601.3 598.5 595.1 591.1 587.4 583.7 576.5 570.5 577.5 581.6 584.9 587.5 589 590.7 590.5 589.5 587.4 585.2 583.3 582.2 579.6 578.3 575.7 571 565.3 567.7 568.5 566.6 563.6 560.5 556.9 552.8 546.5 539.5 532 523.2 512.7 503.1 493.4 483.5 474.7 465.3 456.6 447.1 437.5 423.7 405.5 395 404.5 409.9 414.4 408.6 393 372.4 348.3 340.3 348.6 375.5 401.7 428.2 454.3 473.8 485.9 492.3 495.2 494.6 492.5 487 481.1 475.1 468.8 462.1 460.3 464.6 466.9 468.5 469.4 470.1 471.8 471.4 471.9 473.3 474.6 475.9 477.9 483.2 490.7 495.9 509.8 517.4 521.5 523.2 522 520.4 519 517.4 514.1 510.7 507.5 496.4 489.8 486.8 472.5 460.1 455.7 456.8 457 467.4 477.9 490.8 503.4 511.6 515.9 518.5 516.9 513.6 508.9 492.6 468.4 445.1 427.3 426.6 442.7 463 481.2 496.6 503.9 504.8 502 496.8 488.3 476.7 466.8 455.2 442.5 430.2 418.4 407.1 397.9 388.5 378.8 375.2 374.2 370.1 364 346.2 347.9 362.7 372.4 383.2 393.9 404.7 415.6 424.8 430.1 433 433.9 432.8
581.7 573.5 565.1 557.7 547.9 537 527.1 533.4 545.7 555.1 561.7 568.3 572.5 576.1 577.2 574.5 578.3 581.9 583.4 582.1 583.4 587 590.2 592.7 596.3 600.3 606.1 611.8 616.8 621.6 624.8 626.6 627.8 627.3 625.9 624 621.2 618.7 616.2 612.8 609.2 605.9 602.3 599.1 595.4 590.7 587 583.3 575.5 568.3 575.4 580.1 583.6 586.8 588.4 589.7 589.6 587.8 585.8 584.1 581.6 579.9 578.5 577.4 574.8 573.2 573.4 574.5 573.3 570.7 568.1 564.8 560.5 554.9 549.6 543 533.7 525.4 515.9 506.3 496.3 485.8 474.1 463.5 452.6 441 428.5 416.4 413.1 422.3 426.8 426.3 422.8 409.8 387.2 368 343.8 341.8 357.7 390.2 412.2 436.2 460.5 477.5 488.5 493.3 495.9 495.2 491.4 486.9 479.7 473.5 467.6 461.6 466.1 469 471.3 473 474.7 476.4 477.4 478.8 479.3 481.1 482.8 484.1 486.5 491.3 497.3 505.1 513 519.2 523.2 524.9 526 525.5 524.4 521.4 519.5 517.1 513.9 510.1 506.5 503 490.9 479.2 474.2 470.8 476.3 481.4 494.3 502.5 508.1 514.1 518.3 521.1 519.5 515.8 509.2 493.5 468 443.8 425.9 417.8 430 453 471.1 487.3 494.5 496 494.4 488.8 480.1 471.5 461.3 449.3 438.3 426.8 415.7 404.4 394.9 388.9 384.7 382 379 374.1 368 349.2 335 346.9 358.7 370.4 381.4 392.2 404.6 416.4 424.8 428.4 429.8 428.9
580.6 571.1 562.4 551.1 534.2 521.8 525.9 538.7 548.2 557.8 565.1 571.3 576 579.4 580.5 580.8 579.8 578.6 581.7 584 585.9 588.2 589.8 591.8 595 598.4 604.1 610.1 615.5 619.2 621.5 623.1 624.8 624.2 623.2 621.5 620.3 618.3 615.6 612.4 608.8 605.5 602.2 598.6 593.9 589.2 586.1 580.9 571.4 565.9 573.7 578.4 582.8 585.7 587.7 588.5 587.8 586.1 584.2 582.3 581 580.5 578.9 576.9 574.8 576.1 576.5 577.8 577 574 572.3 568 562.3 559.3 552.5 545.1 536.4 528.6 519.5 508.9 497.2 484 474.8 464.6 454.8 439.7 423.6 429.2 434.7 442.2 441.8 437.6 429.5 407.6 384.9 365.6 346.7 343.4 354.8 386 420.3 441.2 461.6 478.7 490.2 494.1 495.5 492.7 488.7 483.3 477.5 472.2 466.8 466.2 470.6 473.3 476.2 478.5 480.9 483 484.8 485.5 486.8 488.6 490.5 492.4 495.3 499.7 504.6 511.2 516.9 521.5 524.9 527.3 528.1 528.2 527.4 525.3 523.8 521.9 518.5 515.5 512.1 508.9 495.6 501.3 496.1 485.2 497.6 501.7 506.1 511.5 516.4 519.5 522.9 524.3 521.5 516.4 507.9 494.3 468.4 444.7 424.9 410.4 418.1 443.3 461.5 476.9 485.2 487.1 485.5 480.5 473.1 465 454.9 445 435.3 425.5 414.7 403.5 400.3 396.1 391 387 382.4 377.6 371.6 362.4 343.6 333 337.8 352.4 367.5 378.1 390.1 406 418.2 422.6 423.8 423.1
575.8 566.6 556.1 540.9 523.5 518.9 530.5 544 552.3 560.4 568.1 574.4 578.7 580.5 581.4 581.8 583 583.6 584.5 585.5 586.7 587.8 589.1 591.2 593.8 598.1 603.4 608.1 612.8 616.6 618.3 620.2 621.7 621.6 620.5 619.6 618.3 616.4 614 612 608.8 606 601.9 595.4 591 587.7 582.4 578.1 568.5 564.3 570.5 575.9 581.4 584.4 586.6 587.6 586.5 585.3 584.1 581.9 580.4 579 578 577.4 576.4 578.1 579.4 579.9 578.6 577.6 575.1 570.4 566.9 561.8 555.7 548.2 540.2 532 523.2 513.2 500.5 492.6 481.5 468.8 451.2 448.1 446.1 449.7 453.6 455 452.1 445.6 434.1 407.4 382.9 365.4 351.7 344.5 354.3 385.6 422.5 441.3 457.1 474.5 484.8 488 488.8 488.1 485.2 480.3 476.3 472.7 468.2 469.1 473.4 477.4 480.8 483.5 486.5 489.6 491.3 492.8 494.5 496.5 498.8 500.9 504.1 507.6 512.2 517.3 522.5 525.9 528.3 529.9 530.5 530.4 529.9 528.9 526.6 524 521.4 518.8 515.7 512.9 508.4 509.4 509.5 498.5 508.8 511.4 513.7 517.7 520.6 523.2 525.9 526 521.2 514.6 505.6 493.9 469 445.4 424.5 405 414.4 436.2 452.9 467.5 475.9 477.9 476.4 472.8 466.2 459.5 451.9 443.1 434.5 426.8 418 412.3 407.6 402.9 396.7 391.8 386 381.3 375.9 369.3 356.8 342 329 337.3 355 367 382.7 398.1 409.9 413.5 414.5 415.5
569.8 560.1 548.2 529.6 515.2 517.2 533.5 546.8 555.7 563.6 570.8 575.9 580.5 581.3 581 582 583 583.7 584.8 585.3 585.9 587.1 588.1 590.7 593.6 597.7 602.7 607.3 611.1 614.7 617 617.6 618.8 619.4 618.5 617.5 616.7 615.3 613.2 610.6 606.5 603.8 599.2 593.7 588.8 584.1 578.9 574.1 568.5 559.3 570 575.9 578.3 582.3 585.2 585.9 585.2 584.1 582.1 578.8 578.1 577.2 577.3 577.5 578.3 579.3 580.6 580.8 579.9 578.8 577.4 574.2 570.3 565.1 559.1 551.6 544.3 536.5 527.7 517.8 507.8 497.3 485.7 472.3 460.9 464.3 465.6 467 466.7 464.6 459.6 451.8 437.6 409.9 386 369.3 355.9 346.5 355.9 390.4 417.7 434 444.9 459 464.6 473 482.4 483.6 482.5 479.7 476.8 473.7 470.9 470.6 476.9 481.3 485.2 488.9 492.2 495.8 497.8 499.5 501.9 503.8 506.5 509.4 512.3 516 519.9 524.8 527.7 530.2 531.4 532.1 532.3 531.7 531.3 529.5 527.5 525.3 523 520.3 517.8 515.6 513.9 514.1 514.4 512.2 513.8 515.3 517.3 519.1 520.9 522.8 524.7 522.7 518.4 510 501.1 490.3 469.6 446.9 423.5 404.9 405.8 427.5 444.6 457.3 466.1 469.2 468.9 465.6 461.4 456.2 449.6 445 438.4 432.8 426.6 420.6 415.4 409.4 403.2 397.9 392.3 386.8 381.4 375.4 368.5 350.9 333.2 327.6 343.2 364.8 381.9 396.6 407.3 404.4 406.3 409.4
561.5 550.5 537.4 518.9 507.5 513.9 534.9 549.3 557.7 565.2 572.4 577.7 580.7 580.3 581.4 581.6 583 584.3 584.6 583.7 583.9 584 586.1 589.6 593.5 597.9 601.7 605 608.7 612 614.5 616 616.8 617.3 617.3 616.1 615.3 613.6 611.3 608.4 604.6 600.9 595.5 590.3 585.6 581.5 576.5 570.4 562.9 556.7 568 572.3 577.1 580.4 583 583.3 582.7 581.8 579.2 576.4 577.5 576.7 576.4 577.2 578.8 580.1 581.2 581.1 580.8 581.1 579.5 576.2 572.7 568.4 562.9 556.2 548.8 541.4 533.6 523.3 512.2 500.7 487.3 475.4 482.2 481.3 479.7 478.7 475.9 470.4 464.6 456.2 441.1 412.7 388.1 369.9 356.7 348.1 358.9 392.1 402.5 412.4 421.5 433.1 437.2 452.2 478.3 483.2 483.1 480.9 478.2 476.7 473.9 470.9 478.3 483 487.8 492.7 497.1 501.7 504 506.5 508.7 511.1 514.3 517.4 520.4 524 527.6 530.7 533.4 533.4 534.9 534.3 533.5 531.9 530.6 528.5 526.7 524.8 522.1 519.7 517.1 516.3 515.7 516.7 516 514.8 513.6 514.6 514.9 514.5 515.2 516.8 518.4 516.5 510.3 503.7 494.9 484.1 469.5 446.8 424.8 404.1 397.2 417.3 434.8 446.3 455.2 459.4 461.9 460.9 458.5 454.2 450.8 446.7 442.5 437.6 432.2 427.5 422.7 416.4 410 404.7 399 392.7 387.1 381.1 374.1 361.6 340 324.2 332.8 357.7 374.1 388.7 398.7 395.7 402.2 408.1
549.7 538.3 525.9 510.9 504.1 512.5 533.3 548.6 556.7 564.8 571 576.5 579 578.6 578.9 579.2 580.9 582 581.2 580.1 579.3 581 585 589 592.4 596.4 599.3 602.3 605.8 609.5 611.6 613.5 614.9 616.1 616.5 615.8 614.6 613 611.6 608.8 605 600.1 594.3 588.6 584 577.3 573 567.3 555.5 553.6 563.3 568.4 573.9 577.7 580.6 581.1 580.1 579.3 577.2 577.8 576.8 574.8 575 576.2 578.5 579.9 580.1 580.4 582 582.5 580.2 577.6 573.8 571.7 566.7 560.3 552.9 545.7 537.2 527.9 516.5 509.7 503.3 498.9 495.9 491.3 489 485.5 481 473.7 467.1 458 442.6 415.5 391.4 373.9 360.6 351 356 368.7 379.3 388.7 399 407.9 426.8 455.2 478.9 485.2 485.5 481.8 480.3 478.3 476.4 474.1 476.9 482.5 488.8 494.7 500.2 505.9 509.9 512.5 514.4 518.2 522.4 525.3 528.2 531.7 534.5 535.9 536.6 536.2 535 533.6 531.5 529.8 527.9 526.1 524.2 521.8 520 517.5 515.6 514.7 514.6 514.7 513.5 511.3 509.3 507.6 506.2 505.8 505.5 506.5 508 506.4 501.1 494.5 486.5 476 463.1 448.5 427.1 403.1 390.5 406.6 425.9 437 444.6 451.7 456.3 458.3 456.5 454.6 453.2 449.9 446.1 442.6 438.4 433.5 428 422.2 414.8 409.4 404.4 398.1 391.9 385 377.3 365.4 342.7 324.6 330.6 350.9 364.9 375 381.8 381.9 396.8 406
535.5 526 515.6 503.7 501.9 512.6 532.7 546.8 555.5 563.9 569.1 573.2 574.9 574.2 573.2 574.5 576.5 577.6 576.6 576.4 575.6 577.3 581.5 585.6 589.3 592.2 597.2 601.4 605 607.2 611.6 613.8 615.7 616 616.4 615.4 614 611.3 609.2 606.2 602.5 597.8 592.9 588.6 583.5 579.5 574.5 569 560.5 547.3 552.8 564.2 571.5 576.2 578.8 579.5 580.1 578.8 578.4 577.5 576.3 574.7 573.8 575.8 577.7 578.6 578.6 580.5 582.2 582.6 581.1 579.1 576.9 575.1 569.6 563.5 557 549.9 542.3 534.1 525.4 521.2 513.4 507.9 503 499.1 494.3 489.3 483.7 476.4 467.8 458.8 443.3 418.1 395.5 378.4 367.5 356 352.1 369.6 396.9 409.9 415.6 427.4 443.4 467.5 483 486.9 485 483.2 482 481 480 476.6 482.7 485.2 489.5 495.5 502.8 509.2 514 518.1 521.5 524.9 529.5 532.8 535.9 538 538.5 537.7 536.8 534.7 531.8 530.5 527.9 526 523.8 521.8 519.6 517.7 516.7 515.1 513 511.8 511 510.2 507.8 505.9 501.9 499.3 496 494.3 493.5 493.5 493.8 492 487.3 481.4 474.6 465.6 454.7 442.9 428.8 404.7 384.8 398 415.9 425.5 435.5 444.2 451.5 454.6 455.2 456.7 457 454.2 451 447.3 442.3 437.4 431.7 426 419.7 414.1 408.8 402.2 395 386.8 377.5 363.6 340.5 322 325.4 336.3 352.2 360.4 365.1 371 391.7 400.3
528.4 528.9 523.9 504.6 499.1 513.4 532 545.1 553.2 560.9 566.3 568.1 569.1 568.7 566.7 569 569.9 569.1 567.9 566.4 562.7 568.3 571.9 577.5 585.1 592.4 598.3 602.7 606.8 609.9 612.2 613.9 615.1 615.8 615.3 613.1 610.9 609.2 606.3 602.5 599.2 595.4 591.5 586.6 583 579.4 574.9 570.2 560.5 540.5 542.8 558.7 568.9 574.1 577.8 579.2 579.3 579.3 577.8 575.4 575 573.1 572.8 574.3 577.2 577.8 578.3 580.3 582.7 583.3 582.8 581.6 580.4 577.9 573.9 567.3 561.1 554.7 547.1 538.9 533.6 529.8 522.3 515.2 509.4 504.2 498.6 491.9 485.4 477 467.1 457 444.8 425.2 400.8 382.7 372.1 359.3 355.4 378.9 407.7 426.6 441.7 456.1 468.6 481.5 488.2 486.7 484.4 483.6 483.1 483.9 483.3 483.5 487.8 492.2 496.9 502.9 509.1 515.1 520.4 524.8 528.4 532.3 536.8 540 541.8 541.1 540 537.3 534 530.9 527.9 525.2 523 521.1 519 516.2 514.3 513.7 512.4 511.4 509.4 508.5 507.7 505.9 502.9 499.4 494.7 489.4 485.1 481.6 479.4 476.7 475.3 474.3 471 466.3 460.8 453.7 444.3 435.1 423.4 406 380.7 389.4 403.7 414.9 428.1 438.1 447 452.6 456.3 458.4 460.4 458.4 455.2 450.3 445.5 440.6 435.6 430.6 424.9 419.5 413.6 406.9 398.4 388.8 378.4 362.6 340.2 323.7 316.9 323.6 333.6 345 357.7 373.6 387.7 395.1
538.8 534.8 524.4 503.7 497.5 516.4 532.1 543.8 552 558.5 561.4 562 561.1 563.4 560.1 560.8 560.1 556.8 553.2 548.4 561.3 568.9 576.4 583.4 588.5 594.2 599.5 604.2 606.9 611.3 613.8 614.8 614.8 614.3 613.1 611.4 609.5 605.8 603.3 599.6 595.7 591.2 588 584.3 580.8 576.8 573 568.6 561.3 548.8 527.4 548.2 564.7 572.3 576.6 579.5 579.9 579.1 578.3 577.5 575.9 572.2 569.8 573 574.5 575.8 577.5 580.4 582.6 584 584.8 583.7 582.2 579.8 576.7 570.8 566.2 559.6 551.9 546.1 540.5 535.4 527.4 520.4 514.4 508.5 501 492.9 483.9 474.9 464.9 454.4 441.2 424.6 399.4 384.3 373 360.3 358.2 388.7 420 442 460.9 475.9 484.7 488.4 488.2 484.3 482.6 483.4 485.1 487.1 488.2 488.9 493.5 499.5 505.2 511.1 516.4 522.8 526.9 530.4 535.1 539 543.6 544.6 544.1 542 538.5 533.9 529.8 526.4 522.5 519.3 517.3 515.9 513.2 512.1 509.4 508.3 507.1 506.9 506.3 504.2 503.8 500.9 496.8 492.5 487 479.6 472.5 467.8 463.1 460.7 459.2 456.9 452.4 448.3 444.4 439.5 432.5 424.2 415.3 403.8 378.5 382.5 400.8 412.9 424.5 434.3 443.5 450.3 454.9 459.6 462.3 461.4 458.7 454.3 450 445.4 441 436.4 431.1 423.9 417.8 410.4 401 389.9 378.5 365.3 349.6 331 317.7 314.7 328.3 345.9 359.9 372.6 382.9 390.4
540 531.4 517.9 497.6 499.2 519.6 533.5 543.5 550.9 558.7 557.8 554.6 553.1 551.4 548.5 548.1 547.1 539.6 544.7 557.6 565.7 573.3 580.6 587.3 594.7 598.7 601.4 605.4 609.1 612.5 613.6 615 615.2 614.3 612.6 609.8 606.6 603.7 600.7 598.2 593.7 588.7 582.2 579.1 575.8 573.5 568 564 558 549.9 524.5 537.1 560.8 570.6 576.4 579.3 580.8 579.9 579.1 578.2 575.5 571.1 568.2 568.9 569.3 572.7 575.1 578.2 581.4 583.9 584.3 585 584.5 581.9 579.7 575 569.9 564.5 557.9 551.4 544.7 538.9 531.8 525.8 517.9 510.1 501.3 493.1 484.2 475.7 465 447.4 427.7 415.1 397.1 383.7 373.2 362.3 362.8 395.1 427 450 467.3 478.5 484.1 485 482 477.1 475.9 481.2 487.5 491.8 494.3 495.8 499.4 508 514.4 520 524.8 529.3 533.9 537.3 541.4 545.4 547.3 547 543.6 539.3 534.3 529.2 524.1 520.7 516.8 514.1 511.5 509.3 507.1 505.8 503.6 502.2 502.3 502.4 501.5 499.6 498.1 495.8 491.7 486.3 480.1 471.8 458.6 451 446.5 443.4 441.8 439.1 434.2 430.1 427.2 423 417.9 412.9 405.4 395.7 374.3 378.8 397.3 408.6 419.7 429.5 438.5 445.1 452.1 457.5 461.6 462.9 461 458 454.4 450.1 445 439.4 433.6 426.7 419.3 409.8 399.2 388.8 376.7 364.6 352.2 340.4 330.1 318.3 319 340 353.7 366.3 376.5 382.2
532.7 520.3 501.1 486.9 503.8 523.4 534.6 542.1 548.5 550.1 549 545.1 541.3 537.5 533.3 529 524.6 534.4 548.2 559.5 568.4 576.5 584.6 592.7 596.8 600.2 604.3 607.3 609.9 612.4 613.1 614.7 615.6 614.5 612.7 610.6 607.9 605.7 601.8 598.4 594.1 590.2 586.3 581.4 573.3 560.1 555.2 551.6 546.7 535.2 516.8 541.8 558.9 570.4 576 579.3 580.9 579.9 578.9 577.5 574.4 570.7 567.3 564.2 565 567.9 570.6 574.2 578.9 581.9 584.6 585.8 585.6 584 582 579.2 575.1 570.8 562.4 554.7 547.8 542 534 527.7 519.5 513.1 505.8 496.8 486 476.2 465.9 451.7 433 413.5 395.7 384 375.6 363.1 368.3 395.7 425.9 442.9 451.3 459.4 465.4 468.1 460.9 453.5 465.6 479.9 490.4 497 501 504.9 510.3 516.2 522 527.8 532.6 535.9 539.4 543 546.5 548 547.1 544.1 539.5 533.9 528.4 522.8 517.6 514.4 511.4 508.6 504.9 502.1 499.7 497.8 496.5 496.1 496.8 496.1 495 492.7 492.4 489.7 485.8 480.5 473.1 464.3 455.2 439.1 424.9 426 424.2 420.2 413 407.1 404.2 401.5 402.1 399 393.7 387.5 371.1 373.9 391.9 403.2 413 423.1 431.5 439.1 446.6 452.8 456.9 459.2 460.5 460.1 457.9 453.4 447 440.5 433 424.8 415.1 404.9 393.9 383.3 371.6 361.3 350.4 339.7 330.9 320.3 310.3 329.3 343.6 356.4 366.3 373.4
519.1 501.3 482.5 495.2 514 527.3 534.3 538.1 540.2 539.5 538 535.2 530.3 526.4 520.4 508.6 526.2 540.7 552.3 562.4 571.5 579.9 587.7 593.1 598.3 603.2 606.1 607.8 609.9 612.8 614.5 615.9 616.5 616 614.4 611.9 609.6 605.8 601.6 598.5 594.6 591.8 587.5 583.5 579.3 564.9 543.2 528.9 523.9 513.9 521 545.4 561.6 572.2 576.8 580.7 580.9 578.9 577.6 575.7 572.7 569 566.5 563.3 561.4 564.8 567.6 572.2 576.3 580.2 583.2 585.2 585.5 585.3 583.4 580.5 576.8 570.4 562.3 555.8 550.3 543.3 535.1 528.2 522.4 514.7 506.8 496.9 487.2 477.5 466.1 452.1 435.1 419.7 400.2 388.7 376.9 365.2 365.7 390.2 413.2 420.8 423.2 429.8 434.9 436.4 431.1 430.5 459.8 482.6 493.4 500.7 507.2 513.3 518.7 525.1 530.1 534.6 538.8 541.5 544 547.2 548.6 546.8 543.7 539 532.7 527.2 521.7 516 511.6 508 505.1 501.5 498.1 495.9 492.6 491.5 490.4 490.3 489.7 488.9 487.6 486.8 485.7 482.5 478.3 472.1 464.9 456.3 446.5 435.7 419.2 408.3 405.3 397.2 387.2 382.5 374.5 371.3 375.2 381.3 376.4 373 365.2 366.2 381.3 394.3 403.7 412.5 422.3 431.3 440.7 447.9 452.7 455.8 458.8 460.2 459 452.6 444.6 436.3 427 417.5 405.8 394.6 384.5 374.4 363 352.4 342.3 333.6 326.1 319.9 304.7 316.9 329.6 340.4 352.8 361.7
489.4 479.6 488.2 506.3 517.7 526.6 531.2 530.8 530.9 529.2 527.4 524.1 519.7 515.8 509.3 515.6 531.4 545.5 556.8 564.3 571.9 580.2 588 594.5 599.8 603.8 605.6 608.2 611 614.8 616.7 617.9 618.5 618.1 616.6 613.5 610.1 606 602.9 600 596 593 589.3 584.2 572.9 560.7 543.5 521.5 504.9 507.6 528.1 548.8 564.7 572.9 577.7 582.7 579.9 576.9 574 572.7 569.6 567.2 564.6 560.8 555.6 561.8 565 569.2 574.9 579.5 582.4 585 586.4 585.8 582.8 579.9 574.9 568.2 563.3 558.1 552.9 543.9 535.2 528 520.9 513.4 506 497 487.5 478 467.1 454.9 439.4 420.2 401.2 390.5 378.4 369 368.4 376.2 387.1 390.8 391.3 398.3 405.3 409 420.6 444.7 468.2 486.6 497.5 505.1 514 520.4 527 532.1 537.7 541.1 543.8 545.7 547.6 548.5 546.8 543 538.4 531.8 525.2 519.9 514.2 508.7 504.6 500.8 497.9 495 492.1 490.5 487.8 485.9 484.9 483.5 482.7 481.9 480.4 478.9 476.9 473.3 468.8 462.5 453.6 444.7 435.9 424.2 409.7 392.2 387.9 384.7 384.5 385.6 384.4 381.8 376.2 370 367.6 360.2 361 357.6 361.3 376.5 390.9 400 410.5 422.1 434 442.9 448.9 452.6 455 456 452.7 443.6 436.7 427.4 416.5 405.2 392.9 382.8 372.9 362.5 352 341.8 332.4 324.5 319.1 314.2 307.8 302.9 307.5 316.4 329.6 342.7
505 475 485.9 507.2 515.4 522.4 525.9 524.7 522.3 520.3 516.9 512.7 505.3 501.5 493.2 515.2 534.5 548.1 558.9 565.3 573.4 580.8 588.7 594.3 598.1 600.7 605 609 613 616.5 618.2 619.9 619.8 618.7 616 612.6 609.3 607.3 604.8 600.5 596.6 594.1 590.3 585.6 571.3 554.4 535.6 514.6 499.4 507.6 533.1 551.8 565.3 572.6 577.7 580.1 576.6 573.4 571.6 569.7 566.6 564.3 560.7 557.5 549.5 557.8 564.4 570.4 575.8 579.5 583.2 584.4 585.2 584.2 581.8 577.4 571.3 566.9 560.5 556.5 550.9 541.7 532.7 525.3 517.7 511.3 504.1 495.8 486.1 477.8 467.9 455.1 440.5 418.6 400.9 390.3 379.4 369.6 369.2 377.2 383.6 388.1 393.8 397 399.6 416 430.4 439 463.5 488 501.2 510.9 519.7 527.8 534.6 539.6 544.4 546 547.9 548.8 548.3 545 542 536.4 529.1 522.2 516.6 511.5 506.5 501.7 497.5 494.4 493 490.6 487.9 485.5 483 480.9 478.2 476.9 474.5 471.6 469.5 468 464.4 460.1 454.7 447.7 441.2 433.7 422.9 395.7 393.8 397.3 399.4 399.8 397.9 396.2 394.1 392.5 389.5 382.4 377.5 372.1 366 361 354.6 356.9 370.1 386.7 399.9 412.1 426 436.6 443.4 446.8 448 446.5 441.9 436.4 427.1 414.6 403 391.4 380.3 368.6 359.9 350.4 341.5 331.7 322.6 315.8 308.9 303.5 301.3 299.8 298.9 298.3 302.1 319.7
515.7 476.4 467.1 480.8 493.5 514.7 523.4 520.5 516.1 510.1 504.8 499.1 489.9 478.2 501.5 521.6 537.7 549.4 558.8 566.2 573 580.5 586.7 590.5 594.4 599.2 604.3 609.8 613.8 617.1 618.7 618.9 618.3 616.2 613.8 610.8 608.7 606.4 603.3 599.2 595.8 593.9 590.8 586.4 572.9 555.4 530.2 507.8 494.5 508.5 539.1 553.1 564.1 571.9 575.7 574.2 570 567.2 565.7 565.4 563.2 560.2 555.4 551.4 545.5 557.8 564.1 571 576.5 580.9 584.1 584.8 585.3 582.9 580.7 576.4 570.7 564 557.8 553.1 546.6 539.7 529.3 520.4 512.8 507 500.2 492.2 484.8 477.9 468 455.6 436.3 411.1 396.2 387.4 379.1 371.5 379.8 395 409.3 413.6 417.1 420.8 412.1 431.6 446.9 459.8 472.4 492.6 507.5 517.6 525.9 534.6 542.3 547.5 550.2 550.3 549.8 549.1 546 540.6 534.5 528.2 521.3 514.2 508.8 503.7 499.4 495.1 492.6 490.2 488.3 486.4 483.9 481.7 479.4 476.6 474 470.4 467.4 463 458.9 454.7 449.9 443.4 436.8 430.7 425.7 414.8 403.4 410.3 414.8 414.9 413.7 410.8 407.5 405 403.4 403.6 400.8 396.4 388.8 380.6 373.3 366.4 358.6 350.6 356.3 374.9 389.9 402.2 416.9 427.2 434.8 437.5 437.2 436.3 432.3 424.3 414.6 403.9 392.5 379.8 367.9 358.8 350 340.3 330.4 321 312.6 305.7 302.3 302.1 301.6 300.3 297.9 296.9 296.7 298.1
521.1 481.8 460.2 465.1 480.6 506.9 519.9 514 505.9 498.7 489.4 481.1 470.5 493.9 511.3 528.9 541 550.7 558.3 565.3 570.8 575.3 578.7 588.9 594.6 601.9 606 611 613.9 616.1 616.6 616.8 615.9 613.9 612.3 609.5 606.2 603.2 599.4 596.6 595.2 592.8 589.6 585.3 573.5 551.4 529.6 504.7 492.6 511.5 541.3 554.6 563 568.4 568.1 566.3 563.7 557.3 557.7 558.1 556.5 553.5 546.2 542.1 550.1 558.2 564.9 571.7 577.1 580.7 584.2 585.8 585.9 583.8 579.3 574.7 567.9 561.3 555 548.2 541.2 533.6 522 513.6 507.2 501 494.2 488.6 482.3 477.4 468.4 451.7 432.9 423.6 402.8 389.6 378.3 369.6 388 409.2 424.3 435.7 443.2 447.1 435.3 440.1 464.8 479.3 491.6 501.8 512.9 524.4 533.3 540.8 547.7 551.6 552.6 552.2 550.8 547.6 541.5 534.6 527.2 520.2 513.5 507 501.5 496.9 493.4 490.5 487.7 485.7 484.1 482.1 480.2 478 475.7 473 469.6 465 459.6 454.7 447.1 438.1 423.7 417.3 415 412.7 414.9 413.4 421.9 425.8 427.2 426.3 424.5 422.1 418.3 415.5 414.7 411.9 409.4 404.7 399.4 389.7 378.8 371.9 363.8 354.5 346.4 359.9 378.6 391.3 403.6 414.3 421.4 424.5 425.8 424.8 422 414.9 404.3 392.5 381.2 369.3 357.3 346.9 338.2 328.5 320.8 311.9 304.3 309.5 312.3 313.2 313.6 311.3 305.7 296.8 295.2 294.8
522.2 491.2 462.4 454.6 476.7 501.5 509.2 502 492 480.3 470.3 461.6 482 503 518.9 525.9 534.7 546.5 554.5 559.4 560.5 574.4 583.1 590.5 597.3 604.2 608.8 611.6 613.4 614.3 614.8 614.8 613.3 613 610.7 607.7 603 599.4 596.4 594.4 592.4 590.5 587.5 583 567.5 541.7 521.8 495.6 489.8 517.3 542.5 554.7 559.8 562.2 560.9 557.1 549.4 541.6 541.7 543.8 544.3 540.8 539.3 546.2 555.2 561 569.1 574.7 578.5 581.2 584.4 586.4 585.2 583.1 578.8 573.3 566.1 558.2 550.5 542.9 534.3 524.8 514.2 506.2 498.9 492.2 488.3 484.8 480.2 476.8 470.5 460.9 449.5 427.6 404.7 389.4 379.7 367.9 387.4 418.3 437.4 451.7 461.6 467.6 463.1 458.1 480.4 491.7 500.4 509.5 519.5 530.3 539.9 546.9 551.7 554 554.5 552.9 549.1 544.1 536.9 529.3 521.4 513.9 507.5 501.2 495.8 492 489.1 486.2 483 480.9 479.1 477.8 475.6 474.4 472.1 468.8 465.7 461.2 453 446.9 441.3 422.6 428.7 434.9 437.4 439.1 440.3 441.3 441.3 441.3 441.3 439.8 436.9 434.1 430.5 426.1 423.1 419.6 414.7 409.3 403.2 396.9 387.8 380.8 372.3 361.1 346.9 346.2 361.8 375 387.7 398.2 405.7 410.7 412.5 413.4 410.3 402.6 393.8 382.4 370.8 358.5 347.5 338 330.6 321.8 314 305 315.7 319.9 321.8 323.7 322.9 319.7 317 309.7 300.5 294.2
521.9 502.2 473.6 450.4 474.2 494.4 494.9 486 472.8 461 450.2 468.6 486.8 496.3 499.5 510.9 517 534.3 540.8 558.1 568.8 577.7 585.4 593.3 600.1 605.8 609.6 611.3 611.1 612.1 612.4 612.3 612.2 610.4 607.5 603.4 599.9 595.5 592.4 590.9 590.3 588.8 584.9 580.1 559.1 533.4 509.7 482.6 491.8 521.4 541.6 551.3 556.6 557.5 550.9 542.7 530.3 518.8 521.9 524.9 528.1 536.7 545.9 552.9 560 566.7 571.9 577 580.6 582.4 584.6 585.3 586 583.6 577.4 571.1 564.5 555.7 547.2 537.5 525.6 514 502.1 496 487.9 481.1 479.5 478.8 479.5 479 475.3 469.2 454.8 428.5 403.5 387.5 371.5 372.6 401.8 430.4 449.6 463.3 473.9 477.8 472.1 482.9 487.2 498.4 506.6 516.9 527 536.5 545.5 552.7 557.6 558.1 555.7 551.4 546.5 540 532 524.2 516.5 508.9 501.8 496.3 492.2 488.4 485.3 480.5 478.1 474.3 471 470.4 469.4 469.4 468.7 466 462.5 458.6 453.1 445.6 430.2 435.4 441.8 446.9 452.6 456.6 457.3 459 459.5 458 455.8 452.8 449.8 444.6 440 435.1 430.7 425.7 418.9 412.8 405.2 397.6 389.3 382.2 374.5 364.7 353.7 344 345.9 358.3 371.8 382.7 390.9 396 399.8 400.3 398.4 392.3 383 372.2 361.8 350.3 340.8 332.7 325.7 315.3 309.6 319.9 325.9 328.8 329.6 330.2 329.8 327 322.9 317.1 309.5 299.7
521 516 493.5 462.3 447.9 460.8 468.7 464.3 452.8 445.8 465.3 480.3 494.4 507.1 521.8 529 536.3 543.7 554.4 564 574.1 582.1 589.1 596.1 602.1 606.2 608.5 609.8 609.5 610.2 609.6 609.4 608.7 605.9 602.3 598.8 595.1 591.6 587.8 587.4 588.3 587.5 584 578.3 556.5 527.2 499 473.9 495 521.1 534.5 540.3 545.3 542.4 536.4 522.7 501.7 506.5 521.7 532 540.8 549.6 554.8 561.9 566.2 570.7 576.1 579.6 583 585.2 585.6 586.6 585.1 582.4 577.1 570.2 563 553.1 544.6 533.5 518.2 494.2 476.2 478.1 472.1 461.5 469.2 474.7 479.1 481.3 480.4 475.2 457.1 429.8 399.7 383.3 367.2 392.1 416.4 439.4 458.1 471.7 480 485.7 486.5 492 497 502.7 510.8 522.4 533.6 543 552.4 558.7 561 559.6 555.6 550.5 544.7 537 528.6 520.5 513.1 504.5 498.2 494.3 488.3 482.6 479.6 477 475.8 473.8 470 466.9 461.3 456.9 457.4 461.1 458.7 455.4 449.6 434.6 432.2 444.8 451.7 459.8 464.9 467 469.5 471.2 471.5 470.2 468.6 464.1 459 453.8 448.2 442.6 436.2 429.5 422 413.8 405.7 397.2 389.2 381 372.9 364.6 356.2 344.2 341.2 345.1 356.1 366.8 374.8 380.5 383.7 387.6 386.4 380.9 372.8 365.3 355.9 346.7 336 327.7 319.9 310.1 323 330.9 336.2 336.6 337.4 337.4 334.4 330.4 324.5 319.6 314.2 306.8
518.3 519.4 510.9 479.5 448.2 433.5 444.8 439.8 436.9 454.6 472 488.1 502.4 517.1 529.5 537.7 544.2 553.4 562.1 570.9 578.2 585.6 592.8 598 602.5 605 606.3 607.5 607.1 607.2 607.3 605.8 603.8 601.2 597.8 594.6 590.7 586 582.1 583 585.7 584.4 581.8 575.3 552 523.4 490.2 466.1 488.9 508.3 521.2 524.5 525.2 522.5 514 494 502.5 522.8 536.2 548.4 558.3 561.6 563.4 567.7 572.1 575 578.7 582.3 584.5 585 586.4 586.9 584.4 580 575.5 569.3 560.9 551.5 540.9 530.8 518.1 504.1 478.4 454.1 450.1 445.3 458.2 470.9 480.1 485.1 485.8 479.5 456.3 426.6 395.4 370.5 379.3 406.3 428.2 447.9 463.8 475.8 484.7 490.2 493.6 496.2 501.6 507 515.7 528.6 539.5 549.3 557.7 561.6 562.1 558.8 554.3 548.4 542.4 534.4 526.2 518.1 509.7 503.3 498 494.2 487.1 489.5 486.7 484.3 482.3 480.3 478.3 475.8 472.6 468.3 461 445.9 442 442.2 436.7 434.1 447.6 454.9 463.9 469.2 474.4 479.2 480.5 481.8 482.1 482.5 478.2 473.8 467.9 462.3 455.7 448 438.7 430.4 421.5 412.6 403.2 394.2 384.1 376.3 367.7 359.1 351.9 344.4 340.1 338.1 341.1 353.4 361.3 365.2 369.3 373.2 372.9 369.5 364.3 356.5 346.6 336.8 328.3 321.3 312.5 324.1 332.4 338.9 346.4 346.8 346.2 344.8 340.9 334.5 327.7 322.2 317.3 312
513.7 509.5 503.4 483.9 457.6 429.1 429.5 424.8 441.7 461.6 479.5 496.3 512.2 525.6 534.9 542.1 549.3 557.8 566.1 575 582.9 589.5 594.9 599.1 601.7 604.4 604.1 604.8 603.8 604.9 604 602.8 600.2 597.4 594 588.9 584.6 579.8 575.9 580.1 580.6 579.7 576.6 568.7 546.3 522.5 488.5 459.9 471.7 485.5 496.6 497.4 497.3 498.1 487.9 492.4 521 537.1 548 559.9 566.1 568.6 570.6 573 576.1 578.9 580.8 583.7 585.3 586.6 586.3 585.1 582.5 578.3 572.9 565.3 556.8 548.1 537.3 526.7 514.7 501.6 482.1 458.9 438.7 430.6 447.7 466.4 478.2 486.5 488 477.2 450.2 417.8 386.5 367.3 393.2 417.4 438.8 454.3 468.3 477.1 484 488.9 494.8 499.4 504.4 511.3 523.4 536.1 547 556.9 561.5 563.1 562.7 558 553.2 547 539.7 531.2 522.4 514.8 507.8 502.9 497.9 493.3 494.4 492.8 490.8 487.9 486.1 483.7 481 477.7 473.5 469.3 464.4 459.1 453.9 440.7 447.4 452.4 459 465.3 471.1 477.3 483.2 488.4 491.8 492.9 492.1 490.6 486.2 480.5 475.6 468.8 460.5 451.6 440.9 429.1 418.5 408.3 399.1 388.6 377.7 369.1 363.3 361.2 357.5 353.5 346.9 336 336.2 338.9 347.5 351.6 355.6 358.7 359.8 357.6 352.1 343.7 334.2 326.8 315.7 316.4 323.5 332.3 340.5 349.3 354 354.1 351.8 348.9 344.4 339.3 332.2 325.3 320.7 316.1
507.6 502 489.5 471.4 452.2 426.6 415.3 423 447.7 468.8 487.2 503.2 516 528.5 539.7 546.8 553.9 561.4 569.7 577.6 585.7 591.4 595.8 599 600.8 602.2 601.9 602.4 601.6 601.5 601.2 598.7 596.2 593.8 589.5 584 578.4 572 559.9 574.3 573.3 571.1 566.3 555.1 543 524.5 491.4 461.3 454.7 463.1 470.5 472.3 471.4 471.6 490.1 520.3 537 549.2 561.1 568.2 572.9 574.5 575.7 576.1 578.7 581.1 583 585.4 585.4 585.4 583.8 582.2 578.8 574.7 567.8 561.7 554 543.8 533.4 523.5 512.6 500.4 486.9 461.7 438.3 419.4 435.1 458.1 473.6 483.5 481.5 467.6 441.6 409.2 378.8 376.9 403.9 426.9 445.3 459.9 467.3 473.1 477.8 485.4 495 502.2 509.6 519.1 531.2 544.4 555.2 562.2 565.5 566.2 563.6 559 552.8 545.9 537.9 528 519.8 511.8 506.7 500.4 497.8 499.9 498.4 496.6 495 493 490.1 487 483.6 480 474.8 469.6 464.6 458.9 454.3 443.6 454.3 459.3 465.3 470.5 477.5 484.1 490.3 495.4 498.6 499.2 498.9 497 493.6 488.9 482.2 474.1 464.8 453.7 441.3 427.6 414.8 404.8 394.8 386.1 381.9 377.9 372.5 365.7 360 353.9 348.5 342.5 331.7 333.3 336 337.4 338.3 342.1 342.6 341.7 336.4 330.1 322.3 317.6 318.9 326 333.1 340.7 348.7 356.9 359.6 359.5 358 354.4 349.9 344.3 336.8 329.5 323.5 319.2
502.3 494.9 479.8 462.2 442 417.3 411.1 433.2 455.3 475.8 494.4 508.3 521 533 544.2 551.9 558.3 564.4 571.2 579.1 585.8 590.6 594.4 597.1 598.7 599.5 599.5 599.7 598.4 599.1 597.7 595.5 592.3 589.3 584.4 579.1 572 556.6 557.6 566.1 563.5 557 549.8 544.7 531.3 520.2 495.5 467.5 446.8 445.1 446.9 461.7 481.1 501.7 520.3 536 550.7 563.8 571.2 575.5 577 578.7 579.5 580.2 581 582.5 583.9 584.4 583.7 582.7 580.4 578.7 574.7 569.2 563.2 556.4 550.4 540.8 531.5 523.4 513.5 502 486.5 463 439.1 417.9 421.8 444.7 464.5 474.2 471.8 456.6 432.9 402.3 374 379.6 408 431.3 448.3 456 456.1 452.9 463 482.4 495.3 507.4 518.6 529 541.2 551.9 561.7 566.9 569.8 569.5 566 561.3 554 546.2 537.3 528.2 518.9 513.2 508.6 501.1 504.5 504.3 503.6 502.7 500.8 497.7 494 490.4 486.1 481 475.3 469.6 464.9 460.5 456.1 453 459.5 464.4 469.5 475.8 483 489.6 496.1 501 504.3 505.1 505.1 503.6 500.7 495.6 488 479 468.5 456.7 443.9 428.3 415.9 408.9 405.7 399.6 392.5 383.4 375 365.2 357.6 350.9 343.2 339.7 336.5 330.2 328.9 328.3 328 326 324.7 323.2 322.7 320.1 319.1 324.7 329.5 335.2 341.6 348.8 356.6 363 365.8 366.2 364.8 360.8 355.6 349 341.8 334.6 328.3 322.4
498.9 489.7 473.8 456.2 436.3 407.7 415.8 440.1 461.9 481.2 500.5 513.7 525.8 537.4 547.6 554.3 560.2 566 572 578.5 584.3 588.9 592.1 595.2 596.7 597.5 598.3 597.5 596.6 595.9 593.6 591.4 588.7 584.9 580.7 574.6 561.7 543 552.9 555.6 549.8 542.3 534.2 520.6 506.9 494.6 479.7 460.5 441.5 442 457.1 479 501.8 520.3 534.5 551 566.6 573.6 576.9 580 581.7 582.1 582.3 582.6 583.5 582.8 582.9 582.7 581.1 579.4 576.4 573 568.2 561.8 555.7 551.7 548.9 540.9 530.6 522.8 512 499.3 485.6 466 439.9 416.8 405.7 430.9 451.4 461.6 458.1 444.4 424.4 396.9 373 370.5 401.8 434 442.7 440.8 431.3 446.1 468 484.8 500.6 514.9 529 540.2 550.6 558.8 565.5 571.4 573.6 572.1 568.7 563.2 555 547.5 538.2 529.9 520.9 515.9 509.1 510.8 510.7 510.3 509.9 508.5 506.2 502.6 498.3 493.1 488 481.9 475.4 469.9 465.4 462.2 455.7 458.6 463.8 468.1 473.6 480.2 487.5 494.8 501.5 507.1 510.3 511.3 511.7 510.3 506.4 500.6 492.8 482.6 473.3 462.2 448.7 438.6 433.3 424.5 415.9 406.7 396.2 384.5 372.3 361.4 352.3 345.8 341.2 337.6 333.7 330.6 333.5 333.9 332.8 331.9 330.5 331.7 331.9 330.5 328.8 330.7 336.6 343.4 350.5 358 364.9 370.1 373.7 373.5 369.6 364.7 360 353.5 346.4 339 332.9 326.9
494.3 486.8 472.3 457 437.3 398.4 416.2 443.4 467 488.2 504.4 515.8 528.3 540 549.2 553.6 559.4 566.5 571.3 576.5 581.7 586 590 593.4 595 596.8 597 596.6 595.7 593.7 592.1 587.8 584.2 580.4 574.8 567.8 553 529.3 540 540.6 534.2 519 502.1 486.7 481.6 470.3 460.9 438.3 429.5 448.2 472.2 494.3 515.2 531.8 551.1 567.7 577.9 579.7 582.4 583.5 584.2 584.3 584 584.8 584.9 583.3 582.5 580.8 578.8 575.8 571 564.9 558.4 551.4 541.1 533.6 538.2 535.4 525.6 517.6 508.4 496.6 483 466.5 442.4 416.8 399.3 414.1 431.5 444.8 447.1 436.7 410.7 384.6 371 364.2 393.7 423.5 425.4 417.7 416.6 446.7 470.5 489.9 507.3 524 539.8 550.1 558.3 565.8 572.4 575.4 576 574.6 571.3 564.8 557.1 550.3 540.9 533.2 524.5 517.7 516.5 517.4 517.6 516.7 515.9 514.1 511.4 507.4 502.5 496.2 489.9 483 476.5 471.4 467.9 464.9 456.2 463.4 467.5 472 477.6 484.7 492.7 500.5 507.5 512.8 516.1 517.4 517.3 514.8 510.5 503.9 496.2 487.7 477.7 470.6 459.4 452.2 443 432.5 421.9 410.4 397.2 382.6 367 356.1 348 343 340.6 336.4 334.6 338.5 342.3 342.9 342.1 341.2 341.8 340.7 339.5 338.3 335.3 336.9 345.6 352.6 359.9 367 374.7 379 379.7 377.9 373.2 368.3 363.3 358 351.5 344.5 338.8 332.9
490.7 484.5 469.7 455.5 432.9 395.4 414.3 442.6 466.7 487 502 515.2 531.8 541.3 546.3 550.1 556.2 562.6 566.7 573.1 578.7 583.6 588.5 592.4 594.2 595.2 595.6 595 593.7 592.2 588.9 585.6 580.7 575 570.1 562.2 539.2 516.9 520 511.8 497 479.4 471.1 465.7 455.2 440.9 430.6 423.4 440.3 464.8 488.7 509.6 530.2 550.5 565 576.6 582.6 583 584.1 585.4 585.1 585.7 585.8 585.3 584.6 583.3 582.2 579.4 575.1 570.8 564.7 558 543.7 527 511.7 500.5 512.5 522.1 517.2 509.6 500.7 489.3 479 463.2 444.7 420.1 395.7 395.3 416.6 431.8 440 431.6 410.9 388.6 371.3 362 389.6 405.6 401.2 401.1 424.9 452 474.4 494.3 513 532.1 547.1 555.9 566.1 573.1 577 577.5 578.2 576.4 572.8 566.8 559.7 553.4 546.2 539.3 531.6 523.8 524 524.7 523.2 522.1 521.2 519.8 516.8 512.3 506.2 499.3 492.6 484.1 477.6 473.6 469.9 467 457.3 467.5 470.9 475.9 482.8 490.1 498.3 506 511.9 517.2 520.8 522.7 522.2 519.2 514.2 507.5 500.2 492.7 485.4 478.1 469 459.3 448.5 438.5 425 411.3 396.1 378 363.2 353.8 347.9 344.1 340.6 337.2 342.8 349.2 352.4 352.9 351.5 351.3 350.9 349.6 349 347.6 341.2 346.8 355.5 363.3 371.9 378.9 383.4 384.8 384.6 382 377.9 373.5 368.2 363.7 358.5 351.5 345.2 337.6
483.4 472.6 457.2 439.5 420.4 392.1 415.3 438.9 452.7 466.8 482 500.9 522.6 535 539 541.5 545 551.1 559.2 566.8 574.6 581.6 587.7 591.2 593.2 594.2 594 593.8 591.2 589.3 585.7 580.9 578.1 572.7 566 552.3 532.2 509.7 489.1 473.6 460.7 453.1 444.5 435.2 427.9 421.4 415.8 436.6 460.9 483.7 506.3 525.2 544.1 561.3 572.8 580.2 584.2 585.1 585.3 585.8 585.9 587.5 587.4 586.7 585.8 584.2 582.7 579.9 575 570.1 561.7 548.6 528.2 503 487.1 474.6 486.4 500.3 505.1 500.4 491.8 481.6 470.6 457.4 442.9 425.7 398.1 385.2 406.7 423.3 432.1 424.9 408.5 386.1 368.3 361.4 379.4 382.1 393.6 414.3 433.4 456.4 477.4 499 519.9 539.8 552.8 562.5 572 578.7 580.6 581.1 580.3 578 573.9 568.4 562.9 557.3 549.3 544.1 536 535.1 532.7 531.4 529.7 528.6 527.6 525.7 521.9 516 509.2 502.5 494.6 485.9 479.5 475.6 473 467.2 465.5 471.2 475 479.8 487.2 494.9 502.3 508.9 514.3 520.2 524.6 527.1 526.4 523.1 517.7 511.4 504.1 498.6 493.1 485.5 475.9 464.3 452.5 441.1 425.5 410.6 392.6 374.3 364.2 356.4 350.1 344.5 339.9 345.1 353 359.5 362.1 362.8 361.9 361.5 359.7 358.4 357.4 355.9 348.9 354.8 364.5 372.2 379.4 384.6 388.2 390.3 390.6 387.5 383.4 378.8 373.9 367.3 362 356.3 349.5 342.1
470.3 453.1 436.2 423 402.3 387.8 405.8 415.8 429.6 445.9 464.7 484.1 503.6 517.1 523.4 525.4 526.8 532.6 544.4 560.5 572.3 579.9 586.4 589.6 591.3 592.4 592.6 591.3 589.3 585.7 582 577.8 573.7 568.7 563.6 555.7 546 520.2 487.2 456.7 437.6 428.8 422.2 414.7 410.7 419.4 442.7 460.3 483 504.8 524 538.7 554.6 567.4 575.1 580.8 582.2 583.4 584.3 585.1 587.7 588.3 588.3 588.4 588 586 584.1 580.6 576.5 570.2 561.9 546.3 513.3 488.5 465.5 455.2 460.6 475.1 483 485.8 480.3 471.3 460.3 448.1 437.2 425 407.8 379.1 392.7 411.1 421.4 415.8 401.2 379.6 363 361.6 369.7 389.5 409 425.1 442.3 461.7 482.4 503.9 525.7 542.7 556 566.5 576.3 581.5 583.8 584 582.8 580 575.7 571.8 566.7 561 554.5 549.5 544.2 541.8 539.5 538.1 537.5 536.5 534.3 530.8 525.5 518.8 512 504.2 495.8 487.6 481.8 478.1 475 468.5 470.2 474.2 478.8 484.3 490.6 496.6 503.8 510.4 516.3 522.8 528.3 530.2 529.1 525.2 520.1 513.9 508.7 504 498.5 489.2 477.7 466.4 454.5 441.5 426.8 410.3 391.6 377.9 368 359.6 351.6 344.6 343.8 356.1 364.6 369 371.2 372 371.9 370.5 368.6 368 365.9 363.5 359.5 361.1 369.2 377.2 385.9 391.5 394.7 395.6 395.6 393.3 388 382.2 377 369.9 363.9 359.5 351.8 345.4
445.5 432.1 419.1 403.2 378.3 400.4 418.4 434.7 446.8 454 457 468.7 483 493.6 496.1 505 520.1 533.2 546.7 559.4 571.1 580.1 584.7 588 589.7 590 589.8 589.1 586.4 583.7 580.5 576.3 571 564.9 558.9 552 544.9 529.4 499.8 461.2 432.1 417.8 411.3 403.2 414.5 436.3 461 480.8 504 523.4 534.8 544.2 552.7 563.6 569.2 572.9 575.7 577.9 580.4 585.3 588.2 590.5 590.9 591.5 591.6 590.7 588.5 583.6 578.8 571.1 561.9 548.8 527.3 497.5 470.9 445.4 436.4 448.8 462.1 467.9 465.5 459 449.7 439.6 429.5 420.7 409 384.1 377.7 399.2 409.5 405.3 389.6 371.7 354.8 361.4 375.9 388.1 410.2 431.5 449.8 468.4 488.4 509.7 529 544.5 558.2 569.6 578.2 584.4 586.4 585.6 585.1 582.1 578.9 574.7 569.1 564.1 558.7 552.7 550.8 549.7 547.6 546.4 544.5 542.6 539.5 534.7 528.5 521.5 513.3 504.7 496.9 489.1 484.3 481.1 477.8 474.1 473.6 477.2 482 486.8 492.6 499.7 507.2 513.9 520.8 526.2 530.2 531.1 529 525.3 521.4 515.7 510.4 505.3 497.7 488.1 476.1 465.4 453.5 440.3 424.4 408.3 392.8 380.3 369.5 360.7 351.7 341.5 356.3 367.1 373.7 377.7 379.9 380.2 381.4 381 379.5 377.1 374.8 372.3 368.6 360.6 373.4 381.4 390.8 397.8 400.7 400.8 399.9 396.5 391.2 385.4 378.7 372.2 366.6 360.4 352.8 342.3
428.5 415.8 397.9 373.8 394.9 416 433.6 449.5 463.9 476.1 482.8 488.8 491 500 509.7 521.4 533.1 543.2 555.6 565.4 573.5 580.5 584.5 587.3 588.6 588.5 587.9 586.9 586.6 584.1 580 576.3 570.5 564.2 557 548.8 539.9 531.2 507.9 468.8 436.7 422.2 409.1 401 414.7 440.3 470.2 495.2 517 537.1 540.8 543.4 546 546.8 549.7 553.6 561.4 570.2 579.1 586 590.6 593.3 595.1 596.3 595.6 593.8 590.4 584.9 579.4 571.5 560.1 546.4 526.4 495.4 469.8 444.4 421.7 425.7 441.1 448.8 450 445.8 440.7 432.2 424.1 413 400.4 380 369.1 386.5 394.1 394.9 383 365.4 352.7 361.6 381.9 402 419.9 431.3 453.3 472.6 492.6 512.4 530.5 546 559.5 570 579.3 584.2 587 588.2 587.4 584.4 581 576.6 572.2 567.7 561.7 560.9 558.9 557.4 555 553.6 550.7 547.4 542.8 537.3 530.2 522.2 514.3 505.2 497.5 491.2 487.9 484.5 477.5 479 478.8 479.5 483.9 489.4 495.9 503.5 511.8 518.1 523.6 527.8 530.7 530.5 528.6 525.1 521.2 515.3 508.6 500.5 491.2 483.1 472.9 462 450.8 436.4 421.2 407.4 394 382.5 371.2 362.1 348.2 352.2 367.7 376.6 382.2 384.5 388.3 391.6 392.4 392.2 389.7 386 382.3 378.3 375.4 373.8 376 384.7 395.2 402 405 404.8 402.7 398.3 393.5 387 380.7 374.7 368.5 360 351.8 351.4
408 387.7 367.2 389.7 411.8 431.5 448.4 465.4 479.3 491.8 501.9 506.9 512.4 520.9 528.2 537.7 547.3 559.2 569.6 578.9 584.7 586.8 586.8 588.4 587.7 587.7 587.5 586.5 585.1 583.9 581.6 577.4 570.2 563.6 556.9 548.4 539 526.1 501.6 474 454.5 428.6 405.8 396.3 409.8 434.4 464.4 491.5 515.3 534.1 536.5 532.2 531.2 528.6 525.3 525.3 546.6 568.9 581.2 588.9 594.6 599.8 601.7 601.1 599.4 597.4 592 585.2 578.2 569 557.9 541.2 515.7 488.9 465 442.2 421.3 408.3 423.4 433.2 437.1 437 431 422.4 414.1 402.5 387.6 369.6 363.9 375.9 389.2 389.5 376.3 356.9 350.9 362.9 383.8 404.8 427.2 445 460 474.9 492.8 511.6 529 545.3 559 570.3 578.8 585.4 589.2 590.9 589.5 586.3 582.5 578.6 573.9 571.3 568.2 567 565.4 563.8 561 558.4 554.8 550.8 544.9 538.7 530.9 522.4 514.8 507.4 499.7 494.8 491.3 486.9 482 482.6 483.1 482.9 487 493.2 499.8 507.3 514.4 520.6 525.4 528.2 530.5 530.1 527.6 524.2 518.5 511.3 501 490.6 482.6 473.9 465.3 455.4 442.6 429.5 417.9 405.6 392.3 381.7 370.7 360 349.7 359.7 373.3 383.7 388 393.2 398.1 402 401.3 397.9 395.2 392.1 388.9 384 380.7 379.5 377.8 386.9 397.4 403.9 406.6 406.9 404.7 401.1 395.8 389.8 382.7 377 370.1 362.3 361.2 361.7
375.5 365.4 384.5 407 427.2 447.3 464.8 479.2 491.9 504 513.3 522 529.6 535.9 542.7 550.3 561.1 573.2 580.8 587.6 591.8 591.6 589.9 588.1 587.2 586.6 585.4 585.1 584.9 583.4 580.5 576 569.4 562.3 554.7 547.1 538 524.9 508.7 491.3 468.8 440.4 411 390.6 404.4 424.6 450 475.8 499.3 512.2 514.9 511.5 505.8 498 492.3 520.4 552.6 574.2 584.8 592.4 598.7 603.5 605 603.8 601.7 598.5 590.8 583.3 575.7 567.2 552.7 531.7 502.4 477.6 455.1 430.8 413 402.9 406.3 413.2 417.8 420 416 409.7 399.3 387 370.8 358.3 363.1 379.5 387.3 381.8 371 349.6 349.9 362.9 385.2 408.4 431.3 450 466.1 483.2 500.4 515.9 531.8 548.1 561.2 572.7 581.7 588.1 591.6 592.5 590.4 587.2 583.6 579.8 576.7 574.3 572.9 571.9 570.3 567.5 564.6 560.9 557.2 552.1 546.4 538.9 531.2 523.3 516.5 510.1 502.9 498 494.1 484.8 487.8 488.7 488.5 489.3 490.5 496.3 502.6 509.7 516.2 522.6 527.3 529.6 530.3 528.5 525.8 520.4 512.1 502.1 491.6 480.6 469.7 460.7 451.9 441.6 432.4 422.3 412.6 399.4 388.8 377.7 365.6 357 351.8 364.9 380 388.6 395.8 402.8 409.4 410.9 409.4 405.9 401.9 396.7 393.1 389.5 386.1 384.9 376.6 390.2 399.3 405.2 408.1 408.1 406 402.9 396.6 391.1 386.7 380.6 375.4 371.9 371.2 371.7
359.7 378.4 399.2 420.8 441 459.8 476.5 491 502.2 514.6 523.3 532.8 539.7 547.6 555.6 563 572.7 579.7 586.4 592.8 595.4 593.6 590.7 587.6 586.1 584.9 583.4 582.2 581.6 579.6 577.9 573.2 566.4 560.1 551.8 544.3 533.5 518.8 504.1 486.5 465.9 443.4 417.4 387.7 393.9 415.2 437 458.8 477.1 486.2 487.8 485.6 479.2 472.5 495.6 528.5 556.1 576.3 586.2 593.9 600.8 605.4 607.1 604.7 601.2 596.7 590 583.1 574.8 563.2 547.4 525.2 494.7 468.1 444.8 425.7 413.1 400.8 388.9 388 392.3 397.2 397.5 392.3 383.3 370.1 356.7 353.7 371.1 382.3 384.1 377.9 364.7 344.6 349.3 364.2 388.4 411.1 432.6 451.7 469.2 486.9 505.2 521.5 538.1 553.4 566.1 576.6 585.1 590.1 592.7 592.4 590.1 587 583.7 581.1 579.3 577 576.3 575 572.6 569.8 565.9 561.6 557.8 552 545.7 538.4 531.3 524.7 518.3 512.5 505.8 501.1 495.1 493.1 493.4 494.7 495.7 496.1 495.3 499.3 505.3 511.6 518.1 524.6 528.7 529.6 528.1 524.8 520.2 513.7 504.9 494.1 482.1 468.9 455.7 445.7 433.3 423.4 419.2 404 394.7 382.6 372.1 366.5 361.8 356.8 357 368.8 386 396.4 404.7 413.2 419.4 420.9 419.3 414.7 409.4 403 398.6 395.3 393.4 391.6 391.7 394.1 402.2 406.8 409.9 409.7 407.5 404.2 400.1 394.9 389.8 386.2 383.8 381 380.8 380.9
364.9 388.5 408.8 430.3 449.9 468.7 484.7 497.7 510 522.5 532.1 541.5 549.7 559.4 567 573.4 579.4 585.2 591 596.1 596 593.8 590.6 587.8 583.9 582.2 579.3 576.8 576.3 574.8 571.7 566.9 561.4 555 547.8 541.2 530.6 514.2 496.2 479.3 460.8 439 417.8 391.9 383.2 402.9 423.6 441.5 453 456.8 458.3 458.7 458.9 480.6 504 534.8 559.9 575.4 585.9 594.7 601.1 604.1 606 603 599.2 594.8 587.2 579.6 569.9 558.1 543.3 519 486.8 456.1 456.3 444.1 426.1 408.8 392.2 382.2 372.2 371.2 373.5 369.3 363 356.4 349.8 360.5 375.8 383.8 383.2 374.3 357.4 341.4 348.2 363.9 387.6 410.4 430.6 451.6 470.9 489.6 507.5 524.9 543.7 558 570.3 579.8 587.2 590.7 592.7 591.2 589 586.3 583.8 581.8 580.7 580.2 578.9 576.8 573.5 569.9 565.6 561.7 556.7 550.4 544.2 537.9 531.4 525.6 520.6 514.2 508.8 501.4 499.1 499.7 500.8 503.1 503.5 502.1 500.7 501.5 508 513.5 519.9 524.5 527.3 526.9 524.5 520.7 514.5 507.2 498 486.2 472.2 454.4 429.6 425.1 427 420.6 399.5 401.5 399.2 390.4 380.3 372.8 365.7 356 361.1 372 390.6 402.8 413.8 421 426.1 428.8 426.9 422.7 417.1 410.9 406.3 403.2 401.9 400.6 399.7 396.5 405.7 410.4 413.6 412.7 410.6 407.7 404.6 400.3 396.6 395.6 394.1 391.2 389.9 391.4
369.7 391.2 412 434 455.6 475.5 490.5 502.7 515.1 528 539.8 548.9 558.6 566.7 574 578.3 583.5 588.9 594 596.3 595.4 594.2 591.4 586.6 581.7 577.4 573.3 568.4 567.2 564.8 562.1 557.5 553.4 547.5 542.1 536.7 527 512.7 494.8 474.4 453.5 437.4 417.4 392.3 373.9 392.4 409.1 423.2 432.2 433 433.6 443.4 466.4 490.8 519.9 544.1 563.8 577.3 584.7 590.7 597 600.5 600.3 599.2 595.4 589.6 582.7 575.2 565.4 553.7 540.5 515 489.5 492.5 480.6 457.5 433.3 412.6 395.5 381.6 370.4 364.3 358.5 355.8 353.7 354.6 346.3 359.3 379 383.5 381.9 370.1 351.7 340.1 347.5 362.6 386 405.8 427.7 449.9 469.7 489 508.1 526.9 545 559.8 572.5 582.8 588.5 590.8 591.3 589.5 587 585.2 583.3 581.8 581.1 581.7 580.2 577.1 573.8 569.8 565.5 560.6 554.7 548 542 536.9 532.3 526.9 521.5 515.2 508.1 506.4 506.5 508.7 510.5 510.9 509 507.7 506.8 507.1 510.7 515.5 519.5 522.6 524.2 523.3 521.2 515.8 509.8 502.1 491.9 477.8 458.5 441.2 449.3 448.1 442.3 434.6 425.6 418.4 411.5 401.7 390 376.5 363.6 358.5 364.9 376 394.4 407.4 417.9 425 430.8 433.1 431.7 428 422.9 418.5 415.9 412.2 410.4 409.1 407.2 401.4 410.9 416.3 418.2 417 415.5 413.8 410.4 406.3 404.9 403.8 402.2 400 399.5 401.4
367 388 410 433 456.5 477.7 491.8 504.7 517.7 531.6 544.3 553.5 561 568.3 574.8 580 584.5 590.7 594.3 595.8 595.9 594.5 591.8 586.5 579.9 573.3 565.1 558 553.4 550.6 547.9 545.3 541.9 536.6 533.5 529.7 522.5 510 496.2 478.2 457 434.1 414.3 395.9 374.4 382.4 396.3 405.7 409.9 417.3 437.3 458.6 479 509.1 533.1 550.3 565.4 573.3 579.3 584.9 588.7 591.8 592.8 590.8 587.6 582.8 576.5 569.3 560.6 551.1 540.2 521.8 518.8 506.9 490.9 463.4 437.8 416.1 396.9 380.7 368.8 362.4 356.8 351 350.2 357.7 343.5 353.2 377.9 381 377.3 363.9 345.4 338.1 346.5 362.6 382.8 400.6 421.4 444.3 466.9 487.7 507.4 526.6 544.8 559.9 572.7 582.5 587.9 589.8 589.1 587.4 585.6 583.9 582.9 582.7 581.9 581.9 580.1 577.2 573.4 569.4 564.3 558 552.1 545.9 540.8 536.7 532.6 527.7 521.9 516.5 511.9 512.1 513.7 516.5 517.3 516.6 514.8 513.5 512.5 512.5 513.6 516.6 519 520.4 521 519.8 517.5 512.3 505.9 496.2 484.7 465.4 454.7 465.2 464.6 458.7 451.7 446.5 438.8 430.3 421 409.2 388.7 373.9 362.5 362.8 369.4 381 397.3 408.5 419.3 427.1 432.9 435.8 435.3 432.9 430.1 426.3 424.3 422.3 419.7 417.4 414.1 408.3 416.8 422.4 423.4 423 422.5 420.9 416.2 412.4 413.4 414 412.7 409.1 407.5 409.3
363.8 381 404.9 429.1 454 475.4 490.1 501.7 514.3 528.1 541.3 553.9 562.3 567.9 573.8 580 586.1 592.1 594.9 595.9 595.6 595.3 592 586.2 578.2 568.4 554 533.7 525.3 524.5 523.8 524.1 523.6 522.7 522.4 519.3 513.8 504.1 493.1 480 464.7 446.2 425.5 404.9 373.8 370.3 383.8 393.8 412.3 431.2 452.7 473.1 498.8 522.1 538.4 552.2 559.6 564.6 569.6 574.3 579.1 581.4 583.4 582.5 579.8 574.9 570.2 564.2 558.7 551.3 544 536.4 523.7 509.5 491.3 465.1 438.8 416.4 396.4 382.2 375.3 371.4 366.1 356.5 344.5 345.3 339.6 346.1 371.2 375.7 369 355.4 339.1 336.2 345.9 358.1 374.8 399 421.3 443.7 465.4 486.1 506.1 524.7 542.5 558.3 571.2 580.1 585.3 587 586.5 585.9 583.2 583 582.5 582.5 582.2 581.3 579.3 576.4 572 568 562.9 556.9 550.9 545.7 540.7 535.9 532.6 527.9 522.3 517.4 518.5 519 520.3 522 522.5 521.5 519.8 518.9 517.6 515.4 516.3 517.4 518.4 518.9 519.4 517.6 514.9 510.1 501.4 490.4 475.5 463 476.2 480.2 476.4 469 462.2 455.7 449.4 440.9 431 414.6 390.6 374.2 362.5 367.8 372.9 383.4 397.6 407.7 417.1 425.4 431.9 437.1 438.2 438.6 436.3 434.4 433.2 430.3 426.7 424.2 420.5 415.1 421.8 426.1 428.5 430.3 429.5 426.4 423.7 422 423.6 425 423.4 419.9 418.3 420
360.9 377.2 399.9 424.1 446.3 466.5 484.3 496 508.6 522.7 538.1 553.5 562 567.3 573.9 579.7 584.8 589.8 594.5 595.8 596.9 595.7 592.1 584.4 574.8 560.7 539.2 513.6 495.5 496.8 496 494 494.6 500.1 507.5 506 501.5 494.9 485.8 475.2 463.3 449 433.3 409.6 378.3 363.4 376.4 397.8 421.6 444 464.8 490.6 513.2 528.7 536.9 545.1 550.5 552.7 554.7 558.9 563 566.9 570.5 571.1 570.5 570.3 567.9 563.4 559.1 554 546.9 538.1 525.2 508.7 490.4 464.1 434.5 415.3 404.4 390.5 388.8 387 377.4 367.7 353.4 340.9 337.5 335.3 360.3 366 358.2 345.4 333 336.6 344.7 356.2 376.9 399.3 419.4 439.8 460.6 480 501.1 519.8 539.2 555.4 568 576.2 582.2 584.5 584.1 582.9 580.9 581.5 581 581.6 581.4 580.6 578.4 575.4 571 567 562.3 556.8 551.5 545.7 540.9 536.4 532.3 525.5 525.9 524.7 524.6 524.7 527 527.4 527.7 527.1 525.1 523.4 520.9 518.8 517.9 517.7 517.7 518.1 517.5 515.6 512.4 506.3 496.3 481.2 470.8 485.7 490.6 489.4 485.7 478.2 473.3 467 459.8 450.9 442.3 421.1 397.3 378.4 366.6 370.3 376.1 386.2 398.1 406.5 414.7 423.4 432.4 439.5 443 444.3 444.6 444.3 442.1 438.8 433.8 429.8 425.5 419.9 428.5 433.1 436.3 437.4 436.7 434.2 433.6 433.4 435.6 435.7 433.6 431 431.4 433.3
357.9 373.3 390.9 412 431.7 454.7 468.6 484.5 498.6 514.5 530.8 545.6 556.2 564 571.7 577.9 584.1 590.7 594.7 597.5 597.5 595.7 590.6 583 571.8 551.1 527.6 499.5 478.2 470.2 467.7 467.1 468.1 475.6 486.8 490.3 487.5 482.5 474.6 466.6 456.2 444 429.2 409.7 382.4 360.7 369.5 401.4 429.3 454.8 474.7 494.3 514.8 526.9 531.1 531.6 533.5 533.9 532.3 535.9 540.7 548.3 556.8 562.5 566.9 568.7 566.6 564.5 560.1 553.8 547.2 538 524.9 507.6 492.2 469.5 452.9 437.3 420.7 397.7 408.9 400.5 388.5 377.8 363.6 347.5 336.3 333 346.9 353.8 346.4 334.4 330.6 337.6 347.1 359 370.9 386.7 408.8 425.9 445.7 471.2 494.1 515.4 535.8 552.7 564.8 573.9 579.3 581.2 580.6 579 577.9 578.8 579.5 580 580.6 579.6 577.3 574 570.3 565.6 561.7 557.1 551.2 546.7 541.6 538.2 531.1 530.7 530.4 528.3 530.5 531.3 531.7 532.5 532.5 531.8 529.8 526.4 522.5 520.6 517.9 516.9 516.6 515.8 515.1 512.9 508.5 501.6 486.5 484.9 493.5 496.8 497.4 495.7 491.3 487.2 484.7 478.2 469.5 461.5 451.5 428.3 403.5 383.6 368.6 372.9 378.5 387.8 398.4 407.2 415.3 424.1 433.9 442.8 450 454.7 454.9 454.2 450.3 446.3 440.8 435.5 430.6 429.1 437.7 443.1 445.9 446.7 446.4 444.4 444.4 444.7 446.8 445.9 444.2 443.3 444.1 445.3
355.5 368.7 382 400.5 419.4 435.3 452.8 467.8 484.7 502 519.7 537.2 550.6 560.9 567.9 577.9 586 592 595.2 597.5 598.6 594.8 589 581.1 566.2 544.6 519 490.2 465.7 448.4 443.3 441.8 442.7 452.1 464 471.7 472.6 468.4 463 455.6 444.6 433.7 419.5 403.2 384.6 356.7 365.1 401 431.7 459 480 490.6 504.6 515.1 521.1 517.9 515.3 515.2 511.1 512.7 516.9 524.7 547 560.7 566.9 568.2 567 562.5 556.6 551.8 544.5 535.1 522 507.3 493.6 480.8 466.3 445.2 412.9 427.6 422.2 411.3 398.5 383.9 368.2 354.3 343.7 331.6 334 336.7 335.3 327.1 331.3 339.1 349 361.8 377.9 396.8 414.8 433.5 453.2 474.7 496.1 515.7 535.1 550.6 561.5 569.9 575.4 577.1 575.9 575 573.3 574.1 575.8 577.4 578 578.2 575.6 572.5 569.7 565.5 560.7 556.7 552.1 547.4 542.9 539.4 537.3 536.5 534.9 534.8 535.7 535.7 536.6 536.5 536.8 535.7 532.6 528.5 524.5 521.6 518.6 515.6 514 513.5 511.7 508.8 504.8 497 492.6 497.7 501.1 502.8 501.8 499.8 497 495.3 491.4 485.8 477.7 468.7 458.1 435.2 408.8 388.2 370.8 375.3 380.6 392 402.2 411.4 421.3 432.1 442.5 451.8 460.1 465.2 466.4 463.6 458.3 453.2 448.4 442.7 436.4 437.8 445.8 450.1 454.5 455.8 455.8 455 456.1 455.5 456.1 455.2 454.4 454.1 455.3 455.6
358 360.2 371.6 386.9 401.4 414.7 429.1 446.8 467.5 489.5 510.4 530 545.7 558.3 570 580 587.5 593.2 597.2 599.6 598.7 594.9 588.8 579.9 561.1 537.7 515.1 488.9 463.9 444.2 426.6 421.6 420.7 428.7 441.1 448.4 454 452.5 447.4 440.1 430.6 419.9 405.9 391.4 372.3 353.1 365.1 396.7 430.4 455.2 473.3 481.3 490.9 497.7 499.6 498.1 494.9 493.3 492.5 489 505.5 529.5 549.8 561.7 565.9 565.6 563 557.9 552.3 546.1 537 528 517.5 505.4 493.3 480 456.5 435.8 446.1 442.7 430 417.6 404.5 389.4 373.6 359.6 348.3 338.3 327.9 326.5 326.2 325.8 332.3 340.6 350.8 363.9 380.2 399.1 419.2 439.5 460.5 481.1 500 517.8 534.5 548.1 558.9 566.7 571.5 571.6 570.2 568.1 567.4 569.1 572 574.3 575.3 575.3 573.5 571.5 568.3 564.9 561.1 556.5 552 548.6 544.6 542.9 542.2 542 541.4 540.8 540.5 539.5 539.8 540 539.3 537.2 533.7 529.8 525.8 521.4 518 514.7 512.9 510.9 508.2 504.9 501.4 495 499.5 501.5 504.5 506.1 505.5 503.5 501.8 498.3 493.4 488.4 481.7 472.3 461.2 440.6 413.1 392.1 373.5 376.7 384.2 397.7 409.7 420.4 432 444.1 454.6 462.8 470.2 474.4 475.5 472.3 467.7 461.6 457.4 450.8 444.7 438.8 451.9 456.7 461.7 464.2 465.3 464 464.6 463.5 463.9 465.2 466 465.6 464.2 462.3
376.5 386.9 386.6 385.9 392.1 410.2 429.4 452.3 473.1 495 512.1 530.4 546.6 562.3 573.1 581.6 589.1 594.6 599 600.3 599.4 596.1 589.8 580 564.9 541.2 517.1 490.7 467.6 444.1 430.3 414.6 400.6 404 416.1 425.9 433.2 433.1 428.9 422.1 414.3 403.4 391.9 377.5 358.7 345.3 368.3 395.4 424.3 444.2 459.7 467.2 473.7 475.9 473.9 467.9 464.5 463.3 474.5 496.6 516.6 537 552.2 559.7 563.4 562.9 559.6 553.6 547.8 540.2 532.1 522.2 511.8 490.1 480.8 467 466.9 470 461.2 447 434.4 421.5 408 390.9 376.6 363.3 350.7 343.8 330.5 324.3 323.2 323.5 331.4 341.5 355 371.9 385.4 402.2 422 442.7 463.9 484.7 503.4 519.6 534.6 547.7 557.2 562.8 565.5 564.6 562.3 561.4 560.3 561.9 566.8 570 571.4 571.8 571.2 569.5 567.2 564.1 560.4 556.2 552.1 546.8 547.7 548.2 547 547.4 547.2 546.5 545.6 544.5 544 542.6 540.9 538.8 535.1 530.7 526 521.8 518.6 514.7 511.7 508 505.3 502 499.5 501.6 503 504.1 505.3 506.4 506.7 505.4 502 496 491.3 488.8 483.1 473.2 463.3 446.6 419.8 397.4 377 379.8 389.1 403.4 415.8 427.2 439.3 452.4 462.2 471.1 479.1 482.3 483.2 481.5 476.5 472.2 466.2 459 453.7 451 455.7 465.1 470.4 473.7 474 472.5 471.9 471.1 473.3 475.4 473.5 470.9 469.8 468
393.7 406.5 412.5 409.6 403.6 412.7 432.7 455.7 477.6 498.8 516.1 533.1 548.8 562.9 574.4 582.6 589.7 594.9 599.5 600.8 600.1 596.6 590 580.7 565.8 542.6 521.3 498.8 474.8 455.3 442.4 425.9 405.4 386.1 390 401.4 411.1 413.3 410.2 404 395.4 384.6 373.5 360.3 345 348.9 373.7 395.7 418 430 437.9 449.8 453.6 451.1 441.6 436.2 452.7 472.4 490.6 508.8 527.1 543.8 553.2 557.5 558.8 557.2 553.7 547.4 542.7 532.8 519 502.5 499 501.8 496.9 491.9 487.7 477.7 463.3 449.1 436.6 423.8 408.4 391.7 377.6 364.7 351.2 343 335.9 328.4 321.5 321.1 329.9 342.3 360.3 377.6 392.8 408.9 427.2 446.1 466.5 486.8 505.2 521.1 534.7 546.1 554.5 558.6 559.3 557.5 554.5 553.6 553.3 555.3 559.8 563.7 565.8 567 567.4 566.6 565 563.1 559.8 554.9 554.6 553.6 553.7 552.9 553.8 554 553.3 553.1 552.1 550.6 548.6 546.2 543.5 540.4 536.5 531.9 527.7 522.5 519.8 515.7 512.5 510.3 506.5 503.8 504.4 503.9 503.9 503.8 504.3 505 504.5 501.4 495.5 490 487.8 485.2 480.6 472.6 462.5 452.9 429.9 403.1 383.1 382.2 393.3 408.6 420.4 431.9 444 457.7 467.7 476.6 487.1 491.5 493.3 491.1 486.5 480.5 474.9 468.6 458.8 461.3 454.6 472.2 478 480.8 480.6 480.7 479.9 480.8 482.3 482.2 480.7 478.2 475.9 472.1
412.3 426.2 434.2 434.6 427.7 421.7 431.3 454.9 478.5 498.3 517.5 534.7 548.7 563.3 574.6 582.9 589.3 595.3 598.7 600.3 600.6 598.6 592 582.3 569.2 550.9 528.7 506.7 482.1 465.1 449.6 430.4 410.1 391.2 371.1 375.7 389.8 394 391.4 385.7 375.1 363.5 352 341.7 339.3 361.3 378.9 390.1 401.9 409.9 412.5 419.3 424.2 417 435 452.5 470.7 486.7 503.7 520.8 536.3 546.7 552.5 556.7 558 557.2 554.5 549.3 539.4 531.6 527.4 522.3 512.8 502.8 491.3 487.5 483.1 474.1 462.4 449.4 437.1 423.6 408.4 392.1 377.3 364 352.2 341.9 334.4 328.6 320.2 318.7 328.5 341.1 358.2 376.4 392.9 410.8 429.8 449.3 469.6 489.7 505.6 520.1 533.9 544.5 551.8 554.6 553.6 550.5 546.3 546.8 547 548.5 551.6 555.5 559.7 561.2 562 561.9 561.5 560.1 558.7 558.7 559.3 558.8 559.1 559.4 560.1 560.1 559.9 559.5 558.2 556 554.2 550.5 547 542.4 537.3 533.9 530 525.8 521.1 517.2 513.1 510.5 507.7 506.6 505.5 504.4 503.6 503.1 502 500 497.4 492.6 488.4 484.7 482.9 480 475.5 469.3 462.1 452.9 439.6 412.1 391.4 382.4 396.8 412.2 424.2 435.1 448.4 462.9 474.2 485.8 495.7 500.2 500.8 498.9 495.4 489.8 483.9 477.6 472 473.2 469.9 478.5 484.5 486.5 487.2 488.5 491.1 493.5 492.2 490.4 488.2 484.7 480.1 473.6
430.3 444.4 452 457.8 450.6 448.3 443.4 450.1 474.3 495.6 515.9 533.6 548.3 562 573.2 581.6 587.1 593.1 597.9 601 601.4 599 592.9 582.1 570.1 552.7 532.8 512.4 485.4 465.3 446.9 429.2 411.7 393.8 373.6 356 368.2 375.2 372.4 365 353.5 341.5 335 333.3 348.4 369.3 379.8 383.1 385.9 384.1 388.3 392.5 402.2 419 439.9 464.4 482.5 498.4 515.4 529.6 541.4 548.2 554 557.2 559.4 558.7 555.9 551.3 545.8 540.9 535.6 529.5 520.1 505.4 483.8 472.4 468.9 467 460.7 448 435.7 422.5 406.6 390.4 375.8 362.4 351.1 341.2 332.5 326.8 318.5 318.9 328.2 339.7 356.7 374.2 394.1 412.6 429.6 447.7 468.9 487.2 502.7 517.8 531.5 542.7 550.1 550.8 547.9 543 539.1 539.9 540.1 542.3 542.8 547.6 552 553.9 555.8 557.1 559.1 560.5 561 562.3 563.5 564.1 564.4 564.6 564.6 565.1 566.1 565.3 563.6 561.2 558.3 554.1 549.7 543.9 539.4 535.7 531.8 527.7 523.4 518.2 514.7 511.5 509 507.3 505.8 504.2 502.7 500.7 498.9 495.7 491.3 487.2 483.2 479.7 475.7 470.7 467.1 462.5 457.3 450 439 418.5 395.7 383.7 400.2 414.7 427.3 439.1 453.6 467.7 480.7 493.5 502.2 507.3 506.6 505.9 502.5 497.1 491.5 481.8 483.3 482.1 477.6 484.2 487.9 490.6 493.7 499.3 501.4 501.5 499.2 496.3 494.1 488.6 481.9 471.8
419.4 442.8 453.3 455.9 459.5 463 465.8 468.4 468.2 490.9 512 530.5 544.8 558.6 569.3 578.8 585.3 591.7 597.8 601.5 601.2 598 591.4 582 570.2 553.4 533.9 511.2 485.4 458.8 441.7 422.7 405 389.2 371.5 349.2 350.1 354.9 352.2 343.9 331.2 327.5 331.5 341.1 355.9 362.5 368.4 369.5 368.5 386.3 400 408 412.4 419.9 442.6 467.5 483.3 499.9 519.7 533.8 544.7 551.4 556.8 560.4 563 561 558.5 553.4 550 546 540.1 533.7 523.7 511.8 496.4 476.5 458.3 453.8 454 445.1 433.6 420.7 404.3 389.6 375.8 361.5 348.4 337.7 330.9 324.9 316.7 317 327.2 340 358 376.2 395.1 411.2 426.7 443.5 463 481.2 498.8 514.5 530.3 541.8 546.7 542.9 538.3 533.7 531.4 532.2 532.7 534.2 534.1 538.3 542 545.7 550.8 554 557.3 560.5 563.4 565.4 568.1 568.4 568.6 568.4 569.4 570.9 571.3 570.6 568.5 565.3 561.4 556.7 551.6 546.1 540.8 536.8 532.8 528.5 523.5 520.8 516.4 512.4 509.8 507.1 505 503.8 501.7 498.9 494.4 491.1 487.3 481.5 477 472 466 461 457.7 453.1 447.3 439 429.5 418.7 394.6 389.9 404.2 417 429.8 441.8 456.4 471.1 485.9 498.3 508.3 512.5 512.8 511.5 508.4 503.9 497.3 494.1 490.9 490.9 488.5 487.1 493.4 496.6 502.8 506 507.6 507.6 505.4 502 496.9 489.7 480.8 469.5
405 430.2 441.9 449.7 457.7 469.4 480.6 487.9 491.8 494.3 507.5 530.7 541.4 554.7 565.7 575.4 583.6 590.6 596.9 600 599.8 596.3 591 581.4 569.2 552.9 533.2 510.4 484.9 455.2 437.1 416.5 395.4 375.4 363.5 347.8 335.6 337 332 323.7 323.4 328.8 332.9 344.7 354.5 355 356.4 366 381.5 399.2 415.2 425.8 428.6 427.9 440.2 461.2 478.9 497 519.4 537.3 547.9 556.4 562.9 566.1 565.2 563.1 560.6 558.6 555 549.1 542.9 534.6 524.4 512.1 499.5 482 460.5 438.8 442.9 439.6 430.2 417.1 403 388.4 374.9 360.8 346.6 335 328 319.8 313.9 317.4 327.2 338 357.9 373.2 390.5 405.9 419.3 438.5 456.7 474.1 492.4 509.2 524.8 535.5 534.7 530.3 525 521.9 521.5 522.9 523.8 524.3 520.7 523.5 530.9 536.9 543 548.6 554.7 559.2 563.4 567.5 568.8 569.7 570.5 570.8 573.5 574.6 575.4 574.5 571.8 567.9 563.5 558.3 552.8 547.2 542.8 538.4 534.2 530.1 526.3 521.6 517.1 513.4 509.9 507.3 505.6 503.9 501.7 496.3 493.4 486.4 480.2 475.6 468.2 461.1 454.8 448.8 444.9 437.7 430.9 422.6 412.6 399.6 390.9 395 407 418.1 430.9 443.2 458.1 473 487.4 501.4 511.8 515.9 516.8 515.7 513.8 509.3 503.5 501.7 499.4 498.3 496 496.2 496.1 502 505.8 510 511.6 510.5 508.2 503.4 496.9 488.9 482 473.9
389.3 405.4 420.3 436.4 453.3 468 484.5 499.4 506.8 510.3 522.3 532.4 542.3 552.6 563.1 573.3 582.2 588.6 594.5 597.6 598.5 596.1 589.6 579.5 566.6 551.2 532.8 510.4 483.9 450.7 432.3 410.6 390.7 370.1 350.5 340.6 324.3 321.6 319.8 318.5 334.8 341.7 340.7 341.7 344.8 350.9 357 367.3 386.1 404.4 427.2 441.2 448.1 448.3 443 453.1 473.5 493.3 513.5 537.9 551.2 560.3 566.4 569.4 568.5 568.1 566.6 563 557.5 550.7 542.7 534.6 523.2 509.6 495.6 477.3 454.7 429.8 427.7 430.5 425.4 413 399.7 386.1 372.8 358.6 344 332.9 325 314.8 311.9 318.6 327.3 336.4 348.8 365 380.2 399.8 420.8 438.6 455.1 469 484.5 499.8 513 517.8 518.4 514.5 512 509.9 508.1 509.9 513 511.2 504.5 502.1 509.5 516.8 527.1 538.7 548.1 554.9 559.8 563.1 563.8 566.1 568.1 571 574.5 576 576.1 574.2 572 568.6 564 559.9 554.6 550.3 545.2 539.9 535.7 531.2 526.4 521.5 517.3 512.8 509.5 507.2 505.8 504.2 501.4 496.4 490.8 484.9 477.3 463.6 460.3 451.8 443.4 437.3 431 422.5 410 398.9 401.6 400.4 396.3 397.8 408.8 418.2 430.2 443.5 458.3 473.7 488.4 502.1 512.8 518.5 519.8 519.7 517.7 514.5 509.8 508.6 506 504.5 500.8 501.6 500.9 505 508.2 511.3 512.2 511.2 507.2 502.8 498.7 493 486.8 476.6
371.3 391.4 401.2 424.6 446.3 465 482.5 500.5 511.9 516.8 525.3 532.4 540.3 550.6 558.5 567.8 577.2 584.1 589.9 594 595.7 591.6 583.1 574.1 564 548.2 531 508 483.5 451 428.6 406.2 385 363.6 345.2 330.2 320.4 313.6 320.9 341.8 352.8 358.3 359.3 356.4 353.5 359.8 359 367.5 380 405.8 433.2 451.8 464.1 467.6 466.4 459.1 464.5 488 508.8 533.5 553.6 563 569.3 572.6 573.1 573.4 570.8 566.5 559.9 551.6 543 532.4 518.9 504.2 487.9 468.5 445.2 420.9 412.3 421.9 417.3 406.3 394.6 382.9 369.9 357 342.7 331.6 322.6 312.1 310.7 318.8 326.6 338.3 354.5 372 388.8 405.4 424.8 440 452.1 463 474.1 486.7 498.3 503.1 503.9 501.9 498.1 490.8 484.8 492.5 499.8 493.9 485.4 485.5 491 498.5 507.1 517.1 527.9 538.2 544.9 551.3 555.3 560.1 564.1 567.8 571.4 572.8 571.4 571 569.2 567.9 564.4 562 557 552 547.5 542.6 537 531.9 526.4 520.4 515.9 511.4 507.5 505.8 504.3 502.7 499.2 494.7 489.2 480.7 473.9 465.5 455.6 438.1 433.5 426.1 414.1 413.5 419.2 422.9 419.5 408.8 402.7 406.2 411 421.7 430.1 441.5 457 472.5 487.8 501.5 512.7 518.8 520.8 521.6 521.2 518.5 515.4 513.9 512.1 509.1 506.8 505.8 505.7 507.2 510.2 512 512.4 510.9 507.8 504.5 501.3 495.5 489 485.3
349.6 365.2 386.4 410.1 435.7 462 482.1 498.4 511.2 517.9 527.6 529.9 532.8 535.7 547 558.4 569.2 577.9 583.8 587.6 587.3 582.3 575 564.7 555 542.3 523.9 505 482.2 448.8 426.9 402 378.7 355.4 337.5 321 312.9 321.6 342.5 358.9 365.9 373.7 379 381.2 383 381.2 380 382.7 378.6 400.4 429.9 452.4 470 479.3 482.3 479.6 476.1 485.1 505.4 528.3 552.4 566 573.7 577.6 579.3 577.4 574.2 569.1 561.8 551.7 540.2 527.3 512.7 497.8 479.3 457.5 436.9 411.8 400 409.8 408.4 399.1 388.7 379 366.3 355.1 341.9 329.9 319.7 309.5 310.2 318.2 327.4 339.9 358.3 376.1 393.6 411 427.6 440.8 449.6 457 462.7 471.3 481.7 486.5 485.5 481.3 474 467.7 460.8 479.7 479.3 473.5 465.9 469.3 475.4 482.4 488.8 496.7 505.2 511.7 515.9 521.7 537.3 552.3 558.7 562.9 565.7 565.5 565.9 566.6 566.8 567 566.5 563.6 559 554.4 549.4 544.1 538.3 531.5 524.6 518.5 512.8 507.6 503.2 500.7 499.8 497.5 494.3 489 482.1 475.8 468.4 458.6 446.4 432.5 418.8 417.3 425.9 430.5 431.9 430.9 427.1 410 409.4 416.5 424.4 430.8 435.4 446 455.4 471.1 487 500.3 510.7 518 521.3 522.8 523.3 522 520.2 518.2 515.3 511.5 510.6 509 509.5 510.1 511.4 512.4 512.2 511 509 506.6 502.9 498 494.3 492.5
324.5 343.3 368.7 395.1 421.1 447 468.7 490.6 507.4 516.5 523.8 524 516.2 511.4 526.5 544.1 559.4 570.2 578 579.6 575.9 571 561 550.5 543.3 534.2 517.3 499.5 477.3 451.3 427 399.5 375 351.4 328.7 309.5 312.2 329 350.2 365.3 376.1 385.6 393.7 401.3 405.9 402.9 402.2 401.9 395.7 402.8 427.3 448.7 468.9 483.5 496.3 497.2 498.9 496.1 505.3 529.3 555.2 571.3 579.4 583.8 584 583.6 578 571.6 560.5 548.5 536.1 522.1 506.8 490 470.2 451.4 431.4 407 389 395.3 399.3 390.8 382.2 372.4 361.3 349.9 337 324.6 314.7 307.7 307.5 318.8 330.6 345.4 364.6 380.2 398.7 416.5 429.9 439.8 447.3 450.6 453.7 454.8 460.9 466.7 464.5 458.7 452.4 445.9 451.2 457.6 458.9 454.7 449.5 453.9 457.1 462.6 465.9 471.9 478.5 483.1 488.3 497.5 516.2 539.7 549.6 553.6 555.9 558 559.2 562.4 565.2 567 566.9 564.5 560.3 556 550.4 544.1 538.2 530.7 523.1 515.6 508 502 496 490.8 491.1 489 485.9 480.5 474.9 468.4 459.8 448.5 429 424.1 434.5 437.1 438 439.9 441.1 437.5 430 409.9 417.3 424.8 432.5 440.8 448.8 450.5 462 472.1 485.6 495.6 510.2 517.5 522.3 524.5 525.5 524.6 523.4 521.6 518.3 515.8 513.4 513.1 512.6 512.8 512.5 512.9 513.1 512.4 511.2 507.8 504 500.7 497.7 495.5
310.1 324.1 349.4 376.5 399 421.5 451.2 477.4 501.1 511.6 513.7 505.6 491.2 480.2 508.6 529.1 548.1 561.5 569.1 567.8 562 553.1 541.9 535.3 530.2 520.4 507.1 490.8 472.8 452.7 425.9 398.3 371.7 345.3 322.6 306.8 314.4 333.3 356.8 369.8 381.7 393.1 403 412.3 419 422.2 423.9 423.6 413.7 415.6 430.4 448.2 468.6 487.3 502.8 511.6 517.9 524.9 529.3 544.9 564.9 577.7 584.7 588.5 588.8 587 580.9 573 560.3 546.3 530.8 513.2 497.4 480.5 461.1 442.1 423 404.7 379.8 382.6 385.5 380.1 369.7 359.5 350.6 338.9 326.6 316.2 307 306.7 308.7 320.8 334.5 351 368.7 384.8 402.8 420.1 430.8 438.7 443.1 444.9 444.8 443.3 441.9 443.3 441.5 436 430.1 421.4 433.8 439.5 442.2 440.2 436.1 437.7 436.6 438.9 442.3 448.3 453.3 458 467.6 481.6 500.4 522.5 536.2 543.2 547.5 550.7 555 559.4 564.1 566.7 567.1 564.5 560.7 556.5 551.3 544.7 537.4 528.2 517.1 512.2 499.8 496.4 491.3 486.5 477.7 479.7 476.1 469.7 463.9 456.1 447.3 435.5 437.2 444.6 446.7 447.2 448.8 450.2 447.3 440.7 425.1 419.4 425.1 434.5 442.5 452.5 460.2 466.6 468.5 482 494.5 504.5 514.9 521 525.8 527.8 528.1 527.5 526.3 523.9 520.5 519.6 517.5 516.2 514.7 515.9 516.1 516.8 517.8 516.3 512.3 508.9 506.2 503.6 499.6 495.6
304.5 309.6 334.8 357.7 382.8 412.6 440.4 464.1 487.4 499.5 498.4 488.1 468 464.4 493.4 515.7 536.1 549.9 554.9 553.3 546.2 534.3 525.2 518.8 511.3 504 492.4 479.9 467.2 447.9 424.2 400.2 371.9 344.7 319.3 303.9 315.2 335.9 360 372.7 386.3 399.3 411.7 423 431 438 444.5 446.4 437.6 430.2 437 450.6 471.1 492.3 510.7 522.7 538.7 548.5 556.6 565.9 577 585.6 591.6 594 593.3 591 585.5 574.5 559.6 543.9 526 508.3 486.9 465.9 446.5 427.9 408.9 391.2 378.5 361 358.1 357.2 346.5 336 328.1 320.6 313.8 309 304.4 304.3 312 324.4 338.3 357.4 372.5 388.9 406.5 421.8 431 437.8 440.1 439.4 437.8 435.9 431.2 424.9 418.7 413 407.1 405.5 417.5 421.8 423.4 423.2 422.5 423 430.2 438.1 446.4 450.8 454.4 459.5 461.6 469.3 491 508.3 526.7 535.1 538.6 544.5 550.2 556.3 562.8 566.2 566.5 563.9 560.6 556.8 551.2 545.8 538.4 532.3 523.9 517 511.4 504.7 498.3 492.1 484.9 476.7 464.3 459 453.6 446.4 436.6 442.5 452.3 455.7 457.1 457.7 456 456.2 448.3 430.6 425.3 433.8 431.5 446.3 453.2 465.7 474.5 482.3 487.2 492.4 505.2 515 520.5 525.6 529 530.8 531 529.1 528 526.2 524.2 522.7 521 519.2 518.3 518.9 519.4 520.7 520.4 516.4 512.8 510.3 508.8 505.6 500 494.6
309.5 302.6 319.4 342.9 368.8 394.1 422.1 446.2 463.8 478.1 481.4 467.9 445.1 451.9 478.1 503 522.5 537.3 540.7 537.5 528.2 515.4 507.6 499.5 492.7 487 478.6 469.2 457.7 441.4 421.9 401.5 373.2 344.4 315.3 302.7 317.4 338.5 360.3 375.6 390.4 404 418 431.4 441.3 451.4 461.5 466.3 460 444.1 444.6 452.9 474.8 501.4 518.8 535.4 553.4 564.3 573.5 580.6 588.5 595.2 598.7 599.6 598.9 596.9 588.9 576.7 557.3 539.2 517.9 497.1 474.9 453.3 431.3 412 404.9 398.2 383.4 374.1 361.6 346 334.9 329 322.8 316.5 311.2 305.9 303.2 303.4 312.5 324 339.8 358.7 374.1 393.5 409.6 423.5 431.4 435.9 436.8 435.5 432.5 427.4 418.8 407.6 398.5 390.8 391.6 400.6 404.7 408 410.6 416.3 425.2 438.3 450.4 459.5 466.2 472.1 475.1 475.5 474.3 473.9 481.5 498.6 510.8 519.7 532.1 542.4 549.3 556.5 562.8 565.8 565.8 564.1 561.1 557.2 552 548.4 543.6 537 532.5 527 519.6 512.4 503.8 496.1 489 482.7 475.5 466.9 457.1 452.7 445.8 457.1 463.3 465.4 467.8 467.8 465.7 457 438.8 444.5 437.7 451.7 457.7 454.9 468 480.1 490.9 498.1 501.9 506.6 515.1 522.9 526.6 530.7 533.3 534.3 533.6 532.8 531.4 529.9 528 525.5 523.9 522.1 521.1 522 522.2 520.6 519.4 514.4 512.5 510.5 509 505.2 498.1 491.5
321.6 300.5 304.4 322.1 347.6 372.9 398.1 421.7 441.1 459.1 461.7 448.2 427.9 442.5 467 488.6 508.2 523.7 527.2 518.8 508.7 498.7 489.2 480.6 474.9 470.1 463.9 456.6 446.4 432.2 415.9 396.6 370.5 341.9 311.9 298.6 304.8 336.7 356.6 373.7 388.7 406.3 420.5 435.7 449.1 462.7 470.4 474.2 470.9 456.1 451.8 454.1 475.5 507.5 526.6 548.6 565.9 576.9 584.7 590.8 597 603.2 606.5 607.4 603.4 599.4 589.9 575.5 555.4 531.8 506 489.1 469.6 449.4 431.3 432.3 426.7 415.2 404.1 393.5 376.8 352.8 336.2 323.7 318.8 314.6 309.7 305.2 302 302.1 313.7 324.6 340.2 360.5 377 396.2 411.2 423.3 430.5 434.2 434.8 432.9 426.9 420.5 402.6 391.2 382.8 378.7 402.7 420 424.5 425.4 428.6 436.3 446.4 457.5 469.6 480.4 488.1 494.7 498.2 496.7 485.9 483.4 494.5 503.6 516.3 527.8 536.7 543.4 550.7 558.2 563.3 566.2 565.8 564.4 562.1 559.5 555.1 553 549.6 544.3 540.3 536.1 531 523.1 514.7 503.8 496.7 487.5 478.9 471.2 464.2 460.6 457.7 467.7 473.4 476.5 478.8 478.5 470.7 452.1 466.2 467.8 453 470 476.6 480.6 484.6 496.1 505.7 511.7 515.9 519.2 524.4 528.7 533.5 536.3 538 538.5 538.3 537.3 536.4 534.4 531.9 528.9 526.4 524.1 520.9 522.4 521.8 519.1 515.9 511.3 509 507.5 505.6 500.8 494 485.2
335.8 310.6 298.3 303.8 324.6 348.7 372.9 395.7 416.8 433.6 435.3 429.2 419.2 432.4 454.7 475.6 493.2 503.1 505.5 501 493.4 483.8 473.3 463.2 456.9 450.9 446 441.1 432.4 420.6 407.4 388.7 364.9 338.1 308.8 296.8 308.5 331 351.6 367.5 383.8 405.7 420.8 438.2 453.6 465.9 474.9 480.7 482.9 479.8 471.5 468.7 490.9 511.9 535.1 561.6 575.7 586.6 593.8 599.4 606 611.4 615 612.9 607.3 601.3 590.3 576.1 556.3 538 522.4 500.9 477.7 455.6 452.7 451.5 443.5 433.1 420.9 406.9 381.8 356.7 341.5 329.9 319.9 313.7 307.7 303.8 300.8 300.3 312.8 324.1 340 360.2 379.4 396 410.9 423.2 431.2 432.6 432.2 429.6 423.6 414.1 392.1 378 374.6 393.2 415.4 431.3 441.8 448.2 454.2 460.7 468.1 476.5 487.6 498.4 509 514.4 515.5 513.4 497.9 489.8 504.6 515.7 525 532.8 539.8 546.4 552.4 559.1 564.2 567.1 567.1 566.3 564.3 562.2 560.7 558.4 556 552.2 549.1 544.1 539.6 532.9 525 516.1 504 494 486 477.8 473.5 468.8 470 477.3 483.6 487 487.1 483.7 469.6 479.7 482.5 483 482.3 489.9 497.7 501.6 503.8 508.8 518.2 523.6 527.1 531.1 533.6 535.9 539.6 542.1 543.8 544.8 544.9 544 541.6 538.8 535.2 531.6 528.2 525.9 522.5 521.6 519 515.2 510.7 506.6 503.5 502.5 500.1 495.2 487.4 482.1
349.4 327.8 307.9 296.1 304.6 324.2 348.1 370.1 391.6 410.2 413.8 408.3 407.1 420.4 442.4 462.2 478.1 486.3 489.8 486.5 479.1 469.8 458.7 447 438.3 432.4 428.9 423.1 415.7 407.3 394.5 377 357.2 332.3 307.6 294.5 301.4 323.9 344.3 358.3 374.7 394.4 412.8 433.1 451.4 466.1 477.3 487.8 499.3 503.7 498.6 492.7 498 518.9 546.1 569.8 583.9 594.2 601.3 607.6 614.3 618.1 619.7 615 608.8 600 589.4 575.5 560.3 544.9 528.2 505.1 487.4 475.4 472.2 465.8 455.8 444 429 410.7 387.8 365.5 349.2 335.2 324.8 316.7 308.3 302.5 299.9 300.8 312.6 324.4 339.5 359.4 376.4 395.5 411.6 421.2 428.4 429.8 429.3 426.1 419.7 406.9 384.4 369.5 377.2 400.3 420.6 436.5 446.6 455 462.4 471.1 479.4 489.4 502.3 513.1 522.3 527.8 528.9 526.1 512.7 496.5 505.6 518.9 528.8 535.2 541.5 547.3 553.4 559.4 564.2 566.7 567.9 567.5 566.2 566 565.1 562.9 561.8 558 556.2 552.3 547.2 541.9 533.5 522 509.6 501 494.1 489.2 485.4 480.1 477.4 486.3 492.1 494.5 494.2 487.3 489.4 492.8 494.6 497.3 501.8 508.8 514.2 516.4 517.9 523.6 528.2 532.6 536.1 539.3 541.2 543.8 545.7 548.2 550 551.5 551.8 550 546.8 543.1 538.6 534.4 530.3 527.2 523.4 519.1 514.2 509.3 504.5 499.9 497.4 495.6 492.6 487.2 482.2 478.6
360 339.8 320.3 303.7 293.7 306.8 326.1 346.1 367.2 383.1 389 386.1 391.9 408.9 432.2 448.7 462.5 467.7 470.6 471.1 465.2 456.7 445.5 431.8 418.9 413.4 408.9 402.9 396.5 388.3 376.2 360.7 345.3 326.3 305.9 293.3 300.3 316.3 332.8 344.8 360.2 378 395.8 418.2 443.6 466.3 482.6 496.5 514.3 523.1 522.7 517.2 515.9 531.9 558.5 577.4 590.3 599.1 607.5 614.4 620 621.6 618.7 613.9 606.6 597.8 586.9 573.9 560.4 547.3 532.8 517.5 503 493.6 485.4 475.9 464.8 451.8 435.3 413.1 391 369.4 353.1 341.8 330.2 318.1 309 301.5 298.1 303.4 311.9 323.5 340 358.2 376.7 394.9 410.5 419.2 424.5 426.7 425.4 420.5 413.9 399.4 375.7 363.2 376.9 401.5 421.2 435.2 446 456.2 465 473.8 484.3 496.2 508 518.6 530.1 534.6 534.2 531.5 526.4 514.7 508.6 515.4 527.3 534.8 541.2 546.5 552.5 557.7 562.2 565.3 567.1 567.7 567.8 567.7 567.3 567.3 566.2 564.7 562.1 558.6 555.6 550.1 542 531.7 519.2 510.5 504.3 500.3 496.6 492.1 487.9 494.9 500.1 503.8 500 498.8 501.5 505 508.5 511.7 518.4 525.3 528.2 528.4 529 535.1 538 541.2 544.4 546.9 548.3 550 551 555 557.2 557.9 556.8 554.2 550.7 546.2 541.9 536.9 533.7 529 523 514.7 507.4 500.1 495.5 490.4 487.3 485.4 483.7 478.5 478.1 474.6
366.5 349.1 331.3 313.7 296.3 295.4 308.9 326.5 343.2 355.7 362.1 367.9 383.8 393.8 418.3 430.1 440.8 445 452.8 455.5 452.4 445.4 433 417.2 406.3 391.9 384.9 379.9 374.3 366.2 356.2 345.2 333.2 319.8 297.6 293.1 297.6 308.7 321.2 333.4 345.8 363.4 387.5 413.2 443.1 470.4 490.3 508.4 525.8 535.9 543 546.1 543.9 554.4 570.4 582.2 594.1 604.8 612.5 618.7 622.9 620.5 615.7 610.3 602.5 593.7 583.1 571.7 560 548 535.3 524.2 511.7 501.9 492.2 482.3 469.7 455.1 436 413.2 389.7 368.9 352.9 339.8 328.7 319.6 310.8 301.2 297.4 302.5 311.7 323.4 340 358.9 376.1 394.3 408.2 417.4 422.5 423 419.2 414.8 407.1 390.1 366.3 356.9 375.8 399.6 416.3 429.9 441.9 451.8 461 471.3 482.8 494 504.9 514.7 527.8 533.1 535.7 533.8 531.4 528.8 526 527.9 527.4 534.2 541 545.6 550.6 555.5 559.7 563.4 565.4 567.1 567.8 568.8 570.1 570.5 570 569.3 567.5 565.2 561.6 556.2 548.9 542.3 531.5 522.7 515.5 511.6 506.7 498 497.5 504.6 507 508.1 507.1 510 513.3 517.2 521.9 526.7 532.9 537.4 539.4 539.1 536.1 542.6 545.1 547.2 550.6 551.7 553.3 555.5 557.5 560.8 562 561.1 558.6 555.2 551.4 547 542.7 539.4 535.8 529.2 521.1 510 500.3 490.9 484.9 480.1 477.8 476.9 474.6 474.6 474.1 471.7
372.7 357.2 341.2 324.1 305.5 291.9 294.5 311 324.3 333.4 343.7 357.9 379.1 386.1 391.7 400.3 408.6 418 433.4 441.4 444 438.1 424.8 408.8 398 379.4 359.4 357.5 352.1 347.2 338.6 329.7 320.1 306.1 289.6 292.5 300.9 313.7 327.1 342.4 360.3 382.6 407 431.9 456.2 479.5 500.2 519 535.4 546.9 556.6 563.4 566.9 571.4 578.7 588.4 598.7 608 614.7 618.1 618.8 614.7 610.5 605 597.3 587.9 578.5 567.8 558.3 547.6 536.5 525.2 515.6 506.5 496 485 473.1 458.2 438.7 413.8 388.1 366.4 350.3 337.6 327 316.7 309 297.8 296.2 302.2 311 321.7 338.5 358.2 376.6 393 405.4 414.8 418.2 417.2 413.1 406.7 397.3 378.8 358.6 356.1 375.4 394.3 408 421.6 433.3 443.3 452.9 464 477.1 488.8 500.2 511.8 523.4 531.7 532.6 532.8 531.7 531.4 531.2 533.6 536.1 538.8 542 546.2 551.1 554 557.8 561 563.4 566.1 568.1 569.9 571.7 573.1 573.1 572.6 571.9 570.4 567.3 563.4 557.7 549.2 542.3 532.9 527.8 522.4 516 497.8 507.2 512.7 513.2 514.3 516.9 521.2 526.1 529.6 535.8 541 545.4 547.2 548.2 547 545.1 548.4 550.6 552.5 554 555.6 557.1 558.5 561.2 562.5 562.1 560.2 556.6 552.5 548 544.3 540.8 537.8 534 525.6 515.1 503.5 495.6 486.6 477.8 471.2 467.6 467.2 469.1 470.7 469.9 467.9
378.9 364.4 350.4 333.6 314.7 296.1 289.3 299.6 311.3 320.1 329.3 345.9 365.3 376.6 377.3 372.1 380.6 395 414.7 427.1 430.7 427.5 417.7 403.5 389.4 372.6 352.3 337.9 333.7 328.7 321.4 314.3 305.7 286.7 288.7 291.4 309.1 324 337.9 355.3 376.8 401.7 425.3 448.6 468.7 491.3 511 528.9 544.5 557.2 566.8 573.9 577.4 582.2 587.3 592.7 601.4 607.6 611.5 612.6 610.1 605.8 601.7 596.5 588.9 581.6 572.8 564.2 554.8 544.8 534.2 524 515.2 506.6 496.8 485.9 474.2 459.5 439.4 415.1 389.7 368.1 349.8 335.5 323.8 313.3 304.3 295.2 294.7 300.7 308.6 319.9 337.3 357.4 376.4 390 401.6 409.1 411.6 409.5 402.8 395.2 385.9 368.5 350.4 354.8 371 379.4 391.6 407.1 418.9 430.1 441.9 453.9 466.1 481.2 494.9 507.7 517.7 522.8 527.1 529 529.5 530.9 533.3 537.1 541.5 544.3 545.1 548.5 550.1 553.5 556.6 559.4 561.9 564.3 568 570.4 573.1 574.7 575.7 576.3 575.7 575.5 573.6 570.1 565.2 557.5 550.1 543.5 538 531.7 522 512.5 516.4 519.3 520.3 523.3 527.7 532.3 537.3 543.1 549.5 553.9 557.2 557.1 555.2 552.5 552.2 553.2 554.3 555.1 556 557.5 559.4 560.9 561.6 560.9 558.4 554.9 549.4 544.6 541.5 537.9 534.9 531.8 526.1 517.1 505.7 497.1 489.4 481.7 472.9 464.3 458.1 458.8 461.8 463.6 463.7 462.4
384.9 372.2 355.7 337.9 319.9 300.9 288.5 292.2 303.7 312.4 320.3 327.3 343.1 350.9 350.6 346.4 355.8 372.5 391.1 405.3 414.5 414.1 408.3 397.4 383.7 367.4 348.8 331.2 316.2 310.3 304.9 299.6 288.4 285.8 287.1 304.2 321.8 336.1 352.2 370.7 398.6 421.1 442.9 462.2 484.8 503.2 521.5 538.9 554.2 566 574.3 581.9 585.9 589.8 592.7 597 600.4 603.9 603.5 601.7 599.3 595.3 591 585.4 579.8 573.3 565.9 559.2 550.2 540.1 530.7 523 515 505.9 495.6 485.4 473.1 457.8 439.8 417.9 392.6 369.3 352 337.4 325.1 312.9 304.4 294.5 293.9 299.7 307.4 318.4 335.8 355.1 374.2 387.4 397.5 402.9 403.1 398 391.1 383.5 373.4 358.4 341.7 348.3 351 354.7 367.4 379.9 394.5 409.7 425.9 441 456.4 471 485.7 499 506.8 513.7 519.1 522.4 523.8 528.4 534.3 539.8 544.6 547.4 548.4 550.5 552.7 554.2 555.8 559 561.4 564.2 567.7 570.8 573.5 575.6 577.6 578.8 580.1 580.3 578.9 576.3 571.3 564.1 556.6 551.1 546 539.2 533.8 528.7 522.6 528.1 529.5 533 538.6 542.3 548.4 555.3 560.4 562.4 563 561.5 558.4 556.4 555.1 554.5 556 556 556.9 558.2 560.8 561.8 560.6 557.6 552.5 545.9 540.5 536.4 532.5 529 525.6 520 512.9 503.9 496.4 489.4 481.9 474.2 466.4 458.3 450.5 449.9 454.1 456 457.5 457.6
389.4 375.4 358 339.2 319.8 301.5 289.5 291.1 299.9 307.4 314.3 319.2 323.8 328.3 328.4 329.2 338.8 350.3 367.5 382.9 394.8 400.6 398.6 390.1 377.6 361.4 343.4 326.8 311.2 300.6 294.1 287.1 283.5 284.9 300.7 322.4 335.6 349.4 366.4 393.8 419.6 439.8 459.1 478.9 497.7 513.6 531.7 547.8 561.6 572.5 581.8 589 592.7 594.6 595.6 596.4 597.1 597.3 594.1 591.9 587.9 583.1 578.3 574.3 569.9 564.8 558.3 551 543.6 536.1 527.6 520.1 512.5 503.7 493.9 483.1 469.9 456.2 440.4 422 399.9 376.8 357.3 341.9 326.8 314.9 304.2 293 292.7 297.9 306.6 318.2 334.3 353.1 371.6 384.6 391 394.1 392 386.7 378.3 369.5 357.8 342.3 337.9 349.5 359 367.3 368.4 367.3 374.3 388.7 409.2 426.2 441.6 457.7 470.4 482.6 494.2 502.7 509.3 514 517.7 526.5 534.3 541.5 545.6 548.6 550.6 552.3 552.4 554.3 556.4 558.9 562.6 566 568.7 570.9 573.7 576.5 578.8 581.8 583.9 585.1 583.8 580.8 575.8 569.1 563.1 558.2 552.9 546.7 542.5 524.1 532.9 536.8 539 542 545.4 549.4 554.8 560.9 563.9 565.1 564.2 561.8 559.4 557.7 556.5 555.7 555.4 555.8 555.9 557.7 559.7 560.6 558 551.3 543.6 536.7 531.1 525.5 520 514.2 509.4 503.4 496.3 491 485 478.2 470.6 463.7 457.6 451.1 445 437.8 446.1 449.1 452 455
392.3 376.7 357.8 336.9 315.2 300.4 289.1 289.2 299.1 305.5 308.4 311 308.6 308.1 308.6 313.2 321.1 333.3 347.1 362 374.8 383.5 386.3 380.7 369.5 352.8 335.6 318.2 303.3 293.4 286.5 281 282.6 296.4 317.4 333.7 347.2 363.3 387.1 419.4 438.1 456.6 475.3 493.6 508.3 525.9 542 555.8 567.4 577.4 585.3 591.4 595.7 595.5 593.3 591.1 591 587.3 582.9 579.6 575.7 570 566 561.4 559 556 549.4 542.9 537.1 529.9 523.4 516.8 508.5 499.8 490.7 479.9 468.3 455.2 441.4 425.1 403.8 380.6 361 345.2 330.5 316.2 304.8 293 291.2 297.1 306.1 319.1 336.5 353.7 368.8 379.6 384.5 384.6 380.4 370.7 362 351.5 340.5 332.9 348.1 362.9 370.8 379.9 385.6 387.2 384.9 381.8 386.3 404 421.7 437.1 449.8 463.1 479.3 490.7 498.7 501.9 511.9 523.3 532.7 540.2 545.4 548.8 551.2 552.2 553.5 554.4 557.2 560.4 563.5 566.5 568.8 571.3 574.6 577.9 581 584.4 587.6 589 587.6 585.1 580.6 575.1 569.2 563.7 557.8 554.2 548.2 541.8 543.3 545.6 548.7 551.6 554.4 557.5 560.7 563.1 564 563.9 562.4 560.5 558.1 557 556.1 554.8 553.9 554.3 554.2 554.2 556.4 556.6 553.3 544.8 534.4 525.9 518.7 510.8 503.4 497.1 491.6 486.1 481.1 474.6 468.7 463 458.1 452.1 447 443.1 438.3 432.9 438.9 443 446.8 450.9
394.3 375.8 355.5 333.5 311.2 297.5 284.3 287.9 300.7 302.3 299.5 297.2 296.6 295.3 295.8 298.1 305.9 314 328.2 342.9 356.7 368.8 372.7 370.1 357.5 341.6 323.5 306.5 294 286.4 278.8 279.9 289.2 309.5 328.2 345.3 360.6 379.9 411.7 436.9 453.9 470 488 502.7 518.5 535.4 548.5 560.4 570.5 578.7 585.6 591.4 593.5 591.2 586.7 582.7 579.8 575.4 571.5 566.3 559.7 556.1 552.3 549.3 546.6 544.2 540.6 535.9 529.8 524.2 518.3 511.4 503.5 494.9 486.5 476.2 465.4 452.8 439.8 424.3 404.3 384.6 364.5 347.9 333.6 320.1 305.9 293.5 289.7 295.7 305.8 319.9 336.8 352.7 365 374.9 376.4 372.8 364.2 353.2 342.4 331.5 326.9 343.7 364 379.1 386.5 392.6 397.6 402.4 404.9 405.7 401.3 400.2 397 409.1 422.3 442.1 459.9 473.1 481.4 494.8 506.7 518.8 529.1 537.8 544.1 548 550.5 552.1 553.2 554.1 557.4 560.6 563.4 566.6 569.3 572.4 575.8 579.1 582.6 586.3 589.5 591.4 590.4 587.3 583.4 579.2 573 568.5 563.7 559.6 554.4 553.1 551.5 554.2 556.6 559.7 561.6 562.8 563.5 564.6 563.9 561.4 558.9 556.5 555.4 554.2 553 551.8 550.9 550.6 549.9 549.5 549.6 550.4 545.4 536.6 525.1 513.7 502.6 493.7 488.3 482.6 475.8 470.6 465.4 459.4 453.5 448.6 444.1 438.8 434.9 434.8 433 427.3 431.9 437.4 442.6 446.5
390.4 371 349.4 327.6 306.2 295.7 283.6 282.4 285.7 286.4 283.1 279.2 282.5 283.8 283 283 287 296.4 309.2 324.1 339.8 353.6 356.9 353.1 340.2 325.7 308.8 293.9 283.3 275.8 276.5 284.2 299.3 318 337 354.2 371.3 398.5 428.8 448.3 463.9 479.9 495.3 508.4 525.2 540.1 551.1 561.7 570.3 576.9 583 586.8 586.2 581.7 577.8 572.8 567.4 562 554.9 549.5 544.8 542.2 539.5 538.4 536 534.2 531.4 527.4 522.2 516.9 511.7 504.5 497.1 489.2 481.3 471.5 461.1 450 437.4 422 404.5 386.4 366.9 350.3 335.7 321.4 305.7 287.4 288.9 295.3 306 321.3 337.5 351.1 360.7 365.8 362.7 355.3 345 333.9 321.1 322 342.9 361.6 378.8 391.9 395.8 400.7 406.5 411.5 416.7 421.5 423.4 423.5 423.9 423.7 422.8 416.4 436.2 449.6 471.2 486.4 502.6 514 525.3 534.6 541.6 546.1 549.1 550.5 552.1 553 556.8 559.3 563.6 566.7 570.6 574.1 577.5 580.5 583.6 587.3 589.9 591.6 591 588.5 584.8 580.7 576.3 572.2 567.2 564.1 558.8 558.5 558.5 560.7 563.4 565.1 565.4 564.9 564.7 563.8 560.4 556.7 553.8 552 550.3 548.4 546.9 545.8 544.5 543.8 541.3 538.8 539.1 538.2 534.5 525.8 511 498.2 486.4 478.2 473.8 469.1 461.9 456.1 450.5 445.4 439.6 433 427.2 422.8 419.9 419.1 424.9 420.6 427.4 432.6 437.2 441.2
375.6 360.1 340 319.6 304.8 295.6 286.5 278.4 277.9 276.1 274.8 272.8 270.3 271.2 271.9 270.9 273.5 280.3 290.8 305.3 322.2 335.5 339.2 334.2 322.1 309 293.5 278.5 273 275.1 281.7 291.5 306.3 326.3 345.2 361 378.1 407.9 432.2 450.6 470.3 484.9 497.5 510.5 528.3 540.6 550.8 559.7 566.6 572.4 577.5 577.6 574.6 570.5 565.7 560.9 554.4 547.1 540.6 534.8 531.8 528.2 526.8 528.1 527.8 526.1 523.1 518.5 513.5 508.6 503.1 497.3 490.5 482.5 475.3 466.9 456.8 446.9 433.9 419 402.6 384.5 364.3 348 333.4 318.3 303.5 287.2 287.8 293.6 305.2 321.6 335.5 345.8 350.3 349.8 344.5 335.4 324.6 316.5 321.6 335.8 355.4 374.3 389.2 397 402.1 407.9 414.6 419.9 424.8 429.4 434.2 440.9 444.4 447 448.4 440.9 427.4 442.8 465.2 481.8 497.8 510 520.9 531.1 537.7 543 546.5 548.2 549.6 552.1 555.3 559.3 562.8 567.7 572.4 575.8 578.6 581.2 584.4 587.6 589.9 590.7 589.8 587.7 585 581.6 578 574.2 570.9 567 565 564.1 563.7 565.8 567.1 567.4 566.1 564.8 562.9 559.6 555.4 551.5 548.5 546.4 543.6 540.3 537 535.1 532.7 530.4 526.7 524.1 521.5 520.2 516.4 508.2 496 484.6 474.9 464.5 459.1 456.5 450 444.8 438.5 428.6 424.9 421.7 422.2 425.2 419.2 413.3 409.7 412.8 423.9 428.3 432.1 435.8
366.5 346.1 328.4 315.7 305.1 298.4 290.9 281.9 277.5 282.7 283.1 279.7 275.7 270.6 269.3 268.7 268.3 267.7 274.6 289.8 305.8 316.2 319.5 313.7 303.2 290.5 277.2 271.4 273.2 279.8 291.3 303.9 319.5 336.3 351.9 366.4 383.6 405.9 424.3 445.3 468.5 486.2 497.7 511.5 527.2 538 547.7 554.1 561 566.1 567.1 565.6 562.3 557.5 552.2 547.2 540.2 533.2 527 520.5 515.6 515 516 519.6 519.3 517.9 514.3 509.6 504.4 499.4 494.5 489 482.8 476 468.4 460.4 452.3 442.1 430 415 399 380.5 360.1 342.1 329.8 313 296.5 285.9 287.7 292.1 302.6 316.4 327.2 332.9 331.9 327.4 321.8 314.8 311.3 323.3 333.8 346.7 364.8 382.3 393.5 401 408.6 415.7 421.5 426.3 430.9 436.2 441.7 446.7 451.7 456.3 460.6 461.9 444.3 437.6 457.5 478.9 494.3 506.9 517.9 527.3 532.9 538.4 541.5 544.6 546.7 550.1 553.8 558.3 564.1 569 572.5 576.3 578.3 581.7 585.4 587.8 588.9 589.1 588.3 586.6 584.1 580.8 577.6 575.3 572.9 569.7 568.5 567.5 567.8 568.4 568.2 567.6 566.3 563.1 557.9 553.7 549.5 546.1 542.1 538.4 534.6 530 526.8 522.9 519.1 514.6 511.1 506.8 503.2 500.6 495.2 488.1 480.4 472.1 464.9 456.6 448.3 435.5 432.1 431.4 429 431.5 433.8 436.6 437.5 435.4 430.9 423.6 414 407 417.6 422.4 426.1 429.6
371.8 349.1 330.8 319.5 310.1 302.4 294.6 285.3 297.2 300.4 301.1 302.3 299.6 292.5 278.5 266.3 265.9 266.4 266.1 273.4 286.9 295.9 298 294.9 287 278.2 269.6 269.9 276.1 289.6 302.8 317.9 331.7 346.4 358.5 369.1 380.9 396.9 411.8 436.3 464.9 485.7 498.1 510.2 523.3 533.5 541.3 549 554.6 556.9 556.7 554.3 549.3 543.9 538.6 532.4 526.5 518.2 512 505.5 501.1 502.1 506.7 511 510.4 508.2 504.7 499.9 494.4 490 485.6 480.1 474.4 468.2 461.2 454.4 446.3 435.9 424.1 410.1 394 375.7 357.4 338 320 301.7 285.3 284 288 290.6 297 308.6 312.3 311.1 308.3 305.9 306.7 309.6 326.1 337.8 349.2 359.9 375.1 389.5 399 407.1 414.6 421.5 426.7 431.4 436.5 441.1 446.7 451.9 457.8 463.3 468.3 470.3 456.4 435.6 454.8 479.6 492.6 504.2 514.6 522.3 528.1 532.7 536.2 538.9 542.6 548.4 553 559.3 565.1 569.7 573.8 575.8 579.6 583.3 586 587.1 587.6 588.4 587.2 584.9 582.1 580.7 578.4 576.2 573.6 571.8 570.6 569.8 570.2 569.8 568.7 567.1 563.5 558.5 551.8 546.3 543.1 539.7 536.6 532.3 527.3 520.7 516.3 511.5 506.1 501 496.1 490.5 486.3 482.2 477.1 470.9 464.1 459.1 451.9 443.5 439 437.9 438.6 441.1 443 445.5 447.5 447.2 444.7 440 434.5 427.6 422.2 410.4 407.8 409.8 417.5 422.1
376.9 357.8 340.3 325 314 306 297.6 299.8 308.8 314.3 317.9 321.7 319.7 307.6 292.2 278.5 266.2 264.8 264.3 264.1 269.4 278.9 280.8 278.7 273.4 269.9 267.3 266.7 286.1 303 315.4 328.7 343.7 362 372.4 383.8 395.5 410.8 428.2 441.7 459 483.3 497.6 508.9 518.7 527.9 535.9 542.8 546.6 548.2 546.8 542.7 536.3 530.1 524 518.3 511.7 503.7 495.6 488.5 485.4 489.6 496.2 500.6 500.4 497 493.5 489.2 484.9 480.9 476.2 470.6 465.2 459.4 453 446.2 437.7 427.2 416.7 403.6 386.8 370.5 349.6 329.6 311.8 287.5 282.4 284.3 287.4 289.4 291.4 295 297.6 299.1 302.2 310.9 321 331.8 342.5 353.6 366.1 378.2 389.5 398.3 406.3 412.5 418.7 425.8 431.6 437.2 441.3 446 451.5 457.6 463.6 468.6 472.8 475.4 470.6 445.4 454.3 477.2 489.2 500.1 509.3 516.8 522.4 526.2 528.5 534 541.5 547 551.6 558.4 565.4 570.4 574.1 577.4 580.5 583.7 585.6 587.9 588.3 588.6 587.8 585.7 583.9 581.5 578.6 576 573.2 571.5 570.4 570 569.6 569 566.4 562.8 556.7 551.3 545.7 541.6 538.7 535.9 531.5 527 520.8 513.3 507.1 501.9 495.7 488.7 481.7 474 467.9 460.4 456.4 452.2 450.2 447.5 445.1 444.6 445.2 451.4 453.1 455.5 458.5 459.8 457.5 453.4 448.1 443.3 438.8 433.9 428.7 423 411.9 401.7 402.8 409.3
390.8 372.5 351.9 332.7 320 309.8 296.4 311 320.8 330.4 336 340.4 336.2 320.7 303.5 289.5 276.9 265.1 263 262.9 263.1 266.3 270.3 271 269.6 266.4 264.3 280.6 298.2 311.7 325.3 339.8 361.1 379.5 390.5 401.4 411.6 430.8 447 463.7 476.4 485.3 497.9 506.8 514.9 522.9 529.9 536.2 538.7 538.9 536 531.1 523.6 515.8 508.4 502.1 495.2 487 475.6 467.6 464.7 476.3 484.1 489.3 488.6 485.9 482.7 479.4 475.4 470.9 465.7 460.8 455.5 450.2 443.9 436.3 428.5 419.9 408.5 396.3 380.9 361.7 339.2 319.1 302.9 281.2 282.9 284.6 286.9 288.2 293.9 301.2 308.4 315.8 321.8 329 339.3 348.6 359.9 371.8 385.8 393.3 400 406.8 413.1 418.2 424.3 430.5 436.4 441.2 445 450.3 455.6 462.4 467 471.5 476.2 479.3 480.4 467.2 450.4 464.1 481.8 494.6 502 508.3 513.2 514.3 527.1 534.9 541.2 546.6 550.8 557 564.5 569.5 574.2 577.4 581.2 584.4 587 588.7 589.2 589.5 587.7 586.5 583.8 581 577.7 574.3 570.5 568.6 567.8 566.6 565.8 562.4 559.6 554.6 549.6 544.2 540.8 536.4 534.1 531.4 527.2 521.4 516.6 509.8 499.4 491.3 484.1 471.1 469.7 467.3 463.3 462.2 461.4 462.7 465.8 464.9 463.2 463.6 465 466.5 468.9 471.5 472.1 468.4 463.9 458.3 453.3 448.1 444 438.9 433.2 428.4 423.3 412.1 399.3 398.7
395.1 380.4 365.8 344.9 324.9 308.9 306.5 322.7 335.4 347.8 357.8 362.8 355.4 339 319.6 300.6 286.6 268.4 262.8 262.1 261.9 261.7 264.3 266.9 265 264 270.3 290.7 304.8 318.6 332.7 351.7 374.2 390.1 402.4 415.2 429.2 443.6 459.7 475.5 486.8 494.2 500.2 506.8 512.6 519.5 525 528.7 530.5 529.3 525.5 518.3 508.8 499.3 491.9 484.9 477.1 466.3 453.5 441.2 441.9 461.7 472.2 478.3 477.5 475.2 472.2 469.4 465.4 460.8 456.2 451.3 446.2 441.1 434 427 418.7 409.6 399.8 387.3 373.2 354.6 333.4 314 294.9 280.3 282.1 285.9 291.7 297.1 303.9 313 324.2 333.5 341.7 348.9 356.9 369.3 381.5 391.8 399.1 404.5 409.6 415.4 420.3 424.6 429.6 434.9 440.1 445.1 449.9 454.7 460.6 465.2 469.5 475 479.6 482.8 484.9 484.7 473.4 457.4 473.4 486.9 491.7 498.6 508.7 517.4 524.4 532.2 539.6 545.1 550.4 556.9 562.8 568.5 573.4 578.1 582.4 586.1 589.1 589.8 590.4 590 589.1 587.3 583.4 579.9 576.7 573 567.1 563.2 562.5 560.8 558.2 554.1 550 546.8 543.2 540 535.8 532.5 530 527 522.6 517 511.5 503.7 491.5 479.7 483.3 494.3 496 494.8 492 490.3 488.1 485.9 484.9 482.5 480.3 479.9 480.9 483.1 484.5 482.2 479.8 474.3 468.6 463.3 458.6 453.2 448.1 443.4 437.6 432.1 428.3 421.6 407.4 393.7
396.8 383.4 370.2 350.4 325.1 308.1 320.5 339.5 351.3 365 376.8 380 371.2 356.1 335.2 312.7 294.7 280.6 263.5 260.7 261.1 260.4 260 262.2 262.8 262 278.2 295.3 310.2 324.3 340.3 360.9 380.5 395.7 410 425.2 439.2 453.9 470.2 483.1 495 501 504.2 507.3 512.8 516.5 520.1 521.9 522.3 518.7 511.8 503.4 493.1 482.2 473 465.1 454.8 440.7 428.4 414.6 422 445.3 462.7 468.2 467.4 465 462.1 458.9 454.9 450.7 446.9 443 438.3 432.1 425.2 416.3 407.4 399.2 388.8 375.9 364.1 346.9 327.4 308.9 285.2 279.5 281.7 288.3 295.1 303.8 312.8 324.8 337.7 349.9 358.7 366.8 377.1 387.1 395.9 403.8 408.2 414.2 418.6 422.2 425.9 428.9 433.8 438.1 442.6 447.8 453.1 458.4 463 467.7 472.8 478 482.4 485.2 487.4 488.7 488.4 477 474.3 478.3 481.6 499.9 508.5 514.7 521.6 529.9 536.1 542.4 548.7 554.8 562.7 567.7 573.6 579.1 583.8 587.6 590.2 591.1 591.5 591.3 590.5 588 585.5 581.3 576.8 571.4 564.4 559.3 554.8 552.6 549.9 547.6 544.5 542.4 538.3 534.8 530.2 526.3 523.8 521.7 517.7 510.6 501.3 489.9 491.5 499.3 509 511.5 512.8 513.6 513.8 511.9 509.4 507.2 504.1 501.2 497.1 496.1 495.4 494.8 492.4 488.1 483.2 478.1 473.3 468.7 463.8 457.9 452 446.8 441.4 436 430.8 425.5 416.3 405.2
393.9 381 368.4 350.9 324.6 315.1 335.7 354 367.4 380.6 389 388.1 379.2 367.1 349.4 324.8 302.4 287.3 274 260.8 259.2 259 259.1 259.9 260.1 263.7 282.6 297.3 312 326.9 344.3 367.1 384.1 400.6 416.1 431.7 446.5 460.9 472.9 488.1 498.3 502.5 505.6 508.3 511.2 513.8 515.1 514.8 512 506.6 497.9 485.5 474 462.6 450.6 439.9 428.2 416.7 406.5 395.2 406.3 430.4 453 458.9 459.4 456.4 452.3 448.3 444.2 440.8 438 435.7 431.5 424.8 416.7 405.7 394.6 385.8 375.8 365 353.2 336.9 319.3 302.8 277.1 277.8 282 290.7 299 309.7 321.3 334.1 352.5 365 373 382.3 390.8 398.1 406.5 411.7 416.1 420.7 423.7 428 430.4 433.3 436.6 439.9 444.3 449.3 454.8 460 465 469.5 474.3 478.6 483.2 486.3 488.6 490.4 492.9 493.7 493.9 497.2 499.4 504.7 510.1 515 521.3 528.1 534.5 540 546.4 554.4 561.8 568.1 574.1 579.6 583.2 587.7 590.7 592.2 593 593.8 592.6 590.1 586.7 582.4 577.3 569.6 562.9 556.6 551.6 549.3 547.3 543.6 539.5 537 530.5 524.4 519.6 514.6 511.4 509.5 505 496.6 497.6 499.2 511.8 519.4 523 525.4 528.2 529 529.7 529.6 526.6 524.6 521.3 516.8 510.3 506.2 503 500.1 494.7 489.3 485.6 482.3 478.5 473.6 467.5 461.6 455.1 448.8 442.9 438 433.1 427.4 420.9 407.6
386.6 374 361.7 345.8 323.7 329.3 353.3 369.7 382.5 392.8 395.2 392.8 384.2 373.6 358 336.2 310.7 291.3 278.4 264.9 258.5 258 258.2 258.3 257.8 267.1 281.7 295.7 311.1 326.7 346 368.5 385.4 401.7 417.9 434.7 449.8 461.5 471.4 484.6 493.4 500.1 503.4 506.1 508.1 509.4 508.8 505.9 500.1 492.2 481.1 468.7 456.8 441.7 426.9 417.1 407 397.6 385.8 380.5 401.2 426.1 446.9 452.4 452.5 449 443.7 438.3 434.4 431.1 429.4 428 423.4 416.8 407.6 395.8 382.8 370.6 361.6 352.6 340.5 325.9 310.2 294.3 278.5 275.8 283.2 293.4 304.1 316.8 329.9 346.8 363.5 375 384.4 392.8 399.4 407.6 414.5 419 422.6 425.7 428.7 431.9 433.3 435.2 437.9 440.5 444.7 449.7 454.3 460.1 464.8 469.2 473.9 478.2 482.5 486.1 489.1 492.8 495.6 497.5 500.1 502 504.3 507.9 513.6 518.3 523.8 531.5 538.7 544.5 551.2 558.2 564.9 568.8 574.3 578.6 583.2 588.1 590.8 593 594.6 595.2 594.3 591.4 588.3 583.4 578.3 571.2 565 558.6 553.1 549.9 545.6 543.6 539.6 537.5 533.9 529.1 525.1 520.9 515.3 510.4 507.5 509.9 517.7 521.8 525.9 529.3 533.2 537 540.4 541.8 542.8 540 536.7 532.6 528.4 523.8 518.6 510.9 504.7 500.1 493.8 489.7 486.7 484.7 480.3 474.9 469 462.3 455.4 449.5 444 439 434.1 428.3 422.1 407.9
371.2 356.5 341 330.3 330.2 349.3 368 384.7 396 401.5 402.8 398.7 390.3 379.2 363.7 343.5 318.1 297 283.4 272.4 259.2 257.2 257.1 257.2 257 266.4 280.4 294.2 308.8 324.5 344.3 365.2 383.1 399.4 416.1 433.5 448.6 458.5 467.4 478.3 487.6 494.8 498 500.5 501.7 501.5 500.4 495.4 487.6 477.7 465.8 454.3 442.3 425.7 408 395.8 388.1 378.3 369.5 375.9 402.7 427.2 443.7 447.4 447 443.3 437.3 428.4 420.8 419.8 420 418.7 414.6 407.1 396.8 384.8 371.8 357.9 346.4 336.7 326.9 314 298.8 284.7 273.4 275 286.6 297.8 310.4 325.1 340.6 357.5 372.3 382.7 391.8 399.7 407 413.9 421.3 424.3 426.7 430 432.1 433.3 434.9 436.4 437.9 440.9 444.6 449.4 454 458.5 463.1 467.5 471.5 476 481.1 485.2 489 493.2 496.8 499.5 501.9 504.3 507.9 511.8 516 522.2 527.7 534.2 540.9 547.8 556.1 563.4 570.2 575.6 578.6 581.6 585.5 587.6 590.8 593.5 595.5 596.1 595.8 593.4 589.9 585.3 580.6 574.6 568.2 562.7 557.7 553.2 549.5 546.8 543 540.8 536.4 533.5 530.7 526 522.9 522.8 523.4 525.6 528.2 528.6 531.5 534.6 540.2 545.7 549.5 549.1 546.8 543.7 539.1 534.2 529.8 525.1 518.9 510.9 502.8 497.4 491.9 488.6 485.5 482.6 478 472.6 467.3 460.2 453.5 448.7 443.9 439.3 434.2 428 421.8 408.5
351.2 346 347.2 344.9 354.6 369.8 384.9 399.3 408.2 413.6 412.1 406.5 397.1 385.3 369.7 348.6 323.1 300.8 286.8 275.9 265.8 257.3 255.9 256.1 256.2 263 278.7 290 303 318.6 335.5 354.4 373.9 392.3 409.1 426.1 441.6 452.4 461.2 470 477.9 486.1 488.6 490.6 491.8 490 488.4 482.9 474.5 464.8 452.9 440.6 428.9 409.3 390 378.3 369.9 361.9 356.3 380.8 408.3 431 442.1 442.6 440.7 437.2 431.8 423.2 405.8 398 405.6 406.5 402.8 395.4 385.1 373.9 362.1 347.9 331.8 318.8 310.5 300.1 285.6 271.7 273.8 282.1 295.2 307.3 318.4 333.1 350.1 366 377.9 387.5 395.7 404.2 412.2 419.6 424.8 428 430.5 431.4 431.1 431.6 434 435.8 437.2 439.5 442.5 446.8 450.7 455.3 459.4 463.5 467.5 472.5 477.3 482 487 491.6 496.3 499.5 501.9 505.3 509.5 514.6 520.3 525.5 531.4 537.7 545.3 553.1 561 567.8 575.5 579.8 583.4 584.3 588.2 590.8 592.8 593.4 595 595.9 596.7 595.4 593.1 589.7 584.6 578.8 573.8 568.6 563.5 559.2 555.7 551.1 548 544.5 540.8 537.1 534 531.8 529.3 528.7 529.4 530.1 530.2 531.1 534 537.7 543.3 547.8 548.9 546.3 543.7 540.1 536.1 531 526.1 520.6 513.7 506.4 498.7 492.4 486.8 483 479.6 475.7 472.4 468 461.9 455.7 451 446.5 442.8 438.7 433.6 427.5 421.5 412.8
368.2 373.5 376 372.7 377.5 390.2 401.9 412.4 420.3 423.8 420.3 413.1 403 390.8 376 356 330.7 306.6 291.4 280.1 269.9 256.9 255.3 254 254.4 259.6 270.7 280.3 292.4 307.1 324.1 341.7 359.9 377.1 394.4 411.6 429.7 441.7 451.3 459.2 466.1 472.5 477.9 480.1 482.2 481 477.7 471.4 463.3 452.4 440.6 428.5 413.2 392.5 376.1 361.6 353.8 346.3 360.8 386 410.6 428.2 433.9 435 434.1 432.7 425.9 418.1 407.1 382.5 385.4 390.7 387.2 380.5 371.3 361.5 348.9 335.4 320.9 304.8 292.7 285 269.4 271.8 283 294.5 307.7 315.7 326.1 341.9 359.4 371.6 380.3 389.4 397.5 407.2 416 422.6 426.8 430.5 429.8 428.3 428.3 429.1 430.2 431.2 433.6 436.6 438.9 441.7 444.8 448.3 453.1 457.4 460.9 466.6 471.4 476.3 483.2 489.2 493.5 497.1 501 505.6 510.1 515.9 521.3 526.9 533.7 540.7 550.6 558.5 565.7 573.7 579.6 583.6 586.6 588.7 590.2 592.4 593.9 596 597.5 598.2 598.9 598.5 597.5 594.5 590.6 585.2 580.3 576.1 570 565.5 560.8 556.2 552.5 548.8 544.1 541.1 538.9 536 533.3 531.1 530.1 528.8 528 528.3 530.1 534.5 539.2 540.4 538.9 536.9 536.4 533.9 529.7 524.1 517.9 511.6 505.6 498.9 492 484.9 478.2 474.2 470.6 466.9 463.4 459.2 453.6 449.9 446.6 444.1 440.1 436.6 432.7 427.6 421.9 414.8
