ncols 200
nrows 82
xllcorner 220000
yllcorner 710850
cellsize 50
340.3 327 311.3 283.5 252.5 222.6 201.8 180.9 161.8 138.9 120.6 115.7 107.7 93 81.4 80.7 75.3 73.7 70.5 67.4 62.4 63.2 51.2 43.6 34.4 28.7 28.3 25.9 24.4 25.5 25.3 25.3 24.6 23.1 24.5 27.9 32.6 36.6 44.1 53.6 69.8 94.9 150.1 174 191.5 229.9 266.5 298.3 339.8 353.8 394.3 430.3 450.4 435.4 455.3 468.4 502.4 501 502.4 504.6 495.1 485.5 481.2 481.6 478.1 476.5 473.7 473.3 474.7 471.9 475.9 481.8 487.3 489.8 488.9 489 489.2 487.1 491.1 496.3 501.2 505 508 512.7 517.3 526.8 537.6 548.7 564.6 578.4 584.1 586.3 590.2 580.8 563.4 556.4 549.3 545.4 537.8 533.1 528.4 526.8 526 526.1 526.6 526.1 526.4 527 530.1 531.3 532.6 534.8 539 539 541.6 542.9 546.8 546.2 546.7 548.9 546.8 542.3 545.4 539.3 536.6 532.5 530.2 528.3 531.7 532.9 535.7 530.8 524.9 521.9 519.2 526 523.9 519.7 524.1 521.3 514.1 500.6 484.5 469.4 462.4 460.2 442.5 426.6 413.4 418.7 415.8 405.8 392.8 389.5 384.8 377.6 369.3 360.5 356.7 350.5 335.9 328.3 324.7 320.9 314.2 310.8 309.9 308.7 310.6 309.8 309.3 309.8 310.3 312.3 313.4 316.3 318.7 323.9 326.5 333.7 339.6 343.6 350.2 357.7 365.5 373.1 379.4 388.4 395.8 403.1 409.9 414.9 422.2 433.2 442.1 452 462.7 477.1 492.5 512.8
317.2 296.3 277.8 248.9 214 196.6 177.8 157.6 138.3 120.3 108 108.3 94.9 83.5 69.7 64.9 62.9 62.6 59 55.2 52 47.4 35.7 32.6 34.3 22.8 20.6 18.1 18.2 23.1 23.7 23.8 24.4 26.5 29.5 32 36.5 42.5 51.4 62.3 84 119.4 151.9 176.7 199.1 233.7 280.4 318.1 366.9 403.5 447.9 464.4 470.9 476 481.9 488.8 509.9 508.6 507.6 507.3 501.1 494.3 487.8 486.5 484.9 482.9 479.5 477.3 478.1 478.3 478.9 485.3 485.8 487.9 490.2 489.2 488.6 489.2 492.9 499.4 504.2 507.3 511.6 514.8 518.1 528 542.4 551.9 572 584.5 588.8 591.7 596.2 586 566.1 555.5 546.5 541.9 535.1 531.9 527.5 525.9 526.5 525.7 528.7 527.8 526.1 526.1 528.9 532.4 534.2 534.7 535.2 537.6 542.1 543.7 547.1 545.5 546.8 542 536.4 536.1 539.5 532.3 523.7 524.1 520.6 520.6 523.3 524.1 515.5 521.5 517.8 514.3 511.9 506.9 503.3 502.6 500.5 491.3 480.1 462 450.1 445.4 438.1 433.4 422.8 406.6 403.1 408.9 401.6 388.1 381.3 373.5 369 367.3 361.7 353.8 353.6 335.1 326.7 321.4 316.7 312.6 308.4 309.4 310.2 289.1 307.6 308.2 309.7 310.6 313.2 314.3 316.4 317.9 324.7 330 333.6 341.3 347.1 352.4 354.8 365.2 372.3 379.7 388.9 395.6 403.7 410.6 417.6 425.7 431.8 440.5 449.8 461.1 474 484.4 502 516.2
293.3 276.2 239.4 214.2 191.1 174 155.8 134.8 116.3 104.8 100.8 93.7 82.3 73.6 58.1 52 51.3 51.8 48.1 43.5 40.2 30.6 27.1 22.4 19.3 16.4 21.3 21.8 22.9 24.3 25.6 25.1 26.4 28.5 31.9 34.9 42.2 49 59.1 71.4 95.3 133.9 164.5 185.2 205 238.8 276.1 341.5 382.1 425.9 486.2 490.7 486.9 490.1 495.3 508.1 515.4 514 518 517.5 509.5 500.3 496 495.1 492.7 489.4 487.1 483.6 482.2 483.7 484.5 484.1 485.1 490.6 490.8 489.2 490.3 493 495.6 500.1 502.7 508.8 513.4 518.1 524.4 536.1 550.4 562 578.8 588.7 594.2 595.7 592.1 571.4 556.8 550.9 544 542.1 535.4 532.3 528.6 527.7 526.8 527.9 528.3 527.5 527.9 529 529.7 530.1 530.9 532.1 534.6 537.5 538 541.7 544.1 543.4 544.5 537.4 535.2 533.8 528.5 528.9 523.9 520.8 520.2 519.6 524.5 507.2 512.1 509.8 514.1 502.4 499.6 494.7 491.2 486.7 479.3 467.4 457.1 444.9 435.6 425.9 420 408.4 395.6 389.5 393.7 395.2 379.8 377.2 372.3 365.2 359.6 356.7 352.8 340.5 338.6 324.5 317.3 313.1 308.4 306.3 306.8 308.5 306.9 307.5 308.8 309.7 311.4 312.2 314.8 319.6 322.4 328.1 332.1 337.8 345 350.4 354.9 360.3 366.4 370.8 378.1 386.7 396.1 404.4 410.9 419.6 427.6 435.2 443.7 450.6 458.4 470.2 481 492.5 503.1 515.5
263.9 236.1 208.2 187.8 168.8 151.1 129.6 113.4 101.6 98.4 93.6 82.5 70.8 58.3 41 42.5 39.3 41.1 37.7 31.3 28.7 19.4 18.7 16.4 17.3 21.3 22.2 22.9 23 25.1 26.4 26.8 28 32.2 35.5 42 49.2 57.3 69.3 83.1 107.5 143.9 172.8 192.4 212.4 244.8 285 348 409.8 461.3 493.3 496.3 500.6 506.3 504.1 510.7 513.4 517.7 527.3 530.7 523.4 508.9 506.1 506.3 500.7 496.9 492.4 489.1 485.1 484.7 485.5 483.9 484.3 489.2 489.1 491.9 493.2 496.4 497.5 501.5 506.6 509.2 514.3 518.5 529.8 541.8 550.1 560.8 575.3 589.2 597 583.3 567.8 558.2 551.7 547.9 541.6 540.6 534.6 532.9 530.2 526.8 526.8 527.4 527.3 525.3 526.3 524.4 528.6 528.9 529.4 530.7 536 539 540.1 542.8 541.4 542 536.1 534.4 533.5 527.9 523.6 519.1 523 518.6 514 512.2 511.4 506.8 497.9 495 493.1 490.2 488.2 483.4 482 474.9 465.3 457.1 452.1 432.7 423.1 411.9 403.1 390.4 376.5 375.3 381.7 374.2 370.5 368.2 360.7 355 349.6 341.5 340.7 332.9 325.6 317.8 309.4 307.5 308.6 304.4 308.4 307.2 280.8 308.1 309.8 311.9 313.5 317.3 317.4 322.4 329 334.7 340.8 348.1 353.6 358.9 362.8 368.5 375.3 381.3 386.4 395.2 404.3 413.4 421.5 427.9 435.3 444.3 452.5 459 466.8 478 487.9 498.6 508.4 520.3
230.4 202 183.6 163.9 145.4 125.2 106.2 96.4 95.1 91.7 82.4 70.3 55.9 44.1 32 32.4 29.9 31.1 26.1 23 18.7 16.7 14.8 19 20.8 21.3 22.4 22.9 22.7 25.1 26.6 29 31.2 33.6 36.4 43.4 54.1 68.9 81.1 100 125.1 159.7 178.8 200.7 224.4 256.3 302.9 347.9 405.8 463 491 496.7 508.4 513.5 510 512.6 515.3 511.7 521.8 523.4 519.7 520.3 514.7 506.6 503.4 507 500.4 494.3 490.5 487.5 485.3 484.3 486.3 488.6 491.2 493.5 496.6 498.7 500.3 503.6 510 511.6 517.3 525.1 534.6 544.4 553.9 572 582.2 589.1 597.9 583.6 570.5 564.2 553.7 549.4 544 541.4 538.1 534.1 530.8 527.1 525.6 524 525 525.3 525.5 525.9 523.9 527.1 532.2 533.9 537.8 538.8 541.1 540.2 540.7 536.9 533.6 527.6 525.2 518.6 516.8 515.4 511.6 510.7 503.1 503.2 500.1 495.2 489.5 485.4 483.4 482.2 479.9 475.4 473.2 472.1 458.1 447.5 431.6 424.8 413.3 400.8 388.9 377.8 365.6 361.5 362 361.3 361.4 357 351.5 347.8 339.4 336.7 330.3 321.6 312.3 310.6 304.6 303.8 303.8 304.6 308.6 280.4 307.1 308.9 311.2 314.8 319.9 321.1 324.6 332.6 337.9 343.4 350.8 357.6 362.6 367.2 371.8 378.6 385.1 390.7 396.1 402.2 410.7 421 430.8 436.2 445.3 451.6 460.2 467.6 478.5 488.2 497.2 508.6 517.5 527.5
197.8 179.3 160.4 141.4 121.9 103 88.7 91 90.7 81.6 71 59.6 46 33.6 27.8 25.7 25.8 24.2 20.4 16.9 15.5 13.3 17.9 19.8 20.6 21.1 20.8 20.3 21.3 24.6 27.2 31.1 35.7 38.1 42.4 46.6 53.2 75.7 95.4 119.1 145.6 172.5 195 214.1 236.1 271.4 320.2 350.8 400.5 462.8 479.3 485.4 499.7 504.1 511.4 506.5 511.4 512 515.5 522.6 526.6 525.7 517.4 513.6 503.5 502.6 503.9 497.5 494.7 490.9 486.3 488.8 488 490.2 493.1 494.6 498.3 501.7 504.8 507.4 512.1 516.2 520.3 528.1 538.2 547.7 560.7 568.4 578.5 591.2 595.7 592.5 577.8 568.9 558.7 552 545.7 542.9 538.8 534.9 529.2 527.2 524.6 521.9 522.2 524.2 523.9 522.6 525.1 527.1 531.2 535.1 537.9 538.5 538.8 539.4 540.4 538.8 533.4 526.7 521 519 520.6 511.7 508.3 500.4 499.2 495.7 496.1 486.5 485.4 479.6 476.6 475.8 476.2 471.9 469 460.4 445.9 436.1 427.6 419 403.2 388.8 379.8 368.3 355.7 351 351.7 351 349.9 344.5 342.7 341 330.9 326.9 320.9 312.8 307.2 305 291.3 286.7 290.3 280.4 304.9 306.3 308.1 310.6 313.6 317.1 323.6 327.4 335.3 341.1 346.9 354.6 359.4 367.2 372.1 376.3 383.5 389.3 395.9 402.5 407.7 413.2 415.7 427.4 437.8 447.4 451.1 461.6 468.8 479.9 484.9 504.4 507.9 518.9 526.6 539.3
187.3 155.8 138.4 120.4 101.9 82.9 85.7 88.3 81.4 64.2 54.6 45.1 35.2 27.3 23.5 21.4 21.8 19.4 15.8 14.1 14.4 17.8 18.6 19.4 19.8 20.3 20.3 21.5 24.2 27.8 32 34.5 42.7 44.5 55.5 64 76.1 89.2 107.3 128.6 159.3 184.7 206.2 222.7 250.2 282.7 327.9 356.3 382.9 404.3 451.6 460.4 481.2 492.1 500.4 497.5 505.1 514.5 518 522.2 522.5 516.4 505.6 502 498 498.5 502.4 499.7 498 492.5 495.2 491.3 493.5 492.8 495.3 497 498.2 504.7 508.4 511.7 516.1 522 526.9 535.6 544.9 553.2 562.2 568.7 578.1 588.6 601.9 596.5 582.3 573 563.4 554.8 550.3 545.2 538.7 534.1 531.1 527.1 522.3 520.1 519.2 519.2 520.3 520.2 522 524.3 528.7 532.9 534.5 533.7 536.3 537.3 539.1 537.1 532.8 528.7 520.5 518.6 514.6 512.6 505.4 501.1 499.8 498.7 489.3 483.3 481.3 476.9 475 477.5 473.8 471 464.8 459 448.2 430.8 417.4 406.4 394.9 382.1 371.1 361.1 351.2 348 345.2 343.4 335.3 335.3 326.5 323 321.4 315.7 309.4 306.1 304.3 303.9 287.6 297.9 304.3 305.4 306 307.1 309.6 313.9 318.8 323 331.2 334.7 341.9 348.8 358.3 364.5 370.1 378 383.6 388.2 396.7 402.7 409 415.1 419.8 424.7 429.6 435.8 445.6 453.9 461.7 468.5 475.4 484.7 496 512.5 516 524.9 534.4 546.9
170.1 143.9 115.5 99.6 85.4 78.1 84.4 78.7 62.6 49.1 40.1 32.8 24.4 20.2 19.5 18.6 16.3 14.1 13.3 17 17.1 18 19.9 21.4 21.5 21.2 23.4 25.9 30.5 35.1 38.5 46.5 52.7 60.3 72.4 83.9 98.3 111.9 129.2 146.6 144.9 190.8 216 230.7 251 283.2 308.6 321.5 348.3 357.8 381.9 412.7 463.5 465.9 486.4 484 498.5 507.8 514.7 522.6 514.3 509.4 501.1 499.8 496 497.2 503.7 503.2 499.8 498.9 499.5 499.7 496.4 497.5 498.2 499.1 501.2 506 511 514.6 522.2 526.8 531.2 539.8 547.9 557.4 567.6 570.8 579.3 592 598.4 588.7 581.3 574.6 564.5 558.3 551.3 544.4 539.7 536 533.9 525.7 520.7 518.9 515.5 516.5 518.1 514.8 519.4 521.6 522.8 528.5 527.1 532.6 529.9 530.9 535.7 535.1 526.5 522.7 524.5 521.6 519.4 513.6 508.8 504.4 496.8 492.4 485.9 480.3 473.7 473.2 474.1 468.8 467.4 463.4 460.2 449.2 437 426.2 414 397.5 385.5 374.3 361.4 345.7 344.8 343.3 337.9 333.8 330.1 323.6 316 310.6 312.1 305.4 305 296.7 297.1 300.5 287 295.3 306.1 307 307.2 312.6 315 320.6 326.9 332.5 336.1 341.9 350.2 357.5 367 376.5 382.8 390.3 396.6 402 409.2 415.3 421.2 428.2 432.7 436.2 441.3 445.8 454.7 465.3 476.3 474 480.7 488.4 498.1 510.9 523.4 526.8 541.5 553.5
147.2 124.6 100.3 73.2 68.2 75.8 71.7 58.4 42.8 34.5 25.5 21.2 18 17.1 16.2 15.1 13.8 14.2 16.4 16.5 17.2 18.5 21.3 23.8 26 29.8 30.9 31.9 37 44.2 52.2 65.5 72.6 79.5 90.7 103.9 120 139.3 156.5 177.8 194.2 185 196.7 211 233.2 259.4 277.7 291.7 303 315.9 346.7 376.7 406.2 427 450.6 462.5 486.9 485.6 500.8 511.8 502.9 499.7 497.3 498.2 498 498.7 503.7 503.2 505.2 508.4 503.9 504.4 502.9 502.8 503.5 505.1 507.8 510.5 515.2 517.4 526.8 532 535.3 542.2 548 558.1 570.1 572.2 577 586.8 590 585.6 579 570.1 562.3 560.5 552.9 543.9 538.4 532.3 529.9 524.2 520.9 515.8 512.9 511.4 511.6 512.9 513.3 516.4 517.2 517.5 522.6 525.4 523.6 524.8 525.6 529.2 525 526.3 525.5 522.4 516.4 512.6 508 501.8 495.8 490.5 487.7 480.1 475.2 471.1 466 461.2 459.9 456 454 440.1 429 418.1 403.3 392.8 379.7 366.4 353.4 342.6 337.4 337.3 334.1 329.3 325.9 319.5 313.6 309.5 308.4 299.5 287.4 287 282.4 284.5 280.4 306.3 308.5 310.6 311.3 315.5 319.9 328.8 333.3 339.5 344 351.9 358.7 366.1 375.5 386.9 395.1 402.8 409.9 416.3 423 432.3 438.1 446.5 453.1 453 454.9 460.1 463 474.9 480.4 483.9 489.4 497.4 503.6 518.5 519.9 525 537.6 551.7
138.3 105.8 73.5 63.9 68.6 62.7 57.5 36.1 25.7 19.8 19.4 17.4 15.6 13.9 13.6 13.8 12.4 15.4 16.1 15.5 18.2 20 22 24.5 28.4 31.3 37 40.6 52 67.1 74.7 84.4 94.4 104.8 117.2 130.7 145.1 171.2 196 217.1 226.8 218.3 254.3 242.2 218.5 215.6 234.9 245.9 266.7 283.4 309.6 334.3 359.2 381.6 423.6 444.7 458.9 470.1 479.9 488.4 493.4 492.6 495.1 494.2 494.6 498.5 502.4 504.8 507.4 513 510.4 510.8 510.1 507.4 511.6 511.5 513.1 518.6 522.8 528.1 532.7 536.7 542.9 547.4 553.2 558.5 567.3 569.7 574.5 578.7 581.3 580.4 572.3 563.3 558 553.1 548.4 544.1 535.4 528 525.5 521.6 516.4 514.5 514.5 509.2 506 507.8 506.9 510.1 512.4 514 516.5 517.8 521.3 522.8 523.8 524.9 527.4 526.5 523.7 521.5 516.3 510.6 504.5 502.9 498 493.1 487.3 482.2 478.5 471.6 465 459.6 454.8 459.1 446.3 433.2 420.1 405.9 398.3 387.8 372.7 359 343.2 332.4 333.3 334.7 332.2 323.8 318.3 317.7 315.2 313.1 308 280.4 303.8 302.4 300.1 303.3 308.5 309.3 310.7 313 317.3 321.4 329.2 334.8 340.1 348.5 355.5 362 371.5 378.7 389.5 399.7 407.6 415.2 425 430.6 440.6 446.5 455.2 466.4 473.6 469.9 472.9 474.6 474.2 481.5 490.6 493.5 495.1 500.3 511.1 521.8 524.5 530.7 538.7 544.6
111.5 84.7 59.3 59.4 58.1 54.1 35.8 25 15.8 15.2 14.1 13.9 12.4 11.8 12.6 12.8 14.6 15.5 16.2 18.8 20 22.2 26.7 28.2 32.7 37.1 45.7 55 68.9 85 101.6 109.2 128.3 136.5 149.5 158.3 177.7 214.7 231.4 249.4 256.8 260.6 274 278.1 271.8 279.6 286 299.2 274.4 253.6 256.2 298.5 310.7 346 379.9 418 436.1 453.1 462 470 478.8 483.2 485.7 487.2 493 496.8 504.3 507.5 510.4 515.8 517.6 515.7 514.7 516.3 516.5 519.7 521.7 524.3 528.5 534.8 538 542.7 544.8 551.7 553.7 556.3 560.5 562.5 569.7 575.3 578.4 578.5 569.2 559.7 552.2 549.2 545.8 539.7 534.2 527.7 521.4 513.7 515.3 513.8 511.2 506.4 502 503.2 505.1 507.1 509 511.9 515.5 514.3 516.5 518 518.8 523.2 524.6 524.6 523.1 519.3 515.3 511.7 509.2 501.9 497.3 492.8 486.4 481.8 478.7 471.8 463.1 459.1 454 448.4 435.8 423.6 409.3 401 392.5 375.8 366.1 351.1 339.5 331.8 328.5 330.8 328.4 324.1 317.4 312.8 310.4 305.7 301.3 284.8 304.2 303.8 303.8 307.6 312.3 312.7 313.3 317.9 325.4 330.4 338.5 343.7 352.6 359.8 366.4 374 383.7 391.6 401.6 412.4 422.9 430.9 439 447.5 457.2 464.8 472.8 481.4 484.5 484.2 488.8 493.8 491.3 489.8 493.5 495.5 500.6 504.5 517.1 521.5 528.5 536 542.7 549.4
91.6 63.8 52.8 51.3 47.2 36.9 26 15.6 14.6 10.1 10.3 10.4 10.9 9.7 13.7 13.1 15.5 14.8 15.9 17.8 19.9 24.7 28.2 36.1 39.6 52 62.3 72.4 90.8 108.8 122.7 130.2 150.2 165.9 177.4 190 205.8 224.4 247.8 255.4 264.7 282.9 303.6 335 340 339 359.7 342.6 321.3 312.3 322 305.8 286.3 295.5 331.1 384.4 421.3 436 446.7 452.9 464.1 468.3 471.8 477.8 486.9 488.4 502.5 511.2 515.1 518.7 521.4 524.2 522.5 524.5 527.4 531.6 532.5 534.6 538.1 544.6 545.4 546.6 549.5 553.7 552.1 553.5 557.8 558.5 561.8 569 571.1 571.9 559.6 551.6 547.1 546.4 544.6 536.1 530.3 525.1 519.6 515.7 514.6 514.6 507.4 501.6 499.5 500.4 501.6 502.4 504.1 505 506.1 508.8 511.9 515 515.7 517.6 520 518.5 517.7 517.1 516.5 512.3 509.9 505.4 500.6 494.4 488.5 483.9 476.8 471.8 465.6 460.2 453 440.2 426.4 417 403.3 393.3 381.6 372.5 359.6 347.8 341.7 333.5 328.1 324.8 323 317.7 310.9 308.3 303.6 300.4 296.6 293.6 299.4 302.6 305.9 309.6 312.6 316.4 318.2 326.1 332.6 342.8 350.3 359.3 366.9 373.8 379.8 387.7 396 406.8 415.5 428.6 442 443.3 455.8 466.6 477.8 484.4 492.5 499.9 499.6 500.7 506.1 506.7 505.3 502 504.5 503.6 509.6 514.3 520.6 528.8 537.4 542.4 550.8 552.5
63.6 34.8 48.4 44.4 39.1 23.7 16.2 10 11.1 11.2 11.8 12.3 12.7 12.7 13.1 12.5 15 15.4 15.3 18.1 21.7 26 31.3 39.8 51.9 66.2 75.2 89.5 104.7 123.7 145.7 159.7 165.7 182.3 198 214.1 225.9 236.9 249.1 279.6 297.3 311.3 329.5 368.1 383.7 393 395.2 385.1 380.1 376.7 367.9 367.4 357.8 347.1 353.7 401.4 416.8 422.4 429.9 440.8 446.9 455.7 461.7 469.9 475.9 482 493.1 515.2 520.5 521.5 525.2 528.4 533.2 534.8 535.9 545.1 544.5 544.3 545.6 547 553.1 551.5 550.4 551.3 548.8 551.3 552.1 557 555.6 559.1 564.5 563.9 556.3 549 543.6 541.8 542.4 529.3 526.7 518.1 514.5 513.1 509.3 507 506.9 501.5 499.8 495.3 500.7 497.8 500.7 500.9 501.8 500.6 506.2 511.2 512 514.6 513.2 513.2 515.9 515 512.6 510 508.3 504.8 500.4 495.2 490.6 485 480.9 475.8 469.4 460.1 452.7 439.3 428.7 416.6 404.1 392.9 376.1 364.1 352.7 347.7 341.8 334.6 329.2 323.8 318.2 310.1 308.3 306.2 301.6 300.3 289.4 280.4 299 302.4 307.3 310 312.3 319.4 325.5 337.5 344.7 354.3 361.7 371.3 376.6 384.6 392.4 401.1 410.6 420.2 431.8 446 456.2 464.8 472.6 485.1 496 504.3 512.5 517.7 519.7 518.5 522.4 524.9 522.3 518.4 521.5 519.1 516.8 525.3 530.4 540.3 547 549.7 560 566.8
46.8 31 45.1 37.7 31.5 18.1 12.2 11 10.6 10.9 11.3 11.8 12.4 12.3 12.8 14 15 14.7 15.3 19.4 22.3 25.7 36.6 50.9 65 75.6 92 103.7 122.5 143.2 177.2 187.5 186.9 210.5 222.1 244.7 250.9 258.3 270.1 307.7 335.4 335 362.9 386.9 395 408.3 408.2 406.6 405.7 400.9 386.8 400 398.1 389.5 388.6 404.5 411.7 417.8 417.7 428 436.8 445 448.7 462.2 471 476.9 483.7 502 520.6 523.7 527.3 530.1 535.1 543.3 539.7 542 547 549.2 550.5 551.8 553.9 554.9 550.4 552 546 548.3 549.8 550.9 551.1 552.1 555.5 555.7 553.7 548.1 541.6 541.4 535.9 529.8 523.5 518.2 514.1 513.5 508.7 508.4 503.1 499.7 497.6 497 490.7 492.9 489.6 492.8 492.3 494.4 498.7 504.7 505.9 504 506 510.9 510.7 510 510.3 509.5 506.2 506.4 502 498.3 495 489.1 482.3 478 470.9 462.1 453.6 442.7 429.6 421.2 411.7 396.5 381.3 362.9 344.8 343.8 339.8 333.5 328.2 320.7 311.1 309.8 306.4 303.8 300.3 299.3 283.2 296 300.7 302.4 308.8 312.1 319.1 330.4 337.7 348.5 354.6 363.7 372.9 381.8 390.6 397.7 408 416.9 424.8 437.1 448.1 461.5 470.7 480.8 492.8 501.6 510.3 520.2 525.9 530.2 536.1 535.3 534.6 536.9 540.6 541.9 537.3 530.3 526.9 535.7 539.7 547.5 554.3 560 569.2 572.5
18.8 40.3 35.6 29.4 22 14 8.9 10.1 11.2 10.5 10.9 11.5 12 12.2 13.5 14.3 14.8 14.6 16.7 21.1 24.8 31.8 43.9 61 74.6 92.2 109.9 125.4 147.3 175.6 203.4 208.4 210.8 226.5 246.8 261.7 270.8 280.6 313.8 343.4 355.4 356.8 382.9 398.2 407.2 414.2 418.6 422.6 416 408.6 404.1 403.3 408 398.5 392 403.2 406.9 412.6 413.7 417 425.8 431.5 443.5 455.8 468.5 472.3 478.7 489.4 502.4 517.9 525.6 527.8 538 544.5 543.9 543 545.8 553.1 556.1 556.6 564.9 560.3 548.4 548.8 546.7 547.8 548.6 547.3 545.7 546.9 548.7 549.7 546.4 544.8 541.7 536.2 531.7 530 523.1 519.2 515.6 513.9 508.9 504.8 502.5 497.6 497.7 489.8 485.2 486.3 484.7 480.7 486.8 486.4 491.8 491.7 493.2 497.2 501.1 503.7 502.8 507.5 507 505.4 503.3 504.2 503.4 499.3 495.6 492.4 486.6 480.3 472.8 465 455.6 444.2 433.5 423.8 411.1 400.8 385.8 369.9 361.9 352.1 336 325.5 324.1 318.7 312.6 307.3 303.1 302 299.9 297.3 299.3 299.3 301.5 306.6 312.1 319.7 326.9 335.6 345.4 353.9 362.1 373 385.2 395.6 401.8 410.8 420.7 430.1 441.5 451.9 465.2 473.9 486.8 496.3 513.4 518.8 527.8 533.4 540.1 547.2 549 552.1 550.2 549.8 552.7 551.9 551.9 541.2 541.5 546.7 552.3 559 566.6 572.4 577.7 581.7
23.4 33.8 27.5 18.8 17.6 8.2 8.9 10.2 10.1 10.6 10.6 10.9 11.7 12.7 13.6 14 14.3 15.3 20.2 24.5 31.5 41 56.5 73.2 93.2 110.5 128.1 142 164.8 191.4 217.9 233.9 235.8 256.7 267.8 286.5 298.9 333.5 350.5 362.5 370.3 376.7 398 404.8 415.1 419.5 423.9 426.9 420.3 416.8 410.5 407.8 408.2 401 395.6 399.6 404.5 409.2 410.4 413.2 418.5 427.8 435.8 449.6 466.9 466.5 471 480.3 489 505.9 514.6 521.8 531.7 543.4 540 539.8 546 552.4 556.7 555.9 561.1 560.4 548.7 541.4 544.4 545.1 544.2 543.6 541.8 543.3 545.4 547 545.5 541.2 538.1 535.1 532.2 527.6 524.7 521.4 516 514.6 507.8 502 497.5 496.7 490.4 484.1 479.3 473.9 470.9 470.8 474.4 475.7 481.9 484 486.1 490.5 493.3 490.2 492.9 495 496.2 499.2 500.5 500.9 502.2 500.2 497.7 494.5 490.3 482.6 474.3 468 456.7 446.1 435.7 425.7 414.4 403.7 389.3 379.8 374 360.4 345.4 329.3 324.7 317.8 312.7 306.8 302.8 300.5 300.7 294.2 297.1 302.9 303.8 311.3 316.4 324.6 333.3 342.8 354 364.4 373.4 382.7 395 405.2 414.2 423.7 434.9 444.7 454.4 467 478.5 491.5 503.2 514.1 527.3 538 546.1 558.4 558 563.9 565.9 567.4 568.6 568 571.5 565.1 568.5 558.2 558.2 560.3 562.8 570.1 574.2 574.3 578.4 577.4
29.9 24.8 19.6 16 10.8 8.3 8.5 10.2 10.5 10.5 10.5 11.6 12.9 13.2 13.2 14.3 14.4 18.8 20.8 28.9 39.7 52.9 69.6 88 109 130.2 157.7 158.3 179.8 210.9 231.2 250.9 251.8 283.1 297.2 308 317 344.3 372.8 379.3 389.6 393.8 401.1 411.8 419.7 432.5 428 424 419.7 417 411.6 413.7 411 405.8 398.7 401 403.6 404.4 407.4 408.9 413.6 420.5 429.5 439.9 452.8 462 462.5 469.4 481.6 489.3 500 514.5 524.5 532.9 534.2 535.4 540.8 546.1 552.3 552.5 557.4 554 541.2 537.5 539.1 539.7 541.1 539.7 541.4 541.1 540.9 544.3 540.9 540.8 537.6 535 532.3 530.5 525 518.1 516 510.7 504.3 499 494.7 490.3 484.6 478.3 470.8 465.2 460.5 460.8 462.8 467.1 463.7 467.6 477.1 478.1 478.6 483.2 487.2 490 490.6 491.9 493.7 497 499 499.1 495.7 494.3 491.3 486.6 479.3 472.5 464.7 450.1 437.3 428.8 417 405.4 393.4 393.6 383.4 368.9 351.3 336.3 327.2 318.5 310.4 306.2 303.4 296.5 298.2 288.7 301 304 305.9 315.8 320.3 329.5 341.5 350.4 360.5 373.2 384.4 393.9 403.9 414.6 424 434.1 446.5 457.5 471.5 482.5 494.7 507.9 525.5 531.2 545.9 559.5 570.5 576.7 575.1 580.1 580.4 581.9 582.5 577.9 584.9 580.7 579.1 583.7 576.4 576.5 574.1 582.6 583.8 589.3 574.6 561.4
21.2 18 16.7 12.2 9.3 9.9 9.6 9.9 10.1 10.8 10 12.6 13.3 12.9 13 15 16.1 20.8 26.2 36 52.2 70.5 85.3 107.3 130.5 156.5 187 193.5 201.4 229.3 246.7 263.5 273.9 297 311.3 326.7 350.1 365.5 376.3 390.8 404.9 410 419.2 426.7 427.8 428.8 430.1 427 422 419.6 417 415.9 416.9 408.5 400.8 398.3 401.8 404.4 407 407.3 410.5 416.7 421.3 431.4 440.6 452.5 457.1 462.3 470.6 480.4 487.8 499.3 512.3 519.7 523.2 528.5 533.6 535.7 547.3 542 542.2 540.1 529.7 530.1 531.7 534.7 539.1 536.8 539.5 540.4 540.9 544.4 542.6 545.4 542.2 537.9 536 532 529.9 523.8 518 510.2 503.7 497.1 493 486.8 481.9 473.9 467.3 462.4 453.9 448.2 453.2 456.6 454.8 457.3 463.2 465.4 469.7 473.6 475.5 479.8 479.7 486.3 489.2 493.8 495.9 496.5 496 496.9 494.1 489 481.5 476.8 469.5 457.7 437.8 427.9 419.5 411.4 400.7 389 384.1 368.1 355.4 338 330.9 329.1 311.2 301.6 299.3 298.5 287.5 300 305.7 307 310.8 317 327.2 336 346.6 357.5 368.4 381 392.7 406.2 417.1 425.2 436.2 445.3 459.8 470.9 487.4 503.7 514.7 529.3 549.8 552.2 565.3 580.7 584 587 590.4 596 595.7 599.5 596.5 594.6 594.2 593.4 596.4 593.8 595.1 589.5 591.8 593.1 597.1 616.7 593.9 567
16.5 16.1 14.1 9.9 8.6 9.5 10.7 11 9.7 10.5 11.1 12.3 12.6 12.9 13.4 14.2 16.4 23.1 31.9 47.3 64.2 86.2 101.6 121.7 142.9 166.2 205.8 222.3 224 240.3 257.1 276.3 283 312.6 330.6 340.3 361.9 378.2 389.2 402.8 414.3 419.7 429.2 431.9 436 435 433.6 428.6 423.1 421.5 418.5 416.6 413.8 411.3 402.5 401.3 400 402.3 401.8 404.6 407.5 411.5 414 426.5 434.9 437.7 447.3 452.4 459.9 466.7 474.4 488.5 496.2 502.2 507.4 515.1 520 525.5 532.2 530.8 528.4 524.5 521 522.2 521.7 528.8 533.1 536.6 539.4 540.5 542 542.8 543.5 546.6 545.2 538 537 536.6 532.8 528.1 516.7 512.2 501.9 493.3 488.9 487.1 482 475.2 462.8 455.9 451.8 439.1 444.7 445.1 447.9 452.8 453.9 455.7 458.4 460.3 464.9 464 473.3 477.4 478.6 486.4 492.7 497.3 497.2 495.1 493.1 489.2 486.8 480.9 470.7 455.7 441.8 428.7 420.6 413.8 407.8 384.3 375.5 363.3 353.3 338.9 329.2 328.7 314.3 301.9 293.4 293.3 294 303.5 306.1 312 315.8 322 334.3 343.8 351.9 363.4 377.5 389.6 401.3 412.6 423.1 440.5 450.8 456.7 470.4 486.1 506.6 522.5 530.8 551.7 563 569.9 582.1 598.3 602.9 602.5 607.6 612.8 610.5 609.5 613.1 612.6 607.4 606.1 609 608.6 608.3 608.5 608.4 606.9 610.1 623.3 610.4 579.8
11.2 12.4 14.4 8.2 8.7 9 10.6 11.4 11.1 11.9 11.7 12.3 12.4 12.6 13.4 15.8 21.2 28 39.3 59.4 81.2 100.4 121.8 137.8 159.6 182.5 209 238.7 247.2 257.8 264.4 286.6 302.8 320.7 334.9 349.5 378.2 395.2 398.8 408.3 418.3 424.3 433 435.9 438.1 439.3 437.5 433 429.1 429.1 423 421.4 415.9 411.2 404.9 402.6 401.8 401.6 400.1 402.9 404.8 407.2 411.7 417.9 425.8 431.1 436.4 447.7 454 456.7 467.1 472.6 480.1 483.2 494.1 501.7 505 509.7 510.8 512.5 511.5 515 513.4 515.3 519.4 520.6 527.4 532.7 538 539 539.3 541.9 543.4 545.8 544.5 541.9 538.1 535.8 532.5 531.1 523.3 514.8 504.6 499 491 489.1 486.4 473.8 462.6 453.1 448.4 435.7 436.1 438.6 439.7 440.8 439 443.6 451.4 451.8 450.7 452.8 458 461.7 466.7 472.4 480.5 484.6 485.1 487.4 490 490.4 485.5 478.6 469.7 455.8 435 422.1 408.2 413.2 405.8 383.1 364.7 353.6 347.7 336.5 322.6 321.3 316 301.1 292.9 280.4 290.8 298 310 309.7 314 327.6 340.1 349.7 359.1 373.3 385.7 396.4 410.4 423.7 434.8 450 461.7 469.9 482.4 496.7 515.3 528.9 545.6 567.9 582.4 589.7 599.7 612.3 619.7 616.8 620.6 628.5 624.4 620.7 624.3 623.7 625.4 620.3 622.6 619.6 625.1 622 620.3 621.6 625.6 623.5 621.8 592.7
9.1 9.5 8.3 8.2 9.3 9.1 11.4 11.5 11.5 12.4 12.4 12.5 12.4 12.5 15.1 21 32 44.9 58.8 80.8 104 124.6 139.7 164.1 187 216.4 238.9 255.6 269.1 281.3 288.1 288.8 311.8 328.3 350.8 373 386 392 405.3 417.3 420.6 422.7 434.2 440.8 443.7 441.2 440.2 437.1 433.2 430.8 429.5 425.3 420.6 411.6 410.1 406.8 404.4 402.8 401.8 400.7 401.7 402.8 405.3 410.9 416.9 427.7 432.7 438.8 446.7 448.5 455 459.1 462.4 473.1 480.9 483 490.7 494.6 494.1 494.7 496.9 502.9 503.4 509.8 512.5 514.9 521.4 528 533.7 537.6 538.4 542.3 545 545.8 546 544.9 542.9 541.1 537.4 535.1 529.2 517.8 510.2 503.3 495.9 493.3 490 478.7 462.2 448.8 443.5 438.9 426.9 427.9 429.7 429.2 433.7 434.9 437.7 436.3 437.2 439.8 446.7 450.3 455.5 458.3 464.6 471.6 477.4 480.7 485.3 484.7 484.9 480.1 471.5 449.7 425.2 409.9 397 405.8 396.8 377.8 366.9 353.7 344.4 333.9 318.5 313.3 311.2 297.5 289.8 280.4 286.8 297.8 308.8 312.6 314.9 329.6 346 357.7 368.4 379.7 389 406.6 421.6 434.5 446.9 459.1 472.4 484.9 494.7 511.5 521.4 538.3 556.5 581.6 597.5 609.3 608 626.2 636.7 631.1 635.5 641.2 636.7 634.2 637.8 640.4 638.3 637.4 636.9 638.6 634.9 635.1 636.5 635.5 628.9 613.9 600.5 583
9 9 8.4 8 9.8 9.5 10.3 11.9 12.1 12.9 12.9 12.9 13.8 17 22.9 34.5 51.5 67.6 88.6 121.9 144.9 162.9 183.7 196.9 222.2 245.4 264.7 279.4 293.5 299.5 308.8 313.7 323.9 336.3 357 376.8 390.4 407.1 413 424.2 427.7 429.2 432.6 441.8 445.2 446.6 443.1 442.2 439.5 435.5 433.1 429.8 424.8 417.8 419 412.6 410.6 407.8 403.7 404.3 401.5 401.6 402.9 405.1 408.7 418 426.9 431 439.3 440.2 445.9 447.4 453.1 458.5 465.4 470.7 474.6 477.4 477.3 481.7 487.7 489.7 496.5 500.6 504.6 509.1 513.2 516.1 525.9 534.8 537 541.1 543.8 546.2 548.6 545.1 544.1 540.8 540.5 536.6 532.3 525.7 516.1 507.4 500.6 498.5 489.7 476.9 466.4 453.9 446.8 436.6 428.1 419.1 418.9 416.1 423.6 426.2 422.7 422.3 424.9 427.1 429.2 431.8 440.3 446.2 444.8 450.6 466.4 476.5 476.2 474.8 474.2 466.6 450 423.8 407.9 393.2 381.9 386.3 380.9 375.4 367.6 356.3 345 330.5 320.5 311.2 307.4 295.2 289.9 289.6 280.4 297.2 308.1 308.4 311.7 329.7 346.3 359.7 372.2 384.4 399.4 413.7 425.8 442.3 457.3 473 484.9 494.1 506.1 519.1 534.3 549.6 563.2 588.8 606.3 622.1 627.6 641.7 653.2 654.5 658.3 658 650.7 650.4 657.5 656.4 658.8 660.6 652.9 647.8 651.6 652.6 652.7 653.2 631.1 613.1 591.1 574.5
9 9.2 8.8 8.3 8.4 10 11.4 11.8 12.5 13.5 14.3 15.2 17.7 23.4 33.1 50.8 69.1 90.9 112.7 138.5 169.9 202.3 220.9 226.8 256.7 276.7 307.2 316.2 329.1 328.2 331.3 341 346 359.6 376.6 389.7 401.6 411.8 416.8 421.3 430.9 433.7 436.9 445 447.5 448.9 451 449.8 446.1 445.6 436.5 431.1 432 429.8 428.5 424.1 418.9 416.6 410.6 407 405.8 404.7 403.9 404 405.6 410.4 419.2 423.9 428.4 433.9 438.7 441.3 444.7 450.6 454.1 458.1 462.2 462.7 464.8 470.5 472.9 480.7 486.2 492.1 494.7 500.7 507.2 509 513.8 526.6 531.5 535.2 540.5 546 545.6 546.1 545.1 543.7 543.3 540.2 538.1 533.1 527.1 515.3 510.1 503.9 495.9 479.6 467.8 453.8 447.2 439.8 427.1 416.7 405.7 405.6 411 414.6 413.5 410.8 410.5 412 416 419.9 422.3 427 431.3 433.7 448.8 457.4 469.7 471.3 461.2 440.1 414.5 396.7 387 371.8 374.8 373.1 371.6 370.1 369 359.8 347.3 333.4 323.4 311.8 303.5 294.7 290.3 285.7 283.3 289.2 297.1 301.8 312.2 331.2 347.8 362.8 373.6 387.8 402.6 419 431.4 444.7 460.3 479.8 493.9 501.9 517.6 531.3 547.6 569.2 581.8 595.1 616.4 633 642.1 656.1 666.3 667.9 674 674.3 670.6 671 670.6 673.3 671.3 669.8 669.7 670.5 674.2 673.9 675.1 667.7 640 614.1 588.4 571.4
9 7.4 8.6 8.5 9.9 10.1 11.1 11.7 12.5 14.1 15.5 16.8 21.1 33.4 48.6 70.1 91.2 128.1 151.8 157.7 179.3 199.2 229.1 245 270.2 296.1 322.2 338.1 352.7 355.2 344.1 357.6 358.8 372.5 398 417.8 430.8 432 437 434.2 434 437.8 444.5 448.6 449.3 453.1 453.4 451.4 448.9 446 440.5 438.2 432.4 431.7 433.4 432.5 429.9 424.1 418.7 415.6 413.4 409.4 407 407.1 410.4 407.2 411 417.1 422.6 431 436.9 438.6 440.3 443.2 444.9 447.9 451 452.6 455 457.9 464.6 470.6 475.4 484 486.6 491.3 494.9 499.2 507.6 516.5 522.6 530.1 540.4 542.1 541.7 540.8 541.2 543.2 543.1 542.2 540.2 543.9 547.3 532.3 514.4 507 491.2 476.4 463.5 455.6 446 435.3 428.4 416.6 405.3 393.1 399.5 404.1 402 399.3 394.4 400 396.4 398 402.4 403.9 408.5 415.1 420.6 427 448.3 459.8 447.9 418 391.5 379 371.3 365.9 368.3 364.7 360.2 357.4 357.9 350 343.7 331.6 321.2 307.5 302.2 292.1 285.6 280.4 280.4 286.5 294 296.4 309.8 331.1 347.1 358.8 375.3 386.4 399 415.1 435.1 455.8 465 477.3 495.5 509.6 529.7 543.1 566.6 582.1 599.8 612.3 625.2 644.8 658.4 666.5 678.3 679.2 687.6 691.5 684.1 685.8 687.4 690.1 694.9 698.8 691.4 693 689 694 697.2 682.7 645.3 606.1 589.1 569.9
8.7 7.1 8.8 8.7 9.3 11.7 14.1 15.4 16.6 17.3 19.5 19.7 36.2 53.1 69.8 91.4 117.9 144.7 166.3 182.8 207.6 228.9 246.9 259.7 293.6 309.8 329.3 347.7 359.8 369.7 361.2 369.4 371.2 392.2 411.6 429.9 443.2 449.3 448.7 451.1 450 462 456.4 454.7 455.5 457 458.1 455.4 453.9 451.1 450.6 443.3 437.3 434.9 435.7 433.6 436.2 433.7 431.4 425.4 421.3 419.3 417 413.1 414.3 412.6 413.7 415.1 418.4 421.6 427.2 436.6 436.7 436.2 435.4 438 441.7 444 446.6 450.4 454.9 459.4 467.6 472.4 476.8 481.5 485.2 488 493.1 504.8 516.4 526.2 540.3 544.9 532.2 539.3 538.5 538.6 539.6 541.7 544.4 553.4 551.4 519.3 501.6 493 485.3 473 461.8 452.2 444.4 435.3 425.4 416.8 403.9 395.2 387.9 393.1 390.6 385.4 383.8 385.4 381 387.3 390.4 392.1 397.1 398.4 403.2 403.9 409.4 412 395.5 382.1 368.9 367.6 363.9 360.7 361.5 355.9 351.8 351 349.7 343.4 337.8 329.5 318.5 305.3 296.2 288.2 286 280.4 280.4 280.4 285.4 294 306.6 325.7 341.4 356.7 371.2 385.4 396.2 416.8 438.4 454.9 470.9 483.2 495.3 516.1 531.5 558.7 577.5 597.8 616 631.2 644.1 656.5 669.8 676.4 682.9 691.3 700.9 704.8 701.9 702.2 708.5 710.4 721.2 726.9 715.1 711.6 708.4 706.6 714.6 690.3 644.9 612.3 588.3 566.6
7.4 7.1 7.6 11.5 11.2 12.8 15.2 17.5 19.5 20.6 25.2 30.5 52.9 70 92.8 114.1 127.2 149.6 172.8 198.2 219.6 237.6 256.2 287.1 308.2 334.8 352.5 370 377.2 379.2 377.3 385.2 378.4 397.7 419.5 433.1 448 455.1 455.9 456 459.8 473.6 476.6 472.2 468.3 471.4 464.8 461.3 456.1 452.2 454.1 446.9 444.3 445.4 445.1 444.8 442 437.1 436.3 433.7 429.7 426.9 425.7 422 420.4 419.9 415.7 415.2 414.4 418 422.4 425.4 428.1 430.2 431.3 432.9 434.6 436.9 440 443 448.5 453.7 456.9 462.9 465.8 470.7 477.5 481.9 490 499 506.2 519.6 523.8 530.2 522.4 523.1 528.7 533 538.4 540.4 544.8 549.4 529.6 510.8 499.6 490.8 479.9 469 457.6 445.8 441.4 437.2 426.4 416 403.6 394.1 382.4 379 379.1 377.6 372.8 372 379.4 380.7 381.3 382.9 383.7 382.1 381.6 380 378.8 376.2 365.8 364.2 362.2 361.2 359.2 356.6 353 350.3 347.4 346.7 347.2 341.2 334.9 326.8 314 304 292.5 288.5 280.4 280.4 280.4 280.4 286.5 291.7 305.9 325.1 340 355.9 369.1 383.6 394.2 406 424.9 449.5 466.2 480.4 498.2 517.4 538.2 574.6 593.7 615.3 635.5 654.3 666.3 668.4 679.4 691.8 697.8 707.3 715.1 718.1 722.9 731.3 737.2 737.1 743 743 745.9 734.5 729.7 720.7 713.5 684.9 658.2 623.3 597.2 567.6
7.6 7.7 14.4 14.9 15.6 16.8 17.9 19.5 20.9 26 35.4 49.4 67.1 81.5 102.8 121.2 145.5 162.8 177.8 199.2 220.5 235.8 260.7 286.6 314.6 348.1 371.6 388.8 395.1 387.7 388.7 390.4 389.6 406.9 422 433.6 446.8 457.8 460.4 459.2 471.1 483.7 488.9 481.6 481.4 479.6 473.1 467.2 460.2 458.9 451 451.3 452.2 455.3 451.6 457.2 455.5 451 444.6 442.4 441.8 439.2 435.6 433.2 429.4 429 424.9 420.3 419 419.3 418.6 421.7 423.4 424 425.8 429.5 428.2 433.9 434.7 438.1 439.6 442.1 445.8 450.5 455.9 461 467.4 473 482.5 488.3 492.2 501 508.8 516.2 517.1 519 523.7 525.1 530.7 543.6 524 516.6 519 501.3 492.3 483.2 474.5 462.3 452.3 441.7 437.6 433.1 422.1 411.3 400.6 391.8 382.7 370.5 369.1 367.7 363.8 367.7 370.7 371.9 373.9 371.3 368.8 366.8 368.4 367.9 363.2 356.2 356 358.9 359.3 358.8 349.7 350.1 347.2 344.4 345 345.8 341 337.2 331.9 322 308.5 300.1 288.8 280.4 280.4 280.4 280.4 280.4 280.5 289.6 301.6 325.1 340.3 353.9 367 379 395.7 415.5 420.3 437.4 455.2 476.8 496.4 516.2 538 583.5 607.4 628.3 649.3 662.1 672.2 682.1 693.8 707.7 710.4 722.4 727.3 736.1 744.3 753.8 753.7 755.5 761.7 761.4 763 755.4 750.9 733.3 715.5 705.3 671.6 646.7 609.5 574.2
12.9 12.9 13.5 15 15.7 16.6 18.3 21.7 28.3 37 48.2 64.7 77.1 94.9 115.6 134.6 151.7 171.4 186.6 205.5 231.7 254.4 277.1 296.8 324.7 357.4 381.8 391 403.6 400.6 402.8 396.8 398.7 420.9 427.8 432.5 443.6 453.7 460.1 464.9 479 482 491.2 486 487.1 482.9 478.8 473.3 464.9 462.9 456.4 458.6 459.8 461.3 460.1 465.8 466.7 463.9 460.2 454.2 453.7 448.5 447.8 444.7 443.1 441.7 438.6 432.5 427.7 424.8 423.6 421.6 421.3 421.4 422.3 423.6 425.6 427.7 428.7 430.7 431.8 435.2 439.8 445.5 449.3 452.9 461.8 462.7 463.4 472.9 478.9 485.3 496.1 503.2 507.5 509.6 514.7 514.1 520.3 516.8 508.9 503.4 501.6 493.3 485.7 477.5 462.8 455.7 446.5 442.3 434.1 424.1 415.5 404.7 391.8 382.6 379.8 372 362.3 356.7 357.1 357.3 362 364.3 364.1 360.4 355.9 353.1 352.6 350.1 346.6 347.5 349.1 352.2 353.5 345.5 338.2 339.6 342.2 340.9 342.3 342 338.2 331.7 325.1 316.1 306.5 296.4 283.9 280.4 280.4 280.4 280.4 280.4 280.4 289.4 300.3 319.3 337.9 349.8 359.7 372.8 394.7 415.5 424.8 431.1 449.9 471.8 497.6 509.9 534.2 561.1 609.2 638.1 654 672.1 682.9 692.4 707.3 713.9 725 735 747.2 759.2 766.1 774.5 777.8 776.5 782.6 782.1 778.9 770.1 761.6 729.5 692 667.4 640.3 624.7 615.8 599.1
13 13.3 12.8 14.9 15.5 16.4 20.6 27.8 36.8 48 62.5 82.8 100.2 116.1 124.3 141.4 159.8 178.8 200.4 220.8 254 272.1 289 319.1 345.4 369.6 386.1 400.9 408.5 408.4 407.5 405.9 416.9 423 428.9 434 442.3 448.3 452.9 462.1 476.2 481.4 484.5 484.3 484.5 479.9 478.4 472.7 469 468.8 467.7 470.6 470.5 467.6 466.6 471.6 473.1 474.5 472.7 466.8 465.1 464.6 463.7 462.5 457.3 455 451.2 448.1 440.5 438.1 432.2 429.3 427.6 427 426.6 427.3 427.6 431.7 431.3 429.8 435.4 434.8 438.6 441.5 443.6 445.3 446.9 450.4 454.3 457.9 463.8 471 477.5 483.1 491 497.9 500 501 501.4 492 496.3 482.9 484.4 478.7 473.5 466.6 457.7 448.7 443.7 437.5 429.9 417.3 406.6 398 390.1 385.6 392.2 388.1 367 356 347 348.9 351.1 354.1 354.4 351.9 348.7 345.2 340.7 338.6 338 340.5 341.4 343.2 343.9 335.1 332.5 333.8 335.1 335.2 336.8 334.8 331.2 326.6 322.1 316 306.8 294.7 283.5 280.4 280.4 280.4 280.4 280.4 280.4 286.3 296.2 313.1 329.1 344.2 354.1 364.7 387.9 404.1 425.5 433.2 449.5 462.8 487 512.8 534.8 561.7 598.4 640.4 654.7 673.9 687.8 703.1 725.9 735.9 736.5 746.7 763.3 788.6 786.9 793.2 804.7 803.1 804 797.9 792.5 785.4 753.2 726.7 698.7 665.8 634 614.4 597.6 586.9
12.6 13.2 13.7 15 15.9 23.5 29.7 40.3 49.3 61.2 74.9 96.4 113.7 127.9 141.2 149.4 171.5 189.4 210.4 232.2 259.7 280 298.8 331.6 365.6 383.9 398.6 408.6 413.1 415.7 410.6 414.4 426.4 428.5 435.1 436.7 442.1 446.1 449 455.9 464.7 468.8 476.4 485.3 481.7 477.9 474.7 475.4 470.7 471.9 470.6 468.2 468.2 472.8 481.7 485.3 484.1 482.9 485.5 483.1 481.8 480.5 480.2 478.9 471.1 468.4 466.8 461 455.9 450.5 447.6 443.8 439.5 434.5 432.1 431.7 431.1 431.2 431.3 432.7 432.2 435.8 436.5 439.2 441.6 440.2 441.2 444 445.3 449.4 456.2 458.9 465.8 471.9 480.1 489.6 481.8 477.7 476.8 477.8 474.2 470.1 467.4 465.2 461.6 455.3 450.9 441.7 435.2 429.8 419.8 410.4 403.7 395 390 389 387.9 383.6 369.7 357.9 348.2 341.3 343 346.5 344.8 342.5 339.7 336.5 332.8 329.4 330 335.1 335.9 338.6 336 327.8 328.2 329.7 329.9 332.5 328.1 324.5 324 321.8 315.7 309.3 302 291.4 280.4 280.4 280.4 280.4 280.4 280.4 280.4 280.4 286.5 307.7 322.1 333.2 348.8 358.5 381.2 404.6 416.3 426.8 439.8 462.2 481.3 506.8 532.9 555.9 590.5 628 666.6 684.5 696.7 724.1 739.9 755.8 753.6 762 780 798.1 801.7 814.1 824.6 833.2 831.4 818.9 802.7 780.9 770.1 729.8 700.9 663.8 643.6 614.7 603.9 585.8
12 12.9 13.5 16.1 23.1 33.2 40.7 53.3 65.5 74.9 93.9 106.8 124.5 139.4 157.2 172.3 178.6 199.2 218.9 244 270.1 294.2 317.3 336.9 359 386.6 406.1 417.1 419.8 414.8 413.3 421.5 431.4 435.2 441.2 446.9 446.1 449.3 448.7 456.4 458.9 466.5 472.6 477.5 477.3 477.9 474.8 473.8 470.8 471.1 475.3 469.8 470.7 481.2 486.3 502.8 497.5 499.2 501.9 502.4 499 494 495.5 491.5 488 483.2 478.2 474.8 469.8 463.8 459.1 455.4 453.6 449.7 445.4 442 439.6 437.9 435.3 434.6 435.9 434.9 434.7 434.6 435.7 438.7 438.7 441 441.6 443.5 445.5 448.3 450.7 456.1 460.2 462.3 462.1 463.3 464.8 466.1 466.7 464.4 464 461.5 459.1 454.4 449.3 442.7 435.3 426.8 416.8 406 402.2 398.7 395.2 389.3 383.8 378.4 368.8 357.3 348.6 340.2 337.4 336.3 335 335 333 329.3 326.1 323.1 324.5 328.4 330.5 326.3 324.2 322.4 320.6 322.7 321.3 320.7 320.4 317.4 314.5 312.2 306.6 302.8 294.8 287.8 280.4 280.4 280.4 280.4 280.4 280.4 280.4 280.4 281.9 297.4 312.1 322.4 336.2 350.1 374.9 381.2 399.7 413 438.2 458.2 478.9 494.2 518 543.7 574.2 612 668.1 698.4 711.7 729.9 752.2 764.9 769.6 775.1 791.8 806.3 812 831.1 838.6 847.1 840.5 825.5 808.1 779.9 744.8 713.5 692.4 667 640.6 614.9 600.5 586
12.2 12.9 14.4 23.9 31.5 40.3 52.7 65.7 81.9 95.9 106.3 125.5 144.4 158.7 174.2 189.7 202.4 211.7 232.3 255.4 277.3 299.9 323 343.8 366.8 387.9 406 420.3 422.2 415.9 414.5 422.9 430 435.9 438.5 445.9 451.3 451.2 455.1 458.9 458.6 461.6 468.6 473.1 477.4 478.4 472 474.4 472 473.6 474.2 472.7 473 480.2 493.6 507.3 506.7 515.5 518.5 517.6 518.6 513.6 510.5 504.5 503.5 501 493.8 490.7 482.3 476.7 473.3 469.8 467.3 464.6 460.2 455.7 451.7 449 447.9 444.9 442.1 440.6 440 437.7 437.4 436.8 437.2 438.4 438.9 441.3 442.7 445.5 448.1 451.4 457.9 455.1 456.6 457.5 461.1 463.2 463.7 463 462.5 462.2 460 457 452.5 448.8 444.5 440.2 420.8 413.1 407.3 401.8 397.8 391.6 383.1 379.6 370.9 358.8 350 342.6 336.7 330.5 328.1 331.1 327.9 322.8 320.8 319.4 322 324.1 322 317.1 319.5 317.7 316.5 319.5 317.5 317.4 311.6 311 312.3 306 299.4 291.5 291.1 280.4 280.4 280.4 280.4 280.4 280.4 280.4 280.4 280.4 280.4 291.3 303.3 312.2 323.9 336.1 355.9 377 387.9 407.4 428.9 453.6 470.2 491 512.2 532.9 564.8 604 643.3 674.7 708.9 737 749.7 763.3 782 784.6 800.7 816.5 828.5 843.1 852.2 851.9 843.2 830.7 794.8 774.8 740.9 735.4 722.5 686 666.8 642.8 614.1 607.8
13.1 16.1 21.5 31.8 40.1 51.7 66.2 83 98.8 112.2 125.2 142.6 163.3 180.3 192.4 209.5 225 240.1 259.6 270.8 290 305.4 323.1 346.9 372.9 392 412 422.5 419 416.2 410.2 422.4 427.5 428.7 435.5 447.2 452.6 453.8 457.3 460.2 459.7 462.4 468.8 471.4 475 474.6 471.2 472.6 471.3 472.6 474.1 474.8 479.7 482.8 494.2 508 517.4 542.6 543.5 541 540.3 533.3 523.5 521.2 521.2 516.8 513.5 507 499.6 496.5 492.3 486.8 484 482.8 478.2 472.5 469.1 462.4 461.5 455.9 451.9 450.2 449.8 446.6 443 442 441.9 442.6 441.6 441.3 441.6 443.1 445.2 447.2 450.2 451.2 452.4 454.4 457.5 460.8 462.1 462.9 463 462.9 461.2 459 455.7 454 461.1 447.9 423.1 417.5 412 405.5 397.5 390.6 384.8 378.1 370.9 360.7 353.9 345.1 338.9 331.4 323.5 325.4 322.4 320.9 318.7 317.4 317.6 318.7 316.5 316 316.4 314.2 314.2 312.5 311 299.6 288.3 308.4 302.7 295.6 293.4 286 287.4 280.4 280.4 280.4 280.4 280.4 280.4 280.4 280.4 280.4 280.4 289 300 309.9 318.4 324.7 340.1 354 378.6 400.5 418.5 445.5 466.1 476.4 501.5 523.1 552.1 583.5 620.8 651.2 694.6 726 737.8 765.1 780.8 793.8 804.7 819.9 832.8 852.3 861.1 857.1 848.3 839.6 801.4 776.1 759.4 751.6 738.4 717 683.1 665.7 635.6 618.8
16.6 21.5 33.3 39.7 50.8 65.6 80.3 98.2 111.4 127.1 144.8 173.2 182.8 194.2 210.6 228.5 244.5 264.5 281.2 293.5 306.2 310.3 331 355 378.2 396.2 411.4 419.3 417.1 414.5 409.9 415.8 425 432.7 436.9 445.3 447.9 447.9 459 457.4 464.9 470.4 472.2 477.4 475.4 471.2 472.6 471.2 471.3 471.3 471.3 474.4 478 483.3 492.6 501.7 519.3 548.3 558.2 560.3 565.6 555 544.2 541.3 541.4 538.3 538.6 531.6 521.6 515.4 509.2 505.4 505 503.5 497.7 489 486.2 480.8 475.7 470.3 468.2 464.7 459.9 458.6 455.3 452.7 450.1 449.4 446.2 445.4 445.3 445.2 445.8 445.3 447.2 448.6 450.7 453.2 456.5 460.4 462 462.2 463.3 463.6 462.3 460.4 458.8 467 469.1 447.7 430.3 420 413.7 409.5 401.2 395.3 386.6 377.8 371.6 365 356.9 350.1 340.5 331.2 326.1 321.1 319.9 318 317.3 315.5 313.4 313.6 311.9 312.4 314.7 311.5 293.9 288.4 285.1 309 307.8 306.1 303.1 295.7 291.7 284.2 280.4 280.4 280.4 280.4 280.4 280.4 280.4 280.4 280.4 280.4 280.4 284.2 293.7 307.7 315.5 320.1 330.8 348.4 374.6 387.9 405.1 437.9 453.6 474.3 493.1 517.2 544.8 570.6 600.3 637.4 678 695.6 733.7 768.4 780.2 795 806.3 817 829.2 847.3 859.3 870.7 872.5 857.8 834.7 816.4 792.6 787.9 760.8 731.1 717.5 691 659 637.5
23.9 32.8 40.2 48.2 66.1 82.9 97 110.7 126 142.7 164.2 194.8 201.1 209.2 221.5 246.3 260.7 277.8 297.3 306.6 321.8 324.8 343.2 359.4 378.7 400.3 414.9 414.8 415.4 415.5 409.3 416.8 426.1 428.5 436.3 441 443.3 444.8 451.2 458.4 464.8 473.4 477.2 479.3 475.7 474.4 473.9 471.3 471.3 471.3 471.3 471.3 474.7 482.9 491.5 497.2 507.9 529.5 548.6 573.8 581 575.6 558.2 556.5 558.4 560.5 556.3 553.1 543.6 537.9 530 531.1 531.3 523.6 514.9 506.9 503.3 500.2 491.5 486.6 485.7 479.7 475.1 470.6 468 463 460.3 456.2 453.1 451.6 449.6 449 448.4 448.7 447.7 448.5 450.7 453.5 456.4 459.9 461.5 462.5 465.3 465.4 463.6 463 466.1 474.3 477.7 459.3 433 419.7 414.9 409 402.6 396.9 387.9 381.4 376.5 370.6 360.7 351.8 342.1 333.3 326.9 320.3 317.6 315.5 315.3 312.5 311.5 313.6 310.5 310.2 281.9 291 284.4 310.8 311.2 311.3 310.4 309.1 307.9 309 304.8 294.7 281.9 284.3 280.4 280.4 280.4 280.4 280.4 280.4 280.4 280.4 280.4 285.2 290.5 302.2 307.9 318.7 327.3 339.7 356 381.9 397.2 418.2 443 470.6 487.3 509.9 532 557.9 589.2 626.7 670.6 679.9 718.7 748.7 772.1 784.1 807 814 835.3 852.7 871.8 883.9 891 891 882.4 883.5 850.9 816.3 798.2 766.5 746.2 731.4 696.9 667.2
31.9 40.4 49.2 62 80.9 93.9 110.8 124.4 141.7 159.5 184.1 209.1 214.3 220.4 244.7 259 279.8 297.4 318.4 328.4 335.2 344.2 356 366 383.3 408 417 406.4 413.7 410.7 403.8 412.4 421.3 429.9 437.9 442.4 444.1 445.7 451.8 461.8 469 477.5 479.5 481.8 476.5 476.8 476.4 477.4 475.1 471.3 471.3 471.3 471.4 478 484.9 488.8 495.6 513.4 538.1 564.4 590.8 584.7 573.3 575.9 572.6 582.7 580.6 571.8 567.3 559.9 553.5 553.2 552.4 541.7 530.3 521.6 519.9 517.7 506.9 504.4 499.7 494.1 488.8 485.1 480.5 476.2 470.6 465.7 461.3 458.8 458 454.1 452.2 451.5 449.7 452.5 453.6 456.5 458.8 461.8 463.6 467.3 467.9 468.3 467.6 468 475.2 483.9 487.1 459 439.2 425.3 419.2 413.1 406.4 398.2 392.6 385.9 381.3 374.6 364.6 353.9 343.4 333.9 328 322.1 317.2 314.6 315.1 315.5 315.3 313.3 311.2 310.9 309.8 310.7 312.5 315.8 317.9 319 320.4 321.3 317.8 316.6 311.5 307.3 300.5 289.3 280.4 280.4 280.4 280.4 280.4 280.4 280.4 280.4 280.4 286.2 294.4 294.1 299.1 308.4 315.2 328.2 352.2 368.1 391.5 408 430.3 461.7 472.5 499.1 523.8 550 574.5 609.4 652.7 660.8 694.1 723.6 750.9 774.8 797.7 816 833.5 856 875.7 893.1 901.9 905.3 902.5 884.8 860.5 835.3 814.4 804.2 780.5 757.1 735.3 695.2
38.1 53.5 60.8 74.9 93.1 109.5 126.5 140.4 160.6 179 200.6 218.9 227.4 236.9 256.4 272.7 289.1 306.4 321.2 339.7 337.5 341.4 354.4 360.2 375.7 396.1 403.4 401.7 408.9 408.3 403.7 408.2 417.2 427.5 436.4 441.3 440.7 449.5 457.8 476.7 484.5 486.6 485.1 482.4 477.5 478.6 479.3 478.5 477.3 475.3 471.3 471.3 471.6 474.3 478.8 486 495 504.2 527.7 555.7 578.2 590 587.6 594.8 586.4 598.2 597.4 591.7 585.1 580 568.5 573 568.3 555.8 547.1 537.7 535.3 531.6 521 519.7 512.2 508.4 504.5 499.5 494.7 487.8 480 475.9 470.9 467.2 462.4 458.6 456 455.6 454.2 454.8 456.6 459.8 461.1 465.1 466.2 471.1 471.7 472.5 470.8 475 481.3 483.4 493.6 473 447.4 429.9 420.6 416.5 410.8 403.6 395.7 390.4 383.6 374.9 366.3 357.9 347.8 338 332.3 322.8 318.3 317 317.7 316.5 315.3 313.1 312.6 311.8 313.7 317.9 319.8 320.8 324.6 327.3 328.6 329.4 324.7 323.7 319 313 311 298.9 291.3 280.4 280.4 280.4 280.4 280.4 280.4 280.4 280.4 291.4 296.9 288.5 297.1 298.3 305.8 317 339.9 363 380.8 400.8 427.3 449.3 468.4 490.2 514.6 539.2 563.8 588.1 612 643.9 680.4 710.4 737.6 762.2 796.6 816.7 827.1 846.9 871.7 893.2 906.7 910.5 905.4 885.5 865.8 847.7 818.5 807.7 795.7 772.8 748.1 730.8
46.5 63 74.9 89.3 107.8 126.6 141.9 157.1 176.2 195.2 211.3 223.7 241.8 253.2 271.6 286.9 301.1 312 327 338.3 343.3 356.2 362.4 368.6 373.9 387.2 386.8 391.1 397.5 404.3 403.7 406 418.5 429.4 438.2 439.1 444.7 449.5 460.3 469.6 483.6 487.6 484.8 475.8 477.4 479.8 480.5 479.6 481.3 477.5 473.8 471.6 472.3 472.8 476.6 480.9 488.7 496.6 525 554.6 569.2 579.4 587 598.8 593.9 604.7 603.4 604 598.5 590.4 580.5 580 573 568.1 559.1 550 544.9 541.1 531.5 528.8 525.4 519.1 513.7 506 502.6 496.6 491.7 484.8 482.2 475 468.5 464.9 462 460.4 458.3 459.8 460.9 464.5 467.2 468.7 471.2 473.5 476.9 479.3 476.5 481.4 486.3 490.3 495.6 482.9 454.7 438 425.4 420.2 413.5 406.7 399.3 390.8 382.2 373.8 367.3 357.3 348.5 340.2 330.6 323.2 321.4 320.3 317.9 316.3 312.5 313.5 314 318.8 323.1 322.7 326.3 326.6 337.1 337.7 332.9 334.4 337.9 334 331.7 330.2 326 313.5 307.5 297.1 284.7 280.4 280.4 280.4 280.4 280.4 280.4 280.4 288.6 280.4 280.4 286.3 290.5 308.1 334.8 358.7 376.3 396.4 417.8 442.3 462.7 484 505.7 535.6 557.4 578.6 606.6 629.4 664.6 703.7 730.7 746.2 772.3 806.6 826.3 844.6 865.2 885.9 907.7 914.7 911.4 886.7 873.2 846.3 814.2 793.5 792.5 773.9 755.5 742.3
54.7 71 88 100.4 121.4 138.8 154.3 169.1 188 207.8 221.6 239.8 261 279.9 293.4 310 321.4 334.2 344.4 354.9 358.3 369.1 375.2 378.6 374.2 376.5 380.6 386.3 394.8 401.6 402.4 407.5 414 420.9 430.5 433.9 441.3 445.2 452.6 463.4 468.1 478 473.1 473.9 479.9 477.9 479.1 477.5 482.2 481.7 477.8 476.2 479.5 476.4 478.7 483.5 486.1 492.2 509.3 532.7 555 573.2 585.1 596.1 595.9 603.5 606.8 602.1 596.3 590.3 586.4 584.7 579.1 573.7 561.6 556.6 548.5 544.3 541.6 542.3 543.7 531.1 520.6 513.9 507 502.8 496.7 492.9 488.5 482.7 476.5 472.1 469 467.2 467.1 467 469.4 470.6 473.6 475.6 479.5 479.9 483.1 484.4 486.2 487.7 489.2 492.7 493.9 478.2 460.4 447.9 436.1 428 419.5 409.5 399.9 390.5 380.7 372.3 364.3 355.3 346.3 337.3 331.6 327.2 323.2 322.3 316.1 311.6 312.1 314.4 320.3 325.3 325.5 326.9 332.1 338.4 346.7 343.3 345.3 346.2 348.9 346.9 346 343.9 337.4 328.4 322.9 315.6 296.1 290.9 280.4 280.4 280.4 280.4 280.4 280.4 280.4 280.4 280.4 280.4 281.3 305 325.8 346.3 368.5 385.5 407.1 437.5 460.5 478.6 500.1 524.7 548.8 575.5 598.5 623.3 660.6 694.7 709.5 731.8 752.2 785 812.4 837.7 861.9 885 909.9 929.1 916.5 891.8 868.7 842.4 804.2 782.8 779.5 763.1 751.2 747.7
67.1 77.9 100 115.6 130.8 147.9 165.5 183.9 201.2 221.2 245.4 267.2 288.7 300.3 314.2 327.2 339.5 349.3 358.8 362.3 369.1 373.2 378.9 382.5 385.1 386 387.3 385.8 397 402.2 407.5 409.4 412.8 417.3 425.6 436.5 440 446 454.7 460 464.7 463.3 462.7 469.6 475.3 480.4 479.2 482.5 483.7 482.7 482.4 483.4 482.5 483.3 479.5 481.8 485 493.1 502.8 527 546.9 572.8 580.7 591.9 598.9 600.9 608.8 602.4 599.1 590.4 591 585.8 582.9 578.1 568.2 562.9 555.1 549.7 552.6 553.7 551 540.5 527.1 518.1 511.7 506.8 503.1 498 495.2 490.1 484.7 478.8 477.9 474.7 474.7 477.9 479 480.7 479.8 483.9 485 488.7 490.8 495.2 497.8 502.6 499.1 498.8 499.2 486.2 468.5 455.9 449.3 440.1 432.2 412.8 402.1 388.7 380.8 373.2 364.3 358.1 348.6 341.9 334.1 328.2 321.5 317.3 311.3 310.2 314.5 317.4 323.4 326 331.6 335.7 343.6 347.2 352.6 353.8 356.5 359.2 361.2 359.6 359.6 355.9 353.3 346.8 334.3 330.9 312.7 302.4 294.2 280.4 280.4 280.4 280.4 280.4 280.4 280.4 280.4 280.4 280.4 296.1 317.8 339.3 359.7 378.4 402.1 424 448.4 471.9 492.9 518 545.7 574.5 595.7 616.9 657.8 680.1 693.5 719.8 743.3 773.3 807.8 824.1 851.7 877 907.5 927.1 917.6 898.3 878.3 847.5 813.3 790.2 775.9 763.1 762.6 751.1
75.9 91.2 109.6 128.2 142.7 162.3 182.7 202.3 215.4 233.7 253.8 276.9 297.5 316.3 334.2 346.6 355.8 368.7 374.6 378.1 380.6 388.1 391 391.3 398.1 396.5 401.2 396.3 405.1 419.6 417.6 411.2 412 416.1 423.2 429.6 435 441.2 449.4 455.5 460.2 456.4 457.1 463.1 470.4 477.7 481.5 486 491.3 491.6 484.6 485.6 486.3 483 485.8 482.4 485.5 492.3 501 521.6 547.2 561.3 574.9 585.9 588.5 596.2 597.4 598.3 594.7 588.7 589.2 590.6 590.4 574.6 568.9 565.1 559.3 558.3 558 556 546.5 538.5 529.5 522.5 519.1 515.8 510.3 505.2 500.4 492.9 490 486.5 484 484.6 485.5 486.8 490.1 490.6 492.1 496.1 497.1 497.9 500.8 507 509 513.2 511.6 512 509 500.2 479.6 464.1 453 441 429.7 413 398.5 388.4 381.8 374.2 366.5 359.4 352.4 344 334.3 320.4 315.2 310.4 308.4 310.8 314 318.2 325.7 330.5 338.1 345.5 349.2 355.4 360.4 363.8 367.6 371.1 371.7 375.3 375 371.8 370.8 366.8 357.2 334.2 326 316.8 303.9 280.4 280.4 280.4 280.4 280.4 280.4 280.4 280.4 280.4 280.4 287.1 308.4 330.9 352.1 370.6 394.7 415.5 439.9 466.1 489.3 515.4 541.2 571.5 589.9 608.5 640.8 664.2 680.7 702.6 724.1 751.9 790.3 818.2 843.1 872 904.1 925.1 914.4 895.8 877.4 843 818.7 797.5 782.1 773.5 763.8 756.1
87.1 103.1 120.5 137.5 155 176.1 192 211.4 227.7 249.2 269.9 291.5 310.6 328.3 343.2 358.8 370.1 377.7 385.8 387.8 388.8 394.3 401.5 401.6 400.3 403.9 406.2 408.9 412 423.3 427.9 422.1 423.2 427.8 430.8 426.8 439.5 444.7 450.5 451.9 453.5 454.4 462.7 464.2 471.3 472.9 479.1 484.6 487.2 486 483.8 488.4 488.1 486.1 486.6 485.3 487.3 493.1 502.2 522.3 547.1 568.9 572.1 582 587.5 589 589.5 584.4 580.5 582.4 589.9 587.2 582.7 573.8 571.7 566.7 562.2 560 557.3 553.4 550.7 541.6 534.4 534 530.8 523.6 517.8 512.6 503.5 502 496.9 495.9 494.6 494.5 497.7 498.6 499.4 499.7 501.6 503.7 508.4 510.7 515 515.6 521.6 528.9 529.5 525.2 518.5 506.6 490.9 474.5 461.8 450.3 431 419.7 404.8 393 380.8 370.1 361.4 348.9 340.1 333.1 322 313.7 309.1 307 307.8 311.9 317.6 325.5 332.8 337.7 346.9 352.5 358.1 363.9 369.9 377.3 381.4 383.7 385 386.6 390 387.8 387 385.6 377.3 354.5 333.6 320.3 306.3 297.8 283 280.4 280.4 280.4 280.4 280.4 280.4 280.4 280.4 280.4 300.1 317.9 338.6 360.4 386 415.4 438 472 486.9 510.6 540.3 566.2 580.6 606.1 628.3 649.7 672.9 695.8 720.5 745.3 785.5 812.1 834.9 871.9 899 914.5 912.2 892.5 866 844.8 825 811.5 792 780.2 771.5 762.9
98.6 123.9 134.1 149.3 166 187.5 205.9 222.1 240.7 264.7 285.3 303 322.7 341.2 354.6 370.4 376.7 388.2 389.1 393.1 398.4 399.6 405.6 406.9 411.2 415.6 420.5 418.5 417 427 437 431.7 428.6 433.1 437.1 434.2 438.2 444.1 449.6 453.1 450.1 454.6 461.9 464 468 470 478.6 484.7 484.1 483.7 484.1 487.4 487.1 491.2 489.3 489 491.2 497.2 503.7 529.8 562.3 571.5 575 575.8 578.4 580.8 581.8 577.9 575.3 581.5 588.6 586.8 583.9 573.5 568.5 563.6 561.5 561.8 560.4 554.4 548.9 545.6 544.1 537.8 533.1 527.9 520.2 517.4 514.8 512.6 509.8 507.5 506.3 505.7 505.6 505.6 508 510.5 512.5 515.7 517.7 520 523.2 530.2 538.1 547 548.6 546.7 536.8 523.1 506.4 491 471.1 458.2 441.4 426.2 410.1 394.8 378.5 366.1 354.7 341.9 328.9 321.6 313.3 309.3 306.7 303.4 309 315.5 322.2 332 337.4 346.6 357.3 364.3 370.5 379.1 381.7 392.2 394.8 396.7 398.8 400.4 404 404.4 402.7 396.9 392.8 375.8 353.8 332.8 311.9 303.2 298.6 280.4 280.4 280.4 280.4 280.4 280.4 280.4 280.4 280.4 294.5 311.8 330.4 356.6 379.8 403.2 431.4 460.9 481.1 504.4 531.3 554.9 573.9 592.1 623.2 645.9 665.8 690.6 713.8 737.7 776.2 804.7 829.4 862 891.8 906.8 896.7 878 855.8 847.5 833.5 814.8 803.9 787.4 775.9 762.1
105 124.5 141.2 158.2 175.9 193.3 213.7 236.3 252.8 272.6 289.1 310.3 331.1 347.9 362.3 371.4 382.1 391.7 396.3 397.4 402.7 405.7 408.5 412.7 422.9 421.9 428.7 427.2 425.3 429.3 439.9 435.4 436.4 440 439.8 443.1 440.3 443.5 447.6 450.5 452.4 456.8 463.9 469.6 473.9 472.5 476.6 482 482.3 484 485.5 489.2 495.2 495.3 490.2 494.8 495.3 498.2 507.3 526 553.2 565.6 561.4 563.9 569.6 570.3 570 570.1 571.2 574.9 582.1 583.1 587.1 570.9 565.1 563.6 563.3 563.4 555.1 551.8 548.7 548.5 546.7 541.9 538.3 532.5 524.1 526.2 520.9 519.8 517.4 517.9 517.1 515.7 514.8 517.6 517 517.2 522.7 526.1 528.2 533.7 537.1 542.1 549.9 560.6 568.3 565.6 557.8 527.3 509.2 494.6 477.5 464 445.4 428.1 407.4 389.3 371.8 360.3 345 332.8 319.4 310.9 306.2 304.4 301.3 304.3 310.4 317.9 327.8 337.9 346.9 355.5 363.3 372.8 381.8 384.6 393.6 399.8 407.7 406.8 410.8 416.9 421 419.4 417.4 412.5 405.1 397.5 370.8 349.8 326 305.3 297.5 280.4 280.4 280.4 280.4 280.4 280.4 280.4 280.4 280.4 292.1 306.4 324.7 347.3 375 399.3 427.7 453.7 474.9 497.6 522.4 547.4 569.3 591.6 623.2 642.8 665.7 686.7 712.8 736.7 766.4 798.4 824 857.5 887.3 905.4 889.4 867.1 848.5 843.5 833.3 821.4 810 794.4 776.4 760.5
115.2 131.6 148.9 165.9 181.7 201.8 223.3 247.3 265.2 287.9 306.4 326.9 344.6 356.6 368.9 377.5 389.9 398.7 403.2 407.1 408.2 416.2 416.8 421.9 423.5 425.3 434.5 437.1 435.6 434.5 443.6 441.9 442.4 445.6 444.2 448.5 447.2 449.8 452.6 453.6 459.2 460 466.2 471.5 473 478.3 478 481.2 484.4 487.2 486.8 489.7 491.3 493.5 491.5 495 498.6 501.6 508 522.4 547.1 555.3 553.2 558.7 562.4 563.1 560.4 563.8 569.7 573.4 572.2 576.9 575 566.5 561.2 559.2 560.1 559.1 552.9 550.5 551.8 553 549.3 544 539.3 531.9 537.6 537.2 533.8 530.9 526.5 526.8 526.3 523.6 520.6 523.3 524.8 528.7 530.2 536.7 539.3 545 549.4 553.8 559.2 570.9 576.8 575.2 552.8 522 508.4 493 472.8 452.8 446.9 421.3 398.9 384.2 367.8 351.3 337.1 324.9 311.4 305.1 300.5 298.3 298.9 305.3 316.1 325 335.1 346.7 354.1 364.3 373.8 384.6 395.7 401.3 408.4 408.3 418.5 425.8 425 431.9 435.6 433.3 431.4 427.1 420.9 412.9 387.6 366.2 346.6 315.3 295.3 280.4 280.4 280.4 280.4 280.4 280.4 280.4 280.4 280.4 280.9 301.1 318.5 340 364.6 390.6 415.4 443.4 471.3 495 514.2 542.1 564.9 587.5 616.8 641.4 662.9 684.5 710.1 736.4 766 799.9 824.3 852.9 888.7 909.3 900.4 870.4 847.9 836.5 837.3 826.6 821 815.1 790.3 769.8
122.9 138.2 157.6 174.7 193.3 212.1 229.3 253.3 275.1 294.8 310.2 331.2 348.3 366.1 378.2 385.7 395.6 402.6 413.4 415.1 424.4 424.5 423.4 428.7 435.2 435.4 437.1 440.2 443.1 436.7 447.6 449.6 448.5 451.9 449.9 455.3 454.4 456 461 459.1 459.7 465.1 467.8 470.2 473.1 477.7 479.8 483.5 489.2 490.9 490 490 498.3 493.9 494.9 498.2 500 503.6 513 521.8 538.4 546.3 549.1 554.4 559 558.4 557.3 558.1 565.8 567.2 564.1 567.6 570.1 561.2 558.4 557.4 557.8 557.4 553.6 557.1 557.3 555.9 553.2 549.8 546.6 539.9 544.1 547.3 540.5 535.1 537.1 534.6 533 531.5 529.1 529.9 533.7 538 540 547.9 551.5 556.8 561.1 564.9 569.9 574.2 573.5 569.9 544 518.4 505.8 486.6 471.4 449.8 424.4 403.8 390.9 370.6 356.3 338.5 326.5 311.5 304.9 295.8 296.4 295.4 302.2 310.1 319.4 332.1 343.4 353.5 365.6 374.9 388.2 394.6 403.9 411.3 418.3 422.7 425.2 433.2 436.5 442.7 448.9 450.2 449.3 448.3 438.3 430.9 397.1 379 358.8 328.5 308.1 280.4 280.4 280.4 280.4 280.4 280.4 280.4 280.4 280.4 280.4 298.2 315 336.4 360.8 395.8 414.9 436.8 463.1 486.4 506.5 534.6 555 585.4 614 639.6 661.4 684.4 712.9 742.9 773.7 805.2 828.6 853.7 886.8 918.9 899 871.9 847.9 836.5 837.1 836.7 830.3 827.6 804.1 770.4
129.5 145.3 165.4 181 205 222.4 240.9 260.5 278.9 299.4 317.9 336.6 356.2 378.6 392.6 396.9 402.6 408.4 416.1 419.7 431.2 432.8 429 435.4 442 442.1 445.2 444.2 445.4 441.6 449.2 453.7 457.2 457.7 453.7 459 461 463.8 463.2 464.4 466.8 471 473.6 475.6 477 480.9 481.3 486.7 490.8 495.5 494.3 494.4 499 501.5 500.9 501.2 502.3 503.7 511 523.6 537 543.2 544.8 550 551.6 552.7 554.1 557.2 561.8 559.1 559 564.9 563.3 559.1 557 556.6 556.2 555 554.1 556.4 558.5 564.5 568.4 556.1 551.8 548.3 550 548.8 547 549.4 544.5 541.5 535.1 534.3 537.2 542.3 543.1 548.5 550.7 555.4 566 572.3 576.7 580.4 581.5 580.3 577.7 558.3 526.6 509 496.4 486.1 470.6 444.5 412.6 386.3 371.7 354.6 340 326.3 311.8 300.9 295.6 293.4 292.2 296.1 304.9 315.9 326.9 338.6 353.7 363.4 375.9 385.8 395.8 408.6 418 420.8 427.7 437.4 442.5 445.1 449.4 458.1 459.6 462.9 463.7 462.7 455.1 434.4 410.3 389.7 368.8 337.8 308.1 280.4 280.4 280.4 280.4 280.4 280.4 280.4 280.4 280.4 280.4 293.2 309.6 327.3 348.8 391.3 413.8 437.5 463.6 486.8 512.3 534 560.3 587.7 616.3 641.7 662.7 686.3 719.8 756.5 780.6 814 838.6 857 893.3 922.8 903.1 874.8 858.1 844.5 844.1 844.5 843.2 828.9 821.3 786.8
145.6 163.6 177.1 196.4 212.9 232.3 251 269.6 291.9 311.5 325.7 347.3 369 389.2 403.1 412.4 416.5 415.6 421.9 423.2 429.1 430.3 433.1 441.3 445 449.1 447.8 449.3 453 450.3 453.9 458.3 462.5 461.2 462.2 463.9 468.1 468.7 470.1 471.7 470.5 470.3 475 477.7 484.3 488 485.1 488.3 492 499.1 500.5 498.5 496.8 499.6 502.7 503.6 506.4 508.3 511.6 521.2 532 537.9 542.7 551 550.5 552.4 553.5 557.3 554.5 558.6 555.2 555.9 557.2 556.3 556 556.2 556.4 555.6 558.3 557.8 556.9 562.2 562.1 558.5 554.1 552.4 552.5 551 558.1 556.4 547.8 544.2 542.6 543.8 547.1 549.6 552.8 556.6 561.1 565.8 577.2 583.1 587.1 591.3 589.7 588.4 580.7 540.8 518.3 508.6 493.7 476.4 459 419.3 398.8 374.4 356.1 342.5 323.2 309.1 299.6 291.9 289.7 288.8 293.2 299.3 309 321.4 334.7 347.4 361.6 375.9 385.7 397.5 409.8 415.6 424.6 434.4 443.6 446.6 454.4 456.2 461 468.2 471.5 475.2 475.3 478.8 473 451.8 424.5 401.1 372 337.6 311.8 280.4 280.4 280.4 280.4 280.4 280.4 280.4 280.4 280.4 280.4 287.5 300 321.6 347.7 374.6 411 432.8 456.1 479.2 507.2 535.1 564.4 589.2 616.7 642 665.5 693.2 729 764.4 790.4 824.8 847.6 866.5 898.4 927.6 913.4 884.7 865.9 854.6 852 853.7 847.3 837.4 826.4 809
153.4 172.5 192 208.1 220.2 239.1 260.5 278.5 299.2 316.9 336.7 357.8 378.1 396.1 402.2 414 420.3 422.8 423.3 426.8 431.1 433.2 437.7 444.9 447.5 452.3 456.6 454.9 459.6 457 463 459.8 463.7 465.4 467.6 468.8 470.9 473.3 477.5 480.1 472.4 476.8 478.8 484.4 485.1 488.9 491 495 501.3 501.9 503.9 505 501.7 504.7 504.9 505.8 507.8 516.2 520.3 522 531.6 539 546.1 549 549.1 557.8 552.4 555.4 551.6 551.1 553.6 552.3 557.8 556.4 558.3 555.3 558.2 562 559.8 562 555.6 555.1 552.7 552.3 552.7 551.7 553.9 557.5 559.1 557.1 551.5 555.8 553.2 550.7 554.7 561.3 563 565.1 568.4 569.1 579.3 588.1 591.5 595.8 592.6 585.6 551.5 523.8 511.6 501.1 488.2 462.6 436.5 407.4 382.2 361.4 340.9 322.5 305.9 298.2 291.5 287.6 286.3 287.6 294.2 304.3 316.7 328.9 342.9 356.8 369.9 382 393.6 406.1 419.1 429.9 439.9 449.3 455.4 458.9 464.3 470.9 473.9 480.1 486.1 490.5 490.9 485.7 480.1 479.8 437.2 413.7 371.3 340.7 314 283.1 280.4 280.4 280.4 280.4 280.4 280.4 280.4 280.4 280.4 280.4 296.3 315.3 343 367.7 398 431.6 448.4 478.6 510.6 538.3 562.9 584.9 621.3 641.8 666.8 701.3 738.7 772.5 794.9 820.2 846.4 870.1 895.5 924.1 928.2 899.5 880.7 868.4 861.9 865.9 848 833.6 826 829.6
168.5 188.3 199.1 220 240 252.9 267.2 285.7 307.7 323.5 343.5 364.3 382.2 396.5 406.1 414.7 419 423.8 425.3 428.7 432 438.4 444.5 447.1 451.3 459.7 462.2 462.6 464.2 464.5 470.9 468 470.4 474.3 473.8 477.7 478.4 479.6 483.1 486.2 482.2 486.2 486.3 490.8 486.5 488.8 492.6 495.8 502.6 503 503.2 508.3 506.7 507.2 507.8 509.5 512.5 517 524.3 528.3 532 539.9 544.4 546.3 549.3 555.9 552.1 550.9 546.8 550 549.6 551 551.2 555.9 556.7 555.8 561.8 562.1 561.7 562.7 557.3 555.6 556.2 552.5 553.2 552.6 556 558.8 558.7 557.4 559.1 563.4 560.7 560.7 561.9 566.4 568.1 569 571.6 577.4 575.1 589.8 593.5 593.7 592.1 560.1 525.6 507.3 491.6 485.2 465 446.9 425 390.2 367.3 344.3 321 308.4 297.7 291 286.8 284.6 281 287.7 297.1 311 322.1 338.8 351 365.3 378.4 390.6 404.5 417.2 431.9 440.9 451 460.6 465.2 475.2 483.5 482.8 487.3 493.9 500.8 512.4 508.2 504.7 485 473.6 446.4 413.6 378.6 347.2 318 286.1 280.4 280.4 280.4 280.4 280.4 280.4 280.4 280.4 280.4 280.4 290 308 333.8 361.5 389.9 420.1 453.2 483.4 517.8 537.5 558.3 585.7 618 642.5 670.2 701 745.8 774 796.3 819.9 835.2 860.1 895.8 917 940.1 914.2 892.8 884.4 875.2 872.1 858 830.4 813.5 816.3
181.1 203.1 218.3 234 257.7 273.3 285.1 299.3 317.8 329.9 346.8 363.9 380.2 395.2 409.5 414.4 419 428.6 431.8 432 436.7 445.6 453.1 458 458.4 464.1 469.1 472.1 473.9 474.3 477.1 471.3 476.2 479.7 480.2 481.3 482.2 482.7 487.4 491.2 487.6 491 493.1 495.4 493.8 492.4 495.2 500.6 504.1 503.5 506.6 509.1 512.2 507.4 514.6 515 515.4 518.8 526.3 531.1 534 538 542.1 544.4 549.8 549 550.4 545.6 545.9 548.1 548.9 548.9 551.9 555.2 555.2 559.4 563.6 561.8 565.5 562.1 560.8 556.9 558.3 559.3 562.1 559.2 563.3 564 563 565.7 566.8 569.3 569.7 569.5 573.2 568.6 571.1 573.2 572.6 577.1 572.1 565.1 572.3 574.7 547.9 527.4 495.5 484.7 471.2 458.6 452.3 437.6 403.9 374.8 348.2 326.9 309.3 296.9 290 284.6 280.8 280 281.6 291 304.1 318.4 328.4 342.4 357.9 372 383.3 398.1 414.6 424.6 436.8 450.8 462.2 473.1 477.7 489.8 494.9 500.6 505 508.5 511.6 524.1 529.2 520.6 500.9 479.5 458.2 415.2 385.7 354 329.4 308.7 280.4 280.4 280.4 280.4 280.4 280.4 280.4 280.4 280.4 280.4 286.9 301.8 323.1 352.6 388.3 415.8 442 489.3 528.9 538.2 551.8 585.7 615.6 639.8 672.4 708.1 752.9 780.5 800.8 816.8 835.1 863.9 892.2 917.3 931.1 928.2 912.7 900.5 890.9 877.7 863.7 819 799.6 782.9
193.9 216.3 236 249 260.9 283.4 305.8 316.1 327.7 338.3 357.5 374.1 382.9 401.7 413.4 421.8 424.2 425.6 431.7 433.5 442.4 454.6 459.5 464.8 468 471.4 473.9 474.6 477 477.3 481.7 482 480.9 481 482.9 485.1 487.2 491.5 497.4 494.8 493.5 495.6 499.3 498.9 502.5 503.1 502.2 507.1 508.7 509.5 511.4 511.5 512.4 511 518.1 521.6 515.4 523.5 529.1 529.7 533.2 536.6 540.4 545.1 546.8 543.7 546.1 546 545.8 547.2 547.5 550.4 554 553 555.7 557.3 558.6 560.4 561.3 562.8 560.9 560.6 565.1 567.3 567.3 568.3 570.2 569.6 573.1 577.1 576.1 574.5 576.6 578 578.4 576.3 567.3 567.6 570 568.7 565 548.5 532.5 520.1 513.3 482.6 472.6 455.4 446.2 444.6 431 403.1 383.6 357.2 332.2 313 301.1 291 283.3 276.3 275.3 278.7 285.7 297 308.8 319.5 331.6 346.7 362.3 381.3 390.9 406.7 423.2 436.7 448.2 462.8 475.1 486.3 493.5 501.3 506.9 512.9 518.7 519.4 526 537.8 541.6 531.3 512.4 494.9 465 448.5 405.3 368.3 343.1 321.7 301.4 280.4 280.4 280.4 280.4 280.4 280.4 280.4 280.4 280.4 280.4 293.5 311.2 338.4 376.1 403.2 437 467.7 508.1 534.8 542.4 579 602 633.1 679.6 712.2 747.2 775.3 796.3 814.9 844.7 866.1 891.6 915 931.1 934.2 927.2 912.5 899.3 874.8 857.6 811.2 782.7 775.5
209.4 227.8 246.4 264.6 279.5 291.5 316.7 328.1 339.5 353.9 365.7 375 382.9 394.5 406.2 412.4 422.3 429.5 430.9 436.5 447.1 458.2 465.1 472.8 476 475.6 482.4 483.3 483.3 485.1 488 487.4 487.2 488.2 488.4 493.9 491.9 502 500.6 501.1 499.4 499.7 506.6 503.7 505.4 507.5 507.6 509.3 514.6 512 512.3 518.9 516.1 513.4 517.6 521.3 522.1 528.2 530 531.4 534.3 537.6 540.6 541.9 543.8 546.5 548.1 548 546.6 547.5 548.4 549.4 551.3 555.8 557.8 559.7 560.6 563.7 561.6 564.1 568.3 566.1 568.1 571.1 570.8 573.5 573.2 578.4 582.2 585.7 585.8 585.5 578.9 580.7 583 576.4 575.3 558.8 556 559.2 556.8 538.9 508.3 494.1 475.5 462.1 446.4 429.4 424.3 410.9 395.6 388.4 370.3 336.5 316.8 298.5 288.9 282.6 276.1 271 272.2 279.3 290.7 301.1 311.8 322.4 338.8 353 367 385.7 401.1 413.4 430.3 445.9 460.6 472.7 485.4 498 507.4 514.5 519.5 525.4 532.3 537 543.5 555 564.1 551.6 536.8 510.4 486.9 457.8 419 384.9 361.7 343 314.4 288 280.4 280.4 280.4 280.4 280.4 280.4 280.4 280.4 280.4 280.4 298.5 324.2 352.8 388.1 428.1 460.3 491 518.7 529.9 566.4 592 641 680.1 719.6 733.6 770.8 793 809.1 849.1 868.7 891.1 910.3 929.2 939.8 931.7 917.8 899.4 874.1 828.1 806.1 776 765.4
220.3 244.5 262 278.5 295.8 308.7 318.1 336.1 348.5 359.5 373.8 382.7 392.8 403.6 408.4 416 424.1 428.8 432.7 446.4 454.1 459.9 469.4 475.8 478.9 482.6 489.6 492.7 490.1 492.4 492 494.1 495 494.7 494.2 496.2 499.1 503.5 505.8 505.8 504.1 509.1 509 512.8 512.2 515.8 512 512.6 518.4 516.4 518.5 521.4 521.5 517.9 519.3 521.2 523.8 527.9 526.1 531 536.6 538.8 536.5 542.5 545.3 545.3 546.9 550.5 552.2 549.1 551.1 552.9 554.4 555 556.3 559.5 562.8 565.3 568.4 569.7 570.9 571.8 574.3 575.3 575.7 577.9 584.9 585.4 589.8 596.7 594.2 597.6 591.9 575 568.3 572.3 572.6 558.4 552.7 540.7 526.7 503.2 483.3 464.2 451 439.3 421.9 407.4 396.3 385.4 373.4 364.2 341.2 317.4 299.9 287.8 279.2 273.7 271.4 267.7 274.3 285.5 293.8 305 316.3 327.6 339.5 356.4 369 385.4 402.8 420.7 438.8 455.1 469.5 484.7 500.5 511.2 519 526.2 535.2 544.2 552.7 547.4 556.5 562.1 567.4 564.1 550.6 522.9 505.3 466.3 427.9 400.3 379.3 355.5 330.2 301 280.4 280.4 280.4 280.4 280.4 280.4 280.4 280.4 280.4 280.4 283.3 308.3 342.4 379.3 417.1 442.2 474.3 496.6 514.6 545.3 583.1 624.1 659.9 721.1 732.1 757.1 771.8 804 840.7 863.8 884.2 902.3 922.9 936.3 932.5 918.4 885.6 849.5 808.4 801.3 782.9 758.2
234.3 253.4 275 291.2 305.7 322.3 335.9 342.8 355 369.3 378.7 386.6 396.2 407.9 416 421.9 431.5 433.2 438.8 449.6 458.1 463.2 468.5 475.9 480.5 487.7 493.4 496.3 496.2 497.5 498.5 500.4 502.1 500.2 506.1 503.4 502.4 507.9 510 510.6 510.7 510.9 513.4 517 520.9 523 524.3 518.6 522.4 522.3 522.1 519 523.9 525.6 523.4 523.8 526.8 528.9 527.2 533.4 532.7 537.7 539.4 543.8 544.6 548.6 549 552.2 551.2 548.7 552 553.5 555 557.1 559.2 560.6 565.2 569.4 573.1 575 573.5 575.2 578.1 579.3 580.6 586.8 595.5 591.3 593.1 596.8 604.6 601.7 601.7 578.3 553.1 542.1 536 535.6 535.8 519.8 515 481.3 463.4 451.6 434 421.2 406.2 387.4 376.8 361.3 353.9 337.2 318.2 298.8 287.1 278.8 272.5 269 266.1 269 276.1 285.7 294.9 308.3 318.9 331.2 345.3 361.9 376.8 392.6 410.3 428.8 446.1 463.8 481.4 495.6 510.7 522.3 536 549.1 557.5 573.6 579.4 576.3 571.7 577.5 579.5 579.9 563.3 540.7 507 473.5 438.8 415.5 393.7 380.3 369.6 316.3 291.8 280.4 280.4 280.4 280.4 280.4 280.4 280.4 280.4 280.4 280.4 294.5 325.4 360.8 398.3 412.7 451.7 479 501.2 530.7 578.4 611 658.2 721.1 730.3 740.9 741.1 780.8 822.2 853.2 888.3 895.6 915.4 928.2 929.5 900.9 877.2 838.2 804.5 778.2 765.4 750.1
246.2 265.7 286.3 302.5 320.3 334.5 348.5 355 363.4 378 389.1 397.3 406.1 416 423.6 432.5 438 438.9 437.7 451.6 462.9 468 471.5 481.3 490.7 490.1 496.8 500.1 503.7 503.8 504.2 506.6 505.9 505.8 507.8 512.1 511.2 514.7 515.7 517.2 518 516.2 516.5 518.2 524.4 525.3 527.3 532.3 527 526.4 527.1 524.6 527.8 530.4 525.9 528.2 530.7 533.4 532.1 531.5 535.6 536.8 538.2 541.8 546.6 550.3 548.9 549.4 552.8 550.6 551.7 555.2 558 560.5 562.5 566.6 570.7 571.5 577.7 579.1 579.4 582.6 584.1 586.5 586.4 595.8 600 598.6 598.3 601.8 603.6 607 587.2 563.5 536.5 524.5 516.3 511.4 518.4 493.6 477.7 461.4 444.1 431.6 419.6 403.5 387.4 369.8 354 344.3 334.9 317.6 295.4 284.1 276 270 264.5 264.3 264.2 273.2 284.6 292.3 302.3 312.4 326.6 340.6 353 367.3 382.4 397 415 432.8 453.7 473.9 493.6 509.4 522.6 542.3 554.7 565.3 581.4 586.4 597.8 599.6 588.1 594.6 597.8 597.3 572.3 556 521 483.6 452.1 424.8 406.8 396 378.6 342.4 303.8 280.4 280.4 280.4 280.4 280.4 280.4 280.4 280.4 280.4 280.4 280.4 304.6 334.3 360.5 389.2 432.5 461.8 483.3 512.6 554 592.9 637.8 696.2 721.2 705.4 722.8 756.3 788.6 850 861.4 895.8 904.8 918.7 905 893.1 854.1 817.2 811.4 775.5 742.8 734
267.7 282.5 298.5 315.5 329.4 344.2 357.3 369.3 367.1 387.3 391.5 397.4 407.4 418.2 425.4 434 439.5 445 450.2 458.3 461.7 468.9 476.3 485.9 492.8 496.5 501.4 507.8 511 511.1 511.5 511.7 509.4 513.6 517.1 520.5 527.5 525.6 523.9 523.4 523.1 522.4 522.9 523.8 526.6 532.3 532.2 536.9 535.8 531.6 532.1 533.3 532.8 534 533.2 533.3 535.3 538 532.1 531.4 533.2 536.8 541.4 541.3 545 546.4 548 549.5 553.3 555.4 555.3 557.5 560.8 565.7 567.5 568.9 572.4 576.4 582.4 585 587.5 590.1 592.9 592.8 595.8 601 602.5 601.4 606 605.5 601.5 589.4 562 541.7 525.9 508.9 494.1 487.2 485.4 471.4 449.8 441.7 431.3 416 401.3 386.2 370.1 351.4 334.1 321.7 310.1 296.2 283 273.6 267.6 261.9 260.8 260.7 269.3 281 291.7 299.6 307.7 320.4 332.7 343.8 356.4 370.9 385.1 402.5 418.3 442.7 462.8 478.5 498.9 514.3 536.8 550.2 566.9 578.9 597.8 603 607.3 602.2 600.4 611.9 614.2 612.5 592.1 565.5 542.1 519.9 478.7 438.1 417.8 405.6 370.7 341.1 311.3 282.8 280.4 280.4 280.4 280.4 280.4 280.4 280.4 280.4 280.4 280.4 288.6 312.8 344.6 374.3 415.1 441.3 467.7 502.3 552.5 572 609.9 632.7 663.2 670.4 697.6 735.7 761.5 791.9 832.3 888 896.8 899.5 888.6 869.7 837.1 807.9 775.6 757.2 733.8 724.5
284.5 302.3 312.3 326.8 338.2 354.2 364.3 378.1 387.7 393.9 404.1 412.6 422.5 427.2 437.1 444 443.9 450.6 459.5 465.8 466 472.2 480.3 490.5 501.1 501 504.4 511.8 515 518.7 515.8 518.9 517.9 522.8 531.8 533.4 539.7 536.4 532.8 534 529.5 529 530.5 532.3 538.3 535.9 536.8 536.6 538.4 536.5 538.2 535.6 536.5 538.1 538.1 540 540.5 543.1 539.4 534.1 534.4 536.2 538.1 541.8 544.6 547.9 548.2 552.1 556.4 557.4 559.8 562.4 562.9 564.5 568.9 574.5 579.9 582.2 585.4 589.5 592.5 596.6 598.2 602.2 607.8 610.9 611.4 607.8 603.7 603.5 584.1 557.8 541.4 530.3 521.3 504.2 481.2 467.9 465.4 456.2 439.6 428.2 416 400.3 386.2 370.7 354.8 333.1 322.5 315.1 295.2 282.3 270.8 264.2 257.1 256.2 257.5 268 278.3 284.9 298.2 305.5 314.7 325.4 334.8 344.8 360.2 375 389.8 406.9 427 446 464.5 484.6 508.3 523.8 542.9 560.1 574.3 586.4 603.5 609.6 617.5 619 617.2 625 632.3 631.6 611.7 593.7 568.7 545.2 493.3 456.6 434.8 413 396.3 351.6 325.1 293.9 280.4 280.4 280.4 280.4 280.4 280.4 280.4 280.4 280.4 280.4 280.4 301.7 327.8 362.8 400.7 429.4 455.1 485.3 528.3 546.5 581.6 606.3 625 655.8 680.4 704 736.8 776.7 817.4 852.1 886.5 891.4 879.6 861.5 825.3 800.5 779.3 749.6 734.4 722.4
300.4 318.2 332.2 341.8 352.9 364.7 377.6 390.2 401.7 411.2 418.8 426.4 430.8 439.7 443 450.6 449 456 462.1 469.2 472.3 475.2 483.6 491.6 499.4 504.8 509.6 517.1 521 521.9 523.5 522.7 524.3 528.7 531.7 539.9 539.3 542.6 540 539.3 539.9 538.6 537 543.2 543.1 543.7 542.6 546.5 542.6 543.1 543.4 541.3 541.5 542.9 543.6 543.8 543.6 545.4 542.2 537.5 534.5 537 538.4 539.7 543.3 549.5 552.1 556.6 557.5 562.7 562 565.7 571.7 570 575.3 577.2 581.1 588.4 592.5 597.4 599.2 604.2 610.7 615.7 619.1 621 621 614.8 608.8 599 571.1 554.2 538.1 523.8 509.3 487.6 465.4 445.6 450.4 432.1 424.9 413.5 398.6 383 367.8 353.8 341.1 322.2 311.6 296.2 282 269 261.8 256.1 255 257.7 266.2 274.7 281 288.2 299.4 307.9 315.5 324.7 335.6 348.7 364.9 379.3 393.1 412.2 434.8 453.3 469.8 490.8 512.2 529.2 550.2 572.8 586.4 599.8 609.4 618 622.5 625.3 629.8 637.9 646.2 638.6 629.1 622.5 589.5 558.7 513 482.6 457.5 442.3 418.3 369.6 333.8 310.1 281.2 280.4 280.4 280.4 280.4 280.4 280.4 280.4 280.4 280.4 280.4 291.7 316.9 347.5 385.4 424.4 440.5 464.2 498.8 530.7 572 590.6 603.2 636.9 660.8 690.8 717.8 745.5 788.6 842.7 872.5 889.5 891 872.8 856.5 817.8 774.2 749.4 733 723.1
317.6 329.4 344.4 358.1 369.3 379.9 394.3 400.1 415.3 421.8 427.7 433.7 440.9 451 452.8 460 458.1 465.6 472.8 481.8 484.7 480.6 492.8 502.5 511.1 515.7 519.1 521.3 526.4 531.8 530.4 535.7 532.5 534.6 537.1 542.5 545.3 550.9 551.1 546.1 546.7 545.7 545.9 550.4 553.4 552.5 549 553.6 549 547.1 546.6 547 548.2 547.7 547.1 547.7 546.6 547.5 544.4 540.2 536.9 538.1 539.9 541.2 546.9 551.5 554.4 559.5 558.6 564.9 567.6 567.7 573.1 575.7 579.9 584.3 588.5 596.3 601 604.7 608.9 614.6 622.2 626.9 627.7 629.4 631.2 628.6 622.5 590.9 565.7 553.7 534 523 496.3 479.2 448 426.5 416.7 413.8 407.6 394.2 378.6 365.1 349.1 337.5 321.8 310.4 294.3 281.7 270.1 261 254.3 254.3 257.3 262 271.1 277.8 283.9 292.4 297.7 305.3 315.4 326.6 339.6 354 368.5 381.4 400.6 418.8 437 458.3 476 495.9 512.8 536.1 558 585.5 598 610.4 624.5 639.2 644.9 643.4 644.1 653.3 664.2 654.1 660.4 644.7 622.5 584.1 544.2 517.8 504.4 471.3 432.9 384.1 347.9 315.7 293.1 280.4 280.4 280.4 280.4 280.4 280.4 280.4 280.4 280.4 280.4 280.4 308.4 335.6 372.2 400.3 428 446.5 465.7 504.3 541.5 556.6 566.1 595.3 620.7 646.9 681.2 723.1 762.8 804.1 841.9 872 882.7 891.7 866.5 833.1 785.2 748.3 735.9 726.2
330.4 345.4 357.6 369.9 381.2 390.8 404.1 407.8 421.5 434 439.5 440.2 450.6 456.6 459.9 465.5 467 470.3 476.3 483.3 487.2 487.8 497.5 501.3 513.6 525.6 531.2 531.3 533.2 540.3 541.1 543.2 539.2 541.6 542.9 550.1 551.5 556.5 557.7 555.3 549.6 551.5 553.8 560.3 559.5 559.8 559.2 557.1 556.5 554.6 553.6 552.1 552.7 553.7 553.6 555.3 550.6 548.8 548.4 542.2 541.5 541.6 544 548 550.1 554 558.7 562.3 565.8 568.4 571.3 575.3 579 580.8 585.9 591.4 597.9 604.3 608.6 614.2 619.7 627.3 634.5 636.2 634.5 636.8 640.2 633.5 598.4 581.1 557.4 536.4 533.8 509.1 480.7 451.5 427 409.5 399.3 396.4 389 375.1 366.5 348.1 331.3 319.6 302.9 293.6 282.7 271.5 261.7 256.7 251.8 254 257.4 264.2 273.5 279.5 286.2 291.8 300.8 310.2 321.5 333.4 346.5 357.4 369.7 383.8 405.1 422.8 442.4 459.2 480.4 498.7 519.2 543.5 565.2 583.6 598.8 615.3 634.7 644 659 657.9 660.4 665.4 676.2 669.9 677.6 669.7 654.6 610.7 574.2 560.3 531.6 499.3 472.9 439.4 380.4 328.9 303.6 285 280.4 280.4 280.4 280.4 280.4 280.4 280.4 280.4 280.4 280.4 299.6 320.6 351.1 377.9 399.7 436.3 446.1 475.7 492 521.3 548 577.3 608.2 633.3 658.4 704.2 750.9 800.3 831.3 853.2 870.4 873.2 866.3 843.2 795.7 756 740 730.6
343 357 370.1 384.3 393.8 402.6 411.2 423.2 431.2 438.8 446.2 456.4 455.5 459.9 469.6 472.2 477.6 482.1 484.4 487.5 494.5 498.7 509.1 514.9 518 529.8 535.4 540.3 543.9 549.7 550.7 549.2 551 551.1 554.2 554.3 558.8 564.2 565.5 558.6 558.7 563.2 563.7 565 564.3 569.2 567.8 566 563.8 561.5 561.1 562 561.4 559.7 560.5 559.5 556.9 554 552.8 546.3 546.2 547 550.1 554.1 554.6 559.1 563.1 567.3 569.7 572.6 576.8 581.9 584.5 590.4 597.3 601.8 610.1 620.2 623.5 626.3 632.2 638.7 643.8 641.8 647.1 639.3 615.9 601.2 583.7 549.5 537.4 528.7 511.1 491.9 461.7 434 408.1 392.2 378.2 373.6 368.6 360 356 329.6 314.6 296.9 287.7 279 268.8 263.1 256 249.3 250.6 254.9 259.8 269.2 274.5 280.9 286.3 294.3 305.3 315.9 325.3 337.3 347.9 360.7 373.5 390 408.1 428 444.6 461.3 484.7 499.9 526.5 545.3 566.4 583.9 602 620.3 636.4 650.7 667.1 665.6 669.6 682.5 681.4 691.7 692.4 682.7 665.7 634.9 602.1 577.1 547.4 508.6 494 461.5 404.1 353.1 315.6 296.9 280.4 280.4 280.4 280.4 280.4 280.4 280.4 280.4 280.4 280.4 280.4 310.6 331 361.8 380.2 405 435.3 460.3 484.5 508.9 535.2 563.7 596.2 614.7 646.4 693.9 741.9 782.5 808 825.1 864.4 858 859.5 829.7 795.5 770.5 751.2 729.8
359.3 372.7 386.3 398.2 409.2 417.8 422 437.2 445.8 451.7 458.1 463.7 465.4 471.4 474 474.9 479.8 486.9 489.5 493.9 506.1 512.8 515.3 524.2 528 530.6 534.1 539 547.9 558.7 560.9 558.4 561.9 560.5 561.5 560.5 565.3 573.2 574.8 565.9 569.9 569.9 570.3 570.6 572.9 575.7 574.3 573 569.2 566.8 566.9 568.7 567.1 567.2 568.7 565.7 563.1 559.1 556.5 551.8 553.4 556.8 555.3 556.9 563.5 563.3 565.4 570.5 576.3 582.8 585.6 591.5 598.6 602.7 610.8 616.6 623.8 632.8 634.4 637.9 645.6 654.4 656.2 652.1 653.8 628.1 598.4 575.3 545.2 532.2 518.1 506.6 485 465.7 444.2 410.7 392.7 371 359.1 351.3 353 338.8 331.2 307.1 297.3 282.6 274 264.3 257.8 253.5 249.4 248.5 251.3 255.6 263 268.8 276.8 283.2 289.4 297.2 307.5 317.6 328.7 339.8 351.2 364.7 378.8 389.8 410.2 428.6 445.7 465.3 483.6 509.4 527.1 545.4 569.8 588 602.6 619.3 637.4 655.6 669.7 676 682.4 697.1 692.9 704.2 705 686.9 671.3 645 630.4 598.2 563.8 525.3 486 458.5 427.2 377.1 329.2 306.4 289.3 280.4 280.4 280.4 280.4 280.4 280.4 280.4 280.4 280.4 280.4 290.2 313.1 340.2 372.3 388.2 422.1 449.3 476.2 496 518.9 551.3 575 605.1 647.9 688.9 716.4 752.4 773.5 808.1 821.6 846.8 845.9 829.2 803.9 787.6 754.9 736.9
369.6 382.7 399.8 409 421.8 430.2 437.8 447.1 454.9 460.4 470 471.1 476.8 474.4 481.4 485 486.3 491.5 499.3 508 512.3 518.7 523.9 527.6 532.2 536.4 538.6 547.5 556 565.9 571.1 569.4 577.4 574 570.8 571.7 575.3 583.6 581.3 577.9 581.6 576.2 577.1 575.5 579.3 580.5 580 578.9 574.3 575.6 576 576.5 575.7 576.3 575.1 571.1 570 562.7 562.2 561.1 563.1 561.8 561.3 564.8 567.7 570.5 574 580.4 583.8 590.1 597.2 604.9 612.3 620.1 626.5 632.2 637.4 642.4 646.7 651.2 656.6 660.2 664.3 657.7 651.8 609.3 570.9 552 529 503.8 502.8 485.3 463.7 438.2 413.3 397 372.8 351 338.8 333.3 329.4 320.9 306 291.5 277.1 266.9 261.8 256.1 251.1 245.2 245.3 248.2 252.9 256.7 265.4 270.4 277.1 285.1 291.5 298.7 307.4 322.2 330.6 340.9 352.6 366.9 377.6 391.1 409.2 428.1 446.4 465 483.7 504.3 525.9 546.8 567.6 591.6 604.4 627.7 645.4 659.2 684.2 680.9 693 695.3 709.6 717.1 703.5 678.8 659.2 638.6 620.2 588.9 563 534.6 488.6 446.2 417.7 390.8 342.6 317.3 297.6 286.7 280.4 280.4 280.4 280.4 280.4 280.4 280.4 280.4 280.4 280.4 302.1 325.8 349.4 370.6 405.7 436 461.6 482.9 507.8 542.5 563.2 617.7 639.5 660.6 688.6 722.9 744.6 776.7 792 812.2 852.3 833.6 812.9 794.6 766.1 745.1
385 398.6 413.8 422.7 436.1 444.3 453 458.5 466.1 472.9 478 477.7 487.5 486.8 487.2 495.1 497.1 501.9 509.8 516.7 520.7 525 535.9 546.9 541.6 545.7 545.5 548.6 557.9 574.2 582.1 580.8 595.1 584.1 582.2 586.7 592 594.3 587.4 583.6 584.8 586.8 587.6 583.1 591.4 594 588.9 585.4 585 587 586.2 585.4 584.3 586.7 582.7 577.6 578.4 572.1 571.9 569.9 573.7 570.3 568.6 572.6 575.6 580.7 584.5 589.4 595.6 599.6 607.3 613.8 623.4 634.7 647.4 658.1 654.9 655.8 658.3 665.6 668.2 669.5 661.5 656.4 619.7 587.5 546.7 520.8 499.7 479.7 478.2 480.5 439.6 418.3 406.1 374.9 353 333.8 321.1 317.9 311 303.4 286.9 271.9 263.2 253.1 253.2 248.9 243.5 245.3 247.3 249.4 254.9 260.6 264.3 263.8 279.5 285.4 290.4 301.8 307.7 321.9 330.4 339.8 348 360.7 373.8 387.6 405.2 423.1 441.9 464.9 484.9 504.8 524.7 545.9 567.9 585.4 606.1 630.4 645 663.2 685 689.6 696.6 710.8 722 724 720 685.4 657.8 633.4 613.1 584.9 549.4 516.5 479.1 456.4 441.3 385.5 358.5 329.1 305.4 290.8 280.4 280.4 280.4 280.4 280.4 280.4 280.4 280.4 280.4 280.4 290.6 306.5 332.5 355.7 392.8 425.1 446.5 469.9 497.7 522.3 554.4 596.8 621.1 645.5 672.8 685 706.7 731.2 761.5 785.9 820.2 833.8 815.3 800.7 776.9 753.7
399.6 412.9 427.9 439 447.7 457.3 464.4 471.9 478.9 485 487.9 485.6 494.4 495.3 494.1 504.5 502.7 508.1 515.8 527 531.6 533.5 541.1 545.9 549.9 557.8 558.4 560.4 565.2 575.1 589.4 597 595 590.3 592.6 595.8 598.5 593.5 595.3 591 591.3 594.8 594.9 594.5 605.3 610.1 601.3 595.4 595.6 598.2 597.6 597 592.1 592 589.8 583.7 582.1 580 581.6 580.4 582.8 579.8 579.4 582.3 587.4 591.8 595.4 599.6 606.1 612.8 623.4 628.7 637.2 653.9 669.2 673.7 676.8 675.2 668.7 673.6 673.5 664.9 636.5 621.9 580.5 546.9 518.9 493.3 476.8 473 451.5 434.7 422.8 409.6 375.1 351.3 336.1 317.3 307 297.9 286.6 278.5 265 255.9 249.2 245 243.1 242.3 243.8 246.4 250.1 255 262.5 268 271.8 275.5 277.3 282.2 294.2 304 308.6 315.8 326 337.5 349.2 360.1 372.4 386.3 403.7 422.1 440.3 460.9 481.3 506.3 522.6 543.5 565.9 587 607.5 628.3 644.9 665.6 688.9 693.7 702.6 717.8 729.6 736.9 730.3 703.5 673.8 641.3 619.6 593.5 569.1 542.4 512.3 480.8 434.6 412.3 379.5 337.7 315.1 294 280.4 280.4 280.4 280.4 280.4 280.4 280.4 280.4 280.4 280.4 280.4 295 318.3 347.3 372 406.5 434.2 460.6 481.3 510.5 548.4 565.4 607.5 631.6 653.4 674.9 681.8 700.9 725.2 760 786.3 811.7 817.8 802 780.5 757.4
414.7 428.2 438.6 451.5 459.2 468.4 473.2 478.5 488.9 491.8 493.4 495.4 499.4 506.6 504.2 508.4 516.2 521.8 524.9 533.4 540.4 544.6 545.9 551 558.5 563.6 564 569 580 583 588.4 597.2 596.6 597.6 603.3 604.7 602.5 598.9 599.9 600.1 600 600.8 602.8 611 620.1 620.3 612.9 605.2 603.9 606.7 605.8 605.1 600.7 596.7 592.8 591.7 590 592.6 592 593.8 593.8 593.9 591.9 594.2 599.5 604.7 614.7 610.9 617.6 624 634.5 646.7 658.7 682.5 691.8 698.2 694.9 694.5 665.6 655.5 661.2 628.3 602.2 577.1 549.7 522.4 500 471.1 454.1 438.5 422.3 416.9 404.1 377.2 353.1 334.6 317.3 302 294.7 284.5 271.6 262.2 248.8 244.6 241.8 239.8 241.3 240.2 247.3 250.9 258.9 264.8 272.8 279.4 286 285.3 288.7 288.6 290 299.6 307.6 313.9 322.8 334 344.7 355 364.5 379.4 398.7 422.1 438.8 459.4 477.4 502 523 540.2 563.2 582.5 606.8 625.2 648.3 675.2 706.4 693.4 713.2 727.5 738.8 744.4 748.5 723.2 696.4 664.1 644.3 632.9 601.6 561.4 539.5 501.9 450.1 402.1 380.8 345 329.8 302.5 280.4 280.4 280.4 280.4 280.4 280.4 280.4 280.4 280.4 280.4 280.4 281 312.2 337.6 362.2 391.5 417.3 447.2 471.8 502.9 521.6 545.4 574.7 599.8 617.3 633.5 662.8 677.1 701 735.4 755.9 780.7 806.7 792.7 784.5 760.6
423.5 439.8 451 463.6 469.7 477 485 492.8 495.1 499.1 505.5 506 508 514 512.7 515 521.2 527.7 535.7 538.4 545.3 551.9 553.5 562.5 572.9 577.3 578 581.6 591.4 596.9 597.2 601.2 601 603.7 613.5 616.7 609.1 609.3 609.7 610.8 610.3 611.6 613.2 617.4 621.9 623.3 619 612.8 617.3 618.3 616.6 611.8 607.9 604.2 603.8 600.8 601 602.7 608.1 609.2 609.2 604.9 604.6 608.9 613.9 620.3 625.2 624.8 631.2 638.7 654.3 673.4 688.6 704.9 712.9 714.9 711.4 703.1 653 625.1 614.5 595.1 563.2 542.7 519.4 501.9 475.6 460 442.9 420.8 398.5 382.9 370.4 355.8 336 321.2 301.3 288.1 281.2 272.5 262.8 248.1 241.8 241 238 238.9 241.2 246.4 258.5 268.4 276.9 283.8 290.6 296.9 302.8 305 304.4 305.1 304 303.1 304.2 314.4 321.4 327.6 337.9 350.7 363 380.2 394.5 418.8 434.2 452.4 474.2 499.3 520.2 542.2 559 581.5 599.7 632.6 646.1 685.2 695.2 701.9 719 733.5 746.4 755.3 767 750.9 715.2 684.3 659.5 642.9 625.2 593.4 551.2 519.3 472.9 418 385.1 350.8 331.9 316.3 290.1 280.4 280.4 280.4 280.4 280.4 280.4 280.4 280.4 280.4 280.4 280.4 292.8 325.2 351.2 378.2 405.6 424.4 449.9 488.5 501.1 518.5 556.9 565.7 592.1 607.4 642.2 656.2 678.1 713.3 727.4 755.9 800.5 792.8 785.6 764.9
437.4 451.7 461.7 473.3 481.4 486.2 495.2 500.5 502.7 509.2 513.1 515 519.1 521.1 524.7 528.9 532.5 540.7 546.2 548.3 563.7 568.9 565.7 573.5 579.9 583.4 589.4 597.8 605.3 604.9 609.4 610.4 609 613.5 621.8 624.8 615.7 614.9 624.8 624.3 621 618.2 619.7 623.7 628.7 630.8 623.5 623.3 631.1 631.6 624.7 618 613.1 618.1 618.4 614.8 615.8 615.9 619.3 622.9 623 621.4 619 621.6 630 635 639.2 643.3 650.9 662.2 674.6 695.5 711.8 724.5 731.4 728.1 702.7 665.7 630.9 600.9 581.9 565.6 539.3 516.9 495.7 479 465.9 453.4 427 406.1 388.2 371.6 353.5 335.5 317.5 305.6 285.3 273.7 265.9 258 250.5 241.8 239.5 238.7 237.4 242 250 259.8 275.9 287 296.2 307.1 315.7 319.8 325.3 323.3 321.2 324.6 321.9 320 316.6 313.9 321.1 325.9 333.5 344.4 356 372.6 389.3 410.3 429.2 446.6 470.6 491.9 513.4 538.2 558.9 578.5 600.2 633.8 648.9 678.1 685.8 703.8 716.9 735.8 749.7 754.9 767.3 765.9 728.8 702 680.1 641.1 614.5 599.5 565.3 518.4 477.4 433 395.5 364.9 342.7 320.1 303.6 280.4 280.4 280.4 280.4 280.4 280.4 280.4 280.4 280.4 280.4 280.4 280.4 303.3 331.1 353.4 389.3 402.7 437.4 460.6 480.2 496.2 523.5 540.8 562.7 587.2 609.4 631.8 654.4 682.8 710.2 743.2 788.9 793.5 804.3 784.9
451.7 463.5 472.4 483.2 495.4 498.4 504.4 508 510.8 519.3 519.6 524.3 528.2 528.7 530.9 537.7 543.3 547.8 553.2 563.4 574.7 582.5 579.6 589 595.8 595.7 596.5 608.8 613.1 619 627.6 633.8 619.2 622.7 631.2 628.6 626 623.3 631.5 630.2 627.7 625.7 634.6 639.3 645.6 641 635 637.2 638.5 637.8 631.3 624 627.8 633.2 631.6 632.9 641.6 635.6 630.6 634.2 641.5 636 637.4 638.1 641.6 645.9 653.5 661.9 671.9 688.7 707.5 717.9 726.3 739.3 723.5 716.3 655.3 635.9 607.5 575.8 556.2 548.5 522.3 504.6 491.4 474.6 454.3 432.8 409.1 389.7 372.1 368 341.3 315.3 308.7 289.4 269.2 262.2 255.9 250 240.6 236.4 236.1 235.7 239.3 249.8 266.4 282.5 295.8 306.9 319.6 327.8 337.6 344.8 342.2 341.7 341.7 342 342.4 335.4 331.7 326.5 319.6 328 337.6 342.3 351.4 369.3 384.5 405 426.3 440.5 464.4 489.3 511.3 535.7 555.8 580.1 599.1 625.4 646.5 685.5 685.4 696.8 712.2 736.8 745.7 750.9 759.5 764 731.8 696.2 685.1 637.9 616.3 586.9 540.9 511.7 480 449.8 417.7 380.1 355.9 329.8 313.3 293.7 280.4 280.4 280.4 280.4 280.4 280.4 280.4 280.4 280.4 280.4 280.4 280.4 306.4 335.4 363.7 382 423.7 449.5 461.8 476.1 495.1 529.4 550.3 576.9 590.9 613.5 639.3 670.3 700 730.5 768.8 787.4 809.7 796.4
466.9 477.9 488.1 491.8 505.3 509.6 513.7 517.1 520.8 527.2 529.8 535.4 536.1 542.8 543.9 547.7 554.7 560.2 566.9 573.7 583.1 584.8 586.6 592.3 601.2 603 607 617.8 621.8 625.2 637.6 643.3 630.5 629.8 633.5 631.4 628.7 630 633.3 634.2 634.4 636.2 645.7 648.6 653.2 647 643.2 646.7 648 643.5 637.7 642.5 640.1 643.7 645.2 647.4 656.5 648.1 642.8 650.5 658.5 650.9 649.4 655.4 657.8 660.3 677.8 689.8 696.3 716.4 727.8 732.3 721.9 716.2 698.4 650.8 628.4 610.7 583.8 557.3 540.2 523.1 508.5 498.1 482.9 465.3 442.8 414.8 388.1 369.8 355.6 346.8 324.2 306.5 290.2 270 253.5 251.8 244.5 238.6 234.9 234 237.5 243.5 252.1 269.1 285.9 302.1 317.4 328.8 348.5 359.3 360.7 364.4 364.8 366.1 367.3 362.5 362.8 358.5 350 341.3 333.2 323.5 337.6 343.1 354.8 365 380.7 397.3 422.5 436.4 460 483.3 507.2 529.5 554.7 575.2 598.6 625.1 641.9 673.1 676.1 688.8 718.5 740.2 746.7 749.4 753.2 749.3 720.3 688 675.3 629.6 612.9 573.4 525 494.7 471.7 451.8 426.8 396.1 370.9 340.9 321.3 306.7 288.4 280.4 280.4 280.4 280.4 280.4 280.4 280.4 280.4 280.4 280.4 280.4 282.6 310 344 364.7 394.7 426.5 439.6 458 483.7 501 530.4 550.6 577 602.1 629.1 662.3 690.2 718.2 750.4 776.5 792.1 802.6
484 492.8 499.5 507.6 511.5 516.6 521.7 523.6 530.2 534.1 536.5 541.5 543.5 552.7 555.4 558.9 565.6 571.9 577.1 580.4 590.2 595.3 603.6 609 613.5 614.5 622.3 630.9 633.2 638.8 648.8 644.2 640.4 640.8 640.3 637.7 637.4 636.5 641.1 644.1 645.5 644.9 651.2 656.1 656.2 661.9 655.2 653.8 653.7 648.9 650.7 657.1 658.1 665.8 663.5 669.6 662.3 652.3 663.2 667.4 669.2 665.2 664.8 674.3 671.9 684.5 695.8 710.6 727.3 740.6 742.5 719.7 695.3 693.6 663.7 632.4 605.9 590.3 569.3 548.4 529.5 517.5 505.7 491.2 470.5 457.6 430.2 405.2 370.5 349.2 339.2 317.5 303.5 294.8 274.9 260 243.7 240.4 236.7 232.9 231.2 237.8 244.2 254.7 270 288.8 305.8 319.6 343.2 360.9 379.8 386.6 387 387.6 387.7 390.7 391 391.6 388.5 379.2 373.7 360.5 346.7 335.5 330.6 343.6 348 365.2 375.2 394.5 416.1 436.6 457.3 479.1 499.9 527.9 554.8 573.9 595.4 620.8 634.7 653 668 683.8 719.6 748.1 755.2 744.8 745 740.9 703.9 669.5 644.1 615.8 594.6 571.2 535.8 499 480.3 451.5 437.7 402.9 378.2 360 334.6 318.2 305.7 280.4 280.4 280.4 280.4 280.4 280.4 280.4 280.4 280.4 280.4 280.4 280.4 292.8 324.7 347.7 373.4 406.3 428.9 447.9 466.1 484.6 507.1 531.8 559.7 593.1 616.6 648.7 682.6 714.7 739.6 759.8 772.2 785.8
498.6 505.6 510 518.1 522.1 525 528.6 532.1 537.4 544.7 547.7 549.3 554.3 564.4 568.3 568.2 575.7 584.6 592.7 595.9 596.4 597.2 604.2 616.7 624.2 625.1 637.6 642.4 645.8 651.8 656.8 651 653.2 650.9 648.7 645.1 641.3 639.6 645.2 652.5 652.7 654.6 658 658.7 660.3 670.7 662.9 661.3 659.7 655.6 664.2 662.6 673.1 673.4 670.1 673.9 661.4 668.3 674.7 675.6 680.4 676.6 683.4 686.8 689.1 700 717.1 733.4 735.2 730.4 703.9 693.4 662.8 669.3 632.1 611.1 593 580.2 556.3 534.2 524.8 512.7 500.4 483 459.4 437.3 406.8 386.2 351.4 336.4 321.4 301.2 291.9 274.9 263.3 252.4 235.6 232.2 230.3 229 234.8 240 252.6 271.7 291.2 308.9 324.5 345.8 356.6 391.7 415.4 416.5 410.4 412.3 415 436.3 441.8 420.2 407.6 399.1 388.1 378.5 363.1 348.9 336.6 336.7 342.6 360.6 373.9 385.9 410.9 432.7 449.8 473.5 497.6 517.6 550.5 570.4 591.2 610.6 634.8 648.7 664.4 682 708.2 744.3 749.7 739.7 735.4 719.3 699.4 656.5 619.5 599.1 585 570.1 560.2 512.8 492.5 469.8 440.9 433 399.5 373.6 353 335.3 324.8 294.4 280.4 280.4 280.4 280.4 280.4 280.4 280.4 280.4 280.4 280.4 280.4 280.4 305.3 326 351.2 389.5 413.2 432.1 452 475.9 498 524 548.3 579.9 607.4 636.2 670.1 716.5 744.6 758.3 761.7 777.4
503.9 512.2 518.5 525.6 527.7 532.5 538.7 542.3 548.1 555.6 561.2 562.9 569.4 573.2 577.8 581.5 586.2 595.8 597.5 600.3 601.8 603.9 615.6 630.5 636.8 639.8 648 654.6 658.6 667.2 665.3 662.4 664.1 659.8 656 654.2 651.9 652.9 656.7 657.8 660.3 663.9 662.5 662.8 662.8 668.1 666.4 668.7 663.3 662.5 670.3 671.5 678.2 683.5 679.8 674.6 683.5 682.3 689.9 691 697.4 695.8 695.5 705.2 716.2 726.2 728.8 712.2 696.3 681.4 667.8 651.5 628.1 625.8 619.7 593.9 582.3 570.4 542.6 531.9 524.5 512.4 491.9 471.5 454.4 424.4 400.5 370.6 340.8 320.9 302.6 292.3 281.9 263.2 254.9 241.8 237.5 228.9 227.5 232.9 238.8 244.8 270.2 288.7 306.2 329.9 342.5 360.3 388 423.3 447.6 447.6 441.3 443.2 442.5 465.1 466.4 445.9 427 415 404 390.5 380.3 363.5 345.8 334.5 342.3 357.1 371.8 384.8 408.2 433.4 447.8 470.3 494.7 517.4 551.6 569.7 589 611.2 631.3 644.8 659.8 677.8 696.3 735.5 741.3 730.2 717.7 693.8 679.2 649.7 622.8 593.8 580.2 561.9 550.6 520.9 494.3 468.1 441.8 421.2 401.9 384.1 370.8 347.4 353 309.2 285 280.4 280.4 280.4 280.4 280.4 280.4 280.4 280.4 280.4 280.4 281.2 280.4 298.6 329.4 363.8 392.8 416.8 443.5 470.4 488.4 516.8 536.5 564.5 591.8 625.3 656.2 709.5 742.9 746.9 736.3 749.9
515.9 524.3 530.9 533.9 539.2 542.8 548.9 556.4 565.4 568.8 573.7 576.5 582 587.3 592 592 592.5 598.4 603.5 606.2 609.6 615.7 625.2 641.4 652.2 653.8 662 662.5 668.9 674 671.6 671.8 677.3 668.2 664.1 659.3 662.9 663 668.9 673.9 669.9 666.6 665.5 665 664.8 670.4 670.8 671.5 668.1 673.7 679.1 684.6 685.4 685.2 681.4 690 695.3 695.5 701.8 713.7 712.9 713.6 718.1 731.2 733.7 741.5 709.6 674.3 652.8 652.8 642.8 610.8 602 602.7 601.6 587 571.3 561.4 538.1 532.8 524.3 511.3 488.2 471.1 440.9 405.8 381.4 356.9 330.8 310.7 296.7 281.9 270.2 256.4 245.1 234.6 230.1 227 230.4 236.9 247.7 266.2 285.6 305 325.7 347.9 366.5 382.3 413.6 461.5 474.1 475.5 476 485.5 474.9 485.7 481.2 463.4 442.4 437.5 418.1 403.5 390.9 378.1 362.1 344.9 350 353.7 366.2 381 405 427.4 444.9 467.6 489.4 515.4 552.6 565.3 590.7 607.2 625 645.7 657.3 673.8 689.3 717.8 728.3 725.9 715.9 691.1 671.5 650.2 629.5 592.6 576.3 564.1 552.2 532.7 483.8 459.3 442.5 423.4 404 403.3 382.7 352.3 338.7 315.2 291.3 280.4 280.4 280.4 280.4 280.4 280.4 280.4 280.4 280.4 280.4 283.8 280.4 280.4 305 333 382.5 405.8 435.8 458 477.8 503.8 525.1 551.4 581.9 613.2 642.8 694.6 724.1 741.8 730.2 719.1
527.9 533.5 539.2 545.6 552.2 557.9 562.9 569.2 575.9 582.9 587.9 590.1 596 601.2 605.4 609.3 612.1 611.9 615.4 622.6 627 633.1 645.9 659.6 669.6 671 677.9 674.8 677.5 682.2 686.1 684.4 684.2 679.8 676.9 668.2 670.3 668.5 668.6 673.6 678.1 674.4 673.3 671.9 674.1 679.3 677.5 676 678.3 683.7 685.6 689.7 695.1 689 696.3 705.1 707.9 706.2 719.4 726.3 727.4 733.1 741.4 744.4 748 734.7 685.5 655.3 630.5 621.4 623 593.8 591.1 600.3 593.9 567.3 563 549 538.3 531.7 525.6 513.8 483.3 453.8 422.6 395.9 370.9 346.9 318.5 301.9 291.5 272.5 259.1 244.1 237.6 228.7 225.2 227.6 235.1 245.2 261.4 286.6 306.2 322.5 340.7 366.6 389.5 412.9 449.9 470.1 488.8 489 508.4 511.6 507.6 498.4 496.2 491.7 458.9 444 427.1 415.6 406.1 392.8 376.2 358.8 343.3 354.6 370.4 382.7 405.3 426 445.3 462.9 487.7 524 546.3 564 587.2 605.3 621.5 636 655.3 673.6 685 704.4 718.9 725.5 717.5 695.2 666.9 647.6 624.8 598.3 575.1 571.8 551.8 530.2 494.2 475.2 453.6 433 423.9 402.6 375.9 358.9 339.9 323.9 315.9 304.9 290.2 280.4 280.4 280.4 280.4 280.4 280.4 280.4 280.4 285.7 256.6 264.7 286.7 312.7 345.2 387.6 431.2 452.7 473 493.3 512.7 539.1 575.4 603.5 631.8 669.3 700.1 724.9 718.5 695.3
541.8 544.7 548.6 555.6 562.5 570.8 575.1 583.3 593.3 600 602.3 609.3 615.2 618.3 622.7 626 630 630.5 630.3 635.7 643.8 654.1 661.2 668.4 677.2 681.6 686 691.7 695.1 701 704.1 701.6 699.6 694.6 688.6 683.4 682.7 679.7 678.6 681.2 683.2 680.7 683.9 682.1 682.3 687.6 683 685.4 694.1 693.8 697.1 699.9 695 695.1 708.9 713.7 723.2 723.1 732.7 740.8 744.7 749.6 757.8 759.7 727.6 693.2 661 637.6 613 595.5 588.5 581.1 577.7 580.3 568.1 562.6 552.2 542.7 535.7 536.4 520.5 504.9 466.8 442.7 414.4 387.6 360.9 332.8 305.8 296.3 283 262.4 251.7 235.3 228.5 224.3 224.6 230.6 240.8 258.4 279.6 303.3 330 345 360.7 383.6 419.3 448 467.6 481.1 498.1 513.7 533 533.5 530.3 511.1 510.4 503.8 475.6 449.8 434.3 424.1 415.7 401.3 384.8 372.5 355.8 354.3 367.1 378.2 400 425.4 442.8 460.3 492.1 519.7 539.6 559 582.9 605.5 621 634.7 649.1 664.3 678.5 700.8 714.5 720.6 715.3 690.6 651.6 637.3 624 613.7 581.1 576.4 561.9 546.6 513.5 484.4 461.2 441.5 432.3 407.2 382.6 376.1 364.9 348.2 335 320.3 305.8 284.8 280.4 280.4 280.4 280.4 280.4 280.4 280.4 261.3 259 252.9 262.1 287.9 318.4 363.3 396 445.7 460.8 482.1 498.9 528.8 552.2 585.8 600.3 637.6 645.1 669.6 690.2 680.6
551.4 556.2 563.5 570 573.3 579.6 586.9 596.9 605.9 612 616.5 625.6 632.1 633.2 636.6 643.1 644.6 649.2 646.5 652.2 657.7 666.6 674.3 683.8 695.2 696.8 704 708.3 714.8 716.7 719.8 720.1 713.8 712 703.1 696.1 693.2 691.9 699 696 689.7 690.4 690.9 688.4 688.7 690.8 687.9 692.8 697.7 706.2 703.3 700.3 701.2 709.9 719.7 729.7 736.6 742.6 746.8 755.5 759.2 768.9 772 765.7 703.1 674.3 647.9 616 597.2 591.1 578 570.8 570.6 564.3 561.3 559.6 547.6 545.2 535.8 530.6 519.7 496.7 452.7 422 404.4 380.9 351.1 319.9 298.4 285.2 264.6 251.3 238.1 234.3 224 221.3 226.1 232.3 248.4 273.5 297.7 326.7 346.8 364.8 385.5 398.3 436.3 466 484.5 502.6 511.4 540.9 552.5 553.5 541.1 527.4 517.1 510.3 479.1 457.9 445.2 431.9 421.5 409 397.4 384.9 365.1 353.2 365.4 378 402.3 423.5 442.3 465.1 490.5 515.4 535.1 558.6 581.9 602.8 617.9 631.9 649.2 664.5 680.1 694.9 718.6 732.2 741 683 647.8 632.2 622.2 616.5 583.5 574 569.5 547.6 518.1 487.3 463.9 454.6 439 416.9 405.4 390.5 381.5 367.7 356.8 343.8 326.6 306.5 289.2 280.4 280.4 280.4 280.4 285 243.5 251.5 256.2 247.9 246.4 267.7 291.9 319.7 366 407.1 428.3 466.5 482.3 511.2 529.5 552.7 576.4 595.7 616.1 628.2 645.6 644.7
565.1 572.2 581.3 586 587.8 593.2 599.9 606.4 615.4 622.4 626.8 635.3 644.9 650.1 655 657.6 661.8 666.6 671.1 678 682 689.7 693.1 702.5 709.3 713.6 721 724 733 734.1 736.9 735.8 733 730.4 720.8 712.9 711.2 715.7 714.3 704.6 700.7 703.5 698.3 697 695.9 696.3 698.4 702.4 709.6 714.7 706.9 705.9 712.4 727.3 738.3 745.1 753.5 759.1 762.4 770.2 777.9 786.7 788.4 755.1 701.9 663 631.2 604 590.2 582.1 569.7 567.2 565 555.3 548.6 550 537.8 529.4 527.7 534.2 505.7 484.6 445.7 414.6 391.4 361 334.8 306.9 291.5 273.7 255.1 244.2 231.2 225.5 222.4 223.9 227.2 240.6 265.5 290.3 318.7 341.1 362.3 377.8 399.3 421.4 453.7 485.7 507.2 520.1 525.3 552.6 568.4 563.8 549.9 545.5 524.6 505.8 482 464.9 450.6 438.1 428.5 416.2 405.2 394.5 377.7 363 362.1 374.7 396.7 419.9 442.1 464.2 485 510.4 535.9 557.8 579.8 600.7 616.1 638.6 653.8 671.7 678.8 694.6 729 744.1 748.1 703.5 669 638 629.6 611.7 589.8 572.9 558.1 533.7 523.7 506.1 493.5 471.7 451.1 438.3 414 397.2 388.7 383.6 378 364.3 345.9 321 302.1 292.8 292.1 287.4 270 242 240.5 247.4 253.3 240.5 238.2 249.1 271.1 301.8 326.1 361.6 403.6 440.9 463.5 484.6 500.6 519.7 535.2 556.9 579.4 593.7 605.3 617.1
574.7 586.9 593.1 598.6 604.3 611.4 615.7 621.2 630.8 637.9 643.8 652 657.7 665.4 670.7 675.8 684.3 689.7 691.6 699.5 708.5 709 718.9 723.3 727.2 731 738.7 745.4 752 750.2 753 749.9 748.3 748.3 739.1 733.3 734.4 736.6 736.2 718.8 712.5 711.4 706.4 704.8 711.7 709.3 713.2 716.2 719.5 722.1 714.2 727.3 727.4 738.6 750.6 759.8 768.6 776.3 779.6 786.9 797.5 804.4 790 753.5 700.6 665.7 638.1 608.4 593.8 579.7 566 560.7 557 550.5 541.4 532.3 526.4 519.3 522 510.2 488 463 439.6 406.5 371.3 342.2 318.2 292.1 276.1 260.4 247.4 238.4 232.6 221.2 222.9 227 230.6 252.2 279.7 310 336.2 358.3 377.6 398.2 417.4 462.9 487.4 506.8 521.1 527 541.6 551.5 576.3 575.5 569.5 544.5 518.5 497.3 483.4 472.1 457.7 446 436.6 420.5 413 401.6 391.5 372.4 363.2 375.2 397.5 417.1 439.9 463 483.6 508.5 535.3 560.4 581.2 597 613.7 635.7 656.7 674.2 682.2 695.4 721 742.1 746.1 722.1 677.8 657.4 635.1 623.5 598.7 577.7 573.1 559 547.7 526.3 502.7 484.3 471.1 463.6 444.1 420.5 412.1 405.6 409.4 397.9 368 343.6 314.4 297.9 302.3 299.3 294.2 252.6 238.7 243.2 246.1 237.5 228.7 235.2 252.9 280.3 306.4 334.7 370.4 413.3 430.8 449.7 462.7 485.8 508 512.2 549.9 553.9 563 583.7
586.4 596.8 602 609.6 613.6 621.5 629.6 636.5 646.9 653.5 661.8 671.2 676.5 682.6 686.5 693 705 710.1 712.5 717.4 725.7 730.5 737.6 742.4 743.2 745.7 754.2 762.9 765.7 766.5 767.3 768.4 767.4 766 766.3 763.4 757 756.1 752.2 729.9 724.3 724.4 711.4 720.3 724.2 724.1 729.7 728.4 726.1 725.2 731.6 740.7 745.8 753.1 758.6 775.2 782.9 790.7 796.2 803 811.7 815.1 785.8 747.9 703.8 668.8 627.1 613.1 594.4 580.2 566.4 558.6 552.7 545 537.5 527.6 516.1 517.2 513.8 489.8 467.4 455.9 415.7 377.2 350.5 326.9 302.7 285.1 263 253.6 240.8 228.7 220.9 218.1 224.9 230.2 242.4 264.9 296.5 326.6 358.2 373.7 392.3 412.2 444.3 484.5 501.6 522.9 536.6 541.3 556 573.3 591 589.3 581.5 557.6 523.2 503.3 489.8 479 464 451.4 440.5 428 419.5 410.9 398.7 383.3 367.7 374.4 393.2 416.3 438.6 462.6 488.9 513.5 538.8 564.1 582 596.3 620.7 639.7 657.8 678.2 685.8 698.5 719.8 738 742.4 728.3 681.3 659.6 645 618.7 605.5 591.7 581.3 569.3 556.6 539.8 518.4 498.9 486.5 475.8 464.9 444.7 447.1 439.2 424.5 399.8 396.7 373.7 329.3 300.9 304.4 300.8 307.8 261.8 245 236.6 244.9 237.8 225.2 229.2 242.3 264.9 281.4 311.7 341.5 371.6 403.6 414.5 432 450 462.6 479.7 493.1 522 540.5 552.1
590.3 601.3 611.8 617.2 622.9 629.6 636.8 645.8 655.8 667.3 677.2 684.8 692.6 700.7 704 710 723 731 734.1 737.9 743.3 749.4 752.8 755.9 759 761 764.3 776 777.7 783.3 783.1 780.6 781 781 787.5 777.7 762.9 751.9 736.2 727.8 712.6 707.4 714.7 728.3 725.8 734.8 741.1 746.6 744.7 745.7 747.4 741.4 750.6 767.3 765 762.9 786.7 802 789.1 790.3 803.5 778.9 773 743.6 705.6 670.7 635.7 606.4 589.1 574.3 569.4 557 549.1 537.5 532.2 520.2 507.9 497 493.2 476 446.7 421 393.2 363.2 332 312 288.7 264 254.5 242.5 235 224.2 217.1 219.8 223.7 235.6 254.3 283.1 307.8 350.2 374.5 390.2 410.8 427.4 464.4 510.5 523.1 533.1 543.1 554.4 566.4 595 605 597.2 591.5 550.8 524.5 510.1 494.6 480.3 467.2 455.9 444.8 434.1 421.5 414 404.4 391.2 375.5 386.3 395.2 420.3 442.6 465.4 489.9 513.7 543.9 564.9 583.2 598.8 628 643.3 661.2 678.9 699.7 704.4 716.1 736 741.3 713.6 693.5 667.6 653.8 642.8 629.1 606.1 591.8 578.4 573.1 553.3 526.1 517.1 507 498.8 485.9 476.7 463.5 438.8 409.7 392.3 395.5 382.8 350.1 310.7 297.4 294.9 293.1 272.2 252.6 239.1 237.4 235.5 221.9 219.4 232.2 246.1 269.5 288.2 311 339.3 375 393.6 404.9 427.7 437.1 451.4 464.6 493.4 511.7 534.4
