ncols 200
nrows 84
xllcorner 240000
yllcorner 692400
cellsize 50
421.7 417.6 415.2 412.7 408.8 412.5 416.5 416.8 415.6 411.7 414 416.8 419.1 420.2 423.6 428.8 435.3 441.4 447 448.4 451.6 452.3 459.8 460.8 455.8 459.9 476.9 497.8 507.3 515 517.3 512.7 512.6 525.3 546.7 561.2 563.4 561.5 555.8 555.5 555.1 558.8 556.3 549.5 548 546.8 546.2 540.5 543.8 540.4 530.5 531.2 539.2 534.9 522.3 499.1 486.5 480.9 472.6 470 479.3 485.4 488.4 477.4 467.2 459.5 451.2 442.2 440.6 443.1 448.3 447.4 448.3 447.7 448.3 446.4 439.4 433 433.3 432.3 436.7 428.1 419.1 414.8 407.5 398.2 382.2 363.4 343.1 333 323.7 310.4 297.4 293.7 289.9 286.6 284.3 281.8 274 284.2 289.1 290.1 287.3 282.3 273.1 262.3 252.5 240.3 224 217.6 214.8 211 207.7 204.1 200.8 195.9 191.9 189.2 186.8 184 180 177.2 174.2 172 172.2 175 176 177.2 178.1 178 176.1 172.4 169.5 170.7 174.7 176.9 175.6 173.2 171.1 166.5 161.7 158.4 155.4 152.3 148.1 147.4 147.2 147.7 149.8 155.5 160.2 165.2 168.6 170.9 173.6 163.9 160.6 157.3 154 149 142.8 144 145.2 148 150.6 145 142.4 140 138.4 135.7 134.2 130.4 128.6 126.9 123.1 118.4 119.7 120.9 120.1 117.8 115.7 116 120.9 124.2 127 125.8 123.7 120.4 115.2 110.2 104.5 96.4 89.1 92.4 91.9 92.9 95.3 98.1 99.3 101.2
420.9 417.5 413.7 411.1 408.1 408.5 412.5 412.1 408.1 407.9 413.7 417.3 417.4 417.9 418.9 423.6 432.2 437.5 440.3 442.7 443.8 446.8 451.4 451 449.2 456.8 472.2 488.8 498.4 505.5 511.4 505.4 519.1 534.1 566.9 572 563 550.2 553.3 563.2 566.5 565.3 562.2 552.7 552.1 550.4 547.3 545.7 547.1 541.5 528.4 530.9 536.1 527.2 512.9 497.7 489.6 481.2 479.3 482.1 488.9 487.6 485.1 475.4 472.4 468 460.1 457.1 456.4 455.8 454.1 453.8 453.5 451.6 444.7 441.8 444.1 444.8 453.4 449.2 445.3 431.9 421.3 415.3 401.6 388.5 377.1 354.4 342.4 333.9 319.2 314.7 314.9 310.4 299.2 295.1 292.6 290.8 287.3 290.7 294.9 295.3 292.7 286.4 277.5 265.8 251.8 242.2 227 219.8 213.3 209.2 207.8 207.2 204.9 201.8 198 195.7 191.6 186.2 180.1 176.5 173.8 174.3 178.3 181.1 181.4 180.1 181.3 179.3 176.2 174.1 176.1 180.1 183.9 182.5 181 177.2 172.7 166.1 161.2 159.9 157.6 151.7 148.3 147.4 146.9 146.5 149.9 152.5 154.5 159.3 161.2 162.6 161.4 157.8 155.3 152.9 149.9 145.2 141.4 139.9 143.3 146.1 142.6 140.3 138.2 136.4 132.8 131.3 129.1 125.7 121 118.8 114.5 115.3 115.4 115.8 115.5 114.3 114.8 119.2 124.1 126.8 128.8 125.6 120.2 116.6 110.7 101.8 96.5 92.2 92.1 96.7 95.7 99.2 101.4 102.4 103 106.3
422.6 417.2 413.5 409.7 405.6 405.4 406.7 406.5 408.8 413.2 416.2 416.5 416.2 416.2 415.9 419.4 425.6 436.5 435.7 434.2 437.5 440.5 439.7 440.4 442.4 452 467.3 482.4 491.6 500.6 505.1 509.3 521.2 538.5 555.8 557.6 545.8 540.3 560.7 570.8 571.4 573.7 568.1 558.1 557.9 556.2 557.3 550.4 544.2 536.9 525.2 531 525.4 515 508.6 495.5 485.8 482.4 488.7 502.8 497.1 488.8 485.4 483.1 477.4 477.5 477.5 474.6 466.8 467.2 462.4 463.2 462.2 453.3 456.4 458.5 460.8 466.1 461.3 451.9 445 429.9 418.8 411.5 403.4 389.3 372.2 358.2 347.7 330 332.1 333.7 329.5 322.4 310.2 302.8 299.4 298.1 295.5 296.5 299.5 299.4 294.5 288 279.1 267.2 249.5 235.6 226.1 220.9 214.7 214.3 213.1 212.2 207.3 204.4 201.5 197.7 194.6 186 180.7 177.3 177.3 177.6 180.9 183.6 184.5 183.3 183.8 185.5 187.1 184.3 188.3 191.1 188.3 187 183.4 177.9 171.5 164.2 159.8 157.2 153.2 150.2 148.4 147.5 147.1 147.5 146.9 147.8 148.7 148.9 150.7 151.5 150.2 149.3 148.6 146.7 144 140.7 138.6 137.5 135.7 136.4 134.8 133.4 131.8 129.8 125.1 124.1 120.8 116.3 113 112.8 112.6 115.8 113 112.4 114.3 114.5 117.4 122.4 126.1 126.1 125 121.6 117 113 105.2 95.3 91.3 95.9 97 99.6 104.8 105.1 106 107.7 112.3 117.9
423.6 417 413 409 405 400.4 401.2 399.7 408.5 412.9 414.7 414.7 414.5 414.2 413.2 414.4 418.3 423.8 426.3 427.5 426.8 430.6 431.8 428.9 438.3 453.3 464.6 476.3 484.5 493.4 495.5 503.1 515.2 530.7 536.4 537.6 533.8 539.5 561 562.3 568 575.9 573.6 557.9 560.5 558.1 557.6 552.3 540.2 528.4 524.5 524.1 516.2 515 509.2 496.9 488.7 491 497.6 506.9 494.4 500.6 496.9 485.9 493.7 497.4 490.5 485.4 481.1 476.4 473.3 468.9 465.8 464.3 464.2 469.2 468.9 465.2 459.5 451.2 443.7 426.3 415.3 409 405.7 388 370.3 359.8 343.4 346.4 349.8 351.2 341.8 332.1 319.2 314 316 310.7 305.7 300.6 301.7 302.2 296.5 289.4 280.3 268.4 250.7 237.9 228.5 221.5 219.2 220.5 219 216.3 210.3 205.3 200 195.7 191.8 186.3 181.1 182.2 184.1 185.3 185.4 188 189 190.2 191 193.5 197.2 200.9 200.1 199.5 194.7 189.7 183 176.4 170.1 163.8 159.2 157.3 157.8 159.8 155.5 154.5 160.1 148.8 139.4 139.8 141.9 142.9 144 145.4 145.2 143.1 143.1 142.8 140.9 138.1 134.9 132.6 129.9 130.2 127.2 124.9 123.5 119.9 117.2 115.3 112.5 109.8 108.9 110.4 112.7 113.5 111.4 111.1 113.8 117.2 120.7 124.4 123.6 122.8 120.6 118 115 108.2 98.8 93.1 96.6 98.5 101.7 107.9 112.1 113.6 113.3 118.7 122.8 127.5
422.3 418.6 412.4 408.4 404.7 401.5 397 401 405.8 412.1 413 412.5 411.8 411 409.3 408 409.7 414 419 422.9 418.8 421.6 419.8 426.2 439.3 453.2 464.7 470.1 477.9 480.9 490.7 499.2 510.5 522.3 528 528.5 528.4 539.5 553 555.8 559.1 568 568.1 556.1 554.9 553.2 552.7 544.6 530.6 524.5 520.3 515.5 513.9 511.9 514.9 501.8 497.6 500.5 502.6 500.5 510.5 509.4 494 496.3 503 500.2 495.3 497.1 493.1 494.6 485.1 478.7 471 468.6 478 478.5 471.9 463.2 453.5 444.6 436 421.4 417.2 409.8 397.8 380 366 355.1 362.1 365.7 369.8 359.5 350 339.8 325.7 325 327.2 323.2 314.6 306.1 305.8 304.1 298.7 290.8 280.9 269.4 257.8 245.8 235.9 227.1 225.4 226.7 225.7 221.2 214.3 206.7 202.9 198.1 198.7 189.9 189.1 192.1 194.8 195.8 196.4 197.9 198.3 197.4 201.2 205.6 207.6 207.9 210.6 204.2 197.8 191.3 184.2 177.1 169.8 163.7 164.2 164.6 165.2 166.7 168.4 185 183.1 165.3 149.1 139.5 137.9 140.3 140.4 140.4 140.6 140.7 139.7 139.4 137.9 136.1 131.7 126.7 127.7 127.9 127.1 124.4 118 115.1 113 110.6 108.8 108.6 107.7 110.1 112.3 111.5 111 112.6 116.5 119.8 122.8 123 122 119.6 116.6 117 113.7 105.6 96.3 95.4 99.6 102.4 106.1 114 117.6 121.6 123.1 128.5 130.7 131.9
423.4 420 414.2 407.9 404.7 402.8 400.1 398.2 404 407.4 410.6 411.1 409.4 406.6 403.9 401.5 403.7 413.9 422.1 422.1 412.9 414.6 417.5 427.5 442.6 453.3 459.8 461.2 470.4 477.3 485.6 492 504 512.2 517.6 520.4 530.1 537.6 542.5 548.9 551.6 554.7 554.6 552 552.9 547.7 540.4 528 525.1 519.7 516.4 516.4 515.1 516.7 516.7 514.4 520.7 514.1 502.2 498.3 507.1 503.2 492.2 492.9 494.7 495.4 504.7 511 509.5 506 492.2 483.9 474.9 468.7 475.2 471.9 464.9 452 440.1 428.6 417.1 415 407.4 395.2 380.8 375.1 372.4 371.2 375.3 379.1 376.6 368.9 358.6 345.9 330.5 336.1 343.7 334.4 321.4 312.9 308.7 304.1 299.8 291.3 279.9 268.9 259 246.1 237.9 234.4 231.5 232.5 232 227.1 224.6 220.6 211.8 210.5 204.5 197.3 199.2 203.3 205.9 205.5 206.3 208.5 207.6 204.5 209.1 213.7 216.2 216.2 212.3 205.9 197.7 188.3 181.4 174.4 168.8 165.3 166.2 170.1 170.9 173.7 194.4 202 192 167.1 154.3 150.2 138.4 136.1 138.4 138.1 136.9 135.1 135.2 134.4 132.3 131.9 129.8 125.4 123.6 123.5 123.3 122 117.6 116.7 114.4 110.1 108.2 108 108.1 111.9 112.2 111 112.5 116.7 120.4 123.4 124.4 121.6 119 116.2 115.8 114.9 111 103 99.5 100.6 104 108.3 108.5 115.6 121 125.5 131.9 135.7 135.8 129.7
422.9 421 414 408.7 404.9 402.5 398.9 394 399.2 404 405.4 408.7 406.5 401.9 396.4 394.9 401 410.9 418.2 417.4 405.9 404.2 419.7 428 440.3 446.2 459.1 467.4 463.6 476.6 483.8 490.4 497.6 508.2 513.5 515.9 520.7 527.5 533.4 540.7 543 541.4 550.3 550.8 547.3 539.5 523.4 517.2 510.7 514.6 515.7 515.5 517.9 517.2 520.6 529.7 527 515.2 500.1 497.6 500 494.6 492.6 494.6 494.7 498 504.8 506.1 504.7 502.7 494.2 484.8 475.2 467.9 462.6 459.9 453.9 437 423.2 421.4 412.6 407.2 394.6 393.9 391 388.7 386.8 387.3 388.3 386.2 380.6 376.8 368.1 353.8 340.3 344.1 353.1 348.1 330.6 317.1 309 303.2 298.5 289.6 275.9 264.9 256.7 248.4 244 240.1 236.6 238.1 238 236.4 229.5 229.5 226.3 223.9 216.9 208.6 212.1 214 214.7 215.6 216.3 215 213.5 216.6 217.5 220.8 221.3 218.1 212.2 205.2 196.6 185.3 173.7 167.2 165.7 163.6 165.9 172.8 174 189.8 205.4 194.6 176.6 167.2 159.8 153.6 144.5 135.1 134.7 136.9 135.4 131.6 127.6 126 125.6 126.3 124.7 123.4 121.4 119.1 118.6 117.3 115.8 114 112.2 109.9 109.4 108.5 107.4 109.3 109.1 111.5 115 118.1 122.9 125.2 124.2 121 116.5 114.5 113.5 111.1 105.8 99.2 102.4 105.2 110.4 111.8 111.2 114.1 122.1 129.7 137.1 139.7 135 127.8
422.2 420.2 413.2 410.1 407.2 401.2 397 393.7 393.6 398.4 401.5 403 402.4 398.9 393.6 391.2 398.3 403.1 407.6 407.8 396.9 400.6 420.6 428.2 443.9 464 464.5 462.3 458.5 480.1 482.7 482.9 491 502.1 507.8 507.9 512 517.9 521.8 524.8 525.7 537.2 540.6 542.6 536.8 524 515.8 509.1 512.5 515.8 518.9 513.4 515.8 520.1 532 530.8 524.1 510.6 498.5 497.2 495.6 492.5 495 499.1 506.4 508 508.6 505.3 501.4 502.4 493.8 483.9 472.3 463.7 452.7 447.2 435.1 428.7 423.2 420.1 411.9 412.9 412 407.6 403.3 401.8 402 400.9 401.1 398.8 390 381.8 372.9 360 348.7 347.9 354.1 347.1 330 319.3 310.8 303 296 287.7 274.6 266.8 264 258.2 251.9 246.5 244.6 247.7 244.4 233.8 239.3 238.9 236.8 228.6 220 221.2 222.7 222.6 221.5 222.4 224.5 228.3 226.3 227.2 227 225.5 222.1 217.1 210.6 202 193.2 183.9 171.2 163.8 162.8 163.4 165.8 172.2 181.8 184.7 175.9 172.8 173.2 162.9 158.5 155.9 148.3 137.8 131.3 133.1 132.3 127.6 121.3 120.3 119.1 119.3 117.7 117.3 118.2 117.5 116 115 114 111.6 110.4 108.6 107.7 108.2 106.5 106.8 108.3 110.4 112.9 117.4 121.6 123.5 121.9 117.6 112.8 109.8 109 105 99.8 98.3 103.4 107.5 111.7 113.1 117.1 120.5 127.6 132.9 138.8 136.5 130 121.8
418.2 418 414 414.4 412.6 407.2 401.7 393.1 383 393.1 394.1 396.6 398.6 398.5 393.8 388.7 390 395 397.7 395.9 387.9 400.1 415.3 417.1 441.5 456 451.3 446.8 465.1 474.9 471.7 480.7 484.6 489.9 496 496.2 502.9 510 510.3 516 522.8 535.7 534.4 525.3 523.4 515.6 515.3 502.6 512.9 511.8 510.1 507.1 512 524.1 540.4 532 521.3 506.1 499.9 497.5 496.4 499.6 507.4 508.4 511.2 511 510.3 502.7 499.8 495 486.7 475 466.9 453.6 442.8 438.9 437.2 438.4 432.2 427 417.9 424.4 424.6 421.8 417.3 413.5 412.1 409.8 407.6 403.8 396.7 387 377 366 356 359.3 353.4 346.9 330.7 321 309.4 300.8 293.7 284.6 281.4 277.6 272.6 267.3 261 255.8 251.8 253.3 246.7 238.9 241.2 240.1 237.4 231.4 229.3 232 231.8 230.1 229.2 231.8 234.5 235.4 235.4 233.6 228.9 225 220 213.4 206.5 198.5 190.5 180.5 168.2 161.7 162 162.3 170.3 183.6 183.2 169.4 167.6 162.4 158.8 156.1 155.5 152.8 147.4 144 131.9 128.7 128 126.3 124.9 124.3 123.6 122.8 121.3 117.5 115.7 115.5 114.9 114.9 114.3 110.1 110.6 108.9 108.3 107.8 107 106.1 106.3 107.1 110.8 114.5 118.4 119.8 118.1 114.4 109.7 106.7 101.7 97.6 94.6 98.4 102.9 106.9 110.7 117 122.9 128.9 134.2 136.7 135.6 130 122.7 117.5
413 417.1 414.1 416.5 415.4 409.7 402.8 395.8 390.7 380.3 387.5 393.1 397.9 399.4 395.9 389.1 386.5 387.7 388.3 384.9 385.7 393.2 410.8 427.7 437.2 444.2 432.4 446.2 458.1 461 462.5 470.9 478.7 482.1 481.7 487.5 495.5 500.4 503.9 509.5 526.9 531.7 525 515.6 520.4 509.5 496.5 489.8 500.8 501.1 496.5 498.8 509.8 531 536.3 531.4 520.1 504.6 499.9 497.8 503.3 511.8 507.4 505 506 508.7 506.4 501 492.8 485.7 480.2 468.1 457 449.4 449.7 442.1 438.9 434.8 430.4 427.3 429.8 435.7 436.5 435.1 430.2 423.8 419.3 414.9 410.5 407.3 401.8 391.3 380.3 370.6 361 361.3 351.7 342.7 330.1 320.3 308.9 298.7 293.6 289.7 287.9 284.2 279 273.1 266.8 261.4 256.4 260.3 248 245.7 245.6 244.3 242.9 238.2 239.6 240.7 240.1 238.7 237.7 239.8 241.2 242 239.8 235.9 229 222.1 214.1 207.1 201.6 195.2 185.7 174.8 163.3 162.4 162.4 164.5 181.4 169.6 165.2 161.6 160.2 154.4 150.2 151.9 153 149.2 144.3 139.7 135.2 131.4 127.6 126.9 125.8 125.6 125.8 125.4 123.8 121.3 118.1 115 114.1 113.5 112.1 115 114.8 112 108.6 107.1 106.4 106.5 106.3 106.6 107 110.5 113.9 115.4 111.7 110 104.5 99.3 95 92.6 97.8 101.7 105.4 106.4 112.4 119.5 129.2 134.5 136.9 135.5 130.4 123.4 117.4 111.6
409.9 408.9 415.6 418.7 416.9 413.4 404.5 397.1 391.1 383.8 377.5 384.3 391.2 394 392 386.3 382.8 382.3 383.2 381.8 390.8 393.8 413.8 425.8 426.6 428.9 423.2 432.7 443.1 444.2 452.8 459.2 467.4 470.1 467.8 477.5 489 491 495.4 505.8 519.7 519.7 523.8 512.6 510.9 494 471.7 483.5 489.5 485 480.4 494.4 511.8 521.4 523.1 523.8 522.2 504.1 500.9 501.3 505.8 507 503.9 500.4 499 496 493.3 489.9 480.3 472.4 464.6 461.5 458.2 451.6 445.7 441.4 441.1 438.5 439.8 441.8 445.9 448.6 448.2 445 438.5 431.9 425.2 417.6 412.5 409.7 404.9 396.7 385.6 376.8 366.5 359 351.4 346.3 328.2 318.3 308.9 302.1 299.1 295.2 292 287.7 283.2 276.6 271.3 264.6 260.9 259 251.3 252.8 252.3 251.2 248.2 246.3 247.6 248.1 247.6 246.1 244.6 245.4 245.3 244.9 240.9 235.9 226.9 218.5 209.9 202.3 196.1 189.1 178.6 167 162.5 162.4 162.8 178.5 167.1 157.7 154 150.7 149.7 146 146.3 148.9 148.7 145.4 141.2 135.8 130.5 129.7 126.2 121.1 121.6 122.8 122.8 122.5 121.9 120.9 119.9 118 116.6 117.7 118.1 119.3 119.8 117.1 113.2 109.3 108.7 108.4 108.7 107.3 104.4 104.1 107.9 108.8 108.2 105.2 98.5 95.1 91 94 99.3 105.8 108.2 110.6 116.4 125.2 134.7 134.5 133.3 129.6 122.3 116.3 113.8 109.9
401 407.7 418 418.9 415.7 413.4 406.7 398.5 391.1 386.1 376.5 377.5 380.8 385.5 385.2 383.2 379.8 376.7 374.2 378.8 385.8 391.6 408.1 420.7 411.8 415.5 415.1 416.9 426.7 431.1 441.2 447.1 449.6 447.7 454.6 462.4 475.3 482 489.3 498.8 503.4 511.3 511.8 502.4 485.9 460.4 454.2 471.2 473.2 464.6 475.8 501.4 505.9 509.5 518.5 523.1 516.1 502 504.8 509 508.3 503 501.3 497.7 489.4 484.1 479.2 476.5 474.3 476.2 473.7 467.7 460.7 453.7 449.9 451.8 455.5 456.2 458.9 460.5 461.7 458.8 458.8 451.4 444.7 438 430.6 422.7 415.5 412.6 407.4 402.2 389.9 383.2 370.1 356.6 349.7 341.2 328.9 322.2 314 307.8 301.6 298 293.6 288.6 283 277 274.6 268.1 264.2 260.7 259 259.8 258.9 256.4 253.7 252.3 253.4 252.5 252.1 251 249.8 250 248.4 244.9 239.4 232.7 224.6 217.6 209 199.3 188.6 180.6 168.6 162.6 162.4 162.4 165.9 164.1 154.7 149.7 147 144.1 143.4 142 144.7 144 144.7 142.2 137.2 128.6 121.9 119.5 119.2 116.1 115.3 115.3 115.7 116.2 115.1 115.1 118.5 118.2 116.9 117.5 119.2 121.9 122.4 120 115.5 110.5 113.1 111.6 109.9 108.3 106.9 104.8 101.9 101.6 100.5 97.5 92.3 90.2 90.7 93.7 99.7 104.7 110.4 114.5 121.1 126.9 131.6 129 123.6 120.6 115.7 110.6 110.3 108.4
397.2 407.4 413.9 413.1 412.5 411.6 407.4 400.5 391.5 386.7 382.6 373.2 376.7 378.1 379.3 379.1 377 374.5 372.5 377.3 379.1 385 398.7 407.2 402.9 404.1 404.2 407.5 412.8 419.9 431 434.2 435.2 432.3 441.7 438 462.7 471.7 474.1 487.1 487.5 500.5 495.5 478.4 453.4 439.6 440.8 445.5 444.6 454.4 477.8 491.7 495.3 509.1 513.5 512.2 503.1 498.5 505.8 504.9 502.1 500.1 498.3 493.1 485.8 485.7 485.2 480.6 480.2 483.2 482.8 476.2 466.4 459.6 463.1 463.9 470.8 472 474.1 473.4 472.9 466.6 462.7 454.7 448.1 442.4 434.6 426.4 419.2 412.5 404.7 396.2 387.6 379.7 370.2 361.3 351.6 341.1 332.8 326.3 317.3 311.5 304.9 297.6 291.8 288.7 284.6 281.8 277.8 271 266.7 265.8 265.9 264.1 263.5 258.6 256.6 256.5 256.9 255.9 255.6 256.4 254.4 251.3 247.2 241.4 235.3 228.9 222.1 213.8 204.5 195 183.8 173.3 165.7 162 162.3 162.4 161.7 152.7 147.7 146.3 145.5 146.3 145.8 142.6 136.7 138.6 139.4 137.9 131.6 123.2 119.9 117.6 116 115.3 114.9 114.2 113.9 113.1 113.1 113.2 114.8 117.5 115.6 113.5 117.5 120.7 121.4 119.6 115.2 113.1 113.1 113 112.3 109.6 106.2 103.7 100.3 92.2 90.5 89.2 89 89.6 91.7 94.9 100.1 106.8 110.5 116.7 122.3 126.3 127.1 119.9 116.7 113.8 109.2 106 106.7 104.6
394.2 400.4 406 407.2 411.6 408.5 404.5 396.5 390.8 386.6 382.8 379.3 370.4 372.6 373.8 374.6 373.7 371.7 368.7 371 372.6 381.4 390.1 394.9 394 392.4 394.7 397 400.3 409.4 420.9 421 419.5 419.5 425.9 421.2 444.5 455.3 459.8 471.3 472.3 478 471.6 450.9 433.6 422.1 421 420.7 428.5 445 465.4 478.9 492.7 501.1 501.5 496.2 490.5 501.2 502.6 501.3 499.3 501.9 500.8 492.8 488.8 488.7 489.4 492.1 491.9 488.7 484.9 477.6 470.5 471.7 476.9 480.8 486 486.7 485.4 481.6 479.7 470.8 466 457.3 450 444.5 437.5 429 419.8 412.2 401.8 390.8 386.2 383.5 375.6 364.3 355.7 344.9 333.1 326.8 320.4 311.4 303.9 301.5 300.1 294.7 290.9 286.9 280.1 275.3 271.8 270.5 269.1 265.3 262.1 262.5 262.3 262.4 259.6 257.4 256.5 256.4 251.6 247.5 242.3 236.6 230 223.2 215.6 207.5 198.7 187.6 176.3 167.7 164.2 163.4 163.1 161.6 153.3 148.8 148.7 149.4 148.9 148.1 145.3 141 135.1 130.8 133.1 132.1 128 123.5 120.6 121.5 120.2 119.1 116.6 114.6 114.1 112 112 112.4 113.3 115.1 113.6 110 110.2 115.8 116.2 115 112.4 112.1 111.8 112.6 113.8 108.6 104.2 101.9 96.8 91.2 89.9 90.6 89.8 89.3 92.6 95.5 99.4 107 113.4 117.1 121.6 121.8 117.5 112.5 108.7 105.9 103.6 104.5 104.5 103.2
388.7 392 399.3 408.7 416.4 408.1 400.7 394.1 389.7 384.4 381.3 379.5 377.5 371.2 368 368.7 369.6 368.5 367.2 364.9 370.1 374.5 378.2 382.9 385 386.1 388 388.6 390.6 390.8 404.4 405.3 404.2 404.2 406.3 404.3 423.8 431.7 441.6 451.8 454.7 455.6 445.1 430.3 419.7 408.6 405.3 407.4 417.6 432.9 456.7 468.7 479.3 486.4 481.7 477.3 482.7 497.9 498.1 497.9 500.4 500.9 498.4 493.8 494.7 500.1 501 497.3 492.3 488 483 475.2 474 481.7 488.6 494.1 495 495.5 490.9 485.2 478.5 471.4 469.5 461 453.1 447 439.5 429.3 418.6 410.8 401 395.5 394.2 384.9 374.8 365.7 357.4 347.1 335.4 326.3 320.2 315.1 310.9 309.8 305.4 301.2 297.2 290.3 282.7 281.8 278.2 275.2 271.6 267 265.9 265.8 265.3 263.2 257.7 253 250.7 249.6 245.2 240.2 235.9 230.5 224.8 217.1 208.6 197.7 188.7 178.3 168.9 165.8 166.1 165.1 163.1 160.3 155.9 152.6 151.3 149.8 148.4 146.3 141.9 137.8 134.5 128.1 126.4 126.5 123 121.9 120.8 121.4 121.4 121.2 121.5 118.5 115.5 112.8 109.5 110.2 110.7 111.5 108.7 106.9 109.7 109.9 107.6 107 107.7 107.4 108.2 108.3 107.9 106.4 103.1 97.1 94.5 91.4 92.9 89.9 89.2 88.8 91.1 93.7 99.7 105.8 111.7 113.8 115.5 111.5 108.7 104.7 102.2 100.2 100.3 101.8 102.8 103.1
373.2 382.4 392.8 403.1 406.6 401 398.7 391.8 385.3 382.4 380.3 378.9 377.8 374.3 369.6 368.2 361.3 366.4 365.5 362.9 364.7 370.6 371.6 374.7 377.5 379.8 381.9 382.6 385.2 384.2 388.8 391.1 390.2 389.7 389.6 390 396.1 413.8 425.8 431.2 434.5 429.4 421.6 411.3 406.6 396.2 396.5 406.7 416.2 434.3 450.3 461.9 461.5 463 462.4 468.6 477.9 493.7 490.3 493 499 497.3 501.7 505.5 506.1 505.6 502.3 497.8 491.7 486.3 482.2 481.9 487.4 494.3 498.6 498.6 501.5 497.4 490.5 483.9 476.8 471.2 464.6 458.7 450 443.7 438.9 428.9 417.9 408.6 403.8 403.1 397.1 388.1 376.3 366.7 358.9 350.6 339.9 328.1 324.8 321.2 317.3 316.6 313.2 309.7 302.6 296 291.1 289.5 286 281.8 273.3 272.4 275 269.3 266.4 263.1 256.6 248.4 245.2 243 238.4 232.8 229.6 224.6 218.1 209.4 199.8 187.1 178.1 171.8 168.7 167.7 166.9 165.4 160.4 157.5 156 151.5 149.3 147.1 145.4 142 138.4 136.7 135.6 131.7 126.9 123.7 122.4 122.6 123.1 123.3 123.8 124 124.8 123.3 119.6 116.6 113.1 110 109.3 107.2 104.3 103.4 104.5 102.9 100.2 99 101.7 104.5 104.5 102.9 102.3 98.6 94.2 92.6 91.8 90.9 91.2 90.5 89.6 88.3 91.1 95.5 100.2 103.8 105.4 106.7 104.9 102.2 99.6 97.7 97 100.4 101.4 99.4 101.7 103.2
362.3 369.9 379.7 397 391 392.9 396.3 388.1 379.1 379.1 379.2 378.4 378.2 375.9 372.5 369.7 363.6 357.9 360.8 358.8 362.4 363.1 366.1 368 371.2 372.4 374.7 375.7 378.9 377 374.9 379 381.2 380.7 378.9 381 384.2 406.5 412.5 413.2 411.6 406 401.1 402 399.5 389.9 393.2 401.8 420.2 434.4 445.7 452.2 451.8 449.2 452.4 463.7 478.6 485.1 487.5 489.5 497.8 508.9 514 507.9 505.2 502.7 500.5 492.2 484.8 482.6 488 493.8 498.1 500.3 502.1 500.4 496.8 494.1 486.7 481.2 476.8 467.5 458.4 451.4 446.9 442.5 438.1 433.4 420.3 416.1 410.8 407.8 399 390.1 378.6 366.6 358.6 348.1 339.9 334.1 330.5 326.1 324.4 322.8 319.2 313.5 308.1 304.9 301.7 298.9 294.8 288.1 284.1 281.5 276 270.1 266 262.6 256.7 249.9 243.1 238.1 231.6 228.5 224.5 218.3 210.2 201.6 190.9 178.9 169.8 166.1 166.1 164.7 166.4 164.5 156.3 160 153.2 151.6 153.9 151.2 145.9 141.5 138.2 135.6 133.8 134.2 132.7 129.7 127.5 126.5 126.8 126.9 126.7 124.3 124.4 125.2 123.2 118.5 114.5 111.1 109.4 104.3 102.4 99.8 97.9 97.3 96.7 96.2 98.5 102.4 99 98.7 94.4 93.3 92.2 91.5 90.8 90.9 92.2 90 89.1 88.1 91 95 98.7 100.5 101.9 97.5 96 96.7 96.4 93 97.2 101.5 101.9 102.7 101.9 101.9
345.8 363 368.7 372.8 380.5 389.1 390 380.1 375.8 376 376.3 377.7 378.6 377.6 374.9 371 367.3 363.9 353.8 354.1 354.3 357.6 360.6 363.1 365.4 365.6 367.5 368.3 372.5 371.7 370.1 369.7 375.4 374.2 373.1 370.9 375.5 391.3 394.9 396 395.2 389.6 391.6 393.3 392.2 387.7 387.8 401.9 416.4 429 440.1 439.7 441.2 439.7 449.8 458.1 465.7 477.4 489 495.5 507.6 505.2 502.8 500.7 498.4 493.5 487.2 481.1 478.8 488.8 500 503.3 504.3 501.1 501.9 497.8 494.1 489.5 482.8 477.4 470.2 462.8 457.3 450.2 452 451.5 444.4 433.4 421.9 419 412.9 407.9 399.7 394.5 382.8 372 361.6 352.9 346.7 341.1 336 332.3 330.8 327.6 322.3 318.4 315.5 313.3 311 307.2 301.3 296.6 290.7 283.9 277.4 272.8 269 265 259.6 251.6 242 233.7 225.8 223.1 218.1 211.6 202.3 193.7 182.3 172.8 168.1 166.4 163.3 161.4 159.9 158.9 163 162.1 159 156.9 154.2 151.5 148 145.8 142.6 137.5 134.8 131.9 131.8 128.9 128.5 129 129.4 129.4 128.7 126.7 126 125.8 125 122.7 118.7 112.8 109 108.1 105.5 101.7 98 97.3 96.5 95.2 96.4 98.6 93.9 92.9 92.6 93.4 96.3 91.6 91.8 91.1 90.5 90 89.2 88.5 88.2 91.5 97.8 100.8 95 91.3 89.4 91.8 93.2 91.7 97.3 99.1 101.2 103.2 103.4 104.8
332.1 346.2 352.6 357.2 362.7 373.2 376.6 369.4 370.2 371.5 373.9 377.4 381 381.9 378.5 374.6 369.1 361.9 357.4 355.9 348.2 352 355.3 357.6 359.9 361 362.4 363.3 364.1 366.3 365.3 364.7 368.1 366.7 366.9 361.5 366.9 371.4 378.5 380.6 379.8 379.3 382.9 386.1 386.4 382.2 385.4 398.4 415.1 423.4 425.2 425.4 424.3 427.2 439.3 446.4 466 475.8 483.3 489.9 495.2 495 493.3 492.3 488.5 481.4 472 471.7 478.8 489.3 498.1 503.3 501.6 499.3 493.7 492.8 493.4 485.5 476.4 469.4 461.9 458.6 456.2 455.7 454.3 451.3 445.2 431.9 422.1 416.4 411.7 407.5 409.2 401.5 385.9 373.8 363.4 355.7 350.1 344.8 341 338.9 334.3 330 326 324.5 322.1 319.8 316.8 313.6 307.8 300.5 295.2 289.6 287.1 283.2 277.6 270.4 263 254 241.9 234.4 226.1 216.7 211.2 204.7 197.1 187.3 179.1 172.2 170.3 169.4 164.4 162.8 162.1 165 167.4 165.5 160.3 158 156.3 154 152.6 150.3 147.5 143.1 137.7 133.1 131.7 131.1 131.4 131.1 130.7 131 130.2 127.7 124.8 127.2 127.3 122.8 118.3 112.1 108.7 107.6 106.9 103.5 98.3 97.1 96.7 99.8 100.3 97.7 96.4 96.8 97 95.1 93.7 93.9 92.5 92.1 91.2 89.8 89 88 88.4 90 97.9 100.3 93.8 88.1 88.3 91 90.4 92.1 95.1 97.6 98.1 98.5 101.8 104.5
319.8 325.4 338.8 346.5 348.7 350.7 356 358.5 363 368.8 372.5 376.8 381.2 383.2 382.9 376.7 374.6 375.5 368.5 361.8 351.2 349.7 351.8 353 353.7 355.2 354.7 357.2 358.2 358 358.1 360.4 359.7 359.8 356.9 355.2 353.8 355.6 358.3 365.2 369.1 373.3 373.9 376.7 377.2 373.5 385.7 400.1 406.8 411 410.4 408.7 407.9 416.5 428.1 443.6 459.7 469.3 471.7 480.4 485.2 484.1 480.1 474.5 470.4 463.3 466 474.9 479.4 486.8 496 499.5 499.6 492.3 483.9 480.7 481.7 475.6 471.7 463.3 458 460 458.5 458.3 452.9 447.2 436.6 428.1 419.6 412 410.6 412.4 412.2 399.1 383.1 371.7 359.5 354.1 349.5 347 345.4 342.1 335.2 333.7 331.9 329.2 327.5 324.9 322.2 318.3 313.4 308.1 303.8 300.1 295.4 289.3 281.9 274.7 265.1 254.9 243.3 236 228.6 219.4 209.3 200.9 192.4 183 175.3 176.1 176 174.6 166.9 164.9 167.5 170.6 172.2 169.9 165.3 161.6 159.1 157.1 155.7 153.5 150.1 146.4 141.7 137.7 135.8 134.4 132.4 132 131.6 130.7 130.1 127.7 124 123.5 121.4 118.4 115.5 111.1 106.7 105.2 105 102.1 98.6 99.4 101 103.6 104 101.4 101.1 100.1 99.9 97.4 96.4 95.9 94.7 94.1 94.2 93.3 92.4 91.9 91.6 87.6 91.8 92.7 89.3 85.3 83.9 87 89.9 89.6 90.9 93.1 95 94.5 96.7 100.8
303.8 318 332.4 333.8 335.1 337.5 344.2 351.3 356.3 362.2 370.3 376.6 380.2 382.6 383.5 381.7 379.5 376.4 370.4 361.8 353.8 343.2 345.4 348 348.8 348.9 344.6 349.9 350.8 351.4 352.8 353.4 351.6 351.6 351.8 348.4 346.3 348.4 349.7 355.2 358.8 363.1 366.4 368.7 367.1 370.4 379.8 385 388.2 391.2 392.7 393.5 398.9 409.4 419.6 437.1 447.7 455.7 460.8 467.7 468.3 469.5 462.3 457.5 455.7 455.8 467.3 474.8 475.9 480.1 489.3 491 485.5 482.3 474.7 475.1 475 470.1 464.4 461.9 461 463 463.6 456.9 450.8 441.1 429.7 424.6 413.3 409.5 407.5 403.4 398.7 387.7 374.5 366.3 357.4 350.8 347.4 349.9 348.2 343.3 339.7 339.3 337.4 334.8 331.3 329 327.1 322.4 318.8 315.3 310.2 304.9 299.4 292.3 284.1 274.8 264 253.3 245 237.2 229.4 220.2 210.5 200.5 193.1 182.9 181.6 181.5 176.9 172.9 170 171 174.9 176.6 175.4 171.3 167.9 164 163.6 163.3 159.8 155.3 150.4 146.3 143.4 141 139 137.2 134.6 132.5 132.1 130.7 129.4 127.6 122.1 117.5 115.4 114 110.9 108.1 105.1 103.7 103 100.9 101.1 104.4 106.5 108.1 106.3 103.4 103.3 102.9 103.2 101.8 99.9 99.5 101.2 100.9 101.1 101.4 101.1 101 99.8 94.9 87.4 84.6 83.1 82.7 82.3 81.8 85.6 89 87.8 88.2 91.7 93.3 95.4 94.4
295.8 308.9 318.1 321 325.1 328.7 334.7 345 358.3 366.2 368.7 371.8 376.7 383.9 386.1 385.2 379.7 374.7 369.3 362.3 352.5 344.6 336.5 339.9 341.7 343.3 341.7 339.4 344.4 345.3 348.2 346.8 345.3 344 342.9 343 342.2 343.5 344.8 349.7 353.4 356.9 358.6 358.9 360.5 365.8 367.2 370 374.4 377.9 378.6 390.2 396.1 406.8 414.8 428.8 436.2 442 449.5 451 454.9 448.4 440.5 444.4 446.2 455.3 465.2 470 471.6 475.7 479.5 481.2 480.5 472.6 468.5 472.4 469.7 462.5 460.8 460.9 464.3 463.1 460.8 452.6 441 431.4 428.6 419 408.9 404 403 398.3 391.3 378.9 367.1 357.7 349.8 348.3 351 352.4 350.1 345.1 344.6 343.5 342.1 338.8 335.1 333.8 331.1 327.5 324.2 320 314.1 306.7 298.6 289.6 280.9 270.4 259 249.1 241.6 236.1 226.1 217 207.7 196.2 188 184 186.8 185.4 184.5 184.6 180 179.6 181.4 181.4 176.4 170.9 167.5 169.5 169.4 167.3 160.6 154.7 150.3 147.1 143.7 141.6 139.6 137.8 135.8 133.7 132.1 130.8 129.4 126.4 120.4 115.4 113.6 113.3 109.9 106.7 104.5 103.9 103.5 103.6 105.3 107 109.7 111.4 108.7 108.9 108.2 106.8 104.2 104.2 104.9 105.8 108.1 109.6 110.8 111.4 111.7 106.8 104.2 101.1 95.7 89.5 82.2 80.8 81.2 80.6 82.3 87 87.6 88.1 90.1 92.1 91.6 90.1
285.3 293.4 300.2 310 314.2 320.5 332.3 345.6 353.6 359.6 359.8 361.9 374.8 383.7 387.3 385.6 379.6 372.8 366.4 361.1 353 345.1 336 328 333.4 335.7 336.2 332.5 333.8 338.2 340.9 341.1 341.1 339.4 339.2 340 340.1 340.8 340.9 343.4 347.9 350.2 349 349.6 357.6 361.9 361.8 362.2 364.6 368.7 379.8 382.9 385.9 392.3 403.6 413.3 423.3 428.1 436.6 438.9 436.3 428.7 427 431.6 436.9 448 457.2 464.3 468 474.6 477.9 475.7 470.6 463.1 456.4 457.4 457.3 457.1 463.7 462 459 454.4 450.9 442.6 431 429.2 426 418.9 403.7 399.7 401.8 401.7 387.1 376.6 367.9 356.6 349.1 352 354.7 354.3 350.9 347.8 348.1 346.6 343.8 341.7 339.9 337.2 334.5 331.8 326.6 320.4 312.1 302.3 293.5 284 273.6 262.2 251.4 239.7 234.8 231.7 226.1 221.6 208.7 195.8 195 194.4 193.8 190.5 190.7 188.9 186.5 186.1 186.6 184.2 178.7 173.7 175.4 175.3 173.9 170.2 162.8 157.7 151.7 146.3 143.4 140.5 137.4 135.4 133.5 132.6 131.6 130.4 127.9 124.1 119.7 113.9 112.2 111.9 109.5 106.1 105 104.4 104.8 105.7 107.2 109.1 112.1 113.7 114 109.8 109.1 106.7 109.6 110.4 110.7 114.1 116.9 119.2 120.8 120.3 114.2 110.9 106.2 103.5 100.3 95.7 88.9 81.4 80 79 79.9 84.3 87.4 87.9 88 88.3 87.6 89.8
279.8 283.4 291.5 298.2 305.1 315.3 323.6 334.2 345.8 352.1 352.7 357.3 372.4 382.1 383.9 383 380.5 372.7 363.4 356.2 350.6 343 335 323.6 324 327.1 327.8 325.8 326 329.3 332.7 334 336.3 334.6 336.4 335.8 337.1 336.9 335 336.4 340.6 343.2 344.3 348 349.3 352 356 357.4 355.3 361.4 371.4 374.6 379.1 382.7 389.2 399.3 409.1 410.6 420.9 423.9 420.5 418 418 423.2 428.9 436.6 450.2 459.6 462.8 469.2 468.5 465.6 460.7 454.6 448.1 448.5 451 453.7 456.8 457.6 453.5 445.6 439 430.8 426.5 425.4 420.6 412.4 400.3 397.3 404.2 391.4 383 375.4 367.2 358.4 353.3 356.1 357.7 356.4 354 351.8 351.2 350.8 347.8 345.7 343.2 339.7 336.1 331.2 325.4 316.8 306.6 296.1 286.1 276 265.1 256.4 249.1 248.9 243.7 238.1 234.3 225.4 215.4 205.4 203.1 201.6 201.9 199.4 198 196.8 196.3 195.5 191.6 184.8 182.5 182.1 180.7 178.4 174.9 170.1 165 157.6 150.4 143.7 141.1 137.2 134 131.2 130.7 130.5 129.3 127.1 124.4 119.7 115.7 111.4 111.6 109.6 107.7 106 105.8 105.5 105.7 106.7 108.7 110.5 113.2 115.1 114.6 112 110.6 109.7 112.2 115.1 116.8 119 122.2 122.8 121.3 117.8 113 109.3 105.7 103.3 99.9 97 90.6 83.7 82.3 80.3 77.9 80.4 84.5 86.6 86.5 87.9 89.5 90.9
273.9 277.7 282.7 289.1 298.8 310.3 318.2 324.2 330.3 338.1 346.6 362.9 373.6 374.4 375.4 372.5 369.7 367.6 359.1 351.3 344.4 337.7 331.9 322.6 309.8 317.7 319.2 318.6 321.7 324.5 329.8 331.3 331.6 330 332.8 332 332 332.4 330.7 335.5 340 344.2 348.6 349.1 348.7 348.6 352.1 353.2 351.9 352.9 354.2 359.5 363.3 368.2 371.4 379.3 387.7 395.2 402.2 404.6 403.3 408.7 411.5 418.6 420.3 430.6 443.5 450.1 452.4 454.3 456.6 455.5 452.1 447.3 441.8 445 444.3 444.9 446.6 445.4 441.8 434.4 427.9 427.2 426.1 422.2 415.2 407.8 395.4 393.9 391.6 381.8 377.9 371.8 364.8 359.9 357.3 358.8 358.5 358.6 356.4 354.1 353.6 352.7 348.8 345.6 343 338.9 334.2 328.6 321.2 312.3 302.4 291.2 279.7 270.3 267.9 263.6 261.8 259.4 254.3 246.6 240.1 229.8 218.2 213.8 211.7 208.8 209.1 208.7 208.4 207.8 206.8 203.7 197.8 188.6 185.1 184.7 182 177.6 171.7 167.1 161 152.5 146.7 140.5 136.9 135.4 134.4 130.4 128.3 128.8 127.4 124 120.4 117.6 115 112.5 110.1 109.7 108.1 107.5 106.9 106.6 106.8 108 109.9 111.2 113.5 113.8 112.6 115.1 112.7 114.6 118.7 121.2 122.9 124.2 122.3 119.9 118.4 114.9 110.3 107.9 103.7 101.4 99.5 96.9 91.5 85.7 81.6 80.3 79.6 76 77.7 81.6 85.2 86 89.2 93.3
273.1 268.2 270.5 282 296.1 308.2 314.6 326 330 337.7 346.7 361.4 367.4 368 366.6 365.2 362.2 358.1 351.3 344.7 336.6 331.5 326.7 319.4 310.1 307.2 309.8 310.6 315.4 318.5 323 328.5 326.8 325.7 327.3 327.1 326.1 327.3 332.7 333.8 338.9 344.1 345.2 344.5 343.2 345 347.6 349.8 349 349.3 352.7 355.1 356.7 359.3 360.5 363.1 366.9 376.6 383.7 389.2 392.6 397.5 402.7 408.1 409.3 420.7 438.9 438.1 438.9 440 443.9 443.8 441 436.1 432.2 434.4 434.2 437.8 437.5 435 433.1 427.4 421 421.8 417.9 413.9 412.2 400.2 390.3 382.7 381.4 378.7 375.1 368.9 364.5 360.7 360.3 361.5 361.2 360.8 358.2 354.7 352.3 348.6 346.3 344.3 340.3 334.1 327.7 322.4 316.9 309.5 300.6 286 282.7 282.6 278.7 277.7 274.5 270.9 264.1 255.5 245 234.2 230.2 226.8 225.9 225.7 223 220.4 219.9 218.8 216.4 212 205.7 197.1 188.8 182.9 178.9 174.8 169.2 164.7 157.9 149.9 145.3 143 141 139.8 137.4 134.4 130.6 129.1 126.3 123.4 121.7 119.3 116.8 114.3 111.2 110.5 109.5 108.7 108.2 107.9 108.8 110.3 111.1 111.8 113.5 114.3 115.6 116.6 117.3 119.2 122.3 126.5 124.1 120.8 118.9 117.9 114.1 111 106.4 104.2 102.9 102.1 99.7 96.1 91.9 86.9 83.9 80.8 77.2 74.5 73 76.3 80.8 84.5 88.3 93.3
264.2 256.8 271 281.6 292.7 305.3 306.4 319 336.1 342.5 354.9 359.5 356.1 357.3 356 354.5 352.8 346.8 338.8 333.9 329.5 324.8 320.2 313.9 305.5 297.8 301.4 302.7 306.3 311.5 315.3 318.9 322 322.3 322.4 321 328.4 327.8 330.6 331.6 334.8 338 339.7 341 341.1 340.4 340.4 339.9 342.7 352.3 355 353.5 352.3 352.6 353.2 356 360.1 367.9 373 378.2 384.8 389.8 389.8 395.6 397.5 404.3 423.6 425.3 427.5 428.5 427.7 429.6 429.4 423.8 423.4 424.3 426 426.6 430.5 429.5 426.6 419 417.3 412.7 411.3 410.5 403 389.2 385 376.3 379.4 373.4 368.2 364.7 362.2 360.9 362.8 364.1 363.8 362.1 359.3 355.7 351.9 347.8 345.2 341.4 336 328.1 321.9 320.3 314.3 308 295.2 298.2 297.5 294.2 293.1 291.4 287.5 280.5 272.5 262.3 252.5 252.2 249.2 245.8 244.1 240 236.2 232.6 230 227.5 225.1 219.9 212 203 194.3 185.7 176.2 171 168.5 164.9 159.7 154.9 149.9 146.2 143.4 141.6 139.3 135.9 133.3 129.3 125.4 123.3 121.6 118.9 116 113.1 113.2 111.8 111.1 109.9 109.4 109.8 112.3 112.7 113.2 113.4 114.5 116.4 118.7 120 122 123 122.9 123.4 121.3 117.3 115.6 112.2 110.4 105.9 102.6 101.5 101.5 100.9 99.6 96.6 91.7 89.3 85.3 81.6 76.2 74.8 72.8 72.3 79 83.3 89 92.7
246.8 263.8 272.3 274.8 285.5 293 297.1 314.4 334.7 340.3 345.7 351 349.7 347 345.4 344.5 342.5 336.9 331.2 324.9 321.4 316.1 310.8 305.5 298.8 290.5 292.2 294.3 300.2 306.7 312.3 315 317.9 316.5 324.2 324.7 325.1 326.7 328.9 331.8 334.7 336.8 338 339.3 338.2 336.6 335.5 336.6 344.8 350.3 351.7 350.6 348.1 347.9 348.6 350.1 354 366.2 371.6 376 379.8 381.6 383.5 385.8 388.2 393.1 401.7 409.6 417.2 422.7 416 416.8 416.8 412.9 413.9 415.9 418.9 421.7 422.6 422.5 420.7 412.5 412.1 410.4 405.1 403 392.8 381.4 372.9 375.5 370.9 368.9 365.9 362.5 361.7 360.8 362.6 364.6 363.6 361.4 359.7 354.1 349.4 344.9 340.9 336.7 331 328.6 325.6 321.1 314.6 304.1 307.6 310.8 309.8 306.9 306.3 302.9 298.4 292.9 281.5 267.7 272.4 271.2 267.2 263.2 259.2 254.1 246.2 241.4 238 235.1 231.3 226.1 218.4 210.8 202 194.3 184.9 176.4 173.6 168.4 162.8 157.3 151.2 147.7 144.8 142.8 139.7 136.1 132.1 127.7 125.8 123.6 120 118.2 118.3 117.5 116.9 115.2 113.4 112.2 112.1 113.6 116.3 116.6 115.5 114.3 115.7 117.3 120.4 123.6 125.1 122.4 119.9 117.3 114.9 112.4 109.5 106.9 104.4 101.9 98.8 101 98.3 98.9 98 94.1 89.1 82.9 80.9 77.3 74.1 71.9 72.3 74.9 80.3 83.1 87.5 88.4
257.5 263.4 266.4 264 271.8 282.5 292.9 311.8 328.3 337.5 338 339.8 339.2 336.1 335.5 333.3 330.2 328.3 322.7 316.9 310.9 304.4 298.7 296 287.4 281.6 284.5 293.9 301 307.5 311 314.4 312.3 317.6 319.8 322.1 323.9 325.6 329.4 330 332.5 333.6 332.8 332.4 331.8 331.1 332.6 338.4 344.4 345.3 344.7 344.8 344.8 344.3 344.9 347.4 350.1 359.1 366.8 377.3 380.5 380.4 380.7 382.1 381.8 384.6 390.9 398.7 403.1 405.3 406.2 404.9 406 403.5 404.4 405.9 409.9 413 413.8 412.9 406.3 408.6 405.5 402.6 395.4 393.3 387.7 377 367.1 363.3 363 367 363.1 360.2 360.5 360.1 360.9 362.6 360.7 360.1 356.1 350.6 344.6 340.9 338.1 335.6 333.6 331 326.6 321.7 315 316.6 320.4 321.5 320.8 318.6 316.1 310.3 303.9 291.4 276.5 277.9 284.6 283.1 280.7 277.1 270.5 262.9 256.9 252.2 248.4 243.8 238.2 231.9 224.9 218.6 209.5 200.8 193.4 184.1 177.6 172.1 165.1 157.7 152.9 148.7 145.8 141.5 138.7 137.9 133.6 131 128.7 126.7 124.2 122 121.9 119.8 118.7 117.2 115.9 116.5 117 117.2 118.5 117.8 114.9 114.6 115.6 116.2 121.8 120.7 119.3 116.7 114.3 112 109.6 106.4 103 100.8 99.2 97.6 95.9 94.8 94.9 95.4 94.9 90.9 86.7 80.9 76.7 73.4 72.1 71.3 73.4 74.5 75 81.1 83.4 85.3
253.1 250.1 252.5 252.9 259.8 278.3 293 305.5 317.3 324.5 329.4 328.2 326.1 324.7 325.8 324.6 322.4 318.1 311.4 304.7 298 291.3 285.7 278 272.6 281.8 288.3 295.4 301.8 307.6 311.5 311.4 311.2 314.8 317.7 320 321 325.2 326.3 327.3 328.5 327.9 327.9 326.1 323.7 330.2 333 336.5 337.8 337.5 337.5 337.7 339 342.9 343.2 344.7 348.9 351.7 359.9 369.6 374.6 378.7 377 380.2 377.9 378.2 378.7 384.1 386.8 393.6 394.8 392.8 393.9 388.4 395.7 397.1 401.7 402.4 402.9 400.1 398.8 397.1 397 395.7 391.9 386.8 382.8 369.9 357.1 357 358.1 357.1 357.9 356.8 359.4 358.9 358.9 359.2 357 357.1 354.8 349.5 345.3 341.5 339.1 337.5 335.4 332.4 328.2 322 323.3 326.6 331.1 330.8 330 326.8 321.8 317.5 304.8 289.8 284 286.2 294.7 295 293.2 288.8 283.4 280.5 274.5 268.4 262.4 255.9 254.9 248.5 235.3 225.9 216.7 206.8 197.6 190.2 183.8 177 168.7 161.4 156.2 150.3 147.6 144.9 142.2 140.5 140.1 136.3 132.8 129.8 127.1 127.5 123.5 121.2 119.7 118.6 118 118.1 119 119.4 117.4 116.8 114.4 114.1 113.2 112.4 110.1 115.7 111.4 109.5 107.2 105.6 104.6 101.9 100.7 100.3 98.8 98.6 94.6 92.4 92.8 90.8 89.5 84.9 80 76.7 74.2 71.2 71.8 72.5 74 73.5 74.1 76.5 75.8 76.9
239.9 237.9 236.6 244.1 252.7 274 286.7 294 303.6 310.7 313.9 315.1 315.8 318.2 320.6 320.2 314.3 306.9 296.9 288.8 282.3 274.6 266.3 258.3 280.7 287.6 290.3 296.6 300.2 304.9 309.3 308.8 307.8 313 314.9 316.7 317.5 319.8 321.5 322.6 321.7 321.7 321 320.7 328.2 330.1 333.9 336 333.6 333.4 332.4 334.3 337.4 341 341.6 341.9 344.3 345.8 348.5 359.3 365.8 369.9 371 374.5 373.3 371.9 374.8 377.3 380.1 382.7 379.5 376.1 373.8 372.8 382.7 383.5 384.4 388.1 391.3 391.1 389.4 392.8 392.1 391.7 388.6 381.9 371.7 361.4 351.6 354.4 355.1 352 350.4 358 358.9 355.5 354.8 354.5 354.9 355.7 351.9 346.8 343.6 340.8 338.8 337.3 336.3 333.4 329 326.4 333.1 336.2 340.2 337.9 335.9 332.3 327.8 318.5 304.9 299.3 294.5 304.4 305.8 303.5 300.9 296.9 294 295.4 291.9 287.6 282.7 279.5 274.5 261.9 248.3 232 219.5 210.2 203.4 196 188.8 180.5 172.2 164.6 159.4 157.5 155 150.9 148 147.6 147.7 143.9 140.3 137.5 135.5 133.4 129.9 125.1 122.4 120.7 120.8 121 120.4 120 118 115.6 113.3 110.9 108.7 107.9 107.4 104.8 107.9 104.7 104.5 103.1 102.5 99.7 98.7 99.2 98.9 95.9 93.8 91.3 89.5 86.6 83.7 80.4 78.2 76.5 72.7 76.2 74.2 68.9 71.5 70.5 68.1 69 68.9 68.5
219.6 218.7 219 231.7 244.9 260.8 272 279.9 291.5 299.5 301.4 304.2 309.7 312.9 317.8 317.3 305.6 292.5 280.3 273.5 270.3 260.3 257.7 277.1 282.3 284.1 290.1 295 299.2 303.3 305.4 304.2 308.8 311.3 312.1 312.8 312.3 313.1 314.9 314.7 315.1 314.3 317 322.6 323.8 326.1 327.9 328.4 329.7 330 327.9 331.9 336.4 340.3 342 340 341.6 341.7 342.2 347.6 354.8 360.5 363.1 367.3 367.6 366.3 369.5 371.8 374 374.9 376.2 371.1 365.7 364.1 366.1 369.4 376.1 377.5 379.8 382.3 377.5 380 384.2 385.3 379.3 370.3 363.7 354.9 347.1 347.5 349.2 349.1 349.4 350.9 351.6 351.7 350.9 351.1 351.6 350.9 349.4 347.2 343.5 341.1 339.5 337.7 337.9 335.7 336 337.9 341.2 343.6 345.3 345.4 344.8 342.3 333.4 332.9 330.1 324.8 319.9 321 317.1 312.7 308.2 305.1 305 306.9 305.7 300.2 296.9 296.1 290.4 277.5 258.3 241.2 225.9 216.5 207.4 196.9 189.8 180.3 170.7 167 167.8 165.3 163.5 158.8 156.3 157.5 157.3 154.3 150 148.5 146.7 143.5 138.5 131.5 126.7 124.3 126.2 125.8 124.2 121.6 117.9 114.4 112.7 110.5 107.9 106.6 106.3 104.1 102.4 101.9 102.3 100.5 97.7 96.1 96.2 94.1 93.6 90.3 88.5 86.4 84.9 82.3 78.7 76.4 75 75.9 78.7 78.3 75.6 73.5 71.8 70.3 68.4 62.4 58.2 60.9
203.1 203.1 209.7 222.9 231.8 244.2 256.1 269.4 286.1 292.3 294.9 295.1 300 306.6 310.3 306.6 291.4 275.9 262.2 264.7 249.1 251.9 272.9 274.1 279 283.8 289.2 294.1 297.5 298.6 301.4 302.7 307.9 309.7 309.9 309 307.6 306.7 307.7 308.8 310.1 314.6 317.3 320.1 318.7 317.9 319.9 324 325.5 325.9 324.4 329.4 333.6 336.8 335.9 335.8 335.8 336.5 337.1 340.7 345.3 349.1 354.5 360.8 363 362.4 369 369.2 369.5 370.1 370.9 365.3 358.9 359 360 361.5 364.8 366.3 370.2 371.8 368.9 368.4 372.2 369 365.6 361.8 354.1 351.2 347.1 345.3 346 346.8 347.8 349.1 349 349.2 349.8 350.5 350.7 350.8 350.8 350.1 347.4 343.3 340.9 341.2 341.2 340.8 343.3 344.6 348.2 355.7 359.1 360 354.1 352.6 352.4 354.8 351.2 347.7 341.5 340.1 335.6 330.8 324.5 320.6 324.1 324 315.7 309.9 309.1 304.5 297.7 282.1 261 243.1 234.3 222.8 210.2 199 189.9 180.2 177.8 176.6 174.2 173.1 170.3 168.3 167.1 164 164.1 161.9 160 157.7 155.5 152 147.6 141.2 133.5 130.9 130.8 131.3 127.3 123.1 119.6 116.3 112 110.4 108.5 106.7 105.7 106 104.1 101.2 99.2 97.3 95.6 95 93.3 91.9 91.3 91.4 87.7 87 87.1 83.6 79.9 77.2 82.6 82.5 81.6 81.3 79 77.3 74.2 71.9 68.5 65.9 62.1 57.6
187.6 188.3 205.1 219.4 224.6 233.3 248 268.9 285.1 292.2 291.9 290.3 292 291.8 293.3 286.8 271.9 258.3 251.7 242.6 241.2 259.6 263.5 271.3 277.8 283.4 288.8 292.7 294.3 298.3 301.1 303 304.8 305.3 304.5 302.9 301.6 301.8 303 305 309.7 315.8 315.2 313.6 311.2 313.1 315.9 318.8 320.2 320.4 320.3 325.8 330.5 332.4 332.1 331.5 330.6 332.3 333.5 334.5 336.9 341.1 343.8 353.1 356.8 353.8 361 367 367 367.9 365.8 359.8 357.5 357.9 359.2 361.2 358.5 356.8 356.7 357.9 358 362.2 360.1 360.7 357.1 353 351.3 350.4 347.3 345 343.3 346.2 347.3 347.2 347.4 347.6 348.1 348.9 350.4 350.9 351.4 351.8 351 348.7 346.5 345.7 343.7 345 349.1 356.3 363.1 368.1 368 365.5 364.9 368.9 372.9 381.8 376.8 364.2 362.1 362.7 358.7 349.5 341.3 334.3 336.2 334.3 327.3 318.9 313.2 300.9 287.7 274.9 258.5 244.7 233.8 223.6 211 199.4 194.9 191.3 190.2 186.9 184.8 182.7 179 176.8 175.1 172.7 170.9 168.8 166.8 164.9 162.9 160.2 157 150.1 140.7 138.1 137.6 135.4 130.7 125.7 120.4 116.6 112 111 109 108.5 106.9 107.3 107.3 106.3 103.4 100.1 98.8 97.1 96.1 95.6 94.9 92.9 91.8 91.2 89.2 85.1 80.9 82.9 86.1 86.9 85.9 85.6 83 79.3 75.5 71.8 67.9 65.5 63.8 58.7
173.3 182.6 200.6 210.5 214.6 226.7 247.2 272.1 283.2 286.3 287.6 283.9 281.1 279.2 274.2 270 254 241.1 231.3 230.2 249.7 253.9 262.1 268.2 275.4 281.4 285 287.9 292.5 296.6 300.4 303.4 303.2 304 301.5 298.8 299 300.8 302.3 305.9 308.8 309.7 308.9 307.9 307.6 309.7 312 313.3 314.4 315.5 318 321.4 326 329.3 329.2 328.5 326.3 328.1 330.8 331.5 331.6 334.6 337.5 340.3 349.8 347.4 358.8 362.4 364.6 367.1 361.6 356 356.8 359.4 364 362.1 353.8 350.6 348.5 347.2 347.8 349.4 350.4 350.7 349.2 347.4 348.9 348.4 346.6 344.6 343 346.1 346.9 346.7 345.5 345.8 346.6 348.3 349.8 351.1 352.3 352.7 353.1 351.7 351.4 350.9 349.3 351.4 358.8 368.4 374.4 374 373.2 376 380.3 382.5 385.1 388.5 384 385.6 376.7 375.3 371.9 359.7 348.2 346.6 338 331.9 325 315.5 301.3 286.4 267.7 261 252.6 242.2 232.1 221.7 212.5 208.5 203.8 202.4 198.2 195.8 193.3 189.9 187 184.6 182.4 179.9 177.2 173.6 170.4 169.6 166.9 163.9 159.5 154.3 146.7 144.3 142.9 139.3 134.3 128.8 122.5 118.4 115.8 114.2 113.3 112 110.2 109.3 109.4 108.1 106.8 104 101 99.8 99.4 99.5 99.4 97.4 93.9 92.1 89.7 87.4 81.5 85.2 88.6 89 87.8 86.7 83 79.8 75.7 71.4 68.1 67.9 64.3 64.8
166.6 172.8 187.4 196.8 207.3 225.2 255.3 266.9 274.2 277.7 279.4 275.2 269.4 263.4 257.2 248.8 235.6 219.8 220.9 241.8 242.4 251.2 257.9 263.3 270.7 277.3 285.4 292.2 294.9 299.1 300.9 300.1 300 296.4 295.9 295.1 297.6 300.6 301.9 301.2 299.5 303 304.4 303.6 304.9 305.9 307.4 310.2 309.5 315.3 317.9 320.1 321 324.4 326.8 324.9 324.6 326.2 326.7 327.3 328.5 331.6 334.3 335.2 335.9 341.2 355.7 357.8 359.6 359.7 358 351.3 353.7 358.9 359.6 351.9 350 346.2 342.8 341.9 341 342.5 343.4 344.7 343.5 343.7 345.9 345.9 344.4 342 345 346.6 346.8 346.3 345 343.7 346.2 347.8 349.4 351.2 352.9 353.7 354.4 355 355.4 357 357.7 362.5 368.4 376.7 378.6 380.3 384.2 390.7 393.5 395.7 398.3 396.3 389.2 382.1 372.1 361.8 353 342.1 335.8 332.1 339 325.3 315.3 308 297.8 289.2 278.1 270 261.2 250.2 239.2 231.4 225.6 218 213.3 212.6 207.4 203 199.2 194.1 191.2 187.9 185.5 183.1 178.8 174.4 171.1 165.9 164.1 159.5 156 152.4 147.2 146.6 144.8 140.9 135.6 131.4 125.4 122.4 119.4 117.7 117.6 115.5 114 113.1 112 109.7 108.2 106.8 105.1 104.1 103.2 102.1 100.8 98.1 94.1 90.7 88.3 85.2 84.5 86 87.3 88.7 88.9 85.8 81.9 78.5 75.1 70.8 70.7 69.1 66 68.3
158.7 166.3 173.6 185.3 200.3 230.1 249.9 258.1 263.5 265.6 268.3 265.6 254.5 247.1 239 228.2 213.4 201.3 222.6 235.7 249 258.9 265.1 270.2 275.1 280.8 288.3 292.8 295.6 299.6 299.5 297.7 295.8 295.6 293 296.4 299.3 297.8 295.5 293.3 292.7 293.9 296.9 298.5 296.9 299.6 303.8 304.7 307.8 312.5 315.5 318.8 317.7 317.5 318.9 320.9 320.1 322.1 322.5 322.8 325.2 328.4 330.3 331.6 330.5 330.1 345.7 349 348.5 352.5 352.1 346.3 348.8 351.3 349.8 344.6 344.1 340.6 338.3 336.5 335.5 336.6 337.7 339.6 340.4 340.2 339.9 341.3 340.9 338.7 341.5 341.8 342.2 342.7 343.2 342.3 344.1 346.1 348.2 350.4 352.1 355.1 357.3 358.6 360 363.2 368.8 374.1 378.9 381.7 384.7 390.2 395.5 402.7 410.7 417.5 414.8 399.8 388 377.8 367.8 358.1 347.4 339.5 331.9 325.6 323 320 315.9 305 298.8 292.3 286.2 278.7 268.3 256.8 245.3 236.5 230.2 225.7 221.9 220.6 216.2 209.5 202.4 197.9 194 189.6 185.2 182.8 177.3 170.3 164.7 160.4 157.2 153.4 149.8 147.3 145.6 143.6 143.3 140.1 138.1 134.4 130.8 128.4 125.4 121.5 119.1 119 117.3 115.9 115.7 113.7 111.2 110.1 108.7 107.6 106.8 103.9 101.6 99.1 95 90.1 87.2 87 87.3 88.3 88.9 87.8 87.8 85.2 81.8 77.5 74.9 71.2 70.4 68.6 68.4 69.8
148.4 155 158.6 173 191.3 214.7 225.5 236.8 244.4 250.2 252.6 249.4 235.2 224.3 218.5 208.7 189.8 205.6 222.8 240 255.4 265.2 269.5 273.2 278.1 283.5 290.1 293.3 295.7 298 299.1 298 294.9 294.1 293.5 291 289.7 290.4 292.2 290.8 288.6 291.1 290.1 290.9 290.4 293.7 295.4 296.5 303.9 308.8 310.8 313 313 313.1 314.9 316 318.8 318 318.1 318.2 321.5 324.8 326.2 326.6 324.6 323.8 328.9 335.3 337.3 339.3 341.5 339.7 340.8 340.6 339.9 337.6 335.6 334.7 332.8 331.6 331.7 332.8 332.5 333.7 336.1 336.9 336.3 336.6 336.6 338.1 340.1 340.3 340.7 340.2 340.6 341.1 342.7 344.7 346.7 349.4 351.6 355.4 361.3 364.4 367.7 373.1 378.4 381.6 386 389.5 394.7 404.1 409.9 415.9 419.6 417 408.4 396.7 384.6 372.2 362.5 354.8 350.6 343.7 337.2 332 326.1 321.9 315 307.6 301.7 296.3 292.3 285.3 276.5 265.1 252.7 243.3 236.7 233.4 229 223 217.5 214 206.6 201 194.7 188.8 183.7 178.3 171.6 167.2 161.6 157.1 156.4 155.1 152.5 149.5 147.2 144.9 144.5 143.6 142.3 139 135.2 131.9 128.8 124.2 121.4 121.5 120.2 119.8 117.9 117.5 115.2 113.5 112.2 109.3 106.5 102.9 100.5 97.6 92.9 89.7 89.2 90.7 91.2 91.3 89.3 87.5 86.6 84.2 80.9 77.9 73.9 71.7 70 71.1 71.4 72.4
142.3 142.9 147.6 160.1 181.9 195.8 199 210.2 215.9 219.9 221.9 218.5 209 202 198.8 192 179.6 202.4 221.9 240 256.7 266.2 267.8 267.9 276.1 282.2 287.5 290.8 293.1 292 292.9 294 293.7 293.4 291.9 290.1 286.5 284.4 287.5 285.6 280.2 281.1 282.6 284.8 287.7 290.1 290.7 292.4 303.6 306.6 307.3 307.9 307.8 308.8 311.4 313.9 316.3 315.3 313.7 314.8 318.5 320.5 321.3 320 317.1 318.8 320.6 325.6 328.2 331.4 336.3 332.3 331.8 332.2 331.1 331 329.8 328.6 328.7 328.1 327.5 327.7 331.9 333.7 334.9 334.4 335.9 337 337.3 338 339.4 339.6 340.1 340 340.2 340.7 341.3 343.1 345.1 347.9 351.8 357.6 365.2 371.2 376.8 381.2 385.1 387.9 392.5 397.1 407.9 414.9 421.2 424.8 423.5 416.8 407.4 398.9 389.8 384.6 380.5 374.2 367.3 358.6 353.3 346.7 337.5 327.6 321.3 314.2 306.9 300.5 297.3 291 283.1 272.3 261.7 253.7 247.3 239.7 233.9 226.3 221.7 216.7 209.7 202.6 194.9 188.1 181.2 173.8 168.8 165.5 161.2 161.5 160.8 158 155.5 153.2 151 149.1 146.6 145.7 143.1 141 137 135.4 130.8 126.8 123.8 122.6 122.1 122.6 122.9 120.5 116.8 115.9 113.1 110 106.8 102.3 98 94.5 91.3 92.1 93.7 94.5 94.5 93.7 91.7 89.3 88.4 86 81.3 78.9 76.3 73.5 73.6 75.8 73.9 75.8
127.5 128.3 134.8 146.2 160.4 170.5 176.4 180.5 186.9 186.7 185.9 188.9 188.6 185.3 181.1 176.5 170.8 194.3 220.9 239.1 246.4 252.8 256.1 259.5 267 274.2 279.4 283.9 288.1 290.1 291.6 292.8 291.8 291.2 289.7 287.2 285.6 278.6 281.5 279.9 274.9 276 273.4 276.4 284.7 287.6 287.5 293.4 300.4 303.6 303.6 303.8 303.5 305.3 306.9 308.7 311.3 310.2 309.6 312.1 313 315.1 315.3 314.8 311.3 313.5 314 316.7 320.7 322.2 324.1 320.5 324.8 325.2 325.1 325.3 324.3 323.9 320.4 324.8 327.3 330.4 332 332.9 331.4 333.9 335.5 336.7 338.2 338.9 338.7 339.1 339.5 339.4 339.1 340 340.5 341.7 343.7 346.9 351.5 358.9 368.8 375 380.9 385.4 388.6 393.2 397 405.8 413.7 422.8 430.6 432.1 437.1 430.1 421.4 413.3 406.6 402.7 398 393.7 384.9 379.8 370.5 359.7 349.9 335.5 328.3 321.4 312.8 305.9 300.4 295.2 286.8 278.2 269.9 262 253.8 245.3 238.2 231 223.1 217.2 210.2 201.7 192.4 183.5 181.8 177.6 173.2 170.5 167.7 166 163.3 160.7 158.3 156.2 155.2 153.8 150.3 147.2 144.3 142.2 140.5 135.3 130.2 129 126.8 125.1 124.6 125.6 127.4 125 120.1 115.9 112 109.1 105.6 100.1 96.3 94.7 98.2 97.2 97.6 97.3 96.7 96 94 91.7 90.2 87.4 83.9 81.9 81.2 80.1 79.9 79.6 76.6 78.4
120.4 120.5 122.3 132 140 150.4 155.5 159.1 160.9 163.8 163.2 169.3 170.2 166.3 162 153.7 173.3 198.8 220.7 237.3 243.3 245.1 248.6 258.8 262.9 268.6 277.4 286.1 288.2 289.5 291.7 291.9 289.6 288.2 285.8 282 279.9 278.2 273.4 273.7 272.9 270.2 268 273.9 279.6 284.9 288.1 291.7 296.5 298.6 298.1 297.8 298.7 299.9 301.3 303 305 305.7 306.5 307.9 308.9 309.1 309.2 309.4 306.8 308.8 309.9 313.5 315.9 316.7 315.9 313.2 316.8 319 320.6 320.1 315.8 322.1 324.6 325.6 327.7 329.1 329.2 329.1 327.1 330.9 333.1 336.6 337.8 337.1 335.7 337.3 338.5 337.3 338.3 339.6 341 342.1 343.1 346.6 351.7 359.8 369.4 376.4 381.7 385.2 390 394.9 403 410.9 421.5 432.8 436.4 446.4 454.1 446.8 437.1 430 423.4 416 411.6 406.6 399.6 403.5 396.6 379.1 365 351.3 335.7 326.9 316.4 307.7 301.1 296.1 289.8 282.6 275.5 267.3 258.7 249.4 240.4 233.4 224.7 216.5 208.6 197.6 195 190.9 185.5 182 182.5 180.6 176.3 170.7 167.1 165.5 163.2 161.6 161.4 158.5 154.8 150.5 148.2 144.1 143.6 139.5 135.2 131.6 131.9 130.1 127.7 129 129.6 126.5 121.2 115.1 109.7 106.1 102.5 101.4 101.7 102 102.6 103.8 102.7 100.8 99.5 98.3 96.4 94.1 91.8 88.9 86.1 84.1 82.6 81.8 81.4 81.1 79.3 80.6
106.7 109.8 111 115.8 127.1 132.5 139.7 144.2 149.8 152.5 152.4 152.6 151 144.2 140.5 159.8 185.4 205.1 222.6 235.1 241.5 244.3 252.7 260.9 261.2 264.5 276.7 283.2 287.1 285.5 285.2 287.1 285.6 281.5 279.1 277.2 275.1 271.8 267.7 269.9 267.2 266.1 265.4 273.3 277 281.1 283.5 287.8 292.4 294.6 294.2 293.3 294.6 298.7 298 300.4 301.2 301.3 302.8 303.4 304 305.3 304.6 303.5 304.6 305.6 307.3 310.8 310.8 311.3 310.8 309.1 310.3 312.5 314.2 314.1 316.1 319.9 322.5 324.3 326.2 326.3 325.7 325.2 323.5 327.1 328.3 332.2 334.7 332.9 332.2 333 333.5 334.2 338.5 341.7 342.8 344.7 344.3 347.4 351.4 358.9 367.2 375.1 379.8 383.9 389.4 399.2 407.5 417 428.4 437.1 441.6 456 453.5 450.5 442.7 438.3 434.9 424.5 418.2 411.8 404.4 401 395.8 394 380.9 366.3 345 326.8 313.2 303.1 297.5 293.4 290.2 285.1 278.8 270.4 261.4 252.5 242.4 235.5 228.3 224.1 218.8 211.9 206.7 197.8 192.7 189.2 187.2 184.5 183.4 181.2 178.3 176.5 174.3 170.2 168.4 163.7 159.3 157.2 153.7 151.7 150.3 145.2 141.5 138.6 136 133.6 130.3 130.3 129.6 125.1 116.8 110.9 109.9 109.8 109.1 108 106.7 106.9 107.4 107 105.6 104 102.4 99.9 97.9 95.8 93.4 90.8 88 85.6 83.6 82.2 81.9 81.5 79.4 81.5
84.3 91.2 97.9 101.7 111.3 119.8 127 132.4 136 137.8 136.2 131.3 127.5 130.2 153.6 172.7 195.2 211.5 222.8 232.7 239.4 244.5 254.6 257.9 259.4 266.3 273.1 277.7 277.3 278.3 278 276.3 273.9 271.8 272.3 272.5 269.9 266 263.2 262 260.9 264 266.3 271.9 276.6 276.9 278.4 283.2 287.6 289.5 289.7 289.6 291 293.7 294.3 295.4 295.9 297.9 296.5 298.4 299.2 300.6 300.9 300.2 302.1 301.4 304.2 305.5 306.1 305 305.3 303.8 307.5 309.2 309.7 308.1 314.7 318.2 320.3 320.7 321.2 320.8 320.2 320.2 319.1 323 324.6 328 328 329.2 329 330.1 330.3 332 334.5 340.8 344.8 347.3 347.3 348.2 350.6 356.6 366.5 372.4 377.7 382.1 393.4 403.7 414 421.6 427.2 432.2 445.4 451.8 454.7 456.4 453.9 445.1 443.4 433.8 427.7 419.3 406.7 409 394.1 384 376.2 360.9 350.1 330.5 311.2 297.5 290.9 289.3 286.9 285 279.7 272.8 264.1 254.6 248.1 242.3 239.5 233.9 228.9 223.7 216.3 210.2 203.3 201.3 196.7 194 191.5 188.9 185.1 184.9 184.4 179.9 178.4 175.7 172 169.3 166.3 162.4 157 151.5 147.6 144.3 140.4 137.3 133 131.5 129 121.8 115.2 115.8 116.4 114.5 112.3 110.8 111.3 110.2 110.3 109.2 108.2 106.4 105.4 102.9 99.9 97.4 95 92.6 89.9 87.3 85.3 83.2 82.3 81.8 79.9 79.4
71 73.3 82.6 89.6 97.5 108 115.6 119.9 121.9 120.8 117.8 114.8 135 150.7 168.9 186.3 202.5 216.3 222.8 229.5 236.4 244.2 250.3 255.8 258.7 261.5 267.1 268.3 268.7 271.2 270.3 266.6 264.7 263.1 263.4 265.4 263.8 262.7 258.4 252.1 258.1 261.9 267.4 270.9 272.6 273.2 273.8 279.8 281.3 284.1 283 284.4 286.3 288.1 288.3 290.5 291.3 291.8 289.7 293.3 294.5 295.9 296.9 299.7 298.4 297.2 300.2 301 301.7 299.9 300.3 303.4 306.3 307.1 305.9 308.9 312.4 314.9 316.9 316.7 315.1 316.1 316.3 316.3 316.6 318.1 319.7 323.9 323.6 324.9 325.1 327.5 330.1 331.6 334.6 337.2 343.3 345.9 346.7 347.7 351 354.3 362.1 368.4 374.7 384.6 394.6 405.1 412.6 419.6 417.1 426.8 442 446.1 449 460.9 458.8 454.8 451.5 441.1 438.9 427.9 413.5 408.3 407.9 388.8 368.5 354.8 343.4 326.9 304.5 292.8 289.3 287 285.3 283.6 279.1 270.7 266.7 261.9 257.7 253.2 248.2 239.6 237.2 231.2 225.6 222.9 218.5 214.8 211.4 210 205.7 201.4 197 191.9 189.3 188.2 188.4 186.7 183.2 180.1 175.8 171 163.4 157.4 153.1 149.9 145.2 140.6 136.1 132.1 128 120 120.7 122.7 120.4 116.5 115.9 114.4 112.4 112 111.6 110.3 108.9 107.1 106.5 103.8 101.5 99.1 96.6 94.2 91.8 88.9 87.1 84.9 82.8 81.5 80.3 80.5
58.6 63.8 69.1 77.4 87.2 96 102.5 105.1 104.4 100.4 110.8 130.7 147.5 163.1 177.5 192.4 202.3 212.5 222.2 230.2 241.6 252.9 252.8 255.8 257.3 258.4 262.2 261.1 261.8 261.3 257.4 257.1 258.3 258.1 257.9 258.8 259.1 256.2 251.7 248.5 260.1 263.9 265.7 267.6 268.6 270.1 271 274.4 278 276.9 280.1 280.1 279.7 283.4 285.1 285.9 285.4 284.5 283.7 289.7 291.2 291.2 296.7 295.6 293.3 293.8 294.9 295.8 296.6 294.3 299 304.4 307.2 307.8 303.6 300.1 305.3 308.6 309.8 311.6 309.6 310.5 312.3 312.1 313.2 314.5 315.6 318.6 319.3 320.3 322.9 324.6 326.5 328.6 332.3 333.8 340.2 342.1 343.4 346.4 350.1 354.7 361.3 368.6 377.5 384.5 392.6 401.8 403.7 403.4 407.4 424.4 428.2 428.5 428.3 440.6 447.5 447 443.7 437.9 442.9 436.3 421.2 402.7 402.9 390.8 372.3 345.4 330.3 315.2 298.9 293.9 291.9 288.2 282.1 278.5 278.9 278.3 274.5 270.2 264 256.7 255.7 253.2 246 241 236.9 235.8 232.3 228.9 225.5 222.9 218.9 216.4 212.2 207.4 204.6 201.9 199.5 195.5 191.7 188.4 184 178.3 171 164.5 158.5 152.7 147.1 141.6 134.9 131.6 128.1 125.3 126.7 128.7 125.6 121.5 116.5 115 115.8 116.6 116.4 114.2 111.4 108.4 106.3 104.9 103.6 100.9 98.3 95.8 93.4 90.8 88.7 86.7 84.8 83.7 83.9 83.1
52.8 56.8 60.9 67.4 75.6 82.3 88.3 90 89.1 107 124.9 140.2 154.7 168.4 180.8 190.6 200.6 213.6 223.7 233.6 241.7 247.3 251.8 254.7 253.7 254.3 254.2 252.8 251.4 249.6 248.9 251.4 253.3 255.6 254.9 252.5 251.1 249.1 245.7 249.8 258.4 262.8 264.9 265.8 266.6 266.9 267.1 270.5 273 271.8 271.8 270.8 275.6 273.9 275.9 277.6 278.5 276.4 282.7 287.2 288.4 289.7 289.7 290.8 290.3 291.1 288.9 289.7 291.7 291.4 297.6 298.9 300.2 302.1 303.2 303.4 298.6 292 301.8 302.2 302.8 304.1 306.3 307.2 308.8 311.1 312.3 315.1 314.6 314.8 319.2 321.8 323.5 325.8 327.8 330.7 335.1 340.9 344.6 349.3 353.5 357.4 364.6 372.5 378.7 384.7 389.7 393.9 390.6 390.8 398.6 404.8 410.9 408.5 411.3 414.4 418.5 421.7 421.7 424.8 422.9 422 411.9 394.9 388.9 380 353.8 337.4 328.1 315.3 303.8 296.8 294 287.5 282.7 281.9 283.4 282.3 280.1 274.4 268.6 266 263.6 261.4 256.4 252.9 250.4 246.4 243 239.3 236.9 234.9 232.9 230.3 224.9 221.1 217.3 213.3 208.8 202.7 196.6 193.4 187.9 181.9 173.3 166.6 160.4 150.7 144.4 139.8 137.1 136.2 134.7 132.5 133.5 134.1 132.5 128.8 125.7 123.2 123 121.7 120.2 118.6 114.4 110.5 107.5 105.9 105.7 103.1 100.4 97.7 95.1 92.6 90.4 88.4 87.7 86.7 85.2 83.2
46.7 47.4 47.4 55 62.4 63 72.1 81.9 99.4 115.5 131.4 146.5 158.5 170.2 185.4 194.4 203 214.9 225.9 238.8 243.7 248 251.4 252.1 250.8 245.5 244.8 244 241.5 244.8 245.3 248.3 249.4 250.3 251.8 249.1 248.4 244.3 249.4 253.6 260.2 261.6 262 262.7 264.3 262.6 263.8 267 267.8 266.5 262.6 264.6 269 270.4 272 275.3 275.9 272.8 276.3 280.3 284.3 284.5 284.2 284.8 284.5 283.9 283.9 285 284.4 286.7 292.1 291.7 291.4 293.3 295.5 295.6 295.2 285.7 295.6 295.9 298.3 299.2 299.8 296.8 301.9 304.7 308.7 309.1 309.7 315 316.8 319.3 321.1 321.5 325.5 331.6 335.3 340.2 345.4 352 356.9 364.3 375.4 379.3 379.5 380.6 379.8 377.9 377.9 379.9 385 388.8 389.7 391.1 391 391.5 395.9 397.7 397.8 397.1 398.2 394.7 387.6 379.5 369.5 354.2 340.1 332.1 325.1 314.4 306.8 299.5 298.6 292.3 287.5 287 287 285.3 283 278.2 272.7 274.1 269.7 268.3 265.8 260.6 257 253.3 252.4 249.3 245.9 244.7 243.7 240.1 232.8 229.2 224.6 219.7 214.1 211 205 199.6 192 184 176.5 167.6 159.5 151.9 150.8 149.6 147.9 146 142.7 138.8 137.3 137.5 137.1 137.7 137.2 134 131.6 129.3 126.8 124.5 120.1 116.3 112.1 108 106.9 105.2 102.5 99.9 97.2 94.5 91.7 89.7 89.8 88.6 85.9 81.5
39 40.9 44.5 49.1 56.7 66.2 76.8 89.5 104.9 119.6 133.6 147.3 161.1 183.7 192.1 195.4 201.5 211.9 228.2 237.8 242.6 245 246.1 245.2 242.2 237 235.7 229.8 227.5 230.2 235.5 243.8 247.9 246.5 245.9 243.2 238.8 251.3 252.3 253.4 259.6 261 261 260.1 261.3 259.5 260.3 262.1 262.8 261.4 256.9 257.7 267 267.6 269.4 271.3 270 268.9 273.1 275.9 279.2 277.5 280.2 280.2 277.8 278 278.1 278.3 278 281.3 284.2 285.7 286 287.8 287.6 288.8 288.9 283.5 290.4 291.8 293.1 294 294.8 292.6 295.9 298.4 301.6 302.9 305.6 310.5 313.3 315.8 320.3 324.2 328.2 333.5 336.9 342.5 347.8 353 372.1 381.4 382.1 378.7 375.7 371.8 369.7 366.3 366.9 368.4 368.2 374.9 374.8 372.3 373.7 375.6 376.6 376 372.8 370.5 369.7 364.7 360.8 353.7 345.6 337.5 332.5 327.4 322.5 316.4 309.7 304.2 301.5 297.3 293.6 291.4 292.4 292.5 290.8 287.1 283.1 278.4 276.4 275 272.1 268.2 265.7 262 259.7 258.5 256.5 248.8 245.2 240.8 236.1 232.5 227.7 223 218.9 214.6 209.3 203.2 195 186.6 176.9 165.1 162.8 162.4 161.6 160.7 156.8 155.4 155.8 152.4 147.3 145.8 146.2 147.5 147.3 145 141.3 137.5 134.9 131.6 127.9 124.1 119.5 114.8 110.5 106.9 103.7 100.5 97.2 94.2 92.6 91 91 88.8 85.5 81.1
35.6 38.8 42.4 45.6 54.1 67.6 78.5 90.7 105.4 119.4 132.3 143 160.3 177.1 185.6 190.7 194 202.5 220.1 230.9 238.1 240 239.8 235.2 228.2 221.9 214.8 209 217.6 224.8 227.9 237.4 241.5 241.7 238.7 233.5 247.1 249.4 251.6 254.5 254.9 259 258.6 256.5 256.5 257.4 259 256.7 256.5 255.7 254.7 254.8 257.4 263.5 267.2 267.9 264.3 265.1 271 273.4 271.1 270.1 273.2 274.5 273.4 273.4 273.5 272.9 275.9 276.7 278.2 280.3 281.2 281.6 282.8 283.5 283.3 282.8 285.7 286.4 287.5 288.4 290.4 286.7 291 292.5 295.7 301.2 305.1 308.6 312.1 315.8 320.8 326.2 331.1 335.8 340.6 345.3 353.6 362.4 366.2 370 376.3 374.8 370.1 364.8 361 357.5 360.9 360.1 359.1 365.3 363.7 363.9 361.3 356.5 354.3 348.4 349.8 351.4 349.4 348.6 345.3 340.5 335.2 329.2 326.3 324.8 321.7 317.2 312.9 308.2 305.9 302.4 301.2 298.2 297.2 297.5 297.7 294.3 290.1 287.4 284.3 281.6 276.2 273.6 270.5 268.2 265.9 261.5 257.6 251.8 246.3 240.9 236.1 232.4 229 226.3 220.9 216.6 210.5 203.4 194.5 183.5 175 172 170.3 170.1 171.6 170.8 166.9 167.3 169.4 167.9 165.3 162.1 159.9 158.9 156.3 153.1 147.7 143.6 141.2 137.7 134 129.9 125 120.2 114.2 108 104.4 100.7 97.3 96.4 95.1 92.8 89.9 87.8 84.5 79.9
32.4 36.5 39.2 42.5 51.5 63.4 76.2 88.5 103.1 116 126.9 138.1 150.2 164 177.6 185 189.4 197 215.6 224.1 229.4 230.7 228 217.9 210.9 202.5 197.8 196.9 202.9 214.5 218.7 223.2 226.1 223.3 233.7 243.2 249.5 255.6 256.8 257.4 256.5 254.9 253.8 253.1 253 254.3 254.2 254.5 254.9 253.7 251.8 255.1 258.6 262.1 264.2 261.2 258.4 262.9 266.8 265.7 259.3 264.8 268 268.5 266.3 268.9 269.4 268.7 272.8 274.4 274.1 275.2 275.6 276.6 277.1 277.5 278.8 280.1 281 281.5 282.8 284.8 285.9 284.4 288.7 289 291.8 297.1 303.5 308.1 312 316.7 324.1 329 334.5 339.3 342.8 350.4 357.4 362.6 363.8 362.8 365.2 364 362 354.4 359.2 351.5 354.1 350.7 344.4 349.3 350.3 346.7 338.6 332.6 326.3 333.6 336.9 338.6 338.4 336.3 332.9 328.4 325.7 325.2 324.4 323.3 321.2 317.1 313.7 310.8 309.2 308 306.5 304.7 303.1 302.1 302.4 301.2 297.6 294.3 290.6 286.8 280.4 276.3 275 272.7 266.1 262.8 257.7 251.9 246.5 241.5 236.2 231.4 228 224.2 222.3 217.2 209.8 200.9 190.8 188.9 187.4 184 178.1 176.8 179.9 180.3 180.3 180 181.6 180.7 178.7 176.1 173.3 170 165.9 160.5 152.5 147.7 144.8 141.2 137.2 132.7 126.5 119.5 112.2 107.3 103.8 101 98.9 98.6 97.6 94.2 89.3 85.2 81.1 77.4
30.7 34.2 36.5 39.7 49.6 59.2 72.6 85.9 99 111.5 123.1 134 146.7 160.7 172.3 176.2 181.3 191.2 203.9 214.3 217.5 216.4 210.3 200.1 191.4 190 191.3 196.8 201.5 209.1 212.7 206.9 216.7 231.1 239.1 245.8 248.4 251.7 254.7 258.2 254.1 251.9 253.4 252.5 251.6 253.1 253 252.5 255.7 254.9 249.6 256.7 259.3 261.4 257.5 255.4 258.9 257.5 257 256.7 255.2 258 262.5 262.5 262.3 263.4 263.1 263.8 267.4 270.7 270.6 270.1 269.5 270.8 272 272.5 273.6 274.4 277.2 277.9 278.9 281.2 282.5 282.5 286.4 286 290.5 294.4 300.1 305.8 310.7 316.4 324.7 330.9 335.5 340.4 348.8 354.3 355.8 354.4 353.1 351.7 350.5 349.4 348.4 344.5 350.1 345.2 339.6 333.9 327.5 324.5 323.2 318.5 316.7 316.8 317 320.8 325.6 327.8 328.2 325.7 324 323.7 323.2 322.7 322.3 321.7 320.3 317.5 315.4 313.5 312.7 311.4 309.9 308.6 308.2 309.1 309.4 308.8 305.3 301 296.7 293.9 287.7 284.4 279.7 274.4 266.2 262.5 257.5 253.9 249 244.7 239 232.7 225.6 221.9 218.2 216.3 205.9 201.9 200.7 200.3 198.4 195 191.7 188.4 191.2 193.6 193.8 192.3 190.7 187.8 185.1 184.1 181.6 177.7 172.4 164.9 155.3 148.2 144.4 140.5 136.6 131.5 123.3 117.1 111.3 107.8 105.2 104.6 102.2 101.3 98.4 94.4 90.4 84.9 81 77.8
30.1 32 34.4 42 50.5 58.9 70.7 82.8 94.7 110.8 126.3 140 150.4 163.6 164.6 169.1 180.5 184.4 188.8 190.8 195 195.7 188.1 182.5 181.8 183.2 188.9 194.1 188.3 187.7 190 219.7 221.8 228.5 240 247.1 249.7 248.5 248.3 252.4 251 251.6 253.7 250.6 250.3 251.1 251.1 250.6 251.9 250.7 249.4 257.2 254.2 251.8 254.2 253.2 252.7 250.2 251.8 251.4 247.1 252.5 251.9 255 254.3 256.1 256.6 257.4 260.7 265.2 265.8 265.1 264.4 264.5 265.7 266.9 265.6 269.1 271.5 273.6 276 278 276.3 281.4 284.1 285.2 288.9 292.8 296.9 302.5 309.2 316.3 325.2 330.7 335 346.2 351.9 354.7 355.6 353.5 350.8 347.9 344.1 340.5 337.6 338.4 332.7 328.3 327.3 323.1 319.4 316.4 310.2 308.5 308.3 308 307.4 311.6 316 318.9 319 319.6 319.9 320.9 321 320.8 320.3 319.8 318.9 317.9 316.6 314.6 313.7 312.4 311.5 310.8 309.6 309.4 309.8 309 307.2 303.9 300.9 296.9 291 285.7 280.1 274.3 266.5 261.9 257.6 256.2 252.6 247.3 240.6 228.6 228.7 224.5 219.9 214.5 214.6 211.2 210.1 208.4 207.2 206.9 206.1 205.1 206.4 206.7 205.6 202.1 198.4 193.7 189.1 187.7 185.5 181.7 175.4 166.7 157.4 149.6 142.8 137.6 133.5 130.4 121.9 120.1 116.3 112.9 109.2 106.7 104.9 102.9 99.4 94.4 89.9 87.5 82.4 82.5
31.5 37.1 41.8 47.2 52.1 59.3 75.4 91.3 103.2 112 130.6 133.3 134.6 146.7 162.8 182.4 184.2 182.5 179.2 175.1 173.6 171.6 172 172 171.5 176 183.7 178.6 179.1 198.5 208.9 216.4 215.7 223.2 230.5 233.7 239.6 244.9 244.9 244.7 245.1 247.3 248.6 249 249.1 249.8 248.2 245.4 246.9 246.9 245.7 248.5 249.3 249.3 245.4 245.2 246.1 244.9 246.1 244.9 245.4 243 244.8 246.9 248.2 249.6 249.7 250.4 251.6 254.3 257 258.3 259.4 259.5 259.6 260.7 257.4 263.8 266.6 268.6 270.9 268.4 275.1 280.8 279.5 284.5 287.6 291.5 295.8 301 308.7 317.9 325.6 335.2 348.8 355.2 361.1 358.6 357.1 356.4 358.9 354.9 346.4 336.9 335 328.4 323.1 320.8 316.5 312.1 309.9 305.5 303.3 301 299.1 302.6 303.1 307.7 312.5 313.5 313.8 315.3 317.4 317.8 318.5 318.8 318.3 317.6 317.5 316.8 315.6 314.6 313.6 312 311.2 311.1 309.5 309.9 309 308 306.5 302.7 299.4 296.9 289 282.2 276.2 270.3 264.9 261 259.2 255.2 252.1 246.8 244.2 239 234.7 232.4 228 224.1 221.3 218 215.8 214.8 215.6 216.3 217.4 217.1 216.7 214.8 212.4 208.3 203 195.8 192.3 188.8 185.9 182.6 176.9 168.8 159.7 149.5 142.3 135.2 135.8 135.9 131.2 127.8 124.1 119.7 113.9 109.3 105.4 103.2 99.7 94.6 89.9 85.7 87.5 88.1
37.3 41.6 46.3 50.4 54 60.5 72.9 97.9 118 118.5 128.1 134.9 131.8 151.6 176.5 182.7 181.8 179.5 176.5 169.4 160.3 161.4 162.7 165.3 164.8 164.4 164.4 167.8 181 193.7 199.8 204.6 209.5 215.5 227.6 235.5 235.4 238.1 240.3 242 243.8 246.4 248.2 249.2 253.7 254.4 252 249.5 242.3 240.8 243.5 248.7 245.8 243.1 240.9 240.8 244.3 241.7 241.2 243.2 241.1 238.7 239.9 242.1 242.8 244.2 243.5 245.5 247.3 247.7 248.3 249.7 251.6 252.1 254.3 256.1 254.5 258.2 260.4 263.8 264.7 266.3 272.1 277.2 280.1 283.8 287.3 290.9 294.4 300.4 308.9 318.6 328.9 344.3 353.2 367.4 382 362.4 358.9 354.4 352.7 355.8 348 338.1 328.3 319.7 313.7 309.7 305.6 304.8 300.8 297.7 294.5 293.8 291.5 293.1 298.3 302.6 307.2 308.4 308.7 311.5 315.5 317 316.6 316.7 316.1 315.5 315.1 314 313 312.6 312.2 311.3 310.7 310.4 310.2 309.7 309.1 308.3 306.4 304.1 300.3 295.3 286.7 278.6 274.6 270.8 269.7 266.8 263.9 259.8 255.9 251.5 248 243.4 241.9 237.5 233.3 230.4 227.8 225.7 223 221.8 221.6 222.8 225.9 224.8 222.2 218.9 214.9 211.1 205.7 197.8 191.1 186.8 182.3 180.5 177 169.7 159.4 152 144.9 141 141.5 141 137.8 134.2 129.4 122.9 116.1 111.5 107.4 103.7 96 96.4 93.4 92.7 93.4 95.7
40.1 44 49 52.8 56.9 62.1 72.7 85.7 96.9 105.4 113.6 124.6 126.1 155.4 158.7 163.4 171.3 167.5 163.1 155.5 150.2 151.5 155.5 159.5 163.4 157.5 159.2 171 175.7 180.3 193.8 207.7 214.4 224 230.4 236.4 240.2 238.3 239.3 247.6 253.5 254.4 253.3 251.7 254.5 253.9 252.4 249.7 243.1 236 242.1 245.4 243.5 238.7 234.4 238.1 237.7 237.2 237.4 239.3 238.9 237.1 236.5 237.9 238.3 239.1 238.6 239.9 241 242 243.7 243.8 245.4 246.8 249.1 251.9 249.5 254.8 257.5 258.4 260.3 266 266 276.2 278.7 281.9 286.2 289.8 294.8 301 309.1 323.7 337.4 346.2 354.5 375.1 381.4 377.9 358.8 353.2 349.2 345.2 340.6 333.3 324 313.4 305.7 302.1 296.6 292.3 290.9 288.5 286.2 284.7 284.7 284.3 292.9 298.2 302.7 303.9 307.3 310.4 312.8 313.9 313.7 314.1 313.7 313.1 312.1 311.5 310.9 310.6 310.3 309.7 309.2 309.2 309 308.6 308.1 306.8 305.5 302.6 299.3 293.6 286.2 277.6 275.5 274.5 272.6 268.8 266.6 262.6 258.6 254.9 252.3 249.4 247 242.3 239.3 237.6 234.6 232.2 231 229.9 229.4 229.8 229.7 228.2 223.4 217.2 211.7 210.8 206.5 200 193.7 187.9 180.8 176.7 175.3 169.4 159.6 153.9 149.2 145.6 144.5 143.7 140.4 136 130.9 124.6 116.5 110.4 104.3 105.7 107.7 101.5 99.2 99.6 101.7 103.9
42.5 46.6 51.5 55.6 58.6 62.7 68.8 77 86.9 96.6 105.2 119.1 125.3 132.6 142.8 150.5 153.6 150.4 144.4 140.6 140.1 142.9 147.4 148.3 158.5 153.7 153.5 165.4 170.5 182.7 193.8 204.7 213.8 224 229.6 232.5 235.7 237.1 241.6 251 252.3 254.3 251.3 248.5 249.9 251 248.9 246.4 241 234.3 236.8 235.6 234.5 231.8 233.1 233.2 235 233.4 236.5 234.3 234.7 234.2 234.2 234.1 234 235.2 233.3 236.6 238.7 236.1 240.6 239.2 241.3 243.1 244.3 241.1 248.7 251.9 253.8 256.2 260.2 264.1 268 272 275.3 280.1 285.1 289.5 294.4 300 313.3 328.1 336.1 342.8 351.9 368.7 379.6 378.2 374 354.7 347.7 341.2 333.8 327.2 315.8 306 299.3 293.8 291.6 284.8 282.9 281.9 280.8 280.6 280.3 280.5 288.4 293.7 299.8 303.8 308.5 309.6 310.4 311.1 311.3 311.3 310.9 309.7 309.6 309.2 308.9 308.6 308.3 308 307.7 307.2 306.8 306.6 306.2 305 303.6 301.1 297.5 291.3 285.7 278.9 275.9 275.1 275.1 273.8 269.6 265.5 261.4 259.2 256.4 254.2 251.1 247.6 245.1 243.9 242 239.8 238.1 237.5 236 234.9 232.2 228.9 225.5 220.7 215.4 206.3 205.6 201.4 196.4 190.7 184.6 175.2 172.9 169.9 161.3 157 153.1 150.5 147.3 143.9 140.3 134.9 130.3 122.5 113.6 113 110.3 109.5 107.8 108.7 107.7 107.8 108.6 109.2
45 49.2 51.6 53.6 57.5 63.1 65.9 70.8 81.8 90.7 97.8 102.6 117.1 123.6 132.2 134.9 135.2 132.3 128.1 126.6 126.4 131.4 138.8 145.9 143.5 146 146.9 158.1 169.5 186.5 197.9 204 212.4 221.1 227.5 232.7 236.1 237.8 242.5 243.9 245.6 246.3 245.9 244.4 245.3 246.1 246.4 243.8 239.3 234.1 230.9 231.5 229.3 230.2 228.5 229.8 228.3 230.1 232.8 230.1 230.1 229.3 229.9 230.8 231.3 231 229.3 231.6 231 232.6 232 235.6 239.9 238.8 236.7 236.7 244.8 247.7 249.5 251.9 258.9 262.6 267.2 269.9 273.9 279 282.7 287.4 293.7 300.6 319.9 325.2 329.6 334.7 348.4 356.9 367.7 371.2 367.9 362.5 347.2 336.6 328.7 321.8 309.7 302.7 295.2 291.1 288.3 282.2 279.6 278.3 278.2 277.8 279.5 280.9 286.6 293.8 300.7 304.2 306.1 306.7 307.6 308.4 308.3 306.8 306.6 307.3 306.5 306.8 306.5 306.2 305.9 305.6 305.5 304.7 304.5 304.6 304.2 302.9 301.6 299.5 296.1 292 286 281.7 280.9 278.8 276.6 275.6 272.1 268.3 264.9 261.8 259.3 257.6 254.9 252.1 251.1 249.9 248.3 246.4 243.9 241.9 239 235.5 232.2 229 225.2 220.7 215.7 209.3 200.3 199.6 195.9 191.3 186.4 179.3 172.8 170 164.4 159.6 158 155.2 150.4 144.1 138.8 133.1 127.9 121.9 119.4 116.6 114.1 114.6 115.9 116 115.1 114.6 113.6 112.4
46.4 50.3 53.1 51.6 56.4 62.1 66 72.7 80 85.7 93.6 100.9 108.6 114.7 118.2 119.9 115.9 112.1 108.8 110 115.2 120 127.7 133.5 136.5 137.9 149.6 154.1 171.9 184.6 195.5 204.6 217.1 227.3 229.4 234.8 238.1 240.3 238.7 238.7 240.8 243 241 239.6 241.5 239.2 239.9 237.3 234.6 229.8 231.8 226.8 227.3 227.1 226.6 225.2 225.4 227.2 227.1 224.9 225.3 225.6 224.8 226.3 228 227.7 226.2 227.2 225.8 228.9 225.8 230.3 231.9 233.2 232.3 235.9 237.6 237.1 246.5 251.7 255.7 260.1 264.1 267.4 271 276.1 280.7 287.3 302.7 311.1 319.9 323.6 327.2 337 349.4 347.3 349.6 351.1 352 350.7 343 333 321 312.4 303.7 298 293.4 288.1 285.5 281.4 279 277.6 276.7 279.3 282.3 285.6 290.8 296.6 299.5 302.3 303.3 303.9 304.9 305.5 304.4 302.6 302.1 302.2 303.6 303.4 303.5 303.2 302.9 302.9 303.6 302.6 302.5 302.6 302.1 300.8 299.5 297.1 293.7 291 288.9 286 283 280.3 278.7 277.2 274.9 271.5 268.1 265.4 263.1 260.8 259.4 258.2 257.1 254.4 253 250.4 246.8 243.7 240.6 237.1 233.5 229.2 224.3 218.4 212.4 205.9 200.2 196.2 193.9 189.5 187.2 182.5 176.1 171.5 168.5 164 161.6 156.7 149.8 142.9 136.2 130.1 129.4 127.7 125 123.6 122.4 122 122.9 122.9 121.4 119.2 117.3 115.1
44.1 47.8 50.3 49 53.7 59.8 64.6 71 77.4 83.4 91 97.6 98.5 101.2 103 102.8 100.1 95 94.6 101.3 106.6 111.1 118.4 123.6 125.1 134.5 140.3 155.4 173.8 187.2 198.6 210.9 218.7 223.8 231.4 237.2 236.2 237.6 236.5 236.2 238.7 236.9 237.5 232.8 232.2 233.7 234.2 230.1 226.7 224.5 223.6 225.4 224.9 222.6 222.8 221.9 223.4 221 220.7 221.8 223.2 221.5 222 220.8 224.3 224.6 221.1 222.4 222.3 223.3 223 229 228.9 226.4 231.9 233.3 234.8 236.8 243 247.3 251.9 255.9 258.3 263.5 267.6 272.1 278.8 296.7 306.4 312 317.1 320.7 327.4 336.8 339.1 337 338.5 335.2 330.3 325.7 320.7 314.7 309.2 302.7 296.8 292.2 286.6 284.8 281.9 281.2 277.1 277.4 279.1 283 289 291.9 294.7 297.7 299.3 300.5 301.1 301.3 300.8 301.2 301.3 299.4 298.7 299.4 301.6 301.7 300.7 300.3 300 300.7 301.6 300.4 300.5 300.7 299.9 298.6 297.3 295.3 293.2 291 288.8 286.9 285.5 282.8 280.6 279.5 277.1 273.7 270.8 269.3 267.3 265.1 263.6 262 260.2 257.3 255.6 252.3 249.1 245.5 242.1 238.7 234.5 229.7 224.6 218.5 213.7 208.2 201.1 194.8 192.8 190.8 187.2 182.7 178.3 173.8 169.7 165.2 160.7 154.6 145.6 139.1 138.8 137.2 135.5 133.5 132.1 132 130.9 129.5 128.1 128 125.6 122.5 119.8 118.5
41.4 44.3 47.1 48.5 49.7 55.9 61.4 68.2 73.8 79.2 84.5 87.5 85.6 87.4 87.6 85.4 85 83.5 87 93.1 100.4 105.7 111.3 116.5 113.5 128.7 141.8 158.6 175.3 186.4 195.5 206.4 214.2 220.5 225.2 229 231 233.2 232 231.8 228.9 229.1 229.6 229.7 227.7 226.9 222.2 222.6 222.2 220.4 223.7 223.9 224.9 223 220.7 219 219.9 219.1 215.9 215.3 218.2 216.1 218.1 219.2 220.9 221.2 220 219 220.6 220.8 221.8 224.2 225.1 225.2 228.4 228.1 231.2 235 241.2 245 247.7 251.4 250.8 257.6 263.4 274.6 291.6 303.3 308.8 310.7 313.9 318.1 325.7 329.2 328.4 323.6 320.7 315.8 311.1 307 299 295.2 295 292.5 287.4 285.4 281.2 278.2 276.9 272.6 278.1 282.2 286 289 291.9 294.6 296.7 298 298.6 298.5 298.4 298.6 297 297.3 297.9 297.1 296.8 297.7 299.3 300 299.6 299 297.2 298.2 298 298.5 299.1 299.1 298.6 297.7 296.6 295.8 294.6 292.4 290.2 289.3 287.6 285.3 282.7 281.6 279.1 275.9 274.9 273.1 271.3 269.4 266.8 264.6 262.8 260.3 257.3 253.6 251 247.2 243 238.1 233.7 229.2 223.7 218.7 215.2 209.3 203.8 196.6 190.4 187.2 183.1 180.7 176.9 172.2 166.7 161 156.1 153.6 150.1 149.1 148.6 146.8 142.6 140.9 140.6 140.1 138.8 137 135.4 131.6 128.9 126.6 123.7 121.3
40.6 42.8 45.4 46 46 50.8 57 62.8 68.8 71 74 75.6 74.3 74.7 72.4 70.9 72.2 76.7 81.7 88.2 94.8 98.8 102.1 106.9 109.9 127.9 144.6 162.4 176.8 187.8 196.9 206.5 211.3 216.4 220.1 222.2 225.2 227.5 225 224.1 223.5 224.7 226.8 225.8 224 218.6 218.4 218.9 216.1 220.9 222.7 224.8 224.1 222.3 219.8 219.7 216.9 218.2 217.3 213.9 212.2 213.5 214.4 215 215.7 216.7 217.4 215 217.6 217.8 219.7 220.9 220.1 222.7 226.2 226.5 230.6 234.1 237.5 242.1 245 246.2 246.4 252.7 258.5 287.3 297.5 301.4 304.2 306.8 312.4 316.3 319.8 317.7 313.6 309.1 304.5 300.1 294.1 288.4 284.4 284.8 284.9 281.8 277.9 275.8 271.9 269.2 267.1 273.9 280 284.8 288.5 290.6 293.5 295.4 297 298.3 298.3 297.4 295.9 295.5 295.1 294.9 295.2 295.1 295.2 297.4 297.2 297.9 297.7 297 294.6 294.8 294.5 295.3 296 296.7 296.8 296.1 295.5 295.1 294.6 293.8 291.8 291.3 289.6 288.4 286.7 283.9 281.3 280 278.4 276.2 274.1 271.8 269.4 267.2 264.4 261.4 258.1 254.2 249.9 245.4 241.9 237.2 233 228.6 224.3 220.7 216.6 211.8 204.8 197.6 193.3 188.7 182.8 176.2 173.5 169.1 163.5 159.5 160.6 160.5 158.7 155.7 154.5 153.1 150 148.3 147.7 147.4 144.5 142.2 139.3 135.4 133.2 131.6 129.3 128.6
38.9 40.8 42.5 43.7 44.9 46.8 51.3 54.9 55.5 58 59.1 60.3 60.6 59.3 58.9 61.5 66.1 72 78 84.7 90.5 90.7 93.3 105.2 116.3 130.2 144.6 161.6 178.5 186.8 194.2 202.7 206.7 211 213.2 217.8 222.4 222.6 222.6 221.7 220.3 223.6 222.8 220.6 221.2 212.1 216 209.2 220.7 225 226 225.6 224.6 223.2 221.4 218.5 215.7 211.1 212.8 211.4 206.6 208.4 206.8 210.5 211.8 212.4 212.5 211.6 214.8 216.6 216.2 216.8 215.3 222.4 216.2 224.6 228.6 232.8 235.2 238.7 237.9 236.2 244.1 251 258.5 288.1 294 297.6 300.3 314.2 318.1 314.7 308.3 303.4 298.2 297.7 294.6 290.2 282.3 275.6 278.7 278.2 273.9 272.3 270.4 266.9 263.3 260.1 269 275 278.9 283.1 288 291.4 293.5 295.4 297 297.4 297.1 296 294 293 292.9 293 293.6 295.3 295.2 295.7 296.2 295.6 295.1 294.4 292.2 292.1 291.2 291.4 292.5 293.6 294.2 294.8 294.7 294.3 293.8 293.3 292.9 292.1 290.6 289.6 288.4 286.3 284.6 282.5 279.7 277.4 274.5 272.2 269.8 266.5 262.5 260.2 255.7 251.8 248.2 245.1 241 237.4 233.2 228.9 224.7 219.8 214.8 209.9 204.8 201.2 195.4 186.4 183 180.4 177.7 173.1 174.5 172.1 168.9 166.6 164.5 162.9 160.6 157.7 157.3 155.6 154.9 152.5 150.3 146.5 144.9 141.8 139.3 137.3 136.5 136
37.9 38.9 42.7 42.1 43.2 42 43.1 44.1 43.4 42.8 40.3 43.6 47.2 49.4 53.2 57.8 63 68.5 74.7 79.9 82.3 88.1 95.9 104.6 115.9 130.7 147.2 162.8 173.9 180.7 188.5 196.5 200 202.6 204.2 211.2 218.1 216.5 214.1 216.9 219.5 219.4 216.6 212.7 205.2 206.3 204.6 211.8 223.9 223.9 225.2 226.9 225.7 223.5 219.2 217.4 214.3 210.9 207.5 205.9 205.6 206.6 205.6 203.7 207 207.6 205 209.3 212.1 211.6 209.9 210.4 216 214.3 219.9 222.2 225.6 226.2 229.8 231.2 229.4 237.2 243.9 251.4 266.2 282.5 287.8 295 309.8 318.5 321 313.6 305.5 298.5 291.9 283.7 279.9 276.2 272.8 270.5 270.2 266.6 263.2 261.1 260.4 259.1 257.5 260.4 266.8 272.7 277.5 282.1 286.1 288.9 289.9 291.1 292.8 292.8 292.3 291.3 290.9 290.9 291.4 292 292.5 292.8 293.5 293.1 294.2 293.3 292.9 292.2 290.4 290.8 289.7 289.4 289.4 290.9 292.5 293.1 293.5 293.9 293.8 293.4 292.9 292.5 291.5 290.6 289.5 287.7 285.4 282.4 279.3 275.9 272.4 269.8 267.2 264.7 262.1 258.9 254.9 251.3 246.9 243.6 239.6 237.5 233.2 228.5 222.1 217.7 213.9 210.9 206.6 199 198.5 195 192.3 191.4 186.5 184.8 185.1 179.6 175.5 173.3 171.3 169.6 168.4 167.3 165.1 162.4 160.2 156.6 153.7 152.5 150.4 146.7 145 143.8 143.4 142.4
36.4 40.5 43.7 44.2 39.2 36.5 34.7 31.3 33.6 29.8 31.1 35.1 39 41.8 48.9 54.3 58.6 64.8 70.1 69.4 78.2 87.8 97.2 106.7 115.4 129.8 147.6 157.2 168.3 173 181.5 188.5 189.9 195.4 199.4 202.5 203.6 204.1 208 214 216.7 216.5 213.9 206.5 198.1 196.1 204.6 217.3 221.8 220.3 222.8 225.2 223 219.8 216 214.4 211.9 210.1 208.6 206.9 203.2 204.2 203.7 203.4 201.5 203 203.3 204.7 205.2 206.3 203.8 205.8 206.7 210.1 214.7 215.2 217.2 220.4 224.9 225.2 228.5 236.5 243.7 261.4 277.1 280.5 290.3 307.8 317.8 316.6 313.2 306.8 300.2 295.3 287.2 282.7 280.7 274.2 268.3 265.3 258.5 256.5 253.7 253.6 251.1 250.7 250.5 259.7 268.6 272.9 277.5 281 284.3 285.1 286 286.9 287.3 287.4 288.2 289.6 289.3 290.2 290.7 291.3 291.3 291.5 292.4 292.4 291.9 292 291.4 290.3 289.2 288.7 288.7 288.3 287.8 289.4 290.8 291.9 292.1 292.4 292.6 292.9 292.9 292.5 292.1 290.7 288 285.4 282.5 279.5 276.6 273.6 271.3 268.7 265.8 263 259.9 256.8 253.2 249.7 246.2 242.4 239.3 236.5 232.7 228 223.8 219.1 212.5 212.3 211.6 209.4 205.7 204.9 201.7 197.5 196.8 193.1 191.9 189.8 185.6 183.2 180.9 177.6 176.2 174.2 169.9 167.5 163.9 159.9 159.3 158 155 151.4 151.1 151.1 150.3 147.5
39.5 43.9 47 45.7 40 34.2 28.1 21.8 21.4 24.4 28.8 33.8 37.1 39.5 43.5 48.3 51.9 58.7 67 73.2 80.4 85.5 98.8 109.3 121.7 133.8 146.1 154.2 162.7 169 176.2 184 190.7 196.3 198.1 199.4 197.5 197.3 201 207.1 208.7 213.8 211.4 203.1 197 193.3 205.1 215.5 217.9 217.7 221.2 223.8 221.5 217.5 214 211.9 209.8 209.1 208 206.6 204 201.9 202.8 201.8 202 197.3 197.2 197.1 199.1 198 194.2 196.4 204.7 207.8 209.8 210 215 217.6 215.8 221.2 227.5 234.4 248.7 265.8 275.2 286.5 302.7 315.7 321.4 315.8 307.4 300.2 293.9 284.8 278.6 276.3 269.6 263.6 258.5 256.1 250.7 248.3 242.1 244.5 242 243.4 249.9 259.3 266.6 271.3 275.8 279.1 281 282.4 283.3 284.3 285.1 285.3 286 288 288.4 289.4 290 290.1 290.2 290.2 291.1 291.6 291.2 290.7 289.7 288.7 287.7 286.4 286 286.6 286.4 288 290.1 291.4 291.8 292.1 292.3 291.9 291.6 291.4 289.7 287.1 284.5 283 281.2 278.7 276 272.7 270.2 268 265.2 262.4 258.9 257 254.7 252.5 248.9 246.3 242.2 238.8 234.2 230.4 225.3 222 222.3 219.9 218.7 216.5 213.1 212.3 209.8 204.7 204.5 202.1 197.5 195.3 193.6 189.5 188.5 184.7 182.3 177.7 175.8 171.5 167.3 164.5 162.9 161.4 158.4 156.9 156 154.7 154.1 149.4
44.3 48 48.6 46 40 31.2 22.3 16.8 21 24.9 28.8 32.8 36.4 39.1 41.7 43.1 42.8 54.4 64.1 72.2 74.8 84.5 101.6 112.1 125.9 136.1 145.6 156 158.4 163.9 171.1 178.1 187.3 196.3 194.3 194.5 190.7 187.2 189.4 193.1 196.7 197.7 193.7 192.4 186.6 191 200.8 211 213.6 215.4 220.9 221.1 217.5 214.6 212.2 210.2 208.4 207.6 207.2 205.8 202.1 199.7 200.4 200 199.8 200.5 198.3 196.7 191.1 190.4 197.3 192.6 199.5 201.3 204 204.7 208.7 208.4 223.7 226.1 227 241.7 257.6 270 277.3 296.2 312.1 322.4 318.1 308.1 303.4 299.2 293.4 287 280.4 270 261.3 253.7 246.1 241.9 242.6 238.3 233.9 233.1 234.4 239.4 250.4 258.2 262.7 268.5 272.6 274.9 277.2 279.7 280.7 281.6 282.6 283 284.1 286.5 287.5 288.5 289 289 289 289 289.9 290.8 290.5 288.8 288.4 288 287 285.2 284 284.6 285.9 286.8 289.1 290.5 291.5 291.1 290.7 290.4 289.3 288 285.9 283.7 282.6 280.9 279.5 277.1 274.5 271.3 269.1 266.9 263.8 261.3 259.5 257.5 255.3 253 250.6 248.4 244.5 240.3 235.4 231.7 231.6 231.3 228.6 227.8 224.6 223.2 220.8 219.4 216.6 212.7 211.8 210 208.1 204.8 200.3 194.6 191.3 189.5 187.4 184.8 181.1 177.3 174.1 169.7 166.9 165.2 161.5 159.9 157.9 156.3 154.3 149.2
48.9 48.8 48.2 44.7 37.9 28.7 18.2 16.1 23.1 25.1 27.4 28.9 33.9 37.1 38.2 38.6 44.1 50.1 59.4 67 71.5 88.1 96.7 110.8 123.7 130.6 137.3 147.3 152.5 160.1 166.2 176.9 189.8 189.3 188.5 187.1 185.5 181.4 181.8 183.9 187.7 184.5 188.4 187.1 179.7 187.9 196.4 206 210.4 212.1 219.4 218.6 217 213.4 210.7 209.1 207.2 205.1 206 205 202.8 199.1 198.2 198.1 198 197.7 195.4 193.2 189.5 187.8 191.5 189.3 195.1 196 196.8 200.6 206.7 212.8 221.4 220.6 236 251.3 262 273.2 283.1 296.9 309.5 315.4 310.3 306.5 305 300.4 294 287.4 280.7 266.9 256.3 248.9 245.9 238.6 233.3 231.1 230.4 230.3 232.2 243.6 248.5 252.7 256.4 262.4 268.3 271.2 273.9 276.8 278 279 280 281.2 282.7 284.3 286.2 287.5 287.9 288.3 288 288.5 289.3 289.6 289.3 288.2 285.3 285.9 285.2 284.2 282.5 282.2 283.8 284.5 285.9 287.1 287.7 288.7 287.8 286.2 284.1 282.7 281.4 281.4 280.8 278.8 276.2 273.2 271.1 269.6 267.3 264.9 261.9 260.3 259.6 257.7 255.6 253.4 250.6 247.9 243.9 239.3 240.2 239.6 237.8 236.3 235.2 233.8 232.6 230.5 227.4 225.8 224.3 224.1 223.4 220.3 214.4 209.2 204.9 200.9 196.6 191.2 190.1 187.8 185.3 183.6 180.9 174.9 172.1 168.9 166.9 162.7 160.4 157.7 153.8 149.2
49.8 48.6 46 41.4 34.3 24.6 14.3 17.1 23.5 23.4 22.4 24.1 28.4 32.5 33.9 34.9 42.4 49.3 55.6 62.8 69.6 82.4 90.5 101.6 117.2 126.9 137.2 146 149.3 157.9 159.4 165.3 172 180.7 183.4 181.4 178.7 172.9 173.1 175.8 174.8 178.3 177 174.6 178.3 185 193 202.4 206.6 210.7 214.9 216.8 215.6 212.7 208.5 207.3 206.4 204.6 202.5 201.8 200.5 198.6 196.9 196.5 196.3 198 196.2 192.8 190.1 185.3 185.8 189.4 192.5 193.2 193.3 201.5 208.5 215.1 217.1 226.8 239.9 251 264.1 275.2 283.3 293 301 305.2 303.3 305.8 306.7 301 293.4 286.4 281 264 253.3 247.5 242.8 239.1 234.3 231.3 228.4 229.1 234.4 238.9 243.3 247.6 252.5 258.4 264.7 268.7 271.5 273.6 275 276.3 276 279 281.9 283.4 285 285.8 286.7 286.8 286.3 286.7 287.1 286.8 286.3 284.8 283.8 281.5 282.6 281.9 280.3 281 282.6 283.2 283.9 284 284.8 284.2 283.1 281.3 279.1 277.6 276.6 276.8 274.9 272 271.2 270 268.8 267.3 265.3 262.4 260.9 259.3 258.5 257.5 255.2 252.4 249.1 247.5 246.6 246.2 245.7 244.7 243.4 242.2 241.1 239.8 239 237.6 235 234.6 234.3 231.1 227.7 223.8 219.4 214.7 210.2 206 201.1 196.7 194.7 191.2 189.9 187.8 185.5 181.7 175.9 173.2 170.4 167.6 164.3 159.9 154.2 152.6
48 45.7 41.7 34.6 28.2 20.7 14.7 17.8 21.2 22.6 21.6 20 24.1 28.3 30.4 31.7 35.3 45.7 55 64.2 67.2 71.3 80.1 90.9 110 123.4 132.1 136.4 142.1 152.8 157 155.7 160.7 164.9 169.2 172.5 167.5 162.8 164.3 163.2 163.9 167.1 166.7 170.5 178.8 185.3 191.4 198.1 203.5 206.9 210.9 212.6 210.3 207.7 206.7 204.4 203.7 202 201 199.1 199.3 198 195.9 196.2 194.9 197.5 196.8 193.7 190.3 184.5 183.4 184.6 188.2 189.8 192.1 198.9 207.2 215.1 221.1 233.6 242.2 253.4 265.1 273.9 278.7 285.4 292.6 294.4 299.7 303.9 303.9 298 291.9 285.6 278.3 258.2 248.6 244.6 240.9 237.2 233.5 230.8 229.5 227.7 230.3 234.7 239.6 244 249.4 256.2 261.6 265.7 268.7 270.4 271.5 272.3 272.3 276.1 279.1 281.2 283 284.2 285.3 285.3 284.4 284.4 284.9 284 283.1 281.7 280.2 279.6 279.4 277.5 278.1 277.8 279.7 281.1 281.1 280.8 280.1 278.9 277.7 276.3 275.4 274.4 272.8 270.4 268.8 268.8 268.4 267.7 266.4 264.9 263.2 261.4 259.9 258.5 257.3 254.8 252.9 251.2 250.5 251 251.2 250.6 249.8 249.9 249 248.2 247.1 245.7 244.5 242.6 241.9 239.7 237.5 233.3 231.2 227.7 223.5 220 215.7 211.3 207.6 202.9 199.3 196.8 194.6 192.1 189.3 183.9 180.4 175.7 172.5 169.3 166.5 164.6 160.9 156.2
43.7 40.2 35.9 28.8 20.6 13.1 13.1 16.8 19.1 19.3 18.8 18.3 19.6 23.5 26.4 26.7 33.7 43.8 53.1 65.2 68.6 69.9 76.1 80.6 91.2 104.2 122.9 127.8 132.6 135.9 143.8 150.6 149.1 148.6 150.3 154.2 153.1 153.1 150.6 153.5 157.2 160.3 159.6 167.8 173.9 181.6 188.7 194.8 200.5 203.1 208.5 210 208.6 207.9 207 204.2 202.7 201.2 200.8 200 198.7 199.9 197.9 194.9 192.9 192.4 190.2 189.2 188.1 183.4 181.9 182.4 186.2 190.1 191.7 197.3 212.8 217.3 226.6 235.7 240.2 255.5 266 269.9 272.9 277.1 279.2 282.6 292.2 298.4 300.2 294.3 287.4 278.3 266.6 253.5 243.8 240.4 238.3 234.7 230.8 226.6 223.6 222.3 227.9 233.3 236.6 241.4 246.5 253.3 259.3 262.9 264.6 266.7 268.1 268.9 269.1 271.8 275.2 277 280.5 282.5 283.8 284.8 283.6 281.4 282.8 282 280.8 279.3 277.2 277.1 277.1 275.8 272.4 269.7 272.3 272.7 274.1 275.3 272.5 272.1 270.7 271.3 270.6 270.1 267.9 266.3 265.4 265.7 265.8 265.5 264.6 263.2 261.7 260.4 259.2 258 255.5 254.4 253.8 254 254.5 256.4 256.4 255.7 255.1 255.8 254.7 253.5 251.9 250.3 248.2 245.9 243.6 241.4 239.1 236.1 233.5 230.6 227 224.2 220.4 217.2 212.1 207.3 204 200.5 197.7 194.8 192 189.2 184.2 177.1 173.9 170.7 167.9 166 163 158.5
36.3 33.7 28.8 20.8 12.5 9.6 10.5 16.1 18.9 17.3 17.4 18 19.7 21.1 22.5 26.6 33.2 42.1 52.1 59.7 68.2 68.2 70.8 75.7 83.5 93.8 110.5 121.9 125.5 130.5 132.4 135.7 139.1 141.7 142.1 142.6 139 141.3 141.6 148 152.3 153.3 156.9 161.2 167.4 177.2 185.1 190.8 196.4 200.3 206.3 208.3 207.3 207.8 206.8 204.8 202.7 203.1 203.6 203.1 202.3 201.4 199.9 198.6 196.6 197.4 195.3 192.2 189.1 187.2 185.8 180.6 182.7 191.3 195.3 203.5 207.7 212.1 218.5 228.1 243 256.2 267.7 263.4 263.3 263.7 264.4 274 284.6 289.5 289.1 286.6 279.5 269.4 257.6 246 239.1 237.3 235 231.7 227.8 223.4 219.7 219.6 224.2 230.3 235.1 238.9 244.3 249.5 254.8 258.3 260.9 263.1 263.5 264.8 269.7 272.7 275.2 277.6 279.9 282.6 283.9 284.9 283.9 282.3 279.9 280 279 277.3 276.1 273.2 274.1 270.6 269.4 267.4 265.9 263 264.1 264.4 264.8 265.1 263.8 265.2 263.1 260.7 261.5 260.3 261 261.1 261.9 262.7 261.2 260.1 259.4 257.9 257 257 256 256.1 257.1 257.8 259.2 261.3 262.5 262.5 261.8 260.5 259 256.9 254.7 252.4 250.2 247.9 245.2 243 240.8 237.9 235.5 231.6 229.9 226.6 223.2 219.3 215.3 210.6 207.2 203.4 200.2 197.4 194 190.5 188.6 184.5 179.9 173.2 169.4 166.8 162.9 157.9
26.6 23.8 19.3 12.3 6 6 10.1 17.2 18.6 17.9 16.4 18.1 19.4 19.2 20.5 26.7 33.5 39.7 47 54 61.4 63.3 65.9 75.1 76.7 81.7 90.5 100.4 113.3 119.8 127 131.3 139.3 137.9 135.6 133.1 131.3 133.4 137.1 143.5 144.3 142.9 149.4 154.5 163.7 172.4 181.2 187.2 191.9 195.8 202.9 206.2 206.5 206.8 206.6 204.6 205.9 206.2 205.5 205.2 204.4 203.3 202.5 202 201.1 198.9 196.5 194.2 190.6 188.4 186.4 180.4 180.5 188.9 191.6 199 200.6 207.3 216.2 228 239.2 252.3 258.2 256.8 254.5 254.3 251.5 258.6 268.6 274.8 274.1 271.3 264.1 257.3 249.1 241.5 235.6 230.8 227.7 223.7 221 219 216.9 215.8 221.1 228 231.4 235.8 241.6 245.8 251.9 255 256.9 257.3 261.9 266.1 268.8 272.1 275.2 277.8 280.1 282.5 283.8 283.7 282.6 281.6 280.5 278.3 276.9 275.8 275.7 272.5 270.9 269.1 268.5 267.4 265.6 264 260.8 256.1 257.9 257.8 256.3 254.2 253.2 253 253.9 254.4 254.3 256.1 258 257.8 258.2 257.2 256.2 256.5 256.6 256.6 256.6 257.7 258.6 259.7 263.2 265.3 266.3 266 264.8 263.3 261.1 258.9 256.6 254.4 252.2 249.9 247.2 244.4 241.5 238.7 235.9 233.9 230.8 226.9 222.8 220.1 216.6 213.3 210.1 206.3 202.1 197 193.6 189.7 188.2 185.6 182 177.4 172.4 166 163.1 157.9
13.2 11.3 9.1 6 6 6 9.7 16.2 19.5 18.9 17.1 17.8 17.5 17.3 18.3 27.2 32.8 36.3 41.7 49.2 56.8 60.2 65.2 69.9 72.2 75.3 80.9 91.3 103.1 109.1 115.4 118.7 121.8 122.8 126.2 125.5 124.5 125.3 132.5 134.8 134.3 136.5 143 150.3 160.3 168.6 176.1 181.5 186.8 192.6 198.6 203 204.9 205.8 206.1 205.9 207.3 209.7 209.7 209.3 208 207.6 207.2 205.5 205.1 202.1 199.4 196.5 193.1 191.9 189.7 185.1 179.5 180.6 185.1 188.6 199.7 207.9 215.2 222.1 231.8 242.2 250.2 247.3 245.5 243.8 244.2 246.9 253 254.2 254.3 250.8 245.2 245.2 239.8 232.9 227.8 223.2 220 218.3 214.3 212.5 210.9 213.7 218.1 220.1 225.2 234.1 241.7 246.2 245.4 250.5 255.6 258.7 261.7 264.1 266.3 268 270.8 274.2 277.3 280.6 283.5 282.8 281.9 281.9 280.7 279.2 278 276.8 275.3 273.2 271.5 269.6 267.7 265.9 263.8 261 258.1 252 252.1 249.6 247.3 249 249.8 250.6 251.3 251.7 252.4 253.7 255 256 254.5 253.6 253.6 254.9 255.3 255.6 254.9 256.9 258.9 261.5 266.2 268.4 268.7 268.8 267.1 265.4 263.2 260.9 258.5 256.3 254.2 251.9 249.2 246.3 243.4 240.6 238.1 234.8 231.2 227.4 224.1 221.3 218.1 213.8 209.3 205.9 201.5 197.3 193.1 188.8 185.9 182.1 178.7 174.2 168 164.7 159.8 159.1
6 6 6 6 6 6 8 14.9 18.4 17.2 15.8 15.7 15.5 16.4 21.8 27.8 31.3 33 39 45.9 54.7 58.7 60.7 66 64.7 66.8 71.8 78.6 91.2 96.1 101.4 103.7 105.3 106.3 110.2 113.5 115.9 117.6 123 123.7 127.6 130.6 138.2 146 154.1 157.4 165.9 179.6 186.6 192.4 197.9 201.3 202.6 204.3 205.7 206.6 207.4 212.6 214.1 214.6 214.5 215.5 214.6 212.6 210.5 207.8 205.6 203.4 201.8 200.2 198.7 191 182.4 177.3 178.6 185.9 197.5 206 211.9 215.2 220 227.3 232.6 234.1 234.7 235 235.7 236.3 236.7 236.7 236.9 233.1 230.8 229 223.9 220.7 216.5 214.3 213.2 210.7 208.6 207.5 207.6 209.3 216.4 221.5 225.5 234.9 241.3 246.6 250.4 253.8 255.3 258.5 259.3 262.3 263.7 265.4 267 269.1 270.5 274 277.1 279.6 281.3 280.6 279.5 277.9 276.4 275.3 273.5 271 268.3 265.2 263 260.4 258.4 256.6 253.4 251.1 247 243.3 243.3 245.6 246.9 246.3 246.7 248.8 250.9 251.2 251.5 251.5 251.7 251.5 251.4 252.5 253 251.3 252.8 256.3 259.1 265.5 268.1 270.4 270.8 270.3 269.1 267.5 265.2 262.8 260.5 258.2 256.1 254 251.2 248.3 245.4 242.5 240.1 237 233 228.7 225.5 222 216.9 213 209.4 206 201.4 197.7 194.8 191.4 186.9 182.1 174.5 166.4 164.1 160.9 158.4 156.6
6 6 6 6 6 6 7.7 14.8 16.6 15.6 14.6 15 15.6 17.7 24.1 28.2 30.6 30.5 34.5 42.8 52.4 60 64.9 59.7 60.3 61.6 69.2 68.2 71.6 81.6 90.1 91 94.2 98.3 102.3 105.8 109.5 114.5 116.8 117.9 119.1 126.8 135.3 139.8 152.4 162.9 171.7 180.5 186.1 192.1 194.9 200.3 201.9 203.3 205.4 206.3 208.1 213 216.3 219.4 223.6 223.6 221.8 218.7 217.4 215.8 213.9 213.8 208.9 211.2 216 202.8 190.2 181.7 175.9 180.7 194.6 200.8 204 207.3 211.3 213.1 218 219.8 222.7 225.2 223.9 223.6 224.3 224.6 222.1 218.6 215.9 212.9 210.7 207.4 208.9 209.1 208.4 205.1 204.5 206 206.7 208.8 216.9 220.8 229.9 238.3 242.8 245.4 249.1 252.4 254.5 255.8 257 259 261.4 262.9 264.4 264.8 265.6 268.1 267.4 268.9 272.4 273.9 274.3 272.9 270.7 268.3 266.3 263.9 261.2 259 257 254.6 253.5 252.6 252 250.4 247.6 244.1 241 241.6 242 243 244.7 247.7 249.9 250.1 249.9 249.7 249.7 249.5 249.5 248.6 247.5 247.9 251.4 258.2 263.4 267.4 269.6 271.5 271.5 271.1 269.9 268.5 266.6 264.7 262.5 260.1 257.9 255.5 252.9 250.2 247.3 244.4 241.9 238.7 235.2 230.1 225.6 220.2 215.8 211.6 209.1 205.9 203.8 201.7 197.6 192.7 185.1 175.4 171.4 168.5 167.9 167.1 167.3 167.9
6 6 6 6 6 6 8.1 13.3 14.1 11.9 11.6 11.9 14.3 17.8 23 26.7 28.5 29 30.4 38.7 46.9 54.9 61.2 61 58.3 57.7 60 61.2 61.7 64.9 74.8 79.5 82.4 90.4 97.4 100.4 104.7 106.4 108.6 109.8 115.3 120.3 129.3 139.3 144.9 154.6 164.4 178.3 187.3 194.1 197.9 202.7 205.5 206.1 206 207.6 209.5 211.7 216.9 223.5 228 230 229.2 226.8 226.7 224.3 224.1 222.8 225.5 223.6 219.6 211 201.6 193 185.1 174 184.5 191.9 199.2 202.9 203.4 205.4 208.4 212 214.7 215.1 214.3 213.4 211.5 210.1 209 206 204 201.4 198.7 199.8 201.6 200.6 201.1 199.9 200.1 202.9 202.8 207.4 214.5 222.7 230.5 236.1 240.4 243.2 247 249.7 251.5 252.8 254.7 256.7 259.6 261 261.8 262.7 264.2 264.1 263.6 263.9 262.7 263.7 263.5 262.5 261.7 261.3 258.9 257.2 254.8 252.7 252 251.3 250.9 250.5 249.9 248.4 245.2 241.5 239.9 240.8 242.1 244.2 247.2 248.8 249.4 249.2 249 248.5 247.3 247.1 247 245.2 247 248 253.4 259 263.4 266.8 269.4 270.6 271.1 270.8 270.1 268.6 266.8 265 263.1 261.1 259.2 256.6 254.1 251.5 248.8 245.9 243 239.9 235.2 229.8 224.8 220.7 215.6 212.4 209.3 206.9 204.6 201.6 195.5 189.2 179.9 179.5 176.8 177 178.8 179.7 179.7 178.8
6 6 6 6 6 6 6 9.9 11.1 9.7 9.5 10.2 10.7 12.2 16.5 21.4 24.8 25.1 27.7 32.9 39.1 45.2 50.6 54.5 55.6 53.6 53.5 54.7 57.5 61.9 65.4 69.4 76.9 86.6 93.1 95.8 97.3 101.3 99.3 106.3 114.5 115.1 121.1 132.8 140.3 153.2 170.6 181.7 191.1 196.8 200 204.6 210.3 209 209.1 210.3 212.8 216.5 220.5 228 231.8 235.1 237.4 235.9 236.1 234.7 234.9 236.2 238.4 235.1 234 227.5 217.8 210.9 196.2 185.6 172 178.3 188.7 195.9 199.9 200.3 198.7 203.9 202.9 201.6 200.6 200.3 198.9 197.4 196.9 194.3 194 192 190.6 192.5 193.1 193 192.9 193.4 193.7 192.2 188.6 207 212.1 220.9 229.9 234.5 238.2 241.5 243.8 246.3 249.6 251.6 253.7 254.7 255.7 256.6 258.4 260.8 262.5 262.2 261.5 259.3 259.1 257.5 257.3 256.3 255.2 254.9 253.3 251.5 250.1 249.2 248.6 248.1 247.5 247.3 246.8 244.4 241.6 240.3 239.4 240.7 243.3 246.4 248.7 249.8 250.1 250.1 249.3 248.1 245.9 244.5 244.9 245.4 246.3 248.1 251.9 256.8 261 264.4 267.5 269.6 270.3 270.4 269.8 268.7 267 265.2 263.3 261.5 259.5 257.5 255.2 252.7 249.9 246.5 242.8 238.9 234.4 229.5 224.6 220.1 216.7 213.5 211.3 208 205.4 198.3 190.8 187.7 182.9 185.5 185.7 186.8 188.2 188.3 187.9 186.3
6 6 6 6 6 6 6 6 6 6 7.3 8.6 8.8 9.2 10.9 15.4 18.8 20.7 22.7 24.7 28.8 38.5 39.9 39.8 45.6 50.2 47.2 48 52 54.9 63.7 68.3 75.6 82.3 87.4 90.6 91.8 93 99.8 107.4 113.4 108.6 113.9 131.3 143.2 155.9 170.8 181.1 190.1 197.4 201.2 205.5 210.2 210.9 212.3 214.8 217.4 222.1 228.2 232.5 236.7 240.7 244.1 244.6 246.8 247.7 250.9 251 252.9 253.6 256 250.2 233 218.9 207.1 195.3 185.7 170.4 172.9 181.6 187.6 194.8 191.2 192.3 195.7 194.3 189.5 187.5 185.4 184.3 184.4 184.6 185.6 184.8 184.8 187.8 187.3 187.4 188.2 188.1 188.5 186.4 197.7 203.6 213.1 219.3 227.7 231.6 235.2 238.6 241.4 244 246.9 249 251.3 252.5 252.7 254.3 255.5 255.7 257 256.4 255.5 252.6 252.7 252 250.2 248.5 248.5 248.9 248.1 247 245.6 245.4 244.5 243.6 242.9 241.9 240.7 239.2 238.4 238.7 240.4 242.1 244.7 247.9 249.5 250.8 252 252.5 252 249.7 248.6 248.6 245.9 243.9 244.6 245.3 249.9 253.9 257.8 261.4 264.7 267 267.9 268.4 268.4 267.1 265.7 264.1 262.5 260.9 259.1 256.8 254.6 252.2 249.1 245.8 241.5 237.2 231.9 230.2 226.6 225.8 223.3 218.6 214.1 208.8 203.5 198.9 192.6 190.3 190.1 191.6 191.5 190.8 192.1 191.3 190.4 189.1
6 6 6 6 6 6 6 6 6 6 6 6.7 7.8 8.5 9 10.4 12.6 12.7 15.3 18.4 21.3 26.4 31.7 33.5 38.5 42.7 42.6 44 48.9 52.8 56.3 65.5 72.9 78.6 82.4 81.5 83.3 91.9 97.9 105.3 108.5 104.9 114.1 131.1 147.5 161.7 174.2 182.7 190.8 197.9 202.4 206.7 210.6 213.4 215.3 218.6 223.3 228.6 235.3 239.3 242.1 248 251.4 256.6 256.9 261.1 266.7 271.1 275.4 271.5 259.2 251 240.7 227.9 214.2 200 188.7 181.8 168.6 164.1 168.3 176 178.6 185.7 185.8 185.5 184.1 178.1 173.1 170.1 172.2 174.1 176.1 177.6 178.9 178.9 180.5 181.8 183.4 183 184.6 190 197.2 204.1 209.9 218.2 226 230.2 233.5 236.9 240 241.8 244.2 246.3 247.5 249.5 250.8 249.5 249.2 248.9 248.3 247.9 248.1 245.2 245.8 243.9 243.5 241.8 241.7 242.2 241.5 239.9 239.5 240.3 240.2 238.4 237.7 237.1 236.2 236.3 238.5 240.6 244.1 245.3 247.3 249.4 251.2 253 254.5 254 252.8 251 250.2 249.5 246.9 242 242.1 243.2 245.3 249.3 253.6 256.7 260.4 262.4 262.8 263.8 263.9 263.3 261.8 260.6 259.8 258.9 257.3 254.8 252.3 248.9 245.6 241.8 237.5 232 227 226.3 224.6 221.6 218.1 214.8 210.1 203.9 199.9 197.5 195 192.1 193.1 194.8 195 194.8 194.1 192.9 191.7 189.9
6 6 6 6 6 6 6 6 6 6 6 6 6 6 8.2 8.8 8.9 8.9 9.5 13.1 18 21.2 23.1 28 31.1 36 39.2 39.2 43.5 50.2 54 59.8 65 71.8 75.5 76.7 85.3 91.3 94.4 100.7 102.8 103.5 112.5 120.9 137.6 150.2 160.5 172 185 194.8 200.6 206.3 210.8 214.1 218 221.8 224.7 228.6 234.9 241.4 249.2 254.1 259.7 264.6 269.5 280 292.4 291.2 290.5 283.5 269.2 254.4 241.8 229 217.1 205.6 194.8 188.6 183 177.2 167.5 162.9 165.5 170.4 174.9 176.3 176.2 170.3 165.1 161.2 160.4 166.4 168.4 170.3 172.2 175.9 178.3 178.4 177.1 183.6 190.6 195.4 200.7 205.8 209.9 215 221.8 227.8 231.5 234.7 237.3 239.8 242.4 244.1 245.4 246.6 247 245.3 244.8 244.1 242.7 241.9 241.5 239.2 238.1 237.1 235 235.3 233.3 232.2 233.2 234.2 233.2 234 232.7 229.9 229.5 229.4 231.9 235.4 239.9 242.7 246.1 249.3 252.2 253.5 253.7 254.8 254.7 254.2 252.6 250.9 249.3 247 244.7 241.9 238.8 240.6 241.2 241.6 245.5 249.4 253.4 256 257.2 257.7 257.8 258.2 256.9 255.7 255.2 254.3 252.4 248.6 246.4 242.5 239.5 235.2 230.6 224.9 222 219 217.2 215.5 212.3 207.8 205.5 202.6 199.8 198.5 197.3 197.8 199.5 199.6 198.2 198 196.9 195.8 194.2 188.8
6 6 6 6 6 6 6 6 6 6 6 6 6 6 7.4 7.6 7.6 6 6 7.5 10.7 15 19.3 23.5 28.1 31.8 33.6 35.3 39.7 47.8 52.3 56.7 58.2 65.2 69.7 73.3 81.1 89.1 92.3 96.4 98.9 106.4 121.9 132.7 142.4 143.3 156 173.2 187.5 193.9 198.8 204.2 210.7 215.2 220.1 223 226.5 231.7 237.5 245.5 253.5 263.4 273 279.2 289.7 301.8 307 305 304.8 296.4 275 261 251.4 240.7 229 217.9 204 194.6 188.6 184.2 177.8 162.2 156.7 156.4 157.4 161 164 162.8 156.2 155 156.5 159.6 162.9 166.6 170.5 174.9 175.3 173.6 177 183 190 194.8 199.6 204.5 208.5 213.7 219.7 225.1 228.6 231.7 234.2 237 239 240.6 242.1 242.9 242.5 241.7 240.5 239.5 239.2 238.6 236.9 236.4 234.5 233.2 230.6 229.2 225.2 222 223.8 228.8 227.8 226.6 224.5 223.2 227 230.1 234.1 239.3 243.8 247.4 250.8 251.2 254 254.6 254.7 255.2 254.2 253.4 252.2 250.8 249.4 247.6 245.3 243.1 240.6 237.8 239.4 239.6 241 243.9 246.3 247.4 249.2 250.1 250.3 250.3 249.7 248.8 248.7 246.6 244.9 241.5 238.3 234.4 230.7 227.2 223.7 220.2 215.9 215.8 215.2 210.3 208.3 206.1 204.9 205.5 205.4 204.3 205.4 207.8 207.1 205.7 203.3 201.8 201 199.4 195.6 192.9
6 6 6 6 6 6 6 6 6 6 6 6 6 6 6 6 6 6 6 6 7.8 11.1 13.4 20.7 25.7 29.2 33.6 35.1 38.8 43 47.4 52.5 55.3 62.6 65.2 71.4 77.3 87.9 92.3 97.1 103.4 109.1 120.6 129.8 139.3 148.6 164.9 179.2 178.5 188.6 196.8 204.6 211.4 216.4 221.7 226.3 231.8 237.3 245.8 252.2 271.6 276.9 282.9 291.5 307.1 323.3 324.9 321.7 315.7 308.3 288.2 275.4 260.1 250.8 240.3 231.1 213.3 204.6 199.1 191.9 185 180.5 172 162.8 150.9 150.9 145.7 143.8 147 150.1 152.4 152.7 155.1 162 167.5 170.5 171 170.1 177 184.1 189.4 193.1 198.3 202.8 207.1 212.5 218.2 222.2 225.6 228.7 231.3 233.6 235.6 237.1 237.5 237.4 237.3 237.5 237.9 236.4 235.1 234.3 233.7 231.9 231.1 229.4 226.9 223.1 219.1 217.6 222.7 222.3 221.1 217.1 216.5 223.5 227.1 232.9 240.1 246 253 256.7 256.2 255.4 255.5 255.5 255.3 254.4 253.6 252.6 251.3 250.1 249.4 248 245.9 244 242.4 239 237.7 236.3 237.2 237.5 237.5 237.5 236.1 234.3 236.3 239 238.9 241.2 240.1 239.7 238.1 234.2 230.6 228.4 224.8 220.6 217.9 213.2 211.1 210.6 210.7 208.5 207.5 207.9 210.3 209.8 208.4 211.6 214.8 212.7 211.6 209.9 208.9 207.6 205.5 203.3 201 198.5
6 6 6 6 6 6 6 6 6 6 6 6 6 6 6 6 6 6 6 6 6 8.7 12.3 17 22.8 28.3 33.1 35 37.6 39.6 43.9 49.3 51.3 55.7 61.4 68.5 75.5 84.9 91.4 96.4 101.2 108 116.5 123.3 137.3 149.1 153.2 157 172.6 191.5 199.6 207.2 214.3 221 227.5 233.8 239.9 244.3 253.2 270.3 277.8 286.6 293.8 304.5 326.2 342.7 342.4 339.1 331.5 323.6 310.6 289.3 271.5 265.8 255.8 246 226.1 213.7 204.1 197.3 191.5 188.9 185.9 179 173.8 158.9 161.6 147.9 139.7 140.8 145.5 146 150.2 154.6 158.8 163.8 166.1 170.1 177.7 184.5 188.1 191.7 196.9 201.1 204.6 209.5 213.5 218.2 222.4 225.3 227.8 230.1 232.2 233.4 233.7 233.4 233.7 233.3 233.5 233.9 231 229.9 228.9 227 226.1 224.3 221.7 217.8 214.3 218.4 218.1 216.5 212 216 219.4 224.2 231.3 239 248.5 256.5 258.5 257 257 255.7 253.7 252.4 253.1 252.7 250.9 250.9 250.2 248.9 248.1 247.3 246.6 244.9 243.3 241.2 239.9 237.7 234.3 234.5 232.5 229.8 227.4 227.2 228.6 230.3 230.8 230.9 230.7 229 225.8 223.1 221.4 220.5 220.1 215.4 212.5 209.8 209.1 208.3 208 207.4 208.3 211.3 211.6 213.7 215.5 218.8 218.7 218.2 217.3 215.6 213.8 211.9 209.8 207.6 205.3 203.1
6 6 6 6 6 6 6 6 6 6 6 6 6 6 6 6 6 6 6 6 6 6.7 11.2 15.6 21 26.8 30.2 32.9 34.6 37 40.2 45.7 47.6 49.6 58.4 64.9 71.2 80.6 87 94 101.7 112.9 123.5 133.7 142.4 147.9 152.2 164.9 175.3 186.8 195.9 203.6 213.5 222.8 232.3 239.3 247.4 253.9 271.3 281.9 290.4 301 315 323.1 340.7 356.5 353.2 344.6 337.6 332.9 321.2 297.4 278 268.9 258.1 249 232.1 220 211.2 203.8 198.5 194.4 190.2 185.6 177.8 172 165.8 158.9 143.7 135.2 139 140.5 142.5 149.4 156.9 157.5 168.1 175.9 179.6 185.3 187.3 190.7 194.7 199.6 201.9 206.3 209.8 213.6 217.9 219.6 222.2 224.6 227.3 227.7 228.5 228.6 231 231 228.5 228.2 226.3 224.5 223.4 222.2 221 219.1 215.3 209.3 210.5 211.8 210.4 206 211.6 217.3 220.3 226.8 234.7 247 256.3 256.7 255.2 253.5 252.7 251.4 248.9 248.6 248.5 248.6 248.7 249 248.7 247.8 246.9 246.1 245.7 244.3 243.3 242.3 241.2 239.9 237.1 231.3 231.4 228.3 224.4 222.8 221.9 221.7 219.3 220.8 220 214.9 217.1 221.8 217.1 215.9 210.6 210.4 209.6 208.4 206.9 206.9 206.9 208.2 210.5 216.8 221.6 224.2 223.8 223.7 223.9 222.9 221.7 219.8 218 216.2 214 211.3 208.4 205.5
