ncols 200
nrows 89
xllcorner 310000
yllcorner 924950
cellsize 50
282.3 280 277.2 275.9 272.8 269.6 266.4 264.3 259 253.5 249.8 248 246.1 244.2 242.4 240.7 239.5 238.3 237.5 237 236.6 236.4 235.1 231.9 227.7 224.3 221.9 220.3 216.3 214.3 211.8 210.5 209 206.6 203.6 199.6 194.2 190.7 189.5 188.6 187.4 184.6 181.9 179.7 177.6 175.3 173.1 171.2 168.1 166.7 166 164.2 163.1 161.7 159.7 158.1 156.5 155.5 153.6 152.2 152.2 152.6 152.7 153.4 153.7 154 154.2 155.7 156.9 157.5 157.1 156.7 156.3 155.9 156 155.5 153.1 150.7 148 145.6 145.3 144.2 143.2 141 138.4 135.4 133 130.6 128.2 125.8 121.6 119.8 118.9 116.2 113.9 111 109.1 106.9 109.3 105.9 102.9 101 99.3 98.7 99.3 96.5 94.1 91 85.3 77.1 69.4 64 61.1 60.6 61.1 60.5 59.9 57.9 57 55.3 51.7 48 43.1 14.8 9 7.7 4.2 -1.2 0.5 0.9 1.7 -1.2 -1.2 15.9 24.9 26.1 27.9 28 27.1 -1.2 -1.2 -1.2 -1.2 -1.2 -1.2 -1.2 -1.2 -1.2 -1.2 -1.2 -1.2 -1.2 -1.2 -1.2 -1.2 -1.2 -1.2 -1.2 -1.2 -1.2 -1.2 -1.2 -1.2 -1.2 -1.2 -1.2 -1.2 -1.2 -1.2 -1.2 -1.2 -1.2 -1.2 -1.2 -1.2 -1.2 -1.2 -1.2 -1.2 -1.2 -1.2 -1.2 -1.2 -1.2 -1.2 -1.2 -1.2 -1.2 -1.2 -1.2 -1.2 -1.2 -1.2 -1.2 -1.2 -1.2 -1.2 -1.2 -1.2 -1.2
277.9 275.7 273.1 273 273.2 269.9 266.8 264.3 260.2 253.6 247.2 244.9 243.1 241.3 239.7 238.6 238 237.2 236.5 235.7 235.2 235 233.6 231.2 227.4 223.7 221.4 219.8 218 216.5 214.1 210.9 209.2 206.6 202.9 198.8 195.1 192.1 189.9 189.6 186.4 184 180.4 178.2 176 174 171.7 169.8 167.6 165.7 164.8 164 163.4 162.3 160.7 158.8 157.1 155.4 153.5 153.1 152.3 152.1 152.8 153 153.6 153.9 154.6 155.3 156.4 157.4 157 156.6 156.3 156 155.5 155.1 153.4 150.7 148 146.1 145.3 144.2 143.8 142.6 140.7 137.5 134 132 129.7 127.3 123.5 121.4 120.5 120.4 118 113.9 112.4 114.3 112.3 107.8 103.9 101.4 99.8 100 99.3 94.4 90.9 88.2 80 71.9 66.7 64.3 61.5 59.3 57.7 57.6 57.6 57.1 55.8 54.4 52.5 48.8 35.5 10 8 -1.2 -1.2 -1.2 -1.2 -1.2 -1.2 -1.2 0.9 1.5 4.7 5.5 22.9 21.4 -1.2 -1.2 -1.2 -1.2 -1.2 -1.2 -1.2 -1.2 -1.2 -1.2 -1.2 -1.2 -1.2 -1.2 -1.2 -1.2 -1.2 -1.2 -1.2 -1.2 -1.2 -1.2 -1.2 -1.2 -1.2 -1.2 -1.2 -1.2 -1.2 -1.2 -1.2 -1.2 -1.2 -1.2 -1.2 -1.2 -1.2 -1.2 -1.2 -1.2 -1.2 -1.2 -1.2 -1.2 -1.2 -1.2 -1.2 -1.2 -1.2 -1.2 -1.2 -1.2 -1.2 -1.2 -1.2 -1.2 -1.2 -1.2 -1.2 -1.2 -1.2 -1.2
273.3 271.1 270.5 270.9 270.7 269.2 266.7 263.7 259.3 251.1 245.1 240.6 238.5 237 236 236 235.8 235.4 234.6 233.6 232.2 232.1 231.9 229.5 226.7 223 221 219.4 218.9 217.9 216.5 212.9 209.8 206.4 202.7 199.7 196.8 193.8 192 190.3 187.8 185 179.2 176.9 174.6 173.2 171.6 170.5 168.1 166.6 165.6 164.9 163 161.6 160.5 158.8 157 155 154 153.2 154.4 153 153.1 153.1 153.4 154.1 155 155.8 156.4 157.1 157 156.7 156.4 156 155.6 155 153.9 151 148.3 146.5 144.9 144.1 143.2 143.2 141.4 138.4 135.1 133.8 131.5 128.9 124.9 123.3 121.4 122.9 121.1 118.6 116.9 117.4 113.5 108.8 105.5 101.7 100.2 100.5 95.7 89.4 90.6 80.7 74.7 67.9 65.5 65.1 62.7 59.9 57 54 54.5 55 54.3 52.5 51.6 49.3 36.2 8.2 6.3 -1.2 -1.2 -1.2 -1.2 -1.2 -1.2 -1.2 -1.2 -1.2 -1.2 -1.2 -1.2 -1.2 -1.2 -1.2 -1.2 -1.2 -1.2 -1.2 -1.2 -1.2 -1.2 -1.2 -1.2 -1.2 -1.2 -1.2 -1.2 -1.2 -1.2 -1.2 -1.2 -1.2 -1.2 -1.2 -1.2 -1.2 -1.2 -1.2 -1.2 -1.2 -1.2 -1.2 -1.2 -1.2 -1.2 -1.2 -1.2 -1.2 -1.2 -1.2 -1.2 -1.2 -1.2 -1.2 -1.2 -1.2 -1.2 -1.2 -1.2 -1.2 -1.2 -1.2 -1.2 -1.2 -1.2 -1.2 -1.2 -1.2 -1.2 -1.2 -1.2 -1.2 -1.2 -1.2
268.4 264.6 263.9 267.4 267.7 266.3 263.8 262.1 257.9 248.4 242.4 238 234 232.1 231.8 231.3 232.8 232.4 230.7 228.9 227.9 229.2 229 228 225.2 222.3 220.3 219.8 219.3 218.7 217.5 213.8 210.6 207.1 203.9 200.7 197.9 195.2 192.8 190.5 187.7 184.3 181.1 177.8 175 172.1 169.6 169.2 168.4 167.1 165.6 164.1 161.6 161 158.8 159 157.9 156 154.9 155.2 155.6 154.3 154.8 154.6 154.7 155.5 156.1 156.6 157.2 157.4 157.1 156.8 156.5 156.1 155.6 155.2 154.2 151.7 148.7 146.1 144.1 143.3 142.5 141.8 139.4 138.2 136.1 134.8 133.3 130.2 126.7 125.2 124.1 125.1 123.9 121.6 120.1 117.5 113.6 111.6 106.9 102.5 100.2 98.9 94 91.6 81.8 73.8 69 65.8 63.4 64.6 64.4 61.6 57.1 52.5 52 52.2 53.1 51.9 50.5 49 30.3 7.5 2 -1.2 -1.2 -1.2 -1.2 -1.2 -1.2 -1.2 -1.2 -1.2 -1.2 -1.2 -1.2 -1.2 -1.2 -1.2 -1.2 -1.2 -1.2 -1.2 -1.2 -1.2 -1.2 -1.2 -1.2 -1.2 -1.2 -1.2 -1.2 -1.2 -1.2 -1.2 -1.2 -1.2 -1.2 -1.2 -1.2 -1.2 -1.2 -1.2 -1.2 -1.2 -1.2 -1.2 -1.2 -1.2 -1.2 -1.2 -1.2 -1.2 -1.2 -1.2 -1.2 -1.2 -1.2 -1.2 -1.2 -1.2 -1.2 -1.2 -1.2 -1.2 -1.2 -1.2 -1.2 -1.2 -1.2 -1.2 -1.2 -1.2 -1.2 -1.2 -1.2 -1.2 -1.2 -1.2
262.6 258.4 257.8 260.4 262.7 261.4 258.8 256.6 252.7 246.1 239.9 233.8 229.5 228.1 227.7 227.2 226.3 226.9 224.9 223.9 223.6 223.7 224 224.1 224.3 221.1 219 218.9 219.1 219 217.6 214.2 211.4 208.3 205.1 202.4 200.5 197.6 194 190.2 186.8 183.8 180.8 178 176 173.2 170.7 168.6 166.4 164.8 164.6 164.2 164.5 163.3 162.2 161.1 159.7 158.4 157 155.5 156.3 155.5 156 156.3 156.6 157.6 157.6 157.7 157.7 157.5 157.2 156.9 156.5 156.1 155.6 155.2 154.7 153.4 149.5 146.4 144.3 142.8 142.5 140.7 138.4 137 136.3 135.1 134 131.8 128.9 126.5 125.8 127 126.6 124.9 122.3 118.6 115.6 112 108.4 105.2 100.3 97.7 94.8 92.3 81.1 75.2 67.2 62.7 60.4 62.6 63.9 61.7 57.9 54.2 51.3 50.6 51.3 50.9 49.4 47.8 31.9 8.6 1.5 -1.2 -1.2 -1.2 -1.2 -1.2 -1.2 -1.2 -1.2 -1.2 -1.2 -1.2 -1.2 -1.2 -1.2 -1.2 -1.2 -1.2 -1.2 -1.2 -1.2 -1.2 -1.2 -1.2 -1.2 -1.2 -1.2 -1.2 -1.2 -1.2 -1.2 -1.2 -1.2 -1.2 -1.2 -1.2 -1.2 -1.2 -1.2 -1.2 -1.2 -1.2 -1.2 -1.2 -1.2 -1.2 -1.2 -1.2 -1.2 -1.2 -1.2 -1.2 -1.2 -1.2 -1.2 -1.2 -1.2 -1.2 -1.2 -1.2 -1.2 -1.2 -1.2 -1.2 -1.2 -1.2 -1.2 -1.2 -1.2 -1.2 -1.2 -1.2 -1.2 -1.2 -1.2 -1.2
255.6 252.3 249.8 248.7 252.1 252.4 251 250.2 246.6 241.9 235.5 229 225.1 224.3 224.6 224.9 222 221.1 219.8 219 218.5 219.4 220.7 221.1 220.2 218.8 217 217.4 217.9 219.2 219.7 217.7 212.8 209.6 206.3 204.2 202.3 200.4 197.4 192.8 187.6 182.5 179.7 178.7 176.9 174.4 171.9 170 168.7 168.8 167.4 166.4 165.4 164.4 163.4 162.3 161.2 159 157.9 156.6 156.8 156.8 157.3 157.8 158.4 158.6 158.5 158.2 157.7 157.2 157.4 157 156.6 156.1 155.3 155 154.3 152.9 150.3 147.4 144.3 142.5 142 139.8 137.5 136.5 135.7 134.7 133.7 132.6 130 127.6 125.7 127.1 127.5 126.2 122.8 122.6 119.1 115 110.5 105.8 101.7 97.8 93.6 89.9 82.4 75.5 68.4 62.9 60 59 60.4 60.7 57.6 54.7 52.4 50.2 49.5 49.4 48.4 46.3 44.9 25.3 1.7 -0.1 -1.2 -1.2 -1.2 -1.2 -1.2 -1.2 -1.2 -1.2 -1.2 -1.2 -1.2 -1.2 -1.2 -1.2 -1.2 -1.2 -1.2 -1.2 -1.2 -1.2 -1.2 -1.2 -1.2 -1.2 -1.2 -1.2 -1.2 -1.2 -1.2 -1.2 -1.2 -1.2 -1.2 -1.2 -1.2 -1.2 -1.2 -1.2 -1.2 -1.2 -1.2 -1.2 -1.2 -1.2 -1.2 -1.2 -1.2 -1.2 -1.2 -1.2 -1.2 -1.2 -1.2 -1.2 -1.2 -1.2 -1.2 -1.2 -1.2 -1.2 -1.2 -1.2 -1.2 -1.2 -1.2 -1.2 -1.2 -1.2 -1.2 -1.2 -1.2 -1.2 -1.2 -1.2
242.5 243.4 241.1 238.3 238.3 243.6 245.5 243.7 239.8 235.6 226.8 222.1 219.9 219.1 218.2 218.3 217.8 217.7 216.7 215.2 214.5 215.3 216.8 217.6 216.6 214.6 213.7 214 215.4 218.3 220.1 218.4 214.6 211.9 208.4 206.1 204.2 202.3 199.9 194.9 188.7 182.6 179.7 179 177.7 175.5 173.1 171.4 171.5 170.6 169.4 166.5 166.1 165.5 164.5 163.5 162.3 160.7 159.7 158.5 158.1 158.3 158.4 158.9 159.5 159.4 158.9 158.3 157.8 157.3 157.5 156.1 155.8 155.5 155.2 154.9 153.5 152.5 150.6 149.1 146.1 143.3 140.7 138.9 138.1 136.8 135.6 133.9 132.9 131.9 129.3 127.7 127.5 126.9 126.5 126.7 126.6 125.3 123.9 120.5 112.7 107.4 103.5 98.1 94.7 90.4 83.2 75.6 68.6 62.7 58.7 55 56.7 58 57 54.8 52.8 50.9 48.9 46.9 46.3 45.4 37.6 14.7 1.6 -1.2 -1.2 -1.2 -1.2 -1.2 -1.2 -1.2 -1.2 -1.2 -1.2 -1.2 -1.2 -1.2 -1.2 -1.2 -1.2 -1.2 -1.2 -1.2 -1.2 -1.2 -1.2 -1.2 -1.2 -1.2 -1.2 -1.2 -1.2 -1.2 -1.2 -1.2 -1.2 -1.2 -1.2 -1.2 -1.2 -1.2 -1.2 -1.2 -1.2 -1.2 -1.2 -1.2 -1.2 -1.2 -1.2 -1.2 -1.2 -1.2 -1.2 -1.2 -1.2 -1.2 -1.2 -1.2 -1.2 -1.2 -1.2 -1.2 -1.2 -1.2 -1.2 -1.2 -1.2 -1.2 -1.2 -1.2 -1.2 -1.2 -1.2 -1.2 -1.2 -1.2 -1.2 -1.2
231.1 232.3 229.1 229.9 231.6 236.2 238 236.3 232.2 225 218.6 215.6 215.7 214.5 213.2 213 213.8 214.9 214.5 212.7 211 210.7 210.3 211.8 211.8 210.5 211.2 211.5 212.7 215.1 217.8 218.9 217.6 215.2 210.9 207.1 206 204.1 201.4 196.2 189.3 182.9 179.7 179 177.8 176.6 174.4 173.5 172.8 172.1 170.6 168.8 167.3 166.7 165.7 164.5 163.7 163 162.1 160.8 160 160.1 159.9 159.6 159.5 159.6 159.1 158.5 158 157.5 157.9 157 156.4 155.4 155.1 154.8 152.8 152.4 151 149.7 147.7 145.2 141.5 139.6 137.9 136.5 135.4 133.9 133.6 132.2 130.3 128.7 127.4 126.9 127.5 128.3 128.1 126.6 124.5 120.9 115.4 109.2 103.6 98.9 94.7 90.1 83.5 76.2 69.3 62.3 56.3 52 53.6 54.4 55 54.1 52.3 50.4 48.3 46.6 44.7 44.3 29.1 6.4 0.7 -1.2 -1.2 -1.2 -1.2 -1.2 -1.2 -1.2 -1.2 -1.2 -1.2 -1.2 -1.2 -1.2 -1.2 -1.2 -1.2 -1.2 -1.2 -1.2 -1.2 -1.2 -1.2 -1.2 -1.2 -1.2 -1.2 -1.2 -1.2 -1.2 -1.2 -1.2 -1.2 -1.2 -1.2 -1.2 -1.2 -1.2 -1.2 -1.2 -1.2 -1.2 -1.2 -1.2 -1.2 -1.2 -1.2 -1.2 -1.2 -1.2 -1.2 -1.2 -1.2 -1.2 -1.2 -1.2 -1.2 -1.2 -1.2 -1.2 -1.2 -1.2 -1.2 -1.2 -1.2 -1.2 -1.2 -1.2 -1.2 -1.2 -1.2 -1.2 -1.2 -1.2 -1.2 -1.2
224.2 215.9 214.4 222.5 224.6 230.5 227.3 224.4 221.4 214 210.6 210.2 213.7 212.4 210.6 209.3 209.7 211.7 212.1 209.8 208.1 206.5 205.3 206.8 207.6 207.7 208.6 210.1 211.8 214.2 216.7 219.9 219.2 217.7 214.9 210.3 207.1 205.5 202.8 197.2 191.1 184.7 181.3 179.2 178.6 177.4 176.1 174.8 174.1 173.3 171 171.1 169.8 168.2 167.2 166.4 165.7 165 164.5 162.5 161.4 160.4 160.8 160.4 160.1 159.7 159.3 159 158.6 158.3 157.8 157.3 156.5 155.9 155.3 154.5 153.6 152.6 150.9 148.9 147.2 144.3 142 140.6 139.1 137.5 137.4 137.4 136.7 134.8 132.5 130 128.2 127.9 129.5 130.6 130.3 127.6 125.3 120.6 115.6 110.8 106.6 101 94.8 87.6 82.3 76.8 69.8 62.7 55 50.6 51.9 52.1 52.3 52.3 51.9 49.8 47.8 46.1 44.4 34 12.8 3 0.5 -1.2 -1.2 -1.2 -1.2 -1.2 -1.2 -1.2 -1.2 -1.2 -1.2 -1.2 -1.2 -1.2 -1.2 -1.2 -1.2 -1.2 -1.2 -1.2 -1.2 -1.2 -1.2 -1.2 -1.2 -1.2 -1.2 -1.2 -1.2 -1.2 -1.2 -1.2 -1.2 -1.2 -1.2 -1.2 -1.2 -1.2 -1.2 -1.2 -1.2 -1.2 -1.2 -1.2 -1.2 -1.2 -1.2 -1.2 -1.2 -1.2 -1.2 -1.2 -1.2 -1.2 -1.2 -1.2 -1.2 -1.2 -1.2 -1.2 -1.2 -1.2 -1.2 -1.2 -1.2 -1.2 -1.2 -1.2 -1.2 -1.2 -1.2 -1.2 -1.2 -1.2 -1.2 -1.2
204.8 197.9 198.6 213.9 215.7 216.8 214.2 214.5 209.9 206.3 202.7 203.6 203.9 203.4 204.3 204.7 205.5 206.7 205.3 203.4 200.8 199.9 199.1 200.8 203.6 204.7 206.6 209.1 211.7 214.1 216.5 219.8 220 217.4 214.4 210.7 208.8 206.9 204.9 200.6 193.6 185.8 181.9 180.3 179.9 178.3 177.1 176.2 175.5 174.2 173.8 173.7 173.5 172.1 170.6 169.8 169.1 168.6 167.5 165.8 163.3 162.2 161.6 161.4 161.2 161 160 159.7 159.4 159 158.4 158 156.5 155.9 155.3 153.5 153.4 153.4 151.8 149.4 146 143.5 142.4 141.1 139.7 138.3 139.2 140.4 139.4 136.5 134.1 131.2 129.3 129.2 131.5 133.3 131.8 128.2 123 118.5 116.9 113.7 109.5 103.9 96 87.5 82.2 76.3 70.4 63.4 56 49.2 49.8 50 50.1 50.5 50.4 50.2 47.7 45.3 43.5 35.8 6.9 1.4 -0.2 -1.2 -1.2 -1.2 -1.2 -1.2 -1.2 -1.2 -1.2 -1.2 -1.2 -1.2 -1.2 -1.2 -1.2 -1.2 -1.2 -1.2 -1.2 -1.2 -1.2 -1.2 -1.2 -1.2 -1.2 -1.2 -1.2 -1.2 -1.2 -1.2 -1.2 -1.2 -1.2 -1.2 -1.2 -1.2 -1.2 -1.2 -1.2 -1.2 -1.2 -1.2 -1.2 -1.2 -1.2 -1.2 -1.2 -1.2 -1.2 -1.2 -1.2 -1.2 -1.2 -1.2 -1.2 -1.2 -1.2 -1.2 -1.2 -1.2 -1.2 -1.2 -1.2 -1.2 -1.2 -1.2 -1.2 -1.2 -1.2 -1.2 -1.2 -1.2 -1.2 -1.2 -1.2 -1.2
175 173.2 182.8 200.4 204.2 206.4 202.4 202.5 198.8 195.5 196.1 200.9 202.7 201.6 200.6 200.5 200.1 199.9 198.3 197.5 196.9 196.4 196.6 196.9 200.3 202.3 205 207.9 210.7 213.4 216.8 219.8 219.6 217.9 213.8 210.3 208.9 207.5 204.6 201.6 194.8 188.3 182 181.4 181 180.5 179.5 178.3 176.7 176.2 176.1 175.9 175.8 176 175.5 173.8 172.9 171.7 170 167.8 165.8 164.5 163 162.8 162.6 161.9 160.7 160.3 160.1 159.7 159.1 158.7 157 156 154.5 152.8 152.4 152.5 152 149.5 146.3 144 142.7 141.5 140.2 140.7 141.5 142.3 141.9 139.3 135.8 132.4 130 130.1 132.7 133 130.7 125.6 120.8 118.7 118.1 114.7 111.3 105.4 97.6 88 81.7 75.8 69.9 64 57 51 47.7 47.8 48.3 48.7 48.9 49.1 48.2 45.7 43 17.6 4.5 1 -1.2 -1.2 -1.2 -1.2 -1.2 -1.2 -1.2 -1.2 -1.2 -1.2 -1.2 -1.2 -1.2 -1.2 -1.2 -1.2 -1.2 -1.2 -1.2 -1.2 -1.2 -1.2 -1.2 -1.2 -1.2 -1.2 -1.2 -1.2 -1.2 -1.2 -1.2 -1.2 -1.2 -1.2 -1.2 -1.2 -1.2 -1.2 -1.2 -1.2 -1.2 -1.2 -1.2 -1.2 -1.2 -1.2 -1.2 -1.2 -1.2 -1.2 -1.2 -1.2 -1.2 -1.2 -1.2 -1.2 -1.2 -1.2 -1.2 -1.2 -1.2 -1.2 -1.2 -1.2 -1.2 -1.2 -1.2 -1.2 -1.2 -1.2 -1.2 -1.2 -1.2 -1.2 -1.2 -1.2
159 156.1 180.1 190.2 191.3 191 189 189.1 188.9 187.4 192.5 197.8 199.7 198.4 198 198.7 198.9 198.3 197.4 196.6 196 195.3 195.2 195.3 196.3 199.2 202.2 204.6 208 211.1 215 219 219.1 218.2 215.8 210.4 208.4 206.2 204.1 201.9 197.3 189.5 183.8 182.4 182 181.5 181.3 180.4 178.4 177.9 178.2 178 178.3 178 177.7 177.6 176.1 174.1 172.3 169.6 167.3 166.9 165.9 164.2 163.7 162.6 161.5 160.8 160.7 160.4 159.6 158.8 157.7 155.9 153.6 153.2 152.8 152 151.8 149.4 146.6 144.1 143.8 142.1 142.3 142.5 143.3 144.1 143.7 141.7 136.7 133.6 131.4 131.1 133.8 131 129.7 126.5 122.1 121.1 120 117 112.3 106.1 99.6 89.5 82 76 70 63.9 59 53.1 49.2 47.8 46.4 47.1 47.2 47.2 46.3 45.5 34.3 5.7 1.4 -1.2 -1.2 -1.2 -1.2 -1.2 -1.2 -1.2 -1.2 -1.2 -1.2 -1.2 -1.2 -1.2 -1.2 -1.2 -1.2 -1.2 -1.2 -1.2 -1.2 -1.2 -1.2 -1.2 -1.2 -1.2 -1.2 -1.2 -1.2 -1.2 -1.2 -1.2 -1.2 -1.2 -1.2 -1.2 -1.2 -1.2 -1.2 -1.2 -1.2 -1.2 -1.2 -1.2 -1.2 -1.2 -1.2 -1.2 -1.2 -1.2 -1.2 -1.2 -1.2 -1.2 -1.2 -1.2 -1.2 -1.2 -1.2 -1.2 -1.2 -1.2 -1.2 -1.2 -1.2 -1.2 -1.2 -1.2 -1.2 -1.2 -1.2 -1.2 -1.2 -1.2 -1.2 -1.2 -1.2 -1.2
142.2 151.7 173.4 178.7 178.9 177.1 176.6 174.3 175.8 177.4 183.1 193.2 195.4 194.4 196.3 198.2 198.4 198.6 199 197.5 195.2 193.4 193.5 193.6 193.4 195.1 197.5 199.4 203.6 206 210.7 215.6 218 217.5 215.1 209.2 207.2 204.9 203.9 202 196.4 191.1 185.7 183.5 183 182.5 182.2 181.9 181.7 181.1 180.7 181 181.4 181.1 180.8 180.1 178.4 176.5 174.7 171.3 169 169 167.9 166 165 163.9 162.6 161.1 160.6 160.1 159.3 158.5 157.6 156.5 153.9 152.8 152 152.3 151.4 149.2 146.4 144.6 143.6 141.7 142.4 143.7 144.9 145.7 144.9 142.9 138.7 134.9 132.9 132.9 133.5 132.5 131.9 128.7 125.7 125.1 122 118.5 112.7 106.7 98.8 90.9 83 76.3 70.2 64 59.6 55.7 52.6 49.6 45.8 42.5 44.5 45.7 45.4 44.5 26.6 8.6 0.1 -1.2 -1.2 -1.2 -1.2 -1.2 -1.2 -1.2 -1.2 -1.2 -1.2 -1.2 -1.2 -1.2 -1.2 -1.2 -1.2 -1.2 -1.2 -1.2 -1.2 -1.2 -1.2 -1.2 -1.2 -1.2 -1.2 -1.2 -1.2 -1.2 -1.2 -1.2 -1.2 -1.2 -1.2 -1.2 -1.2 -1.2 -1.2 -1.2 -1.2 -1.2 -1.2 -1.2 -1.2 -1.2 -1.2 -1.2 -1.2 -1.2 -1.2 -1.2 -1.2 -1.2 -1.2 -1.2 -1.2 -1.2 -1.2 -1.2 -1.2 -1.2 -1.2 -1.2 -1.2 -1.2 -1.2 -1.2 -1.2 -1.2 -1.2 -1.2 -1.2 -1.2 -1.2 -1.2 -1.2 -1.2
123.4 149 164 171.2 167.2 165 160.9 160.2 159.9 166.5 174.4 181.5 191.5 194.6 198.6 199.7 199.8 202.2 202.8 199.7 196.7 194 192.2 188.1 190.5 189.7 192.1 193.9 197.6 200.5 202.9 204.9 213.5 214.4 213.1 208.5 205.4 202.3 201.5 199.7 194.7 190.6 187.2 184.5 184 183.5 183.2 183.2 183.2 183.4 183.7 184.1 184.4 184.1 183.3 182.3 180.7 178.8 176.7 173.1 170.8 170 167.8 167.4 166.4 165.5 164 161.9 160.5 159.8 159 158.2 157.5 156 153.7 152.1 150.9 151.4 150.8 149.5 146.3 145.2 144.3 142.9 143.9 143.6 144.9 145.9 145.7 143.5 140.4 136.6 134.6 134.4 135.7 135.2 133.3 130.8 128.7 126.8 123.7 118.5 112.9 107.3 99.4 89.9 83.2 76.6 69.7 64.9 60.7 56.6 54.4 51.6 47.8 44.2 37 43.3 43.5 16.1 4 1.9 -1.2 -1.2 -1.2 -1.2 -1.2 -1.2 -1.2 -1.2 -1.2 -1.2 -1.2 -1.2 -1.2 -1.2 -1.2 -1.2 -1.2 -1.2 -1.2 -1.2 -1.2 -1.2 -1.2 -1.2 -1.2 -1.2 -1.2 -1.2 -1.2 -1.2 -1.2 -1.2 -1.2 -1.2 -1.2 -1.2 -1.2 -1.2 -1.2 -1.2 -1.2 -1.2 -1.2 -1.2 -1.2 -1.2 -1.2 -1.2 -1.2 -1.2 -1.2 -1.2 -1.2 -1.2 -1.2 -1.2 -1.2 -1.2 -1.2 -1.2 -1.2 -1.2 -1.2 -1.2 -1.2 -1.2 -1.2 -1.2 -1.2 -1.2 -1.2 -1.2 -1.2 -1.2 -1.2 -1.2 -1.2 -1.2
127.5 131.3 147.4 151.2 152.8 152.1 151.2 150.7 157.2 164.1 176.2 185.9 195.4 199.5 202.7 205.1 207 208.1 205.4 201.8 198.6 195.3 193.5 191.3 185.8 185.9 186.7 187.1 189.3 191.1 193.2 194.4 199.1 204.4 207.4 204.2 201.1 197.5 193.6 193.4 191.7 191.2 189 185.9 184.4 184.1 184.1 184 184 184.3 185.1 186.8 187.4 186.6 185.6 184.6 183.5 182.7 180.5 175.4 171.8 170.6 169.4 168.7 167.3 166.6 165.4 163.1 161.7 160 159 158.1 157.2 155.8 153.6 151.8 149.5 149 149.2 148.6 146.4 145.4 143.6 144.4 144.2 144 144.8 147 146.6 143.2 140.3 137.1 134.6 134.5 135.5 136.6 135.7 133.6 130.6 126.4 121.6 117 111.4 106.6 100 89.4 82.9 76 68.4 63.6 59.7 56.2 53.6 52.4 49.9 46.4 42.2 33.7 28.6 6.1 1.2 -1.2 -1.2 -1.2 -1.2 -1.2 -1.2 -1.2 -1.2 -1.2 -1.2 -1.2 -1.2 -1.2 -1.2 -1.2 -1.2 -1.2 -1.2 -1.2 -1.2 -1.2 -1.2 -1.2 -1.2 -1.2 -1.2 -1.2 -1.2 -1.2 -1.2 -1.2 -1.2 -1.2 -1.2 -1.2 -1.2 -1.2 -1.2 -1.2 -1.2 -1.2 -1.2 -1.2 -1.2 -1.2 -1.2 -1.2 -1.2 -1.2 -1.2 -1.2 -1.2 -1.2 -1.2 -1.2 -1.2 -1.2 -1.2 -1.2 -1.2 -1.2 -1.2 -1.2 -1.2 -1.2 -1.2 -1.2 -1.2 -1.2 -1.2 -1.2 -1.2 -1.2 -1.2 -1.2 -1.2 -1.2 -1.2 -1.2
130.7 124.8 137.4 139.7 142.6 142.9 148.3 152.9 158.5 166.3 180.1 192.1 200.8 207.2 210.8 212.2 213.1 212.7 210.2 205.4 200.8 197.2 194 191.5 188.6 182.6 181.6 182.8 182.9 183.3 183.7 184.7 185.7 190.1 195.4 196.6 194.9 193.7 190.6 189.3 189.9 194 195.3 190.1 186.3 185 185 184.9 184.9 185.7 187.4 188.8 189.9 189.3 188.4 187.2 186.8 185 182.1 175.8 172.3 170.6 170.4 170.2 168.9 167.8 166.7 164.8 162.7 160.8 159.3 158.3 157.6 155.8 154.4 153.1 151.7 151.7 149.7 148.2 146.6 145.7 144.9 144.7 144.6 144.5 144.8 146.6 146.9 143.1 140.2 137.3 134.7 134.6 135.5 136.5 136.2 134.3 131.6 126.3 120.4 115.3 111.2 106.7 102.8 88 82.8 75.4 68.1 63 59.1 56.4 53.6 51.9 49.8 47.2 44 31.9 9.1 2.7 -1.2 -1.2 -1.2 -1.2 -1.2 -1.2 -1.2 -1.2 -1.2 -1.2 -1.2 -1.2 -1.2 -1.2 -1.2 -1.2 -1.2 -1.2 -1.2 -1.2 -1.2 -1.2 -1.2 -1.2 -1.2 -1.2 -1.2 -1.2 -1.2 -1.2 -1.2 -1.2 -1.2 -1.2 -1.2 -1.2 -1.2 -1.2 -1.2 -1.2 -1.2 -1.2 -1.2 -1.2 -1.2 -1.2 -1.2 -1.2 -1.2 -1.2 -1.2 -1.2 -1.2 -1.2 -1.2 -1.2 -1.2 -1.2 -1.2 -1.2 -1.2 -1.2 -1.2 -1.2 -1.2 -1.2 -1.2 -1.2 -1.2 -1.2 -1.2 -1.2 -1.2 -1.2 -1.2 -1.2 -1.2 -1.2 -1.2 -1.2
131.6 121.8 125.8 131.4 132.8 143.9 149.4 156.3 164.2 173.3 187.5 196.3 204.6 211.5 216.5 220.5 222.1 219.6 214.8 209.8 204.6 200 196.3 192.3 187.8 183.1 178.5 177.5 177.7 179.3 179.9 180.8 180.5 180.9 182.6 185.2 189.1 190.4 187.3 185.8 189.6 196.7 198.4 196.2 188.3 186 185.9 185.8 185.6 187.1 188.6 190.1 191.7 191.8 190.6 189.4 187.8 186.6 182.2 176.4 172.3 171.6 171.2 170.9 170 168.8 167.5 165.8 163.4 160.9 159.1 159.2 158.4 157.3 156.2 154.5 151.5 153.7 153.4 152.8 149.7 146.1 145.3 144.9 144.9 144.7 144.5 146 147 143.1 140.1 137.2 134.9 134.7 135.6 136.4 135.8 133.7 128.6 123.2 118.7 116 115.3 110.5 99.3 87.3 81.5 74.1 68 62.8 58.6 55.7 53.2 51 49.5 46.8 44.1 20.2 8 1.1 -1.2 -1.2 -1.2 -1.2 -1.2 -1.2 -1.2 -1.2 -1.2 -1.2 -1.2 -1.2 -1.2 -1.2 -1.2 -1.2 -1.2 -1.2 -1.2 -1.2 -1.2 -1.2 -1.2 -1.2 -1.2 -1.2 -1.2 -1.2 -1.2 -1.2 -1.2 -1.2 -1.2 -1.2 -1.2 -1.2 -1.2 -1.2 -1.2 -1.2 -1.2 -1.2 -1.2 -1.2 -1.2 -1.2 -1.2 -1.2 -1.2 -1.2 -1.2 -1.2 -1.2 -1.2 -1.2 -1.2 -1.2 -1.2 -1.2 -1.2 -1.2 -1.2 -1.2 -1.2 -1.2 -1.2 -1.2 -1.2 -1.2 -1.2 -1.2 -1.2 -1.2 -1.2 -1.2 -1.2 -1.2 -1.2 -1.2 -1.2
135.2 126.6 126.3 128.8 139.5 145.1 151.8 163.1 175 184.7 194.5 202.2 209 216.5 224.3 233.7 235.3 229.1 221.6 214.2 207.3 203.3 199.7 193.9 186.9 180.4 177.3 171.9 173.3 174.4 175.5 177.2 178.1 178 178.8 177.5 179.1 179.5 182 183.8 189.6 197.3 200 198.1 191.4 186.9 186.8 186.4 186.1 187.2 189.5 191 193 193.8 192.3 189.3 188.1 187.4 181.2 177.1 172.6 172.3 171.9 171.5 170.7 169.5 168.3 166.6 164.1 161.8 160.7 160.3 159.5 158.4 157 154.4 154.2 156.5 156.6 155.7 152.1 148 145.7 145.2 144.9 144.6 144.3 145.7 146.7 143 140.1 137.2 134.9 134.6 135.6 135.8 135.2 132 128.5 123.8 119.9 121.9 118.1 111.7 104.5 88.4 80.4 72.2 66.9 62.3 58.4 54.5 50.6 49.5 48.2 46.2 41.1 13.3 3.4 -1.2 -1.2 -1.2 -1.2 -1.2 -1.2 -1.2 -1.2 -1.2 -1.2 -1.2 -1.2 -1.2 -1.2 -1.2 -1.2 -1.2 -1.2 -1.2 -1.2 -1.2 -1.2 -1.2 -1.2 -1.2 -1.2 -1.2 -1.2 -1.2 -1.2 -1.2 -1.2 -1.2 -1.2 -1.2 -1.2 -1.2 -1.2 -1.2 -1.2 -1.2 -1.2 -1.2 -1.2 -1.2 -1.2 -1.2 -1.2 -1.2 -1.2 -1.2 -1.2 -1.2 -1.2 -1.2 -1.2 -1.2 -1.2 -1.2 -1.2 -1.2 -1.2 -1.2 -1.2 -1.2 -1.2 -1.2 -1.2 -1.2 -1.2 -1.2 -1.2 -1.2 -1.2 -1.2 -1.2 -1.2 -1.2 -1.2 -1.2 -1.2
139.2 128.2 123.6 125 142.3 148.3 161.1 169.6 184.3 195.9 202.9 208.3 214.4 223 231.7 235.8 236.9 233.7 228 221.4 213.4 205.2 197.8 188.8 182.6 177.3 175.5 173.3 170.1 170.9 171.5 171.9 173.4 174.3 174.9 175 175.2 176 177 183 188.8 196 200 199.4 192.9 187.6 187.2 186.9 186.5 187.2 189.6 192.2 194.4 194.5 191.9 189.6 188.3 186.8 181.3 177.4 173.3 172.9 172.5 172.2 171.3 170.2 169.2 167.5 165.4 163.4 161.6 161 160.5 159.4 157.9 156.3 156.2 157.8 159.4 157.2 155.3 150.3 147.2 145.3 144.9 144.5 144.2 144.7 145 142.7 141.1 137.9 134.2 133.6 134.1 135.2 134.7 132.2 128.6 125.2 125.1 123.2 117.7 111 102.8 92.3 79.2 72.3 66.5 62.5 58.7 54.9 51 47.4 46.7 44.4 42.3 29.5 1.6 -1.2 -1.2 -1.2 -1.2 -1.2 -1.2 -1.2 -1.2 -1.2 -1.2 -1.2 -1.2 -1.2 -1.2 -1.2 -1.2 -1.2 -1.2 -1.2 -1.2 -1.2 -1.2 -1.2 -1.2 -1.2 -1.2 -1.2 -1.2 -1.2 -1.2 -1.2 -1.2 -1.2 -1.2 -1.2 -1.2 -1.2 -1.2 -1.2 -1.2 -1.2 -1.2 -1.2 -1.2 -1.2 -1.2 -1.2 -1.2 -1.2 -1.2 -1.2 -1.2 -1.2 -1.2 -1.2 -1.2 -1.2 -1.2 -1.2 -1.2 -1.2 -1.2 -1.2 -1.2 -1.2 -1.2 -1.2 -1.2 -1.2 -1.2 -1.2 -1.2 -1.2 -1.2 -1.2 -1.2 -1.2 -1.2 -1.2 -1.2 -1.2
149.4 136.6 118.8 128 145.9 162.4 179.1 194.2 205.2 214.3 219.4 221.6 225 231.4 238.3 237.3 236.5 234.6 232.1 226.9 217.2 209.4 199.1 190.1 180 174.1 172.3 169.7 164.4 166.7 166.9 168.1 169 169.4 170.2 171.5 173.1 174.3 176.2 183.7 189.1 194.6 197.6 199.3 195 188.1 187.3 186.9 187.1 187.5 190.7 193.1 194.9 194.6 191.9 189.3 188 185.4 182.4 177.5 174.6 173.9 173.3 172.8 172 171.5 171 168.9 166.7 164.6 163.4 162.2 161.6 160.2 158.5 157 157.7 159.8 161 159.5 156.7 154.1 150 146 145 144.6 144.1 143.9 143.9 142.2 140.5 138.4 134 132.9 132.5 134.1 134.1 132.4 128.9 126.2 124.9 121.1 115.1 108.4 101.6 91 82.3 72 67.1 64.3 59.5 55.5 51.6 47.2 45.2 42.9 40.9 22.4 1.9 -1.2 -1.2 -1.2 -1.2 -1.2 -1.2 -1.2 -1.2 -1.2 -1.2 -1.2 -1.2 -1.2 -1.2 -1.2 -1.2 -1.2 -1.2 -1.2 -1.2 -1.2 -1.2 -1.2 -1.2 -1.2 -1.2 -1.2 -1.2 -1.2 -1.2 -1.2 -1.2 -1.2 -1.2 -1.2 -1.2 -1.2 -1.2 -1.2 -1.2 -1.2 -1.2 -1.2 -1.2 -1.2 -1.2 -1.2 -1.2 -1.2 -1.2 -1.2 -1.2 -1.2 -1.2 -1.2 -1.2 -1.2 -1.2 -1.2 -1.2 -1.2 -1.2 -1.2 -1.2 -1.2 -1.2 -1.2 -1.2 -1.2 -1.2 -1.2 -1.2 -1.2 -1.2 -1.2 -1.2 -1.2 -1.2 -1.2 -1.2 -1.2
162.4 136.5 115.4 126.8 151 171.8 193 208.4 218.6 228.2 233.1 235.9 237.7 240.4 242.6 238.1 233.8 233.2 233 225.8 217.5 211.9 202.1 190.6 178.9 170.9 168.7 165.2 163.7 160.5 162.1 163.2 164.6 164.5 165.9 168 169.6 171.6 175.2 185.6 191.2 194.2 196.7 197.2 194 189.3 187.6 187.1 187.4 187.9 191.3 194.2 194.5 194.4 191.8 188.6 186.6 184 182.1 178 174.8 174.2 173.6 173.1 172.9 172.5 172 170.7 168.6 166.1 164.6 163 162.7 161.9 160.4 158.8 159.3 161.2 162.5 161.6 158.4 155 151.5 147.9 145.3 144.3 143.8 143.8 143.9 142.1 140.2 138.3 134.4 132.5 131.8 132 133 132 130.1 128.3 125.9 122.2 115.2 107.2 99.3 92.1 81.8 72.9 68 65.6 61.4 56.3 52.4 47.8 41.6 35.6 40.3 4.7 0.5 -1.2 -1.2 -1.2 -1.2 -1.2 -1.2 -1.2 -1.2 -1.2 -1.2 -1.2 -1.2 -1.2 -1.2 -1.2 -1.2 -1.2 -1.2 -1.2 -1.2 -1.2 -1.2 -1.2 -1.2 -1.2 -1.2 -1.2 -1.2 -1.2 -1.2 -1.2 -1.2 -1.2 -1.2 -1.2 -1.2 -1.2 -1.2 -1.2 -1.2 -1.2 -1.2 -1.2 -1.2 -1.2 -1.2 -1.2 -1.2 -1.2 -1.2 -1.2 -1.2 -1.2 -1.2 -1.2 -1.2 -1.2 -1.2 -1.2 -1.2 -1.2 -1.2 -1.2 -1.2 -1.2 -1.2 -1.2 -1.2 -1.2 -1.2 -1.2 -1.2 -1.2 -1.2 -1.2 -1.2 -1.2 -1.2 -1.2 -1.2 -1.2
150.7 132.1 114 123.6 152.6 181.2 206.3 223.5 233.2 240.2 246 245.5 246 246.8 242.5 236.1 232 227.5 223.4 220.3 215.3 209.5 200.6 190.1 177.3 168.4 164.7 161.1 159.9 157.9 157.8 159.1 161.1 161.7 162 164.3 166.8 170.3 175.4 186.5 191.5 194 196 195.2 194.5 193.1 188.2 187.6 187.6 188.3 190.3 193.3 193.6 191.9 190.9 189.1 187 185.1 182.5 178.7 174.6 174 173.6 173.4 173.1 172.9 172.6 171.9 170.6 167.4 165.6 164.1 163.2 162.8 161.8 160.9 160.6 162.4 165 163.9 161.4 158.2 153.2 149.7 146.2 145.2 144.2 143.5 143.8 142.1 140.3 138.1 134.6 132 131.7 131.7 132 131.5 130.3 129.1 128.4 124.8 119.6 111.2 99.2 89.7 80.5 74 69.3 66.7 63.4 58.1 52.9 48.6 43.8 36.7 18 -1.2 -1.2 -1.2 -1.2 -1.2 -1.2 -1.2 -1.2 -1.2 -1.2 -1.2 -1.2 -1.2 -1.2 -1.2 -1.2 -1.2 -1.2 -1.2 -1.2 -1.2 -1.2 -1.2 -1.2 -1.2 -1.2 -1.2 -1.2 -1.2 -1.2 -1.2 -1.2 -1.2 -1.2 -1.2 -1.2 -1.2 -1.2 -1.2 -1.2 -1.2 -1.2 -1.2 -1.2 -1.2 -1.2 -1.2 -1.2 -1.2 -1.2 -1.2 -1.2 -1.2 -1.2 -1.2 -1.2 -1.2 -1.2 -1.2 -1.2 -1.2 -1.2 -1.2 -1.2 -1.2 -1.2 -1.2 -1.2 -1.2 -1.2 -1.2 -1.2 -1.2 -1.2 -1.2 -1.2 -1.2 -1.2 -1.2 -1.2 -1.2 -1.2 -1.2
141.2 129.8 120.5 120.2 147 175.7 214.8 239.9 244.1 246.2 249.5 247 244 241.4 238.4 234.8 228.9 224 218.1 211.4 206.7 202.7 196.6 187.6 177.8 168.9 161.7 158.3 156.3 152.6 153 156.2 158 157.3 161 162.9 165.9 169.9 175.4 185.2 191.7 195.1 196.1 196.5 195.2 193.1 190 188.4 188.1 188.7 189.3 193.7 192.7 190.5 189.4 188.9 188.1 186.2 182.8 179 175.1 174 173.8 173.6 173.4 173.2 173 172.6 170.6 168.9 167.6 165.8 164.8 164 164 163.6 162.7 164.4 167 166.5 163.4 159.3 154.9 151.5 147.2 146 144.6 143.7 143.5 142.2 139.9 137.5 134.5 131.7 131.5 131.4 131.3 130.2 129.1 129.8 129.9 128.1 122.7 116.9 105.4 88.9 80 73.6 70 67.8 65 58.7 53.8 48.9 44.5 21.9 12.5 -1.2 -1.2 -1.2 -1.2 -1.2 -1.2 -1.2 -1.2 -1.2 -1.2 -1.2 -1.2 -1.2 -1.2 -1.2 -1.2 -1.2 -1.2 -1.2 -1.2 -1.2 -1.2 -1.2 -1.2 -1.2 -1.2 -1.2 -1.2 -1.2 -1.2 -1.2 -1.2 -1.2 -1.2 -1.2 -1.2 -1.2 -1.2 -1.2 -1.2 -1.2 -1.2 -1.2 -1.2 -1.2 -1.2 -1.2 -1.2 -1.2 -1.2 -1.2 -1.2 -1.2 -1.2 -1.2 -1.2 -1.2 -1.2 -1.2 -1.2 -1.2 -1.2 -1.2 -1.2 -1.2 -1.2 -1.2 -1.2 -1.2 -1.2 -1.2 -1.2 -1.2 -1.2 -1.2 -1.2 -1.2 -1.2 -1.2 -1.2 -1.2 -1.2 -1.2
130.7 130.4 116.6 119.6 124 153.1 196.5 234.8 240.7 244.4 247.7 246.4 246.2 239.7 238.1 234.5 230.9 225.1 219.2 210.1 202.6 194.8 190.3 183.9 175.5 166 158.9 155.6 154.1 150.4 150.3 153 155.4 157.6 160.6 163.2 165.9 170.9 178.9 186.8 193.2 195.4 196.9 198.7 196.6 192.5 190.1 189.5 188.7 188.6 189.1 192.8 192.1 189.5 188.4 187.8 187 186.7 183.4 179.7 176.1 174.2 174 173.8 173.6 173.4 173.2 173.1 172.3 171.1 169.5 167.4 166.6 167 167.2 165.5 165.1 167.3 169.4 168.9 165.7 161.6 156.3 152.5 149.3 146.5 145.1 144.2 143.6 141.6 138.8 136.1 133.4 131.3 130.3 131.1 130 129 129.7 130.5 130.4 128.8 123.1 116.6 106.3 90.3 77.6 73.2 70.8 68.7 65.4 59.8 54.9 49.9 44.3 14.1 6.5 -1.2 -1.2 -1.2 -1.2 -1.2 -1.2 -1.2 -1.2 -1.2 -1.2 -1.2 -1.2 -1.2 -1.2 -1.2 -1.2 -1.2 -1.2 -1.2 -1.2 -1.2 -1.2 -1.2 -1.2 -1.2 -1.2 -1.2 -1.2 -1.2 -1.2 -1.2 -1.2 -1.2 -1.2 -1.2 -1.2 -1.2 -1.2 -1.2 -1.2 -1.2 -1.2 -1.2 -1.2 -1.2 -1.2 -1.2 -1.2 -1.2 -1.2 -1.2 -1.2 -1.2 -1.2 -1.2 -1.2 -1.2 -1.2 -1.2 -1.2 -1.2 -1.2 -1.2 -1.2 -1.2 -1.2 -1.2 -1.2 -1.2 -1.2 -1.2 -1.2 -1.2 -1.2 -1.2 -1.2 -1.2 -1.2 -1.2 -1.2 -1.2 -1.2 -1.2
129.8 127.8 133.1 127.2 112.8 142.6 193.8 225.1 234.3 235.9 240.1 242.7 239.9 235.5 233.4 229.2 224.9 221.3 217.1 208.2 200.1 193.7 184.4 177 168.1 156.6 150.5 150.3 151.3 148.1 147.8 150.3 151.6 155 158.2 161.8 166.1 172.6 182.2 190.6 194.8 196.3 198.4 198.7 196.6 192.8 190.6 189.6 188.8 188.3 188.3 190.4 188.2 186.6 187.1 186.4 186.5 186.8 184.6 181.5 177.8 174.8 174.4 174.2 174 173.8 173.7 173.3 172.6 171.8 170.7 168.9 169.6 169.7 169 167.2 166.9 168.8 171.8 171.6 168.4 163.8 158.1 153.7 150.7 147.4 146.5 146.6 144.8 140.7 137.4 134.6 132.1 131 130 129.9 128.9 128.4 129.6 130.8 130.5 126.4 120.8 113.6 104.4 89.1 76.9 74.8 73.8 70.6 66.3 60.6 54.9 49.3 43.6 34.6 -1.2 -1.2 -1.2 -1.2 -1.2 -1.2 -1.2 -1.2 -1.2 -1.2 -1.2 -1.2 -1.2 -1.2 -1.2 -1.2 -1.2 -1.2 -1.2 -1.2 -1.2 -1.2 -1.2 -1.2 -1.2 -1.2 -1.2 -1.2 -1.2 -1.2 -1.2 -1.2 -1.2 -1.2 -1.2 -1.2 -1.2 -1.2 -1.2 -1.2 -1.2 -1.2 -1.2 -1.2 -1.2 -1.2 -1.2 -1.2 -1.2 -1.2 -1.2 -1.2 -1.2 -1.2 -1.2 -1.2 -1.2 -1.2 -1.2 -1.2 -1.2 -1.2 -1.2 -1.2 -1.2 -1.2 -1.2 -1.2 -1.2 -1.2 -1.2 -1.2 -1.2 -1.2 -1.2 -1.2 -1.2 -1.2 -1.2 -1.2 -1.2 -1.2 -1.2 -1.2
128.5 123.3 136.6 127.5 109.7 132.2 168.4 200.2 227.8 229.4 224.3 225 222.6 218.4 216.1 211.6 207.9 205.1 202.3 196 193.3 190.3 180.4 169.9 156.3 149.8 132.9 142 144.4 143.8 147.5 148.4 150.7 153.3 156.9 161.1 166.5 175.6 185.7 195 196.7 198.1 197.7 197.8 197.2 194.4 192.6 190.6 188.9 188.4 187.3 187.3 185.2 184.3 184.7 185.8 186 186.1 185.4 183.5 179.7 176 174.8 174.6 174.5 174.3 174.2 173.1 172.7 172.3 171.7 170.5 170.7 170.7 169.8 168 168.3 171.4 174.2 172.8 170.5 165.5 159.5 154.9 151.6 148.4 147.2 148.8 146 141.8 136.3 133.9 131.7 130.6 129.6 128.7 128.2 127.6 128.3 129.4 130.8 127.1 118 110.3 99.5 85.6 77.9 76.9 75.2 73.9 67.6 60.1 54.3 48.2 42.8 30.6 -1.2 -1.2 -1.2 -1.2 -1.2 -1.2 -1.2 -1.2 -1.2 -1.2 -1.2 -1.2 -1.2 -1.2 -1.2 -1.2 -1.2 -1.2 -1.2 -1.2 -1.2 -1.2 -1.2 -1.2 -1.2 -1.2 -1.2 -1.2 -1.2 -1.2 -1.2 -1.2 -1.2 -1.2 -1.2 -1.2 -1.2 -1.2 -1.2 -1.2 -1.2 -1.2 -1.2 -1.2 -1.2 -1.2 -1.2 -1.2 -1.2 -1.2 -1.2 -1.2 -1.2 -1.2 -1.2 -1.2 -1.2 -1.2 -1.2 -1.2 -1.2 -1.2 -1.2 -1.2 -1.2 -1.2 -1.2 -1.2 -1.2 -1.2 -1.2 -1.2 -1.2 -1.2 -1.2 -1.2 -1.2 -1.2 -1.2 -1.2 -1.2 -1.2 -1.2 -1.2
128.5 122.6 122.6 122.8 108.8 126.4 149.5 176.7 205.4 213.3 209.1 201.1 193.8 191.6 191 190 187 182 177.3 175.1 174.5 169.8 163.8 149.3 141.6 147.4 116.4 136 146.3 146 147 148.6 150.3 152.4 155.8 160.1 170.5 181.5 193 198.1 199.5 199.6 198.7 197.2 197.2 195.3 194 193.3 193.3 188.2 186.7 185.2 182.7 182.1 182.6 183.2 183.9 184.6 184.8 182.6 179.4 175.6 175 175 175 174.8 174.7 173.1 172.9 172.7 172.2 171.8 171.8 171.8 170.6 169.1 169.8 173.4 176.6 175.1 171.7 167 161.1 155.9 152.5 149.2 147.6 148.5 145.7 140.8 135.8 134.3 132 130.3 129.2 128.6 127.8 126.9 127.2 128 129.5 128.8 118.9 106.1 98.5 85.6 78.6 75.4 75.4 73.6 66.2 59.5 53.5 46.3 41 33 -1.2 -1.2 -1.2 -1.2 -1.2 -1.2 -1.2 -1.2 -1.2 -1.2 -1.2 -1.2 -1.2 -1.2 -1.2 -1.2 -1.2 -1.2 -1.2 -1.2 -1.2 -1.2 -1.2 -1.2 -1.2 -1.2 -1.2 -1.2 -1.2 -1.2 -1.2 -1.2 -1.2 -1.2 -1.2 -1.2 -1.2 -1.2 -1.2 -1.2 -1.2 -1.2 -1.2 -1.2 -1.2 -1.2 -1.2 -1.2 -1.2 -1.2 -1.2 -1.2 -1.2 -1.2 -1.2 -1.2 -1.2 -1.2 -1.2 -1.2 -1.2 -1.2 -1.2 -1.2 -1.2 -1.2 -1.2 -1.2 -1.2 -1.2 -1.2 -1.2 -1.2 -1.2 -1.2 -1.2 -1.2 -1.2 -1.2 -1.2 -1.2 -1.2 -1.2 -1.2
127.8 122.5 121.3 120.4 107.6 117.3 130.7 155.4 180.8 196.3 195.3 179.5 170 162.9 162.2 159 154.9 149.2 145.3 144.6 145.8 144.2 139.7 131.5 130.4 126.8 105.5 131.1 147.5 151.9 147.8 148.4 149.2 150.9 155.1 159.7 173.4 187.5 195.1 200.1 201.3 200.7 199.7 198.3 196.7 195.8 195 194.3 194 188.2 185.2 183.2 182.9 180.9 180.7 181.1 181.7 183.1 183.9 181.6 177.7 175.3 175.1 174.8 174.8 174.7 175.3 174.9 175 174.4 173.7 174.1 173.6 172.9 172 171 171.1 175.5 177.7 175.5 172.8 167.8 161.9 155.7 153.4 150.2 148.3 149.5 147.3 141.3 136.3 133.6 131.5 129.9 128.8 128.4 128.3 127.2 126.8 128.1 128.6 125.5 117.7 103.9 95.1 86.9 82 77.1 74.7 70.7 64 55.5 52.6 45.8 37.3 28.2 -1.2 -1.2 -1.2 -1.2 -1.2 -1.2 -1.2 -1.2 -1.2 -1.2 -1.2 -1.2 -1.2 -1.2 -1.2 -1.2 -1.2 -1.2 -1.2 -1.2 -1.2 -1.2 -1.2 -1.2 -1.2 -1.2 -1.2 -1.2 -1.2 -1.2 -1.2 -1.2 -1.2 -1.2 -1.2 -1.2 -1.2 -1.2 -1.2 -1.2 -1.2 -1.2 -1.2 -1.2 -1.2 -1.2 -1.2 -1.2 -1.2 -1.2 -1.2 -1.2 -1.2 -1.2 -1.2 -1.2 -1.2 -1.2 -1.2 -1.2 -1.2 -1.2 -1.2 -1.2 -1.2 -1.2 -1.2 -1.2 -1.2 -1.2 -1.2 -1.2 -1.2 -1.2 -1.2 -1.2 -1.2 -1.2 -1.2 -1.2 -1.2 -1.2 -1.2 -1.2
130.5 125.7 123.3 119.5 106.8 115.6 119.2 137.5 168.6 180.5 174.8 160.5 143.4 135.1 130 125.7 123.1 120.5 116.1 115.3 116.7 115.8 114.7 111.9 102.9 99 101.1 119.5 135.5 146.6 147.6 146.9 147.6 149.5 152.8 157.5 173 189.5 195.5 199.5 201.1 201.6 200.6 199.5 197.5 196.4 195.6 194.9 192.6 188.2 183.1 181.9 179.3 179.8 179.4 179.6 179.6 180.6 180.6 179 177.6 175.8 174.3 174.2 174.3 175.3 177.1 177 176.6 176 175.4 176.6 176.9 176.3 175.1 173.7 172.7 177.4 177.9 175.9 173.1 168.5 162.6 156.8 155 152.1 149.1 150.4 150.5 143 137.5 133 131 129.7 128.5 128.2 128.2 127.5 126.6 125.7 124.1 121.7 113.4 102.9 93.3 86.2 80.9 77.4 78 73.8 66.6 58.1 47.9 40 36.4 -1.2 -1.2 -1.2 -1.2 -1.2 -1.2 -1.2 -1.2 -1.2 -1.2 -1.2 -1.2 -1.2 -1.2 -1.2 -1.2 -1.2 -1.2 -1.2 -1.2 -1.2 -1.2 -1.2 -1.2 -1.2 -1.2 -1.2 -1.2 -1.2 -1.2 -1.2 -1.2 -1.2 -1.2 -1.2 -1.2 -1.2 -1.2 -1.2 -1.2 -1.2 -1.2 -1.2 -1.2 -1.2 -1.2 -1.2 -1.2 -1.2 -1.2 -1.2 -1.2 -1.2 -1.2 -1.2 -1.2 -1.2 -1.2 -1.2 -1.2 -1.2 -1.2 -1.2 -1.2 -1.2 -1.2 -1.2 -1.2 -1.2 -1.2 -1.2 -1.2 -1.2 -1.2 -1.2 -1.2 -1.2 -1.2 -1.2 -1.2 -1.2 -1.2 -1.2 -1.2 -1.2
135.1 126.2 123.2 118.6 109.3 114.5 117.1 127.9 155.2 158.2 149.5 133.9 122.1 113.4 107.6 106 105 96.7 92.1 92.4 92.9 90.5 90.2 89.1 90.4 94.4 96.6 99.5 126.2 138 144.4 144.4 144.6 147.1 150.6 156.5 173.1 191.1 196.4 199.9 201.3 201.5 201 200 198 197.1 196.1 194.3 189.8 184.4 180.8 180.2 177.2 176 178.1 177.6 177 176.1 177.1 177.9 176.1 174.5 173 174.7 175.7 176.7 178.9 178.6 178.2 177.7 177.5 178.6 179.4 179.2 177.5 176 174.6 177.1 178.2 176.3 173.4 169.4 163.5 158.3 155.9 153.9 150.7 152.4 150.9 143.9 137.9 133.9 130.9 129.2 127.6 128.6 128.6 127.1 124.4 120.2 119.9 117.2 110.4 101.4 92.8 83.8 80.7 80.8 78.1 73 67.3 57.7 50.3 44.5 -1.2 -1.2 -1.2 -1.2 -1.2 -1.2 -1.2 -1.2 -1.2 -1.2 -1.2 -1.2 -1.2 -1.2 -1.2 -1.2 -1.2 -1.2 -1.2 -1.2 -1.2 -1.2 -1.2 -1.2 -1.2 -1.2 -1.2 -1.2 -1.2 -1.2 -1.2 -1.2 -1.2 -1.2 -1.2 -1.2 -1.2 -1.2 -1.2 -1.2 -1.2 -1.2 -1.2 -1.2 -1.2 -1.2 -1.2 -1.2 -1.2 -1.2 -1.2 -1.2 -1.2 -1.2 -1.2 -1.2 -1.2 -1.2 -1.2 -1.2 -1.2 -1.2 -1.2 -1.2 -1.2 -1.2 -1.2 -1.2 -1.2 -1.2 -1.2 -1.2 -1.2 -1.2 -1.2 -1.2 -1.2 -1.2 -1.2 -1.2 -1.2 -1.2 -1.2 -1.2 -1.2 -1.2
147.8 130.8 126.3 115.6 106.3 114.9 113.6 112.5 125.9 126.5 120.8 114.8 108.2 108.3 106.4 94.5 94.3 99.6 102.1 103.8 101.3 97.5 95 95.8 96.2 88.4 88 86.3 116.9 132.3 141.1 140.9 141.2 144.4 149 157.1 176.6 192.6 198.1 200.3 201 200.8 200.7 200.2 198.6 197.8 196.6 194.2 187.1 179 174.6 174.1 175 174.3 176.4 175.9 174.5 174.2 172.3 173.2 173.7 172.5 171.9 173.6 175.3 178.2 180.6 180.2 179.9 179.8 179.8 180.8 181.9 182.3 180.8 179.1 177.2 176 176.8 176.3 173.5 169.8 165 159.1 158 154.8 151.3 152.2 150 143.9 138.8 133.9 129.9 127.7 127.5 128.7 128.4 125.7 123 120.2 113.9 111.1 106.7 99.2 90.6 84.3 82.9 84.8 81.1 75.3 67.6 57.1 46.2 40.1 -1.2 -1.2 -1.2 -1.2 -1.2 -1.2 -1.2 -1.2 -1.2 -1.2 -1.2 -1.2 -1.2 -1.2 -1.2 -1.2 -1.2 -1.2 -1.2 -1.2 -1.2 -1.2 -1.2 -1.2 -1.2 -1.2 -1.2 -1.2 -1.2 -1.2 -1.2 -1.2 -1.2 -1.2 -1.2 -1.2 -1.2 -1.2 -1.2 -1.2 -1.2 -1.2 -1.2 -1.2 -1.2 -1.2 -1.2 -1.2 -1.2 -1.2 -1.2 -1.2 -1.2 -1.2 -1.2 -1.2 -1.2 -1.2 -1.2 -1.2 -1.2 -1.2 -1.2 -1.2 -1.2 -1.2 -1.2 -1.2 -1.2 -1.2 -1.2 -1.2 -1.2 -1.2 -1.2 -1.2 -1.2 -1.2 -1.2 -1.2 -1.2 -1.2 -1.2 -1.2 -1.2 -1.2
151.8 139.3 129.4 115.8 110.2 105.7 114 112.8 112.2 110.2 109.2 108.1 107.6 100.9 100.3 106.4 119.9 128.6 135.5 136.2 133.1 128.7 127.2 123.9 109.9 99 92.8 88.9 106.7 125.1 135.7 136.1 138.3 141.7 148.5 159.5 180.1 195.3 199.2 200.5 200.4 200.4 200.3 200 199.3 197.9 196.6 193.7 185.4 177.1 171.1 170.9 170.7 172.9 174.2 174.3 171.2 169.2 169.1 170.2 170.8 170 170.8 172.2 174.7 178.9 181.6 182 181.6 181.8 182.3 183.4 184.5 184.8 184.4 182.2 178.9 176.5 176.8 175.6 173.4 170.5 165.4 160.1 158 154.9 151.8 151.3 147.6 143.8 137.9 134 130.7 126.8 125.9 127.2 128.3 126.1 121.9 117.8 113 107.4 101.8 95.5 90.2 84.3 88.5 87 81.1 75.1 66.5 53.9 44.2 -1.2 -1.2 -1.2 -1.2 -1.2 -1.2 -1.2 -1.2 -1.2 -1.2 -1.2 -1.2 -1.2 -1.2 -1.2 -1.2 -1.2 -1.2 -1.2 -1.2 -1.2 -1.2 -1.2 -1.2 -1.2 -1.2 -1.2 -1.2 -1.2 -1.2 -1.2 -1.2 -1.2 -1.2 -1.2 -1.2 -1.2 -1.2 -1.2 -1.2 -1.2 -1.2 -1.2 -1.2 -1.2 -1.2 -1.2 -1.2 -1.2 -1.2 -1.2 -1.2 -1.2 -1.2 -1.2 -1.2 -1.2 -1.2 -1.2 -1.2 -1.2 -1.2 -1.2 -1.2 -1.2 -1.2 -1.2 -1.2 -1.2 -1.2 -1.2 -1.2 -1.2 -1.2 -1.2 -1.2 -1.2 -1.2 -1.2 -1.2 -1.2 -1.2 -1.2 -1.2 -1.2 -1.2 -1.2
155.8 145.7 137.4 122.1 112.5 108.5 108.3 107.3 106.9 99.6 103 102.6 96.2 110.3 126 138.4 148.9 157.1 163.1 165.4 164.5 159.2 148.5 134.8 115 93 91 85.8 107 122.1 127.5 131.3 135.5 141.4 149.2 159.1 180.3 197.1 199.8 200.1 200.1 200 199.8 199.4 199.3 198.4 197 194 186.2 175.5 170.7 170.3 170 169.2 170.4 170.2 169.2 168.4 167.8 167.6 167.8 168 169.3 170.8 175.6 179.8 182.1 182.9 183.4 184.2 185.2 186.1 186.5 186.8 186.8 183.7 180.8 176.1 175.6 174.8 173.2 169.9 164.6 161.4 158.9 154.5 152.1 151 146.9 142.4 137.6 134.2 130.9 126.9 123.6 124.8 127.4 126 122 117.3 111.8 105.6 98.6 94.5 91.3 87.4 89.6 87.1 81.4 75 64.6 50.2 39.7 -1.2 -1.2 -1.2 -1.2 -1.2 -1.2 -1.2 -1.2 -1.2 -1.2 -1.2 -1.2 -1.2 -1.2 -1.2 -1.2 -1.2 -1.2 -1.2 -1.2 -1.2 -1.2 -1.2 -1.2 -1.2 -1.2 -1.2 -1.2 -1.2 -1.2 -1.2 -1.2 -1.2 -1.2 -1.2 -1.2 -1.2 -1.2 -1.2 -1.2 -1.2 -1.2 -1.2 -1.2 -1.2 -1.2 -1.2 -1.2 -1.2 -1.2 -1.2 -1.2 -1.2 -1.2 -1.2 -1.2 -1.2 -1.2 -1.2 -1.2 -1.2 -1.2 -1.2 -1.2 -1.2 -1.2 -1.2 -1.2 -1.2 -1.2 -1.2 -1.2 -1.2 -1.2 -1.2 -1.2 -1.2 -1.2 -1.2 -1.2 -1.2 -1.2 -1.2 -1.2 -1.2 -1.2 -1.2
164.6 155.9 145.8 138.6 123 111.6 106.1 102.1 100.1 98.5 102.8 110 126.6 139.4 148.9 162.5 175.5 186.8 194.1 196.2 194.3 183.5 168.1 143.8 121.5 90.2 90 84.7 108.3 116 120.3 126.9 134 141.1 149.4 168 189.8 199.4 200.6 200.2 199.7 199.6 199.2 198.8 198.7 198.7 197 193.8 186 174.1 170.4 169.9 169.7 169.1 168.1 168.1 168.2 168.6 166.7 166.6 167.1 167.4 168.4 171.7 176.2 180.4 182.6 183.3 184.3 185.2 186 186.6 188.3 190.1 187.9 185.3 182 176.5 174.3 174.8 171.8 171.1 166.5 161.6 158.3 154.9 152 150.8 145.1 142.1 137.4 133.4 130.2 126.1 122.7 122.8 125.9 125.5 121.9 116.9 110.4 105.4 100.5 95 91.7 90.3 88.4 86 81.1 73.6 62.6 47.5 25.1 -1.2 -1.2 -1.2 -1.2 -1.2 -1.2 -1.2 -1.2 -1.2 -1.2 -1.2 -1.2 -1.2 -1.2 -1.2 -1.2 -1.2 -1.2 -1.2 -1.2 -1.2 -1.2 -1.2 -1.2 -1.2 -1.2 -1.2 -1.2 -1.2 -1.2 -1.2 -1.2 -1.2 -1.2 -1.2 -1.2 -1.2 -1.2 -1.2 -1.2 -1.2 -1.2 -1.2 -1.2 -1.2 -1.2 -1.2 -1.2 -1.2 -1.2 -1.2 -1.2 -1.2 -1.2 -1.2 -1.2 -1.2 -1.2 -1.2 -1.2 -1.2 -1.2 -1.2 -1.2 -1.2 -1.2 -1.2 -1.2 -1.2 -1.2 -1.2 -1.2 -1.2 -1.2 -1.2 -1.2 -1.2 -1.2 -1.2 -1.2 -1.2 -1.2 -1.2 -1.2 -1.2 -1.2 -1.2
179.8 169.1 159.9 153.5 149.4 141.1 135.3 129.9 126.9 128.9 134.1 139.2 147.1 157.3 171 183.9 199.4 211.8 219.9 221.1 209.7 197.8 177.4 148.2 120.8 89.7 85.5 91.4 104.2 112.6 119.9 125.5 132.5 141.1 154.1 178.2 201.1 202.9 200.9 200.2 199.7 199 198.6 198.3 198.2 198.2 198.4 198 187.8 173.8 170.4 169.9 169.6 169.3 167.7 166.5 165.8 165.6 165.4 165.4 165.8 166.4 168.7 171.5 176.5 180.7 182.7 183.1 184.8 186 186.6 187.2 189.7 191.6 189.4 186.5 182.7 176.2 174.2 173.2 173.2 171.5 168.4 162.5 158.3 155 152.3 149.9 144.6 140.3 137.2 133.2 128.5 124.7 121.1 120.3 122.9 124.5 122.1 116.3 109.7 105.6 101.9 97.5 93.9 90.5 87.8 84.4 78.6 71 60.1 44.4 -1.2 -1.2 -1.2 -1.2 -1.2 -1.2 -1.2 -1.2 -1.2 -1.2 -1.2 -1.2 -1.2 -1.2 -1.2 -1.2 -1.2 -1.2 -1.2 -1.2 -1.2 -1.2 -1.2 -1.2 -1.2 -1.2 -1.2 -1.2 -1.2 -1.2 -1.2 -1.2 -1.2 -1.2 -1.2 -1.2 -1.2 -1.2 -1.2 -1.2 -1.2 -1.2 -1.2 -1.2 -1.2 -1.2 -1.2 -1.2 -1.2 -1.2 -1.2 -1.2 -1.2 -1.2 -1.2 -1.2 -1.2 -1.2 -1.2 -1.2 -1.2 -1.2 -1.2 -1.2 -1.2 -1.2 -1.2 -1.2 -1.2 -1.2 -1.2 -1.2 -1.2 -1.2 -1.2 -1.2 -1.2 -1.2 -1.2 -1.2 -1.2 -1.2 -1.2 -1.2 -1.2 -1.2 -1.2 -1.2
196.4 181.7 181.4 177.8 174 162.8 160.8 155.8 152.5 151.4 156.6 160 168.3 179.1 190.7 205.6 220.2 233.9 245.5 244.8 226.8 204.5 177.1 151.9 123.1 91.9 83.9 92.8 102.3 111.1 116.3 122.5 131.7 145 165.1 188.7 204.2 207.4 204.4 200.6 199.4 198.7 198.1 197.7 197.8 197.9 198 197.5 191.2 178.4 170.9 170.4 170 169.6 167.9 165.8 165.1 164.6 164.2 164.2 164.2 164.4 167.6 170.6 176.4 180.5 182 183 184.4 185.3 186.9 187.4 190.7 193 191.4 187.3 182.3 175.6 173.4 172.3 173.7 172 168.5 163.3 158 155.7 152 148.1 144 139.1 137.1 132.3 127.2 122.9 119.6 117.8 119.6 123.2 122.2 115.3 109.4 104.8 101.1 96.5 93.6 90.6 86.8 81.1 75.7 69.4 56.2 2 -1.2 -1.2 -1.2 -1.2 -1.2 -1.2 -1.2 -1.2 -1.2 -1.2 -1.2 -1.2 -1.2 -1.2 -1.2 -1.2 -1.2 -1.2 -1.2 -1.2 -1.2 -1.2 -1.2 -1.2 -1.2 -1.2 -1.2 -1.2 -1.2 -1.2 -1.2 -1.2 -1.2 -1.2 -1.2 -1.2 -1.2 -1.2 -1.2 -1.2 -1.2 -1.2 -1.2 -1.2 -1.2 -1.2 -1.2 -1.2 -1.2 -1.2 -1.2 -1.2 -1.2 -1.2 -1.2 -1.2 -1.2 -1.2 -1.2 -1.2 -1.2 -1.2 -1.2 -1.2 -1.2 -1.2 -1.2 -1.2 -1.2 -1.2 -1.2 -1.2 -1.2 -1.2 -1.2 -1.2 -1.2 -1.2 -1.2 -1.2 -1.2 -1.2 -1.2 -1.2 -1.2 -1.2 -1.2 -1.2
208.2 202 205.1 201.9 193.3 192.2 191.2 184.2 178 174.8 178.3 182.5 191.6 204.3 216.2 226.5 238.4 249.3 254 248.1 234.2 202.8 174.7 151.6 129.6 105.8 85.3 89.4 94.9 110 115.7 123 131.4 151.5 173.1 188.4 203.8 207.4 207.4 205.2 199.5 198.4 197.6 197.2 197.1 197.1 197.1 196.1 191.2 184 172.8 170.9 170.5 170.5 167.9 165.1 164.4 164 163.6 163.1 163.3 163.9 166.6 169.8 174.6 179.8 181.3 181.3 183.7 184.3 185.6 187.7 191.3 193.7 191.5 187.1 181 175.6 172.5 171.5 174 171.6 169.1 163.6 158.4 155.8 151.3 148.2 144.3 139.6 136.5 131.3 126.1 121.2 118.2 115.2 117 121.1 120.9 116.5 109.7 105.4 100.6 96.2 93.2 90.2 86.8 80.4 74 62.5 41.6 2.1 -1.2 -1.2 -1.2 -1.2 -1.2 -1.2 -1.2 -1.2 -1.2 -1.2 -1.2 -1.2 -1.2 -1.2 -1.2 -1.2 -1.2 -1.2 -1.2 -1.2 -1.2 -1.2 -1.2 -1.2 -1.2 -1.2 -1.2 -1.2 -1.2 -1.2 -1.2 -1.2 -1.2 -1.2 -1.2 -1.2 -1.2 -1.2 -1.2 -1.2 -1.2 -1.2 -1.2 -1.2 -1.2 -1.2 -1.2 -1.2 -1.2 -1.2 -1.2 -1.2 -1.2 -1.2 -1.2 -1.2 -1.2 -1.2 -1.2 -1.2 -1.2 -1.2 -1.2 -1.2 -1.2 -1.2 -1.2 -1.2 -1.2 -1.2 -1.2 -1.2 -1.2 -1.2 -1.2 -1.2 -1.2 -1.2 -1.2 -1.2 -1.2 -1.2 -1.2 -1.2 -1.2 -1.2 -1.2 -1.2
224.3 225.6 229.6 227.6 224.3 223.2 217.7 209.8 201.4 197.4 198.1 206.1 217 226 234.5 242.5 250.4 251.5 250.2 239.6 220.2 192.8 169.5 147.3 129.7 113.3 84.6 85 89.7 107.3 113.1 121.5 136.8 156.9 175.8 187.4 199.2 206 209.2 209.7 201.9 197.9 197.1 196.9 196.7 196.5 196.3 195.3 191.1 185 176.2 171.5 171 169.9 167.3 164.9 164 163.6 162.6 162.2 162.5 163.2 165.8 168.5 172.9 178.8 180.7 179.9 182.3 183.6 183.9 187.3 190.4 193.4 191 185.7 179.4 173.5 171.7 170.5 174.2 170.1 168.1 163.9 157.3 154.6 151.4 146 143.2 139.2 135.3 128.8 124.3 120.4 117.1 115.5 114.6 117.5 117.9 114.8 109 104.9 101.3 96 92.9 89.5 85.2 78.9 69.8 55.5 1.6 -1.2 -1.2 -1.2 -1.2 -1.2 -1.2 -1.2 -1.2 -1.2 -1.2 -1.2 -1.2 -1.2 -1.2 -1.2 -1.2 -1.2 -1.2 -1.2 -1.2 -1.2 -1.2 -1.2 -1.2 -1.2 -1.2 -1.2 -1.2 -1.2 -1.2 -1.2 -1.2 -1.2 -1.2 -1.2 -1.2 -1.2 -1.2 -1.2 -1.2 -1.2 -1.2 -1.2 -1.2 -1.2 -1.2 -1.2 -1.2 -1.2 -1.2 -1.2 -1.2 -1.2 -1.2 -1.2 -1.2 -1.2 -1.2 -1.2 -1.2 -1.2 -1.2 -1.2 -1.2 -1.2 -1.2 -1.2 -1.2 -1.2 -1.2 -1.2 -1.2 -1.2 -1.2 -1.2 -1.2 -1.2 -1.2 -1.2 -1.2 -1.2 -1.2 -1.2 -1.2 -1.2 -1.2 -1.2 -1.2 -1.2
253.6 249 252.8 251.8 251.6 247.9 241 231 222.7 218.7 220.7 228.8 235.9 243.1 249.2 256.8 259.9 252.1 238.3 224 203.6 179.1 159.7 139.6 126.4 113 101 80.8 83.6 89.7 112.8 120 139.2 160.5 177.4 187.6 194.1 205.8 212.5 212.3 207.9 201.1 196.9 196.5 196.3 196 195.9 195.8 190.7 182.7 174.7 171.6 170.8 169.6 167.2 165.1 163.1 162.7 162.6 162.4 161.8 162.4 165.1 167.2 172.3 177.3 179.1 178.9 181.2 182.8 181.7 184.8 190.3 192.2 188.5 184 176.8 171.3 169 169.3 173.3 168.8 166.8 163.5 157.9 152.1 148.3 145.1 141.6 138.3 134.1 127.9 123.1 119.6 116.1 114.2 112.6 113.4 115 112.4 107.6 102.6 99.6 95.6 92.1 88.6 83.8 77.9 64.5 -1.2 -1.2 -1.2 -1.2 -1.2 -1.2 -1.2 -1.2 -1.2 -1.2 -1.2 -1.2 -1.2 -1.2 -1.2 -1.2 -1.2 -1.2 -1.2 -1.2 -1.2 -1.2 -1.2 -1.2 -1.2 -1.2 -1.2 -1.2 -1.2 -1.2 -1.2 -1.2 -1.2 -1.2 -1.2 -1.2 -1.2 -1.2 -1.2 -1.2 -1.2 -1.2 -1.2 -1.2 -1.2 -1.2 -1.2 -1.2 -1.2 -1.2 -1.2 -1.2 -1.2 -1.2 -1.2 -1.2 -1.2 -1.2 -1.2 -1.2 -1.2 -1.2 -1.2 -1.2 -1.2 -1.2 -1.2 -1.2 -1.2 -1.2 -1.2 -1.2 -1.2 -1.2 -1.2 -1.2 -1.2 -1.2 -1.2 -1.2 -1.2 -1.2 -1.2 -1.2 -1.2 -1.2 -1.2 -1.2 -1.2 -1.2 -1.2
276.5 270.4 275.4 275.6 271 268.2 260 252.2 244.2 240 241.7 243.6 246.8 252.9 258.9 265.3 263.2 251.1 229 210.7 188.7 172.5 153.3 134.1 119.5 106.5 95.9 90.3 79.3 82.6 101.2 122.5 147.1 166.8 178.5 186.4 191.9 202.8 210.1 211.1 211.5 208.8 197.4 196.1 196.3 196.2 196.1 197.8 191.3 184.1 173.8 170.8 169.8 168.8 167.2 165.2 163.3 161.9 162 162 161.7 161.3 163.2 165.8 170.8 175.5 177.4 176.6 179.2 180.6 180.1 181.8 188.3 187.7 183.7 179.1 172.4 167.9 166.2 169.1 172 167.7 164.5 161.7 156.3 151.1 146.6 143.2 141.3 138.6 132.8 126.9 121.7 117.6 115 113 111.5 112.2 112.6 110 106.5 101 97.8 94.9 91.1 86.1 81.9 72 -1.2 -1.2 -1.2 -1.2 -1.2 -1.2 -1.2 -1.2 -1.2 -1.2 -1.2 -1.2 -1.2 -1.2 -1.2 -1.2 -1.2 -1.2 -1.2 -1.2 -1.2 -1.2 -1.2 -1.2 -1.2 -1.2 -1.2 -1.2 -1.2 -1.2 -1.2 -1.2 -1.2 -1.2 -1.2 -1.2 -1.2 -1.2 -1.2 -1.2 -1.2 -1.2 -1.2 -1.2 -1.2 -1.2 -1.2 -1.2 -1.2 -1.2 -1.2 -1.2 -1.2 -1.2 -1.2 -1.2 -1.2 -1.2 -1.2 -1.2 -1.2 -1.2 -1.2 -1.2 -1.2 -1.2 -1.2 -1.2 -1.2 -1.2 -1.2 -1.2 -1.2 -1.2 -1.2 -1.2 -1.2 -1.2 -1.2 -1.2 -1.2 -1.2 -1.2 -1.2 -1.2 -1.2 -1.2 -1.2 -1.2 -1.2 -1.2 -1.2
295.7 296.3 298.1 295 288.6 282.4 274.7 267.4 260.6 255.9 253.1 252.7 255.2 258.8 264.8 268.1 262.5 245 221 199 180.9 162.5 146.9 128.4 115.5 99.1 92.7 90.1 88.7 78.4 97.3 128.5 156 170.2 179.1 185.3 191.8 198.7 203.1 209.9 210.9 209.9 201.6 195.8 195.4 195.7 195.9 198.5 195.8 185.2 176.9 170.4 168.9 168.2 166.7 164.7 162.7 161.3 161.3 161.4 161.2 160.6 161.1 164.2 169 173.3 174.7 173.6 177 178.7 178.9 179.2 183.5 183.7 178.3 172.4 166.7 164 163.8 167 170.5 167.4 162.4 159.1 155 150.1 144.7 141.5 138.8 138.4 132.4 125.8 120.6 117.1 114.2 111.8 110.6 107.6 109.6 107.5 102.8 98.9 94.8 92.4 88.3 81.8 75.7 55.1 -1.2 -1.2 -1.2 -1.2 -1.2 -1.2 -1.2 -1.2 -1.2 -1.2 -1.2 -1.2 -1.2 -1.2 -1.2 -1.2 -1.2 -1.2 -1.2 -1.2 -1.2 -1.2 -1.2 -1.2 -1.2 -1.2 -1.2 -1.2 -1.2 -1.2 -1.2 -1.2 -1.2 -1.2 -1.2 -1.2 -1.2 -1.2 -1.2 -1.2 -1.2 -1.2 -1.2 -1.2 -1.2 -1.2 -1.2 -1.2 -1.2 -1.2 -1.2 -1.2 -1.2 -1.2 -1.2 -1.2 -1.2 -1.2 -1.2 -1.2 -1.2 -1.2 -1.2 -1.2 -1.2 -1.2 -1.2 -1.2 -1.2 -1.2 -1.2 -1.2 -1.2 -1.2 -1.2 -1.2 -1.2 -1.2 -1.2 -1.2 -1.2 -1.2 -1.2 -1.2 -1.2 -1.2 -1.2 -1.2 -1.2 -1.2 -1.2 -1.2
317.8 315.5 314.7 311 301.8 292.8 286.1 278.9 272.6 266.2 260.6 256.9 256.4 257.2 262.9 263.8 252.5 231.2 209.7 193.3 172.8 158.8 138.6 117.6 102.3 94.2 89.7 88.3 87.7 78.5 102.3 138.3 160.7 170.5 177.7 184.5 191.5 194.3 199.4 207.4 210.6 208.6 202.5 196.5 193.1 193.9 193.2 195 192.2 182.9 175.6 169.8 166.6 166.2 165.9 164.2 162.1 161.1 160.6 161.1 160.5 159.8 159.7 162.3 167.4 170.5 171.9 171.6 175 175.5 175.7 176 178.6 178.7 172.6 166.4 162 160.4 161.4 164.4 168.9 166.2 161.2 156.3 152.2 148.1 143.8 140.5 137.6 135.3 130 125.3 120.5 116.1 112.3 109.8 109.2 105.1 104.8 103.5 99.1 95.1 91.6 89 85.3 72.3 -1.2 -1.2 -1.2 -1.2 -1.2 -1.2 -1.2 -1.2 -1.2 -1.2 -1.2 -1.2 -1.2 -1.2 -1.2 -1.2 -1.2 -1.2 -1.2 -1.2 -1.2 -1.2 -1.2 -1.2 -1.2 -1.2 -1.2 -1.2 -1.2 -1.2 -1.2 -1.2 -1.2 -1.2 -1.2 -1.2 -1.2 -1.2 -1.2 -1.2 -1.2 -1.2 -1.2 -1.2 -1.2 -1.2 -1.2 -1.2 -1.2 -1.2 -1.2 -1.2 -1.2 -1.2 -1.2 -1.2 -1.2 -1.2 -1.2 -1.2 -1.2 -1.2 -1.2 -1.2 -1.2 -1.2 -1.2 -1.2 -1.2 -1.2 -1.2 -1.2 -1.2 -1.2 -1.2 -1.2 -1.2 -1.2 -1.2 -1.2 -1.2 -1.2 -1.2 -1.2 -1.2 -1.2 -1.2 -1.2 -1.2 -1.2 -1.2 -1.2 -1.2 -1.2
336.8 331.9 330.3 323.7 313.4 304.1 296.5 288.3 282.1 275.8 267.3 259.6 254.2 251.3 252.8 245 232.7 213.2 198.8 185.9 167.3 150.7 125.3 109.6 95.6 90 79.8 79.8 75.9 100.6 128.6 150.7 161.1 167.3 175.6 181.7 190 192.7 196.5 206.1 209.6 206 200.2 196.4 192.4 191.7 189.9 192.3 188.2 181.4 175.1 168.5 165 164.3 164.1 163.4 161.8 160.3 160.3 160.6 159.9 159 158.8 160.9 164.7 167.5 168.9 168.1 172.1 172 172.1 172 173.6 173 169.5 163.6 158.8 157.8 160.3 162.9 166.6 163.2 159.5 154.8 150.3 146 142.2 139 136.3 134 128.6 124.8 120.3 115.9 111.7 108.2 106.6 103.2 99.5 99.1 96.3 91.1 88.3 85.9 75.8 0.6 -1.2 -1.2 -1.2 -1.2 -1.2 -1.2 -1.2 -1.2 -1.2 -1.2 -1.2 -1.2 -1.2 -1.2 -1.2 -1.2 -1.2 -1.2 -1.2 -1.2 -1.2 -1.2 -1.2 -1.2 -1.2 -1.2 -1.2 -1.2 -1.2 -1.2 -1.2 -1.2 -1.2 -1.2 -1.2 -1.2 -1.2 -1.2 -1.2 -1.2 -1.2 -1.2 -1.2 -1.2 -1.2 -1.2 -1.2 -1.2 -1.2 -1.2 -1.2 -1.2 -1.2 -1.2 -1.2 -1.2 -1.2 -1.2 -1.2 -1.2 -1.2 -1.2 -1.2 -1.2 -1.2 -1.2 -1.2 -1.2 -1.2 -1.2 -1.2 -1.2 -1.2 -1.2 -1.2 -1.2 -1.2 -1.2 -1.2 -1.2 -1.2 -1.2 -1.2 -1.2 -1.2 -1.2 -1.2 -1.2 -1.2 -1.2 -1.2 -1.2 -1.2 -1.2
353.7 347.8 341.2 332.8 322.4 315.1 307.2 299.3 290.3 282.5 273.1 261.9 251.3 245.7 239.8 227.1 212.4 200.4 191.8 180.4 160.6 137.5 116.9 98.9 85.7 77.4 75.9 85.7 101.4 122.1 137.3 152.3 159.6 165 169.3 180.2 191.1 192 193 200.8 209.6 201.2 193.7 193.5 192.4 191.5 187.6 187.4 184.1 179 173.6 168.9 164 162.5 162.2 160.8 159.9 158.9 159.6 160.1 159.6 158.8 156.4 158 162.5 164.7 165.4 165.4 167.6 169.7 168.9 166.8 168.4 168 165.3 160.7 157.9 156 158.4 160.3 163.2 160.3 156.1 153.1 148.6 143.7 140.7 137.3 134.2 131.8 127.5 123.8 119 114.5 109.8 104.7 102.8 101.2 97.3 91.8 90 86.6 84.2 63.5 1.3 -1.2 -1.2 -1.2 -1.2 -1.2 -1.2 -1.2 -1.2 -1.2 -1.2 -1.2 -1.2 -1.2 -1.2 -1.2 -1.2 -1.2 -1.2 -1.2 -1.2 -1.2 -1.2 -1.2 -1.2 -1.2 -1.2 -1.2 -1.2 -1.2 -1.2 -1.2 -1.2 -1.2 -1.2 -1.2 -1.2 -1.2 -1.2 -1.2 -1.2 -1.2 -1.2 -1.2 -1.2 -1.2 -1.2 -1.2 -1.2 -1.2 -1.2 -1.2 -1.2 -1.2 -1.2 -1.2 -1.2 -1.2 -1.2 -1.2 -1.2 -1.2 -1.2 -1.2 -1.2 -1.2 -1.2 -1.2 -1.2 -1.2 -1.2 -1.2 -1.2 -1.2 -1.2 -1.2 -1.2 -1.2 -1.2 -1.2 -1.2 -1.2 -1.2 -1.2 -1.2 -1.2 -1.2 -1.2 -1.2 -1.2 -1.2 -1.2 -1.2 -1.2 -1.2 -1.2
366.5 360.9 351.9 341.7 331.3 323.8 315.4 305.8 295.7 286.4 274.9 262.2 249 237.4 225.4 214.6 204.3 196.4 188.6 177.2 152.2 127.8 110.1 86.9 73.8 77.8 85.3 89.4 101.3 118.5 134.2 147.5 155.6 161.6 165.8 178.2 191.6 192.1 189.6 192.9 200.5 189.8 191.4 193.5 192 191.2 187.9 184.9 182.4 177.2 171.2 167.1 162.8 160.9 160 159.5 159.2 158.4 158.8 157.7 158.4 157.8 156.2 156.2 159.9 162.1 162.4 161.4 164 167.2 166.1 164.1 162.3 163.4 161.7 158 156.8 154.3 156.5 157.3 157.4 157.4 153.1 150.8 146.4 141.1 138.6 135.5 132.3 130.1 126.7 122.3 116.9 112.5 108.1 102.7 98.8 96.3 94.4 89.2 84.2 77.9 81.7 27.6 -1.2 -1.2 -1.2 -1.2 -1.2 -1.2 -1.2 -1.2 -1.2 -1.2 -1.2 -1.2 -1.2 -1.2 -1.2 -1.2 -1.2 -1.2 -1.2 -1.2 -1.2 -1.2 -1.2 -1.2 -1.2 -1.2 -1.2 -1.2 -1.2 -1.2 -1.2 -1.2 -1.2 -1.2 -1.2 -1.2 -1.2 -1.2 -1.2 -1.2 -1.2 -1.2 -1.2 -1.2 -1.2 -1.2 -1.2 -1.2 -1.2 -1.2 -1.2 -1.2 -1.2 -1.2 -1.2 -1.2 -1.2 -1.2 -1.2 -1.2 -1.2 -1.2 -1.2 -1.2 -1.2 -1.2 -1.2 -1.2 -1.2 -1.2 -1.2 -1.2 -1.2 -1.2 -1.2 -1.2 -1.2 -1.2 -1.2 -1.2 -1.2 -1.2 -1.2 -1.2 -1.2 -1.2 -1.2 -1.2 -1.2 -1.2 -1.2 -1.2 -1.2 -1.2 -1.2 -1.2
374.6 367.7 358.7 347.8 337.3 327.7 318.9 309.6 298.3 287.4 275.6 262.2 247.5 230.9 219.1 208.7 200.9 192.1 182.2 166 144 121.4 108.2 84.7 75.3 76.9 85.1 90.3 97.3 110.6 127.2 142.1 150.6 158.7 161.6 173.6 191.3 191.3 186.9 186.9 186.9 186.9 189.5 195 191.9 190.8 187.6 184.8 183.3 175.7 170.3 166 162.7 160.1 159.3 158.9 158.7 158.3 157.1 157.2 157.7 156.2 155.4 154.6 157.3 159 159.1 158.4 160.8 163.8 163.5 160.6 158 159.8 158.3 155.6 154.4 152.7 153.2 153.6 152.4 152.7 149.8 148.2 144 139 137.4 134 130.6 128.3 124.6 120.9 115.7 111.9 106.3 101.3 95.3 91.5 90.6 86.9 84.5 77.4 61.7 0.6 -1.2 -1.2 -1.2 -1.2 -1.2 -1.2 -1.2 -1.2 -1.2 -1.2 -1.2 -1.2 -1.2 -1.2 -1.2 -1.2 -1.2 -1.2 -1.2 -1.2 -1.2 -1.2 -1.2 -1.2 -1.2 -1.2 -1.2 -1.2 -1.2 -1.2 -1.2 -1.2 -1.2 -1.2 -1.2 -1.2 -1.2 -1.2 -1.2 -1.2 -1.2 -1.2 -1.2 -1.2 -1.2 -1.2 -1.2 -1.2 -1.2 -1.2 -1.2 -1.2 -1.2 -1.2 -1.2 -1.2 -1.2 -1.2 -1.2 -1.2 -1.2 -1.2 -1.2 -1.2 -1.2 -1.2 -1.2 -1.2 -1.2 -1.2 -1.2 -1.2 -1.2 -1.2 -1.2 -1.2 -1.2 -1.2 -1.2 -1.2 -1.2 -1.2 -1.2 -1.2 -1.2 -1.2 -1.2 -1.2 -1.2 -1.2 -1.2 -1.2 -1.2 -1.2 -1.2 -1.2
382.2 373.8 361.9 350.6 338.9 328.2 317.2 306.7 296.8 285.2 272.7 258.5 244.3 227.2 214.9 202 191.4 180.6 167.5 150.2 135.1 122.2 113.1 97.7 75 75.9 88.4 90.3 94.4 105.1 120.5 134.5 145.2 153.1 159.1 168.1 180.1 184.4 186.9 186.9 186.9 186.9 192.1 196.9 193.3 190.6 187.4 186.1 187.8 180.9 171.7 166.4 162.9 160.3 159 158.3 157.8 156.9 156.7 156.9 156.5 155.5 154.5 153.2 154.2 155.7 156.2 155.8 157.5 160.6 160.5 157.7 154.3 153.8 154.2 153.8 152.3 151.2 151.3 152.1 150 146.6 146.1 145.5 141.9 137.6 135.8 132.8 129.5 125.8 121.7 119 115.2 110.1 103.7 98.4 92.8 88.1 86.2 82.4 80.1 1.9 0.1 -1.2 -1.2 -1.2 -1.2 -1.2 -1.2 -1.2 -1.2 -1.2 -1.2 -1.2 -1.2 -1.2 -1.2 -1.2 -1.2 -1.2 -1.2 -1.2 -1.2 -1.2 -1.2 -1.2 -1.2 -1.2 -1.2 -1.2 -1.2 -1.2 -1.2 -1.2 -1.2 -1.2 -1.2 -1.2 -1.2 -1.2 -1.2 -1.2 -1.2 -1.2 -1.2 -1.2 -1.2 -1.2 -1.2 -1.2 -1.2 -1.2 -1.2 -1.2 -1.2 -1.2 -1.2 -1.2 -1.2 -1.2 -1.2 -1.2 -1.2 -1.2 -1.2 -1.2 -1.2 -1.2 -1.2 -1.2 -1.2 -1.2 -1.2 -1.2 -1.2 -1.2 -1.2 -1.2 -1.2 -1.2 -1.2 -1.2 -1.2 -1.2 -1.2 -1.2 -1.2 -1.2 -1.2 -1.2 -1.2 -1.2 -1.2 -1.2 -1.2 -1.2 -1.2 -1.2 -1.2 -1.2
387.5 377.4 362.7 347.9 335.9 322.5 311.3 299 290.6 279.7 267.5 253 239.4 222 208.5 195.9 180.8 165.5 153.4 143.2 132.1 122.2 114.6 105.7 91.7 74.3 76.2 88.1 90.4 98.9 110.8 125.3 137 148.2 157.3 169.5 181.2 192.6 190.8 186.9 186.9 186.9 193.7 194 192.8 189.6 188.4 187.3 187.8 183.9 175.4 167.7 163 160.9 160.2 158.9 158.8 156.8 155 155.3 155.1 154 153.2 152.3 150.6 151.9 152.8 152.8 155.9 157.1 157.3 154.9 152 150.4 150 152 150.4 148.9 149.9 149.5 146.5 143.5 141.1 141.8 138.8 135.7 134.1 131.4 128 123.6 119.4 116.6 111.6 106.4 101.2 95.6 89.6 84.4 80.7 76.6 74.8 -1.2 -1.2 -1.2 -1.2 -1.2 -1.2 -1.2 -1.2 -1.2 -1.2 -1.2 -1.2 -1.2 -1.2 -1.2 -1.2 -1.2 -1.2 -1.2 -1.2 -1.2 -1.2 -1.2 -1.2 -1.2 -1.2 -1.2 -1.2 -1.2 -1.2 -1.2 -1.2 -1.2 -1.2 -1.2 -1.2 -1.2 -1.2 -1.2 -1.2 -1.2 -1.2 -1.2 -1.2 -1.2 -1.2 -1.2 -1.2 -1.2 -1.2 -1.2 -1.2 -1.2 -1.2 -1.2 -1.2 -1.2 -1.2 -1.2 -1.2 -1.2 -1.2 -1.2 -1.2 -1.2 -1.2 -1.2 -1.2 -1.2 -1.2 -1.2 -1.2 -1.2 -1.2 -1.2 -1.2 -1.2 -1.2 -1.2 -1.2 -1.2 -1.2 -1.2 -1.2 -1.2 -1.2 -1.2 -1.2 -1.2 -1.2 -1.2 -1.2 -1.2 -1.2 -1.2 -1.2 -1.2 -1.2 -1.2
385.8 373.7 358.1 342.8 328.2 314.2 301.4 291.1 283.1 272.1 260.2 248.1 232.9 215.1 201.2 187.9 169.6 159.8 148 141.6 133 123.4 116.1 108.7 100.6 82.1 74 77.5 80.3 95.4 106.2 121 134.1 145.1 157.1 169.2 183.2 196.9 192.9 186.9 191.6 193 196.1 194.4 193.6 190.5 188.4 187.9 187.7 183.9 176.1 170 163.3 161.1 160.8 160.2 159.7 159.2 156.2 155.2 154.1 152.1 150.7 150.2 148.4 148.9 149.8 149.9 153 155.5 154.6 152.2 149.8 149.1 146.4 148.2 148.1 146.7 148.5 147.5 143.9 140.3 137.4 136.6 135.8 133.6 132.2 129.4 125.6 121.2 118 114 109.1 103.9 98.7 93 86.9 81 77.1 72.3 70.1 -1.2 -1.2 -1.2 -1.2 -1.2 -1.2 -1.2 -1.2 -1.2 -1.2 -1.2 -1.2 -1.2 -1.2 -1.2 -1.2 -1.2 -1.2 -1.2 -1.2 -1.2 -1.2 -1.2 -1.2 -1.2 -1.2 -1.2 -1.2 -1.2 -1.2 -1.2 -1.2 -1.2 -1.2 -1.2 -1.2 -1.2 -1.2 -1.2 -1.2 -1.2 -1.2 -1.2 -1.2 -1.2 -1.2 -1.2 -1.2 -1.2 -1.2 -1.2 -1.2 -1.2 -1.2 -1.2 -1.2 -1.2 -1.2 -1.2 -1.2 -1.2 -1.2 -1.2 -1.2 -1.2 -1.2 -1.2 -1.2 -1.2 -1.2 -1.2 -1.2 -1.2 -1.2 -1.2 -1.2 -1.2 -1.2 -1.2 -1.2 -1.2 -1.2 -1.2 -1.2 -1.2 -1.2 -1.2 -1.2 -1.2 -1.2 -1.2 -1.2 -1.2 -1.2 -1.2 -1.2 -1.2 -1.2 -1.2
380.3 366.5 351.9 334 319.1 303.1 290.9 282.4 274 263 252.4 242.1 227.9 214.1 196.2 180.7 170.8 162.7 152 142.6 134.4 126.5 119.1 109 100.5 83.8 77 72.8 76.8 80.5 98.9 112.1 125.3 140 153 170.8 186.9 198 195.8 191.1 193.6 195.3 198 196.3 195.6 191.2 188.9 188.6 188.3 184.8 175.7 169.8 165.4 162.3 161.5 161.9 161.2 161.2 158.2 156 154.2 152.5 151.9 150.1 146.7 146.2 146.9 147.1 149.2 153.7 151.7 149.8 147.5 146.2 144.8 143.8 145.5 145.1 146.6 144.9 142.4 138 134.7 132.9 132 131.4 129.8 127.1 123.6 120.2 115.1 111.5 106.5 101.4 96.1 90.2 84.2 77.7 73.1 70.8 -1.2 -1.2 -1.2 -1.2 -1.2 -1.2 -1.2 -1.2 -1.2 -1.2 -1.2 -1.2 -1.2 -1.2 -1.2 -1.2 -1.2 -1.2 -1.2 -1.2 -1.2 -1.2 -1.2 -1.2 -1.2 -1.2 -1.2 -1.2 -1.2 -1.2 -1.2 -1.2 -1.2 -1.2 -1.2 -1.2 -1.2 -1.2 -1.2 -1.2 -1.2 -1.2 -1.2 -1.2 -1.2 -1.2 -1.2 -1.2 -1.2 -1.2 -1.2 -1.2 -1.2 -1.2 -1.2 -1.2 -1.2 -1.2 -1.2 -1.2 -1.2 -1.2 -1.2 -1.2 -1.2 -1.2 -1.2 -1.2 -1.2 -1.2 -1.2 -1.2 -1.2 -1.2 -1.2 -1.2 -1.2 -1.2 -1.2 -1.2 -1.2 -1.2 -1.2 -1.2 -1.2 -1.2 -1.2 -1.2 -1.2 -1.2 -1.2 -1.2 -1.2 -1.2 -1.2 -1.2 -1.2 -1.2 -1.2 -1.2
369.3 356.8 339.5 323.6 308.4 293.8 283.6 272.9 263.4 254.1 245.1 236.5 223.9 211.5 193.1 180.7 172.8 162.1 151.9 145.2 135.6 127.6 118.6 107.5 101.4 90.1 80.5 72.9 72 75.5 84.1 102.5 117.2 134.5 149.3 166.6 189.9 198.1 197 193.2 194.7 197.1 199 198.7 196.1 191.1 189.1 188.6 188 183.6 176.1 170.4 166.7 166.1 163.6 163 162.5 162 160.1 158 156.3 154.9 153.5 151.8 149.2 145.6 143.4 144.1 145 149.9 148.9 147 145 143.4 142 140.8 143.5 143.3 143.8 142.5 140.8 136.1 131.5 130 128.9 128.5 127.7 124.3 121.6 117.5 112.4 107.8 103.8 98.6 93.1 86.8 81.2 74.9 69 65.4 -1.2 -1.2 -1.2 -1.2 -1.2 -1.2 -1.2 -1.2 -1.2 -1.2 -1.2 -1.2 -1.2 -1.2 -1.2 -1.2 -1.2 -1.2 -1.2 -1.2 -1.2 -1.2 -1.2 -1.2 -1.2 -1.2 -1.2 -1.2 -1.2 -1.2 -1.2 -1.2 -1.2 -1.2 -1.2 -1.2 -1.2 -1.2 -1.2 -1.2 -1.2 -1.2 -1.2 -1.2 -1.2 -1.2 -1.2 -1.2 -1.2 -1.2 -1.2 -1.2 -1.2 -1.2 -1.2 -1.2 -1.2 -1.2 -1.2 -1.2 -1.2 -1.2 -1.2 -1.2 -1.2 -1.2 -1.2 -1.2 -1.2 -1.2 -1.2 -1.2 -1.2 -1.2 -1.2 -1.2 -1.2 -1.2 -1.2 -1.2 -1.2 -1.2 -1.2 -1.2 -1.2 -1.2 -1.2 -1.2 -1.2 -1.2 -1.2 -1.2 -1.2 -1.2 -1.2 -1.2 -1.2 -1.2 -1.2 -1.2
358.5 346.8 330.3 315.5 300.7 287.9 274.4 259.6 252.7 245.1 239.1 232.9 222.1 208.8 193.3 181.9 171.6 162.9 153.4 145.2 135 127 120.3 110.7 102.5 92.1 80.3 78.1 70.6 74.7 75 94.8 111.4 129.4 148 161.4 182.4 197.3 197.8 194.9 195.6 199 199.6 198.9 195.2 192.3 189.7 188.1 187 182.2 175.9 171.8 170.2 170.4 169.7 167.1 166.1 165 163.6 161.3 158.5 156 153.9 152.6 150.6 146.2 142.9 139.5 142.1 143.7 146.2 145.2 143.6 142.3 141 139.3 140.3 141.5 141.2 140.2 139.1 133.9 128.6 127.3 125.9 125.3 124.5 122 118.2 114.6 110.2 105.4 100.2 95.8 90.1 85.2 68 71.2 54.1 -1.2 -1.2 -1.2 -1.2 -1.2 -1.2 -1.2 -1.2 -1.2 -1.2 -1.2 -1.2 -1.2 -1.2 -1.2 -1.2 -1.2 -1.2 -1.2 -1.2 -1.2 -1.2 -1.2 -1.2 -1.2 -1.2 -1.2 -1.2 -1.2 -1.2 -1.2 -1.2 -1.2 -1.2 -1.2 -1.2 -1.2 -1.2 -1.2 -1.2 -1.2 -1.2 -1.2 -1.2 -1.2 -1.2 -1.2 -1.2 -1.2 -1.2 -1.2 -1.2 -1.2 -1.2 -1.2 -1.2 -1.2 -1.2 -1.2 -1.2 -1.2 -1.2 -1.2 -1.2 -1.2 -1.2 -1.2 -1.2 -1.2 -1.2 -1.2 -1.2 -1.2 -1.2 -1.2 -1.2 -1.2 -1.2 -1.2 -1.2 -1.2 -1.2 -1.2 -1.2 -1.2 -1.2 -1.2 -1.2 -1.2 -1.2 -1.2 -1.2 -1.2 -1.2 -1.2 -1.2 -1.2 -1.2 -1.2 -1.2 -1.2
348.6 336.6 321.4 306.4 293.6 278.9 259.6 249.2 242.4 237.7 234.5 228.2 218.6 209.2 194.3 183 173 162.7 154.2 146.7 138 129.6 122.5 111 104.6 98.1 86.6 78 72.6 71.8 75.1 84 105.9 125.2 142.5 160.5 173.4 187.4 193.3 195.6 198.6 201 200.8 200.2 199.4 194.9 190.4 188.6 186.7 181.2 176.6 173 173.8 174 173.7 170.1 167.4 164.2 165 165 160.1 157.2 155.8 152.4 147.7 146.3 142.8 139.5 139.5 140.4 141.7 143.3 142.4 141.4 140.2 137.9 138.5 140.4 138.7 138.1 136.6 131.8 126.2 124.9 123.4 121.8 120.1 119 115.1 111.2 107.9 103.2 97.7 91.9 87.2 56.1 4.9 -1.2 -1.2 -1.2 -1.2 -1.2 -1.2 -1.2 -1.2 -1.2 -1.2 -1.2 -1.2 -1.2 -1.2 -1.2 -1.2 -1.2 -1.2 -1.2 -1.2 -1.2 -1.2 -1.2 -1.2 -1.2 -1.2 -1.2 -1.2 -1.2 -1.2 -1.2 -1.2 -1.2 -1.2 -1.2 -1.2 -1.2 -1.2 -1.2 -1.2 -1.2 -1.2 -1.2 -1.2 -1.2 -1.2 -1.2 -1.2 -1.2 -1.2 -1.2 -1.2 -1.2 -1.2 -1.2 -1.2 -1.2 -1.2 -1.2 -1.2 -1.2 -1.2 -1.2 -1.2 -1.2 -1.2 -1.2 -1.2 -1.2 -1.2 -1.2 -1.2 -1.2 -1.2 -1.2 -1.2 -1.2 -1.2 -1.2 -1.2 -1.2 -1.2 -1.2 -1.2 -1.2 -1.2 -1.2 -1.2 -1.2 -1.2 -1.2 -1.2 -1.2 -1.2 -1.2 -1.2 -1.2 -1.2 -1.2 -1.2 -1.2 -1.2 -1.2
334.7 326.3 314.6 300.6 287.9 269.9 255.7 244.9 236 232.4 229.5 224 215.1 204.5 195.7 186.7 173.7 163.5 155.1 149.1 140 129.9 122.1 113.2 106 101.2 93.2 86.4 77.9 71.4 72.3 77.3 98 123.5 143.2 159.7 178.5 188.6 194.6 198.2 205.1 203.1 202.1 201.6 199.1 193.5 190.3 188.9 186.2 181.5 177.4 175.5 178.3 176.4 176.7 177.1 172.3 166.6 163.5 162.4 161.7 159.3 155.9 151.7 148.5 146.3 142.1 139.3 135 137 138.8 141.2 140.7 139.6 138.9 137 137.1 139.8 137.3 135.6 133.9 130.1 124.5 123.3 120.7 118.8 116.7 114.7 112.3 108.5 104.9 99.8 95 90.9 77.6 19.2 -1.2 -1.2 -1.2 -1.2 -1.2 -1.2 -1.2 -1.2 -1.2 -1.2 -1.2 -1.2 -1.2 -1.2 -1.2 -1.2 -1.2 -1.2 -1.2 -1.2 -1.2 -1.2 -1.2 -1.2 -1.2 -1.2 -1.2 -1.2 -1.2 -1.2 -1.2 -1.2 -1.2 -1.2 -1.2 -1.2 -1.2 -1.2 -1.2 -1.2 -1.2 -1.2 -1.2 -1.2 -1.2 -1.2 -1.2 -1.2 -1.2 -1.2 -1.2 -1.2 -1.2 -1.2 -1.2 -1.2 -1.2 -1.2 -1.2 -1.2 -1.2 -1.2 -1.2 -1.2 -1.2 -1.2 -1.2 -1.2 -1.2 -1.2 -1.2 -1.2 -1.2 -1.2 -1.2 -1.2 -1.2 -1.2 -1.2 -1.2 -1.2 -1.2 -1.2 -1.2 -1.2 -1.2 -1.2 -1.2 -1.2 -1.2 -1.2 -1.2 -1.2 -1.2 -1.2 -1.2 -1.2 -1.2 -1.2 -1.2 -1.2 -1.2 -1.2 -1.2
327.4 317.6 306.7 294.2 284.5 273.4 259.9 245 233.3 227.8 224.4 216.8 210.9 203.8 196.6 185.1 174.1 165.8 159.1 152.8 142.1 133.4 123.6 115.6 107.4 102.8 96.5 90.4 85.6 72 68.8 72.8 87.5 118 149 168.3 183.9 193.2 201.1 206.3 209.2 207 203.5 202.3 198.9 194.4 189.4 188.4 185.6 182 178.7 179.1 181.4 178.9 177.6 176.9 173.1 170.2 165.5 161.3 159 157.5 156.4 152.7 147.8 144.2 141.9 138.6 136.7 134.2 136.1 137.4 139.2 138.8 137.2 136.5 135.7 138.2 135.1 133.5 132.1 127.4 124.6 120.6 118.5 116.7 114.7 112.2 110 107.1 103.8 97.8 92.8 82.5 19.4 1.2 -1.2 -1.2 -1.2 -1.2 -1.2 -1.2 -1.2 -1.2 -1.2 -1.2 -1.2 -1.2 -1.2 -1.2 -1.2 -1.2 -1.2 -1.2 -1.2 -1.2 -1.2 -1.2 -1.2 -1.2 -1.2 -1.2 -1.2 -1.2 -1.2 -1.2 -1.2 -1.2 -1.2 -1.2 -1.2 -1.2 -1.2 -1.2 -1.2 -1.2 -1.2 -1.2 -1.2 -1.2 -1.2 -1.2 -1.2 -1.2 -1.2 -1.2 -1.2 -1.2 -1.2 -1.2 -1.2 -1.2 -1.2 -1.2 -1.2 -1.2 -1.2 -1.2 -1.2 -1.2 -1.2 -1.2 -1.2 -1.2 -1.2 -1.2 -1.2 -1.2 -1.2 -1.2 -1.2 -1.2 -1.2 -1.2 -1.2 -1.2 -1.2 -1.2 -1.2 -1.2 -1.2 -1.2 -1.2 -1.2 -1.2 -1.2 -1.2 -1.2 -1.2 -1.2 -1.2 -1.2 -1.2 -1.2 -1.2 -1.2 -1.2 -1.2 -1.2 -1.2
319.3 310.1 299.2 288.3 280.3 271.4 257.4 241.9 232 221 216.9 211.7 207.9 201.4 188.5 178.2 167.9 159.3 156.9 153.4 145.6 133.6 124.6 116.5 109.3 103 97.9 89.9 80.5 71.5 69.5 69.3 91 123.3 152.3 174.6 187.2 197.1 204.7 211.1 213 209.8 204.6 202.1 197.2 193.7 189.5 187.1 186.4 185.3 184 183.1 183 179.2 177.3 175.8 172.6 168.9 165.9 163.8 158.8 155.6 152.5 150.2 146.4 142.5 140.7 138.4 136.8 133.7 134.6 135.7 137.4 137.8 136.6 135.3 134.3 136.2 134.4 132.4 130.4 127.7 123.8 119.6 116.4 114.7 111.7 109.1 107.2 105.3 101.6 92.8 53.6 5.7 -1.2 -1.2 -1.2 -1.2 -1.2 -1.2 -1.2 -1.2 -1.2 -1.2 -1.2 -1.2 -1.2 -1.2 -1.2 -1.2 -1.2 -1.2 -1.2 -1.2 -1.2 -1.2 -1.2 -1.2 -1.2 -1.2 -1.2 -1.2 -1.2 -1.2 -1.2 -1.2 -1.2 -1.2 -1.2 -1.2 -1.2 -1.2 -1.2 -1.2 -1.2 -1.2 -1.2 -1.2 -1.2 -1.2 -1.2 -1.2 -1.2 -1.2 -1.2 -1.2 -1.2 -1.2 -1.2 -1.2 -1.2 -1.2 -1.2 -1.2 -1.2 -1.2 -1.2 -1.2 -1.2 -1.2 -1.2 -1.2 -1.2 -1.2 -1.2 -1.2 -1.2 -1.2 -1.2 -1.2 -1.2 -1.2 -1.2 -1.2 -1.2 -1.2 -1.2 -1.2 -1.2 -1.2 -1.2 -1.2 -1.2 -1.2 -1.2 -1.2 -1.2 -1.2 -1.2 -1.2 -1.2 -1.2 -1.2 -1.2 -1.2 -1.2 -1.2 -1.2 -1.2 -1.2
310.6 300.3 290.1 281 273 263.1 248.2 235.7 226.5 213.9 206 205.8 197 189.7 181.7 173.9 164.8 157.2 153.6 151.1 143.8 134.7 126.5 118.6 110.6 102.5 91.2 79.4 73.8 70.7 69.3 69.3 107.2 134.6 159.8 179.2 191.9 199.5 208.2 214.7 214.9 212.3 206.8 202 196.1 192.8 190.5 188.2 188.5 188.9 187 183.8 182 178.7 176.9 175.3 172.4 167.7 165.3 163 158.8 154.7 150.3 147.2 145 142.3 139 136.3 134.8 133.6 130 133.6 134.6 136.3 135.4 134.2 133.5 133.7 132.8 131.4 129.5 126.3 122.5 118.5 114.4 111.6 108.2 106.4 104.5 102.3 56.2 21.3 -1.2 -1.2 -1.2 -1.2 -1.2 -1.2 -1.2 -1.2 -1.2 -1.2 -1.2 -1.2 -1.2 -1.2 -1.2 -1.2 -1.2 -1.2 -1.2 -1.2 -1.2 -1.2 -1.2 -1.2 -1.2 -1.2 -1.2 -1.2 -1.2 -1.2 -1.2 -1.2 -1.2 -1.2 -1.2 -1.2 -1.2 -1.2 -1.2 -1.2 -1.2 -1.2 -1.2 -1.2 -1.2 -1.2 -1.2 -1.2 -1.2 -1.2 -1.2 -1.2 -1.2 -1.2 -1.2 -1.2 -1.2 -1.2 -1.2 -1.2 -1.2 -1.2 -1.2 -1.2 -1.2 -1.2 -1.2 -1.2 -1.2 -1.2 -1.2 -1.2 -1.2 -1.2 -1.2 -1.2 -1.2 -1.2 -1.2 -1.2 -1.2 -1.2 -1.2 -1.2 -1.2 -1.2 -1.2 -1.2 -1.2 -1.2 -1.2 -1.2 -1.2 -1.2 -1.2 -1.2 -1.2 -1.2 -1.2 -1.2 -1.2 -1.2 -1.2 -1.2 -1.2 -1.2 -1.2 -1.2
299.5 288.8 279.8 269.9 260.7 253 240.1 228.6 220.2 207 200.5 194.3 188.1 183.3 177.3 170.3 164.2 159.1 154.2 148.9 141.4 132.2 125.6 118.7 109 98.3 79.1 73.3 70.7 69.2 67.1 100.4 125.4 148 168.6 185.1 195.6 202.4 211.8 218 219.5 215.1 209.8 202.7 196.5 193.3 191.1 189.7 189.6 190.1 188.5 184.2 182 178.4 176.4 175.7 173.5 168.2 165.3 161.9 158.6 154.9 148.8 144.8 142.8 141.3 138 135.3 133.8 132.1 127.2 131.5 132.2 133.4 134.5 133.7 132.9 131.9 132 130.1 126.7 124.7 121 117.1 113.1 109.4 105.7 102.8 101.2 78.1 26.5 4 -1.2 -1.2 -1.2 -1.2 -1.2 -1.2 -1.2 -1.2 -1.2 -1.2 -1.2 -1.2 -1.2 -1.2 -1.2 -1.2 -1.2 -1.2 -1.2 -1.2 -1.2 -1.2 -1.2 -1.2 -1.2 -1.2 -1.2 -1.2 -1.2 -1.2 -1.2 -1.2 -1.2 -1.2 -1.2 -1.2 -1.2 -1.2 -1.2 -1.2 -1.2 -1.2 -1.2 -1.2 -1.2 -1.2 -1.2 -1.2 -1.2 -1.2 -1.2 -1.2 -1.2 -1.2 -1.2 -1.2 -1.2 -1.2 -1.2 -1.2 -1.2 -1.2 -1.2 -1.2 -1.2 -1.2 -1.2 -1.2 -1.2 -1.2 -1.2 -1.2 -1.2 -1.2 -1.2 -1.2 -1.2 -1.2 -1.2 -1.2 -1.2 -1.2 -1.2 -1.2 -1.2 -1.2 -1.2 -1.2 -1.2 -1.2 -1.2 -1.2 -1.2 -1.2 -1.2 -1.2 -1.2 -1.2 -1.2 -1.2 -1.2 -1.2 -1.2 -1.2 -1.2 -1.2 -1.2 -1.2
284 272.2 263.2 254.5 246.4 237.4 230.5 225.6 214.3 205.8 201.7 197.5 188.9 180.9 176.4 172 165.8 158.6 153.4 140.3 138.1 130.3 123.7 117.7 108.9 86.1 76 69.6 65.7 67.7 97 116.2 136.4 163.1 176.6 189.2 200.2 207.4 215.2 219.8 221.7 218 210.9 204 198.4 195.3 193.5 194.2 192.6 191.7 189.9 186 181.7 178.9 175.8 174.9 173.3 168.6 164.1 163 157.8 153.2 148.5 143.9 140.8 140.1 136.5 134.8 133 131.2 128 129.6 130.4 132 134.3 133.9 132.4 131.2 129.7 129.2 126 123.1 119.4 115.7 111.9 107.1 102.8 98.7 88.3 19.2 1.2 -1.2 -1.2 -1.2 -1.2 -1.2 -1.2 -1.2 -1.2 -1.2 -1.2 -1.2 -1.2 -1.2 -1.2 -1.2 -1.2 -1.2 -1.2 -1.2 -1.2 -1.2 -1.2 -1.2 -1.2 -1.2 -1.2 -1.2 -1.2 -1.2 -1.2 -1.2 -1.2 -1.2 -1.2 -1.2 -1.2 -1.2 -1.2 -1.2 -1.2 -1.2 -1.2 -1.2 -1.2 -1.2 -1.2 -1.2 -1.2 -1.2 -1.2 -1.2 -1.2 -1.2 -1.2 -1.2 -1.2 -1.2 -1.2 -1.2 -1.2 -1.2 -1.2 -1.2 -1.2 -1.2 -1.2 -1.2 -1.2 -1.2 -1.2 -1.2 -1.2 -1.2 -1.2 -1.2 -1.2 -1.2 -1.2 -1.2 -1.2 -1.2 -1.2 -1.2 -1.2 -1.2 -1.2 -1.2 -1.2 -1.2 -1.2 -1.2 -1.2 -1.2 -1.2 -1.2 -1.2 -1.2 -1.2 -1.2 -1.2 -1.2 -1.2 -1.2 -1.2 -1.2 -1.2 -1.2 -1.2 -1.2
271.1 264 248.3 239.8 232.2 227 222.7 215.9 210.3 206.4 201.5 196.9 190.3 183 178.6 173.3 165.8 159.6 148.9 142.3 133.7 127 121.1 114.2 110.1 82.6 73.4 66 67.5 76.6 107.8 126.6 143.1 164.6 182.9 192.6 200.8 210.1 219.2 224.6 224.1 218.7 212.5 205.9 200.2 197.4 195.5 194.7 194.1 192.4 189.6 185.7 182.6 179 175.3 174.7 173.4 168.9 164.6 159.5 155.4 151.7 148.2 144.2 138.9 138 136.3 133.8 131.9 130 128 125.5 129.1 130.8 132.7 133.4 131.9 131.2 129.6 127.4 125.3 121.5 117.8 114.1 109.6 104.7 100.5 95.9 79.3 3.7 -1.2 -1.2 -1.2 -1.2 -1.2 -1.2 -1.2 -1.2 -1.2 -1.2 -1.2 -1.2 -1.2 -1.2 -1.2 -1.2 -1.2 -1.2 -1.2 -1.2 -1.2 -1.2 -1.2 -1.2 -1.2 -1.2 -1.2 -1.2 -1.2 -1.2 -1.2 -1.2 -1.2 -1.2 -1.2 -1.2 -1.2 -1.2 -1.2 -1.2 -1.2 -1.2 -1.2 -1.2 -1.2 -1.2 -1.2 -1.2 -1.2 -1.2 -1.2 -1.2 -1.2 -1.2 -1.2 -1.2 -1.2 -1.2 -1.2 -1.2 -1.2 -1.2 -1.2 -1.2 -1.2 -1.2 -1.2 -1.2 -1.2 -1.2 -1.2 -1.2 -1.2 -1.2 -1.2 -1.2 -1.2 -1.2 -1.2 -1.2 -1.2 -1.2 -1.2 -1.2 -1.2 -1.2 -1.2 -1.2 -1.2 -1.2 -1.2 -1.2 -1.2 -1.2 -1.2 -1.2 -1.2 -1.2 -1.2 -1.2 -1.2 -1.2 -1.2 -1.2 -1.2 -1.2 -1.2 -1.2 -1.2 -1.2
259.9 246.9 237.3 227.3 221.3 217.4 212.4 209.1 207.1 204.9 200.8 197.4 192.3 186 182.6 178 169.9 160.1 149.9 143.8 142.3 138 127.2 109.3 94.7 69.8 64.5 66.6 68.9 84.8 112.6 131.7 150.7 171.8 187.3 194.9 202.7 211.8 222.8 229.1 228.5 222.3 213.4 207.2 201.5 198 196.9 195.8 194.4 192.7 186.6 184.1 183 179.9 174.2 172.9 173.4 167.9 163.1 158.8 154.8 150.6 146.6 144.3 140.2 136.8 134.5 132.6 130.4 128.7 127.3 126.6 126.9 129.3 131.9 133.2 132.3 131.3 129 127.3 123.9 118.6 114.5 110.7 107.2 102.4 97.7 93.1 13.5 1.1 -1.2 -1.2 -1.2 -1.2 -1.2 -1.2 -1.2 -1.2 -1.2 -1.2 -1.2 -1.2 -1.2 -1.2 -1.2 -1.2 -1.2 -1.2 -1.2 -1.2 -1.2 -1.2 -1.2 -1.2 -1.2 -1.2 -1.2 -1.2 -1.2 -1.2 -1.2 -1.2 -1.2 -1.2 -1.2 -1.2 -1.2 -1.2 -1.2 -1.2 -1.2 -1.2 -1.2 -1.2 -1.2 -1.2 -1.2 -1.2 -1.2 -1.2 -1.2 -1.2 -1.2 -1.2 -1.2 -1.2 -1.2 -1.2 -1.2 -1.2 -1.2 -1.2 -1.2 -1.2 -1.2 -1.2 -1.2 -1.2 -1.2 -1.2 -1.2 -1.2 -1.2 -1.2 -1.2 -1.2 -1.2 -1.2 -1.2 -1.2 -1.2 -1.2 -1.2 -1.2 -1.2 -1.2 -1.2 -1.2 -1.2 -1.2 -1.2 -1.2 -1.2 -1.2 -1.2 -1.2 -1.2 -1.2 -1.2 -1.2 -1.2 -1.2 -1.2 -1.2 -1.2 -1.2 -1.2 -1.2 -1.2 -1.2
246.7 237.6 227.7 220.6 216 210.6 206.6 204.3 203.1 202.9 200.9 197.7 191.4 187.2 182.7 177.1 168.3 159.7 151.4 143.5 137.3 138.3 134.1 121 101.5 72.5 65 66.5 69 88.8 101.1 129.9 152.1 172.2 188.4 196.7 204 212.8 224.2 232.7 232.2 222.4 216 209.4 205.1 200.2 198.3 197.8 198.2 193.9 186.5 182.4 181.5 178.6 173.1 170.9 171.9 168.5 163.1 158.2 155.2 151.6 146.6 141.7 137.7 135.2 133.2 130.9 129.3 127.7 126.9 125 124.5 127.6 129.6 132.5 133 132.1 129.8 128.1 125 120.9 115.8 110.6 105.3 99.4 91.3 4.4 1 -1.2 -1.2 -1.2 -1.2 -1.2 -1.2 -1.2 -1.2 -1.2 -1.2 -1.2 -1.2 -1.2 -1.2 -1.2 -1.2 -1.2 -1.2 -1.2 -1.2 -1.2 -1.2 -1.2 -1.2 -1.2 -1.2 -1.2 -1.2 -1.2 -1.2 -1.2 -1.2 -1.2 -1.2 -1.2 -1.2 -1.2 -1.2 -1.2 -1.2 -1.2 -1.2 -1.2 -1.2 -1.2 -1.2 -1.2 -1.2 -1.2 -1.2 -1.2 -1.2 -1.2 -1.2 -1.2 -1.2 -1.2 -1.2 -1.2 -1.2 -1.2 -1.2 -1.2 -1.2 -1.2 -1.2 -1.2 -1.2 -1.2 -1.2 -1.2 -1.2 -1.2 -1.2 -1.2 -1.2 -1.2 -1.2 -1.2 -1.2 -1.2 -1.2 -1.2 -1.2 -1.2 -1.2 -1.2 -1.2 -1.2 -1.2 -1.2 -1.2 -1.2 -1.2 -1.2 -1.2 -1.2 -1.2 -1.2 -1.2 -1.2 -1.2 -1.2 -1.2 -1.2 -1.2 -1.2 -1.2 -1.2 -1.2 -1.2
236.7 230.2 223.4 215.6 211 206.4 202.3 199.1 198.2 198.6 198.8 195.8 192.2 187.6 180.1 171.6 163.8 156.9 148.2 140.6 136.1 134.9 129.2 123.7 98.9 65.5 65.8 67.8 71.4 96.3 115.4 136.2 156.9 172.1 188.1 197.8 204.5 212.9 221.2 227.7 233.2 223.9 217 213.2 209.9 204 200.7 198.1 197.2 191.6 186.9 181.8 178.7 176.2 172.3 169.9 168.7 167.3 163.3 158.4 153.6 149.3 145.4 140.8 137 132.4 130.9 129.6 127.8 126.3 125.6 122.3 123.8 126 128 131.3 132.4 132.7 130.9 127.4 124.4 121 114.7 108.9 104.3 98.7 90.5 1.5 -1.2 -1.2 -1.2 -1.2 -1.2 -1.2 -1.2 -1.2 -1.2 -1.2 -1.2 -1.2 -1.2 -1.2 -1.2 -1.2 -1.2 -1.2 -1.2 -1.2 -1.2 -1.2 -1.2 -1.2 -1.2 -1.2 -1.2 -1.2 -1.2 -1.2 -1.2 -1.2 -1.2 -1.2 -1.2 -1.2 -1.2 -1.2 -1.2 -1.2 -1.2 -1.2 -1.2 -1.2 -1.2 -1.2 -1.2 -1.2 -1.2 -1.2 -1.2 -1.2 -1.2 -1.2 -1.2 -1.2 -1.2 -1.2 -1.2 -1.2 -1.2 -1.2 -1.2 -1.2 -1.2 -1.2 -1.2 -1.2 -1.2 -1.2 -1.2 -1.2 -1.2 -1.2 -1.2 -1.2 -1.2 -1.2 -1.2 -1.2 -1.2 -1.2 -1.2 -1.2 -1.2 -1.2 -1.2 -1.2 -1.2 -1.2 -1.2 -1.2 -1.2 -1.2 -1.2 -1.2 -1.2 -1.2 -1.2 -1.2 -1.2 -1.2 -1.2 -1.2 -1.2 -1.2 -1.2 -1.2 -1.2 -1.2 -1.2 -1.2
229.1 222.2 215.1 207.3 204.2 200.8 196.2 194 193.3 194.5 193.1 192 189.4 184.1 178.7 168.2 163.5 158.8 149.2 138.2 137.1 134.8 134.4 115.3 90.3 63.4 65.5 67.1 73.5 102.5 119.8 143.7 161.8 173.5 184.4 197.2 206 212 217.3 223.2 224.1 222.8 220.6 215.7 211.1 206.1 203.2 200.7 198 192.8 189.7 184.4 178.2 174.7 171 168.4 168.9 166.1 163 159 151.9 147.7 144.3 140.4 136.3 132.2 129.2 128.3 126.9 124.2 123.7 119.3 122.3 124.4 126.4 128.8 131.9 133.5 130.8 126.7 122.7 119.6 114.8 108.2 102.4 96.3 83.9 0.5 -1.2 -1.2 -1.2 -1.2 -1.2 -1.2 -1.2 -1.2 -1.2 -1.2 -1.2 -1.2 -1.2 -1.2 -1.2 -1.2 -1.2 -1.2 -1.2 -1.2 -1.2 -1.2 -1.2 -1.2 -1.2 -1.2 -1.2 -1.2 -1.2 -1.2 -1.2 -1.2 -1.2 -1.2 -1.2 -1.2 -1.2 -1.2 -1.2 -1.2 -1.2 -1.2 -1.2 -1.2 -1.2 -1.2 -1.2 -1.2 -1.2 -1.2 -1.2 -1.2 -1.2 -1.2 -1.2 -1.2 -1.2 -1.2 -1.2 -1.2 -1.2 -1.2 -1.2 -1.2 -1.2 -1.2 -1.2 -1.2 -1.2 -1.2 -1.2 -1.2 -1.2 -1.2 -1.2 -1.2 -1.2 -1.2 -1.2 -1.2 -1.2 -1.2 -1.2 -1.2 -1.2 -1.2 -1.2 -1.2 -1.2 -1.2 -1.2 -1.2 -1.2 -1.2 -1.2 -1.2 -1.2 -1.2 -1.2 -1.2 -1.2 -1.2 -1.2 -1.2 -1.2 -1.2 -1.2 -1.2 -1.2 -1.2 -1.2 -1.2
220.3 213.4 205.5 200.2 197.9 196 191.7 189.1 188.2 190.1 188.9 188.5 186.4 183.1 175.8 167.1 164.9 156 147.1 138.1 136.3 134 129.5 117.5 89.6 65.7 63.9 65.1 83.3 106.3 131.4 151.1 163 175.1 186.4 201 208.1 212.1 216.6 222.9 224.9 223.5 221.2 218.7 215 209.1 204.2 200.4 198.7 194.7 190.4 185.8 178.2 173.4 169.7 167.1 166 166 163 159.3 151.8 147.6 142.4 138.6 134.3 131.4 128.6 126.4 125.2 122.6 121.6 120.8 121.3 123.3 125.3 127.9 131.1 131.7 129.7 125.7 121.7 118 112.7 106.1 100.3 1.9 0.4 -1.2 -1.2 -1.2 -1.2 -1.2 -1.2 -1.2 -1.2 -1.2 -1.2 -1.2 -1.2 -1.2 -1.2 -1.2 -1.2 -1.2 -1.2 -1.2 -1.2 -1.2 -1.2 -1.2 -1.2 -1.2 -1.2 -1.2 -1.2 -1.2 -1.2 -1.2 -1.2 -1.2 -1.2 -1.2 -1.2 -1.2 -1.2 -1.2 -1.2 -1.2 -1.2 -1.2 -1.2 -1.2 -1.2 -1.2 -1.2 -1.2 -1.2 -1.2 -1.2 -1.2 -1.2 -1.2 -1.2 -1.2 -1.2 -1.2 -1.2 -1.2 -1.2 -1.2 -1.2 -1.2 -1.2 -1.2 -1.2 -1.2 -1.2 -1.2 -1.2 -1.2 -1.2 -1.2 -1.2 -1.2 -1.2 -1.2 -1.2 -1.2 -1.2 -1.2 -1.2 -1.2 -1.2 -1.2 -1.2 -1.2 -1.2 -1.2 -1.2 -1.2 -1.2 -1.2 -1.2 -1.2 -1.2 -1.2 -1.2 -1.2 -1.2 -1.2 -1.2 -1.2 -1.2 -1.2 -1.2 -1.2 -1.2 -1.2 -1.2 -1.2
214.2 208.8 203.4 197.3 193.8 191.5 187.4 182.6 182.1 183.2 184.6 184.3 184.3 180 170.9 160.9 153.8 148.2 141.5 137.2 135.8 130.7 124.9 113.9 98.1 64.8 64.1 64.2 85.1 117.2 139.7 156.8 167 177.9 187.2 201 210 215.9 221.3 227.8 230.4 227.2 223.1 219.4 215.3 208.5 205.7 201.1 200 197.5 191.2 185.6 179.4 173.5 168.6 166.8 164.2 161.9 160 156 150.7 145.5 140.8 136.6 132.5 130.4 128.6 125.2 123 121.2 119.9 117.2 120.3 122.2 124.1 127 130.4 130.5 128.5 124.5 120.6 116.7 110.7 104.6 3.8 -1.2 -1.2 -1.2 -1.2 -1.2 -1.2 -1.2 -1.2 -1.2 -1.2 -1.2 -1.2 -1.2 -1.2 -1.2 -1.2 -1.2 -1.2 -1.2 -1.2 -1.2 -1.2 -1.2 -1.2 -1.2 -1.2 -1.2 -1.2 -1.2 -1.2 -1.2 -1.2 -1.2 -1.2 -1.2 -1.2 -1.2 -1.2 -1.2 -1.2 -1.2 -1.2 -1.2 -1.2 -1.2 -1.2 -1.2 -1.2 -1.2 -1.2 -1.2 -1.2 -1.2 -1.2 -1.2 -1.2 -1.2 -1.2 -1.2 -1.2 -1.2 -1.2 -1.2 -1.2 -1.2 -1.2 -1.2 -1.2 -1.2 -1.2 -1.2 -1.2 -1.2 -1.2 -1.2 -1.2 -1.2 -1.2 -1.2 -1.2 -1.2 -1.2 -1.2 -1.2 -1.2 -1.2 -1.2 -1.2 -1.2 -1.2 -1.2 -1.2 -1.2 -1.2 -1.2 -1.2 -1.2 -1.2 -1.2 -1.2 -1.2 -1.2 -1.2 -1.2 -1.2 -1.2 -1.2 -1.2 -1.2 -1.2 -1.2 -1.2 -1.2 -1.2 -1.2
210.2 205.9 203.4 198 191.1 187.8 185 177.2 175.3 178 180.1 180.7 177.2 168.7 159.2 152.8 147.2 140.9 136.8 134.9 132.6 129 127.9 109 96.2 64.1 63 64.9 90.9 109.3 137 161.1 171.1 178.8 189.5 201.4 209.6 217.5 226.6 231.8 233.3 232 227.6 222.5 216.6 209.1 205.8 203.3 197 197.9 192.4 186.1 178.9 173.7 168.6 167.7 164.2 158.1 155.2 152 147.7 143.3 138.8 135.1 132.2 128.6 127.6 125.5 122.6 120.2 119.3 116.7 119 121.2 123.1 125.4 129.2 129.2 127.3 123.7 120.2 115.7 109.8 15 1.2 -1.2 -1.2 -1.2 -1.2 -1.2 -1.2 -1.2 -1.2 -1.2 -1.2 -1.2 -1.2 -1.2 -1.2 -1.2 -1.2 -1.2 -1.2 -1.2 -1.2 -1.2 -1.2 -1.2 -1.2 -1.2 -1.2 -1.2 -1.2 -1.2 -1.2 -1.2 -1.2 -1.2 -1.2 -1.2 -1.2 -1.2 -1.2 -1.2 -1.2 -1.2 -1.2 -1.2 -1.2 -1.2 -1.2 -1.2 -1.2 -1.2 -1.2 -1.2 -1.2 -1.2 -1.2 -1.2 -1.2 -1.2 -1.2 -1.2 -1.2 -1.2 -1.2 -1.2 -1.2 -1.2 -1.2 -1.2 -1.2 -1.2 -1.2 -1.2 -1.2 -1.2 -1.2 -1.2 -1.2 -1.2 -1.2 -1.2 -1.2 -1.2 -1.2 -1.2 -1.2 -1.2 -1.2 -1.2 -1.2 -1.2 -1.2 -1.2 -1.2 -1.2 -1.2 -1.2 -1.2 -1.2 -1.2 -1.2 -1.2 -1.2 -1.2 -1.2 -1.2 -1.2 -1.2 -1.2 -1.2 -1.2 -1.2 -1.2 -1.2 -1.2 -1.2 -1.2
206.3 203.1 200.6 196 190.1 184.8 176.8 171 168.5 170.3 169.5 168.4 166.9 159.3 155.6 151.2 145.1 139 134.8 130.7 125.7 124.8 123.9 116.5 99.2 61.5 62.3 65.8 92.1 112.3 140.8 164 172.4 180.7 191 201.3 212.1 222.5 230.3 234.8 235.4 234 230.1 224.8 220.2 212.3 208 204.4 201.2 193.6 190 181.7 176.3 172.4 168.3 167.6 163.8 157.6 154.8 150.3 146.3 141.4 136.8 133.9 131.5 128.7 126 124.8 122.8 119.1 117.2 115.6 116.8 120.5 122.3 124.6 127.9 128 127 124.2 120.1 114.5 102.3 2.1 -1.2 -1.2 -1.2 -1.2 -1.2 -1.2 -1.2 -1.2 -1.2 -1.2 -1.2 -1.2 -1.2 -1.2 -1.2 -1.2 -1.2 -1.2 -1.2 -1.2 -1.2 -1.2 -1.2 -1.2 -1.2 -1.2 -1.2 -1.2 -1.2 -1.2 -1.2 -1.2 -1.2 -1.2 -1.2 -1.2 -1.2 -1.2 -1.2 -1.2 -1.2 -1.2 -1.2 -1.2 -1.2 -1.2 -1.2 -1.2 -1.2 -1.2 -1.2 -1.2 -1.2 -1.2 -1.2 -1.2 -1.2 -1.2 -1.2 -1.2 -1.2 -1.2 -1.2 -1.2 -1.2 -1.2 -1.2 -1.2 -1.2 -1.2 -1.2 -1.2 -1.2 -1.2 -1.2 -1.2 -1.2 -1.2 -1.2 -1.2 -1.2 -1.2 -1.2 -1.2 -1.2 -1.2 -1.2 -1.2 -1.2 -1.2 -1.2 -1.2 -1.2 -1.2 -1.2 -1.2 -1.2 -1.2 -1.2 -1.2 -1.2 -1.2 -1.2 -1.2 -1.2 -1.2 -1.2 -1.2 -1.2 -1.2 -1.2 -1.2 -1.2 -1.2 -1.2 -1.2
200.7 199.4 197.8 194.2 190.2 180.1 172.5 167.1 161.2 159.4 158.7 158 156.9 154.2 152.9 151.1 144.1 139.2 135.1 130.5 124.5 117.5 110.9 110.4 98.6 63.4 61.9 65.8 94.3 111.7 140 161.4 172 181.7 191.8 202 213.6 224.8 232.7 236.6 237.5 236 233.2 227.9 222.5 216 210.8 205.3 203.6 201.3 190.6 184.8 177.4 173.6 168.9 166.4 162.8 159.2 157.1 153.8 148.7 141.4 136.2 133.2 129.5 126.3 123.9 122.7 120.8 118.7 116.2 114.2 115.2 119.4 122.1 124.6 126.6 125.9 124.3 121.1 117 112.3 104.9 40.3 -1.2 -1.2 -1.2 -1.2 -1.2 -1.2 -1.2 -1.2 -1.2 -1.2 -1.2 -1.2 -1.2 -1.2 -1.2 -1.2 -1.2 -1.2 -1.2 -1.2 -1.2 -1.2 -1.2 -1.2 -1.2 -1.2 -1.2 -1.2 -1.2 -1.2 -1.2 -1.2 -1.2 -1.2 -1.2 -1.2 -1.2 -1.2 -1.2 -1.2 -1.2 -1.2 -1.2 -1.2 -1.2 -1.2 -1.2 -1.2 -1.2 -1.2 -1.2 -1.2 -1.2 -1.2 -1.2 -1.2 -1.2 -1.2 -1.2 -1.2 -1.2 -1.2 -1.2 -1.2 -1.2 -1.2 -1.2 -1.2 -1.2 -1.2 -1.2 -1.2 -1.2 -1.2 -1.2 -1.2 -1.2 -1.2 -1.2 -1.2 -1.2 -1.2 -1.2 -1.2 -1.2 -1.2 -1.2 -1.2 -1.2 -1.2 -1.2 -1.2 -1.2 -1.2 -1.2 -1.2 -1.2 -1.2 -1.2 -1.2 -1.2 -1.2 -1.2 -1.2 -1.2 -1.2 -1.2 -1.2 -1.2 -1.2 -1.2 -1.2 -1.2 -1.2 -1.2 -1.2
198.3 197.1 196.2 194.1 190.8 184.3 170.5 166.2 161.4 148.6 152.5 148.5 148.9 151.6 150.3 145.3 137.5 136.4 133.6 128 121.1 114.9 108.3 101.8 94.1 62.7 61.4 61.3 97 117 136.9 160.4 171.8 180.2 191.7 202.9 216.3 229.7 234.9 237.5 240.9 238.7 235.9 230.8 225.1 218.1 211 206.3 201.8 197.6 191 186 178.3 172.4 167.9 164.5 162 161.5 159.4 153.1 150.4 144.6 136.8 131.8 127.3 126.3 123.7 120.7 118.8 117.5 114.6 112.3 114.7 118.1 121 123.3 125.3 123.6 120.8 118.3 113.7 74.9 -1.2 -1.2 -1.2 -1.2 -1.2 -1.2 -1.2 -1.2 -1.2 -1.2 -1.2 -1.2 -1.2 -1.2 -1.2 -1.2 -1.2 -1.2 -1.2 -1.2 -1.2 -1.2 -1.2 -1.2 -1.2 -1.2 -1.2 -1.2 -1.2 -1.2 -1.2 -1.2 -1.2 -1.2 -1.2 -1.2 -1.2 -1.2 -1.2 -1.2 -1.2 -1.2 -1.2 -1.2 -1.2 -1.2 -1.2 -1.2 -1.2 -1.2 -1.2 -1.2 -1.2 -1.2 -1.2 -1.2 -1.2 -1.2 -1.2 -1.2 -1.2 -1.2 -1.2 -1.2 -1.2 -1.2 -1.2 -1.2 -1.2 -1.2 -1.2 -1.2 -1.2 -1.2 -1.2 -1.2 -1.2 -1.2 -1.2 -1.2 -1.2 -1.2 -1.2 -1.2 -1.2 -1.2 -1.2 -1.2 -1.2 -1.2 -1.2 -1.2 -1.2 -1.2 -1.2 -1.2 -1.2 -1.2 -1.2 -1.2 -1.2 -1.2 -1.2 -1.2 -1.2 -1.2 -1.2 -1.2 -1.2 -1.2 -1.2 -1.2 -1.2 -1.2 -1.2 -1.2 -1.2 -1.2
195.3 194.7 193.9 192.3 189.5 183.1 172.3 164.8 160.7 153.9 144 140.6 142.6 143.5 141.8 139.2 134.2 131.5 129.1 121 116.3 110.1 103.1 95.5 80.2 61.8 61.5 60.5 97.8 121.8 140.5 156.2 171.4 180.6 191.7 205.1 221.4 233.9 236.5 239.4 243.7 242.6 238.1 234.1 228.1 221.6 214.4 205.6 201.5 195.6 189.5 187.3 183.4 173.8 168.9 165.8 163.1 158.3 157.2 153.6 149.3 144.5 139 133 127.3 124.8 122.9 119.5 117.6 116 111.5 109.6 113.3 116.7 119.9 122 123.4 122.2 119.4 115 109.7 102.6 -1.2 -1.2 -1.2 -1.2 -1.2 -1.2 -1.2 -1.2 -1.2 -1.2 -1.2 -1.2 -1.2 -1.2 -1.2 -1.2 -1.2 -1.2 -1.2 -1.2 -1.2 -1.2 -1.2 -1.2 -1.2 -1.2 -1.2 -1.2 -1.2 -1.2 -1.2 -1.2 -1.2 -1.2 -1.2 -1.2 -1.2 -1.2 -1.2 -1.2 -1.2 -1.2 -1.2 -1.2 -1.2 -1.2 -1.2 -1.2 -1.2 -1.2 -1.2 -1.2 -1.2 -1.2 -1.2 -1.2 -1.2 -1.2 -1.2 -1.2 -1.2 -1.2 -1.2 -1.2 -1.2 -1.2 -1.2 -1.2 -1.2 -1.2 -1.2 -1.2 -1.2 -1.2 -1.2 -1.2 -1.2 -1.2 -1.2 -1.2 -1.2 -1.2 -1.2 -1.2 -1.2 -1.2 -1.2 -1.2 -1.2 -1.2 -1.2 -1.2 -1.2 -1.2 -1.2 -1.2 -1.2 -1.2 -1.2 -1.2 -1.2 -1.2 -1.2 -1.2 -1.2 -1.2 -1.2 -1.2 -1.2 -1.2 -1.2 -1.2 -1.2 -1.2 -1.2 -1.2 -1.2 -1.2
191.4 191.2 189.7 188.2 183.1 176.7 170.1 165.3 160.6 154.6 148 138.3 129.6 131.9 132 128.7 127.2 124.8 122.7 115.9 111.8 104.7 97.5 80.5 71.1 61 60.8 72.8 101.9 126.1 145.2 158.6 169.7 181.5 195.8 210.3 225.8 236.2 238.4 242.9 249.3 247 243.5 239.8 229.5 223.6 215.2 205.2 202 196.1 191.9 187.2 183.5 176.8 170.6 166.3 161.3 156.6 155.6 153.6 149 144.2 139.4 135.2 128.6 123.5 121.8 119.2 116.7 114.5 111.3 106.8 111.5 115 118.4 119.8 120.8 120.6 117 111.6 106.8 101.3 -1.2 -1.2 -1.2 -1.2 -1.2 -1.2 -1.2 -1.2 -1.2 -1.2 -1.2 -1.2 -1.2 -1.2 -1.2 -1.2 -1.2 -1.2 -1.2 -1.2 -1.2 -1.2 -1.2 -1.2 -1.2 -1.2 -1.2 -1.2 -1.2 -1.2 -1.2 -1.2 -1.2 -1.2 -1.2 -1.2 -1.2 -1.2 -1.2 -1.2 -1.2 -1.2 -1.2 -1.2 -1.2 -1.2 -1.2 -1.2 -1.2 -1.2 -1.2 -1.2 -1.2 -1.2 -1.2 -1.2 -1.2 -1.2 -1.2 -1.2 -1.2 -1.2 -1.2 -1.2 -1.2 -1.2 -1.2 -1.2 -1.2 -1.2 -1.2 -1.2 -1.2 -1.2 -1.2 -1.2 -1.2 -1.2 -1.2 -1.2 -1.2 -1.2 -1.2 -1.2 -1.2 -1.2 -1.2 -1.2 -1.2 -1.2 -1.2 -1.2 -1.2 -1.2 -1.2 -1.2 -1.2 -1.2 -1.2 -1.2 -1.2 -1.2 -1.2 -1.2 -1.2 -1.2 -1.2 -1.2 -1.2 -1.2 -1.2 -1.2 -1.2 -1.2 -1.2 -1.2 -1.2 -1.2
187.2 186.8 186.6 184.6 182.2 179 175.6 172.6 163.2 155.4 147.8 140 132.1 116.6 119.2 117 115 115.3 116.3 112.3 107.5 101.6 84.3 65.3 61.4 60.4 60.8 93 110.8 132.7 148.6 159.2 172.3 183.2 198 212.7 227.9 235.4 239.1 247.4 255.7 252.8 246.9 240.2 235.4 228.7 218.4 208.4 203.5 199 193.3 188.9 184.3 178.7 173.4 166.5 159 156.9 154.9 153.8 149.9 144.9 140.8 135.4 129.6 124.1 119.7 118.1 115.6 113.3 110.8 104.6 109.4 112.8 116.3 118.4 119.4 118.1 113.6 108.3 103.4 88.7 -1.2 -1.2 -1.2 -1.2 -1.2 -1.2 -1.2 -1.2 -1.2 -1.2 -1.2 -1.2 -1.2 -1.2 -1.2 -1.2 -1.2 -1.2 -1.2 -1.2 -1.2 -1.2 -1.2 -1.2 -1.2 -1.2 -1.2 -1.2 -1.2 -1.2 -1.2 -1.2 -1.2 -1.2 -1.2 -1.2 -1.2 -1.2 -1.2 -1.2 -1.2 -1.2 -1.2 -1.2 -1.2 -1.2 -1.2 -1.2 -1.2 -1.2 -1.2 -1.2 -1.2 -1.2 -1.2 -1.2 -1.2 -1.2 -1.2 -1.2 -1.2 -1.2 -1.2 -1.2 -1.2 -1.2 -1.2 -1.2 -1.2 -1.2 -1.2 -1.2 -1.2 -1.2 -1.2 -1.2 -1.2 -1.2 -1.2 -1.2 -1.2 -1.2 -1.2 -1.2 -1.2 -1.2 -1.2 -1.2 -1.2 -1.2 -1.2 -1.2 -1.2 -1.2 -1.2 -1.2 -1.2 -1.2 -1.2 -1.2 -1.2 -1.2 -1.2 -1.2 -1.2 -1.2 -1.2 -1.2 -1.2 -1.2 -1.2 -1.2 -1.2 -1.2 -1.2 -1.2 -1.2 -1.2
184 184.6 185.2 183.5 182.8 181.6 176.2 168 162.2 156.2 147.9 139.8 130.5 125.5 118.1 106.1 107.4 109.5 109.9 107.7 104 96.5 65.4 60.5 58.5 67.6 92.1 111 125.3 141.6 152.1 162.1 174.3 185.9 201.4 215.2 226.5 235.6 240.9 249.7 258.6 257.6 251.1 243.3 234.4 227.8 220.9 209.2 203.7 200.6 195.8 192.1 183.3 178.4 173.3 165.5 159.5 157.8 155.2 152.6 151.3 145.1 141.1 136.9 130.8 124.8 119.2 116.1 114.4 111.7 108.8 106.5 105.2 110 113.4 116.2 116.8 114.5 110.2 105.7 99.6 -1.2 -1.2 -1.2 -1.2 -1.2 -1.2 -1.2 -1.2 -1.2 -1.2 -1.2 -1.2 -1.2 -1.2 -1.2 -1.2 -1.2 -1.2 -1.2 -1.2 -1.2 -1.2 -1.2 -1.2 -1.2 -1.2 -1.2 -1.2 -1.2 -1.2 -1.2 -1.2 -1.2 -1.2 -1.2 -1.2 -1.2 -1.2 -1.2 -1.2 -1.2 -1.2 -1.2 -1.2 -1.2 -1.2 -1.2 -1.2 -1.2 -1.2 -1.2 -1.2 -1.2 -1.2 -1.2 -1.2 -1.2 -1.2 -1.2 -1.2 -1.2 -1.2 -1.2 -1.2 -1.2 -1.2 -1.2 -1.2 -1.2 -1.2 -1.2 -1.2 -1.2 -1.2 -1.2 -1.2 -1.2 -1.2 -1.2 -1.2 -1.2 -1.2 -1.2 -1.2 -1.2 -1.2 -1.2 -1.2 -1.2 -1.2 -1.2 -1.2 -1.2 -1.2 -1.2 -1.2 -1.2 -1.2 -1.2 -1.2 -1.2 -1.2 -1.2 -1.2 -1.2 -1.2 -1.2 -1.2 -1.2 -1.2 -1.2 -1.2 -1.2 -1.2 -1.2 -1.2 -1.2 -1.2 -1.2
183.1 183.3 183.8 182.8 182 180.8 175.7 166.4 159.2 152.9 144.3 136.2 127.6 122.4 115.1 110.6 103.7 101.4 105.8 103 100 93.1 60.7 58.1 62.9 84.8 101.5 119.6 132.4 141.9 152.7 163.6 175.2 188.6 202.9 216.7 226.2 235 242.1 252.1 259.4 260 253.8 245.2 236.6 226.9 221.3 213 204.5 198.7 196.9 193.2 186.1 178.7 172 166.3 160.1 158.2 156.1 152.8 149.1 145.7 140.9 137.6 131.5 126.1 120.8 115.1 113.5 110.6 107.8 104.8 100 107.3 110.8 114.2 113.5 110.9 107.3 2.5 4.9 64.4 -1.2 -1.2 -1.2 -1.2 -1.2 -1.2 -1.2 -1.2 -1.2 -1.2 -1.2 -1.2 -1.2 -1.2 -1.2 -1.2 -1.2 -1.2 -1.2 -1.2 -1.2 -1.2 -1.2 -1.2 -1.2 -1.2 -1.2 -1.2 -1.2 -1.2 -1.2 -1.2 -1.2 -1.2 -1.2 -1.2 -1.2 -1.2 -1.2 -1.2 -1.2 -1.2 -1.2 -1.2 -1.2 -1.2 -1.2 -1.2 -1.2 -1.2 -1.2 -1.2 -1.2 -1.2 -1.2 -1.2 -1.2 -1.2 -1.2 -1.2 -1.2 -1.2 -1.2 -1.2 -1.2 -1.2 -1.2 -1.2 -1.2 -1.2 -1.2 -1.2 -1.2 -1.2 -1.2 -1.2 -1.2 -1.2 -1.2 -1.2 -1.2 -1.2 -1.2 -1.2 -1.2 -1.2 -1.2 -1.2 -1.2 -1.2 -1.2 -1.2 -1.2 -1.2 -1.2 -1.2 -1.2 -1.2 -1.2 -1.2 -1.2 -1.2 -1.2 -1.2 -1.2 -1.2 -1.2 -1.2 -1.2 -1.2 -1.2 -1.2 -1.2 -1.2 -1.2 -1.2 -1.2 -1.2
181.3 182.7 182.6 181.1 179.6 178.2 173.1 166 157.6 151.6 146.2 135.8 126 118.9 113.4 111.8 110.6 99.4 90.8 96.6 99.1 90.1 56.5 59.7 67.7 90.1 106.3 124 136.3 147.4 158.4 167.8 177.7 189.8 202.3 216.3 226.6 233.3 241.7 252 263 262.4 257.4 249.8 240.7 230.1 220.7 215.9 208.8 202.1 195.5 193.4 185.9 180.3 175.7 168.7 160.4 156.6 155.2 153.3 150.4 146.2 141.7 137.5 131.7 127.7 122.7 116.2 112.6 109.6 106.7 103.3 97.5 103.3 106.5 108.6 108.9 107.7 62.8 1.3 -1.2 -1.2 -1.2 -1.2 -1.2 -1.2 -1.2 -1.2 -1.2 -1.2 -1.2 -1.2 -1.2 -1.2 -1.2 -1.2 -1.2 -1.2 -1.2 -1.2 -1.2 -1.2 -1.2 -1.2 -1.2 -1.2 -1.2 -1.2 -1.2 -1.2 -1.2 -1.2 -1.2 -1.2 -1.2 -1.2 -1.2 -1.2 -1.2 -1.2 -1.2 -1.2 -1.2 -1.2 -1.2 -1.2 -1.2 -1.2 -1.2 -1.2 -1.2 -1.2 -1.2 -1.2 -1.2 -1.2 -1.2 -1.2 -1.2 -1.2 -1.2 -1.2 -1.2 -1.2 -1.2 -1.2 -1.2 -1.2 -1.2 -1.2 -1.2 -1.2 -1.2 -1.2 -1.2 -1.2 -1.2 -1.2 -1.2 -1.2 -1.2 -1.2 -1.2 -1.2 -1.2 -1.2 -1.2 -1.2 -1.2 -1.2 -1.2 -1.2 -1.2 -1.2 -1.2 -1.2 -1.2 -1.2 -1.2 -1.2 -1.2 -1.2 -1.2 -1.2 -1.2 -1.2 -1.2 -1.2 -1.2 -1.2 -1.2 -1.2 -1.2 -1.2 -1.2 -1.2 -1.2 -1.2 -1.2 -1.2
180.9 181.3 181 179.7 178.1 175.5 171.2 164.4 157.1 151.9 145.5 136.9 126.4 117.2 114.3 113 109 99.3 84.1 84.3 92.1 80.8 58.1 59.4 68.4 89.6 111.5 126.9 139.7 151.6 160.6 168.6 180 190.2 202.5 215.4 225.2 232.6 241.3 250.9 265.1 266 261.1 253.6 244.6 235.1 226 221 212.9 204.6 198.9 194.1 186.6 181.4 178.1 171.7 160.7 156.9 154.2 151.7 148.5 145 140.9 136.7 131.6 127.7 123.7 118.2 112.2 108.9 106.4 102.1 96.3 97.4 101.7 103.5 104 102.1 71.4 -1.2 -1.2 -1.2 -1.2 -1.2 -1.2 -1.2 -1.2 -1.2 -1.2 -1.2 -1.2 -1.2 -1.2 -1.2 -1.2 -1.2 -1.2 -1.2 -1.2 -1.2 -1.2 -1.2 -1.2 -1.2 -1.2 -1.2 -1.2 -1.2 -1.2 -1.2 -1.2 -1.2 -1.2 -1.2 -1.2 -1.2 -1.2 -1.2 -1.2 -1.2 -1.2 -1.2 -1.2 -1.2 -1.2 -1.2 -1.2 -1.2 -1.2 -1.2 -1.2 -1.2 -1.2 -1.2 -1.2 -1.2 -1.2 -1.2 -1.2 -1.2 -1.2 -1.2 -1.2 -1.2 -1.2 -1.2 -1.2 -1.2 -1.2 -1.2 -1.2 -1.2 -1.2 -1.2 -1.2 -1.2 -1.2 -1.2 -1.2 -1.2 -1.2 -1.2 -1.2 -1.2 -1.2 -1.2 -1.2 -1.2 -1.2 -1.2 -1.2 -1.2 -1.2 -1.2 -1.2 -1.2 -1.2 -1.2 -1.2 -1.2 -1.2 -1.2 -1.2 -1.2 -1.2 -1.2 -1.2 -1.2 -1.2 -1.2 -1.2 -1.2 -1.2 -1.2 -1.2 -1.2 -1.2 -1.2 -1.2 -1.2
177.2 180.1 177.9 177.7 175.5 172.7 169.9 165.4 160.2 154.2 146.8 138.5 127.2 117.5 114 113.1 107.2 89.4 60.9 62.1 68.3 63.9 57 59.1 73.5 92.1 110.9 129.5 142.5 152.8 160.6 170.6 179.5 190.6 201 214.9 223.7 231 238.8 250.6 266.8 269.7 264.1 256.3 248.3 239.2 229.2 224.4 217.2 210 200.4 191 188.7 184.8 182.2 173.6 162.2 156.6 153.8 155.6 152.8 145 140.9 138.7 134.3 127.2 122.7 118.8 112.1 107.5 103.8 100.1 94.3 87.4 95.9 98.4 98.7 97.3 -1.2 -1.2 -1.2 -1.2 -1.2 -1.2 -1.2 -1.2 -1.2 -1.2 -1.2 -1.2 -1.2 -1.2 -1.2 -1.2 -1.2 -1.2 -1.2 -1.2 -1.2 -1.2 -1.2 -1.2 -1.2 -1.2 -1.2 -1.2 -1.2 -1.2 -1.2 -1.2 -1.2 -1.2 -1.2 -1.2 -1.2 -1.2 -1.2 -1.2 -1.2 -1.2 -1.2 -1.2 -1.2 -1.2 -1.2 -1.2 -1.2 -1.2 -1.2 -1.2 -1.2 -1.2 -1.2 -1.2 -1.2 -1.2 -1.2 -1.2 -1.2 -1.2 -1.2 -1.2 -1.2 -1.2 -1.2 -1.2 -1.2 -1.2 -1.2 -1.2 -1.2 -1.2 -1.2 -1.2 -1.2 -1.2 -1.2 -1.2 -1.2 -1.2 -1.2 -1.2 -1.2 -1.2 -1.2 -1.2 -1.2 -1.2 -1.2 -1.2 -1.2 -1.2 -1.2 -1.2 -1.2 -1.2 -1.2 -1.2 -1.2 -1.2 -1.2 -1.2 -1.2 -1.2 -1.2 -1.2 -1.2 -1.2 -1.2 -1.2 -1.2 -1.2 -1.2 -1.2 -1.2 -1.2 -1.2 -1.2 -1.2 -1.2
172.8 174.6 175 173.9 173.5 171.5 170 168.3 162.6 155.5 146.5 136 126.3 119.2 113.7 111 101.6 64.3 54 55.2 55.6 57.7 56.2 61.2 82.9 100.6 114.1 131.4 141.6 151.7 161 170.9 180.8 189.7 201.7 212.7 222.4 229.6 238.1 249.1 268.8 272 267 258.9 250.5 241 233.2 225 219.9 212.9 202 198.1 195.7 186.5 184.5 179.7 167.9 160.6 153.3 153.7 148.3 144.1 141.6 138.2 133.3 126.8 123.4 118.8 113.5 106.8 102.7 99 94.6 89.1 88.7 92.7 93.5 92.1 -1.2 -1.2 -1.2 -1.2 -1.2 -1.2 -1.2 -1.2 -1.2 -1.2 -1.2 -1.2 -1.2 -1.2 -1.2 -1.2 -1.2 -1.2 -1.2 -1.2 -1.2 -1.2 -1.2 -1.2 -1.2 -1.2 -1.2 -1.2 -1.2 -1.2 -1.2 -1.2 -1.2 -1.2 -1.2 -1.2 -1.2 -1.2 -1.2 -1.2 -1.2 -1.2 -1.2 -1.2 -1.2 -1.2 -1.2 -1.2 -1.2 -1.2 -1.2 -1.2 -1.2 -1.2 -1.2 -1.2 -1.2 -1.2 -1.2 -1.2 -1.2 -1.2 -1.2 -1.2 -1.2 -1.2 -1.2 -1.2 -1.2 -1.2 -1.2 -1.2 -1.2 -1.2 -1.2 -1.2 -1.2 -1.2 -1.2 -1.2 -1.2 -1.2 -1.2 -1.2 -1.2 -1.2 -1.2 -1.2 -1.2 -1.2 -1.2 -1.2 -1.2 -1.2 -1.2 -1.2 -1.2 -1.2 -1.2 -1.2 -1.2 -1.2 -1.2 -1.2 -1.2 -1.2 -1.2 -1.2 -1.2 -1.2 -1.2 -1.2 -1.2 -1.2 -1.2 -1.2 -1.2 -1.2 -1.2 -1.2 -1.2 -1.2
167.5 171.4 171.9 171.4 172.1 172.1 170.4 168.8 163.6 156.6 146.5 135.2 126.2 119.5 113.9 106.3 83.9 52.5 56.7 60.7 63.6 68.7 68 83.3 99.2 113.5 126.1 134.3 141.9 153.7 163.5 171.9 179.7 189.2 199.6 210.3 220.6 227.9 237.1 248.7 268.3 272.6 269.6 261.4 252.4 245.3 235.1 227 220.6 211.4 206.6 198.3 195.8 193.1 189.3 179.1 173 166.4 155.3 150.7 147 144.9 141.7 137.4 133.5 127.1 122.9 118.2 113.3 108 102.4 97.8 93.1 89.1 80.7 86.8 88.7 84.7 -1.2 -1.2 -1.2 -1.2 -1.2 -1.2 -1.2 -1.2 -1.2 -1.2 -1.2 -1.2 -1.2 -1.2 -1.2 -1.2 -1.2 -1.2 -1.2 -1.2 -1.2 -1.2 -1.2 -1.2 -1.2 -1.2 -1.2 -1.2 -1.2 -1.2 -1.2 -1.2 -1.2 -1.2 -1.2 -1.2 -1.2 -1.2 -1.2 -1.2 -1.2 -1.2 -1.2 -1.2 -1.2 -1.2 -1.2 -1.2 -1.2 -1.2 -1.2 -1.2 -1.2 -1.2 -1.2 -1.2 -1.2 -1.2 -1.2 -1.2 -1.2 -1.2 -1.2 -1.2 -1.2 -1.2 -1.2 -1.2 -1.2 -1.2 -1.2 -1.2 -1.2 -1.2 -1.2 -1.2 -1.2 -1.2 -1.2 -1.2 -1.2 -1.2 -1.2 -1.2 -1.2 -1.2 -1.2 -1.2 -1.2 -1.2 -1.2 -1.2 -1.2 -1.2 -1.2 -1.2 -1.2 -1.2 -1.2 -1.2 -1.2 -1.2 -1.2 -1.2 -1.2 -1.2 -1.2 -1.2 -1.2 -1.2 -1.2 -1.2 -1.2 -1.2 -1.2 -1.2 -1.2 -1.2 -1.2 -1.2 -1.2 -1.2
160 165.7 168 169.9 171.1 172.6 170.9 169.3 164.6 156.2 146.1 134.8 126.4 119.7 114 101.4 77.9 52.7 60.1 62.9 73.5 90.8 96.7 108.1 115.6 122.4 128.8 136 142.1 153.4 163.6 171.8 179.2 189.6 198.8 208.5 218.1 226.5 236.6 251.4 266.4 271.3 269.2 263.3 255.7 248.6 237.3 226.6 220.6 215.8 212.9 206.7 202.3 196.5 193 181.1 177.5 166.1 161.6 153.4 148.3 147.3 143 136.7 131.6 127.1 122.6 117.6 113.1 108.2 102.9 97.4 92 79.6 20.5 71 -1.2 -1.2 -1.2 -1.2 -1.2 -1.2 -1.2 -1.2 -1.2 -1.2 -1.2 -1.2 -1.2 -1.2 -1.2 -1.2 -1.2 -1.2 -1.2 -1.2 -1.2 -1.2 -1.2 -1.2 -1.2 -1.2 -1.2 -1.2 -1.2 -1.2 -1.2 -1.2 -1.2 -1.2 -1.2 -1.2 -1.2 -1.2 -1.2 -1.2 -1.2 -1.2 -1.2 -1.2 -1.2 -1.2 -1.2 -1.2 -1.2 -1.2 -1.2 -1.2 -1.2 -1.2 -1.2 -1.2 -1.2 -1.2 -1.2 -1.2 -1.2 -1.2 -1.2 -1.2 -1.2 -1.2 -1.2 -1.2 -1.2 -1.2 -1.2 -1.2 -1.2 -1.2 -1.2 -1.2 -1.2 -1.2 -1.2 -1.2 -1.2 -1.2 -1.2 -1.2 -1.2 -1.2 -1.2 -1.2 -1.2 -1.2 -1.2 -1.2 -1.2 -1.2 -1.2 -1.2 -1.2 -1.2 -1.2 -1.2 -1.2 -1.2 -1.2 -1.2 -1.2 -1.2 -1.2 -1.2 -1.2 -1.2 -1.2 -1.2 -1.2 -1.2 -1.2 -1.2 -1.2 -1.2 -1.2 -1.2 -1.2 -1.2 -1.2 -1.2
145.5 158.7 163.3 167.1 169.8 174.2 172.1 172.4 164.8 153.9 144.2 134.7 127.4 120.8 111.6 99.3 75.5 53 57.5 60 80.7 96.9 108.3 115.1 118.8 124.7 129.9 137.1 143.1 151.9 162.8 170 180.3 188.6 198.1 206.4 215.5 225 234.6 249.3 263 268.7 267.7 263.8 257.2 249.8 240 229.1 228.1 221.7 217.6 210.2 206.3 201.5 192.1 184.7 175.8 168.4 161.4 152 150.8 147.5 145.1 139.6 132.3 127.8 123.4 118.7 113.4 108.5 102.6 97.6 82.4 56.6 1.7 -1.2 -1.2 -1.2 -1.2 -1.2 -1.2 -1.2 -1.2 -1.2 -1.2 -1.2 -1.2 -1.2 -1.2 -1.2 -1.2 -1.2 -1.2 -1.2 -1.2 -1.2 -1.2 -1.2 -1.2 -1.2 -1.2 -1.2 -1.2 -1.2 -1.2 -1.2 -1.2 -1.2 -1.2 -1.2 -1.2 -1.2 -1.2 -1.2 -1.2 -1.2 -1.2 -1.2 -1.2 -1.2 -1.2 -1.2 -1.2 -1.2 -1.2 -1.2 -1.2 -1.2 -1.2 -1.2 -1.2 -1.2 -1.2 -1.2 -1.2 -1.2 -1.2 -1.2 -1.2 -1.2 -1.2 -1.2 -1.2 -1.2 -1.2 -1.2 -1.2 -1.2 -1.2 -1.2 -1.2 -1.2 -1.2 -1.2 -1.2 -1.2 -1.2 -1.2 -1.2 -1.2 -1.2 -1.2 -1.2 -1.2 -1.2 -1.2 -1.2 -1.2 -1.2 -1.2 -1.2 -1.2 -1.2 -1.2 -1.2 -1.2 -1.2 -1.2 -1.2 -1.2 -1.2 -1.2 -1.2 -1.2 -1.2 -1.2 -1.2 -1.2 -1.2 -1.2 -1.2 -1.2 -1.2 -1.2 -1.2 -1.2 -1.2 -1.2 -1.2 -1.2
129.7 145.8 158.1 165.7 169.6 170.7 171.3 168.1 160.9 155 144.3 136.7 127.7 119.8 110.2 96.9 71.8 52.8 55.2 58.3 83.4 101.2 108.3 116.4 119.6 125 130.1 135.4 143.3 151.3 160.6 169.7 180.1 188.7 196.7 203.9 214.2 223.6 233.5 246.6 259.1 264.8 265.4 263.4 257.8 250.7 241.4 236.7 231.8 227.7 220.6 214.8 208.3 200.9 192.8 184.9 176 171.6 165.5 154.9 149.1 145.5 143.1 139 134.7 128.3 124 119.1 114.2 108.8 103 96.5 70.9 28.5 1.3 -1.2 -1.2 -1.2 -1.2 -1.2 -1.2 -1.2 -1.2 -1.2 -1.2 -1.2 -1.2 -1.2 -1.2 -1.2 -1.2 -1.2 -1.2 -1.2 -1.2 -1.2 -1.2 -1.2 -1.2 -1.2 -1.2 -1.2 -1.2 -1.2 -1.2 -1.2 -1.2 -1.2 -1.2 -1.2 -1.2 -1.2 -1.2 -1.2 -1.2 -1.2 -1.2 -1.2 -1.2 -1.2 -1.2 -1.2 -1.2 -1.2 -1.2 -1.2 -1.2 -1.2 -1.2 -1.2 -1.2 -1.2 -1.2 -1.2 -1.2 -1.2 -1.2 -1.2 -1.2 -1.2 -1.2 -1.2 -1.2 -1.2 -1.2 -1.2 -1.2 -1.2 -1.2 -1.2 -1.2 -1.2 -1.2 -1.2 -1.2 -1.2 -1.2 -1.2 -1.2 -1.2 -1.2 -1.2 -1.2 -1.2 -1.2 -1.2 -1.2 -1.2 -1.2 -1.2 -1.2 -1.2 -1.2 -1.2 -1.2 -1.2 -1.2 -1.2 -1.2 -1.2 -1.2 -1.2 -1.2 -1.2 -1.2 -1.2 -1.2 -1.2 -1.2 -1.2 -1.2 -1.2 -1.2 -1.2 -1.2 -1.2 -1.2 -1.2 -1.2 -1.2
112.2 138.3 153.3 163.9 169.3 167.5 166.6 163.7 159.5 157.2 145.2 136.5 127.6 118.5 106.9 93.8 72.5 51.3 55.9 58.3 80 94 104.2 111.2 120.2 125.8 129.9 135.2 142 149 157.8 168.9 178.3 186.3 193 201.8 211.3 221.7 232.1 241.6 255.2 261.5 263.3 261.5 257.2 251.2 243.6 242.5 240.6 237.9 221.4 216.9 207.2 204.2 195.3 188.4 177.8 171.3 165.8 153.7 148.1 145.3 142.4 139 135.3 128.8 124 119 113.9 108.6 102.7 81.8 56.3 7.9 1.1 -1.2 -1.2 -1.2 -1.2 -1.2 -1.2 -1.2 -1.2 -1.2 -1.2 -1.2 -1.2 -1.2 -1.2 -1.2 -1.2 -1.2 -1.2 -1.2 -1.2 -1.2 -1.2 -1.2 -1.2 -1.2 -1.2 -1.2 -1.2 -1.2 -1.2 -1.2 -1.2 -1.2 -1.2 -1.2 -1.2 -1.2 -1.2 -1.2 -1.2 -1.2 -1.2 -1.2 -1.2 -1.2 -1.2 -1.2 -1.2 -1.2 -1.2 -1.2 -1.2 -1.2 -1.2 -1.2 -1.2 -1.2 -1.2 -1.2 -1.2 -1.2 -1.2 -1.2 -1.2 -1.2 -1.2 -1.2 -1.2 -1.2 -1.2 -1.2 -1.2 -1.2 -1.2 -1.2 -1.2 -1.2 -1.2 -1.2 -1.2 -1.2 -1.2 -1.2 -1.2 -1.2 -1.2 -1.2 -1.2 -1.2 -1.2 -1.2 -1.2 -1.2 -1.2 -1.2 -1.2 -1.2 -1.2 -1.2 -1.2 -1.2 -1.2 -1.2 -1.2 -1.2 -1.2 -1.2 -1.2 -1.2 -1.2 -1.2 -1.2 -1.2 -1.2 -1.2 -1.2 -1.2 -1.2 -1.2 -1.2 -1.2 -1.2 -1.2 -1.2 -1.2
101 130.6 148 162.9 169.5 167.5 162.8 159.2 156.7 151.9 144 134.6 125.9 115.9 103.4 89.3 77.1 52 56.4 59.4 67.6 76.3 85.1 105.1 117.5 125.2 129.8 135.7 142.1 148.6 157 164.6 175.6 183.7 189.8 200.3 208.6 216.8 227.1 237.9 251.8 258.5 260.6 258.7 255.5 248.3 245.8 246.3 245.9 244.9 237.5 223.6 212.2 201.8 196.5 188.8 180 171.6 165.4 157.2 147.6 145.6 142.1 138.1 133.4 129.2 123.6 118.6 113.5 108.3 102.4 95 56.6 3.2 0.7 -1.2 -1.2 -1.2 -1.2 -1.2 -1.2 -1.2 -1.2 -1.2 -1.2 -1.2 -1.2 -1.2 -1.2 -1.2 -1.2 -1.2 -1.2 -1.2 -1.2 -1.2 -1.2 -1.2 -1.2 -1.2 -1.2 -1.2 -1.2 -1.2 -1.2 -1.2 -1.2 -1.2 -1.2 -1.2 -1.2 -1.2 -1.2 -1.2 -1.2 -1.2 -1.2 -1.2 -1.2 -1.2 -1.2 -1.2 -1.2 -1.2 -1.2 -1.2 -1.2 -1.2 -1.2 -1.2 -1.2 -1.2 -1.2 -1.2 -1.2 -1.2 -1.2 -1.2 -1.2 -1.2 -1.2 -1.2 -1.2 -1.2 -1.2 -1.2 -1.2 -1.2 -1.2 -1.2 -1.2 -1.2 -1.2 -1.2 -1.2 -1.2 -1.2 -1.2 -1.2 -1.2 -1.2 -1.2 -1.2 -1.2 -1.2 -1.2 -1.2 -1.2 -1.2 -1.2 -1.2 -1.2 -1.2 -1.2 -1.2 -1.2 -1.2 -1.2 -1.2 -1.2 -1.2 -1.2 -1.2 -1.2 -1.2 -1.2 -1.2 -1.2 -1.2 -1.2 -1.2 -1.2 -1.2 -1.2 -1.2 -1.2 -1.2 -1.2 -1.2 -1.2
74.2 119.1 143.5 153.2 159 159.9 157.4 152.2 151.7 146.5 139.1 130.7 123.9 113.3 101.4 87.5 75.3 55.9 56.5 59.6 62.7 79.7 92 93.8 102.5 119.6 128.5 135.1 142.5 150.2 156.1 162.3 172.7 180 187.8 197.4 205.8 213.2 221.5 233.2 246.5 253.9 256 255 250 245.7 245.9 248.1 248.6 246.6 240.6 231.2 218.8 206.7 194.6 187.6 180.2 172.8 166.6 159.4 149.1 146.4 142.7 138.7 134.8 130 123.8 118.2 113 107.9 102 92.6 61.2 6.8 0.7 -1.2 -1.2 -1.2 -1.2 -1.2 -1.2 -1.2 -1.2 -1.2 -1.2 -1.2 -1.2 -1.2 -1.2 -1.2 -1.2 -1.2 -1.2 -1.2 -1.2 -1.2 -1.2 -1.2 -1.2 -1.2 -1.2 -1.2 -1.2 -1.2 -1.2 -1.2 -1.2 -1.2 -1.2 -1.2 -1.2 -1.2 -1.2 -1.2 -1.2 -1.2 -1.2 -1.2 -1.2 -1.2 -1.2 -1.2 -1.2 -1.2 -1.2 -1.2 -1.2 -1.2 -1.2 -1.2 -1.2 -1.2 -1.2 -1.2 -1.2 -1.2 -1.2 -1.2 -1.2 -1.2 -1.2 -1.2 -1.2 -1.2 -1.2 -1.2 -1.2 -1.2 -1.2 -1.2 -1.2 -1.2 -1.2 -1.2 -1.2 -1.2 -1.2 -1.2 -1.2 -1.2 -1.2 -1.2 -1.2 -1.2 -1.2 -1.2 -1.2 -1.2 -1.2 -1.2 -1.2 -1.2 -1.2 -1.2 -1.2 -1.2 -1.2 -1.2 -1.2 -1.2 -1.2 -1.2 -1.2 -1.2 -1.2 -1.2 -1.2 -1.2 -1.2 -1.2 -1.2 -1.2 -1.2 -1.2 -1.2 -1.2 -1.2 -1.2 -1.2 -1.2
75.4 111.8 139.6 147.6 150.6 151.6 149.8 144.6 143.9 141.2 134.4 126.9 121.1 112.5 100.7 86.8 73.4 60.8 54.4 57.2 59.8 92.3 107.5 111.2 116.8 119.6 127.4 135.2 142 150.7 156.7 162.5 171.1 178.8 187.6 194.5 202.7 209.4 215.6 225.6 238.1 246.4 249.7 247.6 244.6 245.2 247 248.6 251.1 248.1 242.2 234.7 227.4 216.5 196.2 187 178.8 170.2 166.1 161.7 154.1 147.4 142.6 137.3 134.6 130.9 125.1 118.4 112.9 107.7 103.2 96.6 63.3 7.6 -1.2 -1.2 -1.2 -1.2 -1.2 -1.2 -1.2 -1.2 -1.2 -1.2 -1.2 -1.2 -1.2 -1.2 -1.2 -1.2 -1.2 -1.2 -1.2 -1.2 -1.2 -1.2 -1.2 -1.2 -1.2 -1.2 -1.2 -1.2 -1.2 -1.2 -1.2 -1.2 -1.2 -1.2 -1.2 -1.2 -1.2 -1.2 -1.2 -1.2 -1.2 -1.2 -1.2 -1.2 -1.2 -1.2 -1.2 -1.2 -1.2 -1.2 -1.2 -1.2 -1.2 -1.2 -1.2 -1.2 -1.2 -1.2 -1.2 -1.2 -1.2 -1.2 -1.2 -1.2 -1.2 -1.2 -1.2 -1.2 -1.2 -1.2 -1.2 -1.2 -1.2 -1.2 -1.2 -1.2 -1.2 -1.2 -1.2 -1.2 -1.2 -1.2 -1.2 -1.2 -1.2 -1.2 -1.2 -1.2 -1.2 -1.2 -1.2 -1.2 -1.2 -1.2 -1.2 -1.2 -1.2 -1.2 -1.2 -1.2 -1.2 -1.2 -1.2 -1.2 -1.2 -1.2 -1.2 -1.2 -1.2 -1.2 -1.2 -1.2 -1.2 -1.2 -1.2 -1.2 -1.2 -1.2 -1.2 -1.2 -1.2 -1.2 -1.2 -1.2 -1.2 -1.2
73.9 109.6 133.4 141.9 144.7 145.7 142 137.1 134.2 132.5 131.5 126 121.2 111 96.1 80.3 62.2 59.9 46.2 55.3 63.9 101 119 128.5 129.1 131.6 129.6 138.7 143.9 152.1 158.5 164 169.9 178.9 185.9 193.5 198.9 205.3 211.7 219.2 229.5 236.8 239.2 241.8 243.2 245 246.5 248 249.3 248.2 242.9 236 227.7 219.3 201.5 189.3 180.7 173.6 165.2 161.6 155.7 148.6 142.6 137.7 134.1 130.3 125.6 119.4 112.9 108.2 103.6 97.4 63.1 4.8 -1.2 -1.2 -1.2 -1.2 -1.2 -1.2 -1.2 -1.2 -1.2 -1.2 -1.2 -1.2 -1.2 -1.2 -1.2 -1.2 -1.2 -1.2 -1.2 -1.2 -1.2 -1.2 -1.2 -1.2 -1.2 -1.2 -1.2 -1.2 -1.2 -1.2 -1.2 -1.2 -1.2 -1.2 -1.2 -1.2 -1.2 -1.2 -1.2 -1.2 -1.2 -1.2 -1.2 -1.2 -1.2 -1.2 -1.2 -1.2 -1.2 -1.2 -1.2 -1.2 -1.2 -1.2 -1.2 -1.2 -1.2 -1.2 -1.2 -1.2 -1.2 -1.2 -1.2 -1.2 -1.2 -1.2 -1.2 -1.2 -1.2 -1.2 -1.2 -1.2 -1.2 -1.2 -1.2 -1.2 -1.2 -1.2 -1.2 -1.2 -1.2 -1.2 -1.2 -1.2 -1.2 -1.2 -1.2 -1.2 -1.2 -1.2 -1.2 -1.2 -1.2 -1.2 -1.2 -1.2 -1.2 -1.2 -1.2 -1.2 -1.2 -1.2 -1.2 -1.2 -1.2 -1.2 -1.2 -1.2 -1.2 -1.2 -1.2 -1.2 -1.2 -1.2 -1.2 -1.2 -1.2 -1.2 -1.2 -1.2 -1.2 -1.2 -1.2 -1.2 -1.2 -1.2
69.3 97 121.9 132 136.9 137.1 134.2 130 125.8 123.8 122.4 122.7 118 107.9 92.8 60.7 58.9 55.7 48.7 50.6 81.1 114.2 126.6 133.6 135 137.6 139.7 141.7 148.8 154.2 159.3 164.1 171.7 178.2 185.7 190.9 196.1 202.4 209.3 217 224.4 231.6 236.5 240.2 243.6 246.6 249.3 251.3 252.4 251.1 244.8 235.8 228 219.2 204.4 195.4 184.5 175.9 167.7 163 155.8 150.8 145.8 141.9 134.6 130.2 125.1 119.3 113.1 107.5 101.7 94 4.3 -1.2 -1.2 -1.2 -1.2 -1.2 -1.2 -1.2 -1.2 -1.2 -1.2 -1.2 -1.2 -1.2 -1.2 -1.2 -1.2 -1.2 -1.2 -1.2 -1.2 -1.2 -1.2 -1.2 -1.2 -1.2 -1.2 -1.2 -1.2 -1.2 -1.2 -1.2 -1.2 -1.2 -1.2 -1.2 -1.2 -1.2 -1.2 -1.2 -1.2 -1.2 -1.2 -1.2 -1.2 -1.2 -1.2 -1.2 -1.2 -1.2 -1.2 -1.2 -1.2 -1.2 -1.2 -1.2 -1.2 -1.2 -1.2 -1.2 -1.2 -1.2 -1.2 -1.2 -1.2 -1.2 -1.2 -1.2 -1.2 -1.2 -1.2 -1.2 -1.2 -1.2 -1.2 -1.2 -1.2 -1.2 -1.2 -1.2 -1.2 -1.2 -1.2 -1.2 -1.2 -1.2 -1.2 -1.2 -1.2 -1.2 -1.2 -1.2 -1.2 -1.2 -1.2 -1.2 -1.2 -1.2 -1.2 -1.2 -1.2 -1.2 -1.2 -1.2 -1.2 -1.2 -1.2 -1.2 -1.2 -1.2 -1.2 -1.2 -1.2 -1.2 -1.2 -1.2 -1.2 -1.2 -1.2 -1.2 -1.2 -1.2 -1.2 -1.2 -1.2 -1.2 -1.2 -1.2
