ncols 200
nrows 82
xllcorner 380000
yllcorner 441050
cellsize 50
124.2 128.6 132 137.5 144.4 148.8 152.2 155.6 158 157.6 155 151.1 147.2 145.5 143 143.1 144.1 145.4 147.6 149 150.4 153.3 157.5 159.8 165.7 168.1 174.7 178.4 181.3 184.1 184.3 185 187.1 188.5 188.7 191.2 195 197.4 200 201.9 204.1 204.9 206.6 207.8 208 207.4 205.8 203.4 200.8 197 198.3 197.3 196.4 196.3 195.9 195.1 193.2 194.3 191.1 189.8 186.8 183.2 178 176.1 175.1 178.3 186 195.5 209.4 218.5 224.8 229.1 229.1 230.7 234.9 236.3 236.3 231.2 217.2 209 222.5 229 235.9 242.8 247.4 253.3 257 261.7 269 274.9 280.2 287.2 291.3 297 301.8 306.7 310.9 313.5 313.1 314.5 315.4 316.5 315.9 312.5 313.7 319 322.1 321.4 312.7 304.8 308.2 311.8 315.7 321.2 321.7 321.9 320.5 321.4 318.6 326.7 318.3 331 340 349.2 358.4 357 361.2 358.7 354.2 349.4 346.6 347.5 343.8 339.9 339.1 334 331.4 327.9 326.6 325.1 319.2 314.4 305.2 294.5 287.7 286.7 285.6 285 292.3 291.2 287.8 280.4 269.8 261.2 249.6 250.3 247.1 240.6 233 225.1 218.1 212.8 207.8 199.3 193.8 188.7 183 177.1 166.7 159.8 155.1 151.5 153.9 158.2 158.1 155.1 155.5 152.7 148.5 149.5 153.2 155.4 154.8 150.5 145.6 140.7 140.4 141.2 141.5 142.1 141 140.9 143.6 147.1 145.1 141.6 138.2 139.1 138.8 143.2
122.7 127.8 135.3 141.3 146.2 149 151.3 154.2 155.3 152.9 148.5 143.4 140.7 140.4 141.5 142.5 143 144.3 144.7 146.3 147.7 149.2 151.9 157 162.7 168.8 177.9 182 186 189 189.7 191.7 193.1 193.6 193.6 194.6 197.5 199.8 201.6 204.7 207.1 209.6 211.2 211.1 209.7 209 206.8 203.7 202.3 200.8 200.3 199.8 199.6 201.1 200.9 200.3 198.9 199.7 198 197.1 194.6 191.3 187.2 182.3 178.2 177.5 182.9 197.3 209.2 217.5 224.7 230.1 232.3 234.6 237.9 238.6 237.5 232.7 219.2 212.7 223.4 230.7 238.2 243.7 249.4 252.9 256.8 262.1 271.2 277.9 283.6 289.7 296.1 300.8 306.5 313.9 315.1 316.4 317.1 319.3 319.8 321.3 321.6 316.8 315.2 320 321.9 318.8 312.6 313.1 317.3 321.8 328.4 333.3 334.3 334.7 338.9 343.2 335.2 340 342.5 349.1 356.9 361.6 363.8 363.2 365.7 362.2 358.6 354.5 354.1 351.1 347 342.1 339.2 336.2 335.9 335.3 329.4 324.5 318.6 313.5 303.9 299.3 297.5 295.9 295.9 297 298.8 296.5 292.4 283.4 271.4 260.3 250.6 251.4 250.7 243.7 236.9 230.1 222.8 216.7 212 203.6 196.7 189 184.5 178.9 169.1 163.9 156.9 152 152.4 158.2 159.9 156.7 155 152.9 149.4 150.1 154.4 156 156.6 152.5 145.3 140.5 140.1 140.3 140.5 140.3 140 140.2 141.3 143.5 141.9 138.6 138.5 139.5 143.4 142.7
121.2 122.3 128.4 131 136.8 142.1 150 150.8 146.8 143.2 138.6 137.8 143.2 140.9 141.2 143 146.6 150.6 151.8 151.9 151.4 149.8 150.1 151.8 154.9 161.1 171.7 177.3 183.6 187.5 190.4 193.3 195.5 196.2 196.2 196.2 197.7 199.4 202.1 204.8 207.6 210.6 213.1 212.6 210.8 208.6 208.3 207.9 207.9 205.3 203.3 202.5 203.7 205 205.5 204.9 203.8 204 203.8 203.3 201.5 198.9 194.9 189.6 183.7 180.2 181 189.8 203.5 216.5 226 230.4 233.2 236 238.7 239.6 237.1 231.6 221.8 211.9 224.5 232.3 239.6 244.2 248.6 251.2 255.5 262.6 272.2 279.5 287.4 294.4 300.3 305.3 312.2 316.9 317.7 319.9 322 323.9 323.7 324.9 322.7 319.2 315.5 318 319.5 318 316.8 320.7 326.7 331.2 340.3 346.9 351.6 356.8 360.1 358.1 350.6 357.1 359.9 364.3 368.1 368.9 367 370.6 368.4 366.7 361.7 360.2 357 353.9 348.4 343.7 340 340.2 340.9 334.6 328 323.3 316.7 312.7 307.2 305.4 304.3 303.8 301.5 301.8 303.5 300.5 295.7 288.2 274.2 261.7 256.2 249.9 251.2 247.5 241.5 233.9 226.1 219.7 215.8 208.5 198.7 191.3 186.3 180.9 171.9 166 159 152.6 150.8 157.1 158.9 156.5 154.3 153.1 149 149.9 153.8 156.4 156.5 153.5 144.9 139.9 139.7 139.5 139.3 140.6 139.3 138.8 139.2 141.3 138.8 138.6 139.1 141.8 142 141.9
123.9 132.3 130.2 124.9 127.4 131.1 142.1 142.8 135.3 132.8 142.7 147.9 150 150.6 152.5 154.6 156.5 159.3 161 166 165.7 161 153.6 153.4 152.5 154.4 157 158.1 163.2 171.9 186.3 191.7 194.4 195.2 195.5 195.7 196.9 198.9 200.9 202.4 205.6 209 213.5 213.3 210.8 209 210.3 211.1 211.6 211.6 208.3 207.3 208.3 209 209.6 209 207.7 208.8 209.1 208.5 207.2 206 203.9 199 190.8 184.4 180.1 187.7 200.3 219.5 227.1 231.2 232.1 235.6 236.6 237.3 235.7 230.4 225 215.5 222.8 232.5 238.3 242.9 245.5 249.2 254.3 264.3 272.9 280.2 288.5 297.5 303.6 310.6 315.7 317.8 320.7 323.1 325.9 328 328.3 326 322.5 319.7 318.1 318.2 320 321 324.6 328.7 333.1 342.3 353.5 361.9 373.6 375.6 375.9 371.9 368.3 371.6 370.6 373.6 373.9 372.7 372.5 374.6 371.8 368.6 365.2 363.4 359.2 356.1 348.9 343.9 341.5 343.1 340.9 332.9 327.5 322.4 316.8 313.5 311 309.3 308.7 308.5 304.7 306.5 305.5 303.2 296.1 292.1 280.7 267.9 258.1 251.4 251.5 247.9 242.2 235.9 230.3 223.2 216.9 211.3 201.4 193.3 187.9 182.8 175.2 166.4 160.7 153 148.8 155.2 157.3 155.6 153.1 151.5 148.6 148.7 151.5 152.9 153.9 152.5 144.6 139.7 139.8 139.3 139.4 138.9 140.6 139 138.8 139.6 138.5 138.5 141.9 142.9 145.2 142.8
131.5 141 145.3 137.5 129.4 128.2 130.2 132 136.4 140.8 151 156 159.6 162.7 164.7 166.8 167.9 168.4 170.2 173 173.2 169.7 168.7 168.9 163.4 161.3 162.5 164.8 158.8 162 171.9 184.6 191.1 193.2 193.5 193.5 193.7 196 199.1 202.3 204.1 206.1 210 212.3 210.8 210.4 212.5 214.8 215.5 215.3 213 212.1 213 213.7 214.1 213.8 212.4 213.3 213.7 213.2 211.4 211.6 210.1 208.3 201.1 191.2 185.7 186.4 198.2 217.2 223.6 227.5 230.3 233.4 234.8 234.2 233.3 230.2 229.1 228.4 218 229.7 235.7 238.9 242.9 246.6 253.5 265.5 272.5 280.3 289.6 299.7 304.8 314.2 316.3 319.5 323 326.3 329.7 332.4 330 325.7 320.7 320.1 319.8 320.1 322.7 325.6 328.1 334 341.7 352.6 365.6 379.4 384.4 388.4 388 386.4 382.9 378.7 377 380.2 378.8 376.2 379.7 377.4 375.5 370.8 368.7 366.7 362.8 359.6 351.5 343.8 343.1 343.9 340.5 333.6 329.1 323.6 320.7 317.9 315.7 313.5 311.9 310.9 307.5 307 307 304.3 297.4 292.8 285.8 274.2 262 253.9 250.6 247.6 243 238.3 231.7 225.5 200.5 202.3 204.8 195.2 188 182.9 176.5 169.2 159 153.3 148.9 153.2 154.6 153.2 148.6 148.9 143.6 144.5 146.5 147.5 152.1 149.9 143 139.2 139.1 138.8 138.9 138.6 138.8 140.7 138.9 138.6 138.5 140.9 145.2 146.2 148.3 146.2
138.3 145.8 147.8 146.3 139.4 129 134.3 139.4 143.4 151.8 158.7 165.6 170.3 174.4 178 176.9 174.8 173.6 174 174.8 175.6 176 178 177.9 174.9 177.9 177.2 178.1 173.6 160.4 165.9 174.9 182.7 187.5 189.8 190.4 191 193.7 198.2 200.9 201.9 202.5 207.6 210.9 211.2 210.8 212.6 214.1 213.4 213.8 213.3 214.2 215.1 216.6 217.4 217.5 216.4 216.1 217.1 216.9 215.6 216.1 215.3 213.2 207.7 200.8 191.6 186.3 194.6 206.2 213.5 221.2 227.1 230.6 232.6 233.1 232.6 232.3 233 235 232 222.6 229.6 236.9 241.2 246.7 252.2 259.5 268.6 278.5 289.6 300.1 305.4 312.1 315.4 319.9 324.4 329 331.6 334 330.4 324.1 321.8 321.1 322.3 322.9 325 328.2 332.8 339.7 350.2 361.9 378 386.6 394.7 392.9 393.3 390.3 387.2 385.3 382.9 383.2 379.3 380.6 380 377.3 375.1 373.6 371.7 368.7 366.5 362.8 353.6 345.3 344.6 345 340.4 335.1 330.9 327.8 325.6 321.8 318.3 316.2 314.5 311.7 311 309.2 307.9 306.6 300 294 287.8 279.9 268.5 256.3 251.7 245.1 242.1 237.9 232.6 227.2 207.2 201.1 197 196.4 185.5 181.1 176.9 169.6 164.9 157.9 148.9 148.8 151.7 150.8 147 142.9 141.6 141.1 140.9 143.4 148.9 147.3 141 139 139 138.7 138.7 138.5 138.8 138.6 143 139 138.9 142.7 147 150 150.6 148.5
144.6 148.4 148.4 146.1 141 130.5 136.4 144.7 154.2 161.4 167.8 172 176.9 179.2 181.3 182.1 185.7 185.9 183.5 181.9 180.1 181.3 185.1 184.8 183.4 182.8 184.4 183.6 178.3 168.4 162.7 167.9 176.3 180.9 183.8 184.8 187.8 191.5 194.4 196.1 197.3 198.4 202.6 206.7 208.2 209 210.6 210.5 210.3 210.9 212.3 214.1 216.3 219.3 220.4 219.8 219.4 218.9 219.7 220.5 219.8 219.9 219.1 215.8 212.5 206.3 196.7 189.9 193.5 197.2 207.3 218.8 223.7 226.2 228.3 231.3 232.1 232.8 235.8 239.2 238.2 231.9 226.2 236.2 239.3 243.9 248.9 256.2 265.4 275.2 286.9 295.9 306.5 310.6 312.9 318.2 324.6 329.4 333.3 333.9 328.4 322.3 321.6 322.7 324.6 326.3 328.1 330.5 335 343.4 353.8 368.9 380.8 393.3 395.6 393 392.2 391.3 390 387.5 386.3 384.6 381.5 382.9 378.4 377.5 375.8 374.8 373.6 370.8 368.3 364.2 357.1 348.6 348.4 348.1 341.6 336.5 333.3 332.2 329.4 324.6 318.9 316.3 315.7 315 316.8 312 309.1 307.2 302 294.2 287.4 280.6 274.2 258.7 250.7 244.8 240.4 237.1 232.2 226.2 220.1 202.5 198.6 194.6 191.6 186.2 180.6 172.4 166.2 158.6 149.4 145.6 150.4 149.3 143.5 141.9 141.1 140.8 140.4 140.5 143.4 142.7 139.9 139 138.6 138.6 138.9 138.6 138.7 138.6 138.5 146.8 143.9 147.2 145.2 151.4 153.1 153.7
149.1 150 149 146.7 143.3 133.2 134.1 149.4 158.1 163.7 169.1 173.7 178.5 183.9 188.5 191.5 192.6 192.7 192.6 190.7 189.2 187.1 188.6 189.9 190.1 191.1 190.6 187.1 188.8 178.7 171.3 165.4 168.6 173.8 177.6 180.1 183.8 187.2 190.2 192.7 193.7 195.9 199.6 202.8 204.4 207.1 207.8 207.4 206.9 209.4 211.9 214.7 218.8 221.9 223 223.2 223.1 222.6 223.4 224.8 224.9 224 222.1 219.7 217.1 210.6 200.8 193.8 200.7 209.5 209.6 206 218.2 212.8 217.2 222.2 228.1 232.2 235.9 240.4 240.7 239.6 236.7 229.6 232.7 239 244.4 255.8 266.9 273.1 283.1 291.5 299.6 304.9 309 314.9 322 325.7 332.7 331.2 325.7 321.1 323.4 325.7 326.8 329.2 330.8 333.2 337.5 344.2 352.9 369.6 382.1 390.6 395 392.8 392 390 389.5 387.6 386 383.7 383.7 384 379.4 377.9 376.1 375.7 374 372.4 370.1 364.3 358.9 351.3 353.1 350.4 343.5 339.7 338.4 336.1 331 325.2 318.5 317 316.3 317.3 319.6 315.4 312 307.8 301.1 292.7 285.2 279.8 275 263.3 254.2 245.8 239.7 237.2 232.6 227.7 218.9 211.3 199.1 197.8 193.6 189.5 181.8 173.7 167.3 159.3 150.1 145 144.5 143.9 145.1 141.5 141.1 140.9 140.3 140.5 139.6 139.6 139.1 138.7 138.4 138.5 138.5 138.1 138.4 138.8 139.4 141.3 150.4 150 152.1 153.2 155.1 154.8
153.1 152.5 151.1 148.4 144.2 137.5 134.7 138.4 149.1 159.8 166.4 176.5 186.1 192.4 197.1 198.8 199.9 200.3 199.9 197.1 194.8 193.6 192.9 193.4 194.2 195.1 193.9 190.8 188.2 183 178.5 168.1 166.5 166.4 171.3 174.9 178.7 182.4 186.7 190.2 191.2 193.2 195.8 199 202.6 204.9 201 201.3 205.4 210.1 213.1 216 220 223.4 225.5 226.4 226.7 227 227.6 228.7 228.6 227.8 226.8 225.5 222.4 216.4 207.1 197.1 209.7 218.3 221.9 223 226 229.4 225.5 225.9 228 226.4 235.8 240 243.2 243.4 241.8 240.7 237.1 235.5 242 252 265.6 269.7 277.4 283.9 290.2 298.5 302 308.2 315.4 320.2 328 327.1 322.6 320 323.3 326.4 328.3 330 332.3 334.9 338.9 344.5 354.3 368.2 379.1 386.3 392.7 391.7 389.2 387.1 388.1 385.1 382.6 381.9 381.7 380.8 381.4 377.8 377.3 378.6 377.4 375.7 369.3 364.5 360.1 359.2 356.8 353.3 347.3 345.7 344.3 338.9 331.6 324.7 319 317.4 318.2 322.7 320.5 316.7 312 306.8 298.3 289.7 282.5 279.2 277 265.7 255.4 248.2 240.6 238.8 236 230.7 223.7 201.7 198.5 197.7 194 192.5 183.3 174.2 166.4 159.8 151.7 146.1 144.3 143.7 148.5 142.3 141.8 140.6 140.6 140.4 140 139.6 139.5 139.3 138.3 138.5 138.5 138.2 139.1 139.6 138.5 143.7 149.8 152.2 153.4 155 157.1 156.2
158.9 157.3 157 154.9 147.9 141.6 138.6 134.9 138.7 147.8 158 170.7 181.6 194.1 198.4 201 203.2 204.5 204.7 204.3 201.8 199.7 198.7 197.8 196.9 195.5 193.8 191.5 189.2 184.9 177.8 173.3 170 169.3 168.5 170.9 173.9 179.7 183 184.8 186.4 189.1 191.2 195.8 199.9 199.1 202.2 204 206.4 212.1 216.3 219.2 223.3 226.5 228.1 229 230.2 231.1 232.2 232.5 231.9 231.1 230.5 230.2 227.9 221.8 212.7 204.5 218.5 226.2 230 230.5 231.6 233.5 234.1 234.8 234.9 235 228.1 240.2 244.8 247.3 251.9 249.8 246.3 243.6 241.2 244.1 251.2 263.2 271.6 279.6 286.6 292.5 296.2 302.3 307.5 314.2 321.4 322.6 318.9 319 322.9 326.3 330 331.7 332.4 336.3 340.1 345.1 354.1 361.3 371.7 382.2 388.2 388.1 388.3 383.3 383.2 380.8 380 377.4 377.5 379.3 379.8 377.5 377.6 380 379.4 377.2 370.7 365.6 362.6 363.4 358.6 355.8 353.9 352.5 347.4 340.4 332.7 325.2 320 319.3 321.8 326.5 322.3 318.8 313.2 304.1 297.5 290.3 284.3 280.4 279.6 272.1 260.2 251.2 246.1 241.5 239 235.6 228 202.9 200.5 197.9 197.4 191.5 184.7 176.2 167.7 160.8 154.6 149.6 147.5 145.5 148.6 142.9 141.1 140.8 140.8 141.1 140.7 140.2 139.5 139.2 139.1 138.5 138.4 138.3 139.2 138.5 138.6 144.4 149.9 144.4 152.9 155.9 157.6 156
170.8 167.5 165.9 165.1 158.5 145.9 143.5 143.3 140.1 141.3 150.8 161.1 176.5 187.5 195.5 199.1 203.3 205.7 207.8 210.4 210 206.2 205.1 204.1 201.4 197 194.1 191.6 189.5 185.1 181.6 178.1 174.3 171.6 170.8 173.1 174.2 173.8 175.8 177.2 178.5 182.1 185.1 184.6 193.7 202.8 205.3 206.9 211.4 215.4 221.7 225.5 229.6 231.2 231.4 233.9 233.6 234.3 235.2 236.3 235.8 234.9 234.8 234 232.4 227 217.8 208.9 224.7 230.9 235.9 236.7 236.5 238.4 239.8 240.5 239.2 240 240.4 234.6 242.9 249.3 257.5 265.7 263.2 253.2 250.7 250.5 259 255 266.9 273.4 282.4 288.4 292.2 297.2 303.7 307.7 316.1 318.6 316.5 318.1 321.4 325.3 330.3 331.8 335.7 339.3 340.2 345 352.2 359.6 368.2 381.3 383.8 385.8 384.4 379.9 379.7 377.6 375.7 374 375.7 376 376.4 376 378.1 379.5 377.4 374.8 370.9 367.7 367.7 365.1 361.6 359.8 357.9 355 349 343.6 337.7 327.2 321.9 322.3 325.5 329.2 324.5 318.9 312.3 303.9 298.3 291.6 286.3 281.6 281 277 267.6 258.3 254.7 249.8 243.8 239.8 232.7 226.7 215.2 206.8 200.4 193.7 185.9 178 170.3 163 156.3 152.7 152.4 150.6 151.1 148.8 142.5 141.1 140.3 139.5 139.6 139.4 139.8 140.1 139.1 138.3 138.5 139.6 138.4 138.3 139.3 145 149.2 150.2 151.1 154.9 153.2 154
177.6 172.5 166.8 164.7 156.8 149.1 148.2 147.9 146.8 141.4 143.7 149.7 163.5 175.2 185.3 192.4 199.5 203.9 207.3 211.6 212.8 209.4 207.6 207.1 204.7 198.6 195.5 192.7 189.4 188.8 186.1 182.8 180.9 176.5 173.4 175.4 177.2 179.1 182.5 184.6 186.4 188.1 194.8 196.8 197.7 202.4 206.8 210.9 216.6 219.4 221.2 229.3 232.8 235.7 237.6 237.5 237.7 238.1 239 239.6 239.5 239 239 239.1 237.6 231.6 216.8 221.8 219.1 234 238.4 242.7 243.7 245.7 248 248.5 246.6 245.1 244.9 242.8 241.4 249.6 258.4 271.4 278.9 270.7 261.7 259.9 262.8 266 259.5 270.6 278.1 284.5 288.2 295.6 300.1 305 310.3 315.1 314.9 318.3 323.2 326.5 330.8 333.6 338 339.2 343.5 347 353.2 361.8 371.9 381 382.2 382 380.3 377.6 376.5 372.9 373.9 370.8 372.1 373.4 373.2 373.4 377.6 377 374.7 371.2 369.1 369.5 370.5 366.3 363.6 361.6 359.3 355.6 350.6 345.7 338.1 329.5 324.6 326.4 328.1 331.1 327.1 317.9 310.7 305.2 299.8 293.2 289.8 283.6 282.7 280.2 274.4 266.6 261.1 256.3 248 239.6 234.5 229.3 218.8 210.5 203.7 195.3 186.6 179.7 171.6 165.9 159.9 155.6 158.6 156.1 154.5 151.6 143.8 140.8 139.2 139 138.7 138.6 138.7 138.7 138.6 139.2 139.3 138.9 138.8 139 139.9 144.9 147.5 147.4 149.5 152.1 152.6 152.7
178.4 172.7 166.4 160.1 160.3 160.6 164.3 163.9 159.6 157.6 150 144.5 152.1 163.7 175.6 184.5 189.3 195.7 199.3 202.2 203.6 203.9 202.5 202.8 202.9 199.9 197.2 194 191.8 192 191.2 189 187.2 183.2 176.7 175.4 179.7 184.7 191.3 191.2 193.6 194.9 195.9 202.2 202.5 199.5 208.2 212.3 218.5 223.4 225.8 229.8 236.7 239.4 242.5 242.3 242.4 242.6 243.5 243.8 243.9 244.6 244.3 243.6 241 232.3 214.5 231.7 233.1 223.5 242.7 248.3 252.1 254.5 255.5 255.6 254.3 253.6 250 247.6 242.9 249.9 259.3 272.4 283.5 284.8 282 278 273 271.5 270.5 271.5 271 275.2 281.2 292.7 299.3 302 306.6 310.6 316.4 320.6 324.3 328.5 330.5 335.5 337.2 337.7 343.2 349.1 355.5 364.8 373.9 377.8 379 378.3 377.8 375.2 371.5 368.9 368 367.2 368.6 369.9 370.9 370.8 375.4 374.5 373.4 369.8 368.9 371.6 371.1 365.8 363.3 362.3 359.4 356 350.8 346.3 340.3 333.6 327.9 330.1 331.7 333.6 328.9 318.2 309.4 305.5 301.6 296.5 292.4 285.8 283.5 281.8 278 273.3 267.1 259.2 251.2 243.4 236.3 230.6 221.7 214.7 207 199.6 189.6 179.9 174.7 167.9 161.3 159.6 161.8 158.4 153 149.4 142.5 140.4 139.4 138.4 138.5 138.4 138.5 138 138.4 138.6 138.4 138.8 138.8 139 139.3 144 146.5 145.7 146.6 148.4 149.8 148
175.1 170.7 166.8 164.8 167.4 169.3 171.7 173.4 173.6 171.3 165 148 148.9 157.2 163.7 172.5 180 183.5 185.3 189.3 192.3 193.8 194.9 196.5 197.2 197.3 196.8 195.3 195.3 196.4 196.8 197.1 195.2 191.2 180.6 181.1 182.8 192.2 197.9 200 203.7 204.2 203.8 205.8 206.9 201.3 210.4 216.1 220.2 227 231.8 226.6 239.4 243.7 245.8 246.8 247.1 249 250.5 252.6 252.3 251.6 250.9 247.6 244.5 235.1 228.8 240.9 244.1 244.9 240.3 254.1 258.6 261.1 262.3 263.3 261.9 259 254.8 251.6 248.5 254 261.3 275 286.2 293.7 295.2 290.7 283.8 283 284.6 287.1 286.7 287 280.3 292.5 300.8 304.1 307.8 313 320 324.6 325.4 327.4 329.4 334.7 332.6 336.1 343 350 356.9 366.4 372.9 375.1 376.4 375.8 375.4 373.6 368.7 363.9 363.3 362.6 364 366.9 367.1 367.8 372.6 372.1 371.9 369.7 369.4 372.9 368.6 365.6 364.6 361.8 358.5 355.2 351.3 346.3 341.1 335 331.6 332.5 335.3 336.2 331.7 321.4 311.4 307 302.9 299.3 294.7 288.1 283.1 281.7 279.5 275.6 270.6 263.5 254.4 246.3 239.3 232.1 226.2 218.3 210.8 201.7 190.9 184.1 178.8 170.2 163.3 163.9 165 160 152.5 146.8 143.8 140.3 139.4 139 138.9 138 138.8 138.3 138.4 138.8 139.2 138.3 138.7 138.8 139.7 142.3 145.9 143.6 143.2 144.7 145.8 145
171.3 169.3 166.9 167.4 170.6 174.9 177.3 179.4 185.9 181.2 171.6 154.8 149.7 154.7 161.4 171.9 178.7 181.9 189 186.5 191.2 190.9 193.8 194.2 195 195.3 196.5 197.2 198.3 199.9 201.5 202.1 200.6 196.5 188.8 192.4 188.6 196.7 201.7 205.9 208.4 209.7 208.8 209 213.6 213.3 214.8 219.9 226.6 232.2 236.8 238.5 240.1 244.8 247.2 249 251.8 256.8 260.2 261 260.1 258.3 257.3 253.4 246.2 231.9 241.8 250.9 252.6 253.6 250 258.5 263.3 267.4 268.7 269.1 268.5 266.8 262.8 256.4 259.1 263.6 265.1 275.8 290.6 299.7 300.7 296.9 295.4 294 300.1 301.4 301.8 295.8 285.2 292.2 300.1 304.7 308.3 315 322.4 325.5 324.7 325.1 326.3 330.8 329.3 335.5 344.1 349.9 356.8 365.9 370.9 372.2 374.5 373.3 372.4 371.3 368.6 361.2 356.9 357.3 358.8 362.1 361.8 365.1 370 370.8 370.9 369.2 370.6 372.2 366.9 366.5 364.3 361.3 357.8 354.1 350.9 345.2 338.9 335.3 336.2 337 336.2 335.3 331.6 323.6 312.8 307.6 304.1 300.1 295.3 290.2 284.2 281.3 278.2 276.1 271.6 263.9 256.3 249 242.6 234.5 227 220.4 212.4 203.7 192.8 186 181.4 172.6 166.8 167.4 166.7 161.3 153.1 147.4 144.5 140.4 139.8 139.6 138.9 138.5 138.2 138.2 138.4 139 138.3 138.4 138.7 139.2 140 140.7 143 142.3 142.9 143 144.1 145.7
171 170.2 168.7 168.6 171.6 174.6 176.7 178.8 185.8 182.9 170.7 155.3 151 153.7 171.5 181.3 190.5 190.7 190.9 203.6 204.5 202.5 200.5 201.1 197.3 196.1 196.9 199.9 202.6 203.1 205.2 205.9 203.3 199.7 200.2 200.2 189.9 202.5 205.8 209.3 212.2 214.1 213.8 210.7 218.1 220.6 212.2 226.4 232.6 237.9 241.1 242.2 236.9 243.6 246.4 250.6 257.2 262.1 265.4 265.7 265.3 263.8 262.9 260.1 247.8 232.4 251.3 258.2 260 261.7 261 259.6 268.9 273 274.2 275.7 275.9 275.5 271.1 263.8 256.8 268.1 272.7 279.6 291.4 299.9 302.3 303.4 303.3 306.2 308.6 308.6 304.7 301.9 288.5 290 300.6 304.5 307.6 317.7 324.1 322.8 322.6 321.8 323.3 326 328.8 335.9 342.6 347.9 357.4 363.9 367.1 368.6 371.9 371.7 368.9 367.2 364.5 360.4 354 352.5 352.9 357.3 357.4 362 366.9 368.1 368 368.9 371.5 369.9 367.4 367.3 364.7 361.8 358.3 353.7 350.5 344.5 337.7 334.6 336.5 335.3 334.8 334.3 331 324.4 314 309.4 305.2 301.4 296.6 291.2 285.6 280.4 277.7 274.4 270.2 263.4 256.5 249.9 243.9 236.9 227.5 221.1 212.3 199.4 200.4 186.6 181.8 174.5 169.1 169.3 168.2 160.3 149.9 145.8 141.9 139.8 139.6 139.4 139.2 138.6 138.8 138.5 139.5 139 138.6 138.7 138.8 139.2 139.8 139.8 141.4 141.1 142.2 143.4 146.5 152.2
171.2 172.3 172.2 171.4 172.3 174.9 176.5 177.2 178.6 179.3 168.2 153.3 155.5 161.8 185.8 196.3 203.2 208 211.8 211.2 209.8 208 204.2 202 198.7 198.1 199.8 205.1 207.4 207.2 208.3 209 206 201.7 204.3 206.2 198.4 205.5 208.6 210.4 215.3 217.5 218.9 219.7 221.3 225.7 223.5 230.3 236.8 242.7 245 244.8 242.8 242.3 245.2 252.6 258.5 263.7 267.7 269.8 270.4 269.4 269.7 267.4 249 247.3 257.7 264.6 268.9 269.8 269.7 271.6 273 277.6 280.9 283.5 283.9 282.8 278.3 274.1 264.8 273.3 282.8 288 291.3 300 305.2 307.2 309.8 312.9 315 310.2 304.8 301.2 292.7 290.9 299.9 304 307.3 316.2 321.1 318.2 318.6 317.4 318.6 319.8 327.1 336.7 339.8 347.2 356.3 361.4 364.8 365.1 367.9 369 365.2 362 360.3 357.5 351.4 347.9 349 352.6 352.8 358.2 362.9 365 366 367.8 370.4 368.5 367.3 366.5 364.6 362.5 358 353.6 349.4 344.7 337.9 334.5 335.4 332.7 334.2 333.9 329.6 324.4 315.2 309.4 306.1 301.9 296.3 292.1 286.9 281.1 276.3 272.5 268.5 261.7 255.3 249.5 243.7 236.1 226.8 220.6 211 203.2 194.3 186.5 181.9 175.5 171.1 170.2 166.7 159.3 148.6 144.2 141.5 140.2 139.9 139.6 138.5 138.2 138.4 139.3 139.3 139.4 139.5 139.1 139.4 139.6 140.3 142.1 141.6 141.5 143.1 147 152.8 156.1
171.5 173.2 174.2 174.4 175.3 176.5 176.8 176.9 177 175.5 169.8 159.3 155.5 163.9 187.4 199.6 207.3 212.7 216.2 217.3 217.4 216.2 210.6 208.5 200.2 201.3 207.7 211.6 212.2 212.2 211.2 211 207.6 203.2 207.3 209.7 207.9 203.9 211.6 214.5 217.6 221.4 223.5 225.2 225.6 229 230.4 229.7 240.2 245.4 246.7 245.7 244 244.1 247.5 251.9 258.2 263.7 268.1 271.6 273.5 273.8 273.3 268.6 251.4 259.1 267.4 272 276.9 279.6 278.2 279 278.6 283.5 287.1 289.7 291.3 289 285.5 280 279.6 283.3 291.7 296.5 299.8 303.4 307.7 312.2 314.9 317.9 317.1 314.4 305.8 300.4 294 292.7 300.9 304.6 306.1 311.3 317.1 315.4 314.4 313.8 315.8 319.4 326.7 334.8 337.6 348.2 355.6 359.6 361.6 363.3 363.5 364.9 361.2 357.3 355.5 351.8 345.5 341.9 343.7 346.4 347.5 354.7 360 361.5 362.6 367 367.9 367 365.8 364.8 363.1 361 356.8 352.2 347.8 343.2 336.1 335.6 333.7 330.4 333.3 333.7 329.7 326.1 318.1 309.5 306.2 302.8 297.7 292.4 287.4 281.2 275.5 271.1 266.6 259.3 253.8 248.5 242.1 234.1 226.9 218.6 209.4 201 191.9 186.4 181.2 175.6 170.1 167.8 163.5 155.6 148.9 143.9 141.5 140.7 139.7 139.1 138.6 138.8 139.1 139.7 138.7 138.5 138.6 140.2 139.6 139.9 141 147 142.4 142.6 143.9 146.8 151.7 159.4
176 175.8 176.3 176.4 177 177.8 178.4 177 176.7 174.6 168.5 161.3 157.5 160.3 183.6 201.9 211.4 216.1 219.3 221.8 223.1 221.6 217.2 215.3 205.7 205.1 214 216.5 216.8 215.6 213.8 211.7 208.7 206.3 209.9 212.8 209.8 203.7 206.8 216.9 220.5 225.1 227.9 230.7 232 230.9 234.8 235.5 241.3 246.4 248.2 247.3 245.8 246.1 250.1 252.8 259.1 264.4 268.9 272.7 276.3 276.8 276.4 271.5 254.7 270.2 278.5 282.7 287.2 287.5 286.2 286.6 285.2 290.4 294.7 295.5 296.8 295.2 292 282.3 286.6 293.6 296.2 303.5 308.3 311.2 312.3 316.3 319.2 318.6 319.2 317.8 311.1 302.4 295.3 293.4 299.3 306 307.1 308.4 313.7 314.2 312.9 310.6 313.1 314.9 321.8 326.8 335.8 347.9 354.4 358.1 359.1 361.3 361 361.4 356.9 351.1 349.9 346.4 340.6 337.2 339 342.4 344.6 351.7 356.2 358 361.2 365.2 365.5 365.5 364.4 363.9 362.3 359.4 355.5 351.6 346.7 341.2 336.4 334.7 330.4 327.1 330.9 332.8 328.4 326.7 322.4 310.7 305.6 301.7 297.3 292.2 286.5 280.9 274.9 267.9 264.8 257.2 252.6 246 240.4 231.9 225 216.9 207.3 197.4 190.4 184.9 181.4 175.2 167.9 163.1 158 152.4 148.6 144.8 141.7 140.1 139.7 138.6 138.9 139.1 140 138.9 139 138.6 138.7 139.2 140.1 141.6 141.6 144.8 142.9 143.2 145 151.7 156.1 160.5
182 180.3 179 178.8 179.4 180.9 180.8 179.2 178.5 177.1 173.7 165.3 159.1 160.2 176.4 198.3 208.7 216.9 220.7 223.2 225.1 224.4 222.3 220.2 210.5 214 217.3 218.9 219.3 217.3 214.6 214.8 211.8 211.2 213.7 216.8 206 214.9 214.8 215.3 224.3 227.1 232.1 235.6 237.4 237.6 238.8 241.3 238 245.4 248.2 249.3 248.9 248.8 255 259.4 259.1 266.4 272.1 276.2 279.2 281.8 281.6 276.5 258.8 280.7 288.3 292.6 294.8 295 291 291.4 290.3 294.5 299.8 301 301.5 296.8 294.1 282.6 292.3 302.5 306.2 309 313.4 316.8 317.6 319.6 319.5 319.9 320.1 319.2 314.4 307.5 299.7 295.1 298.4 304.4 307.3 308.5 312.6 314.9 312.7 308.3 309.5 312.6 318.9 327 336.1 347.4 352.9 356.3 357.9 359.4 358.2 356.4 353.3 347.4 345.8 342.6 338.1 332.1 335 339.4 344.3 348 353 355.9 359.7 362.7 363.3 363.5 363.4 363 361.8 357.6 353.7 349.1 344.4 339.5 335.9 333.2 329.2 323.8 327.9 329.9 327.1 324.9 325.1 314.5 305.9 301.4 296.3 289.7 284.5 278.7 272.3 266.1 262.7 255.2 248.7 243.7 228.6 228.5 221.2 212.9 203.6 193.3 187.4 183.7 180.2 173.2 163.9 157.9 153.7 150.6 148.6 144.8 142.4 139.9 138.6 138.6 139 139.8 139.3 139 138.8 138.8 139.1 139.2 139.6 140.6 141.9 144 144.2 144.7 147.5 154.7 159.3 163
184 184.1 183 182.2 182.4 183.3 183.8 183 180.8 179.6 176.3 165 162.1 161.9 168.6 189.3 200.2 211.3 218.6 222 225.4 228.1 228.7 217.8 214.9 218.8 222 217.9 221.1 219.5 217.9 217.7 217 212.5 218.1 221.2 208.7 222.8 224.4 215.9 223.6 231.8 235.8 239.7 241.6 241.6 241.6 243.9 245.9 243 248.3 250.8 251.3 252 258.4 263 265.5 268.3 275 280.4 286.7 289.2 290.3 283.6 264.9 287 293.7 298.4 302.3 300.4 296 297.9 299.6 297 301.5 303.6 301.8 298.9 294.4 295.9 302.1 307.7 312.4 313.3 316.8 318.7 318.4 320.1 319.1 319 318.7 317.6 312.5 306.2 303.3 299 301.1 305.1 307 309.1 313.8 315.1 313.2 308.5 307.4 311.5 316.7 323.6 332.1 343.6 349.8 353.7 356.2 356.5 356.3 352 349.6 344.5 342.3 341.6 336.4 330 330.6 336.4 341.8 345.5 351 354.5 357.8 360.1 361 361.9 362.1 362.1 360.7 355.7 350.2 345.6 342.6 337.8 333.6 332.1 326.9 322.6 323.7 327.6 324.3 322.4 320.8 315.6 308.2 301.2 293.5 286.4 281.1 275.4 268.8 263.7 260 253.4 246 229.5 236.6 223.4 216.4 208.4 195.1 189.1 184.2 180.4 177.1 170.8 161.7 159 155.4 153.4 148.6 143.5 141.6 140.1 139 139.1 140.5 140 139 138.9 138.7 138.7 139.2 139.2 139.9 140.7 143.4 142.5 144 145.6 150.2 155.6 159.5 163.8
187.3 186.7 186.8 186.4 186.2 186.7 187.5 186.8 184.1 181.9 176.5 176.3 172.1 168.8 164.8 181.8 193.2 201.1 211.4 220.1 225.3 229.6 231.2 227.9 220.3 224.1 223.9 221.6 222.6 222.3 220.9 221.6 221.2 217.8 223.8 225.4 215.9 227.8 229.5 229.6 216.3 234.9 238.4 241.8 243.5 243.8 243.6 246 248.6 247.5 246.5 252.1 254 255 260.7 265.4 268.7 272.4 277.1 283.7 289.9 296 296.4 290.4 275.5 285.2 295.7 301.7 303.4 302.1 299.8 303.1 304.6 300.8 302.6 304.1 302.8 298.8 297.8 303.2 309.4 312.8 316.2 317 317.9 318.6 318.7 319.8 317.8 317.2 317 314.9 310.7 309.6 305 300.6 301.2 305 306.7 310.4 313.3 314.8 313.9 312.5 304.2 306.6 313.2 316.1 317.4 339.5 347.1 350.9 354.2 353.6 352.1 347.3 345.2 341.7 340 337.7 329.7 325.7 327.3 333.6 339.9 344.2 348.8 353.4 354.5 355.1 358 360 359.8 360.6 359 352.9 347.7 343.2 339.3 336.2 332.1 330.4 326.1 320.8 320.1 322.8 319.9 318.2 317.3 313.7 309.4 302.4 291.5 282.4 277.6 270.8 265.2 260.8 256.3 248.9 242.4 238.8 229.1 220 212.4 203.2 190.5 184.4 180.7 177.4 173.9 168.1 162.2 158.7 154.5 153.3 148.6 142.5 141.2 140.1 140.2 139.8 140.4 139.3 139.4 138.9 138.8 138.5 138.6 139.5 140.2 141 147.4 143.4 145 146.9 149.5 148.7 154.2 155.6
193.4 191.2 190.3 190.2 189.5 190 191.1 190.2 187.2 180.9 183.5 182.2 180.3 177.7 173.7 171.4 188 198.3 204.6 215.7 221.8 226.6 228 227.1 223.2 224.3 225.2 224.2 223.9 224.6 224.6 225.5 225.6 222.2 228.6 229.5 221.4 232.1 234.2 235.7 230.7 226.9 239.1 241.8 244.5 245.2 245 247.4 250.2 251.7 248.9 252.7 257 257.9 262.7 268.1 272.5 277.3 277.8 285.5 290.5 297.1 300.8 297.6 283.1 283.9 294.9 298.9 303.4 304 305.5 306.8 305.7 305.6 304.6 304.7 303.7 297.7 301.7 309.3 314.1 317.4 317.3 318.4 318.5 319.6 319.4 320.6 318.1 316.5 315.7 313.1 313.3 309.2 304 303.1 305.3 304.9 306.7 309.5 312.2 314.2 312.7 312.1 307.8 300.4 307.3 309.2 311.6 333.3 342.7 347.8 351 350.5 345.6 343 340.8 338.5 333.7 329.2 325.1 322.1 325.9 331.5 338.3 342.7 347.4 351.6 351.3 351.6 354.5 356.8 357.9 358.1 356.8 351.3 346.2 342.1 337.7 335.2 332.1 329 325 321.1 316.3 317.1 315.4 313.5 312.7 309.6 307.3 301.8 290.1 280.7 274.8 266.6 261.4 257.8 252.1 244.4 238.6 234.3 225.8 216.8 206 197.2 188.7 182.6 177.1 173.2 169.7 166.7 162.1 157.1 152.6 149.6 146.4 142.5 140.7 140.5 140.4 140 139.9 139.6 139.6 139.4 139.3 138.8 138.8 139.1 139.9 141.4 143.2 146.7 148.4 149.4 152.7 157.2 160.7 163.8
203.4 201.9 196.6 194.2 193.3 193.4 193.6 193.1 191 187.2 188.7 188.2 187.1 183.1 184.1 179.9 169.8 184.7 202.1 205.8 212.8 220.2 224.7 226.1 222.9 223.8 226.8 227.3 225.7 226.5 227.6 229.1 230.1 228.3 231.9 233.2 229.7 233.7 238.6 240 238.3 236.9 230.9 237.6 244.9 246.2 247.4 250.1 252.9 256.1 255.3 256 259.7 263.3 270.8 274.4 278.9 283 287.8 290.3 293.4 297.6 301.9 300.8 290.9 282.3 289 296.8 301.8 306.3 310.3 310.1 308.7 308.6 308.5 307.8 305.2 301 305.3 312.6 316 318.7 319.2 319 320 320.9 320.7 319.8 318.9 317.8 317.1 314.3 311.3 308.2 306.8 306.7 309.1 307.6 307.8 307.7 309.7 311.7 309.9 309.6 308.7 297.9 302.4 302.5 307.4 321.3 333 341.8 346.4 346.1 340.9 337.6 335.8 334.1 328.5 321 322.4 320.1 323.2 330.5 336.5 341.4 346.6 348.7 349.5 349.2 350.5 354.1 355.8 355.9 354.9 349.5 345.8 340.6 337.1 334.2 332 328.2 323.9 320.1 314.6 312.3 310.7 309.8 309.2 306.1 303.4 299.2 288.3 278.7 271.5 263.6 258.4 253.4 246.7 240.5 235.2 230.5 222.7 212.4 202.9 195.2 187 179.8 173 163.7 162.6 160.8 156.9 154.1 149.7 148.8 145.3 143.1 141.3 141.4 140.6 140.1 139.9 139.6 139.1 139.6 138.9 139.2 139.4 139.7 140.9 145.1 148.4 151.7 152 150.8 153 157.4 162.6 164.9
210.6 212.8 208.9 200.9 196.3 195.4 195.7 195 193.7 190.9 193.8 193.5 191.5 187.6 190.5 192.3 189.7 172.8 182.2 199 203 209.2 214.6 218.5 219.7 223.2 227.3 230.6 228.8 228.6 230.1 232.3 233.9 233.4 236.2 237.8 236.3 232.8 240.5 243 241.8 242.3 242 239.2 246.1 248.8 251.1 255.1 258.1 261.4 262.2 267.2 269.9 273.3 282 285.5 289.4 292 296.8 299.2 300.7 303.8 303.5 304.4 296.9 291.6 285.8 291.9 299.9 306.1 310.9 313.4 310.1 312.6 315.4 312.2 308.1 304.3 307.4 314.9 317 319.2 319.9 320.3 321.5 322.3 322.1 321.2 320 318.3 316.6 314.7 312.7 311 309 309.2 312.3 311.1 309.4 307.4 308 309.3 305.9 305.2 302.8 299.2 296.5 295.9 304.8 313.4 322.4 330.3 338.9 341.1 334.5 332 330.8 329.3 321.3 313.2 318.2 315.4 322.1 330 335.9 341.2 344.8 347.2 347.2 347.6 347.5 351.8 353.9 354.2 353 348.4 344.7 339.8 336.7 334.7 331.9 328.5 324.5 319.4 312.3 308.3 306.7 306.2 304.8 303.1 301.1 296.3 286.8 274.9 268.6 260.4 254.3 248.5 242.2 235.9 230.8 226.5 217.3 209 199.5 193.2 184.8 177.7 166.3 173 170.6 165.7 159.3 152.1 148.9 146.8 144.9 142.6 142.2 140.7 140.7 140.6 140.1 139.8 139.4 139.6 140.6 140.2 140.6 141.2 144 148.4 152.4 155.5 155 153.2 155.7 159.1 162.9 165.9
209.7 217.2 216.9 214.3 211.9 203.1 201.1 198.8 196.8 192.5 198.7 198.3 195.3 193 198.7 200.2 199.3 186.3 182.3 188.3 196.1 202.8 208.2 211.8 216.6 222 228.1 232.6 231.8 231.2 232.3 234.6 237 237.9 239.3 240.9 239.5 231.1 241.3 244.8 245.9 247.5 248 247.2 249.5 253.2 258.2 264.8 268.1 269.6 272.5 277.6 284.6 287.7 292 295.8 299.1 302.6 306.9 309.9 311.6 312.9 312.2 308.8 306 298.8 299 289.7 296.3 304.4 311.3 313.2 311.5 315.5 316.6 314.6 314.5 307.8 305.9 313.5 317.5 319.5 320.9 322.6 323.6 324.3 324.3 322.3 320.7 319.6 317.7 316.1 315 313.9 312.5 312.4 314.3 313.4 312.7 309.4 306.2 309.2 306.9 300.1 295.9 298.2 297.6 290.1 298.9 306.4 314.6 321.6 327 334.3 329.2 326.6 326.4 323.3 316.9 309.1 312.7 312.7 321.7 328.2 335.1 340.2 344.2 346.1 346.1 345.5 345.6 350.1 353.1 352.5 350.7 347.5 343.9 339.7 336.3 333.9 331.2 327.6 323.7 318.9 312.7 305.6 303.6 302.7 301.7 299.8 296.9 292.8 283.2 272.5 264.4 256 251.2 244.1 237.9 231 227.2 222.6 213.1 204 197.1 189.8 181.4 171.9 172.4 175.7 171.6 167 160.4 155.4 151.5 146.4 143.6 142.3 141.5 141 140.2 140.7 140.5 139.8 139.5 139.6 140.4 141.2 141.6 142 145.4 150 155.2 157.1 155.6 155.6 157.6 161.9 164.7 175.7
203.8 214.3 220.5 222.5 221.8 217.9 210.2 205.7 203 199.9 201.4 202.1 199.6 198.5 201 201.6 199.4 190.8 183 186.3 193.6 199.7 204.8 208.7 214.6 221.2 227 231.2 234.1 234.9 236.8 237.4 239.1 240.3 240.4 241.9 241.3 238.9 241 246 248.4 251.5 254.3 252.7 261 263.5 268.3 274.8 279.6 282.2 284.5 288.7 294 298.7 301.8 304.2 308.1 311.6 315.2 316.4 316.5 317 316.9 313.3 310.3 310 306.9 298.8 293.3 301.1 308.5 311.9 312.3 314 317.2 318.1 317.4 311.7 309.1 313.2 317.1 319.9 322.1 324.2 325.6 327.1 327.3 325.3 324.2 321.4 319.2 318.5 318.5 317.4 317.9 318.6 318.6 319.4 318 314.9 310.4 304.8 300.2 299.5 300.1 293.4 290.3 284.5 295.2 300.8 308.2 313.7 317.3 324.3 322.3 320.5 320.5 317.9 310.7 303.5 300.7 315.9 320.8 326.1 334.1 339 342.7 344.7 344.6 343.4 344.2 348.4 352 351.2 348.5 345.2 342.7 338.6 335.5 333.2 329.8 325.4 322.6 318 310.7 303.8 299.3 299.5 298.2 296.3 294.8 289 278.8 269.6 261.4 254.3 246.7 240.4 233.3 227.6 223.3 218.4 210.2 200 195.2 187.4 179.3 169.7 178.1 178.8 172.7 166.6 162.1 156.3 150.1 146.1 143 142.1 142 140.5 139.8 140.3 140.4 140.2 140.3 140.4 140.4 141.2 142.4 143.2 148.7 150.7 155 154.3 154.3 156.2 160.1 165.1 170.4 182.7
197.6 209.5 219.2 227.4 229.8 226.6 218.5 212.2 209.5 205.2 203.6 204.9 203.6 203.5 203.1 202.6 199 192.7 186.6 185.3 191.2 196.9 203 207.7 212.4 219.5 225.4 229.6 232.9 236.7 239.1 240.7 242.4 242.3 242.9 243.6 242.4 243.4 244.4 244.7 249.9 253.5 262.6 258.7 270.5 275.7 279.4 284.5 289.9 293 295.6 297.6 301.4 305.7 309.3 311.5 313.3 316 318.5 319.2 318.8 318.7 318.5 317.2 313.8 312.1 311.1 305.7 298.2 297 304.6 309.5 311.9 313.7 318.3 319.1 318.3 314.8 313.5 315.6 318.5 320.6 322.9 325.6 328 331 331.6 332.5 331.4 329.1 327.9 325.5 323.9 323.3 325.7 326.8 331.1 329.5 328.1 323.6 318.7 315.3 315.7 310.6 300.5 294.3 285.9 281.2 290.2 296.9 301.6 306.1 309.3 313 315.2 314.1 314.2 310.8 303.5 292.9 309 314.7 320 325.7 332.6 337.9 341.1 343.1 343 341.7 342.9 346.4 350.8 349.5 344.8 342.7 340.9 336.9 334.1 330.5 327.5 323.6 320.4 315.4 308.8 300.9 297.1 295.6 294.7 292.4 290.2 284.4 273.8 265.6 257.9 251.2 242.3 236.1 229.6 225.2 220.9 214.5 207.7 198.6 191 184.2 177 173.7 180.7 179.9 174.3 167.3 163.5 158.3 151.7 149.7 143.8 141.6 140.5 140.4 140.6 140.8 140.1 140.2 140.5 140.8 140.7 141.1 142.9 143.8 145.5 148.8 150.4 152.5 155.1 157 162.5 168.5 176.7 183.4
196 201.6 212.1 224.5 231.9 230 224.3 216.1 212.5 205.7 209.1 208.2 208.4 208 205.8 203.6 199.3 196.5 190.6 184.5 192.8 199.4 201.3 206 211.9 218 223.4 228 231.7 237 240.2 243.4 245.7 247.3 247.2 246.9 245.7 246.7 249.3 249.9 252.6 260.7 269.9 272.5 278.4 284 288.3 292.9 297.2 301.3 302.9 304.1 307.1 309 312.5 314.1 316.3 318.9 321.1 321.3 320.1 319.4 318.7 319.4 315.5 314.5 314.6 310.1 303.2 302.1 302 308.1 311.6 313.7 317.9 319.7 319.2 317.6 317.9 319.4 322 323.9 325.4 329.2 333.6 337.8 341.3 342.6 341.6 340.4 338.5 335.8 328.8 333.3 338.1 341.5 341.4 339.6 336.4 331.9 327.4 326.1 323.3 318.5 311.9 303.4 285.5 276.9 282.2 291.6 295.2 300.1 301.7 303.1 307.7 307.6 306.8 303 291.7 300.5 307.9 314.1 319 324.8 330.9 335.8 339.5 341.6 341.4 339.7 339.7 344.8 348.1 346.8 342.8 341.6 338.4 335.1 331.3 328.3 324.5 321.5 317.6 312.9 305.2 298.9 293.9 291.3 290.9 289 285.5 278 268.4 261.1 253.5 246.4 238.1 232.6 226.4 222.2 217.6 210.2 202.6 196.7 188.6 181.5 172.1 177.1 182.6 180.8 175.5 169.8 164.2 159.3 151.9 148.3 143.3 141.4 140.7 140.4 140.8 140.3 140.6 140.6 140.7 140.9 142 141.6 143.5 147.9 150.8 153 154.1 155.3 157.3 161.4 168.4 174.9 181 187.8
194.1 200.6 205.7 213.5 219.7 225.6 223.7 217.9 213 213.4 214.4 213.2 212 211.2 209.8 206.7 202.5 200.6 196.6 188.1 193.1 200.2 204.4 208.1 209.8 215.6 220.5 225.2 231 236.9 242 247.2 251.2 254.5 253.8 253.2 251.4 250.2 255.8 255.7 257.7 267.9 277.5 281.9 282 292 296.5 299.7 302.1 305.3 307 309 311.9 312.7 313.9 315.4 317.9 319.7 321.4 321.5 321.2 321.1 319.4 318.2 317.1 315.1 315.3 314.2 307.8 303.1 301.5 306.1 311.2 315.1 318.6 320.7 320.9 321.3 321.3 324 326 329.7 334.6 340.1 343.6 347 352.6 354.2 353.8 351.4 348.1 338.9 337.1 347.4 348.4 350 349.5 346.8 342.1 335.1 331.5 331 328.7 323.8 315.7 310.2 301.7 290.9 273.9 286.4 290.5 294.4 295.3 296.2 299.8 299.9 298.6 293.7 281.2 300.3 306.7 313.2 318.1 322.9 328 333.7 337.9 340.6 340.6 338.9 338.1 341.9 344.5 343 339.7 336 335.7 332.2 329.2 326.5 322.7 319.3 315.1 308.9 302.2 296 290.7 287.7 287.2 285 280 274.1 263.3 255.9 248.8 241.6 235.3 229.4 222.3 218.6 213.8 206.8 201.2 195.1 186.9 179.5 174.9 180.3 186.4 185.5 179.7 171.4 165.9 161.1 156.8 148.6 144.2 141.3 140.3 140.5 141.2 141.1 141 142.1 141.9 141.8 142.5 143.9 145.2 151.5 154.8 156.2 157.4 159.8 162.6 168 173 182.3 189.8 189.3
198 196.6 203.8 209 215.4 219.1 220.8 218.9 215.4 217.9 217.5 217 216.1 216 213.9 210.2 207.5 204.4 200.3 191.3 195.4 200.3 208.7 214.9 216.2 217.6 223 229 232.4 239.6 248.3 252.1 256.2 259.5 259.9 258 257 258.1 260.8 264.1 265.8 273.4 283.5 289.9 288.7 297.1 300.8 303.5 306.1 308.4 310.5 312.1 314.4 315.6 315.7 316 318.5 320.5 321.9 322.7 323.3 322.7 321.6 320.7 317.7 315.9 315.4 314.3 309 305.2 303.4 307.7 312.6 316.2 319.3 322.4 324 325.1 326.1 329.8 334.6 337.6 345.5 351.4 357.8 363 363.2 366.2 363.5 359.5 354 344.7 351.9 354.6 356.6 355.8 353.5 351.7 348 343.2 336.2 331.3 328.7 324.4 317.4 311 305.5 295.6 282.7 271 284.7 288.1 290.9 289.5 292.2 291.5 288.2 277.7 288.6 299.1 306.5 311.9 316 320 325.3 330.1 336.1 339.1 339.7 338.1 336.1 338.4 339.1 339 336.7 334 332.5 330 326.4 323.5 320.8 316.2 310.9 304.4 297.3 292.5 287.6 284.7 283.3 280.6 275.7 267.7 258.8 250.6 244.1 237.4 230.9 225.9 219.9 214.6 212.2 205.3 199.8 192.5 184.8 178.2 177 185.6 190.5 188.5 182.3 173.7 166.8 162.9 159 151.5 143 140.9 140.2 140.3 141.6 141.3 140.9 141.8 142.7 143.6 143.4 144.2 147.8 155.6 158.6 160.6 161.4 164.2 166.8 171.3 177.1 184.9 193.5 195.6
202.5 203 201.4 209.8 215.1 218.2 220.5 219.8 219.8 222.4 223.1 223.6 223.7 223.7 220.7 215.7 215.2 209.8 203.5 193.6 197.7 202.5 213.2 222.6 224.3 226.4 230.1 238.3 246.3 245.5 250.9 256.3 261.1 263.8 264.7 263.1 263.7 264.8 264.9 269.8 275.3 281.8 287.5 293.8 299.5 299.8 295.1 307.4 309.9 311.7 314.9 315.4 315.5 315.6 316.5 317.5 319.4 321.8 324.5 325.2 325.7 326.8 325.1 324.3 320.1 317.8 316.2 315.8 311.4 305.5 309 312 314.5 319.5 322.9 326.9 329.3 331.6 334.8 335.4 343.6 347.6 350.4 363.2 369.1 370.3 371.3 374.1 372.8 366.9 359.5 357.7 358.8 359.4 362.9 360.2 355.5 352.7 349.9 346.1 339.5 332.2 325.3 319.6 316.2 310.6 305.8 300.2 289.6 278.3 269 280.8 282.6 281.8 281.9 281.7 277.4 279.9 291.1 297.2 304.4 310.3 313.3 317.4 321.8 328.6 334.2 337.7 338.6 336.8 334.7 334.4 335.2 333.9 332.4 329.9 328.7 327.1 322.8 320.6 315.7 310.4 306.4 299.9 293.2 287.7 283.4 279.7 279.8 275.6 270.4 264 253.7 246 239.3 233.8 227.4 222 218.5 216.2 210.8 205.9 199.2 194 186.2 179.4 179.6 188 192.1 188.6 181.8 173.8 167.3 163 159.4 151.8 144.8 141.5 140.7 140.9 141.4 140.8 141.6 142.1 142.3 142.9 143.9 145.8 150.8 157 161.6 161.6 164.5 168.7 171.6 174.8 180.2 187.3 192.4 195.9
206.4 207.7 208.7 209.8 214.4 221.1 223.6 223.9 225.4 227.9 229.4 230.4 229.8 228.6 226.3 223.7 221.9 218.3 208.6 196.9 200 207.1 218.3 230.6 234.6 240.2 245.4 246.3 254.4 254.7 253.1 259.6 264.1 267.1 268.4 268 268.2 268.6 271.7 276.8 283.3 287.8 294.3 301.1 304.3 304 305.9 306.6 308.7 312.4 314.2 315.1 315.6 316.1 317.4 319.4 322.5 327.3 329.4 329.4 329.4 329.7 328.6 326.1 323 319.5 317.1 312.3 314.1 315.5 315.3 317.2 320 326.4 330.4 333.6 338.4 343.6 346.8 347.9 352.5 359.8 363.2 369.7 373.4 374.4 376.3 377.6 380.2 371.6 363.9 364.8 365.8 366.6 365.6 362.2 356.4 352.2 348.5 345.6 339.3 332.6 327.3 320.3 316 311.2 307.8 304.8 299.5 292.4 281.7 269.2 274 275.2 274 270.2 267.1 283.2 289.4 295.1 301 307.4 309.9 313.4 319.5 326.5 332.5 335.8 337.1 335.7 332.5 331.2 330.5 329 327.8 325.2 325.1 322.1 319.5 316.1 309.4 306.5 299.6 295.3 290 284.1 280.5 279 275.4 270.6 264.8 257.5 248.7 240.4 234.3 229.4 222 219.1 217.1 215.1 211.7 208 202.6 197.8 189.4 181.6 182.3 189.2 190.7 187.3 180.8 172.9 166.9 163 159.4 154.9 147 141.8 141.1 141.3 141.8 141.8 143.1 142.9 143.5 143.5 145.6 148.5 152.7 154.5 162.3 164 167.4 169.6 173.8 177.4 181.3 188.3 192.7 198
211.6 211.9 214.2 216.2 216.3 220 226.7 228.2 229.3 232.8 236.8 238.3 237.4 235.8 233.9 233.4 231.3 225.9 218.5 207.6 199.6 210.2 223.1 236 243.5 251.5 256.1 258.6 260 260.7 258.9 262.5 266.6 270.1 271.7 273.5 273.4 278.1 280.4 284.7 289.9 297 304.1 311.3 309.6 307.3 308.4 311.1 312.8 310.8 313.7 315.2 317.1 320.1 322.8 326 327.7 331.2 333.7 334.3 330.3 329 328.6 325.1 322.3 318.2 317.8 318.5 318.4 320.5 321.8 327.1 332.2 337.2 339.9 346.3 353.6 354.7 356.1 357.9 359.8 368.9 370.1 371.1 374.4 376.3 377.2 378 376.8 372.6 370.3 370.2 371 369.6 368.6 362.9 358.8 349.8 347 343.4 337.7 330.8 326 320.1 314.1 312.2 310.5 308 307.7 300.1 289.2 275.3 260.9 265.9 264.8 258.8 272.3 279.4 286.2 292.3 297.2 303.3 305.5 310.5 317.4 324.2 330.2 333.9 335.2 334 331.4 329 326.2 324 322.3 321.3 320 318.1 314.5 309.8 306.1 300.6 295.4 291.1 286.2 281.5 278.5 276.3 272.4 262.3 258.8 249.5 242.6 235.4 229.8 225.9 219.5 221.4 216 215.2 211.5 207.7 202.1 197.7 190.8 184.9 183.9 189.3 189.3 184.6 179 172.4 166.7 164 162.2 157.3 148.6 142.2 142.1 141.6 142.1 144 144.2 144.6 143.9 144.8 146.6 149.9 154.6 160.4 164.2 165.4 168.7 171.8 175.3 179.3 183 188 194 200.4
217.2 219.2 220.8 223.1 225.2 220.2 230.8 234 233.4 239.8 242.4 244.7 244.7 244.1 242.9 241.7 238.9 234.6 225.5 212.5 200.6 210.6 225.7 239.5 247.5 256.2 262 264 263.7 264.4 263.9 263.7 268.8 273.1 276.5 280.7 282 285.6 288.1 292.8 300.5 307.8 315.5 316.9 313.8 310.7 312.4 314.9 316.4 315.3 316.5 316.5 320.6 325 328.3 329.9 331.5 334.1 335.2 333.7 329.3 327.5 326.7 324.9 323 320.8 320.5 321 321.4 326.5 334.1 336.3 342.6 347.3 352.2 360 364.1 364 366.9 367.9 366 371.6 371.1 375.6 373.9 373.6 376 372.9 369.7 372.3 377.6 374.5 373 370.8 365.6 361.3 357.4 348.8 345.1 340.9 335 327.8 323.2 318.7 313.2 311.7 311.8 308.5 307.7 302.6 292.4 281.9 263.9 253.6 255.7 260 266.1 274.5 282.7 287.6 293.3 295.4 301.4 306.5 313.7 322 328.3 332.2 333.8 332 329.6 327.2 323.9 319.7 317.7 315.9 314.2 313.1 310.1 304 299.9 294 291.5 288.7 284.3 278.9 275.3 271.4 266.7 260.9 252.3 242.9 237.2 230.6 225.4 219.5 219.5 219.5 214.1 213.8 211 208.5 203.7 197.7 191.8 184.3 184.9 189.2 187.4 181.8 176.8 171.4 168.1 166.4 161.9 158.3 150.1 144.7 141.7 142.1 142.2 143 144.4 145 145.7 146.4 147.7 150.8 155.8 161.9 165 166.2 169.2 173.2 176.4 180.6 183.9 190.1 194.3 201
223.3 225.7 226.8 229.7 231.9 234.6 235.3 241.9 243.9 245.9 250.4 253.7 252.5 251.7 249.1 247 244.7 242.1 233.2 219.8 208.8 215.2 227.1 239.7 249.7 256.8 265.2 267.9 267.5 268.6 268.6 271.4 273.2 279.5 283.6 286.3 288.6 292.9 299.1 306.5 314.2 316.2 318.3 319.8 319.5 317.7 320.3 320.6 320.2 318.9 321.1 321 322.3 326.9 329.3 331.1 331.9 332.6 332.7 330.9 328.4 326.8 326.3 324.4 322.4 320.5 323.2 324.3 326.3 337 342.6 347.4 350.3 355.8 361 370.1 374.4 377.3 374.8 370.2 370.3 370.4 370.1 373.2 370.5 371.1 372.8 368.9 366.9 367.7 376 374.3 372.8 368.8 363.5 360.2 354.5 349.3 343.5 339.6 332.8 325.2 319.6 316.4 312.2 311.5 311.8 308.7 307.1 304.4 295.6 284.9 272.4 258.2 246.5 251.7 259.6 268.2 276.5 281.6 287.5 291.9 296.9 303.2 309.7 318.2 326 329.5 331.4 329.5 327.9 325.6 322.3 318.4 313.8 311.8 310.2 308.4 304.9 300.2 294.4 289.8 288.6 285.5 280.6 275.2 272.3 268.6 263.4 257.3 247.6 238.7 232.9 228.4 223.8 219.5 219.5 219.5 220.8 212.3 209.1 204.7 198.7 190.8 192.3 188.1 188.1 187.8 184.7 178.9 174 170.9 169.2 166.6 163.4 159.7 152.4 147.1 144.1 143.1 143 144 145.9 145.6 146.2 147.8 149.5 151.8 157.4 162.4 164.6 167.2 170.8 173.3 177.5 181.6 184.9 191.3 196.5 202
228.9 233.8 236.5 239.2 242.3 244 238.3 247.3 250.2 251.2 257.2 259.3 257.7 255.4 252.8 250.6 247.9 246.1 239.8 225.3 214.7 221.3 231 241.3 251.9 259.2 266.3 271.4 273.7 277.5 281.1 282 281 284.2 290.5 292.5 298.8 303.9 311.8 318.8 319 319.9 322.3 323.1 324.1 327.9 326.9 324.5 322.8 322.1 322.9 322.3 321.6 325.7 327.8 328.9 330 330.7 330.5 329.3 328.1 326.2 324.5 322.5 320.8 322.7 325.7 332.1 336.9 343.1 348.1 350.8 352.9 356.6 367.9 373.6 380.7 385.2 379.1 371.2 369.8 369.7 367.4 367.7 367.5 368.4 370.4 366.9 364.3 360.7 369.9 370.6 368.1 364 362.7 358.7 353 348.9 344 339.9 331.3 323.8 318.1 315 311.8 310.9 310.4 308.2 305.5 303 297.5 288.1 275.7 263.7 253.2 244.3 251.1 259.7 267 275.9 281.3 288.1 293.3 300.2 306.2 313.4 323.1 326.8 328.3 327.6 325.1 322.7 319.5 314.7 310.5 306.9 306 303.6 300.4 295.4 289.8 285.3 283.4 279.9 274.9 270.5 267.8 263.7 259.1 252.3 244.1 234.4 228.8 226.4 222.5 219.5 219.5 219.5 219.5 212.4 208.9 206.9 203.7 198.8 194 187.5 186.6 184.9 182 177.1 173.5 169.8 165.8 163.1 162.3 158.9 155.3 148.6 145.1 143.2 143 143.2 144.7 146.5 147.2 149 151.4 152.5 157.1 161.2 163.9 166.8 169.2 172.7 177.5 180.4 184.8 190.4 196.2 201.3
238.8 243 246.9 248 250.2 252.1 251.8 253.8 259 256.4 258.5 260.8 259.8 258.7 257.8 255.8 253.3 249.4 242.9 228.3 221.1 229.7 230.5 242.4 256.3 266 268 276.3 281.3 283.6 286 288.2 289.5 293.2 297.3 304.1 311.3 317.3 320.6 322.9 323.5 324.4 327.1 327.4 328.6 331.7 330.8 329.2 324.6 322.9 322.5 322.6 321.9 323.9 326.1 328 329.7 330.6 330.2 328.3 326.5 324.7 323.5 322.5 322.3 325.7 333.9 339.9 344.2 348.6 349.5 350.5 351.2 357.2 367.5 374.9 381.4 385.9 383.1 373.1 368 365.9 365.1 363.7 364.6 364 366.7 365.7 363.7 355.3 360.9 364.1 361.6 360.9 360 356.5 351.6 348.7 345.6 339.9 330.1 323.9 317.6 313.1 310.4 309.4 308.9 307.2 304.3 302.6 299 291.6 279.2 263.7 255.5 246.4 238.5 247.8 256.1 270.3 277.5 285.3 291.5 297 303.6 310.3 319.6 324.3 325.3 324.9 322.8 319.9 316.2 310.6 306.3 302.9 301.3 299.2 296.2 291.9 286.6 282.8 277.7 273.2 267.9 265.5 262.2 259 253.7 246 237.6 230.7 225.3 222.2 219.5 219.5 219.5 219.5 219.5 215.3 208.6 206.8 203.8 199.8 193.6 185.8 183.4 180.3 176.1 172.2 167.9 169.8 167.8 163.2 159.1 152.9 149.4 149 144.5 143 142.9 143.2 144.7 146.3 147.8 149.7 151.2 153.3 154.7 156.8 159.3 161.6 166.1 170.4 173.3 179.5 184.9 188.2 195.2 200.6
249.6 250.6 256.4 259 260.5 262.4 260.1 261.8 263.5 261.5 261.7 264.2 264.5 267.7 267.5 266.3 260.4 253.4 244.6 231.4 226.5 236.9 245.4 244.9 254.7 266 273.7 281.5 285.1 287.6 291.4 295.1 298.4 302 310.1 317.2 321.8 322.9 323.9 326.7 326.9 329.5 331.9 332.2 331 331.6 331.2 331.3 329.6 323.6 323.2 322.8 323.6 326.9 330.9 331.5 333.4 333.8 331.6 327.9 325.1 324.4 323.6 323 325.2 333 339.7 344.7 348.8 349.9 348.7 348.8 350.2 354.9 366.4 375.2 381.1 383.6 382.2 376.6 367.1 362.9 361.9 360.1 359.8 358.7 362.4 361.6 361 350.5 351.3 357.6 356.5 356.8 356.4 354.1 351.5 348.2 345.5 338.9 329.8 326.2 319.4 312.5 310 307.7 307.1 305.4 303 302.5 300.2 294.5 284.4 268.3 256.5 246.6 239.9 239.4 252.8 267 277 283.6 289.6 296.1 302 309.9 316 320.9 321.7 321.7 319.7 316.8 311.9 306.6 302.6 299.4 295.1 294.9 292 287.6 282.3 277.8 272.2 267.1 263.4 260.4 257.5 253.8 248.4 241.3 234.8 226.8 222.5 219.5 219.5 219.5 219.5 219.5 219.5 219.5 212.7 208.6 205.3 199.6 190.9 186.7 184.3 180.6 176.1 173.6 171.7 172 170 163.3 161.7 157.5 152.4 148.6 144.7 143 142.7 143.3 144.6 146.3 149.1 153.3 155.8 154.1 158.8 163.2 164.9 165.1 165.4 168.2 168.6 170.1 175.5 179.9 186.6 194.4
262.6 264.1 268.1 270.2 271.7 270.5 267.7 267.1 268.1 269.6 271.6 271.2 271 272.3 271.1 270.3 265.5 257.7 247.9 235.3 228.3 244.6 254 253.2 248.8 262.6 275.1 285.6 289.3 293.1 295.9 302.3 307.1 308.6 316 320.4 322.4 324.6 326.6 330.6 330.7 332.5 334.5 334.1 331.6 330.9 331.6 335.9 341.2 333 324.9 324.6 325.9 329.7 337.1 338 336.7 332.2 328.9 327 326.3 324.9 324.4 325.2 330.3 338.6 343 347.5 350.6 349 348 347.4 347.3 353.5 366.3 373.5 377.2 379.1 377.6 376.2 368.9 361.8 356.4 355.8 354.2 353.4 356.9 354.6 354.3 346 343.7 349.6 349.9 351.8 352.1 351.9 351.1 346.7 342.9 335.7 330.3 325.8 319 310.2 307.3 306.8 301.9 302.6 300 300.5 300.4 296.8 286.5 270.7 250.6 242.7 238.7 236.1 253.1 266.9 278.8 285 290.9 296.7 302.5 309.4 314.7 318 317.5 318.5 316.2 312.9 308.6 303.8 297.6 295 293.1 288.6 284.4 279.4 274 268.6 265.2 260.2 257.6 256.6 252.8 247.2 242.2 237.4 229.6 223.8 221.2 219.5 219.5 219.5 219.5 219.5 219.5 219.5 215.2 212.9 206.8 202.5 193.9 191.1 187.4 185.5 182.1 176.9 174.4 172.1 167.8 163.4 162.7 157.8 153.5 148.6 144.5 143 143.4 143.8 144 144.9 148.3 151.7 157 157.4 160.4 164.2 166.1 169.4 175.3 175.4 181 185.9 189.1 193.1 195.6 192
273.5 276 279 280.4 278.9 275.9 275.9 274.9 274.5 276.5 276.6 275.5 275.6 276.9 276.3 273.8 268.6 260.5 250.2 238.9 233.5 250 261.7 266.3 263.7 259.9 274.2 283.6 291.8 297.9 296.8 302.1 304 308.6 315 319.4 321.3 323.5 326.9 330.7 330.8 331.5 331.5 330.9 330.3 330.8 335.3 343 341.1 338.4 335.8 331.9 331.1 332.9 339.4 340.4 335.2 330.7 328.4 326.8 326.5 326 326.5 328.7 333.9 340.9 344.4 348.8 349.3 347.6 346.2 344.9 346.2 351.4 363.2 366.7 373.8 376.2 375.8 371.3 366.5 361.1 354.2 350 348.1 347.1 350.1 347.7 346.3 342.5 337 341.2 344.1 345.8 347.4 348.8 348.6 344.3 339.3 332.6 327.3 322 315.2 305.2 303.4 303.2 300.8 299.4 296.6 295.9 296.7 292.6 287.5 274.9 250 240.2 232.9 234.7 252.2 270.1 281.9 287.2 293.9 298.5 304.7 310.4 313.6 315.4 315.7 315.3 313.3 309.7 304.4 299.9 292.7 290.3 287.3 281.3 275.2 270.2 266 262.2 258.4 253.8 253.4 252 247.7 243.4 238.1 232.2 225.7 222.8 220.7 219.5 219.5 219.5 219.5 219.5 219.5 219.5 216.6 214.9 209.8 201.5 195.5 193.7 192.1 190.6 187.3 181.1 177.2 172.8 169.2 164.3 162.5 157.9 152.1 148.9 144 142.4 143.8 143.9 144.3 146 150 153.6 157 161.1 163.6 165.8 169.2 177 180.4 184.5 188.8 192.2 196.2 198.9 201.4 204.7
282.7 284.5 284.8 285.1 285 283.7 284.4 282.6 281.6 282.9 285.3 286.5 287.3 287.6 288.8 287 280.2 265.7 253.4 242.5 231.7 255.8 271.7 280.9 276.7 273.7 267.3 280 289.1 293.9 295.5 298.2 301 307.4 314.2 318.8 320.9 321.3 325 326.5 327 326.2 326.6 328.4 329.9 331.8 340.4 342.1 341.6 341.2 341.1 340.1 339 336.9 340 341.2 338 333.5 328.5 326.8 328.4 328.5 330.1 333.5 336.4 341.1 344 348.9 348 346.4 344.8 343.4 346.1 349.6 356.9 365 373.9 376.3 374.6 369 363.8 358.1 351.3 344.5 342.1 338.2 342.2 340.8 337.8 337.2 330 332.6 337.4 338.9 341.6 343.9 343.7 340.7 335.5 328.7 321.9 315.8 309.1 301.3 297 297.7 293.9 296.2 291.9 288.5 288 285 280.4 272.6 251.8 235.5 230.9 237.1 253.4 271.3 286.2 290.6 297 302 307.4 311.2 311.8 312.5 312 311.4 309.5 305.2 300.6 295.4 288.9 284.7 280.5 275.7 267 262.6 257.7 256.5 253.7 249.7 249.2 247.1 245.2 241.2 235.6 230.3 226.5 222.8 220.9 219.5 219.5 219.5 219.5 219.5 219.5 219.5 216 213.6 210.1 201.8 197.7 196 195.4 194.6 191.8 186.3 179.8 176 172.4 165.6 162.6 157.8 151.2 146.3 144.2 141.7 143.4 144.2 144.7 149.5 153.3 157.4 161 165.4 167.6 170.6 178.3 183.3 190 191.8 196 201.7 205 209.4 212 213.9
288.9 290.4 291.5 291.6 291.4 290.3 292.8 293.2 293.3 293.5 296.4 298.4 297.5 296.9 296 293.6 288.1 275.6 263.2 251.8 238.1 256.8 275.3 285.9 283.5 282.1 283.8 285.1 285.7 290.7 293.5 294.8 298.2 302.7 313.1 317.6 318.3 317.4 318.9 319.7 321.9 320.6 322 326.3 330.2 336.2 340.4 341.8 342 342.9 344.3 343.4 340.2 338.5 339.6 340.1 338.6 335.1 330.1 326.4 328.1 330 331 333.6 336.5 339.8 341.2 346.5 345.9 344.6 342.8 341.6 345.2 349 357.2 364.2 374.6 378.6 376.8 369.4 364 358.1 349.4 341.5 334.5 330 333.8 332.3 328 328.9 321.4 324.9 329.3 331.2 334.8 337.9 336.4 333.8 329.9 322.8 315.5 309.5 300.7 295.3 290.7 291.9 287.1 292.8 286.1 281.3 278.5 274.7 271.3 264.3 250.4 234.2 228 241 257.9 275.7 287.6 294.2 298.8 304.5 309.5 311.4 310.5 309.5 308.9 307.6 304.8 301.8 297.1 291.2 284.4 279.3 274.8 267.8 260.3 257.8 254.6 253.2 250.3 247.7 246.8 245.8 242.7 239.5 235.3 229.9 226.8 223.5 221.6 220.3 219.5 219.5 219.5 219.5 219.5 221.7 215.4 212.5 209.4 202.8 199.5 199 199 198.2 195.4 189.9 184.9 180.5 176.1 168.3 163.3 157.9 151.2 147.6 144.3 143.5 143.3 145 147.4 152.8 158.1 162 165.4 167.7 172.3 176.3 182.1 188.9 193.7 197.5 203.2 208.7 211.7 217.2 221.3 224.7
295.2 296.6 298.9 299.3 300.3 301.8 301.4 302.2 303.1 302.2 302.5 300.9 300.5 300.1 299.5 296.2 292.9 285.4 271 261.4 249.6 257.2 276.3 284 287.3 286.9 288.4 289.1 287.4 289.1 290.7 293.6 296 298.4 306.2 312.5 314.9 313.8 313.4 313.1 314.1 316.8 319.1 323.6 329.4 336.9 340.5 341.1 340.3 340.7 343.5 344.2 340.1 336.6 337.5 337.7 336.9 334.8 329.6 325.5 324.5 328.1 328.6 330.8 334.8 337.7 339.1 341.9 343.4 342.6 340.3 339.6 343.9 349.6 355.2 364 374.4 382.8 379.2 371.8 366.7 360.4 352.5 341.5 332.8 324.8 319 323.3 319.2 320.3 316.5 316.9 320.9 323.7 326 331.1 328 325.8 322.2 315.5 307.8 302.3 293 287.6 283.1 286.4 283.4 285 281 274.7 270.1 264.6 260.4 254.7 245 231 227.1 241.7 260.8 275.7 286.1 292.5 298.7 305.7 310.8 310.3 308.6 307 305.6 303.8 301.3 297.8 292.8 287.3 279.9 276 268.4 260.8 255.7 253.1 251.9 250.8 248.7 246.7 246.3 244.9 242.2 238.3 232.9 229.1 226 224 222.4 222.2 219.5 219.5 219.5 219.5 219.5 217.8 214.3 210.5 207.3 206.6 207.2 205 203.4 203 202.1 196.5 188.9 184.1 177.6 169.9 163.9 157.5 151.7 145.4 143.7 143.1 144.3 145.6 151 153.6 160.8 165.3 169.3 172.4 177.1 181.6 187.7 195.1 199 204.4 209.5 214.2 219.4 223.5 227 232.5
303.7 305.9 307.4 308 310.3 311 309.2 308.4 308.1 307.7 306.1 306 305.1 304.1 302.2 299 295.7 290.3 281.3 268.2 251.8 256.1 272.7 280.3 285.9 287.7 288.9 290.9 291.7 290.9 290.1 293 295.2 297.6 301.8 307.7 311 310.5 310.5 310.7 311.5 313.2 315.8 321.5 329.2 333.6 338.3 339.9 338.3 338.2 340.7 342.9 339.6 333.5 334 334.8 333.4 332.6 328.8 324.1 320.2 321.7 325.3 328.5 332 337.3 338.5 339 340.8 339.9 338.6 339 342.4 347.5 355.3 364.9 378.6 384.6 384.5 379.4 372.3 364.7 356.7 346.9 337.6 326 315.7 309.7 311.8 310.3 308.6 308.2 312.1 315.8 319.1 322.6 319.1 317 313 308.1 300 294.4 284.6 278.4 278 279.2 274.2 275.6 270.7 266.8 261.4 256.3 251.4 245.6 237.7 225.4 227.7 242.5 260.2 275.1 284.2 291.2 298.6 305 309.3 308.2 304.7 303.8 302.4 299.7 296.6 292.1 288.2 283.1 277 272.7 265.5 255 251.6 250.5 249.7 249 247.5 245.1 244.9 243.3 240 236.6 232.1 229 226.6 224.2 223.3 222.5 219.5 219.5 219.5 220.1 218.7 217.2 213.4 211.1 210.8 212.4 208.9 206.3 205.3 206.8 204.6 200.3 193.9 183.7 176.1 169.5 162.8 156.6 150.8 145.9 144.9 143.5 144.3 146 153.2 158 162.8 168.5 172.4 177.4 183.3 189.9 195.5 202 206 211.8 216.7 222.5 226.1 229.7 234.1 238.6
313 314.6 317 317.4 317.2 316.2 315.2 314.7 313.2 311.8 310.1 308 305.2 301.7 298.7 296.1 291.3 288 281.8 273.9 261 254.2 269.8 277 282.9 286.8 289.1 292.2 293.8 295.4 294.6 293.8 297.7 302.3 302.2 305.1 308.3 309.6 310 310.7 311.2 312.1 314.2 319.5 326.6 330 335.9 338.6 336.5 335.7 337.6 339.4 337 331.1 330 331 329.6 329 326.4 321.4 318.4 316.2 321.1 326 330 334.8 335.3 335.2 338.5 337.4 336.7 336.2 341.6 348.8 356.3 367 380.5 384.9 386.4 384 377.8 370.9 363.8 355.1 343.4 330.6 315.3 300.1 301.8 301.7 300 298.7 302 307.7 312.9 314.7 312.1 307.3 303.8 298.3 291.3 286.3 276.9 270.9 270 269.6 265.1 264.9 263.2 259.6 254.3 248.9 243.1 236.8 233.3 222.8 230.5 241.9 260.4 272.3 280.6 290.1 297.6 304.1 306.9 304.9 301.3 300.5 299.4 295.8 292.9 289.3 284.5 280.2 274.4 268.8 261.2 252.4 250.6 249.2 247.7 246.9 245.5 244.2 242.3 241.6 238.5 234.9 231.8 228.7 226.6 224.7 223.2 222.8 219.5 219.5 217.1 217.9 219.3 215.3 213.1 215.1 212.5 209.1 205.1 204.4 206.2 209.3 207.7 204.3 197.7 190 178.8 167.2 160.2 153.4 148.5 145.7 145.9 144.4 144.8 147 154.9 160.1 166.2 171.2 176.8 184.4 191.4 199.7 206.8 210.7 214.5 220.3 225.6 231 235.6 239.7 244.4 250.6
321.6 322.6 322.9 323.5 323.4 321.9 320.3 318.5 316.8 314.7 313.5 311 307.8 303.8 296.8 291.3 287.5 284.6 280.3 273.9 265.1 253.3 268 273.4 279.5 285.3 289.1 293.2 295.2 298.1 300.5 299.1 301.2 305.4 305 304.2 305.7 308.3 309.5 310.5 311.2 311.9 314.3 318.1 322 325.5 331.1 335.2 334 333.5 334.8 334.7 334.2 329 326.4 327.3 326.3 325.3 323.7 318.3 315 312 317.8 321.6 326.3 330 331.5 332.4 335.6 335.6 335.1 335.7 340.2 346.7 357.4 369.3 378 384.6 387.7 386 380.5 375 365 357.3 346.1 332.3 318.9 306.7 292.4 294.2 294.8 289.2 294.1 300.5 306.6 307.6 303.7 298.9 293.6 287.6 282.3 278 268.8 261 259.8 259.7 254.2 255.7 255.5 252.1 246.2 241.2 235.8 232.9 225.8 221 232.1 243.9 258.5 268.5 279.7 287.9 296.5 302.1 304.2 302.4 298.7 297.9 295.9 292.1 290.3 284.8 281 275.3 270.8 264.1 259.7 253 251 248.5 246.9 246.2 245.2 243.7 242.1 239.4 236 234 231.2 228.2 226.3 224.1 220.3 219.5 217.9 214.6 215.5 217.9 216.7 214.9 218.8 215.4 209.9 203.8 200.8 201.4 204.6 209.4 208.8 204.3 195.7 187.5 178.9 164.9 157.6 151.3 149 146.3 145.7 145 145.8 153.5 155 161.8 168.4 175.3 182.7 190.6 203.6 214.1 221.6 223.2 224.9 230.2 235.3 240.1 246 251.5 258.4 265.8
328.4 329.3 328.6 328.1 327.4 325.6 324.8 322.7 320.7 318.9 317.9 315.4 313.3 310 304.4 294.5 285.6 281.4 278.6 274.2 268.9 260.4 265.1 271.2 277.6 283.6 289.4 292.4 295.9 298.8 302.3 302.4 304.8 308.9 308.4 307.7 308.2 309.2 309.3 310.4 311.3 312.1 315.3 317 319.5 321.3 324.8 329.9 332.3 331.7 332.1 332.5 331.3 326.5 323.5 323.8 323.5 321.8 319.8 316.4 312.2 308.9 311.8 316.9 322 324.9 327.1 329.3 332.2 333.5 326.4 334.9 338.6 346.5 356.3 365.7 375.4 383.1 386 386.3 382.2 374.2 365.6 355.8 347.5 334.9 321.3 308.7 292.1 279.3 288.4 285.2 286.3 293 299.8 299.6 296.7 290 285.6 278.9 275.8 271.2 261.8 253.4 251.2 250.1 246.1 249 248.1 244.6 239.5 235.6 230.1 228.3 219.6 222 232.4 247.7 258.1 268.7 277.8 286.4 295.1 300 301.1 299.8 297 295.6 293.4 290.7 287.5 283.1 278.1 273.4 268.6 263.4 259.1 251.9 250.8 247.4 245.8 244.9 244.4 243 241 238.4 235.9 232.7 229.9 227.5 225.2 222.9 219.7 217.9 214.5 213.8 215.7 217 215.7 217.7 215.4 210.5 205.7 201.5 199.3 197.6 201.6 201.6 198.9 193.6 188.2 181.5 172.5 164.9 156.4 149.3 148.7 146.9 146.3 145.7 153.3 154 156.2 165.6 174.2 191.3 192.4 200 209.4 221.5 228.7 234.8 240.4 240.4 243.9 249.5 256.5 263.9 271.1 274.3
334.4 333.7 332.8 332.7 331 330.6 329.8 328.6 326.9 325.3 323.3 321.3 318.5 314.4 308.4 299.5 289.7 282.7 277.7 273.8 270 265 266.6 271.4 276.3 281.8 286.7 292.1 297.1 300.3 303 306.3 307.1 311.7 313.2 312.9 312.2 312.2 312.3 311.2 311.5 312.3 315.8 316.5 319 319.9 322.8 325 327.4 329 329.7 330.2 328.9 324.2 321.5 320.9 321 318.9 316.5 313.8 310.1 307.8 307.7 312.4 316.8 319.1 321.7 325.6 328.3 329.8 322.4 332.2 337.2 344.4 355.6 365.8 373.1 380.1 384.5 385 381.2 372 363.7 355.6 346.1 334.1 321 306.6 293.9 280 274.2 275.1 280.4 285 291.5 291.8 287.9 284.9 277.9 273.4 269.4 265.4 255.2 248.5 242.1 242.2 242.3 241.5 240.6 237.2 233.4 228.1 223.6 222.4 218.1 225 236 247.4 258.7 268.2 275.1 284 292.6 298.1 299.1 297.5 295.1 293.5 290.4 287.5 284.6 281.3 276.5 271.4 267.1 262.9 257.8 252 249 246.5 244.5 244.8 243.9 242.3 239.8 236.5 234.3 231.4 228.3 225.1 223.1 221.1 218.1 215.3 212.7 212.3 214.7 214.6 213.5 213.9 210.6 207.2 203.8 201 198.4 195.1 195.6 194.8 192.7 188.7 185.4 179 169.6 161.4 154 150 149.4 147.4 146.8 151.6 147.5 155.6 163.6 173.8 186 194.2 200.7 205.3 213.3 223.2 229.9 235.3 240.9 246.2 252.4 255.9 260.9 267.6 271 277.6
337.8 337.5 338.1 338.1 336.1 336.3 334.9 333.6 331.8 329.5 327.4 324.1 320.4 315.6 308.9 302.6 296.6 288.5 280.3 275.8 271.8 264.9 266.4 269.3 275.2 282.8 290.4 294.3 296.4 299.4 303 307.5 309.7 314.4 318.4 318.8 316.8 317 317.5 314.2 311.8 312.5 314.7 317 318.9 318.9 319.6 320.8 323.1 325.5 326.5 327.7 326.4 323.2 319.5 318.3 317.9 316.1 313.5 310.4 307 304.5 304.8 308.9 312.3 314.7 319.6 322.8 324.2 324.9 326.9 331.7 336.2 342.6 351.9 359.2 370.1 377.5 381.1 379.9 375.7 369.2 361.5 352 340.3 330.7 321.1 307.6 294.5 281.4 269.6 265.1 275.3 276.8 283.3 284.3 281.4 278 271.8 267.9 264.6 258.9 248.8 243.7 237.5 234.6 235.6 235.2 234 230.4 226.3 222.2 218.2 215.8 217.2 226.3 239 248.2 258.7 267.4 275.2 283.2 291.7 296.4 296.9 296 293.6 291.8 288.2 284.6 282 279 274.4 270.2 265.5 260.2 256.1 251.9 248.3 244.9 243.5 244.1 243.5 242 239.3 235.7 233 228.8 227.4 224 221.9 218.4 216 213.4 209.9 212.2 212.8 211.3 211.1 210.3 207.4 204.7 200.9 197.2 194.6 193.7 191.8 191.4 189.6 187.4 182.1 179.8 174.7 164.3 154.8 149.9 149.1 147.9 152.4 150 150.2 157 167.4 177.7 186 192.1 205.7 208.5 213.6 221.4 229.4 237.6 248.4 255.9 264.4 261.9 259.8 260.8 263.8 268
343.4 343.4 343 342.4 342.1 341.9 341.3 339.9 337.3 334.8 332.5 329.4 324.1 317.5 311.1 304.7 299 294.4 284.6 277.6 272.8 269.5 271.4 275.3 281.6 286.5 293.9 298.3 298.5 301 304.4 309.6 312.5 316.7 322.3 323.8 322.8 322.2 321.7 318.4 315.1 313.9 314.9 316.8 318.5 317.7 317.3 318.2 318.9 320.8 322.6 324.3 324.6 322.3 318.7 316.2 314.9 313 310.4 307.7 304.7 301.2 302 304.8 308.9 311.8 315.9 318.6 316.3 322.1 327.8 330.2 333.2 338.1 345.7 352.3 360.9 367.2 372.6 373.6 371.8 365.3 358.7 346.8 336.4 329.9 320.5 310.1 295.5 281.7 268.9 257.3 269.4 270.8 273.6 276.4 275.7 272.6 266.2 263.3 258.6 252.1 244.4 239.6 234.4 230.6 230.4 230 227 224.9 222.2 218.5 214.2 216 224.4 234.9 243.4 250.7 258.7 267.4 275.7 283.5 291 295.2 296.1 295.2 292.6 289.3 285.5 281.9 279.1 275.6 272.6 268.4 264.3 258.4 253.6 249.1 246.1 243.5 242.4 243 242.8 241 236.8 234.8 232.4 229.6 226.2 223.1 219 215.4 212.3 210.9 208.8 209.4 210.5 208.7 207.4 206.4 204.9 202.2 196.4 190.3 195.3 195.3 193.1 192.7 190 186.5 187.3 184.5 176.3 168.5 159.3 153.9 148.9 154.3 159.8 161.9 156.7 158.5 168.6 185.6 194.2 194.8 200.6 210.5 218.4 220 228.6 236.6 242.3 245.8 258.5 262.4 262.9 259.2 262.8 269.8
349 348.4 348.5 349.1 348 346.8 345.5 343.8 341.6 339.1 335.8 331.7 326.6 321.4 314.7 308.8 302.1 297 287.2 279.7 274.9 276.1 276.9 283.1 289.7 292.2 296.6 301.5 302.6 306.3 309.1 311.2 315.7 320.1 325.4 328 327.7 325.7 325.9 323.1 317.3 314 313.4 314.8 317.5 317.3 315.6 315.4 315.6 316.1 318.4 321.6 323.4 321.7 318.7 315.5 312.9 309.2 307.3 305.4 301.5 296.4 298.1 301.7 304.3 308.1 311.5 308.8 315.3 322.6 326.8 328.3 329.5 333.2 338.2 344.8 352.2 357.8 363.6 367.6 366 360.3 353 342.1 331.9 326.6 318.1 307.1 293.3 280.8 270.1 256.4 254.6 261.8 267.5 269.8 269.7 265.7 262.2 258.4 253.9 246.6 240.5 235.4 229.7 225.9 226.5 225.4 224.1 221.1 218.7 213 213.3 222.3 232.2 239.7 246.5 254.1 261.9 268.5 275.4 282.9 290.2 294 295.7 294.3 290.3 286.7 283.1 279.2 276.4 273.9 270 266.2 262.4 256.2 251.8 247.6 244.5 241.9 240.8 241.4 240.5 240 236.1 234 231.2 228.9 225 220.6 216.6 211.8 210.1 204.1 201.8 207.1 207.9 204.8 203.8 202 200.4 196.4 190.5 184.8 189.5 189.4 188.9 186.6 182.9 180.9 178.2 174.6 170.7 167.2 161.5 153.1 152.8 149.6 158.2 162.1 163.3 160.4 169.7 181.2 187.6 191.1 196.1 202.6 208.3 213.5 219.3 223.8 238.6 244.9 251.4 252.7 254.9 253.5 257.6 263.2
355.4 355.1 354.6 354.4 354.2 351.8 351.4 348.8 346 344.1 339.7 334.6 328.6 323.1 314.8 310.9 305.2 298 288.6 283.8 280.7 281.2 284.3 292 296.6 298.8 300.4 304.9 307 311 314.4 315.4 319.4 322.5 327.2 330.4 329.7 328.2 327.4 325.7 320.4 315 311.5 312.8 312.8 314.6 311.9 311.2 311.2 311.2 313.9 317.4 320.4 320.9 317.9 314.7 311.1 308.2 303.5 302.4 300.2 296.2 294.5 298.5 302 304.7 302.9 310.3 316.6 319.7 323.8 325.5 325.3 328.3 331.3 337.5 345.4 350.5 357.7 361.8 361 355.5 347.5 337.2 327.8 321.3 313 301.7 291 278.4 271.2 263.1 250.8 250.8 258.1 262 262.2 259.1 256.6 253.1 248.3 242.9 235.6 230.4 226.7 222.9 223.8 221.5 220.5 217.5 213.7 210.4 221.2 228.8 237.4 243.8 249.2 256.7 263.8 270.1 276.5 283.2 288.9 293.7 295.1 293.1 289.5 285 280.2 277 273.5 271.7 268.3 264.7 260.5 255 250 245.6 242.6 240.3 239 239.8 239 236.8 234.1 232 229.3 227.1 223.1 218.4 213.3 209.2 207.5 204.1 198.3 203.8 202.4 199.2 199.8 198 194.8 188.6 183.2 179.7 182.6 178.6 175.9 173.3 172.4 169.2 166.4 164.1 162.7 162.7 158.5 156.7 153.6 150 152.3 158.5 163.3 170.5 176.9 186.9 191.7 193.6 199 205 209.8 216.3 224.4 233.5 241.4 242.9 245.2 247.4 247.8 248.6 250.8 253.2
360.9 360.6 360 360 359.9 358 356.3 354.8 351.8 348.3 344.7 337.9 331.9 326.4 318 311.7 306.8 300.9 295.4 287.3 286.1 291.1 296.7 301.6 304.7 304.9 306.3 309 310.9 315.6 318.9 319.6 322.4 325 327.9 328.8 328.4 326.7 325.7 325.1 320.4 314.6 310.4 308.2 310.4 309 308.1 307.7 307.1 307.7 308.6 313.2 317 318.4 316.8 313.4 309.8 306.7 303.1 299.7 296.5 293.7 292.9 296 298.3 297.8 302.5 308 314 316.7 318.7 321.7 321.7 323 326.1 330.8 338 346.2 354 356 354.9 349.7 342 332.6 322.8 315.8 305.7 295.8 285.3 275.9 271.5 263.6 256.9 245.9 247.5 252.4 255.5 254.2 251.3 247.3 243.6 237.4 231.4 227.5 223.7 219.8 220.3 219.9 214.9 214.5 209.3 214 225.4 232.7 239 245.8 252.5 260.1 266.2 270.6 276 283.1 288.9 293.2 293.9 291.6 286.4 283.1 277.8 274.4 267.6 268.9 264.5 261.4 257.2 252.3 247.9 244 239.9 238.6 238.1 237.9 236.9 234.6 232.8 230 227.2 224.5 220.2 215.2 210.3 206.4 203.2 201.1 194.5 200.1 196.8 195.8 194.7 192 187.8 178.4 175.3 175.2 173.7 171.1 169.5 168.1 166.6 163.6 161.1 158.7 157.8 157.2 156.8 150.9 154.1 152.3 152.9 155.2 163.8 172.9 182.7 192.2 199 203.4 207.5 212.2 217.4 222.4 227.7 233.7 239.4 242.2 243.7 244.3 245.8 249.4 253 259.8
367.7 367.5 367.2 367.5 367.6 366.6 364.5 362.7 360.2 356.2 351.6 344.3 338.2 331 322.3 315.9 310.5 305.9 298.8 291.2 294.9 303.3 308 310.7 312.2 312.5 311.1 313.5 315.8 318.5 321.4 322.6 324.3 327.1 329 328.4 326.4 325.4 323.7 322.3 320.1 316.1 311.5 306.3 306.8 307.5 305 303.8 304.4 305.2 304.7 308.5 313.3 315.6 314.7 310.9 308.2 305 303.3 299.6 295.7 292.2 290 293.2 294.1 297.9 302.7 307.2 310.8 313.4 316.2 318.2 316.5 319.7 321.9 326.6 333 343.8 351 350.8 348.6 343.2 336.8 329.1 318.7 309.2 298.1 288 279.2 271.7 268.2 263 256.8 246 244.3 242.4 247.5 247.2 245.3 243 239 233.4 228.3 223.9 220.2 218.6 216.2 216 214.8 208.4 208.4 219.9 227.1 235.1 242.5 249 256.5 260.3 263.3 267.4 273.4 280.9 286.7 292 292.2 289.6 283.7 279 276 273.3 269.2 260.2 254.9 252 248.2 245.9 245.9 241.5 238.7 235.7 234.9 236.1 235.1 232.9 230.5 227.6 225.2 221.7 217.6 211 205.8 202.2 200.8 197.4 191.9 195.4 190.3 191.1 189.8 185.3 178.6 170.2 167.8 167.3 166.1 166.5 165.7 164.6 164.3 163.6 158.2 163.8 158.7 158.6 157.5 157.3 156.3 153.8 154.1 158.6 165.6 175.5 185.9 192 200.1 204.7 208.4 213.7 217.2 220.7 225 228.8 233.1 236.9 239.4 240.9 242.8 247.7 250.4 252.5
375.2 375.8 375.6 375 375.6 374.3 373 371.5 368.8 364.4 359.7 353.5 347.9 338.2 331 326.7 319.6 310.7 304.7 297.9 307.6 313.9 315.8 317.3 319.3 319.2 316.6 316.7 319.5 321.1 323.7 324.3 325.8 327.6 329.5 329.1 326.7 322.7 321.6 321.2 318.8 316.2 312 307.1 303.6 304.1 302.7 300.2 301.6 302.3 302.3 304.3 309.1 312 312 309.1 306.2 303.8 301.6 298.1 295.2 291.6 288.2 289.9 292.1 296.8 300.4 304.2 307 311.3 313.7 314.2 313.7 315.1 317.5 323.1 332.3 342.2 346.4 345.8 342.2 336.6 330.6 322.8 312.8 302.8 290.1 280.9 272.6 266 262 259.3 254.6 245.7 240.7 239.7 239.7 240.6 238.6 236.2 233.7 228.9 224.3 220.9 217.2 216 214.2 211.5 206.9 206 219 227.9 233.8 238.2 243.5 247.7 254.1 260.2 264.8 270.7 276.8 283.1 288.4 292.9 291.7 287.8 282.6 278.6 273.7 271.9 269.8 261.6 252.8 250.5 248.6 246.6 243.9 239.8 231.8 231 232 233.1 232.2 229.9 227.7 225.3 221.3 217.8 212.6 206 199.5 197.4 195.3 192 185.5 189.4 186.1 185.3 181.5 177.2 169.9 165.4 163.1 163.3 162.4 162.5 163 162.7 161.1 165.4 167.3 164.5 162.6 160.9 158.2 158.1 157.6 157.6 155.9 159.3 163.6 172.1 180.7 188.5 194.4 198.7 201.5 205.1 207.6 209.9 213.3 216 218.4 221.9 225.2 231.3 232.8 235.8 238 238.1
384.2 385 385.4 386.3 386.2 385.8 384.5 383.2 380.2 377.8 372.4 365 358.8 348.8 336.2 328.8 324 316.7 308 301.7 314 321.2 323 324.3 325.7 326.3 324 321.4 322.1 323.6 325.9 325.9 327.1 329.7 328.9 328.2 326.5 322.5 319.7 319.8 318.3 315.7 312.3 307.6 302.5 299.5 300 298.6 298.8 300.4 300.2 301.2 304.6 307.8 309.6 307.7 303.5 301.5 299 297 294 290.1 287.4 288.1 291.4 294.5 297.9 301.2 304.8 308.9 311.3 311.5 310.4 310.8 315.8 322.9 332.2 340.6 341.7 339.8 336.3 330.7 322.4 314.9 306.7 294.2 285.4 275.9 267.1 260.2 255.6 253 249.9 245 231.7 237.7 234 234.3 232.6 230.7 227.7 224 220 216.9 214.5 212.8 211.2 206.1 205.1 211.6 219.3 226.7 233.7 239.2 244.4 250.1 255.2 261.7 267.8 273.2 278.7 285.9 292 294 291 285.7 280.1 276.1 272.1 269.6 267.4 265 261 256.6 252 246.6 240.6 235.6 230.8 228.2 228.6 230 229.5 227.1 224.4 220.7 217.4 213.1 206.5 199.2 195.5 190.6 188.7 185.8 180.9 182 179.9 178.5 173.5 168.6 162.5 161 160.8 161 161.2 160.4 163.8 164.8 165.4 166 166.7 162.6 163.1 165.4 166.4 165.8 160.9 160.6 159.2 160.4 167.5 176.6 184.8 189.9 194.7 197.6 200.4 203.4 205.8 207.3 210.3 212.5 214.7 217.6 220.1 223.4 226.1 229.5 231.6 232.9
394.7 397 397.4 397.9 398.1 397.8 399.4 397.9 394.8 391.9 385.8 379.8 370.5 365.6 351 336.5 327.7 321.9 312.3 309.9 318 325 330 331.5 331.2 332.2 329.8 328.1 325.7 326.2 328 328.3 329.2 329.6 328.8 327.5 325.9 322.8 319.1 317.4 316.1 314.7 311.7 307.4 302.1 297.1 297 296.8 296.9 297.6 299.6 300.1 301.2 303.8 305.9 304.6 300.3 298.8 295.7 293.9 291 289.2 286.4 286.2 289.2 292.1 294 298.1 302.4 305.8 308 308.5 307.8 311 315.8 321.9 330.4 336.3 335.9 334 330.3 324.5 314.9 307 298.5 288.4 281.7 270.9 261.2 255.6 250.9 247.6 245 242 232.9 231.2 231.1 229.9 227.3 225.2 223.1 219.2 215.7 213.7 212 209.3 207.1 202.2 202.5 214 220.6 228.6 236.3 241.1 245.8 251.7 258.1 264.1 271.2 280.1 287.7 292.7 296.4 293.6 287.8 281.6 276.9 272.3 269.8 267.2 263.7 261.7 257.7 252.7 248.7 242.8 236.8 232.3 228.3 225.1 226.2 226 225.4 223.2 220.5 215.9 211.8 207.2 198.4 192.1 188.1 184.8 180.4 177.2 173.9 173.4 177.5 170 165 160.7 159.6 159.2 159.6 159.8 163.5 164.9 167.3 166.6 165.9 167 166.3 164.7 165.1 169.6 171.7 170.8 169.9 168.7 163.4 163.4 169.6 179.3 185.9 190.8 192.8 195.7 198.5 201.6 203.5 205.4 208.3 210.9 212.2 214.1 217 219 222.3 227.9 231.2 230.1
409.5 410.6 413.3 412.9 413.5 414 415.6 415.1 410.9 408.7 402.1 396.3 388.3 378.9 367 350.9 337.6 332.8 322.4 317.4 320.6 328.1 333.3 337.5 338.8 337.2 336 333.7 331.8 329.8 330 330.4 330.3 329.7 329.5 328.7 327.8 324.8 321.1 317.9 315 311.2 308 303.6 298.7 296 293.2 294.7 294.2 295.8 298.2 299.4 299.8 300.6 302.4 302.2 299.1 296.1 292.3 290.7 288.7 287.3 284.3 283.3 286.6 288.4 292.2 295.4 299.3 302.5 304.3 304.4 305.2 307.9 314.9 320.7 327.1 330.5 329.3 326.6 323.7 317.2 309 298.9 292.1 284.7 277.3 267.1 254.9 250 245.2 243 240.8 238.1 230.9 223 227.2 224.1 223.1 221.1 219.2 215.9 212.1 210.9 209.5 205.3 202.2 202.7 208.1 214.8 223.1 231.2 239.3 243.7 249.7 257 264.7 278 292.7 304.7 303.6 298.7 294.4 286.8 280.7 273.7 269 265.8 263.9 261.8 258.5 256 251.2 247.5 242 236.5 232.1 227.6 224.2 222.5 221.9 222.8 221.6 219.2 215.9 211.5 206.5 199.9 190.4 184.7 179.5 175.3 172.6 171.2 170.1 167.6 168.8 163.3 160.6 158.7 158.3 158.4 159.8 161.9 166 167.7 168.1 167 166.7 172.5 169.3 168.5 174.5 174.3 173.3 172.2 171.4 170.5 165.9 167.1 170.6 179.1 184.1 187.9 189.7 192.4 195.5 198.1 200 203.1 206.7 209.5 210.5 211.7 214.3 215.7 219.1 224.8 228.2 228.1
429.2 432.5 433.7 433.2 432.5 435.4 436.7 436.5 433.2 429.6 423.7 419.4 407.8 400.6 383.9 373.5 361.1 352.6 342.9 330.2 327.7 330.6 335.1 340.9 345.4 343.4 340.7 338.7 337.9 334.9 332.5 331.8 331.8 330.3 329.8 329 327.8 326.3 323.2 319.3 315.9 312.8 309.9 305.3 300.4 296 289.4 292.5 292.1 293.7 295.8 298.1 298.5 299.4 300.1 299.4 297.3 293 290.4 288.2 287.1 285 285.9 281.3 282.9 286.8 289.6 292.9 296.2 298.6 300.4 299.9 302.1 306.8 314.4 319 324.2 324.3 323 320.6 316.6 308.1 300.5 292.9 288.1 281.8 270.5 261 253.4 247.9 243 237.1 236.5 233.6 229.1 219.9 221.4 221.7 217.7 218 215.2 212.7 209.4 208.3 206.8 201.6 200.4 209 212.7 217.7 226.7 234.6 242.3 249.2 254.8 262.1 278.5 295.7 306.3 306.8 299.3 291.9 283.7 278.1 272.9 267.2 262.6 258.1 256.6 253.4 250.6 246.6 242.7 237.6 235.2 231.7 227.1 222.5 220.8 217 219.4 219.6 217.5 215.3 210.8 205.7 199.7 192.7 183.1 176.4 170.5 168.3 168.4 169.8 169.7 167.7 163.9 162.2 159.8 157.8 157.9 158.7 161.9 165.2 168.6 168.9 167.8 166.6 166.1 170.7 175.3 172.9 179.8 179.5 175.4 172.8 171.1 172.1 169.8 167.1 171.6 177.2 180.5 183.4 185.5 187.6 191 194.1 196.1 199.5 202.6 205.4 207 209.5 211.5 213.2 215.9 220.9 223.9 225.1
452.2 454.5 457.5 459.4 459 462.2 462 460.4 458.4 452.7 443 437.6 427.1 415 402.9 391.9 378 366 357.4 343.9 335.6 334.1 338.5 343.4 350.5 348.5 345.7 342.5 341.9 340.1 335.1 333.2 331.6 330.5 328.7 327.8 326.9 326.6 324.3 320.5 316.3 312.5 308.7 303.6 299.9 295.7 290.8 288.7 290.4 291 293.5 296.3 297.9 298.5 298.8 298 295.7 292.2 289 285.9 285 283.7 284.6 279.2 280.8 284.5 287 290.5 293.4 296.4 296.4 298.2 299.5 308 314.6 318.3 320 319.2 317.2 314 307.6 301.2 292.4 287.3 283 278.6 270.7 263.4 254.2 244.6 240 234.6 232.1 230 226.1 221.4 214.7 217.1 214.9 214.1 212.2 209.9 208 206.3 203 198.9 204.6 210.7 215.5 221.6 230 238.6 246.7 255 265.8 273.8 283.2 291.1 297.8 294.1 288.8 280.9 272.6 268.4 263.3 257.1 253.2 248.3 246.1 245.1 239.9 237.5 234.3 232 230.1 227.8 222 219.1 217.6 216.3 215.8 215.4 214.4 210.8 206.3 200.8 193.9 183 176.9 168.3 168.3 168.3 168.3 167.9 168.1 167 165.7 160.7 159.6 158.1 156.9 161.4 165.8 168.5 169.4 168.1 165.4 163.4 163.4 163.4 171.8 175.7 176.5 178.7 178.4 174.8 171.2 172.5 170.5 170.3 172.5 174.9 178 179.8 182 184.9 187.4 190 193 196.2 199.1 202 205.3 207.5 209.6 210.9 213 216.9 221.1 222.7
482.8 487.2 490.5 492.5 493.3 493.4 494.6 492.4 488.5 480.3 463.5 455.2 441.4 435.1 424 409.3 395.4 378.7 368.5 356.6 344.1 337.4 340.1 345.4 353.8 354.4 350.1 346.6 344.8 342.8 339.2 335.1 332.6 330.1 328.4 326.4 325.2 325 323.8 320.9 316.6 313.2 308.8 302.5 295.7 292.8 289.7 286.2 288.3 288.1 289.9 293 295.1 296.6 297.8 297.2 294.5 291.3 288.5 285.2 283.7 283.8 282.8 277.8 279.4 282.6 284.8 287.7 290.6 293.6 292.8 297.5 302.9 310 314.4 317.2 316.3 315.2 312.1 308 303 295.9 286.4 282 278.7 275.1 269.8 263.6 252.2 242 234.6 230.9 227.5 226.5 222.5 219.4 205.6 213.2 211.9 211.1 209.6 207.5 205.9 204.4 197.2 201.2 208.8 213.9 219.2 225.8 235.2 244.4 260.1 266.1 271.4 275.8 278.8 281.2 282.4 281.8 275.4 268 261.4 256.7 253.7 249.5 244.5 239.6 237.2 233.9 231.5 228.8 227.9 227.3 225.8 223 218.3 215.8 215.2 214.1 212.7 212.5 210.4 206.9 203.4 196.9 188.3 177.3 168.3 168.3 168.3 168.3 168.3 168 166 165.5 164.7 160.7 158.8 157.1 159.3 165.3 168.2 168.6 167.9 166.2 163.4 163.4 163.4 163.4 163.4 170.5 178.6 178.2 178 177.8 174.7 175.3 175 172 174 174.9 177.4 180.7 181 182.8 185.2 187.4 190.2 193.3 196.5 199.7 202.8 205.4 207.5 209 210.6 215.1 219.3 221.7
511 512.1 514 516 516.5 518.9 520.2 519.6 515.6 503.4 484.9 469.9 457 455.2 443 426.1 408.8 391.2 376.2 363.3 350.8 344.2 341.4 346.4 354.9 360 353.7 348.8 347.3 344.8 339.3 335.3 331.9 329.5 328.1 327 324.3 322.3 321.7 320 317.2 313.1 308.5 304.1 298.7 291 286.4 281.7 285.1 285.1 286.6 289 292.2 294.1 295.2 295.7 293.8 291.1 287.9 284.7 280.8 281.8 280.6 274.9 277.6 280.9 283.6 285.9 286.3 290.6 295 299.6 307.3 312.7 316.4 316.1 312.6 310.7 307.6 303.1 297.5 290 282 275.4 272.7 271 267.3 261.1 251.7 240.3 231.9 228 224.8 223.8 219.3 215.6 208 208.5 208 207.9 207.3 205 202.8 196 200.9 207.6 213 218.7 225.5 232.6 241.8 255.6 261.4 264 266.5 269.4 269.2 269.1 270.9 267 261.8 256.3 250.8 246.9 243.2 239.1 234 228.4 228.9 228 225.5 224.2 223.5 223.6 221.7 218.4 216.2 214.1 213.7 211.2 207.6 208.7 207.1 204.3 199.8 192.5 184.8 174 168.3 168.3 168.3 168.3 167.9 168.2 163.5 163.8 162.2 158.7 157.1 157.9 162.8 166.7 167.9 167.1 164.9 163.4 163.4 163.4 163.4 163.4 163.4 163.4 173.9 171.6 175.5 174.9 178.7 178.7 178.2 179.9 177.8 174.1 178.7 179.1 179 180.3 182.3 185.3 187.7 191.1 195.2 198.8 202.5 205.3 207.5 208.9 209.9 212.7 217 220.1
521.2 521.8 523.6 525 526.4 527.4 528.2 528.5 527.9 524.2 514.3 498.7 481.3 471.9 459.8 440.1 419.6 400.9 381.6 368.6 356.1 349.2 346.4 347.9 355.6 361.2 356.7 351.4 347.5 344.6 340 336 332.7 329.7 327.9 326.4 325.2 322 320 318.3 316.8 312.7 308.1 303.2 298.2 292.9 284.6 279.9 281.1 282.5 283.8 285.5 289.1 291.1 292.6 293.3 291.9 289.2 286.5 283.5 280.2 278.7 276.6 273.8 279.7 281.1 281.8 283.8 285.7 290.9 296.5 303.8 309.8 315.3 318.1 315.4 310.3 305.3 302.2 295.9 291.7 286.3 279.4 273.4 267.3 265 261.7 253 246.5 238.8 231.5 226.4 223 219.9 215.5 212.2 206.8 202 202.2 204.9 204.5 202 193.8 202.6 209.1 212.7 219.1 225.1 230.3 237.5 246.9 252.5 254.6 255.6 257.9 260 258.6 257.6 256.2 252.4 248.6 242.8 239.7 236.4 231.5 227.3 225.4 224.8 223 222.2 221.5 221.1 220.6 220.2 218.4 215.8 214 212.7 211.7 209.3 208.7 206 202.2 201.2 196.7 189.7 181.7 171 168.3 168.3 168.3 167.1 165 163.4 161.2 160.4 159 156.8 156.6 160.2 161.5 165.4 165.2 163.4 163.4 163.4 163.4 163.4 163.4 163.4 163.4 163.4 163.4 163.4 166.3 169 172.6 175.4 173.2 177.9 176.7 174.2 174.8 174.3 178.2 181.6 182.8 186.6 189.6 193.1 196 199.6 202.7 205.2 206.9 207.6 207.8 210.5 213.6 216.1
524.6 525.7 527.1 528.3 529.5 530.9 532.2 532.9 534.1 534.5 533 524.1 507.6 491.3 474.9 451.9 428 406.9 384.3 369.4 360.5 356.8 351.7 348.1 353.9 359.5 357.6 351.2 346.5 343.6 339.3 335.9 332.6 329.3 326.3 324.2 322.8 320.4 318.3 314.4 314.7 311.9 307.2 302.3 297 291.6 286.4 279.5 277 279.5 281.1 281.9 284.5 288.1 289.1 289.8 288.8 286.7 283.9 281.3 278.3 273.4 270.9 277.3 279 279.5 281.6 282.2 285.7 289.9 296.2 304.2 309.6 314.3 316.3 313.6 308.5 301.9 296.4 292.5 287.6 282 276.5 272.8 267.4 257.5 255.4 251.4 245.5 238.7 229.7 224.2 220.8 219.8 216.1 211.2 207.2 197.9 201.1 200.9 201 193.9 199 206.2 213.2 218.7 224.6 228.4 231 238.6 243.3 244.7 245.3 246.1 247.8 249.1 248 245.3 242.4 238.7 235.4 231.2 227.6 224.3 222.5 221.3 220.1 219.4 218.7 218.5 217.8 218.3 218.1 217 216.1 214.8 213 211.6 208.4 208.4 206.3 204.8 201 194.8 193.6 186 181.3 171.4 168.3 168.3 168.3 165.2 161.2 158.5 158.2 157.4 155.5 158.2 158.6 158.6 162 167.5 163.4 163.4 163.4 163.4 163.4 163.4 163.4 163.4 163.4 163.4 163.4 163.4 163.4 163.4 163.4 163.4 170.2 176.7 172.5 171.4 174.4 177.4 180.2 182.3 185 187.8 190.8 192.8 195.1 197.7 200.5 202.7 203.7 204.5 204.9 205.9 208.4 211.4
525.8 526.4 527.8 528.9 530.3 531.9 533.6 535.4 537.1 538.6 540.1 539.1 529.3 504.6 481.2 457.5 431.1 407.5 385.9 372.1 365.3 361 355.4 350.5 352.2 357.6 356 350.1 345.4 341.7 338.2 334.4 330.6 329 326.3 323.6 320.5 317.1 316.6 313.9 309.9 309 305.1 300.1 295.4 290.1 285.1 279.6 273.1 277 278.2 278.4 280.8 283.6 286 286 285 282.9 280.3 278.1 275.3 270.3 273 275.5 277 279.2 280.4 281.2 284.2 289.4 297.9 303.4 308.5 311 311.1 308.5 303.9 297.2 291.1 286.5 282.4 278.8 273.8 270.4 264 255.9 247.8 244.7 240.8 235.9 227.7 222.7 218.9 218.2 215.1 210.5 205.7 201.8 193.6 193.9 194.2 195.5 204 208.1 215.7 221.8 225.8 226.5 227.4 233.9 235.9 236.8 236.2 236.6 237.9 236.6 233.7 230.5 230.9 228.3 223.3 221.7 220.5 218.2 217.1 216.7 215.2 215.5 215.6 215.2 216.2 216.9 216.7 215.4 214.2 213.3 212.5 210.4 207.5 205.1 203.8 202 198.9 195.8 189.4 179 175.7 169.4 168.3 168.3 167 163.8 159.6 155.8 156.8 158 158.4 157.7 156.8 157.1 166.4 163.4 163.4 163.4 163.4 163.4 163.4 163.4 163.4 163.4 163.4 163.4 163.4 163.4 163.4 163.4 163.4 163.4 168.6 171.4 168.5 169 176.2 178.3 181.4 183.2 185 187.7 188.3 190.1 190.9 193.1 195.2 196.8 198.7 199.4 199 200.5 202.9 206.2
525 525.3 527.6 528.8 530.2 532.7 534.7 536.7 539.1 540.6 542.4 543.6 534.9 504.4 478.5 452.3 427.4 404.2 385.8 374.7 366.8 362.5 356.8 351.9 350.3 354.5 354.3 347.4 342.3 338.5 335.2 332.3 328.8 327.3 325.6 323.1 320.9 316.3 311.5 310.7 308.2 302.9 301.3 297.1 292.7 287.8 282.3 277.8 269.8 273.1 275.1 275.9 276.8 279.4 281.6 282 280.8 278.7 275.5 273.3 271.4 268.3 270.5 271 274.9 276.3 277.9 281 285.4 291.3 297.4 302 306.5 307.4 305.6 303.3 298.5 292.4 285.3 280.7 277.4 274.1 269.5 264.6 259 250 245 236.4 235.2 232.1 225.1 220.7 216.7 214.7 213.8 209.2 203.6 201 199.2 192.1 190.3 202.1 208.4 212.9 217.5 221.3 221.4 220.9 222.6 223.9 227.8 228.7 228.6 226.9 227 227 225.4 223 220.9 218.4 216.7 215.3 214.4 212.8 212.3 211.9 211.9 212.6 213.2 213.8 214.8 215.4 214.9 213.8 212.3 212.3 211.2 206.7 205.3 202.4 200.7 198.2 195.7 192.6 188.6 183.5 175.6 167.5 163.1 165.4 164.9 162.2 158.4 156.5 158.9 160.8 160.3 159.8 157 159.8 163.4 163.4 163.4 163.4 163.4 163.4 163.4 163.4 163.4 163.4 163.4 163.4 163.4 163.4 163.4 163.4 163.4 163.4 163.4 163.4 168.2 168.9 179.5 180.4 180.6 182.2 184 184.4 185.1 185.4 185.9 187.9 190.7 192.5 193.8 194.8 195.9 195.9 198.7 203.5
522.8 523.7 525.5 527.6 530.6 532.7 534.6 537.2 539.5 541.6 543.5 544 532.5 500.3 474.3 447.5 422.4 401.8 386.3 375 368.4 363.1 355.9 351.5 348.3 350.3 350.7 346.7 340.4 336.4 332 329.1 325.9 324.2 323.5 321.8 320.3 317.1 312.5 307 303.5 299.7 294.8 292.7 288.8 284 278.7 274.6 270 269.4 272.4 273.3 272.5 275.2 277.6 277.3 275.8 274 271.3 269.5 267.9 264.8 267.7 270.3 270.4 275.4 279 281.9 285.9 290.6 295.6 300.7 304.3 302.4 300 296.3 291.2 285.2 278.4 276.4 272.2 268.6 263.9 259.6 253.9 247.2 240.7 235 226.7 227.8 221 218.3 215.2 209.6 212 207.5 201.4 198.6 196 185.1 190.7 203.7 209.1 212.9 216.4 217.6 215.3 214.6 215.7 218.3 220.3 222.1 222 220.9 220.8 220.1 218.9 216.6 213.9 211.3 210.7 210.3 208.9 207.3 208 208.1 210.2 211.5 212.4 213.7 213.8 214.5 213.6 211.8 210.8 211.1 209.2 205.3 203.2 200.4 198.6 195.2 191.3 188.9 185.8 180 173 167.6 164.2 162.7 159 156.4 156.7 158.6 161 162.6 163.9 163.1 159 162.4 163.4 163.4 163.4 167.5 170.2 164.1 163.4 163.4 163.4 163.4 163.4 163.4 163.4 163.4 163.4 163.4 163.4 163.4 163.4 163.4 163.4 168.6 177.7 181 180.8 181.7 181.9 182.1 181 181.4 182.4 188.8 188.9 189.1 190.4 191.6 192.1 192.7 197.5 203.7
519.5 520.8 526 528.2 530.1 533.6 534.2 536.8 539.1 542 543.8 544.6 528.2 496.1 468.7 442.7 417.2 397.9 383.2 375 367.9 362.4 355.1 351.1 347.1 347.1 347.5 343.9 337.3 332.6 329.4 325.6 322.5 322 321.3 320 318.4 316 311.7 307.6 301 296 291 288.1 284.4 279.2 275.1 271.7 269.3 266.4 268.8 270 270.4 271.6 272.9 272.4 270.8 269.5 267.3 265.9 265.7 262.3 265.3 269.1 272.4 275.9 279 281.8 285.5 289 293.7 297.4 300.8 299.7 294.7 289.7 282.7 277.7 272.9 269.3 265.5 263.6 259.6 254.7 249 242.7 236.2 230.6 225.5 220.2 214.2 214 212.5 209.3 208.3 204.8 199.8 194.6 188.9 186.8 197.2 203.5 207.8 210.5 212.9 212.3 209.7 208 209.4 210.7 212.1 215.9 215.5 214.6 214.7 214.3 212.8 210.3 206.9 206.1 205.9 206 205.8 205.3 205.2 207.1 208.9 210.1 211.4 212.4 212.2 212.5 211.5 210.2 209.5 208.9 205.8 202.8 199.4 196.7 194.5 190.6 187.7 184.3 180.9 175.4 169.6 166.2 164 163.3 157.6 155.9 158.5 163.4 165 167.2 168.9 167.8 164.7 165.4 165.2 168.1 171 173.6 174.3 171.1 167.2 163.4 163.4 163.4 163.4 163.4 163.4 163.4 163.4 163.4 163.4 163.4 163.4 163.4 163.4 168.4 175.8 181.7 183.5 183.1 181.1 179.9 179.4 179.5 183.1 190.5 193 191.5 189.1 188.9 190.1 191.1 197.6 203.1
516.6 519.2 522 528.1 530.6 534 536.2 539.3 542 542.8 544.8 545 520.8 490 464.2 437.7 413 392.9 380.7 372.5 365.6 361 354 349.3 346.2 344.8 344.6 341.4 334.6 330.1 325.7 322.7 320.1 317.7 317.7 316.9 315.3 313.9 310.2 305.9 300.8 295.4 289.2 282.8 280.3 277.4 273.7 272.2 268.1 263.8 265.7 267.2 267.5 267.6 268.1 268.1 266.3 264.3 263 263.4 262.4 260.8 267.3 269.7 272 274.8 278.8 281.5 285.1 288.7 292 293.9 295.7 294.1 289.5 280.5 275.7 271.5 267.5 263.8 260.4 257.9 253.9 249.5 244.3 238.3 233.9 228.9 224.3 219.3 212.4 206 202.7 201.5 197.2 193.7 194 188.1 183 191.3 197.2 201.2 204.6 207.2 206.7 206.9 203.9 201.8 202.4 204.3 204.6 206.2 208.9 207.6 208.6 207 207.1 203.9 199.7 200.2 201.1 202.7 203.5 202.5 203.3 206.1 207.6 209.2 210.1 210.6 211.3 210.7 209.2 208.6 207.8 205.9 203.1 199.5 195.9 193.2 190.5 186.7 183.3 180.4 176.5 169.9 168.2 165.1 162.7 156.9 154.5 159.7 165.4 167 169.2 172.1 173.5 173.6 170.8 167.6 169.7 173.5 176.4 178.3 176.5 173.6 171.5 170.3 167.6 163.4 163.4 163.4 163.4 163.4 163.4 163.4 163.4 163.4 163.4 163.4 164 171.3 177.3 182.8 185.8 183.3 179.8 178.4 178.3 178.1 182.2 189.1 192.5 192.8 190.3 188.1 188.9 190.2 195.6 200.6
514.3 519.2 523.7 527.3 530.4 534.3 537.1 540.1 543.6 544.4 546.4 540.2 509.3 480.2 455.2 431 407.8 389.1 376.1 369 362.8 358.5 351.5 347.7 344.3 342.4 341.7 339.5 334.1 326.6 323.1 317.8 316.2 313.8 313.1 312.4 311.5 310.3 307.2 303.4 299.4 294.1 288.8 286.4 278.5 272.4 272.3 270.4 267.3 265 263.1 264.4 264.2 264.1 263.5 263.5 262.8 260.8 261.2 261.2 258.2 265 268 271.1 273.4 277.4 279.7 282.9 285.5 289.8 293 293.1 291.5 285.9 276.9 268.9 265.9 262.5 261.5 258.6 255.1 251.3 248.8 243.2 238 234.4 229.6 225.8 222.1 216.3 206 203.8 205.8 199.5 197.5 195.8 192.8 184.4 181.6 194.6 194.9 197.8 200.1 200 200.2 200.6 198.3 196.3 197 198.4 200.7 200 202 202.9 202.1 202 201.6 198 194.2 196 198.6 200.6 200.4 200.1 203 204.7 205.5 207.5 207.9 208.5 208.9 207.7 207 206.3 205.2 202.7 199.7 195.2 192.2 188.7 184.8 181 179 176.9 174.5 170.3 166 162.2 159.5 149.4 154.5 165 169.2 171.8 174 176.8 177.3 176.4 174.5 171.7 173.3 178.9 180.7 180.4 179.6 176.8 175.9 175 173.3 170.3 166.6 163.4 163.4 163.4 163.4 163.4 163.4 163.4 163.4 168.8 171.6 172.4 177.6 183.2 185.3 184.5 180.9 179.3 177.9 177.3 180 186.5 189.2 190.1 189.7 187.5 187.7 188.7 192.8 197.3
513.5 518.9 523.9 527.6 531.4 535.5 537.9 541.8 545.8 546.5 547.9 532.4 500.8 472.4 447 423.4 402.3 383.2 371.3 363.9 359.3 354.4 348 345.6 343.2 340.6 339.3 337 333 324.5 320.9 316.7 310.2 308 306.9 306.8 306.5 305.5 303.3 299.9 295.6 291.4 286.5 284.6 280.1 273.9 268.7 267 265.5 263.7 260.3 261.2 261.1 261 258.2 258.2 258.2 258.2 258.2 258.2 262.4 266 269.7 273.4 277 281.3 283.4 284.9 287.3 292.7 295.7 295.4 292.1 287.1 278.9 269.7 263.5 252.5 253.6 250.4 248.2 245.5 241.9 235.5 229.6 219.9 217.2 210.5 210.3 214.5 217.9 217.3 215.8 214.6 211.7 205.8 198 186.6 179.5 192.8 192.7 193.4 194.9 195.2 194.3 193.7 191.4 190.1 190.4 191.5 192.9 195 196.7 197.5 196.6 196.4 195.9 191.9 191.1 193.1 196.3 197.7 196.5 200.1 201.5 203 204.2 204.9 205.6 206.2 206.5 205.6 204.7 204 200.5 199.7 195.4 191.5 187.6 183.3 177.2 177.8 175.7 173.6 171.1 168.5 164.7 161.2 151.7 156.4 160.1 167.9 171.9 174.9 178.7 179.9 179.9 180 178.1 176.7 178.6 182.5 184 183.1 181.8 180.4 179.4 178.7 178.7 176.3 175.6 173.6 171.7 165 163.4 163.4 163.4 163.4 163.4 163.4 168.8 171.4 176.2 179 183.2 184.3 181.6 181.3 178.9 176.5 179.6 185.6 187.8 188.3 188.5 186.8 189.5 191.1 192.7 195
515 519.6 524.6 529.1 533.7 537.2 540.9 544.4 548.4 549.9 549 522.1 493.4 466 437.3 415.5 395.7 379.9 367.7 359.5 354.2 349.2 343.8 342.6 340.4 338.1 336.1 335.5 331.9 324.9 319 313.8 308.4 301.6 299.9 300.5 301.1 299.1 298.2 295.3 291.4 288 283.3 281.2 277.9 273.3 267.7 262 261.7 260.2 257.8 258.4 257.7 257.3 258.2 258.2 258.2 258.2 258.2 258.8 264.1 267.9 272.5 277.7 282.1 286 287.8 288.8 292.3 297.4 299.5 298.4 293.4 288.7 281.3 273.7 266.7 258.1 251.8 243.8 241.3 239 232.5 227.8 230 227.2 226.2 226.9 226.4 225 224.5 223.1 223.5 220.6 213.2 206.6 198.5 184.8 178.7 186 190.8 190.2 190.7 189.2 189 188.6 186.8 184 184.2 185.7 186.8 189.7 191.6 192.7 191.7 190.8 190.2 187.4 187.4 189.8 194.4 194.7 197.1 199.2 199.5 199.8 202.7 203 203.6 204.3 204 202.7 202.4 201.5 198.9 195.7 190.9 187.8 183 178.7 174.1 174.2 172.4 170.8 168.1 166.2 162.6 158.5 148 156.3 163.5 169.7 176.4 180.9 182.5 182.7 182.1 182 180.1 181.3 183.7 185.6 186.3 186.4 185.8 184.4 182.5 183.3 183.3 181.3 180.7 179.9 178.2 174.9 167.1 163.4 163.4 163.4 163.4 163.4 163.4 169.3 174.6 177.6 180.2 182.3 180 181 178.5 175.9 181.8 184.9 187.4 187 187.8 188.3 192.5 193.7 192.5 191.3
515.8 520.3 525.7 530.6 535.9 540 544 548.3 552.2 552.8 544.8 514 485.1 458 429.7 406.4 389.5 374.6 363.4 355.2 349.4 344.1 340.2 338.6 337.3 335.9 333.6 332.1 329.6 324.1 315.6 311.8 305.5 298.9 292.4 294.2 293.9 293.7 293 290.5 286.8 284.2 281.3 276.1 274.9 270.7 266.1 261.7 257.5 257.3 255.7 255.1 254.4 251.8 258.2 258.2 258.2 258.2 258.2 262.4 266 271.1 278.2 284.8 290.4 293.7 296.4 297.4 298.7 302 302.1 300.6 296.7 291.9 283.8 275.2 270.4 265.1 261.7 254.7 249.6 246 242.3 238.3 235.3 233.7 234 233.9 234.7 235.1 235.9 237.2 231.8 221.5 212 206 199.4 190 177.6 178.4 185.6 184.6 187.8 184.8 185.2 185.1 183.1 177.8 179.1 180.8 181.7 184.4 187.2 187.7 187.2 186.3 184.4 183.7 184 187.5 189.9 193.5 195.8 197.1 199.4 199.9 199.8 201 201.5 202.6 202.1 200.8 200.4 197 195.7 191 187.3 182.7 177.3 175.1 171.6 170.9 169.3 167.6 165.8 165.3 162.4 152.4 153.4 159.6 164.6 172.8 180.1 185.4 185.3 184 184.1 183.4 182.9 184 185.6 187.6 188.4 188.8 188.6 187.6 186 187.2 187.3 186.1 186.4 186 183.8 179.3 172.9 168.8 168.7 172.9 174.5 173 165.2 168.7 173.1 175 177.3 178.7 177.1 177.9 177.3 175.9 182.2 184.9 185.8 186 187.2 189.2 192.1 192.5 189.9 188.5
516.3 521 525.9 532.3 537.6 542 545.5 551.1 554.7 555.4 533.3 503.5 476 449 421.4 398.7 383.1 370.5 359.5 351.8 345.4 340.3 335.7 334.1 333.7 332.2 330.5 328 326.3 321 315.1 309.7 303.2 294 287.5 286.4 288.5 288.1 287.1 284.9 282.3 280.3 277.1 272.5 270.1 266.9 263.1 258.8 256.1 254.2 252.5 252.4 249.6 249.1 258.2 258.2 258.2 258.2 262.3 266.5 273.9 282.9 288.9 294.3 298.4 301.7 303.8 304.3 303.9 305.3 304.4 302.1 300.9 296 285.2 275.7 272.6 270.2 265 257.7 253.6 249.8 245.7 241.9 239.2 239.8 241.2 248.7 251 250.3 245.6 236.3 224 219.2 212.4 204.7 198.9 191.2 179.6 174.5 177.5 180.2 182 180.6 179.3 180.3 178.3 175.5 174.7 176.1 176.9 181.3 184.1 183.7 182.1 181.6 180.8 179.9 180.3 184.3 190.1 192.4 194.3 196.1 197.3 197.6 197.9 199 199.7 200.9 200 199.5 197.6 196.4 191.8 186.4 183 178.5 174.9 170.8 168.5 168.3 166.5 164.5 163.2 163.4 159.9 147.9 154 161.8 168.1 176.7 183 186 185.7 184.8 185.1 184.6 184.5 185.8 187 188.5 190.5 191.4 192.2 191.8 190.5 191.5 190.7 189.7 190.7 190.3 186.6 181.8 176.4 173.6 175.2 178.5 180.2 178.3 173.3 169.1 168.2 175.9 175.9 175.9 175.9 175.9 175.9 175.9 180.2 183.2 183.7 179.5 184.9 187.3 188.7 188.3 186.3 180.4
516.1 520.7 526.8 533.7 538.3 543.6 548.1 551.6 555.4 555.7 526.7 495.7 465.1 438 414.6 391.3 375.5 364.8 355.6 348.6 341.4 336.1 330.5 328.5 328.7 327.8 326.6 323.5 321.8 318.3 313.4 306.4 299.9 292.3 284 279.6 283.6 283.4 281.8 279.6 277.3 275.1 272.2 267.7 264.2 262.1 258.4 255.5 253.7 251.9 251.3 250 247.6 248.9 255.6 258.2 258.2 262.3 266 274.6 284.3 293.7 299.3 303.3 307.4 310.4 311.9 311.2 309.2 309.9 309.4 306.9 304.8 300.7 288.8 284.2 279.9 277.2 271.3 264.2 259.3 256.3 249.5 246.6 244.4 245.7 251.3 255.1 257.3 254.5 243.6 226.4 218 213.7 208.1 203 197.3 190.8 180.6 175.2 175 176.8 178.7 177.1 177.1 176.3 173.5 172.2 172.2 174.1 175.5 178.5 181.2 179.9 177.9 177.6 177.5 177 178.5 183.5 189.2 190.9 192.4 194.5 195.9 196.4 197.1 197.6 198.6 199.2 199.7 199.1 197.4 193 188.6 182.2 178.8 174.8 170.2 168.8 166.8 165.6 163.3 162.2 160.9 162.1 153.6 148.6 157.7 162 170.9 177.8 182.8 184.6 184.7 185.2 186.2 185.8 186.2 186.8 188.4 190.3 193.7 195.2 196.8 197.7 199.2 199.8 197.7 194.6 192.5 191.7 187.6 183.8 179.1 178.1 179.9 181.2 181.5 180.1 179.3 171.7 175.9 175.9 175.9 175.9 175.9 175.9 175.9 175.9 177 179.3 179.7 179 181.7 183.4 184.5 184.2 182 178.1
515.3 519.7 526.1 532.7 537.5 541.6 546.9 550.5 553.9 554.1 523 491.7 461.9 433.9 407.8 389.3 373.3 361 351.3 343.4 337.9 330.4 325.2 322.7 322.2 322.8 321.9 319.5 316.8 314.6 311 306.1 299.2 290.2 285.8 279.9 277.2 279 276.2 274.4 271.2 268.1 265.9 261.8 258 256.4 253.5 252 249.8 249.3 248.7 247.6 247.3 252.2 256.5 259.2 262.2 265.8 274.8 284.9 295.4 303.2 309.6 313.8 316.7 318.9 318.6 318.3 315.4 317.1 316.3 314.6 312.1 306.2 300.4 295.3 291.7 287.1 279.1 271.5 265 261.3 258 252.1 250.8 251.5 254 254.1 254.2 247.8 232.8 218.3 209.6 207.4 202.2 198.3 194.3 189.8 183.7 177.4 171.5 172.3 172 169.3 169.3 167.5 168.4 165.4 164.2 170.3 173.8 177.3 178.7 176.3 174.2 174.2 174.4 171.1 177.2 182.1 185.2 189 192.3 195.8 197 197.3 196.4 196.4 197.2 198.1 198.2 197.4 195.4 190.7 185.7 181.9 176.9 171.8 167.1 165.6 163.4 161.9 160.2 160.3 158.7 160.2 147.7 153 156.9 163 170.4 177.3 181.1 182.6 184.6 187.6 189.5 190.4 190 190.3 191.7 194 197.5 200.3 202.9 206.4 209 208.3 204.9 199.7 195.1 191.8 188.3 184.9 183.7 180.8 180.7 180.1 181.2 179.1 179.4 176.2 175.9 175.9 175.9 175.9 175.9 175.9 175.9 175.9 175.9 175.9 174.5 174.5 176.3 178.6 179.6 179.8 176.8 179.3
513.8 518.3 523.8 529.9 534.8 539.8 545.6 547.4 550.8 550.1 514.7 487.1 458.1 430.2 405 386.1 369.2 357.8 347.2 341.2 332.8 326.5 319.7 316.3 316 316.7 316.5 315.5 310.4 309.6 307.6 304 298.6 291.3 285.9 280 274.9 275 272.6 269.1 265.6 261.7 259.4 255.9 253.2 251.2 249.6 247.7 247.3 247.3 247.3 247.3 247.3 254.4 258.9 263.1 267.9 274.2 284.1 295.7 305.3 313.4 319.2 321.6 323.3 323.7 323.3 322.5 321.4 322.2 321.8 320.2 315.2 311 307.5 304.5 300.5 293.6 283.1 278.1 271.3 266 263 258.6 257.4 256.3 254 247.7 244.2 234.5 221.3 208.3 202.7 200.3 197.9 193.2 190.6 188.5 184.1 182.3 180.2 175.1 169.4 175.3 174.9 174.1 172.3 169.9 168.4 161.1 170.6 175.7 176 173 170.1 170.6 170.7 171.6 174.6 181.1 182.7 189.4 194.1 196.6 199.6 199.1 197.5 196 196.7 197.2 196.7 195.3 192.2 184.8 182.4 179.6 175.4 170.8 169.1 167.2 164.2 161.8 153.4 155.1 155 152.5 147.1 156.9 158.8 163.3 170.2 174.9 181 185.2 190.2 193.3 197.9 201.3 200 198.8 203 208.1 210.3 213 215.8 216.7 215.2 214.4 211.3 207.6 204.9 202.5 200.4 198 194.4 189.3 181.8 180.6 179.8 179.4 178.1 177.6 176.4 175.9 175.9 175.9 175.9 175.9 175.9 175.9 175.9 175.9 174.5 174.5 174.5 174.5 174.5 177 181 184.2
512.4 516.7 522.1 526.9 530.9 536.8 540.4 543 547.1 545.9 508.8 476.2 450.7 423.5 400.7 381.3 364.2 352.2 344.4 337.8 329.2 322.9 315.3 311.1 310.8 311.1 312 310.1 305.3 304.9 302.9 301.2 296 291.1 285.9 282.4 276 271.7 267.8 265 260.9 257.6 254.7 251.5 250 248.9 247.3 247.3 247.3 247.3 247.3 247.3 249.3 255.7 261.6 268 274.6 283 295.9 305.5 314.8 322 324.8 326.5 326.5 324.1 322.8 325.2 324.9 324.9 323.9 318.9 315.6 313.9 313.1 310.1 303.3 295.3 289.1 282.9 277.1 272.3 267.8 265.1 261.4 258.2 252.6 238.5 227.4 219.4 208.1 200.5 196.4 194.5 191.1 187.1 186.3 184.2 182.3 180.4 180.6 179.5 178.2 177.4 176.2 174.7 172.7 172.7 174.2 166.3 161.1 168.6 171.2 169.6 166.5 166.8 166.1 168.1 172.6 177.6 183.2 189.8 195.4 199.8 201.7 200.4 197.5 195.9 195.6 196.1 195.7 194.4 190.8 184.9 182.2 178.5 175.7 173.5 171.7 169.1 165.4 161.8 157.2 153.3 149.2 148.1 152.4 158.7 160.4 164.8 173.5 179.6 183.7 188.9 194.6 199.5 199 202.3 202.1 204.2 207.5 209.7 213.6 217.1 220.9 221.5 220.8 217.5 215.4 212.2 209 207.4 210.8 209.3 207 203.3 192.8 184.1 181.2 180.8 179.9 179.4 179.6 175.9 175.9 175.9 175.9 176.2 177.1 178 178.2 176.4 174.5 174.5 174.5 174.9 177.9 180.6 184.9 189.7
510.3 515.2 519.3 523.2 528.1 532.4 536.9 538.4 541.7 541 505.8 468.5 438.8 415.9 395.2 375.8 360.3 348.1 340.5 333.8 325.6 317.9 312.8 305.1 305.8 306.8 306.1 299.9 299.6 298.5 298 296 292.8 289.7 286.1 282.7 278.1 272.9 266.8 261.3 257.9 254.6 250.6 248.7 247.6 247.3 247.3 247.3 247.3 247.3 247.3 247.3 253.6 260.6 267.2 273.6 282.2 292.8 305.9 314.2 322.8 325.4 325.8 325.2 324.5 321.4 320.8 324.8 324.4 321.8 319.5 315.7 314 314.7 314.4 308.4 301.2 296.7 292.2 288 283.2 277.8 273.6 268.6 260.2 252.2 244.5 227 212.7 206.2 199.8 195 190.8 188.4 186 181.6 179.2 178.3 179.5 179.8 179.9 180.5 179.9 177.8 176.7 174.7 174.2 175 176.4 170.5 160.3 153.9 162.4 163.3 164 163.9 158.5 166.4 170.3 175.9 183 189.4 192.9 200 201.5 200.2 197.7 196.9 195.2 194.3 194 192.3 188.9 185.2 182.7 179.5 178 176.5 174.4 171.6 168.3 162 154.8 151 148.2 144.1 153.2 158.5 161.8 167.4 173.9 177.9 183.7 187.6 193.1 197 197.9 197.2 196.8 200.4 204.5 205.2 207.5 210.4 212.4 216.8 215.8 216 214.5 213.4 209 206.1 206.9 208.6 207.2 205.3 202.7 198.7 188.5 184.4 182.8 181.5 180.2 177 175.9 176.8 178.4 179.9 182.4 184 184.2 183.4 182.3 178.4 178.1 179 181.9 184 186.5 192.6
508.9 512.7 517 521 523.8 527.2 529.8 533.2 536.1 534 508.2 467.8 436.9 411.1 387.9 368.2 355.5 344.8 336.7 330 320.3 314.7 309.3 303.8 300.7 302.3 301.4 294.4 291.6 289.5 288 287.6 289.2 286 284.3 281.5 277.3 272.2 267 261.5 256.8 250.4 248.9 246.2 247.2 247.3 247.3 247.3 247.3 247.3 247.3 251.5 256.7 265.8 273.4 281.9 289.8 302.2 314 321.9 323.7 323.1 322.4 322.3 320.7 319.7 319.4 322.3 321.1 318.8 314.7 311.2 310.3 312 308.2 303.7 301.7 300.5 300 296.6 295.2 292.8 284.4 268.9 252.9 243.1 227.9 213.2 202.6 198.9 194.4 189.9 186.4 184.2 181.8 178.4 178.3 175.7 176.5 179.5 175.4 172.7 171.5 169.3 168.4 170.7 173.8 175.9 177.9 174.2 164.8 157 153.8 153.4 156.2 158.9 154.6 160.3 165.7 174.4 180.8 185.2 190.4 196.3 199.2 199.6 197.9 197.1 196 194.8 193.6 191.5 187.3 185 183.4 181.6 180.3 178.1 175.9 173 170.2 164.7 154.3 149.2 148.5 146.2 152.9 158.9 161.5 168.5 173.7 177.3 181.4 186.9 190.5 192.7 192.7 193.6 195.5 197.1 200.4 203.2 205.9 207.2 207.8 208.5 208.9 209.1 207.6 205.4 202.7 201.1 201.8 202.7 203.2 202.5 200.5 198.7 195.8 190 187.5 185.3 183.3 180.7 179.8 180.4 182.6 185 187 191.6 191.2 190.8 189.6 187.9 187.8 186.1 187.3 190.7 193.1 193.6
507.5 511 514.6 517.6 521 523.1 525.1 528 529.8 527 515.4 475.8 442.2 412.2 388 366 351 339.1 331.6 326 317 310.2 305.1 300.4 296.1 298.2 296.3 289.8 285.6 284.3 282.3 283 283.1 281.5 280.1 278.6 275.4 271.4 265.5 260.5 255.6 250.9 246.5 244 246.1 245.1 247.3 247.3 247.3 247.3 248.9 254.7 264.2 273.1 281.4 291.3 301.7 312.8 319.9 318.5 319.4 319.2 318.1 317.3 316 315.5 316 316.6 315.2 310.3 307.3 304.3 304.7 305.1 302.3 300.6 304 309 308.1 308.8 303.7 293.3 278.7 258.6 245.4 228.4 212.9 203 197.1 193.5 189.9 186 182.9 181.1 178.4 177.3 180.3 180.8 172 169 167.1 165 160.2 158.5 157.5 158.2 166.2 169.8 176.3 176.6 167.3 159 152.1 152.8 150.6 151.9 150.9 152.5 161.6 170.3 174.3 182.2 184.3 190.3 194.7 196.6 196.9 198.2 197.9 197.7 195.8 193.1 188.4 185.8 184.3 183 180.9 178.8 176.6 173 168.8 159.5 152 148.6 145.8 145.8 154 158.2 160.1 166.3 168.6 172.8 180.6 185.1 190.9 194.3 197.8 201.1 201.1 200.9 202.9 204.9 207.3 207.2 207.1 207 206.4 205.3 201.8 198.6 197.1 196.6 197.9 199.5 199.9 199.8 197.8 194.9 193.5 190.9 188.9 188.3 186.6 184.2 183.4 183.6 185.2 187.4 189.6 194.3 196.5 196.3 196.6 193.3 193.4 192 194 196.5 198.2 199.5
