ncols 200
nrows 82
xllcorner 340000
yllcorner 635100
cellsize 50
413.5 407.8 404.3 398.7 394.4 386.9 378.3 368.2 358.5 353.7 352.8 357.1 364.3 376.1 387.6 394.8 396 394 389.6 383.4 378.8 375.1 366.6 355.5 352.7 353.3 357 360.5 361.8 363.8 360.6 356.4 346.6 339.2 330.4 319.4 311.6 304.4 298.9 293.2 289 286.9 283.8 279.3 276.3 274 272 269.2 267.2 265.1 263.6 261 258.6 257.3 255.2 252.2 250.7 251 250.1 247.3 236.7 241.4 251.1 256.4 264.5 271.3 274.4 280.6 289 294.3 293.2 288.9 281.4 275.1 268.2 261.2 255.5 248.1 241.7 237.3 233.8 231.1 229.3 226.7 224.2 222.7 219.6 218.2 216.7 215.8 215.7 216.4 216.1 215.8 215.7 215.8 216.2 215.6 215.4 214.7 213.8 214.2 215 216.2 216.6 215.9 214.5 212.9 209.7 206.1 202.5 198.9 195.4 191.8 188.1 185 181.5 177.7 173.5 166.8 162.9 159.1 156.9 155.3 152.5 146.5 147.8 147.8 147.7 146 146.7 146.9 149.9 149.4 156.7 164 168.2 181.2 189.9 196.4 204.7 208.9 213.3 218 220 224.7 233.5 239.4 247.1 258.6 271.8 282.6 293.6 297.8 295.6 287.3 282.5 276.8 270.4 265.2 260.8 255.4 252.5 250.9 253 253.4 252.6 252.9 254 254.5 255.2 255.9 256.2 256.4 257.1 258 258.7 258.7 258.2 258.4 256.5 253.7 249.9 243.9 243.2 243.1 243.1 241.8 242.4 243 243.2 245.4 242.6 245.4 244.6 244.6 245 244.6 243.8 243.1
415.8 413.1 408.5 404.9 399 391.5 381.5 368.3 356.1 344.7 344.8 346.9 353.1 362.7 372 378 380.8 380.5 376.1 369.1 364.1 359.4 353.8 344.4 344.8 346.7 351.3 357 361.8 364.1 362.4 356.5 346.8 338.8 329.7 321.6 314.9 310.3 304.6 297.9 293.1 289.2 285.7 280.7 276.6 272 267.9 266 263.5 259.2 258.2 254.8 252.1 249.6 248.6 247.2 247.1 247.3 246.5 242.2 235.4 237.5 249.5 258 266.5 273.9 279.8 287 295.2 297.2 292.3 285.9 280.6 274.2 266.4 259 253.7 246.7 242.3 238.3 234.7 231.8 229 228 226.7 224.9 221.8 220.4 219.9 219.9 220.5 221.4 222.5 222.2 221.9 221.6 222.1 222.2 221.2 220.1 218.9 218 218 218.4 217.8 216.4 213.7 211.1 208.4 205.5 201.8 198.2 194.8 191.2 187.6 184.1 180.3 176.4 171.7 166.4 161.9 158.3 155.3 154.2 152.6 151.4 149.6 148 146.6 146.2 146 145.9 145.1 147.5 152.5 160.6 164.4 175.8 181.6 187.1 190.4 194.4 197.9 202.5 206.8 209.3 211.7 219.8 229.2 238.1 249.8 261.8 267.3 273.6 274.5 272.1 270.8 265.2 259.8 256 252 248.2 245.2 242.7 242.7 244.2 244.8 244.8 245.5 246 246.8 247.9 247.9 247.6 247.8 248.5 249.6 249.8 250.2 250.7 248.3 244.5 242.8 242.2 245.3 246.1 246.5 247.5 250 249.9 247 249.9 251.4 251 249.7 249.9 252.5 253.2 252.7 250.9
415.5 415.2 411.5 405.8 405.3 393.4 378.3 367.2 356 344.5 338.1 337.5 340.7 346.4 356.6 361.5 364.5 362.3 358.4 354.9 350.2 345.1 337.4 333.5 332.7 337.9 343.7 350.8 355.8 357.7 356.6 351.1 343.8 336.4 329.5 327 327.6 321.1 313.8 306.1 298.8 294.3 289.2 283.1 277.7 273 267.8 264 260 256.6 255.1 250.5 247.8 245.5 244.5 244.6 244.5 244.3 242.6 241.1 233.5 239.5 249.4 258.6 265.6 273.7 282.3 289.5 296.8 297 291.9 286.3 281.8 275.2 268 260.3 253 247.4 243.6 239.7 236 232.9 232.1 230.6 229.1 227.3 224.7 224.2 225.1 225.6 226.5 227.9 229.5 229.9 229.8 229.2 229.3 229.6 228.5 227.7 226.3 224.5 222.3 221.1 219.6 217.6 214.6 210.5 205.9 203 199.7 196.1 192.8 188.9 185.1 181.5 178.2 175.1 170.2 165.1 160.8 157.8 155.2 153.2 151.7 150.4 148.7 147.6 146.2 145.3 145.1 145 145.6 150.1 149.6 148.8 159.7 166.2 172.6 176.3 180.9 184.4 185.5 188.1 190.3 188.7 194 200.5 209.4 217.1 226.1 237.9 248.7 256.6 258.7 258.6 257.1 252.4 248.4 244.2 240.7 236.7 235.2 235.6 235.6 236.8 236.8 238.3 239.1 239.9 241.1 241.4 240.5 240.1 240 239.6 240.3 242.2 243.3 241.6 241.6 241.9 242.4 246.3 249.3 252 253.5 255.1 255.2 257.4 256.2 257.3 256.9 256.8 255.9 260.1 262.3 262.9 260.9 259
409 410.4 409.4 411.1 404.5 391.3 380.3 365.8 351.4 339 331.6 330.7 330.6 332.9 338.4 343.5 348.8 349.4 349.6 347 337.6 332.7 327.1 323.1 321.9 326.6 333.3 341.9 347.7 350.7 349.2 344.4 339.5 336.1 335.4 334 328.9 322.7 315.7 308.6 302 296.4 289.7 283.2 278.6 272.1 265.9 261.7 256.7 253.8 251.3 247.9 243.6 242 241.8 241.6 241.9 241.7 239.3 235.2 232.6 239.8 250.4 258.9 266.6 274.9 283.9 291.1 295.5 295.8 294.8 290.3 284.7 277.3 268.2 259.9 252.8 248.1 244.5 240.8 237.4 235.9 233.9 232.2 231.2 229.1 229.5 230.4 231.6 233.1 235.5 237.7 238.6 239.4 239.6 239.1 238.8 237.8 236.6 235.2 232.8 230.6 227.6 225.1 221.2 217.7 213.8 209.4 204.8 200 196 192.7 189.8 185.5 181.6 178.3 174.9 171.7 165.7 163 160.2 156.8 154.2 152.8 150.7 149.2 147.9 147.1 146.2 145.2 144.9 144.5 147.2 147.2 147 148.4 150.4 147.9 161.3 165.4 170.5 171.2 171.4 171.3 170.1 172.3 176.4 182.6 187.9 194.9 203.4 213 223.4 233.7 239.7 240.7 239.6 238.2 235.1 231.1 229.4 225.8 226.3 227.7 228.3 228.7 228.9 231.5 233.1 234.1 234.8 235.2 234.6 234.5 234.3 234.2 235 233.8 234.8 238.1 240.2 243.8 249.2 253.4 256.7 258.8 259.4 260.9 261.9 262.2 262.6 264.9 264.1 265.4 266.2 270.2 271.9 271.6 269.6 268.8
403.6 412.6 415.8 412 401.5 394.2 378.7 362 346.6 334.1 327.4 324.2 324 324.5 326.3 330.3 333.1 335.4 334.3 329.1 325.6 320 314.6 314.7 313.4 315.8 319.4 326 332.8 336.4 337.1 338.2 337.3 338.4 338.1 333.3 326.9 321.4 314.4 305.5 300.6 295.6 290 283.5 277 271 264 258.5 253.4 249.8 247.5 244.3 240.3 239.4 239.1 238.8 238.8 238.3 232.5 232 232.1 244 252.3 261.2 268.7 277 284.9 291.4 297 295.9 293.5 290.5 284.9 276.8 267.5 259.2 253.9 249.5 245.8 242.4 239.5 237 235.5 234.4 234.8 234.5 236 237.6 239.6 241.9 245.7 248.1 249.6 250.3 250.5 250.6 249.2 247.1 245 241.8 239 235.3 231.7 227.3 223.3 217.5 212.3 207 202 199.5 194.8 190.4 186.7 184.7 179.2 179.3 176.7 173.2 170.4 168.7 165.4 162 157.8 152.6 150.4 149.3 147.5 147.2 145.5 144.4 144.5 145 145.2 146.2 144.6 143.4 142.4 141.9 141.8 147.2 150.3 153.9 155.1 151.2 159 161.6 162.2 164.5 165.6 169.8 178 188.2 199.4 209.1 217.8 222.4 223 221.9 219.3 217 216.7 217.3 218.9 218.9 219.4 220.5 223.6 227 228.9 229.4 229.5 229.6 229.4 229.7 230 230 230.7 233.1 236.9 241.1 246.4 251.5 257.4 263.9 265.8 264.8 267.8 267.7 267.4 269.9 272.3 275 273.2 274.8 277.3 278.9 280.2 280.6 280.8 280.2
396.7 409.4 413.4 411.7 405 393.8 377 361.7 344.7 333.6 327.6 321 318.3 317.3 317.9 318.5 319.2 320.9 317.9 314.5 311.1 308.6 305.2 306.2 306.8 307.4 308.6 312.1 319.3 323 326.3 330 333.5 335.6 333.8 329.7 324.3 317.8 310.8 306 298.8 294.2 288.7 282.3 274.9 267.8 260.5 255.2 249.4 245.8 243.4 239.9 236.2 236.3 236.3 236.3 235.9 229.5 229.6 230.2 236.9 247.3 257.8 265.6 273.2 279.6 287.7 293.4 297.9 299.2 293.7 290.2 283.8 276.9 267.8 260.2 255.2 250.9 247.4 244.6 241.7 239.4 238 239 240.4 240.8 242.9 246.9 249.4 251.6 255.8 257.6 258.7 259.9 261.6 262.5 259.5 255.3 250.7 247.4 242.7 238.1 233 226.3 219.8 214.6 209.1 204.3 201.9 198.8 194 189.7 185.3 185.3 185.2 184.3 181.8 181.4 177.6 177.1 173.5 172.1 166.9 161 156.4 154.8 153.3 151 147 143.5 145.1 145 144.3 144.6 143.2 142.4 142.2 141.7 142 141.3 142.2 145.3 139.8 139.9 138.9 153.3 155.9 156.2 156.1 157.4 162.2 166.2 175.4 186.4 196.4 202.5 204.5 204 203.5 204.5 206.2 208.7 211.1 212.5 213.3 214.8 219 222.3 223.5 224.5 224.8 225.6 224.8 225.1 226.8 229.9 232 236.2 240.6 247.6 253.2 258.5 263.5 267.9 271.8 274.6 275.8 276.3 277.3 279.9 284.7 286.8 282.3 284.1 284.4 285.6 286.9 289.2 291 289.1
387.6 401.8 410.2 413.2 407.8 396.4 379 362.9 347.9 338.3 331.3 321 314.2 312.1 310.1 308.9 308.3 307 305.3 302.5 300.8 299.2 299.8 299.2 298.7 299.4 300.5 303 308 312.8 317.6 322.3 326.1 327.8 324.7 324.3 318.4 314.7 310.4 304.3 296.8 290.8 284.6 277.8 270.5 262.5 256.4 252.5 245.3 240.8 237 234.1 232.1 232.4 232.8 232.8 230.5 227.9 230.1 234.7 244 255.2 264.5 272.2 279.6 287 292.8 297.6 301 299.4 294.4 289.1 283.2 276 268 261.5 256.8 253.2 249.5 246.7 244.4 243.1 242.3 243.9 245.3 248 251.9 255.9 258.9 262.5 266.3 267.5 268.5 269 271.1 271.4 266.7 261.4 255.3 249 243 237 230.3 223.2 217.3 213 207.9 205.8 202.5 198.1 193.2 189.5 190.5 189.3 189.9 190.1 193.6 194.4 193.9 193.2 191 186.6 179.8 173.9 167.3 162.2 160.6 157.4 147.2 144.3 144.3 144.1 144.5 143.9 143.4 143.1 142.8 142.2 141.7 140.5 139.5 141.2 140.5 144.7 139.6 138.4 149.6 150.3 150.4 152.1 152.4 153.5 156.8 163.2 169.8 181.3 187 188.5 192.2 195.2 197.4 200.2 203.9 206.2 205.4 209.8 212.7 217.1 218.6 219.1 220.3 221 221.4 222.4 225.6 229 234.3 239.4 244.4 251.6 257.6 263.9 268.3 272.1 274.6 277.7 280.1 282.7 284.9 290.2 291.3 289.5 287.8 286.9 288.4 290.4 295 297.5 298.5 297.4
380.4 395 407.9 415.8 412.7 401.2 382.9 366.9 353.8 343.1 332 321.1 312.3 307.9 305 302.5 299 296.9 295.8 294.1 292.3 291.8 292.3 292.5 290.7 291.4 292.8 296.6 301 305.5 310.2 312.7 315.5 318.4 318.1 315.5 312.7 311.8 305.7 299.2 292.3 285.5 278.9 272 265 257.7 253.7 249.6 242.2 236.5 234.4 230.7 228.2 228.5 226.7 226.1 226.9 226.9 233.8 242.9 253.5 263 272.6 279.8 287.7 292.9 298.1 301.6 301.8 300.1 294.9 289.5 284.4 276.2 269.7 264.3 259 254.6 251.8 249.3 247.2 247.1 247.7 249.5 253.2 256.1 261.6 266.5 269.7 272.6 276.4 277.9 278.8 278.9 277.5 273.4 270 263.8 256.7 248.4 240.5 234 227.5 221.5 216 212.7 208.7 205.9 202.2 196.4 192.7 193.4 193.3 193.6 194.4 198.7 203 205.7 206.6 208.5 207.6 203.6 199 191.7 181 174.2 171.2 166.6 161.7 153 145.9 142.7 142.8 143.1 143.6 143.5 143.3 142.3 140.7 143.3 146.5 145.4 142.2 140.4 139.7 143.8 137.2 142.7 144.6 141.5 139.4 139.5 136.7 136 146.3 162.7 172.2 178.2 183.2 187.9 190.4 192.7 197.1 200 199.6 204 207.7 212.6 215 215.2 216.6 217.1 218.3 222.1 224.6 229.9 237.2 243.1 248.7 256.4 263.3 269.9 273.4 278 283.2 285.4 286.9 287.9 290.7 292.1 294.2 292.9 288.1 289.2 293 295.8 301.4 303.6 305 303.3
375.1 390.9 407 416.6 415.1 403.4 386.7 372.9 361.3 346.2 334.1 321 311.8 305.8 302.9 298.4 295.7 293.1 289.7 287.5 285.5 285.5 285.1 282.2 282.2 282.9 284.9 289 294 297.7 299 300.7 306.8 309.1 307.8 306.1 306.5 301.6 295.9 290.5 286.4 279.2 271.4 264.3 257.7 253.2 248.9 245.3 240.4 233.2 230.8 227.6 225.3 224.7 225.2 224.9 225.7 234.8 241.4 252.3 262 273.3 281.3 289.9 295.5 300 304.1 303.9 303.3 301.2 300.1 294.9 288.5 281.6 276.6 271.3 263.8 259.6 256.4 253.9 252.6 252.3 254.7 257.2 261.6 264.4 271.6 278 280.9 283.7 286.5 288.1 288.5 288.4 285.9 278.2 272.6 263.6 255.1 247.7 240.5 232.9 225.7 220.4 215.8 211.7 208.8 205.5 202 198.3 197.7 198 198.8 199.5 202 206 210 212.8 215.5 219.3 221.8 221.1 216.2 210.7 200.9 192.1 187.6 185 179 173.8 168.5 162 153.5 143.5 142.6 142.7 142.8 145.3 146.7 147.4 151.1 152.5 147.6 142.2 140.2 139.4 141.6 138.3 138.3 138.9 138.3 137.9 137.5 137.1 136.3 137.1 159.7 167.6 175.5 179.7 182.6 185.6 188.7 190.8 193.8 199 203.5 207.8 210.2 211.7 212.4 214.7 217.3 221.6 224.9 233.9 241.6 248.7 255.6 263.6 270.4 275.1 280.9 285.7 288.7 289.9 290.1 289.8 292 293.1 293.2 290.5 289.2 291.9 295.2 299.6 305.4 307.7 309.5 307.7
370.9 389.3 406.4 415.7 415.8 404.6 390.2 376.9 364.6 351.2 334.9 319.2 313.8 312.2 308.4 302.9 298.2 295.2 290.7 287.5 283.2 280.3 279.3 276.3 276.7 276.1 276.3 278.4 283.3 287.2 288.3 293.8 296.2 297.1 298.3 298.6 295.8 291.1 286.5 281.5 277.8 271.9 263.4 257.3 250.8 247.8 244.5 241 236.5 228.4 224.5 222.9 222.4 224.2 223.5 225.9 235.6 244.1 253.8 264.7 275.5 283.9 292.6 299.6 305.6 308.6 310 307.9 307.9 305.4 302.1 298 293.1 288.6 283.8 278.5 273.4 269.9 266.8 264.3 261.6 261 261.8 264.5 268.4 273.9 281.9 287.6 292.1 294.5 296.5 297.8 298.7 299.2 291.2 281.9 272 263.1 255.7 247.3 239.5 231.5 224.8 219.7 215.1 212.1 209.8 207.2 203.2 202.6 204.5 205.5 205.9 208.7 211 213.5 217.1 220 222.7 228 232.4 232.6 228.6 223 216.6 210.6 204.1 201.1 195.9 191 187 182.2 173.5 164.3 159.3 154.7 154.3 157 155.8 154.4 155 155.3 153.3 151 144.2 144 139.2 141.9 140.8 137.2 138 137.4 137.3 136.9 135.4 135.2 135.6 158.1 166.1 173.6 177.3 179.5 182.7 186.6 192.8 196.7 200.7 203.7 206.2 208.4 210.2 212.5 216.8 221.2 227.4 236.9 246.5 255.3 263.2 270.6 277.2 284.6 288.6 289.7 291 291.3 290.2 287.8 287.4 286 285.1 285.9 288.7 291.8 296.5 301.3 306.4 309.8 312.5 313.2
370.9 390.4 407 417 414 403.5 393.4 378.9 366.9 353.9 338.3 324.4 322.2 321.4 318.5 315 309.2 304.6 298.4 291.8 285.2 280.5 276.6 274 272.2 271.4 269.9 268.9 272.7 275.7 278.4 281.8 283.1 286 287.6 287.2 284.5 281.5 277.7 273 268.6 262.1 256.3 251.8 246.5 242 238.6 236.5 231.1 225.4 221.1 221.3 223 223.9 225.8 234.3 245.6 258.8 269 276.8 284.5 296.4 304.8 311.8 313.7 314.2 315.4 316.9 312.6 309.8 308.9 307.1 304.3 299.2 293.9 287.9 284.6 281.7 280.2 277.9 274.2 272.4 270.9 271.7 276.4 284 291 296.1 302.1 303.8 304.8 308.5 308.3 300.1 291.1 280.9 271.5 263.2 255 246.4 236.7 229.2 223.9 220.1 215.6 213.2 212.4 211 208.5 210.1 212.1 213.3 215.4 218.1 219.5 222.2 225 227.9 231.3 234.9 238.3 239.2 237.1 233.9 226.7 222.5 218.9 215.1 213.8 212.4 206.6 199 191.9 182.3 176.5 169.9 166.6 164.9 165.1 162.4 161.8 160.4 158.6 156.2 155 152.9 150.3 137.9 138.9 140.4 136.3 136.8 136.5 136.3 134.4 134.4 136.8 142.4 158.9 165.5 171.1 174.4 180 186 191.3 196.3 200.2 201.6 205.4 207.7 209.5 211.1 215.3 221.4 231.4 240.8 250.9 260.3 269.8 278.6 284.6 287.6 287.7 289.9 291.2 290.3 286.9 283.2 281 280.2 280.6 282.7 286.2 291.4 296 300.1 305 308.1 313.4 314.2
374.4 391.7 407.1 416.2 412.7 405.1 395.4 383.5 368.9 356 341.4 332.5 330.4 329.7 328.4 321.6 316.5 313.1 306 298.7 292.7 286.7 280.8 275.8 272.6 269 267.4 264.9 264.3 264.3 266.8 269.6 272.6 273.4 276.1 273.8 273.3 271.5 268.7 264.6 259.6 254.7 250.9 246.9 241.6 237.9 234.8 232.9 228.7 223 220.4 220.3 222.2 227.1 234.7 247.6 258.3 270.6 283.6 285.6 296.2 306.2 313.7 319.8 322.7 320.2 320.6 320.1 319.4 318.1 318.6 318.6 315.4 309.8 304.4 302.3 297.8 297.6 294.6 290.6 286.5 282.2 279.6 280.6 285.2 292.4 299.3 306.1 310.7 311.9 313.8 313.8 306.7 299 290 280.8 271.3 262.2 253.3 244.6 234.3 228 224.8 220.7 216.9 215.8 215.7 215.1 217.6 219.3 220.9 223.8 225.2 226.6 228.2 231 232.9 234.6 237.6 241 243.5 244.4 242.7 240.1 235.4 231.9 228.9 226.6 228.6 229.9 227.5 221 208.8 201.1 191.6 182.7 178.1 174.4 172.3 171 168.2 165.5 163.8 162 160 157.3 154.9 152.8 142.9 141.1 148.4 146 138.1 137.8 136.6 136 135.9 133.4 150.9 160.8 166.5 174.5 181.3 188 192.5 197.2 201.8 204.5 206.9 208.8 209.9 211.1 215.4 222.6 233.4 244 254.2 263.8 273.8 281.7 286.1 286.2 286.3 286.3 286.9 286 283.4 279.5 276.5 276.6 276.6 279.6 284.9 290.2 295.5 299.3 303.1 308.4 313.4 315.5
375 392.8 406.3 415.4 413.3 406.6 395.7 383 369.9 359 346.1 340.6 338.6 341.2 333.5 328 323 317.3 311.5 304.4 297.4 291.7 286.4 281 276.4 272.1 268.5 264.4 261.5 260.2 260.4 260.8 261.4 262.7 263.5 265.1 260.1 259.7 258.3 254.9 250.8 246.1 244.9 242 237.1 233.9 233.1 230.8 227 220.6 219 222.6 227 235.1 247.1 257.9 271 282.6 291.8 297.5 306.3 312.5 320.1 324.9 325 324.6 325.2 327.8 326.1 330.8 331.8 329.7 324.7 321.4 320.8 318.2 316.2 313 308.7 302.7 295.8 290.5 287.2 288.6 293.8 300.1 310.1 316.3 318.3 321.9 315.7 310.7 304 296.7 289.4 281 270.7 261.2 251 241.1 233.7 228.5 224.9 221.3 220 220.4 220.8 223.6 226.8 228.9 231.7 233.9 235.7 236.1 236.4 237.9 239.5 240.8 243.1 245.3 248.8 248.9 247.6 245.7 242.9 240.6 237.7 237.4 240.3 241.7 239.6 236 226.4 217.2 207.8 198.3 193.9 188.5 184.2 179 175.2 172.5 169.8 166.6 164.2 161.6 159.1 157.5 156.3 153.6 143.5 147.8 146.1 144.3 142.4 136.1 135.3 134.4 145.5 156.6 164.3 174.5 183.8 192 199.7 203.9 204.8 204.8 207 209.6 209.6 211.4 216.7 226.1 238.1 247.7 257.1 268.1 276.1 282.9 286.7 286 286.2 285.8 283.1 280.5 277.4 274.8 272.6 271.8 273.5 278.6 283.7 288.9 294.9 299.2 302.8 306.9 313.7 315.5
376.5 392.5 405.8 412.8 410.5 403.6 393.1 380.9 369.7 359.9 352.1 346.9 347.5 343.4 336.7 328.8 322.6 316.8 311.5 306 300 295 290.2 285.3 281 275.7 271.8 267.1 262.4 258.9 256.7 256.2 256.2 255.4 254.3 255.6 252.9 251.3 248.9 244.3 243.2 240.3 237.6 234.8 231.8 229.7 229.5 227.8 223 219.1 220 227.4 236.2 246.8 258.1 269.5 280.3 287.8 294.7 304 311.7 316.2 323.9 329 328 328.8 333.8 335.1 339.1 342.8 343.7 337.7 338.1 337.5 336.7 334.6 330.6 325.6 320.5 311.7 304.4 299.9 294.1 297.3 301.2 309.6 317.6 320 322.8 318.6 314.7 310.8 304.4 297.5 289.9 279.7 269.4 259.6 249.8 240.4 232.5 228.4 224.7 223.6 223.8 225.2 227.7 231.8 235.5 239.4 242.5 245 245.8 246.2 246 245.8 246.2 246.5 248.6 251.5 254.2 254.3 253.8 251.9 249.9 246.6 246.5 247.4 248.1 247.7 245.5 241.6 235.2 227.6 218.8 212.2 206.4 200.7 197.2 190.3 185.3 180.3 177.1 173.6 169.6 165.8 163.4 161.2 159.1 156.7 149.6 151 148.6 145.3 142.3 140.4 134.9 135.1 142.4 155 164.5 176.7 187.9 195.9 199.2 201 200.1 200.6 203.3 205.9 207.9 213.2 221.5 232.2 242.2 250.8 259.1 270.7 277.8 281.9 283.5 283.3 282.8 280.9 278.5 276.5 274.6 272.8 270.9 270 272.8 277.8 282.4 286.7 292.8 298.1 302.6 307.1 311.5 314.7
378.7 392.2 405.4 408.1 404.5 399.8 387.8 373.7 358.2 356.1 353 351.8 344 337.2 334.8 329.9 322.1 316.2 310.8 306 300.9 297.1 292.6 287.3 283.4 279.3 274.6 269.9 264.7 260.8 258.2 254.9 250.9 249.6 248.3 246.4 244 241.5 238.9 238 237.1 234.2 231.1 227.5 225.7 225.5 225.9 224.4 218.7 217.2 226.2 233.1 244.1 256.3 267 275.7 282.1 289.4 297.1 307 312.4 319.6 325.9 327.4 331 335.5 339.2 343.9 349.3 352.6 348.3 352.8 352.5 352.3 352.1 346.5 343 336.9 330.1 320.1 314.2 307.4 302.6 303.9 308.7 317.7 320.1 321.9 324 321.3 317.2 310.3 305.1 298.8 289.9 278.1 268.2 258.3 247 238 232.6 228.7 226.9 226.9 227.8 231.4 236.5 240.4 245.1 249.7 252.9 256.2 257.3 256.6 256.1 255.2 253.3 252.3 255 257.5 260.1 260.4 260 257.8 255 254 253.3 252.9 252.7 251.5 248.1 243.4 238.7 231.6 224.3 217.6 213.2 210.3 205.5 200.1 194 189.4 184.5 180.8 176.7 173 168.5 165.2 161.7 159.2 155.5 145.5 147.7 141.1 137.7 136.5 135.5 134.9 139 151.7 163.9 170.1 182.8 186.5 189.5 191.2 194.4 196.5 200.3 204.1 210.6 218.7 228.8 237.3 246.5 255.1 266.6 276.2 281.1 284.9 285.7 284.6 283.2 281.3 280.2 278.1 276.3 273.9 270.4 268.9 270.4 275.3 280 284 291.2 296.8 301.4 305.6 309.8 312.1
380 391.9 402.3 405.3 401.5 390 375.7 358.1 347.8 347.5 348.9 346.5 340.1 333.3 332.9 325.7 320.3 315.2 311.6 308 303.3 298.5 295.2 290.2 285.4 280.8 276.2 271.5 266 263 259.6 256.3 252.1 248.3 244.9 242.7 239.8 237.7 235.2 233 231.1 229.2 226.6 223.1 219.8 221.2 222 220.8 218.6 216.5 229.4 239.7 252.5 265.8 271 278.5 284.4 291.2 297.8 304.1 310 315.9 318.1 322.7 330.9 342.1 349.2 350.4 353.1 353.2 362 364.8 365.2 364.1 360.2 358.3 353.1 346.6 339.6 330.9 323.2 313.8 309.4 309.4 314.4 318.2 320.1 322.4 322 319.1 314.8 310.2 305.9 298.2 288.3 277.3 265.3 254.6 244.7 238.3 233.1 231.5 230.1 231 234.6 240.2 245.2 251 255.7 259.8 264 267.9 269.6 269.9 267.9 264.5 261.7 259 260.2 262.7 264.8 266.3 264.5 262.3 260.4 259.2 258.4 257.8 256.8 254 248.4 241.3 236.3 230.2 224 216.8 211.2 207.4 204.3 201 197.9 193.2 189.5 185.4 181.3 177.2 171.8 167.2 163.9 160.6 157.8 140.1 147.6 137.6 135.3 135.4 135.2 134.7 136.9 150.1 159.7 166.4 171 176.3 181.7 186.7 190.6 193.6 199 206.4 215.6 225 235 243.5 251.6 262 271.6 280 285.4 289 290.5 289.2 290.8 287.5 283 279.7 276.6 273.1 269.2 265.5 267.6 272.6 277.7 285.3 290.1 295.6 299.8 304 307.8 308.9
380.3 392.8 401.3 403.5 394 381.3 364.3 348 342.5 340 339.1 334.8 333.1 332.7 326.8 321.6 318.4 314.6 311.8 308.1 303.4 298.1 292.7 287.6 282.8 278.6 274.5 270.5 267.3 263.3 260.8 257.1 253.2 249.5 246.2 243.7 241 238.6 236.5 233.4 228.8 226 223.4 220.9 218.6 218.6 219.5 218.5 217.4 224.6 235.5 249 261.1 269.7 276 280 281.2 289 292.1 297.3 305.3 308.7 312.3 320.2 335.4 344.4 347.6 349.5 351.3 359.9 366.1 369.2 370 370.1 369.6 367.9 362.2 354.3 346.4 338.1 330.4 319.8 316 311.2 311.7 314.9 317.3 317.9 317.1 314.8 310.5 306 299.8 293.9 285.3 275 263 251.8 243.5 238.8 235.1 234.5 233.4 237.5 243.2 248.8 256.3 262 267.7 273.3 277.8 281.6 283.7 284.5 279.6 273.1 268.9 265.6 264.9 267 269.1 269.6 268.1 266.2 264.8 263.6 260.5 256.2 253.2 245.8 239.8 234.5 228.4 222.5 217.5 211 205.2 202.6 199.4 196.4 194 190.6 187.6 184.5 181.2 176.8 171.8 167.6 163.8 161.2 156.7 144.7 146.2 137.4 134.9 134.9 134.7 134.4 136.1 152.1 162.6 166.5 168.5 174.2 179.4 184.1 188.9 194.8 205.3 215.5 224.7 232.2 240.9 249.4 259.1 270.6 278.1 285 289.4 292.9 293.9 292.3 289.6 286.1 282.6 278.9 275.2 271.6 268.1 265 266.1 271.7 278.5 284.2 289.7 294.1 298.2 302.2 306 308.5
379.1 392.8 398.5 395.3 389.4 373.5 357.5 342.4 336.5 330.3 328.7 327.7 330.1 324.7 320.7 317 314.7 312.3 308 301.6 297 292.8 287.8 283.9 280.2 276.7 273.7 270.9 268.2 265 262.3 259.3 256.3 253 249.6 247.2 244.8 242.5 239.8 235.6 230.9 225.3 221.6 219.5 217.3 217 217 216.5 215.1 230.8 243.2 256.5 263.9 273.7 275.4 275.4 275.3 279.4 284.5 291.8 298.4 304.1 310.4 324.9 335.7 339.9 342.5 344.4 350.5 356.7 361.5 363.4 367.5 370.7 372.2 372.1 366.8 358.3 353.1 345.6 333.5 322.2 314.5 307.9 306.8 309.4 309.2 309.9 309.3 308.6 304.9 299.6 294.1 289 281.8 270 258.3 250.5 244.9 239.6 238.2 237.1 239.1 245.4 251 257.3 265.3 272.1 279.6 287.8 294 298.4 298.5 295.5 288.5 281.4 275.8 271.2 269.8 271.6 272.3 272.4 271.6 270.8 269.7 265.5 257.2 250.5 244.3 237.2 231.4 225.4 218.5 213.7 209.2 203.1 199.3 197.3 194.7 191.6 188.9 186.2 184.4 181.2 175.7 172.1 169.6 165.6 163.1 161.4 157.1 146.4 142.9 136.2 132.5 132.9 134.4 134.2 136.1 154.1 167.3 167.8 173.4 176.7 182.4 188.3 195.3 204.2 213.6 224.4 231.6 239.8 249.6 260.6 270 278.5 285.6 289.2 293.5 296.8 297.3 295.8 290.4 288 284.1 279.4 275.5 271.5 267.5 263.9 263.8 270.3 275.8 281.5 287.3 292 296 301.4 305.2 308.2
381.1 391.9 394.8 390 380.4 366.5 349.3 339.1 331.8 325.5 324.5 321.3 318.5 316.7 314.9 313.1 309.8 305 300 296.2 292.9 290.3 286.8 283.7 281.3 278.1 276.2 273.4 271.2 268.7 266.3 263.9 260.7 257.3 253.7 249.9 247.2 244.2 241.1 237.4 230.8 224.2 220.9 218.3 215.9 215.5 215.3 215.1 226.1 238.4 250.3 257.7 264.6 268.7 268.6 269.1 268.9 273.8 279.1 286.6 292.5 298.7 312 325.5 333 333.5 336.2 339.5 343.4 347.7 352.1 355.7 361.2 366.4 370.2 370.8 368.2 367.8 357 347.3 336.5 323.8 312.9 302.9 300.5 298.8 296.6 296.2 299.5 300.6 296.8 291.7 287.8 283.5 275.7 265.7 256.3 249.8 244.2 241.7 240.9 241.8 246.6 253.3 259 266.8 275.1 285.6 293.3 302.2 310.3 312.9 310 304.5 297.7 289.9 284.5 277 274.5 274 274.4 274.7 272.7 271.7 266.6 258 249.9 243.4 235.4 228.2 221.4 215.2 210.2 205.3 201.2 197.4 193.9 191.7 189.1 186.5 183.7 181.2 178.6 175.5 168.9 166.1 164.6 164.3 162.4 161.4 158.2 144.4 139.1 133.3 133 132.7 133.5 133.2 140.6 161.4 173.2 179.8 185.1 189.4 194.2 199.5 206.4 213.1 222.4 230.5 239 247.9 260.7 270.7 280.1 288 293.6 298 299.7 300.1 300.9 297.5 292.7 289 283.8 278.9 274.9 270.8 266.5 262.2 262.4 268.6 273.3 279 285.1 289.8 295.2 300.9 305.1 309
380.8 387.9 393.4 386.9 373.1 358.7 347.6 337.6 329.7 322.4 319.4 316.3 313.6 310.5 309.5 308.7 307.2 300.7 298.5 297.3 296.8 294.9 291.7 289.5 287 285.6 282.8 279.6 277.5 274.9 271 267.4 264.6 261.2 256.9 252.4 249.2 246 242.1 236.8 229 223.9 221 219.1 215.9 213.9 213.8 220.6 235.9 245.2 252.6 259.1 263.1 263.3 263.1 261.5 263.8 268.7 273.9 279.7 286.9 297.6 312.1 321.3 325.1 329.3 329.7 331.9 334.5 336.7 338.2 344.1 351.4 357.7 361.8 365.9 369.6 362.4 354.1 346.1 334.3 322.6 309 298.3 290.9 287.7 284.9 285.2 289.1 290.1 287.2 285.6 282.2 278.3 271 264.3 254.9 249 244.7 243.9 243.8 247.1 253 260.2 267.3 276.8 286.9 299.9 309.9 318.7 323.8 321.9 317 312.7 306.2 297.3 289 280.5 275.6 275.1 274.5 273.2 269.5 262 253 244.8 238.5 232.2 225.3 219.1 212.3 207.4 203.5 199.1 196.1 193.1 189.7 187.3 184.7 182.1 179 176 173.4 169.6 164.4 160.7 158.5 159.9 161.9 161.3 156.4 142.7 137.6 135.2 134 133.4 133.6 132.8 148.6 168.7 184.4 192.4 196.6 197.6 200 204 210.7 217.6 225.6 236.8 248 259.9 270 280.6 289.3 294.4 299.3 303.4 303.9 302.5 300.5 294.8 292.5 288.3 282.8 278.2 274.3 270 265.6 261.8 261.5 267.3 271.9 277.4 283 288.2 294.4 300.3 306.3 308.6
379.7 386.9 386.7 387.6 371.4 359.3 345.9 335.5 325.8 322.4 319.4 316.2 313.4 310.9 310.4 308.8 306.3 304.9 303.4 301.9 300.7 300.9 298.9 296.7 293.1 291.7 289.7 286.2 283.7 280.8 277.8 272.7 268.3 264.3 260 254.6 250 246.4 242.4 235.3 227.4 223.3 221.5 220 212.2 213.8 213.9 230.7 243.4 251.1 254.4 260 261.6 259.3 256.6 255.6 259 262.9 268.5 274.9 282.8 297.4 308.5 314.8 322.1 323 323.2 324 324.6 325.5 328.8 334.5 341 347 354.6 361.2 361.2 357.2 353.3 344.2 330 314.6 303 291.5 282.1 276.9 275.7 278.1 278.4 279.1 279.1 278.5 276 272.2 267.3 261.1 253.1 248.4 247.1 246.6 248.2 252.1 259.4 267.2 277.2 286.9 298.1 309.6 322.7 331.6 332.5 328.9 324.7 320.3 312.5 302.7 292.8 283.6 275.1 271.7 268 261 253.6 246.1 240.1 232.8 228.1 221.2 215 210.2 205.8 201.7 199.2 194.9 191 188.1 185.4 183 180.6 178.1 174.4 170.9 167.8 163.8 161.2 158.9 154.6 155.8 159.2 160.9 152.3 139.1 136.9 136.1 135.2 134.3 133.3 142.2 162.6 180.2 191.4 197.4 198.6 200.7 203.6 206.8 213.2 220.1 229.8 242.3 255.8 267.3 279.1 289.7 296.1 300.7 303.5 307.4 308.1 305.5 300.8 297.1 292.8 288.3 282.7 277.9 272.8 268.2 263.4 260.7 259.9 263.9 270.4 275.9 281.8 289.1 296.4 302.4 308 311.1
382.3 392.6 393.9 384.5 374.4 357.9 344.6 334.9 327.4 324.5 321.5 320 318.1 317.3 316 314.3 312.7 310.9 309 307.1 306.1 308.1 306.5 303.9 300.1 297.7 296.6 295.3 292.5 288.6 284.1 277.4 271.2 265.8 261.3 255.8 250.4 245.7 240.8 232.4 226 222.1 218.8 217.5 213.4 211.3 223.5 240.5 248.7 254 257.7 259.9 259.4 256 252.7 252.4 254.9 259 264.4 271.8 283.2 296.7 301.4 310.4 316.3 317 317.3 317.2 316.8 316.7 318.5 321.6 327.4 338.8 347.3 351.8 352.9 354 349.5 338.4 321 307.5 296.4 284.8 274.4 269 268.9 269.3 269.3 268.2 267.8 265.8 264.7 265.3 262.3 256 250 248.3 248.8 249.3 252.3 259.6 267 277.2 287.6 300.5 310.1 319.7 333 337.4 337.9 334.5 329.9 322.6 312.6 303.8 293.6 283.3 272.5 263.5 256.1 248.7 241.8 237.2 231.4 225.4 219.7 214.5 209.7 205.4 201.5 196.5 194.5 190.8 186.8 184.6 182.5 179.8 177.4 174.2 170.4 166.7 162.6 160.4 159.8 157.8 154.6 153.8 153.2 155.7 151.7 137.9 135.6 134.3 133.6 132.9 133.1 154.2 171.6 186.7 194.5 196.6 198.7 201.6 204.4 207.8 213.5 222.6 234.7 248.5 261.9 271.9 285.3 296.5 302 303.6 304.6 308.8 308.6 305.3 301.5 296.5 291.6 284.8 280.2 274.4 269.9 264.6 261.5 259.4 259.5 262 268.4 275.4 282.6 289.7 296.8 303.3 308.6 312.6
390.5 398.1 392.5 386.6 372 356 344.6 335.2 330.6 328 327.3 326.7 326.1 326.1 326 322.1 319.7 317 314.6 312.5 312.4 313.4 314.6 314 311.6 309 305.9 302.7 298.5 294.1 286.6 278.4 270.6 263.2 258.5 253.8 247.1 241.4 236.1 229.4 224.7 220 215.1 213.1 211 210.7 230.7 243.9 249.9 255 258.4 258.3 256.5 252.5 249.1 248.7 250.7 254.3 258.9 269.9 283.4 290.6 298.5 306.6 309.2 309.6 310.3 310.4 309.1 307.7 308.4 314.1 320 329.4 339.8 343 346.9 349.4 342.3 329.5 313.5 301.1 289.2 277.7 268.3 263 261.9 261.4 260.4 257.9 256.1 255.3 257.2 257.7 255.1 251.1 249 248.6 250.3 251.9 257.7 266.1 274.4 285.6 298.1 309 319.1 331.9 341 346.3 346 338.5 329 320.5 311.2 301.2 290.4 280.9 269.9 259.7 249.6 241.8 237.3 233.1 227.3 221.3 215.4 210.4 205.5 201.7 197.6 193.2 191.2 188.1 185.4 183.9 182.3 180.1 178 173.2 168.8 164.5 161.7 160.4 159.9 157.7 155.3 150.4 146.8 150.4 150.3 136.8 134.3 132.3 132.1 131.9 147.8 164.7 181.5 190.6 194.6 196.5 198 200.4 203.2 207.4 215 226.8 239.9 252.8 264.5 274.5 287.9 300.4 308.1 309.2 308.8 306.8 303.6 300.1 295.9 290.1 286 280.8 275.9 271.7 268 264.3 262 259.7 259.1 261.7 267.9 274.5 282.1 289.5 297 302.8 307.9 312.3
392 394.6 392.7 379.5 366.3 353.9 346.6 341.2 337.6 337.2 333.8 333.9 336.1 337.5 334.2 329.6 326.4 321.4 318.8 318 317.9 319.2 320.6 321.2 320.6 317 312.9 307 301.2 292.6 282.7 274.4 267.3 260.6 255.4 250.6 244.9 238.4 233.2 227.7 222.8 218.1 211.5 209.2 209.2 218.1 236.8 247.1 253 255.9 257.6 255.9 253.5 249.9 245.6 244.6 246.1 249 256.3 269.5 279.6 288.2 295.6 301 302.8 302.5 302.4 301.6 299.7 297.5 299.2 305.5 312.9 324.3 332.1 336.4 343.4 340.8 334.3 322.5 308.1 295.2 284.2 273.2 262.5 257.2 253.5 252.9 251.1 249.5 247.2 246.7 248.7 250 248.8 248.6 248.7 248.2 250.5 255.2 263.9 272.3 280.3 289.1 302.6 315.8 323.9 338.9 349.5 349.9 346.1 338.6 329.1 319 308.4 296.3 286.8 275.3 264.7 253.1 244.8 240.1 234.8 228.8 223.2 218.4 213.5 207.6 202.5 198.8 195.3 191.6 189.7 187.3 186.3 184.8 183.3 180.7 177.3 172.4 167.6 164 162.4 162.3 161.8 159.1 156.5 153.9 147.9 146.1 144.9 135.8 132.3 132.5 131.8 145.4 160.2 174.2 186.6 192.7 194.8 196.2 197.6 199.2 202.3 208.9 217.4 229.4 242.1 255.2 265.6 276.8 288.4 300.4 306.1 307.2 305.8 301 300.2 299.4 295.4 291.3 286.3 280.9 275.9 271.5 267.7 265.7 263.9 261.1 258.6 260.6 266 272.3 279.9 288 295.5 301.9 307 310.1
387.1 391.6 388.4 375.6 363.6 355.9 351 346.3 344.8 343.3 341.4 343.5 347.6 346.5 342.6 338.6 333.4 328.9 327.5 324.8 325.4 326.5 327.2 327 324.1 319.7 314.6 306.8 296.7 287.1 278.2 269.6 265.1 259.4 254.2 249.3 243.3 238.2 232.6 227.7 222.3 215.7 209.9 208.4 208.1 224.2 241.5 250.8 255.1 256 255.5 252.6 250.6 247.4 242.9 240.8 241.3 246.2 255.6 265 274.2 282.7 289.9 294.2 296.2 295 294.5 292.9 290 286.9 290.4 297.3 309.4 319.3 326.6 338.2 342.2 337.5 328.3 316.8 304.8 293.7 281.6 269.3 258.8 251.6 247.1 244.1 242.4 241.4 239.3 238.8 242.2 243.1 244 244.7 245 247.8 251.5 259.7 269.7 277.5 285.4 293.5 309.4 320.8 329 339.4 348.7 350.2 346.5 337.4 326.2 314.8 302.2 292 281.2 268.5 256.8 247.7 241.9 237.5 232.6 226.9 221.1 216.4 212.1 206.9 202.1 198.3 195.2 192.7 190 188 187 186 184.8 181.7 176.1 169.9 167.2 164.6 164 163.6 162.8 160.2 157.8 155.9 152.5 144.7 136.9 131.1 129.1 140.3 151 163.1 173.1 182.8 189.7 193.5 195.3 196.7 197.4 198.2 201.5 209.1 218.4 231.4 244.8 255.6 265.8 274.2 285.3 294.9 299.1 298.9 301.9 304.1 303.4 301.9 298.1 291.7 285.6 281.1 276.8 272.3 269.1 266 263.7 261.3 258.1 258.6 262.4 269.4 277.2 285.4 293.4 300.4 304.9 304.6
384.1 389.5 385 375.1 366.5 359.4 356.2 354.2 353.9 352.4 352.5 357 359.5 357.1 353.4 346.1 343.6 338.3 333.8 329.3 331.7 333.3 332.6 331.5 328.7 321.6 311.3 299.9 288.6 281.2 272.4 267.6 263.8 258.7 253.5 249 242.7 237.5 231.2 226.7 220.3 212.6 208.6 207.7 214.5 228.2 241.9 251.3 253.6 254.1 251.7 248 244.5 242.8 240 236.9 237.8 242.6 250.5 259.6 268.7 276.9 282.1 286.4 288.1 286.6 285.3 283 279 278.1 283.2 291.9 304 312.4 323.4 339.6 339.1 332.8 321.5 313.3 303.1 292.3 279.6 267.2 255.8 247.2 241.9 238.9 236 234.2 233.1 233.7 236.5 237.9 240.2 241.7 244.9 248 254.6 264.7 274.8 282.9 290.3 299.2 315.3 325.5 334.8 346.2 352.9 347 340 328.9 318.7 310.1 298.5 286.5 274.5 261.7 250.4 243.8 239.3 235 230.4 225.9 219.8 214.8 210.5 207.8 205.3 201.7 196.9 193.5 191.9 191.3 190.7 188.8 186.2 182.6 175.8 170 166.3 164.5 162.5 161.4 160.3 158.8 159 157 153 144.5 132.4 130.5 142.7 157.4 167.5 175.9 181.5 186.1 191 194.2 195.3 195.9 196.6 197.3 200.4 206.9 219.6 231.3 245.1 254.5 262.4 270.6 281 288.7 294.1 300.1 304.5 305.1 304.6 301.5 296.9 293.7 292.4 287.2 281.4 275.6 271.3 268 265.1 262 258.6 257.2 258.5 264.1 272.4 281.1 289 295.8 297.9 297.8
373.6 379.3 379.6 372.8 370.2 370 367.1 363.4 362.7 361.1 363.4 367.3 369.8 369.1 363.4 358.3 354.3 350.5 342.9 335.5 336.2 335 335.4 332.1 324 314.6 304.7 293.1 283.1 274.6 269.9 265.9 261.6 257.1 252.4 247.1 241.7 235.8 229.8 224.9 218 211.3 207.3 207 214.7 227.2 244.7 247.2 248.5 248.9 245.5 241 238 237.7 236.2 232.7 234.3 238.4 245 252.7 260.4 266.2 271.8 275.8 277.2 274.8 274.8 271.5 271.1 270.2 277.4 287.2 298.4 307.9 323.1 338.5 335.9 326.4 318.2 310.2 302.5 290.5 277.5 263.9 252.9 244.6 238.5 234.6 231.5 229.8 229.1 229.8 232.7 233.5 236.5 239.6 243.9 249.1 257.8 268.2 278.3 285.5 293.2 302.3 318.4 330.2 339.6 347.3 346.1 342.9 334.4 323.6 313.5 302.5 291.2 278.4 266.3 254.3 246.3 241.8 237.3 232.8 228.4 223.9 218.6 214.1 211.5 209.4 207 204.7 201.9 195.2 197.6 195.7 192.5 188.6 185.6 179.5 173.2 167.2 163 160.9 159.2 157.4 156.1 153.9 152.3 150.9 147.4 131.1 134.1 146.3 155.8 165.3 171 176.3 181.6 186 189.5 191.6 192.7 193.8 195.1 196.1 199 206.7 218.4 230 241.7 250.6 259.7 268.6 274.9 280.5 290.5 299.7 304.6 305.9 305.4 302.9 302.7 298.2 292.5 287.2 282.7 278.7 274 270.1 267.4 264.3 261 259.3 254.9 260.5 266.4 274.4 281 284.4 286 285.8
358.4 363.1 366.3 371.9 376.5 375.8 374 371.9 369.2 368.6 370.8 374.5 376.9 374.4 372.4 370.8 364.8 361.7 353.4 341.6 341.7 335.1 332.9 322.7 313.5 308 298.7 287.8 278.3 272.7 268.6 265.9 260.9 256.4 251.6 246.8 241.1 234.7 228.9 223.9 217 212.8 206.9 206.2 210.9 228.5 236.3 237.7 239.9 239.7 235.8 233.3 231.9 231.5 230.9 229.4 229.8 233 239.2 243.8 249.7 255.2 259.6 262.7 263.2 265.1 266.4 264.4 263.1 264.8 272.6 284.8 293.6 305.2 324.8 340.1 334.1 326.7 318 310.6 301 289.2 276 262.7 251.5 242.5 235.6 231.3 227 225.8 225.9 226.7 227.3 228.1 232.3 238 242.8 251.1 258.7 269.9 279.8 285.7 292.9 303.3 319.6 332 338.6 344.2 345.4 338.6 330.2 319.5 307.6 297.3 283.9 270.1 257.9 248.3 242 238.8 235 230.8 226.4 222 217.9 214.4 211.9 210 208.1 205.6 203.1 199.4 196.9 194 190.1 185.7 180.8 174.5 167.3 159.4 157.4 155.6 154.3 153 152.2 150.2 147.3 144.8 127.5 131.3 154.6 160.7 160.6 163.4 168.3 173.2 178.4 182.7 186.1 187.7 189.3 190.8 192.2 194.3 197.6 205.4 216.8 228.9 240.3 250.9 261.2 270.3 277.4 285.2 294.7 300.8 306.1 309.4 308.5 308.5 305.1 298.9 295.5 294.6 290.7 287.2 280.8 275.5 270.6 266.6 262 258.1 253.8 255 258.5 263.8 268 271.5 272.9 272.6
338.9 345.6 362.5 372.7 379.8 382.1 380.6 377.3 376.4 378 379.7 383.4 383.2 381.1 380.4 377.8 371.4 368.9 358.4 347.3 339.6 332.4 325.6 317.9 313.3 303.4 292.3 283.3 277.4 273.8 269.3 266 260.9 255.8 251 246.2 240.1 234 229.1 223.6 218.5 214.8 208.3 204.7 204.4 222.1 227.3 229.7 231.5 229.3 226.3 224.8 224.3 224.6 223.9 222.5 223.4 227.9 231.7 236.4 241.9 246.7 250.5 250.9 253.6 255.4 256.5 257.6 256.8 260.5 268.1 280.1 290.9 304.9 328 336.9 331.7 328 324.5 315 302.3 288.8 275.7 261.7 251.4 241.7 232.4 226.9 222.8 222.3 223 223.5 224.1 225.3 230.5 236.4 243.3 251.6 260.1 269.9 277.9 282.9 290.7 299.5 314.4 327.6 338.1 344.8 344.2 334.2 321.9 310 300 287.8 275.1 262.2 251.5 244.8 238.3 235.5 231.5 227.3 222.7 218.3 214.5 211.4 208.6 207.4 205.6 202.7 200 195.4 192.1 187 183.3 176 168.4 160 152.3 150.6 151.6 150.4 148.2 146.6 145.3 144.4 143.1 127.1 130.3 137.9 158.1 162.2 163.4 162.8 164.4 168.4 173.4 177.8 181.1 183 184.1 185.6 188.5 190.9 195.6 204.2 214.7 226.2 238.1 248.3 259 270.2 278.3 288.1 297 305.8 308.8 310.8 312.8 312.2 306.5 309 308.2 302.7 299 293.5 286.2 279.3 273.7 269 261.9 256.4 251.1 239.3 249.6 252 254.9 257.9 259.6 259.9
323.6 340.5 356.2 370 379.9 381.6 379.6 379.3 382.1 383.1 385.2 386.8 384.4 382.7 383.4 379.8 373.8 366.8 356.1 347.4 336.5 328.5 322.8 318.7 309.4 297.9 289.1 284.6 282 278.4 273.5 268.3 262.6 257.3 250.4 243.9 238.1 233.5 228.6 225 220.4 217.6 214.4 206.1 203.9 215.1 220.1 222.7 221 217.8 217.2 216.1 215.9 216.5 216.4 216.6 217.6 219.8 225.7 232.3 236.7 242 243.4 243.4 245.4 247.5 248.3 248.6 250.8 256.7 265.1 276.6 290.9 306.4 325.3 333.4 334.8 334.3 324.5 315.1 302 288.7 275.1 262.4 250.9 240.2 230.3 223.7 219.2 218.6 219.9 221.2 221.9 223.4 228.7 235 243 251.3 259.2 266.1 274.2 280.8 288.5 296.5 310.3 325.1 335.8 339.1 332.5 323.1 313.2 303.4 294.3 282.5 265.5 254 244.9 237.5 233.4 231.2 227.6 223.7 218.6 213.4 209.7 207.1 205.2 203.3 199 195 189.5 183.4 178.7 172.3 164.9 157.2 152.3 149.7 147.6 146.7 146.6 146.9 145.5 142.8 139.8 136.2 128.8 128.9 129.1 132.9 147.6 156.8 157.2 157.7 160.5 164.7 169.5 172.4 173.7 176.4 178.7 180.8 184.1 187.5 193.6 202.7 212.5 224.4 235.8 247 258.4 269.2 281.2 292.6 300.7 306.4 310.6 315.2 317 317.1 317.3 313.9 311.4 308.5 305.2 299 292 284.7 277.7 269.8 260.8 250.5 240.1 234.1 238.5 242.9 246.7 249.4 247.2 248.2
317 335.1 353 365.9 372.1 372.1 373.9 377.7 382 383.5 382.2 380.9 379.4 381.1 380.5 376.6 370.7 363.9 355.3 345.6 338.9 332.3 327.2 319.4 305.4 294.8 292.3 291.9 287.6 284.6 280.5 273.7 266.3 260.1 252.7 245.2 237.6 232.9 229.3 226.4 222.9 220.2 216.8 213.2 206.4 202.6 210.9 211.1 211.8 211 209.7 208.9 208.8 210 211 211.8 211.8 214.2 220.6 226.4 230.6 234.7 236.7 237.5 238 239.2 239.8 240 244.4 252.5 261.8 274.5 291.3 307.8 322.3 332.8 341.9 335.9 324.7 311.3 298.5 286.2 272.8 260.5 249.1 237.6 227.8 221.7 216.6 215.2 217 219 219.8 222.4 227.9 234.1 242 250.2 258.1 264.8 271.5 278.2 285.6 294.5 308.5 319.3 328.9 332.3 324.8 316.5 305.9 294.9 281.3 266.9 253.6 244.7 237.5 233.7 229.6 226.2 222.1 216.9 212.3 207.9 204.3 200.9 198.6 195.2 189.6 182.7 176.2 170.9 161.6 156.2 151.5 151 150.1 148.7 148.8 156.9 155.4 154.1 151.4 148.7 144.8 127.6 125.7 128.3 127.9 127.4 133.1 142.7 147.1 153.4 156.2 160.7 166.2 165.3 165 168.7 172.6 175.8 179.9 185.2 192.1 200.9 213.1 225.1 236.5 247.8 261.6 272.5 283.2 292.5 300 306.5 311.1 316.7 321.8 323.4 321.8 317.9 318 316.2 312.1 305.4 295.1 285.4 276.2 267.8 258.1 247.9 235.6 228.8 228.4 235.3 240 240.2 237.7 234.7
312.2 332.6 346.5 357.5 359.5 364 369.5 374.8 379.2 376.5 374.7 373.2 370.9 371.2 370.3 369.1 366.6 360.7 353.1 344.3 341.6 336.4 329.5 320.6 307.5 299.8 298 298.1 297.6 292.9 287.1 280.6 273.3 264.5 256.4 248.6 240.4 234.6 231 228.1 225.3 222.5 219.2 215.5 210.4 203.3 201.6 201.4 203.1 204.1 203.8 204 204 204.9 206.3 206.2 205.6 205.8 213.2 218.4 221.1 224.4 229.3 230 229.9 233.3 232.8 232.3 238.1 248.7 260.4 276.2 293.7 307.3 320.9 334.9 339.2 328.5 318.1 307.7 295 283.6 269.9 257.7 246.4 235.2 226.4 220 215.6 213.5 214.2 216.1 217.9 222.2 227.7 233.3 241 249.2 257 263.6 270.2 276.8 284.2 295.4 305.7 317.2 325.5 324.8 315.4 301.6 289.1 275.7 263.8 251.6 244.7 237.5 231.8 229 226.9 221 216.4 209.8 203.6 200.6 197.2 194.3 191.3 184.8 178.2 169.7 165.6 157.6 154.4 154 154.3 154.5 155.9 157.3 161.8 163.7 165.6 165.4 161.7 157.6 152.2 137.2 127.9 127.5 126.9 126.8 132.5 127.5 132.7 140.5 147.5 152.4 156.3 156.8 158.1 162.1 166.7 171.6 177.1 184 192.2 203.7 217.7 230.2 240.9 252 262.8 272.9 281.6 291 300.1 307.3 313.4 317.4 321.4 323.8 323 323.8 324.5 321.3 315.7 307.9 297.3 286.7 275.2 263 257.9 247.8 239.4 228.7 221.1 225.6 227.2 225.1 222.3 224.8
308.3 323 338.9 344.8 348.3 356.3 364.5 368.9 369.7 366.9 364.6 365.8 363.3 359.7 358.6 361.7 361.4 358.4 353.5 348 345.5 342.7 335.3 324.6 313.6 307 308.8 308.8 306 299.5 293.8 288.1 279.5 271.3 262.2 253 244.2 237.9 233.8 230.3 227.3 224.8 221.6 218.1 213.6 206.3 200.7 199.3 198.6 198.6 197.2 199.5 200.3 200.8 201.3 201.5 199.6 198.8 202 208 211.7 216 220.6 221.8 224 227.1 224.8 226.5 235.5 249.4 262.4 280.5 295.6 305.6 318 332.7 329 321.7 312.8 303.4 291.9 279.7 267.3 255.6 243.9 233.6 225.2 218.5 215 212.1 211.7 213.8 217 220.6 226.1 231.7 239 246.9 255.1 263.6 270.7 277.9 284.3 294.6 303.5 312.5 316.7 310.9 301.2 288.9 272.4 259.4 249.7 243 237.8 233.9 228.8 224.6 221.8 215.5 208.5 200.5 197.1 193.5 190.6 185.5 181 176 167.9 162.7 158.8 155.8 156.9 157.7 159.2 164.8 169.7 173.4 176.2 175.6 171.1 171.3 168.6 166.6 160 148.2 136.3 126.4 126.9 126.7 131.1 126.3 126.7 126.8 130.9 139.2 144.9 147.9 152.1 154.3 162.5 169.5 178 185.6 196.8 211.7 224.1 234.3 243.7 255.3 263.2 272.7 283 290.2 297.1 305.1 309.9 312.8 315.3 322.2 324.4 323.9 324.4 319.6 312.2 304.7 296.7 287.2 273.6 262 255.2 248.7 240.6 229.1 219.9 216.1 216.4 215.1 215.9 221.8
298.9 310.8 324.9 331.7 343.4 351.2 356.3 357.2 357.8 356.5 357.6 358.2 354.1 347.9 346.7 351.6 353.6 353.1 350.7 350.6 349.9 346.5 338.2 328.8 320.8 319 318.5 313.4 313.3 308.9 300.8 294.6 287.6 279.3 269.9 259.7 249.4 241.4 236.4 232.6 229.5 226.5 223.1 219.7 215.2 211.4 206.8 202 198.7 198.4 197.1 196.2 195.6 194.6 194.2 196.5 194.4 193.4 195 197.7 201.8 207.2 211.2 211.4 213.5 215.1 215.3 219.5 232.5 248.2 262.5 279.9 292.6 307.2 317.8 323.9 323 316 306.8 297.8 287.3 276 264.2 252.7 240.5 232.2 223.9 217.5 213.9 211 210.3 211.6 215.5 218.9 224.3 230.5 237.6 245.9 255.8 265.5 272.2 278 284.2 292.9 300.7 305.3 305.5 300.4 284.9 268.3 257.6 249.9 245 238.7 233.5 228.4 225.4 220.3 215.1 205.4 198.7 192.4 189.2 184.2 184.7 179 173.5 168.7 163.6 161.5 159.7 160.1 164.8 169.8 176.7 180.5 182.7 185.7 185.7 184 181.9 178.4 174.5 171 164.8 156.4 141.6 136.9 127.6 125.3 126.3 125.9 123 123.8 123.6 123.1 126.6 134.1 143.1 148.3 157.5 167.4 177.7 189 201 214.3 228.1 239.4 251.3 257.2 264.2 272.4 279.6 285.8 291.2 297.5 301.8 307.4 311.3 317.9 322.3 320 320.2 315.8 309.5 302.4 293.8 283.1 269.6 255.4 250.9 244.5 236.4 227.2 217.7 211.1 208.8 211.5 213.3 221.2
292.3 305.3 317.3 329 341.1 345.7 346.5 344.8 345.6 348.7 349.3 345.4 338.6 333.1 335.2 339.9 343.9 341.9 345.6 347.8 351.2 348.5 342.8 335.7 330.8 328.2 325.9 323.3 320.8 314.7 308.4 304.7 296.7 287.7 275.4 264.8 254.4 244.5 239.5 234.9 231 226.6 224.3 220.2 216.6 213.4 209.4 206.7 203.9 200.7 196.9 195.4 194.6 194.8 193.4 192.1 190.8 190.2 189.8 188.8 189.4 194.2 198.7 199.9 201.7 205 207.7 213.1 227.9 245.2 260.9 278.2 289.5 309.3 317.2 315.9 310.6 306.8 297.6 294.4 284.6 272.1 260 248 236.5 230.3 222.5 216.4 212.7 210.1 209.4 211.5 214.3 217.9 222.9 231 239.4 249.4 259.9 266.8 271.1 275.6 282.3 290.1 291.8 292 290.8 274.4 263.9 257 249.3 245.1 240.4 235.4 229.9 225.6 220.6 216.1 208.9 197.2 190 184.2 180.3 176.7 174.1 170.2 168.4 167.2 167.4 165.5 169.1 175.6 180.6 184 188.2 191.3 192.5 192.8 191.9 190.3 188.5 184.9 181 175.9 169.3 160.4 153.8 141.8 136.2 131.9 125.4 131.1 126.6 127.8 124.9 123.9 123.3 122.9 128.1 144 150.5 162.1 175.4 192.2 200.7 214.5 227 241.9 251.7 258.3 261.7 265.3 272 277.9 283 286.1 292 298.8 301 306.3 314.7 315.6 313.2 308.3 301.5 294.9 285.6 275.8 260.7 251.5 243.5 238.9 230.2 221.1 212.6 207.4 205 204.9 212.9 226.4
291.2 300.4 314.5 331.2 337.5 336.2 333.1 332.5 336.9 339.1 335.8 330 322.2 320.9 324.3 330 330.1 330.7 336.2 342 346.6 345.5 342.8 338.7 335 331.1 331.2 330.8 325.1 321.1 320.7 318.3 307.9 295.4 282.3 269.2 256.1 248.3 242.1 237.5 233 227.6 224.8 221.8 217.7 214.7 212.3 210.9 209.7 207.6 204.2 203.8 202.4 198.8 195.4 192.9 191.1 190.2 189.4 188.5 187.6 187.3 186.8 191.9 196.4 199.9 201.3 211.1 223.6 236.5 253.7 271.7 284.3 300 305.8 306.9 302.7 297 297 290.7 279.9 267 254.8 242.9 232 225.5 219.9 215.1 211.8 209.5 209 210.9 213.6 217 222.2 230.7 240.6 251.1 260.2 265.4 268.8 270.8 275.5 281.2 278.1 275.8 262.7 257.4 253.1 247.6 244.5 240.4 236.3 231.8 227.2 223.8 218.5 208.8 200.5 188 178.7 174.5 174.3 171.9 169 165.7 167.8 171.5 173.4 177.5 182.1 185.5 190.8 193.2 195.1 197.5 198.7 198.4 197.7 196.9 195 192 189.6 186.2 180.2 169.3 161.5 154.9 148.5 141.6 135.4 133.2 133.4 136.7 136.6 132.8 124.4 123.8 122.8 124.9 143.2 150.5 166 189.8 199 210.4 221.8 233.2 241.7 248.6 252.1 254.4 257 266.8 270.9 274.4 280.7 285.9 290.9 296.8 304.4 305 303.6 298.7 291.3 283.1 274.1 264.5 254.9 245.3 239.3 232.1 223.5 214.3 206.6 202.8 201.3 204.6 216.3 228.9
292 302.1 315.7 324.8 325.4 321.6 319.3 325.5 327.5 325.4 321.4 315.9 311.4 311.4 311.6 314.3 315 317.7 322.9 330.4 336 338 337.9 335 332.7 334 338.6 337.3 335.2 335.1 333.3 326.6 315 299.8 287 272.6 260 251.3 245.6 240 235.7 231.4 227.9 224.7 220.5 217.7 215.8 214.2 212.9 212.3 208.9 207.6 206.2 204.8 202 196.5 194.2 191.2 188.4 187.9 187.3 187.4 185.9 184.6 186.7 193.8 194.8 199.1 212.7 229.5 242.2 258.8 275.6 286.2 292.5 292.9 295 293.3 289.8 282.1 270.9 260 248.2 237 228.3 222.4 217 213.2 210.5 208.9 208.6 210.2 213.3 217.1 221.3 231.2 241.7 250.1 257.9 263.2 264.1 264.5 266.7 267.8 266.1 256.5 249.9 244.8 242.9 241.5 239.1 236.3 233.6 229.5 224.5 217 205.7 196.2 186.4 176 169.7 168.5 169.5 168.6 166.7 169.1 179 184.2 183.4 185.9 189.2 196.3 200.1 201.1 202.6 208.8 211.7 206.4 205.8 204.9 203.2 202 199.7 195.7 187.5 179.6 169.9 162.7 155.7 152.2 148.3 143.8 134.1 135.9 138.5 137.6 136.2 124 123.5 120.8 123.4 135.1 154.4 173.2 185.9 203.5 210.9 216.5 221.5 227.5 231.3 235 239 245.5 254.5 263.7 269.4 273.4 277.8 283.9 292.1 293 290.1 285.3 277.7 272.3 265.8 255.4 246.1 236.4 230.4 225.4 218.4 210.4 203 198 198.7 206.4 217.7 229.9
291.5 306.6 316.3 317.1 314.4 311.3 314.5 313.5 312.9 311.4 308.1 302.7 300 299.8 299.4 300.3 302.3 304.1 309.8 319.7 323.3 325.4 326 327.8 329 337 343.9 346.5 342.8 341 339.9 334.4 319.4 303.4 288.4 274.8 264 254.5 248.6 243.1 238.7 234.5 230.7 227.2 224.3 221.2 219.3 217.5 216.6 215.6 212.8 211.3 209.9 209.1 206.5 202.1 198.3 195.2 193.1 188.8 187.1 187.2 185.6 184.5 183.9 183.9 185.8 188 190.9 208.7 224.7 240.2 253.9 267.7 274.4 283.5 286.2 285 278 271 261.9 251.3 241 232.4 224.7 219.5 216 212.7 210.7 209.1 208.8 209.3 212.3 216.4 221.9 231.5 239.9 247.6 254.1 257.6 258.4 258.9 259.5 258 252.8 246.4 240.4 237.1 236.2 235.2 233.1 231.3 228 223.3 213.6 199.4 185.9 177.7 173.2 168.2 165.8 165 166.3 171.4 181 185.3 190.3 192.8 192.7 196.3 201.7 205.8 207.1 214.7 220.5 212.4 219.2 217.6 216.4 215 214.4 213.6 210.1 206.1 198.8 189.1 179.7 171.7 163.1 157.2 155.1 151.1 144.8 133.2 134.5 136.8 135.7 134.5 123.2 123.1 123.7 123 139.5 156.1 174.2 187.9 199.4 204.6 207.1 211.2 216.9 222.3 227.4 234.5 240.8 248.6 257 263.6 269.5 275.2 281.3 279.5 274.4 269.9 266.8 259.2 251.8 241.8 230.9 224 222.5 217.4 209.1 205.8 199.8 195.1 201.7 208.6 218.7 234.2
292.2 306.9 311.5 314.1 310.5 309.2 305.9 301.5 300.9 299.1 294.7 289.6 288.9 288.5 289.4 287.6 286.8 291.8 299.7 306.9 310.5 312.9 314.8 318.3 326.3 335.9 346.6 351 351.9 350.9 350.2 336.1 318.4 303.4 287.1 275.2 264.9 259.4 253.8 247.3 242.8 238.6 235.5 231.9 228.2 225.6 223.4 221.7 220.5 219.1 217.1 215.1 214.5 213.4 210.9 207.3 203.5 200.1 199.6 198.2 197.2 194.8 194.3 191.6 185.6 182.2 181.4 181.5 181.5 187.4 204.7 226.5 235.6 253.1 264.1 271.9 273.9 272.8 267.6 258.7 251.4 242.8 233 226.5 221.4 217.8 215.3 213.3 211.2 209.7 209.2 208.7 211.5 214.9 220.9 228.6 235.1 241.5 248.1 252.3 253.1 255.3 254.7 250.3 242.9 235.8 233.1 232.5 231.2 229.6 227 221.8 215.6 204.5 189.4 177.6 170.6 163.7 164.9 163.4 164.5 167.7 176.2 188.7 194.4 197.2 196 200.9 205.9 206.6 209.8 212.8 216.6 216.5 215.3 215.3 228.6 226.5 225.2 224.8 224.6 225.3 221.3 217.7 211.1 201.8 190.5 180.9 171.6 163.6 157.7 155.4 150.7 144.8 140.8 129.6 134.6 134 134 123.3 124.2 120.9 125.1 141.8 157.2 172.6 182.6 193 198.9 204.3 206.5 212.6 217.9 222.5 227.3 234.2 241.8 253.4 259.6 262.3 264.9 266.6 264.2 258.4 252.8 245 235 228.4 218.9 216.7 214.5 207.3 200.5 198.7 194.7 197.5 204.8 213 222.3 237.5
288.6 296.8 303.9 306.4 306.1 304.6 300.1 294.6 290.7 286.9 281.7 278.1 277.3 278.7 278.3 276.7 276 278.2 285.6 292.6 296.2 299.3 303.7 310.7 321.9 335.6 345.5 351.2 354.1 355.2 346.8 330 313.4 297.7 283.9 274.7 269 262.5 255.9 249.8 247.1 243.4 239.1 235.2 234 232.4 229.8 227.3 225.2 223.1 221.5 220.3 219.3 217.5 215.6 212.8 210.2 208.3 208.9 207.9 206 202.2 200.1 200.4 199.2 194.5 185.9 182.5 180.9 179.5 186.7 203.6 224.1 235.3 247.6 257.9 259.7 257.1 250.2 245 241.1 234.1 227.7 223.9 220.3 218 215.9 214 212.5 211 209.6 208.9 210.4 213.6 217.3 223.4 230.2 236.1 242.8 248 251.1 250.4 248.8 239.1 229.4 227.9 227.8 227.4 225.7 223.8 219.3 207.4 196.6 181.3 169.5 163.6 162.6 162.9 163.2 164.5 168.1 178.8 190.3 197.2 201.9 199.4 205.7 209.4 212.2 214.3 216.7 220 224 226.9 217.9 233.7 236.5 241.1 235.4 235.4 237.5 234.8 231.1 227.6 221.2 210 202 192 181.9 171.9 164.2 160 155.9 148.2 146.7 141.6 134.3 128.3 134.3 127.7 122.7 122.8 119.3 125.2 140.9 154.4 173 179.8 190.1 195.8 197.8 200.7 203.6 211.6 217.9 223.2 228.1 236.3 247.1 250.3 253 253.5 250.4 242.9 235.9 228 221.6 214.9 211.5 210.2 204.8 199.6 196 190.2 190.4 198.3 206.6 214.5 226.3 241.7
281.5 293.5 297.6 302.9 305.1 303.3 295.9 289.7 284 280 273.3 268.1 268 268.9 268.8 268.4 267.8 267.2 272.1 277.5 282.3 287.3 295.9 307.7 320.2 330.7 339.4 345.2 351.4 349.2 334.2 317.6 303.7 292.1 281.7 275.5 268.8 260.8 256.4 254.1 250.5 246.5 242.9 240.9 239.3 236.7 234.2 232.7 231.4 230.8 232 230.1 228.2 226.2 224.7 223.3 220.5 219 218.5 217.4 215.1 211.7 210.1 209.7 206.8 202.4 197.1 189 183.2 180.1 179 187 199.5 219.2 237.8 243 244 238.3 242.5 238.4 233.8 228.1 225.4 223 221 219.8 217.7 216.3 214 212.4 210.9 209.1 209.1 212.5 216.2 221.2 226.3 233.5 240.8 246.7 247.3 244.5 236.6 227.3 220.9 221.9 221.4 219.9 218 214.8 204.1 189.9 177 163.2 162.6 162.2 162.1 163.1 163.9 172.4 182.7 191.4 198.7 204 206.3 211.2 213.8 216.7 219.1 218.7 222.8 227.4 230.9 227.2 228 240.7 245 246 248.1 249.7 246.7 244.8 240.8 236.3 229 218.1 209.5 201.5 193 183.8 174.2 166 162.6 157.1 150.9 147.1 140.4 136.3 131.7 127.6 124.9 122.6 122 118.6 134.6 140.1 150.9 163 170.8 177.1 184.3 189.2 193.9 200.8 206 212.3 217.4 221.6 233.3 241.8 242.4 236.8 232.2 227 221.4 215.2 212.8 210.1 206.2 202.5 198.4 192.4 187.2 184.5 190.9 198.6 208.1 219.5 231.7 247.3
275.3 287.3 294.9 301.9 302.9 299.8 292.1 284.2 279.1 275.2 268.5 263.8 260.3 258.9 258.5 258.4 256.3 255.6 259.2 264.4 270.8 278.2 290 301.6 312 320.9 329.8 340.7 345.4 331.4 316.5 300.4 293.1 284.7 278.5 273.5 264.2 260.1 258.6 256.3 253.6 249.7 245.4 241.9 240 240.4 240.5 239.4 240.8 241.3 241.8 240.5 239.2 238.4 237.1 235.4 233.4 229.9 229.5 228.6 225.8 222.3 219.5 218.8 215.8 210.9 203.6 195 189.4 183.5 178.2 179.1 190.8 208.4 226.9 230.4 230.1 231 235 230.7 228.1 226 223.3 222.3 222.3 221.7 221.1 220 217.2 214.6 212.4 209.7 209.3 211.1 213.6 218.2 223.3 231.8 238.1 241.2 237.6 232.7 227.1 217.6 213.3 214.6 213 209.9 206.2 199 186.3 176.5 167.1 162.3 161.7 161.7 162.2 164.9 172.9 185.2 195.9 204.9 208.2 209 214.7 219.9 222.6 225.9 227.6 224.8 229 234.4 241.9 244.3 242.2 252.7 258.7 260.7 259.6 259.1 256.1 255.2 251 245.2 236.9 226.4 217.6 209.2 200.8 192.7 184.9 177.2 169.4 163.2 156.3 150.1 144.1 139.4 134.6 134.7 131.6 126.3 122.7 121.6 121.5 134.8 139.2 146 155.5 163.5 169.9 173.7 183.5 189.1 197.7 205 210.1 210.9 217.9 222 222.3 219.5 218.3 214.1 209.6 204.1 204.3 201.5 199.9 197.2 193.5 187.6 182.9 183.4 188.1 198.8 215 225 238.5 254
259.6 275.3 287.3 293.2 294.3 290.2 281.2 278.6 273.2 267.9 263.5 259.7 255.6 251.7 248.9 246.9 245.4 245.4 248.5 253.5 260.4 268.3 280.7 293.5 300.7 314.5 327.3 330.4 318.4 308 295.5 285.7 280.5 277.7 274 267.3 259.4 259.3 258.3 258 253.6 249 242.6 242.3 243.2 244.1 245.6 248.8 250.8 251.8 252 252 251.7 250.8 250.2 251.5 247.2 241.9 241.1 238.2 234.1 231.1 229.3 227.4 224.7 218 208.4 202.9 194.9 188.3 178.9 177.4 179.8 202.9 215.8 220.3 220.8 221.2 221.9 221.8 223.4 222 221.6 223.9 224.1 224.5 224.7 224.1 220.8 218.9 214.9 211.1 209.4 208.4 210.1 213.9 220.8 228.4 231.4 229.9 229.2 224.7 217.3 206.7 205.2 205.7 203.9 200.8 195.1 182.8 168.3 164 162.1 161.4 160.9 162.3 167.1 179.7 192 200.4 207.4 216.5 219.5 222.3 225.1 230.3 233 235.4 235.3 232.8 235.3 240.9 246 252.2 256.4 264.1 267.6 269 270.7 269.9 267.3 265.2 260.5 253.5 244.8 236.2 225.4 217 208.8 200.5 193.9 187.6 180.7 171.3 162.8 154.4 147.2 143.2 139.1 138 136.7 129.8 124.6 124.4 118.2 132.2 136.5 140 146 152.7 157.4 163.2 171.5 178.2 188.1 195 200 202.4 204.9 204.9 204 203 202.2 201.2 198.3 197.2 196.4 194.1 192.5 191.5 189 187.1 180.9 180.9 184.2 196.8 216.3 231.5 245.2 261.7
245.8 260.9 273.2 280.6 281.9 274.9 272.9 273 267.7 263.6 260.3 255.9 251 246.6 243.1 239.5 237.8 234.6 237.5 243.4 250.3 257.8 272.5 283.1 297.7 313.7 316 299.4 296.2 289 279.9 276.1 274.4 275.8 268.5 259.4 254.7 254.1 254.4 252.2 248 242.2 240.5 244.4 247.5 250.2 254.3 258 259.9 261.3 261.2 260.9 262.5 264.4 264.6 263.5 258.6 253.7 250.4 246.1 242.3 238.3 237.3 235.3 231.5 222.3 215.4 208.8 201 193.4 187.1 177.4 175.7 188 201.4 209.6 211.8 212 213.2 216.2 217.4 219.1 221.5 224.1 227.6 228.5 229 228.4 226.4 223.1 218.5 214.7 210.9 206.6 206.5 208.5 215.9 220.4 223.6 223.4 216.8 210.9 203.9 199.2 197.6 197.1 195.3 191.6 179 166.8 161.4 161.2 161.1 161.3 163.3 177 186.6 199.4 205.8 209.5 216.3 221.9 229.5 232.6 237 240.7 244.4 245.5 241.9 239.8 242 247.2 251.5 258.1 267 273.2 279 279.8 281.6 280.3 278.6 273.4 266.9 261.1 253.2 241.6 232.1 223.7 215.3 208 202.2 197.2 191 183.3 173.2 163.5 153.6 147.1 144.9 141.1 139.1 134.6 128.1 122.6 120.9 118.5 132.2 135 139.1 143.7 148.5 154.5 159 165.4 173.7 182.5 188.6 191.8 192.5 193.5 192.6 190.6 189.9 189.6 189.4 190.9 189.4 187.4 186.7 184.7 181.8 182.1 176.7 179.7 185.4 197.8 217.4 235.3 251.5 269.8
233.4 249.3 257.3 262.6 263.4 267.9 273.8 273 267.1 262.3 258.1 251.3 246.5 241.5 237 233.9 229.4 226.3 228.6 234.9 241.8 250.7 263.5 277.8 293.1 296.6 283.3 281.4 283.3 272.6 270.2 267.9 268.8 265 258 251.9 248.7 247.8 247.7 243.3 236.7 236.9 241.2 246.3 249.3 254.7 259.8 264.8 267.6 268.8 270 272.2 276.1 276.2 275.2 276.1 271.6 267.1 263.7 259.3 250 246 245.2 242.9 234.6 226.7 220.2 212.9 204.7 197.1 191.8 187.1 176 175 183 195.3 199.1 200 203.1 205.9 210 214.4 220.9 226.4 231.4 233 234.2 234.6 232.5 227.9 222.6 217.7 212.6 207.5 200.7 201.8 210.1 211.7 211 211.1 202.6 196.2 193.9 192.8 189.5 188.9 185.7 175.6 164.1 161.7 160.7 160.4 163.4 174.6 186.4 200 205.4 213 217.8 221.8 227 231.7 237.2 240.9 246.3 252.6 253.5 253.5 249.9 247.9 247.8 253.2 257.2 265 276.4 282.9 286.7 288.7 287.8 287.6 282.7 280.9 275.7 268.2 258.1 247.6 238.5 229.4 224.3 218.3 210 205.6 201 195.3 185.1 173.2 164.4 157.2 152.8 147.2 145.6 140.5 132.2 124.8 121 120 124.2 123.5 127 131.5 136.5 144.2 149.6 153.8 160.7 167.5 174.4 177.6 180.4 181.2 182.4 181.3 180.8 181.4 181 182.8 182.8 180.6 180.7 178.7 176.6 172.5 176 180.6 188.6 206.3 224.8 241.4 262.1 275.8
219 233.8 238.4 240.3 247.2 256.8 264.1 260.6 259.4 259 254.2 245.6 240 234.9 229.4 227.2 222.2 219.1 221.2 227.6 234.6 243.3 258.5 272.6 276.6 268.9 265.6 269.2 264 260.2 262 262.8 261.1 255.4 251 246.9 242.7 242 239.4 234.1 232 234.6 241 246.5 249.7 254.7 260.3 266.4 272.2 274.1 278.1 283.1 286.1 285.7 289.9 287.5 286.5 283.2 279.2 272.9 262.2 256.9 254.5 245.9 236.4 231.3 226.8 217.9 209.2 200.8 195.2 190.2 185.6 176.8 173.5 174.6 184.3 189.6 192.5 198.5 203.4 214.7 223 228.5 234 236.5 237.6 236.3 234.2 230.9 225.3 219.7 214.3 208 200.5 195.2 200 200.8 199.4 196.4 193 188.4 186.6 185.3 182 179.6 172 162.1 161 160.3 160.8 169.3 180.7 198.8 207.9 213.4 217.1 222.3 231.6 234.7 234.9 238.9 245.1 249.9 257.7 259.8 259.5 258.1 256 253.7 254.5 258.2 262.9 272 282.7 289.5 292.1 294.6 295.4 293.1 292.2 287.8 280.9 273.5 264 253.7 244 238.5 231.2 224 217.2 213.5 209.3 202.9 195.3 185.7 176.4 167.9 162.6 157.5 151.5 146.1 139.2 130.1 120.7 119.8 116.5 119.5 118.1 122.3 126.6 131.1 136.6 146.2 150.9 155.2 160.5 163.1 166.2 168.1 170.4 173.2 174.5 174.1 174.6 175.2 175.2 174.2 172.3 166.8 173.1 177 180.4 186.7 199.6 214.9 232 251.5 269 281.4
205.4 217.7 220.1 221.5 231 240.9 241.9 241.4 244.9 245.1 241.8 236.5 231.8 226.7 223.4 220.1 216 212.7 213.5 217.2 225.6 236.2 251.9 260.9 255.8 250.1 252.5 248.3 248.3 250.8 254.5 255.2 253.7 249 246.3 242.1 237.3 234.5 228.4 226.2 226.2 229 237 242.9 247.6 250 254.2 261 266.4 273.7 283.4 290.8 292.6 297.8 300.8 303.6 304.2 301.8 298 291.4 279.9 270.3 257.8 247.9 243.6 239.1 231.1 221.2 211.7 203.8 197.8 193.2 188.6 183.6 176.7 171.8 172.3 183 186.7 191.9 198.9 215.6 223.5 230.6 237.1 237.3 236.9 236.1 233.7 230.3 225.2 219.9 213.9 208.3 202.7 194.6 189.7 191.3 191.7 187 183.2 180.4 179.4 177.4 175.2 169.2 162.6 160.7 160.3 160 169.4 186.2 205.2 218.6 223.8 229.1 220 235.2 239.3 241.4 246.4 250.9 255.9 260.1 265.3 264.5 263.2 262 261.2 260 260.2 263.4 269.6 279.1 288.2 293.8 297.6 301.2 301.4 299.7 299 295.2 288.9 280.5 271 261.2 254.4 248.4 239.2 232.4 227.8 221.6 215.7 209.3 203.3 195.1 186.7 178.9 172.8 166.2 160.6 153.9 146.2 139.5 120.9 120.2 119.1 117.1 118.5 118.7 118.1 121.7 127.6 134.9 140.3 147.6 150.9 152.7 155.3 157.4 159.8 162.6 164.6 163.4 163.8 165.5 168.2 165.7 164.7 172.4 178.4 182.4 188.9 196.4 206.7 221.4 240.5 257.6 272.4 285.3
194.7 203.7 204.9 206.5 212.9 217.5 219.7 224.9 228.5 229.7 227.2 225.5 224.6 220 217.1 212.9 209.7 206.4 207.4 210.2 215.9 228.6 235.5 239.3 237.1 244.5 237.7 233.7 238.4 244 246.2 246.4 244.3 244 241.1 234.6 230.5 225.9 222 221.5 221.3 223.9 228.6 234.7 240 243.9 245.5 246.9 253.2 265.3 279 289.7 296.6 305.8 314.1 318.8 319.8 315.9 308.7 304.5 295.6 283.5 269.2 259.7 254 248.5 236.3 227.1 215.2 205.3 200.2 195.6 191.2 185.3 181.2 171.1 170.4 173.9 179.4 185.2 195.8 214.6 221.5 231.1 236.5 236.2 235.6 234.7 231.8 227.9 223.2 217.8 212.4 206.7 201.3 194.2 188.8 186 183.7 179.6 175.6 172.4 169 168.2 166.6 162.1 161.1 160.4 160.1 165.2 183.7 199.1 219.5 227 233.1 232.7 243.9 248.5 254.5 254.9 258 262.7 266.4 267.1 269.5 270 269.1 268.3 268 265.9 266.5 269 275.7 284.3 293.2 298.6 302.1 305.1 307.7 308.9 306.6 302.2 297.7 287.7 278.6 269.1 264.7 254.7 244.8 235.5 231.7 225.8 220.6 217.4 211.5 203.5 195.3 187.5 179.8 176.3 168.9 160.7 153.8 149.1 136.3 121.6 120.2 119.8 118.3 116.2 118.1 118.2 117.4 120.4 129.2 135.4 142.9 145 146 147.9 147.7 147.8 149.1 151.3 154.3 156.6 156.6 164.7 173.2 179.7 183.4 189.2 195.4 204.4 213.6 226 243.6 258.4 274.3 285.6
185.2 186.7 190.2 197.7 200.9 200.7 205 209.5 210.9 212 212 213.9 214.7 212.4 209.9 205.7 203.1 199.7 201 205.4 210.8 216.6 220 221.8 228.1 228.3 223.2 222.3 229.4 230 234.8 234.4 238.4 238.7 231.3 225.4 221.8 217 217.4 217 216.6 219.7 222.6 226.6 231 232.9 234.4 237.6 242.9 255.3 270.3 281.3 291.9 305.9 317.1 325.3 328.9 324.1 317.1 311.3 302.3 292.7 284.1 273.9 261.3 250.7 240.5 229.4 219 210.1 202.4 197.9 193.6 187.6 182.6 176.1 169 168.8 173.4 179.3 188.9 209.2 219.2 227.8 231.8 231.7 231.2 230.7 228 224.1 219.7 214.7 209 203.7 197.7 191.8 185.7 183.8 182.8 181.8 178.8 175.1 167.4 163.4 161.6 160.7 160.8 160.2 162.2 178.5 201.6 212.8 218.2 233 236.8 240 260.9 270.1 269.8 268.7 269.6 273.1 274.7 272.2 274 274.4 275.5 274.6 273.6 271.8 273.2 275.6 281.5 293.3 300.8 305.1 311.6 316 318.7 318.1 314.9 310.1 305.4 295.2 285.3 276.5 267.7 256.6 246.1 238 233.9 228.1 224.6 219.2 214.9 209 201.7 195.3 185.4 182.5 182.3 169.6 163.9 156.3 150.1 138 120.7 120.1 119.7 118.5 118.2 118 116.7 116.1 118.4 123.6 133.5 139.7 140.5 138.2 135.2 137.9 141 145.9 153.3 161 168.2 174.3 180.5 184.7 190.5 197.8 205 212.4 219.5 230.3 247.2 261 273.3 282.8
168.8 174.8 181.4 187.2 190.5 190.5 195.6 197.3 199.6 200.6 199.1 201.1 201.9 203 201.8 197.6 195.2 194.1 195.3 200 205.9 211 212.7 213.3 217.2 215 210.3 213.9 214.6 217 223.8 224.5 227.3 223.7 217.6 211.1 211.8 211.6 212.4 212.1 213.4 216.6 219.5 219.2 221.9 224.1 226.2 229.9 236.8 246.1 258.3 272.5 285.7 302.1 313.3 321.7 328.3 325.5 318 311.5 304.5 298.6 290.4 278.5 267.8 255.7 243.4 231.9 221.2 212.6 206 200.2 195 189.7 184.3 178.9 172.7 168.2 168.8 174.2 178.6 195.8 216.6 222.4 226.7 227 226.7 225.9 222.9 219.6 215 209.3 204.1 198.2 193.9 188.7 182.3 179 180.7 180.5 175.3 170.3 165.7 163.2 161.5 161.4 160.4 162.9 165.7 195.2 209.6 217.5 227.7 237.5 242.5 254.3 268.2 275.9 278.3 279 281.2 282.4 282.6 279.5 277.6 279.4 280.9 279.6 278.3 278.3 279.9 283.4 293.2 300.6 308.6 317.7 323.6 326.8 327.5 327 325.1 320.9 311.6 301.7 293.8 282.2 271 261.1 248.9 240.4 234.6 229.1 224.1 218.6 215.5 210.8 206 200.5 193.3 192.1 185.5 182.2 171.7 167.5 159.9 155.7 137.2 120.2 118.8 118.6 118.4 118.4 117.9 116.4 115.1 118.7 119.5 126 128.9 130.6 139.2 145 150.4 156.2 163.3 170.1 176.2 180.8 187.3 192 196.4 202 209.2 217.5 225.1 233.7 248.1 259.8 270.5 279.7
155.2 164 170 176.9 177.5 181.8 187.8 187.7 189.6 191.2 190.6 190.7 192.6 193.1 192 190 188.2 188.6 189.8 194.1 198.9 201.5 201.9 204.5 204.4 200.2 201.6 204 203.9 206.5 211.9 211.8 209.3 206.2 201.2 203 206 206.5 207 207.4 210.4 213.5 214.5 214.2 215.1 217.9 221.7 224.1 231.6 241.1 250.7 262.6 278.1 295.1 307.7 316.9 322 320.4 316.6 307.8 299.9 295 287.6 276.1 265 254.7 240.8 230.8 221.7 216.1 209.9 204.1 196.1 191.2 186.6 179.2 174.1 166.8 166.3 167.5 172.3 182.2 206.9 215.3 218.1 219 219 217 216 213.7 209.1 203.6 198.7 193.1 188.7 184.6 176.8 173.4 173.4 174.1 172.5 166.1 162.3 161.8 161 162.8 171.4 178.3 189.5 200.5 209.6 222 232.8 242 250.6 263.1 268.1 274.9 281.8 287 290.4 290.3 288.2 283.9 280.4 284.3 287 286 285.7 285.4 288.7 295.2 302.8 311.5 320.8 329.3 335.1 336.9 339.1 339.3 335.6 330 320.3 310.6 299.9 289.7 278.3 266.2 255.6 246.7 237.7 231.5 224.7 219.4 214.9 211.6 207.1 202.9 200.1 195.7 194.4 186.3 181.4 176.2 170.1 163.8 156.5 138.9 119 118.7 118.9 118.2 117.8 117.8 113.8 117.6 117.1 118.8 122.1 129.7 140.5 144.8 151.1 158.6 166.5 172.6 179.3 182.9 187.2 190.9 196.6 202.4 210.7 219.7 226.4 235.1 246.8 257.7 267.5 277.4
142.3 151.1 159.9 163.9 167.5 171 175.6 178.1 179.7 180.9 181.9 181 181.4 180.3 180.5 180.6 183.7 184 183.8 187.6 188.3 189.5 191.9 192.9 190.5 189.8 191.3 193.1 194.5 196 197.8 197.4 192.5 190.8 194.5 199.2 199.6 199.7 200.6 201.2 206.8 209.6 209.4 207.3 210.2 213.3 216.2 218.2 227.1 237.4 247.1 259.6 273.1 287.6 300.8 310.4 314.7 313.2 306.2 300.4 292.7 289.6 279.7 270.8 259.5 247.4 236.7 230.1 224.2 218.1 212.2 205.8 199.3 194 188 180.2 175.1 169.6 165 164.3 165.8 173.6 195.3 206.4 209.1 210.7 210.9 208.6 208.7 207.1 203.6 198.4 192.9 187.3 182.9 179.3 171 168.9 167.9 164.6 165.2 162.1 161.5 162 164 170.6 176.9 186.9 197.5 208.7 209.7 225.9 234.2 245.3 254 262.2 268.7 275 285.4 290.8 293.2 292.2 288.4 285.2 284.7 289.7 293.7 295.1 293.7 293.5 297.3 302.9 313.8 323.1 330.8 339.4 345 350.6 352.6 351.7 347.3 338.5 329.1 320.3 308.8 297.1 287.8 276.2 263.7 252.7 242.5 234.7 226.9 220.8 215.8 211.9 207.2 202.1 199.3 195 191.8 189.1 184.3 179.7 173.9 168.9 163.8 159 146.9 129.1 119.2 119 119.6 120 116.6 109.6 115.3 116.6 117.3 123 136.4 143.5 147.2 155.8 164.2 168.8 174.3 179.9 183.9 189.1 193.7 201.6 209.8 218.3 224.9 238.5 244.2 255.5 266.1 274.8
131.4 144.2 146.7 150.5 158.5 163.7 166 167.3 167.3 168.5 169.5 169.1 171.2 171.3 172.3 173.5 178.4 178.8 178.3 180.1 178.7 179.8 182.4 181 180.9 181 182.5 184 184.3 185.2 186.4 183.9 181.2 182.2 186.6 188.6 188 188.4 189.8 197.8 202.7 204.3 203.7 201.3 203.8 206.8 208.8 212.6 223.4 235.2 244.1 258.1 271.7 285.3 293.5 300 306 302.7 297.3 288.3 285.4 280 269.2 261.2 249.1 239.8 234.1 227.2 221.5 216 212.2 206.7 201.6 196.5 191.2 184.4 177.4 172.8 169.2 164.5 163.3 166.7 179 197.7 201.2 203.2 202.9 201 200.9 199.5 194.6 190.3 185.9 180.8 176 171.7 169.2 166.6 163.4 163 160.9 160 162 166.2 170 175.3 183 193 201.3 208.6 218.3 229.5 238.1 246.7 255.2 261 266.9 274.2 282.7 287.8 288.2 288.9 290.5 288.9 290.9 294.9 299.7 302.9 302.4 303.6 307 314.1 323.1 331.1 340.7 350.5 357.2 362.4 364.9 363 356.8 350.2 341.1 330.5 318.6 308.6 297.5 284.2 271.2 259.3 247.4 235.4 227.7 221.7 216.1 209.5 204.7 200.2 195.7 191.7 187.8 185.1 183.2 179.3 176.4 172.3 168.3 165.6 160.3 153 148 142.6 138.2 129.2 118.3 116.1 112.4 116.8 114 117.1 128.2 139.9 143.2 149.1 156.9 163.1 165.7 171.6 178.4 183.1 188.6 194.9 204.3 211.1 219.1 230.5 246.4 254.1 265.6 272.4
123.9 131 139.6 139.7 147.9 153.3 158.1 157 157.9 159.4 159.7 161.6 164 164.1 166.4 168.8 173.1 174.7 171.7 171.7 171.9 171.6 172.7 174 174.3 174.1 174 173.9 174.2 175.4 173.4 170.9 170.6 172.9 174.8 176.5 177.6 173.7 185.4 195.8 198.3 198.6 196.7 194.4 195.9 199.3 201.4 207.8 220.2 234.5 244.9 258 272.9 282.9 290 292.4 295.1 291.2 284.4 278.6 274.1 266.5 258.5 248.7 241.1 235.1 229.1 223.2 218.9 215.2 211.3 207.4 203.1 198.3 193.3 187.9 181.1 175 170.8 166.9 163.6 161.9 161.6 185.9 191.5 193.5 194.5 193 193.2 188.9 185.3 182 180.1 176.8 171.4 168.8 164.9 162.3 160.1 158.1 158.1 160.3 164 166.7 173.8 179.2 187.7 195.7 202.9 211.1 219.7 231.3 239.5 244.8 250.2 258.7 264.7 271.6 277.6 280.4 283.4 288.5 291.1 293.2 298.1 301.2 305.5 309.9 311.4 311.7 315.2 322.1 331.3 339.5 349.7 360.5 368.5 372.5 374 371.9 367.4 359.7 350.4 338.6 326.6 314.3 301.6 290.3 277.2 262.6 247.8 235.2 227.5 219.6 213.6 206.8 201.5 197.1 192.1 188.2 184.5 181.3 178.9 176.3 172.8 170.2 167.4 163.7 160.2 155.5 150.3 143.3 138.8 134 129.1 116.8 115 114.6 113.8 108.5 115.6 129.6 138.9 141.8 148.8 154.4 158.2 165.2 169 176.8 184.5 189.1 196.5 204 211.8 225.6 239.3 252 264.6 269.7
123.9 124.2 126.3 131.1 136.2 142.3 147.7 146.4 147.8 147.5 150.9 155.3 158 157.5 159.1 163.3 167 168.4 164.9 162.8 160.3 158.3 158.1 162.5 165.8 164.3 162.9 160.8 162.2 160.7 155.8 154.4 159.2 160.7 162.5 163.5 161.5 168 182.9 189.4 193.2 192.3 189.6 187.4 188.3 191 195 205.8 223.3 234.8 247.2 261.8 275.4 281 287.7 291.5 288.6 281.2 275.5 268.7 261.7 253.3 247.1 242.6 236.6 231 225.7 221.2 217.7 214.1 210.4 206.9 203.1 199.2 193.7 188.6 183.5 179.6 174.6 173 168.3 161.7 159.3 166 182.8 185.1 185.6 186.3 183.5 180.5 177.5 175.8 175 171.9 169.4 163.3 161.2 157.6 156.3 157.3 161.4 163.5 167.6 171.6 177.5 183.5 189.6 194.6 201.5 207.8 217.3 225.4 233.1 239.8 248.1 256.7 264.1 269.3 274.5 277.8 282 287 293.5 300.3 308.4 311.4 312.4 316.2 318.7 320.8 323.4 330.2 338.8 348 357.9 368 377.8 382.7 383.8 380.1 374.7 367.1 357.8 345 330.6 318.7 306.9 293.7 278.9 262.3 246.3 234.1 225.3 217.3 209.7 204.2 199.7 195.4 190.5 186.2 182.7 178.9 175.7 173.2 170.7 166.9 163.2 159.9 155.8 151.3 147.6 142.7 137.3 133.6 129 115.7 114.8 115.3 114.4 114.6 113.3 114.1 117 131 138.1 145 152.3 156.1 164 168 175.7 180.2 188.2 196.5 204.1 215.3 231.3 244.2 254.3 263.1
126.6 124.1 123.5 123.4 126.6 133.4 137.1 140.6 141.7 143 142 148.3 149.2 150.8 151.8 156.7 160.2 160.5 154.8 152.7 148.1 144.9 140.3 144.1 146.6 145.1 144.6 142.5 140 138.5 136.8 137.2 138.6 138.8 142.7 146.3 144.1 160.7 173.4 181.5 186 183.8 179.9 179.7 181.8 184.4 191.4 208.7 228.4 238.7 252.6 266.2 273.9 279.7 288.7 291.2 284 275.4 266.8 259.6 251.4 244.4 240.1 235.7 231.7 227.6 223.6 220.9 217.8 214.6 211.5 208.3 204 200.4 195.7 190.7 186.2 181.5 177.9 174.9 172.7 170.2 162.5 159.3 166.5 176 174.1 175.6 171.1 168.6 168.6 168.7 167.1 164.1 161 160 158.3 154.3 154.1 158.2 163 166.7 168.8 173.1 180.5 185.6 191.8 198.4 205.5 212 218.8 225.4 232.7 238.8 245.2 255.2 261.3 266.8 271 275.8 281.9 288.2 296.3 306.3 313.9 317.7 318.7 322.9 330.3 331.9 332.9 335.8 344.8 355.1 364.7 375.3 384.6 389.6 390.1 388.1 381.8 372.7 360.6 345.8 332.6 319.6 304.3 290.1 275.3 259.8 244.9 233 223.1 215.1 207.9 201.8 198.6 194.7 190.3 186 181.6 177.3 173.4 171 169.2 166.2 164.1 159.8 155.8 150.3 145.5 141.1 136.2 130.9 129.4 116.9 115.8 115 113.4 113.2 112.9 111.6 112.7 112.5 128.3 135.3 141.6 148 153.7 160.7 169.7 174.1 180 187.4 194.9 204.9 219.1 230.1 242.9 253.4
139.6 130.1 123.2 121.7 121.9 121.3 124.4 135.1 136.8 138.6 139.3 141.7 144.4 146.3 148.5 152.1 153.2 149 147.5 147.7 145.3 142.6 139.6 139.1 142 138.6 137.3 135.4 133.6 132.4 132.6 132.7 130.5 127.9 125.3 125.7 130.5 142.3 152.1 162.4 173.9 174.8 171.6 172.8 173.9 179.7 193.5 211.4 227.6 241.8 256.9 267.2 273.4 280.3 288.5 283.9 275.9 267.8 259.9 254.4 246 237.7 233.8 231.7 229.6 225.8 223.3 221.8 219.6 215.6 212.6 209.2 206.3 203.4 199.8 195.4 190.8 184.8 180.6 178 174.9 173.9 172 169.5 159.7 158.7 162.4 164.3 162.6 160.9 159.2 160.1 160.9 161.2 158.5 156.2 152.2 152.8 152.5 158.8 164.7 167.7 173 175.8 183.5 189 194.6 201.2 208.2 215 221.5 227.6 237.2 245.3 251.6 256.9 262.2 266.5 270.5 276.6 282.6 288.7 298.9 308.8 318.2 322.5 326.9 330.1 339.5 343.1 344.5 346.7 353.4 362.5 370.6 380.4 389.1 394.9 397.7 393.8 385.2 375.1 360.9 345.4 331.5 315 298.8 285 271.2 255.7 243.2 230.9 221 214.2 207.2 200.5 197.4 193 188.8 184.3 179.8 175.5 171.5 168.4 165.8 163.8 161.1 159.2 153 148.3 143.5 137.6 132.6 128.2 125 124.8 115.5 114.5 114.4 113 113.4 113 108.4 110.9 111.6 112.6 129 137.1 143.4 152.7 159.7 165.8 174 179.2 186.1 196.1 206.7 215.8 227.4 237.8
149.1 139.9 139.2 132.7 123.5 121.3 121.8 121.8 124.1 129.9 136.6 139.2 142.8 143.1 147.4 147.2 147.1 145 143.5 143.1 142.1 142.1 141.4 140.9 139.5 134.4 131 127.4 125.5 124.4 123.7 121.8 120.8 119.2 118.6 120.2 118.7 118.3 125.6 139.8 157.6 163.8 164.6 162.1 165.4 176.2 193.7 206.8 223.3 240.3 257.3 265.8 275.6 282.1 284.2 280 273.6 264.7 258 250.6 241.7 233.4 229.2 227.3 226.2 223.8 222.5 220.4 216.7 213.7 212.6 211.5 209.7 207.3 203.8 198.4 194.6 190.5 186 181.6 179.2 176.2 173.3 170 163.6 161.1 157.1 156.1 154.8 153.8 152.5 152.2 153.2 158.1 156 152.7 149.7 151.2 154.2 159.5 164.4 169.3 174.8 180.8 186.5 192.9 197.2 202.1 208.2 216.7 225.3 234.4 244.9 252.2 259.4 264.6 268.8 272.8 276.1 280.1 283.6 288.1 300.4 312.3 319.5 329.3 335.6 339.2 348.2 355.3 358.6 360.7 361.7 369.8 376.1 384.3 392.6 397.9 398.5 393.1 385.3 372.7 356.3 342.1 325.9 309 293.3 278.9 264.3 249.7 236.8 226 219.1 212.8 206.2 199.3 194.9 190.1 186.6 182.5 178.1 173.7 171 166.4 163.8 161 158.5 155 150.6 144.4 139.3 134.2 132.2 130.1 128.6 128.7 117.8 114.5 113.1 112.9 112.4 112.7 111.1 109.9 110.4 111.4 112.2 118.3 132.5 140.7 150.4 158 162.4 168.6 173.1 184.4 194.9 202.6 210.2 219.7
158.2 147.2 156.3 151 146.4 132.9 123.1 121.8 121.2 122.7 123.2 125.7 138.9 145 144.7 145.2 144.8 142.3 143.1 142.1 141 141 137.6 136.3 133.6 131.3 129 124.1 125.3 121.6 120.8 119.4 119.3 121.5 122 121.7 120.6 120.8 118.6 122.4 132.8 146.6 151.6 151.8 157.7 173.4 187 197.6 212.4 228.5 246.3 259.2 273.5 280.6 279 276.1 269.4 266 257.6 248.4 240.1 232.9 227.1 224.3 222.5 220.8 219.4 216.2 214.8 214.6 214.1 212.6 210.4 208.1 204.8 201.2 197.1 193.2 189.6 185.9 182 178.8 175.5 173 170.5 167.1 156.1 155.4 156 156 152.2 151.2 149.1 150 149 151 148.5 149.9 154.5 161.5 168.5 173.4 179.3 184.6 190.4 195.7 199.8 203.8 210.3 220.2 231.4 244.2 252.8 262.5 268.5 273.9 275.3 277.1 280 283.5 286.8 289.8 302.1 314.4 325 332.9 338.7 346 355.1 365.2 370.2 373.1 374.7 378 383.5 390.6 396.8 399.2 398.1 389.8 378.8 366.7 351.8 336.3 319.3 303.2 288.2 273.1 258.3 244.7 231 220.6 215.6 210.3 204.2 198.6 194 189.5 184.5 181.1 177.2 173.2 170.6 166.7 163.7 161.7 158.2 155.3 152.5 147.3 142 136.1 131.1 130 128.6 128.2 127.6 119 114 113.7 112.1 112 111 111.1 107.8 110 111 111.9 112.3 126.8 133.8 141.3 154.8 164.2 165.3 170.8 180.2 190.7 195.6 201.9
155.1 160.3 162.1 159.5 159.5 155 139.7 129.7 122.6 120.1 120.9 122.4 122.7 123.3 132.3 143.3 143.5 138.9 140.6 139.3 138.4 137.2 133.6 129.2 127.4 124.6 124.7 122 121.6 121.3 119 120.8 122.4 122 122.7 123.7 123.5 122.6 121.1 118.6 120.1 125.8 134.1 137.3 146.9 160.4 172.2 184.4 199.8 212.5 229.1 243 258.6 272 274.3 272.6 272.5 269.1 257.6 249.3 240.7 233.4 227.2 221.4 218.3 216.3 215.2 214.7 214.1 213.8 212.2 210 208.5 206.1 202.7 199.5 197.2 194.4 190.8 187.2 184.9 182.5 179.6 176.4 173.4 171.3 169 168.2 167.1 165.6 163.2 159.5 155.5 151 151.6 148.5 148.5 149 155.4 161.5 169 175.8 181.9 186.9 191.6 196.7 202.2 207.9 214.9 225.1 241.5 252.4 260.7 267.5 273.4 277.3 279.6 281.8 284.4 286.8 290.9 296.2 303.1 315.1 325.8 336.3 346.1 354.8 362.9 375.4 383.7 387.1 388.9 389.5 390.4 394.9 397.7 398 391.4 382.9 371.8 359.2 342 326.8 311.7 295.9 280.9 265.7 250.9 237.6 227 218.5 213.8 209.5 203.7 199.2 194 188.5 184 180.1 175.4 172.7 170.3 166.9 163.8 161.6 158.9 157 154.4 150 141.8 134.1 131.2 129.3 128.3 128.1 127.6 125.5 123.4 123.2 116.6 111.4 110.9 110.6 110.5 107.3 107.5 111.5 111.2 112.1 123.8 132.8 138.6 149.4 158.4 165.1 170.1 174.3 181 188.5
168.8 173.3 171.8 166.9 163.5 159.9 155.9 145.8 138.8 132.6 124.7 121.8 120.1 120.1 120.7 121 125.2 128.4 139.3 136.2 131.6 130.2 130.3 127.6 124.7 122.1 121.9 121.8 121.4 119.6 123.6 123.8 124.1 126.3 127.2 127.2 127.5 125.7 125.2 122.6 119.2 118.4 121.3 124.6 131.4 139.7 151.6 161.6 174.2 193.1 210 225.8 239.7 252.5 266.7 272.7 271.9 265.7 255.6 247.2 239.5 232.5 226 220.3 217.2 214.8 213.6 213.3 212.4 211.2 209.2 206.1 204.5 202.4 200.2 199.2 198.1 194.9 193 189.9 187.1 185.1 183.2 180.9 178.3 175.5 172.8 171.4 169.4 166.6 163.1 161.2 157.8 154.9 146.6 147.1 146.6 149.2 159.4 162.8 170.9 178.1 183.7 190.5 196.2 202 207.7 213.7 220.3 233.7 249.1 259.8 265.6 271.6 278.5 284.4 285.6 287.4 289.3 292.7 296.4 300.4 306.6 317.1 329.1 340.4 350.8 359.7 371.4 383.6 392.9 397.3 400.4 401.5 399.8 397.5 398 394.4 386.8 376.6 364.4 350.4 333.2 317.2 300.4 285.2 271.8 256 242.3 231.8 223.4 217.7 212.8 209.4 204.2 199.7 194.6 189.8 185.7 181.2 176.3 173 170.5 168.4 167.4 166.6 163.9 160.4 155.5 151.6 145.9 137.5 132.6 131.7 131.2 130.3 128.3 126.2 124.9 123.8 124.7 125.7 112.4 110.3 110 109.8 109.8 107.6 112 112.4 113.3 124.8 127.3 135.7 147.4 158.8 159.3 158.2 168.8 178.1
184.8 186.8 187.5 184.1 179.6 168.8 164.7 159.9 157.3 146.5 138.4 129.5 125.3 123.9 123.7 121.6 120.8 120.2 120.8 122.6 124.5 123.1 122.3 121.4 121.9 122.2 122 119.3 119.7 125.3 127.2 127.6 128.8 130.1 131.7 135.6 139.1 136.4 132.7 131.8 123.4 118.5 120.9 120.8 119.9 121.7 129.7 140.2 152.5 169.4 185.3 205.7 223.6 239.8 253.6 260.1 260.6 255.8 249.8 242.9 235.1 229 222.5 218.4 216.4 214 212.2 211.7 209.9 208.8 208.8 208.7 207.7 206.5 205.6 203.4 200.8 200.1 196.6 192.5 188.9 186.9 184.7 182.3 179.8 177.7 175.4 173.4 171.1 167 162.5 161.8 159.1 154.6 148.1 145.8 145.6 148.4 159.1 166.3 173.4 179.8 186.6 193.5 200.6 206.2 211.9 219 228.3 242.7 254.3 263.4 270.6 275.5 282 286.8 292.5 294 295.5 297.9 301.7 305.8 311.7 320.8 333.4 343.6 352.3 363.2 374.7 388.6 399.4 406.3 409.4 410.5 408.3 404.3 397.5 391.7 380.6 368.4 354.3 338.2 320.9 303.3 287.2 272 256.7 246.8 235.2 227.7 220.6 216.4 212.2 208.5 204.6 200.8 196.1 191.3 187.5 183.3 179.2 175.7 174.3 174.8 174.6 172.8 169.1 166.3 158.9 152.5 147.1 143.7 138.7 137.7 136.1 135.3 133.6 129.1 124.2 120.6 119.4 122.8 113.6 111.1 110.2 109.9 109.5 109.7 110 111.1 110.3 111.1 123.4 126 133.2 143.8 150.4 151.7 161.2 172.3
198.8 205.8 206 203.6 200.1 190.2 183 173.5 164.6 161.6 157.5 150.5 145.6 137.9 132.7 127.9 123 122.3 121.8 120.3 119.9 120 119.8 119.8 119.8 119.8 120.4 127.8 130.5 128.3 131.3 136.7 140.8 143.4 148.4 148.6 149.9 149.2 144.9 137.8 136.2 123.6 118.3 120.9 120.7 120.4 120.1 122.2 133 145.5 162.6 180 198.4 218.2 232 242.9 251.4 250.7 242.6 237.6 231.4 225.4 220.4 217.9 216 214.3 212.2 211.5 210.6 211.4 211.9 212 212.2 211.5 208.9 205.3 203 201 198 194.4 190.7 188.5 185.8 183.4 181.1 179 176.7 174.8 172 167.5 164.8 162.3 159.8 154.6 148.4 146.3 144.2 144.9 160.8 168.7 176.3 183.8 190.1 197.2 204.9 211.1 216.1 224.2 235.2 244.8 254.7 264.3 271.1 275.6 282.5 292.1 297.1 299.7 299.5 303.2 306.6 311.4 317.5 326 338 347.5 355.9 365.9 379.6 395.6 406.3 413.6 416.5 416.6 413.2 405.2 396.6 386 373.4 356.1 339.6 324.9 307.4 290 273.3 258.9 247.4 239.5 231 224.3 218.3 214.1 210.7 207.5 203.6 200.2 196.6 192.5 188.3 183.9 180.4 178.1 178.9 179.2 177.8 175.6 171.4 165.8 158.9 151.8 148.2 145.9 144.5 141.5 138.9 136.8 132.1 128.2 121.7 119.5 117.6 118.4 117 112.1 109.9 110.1 109 108.5 110.4 109.9 109.6 109.7 114.5 123.4 124.4 128.8 134.1 141.7 156.6 162.8
213.6 221.3 224.4 223.4 220.3 214.9 206.1 198.7 188.6 181 173.2 168.4 161.4 155.8 152.3 148.6 144.6 140.9 135.9 138.7 136.4 136.2 138.3 142.7 139.8 143.2 142.5 142.4 143.1 136.8 142.2 150.2 154.4 154.7 154.7 153 152.2 150.8 149.2 145.1 137.2 134.8 129.2 118 119.4 119.9 119.6 119.3 119.3 126.6 140.5 156.3 175 191.9 210.4 224.9 233.9 237.9 233.3 227.8 224.6 221.6 221.2 219.1 216.9 214.4 212.1 211.6 211.6 212.4 214.1 214.6 214.9 213.3 209.9 207.7 205.4 200.5 198.1 195.2 192.3 189.6 186.8 183.8 181.2 178.8 176.4 173.1 169.5 166 162.4 160.9 158.6 152 147.6 145.7 143.7 143.7 163.4 170.3 178.7 188.5 194.8 201.1 208.6 212.8 221 227 235 242.8 252 261.9 268.7 277 284.8 292.2 297.9 301.9 303.3 306.8 310.4 315.9 323 331.8 342.1 350.9 357.3 366.6 384.9 399.4 411.9 419.5 420.4 416.2 409.9 401.3 391 378.3 361.2 343.4 326.4 310.7 294 277.3 263 251.1 241.2 234.8 227 220.8 216.1 212.1 209 206.4 203.1 199.7 196.3 192.7 189.4 184.3 180.8 179.7 178.7 176.2 172.9 168.7 163.7 157.7 153.4 147 145.6 145.4 144.1 141.7 137.8 133 126.4 122.8 118.8 118.1 116.8 117.4 117.4 115.5 111.7 110.7 109.8 108.7 108.3 103.6 108.9 109 109 117.9 122.2 123.5 125.8 131.7 143.2 151.2
223.2 235.6 241.8 244.7 244.4 238.1 230.2 221.6 210.2 201 192.9 181.7 175.9 172.4 172 169.7 170.5 166.7 163.6 163.9 161.6 158.4 160.3 159.4 157.2 159.5 160.3 159.7 158.3 149.5 155.9 161.8 162.7 163.5 164.1 163.4 162.6 161.2 155.9 150.6 148.5 137.4 135.1 131.8 122.1 118.1 119.4 119.6 119.4 119.2 121.7 137.6 153.2 171.5 187.2 202.2 216.9 220.4 215.3 216.6 217.6 220.1 220.6 218.6 215.9 213.6 212.2 211.7 212.3 213.5 215.2 216.2 215.4 214 211.5 207.8 203.3 198.6 196.2 193.7 191.1 187.8 184.2 181.2 179.6 178.2 175.2 171.8 165.5 162.4 160.1 159.8 157.6 153.7 147.3 145 142.5 143.3 163.9 173.1 183.3 191.7 199.1 203.7 208.8 213.2 220.9 226 233 240.5 248.9 258.7 270.4 278.8 285.6 291.7 297.1 302.4 307.6 311.9 314.7 320.5 328.6 337.5 347.4 355 360.7 370.5 389.6 403.6 414.7 420.3 417.8 412 403.4 392.4 380.8 366 349.3 331.7 315.9 298.1 281.7 268.7 256.4 246 236.8 229.8 223.8 218.4 214.3 210.2 206.9 203.6 200.5 197.6 194.7 191 188 184 180.6 176.1 171.9 167.8 162.9 156.9 154.1 153 149.7 144.7 143.2 141.4 140.3 137.4 133.5 125.3 122.9 120.8 120.6 120.1 118.9 116.3 115.9 114.2 113.9 111.4 110 109 108.6 108.7 109 108.6 109.1 109.5 120.1 121.3 121.7 124.2 129.4 135.2
228.9 243.4 254.6 263.9 271.9 267.7 257.3 245.1 231.5 219.4 216.4 207 196.3 189.7 191.8 194 188.4 183.5 182.1 181.4 180.1 179.5 177.1 177.3 176.2 176 174.6 171.3 165.6 164.6 169 173.2 174.8 175.7 175.7 175.4 173.5 171.9 169.8 162.8 153.2 148.3 137.8 135.1 133 128.9 124.3 117.7 117.6 119.8 119.3 120.4 135.2 152.6 169.4 178 187.6 194.4 200.9 207 213.7 217.8 218.4 216.3 215.1 213.8 214 213.5 213.8 214.6 216.2 216.1 215.6 213.4 209.3 205.7 200.1 196.7 194.2 191.8 188.3 184.6 181.4 179 177.6 175 172.9 165.6 163.4 160.9 160.5 160.4 158.9 156.5 148.3 144.7 142.5 142.7 164.5 177.1 184.4 194.4 200.1 202.9 205.9 211.6 217.1 224.6 232.2 241.6 249.8 257.7 267 275.7 283.5 291.6 297.5 306.7 312.4 317.7 321.3 327.6 332.8 341 349.6 356.1 363.2 374.7 393.7 408 416.6 418.6 415.1 404.5 391.8 380.6 368.1 352.9 336.9 321.1 305.8 291 276.4 264 253.1 243.4 234.4 228.2 222.4 217.7 213.3 209.1 204.2 200.6 197.2 194.5 191.8 188.2 186.5 184.2 182.4 174.5 169.4 165 159.5 155.1 151.2 146.8 142.5 139.1 138.3 138.1 134.9 131.5 128.1 124.3 123.1 122.3 121.5 121 119.1 116.7 119.5 117.5 119.3 115.9 111.3 109 109 108.6 105.2 107.9 108.5 109.2 112.3 118.2 117.5 117.8 122.3 127.6
235.6 249.9 264.2 280.7 291.6 290 282.7 276 259.7 247.8 240.1 228.5 218.9 210.9 206 203.4 201.6 197.1 195.7 192.5 190.3 189.1 187.3 185.5 183.8 183.1 178.6 171.3 174.1 177.6 181.3 184.1 184.4 184.1 184.4 183 180.4 178 173.5 168.8 164.2 152.1 147.2 140.3 134.6 132.8 132.2 131.2 125.9 118.4 116.8 119.4 118.1 129.5 147.9 157.1 167.4 177.4 187.1 199.6 211.8 216.5 217.3 215.9 215.8 216.1 217.5 216.3 216.2 216.9 216.1 215.7 215 212 206.9 201.2 197 193.8 190.7 187.6 184.3 182.7 177.8 174.7 173.8 173.6 169.9 163.9 163.7 163.1 163.6 164.8 163.4 160.6 150.7 144.6 141.6 140.4 162.2 172.5 179.4 185.8 192.1 194.1 200.4 209.5 217.5 224.8 233.7 240.6 249.6 257.3 265.9 273.9 282 290.7 298.6 308.4 316.4 322.5 327.4 333.4 338.5 345.8 351.8 357.8 366.5 378.9 397.9 409.4 415 415.2 407.3 395.7 381.7 368.2 355.1 342.9 328.2 315.4 301.9 287.4 272.9 260.8 250.7 241.7 234.9 227.8 222.5 217.8 212.5 208.4 204 200.1 197.1 194.5 190.2 186.1 185.4 182.9 180.9 176 170.7 164.6 157.3 147.6 142.9 139.2 135.8 135.1 135.3 134.3 132 127.2 128.5 126.9 127.6 123.6 125.3 124.9 125.1 119.4 119.7 121 123.1 123.5 113.3 110.1 109.1 107.6 107.5 106.5 108.1 107.7 106.5 106.9 113.9 115.6 118.5 119.8
240.1 253.3 273.2 288.1 292.2 287.8 284.4 284.6 276.9 265.5 257.6 247.6 236.3 227.5 220.2 214.3 209.3 205.7 202.6 199.8 196.7 193.1 190.3 187.9 184.6 180.8 179.2 178.9 182.3 188.2 193.5 197.7 199.7 196.9 194.9 193.3 187.5 184.6 180.9 174.3 168.6 159.5 150.9 148.8 144.8 140.4 134.4 131.6 130.9 127.9 124 116.7 116.7 118.6 127.1 143.4 152.7 163.8 176.8 188.5 201 205.8 211 215.8 218.3 221.4 220.6 219.6 219.6 218.5 216.6 215.6 212.5 207.5 203.4 198.2 194 190.7 187.1 183.8 182.5 180.4 176.4 175.7 170 168.2 166.9 165.9 168.6 167.9 169.1 169.2 167.8 165.5 159.7 149.6 141.1 139.6 159.6 162.1 166.8 175.1 182.9 192.4 199.3 209.9 217.8 226.8 236.3 244.7 254 260.7 267.9 276.9 283.6 290.4 299 307.9 316.6 324.8 330.8 337.1 343.2 348.7 354.7 360.7 372 386.6 401.6 410.3 412.5 405.8 396.6 386.5 375.4 362.7 349.3 336.1 323.1 310.2 296.4 282.4 269.6 260.1 251.3 243.2 235.7 229.6 224.3 219.1 214.1 210.4 207.7 202.9 199.7 196.5 192.2 188.2 185.6 181.7 176.6 169.3 161.5 157.2 152 146.6 141.4 138.7 134.9 133.5 133.4 131.4 129.4 127.5 127.7 128.1 124.9 124.9 126.1 127 126.4 125.6 122.5 123.7 125.2 125.7 123.6 113.6 110.5 108.2 106.8 105.7 106.5 106.4 106.1 110.3 106 111.1 113.4 114.3
241.8 259.1 276.5 287.9 287.8 285.5 284.1 282.9 280.5 275.4 266.2 254.1 245.2 237.2 228.4 220.6 214.4 208.6 204 199.4 195.7 192.1 187.7 183.2 180.7 179.8 180.1 184.6 192.2 202.1 209.1 214.5 211.4 210.1 208.6 203.6 196.8 189.5 184.1 177.5 172.6 166.7 158.6 153.4 149.4 148 146.3 140.9 134.3 131.5 128.9 124 119.9 116 116.7 124.3 137.3 150.1 163.1 173.6 188.3 201.5 208.9 216.7 220.6 223.7 223.9 224.9 222.1 220 217.2 213.1 209.5 205.4 201.2 196.9 192.5 188.5 185.2 183.3 183.4 181.5 175.4 175.7 172.5 171.8 170.4 171.9 172.9 172.6 172.9 173 171.7 169.9 165.6 158.2 144.1 139.3 150.9 162.8 175.8 185.9 191 196.4 203.5 212.1 220.2 229.1 238.7 249.7 258.2 266.1 273.1 280.5 287.5 294.8 302.3 310.6 318.4 326.3 334.6 341.2 346.5 350.7 357.3 364.2 378.1 391.5 403 408.3 404.2 396.4 391 383.1 373.6 360.6 347 333.8 320.8 306.7 295 283.3 271.7 263.5 255.2 246.8 239.3 232.1 226.5 221.5 217.6 214.1 210.6 205.8 203 200.3 197.7 193.7 190 187.9 183 177.4 170.6 162.2 152.6 145.5 140.1 136.2 133.7 130.7 130.1 129.8 128.3 126.8 126 126 126.9 127.2 126.4 127.5 126.7 126.1 126.5 126.3 125.5 125 124.3 122.2 114.4 112.6 109.3 107.8 106.4 106.7 105.8 106.6 106.1 105.4 108.8 110.7
245 261.5 274 282.6 283.9 282.1 279.8 278.2 277.1 271.6 265 253.5 245 238.4 230 222.5 212.7 206.1 201.6 198.1 192.8 187.3 183.6 182.5 181 182.9 187.6 196 205.5 216 222.7 224.6 221.3 220.4 217.9 213.2 205 196.6 189.7 181.8 174.4 169.8 162.9 160.2 159.1 152.7 148.5 146.5 144.4 135.7 131.1 128.9 123.4 119.3 118.8 115.9 125.5 136.2 148 163.7 178.8 191.8 205.5 217.1 218.5 222.2 227.2 227.8 225.5 222.1 218.8 214.6 210.3 205.1 200.9 196.6 191.5 187 184.4 184.7 181.6 174.4 176.8 182.3 180.1 179.7 179 177.8 177 176.4 175.9 176.1 175 171.8 167.9 161.5 147.9 141.7 158.5 168.8 181 191.2 196 200.2 205.6 214.1 222.1 231.6 241.6 252.6 261.6 270.2 278.9 285.9 293.7 300.1 307.7 314.3 321.1 328.7 337.1 345.1 349.9 353.2 359.1 370.4 385.1 395.3 398.9 397.8 393.8 390.7 386.7 380.2 372.1 359.1 348 337.4 325.8 313.7 300.8 288.7 278 266.3 258.9 250.8 242.9 235.8 229 224.1 221.9 216.9 211.5 208.5 206.7 205 204.3 201.4 197.6 193.7 189 180.4 172.8 161.9 152.6 146.7 140.6 136.3 132.9 132.1 128.5 127.8 127.3 126.6 126.2 126.4 127.2 127.8 127.8 128.2 129.5 130.1 128.9 128 127.5 127 124.5 123.8 124.3 116.5 115.5 113 109.8 107.3 106.5 105.6 105.2 108 105.2 104.9
246.8 260.6 271 276 278.9 279.9 278.7 275.1 272.7 266.8 260.1 249.3 240.8 234.1 227.9 220 211.1 204.5 199.8 196.2 189.9 190.2 189.1 184.3 185.4 189.5 197.7 208.9 219.3 227 234 234 230.8 228.9 224.4 217.8 208.5 201 193.8 186.3 176.9 171.2 169.1 167.7 164.5 160.5 156.1 152.2 148.6 144.7 137.3 129.1 128.5 122.3 119.1 118.3 115.7 127.4 135.7 151.5 167.1 180.8 196 202.1 212.6 223.3 226.5 227.9 226.9 223.2 218.9 214.2 209.5 205.1 200 194.3 188.3 184.7 182.6 176.1 173.3 178.9 186.1 186.7 186.1 185.5 183.1 179.7 178 177.1 176 176.3 175.6 172.6 168.1 160.3 145.4 143.7 160.7 171.5 181 190.2 194.7 199.5 206.9 216.6 226.1 234.4 246.8 256.3 266 275.8 285.1 294.2 301.2 306.7 312 317.1 324.5 333.5 342.1 347.9 352.3 354.6 362.4 375.4 384.3 387.9 386.5 386.3 385.3 382.7 380 377.8 370.8 360.1 350 340 327.3 315.9 306.2 294.4 282.2 271.5 262.7 254.9 249.1 240.6 233.8 228.7 226.6 220.3 215.5 213.3 211.3 210 208.7 206.3 196.2 188.2 183.1 179.9 170.8 160.6 152.9 146.8 141.3 138.9 137.3 136.5 135.6 133.1 131.1 126.7 127 127.1 127.5 128.3 130 131.5 131.7 133.4 132.6 130.9 130.8 132 126.6 125.4 124.9 124.4 121.5 120.9 116.9 113.7 107.9 106.3 104 103.9 103.1 109.7
248.9 258.9 267.5 275.3 278.5 278.6 278.4 275.7 268.6 262.8 254.7 244.9 236.1 229.1 222.9 215.2 208.3 203.2 199.1 194.8 191.7 193.6 193.6 192.8 194 203.7 211.7 223.1 229.6 238.5 242.2 241.6 237.1 232.8 227.9 221.7 212.7 203.6 195.6 188.2 179.6 175.6 173.4 171.2 167.6 163 158.6 155 152.2 148.7 145 138.6 129.8 126.8 122.5 119.3 119.1 115.6 130.3 135.3 152.1 167.8 178.8 188 198.9 213.1 217.8 220.6 219.8 219.3 214.3 210.3 206.4 201.2 195.5 191.1 186 181.8 170 171.9 180.5 190.8 189.8 188.5 188.4 186.2 182 179.1 177.4 176.5 175.2 174.5 173.1 170.7 167 158 141.9 141.8 159.9 169.9 179.8 188.6 193.7 201.9 210.2 221.2 228.6 239.1 250 260.3 271.4 281.6 291.3 301.5 305.8 310.4 316.7 321 327.7 335.2 342.1 346.6 347.7 350.2 365.2 372.2 373.7 372.7 375.3 376.6 377.4 377.2 377.5 375.4 367.8 357 345.3 334.6 326 316.4 310.3 298.6 287 278.6 271.1 262.5 257 247.4 238.3 233.6 231.6 225 222.7 221.8 217.9 214.4 209.6 204.2 194.3 186.1 181.3 175.2 170.7 162.8 153.9 145.7 143.7 141.9 140.1 137.8 135.9 134.1 131.8 127.7 127.6 127.8 127.9 128.2 137 138 136.6 138.2 138.8 134.4 135.8 136.3 132.8 129.1 129.7 127.8 124.9 123 119.9 120.1 117.7 109.1 104.9 104.5 103.5 103.5
253.2 260.2 269.6 277 280.1 279.8 277.3 274 266.6 258.1 249.3 240.9 232.1 224 218.3 213.1 207.7 203.4 197.4 199 200.3 197.9 197.3 199.4 206.5 214.1 221.4 228.2 238.2 246.3 249.7 248.4 243.8 238.6 232.3 225.7 215.5 206.4 198.6 191.7 184.1 182.3 178.9 174.4 169.8 165.4 160.9 157.3 154.5 149.3 145 144.4 139 129.9 125.4 121 118.2 118 121.4 131.9 136.7 148.7 165.6 174.5 186.7 197.9 203.7 208.6 207.3 208.9 207.6 205.3 201.9 195.4 192.8 187.1 177.5 164 170.2 180.5 191.5 190.8 190.9 189.5 187.1 184.1 181.2 178.6 176.8 175.4 174.1 172.7 171.1 168.4 164.8 155.9 131.1 139.9 155.8 168.6 177.3 184.8 194.6 200.6 211.8 222.9 233.2 242.7 254 262.7 275.8 287.7 298.3 307 313.4 318.4 323 328.4 331.2 337.6 343 346.3 344.8 347 355.7 357.9 356.5 356.7 360.9 366.4 370.3 373.9 374.6 371.1 365.1 354.1 345 335 330.2 323.5 314.6 303.5 293.7 286 278.5 269.5 262.5 253.4 245.4 241.4 240 236.8 234.4 229.5 222.5 213.9 206.1 200.3 193.9 187 180.6 173.5 169.3 163.1 155.5 146 144.9 143.7 142.1 140.3 137.7 134.4 130.3 128.6 128.4 128.4 131.5 138.1 142.8 144.1 144.7 144 142.6 139.5 141.9 140.5 136 137.7 138.6 134.6 130.2 125.9 123.6 123.1 122.8 120.5 111.2 104.7 103.8 103.9
256.9 262.7 272.8 279.4 283.2 282 279.2 272.8 264.7 255.5 244.6 236.6 229.4 221.4 215.8 210.8 207.6 201.8 202.7 204.5 205.2 204 202.8 208 216.3 222.9 229.4 237.4 248.7 254.4 255.9 254.7 250.8 245.7 239.5 230.9 222.1 213.9 206.1 198.1 192.2 188.5 182.4 178 172.1 167.7 163.2 159.6 156.1 151.3 146.3 143.9 142.9 139.8 130.3 122.7 119.3 118.6 116.3 130.4 132.6 134.2 145.6 156 169.5 184.2 193.9 194.7 197.3 204.4 207.2 203.7 200 185.6 182.5 169.1 159.5 174.7 182 192.6 190.6 189.6 188.5 186.4 183.1 180.9 179.6 178 175.9 173.8 172.4 170.8 169.1 166.9 164.7 147.8 132 136.3 154 165.7 178.2 189.4 197.5 202.7 216.5 228.1 236.7 245.9 255.5 265.5 278.7 292.3 304.1 315.2 323.7 328.3 331.3 334.2 337.3 340.6 343 342.1 337.8 335.2 337.2 340.2 343.4 344.8 351.6 358.1 362.5 367.6 369.1 364.8 358.2 352.5 347.1 343 337.8 329.6 318.6 304.6 294.3 288.1 282.2 275.3 269.5 262 257 255.4 251.7 248.3 241.4 234.4 225.7 217.5 205.7 198.2 189.7 184.6 178.8 171.5 165.8 159.5 151.5 148.7 146.6 145.5 144 142.5 140.1 138.9 134.1 129.5 130.1 135.4 141.1 146.6 152 153.4 153.6 154.5 156 154.3 149.7 146 140.2 142.9 142.3 138.2 134.6 129.1 126.2 124.2 123.9 124.4 125.8 122.8 118.5 118.6
262.1 266.7 276.1 281.9 285.6 283 278.4 270 261 251.8 241.8 232.6 226.2 219.6 214.2 209.4 206 203.5 206.4 208.3 209 208 210.9 217.1 223.4 231 240.3 248.8 255.7 260.8 262.4 259.3 255.1 250.4 243.5 234.7 225.7 216.9 209.4 202.5 197.8 193.6 187.3 181.4 174.9 170.1 165.5 161.6 157.6 153.5 149.9 147.5 144.8 142.7 141.1 131.4 120.4 119 118.6 116.9 129.5 130.6 132.6 144.8 156.9 168.9 175.8 183.1 191.8 196 196.3 194.6 184.5 167.8 160.6 153.9 171.2 188.2 190 190.8 188.5 187.1 184.6 182 179.7 177.7 176.6 175.5 174 172.5 171.4 170.3 169.1 168.2 166.3 147.7 129.1 130.4 149.1 164.8 178.7 190.3 201 210.4 223.5 234 242.2 251.6 261.7 272.6 280.3 296 310.1 320 328.7 333.9 335.5 335.6 336.4 339.3 338.5 331 326 323.6 323.2 328 331.3 336.1 342.3 349.7 356.7 360.2 366.2 365.1 361 355.9 353.3 348 339.4 330.2 320.2 310.4 304 296.3 291.1 284.7 279.4 273 270.1 268.5 263 255.7 247.4 233.2 220.9 216.2 207.6 196.8 187.2 182.1 176.5 171.8 166.8 157.3 152.1 149.2 149.6 149.5 148.9 146.7 144.8 144.1 133.2 130.5 135.8 144.7 151 161.3 168.9 169.5 167.3 167.6 171.5 169.8 166.3 161.6 152.8 148.9 143.6 139.5 136.3 130.3 128.7 126.6 124.4 124.1 124.4 125.3 125 125.6
267.3 272 278.2 282.1 285 281.4 275.2 265.9 257 248.4 237.6 231.4 225.9 219.7 213.3 209.6 207.6 207.3 209.4 212 212.3 213 218.4 223.7 232.2 240.1 249.6 256.6 262.1 268.4 267.5 266.1 261.5 254.7 246.8 238.4 229.5 220.7 213.2 207.7 202.7 198.6 193.7 186.7 180.1 176.1 169.7 163.8 160 156.5 154.1 152.5 150 146.8 145.3 141.6 129 120.8 118.8 116.3 122.1 127.5 128.9 132.3 144.3 149.9 162.2 170.6 175.6 177.1 182.2 182.2 166.5 152.9 148.2 171.7 184 190.5 190 188.1 186.6 183.1 180.4 178.4 177 174.9 173.1 172.3 171.7 171.2 170.6 169.8 168.9 169 168.3 158.7 129.7 128.5 145.8 162 177.1 190 202.6 214.8 229.2 239.6 247.7 258.3 268.8 278.9 286.6 299.9 312.9 323 329.6 333.1 334.2 334.1 334.5 333.3 329.4 319.8 314.9 311.3 313.4 317.4 321.3 327.8 333.8 343.5 353.2 361.1 365.9 366 363.5 358.8 354.2 348.3 342.8 335.4 327.6 320 314.2 308 303.2 297.3 290.5 284.3 280.4 271.3 261.1 252.3 243.8 231.4 218.4 209.6 205 194.6 187.5 180.9 173.9 170 165.8 159 155.9 153.3 153.5 151.3 150 149 146.4 141.5 132 131.5 143.6 152.5 164.7 175.6 181.8 184.6 184.1 182.2 181.7 179.9 176.1 170.1 160.9 156.6 149.3 142.6 138.8 135.9 133.4 130.6 127.3 124.1 124.3 125.1 125 125.2
271.1 277.6 280.5 283.8 284.7 280.4 273.1 264.8 255.7 246.3 237 230.2 224.4 219.8 215.6 214.7 212.9 211.7 212.3 215.5 217.8 219.2 224.9 231.6 239.6 246.8 254.9 261.3 270.1 273.9 275 276.5 269.6 261.3 253.7 245.4 235.9 226.6 219.7 214.1 208.2 204.4 201 193.6 187.2 181.2 175.8 169.5 165.1 161.3 157.8 156.4 154.9 151.3 148 145 139.3 128.6 119 117.9 118 119.2 122.7 125.3 129.2 137.1 144.7 151.4 160.5 166 168.4 165.5 146.8 142.6 162.3 179.8 184.3 184.9 184.8 183.5 180.7 177.6 174.8 173.1 171.9 170.6 169.8 170.1 170.6 169.8 169.3 168.8 169.3 169.6 168.8 161.1 145.8 124.5 142 159.8 175.3 189.7 203.7 218.2 233.1 245.2 256 262.9 272.7 282.9 290.2 302.7 311.9 319.3 324.3 331.4 332.3 330.1 329 326 318.7 309.6 303.3 302.1 303.9 308.8 312.3 320.6 330.4 341.3 351.2 360.4 366.2 366.3 363.9 361.6 356.5 351.2 345.9 339.6 334.4 329.1 323.8 319 313 307.9 300.1 293.4 285.1 274.2 261.8 250.5 240 230.4 216.7 207.5 198.6 194.4 189.8 182.3 171 167.6 163.5 161.3 158.1 154.1 151.1 148.2 147.3 147 139.6 133.5 130.9 138 150.3 161 172.9 182.9 190 194.7 196.8 196.2 193.9 191.1 187.7 180 167.5 161.7 154.7 151.2 145.9 142.5 138.1 132.6 129.3 125.5 125.3 124.9 125.3 125.2
276.5 280.2 282.4 284.7 284.8 280.1 272.4 263.2 255.6 246.2 237.9 230.9 224.9 221.2 221.5 219.2 216 217.2 220.8 222.4 224.3 223.9 231.5 239.2 246.3 253.6 260.2 267.8 275.9 283 281.9 281.8 275.2 269.2 261.4 253.4 243 233.2 228.4 221.5 215 210.4 208.4 200.9 193.4 187.4 182 175.8 169.6 165.5 162.5 161.3 159 155.5 152.3 149.1 144.3 136.2 126.5 118.5 117 118.6 118.7 119.3 122 127.3 131.9 139.1 147 151.2 156.5 145.9 137.7 153.2 166.7 174 176 176.5 180 176.8 173.9 170.4 169.2 169.2 168.6 168 167.7 167.9 168.3 168.5 168.8 169.1 169.8 170.2 169.7 159.6 144 124.5 138.7 158 175.4 190.9 207 222.7 239.6 251.5 260.4 269.5 276.6 285.5 292.1 299.7 312.5 315.4 319.7 322.8 321.8 323.3 321.4 315.1 308.3 299.2 293.6 295.4 296.8 302.5 309.9 318.1 328.5 337.9 347.4 357.6 367 369.5 369 364.2 359.4 355.2 351 346.4 342.2 337.4 331.9 326.6 321.3 314.7 308.5 299.1 288.8 274.4 261.5 249.7 240 227.1 212.9 205.4 198 192.4 188.1 179.5 168.7 167.5 167.2 166.6 162.2 156.4 151.9 145.6 141.9 138.1 135.5 133.2 131.9 140.8 154 166.5 178.5 189.2 197.7 203.5 206.7 206.7 204.1 200.9 197.1 192.3 181.5 172 164.5 161.2 155.2 147.5 142.2 137 131.2 127.4 125.2 125.4 125.8 125.5
281.4 283.4 285.8 287.1 285.3 280.5 274.4 264.8 256.7 249.1 241.3 233.3 227.3 227 224.5 222.1 223.4 226.6 229.9 232.6 233 234.5 236.9 244.6 251.2 258.1 265.3 274.3 284.9 292.1 292.6 288.5 285.8 281.3 271.9 261.9 251.1 242.6 234.6 229.1 222.7 218.6 217.8 211.5 202.6 197.4 189.7 182.5 176.3 170.7 168 165.9 163 160.1 156.8 153.4 149.6 144.9 135.8 127.5 118.2 117.6 117.9 118.5 118.3 120.7 122.6 126.6 134.5 137.3 137.7 135.5 141.7 155.8 159.9 163.3 167.6 168.8 168 166.5 164 162.6 164.2 164.6 165.7 165.5 165.6 165.8 166.1 166.9 167.6 168.4 168.9 169.2 168.3 155.3 142.9 124.1 137.2 160.1 176.2 192.4 212.5 225.9 241.1 256.3 269.2 274.5 279.1 286.6 292.7 293.8 301.6 306.3 309 308.1 308.5 311 308.7 304.4 299 288.5 285.3 286.9 292.1 300.2 308.5 318.3 328.7 338.2 347.9 361 370.4 372.1 370.2 368.9 366 361.7 356.4 350.4 346.9 344.4 339.5 332.8 326.3 319.3 311.3 302.1 285.6 270.6 256.2 242.1 234.8 225.5 212.2 201.6 195.2 190.5 184.8 175.5 171.2 170.6 168.5 167.9 164.2 159.7 154 149.1 144.8 143 140.5 135.5 133 142.2 156.5 170 182.7 194.2 204.7 211.5 214.7 214.9 213.1 209.5 204.8 201.3 195.7 186.9 176.5 173.2 163.3 155.7 149 142.5 137.9 131.8 128.1 128 127.5 125.8
288.4 287.3 288.4 289.7 286.3 281 275 267.9 260.2 251.4 243.5 236 231.9 230.6 228.4 229.4 233.4 237.5 242.3 244.6 246 245.3 243.7 248.8 255.4 262.4 271.7 282.3 292.6 300 300.6 299.9 295.5 288.2 278.9 270 260.1 251.7 244.1 235.5 229.5 227.6 226 219 212.3 205.5 197.2 191.5 184.8 178.8 174.8 169.5 166.3 163.9 161 157.8 154 150.1 145.3 137.6 127.4 115.2 117.1 117.7 117.7 118.3 119 120.2 122.7 125.1 135.8 135.4 141 143.9 148.4 152.3 155.4 154.6 156.1 157 154.6 153.5 157.1 159.6 161.4 161.7 162.1 161.9 160.4 163.4 165.4 166.1 166.7 166.5 163.2 149.5 139.3 123.5 133.8 162.7 178.8 194 215.1 229.4 244 258.8 272.3 283 282.7 281 282.4 283.9 288 293.3 296.3 292.9 294.3 296.6 296.5 292.8 288.3 277.3 278.3 279.5 285.6 296.1 307.6 317.9 328.3 339.2 351.4 362.9 371.2 376 376.8 374.8 369.8 365.9 359.5 354.1 349 342.7 339.1 334.3 327.7 320 309 296.4 282.2 263 249.1 239.3 228.8 221.5 211.3 201.6 190.7 186.5 179.1 174.2 172.2 171 169.5 169.1 168.1 167.4 165.2 159.1 148.4 141.9 139.1 135.1 133.9 143.2 157.5 172 185.4 198.2 209.8 218.5 221.8 222.2 222 220 215.5 211 206.1 202.3 195.1 183.1 175.2 166 158 151.5 144.9 136.7 134 132.1 131.4 130.4
294 292.7 293.2 292.8 290.8 284.9 278.4 270.8 262.8 254 243.3 236.1 237.8 234.1 234.6 238 244.6 249.6 254.6 255.8 255.1 252.8 250.6 253.2 260.5 269.2 278.1 289.3 299.3 306.4 307.9 306.8 301.9 298 289.4 278.3 268.8 261.8 254.1 241.9 236.8 237.5 231.2 223.7 216.9 209.2 204 198.3 192.4 185.6 180.4 174.4 170.7 167.7 164.7 161.4 158 152.6 150.6 144.8 139.1 128.3 114.4 116.6 117.6 117.5 117.8 117.2 117.1 118.1 120.1 124 129 132.5 133.7 137.6 140.4 140.9 140.1 142.5 145.2 148.2 153.4 155.5 156.4 157.5 158.9 160.2 154.4 156.5 157.9 160.5 161.9 162.2 159 143.6 134.6 121.3 142.1 167.6 182.9 195.4 212.4 230.2 248.9 265.9 272.3 278.1 277 273.1 270.6 271.8 271.8 276.2 276.2 278.8 281.5 281.9 283.2 279.3 273.2 268.9 271.3 274.6 282.2 293.7 307.4 319.7 331.2 343.1 355.6 367.9 377 382.4 380.2 377.5 372.2 366.7 358.4 350.1 341.4 339.4 337.3 331.5 324.2 314.1 302.8 291.7 274.6 253.6 248.3 238.1 226.5 218.4 210.4 202.7 194.8 186.4 176.6 173.8 171.6 170.3 170.7 172.6 172.4 170.1 166 159.8 152.3 144.5 137.7 135.8 135.5 142.9 157.4 172.7 187.7 201.3 212.8 222.3 227 227.3 227.1 226.3 223.9 220.1 215.5 213.1 210.9 203.7 191.1 180.3 169 160.1 151.9 144.4 141.4 140.1 137.6 133.7
302.4 303 300.7 298.7 295.6 288.5 282.1 273.3 264.1 256.3 244.9 243.5 242.2 239.4 242.5 249.6 255.7 261.3 264.4 265 264.1 260 256.6 257.9 265.4 274 282.8 294.9 305.1 311.4 314.7 315.9 313.2 306.6 296.6 286.3 276.3 267.8 263.2 253.8 246 241.6 235 227.3 220.6 213.8 208.7 203.9 197.2 189.1 184.6 180.4 175.6 170.6 167.1 163.2 159.1 156.3 152.7 147.8 140.6 136.1 128.6 121.2 114.5 114.6 114.7 115.1 115.9 117.1 116.7 116.6 116.3 118.1 120.2 122.7 125.7 129.2 131.6 131.6 133.6 138.6 143.8 145.6 147.7 146.4 144.9 144.7 144.8 147.3 148.8 152 154 154.6 153.4 139.1 125.3 125.9 151.9 170.3 184.4 197.8 213.6 227.2 243.3 258.8 263.6 263.6 261.3 258.5 263.5 266.3 265.7 263.5 262 264.1 262.8 264.4 267 265.3 262.8 259.2 264.9 270.6 283.2 297.3 311 323.3 334.7 347.1 361.1 372.8 380 384 381.8 377.6 372.3 364.1 355.1 345.4 335.7 327.5 325 324.3 317.8 305.5 292.4 277 262.6 247 239.1 232.3 225.2 215.9 208.2 198.7 192.6 185.6 180.6 175.7 174.2 173.3 172.7 174.3 172.6 169.4 165.3 159.9 151.5 144.2 137.9 136.5 138.1 143.4 157.5 170.8 186 202.1 214.2 224.8 230.7 232.4 231.9 231.4 230.1 227.4 224.6 223.9 224 219.3 208.7 196.8 186.6 176.3 166.2 157.4 148.1 145 141.9 138.6
