ncols 200
nrows 82
xllcorner 290000
yllcorner 191900
cellsize 50
347.1 347.6 341.8 336.3 331.8 323.7 315.7 317.5 321.8 328.4 333.5 340.1 349.2 355.7 360 364.2 368 368 370.1 372 381.5 378.6 380.1 398.7 413.6 423.7 429.4 435.9 451.3 458.9 464.4 473.3 483.8 492.8 500.5 506 513.4 527.7 539.3 545.6 551.5 554.5 554.5 551.3 547.9 527.4 472.6 438 408.2 384.1 365.8 355.6 352.4 350.3 350.3 350.2 348 344.3 340.9 339.9 333.6 317.5 314.5 312.1 305.9 297.9 287.7 287.1 285.3 277.3 271 263.5 258.6 266 268.9 272.4 276.7 281.5 284.1 283.9 282.1 280.1 276 271.4 263 262.8 257.3 248.5 242.3 238.2 233.2 230.4 224.7 221.7 218 216.7 214.4 210.6 205.7 202.1 186.8 189.6 188.3 185.1 181.7 186.4 194.1 198.5 201.3 204.9 205.8 207.8 210.5 210.8 211.4 212.4 214.7 215.5 216.3 215.7 214.6 213 207.4 200.1 193.4 186.9 182.3 174.3 166.1 158.1 155.7 155.8 153.7 154.7 153.7 153.3 153.9 156.1 158.2 162.3 169.1 179.3 193.8 202.5 209.1 220 237.6 257.8 275.6 293.6 311.3 330 351 376 390.6 392.2 390.9 388.6 385.9 381.5 371.8 354.7 333.1 317.4 312.2 311.8 309 308.5 304.4 298.5 287.9 284.8 280.8 267.8 274.4 282.2 288.5 296.4 302.3 310 326.6 352.1 372.6 380.2 386.1 391.2 394.2 396.3 403.9 412.7 419.7 426.8 422.2 417.4 411.5 405.4 395.5 383.3 373.9 365.6
377.1 377.1 366.6 357.2 349.5 343.4 338.3 332.3 332 327.7 326.5 326.4 336.8 342.2 352.7 362.6 361.3 350.6 354 380.2 372 383.1 395.7 411.7 426.4 435.4 441.3 445 448.7 454.3 459.8 466.6 474.2 483.8 495.9 503.5 512 525.4 538 544.7 550.6 554.8 554.8 552.5 549.2 540.5 487.8 450.5 420.3 394.1 372.5 359.7 354.7 353.2 351.7 353 357.5 352.8 348.1 342.5 334.5 322.4 314.8 307.6 302.1 297.7 297.1 296.8 291.5 284.4 280.5 277.8 264.7 250.4 254.8 260.7 266.7 272.6 275.7 276.7 276.3 272.2 265.3 263.2 258.7 252.7 247.1 238 231.3 228.1 222.1 219.1 216.3 211.5 210.1 209.1 207 205.4 202 199 186.6 188.1 182.3 187.8 196.2 200.4 203.5 209.8 214 216.8 218.2 221.3 222.5 222.2 224 227.1 230.1 234.3 230.8 227.1 224.4 222.1 218 211.9 205.2 197.3 189 182.6 174 165.1 157.8 155 154.2 152 153.6 153.2 152.8 154.2 156.2 161.6 166.4 173.4 190.1 198.4 205.7 213.9 230.1 250.9 267.4 286.6 303.6 322 343.3 366.2 380.4 384.1 386 382.2 374.2 365.2 353.1 338 322.2 313.8 307.7 306.9 301.9 299 294 290 280.5 278.8 277.2 268.3 267.3 276.4 284.3 291.3 296.2 306.3 326.2 353.3 369.9 373 381.6 385.4 389.2 392.2 397.4 407.8 414.7 422.2 423 422 415.5 408.8 402 393.6 384.7 376.9
394.8 397.1 391.8 378.4 370.6 364.5 359.9 355.8 355.4 353.5 348.7 339.1 336.4 336.5 338.2 343.8 342.8 351.7 357.8 364.3 374.3 390.1 406 421.2 429.4 436.3 445.5 454 458.8 463.1 468.2 475.8 483.2 490.3 496.7 502.2 510.8 522.8 537.1 544.3 550.6 554 556.2 554.7 550.8 545.4 507.7 466 436.8 407.2 384.5 368.7 360.5 356.4 355.1 357.9 365 361.1 353.5 345.5 339.8 333.2 326.9 320.6 315.4 310.1 305.2 300.1 295.2 286.4 282.1 281.8 272.4 267 258.7 245.8 256.1 264.2 267.4 268.3 268.5 265.8 260.9 255.3 250.8 245.6 241 230.9 225.6 221.1 216.3 213.1 211.5 207.1 205 204.2 204.4 195.7 189.2 186.8 185.1 193 198.5 204.1 209 216 223.1 224.7 225.6 228 233.3 235 234.8 235.6 238.6 243.9 251.7 254 248.5 240.2 238.2 235.4 230.6 224.2 217 209.5 201.9 191.9 181.5 174.3 163.7 157.8 156.3 155.2 152.8 152.9 152.7 153.3 159.5 161.8 164 169.7 179.4 189.2 197.9 209.7 226.2 243 259 276.8 295.6 313.7 334.8 350.5 364.2 366.7 366.9 358.5 346 339.3 330.1 322.9 312.8 308 306.1 302.2 299 293 286.2 279.3 270.2 270.7 271 266.1 255.1 268.8 278.3 286.8 291.4 301.3 324.5 352.6 365.1 367.7 371.9 379.9 384.3 386.6 390.9 401.1 410.6 416.8 419.1 422 420.1 413.6 406.7 399.4 392.1 386
403.1 405.1 406.8 403.9 398.3 391.3 387 382.6 381.3 378.7 373.2 366.1 360.2 356 351.8 347.3 341.6 352.8 361.8 368.6 377.6 392.5 410.1 418.9 424 431.5 441.9 455.4 464.6 468.4 474.2 483.3 490.8 498.1 505.1 509.2 513.9 522.3 536.3 544.6 550.7 553.2 556.2 557.2 553.7 548.3 530 491 451.8 423 400 380.7 367.8 360.9 360.1 361 370.5 365.7 358.5 353.9 349 344.2 338.5 332.5 325.4 317.7 311 303.9 297 289.4 286.3 284.9 277.2 268.6 264.9 251.4 248.2 255.8 258.7 259.7 259.8 258.6 254.5 248.7 240.3 234.2 234.1 224.2 219.6 216.2 212 209.2 206 200.8 194.8 191.4 189.7 187.6 188.1 192.2 199.9 204.2 211.6 215 220.2 226.5 232.4 235 239.2 245.7 250.1 248.9 251 254.4 256 264.6 273.7 275.7 272.7 262.2 255.9 249 244.6 237 228.7 221.2 214.3 207 194.4 179.8 172.9 162.6 158.5 150.5 153.5 152.8 152.5 153.9 161.7 161.4 162.4 167.9 174.3 183.1 192.4 206 219.5 234.9 253.8 269.9 286.4 304.3 324.1 338.5 348.8 349.4 347.1 342.7 335.7 327.1 320.3 313.4 305.2 303.3 303.7 296.8 296 291.6 285.5 272.9 261.9 261.7 263.7 259 239.5 260.1 269.7 275.7 283.7 299.3 323.5 348.4 359.6 363.6 366.3 374 379.5 382 386.2 396.1 405.8 412.2 413.8 416.5 420.4 419.6 414.3 406.2 398.6 392.2
412.1 416.5 423.3 424.4 421.2 416.2 414.3 412 409.8 405.6 400.6 389.6 378.9 370.6 366.1 355.3 360.4 354.9 352.3 371.9 381.9 391.7 403.8 412.3 418.3 426.9 440.2 456.1 466.6 472 480.1 489.1 497.3 504.6 510.6 516.1 523.6 528.3 536.8 545.4 551 554.2 557 558.2 556.8 551.2 543 514.7 477.2 440 421.4 398.9 381.8 369.6 369.4 374.8 384.2 385.7 385.2 374.3 365.8 358.1 349.4 342.4 334.7 324.7 315.6 307.1 299.7 297.2 294.3 289.4 280.7 279.3 270 254.3 237.3 244.8 246.7 248.9 249.4 249.2 247.2 243.9 236.3 229 225.9 219.9 216.5 212.8 208.8 205.6 202.7 196.8 191.1 190.2 189.1 196.6 201.1 204.8 208.2 215 215 221.4 232.4 232.2 233 237 244.3 257.5 260.7 263 269 273.3 276.5 284.2 291.6 292.2 293.8 293.3 290.2 277.6 269.2 257.4 242.3 232.7 227.6 220.2 207.2 192.7 177.7 169 161.1 152.8 153.2 154.6 152.5 152.8 154.8 161.7 162 163.6 168.3 179.7 187.2 201 216.1 234.3 251.9 267.9 279.5 292.7 311.2 326.1 336.4 340.1 338 333.6 326.8 319.8 310.6 303.7 301.3 299.4 294.2 287.4 286.8 286.1 282.8 272.2 257.2 252.1 255.8 253.2 234 249.6 262.3 270.3 282.6 296.3 319.8 341 353.7 357.8 359.4 365.4 371.9 377.1 381.3 389.7 400.6 407.1 409.9 412.3 419.8 420.1 418.2 413.9 405.7 398.1
420.9 425.4 434.7 443.7 445 440.5 438.7 437.4 433.5 429.2 423.5 414.1 393.9 382.4 375 360.3 371.8 373 378.9 374.7 369.1 383.5 391.9 401.3 411 422.7 439.1 456.3 468.5 474.9 485.8 494.8 502.2 508.8 514.9 521.6 529.7 537.6 543.6 548.2 551.7 555.4 558 558.1 556.6 551.7 544.4 535.5 499.1 476 447 424.3 405.7 389.9 381.6 393 402.9 413 413.9 397.9 381 368.7 358.7 350.2 342.1 330.2 319.3 309.5 300.8 298.8 297 289.7 280.2 267.2 253.4 250 242 234.1 231.6 236.4 237.8 239.4 238.4 235.9 231.2 225.2 220.6 216.3 213.3 211.8 204.8 198.5 195.7 193 190.8 192.5 202.8 204.6 209.5 214 217.4 223.7 226.2 231.8 235.1 238.3 243.2 248.5 252.9 266 271.4 276.4 281.1 290 299.7 299.6 302 304.3 306.5 307.7 305.8 300.4 290.8 276.2 254.8 241.7 235.5 227.8 216 203.2 192.7 179.5 167.3 150.5 151 151.5 153.3 152.4 153 161.8 162.4 159.3 163.7 171.1 182.9 197.9 214.7 233 245.5 260.9 271.4 280 295.8 311.7 321.7 326.9 328.8 325.4 317.2 308.2 299.7 295.1 295.2 285.7 281.8 277.4 273.8 274.8 275.4 272.5 255.1 244.1 243.8 245.5 223.6 239.3 253.4 263.9 280.2 295.3 314.1 331.9 347.8 352.5 354.7 357.6 364.6 372.6 376.5 383.2 394.7 403.5 406.5 410.3 415.6 419.3 418 414.5 409.3 403.6
426.9 431.9 440.3 451.3 459.2 461.5 462.5 463 461.1 457.5 450.5 437.7 412.9 394.7 385.9 367.1 384.5 388.3 390.6 391.3 394.3 395.9 395.8 397.7 395.5 412.3 431.6 452.7 467.5 475.9 486.3 496.6 503.7 511.7 517.6 525.4 533.3 540.1 546.5 551.3 554.5 556.7 557.3 556.7 554.4 550.5 544.5 540 531.3 507.4 481 459.5 438.1 423.1 406.2 408.7 429.2 437 435 415.7 394.8 377.6 365.7 355 345.8 332.9 322.4 312 303.9 296.6 292.2 283.1 271.6 274.6 268.4 263.3 256.1 247.3 233.6 222.3 225.2 226.5 229.1 227 223 218.5 215.9 213.2 210.5 207.1 201.2 195.8 191.3 197.1 198.3 206.1 209.6 213.2 218.3 223.9 230.3 235.1 240 244.9 251.9 259.8 261.1 265.5 270.4 278.5 285.2 291.2 302.1 310.3 315.8 312.6 310.3 313.4 317.7 318.9 317.9 315.4 308.9 297.5 273.6 252.1 242.4 235.2 224.6 212.8 200.4 189 177.6 167.4 160.6 157.8 148.1 152.1 152.5 162.8 162.4 161 158.9 165.9 176.1 192.8 212.2 233.2 241 245.9 258.8 269.8 280.6 295.3 306.9 312.4 313.2 311 304.4 295.8 286.6 280.9 277.6 276.9 274 268.1 264.9 271.4 271.7 267.6 251.1 242 232.9 233.3 228 227.5 243.7 258.1 274.5 289.6 307.5 322 340.2 346.8 349.5 351.6 358 366.6 371.6 378.2 389.2 401.2 404.4 408.4 412.5 416.9 416.7 414.4 409.9 404.9
431.7 436.4 441.4 450.7 461.7 467.8 470.1 471.7 473.2 472.6 467.8 456.3 429 408.1 398.5 385.8 399.3 409.3 414.6 418 420.7 423.2 426 429.4 422.9 404.7 418.9 444.4 460.6 473.5 484.4 496.3 506.9 512.1 516.3 526.6 534.1 540.9 547.2 553.5 556.9 557.3 557 555.6 553 549.3 545.4 541.3 533.7 516.4 509.6 500.4 478.2 457.6 426.2 449.5 462.3 479.5 461.6 423.2 395.8 380.4 364.5 356.8 348.7 330.2 322.9 309.9 301.6 293 287.1 291.1 287.1 283.1 279 272.8 265.6 257.6 244.3 234 225.5 219.1 215.4 216.9 212.6 210.8 211.2 210.3 207.2 207.1 202.4 208.4 206.8 208.3 212.3 217.3 222.5 225.9 231.4 237 244.8 254.6 260 265.3 271.5 274.7 279.8 283.2 293 301.9 304.6 317 326.9 330.4 330.4 325.4 318.7 319.8 323.3 324.7 324.5 323 319.4 311.5 299.5 275.5 253.6 241.7 232.9 220.9 208.5 196.3 187.1 176.1 166.4 161.2 154.1 152.8 147 152.1 161.4 157.1 149.3 161.7 171.9 184.2 203.5 227.9 235.5 239.5 244.7 255.2 265.4 275.5 291.1 297.7 296.4 292.6 286.8 279.3 269.5 263.5 259 262.9 262.2 262 261 267.1 263.2 253.2 244.2 240.3 232.8 221.6 222.3 218.6 234.5 252.8 267.8 283.6 301.5 312.8 325.6 339.3 343.9 346.5 351.2 359.4 365.2 371.2 382.8 398.5 403.7 407.2 413.4 415.5 415.3 412.9 409.3 405
433.5 437.9 441.6 448.8 460.1 468.7 472.6 475.8 477.9 479.7 478.3 470.3 446.9 423.5 412.3 406.1 402.8 417.6 432.3 437 446 451.6 454.5 453.6 445.5 424.5 418.5 432 456.3 471.3 483 494.3 504.1 511.7 518.2 525.7 534.3 541.2 547.9 554.3 559 559.2 558 555.4 552.3 548.5 546 542 535 526.9 517.3 505.2 496.5 476.4 467.6 483.9 488.7 494.3 464.9 425.6 394.7 380.2 363 359.5 349.7 333.7 324.6 310.7 303.8 299.7 298.5 296.6 292.1 288.5 283.9 280.2 274.5 265.1 259.1 250.2 237.3 232.8 228.6 223.8 225 220.5 219.3 217 215.7 209.9 206.4 214.8 214.3 216.5 220.6 226 232.3 239 246.8 254.8 261.6 274.2 279.7 285.5 293.1 300.2 307.9 318.2 329.2 333.2 333.1 339.6 343.1 347.4 345.4 333.9 327.4 326.1 324.7 324.9 325.4 325.9 323.9 319.1 310.2 297.6 268 245.3 236.7 227.9 217.1 205.3 192.5 180.9 172.2 167.4 158.7 152.5 152.2 150.1 147.9 150.8 150.6 158.5 168.5 178.2 195 215.5 229.9 233.7 236.4 240 242.6 251 260.2 266.3 272.8 271.3 265.9 261.6 252.3 246.6 244.2 248.2 252.1 243.6 255.4 249.7 253.5 237.8 236.7 236.7 231.9 222.7 204.3 211.7 230.8 247 262.4 277.5 298.5 306.1 312.7 321.4 330.5 338.7 342.9 350.6 361.4 368 380.3 394 402.3 405.7 411.2 414.3 413.7 410.8 407.2 403.6
431.7 436.6 440.2 447.4 457.8 467.3 473.7 477.3 480.9 483.3 484.9 481.5 465.6 445.2 434 427 419.4 410.7 428.4 443.1 456.2 464.9 470.5 471.6 465.9 444 424.6 428.6 448.4 465.6 480.1 491.1 500.5 507.8 518 525.6 533.8 541.1 548.4 555.1 559.6 559.4 558.5 555.1 552 548.7 544.8 541 536 528.9 518.2 505.8 498.2 487.9 495.2 497.6 498 499.5 467.4 427.9 395.5 369.8 358.1 357.5 349.7 339.1 326 316.5 316.2 315.2 311.6 308.4 304 301 296.2 289.6 280.5 277.2 270.1 263.7 253.7 246.8 241.5 235.4 232.7 232.3 227.6 224.2 223 218.7 211.6 220.5 222.3 226.7 230 236.6 244.5 254.1 264.9 276 284.9 293.3 301 313.4 324.2 328.3 335.5 345.5 348.1 349.4 348.2 348.1 348.1 351 351.2 346.4 333.1 328.6 325.2 322.2 321.6 323.4 322.5 320.3 313.8 306 277.1 249.1 238 229.6 220.5 210.1 197.2 185.8 177.7 169.1 163.2 154 152.7 152.7 152.8 152.1 150.9 149.8 161.4 173.3 189.7 204.6 217.2 226.8 218.6 231.4 234.3 236.2 241.1 244.8 246.7 245.4 242.3 235.5 229.9 224.5 225.3 230.2 232.8 232.7 233.7 232.3 231.4 228 229.8 230.1 227.4 221.4 204.2 208.2 226.7 241.4 256 272.8 295.3 300.1 305 310.3 315.9 324.8 333.4 342.5 355.6 364.7 378.5 390.4 399.3 403.5 406.9 411.6 411.4 408.6 404.8 401.7
431 435.8 439.2 443.8 451.4 461.8 471.8 478.6 483.3 487.6 490.4 488.1 482.3 472.2 457.2 448.1 442.5 431.2 426.9 427.5 449.1 466.6 476.2 479.2 476.6 463.4 445.6 427.3 432.9 453.5 470.5 486.3 496.4 503.6 514.6 524.9 532.6 540 547 553.7 558.4 558.4 558.5 555.1 551.6 549.1 544.8 540.4 535.4 529 516.5 505.9 501 500.9 500.5 502.1 502.5 503 483.1 430.6 394.7 366.3 353.8 351.6 350 344.3 332.7 331.5 332.1 332.1 331.2 328.2 323 317.7 312.7 304.3 295.9 288.7 282.1 275.8 268.2 260.3 253.3 248.6 247.3 241.8 236.4 232.8 229.9 218.6 220.6 227.3 230.5 235.6 240.6 249.8 258.8 273.2 289.8 302.5 313.3 319.3 328.4 340.1 347.2 351.7 355.2 357.5 357.8 355.2 351 347.3 347 348.8 350 348.1 334.7 325.9 322 318.7 315.6 317.8 316.5 315 310.2 304.6 281.8 250.2 236.5 230.5 223.4 214.7 203.6 191.2 179.5 170.1 165.9 159.7 153.8 154.2 152.8 152 151.9 150.2 155.7 165 179.2 194.6 206.2 204.7 218.5 223.8 228.3 224.4 226.9 226.6 225.1 222 219.7 211.2 209.3 203.7 207.6 213.4 213.9 218.2 223.5 224.2 223.8 215.9 218.9 221.5 219.7 215.7 195.4 206.3 222.1 234.2 248.2 261.2 279.6 292.4 297.9 302.6 307.1 313.7 321.4 334 347.8 359.5 374.2 387.5 394.8 399.9 402.3 405.6 407.5 405.6 401.7 399.1
431.9 433.3 436.9 440.1 445.4 454.4 467.2 477.8 485.1 489.4 492.9 494.7 493.5 488.5 480.7 471.1 462.5 458.1 456.8 454.8 450.2 466.6 481.6 487.4 485.6 481 464.3 451.8 434.2 437.9 456.9 475.5 491.3 501 511.3 522.3 530.6 538 545.1 552.2 557 558 557.7 555.9 552.3 549 544.4 539.5 533.7 527 513.4 505.8 504.7 504.4 503 504.1 505.7 505.5 490.7 439.5 405.2 374 351.4 349 348.5 346.3 342.7 343.5 343.6 345.4 344 342.4 341.7 340.9 338.2 331.5 323.4 311 302.7 294.5 282.1 273.8 267.4 261.7 256 249.6 244.8 239.7 235.8 213.9 230.4 233.7 238.4 244.3 253.8 269.5 281.5 293.1 314.5 330.7 338.3 342.8 350 356.5 359.2 361.4 363.4 363.6 361.1 356.7 351.4 345.9 339.4 340.2 345.3 344 334.2 323 318.4 314.1 308.1 309.1 308.5 305.6 303.2 298.1 286 258.8 239.5 229.4 222.4 215.7 206.4 195.3 185.8 174.3 166.9 161.7 155.7 154.9 153.3 151.8 151.6 151.3 146.8 153.9 167.3 180 189.3 200 199.8 211.7 214.1 213.9 214.9 212.7 207.8 203.5 199.3 193.8 189.4 187.2 190.5 197.2 204.8 208.4 210 214.1 212.7 205.1 208.1 210.6 210.2 207.3 188.3 201.2 216.8 226.3 238.5 247.8 264.5 276.2 288.1 295.5 298.9 302.1 310.8 323.1 337.3 353.9 365.2 384.5 392.2 397 398.2 400.3 402.4 401.3 397.6 394
448.5 443 438.9 438.6 439.6 447 464 476.6 485.8 489.7 492.9 500.1 503.9 503.9 500.1 495.4 488.3 484 483.6 477.9 462.3 469.3 492.3 497.7 498 495.9 483.4 472.9 458.2 442.2 443.5 462.4 481.7 497.1 508.5 520.2 527.5 534.5 543.2 550.6 555.1 556.7 557 555.6 552.1 548.5 544.9 539.6 531.6 524.6 510.3 507.4 507.5 507 506.8 509.4 509.8 508.1 504.5 456.6 417.7 387.4 364.9 359.3 355.1 352.2 351 359.5 356.1 356.1 356.1 355 356.3 356.4 353.5 349.3 344.4 336.6 326.8 318.7 302.2 286.6 277.2 272.5 265.8 258.1 250.4 245.1 230.4 230.4 238.6 242.1 247.5 255.1 272.5 291.1 304.7 315.8 334.7 345.4 353.4 358.4 361.9 363.7 366.4 368 366.2 362.9 358.6 353.7 349.3 343.4 325.8 322.6 323.7 326.7 321.6 315.8 311.5 307.4 301.9 297.3 296.8 294.8 292.3 287 276.6 261.7 244.1 231.3 221.5 211.6 203.6 194.1 186.5 176.4 168.8 161.1 156.2 155.3 153.9 152.3 151.8 151.3 150.6 151.2 151.4 165.3 175.7 183.1 189.8 195.7 197.6 200.5 200.3 196.9 193.5 187.9 183.7 178.9 176.6 173.9 177.4 186.4 189 190.8 196.9 202.4 196 198.1 201.5 204.3 201.5 199.7 181.6 197.7 209.7 218.4 228.8 238 247.6 261.9 272.5 282.1 287.6 294 300.1 310.7 324.2 339.9 355.7 372.9 386.9 393.7 397.2 397.1 394.6 393.5 391 388
473.1 464.6 457.6 452.5 448.3 443.2 456.8 475.6 486.5 490 493.2 501.9 511.3 513.4 512.6 511.1 509.2 506 504.8 501.2 492.5 471 498.8 506.5 509.2 509.3 505 496.1 481.3 463.2 444.6 449.9 471.6 491.7 505.6 514.1 522.3 530.6 538.7 545.8 551.7 554.4 555.6 553.3 550.3 547 542.7 538.1 528.5 519 511.6 510.3 508.9 508.9 508.6 512 512.4 510.1 507.2 471.9 431.6 400.1 378.7 371.3 364.2 361.4 360.4 362.9 366 368 370.6 372.9 375.7 376.2 372.6 365.9 359.7 354.2 347.1 337.8 320.4 302.2 289.9 287.3 281.2 263.2 253 244.9 229.2 242.5 246.8 251.4 259 271 291.4 312.6 333.9 340.1 346.9 352 361 366.2 370 371.9 371.9 366.1 361.7 357.6 353.1 348.4 343 334.4 319.3 309.7 308.7 309.2 308.2 305 299.8 296.9 292.5 288 284.5 282.2 278.4 271.3 262 250.8 243.8 235.5 224.4 216.2 207 194.4 183.7 170.9 164 159 157.2 156 154.4 152.8 151.9 151.2 150.7 149.6 150.4 150.1 162.7 167.3 175 179.3 185.1 186.1 185.7 183.8 180.9 178.6 175.6 171.5 168.7 165.2 167.1 172.3 175.3 176.1 179.5 184.3 188.5 191.3 194.7 198.1 195.3 194.3 176.4 195.4 202.7 211.3 220.6 229 238.7 248.1 255.4 266.6 277 284.5 287.9 298.1 308.6 323.7 341.8 357.5 375.3 387.6 393.8 393.5 392.2 387.1 382.6 380.4
488.4 486 482.5 477.1 470.5 455.1 450.8 472.6 486.9 491.2 494.5 506 515.5 518.7 520.3 519.9 519.6 520.6 515.2 511.7 507.1 487.3 505.8 512.5 515.7 518 517.1 513.6 499 482.8 467.4 452.4 461.6 482 499.8 509.5 517.2 523.3 530.6 537.8 545.2 550.8 553.1 551.7 549 538.8 531.2 529.6 524.8 514.3 511.3 510.8 509 509.1 509.5 511.9 512.7 512.4 509.5 495.1 449.5 416.3 391.4 381.4 376.2 371.2 370.3 374.2 379.2 383 387.6 392.1 396.4 398.5 397.4 389.7 376.1 365.2 357.6 349.2 338.7 316.6 301 294.9 282.2 266.2 253.2 236.8 249.9 253.2 258 265.3 277.4 289.6 308.5 334.9 350.8 354.6 357.3 361.6 372.2 376.1 377.6 373.3 367.4 360.9 356 351.8 347.1 341.1 333.6 318.9 308.6 303.9 302.5 298.8 295.7 293.2 289.5 285.5 282.9 279 273 270.1 265.7 257.9 249.1 238.7 235.6 228.7 220.2 211.1 203.3 195.2 185.1 172.5 163.6 160 158.2 156.6 155 153.2 152 150.9 150.3 149.4 148.9 149.2 150.3 154.2 160.1 167.6 173 176.4 177.2 175.7 174.1 172.6 170.4 166.3 161.5 157.9 164.7 166.6 171.2 172.2 172.5 176.7 180.2 184.3 187.5 191.8 190.2 188.5 176.8 179.4 194.5 205.8 212.8 219.3 227.8 236 241.7 253.5 263 273.6 279.6 287.7 295.3 306 323.6 343.6 357.9 376.9 385.2 385.6 384.7 383.8 379.4 373.7
492.6 493 493.3 492.7 488.3 471.9 456.2 465.5 485.2 493.5 497.5 510.8 518.3 522.4 525.2 527.2 527.6 525 523.7 520.3 511.8 502.4 513.9 518.7 522.9 524.9 525.4 523 516 501.2 485.1 470.6 454.2 470.9 491.2 504.1 510.9 517.7 524.5 529.7 536.4 545 549.6 536.6 529.4 526 526 525.8 521.1 512.9 511.8 510.9 508.7 507.8 508.6 511.9 514.4 514.1 509.1 507.9 471.6 436.7 409.7 391.6 386.4 381.4 385.2 392.4 399 403.6 406.9 415.5 419.5 423.2 423.7 413.8 394.8 376.1 362.7 353.1 344.8 314.6 308 295.4 278.3 268 248.6 253 259.3 266 272.3 282.9 295.6 310.7 329.3 349.5 363.4 367.1 371.6 376.5 381.9 382.5 375.1 365.7 360.2 354.3 349 344 338.1 331.4 320.9 306.4 297.8 297 291.2 289 287.7 284.5 281.7 278.2 273.6 269 264 259.8 254 244.7 236.3 229.8 225.2 220.4 213.1 204.6 197.7 188.4 182 173.1 164.5 162.2 160.2 157.9 156.2 153.8 152.2 151.1 149.9 149.4 148.6 148.5 148.8 148.3 149.5 156.1 162.2 164.4 163.6 164.9 161.9 163.2 161.2 158 152.3 150.6 152 156.4 161.9 164.2 167.4 171 172.5 176.6 180.9 183.2 182.7 183.7 177.4 171.4 187.5 196.6 204.3 211 217.9 224.3 231.8 239.3 246.7 259.6 268 276.6 283.8 291.9 305.4 324.5 343.5 358.5 374.4 377.6 376.2 375.7 374.3 369.5
496 497.6 499.4 499.1 497.2 488.3 470.5 466.9 482.3 495.1 501.6 513.4 521.1 525.6 528.5 533.1 534.2 534.2 531.4 527.4 512.7 516.2 522.7 526.5 529.5 531.9 533.5 531.2 527.2 518.5 503.1 488.4 476.5 466.3 484.8 497 505.8 513 519.6 525.7 531.2 531.9 526.8 526.2 525.3 522.4 522.8 524.2 521 511.8 510.9 509.4 507 506.6 508.3 511.2 516 518.4 515.6 510.2 502.3 461.7 436.8 416.2 405.1 401.8 408.7 417.3 426.2 433.4 439.7 444.4 450.2 458.5 458.2 440.3 411.2 386.7 365.5 354.4 344.5 335.6 307.3 292.3 278.5 265.6 250.1 263.4 270.3 277.1 287.3 299.6 313.3 330.1 348.2 364.5 373.1 382.8 389.9 391.4 389.3 382.8 371.3 362 354.8 348.7 342.6 336 330.1 321.2 308 296.2 290.7 286.2 284 281.5 278.9 275.5 272.4 269.4 264.8 260.5 256.3 250.1 244.3 234.9 226.8 222 216.9 210.5 206.7 198.7 191.8 183.2 173.5 168 166.4 163 161.2 159.3 157 154.4 152.9 151.9 150.1 147.5 149.7 149.2 148.8 148.3 147.8 148.2 148.7 149.8 151.1 152.2 152 149.7 150.8 148 144.5 143.6 147.9 150.6 153.2 158.7 161 162.2 163.4 165.3 168.3 170.7 173 174.6 166.3 167.1 178.6 188.7 194.9 201.7 207.9 213.4 219.9 226.8 234.5 245.8 255.3 264.4 271.1 278.6 288.6 303.7 326.4 342.5 358.4 369.7 370.6 369 367.8 364.2
500.2 501.6 502.7 503.2 502.1 498.5 484.7 483.4 485.2 498.3 507.7 516.7 524.4 529.5 535.1 538.2 539.8 540.4 538.4 532.7 526.9 528.8 530.1 533.2 535 537 537 538.6 536.8 530.9 518.5 504.2 493.9 484.7 487.5 494.1 501.7 510 517.6 523.8 528.6 529.2 525 523 521 519.4 519.3 521.9 519.2 511 508.8 506.8 504.5 504.4 508.5 511.1 517 523.1 519.8 514 505.8 500.4 482.3 455.9 437.6 435.1 441.8 451.9 459.2 461.2 460.2 459.9 465.8 470 470.2 454 419 392.1 367.8 354.2 343.9 333.7 306.7 290.8 278.8 264.9 266.4 273.2 280.9 290.8 304.9 318.2 334.2 352.5 366.3 376.9 388 398.4 402.2 398.9 391.8 380.2 367.5 355.2 349 340.1 332.7 328.4 322.1 309.3 295.3 288.8 282.2 278.3 275 270.9 267.9 266.3 263.5 260.6 257.3 254 250.4 244.8 239.8 231 221.4 217.4 212.2 205.8 200.2 192.7 185.9 175.3 171.7 170.2 167.9 164.5 161.2 159 157.1 155.6 154 152.8 150.9 147.2 149.8 149.3 149.1 149.1 148.4 147.9 145.7 147.3 147.4 147.6 147.7 148.8 148.2 145.3 146.3 146.1 143.6 147.6 148.2 152.3 152.4 153.8 154.1 153.9 156 159.5 160.1 158.4 160.3 162.5 167.7 177.7 183.4 190.3 197.5 202.1 209.4 216 223.3 232.4 240.3 249.9 257.7 265 274.8 286.7 302.4 326.4 343.2 356.3 364.9 363.6 359.6 355.5
503.5 504.7 506 507.7 509.7 506.1 495.5 497.6 502.5 507.6 516 521.4 527.4 533.6 539.3 542.9 544.8 545.7 544.4 536.2 537.1 538 538.6 540.1 542.1 544.2 545.5 544.9 543.8 540 533.2 519.4 510.4 500.5 494.8 503.9 509.7 514.7 520.1 524.4 526.8 526.1 521.8 517.7 517.9 516.4 514.5 515.7 511.2 505.6 504.8 502.2 497.3 501.1 508.1 512 517.4 521.7 521.8 517.3 511.8 503.8 497.6 489.1 482 478.2 481.8 480.4 480.3 478.1 476.1 475.5 474.5 474.1 472.6 459.1 422.5 394.1 370.6 354.4 342.4 329.3 305.5 292.4 280.7 262.8 276.7 284.5 296.7 308.5 325 342 358.8 371 381.5 394.2 405 409.7 407.9 400.7 389.7 374.5 357 344.7 336.3 329.5 320.1 313.3 303.3 291.3 286.7 279.9 274.9 273.4 265.2 262.8 261.4 259.4 256.4 253.8 251.1 248.4 245 240.6 235.4 225.8 219.5 214.3 210.1 202.6 192.8 181.2 178.4 176.5 173.8 171.5 168.9 165.7 162.9 160.3 158.8 156.7 154.7 153.1 152 150.8 146.7 149.1 147.3 150.9 149.1 147.5 147.3 145.4 146.9 146.9 147.3 147.4 147.2 146.7 147.1 146.7 146.2 142.6 146.1 146.2 145.9 147.4 148.2 147.5 149.4 151.2 153 154.7 157.2 158.7 160.9 168.2 175.1 182 187.8 194.1 200.4 207.2 213 221.4 225.6 237.4 245 251.7 262.3 267.3 285.9 309.5 326.8 341.6 355 357.2 352.7 347.8
508 509.2 510.6 511.4 514.3 513 509.1 512.2 514.6 517.9 522 525.9 531.9 537.9 543.7 547.9 549.6 550.4 550.3 548 546.4 546 546.8 547.7 549.8 551.2 551.5 551.1 549.4 547.1 542.6 536.5 526.5 515.5 506.3 507.9 517.5 519.5 523.7 525.4 525.9 523 516.8 509.6 513 512.1 510.5 509.9 506.1 501.1 500.3 494.4 489.5 496 503.6 512.3 517.7 519.6 519.2 517.3 511.5 502.5 498.3 495.8 494.5 492.9 492.1 488.5 484.7 482.7 482.3 481.1 477.7 476.2 473.7 461.7 423.2 394.7 373.7 355.3 342 327.3 303.8 292 278.3 278.9 285.3 298.7 313 328.7 347.7 363 375.2 387.6 400.1 410.9 416.2 417.6 411 399.9 385.7 361.3 348.2 338.7 323 309 296.7 290.9 287.5 282.8 280.8 275.4 270 264.9 259.4 256.1 248.2 249.2 248.2 245.3 243.7 243.7 242.8 236.9 229.1 222.1 216.5 210.7 202.9 189.8 188 186.3 183.3 178.6 176.1 174.3 173.6 171.3 169 164.8 161.6 158.3 157.1 154.7 154.3 153.3 152.4 152.4 152.1 151.5 149.8 147.6 147.4 144.3 146.7 146.3 147.6 146 146.9 143.6 147.2 147.2 146.8 148.6 146.5 145.1 142.6 142.6 143 144.9 146.6 148.2 150.6 152.6 153.7 154.9 156.3 158.6 166.8 173.2 181 189.2 193.2 198 201.7 206.3 214.6 224 233.2 240.2 250.6 258.1 270.6 292.2 309.7 327.2 341.1 349.3 346 340.8
511.4 513.4 514.6 515.6 517.8 517.5 517.9 518.9 520.9 523.3 526.7 531 536.1 542.1 547.4 551.9 554.2 555.4 555.4 554.2 554 553.4 553.8 554.9 556.4 556.8 557 556.3 555 553.4 550 543.2 540.6 532 526 523.8 525.3 525.3 526.5 526.9 525.7 523.2 514.8 501.9 501.7 503.7 506.4 506.6 501.6 495.7 494.3 489.8 478.8 487.4 496.6 505.4 513.7 515.6 517.7 515.3 506.5 500.8 499 498.1 498.2 496.7 494.9 492.6 488.8 483.7 489.7 486.1 480.1 477.8 476.9 461.6 424.3 396.5 379.8 357.3 342.6 326.5 308.4 293.8 285.9 287.8 302.3 315.3 333.6 352 367.4 379.3 393.1 406.7 415.7 423.7 432.7 427 413.4 399 379.5 350.8 342.2 332.2 314.7 307.6 301.6 296 285.3 277.7 267 262.7 260.4 253.9 249.3 246.7 244 229.4 229.3 227.7 228.5 230.9 232.1 227 218.8 212.9 207.6 200.3 191.7 191.1 190.5 189.5 186.4 180 181.6 180.8 178.3 177.1 176.1 171.3 168.1 164.8 162.8 160.2 157.5 156.5 154.8 154.3 153.4 152.8 151 148.9 147.4 147.1 143.8 144.3 143.7 143.6 146.2 147.2 147.5 148 152.2 152.3 151.1 150.9 150.5 146.9 145.2 144.5 143.3 146.2 148.1 149.8 151 152 153.2 154.1 158.4 163.7 173.3 180.3 186 188.4 193.5 196.7 202.7 211.3 220.7 229.2 239.8 246 254.5 275.3 294 308.9 325.6 338.9 340.3 334.1
513.1 515.8 516.5 517.8 518.3 518.9 519.7 521.3 523.9 526.3 529.6 533.5 538.9 545 550.7 555.2 557.7 559.1 559.4 559.1 559.2 559.6 560.4 561.4 562.2 562.7 561.9 560.9 559.8 558.3 555.1 549.7 546.5 541.8 535.6 530.8 528.9 528.3 528.2 526.9 525.4 522.5 516.7 503.3 493.3 489.6 495 497.9 494.3 489.6 487.2 482.2 474.8 457.5 468.7 479.9 496 506 509.5 508.5 502.9 500.5 497.4 496.6 496.6 496.2 497.3 495.5 483.6 487.1 492.7 491 483.4 479.3 477.1 461.8 427.3 400.2 384.3 360 342.4 328.1 315 303.8 301.9 307 323.6 339.2 354.6 368.3 381.5 397 411.7 424.1 434.8 447.2 446.6 433.6 411.6 392.2 368.8 347.2 337.7 328.6 316.7 318.9 315.7 311.8 303.5 295.7 289.6 283.7 277.9 272.1 267.2 262.4 257 249.7 239.2 233.5 222.9 210.9 207.9 203.4 201.6 195.3 197.4 198.2 198.5 197.8 195.5 195.2 194.5 192.7 191.2 189.2 185 184 181.3 179 175.6 174 170.5 167.5 163.3 159.4 157.2 156.4 155.8 154.4 152.6 150.8 149.2 148.2 148.5 147.6 151.3 158.7 156.7 148.8 153.4 153.4 152.7 151.9 151.3 153 150.7 151.5 153.8 153 144.2 145.1 146.6 146.9 148.3 149.4 150 151.8 153.7 155.4 162 168.9 173.7 178.5 182 186.4 191 201.3 209.2 217.5 227.6 234.4 241.4 258.6 278.7 289.1 308.5 323.8 331 327.9
512.8 514.8 514.8 516.1 517.5 518.5 519.6 521.4 524.4 527.7 531.4 535.3 540.9 547.4 552.7 556.5 558.7 561.4 562 562.3 563.1 563.3 563.9 564.9 565.5 566.2 566.1 565.1 564.1 561.4 557 551.5 548.3 544.9 538.1 532 529.1 528.5 528.2 526.8 524.6 521.8 518.1 507.2 487.8 482.1 482.6 484.4 485.5 482.4 473.8 468.6 464.7 440.7 431.3 443.9 454 465.1 467.7 469.8 476.8 489.3 485 480.1 485.7 491.5 495.5 489 484.5 491.8 495.4 494.1 490.3 482.5 476.5 462.1 437.5 407.6 389 363.4 342.6 333.4 322.3 319.1 321 332 344.9 356.1 370.2 385 402.9 413.3 429.8 448.9 456.8 454.6 450.6 436.6 409.9 382 361.5 349 339 328.9 332.7 331.8 329.7 326.4 319.7 314.2 309.7 302.6 295.3 289.1 283.2 278.3 273.3 267.4 260.1 250.5 240 234.5 230.4 224.4 218.6 212.7 211.5 211.8 211 209.7 207.1 205.2 206.3 204.5 200.8 197.3 194.2 189.5 187.6 184.8 181.7 179.3 176.2 172.4 168.7 164 159.8 159.3 157 155.3 153.6 152.6 154.7 154.2 154.1 153.9 154.3 155.5 154.8 155.1 157.3 158.6 161.9 165.1 165.8 156.3 156.9 155.9 158.4 156.4 139.9 144.2 144.6 145.2 146.6 147 147.9 149.2 150.1 150.9 153.5 158.5 166.2 171 175.3 177.7 182 189.2 197.2 205 216.8 224.2 230.8 244.2 260 277.3 288.3 306.2 318.3 320.1
509.9 512 512.4 513.7 514.9 516.3 518.3 521.1 524.2 527.6 531.3 536.1 541.9 548.1 553.2 556.7 559.6 562.5 564 564.9 565.9 565.8 566 566.6 567.3 567.5 567.9 567.3 565.6 562.1 558.3 555.1 552.5 546.3 538.8 528.6 523.4 524.3 524.6 525.7 523.3 521.7 519.1 512.6 494.5 478.5 473.2 473.4 473.9 471.9 462.1 445.7 429.5 415 404.8 414.2 419.5 425.1 427.4 431.1 434.9 438.9 440.2 440.3 445.9 456.8 472.3 461.3 484.6 493.7 494.8 494.4 490.8 483.6 479.9 463.5 447.6 416.2 392.4 369 351.2 340.4 330.3 331.9 339.8 348 358.6 370.8 389.8 407.4 420.6 437 455.6 460.2 458.9 456.3 450.8 427.9 408.7 384.2 362.6 352 347.8 352.7 354.8 353.6 348.9 343.7 337.4 331.3 325 318.4 311.1 305.4 299.1 294.1 289.5 284.8 277.3 267.3 259.6 251.9 248.2 242.3 236.7 231.7 228.6 226.4 224.9 222.8 219.7 216.5 216.1 213.1 209.2 205 202.1 196.8 192 188.5 186 182.1 180.2 178 175.5 172.2 162.4 161.3 158.8 157 156.3 157.4 159.9 161.3 161.1 161 163 163 158.9 160.3 164.8 168.9 170.4 175.8 178.6 174.5 166.8 164.3 157.5 157.5 145.2 142.9 143.4 143.4 144.1 145.2 146.7 147.1 147.7 146.9 147 150.6 156.4 161.7 168.3 172.2 174.1 177.8 187.7 196.3 206.3 215.3 221.5 231.8 247 247 274.5 287 302.6 309.6
483.4 499.7 508.3 510.8 511.3 512.8 515.9 518.7 522.1 525.5 529.6 534.8 540.9 547.4 552 555.4 558.7 561.6 563.4 564.7 565.8 566.5 566.6 567 567.3 567.3 567.4 567 565.5 562.5 559.3 555 550.3 544.7 538.9 527.5 515.3 516.6 518.9 522.1 521.1 521.9 520 515 508.1 488.3 475.5 460.2 462.8 461.7 456.5 442.4 406 398.1 384.6 384.3 388.1 388 391.3 393.3 399.2 403.9 404.8 408 411.9 419.7 426.5 427.3 456.4 475.4 491.8 493.2 491.1 484 480.1 468.3 455.9 424.5 395.7 379.7 363.8 345.3 339.5 344.7 350.8 361.9 376.3 395.1 413.7 429 447.6 461.3 465.6 466.3 462.9 459.1 451.1 421.8 407.9 381.7 365.7 366.8 373.5 375.4 380.1 376.8 370.7 365.3 359.1 351.3 342.8 335.4 327.8 322.1 315.7 309.9 305.9 302 294.5 286.8 279.1 271.4 264.4 258.7 253.6 249.6 245.8 243.3 238.8 237.7 233.7 229.8 226 221 216 211 208.1 204.1 199.5 195.7 190.2 186.4 182.8 181.9 180.9 177.6 164.7 163.1 161.6 161.1 160.9 163 165.3 167.7 168.4 169.9 171.4 171.2 174.3 169.7 175.3 185.8 199.3 199.6 199.6 197.7 191.8 179.9 167.8 159 156.9 144.8 140.2 142.6 142.6 142.4 144.4 145.2 145.3 145.1 145.4 145.5 145.1 153.6 158 167.4 169.7 171.8 176.1 186.2 193.9 203.6 210.9 220.3 233.8 244.3 261.7 273.3 286 297.8
451.7 467.8 488.2 501.2 504.5 506.8 510.1 514.1 518 521.7 525.7 531.2 537.9 544.4 549.2 552.6 555.6 558.6 560.8 562.7 564.6 565.4 565.9 565.8 566.3 566.4 566.5 565.6 563.8 560.9 556.9 551.7 546.1 540.8 535.5 525.1 509.9 506.8 511.2 514 518 520.3 519.5 515.4 511.7 503.7 483.6 473.6 458.9 449.9 447.8 431.2 408.6 379.9 364.5 363.4 368.3 362.7 362.5 362.9 367.7 373.5 374.5 377.9 384.4 392.1 396.1 402.1 415.9 431.4 447.8 466.6 488.3 484.8 480.3 469.3 454.2 430.2 414.8 387.8 372.9 355.9 354.3 362.5 371.9 386.4 402.2 417.2 435.7 456.1 467 474.6 477.2 474.1 467.8 461.5 450.8 417.9 403.7 380.2 390.9 398 402.5 403.6 410.3 407.5 399.2 389.5 380.1 370.7 361.8 353.8 346.6 339.7 333.8 328.3 323.3 318.7 313.6 306.5 298.7 291.1 282.7 273.1 268.4 263.9 262.2 258.6 254.6 251.4 245.5 240.5 234.7 228.9 223.1 218.3 213.7 210.1 207.2 203.2 197 191.4 188.8 187.2 183.5 170.2 167.5 166.4 166.7 167.1 168.1 170.3 173.5 175.9 176.3 176.2 176.5 187.3 201.2 197.7 198.2 204.7 214.5 218.9 214.3 212.7 208.3 197.7 189.9 178.6 166.7 158.9 147.4 138 142 141.6 141 142.2 143.1 143.8 144.6 144.8 144.9 144.6 149.8 154.8 160.5 164.8 167.3 174.6 183.6 192.3 202.3 206.2 220.5 234.6 246.7 257.7 271.6 285.6
426.3 439.3 454.9 475.2 494.2 501.1 505 509.4 512.4 516 519.9 525.3 532.2 539.5 545.1 548.1 550.4 553.2 556.5 559.4 561.1 563.1 564 564.4 564.9 565.3 564.9 563.3 561.1 558 553.7 547.8 541.9 537.1 530.6 520.8 511.8 500.4 495.7 504.7 511.6 515.7 515.9 514.4 511.1 508 497.9 480.6 467.3 449.9 436.1 427.6 399 382.4 363.4 358.6 345.3 345.8 348.5 348.3 346.3 343.4 345.8 349.6 357.5 365.9 370.9 378.6 391.6 400.8 410.7 420.3 445 475.1 476.6 463.5 448.7 440.5 432 406.9 382.4 371 375.4 386.4 398 409.2 425.5 445.7 462.1 474.9 484.3 488.2 487.6 482.2 473.2 463 447.9 416.9 400.1 407.4 418.5 427.4 433.6 434.2 433.8 428.5 422 415.4 406.5 396.1 385.8 375.3 364.6 358.7 356.6 351.4 345.3 340 332.8 326 318.2 309.1 299.6 289.9 284.4 278.3 276.2 271 265.5 260.6 255.1 249.5 243.6 237.4 230.3 223.6 220.7 217.8 214.6 211 205 199.1 194.1 191.5 184.4 175.6 174.8 173.3 174.1 173.9 175 178 182.5 182.2 183.4 185 184.4 186.8 198.6 202.7 213.1 223.5 230.3 236.3 233.4 232.4 225.3 214.7 204.9 194.7 183.1 173.7 160.5 149.4 139.2 138.4 138 139.5 140.2 141.3 142.5 144 144.1 141.9 140.2 143.4 150.5 155.4 159.8 164.2 171.4 184.2 194.8 196.7 208.2 220.9 233.7 245.5 258.5 269.4
402 412.1 429.2 446.4 474.4 497.6 502.2 504 506.5 509.5 512.4 517.2 524.2 531.4 537.3 540.4 543.6 547.1 550.6 553.6 556.5 559.7 561.3 562.6 563.1 563.4 563 560.7 558.5 555 550.1 544 537.8 529.8 523 517.4 510.7 499.2 475.8 493.6 501.6 510.6 512.4 512.7 511.2 509.1 504.5 494.3 480.3 469.9 457.5 450.9 444.2 420.4 390.8 367.9 346.9 334.2 327.9 328.1 328 329.4 329.8 331.1 330.3 339.6 348.5 358.1 370.4 380.8 389 398.4 413.1 434.5 468.9 455.7 447.4 444.5 436.6 420.8 399.4 391.8 397.8 405 415 437 455 469.1 484.1 491 493.9 493.5 490.7 485.8 476.5 461.5 441.2 416.4 426.2 437.3 448.8 454.8 456.8 457.1 454.4 448.9 442.1 435.6 428.3 420.3 412.2 403.7 395.9 390.5 386.1 381 374.6 367 359.7 349.9 334.7 322.6 311.5 306.2 297.9 289.9 285.5 280.7 273.7 267 260.5 254.5 249.5 244.4 237.9 232.6 226.7 224.5 221.6 218.1 212.7 206.9 201.5 196.4 189.9 184.3 184.3 182.3 182 180.9 181.9 186.8 189.4 188 189.3 190.5 193 197.4 210.3 220.1 232.6 238.6 243.8 255.8 260.3 261.1 248.9 235.5 219.3 204.8 193.5 183.2 173.6 164.6 155.7 144.5 139.6 139.8 137.5 137.3 140.2 140.3 141.7 139.1 139.2 138.8 137.2 141.2 151.6 156 160.7 170.1 181.2 188.5 196.8 207.4 221 233.4 243.5 255.5
383.6 392.8 412.3 434.1 449.2 479.2 496.6 499.6 499.9 500.7 503.5 507.5 513.4 520 526.2 531.1 535.2 539.2 543.1 547.3 551.6 555.5 558.7 560.8 562.3 562.2 561.8 559.4 556.3 551.6 546.3 540 532.2 523.3 516.6 511.6 507.4 497.9 474.5 470.8 494 500.8 506.8 509.1 510.2 509.2 505.9 499.9 490 483.4 478.6 473.3 466.7 456.9 413.8 384.5 366.6 352.6 339.6 326.2 315.2 317 318.1 319.8 321.3 323.7 332.4 341.8 353.9 365.4 375.2 384.2 395.2 413.4 432.5 449.5 451 446.4 439.2 431.1 417.6 409.5 416.5 432.3 449.6 462.5 476.9 490.2 496.5 498.9 499.4 497.6 493 485.8 474.3 453.2 437.9 448.2 456 462.5 467.6 471 472.3 471.9 469.4 464.2 457.1 449.9 443.2 437.5 431.6 426.3 420.9 415.9 410.8 404.9 398.3 389.6 379.5 369.1 350.8 331.8 321.5 315 306.9 297.3 291.2 289.8 283.1 272.2 265.2 259.5 254.2 249.7 245.5 241.4 235.8 233.4 229.4 225.3 220.5 214.8 208.6 202.9 198 194.1 192.6 189.5 190.3 191.6 193.8 197 197.8 198.2 199.2 202.3 204.5 207.6 221.3 240.5 250.1 251.1 260.7 260.6 277 273.5 269.6 264.4 241.9 220.9 203.3 192.6 182.5 173.8 165.2 159.4 154.5 146.1 141.7 139.3 137 139 139.4 138.1 138.2 137.7 134.9 138 136.5 148.9 152.4 160.5 168.7 179 188.4 196.8 207.4 217.9 229.2 239.7
361.2 377.1 398.2 417.6 443.6 464.1 487.2 491.3 491.4 491.9 493.6 496.2 501.8 508.1 514.8 521.3 526.2 530.1 534.2 539.9 546.1 551.6 556.2 559.5 561.5 561.6 560.8 558 554.7 549.2 543.4 536.6 528.3 518.2 507.9 506.2 503.7 496.5 472.4 454.5 478.8 496.7 503.4 507.8 509.5 509.1 506.1 502.4 496.1 489.5 486.8 484.2 478.5 464.5 424.8 399.6 383.3 369.4 353.5 337 320.5 311.8 307.4 308.6 311.6 315 318.8 328 341.4 353.3 363.4 375.3 386.2 396.5 413 431.5 453.3 457 451.5 440.7 438.4 437 443.3 453.4 465.4 483.1 495 500.5 505.1 506.4 504.9 501.6 494.5 486 469.4 456.7 462.8 468.7 473.7 476.7 479.9 481.7 481.6 481 479.3 475.7 469.7 462.4 455.7 449.7 445 440.9 437 432.4 427.2 420.3 411.5 400.3 388.9 376.6 360.1 338.5 328.3 318.5 306.7 299.6 299.1 297.2 290.6 277.8 267.8 264.1 259.2 254.8 250.7 246.6 245.3 242.7 237.9 232 227.2 222.3 213.1 210 207 204 203 201.2 201.7 204.6 206.6 208.6 208.8 208.3 210.5 212.6 215.4 219 230.1 247.3 265.8 274.2 275.2 279.6 283 282.3 272.6 268.4 264.1 242.1 219.5 205.6 192.1 184.2 176.5 169.3 160.7 156.5 152.4 144.9 139.7 137.3 138.1 137.9 137.6 138.1 138 137.8 137.4 133.9 146.9 152.1 159.3 165.8 179.3 191.8 198.1 208.4 217.6 227.6
348 355.7 374.2 398.8 424.9 453.9 472.6 481.7 481.2 484.5 485.4 486.7 489.8 496 501.3 503.6 504.7 509.8 518.3 531.8 541.3 548.1 553.5 557.6 560.5 561 559.6 556.4 552.9 547 540.5 532 523.4 509.8 492.1 494.3 497.4 490.9 467.2 446.1 465.3 491.9 501 505 507.6 508.2 506.2 502.8 499 494.5 491.3 487.9 472.4 453.9 427.4 416.1 402.7 386.4 368.3 350.3 332.7 317.9 309 300.2 302.5 307 313.2 320.6 331.8 341.2 350.5 366.9 377 382.6 388.6 404 423 442.3 453.1 444.5 451.6 453.9 457.2 463 478.9 494 502.1 506.2 508.7 508.9 507.6 504.2 498.8 487.4 469.1 475.4 479.9 484.6 488.2 489.5 490 489.9 489 487.6 486.3 484.9 480.5 473.8 467.1 461.3 456.5 452.9 449.1 444.3 438.5 430.4 419 406 393 380.5 361.5 340.9 328 316 308.9 306.3 303.4 300.3 293 280.9 267.7 263.9 260.2 258.9 254.8 249.1 246.7 245.4 242.9 237.1 232 226.8 216.9 215.6 213.6 212.5 214.9 214.6 214.7 215.2 218.2 219.7 219 219.7 223.3 224.8 226.7 229.5 237.5 260.6 279 278.9 282.5 289.3 308.3 294.9 275.5 271.3 265.8 260.2 243.6 218.1 204.5 196 188.1 177.1 169.7 167 161.8 155.6 151.8 144.7 139.5 140.2 138.5 139.4 137.8 137.4 137.5 137.2 134.7 147.3 150.8 158.7 170 182.7 192.8 202.8 212.3 220.7
341.3 349.5 352.5 383.6 404.3 424.6 444.8 459.8 468.7 472.5 473.3 476.5 476.5 477 472.2 467.3 467.9 472.9 505.2 528.6 538.6 545.9 550.9 555.4 558.2 559.1 557.9 555.4 551 545.2 537 524.4 514.3 508 493.2 474.7 484.5 479.2 458.9 438.4 456.4 484.9 497.1 501.2 503.8 505.8 504.9 502.4 499.2 496.8 492.5 484.9 456.1 433.7 428.2 427.5 419.6 401.5 382.4 361.4 342.1 325 311.2 301.1 295.2 297.3 305.5 314.8 323.2 330.2 338.5 352.9 365.5 372.2 375 380.1 397 418.8 436.3 457.5 464.3 471.4 473.3 478.9 491 498.4 505.7 508.8 510.2 509.6 509.1 506.3 501.3 490.3 482.7 489.3 493.9 497.5 499.3 499.9 499.2 497.9 495.8 494.4 492.2 490.4 488.1 482.3 475.8 469.5 463.8 460.3 456.3 451 445 436 424.1 411.1 396.6 382.8 361.6 338.9 327.4 320 316.3 311.1 305 299.7 290.7 279.4 266.7 261.8 258.7 258 255 249 247.2 245.5 243.8 237.7 232.8 225.3 219.1 216.7 219 219.5 223.9 223.5 223.5 225.5 226.8 228 230.2 232.2 235.6 238.8 243.3 248.3 255.4 265.5 273.9 286.5 291.9 305.7 311.6 308.9 297.7 284.6 266.8 261.9 258.1 245.3 220.3 209.3 195.4 184.5 181.7 179.2 174.6 167.5 161.7 159.5 157.6 152.2 148.1 142.5 139.3 137.8 137.6 137.3 137.2 133.2 147.9 152.2 160.8 173 185 194.9 206.2 215
333.4 343.2 348 368.1 384.3 398.1 412.8 422.5 433.7 436.2 439.1 444.4 443.4 442.9 436.2 430.6 430.7 472.2 506.5 526.3 536.1 543 549 552.6 555 557.2 556.7 554.8 550.7 546.3 536.3 522.7 506.7 488.3 480.4 459.2 462.4 463 453.4 429.5 450.8 476.2 486.8 491.7 497.8 500.8 500 496.7 494.3 493.8 491.3 475.1 444.3 431 426.4 426.4 428.8 410.8 388.4 368.2 349.4 333 314.8 301.6 295.8 288.6 295.7 307.4 315.5 323.8 334.2 344.2 353.5 361.7 367.2 371.9 380.8 404.4 441.9 470.9 479.3 485.4 484.6 488.4 497.3 502.5 507.1 509.9 510.2 509.7 509.1 507.5 503.6 497.4 498.7 502.3 505.3 506.7 506.9 506.8 506 504.7 502.6 500.4 497.8 495.7 492.7 488 481.4 474.8 468.2 463.3 458.6 453 446 437.2 427.4 415.3 399 384 364.9 336.6 326.5 321.8 315.5 309 300.6 293.2 285.3 271.3 261.1 252.2 248.6 248.5 249 247.2 245.4 243.2 237.3 228.2 220 218.1 220.9 219.6 223.2 227.3 229.8 230.9 233 234.8 237.8 242.2 244.1 247.6 253.8 260.2 265.5 272.3 276.4 282.2 293.8 303.5 298.8 305.5 310.5 312.4 306.3 287.9 281.3 264.9 258 254.4 239.5 221.2 205.6 200 197.8 194.3 187.7 179.5 173.8 171.9 172.6 168.4 161.3 155.1 147.5 140.2 138.4 137.7 137.4 136.9 132.8 148.8 156.3 165.5 177.9 187.6 199 209.1
321.3 331.5 341.7 349.8 362.2 374.5 384.4 392.1 398.6 399.8 403.5 406.6 407.1 408.2 406.2 398.3 425.9 458.2 497.5 522.6 533.7 540.1 546.3 550.1 551.9 554.2 554.9 554.2 551.7 548.5 542.4 534.2 521 502.3 482.6 462.6 445.1 446 438.3 420.8 441.2 459.3 470.1 475.7 482 487.2 485.9 483 485.3 487.3 487.5 481 451.8 428.3 420 420.7 420.8 411.8 390.9 372.7 356 341.2 322.2 302 296.8 289 285.4 301.2 310.9 319.3 329.8 336.2 340.8 347.3 352.8 363.1 380.9 405.5 439.1 471 479.9 484.9 490.1 496 500.3 504.3 507.9 509.6 510 510.1 510.3 509.2 507.9 507.3 509 512.1 513.2 513.2 512.9 512.4 511.6 510.3 507.6 504.7 502.4 499.8 495.9 491.4 486.3 479.1 471.4 464.6 458.5 452.4 444.8 436.6 428.3 416.6 399.6 382.1 366.3 339.2 325.7 319.1 311 301.1 291.9 284.3 275.2 264.8 263.1 260.6 255.7 249.3 242.6 238.3 240.2 239.8 230.4 220.1 226.9 223 226.2 233.2 233.5 234.7 234.5 242.1 247.6 252 257.3 264.9 273.2 279.2 283.2 285.5 286.2 289.4 294 304 312.6 306 304.8 301.1 302.9 312.1 309.4 305.3 288.5 264.1 255.9 250.4 238.1 226.2 220.1 219.3 217.5 213.1 207.5 199.4 191.1 186.5 183.9 178.2 172.3 165.6 156.2 145.3 139.7 137.8 137.4 136.5 135.7 144.3 149.9 160.6 172.7 182.7 192.3 203.2
309.4 315.4 327.4 336.9 343.5 351.3 360.3 367.7 368.7 370.6 372.9 375.3 376.4 378.5 380.1 394 417.3 447.5 483.9 516.8 530.9 537.4 543.6 548.6 550.3 552.3 554 554.1 553.2 550.4 546.1 540.6 531.5 516.1 499.8 482 462.7 447.1 432.2 412.5 425 443.1 453.3 461.1 467.1 470.1 470.8 474.9 478.4 478.4 478.5 479.2 468.7 435.5 417.3 414.1 412.4 407.7 391.8 375 358.9 345.6 329.1 307.4 296.4 287.8 281.1 294.4 304.8 314.7 322.3 325.7 327.9 334.9 354.1 368.4 380.6 396.9 424 457.9 482.6 489.3 494 501.6 504.1 504.7 506.6 507.8 508.1 510.5 511.5 512 513 513.6 515.7 517.4 518.7 519.2 518.8 517.3 515.3 512.5 509.5 507.2 505.3 503.5 499.3 494.9 490 482.8 474 466.3 458.8 451.3 443.7 435.4 427 414.6 396.6 380.3 366.4 343.3 326.4 317.3 304.1 292.5 283.3 276.5 268.1 270.1 270 266.2 261.1 254.4 249.5 243.6 238.6 231.4 234.3 237.8 239.9 239 239.5 239.7 240.3 244.1 247.4 256.1 268.8 279.4 288.6 292 294.9 297.9 299.9 300.4 303.7 308.9 311.9 316 314.5 309.1 306.7 300.9 301.4 313.4 303.3 285.1 269.7 259.3 251.2 248.1 243.6 241.8 239.2 238.6 237.7 236.4 231.1 222.7 210.4 201.3 195.8 186.8 179.4 172.8 166.4 152.3 141.1 138.3 137.2 136.6 135.6 139.1 147.1 155.2 166.3 176.2 186.1 196.7
300.2 296.6 312.1 321.4 329.8 336.7 344.8 346 344 348.1 348.1 349.5 352.3 358.5 368.4 387.9 410.6 439.6 473.8 509.7 526.7 534.4 540.7 546 549.6 551.4 553.2 554.7 553.4 551.3 548.4 544.5 538.5 528.2 512.4 496.1 477.6 454.3 437.2 416.1 407.2 420.6 434.8 445.7 453.4 460.9 466.1 471.3 472.9 473.6 473.1 473.4 475.2 454.9 423.9 410.4 406 400.2 390.7 375.2 360.3 348.2 331.4 311 296.4 287 278.3 287.4 298.1 309.3 315.7 315.5 322.5 344.1 361.7 371.9 385.8 394.3 404.8 427.7 457.4 489.7 499.5 504.7 506.1 506.1 506 507.1 510.3 513.4 515.5 517 517.9 518.6 519.9 521.1 522.2 523.4 522.3 520.8 518.6 515 511.4 509.4 507.6 504.5 500.1 495.5 490.6 483.3 475.2 467.5 459.8 451.6 442.4 433.9 425.5 413.2 392.9 378 364.3 341.2 324.7 313.5 295.2 287.1 284.4 280.2 276.1 274.4 272.5 270.1 265.7 258.9 253.9 248.7 245.2 237.2 245.2 247 250.9 253.1 253 253.4 254 258.8 263.7 280.4 292.2 300.7 306.4 308.5 308.8 310 315.4 321.1 323.7 323.7 321 317.2 315 310.2 306.3 300.2 292.3 292.3 281.6 269.9 266.9 264.6 262.3 258.7 255.7 255.1 254.3 253.8 255.9 256 251.7 242.3 229.6 214.7 204 194.3 186.7 180 174.4 160.9 146.1 137.3 136.4 136.1 137.4 144 146.8 148 160 170.7 181.7 190.1
295.8 289.9 294 303.6 314.1 323.5 332.1 335.2 334.1 333.2 331.7 335.1 339.7 347 363.6 385.5 411 436.9 470.8 506.2 521.7 530.7 538 543.3 547.5 550.1 551.6 553.8 552.4 551.6 549.8 546.3 542.7 536 524.2 507 485.9 457.7 443 424 399.6 403.5 412.9 423.3 433 443.2 454.7 461.3 466.1 469 469.8 468.8 472.7 468.8 441.6 414.4 403.8 395.9 384.8 371.9 360.3 349.6 336 315.2 297.8 285.4 274.6 282.3 292.5 301.6 308.2 305.8 323 341.2 354.4 370.6 381.7 390.7 396.4 409.1 431.9 462.5 491.8 503.7 506.5 506.6 506.5 508.5 512.5 514.6 517.4 521.5 523.1 522.8 523.3 524.5 525.7 526.5 526.5 525.1 521.9 517.8 513.9 511.2 508.3 503.2 498.1 492.8 488.2 481.1 474.4 467.3 460 451.2 440.8 432.5 424.4 413.9 389.1 371.7 359.3 334.1 318.9 302.5 306.3 304.9 300.8 289.3 282.5 277.9 273.9 270.9 268.2 262.5 257.7 254.3 250.2 240 250.4 257.8 259.1 262.6 269 271.2 272.8 278 278.4 298.7 308.7 315.5 321.5 325.2 328.7 331.5 333.9 333.6 330 326.5 324.4 320.6 316.9 308.6 305.4 296.6 289.6 283.8 279.7 276.1 273.6 273.9 275 277.8 278.9 278.5 275.1 270.5 270.6 270 268.3 259.8 245.7 229.2 213.4 201.4 193.5 186.5 178.9 169.5 155.2 139 136 135.5 134.5 142.5 146.4 146.1 149 160.6 174.4 183.1
295 285.5 281.2 291.5 303 314.4 323.7 331.1 330.8 324.5 322.9 325.5 334.6 349.3 370.8 394 419.9 445.7 479.8 505 517.4 526.9 534.8 540 544.6 547.1 548.9 551 550.5 550.2 549.2 547.3 544.9 540.2 532.1 515.9 490.2 460.2 445.1 429.6 403.5 388.6 397.4 404.4 410.6 419.2 433.3 444.7 453.8 465.2 466.7 464.8 468.9 468.7 459.5 428.1 405.9 394.2 377.4 362.9 355.3 349.9 343.4 323.2 305.2 288.8 274.4 278.7 287.8 297 298.2 305.3 319.5 333.7 350 369.3 381.5 386.5 391.6 397.4 409.3 433.5 459.4 481.9 502.8 505.7 507.5 509.4 512.7 515 520 524.5 525.6 525.7 526.5 527.7 528.8 529.2 529.5 528.4 524.8 520.7 516.4 512.4 507.5 500.1 494.5 489.2 483.9 477.5 470.6 463.9 456.1 447.3 437 428.2 420.6 402.7 379.1 364.4 346.5 322 317.8 333.2 339.5 325.2 315 306 292.4 284.9 277.5 271.6 267.2 264.6 261 257.4 252.7 252.4 259.6 269.6 275.9 280.3 281.6 300.9 304.4 307.1 302.7 310.2 326.1 333 337.5 338.1 339.7 340.2 339.2 338 333.5 333.1 330.8 331.1 327 316.3 303.3 300.1 296.4 293.4 291 289.6 288 289 291.4 294.9 297 297.3 296.5 294 292.9 292 288.6 281 266.3 244 224.2 208.8 200 192 184.5 173.8 157.1 143.3 135.6 134.4 134 141.4 145.7 146 145.8 153.1 168.3 177
298.6 286.9 277.6 283.6 296 308.7 319 325.1 323.7 319.2 317.2 329.3 346.5 361.8 382.8 404.9 431.8 462.3 488.7 501.9 512.5 521.4 529.5 536.2 540.4 544.2 546.3 546.1 546.7 547.1 548.1 547.3 545.7 542.3 536.7 523.6 496.2 464.3 446.2 430.4 413.1 392.7 381.7 388.2 391.7 398 408.3 417.3 435.8 447.7 457.3 460.1 465 465.6 463.7 445.7 416.5 393.1 372.1 358 349.9 344.4 338.2 326.4 310.3 295.1 273.5 275.8 283.1 289.6 295.2 304.6 319.6 334.4 352.8 369.2 379.4 384.2 385.9 386.7 395.5 409.7 432.3 455.7 480.9 504.2 509.4 511 512.3 515.3 520.7 526.6 528.3 528.4 529.3 530.8 531.8 531.9 532.3 530.7 527.1 522.9 518.6 513.9 505.7 497.8 491 484 475.5 469.1 463 457.3 450 442.4 430.9 420.2 403.7 383.8 365.3 347.5 323.5 336.5 349.8 363.7 375.2 367.5 346.2 323.1 306.7 298.5 286.6 274.2 265.5 261.7 260.4 258.7 250.6 264 278.8 294.1 306.5 312.7 315.5 317.5 317.7 319.1 317.1 313.2 328.8 335.6 340.3 341.4 340.6 340.3 338.9 336.9 341.6 344.9 344.6 343.2 335.3 322.8 311.2 308.3 305.7 303.6 302.6 302.3 302.3 302.9 303.7 306.8 309.3 310.5 310.1 309 307.7 306.6 303.5 297.4 287 262.8 237.3 217.5 204.4 196.3 188.7 177.3 159.7 144.1 135.6 133.7 133.7 139.3 146.2 145.9 142.2 151 164.1 171.4
304.1 288.8 275.7 277.1 288.6 301.1 311.8 315.8 314.4 300.2 322.1 337.9 353.5 370.9 392.8 411.7 447.4 476.9 488.1 497.4 506.9 515.4 523.5 530.3 536.1 539.4 541.4 542.8 542.4 544 545.4 546.4 545.3 543.5 539.1 529.9 505.7 475 451.4 436.5 421 404.4 387.9 367.4 372 380.4 388.5 398.7 412.8 422.8 429.9 448.9 456.6 459.1 460.6 453.5 428.2 402.6 380.1 358.8 344.6 333.4 329.9 320.5 308.1 293.8 275.4 271 276.9 283.2 294.3 306.2 319.6 335.9 350.5 365.6 372.8 378.7 383.2 383.7 386.7 394.6 408.9 432.9 461.8 496.9 508.9 511.2 512 513.9 519.8 526.4 529.9 531.2 532.2 533.4 534 533.1 532.6 531.7 529.3 525.1 520.8 514.6 505.6 495.4 485 471.6 458.2 447.5 442 436.1 428.2 421.4 411.5 397 379.7 369.3 351.3 339.5 350.9 364.3 377.9 390.4 398.5 402.4 380.9 345.2 319 301.8 292.1 280.6 270.2 266.3 260.5 260.7 271.6 279.5 304.7 315.7 320.5 324 327.6 331.2 334.3 333.6 330.2 322.2 326.5 335.8 339.6 341.1 339.1 338.7 336.8 335.4 341.9 351.6 352.5 351.5 343.4 331.8 319.7 317.4 316.1 314 311.8 312.2 312.3 311.6 312.2 313.7 315.9 316.6 316.8 316 315.2 313.8 311.5 306 299.9 275.9 249.6 227.7 210.8 201 190.1 178.4 165.2 145 139.7 133.9 133.3 137.4 145.7 145.9 142 150.5 158.2 164.6
306.5 285.2 267.5 271.3 279.9 291.9 300.1 301.4 293 309.5 326 346 360.3 376.8 400.3 420.4 460.2 482.4 487.9 492.5 500.8 508.5 515.6 522.1 527.7 531.5 534.2 535.5 535.4 539 542.2 543.7 544.1 543 540.8 535 516.3 489.6 461.6 448.8 435.5 418.6 404.2 384.8 362.3 366.7 375.4 379.1 388.7 395.6 402.9 422.1 442 446.1 436.2 427.4 412.3 393.6 382.7 369.9 343 326.3 318.6 313.3 303.3 289.1 273.8 263 274.7 282.1 293.9 305.4 319 334.3 346.5 354.1 361.3 373.6 377.4 379 383.5 390 400.2 415.6 443.7 476.4 502.8 507.9 511.2 513.4 516.4 525.5 530.9 533 533.8 533.9 532.9 531.4 530.6 529.9 528.4 527 522.8 517.3 509.5 501.8 491.5 481.1 470.5 456 439.8 423.2 402.9 388 381.1 375.3 368.6 356 356.1 365.7 376.5 389.9 401.2 409.9 416.4 420.4 412.1 369.2 339 315.4 298.3 284.1 281.7 280.2 268.1 274.9 276.4 300 318.2 325 333.8 342.2 347.5 351.3 351.4 347.1 341.8 333.4 328.3 338.2 341.8 342.5 339.2 337.6 334.9 334 339.5 350.4 354.6 353.9 350 339.3 327.7 326 324.9 322.3 320.1 320.2 318.5 316.5 315.8 316.3 317.2 317.5 317.6 317.7 317.7 317.1 314.9 310.7 304 284.3 259.9 235.8 215.8 199.6 187.5 182.5 171.5 145 138.2 140.2 133.5 133 145.7 146 141.1 147.8 152.4 158.9
300.9 281.1 264.1 268.9 274.3 281.3 285.5 279.5 297.6 317.1 332 350.1 364.6 383.5 404.5 424.2 467.2 482 488.3 489.7 494.2 500.9 507.5 513.7 519 522.7 523.9 526.1 528.7 531.7 536.8 540.4 541.8 541.9 541.1 537.6 528.8 508.4 481.6 464.5 452.7 437.8 421 399.9 377.5 355.2 361.7 362.5 366.6 373.1 382.4 395 409.9 413.7 407.5 400.6 391.9 381.3 377.7 373.5 345.9 321 312 306.1 301.3 285.9 271.4 260.3 273.1 282.6 293.3 303.1 317.2 331.3 341.3 344.7 350.4 364.3 371.5 375.5 382 388.1 395 405.5 428.1 457.8 488.8 501.4 508.6 511.9 515.2 524.5 528.2 532 533.6 533.1 531.8 530.3 528.9 528 526.8 525.7 524.6 520.7 515.2 508.7 500.2 492.7 485.1 473.6 459.4 444.3 427 409.8 397.6 384.1 372.8 371.7 381.5 392.7 403.7 411.9 420.5 428 431.4 432.8 429 399.7 363.8 335.4 309.5 286.2 282.5 278.8 275.5 280.8 299 318.6 329.1 340.7 354.7 364.3 365.7 367.2 364.5 359.9 356.3 347.1 338.2 336.2 345.9 345 343.2 338.6 337 336 338.1 350 356.7 355.8 353.5 345.7 334.8 334.4 332.2 328.5 325.2 324.5 321.9 318.6 317.5 317.5 317.5 317.4 317.4 317.3 317.3 317.4 316.1 312.5 307.3 291.3 266.1 240.8 218.5 200.1 185 179.9 163.1 144.4 138.4 146.2 135.6 133.8 141.3 145.7 142.4 145.7 151.3 157.6
292.9 278.1 264.9 260.1 269.6 275 271.8 283.6 304.9 325.1 339.4 352.3 369.7 390.7 409.5 439.9 469.4 479.3 484.9 489.3 488.8 492.3 497.1 502.9 507.8 511.2 514 515.7 518.9 524.8 528.5 534.2 537.6 539.2 539.6 538.3 534.3 524.3 504.8 484.8 469.2 457.8 436.1 414.1 389.2 363.8 350.3 345.2 351.7 358.5 365.2 372 381.8 386.8 386 380.8 378.1 374.1 372.6 368.9 346.9 324.4 309.3 300.6 300.5 283.1 266.5 257.6 272.8 281.4 290.1 301.1 314.9 328.9 337.2 340.7 346.9 357.2 366.3 374.5 380.8 386.5 392.1 400.2 415.4 441.1 468 494.1 502.1 510.2 516.8 523.4 527.1 530.5 532 530.8 530 528.7 527.5 526.2 525.4 524.6 523.5 521.1 517.1 512.8 508.4 501.4 496.2 488.1 477 465.9 453.2 440.5 427.8 410.3 394 395.6 407.9 415.4 423.5 431.9 438.9 443.9 446.3 445 440.2 425.3 387.1 355.3 331.6 312.8 295.4 286.9 286.5 302.8 320.3 338.6 351.2 362.9 370.1 378.5 374.3 372.2 370.5 365.7 360.1 354.5 348.9 341.6 343.7 345 343.6 342.7 339.7 338.6 339.5 351.2 357.9 356.7 353.5 347.8 339.6 338.4 337.6 333.5 329.5 327.3 323.6 320.9 318.5 317.1 316.9 316.5 316.2 316.2 316.1 316.1 316.1 313.3 309.1 298.2 270.3 241.7 217.7 197 177 164.7 149.5 143.6 138.9 147.4 146.9 135.9 130.7 141.6 143.9 146.6 153.2 161.5
288 277.9 266.4 248.5 264.3 268 261.2 286.9 308 329.9 342.3 354.3 371.3 395.8 413.9 442.6 461.6 471.1 478.2 482 484.4 481 484.1 488.3 491.9 494.9 497.7 500.8 507.5 515.7 523 526.2 531.2 534.5 536.4 537.2 536.4 532.1 523 505.6 486 471.5 450.3 421.2 394.2 372.8 369.2 361.3 343.5 344.2 348.9 354 361.7 373.3 378.1 374.8 371 368.1 365.4 361.9 341.1 325.7 307.5 293.7 293.4 280 263.5 255.4 270.1 278.3 288.7 298.2 312.7 327.2 333.8 338.3 346.8 356.2 365.3 373.8 380.5 385.4 389.6 395.4 407.8 426.6 452.3 478.9 496.4 508.6 515.3 522.5 525.8 528.6 529.7 528.6 527.8 526.9 525.8 525.5 525.2 523.7 521.6 519.2 516.5 513.7 510.4 507 503.1 496.8 489.7 481.8 471.8 460.8 446.3 427.3 413.8 417.5 426.8 434.1 441.2 448.5 453.4 456.5 457.5 456 450.1 436.5 405.7 369.7 345 330.2 315.9 309.3 314.2 326.9 346.7 359.9 371.1 381 379.6 380.8 380.1 376.4 373.3 368.9 365.4 356.1 349.4 343 342.6 342.4 343.6 347.7 343.6 342.3 344.2 350.9 353.6 352 348.6 344 340.4 339.1 337.3 334.7 332.4 329.7 326.1 322.7 320 317.3 315.7 315.4 314.7 314.5 314.5 314 313.5 311.4 308.5 299.2 271.2 238.4 214.4 193.2 168.5 153.4 144 139.4 138.5 148.2 147.7 138.1 138.1 142.2 145.1 151.4 156.8 165.1
282.2 271.9 262.1 239.8 255.9 250.3 265.9 287.4 309.7 330.8 340.5 352.7 371.2 393.6 407.1 424.1 437 451.9 460.7 465.2 468.6 469.7 464.7 463.9 464.4 466.6 470.2 477.8 491.9 503.8 513.8 521.8 524.9 529.8 532.5 534.6 536.1 535.2 531.5 521.1 500.8 480.1 454.4 414.5 384.6 380.6 375.9 365.9 350.3 342.2 334.8 339.6 350 361.6 369.2 368.1 364.9 361.9 358.6 351.2 332.4 319.5 304.9 288.8 284.5 274.9 260.3 254 266.7 276.5 283.6 293.8 311.1 325.1 331.2 336.1 345.5 356.5 366.5 374.6 378.2 381.4 385.8 392.7 404.3 419.7 440 463.1 487.6 506 513.4 521.6 524.6 528.4 528.1 526.5 525.5 525.1 524.8 524.5 524.1 522 519.9 517.4 515.2 513.4 511.2 508.3 504.7 499.1 493.1 487.5 483 470.8 458.1 447.8 433.1 434.6 443.9 449.5 453.3 458.5 462.2 464 463.6 462.1 457.8 442.4 409.9 376.4 353 340.6 332.8 333.6 341 353.2 369.8 381.7 387.8 388.3 384.7 381.9 379.5 375.5 372.6 368.9 364.1 356.8 350.3 343.9 341.8 340.8 340.7 344.1 347.2 345.7 346.4 349.8 350.5 350.6 345.9 343.1 342.1 339 338.3 337.6 335.3 332.8 328.2 323.2 319.6 317 314.5 313.5 312.6 312.1 312 311.3 310.4 308.4 307.2 297.4 265.6 236.1 205.2 182.1 158.8 142.1 138.2 137.7 137.1 144.6 142.2 138.9 129.9 144.1 146 152.3 159.6 168.4
274.7 264 257.3 237.3 237.6 254.5 267.8 286.9 308.6 327.5 335.9 345.9 358.3 377.4 394 408.6 418.5 422.9 429.9 434.1 436.3 440.3 439.6 431.8 434.2 437.8 441.7 452.7 468.7 484.1 498.5 510.6 518.2 522.6 528.3 531.8 534.4 536 535.2 530.3 510.8 484.2 447.3 402.1 380.9 383.6 379.7 365.9 353.5 346.2 340.3 333.2 332 350.8 360.5 359.3 356.6 354.8 350.9 341.5 325 313.5 300 285.1 273.2 267.4 255.6 255.5 261.2 269.6 277.9 289.9 308.6 323.5 329.1 333.4 340.7 354.9 363.9 369.1 373.1 376.2 382.5 391.1 401.7 417.1 434.4 452.7 472.9 496 509.6 520.1 523.4 526.7 526.8 525.2 523.8 523.7 523.7 523.4 522.7 520.9 518.7 516.5 514.5 512.7 510.4 508.2 504.2 498.6 493 487.3 482.8 476.4 465.5 456.4 450.4 449.1 454.2 457.3 462 466 468.4 467.4 465.9 463.8 461.1 447.1 412.4 383.5 360.1 350.9 347.7 353.7 366.3 381.2 393.5 396.5 396.8 394.5 389.1 384.6 378.1 374.2 371.7 368.9 365.1 355.8 349 342.1 340.4 339.1 339.3 339.5 341 347.1 347.8 349.5 349.6 348.4 346.3 346 343 339.7 339 338.2 337.7 335.5 330.3 324.3 319.4 316.6 314 312.4 310.5 309.2 309.4 309.4 308.8 305.8 304.7 297.7 261.5 230.3 197.1 173.3 150.6 140.1 138.2 136.4 135.8 138 138.8 139.7 142 145.3 146.2 153.3 163.4 174.5
266.5 257.1 251.2 232.4 244.7 257.4 270.6 288.1 309.1 324.2 331.1 337.8 349.2 360.1 370.8 381.6 390.6 398 404.9 408.3 408.2 409.5 410.2 409.2 406 410.8 416.2 431.1 446.1 462.4 478.3 494 508 514.3 522.6 528.2 532.3 536 537.3 533.3 505.2 468.8 430.5 400 386.3 392.5 386.4 371.1 356.5 352 344 337.1 332.3 330.9 345.8 348.5 346.7 346.5 344.1 333.7 317.9 307.1 295 281 267.3 256.3 241.4 253.7 257.8 263.9 274 286.6 304.5 321.2 328.8 330.8 335 348.2 357.2 362.7 366.7 372.2 379 388.7 399.8 412.6 428.8 443 460.2 480.6 501 514.7 520.9 522.7 523.8 522.6 521.9 522.3 522.6 522.6 521.8 520 517.9 516 513.7 511.9 509.7 507.1 503.1 498 492.4 486.7 481.5 476.7 469 461.7 457.8 456.7 458.5 461.9 467.5 470 470.1 469 467.7 465.2 462.6 454.3 424.3 396 376 365.6 367 377.5 393.5 405.9 410.2 411.1 409.6 405.3 396.6 388.3 379.9 375.5 371.5 369.1 364.9 353.9 346.7 337.3 336.3 336 336.5 334.6 332.7 336.7 344.3 344.9 345.9 346.6 345.8 346.1 343.8 341.4 340 339 337.9 336.6 332.2 325.9 320.6 317.4 314.6 311.1 308.2 306.9 306.4 306.5 305.8 302.8 300.4 283.9 254.4 223.6 192.8 169.9 149 143.3 139.3 137.6 135.7 137 138.5 130 146.4 146.2 148.1 157.4 168.5 180
258.5 250.8 243.2 229.7 246.4 257.1 273.7 294.2 318.9 327 329.9 334.8 340.8 347.5 354.5 360.5 368.1 372 377.4 378.5 381.1 381.4 383.5 382.7 385.5 388.8 392.3 409.2 425.9 442 458.5 476.6 494.4 509.7 517 524.7 530 534.3 536.9 531.4 498.1 459.8 429.2 405.4 395.7 398.8 388.5 374.1 360.9 355 345.3 338.3 335 326.1 327 336.2 337.6 337.3 333.9 325.3 312.4 300.6 288.8 276.9 266.2 254.6 235.1 252.1 255.1 261.6 272.8 287.6 304.5 319.2 325.6 327.4 333 341.8 349.6 355.1 360.1 366.6 375.1 385.2 396.6 406.5 420.5 433.1 447.3 465.2 487 506.5 516.7 519.6 519.5 519.7 519.9 521.1 522.1 522.5 521.3 518.8 516.6 514.3 512.1 510.2 509 505.7 501.5 496.4 491.4 485.8 479.3 473.2 468.6 463.4 458.5 456.7 460.3 464 468.9 471.3 471.2 470.4 468.4 466 463.6 459.9 444.1 416.2 403.2 397.9 405.3 413.3 421.6 426.3 426.4 422.9 418.7 412.7 402.5 392.1 384 378.7 373.7 369.8 363.6 352.1 343.8 332.2 329.1 329.4 331.2 329.9 322.9 318.8 326 336.9 341 343.7 344.9 344.9 342.8 341.7 340.3 339.3 337.9 336.2 333 327.6 322.7 318.2 314.7 309.3 304.9 302.2 302.9 302.7 301.7 297 291 265.6 243.3 208.8 189.2 171.3 152.6 144.4 140.1 137.5 135.8 138.4 138.2 134.7 146.5 146.1 152.5 161 173.3 185
250 242.1 230.8 233.8 251.2 262.2 279.4 302.7 325.4 331 331.8 333.8 335.3 336 339.9 345.4 350.8 355 354.6 357.2 359.8 361 361.9 362.8 368 368.9 371.7 386.6 406.2 423.6 442 461.6 483.2 503.2 515.5 521 528 532.9 535.8 531 498.9 462.9 434 408.7 398.3 402.2 391.9 377.2 367.3 356 347.1 339.7 334.7 328 315.7 324 328.6 328.8 325.2 317.6 306.9 295.2 283.8 272.2 260.2 251.5 227.7 248.3 253.2 262.7 274.5 288.3 302.4 316.5 321.6 323.1 329.9 335.1 341.6 347.6 353.2 360.4 369.7 379.4 391.3 402.3 413 425.2 436.6 452.6 473.7 496.5 509.1 514.7 516.1 515.3 517.4 521 522.3 522.4 520.8 517.5 515 512.7 510.7 509 505.9 507 501.2 495.4 489.8 482.6 471.4 463.4 458.1 454.1 451.7 453.3 456.8 462.4 467.3 471.2 471.8 471.3 469.3 466.8 464.4 460.5 453.7 441.5 432.9 435.1 436.8 436.8 436.1 435.7 434 430 425.7 420 409 396.4 386.1 381.2 375.4 370.3 360.4 351.7 342.4 330.5 322.3 321.8 323 321.7 316 308.4 312.1 323.9 333.1 340.6 343.6 343.3 341.5 340.9 340.4 339 337.4 335.8 333 328.7 323.9 319 313.9 307.8 299.4 290.5 295.5 297.8 296.4 287.9 274.9 248.4 229.6 199.8 182.1 171.7 152.5 144.1 139.2 137.3 137.5 138.2 128.6 144.7 145.6 147.8 156.5 166 181.1 197.4
236.7 230.1 227.5 250.1 261.4 272.4 290.4 313.8 326.1 331.4 332.7 332.5 331.1 329.3 329.9 332.6 336.5 338 338.6 341.3 342.7 346 347.3 347.3 349.5 347.5 358.1 370 386.4 407.4 430.5 451.7 476.9 498.3 513.8 520.1 526.3 531.1 534.7 534 508.9 473.4 443.8 418.6 401.2 400.1 396.1 380.5 368.6 355.4 347.1 340.6 336.4 326.8 317.4 315 321.9 324.9 320.3 310.3 301 290.3 279 267.4 252.7 243.8 228.8 242.2 250.6 264.2 275.2 288.4 301.8 313.3 316.4 318.2 325.3 328.7 333.8 338.9 345.3 352.8 362.7 372.6 384.5 396.6 406.8 417.2 425.1 441.5 461.2 481.7 497.4 499.1 502.5 509.6 518.4 522.1 524 523 520.7 517 513.8 511.1 508.9 507.7 500.4 503.5 499.9 494.5 488 477.3 465.2 453.6 446.2 442.9 441.2 447 454.7 460 464.2 468.4 472.4 471.7 469.4 467.5 465.3 461 454.6 450.8 449.8 448.8 446.7 445.5 442.9 442.6 438.9 434.3 431.4 425.5 413.3 401.4 389.2 382.8 378.3 372.9 360.2 351.5 341.3 328.8 320.5 313.3 313.1 312.2 308 297.5 297.9 298.6 318.8 331.4 338.3 340.5 340 339.6 339.3 338.2 336.9 335.6 333.3 329.6 325.4 320.5 314.4 305.7 297 284.8 285.5 290.5 285.7 274.9 256.6 227.8 211.1 193.4 179.6 169 150.7 141.3 137.8 137.7 136.8 134.3 143.8 145.1 144.5 150.6 160.4 172.5 186.2 200.6
228.9 226.1 243.2 254.1 270.4 287.7 298.3 307 316.3 323.9 316.5 319.9 324.4 321.8 320.6 322 324.3 324.8 326.6 330.4 332.9 335.3 335.3 333.9 331.7 327.4 341.4 353.5 374.2 399.6 425.1 449 472.9 496 512.3 521.8 525 529.8 533.7 535.5 522.1 490.9 459.1 433.3 414.1 402.7 395.3 380.5 373.4 358.8 348.9 341.2 333.5 324.3 313.2 307.5 316.7 321 316.1 304.1 294.9 284.7 273.9 260.6 243.7 232.5 219.1 239 249.3 264.7 275.4 288.3 301.5 311.3 312.4 313.7 319.7 322.8 326.7 329.3 335.9 344.8 354.4 364.1 376 387.9 398.7 403.4 406.8 426.3 445.6 462.8 469.8 471.3 486.2 512.3 519.8 523.2 524.7 523.6 521.5 517.7 513.8 510.8 507.8 505.8 502.2 501.3 496 486.6 477.4 469.2 459.7 448.8 439.2 427.8 425.8 440 448.8 454.8 458.6 463 470.7 470.8 469.2 467.9 465.4 460.9 455.8 455.6 455.9 455.3 453.4 450.1 447.7 445.2 441.5 438.9 433.2 428.8 416.6 403.8 391.4 384 379.3 374.3 361.1 352.7 341.5 329.1 319.2 311.7 301.6 299.2 296.4 296.6 297.1 297.5 299.6 312.5 323.3 330.4 334.6 337.8 337.7 337.2 336.5 335.6 334.6 331.5 328 323.3 316.6 306.3 297.9 283.4 268.2 279 274 257.4 233.9 213.6 201.1 190.3 176.2 164.6 148.1 138.7 137.8 137.5 137.4 137.7 145.9 145.5 146.1 155 166.9 180.9 196.4 211.9
228.2 237.9 261.5 272.5 283.5 291.6 295.2 296.9 299.3 304.1 308.3 306 303.3 303.1 301.2 304.3 304.6 305.8 310.5 314.8 316.5 318 315.3 313.1 309.6 310.6 335.8 354 370.2 391.6 421.2 446.6 469.7 495.3 511 519.4 523.9 528.5 532.2 534.8 531.8 507.8 476.5 449.1 427.1 413.4 398.9 383.4 373.9 365.1 348.5 340.8 333.4 323.9 311.2 293.3 304.2 308.1 304.8 296 287.6 278.4 266.8 250.1 235.2 225.2 216.5 235.1 248.9 263.5 275.5 292.4 304.9 309.3 309.6 310.5 313.9 316.9 319.1 321 326.1 335.6 345.3 354.4 365.4 379.7 389.8 392.6 397.2 410 427 436.1 434.4 463 496.6 514.3 519.1 523.8 525.2 524.5 522.1 518 513.8 510.2 507.4 504.6 501.9 498.4 490 477.2 462.8 458.7 454.6 447.1 439.6 426.9 416 428.9 438 444.5 449 455.3 461.5 463.9 465.2 466.2 465.3 460.6 457.5 458.2 458.7 458.8 456.5 453 449.7 447.3 444.1 440.5 433 425.1 411.6 403.4 392.5 385.1 380.4 375.5 361.3 354.8 345 332.3 324.8 316.1 306.6 298.1 289.1 275.5 282.6 287.5 291.4 295.3 304.2 313.6 321 328.7 334.4 335 335.5 336.8 336 333.4 329.9 325.3 318.1 308.7 297.7 278.7 257.9 260.9 257 238.4 219.7 202.5 191.6 182 169.7 158 148.4 138.9 137.6 137.2 137.7 127.5 142.8 145.1 150.4 160.3 174 190.8 205.9 229.2
239.2 259 274 280.8 288.1 289.7 288.8 287 283.9 285.8 287.4 284.8 284.6 282.4 280 283.2 283.8 282.7 290.2 290.7 291.2 291.4 289.7 286.2 286 317.6 339.7 354.7 371.3 394.7 418.4 445.1 468.5 493.5 510.6 519.6 525.7 527.3 531.2 533.5 532.6 522.8 493.1 463.1 438.1 421.3 407.5 393.2 378.3 371.6 350.4 338.4 333.4 321.5 310.8 297.2 286.5 289.6 284.9 281 277.1 270.6 257.7 240.8 227.5 215.1 215.3 233.5 248.4 262.2 275.2 293.6 304.8 306.8 306.1 307.5 309.2 311.6 311.9 312.1 315.8 323.8 334.7 343.4 353.5 368.1 381.5 387.1 386.2 394.6 404.1 404.7 431.4 464.3 496.5 513.2 519 524 525.6 524.8 521.5 517.4 513.6 509.8 506.1 503.4 500.9 498.8 497 485.4 470.3 457.1 445.9 443 435 420.6 406.2 415.1 423.4 430.2 435.2 441.9 448.2 452.8 456.7 460.6 463 461.3 458.7 459 460.4 460.3 456.8 453.5 450.5 447.9 444.1 440.7 430.9 419.5 403.6 398.7 390.9 384.4 381 375.4 361.1 353.6 346.1 335.4 330.1 322.6 307.8 297 289.4 281.6 265.3 275.1 278.2 284 288.8 296.9 306.2 317.2 327.1 332.4 333.4 336.7 337.9 334.6 330.3 323.4 316.2 308.3 295.2 274.1 254.4 234.3 243.5 229.9 210.6 193.7 179.9 169.2 161.6 155.5 145 140.1 137 135 137.5 136 136.6 147.6 157.1 167.2 181.2 198.8 220.7 250.9
252.8 272.6 277.4 279.8 281.1 279.1 276.6 273.8 270.4 270.2 271.1 266.9 264.7 262.7 259.2 261.1 261.4 262.3 267.6 266.8 267.8 268.9 266.6 269.6 290.6 317.3 340.3 356 371.1 392.1 415.2 442.7 469.2 495 511.5 519 524.7 528.3 529.3 531.6 531.4 528.6 505.8 476.2 448.9 427.6 413.6 400 387.3 377.7 363.7 346.5 332 322.9 314.8 303.4 294.7 273.9 261.6 246.3 250.7 254.9 248.1 234.2 221.8 212.4 210.2 229.6 244.2 259.3 276.1 292.8 302.4 302.4 301.4 303.7 304.4 306.2 304 300.3 304.8 313.1 323.3 331.9 344.3 357.8 370.4 375.8 375.1 378.5 378.8 398.6 427.7 458.6 491.6 510.2 518.5 523.1 525.6 524.6 520.9 517.1 513.3 509.5 505.7 502.1 499.6 497.4 495.5 487.9 473.7 460.1 448.2 436.9 428.1 412 401.3 399.7 414.6 421.9 426.9 431.5 433.9 437.5 443.1 448.4 454.2 457.2 458 459.4 460.1 458.7 455.6 453.3 449.5 443.9 438.8 435.3 425.9 404.9 397.7 393.7 389.1 384.2 380.9 370.9 356.7 352.2 345.3 337.1 333.6 328.3 318.2 299.3 287.4 276.2 266.7 256.2 266.7 271.5 278 283.3 290.8 302.5 311.6 321.9 328.4 333 336.5 335.2 329.5 322.5 315.5 308.2 291.3 269.1 251 233.4 233.5 222.5 205.3 184.9 171.5 163.3 158.7 155 141.8 139.3 137.5 133.7 137.4 127.1 142 150.6 160.5 173.8 193.3 211.6 236.2 263.2
249.7 264.4 271.7 272 266.2 264.3 262.8 259.7 256.3 255.9 254.7 251.5 247.6 244.9 243.5 244.6 244.4 246 248.9 255.2 260 262.1 262.9 280.6 295.7 308 335.7 353.8 369.1 390.8 416.1 442.8 469 494.2 509.8 517.1 523.1 527.2 528.4 529.5 529.6 527.6 517.3 489.5 461.5 435.3 419.6 406.6 394.5 382.1 370 356.7 342.5 328.2 317.9 308.5 300.9 290.8 277.7 260.4 240.2 234.7 236.9 231.9 220.2 208.8 211.7 225.2 238.1 255.2 276 290.6 296.9 298.2 297.4 298.8 298.5 298.4 296 288.9 294.4 301.9 311.8 321.6 332.6 345 358.3 365.8 364.5 361.1 374.1 396.6 422.4 451.1 484.6 506.4 517.1 521.7 524.4 523.8 520.1 516.1 512.2 508.3 504.5 500.7 497.4 494.2 490.6 483.7 472 459.7 449.1 442 434.7 416.5 401.6 393 404 416 421.3 424.6 427 427.9 428.8 432.6 436.4 443.6 452 457.6 456.3 454.6 453.3 450.1 440.8 437.4 432.7 424.9 414.9 400.1 395.1 390.9 387.2 383.8 380.4 363.8 354.9 350.2 342.3 337.3 334.2 330.8 324.3 305.1 288.8 273.7 260.3 251.1 251.2 256.7 264.5 271.7 275.7 280.4 288.2 303.4 312.7 319.3 326.5 332 328.9 321.8 315.1 308 288.5 265.1 248.7 223.5 215.1 211.3 191.5 174.6 164.9 160.2 156.9 156.3 141.2 136.7 135.7 133.3 128.7 135.2 146.8 154.6 163.9 179.8 200.1 224.2 249 271.4
231.1 241.4 249.3 252.1 249.3 247.9 247.2 245.4 242.1 242.2 241 237.5 234 233.7 232.6 231.8 236.6 244.4 252.5 258.9 265 268.2 274.2 294.8 315.6 333.9 337 349.7 367.7 388.4 415.9 445.8 469.9 492.1 507 515 520.2 525.1 528 526.7 526.9 525.9 521.3 502 473.9 447.1 427.4 412.7 399.3 387.4 376.5 366.1 352.7 337.4 322.7 313 304.5 295.4 287.3 276.5 262 242.6 229 215.8 212 205.4 206 220.7 232.4 252.4 273.1 288.3 294 296.1 294.2 293 292.5 291.5 287.3 279 285.7 292.6 299.9 310.8 321.1 330.3 341.8 349.5 355.3 356.5 371 392.2 415.4 443.8 476.2 502.5 515.9 520 522.8 522.6 519.6 515.3 511 506.9 503 498.4 493.6 488.9 484.6 478.7 468 458.4 449.7 442.2 434.5 418.5 401.6 390.4 390 401.9 412.3 417.1 420.3 421.6 422.5 422.2 420.8 427.1 435.8 445 448.6 445.8 445.7 437.8 425.2 420 415 408 401.7 396.9 393 387.6 380 379.2 373.2 360 351.2 346 337.4 333.2 331.4 328.6 321 303.6 288.4 266.1 253.5 247.4 234.2 247.1 247.9 254.2 259 262.8 269 281.1 293.9 303.1 313 323.1 321.3 318.1 312.6 304.2 285.6 264.3 246.2 218.9 206 204.1 188.8 171.6 164.8 160.5 154.7 148.6 142.2 135.5 133.8 125.2 137.4 146.5 149 157.8 168.8 186.9 208.9 237.7 261.9 283.8
215.1 223.3 235 239.1 232.8 231.4 230.5 229.8 229.2 229.4 228.1 225.6 224.9 224.7 222.4 232.2 240.7 249.5 257.8 266.5 272.3 280.3 291.1 311.9 331.2 344.4 354.5 360.1 367.5 390.6 419.6 449.2 473 490.2 502.4 511.6 517.2 521.6 524.3 526.4 523.6 522.2 518.7 509.8 487.9 461.6 437.2 421.1 407.4 394.6 385.1 375.2 363.1 350.3 333.5 320.4 309 299.5 291.7 282.3 269.6 253.7 240.5 226.4 216.3 207.5 201.2 215.8 226.9 247.4 268.8 285.1 294 296 292.6 287.7 286.4 283.9 278.8 273.5 277.1 282.2 289.1 298.5 307.5 313.4 316 331.6 338.9 354.2 371.5 386.8 406.6 434.1 472 500.2 514.2 518.2 521 521.3 518.8 514.7 510.4 506.1 501.3 495.7 489.2 483.9 478.9 473.4 464.8 456.4 449.3 441.8 433.6 421.3 404.2 391.6 370.5 384.9 395.3 403 407.1 411.4 414.1 414.9 414.8 416 420.5 424.8 429.2 431.9 428.1 419.8 410 406.8 403.6 400.3 395.7 391.4 381.6 371.9 361.3 354.3 349.5 343 334.4 327.6 320.1 315 313.6 309.4 302.4 296 280.2 255.4 247.2 244.8 238.3 229.8 237.8 238.4 241.4 246.2 251.4 261.8 270.5 278 288.7 294 296.1 296 293.4 287.2 273.8 257.7 236.2 209.6 191.8 193.4 186.8 172.6 166.3 160.4 154.2 147.9 141.2 135.6 133.6 129.2 138.7 146.3 150.8 160.7 174 194.5 221.2 243.9 270.3 295.1
208 212.6 219.9 223.2 221.3 220.1 220.6 220.4 218.6 217.8 215.2 217.5 219.1 219.1 224.7 236.6 245.8 255.9 266.4 275.2 284.6 291.8 305.6 322.7 343 354.7 365.5 376.3 388.4 401.6 419.8 451.8 473.5 487.2 497.7 507 513.4 517.6 520 522.1 522.6 518.6 515.1 510.8 500.3 475.8 452.5 433.5 421.7 409.1 397.9 385.3 372.5 361.7 345.5 330.9 318.2 307.4 297.7 287.1 276.8 259.8 241.8 226.6 216.5 207.7 198.4 211.5 222.9 239 261.3 278.7 289.5 292 290.3 284.4 280.3 277.5 270.8 267.5 268 272.9 280.2 289.2 295.9 300.7 316.5 331.6 341.2 350.4 364.4 383.8 401.9 423.5 467.6 497.3 510.7 516.4 519.5 520 517.6 514.7 510.7 506.6 500.1 492.6 485.5 478.5 472.5 465.1 457 447.3 442.8 437.1 430.5 420.3 405.4 394.9 372.6 365.5 377 383.3 386.4 391.4 400.5 406.9 411.1 412.4 414.2 412.9 414.5 416.2 414.2 409.4 402.9 398.9 392.7 382.4 374.3 365.9 356.1 348.5 337.9 328.1 321.3 314.5 307.1 302.1 295.4 289.3 285.4 280.5 276.7 270.9 261.3 246.8 241 238.4 236 224 225.3 228.1 229.1 234.8 241.6 246.8 255.8 262.9 268 270.6 271.7 274.1 263.3 266 257.1 246.4 225.2 206.4 191.2 184.7 183.8 176 168 161 154.6 145.1 136.2 132.9 130.2 129.8 139.9 145.6 152.8 164.2 183.6 200.3 225.6 248.6 277.8 299.8
202.4 205.7 210.7 212.3 212.6 212 212 211.6 209.9 211.4 214.9 217.7 220.3 225 233.8 241.7 253.6 265.1 276.4 288.4 297.4 305.8 318.7 339 354.8 365.6 377.8 392.5 411.3 425.3 441.9 458.5 473 485.3 493.5 502.9 508.9 513.1 515.8 518.1 518.5 517.4 514.4 507.3 501 490.3 473 454 438.9 428.4 416.4 396.1 382.4 369.2 354.2 340 328.3 316.8 305.4 293.2 283 268 243.6 222.1 214.3 207.4 197.5 206.9 217.6 230 252.8 271.5 282.6 287.7 286.7 280.9 274.1 271 262.7 262.1 257.4 262.7 271.6 280.8 287.4 299.3 314.2 331.5 337.2 348.6 366.3 378.8 394.8 420.8 464.4 493 506.3 511.8 516.1 518.3 516.8 515.1 511.9 507 499.9 492.1 483.7 475.1 466.6 454.5 445.5 437.5 432.9 429.8 424.7 414.5 399.5 392.3 381.7 354.9 344.6 353.4 361.4 368.3 379.4 389.9 401.3 409.4 409.8 408.6 409.5 408.8 407.1 402.5 393.3 379 366.7 356.5 345.2 334.8 326.4 320.9 310.6 302 297.5 292 286.9 282.7 276.6 272.3 267.5 262.6 258.4 253.1 246 239.7 234 231.4 227.5 222 216.9 219 220.4 223.4 227.7 232.4 237.9 244.8 249.6 251.4 254.5 256.1 254.8 252.3 243.4 226.6 213.3 202.3 191.4 179.2 178.4 174.2 167.8 159.1 152.4 142.1 133.1 132.1 124.4 129.4 141.5 146.8 154.9 168.8 186.1 206.8 229.3 252.4 282.5 306
196 199.4 200.9 203 203.7 203 203.4 204.9 209.3 212 215 222.1 231.6 239.8 246.7 253.2 262.4 275.8 289.2 303.6 314.7 325.2 336.9 353.8 367.1 377.7 392.8 410.8 430 441.4 461.8 474.4 480.3 485 491.7 499.2 504.6 508.7 511 512.7 513.6 512.9 509.7 505.3 497.5 492.4 483.7 471.2 458.3 449.9 437.9 410.7 388.9 374.4 361.5 349.5 337.5 326.4 314.2 300.2 291.8 278.5 253.9 227.8 213.8 207.3 197 201.6 211.3 222.1 243.3 265.3 275.9 280.5 281.2 276.9 268.1 260.7 255.7 255.3 247.1 256.1 262.9 269.4 285.1 298.7 313.9 326.9 334.5 345.6 364.4 378.9 391.6 422.3 462.1 487.2 501.1 507.6 512.6 514.5 515.9 514.7 512.2 507.4 499.6 491.8 483.6 474.9 467.4 459.2 449 434.4 423 419.2 415.4 406.8 392.6 376.9 365 354.4 341.2 327.2 331.3 338.3 354.6 370.7 386 397.9 401.4 401.9 402.3 401.6 396.6 385.5 372.4 355.8 337.6 325.9 316.7 308.5 301 294 288.4 286.3 284 280.4 277.2 274.5 270 265.7 260.6 256.2 250.7 246.6 241.3 235.3 231 226.7 220.3 216.9 212.9 212.4 213.3 214.3 216.5 219.6 222.8 227.2 231.4 235.1 237.2 237.9 237 234.5 227 215.9 206.6 199.1 190.4 178.2 170.6 170.1 161.3 154.1 145.7 137.2 132.4 131.8 123 128.5 140.9 146.8 155.5 170 187.3 210.9 238.7 253.8 284.2 308.6
191.4 193.9 196.5 196.8 195.2 195.8 197 202.2 207 213.8 224.1 235.1 245.1 251.6 259.7 269 277.5 287.3 301.9 315.7 329.7 341.6 353.2 365.7 377 390.6 408.2 431 440 460.8 476.3 483.2 485.7 487.8 491.5 495.9 500.5 503.4 505.1 506 506.7 505.1 502 498.6 493.3 485.7 479.1 470.3 457.4 447.8 436.5 407.5 391.4 379.5 366.4 357.2 347.2 336.3 321.9 306.9 295 283.4 255.9 231.6 215.6 206.5 198.7 195.8 207.1 217.7 231.8 257.3 269.2 273.5 273.9 271 262.7 258.1 247.9 249.9 243.7 249.9 255.1 270.2 280.5 297.5 311.4 323.3 337.3 345 359.7 380 401.1 426.9 456 477.1 491.2 500.9 507.6 510.4 511.9 513.3 512.7 508.2 500.5 493 485.6 478.9 472.5 466.7 458.7 444.9 432.5 421 411.9 401.1 399.5 393.5 381.1 365.2 351.8 340.9 326.7 313.6 329.4 349.8 369.6 389 393.1 392.1 390.7 389.3 378.1 366.4 342.5 325.5 312.6 303.4 296.8 292.1 287.8 282.3 278.9 275 273.8 271.5 269 265.8 261.4 257.2 253.9 246.5 243.3 239.9 235.2 230.3 226.1 220 214.5 212.3 212.1 205.3 204.6 205.1 207.6 210.5 212.8 215.5 217.9 219.9 223.9 226.6 224.7 221.6 217 209.8 201.5 195.1 188.3 177.7 164.6 162.8 154.5 147.1 139.7 139.7 132.2 131 126.7 128.5 138.7 147 156 172.5 189.6 214.3 245 271.1 284.2 307.4
188.5 189.5 191.1 191.4 190.7 192.3 196 202.7 211.8 220.7 229.9 241.4 252.8 263.3 274.9 284.2 295.4 304.9 312.7 325.4 341 354 364 374.4 387.1 404.4 428.7 439.1 460.8 478.9 484 488.8 489.3 490.6 492.2 494.1 497.1 498.7 500.3 500.3 499.1 496.5 493 488.9 484.3 478.6 470.4 462.1 452.9 440.5 417.5 396.9 389.2 382 370.9 362.2 354.3 342.5 327.2 312.2 299.7 286.6 251.3 240.4 221.4 209.9 202.6 193.9 202.3 211.1 221.5 242.8 263.3 267.5 267.6 264 258.7 253.6 242.1 244.1 233.2 245.7 255.4 265.7 278.6 291.6 303.5 315.5 331 342.9 354 371.1 394.7 416.3 443.6 464.8 480.8 491.2 501 505.3 507.9 509.6 512.4 510.3 503.5 496.6 490.2 484.2 478.6 472.9 467.3 456.4 444.1 433.8 422.7 412.9 408.1 401 389.8 376 362.4 350.1 335.8 308.6 306.9 328.4 349.5 371.7 383.7 378.8 372.9 368.5 351.2 331.4 316.3 302 293.4 287.8 284.6 281.7 277.1 271.8 268.1 265.2 260.9 259.6 259.3 255.8 251.1 248.1 243.4 239.5 237.3 233.3 229.3 224.7 220 215 209.4 207 207.1 198.7 198.3 198.9 198.9 202.1 206.4 209.8 211.8 212.8 213.2 213.8 215.8 213 208.1 201.8 195.5 189 183.6 177.6 166.5 155.7 148.5 142.1 138.2 136.3 133.5 129.3 126.1 127.8 136.4 146.4 153.7 172.1 188.6 215 237.4 268.6 287 306.9
187.7 185 187.2 187.6 187.5 193.7 202 209.2 217.8 226.9 236.2 246 259.2 273.6 284.3 298.6 312.2 320.1 331.1 346.2 356.4 363.9 373.6 384.8 400.6 422.6 439.3 453.2 476 482.6 484.9 489.4 492.2 491.5 491.2 492.2 493.3 494.2 494.7 494.7 493.1 490.9 487.5 483.3 478.3 472.4 464.3 456.2 446.1 433.2 408.1 397 390.5 379.8 369.4 359.9 351.7 341.2 328.6 315.6 302.9 293.8 271.3 242.1 221 210.4 201.7 191.9 193.7 205 216.5 229.9 253 264.1 263.8 259.3 254.3 248.6 239.9 240.4 229.2 248.1 257.4 265.6 276.1 285.9 298.9 313.5 328.2 341.2 352 364.3 386.5 408.2 431.3 451.3 470.6 483.4 492.3 499.6 502.8 507.2 510.8 512.6 507.5 501.1 495.1 489.2 483.6 477.9 472.5 466.6 455.7 444.7 433.5 424.3 416.2 408.2 397.2 384.2 371.3 358 343.8 320.9 300.7 309.4 326.5 342.3 353.9 351.7 345.1 337.8 324.2 309 293.9 284 277.6 276 274 270.7 266.3 262.9 257.4 256.2 253.7 250.6 247 244.6 241.2 238.3 234.5 230.8 227.5 224 218.6 213.9 208.7 203.7 200.2 198.7 197.4 196.4 194.8 195 195.3 196 200.8 205.7 206.7 207.4 207 207.4 206.9 203.4 197.3 190.3 186.3 182.1 178.5 173.9 168.5 158.6 148.5 143.3 138.7 136.7 135.1 129.5 124.3 126.2 133.4 144.4 152.2 168.1 184.5 212.7 233.3 255.7 284.3 303.9
192.6 182 182.8 182.7 188.3 197 204.9 213.5 222.8 232.7 241.9 250.6 263.9 278.7 294.6 310.7 323.7 341.3 355.8 362.9 368.8 376.5 384.9 397.7 415.9 435 447.4 469.7 479 482.1 483.7 485.2 489.1 489.6 487.9 488.7 490 491 489.7 489 487.7 485.5 482.1 477.3 472.2 466.2 458.6 449.2 440.4 427.9 407 394.7 391.7 383.1 366.7 355.4 348 340.8 331.7 320.9 312.2 300.9 279.4 244.5 220.9 210.1 199.7 193.4 191.3 201.4 209.3 225.1 242.8 258.2 258.2 251.9 243.5 238.6 237.7 234.9 234.8 250 258.9 268 276.2 284.1 298.6 313.1 328.6 341.8 351.8 359.5 375.6 397.3 418.8 437.7 459.2 474.8 484.5 492.1 497.9 504.8 511.4 513.7 511.7 506 500.1 494.2 488.5 482.1 476.2 471.5 464.9 454.4 443.4 434.9 425.1 415.9 404 391 377.9 363.6 349.6 324.2 302.1 294 303.4 312.6 319.7 319.8 313.6 307.4 297.8 287.4 279.1 272.2 267 262.6 262.2 258.1 253.8 248.5 249.4 249.9 247.3 243.1 237.3 232.6 231.7 230.4 226.4 224.5 222.3 220.1 217.9 215.4 213.3 207.1 203.3 200.1 195.8 191 191 191 191 191 192.5 198.6 201.1 202.7 201.9 201.6 200.8 196 190.6 185.8 182 177.6 173.8 170.3 167.3 161.5 147.9 143.6 140.3 138 136.6 136.2 122 125.2 129.7 140.4 149.2 166.6 179.2 203.2 231.8 254.1 284.5 301.4
197.7 181.1 179.8 183.9 190.7 199.6 208.8 218.4 227.7 237.1 247.2 256.9 269.8 283.5 304.2 322.7 342.5 360.7 368.2 375.2 383.3 392.4 402.4 416.1 432 446 462.2 472.4 477.3 479.4 480.2 480.9 481.9 482.9 483.6 484.6 486 487.1 487.1 485.7 484 481 477.1 471.7 466.3 460 452.4 443.4 434 421.9 404.6 386.9 380.5 382.3 373.2 357.8 347.2 341.3 336.1 325.9 315.3 304.4 282.7 249.6 223.4 208.9 198.2 192.5 188.2 198.1 206.3 215 231.4 244.3 248.7 242.4 237.5 233.2 231 220.6 241.3 250.7 259.4 268.7 276.3 284.2 295.4 311.6 328.9 341.3 349.9 355.2 367.2 385.6 403.6 421.2 444.4 462.9 474.7 487.9 497.4 505.1 511.6 514.1 514.8 509.7 503.8 497.5 491.2 484.8 480 475.2 470.3 462.6 453.2 445 434.6 421.1 407.9 395.6 383 368.2 353.4 326.3 302.8 287.6 285.3 286 290.7 291 291.3 285.3 277.4 271 256.6 254.8 257.4 257.5 256 255.6 254.5 254 254.1 253.7 253.1 251.5 249.5 244.2 236.9 231.8 230.6 229.5 225.3 223.1 221.5 220.4 217.2 214.9 210.4 205.4 201.6 199.3 197.4 195.5 194.2 193.5 192.8 193.5 194.8 197 195.5 194.7 193.7 190.8 186.1 181.2 177.7 173.5 170.3 166.6 163 157.7 149 143.6 139.9 138.7 137.2 136.5 124.3 124.5 126.1 134.7 147.5 162.9 174.5 194.3 225.9 249.1 278.9 301.4
194.1 184.4 176.2 183 191.5 201 209.7 221.9 233.1 241.6 251.4 262.4 274.6 292.4 313.1 330.7 355 369.9 379.9 388.8 402.5 414 421.9 432.3 447.3 457.9 465.4 469.7 473.6 475 476 476.5 477.2 478 479.1 480.4 481.9 482.9 483.5 482.3 480.8 476.7 472 466.5 460.6 453.8 446.2 437.8 426.5 411.2 396.6 378.5 366.9 371.2 375.2 365.7 350.1 343.6 339.2 329.5 318.2 306.3 288.2 254.2 225.9 209.3 198.8 191.1 186.8 195.5 202.1 215.3 220.5 232.9 235.7 233.7 229 228 224.3 228.7 239.1 250.3 258.7 268.9 276.5 282.1 290 307 325 337.6 344.3 349.2 358.4 374 391.6 407.9 424.9 447.8 468.4 484.7 496.4 505 509.7 513.3 515.1 512.1 506.3 500.1 493.9 488.4 483.5 478.3 473.1 466.3 456.9 446.3 434 420.6 408.4 396.7 383 363.9 342.8 311.1 299.5 292.7 285.1 278.5 278.5 278.5 279.3 270.8 268.5 267.6 269 270.5 272.2 270.9 268.2 267.1 264.9 259.8 256.2 255.3 255.5 257.1 258.6 254.5 248 242.4 238.5 238.4 236.7 232.4 232.7 231.7 228.2 224.5 219.4 212 202.5 200.6 199.6 199.1 196.2 194.9 191.2 191.1 190.4 190 188.2 188.6 188.4 182.4 179 177.2 173 170.2 168 163.8 160.5 156.5 151.9 147.3 137.5 139.2 136.9 136.1 121.7 125.2 123.9 129.2 143.1 153 171.2 187.8 216.3 241.6 270.2 292.7
190.6 189.2 173.4 179.7 189 201.5 214.5 226.3 238.8 248.2 256.3 268.6 282.6 303.4 323.3 344.4 365.4 378.4 389.5 401.5 416.2 427.8 432.2 443.1 453.8 460.1 464.1 467.1 468.6 469.7 469.8 470.1 470.6 472.2 472.9 474.9 477.6 479.6 479.7 479.4 478.1 474.3 469.3 462.9 452.4 446.6 439.4 429.8 413.3 394.9 383.3 369.4 360.9 358.7 364.1 368.3 358.1 343.8 338.7 328.9 319.6 308.1 294 258.7 230.2 211.8 199.6 191.1 184.4 193.4 197.5 211.2 217.2 222.5 227.3 228.3 223.4 222 225 230.5 237.8 249.1 257.7 267 274 278.5 284.6 296.9 314.3 324.9 332.7 338.9 349.9 362.1 378 393.6 413.7 435.2 458.9 477.4 490.4 499.6 505.8 509.9 512.3 512.2 507.1 501.7 495.7 490.6 485.4 480.2 474.5 467.4 456.4 444.3 431.8 420.4 408.2 394.6 376.9 345.8 331 323 321.7 306.1 296.7 291.8 287.2 284.5 283.4 281.4 281.8 281.2 282.4 283.3 282.9 282.2 282 280.6 278.8 275.8 271.5 269.3 265.1 262.9 262.1 261.6 258.4 254.2 252.7 253.6 252.6 250.2 248.3 250.3 245.3 237.9 230.8 222.5 214.7 209 202.9 198.8 196.9 196.2 193.8 189.6 188.8 187.7 186.3 182.1 178.6 178.3 177.8 177.6 166.3 165.2 167.9 163.7 161.6 158.3 155.1 135.4 135 127.6 128.5 123.3 120.5 124.3 123.6 124.8 138.9 148 159.9 181.3 206.2 231.8 256.3 281.4
190 188.1 172.5 177.3 188.6 204.7 217.9 230.6 241.4 252 259.9 270.2 289.6 310.7 333.5 356.8 374.3 385.1 396.1 413.6 426.1 435.4 441.1 448.2 453.9 457.8 461.3 462.8 463.8 463.7 463.2 461.9 459.7 456.9 455.8 467.2 473.4 475.9 476.8 476.4 475.3 471.9 466.5 460.5 449.5 426 419.8 414 392 376.7 372 363.4 354.5 349.8 352.4 358.3 361.1 348.7 334.8 327.6 319.2 306.7 294.2 259.3 232.9 212.8 198.7 191.1 182.7 189.8 194.1 202.4 213.3 219.7 224.2 225.5 220.7 216.2 223.4 230.7 240.5 247.7 257 264.7 273.2 277.6 281.1 286.5 298.6 310.6 321.4 331.4 340.1 350.4 361.7 381.4 404.8 421.5 447.1 466.4 480.9 490 497.4 503.4 508.2 509.3 507 501.8 496.9 491.9 486.8 481.6 475 468.1 456.9 444.7 433.2 421 408 393 373.8 349.7 362.1 359.2 347.2 324.1 315.3 307.5 304.1 298.5 296.8 294.9 294.9 292.6 292.4 293.4 292.9 292.5 293.1 293 292.9 289.8 285.8 283.6 278.1 272.5 272.7 273.1 274.6 272.6 275.5 275.5 275.9 277.2 275.1 273.7 268.2 259 252.4 238.7 225.7 217.2 210.7 202.3 197.7 197.4 196.4 192.9 189.2 188.9 188.6 183.7 178.8 178.4 178 177.7 166.8 169.3 171.1 168.4 166.1 160.8 154.8 146.3 143.2 139.2 133.8 131.2 120.8 122.3 123.5 123.4 132.2 142.9 150.5 169.5 194.7 224.6 239.4 261.9
189.1 181.9 171.7 180.8 188.8 204.9 219.4 233.7 242.7 251.4 264.6 276.7 297.1 319.3 342.8 361.7 376.9 387.7 398.4 416.6 431.1 439.7 443.1 446.9 450.6 454.5 457.1 458.8 458.6 457.1 454.2 450.6 443.8 437.9 436.6 455.8 467.5 472.7 474 474.6 473.4 469.9 464.7 455.7 441.4 419 398.1 389.1 379.6 373.5 363.9 355.7 348.8 342.9 340.3 346.7 352.9 353.3 337.7 326.1 318.7 306.5 294 261.2 233.3 211.8 196.3 189.7 183.8 184.1 190.6 196.1 202.9 209.9 214.8 218.7 213.4 213.8 222.3 231 237.9 245.9 256.1 262.7 269.9 276.3 279.1 281.8 287.6 297.9 309.7 321.2 330 338.2 350.5 372.6 393.4 411.2 429.7 453.5 469.8 481 488.3 493.6 499.8 504.7 504.5 500.7 497.1 492.7 488.1 482.4 476.2 468.6 457.5 445.2 433.6 420.3 406.3 393 376.9 366.8 381.1 378.2 370.7 357.4 342.5 329.5 321.3 318.3 314.2 309.5 309.3 307.5 304 305 304.1 302.5 306.5 313.2 315.9 311 305.1 305.2 299.5 293.1 294.2 302.4 304.1 299.6 312 313 312.3 309.3 304.3 299.5 292.4 276.3 272.8 256.3 235.2 223.5 216.5 207.7 197.2 197.5 197.4 197.6 191.8 189.3 196.2 187.7 187.6 191.6 193.3 194.1 193.8 194.5 190.4 178 176.8 168.2 160.5 154.3 151 145.9 137.9 133.1 130.3 120.8 124 123.4 126.5 135.2 143.5 156.8 180.3 212.2 229.4 242.7
184.3 174.3 172.7 179.8 191.5 204.9 219.3 232.3 243.4 254.3 267.9 284.6 305 326.1 345.4 362.7 373.6 387.9 397.3 413.2 428.3 436.6 440.9 442.9 446.5 449.3 451.5 452.6 452.3 448.8 442.9 435 424.7 416.4 428.4 444.5 460.4 468.5 471.6 472.6 472.1 468.5 462.3 450.1 430.8 407 398.1 387.2 367 362.6 352.8 345.4 340.5 337.2 331.1 334.7 341.1 345.9 342.7 327.3 319.2 307 295.5 261.2 234.1 212.2 199.6 190 184.2 181.1 188 191 196.6 200.9 205.9 209.1 204.1 210.6 217.3 227.2 234.3 243.7 254.1 259.2 264.1 273.4 277.2 279.7 283.8 287.1 295.4 308.2 316.8 331.1 344.1 361.1 381.9 397.6 415.2 432.8 458 473.1 480.6 484.7 489.6 494.2 498.6 498.5 497 492.9 488.2 482.3 475.8 468.6 457.5 445.4 432.3 418.2 404.3 391.6 377.9 383.9 392.5 390.7 386.1 381.9 371.7 353.5 342.3 338 334.4 328.7 327.2 326.8 327.3 323.8 321 320 337 351.8 356.1 355.2 351.4 342.2 336 334.8 332.7 333.2 333.3 325.2 338.8 338.6 335.4 329.6 321.6 312.1 302 296.7 293.8 271.6 249.5 230.4 221.6 213.5 203.6 197.8 197.7 197.8 198.7 203.1 206.8 208.2 209.4 211.7 212.4 212.4 210.2 206.8 202.8 196 182.2 177.3 165.9 159.3 155 149 142.3 136.5 132.8 120 121.4 122.4 122.7 131.8 140.3 148.5 163.5 184.9 210.2 229.8
181.4 170 177.1 179.9 192 204.2 219 232.4 244.4 256.7 272.3 294.3 315.1 330.9 346.1 360.1 369.6 384.2 394.8 404.1 418.5 426.9 433.1 434.5 437.2 438.2 437.8 438.8 437.5 433 424.7 414.8 407.2 403.9 422.1 438.6 454.4 464.1 469 470.8 470.8 467.6 460.4 444.3 419.6 408.5 394.9 379.7 364.1 351.6 343.9 337.5 331.5 328.1 323 323 327.9 330.9 333.9 329.4 317.6 307.1 295.4 263.7 235.4 215.6 202.2 192 186.7 179 186 187.4 192.2 193.9 197.7 199.7 195.9 201.3 208.8 223.1 232.3 241.1 248.1 254.2 259.9 267.6 274.1 275.2 275.2 282 285.5 295 311.7 325.4 335.9 349.5 367.1 386.1 401.7 418.6 438.8 463.3 473 478.1 484 488.1 491.1 494.6 495.4 491.8 487.5 482.3 475.5 467.4 455.3 441.9 427.9 414 401.5 391 392.9 397.3 401.2 401.2 397.6 393.8 389.1 380.6 364 360 354.7 351.7 352.3 353.6 355.9 352.6 351.9 358.9 368.3 375.1 376.9 372.7 369.6 368.5 366.5 364.1 361 360 358.9 355.6 357.1 354.3 350.4 344 336.6 325.2 313.6 309.1 303.6 288.9 263.8 242.5 227.3 219.6 211.1 200.7 198.6 203.6 208.5 213.6 219.1 224.7 228.4 229 224.5 222.4 217.8 214.3 210.2 203.6 192.5 184.8 173.6 164.8 158.6 154.7 149.9 140.9 135.5 131.8 120.9 123.1 121.9 126.6 135.1 143.7 154.1 167.5 186.6 206.7
178.2 166 175.8 180.6 190.9 204.2 217.3 231.2 245.1 258.2 275.3 303 320.6 333.4 346.9 357.6 367.3 378.8 391.8 397.5 403.6 412.8 418.8 422.8 424.8 423.6 409.7 412.4 415.1 410.2 401 391.6 383.9 400.5 417.5 433.9 448.6 460.8 466.8 469.1 469.9 466.9 457.6 438.6 413.6 407.9 401.3 380.1 360 347.5 339.6 330.2 324.7 319.3 315.2 313.3 312.6 314.8 317.9 316.7 313.2 306.3 295.1 265.8 237 217.9 206.9 193.1 186.5 178 178.9 185.6 186.7 188.8 191.6 192 191.3 199.4 209 218.6 227 233.7 238.8 246.7 255.1 261 266.5 267.1 271 274.4 280.4 286.3 300.9 314.8 326.4 337.1 353.2 369.7 390 405.3 424.7 453.2 466.8 473.9 479.9 484.6 487.6 490.2 492.5 492.2 488.4 482.7 475.9 465.7 452.3 437.8 423.2 407.1 397.7 403.3 405.4 408.6 411.7 410.3 407.5 406 400.7 395.2 388.2 386.3 382.4 379.9 380.4 380.5 380.7 380.4 383.3 388.2 391.8 394.2 392.9 384.3 382.5 382.9 380.9 378.7 373.7 371.3 368.2 366.2 363.9 361 355.9 349 342.6 333.5 323.4 316.5 312.3 302.2 272.5 254.8 233.1 222.9 217.5 209.1 208.9 218.5 222.3 226.5 232.1 241.9 246 242.4 233.7 228.6 225.2 221.1 215.5 208.2 198 187.3 178.7 169.9 163 157.4 152.4 146.8 141.5 135.8 121.4 121.7 121.2 123.4 134.1 140.9 147.5 157.7 171.1 186.7
177 163.6 169.3 180.2 189.6 203.9 215.6 228.1 244 258 277.8 303.7 322.9 334.3 347.4 353.7 362.8 371.8 382.2 390.5 394 395.1 397.9 401.2 403.9 401 390.6 391.3 389.6 384.5 373.9 362.5 372.3 397.4 416.1 430.7 443.2 455.8 463.8 468.3 469.6 466 449.9 429.2 407.2 403.2 397.4 378.4 359.8 350.1 341.7 328.1 319.8 311.7 307.5 303.7 299.8 301.6 305.6 307.1 306 301.4 292.9 267.1 238.2 220.5 204.1 191.2 184.5 176 181.4 184.2 185 185.8 188.5 186.4 191.5 199.7 208 213.7 213.4 216 223.9 227.8 241.9 249.2 253.2 262.7 263 270 273.5 280.9 290.1 301.5 315.7 328.1 343.7 357.8 378.1 395.9 417.4 445.9 462.1 470.2 476 480.7 484.8 487.5 489.9 491 488.4 483.5 476.8 465.3 450.6 435.6 420.9 408.3 408.7 411.8 421.3 428.6 430.8 424.6 418.6 416 414.5 411.9 408.6 407.6 406.4 404.9 403.7 403.6 403.1 401.6 403.6 405.6 405.9 405.4 401.4 394.1 395.2 396.2 394.6 392.2 388.2 382.5 374.8 375.8 373.7 367.2 360.8 355.1 346.2 338.1 329.2 326.4 320.1 310.8 282.2 258.5 238.1 224 215.7 218.4 230.9 239.5 242 244.5 246.9 256.4 258.7 250.8 242.1 236.5 230.5 226.1 220.6 212.8 199.5 190.5 182.2 174.1 166.2 160.4 155 149.3 143 136.2 136.9 119.6 121.8 121.8 129 137.3 142.2 149.9 157.6 169.6
177.9 165 168.5 178.3 189.7 198.7 212.8 225.7 240.8 255.3 273 298.2 320.1 333.8 344.2 350.7 356.4 363.1 369.4 376.4 381.3 383.6 384.1 383.9 382.1 379.3 382.9 382 370.2 360.4 348.8 344.6 374.7 398.3 415.8 428.3 438.4 449.8 460.4 466.2 468.7 465.9 439.4 428 401.7 398 389 381.8 364.2 354.8 337.3 324.1 315.9 305.7 295.9 289.7 285.3 286.7 290.4 294.7 295.6 294.5 282.1 255.2 233.2 216.4 200.8 188.9 181.9 181 180.6 181.4 182.2 183 183.5 183.7 190.1 197.7 206.1 203 219.4 229.1 239 247.1 253.3 256.3 259.9 265.4 270.6 277 283.3 289.7 296.1 295.9 304.8 321.6 336 349.2 371.8 392.7 412 439.6 458.6 467.5 473.8 478.6 482.3 485.6 487.7 489.5 487.2 484 477.5 467.7 455.2 441.8 427.8 421.8 422.7 425.3 435.5 446.7 445.1 432.8 423.5 423 422.5 421.8 418.9 417.2 416.3 416.4 416 415.3 414.1 412.6 412.2 412.1 411.1 409.1 405.8 403.9 405.4 404 401.1 398.3 394.2 389 381.7 385.5 382.3 375.6 367.3 359 353.3 344.4 339.9 333.8 326.1 316 293.3 267.1 245.1 233.4 234 240.2 251.2 261.1 265.5 266 263.2 263.1 263.6 257.2 250 240.5 235.2 229.4 225.3 216.2 202 195.1 185.9 177.1 168.6 161.1 155.8 150.8 147.3 141.5 133.6 128.6 121.7 124.4 122.2 133.2 138.9 144.5 150.7 158.2
177.7 161.5 171.2 175.5 186.2 195.1 207.9 223.6 235.5 249.9 266.2 286 311 329.6 339.1 346.3 350.7 354.9 358.7 362.2 366 367.1 367.2 365.9 364.2 361.5 363.4 362 352 337 320.9 348.1 374.7 399.3 416.5 428.2 437.2 445.8 455.9 463.2 465.2 462.6 440.4 425.8 399.4 397.3 387.6 379.7 372.2 352 331.5 323.8 317.9 309.1 294.8 277.7 272.8 275.7 277 279.7 281.9 278.7 270.1 248 225.8 212.3 198.1 188.6 181.5 180.8 179.8 179.3 179.7 180.3 181.7 185.4 191.4 197.3 205.1 215.5 226 235.7 246.8 255.6 262 265.9 270.1 275.9 282.1 291.3 301.2 307.4 316 322.4 323.1 324.1 326.4 344 364.5 382 399.8 428.5 451.5 464.7 473 476 480.2 483.7 485.3 487.1 486.4 482.8 477.8 470.4 460.3 448.9 438.4 435.6 433.2 438 448.7 452.1 446.6 433.7 426.4 425.4 424.9 424.2 422.7 420.9 419.8 420.1 420.1 419.2 417.6 416.3 415.9 414.8 412.7 410.4 408 408.2 407.9 405.3 402.8 399.5 395.7 392 390.3 390.3 386.8 381.3 371.7 363.5 358.1 351.1 345.2 338.5 329.2 318.2 303.6 274.9 252.6 250.7 252.5 262.5 273.1 282.1 283.5 282.8 278.3 272 267 263 255.5 244.8 238.9 231.9 226.6 217.3 205.7 195.7 187.4 180.4 171.9 166.1 160.2 156.1 152.8 147.6 139 132.3 128.2 118.8 120.6 125.4 137.9 141.3 144.6 149.6
179.3 161.8 172.4 173.4 181.9 191.6 203.8 218 230.4 246.9 260.3 275.7 299.2 324.8 336.9 342.3 345.3 346.3 348.1 350.3 351 351.1 349.4 346.4 342.2 340.2 340.6 337.7 327.1 318.1 322.2 347.7 373.3 399.7 417.8 429.3 437.3 444.4 451.3 458 461.9 452.9 443.9 432.6 400 397.3 388.1 379.5 371.6 354.5 335.1 324.1 313.9 303.7 296.7 285.8 267.9 265.3 267.2 268.2 267.2 263.7 253.4 240.9 224.4 203.9 192.6 187.6 180.2 179.6 178.8 178 176.6 176.5 181.7 186.5 192.4 200.6 209.8 220.8 231.7 242.3 253.2 261.8 268.4 276 281.4 291.4 299.9 305.8 315.6 327.2 334.7 342.3 340.6 344.6 346 345.5 359.2 375.8 399.3 425.2 450.1 465.3 472 476.4 479.6 482.3 483.9 484.6 483.8 480.6 476.8 472.7 465.5 457 451 446.7 440.8 442.1 447.6 447.7 443 432.4 427.5 427 426.6 426.1 424.7 423.9 423.1 423.5 423.7 422.1 420.6 419.2 417.4 415.1 413 411.4 409.9 409.1 408.3 406.5 404.2 400.4 396.9 394.7 394.8 392.2 388.9 384.5 375.4 366.6 362 355.6 348.7 341.2 329.8 320.1 308.7 287.1 274.1 270.1 274.2 286.5 293.4 294 292.9 291.1 288.7 281.1 269.8 264.9 256.8 249 242.6 236.6 229 221.8 208.6 195.7 191.7 183.7 177.4 172.7 166.7 160 156.1 150.5 143.7 137.5 132.8 127.1 122 120.6 129.5 135.4 141.8 145.7
178.7 162.3 173.9 174.9 178.3 187.9 200.5 212.1 227.2 240.5 253.3 268.3 288.8 309.8 328.5 334.7 337.5 336.9 337.2 337.9 338.2 336.1 333.9 329.9 327 325.5 324.4 318.3 309.7 308 328.4 349.6 373.6 400.2 419.8 431.2 438.4 443.4 448.4 452.8 456.4 457.8 444.2 428.2 401.3 393 386.7 378.8 372.3 363.3 339.9 322 311.1 303.1 292.1 284.1 274.1 266.9 255.5 258.3 259.4 254.4 244.8 233.8 218.4 199.2 191.4 183.2 179.4 178.8 176.2 175.1 174.1 177 181.6 186.5 193.1 202.8 213.9 225.7 236.1 248.6 260.8 267.6 276.8 286 294.2 306.1 314.8 323.1 337.4 350.2 356 355.9 364.8 364.8 366.2 369.9 371.1 391.1 407.8 437.3 455.9 466.4 471.7 475.5 478.3 480.9 482.7 482 480.9 478.5 475.6 472.2 468.4 463.1 457.4 453 447.2 441.6 440.6 438.5 435.5 430.8 429.3 428.7 428.2 427.7 426.8 426 425.6 425.6 425.4 423.7 422.1 420.9 418 415.3 413.8 412.4 411 410.5 409.9 408 405.2 402.3 399.2 396.6 396.6 393.4 390.1 385.3 376.9 370.9 370.1 367.4 354.3 345.5 337.3 328.1 316.7 303.3 303.1 291.5 299.8 305.7 306 303.6 300.2 297.5 295.4 286.1 273.9 265 257.2 250.2 244.7 239 231.8 225.9 210.5 195.5 191.6 186.8 180.8 173.7 170.7 164.3 158.6 152.8 147.2 142.5 135.9 130.9 119.1 126.3 120.5 133.1 137.1 142.1
176.5 163 172.8 174.5 177.3 185.1 195.7 206 220.7 232.4 244.6 258.4 274.6 289.4 301.6 316.7 321.7 321.7 321.6 320.6 319.4 317.8 316.2 312.6 310.9 311.7 310.9 300.8 296.7 314.4 332.1 355.4 378.3 404.6 423.7 434.1 439.6 443 446.4 448.9 450.4 449.1 440.2 419.8 400.2 390.4 383 376.1 373.1 365.4 349.3 327.6 310.3 301.9 295.1 286.4 275.3 268 260.4 247.4 253.4 246.6 237.8 224.4 209.5 195.5 188 179.4 179.2 178 171.2 171.8 173.1 178 183.1 187.8 195.8 206.3 218.3 230.7 243.1 256.2 266.5 274.5 284.9 294.2 306.2 316.3 329.1 343.6 356.8 370.5 384.3 390.2 395.2 395.5 394 393.1 393.9 400.9 421.8 445.6 458.8 466.4 470.9 474.2 477 479.4 481.4 480.9 479 477.1 473.8 470.6 468 464.3 459 453.9 450.2 445.4 441.3 438 435.2 432.6 431.4 430.4 429.9 429.3 428.7 427.8 427.6 427.4 427.1 425.4 423.6 420.8 418 415.9 414.7 413.4 412.1 411.8 411.7 410.5 408.5 406.8 401.7 398.8 397.7 394.5 391 385.2 379.5 375.6 372.6 378.7 370.1 356.9 347 337.6 326.7 315.3 316 314.6 316.7 316.6 315.8 312.9 307.7 302.6 299.3 292.3 279.7 267.4 258.3 251 246.2 241.9 235.2 229.3 211.5 197.3 194.1 190.9 181.7 174.7 172.3 170.3 162 156.7 150.3 146.1 141.4 134.6 129.7 118.4 123 121 130.1 136.9
179 164.4 168.2 174.4 176 181 190.2 200.5 214.7 225.9 237 249.3 265.9 277.8 287.1 296.3 299.7 299.7 299.9 300.3 300.1 298.6 296.7 293.5 294.1 294.7 293.3 287.5 306.4 320.7 338.1 361.3 385 410 428.6 437.1 440.7 442.9 444.8 445.7 444.5 441.6 434.4 422.6 390.9 385.3 382.5 375.8 370.5 358.7 349.5 344.8 324.4 311 295.2 284.5 277 267.8 261.9 244.5 246 240.3 233.3 221.1 206.5 193.2 184.8 179.1 178.8 173.3 170.6 171.2 173.5 178 183.5 189.5 199.2 209.9 222.6 235.7 250.1 263.4 272.3 282 292.7 304.5 317 329.1 345.3 358.5 373.2 393.4 413.1 418.6 422.9 424.2 422.7 421 417.6 415.9 437.3 450.9 459.4 465.1 469.3 472.7 474.9 477 479.1 479.4 477.5 474.9 470.5 467.6 466 461.2 456.3 451.9 448.7 445.1 442.1 439 436.6 434.2 432.9 432.1 431.5 431.1 430.5 429.6 429.4 429.2 428.8 427.1 424.1 420.9 417.8 416.2 415.2 414 412.9 412.4 413.4 412.7 411.1 408.7 403.7 400.3 399 396.1 392.3 387.5 383 378.7 373.4 376.4 382.7 372.5 358.8 347.4 338.3 329.5 329.4 328.4 326.2 325.6 324.2 319.5 313 306.7 302.5 298.2 289 274.3 256.9 253 248.1 242.3 238.2 228.2 211.9 201.6 199.4 193.2 185.5 180.1 172.7 171 166.2 158.2 153.5 144.3 140.3 131.7 132.6 129.6 129.3 117.1 122.4 119.7
181.6 166.3 162.7 174.4 174.8 176.7 186 196.4 208.1 221 232.9 242.1 255.4 268.3 273.5 275.2 276.3 276.8 278 279.6 280.3 278.7 276.7 273.9 275.2 274.7 273.6 295.8 312 326.1 344.6 366.8 392.2 417.3 431.7 438.4 441.3 443.3 443.6 442.5 440.5 435.9 429.8 420.2 399.6 379.6 375.4 369 361.6 348.5 342.7 340.4 330.1 312.6 302.7 284.8 276.2 266.8 259.1 246.2 237.2 236.4 228.9 217.7 205.6 190.1 181.3 178.7 178.4 175.8 169.7 170.3 174.8 177.9 183.9 190.3 201.6 213.2 227 241.2 256.3 270.3 279.9 289.1 300.5 314 325.3 340.2 354.1 372.8 395.1 414.2 425.4 429.2 432.1 434.7 437.1 438 438.2 439.4 444.9 452.3 458.6 464.3 467.6 470.7 472.5 474.5 476.8 477.8 476 473.4 470 465.5 460.7 458.2 453.5 449.6 446.3 443.2 441.3 439.9 437.8 435.9 434.1 432.8 432.8 432.4 432.1 431.1 431 430.8 430.4 430 424.7 420.1 417.5 416.5 415.5 414.5 413.6 413 413.2 412.8 411.6 409.4 405.5 402 400.8 399.3 395.5 390.8 386.4 383.1 379 376.6 383.2 384.4 376.9 360.2 349.7 345 342.7 339.2 335.3 332.4 328.9 322.6 316.2 310.1 304.9 300.6 289.9 270.7 256.6 251.5 246.8 242.4 238 226.2 213.2 207.2 205.6 199.3 188.6 183.7 179.9 171.8 166.2 162.4 158.8 153.3 147.5 142.5 137.8 134.7 132 132.3 129.9 114.1
185.9 168.9 158.7 174.4 174.4 173.8 183.7 193 201.6 214.3 227.4 238.4 245.5 252.8 258.9 259 256.7 255.7 256.5 258 257.9 256.5 254.3 252.3 251.9 266.5 287.5 302.3 317.2 332 350.9 372.7 401 421.7 433.3 438.1 441 442.2 442.5 441.1 439.3 434.7 428.9 422.9 411.7 381.7 369.6 362.2 351.3 342.6 337.6 337.1 337.1 317.4 301.4 286.9 277.9 263.8 259 247.6 229.1 231.5 224.1 215 200.7 187.3 178.5 178.2 177.9 177.6 169.9 171.4 173.6 177.7 185.2 193.9 205.8 221.1 236.6 250.3 261.6 276.9 286.7 297.4 308.8 324 334.3 348.7 365 387.7 413.6 425.1 430 431.6 433.2 436.4 439.7 442.6 444.9 446.2 447.9 451.5 457.2 462.6 465.6 468.3 470.1 472.6 475.2 476.2 474.6 471.9 469.1 464.9 460.3 454.9 449.9 445.1 442.7 440.9 440.2 439 438.3 436.7 435 433.2 431.8 426.7 430.1 431.4 431.7 432.2 432.3 432.3 425.3 418.8 417.8 417.1 416.1 414.3 413 412.5 412.6 412 411.1 409.5 407 402.1 402.8 403.6 400.7 396.4 390.6 389.6 386.2 383 379 384.2 386.3 378.6 363.9 356.4 351.5 347.1 343 338.3 332.1 325.7 319.4 313 306.8 301.8 290 271.4 256.6 251.8 244.9 239.5 232.8 226.6 220.9 217.8 215.7 207.1 200.8 192.3 183.1 178.5 171.1 168.3 164.9 159.1 153.7 147.5 142.2 138.1 134.4 134.8 134.3 118.2
191.3 173.3 156.5 172.7 173.4 171.3 180.1 187.6 197.1 207.4 219.6 229.9 237.6 241.7 243.8 241.6 238.3 238 237.9 238.5 236.4 230.8 228.9 246.3 266.9 283.4 298.9 312 323.9 339.4 359.7 381.7 409.7 424.8 433.3 436.9 439.3 440.4 440.9 440.1 438.7 436 431.8 426.7 420.4 402.1 369.7 358.4 352.4 338.4 334.3 333.5 333.5 313 301 287.9 278.9 264.5 260.4 248.4 230.9 226 219.1 209 195.8 183.5 178.4 178.1 177.8 177.6 177.1 176.8 177.3 180.1 189.8 199.5 213 231 246.9 262.4 277.8 285 295.6 306.9 320.4 333.4 343 357.3 374.2 401.7 423.6 428.9 431.3 432.2 433.2 436.6 439.7 442.5 444.2 445.8 447.6 449.8 453.8 458.9 461.9 464.6 467.9 471.6 474.2 474.4 472.8 470.3 467.4 463.6 460.2 455.5 449.9 444.8 439.2 434.7 435.3 434 435.4 434.9 431.9 427.3 426.9 420.1 427.6 431 432 432.6 433.1 432.6 424.3 418.2 416.7 416.5 414.9 413.7 411.5 409.1 409.7 410 408.6 407.6 405.8 401.7 402.1 405.7 404.6 402 397.4 395.2 392.5 388.8 385.1 381.7 386.7 387.6 377.4 364.5 359.2 353.8 348.5 343.1 336.2 329.8 323.5 317.2 310.2 302.1 290.5 275.4 264.4 256.7 247.9 241.8 233.9 228.4 223.9 220.5 220.7 209.3 209.7 202.3 187 180.3 177.4 173.5 169.2 166.2 158.5 153 147.1 142 137.8 135.1 135 123.6
