ncols 200
nrows 86
xllcorner 430000
yllcorner 391450
cellsize 50
131.7 139.2 151.4 163.9 181.1 199.1 217.3 231.7 243.3 255.1 276.7 285.8 288 291 294.5 295.6 294.6 293.6 295 296 296.1 298.1 301.9 299.7 297.2 294 290.7 287 283.2 280.3 276.2 272.4 270.7 272.5 274.6 276 275.9 275.5 276.2 278.5 283.5 290.9 293.7 294.8 294.1 294.3 293.3 294.3 288.5 283.1 278.3 272.6 265.4 257.7 250.2 242.3 231.7 220.8 213.9 207.4 206.4 203.5 200.1 197.6 195.7 193.3 192.5 189.1 185.5 180.8 179.8 176.9 176.4 173.2 168.5 165.7 161.1 156.4 151.7 146.9 143.7 140.6 136.8 133.2 129.8 127.1 124.4 120 119.1 116.3 113.6 115.6 114.1 112.8 111.6 108.5 108.7 110 108.6 107.9 108.2 107.9 107.3 106.5 108.5 111.3 111.6 109.4 105.8 101.6 97.5 93.9 89.3 86 82.1 78 72.7 65.5 71.6 79.2 78.8 77.9 77.2 78.6 83.9 86.2 91.5 99.8 102.8 103.7 106.7 110.3 119.3 117.6 117.6 116.7 116.9 119.3 114.8 118.5 120 120.5 119.8 119.2 118.6 119.8 120.9 119.6 118.5 116.6 116.4 113.6 110.5 105.4 102.7 99.5 97.2 97.7 102.5 104.7 105.4 107.5 109.9 111.8 110.3 109.4 109.4 110.2 109.7 109.8 108.2 106.4 106 105.3 103.7 102 98.9 96.7 93.3 90.2 87.1 83.8 80.1 78.1 76.4 75.4 70.2 64.8 68.1 74.6 79.6 81 82 80.1 79.7 79.4 78.9 77 74 72.8
129.2 138.5 150.7 161 180.1 196.8 214.2 228.8 242.7 254.8 275.7 282.7 285.4 288 291.5 294.9 293.7 291.9 291.9 292.3 292.2 292.1 292 293.3 295.8 293.2 290.1 286.8 282.5 279.2 274.7 270.8 268.5 268.9 270.2 271.7 274.3 274.2 272.6 276.1 280.9 286.7 293.7 296.4 295.7 295.9 299.5 297.8 295.7 291.3 285.6 279.9 274.6 266.9 258.7 252.4 244.6 233.7 222.9 213.3 210.6 207.9 204.3 199.7 197.5 195.4 194.4 191 187.7 184.8 184 179.3 180.6 176.3 169.9 167.5 163.1 158.5 153.8 149.1 144.4 141.2 138.1 135 131.7 128.8 124.1 120.1 119.1 116.8 110.6 116 115.2 113.7 111.9 110.1 110.6 111.9 112.4 113 112.1 112 110.7 111 114.4 115.3 113.2 110.4 106.2 102.1 98 94 90.4 87.6 82.6 80.2 77.3 73 68.6 73.1 76.9 74.8 75.4 79.3 85 88 88.3 96 100.5 109.8 114.8 115.8 116.2 116 117.9 117.3 117.2 120.9 113.1 118.4 116.7 116.7 116.9 116.8 116.8 117.9 119.6 119.1 120 119 117.2 115.8 113.6 110 105.9 104.6 101.2 98.1 100.7 102.3 105.7 107.5 110.1 110.3 110.3 109.7 109.1 108.1 107.4 106.1 105.2 103.1 102.1 100.2 98.5 96.9 94.5 92.7 90.1 87.1 83.8 81.3 78.8 76.5 74.8 70.4 68.7 72 69.7 77.2 83 85.3 86.2 84 82.5 81.9 81.3 78.6 75.7 75.3
129.7 137 148.4 159.1 175 193.7 209.3 224.9 240 249.8 269 280.1 282.9 284.4 287.4 290.9 292.3 290.8 289.1 288.3 288.1 287.9 286.1 285.3 284.1 282.4 279.7 277.3 276.6 276.1 272.6 269 266.9 267 267.1 267.7 269.6 271.3 269.2 273.6 278.5 283 292.3 297.3 298.3 297.7 299.2 297.7 295.8 293.7 289.3 283.3 279.9 272.3 265.4 258.6 250.5 243.8 233.2 222.9 215.2 211.6 208.5 203.1 199.4 197.1 196.1 192.7 189.7 185.8 184.8 181.3 177 177 171.3 168.9 164.4 160.3 155.7 151 146.3 142.2 140.3 137.6 133.7 129.6 125.2 120.2 117.9 115.7 106.5 115.2 116.2 114 113.2 112.1 113.4 115.3 115.2 115.8 115.5 114.5 114.4 117.2 119.3 117.6 113.9 111.1 106.6 102.5 98.4 94.7 91.1 89.1 86.3 83.1 81.3 75.8 69.2 66.3 70 72.7 73.5 77.7 83.1 85.5 87.7 91.1 95.8 106.3 117.4 117.9 120.3 119.1 119.8 120.3 118.7 118.9 111.7 114.5 116.4 116 115.7 115.1 114.5 114.8 115.2 117 117.6 118.7 118.9 118.2 117 115.3 110.5 107.5 107 105.6 102.8 101.6 104.5 107.6 109 108.6 107.9 107.3 106.3 105.2 104.4 103 101.9 100.5 98.7 97.1 94.9 93.2 91.1 89.7 89.4 86.5 82.9 81.2 77.2 74.9 73.8 72.7 75.6 75.5 69.9 77.6 83.8 87.4 88.8 86.9 85.1 84 82.5 79.8 77.8 77.8
128.5 134.8 145.6 156.7 170.7 186.8 203 219 233.3 245.7 258.7 277.7 279.7 281.1 283.6 287.6 291.6 290.1 287.6 286 284.5 283 281.6 281.2 279.2 276.8 275.6 271.9 270.8 270.2 268.9 267 265.8 265.5 265.3 265.2 265.5 266.9 267.3 270.5 273.8 279.9 285.4 296.7 299 298.8 299.6 298.8 297 295.3 292.4 286.7 282.2 276.7 268.8 262.4 256.6 250.3 242 230.9 221.8 217.3 213.1 207.4 201.8 198.9 197.3 194 190.1 186.2 183.9 181.2 178.1 178.5 173.9 168.6 164.6 161.7 157 152.3 147.6 143.6 141.5 139.2 135.2 131.3 126.5 121.5 117.7 115.3 108.9 112.2 116.7 115 114.4 113.8 115.7 117.7 118.8 119.3 118.7 117.1 120.6 122.8 120.7 119.4 114.5 112.8 106.9 103.3 99.6 96 92.9 90.6 90.7 89.5 86.4 79.2 74 66.9 66.3 68.1 70.1 74.6 78.5 81.3 80 89.9 91.1 97.1 107.1 112.7 116.2 118.9 120.3 121.4 121.3 116.1 111.1 113.5 115.7 114.3 113.4 112.5 112.6 113.1 113.2 113.6 113.7 114.7 118.1 117.9 119.2 118.5 115.7 112 111.3 109.1 104.7 104.8 106.3 106.4 107.8 107.9 108.7 107.7 105.9 104.3 105.6 102.5 100.5 100.2 98.8 97.3 94.6 92.8 90.5 89.4 88.1 85.8 82.7 81 78.7 77.7 76.8 77.5 77.2 75.5 69.9 78.7 84.8 88.1 89.7 88.7 87.3 85.8 84.2 81.8 79.6 80.1
127.4 132.4 145.3 154.8 165.7 179.8 191.1 207.4 227.9 243.8 252.2 272.9 277.4 278.3 281 283.2 287.6 289.5 288 286 282.9 280.8 278.5 277 275.7 274.3 271.7 267.7 267.8 266.2 264.9 263.7 262.5 262.3 262.4 262.4 262.2 263.5 265.2 267.5 268.8 274 281 288.6 297 297.8 298.1 299.4 299.9 298.8 295.1 289.9 284.8 278.7 271 264.7 258.7 251.6 245.6 236.9 227.2 222.5 218.1 212 206 199.6 197.3 195 190.8 185.7 181.7 179.5 177.3 172 174.3 170.1 165.8 162.8 158.3 153.6 148.9 145.1 142.8 140.6 136 131.5 127.3 123.1 118.8 115.1 110.7 108.1 115.9 114.7 114.2 115.1 118.6 120.5 121.6 121.7 120.1 121.1 124.5 124.7 123.6 121.4 115.9 112.6 107.7 104.5 100.5 97.2 95.2 95.2 94 92.6 89.9 86.4 75.7 71.3 65.4 65.4 67 69.7 74 76.3 78.9 87.6 90.3 89.8 101.8 106.2 114.3 118.5 119.4 119.7 119.9 119.5 109.8 114.8 113.9 111.5 111.5 111.4 110.6 111 111 111.7 111.3 111.7 112.4 114.4 117 119.3 118.4 115.9 114.2 109.5 106.7 107.5 108.9 109.1 108 107.4 107.3 106.9 105.7 104.5 103.2 100.1 97.3 97.3 96.8 95.5 93.4 91.7 90.4 88.8 87.9 85.8 83.6 81.5 79.9 81.5 81.1 80.2 78.3 75.2 70.3 76.1 84.6 88.7 90.6 90 89.9 88 86 84.3 83 82.5
126.1 131.8 140.3 149.9 159.3 172.8 185.3 201.1 220.8 237.3 245.7 265.8 276.2 275.2 276.8 278.8 281.8 287.8 290.3 287.2 283.9 281.6 279.1 276.9 273.6 269.6 266.8 265.2 264.5 262.8 262.1 260.8 259.3 259.6 259.9 259.3 258.8 260.3 262.9 263.2 265.7 269.3 275.4 281.4 293.8 295.4 296.1 299.1 305.3 302 297.3 292 285.6 280.6 272.9 266.4 260.2 253.9 248.5 241.6 231.9 225.8 221.9 213.8 207.9 203.7 199.7 196.7 190.3 185.2 179.9 175.2 173 169.4 169.7 168.8 166.3 162.1 158.7 154.5 149.7 145.7 142.1 140 136.1 131.8 127.6 123.4 118.5 113.5 110 103.5 105.8 112.6 113.8 114.1 119 122.8 123.7 123.3 122.1 126.6 130.5 128 124.5 120 118.8 112.7 111.3 104.5 101.9 99.3 99.1 98.9 96.9 94.4 90.7 87.1 83.8 74.7 68.1 64.2 64.2 66.4 70.1 73.4 77.9 84.8 89.5 87.5 93.6 103.8 113.1 120.2 118.6 118.7 118.4 117 109.7 111.9 112.4 110.3 110.3 110 108.3 107.5 107.2 108.1 108 107.5 109.3 112.3 113.9 116.1 117 115.5 114.4 113.8 110.8 110.4 111.7 111.8 110.7 110.1 109.6 109.4 106.9 104.7 103.3 101.5 99.7 98.5 96.8 95.6 94.8 93.6 92.4 91 89.9 89 88.6 86.5 86.3 84.8 84 80.5 77 74.8 73.3 72.4 82.8 89.5 91.4 91.6 92.3 90.8 88.8 87.1 86.7 86
121.8 127.9 136.3 146.1 155.4 166.3 177.9 194 212.9 232.9 244.5 257 270.7 272.8 273.2 275.4 277.5 280.9 289.8 287.9 284.8 281.9 278.1 275.9 272.7 269.6 266.6 263.3 260.1 259.8 260.2 257.6 256.9 256.7 257.3 256.4 255.6 256 258.7 259.5 262.3 266.2 268.9 275.2 282.6 292.6 293.5 295.7 301.8 302.5 299.7 294.2 288 281.9 275.2 267.3 261.5 256.2 250.8 244.2 236.2 230.3 225.5 219.2 212 208.6 203.4 199.4 191.5 185.6 176.9 171.5 168.9 167.2 166.9 165.4 162.3 161.3 157.4 155.1 150.5 146.7 143.2 142.3 138.1 133.6 128.8 123.9 118.8 113.6 110.5 106.1 101.4 103.1 108 109.9 112.7 118.6 121.6 123.7 123.7 130.3 130.8 128.2 126.5 125.2 120.4 112.4 110.5 105.2 104.4 102.7 103.1 100 97.4 94.1 90.4 86.8 82.2 77.7 71.3 65 63.4 64.6 68.2 72.5 76.1 79.7 86.8 83.1 87.7 97.5 106.7 115.6 117.6 116.9 116 114.9 109.5 109.2 111 109.1 108.9 108.5 106.5 104.2 103.4 104 103.9 103.8 105.8 109 112.2 112.8 114.1 115.8 115.6 115.2 113.8 113.1 114.4 114.4 113.2 112.7 111 111.4 107.4 106.2 105.1 103.6 102.1 100.8 99.4 98.6 98 96.8 95.6 94.6 94.4 93.5 92.8 90.5 88.4 87.3 85.3 80.9 79.1 80.8 78.5 74.8 80 87.2 91.1 93.3 94 93.6 91.6 90.5 90.1 89.6
114.8 124.3 132.3 141.9 151 160.1 172.5 188.3 206.4 223.5 238.6 252.3 265.6 268.9 270.2 272.9 274.9 277.3 285 285.3 282.6 280.9 277.2 274.9 272 269.3 265.8 263.2 259.3 257.8 254.9 255.2 254.5 253.9 254.3 253.9 253.1 253.2 254.6 255.9 258.9 263 265.3 269.3 273.6 283.7 291.2 293.8 298.5 301.5 300.8 296.2 290.1 283.9 277.3 269 263.1 257.8 252.4 246 239.6 233.2 227.2 221.5 213.7 210.1 206.7 201.9 195 185.1 175.3 170 165.5 165.6 162.6 160.9 158.9 156.2 155 154.9 151.5 147.7 143.7 141.9 139.1 135.6 130.7 125.8 120.4 117.2 113 108.1 102.5 96.6 98.1 101.8 104.3 109.2 114.4 117.6 120.9 126.9 128.6 127.7 126.2 124.6 118 113.4 109.1 106.6 105.2 105.8 103.7 100.6 97.4 93.8 89.1 84.6 80 75.2 71.3 67 64 64.7 67.3 69 72.6 77.4 80 82.1 82 90.4 99.3 108.8 114.1 114.9 111.5 108.8 108.3 106.8 105.8 106.8 107 106.6 106.1 103.9 100.9 100.6 100.5 100.7 103.6 105.6 109.3 111.8 113.1 114.6 116.1 117.1 116.6 116.3 116.3 117.2 116.3 115.3 114.4 113.1 111.8 108.4 107 106.4 105.2 104.2 103 102.2 101.3 100.1 99 98.3 98.2 97.7 96 94 91.3 88.6 87.3 82.9 84.5 83.5 81 78.1 75.5 85.4 89.7 93.2 95.4 96.4 94.7 93.8 93.4 93
113.5 120.7 130.1 137.6 146.6 155.7 167.4 182.8 198.1 215.9 234.7 245.4 259.2 264.2 267 270.1 270.9 272.8 276.1 282.1 279 275.6 274.8 273 271.9 269.1 265.2 262.2 259.5 257.4 253.7 251.5 251.3 249.1 250.7 251.4 250.8 250.2 251.3 253.4 257.2 259.4 261.7 264.1 268.7 273.5 285.9 291.4 295.4 299.4 299.5 296.2 290.7 284.2 277.6 271.4 264.8 259.4 253.6 246.9 240.4 234.3 228.3 222.3 216.6 211.3 207.9 204.3 197.2 186.5 175.1 170.2 165.9 161.5 158.9 156.9 154.2 150.6 148.5 148.7 148.8 147.1 144.1 140.5 137.8 135.3 131.4 127.6 124.3 120 114.7 109.5 104.6 99.2 93.1 93.5 98.2 100.9 105.2 109 113.3 119 124 127.1 125.5 123.8 116.6 113.8 109.2 109.1 109.1 106.5 104 100.8 97.2 92.1 87.9 83.2 78.4 74.4 70.8 72.5 66.1 61.4 69.8 70.1 72.7 77 81 82.1 83.2 85 95.4 102.6 108.9 108.8 106.5 104 107.1 104.5 102.1 101.5 104.2 105.4 105.9 104.8 101.9 99.1 97.6 99.4 101.4 104.3 106.9 109.1 110.9 114.1 116.9 118.9 120.1 121 121.3 120.6 119.6 117.8 115.9 115.8 114 111 110.3 111 110.1 108.9 107.5 106.6 105 103.6 102.5 102.1 101.3 100.4 98.9 96.8 94.7 91.6 89.4 85.6 86.8 86.8 83.2 81.2 76 82.5 88.2 92.3 94.9 97.5 98.3 97.4 97.2 97.2
108.2 116.8 126.6 132.8 141.7 150.8 160.8 178.1 193.3 209 230.6 241.9 255.8 261.9 264.9 267.3 268.1 267.9 270.9 273.9 275.1 270.1 267 266.1 264.6 263 260.4 259.2 257.3 255.5 253.3 248.7 248.3 246.5 248 248.9 248 247.5 249.3 251.3 253.6 255.8 258.1 260.4 263.1 269.1 276.5 286.2 292 293.7 296.1 295 291.1 285.2 278.7 272.6 266.4 261 254.6 247.8 241 234.9 229 223 217.5 212.4 209.1 204.9 197.5 187.5 178.1 171.7 166 160.7 160 152.8 148.5 145.2 141.4 140.2 140.5 140.8 143.7 142 138 133.9 131.3 130.6 127.3 121.3 116 110.9 105.8 101 97 91.9 90.4 95 97.6 101.1 106.3 111 114.9 119 125.3 120.1 114.7 113.6 112.7 109.1 109.1 107.2 103.8 100.6 96.3 90.5 86.4 82.2 77.8 74.1 70.4 67.6 66 61.7 68.3 77.5 81 81.8 81.7 81.9 82.5 86.3 89.1 98.5 101.7 101.5 101.8 101 106 102.9 99.5 99.8 102 104.1 104.9 104.8 102.6 97.9 98.2 99.6 102 104.7 106.5 109.8 111.5 113.7 116.6 118.5 120.2 123.4 125.2 123.6 122.2 119.7 117.5 115.5 115.6 115.1 115 115.5 115 113.3 111.9 110 108.7 107.3 106.3 105 104 103.1 101.4 99.6 98.1 95.1 93.6 93.4 91.7 88.6 85.3 83.3 81.2 79.3 87.9 92 94.6 96.7 99.8 101.4 101.4 101.8
105.6 109.6 118.9 128.5 136.2 145.8 157 172 191 209.1 229.4 243.1 255.1 262.5 263.2 263.6 264.6 264.4 266.2 267.6 266.9 265.9 262.4 258 256.8 255.9 254.8 253.8 253.5 252.7 250.9 245.9 243.2 243.9 245.4 246.4 245.6 245.1 246.7 248.3 250.1 252.3 254.5 256.7 259.8 264.8 271.9 280 285.7 288.7 291.3 294.1 290.9 285.8 279.8 273.5 268.1 262 255.6 248.7 241.7 235.6 229.7 223.8 218.5 214 210.5 204.7 196.9 188.6 181.3 173.3 166.9 160.7 157.2 151.5 146.2 140.9 136.3 132.3 132.5 133.8 138 138.7 138.3 136.1 133.7 133.3 128.7 122.6 117.7 112.9 108 103.5 99.5 96.1 90.8 88.4 92.2 95.4 100.1 103.2 106.4 110.7 115.1 118 116.5 115.1 113.6 113.2 110.7 107.4 104 100.3 94.5 89 84.8 80.8 77.5 74.1 70.6 68.2 69.7 59.1 66.6 79.9 81.9 81.9 81.8 81.7 86 87 86.5 95.1 98 98.8 100.9 97.3 104.7 101.2 96.6 95.7 98.7 101.9 103.3 103 99.3 95.7 101.9 101.3 103.2 105 106.1 108.8 111.7 113.8 115.6 117 120.3 123.5 126.9 125.5 124.3 122.9 121.7 122.5 121.7 121.7 121.1 119.8 119.5 117.6 115.2 113.7 112.8 111.9 111 110.6 109.1 107.1 105 102.8 100.9 99.1 98.1 98.1 96.5 91.7 88.3 86.4 84.8 84.8 84.4 91.1 94.9 96.9 99.4 103 106.4 106.9
105.1 106.3 115.3 128.7 132.5 140.9 152.8 168.5 189.1 208.6 228.6 239.5 253 260.9 262.3 259.3 260.2 260.3 260.5 260.6 259.9 259.9 255.6 251.8 251 249.9 248.9 248.1 247.9 248.3 247 243.3 241.5 239.9 242.1 244.6 243.8 244.5 244.1 245.6 247.2 248.9 251.1 251.1 256.7 259.8 268.1 276.2 279.8 283.4 286.7 290 290.7 285.6 280.6 274.4 269 262.7 255.9 249 242.1 236.5 230.7 225.2 220.5 215.7 210.8 205 198.6 190.4 183.3 175.9 167.5 161.7 157.3 152.9 147.3 141.4 136.4 131.8 127.2 120.4 124.1 129.1 132 133.5 133 134.4 130.8 125.5 120.1 115.7 110.9 105.6 101.2 97.3 94.2 91.1 86.5 88.1 93.3 97 99.2 102.6 105.5 112 114.9 115.5 114.3 113.5 110.9 107.2 103.1 97.6 92.7 87.4 83.8 80.6 77.3 73.8 70.8 70.3 67.9 63 70.7 81.8 81.8 81.7 81.7 81.6 85.2 87.2 87 87.1 97 98 100.8 98.9 102.6 99.3 95.8 91.8 96.3 98.6 100.4 99.1 88 104.2 104 103.7 103.7 105.7 107.2 108 109.2 111.4 114.2 116.2 118.9 124.9 126.8 128.2 127.6 128.1 128.5 126.6 126.9 125.8 124.5 123.1 121.3 119.6 118.8 118.2 117.6 116.7 115.8 115.1 113.6 111.7 110.3 107.7 105.5 103.6 102 101.8 99.5 94.7 92 90.6 89.5 87.2 86.2 85.5 94.3 97.6 100 102.7 108.4 111.4
103.6 105.1 110.3 125.3 128.8 139.3 152.8 167.4 188.7 210.5 226.3 239.9 250.9 258.4 259.5 256.3 255.6 255.7 254.2 252.3 251.5 251.1 248.8 246.2 245.7 245 244.2 243.4 242.4 242.4 241.6 240.4 241 238.8 240 241.8 239.9 240.6 243.4 242.3 244.1 245.8 247.4 247.8 252.7 256.3 263.5 270.4 277.4 278.4 282.6 286 287.4 284.5 279.8 275.2 268.9 261.7 254.4 248.5 243.1 237.8 232.3 226.8 221.4 216.1 210.7 205.5 198.9 192 184.1 176.2 168.6 163.1 158.9 155.4 149.2 143.4 138.1 132.6 126.8 121 115 116.3 121.8 124.8 127.6 129.8 128.8 125.7 122.8 117.6 113.5 108.7 103.8 99.7 97.4 94.3 89.9 84.5 85.9 90.5 93 95.2 99.6 105.4 113.7 115.3 114.5 113 110.1 105.4 100.7 94.2 89.3 86.6 83.4 80.3 77.4 74.5 71.6 70.2 70 66.2 67.8 81.6 81.7 81.6 81.6 81.6 82.9 87 86.9 87.1 94.5 97.4 99.1 98.1 100.4 97.6 95.9 93 92 93.9 94.8 85.1 99.3 104.5 106.1 105.8 106.2 106.6 108.6 109.1 110.4 110.4 111.7 114.4 117.6 122.6 126.8 128.9 131.4 131.9 131.5 131.3 129.2 127.6 126.3 125.1 124.4 123.6 122.8 122 121.5 121 120.4 118.8 117.4 116.1 114.9 113.4 111.6 109.7 107.4 105 102.4 100.2 97.1 96.1 93.7 91.6 89.5 87.7 91.8 97.4 101.4 103.9 108.1 112.6
102.2 103.4 106.7 117.8 127.6 138.6 152.4 168.9 187.4 206.3 223.2 237.3 248.7 253.3 253.3 251.8 250.1 249.3 248.5 246.6 244.8 243.7 242 241.1 241.2 240.3 239.5 238.7 238.1 237.8 238 238.6 238.9 237.8 233.8 235.5 236.4 239.6 241.4 241.3 240.6 242.7 244.2 243.1 247.8 253.6 258.7 262.7 269.6 274.3 280.1 282.4 282.5 282.6 278.8 274.6 269.8 261.7 253.1 247.5 242.8 237.5 231.8 225.6 221.1 216.2 210.4 205.2 198.1 190.9 184.3 176 169.9 164.6 160.3 156.2 148.8 143.4 138.3 133.7 128 121.6 115.5 109.9 110.7 116.6 121.3 124.9 125 122.2 119.6 117.3 114.5 109.6 104.7 100.3 97.4 94.8 91.5 88 81.8 83.8 87.3 90.3 94.3 98.6 110.7 116.4 114.8 110.1 104.8 100 95.5 89.9 87.3 84.9 82.5 79.8 77.6 75.5 72 70.2 70 67 64 78.6 81.7 81.6 81.5 81.7 82 84.7 87.8 85.6 93.1 95.5 98 94.3 97.9 96.1 90.4 90.6 89.7 89.8 85.1 95 101.3 105.5 107.7 108.1 108 108.3 109.5 111.2 112.6 112.8 112.4 113.4 116.4 120.2 125.4 128.3 132.3 134.2 134.5 133.4 130.9 129.5 128.3 127.8 127.7 127.5 126.7 125.9 125.3 124.8 123.7 122.5 121 120.2 119 117.8 116.6 116 113.8 111.5 109.6 107.4 104.4 100.9 98.1 96.2 94 92.7 91.9 96.2 100.2 103.7 106.2 109.8
103.5 101.4 103.9 114.5 125.8 138.1 155.6 172 191.7 206.3 221.1 234.6 244 247.2 246.5 245.4 243.7 243.1 242.8 241.2 239.8 239.3 236.1 234.8 236.8 236 235.1 235.1 234.7 235.3 235.7 236.5 236.9 236.4 231.4 227.7 235.5 237.6 238.8 239.4 238.5 237.9 240.3 239.9 243 249.9 255 258.6 262.7 272 278.4 279.3 279.4 279 278.1 274.2 269.4 260.8 252.3 246.7 241.9 236.8 231.3 225.3 219.3 211.8 208.4 203.9 197 189.8 183.1 177.4 171.1 166 160.9 156.5 148.3 142.8 138.1 133.5 128.3 122.5 115.9 110.7 107.3 107.1 113.7 117.2 120.7 121.1 117.3 113.7 113.7 110.1 105.5 100.7 96 92.7 89.9 87.3 84.2 79.1 82.8 85.8 89.2 92.5 98.5 107.3 102.9 105.5 99.3 94.5 90.4 87.9 85.5 83.1 80.7 79.5 77.6 76 74.4 70.3 69.9 69.9 61 74.6 81.7 79.8 80.5 82.2 83.5 84.3 85.4 85.1 87.8 88.9 89.1 93.4 94.5 94.9 92.6 88.4 86.8 84.7 93.4 97.2 101.3 103.5 107.1 107.8 109.9 110.5 110.6 112.5 114.3 115.4 115.1 114.8 115.8 118.7 122.7 125.4 128.9 133.9 133.7 133.6 133 131.6 131 130.6 130.4 130.2 130 129.9 129.2 128.3 127.2 126 125.4 124.2 123.1 121.9 120.8 120.6 120.2 119.3 117.2 114.5 112 107.3 103.5 100.9 98.6 97.9 96.4 95.8 100.2 103.5 104.8 107.1
103.6 103 101.5 112.9 125.7 141.9 162 180.3 195 209.6 221.3 232.2 241.3 241.6 240.8 240 237.2 237.2 238 237.6 236.2 231.5 229.9 230 231.1 231.8 232.1 232.5 232.1 231.7 232.3 233.5 234.9 234.8 232.4 227.5 233.3 233.8 233.9 233.8 232.8 235.1 238.2 238.8 240.2 246.4 251.7 255.9 261.5 272.5 276.8 276.1 276.4 275.8 274.7 273.6 267.8 260 252.7 246.5 240.3 235.3 229.9 223.5 218 209.4 206.2 201.3 195.1 188.6 183.5 179.2 173.7 165.8 160.1 155.8 147.7 142.3 136.7 131.7 127 122.3 116.9 111.3 107 102.2 104.3 106.8 110.2 114.1 114.4 109.6 106.8 105.2 102.6 98.4 94.4 90.2 86 83.7 81.8 77.9 76.6 81.3 85.1 87.2 87.7 90.7 92.5 92 93.2 89.9 87.2 85.1 83.5 81.2 79.4 78.3 77.1 75.2 74.8 70 69.8 69.4 61 71 73 67.8 67.6 79.3 83.1 83.9 85.2 86 84.8 88.8 92.6 89.2 92.5 93.5 91.9 95.3 87.5 87 93.2 97.4 99.7 100.4 103.8 108.7 112.5 113 113 113.9 115.7 117.3 117.5 117 116.3 117.9 121 123.9 125 129.4 131.9 131.4 131 132.5 132.8 133.1 133.4 133.4 133.2 133 132.8 131.7 130.7 130.5 129.5 128.3 127 125.6 124.7 125.1 124.8 124.9 124.1 121.4 118.7 114.3 110.7 106.6 103.8 102.9 101.8 99.7 101.6 103.2 104.4 105.3
102.9 103.4 102.6 112.4 126.8 142.2 166.7 186.4 200.6 212.7 221.2 229.5 238.4 237.4 236.7 235.6 233.5 232.4 233.2 235.3 235 229.6 228.6 227.9 228.9 229 229.4 229.8 229.6 229 229.4 230.7 232.1 232.9 229.1 225.8 230.5 230.7 230.3 229.7 230 232.7 234 235 239.2 248.1 254.1 255.8 260.7 272 275.8 275.2 274.4 271.6 270.3 267.1 263.8 259.9 253 243.9 239.1 234.5 228.4 222.4 217 211 204.2 198.9 194.2 189.1 184.1 179.6 172.4 165.1 159.1 154.4 147.7 142.3 137.1 131.2 125.3 119.8 116.5 111.1 106.8 104.6 102.7 98.2 97.9 97.9 102.9 105.1 102.4 98.9 93.8 90 86.8 84.8 83.3 81.6 80.6 77.8 75.6 76 79.8 82.2 84.1 84.5 85.4 86.3 86.8 87.4 84.2 83.1 81.3 79.1 78 76.8 75 73.9 70.2 69.8 69.8 68.7 62.6 67.1 66.6 58.1 58.7 71.7 83 83.5 86.1 85.9 82.2 84 87.1 88.8 90.8 92.2 94.4 91.8 88.9 82.8 90.4 92.8 95 100.7 105.6 111.4 113.7 115.3 115.5 115.3 117.1 118.9 119.5 119.2 118.5 117.8 120.8 121.6 122.7 125.4 129.7 130.6 130.2 131.5 133.6 134.9 135.7 136.1 136.2 136.3 136.1 135.2 134.6 134.1 132.6 131.1 130.1 129.1 128.1 128.3 128.6 128.5 127.7 126.5 123.5 119.3 115.1 110.8 109.3 108.4 105.6 104 102.7 102.9 103.9 104.1
102.9 102.9 103 114.4 130.9 149.4 171.1 192.3 204.9 212.8 218.9 225.7 234.3 235 233.6 232.7 230.6 227.9 228.5 231.4 232.2 228.9 227.8 226.6 226.8 226.5 226.6 226.9 227.3 227 227.4 229 229.9 230.8 229.6 219.9 224.8 227 226.6 226.8 227.9 230.5 228.9 232.6 243.5 254.4 258.9 260.9 263.2 268.8 272.7 273.8 272 268.7 265.5 263.9 261 258.1 251.1 241.8 237.6 233.5 228 222.6 216.8 209.3 203.6 198.5 194.4 189.7 184.6 178.8 171.7 164 158.4 153.4 147.4 142.3 137.8 132.1 126.4 120.7 118.4 114.6 109.6 108.6 108.6 105.1 99.6 96.1 94.9 95.8 97.3 92.9 88.9 86.5 89.3 90.6 89.6 88.1 84.5 79.4 76.9 75.2 75.2 77.6 80.5 81.1 80.4 81.3 82.4 82.1 81.7 80.7 78.5 76 76.2 75.1 69.8 70 70.7 71.2 70.5 69.3 64.3 66.8 65.1 58.4 58.1 63.6 77.7 83.2 83.5 79.5 83.2 85.6 87.2 89.4 88.5 90.6 90.6 91.3 88.5 80 86 91.5 96.4 100.2 105.7 111.5 116 116.9 118 117.8 118.1 119.7 120.8 120.5 120.2 119.2 119.7 119.7 117.6 120.3 119.5 122.3 126.3 130.1 133.3 135.5 137.4 138.4 138.6 138.5 138.6 137.7 137.8 137.5 135.7 134.7 133.7 132.7 131.6 131.4 131.6 131.7 130.7 128.7 126.2 122.1 118.2 115.3 114.1 112.5 111.6 108.8 107 105.9 104.8 103.2
102.5 102.4 101.4 119.5 133.9 152.5 177.6 195.2 205 211 214.8 221.6 228.1 232.1 231.3 230.3 228.1 225.8 223.8 225.8 227.3 228.1 227.1 225.8 224.6 224.4 223.7 223.8 224.2 224.5 224.6 227.4 228.5 228.9 228 224.1 216.8 222.6 223.7 224.6 224.9 224.9 227.2 233.2 243.6 254.1 260.5 263.2 265.6 267.6 269.8 272.6 270.6 267.8 264.7 261.9 259.4 256.8 249 243.9 236.7 230.8 225.3 220.5 214.6 209.4 202.6 197.9 194.1 190.1 184.5 177.6 171 164.1 159.2 152.1 146.9 143.2 139.2 135.1 130.3 128.7 123.4 116.4 110.4 108.3 105.8 103.8 99 94 92.4 96.2 96.7 97.4 99 98.9 96.3 95.9 94.2 90.2 85.5 80.5 77.2 75.1 73.8 74.3 76.4 77.2 77.4 76.4 76.8 76.5 76.5 75.6 74.8 73.8 74.4 73.1 69.5 70.5 70.8 70.6 70.2 70.4 67.3 59.6 59.2 58.7 58.6 60.9 70 82.6 78.8 78 83.5 86.5 88.4 88.8 88.5 88.9 88.6 89.6 87.1 81.7 83.5 93 96.7 99.1 103.8 111.3 116.8 119.2 119.5 118.8 118.7 120.1 122.5 122.8 122.5 122.3 120.1 118.1 113.8 113.7 118.8 119.4 124.2 129.4 132.5 136.5 137.7 140 140.7 140.3 141.3 140.8 140.9 141.5 139.3 138.3 137.3 136.2 135 134.5 134.7 134.1 132.3 130.4 126.9 123 120.7 118.3 118.1 116.9 114.7 114.2 111.7 110.4 107.8 105.6
102.4 100.7 108.8 123.2 137.6 159 176.9 192.9 201 206.5 210.3 215.9 221.5 227 229.1 227.4 225.2 223.1 221.4 221 222.7 224 225.2 224.2 222.5 221.6 221.1 220.8 221.3 221.7 222.2 224.8 227 226.4 225.5 226.1 214.4 218.8 221.3 222.5 222.3 222.1 226.4 234.1 243.7 255.1 260.5 263.6 265.4 266.7 269 272 270.3 267.3 264.8 262 257.7 254.5 249.9 245.2 239.9 231.2 223.5 218.4 214.4 210.2 203.3 197.1 193.4 189.9 183.4 176.4 169.9 163.3 158 152 147.1 143.6 140.1 136.9 134.5 129.3 122.4 116.4 111.8 108.4 106.2 101.2 104.2 105.7 109.2 109.5 106.4 108.2 109.7 104.4 99.2 98.7 96 90.7 86.1 82.1 78.1 75.3 73.4 72.3 73 73.6 73.5 73.3 73.4 72.9 72.8 72.3 71.5 72.1 72.1 70.6 69.1 69.6 69.7 70.2 70.2 70.3 68.3 65.7 59.2 58.6 57.7 57.1 67.6 75.4 73.6 77.7 83.6 91 89.4 90.5 90.8 89.9 87.6 87.8 84.8 82.7 80.4 89.6 96.3 98.9 100.7 115 115.7 120 120.2 119.7 119.2 120 123.1 124.9 125 123.6 119.8 116.8 113.2 107.3 109.5 116.7 120.3 122.3 127.7 130.9 134.1 139.9 142.5 142.8 142.7 143.7 143.9 143.9 143.3 141.9 140.8 139.7 138.5 137.5 137.3 135.2 133 131.1 127.9 125.3 122.6 121.5 121.4 120.1 117.7 116 114.9 112.4 110.2 107.6
100 106.4 117.4 127.6 141.6 158.6 172.7 187.2 195.8 201.9 206.1 209 213.1 218.6 223.7 224.8 222.7 220.9 219.7 218.7 219 220.8 221.6 222 219.4 216.5 216.5 218.7 219.1 219.6 220.8 223.4 224.4 223.9 223 223.5 209.4 215.1 219.2 219.7 219.9 220.5 224.5 233.1 247.3 257 259.7 261.8 263.5 265.8 269.2 270 270.1 269.1 266.3 262.9 258.6 254 250 246.4 241.3 232.4 225.4 219.1 215.1 209.9 202.6 196.7 193 189.4 182.4 175.3 168.7 162 157.2 151.4 145.7 140.4 134.2 132.3 130 125 121.5 117.5 113.5 109.7 105.3 111.3 110.9 114.2 111.8 109.9 107.3 106.7 106.5 102.3 98.9 97.3 94.9 90.1 86.2 82.2 77.8 75.7 73.8 71.7 69.4 70.6 71.1 70.9 71.2 70.7 70.2 69.7 68.9 68.3 68.1 70.3 68.5 68.8 69.7 70.1 69.8 69.9 67.2 67.1 60.2 58.4 57.8 58.2 67.2 72.5 75.9 78.6 82.8 88.9 90.2 90.7 90.4 89.4 86.5 88.4 83.8 80.9 74.7 83.1 89.9 95.7 100.5 104.5 115.1 120.1 120.6 120.1 119.9 120.7 123 124.4 123 118.5 115.5 113 109.1 106.1 102.5 108.4 114 117.2 121.5 124.9 129.9 136 142.4 143.3 143.7 144.9 146.2 146.1 146.4 145.7 143.8 144.6 144 142.4 139.5 136.8 134.5 132.3 130.1 128.5 127.2 125.6 124.1 122.2 119.6 118.2 116.5 113.8 110.1 107.7
102.6 112 120.4 129.6 137.4 156.3 167 181.1 191.3 197.2 201.5 204.2 207.4 210.1 214.5 219.4 220.5 219.1 217.9 217.3 215.6 216.5 217.6 213.4 210.4 211.2 214 216.3 217.4 218.6 220 220.6 221.4 221.4 221 222.1 211.9 208.9 214.5 216.4 218 220 223 235.4 250.2 256.6 259.2 261.1 263.3 266.4 269.4 269.9 270.4 268.7 265.8 262.6 258.4 254.1 250.3 246.9 242.5 233.9 227.7 219.8 215.2 207.5 201.3 196.6 192.9 187 176.3 173.3 167.2 161.7 156.1 150.3 144.9 140.5 134.5 131.7 128 123.8 120.1 116.2 112.6 108.7 118.4 116.9 118.5 116.4 110.6 105.2 102.2 99.8 98.5 97.1 96.2 94.4 92.5 90.3 86.4 81.7 77.9 75.8 74.2 72 70.3 68.7 68.5 68.5 69 68.5 68.4 68.2 67.4 67.2 66.9 67.6 67.6 68.8 69.6 70 69.5 69.7 66.6 64.6 58.9 58.1 57.2 58.2 68.6 74.3 79.7 83.7 85.5 87.7 90.8 90.2 89.8 88.8 86.1 83.9 82.9 79.9 74.5 80.8 86.3 94.1 99.9 109.8 114.4 119.9 122.7 119.7 119.9 119.7 120.3 119.8 115.4 111.6 108.7 106.8 105.3 104.6 95.9 103.6 106.5 109.8 115.2 119.9 125.8 132.3 138.9 142.3 143.2 143.6 145.2 145.8 145.1 145.5 145.9 145.2 145.9 142.5 139.8 136.8 134.4 132.8 132.2 130.5 129.4 128 125.4 123.5 121.5 118.8 116.4 114.4 112.2 109.7
104.4 113.4 121.7 129.9 128.9 152.2 162.5 175.9 185.1 191.4 196.2 199.4 202 203.9 207.1 210.7 213.9 216.4 215.1 213.9 212.3 211.9 210.1 208.2 207.3 209.5 212.2 213.8 215.1 216.6 218.3 219.3 219.9 220.2 221.2 222.6 212.9 205.2 208.7 211.5 213.6 217.7 224.4 240 250.5 255.8 258.7 260.3 264.1 268.8 270.2 269.5 268.5 266.9 264.7 261.9 257.8 253.2 249.5 246.1 241.6 235.9 230.2 223.4 215.9 208.5 202.1 196.3 189.8 183.7 178.1 170.6 165.5 161.1 155 149.5 144.1 139 135.1 131.6 127.8 122.7 119.3 120.8 122.5 120.2 119.3 121.1 120.9 117.5 111.2 104.5 98 95.2 92.3 90.9 90.2 89.5 88 86.6 85 81.1 78 75.8 73.9 72.7 70.9 69.2 68.4 66.4 66.7 66.7 66.9 66.9 66.5 66.1 65.9 65.8 65.3 68.8 69.4 69.6 68.9 71.4 65.4 62.8 58.8 58.6 56.8 58.8 70 78.1 84.9 88.4 89.3 90 90.8 90 89.2 87.5 85.8 83.1 84.3 82.5 76.1 78.6 84.8 92 99.4 106.7 110.7 116.1 117.9 117.3 117.2 117.1 114.6 112.5 108.9 105.6 103.5 102.6 102.7 102.4 94.5 99.1 102.6 105.3 109.4 115.2 122.4 130.2 135.9 139.7 140.7 140.5 141.3 141.8 142.2 143.3 141.1 140.9 140.6 140.2 139.4 136.6 133.9 132.3 130.7 131.3 129.6 128 126.3 124.6 121.8 118.8 117.3 115.5 112.8 111.4
103 111.9 119.1 127.3 124.7 148.3 157.7 168.7 178.1 184 188.9 192.8 195.3 197.9 200 201.8 204.9 207.9 211.1 210.5 209.6 208.8 206.9 203.3 205.4 207.6 209.8 211.7 212 213.5 215.1 216.6 217.6 218.8 219.6 220.4 213.9 205 206.1 207.6 211.9 217.2 226.2 240.5 252 256.2 258.6 260.1 266.1 270.6 269.4 268.7 266.5 265.3 263.5 261.1 258.2 255.1 249.1 245.5 241.3 236.1 230.5 224.6 218.9 209.1 203.6 197.2 188.2 181.7 176.3 170.1 163.5 158.4 152.7 148 142.8 138.3 135.2 131.5 127.5 121.4 126.3 129.5 127.7 124.7 121.2 123.2 120.7 114.7 108.1 102 97.7 92.6 89.4 87.5 86.7 85.7 83.6 82.3 81 76.6 77 74.7 72.9 71.7 70.7 70.7 71.3 68.6 66.6 65.8 66.3 66.4 65.7 65.3 65.2 64.6 63.5 63.8 64.1 64.6 67.7 70.6 65.1 61.4 58.9 58.3 56.9 59.5 70.3 78 87.4 91.7 92.7 93 92 90.9 89.9 89.2 87.6 83.5 81.8 77.9 74.9 76.7 82.7 89.3 96.2 105.5 106.4 110.7 113.2 111.1 111.3 111.5 110.2 106.5 104 102.6 99.7 100 99.1 93.9 90.8 97.2 100.9 103.4 106.6 112.4 120.3 129.8 133.2 137.5 138.2 137.7 139 139.8 141.2 141.1 139.9 139.1 139.6 139.8 138.5 136.6 133.9 132 130.8 131.2 129.8 128.2 127.1 125.1 122.3 121.7 119.6 118.3 117.6 115
101.6 108.8 116.3 123.5 130.1 137.5 152.1 160.4 169.2 174.9 179.6 184.5 188.1 190.8 193.4 194.9 197.2 200.1 203 206.3 206.5 205.6 202.6 199.5 202.8 205 207.9 209.3 209.5 210.4 211.8 213.3 214.5 215.9 216.7 217.9 213.9 199.5 204.4 205.2 212.5 217.8 225.4 243.5 254.4 258.3 260.5 263.2 268.7 270.5 269.6 267.9 265.5 262.3 260.6 258.2 255.9 252.2 247.8 244 240.1 235.2 229.1 224.1 219.2 213.3 205 196.3 189.1 181.1 174.3 168.4 164.7 154.1 149.7 146.9 149 143.7 138.3 133.9 127.5 133.6 134.6 132.8 128.9 124.7 124.5 122.9 118 111.5 106.1 101.2 96.2 91.3 88.2 85.6 83.9 82.4 81 79.4 80.8 79.4 77.7 75.7 73.1 71.5 70 70 70 69.2 68.1 65.5 65.8 65.8 65.8 65.5 64.8 63.8 63 62.9 63 64.1 63.8 65.5 67.3 59.8 59.1 58.5 57.3 59.6 69.7 76.5 84.8 92.3 94.8 94.8 93.6 92.2 91.3 93.7 89.2 86.1 79.9 77.5 72.6 74.6 77.6 83.6 90.2 95.8 101.3 105.4 107.2 107.6 108.7 108.5 106.2 103.2 100.6 97.1 94.5 92.4 91.4 89.2 89.6 101 102.9 104.5 106.7 110.6 117.9 123.7 129.5 136.2 136.4 136.3 137.2 138.4 139.8 138.5 136.8 137.3 138 137.7 137.9 136.3 134 131.7 131.3 130.9 130 128.9 128 127.1 125.5 124.7 122.9 122.4 121.3 119.7
99.1 105.1 111.5 117.6 125 123.8 144.6 151.5 157.2 163 169.2 173.4 178.2 182.5 185.2 187.9 190 192.8 196.4 200 202.8 201.6 199.8 200 201.8 204.3 205.6 206.7 207.6 208.5 209.3 210.4 211.8 213.2 214.5 215.7 213.1 199 201 204.3 210 216.7 229.7 246.4 256.5 261.2 263.9 266.8 270.9 270.5 269.7 267 264.6 261.5 258.2 255.8 253.5 249.9 246.2 242.3 238.1 233.8 228.9 223.5 218.6 213.9 208.3 198.3 193.1 182.4 173.8 166.9 162.1 155.6 158.9 154.5 147.9 143.1 139.7 134.3 138.2 138.5 135.6 131.7 127.5 125.8 125.5 122 115.9 109.7 104.4 99.5 94.7 91.2 89.1 86 83.2 82.4 85.5 85.3 84.6 84 81.5 78 75.3 72.5 70.9 70.8 70 67.9 66.3 65.6 65.2 65.3 64.7 63.9 63.5 62.6 61.7 61.4 62.1 62.5 62.3 62.5 63.4 63.9 58.7 58.7 57.3 58.4 68.7 73.3 80.9 88.2 93 95.5 95.3 93.9 93.6 90.9 88.4 86.2 79.8 78 73.1 68.6 70.9 77.3 81.4 88.3 94.4 99.1 101 102.7 103.1 103.1 100.1 97.6 95 92.2 90.2 87.9 86.9 84.8 93.2 101.8 104.9 106.5 107.9 110.4 113.6 118.6 122.7 124 129.1 134.7 136.2 136.7 135.4 133.9 135.2 135.8 136.4 135.7 136.2 136.5 135.8 133.6 131.5 131.1 130.6 130.6 130.3 129.7 128.9 128.1 127 125.7 123.2 121.8
98.2 100.7 106.8 111.6 118.7 124.9 136 143.6 148.4 152.9 159.3 165.1 170.8 173.9 176.7 179.4 183.8 187.2 190.7 193.9 200.1 198.3 196.8 197.6 200.1 201.8 203 204.2 205.2 206 207 208.4 209.7 211 212 211.8 208.6 196.5 196.9 205.3 209.3 219.1 234.2 249.8 258.2 261.6 266 270.2 271.1 270.4 269.6 266.7 263.9 260.9 257.8 254.6 251.2 247.6 243.7 239.5 236.1 231.9 227.5 223.3 219.5 214.7 208.2 202.1 193.9 184.8 177.7 170.1 166 163.1 157.3 151.9 147.1 142.9 138.7 142.7 143.1 138.9 134.9 130.9 126.9 127.2 124.6 120.6 114.7 108.3 102.8 98.6 94.7 92.4 88.9 85.7 86.2 90.1 89.7 88 87.4 87.9 87.4 84.6 80.9 75.4 72.7 70 69.5 67.7 66.5 65.2 64.2 64.3 63 62.4 62.6 61.9 61.2 61 61.6 62.9 62.7 60.3 58.9 59.6 57.9 58 57.3 61.1 67.9 70.8 76.8 81.6 85.6 90 92.7 92.9 91 90.1 88.3 85.4 82.1 76.8 73.4 69.1 65.8 70.9 76.4 81 87.9 93 95.3 97.5 97.7 97.7 93.8 92.5 90.6 88.8 86.4 83.4 81.1 84.6 92.9 99.6 105.8 107.7 108.3 108.4 108.3 112.4 119.2 121.1 122 122.1 126.6 131.5 134.4 133.3 132.9 134.2 134.7 133.7 133.6 134 133.8 132.9 131.6 130.4 129.1 128.7 128.6 128.9 129.5 129.5 129.7 127.6 126 124.8
96.2 97.6 100 105.3 110 118.4 123.4 135.7 140.7 145.1 148.5 152.9 157.3 163.2 168.1 171.5 176.2 181.2 184 188.4 193.3 196.6 195.8 194.8 197.4 199.2 200.5 201.5 202.5 203.6 205 206.3 207.6 208.6 209.2 207.7 205.3 198 192.4 205.8 210.8 220.8 239.6 252.6 259.9 262.2 266.8 272.1 272.4 270.3 267.6 264.9 262.4 260.1 257.4 253.6 249 245.1 240.8 236.7 233.3 229.9 225.6 220.8 216.7 212.5 206.8 201.7 195.3 186.1 178.1 170.9 165.8 160.8 155.9 151.2 147.9 145.5 146.8 146.4 142.7 138.5 134.2 130.1 128.3 127.1 123.2 119.4 114.1 108.3 102.7 98.2 95.5 92.6 88.7 86.5 93 95.4 93.7 92.3 95.5 97 97.1 92.3 87.4 82.3 74.7 71.6 70 68.2 66.5 65 63.5 62.8 61.6 62.3 62.7 61.5 61.4 61.6 60.7 62.7 62.5 59.1 59 58.3 57.9 57.2 57.6 61.4 66.7 70.8 72.5 77.4 81.3 85.3 88.2 89.7 88.8 87.2 84.8 82.2 79 75.9 73.9 69 65.9 64.6 71 76.3 81.5 87.2 91.8 94.1 93.2 92.3 89 86.6 85.4 84.7 82.4 79.1 76.1 84.3 89.2 95.3 101 105.8 106.4 105.3 103.3 105.4 108.2 112.1 117.5 120.9 121.2 121.8 122.9 130.5 133.1 131.9 132.9 131.2 129.7 129.2 128.5 128.4 128.6 126.5 126.5 125.5 125.8 126.3 127.2 129.5 130 130 128.7 127.7
98.8 98.5 97.2 101 104.2 110.5 118.3 122.3 132.9 137.1 140 143.6 147.4 150.9 155.7 159.8 163.5 172.3 175.7 181.1 186.3 192.8 193.9 194.4 194.6 196.6 198 199.6 200.6 201.8 203.1 204.2 205.1 205.9 204 201.9 199.7 197.1 186.5 202.6 213 227.7 247 253.8 262.2 265.6 269.4 275 272.7 269.6 266.9 264 261.1 258.8 256.3 252 247.2 242.5 238 233.8 230.5 227.5 223.4 218.7 215.7 210.9 205.5 200.2 194.9 188 179.7 171.6 166.4 160.5 156.2 153.5 151.2 151 149.7 146.3 142.4 138.8 135.5 132.3 128.3 126.6 122.7 118.9 113.1 107.4 102.6 98.4 95.5 92.4 89.3 93.6 97.7 99.9 101.6 104 104.9 100.4 98.3 95.4 92 86.5 79 74.8 70.5 68.9 67.2 65.6 64 63 62.6 60.6 62.2 61.4 61.6 60.8 59.6 60.6 59.1 59.2 58.2 57.7 58.4 57.4 58.4 60.2 64 66.4 68 72.9 76.5 80 83.4 85.6 85.2 85.6 82.6 79.9 76.4 74.5 73.4 69.5 66.4 62 66.6 71.8 77 82.3 86.5 89.2 89 86.5 83.9 81.3 80.8 80.6 78.6 76.9 74.4 77.6 80.2 88 94.5 100.2 100.6 99.6 103.8 105 106.1 107.9 109.7 112.9 115.1 121 122.4 123.9 125.3 126.8 125.3 124.8 125.5 125.1 123.5 123.7 122 121.2 121.4 120.8 122.4 123.9 125 127.5 131.6 131.5 130.6 129.5
105.5 98.5 93.8 101.6 102.1 103.4 110.6 117.3 121.5 129.4 132.2 134.4 137.9 141.4 144.6 147.2 153.1 159 167.5 174.3 179.3 182.1 187.3 191.8 192.3 193.7 195.1 196.7 198.1 199.3 200.5 201.2 202.4 200.3 197.2 194.2 193 189.9 190.9 206.2 214.9 233.6 251.2 257.2 262.3 272.3 277.5 276.7 272.8 269.4 266.7 263.4 259.8 257.5 254.4 249.8 245.1 240.5 235.8 231.3 228.4 225.4 221.4 216.8 213.3 210 205.1 200 195.2 190.7 184.4 175.2 168.8 161.6 159.1 156.8 155.1 153.1 149.7 145.4 141.6 138.8 136.1 134.5 130.2 126.1 122.7 118.1 112.1 107.2 102.4 98.7 95 91.5 89.6 101 103.9 106.2 112.1 108.6 105.3 101 97.3 95 92.5 89.5 83.4 76.2 70.9 69.4 67.8 66.2 64.5 63.4 62.1 60.8 60.8 61.4 61.2 60.2 60.2 59.6 58.2 58 57.2 56 58.5 58.6 56.9 59.9 60.8 65.2 66.9 70.6 73.3 76 77.8 79.6 81.2 82 80.9 79.5 77 74.1 72.4 71.2 66 62.4 62.4 70.4 75.2 79.1 82.8 85.4 84.8 82.1 80.1 77.5 77.7 76.4 75.4 74.2 76.9 84.1 84.8 86.7 89.2 98 99.6 104 107.6 108.7 109 110.5 111.3 113.4 116.5 118.6 121.4 122.4 122.7 123.2 122.3 121.9 122.2 122.2 120.6 117.9 117.3 117 117.1 117 118.8 120.9 122.8 125.5 130.8 132.6 132.1 131.2
109.4 102.9 98.5 97 100.9 101.1 103.4 108.9 114.5 120.7 122.8 125.6 129.3 132.9 134.9 137.3 142.7 148.6 155.4 161.4 167.8 172.9 175 186.5 187.1 189.9 192 193.3 194.6 195.8 197 198 197.9 194 190.9 188.9 186.7 184.4 197.6 208.9 218 233.9 248.9 257 263.8 272.8 279.9 277.1 273.5 269.9 266.4 262.8 259 255.9 252.4 247.7 243.1 238.5 233.8 229.4 226.1 223.5 219.7 215.1 210.6 207.2 204 199.8 195 190 183.4 179.3 173.9 168.6 163.1 160 157 152.6 147.8 144 140.1 137.4 136.5 133.6 130.4 126.8 122.2 116.6 111.6 107 102.7 99 95.2 89.6 100.3 106.4 109.9 113.3 112.6 108.9 105.1 100.6 96.7 93 90.1 88.2 85.6 78.1 72.3 69.4 68.3 66.7 65 63.9 62.4 61.2 60.1 60 59 59.9 59.7 59.5 58.2 57.6 55.9 55.5 55.1 58.5 59.3 59.6 60.1 63.6 65.2 68.7 71 73.5 75.1 76.4 77.6 77.6 77.2 76.6 74.9 73.1 70.8 70.1 66.3 61.9 59.6 68.6 71.8 75.6 80 81.3 80.5 77.8 75.7 73.8 74 73.9 72.6 72.4 80.3 88.3 93.2 96.2 97.6 99 101.5 105.8 110 112.4 112.6 112.2 112.8 114.5 115 117.6 117.9 119.2 120.1 121 117.9 117.8 117.1 116.3 114.9 113.6 112.8 112.7 112.8 113.2 115.1 117.9 122.4 125 128 132.5 133.7 133.1
111.7 104.3 100.8 94 98.5 100.3 100.3 102.8 106.6 111.5 112.5 119.7 121 123.4 125.6 128.5 134 137.9 142.7 149.8 152.8 157.2 173.3 175.6 179.9 183.5 186.6 189 191 192.6 194.4 194.2 192.2 188.4 185.4 184 175.7 193.6 202.4 212 220.4 233.8 245.1 255.5 262.5 270.6 279.1 276.5 273.9 270.1 265.5 261.1 257.5 254.1 250.5 246.2 241.6 236.9 232.8 228.9 225.1 221.2 216.7 212.7 208.4 204.9 201 197.6 193.2 188.7 183.3 178.4 175 169 163 159.6 155.6 150.6 146.3 142.4 138.5 134.6 134.1 132.6 130.1 126.7 121.7 115.9 111.3 106.9 102.7 99.1 93.9 97 109.1 112.1 116.8 119.1 114.3 110 106.5 101.3 96.7 92.5 88.8 87.1 84.3 78.2 73 69.4 68.3 67.2 65.4 63.9 63.1 61.9 60.4 59.3 58.5 58.5 58.9 58.2 58.4 57 55.4 54.9 55.2 55.2 55.3 60 57.2 59.7 64.1 65 67.8 70.8 73.4 74.6 75.4 75.5 75.7 75.3 74.7 72.4 69.8 67.8 68.4 60.4 58.9 66.4 68.6 70.6 72.9 74 74 73.8 72.5 70.8 70.4 70.8 69 73.2 81.2 89.4 96.1 99 102 104.2 104.4 108.2 111.8 113.4 115.5 114.4 113.8 112.9 112.8 113.3 114.1 114.3 114 112.3 111.3 117.5 116.5 116 112.9 112.4 111 109.1 108.6 110 113.5 117 119 122.2 126.3 135.1 136 135
118.1 107.8 104.1 100 100.1 99.8 99.8 99.3 102.7 106.8 109.6 111.7 112.9 116.1 118.2 120.2 124.2 127.8 132.8 136.7 137.5 159.8 161.1 165.4 171 175 181.7 184.7 188.2 190.2 191 190.1 186.9 184.1 180.5 171.9 186.4 196.9 204.8 215.6 222.3 232.2 241.9 253.8 260.3 267.6 276 276.8 273.9 270.1 265.5 261.3 257.4 253.1 248.9 244.7 240.3 236.3 232.3 228.3 224.6 220.8 216.4 210.7 206.4 202.1 198.4 194.8 191.5 187.1 182.8 178.5 173.3 166.9 162.7 158.2 153.2 149.1 143.5 139.6 135.8 132.1 128.7 128.8 129.8 126.1 121.2 115.1 110.8 106.7 102.7 98.8 94.6 106.8 112.2 116.3 125.2 121.4 117 112.3 108 102.9 98 93.3 89.3 85.9 80.8 78.9 79.3 74.7 71.2 68.3 66.7 65.4 64 62 60.8 59.5 58.6 58.1 57.4 57.4 57.6 56.7 54.9 54.3 55.8 55.6 54.8 55.2 59.4 57.2 58.7 64.9 65.3 66.7 69.6 71.2 72.8 73.7 74.3 74 73.8 73 70.4 68.5 67 63.2 57.8 62.6 64.7 66.7 68.4 69.2 69.2 69.6 69.8 67.9 67.6 66.6 68.8 73.9 82.2 90.5 96.8 103.1 105.7 109.2 108.3 108.6 110.5 112.9 114.6 112.6 111.1 111.5 111.3 110.7 110.5 110.9 110.1 109.7 108.8 116.4 116.5 115.7 113 111.5 105.5 103.9 105.7 109.1 111.6 113.4 115.2 118.7 124.6 132.1 138 137.5
128.4 114.1 103.9 99.5 93.7 97.3 97.1 96.3 99.9 102.6 103.5 104.7 105.8 108 109.9 111.6 117.5 118 122.9 123.1 138.4 149.8 153 157.7 159.8 166.5 173.2 181.4 185.3 187.6 187.3 186.2 183.5 180.6 175.6 174.8 189.2 197.5 206.3 215 223.2 229.2 237.6 251.9 258.3 264.3 271.7 276 274.3 270.4 265.7 261.4 257 252.7 248 243.5 239.9 235.9 231.9 227.9 224.2 220.2 215.7 210.2 205.3 202.9 196.6 191.6 187.8 184.1 179.4 176.7 172.1 165.8 160.6 155.1 149.9 145.6 141.1 136.8 133.1 129.6 127.3 124.4 126.3 124.6 120.2 114.5 108.9 105.8 103.5 99.5 102.3 111.9 112.8 116.9 121.7 122.3 117.4 112.8 108.1 104.2 99.4 93.8 89 83.3 80.9 83.4 86.5 85.7 81.7 75.5 72 67.9 64.3 62.2 60.9 59.7 58.8 58 57.5 57.7 58.1 56.5 55.6 55.3 56.8 55.5 54.6 54.9 55 55.3 58.5 57.4 64.5 65.7 66 66.8 68.3 69.7 70 70.6 70.1 69.5 68.2 66.8 63.9 65.8 56.1 60.6 63.8 65.4 65.8 65.8 66.8 67.2 67.4 66.6 64.8 64.1 69.4 74.9 83.2 91.4 100.4 104.9 111.6 114.1 112.1 110.5 109.3 110.8 112.5 112.2 110.1 110.4 109.9 109 108.3 108.6 108.1 107.1 107 114.9 116.3 115.5 112.4 111.7 107.3 100 104 106.2 108.4 110.1 111.6 117.4 123.1 128.1 134.7 139.2
143.2 124.5 106.9 101.5 92.9 95.6 96.5 96.4 96.2 96 96 98.4 99 101 103.9 105.2 105.3 109.6 115.2 114.1 127.7 136.9 140.9 148.5 152.6 159.4 170.3 178.2 181.7 184.5 183.4 182.1 179.6 176.8 169.6 175.8 189.1 196.7 204.3 214.3 220.2 226.2 234.2 248.9 256.8 260.7 267.4 274.7 274.7 271 266.6 262.8 258.4 253.4 248.5 243.7 240 235.9 232.1 227.6 223.5 220.1 214.7 210.4 204.9 202 196.1 190.8 186.3 180.6 175.5 173.3 168.2 163.4 158.6 152.4 143.7 141.6 138.2 134.1 130.4 127 124.3 121 121 120.2 118.6 114 108.6 103.5 103.6 102.5 110.2 112.6 112.9 112.2 112.7 113.2 114.7 113.1 104.7 102.1 98.8 90.4 85 83.7 88.2 85.5 87.8 89.2 90.6 82.8 78 71 66.8 63.3 61.7 60.1 59.3 58.3 57.9 58.5 57.2 56.7 56 55.9 56.2 54.4 54.3 54.6 54.3 54.2 54.6 56.1 57.8 61.7 64.5 62.3 63 64.2 65.7 65.6 65 64 63.6 63.4 61.7 62.3 64.3 57.6 63 67 67.4 66.9 66 66.1 65.6 65.2 65.3 66.3 69.8 76.3 83.9 92.3 101.4 109.1 113.7 116 114.8 112.6 111.1 109.7 110.5 111.5 110.2 110.7 109.7 108.6 107.2 106 106.6 105.4 105.9 112.8 117.2 117.3 113.6 109.1 102.2 99.1 101.7 103.2 103.9 108.6 111.1 115.1 120.6 125.5 130 138.4
153.3 144.6 130.6 114.5 101.4 92.8 94.1 96.4 96 95.8 95.6 95.6 95.5 95.3 96.9 98.5 98.9 99.4 104.2 115.8 117.7 124.8 133 140.7 148.1 157.4 167.9 175 178.3 180.5 179 177.3 174.8 172.4 163.9 177 188.3 195.6 202.2 212.6 218.9 226.1 231.1 243.6 254.4 259.1 261.1 270.1 274.7 272 268.4 264.4 259.2 254.1 249 244.3 240 235.5 231.2 227.2 223.9 222.2 216.8 210.7 206 201.4 196.3 190.7 186 180.1 175.4 173.3 165.7 159.9 154.3 148.2 141.9 135.4 130.9 127.3 125.4 122.2 119.5 116.2 114.3 112.7 111.6 111.6 105.9 105.5 108.3 108.6 111.2 111.2 109.5 108.1 106.8 106.2 104.9 101.5 100.5 96.1 91.1 90.5 92.5 89.8 89.7 88.9 87.8 88.1 88.1 86.4 82.2 76.5 70.9 66 62.5 61.2 60 59.5 59 59.4 58.6 57.2 56.2 56 55.3 54.5 54.2 53.6 53.3 51.7 55 54.5 53.2 59.4 57.5 60.8 60.3 60.8 61.9 60.8 60.6 60.1 59.9 59.7 59.3 57.1 63.5 58.5 62.1 68.1 69.1 68.6 66.9 64.4 62.1 60.2 63.5 67.8 71.8 77.7 84.6 92 100.9 108.8 113.7 117.2 116.4 114.8 113.3 111.9 112.7 112.7 109.8 111.1 110.8 109.7 107.6 105.6 104.4 102.1 103.1 106.9 108.4 109.2 108.9 105 97.5 98.2 101.4 102.9 103.3 106.8 111.4 114 118.2 123.4 127.4 130.2
156.6 154.1 149.5 143.8 131.2 115.9 107.9 102.1 95.1 92.3 92 95.6 95.5 95.1 93.5 92.7 93.6 94.5 95.4 105 115.5 119.7 128 136.1 146.5 156.8 168.4 174.7 175.1 175.8 174.6 172.1 169 165.8 162.4 177 187.7 195.4 201.8 210 219 225.5 228.6 236.5 251.3 256.1 259.5 264.2 272.6 272 269.2 265 260.5 255.2 249.8 244.9 240.7 235.9 231.6 227.6 224.3 222 218 212.5 207.6 202.1 197.5 191.8 186.3 182.7 175.7 173.3 165.9 159.5 152.8 148.2 142.7 137.8 139 137.1 132.1 126.9 123.7 120.4 117.8 116.1 114.1 113.6 112 110.5 109.1 108.4 107.6 108.4 107.8 105.5 103.1 101.1 100.2 96.2 92.8 92.6 96.5 95.5 95.6 93.1 92.1 90.3 88.4 86.4 86.4 88.2 85.5 81.4 75 68.7 65.9 63.6 61.4 60.5 60 60.2 60 58.2 57 56.4 56.2 55.7 55.7 55.5 54.7 55.2 51.9 55.9 55.3 52.5 53.3 56.9 56.2 57.3 58.8 60.4 59.3 57.7 57.4 57.1 56.2 55.2 55 62.3 60.9 65.8 69.6 68.8 66.3 63.4 59.6 58.5 64.4 69.8 74 78.9 85 91.3 100 107.6 112.6 118.3 119.4 117.9 116.3 115.1 116 115.6 113.1 113.1 111.2 112.9 122.2 121.3 120.5 119.5 105.4 103.7 104.5 103.5 102.4 99.5 94 97.7 101.4 102.2 102.8 103.7 108.7 111.8 116.3 120.7 125 127.9
165.2 160.9 158.5 152 146.6 139.8 132.2 120.3 112.9 111.2 104.1 101.8 101.4 93.8 91.2 90.9 88.6 89.5 91.5 94.7 110.6 116 123.7 132.9 150.2 159 167.8 171.2 171.2 171.6 170.2 165.9 164.3 161.8 165.8 182.2 191.5 197.1 204.3 209.9 216.8 222.3 227 232.5 246.1 255.1 257.8 260.7 266.8 270.8 267.6 264.9 260.9 256.5 250.9 245.8 241.4 236.3 232.3 229.4 225.5 223 214.8 212.2 208.7 203.4 198.3 193.1 187.4 183.1 177.3 171.7 166.9 161.9 157.4 152.3 146.5 142 148 144 137.4 131.8 128.5 127.4 125.8 123.3 122.2 116.8 113.7 111.3 109.1 107.3 105.8 104.6 104.4 104 101.9 100 95.2 97.5 99.1 102.4 101.6 99.8 99 95.9 93.5 90.1 88.6 86.2 85.2 85.4 88.7 84.3 77.3 71.5 67.5 65.2 63 61.9 61 61 61.3 59.2 58.1 58.1 57.5 58 57.2 54.9 52.9 53.8 54.2 53 55.6 55.3 54.7 54.4 51.7 54.5 55.9 57.1 56.8 55.5 54.8 53.9 52.9 52.7 51.6 57.2 60.7 61.3 63.6 63.5 62.8 61 56.9 58.1 65.2 70.8 75.7 80.9 85.3 90.8 100.1 108.6 114.8 120.5 122.5 121 119.4 118.7 118.8 118.5 117 115.6 113.5 112.8 125.7 126.2 126 122.2 103 103.4 104 103 100.5 97.7 91.4 98.3 100.6 101.4 102.2 103.6 105.1 108.8 113.2 118.3 122.1 125.6
180 178.5 172.4 164.5 155.4 147.4 141.3 136.1 131.4 126.8 124.4 121.7 116.5 111.5 101.6 94.5 91.9 91 88.5 91.6 98.3 113.1 122.5 135.5 145.5 156.7 162.2 165 166.6 167.6 166.2 160.5 149.7 164.4 174.3 184.7 193.3 198.4 205.7 209.1 213.9 220.2 223.9 230.6 242.7 255.7 256.5 258.4 259.9 264 265.2 263.7 259.6 257.1 251.9 247 242.4 237.2 233.5 228.4 226.1 216.7 215.6 212.1 207.9 202.5 198.5 193.8 188.6 183 177.3 173 167.5 163.4 159.1 152.8 147.6 148.8 150.2 146.4 141.4 136.4 136.1 134.8 131.9 128.8 124.1 118.8 115.2 112.6 110.1 107.9 107.3 106.2 103.9 100.7 99.6 97.4 100 103.5 107.3 109.2 107.1 102.7 100.1 96.4 92.8 90 87.8 87.1 84.5 83 86.1 85.6 81.9 75.5 70.7 67.1 65.1 63.3 62.4 62 62.4 60.6 60 60.2 59.3 59.4 56.9 54.7 53.4 53.2 52.8 52.3 54.4 55.4 55.3 51.5 49 49.4 51.4 53.7 54.6 53.3 51.4 50.6 50.6 50 49.4 51.7 60.2 58.4 58.2 59.5 58.9 57.2 53.6 57.9 64.9 74.4 79.3 83.4 88 93.1 102.8 111.4 118 123.7 125.6 124.1 122.5 122.6 122.7 122.6 121.5 120.2 118.2 116.3 125.5 126.8 125.9 122.1 103.9 103.1 103.4 102.5 100.3 94.7 89.1 91.5 100.9 101.5 101.8 103.8 106.7 111 113.8 118.4 120.7 122
190.3 184.3 179.2 172.7 165 155.4 146.5 140.3 135.2 130.5 126.9 122.3 117.4 111.9 107.4 99.4 94.2 92.2 91.1 90.8 91.9 107.7 114.4 128.8 143.4 152.3 156.2 157.9 159 159.6 160.6 151.4 155.9 165.5 175 185.7 194.7 199.2 203.1 206.2 210 217.4 221 228 241.7 256 255.7 254.8 255.2 256.9 259.7 260.3 258.7 256.2 252.9 248.1 243.6 239.3 233.1 227.8 224.8 222.4 217.8 213.4 208.5 202.9 198.7 194.3 189.1 181.3 178.1 172.7 168 164 159.2 153.3 149.2 150.6 151.2 148 144.2 140.9 139.6 137.4 133.4 129.6 125.5 120.5 116.5 113 110.5 108.8 108.1 106.6 105 101.7 99.9 104 108.1 110.2 112.5 112.1 109 105.2 101.6 97.6 94.5 90.7 88.7 85.8 85.1 82.5 81.5 82.8 83 76.5 71.4 67.5 67.2 66.1 65.9 64.3 64.2 63.9 62.8 62 61.4 58.1 56.6 54.5 53.9 53.7 52.7 53 53.2 49.8 48.1 49.8 47.7 48.9 48.7 49.1 49.5 49.5 48.1 51.2 48.8 48.5 48.5 51.4 52.6 59.3 55.1 55.6 56.2 52.8 53.9 60.2 66.9 78.9 83.9 86.4 90.8 95.5 103.9 113.8 121.1 127.1 128.6 127.1 126.4 126.5 126.7 126.7 125.9 124.9 122.7 121 126.3 127 126 122.7 107.5 107.7 104.8 102.9 101.7 93.4 87.6 100.3 97.3 96.2 100.1 103.7 109.7 116.1 120.5 124.3 125.1 124.8
192.6 186.7 181.3 175.8 169.9 162.4 153.4 144.8 136.9 131.8 127.3 122 117.5 111.5 104.5 99.3 95.8 92.7 91 90.8 88.7 91.9 113.6 126.6 139.8 146.5 150 151.2 150.9 150.6 148.4 142 157.6 166.1 175.2 185.5 193.5 197.1 200.1 202 206.4 211.2 218.4 225.2 240.1 256.7 256.7 253 251.9 252.3 254.2 254.8 255.3 254.8 252.5 248 244.3 240.1 233.4 232.2 226.3 222.6 219.3 212.9 208.8 203.3 198.4 194.3 189.1 183.4 178 172.9 168 163.9 159.1 154 150 154.6 152.2 149.1 144.6 141 138.1 136.1 133.9 130 125.7 121.2 117.5 113.8 110.9 109.4 106.5 105.9 103.8 100.6 104.2 108.3 112.1 116.5 119.2 114.4 111.5 108.1 103.9 100 96.1 92.6 89.5 87.1 86.3 83.8 81.7 80.2 79.3 80.7 72.8 70 69.7 70.1 68.8 67.1 66.6 66.2 64.7 63.3 59.9 57.1 56.2 54.6 54.3 54.2 54.5 56.8 57.1 58.9 59.3 59.7 55.7 50.2 47.6 48.1 47.9 46.3 47.1 53.9 47.9 49.6 47.7 48.7 49.4 50.5 57.8 51.7 50.5 49.6 55.5 60.7 69.5 84.2 88.1 90 93.2 97 103.6 112.6 122.7 130.5 131.2 130.2 130.4 130.6 130.7 130.7 129.9 128.6 127.1 126.3 126.9 127 125.8 122.8 114.5 111.7 109.1 106.1 101.8 88.7 88.3 103.7 103.2 99.8 100 101.1 106.5 115.8 121.6 125 128.3 126.8
193.7 187.6 182.2 177.1 172 165.1 157.1 146.8 136.8 131.6 126.9 121.4 116.6 110.5 102.3 97.4 93.1 90.9 90.6 90.6 89.1 87.7 105.6 122.9 133.2 140.2 139.8 139.4 138.8 139.4 135.1 154.6 158.8 164.9 171.7 180.3 187.9 192.8 197.2 200 204 208.2 214.4 221.8 235.3 254.3 258.4 253.6 250 249.2 248.9 249.6 249.1 248.7 248.7 248.6 244.4 240.7 236.8 232.8 227.1 225 220.1 212.9 208.1 203.4 198.9 193.8 188.1 184.5 178.6 173.6 169.1 164.8 160.7 155.1 158.2 157.4 154.2 148.8 144.6 140.2 135.8 133.5 130.7 127.7 125.1 121.3 116.9 112.2 110 107.4 105.1 104.1 102.1 104.1 108.4 112.1 115.8 123.7 118.7 117 113.1 109.5 105.2 102.7 99.1 94.9 92.1 89.4 87.7 85.4 83.3 81 79.1 77.2 74.7 74 73.7 73.6 71.6 69.6 69.5 67.8 66.3 63.2 59 56.8 56.4 56.3 57.4 58.2 57.5 59.7 60.6 61 61.2 61.2 60.7 59.6 53.6 53.3 53.8 56 54.4 48.7 49.5 46.8 48 47.8 47.2 47.6 47.1 55.7 51.2 49.4 57.8 61.8 71.7 84.2 90.2 92.2 95.1 97.2 101.7 109.5 116.7 126.2 131.6 131.8 133.2 133.8 134.1 134 132.9 132.1 130.7 130 128.5 126.8 122.7 116.9 114 111.6 109.6 102 89.6 87.1 95.9 107.2 107.1 104.8 102.3 102 103 107.8 115.1 121.1 124 126.7
194.2 188.5 183.3 177.7 172.1 166.3 158.8 149 138.6 132 123.1 119.3 115.2 108.6 100.4 93.8 90.9 90.4 90.1 89.8 88.8 85.6 104 113 119.3 122.3 122.6 126.3 128.8 133.5 151.2 156.9 163.8 166.5 169.3 176.5 183.8 188.8 194 199 202.3 206.3 211.5 217.9 228.6 244.2 256.6 255.8 252 247.3 245.6 245.7 245.9 244.7 243.9 249 244.3 240.7 236.7 232.6 227.4 224.4 217.8 212.9 207.7 203.4 199 193.7 188.3 184 179 174 169.5 168.5 161.6 160.8 161.6 158.5 154.2 148.7 145.2 141.9 136.3 131.5 127.3 123.9 121.4 119.3 115.4 112.6 111.2 109 106.4 105 104.1 106.6 109.6 114.5 119.9 125.7 121.7 119.7 116 113 108.9 105.2 101.1 97.4 94.7 92.2 90 87.9 84.9 82.6 81.3 80.9 81.6 81.2 78.5 77.3 74.7 73.1 71.4 69.4 66.6 62.7 58.4 57.7 60.3 60.9 61.7 62.5 62.3 61.4 63.8 64.3 64 61.9 60.9 60.3 59.6 59.2 58.7 58.3 58.4 52.2 47.1 47.5 49.3 46.6 46 46.4 46.4 50.3 55.6 51.5 57.2 62.2 69.2 79.4 89.7 94.3 95.7 97.5 102 107.5 111.1 117.6 125.3 131.2 131.3 133.9 135.2 135.6 135.1 133.9 132.2 130.5 128.9 125.2 120.4 115.2 111.6 103.9 95.7 90.2 88.2 86.2 101.5 112.8 111.3 109.1 106.4 107.2 104.4 104.3 107.8 114 121.2 125.6
194.8 189.3 183.7 178.1 172.6 167 159.9 149.7 139.8 131.9 123.8 116.3 109.3 102.4 95.5 90.1 90.4 90.5 88.9 88.6 88.3 87.5 105 112.4 115.1 120.2 123.3 127.5 136.6 147.4 156.8 162.5 165.4 169.5 172.9 177 183.5 188.4 194.4 198.6 202.9 207.9 210.7 215.6 222.6 230.5 242.7 256.1 253.6 248.3 243.6 240 240.1 239.9 238.2 245.1 242.6 239.8 236.3 232.2 227.7 223.8 217.1 213.1 208.4 204 199.6 194.3 189.4 185.2 179.2 175.1 170.4 165.7 162.1 166 163.6 159.1 154.4 148.7 144.8 141.9 136.8 132.8 128.9 124 125.8 122.6 118 116 113.3 110.6 108.1 106.1 107 110.1 114.2 117.4 122.5 125.7 126.4 123.1 119.1 115.4 111.3 108.2 104.9 100.5 98.5 94.8 92.2 90.1 88.1 85.7 85.2 84.2 87.2 87.4 83.6 81 78.9 75.6 73.9 70.1 66.3 62.4 57.4 63.5 68 67 65.3 66.9 66.6 65.9 66.9 68.7 68.8 66.5 64.7 63.3 61.8 61 61.7 60.7 59.7 58.6 52.3 53.4 52.3 53 47 45.7 45.4 44.5 51.5 55.5 56.4 60.8 67.8 72.9 82 94.6 97.1 98.1 102.3 105.1 107.2 110.1 114 118.5 121.5 123.9 123.8 123.5 126 126 125.1 123.4 121.9 117.8 112.2 104.7 97.9 93 87.3 79.5 84.8 90.8 108.2 114.8 116.1 113.9 110.6 112.4 109.7 106.5 105 109.3 117.1 124.1
195.4 190.2 184.7 179.2 173.4 168.2 160.6 150.8 140.7 132.5 124.4 117.4 108.6 98.3 93.2 90.5 89.9 87.1 86.3 89.4 89.9 100.9 109.3 111.9 115.7 121.7 125.7 135.2 145.7 153.1 159.1 164.1 165.8 168.8 173 179 183.5 188.4 195.5 199 203.3 207.8 210.6 214.2 218.2 223.8 230.6 245.2 253.3 248.9 244.6 239.6 234.5 234 233.9 232.4 234.7 234.9 233.6 230.3 226 222 216.7 212.2 207.3 203.7 199.7 194.5 190 186 179.7 175.7 170.9 168.4 166.2 167.8 163.5 159.2 154.3 148.9 145.2 141.3 135.5 131.9 128.8 125.7 127.6 124.8 121.1 118.7 115.2 112.2 110 108.6 110.1 113.4 116.6 119.3 124.7 127 128.8 125 122.2 118.4 115.2 111.3 107.1 105.1 102.5 99 95.3 92.4 89.8 89.6 87.9 88.7 90.4 92.2 89.3 86.9 82.5 78.7 75.5 70.5 65.6 61.7 60.3 70.4 74.2 71 69.3 69.4 70.1 70 71.6 71.8 72.6 72.3 71.3 69.7 67.4 69.1 69.1 67.6 65.7 62.7 59.5 58.3 57.3 51.7 54.4 48 47.5 45.4 46.4 51.9 54.6 59.5 65.8 70.6 75.3 82.4 93.2 97.4 100.3 103.3 106 107.9 109.4 110 111.3 113.8 114.8 115 114.5 114.4 113.1 111.3 109.1 105.4 102.5 96.6 89.9 84.9 78.2 74.5 86 100.8 115.1 118.1 119.7 119.8 116.3 113.6 110.7 110.4 106.5 106.6 112.6 119.8
196.1 190.9 185.6 180 174 167.5 159.2 149.8 138.9 131.4 123.7 117.9 109.4 97.7 93.3 90.3 85.8 86.9 89.3 94.8 100 103.4 111 111.8 122.1 126 132.1 142.7 148.1 155.3 160.3 164.3 167 169.1 173.1 179.4 183.6 187.5 193.5 197.9 202.5 205.9 209.1 211.4 215.4 219.9 225.3 235 249.1 249.8 245.6 240.2 233.1 229.4 227.6 225.8 224.6 225.9 228.1 226.4 223.7 220.1 216.7 212.4 208.2 203.7 198.8 194 189.4 185.4 180.7 174.9 172.6 170.1 167.7 166.3 163 159.2 154 148.9 144.5 141.3 136.3 132.3 129.4 127.7 127.4 125.4 123.7 121.2 117.8 115.8 114.5 111.8 114 118.2 118.9 121.6 127.2 129.7 130.1 127.4 123 120.2 118.4 113.2 110.6 107.7 105.2 100.7 97.5 95.7 94.5 93.3 93.2 92.8 94.6 95.5 94.6 89 86.2 81.6 76.4 71.3 65.9 61.2 67.4 76.9 77.2 75.5 73.8 72 72.3 73.5 75 75.7 75.9 75.7 75.6 74.9 74.2 74.8 74 73.5 70.8 67.1 63.3 61.2 58.5 55.5 54.7 53.9 47.9 47.2 45.1 47.9 51.4 53.4 60.8 65.6 70.3 74 78.9 91.6 98.2 101.2 103.4 105.2 106.9 107.7 108.4 108.7 108.8 108.8 108.9 108.4 106.7 105.3 103.2 100.6 97.2 91.5 84.5 80.5 72.2 84.2 94.7 110.5 120.8 120.6 120.5 121 119.1 115.1 113.7 111.3 108.9 106.5 108.3 113.4
196.7 190.7 185.3 176.8 167.5 159.3 152.6 142.2 133.5 126.8 121.1 116.7 106.7 94.9 92.5 88.2 86.2 86.7 88.6 95 100.9 105.7 110.6 111.3 124.9 130.7 137 142.6 148.5 153.4 157.5 163.9 166.3 168.2 173.3 180.7 184.9 188.1 191.6 196.2 200.2 203.9 207.7 210.6 212.6 216.6 220.8 227.3 238.3 247 245.5 240.8 233.7 229.8 226.5 222.1 220.8 220.1 220 220.6 220.9 218.6 216.4 212.1 208.2 204 199.1 194.7 190.1 184.1 179.2 176.6 176.6 173.4 168.3 164.8 161.1 157.8 154.4 150 147 141.2 137.8 134.1 131 130.4 129.4 127.6 126 124.5 121.5 120.3 117 115.2 118.1 120.9 120.8 125.3 128.4 131.8 132 128.7 124.2 121.7 119.5 118.2 112.8 109.1 107 103.3 100.3 98.9 98.9 97.3 97.7 97.4 97.7 99.5 98.6 92.9 88.9 85.2 78.3 72.3 66.4 61.9 73 81.9 82 80.1 76.3 75.6 75.5 76.7 78.3 79.8 80.2 80.2 79.5 78 78 78 77 76.3 73.4 69.4 68.3 65.4 61.9 61.7 61.1 57.7 53.4 47.5 45.1 45.5 44.7 50.8 52.9 60.6 65.3 69.9 73.7 79.2 91.8 99.1 101 102.6 104.2 104.7 105.1 105.5 106 106.1 106 105.5 104.2 102.4 100.3 96.7 93 88.5 79.8 71.1 79.1 86.7 100 116.7 124.3 123.6 122.3 120.3 119.3 118 117.1 115.4 112.8 110 107.9 110.2
193.1 180.5 172.8 165.6 159.6 154.7 142.1 131.5 121.7 113.6 108.3 101.4 98.6 96.3 90.5 85.5 87.9 88.9 90 94.7 100.1 105.5 110.1 112.9 124.7 131.1 135.9 140.7 145.6 149.8 154 159.1 165.3 166.9 172.4 180.2 185.3 187.3 190.4 195.2 199.2 202.5 205.8 209.5 210 212.5 215.9 219.8 227.7 240.4 245.8 241.4 236.5 229.8 227.5 223.4 218.6 216.7 216.1 216 217.9 217.8 216.1 212 208.2 204.3 199.5 195.3 190.6 184.1 177.9 176.3 175.2 175 169.8 166.3 160.6 157.3 154 150.8 147.5 143.3 138.3 136.1 132.4 131.9 131.2 129.8 128.2 126.3 126.2 123.3 120.9 118.9 120.4 122.2 124 125.7 129.6 134.3 133.9 131.3 127.4 123.7 121.4 118.9 113.3 111 107.1 106.4 103.9 102.6 101.9 101.4 101.3 102 101.4 102.3 101.9 97.6 91.9 88.7 81.8 74.1 66.4 63.5 76.3 85 86.8 83.8 79.7 78.5 79.1 79.7 81.4 83.5 83.7 85.8 83.5 81.4 80.3 79.7 79.3 76.8 74.4 72.3 72.5 70.3 66.3 66.9 68.4 65.5 57.8 53.1 47.5 42.7 44.8 44.3 48.8 51.7 58.3 65.2 68.8 73.3 80.4 96.3 98.5 99.9 100.9 101.4 101.9 102.5 103.1 103.3 103 102.5 101.8 100.1 98 95.2 91.4 83.4 69.2 76.4 84.6 90.9 99.8 116.7 125.7 125.4 123.9 122.6 122.4 119.5 119.8 120.3 115.9 111.8 108.7 108.2
182.3 171.8 166.1 158.7 153.4 144.2 131.7 119.3 110.4 107.6 107.5 104.6 100.5 96.7 95.4 87.3 86.4 86.5 86.5 97.4 104.7 106.7 106.9 115.7 122.9 128.3 132 137.4 141.6 145.8 150.4 155.6 162.1 166.1 171.7 179.4 184.4 186.8 189.4 194.2 198.2 201.5 204.9 208.1 209.9 208.9 211 214.7 219.7 229.5 243.4 242 237.5 231.8 226.8 222 217.4 213.9 212.9 212.5 213 214.9 215.8 212 208.2 204.3 199.9 195.3 190.6 184.6 178.5 176.4 175.5 175.2 170.4 166.4 161.3 157.6 153.9 149.5 146.3 144.1 139.1 137.7 133.6 133.3 132.6 131.9 129.9 129.3 129.1 126.4 124.2 122.1 122.2 122.3 123.7 124.4 128.2 134.3 134.6 132 128.6 122.1 121.6 119.3 115 113 109.2 107 107.2 106 105.3 105.3 105.2 105.6 105.4 106.3 104.1 100 94.9 90 83.2 77.9 67 66 80.2 88 88.8 86.7 84.4 82.5 81.4 82.7 84.8 86.5 89.6 89.6 88 84.9 83.1 83.5 81.1 79.3 77.2 76.6 76 74.9 73.1 73.8 73.9 72.5 67.7 54.3 52.4 47.3 41.6 44.4 44.4 47.3 50.9 55.6 64.7 69.5 74.8 82.8 91.3 96.4 97.5 98.4 99.1 99.8 100.5 100.1 100.2 99.8 99.2 98.1 95.9 93.8 91.6 78.1 77.4 80.3 88.8 93.7 100.5 112 120.9 127.1 126.5 125.7 125.2 123.7 120.6 120.3 117 112.9 110.3 109.9
171.8 166.1 160.4 153.7 146.1 134.8 116.6 116 114.6 113.6 111.1 108.8 103.9 99.7 96.3 87.8 82.6 85.8 85.6 86.5 106 106.3 106.1 107.2 119.2 124.4 130.3 135.9 138.9 143.4 148.5 153.4 159.4 165.6 170.3 175.1 180.8 185.1 188.4 192.9 197.2 200.2 203.3 206.2 207.8 206.5 206.8 209.9 216.1 220.2 234.7 242.4 237.5 232.2 227.5 222.6 217.2 212 209.6 209.3 209.6 211.7 214.3 212.2 208.1 203.9 199.7 194.9 190.6 183.8 178.3 173.4 174.4 175.1 171.5 166.7 161.9 157.4 153.3 148.7 145.9 144 138.5 136.9 135.4 134.4 134.4 133.6 132.1 131.2 130.2 127.2 125.9 124.8 123.9 123.5 122.8 123.4 126.3 130.8 132.8 132.3 131.7 127 126.1 125 117.8 113.5 113.2 110.7 108.5 108.6 108 108.1 107.7 107.8 108.7 109.1 106 101.1 96.9 92 86.6 79.7 69.9 65.9 80.7 87.6 88.9 88.6 88.8 85.6 83.5 84.8 86.1 87.9 92.2 92.9 90.1 85.9 85.3 86 85.1 83.7 82.9 80.5 79.7 79.3 77.5 78 78.1 77.3 74.2 63.8 52.2 51.1 44.2 43.9 43.5 43.5 46 50.8 53.2 63.8 69.1 72.4 76.5 84.9 93.7 95.4 97.1 97.7 98.3 98.1 98.5 98.3 98.3 97.7 96 94.5 89.6 76.8 76.4 76.7 91.7 95.9 100 106.6 115.4 124.9 129.3 129 128.6 126.3 122 120.5 117.5 114.1 112.4 111.5
165.5 160.6 154.4 148 137.8 125.9 119.1 121.2 122.5 120.8 118.7 116.6 114.3 112.1 103.4 88 87.3 85.5 85 84.6 87.1 106.2 106.7 107 112.6 119.3 126.1 132.6 137 141.6 146.6 151.5 156.9 163.6 167.9 172.4 178.1 182.7 185.3 190.3 196.4 199 201.5 203.7 205.2 205.6 204.1 205.6 211.9 214 221.8 235.9 235.8 230.8 226.6 223 216.5 212.1 207.8 205.2 207.6 208.6 213.5 211.5 207.6 203.3 199.1 194.6 189 183.9 178.4 173 171.1 174.1 170.6 166.1 162.3 157 152.8 148.2 145.7 143.3 138.5 137 136.3 135.1 135.3 134.6 132.1 131.2 130.1 128.5 126.3 124.7 123 121.6 121.2 121.7 124 126.1 127.8 129.6 127.5 126.4 125.3 124.3 120.6 117.1 115.9 114.1 112.3 112 110.8 111.6 111.3 109.2 110 108.9 105.3 100.9 96.3 91.8 87.2 81.8 73.9 64.6 77.4 85 87.7 88.9 89.3 87.7 86.1 86.6 88.7 89.9 91.2 92.2 90.6 89.8 88.4 88.6 88.5 87.2 86.3 85.8 84.2 82.8 83.4 84.4 84.3 82.1 78.3 72.2 55.9 50.8 50.6 44.5 41.9 43.3 44.2 45.5 50.5 51.3 60.8 65.3 69.5 73.3 77.9 84 92.7 94 96.5 97.6 98.5 99.1 99.1 98.5 96.4 93.7 81.6 73.7 73.5 75.3 91.8 97 100.8 105.4 112.2 119.2 126.7 131.7 131.7 128.6 125.5 121 118.9 115.7 115.6 113.5
154.1 149 144.4 140.1 132.2 123.8 124.4 128.5 130.3 127.6 125.1 123.9 121.3 118.2 113.1 96.7 87.4 83.8 84.5 84 84 90.9 106 106.5 108.5 115.6 121.9 127.4 133.9 139.3 144.4 149.4 154.5 161.3 167.2 171.2 174.8 179.7 185 186.1 193.7 197.9 199.7 201.2 202.8 204.3 204.4 200.7 201.1 207.2 212.5 221.9 232.5 228.9 225.3 220.3 215.9 211.6 207.4 203.9 204.3 205.1 209.4 210.3 206.6 202 197.5 192.9 188.5 183.5 178.2 173.1 168.3 171.2 169 165.3 161 156.3 151.8 147.5 145.1 143.6 138.4 136.9 136 135.3 134.9 133.5 132.2 130.4 129.3 127.7 125.7 124 122 120.4 119.9 120.1 121.1 121.8 123.8 126.7 127 125.6 124.3 123.6 123 119.9 118.2 117.1 116.4 116 114.5 115 113.6 111.5 109.4 107 103.2 98.3 94.4 89.9 85.1 80.9 75.6 67.7 73.4 81.9 86.6 87.9 88.6 89.5 88 89.3 91 92.2 93.3 92.9 92.3 92.7 92 91.8 91.6 91.1 90 89.4 89 86.8 88.1 88.8 88.1 86.8 83.1 77.8 65.1 53.2 49.5 50.1 43.6 43.2 43 43.2 42.7 49.3 49.5 57.1 62.5 66.8 71 73.9 77.6 85.2 95.1 96.4 96.7 98.4 99.4 98.7 94.5 81.4 74.9 72.2 71.5 75.7 83.9 97.3 101.6 104.9 111.4 117.4 125.8 132.2 133.9 133.5 130.3 127 121.1 118.4 118.7 119.4
142.9 139.1 137.4 133.9 126.8 128.9 133.4 134.4 135.4 135 132.1 129 126.5 125.1 118.8 110.8 87.7 87.7 84.9 84.4 80.8 80.3 93.5 107 107 110.6 117.7 124.7 131.2 137.4 142.6 147.9 153.4 159.7 164.2 168.8 172.8 177.4 183.6 185.8 189.7 195.3 197.1 198.8 200.4 202 204.6 201.6 195.9 197.6 201.5 206.1 216.3 225.4 223.9 220.2 215.7 211.4 207.1 202.2 199.2 201.7 205.6 209.2 206.1 201.2 196.5 192 187.7 183.1 177.9 172.9 166.3 165.6 167.2 163.2 159 154.9 151.7 147.4 144.7 142.6 139.1 137.3 136.4 135.5 135.4 133.9 131 130 128.5 126.5 124.5 123.4 121.5 120 118.7 118.7 118.5 119.7 120.3 122.1 121.6 123.7 123.4 122.8 122.3 121.1 119.3 118.8 118.2 118 118.4 117.8 116.2 113.8 111.2 107.1 102.1 98.3 93.4 88.4 86.3 83.4 78.9 71.5 69 80 86 88.9 89.8 90.6 90.2 91.5 93.2 94.3 95.1 94.6 94.3 94.8 95.2 94.9 94.2 93.4 93 92.9 92.5 90.4 90.9 91.4 90.4 89.1 86.7 82.4 74.6 59.7 50.3 48.1 49 43.4 42.2 43.5 43.1 44.4 47.3 49.4 54.5 59.3 63.9 66.1 69.3 74.2 78.2 83.6 88.9 93.5 94.1 89 81.2 74 71 70.2 69.9 81.2 95.6 98.8 102.8 105.7 111.1 117 125.6 132.5 135.8 136.6 136 132.3 127.8 123.2 120.4 120.3
141.7 138.2 135.4 132 134.1 138.3 142.1 142.3 141.6 140.1 139.7 140.2 137.8 132.3 124.2 115.4 107.4 97.6 92.5 91.6 89 89.1 80.4 98.3 107.2 108.1 111.8 119.5 127.3 134.9 141.1 146.8 152.3 155.9 160.2 167.3 171.1 175.8 180.7 186.2 188.2 191.2 194.1 195.9 198.3 200.7 201.8 200.7 196.6 192.3 190.4 192.3 197.2 204.2 218.5 219.9 215.6 210.6 205.5 200.7 197.8 198.6 201.5 207.2 205.6 200.7 195.8 191 186.7 182.4 177.2 172.6 166.2 159.8 165.7 161.2 157.9 154.2 150.6 144.9 141.5 140.4 135.4 136.2 135.8 135.3 135 133.5 130 128.3 129.3 126.7 123.6 122.4 121.3 119.8 118.3 117.2 117.6 117.5 116.8 118.6 119.2 120.1 121.6 121.5 121.6 121.1 122 121.5 123.1 123.3 122.8 122.6 119.6 116.8 112.1 107.9 101.9 98.8 95.3 91.2 87.4 84.7 80.6 73.7 66.8 76.2 85.5 89.7 91.3 92.5 92.8 92.3 94.3 96 96.8 96.4 96.9 97.6 97.1 96.9 96.8 95.8 95.3 95.4 94.7 93.7 94.6 94.3 93.3 91.4 89.6 85.3 77.6 62.5 52.1 49.8 46.9 48.5 43.1 42 43.5 42.5 44.5 45.6 49.8 51.4 55.7 58.4 61.7 66.4 69.8 74.6 76.3 80.5 80.5 79.4 74.4 67.7 68 68.4 72.2 86.5 97.9 101.6 104.6 107.5 111.8 116.2 125.6 132.4 137 138 138.2 136.8 133 129.8 126.6 122
143.5 142 139.3 138.8 144.4 146 146.7 146.3 146.5 144.9 144.4 144.7 141.2 139.9 132.4 124.4 115.6 109.6 99.5 96.3 93.2 87.1 83.3 83.6 98.5 107.7 107.1 115 122.9 131.7 137.9 142.3 148.6 153 156.5 162.8 169.4 173.9 177.9 182.3 186.9 188.6 190.4 192 194.9 197.9 199.3 199 195.5 191.6 186.5 183.4 185.7 188.5 199 213.5 215.6 209.9 204.9 200.4 196.5 194.1 198.2 206.1 205 200.8 195.4 190 185.3 181.9 176.2 170.7 165.4 159.4 160.9 160.5 156.5 153.7 148.7 143.9 141.4 138.3 135.7 135.3 133.9 133.4 133.6 132.4 129 127.7 127.5 126.8 123 122 121 119.9 119.4 118 118.2 115.5 114.3 115.5 115.9 117.9 119.7 120.1 121.8 124 126.3 128.3 128.1 127.5 126.7 124.7 120.3 115.5 111.5 107.2 102.7 99.2 95.3 91.4 88.1 85.1 81.5 75.7 69.3 75.4 85.4 91.2 92.7 94.5 95 95.2 97.9 98.8 99.2 98.8 99.6 99.9 99 98.9 98.8 98.7 97.6 97.6 95.9 96.2 95.4 96.4 95.2 94.7 91.5 87.4 68.1 59.9 56.2 56.9 51.9 46.7 47.3 42.8 41.4 42.1 42.1 42.9 43.5 49.2 50.4 52.8 55.1 59.3 63.5 68 70.1 73.7 75 72 65.7 64 64.8 66.7 77.4 91.9 101.2 103.1 106.2 110.6 112.3 117.7 126.9 133.6 137.6 138.9 138 136.9 135 131.7 129.5 125
150.8 146.9 145.3 150.4 153.5 154.4 153.3 151.9 152.8 157.1 160.3 162.6 158.6 152.7 145.2 131.9 123.2 117.1 108.7 101.2 97.2 91.7 86.9 80.6 85.7 98.8 102.9 110.2 118.6 127.3 135.5 140 145 149.7 153.9 159.4 165.6 171.3 175 179.5 184.5 186.6 187.9 190.1 192.5 195.2 196.6 196.9 194.9 190.2 184.6 180.4 177.9 178.7 182.8 194.3 215.7 209.7 204.6 200.2 195.3 193.7 193.8 202.3 204.1 200.5 194.8 190.2 184.4 181.3 175 169.6 164.2 158.9 154.7 158.3 155.1 152.8 145.9 141 138.8 136.5 135.1 133.3 132.8 131.4 131.9 130.8 127.9 125.5 124.9 125.1 122.8 120.1 120.6 118.6 118.8 118.2 117.8 116.8 113.8 111.6 112.8 114.8 118.1 120.4 123 125.1 127 128.5 128.7 128.7 125.4 120.5 116.9 113.8 110.1 106.6 102.3 98.4 94.6 91.4 89.4 85.7 81 75 69.4 77.9 87.1 92.7 94.7 97.1 96.3 97.2 98.9 100.2 100.9 101.6 102.4 101.8 101.5 101.4 101.3 100.7 100.5 100.3 98.2 97.6 98.5 97.4 96.3 95.1 92.4 83.4 69.2 62.7 69.7 67.3 58.9 52.2 46.5 46.8 42.6 42.5 42.7 42.8 42.6 42.6 49.3 48.5 50.8 53.3 56.5 61.4 64.3 66.9 68.5 64.7 61.9 61.2 63.2 69.2 80.8 93.2 103.5 105.4 107.9 112.4 113.3 118.2 128.4 135.3 138.4 138 136 133.8 132.3 128.9 125.4 120.9
155 153 151.4 157 159.3 160 159.1 158.2 159 161.5 165.8 165.7 161.1 154.4 147 139.4 131.2 122.2 113.1 105.5 100.2 96.6 91.2 86.1 80.8 85.3 94 106.5 113.7 123 130.6 137.7 137.9 146.4 151.7 157.4 163.3 170.4 174.6 178.2 181.9 181.8 184.4 187.7 189.4 192.5 193.1 192.7 193.4 189.3 183.6 179.4 175.7 171.8 172.9 179 194.6 209.4 204.4 199.5 193.8 189.3 190 197.1 202.7 199.9 194.8 189.2 183.8 179 173.4 168.2 162.8 157.5 154.1 153.1 152.2 150.5 144.7 140.2 138.6 135.3 133 132.6 131.1 129.7 129.5 129.1 126.7 123.9 122.1 122.1 121.4 120.2 120.1 118.7 118.3 118.4 118.2 117.4 114.8 112.9 111.1 111.8 115.3 118.5 120.4 122.3 124.1 122.2 121.7 120 118.7 115.7 113.6 110 107.3 103.8 99.7 96.9 94 91.3 89.5 85.5 80.2 73.9 74.5 87.2 91.7 96.2 98.1 98.6 98.4 99.9 100.9 101.5 102.9 104.4 104.5 104.2 103.9 103.8 103.3 102.7 102 101 100.2 99.6 99.1 98.2 98.2 97.6 95.8 87.2 71.8 86.7 89.1 80.6 68.3 59.7 52.6 48.2 45.6 42.1 42.6 42.4 42.5 41.8 41.3 48.7 48 49.7 51.8 54.3 56.4 59.2 60 58.5 59.1 59.9 62.7 71.8 82.4 92.2 105 106.7 109 112 114.3 122.7 132.1 137.5 138.2 137.1 133.7 131.4 128.6 125.1 122.1 119
161.6 160 160.3 161.9 163.8 165.5 166.4 166.8 167.5 169.3 170.2 167 163.3 158.3 150.5 141.4 131.1 126.3 118.9 110.4 104 98.6 94.6 90.3 84 80.1 86.5 99.2 109.5 120.3 127.7 132.1 138.8 143.6 149.5 155.7 161.9 167.9 170.7 176.6 179.4 177.4 179.7 183.3 185.4 189.8 190.5 190.2 190.5 189.4 183.9 179.4 174.1 169.8 166.8 170.3 180.5 197.6 204.2 198.4 193.6 187.9 186.1 189.7 198.4 197.8 194.9 189.6 184.4 177.8 173 166.7 161.1 156.1 152.8 150.8 150.4 148.3 143.1 138.4 136.1 133.1 131.7 131.5 130.1 128.7 128 127.1 124.7 122.4 121 119.9 120.5 120.3 119.7 118.9 118.1 117.4 117.9 117.5 115.8 112.8 110.3 109.5 111.5 113.3 116.3 115.7 118.1 115.3 115.4 114.6 112.1 110.3 108.4 106.1 102.5 99.9 96.8 94.4 93.3 91 88.8 84.1 79 75.8 81.7 91.2 96.8 98.4 99.1 99.6 101 102.5 104.1 104.3 105.3 106.5 106.9 106.7 106.3 106.9 106.2 105.8 104.4 103 102.3 101.8 101.5 101.2 100.5 101.2 99.4 92 87 96 95.4 91.4 83.4 67.9 61 56.3 49.9 45.5 41.7 42.5 42.1 41.5 41.6 42.2 49.1 49.2 48.3 49.1 50.6 51.6 52.7 54.2 58 60.1 62.8 73.8 85.4 90 103.8 106.5 109.6 113.6 117.8 128.5 136.2 137.9 137.8 135.1 131.5 128.6 125.2 123.4 120 116.3
168.1 166.4 167.8 168.9 169.5 172.7 174.2 176.6 177 175.8 172.8 170.3 166 160.9 155.8 143.6 136 128.6 121.5 114.3 108.1 103.2 98.3 92 85.8 82.9 83.9 87 101.7 114.5 124 130.4 132.8 140.2 145.1 151.4 156.9 158.4 165.6 172.3 175.2 174.9 175.1 178.2 181.3 184.4 186.5 187.8 188 188.6 185.6 180.8 175.3 168.6 164.5 161.4 167.8 177.7 196 197.2 192.7 186.6 183.8 184.2 190.4 195.5 193.6 189.3 184.1 178.1 171.4 167 160.3 155.7 152 149.4 146.9 145.5 140.5 136.7 134.7 132.1 130.8 130.1 129.3 127.6 125.9 125.2 122.8 121 119.5 117.8 117.8 119.4 117.7 117.1 117 117 115.4 115.4 114.6 112.9 110.4 108.5 108.4 109.7 110.5 110.2 110.6 109.9 108.1 106.8 106.2 104.9 103.3 100.4 97.8 95.4 94.4 93.1 91.5 89.1 86.9 81.9 76.5 74.7 81.2 89.6 95.2 97.6 99.7 102 103.5 104.9 106.4 107 107.6 108.5 109.6 110.5 110.6 109.8 109 108.3 106.8 106 105.1 104.1 104.1 103.8 104.2 103.6 102.3 100.3 99.8 103.4 102.1 98.2 93.1 85.9 69.5 64.1 57.7 52 46.8 40.8 42.4 41.6 41.5 41.4 41.5 49.8 50.2 46.7 47.5 48.4 47 45.1 47.7 59.7 62.4 78.1 83.7 87.3 100.1 107.3 112.2 117 122.8 133.1 137.6 137.3 135.1 133.7 130.2 126.9 124.1 121.7 120.8 119.5
173.2 171.6 173.2 174.1 176.4 180.3 183.5 184.7 184.2 181 176.1 173.5 169.2 163.2 155 144.2 139.1 132.7 125.2 117.8 111.2 105.9 102 95.6 89.4 83.3 82.1 80.5 90.3 104.5 116.4 125.8 132.9 136 141.1 146.3 150.2 155.5 165 168.4 171.2 174.1 170.9 172.8 177.4 178.8 181.3 184.2 185.7 186.7 184.3 178.3 173.4 167.4 161.9 156.4 158.7 167 183.8 195.1 191.5 185.9 181.4 179.5 180.7 189.9 188.8 187.2 182.3 176.7 171 164.9 160.9 155.5 152.7 150.8 146.6 143.9 138.9 136.5 133.9 130.7 129.1 129 127.8 126.4 124.9 123.6 121.4 119.5 118.2 116.6 116.9 118.1 117.5 116.8 117.4 116.3 114.2 113 110.9 110.2 109.6 107.3 106.1 106.8 105.6 105.1 105.4 103.9 102.9 102.2 101.3 100.4 100.1 96.8 94.9 94.8 93.7 92.7 89.9 87.3 85.7 80 74.1 76.8 84.4 89 91 95 98 101.8 105.2 106.7 108.5 109.3 110.9 110.9 113.4 115.7 116 114.1 112.5 111 110.7 109.2 108.3 108.4 108.3 106.8 107.6 108.9 107 105.6 106.9 108.3 107.1 105 101.5 97.2 90.5 79.4 65 59.8 53.8 48.8 40.8 41.6 42.3 42.9 39.4 40.3 48.4 50.8 44.9 45.3 43.1 47 55.9 61.4 66.9 74.5 82.4 87.3 97.2 104.9 111.5 116.7 123.8 132.5 136.2 135.2 133.2 132.2 129.1 126 124.6 123.1 121.8 119.5
178.2 177.1 178.2 179.6 180.9 185.5 189.5 191.5 190.2 185.5 180.3 177.9 173.7 167 160.2 151.5 143.2 136.4 129.9 122.5 115.9 110.8 105.5 99.4 92.5 86.9 82.7 77.4 81.1 90.4 105.1 117.2 125.7 129.9 135.9 141.9 146.1 151.8 158.4 164.5 169.2 172.8 170.1 168.4 173.5 176.1 176.7 179.7 182.5 183.5 182.1 174.8 169.2 164.4 159.2 154.9 151.9 157.5 173.4 192.6 189.4 184.7 179.3 176.2 176.6 181.3 185.8 185.6 180.3 174.2 169.3 163.5 155.1 155 153.2 151.4 146.5 143.9 140.6 137.8 134.4 130.8 128 127.2 126.2 125.1 123.9 122.1 120.7 118.2 116.8 116.1 114.9 115.7 116.8 116.6 115.7 115.4 114 111.8 109.1 107.1 106.4 104.3 103.1 103.2 103.1 102.8 103.2 102.7 100.2 99.5 98.5 97.9 96.9 94.6 93.4 92 92.1 90.9 86.9 82.8 83.6 80.2 76.9 82 86.5 89.1 91.8 96 98.9 102.3 106.7 108.7 110.4 111.6 112.5 114.5 117.6 120.2 120.4 118.3 116.7 116.6 115.3 114.4 112.9 113.6 111.9 111.2 112.8 112.7 112.7 112.2 111.2 111.9 110.2 107.9 105.8 101.9 96.4 92.2 87 68.4 61.8 54.2 48.6 43 38.1 39.3 38.4 38.5 40.8 45.6 50.8 43 43.5 51.4 59 68.8 76.3 80.1 83.7 87.8 96.3 104 110.4 115.9 122.8 129.8 132.7 132.2 131 130.3 128.7 127.4 126.5 124.4 121.4 118.2
183.3 182.3 183 184.7 186.3 189 193.9 197.4 196 193.4 188.1 183.9 182.4 177.5 169.3 162 155 145.2 136.3 128.9 121.3 115.4 109.6 102.2 96 90 85.4 81.1 79.7 81.8 90.3 105 118.8 123.8 130.3 135.6 141.2 146.9 152.7 160.9 167.3 170.2 169.2 166.1 168.6 172.6 173 175.3 178.8 179.3 178.7 173.1 166 161.7 156.5 152.4 148.6 151 161.7 187.5 186.8 183.2 177.9 172.7 172.9 174.1 179.3 180.3 177.7 172.8 165.9 161.4 155.5 155.1 149.5 149.4 145.2 141.6 138.2 137.4 133.2 130 127.2 124.6 123.9 123.4 122.7 120.2 118.4 116.8 116.5 114.8 114.1 113.7 114.5 114.9 113.4 115 113.9 111.3 109.3 108.2 105.5 103.6 103.4 101.1 100.6 100.7 101.5 102.1 101.9 101.2 100.3 99.2 97.2 97.3 95.5 92.3 88.8 86.5 83.3 78.6 79.2 80.1 82.8 84.2 87.3 92 94.6 98.3 101.5 103.8 106.7 109.3 111.6 113.5 116.4 120.3 122.6 124.8 124.7 121.8 121.6 120.7 119.1 119.6 119.7 119.2 116.5 117.2 116.9 116.8 115.8 115.2 115.2 115.4 113.7 111.4 109.3 106.2 101.7 96.9 91.9 87.7 73.7 61.2 52.6 45.6 41.4 39 40.2 40.6 40.1 40.3 50.3 48.5 48.9 53 64.4 75.4 81.5 83.7 86 88.9 94.9 100 107.8 115.4 122 127.4 128.1 125.6 125.2 127.3 128.9 126.3 126.1 122.5 119 115.6
190 188.7 191 191.9 194 196 202.8 208.9 204.7 206.2 201.6 191.4 190.2 187.9 182.8 174.6 166.1 156.3 145.7 137.6 127.3 120.5 112.5 107.1 101.8 95.5 89.5 82.2 77.4 79.3 81.3 92.9 107.6 117.3 124 129.9 135.7 141.5 148.1 155.2 163.7 166.8 164.8 162.1 161.8 166.9 169.5 171 174.4 175 173.6 171.4 165 160.6 156.2 150 145.9 147.2 154 176.1 183.4 179.2 175.7 169.7 168.4 168.5 172.6 174.8 173.2 168.9 164 159.1 151.9 151.6 147.6 147.5 143.1 140.2 137.3 135.5 133.1 130.5 127.3 124.9 123.3 121.1 120.2 119.2 116.6 115.4 115 114.3 112.5 112.7 112.9 113.2 112.1 112.2 111.8 110.4 109.6 108.6 106.9 105.2 104.7 102.7 98.8 98.4 98.1 98.1 98.8 98.9 99.7 99.2 99.5 97.9 94.5 91.9 87.5 82.1 80.9 82.5 90.1 86 87.3 88.6 91.6 94.3 97.2 100.6 103.8 107.5 109.2 110.9 112.7 115.8 119.9 122.9 126.2 128.1 128.6 128 127.4 124.9 123.9 124.7 125.2 123.9 121.2 119.5 119.1 119.5 118.5 117.7 117.9 118.4 117 114.8 112 109.2 104.4 100.4 96.2 92.1 86.8 72.2 59.2 49.6 43.9 41 40.2 40.4 41 40.2 41 44.8 51.7 57.4 67.6 78.6 82.1 86.1 89 92.3 101.6 105.8 110 115.5 122.6 123.4 119.7 117.3 120.2 122.5 124.5 123 121 119.2 115.6 111.9
199.9 199.2 199.1 201.7 207.8 215.4 217.9 214.4 211.1 209.2 205.5 198.4 196.8 193.6 188.5 182 176.2 168.2 154.2 147 137.4 126.8 118.9 114.9 108.6 102.1 95.3 87.7 78 77.7 79.5 81.4 99.6 106.8 116.1 123.2 129.2 135 142 150.4 155.4 159.5 160.3 158.8 156.7 159.6 162.3 164.2 168.7 169.4 168.3 167.2 162.9 158.5 152.5 146.3 143.3 143 150.1 176.3 179.5 174.8 172.1 167.2 165.1 165.3 167.5 169 169.1 165.4 160.8 154.1 149.4 148 146.5 143.9 140.7 139.7 136.8 134.3 134.1 131.8 128 126.1 124.2 121.8 120.3 118.4 115.6 113.4 112.7 110.9 110.5 110.8 111.3 110.8 110 111 109.9 109.7 107.6 107.1 105.7 104.1 103.5 101.9 100.1 98.3 93.8 93.9 95.2 95.4 96.1 96.5 95 92.2 90.2 87.6 83.5 84.9 87.4 93.4 93.7 90.6 92.2 93.6 94.4 97.2 99.9 104.1 105.7 108.8 111.6 114 116.1 119.8 123.5 127 129.4 131.5 132 132.1 131.3 128.8 128.3 131.1 130 127.4 125.5 124.1 120.9 120.9 120.6 120.2 121 120.9 119.4 116.8 114.1 111.4 108.4 103.2 99 94.5 88.2 80.1 64.7 53.5 47.3 41.8 38.9 40.2 40.1 40.5 40.7 45.8 52.8 57.6 69.6 80.5 85 88.6 91.6 98 103.4 108.1 114.2 120.7 118.4 121.8 121 119.1 115.9 117.2 119.3 118.6 117.6 114.6 110.3 107.1
214 207.7 218.5 221.1 223.5 223.1 220.1 216.9 214.3 210.8 207 203.1 198.1 195.2 190.3 183.4 178.1 173.6 156.1 155.6 148.7 139.2 129.2 121.6 116.6 109.4 101.6 94 85.7 81.5 75.4 80.2 91.4 101.6 107.6 114.7 122 129.4 137 143.7 151 154.8 154.8 153.9 152.5 151.1 153.8 156.1 161.1 163.2 163 161.8 160.2 155.6 148.6 143.3 139.4 138.3 145.4 164 175.6 171.4 167 163.6 162.9 162.7 162.8 164.4 164.8 162.6 157.6 152.6 147.9 143.7 144.4 140.1 138.9 137 135 134.8 134.5 132.3 129.4 125.7 124.5 123.3 121.4 117.9 115.5 114.1 112.4 110.6 109.2 107.4 108.4 107.3 106.7 107.2 106.8 108.1 107.9 106.6 105.8 104.4 103 101.1 99.2 97.6 95.2 91.6 89.8 88.3 88.2 89.6 87.4 84.4 85.4 87.2 89.7 94.3 97.5 97.4 97.5 96.6 97.2 98.6 98.6 100.2 102.7 105.7 109.1 111.3 114.2 118.2 120.2 124.3 128.2 130.6 132.3 134.3 134.9 135.2 134.4 133.3 131.8 134.1 133.1 130.2 127.6 125.8 124.1 123 123.3 122.6 122.7 122.9 120.7 118.6 115.9 113.3 109.6 105.4 100.7 95.2 88.3 80.7 68.8 55.6 48 41.1 38.9 38.8 37.2 40.6 40.5 43.9 53.3 57.3 71.6 81.5 86.4 91.2 99.2 102.6 105.5 111.2 117.4 116.9 121.7 123.2 122.7 121.4 117.6 113.8 114.6 113.6 113 110.1 107.4 102.8
233.5 227.5 227.1 229.1 227.4 225.1 222.2 219.3 216.1 212.4 208.5 204.5 200.5 196.4 190.6 185.7 180.5 175.8 171.5 155.3 152.4 151 143.7 135 126.1 118.9 111.5 101.8 92.5 84 78.8 75.2 85.4 95.1 102.8 108.1 115.2 124.7 131.1 135.2 145.3 150.3 150.8 149 147.6 145.3 143.1 146.9 152.7 156.2 157.7 156.4 155.4 151.1 147.4 140.9 136.6 134.6 139.5 153.5 170.4 168.3 162 159.4 160.1 159.9 158.8 160.1 162.5 159.1 154.9 149.2 144.4 141.2 139.5 137 136.7 135.4 134.9 134.9 134.1 132.1 125.3 125.1 123.9 122.8 121.8 118.6 117.8 116.7 115.6 113.3 110.8 107.4 106.7 105.2 104 103.4 103.4 101.5 101.7 103.6 104.2 103.9 101.5 98.7 95 92.9 96.3 94.1 93.3 93.7 92.4 92 91.4 92 92.3 92.3 93.5 97.4 100.7 102.4 102.3 104.3 104.1 104.7 102.8 104 105.9 108.3 110.9 113.6 116.1 119.7 122.8 127.7 132.1 134.6 136.1 136.8 137.5 137 137.1 136.6 134.9 136.7 135.2 132.2 129.9 128.1 126.4 126.5 126.3 125 124.7 124.1 121.7 119.7 117.9 114.2 110.3 106.3 101.3 95.7 87.8 79.1 66.4 55.9 48.6 44.1 39.1 39.4 39.5 39.6 41 45.5 51.9 54.2 71.2 80.9 87.2 96.5 103.6 105 107.9 114.5 116.1 120.8 123.8 123.6 123.2 121.1 118.1 114.6 110.6 111 108 104.8 101.2 96.9
237.8 236.1 234.2 232.2 230.1 227.5 224.7 221.8 218 214.3 210.7 206.2 202.2 197.6 193 188 183.5 178.1 173.3 166.9 153.1 154.2 150.8 145.5 135.9 127.2 120.6 109.6 98.5 88.3 80.1 72.7 81.1 88.6 95.1 102.3 109 120 126.5 128.1 137.8 142.5 142.9 142.3 141.1 137.6 134.3 137.1 144.4 147.1 150.5 150.3 148.7 147.6 145.2 138.9 133.5 131.1 133.9 144 163.5 166.4 157 155.2 155.6 155.4 155.8 158.2 158.9 156.4 152.1 147.2 142 136.6 138 136.3 134.6 135.5 135.3 135.2 135.2 135.2 130.4 124.7 123.9 122.8 120.5 119.9 119.3 117.9 116.1 113.9 111.2 108 107.3 107.9 108.1 107.6 106.3 103.9 101.6 100 99.5 98.5 97.9 95.7 96.8 97.8 99.6 99.6 98.8 97 95.6 94.9 94.8 96.8 96.1 96.6 95.5 99.5 103 107.8 108.8 109.7 110.8 110.5 108.8 108.1 109.5 112.4 115 117.3 119.7 121.4 124.5 129.9 135.1 138 138.9 139.5 139.7 139.5 138.5 138.3 138.5 137.8 136.6 133.2 131.3 129.6 128.2 128.5 127.8 126.3 125.1 124.3 122.1 120.3 117.7 114.9 111 106.5 101.9 95.7 88.6 79.5 67.8 57.5 49.8 44.4 39.1 38.9 38.3 37.7 39.6 46.9 51.6 54.8 68.6 79.1 85.5 95.5 102.2 102 107.6 111.5 116.8 122.1 123.4 123.3 121.7 119.4 116.8 112.5 106.9 106.7 102.5 98 94.9 89.2
239.7 237.8 235.7 233.7 232 229.7 227.3 224.7 221.4 218.3 214.2 208.7 204.5 198.6 194.3 189.7 185.7 180.7 175.8 170.5 165.7 159.6 154.4 150.2 144.4 134.9 127.2 115.8 104.3 92.8 83 77.3 74.2 81.4 87.8 95.9 102.6 111.5 122.5 125.1 127.6 129.9 131.3 129.7 130.6 129.3 127 128.8 134.4 138 140.6 145 143.7 143.3 143 136.6 130.5 129.8 131 140.8 158.6 162 156.6 151.8 151.5 152.2 153.2 156.7 156.2 151.5 146.6 143.3 138.5 134.6 134 133.8 132.5 135.2 135.6 135.5 135.5 135.4 132.3 126.4 125.2 122.6 121 120.4 119.7 117.4 115.5 112.6 111.5 110.1 109 110.5 113.8 112.2 110.1 107.3 104.5 103.9 103.1 105 105.2 102.7 104.4 105.4 103.4 103.7 103.4 101.4 99.2 100.4 100.9 101.1 100.4 99.7 100.2 101.4 105.4 110.4 112.7 109 116.7 115.5 113.5 113 114.3 117.8 119.1 121.9 123.2 124.1 127 131.2 137.5 139.4 140.5 141.7 142 141.9 140.9 139.9 140.2 139.8 137.5 134.5 132.8 131 130.7 130.6 128.2 125.1 123.5 122.4 121.1 118.5 115.8 112.7 108.3 104.8 101.6 94.7 88.3 79.8 69.7 59.1 51.2 45.7 41.1 38.7 38.4 38.1 37.3 44.6 49.5 54.7 56.1 76.2 83.3 95.8 98.3 101.5 106 109.9 117.9 121.4 121.9 121.1 119.7 116.8 113.9 107.8 102.6 101.5 96.3 93.6 86.8 81.6
241.4 239.4 237.3 235.2 233.8 231.5 229.2 226.6 224.7 221.9 217 211.2 206.3 200 195.1 190.8 187.8 183.4 178.7 173.9 168.7 163.5 156.9 151.4 145.3 140.2 132.5 121 109.5 98 84.9 78.4 76.4 76.7 82.9 89 96.5 102.8 113.1 117.6 120.2 122 121.2 120.1 120.5 121 119.3 122.3 128.3 129.3 133.5 138.9 138.8 136.7 138.7 133.4 129 128.9 130.1 136 155.7 159.9 153.7 148.1 148.1 149.1 150 155.3 153.1 149.2 144.3 140.2 136.5 133.2 133 131.3 129.9 133.2 135.6 135.9 135.7 135.5 130.5 126.4 125.2 123 121.7 121.2 119.8 118.4 116.5 115.4 114.4 112.8 112.7 113.6 114.7 113.9 111.9 109.3 104.4 104.3 109.1 111.7 112.3 109.8 111.2 110.3 106.9 108.2 108.1 106.1 104.7 106.6 105.5 106 105.4 103.7 104.1 104.4 107.9 110.4 113 113.9 119.2 119.2 118.6 118.2 119.3 120.5 122.7 124.9 126.5 127.6 128.2 132.5 138 138.9 140.6 142.7 142.4 143.1 143.4 142.3 141.6 140.5 139 135.9 134.2 133.2 132.9 130.5 129.2 124.1 121.7 120 118.2 114.2 111.4 108.6 105.6 102.5 98.5 92.1 84.4 77.7 71.4 62.1 56.9 49.9 43.1 39.2 38.6 38.4 37 37.5 47.5 52.9 55.5 66.4 81.3 93 94.7 100.6 103 112.3 117.1 119 119.1 118 115.7 112.2 107.7 101.6 97 95.8 91 84.2 80.9 72.9
243.5 241.8 239 236.9 235.6 232.9 230.9 228.4 226.8 224.7 220 215.7 208.4 202.2 196.5 193.1 189.6 184.7 180.5 175.1 170.6 165.2 159 152.8 146.7 141.8 135.1 127.4 116.1 101.8 87.5 80.8 77.3 74.4 79.2 82.2 89.2 95.8 100.7 112.9 113 112.3 111.6 112.3 112.5 112.6 113.1 120.1 121.6 124.7 127.2 132.6 133.8 131.4 129.5 129.9 125.7 126.1 128.7 134 153 157.5 150.5 144.6 144.8 145.5 148.7 151.9 151.3 147.7 142 137.3 132.9 129.8 130.3 128.7 128.2 134.5 135.9 136.3 135.2 135.3 131.3 127.6 126.1 122.5 122.2 123.4 121.3 120.4 119.4 118.1 116.8 115.4 114 115.5 115.5 114.4 112.3 111 108.2 106 112.3 114.9 115.9 115.1 115.5 115 111.1 111.9 112.8 111.2 109.8 109.7 109.9 110.7 109.1 107.5 107.7 107.9 109.5 112.6 114.3 116.8 119 119.7 122 122.1 123 124.8 126 126.2 127.8 128.9 129.8 132.6 136.5 138.5 141 142.2 142.7 144.1 144.5 143.9 142.6 141.5 138.6 136.1 135.5 134.6 132.2 129.8 128.8 122.7 119.5 117.2 115.4 112.3 108.5 102.6 98 97.2 91.7 84.7 78.7 74.2 68.1 61.5 55.5 52.5 43.3 43.1 38.8 38.5 38 36.9 45.9 50.1 56.8 57.8 73.9 85.5 92.8 99.1 103.2 109.8 113.8 116.4 115.6 113.9 109.2 103.2 99.9 95.4 93 87.5 83.9 77.2 72.4 64.5
244.7 243.2 242.5 237.6 236.3 235.2 232.8 230.4 228.9 226.6 223.2 219.2 213.3 205.2 199.7 194.7 189.8 185.1 181.8 177.4 171.5 166.3 160.4 154.3 148.2 142.1 135.4 128.9 121.1 108.9 91.6 82.1 77.3 77.6 77.3 79.4 85 91.4 96.8 100.6 101.7 105.6 105.3 107 107.9 107.7 108.4 114.9 114.5 117.4 122.7 123.4 125.7 124.3 122.2 118.7 116.6 121.3 125.9 135 150.7 153.5 148.2 141.8 140.7 141.2 145.6 150.7 148.6 145.6 140.7 134.2 128.7 125.6 127.9 126 126.3 132.3 139.1 139 137.8 135.1 132.3 129.5 125.2 122.4 122.1 123.6 122.5 121.7 121.6 120.2 118.9 117.7 117.8 117.4 117.6 115.8 114.4 113.2 111.9 111.4 113.7 116.3 117.4 117.4 119.1 118.7 115.8 116.7 117 115.9 116.1 116 114.7 114.2 112.7 110.9 110.7 111.6 112.3 114.8 116.7 120 118.8 121.7 123.4 125.1 126.2 127.3 128.8 130.1 130.1 130.3 131.2 132.5 133.9 135.3 137.9 138.4 139.2 140.8 142.6 142.2 141.6 140.8 138.6 135.8 135.5 133.9 131.5 129.1 127.4 121.2 117.8 115.3 112.6 107.6 102.3 95 87.3 84 80.3 75.4 73.4 70.7 65.1 60.6 56.7 51.6 46.5 39.9 41.6 38.3 37.3 36.4 38.2 45.8 51 56.5 63.4 82 94.6 95.1 101.7 106.7 109.9 110.5 109.4 105.8 97.7 89 90.4 87.5 83.2 78.4 72.4 66.6 61.1 59.2
244.6 242.8 242.4 240 238 236.6 234.8 233 229.9 228.3 225.5 221.4 217 208.5 201.8 196.1 190 185.3 181.6 177.3 174 167.7 161.3 155.5 149.3 142.9 136.4 130 121.8 111.4 97 84.5 76.2 77.3 77.6 77.8 80.7 85.5 90.3 97.8 105.8 98.5 101.5 102.7 103.6 102.8 103.1 107.6 107.6 112.3 119.9 118.3 117.6 117.8 115.1 112.9 113.1 114.2 122.1 137.1 145.3 148.2 144.7 138.2 137.5 137.4 139.5 144.6 144.8 142.8 138.8 132.8 128.4 125.1 122.1 123.2 123.7 127.6 131.1 134.7 134.3 133.4 131 127.7 123.8 122.1 122.6 123.9 125.2 124.3 123.8 122.4 121.2 120.3 120.3 122 121.5 119.1 117.1 115.7 114.6 114.7 116 117.1 118.2 119 121.9 120 120 119.9 121.2 120.1 119.6 120.2 118.6 118.3 116.2 115.3 114.5 114.4 114.4 115.5 117.6 120.7 122.4 123.5 124.3 126.1 127.5 129.4 130.2 131.6 132.8 132.5 132.5 133.4 133.5 133.7 136.5 137.4 139.6 139.9 139.6 139.3 139 138.5 137.2 135.8 135.5 133 130.9 128.4 125.2 120.5 116.7 111.8 106.7 99.6 90.5 84.9 81 77.8 74.7 71 70 67.7 63 60.4 57.9 53.9 49.8 45.6 39.2 42.3 37 36.5 36.4 39.8 46.7 56.8 56.4 70 83.5 90.3 93.4 97 102.2 104.5 103.3 98.3 92.3 88 85 80 74.3 70.3 64 62 60.6 59.4
248.4 245.2 243.7 241.6 240.9 239.8 237.7 235.3 231.8 229 227 223.7 218.8 211.9 203.5 196.9 190.5 185.9 182 178.3 174.2 168.7 163.7 157.3 150.4 143.5 137.3 130.8 121.6 112.2 103.2 91.4 81.9 77.1 77.3 77.5 77.8 81.2 86.2 90.4 90.8 90.8 90.9 98 99.6 98.5 97.9 99.7 102.5 104.3 107.2 107.1 108.9 109.6 109.2 108 108.3 122.4 132.4 132.6 136.7 143.5 143.1 136 134.8 134.1 134.9 138.3 139.8 139 136.1 132.2 127.5 123.7 120 118.8 122 123.5 125.2 126.8 130.3 131.1 128.8 125.9 122 121.4 123.3 125.3 127.4 127.4 125.7 124.9 124.3 122.9 122.9 123.5 122.7 121.6 119.9 118.4 117.4 117 117 120.5 120.7 123.2 124.6 124.2 123.4 124 124.5 122.9 123.4 122.7 121.6 121.2 120.6 119.6 118.6 118.6 117.6 118.6 119.4 121.8 123.6 124.9 125.9 127.7 129.5 131.5 132.4 133.2 134 135.1 134.8 133.8 134.3 134.2 136.3 137.1 139.2 139.2 139.1 138.8 138.5 138 137.2 135.9 135.2 132.2 130.2 128.9 122.2 117.7 113.2 107.5 101.2 93.1 86.1 83 80.9 77.3 74.4 71.9 70.1 66.4 62.1 56.1 53.5 50.8 48 45.1 41.8 38.9 41.6 36.5 36.1 37.8 40.7 48.9 56.6 56.8 67.9 78.4 86.4 89.3 90.3 91.2 91.5 88.9 83.9 81.2 75.8 71.6 65.5 65.2 64.3 62.2 56.9 45.8
251.2 248.8 246.8 245.6 245.6 242.1 240.7 236.9 233.7 230.5 227.8 224.9 221.6 216.4 206.2 201 192.6 187.9 183.5 178.8 174.3 168.8 164.5 158.5 151.6 144.3 137.8 131.5 123 114.4 106.3 98.5 90.7 84.5 73 72.6 77.3 77.8 80.9 90.5 90.5 90.5 90.6 90.8 90.9 90.9 90.9 94.7 96.4 97.8 101.1 101.3 97.9 101.9 103.1 106.8 108.9 133 132.1 127.7 130.3 134.6 135 133 131.8 130 129.6 129.7 132.6 134 133.3 130.2 126.1 122.5 118.3 117.6 119.7 119.4 122.9 121.7 125.3 125.8 124.5 121.8 120.9 120.6 123.6 127.2 129.7 129.3 128.3 127.2 126.6 125.2 125.6 127.2 126.9 124.7 123.7 122 121.4 121.1 122.3 122.1 124.4 125.8 125.9 125.5 124.9 125.6 124.6 126.6 126.3 125.7 125.2 124.1 124.5 123.1 122.9 122.2 122.7 122.8 124 125.4 125.3 127.1 128.8 130.2 132.3 133.6 134.6 134.8 135 134.8 134 134.4 134.9 134.8 136.1 137.6 138.5 138.5 138.4 138.2 137.8 137.4 137.1 135.9 134.9 132.9 128.9 125.2 122.7 118 112.9 107.1 102.9 96.1 93 88.1 85.5 79.6 77.4 74.4 71 68.8 65.2 60.7 53.9 50.1 46.8 43.5 41.5 39.3 37.8 38.9 36.2 35.8 35.8 36.9 55.7 56.5 56.3 66.1 76.9 79.8 81.2 79.6 78.4 76.6 75.6 70.5 65.8 65.9 65.9 64.9 56.3 41 35.3 33.7
254.8 253 251.1 250 246.7 246.4 243.9 240.7 235.5 232 229.4 227.4 222.6 217.7 212.8 204.4 196.4 190.1 185.2 179.1 174.4 168.7 164.4 159.3 152.7 145.9 138.9 132.4 124.4 117 109.6 102.2 97 90.8 84.4 77.2 72.3 75.8 76.9 81.9 90 90.5 90.8 90.8 90.8 90.7 90.8 88.5 88.3 91.7 93.4 97.1 97.1 96.9 97.2 99.5 106.9 125.3 128 124.4 125.6 128.7 133.8 132 129.8 125.8 125.4 124.6 125.4 126.7 127.4 127.5 124.7 121 117.3 115.1 116.3 118.2 117.6 118.6 119.7 120.1 119.8 119.4 118.3 118.7 124 128.7 132.4 132.3 131.3 130.2 128.9 128.1 131.8 131.4 129.5 129.1 128 125.1 124.4 125.2 124.7 125.1 125.1 127.1 128.6 128.5 128.4 128.2 128.4 128.4 128.3 127.5 128.1 127.4 127.2 126.6 126.6 126.7 127 127.7 128.4 129.1 130.2 130.7 131.6 133.4 134.1 134.7 135.6 135.7 135.6 133.4 132.2 132.4 132.7 134.6 135.9 136.7 137.5 138 137.4 136.8 137 136.9 136.7 135.4 135.3 132.7 130.6 129.1 124.9 119.6 115 112.6 109.6 106.5 104 97.9 94.4 88.7 81.3 76.4 71.6 68.5 65.4 60.6 55.1 51 46.4 43.9 42 40.5 39.3 37.4 41.5 38.6 37.5 38.8 45.3 53.7 56.2 54.1 64.1 67.2 67.4 66.7 66.2 70.4 65.5 62.4 65.6 65.6 60 45.4 36.3 35.3 26.3 30.4
258.1 257 255.3 253.7 251.9 249.7 246.1 242.8 239.3 234.3 230.9 227.1 222.7 219.8 214.2 208.1 201.9 194.9 186.9 180 174.5 168.9 163.5 159.1 152.9 146.2 139.7 133.6 125.2 117.9 111.2 105.7 101.5 95.2 89 84.2 78.8 70.9 75.7 77.1 82.6 82.2 88.7 88.7 90.6 90.6 90.3 88.4 88.3 87.4 88.4 87.8 92.4 96.2 96.3 95.7 102.6 119.5 123.3 120.3 120.4 127.3 137.7 134 128.7 123.9 120.2 119.5 119.9 120.3 120.8 121.7 122.3 119.8 116.3 114 112.4 112.6 115.2 114.1 113.4 116.6 117.6 115 115.2 118.1 123.9 131 134.7 135.3 134.2 133.1 131.6 131.1 135.4 137.3 134.4 132.5 128.5 127.6 127.9 126.6 127.3 127.5 127.6 129.1 129.9 129.7 129.2 129.5 130.5 130.9 130.5 130.4 131.2 130.8 130.4 130.8 131.1 131.4 131.2 131.3 132.2 132.7 132.1 133.1 134.3 133.9 133.7 134.5 135.1 134.2 133.6 131.8 130.7 130.7 130.8 131.6 133.1 135.1 135.9 136.2 135.4 135.1 135.3 135.6 137.2 136.7 135.7 134.3 133.8 131 126.3 120.7 117.3 115.3 113.7 112.4 112.7 112.1 102.8 96 86.4 79.8 74.9 68.4 64.8 57 53.1 50 47.1 45.7 45.1 42.1 40.6 38.8 38.2 40.5 40.4 35.1 40.4 42.6 54.7 56.4 49.1 55.7 54.5 60.3 64.1 60.8 58.9 64.7 60.8 52.2 41.2 36.7 26.3 30 30.4 30.2
262.5 260.2 259.3 256.8 254.6 252.2 248.9 245.3 242.1 238.3 234.1 230.1 226.3 222.9 218.8 214 207.2 199.8 192.3 184.2 177.5 171.2 164.7 158.2 152 146.5 140 133.1 125.6 118.7 113.5 108.6 103.2 97.9 91.7 87.3 83.6 77.8 71.1 73.8 75.9 81.5 82.1 82.5 82.2 85.3 86.9 85.4 88.6 88.6 88.6 87.7 87.6 87.8 88.7 92.6 95.9 112.2 116.5 117 117.2 122.1 134.2 132.8 130 124.1 118.4 114.3 115.9 115.4 115.6 115.9 118.8 118 115.1 113.3 112.2 110.2 111 109.9 109.7 109.8 111.8 111.6 114.1 117.9 123.9 131.6 136.2 140.2 138.2 135.6 134.8 135.2 136.1 136.9 136.7 134.3 131.1 130.6 130.2 129.9 129.3 129.4 130 131.1 130.6 130.1 130.2 130.5 131.7 132 131.3 131.4 133.1 133.9 133.9 133.8 133.3 132.6 132.1 132.2 133.6 134.3 134.8 135.5 136.1 135.8 135.5 135.3 133.8 132.8 131.8 130.9 129.4 129 129.2 130 130.7 132.5 134.5 133.6 133.3 133.6 133.7 134.2 136.4 135.4 135 134.3 132.2 129.3 125.4 122.5 119.1 115.8 113.4 111.8 111.4 111.1 102.3 100 92.5 85 78.1 71.5 65.9 61.2 57.7 54.3 52.9 51.5 48.1 45 43.3 42.3 41.4 40.6 40.5 38.5 37.9 38.8 44.2 56.4 48.9 49.7 53.3 55.5 54.6 55.4 56.9 54.6 44.4 36.9 36.7 26.5 30.7 30.7 30.2 30
266.8 264.3 263 260.7 258.3 255.4 252.2 247.8 244.6 241 237.7 232.4 228.3 225.7 221.6 217.4 212.6 206.5 199.1 190.9 182.8 176.6 167.6 160.6 152.8 146.1 139.8 133.4 127.5 122 116.5 110.8 105.3 99.9 94.2 89.1 86 81.7 79.1 71.5 74 74 76.2 80.9 82.3 83 81.8 82.7 83.8 88.7 88.7 83.7 87.6 86.9 87.3 93.4 93.5 102.6 107.2 110.7 112.9 113.8 118.9 129.6 127.9 123.9 117.5 110 111.9 113.3 110.3 111.3 115.4 114.7 113.3 112.6 111.2 109.3 106.6 107 106.1 109.6 110.1 110.5 113 116.9 125.7 132.9 137.8 141.1 143.3 141.4 139.9 140.2 138.7 138.9 138.1 136 133.7 133 131.6 132.5 132 132.2 132.4 132.5 132.2 132.2 132.5 132.2 132.6 132.6 132.1 132.2 132.5 135 135.5 135.3 134.5 133.8 133.2 133.2 133.8 134.9 135.6 135 136.1 135.8 136 135 133.5 132.5 131.6 130.3 128.6 127.3 127.5 128.1 129.2 129.7 131.5 131.4 131.5 132 132.7 133.5 134.4 134.4 134.4 134 130.3 127.9 126.3 123.7 120.3 116.7 113.1 111.4 111.3 108.8 101.4 100.5 97.8 85.1 84.2 80.9 71.3 67.5 63.1 59.1 55.5 52.7 49.3 49.4 47 45.2 46.7 43.7 40.5 40.4 37.4 37.3 36.5 46.6 55 54.6 49 49.8 53.2 53.8 52.5 42.8 36.9 31 27.3 30.8 31.2 30.9 30.3 29.9
271.7 269.1 267.1 265.9 263 260.8 257.8 252.4 248.6 244 239.9 234.6 231.7 227.8 223.7 219.8 215.1 210.3 205.7 197.5 189.6 181.5 172.9 164.4 156 149.6 143.2 136 129.4 123.7 117.6 111.8 105.9 100.4 95.3 91.6 87.3 83.8 81.2 79 72.4 73.3 74.5 74.4 80.1 81.6 80.6 80.6 79.7 79.6 82.1 81.8 82.9 84 84.9 84.2 92.7 92.6 99.5 102.6 106 108.1 110.5 114.8 122.7 121.1 116.1 105.2 106.4 113.6 110.3 107.9 109.9 109.4 109.9 110.4 110.1 109.6 105.3 103.7 104 107.2 108.4 109.6 112 118.7 126.8 133.1 138.2 141.1 144.1 145.6 144.9 143.4 141.7 139.8 138.4 136.5 135.4 134.4 134.1 134.1 135.7 135.4 134.4 132.8 131.7 131.2 131.9 130.8 131.3 130.1 131.8 132.6 133.1 133.6 134.9 136 135.8 134.9 134.3 135.1 136.3 137.2 137.9 136.8 136.8 135.7 134.9 133.3 131.8 130.6 130 129.3 127.3 125.5 125.7 126.9 128.3 129 129.4 129.8 130.2 131 131.8 132.5 133.9 133.2 132.8 132.2 129.6 128.6 127.2 124 120.1 116.4 112.4 107.6 105.6 104.4 100.8 99.5 94.9 85.4 84.3 82.9 75.1 70.2 65.2 61 56 54.9 53.2 53.8 56.1 54.4 48.3 42.1 40.6 40.7 37.4 36.8 36.7 44.8 48.9 55 47.7 50.3 51.3 51.2 41 37.7 26.5 31.4 30.9 30.9 31.5 30.9 30.2 30.2
278.3 275.6 274.1 272.7 270.4 266.8 263.8 258.7 252.4 248 244 238.3 234.3 230 225.9 222.2 217.5 213 209.1 204.2 197.8 188.5 179.6 171 161.2 152.5 146.6 139.5 132 125.9 119.8 113.6 107.6 101 96.2 92.1 89.6 85.2 83 80.9 77.8 74.1 71.3 73.3 72.9 74.4 74.2 74.4 75.2 77.5 77.7 80.8 81.2 80.9 80.5 78 77.8 87.6 91.8 92.9 99.6 101.6 104.2 106.7 113 117.1 108.6 101.2 100.9 112 110.7 107.1 105.9 106.6 107.2 108.6 108.4 108.4 106.6 104.3 102 106.3 106.9 108.2 110.3 117.8 125.6 133.9 138.2 141.4 144 146.4 146.3 144 143 141.2 139.6 139 138.2 136.8 136.8 137.1 136.6 135.7 134.4 131.7 129.4 129.1 127 128.8 127.7 127.2 129 131.5 133.4 133 134.1 135.2 136.1 136.4 135.7 136.2 135.8 136.8 136.6 137.4 132.1 134.1 133.3 131.7 130.7 129.8 129 128.5 126.2 123.9 124.2 126.2 128.1 128.3 128.2 128.2 129 130 130.6 131.1 133.8 133.3 133.5 131.6 130.3 129.3 127.5 123.5 119.6 115.8 110.5 106.5 104.5 101.3 96.9 97 87.1 85.2 80.2 76.2 73.3 71.8 71 65.9 62.8 63 61.5 59.1 56.5 53.7 48 40.4 41.3 40.9 37.6 37 37 44.3 44.2 43.7 40.6 47.9 50.3 38.9 37.4 27 27.7 26.7 28.1 29.9 31.2 31.4 30.7 32.1
280.7 277.3 277.1 275.9 273.5 271.3 268.9 264.3 257.5 253.2 248.9 243.5 237.5 232.9 228.4 224.4 220.2 214.8 209.7 206.1 201.8 195.3 187 178.1 168.6 158.4 150.4 142.6 135 128.8 121 115.3 108.5 102.6 98.4 94.5 91.4 88.1 85 83.5 80.4 77.9 75.6 69.2 70.7 71.2 73.5 74.1 74.4 74.9 76 77.6 77.4 78.4 77.6 77.3 76.9 78.4 81.5 94.7 90.7 96.9 97.8 101.7 103.3 105 100.8 96.8 96.7 110.2 108.3 107.2 104.4 104.1 105.2 106.3 106.9 107.9 106.9 104.8 103.8 104.9 105.3 106.6 109.5 117.6 127.6 135.2 138.6 141.3 143 144.7 146.2 144.3 143.4 142.6 142.4 141 140.8 139.4 139.1 138.1 136.4 135.1 132.6 128.9 126.8 123.3 122.1 122.4 122.5 122.8 126.2 128.9 130.4 131.7 133.2 134.3 133.7 134 131.9 129.5 128.5 128.3 129.7 130.7 128.9 133.1 132.7 131.8 130.9 130 129.1 127.6 125 120.9 123.4 126.8 126.9 127.4 127.2 127.4 128.5 129.6 130.9 132.4 132 133.2 132.8 132.2 130.7 129.2 126.1 122.9 119.1 115.3 109.1 105.1 101.4 100.3 97.2 93.5 84.9 80.1 78.2 77.3 77.7 85.4 84.4 76.5 70.1 69 65.9 62.1 55.8 54.3 50.4 45 41.4 41.1 39.8 37.3 36.8 35.9 36.8 38.6 37.8 37.7 37.5 37.5 27.4 29.4 26.8 26.6 27.5 27.5 30.7 32 32.1 32.4
281.4 278.4 276.9 275.7 274.5 273.2 271.3 268.2 263.1 258.5 252.2 248.2 242.5 236.6 231.5 227.2 222.5 217.9 213.4 208.7 204.2 199.4 193.1 184.5 176.3 165.5 157.7 150.3 141.6 133.8 124.5 119.3 111.7 107.1 103 99.6 95 91.2 88.8 84.7 81.7 85 85.1 79.2 76.9 68.6 69.8 72.5 73.6 73.4 74.2 71.4 71.4 78.6 77.5 75.6 75.4 78.2 75.4 79.1 91 90.5 88.8 96.5 98.1 96.4 92.9 91.9 92.7 104.1 105.4 106.5 103.6 101.8 102.7 104.2 104.3 105.1 105.3 104.8 102.4 101.9 102.8 104.9 108.8 117 126.4 134.8 138.8 141.7 143.1 144.6 146.2 146.5 145.7 145 144.1 143.2 141.7 140.5 139.8 138.3 136.2 133.6 130.5 126.2 121.8 118.8 117.2 115.9 115.2 116.4 119.1 121.8 123.7 125.8 125.9 125.8 126.2 126 125.9 125 125.1 123.1 123.1 127 127 131.8 131.7 131.8 131.7 130 128.4 127.9 123.8 117.6 119.2 126.6 125 124.5 123.7 127.2 129.2 130.6 131.6 131.3 131.2 130.9 130.7 130.1 129.4 128.6 126.7 123 118.8 114.5 109.8 104.9 101.4 99.4 96.1 86.8 85.5 83.7 83.3 86.1 87.3 86.2 84.6 82.9 78.1 72.9 67.7 63.1 60.4 57.8 54.1 50.1 41.8 40.8 40.6 37.6 37 37.4 32.8 34.4 34.6 33.1 37.2 30.5 31.9 31.7 26.6 27.4 27.6 31.6 31.8 32.4 31.6 32.2
279.6 276.9 275.1 274.5 273.5 272.1 271 269.6 267.1 265.4 263.7 254.9 246.4 240.8 234.9 229.7 225 220.3 214.8 210.2 205.6 201.3 196.3 189.3 181.7 174 164.9 157.1 148.5 140.2 133.5 124.8 117 112.1 110.3 105.7 98.3 93.3 89.2 88.8 89.7 90.6 90.2 85.7 79.4 74.4 73.1 72.3 71.4 66.7 68.5 71.5 71.4 69.7 70.3 69.1 66.8 73.8 75.4 74.5 78.8 89.4 89.5 89.9 91.8 90.5 88.9 88 89.2 97 100.7 103.9 98.6 98.9 100.9 101.1 100.9 100.6 100.7 101.1 100.6 99.9 101.1 103.4 108.6 116.4 127.1 133.7 138.3 142 143.9 145.9 146.8 147.1 147.5 147.1 145.2 143.6 142.1 140.2 138.7 137.2 134.3 131 127.5 123.8 119.8 115.2 113.6 112 111.7 112 111.8 112.8 114.2 115.7 117.3 119.5 119.9 123.6 125.6 125.3 122 118.8 118.6 121.2 120.5 122.6 126 128.9 127.6 124.8 122.7 121.8 118.6 113.5 114.6 117.6 119 117.2 121.8 128.7 129.5 130.2 131.6 131.7 131.1 130.6 130.2 129.8 129.1 128.5 127.6 123.2 118.7 114.1 110.4 106.7 105.4 97.3 94.8 90.4 92 98.3 97.2 95.8 88.7 86.9 86.9 84.7 81.2 76.9 72.6 71.8 67.8 63.3 58.5 53.3 43.2 41.6 44.2 38.1 36.6 33.7 33.6 34.4 37.1 37.8 32.5 30.9 31.4 31.7 31 31.4 31.4 31.6 31.7 32.1 31.5 31.9
277.5 275.8 273.4 272.3 271.5 270.9 269.5 268 267.4 266.5 264.1 258.1 250.1 243.4 239.3 234 227.4 222.4 217.4 211.9 207.1 202.7 197.7 191.7 186.1 179 171.2 164.5 158.2 149.4 140.3 131 123.2 120.5 115 108 101.6 101.1 97.4 98.4 96 95.4 95.1 92.9 86.5 78.8 75.2 74 73.1 71.1 70.9 70.7 70.4 70.2 70.1 68.8 68.6 66.8 76.6 71.3 71 73.4 88.3 88.9 89.4 88.5 87.6 86.1 87 90.5 91.1 92.2 97.2 101 101.4 101.4 99.6 98.2 97.9 98.1 96.6 98.7 100.2 101.8 107.2 115.7 123.3 130.6 136.4 141.2 143.3 145.7 146.8 147.9 147 145.9 144.3 143.1 141.3 139 136.6 134.8 131.1 127.1 123.9 120 116.2 113.5 111 109.7 108.6 108.7 108.6 108.8 109.6 111.5 114.4 117.6 124 128.5 127.1 123.8 119.9 116.9 115.1 119 115.1 115 114 115.9 115.3 114.9 114.9 113.8 110.7 109.6 108.6 110.9 112 114 122.7 129.4 130.6 130.9 131.6 131.8 131.5 130.4 129.4 129.5 128.9 127.5 126.5 122 117.2 112.5 109 106.4 102.7 100.2 99.6 99.9 100.4 99.2 98.3 97 91.4 89.5 89.7 89.1 88.6 87.8 83.4 78.3 72.6 68 57.1 51.6 43.9 41.6 41.7 38.6 36.3 34 34.1 37.1 37.8 33 32.9 31.4 31.7 31.8 31.1 31.1 30.8 31.8 31.7 31.2 30.4 31.1
274.5 273 271.2 269.8 268.8 268.6 267.1 266 265.3 265.2 263.2 258.9 252.5 245.5 241.8 236.1 230.2 225.1 220.3 214.8 209.4 203.6 198.6 193.2 188.6 183.2 177 171 164.1 156.4 146.6 137.4 130.3 121.3 115.9 113.6 104.2 101.2 101.2 106.1 102.6 98.6 97.2 94.6 87.8 83.3 79.4 75.6 75.7 73.2 71.1 70.6 70.2 69.7 69.2 68.9 68.2 66.5 70.1 70.2 70.2 68.8 67.7 87.3 88.4 86.9 88.4 84.7 84.3 87.2 87.7 89.1 99.8 104 103 102.1 99.6 98.1 96.6 95.9 94.2 96.5 98.9 101.3 104.2 114 121.9 127.3 132.9 136.8 139.6 141.4 142.2 142.9 143.9 143.1 141.6 139.3 138.1 136.9 132.9 130.5 126.9 122.2 120.3 115.8 113.3 110.9 108.9 108.3 107.3 106.5 105.9 108.4 110.2 112.9 117 121.7 122.1 123.7 124.4 121.3 118.2 115.7 113.8 111.7 110.7 110.1 108.7 107.4 107 106.7 106.6 106 107 105.4 104 106.1 108.2 113.7 125.8 128.6 129.7 130.8 131.4 131.6 131.8 130.1 128.7 128.9 127.8 125.5 124.8 120.5 115.4 111 104.8 101.2 101.5 101.5 101.9 102.5 105 103.6 100.8 98.4 97.2 98.1 96.6 93.3 91.9 88 85.3 79 73.7 68.1 62.2 53.7 51.5 42.4 43.1 38.1 35.6 32.9 37 37.8 33.4 33.4 33 32.3 31.7 31.7 31.6 30.3 31 30.5 30.5 30.8 30.8 30
272.8 270.5 268.9 267.6 267 266.1 265.1 264.2 263.3 262.9 261.1 257.5 251.7 247.3 242 237.9 233 227.6 222.4 217.2 211.4 205.3 200.4 194.6 190 185.5 180.9 175.8 168.8 161.6 152 143 132.9 125.2 115.5 114.2 113.2 103.8 111.4 109.1 106.4 103.2 98.5 94.8 91.2 86.2 83.5 82.2 78.8 76.9 74.1 71.4 70 69.5 69 68.4 63.9 69.2 69.4 69.4 69 67.9 67.6 75.6 88.1 87.7 83.1 87.6 82 83.6 86.8 87.7 92.7 106.5 104.7 102.5 100.8 98.9 97.5 94.5 92.6 95 96.6 100.5 105.8 111.1 114.3 120.7 127.8 132.2 134 136.2 137.7 137.4 137.2 137 136.5 134.4 131.9 128.8 125.3 122.9 119.8 117.1 114.7 113.1 111.4 109.3 106.9 105.6 105.9 105.3 104.5 108.1 112.1 114.8 117.3 118.1 119.3 120.2 122.8 120.4 116.4 113.8 112.6 110.5 109 107.5 106 104.8 104 103.2 102.7 102.4 102.1 102.6 101.7 103 106.9 111.7 125.3 128.2 129 130.1 130.8 131 130.5 130 128.6 128 127.8 125 121.2 117.8 113.6 109.3 106.5 113.5 115.3 115.5 115.7 113.7 111 106.9 106.6 108.3 110.5 110.6 110 104.4 90.2 89.2 86.3 80.9 74.9 69.8 64.2 58.6 53.5 45.7 42 37.3 33.3 33.3 37.8 33.4 33.6 33.7 33.3 32.9 31.7 31 30.1 30.1 30.2 30.5 30.6 30.8 33.8 33
