ncols 200
nrows 82
xllcorner 230000
yllcorner 913250
cellsize 50
397.3 384.6 366.3 359.1 350.5 340.5 326.5 310 297.1 286.5 278 273.5 266.9 263.4 261.6 262.6 262.1 265.1 270 277.1 287.4 302 316.1 329.6 346.6 366 393.7 414.9 443.8 469.1 486.6 497.1 514.4 524.8 523.3 535.2 540.1 544.3 545.9 549.1 553.5 560 569.9 573.1 580.5 584.4 589.5 594.6 600.8 603.9 606 610.7 614.1 621.4 630.3 638.8 643.9 648.5 645.6 625 593.8 563.2 537.1 517.3 503.7 492 484.1 478.7 471.3 457.6 446.5 431.5 416.9 404.7 393.3 381.7 373.4 363.9 360 353.8 348.9 346.7 340.3 337.3 337.3 337.3 337.3 337.3 337.3 337.3 337.3 337.3 338.4 337.3 337.3 338 338.1 336.6 334.6 333.5 331.4 328.4 325.6 321.8 315.9 309.1 303 297.4 296 293.2 289.7 287.6 286.5 285.2 286.4 287.5 286.6 287 287.9 288.2 288.2 285.9 285.4 283.7 281.7 277.7 276.1 276.3 272.1 269.7 267.4 263.9 261.6 260.7 258.6 256.5 257.6 255.5 252.2 249.7 248.2 244.3 244.5 242 236.9 236.7 233.4 229.9 226.5 220.9 216.8 213.1 209.7 204.2 198.4 193.1 188.9 182.7 175.7 167.2 156.2 148.8 143.9 137.1 130.5 126.6 123.4 121.3 116.8 122.3 124.9 130.5 138.7 148 157.3 166 177.8 191.1 202.5 212.7 222 230.1 241.3 247.7 250 254.3 258.9 265.2 270.1 273.4 278.5 282.1 285 285.2 284.7 283.7 288.4 293.1 297 299.7
393.9 377.1 368.7 360.8 351.9 339.8 327.6 317.2 298.4 287.1 277.7 272.8 266.1 263.1 262.8 261.2 262.5 268.7 269.7 276.9 286.5 300 311.6 328.1 343.4 368.8 392.9 417.5 442.5 472.3 495.6 507.4 511.1 518.3 520.9 531.2 544.1 545 549 551.1 555.2 556.5 562 567.2 575.9 582 581.9 584.2 587.5 587.7 592.8 600.4 599.1 606.2 613 621.8 631.2 637.2 635.8 626.9 601.2 567.6 539.2 516.9 502.6 491.5 481.3 470.2 466.4 453.7 441.2 427.7 416.6 405.4 393.7 381.6 372 372.3 364.7 358.6 355 351.2 345.8 341.5 337.3 337.3 337.3 337.3 337.3 337.3 337.3 337.3 337.3 341.9 345.1 345.6 345.8 341.7 337.6 337.1 333.5 330.6 328.7 323.4 317.1 312.1 305.6 301.3 296.6 296 293 289.4 288.8 286.5 286.3 287.4 287.9 287.2 289.8 290.2 288.7 286.8 285.8 284.5 284.3 279.8 278.8 275.8 272.3 269.6 266.3 264.7 262.7 261.5 260.1 257.9 255.8 254.5 253 250.3 248.3 243.4 246.4 241.6 242.9 239.3 236.5 233.5 229.3 224.3 220.2 216.7 213.2 207.1 201.7 196.3 191.2 183.8 176 167.8 160.1 153.2 147.1 138.8 131.1 127.7 124.7 122.3 118.6 120.8 122.5 126.8 130.4 138.9 149.1 158.4 166.7 180 192.1 204.5 213 221.6 232.4 239.8 244.4 249.1 253.3 257.1 262.9 269.6 274.5 278.7 280.7 280.9 280.3 281.7 287.6 292.5 296.8 299.6
390.9 374.5 362.9 358 348.3 338.5 330.3 317.5 302.8 289.5 279.7 277.3 269.6 267 262 260 261.9 263.6 267.7 273 287.6 299.3 309.7 322.4 340.1 362.9 387.6 413 442.5 479.1 513.4 527.5 531.4 527.8 529.3 525.3 540.7 545.5 552.2 552.5 557.2 560.2 560.4 570.2 570.7 576.3 576.2 579 579.3 575.3 576.6 583.5 587.4 595.1 603 610.9 619.8 625.8 627.4 624.4 616.5 585.3 553.2 522.2 500 490.5 481.6 472.8 463.3 450.3 436 423.5 413.4 407.3 398.2 387 383 376.8 369.3 364.8 359.3 354.6 349.6 342.2 338.9 337.3 337.3 337.3 337.3 337.3 337.3 337.3 337.3 346 349.4 347.5 346.8 344.1 339.6 337.4 334.6 331.6 329 325.1 319.5 313.4 308.8 303 298.3 297.6 294.1 289.6 287.8 286.3 287.8 289 289.7 290.3 290.9 290.8 288.8 288.5 285.7 284.5 283.5 279.2 276.8 275.2 272.1 271.1 267.3 266.8 265.2 262.2 260.4 257.6 256.3 254.4 252.7 252.8 248.6 249 246.1 247.5 246.4 244.3 240.3 235.8 233.3 229.3 225.4 221.4 216.6 210.6 205.1 199.6 194.1 187.3 180.1 171.4 162.6 154.9 148.3 140.1 132.2 127.3 124.6 122.8 116.2 118.7 120.2 122.6 126.2 132.2 141.6 151.4 160.6 162.2 185.1 196.2 205.4 214.6 223.8 231.8 237.3 244.3 250 252.7 256.6 262.6 268.2 273 275.1 277.4 275.6 280.5 285.4 290.8 295.9 298.4
384.6 374.6 363.4 348.7 340.9 338.3 330.3 319.2 302.1 291.1 280.1 272.7 266.4 259.3 262.7 260.1 259.1 262.5 266.2 272.1 283.3 295.9 307.5 318.4 333.1 359 386.2 409.4 437.8 480.2 513.5 524.4 532.6 541.2 541.3 540.7 533.7 542.5 552.2 551.7 559.2 565.4 567.5 571.5 573.3 572.4 573.3 572 568.5 566.4 566.1 570.6 575.9 581.2 591 601.5 610.4 616.1 617.2 615.3 610.3 603.7 578.5 542.7 508.3 488.9 483.8 475 462.1 451.8 439.6 428.3 417 410.1 403.4 395.1 389.6 381.8 377.4 371.9 366.9 360.7 355.2 347.5 344.6 337.3 337.3 337.3 337.3 337.3 337.3 337.3 337.9 347 350.8 348.4 346.9 344.4 340.6 336.9 333.2 331.6 328.8 323.5 319.9 313.9 309.5 304.7 300.4 297.7 295.4 291.3 288.7 288.7 290.8 290.1 290.2 291.5 291.8 291.6 289.5 289 287.3 284.3 283.3 280.6 277.3 276.2 274.6 272 268.6 267.6 262.9 262.7 261.7 258.7 257.4 254.9 253.6 253 251.6 248.9 253.1 251.4 249.7 246.7 243.1 240.9 238.2 234.6 230.1 224.1 218.9 215 209.2 203.2 198.1 191.4 185 174.6 165.5 157.8 149.8 141.3 132.7 127.4 124.6 123.8 119.9 113.6 117.6 120 123.4 126.5 137.6 141.7 146.3 161 175.5 186.9 196.5 208.7 217.4 223.5 228.7 237.6 244.2 249.5 251.8 256.1 262.2 266.6 268.7 270.8 273.4 277.7 282.6 287.8 292.4 295
375.6 365.6 358.8 347.1 336.7 329.1 325 319.7 307.6 290.8 281 280.8 270.3 258.9 257.1 257.3 258.1 265.4 268 273.5 283 294 302.2 311.6 327.9 348.5 369.8 402.7 431.2 475.3 509.2 520.9 525.4 533.2 538.5 543.2 544 543.5 545.1 549.6 559.6 563.9 564.1 567 568.4 567 563.4 556 560.4 560.2 555.7 562.1 563.5 572.2 580.2 590.1 598.3 605 606.2 603.8 603.1 599.4 591.5 558.6 522.9 498.5 478.2 470.9 463.8 451.8 442.6 434.9 426.3 417.8 409.9 403.4 397.4 391.5 385.7 380.1 374.5 367.7 360.2 355.1 349.1 343.2 337.3 337.3 337.3 337.3 337.3 337.3 344 347.3 347.9 348 345.3 341.9 339.6 338 335.1 332.9 329.1 323.2 319.8 315 308.6 303.9 300.2 299.2 296 292.1 290 289.9 290.6 292.2 292.1 292.7 292.4 292.1 292.3 290.5 287.7 284.9 284 282.8 279 277.4 275.8 273.8 271.3 268.2 264.9 263.4 262.4 261.5 259.8 256.3 252.4 255 253.6 254.5 254.8 253.8 252.3 248.9 247 244.3 240.5 236.4 233.1 228.9 225.2 220.4 214.3 207.6 201.4 195.8 188.4 177.6 169.4 161.2 154.5 145.1 134.1 128.8 124.8 123 118.7 118.1 113.1 118.2 119.4 122.2 134.2 135.9 143.9 156.9 167 179.4 189.3 198.9 209.8 216.8 222.9 230.7 237.6 241.4 245.4 251 257 262.1 265.1 265 270.1 274.1 278.3 284.5 291.2 293.7
365.6 354.8 349.6 342.8 335.9 326.2 324.4 316.6 310.6 297.3 288.8 282.3 272.7 259.9 259.8 260.4 261.2 262.2 266.3 268.7 279.4 286.5 297.2 306.7 317.9 342.4 360.2 388.3 415.1 452.4 502.6 515.3 518.2 523.2 533.3 540.5 548.3 551.9 553.5 552.7 557.2 558.7 555.3 559.2 556.3 551.8 543 534.4 536.5 542.5 547 548.4 553.6 564.1 566.9 575 585.8 592.5 594.4 593 594.4 594.8 590.6 577 550.6 518.7 491.6 478.3 464.7 457.3 448.8 442.5 434.8 427.3 421.9 414.8 409 402.5 395.1 390 381.9 374.8 368.7 363.4 356.6 348.8 343.5 339.2 337.3 337.3 337.3 341.6 347.2 349 350.5 348.2 344.4 341.9 340.8 339.2 335.7 332.8 328.6 325 320.4 315.7 310.2 305.8 302.9 299.1 296 292.9 291.8 292.5 291.7 293.3 292.9 292.8 294.5 293.7 293.3 291.2 288.3 285 284.1 282.6 279.9 278 276.6 275 272.2 268.8 265.6 263.7 262.9 261.7 260.3 256.8 257.7 256.9 253.9 257.2 256.6 256.3 254.3 253.2 250.7 247 243.8 240.7 236.2 232.5 226.7 223.5 217.1 212.4 205.5 199.9 193.7 184.5 174.8 166.3 158.3 147.1 137.5 130.1 124.2 121.9 119.8 117.5 115.9 112.9 117 122 127.9 131.6 139 146.5 158 171.8 180.1 192.1 202.5 210.4 217.6 226.1 231.3 234.7 239.1 244.4 243.7 252.6 257.4 263.8 267.7 271.6 275.7 283.2 290 293.7
358 347.4 339.2 337.8 330.9 324.4 317.8 314.2 310.2 296.4 288.1 279.3 272 260.5 251.4 258.2 256.8 257.4 261 263.7 273.4 283.7 292.2 302.9 313.7 338.4 353.4 375 403.6 435.5 483.9 500 509.6 513.5 523.8 536.5 545.1 550.6 559.6 562.1 559.6 555.7 552 550.2 544.7 536.8 518.4 506 499.5 495.6 496.8 507.5 519.1 531.4 551.5 557.3 563.8 572.8 579.7 582.7 585.8 587.9 587.3 588.3 574.4 544.6 516.5 496.3 482 460 453.9 450.4 444.4 438.3 434.9 429.2 422.8 415.5 411.3 402.6 392.5 385.5 377.8 371.7 362.7 357 350.9 345.3 341.6 341.2 343.6 347.4 349.1 351.1 350.4 346.7 345.8 343.1 339.8 339.7 336.7 332.4 328 323.3 320 315.8 311.5 308.8 305.8 301.2 295.6 293 294.1 294.1 294.2 294.3 295 295.6 295.3 295.6 294.4 290.6 289.6 287 285.3 283.1 281.8 278.7 277.3 275.3 272.9 269.4 266.5 263.5 262.6 261.5 260.7 260.3 259.2 257.3 258.8 258.3 258.2 258.4 258.1 255.7 253.8 251.6 247 243.6 240.3 235.7 230.8 225.5 221.5 216.2 209.4 202.4 195.2 188.3 178.6 168.8 160.9 152 142.4 132.8 125.6 122.6 120 117.6 115.6 114.4 115 118.6 122.2 130.7 136.2 143.3 151 160 171.5 183.2 194.3 203.3 210.2 218.9 222 231.4 239.3 244.1 247.8 254.4 259.6 263 266.4 269.7 274.1 279.5 284.1 288.4
360.5 350 337 325.5 322.3 318 313.1 307.5 305.8 298 287 282.6 269.8 257.6 252.1 250.8 250.4 252.1 254.3 255.2 268.1 275.7 284.1 295.2 306.2 326.2 341.9 363 391.6 423.5 454.6 480.4 498.9 509.9 519.3 532.3 540.8 549 557.9 562.9 562.1 555.8 552.3 549.6 544.9 529.2 499.1 475.5 468.4 471.3 463.7 463.5 485.3 499.7 513.2 521.6 528.7 548.4 554.7 566.7 572.7 581 584 585.5 578.2 560.6 546 524.8 498.9 480.8 466.5 457.1 452.5 451.1 444.7 440.7 436.5 429.4 424.4 416.8 406 396.5 390.3 382.9 375.7 367.9 361.6 352.5 349.2 346.3 348.8 351.4 353 352.3 351.5 347.4 346.6 344.7 340 338.9 335.3 332.4 328.6 324.3 320.9 318 314.6 310.4 306.7 302.3 297.2 296.1 296.4 296 294.6 296.2 296.2 297.4 297.2 296.1 295.9 291.7 289.5 287.8 286.4 284.2 282.3 280.1 277 275 273.4 269.2 266.4 264 264.2 262.9 260.6 261.6 260.9 258.4 260.9 259.9 261 260.5 260.7 258.9 257.2 254.5 251.1 248.7 243.8 238.2 234 229.7 224.6 218.9 211.7 204.4 197.6 190.3 180.9 172.2 165.6 153.3 142.6 134.8 128.7 122.1 119.5 117.7 115.1 114.4 112.9 115.6 117.4 127.8 128.3 136.9 146.8 155.5 162.6 173.8 185.9 194.8 206.2 213.6 220.4 227.5 236.7 242.7 245.9 252.3 256.5 260.5 264.4 267.7 274.1 280.2 286.3 291.3
360.7 350 332.8 320.4 313.5 312 310.1 308.7 298.4 293.9 289.5 280.2 270 258.1 251.9 248.5 249.8 250.9 250.4 252.2 263.1 270.6 278.4 290 299.5 314.4 330.9 353.3 377.6 401.8 430.1 460.5 498.2 512.8 523.2 531.7 540.6 548.8 557.4 562.5 562 560.5 555 542.7 537.8 522.1 493.3 466.7 447.5 447 439.3 430.8 437.7 447.1 478.2 482.7 495.4 509.3 525 541 558.9 574.2 578.8 582.2 581.2 577.8 569.1 546.8 521.2 507.3 489.8 478.4 466.3 454.9 454 451.7 444.9 445.5 440.3 432.4 422.3 414.3 407.5 399 391.1 381.8 372.6 358.5 353.5 350.6 353.7 356.5 354.4 352.3 350.4 347.9 345.1 343.1 339.6 336.9 334 330.3 328.2 325.6 322.2 318.5 315.3 311.6 307.2 303 299.7 298.6 298.2 297.9 298.2 298.7 299.1 299.7 298.1 296.7 295.1 293.3 290.1 288.1 285.8 284.3 283.1 281.3 277.3 274.2 271.9 269.1 267.2 266.2 264.9 263.9 262.1 262.3 261 261 262.6 261.3 261.2 261.7 261.5 261.3 260.2 257.3 255.6 253.8 248.3 243.7 238.7 233.4 227.6 221.1 213.1 205.9 199.7 191.4 183 172.1 165.5 157.4 146.2 136.7 128 122.7 119.8 117 114.7 114.2 113.4 112.1 118.2 122.4 126.5 133.4 139.6 149.8 157.8 166.4 175.3 185.4 197.7 206.8 216.6 222.9 230.5 237.3 242.9 249 256.3 259.6 262.7 266.6 271.6 279.3 286.5 293.3
364 349.5 337.7 322.5 310.1 305 304.7 303 297.8 290.3 291.3 282 273.7 264.7 253.6 248.8 248.4 249.6 249.5 251 260.4 267.8 274 284.8 295.3 308.6 323.4 338.7 364.4 390.6 419.2 458.6 497.8 507.3 520 528.3 538 548 556.9 564.9 568.9 566.4 555.3 536.8 514.2 504.6 480 454.9 428.9 422.3 428.1 416.1 411.8 416.7 428.7 449.4 463.6 480.1 504.2 523.1 544.5 565.7 577.7 583.9 587.8 590.5 586.2 570.7 548.2 532.7 515 502.7 492.4 481.1 466.8 459.1 457.3 460.7 455.7 452.8 440.3 430.5 423.1 411.9 400.8 390.3 379.4 365 358.7 359.2 361.1 360.2 357.3 352.3 349.8 347.1 345 341.3 337.8 335.6 332.5 330.1 327.8 324.4 321.9 318.2 314.9 309.8 308.5 306.1 303.8 301.5 300.3 300.2 300.1 300.4 300.4 301.4 300.9 298.5 296.2 292.7 291 288.4 286.2 285.2 282.9 280.8 277.8 274.5 271.3 270.6 269.5 268.3 266.5 265.3 264.2 263.5 261.5 264.6 265.3 264 264.6 264.1 263.6 263 262.6 261.4 259.7 256.4 252.5 247.8 243.8 238.1 231.5 225.1 218.4 210 202.4 195.6 186.8 178.1 166.9 158.7 151.8 142.6 133.9 124.4 124.9 116.2 114.1 113.8 113.6 112 112 113.4 120.2 124.2 133.5 142.3 150.5 159.5 167.9 167.2 184.2 200.2 211 220.8 227.2 232.5 237.8 243.2 251.8 257.6 261.1 265.2 269.4 275.7 283.5 289.2
367.7 353.3 335.7 327.1 309.5 301.2 297.4 298.5 297.2 287.3 285.3 287.6 277.9 264.4 261.2 254.4 247.3 249.1 249.2 251.2 260.2 264.2 270.1 278.8 292.7 301.4 316 324.3 349 376.1 405.4 440.4 481.8 495.3 508.3 518.2 531.7 545.7 555.4 567.4 573.6 570.7 559.6 528 501.5 481.1 465 439.4 421.1 406.7 399 400 399.6 395.3 406.9 420.7 441.9 461.2 485.5 506.7 532 557.8 576.3 588.3 594.8 601.4 606.1 595.3 575.6 556 540.3 528.7 516.5 506.8 497 482.9 476 472.8 468.6 471.5 464.4 453 436.7 422.7 409.9 399.5 389.7 374.7 369.3 367.9 366.4 362 357.5 353.8 349.6 347.1 342.4 339.3 335.9 333.5 331.1 329.7 326.6 324.5 321.2 317.9 317.3 314.2 310.8 308.1 307.6 304.6 303.6 301.7 301.7 302.5 303.5 303.1 302.3 300.6 296.4 293.6 291.2 288.4 287 284.8 282.9 280.6 276.6 274.6 272.8 271.6 270.8 269.1 267.8 267 266.9 266 263.2 266.5 267.2 267.1 266.8 267 266.2 265.9 264.6 263.3 261.5 259.2 256 251.6 246.9 243 236.3 229.7 223.5 214.9 204.6 199.4 192.1 181.4 171.3 162.2 153 148.4 137 128.4 120.3 116.1 113.5 113.4 113.4 112.8 111.2 112.3 117.2 120.6 128.8 138.7 145.2 154 155 168.6 180 191.5 201.9 212.2 223 229.7 235.2 241.5 247.2 253.4 258.3 262.7 268.4 275.7 280.7 288.4
362.9 350.7 332.7 325.3 308.6 300.7 294.8 290.3 289.7 291.5 281.6 281.8 277.4 267.6 257.9 251.9 246.2 248.9 254.5 255.2 255.8 265.4 271.5 275.7 286.8 294.5 305.5 314.4 334.5 357.5 383.2 417.8 445.8 476.1 487.8 498.9 516.4 537.8 556 565.4 568.2 565 554.8 521.3 498.8 477.5 448.6 426.7 414.3 398.3 391.8 390.2 390.2 390.2 390.2 399.2 423.7 447 475 496.5 520.8 545 570 590.2 602.1 613.3 619.7 622 603 582.8 567.9 558.3 544.9 536.2 524 510.4 495.5 489.3 480.4 480.3 475.6 468.5 452.3 433.3 416.7 404 394.5 389.1 384.9 378.6 374.4 366 359 353.8 349.6 343 339.3 337.3 334.1 332.5 332.3 329.4 328.6 324.6 320.8 321 318.7 316.9 313.5 310.7 308.2 307.5 304.5 304.1 304.7 303.5 304.7 304.9 302.3 303.8 296.9 294.2 291.8 289.4 288.3 284.5 282.1 279.9 277.8 275.5 274.7 272.9 271.7 271 270.1 269.1 268.3 267.9 266.9 268.6 269.3 269.4 269.3 269.5 269.2 268.1 267.5 267.4 264.8 262.1 257.6 254 252.1 247.7 242.3 235.4 227.7 218.6 212.7 205.2 195.3 184 174.3 167.4 155.4 147.4 139.5 128.1 121.7 115.8 112.8 112.8 112.9 113 111.6 109.7 113.1 116.8 121.8 132.1 139.7 142.8 150 165.2 175.4 184 193.4 205.2 216.2 226.2 232.9 240.6 245.5 253 257.4 261.5 267 274.5 281 288.5
359.9 351.3 337.9 322.4 308.5 302.4 292.6 287 283.5 280.6 284.2 285.3 274.9 273.5 264.6 258.2 246 247 252 256.6 255.3 264.1 271.4 270.4 281.4 287.8 294.7 304.7 322.5 340.2 364.5 394 422.9 439.9 455.8 476 497.5 527.8 554.8 565.9 550.8 532 517.3 495.8 481.2 457.2 432.6 409.6 393.4 390.2 390.2 390.2 390.2 390.2 390.2 391.3 406.3 432.7 458.2 485 510.2 535.7 564 588.3 608.5 621.5 633.8 641.8 631.2 613 597.6 588.8 576.1 566.8 555.5 536.1 518.5 508 500.3 486.8 483.3 475.6 463.5 447.1 430.8 415.5 407.7 401 392.2 383.4 376.8 366.1 360.1 357.9 346.7 342.4 338.5 337.5 337.1 335.2 332.4 330.2 328.8 327.2 324.5 322.8 320 318.5 314.8 313 311.7 309.2 305.9 305.2 307 305.6 306 305.9 304.9 302.1 297.9 295.4 293.4 289.1 285.9 283.6 282 281.2 278.4 276.8 275.2 274.2 272.3 271.9 271.2 271.7 270.3 270 269.4 270.5 270.8 271 272.1 272.3 271.8 270.7 269.8 268.7 266.4 263.9 261 258 256 252 247 237.1 233.6 226.9 217.2 209.3 199.5 186.4 176.9 167.4 157.6 147.8 138.8 130.4 123.8 118 112.5 112.5 112.5 112.5 112.2 111.1 109.6 112.8 115.9 122 128.4 140.8 153 159.8 171.4 180 192.9 205.8 213.2 220.4 229.6 238.6 243.8 251.1 256.1 260.4 268.6 275.8 284.5 289.1
355.2 350.3 338.2 325.6 321 309.1 298.5 288 288.4 284.1 275.8 282.2 275.7 266.8 265.8 259.6 248.8 243.3 246.8 250.2 255.3 261.6 268.5 265.6 274 285.7 290.9 299.3 315.4 330.3 351.9 372 400.2 423.1 452.4 477.8 502.4 538.6 556.7 567.2 554.1 515.4 496.3 473.8 452.5 425.6 405.7 399 390.2 390.2 390.2 390.2 390.2 390.2 390.2 394 406.2 422.3 437.2 471 501.6 531.2 556.8 582.4 608.6 626.4 641.6 652.9 657.3 645.8 630.4 619.9 610.1 597 580.6 564.1 546.1 532.1 517.3 504.8 487.5 484.1 475.6 462.5 446 436.4 428 411.4 399.1 388.3 379.3 369.6 359.2 356.2 347.6 345.3 342.5 342.9 340.6 334.8 332.6 336.2 333.4 332.6 329.5 326.1 323.6 322.4 317.6 316.2 314.1 312.6 309.7 310.4 310.4 310.8 306.9 304.4 304.3 301.6 299.4 296.3 294.9 291.4 286.9 285.8 283.8 282.4 279.6 277.9 275.9 274 273.1 273.3 273.4 273 272.9 271.6 269.7 271.6 271.8 272.7 273.3 273.1 272.8 272.4 271.4 270.4 267.6 265.5 263.7 262.2 258.4 255.2 250 245.5 239.6 232.1 222.6 213.7 202.3 189.7 178.8 169.2 160.8 152.9 142.1 133.4 126.4 122.6 112.4 112 111.8 112 111.9 111.3 109.4 111.1 115.4 120.6 126.1 137.3 148.6 160.9 170.9 179.7 189.9 203.3 212 221.4 228.1 234.8 241.8 249.8 255 259.4 268.4 278 286.3 291.9
355.8 349.1 340.3 334.4 327 319.8 302 295.2 287.8 283.1 281 272.8 272.8 267.1 263.2 256 247.3 241.8 244 245.2 250.6 259.4 265.1 262.8 269.5 277.2 284.5 298.6 308 322.6 339.4 357.1 380.2 406.8 438.7 485.5 526.3 541.3 553.2 564 549.8 509.4 476.4 462.3 438.8 414.1 390.2 390.2 390.2 390.2 390.2 390.2 390.2 390.2 390.2 390.9 407 422.4 438.4 463.6 494.2 521.2 553 580.3 603.7 623.3 645.2 662.1 670.1 673.3 663.8 646.7 637.3 626.2 611.4 591.5 569.9 555.7 538.4 520.9 509.2 496 486.4 474.3 464.3 456 441 426.7 408.9 394.6 381.5 373 362.5 357.6 350.2 345.3 342.4 342.7 342.3 339.7 338.3 338 335.9 335.4 333.6 329 327 326.1 321.8 319.6 319.7 317 312.9 314.6 313.5 311.2 310.1 307.8 304.8 302.4 299.5 296.4 297 293.1 287.7 285.5 284.3 283.4 279.7 277.2 277.1 276.1 276.3 275.6 273.8 272.7 271.9 273 271.7 272.4 273.6 274.7 274.5 274.3 274 273.4 273.8 271.4 270.1 267.3 266.8 265 260.8 257.4 255.4 250.5 245.2 237.3 229.4 219 206.3 193.3 184.2 172.6 162.8 153.3 143.5 133.8 128.9 123.6 113.1 111.1 110.9 111.5 111.6 110.9 110.5 109.9 112 115.9 123.3 133.6 143 155.8 163.9 176.6 189.2 197 210.4 221.7 228.2 234.6 239.2 247.8 254.8 259.5 266.5 272.9 280.9 288.5
361.1 351.8 344.6 335.5 332.2 322.8 305.1 298.5 291.4 282.8 277.1 268.4 271.4 268.7 262.5 256.9 247.1 242.7 241 245.3 247.5 254.4 262 260.8 263.2 273 278.4 294.7 303.1 314.5 327.8 347.9 369.4 396.2 444.8 487.7 511.5 534.9 549.7 564.6 549.1 512.8 482.4 454.1 437.6 414 390.2 390.2 390.2 390.2 390.2 390.2 390.2 390.2 390.2 396.3 412.4 425.7 440.2 454.4 483.6 515.6 551.9 579.2 601.1 620.2 644.5 663.2 673.9 683.7 686.8 674.8 663.6 654.4 641.5 618.8 594.8 577 561.7 546.9 530.4 516.3 499.4 491.8 480.7 463.6 453.7 432.9 414.2 401.5 386.3 375.1 366.9 359.3 354.1 351.8 350.3 349.4 349.5 346.1 341.5 339.9 339.5 338.3 337.5 334.7 331.5 330.4 327.3 324.8 322.9 319.7 316.1 314.5 314.4 311.5 310.8 309.2 306.3 302.6 300.8 296.5 294.5 291.9 288.9 286.3 284 282.5 280.6 278.6 278.5 277.6 277.7 275.5 273.6 273.8 277.2 274.4 273.6 273.6 276 275.5 275.5 275.5 274.7 274.5 274 273.2 271.6 270.2 269 268.3 264.8 261.9 259.5 256 250 243.1 234.6 223.9 210.6 201 191.3 176.8 165.2 156.1 147.8 135.4 128.2 125.2 114.7 110.6 110.8 111.1 111.2 110.9 110.3 108.9 110 111.8 118.2 129.7 139.1 148.1 158.7 171.3 182.4 194.7 206.7 214.8 225.1 232.4 241 246.4 252.5 259.1 266.8 273 277.8 282.7
364.4 354.9 347.7 341.5 335.6 321.4 312.2 303.6 293.3 290.9 284.7 271.9 263.1 263 261.1 254.1 246.5 242.6 239.8 246.3 248.4 252.5 256.1 259.2 261.1 266.5 276.1 286.1 296.2 306.9 322.7 340.6 359 378.9 411.7 455.5 506.9 525.4 543.8 552.8 556.6 530.9 483 452.7 428.6 404.1 390.2 390.2 390.2 390.2 390.2 390.2 390.2 390.2 390.2 397.3 415.8 428.2 439.3 452.8 470 510.4 546 572.9 596.3 617.6 640 663.1 675 689.2 697.1 697.8 688.3 680.1 667 643.3 618.3 601.6 586.8 572.1 556.3 537.7 517.6 499.3 488 468.6 451 434 422.2 406.6 391.4 378.5 368.8 360.4 360.4 356.3 356.5 356.1 355.8 352.7 344.5 342.5 343.1 343.6 342.3 341.3 336.4 334.1 331.3 328.4 325.7 322.1 319.6 318.2 315.4 313.5 312.3 309.1 307.1 303.3 301 300 295.1 290.7 289.1 289.9 285.9 284.6 282.9 280.1 279.8 280.1 278.4 276.1 275.1 275.9 275.5 275.2 274.1 275.1 276.5 277.3 277.2 278 277.4 275.7 275.5 275.1 274.8 272.7 270.8 269 267.3 266.4 263.1 259.5 253.8 245.6 238.1 229 217.5 207.2 198.1 183.4 171.5 159.9 149.7 140.3 129.7 123.8 114.1 112.3 109.8 110.1 110.5 110.4 110 108.6 109.1 109.4 114.2 122.7 134.4 139.9 153 171.8 184.4 193.2 203.6 212.5 221.3 227.4 240.1 247.2 253.9 259.8 265.3 273.5 278.7 284.4
370.6 358.9 350.7 341.7 338.2 330.8 315.6 305.1 298.2 297.8 298.8 276 266.2 256.8 257.7 251.9 246.9 242.5 239.6 239.6 248.6 245.6 250.6 251.9 254.5 259.9 270.4 278.8 288.1 300.2 314 332.3 349.6 371.7 391.9 424.1 471.3 500.1 525.3 534.2 526.4 525.3 502.1 459.1 420.3 402.6 390.2 390.2 390.2 390.2 390.2 390.2 390.2 390.2 390.2 403.8 414.9 421.9 434.3 446.1 463.2 490.6 534.1 559.9 584.3 607.5 631.2 655.2 672.5 686.7 698.4 709.3 707.1 701.9 691.1 670.4 647 629.4 614.2 596 578 564.2 543.7 520.4 495.9 473.8 447.6 432 422.4 412 401.9 386.6 374.2 369.3 365.2 360 360 359 356.7 353.5 351.5 349.9 348.5 348.2 347.6 344.3 340.1 336.3 332 330.6 328.3 324.2 322.2 319.6 317.3 315.6 313.7 311.9 309.7 306.1 303.5 300.8 298 293.5 291.7 288 287.9 285.6 282.4 281.1 280.9 281.5 279.3 278.3 278.1 277.5 277.3 276.1 276.3 276.9 277.5 277.9 280.7 278.5 279.4 278.2 277 277 276.6 274.3 273.1 271.4 270.3 269 267.8 263.2 259.6 252.5 244.3 234 225.7 215.1 204 191 175.8 162.6 155.1 144.7 135.2 126.5 115.7 112.5 110.2 109.3 109.8 109.8 109.6 109.3 107.8 108.9 109.7 122.6 127 136.8 147.6 163.8 176 192.2 203.8 210.3 219.6 226.8 237.4 245.9 255.1 262 268.2 272.8 278.8 287.5
374.4 363.9 352.8 346.4 340.7 329.8 319.9 308.5 300 302.9 300.3 278.7 265.5 252.9 252.6 248.6 244.7 243.4 241.5 236.6 237.9 237.4 239.7 244.7 252.2 255.9 266.4 277.1 282.3 290.9 304.7 323.9 341.2 363.1 380.3 402.5 443 477.5 502.9 499.3 488.6 484.8 480.9 455.9 416 406.3 390.2 390.2 390.2 390.2 390.2 390.2 390.2 390.2 395.5 404.3 414.1 420.1 431.4 441.5 457.9 472.9 511.2 539.8 567.5 592.8 613.5 639 661.9 679.3 695.2 711.2 714.2 708.6 698.1 688.3 674.3 663.4 650.9 629.5 606.3 588.1 560.6 533.9 508.8 484.4 462 440.4 418.6 409.8 398.3 392.5 386.9 379.3 373.1 369.6 365.5 361.7 360.6 360.7 357.5 356.7 355.3 353.8 353 347.1 342.3 338.9 336.3 334.3 332.1 329.9 326.8 323.3 320.3 318.3 315.8 314 311.3 307 304.8 302.3 299.4 295.1 292.7 292.1 288.7 285.8 283.9 283.7 282.7 282.3 281.8 281.6 281.3 281.8 280.6 278.7 277.5 278.6 279.1 279.9 279.1 279.7 279.7 278.7 278.3 278.4 276.9 276.2 274.9 273.4 272.7 272.4 269.7 268.5 264.4 258.4 251.5 241.6 231.2 223.7 212.8 195.4 178.6 168.4 160.1 150.9 138.5 127.6 119.1 112 111.6 109.4 108.9 109.5 109.4 108.7 107.5 108.7 108.6 117 126.8 132.8 142 155.7 173.1 187.5 198 207.8 218.2 226.5 234.6 244.4 254.9 266.2 270.9 274.9 279.9 288.2
379.3 366.3 359.1 356 345.5 338.5 322.7 309.9 301.6 304.9 301.3 271.7 259.4 252.2 249 246 243.5 242.5 242.5 238.7 236 235.6 235.4 239.5 244 251.2 258.3 265.6 275.9 288.2 295.8 310.7 331 349 369 390.2 416.5 451 477.7 469.4 461.1 461.1 459.5 443.4 410.7 397.7 394.9 390.2 390.2 390.2 390.2 390.2 397.2 401.1 402.3 407.9 412.1 417.7 424.5 432.8 449.4 462 489.9 513.9 541.3 567 591.5 616.5 639.1 661 684.5 700.6 707.7 707 703.9 696 689.7 681.6 670 656.7 640 611.7 580.4 547.1 514.1 486.6 468.7 455.9 436.1 416.1 409.2 402 394.8 388.4 380 374.9 371.6 369.9 365.8 363.1 363.7 362 361.3 359.5 354.1 349.3 346.3 344.1 341 337.5 336.4 333.4 331.5 327.7 323.7 320.8 318.4 314.5 312.8 310.2 308 304.6 301.2 296.9 295.6 293.5 290.6 286.8 285.3 284.6 283.7 282.9 283.5 284.8 285.1 284.2 281.6 281.1 280.2 280.6 280.7 281.4 280.9 280.6 279.2 280.4 280 278.3 277 278.1 276.7 276.6 275.5 274.5 272.4 271.7 267.6 261.9 255.5 248 236.8 225.8 219.1 203.3 190 173.8 163.5 153.4 146.1 137.7 125.2 113.8 110.3 109 109.1 108.8 109 108.9 108.7 106.9 108.1 108 119.3 130.7 137.5 151.9 165.2 179 191.2 204.6 216.8 225.3 233.9 242.3 249.2 259.6 269.4 275.8 280.6 284.8
383.5 369.7 361.5 356.8 350.9 339.7 323.3 310.8 301.2 294.9 289.2 274.6 260.1 255 258.8 247.5 244.7 243.7 239.7 238.5 238.5 235.4 234.1 235.4 240.2 245.3 252.5 262 271.5 279.8 287.5 298 317.2 336.7 353.2 374.1 395.7 414.2 453.1 445.8 440.4 440 436.3 401.4 387.3 389.3 389.7 391.7 398.2 401.2 398.2 399.2 404.8 405.1 406.3 409.2 410.5 411.8 416.5 419.7 431.8 438.7 456.6 478.6 514.4 537.4 563.2 591.9 611.7 636.4 662.5 678.4 693.6 699 698.5 695.9 690.4 683.9 675.3 662.7 650.7 637.5 604 555.7 525 500.6 483.6 456.5 445.4 435.3 426 413.3 406.1 397.8 388.2 379.6 375.8 372.8 370.6 368.7 367.2 367.6 366.1 360.3 356.5 353.6 351 348 344.9 341.8 339.1 337.2 335.1 331.6 327.7 324.4 319.8 317 314.8 311.3 308.4 305.9 300.9 300 298.9 293.8 290.6 289.7 287.4 286.5 285.5 284.7 285.8 287.2 288.2 286.5 285.2 284 282 282.1 282.5 283 282.8 282.5 282 281.5 280.1 279.4 279.6 277.7 279.2 278.7 277.9 277 274.8 273.6 271.9 265.9 258.1 248.8 240.5 231 222.6 209.8 199.7 182.9 175.7 162.2 150 138.7 125.3 116.5 110.6 109.1 108.7 108.4 108.8 108.7 108.1 107.9 107 107.4 114.3 125.7 136.7 145.6 159.4 176.3 189.9 202.1 213.1 222.9 232.1 240.8 248.4 253.5 262.4 269.5 277.7 282.2
385.1 374.5 364.5 356.8 350.1 341.4 331.9 312 303.8 294.8 286.1 280.6 264.6 258.8 256.6 249.5 246.8 245.5 243.3 241.4 240.4 236.6 235.8 234.9 236.5 240.5 248 259.7 265.6 274.5 282.9 289.4 300.3 316.7 337.8 362.5 377.6 392.9 398.2 416.3 422.3 397.1 401.7 380.8 374.9 375.1 386 398.9 396.7 399.7 402.6 406 407.9 411.5 413.6 411 409.1 411.2 408.6 411.2 413.8 427.1 436.8 458.7 488.3 509.3 531.3 560 583.2 607.5 629 646 663.9 691.1 697.4 691.4 686.2 685.8 683.6 669.2 649.2 635.2 613.1 583.3 539.5 496 481.5 470 462.2 452.9 439.8 429.8 420.4 410.8 400.5 387.6 380.9 375.4 373.2 371.9 370.7 371 368 364.5 360.8 356.7 354 351.2 348.6 345.6 342.5 339.4 336.5 333.9 331 327.4 325.4 318.9 315.1 311 308.7 305.2 302.6 301.4 300.9 295.6 292.7 291.1 289.3 288.4 286.7 287 288 288.2 287.9 288.7 287.7 286 286.2 284.4 284.2 284.1 284.1 283.1 283.4 283 281.8 282.5 281 279.6 281 280.9 280.9 278.8 277.4 275.4 273.2 270.2 263.4 254.8 243.9 234.2 225.2 215.6 203.4 192.1 181.5 169.4 156.4 141.6 127.6 117.6 111 109 108.7 108 108.3 108.5 107.8 108.4 107.1 107.2 107.4 120.6 122.8 138.7 153.8 171.1 186.5 198.8 210.1 220.1 231.6 239.1 247.3 252.4 259.7 264.9 271.6 278
382.5 371.5 362.3 349.7 341.2 337 332.5 325.2 314.6 302.4 290.3 279.6 266.2 259 254.1 251.3 249.1 245.8 244.7 244.1 238.8 237.3 234.8 233.7 232.4 236.8 240.1 255.4 261.5 267.5 275.8 281.5 292.4 304.8 324.4 346.3 363.9 374.6 383.1 378.8 372.9 366.4 357 351.1 356.2 368.9 381.2 394.6 399.4 399 404.6 408.1 411 411.2 413.3 411.8 408.6 405.9 406.7 406.2 401.9 406.2 418.1 439.1 456.7 478.5 501.3 531.9 549.5 574.1 594 615.7 638.5 660 680.1 683.3 681.8 684.1 686.7 677.7 657.4 636.3 609.7 580.9 557.8 512.7 493.6 482.5 471.8 460.6 452.1 440.9 435.1 425.8 417.5 404.5 390.7 378.5 374.8 373.1 370.8 370.8 369.5 367.5 365.1 361.6 356.8 353.4 350.6 349.1 345.4 342.9 338.6 337 333.6 329.3 327 321.4 318.4 313.9 310.8 308.5 304.9 302.7 300.8 297.5 295.7 293.4 291.6 290.8 289.2 289.6 291.7 289.8 290.1 290.4 288.1 289 288.6 286.7 286.1 285.6 284.2 285.8 285 284.2 283.4 281.6 282.5 282.3 282.1 282.3 282.4 281.3 279.9 279 276.5 272.5 268.9 261.5 251.1 241.9 231.1 218.4 208.4 198.3 187.6 174.3 159.6 145.8 131.1 120.1 113.2 108.6 109.3 107.6 107.8 108.1 107.6 107.5 106.2 107 107.1 111.3 120.3 134.9 141.4 161.5 181.2 198.4 209.3 217.1 226.4 237.2 245.4 251.2 257.6 264 270.5 276.6
376.1 363.9 359.8 361.7 356.1 348.3 342.3 335.7 322.7 304.7 296.2 286.5 271.5 259.6 256.5 249.2 247.3 245.7 250.6 251 240.3 236.9 234.6 235.1 232.3 232.9 235.7 247.1 255.9 263.8 268.9 277.4 283.7 296.2 311.8 332.1 349.6 356.7 353.1 353.2 348 338.9 335.9 338.9 347.9 357.1 374.2 389.8 394.8 396.7 404.7 408.5 411.4 410.9 410.1 410.2 405.7 400.9 398.5 397.1 393.9 397.7 403.1 412.2 437.3 449 466.7 495.3 517.5 542.9 563.4 585.2 610.6 626.1 642.7 662.2 671.6 674.5 679.3 675.4 664.5 643.5 618.3 586.5 558 525 503 490 479.7 471.2 461.1 450.9 444.7 433.6 427 416.1 402 391.7 382.8 376.1 370.1 368.4 368.3 368 366.1 363.7 359.2 355.5 351.2 350.4 349.5 346.8 342.5 339.1 334.2 331.4 327.6 322.4 318.5 316.9 313 309.5 306 304.5 302.5 300.5 297.9 295.9 294.7 293 291.6 290.7 291.5 291.9 292.7 291.9 291 290.8 290.5 289.9 290 287.8 286.3 286.8 285.6 284.5 283.3 282.6 284.4 282.9 283.2 283.8 283.7 282.9 282 280.8 278.4 275.7 270.7 265.2 257.8 248.3 236.1 225.9 214.2 203.6 191.9 179.1 165.2 149.4 136.5 125.3 116.6 109.8 109.7 106.9 107.2 107.6 107.4 107.2 106.6 107.1 107 106.1 115 127.7 136.3 154.6 173.2 188.5 201.9 214.6 225.2 232.6 240 247.7 254 263.3 270.8 276.4
376.7 376.8 375.5 371.8 366.5 359.3 351.3 342 330.5 315.1 300.2 286 277.9 261.8 252.7 246.7 246.8 246.7 251.4 251.6 240.7 237.6 237.3 237 231.6 230.2 237.5 243 250 257.8 266.2 272.3 275.4 283.2 299.2 316.8 340.2 348.4 345.7 341.5 341.4 327.8 328.1 336.9 347 353.4 368.1 385 393 397.7 405 408.9 410.1 408.9 406.5 407.1 403.1 399.5 392.5 390.3 388.2 388.6 394.4 396.7 406.3 424.6 442.6 464.2 488.7 511.9 534.5 556.1 575.8 594.1 611.7 629.6 641.5 655.6 659.2 665.4 663 651.7 633.3 600.4 568.7 544.2 526.2 512.2 499.1 490.6 477.4 467.5 453.3 445.7 432.6 419.6 408.9 399.5 389.9 383.4 372 368 366.3 367 365 362.1 358.9 355.9 353.1 350.1 349.4 345.3 343.7 341.1 336.5 332.8 329.4 325.6 320.9 319.9 316.8 313.7 309.4 306.5 304.8 303.9 301.8 299 298.1 296.9 295.5 295.3 295.2 294.5 293.3 292.2 291.5 293 292.7 292.3 291.4 289.2 288.7 287.6 286.3 285 284.3 283.5 283.8 283.9 284 285.2 284.7 284.4 284.1 281.7 281.8 278.7 274.5 268.7 261.6 252.2 242.7 232.4 220.3 209 196.7 183.5 170.3 159.6 146.6 132.7 120.9 112 108.3 107.2 107.8 106.9 107.1 106.3 105.7 107 106.6 105.7 106.2 118.6 130.7 145.1 166.2 183 200.2 211.4 221.4 229.5 235.8 244 250.5 258.6 267.7 273.5
390.8 392.4 393.3 392 381.4 370.1 360.3 354.1 343.4 328.9 306.3 291.6 277.6 264 255.1 247.1 244.2 246.2 251.8 246.7 243.3 239.5 237.4 236.7 232.5 230.1 235.1 240.3 244.6 252.7 258.1 266 266.4 275.3 286 300 320 336.1 331.3 331.3 327 323.4 324.8 333.5 348.2 354.2 367.3 378.2 388.5 394.7 399.9 400 402.8 404.9 405.5 404.6 402.4 398.4 395.7 387.9 382 382.4 385.1 388.4 393.3 412.5 418.4 437.8 458.9 480.6 505.9 524.4 544.7 566.8 581.3 594.9 613.3 634.6 643.2 648 655.7 651.6 642.7 619.3 597.2 575.7 558.8 543.1 526.9 512.2 498.4 480.3 465.9 453.5 441.8 426.7 417.8 406.3 398.4 392.4 379.5 369.4 365.5 364 363.1 361.5 357.6 356.3 352.9 351 347.8 345.4 343.5 340.2 336.2 332.7 329.7 326 323.2 320.9 318.2 315.5 313.7 309.9 308.6 306.5 305.1 303 302.1 300.8 299.7 298.5 297.4 296.3 294.6 292.6 292.6 294.3 294.4 293.4 292.9 291.3 289.8 288.5 287.2 286.7 286 285.8 284.9 285.8 286.2 286.9 287 286.5 285.9 285.4 283.9 280.2 277.8 273 265.9 257.5 248 238 226.6 215.4 202.5 189.7 177.2 167.1 151.1 137.9 126.2 116.9 111.9 108.5 108.4 107.3 106.2 105.9 106 106.2 105.7 105.8 106 110.8 124.6 135.8 157.5 174.3 192.1 208.1 219.3 227.1 233.7 240.5 248 254.5 264.5 271.2
409.8 418.2 430 419.4 405.8 391.8 380.7 367.7 360.9 343.6 317.8 298.3 278.5 265.6 255.6 246.4 243.4 242.2 244.2 244.8 239.2 238.7 236.4 238.8 232.1 226.9 233.1 236.8 239.8 249.7 254 258 260.3 265.9 277.2 289.8 301.6 311.7 316.8 323.9 320.6 325.6 327.9 333.1 342.3 353.5 361.6 377.7 382.8 390.5 393.7 395.3 399.1 400.2 402.8 401.4 400.3 397.5 392.3 388 379.7 374.7 374.4 381.4 382.9 392.3 400.5 418 432.6 451.8 474.9 493.3 516.8 535.5 546.9 565.2 585.4 606.2 622 630.1 639.9 640.2 634.3 626.1 616.1 599.4 575.7 552.2 542.5 526.7 504.1 489.7 474 460.4 445.2 429.8 422.8 412.7 403.5 397.6 387.4 376.3 367.7 363.3 360.3 356.9 355.8 355.5 354.7 351 348.9 344.7 344.2 341.1 336.3 334.6 330.5 327.9 325.2 322.9 321.3 319.2 316.4 314.6 311.9 309.8 308.8 307.9 306.1 305.3 304.7 302.6 301.1 299.1 295.9 295.5 294.6 295.3 295.7 294.7 293.8 293.4 291.8 290.7 289.5 288.2 287.5 287.7 287 286.2 287.1 288.2 288.1 287.9 287.3 287 285.9 283.7 281.1 275.8 269.3 260.2 251.4 242 232.5 220.8 208.7 196.2 183.8 171.1 157.9 146.6 134.6 125.3 116.5 110.9 107.8 105.5 105.4 105.9 105.9 105.7 106.1 105.8 105.2 106.7 116.8 131.8 143.9 162.1 178.9 194.3 208.5 220.6 228.8 236.7 246.9 251.9 258.1 267.8
447.5 456.3 463.7 450.3 435.1 419.9 406.3 394.6 381.7 368.8 342.6 314.3 288.8 269 258.4 250.7 242.5 241.7 239.3 237.5 237.2 237.2 236.5 233.8 231.9 228.1 228.6 234.7 238 244.5 248.3 251.6 255 257.3 267.6 276.7 288.3 295.2 300.7 308.6 320.3 329.7 332.3 333.5 340 350.7 360.6 372 374.2 383.7 385.2 386.5 388.6 394 395.4 397.4 395.8 392.9 388.9 384.3 379.1 374.6 373.1 374.1 377.4 381.9 386.9 399 412.3 427.5 442 465.4 489 505.9 518.2 535.4 556.6 576.5 594.5 608 614.7 623.5 623.2 616.5 614.4 602.5 578.5 565.1 549.5 529.5 510.6 495.3 476.3 465.9 452.6 432.3 426.2 416.1 406.4 400.8 387 376.6 368.8 362.5 359.7 356.5 353.1 353.1 351.1 350 347.8 344.8 343.3 340.9 337.1 335.8 331.5 329.6 328.4 325.6 322.9 321.7 318.9 317.1 315.1 314.3 312.9 311.5 310.1 309.2 307.5 306.7 304.9 301.9 299.5 299.1 297.9 297 297.5 297 294.9 294.6 293.1 290.9 291.9 291.2 290.2 289.6 289.1 287 287.1 288.8 288.3 288.8 287 289.1 288.8 286.5 283.8 280.2 274.4 265.5 256.9 246.2 235.3 223.2 211.8 201.1 189.8 176.6 161.6 151.9 137.7 133.1 121.2 111.7 108.1 104.9 104.6 105 105.3 105.2 105.7 105.5 105.7 105.4 113.4 125 135.3 151.7 169.3 185.2 198.9 211.9 220 231.9 242 248.2 253.3 259.3
477.2 496.9 504.7 486.6 468 456.3 433.1 423.9 411.2 395.9 380.8 355.8 314.6 279.5 260.1 248.3 241.6 242.9 239 236.4 236.4 235.6 235.3 232.6 231.5 227 223.8 232.3 235.3 239.7 244.4 246.7 251.5 252.6 259.2 269.6 276.6 289.8 291.4 301.6 315.6 326.9 334.3 336.2 343.1 348.3 351.5 363.7 368.3 374.8 379.8 383.5 386.9 391 392.9 391.8 388.2 386.2 384.7 381.9 378.6 376.9 372.7 373.5 373.8 379.2 380.4 389 396.8 412 424.8 442.1 456.9 474.7 486.3 508.5 527.7 548.5 566.8 581.1 589.8 604.3 607.3 607.7 603.4 600.5 584.4 573.1 550.9 531.4 515.8 494.8 478.8 464.3 452.9 437.2 427.1 417.5 405.9 399.6 384.7 375.7 366.5 360.3 358.7 355.9 353.1 348.8 348.4 347.9 346.4 344.4 342.1 340 337 336.7 334.2 331 329.4 328.3 326 323.8 321.2 320 318.7 317.4 316.3 314.6 313.2 311.9 310.4 308.7 306.9 304.7 303.5 303 300.1 299.7 299.6 297.7 297.1 296.1 295 293.6 294 293.8 293.1 291.2 291.7 290.8 289.1 290.7 290.6 289.7 290.5 290.6 290.1 289.3 287.7 284.6 279 271.5 261.4 251.1 240.2 227.4 216 204 192.5 180.8 168.7 159.1 149 142.6 126.2 117.1 110.7 106.9 104.9 105 105 104.5 105.1 105.2 105.5 104.4 110 115.4 123.2 142.1 159.8 173.9 190.2 201.3 215.2 222.8 233 241.8 248.9 254.4
514.2 532.2 533.1 521.2 500.8 477.3 462.8 451.2 444.5 420 403 365.6 331.9 304.7 265.6 247.9 243.1 242.8 239.2 236.2 236.7 235.4 233.5 232.8 229.7 228.1 225.9 225 229.1 236.3 240.6 243.9 247.7 246.9 255 265.4 269.7 280.6 285.8 295.1 309.3 325.3 331.7 339 340.1 343.9 353 359.1 364 373.4 374.5 380.7 384.1 386.8 392 389.5 387.4 382.3 383.2 379.7 377.3 374.2 372.7 372.5 373.7 371.7 378.8 382.8 393.6 405.7 413.2 424 434.8 448.6 463.9 482.4 498.9 521.2 539.3 553.8 568.7 583.4 587.4 591.2 593.5 591.9 581.3 567.8 550.2 524.7 513.2 495.9 480.4 463.6 447.5 436.4 426.2 416.8 402.6 392.4 384.1 373.7 365.7 358.3 357.2 353.2 350.8 348.1 344.9 345.6 343.6 343.1 340.8 338.9 337.5 335.9 334.6 332.8 330.9 329.2 327.4 325.9 323.8 322.4 320.9 319.3 317.7 316.9 315.6 314.3 313 311.2 308.8 306.3 305 305.3 302.5 301.7 301.4 301.2 299.3 298.3 297.8 297 297.2 296.9 294.7 295.1 294.7 292.9 293.1 292.8 292.1 292.2 292.7 292.1 291.7 290.4 290.7 288.1 283.4 275.1 265.4 254.3 245.8 234.2 221.3 208.6 196.4 184.2 175.8 164.3 154.6 143.4 133.9 124.6 113.8 108.9 104.1 105.1 105.1 104.3 105.1 105.2 105.1 104.9 107 112 118.5 131.6 147.8 164.4 180.9 195.6 208.8 216.1 225.3 233.2 241.2 249.5
552.4 552.6 541 529.5 516.7 503.7 487 472.3 457.9 438.1 412.7 378.4 334 319.8 281.1 257.3 248.7 243.3 241.8 240.6 236.7 235.2 234.2 231.7 229.5 228.9 225.5 222.8 223.5 231.9 239.8 241.6 243.8 244.3 249.8 260.1 265.5 273 282.2 290.3 306.9 321.1 333.5 328 331.1 338.3 345.7 356.2 362.7 370.4 372.2 377.9 383.9 385 384.4 386.4 383.9 380.2 378.6 378.6 378.3 375.9 372.8 372.4 371 368 372.7 381.6 388.2 397.3 404 411.3 417.7 430.5 442.4 456 471.9 491.4 514.6 534.3 546.4 557.7 569.9 577.7 579.2 576.6 568.4 559.7 544.1 526.4 511.1 496.2 481.5 464 447.1 434.7 425.8 416 403.2 386.5 380.8 372.3 366.2 359.6 356.4 351.9 348.1 344.2 342.6 341.9 342.6 342 341.5 338.9 336.9 335.1 333.3 332.3 329.1 328.4 328.5 327.5 326.6 324.9 323.5 321.9 319.9 318.3 317.7 316.7 315.5 312.8 310.8 308.5 307.3 306.8 305.3 304.4 303.8 303.7 302.2 302.7 302 301.4 301.5 300.6 298.7 298.9 298.2 296.3 295.6 296 295.1 294.3 294.4 294 294.3 293.3 292.3 291 287 279.3 269.1 258.9 248.2 238.6 226.4 214.3 202 191.5 179.1 166.4 156.5 146.1 137.4 130.9 120.3 111.1 108.1 104 104.7 105.1 104.4 104.4 105.2 104.9 105.3 110.8 118.6 124.6 140.2 157.8 173.4 188.2 200.9 211.7 219.3 225.9 233.5 243.1
560 554.1 549 540.4 531.1 523.5 509.5 489.5 470.3 443.9 414.2 378.4 333.5 307.8 279.8 264.3 257.1 250.7 247.7 249.3 244.1 241 237.5 233.1 228.9 228.1 226.9 222.1 219.7 228 237.6 241.2 241.6 240.6 245 254.2 258.3 265.2 277 287.7 291.6 308.5 319.8 325.8 328 332.5 338.9 351.9 357.2 359.9 364.4 371.6 377 381.7 382.9 383.5 380.6 378.7 378.3 380.9 377.9 376.5 370.8 370.1 367.2 365.9 368 376.5 382.7 389.8 394.9 398.2 405 413.6 424.9 438.1 454.7 468.8 487 508.3 521.2 531.6 549.6 555.6 557.3 559.7 555.2 548.2 537.5 524.1 509.2 497.1 478.8 461.6 448.5 432.9 422.1 413.8 404.5 385.9 381 373.4 364.3 357.9 356.8 348 346 342.1 341.9 339 339.4 339.6 339.5 338.3 336.3 335.7 333.9 332.1 331.1 329.3 327.8 327.3 327.6 326.5 326.7 325 323.7 321.6 319.1 318 317.4 315.9 313.5 312.2 311.2 310.1 308.2 307.8 307.2 307.9 305.3 305.4 304.2 303.6 303.4 302.9 300.9 300.9 300.4 298.9 298 298.8 298.2 297.3 295.7 296.4 297.5 297.7 296.1 293.5 289.6 282.6 274 264.8 253.8 243.1 231.6 221.3 208.9 195.7 182 171 158.5 148.3 138.7 131.1 124.3 117.3 111.7 105.7 104.4 104.4 104.4 103.4 104.9 104.6 104.2 105.7 112.6 123.9 136.3 151.2 167.3 182.9 194.3 204 215.2 221.2 231.4 240.7
580.1 569.6 560.5 551.5 539.7 532.5 520.8 505 489.6 465.9 428.9 383.5 348.3 312.1 288.2 269.2 264.4 256.2 255.9 257.2 249.8 245.6 244.1 234.7 229.5 227.7 225.6 223.9 220.3 223 231.9 237.5 239.8 236.6 241.8 245.3 257.2 263 267.3 278.1 282.5 296.4 302 309.1 315.9 323.8 336.3 345.5 356.2 355.1 360.7 367.2 376.1 381.1 380.5 380.2 379.7 379 377.7 377.3 376.6 377.6 372.2 366.1 366.1 362.2 364.8 368.9 374.6 380.1 385.3 388.4 394.8 403.2 411.5 423.5 436.3 452.1 467.6 480.5 492.9 508.2 523.3 535.1 539.2 540.3 539.5 534.7 525.3 517.5 503.7 494.8 478.3 461.4 446.9 431.1 418.8 410.6 399.2 387.3 381.1 375.1 361.5 352.8 350.3 343.1 340.9 339.7 338.4 334.9 334 334.5 336.6 337.3 336 335.1 333.4 332.5 331.2 329.9 328.5 326.7 326.6 326.3 326.3 326.6 327.4 327 324.8 321 319.3 318.7 317.3 316.4 314.9 313.4 311.9 311.4 310.4 310.3 309.3 307.8 306.8 305 304.8 304.5 303.2 302.5 302.3 301.6 300.8 301.6 301 299.6 298.6 299.6 299.7 300.8 299.7 297.3 292.5 285.7 280.1 271.2 260.9 249.3 237.3 227.4 214.8 202.5 187.9 172.8 161.7 154.2 144 135.2 130.4 121.8 114.8 108.4 104 103.2 103.5 104.1 105 104.8 104 104.3 110.1 117 132.5 145.5 161.3 177 189 197.6 208.6 219.7 228.6 236.1
595.4 586.6 569 556.2 544 532.5 521.3 509.3 499.8 486.3 451.8 404.4 371.9 340.2 301.5 280.8 269.2 266.3 265.3 261.4 251.5 251.8 245 239.1 230.8 229.3 225.8 222.6 220 218.8 229.7 232.6 236.3 235 236.6 245.3 252.1 261.2 260 264.5 271.4 277.1 283.2 290 297.3 311.9 327.5 337.8 343.8 349.1 357.8 364.6 371 377.9 379.3 380.4 381.3 378.7 378.9 379 375.2 372.2 366.4 361.3 357.3 355.7 356.9 360.8 362.9 367.1 373.4 377.7 383.4 390.7 399.5 410.1 420.7 433.2 450.9 460.4 468.9 489.4 500.9 512 519.6 524.7 521.2 518.2 511.9 505.8 496 486.9 475.9 458.4 443.6 429.7 416.2 406.3 397.3 389.4 380.3 371.9 360.8 350 344 340.8 337.7 336.4 333.8 331.5 330.7 330.6 331.5 334.2 334.8 334.1 332.7 330.9 329.6 328.7 327.3 326.5 326.7 325.5 326 327.4 328.3 329.5 327.6 324.8 321.7 320.2 319.2 318.7 318.2 317.1 316 314.7 313.3 312.3 312.1 310.4 309 308 307.1 307.2 306.8 305.7 304.6 303.4 302.7 303.7 303.5 302.8 303 303.1 303.6 303.4 304.1 301.2 296.3 289.9 282.9 276.4 267.9 256.3 244.3 232 218.2 206 192.2 178.7 168.3 158.6 149 141.6 133.4 124.9 118.8 111.5 103.7 102.9 104.6 104.8 104.2 104.7 103.5 104.6 109.5 112.2 128.7 138.2 155.3 172.5 183.7 193.5 205.3 215.1 224.4 232.2
606.1 586.1 569.8 553 536.8 529.1 509.8 499.6 493.1 488 465.8 425.5 394.8 345.6 323.4 295.4 280 271.7 275.2 267.6 258.2 253.5 245.8 238 234.4 232.4 226.7 223.1 220.3 218.4 226.2 229.7 231.5 229.1 235.3 240.5 243.3 253.4 256.3 249.4 259.6 261.4 267.3 274.3 284.8 303.6 320.7 332 338.6 340.4 344.9 354.2 363.3 372.3 377.6 380.2 382.5 381.6 378.7 381.1 377.8 370.8 361.4 353.2 349.9 343.8 342.8 347.3 351.2 354.3 361.2 365.4 372.8 378.4 386.7 397.3 407.8 417 428.6 439.5 453.6 468.8 481.9 490 498.8 504 505.3 504.5 500.5 493.7 484.8 477.5 466.4 455.1 443.3 428.5 414.6 405 396.5 390.5 383.5 370 360.6 350.6 342.5 337.8 333.2 332.6 330.4 327.4 328.5 327.7 328.1 329.2 330 330.9 330.8 329.8 329 328.4 327.7 327.3 327.2 326.1 327.4 326.3 326.9 328.5 326.8 325.5 324.1 321.7 320.4 320.4 319.5 318.8 317.6 316.7 316.3 315.5 313.7 313.4 311.4 311.2 310 309.9 308.6 307.3 306.8 305.7 305.3 305.7 306.4 306.6 307.3 307.5 307.3 307.3 307.7 304.5 300.5 293.4 286.3 279.5 272.3 262.5 251 237.2 222.8 210.4 196.3 183.8 170.9 162.4 153.9 144.6 135.9 129.1 122.3 113.4 109.2 106.1 103.9 103.7 103.8 103.8 103.6 104.2 103.9 111.7 123.2 134.4 151.5 168.3 178.9 189.6 200.9 208.5 219.6 228.2
603.7 576.8 562 534 520.6 516.2 503.2 489.8 479.2 473.3 449.8 425 413.5 375.8 343.6 305.3 293.5 285.5 281.9 279.8 269.1 264 255.2 245.1 239.6 234.9 228.1 224.2 220.6 216.3 225.6 228 229 227 231.1 238.5 239.9 239.5 244.5 241.5 243.5 251.4 251.2 259.2 275 288.1 307 323.4 332.6 332.8 338.6 344 356.4 368.5 375.8 381.2 384.4 383.3 378.8 379.1 379.5 373.1 362 344.1 337.4 333.3 330.3 333.3 335.5 339.4 341.9 351 357.6 366.4 373.1 384.2 395.3 407 416.5 424.9 437.7 452.5 460.3 469.6 476.9 483.2 487.1 485.8 483.4 481.9 476.1 466.9 457.8 448.3 438.7 426.3 413.9 405.2 398.3 390.4 382.2 369.6 358.5 349.3 341.8 336.8 331.4 328.4 326.8 325.1 324.9 323.2 324.1 325.2 326.3 327.8 329 328.3 328.1 327.6 327.4 327 326.4 326.8 326.9 326.4 327.4 327.6 326.1 325.8 324.3 323.7 321.5 321.4 321.2 320.4 320.2 320.3 318.8 317.7 315.8 314.2 313 313.8 313.3 312.1 311.1 308 307.9 307.1 307.4 307.6 308.4 308.6 310 309.6 310.2 311.3 310.7 308.3 304.6 297.8 289.9 284.9 277.3 267.3 256.4 243.6 231.7 217.8 201.5 189.6 174.5 163.8 155.2 145 139.7 130.5 124.3 115.1 110.3 106.3 103 104 103.8 103.7 104.1 103.8 103 110.1 119.9 129.2 145.6 163.3 176.2 184.6 195.8 205.1 214.1 222.8
593.1 571 549.3 522.8 505.9 498 488.3 480.8 464.2 455.3 439.4 423.5 407.3 387.1 360.3 318.4 303.7 296.4 292.3 286.5 279.4 270.2 258.9 249.2 245.2 235.9 230.4 225.6 219.9 214 223.7 226.4 222.6 224.8 229.4 237.3 237.4 235.3 235.5 236.9 233.5 238.1 241.6 249.5 261.6 276.3 292.4 314.7 325.7 328.4 335.9 339.6 346.7 362 372.8 379.1 383 383.5 381.5 378.8 379.9 373.1 362.6 339 325.3 321.6 311.7 316.5 323.4 327.9 328.7 334.8 343.1 353.3 361.2 371.6 380.7 391.7 402.5 413.9 424.4 432.9 441.6 447.7 453.7 459.4 463.8 468.7 467.7 466.7 462.4 458 451 441.8 432.3 422.3 411.6 403.5 395.7 388 381.2 370.7 358 347.1 340.2 333.9 330.3 327.9 324.5 320.7 319.9 319.6 321.3 321.6 322.1 323.3 325.3 326.9 329.6 327.3 327.1 326.4 326.4 326.3 325.5 326.2 326.7 326.1 326.9 325.6 325.3 323.8 322.7 322.1 321.7 319.5 319.2 320.4 320.3 320.2 318.8 316.1 314.8 314.8 314.5 313.9 312.2 310.1 309.1 308.6 308.5 309 309.8 310.4 311 313.9 315.6 315 315.2 313.2 309.2 300.9 295.6 287.5 278.9 270.1 262.6 252.5 240.2 223.7 208.6 194.4 180.7 168.6 156.1 150.7 144.5 133.4 126.1 119.7 112.5 106.7 105.4 102.6 104.1 104 104 104.1 103.5 104.7 112.4 125.8 143.7 159.9 171.1 183.5 194 201.6 210 218.6
587.5 553.9 542.2 518.7 499.1 489.4 478.3 457.9 443.4 435.8 429.6 417.8 400 378.3 357 335.8 313.5 301.3 299.2 286 274.6 267.1 260 250.6 243.9 240.9 230.8 223.7 220.1 214.6 219.6 222.6 219.2 214 222.3 232.8 231.5 232.4 231.8 235.7 228.7 239 241.4 243.4 252 263.5 285.3 301.3 309.9 318.6 326.8 330.6 342.8 356.5 370.5 379.9 381.3 383.1 383.1 379.4 374.3 373.1 363.3 336.5 318.6 309 302.9 306.5 313.9 313.7 312.9 320.4 325.5 337.2 350 360.5 366.6 375.3 386 399.5 407.2 413.8 420.4 428 431.6 436.8 442.2 448.4 453 453.6 449.1 446.2 441.5 435.8 426.6 417.2 408 402.3 392.4 386.1 383.9 378.3 360.4 344.4 337.5 331.3 328.5 326.4 323.6 320.5 318.5 316.8 318.8 319.2 319.7 320.7 322.4 324.2 326.6 327 326.2 325.4 326.3 326.1 326.2 325.8 325.8 326.5 326 327 327.3 326.4 323.3 322.1 321.7 319.1 320.1 320.1 320.6 320.1 319.6 317.7 315.4 314.1 312.6 312.9 311.3 309.5 309 308.7 308.7 310.5 311.8 313.6 314.7 317.8 320.5 321.4 319.4 317.6 312.5 306.7 300.3 291.6 282.1 273.6 265.1 256.7 245.5 228.4 216.2 199.2 185.8 171.4 161.4 154.6 145.7 136.3 128.2 121.6 115.2 111.6 105.1 103.6 103.2 103.5 103.9 104 103.9 103.2 112.1 119.5 138.4 155.5 167.4 177.7 187.1 198.1 206.3 214.4
567.3 544.1 529.2 507.6 494.9 486.4 469 452.2 437.1 421.2 417.6 409.5 394.2 376.7 355.2 335.2 321.5 307.3 298 288.3 280.1 273.1 265.5 262.1 251.9 244.5 234.7 226 219.9 214.2 217.3 215.7 214.2 213.5 216.1 221.4 224.6 228.2 224.6 228.2 223.5 238.7 244.6 239.4 242.9 252.4 273.1 282.1 295.6 304.5 309.8 318.3 333.6 348.1 365.5 376.8 381.8 383.7 383.7 378.8 372.3 368 346.4 326 306.2 298.6 296.3 296.4 296.9 297.7 300.7 305.6 313.3 323.2 335.8 344.4 354.6 360.6 369.6 382.2 389 395 400.5 404.3 412 418.7 425.9 430.9 434.7 437.3 436.7 434.2 430.9 429.1 423.9 413.8 404.3 397.6 389.9 384.1 377.2 378.1 359.3 342.4 335.8 330.8 326.4 322.3 322 319.5 315.9 314 315.2 316.2 317.9 318.6 319.9 321.5 324 325.2 325.6 325.8 325.4 325.2 325.3 324.8 325 324.9 324.9 326.8 328.4 326.9 324.6 322.3 320.1 320.3 318.9 318.7 318.2 319.1 319.8 317.3 315.6 312.6 311.2 310.5 308.9 308.7 308.4 309 309.9 310.7 312.7 314.6 316.9 320.8 324.9 325.1 324.2 320.5 317 310.9 304.1 295.3 287.2 277.7 267.6 256.7 243.7 232.8 217.9 205.9 190.1 175.4 167.3 158.1 149.9 141.6 130.4 122.7 115.2 111 105.1 103.8 103.2 104 104 103.9 103.8 102.9 110.9 119.6 134.3 146.9 161.8 176.4 185.1 194.4 204.3 211.4
555.5 542.9 529.9 510.3 491.5 481.2 471.6 453.3 433 423.6 405.9 403.5 391.6 378.6 354.1 330.6 320.6 311.7 308.7 296.9 289.1 283.7 276.6 268.8 258.6 250.5 238.3 229.3 220.8 216.6 211.8 211.1 210.3 208.6 209.6 213 217 220.5 219.5 221.6 219.6 234.2 246.2 239.2 232.5 246.9 260.5 265.3 277.1 291.5 297.3 309.6 323.2 335.4 350 365.2 381.2 387 387 380.1 371.4 352.8 329.1 309.7 297.8 288.3 284.6 287.6 285.6 287 289.5 294.4 301.9 312.5 326.7 335.4 344.9 351.1 355.5 364.3 374.1 378.6 385.1 385.5 390.1 399.8 411.2 416.4 422.1 426.1 425.6 423.4 421.2 420.9 417.1 411.1 403.6 391.5 385.8 375 369 368.8 357.1 339.9 330.9 329.2 325 320.1 318.5 316 314.2 312.6 314.4 314.4 315.4 317.1 318.1 319.8 321.3 323.3 324.6 325.2 325.2 325.8 326.1 326 324.5 322 323.6 323.5 324.5 326.2 322.2 320.2 320 318.3 315.6 315.6 316.1 315.8 316.3 314 312.1 311 309.6 308.8 307.9 307.4 307.5 308.5 309.6 311.3 312.8 315.2 317.8 321.1 325.9 327.3 326.9 324.9 319.8 314.2 307.2 298.9 290.7 281.1 270 258.7 242.2 229.7 221.9 207.7 194.5 183.1 171.7 162.6 154.1 145.9 135.2 125.7 119.4 111.2 106.4 104.4 103.7 101.5 102.8 103.6 103.3 103.1 107 116.6 128.9 142.5 156.7 170.7 180.9 190.4 196.8 205
543.8 530.8 525.2 514.4 495.1 476.1 467.9 458.1 435.1 423.4 405.6 393.6 378.5 371.9 359.2 349.6 337.5 330.3 323.2 313.1 304.7 295 286.1 277.2 269.6 258 254.7 238 221.4 217.2 213 208 206.1 206.9 206.4 207.9 208.9 212.8 214.1 217.8 217.5 226.3 236.5 231.3 229.9 235.5 247.4 256 266.1 276.7 286.9 300.4 311.2 326.8 340.9 358 377.3 388.9 391.4 386.3 360.1 337 318.7 300.1 290.2 283 280.3 276.4 275.3 277.9 280.4 285.8 289.5 305.1 319.3 325 336.3 344.5 348.4 353.1 360.4 364.9 369.6 371.1 374.4 381.6 390.2 400.8 406.5 409 411.3 412.9 411 411.9 411.8 406.6 400 388.8 380.5 372.3 359.4 357.6 351.2 338.8 329.4 328.7 323.9 319.8 314.6 312.6 311.7 309.9 312 311.7 313.3 314.6 316.8 319.2 319.8 322.1 324.6 324.9 324.1 324.9 324.8 324.8 323.2 322.6 321 321 321.6 321.2 319.6 317.6 317 316 313.7 312.5 311.9 312 310.6 310.1 308.6 307.6 308.1 308 307 306.5 306.1 307.3 308.5 310 312.6 314.1 318.8 322.1 324.8 327.8 328.7 327.1 322.7 316.2 310.7 303.1 293.4 284.2 274.6 263.3 248.6 233.2 220.9 210.8 199.2 188 177.3 167 157.3 149.9 140.3 129 121.7 113 110.5 105.2 104.6 104 103.2 103.6 103.3 102.2 105.5 114.7 127.7 137.6 152.9 165.6 174.4 183.7 193.5 201.4
537.8 523.9 512.1 507.7 494.4 487.7 465.8 456.7 443 428.1 418.3 399.6 386.8 382.1 374.6 366.1 354.3 349 340.5 328 318.4 304.5 295.8 282 269.9 260.3 257.5 238.9 225.3 218.7 211.9 208.7 206.5 204.6 205.5 208.6 205.9 206.1 207.8 212.7 214.8 219.6 225.1 226.6 227.8 229.6 236.2 245.4 257.6 266.5 276.6 291.3 303.5 318.8 334.3 352.4 375.3 389.1 397.1 392 360.8 333.7 311.1 292.7 286.5 278.9 276.2 275.4 270.8 273 273.8 279.3 288.4 302.8 306.6 319.1 329 336.4 341.8 345.5 351.4 356.7 358.1 362.1 365.2 371.5 377.4 385.3 391.5 393.1 396.5 396.7 401.4 403.1 404.7 400.2 393.4 387.9 377.4 364.3 353.3 350.5 342.4 337.5 327.2 326.3 321.8 316.3 312.6 307.1 306.9 308.8 308.6 308.6 311.4 313.2 314.2 316.5 318.2 319.7 322.8 323.5 323.9 323.4 323.4 323.1 321.4 320.4 319.7 318.4 318.6 318.5 316.6 314.8 313.2 312 310.4 309.3 308.5 308.1 307 306.9 305.3 304.7 305 307.6 306.1 305 304.3 305.4 307 308.8 310.5 314.2 319.2 321.4 323.4 325.7 328.3 328.7 324.2 317.8 311.7 305.2 297.7 287.4 277.9 267.1 255.5 243.3 230.1 212.8 201.7 192.6 183.7 172.2 163.5 155.1 145.2 133.2 125.5 116.9 110.5 108.1 104.1 103.9 104 101.8 103.1 102.4 105.4 112.1 122.9 136.3 146.1 161.5 170.1 178.4 189.3 196.8
536.6 523.2 512.8 504 488.4 479.6 474.5 468.8 459.8 434.6 430.7 423.4 403.5 395.1 388.9 384.2 376.2 361.4 355.4 354.4 337.7 316.7 305.2 290.8 280.2 268.7 254.9 241 229.3 218.7 211.1 208.9 207.2 205.3 203.7 208.7 204.3 204.9 206.5 209.3 210.4 211.6 216.9 219.3 218.1 226.6 231.6 237.8 249.1 254.3 269.2 282.4 295.6 310.4 324.9 348.9 374.9 394 404.2 404.7 370.8 332.7 305 290.9 283.3 277.5 273.1 270 266.9 270.4 270.5 277.1 284.5 293.2 298 309.2 319.4 327.8 335 339.7 345.8 349.7 349.8 351.9 359.7 360.4 365.3 371.7 377.3 380 384.7 387.1 390.5 393.1 394.9 394.6 384.4 375.5 367.5 359 351.5 345.7 337.4 336.6 328.3 323.4 318 312.9 308.5 302.8 304.1 303.5 306 306.2 308.6 310.6 312.7 314.1 314.7 316.3 319.1 320.4 320.3 320.5 319.5 319.9 319.2 318.2 317.9 316.5 314.2 314.5 313.2 312.6 311.4 308.8 307 306.5 306.1 305.1 303.9 303 302.2 301.6 302.4 304.3 303.4 303.2 302.8 303.8 305.8 307.4 309 311.8 315.1 317.1 318.7 321.3 325.3 327.9 324.6 319.1 313.6 307.5 299.8 291.2 280.6 270.2 259.5 248.8 239 224.3 207 194.3 187.5 178.1 167.8 158.2 148 137.9 127 118.5 111.4 108.1 104.1 103 102.9 103.2 102.6 102.6 103.8 108.3 118.2 126.7 139.5 156.1 165.9 173.5 183.2 192.8
537.1 520.6 510.5 510.6 495.6 484.8 478.2 468.9 461.1 448.2 449.5 437.1 424.1 414 401.5 393.2 386.2 374.3 360.8 358.3 351.1 330.2 315.8 304.4 287.5 271.4 257.9 247.8 233.1 222 215.3 209.9 206.2 207.5 203.4 204.9 204.3 204.9 207.9 207 206.3 207 209.5 214.1 213.4 218.5 223.6 229.6 236.9 244.8 260.2 273 287.2 302.1 318.2 342.7 373.4 396.8 400.2 407.5 386.5 334.1 301.6 283.8 280.4 276 270.7 270.6 267 263.5 264.7 275.5 281.5 283.7 291.2 299.9 312 320.8 328.6 332.2 336.5 339.8 343.1 345.2 349.2 350.5 351.7 358.4 366.2 369.7 373.2 377.6 381.3 384.2 383.4 382.3 378.2 368 358.6 353.1 344 337.4 330 328.2 325 317.5 311.3 308.3 301.5 300.9 301.5 301 301.2 302.6 305.8 307.8 310.7 311.6 310.9 311.1 313.9 316.3 316.2 316 317.4 317.3 317.3 317 315.1 315 314.6 311.9 310.6 309.3 308.9 306.9 304.9 304.3 303.8 302.6 301.4 298.8 298.8 298.7 299.7 300.4 300.3 300.2 300.4 302.8 305.2 306.2 306.6 308.5 309.9 311.8 314.9 317.8 321.3 323.8 322 318.1 313.7 307.4 300.8 293.1 283.6 273.7 264.6 253.2 240.7 229.9 211.3 199.1 186.9 180.1 176.4 164.1 151.6 142.1 129.9 120.6 113.9 110.1 105.9 104.1 103.4 101.5 103.1 104.2 104.4 107.2 116.1 127 136.5 150.8 161.4 172.4 179.1 186.6
535.1 528.4 512.3 507.9 501.4 493.1 487.9 479.8 471.6 464.6 460 452.2 441.9 435.5 426.8 417.2 406.9 392.8 377.9 364.6 352.1 336.5 322.3 312.9 299.4 285.5 267.4 251.3 239.3 231 213.7 210 208.2 205.5 203 203.6 203.2 209.1 207.3 207.2 204.1 205.2 207.5 205.7 206.5 211.8 217.5 220.6 227.5 236.2 251 265.1 278.6 293.1 310.7 336.1 370.6 391.5 392.3 400.8 395.2 329.7 293.5 272.9 273.8 272.1 267.1 265 261.7 261.6 260.3 263.9 266.8 275.2 284.1 294 305.6 312.2 318.7 322.5 325.3 326 335.5 341.2 340.3 341 343.1 345.9 349.9 358.3 363.1 368.8 373.1 377.1 379.4 377.2 368.6 357.6 352.6 347.8 339.4 329.9 322.9 318.5 315.6 313.3 308.7 302.5 299.6 298.8 299 297.1 296.6 299.6 301.8 305.9 307.8 308.2 308.3 310.7 311.1 312 313.4 313.4 313.8 314.3 315.4 315 315.4 314.9 313.9 312.6 309.6 304.9 302.7 303 301.5 300.3 301 300 298.8 296.9 296.5 295.8 296.7 297.4 297.8 297.8 300 302.2 303.9 303.5 303.4 304.8 306.1 307.3 311.2 313.7 316.8 319 317.7 315.7 310.2 305 300.4 292.8 286.1 277.5 267.5 255.2 243.4 229.8 218.1 206.6 192.3 184.1 175.8 165.9 155.9 144.5 134.1 126.6 119.1 112.6 107.9 105.1 103.1 103.8 103.8 104 104.1 107 114.6 121.1 136.5 147.8 160.5 167.5 174.8 182.9
527.2 519.6 518.9 516 510.9 502.4 498.3 491 485.1 478.3 472.6 464.2 454.1 450.5 445.7 438 428.8 412.5 394.6 378.5 363.6 348 334.5 321.5 311.2 299 282.8 258.4 240.2 228.3 216.2 209 205.5 203.3 202.6 201.6 204.5 205.7 205.3 204.5 202.8 202.9 203.4 203 203.5 206.8 208.7 212.2 216.6 228.5 243.1 258 270.6 284.8 303.7 331 368.6 384.6 383.1 391.3 379.5 325.7 285 268.7 265.6 266.6 265.8 266.6 261.6 260.3 258.9 262.9 264.9 271.5 279.5 291 299.8 304.9 308.6 312.9 315.1 317.4 322.4 331.2 332.9 336.3 333.7 333.9 334.7 341.8 349.1 356.2 362.2 365.3 369.2 371.5 363.9 350.8 348.9 346 332.4 318.4 315.1 313.4 309.7 306.2 304.6 302.8 298.8 296.9 295.8 296.2 293.7 293.6 297.5 302.9 303.2 304 304.8 307.1 308.6 309.1 309.3 310.7 311.9 311.5 312.9 312.8 313.8 314.9 313.4 311.6 309 305.9 302.4 296.2 297.7 296.4 297.5 297.6 296.2 294.6 294 294.1 294.7 295.2 295.4 296.1 298.2 299.3 301 300.9 301.3 302.2 303 303.6 304.8 308.4 310.7 312 313.8 312.8 308.2 301.8 296.4 291.4 285.2 279.5 271.8 261.2 247.5 235.4 223.2 211.5 200.2 188.2 177.1 166.4 157.4 148.3 136.4 131 123.6 115.1 109.3 103 102.6 103.7 103.8 103.9 104.2 105 113.4 123.1 134.2 145 154.7 163.5 172.3 179.5
529.5 527.3 525.3 519 515.1 507.1 500.1 494.5 491.4 489 481 474 466.9 460 451.8 443.7 438.3 427.2 412.2 393.7 376.1 363.7 349 339.1 323.5 314.7 301.4 265.8 245 227.6 216.8 207.6 204.2 202 201 207.1 205.3 206.7 205.3 204 201.5 205.5 202.8 204 200 201.3 202.9 206.8 210.2 220.6 237.3 253 266.5 277.5 294.2 325.1 369.2 373.3 375.2 381.9 357.4 305.6 276.5 264.9 261.8 264.7 267 267.4 263.3 258.9 257.9 261.4 265.9 269.6 275.8 283.5 293.6 297.4 300.5 306.4 307.9 306.7 311.3 319.4 324.5 326.5 322.6 324.6 324.3 326.6 334.6 344.3 349.8 356.4 360.7 359.6 352.9 340.9 343.3 339 323.9 306.2 303 303.3 303.5 298.8 298.8 297.6 297.9 294.8 291.8 289.9 289.1 291.7 295.2 296.9 298.5 298.9 301.7 303.4 305.3 305 304.6 307.4 309.3 310.7 309.7 309.4 311.7 311.4 310.8 308.6 307.2 304.2 301.2 297.9 291.7 291.9 293.1 294.2 294 291.9 290.9 291.8 291.7 292.4 292.8 292.9 295.3 297.3 297.5 297.4 297.5 297.7 298.9 299 298.1 299.7 302.5 305.8 307.1 307.5 304.7 298.5 294.1 288.9 283.7 277.4 271 265.3 253.4 240.4 227.8 218 204.6 193.3 182 171 159.5 150.3 138.4 132.8 128.3 116.3 109 104.6 102.5 103.9 103.7 103.8 103.8 104.3 108.8 118.8 130.7 140.5 151.4 159.6 168.6 177.4
537 534.6 529 522.1 517.9 512.8 506 503.2 501.7 501.5 495.8 487.5 481.1 472.2 463.4 452.8 441.9 432.5 422.4 407.7 393.7 378 363.3 346.1 343.7 340 324.1 300.6 257.5 233.6 221.7 211.8 204.9 203.2 201.6 203 202.6 203.4 204.7 203.1 200.3 201.3 199.2 199.5 198.9 199.3 201.4 204 204.7 212.9 230.1 246.3 261 272.2 286.2 317.9 349.9 360.4 368.9 366.3 328.5 296.4 272.8 260.7 258.4 263.2 265.2 258.3 258.3 258.3 256.7 260.5 265.3 269.2 273.6 276.7 284.6 291.2 294.2 299 302.1 297.9 300.6 304.5 310.2 311.6 308.4 309 314.4 317.1 321.1 329.9 341.5 346.7 354.6 351.5 344.1 332.5 328.1 325.2 313.9 303.3 294.7 292.9 298.7 295.4 293.3 290.8 292.4 291.8 289.5 285.6 284.3 284.7 289.3 288.5 291.5 292.8 297.4 299.5 300.5 300.5 301.1 301.5 303.8 305.6 306.3 306.1 307.4 308.5 307.9 305.6 304.3 302.4 299.4 297 293.8 290.2 286.7 289 290.3 289.5 287.6 288 288.9 288.4 289.7 292.3 292.5 295.1 295.6 295.5 294.5 294 295.1 293.7 291 292.4 294.4 297 300.6 300.5 300.3 295.6 292 286.4 282.2 275.8 270 263.1 254.6 245 232.5 219.5 211 198.2 184.6 174 161.9 153.4 142.8 134.6 132.5 118.2 112 106.5 103.3 103.5 103 103 103.1 103.7 111.5 117.2 127.5 138.9 146.2 155.3 164.3 173.4
546 540.9 534.7 529 525.2 523 516.7 509.2 511.7 514.6 521 514.9 509.5 506.2 497.1 469.6 450 441.4 434.7 425.2 410.3 395 377.7 369.2 358.1 352.3 320.1 292.7 264.8 245.9 228.6 216 205.9 201.2 201.2 201.3 200.6 201.2 202.2 200.4 199.6 197.8 197.2 197.3 197.6 198.5 200.1 201.4 200.8 205.6 224 240.9 256.6 268.1 280.1 305.7 333.4 345.7 359.4 343.2 310.4 289.4 273.1 261.1 258.3 258.3 258.3 258.3 258.3 258.3 258.3 261.7 265 266 267.8 271.1 276.4 282.4 288.1 291.8 295.7 292.5 289.7 292.7 296.5 299.1 297.6 299.6 304.6 306.7 310.7 316.2 326.5 340 346.6 348.6 344 328 319 312 305.9 298.3 289.4 288.7 292.7 291.4 295.1 291.8 284.4 286.1 284.5 280.6 279.5 279.3 279.7 282.1 285.6 286 289.8 292.4 295.4 297.7 296.5 296.4 298.5 301.7 300.8 301.5 301.6 303.5 304.4 303.7 302.1 301 299.2 296.3 292.9 290.8 286.7 281.7 284.8 284.4 283.8 283.6 283.1 285.5 283.8 289.9 290.8 291.4 292.1 291.9 291.2 291.2 291.2 289.6 286.6 287.8 289.1 291.3 294.8 295.2 293.8 291.9 288.4 283.8 279.6 275.1 270.5 263.5 256.2 247 236.2 226.9 217.1 203.7 189.9 177.2 165.8 156 146 138.1 129.8 119.8 116.5 108.3 105.6 101.4 102.7 102.7 103.1 104 105.5 113.9 123.6 135.5 141.9 152 160 169.2
546.8 541.7 539 538.7 537.7 535.2 533.4 538.1 537.7 541.9 546.3 543.6 539.4 533.5 529.7 516.6 468.3 453.2 444.7 431.8 420.4 411.3 401.3 384.9 370.3 356.3 332.3 305.7 276.8 258.9 247.4 223.9 208.9 202.8 200.2 199.2 200.3 200.7 199.8 198.7 197.9 197.7 197.3 196.7 196.9 198.2 198.1 199 198.9 201.4 218.6 235.2 250.8 263.7 274.4 297.2 321.8 335.5 353 336.2 306.1 286.1 271 261.9 258.3 258.3 258.3 258.3 258.3 258.3 258.3 261.2 262.6 263.1 264.6 267.8 271.1 275.9 283.4 287.4 287.6 286.9 281.1 282.4 286 287.9 289 290.5 295 297.6 303.3 306.4 313 323.9 336.8 347.5 342.5 329.5 319.4 308 301.7 294.1 288.5 280.2 283 286.8 288.7 288.5 284.2 280.2 279.1 275.8 272.4 275.2 275.5 277.4 280.3 282 282.3 283.1 288.2 291.6 292.8 292.8 291.7 293.8 295.9 296.5 296.5 298.6 300.4 301.4 299.4 299.7 297.3 295.2 292.6 288.4 284.5 281.8 277.5 278.3 279.1 281 279.2 281.4 280.8 285.9 288.3 289.1 290.3 289.1 287.5 287.4 286.8 285.5 283.5 285.5 285.8 286.7 289.6 290.6 289.7 288 286.2 282.6 279.8 276.7 272.7 267 260.1 251.6 241.6 232 222.6 208.2 195.7 183.1 171.1 160.8 153 143.4 132.3 123.6 115.7 109.4 105.7 103.2 103 102.7 103.5 104.6 110.8 112.2 119.4 133.2 137.5 147.1 157.6 164.8
553.8 552.3 551 552.1 556.1 556.1 560.2 561.8 558.1 557 561.4 561.4 556.2 553 545.6 523 488.2 466 457 445 439.5 427.2 412.6 397.9 386.1 370.7 340 316.8 289.2 278.2 250.5 230.4 216.6 205.9 203.4 201 198.8 199.3 198.8 198.5 197.7 196.5 198 197.5 196.2 197 195.5 197.7 197.7 200.4 212.5 230.2 244.3 258.9 270.9 293.1 312.9 331.3 348.2 340.9 311.3 297.2 280.1 264.9 258.5 258.3 258.3 258.3 258.3 258.3 258.3 258.5 260 261.3 262.4 265.7 268.1 271.7 274.9 280.5 283.5 281 276.3 276 277.2 279.3 280.1 282.3 285.8 290.3 295.1 298.6 305.1 311.7 322.2 336.3 343.4 330.4 319.4 308.3 298.4 291 283.8 280.1 276.6 281.8 286.2 284.2 283.9 280.8 275.3 272.3 268.5 271.4 270.5 272 274 279 276.5 277.9 282.9 288.2 289.6 289.2 288.6 288.4 288.8 291.1 291.1 292.8 293.7 295.7 296.1 296.6 294.8 292.9 291.5 288 283.9 280.7 277.9 273.4 275.4 276.5 274.8 276.3 276.1 279.6 282.2 284.6 287.8 286.5 286.1 284.1 283.6 284.3 283.6 282.7 282.9 283.2 285 286.2 286.1 284.6 283.4 281.4 280.4 278.8 275.5 270.1 263.9 254.8 247.8 236.4 226 214.7 202.2 189.3 174.3 163.7 154 145.7 136.4 123.6 117.7 110.5 106.4 103.4 101.4 103.2 103.1 104.2 109.2 111.5 116.9 130.7 135.9 142.5 153.9 160.1
562.8 561 561.1 562.3 565.3 566.7 567.1 568.5 567.1 568.2 574.4 572.9 571.6 567.5 561.7 547.9 512.1 491.8 469.8 460.5 454.2 444.2 427.5 413.1 401.1 388 362.3 320.7 308.8 280 250.4 236.3 222.5 214.3 206 202.8 200.4 199.3 199.3 197.3 197.1 197.2 198.1 197.2 195.9 196.5 195.8 196.6 196.9 198.7 208.6 225.6 238 253.5 267.9 288.5 310.8 322.4 343.5 367 331.9 307.6 295.5 272.5 264.1 258.3 258.3 258.3 258.3 258.3 258.3 258.3 259.8 260.3 263.9 264.5 266.5 269.9 272.7 277.3 276.6 276.2 272 269.7 270 272.7 272.8 275.4 278.4 280.9 285.4 288.8 293.5 300 310.6 323.9 339.2 324.2 317 304.2 293.2 284.5 280.5 275.8 275.1 277.6 280.8 285.3 280 278.2 274.9 270 264.5 263.9 268.1 268 267.1 271.7 271.2 273.7 275.8 281.1 282.3 283.6 284.2 284.4 285.3 285.8 285 286.9 288.8 289.5 292 292 291.3 289 287.6 285.6 281.8 279.6 276.5 273.7 271.6 273.7 272.1 272.2 271.7 273.8 276.4 277.7 279.8 279.6 279 278.4 280 279.5 277.3 280.4 280.4 280.6 281.2 282.6 282.9 282.4 282.2 281.1 280.4 279.9 276.9 272.4 264.2 259.3 252.1 242 230.8 219.1 207.8 195.7 181.2 168.4 156.2 148 137.5 122.6 116.3 110.4 106.7 106.2 103.5 103.3 102.8 104.6 106.9 110 116.8 127.9 135.1 140 148.3 157.1
572.4 569.6 569.4 568 568.4 567.8 568.5 569.6 569.3 571.8 576 576.7 577.4 575.9 564.9 551.6 533.7 507.8 488.2 476 472.1 458.3 449 436.1 414.8 403.1 379.1 335.5 321.3 288.8 264.3 238.3 229.9 220.8 209.8 206.2 202 200 198.9 198.3 198.9 198.3 197.6 197.4 196.4 196.5 195.3 196.8 196.6 198.4 205.1 220.5 236 251.2 264.7 289.2 304.3 314.9 332.4 357.9 353.3 321.6 300.1 288 276.7 267.6 262.8 260.7 259.1 258.3 258.3 258.3 260.4 262 264.8 264.9 268.5 270.7 271.2 272.9 272 270.6 266.8 263.8 264.4 265.7 267.2 268.9 272.9 275.3 278.6 280.3 281.2 286.9 295.2 304.8 321.2 328.6 313.2 300.3 289.6 283 275.5 272.9 273.7 276.6 280.3 281.9 274.1 272.1 269.3 268.3 265.4 260.1 263.1 264.6 264.7 264.2 265.3 269.8 271.2 272 274.3 276.8 278 280.1 280.4 280.3 281.2 282.6 283.6 285.1 285.7 286 286.1 285.9 284.2 281.8 279 277.1 274.3 270.9 268.1 270.1 269 266.4 267.2 268.6 269.3 271 272.5 272.1 272.4 271.8 274.7 274.4 277.3 277.1 276.1 277.3 278.6 278.8 278.9 279.3 279.8 280.2 279.4 279.7 276.5 273.1 267.9 261.6 255.7 247.3 236.1 225.5 214.2 201.6 190.3 173.6 160.9 149 140.6 128.1 119.4 111.9 106.5 105.7 103.2 101.9 103 103.9 107 110.3 113.4 121.7 129 138.6 148.2 153.8
582.9 579.6 575.7 573.7 571.6 569.4 569.7 568.8 570.1 573.4 573.8 572.7 572.6 569.9 559.7 550.5 534.9 517.3 498.9 481.5 465.1 459.8 456.9 444.3 423.7 413.6 391.6 350.8 332.9 305.7 266.7 250.5 236.6 225.9 215 209.1 205.1 202.1 201.6 199.9 198.3 197.8 197.6 197.4 197.1 196.5 194.9 196.3 196.1 197.8 202.8 216.7 231.8 247.8 263.2 279.4 296.6 311.7 330.1 357 352 331.6 315.8 298.1 283.9 274.4 268.6 262.8 261.8 260.3 258.3 259.6 259.5 260.6 262.5 264.5 263.9 262.5 267.6 267.8 269.3 269.4 263.7 260 261.6 260.7 261.1 263.6 268.2 272 275.6 274.3 273.6 274.3 279.1 286.8 288.7 294 298.8 294.1 285.6 277.3 272.3 271.1 272.5 273.2 274.5 272 268.4 266.6 266 265.4 262.8 261.7 258 257.2 258.9 257.8 258.2 262.4 266.7 265.9 269.7 270.5 273.5 276.6 278 277.9 277.2 278.1 278.8 280.3 280.8 281.2 281.3 280.6 279.2 277.8 275.9 274 270.9 268.7 264.5 265.4 265 263.9 264 263.2 264.6 265.8 265.7 266.3 265.1 266.5 267.6 269 272.9 272.1 272.4 274.4 275.3 275.3 275.2 277.3 278.2 279 278.5 278.3 277.7 274.1 269.4 264.1 258.2 250.6 241.2 230.5 220.4 209.5 196.1 178.2 166.9 152.4 144.3 134.7 119.1 113.4 109.6 111.2 103.6 103.1 104 104.7 105.9 109.5 112.7 117.9 124.4 135.1 143.1 149.8
592 588.1 583.3 578.7 575.5 572.8 568.9 566.8 566.4 568.1 567.2 569.2 567.2 565.4 557.7 541.7 527 513.1 494.8 483.9 471.3 459.7 447.9 438.7 430.3 424.9 382 354.2 327.4 301.5 280.1 263.3 252.6 234.2 229 219.7 209.9 205.7 202.7 200.3 199.1 197.1 197.2 197 196.3 195.2 195.8 195.1 195.6 196.2 201.2 212 226.3 244.5 260.7 277.7 295.8 317 338.7 361.2 365.3 358 346.1 312.3 290.2 277.4 271 266.7 264.7 260.7 260.4 260.2 259.3 259.9 259.9 261.5 261.3 261.8 262.8 261.6 261.7 263.2 260.1 257.7 257.2 256.3 257 258.6 263.1 268.4 272.6 271.4 271.1 270.4 271.3 275 277.7 280.3 281.7 278.8 276.8 274 270.8 270 271.1 271.7 270.9 269.1 265 264.2 263.1 263.2 262.1 260.1 258 255.4 253.9 254.6 251.5 252.4 259.6 259.8 263.8 267 271.4 273 272.9 272.1 273.7 273.9 274.3 274.7 274.4 275 276.2 276.5 275.6 274.6 273.6 271.1 267.5 265.4 262.9 260.8 260.8 260.2 261.6 259.7 259.7 260 260.5 261.3 259.4 261.4 264.9 264.5 268.4 267.6 268.9 271.4 271.9 272.1 273.4 275.3 276.5 277.5 277.2 278.2 277 273.6 270.8 265.9 260.4 252.7 244.9 236.4 226.5 214.6 201.6 186.1 171.9 157.1 147.6 135.7 123.2 113.6 109.5 105.7 104.6 103.1 104.1 105 106.4 107.7 112.9 116.9 124.9 132.3 139.1 146.9
600.9 593.6 588.4 582.6 577 573.3 567.9 564.1 563.1 562.4 564.6 566.3 566.7 559.7 551.9 529.4 514.9 501.6 488.5 479 464.6 448.9 435.2 430.4 427.7 416.6 395.1 352.3 330 312.7 295.8 275.5 265.2 245.6 237.5 226.3 218.3 213.9 205.9 202.8 200 196.7 196.8 196.5 196.3 196.3 194.2 194.6 195.2 195.8 199.5 207.4 222.4 240.1 253.5 270.3 283.8 305.2 323.6 349.2 371.8 384.3 369.8 325.6 297.3 284.1 277.3 271.6 267.6 262.7 261.5 258.1 260.1 257.8 257.4 259.2 260.4 258.9 259.3 257.9 257.6 257.5 258 256 254.6 254.6 254 255.7 259.9 263.8 267.4 268.1 268.8 269.8 270 271.7 273.8 275.5 276.7 276.2 275.6 273.3 270.6 269.6 270.3 268.9 267.5 264.9 264.9 263.4 261.3 261.6 261.2 258.9 256.5 253.5 249.3 252.3 252.4 247.5 251.3 254.8 258.9 260.1 264.2 264.1 267.6 264.9 265.2 266.1 268.4 269.9 271.1 270.4 271.5 272.1 271.3 270.4 269 267.8 264.2 262 259.4 255.4 256.2 256.6 257.9 255.6 256.6 256.1 255 256 257.4 257.2 260.3 262.3 263.6 264.3 267.3 268.8 269.3 269.1 271.2 273.2 274.7 275.9 276.5 276.7 276.5 273.3 270.3 267.7 263.1 256.7 250 242.3 229.6 218.8 205.6 193.3 176.1 163.3 151 141.2 128.2 116.7 111.5 106.2 105.9 102.2 104 105.7 107 109 111.1 116.7 123.3 130.3 135.7 142.8
607.5 600.6 593.4 586.4 578.1 572.6 565.9 561.2 557.4 556.4 557.4 559 558.7 549 537.5 522.5 509.5 500 480 476.4 465.9 447 438.9 428.1 420.9 410.9 392.3 360.3 341.2 324.9 308.4 294.1 280 263.4 250.6 236.4 225.9 221.5 215.4 210.1 203.4 197.1 196 196.2 195.6 195.9 195.9 194.4 195.2 195.7 198.2 206.6 217.1 235.7 249.4 262.8 276.9 296.1 321.7 338.6 348.5 359.9 363.9 328.9 303.4 292.2 284.4 278.1 272.2 267.1 262.8 260.2 252.9 256.4 255 256.1 255.3 255.3 254.2 254.9 254.6 254.7 254.8 254 254.2 253.3 253.2 254.2 256.9 260.3 263 264.5 266.9 267.1 268.2 269.5 271 272.6 273.7 273.8 273.5 273.4 271.7 271.9 272.2 271.7 271.9 269.3 266.8 264.8 260 259.8 258.7 256.7 255.6 253.3 248.4 247.1 245.6 244 246.6 250.8 250.6 254.4 257.2 256.5 258.2 259.1 258 261 260.8 264.1 264.5 265.8 266.3 266.7 267.1 266.1 263.8 262.6 259.5 257.5 255.3 250.1 252.5 252.7 254.2 252.5 252.8 252.6 251.8 252.2 253.4 252.7 255.9 258.5 261.5 263.2 265.1 265.9 267.2 267.6 269.8 271.9 272.9 273.8 274.9 274.8 275 274 271.6 268.1 265 260.7 254.7 246.2 236.1 225 212 198.4 184.3 169.4 154.3 143.4 130.9 117.5 109.4 106.7 104.8 102.8 103.8 105.1 106.5 108.4 110.6 113.4 116.4 125.4 132.6 137.8
615 604.3 598 590.2 580.1 572.1 565.5 560.2 554.3 550.5 549.5 548.7 545.7 535.9 521.5 512.3 503 493.4 480 464.4 458.2 445.8 433.6 425.1 414.7 400.5 379.1 359 343.5 326.9 323 305.7 291.3 276.9 260 247.6 236.9 231.5 224.3 216.2 206.3 199.1 196.1 195.3 196 196.2 196.1 194.7 195.3 195.5 197.2 203.9 211 229.3 244.5 255.7 273.6 293.1 304.7 319 331.5 352.9 363.8 336.9 312.6 299.4 289.9 283.9 277.6 271.9 265.4 260.3 255.5 249.4 252.5 251.7 252.7 251.5 251.2 251 251.8 250.9 252 252.8 251.9 252 251.4 252.3 255.4 258 259.3 260.7 262.3 263.1 265.6 266.3 269.2 270.1 272.4 273 273.9 274 273.4 274.5 274.4 274.7 273.8 271.6 267.3 265.8 262.2 256.5 253.5 254.4 252.1 250.3 246.9 243.4 240.4 240.2 242.9 242.8 243.4 244.2 248.5 251.8 251.2 251.9 251.6 253.6 254 256.8 258.6 259.2 260.4 260.5 261.1 260.8 258.3 256.5 255.2 253 250.5 246.9 248.9 249.2 250.1 250.1 249.4 249.2 249.1 248.6 248.1 250.2 253 255.2 259.1 260.2 261.7 264.4 265.7 266.9 268.5 270.6 271.3 273 273.7 273.8 273.6 273.1 271.4 269 266.9 263.2 258.4 250.2 241.9 232.2 219.8 204.3 192.1 176.4 158.4 144.1 132.9 115.9 114.4 108.9 106.8 101.6 105.3 104.5 108.7 111.5 114.4 118.1 123.8 129.2 132 139.7
619.7 610 601.4 592.6 580.9 572.4 565.2 558 550.6 545.1 541.9 538.2 534.8 524.9 514.2 507.9 502.2 493.2 477.8 463.7 449 440.5 428.4 418.5 419.5 399.3 368.4 357.6 345.6 336.9 329.9 319.4 308.5 292.3 281.6 266.4 250 241.9 232.4 222.4 211.8 205.8 197.7 195.6 195.3 195.8 196.1 195.8 194.7 194.3 194.6 201 204.5 225 235.6 248.5 262.5 280.7 292.6 310.4 324.1 335.9 350 343.7 335.3 323.5 305.4 291.8 284 277.1 269.6 262 258.1 252.4 247 247.4 249.5 249.6 249.1 248.5 249.7 249.8 250.2 250.2 251 250.2 251.2 253.1 254.7 255.8 258.1 260.7 261 262.9 267.1 267.6 269.7 271.2 271.9 273.8 274.6 273.5 274.7 275.8 276.4 276 274.8 272.1 269.3 266.2 263.8 258.1 254.6 249.5 246.4 246.5 245.3 243.8 241.1 240.2 234.9 235.3 237.9 237.3 238.5 241.4 244.7 242.4 244.6 247.2 248.2 250.6 253.2 253 253.5 254.4 254.5 254 252.7 251.6 249.3 247.7 246.8 243.5 244.1 245 246.4 245.2 244.7 244.7 246.2 244.4 242.8 246.3 248.3 253.2 256.7 258.1 259.6 261.1 263.2 265.2 267.1 268.3 269.8 271.2 272.2 273.1 273 273 272.7 271.1 268.7 265.6 261.6 254.4 245.6 235.7 225.4 212 199.7 185.9 163.3 146.8 133.8 117.8 113.8 108.4 107.1 103.2 105.7 108 108.7 114.2 115.7 118.2 124.6 127.2 132.5 137.7
625.8 614.2 604 595.7 584.3 572.8 565.9 555.6 547.3 541.8 534.8 529 525.1 518.7 508.7 505.4 500.3 491.3 479.1 463.3 446.7 437.5 427.3 411.4 400.6 385.1 368 352.4 349.8 346.1 342.7 334.7 328.1 317.4 302.8 279.6 265.3 256.9 246.3 233.8 222.3 214.9 206 197.9 195.5 195.9 195.8 195.9 195.3 195.4 195.2 194.1 201.3 210.9 225 237.9 249.9 266.6 282.5 296.9 314.4 335.1 354.3 362.9 366.2 349 321.9 304.6 292.9 281.7 269.6 263.9 258.7 251.8 247.7 244.5 247 245.5 245.4 244.9 246.1 249.2 248.2 248.8 248.9 252.6 254.8 255.3 257.4 257.5 257.8 259.5 259.2 262.9 267 269.3 271.4 272.9 274.4 274.3 276.1 276.4 276.5 276.9 277.6 276.1 275.6 275 270.4 266.9 264.3 260.3 259.4 255 248 243.9 242.4 237.9 239.8 235.5 236.2 232.2 231.7 235 235.3 235.2 235.4 234.2 235.7 242.1 242.2 243 246.7 247.4 247 246.9 248.3 248.9 247.3 246.2 243.4 242.9 241.7 240.1 240.8 241.2 241.8 242.8 242.4 241.4 241.7 240.5 240.5 241.9 246.3 250.8 254 255.1 256 258.8 259.7 262.7 265.1 267.3 268.8 269.8 270.3 271.5 272.6 272.7 272.5 272 270.7 268.1 264.4 258.1 250.3 240.9 228.2 216 203.4 190.2 168.1 151.8 136.7 122.1 111.8 108.4 103.7 103 105.9 107.2 109.9 112.1 114.3 120.7 122.5 126.9 132.7 139
630.2 619.5 609.1 597.5 588.4 577.3 568.3 558.5 549.6 541.6 531 524.3 521.2 513 506.5 502.3 496.6 487.6 477.7 467.7 455.4 439.9 429.3 413.7 401.8 382.5 368.8 361.1 360.8 358.8 354.4 346.2 343.9 337.3 317.8 298.5 283.1 276.4 259.7 245.4 235.4 224.8 214.3 206.3 197.7 195.5 195.5 195.6 195.7 195.4 195.2 193.8 197.7 206.6 217.5 225.3 239.9 259.1 279.7 298 312.1 330.4 351.8 370.5 391.3 369.5 348.1 326.3 305.1 285.4 274.5 262.8 256.1 250.5 246 245.1 244.7 244.4 244.8 246.3 248.8 249.6 250 248.9 250.2 254.6 256.9 258.1 259.4 260.1 260.2 259.4 260.6 261.9 265.3 268.6 273 274.9 275.7 275.7 277.1 278.3 278.5 278.9 278.5 277 275.6 272 268.9 267.3 265.8 262.9 258.8 253.4 249.3 246.1 243 241.7 235.2 232.8 233.9 231.1 228.6 231.8 233.4 232.3 229.9 229.3 230.6 233.4 235.1 235.8 239 239.1 240.8 240.7 242.1 242.1 243.1 241.8 240.2 239.1 238.4 235.7 237.8 237.6 239.4 239.9 238.6 238.7 238.2 237.3 239.9 239.1 243.7 248.3 250.7 251.3 251.6 255.2 256.4 259.1 261.1 264.2 266.8 267.8 268.6 269.8 270.9 272 272.5 272.4 271.8 269.3 266.6 261.2 254.5 245.7 234.3 221.5 207.5 192.7 176 158.9 138.7 126.2 113.2 108.1 105.5 100.6 106.5 107.2 109 111.7 113.6 117.2 123.2 128.5 133.9 138.8
634.8 624.4 615.3 604.1 591.3 581.9 570.5 561.8 552.8 543.7 531.9 526.6 519.9 512.3 506.9 500.4 492.5 481.5 473.9 465.7 461.1 444.7 428.4 417.1 400.2 386.5 378 367.4 368.7 365.2 359.4 355.7 356.2 352.4 338.2 318.5 304.7 286.4 272.2 258 245.1 236.5 226.6 218.4 207.3 198.5 195.1 195.2 195.4 195.4 195.1 194.9 196.8 203.1 212.9 223.6 233.5 250.8 272.4 283.2 301.4 321 342 362.8 392.1 395 373.7 343.8 318.3 294.7 277.4 263.6 252.7 246.3 244.4 240.1 243 243.1 246.3 249.4 251.7 252.3 253.4 250.1 251 255 258.4 260 261.8 262.5 263.8 263.1 265.1 266.6 267.5 271.8 273.4 276.6 277 278 278.9 279.6 280.3 280.8 279.5 278.5 276.8 274.2 270.9 267.6 265.1 261.4 256.8 252.7 248.8 245.6 243.8 238.5 236.3 234.6 228.6 230.8 227.8 224.5 228.5 231.1 226.1 225.4 224.1 226.1 226.8 229.5 232.9 231.8 233.9 234.9 235.8 236.9 237.4 236.2 235.3 234.9 235.2 228.9 234.7 233.4 236.4 237.1 236.5 234.1 235.7 234.6 239 235.2 241.1 244.3 247.5 248 251.3 252.2 253 255 257.3 260.3 263.1 265.4 267 268.2 269.3 270.4 272.2 273.1 272.5 270.9 267.7 264.2 257.9 250.5 239.9 225 209.4 195.3 183.9 165.6 145.3 129 115.1 109.5 106.5 100.5 107 107.7 108.3 110.9 112.7 116.4 121.8 128.6 135.2 139.8
640.3 630.3 619.7 607.1 597.8 587.5 576.6 567 558.2 550 540.7 531.5 522.7 516.9 511.2 505.5 497.6 490.3 484.2 476.6 465.5 455.9 440 422.7 405.8 389.7 377.4 373.5 375.5 367.1 364.1 365 360.4 353.6 348.9 346.5 326.5 305.8 288.1 268 257.4 248.5 239.4 228.8 219.6 206.8 197 194.7 194.9 195.1 195.1 194.2 194.9 198.8 207.6 216.3 229.8 245.1 261.4 275.3 291.4 310.8 333.2 357.2 381.9 407.5 401.6 371.7 333.7 308.5 281.3 260.6 246.9 242.2 238.9 237.8 239.3 242.7 246.7 249.5 252.7 253.9 254.5 256.8 257.2 257.4 260.6 262.6 264.6 265.1 266.5 266.7 267.5 271.4 273.2 274.8 276.4 278.8 280.1 280.2 281.1 280 281.9 281.1 281.1 279.3 277.5 274.1 269.6 267.2 264.3 260.5 255.6 250.8 249 244.1 241.2 239.9 237.3 235 231.7 229.1 226.1 225 220.6 225.4 223.3 218.6 215.9 219.4 219.9 217.8 226 225.3 227.3 229 230 231.4 231.1 228.8 230.2 230.3 231.6 227.3 231.4 229.2 232.2 232.5 232.6 231.6 232.2 232 234.7 233.9 237.1 240.4 242.9 243.8 246.8 247.6 250.2 251.9 253.8 255.5 259.1 262 264.3 266 267.7 269 271.2 272.2 273 271.6 269.4 266.1 260.6 252.7 244.4 232.1 212.9 200.2 189.7 173.1 149.6 128.8 112.1 108.7 103.5 102.3 106.5 107.4 109 110.1 112.7 118.8 121.5 128.2 135.2 139.9
650.5 638.7 625.9 614.3 604.2 592.6 583.5 573.7 564.9 556 548.5 541 530.8 523.1 517.5 513 505.1 498.5 491.7 485.6 476.3 465.2 449.6 430.2 410.4 391.9 378.8 371.1 370 368.9 370.2 367.2 363.8 359.7 360.5 357.5 349.3 318.7 297.2 283 268.9 257.2 247.7 239.9 229.7 221.4 208.9 196.4 194.5 194.5 194.7 200.9 195.2 196.1 202.3 212.2 221.7 237.2 252.5 270.2 287.5 306.6 322.6 344.9 372.2 393.5 393.6 361.2 328.5 299.5 267.9 249.9 239.6 236.8 235.7 236.3 239.2 241.5 245.2 250.5 254.9 257.4 259.8 261.4 262.2 262.5 264.4 266.3 267.4 268.9 270 269.7 272 273.2 276.1 277.8 278.6 280.5 282.2 283.7 284.7 282 283.6 284.2 282.2 279.6 278.9 276.3 271 268 264.5 261.4 255.6 251.2 248.5 247.7 243 239.8 236.1 234.2 231 228.7 225.4 220.5 221.1 217.5 216.5 216.5 214.1 212.5 213 213.7 213.1 215 221.5 223.3 223.5 225.6 225.7 222.4 223.2 223.3 224.2 223.8 226.7 223.1 227 229.1 228.9 228.2 230 229.8 232.3 231.5 232.9 235.8 237.1 237.6 242.2 242.9 245.8 247.6 249.5 251.9 254.2 257.7 261 263 265 266.2 268.5 270.6 271.3 270.6 269.4 267.4 262.9 257.2 249.7 238.7 220.5 203.2 191.7 178.3 154.7 135 113.8 106.4 104.2 100.5 106.7 106.7 108.3 109.7 113.1 116.2 123.2 130.6 135.3 139.4
655.4 644.9 632 620.4 610.9 599.9 590 582.3 574.1 564.6 557.3 549.6 542.1 534.4 529.3 524.5 519.9 515 508.1 503.2 494.7 480.5 458.8 431.1 407.3 391.2 377.7 372 368.2 370.6 373.2 372.2 369.9 369.4 367.4 369.7 355.4 334.4 315.1 297.8 281.8 268.9 254.9 245 237.1 231.2 224 207.3 198 194.8 199.9 205.4 200.3 192.8 198.2 203.7 213.3 225.7 240.5 257.2 275.8 297.7 318.9 340.1 364.1 387.9 388.1 346.9 308.1 275.8 247.1 237.1 233.5 232.3 231.9 236.6 238 243 248.6 252 257.4 262.9 265.1 266.2 267.7 267.3 268.4 269.5 271 272 273.3 274.8 275.9 278.3 279.9 282.7 282.4 285.9 287.2 287.2 286 285.4 285.8 286 284.1 284.3 282.3 280.7 275.4 272.1 267.4 263.2 257 253.3 250 249.1 243.2 239.5 235.2 232.6 229.9 227.6 223.4 221.3 215.3 217.3 216.1 210.6 207 205 205.3 208.6 210 207.8 210.6 214.2 217.9 220.1 220.2 215.8 215 216.7 217 219.6 220.4 218.7 221.9 224.2 222.8 228.4 229.2 229.4 230.6 229.8 228.5 229.1 230 232 235.5 236.8 239.4 241.1 243.7 246.9 249.6 252.6 255.3 259.5 261.4 263.8 265.4 268.7 269.3 269.2 268.6 266.9 264.2 258.9 252.8 243.1 226.5 205.4 193.8 181.9 161.7 139.2 118.3 107.3 104.4 101.5 106.2 106.9 106.7 110 112.5 118.5 126.3 131.7 135.6 138.8
654.2 648.5 638.2 627.5 617.3 607.9 598 590.5 583.5 573.6 566.4 559.4 552.5 546.6 542.6 538 533.3 530.4 524.3 518.1 507.9 496.9 470.7 437.3 409.2 392.1 377.9 366.9 360.5 363.1 370 376.3 379.6 379.8 380 372.6 357.7 344.4 328.3 313.6 297.6 280 266.4 253.3 246.4 242.2 228.2 219.9 207.7 199.3 201.4 206 199.5 193.6 194.3 197.6 204.8 214.4 230.9 246.6 263.6 292 313.7 331.8 351.2 363.8 363.8 320.2 286.4 252.4 235.3 230.9 228.8 229.1 233.7 236.8 241 245.4 251.3 256.7 262.2 266.4 269.4 270.8 270.8 271 270.8 272.5 274.8 275.3 277.6 280.6 282.2 284.9 286.3 288.5 290.3 291.2 291.2 292.3 291.4 290.2 290.9 290.4 288.6 288 284.8 282.7 281.8 276.6 270.6 267.1 261.8 256.5 253.1 248.4 245.5 240.1 234.1 232.1 230.1 227.9 225.2 220.4 216.4 213.9 211 207.2 200.7 199.4 200.8 201.8 203.6 201.6 202.2 203.3 209 208.8 211.6 209.1 208.6 210.3 211.9 211.7 211.9 211.1 216.2 218.1 218.1 224 223.1 229.9 226.4 226.8 223.5 220.9 222.2 224.4 228.1 230.3 232.6 236.3 238.4 241.1 244.7 247 251.9 255.3 258.3 260.6 262.8 265.1 266.6 267.4 267.1 266 264.3 260.2 254.3 245.3 228.5 213.9 193.4 184.3 164.9 145.5 124.3 111.6 106.3 100.6 105.5 105.9 105.9 110 112.9 121 126.4 131.6 135.9 138.6
644.3 643.7 642.9 635.1 626.3 618.4 606.7 597.7 590.8 583.3 574.5 568.6 563.4 558.9 555.4 552.6 549 545.8 540.8 531 520.2 507.8 470.4 437.3 405.8 382.5 367.9 362 360.1 354.8 367.9 381.5 381 381.4 380 374.8 365.2 350.3 337.6 321.2 306.8 294.1 278.5 264.9 254.4 247.2 238.5 226.3 216.7 204 201.6 201.5 200.2 194.6 191.9 194 198.4 206.1 219 234.9 254.6 283.2 309.2 326.3 337.5 344.4 342.6 313.4 277.1 248.9 233.6 229.4 228.8 232.1 235.2 240.9 246.3 252.3 256.5 261.6 266.4 269 272.6 273.4 273.5 274.4 275.6 277.5 279.9 281 282.5 286.2 287.2 290 291.1 292.4 293.9 294.4 295.5 297.5 297.6 298.9 298.4 296.4 295.9 293.6 291 287.5 285.3 281.1 277.4 270.7 266 262.5 256.2 251.1 246.3 241.4 236.6 234.4 231.9 228.5 224.3 220.4 218.1 213.7 209.9 207.1 203.2 195.7 196.3 195.4 196.5 195.7 194.4 196.3 200.8 199.9 200.6 200.4 204 204.7 203.5 206.1 203.5 202.9 210 209.7 212.6 217.8 221.6 227 223.9 218.6 213.6 211.4 208.2 216 220.2 223.3 227.1 229.4 231.3 235.4 239.3 243.4 246.2 249.7 253.3 256.4 258.5 261.8 263.4 264.3 264.8 264.1 262.7 260.1 254.9 246.1 230.8 216.3 197.1 183.7 167.2 149.4 130.6 116.9 106.1 99.5 103.8 105.6 105.8 108.6 111.6 120.2 126.7 131.8 136.5 138.9
632.7 637.7 643.7 643.2 637.9 633.5 620.3 608.2 599.9 592.3 586.6 580 573.6 569.4 568.1 566.4 562.2 557.6 554.1 543.8 530.7 511.2 466.1 422.5 391.9 372.8 361.5 353.3 349 344.9 356.1 364.5 375.7 372.5 377.9 367 368.2 352.6 340.5 329.3 321.1 311.5 293.2 277.8 266 255.8 246.5 237.3 227.3 217.5 208.5 200.6 197.2 195 192.9 193.5 195.6 199.7 207.9 223.8 242.3 260.2 279.8 301.8 304 303.8 301.7 290.1 262.5 241.5 228.8 226.3 227.2 230.5 237 243.5 250.5 255.3 261.5 266.5 271 273.8 275 276.6 277.5 279.8 281.3 283.9 286.6 287.1 289.3 290.9 292.6 292.5 296.3 296.9 298.8 300.4 301 302.1 304.9 304.9 303.8 302.7 301.5 300 296.3 293.4 287.6 285.8 281.9 277.8 273.3 267.6 261.8 256 249.5 245.1 241.7 237.4 233.3 229.6 226 222.1 218.4 214.4 210.9 206.4 201.9 198.8 193.1 193.1 191.8 189.5 190 194 193.8 192.1 195.4 193.3 199.8 200 198.7 199.4 200.5 197.3 203.1 201.7 207.2 209.7 212.5 220.4 217 209.1 204.7 198.8 197.9 205.2 207.6 214.6 216.6 220.6 225.3 230.1 233.5 237.8 241.6 245 248.2 251.9 253.9 257 260.1 261.3 261.4 261.2 260.6 258.6 254.7 247.7 236.7 220.4 205 184.5 167.8 156.4 138.6 118.7 109 104.1 102.2 105.4 104.8 108 112.5 119.6 126 131.4 135.6 139
620.8 629.5 635.4 644.4 645.9 635.2 623.9 615.1 607.9 601.6 597 592.2 586.6 582.1 579.1 576.3 573.7 571.4 568.4 560.4 535.6 506.6 472.8 422 389.5 368.8 355 345.5 340.6 338.1 347.8 352.3 355.3 364.2 362.8 365.6 367.3 362 351.6 339 333.8 326 307.5 292.2 280.5 267.6 255.7 243.4 238.4 231.7 219.2 206.9 197.4 195.5 193.1 191.8 195.4 199.8 204.3 213.2 223.1 237.7 252.4 263.7 266.8 269.7 264.8 256.5 243.1 230.5 224.5 222.6 226.2 232 239.6 245.8 251.9 258.5 266.5 272.1 276.1 278.7 280.7 282.1 283.2 285.3 286.6 289.8 292.2 293.5 295.2 297.3 296.4 299.4 300.8 302.4 305.3 307.6 308.4 308.1 309.8 310.6 308.7 308.3 306.4 306.1 304 299.8 295.3 290.5 286.5 283.5 278.8 272.9 268.7 263.2 254.5 250.1 244.1 239.6 234.6 230.6 227.4 224.6 220.7 217.5 212.7 206.1 200.1 196.5 194.1 190 185.4 184.9 185.7 185.6 188.4 186.7 189.3 187 191.3 191.6 190.6 192.9 195.9 194 198.5 196.1 200.4 204 204.1 204.2 201.9 198.3 195.5 187.2 187.7 193.8 196.6 205.6 208.4 213.4 216 221.8 226.3 231.1 234.5 238.9 242.6 246.9 249.1 252.1 254.8 256.7 257.1 257.6 257.2 255.3 251.9 247.2 238.1 224.5 206.7 184.9 174 159.7 143 126.4 114.3 104.1 99.3 104 104.6 107.8 111.9 120.1 127.3 131.8 135.4 138.8
613.7 620.5 628.6 636.4 639.8 631.5 623.9 621 617 611.9 606.3 602.3 598.4 594.2 591.5 589.1 588.2 582.7 577.8 566.9 524.6 491.8 469.7 427.8 390.7 363.9 349.3 340.8 334 334.4 341.1 342.8 348.6 348.9 359.7 364.5 369.4 369.1 366.1 355 351.7 342.8 325.6 313.2 301.2 284.1 265.9 250.9 243.8 239.3 230.7 217.8 201.8 195 192.7 193.6 197.7 201.7 206.1 213.3 222.1 228.1 234.4 235.8 237.8 241.7 244.7 237.1 229.5 222.1 220.6 222.9 228.8 235.6 243.3 249.6 256.7 264 269.8 276.5 279.9 283 285.1 286.4 289.1 291.2 292.8 294.5 297.7 297.8 301.2 303.5 305 306.9 308.4 310.9 311.4 313.3 317.2 317.6 316.7 317.3 315.4 314.2 314.1 311.6 310 307.4 303.4 298.6 292.7 288.8 281.9 277.7 272.5 266.6 258.7 253.9 249.2 241.9 238.5 234.2 229.5 226.9 223.4 218.9 214.5 207.4 202 199.5 195.8 192.2 187.2 184 178.6 181.6 180.2 180 181.9 179.5 188 184.1 184.7 188.7 190.3 190.3 191.4 186.7 191.5 200.2 192.9 190.9 190.6 186.7 180.9 176.6 172 182.4 185.6 195 198.6 204.7 209.7 214.5 219.1 223.5 227.6 232.4 236.4 240.5 243 245.9 248.9 250.3 251.4 251.8 252 251 249.4 245.3 236.8 227.1 208.5 190.3 173.6 159 145.8 129.1 117.2 109.8 102.3 101.8 104.3 107.1 114.3 121.8 128.3 132.7 136.4 138.9
611.9 620.5 625 627.5 628.3 627.7 625.9 624.7 623.3 617.8 612.9 609.4 607.2 604.3 601.4 598.2 598.2 592.9 586.2 565.4 522.5 486.3 446.5 418.2 385.4 360.1 346.6 334.1 329.7 334.1 337.1 340.7 341.2 348.3 352.3 363.1 365.4 371.8 369.6 368.4 367.9 361 368.6 356 325.4 300.3 276.6 257.8 241.7 234.5 235.9 222.2 207.8 195.1 192.5 193.8 198.1 204.7 208.9 212.3 216.5 220.6 227.7 230.8 232.1 231.6 230.9 226.4 221.7 219.4 224 226.7 232.8 239.5 247 254.5 261.5 267.8 273.3 279.9 282.9 287.8 290.2 293 296.2 297.2 299.2 300 303.4 305 307.5 311.5 311.9 313 315.2 316.6 319.6 320.5 322.2 323 322.8 322.2 322.3 320.3 319.7 317.2 315.6 312.2 309.3 304.5 300.6 295.4 289.8 284.1 278.5 272 263.7 257.6 250.5 246.8 240.9 236.3 231.6 228.4 225.7 219.8 214.2 209.6 205.7 202.6 197.8 193.9 188.8 185.9 179 176.1 174.8 175 172.5 174.1 177.5 175.2 185.2 185.1 185.5 187.3 189.3 179.7 186.4 181.7 178.5 175.9 174.2 170.6 164.7 162.9 156.5 173.3 173.5 181.6 185.4 190.8 200.1 206.7 209.3 215.7 219.9 223.7 228.3 232.9 236.3 238.8 240.9 242.8 244 245.1 245.6 245.4 243.4 239 234.5 225.2 211.2 194.6 177.3 163.7 150.5 133.9 120.8 114.5 102.8 100.6 103.9 106.1 116.4 123.4 129.8 133.1 137.3 138.6
610.3 623.5 627.5 627.2 626.6 627.7 626.4 625.9 625.9 624.5 622.2 616.3 613.7 611 608.2 607.4 606.8 602.7 598.5 570.1 523.8 484.8 456 420.7 384.3 357.7 341.1 332.8 329.2 329.6 336 339.2 342.3 344.7 351.5 358.8 361.8 367.1 376.3 388.4 385.4 377.6 366.4 341.8 303.5 269.3 250.4 241.2 236.8 227.8 222.8 216.2 200.5 194.9 192.4 195.5 200.7 206.3 209.4 211.7 214.6 217.2 222.3 224.8 225.8 228 225.3 222.1 220.3 222.3 225.2 228.9 240.2 244.3 249.9 257.3 263.9 270.9 275.9 282.1 288.1 292.2 294.5 297.9 301.5 303.6 306.8 307.3 309 311.9 313.5 316.6 318.5 319.6 321.1 324.5 325.6 327.8 329.4 329.1 329.6 329.2 327.5 327.4 325.8 324 322.2 319.1 316.2 312.4 307.5 301.5 296.3 290.3 283.7 276.5 271.9 264.6 257.3 250.7 244.6 239.5 234.8 232.2 226.1 221.3 216.8 212.4 209.2 205.1 201.7 198 191.3 186.9 180 174.3 169.4 167.8 168.1 168.4 170.5 172.8 178.7 181.7 181.3 185.8 185.3 177.9 173.6 172 172.7 163.4 162.8 160.4 155.6 151.9 150.1 159 166.3 171 175.6 180.3 187.2 193.6 200.5 206.4 212.5 215.9 218.5 222.5 226.9 229 232.2 233.9 235 236.2 236.9 237.3 235.9 234.5 229 222.6 212.8 198.4 183.2 166.7 152.8 132.3 121.1 115.7 104.4 99 103.8 105.8 117.6 124.8 130 133.2 135.6 135.1
601.4 615.6 622.6 622.2 622.6 629.1 629 627.7 627.9 626.7 623 618.5 614.3 612.9 613.3 613.2 614.5 609.9 590.9 565.2 525.8 488.2 453.6 415 383.9 352 337 329.6 327.2 328.3 336.1 342.1 342.2 343.2 352.9 361.9 358.8 362.3 388.5 408.2 395.3 368 335.7 295.3 260 240.9 230.3 223.2 219.2 225 217.4 204.7 195.8 194.3 192.3 198.3 203.6 207.7 213.1 215.9 217.3 217.2 217.4 219.6 218.3 220.5 220.1 217.7 222.4 223.1 224.9 230.7 237.5 243.3 252.6 260.2 267.3 274.3 278.6 285.7 290.9 294.4 299.2 303.3 307 310 311.2 313.2 315.5 316.5 319.7 322.6 325.7 327.2 328.4 329.4 330.1 333.3 335.3 336.5 337.4 336.4 336.5 334.2 333.9 332.2 328.6 325.8 322.9 317.8 312 306.9 301.6 294.7 288.7 282.3 276.8 271.1 263.1 256.5 250.2 245.6 242.3 237.4 229.5 223.2 217.7 214.7 211.7 210 206.6 200.3 194.5 189.3 182.4 177.8 170.3 163.2 163.1 166.7 164.4 168.9 173 178.5 177.3 188.6 179.7 172.2 167.4 166.6 159.8 156.7 153.5 145.7 146.7 139.1 134.9 147.8 152.2 159.1 166.1 169.8 176.9 182.3 188.8 194.7 201.1 206 210 213.1 216.9 219.6 221.6 223.8 225.2 226.2 226.7 226.7 226.3 225.8 223.9 218.4 208.5 199.4 184.5 166.4 153.3 137.5 126.1 115.5 105.4 100.5 103.1 104.9 116.9 123.4 127.7 127.2 120.2 127
590.1 605.4 614.3 616.1 618.2 624 629.6 633.3 630.3 625.7 619.2 616.5 612.3 611.8 615.4 616 617.3 608.1 560.8 544.5 537.7 495.4 441.4 404.3 371.4 343.2 329.6 327.1 326.1 327.2 329.1 335.4 339.2 345.1 347.9 352.6 358.9 361.8 394.7 400.2 372.8 334 298.2 269.1 240 227.3 220.1 211.3 206.6 210.1 209.9 202.1 196.5 191.7 193.5 199.4 205.5 209.6 210.6 213 213.9 215.6 214.7 213.5 215.5 216.8 214.6 218.6 222.3 221.7 224.1 229.1 236.9 244 254 262.2 270.1 277.9 283.1 288.6 293.3 298.9 303.7 306.7 310.4 313.7 314.9 316.8 319.7 321.1 323.6 327.8 330.8 331.8 333.2 334.3 334.8 337.9 340.4 342.6 343.5 344.2 342.8 341.2 338.3 336.9 335.6 333 328.9 322.8 316.8 310.6 304.6 297.1 291.3 286.4 279.7 273.9 267.2 258.4 254.6 250.5 246.2 240.8 233.6 227.5 220.6 216.5 214 212.7 210.1 203.9 198.3 192.7 185.8 179.1 173.4 170.5 164.1 160 161.5 165.4 168 169.6 178.6 185 173.6 168.5 163.4 160.5 154.3 141.8 139.5 132.6 129.6 123.1 126 135.4 139.9 148.5 150.8 157.8 165.8 168.6 174.8 179.9 186.5 194.4 199.7 202.8 205.5 208.9 210.7 213.3 214.5 215 217 217.3 218 215.5 214.4 211 203.2 196.1 182.6 164.9 153.6 143.5 126.3 117.2 106.5 99.6 103.3 104.2 115.4 120.4 124.4 118.5 128.5 136.4
574.6 589.1 601.2 612.2 613.6 620.2 627.3 637.5 632.5 627.1 614 609.7 606 604.8 607.4 609.5 607.8 573.5 532.8 509.3 502.7 500.4 453.9 400.7 352.5 334.6 325.8 328.8 325.8 326.9 325.6 333.1 336.8 342.1 347.2 354.5 360.5 362.9 385.5 396.2 358 330.7 292 262 237.9 224.3 216.5 209.5 200.9 197.8 198.7 197.1 192 187.1 191.9 197.2 205.1 210 208.1 206.3 207.4 211.3 212.6 210.7 211 211.5 211.7 214.6 215.6 216.7 223.1 231.4 240.9 249.5 258.9 267.2 274.5 281.6 286.7 292.8 298.4 303.6 308.9 311.7 314.9 316.8 318.5 320.6 324.1 324.5 326.2 330.3 332.8 334.4 337.5 339.2 343.1 346.6 350 352.4 351.2 350.8 349.4 347.3 346.4 343.6 340.1 336.4 333.2 326.8 319.4 311.2 304.9 299.6 293.4 288.2 283.8 275.8 268.2 262 259.6 255.2 251.5 244.2 236.2 231.3 222.8 219.4 216.8 214.6 210.8 205.7 200.7 195.3 187.5 179.9 171.9 169.5 166.4 161.2 160.5 162.9 163.2 172.4 173.6 171.6 164.2 160.2 157.2 149.6 144 135.7 128.7 126.8 121.8 121.1 119 121.2 125.1 131.7 131 140.8 150.4 159.4 165.5 166.8 174.2 177.9 185 191.3 195.3 197.7 199.1 202 202.5 205.2 204.7 204.5 205.3 204 202.6 201.5 195.3 188.2 179.8 165.4 156.2 145.4 130.5 118 107.9 99.2 101.6 102.8 107.6 112 115 115 132.2 137.5
557.1 576.5 592.8 603.5 610.5 618.2 623.8 632.1 626.8 622.6 611.5 604.6 598.8 598.3 600.6 601.2 594.4 554.2 510.8 485.7 471.9 468.3 443.8 386.2 345.1 334.2 326 328.8 328.8 328.7 325.4 327.6 340 341.9 343.3 354.8 359.3 360.5 386.5 393.7 357.1 305.2 269.6 244.4 228.3 220.5 214.6 207.7 198.5 191.1 190 190.3 189.2 187.8 191.6 194.2 200.7 211.8 210.1 203.3 202.2 203.6 206.3 206.2 207.9 206.9 207.6 210.1 212.4 216.5 224.5 235.3 244.4 254.3 262.4 271.3 278.7 283.7 289.6 297 300.6 306.6 310.4 313.3 316 318.7 321.6 324.1 326.8 329.4 330.2 331.3 335.2 341.3 344.4 348.4 352.7 357.6 359.7 360.4 359.4 357 355.4 352.5 349.4 346.4 343.9 339.4 334.5 328 321.5 313.3 306.3 300.5 294.3 288.9 282.4 276.1 269.2 265.5 262.1 258.2 254.2 248.9 240.3 232.8 227.8 224 220.7 217 212 206.8 202.1 196.3 188 178.1 178.8 172.1 165 156.9 157.3 158.4 166.5 170.8 170.9 160.1 158.1 154.5 151.1 142.3 133.8 129.6 124.2 121.3 117.9 114.3 115.7 113.8 113.3 114.6 116.7 121.8 129.4 135.5 145.4 149.7 156.1 163.9 168.7 173.6 180.5 185.3 188.8 190.3 191.8 193.9 194.7 194.6 194.6 193.8 193.1 191.8 185.4 180.3 173.1 167.3 158.3 146.7 134.1 121.6 110.7 98.4 100.9 102.1 104.5 110.1 112.2 126.2 132.1 136.2
542.8 562.5 579.8 592.4 607 612.2 617.6 625.8 619.6 615 606.3 595.3 592.5 592.5 595 595.2 580.8 533.4 500.3 477.3 454.6 434.5 421.6 382.6 349.4 337.9 328.4 328.2 328.8 327.7 325.8 327.7 334.9 334.5 334.3 341.8 352.9 357.2 374.7 364.3 322.4 279.4 253.5 235.6 223.8 218.7 213.8 207.5 199.7 193.2 189.3 187.9 188.2 186.2 189.4 193.1 198.8 204 206.8 202.6 196.6 197.7 200.6 201.9 202.2 203.7 208.5 211.7 216 223.3 232.4 242.8 250.6 259.7 266.7 274.4 281.1 285.6 293.3 300.6 302.9 308.3 312 315.6 319.1 322 324.4 327.2 329.1 331 333.8 338 343.1 349.2 353.4 357.9 364.4 367.3 367.5 365.9 364.7 362.4 359.8 356.1 352.2 348.5 344.4 339.4 334 327.1 320.1 313.4 306 300.6 294.8 286.8 280.2 277.3 272 266.5 263.5 260.4 256 249.9 243.7 236.4 230.5 228.2 223.8 219.4 214.2 206.5 197.7 192.7 192.8 188.4 182.9 172.4 168.4 160.7 159.4 151.9 156.6 158.2 154.6 148.5 146.8 145.4 141.6 136.2 129.3 118.3 116.3 113.6 113.5 111.8 112.8 113.6 106.3 106.8 104.6 108.5 111.5 116.7 122.5 128.4 134.5 142.6 147.9 156.2 161.1 170.7 177.2 179.6 182.7 181.2 182.5 183.5 182.9 183.8 182.7 182.2 178.2 172.9 167.2 161.1 152.8 143.5 133.1 122.8 109.1 97.6 98.8 96.8 99.5 111.3 118.4 125.5 129.6 134.7
531.7 549 569 581.7 596.3 604 610.2 614.4 612.4 608.4 599.6 589.1 584.4 586 587.5 592.9 572.6 534.8 502.8 478.6 448.3 431 407 381.4 363.2 349.1 336.2 331 328.4 329.4 325.8 328.6 323.9 323.6 321 320 334.8 350 368.9 352.9 324.3 298.4 262.5 243.4 222.5 218.2 215.1 209.9 203.6 198 192 187.9 186.5 186.1 187.6 189.2 194.5 200.2 201.7 198.5 193.1 193.6 197 198.6 200 206.9 211 215.2 221.7 231.6 240 248 253.5 261.9 268.4 275.2 279.7 287.7 296.7 302.3 306.1 311 313.6 318.2 321 323.5 325.8 328.2 330 333.1 337.1 344.8 350.6 355.5 362.4 368.9 374.5 376.9 375.4 372.9 369 366.8 363.3 359.4 355.3 350.1 344.9 339.4 332.3 323.5 316.4 309.9 304.1 297.4 290.7 284.6 280.1 276.9 272.3 267.2 264.1 260.8 257.2 252.3 246.5 239.2 234.1 230.5 226.3 219.2 214.3 211.9 207.7 201.8 195 188.6 182.3 179.2 171.2 165.9 162.8 156.8 152.5 140.1 143.8 142.9 140.4 136.4 131.9 123.5 118.2 121.1 121.6 118.7 115.5 113.7 111.9 108.1 108.5 107.7 106.1 102.9 103 102.1 105.7 111.7 117.5 123.8 126.9 133.8 141.9 154.3 158 163.9 168.6 173.6 167.8 168.1 169.3 170 170.1 168.2 169.1 163.2 160.5 154.1 146.3 135.8 126.4 116.2 103.9 90.4 90.4 99.2 101.8 110.2 116 122.6 126.8 133.1
520.9 535.9 550.3 566.6 582.8 595.8 603 603.2 601.8 597.4 591.9 580.4 574.6 574.6 578 582.4 566.3 554 519.9 490.2 458.1 437.1 415.5 393.5 372.4 358.4 345.6 337.9 334.3 328.5 327.1 318 315.6 308.8 302.8 299 308.1 341.5 362.6 356.7 340.8 292.6 261.2 238.6 225.7 220.7 217.1 212.1 207.8 202.2 197.1 192.1 187.2 184 186.7 187.2 189 194.6 195.3 195.5 191.3 188.4 189 195.5 203.9 208 213.6 218.1 225.9 236.3 246.3 249.6 255.8 261.9 265.6 272.7 280.2 289.3 297.9 304.6 308.5 311.3 316.9 319.3 322.2 324.3 325.3 328.2 331 334 340.6 348.6 356.8 364.7 372.1 378.8 383.6 385.4 383.3 377.8 373.5 370.2 366 360.9 355.9 349.5 343.7 337.5 330.5 323.2 315.7 309.3 302.3 295.4 288.3 283.1 279.8 275.4 271.3 265.9 263.2 260.7 257 252 247.9 243 236.9 229.8 228.5 224.4 219.8 216.7 211.8 204.3 196.7 192.2 191.6 187.2 180.6 177 171.2 163 154.3 153.3 149.2 143.1 126.3 129.2 137.1 132.3 130 128.4 128.5 125.9 121.6 118.6 114.9 112.2 111.2 109.4 110.3 110.3 106.7 106.9 101.6 100.1 102.9 110.4 114.3 120.8 129.1 136.6 138.6 145.3 150.4 159.4 158.7 158.9 154.6 157.9 157.6 157.7 155 153.1 150.5 143.7 135.1 129.3 118.9 114.2 93.1 101.1 99.1 99 99.9 106.5 112.4 117.6 122.5 130
513.9 528.8 539.4 552.5 572.4 584.7 590.5 592.2 589.2 583.5 577.5 571 565.6 563.5 567 568.6 558.6 548.4 535.9 506.5 478.3 450.7 432.5 401 382.3 367.8 356 346.7 335.5 328.8 325.4 322.9 311.4 298.6 292.5 283.5 282.5 289.7 326 337.7 309.1 270.1 249.8 228.2 221.1 227.7 221.6 214.5 210.3 206.1 201.1 195.9 191.2 183.3 185.9 186.7 187.3 190.3 191.4 190.7 188.8 187.8 189.8 198.9 207.4 210.8 214.4 224.5 230.6 241.1 245.9 249.4 253.8 259.2 262.3 269.6 279.1 290.3 298.4 304.1 307.4 312.2 318 320.7 322.7 324 325.7 326.8 331.6 338.6 345.3 353.5 364.4 374.5 380.8 383.6 388.4 389.1 386.9 381.3 376 371.8 368 362.8 356.4 350.2 343 335.2 327.1 321.2 315.2 308 301.7 296.4 289.3 282.5 278 274.1 269.8 266.2 262.5 258.8 255.9 252 247.6 244.9 240.9 238.2 232.6 227.8 225.1 219.8 214.4 210.5 205.9 202.9 197 194.5 190.8 185.5 178.9 170.2 157.1 152.3 143 147.5 148.6 146.7 144.3 139.2 143.8 141.3 139.6 138.7 129.7 126.8 122 119.5 116.1 114.6 112.5 110.9 110 108.4 106.5 99.7 98.9 97.6 101.9 106.5 114.7 121.9 125.2 127.3 131.3 140.4 143.1 147.6 146.2 145.5 144 144.1 143.9 142.5 140.2 135.2 129 121.2 115.2 109.7 88.4 100 98.1 98.7 99.1 100.3 106.8 113.7 119.1 127.5
507.1 520.7 531.3 541.9 556 568.1 574.7 580.1 578.3 573.5 565.3 561.8 555.9 555.1 555.2 554 550.3 538.5 531.5 519.1 505.1 475.7 447.8 420.7 391 376.7 363.8 352 337.9 329.5 326.5 325.6 317.8 303 288 269.8 264.2 265.3 273.8 286.5 270.3 251.2 231.3 218.3 213.5 217.2 215.8 212.6 211.5 207.3 203.5 198.6 192.3 182.4 184.9 185.7 184.5 185.4 184.9 184.6 183.9 186.1 188.3 197.2 201.6 208.8 216.3 227.1 235.7 237.4 241.5 250 252 254.2 259.4 267.8 279.6 290.4 299.7 305.7 309.5 312.3 315.5 320.4 322.5 324.2 325.5 328.3 333.8 342.6 350 359.7 372 382 387.8 389.8 388.8 389 388.6 385.3 380.3 373.9 370.1 364.7 358.9 352.4 344.4 335.5 325.2 317.8 312.4 305.9 299.8 294.2 288.1 281.6 277 271.6 267.5 265.3 264 260.3 256.1 251.1 250.8 248.3 245.5 242.1 237.1 235 230.6 223.8 221.6 216.9 212.4 208.5 204.2 203.6 200.3 195.8 192.5 183.8 178.5 171.4 162.7 163.5 160.1 158.1 152.8 157 154.4 152.2 149.5 142.4 138.7 132.9 131.1 125.9 124.4 122.1 120.2 117.2 115.8 113.1 109.8 106.4 102.9 98.6 97.2 99 104.2 108.2 112.8 115 115.6 119.4 124.4 132.2 135.6 132.7 129 132.4 130.7 127.8 126.8 120.2 117.7 113.7 108.4 106.3 95.2 92 96.9 98.2 98.4 98.5 101.8 109.4 115.2 123.3
502.7 514.1 525.5 536.1 548.9 558.8 563.6 565.7 564.4 557.7 553.6 551.2 545.4 543.9 541.7 542.3 539.6 533.7 526.7 516 502.5 489.1 471.3 442.1 409.8 384.1 371.4 357.5 344.6 334.2 328.3 324.6 317.4 304 289.3 271.5 249.3 248.7 246.3 248.8 241.9 231.6 215.7 208.1 205.2 206.5 206.8 208.4 208.2 206.6 205.3 198.8 191.3 184.2 186.5 186.1 184 183.4 182.6 182.3 183.2 184 188.8 196.6 200.6 206.4 217 228.7 233.6 237.8 238.5 246.1 245.9 251.9 259.9 269.5 280 292.3 303.2 305.5 308 311.4 317.1 319.7 320.6 323.1 325.5 330.6 338 346.7 355.6 366.3 379.4 389.5 392.7 393.6 392 391.2 390.1 387.4 382.7 376.4 371.9 366.1 360.1 352.8 344 335.3 325.4 317.4 311 305.6 299.4 293.4 287.7 282.1 275.7 271.1 268.2 265.9 263 258.8 255.2 256.7 255.1 253 250.9 246.9 244.9 241.9 235.8 231.3 225.3 226.5 223.5 220.3 215.6 212.7 209.6 206.5 200.1 199.5 193.1 175.2 181.9 176.7 173.8 164 167.7 163.7 162.3 158.6 156.4 153.3 146.3 142 139 137.3 132.8 130.6 129.6 128.1 129.8 123.9 117.3 111.6 105.6 103.5 97.9 95.8 96.6 99.8 103.5 102.5 103.9 103.8 109.9 113.9 121.1 120.2 118.1 121.2 117.5 113.4 112 108.2 103.5 102.4 98.2 97.6 94.3 83.9 96.4 97 97.3 97.6 98 102.2 107.8 118.4
