ncols 200
nrows 82
xllcorner 310000
yllcorner 774300
cellsize 50
697.1 704.8 704 695.1 683.5 674.7 661.3 646.2 646.9 656.7 668.8 684.1 700.1 717.3 730.1 741.2 755.4 761.8 762.4 762 755.1 748.5 737.7 729.3 721.8 715.6 709.2 707.3 711.6 711.8 714.1 717.1 718.1 718.7 726.4 734.1 739.3 745.1 752.4 751.9 754.6 754.1 753 752.7 750.5 753.2 756.1 757.2 757.8 759.7 763.5 762 764.2 771 779 789.1 798.9 807.5 817.4 825.3 822.8 816.6 807.6 794.4 778.7 763.1 746.7 728.2 714.7 703.8 702 699.9 694.6 677.6 661.6 647.8 641.6 636 631.5 629.6 636.3 650.9 662.4 670.4 681.7 693.5 704.2 715.4 725.1 721.7 717.1 718 714.1 709.8 708.5 704.6 700.8 694.5 683.2 698.1 709.7 723 736.1 744.8 752.7 758.6 763.6 763.6 760.1 759.1 759 757 754.7 747.9 735.4 723 710.6 700.4 689.5 694.7 707.4 719 733.2 748.4 769.8 792.2 814.2 836 854 867.4 877.7 881.6 887 894.7 901.7 901.5 898.8 880.3 847.7 817.1 798.8 789.2 781.1 775.3 768.2 771.9 783.1 797.4 811.7 829.1 850.5 878 907.8 940.9 968.3 980.4 982.7 982.6 980.8 978.7 972.2 970.7 971.7 971.9 973.5 974.3 972.7 971.8 971.8 972.1 972.6 975.1 974.2 971.8 968 959.1 954 947.5 944.3 943.2 943.6 944.6 945.2 944.3 939.1 930.6 924.1 917.1 908.5 888.3 879.1 870.4 865.2 861.1 852.5 852.2 848.5 845 843.5 844.1
710.8 717.7 716.2 705.1 693.5 679.5 667.9 654.4 647.6 659.7 668.1 680.6 695.7 715.6 728.8 742 753 760.6 770.3 772.3 769.7 763.5 750.6 740.9 734.5 727 723.6 721.6 722.4 721.5 721.8 721.8 724.1 724.8 724.5 725.5 731.4 735.9 742.2 747.4 749.5 751.9 750.8 752.4 757.8 762.4 765.4 765.7 767.3 770.6 774.3 773.7 770.8 775.3 781.9 788.4 796.6 807 816.8 825 826.3 823.4 816.7 806.3 789.5 770.9 751 733.2 718.9 710.4 702.3 696.3 691.2 683.5 670.3 649.8 642.7 641.1 635.4 634.6 644.5 658.6 671.1 678.5 685.9 693.8 706 716.9 727 727.8 726.9 727 721.8 718.8 713.6 708.6 702.3 694.4 692 704.7 718.3 734.4 750.6 759.1 767 770 774.1 774.4 771.3 769.4 768.5 768 765.7 759.3 749.5 734.4 719.8 708.9 699 696.7 707.1 717.2 731.9 746.7 767.6 783.1 802.7 825 843.4 857.9 868.1 876.3 883.2 890.4 899.4 903.1 904.2 896.3 861.4 830.3 808.2 796.9 789.5 783.5 778.1 774.5 785.2 797.7 811 828 850 872.6 903.2 936.3 965.6 979.2 978.8 975.3 974.9 970.9 968.9 967.1 966.8 967.4 966.9 966.9 966.6 965.6 965.9 966.6 967.3 967.9 966.1 964.1 959.7 953.3 946.5 939.5 936.5 935 934.5 933.2 932.7 927.9 915.6 915.1 914 903.7 887.5 879.3 870.1 860.1 857.4 854.5 850.9 848.1 844.2 840.1 841 839.3
723.3 727.1 726.4 717.9 699.9 685.9 674.1 660.8 654.1 658.4 669 681.8 693.5 709.1 720.9 734.7 746.4 756.8 772.1 780.8 784.2 777.5 769.6 756.6 748.3 739.3 736.1 732 730.5 731.6 730.7 731.1 731.5 728.9 729.3 727.7 731.5 731.8 733 740.3 741.7 744.7 750.7 756.1 764.2 769.3 773.8 777 781.1 783.2 786.4 786.4 783 783.4 787.3 789.6 795.8 804.7 816.3 824.3 830.8 830.2 823.6 813.7 797.5 774 753.7 738.5 724.1 712.7 701.8 693.4 691.5 682 669.4 662.4 647.1 644.6 638.9 639.9 651.6 662.9 672.3 679.7 691.1 699.6 710.5 725.1 733.5 733.8 735.1 733.2 729 725.2 717.9 711.2 705.1 696.9 702.9 711.3 725.6 746.9 764.3 772 777.7 779.3 783.6 784.2 781.3 778.6 778 778.4 778.1 773.5 763.9 748.8 730.3 717.6 707.9 699.3 703.7 714.3 729.7 744.9 762.2 778.4 791.9 811.6 829.4 841.8 851.9 862.9 874.8 884.1 895.8 902.8 906.7 904.1 876.8 841.6 819.7 807.6 798.6 792.3 787.9 785.6 787.1 798.9 812.1 828.6 846.3 870.2 900.4 933.6 963.9 971.2 970.7 969.2 968.7 967.4 967.3 967.1 964.8 961.1 959.9 959.7 959.5 958.3 959.4 961 961 961.2 960.8 958.3 953.8 947.3 939.9 933.9 927.4 922.2 921.5 919.3 914.8 908.8 903 899.6 902.6 885.7 879.9 870 864.2 856.9 853.6 852.5 849.5 845.6 843.7 840.5 839.4 839.1
734.4 737.9 736.4 726 707.3 691.1 678.9 669 662.6 656.9 667.6 677.9 690.6 698.2 713 726.6 738.9 754.2 762.2 777.4 782.3 784.7 774.5 768.1 762.3 756.4 748.8 746.5 744.5 741.4 740.2 741.5 740.3 738.8 737 734.6 736.8 734.9 738 739.2 742.8 747.5 753.8 762.5 769.4 777 785.3 791.1 795.8 799.2 801.4 801.3 797.3 795.6 798.7 805.3 810.6 813.9 821.1 832.8 839 837.3 827.9 814.8 793 772.5 756.4 742.6 728.9 717.5 707 702 690.1 686.1 681.4 663.8 648.8 647.2 643.6 646.9 654.7 661.8 672.4 682.1 693.8 701.6 708.9 727.1 739.4 740.7 742.4 740.2 736 730.5 723.1 714.3 707.6 701.9 706 715.1 732.9 757.1 773.7 782.4 785.7 790 792.9 793.5 790.4 787.4 788.9 790 789.9 787.5 776.5 761 743.6 727.6 715.7 706.3 701.9 708 723.4 738.4 754 770.1 784.3 795.5 814.7 826.3 837 846.7 859.5 872.7 888.2 900.4 906.7 908.7 888.1 856.7 833.3 818.2 809.3 802.4 798.9 794.7 796.4 803.3 813.8 828.2 845.1 866 894.2 927.1 952.3 959 963.1 966.9 969.5 969.2 967.8 965.8 961.4 955.1 953.5 953.3 952.4 953 954.2 954.2 954.2 956 955.4 953.4 949.4 944.2 937.6 930.1 919.1 912.9 906.8 903 899 896.3 892.2 887 883.1 881.5 875.7 869.7 860.3 853.3 850.9 849.2 847.7 845.2 843.8 841.9 840.8 835.3
743.5 747.4 747.8 739.9 718.2 697.9 686.4 678.7 672 662.3 665 673.5 678.6 692.2 704.4 715.6 725.6 735.2 747 759.4 773.8 784.1 785.4 777.8 771.7 764.6 763.9 758.9 758.3 756.8 754.6 751.9 751.7 749.3 746.4 744.5 743.8 742.7 745.5 748.5 750.5 754.5 757.4 767.8 774.5 785.8 797.8 806.4 809.6 813.7 816.2 815.9 809.6 806 807.2 817.9 823.4 829.7 840.2 847.7 847.1 839.9 830.7 812.2 792.5 773 759.2 745.1 734.1 722.2 713.8 707.1 696.1 685.8 683.6 669.8 654.1 649.1 645 644.9 652.5 663.4 671.8 680 692.1 702.6 715 724.6 737.6 745 749.4 746.9 741.8 734.1 727.4 719.5 710.1 702.3 711 720.7 736.1 759.3 781.1 786.9 791.9 797.2 800.3 802.4 799.4 797.9 798.3 800 800.7 797.8 787.9 771.6 753.4 737.8 723.7 712.6 709.3 705.7 715.7 728.6 743.8 760.7 773.4 787.1 803.1 812.8 821.7 831.8 846.3 861.3 880.8 897.2 905.6 910.3 902.8 871.6 847.2 831.6 821.1 815.6 809.8 806 807.6 813.5 820.9 831.7 849.2 867.6 895.3 924.1 944 955.7 962.2 968 969 967.5 966.3 963.7 957.4 946.8 945.2 947 945.2 946.5 949 948.1 948.7 950.4 950.7 949 946.4 942 937.3 928.5 919.4 907.8 896.4 889.3 887.8 884.9 879.4 874.8 876 874.9 871.8 867.9 861.8 855 851.1 849.4 848.1 845.6 844.2 839.3 837.5 831.9
749.7 757.9 759.6 749.6 727.2 712.5 698.4 686.8 679 671.4 680.5 685.7 690.5 690.8 693.3 701.8 713 723.1 733.5 744.4 757.1 772.6 780.6 781.4 780.1 778.3 776.9 776.6 774 772.1 770.5 767.6 763.7 760.6 756.2 752.3 750.6 749.5 751.4 754.5 758.6 761.8 766.7 775.3 783.4 796.4 810.2 820.1 828.6 831.7 830 826.1 822.8 818.4 806.3 820 829.4 835.4 842.6 845.2 843.3 841.1 834.2 818.2 793.9 777.3 763.4 748 737.9 728.4 719 711.4 702.7 692.6 678.3 675.2 667.2 649.2 647.6 645 648 655.2 667.6 679.8 689.2 701.6 719.7 728.1 739.5 749.8 752.8 752.9 747.2 739.2 730.5 721.8 709.6 705.9 712.7 726.5 737.4 763.3 786.2 789.7 795.4 801.5 806.5 810.5 809.5 809.2 809.1 810.2 809.3 807.6 798.4 780.3 764.3 746.2 732.4 721.4 715.1 711.4 712.7 722.9 733.8 747.8 762.1 774 784.7 794.4 803.5 816.8 832.3 853.9 872.5 891.9 903.9 914.9 918.4 888.1 861.5 849.1 838.4 827.8 823.3 817.7 817.2 819.9 827.5 838.8 854.1 874.3 898.7 925.4 945.1 954.7 961.5 967 968.1 967.2 965.9 963.2 951.6 939.2 938.7 938.1 938.2 943.6 943.7 943.3 944.4 945.6 946.5 945.9 944.4 941.4 935.9 929.5 918.6 906.8 898.7 889.3 881.9 879.7 877.6 874.7 873.5 872.9 868.2 865.2 861.1 855.7 852.5 851.1 848.5 847 842.9 838.9 835 831
757.1 764.7 766.3 753 740.6 727.7 709.8 696.9 687.8 681.2 688.4 694.6 698.5 704.4 708.4 708.8 708.3 717.6 724.8 735.4 749.1 764.6 771.5 784.1 787.4 789.5 789.7 789.6 791 790 788.1 784.3 780.1 771.5 766.8 760.6 760.1 758.8 757.9 760.2 763.4 768.6 776 784.5 796.2 806.7 819.5 834.5 843.8 846.4 839.6 834.2 825.5 822.1 812.7 811.1 826 834.4 837.8 840.1 843 844 834.4 819.4 800.5 782.3 767.3 754.3 743.7 734.4 725.2 716.7 709.3 700.5 688.3 681.4 669.1 655.7 648.8 650.2 649.2 656.6 667.4 681.4 693.6 705.7 717.5 733.6 745.1 753.2 757.2 757.5 753.6 743.6 733.8 719.1 713.4 709.5 716.9 724.4 734.5 754.5 782.8 783.1 798.9 807.8 814.6 820.8 818.1 820.1 821.7 820.2 816.7 812.9 807.2 790.8 775.6 757.8 742.9 731 720.9 717.1 719 723.6 729.8 742.2 753.2 764.9 777.9 788.5 798 809.1 829.4 847.4 866.8 886.8 904.8 919.2 924.7 905.4 874.3 858.7 847.2 839.9 836.6 830.1 827.8 832.1 837.9 847.5 862.5 879.7 904.5 929 945.6 954.9 961.1 965.5 965.7 964.9 959.3 956.8 943.6 936.2 933.9 932.6 935 936.8 936.9 937.4 940.2 940.8 943.3 944.1 943.5 939.5 935.7 930.3 924.6 915.5 903.2 890.1 884.2 878.5 874.1 872.3 871 868.2 866.7 864 860.2 857 854 850.6 848.7 846.3 843.4 839.6 835.7 830.4
770.6 778.3 779.1 770.5 751.6 737.8 720.2 706.4 695.6 692.2 698 703.6 709.8 711.8 713.9 719 719.8 714.4 723.8 731.6 739.8 752.2 765.2 776.4 790.3 795.6 799.3 799.7 803.2 804.3 801.9 799.9 793.1 782.7 775.8 771.3 767.7 766.1 765.5 768.2 770.6 775 784 794.3 806.2 818.1 833.6 848.2 852.8 850.2 843.5 831.7 813.8 802.1 792.6 791.3 815.1 827.2 838.5 850.5 850.6 847.9 836.9 822.4 804.2 787.7 771.7 761.5 750.6 741.9 733.1 723.3 715.2 706.7 700.7 688.8 675.1 660.5 650.3 650.8 650.7 653.9 665.9 679.9 693.4 704 724.5 737 750.5 755.6 758.7 757.8 756.1 747.4 735.6 724.4 719.1 712.7 714.8 721.3 730.4 744.5 762.7 782.1 801.3 811.7 818.4 828.6 830.3 831 831.4 829.1 826.1 821.9 815.7 803.4 786.1 767.1 752.9 737.1 727.3 726.6 729.5 731.1 736.6 747.6 760.6 771.9 783.5 797.8 808.7 821.4 830.4 845 864.5 884.5 901.9 917.6 925.5 920.3 891.8 873.3 865.1 858.8 852.4 847.7 848.5 847.8 854.3 865.9 878.9 895.1 916.7 933 946.9 956 961.1 964.4 961.6 959.3 953.5 943.2 937.7 933.2 932.4 924.8 928.4 927.5 928.6 934.3 936.4 937.1 939.8 943 943.4 941.7 938.8 936.1 930.6 922.2 910.2 896.5 888 879.8 873.3 869.9 868.8 866.6 863.3 859.8 859.2 856.2 852 850.6 848.7 845.7 844.1 841.2 837.7 832.6
775.5 784.2 785.9 782.6 767.6 744.3 726.7 712.5 703.6 704.5 709.6 712.8 719.9 722.4 724 724.5 726.4 727.4 721.1 728 737.5 744.1 753.3 764.9 774.2 792.8 802.8 807.1 811.4 814.9 813.3 812.3 806.2 794.6 789.1 783 777.8 776.5 772.4 773.3 777.6 782.8 792 804.9 816.3 829.2 839.5 856.9 862.5 845.6 838.5 812.1 792.3 781.1 779.6 776.4 794 818.6 840.8 861 863.7 858.9 845.2 827.6 811.1 793.8 782.7 771.8 761.6 752.4 742.5 734 724 712.8 707.5 696.2 680.9 666.8 652.9 651.2 650.6 657.1 663.1 679.1 692.5 708.7 727.7 741.9 752.6 757.9 759.1 757.2 760.5 750 738.7 728.1 722.4 713.8 711.9 717.6 727.5 741.9 760.6 777 793.2 803.5 821.9 836.2 839.3 841 841 837.8 833.9 829.5 822.4 811.5 795.6 775.6 760.4 744.2 733.1 737.4 739.1 736.8 745.1 754 768.7 782 792.4 807.6 823.6 837.3 849.7 851.6 867.2 884.2 904.8 921.2 929.9 933.7 916.4 894.1 884.7 880.7 879.2 873.1 871.3 870.8 877.7 887.8 899.8 915.2 927.3 939.9 949.8 956.7 958.4 961.6 959 953.2 944.5 935.6 929.8 928.2 927.2 915.1 915.3 914.1 922 930 931.8 933.5 936 940.4 942.2 943.1 943.4 939.7 934 926 917.2 903.4 894.8 885 876.4 871 867.3 864.8 862.6 858.8 855.4 853.1 849.8 850.1 847.1 844.8 841.5 839.9 838 834.6
781.6 788.5 792.8 790.5 776.1 758.5 737.6 717.7 716 716.8 719.9 728.3 732 734.9 734.5 734.5 733.4 734.2 736.1 734.1 733.9 741.9 749.5 761.6 772 784.4 803.7 810.2 817.2 821.5 823.7 823.2 819.6 811.2 803.8 794.5 788.1 788.8 784.7 784.6 788 796 802.7 813.5 823.4 834.8 844.7 853.9 861.2 840.4 818.3 790.5 767 754 760.2 764.9 777.6 805.6 834.1 863.9 866.4 863.5 857.8 840.7 823.1 809.2 794.7 784 774.9 763.7 755.3 745.7 735.8 722.2 711.5 703.2 693 679.8 661.6 651.7 651.1 660.6 668.5 681.3 692.3 711.8 729.6 745.4 755.3 761.9 761.4 761.8 756.3 751.3 742.8 730.3 722.6 716.2 715.7 718.9 732 743.8 760.8 780.7 791.3 808.5 831.7 843.5 850.8 850.1 847.6 845.5 842.2 837.2 828.1 817.8 802.1 783 764.7 750.7 738.3 746.7 749.1 748.8 754.7 762.3 775.2 789.3 800.5 815.3 832.3 849.2 869 875.4 880.3 887.5 911.4 924.9 934.4 942.6 941.4 922.4 909.1 904.5 903 901.7 900.6 899.9 904 916.1 924.4 928.1 934.8 944.4 952.2 953.5 954.6 954.6 954.1 944.1 935.2 926.4 926.2 925.7 922.2 913.9 902.2 902.1 916.5 924.3 926.9 928.7 933.3 936.7 940.4 943 944.1 941.6 936.7 928.4 920.5 910.6 901.5 889.4 880.1 872.7 865.6 863.1 858 856.7 856.1 855.2 852.2 849.9 848.2 846.4 844.1 842.7 839.7 836.2
786.3 793.5 796.1 795.1 786.1 764.2 742.6 728.3 729.7 729 733 744.6 749.8 751 750.1 748.5 745.1 746.4 743.4 743.8 742.5 739.2 750 760.3 773.4 785.1 798.2 810.2 819.7 825.2 827.6 826.8 826 820.3 814.9 810.1 799.1 796.8 795.8 799.1 801.4 805.8 815.7 823.1 833.5 846.5 855.7 860.4 855.5 823.6 785.7 764.5 747.6 735.4 745.9 750 762.8 789.9 814.6 841.5 855.7 860.9 863.3 855.5 845.2 827.1 813.1 800.2 786.3 778.9 770.8 759.5 747.6 733.5 722.4 710.7 701.7 685.7 671.5 655.7 652.2 658.7 666.3 679.8 692.6 714.7 730.8 746.6 757.9 764.8 762.9 762.9 759.4 754.6 747.7 736.9 727 722 719.7 722.3 734.1 742.7 754.6 775.8 792.3 817.1 830.4 843.8 854.7 856 854.2 851.6 848.9 843 833 823.4 807.9 788.6 770.5 757.3 745.3 755.8 759.7 759.2 761.9 772.3 785.6 796.9 810 823.9 840.5 859.4 879.3 894.4 898.9 907.4 914.4 932.1 941.5 949.3 951.1 945.8 941.9 936.8 937.5 933.9 934 932.7 932.5 934.2 939.4 939 944.4 945.8 948.1 950.5 951.7 948.3 945.6 940 927.6 922.5 922.6 917.9 916 909.8 900.5 895.2 906.4 915.3 918.8 925.6 930.4 933.6 938.3 942.4 944.4 943.4 938.7 931.3 924.8 917.1 908 894.3 884.8 876 868.4 864.3 862.8 859.5 857.9 856.4 853.3 850.3 848.2 846.5 844.1 842 839.1 836.8
793 799.5 802.5 803 791 768.5 750.2 746.3 747.4 746.8 751.2 759.5 766.2 768.1 766.6 766.2 764.6 763.6 757.7 754.9 753.3 752 746.9 759.2 773.9 786.8 797.2 808.7 818.6 826.9 831.3 832.5 830 825.1 823.6 821.3 815.2 811.7 808.3 809.5 817.4 822.9 828.2 834 844.9 855.2 865.9 860 814.9 787.8 761.1 741.7 729.8 715.6 733.2 731.7 754.1 774.9 799.5 826.1 849.2 853.5 855.3 852.7 850.9 846.8 834.5 815 802.3 793.4 786.4 775.9 763.1 745.5 730.6 719.9 708.6 697.1 680.4 666.1 653.6 655.7 664.4 677.5 695.5 718.7 733.4 750.2 755.5 763.4 764 765.3 763 759.6 752.2 743.1 734.9 724.1 728.1 726.4 734.9 744 761.1 773.3 789.4 811.2 830.6 849.9 858.3 861.2 860.6 857.5 854.7 846.6 838.1 828.9 813 795.8 775.7 764.3 749.8 764.1 768.9 771.6 767.7 783.6 794.8 809.2 820.2 834 850.9 868.1 892.4 910.2 918.8 928.4 931.4 934.7 946.9 950.2 949 950.3 949.6 948.9 945.6 946.2 943.5 945.4 942.7 943.4 945.8 947.2 947.7 943.7 942.8 943.9 944.6 944.5 941.9 937.4 934.1 926.4 916.9 911 907.5 902.1 894.2 887.4 897.2 906.9 916.6 922.3 927.6 930.5 936 940.2 943.6 943.3 939.6 932.2 928 918.9 909.8 898.1 888.4 879.7 871.4 868.2 865.7 863 860.7 858.6 855.4 853.6 849.6 847.2 844.7 842.7 839.6 835.5
798.9 805.1 809.2 808.9 800.8 778.6 760.7 762.5 767.6 773.6 775.2 779.3 778.8 785.7 785.9 785.5 782.2 773.6 772 766.5 766.7 762.1 758.2 755.5 766.5 785.5 797.5 804 814.4 823.6 831.2 834.2 834.4 834.4 828.7 830.2 829 825.8 824 825.2 827.9 831.3 833.6 842.7 852.3 869 868.2 830.9 799.8 767.6 741.6 723.7 715.8 706.4 714.7 724.5 744.3 764 787.2 814.1 837.6 841.9 841.9 841 848.2 850.7 849.2 839.2 827 818 805.8 794.9 778.4 762.9 743 729.7 719.6 708 690.8 677 655.9 655.8 663.8 675.2 697.3 718.2 733.2 742.3 752.4 761.4 763.9 765.9 767.3 760.7 756.6 743.1 734.8 730.9 732.1 735.6 740.6 749.1 765.2 780 793.9 819.8 837.1 858.1 864.5 866.7 866.6 863.9 859.5 852.3 845.3 833.9 818.5 800.5 783.2 770 758.4 771.5 777.3 781.6 783.7 792 803.2 815.9 831.2 845.6 865.3 881.3 907.1 925.5 933.2 938.1 943.3 944.6 947.5 949.4 948.5 949.9 950.7 949.8 950.1 947.8 949.1 946.7 947.3 944.8 948.3 952.9 952.2 947.1 940.9 938.9 936.9 939.2 939.8 938 933.4 922.8 914.7 905.5 901.1 892.5 886.3 883.2 892.1 903.8 910.3 919 924.2 928.4 935.4 938.5 942.9 942.4 940.3 934.1 928.6 920.6 911.4 902.9 893.8 886.4 879.9 874.3 872.8 869.5 865.4 863.2 858.7 855.1 853.3 850.4 846.9 842.9 840.3 836.9
805.4 812 816.5 818.1 813.8 791.7 778.7 784.2 787.7 791.7 796.4 800.2 803.6 807.6 807.4 805.9 802.9 796.9 791.4 790.4 786.3 779.2 768.8 762.7 765.8 781.3 792.3 804.3 812.4 817 823.3 828.7 833.8 832.9 834.5 838.5 839.6 837.6 837.8 841 849.3 845.7 841.9 846.9 865.5 875.6 844 811.2 780.4 754.7 734.5 716.8 705.6 695.5 697.1 715.4 733.3 749.4 771.3 799.6 819.1 828.5 829.3 829.5 840.3 849.4 855.1 861.2 851.4 841.5 833.8 819.1 802.3 777 757.4 740 730.4 718.2 704.1 686.7 669.7 660.4 664.1 670.3 698.8 721.5 724.7 735.3 749 755.1 760.9 763.7 770.3 766.6 756 743.6 740.3 740.9 740.2 737.7 746.1 759.2 770.6 786.1 807.8 828.6 845.9 860.7 871.6 872.4 872 869.9 864.4 858.2 850.4 838.8 822.6 806.6 788.6 778.4 766.3 779 786.3 792.8 798.6 799.3 811.4 825.8 841.3 856.6 874.3 892.5 919.8 938.6 943.3 947.5 950.7 951.1 948.2 949.1 951 950.4 948.8 948.6 947.6 944.5 943.4 945.6 946.3 946.4 947.8 949.1 949.4 948.8 943.6 940.8 939.8 936.4 930.9 934.5 927.9 915.8 906.1 888.2 893.8 884.5 879.3 880.1 887 898.6 904.4 915.1 919.8 925.3 935.5 938.8 943.5 943.4 941.5 937.7 932 922.8 915.5 909.2 902.2 895.3 888.4 885.6 880.9 876.7 872.6 867 862.4 858.9 856.9 853.5 849 844.8 842.7 838.6
813.7 821.1 823.5 827 824.6 809.2 796.7 804.3 813.1 819.3 826.2 829.2 831 837.2 840.8 838.2 834.7 828 820.9 815.2 806.3 797.5 783.7 774 767.7 780.4 793.5 805.4 813 811.5 815.7 824.3 831 833.2 836.2 842.5 845 846.5 848.6 849.8 858.3 855.6 851.3 852.4 863.9 841.7 810.3 782.1 759.2 733.7 715.8 704.3 694.8 693.6 682.6 699 716.8 734.7 754.9 779.2 802.7 809.8 818.5 823.8 833.6 845.3 860.7 873.8 872.8 866 854.9 840.4 819.9 793.9 774 752.4 739.6 729.5 714 696.7 682.4 666.5 663.1 673 697 713 717.1 731.1 744.2 747.7 753.3 756.4 762.5 766.9 757.1 745.8 743.2 744.9 742.6 743.7 753.9 766 777.6 798.6 810.4 834.7 855.2 869.8 877.7 878.3 877.3 875.1 871.3 865.1 856.1 843.4 827.7 812.8 796.8 785.3 776.6 788.2 796.7 803.3 811.4 812.2 820.6 835.7 850.5 864.1 878.6 904.1 935.2 951 954 955.4 955.9 955.9 952.1 950.5 949.9 949 946.3 943.6 940.9 936.1 937.6 937 938.8 939.8 940.4 939.2 941.2 941.8 942 944.8 944 943.4 938.4 928.5 916.3 908.7 901.4 890 880.4 873.3 870.6 875.5 883.3 892.8 898.7 909.5 916.1 921.6 935.5 940.5 943.9 944.6 943.4 940.5 935 927 919.2 913.9 907.8 900.9 898.3 893.4 889 883.4 878 872.4 866.3 865.3 861.8 857.1 854 849.4 845.6 843.1
820.4 827.6 834.2 836.3 837.3 828.4 814.4 815.4 829 839.2 848.9 854.5 859.5 862.5 862.4 864.3 857.3 847.5 837.2 828.8 815.9 803.5 790.6 777.5 776.9 781 794.2 803.6 809.8 812.2 815.2 820 826.5 833.9 839 843.6 848.4 859.1 854.2 852 849.9 849.9 849.9 854.6 850 817.6 792.9 764.6 741.6 722.8 704.2 692.6 683.5 679.4 670.2 683.8 701.9 719.3 736 759.1 779.9 791.6 806.3 814.2 824.6 839.8 859.9 876.7 884.6 885.7 872.7 855.2 835.4 814.4 791.9 770.2 750.6 736.8 724.3 708.6 691.6 673.5 664.4 667.4 692.3 704.1 714 722.3 735.6 738.5 741.1 742.9 748.4 755.1 758.7 747.4 744.4 752.3 751.4 748.1 761.4 775.9 791.4 807.1 812 835.2 857.6 876.1 881.4 884.4 883.9 882.4 877.6 873.1 865 850.1 834 818.7 803.9 795 782 795.2 805.6 815.7 821.6 824.3 829.5 843.6 858.3 869.7 886.6 914.2 948.7 962.6 963.3 963.6 961.8 959.3 954 952 948.2 948 942.8 938.5 936 930.9 927.5 925.1 923.3 919 924.5 928.8 932.2 934.3 941.7 940.9 940.7 940.9 935.7 926.3 912.3 902 892.2 877.6 860.7 858.1 860.8 870.1 879.9 888 897.2 907.7 914 923.2 935.1 941.7 944.6 946.2 944.9 942.3 937.7 932.2 924.3 918.1 912.3 907.9 905.4 902.5 899 891.9 883.3 879.3 869.9 868.1 865.5 860.9 858.5 855 850.2 846.8
829.9 839 845.4 848.7 851.4 845.7 833.3 831.7 839.1 849.3 857.3 869.4 873.8 874.4 877.2 871.9 868.4 860.1 845 835.5 818.4 802.7 792 784.2 786 787 793.8 799.8 804.6 808.4 814.7 822 829 836.6 840.7 847.7 850.2 855.8 854.6 852.5 856.5 852.2 853.6 856.3 854.6 805.2 773 748.5 722.5 708.8 690.6 677.8 671.8 665.6 663.1 670.2 690.8 707.3 721.6 741.9 762.5 775.7 796.9 805.9 815.5 834.4 854.7 874.6 887.7 895.1 881.7 869 855.5 835.2 809.1 788.2 765.1 747.6 734.9 718.5 701.6 686.1 665.8 670.3 687 698.2 707.3 713.7 721.3 723.7 727.1 728.2 734.1 741.8 752.2 754.1 750.3 757.6 752.6 757 773.2 788.1 803.8 809.2 815.2 828.8 849 872.6 888.4 894 894.3 891.6 887.7 882.8 874.1 857.7 841.9 827.1 812.1 802 800.2 802.3 813.5 824.9 832.7 838.4 833.9 850.4 863.3 874.5 893.8 923.7 959 971.4 974.3 974.9 968.4 962.1 956.9 954.5 949.6 944.5 942.4 935.6 928.2 926.6 919.9 913.2 907.5 903 907.1 912.4 917.9 927 932.4 936.9 934 934.2 931.2 922.2 912.5 900.6 884 857.8 840.1 838.6 847.4 866.5 876 885.5 896.5 905.7 911.8 920.7 936.9 943.1 947 948.1 946.4 944 940 935 928.2 921.1 916.8 914 912.2 911 905.6 897.1 889.6 885.8 878.8 871.3 869.8 866.1 862.9 859.4 854.9 850.9
838 847.5 855.8 861.5 863.5 862.2 854.7 848.4 849.8 855.3 865.4 874.5 880.2 883.7 884.4 881.7 875.9 864.8 850 833.5 817.5 802.6 792.5 791.6 792.7 793.8 797.1 801.2 804.7 806.4 810.7 818.1 832.2 839.5 840.6 842.6 844.9 855.7 862.4 863.6 860.7 857.1 856.1 853.6 843.4 791.3 753.3 731.2 706.8 690 683.5 671.4 666.8 658.8 655.4 663.9 675.5 694.8 709.3 727.7 747.6 766.5 786.9 797.2 815.5 832.9 856.3 875.5 885.3 902.4 902 886.2 874.4 849.3 827.3 801.2 780.9 756.9 741 727 711.2 690.8 666.8 671.3 684.8 692 696.9 703.9 708.5 708 713.4 715.3 718.3 727.6 742.3 752.8 758.5 760.2 755.2 758.4 775.4 789.4 804.4 810.5 819 830.9 852.5 872.5 891.7 895.3 900.8 902.4 900.1 892.9 883.9 867.7 849 835.6 822.1 809.9 807.4 810.3 822.7 832.9 840.5 851.4 853.5 853.2 869.3 879.5 900.9 934.3 967.3 976.9 979.2 978.4 973.6 965.6 960.5 957.8 951.5 946 940.2 934.3 924.2 919 910.3 900.7 898.1 893.7 891.2 894.3 897.6 906.5 919.3 925.6 927.2 928 925.2 916.7 911.2 899 873.8 847.6 812.8 824.5 843.1 860.5 872.1 881.5 895 903.4 909.9 924.5 939.6 945.9 949.2 949.6 948.2 945.7 942.2 937.1 931.9 924.3 921.6 920.4 919.8 915.9 909.6 901.1 894.1 890.2 886.1 877 873.5 871.3 868.7 863.8 859.7 856.5
841.4 856.9 864.5 870.7 874.7 877 873.7 869.7 863.9 863.7 869.6 877.9 885.7 889.5 889.7 888.3 880 866.8 853.6 840.9 823.1 813.2 801.8 801.9 805.1 805.5 805.1 808.1 809.8 809.7 813.7 820.5 830.5 839.8 839.8 843 845.5 852.5 863.7 864.6 865.7 866.1 859.8 852 817.6 771.6 737.1 711.5 688.4 673.4 669.2 660.9 653.9 649.5 649 653.6 665.9 684.3 696.9 720.2 736.4 755.3 777.3 792.9 814 835.6 858.2 874.6 894.6 910.4 910.4 896.4 879.4 858.3 838.1 815.4 790.4 769.4 747.7 737.3 716.5 696.8 670.9 667.7 677.3 686.8 687.6 692.4 693.3 695.9 700.3 702 706.2 716.6 732.2 748.4 762.3 758.2 756 763.8 778.4 786.5 799.1 813.2 819.8 836.6 854.1 869.5 883.5 899 905.8 908.8 906.8 901.2 895.3 879.5 860.2 846.1 835.1 822.4 816.4 819.3 829.4 840.4 850.7 862.9 871.1 865.9 870.5 887.8 907.5 944.3 971.4 980.4 982 981.2 976.7 969.8 963.3 961.8 953.8 948.1 944.4 935.2 924.5 914.4 906.3 895.7 890.2 886.6 874.9 878.5 877.4 876.8 889.1 903.8 914.8 919.2 919.9 915.8 909.2 895.1 868.6 822.4 797.2 816.8 824.9 851.7 865.5 879.9 892.3 899.9 907.4 929.5 942.2 948.2 951.2 952.4 950.5 948.3 944.5 940.1 936.2 927.8 925.6 924.8 923.3 920.4 911.8 901.5 894.8 892.2 889.8 879.9 876.9 873.4 869.8 866.4 863.9 863.9
846.9 859.8 870 878.9 887.3 886.1 885.9 885.3 883.1 876.3 874.2 883.5 890.3 893.7 892.2 890 880.8 867.1 855.8 843.9 829.4 816.9 814.3 816.3 820.6 821 821 819.1 821.7 820.3 821 827.3 834.3 835.9 839.2 845.3 850.5 854.4 863.9 863.9 864.4 866.2 861.3 842 803.7 759.1 728.4 694.1 670.3 660 655.8 648.5 643.5 641.5 644.8 650.1 659.9 672.4 686.7 707.4 729 745.5 766.9 789.2 813.9 839.7 858.2 880 902 919.1 918.6 902.1 888.6 860.9 840.8 823.8 802 778.4 752.4 741.5 723.5 702.1 680.3 667.8 669.3 680.4 680.1 681 679.8 684.5 688.2 688.7 694.2 704.1 718.7 739.4 754.4 751 761.5 771.7 784.2 791.7 811.6 820.9 829.6 843 854.1 869 882.6 903.3 911.6 910.9 912.4 906.4 898.9 893.2 873.9 859.7 847.5 835.5 828 827.9 836.7 848.6 861.3 876.9 886.7 886.9 884.9 890.3 909.1 945.4 972.5 980 983.3 983.2 980.5 976.5 970.7 969.5 961.3 951.2 946.7 937 932.1 920 905.6 892.1 878.3 874.1 868.2 858.3 853 854.7 862 874.5 890.5 905.3 912.9 912 901.7 886 855.3 803 782.1 793.6 813.2 839.4 860.8 877.8 886.6 893.5 907.9 932.5 943.3 948.9 952.5 955.5 955.6 952.8 948.7 943.6 939.3 934.5 930.1 927.9 926.7 919.5 907.6 897.6 895.7 897.4 891.2 886.4 884.9 876.7 868.1 868.3 870.2 870.7
849.1 862.2 873.2 886.5 893.7 894.5 894.8 896.3 894.6 891.7 886 889.8 893.8 895.7 895 892.7 881.4 864.9 852.4 841.1 832.3 829.6 829.4 830.9 836.5 838.2 834.7 830.8 830.5 828.9 829.2 832.7 838.9 839.7 845.5 858.4 865.6 860.3 860.1 864.8 865.4 866 847.6 812.4 786.5 754.5 717.4 685.7 664.9 653.5 647 642.4 642 642 638.4 644.3 650.9 659.6 679.6 698 719 738.7 761.8 785.8 813.2 840.7 864.2 888.2 913.7 932.6 926.3 903.3 884.6 862.3 846.5 828.5 807.3 783.5 756.8 739.8 727.4 710.9 685.7 667.7 662.3 670.2 670.9 669.6 666.6 674.2 675.7 676.7 682.6 692.4 704.4 715.8 736.9 747.7 765.2 776.9 790.3 808.3 819.9 824.8 831.4 842.1 858.4 878.7 889.4 903 915.8 919 919.4 911.8 904.3 894.4 886.9 875.1 858.4 848 838 836.3 847.3 857.6 870 889.1 902.2 905.5 905.5 902.6 910.6 943.3 970.6 979.8 984.1 985.3 985.1 983.4 980.9 978.3 969.4 953.5 949.3 943.2 936.3 926 910.7 890.9 877.4 862.7 860 847.9 853.7 842 840.5 850.1 863.9 886 901.4 903.4 889.4 877.4 845.2 792.9 768.1 778 796.5 824.9 850.1 875.5 882.8 890.3 906.6 931.8 941.5 947.5 953.3 958.1 959.3 956.7 951.8 946.4 941.6 938.6 934.2 931.2 927.6 919.4 904.7 896.5 895.2 893.9 895.6 896.2 884.7 880.2 876.1 875.3 873.3 872.8
848.5 862.7 876.5 888.6 895.2 898.9 903.6 906 906.1 903.4 900.1 898.4 900.6 901.6 901.5 898.5 888.7 867.2 851.3 842 836.4 840.4 843.6 844.4 845.5 845.1 842.3 839 838.8 839.4 838.7 842.7 847.3 849.6 854.1 863.7 866.1 863.6 864.9 871.9 874.7 868.4 825.7 792.1 760.6 740.3 709.1 683.4 663.2 648.2 640.9 639 635.4 635.1 631.4 637.2 644.3 654.5 672.1 690.1 711.9 733.9 756.2 782.3 812.4 841.9 868.1 896.1 921.3 930.4 914.7 896.4 879.2 863.9 847.9 827 803.8 779.3 760.7 741.7 726.9 710.2 687.8 667.3 657.9 658.6 657 658.5 658 663.1 665.3 666.7 670 678.3 690.8 705.1 724.6 748.2 768.2 779.4 799.3 814.6 815 821.3 831.8 845.7 860.8 870.3 877.7 890.7 906.7 917.6 916.1 914.6 908.5 905.6 897.2 891.6 873.2 858.6 848.9 850.6 856.1 868.6 881.1 898.1 909.4 923.4 923.9 921.8 918.7 944.3 972.3 981.8 986.2 989.2 989.6 988.2 986.3 981.9 973.3 961.2 953.3 949.3 941.9 931.8 910 895.7 876.4 848.9 845.6 842.2 842.9 837.1 835.9 837.9 837.8 865.5 877 889.3 878.5 861.1 823.5 785.7 758.1 746.8 766.3 804.9 824 856.8 879 886.8 900.9 924.1 936.2 945.3 953.1 958.4 960.7 959.6 955.9 950.1 944.5 940.9 937.8 933.9 929.5 917.8 903.8 895.5 889.4 889.1 891.4 894.7 889.6 884.3 880 877.2 875.2 873.3
848.5 863.4 877.8 886.6 897.3 905.2 911.5 914.5 913.5 911 908 907.6 908.8 910.3 909 905.8 898.1 879.4 860.3 848.1 846.4 849.6 852.3 852.6 850.9 849.5 846.9 844 843 845.2 850.1 855.9 858.1 860.6 863.2 865.3 867.9 871.6 870 881.3 882.3 855.6 812.3 778.6 752.4 736.5 715.5 691.2 672.5 654.3 641.7 633.3 631.4 632.8 626.8 631.3 639.9 650.1 665.2 682.2 703.8 727.8 750 779.9 812.4 841.7 871.3 895.9 915.5 919.4 910.2 897.9 880.3 865.6 848 822.6 793.4 774.4 761.9 738.7 722.4 711.6 690.7 667.5 650.6 645.7 644 643.1 647.2 650.8 655.1 657.1 653.6 667.8 680.9 699.4 722.3 743.6 767.9 791.2 801.2 813.8 815.3 817.6 827.2 840.5 851.2 856.6 862.2 867.2 881.5 890.4 909.4 909.4 905.9 906.8 908.2 903.7 888.4 868.1 861.9 863.1 867.2 878.1 892.2 906.2 919.5 939.7 948.2 943.4 938.8 954.7 977.4 986.4 990.1 993.5 994.5 993.1 990.3 983.8 978 963.3 955.6 953.3 942.3 930.8 915.6 893.8 869.8 855.7 840.8 838.1 836.4 829 813.5 807.9 817 838.1 846.9 850.9 845.7 839.1 809.1 771.5 747.1 720.1 742 776.4 796.6 834 868.8 877.2 886.8 912 930.4 942.1 951.5 957.6 961 961.3 958.2 953.3 947.8 943.6 940.3 935.9 930.5 921.2 903.8 890.1 881.1 882 886.3 882.4 888.7 885.3 882.9 877.1 877 874.5
848.6 861.2 873.3 884.5 896.9 909.1 917.2 918.7 918.3 915.3 913.2 915.7 916.4 917.6 917.1 913.6 906.1 889.7 873.6 861.7 857.8 857.3 857 856.5 854.5 849 847.6 847.6 851.9 857.7 865.7 870.2 871.5 872.7 874.2 875.5 875.4 879.7 884.3 888 886.8 849 808.9 773.7 753.2 735 717.5 705.9 685.6 661.5 644.3 631.5 628.3 630.8 624.9 628.2 635 642.8 658.3 673.2 696.7 720.7 747.9 779.1 809.8 840.6 871.1 887.6 910.1 914.2 912.9 898.1 880 860.6 843.3 808.4 782.5 770.3 753.9 736.2 718.9 705.1 688.1 665.8 644.7 625.8 632.1 630.6 634 639.4 645 647 645.6 660.2 673.9 695 714.9 743 770 795.9 802.5 807.5 807.7 811.3 815.8 826.1 831 835.1 840.1 849 855.8 873.5 896.7 901.7 899.4 909.5 907.4 906 901 883.7 872.4 876.2 877.9 888.6 900.9 915.8 930.8 956.2 966 966.5 965.5 972.1 985.1 992.8 995.8 998 998.3 996.5 992.9 986.7 982.5 963.6 955.2 949.2 936 928.6 915.1 889 873.6 849 827.6 831 823.1 808.7 787 771.7 781.8 791.5 801.2 806.5 807.3 807.6 767.4 742.1 729.3 704.3 717 746.7 772.8 797.1 835.4 867.1 883.8 904.6 923.2 937.3 948.5 955.8 960.5 961.6 959.3 955.5 950.8 946.5 942.3 936.9 931.2 922 902.3 879 871.2 864.8 873.4 878.1 887.1 887.5 883.1 880.8 879 871.1
849.6 859.3 869.9 882.5 895.9 908 917.4 920 921.3 921.6 922.3 924.3 926 926.5 927.2 924 914.9 901 885.6 874.6 871.8 870.2 867.1 864 859.3 859.1 860.3 862.4 865.5 869.4 880.3 885.4 886.5 887.7 887.9 886.5 885.1 890.9 893.3 890 884.1 851.3 810.5 785.8 764.4 744.1 728.2 714.7 689.9 669.9 650.5 636.7 629.1 625.5 624.6 623.8 626.3 634.8 650.3 665.8 686.3 714.8 743.5 772.3 802.9 831 860.6 876.6 891.9 913 910.6 891.5 871.1 848.7 826.4 795.1 771.6 761.2 746.7 730.5 714.1 698.7 682.1 661.8 643.2 623.8 616.7 617 622.5 629.3 634.2 635.3 641.4 654.9 669.6 690.9 710.9 740.9 766.4 793.5 802.9 797.9 799.9 799 798.2 806.1 809.5 812.9 822.3 829.8 838.9 855.1 875.9 891.3 893.2 906.1 908.8 909 909.9 898.5 887.5 887.8 891.3 898.8 912 925.7 940.9 967.3 983.3 988.2 992.2 994.6 997.9 1000.8 1001.5 1002 1001.2 998.8 994.5 989.7 982.6 962.3 953.6 943.8 932.9 923.8 909.5 883.4 869.7 846.9 820.2 805.7 798.4 782.1 760.7 746.2 748.4 756.7 765.3 770.3 772.9 771.1 723.9 710 710.1 695.9 695.5 713.6 744.4 772.8 812.1 835.4 880.5 896.7 915.4 932.3 944.8 953.6 958.5 960.5 959.9 957.6 954.4 948.9 943.7 938.5 931.9 922.5 895.9 873.8 859.9 858 860.1 875.4 888.5 890.7 887.2 882.7 879.2 866.7
852 860 871.6 883.9 895.1 907.8 917.2 923.7 926.9 928.5 930.9 933.8 935.3 936.7 936 933.7 924.7 908.6 895 887 885.2 884.2 878.3 874.8 874.2 874.1 876.8 877.7 879.7 882 889.4 893.4 894.2 895.9 895.4 894.5 896.7 900.9 899.2 891.4 879.7 855.7 837.5 817.4 794.3 771.6 755.5 734.6 706.4 678 661.1 645.2 630.3 622.7 624 620.9 621 628.5 641.1 657.5 678.5 708 734.8 764.8 794 820.7 843.3 860.6 876.7 897.7 894.5 876.1 857.1 830.6 806.1 785.3 762.2 752.7 740 722.9 706.4 691.2 679.5 659.9 641.6 625.3 614.7 607.5 613.3 620 621.8 624.1 633.6 649.7 664.4 685.5 709.8 735.9 767 786 792.6 792.6 790.7 785.2 785.1 790.1 788.3 793.3 806 810.2 822.7 833.8 857 875.6 884.7 901.6 910.5 913.3 913 913.1 906.5 902.1 903.7 909 918.8 932.5 953.3 983.3 998.7 1002.1 1005.5 1006.5 1007 1006.8 1007.3 1006.1 1004.2 1000.5 995.6 989.9 983 965.4 950.2 938.9 932.9 921.3 903.1 874.7 852.5 830 808.3 774.1 772.6 754.8 739.4 723.6 716.9 723.6 727.9 731.4 745 741.5 690.6 684 682 683.8 674.4 695.7 719.7 743.4 773.3 801.2 839.5 883.7 908.1 926.8 940.2 947.4 951.6 955.9 954.5 954.5 948.7 950.3 945.5 940.3 932 914.6 885.4 867.4 858.5 856.8 864.7 880.2 889.5 890 886.3 884.9 877.2 862.2
857.7 865.2 873.3 884.9 895.3 909 919.2 927.7 932 935.9 940.5 944.5 945.9 946 944.2 939.4 929.8 914.3 907.6 899.2 898 893.8 889.9 886.2 887.3 887 886.8 886.1 889.6 891.7 899.1 900.3 900.7 901.4 901.3 903.7 907.1 907.4 903.9 896.5 883.9 868 848.1 828.9 809.8 796.3 780.7 758.7 725.5 696.8 671.2 649.8 631 619.3 618.2 616.3 618.2 621.1 636.3 649.6 669 695.1 725.3 756.1 787.1 812.3 832.3 843.3 856.3 872.5 868.9 861.8 840.5 814.8 791.4 769.5 752.6 745.2 729.6 715 698.8 687.2 677.6 655.6 636.6 623.3 614.2 601.4 603.8 610.2 614.3 612.8 630.3 649.1 663 683.5 707 736.3 765.3 780.8 783.1 783.5 780.9 777 771.6 769.7 771.9 773.1 783 792.7 806.9 819.8 836.9 855.4 878.6 897.7 910.9 914.6 918.4 924.2 930.8 923.2 921.4 925.6 933.9 945.7 967.9 999.5 1015.2 1019.8 1021 1019.4 1015.5 1014.9 1012.7 1010.6 1007.6 1003.3 997.3 986.2 973.8 964 956.6 944.5 940 925.6 897.2 860.6 839.2 815 796.6 771.9 747 733.5 714.6 700.4 691.5 688.1 693.8 691.7 701.6 684.9 667.2 657.9 662.2 672.6 663.4 679.7 700.4 729.1 751.5 775.6 806.1 869.4 894.6 919.5 920.8 907.4 909 912.3 905.1 911.7 908.2 932.5 943.5 936 924.6 890.7 870.5 859.9 854.1 861.4 871.1 881.5 888 887.9 888.5 884.2 876.5 861.8
863.8 872.1 875.7 885.5 897.1 908.9 922.5 932 938.6 944.1 949.8 952.8 954.8 954.7 950 944.7 937.1 923.3 914.4 909.8 906.9 901.4 899.8 898.9 897.5 896.2 897.4 899.1 898.5 899.6 901.7 900.7 900.7 904 905.6 908.1 911.2 912.5 910.3 907.8 893.6 884.8 871.3 854.5 832 813.2 796 776.2 741.3 708 678.5 652.9 632.6 620 616.6 617.4 613.6 615.4 628.6 641.1 659 682.5 713.9 744.6 774 803.5 820.6 830 844.5 858.1 855.5 845.8 823.6 800.6 781.5 759.1 741.7 735.2 719.5 707.4 689.6 680.5 665.5 650.9 633.9 616.1 612.7 601.4 590.1 602.3 607 607.5 624.8 641.9 663.3 684.7 706.4 736.6 764.7 776.6 772.8 776.4 772.4 767.9 763.4 761.3 759.9 763.4 770 781.4 796.9 811.5 826.8 847.1 876.2 895.4 911.2 915.5 922.8 935.6 949.5 956.1 947.6 949.3 954.6 967.4 989.1 1016.8 1030.4 1031.9 1032.7 1030.7 1028.1 1023.2 1019.3 1016 1012 1006.5 1001.1 994 982.9 972.7 962 949.9 944.8 934.6 894.7 853.7 823.5 799.3 780.1 755.8 726.1 705.9 693 676.9 665.8 660 665.3 665.9 662.3 659.7 648.3 645.5 639.8 651.7 648.2 662.1 682.8 705.3 727.9 748.6 774.1 833.1 874.8 898.7 875.9 865.4 867.6 868.8 863 867.4 885.7 888.3 896.9 896.3 890.9 874.3 860.7 851.5 848.7 859.3 868.1 882.6 884.8 886 889.6 884.2 878.5 861.4
874.1 877.4 882.6 891.4 900.6 913.6 926.1 937.5 944.9 951.3 956.6 959.3 959.7 960.1 957.1 953.1 944.4 932.5 918.9 913 911.9 909.3 905.2 904.4 904.3 903.7 903.6 904.4 902.2 899.9 894.1 892.2 893.8 900.6 903.1 908 912.1 914.5 917.2 916.5 903.9 901.3 902.7 890.7 861.3 840.7 822.1 797.9 753.7 716.3 684 658.2 638 619 614 616.4 611.6 613.2 623.4 635.1 648.8 671.2 700 730.1 759.9 789.7 809.4 821.2 833.1 845 843.1 828.7 808.1 789.6 767.9 748.5 732.7 723.4 708.9 696.1 681.5 673.2 663.9 643.8 629.8 609.8 599.5 592.9 589.6 593.1 598.9 605 616.3 638.3 660.5 677.3 708 735.3 764.5 771.7 772.7 767.5 759.6 757.4 753.3 755.2 757.4 763.4 772 779.5 792.8 805.1 818.2 841.1 866.7 891.6 909.3 913.6 923.1 939.7 961.8 984.6 980.3 978 979.9 994.1 1016 1037 1042.1 1043.2 1041.8 1038.9 1035.2 1031.3 1026.1 1020.9 1015.8 1010.9 1006.2 1003 999.2 986 964.9 950.2 945.6 935.6 909.1 854.1 809.9 783.1 762.2 738.2 714.9 696.8 679.3 666.5 657.2 648.1 646.9 645.5 637.2 635.1 633 634.1 627.8 626.8 640.4 640.8 660 682.8 702.5 722.8 745.7 787 845 868 840 827.5 829.6 823.4 821.6 820.2 841.6 849 850.7 850.6 846.3 848.5 843.1 841.4 844.9 852.4 864 883.3 887.2 890.6 888.8 884.1 873.9 862.5
883.9 886 891.2 898 905.2 918.4 931.4 942.1 950.2 958.3 963.2 964.5 964.5 963.5 961.8 955.7 939.3 928.5 918.5 916.6 915.1 911.4 909.9 906.8 906.7 906.4 906.1 905.4 903 900 894.1 887.9 887.1 888.6 897.3 905 908.9 911.2 914.7 916 913.3 906.2 904.7 897.1 884.8 864.3 841.3 808.8 763.7 726.4 692.6 658.7 639.5 624.9 609.9 609.9 606.9 609.4 619 629 640.2 659.2 686.8 717.4 747.1 776.4 800.4 817 826.3 834.6 828.4 810.7 794.4 772.7 750.8 738.7 720.9 706.2 697.5 686.2 673.2 667.6 650.7 638.1 624.3 600.9 592.8 586.4 581.4 584.9 588.4 602.4 615.1 636.9 659.7 682.4 708.8 736.2 762.5 766.7 768.3 759.5 747.4 746.1 744.7 749.6 751.5 762.5 769.8 777.2 789.2 799.9 813.2 833.2 860.3 889.2 906.5 913.9 917.1 942.6 970 1000.3 1012.6 1015.1 1013.7 1026.6 1042.7 1047.9 1050.8 1052.1 1050.6 1047.5 1041.7 1037.3 1032.9 1027 1019.2 1015 1011.6 1008.8 1005 993.6 964.2 947.6 935.4 936.5 909 852.5 806.4 771.3 748.6 731.3 708 688.2 673.9 664.3 658.1 655.5 645.4 632.8 629 619.2 617.4 613.8 619.3 616.5 617.6 625.2 637.5 657.4 675.1 693.9 717.3 758.1 805.9 815.2 786 777.5 785.7 785.8 783 788.4 802.9 797.4 794.6 795.1 797 814.5 814.2 828.7 825.9 836.2 853.6 880.7 893.7 895.5 887 881.3 869.6 862.9
889.5 893.5 898.3 903.8 912.6 923.3 933.3 941.8 952.1 961.6 966.6 969.2 969.5 968.1 965.2 960.3 944.4 927.6 921.5 918.9 916.4 912.8 911.5 907 907.7 909 907.7 904.4 902.8 901 901.2 890 880.4 879 885 895.4 904.8 901.3 905.2 908.7 907.5 907.9 904.8 904.5 906.4 891.4 858.3 818.2 771.6 731.8 700 668.8 644.4 624.2 609.3 601.4 602.3 604 611.3 619.3 631.2 648.4 672.5 699.2 730.4 763.4 791.5 812.3 820 819.5 810.2 794.3 772.2 749.8 734.2 721.3 710.7 697.1 688.7 676.9 666.1 656.4 644.1 633.7 618.5 595.7 591.4 584.2 574.7 576.9 585.5 598.6 614.7 638.8 655.9 682.1 709.9 737.3 760 762.5 754.7 755.6 747.2 734.7 740.7 747.2 749.9 758.4 766 773.7 784 796.3 807.5 827.7 850.6 881.7 903.3 912.8 923.1 944.9 974.1 1008.7 1024.5 1034 1042.4 1048.1 1052.2 1055.1 1057.4 1057.6 1055.6 1052.5 1049 1043.6 1038.5 1034.3 1024.6 1019.4 1016.1 1012.5 1008.2 993.2 961.7 943.2 929.7 927.3 886 842.4 802.9 767.2 741.6 722.1 703.9 686.8 674.6 663 654.8 652.3 645 631.5 616.8 607.5 603.9 605.1 603.9 601.5 601.2 603.9 614.2 632.6 645.8 667.5 684.7 703.4 735.4 745.1 731.6 733 737.8 741.9 744.6 762.7 752 751.9 749.9 749.4 758 766.2 766.5 792.5 793.1 799.8 829.8 861.8 878.4 891.7 880.7 877.9 864.3 863
890.5 894.8 900.6 906.8 913 922.5 930.4 937 948.5 957.9 965.1 970.3 972.4 970.9 968.2 963.5 948.7 931.2 922.9 920.7 918.8 912.8 909.3 905.6 904.8 907.8 907.4 904.7 903.5 899.7 896.5 887.1 875.3 872.1 874.2 879.8 890.3 892.5 895.6 898.6 903.1 909.8 900.4 897.6 898.4 889.5 860.2 814.5 774.8 743.5 712.4 674.7 650.3 630.4 613.1 601.3 594.6 600.2 605 612.6 623.2 639.9 660.9 686.4 717.9 751.4 782.5 805.8 808.9 800.7 786 768.4 747.6 729.9 721.1 712.5 699.3 691.7 681 666.7 660.6 650.6 641 629.5 612.9 597.5 583.1 575.8 570.9 574.3 583.1 596.2 619.4 633.1 655 681.4 711.3 738.3 755.6 753.7 748.8 749.8 744.9 732.3 739.3 745.6 748.3 756.3 761.2 770.3 781.4 790.9 802 821.3 846.3 876.3 897 916.2 928.1 950.9 980.3 1014.5 1031.2 1040.8 1047.9 1052.7 1055.8 1058.6 1060.3 1061 1059.5 1057.4 1054.3 1051.3 1046.9 1040.7 1035.7 1028.7 1022.7 1015.3 1010.2 993.1 959.8 938 922 911.1 901.9 844 796 765.1 740 720.1 704 689 678.1 668.2 656.2 649.8 645.8 628.1 612 609.3 594 593.5 595.8 597.2 589.5 590 591.2 604 621.7 635.3 652.5 664.7 679.2 694.9 691.3 689.3 691.4 699.5 712.8 720.8 716.9 711.9 713.1 715.2 721.6 728.8 735.2 742.5 751.4 766.6 790.7 814 836.1 860.2 873.8 871.4 862.1 860.3
882.6 887.5 895.8 901.1 907.9 915.4 919.3 926.5 939.6 951.3 959.4 966.3 972.1 972.5 971.3 965.7 951.5 936.4 928.3 920.8 916.8 907.8 901.8 899.3 901.7 903.7 903.4 902.6 900.2 896.8 890.7 883.1 872.7 867.2 865.3 864.4 871.1 877.3 882.2 886.6 891.4 898.5 896.8 884.3 879.9 876.3 863.1 828.7 790.1 748.8 713.1 678.4 655.2 635.2 614.4 607.3 597.8 596.2 599.9 606.3 615.3 630 651.3 675.3 705.3 737 768.1 783.7 782.1 773.1 758.3 743 728.7 718.5 710.1 699.5 691 683.1 671.7 663.7 655.4 647 635.8 626.7 610.6 596.1 582.2 572.4 571.1 570.2 584.6 599.8 616.9 638.4 663.9 690 718.5 744.9 752.5 749.8 741.8 743.4 745.9 730.5 735.4 742.8 746.4 753.2 759 768.4 776.9 786.2 798.1 817.4 843.4 871.5 893.4 917.2 935.5 959.6 990.7 1017.9 1032.7 1041.8 1048.1 1053.5 1056.7 1059.5 1061.6 1062.4 1061.9 1061 1059.6 1057.3 1054 1048.3 1042.4 1033.9 1028.9 1020.5 1011.8 993.8 960.5 944.3 922.4 908.2 894.5 838.7 802.8 767.9 743.4 724.4 708.5 690.8 678.6 667.2 655.3 651.8 640.8 628.2 610.6 601.4 599.8 588 584.2 582.3 578 580.4 579 583.3 593.1 603.8 620.7 629.3 643.9 654.2 659.6 663.4 667.3 676.3 685.4 683 684.7 679.2 680.8 684.9 691.8 699.6 699.8 709 723.1 744.3 764.2 783.3 804.9 831.9 859.2 863.5 859.7 855.8
866.9 867.3 874.5 882.3 892.1 896 901.2 908.3 921.5 934.7 949.6 960.6 970.2 974.4 973.6 969 960.6 945.9 929.7 921.6 916.7 907.1 903.4 898.8 901.3 899.3 896.9 896.3 894.8 892.4 885.9 880 870.4 856.3 852.8 852 855.1 862.1 862.6 861.3 871.4 872.3 872.2 871.8 861.1 864 859.9 832.6 788.7 753 717 684.8 661.6 642.5 620.8 608 598.6 588.1 593.7 599.1 606 623 641.7 663 688.6 718.5 743.8 758.9 759.1 753.2 736.7 723.5 717.5 707.6 697.5 690.3 684.2 674.8 667.1 659.6 651.6 643 632.6 622.3 607.3 592 578.2 569.5 567.7 572.3 586.5 601 622.2 645.6 667.9 695.5 722.9 744.8 746.9 743.8 734.9 737.7 740.6 728.9 729.7 736.9 742.5 748.2 755.3 761.9 773.3 783.5 798 815.9 842.4 867.2 889.5 915.2 943 969.6 997.3 1017.5 1031 1039.9 1046.1 1051.2 1055.3 1058.1 1060.2 1062.1 1062.6 1063.1 1063.2 1062.7 1060.8 1055.3 1047 1039.3 1032.1 1025.6 1015.9 993.3 966.2 946.8 927.7 917.4 884.6 847.5 805.7 771.1 747.5 734.2 720.3 703.8 692.7 676.3 662.9 652.5 637.3 627 621.1 607.9 604.1 593 587.1 578.8 569.5 575.4 570.1 568.5 571.7 577.4 595.2 599.7 611.7 623.6 633 638.1 645.3 654.7 657.2 657 654.6 649.1 653.8 660.2 669.5 675.8 679.7 688.1 703.3 726.8 744.5 760.7 783.5 816.4 844.9 853 854.3 842.7
845.2 844.4 849.6 858.2 861.7 870.4 878.3 887.4 897.8 914.6 938.5 956.2 967.4 973.3 974.8 971.3 964.7 951.1 926.1 914.7 908.4 906.7 904.7 896 894.6 894.6 892.3 890.5 889.5 888.9 883.2 871.9 857.8 849.1 844.1 842.8 844.9 845.4 840.2 836 841.1 841.1 841.2 848.2 844.1 846.9 848.3 821.8 788.1 758.5 721 688.5 663.5 645.9 628.1 608.4 597.3 589.1 588.6 593.8 601.6 615.9 630.8 650.5 671.8 698.4 718.5 729.2 730.9 731.6 721.3 711.7 705.7 695.1 688.3 682.8 678 670 664.3 655.1 646.8 637 625.1 615.8 600.6 586 570.9 566.7 563.4 574.2 587.2 602.5 622.1 649.1 675.5 698.6 725.2 741.1 741 738.6 731.6 729.1 730.1 724.2 724.4 729.7 734.7 740.7 749.3 759.6 770.4 782.3 796.9 815.2 839 865.3 889.4 912.6 945.3 976.6 998.4 1015.6 1027.8 1036.3 1042.3 1047.6 1051.6 1054.6 1057.7 1060.2 1062.4 1063.8 1065.1 1065.6 1065 1059.8 1049.3 1043 1035.1 1027.5 1018.5 1006.6 981.8 952.9 932.4 928.7 904.8 841.4 801.6 767.5 748.5 742.9 734 724.3 710.9 696.1 681.4 667 652.4 638.5 624.7 614.2 606.5 595.4 585.5 580.1 570 561.6 564.3 569 568.9 557.7 569.7 575.3 588.3 599.4 608.6 614.7 621.8 629 628 626.7 627.1 626.2 629 646 658.8 663.5 664.7 679.9 693.5 706.7 719 743.1 769.4 798.8 824.6 815.3 834.2 795.9
818.6 823.1 830 836.2 842 847.8 852.1 865.9 880.4 896.4 924.6 948.2 964.1 968.6 970 968.2 961.3 934.3 911.8 902.7 898.2 898 893.2 885.2 883.3 883.2 881.7 881.4 882.5 882.2 878.7 868.8 856.9 844.4 839 835.6 835.1 833.1 819.7 819 815.9 815.3 814.2 826.3 821.1 817.1 822.3 808.4 777.7 753 718.4 692.5 666 648.5 634.5 616.6 603.3 590.7 584.5 588.3 597.3 609.2 623.2 638.1 656.7 676.9 697.1 705.1 707.7 709.6 708 697.6 692.9 685.4 679.5 677.4 672.1 665.3 656.8 647.6 642.3 634.5 621.9 609.7 593.5 580.5 571.6 561.9 562.9 572.4 587.3 606.9 628.6 649.6 677.3 703 730.4 740.3 738.6 733.5 727.6 721.9 719.4 716.2 720 725 726.6 732 742.2 754.3 768 782.2 798.6 819.4 844 869.2 891.9 917.9 950.8 978.4 997.8 1013.3 1023.8 1031.8 1037.6 1042 1046.2 1049.6 1053.3 1057.4 1060.3 1063.4 1065.9 1067.2 1066.7 1061.8 1053.1 1045.2 1038.6 1029.5 1019.3 1011.4 996.7 962 935.6 924.6 909.9 872.4 786.6 758.5 748.6 745.4 737.3 732.8 724.6 712 699.6 686.2 671.2 653 634.3 617.9 604.3 593.1 583.1 577.3 568.6 564.1 556.1 554.2 547.7 551.2 548.3 550.9 561.4 575.7 590.3 593.8 603.2 607.8 608.4 604.2 605.8 601.1 614.2 624.8 637.7 642.5 659.1 666.8 680.5 686.4 696.8 727.7 754.5 776.6 787 775.2 775.2 738.6
802.4 808.1 814.4 820.3 826.1 831.1 835.4 852.3 870.6 888.8 912.6 938.4 954.5 959.9 961.6 958.1 944 914.6 899.5 892.5 888.5 883.7 879.4 869.6 867.9 864.2 865 869.9 873.2 874.8 872.6 861.3 854.4 842.6 836.6 829.7 826.2 819.4 807.4 801.6 796.4 799.5 801.7 803.7 803.4 788.2 795.2 796 764.9 739.2 713.5 693 669.5 651.1 637.4 623.1 604.4 593.6 583.6 582.3 594.1 601.5 613.6 626.7 643.2 663.9 679.5 685.8 688.4 690.1 690.9 686.2 679.2 674.9 674.7 671.9 668.8 658.3 650.7 643.2 637.7 629.3 617.7 603.6 587.5 574.5 567.1 558.6 565 577.2 592.9 614.4 634.2 653.9 680.4 708.6 734 738 734.2 730.7 723.3 716.6 711.2 702.2 712.4 713.9 715.3 723.7 734.1 748.4 762.8 782.2 801.4 823.8 850.8 873.8 899.9 927.5 961.4 979.7 995.7 1009.7 1019.9 1026.8 1032.3 1036.2 1040.1 1043.4 1046.2 1051.5 1056.2 1060.7 1065.1 1067.2 1067 1062.5 1054.8 1046.9 1039.7 1029 1020.4 1013.2 1002.8 971.3 940.8 923.7 912.2 834.7 784.8 757.3 746.9 744.1 739.7 733.8 728.5 719 708.8 701 686.1 666.3 646.2 629 615 600.9 592.8 582.8 576.2 566.8 566.3 559.3 549.3 544.6 544.6 540 539.3 553.7 572.7 580.3 586.6 596.4 601.1 598.6 597.2 599.9 604.5 611 621.9 628.9 645.7 657.4 670.5 675.9 687.3 710.4 736.6 744.7 735.5 732 723.9 686.1
791.4 798.2 804.3 808.6 809.5 817.2 829.9 846.5 865.5 885.3 904.7 926.8 941.1 948.3 948.7 933.8 912.5 895.4 887.9 879.4 872 865.4 861.2 859.3 855.1 852.6 854.5 858.6 861.6 867.8 864.7 854.3 849.1 840 831.5 824.9 816.5 809.2 798.8 790.5 783.9 786.8 786.3 786 777.9 769.7 782.7 779.6 755.8 733.1 711.6 692.5 672.9 655.7 641.3 625.9 605.8 592.5 584.1 575.1 596.1 596.8 603.1 617 629.5 647.7 662.4 667.1 670.4 671.1 669.9 671.1 666.6 669.5 670.6 667.7 661.5 652.6 648.1 642.2 634.4 624.5 612.5 598.7 579.1 567.3 561.3 548.7 566.3 587.8 600 620.5 640.8 659.9 683.3 712.8 736.2 734.8 730.3 727.1 720.9 713.2 707.3 697 706.6 704.6 710.7 719.7 731.8 746.2 761.7 782.8 805 834.6 862.7 889.6 915 942.8 965.8 979.1 992.2 1005.5 1014.8 1021.2 1026.6 1030.6 1033.8 1035.7 1038.1 1042 1048.6 1055.5 1061.5 1065.3 1066.4 1062.4 1053.8 1046.6 1039.2 1030.6 1021.3 1013.6 1003.5 984.3 952.7 935.1 916.5 843.8 781.6 756.6 748.3 743.5 737 735.1 730.2 720 712.2 703.5 694 676.6 654.5 640 626.3 615 604 594.4 586.6 575.8 573.1 566.7 558.4 540.7 536.6 532.3 532.6 540 552.6 565.7 570.6 582.1 587.3 591.8 601.6 600.4 605.4 610.8 617.8 620.3 628.5 641.3 658.7 664.3 679.7 695.7 710.8 702.1 697.3 688.8 672.2 650.1
783.9 787.7 792.5 795.7 801.3 814 828.7 847.4 862 878.7 896.2 908.5 922.2 929.8 919 903.7 890.3 879.3 872 862.9 853.1 846.1 846.6 846 844.1 843.6 846.5 850.5 857.1 862.6 863.2 852.8 841 830.7 826.8 819.1 807.5 797.3 788.1 778.7 778.1 774.4 773.1 770.5 762.2 757.6 773.3 779.6 756.4 729.1 710.3 690.9 672.3 659.2 643.9 627.6 607.7 594.2 585.6 578.1 576.9 585.9 592.8 607.4 616.1 630.4 644.8 651 654.8 654.5 655.4 657.8 659.8 665.5 666 661.2 653.5 650.4 647.1 641.2 632.7 621.9 609.3 590.5 575.2 560.7 553.7 552.7 569 586.2 605.4 625.9 644.7 664.9 687.9 717.6 736.2 732.6 728.3 723.7 714.8 707.9 701.8 691.1 700.9 696.4 709.1 719.3 732.2 742.6 760.5 782.8 809.2 843.9 873.6 902.5 926.6 950.5 967.6 978.4 989 1000.3 1009.6 1016.6 1021.1 1024.3 1026.8 1028.8 1031.7 1035.8 1040.2 1047.2 1055.4 1059.3 1062.1 1057.5 1051.6 1044.7 1037.4 1028.7 1021 1011.6 1001.9 993.5 964.4 938.4 922.9 855.7 784.7 763.7 755 749.2 746.3 742.6 732.4 719.7 710 702.8 699.1 681.8 661.8 650.9 636.1 625.7 613.5 605.9 596.1 590 582.2 570.5 564.5 554.2 541 532.9 527.3 528.8 533.2 541 551.4 556.6 561.9 568.8 584.3 593.4 598 611.3 616.3 618.5 622.1 628.1 643.1 651.6 664 673.6 675.2 674.5 662.4 655.9 646.2 626.6
775.7 779.5 783.1 789.2 801.4 814.8 830.7 845.2 857.6 869.8 885.5 896.1 908.2 904.4 890.5 877.9 867.9 861.5 852.4 848.6 841 832.6 831.9 829 827.4 833.1 836.4 841.3 849.5 856.1 857.5 852.2 840.8 830.3 824.5 814.5 801.3 785.5 780 774.3 769.1 759.8 755.8 755.5 752.2 744.7 755.4 765 758.4 738.2 713.2 695 677.3 661 646.4 631 615.3 597.4 587.4 579.3 564.5 572.5 589 595 601.6 612 627.9 634.8 636.7 637.7 641.1 645.5 653.9 660 661.6 654.3 650.8 648.4 644.8 638.5 629.7 620.6 603.2 582.6 568.2 555.8 549.4 552.7 573.1 591.8 611.1 631.7 648.3 670 692.4 723.7 739.2 729.3 725.1 720.8 711.8 702.9 695.2 685.3 685.9 696.8 703.1 717.8 730.2 741 762.6 782.9 812.4 849 882.2 910.7 932.9 953.8 968.3 978 986.6 994.9 1004.2 1011 1015.6 1018.1 1020.1 1021.2 1022.3 1023.7 1031.9 1037.7 1046.5 1050.4 1053.4 1050.6 1047.3 1041.3 1034.9 1026.7 1019.2 1009.5 1001.3 989.4 972 942.3 926.5 867.5 802.2 781.8 766.3 757.8 752.5 744.5 736.8 722.9 713.7 708.2 703.9 690.6 674.6 658.3 648 634.9 627 616.2 607.9 601.5 590 581 561.7 551.6 547.3 538.7 544.5 524.3 524.4 528.4 531.5 538.2 541.3 545.6 562 575.5 587.3 595.8 612.9 616.3 620.9 627.7 634.7 645.5 659.1 667 657.7 652 627.7 630.7 618 608.9
764.5 769.2 779.2 790.6 803.5 815.1 830.1 841.6 850.8 857.7 871.5 880.1 886.9 881.3 864.9 852.6 843.3 840.8 836.6 836.1 829.6 823.4 817.1 815.1 812.5 820.9 829.1 832.6 837.4 847.6 851.1 847.6 837.5 829.2 822 812.7 798 785.2 778 768.1 759.9 751.1 744.1 740 742.4 735.5 741.8 739.7 739 733.9 716.3 700.6 683.7 667.2 648.9 632.8 624.8 604.7 590.4 582.4 571 561 580.4 589.7 591.5 596 609.7 619.4 622.5 622.2 626.8 638.3 646.2 653 649.7 643.2 646.3 645.9 642.2 635.3 627.3 614.4 596.6 577 560.5 552.3 545.6 552.6 572.7 599.4 619.4 637 652.9 675 699.6 728.2 737.3 727.4 720.5 715.9 708.4 698.8 690.8 672.1 687.5 696.4 701.9 714.8 729.1 742.4 761.1 784.6 814.5 850.3 887.4 915.5 935.4 954 967.8 976.5 982.5 989.9 998 1004.5 1009 1011.1 1011.9 1012.9 1014.3 1015.5 1021.8 1025.4 1034 1038.7 1041.8 1042.3 1041 1036.5 1031.2 1024 1016.2 1008.2 999.4 983.3 973.4 942.8 899.9 851.7 823 797.9 779.2 763.3 753.4 746.6 740.3 731.1 726.2 722.8 714.4 700.5 689 676.3 665.3 654.6 643.6 627.1 614 607 595.2 583.2 574.4 569.4 564.3 557.9 542.8 532.9 519.3 518.4 519.7 523.1 529.9 532.3 543.3 558.6 574.2 586.2 596.3 612.3 616.7 623.7 632.8 641.9 645.9 653.6 644.9 630.3 611.2 618.4 603.4 597.7
758.6 768.4 781 792.6 802.2 816.7 828.8 836.9 842 846.6 854.5 859.9 862.8 851.6 845 825.5 822.2 820.7 819 817.5 816.1 808.3 803.3 803.5 802 807.2 816.8 823.7 828.3 835.4 843.2 842 834.2 827.1 818.3 811.3 795.5 784 773 762.5 752 740 735.5 730.8 730.7 721.4 725.6 723.8 720 715 709.4 707.1 696.2 678.9 659.3 642.2 629.1 613.9 597.1 582.5 571.9 555.9 574 576.8 580.1 587 597.9 608.6 610.9 612.5 619 630.7 637.9 636.6 636.3 640.9 644.5 643.2 639.1 631.9 623.5 611.1 593.1 571.7 556.7 549.2 540.3 555.8 578.3 597.4 618.7 635.5 655.9 679.2 705.8 731 734.3 724.7 717.1 712.4 705.8 696 688 666 686.2 697.3 703.9 715 727.5 741.2 759.6 783.1 815.6 852 890.7 916.3 934 953.6 966.6 974 979.3 983.9 991.2 997 1001.5 1003.9 1004.6 1006 1007.3 1007.1 1009.8 1014.9 1020.1 1026.6 1028 1030.2 1031.1 1028.4 1025.4 1019.7 1013.5 1006.1 996 982.5 971.5 950.8 914.5 874.8 849 814.2 794 772.7 766.2 760.7 752.8 751.6 762 748.1 740.7 723.4 708.3 694 685.5 678.1 666.4 653.3 634 619.7 605.5 593.1 585 578.2 574.3 565.2 549.9 526.8 519.7 515.4 514.8 512.5 518.6 523.3 525.3 543.6 556.8 566.8 576.1 599.1 609.3 616 627.5 635.6 631.4 636.5 620.8 610.3 601.7 602.2 595.8 589.1
760 771.2 784.6 794.6 805.9 818.2 826.7 831.6 834.3 828.3 838.5 843.9 840.7 830 820.2 811.1 804.6 800.4 798 797.2 795.9 792.6 789.7 789.1 790.8 795.1 802.7 812.5 820.1 825.5 833.8 837.5 833.3 824.1 816.7 808.9 795.8 780.4 769.1 757 746.4 737.7 726.6 721.9 716.6 712.8 716 710.1 706 703.3 696.9 694.9 692.9 686.9 669.2 651.5 637 621.4 605.2 586.1 571.8 553.9 551.8 568.9 568.8 576.2 586.6 598.2 600.6 604.4 611.6 619.6 624 626.8 631.4 638.2 641.9 640.5 636.4 630 620.4 605.4 585.5 563.1 552.2 543.5 532.7 555.4 572.3 591 612.9 636.8 660.3 684 711.3 732.2 726.9 720.2 713.9 708 700 689.5 675.6 665.2 681.8 692.8 703.8 714.5 725.7 739 758.7 783.1 812.5 847.5 881.4 912.9 932.3 950.3 964.4 970.7 975.3 978.8 983.5 989.4 993.3 995.3 996.6 995.5 996.7 997.9 1001.4 1005.5 1009.6 1014.1 1018 1019.7 1020.7 1020.8 1018.9 1015.5 1009.6 1001.2 991.5 977.7 967.3 954 936.2 891.1 861.4 881.5 853.9 818.3 800.8 805.7 779.3 785.4 789.9 783.6 774 755.8 745.6 727.8 710.5 702.1 693.4 677 655 642.4 625.8 606.6 596.2 585.8 575 565.5 548.1 533.5 523.1 514.1 511.9 508.5 509.7 510.8 513.1 528.4 538.2 547.6 563.3 581.6 595.6 605.3 614.1 621.9 623.4 616.1 595.4 591.6 594.1 591.6 592 586
762.2 773.7 788.1 799.4 809.1 818.4 825 827.6 827.8 825.9 825.6 826.3 823.8 815.3 806.3 798.1 790 782.4 778.2 776.8 775.8 776.2 775.3 773.5 776.4 781.3 786.5 796.8 805.9 812.2 821.2 825.5 824.3 819.5 813.9 807.3 793.9 776.9 761.6 752 741 727.2 719.2 714.1 706.7 703.4 703 698 694.7 691.3 686.4 683 681.9 676.6 666.1 656 641 628.1 610.7 591.7 575.3 559.6 538.9 557.6 560.7 565.4 576.3 588.1 591 592.7 601.9 607.9 614.1 619.8 628.3 634.3 637.8 636.1 630.6 622.7 611.3 596.5 576.1 553 542.8 536 539.3 558.8 576.6 599.6 619.3 641.4 664.5 690.4 716.3 730.6 719.6 714.5 708.7 702.7 693.1 678.2 663.9 669.3 681 686 698.4 711.8 722.9 737.5 755.9 779.6 808 841.9 877.4 910.2 928.9 946.9 960.6 967.1 971.7 973.4 975.8 980.4 983.8 986.6 988.1 987.1 987.4 988.9 992.3 995.8 999.5 1004.2 1007.7 1009.5 1011.1 1011.1 1010.3 1008.3 1002.4 993 980.4 970.7 962.5 951.9 939.2 903.7 937.9 945.9 918 884.1 852.6 833.7 815.2 821.5 821.1 818.4 806.4 788.5 790.4 767.7 747.4 735.5 723.5 702.1 679.7 661.6 642.3 623.1 606.9 596.4 586.8 573.2 559.2 551.5 538.5 521.7 513.5 508 506.8 505.2 507.4 512.2 515 529.9 546 559.6 575 588.9 598.7 607.2 616 603.2 589.8 584.4 583.1 584.3 585.7 572.6
764.3 777.4 791.1 800.8 809.4 817.7 824 827.2 825.7 821 812.8 811.5 807.3 802.5 795.7 789.1 781.1 772.4 768.8 766.8 764.7 764.5 765.6 760.7 761.7 766.6 771.9 780.4 790.4 799.4 806.1 812.7 812.8 811.5 809.6 797.2 783.6 769.4 755.4 745.2 733.3 719.8 708.3 703.6 698.2 693.7 691.5 688.1 685.3 682.3 678.8 675.2 672.6 668.1 662.6 655.3 639.9 627 612.4 594.8 578 564.9 543.5 540.3 550 557.8 567.4 578.1 580.7 583.6 589.4 597.5 605.8 614.3 622 630.1 633.6 631 624.1 615.5 602.2 587.8 567.5 546.7 534.9 519.9 538.6 559 580.4 604.5 621.5 637.8 666.3 691.7 718.7 722.7 714.8 709.1 702.7 696.4 685.8 672.5 654.5 666.5 676 682.7 695.1 706.9 718.8 734.1 749.3 773.6 802.4 836.3 870.5 902 924.5 942 957 964.2 967.2 968.9 970.7 972 974.6 976.1 977.5 977.5 977.8 980.5 981.8 985.6 989.8 993.8 997.2 998.3 999.5 1000.1 998.8 995.9 990.1 983.5 973.5 962.5 957.4 953.1 943.1 942.4 953.2 959.1 944.8 918.4 891.9 859.2 844 846 864.5 858.2 847.7 835.4 823.2 794 773.6 772 759.1 732.2 716 687.8 665.1 636.2 623.5 613.8 601 589.5 575.5 563.6 549.5 535.8 530.9 515.7 511.1 505.6 499.6 507.1 503.7 512.6 528.4 543.2 556.6 571.8 585.3 594.9 604.4 597.7 582.9 577.7 578.9 574.8 569.1 554.5
766.9 782.6 796 804.7 815.1 822.6 827.9 829.1 826.3 819.7 802.9 798.7 797.7 793.6 787.6 780 774.6 766.3 761.2 758.7 757 754.6 752.1 750.5 749.2 749.9 757.3 764.5 773 780.5 788.8 796.2 801.8 800.9 798 785 769.3 757.9 748.9 736.4 721.1 709.5 700.5 692.1 689.5 687.8 683.3 679.6 677.6 674.9 672.1 668.8 665.7 663.8 661.8 657.4 641.5 627.4 618.4 603.2 582.3 570.3 549.3 532 537 548.6 555.3 565 571.6 575 579.8 587.9 598.9 608.5 618.5 626.1 629.7 626.9 619.6 609.3 594.5 580.1 562 542 527 516.2 531.5 556.9 576.7 604 623.5 635.9 659.4 695.4 715.6 714.7 709.9 701.7 697 690.4 677.4 665.4 648.7 658 670 675 688.2 700.5 713 728.5 743.4 767.9 795.5 825.5 855.3 887.2 917.9 936.7 952.5 961.1 964.1 964.9 963 963.3 964 964.8 964.5 964.3 967 972.8 973.5 976.7 979.4 981 985.5 988 989.9 990.4 988.7 982.9 977.7 971 964.3 957.6 953.5 951.5 951.7 952.6 956.7 961.9 961.6 941.5 922.9 897.9 876.3 901.5 904.8 896 889 875.7 851.9 834.5 812.8 810.4 794.8 765 756.8 711.3 686.6 663.7 646.5 634.6 622.9 609.9 596.2 583.5 567.9 552.7 540.7 537.9 530.6 513.4 505.9 496.3 500.7 505 513.5 525.5 538.7 557.1 571.3 583.4 589.5 587.6 576.8 572.4 570.7 560.2 547.6 540.5
769.3 784.1 798.8 808 819.7 825.9 830.1 829.6 825.8 820.3 813.9 803.8 788.2 782.1 777.8 772.4 765.7 759.2 753.9 749.5 746.8 743.3 742 742.3 742.3 740.9 742.9 749.1 756.1 761.3 767.6 770.8 773.6 777.3 774.4 762.5 748.5 740.8 737.7 726 709.5 698.8 690.8 684.8 680.2 679.7 676.1 672.3 671.4 669.5 666.7 664.2 662.6 662.4 660.5 658.1 643.9 631.6 619.6 608.7 589.5 572 558 542.5 517.1 534.6 541.5 553.9 560.8 565.5 572.3 581.5 591.9 602 612.7 622 625.8 619.4 611.1 601.3 587.2 571.6 554.5 536.5 522.9 511.1 529.7 549.1 574 599.9 621.2 633.6 656 689.6 707.5 708.3 702.7 696.5 689.9 678.8 665.1 654.5 639 657.6 663.4 669.9 682.3 694.3 707.4 724 742.1 764.1 789.2 814.5 843.9 876.7 911.2 934 949.8 959.2 962.4 960.7 957.2 953 949.6 949.9 950.8 947 955.8 960.6 964.4 966.2 968 971.1 975.2 978 979 978.8 976.9 972.7 966.6 961.2 954.6 951.8 949.7 950.3 951.9 953.7 958.2 962 964.4 964.2 958.6 934.3 912.3 936.1 936.7 927.3 925.7 908.1 890.1 862.9 856.7 841.9 822.7 800.3 767.9 751.3 716.1 689.8 670.4 656.9 647 634.8 621.4 608.6 591.9 576.3 555.9 545.7 540.3 526.4 508.7 500.8 493.8 500.5 498.9 510.5 521.2 540.8 555.2 567 577 576.1 570.6 563.6 557.7 542.1 528.2 523.1
771.4 786.1 798.4 812.8 823.9 829.5 832.3 829.8 825.6 820.2 814.5 805.4 796.5 790.2 781.3 773.4 764.9 759.9 751.4 745.2 738.1 734 731.9 734.7 735.4 733.8 734.9 737.1 739.7 741.3 747.8 747.9 742.9 746.8 744.8 732.9 720.8 715.6 717.4 707.1 695.9 686.6 682.8 678.7 675.8 672.8 670.6 666.3 665.5 665.2 663.4 661 659 660.3 660.3 659.1 650.2 637 621.6 608.6 596.4 579.6 563.3 544.8 523.8 518.5 532.4 539 547 557.4 566.1 574.5 584.8 597 609.5 618.1 619.4 610.8 598.7 588.9 577.3 562.1 544.1 532.1 519.2 516.1 528.6 547.7 571.2 595.1 613 627.8 652.7 685.3 700.8 700.5 694.2 690.2 683 670.7 658.1 639.4 638.9 650.1 655.2 665.5 677.2 689.3 704.4 721.8 740.7 762.8 785.4 810.7 837.9 868.3 904.6 931 947.1 957.6 961.5 959.2 951.7 942.2 935.1 930.9 926.1 935.3 946.9 951 953.6 955.3 957.9 961.3 965.2 967.5 968.1 967.9 966 961.3 954 949.7 948.2 946.1 944.8 947.2 950.3 954.9 958.4 962.4 966.5 969.3 969.1 963.4 948.6 948.9 945.4 940.6 936.8 936.3 924.8 893.4 895.6 874.5 853.5 822.4 810.9 776.3 750.4 717.8 699.3 685.6 673.3 663.4 649.9 639.2 620.4 600.3 569.9 555.7 548.2 539 527 514.1 497.9 488.2 489.5 497.9 507.7 522.7 539.1 552.5 562.8 565.4 560.7 549 537.7 524.7 513.5 503.2
771.4 787.3 801.3 815.6 825.7 829.9 832 830.5 826.6 821.8 815.4 811 805.2 796.8 787 779.9 771.9 763.3 755.3 750.2 742.8 738.1 730.3 724.5 727 727.5 726.5 726.5 727 726.6 724.4 723.5 721.2 724.6 716 708.3 699.2 694.3 690.8 685 675.6 675.1 676.4 672.2 665.6 664.5 663.6 661.4 660.6 660.9 658.3 658.5 658.3 661.1 661.4 659.5 653.4 640.4 625 610.9 598 583.6 560.4 538.4 526.2 502.1 517.9 526.2 536.5 546.2 558.8 565.3 576.4 591.1 603.6 612.5 612.4 598.3 585.2 574.1 561.9 542.7 528.8 524.1 514.2 516.8 531 547.5 568.7 595 612.7 626.1 652.3 680.6 695.4 689.1 687.3 683.4 675.2 664.3 650.2 634.7 632.4 639.8 647.2 659 673.5 685.5 698.8 717 738.3 761.5 785 809.8 839.2 870.3 906.2 928.4 944.8 956.3 959.9 956.8 947.9 934 915.7 907.9 901 924.5 937.4 941.4 943.4 944.9 947.3 950.2 954.4 957.1 958.2 958.3 953.9 950.4 945.3 941.9 938.1 936.9 940 945.3 950.1 954.8 958.6 963.4 968.5 971.6 970.3 966.6 960.6 953.9 949.5 943.8 939.4 936.8 934.5 924.1 921.8 908.8 886 853.6 839.5 811.5 774.3 747.1 736 720.5 703.8 690.3 679.9 668.6 657.2 630 588.3 568.4 558.7 549.3 534.4 518.5 502.9 491.6 485.9 485.3 495 509.5 525.5 538.2 546 549 545 530.9 521.3 512.9 502.3 488.9
773.4 788 803.9 818.8 827.9 832.7 834.5 832.8 829.3 825.2 820.1 815.1 808.8 800.8 791.5 784.5 777.2 768.4 760.5 752.4 745 739.3 732.3 724.1 718.4 718.4 717.5 717.9 718.9 716.2 713.1 710.3 709.3 704.5 695.7 687.5 684.7 677.2 671.3 667.7 666.1 665.2 667.3 665.4 658.8 656.5 655 655 655.4 654.4 653.6 652.7 654.4 659 660 657.8 654.9 643.2 628.3 614.1 599.3 586 569.4 549.3 526.8 502.6 505.1 515.4 528.3 537.1 546.8 555.1 568 583.7 598 605.9 599.8 582 570.8 558 548.5 529.6 522 515.7 504.7 517.5 532.1 548.9 570.5 590.3 603 621.7 651.3 674 682.1 680.8 679.6 675.8 668.2 657.3 641.5 629.4 625.1 632.1 641.5 652.5 666.6 677.2 695.7 711 735.5 760.9 785.8 814 845.3 878.6 908.8 927.8 941.6 955.8 958.2 954.3 945.6 928.9 909.3 886.9 890 911.4 925 929.9 931.9 933.9 935.9 941.5 945.2 947.2 948.1 946.8 944.3 941.3 936 931.8 927.4 931.1 936 942.6 949 954.5 959.9 965.2 969.6 971.5 969.9 966.1 961 956 951.6 946.3 940.6 935.7 932.3 930.2 931.2 931.4 910.1 889 874.7 834.5 805.1 782.6 775.7 757.7 740.2 724 708.5 696.8 687.3 655.1 609.2 586.4 568.5 553.3 542.9 530.9 516.4 506 492.9 482.4 481.9 499.1 514 524.1 529.4 533.3 528 514.3 507.8 498.7 492.7 487.9
778.3 791.7 808.8 822.1 830.1 834.3 835.8 835.6 832.4 828.3 824 819.1 812.9 806.7 799.5 792.1 784.5 776.4 765.6 755.4 748 742.2 734.2 728.6 721 712.6 711.7 711.9 710.6 708.3 705.5 700.8 695.9 692.3 686.3 673.2 668.4 664.9 660.1 659.6 657.7 656.4 658 658.7 653.3 647.7 646.8 646.1 649 649.2 649.1 648.8 651.3 654.6 657.8 658.1 656.6 647 632.5 619 603.3 588.3 571 555.4 533.1 512.1 493.3 510.8 515.3 526.3 535 545.8 558.4 575.2 590.2 594 581 565.9 554.3 545.1 533.7 520.8 511.7 507.1 498.6 522.1 539.5 558.3 578.4 595.1 605.9 626.8 649.9 673.9 679.3 675.2 672.2 667.6 660.9 649.2 636.5 624.2 623.1 631.4 639 647.8 659.3 674.2 690.4 710.7 736.2 762.4 790.9 820.8 852.2 882.7 908.7 925.5 939.8 953.4 957 953 942.8 926.6 902.1 880.3 872.9 895.5 907.6 915.1 920.1 921.7 924 931.6 935.2 935.4 936.1 936.7 935.2 927.4 920.5 916.8 920.6 926.6 932.1 940.6 947.9 955.6 961.6 965.6 969 969.4 967.2 964.3 959.9 956.2 951.6 946.5 940.4 934.6 930.8 928.1 929.7 928.8 923.9 913.2 892.9 875.1 837.5 819.3 811.3 796.5 777.8 758.3 743.1 727.6 713.4 681.1 636.5 606.5 576.4 555.5 547.5 537.8 524.6 508.8 496.2 481.9 479.9 486.6 499.5 509.7 517.8 516 510.1 498.7 494.6 490.5 484.7 495.3
785.9 801.8 814.3 823.6 829.3 834.1 836.9 838.1 836.2 832.3 828.6 823.8 818.1 812 806.4 800.4 792.7 784.4 775.6 765.2 752.6 745.1 738.4 732.9 723.5 716.7 710.1 702.7 701.9 700.4 696.8 692 688 680.9 673.4 671.4 658.4 656.2 653.1 647.8 644.9 649.4 651.7 650.5 644.7 637.7 635.9 637 641.2 641.4 642.9 644 645.9 652.2 654 656.8 655.8 648.2 635.8 624.5 608.6 591.8 575.9 557.3 531.8 510.1 483.7 499.1 504.7 514.5 522.8 534.6 546.9 561.7 577.8 568.7 553.4 544.8 537.7 526.2 516.5 509.8 503.9 498.7 504.9 523.9 538.4 560.4 579.3 594.3 609.8 631 654.8 669.6 673 665.8 663.9 658.1 651.8 641.9 630.1 617.6 616.3 629.9 639.3 646.2 656.8 671.2 687.2 707.6 738.9 766.6 795.7 825.7 854.2 881.8 904.5 922.5 936.8 949.3 955.9 952.1 941.4 921.8 897.6 875.8 855.7 874.4 887 893.9 904.3 907.4 911.3 921.7 925.7 925.7 926.6 925 920.1 911.8 908 908.7 913.1 921.5 929.9 938.4 946 954.8 960.7 964.1 966.1 964.7 962.5 960.1 957.2 954.6 949.6 945 939.3 933.5 928.6 924.6 924.7 924 918.8 910.7 901.2 890.1 863.4 852 840.2 832.5 818.3 791.7 778.4 761.4 738.3 705.4 658.1 625.2 591.4 566.4 549.3 539.6 530.1 513.9 497.6 487 475.8 479 488.6 499.2 504.8 502.5 493.9 487.2 484.9 484 481.3 497.7
794.9 808.8 817.2 823.8 829 833.8 837 838.7 838.4 836.2 833.6 828.8 822.6 817 812.5 809 803.6 795.1 783.1 773.5 762 750 743.7 736.6 729.8 721.9 714 706.6 693.4 691.9 688.4 682.8 677.4 670.5 664.6 658.3 654.9 654.4 641.9 640 639.7 641.2 646 644 635.9 626.7 624.2 626.6 629.5 631.6 633.8 636.5 640.9 646.7 650 653.9 652.4 645.9 636.4 625.2 613.7 596.7 579.1 561.9 538 513.4 493.2 487 495.1 502.4 511.5 522.6 533.2 551.2 557.1 540.3 534.3 527.9 517.2 505.8 505.2 499 494 494.5 512 520.2 534.5 552.2 568.2 587.6 610.3 637.5 658.3 663.8 662.6 656.7 655.6 649.5 642.8 635.2 623.1 609.6 612.6 629.1 638.1 644.7 655.6 671.8 687.1 708.7 738 768.7 796.5 824.3 850 877.1 899 918.2 932.5 945.7 954.7 950.9 937.5 919.2 896.8 875.2 852.7 856.7 868.4 877.5 887 881.3 901.3 910.4 915.3 916.8 912 912.7 909.7 903.7 900.9 900.6 908.7 916.7 927.5 934.5 943.3 952.3 957.5 959.4 959.3 957.2 956.4 954.3 953.1 951.3 947.5 942.8 935.4 930 925.4 920.1 917.9 916.1 910.4 904.8 895.6 887.6 881 876.2 873.2 877.4 856.8 826.8 818.8 792.9 759.1 725.1 691.9 640.1 605.6 574.7 554.2 539.8 528.7 512.2 495.4 484.7 479.1 474.2 479.2 489.3 487.4 487.4 481.1 479.1 478.8 475.7 481.3 500.7
803.4 811.9 817.9 824.2 828.7 832.1 836.1 836.6 837.9 838.1 838.1 835.3 828.8 821.6 819.2 818.9 815.3 805.5 794.9 785.3 769.5 757.7 748.4 742.7 734.9 727 719.4 710.4 701.3 690.8 675.6 670.6 665.3 661 655.1 647.5 642 643.1 638.2 634.9 633.5 631.1 639.4 636.2 626 618.5 614.3 614.8 618.1 621.9 623.7 628.9 632.6 641.6 648.8 651.1 647.3 642 631.2 622.5 613.6 600.8 583.1 564.7 539.4 514.9 491.3 469.3 484.7 491.9 500.2 509.7 521.1 526.3 522.7 517.2 512.9 506.3 499.9 496.7 492.2 488.5 487.3 495.5 511.2 521.5 540.5 557.7 576.5 596.9 619.2 644.7 655.4 657.9 653.7 650.9 647.9 640.7 635 627.5 611.4 600.9 617 628.7 636.8 644.5 653.6 667.4 686.6 710.2 736.7 760.1 787.5 814.8 839.3 866.6 890.6 912 927.2 941.1 949.5 947.3 938.4 919.1 894.6 873.2 858.5 837.9 852.4 857.5 866.6 873.4 887.3 897.7 903.3 905.2 906.6 908.2 902.4 896.4 893.3 889.2 899.8 911.1 922.3 930.4 939.1 947.7 951.2 950.5 950.1 949.3 949.5 948.3 948 946.7 944.2 937.7 931.5 926.7 920.6 915 911.5 906.7 902.3 894 886.2 881.6 879.1 879.4 883.8 888.7 897.3 867.5 854.2 811.5 780.2 745.5 706 660.3 615.6 583.3 561 541.5 528.5 511.3 493.6 482.9 475.1 472.3 476.1 480.2 478.6 475.6 473.7 473.6 473 477.1 486.9 500.1
807.5 812.4 816.9 820.7 824.5 827.4 831 833.1 836.1 837.9 839.7 839.2 837.2 831.9 827.8 828.4 826.9 821.8 808.5 793.8 779.3 768.3 758.1 749 742.1 734.7 726.5 716.5 708.9 698.5 687.3 674.9 659.9 644 642.2 639.6 632.6 633.1 631.9 626.5 626.4 626.1 631.5 626.2 616.4 609.6 603.8 604.1 606 612.4 615.1 621.4 626.2 639.3 645.2 645.8 641.4 634 626.3 615.8 612.6 600.6 585 562.6 532.7 506.9 484.9 465.1 475.5 480.2 490.2 497.7 504.7 503.3 497.7 493.4 485.2 488.8 493.1 487.1 481 484.4 498.2 504.1 516.1 533.8 550 565.4 587.8 607.5 631.7 648.5 652.4 650.9 648.5 645 640.5 631.4 626.4 616.3 602.2 601.4 619 626.2 634.5 642.6 655.7 667 681.3 705.4 723.6 745.3 767.1 795 820.1 845.4 875.2 901.5 919.7 933.9 944.2 944.9 937.5 917.5 891.8 869.7 857.8 837.5 837.2 841.7 841.5 862.6 875.2 885.9 892.6 896.6 902.2 901.5 894.2 888.7 883.5 878.7 890 906.6 916.4 923 932.2 938.8 940.9 941.3 941.6 941.7 942.3 941 938.6 935.7 932.4 929.5 924.8 921.1 913.6 908 902.9 897.4 892.3 881.3 873.4 872.2 874 878.4 884.4 892 900.8 903.1 867.1 832.1 797.2 759 717.4 679.3 627.8 591.8 565.2 547.5 528.1 513.4 493.7 478.9 473 469 469.8 470.7 469.5 468.9 468.5 470.2 471.3 481.4 495.2 507.8
809.3 813.1 815.1 816.7 819.6 820.9 823.6 828.6 832.9 836 838.3 839.3 839 837.5 836.3 837.1 837.1 833.1 819.8 802.9 794.2 784.7 775.4 763.9 751.9 742.3 733.7 724.8 715.8 706.5 696.3 682.1 666.5 652.1 637.5 625.4 623.9 623.9 625.7 621.2 620.6 621.9 621.5 612.1 604.1 598.1 595.8 594.8 598.1 602.3 607.7 613.2 627.1 636.4 641.2 641 634.3 627.4 621.4 611.1 604 598.8 586.5 555.1 524 497.1 477.6 458.8 463.7 470.1 477 483.8 487.1 484.9 478.8 480.1 475.2 479.2 478.3 475.4 475.8 486 491.3 501.9 521.2 543.5 560.4 577.2 596.4 613.3 631.2 644.2 646.1 644.9 641.3 637.5 632.2 622.7 614.7 603 590.5 607.5 617.5 626.7 633.3 642.3 651.9 663.7 677.2 691.6 711.6 727.5 749.7 771.5 799 829.3 858 886.8 911.5 928 939.2 942.7 935.6 915 887.9 864.1 850.9 835.9 825.6 826.9 831 847.1 860.2 873.5 879.5 886.9 891.7 889.8 883 877.7 867 871.1 880.1 898.1 906.6 913.7 920.5 924.3 927.8 930.6 932.4 933.6 933.1 932.3 930.3 927.2 923.8 919.9 915.9 913.6 907.5 901.4 893.8 887.1 875.7 861.4 854.6 859.3 867.2 874.9 883.4 892.8 901.4 902.9 873.8 837.1 801.8 764.3 724.8 681 637.3 601.2 572.8 549.5 529.3 512.7 494.4 476 469.3 467.6 467 467.7 467.6 466.6 467.4 469.6 472 484.6 499.5 513.2
811.4 813 813.9 813.4 813.8 815.3 817.9 821.2 825.2 830.1 833.4 835.9 838.7 840 842 843.9 843.5 839.9 833.7 821 806.7 800.9 791 777.4 764.8 754.9 743 734 725.1 717.9 706.5 689.6 671.3 656.2 640 626.3 616 617.8 617.4 612.4 613.2 611.4 607.2 600.3 593.6 589 587.5 586.8 590.3 594.2 600.2 609.4 624 634.1 639.7 637.4 630.7 625.3 617.9 608.5 599.2 593.6 575.5 541 511 484.9 469.4 460.3 454.8 463 466.6 469.1 471.8 471.6 467.6 472.9 465.4 471 469.6 468.3 467.4 483.2 492.3 504.8 527.4 551.6 573.4 588.1 603.1 617.3 628.9 637.6 638 637.2 634.2 628 620.2 611.2 604.6 596.3 593.4 607.6 616.3 626.5 633.1 637.2 647.7 660 674 687.3 701.8 717.1 737 760.7 787 816.8 846.2 877.5 904.6 919.7 933.4 938.6 934.2 910.3 881.7 857 841.1 829.5 818.3 813.3 818.1 829.7 840 853.8 862.2 873.9 877 875.7 872.2 868.1 858.6 853.4 867.1 881.8 892.5 900.5 906.3 911.4 915.6 918.9 921.2 923.3 922.9 922.2 920.8 918 913.2 911.4 908.7 905.4 899.4 893.8 884.9 874.1 854.8 841.5 834.7 845.1 859.4 870.6 881.3 893.2 901.2 901.2 870.4 835.5 797.9 762 725.4 684.8 643.9 605.7 574.4 548.8 528 510.4 489.5 473.1 466.3 465.1 465.3 465.7 466.4 465.5 466.4 468.2 474.1 488.1 504.6 517.5
811.5 812 812.1 810.1 809.1 809 809.7 812.5 817.5 821.8 826.4 830 834.6 839.9 843.2 846.6 846.4 844.8 841.7 834.2 821.1 815.7 806 791.8 777.4 767.9 753.5 743.1 735.9 729.6 717.5 698.3 674.6 657.1 645.4 630.2 613.9 607.9 609.6 607 606.3 601.5 599.1 593.1 586.9 582.2 579.8 578.6 581.5 586.4 593.9 607.3 621.7 632.2 636.7 635.3 628.5 621.4 612.9 601.4 590 578.6 554 527.1 499.2 474.9 461.1 448.1 447.8 458.6 462.1 462.6 462.6 465.6 464.9 450.3 452.9 459.3 463.5 464.9 478.7 484.3 494.5 508.7 531 555.3 578.4 595.5 603.3 613.8 623.5 627.2 628.2 627.7 624.3 617.5 609 601 593.5 582.7 593.7 600.6 610.9 620.7 629.7 631.9 639.8 652.7 666.9 685.3 697.5 708.4 728.3 753.8 783.2 811 841.4 870.7 897.9 913.3 927.9 935.6 929.5 905.2 873.2 846.5 833.7 823.9 810.2 801.7 802.9 807.2 815.4 827.7 846.3 856.6 861.6 862.9 862.8 858.1 847.9 841 854.4 863 872.4 880.7 891 896.6 900.4 904.2 910 912.4 914.4 914.8 911 908.2 904.4 901 899.1 896.6 893.3 887.5 876 857.2 837.7 825.1 820.3 834.3 851.7 866.3 880.7 892.4 899.4 902 871.3 835.2 800.2 764.3 728.8 693.6 658.9 611.7 575.1 542.9 521 505.8 490 468.8 463.8 463.6 463.6 464 462.9 463.9 464.5 465.8 476.3 491.2 506 526
814.7 812.4 809.5 806.6 805.3 803.5 803 804 806.7 811.3 815.8 822 829.8 835.7 842.4 847.3 849.6 848.8 846.6 844.1 837.5 828 816.6 803.1 793 780.6 769.3 756.6 746 736.8 724 705.3 676 658.7 646.5 633.8 620.9 600.8 602.1 600.2 599.9 596.4 589 585.3 580 573.7 570.5 569.4 573.9 581 588.5 604.4 617.6 628 631.3 628.9 625.7 618.6 606.5 595.8 571.7 558.5 541.8 512.4 486.2 463.1 450 444.5 449.6 446.9 452 459.3 457.7 454.4 446.1 449.7 455.4 461.4 468.1 470.5 480.6 493.2 502.5 519.1 535.9 557.3 572.4 584.5 593 600.3 608.5 613.8 616.9 615.2 612.2 606.9 599.1 588.4 581.9 578.6 588.6 596.2 604 609.8 616.7 624.5 642.1 654.1 664.5 675.5 690.7 708.7 731.3 754.3 781.1 810.3 840.4 869.7 894.1 911.9 925.3 931.6 923.4 898 869.7 843.8 827.4 816.8 804.7 792.9 791.3 792.2 797.5 805.3 822.2 837.5 847.5 850.3 851.9 847.2 837.6 830.5 838.7 846 849.8 859.3 867.3 879.9 887.5 892.6 899.6 905 907.3 907.1 903.1 899.1 896.6 893.3 890.6 889.8 887.5 878.1 867.3 843.4 826.1 813.1 811.6 829.1 847.5 864.3 879.2 890.9 897.2 903.1 872.7 836.5 802.2 767.1 732.7 697 663.3 625.2 566.2 535.4 515.7 499.3 483.3 467.7 462.7 461.8 462.1 461.4 461.9 462.9 463.6 466.8 479.6 488 511.7 530.4
816.6 812.3 808 804.1 799.9 798.3 798.2 797 798.3 802.6 807.7 814.7 822.7 831.6 838.6 845.6 851.2 852.1 852.1 850.1 845.8 836.8 822.2 810.4 799.5 788.6 775.8 765.9 753.4 744 730.3 705.6 674.6 658.2 644.7 634.9 624 607.7 591 588.8 589.1 588.9 581.6 577.6 572.9 566.1 561.1 561.9 565.8 573.9 584.1 599.3 610.7 623.6 625.6 618 612.1 604.4 579.2 551 541 537.6 536.5 493.1 470.9 453 445.4 440.1 439.7 437.6 444.4 452.9 453.4 442.4 446.4 449.9 457 465.3 472.7 478.6 478 501 516.5 530.7 547.5 564.2 572.3 582.2 586.3 589.6 595 600.7 602 602.3 599.8 592.2 586.9 580.8 573.2 575.3 583.3 588 597.8 611.4 620.9 637.8 652.2 669 678.8 685.2 698.5 717.1 740.4 767.2 792.4 819.1 848 874.4 899.2 918.9 928.3 932.4 921.3 892.1 866.9 843.6 825.8 812.8 800.5 789.8 778.8 780.5 784.4 791.6 799 816.7 829.4 835.6 837.8 834.8 828.1 811.2 819.7 826.4 832.5 839.7 850.4 863.4 873 882 889.3 895.3 898.8 898.1 895.8 890.4 888.7 884.4 882.8 883 879.6 867.9 856.3 830.5 815.3 802.5 803.7 822.6 841.5 860.2 877.7 889.8 896.3 901.2 869.6 834.2 800.2 765.4 733.5 697.6 659.9 615.7 566.9 533.9 511.2 493.5 475.9 463.7 461.2 460.4 460.7 460.6 461.5 462.1 463.6 468.9 478.5 496.6 517.7 535.9
816.1 810.6 805.9 801.7 794.9 791.1 788.3 788.7 790.4 791.9 796.1 807.9 816.2 827.2 834.8 843.3 849.7 855.7 857.5 855.4 850.6 842.9 829.6 816.4 803.9 793.7 782.5 771.6 759 745.2 727.2 704.1 676.5 658.4 645.1 633.7 621.7 606.2 587.3 579.5 579 577.3 574.8 570 564.1 558.2 554.4 554.6 558.7 566.8 578.2 592.7 611.6 619.2 620.5 603.1 593.5 561.6 539.7 522.6 517 498.3 491.6 468.7 453.4 443.1 438 434.5 435.4 437.7 437.3 440.4 437.5 440.2 447 455 465.7 475.9 489.5 493.7 488.4 494 519.6 536.6 548.9 557.7 566.1 575.1 578.1 579.9 582.8 586.1 589 589.5 585.2 580.3 574.4 568.2 567.3 582.2 586.4 594.2 606.8 617.3 635.1 652.6 669.1 685.1 698.7 705.3 717.3 741.7 763.5 785.8 811.4 835.6 861.1 884.5 905 920.9 931.5 934.6 928.3 902.5 874 849 829.4 814.9 803.9 790.4 777.6 771.3 773.1 779.5 787.1 800.9 812.9 818.7 822.1 821.5 816.6 804.5 800.9 806.5 815.8 824.2 833.6 844.6 860 871.7 880 887.9 891 890.5 886.6 881.5 880 875.7 874.5 875.4 867.8 854.9 840.3 821.9 806 793.6 797.8 816.6 836.8 856.7 874.8 888.6 896.4 893.1 863.8 828.9 795.6 763 728.7 693.4 653.1 603.6 561 529.7 507 483.8 467.1 460 458.5 458.1 458.8 459.8 460.5 461.2 464 472.6 483.3 498 521.3 542.6
814.3 809.3 802.2 796.1 790 784.9 784 781.8 782 785.6 789.9 798.4 812.1 822.2 832.4 840.8 849.1 856.9 860.4 859 854.9 848.4 838.5 822.6 807.8 798.1 786.5 776.7 763.8 744.8 718.6 695.2 676.3 659.9 642.2 631.6 621.9 606.9 591.8 578.4 571.5 569.6 566.3 562.7 556.3 550.7 549 548.1 552.6 560.5 572 588.5 605.8 614.4 604.7 595.3 567.5 543.3 527.2 509.2 491.3 479.2 471.7 456.3 446.7 436.6 430.3 431 433.8 431.6 432.4 434.9 435.3 445.4 455.7 469.4 482.2 491.6 502.8 511 514.4 504.4 492.8 514.2 535.3 550.2 559.7 564.8 569.1 571 572.3 574.3 577.1 577.4 573.4 567.6 558.9 567.7 576.7 583.6 590.9 603 613 626.5 645.8 671.4 688.7 705.3 724.4 732.2 737.4 762.5 782.9 805.5 828.4 852.1 874.2 895.1 912.6 925.3 936 939.3 932.7 908.9 881.7 855.3 836.6 823.5 807.9 795.8 780.8 766.4 765.4 769.3 776.1 786.6 796.5 802.1 803.8 803.3 802.8 796.3 784 791.9 800.2 810 819.9 831.6 845.6 858 870.7 879.2 882.9 882.6 878.4 874.8 871 864.2 864.3 865.7 849.4 838.2 821.3 809.1 794.9 784.2 791.3 811.6 832 853.2 872.7 887.3 893.8 886.3 851.5 817.4 784.6 752.7 719.5 684.7 648.4 592.4 555.5 526.4 499.4 475.5 460.8 458.9 457 458.3 458 458.8 459.4 460.8 462.7 472.7 485 503.5 525.5 550
813.2 806.4 797.5 790.5 784.4 779.4 776.6 775.8 776.7 779 785.5 792.2 806.2 816.2 828.7 839.8 850.6 857.7 862.2 862.5 860 853 844.9 830 814.1 803.4 791.1 779.7 762.7 737.1 715.9 691.6 674.5 658.7 642.6 627.2 618.1 606.7 592.6 577.6 564.1 559.8 556.3 553.4 549.1 546.2 543.7 542 547.6 555 567.5 584.1 594.3 594.6 586 566.9 548.4 534.8 518.4 499.3 479.2 466.7 455.6 449.5 437.2 435.8 427.8 427 427.5 428.5 430.6 432.5 442 454 469.9 485.5 499.4 510.9 522.5 535 536.2 531.3 518.1 511 506.9 530.9 544 555.8 557.2 559.5 561.7 565.1 565 563.2 558.3 553.9 566.4 575.9 581.3 590.9 599.2 610.1 619.9 639.2 662.6 686.7 712.2 733.1 752.1 758.9 756.6 775.7 799.7 821.4 845 868.3 887.9 904.8 920.7 932.7 940.9 941.5 932.5 913.1 885.6 859.9 841.1 830.6 813.8 799.8 784.3 769.3 758.6 761.1 766 771.5 776.9 783.4 781.1 779.3 782.9 780.8 774.2 776.9 787.6 794.8 808.4 821.5 835.7 850.3 861.8 870.9 872.8 871.3 866.2 864.5 858.1 851.8 855.7 840.9 830.3 822.1 807.7 795.5 784.6 773.4 783.5 806.9 832.8 853.3 871.3 884.1 893 877.5 841.4 806.4 773.9 741.4 708.2 676.3 642.2 583.6 545.1 518.1 488.5 462.9 457.9 456.6 457 457.5 457.7 458.1 458.8 460.5 464.4 474.9 492.8 517.7 533.8 559.2
810.1 799.6 791.2 783.8 778.4 772.6 770.9 772.4 773.3 774.8 780 789.8 801.2 815 825.9 837.9 849.4 857.5 863.1 865.3 864.6 859.3 851.8 840.7 820.7 806.4 794.6 780 758.4 731.8 710.5 694.8 676.1 659.1 640.5 626.4 617.7 605.1 589.3 578.6 561.4 550.6 550.9 547.3 543.4 541 539.3 538.4 541.6 546.5 561.3 578 589.4 583 571.3 556.9 542.8 527.2 508.5 488.9 475.7 466.9 449 435.3 430.7 429.4 424.5 424.1 426.8 427.2 431.7 444 452.8 466 483.7 500 513.5 529.3 548.1 564.9 563.1 554.2 546 538.2 529.4 513.1 520.5 535.5 545.9 548.2 550.2 551.5 552.7 549.8 548.5 563.9 571.1 576.8 587.6 594.6 608.5 620.6 636.6 657 681.9 709.5 735.7 761.4 776.6 785.5 784.4 789.3 812.2 836 859.4 880.5 898.4 917 931.4 939.3 944.9 939.1 926.4 907.4 881.7 859.9 843.4 835.3 822.3 805.9 789.5 776.3 763.8 753.1 754.5 761 763.4 765.3 764 761.1 760.6 759.5 759.7 762.1 775 788 802.5 816.4 828 843.4 855.6 861.9 860.2 856.1 850.8 847.3 845.3 839.1 827.4 818 814 804.2 792.1 781.8 770.8 757.6 779.1 807 832.3 852.2 869.7 883.1 890 869.4 835.4 800.1 766.3 731.2 697.2 664 625.4 571.7 541.1 511.1 485.5 460.4 456.4 456.3 455.8 456.7 457.4 457.9 459.3 461.4 464.3 481.7 499.5 521.9 544.1 572
802.7 792.4 783.9 776 770.4 767 765.6 768 769.3 772.2 776.5 787.2 797 812 824.2 834.8 847.5 857.1 863.3 867.9 869 864.7 857.6 844.6 823.2 809.2 796.5 777.3 754.9 725.7 709.5 691.8 672.8 655.4 637.9 625.3 611.7 598.9 585.3 574.1 560.3 546.4 543.4 543 540.2 536.3 534.8 533.2 537.3 540.6 556.3 574.3 579.1 573.1 566.6 551.3 534.8 518 498.5 485.6 474.6 463.2 441.3 430.4 426 427.5 422.1 422.6 424.1 427.7 433.6 451.2 464.8 480.8 499.3 519.9 537.8 557.1 576.8 591.6 591 580.2 570.7 561.1 554.4 546 537.6 527.2 525.7 530.5 535.3 537.8 541.6 551.1 564.5 572.1 572.9 576.5 587.3 604.4 619 631.6 653.5 677 704 734.5 761.9 784.5 800.8 808.8 811 810.4 825.4 847.8 868.6 887.1 910.8 928.9 940 943 938.5 918.2 898.2 881 864.4 851.4 840.4 834.8 823.9 810.8 795.8 782.7 770 759.6 747.6 748.5 750.7 750.4 749.5 745.1 744.5 743.9 748.9 753.5 772.5 785.2 799.5 812.8 824.1 834.4 845.8 849.1 844.9 841.2 840.2 838.1 833.2 815 801.4 799.7 798.1 787.4 777.8 768 755.7 755 778.8 805.8 829.9 851.1 868.9 880.4 885.5 860.5 823.6 790.8 757.1 723.9 688.6 653.3 613.9 561.9 532 504.9 477.6 456.1 455.3 455.5 455.1 455.9 456.3 457 458.4 461.3 469.4 485.1 505.6 529 559.1 592.1
794 782.8 775.1 768.2 764.2 761.6 761.6 764.5 767.6 770.9 775.4 784.7 794.6 809 822.5 834.2 845.2 856.1 864 869.3 872 869.1 860.3 846.1 825 814.5 796.8 773.4 750.8 723.7 707.7 688.1 670.7 651.4 636.3 621.8 609.5 599.1 582.8 570.4 558.6 542.8 537.6 538.7 537.3 532.5 529.3 530.2 536.4 543.6 556.5 568.3 572.4 569 558.4 543 526.2 509.2 492.1 477.2 469.5 455 435.1 425.3 420.4 419.8 420.6 421.3 423.7 432.4 441.5 456.4 475.1 495.2 518.3 544.5 568.4 588.7 603.2 614.3 616.2 605.3 595 583.4 573.2 566 559.7 553.8 549.4 539.1 554.3 553.1 560.2 566.4 568.9 575.4 580.3 586.1 599.6 609.3 622.9 645.9 671.1 697.2 726.3 756.3 784.7 805.7 822.9 832.3 833.9 834.1 841.6 862.1 878 897.8 919.2 935.7 945.9 943.6 912.4 888.9 866.8 849.1 843.6 831.3 827.5 822.8 816.9 805.8 799 791.2 776.6 764.5 753.3 736.9 740.3 739 736.1 733.4 733.9 733 733.8 752 768.7 780 796 807.8 818.5 828 837.6 838 832.1 830.8 831.2 826.3 806 787.6 784.2 780.9 779.2 771.1 762 752.2 741.1 752.1 777.4 804.2 828.3 850.5 866.2 875.4 876.9 849 813.8 780.5 747.5 714 680.9 640.3 600.7 555.1 521.6 498.9 472.5 454.9 454.2 454.8 455.3 455.3 455.4 455.9 458.9 461.6 471.9 490.1 513.5 547.5 575.7 609.9
781.9 772.2 765.1 760.6 755.8 754.4 756.8 759.4 764.9 767.9 771.4 780 793.4 804.1 819 833.4 843.9 855.1 865.3 871.5 873.6 870 860.2 846 829.5 816.1 793.9 774.4 749.2 724.2 701.6 684 663.5 646.1 636.6 622.1 609.9 595.7 581.3 564.4 555.1 541.9 533.2 534.4 533.9 528.2 525.1 526.7 531.6 542 554.3 564.6 568.5 563.3 548.9 531.6 516.2 500.7 482.6 469.5 464.1 447.6 427 419.6 418.5 416.8 418.3 420.1 430.9 440.8 451.7 464.9 485.6 514.8 538.7 569.2 597.5 614.3 626.4 636.5 639.9 630.6 619.4 606.3 594.6 585.1 578 571.1 564.7 558.5 553.4 566.1 571.4 578.1 576.6 581.5 589.9 599.5 611.4 621 633.5 660.3 687 715.6 747.4 776.1 805.6 830.1 842.8 851.5 854.3 853.7 858.9 873.1 889.5 906.4 923.3 938.7 937.5 915.7 889.1 858.5 842.2 824.6 816.3 815.1 810 803.7 796.4 792.5 794.8 792.8 783.9 771 756.5 742.6 726.5 726.6 725.4 724.7 724.8 724.8 735.6 750.8 763.4 776 789.8 799.8 811.8 822.1 833.1 825.5 822.7 823 818.2 800.4 780.9 771.2 764.1 761.6 758.3 754.1 746.6 737.8 727.5 749.2 776.3 802.6 826.4 847.2 861.5 869.6 864.2 834.3 802.8 770.2 736.6 701.9 664.6 625.7 591.9 543.5 516.3 493.6 468.9 455.2 453.3 453.3 455 454.7 454.8 454.8 458.5 464.2 475.7 497.4 526.8 554.8 589.5 616.8
770.6 761.4 756.2 752.5 751.4 749 751.5 756 760.4 767 770 778.5 793.2 803.9 816.1 832.2 841.9 856.4 866.4 871.7 873.5 868.5 858.3 844.6 829.4 816.9 796.2 772.8 745.5 718.7 695.8 673.2 654.1 645.1 633.3 621.9 605.5 591.8 577.5 562.4 551.6 540.1 529 529.4 529.1 523.8 521 523.4 527.3 538.3 550.3 562.6 566.7 555.7 537.3 520.9 507.7 492.2 476.2 462.5 456.7 438 422.5 416.6 416.6 415.4 417.1 420.1 433.4 444.9 456.9 476.6 502.2 529 560.6 594.2 622 638.7 646.3 655.6 661.6 657.8 646.2 632 618 604.5 592.8 585.1 580.1 572.9 566.7 575.5 583.9 588 588.2 587.8 598.1 611.7 629.7 639.8 658.7 680.9 702.4 732 764.7 794.5 822.3 846.3 860.3 869.5 871.9 874.8 879.7 884 898 910.6 925 930.7 903.9 881.2 854.2 828.9 813.3 802 793.8 790.5 788.4 779.4 777.3 778.4 784.4 786.3 781.3 771.4 756.9 742 729.4 714.7 715.2 715 712.7 723.1 735.3 747.8 759 771.1 782.3 794.8 807.5 820.2 824.4 818 814.7 811.9 797.3 774 762.1 753.5 743.2 740.7 739.9 738.6 733.1 726.5 725 749 775.3 799.1 822.2 842.2 856.4 861.6 850.5 817.3 787.9 761.8 725.5 691 646.5 610.2 568 535.7 507 492.1 464.2 453.6 453.5 453.3 453.5 454.1 454.1 454.1 458.6 466.9 488.3 510.6 543.3 567.6 599.5 625.3
759.5 753.2 748.9 747.8 745.7 743.6 746.4 753.1 758.7 765 768.6 778.6 792.3 805.1 816.2 830.5 842.3 856.5 866.7 871.6 872.1 866.6 855.3 841.4 828 816.7 799.2 773 747.3 717.1 688.2 672.5 660.2 646.9 634 620 605.2 590.5 577.1 561.8 549 539.6 525.6 523.2 523.9 518.7 515.3 520.1 525.2 536.8 548 560 562.9 546.3 526.5 513.2 500.1 487.6 472 457 444.6 428.4 422.4 415.1 413.5 414.9 416.3 428.9 438.5 450.3 468.8 491.7 518 549 585.3 618.7 641.3 655.8 668.8 675 682.6 681.6 669 657 639.2 624.5 612.8 605.2 595.8 588.6 578.5 575 586.2 594.9 599.4 600.2 605 624.8 647.1 662.8 683.4 704 719.5 746.3 777.7 809 835.9 859.3 872.9 880.6 890.4 893.5 896.2 900.1 903.1 917.1 925.7 904.5 870.7 851.6 828.1 805.4 790.8 785.5 781 772.7 770.3 763.1 764.1 766.1 768.6 770.6 766.4 759.1 747.7 733.6 721.4 714 706.9 707.7 712.6 722.2 734 745.1 755.7 768 779.8 792.9 802.3 816.1 815.4 812.7 806.9 791.2 769.9 755.6 745.5 737.6 727 722.3 722.8 721.9 718.9 712.3 724.2 747.8 772.1 796 815.7 836.4 851.8 852.3 832.1 797 768 743.7 709.1 673.8 628.6 587.5 556.1 524.7 500.1 478.5 455 452.6 452.5 452.9 453.4 453.6 453.6 454.3 460.2 475.3 495.9 529.2 550.6 578 607.2 632.4
750.6 745.3 743.7 740.8 739.9 738.6 742.2 750.8 758.2 763.7 769.8 782.6 793.3 804.4 816.3 830.9 843 856.1 866 870.1 869.7 862.3 851.1 840.2 830.1 815.3 799 776.6 745.2 716.9 690.6 676 663.7 647.5 634.7 616.5 601.7 585.8 572.1 559.4 548.5 536.8 527.9 519.7 517.4 515.3 511.5 516.2 521 534.9 547 559.5 554.8 535.9 518.3 505.1 492.2 480.4 467.4 450.6 431.8 421.1 418.5 413.4 413.4 414.1 420 433.5 445.6 456 480.2 505.3 534.3 567.4 607.6 634.3 659.3 675.4 685.8 697.7 701.6 695.9 686.1 674.9 659.3 642.8 632.5 620.5 610.1 603.4 595 591.9 591.4 598.6 610.4 613.2 616 642.1 661 684.4 709.5 728.1 739.3 760.6 787.6 818 842.1 868.9 887.4 896 905.4 908.9 908.2 915.3 914.3 921.1 903.1 874.8 844.1 821.1 802.1 782.2 777.4 772.2 769.6 762.5 755.3 748.3 749.6 752.4 753 753 748.5 741.3 731.8 721.8 713.3 707.9 697.6 698.8 711 721.3 733.9 745.7 756.6 767.2 780.1 791.5 801.8 809.8 812.1 810 802.3 777.2 754.5 739.8 729.6 720.1 707.7 704.8 705.9 705.7 704.7 697.4 722.2 746.6 770.2 793.2 812.2 830 843.4 841.8 804.7 775 744 714.6 683.2 650.2 603.5 571.5 538.6 509.5 487.1 466.8 452.5 452 452 452.6 453 453.1 453.4 453.8 464.8 485.2 509.2 536.5 562.4 589.8 610.5 635
742.9 739.8 737.7 735.5 733.9 733.3 740.2 748.4 756.3 764.3 772.9 781.2 793.9 806.8 819.3 832.7 844.9 855.3 864.1 866.9 864.7 860.4 849.7 840.6 829.1 815.4 800 777.5 743.3 709 689.9 681.4 661.6 644.8 628.4 614 596.7 581.8 569.2 555.6 544.4 532.7 525.2 515.6 515.1 512.3 507.4 511.7 517 531.8 542.4 556 531.7 522.3 507.8 494.1 482 468.4 457.6 438.5 421.4 413.8 412.6 410.3 412.1 412.9 421.8 431.3 447.6 465.3 492.1 520.5 554 589 626.4 654.3 675.5 688.6 709.1 716.5 719.9 715.6 700.6 687.3 674.7 658.2 648.6 636.6 626.3 615.6 608.4 608 606.8 605.8 620.9 627.6 635 655.8 681 705.6 730.7 745.7 757 776.7 795.7 825.9 852.7 878.5 899.3 908.7 918.7 919.8 928.3 929.8 923.4 898.9 874.6 845.5 824.3 800.1 787.4 770.8 763.8 760.9 758.4 752.4 744.2 738.1 735 735.3 735.1 733.2 727.4 723.6 715.1 710 705.6 702.4 690.9 699.3 710.5 721.9 735.9 747.5 760.1 772 782.5 792.6 803.9 807.4 808.9 807.4 789.8 762.3 740.8 726.4 711.8 701.6 693.7 691.1 692.1 692.4 691.2 697 723.2 747.4 771.2 791.2 808 825.7 834 818.8 781.2 750.4 726 682.2 653.5 623.1 583.6 551.7 522.5 497.6 477.3 456 452.1 451.3 451.4 451.2 452.5 452.6 453 457.2 472.7 489.4 519.3 549.4 573.8 597.6 619 642.3
737.3 733.5 730.3 729.9 728.6 731 737.4 747.2 755.5 763.3 773.5 783.1 796.7 808.4 822.2 836.9 845.8 854 861.1 863.4 860.7 856.7 845.2 834.5 824.9 812.4 797.1 769.8 736.4 711.7 694.9 677.9 656 640.9 628.8 609.3 593.9 580.6 568.8 552.8 537.7 527.7 521.5 510.8 513 513 505.2 509.3 515 527.4 532.7 528.2 520.1 508.8 497 483.8 472 460.1 448.3 432.2 419.7 410.7 409.6 410.9 411.7 411 423 435.4 453.3 479.2 502.9 535.9 571.8 607.9 638.9 666.4 692.1 707.3 725.9 735.2 738.1 734.8 713.8 701.4 690.4 674 659.4 650.3 638.2 628.3 624.3 624.1 623.5 626 627.9 639.1 647.6 665.8 693.9 719.2 745.1 762.3 776 795 815.8 841 865.7 890.6 911.4 922.6 930.6 935.6 944 941.8 930.1 885.2 855.8 829.4 806.4 785.5 774.1 764.4 754.9 751.2 746.3 740.1 733.1 724.3 719.1 716.1 716.9 714.7 711.9 707.6 703.4 700 697.2 693.9 685.3 699.4 712.3 726.2 739.1 749 763.4 777.2 788.1 798.5 805.5 808.8 809.3 805 775.5 750.2 727.6 711.8 699 688.9 683.1 678.4 681.5 681.5 677 700.8 724 747.6 771 788.9 804.4 819.1 817.6 791.1 757.3 725.1 694.8 658.9 619.6 592.9 561.4 531.9 505.6 485.9 467.3 454.4 450.8 450.4 450.5 451.2 452 455.5 456.5 466.5 483.2 501.7 536.4 566.4 584.8 609.2 630.3 661.9
732.9 729.5 726.3 725.3 723.1 728.1 733.5 744.4 753.8 761 773.8 785.6 800.2 810.7 824 836.4 845.5 854.4 859 859.2 856 847.2 837.5 826.8 818 801.8 782 753 731.3 712.1 699.3 676.8 654.1 640.9 626.4 609.1 594.6 578.8 563.9 549.5 536.2 523.3 518.9 505.9 511 506.8 502.1 501.4 509.7 520.8 524 520 510.6 499 486.6 475.1 462.1 451.5 435.9 421.7 409.5 408.1 408 409.7 410 416.4 424.5 443.1 465.5 490.2 520.5 549.4 590.9 617.6 643.9 674.3 698 718 731.1 745.4 750.6 743.9 727.6 716.8 703.8 685.7 668.8 662.1 650.9 644.8 639.6 639 638.3 641 645 646.8 656.4 671.5 700.2 726.7 754 775.5 795.6 813.8 836.1 859.1 882.3 904.6 923.7 936.6 942.6 952.4 957.7 952.2 921.8 884.2 849.6 819.3 794.5 780.7 768.6 758.1 748.1 741.1 733.8 727.6 720 711.1 704.9 701.1 701.6 700.3 699.6 697.4 692.1 687.7 685.5 681.6 689.3 702.2 716.6 729.6 742.5 754 767.6 782.7 793.8 802.4 808.5 811.8 812.4 799.6 765.8 741.5 723 703.7 688.8 680.5 673.7 668.1 668.1 667.7 682.8 704.8 726.8 749.8 770.4 787.1 802.7 811.4 794.4 757.8 730 696.3 666.4 631.7 595.8 569.8 539.6 514.4 493.6 471.8 458 449.4 450.3 450.7 451.7 451.8 453.3 454.9 460.5 475.9 491.6 511.1 545.3 573.7 598.8 619.4 646.9 676
726.4 724.7 722.4 719.9 720.2 724 731.9 741.2 750.8 760.7 773.3 788.2 799.2 812.7 822.8 835.2 845 852.8 855.4 854.1 848 840 823.3 816.9 804.1 781.3 766.3 739.2 720.2 711.8 702.9 674.5 651.9 638.5 624.2 604.4 589.4 577.5 562.9 546.6 535 524.3 516.3 506.3 505.2 502 499.8 498 501.2 513.8 516.5 514.3 503.2 491.7 480.7 468.2 456.2 440.3 428.8 418 407.6 406.7 407.7 407.9 408.5 420.6 432.5 452.6 476.5 502.5 532.7 568 596.7 622.3 647.6 673.5 697.5 712.8 728 751.5 747.1 746.5 735.9 724.7 711.3 695.7 677.5 671.6 667 660.6 655.4 655 656.3 657.9 658.7 658.9 662.2 674.3 700.9 730.3 761.8 785.3 802.3 825.9 850 874.5 897.2 916.2 932.9 946.8 955.3 965.9 970.4 951.3 916.6 880.3 841.6 810.6 788.9 774.8 763.3 750.6 738.2 729.2 720.7 712.9 703.9 699 692 686.4 686.6 688.2 687.6 682.7 678.2 676.7 673.9 684.5 699.6 710.9 723.1 736.9 747.7 760.1 773.6 789.2 797.4 805.9 810.9 813.1 812.4 787.8 757.2 734.8 712.7 694.5 680.3 670.1 663.6 658.8 657.5 667.5 685.7 707.7 730 751.1 769.3 785.1 798.7 799.7 769 733.9 702.9 669 640.5 601.8 573.7 550.6 528.2 505.3 484.8 464.4 457.5 448.9 450.5 452.6 453.3 455.4 456.1 457.9 466.2 482.1 503 527 558.7 585.3 614.2 631.4 657.4 681.5
720.8 718.4 716.5 713.2 716.2 720.6 727.8 736 746.7 758.9 773.1 787.3 800.5 810.9 821.8 832 843.6 848.4 850.7 847.5 841.3 829.3 817.6 803.7 785.6 764.5 745.4 726.9 714.5 707 690.6 666.6 647.8 636.3 622.2 599.3 583.3 573.7 562.9 548.5 537.4 526.7 518.2 509.6 499.9 493.8 497.2 492.6 501 507.3 509.7 506 495.8 486.5 477.7 464.8 450.7 432.6 421.6 411.3 406.6 405 406.5 407.1 408.4 427.8 445.4 463.3 483.6 515.4 547 576.7 598.2 621.5 649 668.4 684.5 702.7 716.5 729.3 733.3 739.8 739.2 726.3 715.1 701 685.9 684.7 683.5 677.5 673.7 675.1 676.4 677.8 676.9 673.7 676.2 684.7 705.7 731.9 757.1 784.6 811.8 835.9 863.7 889.7 910.7 930.1 947 959 964.1 975.2 964.8 943.1 908.9 872.3 836.5 804.2 781 768.7 758.2 742.3 727.2 716.7 707.7 699.1 691.7 687.2 679.3 675 674.5 676 675.5 671 667.5 669.2 683.8 697.1 709.7 720.9 735.1 746.3 756 768.4 783.3 792.6 803.3 807.1 811.5 813 807.7 775.6 748.8 725.3 705.1 687.4 671.5 661.7 655.1 650 654.1 669.8 688.4 712.3 733.5 751.1 767.3 782.6 791.2 778.7 746.3 713.6 673.7 645.9 608.4 579.6 555.1 531.6 510.5 494.6 478.9 461.7 457.5 448.8 457.9 457.4 457.6 459.8 460.1 466 476.8 496.9 517.1 546.7 580.6 602.7 625.8 646.1 664.9 694.8
715.7 712.6 711.3 709.8 712.8 717.7 725.3 730.7 742.6 757 770.2 784.4 797.7 808.7 819.8 829.9 838.4 843.8 844.2 840.1 832.6 820.5 807.4 793.1 772.1 752.8 732.1 719.9 709 697.6 678.2 660.1 646.4 632.6 618.2 599.8 582.9 571.6 560.5 549.7 538 528.7 519.7 512.9 507.8 497.2 494.2 479.8 492.1 499.5 503.8 498.5 491 483.2 474.2 461.6 443.7 428.3 416.8 407.9 404.7 404.1 405 406.8 415.2 435.7 452.3 471.7 494 516.2 556 574.4 598.1 619.8 643.4 657.3 672.8 695.1 703.9 712.6 718.9 731.9 736.6 724.8 716.8 703.2 693.7 699.9 698 696.4 699.8 699.9 699.1 696.6 697.8 689.8 696.6 698.2 710.6 729.7 753.6 782.1 814.5 845.5 874.2 900.7 920.8 940.9 959 972.2 970.3 973.6 953.7 932.9 900 862.4 826.6 797.7 777.3 762.9 749.9 730.4 714.5 703.7 694.2 686.1 681.9 677.7 666.4 664.6 664.6 664.2 662.3 662 669.2 679.4 694 707.9 720 731.7 744.3 754.2 765.3 777.9 787.5 797 803.9 809.3 811.1 809.3 795.5 761.9 738.6 717.4 695 678.4 663.3 654.6 645.4 644.6 654.3 670 692.1 715.2 735.2 750.2 765.2 778.9 777.1 753.8 719.1 690.9 650 615.7 581.5 562.5 536.9 513.7 495.7 483.8 473.7 459.1 454.1 453.6 455.5 456.9 460.6 462.7 466.5 471 488.7 511.7 532 560 593.4 615.4 637.4 658.9 678.5 700.7
709.8 707.8 705.1 703.7 707.9 714.8 721.5 729.2 738.3 751.8 765.4 782 793.5 805 815.4 825.1 832 836.8 837.3 833.9 824.7 811.6 797.8 780.1 761.1 743.2 723.9 710.5 700.4 684.5 669.2 654.9 640.3 629.8 616 598.3 580 568.5 559 549.7 539.5 529.6 520.5 512.8 507.3 499.3 484.1 476.3 488.5 499.2 499.2 492.4 485.2 477.7 466.9 452.9 434.3 424.7 413.5 406.3 403.7 402.6 403.8 406.4 423.1 439.5 459.4 477.7 495.2 517.3 550.3 570.8 595 614.3 634.2 648.3 660.7 689.2 690.6 693.6 700 716.2 730.1 725.1 713.8 704.9 700.7 712.4 713.5 716.1 717.9 725.7 725.7 723 712.9 711 717.3 719.3 725 737.6 761.4 788.6 818.3 850.8 882.3 908.6 930.5 950 967.9 983.3 971.2 961.3 943.7 922.5 890.7 855.4 819.2 789.5 770.7 757 740.2 719.4 704 692.2 683.7 674.1 672.9 669.5 657.7 658.6 657.6 654.4 659 670.1 682.1 694.1 707.1 720.8 732.3 743.4 754.3 764.3 773.8 782.3 792.1 800.4 806.9 809.8 808.4 801.9 780.6 749.8 728.4 706.1 687.4 670.1 653.3 644.8 637.2 643.2 654 670.9 692.6 714.6 733 745.9 760.6 766.4 750.9 720.3 690.5 665.5 620.3 590.8 563.8 541.9 520.9 499.6 483.4 476.1 469.4 452.1 451.5 456.7 464.4 463 461.1 463.7 466.6 483.7 505.5 525.5 548.1 574 606.6 626.1 644.7 674.4 699.2 719.2
704.6 702.8 700.3 695.4 703.9 708.7 717.1 721.9 734.2 746.3 759 772.4 786.8 796.5 806.6 817.4 825.5 829.9 830 825.9 818.5 805.2 787.4 771.1 751.6 735.9 719.6 702.9 691.6 678 663.3 649.1 638.7 626.4 614.8 595.9 578.9 566.8 554.8 543.8 537.2 529.5 519.5 512.2 505.9 498.9 486.8 479.2 485.7 491.5 493.4 486.8 481.3 471.9 459.8 442.1 430.3 421.1 408.7 402.3 402.3 402.3 404.5 413.9 431.2 448.6 465.1 481.9 501.3 522.6 550.4 571.8 589.3 605.4 623.2 634.5 644.2 668 668.3 678.3 689.1 697.6 722.2 721.8 712.3 710.5 715.5 726.3 727.6 733.4 740.3 750.2 755.4 750.4 738 736.7 744 749.4 755.8 757.9 772.8 800 828 857.5 887.9 916.2 938.1 956 973.3 982.3 966 947.8 932 906.5 881.2 849.1 815.1 788 768.1 746.6 727.8 708.8 693.6 680.1 669.1 663.6 663.7 658.1 654.2 649.6 654.1 660.6 670.5 683.6 697.7 710.7 722.4 734.9 745.5 755 764.1 773.5 781 790.4 800.3 806.8 808.3 809 802.8 790.8 766.4 737.9 717.2 697.2 678.3 660 647.3 638.1 634 642.3 654.5 670.1 690.6 710.4 726.5 740.5 750.6 741.4 719 683.5 658.4 628.9 592.8 567.4 546 522.5 503.8 487.5 473.1 465.9 453.5 449.1 449.9 460.7 477.3 475.1 474.6 471.6 477.2 502.6 527.5 542.9 562.1 593.2 618.8 634.5 656.9 683.8 709.5 735.6
699.8 697.6 694.7 689.6 699.3 705.1 711 719.2 726.6 741.9 753 764.9 776.2 787.2 797.6 809.1 817.3 822.4 823 819.1 809.8 796.1 781.6 764 743.1 730.6 713.4 698.2 688.4 673.6 660.8 647.2 634.6 621.9 607.6 594 579.2 565.5 553.3 543.7 534.6 527.1 518.8 510.7 503.8 497.1 486.3 470.3 480.3 486.6 487.3 481.9 473.8 462.6 450.9 434.2 427.1 416.8 405.4 401.3 401.1 402.5 408.2 418.4 437.4 453.7 469.1 484.8 508.9 532 551.2 569.5 584.2 598.6 613 623.2 635.1 647.7 653.2 667.8 676.7 687.9 706.8 716.3 715.9 717.8 731.2 738.2 741.4 752.6 761.8 776 782.8 781 763.5 768.7 775.8 783 790.2 785.2 791.8 815.7 842.8 870.9 898.8 926.1 946 963.8 975.3 972.7 956.3 936.3 918.9 897.6 872.9 842.4 811.6 785.6 759.4 735.8 715.3 697.2 681.7 670.2 656.1 656.9 654.3 648.1 644.3 647.2 658.7 668.2 682 699 712.9 724.6 736.4 747.8 757.1 765.1 776.1 783.5 791 802.7 809.2 811.3 808.9 799.5 793.9 779.9 751.7 724.8 706.2 687.4 670.4 651.8 640.1 633.2 634.9 641.3 653.8 666.5 684.3 701.8 717.7 728.7 728.9 710.8 683.4 657.9 625.5 598.5 567.7 548.3 529.7 509.5 493 477.4 463.1 449.5 447.8 448.2 446.4 472.9 475.4 472.4 473.6 476.7 497.7 525.5 537.3 549.4 574.2 601 621.2 646.7 674 694.5 719.5 744.4
694.1 693 690.5 684.6 694.4 700.1 706.9 715.3 722.3 732.7 744.2 758.1 769.2 780.6 790.9 801.4 808.5 813.5 814.6 810.4 800.1 785.6 772 754.3 734.9 720.7 705 695.9 684.2 670.2 656.5 642.7 631.8 614 601.9 590.6 578.6 566.3 553.5 544.1 534.2 523.6 515.8 509.1 501.5 494.3 484.6 472.4 464.5 480.9 481.4 472.8 463.5 454 441.9 425.8 421.6 407.2 401.4 400.5 400.9 405.4 413.6 425.3 441.9 457.5 471.7 490.8 513.5 533 544.5 567 580 593.9 605.8 616.4 628.5 636.7 644.8 659.5 667.6 683.6 701.5 714.9 717.8 722.7 732.9 743.5 757.1 765.3 780.3 800 811.1 807.2 793.6 800.3 809.3 815.9 824.7 816.1 814.1 832.7 859.2 886.5 912.8 937.1 953.3 968 972.2 961.1 943.2 925.7 909.5 885.3 856.4 830.1 804.5 779.2 750.4 722.7 702.6 684.8 671.8 662.2 649.8 646.2 642.3 638.8 644.5 654 667.3 679.8 696 713.8 728 739.5 750.2 760.4 768.2 777.2 786.3 793.1 802 811.7 813.7 812.7 805.5 796.8 781.1 767.3 739.6 715.6 696.3 678.2 661.8 646.3 634.9 627.9 632.3 639.3 650.3 662.4 677.4 691.3 704.3 708.9 698 673.8 656.3 629.6 597 573.2 553.2 534.9 514.9 497.8 483.1 468 453 444.7 446.3 446.9 453.5 467.1 471.3 472.9 473.7 486.1 508.1 537.2 552 564.9 578.8 608.6 633.2 656.6 685.9 711.7 735.6 759.7
689.1 688.5 684.5 682.2 689.6 694.6 702.4 710 719.4 730.4 740 750.7 761.2 774.5 784 793.9 801.6 804.9 804.4 801.1 790.4 777 762.1 746.4 727.6 714.5 703.6 693.2 680.6 664.4 651 636.9 623.4 609.3 599.4 590.4 580.3 569.3 557.7 546.4 536.7 523.5 512 505.7 498.3 492.2 482.7 469 463.4 476 470.2 462.1 455.4 446.1 430.3 420.1 415.5 404.5 399.6 399.5 399.8 404.1 418.5 433 444.6 458.7 474.8 495.2 512.5 527.6 552.3 568.3 578.4 590.1 601.9 613 622 632 640.7 652.8 664.8 682.6 702.8 716.9 722.7 726.2 740 754.3 769.4 779.7 795.1 817.5 828.9 831.8 824.7 834.1 842.8 849.8 855.8 840.1 836.8 852.3 876.9 901.7 926.4 946.6 956.9 967 961.1 942.8 929.1 907.8 892.9 868.2 846.4 820.9 795.6 768.7 739.7 709.1 690.2 674.8 663.2 653.7 644.1 638.8 634.5 639.9 650.3 663.4 678.4 693.2 712.4 728.2 742.2 753.9 764.8 773.2 782.5 789.7 795.4 801.1 810.5 814.5 815.1 812.1 803.4 792.4 776.8 755.1 728.7 706.5 687.8 670.7 655 640.3 630.8 621.8 629 637 646 658.4 669.9 681.3 688.8 685.8 668.3 644.7 630.9 594 574.7 554.9 540.1 522 503.7 488.2 474.2 457.3 445.9 444.4 444.9 449 463.4 464.1 466.3 471.4 475.8 493.8 515.8 540.9 570.4 585 597.3 624.9 651.5 673.4 701.3 729.6 756.3 771
682.1 681.4 679.2 677.5 686.4 691.2 696.9 706.5 712.9 727 735.1 746.8 757.8 768.8 780 789.8 797.2 799.2 797.4 792.1 780.8 768.3 754.3 735.6 718.6 707.5 697.1 687.7 673 657.9 645.9 631 617.4 608.3 598.2 589.6 580.8 572 561.2 551.7 540.6 529 517.4 507.6 499.7 486.3 476.7 467.4 449 464 460.4 452.6 446 437.1 423.4 417.2 411.7 401.6 398.2 398.4 398.8 403.8 423.1 439.4 456.4 471 486.4 500.3 515.4 532.7 551.8 567.3 579.2 590.5 601.6 611.9 620.9 631.3 641.7 652.9 668.3 687.9 705.1 717 719.4 729.1 748.5 760 773.1 789.1 807.1 828.5 844.5 850.9 856.4 866.6 876.7 883.4 885.6 871 864.3 873.8 895.9 919.7 940.7 953.2 958.1 960 942.5 930.4 917.9 896.5 876.3 852.7 835.1 812.4 785.2 755.4 727.4 700.6 680 666.3 656.3 645.8 638.7 631.2 635.9 645.2 656.2 673.8 688.9 705.8 723.2 739.7 754.3 766.5 776.7 785.8 790.8 794.1 797.6 804.4 810.5 813.7 814.5 809.8 799.1 787.8 773.9 751.7 722.4 697 680.1 663.5 650 638.1 628.7 618.2 625.7 633.1 642.4 651.7 661 668.4 668.2 661.8 640.9 619 594 571.7 556.7 543.3 524.6 506.3 491 478 463.6 447.7 443.3 445 446.6 453.9 462.8 463.2 464.9 470.8 489.2 508.7 529.1 553.6 576.9 602.1 612.7 636.6 662.6 689.9 713.4 738.6 763 768.8
