ncols 200
nrows 100
xllcorner 130000
yllcorner 642900
cellsize 50
41.6 43.3 49.2 56.9 59.2 61.7 65.5 62.9 75.7 79 79.8 77.9 77.8 73.6 69.9 68.9 70.3 61.9 52.8 43 38.7 30.5 14.5 0.1 0.1 0.7 8.4 11.5 21.7 20.5 16.1 19 19.8 20.5 20.9 15.9 17.3 19.9 20.6 21.6 22.8 23.6 24 24.2 24.4 25 26.4 27.7 30.1 31 30.6 29.3 29.8 28.4 28 27.5 25.7 23 21.5 20.2 19.9 19.7 17.7 19.4 20.7 21 21.5 20.9 20.8 21.2 20.1 19.1 19.4 19.4 19.2 19 18.8 18.6 18.5 19.3 19.5 19.9 20.2 20.6 21.6 21.7 21.4 20 20.4 20.8 20.9 20.8 20.8 20.7 21.4 21.5 21.5 21.8 21.8 22.3 21.9 22.3 23.3 23.6 23.3 24.6 25.5 26 27.2 32.4 41.9 42 42.5 47.3 45.5 38.2 45.6 58.9 65.4 76.1 79.8 91 99.7 100.7 98.5 97.4 100.9 105.2 108.8 114.6 119.1 123.1 127 129.1 131.9 133 134.1 128.2 123.7 121.6 119.4 115.3 111.5 111 111.5 112.4 111.6 112 111.4 104.9 96.9 93.1 93.4 93.4 101.5 115 116.5 120.1 120.2 124.6 135 135.1 144 146.8 146.7 149.2 154.5 158.1 163.1 163.6 167.8 165.4 160.5 157.5 156.3 155.9 155 151.6 145.9 139.8 138.4 136.7 132.3 130.7 127.5 118.2 112.9 105.8 100.7 91.9 87 85.3 80.5 81.1 80.3 79.8 77.5 75.4 70.7 72.4
52.7 56.7 61.7 63.4 65.9 68.9 72 79.4 84.2 87.5 88.8 88.6 88.4 87.3 81.1 83.6 84.6 79.8 70.3 61.9 54.8 48.3 36.9 31 6.7 4.4 7.5 16.6 24.6 23.9 22.9 22.4 22.5 22.8 20.3 15.4 19.8 20.9 21.6 22.4 23.1 23.9 24.7 24.9 25.1 25.8 26.9 30.8 33.6 32.9 34.5 33.1 32.8 32.2 31.6 31 29.7 25.4 22.5 21 20.6 19.4 17.9 19.6 21.1 21.7 23 21.6 22.9 22.1 20.7 19.7 20 19.7 19.7 19.3 19.3 19.3 19.5 19.6 19.6 19.9 20.2 20.4 21.9 21.8 21.6 21.3 21 21.4 21.3 21.5 21.7 21.8 21.3 21.7 21.7 21.6 22.1 21.8 22.5 22.9 23.7 23.5 23.3 23.8 25.3 25.4 25.5 31 41.2 50.9 44.8 49.7 53.6 43.8 42.4 57.7 69.2 78.6 85.6 84.7 93.5 99.7 97.5 96.8 100.1 102.9 105.9 110.5 117 122.4 125.7 131.3 132 133.7 135.2 135.8 132.5 125.6 122.4 118.6 114.4 109.8 108.8 109.5 113.9 114.7 112.4 103.9 95.5 93.2 92.1 94 97.2 102.4 110.6 115.1 116.3 118.9 121.7 126.5 136.1 139.4 144.6 149.3 154.2 161.1 165.9 167.4 164.6 162.2 159.3 156.2 155.2 154.3 151.6 143.8 135.4 134 130.9 126.7 124.5 120.9 115.7 110.5 106.4 103 97.4 89.6 76.5 74.1 73.4 71.1 72.7 71.7 69.9 67.7 64.5 64.6
60.6 63.4 65.1 67.9 71 74.9 79.5 86.1 88.9 91 95.3 95.3 95.2 92.3 88.4 92.7 94.9 95.1 92.7 85.7 76.1 66 50.6 38.9 31.9 8.7 14 26.8 26.5 25.7 24.2 24.5 23.4 20.6 17.7 17.6 20.9 21.2 21.7 22.5 23.3 24.1 24.9 25.7 25.8 26.4 29 32.2 34.4 35.1 34.7 34.4 34 34.5 33.9 32 31 27.9 24 22 21.5 20.8 19.6 20.1 20.8 21.4 23.6 24.9 24 21.8 21.2 20.5 20.2 19.8 19.7 20 19.8 19.7 19.9 19.9 19.8 20 20.3 20.5 21.2 21.4 22 22 21.7 22 21.6 21.8 22 21.3 22 22 21.6 22.1 21.9 22.3 22.5 22.6 23 23.3 23.8 24.6 25.1 25.2 25.6 27.4 41 47.5 44 44 51.5 43.1 47.1 56.6 68.7 81.2 79.3 79.6 84.3 91.2 94.2 101 100.3 102.4 105.5 110 117 122.2 125.2 126.8 131 134.5 136.8 138 136.1 132.9 126.7 121.7 116.4 111.4 107.2 109.1 108.6 110.5 106.3 99.5 94.1 92.6 92.2 94 99.2 104 109.7 112.9 115.7 118.1 122 130.1 138 142.3 145.9 152.4 157.4 160.6 165.4 169 172.7 173.1 166 155.9 151.3 147.4 142.7 135.3 130.1 127.6 122.3 122.2 118.8 115.8 111.5 107.3 102.3 95.5 90.4 82.1 74.6 70.2 66.3 65 64.9 63.7 62.9 61 59.8 59.2
66.1 67.9 71.5 74.5 76.1 79.7 84.7 90.9 93.4 96.5 98.9 100.6 99.9 97.2 98.8 99 101.1 104 103.2 103.2 101.9 85.4 67.2 52.5 39.4 30 23.1 33 31.1 27 25.8 24.2 23.8 21.2 18.7 16.2 19.8 21.1 21.9 22.6 23.4 24.3 24.8 25.4 26 26.9 31.3 34.1 35.3 35.8 35.6 35.8 35.7 35.1 34.5 33.5 31.6 29.3 25.1 23.1 22.4 21.8 20.9 20.6 21.3 22 23.8 24.8 23.4 21.1 20.8 20.7 20.1 19.9 19.9 19.9 20.2 20.1 20.1 20.1 20 20.1 20.4 20.7 20.8 21.4 21.9 22.9 22.6 22.3 21.7 22.1 21.6 20.9 21.4 21.2 21 22.2 21.5 22 22.4 22.5 22.6 23.3 23.7 23.9 24.9 25.3 25.6 26 34.2 43.1 43.6 46.8 49.7 43.8 50.3 65 70.3 70.5 68.9 71.9 76.8 84.8 99 103 101.8 111.4 112.7 111.8 114.2 119.1 121.7 124.1 127.7 132.6 137.6 140.1 138.7 135.7 132 126.9 121.9 116.5 108.6 104.5 103.6 104.1 100 95.9 94.3 93.5 91.4 92.6 101.5 108.1 110.9 115.7 117.1 119.6 126.5 130.1 133.3 140.1 147.1 158.6 163.8 168.7 168 171.8 173.6 174 170.7 162.3 146.4 138.6 133.9 129.5 125.5 122.9 119.5 116.1 113.3 110.2 107.2 104.2 99.9 92 86.5 80 74.2 68.6 65 61.2 59.8 58.7 57.5 56.3 57.4 55.8
69.3 72.2 75.9 78 81 84.9 89.8 94.6 97.4 100.9 102.7 103.8 103.1 100.8 102.1 102 104.7 107.1 109.9 113.6 115 102.4 85.2 60.9 45.6 39.2 38.1 37 34.8 30.8 26.3 25 24.3 21.7 19.2 17.7 19.8 20.6 21.7 22.4 23.3 24.4 24.9 25.5 26.1 27.1 32.1 34.8 36 37 37.3 38.3 38.2 37.1 35.8 34 32.9 31.4 28 24.3 23.5 22.6 21.5 21.3 21.9 23 23.7 22.9 21.8 21.1 20.8 20.7 20.6 20.6 20.6 20.6 20.6 20.4 20.3 20.3 20.2 20.2 20.5 20.6 20.5 20.8 21.6 23.8 25.2 22.7 21.8 21.9 21.3 21.3 20.7 20.8 21.1 21.7 21.6 21.9 22.4 22.4 22.5 23.7 23.4 24.9 25 25.3 25.6 25.9 26 35.5 41.3 44.8 46.4 42.7 53.6 58.8 61.4 63.5 66.8 69 75.3 79.2 86.5 101.1 107.2 117.7 118.2 119.9 117.1 118.3 124.6 123.3 124.9 128.1 134 140.8 142.8 140.8 136.5 130.7 125 119.7 111.1 106.7 102.6 100.8 96.5 93.8 92.3 91.4 90.3 90.6 101.7 109 119.5 118.4 120 121.9 126.1 129.6 138.6 146.3 153.9 157.6 162.2 168.2 171.4 172.4 175 175.1 170 160.1 145.7 135.8 129.9 125.1 118.9 116.5 114.8 110.4 107.7 104.5 100.3 96.2 93.1 89.2 83.5 77.9 73.3 68.8 64.3 62 58.1 56.9 55.5 54.3 54.2 54.2
71.7 74.4 77.8 81.6 85.8 89.2 95.1 97.5 100.1 103.5 103.1 103.6 102.2 102.1 103.1 104.7 106 107.8 110.1 109.9 111.5 106.8 91.7 70 50.3 43.1 41.8 39.7 36.8 33.2 29.2 26.3 24.7 20 20.1 21.3 21.5 21.8 22 22.4 23.6 24.5 25.1 25.6 26.3 26.8 29 31.5 35.1 37.3 38.5 39.8 40.1 39 37.7 35.3 34.2 33.2 30.8 26.3 23.9 23.2 23.2 22.5 24.1 24.2 24.1 23.9 22.3 21.5 21 21.3 21.3 21.3 21.3 21.3 20.9 20.4 20.8 21 20.7 20.4 20.5 20.4 20.2 20.1 20.7 22.9 26.8 23.7 23.2 22.3 21.4 20.9 20.7 21.2 21.7 20.7 21.2 21.9 22.3 22.8 23.5 24.3 25.1 24.8 25.4 25.7 25.9 25.8 26.1 26.2 35.4 42.8 36 45.7 58.3 63.5 65.2 70.8 71.2 80.9 80.5 88.2 92.1 101.7 110.4 112.5 123.3 123.6 120.9 119.8 121.9 122.9 123.8 125.3 129 133.6 143.5 142.7 138.2 132.5 125.4 121.2 115.2 108.3 105.3 104.2 101.2 95.2 91 89.8 90.6 91.8 99.3 107.1 110 119.2 121.7 121.3 124 132.5 141.5 148.1 156 159.9 166.7 169.8 171.6 175.9 178.5 177.6 173.6 162.5 142.4 134.3 126.7 121.1 111.1 109 105.6 102.1 99.3 97.9 95.1 91.8 90.2 86.1 80.1 74.4 70.1 66.6 63.2 58.6 56.4 55 54.2 53.4 53.3 53.3
69.5 73.6 78.9 83.5 87.5 93.8 98 98.7 100.6 102.1 101.7 102.1 102.1 103.8 104.6 106.2 106.4 107.9 109.1 108.1 105.9 102.8 90.5 76.8 53.1 47 45.4 42.4 38.2 33.5 29.9 27.1 24.1 21.1 20.4 22 23.4 23.3 23.3 22.9 23.8 24.7 25.2 25.8 26.4 27 26.8 27.2 31.5 34.5 38.8 40.9 41.3 40.4 38.6 36.3 35.4 34.9 33.3 30.9 25.5 24 24 23.8 24.7 24.8 24.4 24 22.5 22.1 21.8 22.2 22.5 22.5 21.9 21.3 21 20.7 20.7 21 21.3 21.4 20.3 20.1 20 19.9 19.9 23 27.1 26.7 23.4 22.7 21.8 20.7 20.5 21 21.2 20.7 20.9 21.6 22.5 22.7 23.5 24.6 24.2 24.9 25.6 26 26.1 25.8 26 26 27.8 31.5 31.8 47.5 54.2 63.4 62.5 71.6 82.7 80.8 84.8 86.2 93.9 99.5 102.8 105.3 120.1 125 126.2 121.8 122.1 122.9 123.3 124.5 126.6 129.4 132.9 139.6 138.2 132 125.7 121.5 116.7 110.6 104.9 103.9 106.2 99.5 90.7 89.6 89.9 91.3 96.9 108.4 111.3 112.9 117.6 117.5 127.9 136.6 139.5 144.5 153 161.9 162.6 169.6 176.2 181.9 178.3 171 166.9 157.2 137.1 131.4 122 111.2 106 103 99.5 94.5 90.3 89.5 87.6 87.6 85.6 81 75.3 70.9 67.4 63.9 59.2 55.4 54.7 54.5 53.6 52.9 52.7 52.7
64.8 71.1 76.4 81.4 87.2 92.9 95.9 95.9 98.1 98.3 99.3 101.2 101.9 104.3 107.5 107.3 108.4 109 108.6 107.4 103.5 100.1 91.7 78.7 57 51.1 48 45.4 40.9 37.8 34.2 29 27.2 24.7 22 23.6 24.3 24 24 23.9 24 24.8 25.4 26 26.5 27.1 26.9 26.9 28.5 32 36.3 39.8 41.4 41.6 39.4 37.3 36.5 36 35.2 33.3 28.4 25.3 25.3 25.2 25.1 25.3 24.9 24 23.7 23.5 22.3 23.2 23.9 22.1 21.4 21.1 20.9 21.1 20.8 21.5 21.2 20.8 20.7 20.1 19.6 19.5 19.5 22.7 26.8 26.5 23.6 22.6 22.1 20.4 20.4 20.6 20.7 20.8 20.5 21.8 22.7 22.8 23.4 23.6 24.2 25.2 25.8 26.4 26 25.8 25.7 25.5 25.4 26.5 31.3 43.6 52.6 58.5 64.3 68.1 84 88.7 86.4 87.4 92.6 98.7 102.8 110.1 111.8 117.4 119.5 126.3 128 123.5 123.3 124.1 124.8 129.5 128.4 128.7 131 129.7 127.8 124.2 119.6 114.1 110.7 102.5 99.5 95 89.8 89 89.7 93.8 94.8 98.7 103.3 105.6 110.2 114.2 123.9 137.4 144.8 148.2 155.5 157.4 161.1 169.1 171.1 169.7 164.4 163.3 157.5 145.3 128.4 123.4 114.4 107.1 100.7 95.2 92.1 87.7 84.2 81.7 81.8 78.6 75.5 72.7 71 67.6 63.3 59.7 55.4 53.3 53.4 53.6 53.1 52.4 52.2 52.1
59.9 64.5 69.7 76 85.5 89.8 91.4 93 94.7 95.3 96.6 98.7 101.5 103.1 105.8 107.1 108.4 108.7 107.3 107.3 107.8 102.4 94.1 85.3 66.5 57.2 52.4 47.9 43.4 40.4 37.8 35.1 32.6 28.3 24.8 24.8 24.8 26.9 25 25 24.6 24.9 25.5 26.1 26.7 27.2 26.9 27.1 27.3 30 32.4 36.6 39.5 40.7 38.7 38.1 37.1 36 35.3 34.2 30.3 26.3 25.4 25.3 25.1 25.5 25.2 25.1 25 24.9 23.4 24.8 25.7 23.7 22.6 22.5 22.5 21.5 21.5 21.2 21.6 22.2 22.4 20.8 20 19 19.2 21.3 28.3 26.4 23.7 22 20.6 20.1 20.1 20.2 20.3 20.4 20.2 21.7 22.5 23.3 23.5 23.5 24 27.4 29.1 29.4 27.9 26.1 25.2 26 25.5 24.7 36.5 41.3 51.2 57.5 69 67.5 74.6 82.6 87.1 89.8 94.8 102.4 106.7 110.9 114 119.8 125.7 133.2 134.1 126.8 124.8 124.3 124.8 127.4 128.4 126.4 126.5 127 126.5 123.6 121.9 118 110.3 105 98.9 92.2 88.2 88.8 91.6 93.1 95.3 97 101.9 103 107.7 113.6 123.8 134 147.5 152.8 156.6 158.3 161.4 166.3 160.7 157.2 152.6 142.3 133.5 122.8 114.4 111.9 109 103 94.1 85.2 82 79.6 75.3 73.9 73.6 72 70 68.8 66.8 63.2 60.4 56.8 53.6 52.9 52.9 52.9 52.8 51.9 51.6 51.3
54.4 57.4 62.8 69.1 77.3 81.4 84.3 86.9 89.7 92.1 92.2 95.8 98.6 101.9 102 105 106.3 105.3 106 103.5 101.6 101.4 99.6 87.1 74.1 61.7 54.9 50.4 45.8 43.5 36.5 35.8 34.6 27.8 31.8 31.8 30.2 29.6 26.7 26.6 26 25.2 25.8 26.3 26.9 27.4 26.8 26.6 26.7 27.2 29.1 32 36.6 38.7 39.3 39.1 37.4 36.1 35.5 34.9 32.2 27.6 26.1 25.4 25.3 25.4 26.2 26 25.8 25.7 25.1 25.3 26.3 25.1 24.6 25.9 27.4 23.5 22.9 22.4 23.1 22.2 22.7 22.3 22.9 19.8 19.1 20 26 27.4 23.5 21.8 19.5 19.3 19.1 19.5 20 20.2 20.4 21.2 22 22.6 23 23.5 24.3 28.6 30.5 29.6 28.7 27.2 25.1 24.4 24.7 23.3 31.4 44.4 50.1 59.6 67.3 72.4 73.2 82.4 82.9 88.9 92.9 99.8 105.2 107.3 115.6 119.3 123.6 128.1 133 128.5 127.2 125.7 125.9 126.1 130.1 136 130.7 123.5 123.2 122.6 119.5 115.9 112.7 107.8 102.7 97.2 90.9 87.2 85.5 85.7 87.4 90.6 94.2 101.4 106.4 112.2 117.8 130.6 140.3 145 149.6 156.2 155.4 155.7 153.6 145 132.3 120.3 116 112.2 107.6 103.2 99.1 91.7 84.5 78 72.6 71.6 67.5 66.3 67.7 66.7 65.2 63.2 63.3 60.3 58.3 55.7 54 52.4 52.3 52 51.7 51.5 51.3 51.5
56 57.9 57.5 62.7 69.9 73.6 76.8 81.5 83.6 86.3 87.9 90.9 94.4 98.2 100.3 102.2 103 103 102.4 100.2 97.2 95.2 93.5 86.7 75.6 66.8 59 53.5 48 42.7 38.5 33.3 29.5 26.6 32.5 35.1 36.1 35.8 34.5 31.8 28.5 27.2 26.4 27 27.5 27.6 27.1 26.7 26.5 26.4 26.3 26.7 32.3 35.9 37.7 38.8 37.6 36.6 35.5 34.2 31.7 29.1 26.9 26.2 25.8 25.8 26.8 26.6 26.6 26.5 26.2 26.6 26.9 26.5 25.7 29 31 30.2 26.1 23.8 23 22.3 22.5 23.1 23.6 22.1 19.8 19.2 21.3 23.8 21.8 21 19.3 18.4 17.7 18.7 19.4 18.9 18.7 20.3 21.4 21.8 22.2 22.7 26 28.3 31.1 30.7 30.2 29.3 26.7 24.1 23.5 21.7 24.5 37.1 51.2 57.6 67.3 71 76.8 79.9 87.5 87 93.4 97.4 104.2 109.7 114 125 121.6 127 130.7 129 128.7 129 129.3 130 125.9 127.5 129.2 128.3 121.9 118.3 115.8 114.5 112.5 109.1 105.4 101.2 95.9 90.7 86.5 84.9 86.3 88.6 94 100.4 107 110.3 114.6 130.5 134.1 138.1 141.1 144.5 145.7 143.5 136.4 127.9 116.1 114 110.8 105.8 101.8 98.3 93.4 84.9 77.3 71.9 68.2 65.6 63.5 63.3 65.4 64.5 63.3 61.5 60.5 59.9 59.2 59.1 54.5 51.9 51.4 51 51.1 50.8 51.9 54.5
59.8 62.8 63.8 64.5 64.4 65.2 64.9 75.1 78.4 82.7 84 89.9 94.3 98.6 100.3 101.4 102.4 106.4 106.1 102.6 99.4 91.3 86.4 81.8 74.4 68.4 61.1 55.7 50.2 44.8 38.8 33.7 29.3 28 30.4 33 34.3 36.6 39.4 39.3 39.9 34.8 32.8 29.8 28.8 28.8 27.4 26.9 26.7 26.5 26.3 26.3 26.3 33 35.4 36.5 37.3 36.4 35.3 32.5 30.8 29.4 27.7 27.1 26.5 26.2 27.1 27.2 27.1 27.1 27.1 27.2 27.2 26.8 27.7 30.6 30.9 30.1 30 26.6 24.2 24 24 23.1 23.1 23.8 20 18.6 18.9 20 19.9 19.9 18.4 17.4 18 18.6 19.2 18.7 18.9 18.5 20.7 21.4 21.9 22.5 25.6 26.5 28.6 30.3 29.8 29.5 26.5 24 22.2 20.9 23.1 33.6 41.5 51.8 61.9 66.2 76 78.8 85.9 90.3 87 92.7 102.1 113 120.1 131.2 130.5 124.3 127 129.1 129 130.2 133.9 135.2 131.2 125.2 123.9 123.8 121.4 117.8 113.9 112.6 110.2 107.4 104.8 100.9 97.8 93.6 88.3 84.9 84.7 87.6 95 105.3 104.8 106 113.6 117.1 125.5 132.3 132.8 126.9 123.9 122.5 117.8 108.6 108.7 107.2 104.1 101.5 97.6 94.4 86.9 78.7 71.8 67.2 63.9 63.3 62.8 62.3 64.1 63.4 61.3 60.1 61.1 61.5 57.7 53.9 52.5 51.7 51.2 50.2 50.1 49.5 50 51.2
67.3 68.6 69.8 73.5 78.6 79.8 74.9 70.4 68.1 72.9 81 85.5 89.6 93.6 98.7 100.3 105 108 106.1 104.4 102.3 98.5 87.7 80.9 75.8 70.2 63.3 57.8 52.3 46.9 41.3 34.2 29.7 28.9 30.9 32.5 34.3 36.4 38.6 41.1 42.7 41.8 42.3 40.2 33.8 32.3 30.4 29 29.2 27.8 26.7 26.3 26.3 26.3 32.7 34.5 35.8 35.8 34.1 32.1 31.1 29.8 28.3 27.1 26.5 26.4 27.1 27 26.9 26.9 27.2 27.3 27.4 27.4 29.8 30.8 29.7 28.9 28.2 25.9 24.2 22.9 23.6 23.8 24.7 27 23.1 20 18.6 18.1 18.2 18.3 18.4 17.5 17.4 18 18.6 18.9 18.5 18.1 19.8 20.8 21.7 22.8 25.2 26 27.4 29.7 29.4 28.9 26.7 25.1 21.8 20 21.3 29.8 39.8 48.3 53.3 62 73 77.5 78.3 82.3 88.5 97.7 104.1 112.7 115.5 127.3 132.8 128.8 126.2 132.3 135.4 135.5 137 138.8 131.9 124.3 123.5 123.9 122 120.7 115.5 111.1 107.9 105.1 102.8 99.8 96.5 94.6 90.9 87.1 82.2 84.3 88.6 102.4 104.8 107.2 103.5 107.6 114.7 114.4 118.1 110.7 104.7 99.2 99.2 102 102.1 100.2 97.3 95.1 94.3 92.7 90.5 80.4 66.7 63.9 63.4 62.6 62.1 61.9 61.5 61.1 61.7 60 58.9 57.7 57.4 61.7 57.7 56.3 54.6 53.7 53 51.2 49.6 48.6
74.5 68.9 77.9 78.8 81.9 82.9 81.4 79.2 75.7 73.3 72.6 78.2 82.2 83.8 92.6 99.8 102.9 104.1 105.6 109.7 106.2 99.6 90.7 84.5 78.9 73.5 67 60.4 54.9 49.5 45.1 37.4 32 29.6 31.5 33.7 35.7 37.8 39.3 41.3 42.4 42.7 43.4 44.7 41.7 39.3 36.7 34.6 32.9 29.9 28.3 27.5 26.3 26.3 26.3 30.3 32 33.3 31.5 32.4 31.5 30.1 29 28.7 27.3 26.7 27.1 27 26.7 27.3 26.9 27 26.6 26.6 29 28.7 27.3 26.4 26.4 25.8 24.6 23.1 22.4 23.9 25 26.1 25.6 21 17.9 17.1 16.9 17.5 17 17.2 17.1 17.4 17.1 18.7 18.3 18 18.4 19.9 20.9 23 24.6 25.2 26.9 28.3 27.6 26.9 26.8 26.8 23 20.1 20.8 24.9 35.9 48.4 51.7 62.7 65.7 71.6 79.5 93.7 101 97.1 104.2 112.2 117.5 125.4 132.8 133.4 127.7 134.1 141.3 142.7 138.1 141.7 136.2 128.3 123.4 122.9 122.7 117.7 115.9 111.5 106.3 103.4 101.2 97.9 95.2 93.5 89.5 86.5 83.7 80.1 85.4 94 96.4 98.6 100.9 100.1 110.2 101 95.6 96.5 97.9 99.1 97.4 96.9 94.9 93.6 90.6 88.8 87.3 86 82.9 68.6 63.7 64.7 67 62.1 61.8 61.1 62.6 62.2 58.9 60.4 62.8 66 68.3 67.5 63.5 62.8 61.2 58.3 56.1 55.6 53.6 50.2
83.9 79.3 77.6 78.6 85.1 86 85.3 86.4 86.8 84.4 83.9 79.8 75.7 76.7 81.1 89.4 98.8 101.5 103.3 104.3 104.7 98.2 91.4 86.1 80.7 76.6 69.6 64.2 58.9 54.1 49.1 42.4 34.3 30.7 33 36.4 38.7 40.6 42.2 42.6 43.7 45.2 46.7 47 45.5 45.8 43.3 41.1 40 37 31.6 30 28.6 26.8 26.3 26.3 26.3 27.9 29.6 31.2 31.2 31.1 30.5 29.6 28.3 26.9 27.8 27.5 26.8 26.6 26.2 26.6 26.6 26.5 26.8 26.4 26 25.7 26.1 27.2 26.4 25.4 23.2 21.2 22.5 24.7 22.6 20.1 17.2 16.8 16.3 16.1 16.4 16.8 16.8 16.7 16.9 18 18.3 18.1 17.8 18.7 19.9 22.3 22.3 22.7 24 26.6 27.5 27.5 27.5 26.8 25 21.4 20.4 22.2 31 36 44.1 52.4 68.7 81.1 93 88.7 101 101.9 108.2 110.6 116.8 118.2 126.5 136.8 131 136.7 142.2 139.7 137 134.4 136.2 132.3 124.1 121.8 119.9 117 114.2 111.9 105.5 102.6 99.4 96.1 92.1 90 87.5 83.6 79.6 72.8 84.6 89.6 97.7 94.6 92 93.3 93.6 94.3 95.9 97.5 97.4 96.7 95.1 93.4 89.9 87 84.3 81.7 79.2 75.7 70.4 64.3 64.9 71.2 68.4 63.8 61.2 60 60.5 59.8 57.7 56.6 57.6 58.6 59.1 59.4 58.2 59.4 66.5 64.8 67.4 59.2 52.4 48.3
88.7 88.6 86.1 86.9 84.4 87.7 88.5 89.6 90.5 91 92 89.6 82.1 77.3 77.9 79.3 83.6 91.5 102.7 105.8 100.8 97 93 87.9 83 76.9 71.3 65.8 60.9 56.6 52.7 47.4 39.9 32.2 32.4 35.2 40.2 44 45.7 45.9 47.1 48.6 50.1 49.2 49.3 49.6 49.9 47.8 45.6 43.5 40.1 35.4 30.9 28.5 26.9 26.3 26.3 26.3 27.5 29.3 30 30.8 30.8 29.1 28.2 27.4 27.7 29.3 27.5 27 26.4 25.9 26.2 26.1 25.7 25.9 25.6 26.1 26.6 26.3 25.9 26.4 23.7 19.9 19.6 20.6 20.5 19.1 17.4 16.4 15.8 17 18.1 17 17.2 17.2 17.2 17.8 18 17.8 18 18.1 18.7 20.6 21.4 22.4 22.5 23.3 23.7 24.1 24.5 24.8 24.3 20.7 20.6 22.4 27.9 37.5 43.6 49.7 60.5 78.1 83.6 90.1 94.5 103.6 107.7 114.2 119.8 118.3 119.4 129.6 130 131.5 143.6 137.8 136.7 134.4 131.2 128.6 125.8 121.2 118.8 115.3 114.1 108 104.7 100.8 96.4 94.2 90.2 86.2 81.8 78.3 73.1 69.3 71.2 74.9 80.9 83.6 88.7 92.2 95.3 97.8 96.3 95.4 94 94.1 93.5 92.4 90.3 82.8 79.1 75.6 72.1 69.7 64 62.3 66.5 72.3 72.8 70.4 65.6 62.7 61.6 61.3 58.4 55.6 53.5 51.8 49.2 47.5 48.1 50.4 50.7 49.9 46.2 44.7 44 43.8
95.9 94.2 92.4 94 91.1 90.9 88.8 91.2 93.1 94 94.4 92.8 92.2 86.4 80.9 79 79.3 81.1 89.4 98.4 97.9 93.3 90.7 87.3 82.9 77.3 73 67.9 64.2 59.8 54.6 49 43.3 36.6 32.6 33.6 37.5 42.8 46.7 48.9 50.4 51.9 53.5 53.5 53.2 53.5 53.7 54 52.5 50.7 49.3 45.2 39 34.1 29 28 26.4 26.3 27.9 28.3 28.9 29.7 30.5 29.8 27.6 26.8 26.4 26.3 27 26.7 26.5 26.1 25.9 25.5 25 25.1 24.8 25.3 24.9 25.2 25.2 26.5 22.4 19.8 18.3 18 17.9 17.8 17.4 16.5 17.4 18.3 19.6 19.8 20.5 20.1 18.9 18.6 17.9 18 18.2 18.2 18.1 19.1 20.3 21 21.7 22.5 23 23 22.8 23.5 22.7 20.1 19.3 20.7 27.8 38.5 46.8 54.9 58.9 63.5 88.1 96.9 94.3 98.6 110 112 120.9 120.5 117.8 120.1 128.2 130.7 136.8 133.2 133.9 132.8 131.2 130.8 132.5 129.2 120.7 111.7 110.5 105.8 102.8 97.1 93.4 90.9 87.3 82.9 76.5 72.2 69.2 67.7 69.2 73.5 78.3 82.9 87.4 90.6 93.3 92.1 91.4 90.8 89.5 89.4 88.6 85.7 83.2 79.8 73.7 70.2 68.6 65.3 62.1 62.6 67.8 72.3 76.9 71.5 66.6 63.7 61.8 60.8 57.7 55.2 52.9 50.4 49.3 47.5 46.4 44.9 44 44 43.1 42.6 42.3 42.2
101.9 99 97.3 96.4 96.5 93.6 91.2 93.8 94.7 94.6 94.8 93.9 93.1 92.3 88.5 84.8 80.1 78.3 76 77.3 84.5 80.9 84 82.4 79.4 74.8 72.2 69.1 64.4 61.1 56.7 51 45.7 39.3 34.1 33.6 34.8 38.1 43.1 46.2 50.4 54.3 56.8 57.1 57 57.1 57.2 57.6 58.5 59.9 55.2 51.2 47 42.1 36.5 32.5 30.4 28.5 29.2 29.3 29.4 29.9 30.4 30.8 29.7 26.3 25.9 25.7 26.2 26 25.5 25.5 26.4 25.7 25.1 24.1 23.9 23.6 23.4 24.3 24.8 23.8 20.6 18.4 17.7 17.1 17.1 17 17.3 16.7 17 19.2 21.7 23.6 25.4 24.6 20.2 18.6 17.9 17.9 18.4 17.8 17.8 17.7 19.5 20.8 21.3 21.8 21.8 21.6 21.7 22.6 22 19.8 18.3 20.3 26.6 41.5 48.9 55.2 60.7 64.9 70.3 88.2 95.7 96.5 105.9 111.8 124.8 121.4 118.5 118.5 128.6 131.8 131.6 129.1 131.8 132.3 132.7 131.5 132.1 135.1 128.1 112.4 108.3 107.8 104.5 95.8 90.6 86.8 82.7 77.9 73.2 69.7 68.2 66.7 68.3 71.7 76 81.3 82.5 84.1 85.2 85.9 86.5 86.8 86.4 84.4 82.7 80.8 79.6 77.4 74.6 69.4 65.3 61.9 59.2 61.9 66 68.2 70.4 67.2 67.6 65.7 61.8 60.3 57.1 54.2 52.2 52.4 52 50.9 48.6 46.3 44.2 43.8 43.3 42.3 42.4 42.2
104.9 105 104.6 103.5 101.7 98.3 95.9 94.5 95.1 95.3 95.3 95.7 94.6 94.3 94.1 90.4 86.1 82.7 79 74.4 72.5 69.8 67 68.8 72.3 70 67.3 64.8 62.7 61.5 58.7 54.6 49.3 44.6 40.2 36 34.9 36 39.6 44.6 49 53.1 56.9 59.3 60.2 60.3 60.6 61 61.8 61 59.4 56 52.7 48.2 44.3 40.5 35.8 30.7 30.6 30.7 30.7 30.8 30.9 31.1 30.3 27.5 25.4 25.2 25.1 25 24.9 25.3 28.1 27.8 26.2 24.9 23.9 23.2 22.5 23.1 23.3 21.6 19.4 17 17.1 16.9 16.3 15.9 15.8 15.4 17.4 24.1 24.4 22.7 25 23.3 21.5 23.1 19.6 18.3 18.8 17.6 15.6 15.9 17.5 19.6 19.6 19.4 19.5 20.8 21.3 21.9 21.4 17.9 17.7 20.4 27.4 36.4 45.6 53.8 63.4 69.1 74.4 75 88.8 92.5 100.2 107 114.1 119.2 116 117.9 119.4 125.1 124.9 129.1 131.6 131.5 131.5 131.4 131.4 133.2 131.6 119 109.7 105.5 100.2 95.4 90 85 79.4 74.6 71.4 68.8 66.5 66.2 68.6 70.2 73.5 76.8 80.1 83.3 84.8 83.4 83.9 82.4 79.5 79.2 78 78.2 78.1 76.9 76.1 71.2 65.1 61.9 58.9 58.3 60.4 63.2 64.5 66.2 64 61.5 59.1 56.8 55.7 53.6 52.4 53.1 52.5 51.1 49.7 48.7 47.7 46.8 44.5 42.6 44.3 41.9
110.2 109.5 108.9 108.9 107 104.8 102.7 99.6 95.7 96.3 97 97.4 97.4 97.3 95.9 94.1 90.3 84.4 83.1 77.5 77.4 78.1 69.7 63.2 58.5 57.6 58.3 57.2 56.1 55.4 55.3 54 50.2 49.7 45.7 40.2 36.1 35.1 38.9 43.3 47.8 52.2 55.7 58.3 60.1 63.6 64.6 63.8 64.3 63.3 61.6 60 57.7 55.3 51 47.2 42.9 34.6 31.6 30.6 30.7 30.8 30.9 30.4 29.9 28.6 26.3 24.7 25.1 24.5 24.2 26 26.4 26.1 26.4 27.3 26.1 23.8 23 19.7 19 19.4 18.2 16.6 16.3 16.7 15.5 15.7 15.5 15.6 16 20.2 21.4 20.9 23.6 27.8 28.7 29.1 26.3 23.7 20.3 19.4 16.6 14.7 15.4 15.5 15.7 16 17.6 19.1 20.5 19.9 19.9 17.4 17.3 19.1 23.8 32.2 44.7 54.5 63.4 71.4 76.7 75.2 76 83.7 98.8 105.4 105.1 110.7 109.2 115.2 115.8 119.1 120.5 128.1 131.3 136.4 136.8 136.1 136.7 129 123.9 119 109.9 103.5 97.2 92.2 87.5 82.8 78.1 73.3 69.7 67.8 67 65.4 68.5 71.2 73.2 76.5 79.5 81.9 82.2 82.6 82.3 82.6 80.3 75.5 73.3 73 72.1 71.5 68.2 65.6 62.2 58.6 57.6 60.7 62.9 65.1 65.3 65.5 62.7 61 59.4 57 54 52.5 50.5 50.5 50.2 50.4 51.2 53 54.1 57.6 60.5 64 63.5 56.6
111.2 112.5 113.5 113.9 113.4 109.8 108.3 103.7 101.7 97.9 97.9 98.1 98.3 98.9 100 96.8 93 90.8 85.6 82.5 78.8 78.4 76.1 73.7 65.3 58.7 55.7 51.9 52 51.7 49.5 48.9 47.5 47.1 47.1 43.5 39.1 36.3 37.9 41.6 45.7 50.3 54.5 57.8 60.7 62.6 67.2 66.7 66.8 65.6 63.8 62.1 60.6 58.9 55.4 50.5 45.4 37.1 30.9 30.5 29.9 30.1 30.1 29.3 28.6 30 27.3 24.3 24.8 24.1 23.2 24.5 24.8 25.8 26.3 26.9 25.4 21.9 19 16.4 15.4 15.9 15.9 16.5 16.4 16.5 16.2 16.2 16.1 16.2 16.4 17.8 18.6 20 23 30.5 34 33.3 30.7 26.4 23.1 21.7 17.2 16 14.2 14.4 14.6 15.3 16.7 17 17.6 16.9 20.8 19.1 18.7 20 24 35.9 46.6 54 60.4 68.6 74.4 76.2 75.3 76.1 91.9 101.8 99.9 100.9 101.5 105.9 112.1 120.4 124.2 123.8 127.6 139.8 138.9 137.1 134.7 124.6 122.4 119.7 109.8 100.4 94.3 88.9 84.1 80 76.7 72.1 68.6 65.8 62.8 62.5 65.4 67.9 72.3 76.2 78.7 77.7 78.6 78.2 75.6 75.1 74.9 69.9 68.5 67.7 66.4 65.7 63.3 60.7 57.3 56.5 58.1 62.6 63.8 64.7 63.6 64 64.7 71.5 70.2 56.2 51.5 48.1 49.4 53 58.4 65.7 70.9 70.8 64.4 62.2 60.7 59.8 56.9 56.3
112.8 113.5 115.2 115.7 114.9 112.3 113.2 108.7 104.9 100.9 99.1 98.9 99.3 100.6 100.8 99.4 95.5 94.9 92.1 90.4 85.4 80.7 79.8 77.5 71.6 67 62.6 58.2 54.4 50.9 48.7 47.6 44.7 43.6 42 40.7 38.6 37.7 38.2 40.7 43.3 47.4 51.6 55.7 58.7 58.4 59.9 64.8 66.4 67.4 65.8 63.9 62.3 60.4 57.6 53.5 48.4 41.9 32.7 29.2 29.7 29.9 29.1 28.3 27.5 28.9 26 24.1 23 22.4 22.1 22.8 24.2 24.6 24.5 23.7 22.7 18 14.8 14.1 16.1 18.4 18.2 18 18.6 18.7 18.8 19 18.9 18.8 18.6 19.3 20.5 24 23 26.3 33.6 34.1 33.2 30 25 25.5 23.4 19.2 14.9 14.2 13.8 14.5 14.6 14.1 14.6 14.5 18.6 20.9 22.1 23.1 25.5 38.1 46.5 54 60.3 67.6 73.6 76.6 77.8 76.6 81.9 91.8 94.5 93.4 96 97 108.8 116.1 123.8 123.9 125.3 130.5 137.1 128.8 127.9 128.2 134.4 132.4 117 108 95.7 87.3 81.8 77.1 74.3 72.1 68.6 64.9 58.1 59 61.1 61 63.6 66.9 69.6 71 69.3 68.6 68.5 66.7 66.2 64.6 64.2 63.7 63.7 62.7 59.7 55.5 56 56.4 58 60.4 61.9 66.6 71.9 67.1 65.7 58.1 53.7 48.5 45.7 45 51.2 58.6 67.3 67 68.7 64.3 52.4 54.6 55.6 52.5 50.8 50.8
114.2 114.9 115.3 115.6 113.4 113 111.9 109.7 107.7 104.6 103 101.6 100.7 102 101.3 100 98.5 98.5 96.4 94.5 90.7 85 83.2 79.8 75.4 71.8 68.3 64.3 60.2 55.9 51.2 49.3 46.1 45 47.1 46.9 45.4 39.6 43.5 43.6 45.1 44.9 48.5 51.4 54.1 55.8 57.6 62.3 66.1 67.9 67.2 65.5 64.1 62.5 59.6 56.5 51.4 45.5 38.3 33.1 29.8 29.1 28.4 27.3 26.6 25.4 24.8 24.6 22 20.3 20.6 20.9 22.2 22.4 21.3 19.6 16.8 15.1 12.5 13.5 18.5 20.5 20.3 20.1 21.6 24.2 23.8 23.9 23.5 24.8 25.7 27.5 27 27 28.5 25.7 31.4 34.7 33.9 30.9 27.9 26.1 27 23.7 17.1 14.1 13.6 13.7 13.2 13 13.5 12.8 13.4 19.7 23.8 25.2 34.1 37.1 42.4 48.1 57.3 64.7 72.5 76.6 80.9 80.1 79.5 83.2 87.7 89.7 95.7 98.6 112 113.5 116.5 119.6 122.8 126.9 123.2 127.7 136.2 147.5 153.5 146.3 132.3 115.4 100.5 88.6 82.6 76 72.6 70.4 67.1 64 58.6 54 55.7 57.2 58.5 60.6 61.5 62.4 63.8 62.9 63.6 63.2 61.2 62.4 61.3 59.8 59.2 56.4 53.6 54.6 54.7 58.9 63.9 65.7 64.2 63.5 62 59 55 52.8 49.6 45.6 41.6 41.6 44.9 48.2 49.6 52.6 48.9 49.9 51.4 43.4 40.1 41.6 40 35.6
115.9 116.3 115.8 115.1 113.9 112.1 111 111 111.2 109.9 109.7 110.3 108.5 104.4 102.7 101.2 100.6 101.7 99.4 96.1 91.6 86.5 85 82.9 79.7 75.8 72.3 68.9 65.1 60.7 55.8 51 48.6 47.8 48.1 49.6 48.9 42.8 52.7 51.6 49.5 46.9 46.5 47.3 49.2 52 54.7 57.7 62 65.6 67.5 67 65.7 64.5 61.5 58.3 54.6 48.2 41.7 36.8 31.8 30.5 27.9 26.4 25.8 23.8 23.4 22.5 20.2 18.3 19.5 19.2 19.5 19.5 17.7 14.9 12.3 12 12 13 18.7 21.5 21.8 22.2 23.2 26.2 31.6 33.3 31 31.6 34.2 35.7 30.2 27.6 27.7 27.6 27.9 36.3 35.1 32.3 28.6 27.1 27.8 23.4 19.6 15.5 14.2 13.3 12.3 12 12.7 11.1 10.9 16 23 27.7 34.8 40.8 45.9 52.3 53.2 64 72.7 79.1 79.6 78 78.7 79.6 84.8 89.1 98.2 99 104.3 103.4 106.8 111.2 115 116.8 122.2 132.7 141.5 140.8 151.2 146.2 132.9 116.9 94.9 88 81.9 75.4 71.5 68.2 65.7 63.1 58.2 52.1 51.2 52.4 53.3 53 52.7 54.6 55.7 56.8 58.5 58.8 59.2 59.6 58.6 55 53.2 53.7 53.7 54.5 55.5 59.6 62.9 65.8 64 65.3 59.6 56.5 52.4 50.4 48.1 44.4 41.2 40.3 39.9 39.2 37 36.1 36.6 38.8 38.7 38.5 35.4 34.9 31.6 28
118.9 119.2 119.4 118.5 117.1 116 112.6 112.6 114.1 116.1 114.6 115.1 113.3 111.4 109.2 103.4 100.5 99.7 98.5 95.7 91.9 90.4 88.2 86 83.3 79.4 76 72.6 69.2 65.5 60.8 56.1 50.8 50 49.1 49.1 45.1 48.8 56.1 60.3 60.9 60.8 56.4 48.5 48.3 49.6 50.9 53.7 55.2 60.4 64.5 65.9 66 64.4 62.9 59.6 57 51.5 45.4 39.3 34 31.6 28.9 26.2 24.8 24.6 25.9 22.7 20.6 16.6 19.1 18.3 16.3 16.5 14.5 12.5 11.9 11.3 12.3 12.9 18.5 21.7 22.2 23.6 25.9 29 30.5 34.9 38.6 40.3 38.3 40.1 37.2 31.3 27.7 28.1 28.4 31 34.4 30.1 28.2 30.9 24.6 22.8 20.4 19 17 13.8 12.6 11.8 11.2 10.4 9.8 11.9 20.4 28.5 35.1 41.1 44.9 53 59.2 60.3 71.7 73.7 75.4 77.3 82 82 84.2 88.1 90.2 92.3 98.7 105.9 110.8 111.8 113.4 119 131.3 131.8 133.3 134.6 132.4 125.6 114.8 103.8 91 84.1 78.5 73.5 69.8 67.6 64.6 61.6 58.5 53.7 52.4 49.9 49.9 50.1 50.1 51.7 52.5 53.7 56.1 58 58.9 55.7 54.7 53.5 55 59.1 57.5 54.7 55.5 57.6 59.7 59.6 58.8 54.5 53.1 51.2 49.9 48.2 46.1 44.7 43.4 45.9 45.9 40.4 38.1 35.5 33.5 32.2 32 30.7 31.2 30.1 27.4 25.9
121.1 121.2 121.1 121.8 121.2 118.7 116.8 115.1 116.4 118.1 118.6 117.9 116.3 113.6 108.8 104.7 101.6 100.2 98.9 96.9 95.3 93.1 90.9 88.7 86.4 83.1 79.7 76.3 72.9 69.5 65.8 60.7 54.2 51.3 49.8 47.3 44.6 50.3 55.7 60.5 65.8 68.7 69.3 65.5 55.2 51.9 51.4 52.7 53.6 55 58.3 61.3 63.4 64 63.1 61.2 58.7 55.3 50 42.2 35.5 32.6 29.6 27.5 26.7 24.9 26.4 23.3 20 15.3 15.8 16.2 14.3 13.7 12.9 11.8 12 10.8 10.7 13 16.8 20.8 21.3 22.1 23.4 27.9 30.3 31.6 37.5 42.8 47.2 46.2 46.4 44.8 37.6 29.6 28.5 28.9 29.4 28.4 26.5 24.9 23.6 23.6 23.8 21.3 16.1 14 12.3 11.9 12.2 11.8 10.6 10.7 16.5 24.2 32.6 37.1 44.4 52 63.6 63.1 67.2 69.6 72.4 77.6 82.4 85.4 85.2 87.2 90.7 98.3 106.3 107.9 108 106.5 108.8 110.2 116 121 125.2 124.3 115.5 111.7 111.1 103.9 89.7 81.8 77.1 73.1 71 67.3 64 61 58.4 55.3 52.9 50.5 49.2 48.7 48.3 48.6 48.8 50 51.9 52.6 53.1 54.5 53.8 54.6 55.9 56.4 56.6 55.3 54.5 54.1 53.7 52.5 50.9 50.2 50.9 49.8 52.5 53.3 53.9 51.1 50.6 51.3 45.8 39.6 36.8 34.9 32.3 30.8 29.2 28.6 28.3 27.2 25.2 27
122.2 122.3 122.4 123.3 121.7 120.6 120.2 119.2 117.5 119.1 120.2 119.4 118.7 115.7 110.2 106.3 103.6 103.2 102 100.3 98.5 96.1 93.7 91.4 89.2 86.4 83.3 80.1 76.4 72.7 68.1 62.6 58.1 53 51.6 46.7 47.8 51.2 54.9 59.5 64.6 69.1 71.3 70.7 65 59 54.2 53.7 55.3 54.8 54.9 55.4 58.6 59.9 60.8 60.4 58.9 56.4 53 48.4 39.2 33.4 30.5 29.7 29.7 27.8 24.1 22.8 20 15.8 14.1 13.6 12.9 12 11.6 13.2 13.4 10.3 10.8 11.5 15.6 19.3 20.2 21.1 22 24.2 32.3 29.6 36.9 42.7 50.7 54.3 53.7 52.4 47.9 37.6 31 28.9 31.4 31.2 24.9 23.5 22.9 23.5 23.9 20.8 17.2 13.9 13.6 14.9 14.1 13.7 11.2 9.8 11.6 20 27.7 33 39.5 52.6 59.3 60.4 65.3 68.7 71.9 80.7 80.2 82.8 86 94.1 98.3 102.1 105.8 107.2 106.5 104.5 105.5 109.7 114.4 115.6 105.6 104.3 107.1 105.5 97.8 91.3 87.9 84.8 77.5 74.6 72 67.3 64 61.4 59 55.6 53.2 50.3 48.9 47.7 46.6 47 47 47.3 48.4 50.7 53.2 54.8 54.7 54.2 54.9 55.4 54.5 54.2 52.5 50.9 50.1 50.3 54.3 62.3 60.7 59.9 61.9 69.2 61.4 57.6 52.9 50.5 45.9 40.7 36.4 34 32.2 30.4 29 27.7 28.3 28.6 27.1 27.1
122.9 123.1 123.4 122.8 122.1 121.6 120.4 120.1 119.8 120 120.1 118.8 117.1 115.4 110.2 106.4 106.3 105.8 104.8 103.7 101.4 99 96.6 94.2 91.9 89.2 86 82.6 79.2 74.9 70.2 64.2 58.3 54 49.5 46.9 48.4 51.5 54.7 57.7 62.5 67 71 71.7 70.2 66.4 61.7 56.8 55 54.7 53.9 53.1 53 55.8 57.4 55.4 54.9 54.1 51 47.7 41.6 34.6 31.9 30.3 32 31.8 25 24.6 22.1 17.7 13.8 12.3 13.3 12.5 11.3 11.1 11.7 9.9 10.3 10.9 14.4 17.8 20.6 21.4 21.9 23.9 24.6 30.9 37.3 43.7 54.4 59 58.8 57.7 57.1 52.8 43 31.1 28.9 35.6 30.6 25.2 23.7 22.9 20.8 20 19.4 16.9 15.1 14.6 13.5 13.6 11.5 10.1 10.4 18.1 24.1 28.4 35.7 43.4 50.2 60 63.7 66.4 72.8 78.2 79.4 84.7 91.4 93.6 103.4 110 108 108.5 104 100.6 104.6 105.6 103.3 96.9 97.8 100.1 106.6 106.2 96.7 91.6 90.8 87.9 81.1 76.4 73 67.4 64 61.2 58.4 54.7 52.1 49.2 48.4 46.6 46.3 46.3 46 46 45.6 47.3 48.9 51.5 53.1 50.7 51.9 53.2 55.6 53.3 48.2 48.3 52.1 56 64 62.8 66.1 61.2 64.5 64.4 64.4 59.1 55.2 52.5 48.2 43 40.7 38.1 35.7 32.6 30.3 27.4 26.6 26.6 22.6 25.4
123.4 123.7 123.9 123.3 122.9 121.9 121.1 120.4 119.6 120 120.1 118.7 116.3 113.4 110.1 108.6 107.8 107 106.1 105.2 104 101.6 99.3 96.9 94.6 91.7 88.3 84.9 81.7 76.2 70.1 64.7 59.5 55.7 50.8 47.7 49.4 52.2 55.4 57.2 60.4 64.8 68.9 72.6 72.2 71.9 68.7 64.3 58.9 54.3 52.6 51.5 51.2 50.7 50.9 50.7 50.9 51 48.5 45.2 39.4 34.1 32.7 31 31.7 31.9 27.1 25.5 23.3 19.7 13.9 21.3 16.9 12.1 11.2 10.3 9.7 9.5 10 10.6 13.1 15.9 22.1 22.7 22.8 24.7 24.8 31.6 38 43.2 54 57.3 62.6 62.7 62.6 56.2 49 41 30.7 28.5 28.5 25.5 24.4 23.3 19.9 19.8 18.8 16.9 16.1 14.2 12.8 12.1 11 10.5 9.9 15.6 19.8 25.5 29.1 37.9 49.2 53.5 58 63.1 69.9 78.4 85.3 88.8 93.5 95.6 99.7 104.1 103.4 102.8 95.1 95.9 101.6 97.3 92 93 99.8 99.4 92.9 92.7 93.2 92.8 94.7 95.8 87.8 79.4 73.6 68 63.9 60.2 57.4 53.8 51 48.4 47.1 45.5 46 46.2 45.2 44.1 46.4 51.2 44.1 44.6 40.7 41.2 46.2 48.9 46 47.4 53 60.8 59.1 58.3 61.4 57 62.2 57.8 56.3 55.7 54.8 53.7 52 49.4 45.5 43.3 41.4 39.3 36.5 34.5 31.8 28.5 25.8 23.4 22.7 22.1
124 124.3 124.4 124 123.6 122.9 121.6 120.2 119.2 118.8 118.4 117.3 114.3 112.1 112.7 112.1 110.5 108.5 107.6 106.7 106.2 104.2 101.7 99.4 96.1 92.6 90.1 87.3 83.2 78.1 72.7 66.7 60.1 56.1 49.9 48.8 50.9 53 56.1 57.4 59.1 62.7 67.5 73.3 76.1 76.4 73.6 71 66.8 61.8 54.9 52 50.7 49.3 48.3 47.1 46.7 46.8 45.9 43.4 38 34.1 31.9 32 31.6 31.1 26.8 25 18.7 16.9 15 21.5 18.4 13.3 10.9 10.9 9 9 9.3 10.9 13.1 16.6 19.6 20.8 22.5 25.2 28.5 27.1 33.4 42.9 53.2 57.6 59.7 68.2 70.3 59.6 53.3 46.7 36.5 27.5 25 24.8 24.4 23.1 20.2 19.3 17.7 16.5 15.2 13.9 11.4 11.3 11.3 9.8 8.9 12.3 18.8 23.6 27.8 35.3 42 47.2 53 63 67.4 76.6 85.4 89.6 94.8 97.7 92.6 92.8 94.5 92.3 85 84.7 90.1 83.3 83.1 88.4 90.7 87.4 90.6 93.5 92 92.8 93.1 88.8 84.2 78.6 74 69.2 64 59.6 55.6 52.1 48.8 45.8 45.7 47.5 48.7 49.8 53.5 51.4 44.2 42.1 43 42.2 39.3 36 39.8 45.2 47.9 52.4 56.8 59.9 61.8 52.6 51.4 52.1 52.5 52 52.2 51.8 49.3 47.3 45.6 43.7 41.5 39.6 40 38.8 36.4 33.8 32.5 30.7 27.4 26.1 24.3 22.1
124.6 124.9 126 126 125.3 124.7 124.4 122.5 121 119.3 118.2 117 115.7 114.6 114.6 113.7 112.4 110.8 109 107.6 106.9 106.2 103.3 100.4 97 93.6 90.2 88.4 86.7 82.6 77.9 70.5 61.8 55.7 50 52 52.7 54.5 56.8 57.8 60.2 61.4 66.7 73.3 77.3 78 77.4 75.7 74.3 71 63.2 54.5 51.4 50.1 48.1 46 44.8 43.3 42.8 40.7 36.6 34.2 33.1 33.2 31.7 29.5 25.5 23.4 20.4 21.4 21.7 21.8 19.4 13.6 10.8 10.2 10.6 9.1 8.6 9.2 13 14.4 14.7 15.6 17.8 22.1 27.6 30.3 31.3 40.1 50.5 54.7 59.3 66.2 67.4 62.4 57.1 51.6 42.2 29 23.7 23.3 23.6 23.1 20.2 18.4 17.4 15.3 14.1 12.6 11.1 10.3 9.8 9.2 8.7 11.5 16.6 21.1 27.7 35.5 40.6 46.4 52.4 57.5 65.3 69.1 82.3 90.1 88.7 92.9 85.3 82.3 79.7 76.7 76.9 73.5 70.8 73 68.4 72.6 77 85.7 83.6 82.8 88.5 89.6 88.8 86.3 82.2 77.5 73.1 66.8 61.8 57.9 54.3 49.6 45.7 42.7 44.7 46.3 49.4 52.9 52.2 44.2 42.8 44.1 45.6 41.7 36.3 33.9 36.4 41.7 45.3 50.8 56.2 56.1 53.3 48.1 52.4 46.8 45 44.9 43.2 41.2 40.9 40.4 39.1 38.3 37.2 36.9 37.7 37.5 36.6 34.6 30.6 28.6 25.9 25.2 24.7 24.4
126.2 127.2 129.2 129.7 129 127.2 125.8 124.5 123.4 121.9 118.9 117.4 116.3 116.1 115.9 114.5 113.3 111.8 110.5 108.3 105.8 103.8 102.4 100.3 97.4 94.6 93.1 89.8 89 85.2 80.8 72.2 65.4 58.4 53.2 57.7 59 59.6 60.2 63.4 67.6 67.4 65.3 70.5 75.4 77.9 78.4 77.8 77.4 73.8 69 62.8 55.5 50.7 48.3 46.2 44.4 42.9 41.3 39.2 37 35.4 33.5 32 29.6 27.2 23.1 22.3 24.4 23.8 22.3 22.1 19.6 14.1 10.6 9.5 8.8 9.9 7.9 8.2 10.5 10.9 11 11.2 13.1 16.2 21.9 26.3 29.3 38.5 45.4 52.3 61 65.6 65.8 63.1 58.7 53.6 45.7 34.7 25.9 23.9 24.3 22.7 19.9 17.9 17 15.9 13.2 11.8 11 10.2 9.5 9.6 8.7 9.8 14.4 18.9 25.1 33.2 42 48.1 54.4 57.9 64 65.9 69.7 76.9 81.2 80 71.1 69.9 67.2 66.9 66.2 64.6 63.6 60.4 64 71 68.6 70.2 77.6 82.3 81.7 79.4 81.1 82.1 80.3 72.6 65.2 61.5 58 54.2 50.6 47.2 42.6 42.3 46.5 48.9 43.5 40.6 39.9 40.8 42.6 44.2 42.5 38.2 31.5 31.9 36.3 41.5 40.7 44.4 48.1 47.5 46.9 52.2 44.8 42 40.4 39.7 38.3 37.2 36.8 35.9 35.7 34.5 34.4 34 33.7 33.6 31.6 30.2 29.3 27.7 27 26.3 26.3 25
129 130 131.3 131.6 130 129.2 128 127 125.2 123.4 121.6 119 117.9 117.6 117.6 115.9 114.2 113.2 112.3 110.5 108.4 106.8 104.8 101.7 98.8 96.6 94.4 92.5 90.3 86.8 80.6 71.2 66.7 61.8 56.4 60.4 63.9 65.8 69.1 70.6 71.1 72.9 69.1 68.5 73.6 76.9 79.6 80.8 79.6 76.3 72.4 67.6 59.7 52.7 48.9 46.6 44.7 42.3 40.2 38.1 36.3 35.1 34.4 32.5 31.2 26.9 25.5 25.8 25.3 25.1 23.5 21.6 19.4 15.1 11 9.7 9.3 8.4 9.2 7.7 8.5 8.7 8.7 9 9.8 12.6 16.7 21.3 29.9 38.3 46.1 54.6 62.2 64.5 63.7 61.1 56.9 51.1 47.1 38.1 28.5 23.3 23.5 23.3 19.6 17.6 16.2 14.7 12.9 12 11 10.3 9.3 8.7 8.7 8.8 11.4 17.3 21 28.4 39.3 47.3 52.5 57.4 61 60.5 62.7 65.7 67.2 63.4 62.9 60.5 59.6 58.8 57.1 55.1 53.3 54 54.9 58.8 64.8 68 72.5 68.3 72.5 79.8 80.1 76.6 75.4 69.3 62.3 59 55.4 51 48 46.2 42.5 38.5 39.3 39.3 39.3 39.3 38.9 38.9 38 38.3 34.4 31.5 29.8 29.2 29.7 31.8 34.3 38.7 45.6 47.4 40.6 38.1 39.2 37.8 37.5 36.9 36.4 36.5 36.7 34.3 32.9 33.3 33.2 32.8 31.3 31.2 29.4 30 29.9 29.7 28.4 26.2 22.9 21.4
132.5 133.5 132.9 132.3 131.6 131.5 130.4 130.3 130.5 127.1 123.4 121.1 120.9 120.7 119.5 118.7 117.7 115.9 114.9 113.3 111.5 109 105.8 103 100.2 98.1 95.9 93.9 92 89.6 84.4 78.9 71 60.9 60.6 64.4 67.6 71.3 75.1 77.8 80 78.6 74.8 71.4 72 76.7 78.2 80.2 80.2 78.9 75.6 71.8 65 58.5 52.3 48.8 46 42.9 40.8 39.1 37 34.5 34.1 35.1 30.9 25.5 27.7 27 26.2 25.3 25.2 23.1 20.2 17 12.7 9.7 9 8.2 7.7 8 7.5 7.6 7.9 8.6 9.1 9.7 13.1 17.6 23.7 37 50.4 53 57.3 58.8 61.2 58.2 52.9 50.5 47.8 34.8 26.9 22.3 21.7 21.9 20.1 19.5 18.6 15.7 13.2 12.2 11.3 9.9 9.1 8.4 8 8.2 10.8 15.6 19.7 26.6 34.7 41.2 46.8 49.5 54.3 54.2 56.1 58.8 58.8 56.9 55.5 53.7 51.5 50.1 47.8 41.2 44.2 45.9 51.7 54.9 56.6 59.3 61.5 67 73.3 73.2 73 66.3 65.8 67.5 61.3 57.8 53.2 50.9 47.3 41.9 39.7 37.5 42.3 44.8 42.1 41.6 43.3 43.9 40 36.6 33.6 31.2 30.3 28.7 28.3 28.5 30.9 32.2 32.4 33.1 34 34.7 35.1 36.4 36.9 37.8 38 38 36.5 34.6 33.1 33.4 32.5 31 30.1 30.4 29.2 30.3 29.3 29.9 28.4 24.4 19.9 16.4
135.8 134.7 134.1 133.4 132.8 131.9 131.6 131.8 132 130.1 128.1 127.3 124.3 123.5 121.4 121.7 120.7 119.2 118 116.1 113.2 109.9 106.9 104.4 101.8 99.5 97.3 95.3 93.3 91.4 88.2 82.3 74.7 65.4 69 71.4 70.9 75.3 79.6 82.9 85.7 90 90.5 86 74.5 74.3 76.6 78.6 78.9 79.4 77.5 74.5 71.3 66.5 57.4 51.5 47.6 44.4 42.3 39.8 37.6 35 32.9 31.8 26.8 30.8 33 31.6 29.2 26.9 25 23.6 21 18 14.3 10.8 9.1 8.2 7.5 7.6 7.2 7.3 7.3 7.8 8.2 9 10.1 13.7 19.4 31.9 50.3 56.3 56.6 54.2 53.3 53.2 52.9 49.4 42.9 33.8 26.6 23.2 22.4 21.4 20.8 22.5 20.6 17.6 14.7 12.6 11.5 10 8.8 8 7.6 8 9.2 13.6 18.3 23.7 33 34.8 38.4 40.6 42.5 45.3 48.3 49.8 50.6 49.1 46.7 43.5 41.7 39.5 36.4 35.9 37.3 42.6 51.6 58.4 52.4 52.2 59.2 64.2 65.2 66.3 60.8 61.8 65 63 56.4 52.9 50.9 47.9 42.1 41.8 38 37.1 42.4 44 43.2 42.1 42 41 37.9 35.5 32.9 31.3 30.5 29.7 27.3 27.2 27.8 31.4 34.9 36.7 37.9 36.7 37.2 38.6 37.6 38.4 38.9 34.8 32.9 30.7 29.3 29.9 29.3 27.9 27.8 29.4 28.1 26.6 24.8 22.4 18.3 15.9 14.7 11.9
142.1 141.9 139.4 136.5 134.8 134.1 134 133.4 133.4 133.7 134.2 134.4 134 131.2 126.8 124.5 122.9 121.4 121.4 118.5 114.1 110.9 108 106.7 103.9 100.9 98.7 96.6 94.5 92.8 90.1 85.5 80.4 71.6 69.7 77.6 78.1 79.4 80.5 83.7 88.1 90.8 92.5 88.1 79.3 75.8 75.8 77.7 79.8 79.2 77.5 74.6 72.7 67.4 61 54.7 50.7 46.6 43 40.3 37.2 34.4 33.1 30 28 30.5 32.8 32.8 32.2 30.8 28.4 25.5 21.8 20 17.2 12.9 11.3 8.7 7.5 7.3 7.3 6.9 6.6 7 7.4 8.3 9.1 12 16.8 31.5 42.7 50.5 51.4 52.1 54.5 53.7 53.1 46 38.7 31 27.7 24 22.6 21.7 21.7 22.9 22.3 20.9 17.9 15.7 13.4 10.9 9.2 8.1 7.1 7.6 8.5 13.2 16 21.2 24.5 28.5 32.2 33.8 36.3 37.8 39.1 39.5 39.8 38.3 36.8 32 33.3 34.8 34.5 32.9 37.5 39.6 39 42.9 53.1 56.1 55.8 55.5 54.2 54.3 57.6 56.8 56.9 54 58.7 54.2 52.4 49.9 45.1 41.9 37.5 36.3 42.3 43.6 42.9 40.7 39.5 37.6 36.2 34.2 30.5 28.8 27.2 27.2 27.2 27.2 27.2 27.2 27.2 32.6 36.1 34.7 38.6 42.1 32.5 32.6 32.2 30.6 28.5 25.6 26.7 26.8 27.3 27.4 27.9 28.3 28.1 27.6 27 22.7 19.4 16.8 14 11.4
146.6 146.8 145.6 142.4 140.3 138.5 137.9 138.5 138 137.4 137.4 139 140.3 137.5 132 129.6 127 124.6 121.7 118.3 115.3 112.8 110.7 110.3 108 104.5 101.3 97.9 95.7 94 91.2 86.5 82 76 66.9 75 78.8 84.5 90.7 92.8 87.4 91 96.8 94.1 91 79.3 77.3 75.5 79.9 80.4 75.9 73.8 72.4 67.4 63.1 58.1 53.8 49.1 44.3 40 37.8 35.4 33.9 29.9 31.9 32 32.7 32.8 32.6 32.4 32.1 30.7 24.2 21.7 19.6 14 12.8 9.2 8 6.9 6.9 6.2 7 6.4 6.8 7.1 8.3 9.8 15.2 22.4 31.5 44.5 50.8 54.7 55.2 55 53 45.2 39.8 31.8 28.4 24.9 23.3 22.3 22 22.6 22.8 21.9 19.8 18 15.6 13.1 9.9 8.5 7.1 7.7 7.7 12.2 14 16.6 18.5 20.9 25 26.8 29.4 30.9 30.1 28.8 29 28.2 29 26.9 31.9 34.6 34.6 31.8 31.9 34.6 41.1 46.3 50.4 51.1 48 49.2 53 54.3 55.4 53.9 54.9 53 53.2 54 51 51.4 53.2 43.6 39.5 34 34 37.2 40.4 38.4 37.3 35.4 34.5 31.2 30.6 30.7 32.8 35.2 38.9 32.8 28.9 35.8 37.2 24.4 30.4 29.4 30.1 29.1 29.7 30.4 30.7 31.1 21.7 22.9 24.3 24.7 25.4 26.3 26.7 29.4 29.2 31 32.9 32.1 27.9 25.5 17.2 13
150.3 150.4 150 148 145.9 144.6 144.4 142.4 141.6 141.9 141 141.5 143.1 139.6 136.7 133.4 130.1 127.7 124.5 120.6 117.1 115 114.4 114.2 113.8 111.1 107.5 103.1 99.2 94.6 92 87.7 83.3 77 70.2 72.8 76.8 83.5 89.8 92.8 96.9 90.2 92.9 91.8 91.8 84.6 79.3 78.4 73.6 72.9 71.4 71.3 69.7 67.6 62.7 58.5 55.2 50.5 45.6 39.9 38.2 36.9 35.2 30.1 32.1 33.8 32.8 32.4 32.2 31.8 32.8 32.8 28.3 23.5 19.7 20.1 15.7 10.6 8.9 7.6 6.5 6.5 6.4 6.1 6.3 6.5 7.1 10.5 14.4 21.7 29.9 39.9 48.6 55.4 59.9 62.4 56.6 50.4 44 34.1 30.7 26.9 24.6 23.2 22.5 23.4 23.5 22.9 20.7 19.1 17.4 14.6 13.2 11.7 10.2 8.4 7.2 8.5 9.9 12.5 13.3 15.3 18.3 20.6 23.8 24 23.9 23.5 23.9 24.8 26.2 27.4 26.7 28 29.5 30.1 30.3 31.9 36.5 40.1 42.4 47.2 49.2 50.2 49.4 48.5 49.6 51.7 51.1 56 53.4 52 53.4 52.6 52.4 46.6 38.6 32.9 29.6 30.6 37.4 39.2 33 30.9 32.8 35.2 40 44.9 42.3 38.5 38.5 32.4 33.1 33.7 31.8 30.4 25.5 25.8 26.6 24.2 23.1 22.1 18.4 16.2 15.8 17.3 18.5 21.4 21.7 29.6 33.8 35.1 38.5 38.2 39.3 39.7 37.8 28.2 19.4 12.6
154.6 152.4 151.6 151.2 150.8 150.7 150.8 150 146.7 145.9 144.9 142.7 142.9 140.3 138.8 137 134 130.6 126.9 122.8 119 117.4 117.2 117.4 118.1 116.7 113.5 108.9 104.3 99.2 94.2 89.7 83 77.7 72.6 71.6 74.7 81.8 88.5 91.7 93.2 93.5 90.8 95 92.6 90.1 85.9 82.3 80.1 72.7 69.3 68.1 66.2 65 61.8 57.8 54.7 51.6 46.9 40.7 38.1 36.3 35.1 32.2 31 34.6 34.3 33.9 32.8 31.6 30.4 30.5 28.8 27.2 25 22.5 20.8 15.3 9.8 8.4 7.3 6.2 6 6.4 6.6 6.6 6.6 7.9 11.5 20.3 28.4 36.6 46.1 54.5 59 60.4 58.2 54.6 48.5 39.6 32.3 29.1 27.3 24.8 23.4 24.3 24.9 23.1 20.3 18.9 17.3 17.3 17 16.1 14.3 10.7 7.2 7.1 7.3 9.7 9.1 11 15.2 20.5 21 24.1 23.2 24.5 27.6 27.9 27.5 28.4 29.2 27.8 28.1 29.2 29.5 30 31.7 34.2 40.1 44.5 48.1 47.6 45 48.5 47.5 47.1 48 49.9 52.7 53.1 54.5 53.6 47 44.3 40.5 33.4 26.8 25.4 29.2 31.3 29.1 29.8 33.2 36.1 42.5 35.8 35.7 31.7 25.9 26 33.7 29.2 21.4 21 18.9 20.8 20.8 16.8 13.9 13.7 13.7 13.9 14.1 14.2 14.1 16 17.1 19.6 22.9 27.3 29.6 28.8 34 36.5 30.6 21.4 15.1 10.6
158.4 157.3 155.2 154.5 154.5 154.8 154.9 153.4 151.1 149.7 147.8 144.9 144.1 142.3 140.5 140.2 140.6 135.7 129.4 125.1 121.1 120 119.7 120.1 120.3 120.2 119.5 116.4 112 103.2 98.7 93.1 88.1 82.6 75.5 73.7 74.7 79.7 82.9 87.8 90.5 91.1 91.1 91.9 91.9 90.8 89.3 84.9 79.4 74.4 70.3 66.4 62.8 61.4 59.2 56.4 53.2 50.9 46.8 43.3 39.1 37.2 35.1 34.1 32.1 32.2 33.5 33.2 32.5 31.5 30.4 29.7 28.4 27.4 27.1 31.9 23.2 19.8 14.7 9.5 8.1 7 6.1 6.6 5.8 5.9 5.7 6.5 8.5 17.1 30.1 38.5 45.1 51.1 55.1 57.5 56 53.9 46.4 40.1 34 30.6 28.9 27.3 24.6 25.4 25 22.4 20.4 17.4 16.9 17.3 17 16 15.1 13.8 10.1 8.2 8.1 7.3 8.7 9.3 11.7 16.5 20.3 24.6 26 27.9 29.2 29.7 30.5 30.4 30.5 30.2 29 28.1 28.1 30.6 32.7 31.1 33.8 41.6 45.8 42.5 41.6 42.6 42.2 42.9 46.2 50.9 52.9 52.7 51.4 50.3 50.9 52.4 39.9 33.6 26.7 23.5 24.7 25.1 27.1 29.7 30.4 32.5 28.9 28.1 24.3 20.9 19.3 18.7 18 17.7 17.3 15.4 14.1 15.6 13.8 12.7 12.8 12.5 12 12.7 12.5 12.1 12.4 12.6 12.8 14 16.8 18.9 20.8 21.7 21.4 22 18.3 19 14.6 12.1
159.7 160.5 159.2 158.3 159 158.5 158.6 156.8 156.7 154.5 152.3 150 145.9 144.3 144.5 144.9 143.8 141.8 136 128.7 124.9 122.4 120.7 120.6 119.4 118.7 119.8 118.6 112 107.3 101.9 97 90.9 85.7 79.2 75.3 76.2 77.2 81.7 85.1 88.4 89.1 90.7 91.4 93.2 97 93.1 91.6 81.3 76.4 72.1 68.9 63.7 60.2 57.7 55.1 52.5 50.4 47.1 44 39.8 37.4 35.6 35.6 33.9 33 34.7 36 33.6 32.5 31.6 31.4 30.4 29.7 28.7 28.2 29.4 22 18 13.6 9.7 8.4 7.4 6.4 6.7 6 5.3 5.9 8.3 12 23.4 37.3 42.1 45.2 48.8 49.4 49.4 46.9 43.9 39.8 33.3 29.2 27.2 28.4 26.2 26 24.9 21.4 18.4 16.6 15.7 15.9 15.6 14.5 13.3 13.2 7.7 6.5 6.1 7 7.4 7.9 10.3 15.5 20.5 23.9 25.4 27.8 30.2 30.8 31.4 32.1 32.1 31.6 30.7 29.5 28.9 28.8 28.5 29.8 29.9 34.4 36.3 36.9 40 40.1 40.7 42.5 48.2 51 50 51.8 50.7 51.3 46.3 41.4 37.5 28.9 22.6 21.5 25.5 29.8 33 35.6 31 29 27.3 25.3 22.1 19 17.6 17.3 16.6 15.4 15 13.7 13 12.9 12.8 12.8 12.1 11.6 11.1 11.1 11.8 11.8 12 11.6 11.7 11.8 12 14 15.9 17.6 18.9 18.3 22 24.1 23.9 10.6
158.1 159.4 160.4 161.5 162.2 162.6 162.1 161.4 160.4 158.5 157.5 153.5 150 147.9 147.3 146.5 146 142.8 138.6 135.1 130.2 125.2 122.8 120.4 119 117.1 116.2 114.9 112.5 108.9 103.6 98.9 93.9 88.4 81.7 78.5 77.2 78.1 81 85.4 87.3 88.6 89.8 89.2 89.4 89.6 88.1 84.2 81.6 77.7 74.5 71.2 65.6 60.5 57.4 55.2 53.5 52.4 47.5 44.7 41.2 38.1 36.4 36.3 35.7 33.8 34.1 37.6 35.5 33.9 33.5 33.9 33.8 31.7 31 29.1 26.5 24.1 21.1 16.9 12 10 8.4 7.1 7 6.3 5.6 5.5 6.4 7.9 14.5 25.6 32.6 36.5 39.5 43 44.6 45.5 43.2 37.9 31.3 26.3 25.2 24.8 24.3 23.2 22.4 19.1 16.8 14.1 10.3 12 13.5 12.3 8.4 6.3 5.9 6.4 2.4 6.3 7.1 6.9 10.9 13.7 15.8 19.3 20.2 22.3 26.8 30.3 32.2 32.5 32.4 32.4 32 31.1 30.5 29.8 28.5 27.8 26.8 26.8 33.9 37.5 38.9 38.6 39.5 42.8 45.5 46.1 50.2 52.3 53.1 43.8 41.5 41.6 38.5 26.9 20.6 20.2 25.6 31.9 29.9 26.9 25.4 24.9 25.8 23.7 21.6 19.1 17.5 16.5 16.5 16.1 16.9 16.3 14.6 13.4 13.5 12 12.2 11 10.5 10.4 11.2 11.2 11 10.7 10.7 11.4 12.2 12.5 14 15.1 16 15.4 14.4 14 12.5 10.9
158.4 158.9 159.2 159.5 159.6 161.7 164 163.7 161.9 160.4 158 155 153.1 148.2 147.4 147.5 147 145.5 143.5 141.7 140.6 132.8 123.6 121.4 120.2 120.4 117.1 114.5 112.3 109.8 104.9 100.5 96 90.2 83.4 80.9 78.9 79.2 80.4 85.1 88.9 89.8 89.5 89.7 89.6 88.7 87.3 85.3 82.5 79.1 75.5 72.2 69.2 64.1 57.9 54.4 53.9 52.5 48.9 46.9 44.4 41.3 40.4 37.7 36.5 35.4 34.7 35.5 36.1 35.7 35.4 35.3 34.1 33.3 32.7 31.9 28.7 25.6 23.6 20.3 15.3 10.7 10 10 9.9 11.9 7.9 5.4 6.8 7.7 11 15.5 19.6 28 34.5 38 40.2 42 37.8 32.8 26.1 22.3 21.2 20.5 18.7 18.4 20 17.7 15.2 7.1 5.4 6.8 6.3 10.2 5.2 4.8 4.8 3.4 1.9 3.4 6 6.4 5.5 8.1 6.9 8.3 10.9 18 19.5 23.8 29.5 32.1 32.6 32.2 32.3 32.2 31.6 30.9 30.6 28 26.8 25.9 27.1 30.3 34.2 35.8 39 38.1 42.4 48.3 48.1 45.4 40.6 44.1 39.9 36.9 30 30.2 19.9 18 20.5 27.1 23.8 22.6 21.4 20.2 21.2 23.3 16.7 15.9 16.9 16 16.3 16.5 16.3 17.3 17.7 18.3 14.3 12.4 11.4 10.7 10.8 11.2 10.1 9.8 9.8 10.2 10.6 11.5 12.3 13.5 14.4 15.1 16 15.2 15.5 15.8 13 11.8
155.2 157.6 157.2 158.3 158.6 159.4 160.5 160.7 160.1 160.1 159 157.4 156 151.9 149.3 148.7 148.1 147.7 147.5 147.4 146.4 139.1 128.3 123.3 123.2 122.8 124.2 117.3 112.5 107.7 104.6 100.6 94.2 88.9 85.8 84 80.3 79.7 80.4 81 86.2 92 93.1 91.7 90.4 89.8 88.6 88.5 86.8 81 76.2 72.6 69.5 67.4 60.5 54.5 51.8 51.5 48.8 50.6 48.4 45.2 43.2 42.4 38.9 38 36.2 35.9 38.6 38.2 40 38.7 38.2 36.1 35.2 34.7 33.5 30.6 28.2 24.3 21 17.5 11.8 13.7 17 16.8 10.5 5.7 7.7 8.2 10 13.8 17.9 23.2 32.2 37.8 35.6 32.2 29.9 24.8 18.2 18.1 16.6 16.5 15.4 14.6 15.6 14.6 4.9 0.1 3.7 4.4 0.1 0.1 0.1 0.1 2.1 0.1 1.9 3.2 4 5 4.3 4.9 4.5 6.3 8.9 11.5 16.1 19.1 24.2 29.4 31.5 31.9 32 32.6 32.4 31.5 31 30.1 27.2 25 25.3 29.6 35.8 33.8 32.2 33.6 38.3 42.1 43.4 44.3 41.3 37.4 33.5 31.2 29 27.3 19.3 15.8 16 17.7 19.7 19.9 19.4 17.9 17.5 15.4 13.5 14.3 15.8 15.9 16 16.6 18.3 17.4 16.5 15.8 14 10.7 9.8 10.1 10.7 10.5 9.5 9.6 10.1 11 12.2 14.2 15.9 18.3 24.3 24.7 26.9 22.2 15.3 13.4 10.9 10.6
152 153 155.3 157 157.7 158.1 158.1 158.4 158.2 158.3 160 158.8 157.1 155.6 153.4 150.8 151.5 150.7 149.7 149.5 150.7 150.3 138.2 125.8 125.6 123.8 122.6 119.4 115.6 110.3 105.6 101.5 96.9 91.2 89 87 82.2 81.2 81.3 81.5 82.7 85.6 89 91.1 92 92.5 91.2 90.7 89.2 83.9 78.2 72.8 68.3 65.6 63.6 57.3 51.8 50.4 49.4 49.3 49.7 47.1 45.7 46 45 42.2 38 36.9 36.5 39.1 40.1 40.7 39.9 41.3 40.7 39.6 37.9 36.2 33.6 30 27.4 24 22 21.2 21.4 20.1 13.5 8.3 5.4 9.4 9.4 10.5 16.1 21.4 28.2 31.5 31.4 29.2 24.2 18 12.8 12.6 7.9 8 12.6 12.1 11 0.1 0.1 0.1 0.5 0.1 0.1 0.1 0.1 0.1 0.1 0.1 0.1 0.1 0.1 0.1 0.1 1.6 3.7 5.2 5.1 6.4 14.3 17.5 21.1 21.4 26.3 29.3 33 33.3 33.9 33.3 31.2 29.7 28.8 26.8 25.9 25 25.8 26.4 26.6 32.6 32.1 38.3 41.2 39.9 33.3 31.9 29.9 28.5 25.2 21.1 17.5 14.6 14.7 15.7 18.2 19.5 17.2 14.1 12.5 11.7 12.3 13.6 14.5 15.5 17.2 20.1 21.8 19.1 18.3 13.5 11.6 9.2 9.4 9.8 9.6 9.5 9.6 9.9 11.2 13.5 16.6 19 22.1 24.5 27.6 23.2 21.5 18 14.3 11.1 8.7 8.6
151.3 152 152 154.9 156.2 157.9 157.4 156.5 155.9 155.1 157 159.7 159.2 158.2 157.3 157.1 154.8 154.8 154.7 151.7 146.4 142.6 138.7 133.5 127.5 125.4 123.7 123.3 120.5 115.6 110.9 106 96.7 93.4 90.8 88.9 85.6 83.8 82.6 82.1 82.8 84.1 86.6 90.2 92.4 93.5 92 90.4 88.8 86 80.3 75.5 68.9 65.2 64.1 59.7 55.1 51.2 49.6 48.8 48.4 47.6 46.4 46.4 47.4 45.3 43.6 43.4 37.4 38.4 40.9 41.1 41.9 42.8 45.1 45.9 45.5 43.6 40.1 34.9 33.4 34.9 29.8 25 24.7 22.2 16.8 11.1 8.6 8.6 8.5 6 10.4 16.4 24.2 26.4 25.7 23.9 17.9 11.5 6.5 9 7.1 7 7.3 7.7 0.1 0.1 0.1 0.1 0.1 0.1 0.1 0.1 0.1 0.1 0.1 0.1 0.1 0.1 0.1 0.1 0.1 0.1 0.1 4 4.1 6.2 6.4 13.8 15.6 17.4 19.6 24.6 32.2 36.4 37.1 36.9 34.5 31.6 29.2 28.4 27.8 26.2 23.8 23.5 23 23.6 25.7 30.2 34.3 32.4 30.3 30 28.4 27.2 24 20.3 16.5 13.6 13.7 14 16.2 15.9 14.3 11.9 10.6 10.8 11.8 12.4 14.9 17.1 20.4 21.8 18.6 12.7 10.9 10.9 10.2 9.3 9.1 8.9 8.8 8.9 9.4 12.2 15 18.2 20.8 24.7 23.3 18.2 15.2 12.4 13.6 11.8 9.9 8.9 8.3 6.9
149.8 149.8 150 151.6 153.6 156.7 157.4 155.9 152.3 152.7 153 151.9 154.3 155.5 157.9 157.5 156.3 155.3 155.7 155.1 149.6 147.8 148.8 152.2 151.4 142.1 126.4 125.6 123.1 120.1 116.1 110.5 103 95.7 93.1 90.6 87.4 84.7 86 84.9 84.3 85.5 85.6 87.8 91 94 94.1 93.7 89.9 86.9 82.6 78.6 73.7 67.7 62.4 59.6 58.5 54.4 50.4 48.8 47.7 46.3 46.1 45.2 45.9 46.5 48 46.1 39.9 38.5 40.8 42.7 43.8 45 47.9 48.6 51.1 51.7 52 48.5 40.8 40 40.8 42.9 28.8 23.7 19.5 13.6 11 4.2 4.8 3.7 3.4 6.3 14.3 19.5 22.7 17.4 13.1 8.1 2.1 3.1 4.3 3.4 0.1 0.1 0.1 0.1 0.1 0.1 0.1 0.1 0.1 0.1 0.1 0.1 0.1 0.1 0.1 0.1 0.1 0.1 0.1 0.1 0.1 1.7 4.2 6.8 6.4 6.1 8.5 13.6 16.7 19.8 29 35 38.7 37.8 36 35.4 29.3 26.7 26.1 25 24.6 21.8 19.7 19.5 20.5 21.4 29.5 31.8 31.2 29.6 30.7 29.5 27.8 20.3 16.7 13.8 13.2 13.1 13.8 15.8 15.9 10.3 9.7 10.3 11.4 12.1 13.5 13.6 13.5 13.2 11.2 10.1 9.5 9.5 10.2 9.9 8.7 8.1 8.2 8.4 8.8 10.8 13.2 14 12.4 12.5 10.9 9.7 10 9.1 8.9 9 8.9 7.4 7.2 4.9
144.9 147.1 148.3 149.6 150.7 151.3 154.1 152.6 149.9 149.2 149.9 149.9 151 151.9 154.9 155.2 156.4 156.3 154.4 152.1 150.3 150.2 152.8 155 155.4 144.9 134 128.5 125.9 122 118.2 113.3 106.5 100.1 94.9 92 88.8 86.7 88.7 87.9 86.1 85.6 86 87 88.1 91.1 94.8 96.1 91.4 89.2 86.8 80.6 74.5 69.7 64.1 60.3 58.2 57.3 52.7 49.3 47.8 46.8 45.8 44.3 44.2 44.4 46.1 45.2 41.7 39.3 41.3 43.6 45.4 49.1 51.4 53.1 56.8 56.2 57.8 59.3 60.2 51.4 44.7 44.7 41.6 28.1 22.7 17.8 13.9 12.2 8.3 3.4 0.1 3 4.5 12.2 14.1 10.4 0.1 0.1 0.1 0.1 0.1 0.1 0.1 0.1 0.1 0.1 0.1 0.1 0.1 0.1 0.1 0.1 0.1 0.1 0.1 0.1 0.1 0.1 0.1 0.1 0.1 0.1 0.1 0.1 2.7 4.6 6 6.4 7 11.6 15.2 18.8 23.8 28.7 32.3 35.1 32.8 26.8 22.8 23.5 23.4 23.1 23.1 21.4 18.6 17.6 17.9 18.8 23.4 30 33.4 34 28.6 27.5 26.5 19.9 17.4 16.1 15.3 14.4 12.3 11.5 10 8.7 9.4 10.1 10.3 10.7 11.9 11.9 10.7 11 10.3 10 8.8 9.8 9.6 9.4 8.5 8 6.2 6.6 8 9.3 9.5 9.1 9.6 9.3 8.7 8.2 8.7 10.5 10.5 10.5 14 14 8.1 4.7
141.9 145 146.5 148 148.8 148.7 147.3 147 146.8 147.1 148.3 149.3 150.2 150.7 151.1 153.6 156.2 158.6 157.4 156.2 154 153.6 153.5 154.9 155.7 151 141 132.6 129.2 125.5 121 111.7 106.2 101.4 98 93.7 90 88.8 89.7 89.5 89 88.1 87.2 87.2 88 89 93.3 93.5 94.6 91.3 85.5 80 74.7 70.9 66 62.6 58.9 56.2 53.6 52.4 50.9 48.5 46.4 44.8 43.7 43.9 44 39.5 39.7 40.2 42.2 46.3 48.7 52.6 55.5 58.4 62.2 64.2 64.6 65.1 68 69.2 56.1 48.1 46 33.7 25.1 21.3 19.9 17 14.6 9.6 0.1 2.2 0.1 0.1 0.1 0.1 0.1 0.1 0.1 0.1 0.1 0.1 0.1 0.1 0.1 0.1 0.1 0.1 0.1 0.1 0.1 0.1 0.1 0.1 0.1 0.1 0.1 0.1 0.1 0.1 0.1 0.1 0.1 0.1 0.1 3.5 3.6 5.7 7.6 12.9 13.9 15.6 18.1 18.7 22.1 19.5 17.9 18.2 21.6 21.3 20.7 21 21.1 20.1 17.2 16.1 16.3 17.3 17.5 22.2 32.2 31.7 22.3 24 26.5 16.3 15.9 19.2 17 17 12 11.3 9.9 8.4 9.5 9.9 11.4 11.9 12.1 11.2 10.6 10 9.8 9.2 9 8.6 9 8.6 8.3 8.1 8 8.6 8.9 10.2 11.4 11.7 13.9 12.7 12 10.8 8.2 9.3 13.5 12.4 8.7 5.8 3.4 5.1
138.5 141.7 142.4 143 144.4 144.5 144.4 144.2 144.3 145 146.5 147.5 148.5 150.1 151 152.2 154.2 157.7 159.7 159.9 158.4 156.2 155.3 154.5 153.1 150.9 140.5 135.5 132.3 127.5 121.4 114.5 107.4 101 97.9 94.8 91.5 90.7 90.9 91.2 91.4 90.6 89.7 88.4 88.4 88.7 91.4 90.1 90.1 88.5 85.3 80.8 76.9 73.5 69.2 65.9 63.9 60 56.7 54.3 52.3 50.1 46.1 44.6 43.3 43 40.9 40.6 41.2 41.5 42.9 46.4 50.1 54.4 57.1 60.5 67.5 67.7 71.4 74.7 70.6 70 67 56.2 48.3 41.3 29 21.3 17.7 15.1 11.6 5.2 0.1 0.1 0.1 0.1 0.1 0.1 0.1 0.1 0.1 0.1 0.1 0.1 0.1 0.1 0.1 0.1 0.1 0.1 0.1 0.1 0.1 0.1 0.1 0.1 0.1 0.1 0.1 0.1 0.1 0.1 0.1 0.1 0.1 0.1 0.1 0.1 3.6 5.9 11.3 14.1 15 13.8 13.7 15.7 17.4 16.5 16.9 17.6 18.8 22.6 20.9 18.5 18.5 18.6 17.6 14.8 14.5 16.5 15.8 12.8 22.4 19.3 13.4 19.2 21.4 9.5 5.9 17.8 13 12.4 10.5 10.7 10.1 8.9 10.3 11.9 11.9 11.8 11.7 11.5 11.1 10.5 9.7 9 8.2 7.8 8.6 8.8 8.5 8.4 8.2 8.8 9.5 21.5 21.7 20.6 22.5 22.6 12.1 12 11.3 7 7.4 7.2 8.5 8.9 8.1 7
136.1 136.8 138.3 139.8 141.8 140.2 140.8 141.8 142.7 143.5 144.8 146.4 147.9 149.1 149.9 150.6 151.7 154.8 157.8 159.5 158.4 158.4 159.1 155.5 150.8 148.5 143 138.8 135.1 129.5 123 116.3 111.7 105 101 97 93.6 93 92.5 92.8 93.3 92.9 92.1 91.1 89.3 88.5 87.7 88.5 87.9 88.2 86.3 85.6 84 79.9 73.4 70.5 67.5 64.9 61.5 57.5 55.3 52.4 46.5 45.1 44 43.7 42.1 42 42.5 43 43.7 46.1 49.6 54.7 59.6 63.4 67.6 72 74.5 78.6 79.9 75.5 73.7 71.3 57.1 43 33.9 20.9 12.6 8.1 2.9 3.2 0.1 0.1 0.1 0.1 0.1 0.1 0.1 0.1 0.1 0.1 0.1 0.1 0.1 0.1 0.1 0.1 0.1 0.1 0.1 0.1 0.1 0.1 0.1 0.1 0.1 0.1 0.1 0.1 0.1 0.1 0.1 0.1 0.1 0.1 0.1 0.1 3.6 5.2 7.3 19.3 11.5 5.9 4.1 5.4 8.8 11.1 14.2 15.2 15.9 15.4 16 16.8 17.3 17 17.1 12 11.3 12.6 16.7 7.3 5.3 4.7 5.7 6.6 7.7 4.4 3.2 5.2 6.1 7.8 10.5 10.3 7.9 10.1 12.2 12.1 12.6 12.7 12.1 11.4 10.9 11 9.8 8.8 7.8 7.6 8.4 8.5 8.8 8.7 9.2 10.1 10.3 10 10.5 10.9 16.9 13.6 9.6 7.9 7.4 8.8 9.6 12.2 13.8 18.3 20.3 18.5
128.5 133.1 131.3 133.9 136.5 136.2 137.2 138.9 139.3 141.4 143.1 144.4 145.9 148 148.6 149.2 148.7 150.5 154.6 156.7 156.1 155.1 156.2 154.6 151.9 148.5 145.8 141.2 136.7 130.3 124.5 118.9 114.3 108.8 103.7 99.3 96.2 96.2 95.7 95.2 95 95.2 94.3 93.2 91.3 88.9 87.3 85.8 86.1 87.4 90.4 88.4 86.5 84.1 77.5 71.6 70 67.5 64.8 61.4 58.7 55.6 53.3 51.7 45.1 44.5 43.7 44.4 44.2 44.9 46.4 48.7 50.7 55.1 61.7 66.2 71.4 77.1 79.3 81.3 84.3 83.2 82.2 74.7 66.8 47.7 34.9 18.5 9.8 7.8 9.6 0.6 0.1 0.1 0.1 0.1 0.1 0.1 0.1 0.1 0.1 0.1 0.1 0.1 0.1 0.1 0.1 0.1 0.1 0.1 0.1 0.1 0.1 0.1 0.1 0.1 0.1 0.1 0.1 0.1 0.1 0.1 0.1 0.1 0.1 0.1 0.1 0.1 3.9 4.6 4.9 4.7 3.9 3.1 2.8 4.3 5.2 6.6 9.7 10.8 12.6 14.1 15.3 16.4 15.8 16.6 11.7 10 9.4 9.4 9.4 5.6 4 3.4 2.9 3.5 3.2 1.9 0.1 2.9 5.2 7.1 9.9 7.8 4.7 8.2 12.2 12.6 12.8 12.4 12 11.2 10.5 11.8 9.7 7.8 8.5 7.9 8.2 8.3 11 11 13.9 11.9 10.7 9.9 9 10.7 13.9 12.7 8.5 7.2 7.8 9.3 7 5.7 7.6 11.6 22.9 16.7
123.1 121.9 122.5 126 130.5 132.6 134.2 134.6 135.4 137.6 139.8 141.3 144.5 145.3 144.9 146.2 146.1 147 146.4 147.2 148.6 151.5 152.3 151.5 150.4 149.2 147.1 142.9 137.7 133.1 126.4 121.9 117.3 112.2 107.7 101.6 98.9 98.8 98.5 98.1 97.8 98.2 96.8 96.1 95.1 93.1 89.5 86.1 84 86.3 86.2 85.9 85.3 86.5 85.4 79.1 71.4 68.5 64.2 62.6 61.2 59.2 59.7 59.4 54.7 45.8 44.3 45.9 46.7 47.4 48.7 50.5 52 54.3 58.5 64.9 70.4 76.7 86.3 84.6 85.5 89.2 89 80.3 66.3 50.3 38.2 16.6 7.9 7.3 4.5 0.1 0.1 0.1 0.1 0.1 0.1 0.1 0.1 0.1 0.1 0.1 0.1 0.1 0.1 0.1 0.1 0.1 0.1 0.1 0.1 0.1 0.1 0.1 0.1 0.1 0.1 0.1 0.1 0.1 0.1 0.1 0.1 0.1 0.1 0.1 0.1 4.1 4 4.5 5.2 3.4 1 2.1 2.7 3.5 4 5.7 9.2 11.3 12.4 13.6 13.3 12.1 12.6 11.3 9.7 8.8 9 9.6 8.6 6.4 4.6 2 0.1 4.2 2.9 0.1 0.1 0.1 0.1 0.1 0.1 0.1 2.3 6.6 11.6 14.4 15.2 13.9 12.8 13.1 10.8 7.8 8.2 8.8 10.2 9.8 11.2 16.6 21.6 16.4 17.3 14.9 11.1 10.8 11.4 12.2 11.6 9.8 7.6 6.9 7.9 9 7.1 2.1 0.1 0.1 14.4 13.5
117.8 116.6 117.8 118.3 122.3 124.3 129.7 128.1 130.1 132.1 134.1 137 138.9 141 141.3 142.7 145.6 146 146.3 142.6 143.8 145.8 145.7 147.3 148.1 147.5 146.9 144.1 140.6 134.7 129.7 125.7 120.7 115.9 110.4 104.8 101.2 100.8 100.3 100.7 101.7 101.6 100.1 99.3 98.1 95.3 92.9 90.2 85.6 82.8 80.3 82.6 83.4 84.4 82.6 77.4 73.5 70.2 66.7 64.8 62.5 59.6 60.7 62.2 57.4 46.5 44.9 46.2 46.7 48 50.1 51.9 53 55.2 56.8 60 66.4 74 84.6 93.9 88.9 87.5 86.6 80.6 66.3 49.3 39.3 10.4 8.4 5.5 0.1 0.1 0.1 0.1 0.1 0.1 0.1 0.1 0.1 0.1 0.1 0.1 0.1 0.1 0.1 0.1 0.1 0.1 0.1 0.1 0.1 0.1 0.1 0.1 0.1 0.1 0.1 0.1 0.1 0.1 0.1 0.1 0.1 0.1 0.1 0.1 0.1 4.9 5 0.1 0.1 0.1 0.1 0.6 2.5 3 4.1 6.2 10.6 13.8 15.7 17.9 12.8 10.7 9.7 9 10 9.7 9.9 10.1 8.5 6.1 2.8 1.7 0.1 0.1 0.1 0.1 0.1 0.1 0.1 0.1 0.1 0.1 0.1 6.1 13.4 16.7 17.3 14.4 9.5 9.2 10.1 8.9 9.2 7.9 9.9 13.5 19.5 19.6 14.1 14.7 15 15.2 12.1 13.6 14.1 14.6 14.5 15.3 15 13.3 14.9 7.7 0.1 0.1 0.1 0.1 0.1 0.1
113.3 111.9 113 114.2 116.2 117.3 120.8 122.6 127.9 129 131.6 135.3 136.8 137 138.6 139.8 141.1 142.7 144.1 140.3 138.7 139.4 140.8 143.3 144.8 146.5 145.3 141.7 139.9 137.1 133 129.3 124.5 121.1 114.8 108.3 103.5 100.9 100.5 101.3 103.6 104.3 105 103.1 101.3 98.8 95.9 92.8 88.7 86.5 82.3 76.3 78.3 81.5 82.1 79.3 72.6 70.7 70.3 70.4 61.6 59.9 63.4 57.2 48.8 47 46.4 46.8 47.1 49 51.5 53.4 53.9 55.7 56.8 59.3 62.8 68.9 77.9 88.7 90.7 89.1 81.1 73.2 57.9 48.5 38.7 11.9 6.3 1.6 0.1 0.1 0.1 0.1 0.1 0.1 0.1 0.1 0.1 0.1 0.1 0.1 0.1 0.1 0.1 0.1 0.1 0.1 0.1 0.1 0.1 0.1 0.1 0.1 0.1 0.1 0.1 0.1 0.1 0.1 0.1 0.1 0.1 0.1 0.1 0.1 0.1 6.5 4 0.1 0.1 0.1 0.1 0.1 0.6 3.3 3.9 6.3 11 15.2 15.2 15.9 14.4 8.9 9.9 10.3 11.6 12.4 12.6 12.6 13.7 14.1 5.4 3 0.1 0.1 0.1 0.1 0.1 0.1 0.1 0.1 0.1 0.1 0.1 0.1 4.4 8.2 8.2 6.7 8.1 8 9.6 8.8 6.9 5.5 5.7 6.8 8.4 10.6 13.7 15.6 18.1 19.8 23.7 27.9 31.4 28.9 24.7 18.1 15.4 21.5 22.4 9 0.1 0.1 0.1 0.1 0.1 0.1
109.5 106.1 107.5 109 110.2 113.5 119.4 122.4 125.8 127.8 129.2 129.7 132.2 135.3 136.7 139 139.3 139.6 139.1 135.6 135.3 135.8 137.1 138.3 141.4 143.3 143.5 140.4 138.6 136.9 135.2 132.3 128.7 122 116 110.5 105.3 100.3 99.5 99.1 102.9 106.7 107.5 106.1 105.2 103 100.6 98.2 94 90.2 85.4 78.4 74.1 74.4 77.1 77.8 70.7 65.2 63.7 61.6 56.7 63 58.4 50.2 48.2 47.4 47.3 48.1 53.9 54.8 54.9 54.5 54.8 56 57.7 58.9 60.3 65.2 72 79.9 85.2 85.3 76.2 65.6 53.2 46.4 36 15.2 4.3 0.4 0.1 0.1 0.1 0.1 0.1 0.1 0.1 0.1 0.1 0.1 0.1 0.1 0.1 0.1 0.1 0.1 0.1 0.1 0.1 0.1 0.1 0.1 0.1 0.1 0.1 0.1 0.1 0.1 0.1 0.1 0.1 0.1 0.1 0.1 0.1 0.1 0.1 0.1 0.1 0.1 0.1 0.1 0.1 0.1 0.6 4.6 3.4 4.8 7.1 12.5 15.4 14.6 12.4 8.5 8.6 9.2 12.3 12.9 13.3 10.4 6.6 0.1 0.1 2.5 3.9 0.1 0.1 0.1 0.1 0.1 0.1 0.1 0.1 0.1 0.1 0.1 0.1 2.3 5.6 6.8 6.8 5.6 7.8 5.8 0.1 0.1 0.1 4.7 5.2 8.3 12.3 15.4 28.6 40.3 41.7 45.2 42 40.5 45.2 37.8 16.3 15.7 14.8 0.1 0.1 0.1 0.1 0.1 0.1 0.1
98.9 100 101.9 103.7 105.2 106.9 109.7 118.4 122.9 125.3 127.2 127.8 129.7 132.7 135.9 136.7 135.8 136 135 131.6 133.2 133.8 133.6 135.3 137.2 138.7 140.7 139.4 138.6 137.2 136.5 134.3 132.2 127.1 120 114.8 109.4 101 98.9 98.4 101.3 104.9 106.3 107.8 107.2 104.6 102.7 101 98.3 92.1 85.1 76.9 71.9 70.5 70.6 70.1 67.1 61.6 59.5 57.6 53.5 52.4 52.8 49.7 48.2 48.5 52.5 53.6 57 63.9 64.1 63.6 60.6 59.9 60 60.9 61.5 64.2 67.4 71.5 74.2 74 73.2 58.9 50.2 42.9 33.1 14.4 4.2 0.1 0.1 0.1 0.1 0.1 0.1 0.1 0.1 0.1 0.1 0.1 0.1 0.1 0.1 0.1 0.1 0.1 0.1 0.1 0.1 0.1 0.1 0.1 0.1 0.1 0.1 0.1 0.1 0.1 0.1 0.1 0.1 0.1 0.1 0.1 0.1 0.1 0.1 0.1 0.1 0.1 0.1 0.1 0.1 0.1 0.7 4.7 5.4 5.4 6.4 10.2 8.2 7.7 8.4 14.1 14.1 13.9 15.2 11.7 6.2 0.1 0.1 0.1 0.1 0.1 0.1 0.1 0.1 0.1 0.1 0.1 0.1 0.1 0.1 0.1 0.1 0.1 0.1 0.1 5.1 0.1 0.1 1.6 0.1 0.1 0.1 0.1 0.1 3.2 4.7 7.2 11.5 17.3 31.9 42.1 46.3 43.4 39.1 25.7 27.8 19.2 14.6 15.2 5.8 0.1 0.1 0.1 0.1 0.1 0.1 0.1
92.6 95.1 97.4 99.8 101.2 103.8 106.4 107.8 109.8 115.9 120 126.5 125 128.2 131.4 132.5 132.6 130.2 128.7 128.2 129.9 133.2 130.5 131.4 133 134.7 136.2 137.2 138 137.3 136.6 135.8 134.1 131.7 127.3 122.4 115.2 106.3 98.7 98 97 103.5 107 108.1 107.7 105.3 102.4 101.7 99.6 93.2 84.6 73.6 70 70.4 66.6 64.6 59.5 57.8 56.9 58.1 58.7 53.8 52.5 52.5 54.4 57.7 60.3 61.9 63.2 69.6 73.7 74.3 73.6 71.8 68 64.6 63 64.5 65.8 65.9 66.3 65.4 62.9 55.2 48.9 38.6 31.7 16.8 6.1 0.1 0.1 0.1 0.1 0.1 0.1 0.1 0.1 0.1 0.1 0.1 0.1 0.1 0.1 0.1 0.1 0.1 0.1 0.1 0.1 0.1 0.1 0.1 0.1 0.1 0.1 0.1 0.1 0.1 0.1 0.1 0.1 0.1 0.1 0.1 0.1 0.1 0.1 0.1 0.1 0.1 0.1 0.1 0.1 0.1 5.4 9.9 7.2 7.2 7.5 9 9.2 9.7 15.2 15.1 14.4 16.2 16.4 12.6 0.2 0.1 0.1 0.1 0.1 0.1 0.1 0.1 0.1 0.1 0.1 0.1 0.1 0.1 0.1 0.1 0.1 0.1 0.1 0.1 0.1 0.1 0.1 0.1 0.1 0.1 0.1 0.1 0.1 10 20 16.4 11.8 14.1 18 26.4 25.1 23.7 17.6 14.5 12.8 12.3 15.8 15 12.3 0.1 0.1 0.1 0.1 0.1 0.1 0.1
86.6 90.4 91.6 91.8 99.7 102.9 105.8 105.7 105.9 106.9 109.3 111.1 114.4 116.7 124.5 125.3 128.7 128.9 125.8 124.3 125.8 122.8 121.4 123.7 127.4 131.4 133.1 136 136.9 137.1 136.6 135.2 134.7 133.3 130.5 128.4 125.4 116 105.1 97.2 95.5 98.4 104.5 107.9 109.3 109.5 105.8 101.1 97.7 92.5 81.9 74.7 74.4 70.1 62.4 61.4 61.3 69 63.7 62.7 59.3 58.5 56.4 59.1 63.9 68 71.7 75 75.6 73.5 78.1 81.9 81 82.6 80.6 76.6 70 65.4 64 62.6 61.2 57.2 57.7 51.9 47.1 39.6 31.3 18.5 8.5 2.2 0.1 0.1 0.1 0.1 0.1 0.1 0.1 0.1 0.1 0.1 0.1 0.1 0.1 0.1 0.1 0.1 0.1 0.1 0.1 0.1 0.1 0.1 0.1 0.1 0.1 0.1 0.1 0.1 0.1 0.1 0.1 0.1 0.1 0.1 0.1 0.1 0.1 0.1 0.1 0.1 0.1 0.1 0.1 0.4 4.7 7.8 10.9 16 16.5 17 19.3 14.6 12.8 14.9 12.2 11.6 7.5 0.1 0.1 0.1 0.1 0.1 0.1 0.1 0.1 0.1 0.1 0.1 0.1 0.1 0.1 0.1 0.1 0.1 0.1 0.1 0.1 0.1 0.1 0.1 0.1 0.1 0.1 0.1 0.1 4.2 15.9 22.4 21.9 11.6 9.6 9.2 11.5 15.4 14 12.9 12.7 9.5 11.8 9.7 11.3 0.1 0.1 0.1 0.1 0.1 0.1 0.1 0.1 0.1
77.9 86.2 85.8 86.1 88.9 91.7 99.8 102.3 102.1 104.4 106.6 108.5 110 112.3 113.3 115.6 119.8 120.4 120.7 121.4 121.3 119.9 115.5 117.4 120.1 126.2 129.9 132.1 135.9 137.2 136.8 136 133.2 131.5 131.4 130.4 128.2 124.5 116.3 101 94.5 94.5 98.8 102.8 106.9 109.1 109.8 108.8 104.8 92.7 85.3 76.8 74.1 65.4 62.4 71.3 69.9 69.4 70 64.1 61.9 61.5 64.5 69.1 71.6 77.2 80.5 86.5 89 89.9 89.4 90.9 89.7 90.1 94.8 90.8 83.1 74.4 66.9 60.9 58.8 56.3 54.6 52.1 47.2 40.6 34.3 23.2 12.8 4.6 0.1 0.1 0.1 0.1 0.1 0.1 0.1 0.1 0.1 0.1 0.1 0.1 0.1 0.1 0.1 0.1 0.1 0.1 0.1 0.1 0.1 0.1 0.1 0.1 0.1 0.1 0.1 0.1 0.1 0.1 0.1 0.1 0.1 0.1 0.1 0.1 0.1 0.1 0.1 0.1 0.1 0.1 0.1 3.5 6.1 10 12.2 16.1 14.3 16.5 9.5 6.2 6.5 7.3 9.2 9.7 6 0.1 0.1 0.1 0.1 0.1 0.1 0.1 0.1 0.1 0.1 0.1 0.1 0.1 0.1 0.1 0.1 0.1 0.1 0.1 0.1 0.1 0.1 0.1 0.1 0.1 0.1 0.1 0.1 10.9 9.3 6.7 10.7 8.4 9.5 12.1 13.4 9.2 12.4 15.8 7.2 4.9 9.9 0.1 0.1 0.1 0.1 0.1 0.1 0.1 0.1 0.1 0.1 0.1
66.9 71.1 76.1 78.4 82.9 84 85.9 88.6 98 101.5 105.2 106.8 109.7 112 114.1 114.5 115.1 116.2 114.9 114.7 114.7 114 113.7 114.1 114.9 117.4 121.5 127.1 134.1 133.5 134.7 132.8 131.1 128.4 128.3 129.4 130.2 128.9 124.6 112.4 94.1 91.5 94.2 98.5 102.5 105.2 107.5 109.1 108 101.2 88.9 80.4 70.5 63.4 64 72.8 73.3 73.4 70.8 69.8 71.6 69.9 68.5 71.4 76.3 83.4 88 91.2 96.6 100.4 104.8 100.8 98.2 97.3 103.6 107.9 99 93.4 85.7 71.5 63.2 58.6 56.3 54 51.3 46.6 40.8 30.5 24.2 10.5 0.1 0.1 0.1 0.1 0.1 0.1 0.1 0.1 0.1 0.1 0.1 0.1 0.1 0.1 0.1 0.1 0.1 0.1 0.1 0.1 0.1 0.1 0.1 0.1 0.1 0.1 0.1 0.1 0.1 0.1 0.1 0.1 0.1 0.1 0.1 0.1 0.1 0.1 0.1 0.1 11.6 11.7 10.2 12.7 11.5 14 7.8 9.4 9.6 9.5 6.1 3.8 3.9 10.2 4.9 4 0.1 0.1 0.1 0.1 0.1 0.1 0.1 0.1 0.1 0.1 0.1 0.1 0.1 0.1 0.1 0.1 0.1 0.1 0.1 0.1 0.1 0.1 0.1 0.1 0.1 0.1 0.1 0.1 0.1 0.1 0.5 5.3 10.7 15.2 14.6 10.2 12.2 12.6 11.1 6.2 0.3 5 0.1 0.1 0.1 0.1 0.1 0.1 0.1 0.1 0.1 0.1 0.1 0.1
66.9 66.9 67.8 68.7 72.2 75.3 78.2 82.9 89.5 96.4 102 105.3 110.2 109.8 111.2 112.3 113.3 114 114.2 114 113.7 113.1 113.2 113.5 114.3 114.8 115.9 118.2 125.5 127.5 127 127.1 127 125.9 125.7 125.5 126 126.6 125.3 119.4 108.2 92.4 88.9 93.7 97.6 101.9 104.1 104 105.1 97.6 83.1 75.8 72 64.1 65.5 71.1 73 75.6 75.2 77.5 77.9 76 79.1 80.2 80.7 85.4 92.2 97 103.1 105.7 109.6 112.7 114.8 107.3 107.6 110 120.5 115.1 103 91.2 73.4 68 63.4 59.1 55.5 50.7 44.8 38.7 30.8 23.2 0.1 0.1 0.1 0.1 0.1 0.1 0.1 0.1 0.1 0.1 0.1 0.1 0.1 0.1 0.1 0.1 0.1 0.1 0.1 0.1 0.1 0.1 0.1 0.1 0.1 0.1 0.1 0.1 0.1 0.1 0.1 0.1 0.1 0.1 0.1 0.1 0.1 0.1 11.5 12 13.3 11.7 6.6 8.1 8.1 6.3 4.6 4.4 6.2 11.8 5.1 1.8 0.8 0.1 0.1 0.1 0.1 0.1 0.1 0.1 0.1 0.1 0.1 0.1 0.1 0.1 0.1 0.1 0.1 0.1 0.1 0.1 0.1 0.1 0.1 0.1 0.1 0.1 0.1 0.1 0.1 0.1 0.1 0.1 0.1 0.1 0.8 10.6 12.6 13.6 5.5 9.6 7.1 11.2 9.2 0.1 0.1 0.1 0.1 0.1 0.1 0.1 0.1 0.1 0.1 0.1 0.1 0.1 0.1 0.1
66.9 66.9 66.9 66.9 66.9 68.7 74.2 79.3 85.3 91 99 104.5 109.9 108.5 109.3 111.2 112.5 112.8 112.9 112.9 112.6 112.4 112.5 112.8 113.2 113.7 114.3 115.3 116.4 117.5 119.7 118.3 120.8 123.9 122.1 121.5 121.5 124 124.1 121.3 114.7 100.1 91.6 83.2 89.2 96.9 98.8 95.7 92.2 80.9 73.2 67.6 66.9 66.8 66.7 69.4 71.4 74.8 78 80.8 81.6 81.1 83.1 88.1 90.7 91.7 93.4 99.8 110.1 116.3 113.6 122 123.8 123.5 117.8 115 122.9 131.3 126.6 100.6 91.6 82.9 69 68.7 61.3 54.9 50.3 43.7 36.6 28.9 19.8 7.3 0.1 0.1 0.1 0.1 0.1 0.1 0.1 0.1 0.1 0.1 0.1 0.1 0.1 0.1 0.1 0.1 0.1 0.1 0.1 0.1 0.1 0.1 0.1 0.1 0.1 0.1 0.1 0.1 0.1 0.1 0.1 0.1 0.1 0.1 0.1 10.2 5.3 8.2 4.2 6.4 8.1 9.3 10.1 11.9 6.6 0.1 0.1 0.1 2.8 4.9 0.1 0.1 0.1 0.1 0.1 0.1 0.1 0.1 0.1 0.1 0.1 0.1 0.1 0.1 0.1 0.1 0.1 0.1 0.1 0.1 0.1 0.1 0.1 0.1 0.1 0.1 0.1 0.1 0.1 0.1 0.1 0.1 0.1 0.1 14.5 14.6 8.1 5.9 0.1 0.1 0.1 0.1 0.1 0.1 0.1 0.1 0.1 0.1 0.1 0.1 0.1 0.1 0.1 0.1 0.1 0.1 0.1 0.1
66.9 66.9 66.9 66.9 66.9 66.9 68.7 73.9 79.5 85.8 93.2 99.3 103.8 106.8 108.2 109.2 110.7 111.1 111.1 111.3 111.2 112.5 112.6 112.2 112.8 113.4 114 114.9 115.8 116.2 117.1 116.1 116.9 114.9 116.1 117.8 117.5 117.2 117 118.1 113.9 106.7 100 86.1 75.3 79.1 85.8 85.1 74.2 69.3 73.9 77.7 77.6 74.5 70.2 69.8 70.4 73.6 77.4 82 84 87.4 88.6 93 96.2 100 106.1 107.3 107.5 111.3 118.7 116.7 127.2 131.1 133.3 125.7 116.1 125 133.7 113.5 100.4 90.1 78.4 72.4 71.6 66.9 57.7 50.3 43.1 36.6 29.4 19.6 6.8 0.1 0.1 0.1 0.1 0.1 0.1 0.1 0.1 0.1 0.1 0.1 0.1 0.1 0.1 0.1 0.1 0.1 0.1 0.1 0.1 0.1 0.1 0.1 0.1 0.1 0.1 0.1 0.1 0.1 0.1 0.1 0.1 0.1 0.1 0.1 0.1 0.1 6.3 4.5 5 4.1 2.5 1.3 0.1 0.1 0.1 1 3.9 0.1 0.1 0.1 0.1 0.1 0.1 0.1 0.1 0.1 0.1 0.1 0.1 0.1 0.1 0.1 0.1 0.1 0.1 0.1 0.1 0.1 0.1 0.1 0.1 0.1 0.1 0.1 0.1 0.1 0.1 0.1 0.1 0.1 0.1 0.1 0.1 0.1 0.1 0.1 0.1 0.1 0.1 0.1 0.1 0.1 0.1 0.1 0.1 0.1 0.1 0.1 0.1 0.1 0.1 0.1 0.1 0.1 0.1 0.1
70.8 66.9 66.9 66.9 66.9 66.9 69.2 70.7 74.4 78.4 83.3 92.6 102.1 103.4 102.9 104.7 106.3 107.8 106.6 107.5 109.4 111.9 112.2 111.5 112.2 112.8 113.8 114.4 115 115.4 115.5 114.6 113.7 113.6 111.9 111.9 112.8 112.1 111.8 112.1 112.4 110.6 105.1 97.1 82.1 72.6 70.9 71.6 70.1 75 82.8 86.5 85.5 81.4 77.2 74.3 72 71.3 75.2 80.8 84.6 90.6 92.4 96.6 102.4 104.6 106.9 110.4 108.7 110.7 118.3 120.4 126.9 138.9 138.5 142.4 136.1 120.3 119.6 115.7 105 92.7 84.1 73.5 72.5 69.5 64.9 57.6 51.2 43.3 35.5 23.4 7.3 0.1 0.1 0.1 0.1 0.1 0.1 0.1 0.1 0.1 0.1 0.1 0.1 0.1 0.1 0.1 0.1 0.1 0.1 0.1 0.1 0.1 0.1 0.1 0.1 0.1 0.1 0.1 0.1 0.1 0.1 0.1 0.1 0.1 0.1 0.1 0.1 0.1 0.1 0.1 7.1 3.8 2.2 0.1 0.1 0.1 0.1 0.1 0.1 0.1 0.1 0.1 0.1 0.1 0.1 0.1 0.1 0.1 0.1 0.1 0.1 0.1 0.1 0.1 0.1 0.1 0.1 0.1 0.1 0.1 0.1 0.1 0.1 0.1 0.1 0.1 0.1 0.1 0.1 0.1 0.1 0.1 0.1 0.1 0.1 0.1 0.1 0.1 0.1 0.1 0.1 0.1 0.1 0.1 0.1 0.1 0.1 0.1 0.1 0.1 0.1 0.1 0.1 0.1 0.1 0.1 0.1 0.1
80.7 74.4 73.3 71.8 68.7 69.6 69.9 70.9 72.8 75.5 77.6 79.2 82.8 86.6 92.2 96.9 103.4 104.7 103.1 105.3 107.3 109.4 110.3 110.5 111 111.4 112.6 112.5 113.8 114.4 114.3 114 114.4 111.9 110 109.1 109 109.1 108.6 109.4 108.2 107.7 105.3 100.4 92.9 79.8 71.8 70 70.4 73.3 81.1 86.5 89.7 87.1 82.5 80.8 78.8 73.8 72.9 77.7 82.3 90.1 98.3 100.5 106.1 114.6 114.8 111.5 109.6 112.2 115.2 122.9 126.2 133.3 144.1 140.1 139.6 124.8 114.8 108.2 100.8 91.6 85.3 79.6 70.8 68.4 64.5 60.4 53.8 48.9 40.2 32.7 13.3 0.1 0.1 0.1 0.1 0.1 0.1 0.1 0.1 0.1 0.1 0.1 0.1 0.1 0.1 0.1 0.1 0.1 0.1 0.1 0.1 0.1 0.1 0.1 0.1 0.1 0.1 0.1 0.1 0.1 0.1 0.1 0.1 0.1 0.1 0.1 0.1 0.1 0.1 0.1 0.1 0.1 0.1 0.1 0.1 0.1 0.1 0.1 0.1 0.1 0.1 0.1 0.1 0.1 0.1 0.1 0.1 0.1 0.1 0.1 0.1 0.1 0.1 0.1 0.1 0.1 0.1 0.1 0.1 0.1 0.1 0.1 0.1 0.1 0.1 0.1 0.1 0.1 0.1 0.1 0.1 0.1 0.1 0.1 0.1 0.1 0.1 0.1 0.1 0.1 0.1 0.1 0.1 0.1 0.1 0.1 0.1 0.1 0.1 0.1 0.1 0.1 0.1 0.1 0.1 0.1 0.1 0.1
89.6 83.3 80.9 83.2 79.8 77.8 80.5 74.2 72.8 80.4 79.4 82.6 81.1 81.4 83.5 86.4 89.7 94.1 98.9 103.9 104.7 105 106.9 110 111.2 110.2 110.8 111.4 112.2 113.7 111.6 110.9 110.3 109.6 108.5 108 106.8 106.9 106.3 107.5 107.1 105.1 103.2 99.6 94.3 84.9 77.3 71.7 70.2 71.1 75 80.2 83.5 86.8 89.8 89.6 83.8 78.8 74.6 74.7 80.8 88.3 95.5 96.3 100.5 117.8 125.4 128.1 120.7 119.6 128.3 132.3 128.9 131.9 132.2 132.3 126.7 122.4 106.8 102.5 93 90.7 87.7 86.5 77.9 70.1 63.9 58.5 54.5 50.7 45.1 37.4 28 11.4 0.1 0.1 0.1 0.1 0.1 0.1 0.1 0.1 0.1 0.1 0.1 0.1 0.1 0.1 0.1 0.1 0.1 0.1 0.1 0.1 0.1 0.1 0.1 0.1 0.1 0.1 0.1 0.1 0.1 0.1 0.1 0.1 0.1 0.1 0.1 0.1 0.1 0.1 0.1 0.1 0.1 0.1 0.1 0.1 0.1 0.1 0.1 0.1 0.1 0.1 0.1 0.1 0.1 0.1 0.1 0.1 0.1 0.1 0.1 0.1 0.1 0.1 0.1 0.1 0.1 0.1 0.1 0.1 0.1 0.1 0.1 0.1 0.1 0.1 0.1 0.1 0.1 0.1 0.1 0.1 0.1 0.1 0.1 0.1 0.1 0.1 0.1 0.1 0.1 0.1 0.1 0.1 0.1 0.1 0.1 0.1 0.1 0.1 0.1 0.1 0.1 0.1 0.1 0.1 0.1 0.1
101.8 94 90.3 83.8 83.7 81.9 84 81.4 77.5 74.8 79.5 88.8 88.9 84.3 84.1 84.4 85.4 89.5 94.6 99 98.2 104 105.9 107 109.2 110.3 110.2 110.5 111 112.5 111.7 109.2 108.8 109 108.1 109.2 109.3 107.7 106.8 105 103.4 103.1 101.7 98.6 94.8 91.5 81.1 74.7 71.3 71.4 73.9 76.7 79.1 82.6 85.5 86.8 88.1 84.6 78.4 74.3 75.9 87.1 92 94.7 94 107.4 125.1 133.5 126.8 121.5 127.7 136.4 150 145 136 119.7 110.1 103.3 101.4 96.6 95 91.3 90.9 88.4 87.3 75.4 67.9 58.9 53.4 51.8 49.5 43.1 33.8 21.8 0.1 0.1 0.1 0.1 0.1 0.1 0.1 0.1 0.1 0.1 0.1 0.1 0.1 0.1 0.1 0.1 0.1 0.1 0.1 0.1 0.1 0.1 0.1 0.1 0.1 0.1 0.1 0.1 0.1 0.1 0.1 0.1 0.1 0.1 0.1 0.1 0.1 0.1 0.1 0.1 0.1 0.1 0.1 0.1 0.1 0.1 0.1 0.1 0.1 0.1 0.1 0.1 0.1 0.1 0.1 0.1 0.1 0.1 0.1 0.1 0.1 0.1 0.1 0.1 0.1 0.1 0.1 0.1 0.1 0.1 0.1 0.1 0.1 0.1 0.1 0.1 0.1 0.1 0.1 0.1 0.1 0.1 0.1 0.1 0.1 0.1 0.1 0.1 0.1 0.1 0.1 0.1 0.1 0.1 0.1 0.1 0.1 0.1 0.1 0.1 0.1 0.1 0.1 0.1 0.1 0.1
125.6 115.3 105.4 103.7 94.1 89 87.4 88 88.1 80.9 76.6 80.2 86.5 86.9 90.3 90.6 88.2 87.1 88.4 92.4 98.9 103 105.1 106.9 109.1 112.3 110.9 110.8 110 109.4 109.2 109 109.2 109.3 109 110.1 111.6 110.2 108.7 107.5 105 103 99.7 95.5 92.6 89.6 82 75.8 73.5 72.4 74.3 76.6 77.7 79 80.1 81.1 82.7 84.8 83 78.1 74.9 78.9 92 97.4 93 93.4 111.7 126.3 126.5 121.5 128 130.6 137.4 144.7 136.5 126.9 111.7 96.2 95.1 93 93.2 93.8 90 88.9 90.2 87.8 71 64.9 53.5 49.3 47.3 46.2 37.7 15.5 0.1 0.1 0.1 0.1 0.1 0.1 0.1 0.1 0.1 0.1 0.1 0.1 0.1 0.1 0.1 0.1 0.1 0.1 0.1 0.1 0.1 0.1 0.1 0.1 0.1 0.1 0.1 0.1 0.1 0.1 0.1 0.1 0.1 0.1 0.1 0.1 0.1 0.1 0.1 0.1 0.1 0.1 0.1 0.1 0.1 0.1 0.1 0.1 0.1 0.1 0.1 0.1 0.1 0.1 0.1 0.1 0.1 0.1 0.1 0.1 0.1 0.1 0.1 0.1 0.1 0.1 0.1 0.1 0.1 0.1 0.1 0.1 0.1 0.1 0.1 0.1 0.1 0.1 0.1 0.1 0.1 0.1 0.1 0.1 0.1 0.1 0.1 0.1 0.1 0.1 0.1 0.1 0.1 0.1 0.1 0.1 0.1 0.1 0.1 0.1 0.1 0.1 0.1 0.1 0.1 0.1
140.2 137.1 133.8 125 111.1 99.9 92.9 89.9 86.4 84.2 81.1 78.4 81.1 83.7 87.4 88 87.6 86.6 87.9 91.2 95.5 100.2 104.5 107.1 108.8 110.5 111.2 111.2 110.2 109.5 109.1 109.3 109.9 110.1 111.6 113.8 114.6 114.9 114.6 111.1 108.7 107.2 104.8 97.8 93.8 87.8 80.7 76.2 73.8 72.6 73.9 75.6 76.9 78.4 79.9 79.1 81 82.5 83 79.7 77.4 74.7 83.7 95.8 100.2 94.3 97.4 112.8 120.5 119.9 123.7 129.9 131.9 135.6 135.9 126.6 113.5 99.8 93.2 91.6 91.8 91.4 92 86.9 82.2 83.2 77.6 64.1 51.5 47.8 42.9 38.1 33.8 20.2 0.1 0.1 0.1 0.1 0.1 0.1 0.1 0.1 0.1 0.1 0.1 0.1 0.1 0.1 0.1 0.1 0.1 0.1 0.1 0.1 0.1 0.1 0.1 0.1 0.1 0.1 0.1 0.1 0.1 0.1 0.1 0.1 0.1 0.1 0.1 0.1 0.1 0.1 0.1 0.1 0.1 0.1 0.1 0.1 0.1 0.1 0.1 0.1 0.1 0.1 0.1 0.1 0.1 0.1 0.1 0.1 0.1 0.1 0.1 0.1 0.1 0.1 0.1 0.1 0.1 0.1 0.1 0.1 0.1 0.1 0.1 0.1 0.1 0.1 0.1 0.1 0.1 0.1 0.1 0.1 0.1 0.1 0.1 0.1 0.1 0.1 0.1 0.1 0.1 0.1 0.1 0.1 0.1 0.1 0.1 0.1 0.1 0.1 0.1 0.1 0.1 0.1 0.1 0.1 0.1 0.1
146 144.5 142.3 139.5 131.8 125.9 123.6 113.2 97.2 88.4 84.5 84.5 82.8 87.8 85.9 84.9 85.5 86.2 87.7 88.6 92.9 97.8 103.4 106.6 108.4 110.2 110.4 110.6 110.3 110 110 110.3 110.8 111.9 113.8 116.3 117 118.4 120.1 118.2 114.8 110.2 110.5 104.6 98.9 91.3 82.3 77 73.8 73.1 73.2 74.5 75.9 78.2 79.6 80.5 81 82.2 82.7 82.1 81.6 78.7 78 83.1 91.3 92.6 90.9 101.9 108.1 114.4 120.5 125.6 131 131.2 131.6 125.3 112.9 104.4 95.3 91.3 91.2 89.9 87.3 83.9 76.4 73.7 68.1 59.2 50.4 44 39.1 34.9 26.3 18.5 7.1 0.1 0.1 0.1 0.1 0.1 0.1 0.1 0.1 0.1 0.1 0.1 0.1 0.1 0.1 0.1 0.1 0.1 0.1 0.1 0.1 0.1 0.1 0.1 0.1 0.1 0.1 0.1 0.1 0.1 0.1 0.1 0.1 0.1 0.1 0.1 0.1 0.1 1.8 0.1 1.9 0.1 0.1 0.1 0.1 0.1 0.1 0.1 0.1 0.1 0.1 0.1 0.1 0.1 0.1 0.1 0.1 0.1 0.1 0.1 0.1 0.1 0.1 0.1 0.1 0.1 0.1 0.1 0.1 0.1 0.1 0.1 0.1 0.1 0.1 0.1 0.1 0.1 0.1 0.1 0.1 0.1 0.1 0.1 0.1 0.1 0.1 0.1 0.1 0.1 0.1 0.1 0.1 0.1 0.1 0.1 0.1 0.1 0.1 0.1 0.1 0.1 0.1 0.1 0.1 0.1
152.3 149.9 149.4 144.8 141.9 136.8 130.7 128.3 108.8 99.6 91.5 93.4 88.2 87.1 86.9 86.7 85.9 86.1 87.6 88.8 90.6 93.3 100.4 107.3 109.5 110.9 111.8 112.4 112.4 113.5 113.5 112.8 113.3 115 116.9 118.6 119.8 121.9 122.8 123.4 118.4 114 106.4 106.3 105.1 105.1 94.6 80.2 75.2 73.9 72.5 72.5 74.8 77.7 80.6 83.5 85.9 87.7 88.1 88.4 85.9 87.2 88.2 90.2 92 87.5 85.6 90.9 102.3 109.1 114.1 120.3 125.6 127.4 131 126.5 118 105.9 96.6 92.1 90.9 90.4 90.5 86.7 76.7 72.8 64.4 56.6 46.7 40 34.7 30.7 26.8 18.5 13.7 8.8 2.9 0.1 0.1 0.1 0.1 0.1 0.1 0.1 0.1 0.1 0.1 0.1 0.1 0.1 0.1 0.1 0.1 0.1 0.1 0.1 0.1 0.1 0.1 0.1 0.1 0.1 0.1 0.1 0.1 0.1 0.1 0.1 0.1 0.1 0.1 0.1 0.6 0.1 0.1 0.1 0.1 0.1 0.1 0.1 0.1 0.1 0.1 0.1 0.1 0.1 0.1 0.1 0.1 0.1 0.1 0.1 0.1 0.1 0.1 0.1 0.1 0.1 0.1 0.1 0.1 0.1 0.1 0.1 0.1 0.1 0.1 0.1 0.1 0.1 0.1 0.1 0.1 0.1 0.1 0.1 0.1 0.1 0.1 0.1 0.1 0.1 0.1 0.1 0.1 0.1 0.1 0.1 0.1 0.1 0.1 0.1 0.1 0.1 0.1 0.1 0.1 0.1 0.1 0.1
152.9 153.6 150.6 148.4 147.3 146.9 142.6 130.6 125.4 117.2 105 97.3 98.6 97.5 91.2 90.3 88.9 88.3 87.2 88.1 89.6 90.5 95.2 104.7 110.2 112.5 113.2 113.9 115.6 116.6 117.4 116.7 115.6 117.2 119.6 124.5 123.8 122.9 126.8 121.3 114.3 109.6 108.5 108.2 107.4 105.6 102 85.9 77.9 75.6 74 73.2 73.6 75.8 79.1 82.6 86.1 90.2 93.4 96 93.6 94 95.9 94.8 95.1 96.1 96.2 89.6 95.1 103.6 111.4 118.5 123.7 125.5 129.3 132.3 123.6 114.9 100.4 96.3 92.4 91.7 87.9 87.1 78.8 72.6 68.3 58.1 45.3 34.7 29.5 22.8 18.7 17.4 16.3 13.9 0.1 0.1 0.1 0.1 0.1 0.1 0.1 0.1 0.1 0.1 0.1 0.1 0.1 0.1 0.1 0.1 0.1 0.1 0.1 0.1 0.1 0.1 0.1 0.1 0.1 0.1 0.1 0.1 0.1 0.1 0.1 0.1 0.1 0.1 0.1 0.1 0.1 0.1 0.1 0.1 0.1 0.1 0.1 0.1 0.1 0.1 0.1 0.1 0.1 0.1 0.1 0.1 0.1 0.1 0.1 0.1 0.1 0.1 0.1 0.1 0.1 0.1 0.1 0.1 0.1 0.1 0.1 0.1 0.1 0.1 0.1 0.1 0.1 0.1 0.1 0.1 0.1 0.1 0.1 0.1 0.1 0.1 0.1 0.1 0.1 0.1 0.1 0.1 0.1 0.1 0.1 0.1 0.1 0.1 0.1 0.1 0.1 0.1 0.1 0.1 0.1 0.1 0.1 0.1
151 151.5 152.1 151.1 150.7 146.9 142.5 137.4 136.4 128.1 115.7 116.8 108 101.4 97 96.6 94.8 91.6 89.1 88.2 88.1 89.3 90.4 93.7 105 109.6 111.8 114.7 116.4 118.8 119.7 120.2 119.9 121.7 122.2 121.9 124.8 124.8 121.3 117.6 115.6 114.8 114.8 113.4 110.4 103.7 99.8 89.5 83.2 77.9 75 73.9 74.2 74.6 76.4 79.6 85.7 90.9 95.8 98 97.7 98 101.7 103.1 102.5 100.9 100.7 101.7 93.5 99.8 106.9 112.9 120.4 121.7 126.6 123.8 122.3 115.1 102.1 99.1 96.4 90.1 85.1 82.1 79.1 68.6 63.6 56.4 42.8 29.9 16.9 10.3 8.7 14.5 3.6 0.1 0.1 0.1 0.1 0.1 0.1 0.1 0.1 0.1 0.1 0.1 0.1 0.1 0.1 0.1 0.1 0.1 0.1 0.1 0.1 0.1 0.1 0.1 0.1 0.1 0.1 0.1 0.1 0.1 0.1 0.1 0.1 0.1 0.1 0.1 0.1 0.1 0.1 0.1 0.1 0.1 0.1 0.1 0.1 0.1 0.1 0.1 0.1 0.1 0.1 0.1 0.1 0.1 0.1 0.1 0.1 0.1 0.1 0.1 0.1 0.1 0.1 0.1 0.1 0.1 0.1 0.1 0.1 0.1 0.1 0.1 0.1 0.1 0.1 0.1 0.1 0.1 0.1 0.1 0.1 0.1 0.1 0.1 0.1 0.1 0.1 0.1 0.1 0.1 0.1 0.1 0.1 0.1 0.1 0.1 0.1 0.1 0.1 0.1 0.1 0.1 0.1 0.1 0.1 0.1
151.5 149.2 149.8 153.4 152.3 149.2 147.4 142.5 139.1 133.1 121 124.5 110.2 116 115.8 106.9 105.3 99 98.8 90.2 89.8 89 90 91.7 94.4 102.6 108.2 112.7 117.5 121.4 121 122.2 123.1 127 125.5 124.5 123.2 122.7 120.8 121.4 122.8 124.9 122.9 120.6 118.7 111.8 97.7 93.1 84.4 80.1 76 74.3 74.5 74.6 75.3 76.3 83 89.5 94.5 96.8 98.1 100.5 104.7 107.8 109 112.2 105.6 109.4 107.5 100.7 103.8 114.2 119.6 122.1 120.6 122.2 116.8 111.3 105.2 101.3 94.6 93.7 88.4 77 74.9 69.3 60.2 52.1 41.4 21.7 9.4 7.2 5.5 4.2 0.1 0.1 0.1 0.1 0.1 0.1 0.1 0.1 0.1 0.1 0.1 0.1 0.1 0.1 0.1 0.1 0.1 0.1 0.1 0.1 0.1 0.1 0.1 0.1 0.1 0.1 0.1 0.1 0.1 0.1 0.1 0.1 0.1 0.1 0.1 0.1 0.1 0.1 0.1 0.1 0.1 0.1 0.1 0.1 0.1 0.1 0.1 0.1 0.1 0.1 0.1 0.1 0.1 0.1 0.1 0.1 0.1 0.1 0.1 0.1 0.1 0.1 0.1 0.1 0.1 0.1 0.1 0.1 0.1 0.1 0.1 0.1 0.1 0.1 0.1 0.1 0.1 0.1 0.1 0.1 0.1 0.1 0.1 0.1 0.1 0.1 0.1 0.1 0.1 0.1 0.1 0.1 0.1 0.1 0.1 0.1 0.1 0.7 0.1 0.1 0.4 0.2 0.1 0.1 0.1 0.1
145.5 145.3 146.9 148 149.8 151.2 150.8 148.5 142.3 136.9 129.6 120.4 117.4 124 120.6 121.6 123 118.1 109.5 100 94 90.6 90.3 91.8 93.7 95.3 103.9 108.5 117.8 120.9 124 124.2 125.1 128.1 129.4 127.9 129.8 131.2 131.5 129.3 127.3 128.2 128.2 126.6 122.5 117.5 110.4 97.1 87.4 81.8 77.5 75 74.9 75.1 75.2 75.9 76.8 85.6 91.5 93.6 99.3 105.9 110.1 111.8 114.9 118.2 119.1 114.6 111.7 105.4 105.2 108.5 117.4 118.3 116.6 117.6 109.4 106.7 104.2 100.8 97.8 94.1 89.5 81.7 69.6 68.8 64.1 48.1 40 16.1 6.6 4.6 0.6 0.1 0.1 0.1 0.1 0.1 0.1 0.1 0.1 0.1 0.1 0.1 0.1 0.1 0.1 0.1 0.1 0.1 0.1 0.1 0.1 0.1 0.1 0.1 0.1 0.1 0.1 0.1 0.1 0.1 0.1 0.1 0.1 0.1 0.1 0.1 0.1 0.1 0.1 0.1 0.1 0.1 0.1 0.1 0.1 0.1 0.1 0.1 0.1 0.1 0.1 0.1 0.1 0.1 0.1 0.1 0.1 0.1 0.1 0.1 0.1 0.1 0.1 0.1 0.1 0.1 0.1 0.1 0.1 0.1 0.1 0.1 0.1 0.1 0.1 0.1 0.1 0.1 0.1 0.1 0.1 0.1 0.1 0.1 0.1 0.1 0.1 0.1 0.1 0.1 0.1 0.1 0.1 0.1 0.1 0.1 0.1 0.1 4.6 14.2 0.1 17.5 13.9 5.9 0.1 0.1 0.1 0.1
140.4 143.2 144.8 144 145.3 148.4 151.3 149.1 146.2 142.5 139.6 135.8 131.2 125.5 123.9 119.6 118.2 112.7 109.9 107.9 96.4 93.5 91.2 92.2 94.4 96.8 97.3 104.6 112.8 119.3 120.4 123.4 125.5 128.2 131.4 134.5 135.6 134.8 134.3 135.4 133.2 131.4 128.4 127.3 125.7 123.4 118.3 108.6 93.5 83 79 76.2 76.3 75.9 75.8 76.3 77.1 78.3 83.8 88.9 95.1 100.2 109.6 116.6 119.1 122.7 126.1 125.6 117.9 110.7 106.5 107.8 110.1 111.4 108 109.2 107.8 105.8 103.8 101 97 93.1 86.9 82.6 72.2 63.2 61.7 52.8 34.1 17.4 4.5 0.7 0.1 0.1 0.1 0.1 0.1 0.1 0.1 0.1 0.1 0.1 0.1 0.1 0.1 0.1 0.1 0.1 0.1 0.1 0.1 0.1 0.1 0.1 0.1 0.1 0.1 0.1 0.1 0.1 0.1 0.1 0.1 0.1 0.1 0.1 0.1 0.1 0.1 0.1 0.1 0.1 0.1 0.1 0.1 0.1 0.1 0.1 0.1 0.1 0.1 0.1 0.1 0.1 0.1 0.1 0.1 0.1 0.1 0.1 0.1 0.1 0.1 0.1 0.1 0.1 0.1 0.1 0.1 0.1 0.1 0.1 0.1 0.1 0.1 0.1 0.1 0.1 0.1 0.1 0.1 0.1 0.1 0.1 0.1 0.1 0.1 0.1 0.1 0.1 0.1 0.1 0.1 0.1 0.1 0.1 0.1 0.1 8.9 12.4 17.8 17 19.7 18.2 19.1 7.5 8.6 0.1 0.1 0.1
135.1 138.8 140.7 140.7 139.9 143.3 144.6 143.9 143.6 145.1 143.2 138.2 136.1 136.1 131.2 125.1 118.1 112.9 110.1 105.4 105.1 103.8 97.8 92.8 93 93.5 97.6 96.1 107 115.6 116.4 119.3 122.7 128.7 132 136 138 137.1 137.1 135.8 132.2 129.4 128.9 129.5 127.4 123.1 114.9 106.2 97.2 85.8 78.5 77.2 77.2 76.8 76.4 76.9 77.3 78.5 80.9 84.1 89.8 92.8 104 112.9 120.5 122.1 128.5 131 126.6 124.6 115.4 108.9 107.2 104.9 104.2 105.1 105.7 104 102.1 99.3 95.4 92.3 88 81.1 75.9 64.9 53.5 48.9 27.9 8 2.1 0.1 0.1 0.1 0.1 0.1 0.1 0.1 0.1 0.1 0.1 0.1 0.1 0.1 0.1 0.1 0.1 0.1 0.1 0.1 0.1 0.1 0.1 0.1 0.1 0.1 0.1 0.1 0.1 0.1 0.1 0.1 0.1 0.1 0.1 0.1 0.1 0.1 0.1 0.1 0.1 0.1 0.1 0.1 0.1 0.1 0.1 0.1 0.1 0.1 0.1 0.1 0.1 0.1 0.1 0.1 0.1 0.1 0.1 0.1 0.1 0.1 0.1 0.1 0.1 0.1 0.1 0.1 0.1 0.1 0.1 0.1 0.1 0.1 0.1 0.1 0.1 0.1 0.1 0.1 0.1 0.1 0.1 0.1 0.1 0.1 0.1 0.1 0.1 0.1 0.1 0.1 0.1 0.1 0.1 0.1 6.2 13.2 18.3 23.8 31.7 32.6 23.8 27.1 28.1 15.8 10.3 0.1 0.1 0.1
129 132.4 133.3 134.7 132.6 133.7 134.8 137.1 139.2 141.8 142.2 141.8 141.7 140.6 140.2 137.5 132.2 129.6 128.1 115.7 110.3 113.4 112.3 106.4 95 94.1 94.5 95.9 97.3 103.5 110.5 114.7 120.2 128 132.7 136.7 138.1 138.2 137.3 135.3 133.1 128.5 126.4 128.9 124.5 120.2 113.9 104.4 94.8 84.7 79.3 78 77.9 77.6 77.2 77.5 77.9 78.8 80.4 82 85.8 89.5 97.1 105.4 112.3 119.7 124.9 131.2 132.3 130.5 124.4 113.2 109.2 103.8 102.5 101.5 102 102.4 101.5 99 94.8 90.3 87.8 80.5 72.4 65.1 50.1 40.3 22.1 5.6 0.1 0.1 0.1 0.1 0.1 0.1 0.1 0.1 0.1 0.1 0.1 0.1 0.1 0.1 0.1 0.1 0.1 0.1 0.1 0.1 0.1 0.1 0.1 0.1 0.1 0.1 0.1 0.1 0.1 0.1 0.1 0.1 0.1 0.1 0.1 0.1 0.1 0.1 0.1 0.1 0.1 0.1 0.1 0.1 0.1 0.1 0.1 0.1 0.1 0.1 0.1 0.1 0.1 0.1 0.1 0.1 0.1 0.1 0.1 0.1 0.1 0.1 0.1 0.1 0.1 0.1 0.1 0.1 0.1 0.1 0.1 0.1 0.1 0.1 0.1 0.1 0.1 0.1 0.1 0.1 0.1 0.1 0.1 0.1 0.1 0.1 0.1 0.1 0.1 0.1 0.1 0.1 0.1 0.1 0.1 16.6 17.4 20.4 22.4 29.3 32.6 36.5 34.7 37.2 33.5 38.1 41.9 31.6 0.1 0.1
122.7 126.7 126.4 126.5 127 129.4 131.6 133.9 137.1 140.1 142.6 144.3 146.6 145.3 143.5 142.9 140 138.2 134.8 128.8 115.2 114.9 114.7 110.5 107.7 98.5 95.8 96.4 97.8 101.1 105.9 112.4 119.7 126.6 132.7 135.1 136.8 137.5 137.6 134 130 127.4 124.6 123.9 123 117.2 107.2 99.6 93.4 85.8 81.1 78.3 78.6 78.3 77.9 78.1 78.7 79.8 81.3 82.5 85.2 87.4 89.5 100.1 106.5 113.3 118.3 124.6 128 130.3 126.3 122 113.6 104.4 102 99.9 98.1 97.8 96.6 95 91.5 85.5 82.7 79 70.2 60.2 48.2 28.7 8.7 2.3 0.1 0.1 0.1 0.1 0.1 0.1 0.1 0.1 0.1 0.1 0.1 0.1 0.1 0.1 0.1 0.1 0.1 0.1 0.1 0.1 0.1 0.1 0.1 0.1 0.1 0.1 0.1 0.1 0.1 0.1 0.1 0.1 0.1 0.1 0.1 0.1 0.1 0.1 0.1 0.1 0.1 0.1 0.1 0.1 0.1 0.1 0.1 0.1 0.1 0.1 0.1 0.1 0.1 0.1 0.1 0.1 0.1 0.1 0.1 0.1 0.1 0.1 0.1 0.1 0.1 0.1 0.1 0.1 0.1 0.1 0.1 0.1 0.1 0.1 0.1 0.1 0.1 0.1 0.1 0.1 0.1 0.1 0.1 0.1 0.1 0.1 0.1 0.1 0.1 0.1 0.5 0.1 0.1 7.9 16.5 18.7 19.4 17.9 20.1 30.7 34.6 39.8 46.8 40.7 46.1 36.3 43.2 33.6 0.1 0.1
116.3 119.2 119.4 119.6 123 126.3 129.6 132.7 135.3 138.2 142.1 144.5 146.3 147 147.2 145.7 143.8 141 134.2 126 121.7 118.1 114.7 112.7 110.1 107.2 101.7 98.3 98.9 100.1 103.6 111.8 120.8 126.7 130.8 134.1 134 134.5 133.3 129.4 126.4 124.6 121.5 117.8 116.8 114.8 108.8 102.8 93.7 87.7 83.8 79.3 80.1 79.8 79.6 80 81.4 82.3 82.6 83.7 85 86.9 88.6 90.2 98.8 103.8 110.6 118.8 122.8 124.4 123.2 121 116.5 109.7 104.4 102.1 98.8 94.7 90.7 88.1 84.5 79.4 74.4 71.2 64 51.7 39.9 19 3.7 0.1 0.1 0.1 0.1 0.1 0.1 0.1 0.1 0.1 0.1 0.1 0.1 0.1 0.1 0.1 0.1 0.1 0.1 0.1 0.1 0.1 0.1 0.1 0.1 0.1 0.1 0.1 0.1 0.1 0.1 0.1 0.1 0.1 0.1 0.1 0.1 0.1 0.1 0.1 0.1 0.1 0.1 0.1 0.1 0.1 0.1 0.1 0.1 0.1 0.1 0.1 0.1 0.1 0.1 0.1 0.1 0.1 0.1 0.1 0.1 0.1 0.1 0.1 0.1 0.1 0.1 0.1 0.1 0.1 0.1 0.1 0.1 0.1 0.1 0.1 0.1 0.1 0.1 0.1 0.1 0.1 0.1 0.1 0.1 0.1 0.1 0.1 0.1 0.1 0.1 0.1 3.6 0.1 8.7 17 18.5 18.1 16.8 17.1 19.3 22.5 25.8 31.6 37.1 39.5 31.2 11.6 26.8 0.1 0.1 0.1
108.5 111.3 114.3 117.9 120.9 124.2 128.1 130.8 134.4 136.4 139.7 141.1 141.6 143.3 143.5 141.6 141.4 139.9 133.9 124.3 120.7 116.1 112.6 109.6 108.3 108.4 109.1 104.4 101.9 101.5 102.8 108.9 120.8 127.3 130.5 132.1 130.9 128.2 126.2 124.6 122.8 121.3 119 115.6 112 107.1 100.4 93.9 87.5 84.8 81.3 79.8 80.7 80.9 81.4 82.3 84 85.9 87.8 88.8 87 87.5 88.8 90.3 92.4 96.2 102.5 111.2 115 117.4 118.8 119.4 118 113 109.3 104.7 101.9 96.7 89 81.3 77.1 72 66.3 58.5 52.8 41.1 28.4 7.9 0.1 0.1 0.1 0.1 0.1 0.1 0.1 0.1 0.1 0.1 0.1 0.1 0.1 0.1 0.1 0.1 0.1 0.1 0.1 0.1 0.1 0.1 0.1 0.1 0.1 0.1 0.1 0.1 0.1 0.1 0.1 0.1 0.1 0.1 0.1 0.1 0.1 0.1 0.1 0.1 0.1 0.1 0.1 0.1 0.1 0.1 0.1 0.1 0.1 0.1 0.1 0.1 0.1 0.1 0.1 0.1 0.1 0.1 0.1 0.1 0.1 0.1 0.1 0.1 0.1 0.1 0.1 0.1 0.1 0.1 0.1 0.1 0.1 0.1 0.1 0.1 0.1 0.1 0.1 0.1 0.1 0.1 0.1 0.1 0.1 0.1 0.1 0.1 6.9 5.6 6.3 5.3 8.9 12.5 15.7 17.7 18.3 17.1 16 21.6 18.5 10.4 9.4 29.6 17.2 24.1 13.8 0.1 0.1 0.1 0.1 0.1
104.7 107.5 110.8 114.3 119.1 122.9 126.4 129.8 132 133.2 134 135.8 136.4 138.2 137.4 137.6 135.8 133.9 128.4 121.9 118.9 114 110.6 108.5 108.5 107.1 106.8 107.5 107.7 103.4 102.8 106.1 117 125 126.7 126.7 126.6 124.4 123.5 121.4 118.1 117.1 113.7 111.6 109.9 107.3 102.5 93.4 85.8 82.5 80.8 81.4 81.4 81.5 82.5 83.9 85.2 89.4 91.4 90.1 91.3 88.9 90.2 90.2 92 92.7 95.4 102.7 111.2 114.3 116.6 117.4 116.4 112.9 111.4 109.7 103.5 98.4 90.5 80.5 72.1 64.9 55.2 47.8 40.9 21.7 5.1 0.1 0.1 0.1 0.1 0.1 0.1 0.1 0.1 0.1 0.1 0.1 0.1 0.1 0.1 0.1 0.1 0.1 0.1 0.1 0.1 0.1 0.1 0.1 0.1 0.1 0.1 0.1 0.1 0.1 0.1 0.1 0.1 0.1 0.1 0.1 0.1 0.1 0.1 0.1 0.1 0.1 0.1 0.1 0.1 0.1 0.1 0.1 0.1 0.1 0.1 0.1 0.1 0.1 0.1 0.1 0.1 0.1 0.1 0.1 0.1 0.1 0.1 0.1 0.1 0.1 0.1 0.1 0.1 0.1 0.1 0.1 0.1 0.1 0.1 0.1 0.1 0.1 0.1 0.1 0.1 0.1 0.1 0.1 0.1 0.1 0.1 0.1 0.1 6.5 5.3 5.3 5.2 6.5 15.1 14.4 14.4 16.6 21.1 17.3 14.1 10.4 10.3 0.1 0.1 0.1 0.1 0.1 0.1 0.1 0.1 0.1 0.1 0.1
101.6 103.5 107.2 110.6 115.4 120 122.8 125.6 128.3 129.1 129 128.8 129.2 128.9 130.2 130.6 131.7 126.3 119.9 117.9 114.4 112 108.2 108.2 107.2 106.6 106.8 109.9 111.3 110.5 102.5 106.6 116.9 119.1 120.4 120.2 121.6 120.1 120.1 115.7 113.6 113 111.5 109.9 108.1 106 102.7 91.6 86.2 84.8 83.7 82.8 82.5 83.2 84.6 84.4 85.4 90 93.3 96.4 95.1 93.6 94.5 91.1 91.9 91.2 91.6 94.8 101.8 109.7 113.5 114.9 114.5 112.7 110.6 108.9 104.4 97.1 88 77.8 68.2 57.1 47.7 41 30.5 8.6 2.1 0.1 0.1 0.1 0.1 0.1 0.1 0.1 0.1 0.1 0.1 0.1 0.1 0.1 0.1 0.1 0.1 0.1 0.1 0.1 0.1 0.1 0.1 0.1 0.1 0.1 0.1 0.1 0.1 0.1 0.1 0.1 0.1 0.1 0.1 0.1 0.1 0.1 0.1 0.1 0.1 0.1 0.1 0.1 0.1 0.1 0.1 0.1 0.1 0.1 0.1 0.1 0.1 0.1 0.1 0.1 0.1 0.1 0.1 0.1 0.1 0.1 0.1 0.1 0.1 0.1 0.1 0.1 0.1 0.1 0.1 0.1 0.1 0.1 0.1 0.1 0.1 0.1 0.1 0.1 0.1 0.1 0.1 0.1 0.1 0.1 0.1 0.1 5.7 5.5 5.4 8.4 11.1 9.9 15.8 14.7 15.4 15.1 20.6 25.1 6.6 4 0.1 0.1 0.1 0.1 0.1 0.1 0.1 0.1 0.1 0.1 0.1 0.1
98.6 100.7 103.4 106.9 111 115.9 119 121.9 123.7 124.2 123.8 122 123.1 122.1 120.6 119.8 120.5 116.1 114 112.2 109.8 107.3 106.2 106.8 105.6 105 106.1 109.4 111.1 111.7 103.4 106.8 119.4 120.8 119.8 119.2 117.9 116.2 111.2 109.4 108.2 108.2 108.1 107.5 106 102 94.4 90.6 88.5 90.1 91 89.1 84.5 84.3 84.6 85.2 85.4 87.6 93.2 97.3 98.8 95.1 95.4 96.6 91.1 89.4 89.3 90.5 92.2 101.4 108.3 112.7 113.1 111.5 108.3 105.8 99 91.9 81.7 71.3 61.4 50.5 41.9 35.8 26.2 9.4 1.4 0.1 0.1 0.1 0.1 0.1 0.1 0.1 0.1 0.1 0.1 0.1 0.1 0.1 0.1 0.1 0.1 0.1 0.1 0.1 0.1 0.1 0.1 0.1 0.1 0.1 0.1 0.1 0.1 0.1 0.1 0.1 0.1 0.1 0.1 0.1 0.1 0.1 0.1 0.1 0.1 0.1 0.1 0.1 0.1 0.1 0.1 0.1 0.1 0.1 0.1 0.1 0.1 0.1 0.1 0.1 0.1 0.1 0.1 0.1 0.1 0.1 0.1 0.1 0.1 0.1 0.1 0.1 0.1 0.1 0.1 0.1 0.1 0.1 0.1 0.1 0.1 0.1 0.1 0.1 0.1 0.1 0.1 0.1 0.1 0.1 0.1 0.1 5.3 5.4 9.4 10.8 11.2 10.4 14.2 15.6 18.5 15.7 15 16.2 6 0.1 0.1 0.1 0.1 0.1 0.1 0.1 0.1 0.1 0.1 0.1 0.1 0.1
96.8 99 101.6 103.9 106.2 110.9 113.3 116.4 117.5 117.8 118.1 114.9 114.3 114.9 112.5 112.1 109.3 106 106.9 105 104.2 103.9 105 106.2 105.7 103.8 105.5 108.2 110.6 111.6 102.3 104.1 120.9 120.8 114.3 115.7 115.4 109.8 107.9 105.8 106 106.5 105.7 104.8 103.6 100.5 95.3 93.9 94.3 96.7 98.9 100.7 92.8 87.3 86.2 86.5 86.7 85.8 88.1 94.2 97.9 96.1 93.5 95 92.8 88.8 87.9 88.4 89.3 90.6 100.9 108.7 111 109.4 104.9 99.9 93 83.2 75.6 66.4 54.9 46.6 40.3 32.4 21.2 8.6 0.1 0.1 0.1 0.1 0.1 0.1 0.1 0.1 0.1 0.1 0.1 0.1 0.1 0.1 0.1 0.1 0.1 0.1 0.1 0.1 0.1 0.1 0.1 0.1 0.1 0.1 0.1 0.1 0.1 0.1 0.1 0.1 0.1 0.1 0.1 0.1 0.1 0.1 0.1 0.1 0.1 0.1 0.1 0.1 0.1 0.1 0.1 0.1 0.1 0.1 0.1 0.1 0.1 0.1 0.1 0.1 0.1 0.1 0.1 0.1 0.1 0.1 0.1 0.1 0.1 0.1 0.1 0.1 0.1 0.1 0.1 0.1 0.1 0.1 0.1 0.1 0.1 0.1 0.1 0.1 0.1 0.1 0.1 0.1 0.1 0.1 0.1 6.4 6.2 9.4 12.9 13.3 11.4 10.6 11.9 18.9 25.2 22 16.3 10.8 4.3 0.1 0.1 0.1 0.1 0.1 0.1 0.1 0.1 0.1 0.1 0.1 0.1 0.1
97.9 97.9 97.8 100.1 103.8 105.7 107.7 107.2 108.4 109.7 107.3 107.6 107.8 104.9 105.8 102.1 105 102.2 101 100.6 100.8 102 103.3 104 105.4 101 101.6 103.1 107.1 109.9 101.1 100.5 113.4 113.2 114.3 111.3 109 108.8 105.8 104.5 104.9 105.4 105.1 104.8 103.6 99.9 101.8 100.3 99.1 100.8 104.1 107.9 105.4 98.4 90.2 87.1 87.3 86.6 84.5 87.9 90.5 91.3 91.4 93.3 93.1 86.7 86.5 87 86.8 88.3 89.4 98.7 104.1 102 98.7 92.7 87.3 80.5 72.5 64.7 51.9 43.4 36.4 27 20.1 6.3 0.1 0.1 0.1 0.1 0.1 0.1 0.1 0.1 0.1 0.1 0.1 0.1 0.1 0.1 0.1 0.1 0.1 0.1 0.1 0.1 0.1 0.1 0.1 0.1 0.1 0.1 0.1 0.1 0.1 0.1 0.1 0.1 0.1 0.1 0.1 0.1 0.1 0.1 0.1 0.1 0.1 0.1 0.1 0.1 0.1 0.1 0.1 0.1 0.1 0.1 0.1 0.1 0.1 0.1 0.1 0.1 0.1 0.1 0.1 0.1 0.1 0.1 0.1 0.1 0.1 0.1 0.1 0.1 0.1 0.1 0.1 0.1 0.1 0.1 0.1 0.1 0.1 0.1 0.1 0.1 0.1 0.1 0.1 0.1 0.1 0.1 9.8 10.9 8.4 12 13.4 17.3 14.6 13.8 13.9 21.7 23.4 22.8 19.1 5.8 0.1 0.1 0.1 0.1 0.1 0.1 0.1 0.1 0.1 0.1 0.1 0.1 0.1 0.1
94.6 94.9 95.7 97.5 99.6 101.9 102.4 102.9 102.1 102.1 103.8 103 100 99.7 99.7 98.7 97.6 99.4 98.9 98.9 99.1 99.8 99.7 100 99.2 99 100 99.2 99.5 99.7 99.5 99.2 103.3 112.1 114.8 115.2 112.1 109.9 104.6 104.4 104.9 105.1 104.7 104.2 103.3 103.2 103.8 104.7 104.1 106.1 108.3 110.4 109 106.7 102.7 88.6 87.1 86 83 84.2 87.6 90.6 88.4 86.1 87.8 83.9 84.1 85.3 85.5 85.4 86.4 87.4 94.7 92.6 88.9 85.3 82.3 76.8 68.9 59.9 50.9 42.3 33.4 23.6 14.7 0.1 0.1 0.1 0.1 0.1 0.1 0.1 0.1 0.1 0.1 0.1 0.1 0.1 0.1 0.1 0.1 0.1 0.1 0.1 0.1 0.1 0.1 0.1 0.1 0.1 0.1 0.1 0.1 0.1 0.1 0.1 0.1 0.1 0.1 0.1 0.1 0.1 0.1 0.1 0.1 0.1 0.1 0.1 0.1 0.1 0.1 0.1 0.1 0.1 0.1 0.1 0.1 0.1 0.1 0.1 0.1 0.1 0.1 0.1 0.1 0.1 0.1 0.1 0.1 0.1 0.1 0.1 0.1 0.1 0.1 0.1 0.1 0.1 0.1 0.1 0.1 0.1 0.1 0.1 0.1 0.1 0.1 0.1 0.1 0.1 0.1 0.1 9.9 10.2 7 11 13.5 14.5 12 14.3 10.2 18.2 24.1 23.3 19 0.1 0.1 0.1 0.1 0.1 0.1 0.1 0.1 0.1 0.1 0.1 0.1 0.1 0.1 0.1
91.6 93.8 94.6 95.7 96.5 98.5 98.8 97.7 98.2 98.7 99.8 99.1 98.9 98.5 98.2 97.6 95.6 96.9 97.9 97.6 98.1 97.8 97.5 97.7 97.5 97.4 97.9 97.5 97.7 98.2 98.7 98.5 102.1 109.8 118.8 121 116.7 112 104.4 103.9 103.9 104.6 104.6 104.2 103.9 103.8 105.3 106.9 108.6 110.3 114.8 116.3 117.9 119.9 116 106.6 90.2 85 81.6 79.8 80.9 83 85 80.5 80 80.3 81.4 82.3 83.2 83.3 82.5 83 86.1 86.8 84.2 80.5 76.3 71.3 65 58.8 49.8 41.8 31.4 15.3 14 0.1 0.1 0.1 0.1 0.1 0.1 0.1 0.1 0.1 0.1 0.1 0.1 0.1 0.1 0.1 0.1 0.1 0.1 0.1 0.1 0.1 0.1 0.1 0.1 0.1 0.1 0.1 0.1 0.1 0.1 0.1 0.1 0.1 0.1 0.1 0.1 0.1 0.1 0.1 0.1 0.1 0.1 0.1 0.1 0.1 0.1 0.1 0.1 0.1 0.1 0.1 0.1 0.1 0.1 0.1 0.1 0.1 0.1 0.1 0.1 0.1 0.1 0.1 0.1 0.1 0.1 0.1 0.1 0.1 0.1 0.1 0.1 0.1 0.1 0.1 0.1 0.1 0.1 0.1 0.1 0.1 0.1 0.1 0.1 0.1 0.1 0.1 6.7 9.3 5 7 11.8 4.5 12.6 10.7 7.5 12.8 19.5 19.7 16.6 0.1 0.1 0.1 0.1 0.1 0.1 0.1 0.1 0.1 0.1 0.1 0.1 0.1 0.1 0.1
93.4 92.3 93.2 94.7 94.4 96.3 96.8 96.5 96.8 97.1 97.4 97.4 97.2 97.3 96.5 95.3 95.8 96.7 97.3 97.9 98.5 98.5 100.1 99.2 98.8 98 97.7 97.4 97.5 97.9 98.5 99.1 99.6 106.7 112.2 113.9 113.2 110.3 110.5 115.2 104.3 104.5 103.9 104.7 103.5 103.8 106.2 109.5 111.7 117.1 119.8 121.2 121.1 121.6 123.3 117.6 106.5 94.5 84.3 79.9 76.5 74.4 74.4 75.2 76.3 77.1 78.2 79.3 80.2 80.5 80.3 80.9 83.6 84.1 80 77.9 74.8 69.4 63.6 58.1 49.4 39.5 22.7 5.1 2.7 0.1 0.1 0.1 0.1 0.1 0.1 0.1 0.1 0.1 0.1 0.1 0.1 0.1 0.1 0.1 0.1 0.1 0.1 0.1 0.1 0.1 0.1 0.1 0.1 0.1 0.1 0.1 0.1 0.1 0.1 0.1 0.1 0.1 0.1 0.1 0.1 0.1 0.1 0.1 0.1 0.1 0.1 0.1 0.1 0.1 0.1 0.1 0.1 0.1 0.1 0.1 0.1 0.1 0.1 0.1 0.1 0.1 0.1 0.1 0.1 0.1 0.1 0.1 0.1 0.1 0.1 0.1 0.1 0.1 0.1 0.1 0.1 0.1 0.1 0.1 0.1 0.1 0.1 0.1 0.1 0.1 0.1 0.1 0.1 0.1 0.1 0.1 0.1 0.1 2.2 4.9 7.7 1.6 2.1 2.6 9.1 6 10 16.6 4 0.1 0.1 0.1 0.1 0.1 0.1 0.1 0.1 0.1 0.1 0.1 0.1 0.1 0.1 0.1
95.5 94.6 93.4 93 93.2 94.9 94.9 95.3 95.4 95.7 95.2 96 95.8 94.8 95.1 95.8 96.5 97.5 97.7 99.1 100.6 102.9 103.5 100.3 99.4 98.9 98.9 98.8 98.4 98 97.8 98 98.6 98.7 102.6 102.8 104.6 108 108.7 111.7 107.7 102 103.2 103.1 103.4 103.7 106.3 110.6 116.1 120.9 125.8 127 126.4 126.1 122.9 118.1 112.1 105.5 97.5 87.3 77.8 71.1 66.8 66.4 70.7 73.1 74.6 75.8 76.4 76.5 77.6 79.8 79.7 78 77.3 76.2 74.8 70.7 65 57.1 50.7 40.1 16.3 0.1 0.1 0.1 0.1 0.1 0.1 0.1 0.1 0.1 0.1 0.1 0.1 0.1 0.1 0.1 0.1 0.1 0.1 0.1 0.1 0.1 0.1 0.1 0.1 0.1 0.1 0.1 0.1 0.1 0.1 0.1 0.1 0.1 0.1 0.1 0.1 0.1 0.1 0.1 0.1 0.1 0.1 0.1 0.1 0.1 0.1 0.1 0.1 0.1 0.1 0.1 0.1 0.1 0.1 0.1 0.1 0.1 0.1 0.1 0.1 0.1 0.1 0.1 0.1 0.1 0.1 0.1 0.1 0.1 0.1 0.1 0.1 0.1 0.1 0.1 0.1 0.1 0.1 0.1 0.1 0.1 0.1 0.1 0.1 0.1 0.1 0.1 0.1 0.1 0.1 0.1 0.1 2.6 0.1 0.1 0.1 0.1 0.1 0.1 3.3 8 2.3 0.1 0.1 0.1 0.1 0.1 0.1 0.1 0.1 0.1 0.1 0.1 0.1 0.1 0.1 0.1
96.6 95.4 94.2 94.2 93.4 92.8 93.6 93.8 94.6 93.8 94.3 94.5 94.9 95.9 96.4 96.7 97.5 98.6 101.6 102.9 103.2 102.4 103 102.2 102.5 102.5 102.1 101.8 101.4 102.6 100.9 99.1 98.9 98.7 98.9 99.7 101.5 102 102.8 102.2 101.1 101.6 102.5 102.9 103.2 103.6 107.1 113.7 119.5 125.5 129.5 131 131.2 130.3 127.4 124.7 122 118.1 110.3 100.3 87.7 77.1 65.2 63.2 63.2 65.8 69 71.4 71.9 72.8 74.7 77.4 78.2 75.3 75.1 74.8 74.3 70.2 60.5 53.6 46.5 31.7 0.1 0.1 0.1 0.1 0.1 0.1 0.1 0.1 0.1 0.1 0.1 0.1 0.1 0.1 0.1 0.1 0.1 0.1 0.1 0.1 0.1 0.1 0.1 0.1 0.1 0.1 0.1 0.1 0.1 0.1 0.1 0.1 0.1 0.1 0.1 0.1 0.1 0.1 0.1 0.1 0.1 0.1 0.1 0.1 0.1 0.1 0.1 0.1 0.1 0.1 0.1 0.1 0.1 0.1 0.1 0.1 0.1 0.1 0.1 0.1 0.1 0.1 0.1 0.1 0.1 0.1 0.1 0.1 0.1 0.1 0.1 0.1 0.1 0.1 0.1 0.1 0.1 0.1 0.1 0.1 0.1 0.1 0.1 0.1 0.1 0.1 0.1 0.1 0.1 0.1 0.1 0.1 0.1 0.1 0.1 0.1 0.1 0.1 0.1 0.1 0.1 0.1 0.1 0.1 0.1 0.1 0.1 0.1 0.1 0.1 0.1 0.1 0.1 0.1 0.1 0.1 0.1 0.1
95.8 96 95.8 94.9 94.5 94 93.5 94.2 94.5 94.7 94.8 95.8 96.4 97 97.3 97.6 99.8 103.4 105.1 104.5 103.9 102.8 103.3 104.7 105.9 107 107.5 108.8 107.7 108.5 107 105.3 104 102.6 99.4 99.2 99.1 100.2 99.8 100.2 101.2 101.1 102.1 102.6 103 103.6 105.6 112.9 120.6 128.4 133.3 133.9 133.9 132.1 131.7 129.3 127.7 124.1 119.7 112.7 98.1 88.8 71.6 63.3 61.6 62.1 64.1 66.4 67.5 69.3 71.7 73.9 76.2 77 76.1 72.7 68.6 64.3 57.3 48.6 32.6 13.4 0.1 0.1 0.1 0.1 0.1 0.1 0.1 0.1 0.1 0.1 0.1 0.1 0.1 0.1 0.1 0.1 0.1 0.1 0.1 0.1 0.1 0.1 0.1 0.1 0.1 0.1 0.1 0.1 0.1 0.1 0.1 0.1 0.1 0.1 0.1 0.1 0.1 0.1 0.1 0.1 0.1 0.1 0.1 0.1 0.1 0.1 0.1 0.1 0.1 0.1 0.1 0.1 0.1 0.1 0.1 0.1 0.1 0.1 0.1 0.1 0.1 0.1 0.1 0.1 0.1 0.1 0.1 0.1 0.1 0.1 0.1 0.1 0.1 0.1 0.1 0.1 0.1 0.1 0.1 0.1 0.1 0.1 0.1 0.1 0.1 0.1 0.1 0.1 0.1 0.1 0.1 0.1 0.1 0.1 0.1 0.1 0.1 0.1 0.1 0.1 0.1 0.1 0.1 0.1 0.1 0.1 0.1 0.1 0.1 0.1 0.1 0.1 0.1 0.1 0.1 0.1 0.1 0.1
94.5 95.4 96.6 97.3 96.8 96.5 96 96.3 95.9 95.7 96 96.3 97 97.4 98.5 101.3 102.6 104 106.8 108.2 100.5 100.5 103.7 105.3 107.1 109 110.7 113.2 112.5 111.4 111.1 110.2 108.1 106.9 103.2 100.9 100.3 99.6 100.3 100.4 101.1 101.3 101.7 102.5 103.1 103.7 104.5 110.5 117.9 126.8 133 138.3 135.5 133.6 134.7 136.1 136.1 133.1 129.1 121.2 110.9 96.9 89.6 66.4 60.7 60.3 61.1 62.3 64 65.8 68.3 71.3 74.5 77.8 73.7 71.3 67.4 63.1 57.1 47.7 18.3 0.1 0.1 0.1 0.1 0.1 0.1 0.1 0.1 0.1 0.1 0.1 0.1 0.1 0.1 0.1 0.1 0.1 0.1 0.1 0.1 0.1 0.1 0.1 0.1 0.1 0.1 0.1 0.1 0.1 0.1 0.1 0.1 0.1 0.1 0.1 0.1 0.1 0.1 0.1 0.1 0.1 0.1 0.1 0.1 0.1 0.1 0.1 0.1 0.1 0.1 0.1 0.1 0.1 0.1 0.1 0.1 0.1 0.1 0.1 0.1 0.1 0.1 0.1 0.1 0.1 0.1 0.1 0.1 0.1 0.1 0.1 0.1 0.1 0.1 0.1 0.1 0.1 0.1 0.1 0.1 0.1 0.1 0.1 0.1 0.1 0.1 0.1 0.1 0.1 0.1 0.1 0.1 0.1 0.1 0.1 0.1 0.1 0.1 0.1 0.1 0.1 0.1 0.1 0.1 0.1 0.1 0.1 0.1 0.1 0.1 0.1 0.1 0.1 0.1 0.1 0.1 0.1 0.1 0.1
92.4 95.1 96.5 97.4 98.7 99.6 99.4 99.3 99.7 98.9 99.5 97.6 98.6 100.6 102.2 103 105.3 102.7 100.5 100.5 100.5 102.5 105.4 108.7 110.1 110.1 111.3 112.5 113.6 113.1 112.9 111.6 110.8 109 105.8 102.5 100.9 100.3 101 101.7 103.9 105.4 107.6 105.3 103.4 104.7 105.4 110.1 117 123.6 129.1 136.1 134.4 133.5 136.1 138.1 138.3 138.6 136.9 132.8 124.7 110.9 96.2 79 62.6 57.8 58.6 59.2 60.7 63.8 65.8 71 73.5 74.1 72.1 68.4 65.7 62.1 58.4 50.7 38.6 7.5 0.1 0.1 0.1 0.1 0.1 0.1 0.1 0.1 0.1 0.1 0.1 0.1 0.1 0.1 0.1 0.1 0.1 0.1 0.1 0.1 0.1 0.1 0.1 0.1 0.1 0.1 0.1 0.1 0.1 0.1 0.1 0.1 0.1 0.1 0.1 0.1 0.1 0.1 0.1 0.1 0.1 0.1 0.1 0.1 0.1 0.1 0.1 0.1 0.1 0.1 0.1 0.1 0.1 0.1 0.1 0.1 0.1 0.1 0.1 0.1 0.1 0.1 0.1 0.1 0.1 0.1 0.1 0.1 0.1 0.1 0.1 0.1 0.1 0.1 0.1 0.1 0.1 0.1 0.1 0.1 0.1 0.1 0.1 0.1 0.1 0.1 0.1 0.1 0.1 0.1 0.1 0.1 0.1 0.1 0.1 0.1 0.1 0.1 0.1 0.1 0.1 0.1 0.1 0.1 0.1 0.1 0.1 0.1 0.1 0.1 0.1 0.1 0.1 0.1 0.1 0.1 0.1 0.1
93.5 95 96.7 97.6 99.8 100.1 101.2 102.4 103.9 104.7 104.3 104.4 102.9 101 101.8 100.5 100.5 100.5 100.5 100.5 102.4 106 107.5 110.5 112.1 113.2 111.3 109.4 110.3 111.1 111.9 111.3 109.2 106.9 104.6 103 101.9 101.5 102.9 108.8 112.9 114.6 114.6 116.6 115.8 110.7 108.4 111.3 117.5 122 126.8 130.9 132.8 132.9 133.9 137.1 140.1 142.3 145.7 141.7 134.1 122.8 108 93.6 74 59 55.6 56.8 57.6 58.9 62.4 68.8 71 70.4 69.9 63.4 62.2 61 58 52.9 39.6 0.1 0.1 0.1 0.1 0.1 0.1 0.1 0.1 0.1 0.1 0.1 0.1 0.1 0.1 0.1 0.1 0.1 0.1 0.1 0.1 0.1 0.1 0.1 0.1 0.1 0.1 0.1 0.1 0.1 0.1 0.1 0.1 0.1 0.1 0.1 0.1 0.1 0.1 0.1 0.1 0.1 0.1 0.1 0.1 0.1 0.1 0.1 0.1 0.1 0.1 0.1 0.1 0.1 0.1 0.1 0.1 0.1 0.1 0.1 0.1 0.1 0.1 0.1 0.1 0.1 0.1 0.1 0.1 0.1 0.1 0.1 0.1 0.1 0.1 0.1 0.1 0.1 0.1 0.1 0.1 0.1 0.1 0.1 0.1 0.1 0.1 0.1 0.1 0.1 0.1 0.1 0.1 0.1 0.1 0.1 0.1 0.1 0.1 0.1 0.1 0.1 0.1 0.1 0.1 0.1 0.1 0.1 0.1 0.1 0.1 0.1 0.1 0.1 0.1 0.1 0.1 0.1 0.1 0.1
93.7 96 97.4 99.1 100.8 101.3 102.1 104.1 105.8 107.4 109.1 110.4 109.5 105.9 101.4 100.5 100.5 100.5 100.5 104.9 107.7 108.4 110.5 112.4 113.6 113.8 113.9 110.6 106 106 106.7 107.1 104.3 104.4 103.8 103 101.7 102.8 108.7 116.2 119.9 121.7 120.8 126.8 126.3 122.1 117 114.8 117.8 122.2 126.5 129.3 131.3 133.7 135.8 140.9 145.3 148.3 148.4 146.5 141 132.4 118.1 109.2 93.6 66 59.5 55.4 54.6 55.6 58.2 61.1 64.4 66.4 61 57.8 57 56.6 53.2 46.2 10.5 0.1 0.1 0.1 0.1 0.1 0.1 0.1 0.1 0.1 0.1 0.1 0.1 0.1 0.1 0.1 0.1 0.1 0.1 0.1 0.1 0.1 0.1 0.1 0.1 0.1 0.1 0.1 0.1 0.1 0.1 0.1 0.1 0.1 0.1 0.1 0.1 0.1 0.1 0.1 0.1 0.1 0.1 0.1 0.1 0.1 0.1 0.1 0.1 0.1 0.1 0.1 0.1 0.1 0.1 0.1 0.1 0.1 0.1 0.1 0.1 0.1 0.1 0.1 0.1 0.1 0.1 0.1 0.1 0.1 0.1 0.1 0.1 0.1 0.1 0.1 0.1 0.1 0.1 0.1 0.1 0.1 0.1 0.1 0.1 0.1 0.1 0.1 0.1 0.1 0.1 0.1 0.1 0.1 0.1 0.1 0.1 0.1 0.1 0.1 0.1 0.1 0.1 0.1 0.1 0.1 0.1 0.1 0.1 0.1 0.1 0.1 0.1 0.1 0.1 0.1 0.1 0.1 0.1 0.1
96.4 97.6 97.6 98.9 101.1 101.8 102.9 104.1 105.9 108.3 110.2 111.3 111.8 110.8 108.6 109.1 109 111.8 111.2 110.2 110 111 111.5 113.1 114.7 115.1 112.7 105.4 98.6 97.2 100.3 101.5 102.5 104.8 105 103.8 103 103.2 103.6 115.4 119.9 123.6 122.7 129.1 132.9 128.7 125.8 127.4 123.8 123 126.4 128.8 131.8 134.2 138.6 143.7 145.6 148.8 151.9 150.5 146.8 139.6 130 117 102.2 78.2 61.9 57 55 53.3 53.2 55 56.1 56.9 53.6 51.4 48.7 48.6 31.3 0.1 0.1 0.1 0.1 0.1 0.1 0.1 0.1 0.1 0.1 0.1 0.1 0.1 0.1 0.1 0.1 0.1 0.1 0.1 0.1 0.1 0.1 0.1 0.1 0.1 0.1 0.1 0.1 0.1 0.1 0.1 0.1 0.1 0.1 0.1 0.1 0.1 0.1 0.1 0.1 0.1 0.1 0.1 0.1 0.1 0.1 0.1 0.1 0.1 0.1 0.1 0.1 0.1 0.1 0.1 0.1 0.1 0.1 0.1 0.1 0.1 0.1 0.1 0.1 0.1 0.1 0.1 0.1 0.1 0.1 0.1 0.1 0.1 0.1 0.1 0.1 0.1 0.1 0.1 0.1 0.1 0.1 0.1 0.1 0.1 0.1 0.1 0.1 0.1 0.1 0.1 0.1 0.1 0.1 0.1 0.1 0.1 0.1 0.1 0.1 0.1 0.1 0.1 0.1 0.1 0.1 0.1 0.1 0.1 0.1 0.1 0.1 0.1 0.1 0.1 0.1 0.1 0.1 0.1 0.1 0.1
97.1 97.9 99.7 99.8 101.3 102.6 103.8 105.9 107.1 109.2 111.3 113.3 113.5 115.4 116.4 116.5 115.9 115.4 114.8 114.3 113.9 114.9 114 114.2 112 110.9 109.2 96.6 96.6 96.6 101.3 105.2 109.7 108.5 109.4 109.7 107.6 103.2 103 107.7 120.3 123.8 126.6 130.3 134.3 135.7 139.9 138.7 135.4 128.9 125.8 129.4 132.6 136.7 141.8 146.1 148.8 149.7 151.1 151.8 148.7 141.7 132.4 120.5 104.5 86.7 66.3 59.6 56 52.8 50 51.5 50.4 50.2 48.1 45.8 41.1 29.3 0.1 0.1 0.1 0.1 0.1 0.1 0.1 0.1 0.1 0.1 0.1 0.1 0.1 0.1 0.1 0.1 0.1 0.1 0.1 0.1 0.1 0.1 0.1 0.1 0.1 0.1 0.1 0.1 0.1 0.1 0.1 0.1 0.1 0.1 0.1 0.1 0.1 0.1 0.1 0.1 0.1 0.1 0.1 0.1 0.1 0.1 0.1 0.1 0.1 0.1 0.1 0.1 0.1 0.1 0.1 0.1 0.1 0.1 0.1 0.1 0.1 0.1 0.1 0.1 0.1 0.1 0.1 0.1 0.1 0.1 0.1 0.1 0.1 0.1 0.1 0.1 0.1 0.1 0.1 0.1 0.1 0.1 0.1 0.1 0.1 0.1 0.1 0.1 0.1 0.1 0.1 0.1 0.1 0.1 0.1 0.1 0.1 0.1 0.1 0.1 0.1 0.1 0.1 0.1 0.1 0.1 0.1 0.1 0.1 0.1 0.1 0.1 0.1 0.1 0.1 0.1 0.1 0.1 0.1 0.1 0.1 0.1
98.4 97.9 99.7 100.9 101.6 103 105.1 107.9 108.8 110.6 112.1 113.8 115.4 117.4 119.4 120.7 118.8 118.3 117.4 116.6 116.6 117.8 117.9 116.1 111.9 109.6 104.1 96.6 96.6 104.3 110.6 111 112.4 109.4 109.1 108.4 107.8 105 102 104.4 113.1 124.2 127.3 133.4 139.5 140.5 146 143 142.7 137.9 128.9 129.3 134.6 136.6 141.3 146.7 149.2 150.7 151.6 150.2 147.1 143.2 136.3 125.4 110 88.8 70.5 60.9 56.6 52.3 49.2 46.2 46.1 45 45 43.5 37.7 11.2 0.1 0.1 0.1 0.1 0.1 0.1 0.1 0.1 0.1 0.1 0.1 0.1 0.1 0.1 0.1 0.1 0.1 0.1 0.1 0.1 0.1 0.1 0.1 0.1 0.1 0.1 0.1 0.1 0.1 0.1 0.1 0.1 0.1 0.1 0.1 0.1 0.1 0.1 0.1 0.1 0.1 0.1 0.1 0.1 0.1 0.1 0.1 0.1 0.1 0.1 0.1 0.1 0.1 0.1 0.1 0.1 0.1 0.1 0.1 0.1 0.1 0.1 0.1 0.1 0.1 0.1 0.1 0.1 0.1 0.1 0.1 0.1 0.1 0.1 0.1 0.1 0.1 0.1 0.1 0.1 0.1 0.1 0.1 0.1 0.1 0.1 0.1 0.1 0.1 0.1 0.1 0.1 0.1 0.1 0.1 0.1 0.1 0.1 0.1 0.1 0.1 0.1 0.1 0.1 0.1 0.1 0.1 0.1 0.1 0.1 0.1 0.1 0.1 0.1 0.1 0.1 0.1 0.1 0.1 0.1 0.1 0.1
