ncols 200
nrows 82
xllcorner 400000
yllcorner 285300
cellsize 50
150.5 150.9 151 150.8 150.9 151.6 152.3 152.9 153.9 154.9 155.9 156.2 156.4 156.6 156.5 156.3 156.7 157.1 157.3 157.7 157.9 157.6 157.3 157.3 158.2 157.7 157.7 155.5 145.1 140 158.6 158 157.8 155.2 156.9 156.7 156.9 157 156.9 156.8 156.9 157.5 158.3 159 159.2 159 158.8 158.5 157.6 156.1 154 151.5 149 146.3 144.9 144.4 145.2 145.2 145.9 146 145.4 144.7 143.7 143.6 143.8 144.2 144 144.2 143.8 142.3 142.5 143.9 144.9 145.9 146.8 147.5 147.1 146.8 146.5 146.8 147 147.1 146.5 145.2 143.8 141.6 139.2 136.7 134.9 133.5 132.2 130.9 129.7 129.6 130.5 132.3 132.2 133 133.6 133.7 133 132.6 135.5 137.2 137.8 138 136.9 135.3 134.9 134 132.9 131.9 131.9 132 132.3 133.3 133.1 132.2 131.6 131.4 131.4 131.3 130.9 130.5 129.8 128.9 129.3 129.6 129.9 129.7 129.1 128.3 127.4 127.2 126.6 126 124.9 123.4 121.2 121.6 121.1 120.3 120 119.6 119.2 118.5 118.4 119 119.5 120.3 121.4 122 121.1 120.1 119.3 119.2 119.3 119.9 120.1 114.5 118.5 118.8 119.5 117.7 115.7 113.8 112.2 110.5 108.6 106.7 104.8 103.1 101.6 99.8 97.9 94 95.8 98.5 102.3 101 101.8 103.8 105.5 106.3 107 106.9 106.3 105.1 103.9 101.8 98.4 95.3 93.7 93.6 92.4 91.5 91.5 93.5 93 92.2
151.5 151.7 152 152 151.9 152.7 153.6 154.6 155.6 156.4 157.2 157.5 157.3 157.4 157 157.1 157.5 157.9 157.9 158.4 158.4 158.3 158.3 158.2 158.5 158 158.7 152.6 158.5 147 139.2 157.2 156.5 144 156.5 156.6 157 157.3 157.3 157.2 158 158.7 159.3 159.8 159.2 158.7 158.4 157.7 156.6 155 153 150.7 148.4 145.4 143.3 142.2 142.8 143.2 143.8 143.7 143.1 142.3 141.5 141.1 141.4 141.4 142.1 142.5 142.5 138.5 141.2 141.9 142.5 142.8 143.6 144.3 144.2 143.8 143.9 143.9 143.9 144 143.8 142.7 141.3 139.4 136.7 134.4 132.5 131.1 130.1 128.8 127.6 127.1 127.5 128.9 128.3 128.9 129.5 130.3 127.2 133.6 134.9 136.7 138.1 138.7 137.8 136.5 135.4 134.3 133.3 132.3 132.1 131.9 132.1 132.8 132.9 131.6 130.8 130.5 130.4 130.1 129.9 129.5 128.9 128.3 128.3 128.7 129.2 129.7 129.6 129 128.1 127.5 126.6 125.9 125.1 124.3 123.2 122 116.6 119.6 120 120.5 120.2 120.1 119.7 119.9 120.5 121.3 122 121.6 120.8 119.7 119.1 118.7 118.9 118.7 120.1 118.3 120.4 120.2 118.6 116.6 114.7 113 111.6 109.9 108.1 106.3 105.4 103.9 101.9 100.3 98.2 95.3 95.9 100.4 102 101.7 102 101.3 100.1 105.4 107 107.4 107.2 105.8 103.5 101.2 98.4 95.3 93.9 93.4 91.4 91.8 92.7 93.4 93.5 93.5
152.8 152.9 153.1 153.3 153.5 154.4 155.4 156.3 156.7 157.4 158.5 158.1 158.6 155.8 155.1 157.2 159.3 160.2 160.2 158.2 156.2 154.1 153.7 153.7 152.5 152.5 152.7 152.1 157 157.5 148.8 157.4 154.9 156.1 147 157.3 157.6 157.5 157.5 157.7 158.6 159.6 160.2 160.2 159.6 158.6 157.8 156.7 155.7 153.9 152.1 150 147.6 144.7 142.7 141 140.8 141.1 141.6 141.5 140.9 139.9 139.2 138.8 138.6 138.5 137.4 136.4 135.3 140.9 141.1 141.2 140.1 139.8 140.4 141 141 140.3 139.9 140.1 140.2 139.9 139.5 138.8 138 136.4 134.3 131.9 130.2 129.2 128.2 127 126 124.9 124.5 124.6 124.6 125.1 125.6 126 128.5 130.3 133.7 135.7 137.9 138.8 138.1 136.9 136.3 135.3 134.3 132.8 132 131.3 131.3 131.8 132 130.8 129.8 129.2 129.1 129 128.8 128.5 127.7 127.2 127.1 127.8 128.5 128.8 129 128.6 127.9 127 126.1 125.2 124.5 124 123.4 121.9 120.4 118.7 119.7 120.5 120.5 120.6 120.6 120.9 121.6 122.2 122.2 121.4 120.3 119.2 118.7 118.2 117.8 117.1 111.3 115.7 116.2 116 115.7 114.5 112.8 111 110 108.8 107.4 106.1 105.1 104 102.3 99.9 97.6 95.5 96.1 101.1 102 102.6 104.7 107.3 107.6 108.8 100.9 107.9 108.1 105.9 103.1 99.9 96.9 95 93.7 93.5 91.6 92.3 92.7 92.4 92.9 92.8
154.1 154.3 154.3 154.6 155.4 156.3 157 157.9 158.1 156.9 159.7 160.2 160.4 160.9 161.3 161.1 161.3 162.4 163 162.8 162.5 162.4 161.9 161.8 159.9 155.4 154.7 160.9 159.6 157.8 157.1 155.6 140.5 157.7 147.5 156.7 158.1 157.9 157.7 158.4 159.6 160.5 161.1 160.8 160 158.6 157.3 155.9 154.6 152.8 151 148.9 146.5 144.4 142.1 140.2 139.5 139.8 140.7 141 140.3 139.2 138.7 138 137.3 136.8 136.3 135.2 135 135.3 135.1 136.6 140.3 139.5 138.2 138.7 138.1 137.7 137.3 136.9 136.3 135.5 135.1 134.4 134 133.4 131.5 129.9 128.7 127.5 126.6 125.4 124.3 123.5 122.7 122.1 122 122.4 123.5 125.8 126 126.6 130.5 133.2 136.4 138.5 138.3 137.6 137 136.3 134.9 133.5 132.5 131.8 130.7 130.4 130.1 129 127.9 127.3 127.4 127.5 127.4 127.1 126.2 125.7 125.6 126.2 127 127.8 128.1 128.1 127.5 126.5 125.6 124.8 124.2 123.6 122.7 120.6 119.4 118.1 117 118.3 119.1 119.1 120.1 121.2 121.9 122.4 122.3 120.5 119 118.1 117.3 116.9 116.4 115.4 114.4 114.9 115.5 114.9 112.9 112 110.3 109 108 107.2 106.1 104.9 103.8 102.6 101.4 99.3 94 96 97.3 100.1 103.6 103.7 106.7 108.7 109.1 109.2 108.9 108.8 101.1 106.3 103.1 99.8 96.5 94.4 90.2 91.8 92.9 92.5 91.4 90.7 92.2 92.7
155.4 155.9 155.8 156.8 157.1 157.4 156.2 158.6 159.7 160.7 161.8 162.5 162.5 162.7 162.9 162.9 163.3 164 164.3 164.5 164.3 164.2 164.1 164 163.6 163.7 162.2 161 159.8 158.4 157.3 154.4 149.2 141.5 154.4 151.2 158.6 158.7 158.4 159.8 160.7 161.6 161.7 160.9 159.9 158.2 156.3 154.9 153.2 151.4 149.4 147.1 145 143.1 141.7 139.6 139.4 139.5 140 140.5 140 139.2 138.6 136.8 136 135.7 135.1 134.3 134 134.1 134.3 134.4 133.9 133.9 136 138.7 137.7 137.1 136.6 134.6 133.2 131.9 131.1 130.3 130.2 129.5 129.2 128 126.8 126.1 125.2 124 122.6 122 121.5 121.4 121.3 127.8 122.9 121.4 122.1 124.1 127.3 130.5 134.6 137.8 138.5 138 137.4 136.7 135.4 134.1 132.9 131.8 130.5 129.7 128.5 127.3 126.2 125.4 125.5 126 126.1 125.2 124.3 123.9 123.7 123.9 124.8 125.6 126.5 127 126.6 126.1 125.1 124.6 124.1 123.5 122.4 119.4 117.7 116.5 115.8 116.2 116.6 116.6 118.4 120.7 121.7 121.8 120.9 119 117.5 116.9 116.2 115.5 114.7 107.9 113.3 114.1 113.8 112.4 110.5 109.6 107.9 106.2 104.8 103.8 103.2 102.5 102.1 101 99.8 96.9 96.9 97.5 97.9 99.9 104.8 104.3 107.8 109.1 109.1 109 108.6 108.2 106.4 105.8 103 99.3 95.9 94 93.3 93.2 93 91.7 90.7 90.8 92.4 93
156.2 155.5 156.7 157.8 158.1 158.8 159 159.5 160.8 161.9 163 163.7 163.9 164.3 164.5 164.6 164.9 165.2 165.5 165.9 166.1 166 165.9 165.5 165 164.3 163.1 162 160.5 159.1 157.8 156.8 155.9 147.9 142.8 144 159.1 159.3 159.3 159.6 161 161.9 161.5 160.4 158.7 157.2 155.1 152.8 151 149.4 147.6 145.2 143.1 141.9 140.5 139.4 139.4 139.5 139.4 139.6 139.5 139.2 138.5 136.7 135.8 135.2 134.6 134 133.5 133.3 133.5 133.8 133.4 132.9 132.6 132.2 131.7 136.7 136.9 136.6 134.2 133.9 127.7 127 127 127.1 127.3 126.1 125.4 124.7 123.8 122.7 122.7 121.8 121.7 121.8 129.9 121.6 120.1 119.6 119.8 121.7 124.8 128.1 132.8 137.4 138.8 138.4 137.6 136.7 135.4 134.1 133.1 131.8 130.5 129 127.4 125.9 124.9 123.9 123.2 123.8 124 123.3 122.2 121.5 121.2 121.7 122.4 123.2 124.1 124.8 125.1 124.7 124.4 124 123.3 122.9 122 118.2 116.3 114.7 113.7 113.5 113.6 113.9 114.6 117.9 120 120 118.8 116.2 115.4 114.8 114.6 114.5 112.6 106.6 112.7 112.9 112 109.8 108.8 107.6 105.9 104.4 102.9 101.8 100.7 99.5 99.4 98.7 97.1 96.9 96.9 97.8 97.4 105.2 105.3 103 108.1 109.1 109 108.7 108.2 107 104.9 102.2 100.1 99.4 95.5 93.9 91.8 93 93.1 91.8 90.9 92.8 93.8 93
155.5 157 156.8 157 160.1 159 159.6 160.5 161.2 162.2 163.4 164.8 165.1 165.5 165.9 166.1 166.4 166.7 167 167.3 167.6 167.8 167.6 167.1 166.7 166 164.7 163.1 161.5 159.9 158.6 157.5 156.3 155.4 146.3 144.4 149.4 159.5 159.2 159.1 160 160.7 160.7 159 157.5 156.1 154.3 151.4 148.8 147.2 145.3 141.7 140.6 141.5 141.6 138.7 139.4 139.5 139.4 139.4 139.4 139 138.8 138.1 137.1 135.6 134.5 133.7 133 132.7 132.6 132.5 132.5 132.1 131.6 131.4 131.2 130.1 129.6 130.4 135.2 135.2 129.2 126.4 126.1 126 125.6 124.9 124.3 123.7 123 123 124.4 123.6 124.2 127.7 122.4 121.5 120.9 119.8 119.6 119.8 122.6 126.1 130.8 136.2 138.5 138.8 137.6 136.6 135.4 134.2 133.1 132.2 130.9 129.4 127.8 125.7 123.7 122.5 121.6 121.5 121.4 121.1 120.1 119.2 119 119.4 120.1 120.8 121.4 121.7 122.1 122.2 122.9 123 122 121.6 121 117 114.7 112.9 111.6 110.7 110.7 111.1 111.6 112.2 113.4 114.5 114.6 113.3 113.2 113.7 113.6 113.6 111.1 111.5 111.4 111.2 109.8 108.2 107.2 106.1 104.7 103.2 101.8 100.4 99.2 98 96.8 97.2 97.7 97.2 97.3 97.4 98.8 104.5 105.2 101.7 107.4 108.9 108.5 108.3 107.7 106.1 104 101.3 98.3 96.2 95.1 92.8 99.1 93 93.3 93.3 93.5 94.3 93.6 93.1
157.1 157.4 157.6 158.9 159.7 160.4 160.6 160.8 161.6 162.8 164.2 165.6 166.2 166.7 167.2 167.6 167.9 168.2 168.5 168.8 169.1 169.4 169.3 168.9 168.4 167.7 166.4 164.8 163.2 161.5 160.2 158.5 157.1 155.6 154.4 144.8 146.1 152.7 157.6 156.7 157.3 158.1 158 157.2 155.8 154.7 153.5 150.5 147.1 144.5 141.5 142.4 140.4 139.9 139.1 138.7 140.1 138.7 139.4 139.1 139.3 139.1 138.9 138.9 138.2 136.8 135.7 134.5 133.8 133.2 132.1 131.3 131.2 130.6 129.6 129 128.6 128.3 128 128.1 127 127.6 133.5 134.6 132 126.3 125.7 125.1 124.8 124.5 125.1 125.9 126.5 125.8 126.8 127.2 125.8 124 122.5 120.5 119.7 119.9 121.5 124.5 128 133 136.6 137.2 136.8 136.1 135.2 134.2 133.1 132.2 131.2 129.9 127.9 125.5 123.1 121.2 119.9 119.1 119.2 118.9 117.9 117.1 117 117.1 117.2 117.6 118.1 118.6 119 119.8 120.3 120.5 120 119.4 118.4 115 112.8 111.1 110.5 109.6 108.5 108.8 109.1 109.6 109.6 109.9 110.5 111.1 111.5 112 112.5 111.8 110.4 110.4 109.8 109.4 108.1 106.8 106.2 105.1 103.7 102.3 101 99.6 98.3 97.6 97.2 97.6 98.2 98.6 98.7 99.2 101.3 104.1 106.1 103.2 106.6 108.4 108.2 107.8 106.6 105.1 103 100.3 97.6 95.6 94.5 91.8 94.6 94.7 100.2 94.2 94.3 93.5 93.9 93.6
157.6 157.6 159.1 160.1 160.8 161.6 161.6 161.6 161.8 163.1 164.5 165.9 167.5 168.1 168.6 168.9 169.3 169.6 170 170.4 170.8 171.1 171.3 170.9 170.5 169.6 168.4 166.8 165.2 164 162.8 161.4 159 156.5 155 152.5 143.6 144.6 151.8 153.9 153.9 154.7 155 154.5 153.9 153.3 151.7 148 145 143.6 140.5 143.3 143.6 143.2 141.9 141.1 140 139.6 139 138.7 139.4 139 139 139.2 139.1 138.3 137.2 136.1 135.2 135 133.8 132 131.2 129.9 129.1 128.3 128.2 127.5 127 127.7 127.9 125.2 125.4 126.1 127.7 133.1 127.6 126.5 126.8 127.5 128.8 135.2 128.1 127.6 129.4 129.2 127 125.8 124 120.9 120.1 120.2 121.4 122.4 124.8 127.8 131.2 133.1 134.7 135.2 134.8 133.7 132.6 131.8 130.9 129.9 127.8 125.1 122.5 120.4 118.3 117.1 117 116.7 115.9 115.6 115.3 115 115.1 114.9 115 115.6 116.5 117.4 117.5 117.7 117 116.4 115.4 113.2 110.8 110 109.4 109 106.8 107.7 107.8 107.9 108 108.3 109.3 110 110.5 111.1 111.6 110.8 103 109 108.5 107.8 106.5 106 105.5 104.3 102.9 101.5 100.1 99.4 97.9 98 97.5 98.3 99.9 101.2 101.4 101.9 103.9 106.4 107.2 106.1 106.9 107.8 107.9 107.5 105.9 104.1 101.8 99.1 96.5 95.5 91.4 95.2 95.8 96.7 94.4 94.2 92.4 99.2 94.7 93.5
157.8 158.9 160.2 161.2 162 162.7 162.9 162.9 162.7 163.1 164.4 166.3 168.1 169.2 169.9 170.2 170.5 170.9 171.3 172 172.4 172.7 172.8 172.8 172.5 171.5 170.3 168.9 167.5 166.7 165.4 164.3 162 159.7 158.2 155.3 151 142.2 144.9 150.7 151.9 152.4 152.4 151.6 151 149.9 144.4 145.5 140.6 144.1 145.2 145.7 144 145.2 144.1 141.6 140.8 140.3 140.6 140.9 140.6 139.7 138.7 139.4 139.8 139.3 138.7 137.7 136.7 135.9 134.9 133.6 132.3 131 130 129.2 128.3 128.2 128.4 129.6 130.2 129.8 127.5 126.9 126.8 128.2 129.9 135.5 131.5 130.8 130.7 131 130.6 129.3 129 127.7 127.4 126.1 124.5 121.8 120.6 120.8 120.9 121.9 122.6 123.3 125.7 128.3 131.1 132.7 132.9 131.9 130.8 130.1 129.5 128.7 126.9 124.2 121.7 119.5 117.3 115.7 115.4 115.1 114.6 114.2 113.8 113.1 113.2 113.1 112.8 113.5 114.4 115.1 114.6 114.8 114 113.3 112.5 111.2 109.3 108.6 108.2 108.9 105.6 106.5 106.6 106.7 107.1 107.9 109.1 110.1 110.8 111.3 111.1 110.3 102.6 107.5 107 106.2 105.7 105.2 104.5 103.4 102.1 100.7 99.5 97.5 98.4 98.4 98 99.8 102.4 104 104.3 104.4 105.7 107.6 107.7 107.4 106.8 107.4 107.6 107.2 105.8 102.7 99.8 97.3 95.6 95.2 91.8 94.5 93.5 94.3 94.2 94 93.4 93.6 95.7 102.2
159 159.8 161.2 162.4 163.1 163.8 164.1 163.9 163.6 163.5 164.9 166.8 168.5 170.2 171 171.4 171.8 172.1 172.8 173.5 174 174.3 174.3 174.3 174 172.8 172 170.8 170.1 169.4 168.2 166.7 164.7 162.2 159.2 156.2 153.5 150.6 141.4 146.1 144.7 149 149.4 147.1 144 144.2 139 145.3 144 146 147.1 149.6 148.9 146.1 145.3 143.8 142.2 141.9 141.6 142.3 142.1 141.3 142.8 142.2 140.7 138.9 138.8 138.5 137.8 136.5 135.3 134.2 133.1 132 130.9 130 129 128.8 129.5 131 132 131.1 132.5 139.4 132.6 131 129.3 129.7 130.3 129.7 130 132.8 133.4 131.7 131.1 128.5 128 125.6 123.6 121.8 120.8 120.6 120.4 120.8 121.2 121.3 122.3 124.7 127.1 128.8 129.3 129.6 128.9 128.2 127.6 126.3 124.9 122.9 120.7 118.3 116 114.5 114.2 114.3 113.9 113.3 112.7 111.9 111.9 111.7 111.7 112.1 112.7 112.8 112.3 111.8 111.1 110.6 110 109.1 108 107.2 107.4 108.6 104.8 105.7 105.7 105.7 106.4 108 109.7 111 111.6 111.9 111 109.8 109.5 106.1 105.7 105.3 104.8 104.3 103.4 102.4 101.3 100.1 99.1 98.5 98.6 98.5 99.2 102.2 104.6 105.7 106.4 106.9 107.5 108.2 107.9 107.1 107.2 107 106.7 106.1 104.8 101.5 97.9 96.3 95.1 91.2 93.4 93.6 94.4 94.1 93.8 93.8 93.7 94.5 96.4 98.3
160.1 161.1 162.4 163.5 164.3 164.9 165.4 165.3 164.7 164 164 166.7 168.9 170.7 172.1 172.6 173 173.6 174.3 175 175.6 175.7 175.9 175.9 174.7 173.9 173.5 172.7 172.1 171.5 170.6 168.9 167.1 165.1 162.1 158.3 154.4 152.8 152.3 149.6 138.7 140.2 138.7 138.7 138.7 146 146.5 146.5 147.7 148.6 149 149.9 149.3 146.6 145.1 143.9 144.7 145.3 144.1 142.8 142.6 142.9 143.2 142.8 142.1 140.9 138.7 138.9 139 137.7 136.4 134.7 133.8 132.7 131.3 130.4 129.5 130 131.4 133 134.7 142.3 136 135.3 134.5 132.7 130.9 130.6 130.6 130.6 130.2 131.5 130.2 128.3 132 130.6 128 125.4 122.8 121.7 121.2 120.8 120.5 120.2 120.2 120.5 120.9 122.1 123.2 124.2 125.3 125.9 126.4 125.7 124.9 124 122.4 120.7 119.1 116.8 114.7 113.6 113.3 113.4 113.2 112.6 112.4 111.6 110.9 110.8 111.1 111.5 111.8 111.9 111.8 111.1 110.4 109.8 109.2 108.4 107.7 107 107 108.4 104.8 105.5 105.4 105.4 105.9 107.6 110.1 112.3 112.8 112.2 110.4 109 107.2 105.9 104.7 104.4 103.9 103.4 102.6 101.8 101.1 99.4 98.6 98.5 98.6 98.7 101.8 104.9 106.3 107.4 108.2 108.5 108.4 108.2 107.9 106.8 106.3 105.8 104.9 104.9 103.1 99.4 96.3 95.2 94.5 92.1 93.2 94.5 94.6 94.1 93.9 93.9 93.9 95.2 97.2 99.6
161.4 162.3 163.5 164.6 165.5 166.2 166.7 166.6 165.6 164 164 166.3 169.2 171.1 172.8 173.7 174.3 175.1 175.8 176.5 177.1 177.3 177.4 176.4 175.7 174.8 174.4 174.2 174 173.1 172 170.5 168.6 166.4 163.7 159.8 156 153.1 151.9 151.1 149.9 150.3 152.6 152 150.2 148.7 149.1 149.6 150.1 150.6 150.8 149.6 148.7 145.6 143.9 142.7 142.9 144.5 145.8 144 144.6 143.8 143.8 144.2 143.3 142.4 141.7 138.7 139.1 138.8 137.7 135.5 135.2 133.9 131.9 130.8 129.9 130.7 132.4 134.9 143.1 138.4 138.2 137.4 136.7 135.4 135.1 134 133.8 134.1 137.3 136.8 134.9 131.7 129.2 128.3 128.3 127.3 122.3 122 122.3 122.7 122 120.9 120.8 120.5 120.8 121.2 121.4 121.1 121.3 122 122.9 123.1 122.2 121.3 119.8 117.9 116.1 115.1 113.7 112.9 112.6 112.5 112.6 112.3 112 111.3 111.1 111.2 111.4 111.5 111.4 111.4 111.4 110.8 110.5 110.1 109.6 109 108.2 107.5 107.3 107.8 105.3 105.8 105.6 105.3 105.6 106.4 110.9 113.5 113.3 112.7 110.3 103.3 105.7 104.6 104 103.4 102.8 102.4 101.9 101.4 100.6 97.8 98.8 98.6 98.8 100.1 104 107 108.2 109 109.7 109.2 108.6 108.1 107.8 106.9 104.8 104.2 103.5 101.8 101.3 97.8 95.7 95.1 91.2 93.4 94 95 94.4 94.1 94 94 94.1 95.7 98.1 100.6
162.8 163.4 164.2 165.5 166.4 167.2 167.9 168.1 166.9 165.1 164 165.2 168.8 171.3 172.8 174.4 175.6 176.4 177.1 177.8 178.2 178.3 177.3 176.5 175.6 175.1 174.6 174.2 173.9 172.9 171.5 171.3 169.6 167.1 164 160.2 156.6 152.5 151.3 151.8 152.5 153.5 149.2 150.5 151.6 151.4 151.1 152.2 152.4 152.1 151.5 149.3 148 144.8 143.6 143.3 143.9 145.9 148.1 149.3 148.8 148.5 145 145.7 145.1 143.2 143.4 142.4 139.6 138.4 138.4 137.2 136.7 134.6 132.4 130.8 130.4 131.3 133.7 142.8 138.6 139.6 140.3 140.1 139.5 139.5 139.8 139.9 140 139.7 138.6 137 135.3 133.4 130.9 127.5 127.7 128.3 126.6 123.6 124.3 125.1 124.8 123.1 122.6 121.9 121.5 121.5 121 120.4 119.5 118.8 119.9 120.3 119.8 119 117.7 115.4 114.4 114.3 113.6 113.2 113.1 112.9 112.8 112.7 112.8 112.2 112 111.9 111.7 111.7 111.7 111.8 111.6 111.3 111 110.8 110.5 110.1 109.2 108.4 107.8 106.8 106.2 106.1 105.7 105.4 105.2 105.2 106.9 105 111.1 109.5 107.9 103.9 105.1 103.9 103.6 102.9 102.2 101.5 100.6 99.7 97.5 98.8 98.8 98.9 99.4 104.7 105.4 108.2 109.2 110 110 109.5 108.7 108.1 107.5 106.9 103.5 103.2 100.4 98.6 98.5 97.1 96.1 95.4 91.8 94.4 95.5 94.4 94.5 93.8 94 94.2 95.2 97.1 99.5 102.2
164 164.4 165 166 167 168.1 168.7 169 168.2 165.9 164 165.9 169.1 171.3 173 174.5 176.3 177.8 178.4 178.9 179.1 178.4 177.1 176.1 174.9 174 173.6 172.7 171.6 171.3 171.3 171.5 169.4 166 162.2 158 154.1 151.8 152.2 153.4 154 154.4 154 154 154 150.9 148.4 148.1 147.9 147.7 147.6 147.7 148.4 149 149.2 148.9 149.4 150.3 151.2 151.6 151.6 151.3 149.6 147.5 146.2 145.5 144.4 143.8 143.1 140.1 138.6 138.3 137.5 135 133.1 131.7 131 132.4 141.6 139.5 139.6 140.7 141.2 141.7 141.6 141.7 141.7 141.4 140.9 140.3 139.1 138 134.9 132.4 129.3 125.5 123.5 123.6 124.6 128.3 125.1 126.8 127 127.2 125.6 124.1 122.4 122.1 121.5 120.7 119.6 117.9 118.2 118.7 118.2 117.3 116.6 116.3 115 114.9 114.3 114.2 114.4 114 113.8 113.6 113.4 113.3 113.1 112.9 112.9 112.9 112.9 112.6 111.8 111.7 111.4 111.2 111.4 111.2 110.3 110.3 109.5 108.1 107.1 106.7 106.4 105.9 105.1 105 104.7 104.7 105.3 104.3 105.2 104.4 103.5 103.1 102.7 102.3 102 101.1 100.1 98.7 99.3 99.3 99.3 100.2 105.8 108.1 108.6 109 109.3 109.8 109.6 109 108.4 107.8 106.5 106.5 104 103.7 99.6 98.8 97.4 95.6 95.4 93.7 94.1 96.1 94.8 94 93.8 93.7 94 94.4 96 98.4 101 103.7
165 165.4 165.9 167 168 169 169.4 169.9 169.4 168.1 167 168 170.1 171.3 172.9 174.8 176.6 178.6 179.4 179.7 179.1 177.6 175.9 174.5 173.4 172.7 171.5 169.3 168.3 168.5 168.9 170.3 167.2 163.3 159.6 155.2 152.4 154 155.3 157.4 157 156.5 155.7 155.5 156 155.8 155.9 155.6 154.6 153.6 151.8 149.7 148.5 148.4 148.3 148.3 150.3 152 153.6 154.3 153.4 152.5 150.8 149 147.3 145.9 145.4 144.1 143.3 143.2 138.7 140.3 139.6 136 133.7 132.7 131.6 132.6 142.8 139.6 140.7 141.2 141.7 142.5 142.7 142.9 142.9 142.3 141.6 140.6 139.5 137.9 134.1 131.2 128.5 125 124.1 125.2 126.1 128.8 128.3 128.7 129.7 130.3 128.7 126.5 124.4 122.9 122.2 121.6 120.3 118 117.5 117.3 116.6 116.4 116.3 116.8 116.4 116.4 115.8 115.6 115.8 115.6 115.3 115.1 114.9 114.2 114.1 114.1 114.3 114.5 114.5 113.7 113 112.2 111.8 111.8 112 112.2 111.8 111.2 110.2 108.8 107.6 107.4 107 106.2 105.3 104.9 104.3 103.9 103.7 104.2 104.5 104.2 103 102.8 102.7 102.7 102.1 100.6 99.7 99.5 100.2 100.3 101 103.5 107.7 108.7 109.2 109.3 109.5 109.5 109.1 108.5 108 107.6 106.9 106.4 104.4 104 99.2 98.6 97.2 95.8 95.6 93.8 95.9 95.3 93.7 93.6 93.8 94 94.2 94.8 97.3 99.8 102.8 105.7
165.9 166.2 167 168.1 169 169.7 170.1 170.6 170.3 170.2 169.5 169.4 170.7 171.6 172.6 174.6 177.3 179.7 180.1 180 178.6 176.8 174.5 172.7 172 171.3 169.4 166.2 164.7 165 165.4 166.5 164 160.3 156.8 153.4 153.5 156.5 158.8 160.8 159.9 158.6 157.5 157.5 158 158.4 158.4 157.5 155.7 153.5 151.2 148.4 147 147.6 148.7 150.2 152 154 155.2 156 155 153.7 152 150.5 148.9 147.6 146 144.5 143.5 143 141.8 139.6 142.2 142.2 141.4 140.9 131.7 132.2 139.4 138.5 140.5 141.4 142.6 143.5 143.6 143.6 143.5 142.8 141.9 140.5 138.7 135.9 132.3 129.7 127.5 125.3 125.4 126.4 127.1 129.1 131.4 128.3 133 132.7 132.3 129.4 126.6 124.6 123.4 122.2 120.7 118.8 117.6 116.6 116.1 116 116.8 116.4 118 119 118.9 118.5 118.4 117.5 117.2 116.9 116.1 115.2 115 115.4 116.6 117.7 116 114.3 114.5 113.4 112.8 112.8 113.3 113 112.7 111.7 110.6 109.6 108.4 108.1 107.3 106.4 105.6 104.9 104.4 103.9 104 104.3 104.5 104.8 102.7 102.5 102.1 102 101 99.9 99.6 100.3 101.4 101.9 102.5 106.9 107.9 108.5 108.8 109.1 109.3 109 108.5 107.9 107.2 106.9 106.6 104.9 104.2 103.4 98.5 98.2 96.6 95.8 93.9 95.1 96.8 95.4 93.9 93.8 94 94.3 94.5 95.7 98.6 101.5 104.5 107.2
166.6 167 167.8 168.8 169.7 170.4 170.8 171.3 171.5 171.4 171.3 171.1 171.6 172.3 173 174.9 178.2 179.9 180.4 180 178 175.6 173 171.3 170.3 169.2 167.3 164.6 162.8 162 161.9 161.9 160.6 157.3 154.5 154.1 155 158.6 162.1 163.2 162.8 161.3 159.8 159 159.5 159.8 158.8 157.6 155.5 153.4 150.4 147.6 146.2 146.9 149.2 151.9 154 156.1 157.2 157.2 156.2 155.1 153.6 152 150 148.1 146.4 145.2 144.1 143.4 142.7 140.9 143.9 143.8 142.2 138 131.9 132.1 138.5 137.7 139.7 141.4 142.8 143.6 144 144.3 143.8 143 141.7 139.5 136.8 133.9 130.8 128.2 126.6 126.3 126.4 127.5 128.6 131 132.7 134.2 128.3 135.4 135.1 133.5 129.1 126.1 124.2 122.4 121 120 118.4 117.2 116.7 115.9 116.8 117.5 119.8 121.7 122.1 121.8 121.5 120.7 119.6 119.5 118.4 117.5 117.4 118.9 120.4 119.8 117.7 116.1 116.3 115.3 114.3 113.8 114 113.8 112.8 111.6 110.8 110.2 109.3 108.4 107.5 106.7 105.8 105 104.5 104.1 104.2 105.4 104.5 104 102.6 102.1 101.8 101.5 100.8 99 101.1 102.1 102.5 103.1 104.1 107.6 108.1 108.4 108.6 108.9 109.1 108.3 107.6 106.4 106 105.8 105.4 104 104 102.8 98.6 97.4 96.1 95.8 96 96.8 96.3 95 93.6 93.7 94 94.3 94.9 96.6 100 103.2 106.1 108.5
167.4 167.9 168.5 169.2 170.3 171.3 171.8 172.4 172.6 172.5 172.7 173.4 173.6 173.8 174.8 176 178.1 179.8 179.9 179.1 177.2 174.6 172.5 171.2 170.5 169.7 168.2 166.2 164.1 161.1 160 158.9 157.2 155 154.5 155.9 158.6 161.8 163.9 165.3 164.4 163.3 162 159.6 159.4 160 158.5 156.6 154.6 152.6 149.8 147.3 146.7 147.9 150.8 153.9 156.2 158.1 159.2 158.8 157.8 156.4 154.6 152.7 150.8 148.8 146.8 145.1 144.1 143.5 142.9 142.5 138.7 148.6 138.8 138.3 140.2 133.5 134.7 137.4 139.4 140.9 142.3 143.5 143.7 144 143.3 142.3 141.4 138.7 135.5 132.4 130.4 128.3 128.1 127.9 127.8 128.8 130.4 132.8 134.4 135.3 135.9 128.3 136.1 134.9 130.2 126.9 124.7 123.1 122.2 121.2 120 118.5 117.3 116.6 116.7 119.6 122.5 123.6 123.7 123.5 123.3 122.7 121.4 122.5 120.5 120.1 119.8 121.4 122 121.5 119.8 118.6 118 117.7 116.5 115.6 115 114.7 113.3 111.9 111.1 110.5 109.8 108.8 107.8 106.9 106 105.5 105 104.7 104.5 108.7 108.1 103.7 103.2 102.8 102.5 102.2 101.7 101.2 102.3 104.2 106.3 105.8 105.6 107.6 108.1 108.5 108.8 108.9 108.5 107.3 106 104.8 104.4 104.2 104 104.3 102.7 101.2 97.5 96.2 95.9 96.5 97.1 96.8 95.2 94.7 93.6 93.6 94 94.6 95.2 97.6 101 104.2 107.2 110.3
167.8 168.8 169.7 170.5 171.4 172.4 172.9 173.4 173.8 174.4 175.3 175.8 176 176 176 176.8 177.9 179.1 179.3 178.2 176.5 174.5 172.9 173 173.3 173.2 171.4 169 166.2 162.5 159.2 157.2 155.6 155.4 156.8 158.8 161.7 164.4 166.5 166.8 165.8 164.4 163.1 160.6 158.8 158.5 157.4 155.5 153.1 150.6 148.7 147.7 147.8 149.6 153 156.2 158.6 160.5 160.8 160.1 158.9 157.3 155.5 153.4 151.4 149.3 147.3 145.1 143.6 142.8 141.8 140.8 142.8 138.7 139 136.5 135.4 142.2 142.2 137.6 139.8 140.5 141.7 143 143.6 143.4 142.9 142.1 141.4 138.9 134.3 132.1 131 129.8 129.9 129.6 129.4 130.2 132 134 135.7 136.7 137.5 137.3 128 133.2 129.9 128 126.6 125 123.9 123 122 119.5 117.7 116.8 117 119.2 123.6 125.2 124.7 123.9 123.9 124 122.3 120.6 120.9 120.3 120.8 121.6 122.6 123.1 122.5 122.2 121.4 120.5 119.1 117.6 116.5 115.7 114.3 112.9 111.6 111.1 110.1 109 108.1 107.1 106.5 106.1 105.8 105.5 105.2 109.4 110 105 104 103.5 103.2 103 102.9 102.5 103.7 106.1 107.7 108.1 107.5 107.2 108.1 108.6 108.8 108.4 107.8 106.4 104.7 103.3 102.9 102.5 102.3 104.4 100.9 99.2 97 96 96.7 97.5 95.9 95.9 94.3 93.9 93.6 93.6 94.3 94.9 95.8 98.5 101.4 104.8 108.9 112.4
168.1 169.7 170.9 171.9 172.8 173.6 174.2 174.7 175.8 177 177.8 178.2 178.7 178.7 177.7 177 177.3 177.9 177.7 176.9 175.7 174.2 174.7 175.2 176 175 172.7 169.7 166.4 162.7 159.3 156.9 157.1 158.1 159.4 161.1 163.7 166.2 167.6 167.2 166 164.3 162.9 159.9 157.7 156.6 155.8 154 151.3 149.3 148.6 149.1 149.9 151.8 155.5 158.9 160.9 162.2 161.9 161.3 160.1 158.5 156.3 154.1 152 149.9 147.6 145.4 143.6 142 140.8 139.9 138.9 138.9 138.7 138 141.4 141.6 142.2 137.4 138.3 140.3 141.1 142.3 143 142.8 142.7 142 141.4 139.2 133.8 132.8 132.5 132.5 132.4 132.2 131.7 131.7 132.8 135 136.8 138.1 138.9 139.6 138.5 128.5 132.8 130.6 128.8 127.4 125.6 124.4 122.8 120.2 118.2 116.8 117.2 118.2 122.2 126.3 126.9 124.4 125.9 126 124.8 123.2 121.9 121.8 122.8 123.7 124.7 124.7 124.4 124.1 123.6 122.2 121 119.4 118 116.5 115.2 113.8 112.5 111.4 110.4 109.3 108.3 107.5 107.6 107.4 107.5 107.1 106.9 111.7 106.4 105.1 104.9 104.2 103.5 103.4 103.4 103.4 105.4 107.4 108.3 108.6 108.5 108.4 108.7 109 108.7 107.9 106.9 105.4 104.1 102.9 101.9 101.3 101.1 100.6 98.5 97.5 96.6 96.7 95.9 96.5 96.8 94.7 94.6 94.3 94.2 94.1 94.7 96.2 97.1 99.6 102.7 106.5 110.5 113.7
168.5 170.6 172 173.1 174 174.9 175.6 176.6 178.1 179.2 179.8 180.2 180.6 179.9 178.6 177.5 176.7 176.5 176.1 175.4 174.6 174.9 175.5 176 176.5 174.9 171.9 168.6 165.6 162.4 159.1 158.4 161.2 161.9 162.7 163.3 165.4 167.2 168.2 167.6 166 164.2 161.6 159 156.8 155.1 154 152 149.6 148.7 149.1 150.4 152 154.9 158.5 160.8 162.7 163.4 163.1 162.4 161 159.4 157.3 155.1 152.9 150.7 148.2 145.8 143.9 141.9 140.3 139.5 139.1 138.5 138.1 141.2 140.8 141.4 141.9 142.2 139.4 140.1 140.3 141.2 141.8 142.3 142.4 141.8 141.1 138.9 134.3 133.5 133.7 135.1 134.7 134.2 133.2 133.4 133.7 136 137.5 138.9 140 140.7 139.6 137.3 129.8 132.7 130.5 129.7 127.3 125.2 122.7 120.1 118.7 117.2 117.9 118.8 123 120.8 129 128.9 128.5 127.6 126 124.3 122.9 123.5 124.7 125.8 126.6 126.2 125.8 125.5 124.9 123.5 122.3 121 119.6 117.4 115.8 114.5 113.2 111.7 110.6 109.6 108.5 108.3 108.5 108.8 109.1 108.9 110.2 104.9 107 107 106.1 105.6 104.2 103.8 103.6 104.6 107.1 108.1 108.6 109 108.9 109 109.2 109.1 108.3 107.8 106.9 105.8 104.6 103.4 102 100.5 99.8 98.9 97.5 97 97.2 97.2 95.3 96.2 95.3 94.9 95.1 94.8 94.8 94.7 95.6 97.2 98.6 100.9 104.3 108.2 112 114.8
169 171.4 173.2 174.3 175.2 176.1 177.4 179.1 180.7 181.7 181.5 181.9 181.7 180.5 179 177.2 175.7 174.7 174.3 173.8 173.5 173.6 174 174.8 174.5 172.5 170.1 167.3 164.4 161.2 159.3 161.9 165.6 165.6 164.9 165.2 166.7 168 168.2 167.1 165.3 162.8 160.5 158.1 156.1 154 152.1 149.4 147.9 147.9 150.3 152.4 154.7 158 160.9 162.8 163.9 164.4 164.1 163.2 161.8 160.2 158.2 156 153.9 151.4 148.9 146.4 144.2 141.9 139.6 139.2 138.8 138.3 138.1 138.2 142.6 140.1 141.4 142 141 140.3 140.2 140.7 141.6 142.3 142.2 141.5 140.8 138.5 135.5 136.3 136.8 137.9 137.6 136.5 135.5 135 135.1 136.7 138.1 139.3 139.3 139.8 139.4 138 135.9 130.9 132.3 130.2 127.8 125.1 122.5 120.5 119.2 119.3 120.2 121.3 124.2 126.7 130.1 131.2 130.3 128.8 127.1 125.4 124.4 124.4 125.5 126.7 127.6 127.6 127.3 126.8 126.2 124.8 123.5 122.2 120.8 118.4 116.5 115.2 113.6 112.1 110.9 109.8 109.1 109.9 112.1 112.9 113.2 113.4 111.4 111.3 111.8 108.9 108.2 105.1 106.2 105 104.5 106.3 107.6 108.6 109 109.4 109.5 109.5 109.7 109.3 108.8 108.3 107.5 106.6 105.1 103.9 102.4 100.9 99.1 98.4 97.9 97.1 97 96.9 91.2 96.8 96 91.8 95 95.4 95.4 95.4 96.6 98.2 99.8 102.1 105.6 109.2 112.7 115.2
169.5 171.9 174.2 175.7 177 178.2 179.7 181.5 183.2 183.9 183.6 183.1 182.3 180.7 178.7 176.6 174.5 172.7 171.9 171.3 171.2 171.1 171.9 172.2 171.2 169.6 167.5 165.1 162.2 160.4 162.2 165.8 167.8 167.9 167 167.1 167.8 168.3 167.8 166.3 164.2 161.4 158.9 156.7 155 153.8 152.3 149.4 147.9 151 153.6 155.7 158.1 160.6 163.3 164.7 164.9 165.4 165.1 164 162.6 161 159 156.9 154.7 152.2 149.7 147.1 144.9 142.9 140.8 139.4 138.9 138.4 137.7 137.7 138.7 144.5 139.7 141 142.2 141.1 139.2 140.2 141.7 142 140.7 140.3 140.4 138.9 137.7 138.6 140 140.4 139.8 138.6 137.4 136.9 136.9 137.7 139.2 138.6 139.3 139.3 138.5 138.3 137 134.4 132.4 126.9 127.6 125.2 122.5 121 120.1 120.8 121.3 122.5 126.3 128.1 133 132.7 131.6 130.1 128.4 126.6 126.1 125.9 126.2 127.3 128.3 128.5 128.3 127.9 126.9 126.2 124.6 123.2 121.6 119.4 117.6 115.7 114 112.6 111.2 110.1 109.8 109.9 111.4 113.7 115.2 114.8 114 111.6 112.7 110.4 109.3 107.2 106 105.4 105.6 106.4 107.3 108.3 109.2 109.5 109.6 109.9 110.3 109.8 109.4 108.9 108.2 107.4 105.9 104.5 103.3 102.1 103.7 101.3 99.3 97.9 97.1 96.6 91.2 97.6 96.1 95 95.4 96 96.1 96.3 97.3 98.8 100.6 102.8 105.7 108.7 112.3 115.7
169.8 172.6 175.8 177.6 179.1 180.4 182.4 184.4 185.5 185.5 184.9 184 182.4 180.3 178.1 175.6 173.3 171.4 170.1 168.7 168.7 168.6 168.7 169 168.5 166.9 165.2 162.5 161.3 162.6 165.6 168.1 169.5 169.7 169.3 168.8 168.4 167.8 167.1 165.4 163.2 160.8 157.9 155.4 153.4 153.1 153.1 153 152.5 154.1 156.2 158.5 160.7 163.1 165 166 166.2 166.4 166 164.7 163.4 161.7 159.8 157.6 155.4 152.9 150.3 147.9 145.6 143.7 141.8 138.7 139.3 138.7 138.1 138 138.8 139.8 144.7 138.7 141 138.7 139 139.9 140.4 140.4 140 140 140.2 139 139.8 140.1 141.3 142.1 140.8 140.7 140.4 138.6 138.8 139.2 139.6 139.8 139.6 139.4 138.4 138.1 136.9 134.5 129.4 128.2 128.3 127.3 126.3 126.9 121 121 121.3 123.9 127.3 135.9 135.3 134.1 132.6 131 129.4 128.1 127.7 127.5 127.7 128.1 128.8 129.1 128.9 128.6 127.9 127.2 126.4 124.7 122.6 120.7 118.8 116.5 114.5 113 111.7 110.3 109.8 110.6 112.4 115 116.7 115.8 114.1 112.1 112.8 114.8 108.9 107.8 106.5 106.4 107.2 107.6 107.8 108.7 109.3 109.6 110.1 110.6 110.8 110.4 109.9 109.5 108.8 108 107.1 105.8 104.9 104.4 105.6 102.7 100.7 98.8 97.8 96.8 95.5 98 96.3 95.3 95.7 97.3 97.6 97.8 98.3 99.1 100.5 102.6 105 107.8 111 114.2
170.4 173.5 176.6 178.9 180.5 182.2 184.4 185.9 186.7 186.8 185.9 184.1 181.8 179.7 177.5 175 172.5 170.9 169.5 168.6 167.9 167.3 166.1 165.8 165.6 163.5 162.2 161.3 163.4 165.2 168 170.1 170.8 170.9 170.8 170.1 169.2 168.4 167 164.7 162.1 159.7 156.9 154.2 153 152.9 153 153.7 154 155.5 157.2 160.2 162.2 164.1 165.7 166.5 166.8 167 166.5 165.4 164 162.3 160 157.7 155.7 153.1 150.4 148.1 145.9 144.4 142.8 140.8 138.7 139.1 138.7 139 139.4 140.1 140 142.4 138.7 141.6 141.8 142 143.2 144.3 143.2 142.8 142.8 141.8 140.8 140.9 142.4 143 142 141.3 140.7 140.5 140.1 138.9 139.6 140.4 140.3 140 139.2 137.7 135.9 133.6 128.5 128.3 128.4 128.4 128.8 128.4 127.8 121.4 122 124.2 126.9 136.8 136.8 135.2 133.8 132.2 130.6 129.6 129.4 128.9 128.8 129.1 129 129.1 129 129 128.9 128.1 127.2 125.9 123.8 121.5 119.3 116.9 114.7 113.2 111.8 110.7 110.6 111.7 113.3 115.6 116.9 115.9 113.6 113.5 113 111.5 110.4 108.4 107.3 107.3 108.1 108.2 108.3 108.8 109.4 110.2 110.9 111.3 111.3 111 110.7 110.1 109.3 108.7 108.2 107.1 106.7 106.9 107.1 104.1 101.7 99.4 98.2 97.4 91.6 97.3 96.7 95.5 95.7 98.2 98.5 98.7 99.3 100 101.2 102.5 104.4 106.2 108.6 111.5
170.5 172.8 176 179.2 181.3 183.9 186.1 187.2 187.7 186.8 185.8 183.7 181.4 179 176.8 173.8 171.8 170.9 170.6 170.8 169.5 168.2 167 166.1 165.3 164.5 164.1 165.2 166.6 168.1 169.8 171.7 172.1 172 171.3 170.5 169.1 167.8 166.3 163.7 161.1 158.5 156.1 153.8 152.9 152.9 152.9 152.9 153.8 156.2 158.3 161.2 163.7 164.8 166.1 167 167.3 167.2 166.5 165.5 164.5 162.5 160.2 157.8 155.6 153.1 150.5 148.3 146.2 144.2 142.8 141.2 139.6 139.6 139.5 140 140.5 140.6 140.9 142.2 143.1 138.8 141.7 142.5 143.5 144.2 144.5 144.1 143.1 143 142.5 142.3 143.4 143.4 143 142 141.9 141.6 141.1 140.5 138.9 140.3 140.7 140.1 138.6 137.2 134.9 132.7 130.1 128.2 128.2 128 128.1 128.6 128.4 121.3 123.6 124.6 126.5 133.1 137.6 136.4 135 133.5 132 131.6 130.8 129.9 129.6 129.6 128.4 127.9 128.3 128 128.6 128.3 127.4 126.1 123.3 121.1 119.1 116.9 114.6 113.1 111.8 111.2 111.7 113 113.9 114.8 116.1 116 115.9 114 111.9 112.8 111.9 109.1 108.7 108.7 108.7 109.1 109.7 110.2 110.6 111.5 111.8 111.8 112.2 111.9 111.5 110.6 109.8 109.4 109 108.4 107.9 108.4 107.3 105 102.5 100 98.6 96.5 95 97.2 96.6 95.9 95.4 98.5 99.2 99.5 100.1 100.9 102 103.4 104.7 106 108 110
171.3 173.3 175.8 178.8 182 185.2 187.7 188 188 187.1 185.4 183.4 180.7 178.2 175.9 173.5 172.6 172.4 172.8 172.8 171.5 170.3 169 167.8 166.9 165.9 167 168.6 170 171.2 172.3 173.6 173.2 172.4 171.4 170.3 168.8 167.2 165.3 162.7 160.3 157.8 155.4 153.6 153.3 153.7 154.5 154.5 154.9 156.7 159.4 161.9 163.8 165.2 166.3 167.1 167.6 167.4 166.4 165.4 164.1 162 159.9 157.7 155.5 152.9 150.3 148.1 146 144 142.7 141.1 140.6 140.3 140.5 141.7 142.3 141.8 141.9 143 143.5 143.7 141.7 141.7 144 144 145.2 145 144.5 144.3 143.9 143.6 144.5 144.6 143.7 143.1 143.1 142.6 142.1 142 140.7 138.7 139.5 139.4 138.1 136.6 134.7 132.7 130.6 129 127.5 127.3 127.9 127.8 127.4 123.2 128.5 127.9 126.9 128 137.5 137.4 135.9 134.6 134.2 133 132.1 131 130.5 129.8 128.4 128.1 127.3 126.7 126.9 127.2 127.1 126.1 122.5 120.7 118.7 116.6 114.5 113.4 112.5 112 112.9 113.7 113.7 115.7 117 117.6 116.4 113.7 113.3 112.6 112.3 111 110.2 109.9 110.1 110.3 111 111.7 112.3 112.5 112.8 112.9 113.2 112.9 112.1 111.2 110.5 110.1 109.6 109.2 109.2 105.8 107.7 105.7 103.3 100.8 98.9 96 95.8 97.1 96.5 95.9 95.7 99.2 99.9 100.2 100.9 101.8 103.2 104.5 105.7 107 108.5 109.6
172 174.5 177.5 180.7 184.1 187.5 189.2 189.3 188.8 187.5 185.7 183.1 180.4 177.9 175.4 174.2 174.4 173.9 174.5 175.2 174.1 172.8 171.4 169.4 167.8 167.2 169.1 171.3 173.3 174.4 175.3 174.7 173.8 173 171.5 170 167.9 165.8 163.7 161.4 158.9 156.7 155.2 153.6 153.4 154.5 156.1 156.6 157 158.4 160.5 161.9 163.6 165.3 166.2 167.2 167.7 167.1 166.3 165 163.5 161.3 159.1 156.9 154.6 152.1 149.6 147.6 145.6 143.6 142.2 141.6 140.8 141.4 142.2 143.5 143.9 143.3 142.9 143.2 143.4 143.7 144.3 144.5 140.5 145.4 145.5 145.3 145.7 145.4 145.1 144.9 145.3 145.4 145.2 144.4 144.2 143.5 142.9 142.7 141.7 140.3 138.7 139 137.7 136.1 134.3 132.3 130.2 128.5 126.9 125.2 123.5 123.4 127.9 125.5 127.2 127.9 128.5 128.5 133.6 137.5 136.4 135.4 135.7 133.6 132.6 131.7 130.6 129.7 128.5 127.1 126.1 125.3 125.3 125.3 125 123.5 120.7 119.2 117.8 116.3 114.3 113.3 112.8 113.4 114 113.7 116.2 117.8 119.4 119.3 118.7 117.2 113.7 113.1 112.6 112.3 111.3 111 111.2 111.9 112.8 113.4 114 114 113.8 114.1 114.2 113.5 112.6 111.8 111.2 110.7 110.1 109.3 109.5 105.6 107.9 106.2 104 101.6 99.1 91.6 96.1 97 96.4 95.9 96.6 99.2 99.8 100.9 101.7 102.8 104.5 105.3 106.6 108 109.2 110.4
173 175.2 178.5 182.4 185.7 189.1 190.5 190.4 189.3 188.1 185.9 183.9 181.4 178.9 176.4 175 175.1 175.4 176.2 177.1 176.2 175.1 172.9 170.7 168.6 168.7 171.1 173.7 175.6 177 177.1 176.1 174.8 173.2 171.3 169.4 166.9 163.9 162 159.9 158 156.6 155.1 153.6 153.9 155.5 158.2 158.8 158.9 160 161 161.9 163.6 165.3 166.5 167.3 167.7 167.2 166.2 164.7 162.9 160.5 158.2 156 153.7 151.3 149.4 147.3 145.2 143.4 142.1 141.6 141.4 142.5 143.9 145.5 145.3 144.5 143.9 144 144.2 144.6 145 144.6 145.7 140 143.9 145.9 145.9 145.8 146 146.1 146.2 146 145.8 145.7 145.1 144.5 143.9 143.2 141.9 140.7 140 138.8 137.2 135.5 133.7 131.9 129.6 127.9 126.2 124.5 122.9 122.4 122.6 124.6 128.1 128.6 128.5 137.4 139.7 139.6 128.5 130.8 137 135 133 131.7 130.7 129.6 128.1 126.5 125.3 125.1 124.6 124.2 123.2 121.2 119.5 117.9 116.6 115.2 113.8 113.3 113 114 114.2 115.6 116.7 119.3 121 120.4 119.6 118.4 116.7 114.3 113.3 112.7 112 111.7 112.5 113.6 114.6 115.3 115.2 115 114.8 115 114.7 114 113.2 112.1 111.6 110.8 109.9 109.6 110.5 109.6 107.8 105.6 103.4 101.2 98.6 96.8 97.5 97.1 96.5 96 96.6 99 100.9 102 102.9 104 105.3 106.6 107.9 109.2 110.3 111.6
174.2 175.8 178.7 182.6 186.3 189.8 191.3 191.3 190.7 189.1 187.5 185.5 182.7 180.2 177.8 176.2 176.2 177.2 178 178.7 177.8 176.5 174.6 172.3 169.9 170.5 173 175.5 177.7 178.8 178.2 177 175.3 173.4 171.2 168.8 166.3 163.8 162.1 160.5 159.1 157.3 155.4 153.9 154.2 156.7 159.7 160.8 160.5 160.6 161.5 162.2 163.6 165.5 166.6 167.3 167.7 167.3 166 164.5 162.7 160.4 157.8 155.2 152.9 151.1 149.2 147.1 145.1 143.3 142 141.5 142.5 143.7 145.5 147.2 146.4 145.5 144.9 145 145 145.4 145.8 146.2 146.4 145.7 138.7 140 145.5 145.8 146.5 146.6 146.3 146.2 146 145.7 145.1 144.8 144 143.2 142 140.8 140 138.4 136.4 134.6 132.5 130.8 128.9 127.3 125.5 123.9 123.1 122.7 123 124.3 127.9 132.4 135.3 138.5 141 140.8 140.2 139.7 139.2 125.6 134.1 131.6 130.5 129.1 127.6 126.7 125.6 125.8 124.9 123.7 122.3 120.8 119.2 117.7 116 114.7 113.6 112.8 114.2 115.1 115.3 115.9 117.2 120.1 122.2 121.4 120.5 119.2 118.5 116.2 114.6 113.6 113.3 113.4 113.9 114.9 115.8 116.6 116.3 116 115.8 115.5 115.1 114.2 113.1 112.4 111.6 110.8 110 108.9 106.8 109.9 107 105 102.9 100.8 97.8 96.5 99.4 97.6 96.9 96.2 96.8 98.9 101.2 103.1 104.5 105.8 107.2 108.9 110.5 111.2 111.8 112.7
175.9 176.4 179.1 183 186.8 190 191.9 192.1 192 190.6 188.9 187.1 184.2 181.7 179.3 177.8 177.9 179.1 180.2 180.5 179.8 178 175.9 173.7 172.1 172.5 174.7 177.2 179.6 180.3 179.5 177.7 175.6 173.6 171.2 168.6 166.3 164.4 163.4 162.5 160.8 158.7 155.7 154.2 154.8 158 161.5 162.6 162.4 162.1 162.2 162.7 164.6 166.7 167.8 168 167.9 167.3 166.2 164.9 162.8 160.2 157.5 155 152.7 151 148.9 146.9 144.9 143.2 142.2 142.2 143.3 144.9 146.7 148 147.6 146.5 145.9 146.2 146.3 146.6 146.9 147.3 147.5 147.6 147.4 138.7 140 146.1 146.9 146.8 146.5 146.3 146 145 144.6 144.5 143.9 142.9 141.4 140.3 139.3 137.1 134.9 132.9 131.3 129.6 128 126.6 125 124.1 123.2 123.1 123.2 124.3 129 134 136.6 139.9 140.9 141.2 140.8 139.9 139.1 137.5 135 126.3 129.9 128.7 127.4 126.9 126.4 126.3 126 124.6 123.2 121.7 120.1 118.7 116.6 114.4 113.4 114.5 115.1 115 115.2 116.2 117.9 121 123 122 120.7 119.5 118.7 117.1 113.7 114.2 114.1 114.3 114.4 115.2 116.3 117 117 116.9 116.5 115.9 115.2 114.1 113.1 112.4 111.6 110.8 110 107.7 105.6 105.6 105.8 104.1 102.2 100.3 92.2 97.1 99.4 97.4 96.7 96.1 97.3 99.5 101.7 104.3 106.3 107.8 109.6 112.3 112.9 113.3 113.5 114.1
178.2 177.8 180.1 183.6 186.9 190 192.1 193.2 193.1 192.1 190.4 188.2 186 183.6 181.2 179.4 179.6 181.2 182.5 182.5 181.1 179 176.8 174.6 173.3 174.1 176.7 178.9 181 181.6 180.2 178.1 176 174 171.7 168.6 166.9 165.8 164.8 163.9 162.3 160 156.3 155 156.1 159.6 162.8 164 164.6 163.8 163.2 163.5 165.6 167.6 168.5 168.7 168.4 167.6 166.6 165 163 160.4 157.6 155.6 153.6 151.3 149 146.9 144.8 143.3 142.5 143 144.3 146 147.8 148.6 148.1 147.6 147.1 147.1 147.5 148 148.5 148.9 148.8 149 148.9 147.3 141.5 140 147.1 146.5 146.5 146.3 146 144.6 143.1 143.6 142.9 142.2 140.7 139 137 135.2 133.4 131.7 130.3 128.9 127.6 126.3 125.3 124.3 124 123.8 123.7 125.1 131.4 136.7 138.7 140 140.5 140.7 140.6 139.9 139.1 137.6 134.9 132.2 131.2 128.1 127.3 126.6 126.2 125.3 125 124.8 123.8 122.4 120.4 118.6 116.5 114.7 113.7 115.8 116.3 115.6 114.6 116.7 118.8 121.5 122 122.3 121 119.9 118.5 116.9 115.9 114.6 114.5 114.5 114.6 115.2 116.4 116.9 117.2 117.1 116.9 116.2 115.2 114.3 113.4 112.4 111.6 110.8 109.2 107.2 105.5 105.2 104.7 103.1 101.2 98.9 97.7 96.9 99.4 96.1 96.6 96.1 97.5 99.6 102.3 105.1 107.4 109.8 112 113.9 115.4 115.6 115.2 115.4
180.7 180.3 181.6 183.8 186.9 189.5 191.8 193.6 194.2 193.7 191.7 189.8 187.9 185.6 182.7 181.1 181.2 182.9 184 183.9 182.5 180.3 178 175.7 175.2 176.5 178.7 180.6 182.3 182.6 181.2 178.9 176.7 174.5 172.4 170 168.8 167.7 166.6 164.7 162.7 159.9 156.3 155.2 156.9 161.7 164.3 165.5 166.4 165.9 165.2 165.2 166.6 168 169 169.1 168.9 168.1 167.1 165.2 163.2 160.6 158.3 156.3 154.4 152 149.6 147.4 145 143.4 143.2 144.3 145.7 147.1 148.4 149.3 149 148.9 148.4 148.2 149.3 149.9 150.3 150.6 150.4 150.4 150.3 150 148.9 147.5 139.8 147.4 146.4 146.2 145.1 143.7 142.9 143 142.1 141 138.3 138.1 136.2 134.9 133.2 132 130.8 129.6 127.9 126.5 125.7 124.8 125 124.9 124.9 126.8 131.7 135.1 137.8 138.9 139.7 140.3 140.2 139.7 138.8 137.5 135.5 132.9 131.9 130.5 123.9 124.9 125 123.6 122.6 123.1 122.9 122 119.5 117.2 115.5 113.7 116 117.3 117.7 116.9 111.8 117.3 119.4 121.5 122.8 122.5 121.8 121.3 120.3 118.3 117.2 115.9 114.8 114.7 115.4 115.9 116.4 117.5 117.4 117.7 117.4 116.6 115.6 114.7 113.7 112.7 111.8 110.3 108.5 105.9 104.9 104.2 103.7 102.7 100.7 97.7 97.7 98.6 98.5 96.1 97 96.6 96.9 99.7 102.7 105.9 108.6 111.1 113.1 115.4 117 117.1 116.9 116.4
183 182.8 183.2 184.2 186.6 188.9 191.4 193.7 195.2 195.1 193.5 191.6 189.6 187.2 184.3 182.4 182.9 184.5 185.5 185.3 183.7 181.5 179 177 177.5 179 180.9 182.8 183.8 183.7 182.3 180 177.8 175.6 173.6 171.7 170.5 168.9 167 164.8 162.2 159.4 156.4 155.8 158.7 163.9 165.8 167.1 168.3 167.8 167.2 167.2 167.8 168.7 169.5 169.6 169.3 168.5 167.2 165.3 163.5 161 159 157 154.8 152.4 149.7 147.5 145.2 144.2 144.8 146.2 147.6 149 150 150.5 150.2 150.1 149.9 149.8 151.1 151.7 152.2 152.3 152.1 151.9 151.5 150.9 150 148.4 147.7 139.1 146.7 146.4 144.9 142.8 142.5 142.2 141.6 140.4 139.2 138 136.4 135.8 134.1 132.6 131.4 129.7 128.2 126.6 126 125.9 126 125.9 126.2 127.9 130.9 133.7 136.2 138.2 139.1 140 139.9 139.6 138.5 137.1 135.2 133.6 131.7 130.3 128.9 124.6 124.7 123.2 121.6 121.2 121.2 119.8 117.4 115.5 115.2 117 118.6 119.4 119.4 118.3 117.2 117.5 119.5 121.2 123.2 123.4 123.1 122.6 122.1 120.5 118.5 117.4 113.7 115.7 116.5 116.8 117.5 118.3 119.2 118.8 118 117.3 116.2 115 113.9 112.8 110.8 109.3 107.6 105.4 104.1 103.4 102.7 101.6 100.4 97.4 98.7 98.9 99.2 97.8 99.1 97 97 99.6 103.3 107.3 109.6 111.8 114.1 116.3 117.6 118.3 117.9 117.5
185.2 184.7 184.7 184.9 186.6 188.9 191.4 193.8 195.6 196.3 194.9 193.1 190.8 188.2 185.5 184 184.6 186.3 187.3 187.2 185.1 182.7 180.2 178.7 179.8 181.1 182.9 184.8 185.7 185.2 183.4 181.3 179.2 177.1 175.1 173.1 171.3 169.6 166.9 164.2 161.7 159.1 157.5 157.2 160.7 165 167.3 169.1 170 169.6 169 168.9 169.7 169.9 170.3 170.3 169.7 169.3 167.8 165.6 163.4 161.8 159.6 157.6 155 152.5 149.7 147.4 145.4 145.2 146.7 148 149.5 150.9 151.8 152.3 152.1 151.8 151.5 151.6 152.9 153.5 154 154 153.7 153.2 152.4 151.7 151 150 148.7 148 138.7 142 145.6 143.8 142.6 141.9 141.4 140.8 139.1 138.3 136.7 135.6 133.6 131.8 130 128.4 127.5 126.7 126.4 127.2 127.6 127.6 127.7 128.3 130.3 133.3 136.8 139.1 139.8 140.2 140 139.6 139 137.9 136.4 134.3 132.2 130.2 128.3 126.7 126.2 125.2 121.8 119.6 118.9 117.4 113.7 115.3 116.7 119 121.5 122.1 121.7 120.2 118.6 118.2 119.4 121.4 123 123.7 123.5 123.2 122.8 122.1 120.4 118.2 116.4 115.4 117.3 117.9 118.4 118.7 118.9 118.8 118.3 117.5 116.1 114.3 112.6 111.2 109.7 108.4 107 103.9 103.1 102.4 101.6 100.5 98.8 96.8 99.2 99.8 99.3 98.8 98.1 96.4 97.1 99.6 102.2 106.3 109.7 112.5 114.9 117.4 119 119.2 118.9 118.6
187.3 186.7 186.5 186.8 188.2 189.8 191.8 194.2 196.6 197.6 196.6 194.7 192 189.3 186.5 185.3 186.4 188.1 189.2 188.5 186.2 184 182.1 181.2 181.9 183.1 185 187 187.7 186.6 184.8 182.7 180.6 178.5 176.1 174 171.8 169.5 166.7 163.9 161.2 159.4 158.3 159.1 162.4 166.2 168.4 170.4 171 170.9 170.8 170.6 171.1 171.3 171.5 171.4 170.9 170.4 168.9 165.9 163.7 162.5 160.3 157.7 155.1 152.4 149.6 147 145.8 146.7 148.4 149.8 151.2 152.7 153.5 154 154.1 153.8 153.7 153.9 154.7 155.3 155.8 155.6 155.1 154.4 153.8 152.9 152.1 151.4 150.6 149.7 147.4 138.7 140.6 145.1 143.3 142.5 141.8 140.8 138.5 138.8 137.2 134.4 132 130 128.9 127.8 127.3 127 127.7 128.7 129.3 129.3 129.3 129.6 131.3 133.7 137.1 139.5 140.3 140.3 140 139.7 139.8 139.2 137.4 135 132.8 130.5 128 126.1 124.4 128.3 129.4 119.4 117.7 118 117.2 117.5 118.8 121.8 124 124 123.5 121.6 119.1 117 117.7 122 123.3 123.6 123.9 123.8 123.2 122.7 121.8 120.2 118.5 116 117.3 116.7 117.6 118.2 117.8 117.4 117.3 116.7 115.1 112.7 110.9 109.6 108.3 107.1 106.9 102.6 101.9 101.2 100.5 99.3 96.2 99 99.2 100.6 98.9 98.4 97.7 96.3 98 99.4 101.6 104.6 108.6 112.2 115.2 117.9 119.8 120.1 119.8 119.3
188.6 188.3 188.3 189.1 190.6 192 193.5 196 198.5 199.3 198.4 195.9 193.2 190.4 187.7 187 188.3 190 191 190.1 187.9 185.8 184.4 183.3 184.1 185.1 187.1 188.8 189 187.9 186.1 184 181.4 179 176.8 174.8 172.4 169.4 166.5 163.7 161 159.3 160.4 161.4 164.2 167.3 169.6 171.5 172.1 172.1 172.3 172 172.1 172.1 172.1 172.1 171.6 171 169.4 167.2 164.9 163.1 160.5 157.8 155.2 152.4 149.6 146.9 146.2 147.6 149.6 151.5 153 154.3 155.1 155.2 155.4 155.7 156 156.2 156.7 157 157.4 156.6 155.8 155.2 154.8 154.1 153.1 152.8 152.1 151.5 150.3 147.6 140.2 140.3 143.4 142.3 141.6 141.1 138.6 138.9 136.4 133.3 130.9 129.4 128.3 128.2 127.9 127.9 128.8 129.9 131 131 130.9 131.4 132.4 134.6 137.4 139.8 140.5 140.2 139.7 139.3 139.4 140.1 136.7 134 131.6 129.3 127 124.7 122.5 122 129.4 115 118.9 119.9 120.7 120.9 122.3 122.2 124.5 125.4 124.5 122.7 121.2 121.9 123 123.3 123.8 124 124.3 124.2 123.6 123.1 122.5 121.2 119.7 118.3 117.2 115.8 115.7 117.4 116.2 115.9 114.9 113.9 112.6 110.1 108.8 107.6 106.7 106.7 102.2 101.8 101.2 100.2 99.4 95.7 97.8 98.9 98.7 99.7 99.1 98.6 97.7 97.8 98.5 99.6 101.5 104 107.2 110.9 114.3 117 119.7 120.7 120 119.6
189.3 189.6 190 192.1 193.6 195.1 196.6 199.1 201.5 201.6 200.1 197.4 194.3 191.6 189 188.7 189.9 191.9 192.7 191.9 189.9 187.8 186.5 185.6 186.1 187.2 188.6 189.8 189.9 189.2 187.2 185 182.3 179.4 177.3 175.2 172.1 169.1 166 163.5 160.8 159.6 161.8 163.6 165.8 168.7 170.5 172.3 172.8 173 172.9 172.7 172.5 172.3 172.4 172.4 172 171.3 169.7 167.9 165.7 163.1 160.5 157.8 155.1 152.2 149.4 147.3 146.7 148.6 150.5 152.6 154.7 156.1 156.9 157.2 157.4 157.4 157.8 158 158.4 158.7 158.5 157.6 156.8 156.1 155.8 155.2 154.2 153.7 153.3 152 151 149.7 147.1 143 141 142.4 141.8 140.3 138.6 136.9 135 132.5 130.2 129.7 129.5 129.9 129.6 129.3 130.2 131.3 132.3 132.4 132.7 133.6 134.3 135.8 138.4 140.1 140.7 140.1 139 137.5 136.6 136.5 134.7 131.9 129.6 127.4 125.4 123.2 120.9 119.4 120.4 129.4 122.6 122 122.2 122.2 124.3 126.2 127.4 127.3 126.4 125.6 124.1 123 120.6 123.4 124.3 124.6 124.9 124.8 123.8 123.4 122.8 121.3 119.8 118 116.1 113.5 113.5 114.2 114.2 113.3 111.9 110.8 109 107.7 106.4 105.2 103.6 101.6 101.5 100.8 100.4 99.5 93.4 97.8 98.6 98.8 101.2 99.9 99.3 98.8 98.9 98.8 98.8 99.9 101.4 103.1 105.9 109.4 112.6 114.9 117.3 118.4 119.5 119.8
190.2 191.1 193 195.4 196.9 198.4 199.9 202.3 204.1 203.3 201.6 199.1 195.5 192.3 190.3 190.2 191.6 193.8 194.9 194 191.9 189.8 188.4 187.8 187.8 187.6 188.1 189.9 191.1 190.2 187.7 185.1 182.3 179.6 177.4 175 171.7 168.6 165.6 163 160.4 160.8 163.3 166.3 168.3 170.4 171.7 172.4 173.2 173.1 173 172.8 172.5 171.7 171.6 171.7 170.9 169.6 168.9 167.8 165.4 162.2 160 157.7 154.8 152 149.2 147.4 147.5 149.6 152.2 154.4 156.6 158 158.7 159.2 159.4 159.2 159.5 159.6 159.7 160.1 159.8 158.9 157.9 157.2 156.8 156.5 155.4 154.3 153.5 152.3 151.2 150 147.9 145 143.5 140.3 141.6 138.3 137.3 136 133.9 131.4 130.8 130.9 131.4 132.2 132.5 132.1 131.9 132.7 133.5 133.9 134.8 135.7 136.5 137.7 139.3 140.6 140.8 139.5 137.7 136.1 134.2 133 131.7 129.6 127.9 125.8 123.8 121.7 119.3 118.8 121 124.7 129.4 122.2 125.8 126.2 128.5 129.4 129.4 129.1 128.3 127.4 126.6 125.4 125.4 124.8 124.8 125.1 125.4 125.3 124.2 123.2 122.2 120.7 119.3 117.4 115.3 113.3 112 111.8 111.3 110.8 109.4 107.8 106.6 105.3 104.8 103.9 106.6 101.1 100.1 99.6 99 98.4 98.5 98.4 98.7 98.1 102.3 99.1 99.1 99 99 99.9 100 100.2 101.1 103.1 105.1 108.1 110.9 113.1 115.3 116.3 117.7 118.7
192.8 192.5 195.8 198.7 200.2 201.7 203.2 205.4 206.7 205.5 202.6 200.2 197.1 193.4 191.8 191.9 193.8 196.1 197.5 196.1 194 191.8 190.2 189.3 187.9 185.9 185.7 187.7 189.3 189.4 187.8 185.1 181.8 179 176.9 174.1 171 167.9 165.1 162.7 160.6 161.9 165.5 168.5 170.6 171.8 172.6 173 173.4 173.2 172.9 172.3 171.6 170.9 170.4 169.8 168.8 167.8 167.4 166.6 164.6 161.5 159.2 157.1 154.6 151.8 149.6 148.1 148.9 151 153.6 156.2 158.3 159.7 160.4 161.1 161.2 160.9 161 161.1 161.2 161.2 160.5 159.8 158.9 158.3 157.8 157.2 156.1 155 153.9 152.6 151.3 149.6 147.3 144.6 142.2 141.1 138.3 139.5 137.2 135.5 132.7 131.4 131.6 131.8 134.1 134.9 135.6 135 134.4 134.3 134.8 135.3 135.8 136.4 137.7 138.7 139.9 140.7 140 137.8 136.4 134.5 131 129.2 128.4 127.5 126.5 124.7 122.6 120.4 119.9 120.2 122 124 122.7 129.2 129.8 129 129.3 130.8 130.7 130.2 129.6 128.8 127.8 126.7 125.7 125.4 125.1 124.8 125 125.1 124 122.8 121.1 119.9 118.7 116.9 114.6 112.5 111 110.6 109.8 108.8 107.5 105.9 104.6 103.9 103.4 106.4 100.9 98.6 97.8 96.8 98.5 98.6 98.7 98.7 98.5 98.3 102.3 99.4 99.3 99.2 100 101.2 101.1 100.8 102 103.4 105.6 108 110 111.8 113.7 115 115.8 116.8
194.3 196.1 199.4 202.5 203.9 205.3 206.7 208.5 209.2 207.3 204.2 201.2 198.3 195.1 193.3 194.1 196.1 198.7 199.2 197.8 195.4 192.9 190.2 188.4 185.3 182.9 182.7 183.7 185.1 186.3 186.6 183.8 180.7 177.9 175.6 173.1 170 167 164.4 162.7 162.1 163.9 167.4 170.1 171.9 172.6 173.4 173.5 173.1 172.9 172.3 171.6 170.8 169.4 167.8 166.7 165.6 164.3 164 163.9 162.9 160.7 158.8 156.4 153.9 152.5 151.2 150.3 150.4 152.2 154.8 157.5 159.9 161.4 162.1 162.7 162.5 162.2 162.1 162.3 162 161.5 160.8 160.2 159.5 158.9 158.4 157.5 156.4 155.4 154.1 152.6 151 148.6 146.3 143.2 141.1 138.7 138.7 138.3 139.9 134.7 131.9 131.5 132.2 134 136.1 137.2 137.8 136.6 135.1 135.1 135 135.2 135.4 136.1 137.2 138.2 138.1 136.9 135.3 133.8 132.6 130.5 127.5 127 126.8 126.3 125.6 124.8 123 119.3 120.3 122 123.4 125 125.6 128.2 130.3 129.5 130.6 131.6 132.2 131.8 131.3 130.2 129 127.6 125.9 125.1 124.6 123.6 123.6 123.8 123.4 122.3 119.7 117.7 116 115.2 113.9 112.3 109.2 109.2 107.6 107.3 106 104.7 103 102.1 101.1 100.1 93.4 98.4 98.5 98.8 98.7 98.8 98.8 98.5 98.3 98.2 102.9 99.4 99.7 100.2 100.5 102.2 101.9 102.3 103.6 104.9 106.9 108.3 109.7 111.5 113.2 114.3 114.6 115.7
196.5 199.2 202.5 205.5 207.2 208.7 210.1 211.1 210.8 208.5 205.6 202.5 199.7 197.1 195.5 196.8 199.3 201.3 200.4 198.2 196.1 193.5 190.5 186 182.6 180 179.2 179.3 180.3 181.3 182.4 180.9 178.4 176 173.5 170.8 167.8 165.2 163.7 162.2 163.2 165.9 168.8 171.3 172.8 173.5 173.5 173 172.4 172 171.5 170 168.4 166.8 165.3 163.7 162.3 160.9 160.2 160.1 159.8 158.9 157.8 155.1 153.5 153.2 153.6 152.5 151.9 153.7 155.9 158.6 161.1 162.6 163.4 163.7 163.4 163.2 163.1 162.6 162.2 161.7 161.1 160.4 159.5 158.9 158.3 157.7 156.7 155.3 153.8 152.1 150.2 147.7 145.3 142.2 138.3 138.5 138.2 138.6 138.3 139.6 132.8 132.4 133.8 135.9 138 139.1 137.9 136.8 135.7 134.9 134.8 134.3 134.2 134.5 135.1 134.9 134.4 132.6 131.1 130 129.3 127.5 126.5 126.6 126.4 126.1 126 125.8 126.8 127.6 126.7 125.6 125.4 125.5 127 128.8 129.9 129 132 132.2 132.8 133.1 132.2 131 129.8 128.2 126.4 124.8 123.4 122.5 122.3 122.5 122 120.3 116 113.6 113.6 113.3 112.4 110.9 107.4 108 106.4 106.2 104.9 103.4 102 101.3 100.3 99.6 99.6 99.7 99.3 99.3 99.2 99 98.7 98.5 98.2 103.4 103.5 99.6 100 99.5 101.5 102.2 102.7 103.5 104.8 106.2 107.6 108.3 109.8 110.5 112.7 113.9 114.9 116.1
199 202.2 205.6 208.8 210.8 212.1 212.6 212.2 211.1 208.7 205.9 203.2 201.1 199.2 197.7 199.5 202.3 202.9 201.2 198.5 196.2 193.4 189.9 184.6 180.8 178 176.9 176 175.8 176.4 177.7 178.1 176.1 172.9 170.1 167.5 165.2 163.8 162.9 162.6 164 167 170.2 172.5 173.6 174.1 173.7 172.5 172 171.1 168.6 167.3 165.6 164 162.7 161.6 160.4 159.3 158 157.3 156.2 155.8 154.9 154.2 153.8 154.4 155.3 154.6 153.8 155.1 157.1 159.7 162.2 163.7 164.1 164.4 163.8 163.7 163.2 162.8 162.3 161.8 161.3 160.4 159.5 158.9 158.2 157.4 156.3 154.9 153.1 151 149 146.4 143.7 140.8 138.7 138.3 138.2 138.4 138.8 138.9 138.9 136.6 136 137.9 139.6 139.6 137.7 136.5 135.4 134.5 133.8 133.1 132.2 131.7 131.7 131.6 130.7 129.8 128.9 128.1 127.7 127 126.7 126.6 126.7 126.6 126.5 127.7 130.1 131.1 130.9 130.1 128.1 127.8 129 130.1 130.6 129.8 132.9 133.7 134.1 134.2 132.8 131.3 130.4 128.2 125.9 123.9 122.2 120.6 120.5 120.5 118.9 115.9 112.7 111.9 111.8 111.3 110.6 109.5 108.1 107.1 107.5 102.9 102.5 101.9 101.4 100.8 100.6 100.6 100.6 100.4 100.1 99.8 99.4 99.3 99.3 98.8 98.4 98.7 104 100 100.3 102 102.5 102.9 103.5 104.3 105.5 107.9 108.4 109.2 109.7 109.8 110 114.5 117.5 119.8
201.4 204.9 208.6 211.8 214.9 216 213.9 210.8 208.2 205.9 203.8 202.1 200.4 199.1 198.5 200.6 203.6 204.6 202.2 198.3 195.1 192.1 188.9 184.3 179.7 176.3 174.4 173.6 173.2 173 172.7 173.4 173.5 170.6 167.2 165.3 164.4 163.9 163.7 164.8 166.2 169.3 172.5 174 174.3 174.6 174 172.6 171.3 167.6 166.6 165.9 164.1 163.3 162.7 162.1 160.9 159.7 158.4 157 155.4 154.5 154 154.6 155.3 156 156.9 156.4 155.7 156.2 158.2 160.6 162.7 164 164.6 164.5 164 163.6 163 162.5 162.1 161.6 161.1 159.9 158.3 157.7 157 156.3 155.3 153.2 153.1 149.6 147.5 145.2 142.6 140.4 138.8 138.2 138.7 138.5 139 138.3 139.1 138 137.3 139.7 141 138.8 137.3 136.3 135.2 134.3 133.4 132.4 131.3 130.2 129.5 128.7 128.2 127.9 127.8 127.4 127.2 127.7 128.3 128 127.8 128.5 129.4 131.2 133.4 134.4 134.4 133.4 131.1 130.4 131.3 131.9 132.6 133.3 134.8 135.1 135.3 134.4 133.1 131.4 129.8 127.2 124.5 122.3 120.5 118.8 118 116.9 114.9 112.7 111.1 110.6 110.2 109.7 108.9 108.7 104.9 106.5 107.6 107.4 101.6 101.3 101.1 101 100.8 100.7 100.7 100 99.9 99.9 99.6 99.6 99.8 98.7 99.6 99.4 102.1 100.3 102.7 105.2 108.4 109.2 108.2 106.8 107.7 109.8 110 110.3 110.8 112.3 114 117.7 120.5 121.7
203.4 207.6 212.3 216.4 218.9 218.1 213.9 209 205.3 203.1 200.9 199 197.6 197 197.1 199.1 202.3 204.6 201.9 197.8 193.7 190 187 183 178.8 175.5 173.4 172.3 171.8 170.7 167.9 167.9 168.6 167.5 165.8 165.7 165.9 166.2 166.5 167 168.5 171.6 174.6 175.1 175.4 175.3 174.5 172 168.2 167.1 166.3 165.9 165.4 164.9 164.7 164.4 163.6 161.8 160.1 158.5 156.4 155.8 156.6 157.6 158.3 158.4 158.6 158.5 157.9 157.8 159.4 161.2 162.7 164.1 164.4 164 163.4 163 162.4 162 161.4 160.4 159.6 158.8 157.3 155.6 154.4 154.3 152.8 151.3 151.3 147.8 146 143.6 141.1 139.2 138.4 138.6 138.8 138.6 138.3 141 141.7 139.9 137.6 137.1 140.7 138.2 136.9 135.9 134.9 134.1 133.3 132.5 131.1 129.7 128.6 127.9 127.6 127.6 127.7 128 128.3 129.3 130.3 130.7 131.4 132.1 133.2 135.1 136.3 137 136.7 135.4 133.8 133.1 133.7 134.5 135.2 136.1 136.2 136.5 135.8 134.7 133 131 128.6 125.6 122.5 120.8 119.1 117.4 115.9 114.5 112.8 110.7 109.5 109.6 109.1 108.2 108.2 107 102.7 106.8 107.6 108.3 102.8 100.9 100.9 101 100.7 100.8 100.6 99.6 99.7 103.7 108 107.8 103.3 109.2 108.8 105.9 103.7 101.6 106.7 108.2 107.2 107.8 107.4 109.2 112.5 113.9 114.7 115.3 115 113.4 113.9 118.1 121.1 123.6
205.6 210.6 216.3 220.2 221.6 219.6 214.2 209.5 205.9 203.3 200.2 197.1 194.9 194.6 195.2 197.2 200.5 203.4 201.1 196.5 191.5 187.2 183.4 180.8 177.1 173.8 172.6 172 171.8 170.7 167.9 167.9 168.1 167 167 167.1 167.7 168.7 169.6 170 170.8 173.7 176 176.4 176.5 176.2 174.5 171.9 168.5 166.9 166.7 167.5 167.7 167.7 167.7 166.9 165.8 163.8 161.7 159.4 157.8 157.9 159 160.2 161.1 161.4 161 160.5 160 159.6 160.7 161.9 163 164 164.1 163.5 162.9 162.4 161.7 160.7 159.8 158.9 158 156.8 155.3 152.4 151.3 151.3 151.3 151.3 151.3 146.2 143.4 141.2 139.8 139.6 139 138.8 138.8 138.3 141.4 143 144 142 138.3 137.5 136.1 137.8 136.5 135.6 134.8 134.7 134 133 131.9 129.8 128.8 128.8 128.8 129.2 129.6 130.2 131 132.2 132.3 133.1 134.8 135.6 136.5 137.6 138.1 138.4 137.9 136.6 135.4 135.4 136.4 137.2 137.9 138.1 137.8 137 135.8 134.5 132.7 130.6 127.4 123.7 121.5 119.7 117.9 116.2 113.8 112 111.1 109.5 109.5 108.4 107.6 107.2 107 108.9 109.2 108.6 108.9 108.9 101.8 100.8 100.9 101.2 108.5 108.5 108.1 107.8 107 105.7 105.5 103.5 103.1 103.3 105 102.5 102.8 106.6 107.7 108.9 109.3 109.1 108.9 110.4 113.5 117.9 117.8 118.1 117.4 114.4 115.2 120 123.3 125
207.2 213.3 220.3 225.5 223 220.6 216.7 212.4 209.4 205.8 201.5 197.5 193.8 192.1 192.3 194.3 197.3 201.4 199.3 195.1 190.4 186.4 182.1 178.2 175.1 173.4 173.1 172.7 172.8 172.9 172.8 171.5 170.7 170.2 169.2 168.9 168.9 170.3 172.2 172.9 173.9 175.3 176.8 177.3 177.1 176.1 174.4 171.6 168.7 168.3 169 169.9 170.1 170.1 169.8 168.7 167.6 165.5 162.7 160.1 158.5 159.2 161.1 162.4 164 164.3 163.9 162.6 161.7 161.4 161.6 162.7 163.5 163.5 163.7 163.1 162.2 161.3 160.5 159.3 158 156.1 155.1 154.1 152.4 151.3 151.3 151.3 151.3 151.3 151.3 148.9 140.2 139.3 140.2 140.5 139.6 139.2 138.3 140.8 143.4 145.7 146.1 144.4 145.4 138.3 138.3 136.7 135.8 135.5 135.3 135.9 135.8 134.3 131.9 129.8 129.9 130.5 131.4 132.4 132.6 133 134.2 134.5 135.7 136.7 138.1 138.4 138.6 139 139.4 139.2 138.3 137.8 137.1 136.6 137.2 138.9 139.3 139.1 138.1 136.7 135.2 133.7 131.5 129.5 126.1 123.1 120.6 118.9 116.8 115.2 112.1 111.8 109.9 108.9 107.6 107.5 107.3 108 111.6 111.8 111.3 109.1 105.4 102.1 101 100.4 100.5 100.9 100.8 100.7 101.5 101 100.9 102 102.6 103 103.5 103.7 103.8 107 105.1 109.5 111.5 113.8 116.8 113.7 110.5 114.4 116.8 119.7 120.3 121.9 122.8 121.1 120 121.9 124.6 125.9
212.1 216.5 222.2 226.1 223.7 221.6 218.6 215.5 211.4 207.3 202.9 198.3 194 191.1 190.5 191.6 193.6 197.9 196.9 192 187.5 184.9 181.2 177.1 174.4 173.9 173.6 173.9 175.2 176.5 176.2 175.8 175.1 173.7 172.4 170.5 170.1 171.7 173.8 175.3 176.5 177.1 178 178 177.1 175.6 173.4 170.8 170 170.8 171.5 172.2 172.5 172.1 171.7 170.6 169.4 166.9 164 161.2 159.6 160.9 163.5 165.3 166.8 167.2 166.3 165.1 163.9 163 163.1 163.4 163.8 163.9 163.6 162.3 161.4 160.4 160.1 157.7 153.4 151.3 151.3 151.3 151.3 151.3 151.3 151.3 151.3 151.3 151.3 153.6 140.3 138.3 139.3 140.5 139.3 138.3 141.4 143 146.6 147.5 147.4 146.2 144.1 140.3 138.8 137.7 136.9 136.4 135.1 136.7 136.3 135 133.2 131.2 132.2 133.3 134.9 135.7 138.4 138.3 138.5 139.2 139.4 139.9 140.5 140.2 139.8 139 138.4 138.6 138.8 138.2 138.2 137.7 137.5 138.3 139.3 138.8 137.3 135.7 134.1 132.8 130.4 127.9 125.5 122.7 120.3 118.7 116.7 114.2 113 110.8 108.7 107.7 106.8 105.6 110.4 109 102.7 109.9 109.3 107.4 103.3 101.2 100.7 100.6 100.5 100.4 100.4 100.3 100.4 100.7 101 101.6 102.7 103.3 103.2 104.2 104.2 102.7 107.3 115.4 116.1 119.8 120.6 113.5 116.3 120.9 121 121.6 121.6 122 122.1 121.7 121.5 122.5 125.1 126.7
211.6 218.4 225.1 225.7 224.2 221.8 219.3 216.5 212.4 207.7 202.9 198.6 194.2 190.5 188.8 189.2 190.4 193.9 194.2 189.3 184.6 182.2 179.1 176.3 175.1 174.3 175.1 176.5 178.3 179.8 180 179.9 178.9 177.3 175.2 172.3 171.2 173.1 175.3 177.3 178.5 179.1 178.8 178.1 177.3 175.4 172.9 170.8 171.6 172.7 173.5 174.2 174.4 174.1 173.7 172.5 171.1 168.4 165.5 162.8 161.1 162.9 165.6 166.7 167.4 167.6 167.1 166.3 165.4 164.6 164.3 163.9 164.1 164.3 163.9 162.5 161 160.5 160 157.3 153.4 151.3 151.3 151.3 151.3 151.3 151.3 151.3 151.3 151.3 151.3 151.3 142 140.2 140.6 142.2 142.9 142.9 143.5 146.7 148.1 148.1 147.7 146.8 144.2 141.3 139.4 138.7 138.1 137 136.4 136.6 133.3 133.8 133.6 131.1 133.5 135.2 136.9 138.8 139.2 140.5 141.4 142.3 142.3 141.9 142.2 141.5 140.1 137.9 137.2 138.4 139 138.5 138.2 137.7 136.6 136.6 136.7 136.1 135.4 134.4 133.2 131.9 129.8 127.4 124.9 123.1 121.6 118.2 116.3 114.2 112.4 109.7 108.7 107.4 106.2 105.1 103.9 102.7 106.9 108.9 108.9 105.4 98.8 101 100.6 100.5 100.2 100 100.1 100.2 100.6 101 101.6 102.2 103.3 103.9 104.1 103.8 102.7 105.5 112 116.9 118 120.7 122.8 119.6 120.3 124 123.4 122.7 122.5 122.4 122.6 122.3 122.3 123.1 125.8 127.4
213.3 222.1 225.3 224.7 223.2 220.9 218.2 215.7 211.8 207.8 203.5 198.9 194.5 190.5 187 186.5 187.3 190.1 190.3 186.4 181.7 179.3 177.5 176.1 175.8 176.2 177.6 179.6 181.4 182.9 184 183.5 182 179.9 177.5 174.6 172.3 174.1 176.6 178.6 179.4 180 179.3 178.4 177.5 175.2 172.6 171.3 172.7 174.1 175.3 175.9 176.1 175.9 175.7 174.2 172.6 169.9 167.1 164 162.7 163.9 166.4 167.9 169 169.2 168.8 168 167.1 166.2 166 165.6 165.6 165.4 164.5 163.3 162 161 159.1 157.8 156 153.4 151.3 151.3 151.3 151.3 151.3 151.3 151.3 151.3 151.3 151.3 144.8 141.6 143.4 144.6 144.4 144.6 147 149.2 150.3 149.8 148.7 147.3 145.1 142.8 141.3 139.8 138.3 137.9 137.8 137.7 137.8 137.3 131.6 131.5 134.4 136 137.5 138.3 140.4 142.3 143.2 144.3 143.8 143.5 143 142.1 139.6 137.4 137.3 137.6 137.8 137.7 137 134.8 133.9 133.3 132.9 132.7 132.7 132.7 132.5 131.5 129.8 127.1 124.7 123.9 124 120 117.6 115 112.4 110.8 108.1 106.8 105.3 103.6 103.8 103.9 103.5 106.5 108.3 103.9 101.2 100.8 100.5 100.3 100.1 100.6 100 100.9 101.6 102.4 102.9 103.2 104.1 103.8 104.7 105.1 105.7 108.6 117.5 118.8 119.8 122 124.4 124.7 125.7 126.2 125.3 124.2 123.9 123.6 123.3 122.9 122.6 123.6 126.4 128
214 221.3 223.3 222 220.5 217.4 213.5 212.2 209.8 206.6 203.5 199.9 195.4 191.6 187.1 184.9 184.8 185.4 185.5 182.6 179.8 177.8 177.1 176.7 176.4 178.4 180.5 182.6 184.5 186.7 187.8 187.1 184.7 182.2 179.5 176.6 173.2 174.8 177.6 179.9 180.2 180.9 180 178.7 177.3 175.2 172.9 172.5 173.8 175.3 176.8 177.6 177.8 177.5 176.8 175.2 173.2 170.5 167.4 165.1 164.5 165.2 167.6 169 170.1 170.2 169.8 169.2 168.7 168.1 167.7 167.3 167.1 166.6 165.8 164.8 163.5 161.6 159.7 158.1 156.7 155 152.1 151.3 151.3 151.3 151.3 151.3 151.3 151.3 151.3 151.3 152.1 147.8 147.3 147.5 146.6 146.3 148.4 150.4 150.8 150.5 149 147.4 145.9 144.3 142.7 141.4 140.4 138.3 138.6 138.1 138.7 139.3 132.5 131.9 134.9 137.1 138.6 139.1 140.5 142.4 142.9 143.6 143.6 143.7 143.2 142.1 139.9 137.8 137.5 137.3 136.4 135.3 133.6 131.9 130.8 130 129.5 129.5 129.7 130.4 130.9 131 129.7 127.2 124.6 124 122.1 121.1 112.1 113.7 111 108.6 107.1 105.8 104 103.5 103.8 103.6 103.3 102.7 103.6 98.2 101.5 101.1 101 100.8 100.4 100.2 100.6 101.8 102.7 104 104.1 104.4 104.3 103.8 105.6 107.1 108.4 110.2 118.1 119.6 121.1 123 124.6 125.7 126.5 127 126.6 125.9 125.5 125.4 125.1 124.7 124.1 124.6 126.5 127.9
213.1 219.4 221.1 219 216.4 212.9 209.2 207.4 206.1 203.7 201.8 199.3 195.9 192 187.7 184.7 183.1 182.7 181.5 180.7 180.1 179.3 178.4 177.6 177.6 180.4 183 186.3 188.9 191.3 191.7 189.8 187.2 184.1 181.1 177.9 174.2 176.1 178.9 181 181.7 181.5 179.9 178.5 177.1 175 174 174 175 176.5 178 179 179 178.4 177.5 175.5 173.4 170.4 167.7 166.7 166.8 167.5 168.9 169.9 170.8 170.7 170.5 170.1 169.6 169.2 169 168.8 168.6 167.9 167 166.2 164.4 162.4 160.4 158.3 156.6 154.2 151.3 151.3 151.3 151.3 151.3 151.3 151.3 151.3 151.3 152.6 153.7 152.9 151.3 150 149.4 148.9 149.1 150.5 151.3 150.6 149.5 148 146.6 145.6 144.4 143.3 142.2 140.8 140 138.3 139 139.3 140.2 137.9 139 138.3 139.2 139.7 138.3 141.1 141.6 142.8 142.6 143.4 142.9 141.5 138.8 137 137.4 137.1 133.4 131.9 129.8 127.6 127.1 126.8 126.9 127.2 127.7 128.5 129.6 129.9 129.3 127 123.6 122 118.2 114.3 113 110.8 109 107.5 106.1 105 103.9 103.4 103 102.6 102.3 102.1 103.4 102.2 101.9 101.5 101.6 101.4 101.1 101.2 101.6 102.5 103.6 104.6 104.5 104.5 103.8 106.1 109 109.9 110.6 116.3 117.9 120.3 122.9 125.3 126.9 127 127.9 128.1 128 127.4 127.2 127.1 126.9 126.5 125.9 126.4 127.8 128.6
212.2 218.3 219.1 216.6 213.4 209.7 205.7 203.1 201.9 200.5 198.3 196.6 194.8 191.2 187.4 184.6 183.6 182.7 183 183.5 183.8 182.3 180.2 179 179.1 182.2 185.6 190.1 193.4 195.1 194.1 191.8 188.5 185.4 182.3 178.9 175.8 177.3 179.8 182 182.4 181.8 180.2 178.5 176.9 175.8 175 175.6 176.5 177.7 179.2 179.8 179.5 178.6 177.2 175.1 172.8 170.2 168.7 168.8 169.3 169.8 170.5 170.7 171.3 171.3 171.3 171 170.7 170.2 170 169.7 169.2 168.4 167.7 166.7 164.5 162.6 160.4 157.5 154.6 151.8 151.3 151.3 151.3 151.3 151.3 151.3 151.3 151.3 153.4 155.9 156.5 155.1 153.4 152.4 151.8 151.6 151.7 151.4 151.8 150.7 149.6 148.5 147.3 146.7 146 144.9 143.6 142.3 141 140.2 138.3 139.5 140.1 140.1 139.6 139.6 140.4 141.5 141.1 138.3 140.6 141.8 142.5 142.6 142.4 140.4 137.8 136.3 136.4 134.1 129.1 118.4 118.4 118.4 118.4 123.3 125.5 125.9 125.9 126.5 127.9 128.2 127.9 125.1 121.9 118.7 116.3 118.2 118.2 109.3 107.6 106.7 105.2 104.2 103.6 103.2 102.7 102.3 101.2 101.8 103.2 103.9 103.2 102.5 102.4 102.1 101.8 102.1 102.4 103.4 104.6 104.9 104.4 102.7 107.1 109.1 111.3 111.8 112.9 117.1 119 121.8 124.8 127.2 128.4 128.6 129.5 129.4 129.4 129 128.9 128.8 128.6 128.4 128 128 129 129.4
210.1 215.3 216.6 215.1 212.1 208.6 204.3 201.4 199 197.5 195.6 193.6 192 189.2 186.8 185.4 185.4 186.1 187.7 188.1 187.9 185.6 182.7 180.2 180.4 183.9 187.7 192.2 195.4 196.5 195 192.4 189.6 186.4 182.7 179.1 177.2 179.3 181.5 182.5 182.9 181.8 180.3 178.7 177.7 176.9 177 177.4 178.3 179.2 179.9 180.4 180 179.4 177.3 175.1 172.4 170.5 170.2 170.9 171.6 172.1 172.4 172.2 172 172 172 171.7 171.4 171.1 170.7 170.3 169.9 168.8 167.9 166.3 163.7 161.5 159.3 155.9 152.5 151.3 151.3 151.3 151.3 151.3 151.3 151.3 151.3 154.2 157.3 158.8 158.5 157 155.5 154.8 154.3 153.9 153.6 153 152.2 150.9 149.7 148.6 148.3 147.8 147.5 146 144.3 142.3 141.1 140.1 139.3 139.5 140.3 140.5 139.7 139.7 142.1 143.3 143.2 141.7 139.1 142.5 139.4 140.1 141.3 139.1 137 134.9 133.4 132.7 132.1 127.1 119.3 118.4 118.4 121.2 124.2 124.8 125.1 117.6 117.6 124.9 125 122 119.5 116.5 113.4 112 110.8 118.2 118.2 105.8 104.9 103.9 103.3 102.9 102.5 101.8 96 102.1 102.8 103.6 104.7 103.6 103.2 102.7 102.7 102.8 103.3 104.2 104.8 104.4 105.1 108.5 110.5 111.6 113 113.7 113 117.9 119.8 123.2 126.1 127.7 128.7 130 131 131.3 131.2 131 131.3 131.1 130.5 130.1 129.8 129.5 130.1 130.1
207.3 211.7 213.6 213.7 212 209.2 205.5 202.1 198.7 196 193.8 191.8 189.8 188.1 186.9 187.2 187.8 189.7 191.7 192.6 190.7 188.2 184.3 181.4 181.9 185.6 190.1 194.3 196.9 197.1 196.2 193.3 190.2 186.6 182.6 179.5 178.9 180.7 182.3 183.3 183.1 181.8 180.4 179.3 178.8 178.9 179 179.4 179.9 180.3 180.7 180.8 180.9 180.5 178.5 175.9 173 171.7 172.3 173 173.7 174 173.2 172.6 172.4 172.4 172.3 172.1 171.7 171.2 170.6 170.5 170 168.6 166.9 165.3 163.6 160.8 158 153.6 151.3 151.3 151.3 151.3 151.3 151.3 151.3 151.3 153.4 155.7 158.7 159.8 159.5 158.8 157.3 156.5 155.5 154.9 154.2 153.2 152.1 151 150 149.2 149.1 148.8 148.1 146 144 142 140.3 139.4 138.8 138.3 139.9 139.6 138.3 141.4 143.8 144.1 144.4 143.1 141.9 139.8 138.3 138.3 139 136.9 134.1 132 129.8 128.4 127.9 125.7 126.6 126.1 123.9 123.6 124 124 123.7 123.2 124.5 123.6 122 119.6 117.1 114.1 111.9 110.5 109.3 108.4 106.6 106.2 104.9 103.6 103.1 102.6 102.3 101.5 101.8 102.1 102.6 103.4 104.4 104.9 103.7 103.5 103.4 103.7 104.7 105.1 104.6 104.5 108.6 111.2 112.5 113.8 114.8 115.9 118.2 118.8 120.8 123.5 126.3 128 128.7 130.9 132.1 132.2 132.3 132.4 132.9 132.7 132 131.7 131.5 131.1 130.9 130.8
204.1 208.1 210.6 211.5 211.3 209.6 206.3 202.6 198.8 195.9 193.1 191.1 189.1 188.6 188.4 189.4 190.1 192.5 195.5 195 193 189.7 185.6 182.6 183.4 187.3 192.2 197 199 199.3 197.4 194.6 191.3 187.6 183.4 180.4 180.6 182.5 183.5 184.2 183.4 182.4 181.2 180.2 180.5 180.7 180.7 181.1 181.4 181.6 181.9 182.4 182.8 181.5 179.9 177.1 174.3 174 174.5 175.3 175.4 174.9 174.1 173.3 172.5 172.3 172.1 172.1 171.9 171.2 170.4 170.1 169.3 167.5 165.3 164 162.5 160.1 155.5 151.3 151.3 151.3 151.3 151.6 151.6 151.3 151.3 151.3 152.7 157 159.8 160.8 160.1 159.1 157.9 157.1 156.3 155.5 154.3 153.1 152 151.3 151 150.3 150.3 149.5 147.6 145.7 143.7 141.7 139.9 139.5 139.8 139.7 138.3 138.3 141.7 143.9 144.5 144.8 144.7 143.6 141.8 140.6 139.8 139.1 137.8 134.9 131.1 129.7 127.9 126.5 126.5 126.9 128.5 126.2 124.3 124 122.5 121.2 120.4 121 121.9 120.4 118.8 117 114.7 112.3 110.4 109 107.9 107 105.7 105.1 104.4 103.4 102.8 102.6 102.3 101.4 101.6 102.5 102.8 103.4 104.1 104.8 105.1 103.2 103.3 104.3 106 104.1 106.3 108.8 111.4 113.2 114.7 116.2 117.1 117.6 119.7 120.8 122.4 124.4 126.5 128.5 129.8 131.9 132.5 132.5 132.6 132.5 133 133.6 133.1 132.8 132.5 131.7 131.7 130.8
200.5 204.6 208.4 210.3 210.4 209.1 206.3 202.6 198.9 195.6 192.7 191.1 190.3 190 190.4 191.6 192.6 195.3 198.8 197.1 195 191.1 186.9 183.9 184.5 188.7 193.8 198.8 201 200.6 198.4 195.5 192.3 188.4 184.5 181.6 182.4 184.1 184.9 185.2 184.4 183.5 182.4 181.6 182 182.3 182.3 182.7 183 183.3 183.6 184.1 184.5 182.4 180.8 179 177 176.5 177 177.1 176.2 175.5 174.8 173.6 172.3 172 171.9 172 171.7 170.7 169.5 167.9 166.4 165.3 163.6 161.7 160.1 158 153.2 151.3 151.3 152.3 156.1 158.1 158 154.4 151.6 151.3 154.1 158 163 162.6 160 159.4 158.5 157.7 156.8 156 154.6 153.5 152.5 151.9 151.7 151.3 150.4 148.9 146.8 145 143.3 141.7 141 140.8 141 140.9 141 141.7 143.8 145.2 144.9 144.7 144.5 143.4 141.4 140.3 139.9 139.4 138.2 134.1 130.7 129.9 129.1 129 129.5 128.6 128.5 126.9 123 121.1 119.6 118.3 117 118 118.9 117.2 115.5 114 113 111.3 109 107.7 106.5 105.6 104.7 104 103.5 103 103 102.9 102.4 102.5 102.7 102.8 103.3 104 104.7 105.4 105.1 102.7 103.5 103.6 102.7 107.7 108.6 111.3 113.4 115.1 116.7 118 118.6 113.9 122.2 123.9 125.2 126.9 128.4 129.9 131.9 132.9 133.1 132.7 132.7 132.6 132.6 133.4 132.9 132.6 132.5 132.3 131.5 130.6
198.9 202.8 208 209.7 210.5 209.1 206.2 202.7 199.3 195.7 193 191.8 192 192.5 192.9 194.2 195.8 198.7 201.5 200.1 196.5 192.5 188.2 185.5 185.9 189.8 194.9 200.2 202.6 201.3 199.1 196.2 193.2 189.7 185.3 182.6 183.6 185.1 186.2 186.3 185.5 184.6 183.6 182.9 183.2 183.5 183.8 184.2 184.6 185 185.3 185.5 185.3 184.6 182.1 180.6 180.2 179 179 178.3 177.3 176.3 174.8 173.5 172.3 171.6 171.4 171.2 170.6 169.7 167.9 165.6 163.6 162.1 161.3 159.9 158.2 155.6 151.3 151.3 153.4 158.3 160.4 160.3 159.3 157.4 157.2 157 157.2 158.1 158.7 163 163 159.6 159 158.1 157.5 156.5 155 154.2 153.4 152.7 152.2 151.5 149.8 148.4 146.2 144.6 143.6 143.2 143.1 142.8 142.9 143.3 143.8 144.4 145.6 145.9 145.9 145.7 145.2 143.7 141.7 140.1 139.3 138.6 135.8 137.8 132.9 131.8 132.8 133.5 132.6 130.3 128.1 127.5 122.9 119.7 118.4 117.2 117.4 118.3 116.1 114.5 113.7 112.3 112 110.1 107.9 107 105.9 104.8 104.2 103.9 103.4 103 102.9 103.2 103.1 103.1 103.4 103.2 103.9 104.6 105.3 106 105.4 105.4 103.9 102.7 106.7 108.1 109.9 113.1 115.6 116.9 118 119.2 119.5 122.1 123.2 124 126 128.8 130.4 131.6 133 133.4 133.4 132.9 132.9 132.8 132.7 132.8 132.7 132.7 132.6 132.3 131.6 130.8
198.3 202.9 207.6 209.2 209.3 207.6 205.2 201.9 198.4 195.2 193.7 192.7 193.3 194.7 195.7 196.8 199.1 202.3 204 201.7 197.4 193.5 189.6 187.1 187.4 190.5 195.6 201 203.3 201.8 199.7 196.9 194 190.7 187.1 184.1 184.9 186.7 187.4 187 186.5 185.6 184.5 183.8 184.3 184.7 184.7 184.8 185.3 185.8 186.1 186.1 185.8 185.2 184.1 182.8 181.6 181 180.4 179.3 178.2 176.8 175 173.3 172 170.6 170.3 170.1 169.5 168.5 166.6 163.8 161.5 160.3 160.4 159.9 159 158.1 155.6 155.8 157.3 159.4 160.7 160.9 160 159 158.4 158.2 158.8 158.6 158.7 159.5 159.8 159.5 159.3 158.7 158.1 157.2 155.9 155.4 154.9 153.8 152.7 151.7 149.8 147.8 146.1 145.2 145 145.4 145.8 145.8 145.9 146 146.6 147.2 147.5 147.4 147.2 146.6 145.5 144.1 142.2 140.6 138.7 137.2 136.1 137.7 137.8 137.7 138.3 137.8 136.4 134.6 131.5 126.1 124.2 119.9 118 117 116.7 115.8 114 113.1 112.5 110.9 109 107.8 107.4 106.9 106 104.7 103.9 103.6 103.2 102.9 103 103.8 102.9 102.6 103.7 104.6 104.9 105.5 106.1 106.7 106.2 106.2 102.7 105.4 106.3 107.5 110 113.7 116.3 117.5 119.1 119.5 119.8 123.1 123.3 123.3 127.1 132.2 132.3 133.1 133.5 133.4 133.3 133.1 133 133 132.7 132.5 132.3 132.1 132 131.8 131.4 130.8
198.6 204 207.5 208 207.9 206.4 203.6 200.6 197.2 195.1 195 194.4 195.1 196.9 197.7 199.6 202.2 204.9 205.1 202.7 199.1 195.3 191.4 188.5 187.6 190.5 195.5 201.2 203.4 201.7 199.7 197.4 194.8 191.5 188.1 186.2 186.6 188.1 188.3 187.6 187 186.2 185.2 184.2 184.8 184.9 185.1 185.2 185.8 186.2 186.3 186.9 186.6 186.2 185.2 184.4 183.4 182.5 181.5 180.3 179 177.2 175.4 173.7 171.9 170.2 169.4 168.4 168 167.2 164.9 162.6 162.3 162.4 162 161.4 160.6 159.8 159.3 159.4 159.5 160.4 161.7 162.6 162.1 161.4 160.8 160.3 159.8 159.5 159.2 159.7 159.7 159.7 159.6 159.1 158.3 157.7 157.1 156.8 155.8 154.6 153.5 152.2 150.3 148.4 146.6 146.2 147 147.5 148.1 148.1 148.3 148.5 148.8 148.8 149.1 149 148 146.9 145.8 144.5 143 141.4 139.5 137.4 138.1 139.4 138.9 139.7 140.1 139.5 138.6 137.5 133 126.6 123 121.6 118.1 117.4 116.2 114.4 113.2 112.3 111.5 110 108.3 107.5 107.2 106.9 106.3 105 103.7 103.3 102.9 102.6 103.4 99.9 104.1 103.8 104.9 105.8 106.4 106.7 107.2 107.5 107.3 107.1 106.9 105.8 106.5 107.4 109.2 112.4 115.3 117.4 119.1 120 115.1 126.1 126.7 124.5 130.9 133.4 133.5 133.7 133.5 133.4 133.3 132.9 132.6 132.3 132 131.7 131.5 131.3 131.2 131.1 130.9 130.5
198.9 202.7 206.1 207.1 206.5 205.2 202.6 199.4 196.7 195.7 196 196.5 197.1 198.1 199.4 201.9 205 207.4 208.2 205 201.5 197.2 193.2 190 188.8 190.5 195.3 200.6 203.1 202.6 200.2 197.8 195.1 192.3 189.3 188.3 188.8 189.2 189.1 188.3 187.6 186.8 185.8 184.9 184.7 184.9 185 184.9 185.6 186.2 186.8 187.4 187.5 187.3 186.5 185.8 184.8 183.7 182.6 181.2 179.6 178 176.3 174.9 173.1 171.2 169.6 168.2 167 166.3 165.4 165.1 165.8 166.3 165.6 164.1 162.9 161.8 161.3 161.2 161.5 162 163.1 164.3 164.1 163.6 162.9 162.2 161.5 161.2 160.8 160.4 160.3 160.1 160 159.5 158.8 158.2 158 157.6 156.6 155.4 154.1 152.6 150.9 148.8 147.9 148.1 149.2 149.9 150.3 150.5 150.7 150.6 150 150.1 150.2 149.4 148.3 147.2 146.1 144.9 143.4 141.7 138.6 137.6 138.3 140.3 141.8 141.7 141 140.4 139.6 136.7 132.3 127 123 120.8 118.3 117.8 116.1 114.5 112.7 111.9 111.5 109.4 107.7 107.4 107.3 107.1 106.6 105.3 103.9 103.1 102.5 97.8 103.7 102.8 103.3 104.1 105.6 107.1 107.9 108.2 109.6 108.9 108.6 108.3 107.6 107.5 107.5 107.5 108.2 111.2 113.8 117.3 119.1 120.5 121.7 126.5 129.3 131.2 132.8 133.7 134 133.7 133.4 133.2 133.1 132.7 132.1 131.6 131.3 131 130.8 130.5 130.4 130.3 130.1 129.9
198.3 201 204.7 206.2 205.1 203.3 200.9 198.4 196.5 196.3 197.7 198.3 198.6 199.6 201.1 204.9 208.2 210.7 210.5 207.2 203.1 198.6 195.1 192 189.8 190.6 194.7 199.9 203 202.8 201 198.3 195.6 192.9 191 190.7 190.7 190.6 189.8 189.1 188.2 187.1 185.9 185.1 184.5 184.3 184.3 184.1 184.5 185.2 186.2 186.9 187.4 187.4 187 186.4 185.8 184.9 183.6 182.1 180.5 178.8 177.4 176 174.2 172.5 170.4 168.3 166.8 166.8 167.5 168.3 168.9 169.2 168.5 166.9 165.3 163.8 163.3 163 163.2 163.6 164.8 165.5 165.5 165.1 164.7 163.8 162.9 162.2 161.5 160.9 160.8 160.6 160.4 159.9 159.4 158.8 158.3 157.7 157.1 155.7 154.2 152.6 151 149.9 150 150.7 151.8 152.5 152.4 152.2 152.4 152 151.1 150.8 150.7 149.7 148.5 147.4 146.2 144.9 143.4 141.7 128.6 139.2 140.7 142.4 142.8 142.6 141.9 141.1 138.1 134.5 130.4 127.2 124 121.6 118.4 117.8 116.2 114.5 113.1 112.5 111.4 108.9 107.7 107.4 107.3 107.1 106.7 105.2 104.2 103.6 102.1 104 103.8 103.6 103.9 105.2 106.5 107.9 109.5 111.3 119.4 111.4 110.1 109.7 108.5 108 107.4 107.5 107.6 110 113.5 117.2 119.2 122.5 124.4 126.4 129.3 131.7 132.6 133.4 133.7 133.5 133.2 133 132.9 132.5 131.9 131.4 130.8 130.3 130 129.7 129.6 129.4 129.3 129.1
198 200.9 205 206.5 205.4 202.7 199.9 197.8 196.8 198 199.7 201.2 201.1 202 203.9 207.8 211.1 213.5 213 209.6 205 200.1 197.2 194.4 191.2 191.2 194.9 199.6 203.3 203.4 201.8 199.6 197.2 194.8 193.5 192.6 192.4 191.4 190.5 189.7 188.7 187.4 186.2 185 184.5 184 183.4 183.1 183 183.7 184.8 186 186.6 187.1 186.6 186 185.6 184.8 184 182.8 181.3 179.8 178.5 177.1 175.4 173.5 171.3 169.2 168.3 168.6 169.5 170.5 171.1 170.9 170.3 169 167.4 166.1 165.3 164.9 164.9 165.1 165.7 165.8 165.8 165.7 165.5 164.7 163.8 162.9 162.3 161.7 161.4 161.1 160.9 160.2 159.5 159.3 158.6 157.9 157.1 155.8 154.3 152.7 151.7 151.9 152.7 153.4 154.5 153.9 153.8 154.4 153.5 153.2 152.5 151.5 150.9 149.6 148.6 147.5 146.4 145.2 144.7 132.6 138.3 141.2 143.3 143 142.8 142.7 141.8 139.7 136.4 133 130.6 128.7 126 121.8 118.8 117.7 116.1 114.7 113.7 113.5 111.6 109 107.6 107.4 107.3 107.2 106.4 104.8 103.6 103.1 103.6 104.1 104 104.6 105.4 106.6 107.9 109.4 110.5 111.8 111.8 120.2 112.4 112.3 110.8 108.1 108.6 108.5 108.5 109.8 113.3 116.6 119.2 123.5 124.1 126.7 129.8 131.5 132.4 133.1 133.3 133.1 132.9 132.7 132.7 132.3 131.6 130.9 130.2 129.5 128.9 128.6 128.6 128.5 128.3 128.1
198.6 201.7 205.2 206.8 206.1 203.7 200.7 198.3 198 200 202.1 203.2 203.6 204.8 206.8 209.9 212.9 215.8 215.9 214.7 208.8 203.4 200 196.8 193.4 192.6 196.2 200.7 203.7 204.2 203.4 201.5 199.3 197.2 195.7 194.5 193.2 192.1 191.1 190.3 189 187.7 186.4 185.4 184.8 184.3 183.3 182 181.4 181.9 182.6 183.7 184.8 185.4 185.6 185.4 185.2 184.7 184.2 183.1 182 180.9 179.7 178.3 176.4 174.6 172.8 171.1 170.3 170.5 171.2 171.9 172.5 172.3 171.5 170.7 169.6 168.4 167.4 167 166.9 166.9 166.8 167 166.9 166.4 165.9 165.1 164.3 163.5 162.7 162.1 161.7 161.4 160.8 160.1 159.6 159.4 158.8 158 157 155.8 154.4 153.9 153.7 154.4 155.2 155.8 156.6 155.3 155.2 155.4 154 155.8 153.3 151.6 150.9 149.5 148.3 147.3 146.4 145.8 145 138.3 140.5 143.4 144 143.6 143.2 142.7 141 138.7 135.7 134.4 132.5 130.5 127.1 122.7 118.7 117.5 115.8 114.3 113.4 112.4 110.3 108.7 107.7 107.5 107.4 107.3 106.1 104.5 103.3 102.2 103.8 104.1 104.9 105.7 107 108.6 110 111.3 112.1 112.5 113.2 116.8 118.4 114.8 112.3 109.5 108.7 109.2 109.2 110 113.3 115.8 118.9 123.5 124.7 127.8 130.1 131.3 132.2 132.8 133 132.9 132.7 132.5 132.3 131.6 130.8 130.1 129.3 128.7 128 127.6 127.6 127.4 127 127.2
199.7 201.7 205.2 207.1 207.1 204.9 202.1 199.6 199.3 202.1 204.1 204.9 205.9 206.9 209.1 211.6 214.6 217.2 217.8 217.2 211.4 205.5 201.7 197.8 194.3 194 198.3 202.4 204.3 205.4 205.1 203.5 201.5 199.6 197.4 195.4 193.9 192.8 191.8 190.5 189.1 187.8 186.8 185.8 185.1 184.5 183.4 182.4 181.1 180.1 180.3 181.2 182.6 183.5 184.1 183.8 183.6 183.3 184.4 184.2 183.3 182.7 181.4 179.3 177.2 175.7 174.4 172.8 172.3 172.7 173 173.2 173.3 173.1 172.5 171.7 170.7 169.9 168.9 168.4 168 167.8 167.9 167.6 167.1 166.5 166.1 165.3 164.4 163.6 162.8 162.4 161.9 161.3 160.6 159.9 159.6 159.3 158.7 157.9 156.8 156 155.3 154.9 155.4 156 156.5 157.1 157.7 156.9 156.2 153.7 153 151.7 151.8 151.8 150.8 149.3 148.1 147.3 146.5 145.9 137.8 140.8 142.6 143.7 143.5 143.1 142.7 142.1 141.2 139.5 137.9 136.4 133.6 129.6 126 122.4 118.1 117 115.4 113.8 112.8 111.4 109.5 108.2 107.6 107.4 107.2 107.1 105.7 104.2 103 103.9 103.9 104.4 105.6 106.7 108.2 110 111.9 113.6 114.7 115 114.8 115.1 120.7 117.9 113.4 110.8 110.6 110.2 110.5 110 112.9 116.4 119.8 124.3 125.1 127.8 130.2 131.3 131.9 132.6 132.6 132.5 132.3 132.1 132.1 131.6 130.8 130 129.1 127.9 127.3 126.4 126 125.9 125.9 126.3
199.8 201.9 204.4 206.9 207.6 205.9 203.4 200.9 200.6 203.1 205.7 207.2 208.3 208.9 211.3 213.7 216.5 219.7 220.8 217.3 211.9 207 202.5 198.8 195.8 195.4 199 202.8 205.7 206.4 207 205.6 203.4 200.8 198.1 195.9 194.4 192.9 191.6 190.4 189.2 188.1 187.1 186 185.2 184.4 183.8 183 181.4 178.8 177.6 178.9 181 182.7 182.7 182.2 181.8 181.7 183.8 185 184.9 184.4 182.9 180.5 177.7 176.5 175.3 174.3 174 173.7 173.5 173.5 173.7 173.6 173.2 172.2 171.1 170.5 169.8 169.2 168.7 168.6 168.1 167.4 166.9 166.5 165.9 165.1 164.3 163.4 162.7 162.1 161.6 161.1 160.5 159.9 159.5 159.2 158.5 157.7 157.2 156.9 156.8 156.6 156.7 156.8 157.3 157.5 156.8 156.3 152.8 156.5 153 154.5 152.7 151.1 149.7 148.6 147.6 146.6 145.5 144.6 138.8 142 143 143 142.9 142.5 142 141.5 140.9 140.3 138.9 136.9 132.9 128.8 125.2 121.8 118.1 116.7 115.1 113.4 111.9 110.3 108.8 107.6 106.5 106.5 106.4 106.3 105.1 103.9 102.5 104 104.1 105 106.2 107.4 109.2 111.6 113.5 115.4 117.2 117.7 117 116.6 116.5 115.5 114.5 111.3 110.5 112 111.5 110.9 111.9 116.9 119.1 123.2 124.6 127.1 129.7 131.1 131.7 132.3 132.2 132 131.8 131.8 131.9 131.6 130.7 129.9 129 127.7 126.5 125.4 124.5 124.6 124.9 125.3
199.3 201.8 204.1 206.4 207.9 206.6 204.9 202.7 201.9 204.2 206.7 208.8 210.6 211.3 213.3 216.6 219.4 222.5 223.2 219.3 213.8 208.9 204.8 201 198.1 197.2 198.9 202.9 206.7 208.1 208.6 206.8 204.2 201.6 198.8 196.1 194.4 192.5 190.7 189.4 188.3 187.6 186.8 185.8 184.7 184 183.2 182.3 180.8 178.9 176.7 176.8 178.4 179.8 180.7 180.3 179 178.3 181 183.7 184.4 184.1 181.8 179.5 178 177.3 176.2 175.2 174.7 174.4 174.1 173.5 173.1 173 172.6 171.8 170.7 170.1 169.7 169.4 169.1 168.6 167.9 167.3 166.8 166 165.4 164.7 163.9 163.1 162.3 161.8 161.2 160.7 160.2 159.9 159.7 159.4 158.7 158.2 158 157.7 157.6 157.5 157.4 157.4 157.2 157 156.8 156.1 155.5 155.1 154.3 153.5 151.3 150.3 148.8 147.1 146.1 145.2 143.6 138.7 140.1 141.1 141.2 140.9 141 140.7 140.4 140 139.8 139.9 138.6 136.1 132.4 127.8 123.8 121.4 118.2 116.6 114.6 113 111.6 110 108.3 107.1 106 105.6 105.4 104.9 104.5 103.6 98.5 104.3 104.6 105.5 106.7 108.3 110.5 112.9 115.1 117 118.8 120.2 119.6 118.9 117.5 116.2 119.8 112.3 110 112.8 111.3 110.6 111.1 115.3 119.7 121.4 123.4 125.9 128.4 130.6 131.6 132.1 132.1 131.9 131.4 131.4 131.5 131.4 130.6 129.8 128.9 127.7 126.4 125.4 124.7 123.8 123.8 124.1
199.4 201.7 204.3 206.7 208.2 207.3 205.8 204.2 203.1 205.1 207.8 210.1 212.4 214.2 216 219.4 222.6 225.6 225.6 221.7 216.1 211.9 208.6 204.7 200.8 199.2 199.3 202.7 207.3 208.7 209.1 207.8 205 202.3 199.4 196.6 193.7 191.5 189.8 188.2 187.3 186.1 185.3 184.3 183.3 182.3 181.3 180.1 178.6 177.2 175.2 174.5 175.7 176.7 178 178.2 176.2 175.1 176.8 178 178.5 179.2 177.9 177.7 177.6 177.4 176.6 175.9 175.1 174.2 173.7 173.1 172.6 172.3 172 171.2 170.4 170 169.7 168.9 168.2 167.9 167.5 167.1 166.3 165.5 164.7 164.2 163.6 162.7 161.9 161.4 160.9 160.7 160.5 160.3 160 159.7 159.2 159 158.8 158.6 158.4 158.1 157.8 157.4 157.1 156.8 156.6 156.1 155.4 154.8 153.4 152.1 150.8 149.5 148.3 146.7 145.3 143.7 132.6 138.3 139.7 139.4 138.7 138.2 138.1 138.5 138.1 138.1 138.1 137.4 136.2 133.7 130 126.4 123.1 120.4 118.2 116.3 114.2 112.6 111.2 109.7 107.9 106.6 105.5 105.3 105 104.6 104.3 103.5 104.2 104.6 105 106 107.7 109.6 111.9 114.2 116.4 118.5 120.4 121.5 122.5 122.4 119.7 118.1 116.4 118.8 113.3 112.1 110.9 110.6 111.1 120.4 117.2 119.7 122.2 124.6 127.1 129.9 131.1 131.9 131.9 131.6 130.9 130.9 130.8 130.7 130.5 129.7 128.9 127.7 126.5 125.5 124.6 123.7 122.9 122.9
200.8 202.7 205.5 208 209 208.3 206.8 205.3 204.6 206 208.7 211.6 214.4 216.9 219.3 222.3 225.4 228 227.9 224.4 220.3 216 212.1 208 203.8 201.3 201 204 207.7 208.8 209.9 208.7 206 203.2 200 197 194.1 191 188.4 186.4 184.9 184.4 183.5 182.2 180.8 179.2 178.7 177.5 175.6 173.7 172.8 173.2 174.7 175.4 176 176.3 174.7 172.7 173 173.7 174.2 175 175.2 175.3 176.8 177.4 176.9 176 175 174.1 173.3 172.7 172.1 171.7 171.3 170.9 170.4 170.1 169.5 168.4 167.4 167 166.9 166.6 165.8 165 164.2 163.4 162.8 162.2 161.4 161.3 161.2 161 160.8 160.6 160.3 159.9 159.9 159.7 159.5 158.9 158.3 158.1 157.7 157.4 157 156.7 156.4 156.1 155.3 153.9 152.5 151 149.9 149 147.8 146.1 144.2 143 138.3 141.9 139.5 137.3 136.5 135.9 135.6 135.8 136 135.9 136 135.6 134.4 131.9 129.4 126 122.5 119.4 118 116 113.8 112.2 110.7 109.2 107.4 106.2 105.7 105.3 105 104.6 104.2 103.7 104.3 104.7 105.4 107.1 108.8 110.8 113.4 115.6 117.8 119.9 122.2 123.5 124.6 124.4 121.8 119.8 118.2 115.4 112 112.3 111.2 111.7 115 112.4 115.2 118 121 123.8 126.4 129.1 130.3 131.2 131.2 130.8 130.3 130.2 130.2 130.1 129.9 129.7 128.9 127.7 126.6 125.5 124.5 123.6 122.8 122
203.5 205.2 207.3 209.2 210.1 209 207.8 206.6 206.3 207.1 209.2 212.1 214.9 218.3 221.3 224.4 227.8 229.9 230 227.2 223.5 219.4 215 210.7 206.6 204.2 202.9 205.4 208.2 209.2 209.9 209.1 206.5 203.7 200.6 197.6 194.5 191.4 188.9 186.4 184.8 183.3 181.6 180 178.7 177.6 176.5 175.5 173.8 172.6 171.8 172.1 173.7 174.2 174.5 174.8 173.2 170.9 169.7 169.5 170.1 171.3 172.5 173.2 175.1 176.5 176.1 175.7 174.9 174 173.1 172.1 171.3 170.6 170.7 170.3 170.6 170 169 167.8 166.6 165.6 165.3 164.9 164.3 163.6 163 162.2 161.2 160.3 159.6 160.3 160.5 160.4 160.3 160.4 160.3 160.2 160.2 160.1 159.7 159.2 158.6 158 157.7 157.3 157 156.7 156.4 155.7 154.8 153.1 151.5 150 148.6 147.6 146.2 145.1 143.3 141.7 138.3 139.2 138.9 136.8 134.8 133.3 132.2 132.1 132.2 133 133.7 134 133.4 131.9 129.3 125.7 122 118.1 117.7 115.8 112.5 111.6 110.3 108.5 107 106.2 105.8 105.3 104.9 104.5 104.1 103.1 104.3 105 106.1 108.1 110 111.8 114.4 116.9 119 121.5 124.1 125.6 126.7 125.9 123.8 121.8 119.7 114.1 112 117.7 111.5 112.3 118 112.4 113.8 116.8 120.3 123 125.3 127.8 129.5 130.1 130.1 130 129.7 129.5 129.5 129.4 129.2 129 128.9 127.8 126.7 125.7 124.5 123.8 122.8 121.8
206.8 208.4 210.4 211 210.9 209.8 208.6 207.6 207.5 208.1 209.9 212.3 215.4 218.9 222.2 225.3 228.8 231.3 231.5 229.4 226.5 222.5 217.8 214.1 210.3 207.4 205.8 206.5 208.7 209.7 209.7 208.8 206.7 204.1 201.2 198 194.9 191.8 189.4 187 185.2 183.5 181.6 179.9 178.9 177.7 176.5 175.4 174.2 172.8 171.5 171.1 171.9 172 171.7 171.7 171 168.9 166.8 165.9 166.2 167.6 169.3 171.5 172.9 174.1 175.1 175.1 174.4 173.4 172.4 171.4 170.5 169.7 170.1 169.9 170 169.2 168.4 167 165.6 163.8 163.3 162.9 162.5 162 161.4 160.4 159.3 158.4 157.8 158.4 159.3 159.7 159.8 159.9 160 160.2 160.1 159.8 159.3 158.7 158.3 157.9 157.6 157.4 157.1 156.8 156.3 155 154.4 153.3 151.2 149.6 148 146.8 145.5 144.1 142.4 136.1 138.8 139.6 139.7 137.5 135.7 132.7 130.7 129 128.8 130.6 131.3 131.7 132.1 132 129.3 125.7 121.4 117 117.5 116.4 112 111 109.8 108.3 106.7 106.1 105.7 105.3 105 104.6 104.1 104.3 104.9 105.7 106.8 108.9 110.9 112.7 115.2 117.7 120.1 123.2 125.6 127.3 128.6 127.9 125.9 123.8 120 115.8 114.7 116.6 116.9 122.5 115 113.5 113.7 116.7 119.9 122.5 124.7 126.8 128.3 129 129.1 129.1 129.3 128.9 128.7 128.7 128.6 128.4 128.2 127.5 126.8 125.8 124.8 124.3 123.7 122.6
210.7 212.5 213.4 213.4 212.2 210.6 209 207.8 208 209.2 210.9 213.1 216 219.1 222.6 226.1 229.7 233.2 233.5 230.9 228.2 225 221.1 218 214.3 210.8 209.2 209.2 209.5 210.1 209.7 208.9 206.9 204.3 201.4 198.4 195.3 192.2 189.8 187.9 186.1 184.2 182.3 180.9 179.6 178.6 177.5 176.4 175.2 174 172.3 170.9 169.1 167.4 167.5 167.7 167.3 166 164.1 162.5 161.8 163.1 165.1 169.1 170.3 171.3 172.9 173.5 173.6 172.8 171.6 170.7 169.8 168.8 169 169.2 169.1 168.6 167.8 166.6 164.8 162.8 161.1 160.2 159.9 159.5 159 158.5 157.5 156.4 156.1 156.6 157.8 158.8 159.3 159.4 159.4 159.8 159.4 159.2 158.8 158.3 157.9 158 157.2 157.1 156.9 156.6 155.9 154.8 154.3 153.3 151.4 149.4 148.1 147.2 145.6 144.3 144.3 139.1 140.9 141.9 141.7 140.1 136.5 133.5 130.8 127.8 125.8 126.5 127.8 129.1 129.9 130.4 128.4 124.9 120.2 117.2 116.7 116.6 111.6 110.7 109.1 107.6 106.6 106.2 105.8 105.4 105.2 104.8 104.1 105 105.5 106.4 107.3 109.2 111 113 115.4 117.9 121.1 124.6 126.9 128.5 129.4 128.5 127.1 124.8 121.4 117.6 116.2 115.3 116.8 117.1 111.4 113.1 114.2 116.4 119.5 121.8 123.7 125.5 127 127.7 128.1 128.2 129 128.8 127.6 128 127.9 127.7 127.4 126.8 126.2 125.6 125.2 124.8 124.3 123.5
215.7 216.4 216 214.5 212.6 210.6 208.9 207.6 207.7 209.2 212 214.1 216.5 219.3 222.8 226.3 230.3 234.2 235 231.4 229.3 226.7 224.1 221 217.8 214.5 212.5 211.3 210.7 210.3 209.7 208.7 206.5 203.9 201.3 198.4 195.3 192.5 190.2 188.4 186.4 184.7 182.9 181.3 180.1 179.4 178.6 177.5 176.2 174.9 173.6 171.7 169.9 166.9 164.9 163.7 163.3 162.4 162 161.8 159.7 158.5 160.5 167.5 166 167.2 169.8 171.9 172.6 172.1 170.7 169.8 168.8 167.8 167.4 167.6 167.7 167.5 167 166.3 164.7 162.4 160.1 157.9 156.9 156.5 156.2 155.9 155.3 154.5 154.4 155.9 157.1 157.7 158.2 158.5 158.7 158.8 158.8 158.7 158.2 157.8 158.1 157.8 157 156.7 156.5 156.2 155.5 154.6 153.3 152.3 150.9 149 147.9 146.3 144.4 143.5 137.7 140.7 143 143.8 143.4 142.2 139.5 134.6 130 127.2 124.4 123.2 123.6 125.7 127 127.4 125.9 123.1 118.8 117.3 115.1 111.9 111.3 110.3 108.7 107.1 106.7 106.3 105.9 105.5 105.1 101.7 105.3 105.7 106.2 107.1 108 109.4 111.3 113.3 115.5 118.6 122.2 125.8 128.2 129.5 129 127.6 127.1 125.7 121.9 119.1 116.7 116.8 117.4 117.4 117.4 116 113.9 115.5 118.1 120.3 122.3 124.2 125.6 126.5 127.3 127.7 127.7 127 126.7 127.2 127.1 127.1 127.6 127.1 126.5 126.1 126 125.5 124.9 124.1
218.7 218.6 216.9 214.4 212.1 209.8 208 206.9 206.9 208.5 211.4 214.5 217.2 219.9 222.9 226.6 230.1 232.6 232.7 231.1 229.3 227.1 224.6 222.1 219.2 216.4 214.1 211.7 210.3 209.3 208.9 208 205.8 203.3 200.7 198 195 192.6 190.4 188.4 186.3 184.2 182.5 181 179.9 179.1 178.4 177.6 176.9 175.6 174.6 173.3 171.4 169 165.9 163.9 162.5 163 164.6 165.8 163.9 162 161.7 166.5 161.3 160.8 165.9 169.5 171.5 170.8 169.8 168.4 167.4 166.4 165.9 166.4 166.6 166.5 166 165.1 164 162.1 159.8 157.3 155.1 153.9 153.4 153.2 152.3 151.7 153.3 155.2 156.2 156.2 156.7 157.4 157.6 158.1 158.3 158.1 157.7 157.4 157.3 157.4 156.8 156.2 155.9 155.5 154.1 152.4 151.2 150.3 149.5 148.1 146.6 145 142.8 141.7 139.3 141 142.8 143.9 143.6 142.8 140.1 136.3 131.8 126.6 123.9 121.7 121 121.8 123.5 124.4 122.7 120.1 117.1 116.4 115 112.8 111.2 109.8 108.4 107.2 106.9 106.6 106.1 105.7 104.9 104.4 105.7 106.2 106.8 107.8 109.3 110.8 112.5 114.2 117.2 120.3 123.8 127.2 128.9 129.5 129.2 126.9 126.6 125.9 122.5 120 118.4 122.2 116.9 117 117.3 117.5 116.3 115.9 116.3 118.7 120.8 122.8 124.2 125.1 125.6 126.3 125.2 125.2 125.8 126.4 126.6 126.8 127.4 127.4 126.9 126.7 126.5 126.1 125.5 124.9
220.6 219.9 217.3 214.5 211.7 208.9 207 206.1 206.2 207.9 210.8 213.8 216.9 219.6 222.2 225.8 228.1 230.1 231.2 230.5 229.1 227 224.9 222.5 219.8 217.2 214.1 211.2 208.9 208 207.2 206.7 204.9 202.2 199.6 197.2 194.6 192.3 189.8 187.5 185.4 183.4 181.7 179.9 179.1 178.3 177.4 176.8 176.1 175.4 174.3 173 170.8 167.8 165.7 165 165.6 167.4 168.9 169.6 168.4 165.9 165.2 166.3 163.4 157.2 161.9 167.8 169.9 169.8 168.9 167.6 166.1 164.9 164.6 165 165.4 165.5 164.6 163.7 163.1 161.9 159.9 157.9 155.6 153.3 151.6 150 148.9 149.2 152.3 154.7 154.6 154.3 154.3 155.1 156 157 157.6 157.2 156.5 156.2 156.3 156.4 156.3 155.7 155.1 154.6 153.3 151 148.3 147.7 147.2 146.4 145.5 143.8 142.1 138.6 138.2 139.8 141.3 142.5 142.9 141.1 138.7 136 132.3 127.3 123 120.5 119.1 119.5 120.1 120.5 120.4 118.2 115.6 115.4 114.2 112.5 111 109.6 108.3 107.6 107.4 106.7 106 105.2 103.8 105.4 106.2 106.7 107.8 109.3 110.8 112.3 114.2 116.2 119.2 122.2 125.4 127.9 129 129.3 128.9 126.5 127.7 124.9 122.2 119.9 124.7 116.8 116.7 116.6 116.9 117.1 117.5 117.3 116.4 117.3 119.3 121.3 122.7 123.1 123.5 123.9 124 124.3 124.8 125.4 125.7 126.5 127.2 127.8 127.4 127.2 127 126.6 126 125.6
221.6 220.2 217.3 214.4 211.5 208.4 206 205.2 205.2 207.2 209.6 211.7 215 218.7 221.5 223.8 225.8 227.6 228.8 228.8 227.7 225.4 223.8 221.5 219.1 216.6 213.5 210.4 207.7 205.8 205.2 204.8 203.6 201 198.3 196.1 193.8 191.5 189.2 186.8 184.4 182.3 180.4 178.4 177.3 176.5 175.7 174.5 173.8 173 171.3 169.9 168.2 166.3 166.1 167 169.8 171.7 172.9 172.8 171.4 169.1 166.7 166.2 164.2 156.4 158.9 165.2 168.4 168.7 168 166.8 165.4 163.9 164 164.4 164.7 164.3 163.5 162.7 162.5 161.7 159.8 157.8 156.9 155.1 152.2 148.5 146.5 147.3 150.1 151.2 151 150.8 150.6 151.6 153.6 155.1 156.5 155.8 154.9 154.9 155.2 155.3 155.6 155.2 154.5 153.9 152.8 149.8 146.7 144.9 144.3 144.2 144 143.2 141.7 138.7 137 137.7 138.6 139.7 139.6 138.3 135.8 133.2 130.2 126.5 123.2 120 117.9 117 117.3 117.3 117.8 115.9 114.9 114.6 113.7 112.2 111 109.7 108.4 107.9 107.6 106.3 105.5 104.7 104.5 105.6 106.6 108.1 109.6 111 112.4 114.2 116.2 118.7 121.5 124.5 127.3 128.6 128.8 129 128.5 126.5 125.2 123.4 121.6 125.9 117.4 116.8 116 115.7 116.5 115.7 116.9 117.3 117.4 117.6 118.1 118.9 120.9 121.3 122 122.5 123.5 123.8 124 124.7 125.6 126.4 127.2 127.8 127.9 127.7 127.5 127.1 126.6 126.3
222.4 220.4 217.2 214.3 211.1 207.9 205 203.4 204 205.6 207.8 209.5 211.8 216.8 219.3 221.6 223.5 224.7 225.7 225.8 225.3 223.6 222.4 220.1 217.7 215.2 212.2 209.1 206.1 203.9 203.2 203 201.7 199.7 197.2 194.9 192.6 190.3 188 185.7 183.4 181 178.8 176.8 175.5 174.6 173.8 172.6 171.4 170.1 168.8 168.2 167.9 168.3 172.7 174.4 174.7 175.6 175.6 174.8 173.2 170.7 167.7 165.3 161.3 154.6 156.7 163.5 166.8 167.7 167.2 166.2 164.8 163.2 162.9 163.2 163.3 162.8 162.2 161.7 161.4 161.1 159.6 158.8 157.6 156.3 153.4 148.9 145.9 145.3 146 147 147.5 147.5 148 148.8 151.2 154 155.2 154.7 153.4 153.6 153.9 154.2 154.2 154.2 153.7 153.4 152.3 149.3 145.9 142.8 141.7 141.6 141.6 142.2 138.3 135.7 134.3 134.3 135.1 135.6 135.6 135 132.9 130.6 128 124.6 122 119.8 118 117.3 116.6 112.2 115.5 114.3 114.3 114 113 112.3 111 109.8 108.5 107.9 107.6 107.3 105.8 104.7 105.2 106.3 107.4 109.1 111 112.7 114.3 116.3 118.3 121.1 123.9 126.7 129 129.2 128.9 128.8 128.8 127.9 127.5 122.1 127.3 117.1 116.6 116.6 116 115.9 116.2 116 115.7 117 117.2 117.3 117.3 118.3 119.3 119.7 120.2 120.6 121.3 122.4 123.1 124.3 125.5 126.4 127.2 127.8 128.1 128 128 127.6 127.3 127
222.8 220.4 217.1 213.9 210.7 207.5 204.5 202.3 202.4 204.1 205.8 207.5 209.6 212.8 216.3 219 221 222.6 223.2 222.7 222.1 221.5 220.2 218.2 216.1 213.7 210.8 207.7 204.6 202.1 200.8 200.9 199.9 198 195.9 193.6 191.3 189.1 186.8 184.5 182 179.6 177.3 175.1 174 173.2 172.5 171.7 170.9 170.3 169.9 170.3 170.7 171.7 176.1 177.5 177.4 177.2 176.8 175.3 173.2 170.5 167.4 164.3 159.1 153.4 154.2 162 165.5 166.7 166.5 165.4 164.2 162.4 161.8 161.6 161.6 161 160.4 159.9 159.6 159.3 158.6 157.7 156.6 155.9 153.4 149.1 144.8 143 143.3 144.2 145 145.2 145.7 146.7 149.5 152.7 154 153.6 151.9 151.2 152.3 153.3 153.3 152.9 153 153 151.8 148.6 144.9 141.3 139.5 139.3 138.5 138.9 134.7 133.2 131.6 131.3 131.1 131.2 131.4 131.5 130.3 128.3 125.6 122.7 120.5 118.8 118.5 117.5 116.1 115.4 115.5 114.3 114.3 113.7 112.2 111.5 110.6 109.9 108.8 107.8 107.6 107.3 106.7 105.2 105.6 106.8 108.5 110.4 112.3 114.2 116.5 118.5 120.6 123 125.5 127.8 129.5 129.1 128.8 128.7 129 128.4 127.9 120.4 118.3 116.8 116 116.2 116.4 116.4 116.4 116.5 116.5 116.8 116.9 117.1 118.1 118.9 118.3 118.5 118.9 119.3 120.1 121.2 122.6 124 125.2 126.2 127.2 127.8 128.1 128.2 128.2 128.1 127.9 127.5
221.3 219.4 216.1 212.9 209.7 206.5 203.6 201 200.6 201.8 203.6 205.3 207.2 210 213.1 216.2 218.4 220.1 221.3 220.9 219.8 218.6 217.2 215.6 214 212.1 209.3 206.4 203.1 200.6 199.5 198.7 198.2 196.4 194.2 192.2 190 187.8 185.5 183 180.5 178.1 175.9 174.3 173.5 173 172.8 172.8 172.7 172.7 173 173.4 174.2 175 176.8 177.7 177.9 177.5 176.6 174.8 172.3 169.3 165.9 162.2 157.8 152.8 153.5 160.6 164.4 165.3 165.4 164.5 163.3 161.9 160.3 160 159.6 159 158.4 157.8 157.4 157.1 156.6 156 155 153.7 152 148.4 144.7 142.3 141.4 141.9 142 141.9 142.6 143.8 146.5 149.9 151.9 151.8 150.2 149 151.2 152.7 152.2 151.4 151.9 152.5 151.8 148.8 145.2 140.9 138.8 137.7 138.4 135.6 133.1 131.6 130.2 129.1 128.6 128.1 127.9 127.8 126.4 124.7 122.7 121.4 120.1 119.2 118.7 117.7 116.2 115.4 115.5 114.6 114.4 113.4 112.7 103.5 110.3 109.9 108.5 107.7 107.1 106.9 106.1 105.5 105.7 107.8 109.6 111.3 113.5 115.7 118.4 120.7 122.9 125.3 126.9 128.1 129.1 128.4 128.5 128.6 129 128.9 127.6 119.8 118.1 117 116.7 117.2 118.2 118.2 118.2 117.9 117.9 117.6 116.9 116.9 117.5 118.7 118.9 118.8 118.5 119.1 119.3 120.4 121.9 123.5 124.9 125.9 127 127.7 127.9 128.4 128.3 128.1 128.1 127.6
219 217.7 214.9 211.6 208.5 205.4 202.5 199.9 199.1 199.7 201.4 203.1 205.1 207.8 210.3 213.3 215.6 217.4 218.8 218.8 218.1 216.7 215.2 213.6 212.4 210.5 207.8 204.9 202.1 199.6 197.6 196.9 196.2 194.6 192.7 190.9 188.8 186.3 184 181.4 179 176.9 175.7 175 174.4 174.1 174.1 174.4 174.8 175.5 175.8 176.1 176.6 177.1 178 178.4 178 177.3 175.8 173.8 171.4 168.9 164.5 160.2 156.8 152.8 152.6 158 161.7 162.6 162.5 162.7 162.2 161.2 160 158.8 157.6 156.9 156.2 155.6 154.8 154.4 153.9 153.4 152.4 151.3 149.9 147.1 143.8 141.7 140.2 139.9 139.6 139.3 139.9 141 142.7 145.6 148.9 148 146.3 146.6 149.3 151.2 150.4 149.8 151.2 152.1 150.9 148.6 145.5 138.9 139.1 139.3 137.7 135.6 133.2 131.7 130.5 128.7 127.4 126.4 125.7 125 123.6 122.7 122.6 121.6 120.8 120.5 120.2 119.5 118 116.7 115.6 115 113.9 112.4 112.4 110.8 110.6 104 108 107.6 107.3 106.5 105.9 102 105.9 107.4 109.1 111.2 114 116.8 119.3 122.1 124.9 127 128.2 128.8 128.9 128.3 126.5 125.6 129.2 128.2 122 119.4 118.3 117.6 117.6 118.4 119.5 119.9 120.1 119.9 119.4 118.7 117.9 117.3 117 117.3 118.3 118.9 118.9 119.3 119.7 120.5 121.5 123.1 124.4 125.4 126.3 127 127.3 128.4 128.3 128.1 128.3 127.9
215.6 215 212.9 209.9 206.7 203.8 201.2 198.5 197.3 198 199.3 201 203.2 205.5 208 210.6 212.9 214.8 216.1 216.3 215.7 214.4 213.3 212 210.8 209.5 207.1 204.4 201.6 198.9 196.3 195 194.3 193 191.1 189.3 186.9 184.5 182.4 180.1 178.5 177.6 177.1 176.5 175.8 175.5 176 176.4 176.8 177.3 177.5 177.6 177.9 178.4 178.8 178.4 178 176.8 175 173.2 171.1 169.1 165.7 161.3 157.1 153.4 151.6 153.8 157.4 158.9 159.4 159.9 160 159.8 159.5 158.3 157.1 156.1 155.1 154.2 153.3 152.1 151.3 150.6 149.5 148.4 147.2 145.3 142.6 140.6 139 138.5 138 137.4 137.7 138.7 139.9 142.4 143.9 144.2 142.9 144.2 146.8 148.3 147.6 147.7 150.5 151.4 149.3 139.8 141.3 141.5 142.9 141.7 140 138.1 135.7 133.7 131.5 129.1 127.5 126.5 125.4 124.2 123.2 122.7 122.9 122.6 122.8 122.9 122.3 121.5 120.2 118.8 117.5 116.5 114.5 113.3 112.1 110.9 110.3 109.9 108.8 108.2 107.5 106.7 106 105.3 105.4 107 108.8 111 113.6 116.4 119.2 122.1 125 127.2 128.8 129.4 129 127.5 126.2 125.5 129.2 123.2 122.1 119.9 118.6 118 118.4 119.5 120.8 121.7 121.9 121.9 121 120 119.1 118.4 118.8 115.3 117.4 118.2 118.6 118.9 118.9 121 121.6 122.6 123.6 124.7 125.6 126.4 127.1 128.3 128.3 128.2 128.5 128.1
