ncols 200
nrows 89
xllcorner 180000
yllcorner 824100
cellsize 50
83.6 78.2 64.3 57.3 52.9 49.2 48.6 47.2 44.6 42.2 40.3 38.8 40.7 39.5 40.4 39.2 36.9 32.6 30.8 33.1 36.8 42.3 50.1 58 66.1 74.1 80.9 84.4 88.7 89.6 90.7 92.8 94.2 98.2 109.8 126.8 137 145.7 160.8 177.1 197.1 211.2 230.3 237.1 236.7 233.2 231.1 229.4 229.8 231.7 240.6 256.8 270.2 297.7 312.5 312.9 331.2 337.7 337 336.3 326.4 327.4 325 346.9 347.1 343.5 338.2 327.2 324.4 325.9 320.9 313.3 316 308.5 302.7 293 274.6 265.7 249.9 253.8 272.7 281.3 290.4 303.3 299.9 294.1 288.8 273.3 257 238 234.2 231.2 226.6 222 219.8 217.6 214.2 215.2 224.2 232.9 222.8 217.1 213.1 202.4 192.6 176.1 165.7 165.5 145.7 132 163.9 177 174.3 173.9 177.4 185.5 197.5 215.6 230 244.1 260.4 269.4 278.5 296.9 310.6 321.8 337 352 363.6 363 364.8 380.2 384.4 381.6 366.9 352.5 334.4 331.4 337.2 345.2 344.9 339.9 345.2 351.1 351.8 358.6 369 373.5 378 389.1 405.3 413.6 410.7 411.2 399.6 395 377.9 371.5 375.1 372.8 378.8 368.3 367.9 362.2 384.3 388.8 371.2 356.1 356.5 362.9 359.4 348.5 332.3 325.1 321.6 320.1 300.5 287.5 261.4 249.9 232.7 212.6 192.7 167.8 140.9 120.8 103.2 88.8 74.3 71.7 66.8 49.2 27.9 14.6 8.4 6.3 2.2 -1.9 -2 -1.9
80.2 74.2 59.8 49.3 45.5 44.4 43.4 43.3 43.2 40.4 37.5 33.6 34.9 36.5 37.2 35.2 31.4 29 27.2 28.8 31.8 35.9 40.2 50.2 62.1 72.4 82.9 87.4 89.9 94.1 97.2 100.4 106 116.7 128.3 141.1 149 169.5 185.3 191.5 209.1 234.1 243.8 247 244.3 238.4 240.9 247.3 244 239.4 240.3 254.4 268 289.2 296.6 303.5 320.5 319.3 314.1 325.4 318.3 317.1 308.9 313.3 333.4 332.4 329.8 319.1 311.7 303.5 301.7 294.4 286.5 282.9 283.1 277.9 266.6 244.8 238 231.3 250.6 265.8 271.5 288.8 289.8 276.4 273.9 258.8 246.7 234.5 231.5 230.6 225.4 221.9 215.7 214.1 209.9 212.3 224.9 230.5 218.3 213.1 211.2 202.5 187.6 173.8 163.1 160.4 152.5 133 156.6 167.6 170.5 173.2 176.5 186.2 200.9 218.8 229.7 247.4 255.5 268.8 285.9 302.6 312.1 330.2 349 362.4 367 374.6 368.1 371.9 376.2 373.1 352.8 348 330.3 325.7 333.3 340.7 344.8 352 355.1 353.7 350.6 367.6 375.4 371.3 374.4 384.3 399.8 406.5 404.5 402.1 398.2 386 369.2 360.9 363.9 369.4 363.3 358.6 359 363.2 375.2 371 351.4 342.3 335.2 338.3 338.4 329.2 319.2 304.5 300.9 285.7 272.8 255.1 231.4 225.6 211.5 193.8 174.6 147.6 127.6 108.3 93.2 78.4 65.6 58 54.5 40.5 21.4 10 3.2 1.9 -1.9 -1.9 -1.9 -1.9
73 62 55.1 45.3 42 40 40.1 39.4 36.5 34.9 30.2 28.7 28 29.5 30.2 27.8 27.2 27.6 25.2 28.3 29.8 31 39.7 46 55.4 65.9 78 88.4 94.7 101.4 108.8 118.2 126.6 144.8 156 163.1 170.9 187 202.8 219.2 239.4 254 260.7 262.4 267.5 267.3 266.6 272.1 267.1 254.5 243.8 247.9 254.3 266.3 276.7 284.6 305.4 307.4 302.8 307.5 307.4 304.7 298.6 294.5 300.1 318.5 315.7 309 295.7 290.2 286.5 277.9 274.4 269.9 264.6 261.2 252.1 237.6 223.1 209.6 227.3 250 256.7 261.1 264.2 253.1 247.1 246.4 234 230.6 234.8 234.3 230.2 228.6 220.5 214.8 205.9 208.4 217.1 218.6 212.8 208.6 203.3 195.6 182.2 167.4 150.3 145.4 135.4 127.9 157.8 170.7 172.3 172.2 176.3 187.9 206.9 220 240.3 246.8 254.1 270.4 284.3 303.6 316.2 337.3 349.5 373 380.7 377.4 372.8 367 366.4 364.3 344 335.4 330.5 318.1 331 337.5 342.7 357.5 359.3 352.3 347.6 364.1 371.1 365.7 369.4 375.4 386.7 391.2 396.7 393.8 390.3 374.1 354.9 354.1 349.1 348.7 348 348.2 359 364.9 355.6 348.1 335.7 332.1 322 324.6 324.4 310.5 296 282.3 265.5 242.6 229.3 218.8 210 210.5 201.3 171.9 151.1 129.7 114.6 99.1 85.5 69.5 57.2 46.7 36.8 23.6 12.2 4.1 -1.9 -1.9 -1.9 -1.9 -1.9 -1.9
64.1 55.4 50.5 43.4 41.8 40.4 37.7 35.1 32.5 28.4 26.5 25.4 24.3 23.7 25.2 25.5 23.4 22.9 25 26.7 26.1 30.8 40.3 42.9 49.6 62.8 73.5 85.1 95.5 109.5 125.4 134.5 152 163.5 172.5 179.3 180.4 196.5 220.7 245.4 260.1 269.6 277.8 293 317.5 305.6 297.9 293.7 280.9 270.1 262.1 252.3 249.3 255.4 263.5 271.9 296.2 301.8 295.4 288.4 287.2 287.9 285.4 279.3 280.8 292.3 297.2 292.7 288 281.1 268.9 263.1 261.6 251.6 248.9 244.8 233.5 227.8 209.1 202 207.3 222.9 233.3 233.6 244.9 237.1 230 226.2 221.9 230.7 237.5 237.1 236.6 238.3 224.1 211.2 205.5 204.8 208.4 211.5 206 201.9 198.6 189.7 177.7 161.7 144.6 132.1 116.8 146.1 157.3 172.4 177.5 175.8 177.9 194.8 210.3 234.8 247.6 261.3 265.5 269.9 280.6 309.2 323.1 345.2 360.3 377.7 383 379.7 373.4 364.8 352.9 348.9 334.1 330.7 323.1 313.6 328.1 330.3 339.9 354.4 358.4 342.8 340.8 347.8 358.3 359.6 364.3 365.9 373 377.8 380 383.7 373.2 355 339 336.7 335.1 336.5 339.8 342.6 357.4 365.8 354.7 339.8 324.7 317.7 315.1 311.7 304.7 289.6 271.4 258.1 237 217.6 207.5 201.8 195.8 191.3 173.4 152.5 131.6 116.4 107.3 93.9 79.4 62.9 47.8 34.1 21.5 16.5 7.7 -1.9 -1.9 -1.9 -1.9 -1.9 -1.9 -1.9
57.6 50 48.5 43 41.5 40.9 39.3 34.5 30.9 28.9 26.4 23.6 22.1 21.3 22.9 21.7 20.3 21.3 21.9 23.5 27.2 31.1 39 45.7 52.9 61.4 72.3 82 98.2 112.7 128.7 148 168.5 181 193.9 195 193.5 211.7 236.1 257.5 269.6 279.3 285.6 293.7 303.5 311.1 310.7 301.6 287.1 275.9 264.9 256.6 250.3 254.1 258.7 266.6 295.1 294 287.9 280 269 267.7 272.8 267.5 265.8 263.5 273.9 270.3 261.3 267.9 260.5 248.8 240.8 239.1 242.5 228.1 216 210.8 199 191.7 184.2 192.2 197.6 203.1 209.3 213.9 210.3 209.1 215.8 236.4 241.6 241 244.8 237.9 223.2 210.6 205.4 204 205.7 208.1 200.7 196.4 191.6 183.1 173.4 160.5 152.4 132.7 126.8 152.4 157.2 167.8 182.8 182 184.9 192.8 220.4 241.5 256.7 267.9 275.4 282 292.8 323.8 333.9 347.1 375 381.9 384.4 381.4 378.2 371.2 347.3 329.1 320.2 323.4 305.1 296.6 310.5 322.6 329.4 348.5 341.6 337.6 328.8 339.7 345 353.6 353.2 353.7 360.7 370.1 370.3 367.9 351.9 339.8 323.5 320.8 311.7 318.2 331.9 340.4 354 361.6 346.4 326.7 306.4 303.3 299.6 295.7 285.4 267.7 253.3 238 216 203.1 196.7 184.1 178.5 163.3 145.7 132.2 119.7 109.5 102.9 91.8 72.5 54.5 42.3 24.3 15.9 12.6 -1.9 -1.9 -1.9 -1.9 -1.9 -1.9 -1.9 -1.9
56.4 51.8 49.3 45.8 42.4 40.3 36.9 36.1 33.2 28.4 24.7 21.8 20.8 20.3 20.4 19.4 20 21.6 24.2 28.1 32.5 36.8 42.9 52.4 62.2 71.6 79.5 87 91.7 103.7 118.8 133.5 150.8 172.5 192.4 200.7 204.1 225.7 244.1 265 280.9 306 306.3 307.1 303.9 299.2 298.9 296.7 280.1 269.8 259.8 254.7 252.4 251.5 252.2 254.7 280 285.8 280 271 259.9 249.7 246.3 249.4 250 248.2 242.7 245.5 242.5 246.8 246.1 233.8 220.9 221.7 225.7 216 200.6 193 184.3 176.2 160.4 168.2 172 182.4 189.7 192.6 193.8 212 230.8 245.1 259.4 257.3 243.4 231.3 226.5 212.4 206.4 205 204.5 203.8 197.2 192.9 185.9 176.2 169.5 164.3 151.9 134.2 121 152.4 157.1 166.5 178.7 183.2 186.6 199.4 221.6 252.7 267.3 268.4 278.6 295.2 304.4 324.3 339.2 348.4 375.6 377.7 378.8 382.7 386.6 374.1 351.4 315.5 304.3 310.4 294.4 271 293.1 306.2 320.1 327.6 326.8 316.2 325.5 327 333.4 338.3 338 344.2 348 355.7 352.3 344.9 332.7 320.8 307.1 304.5 298.2 302 322.5 338.3 345.3 337.3 319.9 296 272.5 274.5 281.1 273 255.3 245.3 226.3 217.1 195.8 184.7 174.3 163.8 159.8 145.5 129 118.8 108.4 102.5 96.9 84.1 66.6 47.4 33.7 15.6 11.1 4.7 -1.9 -1.9 -1.9 -1.9 -1.9 -1.9 -1.9 -1.9
59.5 55.4 53.2 52.9 47.8 40.8 32.5 31.1 29.3 27.4 24.8 21.5 16.7 17.7 19.3 21.7 19.8 24 26.9 33.9 42.5 48.5 54.6 60.2 68.1 80.1 90.5 97.2 95.3 100.2 108.5 121 134.4 151.8 172.3 188 201.6 232.8 249.5 263.7 289.1 319 321.8 323.5 318.1 305.3 296.5 291 278.5 266.5 259.5 251.6 250.1 250.7 254.8 256.7 269.5 273.1 270.5 259.5 249.6 241.2 231.1 223.8 225.6 224.2 219.1 221.3 220.1 227 221.7 211.3 203.1 203.4 205.2 200.1 189.8 176.7 170.1 156.4 148.5 156.5 163.6 169.7 172.5 178.9 202.1 230.1 253.1 270.1 270.6 260.6 235.1 223.8 220.4 209.7 207.5 210 210.7 206.5 197.6 190.6 178.1 171.2 163.6 164 150.9 135.4 119.6 148.5 161 176.5 183.4 184 192.7 208.7 227.4 258.9 273.4 283.1 286.5 303.4 313.3 320.6 339.6 355.8 361.7 365.2 370.6 378 381 366.5 342.8 312.2 294.7 294.5 281.9 257 277.4 298.1 294.6 305.3 297.9 293.3 313.6 318 318.8 315 326 325.2 320.5 320.3 325.4 330.4 319.7 298.4 288.9 282.9 278.9 285.9 305.7 321.3 321.2 301.2 284.3 265.9 252.6 241.3 255.3 242.6 223.2 211.3 198 185 173.6 163.2 152 141.8 137.8 128.6 117.8 107.8 100.7 96.5 90.4 77.5 56.9 35.1 24.3 11.2 3.9 -1.9 -1.9 -1.9 -1.9 -1.9 -1.9 -1.9 -1.9 -1.9
60.2 54.6 52.4 51.9 50.8 49.2 39.1 29.8 25.9 25 22.2 16.1 15.9 17.1 21.3 22 23.6 25.3 30.2 38.1 47.8 58.8 67.7 76.7 82.1 91.4 97.9 101.3 99.8 106.6 111.1 117.4 127 138.8 154.7 171.4 191.8 218.6 234 250.6 274.4 321.8 340.8 337.2 325.1 313.8 305 301.6 285.8 269.7 264.5 254.8 249.1 250.2 260.7 261.3 271.2 267.8 259.6 248 234.3 223.2 218.5 211.6 205.1 198.1 200.8 198.8 198.8 193.4 192.9 187 187.3 188.5 189.4 183.4 174.3 161.4 152 142.2 138.3 147.3 147.8 157.7 172.1 196.1 227.6 257.1 260.7 255.3 258.9 245.8 226.7 216.2 205.3 199.7 195.8 202.4 212.7 209.7 199.1 190.6 177 161.7 157.2 164.2 149.2 130.4 117.6 147.8 171 189.7 186.3 186.1 203.7 215.5 233.8 253 274.8 291.6 300.2 305.7 315.6 329.2 342.9 358.1 359.8 362 366.1 371.8 368.9 357.9 338.3 321.6 296.6 284.1 275.2 255.3 252.5 275.2 277.1 283.9 275.3 276.6 288.6 290.9 301.9 297 297.9 292.1 294 306 315.9 305.7 283.9 274.7 267.9 267.2 261.9 264.2 280.7 285.7 287.9 276.3 260.2 246.3 232.6 227 217 211 195.1 177.6 165.5 158.2 152.4 144.5 133 122.8 115.3 114.7 103.7 97 90.8 88.1 77.9 64.6 47.6 23.7 10.4 3.2 -1.9 -1.9 -1.9 -1.9 -1.9 -1.9 -1.9 -1.9 -1.9 39.7
59.6 53 48.7 46.8 45.2 43.1 31.5 26.8 22 19.1 15.7 14 16.6 18.5 19.6 21.3 23.4 27.9 36.5 44.9 55.2 65.5 75.7 86.1 97.2 103 103 106.2 103.7 108.8 113 117.6 122.3 133.4 141.7 152.9 177.7 197.2 216.6 236.6 262.4 305.8 322.3 337.9 326.9 321 305.7 300 298.7 288.3 269 258.9 249.4 248.5 260.3 267.2 261.6 257.8 251.6 240.9 225.8 213 201.5 190.9 182.7 174.7 175.7 173.2 170.2 172 176.2 175.1 171.2 173.6 171.4 163.9 158.2 146.6 131.3 125.5 127.9 118.5 140.1 159.2 184.5 224.8 243.6 247.4 244.9 247.4 240.6 227.5 221.7 214.2 196.3 188.9 183 186.6 200.2 207.3 200.9 192.7 173.7 158.8 151.4 158.5 143.5 126.4 119.4 150.6 176.5 188.6 183.9 185.6 204.3 231.6 257.2 275.2 290.3 296.2 308.5 317.5 326.8 332.8 336.6 354.7 355.8 359.7 359.3 366.5 365.5 358.5 339.3 329.3 302.3 276.1 266.2 248.2 231.3 242.1 257.2 269.6 260.4 252.6 264.2 264.4 266.7 270.3 277 266.6 274.5 287.3 287.7 272.1 257.4 248.3 247.5 239 234.4 231.3 249.4 261.7 260.9 253.9 237.8 218.9 210.5 208.9 180.7 178.5 164.2 149.9 139.3 138.6 134.4 124.8 114.6 108.7 100.3 99.2 91.3 86 78.5 75.9 65.1 53.3 38.6 16.6 3.9 -1.9 -1.9 -1.9 -1.9 -1.9 -1.9 -1.9 -1.9 -1.9 34.4 52.3
57.3 52.3 45.9 41.7 34.8 29 22.5 18.2 18.1 17.5 14.7 13.7 15.8 17.8 19.6 20.7 24.5 29.4 39.8 51.3 62.6 72.5 82.1 93.7 105.5 114 115.1 115.7 113 113 112.8 115.6 119.2 126.8 144.6 151 159.8 178.6 199 220.1 245.3 278.6 291.6 308 322.2 310 295.5 290.9 288.6 284.5 274.1 260.5 247.9 247.7 258.4 268.9 267.1 254.4 240.4 222.4 207.4 194.9 187.7 177.1 164.1 159.8 156.9 153.1 154.2 157.5 165.9 166.4 156 152.8 153.4 143.9 135.6 125.5 112.4 112 112.3 114.1 139.2 168.6 217.6 230.9 231.6 224.3 236.9 225.1 218.3 214 212.9 210.5 191.8 179.8 170.2 167.6 176.9 190 198.6 186.5 169 151.2 147.3 147.6 137.3 116.7 131.3 155.5 183.9 184 180.8 184.8 203.9 232.1 257.2 281.1 298.8 312.8 321 321.7 329.7 334.1 334 344.4 349.6 348.6 346.9 355.3 350.3 339.9 330.4 313.9 293.9 274.5 244.4 235.2 209.7 219.6 233.9 239.4 235 237.8 242.5 239.7 238.8 238.7 239.9 243.2 253.5 257.1 265.8 254 238 228.3 236.2 220.4 206.1 206.1 224.2 249.9 254 239.9 213.5 200.1 184.9 180.4 161.4 144.6 136.5 128.7 122 119.4 114.1 102.8 94.7 87.5 79.9 82.7 76.5 70.7 63 59.6 46.7 39 27.5 7.2 -1.9 -1.9 -1.9 -1.9 -1.9 -1.9 -1.9 -1.9 -1.9 27.7 46.2 64.6
53.3 50.9 45.1 39.6 29.1 22.2 18.4 17.2 16.4 15.6 13.8 12.7 14.3 17.3 19.4 22.8 27.7 32.1 41.7 56.2 71.9 81.5 91.7 100.7 110.8 117.9 121.8 124.3 122.1 119 114.7 117.2 120.9 120 133.9 154.8 160.7 166 180.6 201.4 221.4 252.1 265.8 274.5 297.8 293.4 285 282.1 277.7 271.9 261.7 254.3 240.1 244.3 251.5 260.7 259.6 245.3 230.5 212.4 194.5 180.8 167.9 157.4 146.4 144.1 137 130.3 135.5 137.3 142 143.9 140.6 136 129.1 120.5 110.4 99.8 95.6 96.5 100.8 109.7 139 176.7 209.4 220.2 219.4 202.8 200.3 202.3 194.4 195.2 202.8 203.9 184.9 174.5 157.6 153.7 160.9 191.3 189.1 179.5 158.8 144.7 146.8 153.5 132.6 106.9 134.9 156.7 177.7 178.5 175.6 184.1 207.1 235.4 254.6 275.8 299.2 314.9 327.3 332.7 339.2 336.4 329.8 334.6 337.7 331.9 338.7 339.3 331 314.9 306.4 295.8 276.9 259.5 233.9 223 189.3 198.8 221.3 218.5 214.1 216.3 214.5 219.5 217.8 214.6 216.3 214.9 217.9 218.3 226.5 226.8 215.6 201.9 196.2 187.2 183.3 187.7 199.5 226.3 231.6 208.6 189.6 180.2 166.7 152.4 136.5 121.8 113.6 109.8 104.2 96.8 91.1 80.8 74.1 70.4 62.9 62.5 55.1 47.1 39.3 32.9 27.5 25 20.5 -1.9 -1.9 -1.9 -1.9 -1.9 -1.9 -1.9 -1.9 -1.9 12.8 40.3 54.6 68.2
49.9 47.4 43.8 38.2 28 18.9 16.8 15.6 15.8 16 13.1 18.2 17.3 21.3 24.3 26 31.7 37.7 44.2 59.6 74.6 87.9 98.7 106.8 116.3 123.8 126.1 129.5 130.7 128.7 120 119.2 119.8 117.9 123.4 138.5 158.6 160.6 166 181.5 205.2 233.8 251.8 265.6 279.4 281.3 275.4 272.2 267.9 262.9 251.8 241.7 230.4 236.8 248.3 243.3 233.1 231 213.2 196.2 181 164 152.2 135.7 125.3 119.2 115.4 110.9 113.3 117 117.6 117.8 116.6 106.3 99.3 93.6 89.5 84.1 83.3 83.5 86.5 100.5 136.2 175.9 189.9 198.4 198.4 174.4 167.1 174.5 172.6 170.5 182.3 192.7 165.6 161 148.7 142.2 150.3 170.5 171.9 164.2 147.7 137.3 144.4 149.5 125.4 111.6 136.6 154.6 166.5 167.7 169.7 188.4 204.8 238.1 247.8 265 291.1 315.3 320.9 329.4 338.7 338.9 317.6 323.2 322.1 321.1 319.5 325.5 316 294.3 284.9 270.2 257 237.3 219.2 208.2 193.3 180.8 195.2 193.1 195.8 194.2 192.9 192 193.5 188.8 191.1 196 196.1 197.7 193.2 185.6 180.9 173.3 167 161.2 161.7 170.4 173.9 176.4 176.9 171 167.9 163.2 143.9 131 118.7 104.9 96.2 88.3 85.3 77.3 69.9 64.8 60.4 56.8 50.9 42.4 33.9 27.2 24.3 22.1 22.1 13.9 -1.9 -1.9 -1.9 -1.9 -1.9 2.8 4.9 2 1.2 4.3 17 43.3 64.2 80.8
43.7 42.5 38.8 33.4 26.2 20.4 19.4 18.6 18.2 18.6 17.8 9.9 23.5 25.9 29.2 31.7 37.2 45.6 53.7 62.2 74.5 88.6 100.3 108.2 120.3 129.7 129 129.7 130.7 129.5 117 115.3 119.1 115.4 120.9 126.4 144.5 146.5 155.4 172.3 191.8 219.7 236.1 241.9 267.6 268 266 260.8 251.9 246.1 238.4 225.9 216.9 220.6 228.6 219.8 216.5 207.6 200.2 183.1 166.4 151.8 133.9 120.3 111.4 105.1 100.7 98.2 98 95.8 90.8 88 82.4 75.1 77 80.9 79 73.3 66.4 62.7 62.6 84.4 117.7 150.4 163.6 170.2 170.4 153.2 134.7 144.1 147.4 147 159.5 162.2 147.7 148.2 140.2 131.5 141.6 150.4 161.5 152.4 139.3 134.7 136.6 131.8 113.4 111.6 136.9 153.9 163.5 159.8 171.2 190.5 204.1 225.6 248.4 264.1 282.1 295.9 302.8 318.5 311.2 328.8 305 295.1 299.2 305.7 298.5 289.6 283.2 273 260.8 248.6 235 220.3 204.1 177.8 188.9 160.8 164.5 168.5 173.6 175.9 173.5 174.2 171.9 169.9 178.1 181 180.9 182.2 180.2 166.4 154.1 146.8 149.4 138.9 143.1 152.1 155.3 150.5 151.1 144.6 141.4 132.2 117.6 108.1 101.3 93.1 76.5 66.8 62.4 58.2 54.8 52.1 45.6 38.7 30.2 23.5 21.8 16.7 16.4 18.4 13.5 4.2 -1.9 -1.9 -1.9 -1.9 -1.9 4 6.5 4.6 7 16.3 38.7 51.4 64.3 77.3
39.9 37.1 33.1 28.8 27.9 26.4 25 24.3 23 22.3 23.7 8.3 21.9 28.7 32.4 36 42 52.1 63.9 70.2 77.1 86.4 96 105 120.5 127.5 128.6 122 124.1 118.9 109.4 111.2 114.5 111.4 113.5 119.8 131.3 134.9 140.3 155.7 177.5 212.5 231.3 229.7 238.1 247.9 259.3 257.5 254.1 248.9 233.4 214.8 202.7 196.7 207.8 208.7 198.5 189.5 180.8 167.5 155.3 136.9 121.6 112.3 102.2 95.8 90.7 83.1 76.1 69.4 63.1 60.8 55.6 58.3 67.7 74.4 66.3 56.4 43.8 46.1 43.4 74.5 104.1 144.4 145.6 142.3 145.4 129.8 116.9 115.1 124.9 127.4 131.8 137.4 134.7 136.3 127.6 120.3 130.5 134.3 152.7 140 132.9 135.1 129 117.9 101.5 108.3 141.5 154 156.4 158.1 170.4 191.4 203.2 216.8 238.5 255.7 267.5 281.5 286.3 287.5 286.1 297.6 296.5 269.5 269.9 277.6 276.9 265.7 258.3 252.6 238.8 221.1 214.3 205.4 187.5 163.8 173.4 158.7 138.7 140.4 152.4 151.9 151.6 155.9 152.6 153.4 158 162.2 164.7 158.9 154.3 145 130.7 118.9 120.3 113.1 123.5 135.2 141.2 129.9 126 118.6 107.5 100.7 90.7 81.6 80.8 74.8 65 48.4 42.2 42.7 40.2 34.5 26.4 19.5 16.4 8.8 8.3 5.4 5.9 4.4 3.4 -1.9 -1.9 -1.9 -1.9 -1.9 2.5 5.5 7 7.1 25.1 38.9 45.4 46.8 52.6 58.5
36.5 33.4 30.2 23.9 16.7 12.4 15.3 16.3 19.4 25.4 15.4 8.6 21.1 28 34.6 39.9 46.9 57.4 69.5 78.3 85.5 92.5 98.3 105.6 116.3 121 119.1 118.2 117.4 107.2 102.7 101.8 100.5 103.4 108.1 120.9 130.5 131.3 138.1 147.2 162.2 191.2 211.9 220.2 225.3 226.7 251 250.1 239 231.3 219.6 205.8 195.2 181.1 179.5 183.6 178.7 173.2 164.2 153.1 140.3 129.1 115.9 101.1 94.3 90.1 87.8 74.4 56.6 48.8 48.8 49.7 54.9 57.8 56.9 59.7 55.7 44.8 31.5 33.8 33.1 57.5 86.5 123.4 120 126 117.5 111.4 102.8 101.5 104 108.2 107.5 109.6 117.9 119.5 109.3 111 119.8 125.7 137.1 132.9 127.1 129.1 122.2 92.4 93.9 117 137.7 150.1 150.3 154.2 170.8 200.5 228.7 233.3 232.5 243.9 252.8 257.9 258.7 263.7 265.5 259 266 255.9 249.2 252.9 253.8 247.1 235.8 227.5 220.6 205.2 189.8 181.1 172 149.2 139.4 139.4 121.4 124.6 129.6 134.3 134 134.2 137.2 138.5 138.2 134.3 138.4 137.9 134.9 128.4 116.9 103.1 96.9 92.8 102.7 111.9 112.9 108.5 100.2 91.9 82.7 75.3 66 55.5 50.4 48.6 46.8 29.1 24.1 24.2 15.2 11 6.7 2.4 -1.9 -1.9 -1.9 -1.9 -1.9 -1.9 -1.9 -1.9 -1.9 -1.9 -1.9 1.2 3.7 6.5 7.7 9.9 20.8 31.3 35.3 34.7 35.7 40.8
31.2 29.7 22.5 13.4 6.4 6.4 6.9 8.2 9.3 9.5 7.3 8 20.2 28.1 34.8 40.2 51.8 62.3 74.2 83.6 89 98.1 106.1 111.9 114.3 116.6 115.7 114.2 109.5 102.1 93.6 91.8 92.2 100.3 104.3 115.8 127.8 129.4 138.3 144.4 153.9 173.2 206.1 209.1 216.7 218.5 233.1 232.4 229.1 218.9 205.6 198.6 192.2 177.1 158.5 152.8 153 151.6 145.8 136.7 128.4 118.3 105.5 94.2 91.4 92 79.8 59.3 47.3 48.6 49.2 47.3 45.4 43.7 43.2 42.6 37.6 32.1 23.8 26.4 24.3 35.7 60.1 79.6 91.9 96.6 93.7 88.9 88.8 89.1 87.7 101.2 98.5 95.2 98.3 100.9 99.8 107.3 113.6 119.9 122.4 121.7 121.1 120.5 103 87.9 103.6 118.6 134.1 143.3 143.7 154.9 172.4 198.2 239 249.4 256.6 247 237.6 236.3 240 236.3 234.7 233.1 240.8 238 218.6 226.2 221.3 226.7 212.4 203.8 195.7 184 169.1 160.8 144.9 127.6 116.5 110.5 108.8 121.6 125 121.7 116.6 118.2 119.6 122.1 118.3 109 107.5 107.5 106.3 104.8 97.2 85.8 74.5 67.9 75.4 74.9 79.4 74.1 67.9 62.6 59.5 52.3 44.8 33.8 30.3 29.9 24.8 20.8 10.5 5 -1.9 -1.9 -1.9 -1.9 -1.9 -1.9 -1.9 -1.9 -1.9 -1.9 -1.9 -1.9 -1.9 -1.9 -0.3 2.4 4.9 6.6 7.9 8.7 10.1 10.4 12.1 15.4 24.7 32.7
22.5 16.6 8.3 4 2.8 2.7 4.6 4.6 4.9 4.1 5.2 7.8 15.2 25.2 31.7 40.4 53.5 68.1 81.6 89.3 94.9 104.4 110.9 115.1 115.9 114.4 112.2 110.2 100.7 91.1 87.2 84.7 87.1 92.5 98 109.2 115.9 123.6 131.8 141.6 148.2 155.1 172.8 199 205 206.4 208.8 212.8 211 213 202.2 190.6 177.7 160.8 147.9 137.9 127.5 128.6 130 125.7 117.4 101.7 90.8 77.6 78 73.6 61 41 64.9 61 49.9 45.6 39 32.6 29.6 28.2 24.5 21.1 21.1 20.2 20.3 21.4 31.8 43.9 62.3 65.4 59.6 56.9 60.8 70.2 78.8 92.8 88.8 88.4 92.6 93.1 91.5 101 108.9 109.7 113.7 123.1 110 99.3 74 58.4 103.5 117.7 131 134.3 135.4 149.3 170.2 191.9 242.2 251 247.7 234.1 221.7 220.2 219.4 211.2 213 208.9 207.3 212.4 208.2 191.4 195.3 200 185.6 175.8 167 154.9 143.6 132.2 121.6 110.6 100.8 93.8 95 108.4 116.3 113.2 106.2 101.4 98.1 97.1 92 83.3 83.3 79.8 74.8 73.9 73.7 63.1 53.2 42.9 45.8 43.6 40.1 36.5 31.4 31.8 36.4 30.9 26 21.7 20.9 19.1 15.1 7.7 -1.9 -1.9 -1.9 -1.9 -1.9 -1.9 -1.9 -1.9 -1.9 -1.9 -1.9 -1.9 -1.9 -1.9 -1.9 -1.9 -1.9 -1.9 4.4 6 5.8 8.7 10.8 12 11.5 13.5 13.5 15.7
10.9 4.2 3.7 2.7 2.6 2.5 2.3 2.7 3 -1.9 5.4 6.9 10.8 21.8 30.1 40.7 52.2 64.6 80.3 90.7 102.3 110.9 110.4 110 110.2 106.8 103.2 101.2 93.2 86.5 83.1 79 82.7 88.3 89.7 98.9 105.1 109.9 118.8 130.6 139 142.6 144.9 158.7 181.1 195.4 189.6 190.7 185.9 194.1 186.3 170.2 151.2 132.8 149.8 135.5 121.2 117.3 113.4 110.6 104 90.7 68.8 56.6 52.3 43.6 38.8 54.8 51.2 44.4 38.6 31.9 28 26.8 28 17.8 15.8 16.4 18.3 18.6 18.3 18.6 18.6 25.3 36.6 45.7 47.3 51.2 55.8 63.6 69.2 74.8 77.7 85.2 89.9 89.1 88.6 100.6 104.5 102.8 110.8 105 94.5 80.4 50.6 79 100.5 112.8 121.4 125.2 123.3 140.8 166.2 183.7 211.1 225.4 217.3 211.7 211.3 200.9 200.3 192.8 186.5 184.8 186.1 188.5 188 169.9 164.2 168.4 166.4 152.6 138.4 128 117.4 110.1 101 93.7 87.1 76.1 87.1 97.8 100.7 98.5 93.8 88.4 81.1 75.3 69 61.7 60.9 53.4 52 50.7 51.9 43.4 35.9 24.6 20.5 20.5 19.1 17.6 17.5 17 15.9 14.7 11.6 12.4 11.9 9.8 4.7 -1.9 -1.9 -1.9 -1.9 -1.9 -1.9 -1.9 -1.9 -1.9 -1.9 -1.9 -1.9 -1.9 -1.9 -1.9 -1.9 -0.5 0.6 -1.9 3.4 3.8 7.1 14.5 16.6 17.5 15 15.6 16.6 17.8
2.6 2.1 2 1.8 1.7 1.5 1.1 0.7 -1.9 -1.9 5.1 6.6 7.3 18.1 29.4 42.6 54.1 63.6 76.5 88 104.7 109.5 108.7 107 101.8 99.5 97.4 95.2 91.4 83.4 76.2 72.8 73.8 80.3 80.8 85.6 92.2 95.8 99.2 108.8 124 130.2 131.2 131.8 147.5 167.1 166.3 165.8 165.9 157.8 157.7 143.7 124.2 139.5 140 128.6 118.2 102.6 96.8 90.8 88.1 74.5 51.2 40.9 33.9 32 36.5 37.7 36.2 31.6 24.2 20.7 18 16.5 15 14 14 15.2 16 16.5 16.6 16.9 17.3 20.4 39 29.3 29.3 42.1 47.1 57.1 65.4 68.1 72.7 79.2 83 87.5 87.9 92.2 95.2 94.2 90.9 90.6 80.5 60.3 37.6 79.4 92.7 107.3 108.6 110.4 112.2 135.1 151.8 168.5 179.4 186.1 190.2 189.4 189.9 179.1 172.6 169.3 159.7 157.8 159.5 155.3 164.4 154.8 133.5 144.4 145.5 133.9 115.2 103.9 93.7 85.5 81.9 78.8 72.2 66.3 87.8 110.7 96.2 87.9 82.8 76.3 68.2 62.4 54.4 46 40.8 38.8 35.7 29.8 28.1 26.2 18.8 17.3 13.6 14.3 11.7 14.2 12.1 10.5 6.3 5.6 2.2 2.4 2.5 -1.9 -1.9 -1.9 -1.9 -1.9 -1.9 -1.9 -1.9 -1.9 -1.9 -1.9 -1.9 -1.9 -1.9 -1.9 -1.9 -1.9 -1.9 0.3 1.9 3.5 5 7 10.4 15.2 18 20.2 21.8 23.2 24.1 24.9
0.7 0.3 0.5 0.6 0.7 0.5 0 -0.5 -1.9 -1.9 3.7 4.8 5.6 10.4 27.5 44.7 54.2 62.6 72.1 83.9 102.7 98.1 98.4 104.6 101 99.6 97.4 87.9 86.1 78.3 70.4 69.6 64.7 63.4 65.4 73.5 74 78.7 86.6 89.6 95 101.4 103.8 107.4 115.9 136.9 150.6 147.9 148.6 148 133.3 114.2 125.4 141.8 133.8 124 106.4 93.7 80.1 70.9 60.6 47.4 31.8 30.3 30.1 27.7 27.1 24.1 20.4 18.9 16.3 14.6 13.3 12.5 12.9 13.2 13.1 13 13.4 14.3 15.2 15.6 17.4 27.9 25.9 22.2 25.4 34.5 43.9 50 51.3 52.3 53.9 61.1 65.4 73.9 93.1 85.5 83.7 79.9 78 78.3 67.9 46.3 49.5 76.7 85 97.2 93.9 89.2 88.6 120 126.5 142.7 147.2 151.5 154.7 158 154.7 149 157.1 148.8 140.1 137.9 134.1 129.2 128.7 122 104.3 118.6 124.7 114.2 95.6 83.4 76.8 69.4 66.3 64.8 59.1 52.1 75.1 100 94.9 78.6 68.9 61.4 56.1 53.4 45 34.6 25.5 22.2 18.7 16.6 16.1 16.2 12.3 9.8 9.3 9.4 6.3 5.6 4.1 2.6 -0.7 -1.9 -1.9 -1.9 -1.9 -1.9 -1.9 -1.9 -1.9 -1.9 -1.9 -1.9 -1.9 -1.9 -1.9 -1.9 -1.9 -1.9 -1.9 -1.9 -1.9 -1.9 -1.9 -0.1 1.8 4.1 5.3 7.3 11.6 14.7 16.9 19.8 21.3 23.1 24.5 30.6
-1.9 -1.9 -1 -0.6 -0.4 -0.6 -1.1 -1.6 -1.9 -1.9 2.3 2.9 3.8 5.7 16 38 48.2 57.9 65.7 78.6 91.2 88.8 92.2 98.9 98.1 102.7 94.9 84.1 81.9 71.7 64.9 60.6 49.4 44.9 47.9 57.6 65.5 66.5 65.6 70.9 76.2 74.5 71.9 74.8 76.5 103.3 120.5 124.9 123.5 121.8 114 96.7 112.4 119.6 116.1 106.7 88 85.8 70.1 50.1 40.6 30.7 28.1 37.4 30.8 21.6 16.5 14.5 13.8 12.5 11.7 11.3 11.2 11.5 11.8 11.8 11.6 11.5 12.5 13.2 15.2 16.5 22.4 30.3 29.3 34.9 38.8 49.5 55.5 61.1 58.3 56.9 58.8 83.3 91.7 93.3 98.2 82.1 75.7 67.6 54.5 69.8 50.1 42.8 46 73.1 76.6 82.6 76.3 69.4 69 88.2 93.4 108.6 118.8 117.9 119.4 124.4 126.5 123.4 119.9 117.3 108.5 114.7 124.8 108.1 111.2 93.8 84.6 96.8 94.4 90.7 82.6 65.8 56.5 51.7 54.5 52 45.5 37.4 52.3 77.9 82.9 63.1 51.4 41.5 37.4 36.8 30.6 23.3 17.3 14.9 15.4 12.3 12 7.4 7 6.9 7.4 7.3 10.4 12.3 9.2 6.3 4 2.6 1.9 -1.9 -1.9 -1.9 -1.9 -1.9 -1.9 -1.9 -1.9 -1.9 -1.9 -1.9 -1.9 -1.9 -1.9 -1.9 -1.9 -1.9 -1.9 -1.9 -1.9 0.1 2.5 5.2 8.9 12.2 15.6 18.9 21.4 22.7 27.7 32.9 40.8 47.6
-1.9 -1.9 -1.9 -1.9 -1.2 -1.7 -1.9 -1.9 -1.9 -1.9 -1.9 1.2 2.4 3.9 6.8 24.9 40.8 49.7 58.8 74.3 81 89.8 93.1 94.8 90.2 91.3 88.7 80.2 76.3 68 59 49.5 39.4 37.9 42.4 50.2 58.5 60.6 56.9 48.4 48.2 48 53.5 58.2 63.8 69.6 76.8 95.5 92.7 87.4 82.1 71.9 77.1 86 86.4 78.7 63.4 61.1 52.6 34.5 28.3 43.3 55.9 46.9 29.3 12.7 12 12 11 11 10.1 10.3 10.1 10.4 9.6 8.6 9.8 10.1 11.7 13.8 15.6 18.3 21.9 31.6 39.1 47 45.6 43.2 53.8 56.4 48.5 49.5 53.4 78.6 96.9 87.1 90.9 76.5 66.4 54.5 43.2 49.3 48.8 34.7 20.2 56.1 60.6 62.3 59.1 52.8 50.7 63.2 69.4 80.5 88.2 93 94.1 99.7 101 101 92.7 87.9 82.6 87.1 92.5 87.6 76.3 67.4 66.2 67.3 69.4 67.5 63.9 50.7 35 35.1 36.4 36.4 32 25.9 28.6 54.7 51.7 40.7 28.6 23.1 18.8 19 15.3 12.3 11.2 10.4 10.5 9.6 8.1 6.7 7.2 10.2 14 16.8 20.6 26.7 26.3 25.7 26.1 23.3 19.9 8.8 0.8 -1.9 -1.9 -1.9 -1.9 -1.9 -1.9 -1.9 -1.9 -1.9 -1.9 -1.9 -1.9 -1.9 -1.9 -1.9 -1.9 -1.9 -1.9 2 5.7 8.8 11.9 16.4 22.4 27.4 34.9 36.3 41.7 48.6 57.3 67.5
-1.9 -1.9 -1.9 -1.9 -1.9 -1.9 -1.9 -1.9 -1.9 -1.9 -1.9 0 1 1.9 4.1 6.4 30.2 43.4 58.5 71.5 78.8 82.6 86.1 81.3 79.9 77.3 74.5 68.6 63 58.5 52.1 40.4 30.7 33 40.4 41 44.4 45.3 41.1 35.2 33.5 31.9 41.2 44.6 42.5 44.1 47.4 54.3 56.9 57.1 53.7 44 39 39.2 53 57.1 46.3 35.6 29 30.1 42.4 41.1 35.8 38.3 26.5 10 10.4 10.7 9.2 9.1 9.3 9 9 8.9 8.5 7.2 8.6 9.5 9.9 12.7 14 14.8 17.4 23.2 23.2 32.6 31 30 36 39.1 40 37.1 40 54 80.2 70.9 75.5 62.4 50.3 37 34.7 37.4 44.7 28.6 18.8 42.5 48.5 47.6 43.4 37.7 36.8 42.7 54.6 62 63.8 69.9 70.9 72 71.7 74.8 72.2 74.2 62.4 57.3 64.6 63 53.6 49.5 54.5 53.6 52.8 46.1 37.6 30.2 22.2 18.2 20.6 21.1 19 18.5 17.5 20.2 18.3 17.2 12.1 10.1 10 9.2 8.8 8.4 8.7 8.7 7.3 9.5 10.8 9.4 15.2 18.6 33 43.7 45.5 44 43.3 43.8 39.5 34.3 21.4 10.5 1.4 -1.9 -1.9 -1.9 -1.9 -1.9 -1.9 -1.9 -1.9 -1.9 -1.9 -1.9 -1.9 -1.9 -1.9 2.2 2.9 1.6 1.6 4.2 6.4 9 18.2 27.5 35.4 40.9 50.4 55 61.9 70.4 79.5 88.5
-1.9 -1.9 -1.9 -1.9 -1.9 -1.9 -1.9 -1.9 -1.9 -1.9 -1.9 -1.9 -0.4 0.6 2.3 4.6 28.6 41.3 45.1 59 70.4 79.8 81.3 74.8 70 66.1 60.5 54.9 48 44.6 41.3 30.6 29.1 26 29.5 26.3 25 22.7 21.9 19.6 20.4 20.9 22.2 20.4 17.5 20.6 26.7 28.1 48 50.6 40.1 26.5 17.8 17.3 29 34.5 39.1 33.4 25 32.1 33.1 31.6 27 22.8 19.9 9.5 9.2 7.8 8.1 8.9 8.4 7.7 8.5 7.3 6.3 6.4 7.2 7.9 11.1 12.3 14.5 15.1 15.9 19.1 20.7 18.4 22.6 23.7 24.7 26.3 28.1 27.9 27.1 36.2 50.8 50.4 45.9 39.9 29.6 23.1 23.8 29.4 32.1 18.1 19.8 35 43 39.2 32.3 26.6 20.8 24.8 37.7 43 40.8 47 51.5 54.9 57 56.5 52.1 47.1 43.2 41 35.5 34.5 34.3 36.6 36.4 32 37.6 30.8 23.1 19.4 13.9 12.3 12 12.5 13.4 14.7 13.5 11.7 10.5 9.1 9.8 9.7 8.7 8.3 8.8 8.7 9 7.9 9.2 11.1 13.6 22.5 27.9 33.1 45 51.8 51.7 50 52.3 45.3 39.1 28.8 14.2 3.9 -1.9 -1.9 -1.9 -1.9 -1.9 -1.9 -1.9 -1.9 -1.9 -1.9 -1.9 -1.9 -1.9 -1.9 2.3 6.5 8.6 6.4 4.1 6.5 16.4 24.1 35.5 47 59.3 65.4 72.5 77.9 82.6 95 101.2 109.5
-1.9 -1.9 -1.9 -1.9 -1.9 -1.9 -1.9 -1.9 -1.9 -1.9 -1.9 -1.9 -1.9 -1.9 1.1 3.5 17.9 39.9 29.3 33.6 45 62.7 71.9 64.7 62.1 55.8 52.3 44.2 38 33.3 24.1 18.6 17.7 16 16.2 17.7 14.8 13.6 12.6 13.5 13.8 14.2 11.6 11.4 12.3 13.6 18.8 19.4 21.9 24.6 16.3 15.7 16.2 16.1 33 50.1 43.3 40.9 20.3 32.1 24 23.2 22.9 17.5 8.8 7.8 7.5 6.3 7.1 7.9 8 7.4 7.3 6.4 6 6 6.4 7.8 10.3 11.7 14.7 14 14.9 14.1 14.1 14.5 15.1 15.1 15.3 15.3 15.6 18.1 20.7 24.9 39.8 33.6 26.9 25.5 16.5 14.4 18.4 23.2 18.5 10.6 18.7 32.2 34 28.3 20.2 18 13.7 13.7 19.2 25.5 26.8 34.6 39.5 47.4 49.3 40.9 34.5 26.9 23.1 24.1 13.9 14 14.3 19.1 19 12.5 10.4 9.1 8.4 10.7 10.9 9.9 9.9 10.7 11.3 13.1 12.2 10.5 10.2 9.9 10.4 10.4 9.6 10.2 11.2 11.8 10.1 11.9 11.8 13.9 20.7 28.1 29.8 30.7 36.1 40.9 43.2 43.3 38.1 33.7 20.7 10.4 4 -1.9 -1.9 -1.9 -1.9 -1.9 -1.9 -1.9 -1.9 -1.9 -1.9 -1.9 -1.9 0.2 -1.9 3.6 6.1 8.3 15.6 18.7 25.4 33.9 43.9 51.3 62.7 74.9 84.6 94.9 96.5 101.7 107.3 123 139.6 148.5
-1.9 -1.9 -1.9 -1.9 -1.9 -1.9 -1.9 -1.9 -1.9 -1.9 -1.9 -1.9 -1.9 -1.9 -1.9 2.3 3.4 14.2 9.2 24.3 27.5 31.4 41.6 44.3 49.7 48.1 43.8 35.7 26.3 18.2 7.2 6.3 6.5 7.4 8.5 10.8 9.9 10.2 10.2 9.9 10.2 10.1 9 9.3 11.3 10.7 12.4 13.3 13.6 14.4 25.8 25.1 27.2 28.2 45.4 49.8 41.5 25.7 16.7 16.6 12.5 11.9 10 8.8 8.2 5.7 5.9 5.6 6.7 6.2 5.8 6.5 7.3 6.2 6.2 6 5.5 7.9 10.8 13.1 13.5 10.1 14.2 11.9 11.4 11.5 12 10.4 9.2 8.9 10.2 11.3 13.4 16.6 17 16.9 15.5 13.5 12.5 12.5 12.8 13.1 13 11.3 11.8 14.6 20.2 12.5 8.5 8.6 9.4 10.2 11.4 13.9 16.4 17.5 21 25.8 25.4 22 18.7 9.3 7.6 8.5 7.6 7.1 7.6 8.9 10 8.7 7.9 8.1 8 8.6 9 9.2 9.6 10.5 10.7 11.7 11.1 11 11.3 11.5 12 13.7 14 14.8 13.4 14.5 18 19.8 19.5 24.8 27.6 27.6 28.2 28.6 33.5 38 36.5 33.1 28.4 16.5 7.7 3.2 -1.9 -1.9 -1.9 -1.9 -1.9 -1.9 -1.9 -1.9 -1.9 -1.9 -1.9 -1.9 2.6 4.1 -1.9 6.6 8.4 17.5 25.9 42.3 54.1 63.7 74.1 82.6 97 100.9 105.3 107.2 112.7 119 133.5 149.2 166 185.6
-1.9 -1.9 -1.9 -1.9 -1.9 -1.9 -1.9 -1.9 -1.9 -1.9 -1.9 -1.9 -1.9 -1.9 -1.9 -1.9 1.4 -1.9 2.9 3.6 10.8 15.6 20.4 28.7 33.6 38.5 30.4 26.3 18.1 5.6 4.7 4.6 5.3 5.8 5.7 6 7.1 9.3 9.9 9.4 9.5 9.3 8.1 8.3 9.7 9.5 15.8 21.5 28.2 34.5 35.7 26.6 22.7 19.8 22.6 24 16.4 15.3 12.9 10.1 8.7 7.4 6.7 6 5.9 4.9 4.8 6.3 8.2 7.2 5.9 5 6.8 7.6 6.9 6.5 5.1 7.5 8.4 7.2 7 7.2 11.2 12.5 10 10.8 12 10.6 9.8 8.4 8.4 8.6 8.4 8.9 8.5 7.9 8.4 9 10.4 9.3 9 9.6 9.3 8.5 8.8 7.2 6.9 7 5.9 5.2 5.5 6 8.7 11.6 11.6 10 11.7 8.1 8.5 7 6.2 5.8 6 6.7 6.2 6.9 7 8 7.3 7.6 8 8 8.2 8.6 9.2 9.4 9.7 11.2 16.6 20 14.7 12.4 13.5 13.9 16.3 21.7 31 30.7 18 25.4 30.9 29.3 32.8 38.3 35.3 29 28.8 41.1 42.3 39.9 34.7 27.2 17.4 10.6 3.5 -1.9 -1.9 -1.9 -1.9 -1.9 -1.9 -1.9 -1.9 -1.9 -1.9 -1.9 -1.9 1.8 5.8 8.1 8.8 11.9 22.5 36.9 48 61.2 78.7 89.3 98.4 105.1 110.6 111.1 115.8 126.2 138.1 142.5 158.6 183.9 203.3 202.9
-1.9 -1.9 -1.9 -1.9 -1.9 -1.9 -1.9 -1.9 -1.9 -1.9 -1.9 -1.9 -1.9 -1.9 -1.9 -1.9 -2 -1.9 -1.9 -1.9 -1.9 2.2 4 4.5 8.4 12.7 7.5 6.3 4.6 4.5 4.6 3.9 4.3 4.9 5.7 5.8 5.7 7.6 8.3 8.8 9.3 7.5 7.9 8.7 9 9.6 11.3 15 20.6 28.3 25 22.8 17.5 14.2 15 14.6 14 12.8 9.9 6.8 5.7 5.2 4.5 4.3 4.2 4.3 4.6 6.7 8.8 8.5 5.7 5.1 6.1 8.5 7 6.8 5.4 6.9 7.7 7.1 7.8 8.4 12.1 10.6 8.8 8.4 9.1 9.9 8.1 8.5 8.7 8.3 10.8 9.9 9.8 10.6 15.7 22.8 15 9.1 10.6 9.8 11.6 9.1 10.5 8.9 8.4 6.3 5.6 4.9 5.8 4.4 4.3 4.3 5 5.1 5.3 8 6.2 6.1 6.1 6.3 6 6.2 7.6 7.2 7.8 7.8 8.3 8.5 9.1 11 14 22.2 25.8 30.4 33.6 41.7 47.3 42.3 35.1 21.4 15.7 16.3 23.3 35.6 41.5 34.4 26.4 26.5 29.6 34.9 42.1 34.6 29.7 27.8 33 43.3 40.7 35.2 28.6 18.8 10.1 7.4 -1.9 -1.9 -1.9 -1.9 -1.9 -1.9 -1.9 -1.9 -1.9 -1.9 -1.9 -1.9 1 5.5 12.1 14.4 18.5 34.8 47.7 55.5 65.6 76.7 86.8 102.5 110.4 114.1 120.6 135.8 151.8 156.6 165.6 171.6 189.6 218.7 214.8 201.2
-1.9 -1.9 -1.9 -1.9 -1.9 -1.9 -1.9 -1.9 -1.9 -1.9 -1.9 -1.9 -1.9 -1.9 -1.9 -1.9 -1.9 -1.9 -1.9 -1.9 -1.9 -1.9 -1.9 -1.9 1.2 1.9 2.4 2.5 2.5 2.6 3.3 3.3 3.8 4.2 4.6 4.8 5.8 5.8 6.7 8.1 9.3 8 8.9 9.9 10.2 10.5 10.9 11.4 12.1 12.1 12.7 14 14.8 15.2 15.2 14.8 11.9 8.6 5.7 4.4 4.4 4.2 3.7 3.5 3.6 4.4 4.5 5.6 8 8.3 4.5 5.7 5.7 6 5.7 6.6 7.6 6 8.1 7.5 7.7 7.7 10.7 8.3 8.3 7.9 8.3 15.3 22.7 21 20.9 27 31.7 33.7 36 36.1 41.9 40 36.5 22.3 16.8 19.5 26.1 29.3 31.5 33.6 23.1 14.7 9.2 6.4 5.4 4.7 3.9 5.2 6.2 7.3 8.8 10.6 10.2 7.9 6.5 6.2 5.9 6.8 6.8 6.9 7.5 8.2 8.5 13.6 27 31.8 36.9 55.1 69.5 70 82.1 75.8 60 47.9 39.1 26.5 20.8 19 33.7 46.5 42.4 30 23.3 22.4 23.6 22.6 24.5 23.2 24.8 28.9 45.2 44.8 38.3 30.1 20 10.7 6.9 -1.9 -1.9 -1.9 -1.9 -1.9 -1.9 -1.9 -1.9 -1.9 -1.9 -1.9 -1.9 0.9 4.5 9 18.8 23.8 42.4 57.5 64.1 71 82.2 94.8 105.6 118.1 129 132.9 148 162.3 174 180.7 194.3 203.2 213.9 223.9 215.3 209.5
-1.9 -1.9 -1.9 -1.9 -1.9 -1.9 -1.9 -1.9 -1.9 -1.9 -1.9 -1.9 -1.9 -1.9 -1.9 -1.9 -1.9 -1.9 -1.9 -1.9 -1.9 -1.9 -1.9 -1.9 -1.9 0.3 1.1 1.4 1.5 1.8 2.2 3.7 3.2 3.5 3.6 4.7 5.6 6.5 6.6 7.9 9.3 10.4 11 11.1 13.9 17.4 20.2 25.6 28.2 24.6 18 17.7 18.2 24.4 29.6 25 14.1 6.1 3 3.3 3.6 4.5 2.2 3.5 3.2 4.6 4.4 5.1 5.3 5.3 4.6 4.2 5.3 6.1 4.9 6.5 7.7 7.1 5.4 7.7 7.9 8 8.2 8.3 12.5 18 35.2 37.1 35.6 36.3 41.3 46.2 45.9 48.6 47.9 51.5 50.2 46.1 43.4 37.5 33.1 40.8 44 50.4 57.2 54.9 36.4 27.4 19.8 11.9 9.1 5.7 2.9 6.7 8.4 9.2 12.1 13.6 16.9 16.5 6.5 6.2 6.1 6.8 6.9 8.2 12.5 27.1 44.3 53.6 41 38.1 45.4 52.3 61.2 69.3 71.9 62.2 47.8 39.9 36 28.6 21.4 16.9 21.5 33.1 35.2 27 20.9 21.2 22.4 22.2 19.5 23.1 25.8 26.7 33.6 43.1 33.9 21.5 11.4 6.9 -1.9 -1.9 -1.9 -1.9 -1.9 -1.9 -1.9 -1.9 -1.9 -1.9 -1.9 0.9 3 2.6 5.2 14.3 31.8 43 48.9 63.2 68 77 92.6 108.7 123.3 136.2 143.9 149.8 163.8 179.3 195.2 220.6 229.7 229.8 225.9 220.7 217.3 228.6
-1.9 -1.9 -1.9 -1.9 -1.9 -1.9 -1.9 -1.9 -1.9 -1.9 -1.9 -1.9 -1.9 -1.9 -1.9 -1.9 -1.9 -1.9 -1.9 -1.9 -1.9 -1.9 -1.9 -1.9 -1.9 -0.9 0 0.5 0.7 1 1.6 2.2 2.6 2.7 3.4 5.6 7.9 10.5 12.3 13.2 14.6 15.5 19.1 24.5 34.3 35.7 38.2 39.3 38.6 35.3 31.2 32.3 30.6 30.2 35.9 33.3 10.4 3.3 2.1 2.2 4 2.8 2.3 2.7 2.7 4 3.8 4 4.2 4.6 3.8 4.8 5.2 5.5 4.2 7.6 10.5 12.3 16.3 21.9 23.7 27.2 34.8 39.4 43.7 57.1 59.5 61.4 57.1 55 52.9 54.2 55.6 56.7 62.1 66.1 66.7 56.4 46.8 39.4 45.7 58.6 67.8 59.6 58.7 52.9 37.9 30.2 23.1 15.5 10.6 7.5 3 -1.9 11 16.1 18.1 17.1 16.8 13 7.5 6.3 6.2 6.6 8.1 20.9 36 51.7 72.4 65.4 57.5 56.3 52.3 55.3 62 58.9 53.4 47.6 40.6 34.3 28.2 23.6 18 11 13.9 17.7 23.5 19.3 19.9 22.9 22.5 21.1 20 17.6 20.5 19.5 21.7 29.4 23.3 15.4 8.9 4.3 -1.9 -1.9 -1.9 -1.9 -1.9 -1.9 -1.9 1.9 4.1 1.5 0.7 2.1 3.6 3.7 8.8 19.6 45.2 58.1 61.9 61.4 70.2 85.4 102 116.1 131.4 148 159.6 172.7 187.2 206.6 220.9 226.5 233 230.4 224 225.7 236.1 246.8
-1.9 -1.9 -1.9 -1.9 -1.9 -1.9 -1.9 -1.9 -1.9 -1.9 -1.9 -1.9 -1.9 -1.9 -1.9 -1.9 -1.9 -1.9 -1.9 -1.9 -1.9 -1.9 -1.9 -1.9 -1.9 -1.9 -0.8 -0.4 -0.1 0.4 1.1 2 2.6 2.8 3.5 6.1 9.1 19.6 21.6 27.1 30 28.2 31.3 43.5 46.6 47.8 49.4 51 50.6 50.9 49.6 40.9 31.1 27.1 25.3 6.6 3.5 2.3 2 2.1 2.3 1.8 3.1 4.1 4.2 5.3 5.1 4.1 3.6 4.9 4.3 4.5 4.7 4.4 5.5 9.8 13.9 21.9 45.5 54.7 62.2 73.5 80.8 73.9 83.1 83.9 81.8 84.5 86.4 89.4 70.6 69.5 75.4 79.6 73.7 71.7 72.3 63.2 49.3 41.5 45.5 55.1 67 70.5 60 49.5 39.5 29.5 22.6 15.4 10.5 5.8 2.1 -1.9 6.4 12.9 15.7 14.9 15.6 9.2 6.7 7.7 10.7 21 31.3 45 60.9 77.2 79.5 68.2 60.4 61.3 71.3 74.6 56.8 51.1 46.9 42.1 36.7 29.6 23.7 18.7 12.5 8.1 7 8 12.9 20.3 26.6 24 23.5 16.5 14 12 15.1 12.7 16.1 16.6 13.2 10 3.5 -1.9 -1.9 -1.9 -1.9 -1.9 -1.9 -1.9 -1.9 -1.9 1.7 1.7 2.6 3.6 5.2 7.1 15.3 31.9 56 66.9 74.3 77.3 74.7 88.7 107.3 125.7 147.3 166.9 183.6 199.7 212.9 230.3 235.7 234 233.3 230.1 230.9 239.4 249 258.5
-1.9 -1.9 -1.9 -1.9 -1.9 -1.9 -1.9 -1.9 -1.9 -1.9 -1.9 -1.9 -1.9 -1.9 -1.9 -1.9 -1.9 -1.9 -1.9 -1.9 -1.9 -1.9 -1.9 -1.9 -1.9 -1.9 -1.9 -1.3 -0.7 -0.1 0.8 1.8 2.6 3.3 3.8 6.3 9 18.8 26.5 31 33.3 37.9 44.6 49 50.3 52.6 55.3 54.3 50.8 49.7 49.1 42.9 30 22.8 7.8 3.5 2.5 2.2 3.1 4.5 1.6 1.7 2.8 3.8 4.1 4.1 4.9 4.9 4.2 4.8 4.5 4.2 6.6 5.1 6.4 13.6 24.9 72.5 87.8 92.4 100.9 112.9 111.7 100.9 91.3 88.3 95.5 101.5 98.6 89.1 90.8 89.7 89.3 91.6 81.5 83.9 71.5 63.3 50.3 47 47.9 50.5 62 64 54 45 38.8 28.9 20.1 12.9 9.3 5.8 -1.9 -1.9 -1.9 5 8.4 11.5 14.9 14.9 15.2 27.4 51.9 65.9 62.4 66 83.8 77.3 72.8 67.6 70.4 66 62.1 56.7 50.4 43.8 41.2 36.8 29.3 22.6 16.8 11.7 8.4 5.5 4.7 5.8 7.2 9.8 15.7 17.9 13.7 10.1 11 11 12.7 12 12.9 12.9 12.2 4.8 -1.9 -1.9 -1.9 -1.9 -1.9 -1.9 -1.9 -1.9 -1.9 -1.9 -1.9 -1 3 5.7 7.6 9.6 25.3 55.6 71.6 86.5 91.4 96 101.2 102.1 112.7 137 158.3 184.1 197.4 208.1 228.5 231.8 233.9 234.8 233.9 240.7 246.7 253.5 268.6 275.3
-1.9 -1.9 -1.9 -1.9 -1.9 -1.9 -1.9 -1.9 -1.9 -1.9 -1.9 -1.9 -1.9 -1.9 -1.9 -1.9 -1.9 -1.9 -1.9 -1.9 -1.9 -1.9 -1.9 -1.9 -1.9 -1.9 -1.9 -1.9 -1.3 -0.3 0.6 1.4 3 3.1 4 5 8.5 16.7 26.9 30.9 33 36.9 44.1 50.5 50.7 52.9 55.8 52.8 51 50.6 46.4 40.1 26.1 10.5 5.3 4.3 4.5 3.4 4.6 4.3 2.6 2.6 2.6 3.3 4 4.2 5.1 4.4 4.4 5.5 5.6 5.6 5.2 4.9 7.4 20.8 61 99.8 110.4 115.7 119.8 120.6 120.3 116.1 98.8 94.8 113.2 121.2 108.6 95.5 90.5 90.5 90.6 89.7 84.9 77.4 70.1 63.9 56.1 51.8 48.9 44.2 42.9 41.1 38.9 40.8 37.4 26.3 13.5 9 7.2 -1.9 -1.9 -1.9 -1.9 3.5 6.5 12.1 21.6 29.7 49.4 75.8 83.2 85.2 79.5 81 82.3 75.4 73.2 68.2 67 63.5 56.8 52.2 50.8 43.7 31.4 29.4 22.7 12.9 5.9 5.8 5.2 4.9 4.6 5.1 6.3 7.1 8.2 10.4 10.7 10.5 10.7 11.5 11.9 12.1 13 13.6 14 -1.9 -1.9 -1.9 -1.9 -1.9 -1.9 -1.9 -1.9 -1.9 -1.9 -1.9 1.3 3 4.4 8 10 16.4 46.6 69.8 81.5 92.2 99.5 107.7 118.6 121.9 111.1 130.2 153.7 172.9 187.6 199.4 213 227.2 231.9 234.4 246.9 264.6 267.5 282.3 298.5 297.2
-1.9 -1.9 -1.9 -1.9 -1.9 -1.9 -1.9 -1.9 -1.9 -1.9 -1.9 -1.9 -1.9 -1.9 -1.9 -1.9 -1.9 -1.9 -1.9 -1.9 -1.9 -1.9 -1.9 -1.9 -1.9 -1.9 -1.9 -1.9 -1.9 -1.9 -0.3 1 2.6 3.1 4.4 6.2 8.7 17.4 25.2 29.2 31 35 38.7 43.7 47.1 48.2 49.8 51 47.8 43.7 37.8 33.6 20.2 8.6 4.7 4.6 5.4 5.3 5.1 4.2 3.4 2.7 2.6 3.4 4.1 4.4 3.7 4.2 5.2 4.7 5.9 5.7 5.1 5 9.6 35.1 79.1 110.5 118.8 115.7 115.1 116.8 113.9 116.6 102.9 97.5 114.6 118 110.7 97 91.6 88.5 85.4 80.4 74.5 66.5 58.7 56.5 63.5 58.7 49.5 42.1 37.8 33.1 32.2 35.3 30.5 21.2 9.4 5.8 4.5 -1.9 -1.9 -1.9 -1.9 11 15.5 24 37.2 51.6 78.3 92.9 99.4 100.7 91.1 89.4 80.7 77.1 76.5 68.1 60.6 55.4 49 43 36.6 28.5 21.8 11 7.4 5.1 2.8 3.6 4.4 4.4 4.3 4.6 5.4 6.3 6.7 7.9 10.1 10.9 10.3 10.5 10.6 13.5 12.6 12 8.8 -1.9 -1.9 -1.9 -1.9 -1.9 -1.9 -1.9 -1.9 -1.9 2.2 2.8 4.4 6.6 6.6 9.7 19.8 36.2 56.3 73 88.5 101.4 111.5 126 132.2 143.5 146.1 124.3 156.8 183.5 202.6 213.7 230.9 234.2 239.2 248.4 264.9 281.1 280.5 305.5 312.4 312.5
-1.9 -1.9 -1.9 -1.9 -1.9 -1.9 -1.9 -1.9 -1.9 -1.9 -1.9 -1.9 -1.9 -1.9 -1.9 -1.9 -1.9 -1.9 -1.9 -1.9 -1.9 -1.9 -1.9 -1.9 -1.9 -1.9 -1.9 -1.9 -1.9 -1.9 -1 0.3 2.4 3.8 5.2 8.5 18.3 21.9 23.9 27.7 30.3 36.2 40.5 44.5 44.9 39.9 40.9 43.8 44.7 40.3 35 28.8 13.6 6.2 5.2 5 4.9 4.9 4.8 4.2 3.5 2.7 2.6 3.5 4.3 4.1 5.1 2.6 4.9 5.4 6.2 5.7 5.2 7.9 18.1 55.3 79.4 107.2 114.1 116.1 111.2 112.1 112.1 107.6 104.8 95.5 106.8 109.9 108.3 89.6 90.3 77.9 77.1 77.7 65.9 56.9 48.6 53 60 54 49.5 41.8 36.4 35 30.6 28.6 27.8 17.5 8.1 5.5 2.9 -1.9 -1.9 5.3 21.2 35.3 44.9 50.3 60.6 86.6 101.7 108.6 108.6 98.4 94.3 83.6 72.1 72.2 68 64.9 57.2 48.5 42.5 35.5 27.6 20.7 11.3 5 -1.9 -1.9 -1.9 2 3.3 3.2 3.5 4.4 4.7 5.3 5.7 6.3 8.4 8.7 9.3 10.9 11 12.3 10.6 10.6 7.3 -1.9 -1.9 -1.9 -1.9 -1.9 -1.9 -1.9 1 3.1 5.7 8.1 11.8 18.1 21.1 33.2 44.1 54.7 67.7 80.7 93.7 107.8 125.4 134.9 151 166.3 168.3 161.7 147.3 178.7 207.6 224.3 233.9 239.7 251.3 262.7 286.1 288.9 293.9 308.4 321.2 333.6
-1.9 -1.9 -1.9 -1.9 -1.9 -1.9 -1.9 -1.9 -1.9 -1.9 -1.9 -1.9 -1.9 -1.9 -1.9 -1.9 -1.9 -1.9 -1.9 -1.9 -1.9 -1.9 -1.9 -1.9 -1.9 -1.9 -1.9 -1.9 -1.9 -1.9 -1.9 -1.9 1.6 4.3 6.8 12.8 21.4 25 27.7 30.3 34 38.9 44.6 49.7 50.7 48.7 38.3 35.7 38.2 35.7 28 19.8 7.7 5.4 4 3.8 3.8 3.9 4.2 3.8 3.2 2.6 2.6 3.2 3.8 4.6 2.7 3.2 4.7 6 7.3 8.6 5.5 9.2 31.4 62.1 83.5 94.8 103.7 103.7 107.7 116.3 115.5 109.2 104 91.9 93.9 97 96.9 80.4 71.5 71.6 65.8 63.3 51.4 44.8 41.7 46.1 48.9 46.9 45.4 44.3 39.4 34.4 30.8 22.7 18.5 11.4 6.2 -1.9 -1.7 -1.9 -1.9 13.5 38.2 49.8 57 65.1 83.6 95.2 116.2 113.4 105.9 95.5 89.3 70.9 66.8 67.9 61.5 54.6 49.1 45.4 43.3 31.8 22.3 14.1 4.6 -1.9 -1.9 -1.9 -1.9 -1.9 1.3 3 4.4 4.4 4.6 5.6 5.6 4.5 5.1 5.5 6.5 7.1 8.9 10 9.8 10.1 7.7 -1.9 -1.9 -1.9 -1.9 -1.9 -1.9 4 8 14 16.4 22 24.6 29.6 39.2 53.1 61.7 67.7 78.4 91.4 105.1 116.3 136.7 153.5 168.4 175.8 185.2 197.5 196.5 166.4 199.1 227.4 242.5 256.1 266.2 286.2 296.9 295.5 305.6 325.7 335.8 345
-1.9 -1.9 -1.9 -1.9 -1.9 -1.9 -1.9 -1.9 -1.9 -1.9 -1.9 -1.9 -1.9 -1.9 -1.9 -1.9 -1.9 -1.9 -1.9 -1.9 -1.9 -1.9 -1.9 -1.9 -1.9 -1.9 -1.9 -1.9 -1.9 -1.9 -1.9 -1.9 -1.9 2.4 8.8 16.6 24.7 28.5 34 42 46.3 49.7 49.2 48.7 49.5 52.3 48.8 39.6 32.5 28.4 21 10 4.4 4 2.9 2.6 2.7 2.8 3.1 3.1 2.6 2.6 2.6 2.8 3.3 3.7 1.9 4.6 5 6.4 7.7 9.2 6.6 9.1 38.3 67.3 82.4 90.5 93.1 92.7 105.7 110.4 107.9 105.7 102.6 88.1 82 97.4 95.2 81.6 70.7 58 55.4 50.5 41.6 38.9 51.5 54 46.7 40.2 36.2 36.5 32.6 29.4 28.9 19.7 8.3 5 -1.9 -1.9 -1.9 -1.9 6 23.9 47.7 57.3 62.6 64.8 76.3 94.2 107.6 103.8 96.6 86.3 69.8 62.6 65.7 64.3 55.9 47.8 42.2 35.7 31.5 22.6 14.8 8.4 2.6 -1.9 -1.9 -1.9 -1.9 -1.9 -1.9 2.4 4.2 5.4 4.4 3.6 4.8 2.7 2.2 2.7 4.8 4.8 4.4 7.6 10 10.6 6.5 -1.9 -1.9 -1.9 -1.9 -1.9 2.5 10.3 21.8 25.7 24.9 27.7 33.6 40.4 54.7 69.8 81.2 86.3 92.7 104.2 118.1 136.6 151.8 159.6 171.8 188.6 209.4 236.4 227.5 203.2 185.8 207.9 239.8 261.2 282.6 296.6 299.5 306.1 334.3 350.7 349.8 351.2
-1.9 -1.9 -1.9 -1.9 -1.9 -1.9 -1.9 -1.9 -1.9 -1.9 -1.9 -1.9 -1.9 -1.9 -1.9 -1.9 -1.9 -1.9 -1.9 -1.9 -1.9 -1.9 -1.9 -1.9 -1.9 -1.9 -1.9 -1.9 -1.9 -1.9 -1.9 -1.9 -1.9 0.5 8.1 21.7 31.9 37.9 48.9 63 65.4 71 73.8 71.2 70.7 66.5 54.6 42.6 34.9 30 20.7 3.6 3.1 1.8 0.9 0.7 -0.1 -1.9 1.1 2.2 1.4 1.4 1.5 1.8 2.3 2.9 2.9 5.3 5.3 6.6 7.9 8.4 9.6 19.4 45.6 71.8 82.5 79.5 83.6 83.8 94.4 101.2 102.4 101.8 101.8 86.2 73.3 80.4 78 76 66.1 53.7 48 44.7 37.8 45.1 57.5 53.5 45 34.2 28.1 27.3 26.1 26.1 23.3 18.3 2.7 0.7 -1.9 -1.9 -1.9 1.6 17 24.2 34 43.6 49.9 59.1 76 86.7 97.6 93.8 86.4 76.3 56.9 62.2 65.5 53.9 46 40.3 31.7 24.3 13.1 8.5 3.8 2.7 1.3 -1 -1.9 -1.9 -1.9 -1.9 -1.9 3.7 2.8 3.1 2.6 -1.9 -1.9 -1.9 -1.9 -1.9 0.6 1.3 1.7 5.9 8.1 9.3 7.6 -1.9 -1.9 -1.9 -1.9 -1.9 5.1 14.4 18.3 20.1 25.7 30.6 39.2 54.8 70.9 88.2 97.4 103.8 112.9 123.3 141.1 155.1 166.3 179.6 190.5 202 235.9 248.1 245.6 251.7 221.2 228.2 239.5 237.5 262.4 301.8 310.1 331.6 368.3 360.6 362.6 365.8
-1.9 -1.9 -1.9 -1.9 -1.9 -1.9 -1.9 -1.9 -1.9 -1.9 -1.9 -1.9 -1.9 -1.9 -1.9 -1.9 -1.9 -1.9 -1.9 -1.9 -1.9 -1.9 -1.9 -1.9 -1.9 -1.9 -1.9 -1.9 -1.9 -1.9 -1.9 -1.9 -1.9 -1.9 8.2 28.3 43.4 57.2 67.2 71.8 72.6 77.6 81.1 81.4 73.7 64.6 54.8 44.1 35.8 28.3 18.6 5.5 2.5 0.5 -1.9 -1.9 -1.9 -1.9 -0.8 0.3 -0.1 -0.2 0.1 0.4 1.4 2.4 2.7 4.7 5.6 5.7 7.5 20 45 61.9 65 72.4 78.5 76.7 74.4 75.1 84.9 94.1 94.2 100.1 99.5 78.7 66.8 62.1 58.6 63.9 57.9 52.4 40.7 39.4 39.7 50.6 53.7 43.1 34.7 27.5 20 18.3 18.7 24.7 20.1 9.4 1.4 -1.9 -1.9 -1.9 -1.9 1.8 14.3 22.1 29.4 36 41.2 57.5 72.8 78.3 83.4 80.9 78.2 64.5 42.8 47.6 44.9 39 30.1 22 19.5 11.8 2.5 0.7 1.2 0.7 0.6 -1.6 -1.9 -1.9 -1.9 -1.9 2.4 -1.9 -1.9 -1.9 -1.9 -1.9 -1.9 -1.9 -1.9 -1.9 -1.9 -1.9 -1.9 3.7 6.4 9.1 6.6 -1.9 -1.9 -1.9 -1.9 2.3 6.3 14.1 18.5 23.4 30.2 30.8 45 69 86 101.3 114.4 122.4 126.2 144.9 166.2 178 192.7 202.7 219 235.9 246.8 257.8 264.3 269.5 270.8 276.2 282.7 281.8 285.4 273.1 325.1 370.6 372.3 367.2 372 378.2
-1.9 -1.9 -1.9 -1.9 -1.9 -1.9 -1.9 -1.9 -1.9 -1.9 -1.9 -1.9 -1.9 -1.9 -1.9 -1.9 -1.9 -1.9 -1.9 -1.9 -1.9 -1.9 -1.9 -1.9 -1.9 -1.9 -1.9 -1.9 -1.9 -1.9 -1.9 -1.9 -1.9 -1.9 5.8 34.3 52.8 63.4 68.8 72.2 76.4 77.7 79.3 76.5 69.1 55.6 45.8 37.5 33.7 28.7 20.1 2.5 1.2 -0.3 -1.9 -1.9 -1.9 -1.9 -1.9 -1.9 -1.9 -1.9 -1.3 -0.7 0.3 1.4 2.1 2.9 4.2 6.1 15.3 50.8 91.5 84.3 83.5 79.2 81.8 76.7 71.1 72 81.1 87.8 87.9 89.4 91.3 72.9 64.3 58.9 44.8 45.7 51.4 48.4 36.1 41.6 47.2 47.8 47.4 39.3 31.2 24.5 16.9 12.2 13.7 14.4 13.1 2.1 0.1 -1.9 -1.9 -1.9 -1.9 1.6 13.4 31.8 25.4 29.9 40.9 62.5 74.1 77.9 74.8 72.1 68.1 42.7 34.1 32 25 18 10.5 5.2 6.8 -1.9 -1.9 -1.9 -1.9 -0.6 0 -1.9 -1.9 -1.9 -1.9 -1.9 -1.9 -1.9 -1.9 -1.9 -1.9 -1.9 -1.9 -1.9 -1.9 -1.9 -1.9 -1.9 -1.9 -1.9 4.6 7.1 6 -1.9 -1.9 -1.9 -1.9 3.5 7.2 14.2 21.8 21.8 29.6 36.6 61.2 82.8 103.9 113.7 124.2 132 149.3 172.5 190.5 203.4 219.4 252.8 258.7 257 262.4 274.9 280.5 281.1 285.6 305.2 314.4 307 313.6 317.3 315.5 369.5 378.2 376.2 377.8 380.5
-1.9 -1.9 -1.9 -1.9 -1.9 -1.9 -1.9 -1.9 -1.9 -1.9 -1.9 -1.9 -1.9 -1.9 -1.9 -1.9 -1.9 -1.9 -1.9 -1.9 -1.9 -1.9 -1.9 -1.9 -1.9 -1.9 -1.9 -1.9 -1.9 -1.9 -1.9 -1.9 -1.9 -1.9 1.5 23.1 54.8 61.9 70.6 77.2 77.6 80.5 72.2 65 56.5 45.9 36.7 30.4 25.2 16.4 5.2 0 -1.9 -1.9 -1.9 -2 -1.9 -1.9 -1.9 -1.9 -1.9 -1.9 -1.9 -1.9 -0.8 -0.1 0.8 2.1 3.4 6.7 29.9 78.8 88.4 84 85.2 78.7 81.8 71.6 69.2 72.6 76 80.4 83.1 81.6 73.3 64.5 53.6 48.7 33.7 37.3 45.4 43 38.5 53 53.6 42.6 43.6 38.7 29.4 21.1 13.8 8.8 5.4 5.7 3.9 0.6 -1.9 -1.9 -1.9 0.3 1 1.8 8.2 20.8 29.8 29.8 33.2 56.2 65.4 67.9 64.9 60.6 47 30.1 28.5 17.8 8.6 5.4 1.2 -1.9 -1.9 -1.9 -1.9 -1.9 -1.9 -1.8 -0.8 -1.9 -1.9 -1.9 -1.9 -1.9 -1.9 -1.9 -1.9 -1.9 -1.9 -1.9 -1.9 -1.9 -1.9 -1.9 -1.9 -1.9 -1.9 -1.9 4.3 7 5.8 -1.9 -1.9 -1.9 -1.9 4.5 9.1 14.8 17.9 25.2 26.8 47.1 75.1 94.9 112.5 122.1 134.8 144.3 164.5 190 209.8 246 257.4 270.2 277.3 273.3 274.1 282.9 292.6 301.7 307 313.3 330.2 322.5 322.1 337.4 359.3 345.2 377.2 382.1 384.8 388.6
-1.9 -1.9 -1.9 -1.9 -1.9 -1.9 -1.9 -1.9 -1.9 -1.9 -1.9 -1.9 -1.9 -1.9 -1.9 -1.9 -1.9 -1.9 -1.9 -1.9 -1.9 -1.9 -1.9 -1.9 -1.9 -1.9 -1.9 -1.9 -1.9 -1.9 -1.9 -1.9 -1.9 -1.9 -1.9 2.7 48.9 63.1 69.9 72.5 71.9 73.1 65.9 48.8 41.4 31.4 22.3 16.6 5.2 2 -1.9 -1.9 -1.9 -1.9 -1.9 -1.9 -1.9 -1.9 -1.9 -1.9 -1.9 -1.9 -1.9 -1.9 -1.9 -1.2 0.1 1.6 3.2 14.6 63.7 80.1 77.9 87.3 85.1 79.4 74.9 71.1 70.9 78.5 80 86.4 81.1 86.7 75.3 63.5 47.8 34.4 25.1 24.5 28.9 31.3 32.8 49.4 41.1 41.6 39.1 38.6 27.3 18.5 10.8 6.4 2.7 1.8 1 -1.9 -1.9 -1.9 -1.9 2.6 2.6 2.6 17.9 20.9 22.2 30.3 24.6 41.5 50.9 57.7 55.6 46.1 33.6 21.7 19.3 13.1 3.1 -1.9 -1.9 -1.9 -1.9 -1.9 -1.9 -1.9 -1.9 -1.9 -1.9 -1.9 -1.9 -1.9 -1.9 -1.9 -1.9 -1.9 -1.9 -1.9 -1.9 -1.9 -1.9 -1.9 -1.9 -1.9 -1.9 -1.9 -1.9 -1.9 6 5.8 4.4 -1.9 -1.9 -1.9 -1.9 4.1 6.4 12.8 15 19.3 31.4 53.4 83.1 101.7 116.6 134.6 152.7 157.3 175.7 198.1 224.9 253 269.5 276.7 281.6 285 292.6 304.4 311.2 309.5 311.3 322.8 334 337.3 334.6 354.3 378.4 376.3 368.8 373.6 384 393.8
-1.9 -1.9 -1.9 -1.9 -1.9 -1.9 -1.9 -1.9 -1.9 -1.9 -1.9 -1.9 -1.9 -1.9 -1.9 -1.9 -1.9 -1.9 -1.9 -1.9 -1.9 -1.9 -1.9 -1.9 -1.9 -1.9 -1.9 -1.9 -1.9 -1.9 -1.9 -1.9 -1.9 -1.9 -1.9 -1.9 22.5 49.2 56.5 53.2 55.2 58.6 51 29.4 24.6 16.1 8.3 2.5 -1.9 -1.9 -1.9 -1.9 -1.9 -1.9 -1.9 -1.9 -1.9 -1.9 -1.9 -1.9 -1.9 -1.9 -1.9 -1.9 -1.9 -1.9 -1.9 1.2 3.4 45 64.1 71 72.6 73.8 76.3 75.4 70.7 75.4 68.8 77.3 75 70.9 74.2 70.8 65.5 58.6 43.2 28.4 21.7 18.9 18.5 19 26.1 29.1 32.5 39.3 41.2 30.6 25.7 15.9 10.2 4.1 2.2 0.3 -1.9 -1.9 -1.9 -1.9 2.1 1.5 1.8 2.1 6.8 6.2 13.6 18 15.9 27.3 41 42.1 36.3 30.7 22.6 10.8 4.7 -1.9 -1.9 -1.9 -1.9 -1.9 -1.9 -1.9 -1.9 -1.9 -1.9 -1.9 -1.9 -1.9 -1.9 -1.9 -1.9 -1.9 -1.9 -1.9 -1.9 -1.9 -1.9 -1.9 -1.9 -1.9 -1.9 -1.9 -1.9 -1.9 -1.9 3.9 4.7 6.7 6.5 -1.9 -1.9 -1.9 -1.9 3.9 6.7 9.2 13.1 21.1 34.9 57.4 84.4 114.6 132.4 157.3 171.9 178.3 183.7 205.9 246 263.9 276.7 285 295.2 300 311.3 323.6 326.6 329.4 326.5 330.9 336 355.4 363.9 346.1 386.9 393 390.1 393.7 383.8 393.8
-1.9 -1.9 -1.9 -1.9 -1.9 -1.9 -1.9 -1.9 -1.9 -1.9 -1.9 -1.9 -1.9 -1.9 -1.9 -1.9 -1.9 -1.9 -1.9 -1.9 -1.9 -1.9 -1.9 -1.9 -1.9 -1.9 -1.9 -1.9 -1.9 -1.9 -1.9 -1.9 -1.9 -1.9 -1.9 -1.9 1.7 27.9 30.1 35.1 43.1 41.8 25.3 2.3 2.1 -1.9 -1.9 -1.9 -1.9 -1.9 -1.9 -1.9 -1.9 -1.9 -1.9 -1.9 -1.9 -1.9 -1.9 -1.9 -1.9 -1.9 -1.9 -1.9 -1.9 -1.9 -1.9 1.4 13.2 60.6 53.1 70.9 64.6 62.6 65.1 67.8 68.2 71 66.4 62.1 66.7 66.1 62.7 62.2 62.7 50.2 35.5 21.9 20 19.5 18.9 18.9 20.1 25.1 30.9 39.6 34.7 27 19.5 14.5 10.6 10.2 2.4 0.4 -1.9 -1.9 -2 -1.4 0.5 0.1 -0.6 -0.4 0.3 0.6 3.2 18.8 10.9 12.3 27.5 24.2 22.2 17 10 -1.9 -1.9 -1.9 -1.9 -1.9 -1.9 -1.9 -1.9 -1.9 -1.9 -1.9 -1.9 -1.9 -1.9 -1.9 -1.9 -1.9 -1.9 -1.9 -1.9 -1.9 -1.9 -1.9 -1.9 -1.9 -1.9 -1.9 -1.9 -1.9 -1.9 -1.9 1.7 3.7 5.1 6.5 2.9 -1.9 -1.9 -1.9 -1.9 2.3 6.3 10.8 13.7 25 38.4 58.1 85.4 118.1 138.6 158.9 184.2 194.7 192.3 220.6 260.3 274 283 296 306.8 312.5 331.6 336.2 334.3 331.5 336.2 341.6 355.5 373.5 383.3 386.8 389.6 391.7 397.7 406.8 410.7 401.3
-1.9 -1.9 -1.9 -1.9 -1.9 -1.9 -1.9 -1.9 -1.9 -1.9 -1.9 -1.9 -1.9 -1.9 -1.9 -1.9 -1.9 -1.9 -1.9 -1.9 -1.9 -1.9 -1.9 -1.9 -1.9 -1.9 -1.9 -1.9 -1.9 -1.9 -1.9 -1.9 -1.9 -1.9 -1.9 -1.9 -1.9 3.2 19.5 28.8 12.5 5.5 -1.9 -1.9 -1.9 -1.9 -1.9 -1.9 -1.9 -1.9 -1.9 -1.9 -1.9 -1.9 -1.9 -1.9 -1.9 -1.9 -1.9 -1.9 -1.9 -1.9 -1.9 -1.9 -1.9 -1.9 -1.9 -1.9 10.8 55 49.3 57.6 56.7 51.8 59.2 61.7 63.9 64.9 63.4 53.3 47.5 54.1 53 49.8 48.2 41.5 31.3 15.7 19.8 20.4 19 19.3 24 24.7 30.3 28.4 27.2 22.5 15 7.6 5.2 2.9 -1.9 -1.9 -1.9 -1.9 -1.9 -1.9 -1 -1.9 -1.9 -1.9 -1.9 -1.9 -1.9 -1.9 -1.9 -1.9 -1.9 6.8 11.5 10.2 -1.9 -1.9 -1.9 -1.9 -1.9 -1.9 -1.9 -1.9 -1.9 -1.9 -1.9 -1.9 -1.9 -1.9 -1.9 -1.9 -1.9 -1.9 -1.9 -1.9 -1.9 -1.9 -1.9 -1.9 -1.9 -1.9 -1.9 -1.9 -1.9 -1.9 -1.9 -1.9 0.2 2.7 3.9 4.6 3 -1.9 -1.9 -1.9 -1.9 1.1 5.2 10.6 15.1 26.9 44.1 59 77.5 104 127.2 156.6 181.1 193.6 198.2 215.1 249.3 267.7 282.9 298.7 308.4 317.4 338.2 340.3 341.3 346.3 354.3 356.5 378.1 389 401.2 401.3 391.8 395.6 398.4 412.2 421.9 419
-1.9 -1.9 -1.9 -1.9 -1.9 -1.9 -1.9 -1.9 -1.9 -1.9 -1.9 -1.9 -1.9 -1.9 -1.9 -1.9 -1.9 -1.9 -1.9 -1.9 -1.9 -1.9 -1.9 -1.9 -1.9 -1.9 -1.9 -1.9 -1.9 -1.9 -1.9 -1.9 -1.9 -1.9 -1.9 -1.9 -1.9 -1.9 -1.9 -1.9 -1.9 -1.9 -1.9 -1.9 -1.9 -1.9 -1.9 -1.9 -1.9 -1.9 -1.9 -1.9 -1.9 -1.9 -1.9 -1.9 -1.9 -1.9 -1.9 -1.9 -1.9 -1.9 -1.9 -1.9 -1.9 -1.9 -1.9 -1.9 25.8 49 47.5 45.8 47.7 49.1 48.4 51.1 58.5 58.8 54.6 46.1 36.3 29.6 34.4 38.6 31 26 24.3 10.6 13.6 18.2 19.5 30.3 24.5 23.7 22.3 21.5 21.5 17.5 10.5 3.8 0.8 -1.9 -1.9 -1.9 -1.9 -1.9 -1.9 -1.9 -1.9 -1.9 -1.9 -1.9 -1.9 -1.9 -1.9 -1.9 -1.9 -1.9 -1.9 -1.9 -1.9 -1.9 -1.9 -1.9 -1.9 -1.9 -1.9 -1.9 -1.9 -1.9 -1.9 -1.9 -1.9 -1.9 -1.9 -1.9 -1.9 -1.9 -1.9 -1.9 -1.9 -1.9 -1.9 -1.9 -1.9 -1.9 -1.9 -1.9 -1.5 -1.9 -1.9 -1.9 -1.9 -1.9 -1.9 -0.1 2.2 2.9 2.5 -1.9 -1.9 -1.9 -1.9 2.6 4.5 11.2 15 35.1 48 61.6 79.7 95.7 120.3 156.2 176 193.5 207.6 216.8 244.2 261.5 274.3 290.3 308 324.6 350.5 368.2 367.3 372.6 376.9 384.2 388.2 401.4 408.9 410.9 416.1 408.5 401.6 410.7 414.8 413
-1.9 -1.9 -1.9 -1.9 -1.9 -1.9 -1.9 -1.9 -1.9 -1.9 -1.9 -1.9 -1.9 -1.9 -1.9 -1.9 -1.9 -1.9 -1.9 -1.9 -1.9 -1.9 -1.9 -1.9 -1.9 -1.9 -1.9 -1.9 -1.9 -1.9 -1.9 -1.9 -1.9 -1.9 -1.9 -1.9 -1.9 -1.9 -1.9 -1.9 -1.9 -1.9 -1.9 -1.9 -1.9 -1.9 -1.9 -1.9 -1.9 -1.9 -1.9 -1.9 -1.9 -1.9 -1.9 -1.9 -1.9 -1.9 -1.9 -1.9 -1.9 -1.9 -1.9 -1.9 -1.9 -1.9 -1.9 -1.9 32.5 39.5 34.7 34.3 40.7 40.6 41.6 50.6 53.8 52.9 48.1 41.1 30.2 22.5 22.2 28.4 22.4 16.4 12 4.9 6.9 11.2 28 28.3 23.7 21.3 17.6 12.9 14.4 14.3 6.8 -1.9 -1.9 -1.9 -1.9 -1.9 -1.9 -1.9 -1.9 -1.9 -1.9 -1.9 -1.9 -1.9 -1.9 -1.9 -1.9 -1.9 -1.9 -1.9 -1.9 -1.9 -1.9 -1.9 -1.9 -1.9 -1.9 -1.9 -1.9 -1.9 -1.9 -1.9 -1.9 -1.9 -1.9 -1.9 -1.9 -1.9 -1.9 -1.9 -1.9 -1.9 -1.9 -1.9 -1.9 -1.9 -1.9 -1.9 -1.9 0.3 1.9 2.4 -1.9 -1.9 -0.7 -1.9 -1.9 -1.9 0.3 1.5 1.3 -1.9 -1.9 -1.9 -1.9 3.4 4.4 12.1 23.1 32.9 49.8 70.5 80.9 93.1 105.9 135.5 162.2 187 208.6 216.8 242.4 258.9 272.2 299.4 315.9 330.2 366.3 382 386.9 384.2 387.4 397.1 404.9 413.9 423.3 420.6 428.2 431.8 419 411.5 406.8 415.6
-1.9 -1.9 -1.9 -1.9 -1.9 -1.9 -1.9 -1.9 -1.9 -1.9 -1.9 -1.9 -1.9 -1.9 -1.9 -1.9 -1.9 -1.9 -1.9 -1.9 -1.9 -1.9 -1.9 -1.9 -1.9 -1.9 -1.9 -1.9 -1.9 -1.9 -1.9 -1.9 -1.9 -1.9 -1.9 -1.9 -1.9 -1.9 -1.9 -1.9 -1.9 -1.9 -1.9 -1.9 -1.9 -1.9 -1.9 -1.9 -1.9 -1.9 -1.9 -1.9 -1.9 -1.9 -1.9 -1.9 -1.9 -1.9 -1.9 -1.9 -1.9 -1.9 -1.9 -1.9 -1.9 -1.9 -1.9 -1.9 34.9 32.7 29.6 29.8 31.2 33.3 34 39 45.2 46.9 44.8 33.9 22.3 15.2 9 12.3 10.9 7.2 1.7 0.4 2.1 5.9 22.1 22.5 23.6 20 11.6 7 5 7.5 -1.9 -1.9 -1.9 -1.9 -1.9 -1.9 -1.9 -1.9 -1.9 -1.9 -1.9 -1.9 -1.9 -1.9 -1.9 -1.9 -1.9 -1.9 -1.9 -1.9 -1.9 -1.9 -1.9 -1.9 -1.9 -1.9 -1.9 -1.9 -1.9 -1.9 -1.9 -1.9 -1.9 -1.9 -1.9 -1.9 -1.9 -1.9 -1.9 -1.9 -1.9 -1.9 -1.9 -1.9 -1.9 -1.9 -1.9 -1.8 0.2 1.9 2.6 3.2 1.9 2.6 1.7 -0.6 -1.9 -1.9 -1.9 -0.4 -0.4 -1.9 -1.9 -1.9 -1.9 0.7 5.7 10.2 21.6 35.6 50.7 72.4 87.3 103.1 117.1 117.9 151 182.1 203.6 217.1 246.3 254.2 277.7 299.4 308.7 340.5 360.8 379.1 378.9 382.6 392.1 399.9 414.7 421 423.4 423.9 430.9 436.8 427 422.6 412.4 410.6
-1.9 -1.9 -1.9 -1.9 -1.9 -1.9 -1.9 -1.9 -1.9 -1.9 -1.9 -1.9 -1.9 -1.9 -1.9 -1.9 -1.9 -1.9 -1.9 -1.9 -1.9 -1.9 -1.9 -1.9 -1.9 -1.9 -1.9 -1.9 -1.9 -1.9 -1.9 -1.9 -1.9 -1.9 -1.9 -1.9 -1.9 -1.9 -1.9 -1.9 -1.9 -1.9 -1.9 -1.9 -1.9 -1.9 -1.9 -1.9 -1.9 -1.9 -1.9 -1.9 -1.9 -1.9 -1.9 -1.9 -1.9 -1.9 -1.9 -1.9 -1.9 -1.9 -1.9 -1.9 -1.9 -1.9 -1.9 -1.9 21.8 27.4 28.3 24.8 25.5 27 24.2 30.8 34.9 32.7 29 16.5 10.6 7.9 2.5 -1.9 -1.9 -1.9 -1.9 -1.9 -1.9 7.8 18.4 18.3 18.5 15.4 9.9 2.9 0.5 -1.9 -1.9 -1.9 -1.9 -1.9 -1.9 -1.9 -1.9 -1.9 -1.9 -1.9 -1.9 -1.9 -1.9 -1.9 -1.9 -1.9 -1.9 -1.9 -1.9 -1.9 -1.9 -1.9 -1.9 -1.9 -1.9 -1.9 -1.9 -1.9 -1.9 -1.9 -1.9 -1.9 -1.9 -1.9 -1.9 -1.9 -1.9 -1.9 -1.9 -1.9 -1.9 -1.9 -1.9 -1.9 -1.9 -1.9 -1.9 -1.1 0.8 2.5 2.5 2.1 1.6 2.6 1.1 -0.6 -1.9 -1.9 -1.9 -1.9 -1.9 -1.9 -1.9 -1.9 -1.9 0.5 2.6 7.5 16.3 32 48.5 69 84.6 106.6 128.4 144 138.8 174.3 201.2 215.2 234.1 247.2 269.9 289.7 301.6 335.7 352.4 365.8 371.9 379.3 392.3 402.7 413.7 421.1 420.6 422 425.5 428.5 424.9 424.7 421.4 420.2
-1.9 -1.9 -1.9 -1.9 -1.9 -1.9 -1.9 -1.9 -1.9 -1.9 -1.9 -1.9 -1.9 -1.9 -1.9 -1.9 -1.9 -1.9 -1.9 -1.9 -1.9 -1.9 -1.9 -1.9 -1.9 -1.9 -1.9 -1.9 -1.9 -1.9 -1.9 -1.9 -1.9 -1.9 -1.9 -1.9 -1.9 -1.9 -1.9 -1.9 -1.9 -1.9 -1.9 -1.9 -1.9 -1.9 -1.9 -1.9 -1.9 -1.9 -1.9 -1.9 -1.9 -1.9 -1.9 -1.9 -1.9 -1.9 -1.9 -1.9 -1.9 -1.9 -1.9 -1.9 -1.9 -1.9 -1.9 -1.9 18.2 21.7 21 22.2 18.3 20.9 14.1 13.7 21 20.4 12 2.6 -1.9 -1.9 -1.9 -1.9 -1.9 -1.9 -1.9 -1.9 -1.9 9.3 11.1 12.2 11.2 10.8 8.2 -1.9 -1.9 -1.9 -1.9 -1.9 -1.9 -1.9 -1.9 -1.9 -1.9 -1.9 -1.9 -1.9 -1.9 -1.9 -1.9 -1.9 -1.9 -1.9 -1.9 -1.9 -1.9 -1.9 -1.9 -1.9 -1.9 -1.9 -1.9 -1.9 -1.9 -1.9 -1.9 -1.9 -1.9 -1.9 -1.9 -1.9 -1.9 -1.9 -1.9 -1.9 -1.9 -1.9 -1.9 -1.9 -1.9 -1.9 -1.9 -1.9 -1.9 -1.9 -0.5 1.1 2.1 2.7 2.3 2.5 1 -0.5 -1.9 -1.9 -1.9 -2 -1.9 -1.9 -1.9 -1.9 -1.9 1 5.2 6.4 14.1 26.2 46.8 64.9 81 100.5 116.8 139.2 166.1 167.1 190.7 205.6 216.9 237.7 259.2 280.1 290.5 315.9 335.6 345.8 361.2 368 382.1 397.3 410.5 416.9 414.9 414.8 421 424.7 423.9 427.3 419.8 415.9
-1.9 -1.9 -1.9 -1.9 -1.9 -1.9 -1.9 -1.9 -1.9 -1.9 -1.9 -1.9 -1.9 -1.9 -1.9 -1.9 -1.9 -1.9 -1.9 -1.9 -1.9 -1.9 -1.9 -1.9 -1.9 -1.9 -1.9 -1.9 -1.9 -1.9 -1.9 -1.9 -1.9 -1.9 -1.9 -1.9 -1.9 -1.9 -1.9 -1.9 -1.9 -1.9 -1.9 -1.9 -1.9 -1.9 -1.9 -1.9 -1.9 -1.9 -1.9 -1.9 -1.9 -1.9 -1.9 -1.9 -1.9 -1.9 -1.9 -1.9 -1.9 -1.9 -1.9 -1.9 -1.9 -1.9 -1.9 -1.9 16.4 18.6 17.5 17.5 15.6 11.7 6.3 3 2 -1.9 -1.9 -1.9 -1.9 -1.9 -1.9 -1.9 -1.9 -1.9 -1.9 -1.9 -1.9 15.3 15.9 6.9 -1.9 -1.9 -1.9 -1.9 -1.9 -1.9 -1.9 -1.9 -1.9 -1.9 -1.9 -1.9 -1.9 -1.9 -1.9 -1.9 -1.9 -1.9 -1.9 -1.9 -1.9 -1.9 -1.9 -1.9 -1.9 -1.9 -1.9 -1.9 -1.9 -1.9 -1.9 -1.9 -1.9 -1.9 -1.9 -1.9 -1.9 -1.9 -1.9 -1.9 -1.9 -1.9 -1.9 -1.9 -1.9 -1.9 -1.9 -1.9 -1.9 -1.9 -1.9 -1.9 -1.9 -1.9 -1.9 -1.9 1.3 1.8 1.9 1.6 2.6 1.9 1.1 -1.4 -1.9 -1.9 -1.9 -1.9 -1.9 -1.9 -1.9 1.6 1.6 5.4 11.1 17 39.5 60.1 74.3 94.3 115.7 153 181.3 197.2 197.2 204.6 217.7 226 245.9 264.5 278.3 300 318 344.7 358.5 364.5 383.2 397.8 407.3 414.4 412.2 411 411.6 415.4 421 423.6 421.2 420.5
-1.9 -1.9 -1.9 -1.9 -1.9 -1.9 -1.9 -1.9 -1.9 -1.9 -1.9 -1.9 -1.9 -1.9 -1.9 -1.9 -1.9 -1.9 -1.9 -1.9 -1.9 -1.9 -1.9 -1.9 -1.9 -1.9 -1.9 -1.9 -1.9 -1.9 -1.9 -1.9 -1.9 -1.9 -1.9 -1.9 -1.9 -1.9 -1.9 -1.9 -1.9 -1.9 -1.9 -1.9 -1.9 -1.9 -1.9 -1.9 -1.9 -1.9 -1.9 -1.9 -1.9 -1.9 -1.9 -1.9 -1.9 -1.9 -1.9 -1.9 -1.9 -1.9 -1.9 -1.9 -1.9 -1.9 -1.9 -1.9 16.2 12.7 11.4 10.6 14.3 12.7 3.5 0.1 -1.9 -1.9 -1.9 -1.9 -1.9 -1.9 -1.9 -1.9 -1.9 -1.9 -1.9 -1.9 -1.9 11.4 -1.9 3.2 -1.9 -1.9 -1.9 -1.9 -1.9 -1.9 -1.9 -1.9 -1.9 -1.9 -1.9 -1.9 -1.9 -1.9 -1.9 -1.9 -1.9 -1.9 -1.9 -1.9 -1.9 -1.9 -1.9 -1.9 -1.9 -1.9 -1.9 -1.9 -1.9 -1.9 -1.9 -1.9 -1.9 -1.9 -1.9 -1.9 -1.9 -1.9 -1.9 -1.9 -1.9 -1.9 -1.9 -1.9 -1.9 -1.9 -1.9 -1.9 -1.9 -1.9 -1.9 -1.9 -1.9 -1.9 -1.9 -1.9 -1.9 1.3 2.2 1.4 2 2.6 1.3 -0.5 -1.9 -1.9 -1.9 -1.9 -1.9 -1.9 1.2 2.6 2.6 4.6 8.3 17.5 38.8 57.9 73 92.8 117.4 153.3 177.2 185.1 188.8 207.6 222.5 239.5 259 266.8 270.7 285.2 312.5 332.7 347.1 357.1 372.9 379.1 396.6 405.4 406.6 405.6 407.1 409.8 421.8 428.7 434.1 440.3
-1.9 -1.9 -1.9 -1.9 -1.9 -1.9 -1.9 -1.9 -1.9 -1.9 -1.9 -1.9 -1.9 -1.9 -1.9 -1.9 -1.9 -1.9 -1.9 -1.9 -1.9 -1.9 -1.9 -1.9 -1.9 -1.9 -1.9 -1.9 -1.9 -1.9 -1.9 -1.9 -1.9 -1.9 -1.9 -1.9 -1.9 -1.9 -1.9 -1.9 -1.9 -1.9 -1.9 -1.9 -1.9 -1.9 -1.9 -1.9 -1.9 -1.9 -1.9 -1.9 -1.9 -1.9 -1.9 -1.9 -1.9 -1.9 -1.9 -1.9 -1.9 -1.9 -1.9 -1.9 -1.9 -1.9 -1.9 -1.9 12.8 9.3 4.1 3.7 5.8 8.8 3.8 -1.9 -1.9 -1.9 -1.9 -1.9 -1.9 -1.9 -1.9 -1.9 -1.9 -1.9 -1.9 -1.9 -1.9 -1.6 -1.9 -1.9 -1.9 -1.9 -1.9 -1.9 -1.9 -1.9 -1.9 -1.9 -1.9 -1.9 -1.9 -1.9 -1.9 -1.9 -1.9 -1.9 -1.9 -1.9 -1.9 -1.9 -1.9 -1.9 -1.9 -1.9 -1.9 -1.9 -1.9 -1.9 -1.9 -1.9 -1.9 -1.9 -1.9 -1.9 -1.9 -1.9 -1.9 -1.9 -1.9 -1.9 -1.9 -1.9 -1.9 -1.9 -1.9 -1.9 -1.9 -1.9 -1.9 -1.9 -1.9 -1.9 -1.9 -1.9 -1.9 -1.9 -1.9 -0.4 1 2.1 1.8 0.9 -0.1 -1.9 -1.9 -1.9 -1.9 -1.9 -1.9 -1.9 6.6 2.6 2.6 4.6 5.9 16.9 47.6 53.9 71.7 88.4 110 140.3 166.9 171.1 174.4 191.7 216.8 231.8 260.6 297.1 301.9 289.6 295.4 320.1 345.1 353.6 360.2 371.9 388.5 396.7 397 402.6 407.6 409 420.9 448.5 462.1 472.7
-1.9 -1.9 -1.9 -1.9 -1.9 -1.9 -1.9 -1.9 -1.9 -1.9 -1.9 -1.9 -1.9 -1.9 -1.9 -1.9 -1.9 -1.9 -1.9 -1.9 -1.9 -1.9 -1.9 -1.9 -1.9 -1.9 -1.9 -1.9 -1.9 -1.9 -1.9 -1.9 -1.9 -1.9 -1.9 -1.9 -1.9 -1.9 -1.9 -1.9 -1.9 -1.9 -1.9 -1.9 -1.9 -1.9 -1.9 -1.9 -1.9 -1.9 -1.9 -1.9 -1.9 -1.9 -1.9 -1.9 -1.9 -1.9 -1.9 -1.9 -1.9 -1.9 -1.9 -1.9 -1.9 -1.9 -1.9 -1.9 10.8 7.8 1.5 0.6 2.6 2.8 -1.9 -1.9 -1.9 -1.9 -1.9 -1.9 -1.9 -1.9 -1.9 -1.9 -1.9 -1.9 -1.9 -1.9 -1.9 -1.9 -1.9 -1.9 -1.9 -1.9 -1.9 -1.9 -1.9 -1.9 -1.9 -1.9 -1.9 -1.9 -1.9 -1.9 -1.9 -1.9 -1.9 -1.9 -1.9 -1.9 -1.9 -1.9 -1.9 -1.9 -1.9 -1.9 -1.9 -1.9 -1.9 -1.9 -1.9 -1.9 -1.9 -1.9 -1.9 -1.9 -1.9 -1.9 -1.9 -1.9 -1.9 -1.9 -1.9 -1.9 -1.9 -1.9 -1.9 -1.9 -1.9 -1.9 -1.9 -1.9 -1.9 -1.9 -1.9 -1.9 -1.9 -1.9 -1.9 -1.9 -1.9 -0.1 -0.4 -1.9 -1.9 -1.9 -1.9 -1.9 -1.9 -1.9 -1.9 -1.9 8.7 2.6 2.6 2.6 5 10.9 45.7 54.6 72.1 82.3 103.1 125.6 148.8 152.6 160.4 180.7 204 224.7 251.3 285.2 296.3 297.6 297.9 306.3 326.6 343.7 351.2 362.6 378.3 387.5 390.8 398.2 409.2 413.5 424.1 456 474.9 480.7
-1.9 -1.9 -1.9 -1.9 -1.9 -1.9 -1.9 -1.9 -1.9 -1.9 -1.9 -1.9 -1.9 -1.9 -1.9 -1.9 -1.9 -1.9 -1.9 -1.9 -1.9 -1.9 -1.9 -1.9 -1.9 -1.9 -1.9 -1.9 -1.9 -1.9 -1.9 -1.9 -1.9 -1.9 -1.9 -1.9 -1.9 -1.9 -1.9 -1.9 -1.9 -1.9 -1.9 -1.9 -1.9 -1.9 -1.9 -1.9 -1.9 -1.9 -1.9 -1.9 -1.9 -1.9 -1.9 -1.9 -1.9 -1.9 -1.9 -1.9 -1.9 -1.9 -1.9 -1.9 -1.9 -1.9 -1.9 -1.9 -1.9 6.1 -1.9 -1.9 -1.9 -1.9 -1.9 -1.9 -1.9 -1.9 -1.9 -1.9 -1.9 -1.9 -1.9 -1.9 -1.9 -1.9 -1.9 -1.9 -1.9 -1.9 -1.9 -1.9 -1.9 -1.9 -1.9 -1.9 -1.9 -1.9 -1.9 -1.9 -1.9 -1.9 -1.9 -1.9 -1.9 -1.9 -1.9 -1.9 -1.9 -1.9 -1.9 -1.9 -1.9 -1.9 -1.9 -1.9 -1.9 -1.9 -1.9 -1.9 -1.9 -1.9 -1.9 -1.9 -1.9 -1.9 -1.9 -1.9 -1.9 -1.9 -1.9 -1.9 -1.9 -1.9 -1.9 -1.9 -1.9 -1.9 -1.9 -1.9 -1.9 -1.9 -1.9 -1.9 -1.9 -1.9 -1.9 -1.9 -1.9 -1.9 -1.9 -1.9 -2 -1.9 -1.9 -1.9 -1.9 -1.9 -1.9 -1.9 -1.9 -1.9 -1.9 0.6 1.3 2.2 4.7 26.1 42.3 55.6 61.5 73.8 99.6 124.1 130.2 138.5 151.9 179.5 191.8 220.4 248.6 268.5 284.2 294.8 307.1 305.6 319.4 330.7 338.8 352.7 377 395 393.7 396.1 404.9 403.6 424.4 458.5 481.5 484.1
-1.9 -1.9 -1.9 -1.9 -1.9 -1.9 -1.9 -1.9 -1.9 -1.9 -1.9 -1.9 -1.9 -1.9 -1.9 -1.9 -1.9 -1.9 -1.9 -1.9 -1.9 -1.9 -1.9 -1.9 -1.9 -1.9 -1.9 -1.9 -1.9 -1.9 -1.9 -1.9 -1.9 -1.9 -1.9 -1.9 -1.9 -1.9 -1.9 -1.9 -1.9 -1.9 -1.9 -1.9 -1.9 -1.9 -1.9 -1.9 -1.9 -1.9 -1.9 -1.9 -1.9 -1.9 -1.9 -1.9 -1.9 -1.9 -1.9 -1.9 -1.9 -1.9 -1.9 -1.9 -1.9 -1.9 -1.9 -1.9 -1.9 -1.5 -1.9 -1.9 -1.9 -1.9 -1.9 -1.9 -1.9 -1.9 -1.9 -1.9 -1.9 -1.9 -1.9 -1.9 -1.9 -1.9 -1.9 -1.9 -1.9 -1.9 -1.9 -1.9 -1.9 -1.9 -1.9 -1.9 -1.9 -1.9 -1.9 -1.9 -1.9 -1.9 -1.9 -1.9 -1.9 -1.9 -1.9 -1.9 -1.9 -1.9 -1.9 -1.9 -1.9 -1.9 -1.9 -1.9 -1.9 -1.9 -1.9 -1.9 -1.9 -1.9 -1.9 -1.9 -1.9 -1.9 -1.9 -1.9 -1.9 -1.9 -1.9 -1.9 -1.9 -1.9 -1.9 -1.9 -1.9 -1.9 -1.9 -1.9 -1.9 -1.9 -1.9 -1.9 -1.9 -1.9 -1.9 -1.9 -1.9 -1.9 -1.9 -1.9 -1.9 -1.9 -1.9 -1.9 -1.9 -1.9 -1.9 -1.9 -1.9 -1.9 -1.9 -1.9 -0.3 1.7 3.8 31 52.9 51.3 59.2 76 98.9 115 121.7 129.1 145.4 160.8 185.8 219.5 238.4 254.3 273.6 287.5 296.2 304.9 305.7 322.6 335.5 348.2 364.8 379.1 385.4 390.7 392.1 394.7 425.9 455.2 476.6 488.6
-1.9 -1.9 -1.9 -1.9 -1.9 -1.9 -1.9 -1.9 -1.9 -1.9 -1.9 -1.9 -1.9 -1.9 -1.9 -1.9 -1.9 -1.9 -1.9 -1.9 -1.9 -1.9 -1.9 -1.9 -1.9 -1.9 -1.9 -1.9 -1.9 -1.9 -1.9 -1.9 -1.9 -1.9 -1.9 -1.9 -1.9 -1.9 -1.9 -1.9 -1.9 -1.9 -1.9 -1.9 -1.9 -1.9 -1.9 -1.9 -1.9 -1.9 -1.9 -1.9 -1.9 -1.9 -1.9 -1.9 -1.9 -1.9 -1.9 -1.9 -1.9 -1.9 -1.9 -1.9 -1.9 -1.9 -1.9 -1.9 -1.9 -1.9 -1.9 -1.9 -1.9 -1.9 -1.9 -1.9 -1.9 -1.9 -1.9 -1.9 -1.9 -1.9 -1.9 -1.9 -1.9 -1.9 -1.9 -1.9 -1.9 -1.9 -1.9 -1.9 -1.9 -1.9 -1.9 -1.9 -1.9 -1.9 -1.9 -1.9 -1.9 -1.9 -1.9 -1.9 -1.9 -1.9 -1.9 -1.9 -1.9 -1.9 -1.9 -1.9 -1.9 -1.9 -1.9 -1.9 -1.9 -1.9 -1.9 -1.9 -1.9 -1.9 -1.9 -1.9 -1.9 -1.9 -1.9 -1.9 -1.9 -1.9 -1.9 -1.9 -1.9 -1.9 -1.9 -1.9 -1.9 -1.9 -1.9 -1.9 -1.9 -1.9 -1.9 -1.9 -1.9 -1.9 -1.9 -1.9 -1.9 -1.9 -1.9 -1.9 -1.9 -1.9 -1.9 -1.9 -1.9 -1.9 -1.9 -1.9 -1.9 -1.9 -1.9 -1.9 -1.9 1.5 4.3 15.6 39.1 39.2 48.8 62.9 103.2 103.6 109.4 122.5 137.5 156.9 195 214.1 236.1 257 279 288 298.4 310 312.9 313 324.8 333.9 349.9 362.5 376.6 383 387.2 390.6 431.8 461.9 489 493.5
-1.9 -1.9 -1.9 -1.9 -1.9 -1.9 -1.9 -1.9 -1.9 -1.9 -1.9 -1.9 -1.9 -1.9 -1.9 -1.9 -1.9 -1.9 -1.9 -1.9 -1.9 -1.9 -1.9 -1.9 -1.9 -1.9 -1.9 -1.9 -1.9 -1.9 -1.9 -1.9 -1.9 -1.9 -1.9 -1.9 -1.9 -1.9 -1.9 -1.9 -1.9 -1.9 -1.9 -1.9 -1.9 -1.9 -1.9 -1.9 -1.9 -1.9 -1.9 -1.9 -1.9 -1.9 -1.9 -1.9 -1.9 -1.9 -1.9 -1.9 -1.9 -1.9 -1.9 -1.9 -1.9 -1.9 -1.9 -1.9 -1.9 -1.9 -1.9 -1.9 -1.9 -1.9 -1.9 -1.9 -1.9 -1.9 -1.9 -1.9 -1.9 -1.9 -1.9 -1.9 -1.9 -1.9 -1.9 -1.9 -1.9 -1.9 -1.9 -1.9 -1.9 -1.9 -1.9 -1.9 -1.9 -1.9 -1.9 -1.9 -1.9 -1.9 -1.9 -1.9 -1.9 -1.9 -1.9 -1.9 -1.9 -1.9 -1.9 -1.9 -1.9 -1.9 -1.9 -1.9 -1.9 -1.9 -1.9 -1.9 -1.9 -1.9 -1.9 -1.9 -1.9 -1.9 -1.9 -1.9 -1.9 -1.9 -1.9 -1.9 -1.9 -1.9 -1.9 -1.9 -1.9 -1.9 -1.9 -1.9 -1.9 -1.9 -1.9 -1.9 -1.9 -1.9 -1.9 -1.9 -1.9 -1.9 -1.9 -1.9 -1.9 -1.9 -1.9 -1.9 -1.9 -1.9 -1.9 -1.9 -1.9 -1.9 -1.9 -1.9 -1.9 -1.9 -1.9 4.8 14.5 16 36.6 59.2 94.2 88.9 99.9 111.2 128.3 156.3 177.4 219.6 241.5 271.4 283.4 298.1 310.9 322.8 332.9 328.9 319.6 324.5 348.1 365.7 366 367.5 376.5 388.9 425.1 470.5 499.4 502.5
-1.9 -1.9 -1.9 -1.9 -1.9 -1.9 -1.9 -1.9 -1.9 -1.9 -1.9 -1.9 -1.9 -1.9 -1.9 -1.9 -1.9 -1.9 -1.9 -1.9 -1.9 -1.9 -1.9 -1.9 -1.9 -1.9 -1.9 -1.9 -1.9 -1.9 -1.9 -1.9 -1.9 -1.9 -1.9 -1.9 -1.9 -1.9 -1.9 -1.9 -1.9 -1.9 -1.9 -1.9 -1.9 -1.9 -1.9 -1.9 -1.9 -1.9 -1.9 -1.9 -1.9 -1.9 -1.9 -1.9 -1.9 -1.9 -1.9 -1.9 -1.9 -1.9 -1.9 -1.9 -1.9 -1.9 -1.9 -1.9 -1.9 -1.9 -1.9 -1.9 -1.9 -1.9 -1.9 -1.9 -1.9 -1.9 -1.9 -1.9 -1.9 -1.9 -1.9 -1.9 -1.9 -1.9 -1.9 -1.9 -1.9 -1.9 -1.9 -1.9 -1.9 -1.9 -1.9 -1.9 -1.9 -1.9 -1.9 -1.9 -1.9 -1.9 -1.9 -1.9 -1.9 -1.9 -1.9 -1.9 -1.9 -1.9 -1.9 -1.9 -1.9 -1.9 -1.9 -1.9 -1.9 -1.9 -1.9 -1.9 -1.9 -1.9 -1.9 -1.9 -1.9 -1.9 -1.9 -1.9 -1.9 -1.9 -1.9 -1.9 -1.9 -1.9 -1.9 -1.9 -1.9 -1.9 -1.9 -1.9 -1.9 -1.9 -1.9 -1.9 -1.9 -1.9 -1.9 -1.9 -1.9 -1.9 -1.9 -1.9 -1.9 -1.9 -1.9 -1.9 -1.9 -1.9 -1.9 -1.9 -1.9 -1.9 -1.9 -1.9 -1.9 -1.9 -1.9 -1.9 -1.9 -1.9 34.8 62.4 72.7 81.8 89.1 105.7 122.5 158.8 189.4 225.9 255.7 273.2 293.6 305.1 321.2 341.5 346.7 341.9 333.5 325.3 338.2 353.9 365.9 360.7 362.8 377.1 409.6 470.2 494.8 497.2
-1.9 -1.9 -1.9 -1.9 -1.9 -1.9 -1.9 -1.9 -1.9 -1.9 -1.9 -1.9 -1.9 -1.9 -1.9 -1.9 -1.9 -1.9 -1.9 -1.9 -1.9 -1.9 -1.9 -1.9 -1.9 -1.9 -1.9 -1.9 -1.9 -1.9 -1.9 -1.9 -1.9 -1.9 -1.9 -1.9 -1.9 -1.9 -1.9 -1.9 -1.9 -1.9 -1.9 -1.9 -1.9 -1.9 -1.9 -1.9 -1.9 -1.9 -1.9 -1.9 -1.9 -1.9 -1.9 -1.9 -1.9 -1.9 -1.9 -1.9 -1.9 -1.9 -1.9 -1.9 -1.9 -1.9 -1.9 -1.9 -1.9 -1.9 -1.9 -1.9 -1.9 -1.9 -1.9 -1.9 -1.9 -1.9 -1.9 -1.9 -1.9 -1.9 -1.9 -1.9 -1.9 -1.9 -1.9 0.2 -1.9 -1.9 -1.9 -1.9 -1.9 -1.9 -1.9 -1.9 -1.9 -1.9 -1.9 -1.9 -1.9 -1.9 -1.9 -1.9 -1.9 -1.9 -1.9 -1.9 -1.9 -1.9 -1.9 -1.9 -1.9 -1.9 -1.9 -1.9 -1.9 -1.9 -1.9 -1.9 -1.9 -1.9 -1.9 -1.9 -1.9 -1.9 -1.9 -1.9 -1.9 -1.9 -1.9 -1.9 -1.9 -1.9 -1.9 -1.9 -1.9 -1.9 -1.9 -1.9 -1.9 -1.9 28 28.8 22.1 -1.9 -1.9 -1.9 -1.9 -1.9 -1.9 -1.9 -1.9 -1.9 -1.9 -1.9 -1.9 -1.9 -1.9 -1.9 -1.9 -1.9 -1.9 -1.9 -1.9 -1.9 -1.9 -1.9 -1.9 -1.9 15.9 52.8 57.3 68.8 82.7 97.2 125 162 197.3 227.8 256.6 278.6 296.3 313.7 329.5 347.6 359 356.7 342.4 332.5 333.1 343.1 356.3 354.7 349.3 366.5 394.1 434.2 480 494
-1.9 -1.9 -1.9 -1.9 -1.9 -1.9 -1.9 -1.9 -1.9 -1.9 -1.9 -1.9 -1.9 -1.9 -1.9 -1.9 -1.9 -1.9 -1.9 -1.9 -1.9 -1.9 -1.9 -1.9 -1.9 -1.9 -1.9 -1.9 -1.9 -1.9 -1.9 -1.9 -1.9 -1.9 -1.9 -1.9 -1.9 -1.9 -1.9 -1.9 -1.9 -1.9 -1.9 -1.9 -1.9 -1.9 -1.9 -1.9 -1.9 -1.9 -1.9 -1.9 -1.9 -1.9 -1.9 -1.9 -1.9 -1.9 -1.9 -1.9 -1.9 -1.9 -1.9 -1.9 -1.9 -1.9 -1.9 -1.9 -1.9 -1.9 -1.9 -1.9 -1.9 -1.9 -1.9 -1.9 -1.9 -1.9 -1.9 -1.9 -1.9 -1.9 -1.9 -1.9 -0.4 0.6 1.7 2.8 3 -1.9 -1.9 -1.9 -1.9 -1.9 -1.9 -1.9 -1.9 -1.9 -1.9 -1.9 -1.9 -1.9 -1.9 -1.9 -1.9 -1.9 -1.9 -1.9 -1.9 -1.9 -1.9 -1.9 -1.9 -1.9 -1.9 -1.9 -1.9 -1.9 -1.9 -1.9 -1.9 -1.9 -1.9 -1.9 -1.9 -1.9 -1.9 -1.9 -1.9 -1.9 -1.9 -1.9 -1.9 -1.9 -1.9 -1.9 -1.9 -1.9 -1.9 -1.9 -1.9 29.6 33.2 27.3 21.1 -1.9 -1.9 -1.9 -1.9 -1.9 -1.9 -1.9 -1.9 -1.9 -1.9 -1.9 -1.9 -1.9 -1.9 -1.9 -1.9 -1.9 -1.9 -1.9 -1.9 -1.9 -1.9 -1.9 -1.9 -1.9 -1.9 29.6 46.6 58.5 70.6 92.5 130.9 178.7 207.6 232.3 255.5 282.7 302.1 312.8 336.6 353 354.9 366.2 353.4 337.2 328.3 331.5 341.4 340.1 339.3 358.2 375.1 416.1 444.6 479.5
-1.9 -1.9 -1.9 -1.9 -1.9 -1.9 -1.9 -1.9 -1.9 -1.9 -1.9 -1.9 -1.9 -1.9 -1.9 -1.9 -1.9 -1.9 -1.9 -1.9 -1.9 -1.9 -1.9 -1.9 -1.9 -1.9 -1.9 -1.9 -1.9 -1.9 -1.9 -1.9 -1.9 -1.9 -1.9 -1.9 -1.9 -1.9 -1.9 -1.9 -1.9 -1.9 -1.9 -1.9 -1.9 -1.9 -1.9 -1.9 -1.9 -1.9 -1.9 -1.9 -1.9 -1.9 -1.9 -1.9 -1.9 -1.9 -1.9 -1.9 -1.9 -1.9 -1.9 -1.9 -1.9 -1.9 -1.9 -1.9 -1.9 -1.9 -1.9 -1.9 -1.9 -1.9 -1.9 -1.9 -1.9 -1.9 -1.9 -1.9 -1.9 -1.9 -1.9 -1.9 1.2 2.2 3.4 4.4 4.2 4.1 4 3.5 -1.9 -1.9 -1.9 -1.9 -1.9 -1.9 -1.9 -1.9 -1.9 -1.9 -1.9 -1.9 -1.9 -1.9 -1.9 -1.9 -1.9 -1.9 -1.9 -1.9 -1.9 -1.9 -1.9 -1.9 -1.9 -1.9 -1.9 -1.9 -1.9 -1.9 -1.9 -1.9 -1.9 -1.9 -1.9 -1.9 -1.9 -1.9 -2 -1.9 -1.9 -1.9 -1.9 -1.9 -1.9 -1.9 -1.9 -1.9 -1.9 33.9 35.2 28.9 21.5 3.8 -1.9 -1.9 -1.9 -1.9 -1.9 -1.9 -1.9 -1.9 -1.9 -1.9 -1.9 -1.9 -1.9 -1.9 -1.9 -1.9 -1.9 -1.9 -1.9 -1.9 -1.9 -1.9 -1.9 -1.9 -1.9 21 40.6 52.2 71.7 99.7 142.2 171.4 197.2 227.7 262.7 291.3 305.8 315.3 331.8 347.2 348 352.1 351.3 343.7 329.7 321.8 329.5 331.5 334.8 346.5 359.1 391.4 427.1 455.3
-1.9 -1.9 -1.9 -1.9 -1.9 -1.9 -1.9 -1.9 -1.9 -1.9 -1.9 -1.9 -1.9 -1.9 -1.9 -1.9 -1.9 -1.9 -1.9 -1.9 -1.9 -1.9 -1.9 -1.9 -1.9 -1.9 -1.9 -1.9 -1.9 -1.9 -1.9 -1.9 -1.9 -1.9 -1.9 -1.9 -1.9 -1.9 -1.9 -1.9 -1.9 -1.9 -1.9 -1.9 -1.9 -1.9 -1.9 -1.9 -1.9 -1.9 -1.9 -1.9 -1.9 -1.9 -1.9 -1.9 -1.9 -1.9 -1.9 -1.9 -1.9 -1.9 -1.9 -1.9 -1.9 -1.9 -1.9 -1.9 -1.9 -1.9 -1.9 -1.9 -1.9 -1.9 -1.9 -1.9 -1.9 -1.9 -1.9 -1.9 -1.9 -1.9 -1.9 -1.9 2.7 4.2 4.8 4.9 3.8 2.7 2.9 4.2 2.5 0.6 -1.9 -1.9 -1.9 -1.9 -1.9 -1.9 -1.9 -1.9 -1.9 -1.9 -1.9 -1.9 -1.9 -1.9 -1.9 -1.9 -1.9 -1.9 -1.9 -1.9 -1.9 -1.9 -1.9 -1.9 -1.9 -1.9 -1.9 -1.9 -1.9 -1.9 -1.9 -1.9 -1.9 -1.9 -1.9 -1.9 19.1 26.4 -1.9 -1.9 -1.9 -1.9 -1.9 -1.9 -1.9 -1.9 13.5 26.3 33.5 23.6 11.7 2.7 -1.9 -1.9 -1.9 -1.9 -1.9 -0.2 -1.9 -1.9 -1.9 -1.9 -1.9 -1.9 -1.9 -1.9 -1.9 -1.9 -1.9 -1.9 -1.9 -1.9 -1.9 -1.9 -1.9 -1.9 -1.9 -1.9 30.1 47.9 78.8 106.1 137.9 154.2 183.8 210.2 253 281.2 300.8 316.8 320.5 332.2 347.3 352.4 345.6 338.6 328.2 315.6 314.5 321.1 321.8 334.2 351.4 373 406 438
-1.9 -1.9 -1.9 -1.9 -1.9 -1.9 -1.9 -1.9 -1.9 -1.9 -1.9 -1.9 -1.9 -1.9 -1.9 -1.9 -1.9 -1.9 -1.9 -1.9 -1.9 -1.9 -1.9 -1.9 -1.9 -1.9 -1.9 -1.9 -1.9 -1.9 -1.9 -1.9 -1.9 -1.9 -1.9 -1.9 -1.9 -1.9 -1.9 -1.9 -1.9 -1.9 -1.9 -1.9 -1.9 -1.9 -1.9 -1.9 -1.9 -1.9 -1.9 -1.9 -1.9 -1.9 -1.9 -1.9 -1.9 -1.9 -1.9 -1.9 -1.9 -1.9 -1.9 -1.9 -1.9 -1.9 -1.9 -1.9 -1.9 -1.9 -1.9 -1.9 -1.9 -1.9 -1.9 -1.9 -1.9 -1.9 -1.9 -1.9 -1.9 -1.9 -1.9 2.1 4 5.1 4.9 4.7 5.4 5.1 4.4 4.9 5.3 1.9 -1.9 -1.9 -1.9 -1.9 -1.9 -1.9 -1.9 -1.9 -1.9 -1.9 -1.9 -1.9 -1.9 -1.9 -1.9 -1.9 -1.9 -1.9 -1.9 -1.9 -1.9 -1.9 -1.9 -1.9 -1.9 -1.9 -1.9 -1.9 -1.9 -1.9 -1.9 -1.9 -1.9 -1.9 -1.9 18.2 36.6 48.2 32.6 13.5 4 3.1 -1.9 -1.9 -1.9 3.9 2.6 9.3 16.4 17.6 7.9 2 2.4 -1.9 -1.9 -1.9 -1.9 30 23.8 10.5 -1.9 -1.9 -1.9 -1.9 -1.9 -1.9 -1.9 -1.9 -1.9 -1.9 -1.9 -1.9 -1.9 -1.9 -1.9 -1.9 -1.9 -1.9 -1.9 42.1 74.2 94.8 115.7 134.4 160.8 189.8 226.5 268.1 288.6 311 316.8 330.2 337.3 344.1 336 328.3 315.6 310.9 305.8 311.7 311.9 321.2 338.2 358.2 388.1 411
-1.9 -1.9 -1.9 -1.9 -1.9 -1.9 -1.9 -1.9 -1.9 -1.9 -1.9 -1.9 -1.9 -1.9 -1.9 -1.9 -1.9 -1.9 -1.9 -1.9 -1.9 -1.9 -1.9 -1.9 -1.9 -1.9 -1.9 -1.9 -1.9 -1.9 -1.9 -1.9 -1.9 -1.9 -1.9 -1.9 -1.9 -1.9 -1.9 -1.9 -1.9 -1.9 -1.9 -1.9 -1.9 -1.9 -1.9 -1.9 -1.9 -1.9 -1.9 -1.9 -1.9 -1.9 -1.9 -1.9 -1.9 -1.9 -1.9 -1.9 -1.9 -1.9 -1.9 -1.9 -1.9 -1.9 -1.9 -1.9 -1.9 -1.9 -1.9 -1.9 -1.9 -1.9 -1.9 -1.9 -1.9 -1.9 -1.9 -1.9 -1.9 -1.9 -1.9 2.3 4.9 6.1 7.1 5.1 4.9 4.7 3.9 3.9 5.3 2.5 -1.9 -1.9 -1.9 -1.9 -1.9 -1.9 -1.9 -1.9 -1.9 -1.9 -1.9 -1.9 -1.9 -1.9 -1.9 -1.9 -1.9 -1.9 -1.9 -1.9 -1.9 -1.9 -1.9 -1.9 -1.9 -1.9 -1.9 -1.9 -1.9 -1.9 -1.9 -1.9 -1.9 -1.9 31.7 41.3 48.6 60.6 48.7 29.7 22.6 13.2 3.9 2.2 -1.9 -1.9 4.4 2.8 5.3 15 7.9 4.2 4.1 5.3 3.9 13.6 25 47.6 35.7 19.7 -1.9 -1.9 -1.9 -1.9 -1.9 -1.9 -1.9 -1.9 -1.9 -1.9 -1.9 -1.9 -1.9 -1.9 -1.9 -1.9 -1.9 -1.9 -1.9 36.1 62.7 72.5 84.6 121.2 141 168.6 213.9 236.9 270.6 300.9 308.9 323.4 331.8 328.9 323 315.1 310.2 307.9 298.7 300.7 308.2 312.4 330.1 337.8 369.2 390
-1.9 -1.9 -1.9 -1.9 -1.9 -1.9 -1.9 -1.9 -1.9 -1.9 -1.9 -1.9 -1.9 -1.9 -1.9 -1.9 -1.9 -1.9 -1.9 -1.9 -1.9 -1.9 -1.9 -1.9 -1.9 -1.9 -1.9 -1.9 -1.9 -1.9 -1.9 -1.9 -1.9 -1.9 -1.9 -1.9 -1.9 -1.9 -1.9 -1.9 -1.9 -1.9 -1.9 -1.9 -1.9 -1.9 -1.9 -1.9 -1.9 -1.9 -1.9 -1.9 -1.9 -1.9 -1.9 -1.9 -1.9 -1.9 -1.9 -1.9 -1.9 -1.9 -1.9 -1.9 -1.9 -1.9 -1.9 -1.9 -1.9 -1.9 -1.9 -1.9 -1.9 -1.9 -1.9 -1.9 -1.9 -1.9 -1.9 -1.9 -1.9 -1.9 -1.9 2.9 4.6 6 6 4.6 3.7 4.1 3.4 2.4 2.8 2.4 -1.9 -1.9 -1.9 -1.9 -1.9 -1.9 -1.9 -1.9 -1.9 -1.9 -1.9 -1.9 -1.9 -1.9 -1.9 -1.9 -1.9 -1.9 -1.9 -1.9 -1.9 -1.9 -1.9 -1.9 -1.9 -1.9 -1.9 -1.9 -1.9 -1.9 -1.9 -1.9 -1.9 47.7 70.9 77.4 69 64.1 61.1 46.9 33.5 22.6 14.3 11 8.3 5.8 10 9.2 9.3 15.5 19.3 17.8 18.8 16.2 24.2 47.9 62.1 61.4 44.2 25.5 -1.9 -1.9 -1.9 -1.9 -1.9 -1.9 -1.9 -1.9 -1.9 -1.9 -1.9 -1.9 -1.9 -1.9 -1.9 -1.9 -1.9 -1.9 -1.9 32.5 52.3 56.5 66.7 81.7 128.2 146.7 192.1 216.3 244 278.9 293.4 299.6 312.2 305.5 299.4 300.8 303.5 300 290.5 294 304.3 305.3 313.6 326.2 350.8 374.4
-1.9 -1.9 -1.9 -1.9 -1.9 -1.9 -1.9 -1.9 -1.9 -1.9 -1.9 -1.9 -1.9 -1.9 -1.9 -1.9 -1.9 -1.9 -1.9 -1.9 -1.9 -1.9 -1.9 -1.9 -1.9 -1.9 -1.9 -1.9 -1.9 -1.9 -1.9 -1.9 -1.9 -1.9 -1.9 -1.9 -1.9 -1.9 -1.9 -1.9 -1.9 -1.9 -1.9 -1.9 -1.9 -1.9 -1.9 -1.9 -1.9 -1.9 -1.9 -1.9 -1.9 -1.9 -1.9 -1.9 -1.9 -1.9 -1.9 -1.9 -1.9 -1.9 -1.9 -1.9 -1.9 -1.9 -1.9 -1.9 -1.9 -1.9 -1.9 -1.9 -1.9 -1.9 -1.9 -1.9 -1.9 -1.9 -1.9 -1.9 -1.9 -1.9 -1.9 2.7 3.8 5 4.7 2.8 2.5 3.1 2.6 1.9 2.9 2.8 -1.9 -1.9 -1.9 -1.9 -1.9 -1.9 -1.9 -1.9 -1.9 -1.9 -1.9 -1.9 -1.9 -1.9 -1.9 -1.9 -1.9 -1.9 -1.9 -1.9 -1.9 -1.9 -1.9 -1.9 -1.9 -1.9 -1.9 -1.9 -1.9 -1.9 -1.9 -1.9 8.7 50.2 80.5 98.2 89.9 74.3 63.1 51.2 40.1 29.6 22.8 25.7 27.9 24.5 22.5 17.2 17.9 23.9 38.9 55.2 50.7 42.3 54.2 86.9 95.7 74.9 54.8 31.1 28.2 17.4 -1.9 -1.9 -1.9 -1.9 -1.9 -1.9 -1.9 -1.9 -1.9 -1.9 -1.9 -1.9 -1.9 -1.9 -1.9 -1.9 -1.9 11.1 48.9 51.1 61.1 72 111 142.9 171.8 208.2 227.2 243.2 250.5 278.7 276.6 280.8 288.4 290.7 294.8 288.2 280.7 282.4 292.7 294.6 299.1 313.1 326.5 349.3
-1.9 -1.9 -1.9 -1.9 -1.9 -1.9 -1.9 -1.9 -1.9 -1.9 -1.9 -1.9 -1.9 -1.9 -1.9 -1.9 -1.9 -1.9 -1.9 -1.9 -1.9 -1.9 -1.9 -1.9 -1.9 -1.9 -1.9 -1.9 -1.9 -1.9 -1.9 -1.9 -1.9 -1.9 -1.9 -1.9 -1.9 -1.9 -1.9 -1.9 -1.9 -1.9 -1.9 -1.9 -1.9 -1.9 -1.9 -1.9 -1.9 -1.9 -1.9 -1.9 -1.9 -1.9 -1.9 -1.9 -1.9 -1.9 -1.9 -1.9 -1.9 -1.9 -1.9 -1.9 -1.9 -1.9 -1.9 -1.9 -1.9 -1.9 -1.9 -1.9 -1.9 -1.9 -1.9 -1.9 -1.9 -1.9 -1.9 -1.9 -1.9 -1.9 -1.9 -1.9 1.9 3.7 3.6 2.1 2.6 2.5 2.1 2.3 2.6 -1.9 -1.9 -1.9 -1.9 -1.9 -1.9 -1.9 -1.9 -1.9 -1.9 -1.9 -1.9 -1.9 -1.9 -1.9 -1.9 -1.9 -1.9 -1.9 -1.9 -1.9 -1.9 -1.9 -1.9 -1.9 -1.9 -1.9 -1.9 -1.9 -1.9 -1.9 28.8 34.9 43 43.4 79.5 104.8 103.1 84.5 65.9 55.9 46.7 43.4 49.1 51.7 55.1 47.2 41.1 32.5 38.4 50.8 57.6 88 77.7 67.8 83.2 121.1 116.3 92.3 70.7 42.6 28.8 24.4 -1.9 -1.9 -1.9 -1.9 -1.9 -1.9 -1.9 -1.9 -1.9 -1.9 -1.9 -1.9 -1.9 -1.9 -1.9 -1.9 -1.9 -1.9 20.2 42.9 53.4 73.8 85.6 127.5 144.9 200.7 227.9 228 223.5 237.9 252.5 270.3 268.2 278.2 280.2 282.6 269.9 274.8 284.7 290.1 288.9 295 314.7 327
-1.9 -1.9 -1.9 -1.9 -1.9 -1.9 -1.9 -1.9 -1.9 -1.9 -1.9 -1.9 -1.9 -1.9 -1.9 -1.9 -1.9 -1.9 -1.9 -1.9 -1.9 -1.9 -1.9 -1.9 -1.9 -1.9 -1.9 -1.9 -1.9 -1.9 -1.9 -1.9 -1.9 -1.9 -1.9 -1.9 -1.9 -1.9 -1.9 -1.9 -1.9 -1.9 -1.9 -1.9 -1.9 -1.9 -1.9 -1.9 -1.9 -1.9 -1.9 -1.9 -1.9 -1.9 -1.9 -1.9 -1.9 -1.9 -1.9 -1.9 -1.9 -1.9 -1.9 -1.9 -1.9 -1.9 -1.9 -1.9 -1.9 -1.9 -1.9 -1.9 -1.9 -1.9 -1.9 -1.9 -1.9 -1.9 -1.9 -1.9 -1.9 -1.9 -1.9 -1.9 -1.9 2.7 2.8 2.6 2.4 1.8 1.8 2 2.4 -1.9 -1.9 -1.9 -1.9 -1.9 -1.9 -1.9 -1.9 -1.9 -1.9 -1.9 -1.9 -1.9 -1.9 -1.9 -1.9 -1.9 -1.9 -1.9 -1.9 -1.9 -1.9 -1.9 -1.9 -1.9 -1.9 -1.9 -1.9 -1.9 -1.9 -1.9 45.2 72.5 80.6 73.3 96.1 113.9 109.1 84.8 75.2 66.2 64.1 74 87.9 74.4 68.9 69 62.5 66.4 83.4 89.9 84.4 98.6 96.9 94.2 120.1 151.4 140.2 108.8 85 59.9 36.6 21.3 -1.9 -1.9 -1.9 -1.9 -1.9 -1.9 -1.9 -1.9 -1.9 -1.9 -1.9 -1.9 -1.9 -1.9 -1.9 -1.9 -1.9 -1.9 -1.9 10.3 30.2 74.4 87.1 116.6 134.3 178.6 206.1 211.2 211.9 224 235 243.8 242.3 254.2 266.4 264.5 261.1 261.4 272.6 280.2 280.7 283.2 295.5 314
-1.9 -1.9 -1.9 -1.9 -1.9 -1.9 -1.9 -1.9 -1.9 -1.9 -1.9 -1.9 -1.9 -1.9 -1.9 -1.9 -1.9 -1.9 -1.9 -1.9 -1.9 -1.9 -1.9 -1.9 -1.9 -1.9 -1.9 -1.9 -1.9 -1.9 -1.9 -1.9 -1.9 -1.9 -1.9 -1.9 -1.9 -1.9 -1.9 -1.9 -1.9 -1.9 -1.9 -1.9 -1.9 -1.9 -1.9 -1.9 -1.9 -1.9 -1.9 -1.9 -1.9 -1.9 -1.9 -1.9 -1.9 -1.9 -1.9 -1.9 -1.9 -1.9 -1.9 -1.9 -1.9 -1.9 -1.9 -1.9 -1.9 -1.9 -1.9 -1.9 -1.9 -1.9 -1.9 -1.9 -1.9 -1.9 -1.9 -1.9 -1.9 -1.9 -1.9 -1.9 -1.9 2.4 2.6 2.6 2.5 2.2 2 2 3 -1.9 -1.9 -1.9 -1.9 -1.9 -1.9 -1.9 -1.9 -1.9 -1.9 -1.9 -1.9 -1.9 -1.9 -1.9 -1.9 -1.9 -1.9 -1.9 -1.9 -1.9 -1.9 -1.9 -1.9 -1.9 -1.9 -1.9 -1.9 -1.9 -1.9 33.6 64.1 118.5 130.4 117.1 110.9 111 100.1 87.6 82.1 84.5 99.1 104.3 111.8 120.8 113.5 97.3 93.2 102.5 139.4 139 139.9 139.6 132.1 129 145.1 165.9 148.2 122.8 104.8 81 56.1 29.2 -1.9 -1.9 -1.9 -1.9 -1.9 -1.9 -1.9 -1.9 -1.9 -1.9 -1.9 -1.9 -1.9 -1.9 -1.9 -1.9 -1.9 -1.9 -1.9 -1.9 22 61.6 81 94.9 124.6 148.2 175.2 186.9 199.9 200.8 211.8 220.1 224 234.4 238.7 244 244.2 248.2 256.2 263.4 266.1 265.8 274.7 296.2
-1.9 -1.9 -1.9 -1.9 -1.9 -1.9 -1.9 -1.9 -1.9 -1.9 -1.9 -1.9 -1.9 -1.9 -1.9 -1.9 -1.9 -1.9 -1.9 -1.9 -1.9 -1.9 -1.9 -1.9 -1.9 -1.9 -1.9 -1.9 -1.9 -1.9 -1.9 -1.9 -1.9 -1.9 -1.9 -1.9 -1.9 -1.9 -1.9 -1.9 -1.9 -1.9 -1.9 -1.9 -1.9 -1.9 -1.9 -1.9 -1.9 -1.9 -1.9 -1.9 -1.9 -1.9 -1.9 -1.9 -1.9 -1.9 -1.9 -1.9 -1.9 -1.9 -1.9 -1.9 -1.9 -1.9 -1.9 -1.9 -1.9 -1.9 -1.9 -1.9 -1.9 -1.9 -1.9 -1.9 -1.9 -1.9 -1.9 -1.9 -1.9 -1.9 -1.9 -1.9 -1.9 2.4 2.6 2.5 2.5 2.4 3.2 3.1 2.5 -1.9 -1.9 -1.9 -1.9 -1.9 -1.9 -1.9 -1.9 -1.9 -1.9 -1.9 -1.9 -1.9 -1.9 -1.9 -1.9 -1.9 -1.9 -1.9 -1.9 -1.9 -1.9 -1.9 -1.9 -1.9 -1.9 -1.9 -1.9 2.5 41.4 87.4 131.7 145.5 138.5 125.5 113.3 110.3 104.2 95 101.2 114.8 130.5 152.9 173.9 177.6 165.4 149.7 143.5 173.6 199.1 200.1 187.7 176.6 165.7 153.1 160.4 169.2 151.6 136 113.4 98.2 68.6 44.1 18.3 -1.9 -1.9 -1.9 -1.9 -1.9 -1.9 -1.9 -1.9 -1.9 -1.9 -1.9 -1.9 -1.9 -1.9 -1.9 -1.9 -1.9 -1.9 -1.9 21.5 55.5 68.4 88.1 104.8 131.6 154.7 172.1 182.3 181.3 191.1 201.5 212 218.4 221.5 230.6 233.4 235.9 241.4 252.9 253.1 251.7 260.8 277.3
-1.9 -1.9 -1.9 -1.9 -1.9 -1.9 -1.9 -1.9 -1.9 -1.9 -1.9 -1.9 -1.9 -1.9 -1.9 -1.9 -1.9 -1.9 -1.9 -1.9 -1.9 -1.9 -1.9 -1.9 -1.9 -1.9 -1.9 -1.9 -1.9 -1.9 -1.9 -1.9 -1.9 -1.9 -1.9 -1.9 -1.9 -1.9 -1.9 -1.9 -1.9 -1.9 -1.9 -1.9 -1.9 -1.9 -1.9 -1.9 -1.9 -1.9 -1.9 -1.9 -1.9 -1.9 -1.9 -1.9 -1.9 -1.9 -1.9 -1.9 -1.9 -1.9 -1.9 -1.9 -1.9 -1.9 -1.9 -1.9 -1.9 -1.9 -1.9 -1.9 -1.9 -1.9 -1.9 -1.9 -1.9 -1.9 -1.9 -1.9 -1.9 -1.9 -1.9 -1.9 -1.9 2.2 2.3 2.2 2.6 2.5 1.8 1.4 2.1 -1.9 -1.9 -1.9 -1.9 -1.9 -1.9 -1.9 -1.9 -1.9 -1.9 -1.9 -1.9 -1.9 -1.9 -1.9 -1.9 -1.9 -1.9 -1.9 -1.9 -1.9 -1.9 -1.9 -1.9 -1.9 -1.9 -1.9 32.2 73.6 119.7 145.2 158 148.3 140.7 135.3 120.5 114.8 116.6 126.2 139.1 151.5 172.3 217.7 221.8 220.2 210.3 192.1 196.9 236 232.1 229.2 219.8 203 182.9 171.4 160.7 169.8 155.7 136.1 113.2 90.7 71.6 50.1 32.3 16.8 -1.9 -1.9 -1.9 -1.9 -1.9 -1.9 -1.9 -1.9 -1.9 -1.9 -1.9 -1.9 -1.9 -1.9 -1.9 -1.9 -1.9 -1.9 24.8 55.8 66.4 88.7 105.3 131.2 137 151.4 159.9 165.2 173.6 183.5 200.4 208.7 205.7 209 221.9 224.1 230.6 237.6 240.9 247.3 251.7 261.7
-1.9 -1.9 -1.9 -1.9 -1.9 -1.9 -1.9 -1.9 -1.9 -1.9 -1.9 -1.9 -1.9 -1.9 -1.9 -1.9 -1.9 -1.9 -1.9 -1.9 -1.9 -1.9 -1.9 -1.9 -1.9 -1.9 -1.9 -1.9 -1.9 -1.9 -1.9 -1.9 -1.9 -1.9 -1.9 -1.9 -1.9 -1.9 -1.9 -1.9 -1.9 -1.9 -1.9 -1.9 -1.9 -1.9 -1.9 -1.9 -1.9 -1.9 -1.9 -1.9 -1.9 -1.9 -1.9 -1.9 -1.9 -1.9 -1.9 -1.9 -1.9 -1.9 -1.9 -1.9 -1.9 -1.9 -1.9 -1.9 -1.9 -1.9 -1.9 -1.9 -1.9 -1.9 -1.9 -1.9 -1.9 -1.9 -1.9 -1.9 -1.9 -1.9 -1.9 -1.9 -1.9 2.6 1.9 2.1 2.6 2.6 2.6 2.6 2.6 -1.9 -1.9 -1.9 -1.9 -1.9 -1.9 -1.9 -1.9 -1.9 -1.9 -1.9 -1.9 -1.9 -1.9 -1.9 -1.9 -1.9 -1.9 -1.9 -1.9 -1.9 -1.9 -1.9 -1.9 -1.9 -1.9 53.3 92.6 137.3 164.4 164 159.2 162.4 153.8 141.5 128 126.2 141.8 165.1 191.4 194.7 225 243.6 261.4 269.4 259.6 250.4 241.1 254.3 252.6 246.9 240.6 231.3 210.6 191.7 168.8 163.9 160.8 135.6 111.1 92.7 71.8 57.1 36.4 15.6 -1.9 -1.9 -1.9 -1.9 -1.9 -1.9 -1.9 -1.9 -1.9 -1.9 -1.9 -1.9 -1.9 -1.9 -1.9 -1.9 -1.9 -1.9 24.7 48.6 62.5 92 97.8 113.8 135.1 143.4 150 155.9 160.3 166.3 175 183.3 188.7 199.4 207.2 214.7 224 229.3 236 242.8 242.3 252.2
-1.9 -1.9 -1.9 -1.9 -1.9 -1.9 -1.9 -1.9 -1.9 -1.9 -1.9 -1.9 -1.9 -1.9 -1.9 -1.9 -1.9 -1.9 -1.9 -1.9 -1.9 -1.9 -1.9 -1.9 -1.9 -1.9 -1.9 -1.9 -1.9 -1.9 -1.9 -1.9 -1.9 -1.9 -1.9 -1.9 -1.9 -1.9 -1.9 -1.9 -1.9 -1.9 -1.9 -1.9 -1.9 -1.9 -1.9 -1.9 -1.9 -1.9 -1.9 -1.9 -1.9 -1.9 -1.9 -1.9 -1.9 -1.9 -1.9 -1.9 -1.9 -1.9 -1.9 -1.9 -1.9 -1.9 -1.9 -1.9 -1.9 -1.9 -1.9 -1.9 -1.9 -1.9 -1.9 -1.9 -1.9 -1.9 -1.9 -1.9 -1.9 -1.9 -1.9 -1.9 -1.9 -1.9 2.6 2.6 2.6 2.6 2.6 2.6 -1.9 -1.9 -1.9 -1.9 -1.9 -1.9 -1.9 -1.9 -1.9 -1.9 -1.9 -1.9 -1.9 -1.9 -1.9 -1.9 -1.9 -1.9 -1.9 -1.9 -1.9 -1.9 24 40.1 59.5 68.3 88 117.3 143.9 165.6 168.3 164.7 181 170.9 149.8 146.2 146 148.5 167.5 196 245.8 248.9 252.2 275.3 277.5 279.9 283.9 270.7 257.1 259.3 263.4 253.6 247.3 239.2 230.1 203.5 176.2 159.1 159.5 140.7 115.7 98 79 61.2 39.4 20.6 8.5 -1.9 -1.9 -1.9 -1.9 -1.9 -1.9 -1.9 -1.9 -1.9 -1.9 -1.9 -1.9 -1.9 -1.9 -1.9 -1.9 -1.9 -1.9 23.4 59.4 77.2 96.1 100.5 132.3 138.4 143.1 147.6 147.7 151.2 155.4 162.6 176.5 190.7 198.7 209 215.2 217.5 223.5 232.2 229.8 234
-1.9 -1.9 -1.9 -1.9 -1.9 -1.9 -1.9 -1.9 -1.9 -1.9 -1.9 -1.9 -1.9 -1.9 -1.9 -1.9 -1.9 -1.9 -1.9 -1.9 -1.9 -1.9 -1.9 -1.9 -1.9 -1.9 -1.9 -1.9 -1.9 -1.9 -1.9 -1.9 -1.9 -1.9 -1.9 -1.9 -1.9 -1.9 -1.9 -1.9 -1.9 -1.9 -1.9 -1.9 -1.9 -1.9 -1.9 -1.9 -1.9 -1.9 -1.9 -1.9 -1.9 -1.9 -1.9 -1.9 -1.9 -1.9 -1.9 -1.9 -1.9 -1.9 -1.9 -1.9 -1.9 -1.9 -1.9 -1.9 -1.9 -1.9 -1.9 -1.9 -1.9 -1.9 -1.9 -1.9 -1.9 -1.9 -1.9 -1.9 -1.9 -1.9 -1.9 -1.9 -1.9 -1.9 1.9 2.6 2.6 2.6 2.6 2.6 -1.9 -1.9 -1.9 -1.9 -1.9 -1.9 -1.9 -1.9 -1.9 -1.9 -1.9 -1.9 -1.9 -1.9 -1.9 -1.9 -1.9 -1.9 -1.9 -1.9 16.8 31.9 47.5 66.7 87.6 115.6 157.1 163 166.9 172.5 167.5 167.9 169.5 161 160.2 164.2 160.8 176.8 196.9 240.5 277.7 276.6 272.3 280.6 291.7 282.3 292.2 284.6 268.4 252 244 242.2 237.3 233.5 231.1 209.4 184.5 160.3 148 141.3 124.6 106.2 86.2 63.9 47.3 31.6 24.4 10.4 -1.9 -1.9 -1.9 -1.9 -1.9 -1.9 -1.9 -1.9 -1.9 -1.9 -1.9 -1.9 -1.9 -1.9 -1.9 -1.9 -1.9 -1.9 43.5 72 85.4 101.7 110.3 124.9 124.9 136.8 141.6 144.1 148.4 150.7 165.4 184.2 195.5 205.1 203.4 198 208.4 219.3 217.5 221.2
-1.9 -1.9 -1.9 -1.9 -1.9 -1.9 -1.9 -1.9 -1.9 -1.9 -1.9 -1.9 -1.9 -1.9 -1.9 -1.9 -1.9 -1.9 -1.9 -1.9 -1.9 -1.9 -1.9 -1.9 -1.9 -1.9 -1.9 -1.9 -1.9 -1.9 -1.9 -1.9 -1.9 -1.9 -1.9 -1.9 -1.9 -1.9 -1.9 -1.9 -1.9 -1.9 -1.9 -1.9 -1.9 -1.9 -1.9 -1.9 -1.9 -1.9 -1.9 -1.9 -1.9 -1.9 -1.9 -1.9 -1.9 -1.9 -1.9 -1.9 -1.9 -1.9 -1.9 -1.9 -1.9 -1.9 -1.9 -1.9 -1.9 -1.9 -1.9 -1.9 -1.9 -1.9 -1.9 -1.9 -1.9 -1.9 -1.9 -1.9 -1.9 -1.9 -1.9 -1.9 -1.9 -1.9 -1.9 -1.9 2.6 2.2 1.8 -1.9 -1.9 -1.9 -1.9 -1.9 -1.9 -1.9 -1.9 -1.9 -1.9 -1.9 -1.9 -1.9 -1.9 -1.9 -1.9 -1.9 -1.9 -1.9 -1.9 29.1 56 62.8 68.4 83.1 110.9 140 163 166.6 170.7 172.6 179.8 170.3 164.5 172.9 178.5 173.9 183.5 223 250.2 260.8 286.6 295.4 293.8 286.7 289 289.3 283.8 283.6 274.8 261.2 239.2 228.8 222 225.6 221.3 210.4 186.9 162.5 147.1 132.2 122.3 106.7 87.9 72.4 60.3 40.9 33.8 24 -1.9 -1.9 -1.9 -1.9 -1.9 -1.9 -1.9 -1.9 -1.9 -1.9 -1.9 -1.9 -1.9 -1.9 -1.9 -1.9 -1.9 -1.9 -1.9 50.2 69.7 87.1 104.7 110.3 122.1 126.7 135.2 137.7 138.3 142.9 159 174.2 189.4 193.7 195.2 185.9 190.7 198.7 203.6 217.7
-1.9 -1.9 -1.9 -1.9 -1.9 -1.9 -1.9 -1.9 -1.9 -1.9 -1.9 -1.9 -1.9 -1.9 -1.9 -1.9 -1.9 -1.9 -1.9 -1.9 -1.9 -1.9 -1.9 -1.9 -1.9 -1.9 -1.9 -1.9 -1.9 -1.9 -1.9 -1.9 -1.9 -1.9 -1.9 -1.9 -1.9 -1.9 -1.9 -1.9 -1.9 -1.9 -1.9 -1.9 -1.9 -1.9 -1.9 -1.9 -1.9 -1.9 -1.9 -1.9 -1.9 -1.9 -1.9 -1.9 -1.9 -1.9 -1.9 -1.9 -1.9 -1.9 -1.9 -1.9 -1.9 -1.9 -1.9 -1.9 -1.9 -1.9 -1.9 -1.9 -1.9 -1.9 -1.9 -1.9 -1.9 -1.9 -1.9 -1.9 -1.9 -1.9 -1.9 -1.9 -1.9 -1.9 -1.9 -1.9 -1.9 -1.9 -1.9 -1.9 -1.9 -1.9 -1.9 -1.9 -1.9 -1.9 -1.9 -1.9 -1.9 -1.9 -1.9 -1.9 -1.9 -1.9 -1.9 -1.9 -1.9 36.7 69.9 78.9 82.7 90.9 100.1 110.3 128.9 158.1 173.1 174.5 177.3 181.5 179.9 173.4 182.7 200.4 188.6 207 241.1 268.3 279.7 280 293 303.6 301.7 293.5 288.2 288.8 287.3 278.4 268.6 258.9 244.6 225.1 219.8 221.2 220.3 209.2 186.2 167 144.5 133 112.6 107.2 96 75.5 63.3 47.6 37 16.6 1.2 -1.9 -1.9 -1.9 -1.9 -1.9 -1.9 -1.9 -1.9 -1.9 -1.9 -1.9 -1.9 -1.9 -1.9 -1.9 -1.9 -1.9 -1.9 24.8 44.1 59.5 84.3 94.7 110.7 119 120.4 121.4 128.9 133.3 151.7 166.7 186.3 185.9 184.8 180 180.4 182.8 192.4 209
-1.9 -1.9 -1.9 -1.9 -1.9 -1.9 -1.9 -1.9 -1.9 -1.9 -1.9 -1.9 -1.9 -1.9 -1.9 -1.9 -1.9 -1.9 -1.9 -1.9 -1.9 -1.9 -1.9 -1.9 -1.9 -1.9 -1.9 -1.9 -1.9 -1.9 -1.9 -1.9 -1.9 -1.9 -1.9 -1.9 -1.9 -1.9 -1.9 -1.9 -1.9 -1.9 -1.9 -1.9 -1.9 -1.9 -1.9 -1.9 -1.9 -1.9 -1.9 -1.9 -1.9 -1.9 -1.9 -1.9 -1.9 -1.9 -1.9 -1.9 -1.9 -1.9 -1.9 -1.9 -1.9 -1.9 -1.9 -1.9 -1.9 -1.9 -1.9 -1.9 -1.9 -1.9 -1.9 -1.9 -1.9 -1.9 -1.9 -1.9 -1.9 -1.9 -1.9 -1.9 -1.9 -1.9 -1.9 -1.9 -1.9 -1.9 -1.9 -1.9 -1.9 -1.9 -1.9 -1.9 -1.9 -1.9 -1.9 -1.9 -1.9 -1.9 -1.9 -1.9 -1.9 -1.9 -1.9 46.8 79.9 103.2 113.8 121.3 117.3 122.5 134.1 162.5 176.5 176.6 179.6 179.2 179.1 186.1 184.9 188.9 192.6 195.1 221.9 259.7 286.2 296 298.9 294.8 290.9 308.7 307.2 306.5 298.1 292.1 293.5 279.3 266.3 260.6 240.2 223 218.7 221.9 220.1 204.9 183.5 165.6 145.8 126.2 106.7 93.4 86.8 71.5 59 41.2 25.3 9.4 0.8 -1.9 -1.9 -1.9 -1.9 -1.9 -1.9 -1.9 -1.9 -1.9 -1.9 -1.9 -1.9 -1.9 -1.9 -1.9 -1.9 -1.9 -1.9 -1.9 20.4 30.2 59.3 81.2 88 95.8 98.9 102.9 111.3 119.8 142.1 164.4 179.7 176.4 180.8 178.2 174.3 174 178.8 191.8
-1.9 -1.9 -1.9 -1.9 -1.9 -1.9 -1.9 -1.9 -1.9 -1.9 -1.9 -1.9 -1.9 -1.9 -1.9 -1.9 -1.9 -1.9 -1.9 -1.9 -1.9 -1.9 -1.9 -1.9 -1.9 -1.9 -1.9 -1.9 -1.9 -1.9 -1.9 -1.9 -1.9 -1.9 -1.9 -1.9 -1.9 -1.9 -1.9 -1.9 -1.9 -1.9 -1.9 -1.9 -1.9 -1.9 -1.9 -1.9 -1.9 -1.9 -1.9 -1.9 -1.9 -1.9 -1.9 -1.9 -1.9 -1.9 -1.9 -1.9 -1.9 -1.9 -1.9 -1.9 -1.9 -1.9 -1.9 -1.9 -1.9 -1.9 -1.9 -1.9 -1.9 -1.9 -1.9 -1.9 -1.9 -1.9 -1.9 -1.9 -1.9 -1.9 -1.9 -1.9 -1.9 -1.9 -1.9 -1.9 -1.9 -1.9 -1.9 -1.9 -1.9 -1.9 -1.9 -1.9 -1.9 -1.9 1.6 -1.9 -1.9 5.4 22.9 39.4 64.6 84 95.4 122.1 140 148.4 147.5 152.1 158.7 163.4 168.8 172.9 179.1 178.8 180.4 188.7 193.5 198.7 204.3 203.5 202.5 226.4 261.8 272.7 303.2 320.2 315.6 310.2 301.4 316.4 321.8 316 313.6 303.6 288.7 282.2 266.2 251.7 237.4 226.9 215.7 211.9 209.3 201.6 193.1 179.4 159.3 138 113.1 90.3 74.4 63.3 49.8 35.8 20.7 7.3 4.4 0.9 -1.9 -1.9 -1.9 -1.9 -1.9 -1.9 -1.9 -1.9 -1.9 -1.9 -1.9 -1.9 -1.9 -1.9 -1.9 -1.9 -1.9 -1.9 -1.9 18.8 39 61.1 63.9 72.3 78.5 87.3 93.3 108 136.8 166.8 174.7 170.8 171.9 174.5 169.9 163.2 168.9 180.8
-1.9 -1.9 -1.9 -1.9 -1.9 -1.9 -1.9 -1.9 -1.9 -1.9 -1.9 -1.9 -1.9 -1.9 -1.9 -1.9 -1.9 -1.9 -1.9 -1.9 -1.9 -1.9 -1.9 -1.9 -1.9 -1.9 -1.9 -1.9 -1.9 -1.9 -1.9 -1.9 -1.9 -1.9 -1.9 -1.9 -1.9 -1.9 -1.9 -1.9 -1.9 -1.9 -1.9 -1.9 -1.9 -1.9 -1.9 -1.9 -1.9 -1.9 -1.9 -1.9 -1.9 -1.9 -1.9 -1.9 -1.9 -1.9 -1.9 -1.9 -1.9 -1.9 -1.5 -1.1 -1.2 -1.7 -1.9 -1.9 -1.9 -1.9 -1.9 -1.9 -1.9 -1.9 -1.9 -1.9 -1.9 -1.9 -1.9 -1.9 -1.9 -1.9 -1.9 -1.9 -1.9 -1.9 -1.9 -1.9 -1.9 -1.9 -1.9 -1.9 -1.9 -1.9 -1.9 -1.9 -1.9 4.4 8.5 19 26.3 37.1 55.8 83.8 113.7 131.2 142.8 144 153.7 161.2 166.4 181 190.8 186 182 187.9 191.9 190.9 194.3 201.2 206.2 210.9 209.4 207.5 225.8 271.4 285.9 304 316.9 318 337.9 333.5 314.6 313.5 323.6 322.6 319.6 302.9 289.1 273.7 267 252.4 236.4 224.3 216.5 215.4 219.7 212.1 204 194 168.8 137.3 117.7 98.5 80.8 66.3 51.9 38.8 28.6 9.8 3.8 -1.9 -1.9 -1.9 -1.9 -1.9 -1.9 -1.9 -1.9 -1.9 -1.9 -1.9 -1.9 -1.9 -1.9 -1.9 -1.9 -1.9 -1.9 -1.9 -1.9 3.9 22.3 30.5 39.9 46.2 60.2 69 77.6 98.6 128.6 169 169.7 167.2 164.3 165.3 159.4 155.1 160.5 171
-1.2 -1.9 -1.9 -1.9 -1.9 -1.9 -1.9 -1.9 -1.9 -1.9 -1.9 -1.9 -1.9 -1.9 -1.9 -1.9 -1.9 -1.9 -1.9 -1.9 -1.9 -1.9 -1.9 -1.9 -1.9 -1.9 -1.9 -1.9 -1.9 -1.9 -1.9 -1.9 -1.9 -1.9 -1.9 -1.9 -1.9 -1.9 -1.9 -1.9 -1.9 -1.9 -1.9 -1.9 -1.9 -1.9 -1.9 -1.9 -1.9 -1.9 -1.9 -1.9 -1.9 -1.9 -1.9 -1.9 -1.9 -1.9 -1.9 -1.9 -1.9 0.2 1 1.4 1.3 0.9 -1.9 -1.9 -1.9 -1.9 -1.9 -1.9 -1.9 -1.9 -1.9 -1.9 -1.9 -1.9 -1.9 -1.9 -1.9 -1.9 -1.9 -1.9 -1.9 -1.9 -1.9 -1.9 -1.9 -1.9 -1.9 -1.9 -1.9 -1.9 1.5 3.8 6.4 20.7 37 49 58.6 74.4 87.4 114 143.5 155.8 156.2 184 191.3 198.5 200.1 211.1 216.8 209.7 198.7 202.5 209.2 198.8 207.7 216.2 227.8 222 216.6 223.8 258 290.3 318 336.1 338.1 342.9 333.4 338.9 327 320.8 320.1 319.8 309.6 295.9 282.1 262.8 251.6 243.2 237.2 226.8 221.1 218.5 216 215.2 212.7 208.4 184.2 150.8 133.2 117.2 95.2 77.1 63.5 44.6 25.9 13.2 7.7 -1.9 -1.9 -1.9 -1.9 -1.9 -1.9 -1.9 -1.9 -1.9 -1.9 -1.9 -1.9 -1.9 -1.9 -1.9 -1.9 -1.9 -1.9 -1.9 -1.9 -1.9 -1.9 -1.9 12.9 25.2 36.6 43.4 58.5 79.2 133.3 176.9 166 173.4 164.2 156.4 148.4 151.5 155.3 161.7
0.7 -1.9 -1.9 -1.9 -1.9 -1.9 -1.9 -1.9 -1.9 -1.9 -1.9 -1.9 -1.9 -1.9 -1.9 -1.9 -1.9 -1.9 -1.9 -1.9 -1.9 -1.9 -1.9 -1.9 -1.9 -1.9 -1.9 -1.9 -1.9 -1.9 -1.9 -1.9 -1.9 -1.9 -1.9 -1.9 -1.9 -1.9 -1.9 -1.9 -1.9 -1.9 -1.9 -1.9 -1.9 -1.9 -1.9 -1.9 -1.9 -1.9 -1.9 -1.9 -1.9 -1.9 -1.9 -1.9 -1.9 -1.9 -0.8 0.1 1.8 3.1 4.3 3.7 3.3 3.5 2.6 -1.9 -1.9 -1.9 -1.9 -1.9 -1.9 -1.9 -1.9 -1.9 -1.9 -1.9 -1.9 -1.9 -1.9 -1.9 -1.9 -1.9 -1.9 -1.9 -1.9 -1.9 -1.9 -1.9 -1.9 -1.9 2.5 5.7 6.7 9.4 25.8 46.4 61.8 76.1 98 113 138.7 159.9 177.8 173.7 175.4 213.6 235.6 240.6 237.3 237.9 229.6 217.4 214.3 213.1 211.2 202.5 209.6 223.6 229.7 222.8 231.3 269.2 300.6 321.7 344.7 366.7 366.9 364.9 356 343.7 337.8 325.6 307.7 303.2 304.5 287 277.9 272.9 254.3 243.7 233.9 231.7 223 220.7 213.7 204.5 212.6 206.6 180.8 154.2 138.5 122.7 101.3 81.6 72.2 43.4 34 25 18 18.3 2.9 -1.9 -1.9 -1.9 -1.9 -1.9 -1.9 -1.9 -1.9 -1.9 -1.9 -1.9 -1.9 -1.9 -1.9 -1.9 -1.9 -1.9 -1.9 -1.9 -1.9 -1.9 -1.9 10.3 21.4 26.6 39.4 46.6 120.7 162.1 156.8 157.8 159.2 155.2 146.2 141.5 152.6 156.1
1.5 -1.9 -1.9 -1.9 -1.9 -1.9 -1.9 -1.9 -1.9 -1.9 -1.9 -1.9 -1.9 -1.9 -1.9 -1.9 -1.9 -1.9 -1.9 -1.9 -1.9 -1.9 -1.9 -1.9 -1.9 -1.9 -1.9 -1.9 -1.9 -1.9 -1.9 -1.9 -1.9 -1.9 -1.9 -1.9 -1.9 -1.9 -1.9 -1.9 -1.9 -1.9 -1.9 -1.9 -1.9 -1.9 -1.9 -1.9 -1.9 -1.9 -1.9 -1.9 -1.9 -1.9 -1.9 -1.9 -1.9 -0.2 1 2.3 4.4 4.9 5.2 4.6 3.9 4 2.8 -1.9 -1.9 -1.9 -1.9 -1.9 -1.9 -1.9 -1.9 -1.9 -1.9 -1.9 -1.9 -1.9 -1.9 -1.9 -1.9 -1.9 -1.9 -1.9 -1.9 -1.9 -1.9 -1.9 0.3 3.1 7.2 9.3 11.6 26.8 48.1 67.2 81.7 121.1 142.9 153.7 163.3 180.1 180.8 186.3 193.8 220.2 231 243.9 250.3 251.1 248.7 236.3 226.4 229.4 221.7 213.4 216.6 225.4 230.7 234.5 273.1 305.5 328.1 352.3 362.3 367.1 371 367.4 359.9 352.8 342.5 330 306.2 292.1 287.3 283.4 271.8 270.1 257 250.7 247.4 242.1 227.7 220.4 206.7 193.1 195.7 192.3 167.5 148 129.6 111.6 96 80.8 66.9 49.5 45.6 29.1 24.1 10.6 3.5 -1.9 -1.9 -1.9 -1.9 -1.9 -1.9 -1.9 -1.9 -1.9 -1.9 -1.9 -1.9 -1.9 -1.9 -1.9 -1.9 -1.9 -1.9 -1.9 -1.9 -1.9 -1.9 -1.9 3 5.9 15.7 42.6 94.9 134 146.1 146.6 142.3 143.3 145.1 132.4 144.8 143.1
2 -1.9 -1.9 -1.9 -1.9 -1.9 -1.9 -1.9 -1.9 -1.9 -1.9 -1.9 -1.9 -1.9 -1.9 -1.9 -1.9 -1.9 -1.9 -1.9 -1.9 -1.9 -1.9 -1.9 -1.9 -1.9 -1.9 -1.9 -1.9 -1.9 -1.9 -1.9 -1.9 -1.9 -1.9 -1.9 -1.9 -1.9 -1.9 -1.9 -1.9 -1.9 -1.9 -1.9 -1.9 -1.9 -1.9 -1.9 -1.9 -1.9 -1.9 -1.9 -1.9 -1.9 -1.9 -1 -0.1 1.1 2.2 3.5 5.2 6 6.6 5.6 4.9 4.4 3.5 -1.9 -1.9 -1.9 -1.9 -1.9 -1.9 -1.9 -1.9 -1.9 -1.9 -1.9 -1.9 -1.9 -1.9 -1.9 -1.9 -1.9 -1.9 -1.9 -1.9 -1.9 -1.9 0.9 2.9 10.4 16.2 24.5 42.1 57.8 72.1 91.5 125.5 160.6 167.7 179.4 185 186.6 195.4 206.2 219.5 246.6 260.6 268.1 270 266.5 259.7 248.9 238.4 238.2 228.9 220.3 220 224.8 232.6 257.9 290.6 321.2 346.1 370.9 381.2 379.5 374.4 375.7 367.8 358.6 343.7 326.7 310.9 292.9 286.3 280.4 272.9 267.8 269.6 260.1 262.5 247.2 231.7 223.6 211.8 197.8 179.8 175.5 155.8 141.2 131.1 108.7 95.5 78.2 59.1 58.7 53.2 33 21.2 13.6 8.1 1.3 -1.9 -1.9 -1.9 -1.9 -1.9 -1.9 -1.9 -1.9 -1.9 -1.9 -1.9 -1.9 -1.9 -1.9 -1.9 -1.9 -1.9 -1.9 -1.9 -1.9 -1.9 -1.9 -1.9 -1.9 -1.9 27.7 79.7 130.7 133.1 129 125.8 121.7 125 122.5 132.7 131.6
4.6 1.5 -1.9 -1.9 -1.9 -1.9 -1.9 -1.9 -1.9 -1.9 -1.9 -1.9 -1.9 -1.9 -1.9 -1.9 -1.9 -1.9 -1.9 -1.9 -1.9 -1.9 -1.9 -1.9 -1.9 -1.9 -1.9 -1.9 -1.9 -1.9 -1.9 -1.9 -1.9 -1.9 -1.9 -1.9 -1.9 -1.9 -1.9 -1.9 -1.9 -1.9 -1.9 -1.9 -1.9 -1.9 -1.9 -1.9 -1.9 -1.9 -1.9 -1.9 -1.9 -1.9 -0.9 0 1 2 4.1 4.4 5.7 6.5 7.2 7.4 6.2 5.8 4.7 2.3 -1.9 -1.9 -1.9 -1.9 -1.9 -1.9 -1.9 -1.9 -1.9 -1.9 -1.9 -1.9 -1.9 -1.9 -1.9 -1.9 -1.9 -1.9 -0.5 0.6 1.9 5.7 34.1 48.2 62 73.7 78.2 91 110.2 134.7 165.2 172.7 177.3 177.9 183.1 193.5 208.7 244.7 249.5 263.2 277.2 283.9 282.1 279.5 269.6 258.7 249.9 243.6 236 234 231.8 230.4 239.6 272.6 302.3 334.8 355.5 382.5 385.2 382.1 372.5 372.1 369.4 352.6 336.3 320 312.6 300.3 285.8 278.3 271.3 268.1 261.1 264.7 261.8 252.5 235 221.4 211.1 205.5 190.3 164.4 149.4 136.4 122.7 108.6 94.1 87.8 78.4 65.9 53 46.3 44.4 31 26.4 12.8 -1.9 -1.9 -1.9 -1.9 -1.9 -1.9 -1.9 -1.9 -1.9 -1.9 -1.9 -1.9 -1.9 -1.9 -1.9 -1.9 -1.9 -1.9 -1.9 -1.9 -1.9 -1.9 -1.9 -1.9 -1.9 -1.9 52 92.2 105.4 110 104.6 103.2 100.9 111.3 124 122.2
8.1 2.4 -1.9 -1.9 -1.9 -1.9 -1.9 -1.9 -1.9 -1.9 -1.9 -1.9 -1.9 -1.9 -1.9 -1.9 -1.9 -1.9 -1.9 -1.9 -1.9 -1.9 -1.9 -1.9 -1.9 -1.9 -1.9 -1.9 -1.9 -1.9 -1.9 -1.9 -1.9 -1.9 -1.9 -1.9 -1.9 -1.9 -1.9 -1.9 -1.9 -1.9 -1.9 -1.9 -1.9 -1.9 -1.9 -1.9 -1.9 -1.9 -1.9 -1.9 -1.9 -1.1 -0.2 0.9 1.8 3.7 5.6 6 6.7 8.1 9.4 11.2 7 6.2 5.1 3 -1.9 -1.9 -1.9 -1.9 -1.9 -1.9 -1.9 -1.3 -1.9 -1.2 0.3 0.5 0.4 0.1 0.4 0.5 0.6 0.8 1.5 3.3 19.8 37.6 54.8 74.4 86.8 103.5 113.5 136.3 142.6 163.1 175.3 175.7 177.5 179.7 185.4 202.4 241.1 256.2 278.4 289.1 301.2 296.3 296 289.2 277.3 267.1 263.2 251.8 246.3 248.3 248.2 250.4 265.4 283.9 312.8 344 368.6 374.4 379.4 371 361.9 356.4 355.9 343.4 326.4 310.8 309.8 298.4 287.1 275.1 269.4 275 272.9 272.4 267.5 257 238.1 231 215.7 206.8 193 171.8 153.5 138 128 113.7 104.9 108.4 98.5 79 59.2 64.1 59.3 38 38.1 25.6 10.2 -1.9 -1.9 -1.9 -1.9 -1.9 -1.9 -1.9 -1.9 -1.9 -1.9 -1.9 -1.9 -1.9 -1.9 -1.9 -1.9 -1.9 -1.9 -1.9 -1.9 -1.9 -1.9 -1.9 -1.9 -1.9 14.4 56.9 73.6 87.4 88.7 83.7 83 101.4 108.8 110.8
8.4 2.8 -1.9 -1.9 -1.9 -1.9 -1.9 -1.9 -1.9 -1.9 -1.9 -1.9 -1.9 -1.9 -1.9 -1.9 -1.9 -1.9 -1.9 -1.9 -1.9 -1.9 -1.9 -1.9 -1.9 -1.9 -1.9 -1.9 -1.9 -1.9 -1.9 -1.9 -1.9 -1.9 -1.9 -1.9 -1.9 -1.9 -1.9 -1.9 -1.9 -1.9 -1.9 -1.9 -1.9 -1.9 -1.9 -1.9 -1.9 -1.9 -1.9 -1.9 -1.9 -0.5 0.6 1.6 2.7 5.6 6.5 7 8.2 9.6 10.4 10.6 7.9 6.5 5.9 4.2 1.7 -1.9 -1.9 -0.5 -0.1 0.2 0.7 1.3 -1.9 -1.9 1.6 2.4 2.5 -1.9 -1.9 -1.9 -1.9 2.6 15.4 33.6 50.6 68.3 81 98.2 112.5 131 147 159.9 164.3 170.6 175.8 180.6 185.4 191.7 204.3 224.1 253.9 269.8 282.6 295.3 302.7 301.8 293.8 289.4 281.5 278.7 271.1 260.9 255.6 250 271.7 283.8 298.8 292.2 319.1 337.2 358.7 368.1 370.3 369.2 359.8 354.1 346.3 339.7 330.9 317.7 304.3 299.2 288.4 278.2 279.4 285.7 280.8 275.5 267.7 255.2 255.9 241.9 225.3 206.3 190.2 172.7 154 140.1 135.2 120.5 131.6 123.1 101 85.6 69.8 68.3 51.8 38.9 39.6 33.2 17.4 3.6 -1.9 -1.9 -1.9 -1.9 -1.9 -1.9 -1.9 -1.9 -1.9 -1.9 -1.9 -1.9 -1.9 -1.9 -1.9 -1.9 -1.9 -1.9 -1.9 -1.9 -1.9 -1.9 -1.9 -1.9 -1.9 33.4 50.9 58.7 70.8 64.1 65.8 82.7 93.2 100.5
3.6 -1.9 -1.9 -1.9 -1.9 -1.9 -1.9 -1.9 -1.9 -1.9 -1.9 -1.9 -1.9 -1.9 -1.9 -1.9 -1.9 -1.9 -1.9 -1.9 -1.9 -1.9 -1.9 -1.9 -1.9 -1.9 -1.9 -1.9 -1.9 -1.9 -1.9 -1.9 -1.9 -1.9 -1.9 -1.9 -1.9 -1.9 -1.9 -1.9 -1.9 -1.9 -1.9 -1.9 -1.9 -1.9 -1.9 -1.9 -1.9 -1.9 -1.9 -1.9 -1.9 -0.1 1.2 2.3 4.3 6.5 7.6 7.4 6.8 9.6 9.8 8.2 6.4 6.2 5.9 5.9 4.5 2 -1.9 0.6 1.5 2 3.2 3.5 -1.9 -1.9 -1.9 2.6 2.6 -1.9 -1.9 -1.9 -1.9 5 36.4 55 80.1 96.6 111 123.1 143.8 176.5 167.2 167.9 171.3 177.5 181.5 187.8 201.3 231.4 236.7 252.4 267.5 269.9 278.4 288.9 294.1 296.2 292.9 288.6 281 277.7 270.6 258.8 258.2 277.5 291.3 323.1 324 326.7 334.5 355.2 355.1 367.4 369.6 369.2 366.1 356.3 349.8 344.9 335.8 321.4 308.3 297.1 290.5 296 298.2 286.9 280.8 277.3 272 276.9 265.6 238.3 213.2 200.5 186.6 168.9 157.2 144.7 139 136.8 140.8 120.8 103.9 91.1 90.2 68.7 49.5 42.9 34 26.6 15.8 1.3 -1.9 -1.9 -1.9 -1.9 -1.9 -1.9 -1.9 -1.9 -1.9 -1.9 -1.9 -1.9 -1.9 -1.9 -1.9 -1.9 -1.9 -1.9 -1.9 -1.9 -1.9 -1.9 -1.9 -1.9 -1.9 -1.9 38.6 43.9 45.3 47.4 46.7 59.2 77.8 89.7
