ncols 200
nrows 93
xllcorner 110000
yllcorner 922400
cellsize 50
137 127.8 128.2 127.3 124.7 121.8 116.1 112.8 108.1 105.3 96.8 100.6 107.2 110.1 107.1 111.1 110.9 108.9 103 115.6 116.6 117.6 111.5 93.9 75.4 61.4 53.9 45.6 45.6 45.6 45.6 45.6 45.6 45.6 46 47.3 49.4 48.9 50.4 52.4 55.9 57 56.6 55.5 54.6 57.6 58.3 56.8 56 57.2 55.7 46 42.8 42.6 38.7 38.5 31.8 15 -1.8 -1.8 -1.8 -1.8 -1.8 -1.8 -1.8 -1.8 -1.8 -1.8 11.3 16.6 26.2 35 34.6 33.3 36.9 38 35.8 35.8 39.7 44.3 58.2 64.3 67.4 73.7 78.6 86 90.6 100.1 106.7 106.7 110.1 114.6 117.3 122 128.8 135.4 128.7 124 128.3 129.7 131.5 126.1 119.7 116 101.8 96.8 94.3 93.4 93.3 93.1 93.2 93.8 94.4 94.7 93.4 93 91.5 90.7 98.6 97.5 101.2 105.6 110.6 117.3 125.2 122.8 125.6 122.2 118 116.8 116 113.8 100.4 105.5 101.5 99 97.1 96.7 87.5 86.4 86.3 85.9 83.6 85.3 84.3 82.5 84 81.4 78.3 76.8 77.5 75.9 74.9 71.9 68.3 66.9 64.8 59.2 58.5 59.1 59.9 60.1 61.5 64.8 70.9 71.3 69.7 67.9 73.1 76.4 76.3 76.7 74.9 71 69.2 67.3 61.5 68 63 61.5 61.5 61.5 61.5 61.5 61.5 61.5 65.7 66.9 69.2 75.2 86.3 88.5 87.6 85.7 84.4 86.2 82 67.3 63.1 61.9
142.3 131.8 127.9 127.9 127.3 125.4 119.7 112.6 113 110.6 107.9 116.4 119.5 119 124.8 133.1 133.6 135.6 120.1 128.5 127.5 125.3 126.3 94.9 79 64.7 56.4 49 45.6 45.6 45.6 45.6 45.6 45.6 45.6 49.6 50.2 49.5 50.7 51.9 56.5 56.3 57.7 54.4 52.1 51.7 50.6 50 50.9 54 54.8 44.2 47.2 43.8 38.9 39.6 28.6 21.5 -1.8 -1.8 -1.8 -1.8 -1.8 -1.8 -1.8 -1.8 -1.8 -1.8 10.8 17.1 26.1 38 38.4 35.7 37 35.8 35.8 35.8 35.8 39.7 46.6 61.9 65.1 69.5 75.6 81.8 87 102.6 108.8 107.7 110.4 112.1 115.5 119.2 127 125.8 124.1 122.5 127.5 130.5 129.8 125.7 118 113.1 102 96.1 93.1 93.1 93.6 92.3 92.6 94 95.4 95.8 95.1 93.5 91.7 90 92.6 92.3 96.3 102.8 108.6 116.3 117.2 117.5 118.6 117.8 116.7 113.4 111.2 108.9 97.5 101.2 99.2 99.6 99.7 96 87 82.7 80.3 83 82.1 82 84.8 81.9 82.2 80.4 78 75.6 74.1 75.2 75.1 71.4 68.9 67.3 66.1 59.4 56 58.3 57.2 57.9 60.8 65.2 66.8 68.1 66.7 67.8 72.5 76.1 77.4 76.5 76.1 71.1 68.9 67.7 61.5 67.4 61.5 61.5 61.5 61.5 61.5 62.5 64.9 68.3 70.2 69.7 72 76.4 85.6 91.7 92.4 90.4 90.8 88.2 82.2 65.1 60.2 57.9
145.7 139.5 132.2 131.2 128.7 128 126.5 115.5 117.3 119.6 117.4 122.2 129.3 133 145.2 148.7 152 151.2 139.9 131.3 138.9 133 121 93.9 75.6 64.3 57.5 50.8 46.6 45.6 45.6 45.6 45.6 45.6 45.6 50 51.1 50.4 50.9 52.2 55.1 55.1 56.5 53.4 50.9 46.6 43.7 43 42.4 48.6 51 48.5 44.7 41.4 37.6 34.7 33 22.9 -1.8 -1.8 -1.8 -1.8 -1.8 -1.8 -1.8 -1.8 -1.8 -1.8 8.6 18.2 26.7 41.3 44.2 38.2 38.2 38.6 37 37.1 35.8 35.8 41.9 54.2 62.4 67.6 71.3 76.7 84.6 94.8 109.4 107 109.2 111.3 111.7 118 123.4 121.4 118 121.5 122.3 124.3 124.5 120.7 114.8 107.8 98.1 93.7 90.2 89.5 88.1 89.7 91.2 94.3 95.8 96.1 95.7 94.3 92.5 90.4 89.5 88.9 94.5 100.4 105 111.1 114.8 112.4 113.7 114.4 114.3 110.8 105.5 110.9 95.8 99.8 98.5 96.2 95.8 92.8 86.2 79.2 78 79.5 81.9 79.4 79.4 82.1 82.6 79.8 77.8 75.7 71.5 75 75.8 72.3 68.5 67.9 66.9 59.1 55.2 54.8 56.3 56.8 57.1 60.6 66.7 68.4 65.8 69.9 72.5 76.1 78.5 76.2 76.6 71.3 68 63.8 61.5 65.3 61.5 61.5 66.5 65.6 61.5 61.5 69.9 75.7 73.7 73.8 73.8 75.5 85.4 98.6 98.1 93.4 90.2 83.3 77.5 62.1 60.2 56.8
150.5 147.1 134.9 129.8 127.9 128.4 126.6 121.3 122.1 126 127.6 130.4 143.2 151.1 155 161.8 163.5 159.6 147.1 137.7 147.5 139.5 116.5 92.7 74.8 66.5 59.8 53.3 49.8 45.6 45.6 45.6 45.6 45.6 45.6 51.8 52.5 51.6 51.5 52.5 53 54.3 55.1 50.6 49.1 49.2 46.2 40 37.9 36.6 41.9 43.5 38.1 39.6 42.7 41.2 34.4 28.1 -1.8 -1.8 -1.8 -1.8 -1.8 -1.8 -1.8 -1.8 -1.8 -1.8 7.9 18.3 26.8 44.4 46 42 39.5 40.3 41.2 41.6 39.8 35.8 39 43.2 58.9 66.2 67.8 71.8 77.1 88.5 100.9 103.2 103.3 106.7 109.9 114.7 114.3 109.6 113.9 116 115.3 117.4 117.4 114.7 110.9 102.3 95.3 93.2 88.9 87.2 86.5 90.2 94.6 96.9 97.4 98.5 97.6 96.8 94.4 90.7 88.4 86.2 90.8 98.5 104 106.8 110 108.5 109.9 108.1 108.6 107 101.7 103.2 93.1 93.3 96.5 95.5 96.6 90.8 83.2 80.4 77.7 77.5 83 81.5 79.4 82.7 82.2 81.1 76.8 73 65.7 70.7 75.6 72.3 67.6 67.5 63 58.4 55.3 55.1 56.3 56.7 56.5 58 64.4 67.5 64.2 69.6 70.8 71.2 74.9 74.1 75.5 69.5 66 61.5 61.5 61.5 61.5 67.3 66.9 65.7 61.5 64.3 75.9 78.6 75.8 76.8 75.5 76.3 89.8 98.3 99.2 89.3 85.9 79.9 75 63.5 57.1 54.4
156.1 151.3 138 132.1 127.9 127.8 127.4 129.1 128 130.4 134.2 141.3 152.9 160 165.6 172 172.6 161.6 156.5 151 142.1 130.4 117.2 97.4 77.1 68.9 62 55.3 51.9 46.7 45.6 45.6 45.6 45.6 45.6 45.6 51.8 52.2 51.6 52 52.4 53 53 51.3 49.2 51.4 49.4 44.7 42.5 40.6 34.6 45 37.4 33.6 34.1 40.2 35.1 27.2 -1.8 -1.8 -1.8 -1.8 -1.8 -1.8 -1.8 -1.8 -1.8 -1.8 4 14.3 22.1 37.6 44.4 46.4 42.7 42.1 44.1 46.2 44.2 40 38.5 40 46.5 56.9 62.1 68.6 70.3 77.6 85.8 96.4 99.1 101.9 106.4 108.5 109.2 107.5 107.8 113.6 111.7 114.8 112.5 110.6 105.7 98.9 94.3 92 87.8 85.7 86.1 90.9 96.1 97.9 97.7 97.3 99 99 90.7 89.2 89.6 85.9 85.1 91.6 101.1 105.2 102.7 103 104.8 104.7 105.7 107.6 100 94.5 89.9 90.1 92.3 92.1 94.7 89.3 82.6 79 76.8 76.4 81.3 83.2 79.4 79.4 79.8 82.9 76.4 73.5 65.7 65.7 72.6 69.2 66.3 64.8 62.6 58.8 55.8 55.4 56.5 56.6 56.3 57.7 59.7 60.7 61 62.6 65.7 66 69.2 70.2 69.4 65.8 64.2 61.5 61.5 61.5 62.7 68.2 68.6 68.3 67.6 70.2 75 81 77.5 77.3 76.2 78.4 85.3 91.6 93.6 88.9 87.4 82.8 75.9 67.2 63.9 55.9
156.1 151.1 140.3 134.7 128.2 127.3 128.9 130.2 132.5 134.6 137.5 143.3 158.2 167.5 168.7 175.6 174 164.8 173 162.8 138.2 134.3 117.3 96.7 80.3 71.7 66.9 57 53.5 51.4 50.4 45.6 45.6 45.6 45.6 45.6 52.7 54.2 52.6 53 52.4 55.4 57.1 55.1 52.9 53.9 53 48 44 41.7 37.3 34.5 34.4 32.7 29.9 29.4 26.2 25.2 16.7 -1.8 -1.8 -1.8 -1.8 -1.8 -1.8 -1.8 -1.8 -1.8 1.9 7.6 16.6 28.6 41.1 43.6 41.7 42.7 45.8 49.2 47.8 42.1 39.5 39.6 41.9 49.4 55.7 64.4 67.2 75.4 83.7 94 95.9 98.1 99.1 104.6 105.7 103.1 103.4 106.4 110.1 109.6 111.1 108.1 101.9 94.9 93 90.6 85.6 85.9 84.1 90 91.1 90.4 94.3 97.4 100.1 97.2 88.5 87.4 89.6 86.3 81.4 86 93.8 96.7 95.8 100.6 104.9 101.7 100.2 98.6 98.7 95.4 85.4 88.7 86.5 87.7 88.4 81 80 78.8 76.1 75.7 78.4 81.6 81.7 79.4 82.2 82.2 74.9 72.2 65.7 68.8 74.4 67.7 66.1 64.6 62.4 58.5 55.1 52.6 55.8 56.7 56.8 56.7 57.7 57.2 58.3 59.1 61.4 63.5 64.6 65.2 65.2 64.2 64.1 62.1 61.5 65.1 69.2 72.6 73.1 72.5 73.4 73.8 75.8 79 78.4 77 77.6 80.6 84.5 90.2 93.2 89.7 85.7 81.4 75.9 67.7 67.6 57.9
154.3 148.9 142.4 134.7 128.6 127.3 129.5 132.8 134.7 137.4 141.7 145.9 156.8 166.1 171.4 172.7 169 175.7 182.1 165.4 137.6 132.2 112.4 98.3 85.1 74.2 67.3 58.3 55.2 56.1 52.6 49.4 45.6 45.6 45.6 45.6 54.1 58.6 53.1 53.6 55.2 57.1 59.6 56 55.5 55.4 54.6 49.5 45.5 41.3 37.8 33.7 31.4 30.5 30.8 30.1 26.2 19 10.3 -1.8 -1.8 -1.8 -1.8 -1.8 -1.8 -1.8 -1.8 -1.8 -1.8 6 10.4 24.6 32.1 34.8 36.8 44 47 50.2 48.8 43.6 39.5 38.3 40.3 45.3 48.8 55.7 63.6 68.6 79.9 83.1 90.4 93.7 95.7 97.8 99.3 100.5 98.5 100.4 101.1 103.8 104.2 102.6 100.2 94.6 92.9 89.1 85 84 81.3 82.4 84.3 85.9 92.8 96.2 99.4 94.7 86.7 86.4 88.2 83.6 76.8 80.2 86 86.3 89.2 95 98.3 100.6 96.7 96.9 95.2 91.5 82.7 86.2 81.8 84.9 78.5 77.7 79 78.7 76.5 75.5 77.7 79.9 82.3 79.3 79.7 75.7 72.5 69.9 65.7 68.8 67.4 66.6 65.4 65.5 63.4 59.3 53.7 51.6 55 55.7 55.5 55.6 56.2 54.3 56.2 57.2 60.5 62.2 63.6 63.6 64.1 64.2 64.2 63.4 63.2 66.4 73.1 76.1 76.7 77.8 78.4 77.2 76.6 78.8 79.7 78 77.5 82.3 83.3 90.1 91.9 90.9 87.6 82.9 78.8 67.7 63.6 59.1
147.4 145.8 140.7 135.3 128.3 124.5 127.5 133.3 135.1 140 144.6 145.7 153.5 160.9 172.2 172.5 168.3 178.9 176.1 157.7 141.9 121.9 109.6 98.5 84.6 73.1 65.9 59.2 56.3 54.3 53 51 45.6 45.6 45.6 45.6 52.8 54.9 52.1 56.1 57.1 59.2 62.5 57.8 56.9 56.3 57 51.8 46.8 43.2 36.9 34 38.7 30.6 26.8 26.1 24.4 20.9 9.9 -1.8 -1.8 -1.8 -1.8 -1.8 -1.8 -1.8 -1.8 -1.8 -1.8 1.8 6.7 14.8 23.6 29 32.7 42.2 47.1 49.5 47.9 42.5 40.2 38.1 38.3 42.4 47.1 49.6 56.1 65 72.1 75.3 84.4 88 88.5 93.4 95.3 94 95.7 96.5 97.5 99.7 99.4 98 96.9 92.6 92.1 87 82.6 79.8 80.5 81.2 83.3 85 87.2 90.4 94.7 91.5 85.4 83.7 87.3 80.9 74.6 76.1 84 83.6 86.7 84.7 86.5 94.1 91.3 93.1 91.6 87.1 80.1 75 73.2 80.4 75.3 75.7 78.3 78.6 76.9 74 76 78.1 76.5 75.1 73.3 72.5 71.6 71.4 67.5 68.6 66.8 63.6 65.2 64.5 61.9 56.3 49.1 52.4 53.2 49.7 52.4 53.2 53.3 52.8 54.2 56.5 57.9 60.6 62.8 62.3 62.6 64.5 63.8 63.5 66.6 71.3 76.1 78.9 79.1 82.2 82.2 79.8 77.9 78.8 78 76.3 76.4 82.9 80.8 84.2 88.2 87.8 85 82.6 80 67.5 63.3 57.1
143.1 141.1 138.1 132.5 128.4 124.8 123.9 127.6 135.3 140.3 146 148.2 149.8 158.8 162.9 166.2 169 169.6 157.7 145.7 129.8 118.1 107.9 96.3 84.3 73.3 63.1 57.7 56.2 54.7 52.3 50.7 45.6 45.6 45.6 45.6 45.6 45.6 52.4 57.6 58.9 60.5 63.9 60.3 56.3 57.6 59.4 54.4 46.9 43.4 38 35 37.2 31.9 29.9 30.1 16.8 16.9 11.9 -1.8 -1.8 -1.8 -1.8 -1.8 -1.8 -1.8 -1.8 -1.8 -1.8 -1.8 6.2 10.7 17 27.4 29.8 36 41.2 47.5 43.8 41.6 40.8 39.7 37.3 38.6 43.7 46.8 52.1 55.7 63.7 71.9 74.1 78 80.5 89 92.2 91.3 91.9 91.4 92.4 92.5 92.3 93.2 91.4 88.7 89.4 83.6 81 78.1 82.2 81.4 81.2 85.6 87.1 87.7 91.3 89.7 83.3 81.3 84.9 78.5 74 73.5 80.6 81.3 81.3 82.5 81.4 86.7 86.7 83.4 85.3 79.7 73.7 70.6 70.4 74.4 74.9 75.6 77.6 79.8 78.6 72.4 75.3 76.8 76.6 75.8 75.5 73.4 72 71.8 68.4 69.9 67.8 64.1 62.3 62.4 61.2 55.8 49 49 50.1 49 51.6 51.6 51.8 53.1 53.8 55.5 56.9 58 60.1 59.8 61 62 61.8 60.4 71.5 74.7 78.7 79.8 80.8 84.8 84.3 81.5 78.6 77.5 75.6 76.4 75.9 76.9 79.7 79.3 81.8 83.1 80.1 78.7 73.2 66.7 61.3 55.4
138.8 138.3 135.7 130.4 126.8 124.1 122.6 123.8 131.8 136.3 147.3 146.9 145.3 153.4 155.3 153 156.6 152.8 148 144.3 133.4 118 106.6 93.6 83.3 72.8 64.4 58.2 56.1 53.9 52.4 51.5 45.6 45.6 45.6 45.6 45.6 45.6 48.6 58.4 58.6 61.9 61.4 59.5 56.3 56.3 60 53.7 47.9 41.6 40.9 37.8 37.6 35.2 31.6 34.2 27.6 10.7 -1.8 -1.8 -1.8 -1.8 -1.8 -1.8 -1.8 -1.8 -1.8 -1.8 -1.8 -1.8 6.1 9 14.4 20.6 26.2 29.6 38.3 39.8 40.5 40.3 40.9 41.3 38.3 36.1 38.8 43.7 48.9 51.1 54.4 64 65.9 74.8 76.6 83.3 90 86.7 85.5 87.2 87.2 87.8 86.9 88.9 87.8 83.9 85.7 82.1 81.6 75.6 80 81.4 82.7 87.6 88.6 89.3 87.7 88.5 82.1 77.9 80.5 75.4 72.9 72.4 76.6 77.9 78.1 76.8 74.6 75.1 75.1 72.8 73.4 69.9 67.5 66.3 68 69.8 73.8 75.7 76.7 77.2 76 70.8 73.9 75.6 75.4 75.9 74.6 73.5 71.8 70.3 69.3 69.9 69.2 66 63.3 60.8 56.2 51.2 49 49 49 49 53 52.9 52.9 53.1 54.4 54.3 55.5 56.9 57.7 57.7 57.9 58.7 59.3 62.9 71.5 76.8 78.8 81.1 82.2 84 84.2 79.8 78.9 76.5 75.4 75.4 74.8 74.7 78.8 77.7 77.2 77.7 78.9 79.2 72.7 63.6 60 56.4
136.3 135.4 132.6 127.9 124.7 123.9 122 118.8 128.2 133.8 139.9 141 139.5 141.2 149.4 149.7 154.3 155.3 154.9 148.4 136.1 120.2 97.7 86.2 76.3 73.1 66.1 60.8 55.8 54.2 52.2 50.3 45.6 45.6 45.6 45.6 45.6 45.6 45.6 56 57.8 59.9 59.8 59.1 58.5 57.5 59.8 51.8 48.3 42.3 40.7 39.1 38.1 37.6 33.8 31.7 33.4 18.1 -1.8 -1.8 -1.8 -1.8 -1.8 -1.8 -1.8 -1.8 -1.8 -1.8 -1.8 -1.8 5.2 8 13.9 19.1 19.4 22.8 31 32.9 36.2 37.5 41.4 41.5 37.9 36.1 37.5 41.5 44.8 48.8 51.5 56.8 62.5 66.2 70.6 74.5 80.9 80.2 80.2 82.9 82.6 84.2 85 86.3 83.6 81.7 82.8 80.8 78.3 75.7 79.6 81.4 81.5 88.1 87.8 89.3 89.7 85.6 80.3 73.2 73.8 72 69 70.4 70.7 71.1 73 72.9 71.8 71.9 72 70.5 68.7 69.3 67.8 66.7 64.7 68.8 71.8 72.1 71 69.7 68.8 71.8 74.1 74.2 76 73.9 71.9 71.7 72.9 70.6 70.5 68.5 67.5 65.2 63.5 61 56.3 51.1 49 49 49 51.3 53.6 53.8 53.9 53.2 49 53.1 54.1 55 56.4 55.3 54.9 56.4 57.2 60.9 70.2 76.4 79.3 81.9 83.2 82.3 81.6 79 78.1 77 79.2 75.5 72.5 72.5 76.1 77 75.4 74.9 76.6 76.7 67.6 63.2 62.3 58.1
132.7 131.8 130.7 126.6 122.6 120.4 120.8 114.2 117.4 122.7 128.7 129.6 134.7 138 141.9 148.2 154.7 165.1 163.8 158.9 144.3 129.6 99.6 83.5 76.4 73.8 68.1 61 56.5 54 52.3 49.4 45.6 45.6 45.6 45.6 45.6 45.6 45.6 50.9 54.3 56.1 58.4 62 59.7 55.3 53.7 52.8 51.6 43.9 40.9 40 40.3 39 33.4 31.3 25.2 15.9 10.8 -1.8 -1.8 -1.8 -1.8 -1.8 -1.8 -1.8 -1.8 -1.8 -1.8 -1.8 -1.8 7.7 9.6 14.3 15.9 18 23.4 27.4 31.1 35.7 39.3 41.6 38.5 36.3 37.5 40.8 44 46 48.9 51.2 56.4 61.3 63.1 70.5 73.9 76.8 77.5 82 81.2 81.3 83.1 81.6 80.1 79.4 79.5 79.3 77.3 74 78.1 80.1 80.2 82.3 83.5 86.8 83.6 78.2 74.7 73.6 72.6 70.4 68.9 70.1 69.5 70.6 75.8 74 71.6 70.5 70.4 67.3 71.5 71.1 69.9 68.3 63 68.6 71.1 70.6 69.4 67.6 68 71.5 74.7 73.9 73.9 75.8 71.5 70.9 70.2 70.2 70.6 68.6 67.9 64.9 63.9 61.9 56.2 49 49 49 49 49 49 49 49 49 49 53.3 53.7 53.6 54 53.7 54.3 55.4 52.9 63 69.1 75.8 81.7 83.9 83.3 82.3 81.4 79.3 77.9 77.3 77.8 77 72.6 70.3 72.7 76.9 74.6 73.6 70.7 67.7 63.7 62.9 66.2 59.1
127.5 127.1 126.1 122.8 118.1 117.1 116.2 113 113.7 114 118.7 123.3 131 132.4 129.4 138 142.9 161.3 168.2 155.7 149 133.8 108.2 82.8 79 77.7 71.1 64.2 57.2 54.4 52.9 49.4 46.4 45.6 45.6 45.6 45.6 45.6 45.6 45.6 50.8 54.7 58.1 58.1 55.4 54 53.8 53 47.5 45.1 38 36 36.3 36.5 32 25.9 23.2 17.3 15.7 -1.8 -1.8 -1.8 -1.8 -1.8 -1.8 -1.8 -1.8 -1.8 -1.8 -1.8 -1.8 6.1 7.1 8.3 10.2 13.1 17.1 20.1 24 28.3 32.4 38 35.9 35.8 37.4 39 42.4 45.5 48.4 49 50.5 55.3 60.2 68.7 71.6 72.5 73.7 82.5 80.2 79.3 80.1 80.5 78.3 77.7 78.3 78.7 73.8 73.8 77 78.5 78.5 80.1 80 79 78.3 77.5 75.8 73 72.3 69.4 68.9 69.5 69 69.5 72.4 74.7 72.9 70.4 66.6 70.9 72.2 73.4 69.2 65.4 61.7 60.7 68.3 70.1 68.2 67.4 66 68.8 70.4 72.8 73.1 72.1 71.6 70.3 70.3 70.4 68.6 67.4 66.7 65.9 63.8 61.6 56 49 49 49 49 49 49 49 49 49 49 49 52.6 53.6 53.1 52.2 53.3 52.4 55.7 66.4 69.4 77.3 85.2 88.4 85.3 83 81.2 80.5 80.7 77 79.2 78.8 73.1 69.5 71.3 75.1 75.7 70.6 67.2 63.7 60.1 62.3 67.6 59.7
123.9 123.9 121 118.4 115.5 113.5 111 107.7 106.8 108.9 111.3 115.7 116.9 119.6 122.7 136 142.3 148.3 153.2 154 147.3 127.3 103.8 84 79.7 78.7 70.4 63.7 60.4 56.3 52.4 50.7 52.2 47 45.6 45.6 45.6 47.1 45.6 45.6 45.6 49.1 56.3 57.7 56 54.4 53.6 52.7 48.4 44.5 39.4 34.2 33.5 33.3 32 29.5 22.1 18.2 14.1 -1.8 -1.8 -1.8 -1.8 -1.8 -1.8 -1.8 -1.8 -1.8 -1.8 -1.8 -1.8 -1.8 5.1 5.2 8 11.3 13.9 18.2 20.4 21.4 27.1 28.5 29.9 36.2 37.6 38.6 40.7 45.3 45.7 47.3 48.5 51.2 58.4 64.6 69 70.3 71.1 78 78.7 78.7 78.9 79.7 76.3 74.9 71.8 73 69.9 71.7 74.3 72.6 74.2 76.4 78 77.9 77.3 76.5 74.5 72.9 71.9 70.1 69.6 68.9 68.6 68.9 70.8 75.4 72 69.3 67.8 69 70.9 74.2 69.7 64.5 61.3 59.8 67.1 67.4 67.9 67.5 64.5 66.9 67.4 69.9 71.9 72.8 71.2 70.7 70.8 68.4 67.8 65.4 65.6 64.9 65.6 64.1 56.1 49 49 49 49 49 49 49 49 49 49 49 49.3 53.7 51.4 49 49 49 58 65.7 69 75.5 80.9 85.9 84.5 83.9 82.3 82.7 83.8 77.7 77.9 82.9 75.3 71 68.6 74.2 70.6 68 66.6 63.4 60.1 60.1 61.1 59.3
120.7 122.2 117.9 115.3 114.2 110 107.5 105.7 105.2 105.8 106.5 107.9 110.8 113.9 117.7 121 135.6 140.3 149.1 147.8 137.9 121 101.8 84.8 77.8 71.8 67.7 63.6 62.7 55.7 52.9 52.2 54.1 50.4 48.6 46.1 45.6 45.6 45.6 45.6 45.6 45.6 52.7 56.6 55.9 55.6 53 53.8 49.3 44.2 39.6 35.2 34.2 31.3 30.4 26.9 23.6 18.6 11.8 5.8 -1.8 -1.8 -1.8 -1.8 -1.8 -1.8 -1.8 -1.8 -1.8 -1.8 -1.8 -1.8 -1.8 2.6 5 8.5 13.3 14.6 16.2 18.1 20.2 23.5 28.2 34.7 38.5 38.2 38.8 42.3 42.2 45.6 46.3 48.1 53.4 63.1 65.1 67.2 64.7 67 68.6 68.8 69.5 70.3 70.5 70 68.3 68.7 69.8 71.7 72.7 72.6 72.5 75.5 79.1 79.3 77.5 76.2 73.8 72.5 71.9 70.8 68.8 69.4 67.6 66.5 67.9 71 70.6 68.3 65.9 67.6 67.6 69.8 68 66.5 62.1 58.5 62.3 64.9 68.2 64.4 62.7 64.5 65.6 67.9 68.4 69.7 68.8 69 68.6 67.3 67.1 65.7 63.5 63.9 65.1 63.2 55.6 54 49 49 49 49 49 49 49 49 49 49 49 53.4 49 49 49 49 57.8 66.4 69 72.3 77.5 80 83.2 84.9 83.5 81.7 83.5 78.4 77.9 82 79 71.8 67.7 69.7 67.3 66.6 64.2 62 60.1 62 61.1 59.3
116.2 116.3 114.9 113.8 109.6 107.4 104.8 103.8 102.8 101.5 103.9 104.7 106.4 110.1 113.2 116.3 118.6 126.9 130 126.1 121.5 109.2 95 82.3 72.6 71.9 65.7 63.2 61.4 56.1 54.5 52.1 50.5 49.8 45.6 49.1 45.6 45.6 45.6 45.6 45.6 45.6 49.5 54.4 56.1 56 53.1 51.9 48 44 42 36.9 36.4 35.8 33.1 29.5 26.8 19.1 11.5 6.3 -1.8 -1.8 -1.8 -1.8 -1.8 -1.8 -1.8 -1.8 -1.8 -1.8 -1.8 -1.8 -1.8 -1.8 -1.8 7.7 10 10.7 12.5 17.3 19.4 19.9 27 27.9 37.3 36 38 32.6 35.8 40.4 43.4 45.1 47.1 57.3 56.3 56.9 60.3 63 64.4 66.8 67.4 68.5 67 67.7 67.4 67.4 69 71.4 71.5 72.6 73.4 77.8 81.6 81.4 78.7 76.4 73.3 71.7 73.1 69.6 66.8 70.3 67.5 64.2 66.5 65.8 65.9 64.9 64 63.6 64.7 65.1 68.3 67.5 64 57.4 63.4 61.4 64.3 64 61.9 63.1 63.8 68 68.8 67.5 65.7 67.8 69 66 66.9 64.7 62.3 61.3 57.9 57.9 54.5 53.6 49 49 49 49 49 49 49 49 49 49 49 49 49 49 49 53.6 55.5 64.7 68 73.5 75.2 77.8 80.7 85.4 84.5 80.7 80 80.6 77 82.3 80.9 74 68.3 65.3 65.9 65.1 63.3 62.2 61.5 60.3 59.4 56.7
112.5 114.2 113 110.6 107.3 105.3 105 104.1 103 102.6 101.2 101.9 101.4 103.6 108.4 109.9 106.9 112.7 113.8 104.3 100.3 92.8 89.9 78 69.8 67.4 64.6 62.9 59.1 56.3 54.7 53.3 51.3 53.7 45.6 49.8 45.6 45.6 45.6 45.6 45.6 45.6 45.6 51.5 52.9 56.6 51.8 51 47.1 44.1 43.9 38.9 37.3 31.1 30.8 32 32 21 14.3 9.5 -1.8 -1.8 -1.8 -1.8 -1.8 -1.8 -1.8 -1.8 -1.8 -1.8 -1.8 -1.8 -1.8 -1.8 -1.8 8.4 7.7 9.9 11.1 15 19 17.5 17.9 19.6 35.4 30.7 29.2 29.8 33 38.6 39.2 41.3 43.2 46.6 52.9 55.7 57.5 60.6 62 62.8 64 64.8 65.2 67.8 66.7 64.3 66.8 68.4 71.3 73.6 74 78.3 81.9 80.2 79.2 76 71.4 66.7 73.3 71.9 66.8 66.8 67.5 67.6 65.4 64.1 62.8 63.7 63.3 62.5 62.9 63.9 68.1 67 61.4 54.7 55.8 59 60.3 62.1 61.4 61.5 60.4 65.6 64.8 65 64.6 66.7 68.4 65.7 64.8 63.7 61.6 56.4 54.4 53.8 52.6 53.4 49 49 49 49 49 49 49 49 49 49 49 49 49 49 52.9 56.1 58 64.2 67 72.2 75.2 76.9 77.6 83.4 80.8 78.9 78 75.4 74.9 81.8 79.5 74.6 69.8 64 65.6 63.1 61.5 62.3 64.5 63 60.2 56.2
109.9 112.6 110.9 109.6 106.8 104.9 104.5 104.4 103.6 103 99.2 96.7 94.7 97.6 98.9 98.7 96.6 96.6 97.6 93.4 89.2 83.9 82.5 71.2 67.5 65.8 63.6 59.1 56.4 55.8 56.8 56.3 54.3 57.2 46.7 45.6 49.7 45.6 45.6 45.6 51.3 51 45.6 41.4 49.6 53.6 51.9 50.6 48.6 44.9 43.7 41.7 36.5 31.5 29.6 29.8 30.4 23.2 15.7 9 -1.8 -1.8 -1.8 -1.8 -1.8 -1.8 -1.8 -1.8 -1.8 -1.8 -1.8 -1.8 -1.8 -1.8 -1.8 1.9 8.8 10.4 10.7 10.3 16.7 22.6 20.4 19.1 18.3 21.8 26.1 28.2 29.7 31.5 34 37.4 39.9 42.7 48.6 53.1 54.1 55.4 57.2 60.1 62.5 62.8 63.1 67.7 65.9 63.4 64.2 67.8 69.6 68.4 66.4 69.9 75.6 76.1 75.3 73.8 70.6 66.5 73.9 73.1 68.5 66.8 68.5 62.9 63.4 63.8 58.5 58.5 62.2 62 62.1 62.5 63.5 62.7 59.8 54.5 52.1 59 59.6 59.6 59.7 56.9 57.2 59.5 61.8 63.4 62.7 63.9 65.9 63.1 62.8 63.3 61.3 57 53.9 52.9 52.1 51.2 49 49 49 49 49 49 49 49 49 49 49 49.5 49 52.7 55.2 57.3 59.4 62.7 65.5 70.3 74.8 77.4 77.3 78.1 78 77.5 76.2 74 73 76.6 77.8 75.1 68 63.5 61.6 61.9 60.5 63.3 69.4 67.2 64.4 56.4
112.2 113.5 112 111.5 109.6 106.3 104.8 104.4 102.7 101.5 101.5 102.6 97.7 93.7 95.2 92.2 89.9 89.9 88.5 86.1 84.6 84.5 79.5 76.1 66.7 64.5 62.1 62.3 59.3 59 58 58 57 57.1 53.2 45.6 49.5 46.3 45.6 49.6 52.8 52.4 53.3 47.3 43.9 40.7 48.7 49.8 47.9 45.4 44.5 42.8 34.3 31.6 29.7 27.6 28.7 28.1 15.6 8.1 -1.8 -1.8 -1.8 -1.8 -1.8 -1.8 -1.8 -1.8 -1.8 -1.8 -1.8 -1.8 5.7 5.2 5.3 7.6 5.3 10.2 8.7 12.5 17.3 24.3 23 22.8 21.7 21 26.5 28.4 27.7 27.6 32.1 35.1 36 40.6 41.8 47.4 49 53.4 55.1 57.6 59.1 61.5 61.2 64.2 63.7 62.6 64.2 68.9 69.4 66.4 66.4 66.4 71.8 73.6 74 72.2 66.5 66.5 71.3 71.4 70.8 71 67.7 64 61.1 61.3 58.5 58.5 59.4 61.9 62 62 63 59.7 56.5 52.4 50.4 55.9 57.9 58.2 58.4 58.3 53.6 55.7 59.2 60.8 60.1 61 63 59 60.7 62.8 61.1 57.1 53.6 52.2 51.7 52.4 49 49 49 49 49 49 49 49 49 49 51.8 53.8 53.5 53.4 56.8 58.1 60.9 62.6 64.3 69.5 72.9 74.3 76.7 75.3 75 76.2 75.5 73.7 71.4 76.9 76.6 72.3 67.5 63.7 59 58.3 60 65.5 67.6 65.2 57.9 52.5
112.6 112.8 112.2 110.5 108.1 106.2 105.1 104.3 103.9 104.7 105.4 101.1 96.8 88.2 87.2 83.3 82.5 81.3 80.4 79.5 78.7 80.7 75 65.9 64.4 63.6 62.2 63.2 59.9 60.3 59.8 60.9 60.7 59.4 54.9 46.3 45.6 45.6 45.6 48.9 52.3 53.1 53.7 54.1 47.2 45.1 39.9 46.6 46.3 45.2 41.4 41.4 36.7 32.5 30.3 25.3 26 25.7 16.1 10.7 -1.8 -1.8 -1.8 -1.8 -1.8 -1.8 -1.8 -1.8 -1.8 -1.8 -1.8 -1.8 7.2 6.9 5.4 7.6 11.2 11.4 11.8 14.3 17.8 20.2 26 26.6 23.5 21.4 23.8 28.4 24.8 24 28.3 35 32.5 35.6 39.8 42.1 46.8 53.3 54.8 55 56.6 59.6 59.3 60.5 61.4 61.1 63.7 67.6 69.5 69.3 66.4 68.7 72.4 73.6 73.2 71.1 66.5 66.5 70.2 71.8 71.3 70.8 69.9 65.5 62 61.4 60.3 61.3 61.9 62.4 62 60.3 56.9 57.5 55.1 52.4 50.4 54.9 56.2 58.1 57 57.8 52.7 53.3 54.4 57.2 57.1 57.5 59.6 56.9 57.6 60.1 61.4 56.9 53.4 50.3 52.4 53.6 53.1 53 53.3 49 49 49 49 49 49 49 54 54.9 54.9 55.5 57.5 59.3 62.8 62.7 63 66.7 70.8 71.1 70.9 71.2 73.9 77.1 75.6 72.5 70.2 75.3 74.7 70.2 67.1 61.7 57.8 55.2 58.7 58 57.9 56.1 54.2 50.9
112.3 112.3 111.7 108.4 107.1 106.6 106 104.7 104.2 104 104.6 100.1 97 92.5 86.2 84 82.9 81.5 83.7 87.8 87.1 87.2 84.4 74.2 67.7 64.9 65 62.6 60.9 60.2 61.6 61.3 64.5 61 59.3 53.5 45.8 49.8 49 49.1 51.3 56.3 55.8 59.8 51.2 46.9 42.8 40.1 29.4 42.3 39.7 39.6 37 30 27.2 25.1 24.2 23.6 16.8 10.1 -1.8 -1.8 -1.8 -1.8 -1.8 -1.8 -1.8 -1.8 -1.8 -1.8 -1.8 4.4 6.7 10.1 11 11.3 11.9 14.3 15.9 16.8 18.6 20.9 24.9 27.4 25.6 23.8 20.6 21 21.4 22.6 23.8 25.3 28.8 31 35.8 41.3 43 49.7 53.6 52.8 54.1 56.8 58.3 58.8 59.6 58.4 64 65.6 67.5 68.8 68.8 66.3 66.8 70 70.7 69.7 69.9 66.5 69.7 69.2 70.5 65.5 71.9 68.1 64 60.5 60.4 62 63 62.2 62.5 58 58.2 57 57.7 53.1 50.4 52 54.8 56.7 54.6 54.4 53 49.9 49.9 56.2 55.5 56.8 57.1 55.6 53.9 54.3 54.9 52.9 49.9 49.9 54.1 54.2 54.3 50.6 54.3 49 49 49 49 49 49 51.4 55.3 57.3 56.2 56.7 58.1 59.2 63.4 60.6 60.9 63.3 66.7 67.7 67.6 68.1 70.7 79.1 73.4 71.4 69 70.7 71.1 67.9 64.7 61.7 57.5 54.8 51.3 52.5 53 50.6 48.9 46.8
113.1 111.2 108.6 108.3 107.5 107.9 106.8 105.6 105.3 103 100.6 100.6 101.2 100.1 97.9 92.8 89.6 90.3 93.4 99.6 104.3 96.7 90 83.4 74.4 70 66 64 62.5 61.3 61.3 62.5 64.6 63.7 61.8 56.3 49.5 53.9 54.1 52.9 54.2 62.2 58.8 59.4 53.8 50.4 48.9 48.2 43.8 21.3 36.5 37.7 36.6 31.7 28.3 21.7 21.7 19 15.1 6.2 -1.8 -1.8 -1.8 -1.8 -1.8 -1.8 -1.8 -1.8 -1.8 -1.8 2.5 6.5 9.4 13.3 12.9 15.1 15.7 16.5 19.2 19.9 21.2 23.1 25.5 27.2 27.3 26.3 24.5 22.5 21.4 20.8 22.1 23.5 24.9 26.9 32.7 40.2 40.9 44.8 51.5 50 49.4 51 53 55.3 57.5 55.9 61.9 63.8 64.4 65.1 65.4 63.8 63.8 67.1 67.3 68.5 70.2 68.6 68.3 69.7 67.1 65.5 68.3 68.3 66.6 61.8 60.4 61.8 60.4 62.5 60.1 55.4 58.4 58.8 57.9 55.5 53 50.4 50.4 57 50.4 49.9 54.8 49.9 49.9 49.9 49.9 55.3 57.8 56 52.9 49.9 49.9 49.9 49.9 51.9 53.7 57.2 53.1 50.6 53.2 53.2 49 49 49 49 49 49 57.7 59.1 57 56.4 57.1 57.1 57.8 57.9 58.2 61.3 61.1 63.1 64.6 65.2 67.6 71.8 69.1 68.4 66.7 68.4 71.5 68.4 65.6 62.1 57 54.3 50.6 50.2 49.5 48.6 45.3 42.5
114.5 111.3 109.8 110.1 109.4 109.8 109.8 108.1 106.3 105.2 103.1 102.8 105 106.8 106.3 106.8 100.8 98.8 104.4 114.2 120 105.1 97.2 91.7 81.3 74.5 69.4 64.9 63.2 62.8 63.1 64.3 66.6 68.1 67.7 61.4 54.2 55.3 57.7 57.7 57.1 60.7 58.7 59.2 54.8 51.9 50.7 48.3 46.3 42.1 18.1 26.1 29.2 26.1 22.5 18.1 14.9 12 8.3 7.1 -1.8 -1.8 -1.8 -1.8 -1.8 -1.8 -1.8 -1.8 -1.8 -1.8 4.6 8.4 10 13.3 13.5 14.2 17.6 18.7 21.6 23.1 25.2 26.9 29.7 30.7 30.1 29.3 27.7 25.2 22 21.3 21.7 23.3 23.2 24.4 27.8 35.3 38.8 40.2 45.9 46.3 47.7 50 51.7 52.4 57.9 55 59.5 63.6 65.3 66.3 67.6 63.8 69 67.9 66 65.5 66.5 65.8 68.9 70 68.8 65.5 65.5 67.1 68.4 63.6 61.5 59.9 55.4 59.4 58.6 56.4 59.4 59.5 59.6 57.7 53.8 50.4 50.4 53.5 49.9 49.9 49.9 49.9 49.9 49.9 49.9 55.7 55.7 55.6 54.2 49.9 49.9 52 52 49.9 55.4 55.1 50.6 54 53.1 49 49 49 49 49 49 49.5 55.2 60 57.3 55.9 55.2 54 54.8 55.5 56.4 60 58.8 58.9 61.7 64 66.4 70.3 68.2 66.9 66.4 66.3 66.6 71.3 65.7 63.4 55.7 52.7 51.6 49.7 48.8 45.2 42.4 38.3
115.4 113.6 112.2 111.5 111.7 112.1 111 109.5 107.6 105.5 106.6 106.3 111.4 115 113.8 117.4 110.9 108.4 116.8 121.9 127 120.1 106.2 99.5 90 80.8 76.5 69.3 64.5 64.7 65.1 66 68.3 69.7 71.1 62.9 56.2 57.5 59.2 62.7 58.8 59.5 59.1 58.2 54.9 52.9 51.9 48.7 45.8 42.2 36.2 21.1 12.4 17.6 18.6 16 10.5 9.6 6.6 5.2 -1.8 -1.8 -1.8 -1.8 -1.8 -1.8 -1.8 -1.8 -1.8 -1.8 5.3 8.6 11 13.1 13.8 15.2 17.7 18.8 23.4 27.7 31.2 31.4 37.4 37.9 34 32.5 31.1 27.8 25.2 23 21.9 22.9 23.2 24.4 25.1 29.7 34.8 36.8 37.1 42 47.7 48.9 50 51 54.5 54.8 58.9 65.8 66.4 67.1 68.4 66.9 67.1 64.1 63.4 63.3 63.6 63.6 69.7 70.5 69.6 65.5 67.1 67.4 68.5 66.6 59.1 57.9 55.4 55.4 55.4 58.8 59.9 59.4 57.8 56.6 54.2 52.9 53.3 52 49.9 49.9 49.9 49.9 49.9 49.9 49.9 53.9 55.2 55.7 54 49.9 49.9 52.8 53.9 53.5 53.2 50.6 50.6 50.6 51.9 52.4 49 49 49 49 49 49 55.4 56.8 58.1 56.1 54.8 53.7 49.4 53.8 49.4 57.1 57 55.2 55.6 61.1 65.4 67.6 67.3 66.5 64.1 65.1 66.7 68.4 65.5 60.6 53.5 52.1 51.1 48.8 47 43.7 39.5 35.5
116.8 114.5 113.6 115.2 114.5 114.9 113.8 111.4 111.1 111.2 110.8 111.7 116.4 121.3 120.1 125.9 123.2 119.5 122.8 132.2 135.5 130.7 121.9 107.3 97.4 86.1 77.3 72.9 66.7 65.7 66.5 69.2 72.1 73.6 68.9 63.1 57.7 56.9 59.3 65.4 60.3 60.1 61.5 59.7 54.7 54.4 51 48.6 44.7 39.8 34.7 32.1 28.6 18.1 9.7 8.2 8 8.6 4.9 1.3 -1.8 -1.8 -1.8 -1.8 -1.8 -1.8 -1.8 -1.8 -1.8 -1.8 5 10.4 11.9 13.3 14 19.6 22.7 21.3 28.5 31.4 34.3 37 38.1 42 40.5 37.3 35.7 30.6 26.9 23.8 22.7 23.8 22.8 24.2 25.1 25.8 29 32.1 34.9 38.2 42.6 46.4 47.5 48.9 51 54.7 56.6 64.2 65 64.1 66.9 63.8 62.4 62.1 62.2 61.6 62.2 64 70.8 70.1 69.8 67 67.9 69.3 68.1 68.9 61.7 60.9 55.4 55.4 55.4 59.5 60.3 57.5 55.6 54.3 54 53.8 55.1 55.1 49.9 49.9 49.9 49.9 49.9 49.9 49.9 49.9 53.9 55.2 54.7 53.9 49.9 54.9 54.7 54.6 54.4 52.8 52.7 53 54.5 54.2 53.1 49 49 49 54.3 53.7 55 56.5 57 56.9 56.3 54.1 49.4 49.4 49.3 54.3 55.8 57.2 55.2 58.9 62.1 63.6 65 63.9 63.5 63.6 68.7 61.4 61.6 57.9 50.2 47 44.6 42.6 39 37.9 38 37
117.3 116.6 117.5 118.5 120.1 118.7 117.1 115.2 116.3 115.9 116.3 116.8 119.6 129 128 132.9 131.5 127.3 130.1 136.3 142 147.7 144.5 122.1 102.3 91.5 83 76.4 68.8 67 68.5 71 71.9 71.8 68.4 61.9 59.1 58.6 59.1 64.6 63.3 55.9 62.5 60.5 55.4 53.6 50.1 49.5 43.5 39.3 34.8 31.6 29.4 21.6 10.3 9.4 7.1 3.7 2.2 -1.8 -1.8 -1.8 -1.8 -1.8 -1.8 -1.8 -1.8 -1.8 -1.8 -1.8 4.7 12.9 12 13.7 16.5 22.4 27.6 25.4 30.5 34.6 36.5 41.6 42.4 42.9 43.9 43.1 41.3 32.2 27.7 24.7 24.2 24.8 23 24.6 25.1 25.9 25.9 27.7 33.4 37.7 39.1 42.8 44 46.4 46.8 52.4 54.5 56.6 59.9 61.1 62.5 60.8 60.3 61 60.9 61.3 61.3 62.6 68.8 71.1 70.3 68.1 68 68.6 64.3 72.2 63.5 62 55.4 55.4 55.8 58.8 58.6 57.3 55.6 54.5 54.7 55.6 56.6 54.6 49.9 49.9 49.9 49.9 49.9 49.9 49.9 54.2 55.2 54.3 49.9 49.9 49.9 54.9 55.9 55.3 54.5 53.4 53.9 53.9 58.1 54.7 52.5 49 49 49 54.2 54.2 56 57.1 57.4 57.6 56.9 54.7 49.3 49.3 51.9 53.6 55.5 56.8 55.2 59.3 60.4 61.8 63.1 62 62 60.6 62.5 56.5 55.1 50.2 46.5 43 42.6 39.2 36.4 36.2 37.1 39.5
121.2 119.2 121.1 122.3 123.2 124.4 121.3 120 122.4 122.3 121.6 121.5 125.8 131.7 134 137 138 134.7 135.4 139.5 145.3 160 155.9 138.8 108.7 94.2 86.9 83.5 75.1 68.3 68.6 70.3 71.5 68.9 70 61.8 60.2 59.3 59.8 64 64.4 55.9 57.5 58.6 55.2 51.7 50.1 50.7 44.9 40.5 36.4 32 27.8 20.7 14.5 7.7 6.1 4.7 6.4 -1.8 -1.8 -1.8 -1.8 -1.8 -1.8 -1.8 -1.8 -1.8 -1.8 -1.8 4.3 15.7 12.8 14.9 18 23.2 27.4 30.7 31.9 37.3 38.7 42.6 46.4 47.4 47.8 44 40.3 36 27.9 26.1 25 26.3 25.2 25.3 25.8 26.5 26.9 26.7 31.3 34.9 36 39.5 42 43.3 45.5 51.3 53.2 54.8 56.1 58.2 59 58.4 58.1 58.4 59.3 58.5 59 61.1 66.2 69.3 71.1 68.5 68 65.9 64.3 71.9 63.7 62 59.9 57.8 59.7 59.5 58.6 58.4 55.7 56.3 55.5 56.4 56.8 55.1 51.9 54.7 54.3 49.9 49.9 52.9 51 54.1 55.3 49.9 49.9 49.9 52.5 55 56 56 55.4 53.5 54.8 54.1 55.1 54.7 51.4 54.4 49 49 49 49 54 57.5 57.9 58.2 58.7 56 49.4 49.4 52.2 53.3 54.4 56.6 58.3 60 60.1 59.9 61.7 60.1 58.8 57.3 55.5 52.6 50 44.7 41.3 41.5 41.2 37.6 35 35.2 35.7 37.6
124.2 123.1 124.9 125.4 128.4 129.3 126.7 124.7 126.2 126.9 126.8 127.4 130.1 133.5 138.3 141 142.4 143.2 145.8 143.4 147.7 152.8 148.2 131.8 106.5 98.9 90.1 85 78.6 70.8 68.6 70.4 73.3 70.2 66 62.5 59.6 60.8 60.5 66 69.9 64 55.9 60.5 56.3 52.8 50.2 53 47 38.2 36.4 33.6 27.7 18.7 15.3 11.3 7.7 5.3 7.3 5 -1.8 -1.8 -1.8 -1.8 -1.8 -1.8 -1.8 -1.8 -1.8 -0.2 1.7 12.6 12.7 16.8 18.9 25.4 30 31.4 35.5 37.1 39.4 42.2 47.2 49.7 50.9 49.2 39.8 32.2 29.3 26.4 25.9 26.1 26.8 25.6 27.5 28.8 28.5 28.3 28.9 29.2 32.1 41.2 40.5 41.2 44.5 50.7 52.4 54.2 55 54.6 55.4 54.5 56.7 56.6 57.9 58.5 57.8 56.4 63.6 66.8 68.1 65.5 66 64.3 64.3 67.5 65.5 62.9 62 59.8 60.4 59.9 59.8 59.7 57.8 56 57.3 58.8 58.5 58.6 56.3 55.5 56.1 49.9 49.9 53 51.9 49.9 49.9 49.9 49.9 49.9 55.3 55.4 55.3 56.2 53.4 59.1 55.6 54 53.7 51.7 49 49 49 49 52.6 49 53.5 56.9 58.1 59.1 60.4 56.1 50.3 53.7 53 55 55.9 55.7 56.6 56.5 56.4 56.6 57.2 55.1 54 52.7 49.9 49.6 45.1 42 39.3 40.1 40.1 38.3 35.4 33.8 35.9 37
126.7 127.3 128.2 129.2 131.5 133.7 131.5 129.2 129.4 131.7 131.6 133.3 136.1 138 141.3 145 150.7 150.6 145.9 148.5 146.6 146.1 136.5 124.5 116.3 110 90.6 81.7 82 73.3 68.5 70 76 73.9 68.1 65 60.6 63 61.7 64.7 73 66.8 55.9 56 58.4 52.7 50.1 52.8 46.4 38.5 35.6 33.4 27.3 20.8 17.6 18 9.6 7.7 6.4 5.2 -1.8 -1.8 -1.8 -1.8 -1.8 -1.8 -1.8 -1.8 -1.8 -0.4 1.5 7.4 13.6 13.4 20.8 28.8 33.3 34 39.2 38.7 37.2 40.3 42.9 45.9 48.9 47.7 39.6 33.7 30.6 26.4 26.2 27.1 29.5 27.3 29.9 32.1 31.2 31.1 31.4 33.4 32.4 37.3 37.6 40.8 46.3 51.4 52.2 52.4 52.5 52.2 52.4 53 54.1 56.5 55.4 57.2 55.3 55.3 62.2 65.6 66.5 64.3 64.3 64.3 64.7 68.4 65.8 63.8 62.3 60.9 61.5 61.1 60.9 61.9 59.5 57.7 59.3 60.6 61.9 62.2 58.1 55.6 54.5 49.9 50.3 52.8 52.9 49.9 49.9 49.9 49.9 49.9 49.9 55.4 55.8 55 54.7 58.8 55.4 54.2 53.3 49 49 49 49 49 53.4 49 52.1 55.7 57.8 58.4 58.6 58.7 53.4 51.3 54.1 54.3 55.1 56.1 55.9 55.7 53 52.4 51 50.4 51.5 48.6 47.4 44.6 42.7 38.7 36.2 37.1 41.4 38.8 34.1 33.9 36 34.9
130.9 131.1 131.7 132.9 136.5 138.4 134.4 132.9 134.5 136.5 134.7 136.7 140.7 144 143.4 150 154.9 159.1 144.3 145.9 141.5 139.3 133.6 124.6 116.8 111.4 94.8 79.7 74.2 69.5 68.2 68.7 77.6 75 69.6 66.7 60.8 62.6 63.3 66.1 74.5 73.5 65.5 60 57.2 54.3 50.1 48 45.2 39.1 36.5 35.2 27.4 23.6 23.2 21.5 18.3 12.6 10.9 8.3 6.3 -1.8 -1.8 -1.8 -1.8 -1.8 -1.8 -1.8 -1.8 -0.1 1.4 6.9 8.5 10 17 32.2 36.4 36.1 39.9 41.7 39.6 39.9 43 46.1 47.9 46.3 41.9 34.9 31.8 29.3 27.3 29.8 32.6 32 30.8 33.6 33.4 32.9 32.3 34.4 35.3 35.2 38 40.6 43.6 52 51.8 52.3 52.5 51.2 49.1 49.7 53 56.2 57.5 57.9 55.3 55.3 60.9 65 66.3 66.3 64.3 66.9 67.8 68.9 66.6 64.3 62.7 61.5 64 62.6 62.3 64.2 60.5 59 60.7 64.6 66.5 64.2 61 54 49.9 49.9 54 53.9 53.1 49.9 53.4 49.9 49.9 49.9 49.9 54.8 56.5 55.2 57.2 57.8 56.2 55 52.7 49 49 49 49 49 49 49 49 54.6 57.9 57.7 59.5 58.9 53.2 51 51.9 53.3 56.4 56.2 58.7 57.9 52.6 50 49.6 47.1 45.8 45.7 45.2 41 39.2 35.8 34.7 32.9 40 37.5 31.9 32.7 33.7 34
133.5 132.9 133.6 134.6 137.7 139.4 136.7 136.9 137.7 141.5 139.1 139.9 144 150.6 146.4 152.6 158.3 161.4 145.5 144.4 140.3 137.8 132.2 124.1 117.5 111 99.8 80.9 74.2 68.8 67.9 68 69.5 74.3 70 69.5 62 62.2 63.2 64.8 69.5 71 69 62.1 58.7 54.7 51.6 47.4 45 40.7 36.7 33.4 29.5 26.7 25.8 26.4 23.5 18 13.3 11.3 8.8 3.6 -1.8 -1.8 -1.8 -1.8 -1.8 -1.8 -1.8 -1.4 -1.8 6 6.2 8.3 18.2 30.3 33.7 36.2 37.2 38.5 39.4 41.3 44.1 46 47 45.9 40.5 36.9 32.4 30.9 29.5 30.8 35.8 35.4 28.8 36.1 31.8 32.2 32.3 35.9 34.7 35.7 38.8 40.6 42.2 49.7 52 53.1 52.5 50.7 48.9 49.8 51.9 54.1 59.1 58.6 55.6 58.7 60.5 62.9 65.3 65.9 66.3 67.9 69.8 69.5 69.5 64.5 63.4 62.5 62.9 63.4 64.4 65.4 63 60.4 62.5 65.5 70.1 65.6 61.4 54.3 49.9 49.9 56.7 55.8 55.2 49.9 53.7 49.9 49.9 49.9 49.9 51.4 59.7 58.5 62.1 61 58.2 55.2 49 49 49 49.4 49 49 49 49 49 52.9 56.5 56.6 56.3 55.7 53.8 52.1 49.7 51 56.1 56.5 55.8 56.1 51.2 46.2 45.1 44.6 41.5 39.8 39.4 37.3 35.1 31.8 33.9 32 34.7 32.7 27.8 30.2 27.8 27.8
136 135.8 137.4 138.6 140.5 140.4 139.8 140.9 142.7 144.1 143.6 145.2 146 148.5 149.6 150.6 152.5 151.4 147.3 143.5 137.6 132.3 126.3 122.2 118.5 111.8 100 85.5 74.4 69.2 67.9 67.1 66.8 67.3 68.2 67.7 62 61.4 62.4 66.7 64.4 70.3 69.4 65 59 54.7 49.3 46.4 44.9 41.9 37.9 32.7 32.9 29.7 31.1 29.7 26.2 23.7 17.6 14.8 11.3 6 -1.8 -1.8 -1.8 -1.8 -1.8 -1.8 -1.8 -1.8 -1.8 -1.8 4.4 5.9 13.7 19.4 28.9 35.8 35.4 41 41.3 44.9 44.7 47.1 48.4 46.4 42.9 39.2 35.6 33.2 31.8 32.7 36.6 40.2 28.8 32.4 28.8 28.8 28.8 29 34.1 35.6 39.4 41 41.1 46.5 51.4 52.9 52.7 50 48.6 50.2 50.9 55.2 56.8 58.3 59.4 58.9 61.2 62.7 66 65.9 66 67.2 70 70.7 70.3 66.3 64.9 63.8 65.4 64.5 65 64.1 60.1 60.7 63.6 67.6 70 65.6 60.8 55.5 49.9 49.9 55.5 60.3 56.4 52.9 53 52.9 51.8 55.5 55.8 61 64.4 62.6 64.5 64 61.6 55.2 52.5 52.6 49 49 51.3 49 51.5 49 49 52.1 54.9 55.8 54 54.6 53.9 54 49.8 48.9 50.2 53.8 51.3 49.7 48.5 44.2 43.1 42.1 41.4 39.1 37.2 34.2 31.8 31.8 33 32.1 33.5 32.9 27.8 27.8 27.8 27.8
138.5 140 142.1 141.5 142.5 143.6 142.3 144.5 146.9 147.9 147.8 150.1 152.7 150 150.9 151.8 152.7 153.2 149.9 148.4 142.1 132.9 128.8 129 127.2 120.6 106.9 92.7 76.2 69.1 67.7 66.8 66.3 66 66.6 66.2 64.5 61.4 63.6 66.2 64.4 70.4 76.6 67.9 58.9 53.1 49.2 47.7 46.6 44.2 39.9 38.4 33.5 33.1 33.2 35.2 33.5 29.2 25.2 20 14.6 9.4 5.7 -1.8 -1.8 -1.8 -1.8 -1.8 -1.8 -1.8 -1.8 -1.8 1.2 9 17.1 16.4 21.3 34.8 33.4 41.8 42.4 44 45 49.1 50.8 47.8 46 41.5 38.5 35.4 34 33.7 35.7 34.5 28.8 28.8 28.8 28.8 28.8 28.8 34.2 35.3 37.3 38.8 39.5 40.8 49.2 52.6 51.8 49.4 47.9 48.6 50.2 51.4 53.9 58.3 59.1 59.1 59.5 61.1 63.1 65.2 66.3 67.4 70.4 71.3 70.8 68.8 66.9 65.2 67.2 66 66.5 66.1 60.3 63.7 66 70.4 67.5 65.1 62.6 58 53.7 56.1 56.2 61.6 57.2 52.9 54.1 55.6 58.9 61 63.7 64.1 64.4 66.7 68.2 69.5 65.1 54.5 54.3 52.1 49 53.7 53.5 49 49 49 49 49 53.6 54.8 54.6 54.6 53.6 51.7 49.5 48 47.7 49.1 50 47.8 45.5 42.7 40.8 41.3 43.2 39.4 36.6 31.8 31.8 31.8 31.8 31.8 33.6 33.3 27.8 27.8 27.8 27.8
143.4 143 144.9 144.9 146.3 146 146.5 148.3 151.1 153.6 154 153.9 158.6 154.5 151.9 154.1 154.3 158.7 158.1 156 154.3 145.2 141.8 141.8 142.7 133.5 116.2 98.1 81.6 71.5 67.9 67.9 68.1 65.8 66.5 66.6 65.2 61.9 65.2 67 64.4 71.4 77.5 72.7 61.7 52.8 49.5 47.6 46.2 44.6 42.1 42.4 39.3 36.8 38.6 40.4 41.7 37.5 34.4 32.2 21.8 17.5 12 5.8 -1.8 -1.8 -1.8 -1.8 -1.8 -1.8 -1.8 -1.8 1 10.4 14.7 17 30 34 33.8 41.9 45.1 48.6 48.5 52.9 53.4 50.4 50.9 45.2 42.2 38 36 34.9 35.4 33.9 28.8 28.8 28.8 28.8 28.8 28.8 32.7 34.6 37.2 37 37.5 38.8 42.9 49.7 47.8 47.1 48.9 50.5 51.9 52.7 55.2 56.7 57.3 55.8 58 58.8 59.4 63.3 65.1 68.1 70.7 72 71.9 69.6 68 67.6 69 68.1 68.2 63.8 61.5 66.2 67.8 68 67.6 66.9 64.2 60.5 57.4 56.2 55.8 56.8 54.7 54.2 54.8 57.3 63.3 66.3 66.4 66.2 67 67.8 68.8 73.5 64 54.7 54.5 52.7 49 51.2 53.2 51.7 49 50.2 51.3 51.5 53.2 53.9 53.9 53.4 52.3 51.7 50.1 48.6 47.9 49.5 49.9 48.2 44.5 41.9 40.6 40.6 42.1 38.9 34.9 31.8 31.8 31.8 34.3 31.7 36.3 32.3 27.8 33.4 30.6 27.8
146.8 148.6 147.8 148.5 151.2 151.9 150.8 152.9 157.8 159.6 159.6 158.7 160.5 162.4 156.8 157 157.6 163.5 169.4 169.2 164.4 158.5 153.3 152.2 151.4 143.1 123.4 104.1 86.2 74.8 69 68.7 69.3 67.8 67.7 66.5 65 63.2 65.4 66.3 67.2 72.3 83 78.2 62.7 58.4 53.9 48.8 46.8 46.7 44.8 45.5 44.6 42.6 42.6 46.9 49.7 47.1 44.8 41.1 33 23.4 21.5 13.1 2.9 -1.8 -1.8 -1.8 -1.8 -1.8 -1.8 -1.8 3.1 12.4 14.8 19.8 29.2 38.4 38.9 41.1 45.4 45.8 46.9 52.5 51.9 49.2 47.1 47.2 45.1 40.7 37.1 35.7 34.8 32.8 28.8 28.8 28.8 28.8 28.8 28.8 28.8 29 35.5 35.1 35.1 37.4 38.5 42 41.6 45.9 48.6 51.2 53.2 54.3 56 56.9 58.1 55.8 55.8 55.8 58.9 60.2 63 67.1 72.6 73.6 72.7 70.5 68.4 68 68.6 66.8 67.7 66.9 62.9 67.7 68.2 67.6 68.3 68.5 68.4 65.7 63 58.2 56.4 55.3 54.4 54.8 55.1 62.1 66.5 68.1 71.3 71.4 69 67.6 66.9 63.7 59.9 55.9 55.7 53.6 49 51.5 53.9 52.5 51.2 53.4 52.4 51.8 50.6 53 52.4 52.6 51 52.1 51.1 48.5 48 50.1 52.9 49.7 43.8 40.5 39.1 39.7 43.5 37.6 34.9 31.8 31.8 31.8 34.2 32.4 33.6 27.8 27.8 30.8 27.8 27.8
150.3 150.2 151.8 152.1 153.7 154.4 155.4 160.3 164.1 165.3 165.4 167.3 168.9 165.1 164.7 163 163.9 168.1 177.6 176.8 175.4 169.4 167.4 166.5 160.4 148.7 130.9 112.5 92.2 77.2 70.5 70.3 70 70.2 65.6 69.2 63.7 60 65.6 67.9 67.4 69.3 74.1 69 62.8 60.6 57.7 51 47.5 49 47.8 48.2 48.1 46.1 46.5 53.1 59.9 57.4 53.8 51.4 41.3 33.5 25.5 25 14.3 7 -1.8 -1.8 -1.8 -1.8 -1.8 -1.8 -1.8 10.7 13 20.3 24.7 38.9 40.4 37.5 41.4 44.2 45.8 48.7 49.8 48.3 49.4 49.4 48.3 44.2 39.2 36.6 35.3 34.5 32.4 28.8 28.8 28.8 28.8 28.8 28.8 28.8 28.8 31.8 32.5 35.8 36.2 35 39.9 43.1 45.1 53.3 54.5 55.3 56.9 58.9 58.3 58.6 58.6 59.8 61.2 61.5 62.3 65.1 72.5 74.9 73 71.9 69.7 68.9 69.8 67.4 66 66.3 65.4 71 68.8 69.3 69.9 70.2 71.5 71.9 66 61 57.6 57.6 55.4 55.8 57.7 71.6 73.2 74 74.8 74.8 72 69.8 67.3 63.6 58.7 55.6 56.8 54.7 50.8 53 53.6 52.5 52.9 52.3 51.5 52.1 51.9 51.1 49.7 49.3 48.4 50 48.6 46.9 49.4 48.8 52.5 46.3 41.1 39.8 39 38.8 39.8 37 34.7 32.6 31.8 34.5 34.7 34.5 35.2 31.7 27.8 32.1 27.8 27.8
148.8 151.2 152.7 154 154.9 156.6 162.4 163.3 169.1 173.6 174.2 174.7 174.6 172 173.8 171 172.2 175.4 181.6 189.1 184.4 181.4 177.6 175.7 167.3 152.2 138 120.4 99.8 81.5 72.2 69.4 69.7 64.8 62 69.9 63.9 60 68 68 68.5 68.6 74 73.4 64.8 60.6 58.2 54.1 51.2 52.5 50.7 51.1 50.2 50.5 49.7 54.4 59.6 64.6 62.5 60.8 50.5 41.9 37.3 27.5 23.6 15.9 6.4 -1.8 -1.8 -1.8 -1.8 -1.8 -1.8 12.5 13.4 19.3 21.8 30.2 39.6 38.3 38.2 43.2 45.3 46.5 48.9 52.4 52.8 55.1 50.7 44.9 40.7 37.4 35.7 34.3 32.5 34.8 36.9 34.3 35.4 34.2 33.2 28.8 28.8 28.8 28.8 35.4 33.4 33.4 37.9 40.7 41.6 52.4 54.3 56.2 59.5 61 58.9 58.3 59 61.6 62.9 62.5 62 64.3 68.7 73.5 73.7 73.5 71.2 69.6 72 70.1 66.7 66.4 67.6 70.1 70.9 71.5 74.9 74.7 80.6 80 71.8 67.4 62.9 61.9 57.7 57.7 62.8 77.6 77.2 77.6 79.1 78.2 74.2 74.1 72.3 66.5 58 55.3 55 55.6 52.2 53.1 50.9 49.7 48.8 47.7 52 53.9 54 54 52.6 47.7 50 52.9 51.1 49 46.7 47.6 49.8 41.4 39.2 39.7 39.7 39.1 37.5 36.4 35.9 33.6 34.9 33.7 34.9 35 35.6 34.4 27.9 27.8 27.8 27.8
151.2 151.5 153.7 155 156.6 160.4 169.2 173 174.7 188 183.6 180.4 180.6 179.1 181.3 184.2 182.1 183 185.8 191.4 191.2 189.5 188.5 183.2 171.2 157.1 141.1 122.2 102.2 87.9 76.2 68.4 66.9 62 62 67.9 61.9 60 66 70.8 66 66 69.6 71.4 65 62.6 58.9 56.7 55.3 53.8 55.1 56.5 56.3 55 53.4 53.5 58.7 64.7 68.3 67.7 61.6 48.1 43.4 37.9 30.8 25.3 18.5 10.2 -1.8 -1.8 -1.8 -1.8 -1.8 10.8 13.2 17.5 20.8 28.4 36.9 40.3 37.7 42.9 45.6 47.8 49.6 52.6 53.5 58 54.4 47.1 42.6 38.5 36 33.8 35.8 42.4 43.8 41.7 43.5 38.2 38 35.6 32.4 28.8 28.8 28.8 31 32.5 33.7 37.8 41.4 50.5 54.8 56.3 60 63.2 58.7 57.8 58.3 60.3 64 62.5 62.3 64.5 67.2 72.6 73.6 73.7 72.6 70.6 71.1 71 68 67.4 68 71.8 71.6 74.3 77.5 82.5 85.6 84.4 77.4 72.4 65.9 61.4 59.6 60.2 63.1 73 80.6 81.4 79.1 78.9 77.1 75.4 69.7 69.8 59.8 57.7 54.3 57.4 50.9 47.7 50 47.7 47.7 49.2 53.4 53.4 54.7 51.2 48.9 47.7 50.2 53 52.8 52.9 48.7 45.3 45.9 41.3 40.2 39.9 40.3 39.8 39.4 39.5 37.4 34.5 36.7 36.9 36 35.5 35.3 35.5 33.3 27.8 27.8 27.8
154.5 153.3 155 156 160.3 165.1 177.8 181.2 182.1 202.6 198.2 191.3 190.1 192.7 192.2 195.8 195.4 193.4 193.3 192.8 193.8 195.7 195.3 189.1 176.6 164 149.6 131.3 110.7 94.8 80.9 70.3 66.3 62.1 62 64.1 64 60 65.6 69.2 66 66 68.9 69.8 67.1 62.3 61.3 58.7 58.8 55.9 60.7 59.5 61 60.6 57.6 56.2 57.7 66.1 70.6 71.1 67.4 58.8 48.4 45.4 40.1 34.3 31 19.1 8.6 -1.8 -1.8 -1.8 -1.8 -1.8 12.4 12.3 17 30.4 37.6 39.2 39.5 41.4 50.7 51.3 50.6 51.4 52.4 53.2 52.1 48.7 42.9 39.6 37.1 36.2 41.8 49.8 47.4 46 46.4 44.8 41.8 40.6 39.5 36.7 32.8 33.2 32.6 33.5 32.2 36.2 40.8 46 53.9 56 55.8 58 56.8 56.1 56.4 59.2 61.8 62.6 64.1 64.9 67.4 70.9 74 74.5 74.5 71.6 71.4 71 69.5 67.9 69.3 71.9 74.4 78.2 92.3 88.6 90.5 87.6 82.5 74.2 68.3 63.5 62.3 62.3 64.2 76.4 81.8 83 80.5 84.5 80.8 77.6 70.8 68.8 64.2 60.4 54.5 53.7 51.2 47.7 47.7 47.7 50.4 47.7 47.7 47.7 47.7 47.7 47.7 47.7 47.7 55.1 54.8 54.3 50.4 47.4 46 45.3 42.7 41.8 42.3 43.1 41.5 41.2 39.3 37.3 39 38.6 38 37.3 37.7 36.1 34.8 33.6 27.8 27.8
159.7 157.4 157.6 160.5 169.3 175.9 182 186.9 188.6 205.8 210.6 203.6 198.9 200.5 205.9 206 206.3 208.9 210.9 209.7 207.1 204 207.4 194.8 182.6 168.1 151.5 141.6 121.8 100.6 83.8 73.4 67.6 65.2 65.9 67.2 65.2 60 65.7 69.7 70.5 66 69 68.7 67 62.7 62 61 62.1 60.2 59.7 60.5 64.3 62.4 60.4 60.1 61.8 66.9 71.6 72.6 71 66.2 53.2 49.6 47.2 38.9 33.5 30.2 17.5 -1.8 -1.8 -1.8 -1.8 -1.8 11 11.5 17.7 28.3 35.8 39.3 42.6 39 45.1 50.8 52.2 50 51.4 51.8 51.9 50.6 44.6 41.4 39 41.1 48 51.2 50.6 48.4 54 50.9 47.7 45.2 42.8 45 39 37.9 38 33.7 31 33.2 37.7 41.6 47.6 52.6 53.5 53.7 54.6 54.9 55.8 57.7 62 63.4 65.1 65.7 66.8 68.7 72.6 74.6 74.4 72.7 71.9 71.5 72.2 69.6 70.2 74 79.6 83.9 91.8 92.2 90.2 90.3 86 76.4 71.1 68.3 66.1 66.8 67.7 74.8 81.3 80.6 85.4 85.7 85.7 79.6 76.3 67 62.6 58.1 54.3 52.9 51.7 47.7 51.7 49.2 50.3 47.7 47.7 47.7 48.3 49.7 50.6 47.7 50.5 56.1 56.7 57.3 51.9 48.4 45.8 48.2 44.5 45 44.9 46.2 45.1 43 41.9 41.2 43.5 41.9 41.7 38.7 38.8 36.7 35.2 32.9 27.8 27.8
159.1 158.9 160.4 165.3 172.1 179.2 186.2 190.8 197.3 209.1 219.6 217.9 208.3 209.1 215.3 223.6 228.9 224 225.9 219 214.2 213.1 210.2 201.5 189.6 176.9 163 147.1 136.7 116.8 94.1 84 72.6 67.1 67.9 69.6 66.3 60 62.3 70.4 71.6 66.4 67.6 65.8 64.1 62.5 63 65 67.5 66.2 60.4 62.5 67.5 67.7 64.7 63.1 64.4 69 78.5 77.2 73.6 69.4 57.8 53.5 56 46 39.4 35.3 27 8.7 -1.8 -1.8 -1.8 -1.8 6.9 12.2 18.1 32 39.1 42.4 42.1 39.7 41.8 47.9 50.2 49.3 50.7 52.4 52 52.3 48 44 44.2 48.4 55.3 55.5 55.2 51.8 52.5 53.4 55.4 55 55.2 55.2 49.5 49.2 48.8 39.5 31.9 31.8 33.3 36.4 42.8 47.8 50.2 50.9 53.4 52.8 52.8 57.2 59.8 63 65.2 66.1 66.8 67.6 70.1 74.7 74.5 72.5 72.2 72.4 72.9 70.8 71.9 76.8 84.7 92.8 99.1 98.5 93 90.5 87.5 80.9 75 72.7 70.3 69.9 68.4 72.9 76.5 79.9 85.5 86.6 85.5 83.7 79 69.6 66.7 61.3 58.6 56.1 53.9 51.5 52.4 51.9 52 50.5 47.8 48.4 50.1 51.5 51.6 50.9 51.9 57.9 58 55.1 52.3 49.1 46.6 49.3 45.9 47.8 47.3 49.8 48.6 46.8 46.8 45 47.1 46.7 43.8 40.6 37.9 35.9 34.6 34.4 28 32.4
155.7 158.9 165.2 169.2 177.7 181.3 188.9 195.5 208.8 210.5 225.3 228.8 219.5 217.1 224.1 232.3 237.5 235 235.9 228.5 220.5 217.4 213.8 206.2 193.5 182.1 165.2 149.1 134.8 117.4 108 93.5 81.9 72.7 71.4 74.2 67.4 60 60 67.7 71.2 66.9 68.7 62.2 63.9 64.1 64.8 65.9 68.8 73.1 62.2 61.1 71.8 73.4 72.4 67.3 64 72.5 79.4 84.4 79.1 73.1 68.2 54.6 56.2 50.2 45.8 41.4 33.3 13.7 -1.8 -1.8 -1.8 -1.8 6.2 14.8 22.5 33.1 38.6 42.6 42.2 40.9 40.7 45.9 50 47.9 47.9 47.9 52.6 53.2 51.7 49.3 52.8 56.1 59.6 65.1 60.6 56.8 57.4 60.1 63.5 65.5 65.4 64.2 59.9 59.2 61.9 46 36 32.4 32.5 34.3 37.3 41 46.9 48.2 51.7 52.5 52.8 57.4 59.1 62.2 64.7 65.4 67.1 67.6 69.4 72 73.6 72.7 72.2 74.6 73.7 72.3 73.8 77.6 90.9 99.7 104.5 102.3 99.8 97 94.5 87.9 79 79.3 74.8 75.6 73.1 73.4 77.1 82.1 85.9 89 88.4 84.5 78.5 77.5 73.2 65.7 63.2 59.2 57.4 53.9 53.7 53.3 54.6 52.9 50.6 51 52 51.9 53.3 52.9 54.3 55.5 55.6 55.2 54 49.4 47.4 47.2 47.3 49 52.5 55.6 54.6 50.8 52.2 49.3 49.4 48.5 46.3 42.5 39.6 39.3 38.2 40.2 34 34.9
155.3 158.7 162.6 169.5 176.7 184.2 195.4 203.9 210.5 216.4 225.5 232.3 224.8 226.4 233.3 239.7 242.2 242.5 242.2 239.6 229.8 219 218.5 209.5 199.5 187.9 167.5 153.6 135 129.7 129 97.3 91.5 79.7 74.6 75 70.1 63.9 60 68.5 71.2 69.5 66 62.2 62.2 64.5 65.4 67.9 69.3 77.9 68.5 61.5 74.9 76.4 77.4 72.4 68 72.6 82.2 92 88.2 79.7 74.3 57.8 55.2 50.6 50.3 46.4 40.9 23.7 -1.8 -1.8 -1.8 -1.8 -1.8 14.1 22.4 31.2 39.8 46.4 44.4 45.4 40.3 44.8 46.4 49.8 49.8 51.6 55.1 57.4 56.3 59 62.7 66.9 71.3 75.5 72.1 65.9 64.1 67.1 71.3 73.4 76.3 71.7 70 70.2 67.9 54.6 41.6 34.9 32.6 33.4 34.4 38.7 43.1 44.9 47.6 50.9 53 55.3 59.8 63 64.5 65.3 66.8 68.2 70.4 71.3 72.2 72.4 74.1 75.5 74.8 74.9 76 81.6 102.2 104.4 107 109.1 108.4 106 101.4 93.3 82.2 80.4 80.7 80.9 78.7 76 86.6 91.4 88.1 93.6 93.5 87.7 81.8 82.7 78.1 71 68.2 63.3 59 56.6 54.3 55.8 57.7 53.5 51.6 52 53.3 52.4 54.2 53.9 54.6 56.7 57.9 56.9 54.5 49.9 49 48.7 48.9 54.2 58.1 57.5 57.8 54.3 52.6 56.4 57.9 54 48.1 45.4 46 42.6 41.7 43.9 35.3 36.3
153.5 158.3 160.7 165.9 173.3 186.5 196.9 210.2 211.4 215.9 221.5 231.4 231.4 234.8 239.8 243 247.4 254.1 252.6 243.6 238.7 225.8 216.9 211.8 203 188.2 176.5 167.2 144.9 148.8 131 113.2 105 90.5 81.2 77.1 73.3 69.1 65 72.6 72.2 71.9 68.9 65.9 62.2 65.3 66.6 66.6 70.3 74 68.4 62.7 72 78.1 76.4 73.7 70.9 74.4 79.5 90.4 90.5 81 74.8 62.2 54.3 52.1 54.8 41.6 40.8 22.8 -1.8 -1.8 -1.8 -1.8 -1.8 11.9 18.7 27.9 35.6 41.9 46.3 43.5 40.7 41.7 43.1 53.3 52.1 53.5 57.8 56.3 64.7 70.6 72.1 80.4 84.4 85.3 82.4 74.4 71.6 76.7 78.8 76.7 83.7 83.7 80.1 81.5 81.2 67.5 51.1 41.4 34.6 33 33.4 34.8 41 43.9 45.9 47 50.2 53.7 56.7 59.7 63.5 64.9 67.6 69 70.5 72.9 71.9 71.8 73.6 76 75.9 76.5 79 87.1 102.9 111 116.3 115.2 112.8 110 102.1 95 89.2 85.7 85.2 83.9 81.2 79 92.3 91.5 90.4 92.4 104.4 90.5 86.1 84.1 80.6 74.9 70.2 70.3 60.8 58.1 56.1 56.9 55.8 52.6 52.6 54.3 53.9 54.2 54.5 55.6 58.3 60 60.7 58.2 55 50.9 54 53 51.6 55.1 59.5 64.2 62.3 58.8 55.7 65.9 63.6 58.2 51 49.1 49.1 49.4 43.5 41.2 38.1 42
151.4 156 161.2 165.7 173.7 184 196.4 207.6 210 216 219.2 231.5 236.5 239.2 244.7 248.8 255.7 263.1 259.5 247.1 242.3 232.5 219.1 209 201.2 190.2 183 169.7 157.3 156.6 147.3 130 116.2 104.1 90 83.5 75.8 71.9 70.2 76.4 76 75.1 74.1 67.9 64.6 65 67.7 67.1 69.3 71.4 71 67.8 67.9 75.6 75.8 74.6 73.8 74.5 80 84.2 90.1 84.8 78.9 70.9 56.1 52.5 49.9 41.2 33.4 19.4 7.8 -1.8 -1.8 -1.8 -1.8 8.1 17.1 26.7 32.4 37.4 40.1 46 42.5 40.7 41.3 44.2 53.6 56.3 59.5 69 70.8 78.9 80.3 89.7 92.9 88.6 91.2 81.8 76.4 74.9 76.7 84 87.6 97.4 88.6 92.1 88.2 84.9 68.5 52 42.8 36.2 35.3 36.2 35.4 40.1 42.9 46.1 49.1 52.5 54.9 58.2 62.5 65.1 67.2 69.5 72 72.5 72.4 73.1 75 78.3 78.3 79.1 80.9 87.9 98 110.7 114.7 112.3 111.5 109.6 106.6 99.9 95.5 91.5 92.5 89.8 83.2 83.2 89.6 90.6 94 98.8 107.9 94 89.2 87.9 82.5 77.1 74.5 75.6 65.1 61.3 59.8 58 56 54.7 56.4 57.5 55.5 56.1 57 59.3 62 66.4 66.3 62 57 52.6 57.7 58.1 56.2 58.3 68.5 68.7 65.7 63.4 61.5 62.9 65.1 67.1 57.6 53.7 56.7 57.9 46.8 43.4 40.2 45.7
149.6 156.6 158.9 163.3 173.2 180.8 195.9 204.2 210.6 213.4 222.6 231.7 238.5 241 247 254.1 258.8 262.4 265.2 252.1 239.5 231 223.3 211 199.9 194.2 184 172.2 168.9 163.7 153.3 138.6 132.7 116.8 99.1 96.9 78.2 72.8 68.4 71.9 75.8 77.7 77.7 75 70 67.1 71.3 68 69 70.2 70.8 73.6 65.8 72.9 78.3 74.3 73.7 75.2 79.8 82.9 89.6 87.5 79.9 72.6 62 50.5 44.5 39.8 28.5 17.3 10 -1.8 -1.8 -1.8 -1.8 -1.8 14.4 23.5 27.8 30.5 37.3 45 46.2 41.1 41.1 43.9 53.8 56.5 61.2 69.7 74.2 83.4 86.2 93.2 97.5 97.3 94.2 88.8 82.7 83 83.3 89.7 93.7 104.7 93 98.2 94.3 87.3 86.6 65.4 53.4 44.1 42.3 41.2 40.7 38.5 38.5 44.7 48.5 50.5 53.5 56.1 59.4 65.1 66.4 68.3 73 72.8 72.9 73.5 74.8 80.4 80.5 81.6 83.5 92.4 98.9 105.9 108.6 111.8 113.1 112.2 110.8 103 96.1 94.7 94.2 92.1 90 89.2 90.1 94.3 99.8 106.1 103.5 93.3 94 94.8 88.2 83.1 77.6 78.8 70.9 68.2 67.4 61.5 60.7 59.5 61.2 62.4 58.5 58.5 60.3 64 70.6 74.9 71.5 67.3 61 55.7 62.2 64.3 62.7 61 74.8 72.7 70.2 70.1 67.8 65.1 66.6 69.2 63.9 62.2 63.3 64.6 53.2 44.8 42.2 45.6
148 155.9 157.8 161.7 168.7 178.9 187.2 197.6 203 209.7 226.1 233.3 237.5 239.6 246.9 252.5 255.4 265.1 264.7 259.5 248 238 220.2 210.2 200.6 193.4 186.4 178.2 172.9 167.3 157.5 144.9 148.2 131.7 115 110.3 89.3 76.2 70.8 72 75.6 82.8 84.1 84.5 72.6 69.6 70.6 69.4 69.1 69.8 71.3 70.1 66.6 71.2 75.3 73.8 74.7 77.4 80.3 82.6 82.8 85.5 80.7 73.2 62 49.2 44.2 38.4 25.7 18.8 11.2 6.1 -1.8 -1.8 -1.8 -1.8 9 15.8 21.3 25.5 33.7 41.6 44 40.5 42 46.4 57 62.4 64.3 68.8 75 85.8 93.4 100 104.7 105.1 98.9 95.1 90.7 91.8 89.5 90.4 99.2 104.3 100.8 110.1 108.9 97.1 90.7 73.2 65.3 57.1 51.1 48.8 45.3 41.5 40.5 41.2 45.7 50.1 52.7 54.8 56.9 61.4 64.7 67 72.1 74.3 72.8 73.2 75.7 79.1 80.5 85.3 87.9 92.8 98.7 104 109.9 113.6 116.1 115.5 114.8 103.5 97.1 95.9 96 96.9 97.7 95.7 93.8 101 106.2 103.4 101 97.9 100 100.7 96.2 91.3 81.1 86.6 75.8 69.5 66.8 62.9 63.7 64.7 70.5 68.3 64.2 63.7 66.4 72.5 80.3 83.4 77.9 73.1 65.4 59.9 62.5 65.1 66.9 67.9 72.8 77 78.9 74.9 76.7 71 71.7 74.6 71.6 69 68.5 67.1 59.7 50.6 45.2 46.4
142.7 152.6 157.6 161.3 166 174.1 182.5 192.6 199.5 204.9 215.9 226.3 234 239.9 243.3 247 254.5 264.4 262.9 256.8 244.2 236.6 219.5 211.3 203.7 191.9 190.6 186 177.5 175 166.5 156 146.1 135.3 128 120.1 97.8 79.8 73.4 73.5 75.7 83.2 87.7 89.7 72.6 70 70.2 70 70.4 71.2 71.5 72.4 71.3 68.8 72.8 74.8 74.8 75.9 82.1 82.2 80.4 79.2 79.5 72.3 62.3 49.9 43.9 36 25.3 19.4 10.7 7.1 -1.8 -1.8 -1.8 -1.8 6.7 9.1 15.1 21.3 27.5 30.8 36 42.5 45.2 56.6 57.7 65.7 66.9 71.1 76.8 84.2 99.6 106.9 109.5 114 104.7 97.6 100.2 104.9 96 99 104.6 109.2 107.9 120.7 120.6 114.5 105 88.5 77.9 71.9 65.3 59.5 50.9 47.3 43.6 42 42 47.9 50.7 52.9 55 57.2 61.7 64.5 69.1 71.4 70.8 74.1 75.3 79.6 82.3 89.6 93 96 99.8 106.3 110.5 112.8 113.8 115.4 113.2 105.8 99.6 97.4 98.4 100 100.9 103.8 102 109.3 106.5 106.7 106 106 108.2 110.1 106.1 101.1 86.7 84.1 73.6 72.9 72.5 65.9 64 65.8 74.4 71.4 68.6 69.7 72.2 80.3 89.9 90.6 84.8 79.2 70.1 63.5 62.3 64.9 80.1 78.5 82.1 87.7 91.1 82.2 82 80.8 79 82.6 78 75 73.1 68.5 64.8 55.4 52.5 50.9
149 152.8 156.5 161.6 164.7 169.1 178.3 187.8 196.9 205.9 213.4 219.2 229 236 238.9 243.3 251.7 259.5 259.5 253.8 242.5 235.1 225.5 212 201.7 194.8 193.4 189.3 183.7 175.5 168.9 156.1 153.4 144.5 138.6 129.6 111.6 89.9 75.6 73.4 78.3 81 89.9 86 74 69.1 70.1 69.6 70.5 72.6 73.4 75.7 76 70.5 70.9 72.8 74.6 73.4 76.1 78.4 77.1 76.7 75.5 72.1 61.1 48.5 40.1 32.5 25.1 17.1 11.5 5.6 -1.8 -1.8 -1.8 -1.8 -1.8 8.1 10.4 17.3 26.3 30.6 39.3 45.9 54.9 51.7 60.7 65.6 71.6 76.6 82.1 88.7 100.5 116.8 115.1 120.4 113.6 101.4 111.6 110.1 108.3 119.6 123.1 118.4 119.3 135.8 125.7 120.3 118.3 99.6 86.6 86.8 79.7 76 58.2 51 47.3 44.5 43.3 43.7 48.7 51.1 53.5 55.6 57.6 61.7 65.1 67.9 68.6 71.9 74.9 79.2 83.7 94.1 98.1 100.7 101.8 105.8 110.5 116.6 116 113.7 109.6 106.5 103.4 101.3 100.6 103 105.3 109.8 107.9 110.9 107.8 109.4 112.9 115.5 118.2 121.2 112.2 107.8 92.8 80.4 75.2 77 80.5 70.6 64.4 65.9 70.6 71.6 72.1 73.5 76.3 82.5 88.5 89.9 91.3 83.6 75 67.3 63.6 66.5 84 84.5 89.5 92.7 95 92.4 86.3 87.8 88.8 84.6 81 78.5 76.8 73.8 70.8 62.8 57.8 59.2
149.4 154.6 156.3 159.8 162.6 172.5 175.4 184 193.6 207.8 217.1 218.4 223 231.7 236.1 240.3 252.9 258.1 262.2 252.2 242.5 236.3 226.7 213 200.9 198.7 195.3 191.2 185.9 177.1 166.4 159.7 156.4 151 148.6 134.4 122.2 102.6 76.4 74.2 75.1 76.7 87.2 86.3 77.3 67.9 67.3 68.8 70.8 72.3 75.6 76.5 72.3 70.6 70.6 71.1 76.5 73.1 74.2 75.3 74.8 74.2 69 65.8 58.3 47.1 41 30.6 25.2 17.6 12.5 7.3 -1.8 -1.8 -1.8 -1.8 -1.8 3.2 10.4 14.1 24 29.7 45.3 51.8 56.1 54.4 61.1 65.1 74.7 80.9 87.9 89.9 99 117.4 121.4 128.2 117.8 111.1 115.2 119.1 137.8 137.2 135.2 129.4 134.2 141 133.7 125 123.4 103.6 94.4 88.5 85.5 79 68.5 58.4 52.2 47.8 46.1 44 44.5 47.7 51.3 54.2 56.6 58.4 62.5 65.8 66.9 70.3 73.4 77.6 85.2 92.7 100.7 106.2 109.6 110 113.1 120 117.9 113.9 109.9 108.6 107.9 104.7 103.7 111 111.5 111.8 113.3 113.6 112.5 113.5 126.9 127.9 129.5 131.4 121.6 116.3 107.8 85.9 78.6 78.3 83.7 75.5 66.1 67.3 71.4 74.4 74.4 77.7 80.5 85.6 93.9 109.1 101.7 92.9 79.6 74.1 69.6 70.4 85.1 90.5 90.7 102.7 99.6 104.7 95.2 97.2 97.9 85.5 85.3 80.3 85.6 81.4 80.8 69.5 66 68.8
150.1 155.9 160.2 159.1 161.2 172 177 183.5 197.5 209.4 217 218 221.9 227.6 233.2 240 247.9 255.4 256.1 251.1 244.3 237.8 230.6 215.1 201.2 198.8 196.7 193.7 187.3 176.8 168.5 164.5 160.4 154.3 147.7 134.8 123.2 104.2 83 75.7 73 71.9 72.3 78 70.1 63.3 63.2 65.4 68.3 70.4 72 72.9 75.9 70.6 71.1 68.9 69.4 71.6 71.9 73.8 72.8 70.2 65 61.3 54.8 46.3 38.2 28.7 21.8 21.5 16.9 10.2 -1.8 -1.8 0.8 -1.8 -1.8 1.5 6.7 11.2 18.3 29.7 42.5 49.3 62.8 60.1 62.9 69.9 78.5 90.1 93.8 93 104.7 122.7 125.8 127.5 121.5 120.3 125 132.7 142.6 150.9 151 142.7 145.1 146.6 140.3 129.7 128.5 116.7 105.9 100.8 98.4 84 76.1 69.8 59.9 52.8 50.8 47.8 45.7 44.7 48.5 51.7 54.7 56.8 59.7 62.9 65.5 67.6 72.6 76.3 84.5 95.5 100.9 110.8 120.8 116.9 113.7 116.9 118 117.5 113.6 112.2 111.5 106.8 108.4 119.2 115.9 113.9 113.8 117 119.5 125.4 141 138.7 136.6 139.4 128.3 120 115.5 98.2 84.3 81 91.8 76.8 68.2 69.4 77.1 77.2 79.3 85.4 88.1 90.4 110.5 115.6 112.3 105.4 87.9 81.2 79.5 75.5 91 96.7 96.7 106.6 108.1 109.8 105.9 105.8 102.5 90.2 89.4 87.8 94.4 91.9 83 74.2 74.5 75.3
156 156.7 160.5 161.3 160.5 167.8 179.9 184.3 194.3 205.3 214.6 217.2 221.5 222.9 229.9 239.8 242.4 253.1 254.1 252 245.1 240.9 238.5 221.2 205 199.3 197.7 196.6 187.7 179.3 172.8 171.7 162.4 154.7 148 135.8 120.2 103 86.3 76.5 71.1 68.7 64.8 62.1 62.9 58.3 58.7 63.2 64.5 67.5 68.3 69.5 71.6 70.6 73.3 68.2 66.9 70.8 69.4 70.2 69.6 67.3 63.8 58.6 52.9 43.3 34.8 26.7 24 25.6 21.6 12.4 8.5 -1.8 0.5 -1.8 -1.8 1.4 6.1 12.6 19.9 35 43.3 62.9 71.7 68.1 64 70.5 78.4 90.8 98.7 100.5 109.9 120.5 140.4 134.6 135.3 136.5 135.2 148.2 155 159.7 163.1 155 151.7 151 144.6 140.2 140.4 124.4 115.2 109.8 103.4 90 85 76 69.8 62.2 57.6 51.3 48.7 44.7 47.2 49.6 52.6 55.9 57.7 59.9 63.1 65.8 70.7 75.9 84.3 95.9 105.9 116.3 120.2 120.3 117.6 122.2 121.4 117.7 116.4 112.3 110.5 111.2 117.5 122 120.2 116.3 119 120.5 125.6 133 145.9 152.1 151.8 149 140.6 123.3 125 109.8 95.2 86.1 87.5 78.7 71.3 72.9 78.4 82.7 86 96.6 95 103.4 119.5 119.3 115.7 113.1 99.6 88.1 90.6 84.9 92.8 103.8 102 121.6 119 113.1 110.9 115.5 107.6 95 90.3 96.1 102.8 93.2 85.5 78.4 78.9 77.3
161 156.6 160.7 162.5 161 163.1 175.9 184.9 189.4 198.8 209.6 216.1 219.4 222.6 227.3 233.5 243.5 245.7 247.6 248.3 245.1 243.7 239.6 226.1 210.2 202.6 197.8 196.4 191.4 183.4 177.9 172.7 164.5 163.3 159.9 151.4 130.8 106.3 89 77.1 69.1 63.9 58.2 55.5 54.7 54.3 52.6 57 59.6 63.8 65.2 64.8 67 70.4 71.6 66.4 65 68.5 68.2 68.9 66.8 64.3 63.3 55.4 50.6 41.8 32.6 25.6 24 23.6 19.5 14.8 8.5 1.3 0.2 -1.8 -1.8 -1.8 7.7 13.7 24.9 34.9 43.2 53.6 73.5 77.5 71.8 75.5 80.1 90.3 99.9 111.1 120.2 135.9 151.3 147.6 152 145.5 142.6 165.3 161.6 163.8 172.7 161.8 158.1 161.5 154 148.5 142.1 132.7 121.4 111.7 104.3 91.9 85.4 82.5 77 69.1 66.4 58.8 52.9 47.5 45.3 46.7 50.1 54.9 58 59.2 61.1 64.1 68.6 73.6 81.6 99.3 111.5 118.8 119.5 122.9 123.9 123.6 124.8 122.1 116.6 113.7 111.7 115.7 120.1 124.5 124.7 120.6 125.7 129.1 136 150.1 161.5 165.9 166.1 158.1 147.7 134.7 125.6 113.6 102.7 90 85.3 79.3 74.9 76.1 82.3 87.2 92.1 103.2 101.1 118 122.8 120.3 118.9 122.6 110 97 107.6 94.5 96 101.4 105.1 122.8 122 115.1 112.5 120 112.3 97.8 93.3 99.1 106.4 98.8 90.6 84.2 83.9 85.3
162.4 158.9 160.3 163.2 163.8 164.4 169 182.4 189.5 195.1 207 216.6 218.4 222.1 226.7 230.7 237.7 241.4 242.2 244.2 244.3 244 239.5 234.8 220.9 205.2 203.1 203.2 198.4 191 189.3 177.2 175.6 173.7 168 158.9 133.6 113.4 94.7 79.4 69.3 60.8 54.7 49.8 47.5 47.5 47.5 50.3 56 59.5 61.5 62.2 62 63.9 65.6 65.9 63.2 66.5 66.7 66.4 65 64.2 60.8 54 47.9 42.3 34.2 28 25.2 19.2 20.5 17.6 10.7 4.3 1.9 -1.8 -1.8 -1.8 8.3 15.4 23.1 38.8 36.9 54 75.3 79.3 77.9 78.5 82.4 89.6 105.7 119.4 123.7 146.1 157.3 166.6 163.3 161.4 161.9 173.8 171.8 172.6 179.7 167.2 166.3 164.3 159 152.1 142.8 135 122.3 111.4 105.3 93.2 87.4 85.4 82.9 73.8 68.7 65.2 59.6 52.3 46.6 45.5 47.1 52.6 57.4 58.7 60 62 65.7 71.8 80.4 91.3 105.5 114.1 115.8 122.7 126.9 123.9 123.4 122.6 118.4 115 113.8 116.3 122.4 125.7 133.1 129.8 133.4 139.4 148.6 152.7 168.3 176.1 179.5 164.1 154.1 143.4 131.3 119.6 109.9 95.9 86.6 81.9 78.1 82.8 88 91.1 97 103.3 105.7 125.9 132.4 129 124.6 123.1 116.9 108.2 121.7 108.3 100.5 103.2 114.4 128 135.7 130.9 121 122 119.6 102.9 98.2 102.7 108.2 104.9 103.6 92.7 90.5 91.1
166.9 163.9 161.6 164.8 166.5 167.6 169.4 176.6 188.2 193.7 204.4 212.2 216.3 220.4 224.6 230.2 230.8 235.4 239.8 246.8 247.2 244.9 244.4 240.8 228.8 210.3 210 208.9 199.5 197.9 190.7 182.5 178.8 175.4 166.4 152.8 129.4 109.3 90.7 73.4 64.1 60.2 54.3 47.5 47.5 47.5 47.5 47.5 52.7 57.1 57.8 57.2 59 60.2 62.2 64.2 63.6 63.9 66.1 65.7 63.9 63 60.7 53.1 46.3 41.4 33.2 29 24.5 23.3 14.3 19.9 12.9 7.6 2.2 3.7 -1.8 -1.8 6.1 14.2 23.1 34.6 43.6 59.2 71.8 81.7 89.8 87.5 87.9 93.2 107 125.3 132.4 152 167.7 182.8 171.4 171 176.2 182.7 179.9 183.3 185.2 175 170.5 162.4 158.3 152.1 144.3 138.6 123.7 112.2 100.6 90.7 88.6 87.6 83.5 79.2 75.5 68.6 63.4 58 49.4 44.5 43.9 48.5 57.3 57.3 58.2 59.8 63.6 69.3 78.7 86.2 99.3 106.7 114.5 118.3 123.2 124 122.7 120.1 117.3 115.8 116.4 118.1 123.7 130.5 138.8 139.8 144.6 151.8 159.9 160.8 177.1 181.8 184.9 173.5 159.6 153.4 135.5 130.9 109.4 99.7 89.2 84.5 85.7 93 94.7 95.8 99.3 105.6 109.2 134.1 141.7 140.4 136.2 126.1 119.9 114.2 126.8 121.6 107.7 107.7 127.1 135.6 140.6 138.6 135.5 122.7 123.4 108.1 106.3 109.8 110.5 110.2 101.9 103.2 102.8 102.6
172.4 169.4 165.1 167 168.8 169.7 172.1 175.9 186 192.6 203.7 211.8 217.5 220.5 225.1 227.7 230.5 231.9 236.7 246.3 247.7 244.1 244 239.6 229.8 217 212.7 206.9 200.6 195.9 188.1 183.8 182.8 179.8 170.5 160.6 128.5 109 89.2 71.5 63.9 60.9 54.1 47.5 47.5 47.5 47.5 47.5 47.5 54 55.4 53.3 50.6 57 59.3 61.3 64.1 59.6 66.5 65.4 63.7 59.2 55.9 51.8 48.2 41.9 35 28 23.3 21.7 17.7 11.1 9.2 10.6 6.3 4.6 3.4 -1.8 5.6 13.5 20 33.7 45.4 57.4 87 97.6 99.3 101.7 97.5 101.3 109.9 132.3 141 167.7 180.9 194.2 183.9 181.3 188.6 194.9 192 191.8 187.7 179.9 171.6 161.1 156.5 149.7 142.5 136.7 124.6 117.4 102.3 94.6 94 93.7 90.5 87 79.3 71.9 68.9 60.3 53 49.4 44.2 43.9 48.2 53.7 55.6 58.6 61.4 66.5 76 84 96.1 101.9 107.9 114.7 118.6 119.3 121.4 119.9 117.6 117.3 117 118.4 127.3 132.1 140 146.5 162.1 165.3 169.6 173 186.3 192.3 190.5 180.4 165.3 152.8 141.5 136 123.2 100.6 91.1 88.9 94.8 102.3 104.8 105 103.5 109.6 116.2 139.6 153.9 153 147.2 134.2 123.6 119.1 133 128.5 116.9 112.8 130.4 143.8 141.7 140.7 139 127.3 120.9 113.7 114.1 119.4 113.2 111 104 105.7 113.7 116.2
177.4 174 169.9 171.1 171.4 171 172.7 175.9 182.3 192.5 203.1 212.3 219.4 221.8 226.3 228.9 230.8 232.2 233.5 234.4 238 237.6 238.1 235.2 221.2 216.2 213 206.6 199.7 194.7 191.2 185.1 185.2 181.9 170.8 157.5 143.5 120.7 99 74 66.1 61.6 55.3 47.5 47.5 47.5 47.5 47.5 47.5 47.5 51.4 50.7 47.5 55.4 56.6 58 61.8 59.8 64.8 67.7 66.6 60 55.5 51.9 46.9 40.6 33.8 30.2 23.7 19.8 15.3 12.4 11.7 12.1 6.3 4.6 6.2 -1.8 11.3 18.8 21.6 34.7 46.1 58.1 84.4 100.5 104.9 107.4 104.6 108.4 110.6 128.5 141 170.3 181.1 196 199.2 202.3 207.9 208.1 209.3 201.4 189.5 178.7 170 158.8 152.4 147.9 139.2 133.3 124.6 117.6 103.8 101.4 100.6 94.8 90.8 85 81.3 76.1 70 66.4 58.2 53.4 48.2 43.9 43.9 43.9 53.1 57.1 61.8 66.4 72.2 83 93.1 98.2 102.6 109 114.8 117 117.4 118.4 119.4 118.8 118.9 119.7 126.6 134.7 143.3 153.9 174.9 174.5 185.4 187.1 191.8 196.3 195.8 184 178.3 155.8 146.3 133.3 128 108.1 94.8 92.9 100 113.1 113.6 111.3 110.2 113 125.3 145.1 163.4 165.2 157.9 149.4 139.4 129.8 140.3 137.9 124.1 116.1 125.2 140.3 141 139.7 142 135.9 121.9 119.8 121.4 116.6 113.3 114 106.6 107.6 123.1 120.6
182.9 178.1 173.1 173.4 174.8 172.2 172.6 176.1 180.4 191.9 199 209.9 218.6 221 224.2 225.3 230.3 229.5 230.3 229 231.6 233.3 228.1 224.5 217.1 214.1 209.3 203.4 198.5 195.7 192.2 187.8 185.2 177.1 166.1 157.9 142.6 122.7 100.5 77.4 69.7 60.6 52.8 47.5 47.5 47.5 47.5 47.5 47.5 47.5 47.5 47.5 47.5 53.8 54.6 55.6 57.3 58.8 56.5 65.6 61.9 57.9 56 53.8 48.6 42.8 38.9 33.7 30.2 21.7 19.2 12.7 11.2 9.5 7.1 6.6 -1.8 -1.8 9.3 18.5 25.4 34.7 49.3 65.9 87.9 100.5 112.8 117.2 111.7 113.3 121.9 127.7 143.6 166.4 183 197 207.5 211.7 215.1 213.9 214 202.8 186.2 174.8 164.9 154.6 148.5 143.2 136.5 131.3 124 116.3 107.8 99.7 95.1 94.6 93.2 90.9 85.3 80.5 74.1 66.5 61.3 56.1 51 45.3 43.9 43.9 47.6 54.5 63.2 67.4 70.3 79.4 88.8 94.7 102.3 107.1 110.5 114 116.5 118 121.4 120.1 120.6 122 129.6 137.9 146.2 167.1 172.8 183.1 194.8 195.7 196.7 198.5 197.7 186.5 182 158.4 146.1 136.9 128.3 111.2 98 98.1 105.3 123.1 127.8 121 117.8 120 128.1 155.6 165.4 171.4 169.5 161.4 153 142.5 148.9 143.6 129.6 118.7 123.8 133.7 139.1 139.9 140.1 137.4 125.1 127.1 127.4 117.2 115.7 114.1 111.6 130.2 133.5 126.1
185.9 181.7 177.1 175.6 176.9 175.2 175.4 178 183.1 189.9 197.1 203.8 213.9 219.6 223.2 224.3 226.8 227.5 226.2 224.6 224.3 224.9 219.7 216.4 211.2 208.6 205.1 198.8 195.1 193.5 189.8 184.6 181.4 173 165.3 154.1 142.9 123.8 101.4 78.5 73.2 62.8 54.3 47.5 47.5 47.5 47.5 47.5 47.5 47.5 47.5 47.5 47.5 53.2 54.4 55.4 55.9 60.3 53.4 59.5 58.4 58.7 60.8 60.6 52.5 43.7 39.1 35.8 31.5 25.4 21.2 15.4 11.5 12.2 8.4 5.3 -1.8 -1.8 11.9 19.9 29.7 39.2 54 70 85.7 102.6 118.4 125 120.5 119.7 126.1 127.1 141.3 157.8 181.7 193.8 209 217 220.2 212.3 208.8 198.8 179.4 169.3 159.6 152.5 143.7 138.8 135.4 131 125.1 117.5 110.3 100.9 95.7 94.9 94.6 91.3 88.8 81.7 74.4 68.3 61.8 56.3 52.6 47.5 43.9 43.9 43.9 47.1 60.9 66.9 68.6 76.8 87.5 93.5 101.3 104.5 108.9 111.5 114.1 119 120.6 122.3 124 126.9 135 143.5 153.1 165.4 177.7 184 198.5 201.3 198.3 199.3 196.8 189.3 184 172.4 152.3 138.1 130.8 117.7 103 105.5 116.3 130.3 136.3 126.6 122 124.1 132.3 161.1 170.2 178.4 176 168.6 155.8 147.6 154.6 147.7 129.8 123.1 123.2 125.8 133.3 135.6 133.6 129.6 122.1 123.2 121.9 119 119.4 121 118.5 135.1 138.9 132.9
188.5 184 181.7 178.4 178.2 176.9 179.2 181.2 183.1 188.9 193.6 201.4 210.8 217.1 224 225.5 223.7 224.5 225.5 223.3 221.7 219.7 214.5 211.1 205.9 203.4 200.9 196.4 193.5 189.8 187.4 184.4 178.5 170.9 162.9 149.2 138.8 124.9 100.7 82.1 75.7 64.6 56.4 49.2 47.5 47.5 47.5 47.5 47.5 47.5 47.5 47.5 47.5 53.1 54.1 56.1 55.1 54.9 51.8 56.7 59.4 59.9 59.9 61.9 58.4 45.1 39.1 33.8 30.7 25.6 23.1 20.5 15.1 11.9 9.7 5.5 -1.8 2.7 9.1 24.3 30.5 44 53.8 74.8 94.5 101.4 116 122.6 130.1 123.9 124.7 129.1 137.9 154.1 178.5 190 202.9 210.4 212.2 204.4 198.8 190.3 173.8 166 155.9 147.8 139.2 137.7 133.7 131.2 124.6 120.6 115.7 106 101.3 96.7 96.9 95.6 92.5 88.1 78.2 72.1 66.5 63 56.7 52.2 48.3 44 43.9 43.9 53.5 60.5 66.3 74 85.2 93.1 99.2 103.3 110 111.4 114 118.4 123.5 128.9 132 135.4 139.1 150.5 160.7 175 187.5 189.4 200.6 203.9 202.6 195.9 192.8 189.5 180.2 173.6 161.5 143.7 131.4 126.3 107.3 113.1 134 143.2 143.8 134.3 124.6 126.7 135.1 151.4 171.4 177.7 176.4 171.3 155.7 151.5 157.6 153.1 137 127.6 123.9 121.9 128 129.8 128 124.2 118.4 118.5 119.2 122.5 126.3 134.4 130.1 139.6 138 135.7
192 189.1 186.4 182.6 180.6 180.7 183.9 186.9 187.2 190.9 194.4 199.4 208.3 215.6 224.5 225.5 223.7 222.7 221 220.1 215.5 214.1 208.1 204.4 201.9 198.4 194.6 191.9 189.7 186.3 184.5 180.9 173.6 166.3 158.1 146.5 138.9 120.1 95.2 82.8 72.9 65.8 60.6 56.3 47.5 47.5 47.5 47.5 47.5 47.5 47.5 47.5 47.5 53 53.9 55.3 54.2 52.2 51.5 54.2 58.6 59.1 59.6 66.2 61 50.1 39 33 30.8 29.1 22.6 27.2 20.8 12.1 8.2 5.4 -1.8 -1.8 6.3 22.3 29.7 40.3 52.2 76.6 102.8 108.4 114.9 123.5 130.9 126.3 124.9 131 135.9 155.5 171.5 184.8 195.2 201.8 195.1 190.4 189.1 179 164.8 158.8 149.8 142 136.9 134.8 133.5 129 126 125.1 122.7 116.1 108 99.6 99.5 101.4 101.4 98.1 83 75.6 74.4 69.8 62.9 58.5 54.3 53.5 49.4 49.5 50 56 62.4 69.8 81.6 88.1 96.2 101.6 106.5 109.5 113.8 120 129 135.9 140.3 147.1 144.8 156.8 167.2 183.2 192.3 195.1 198.1 204.5 199.8 190.2 188.6 186.1 176.6 170.3 155.8 139.6 125.6 123.5 111 122.3 137 144.7 142.6 134.8 127.5 128.8 138.8 152.7 173.4 178.9 179.2 169.8 160.2 155 162.4 151.8 139 128.4 123.1 118.7 119.9 122 123 118.5 114.3 115.2 119.7 122.6 139.3 143.4 137 140.2 136.5 128.4
200 199 195.5 188.5 183.4 183.7 188.9 193.1 193.9 193.8 197.1 203.1 209 216.3 221.3 223.2 224 223.2 219.7 216.1 211.5 207.2 200.3 196.3 191.4 191.9 189.5 187.5 185.4 184.4 181.1 177.5 170.3 162.1 154.4 141.7 127.4 108.4 90.8 81 69.3 70.5 69.3 64.6 58.1 47.5 47.5 47.5 47.5 47.5 47.5 47.5 47.5 51.7 53.8 55 52.8 51.5 52 53.3 56.2 58.7 60.7 62.8 59.2 52.5 42.3 36.9 33.4 28.2 23.9 21.1 24 10.4 8 6.1 2.5 -1.8 5.9 16.2 28.6 37.1 52.2 79.9 104.4 108.6 117.5 126.5 126.1 125 123.2 126 135.3 150.1 164.6 175.5 185 191.2 188.4 179.8 177.2 168.4 156.3 151.2 145.4 139.5 135 131 129.4 128.8 124.3 123.6 118.8 111.8 103.5 105.5 109.8 116.2 114.4 96.6 85.4 83.4 86.3 80.3 69.7 64.8 60.5 57.2 54.1 53.2 51.6 54.9 57.5 61.8 75.8 85.4 92.5 98.6 102.3 107.5 114.3 121.9 134.1 141.3 147.1 156.5 151.3 155.5 166.8 184.5 189.3 196.9 205.2 197.9 194.6 181.8 180.1 178 173 165.8 150.3 136 122.3 114.8 112.5 120.4 132.6 144.6 143.6 135.4 127.6 132.6 136.5 151.7 171.5 179.5 176 166.8 159.6 159.1 161 151.1 137 130 127.1 115.6 111.9 111.4 116.1 113.6 110.4 111.4 115.7 122.8 139.6 140.8 139.2 146.4 138.6 124.1
211.3 211.1 208.3 201.3 191.2 188.1 193.3 198.9 199.9 199.4 201 202.9 208.7 214.1 220 221.2 223.2 223.2 220.4 215.5 206.8 201.7 196.3 191.8 187.1 183.6 182.1 182.2 180.6 179.1 177.5 173.4 165.5 158.4 150 140.9 125.5 109.4 93.9 86.7 80.8 79.2 80.9 75 68.4 55.2 47.5 47.5 47.5 47.5 47.5 47.5 47.5 48.4 54.5 54.4 52.1 49.5 50.4 51.1 53.9 59.6 60.6 65 63.6 52.9 44.3 39.6 36.4 30.4 24.6 15.3 12.7 9.2 8.1 6.3 2 -1.8 -1.8 12.3 25.6 37.7 55.9 85.8 98.3 105.6 116.1 119.7 121.3 121.4 120.9 122 130.9 138.4 153.3 164.1 175.6 175.9 174.6 173.3 164.2 159.1 153.3 147.3 142.3 138.3 132.7 128.8 126.1 123.7 119.9 117.4 116.1 120.1 119.8 124.7 122.2 118 111.1 92.1 90.7 94.5 95.1 85.3 76.1 71.6 69.2 62.2 59 56.3 53.8 55.1 57.2 60.2 68.3 83.4 90.2 96 101.1 106.2 111.5 122 134.4 144.7 150.2 153.9 157.7 157.2 169.9 182.3 187.2 194.6 201.2 197.1 185.7 175.8 172.2 168.6 164.2 159.7 144.7 131.8 120.7 113.4 111.7 119 129.6 137.7 140.9 132.4 127.2 129.5 135.7 149.7 165.8 176.9 176.6 168 163.2 160.9 161.9 146.5 135.9 130.6 136.4 118.5 109.5 107.8 108.6 107.7 106.8 109.4 114.1 119.1 135.7 139.7 141.5 148.5 139 121.9
223 221.7 223.8 212.5 199.6 194.9 199.6 205.5 207.7 204.7 203.4 207.1 208.1 213.6 217.9 217.4 217.8 216.8 214.4 211.5 204.4 198.7 196.6 186.9 181.8 178.7 177.2 174.6 174.3 175.5 172.4 168.4 161.5 155 150.5 139 128.3 113 102.4 99 91.7 91.9 94.2 89.2 80.8 64.6 53.5 47.5 47.5 47.5 47.5 47.5 47.5 47.5 51.2 52.5 49.2 47.5 48.5 47.9 50.5 60.6 61.6 63 65 56.5 46.7 42.4 36.2 28.6 21.4 14.1 10.5 9.7 7.8 6.7 3.7 4.1 -1.8 9.2 25.7 40.6 60.9 78.3 93 101.4 109.9 115.6 117.4 116.2 117.4 119 124 133.7 141.1 154.5 166 167.2 166.8 164.2 163.9 158.1 150.8 146.2 140.2 135.5 132.3 130.4 125.6 122.9 123.2 118.4 121 129.2 135.9 136 124.3 113.7 105.9 97.6 97.9 103.6 100.7 91.7 82.5 77.2 74.1 66.1 64.1 60.5 57.1 58.4 61.2 62 64.8 76.1 83.9 93.6 101.5 103.5 110 119.1 129.6 138.3 146.1 153.9 158.9 157.8 165.8 176.5 181.5 190.9 193.6 196.6 189.2 173.1 165 159.7 156.8 151.2 140.2 127.8 123.9 114.6 110.1 113.8 126.8 130.5 135.3 131.9 127.5 127.5 134.7 147.5 157.4 171.2 173 171.2 164 159.6 154.9 143.7 130.6 128.9 135 126.7 110.1 107.5 104.5 102.5 104 107.9 113.8 117.1 129.1 134.6 144.7 142.7 132.2 121.1
234.1 233.2 234.7 228.6 208.8 202.3 205.7 213.1 216.5 209.6 207.6 210.8 209.4 211.7 213 214.6 214.5 213.1 210.1 207.2 199.3 196.4 188.9 180.1 175.8 175.4 171.4 168.1 169.8 170.1 168.9 164.3 158.7 153.6 147 136.1 126 118.4 110.6 109.3 104.6 107.4 108.6 105 92.9 77.1 64 55 52.7 47.5 47.5 50.4 47.5 47.5 50.3 49.5 47.6 46.2 45.4 45.4 48.5 58 62.6 62.9 62.4 55.9 51.9 48.2 38.1 27.3 22.3 17.5 11.1 10.7 10.4 8.6 4.6 3.8 2.2 6.1 21.9 36 60.1 70.8 86.4 97.3 104.1 110.2 111.8 112.1 113.1 115.1 117.7 127.2 135.3 142.6 154.9 161.3 163.5 163.4 157.4 152.1 146.7 142.1 136.7 134.2 133.3 131 125.9 124.7 124.5 125.1 130.6 136.6 133.4 122.7 114.5 110.5 108.1 105.2 106.9 107.2 103.7 99.7 87.6 81.2 76.8 73.5 69.8 63.3 61.3 65 66.7 66.2 66.3 72.3 80.3 86.1 93.4 98.9 107.7 114.4 123.2 136.2 144.7 153.4 153.8 155.6 160.3 167.6 174.8 182.2 190.3 192.3 189.5 177.4 160.7 150.8 145.8 142.4 133.8 126.7 127.9 112 107.4 110.1 120 126.4 135.7 132.5 128 124.1 131 142.3 155.6 166.2 165.9 164.7 163.6 166.7 149.4 137.1 129.7 126.6 127.2 123.7 108.5 106.1 99 98.1 100.6 105.4 109.8 111.9 121.4 128.7 137.7 135.7 127.4 115.3
236.8 233.1 230.6 224.1 212.6 208.7 211.9 222.2 225.3 213.1 211.1 211.3 209.6 211.1 210.8 211.1 210.6 209.6 205.2 199.8 195.4 189.4 180.5 177 173.5 170.7 168.6 164.1 163.2 163.7 163 160.5 155 150.1 142.9 132.8 127.6 120.2 118.8 117.3 117.4 124.1 125.3 120.9 109.7 91.8 77 63.6 57 55.3 53 52.5 51 48.3 48.5 49.1 47 46.3 44.5 44.2 46.4 50.2 63.6 62.8 58.2 55.7 50.7 46.6 41.6 35.1 23.7 18.4 13 12.1 13.1 11.7 8.2 5.6 2.4 5.9 17.4 34.9 63.4 66.8 80.7 91 98.2 103.4 106.7 107.1 108.4 111.1 114.3 117.6 130.7 140.1 151.7 160.3 162.5 156.7 151.6 145.1 140.4 138.8 135.2 134.4 131.7 128.9 125.5 126.4 127.5 132.1 135.1 134 126.3 122.8 121.7 123.3 120 116.8 117.3 110.6 108.6 107.2 90.9 86.6 81.2 78.8 77.5 66.7 66.1 71.1 75.8 71 68.9 72.2 78.7 85.3 89.2 95.7 104.1 112.2 119.5 136.5 140 147 149 155.7 155.6 159.3 169.9 177 184 184.4 184.9 175.6 156.3 143.3 142.4 134.9 125.1 116.7 110.8 106.9 101.7 104.1 113 120 126.6 130.6 126.7 121.7 126.1 138 157 165 163.3 164.2 169.7 166.1 146.7 144 131.7 127.9 125.3 120.9 108.8 101.4 94.5 93 96 99.8 105 108.7 118.1 124.1 132.8 129.2 121.1 110
236.3 232.2 229.5 222.6 214.3 212.1 212.8 223.3 229.9 216.7 213.3 212.2 210.1 210.8 209.6 207.9 206.1 203.2 199.8 194.8 187.9 182.5 178.8 173.4 169.6 165.3 159.7 156.2 157.7 158.5 157.2 154.9 151.5 148.3 142.1 135.1 128 122.6 125.1 127.7 131.2 138.6 141.4 139.6 127.7 108.8 89.5 72.5 67 61.8 57.3 56.8 54 51.3 48.9 46.4 46.5 46.8 45.8 45.6 43.3 47.2 58.1 57.2 56 53.9 53.4 54.1 43.9 38.7 26.3 18.5 14.3 15.3 16.9 16.6 11.7 5.2 4 4.9 15 33.3 48.1 60.1 71 85.4 92.8 97.9 101.7 104.6 106.8 108.1 111.3 115 124.7 130.8 142.8 151.3 153.3 152.9 149.3 142.7 137.9 134 133.7 131.5 129.9 126.7 122.8 125.5 128.8 134 133.6 127.3 126.8 128.2 138.9 139.5 128.4 127.3 123.5 115.7 110.7 106.8 96.1 96.1 91.3 87.5 80.4 72.8 70.9 77.9 80.5 76.8 73.7 73.7 76.9 85.7 91.9 96.7 100.7 108 115.4 124.4 134.6 137.7 144.3 149.6 150.5 152.4 159 166.2 176.8 179.1 176.4 166.6 155.8 141.8 131.5 125.7 119.9 112.5 106.1 103 97.7 98.2 104.6 112.5 121.2 126.4 122.8 120.1 123.5 131.5 146.5 159.3 160.5 162.9 163.8 157.5 149.8 154.3 137.7 130.1 122.5 120.7 109.2 99 90.5 90.4 93.6 96.6 105 108.3 115.8 121.2 123.1 120.7 116.1 107.4
235.9 232.4 228.1 222.8 217.6 214.9 213.6 215.3 226.4 220.9 214.7 212.8 212.2 211.7 207.7 204.8 201.2 197.9 194.1 189.1 182.5 180.4 174.6 169.9 163.1 158.1 153.7 153 153.1 153.5 153.2 151.3 147.8 146.3 141.3 137.1 131.1 128 133.4 145.8 148 153.9 155.9 151.1 143.6 124.9 103.1 86.3 74.7 69.3 62.4 60.6 57.7 52.8 49.5 47.8 47.6 48.9 46.6 45.6 42.6 44.3 50 55.2 55.5 54.9 55.5 53.2 51.1 37.3 28 22 21.1 21.2 22.3 20.6 16.1 8 4.8 4.1 11.7 28.4 42.6 56.1 73.2 80.8 85.5 92.4 96.6 101.7 103.9 105.7 107 109.7 116.3 123.7 132.3 141 145.8 148.6 147.5 141.8 135.6 131.6 130.8 131.1 128.7 124.5 121 121 127 131.7 127.6 128 126.9 132.5 138.6 138.9 131.1 131.7 125.6 120.3 112.1 105.4 102.2 102.4 99.6 99.2 84.5 79.2 77 81.5 87.6 80.2 79.4 76.7 76.2 84.3 91.4 96.5 100.6 105.8 111.8 115 123.6 129.4 138.3 141.5 143.3 144.2 149.9 157.7 167.9 172.7 173.6 161.7 153.4 141 128.7 118.3 111.9 104.5 100.7 99.5 92.7 91.4 94.4 102.7 115.1 122.7 118.5 117.6 120.6 126.3 136.3 149.3 151.4 154.2 156.6 153.1 149.9 144.2 139.1 136.1 122.2 120 107.3 94.2 88.7 89.5 91.2 93.6 106.1 105.1 108 115.6 114.6 113.6 107.5 104.2
239.8 235.2 229.9 225.7 220.8 218.8 216.6 216.6 222 220 215.2 214.3 212.8 209.6 205.7 200.1 195.8 192.3 187.3 182.7 177.8 174 170 165.3 163.4 159 153.3 150.3 148.3 149.1 148.8 147.1 146.4 144 141.6 137.8 134.4 134.8 147.2 159.2 161.4 161.5 164.5 167.5 168.3 154 125.6 100.3 87.8 80.4 68.9 63.9 61.4 54.4 50.6 49.2 48.9 51.3 48.3 45.7 44.2 41.6 46.8 51.9 55.7 56.1 54.6 54.3 48.3 37.8 31.2 26 24.3 25.9 27.2 25.3 23.1 15.2 8.3 5.6 9.3 21.6 39.6 55.8 71.5 75.5 82.8 87.6 91.1 97.8 101.7 103.3 103.7 105 111.9 118.4 121.6 133.9 140.3 141.9 143 136.9 130.7 128.6 131 128.9 128.3 123.8 121 121 123.9 126 126.4 129.7 126.9 129.1 133 131.4 132.9 134.8 134.1 124.8 115.5 108.3 106 106.9 108.3 107.3 95.7 83.9 80.9 83.3 81.8 80.8 82.6 81.9 75.6 76.9 85 91.8 98.4 104.4 106.8 111.1 112.3 120.2 127 132.7 135.7 136.6 140.5 149.5 155.9 165.1 165.8 156.9 148.5 138.7 128.6 116.5 105.9 96.9 93.2 90.9 88.8 85.9 87.9 95.8 103.9 113.1 112.6 111 115.4 123.5 128.3 139.2 142.8 149.6 147.2 145.3 144.4 145 143.8 133.2 125.6 114 107.2 91.3 88.1 87.3 87.8 90 99.7 99.6 103 113.1 112.1 109.3 103.7 98.7
253.8 249.3 244.2 240.1 230.6 222.7 220.8 220 221.6 220.3 215.6 212.2 209.6 205.5 202.7 196.8 191 185.5 182.4 178.6 174.3 171.8 167.6 164.1 161.8 158.8 152.9 146.1 144.7 145.4 144.1 144.3 143.3 142.9 142.2 140.3 136.9 138.6 155.5 161.6 171.9 172.6 176.9 179.9 179.7 164.3 145.3 117.2 101.4 91 77.2 70.1 64.9 58 53.2 50.4 50.6 49.5 47.9 45.7 43.8 40.5 42.3 48 57.8 61.6 56.1 54.3 49.3 41.5 36 26.9 29.3 29.5 32 36 36.7 24.8 10.2 5.3 6.4 19.4 36 56.7 67.1 73.1 79.9 84.6 88.3 93.9 99.3 102.1 102.9 101.9 105.9 110.6 116.1 124.3 131.1 134.9 134.1 131.5 127.7 125.3 127.5 126.8 125.4 121.9 121.1 125.3 124.4 121.9 125.5 127.4 126.9 130.2 131.4 132.2 136 136.7 130.3 123.4 118.3 112.3 111.2 113 111.4 110.8 103.4 90.1 83.1 82.5 79.9 83.7 78.7 82.7 77.8 74.3 76.9 84.7 92.7 96.5 99.6 105.9 106.7 109.4 117.9 124.9 126.8 128.1 134.1 139.2 146.3 154.5 154.6 152.3 139.6 133 127.7 119.1 106.7 97.5 90.2 86.7 84.8 81 82 89.1 94.7 100.4 104.3 107 109.7 119.8 123.3 133.8 135.9 138.2 145.4 147.7 141.2 141.5 140.8 133.8 122 112.6 106.7 90.4 87.1 85.9 84.8 88.2 90.8 97.9 98.3 105.4 105.2 102.7 99.5 92.4
274.2 274.9 271 285.9 261.8 232 227.6 222.3 221.8 220.3 215 212.2 208.5 205.4 201.9 195.7 184.4 180.7 180.6 177.2 174.5 170.4 165.1 162.4 156 152.8 149.1 143.4 142.1 141.8 142 141.7 143.1 141.9 142.8 141.3 139.1 145.5 153.3 163.4 182.8 190 195.9 199.1 195.9 174.4 155.9 135.4 113.3 101.1 85.3 76.1 71.9 59.9 55.6 53.4 49.6 48.2 46.8 44.7 43.6 40.7 38 40.7 54.8 58.4 60.2 57.5 55.9 44.1 37 31.6 30.7 34.6 40.6 44.4 40.2 28.8 15.2 7.1 6.7 15.8 33.9 52 65.3 71.7 78.4 83.5 86.2 89 95.1 97.4 99.2 98.5 101.2 106.8 111.8 114.3 124.9 127.9 130.1 127.1 124.3 123.2 122.8 123.6 124.5 122.7 120.5 120.4 117.5 116.1 117.1 122.3 126.4 128 132.7 135.6 134.3 130.3 128.2 123.5 122.9 117.3 118.6 117.7 113.3 120.3 110.3 95.3 82.9 78.8 76.2 75.1 75.3 76.4 77.2 74.2 74 80 85.8 88.9 92 98.4 101 102.6 107.8 117 121 125 130.9 134.1 137.8 144.4 147.1 145.7 138.8 131.3 124.2 116.9 109.4 100 90.2 84.6 78.3 76.6 77.4 82 88.3 88.8 98 102.8 105.6 112.2 118.5 128.3 129.9 130.8 138.6 141.2 138.7 136.2 140.2 134.6 119.8 110.9 101.2 87.9 86 84.7 82 85.6 88.1 92.2 93.8 100.6 97.5 94.8 92.1 89.2
313.2 311.4 303 296.8 277.7 245.6 232.8 226.3 220.9 216.9 214.4 210.9 206.7 202.7 198.1 193.2 181 175.5 176.3 176.7 174.7 171.3 167.9 163.6 157.2 149.9 144.4 142.1 140.8 139.9 140.5 140.5 140 140.1 140.5 137.7 140.7 148.6 160.5 184.1 197.2 202.3 204.8 210.1 202.4 185.6 163.8 148.9 133.4 112.7 94.3 75.8 70.2 62.4 57.8 53.8 50.1 46.9 45.9 43.6 43 41.9 36.3 38.5 44 53.9 60 60.4 58.7 51.5 40 34.4 32.9 39.2 41.6 37.7 33.6 26.6 17.7 17.2 6 8.8 26.2 43.1 59 66.3 74.8 80.7 82.7 84.5 89.2 91.7 96.1 96.4 100.2 105.1 107.9 110.4 115.9 119.9 121.7 120.5 120.2 120.4 117.2 116 117.2 118.6 115 113 111.2 110.9 114.3 117.6 119.9 130.1 138.1 143.3 133.8 128.1 126.2 124.6 125.1 123.3 117.7 114.1 117 118.6 111.1 98.7 80.6 75.2 71.4 71.4 74.3 78.1 76.3 74.2 70 72.9 77.4 81 84.3 93.7 95.2 99.9 103.6 105.7 112.4 121.9 126.2 128.7 130.4 135.1 137.6 138.8 137.2 131.7 124.4 118 112.8 101.9 91.5 85.6 77.9 72.3 72.3 74.3 79.9 82.9 90.1 99.2 103 106.9 111.4 119.9 124.4 123.8 126.3 124.3 131 134.5 141 133.7 115.8 107.8 93.2 85.2 84.3 82.9 78.2 81 86.9 85 87.4 88.5 92.3 90.6 87.6 88.9
332.2 324.1 309.7 299.3 287.9 255 239.3 229.9 222.1 220.5 217.8 213.2 205.1 202.1 197.3 191.4 183.6 175.6 172.1 176.3 178 173.7 170 166.1 157.7 150.5 145.2 142.2 141 139.9 140.6 140.8 140.1 137.7 137.7 138.3 144.3 157 169 194.5 208.4 207 207.4 223.9 215.4 191.1 175.5 165.7 149.8 129.2 99.9 82 70.3 62.9 58.9 56.1 52.4 47.6 45.7 43.2 41.4 39.6 37.2 35.8 41.6 48.5 56.9 58.6 66.8 63.5 41.1 34.1 35.3 41.6 41.6 35.3 25.6 20.7 20.1 19.5 11.4 7.3 18.3 37.1 51.8 62.4 69 75.5 78.3 80.4 84.7 87.7 88.3 90.6 91.5 97.5 102.2 105.6 108.8 112.7 115.6 116.7 117.5 118.4 115.5 112.1 108.4 106.2 105.8 104.1 103.2 104.3 107.3 108.9 112.7 124.5 135.8 136.7 131.9 127.2 126.9 128.4 124.8 121.8 113.8 112.3 107.1 108.1 102.8 90.6 79.3 71.3 67.7 66.6 71.6 71.5 73.7 73 68.8 68.9 70.2 72.1 76.6 80.8 88.8 93.5 95.8 98 100.7 112.8 119.5 126.2 124.5 126.7 129.7 132 132.1 132.2 125.1 118.7 114.7 102.5 94.3 88.3 80.1 73.2 70.5 71.3 74.4 77.7 83.7 91.8 98.4 105.7 108.3 115.8 119.5 117.3 116.7 115.5 128 130.2 136.9 130.7 112.9 101.4 91 81.7 81.6 81.8 76.6 76.8 83.3 81.1 79.7 82.1 87.8 88.1 82.7 82.1
338.6 325.6 311.2 303.9 289.6 268.8 246.5 237.8 229.1 223.2 221.9 216.8 206 202.1 196.9 192.6 188.7 180.7 172.1 176.6 183.1 178.1 172.7 169.4 162.4 153.8 146.9 144.1 141.6 140.2 140.2 140.4 141.1 137.7 137.7 140.9 147.5 159.7 184 205.4 216.6 218.6 221.4 235.7 224.6 195.3 181.4 174.4 161.8 144.3 116.3 86.3 72.9 64.5 59.9 57.7 55.1 50.3 44.4 42.6 42.7 39.6 37.3 35.1 36.9 45.3 51.6 54.9 61 64.9 46.1 35 38.5 45.1 43.7 38.1 23.6 18.8 16.8 13.7 11.4 6.7 9.2 30.5 45 54.7 63.5 68.7 73.2 77 79.6 82.7 84.5 86.8 90 95.2 101.1 103.6 105.1 110.1 113.1 113.4 114.1 114.9 114.2 110.5 105.3 102.3 101 100 99.4 100.7 102.5 104.5 105.8 111 121.4 126 123.9 119.2 117.7 118 120 113.9 105.5 101.8 101.5 96.8 90.5 85.3 76.6 68.7 64.6 61.9 65.8 68 72.4 72.7 68.8 66 66.1 69.5 72.2 76 82.4 89.2 93.4 94.7 95.4 101.2 111.6 118.3 120 122.5 122.7 125 134.8 134 125.7 121.2 115.8 101.9 98.2 90.2 84.2 73.7 69.9 69.2 74.9 76.7 80.1 88 92.8 104.4 105.5 110.2 110.6 109.5 113.1 123.2 130.9 130.9 133.3 121 108.8 103.9 91.9 79.3 79.3 76.9 73.3 72.9 78.5 76.3 75 74.5 76.1 87.1 78.9 78
340.7 321.6 310.2 304 291.2 275.1 255.6 248.9 239.9 231.5 224.9 219.4 209 203.5 196.7 193.9 191.6 184.9 176.3 172.1 183.1 178.5 174.4 175.2 167.6 155.7 151.2 147.3 142.4 140.2 139.3 140.2 140.4 137.7 137.7 143 150.2 165.3 188.6 212.3 224.7 231.8 232 229.8 218.1 193.2 187.3 173.4 158.1 136.4 108.6 93.6 76.1 66.5 61.7 55.8 54 47.5 44.9 42.9 45.5 44.1 37.9 33.7 35.6 41.8 48.9 51.2 55.2 56.2 50.3 35.5 35.9 39.8 41.5 32.9 24.9 16.5 13.7 10.2 9.1 7.6 9.1 27.8 39.8 48.7 55.3 62.8 68.8 74.3 76.5 79.6 81.3 86 87.8 92.8 98.2 100.8 101.5 104.3 109.5 111.9 112.8 113.8 112.7 107.2 102.3 99.2 98.8 97.9 97.5 98.6 101.8 102.5 104.7 106.5 110.4 114.9 115.6 115.8 115.9 114.8 116.5 114.9 109.6 102.1 95.3 91.3 84.5 80.9 73.8 66.3 60.9 60.9 60.9 65.1 66.8 67.5 69 65.9 60.9 62.5 69.2 74.2 78.5 86.9 92.5 92.5 93.2 97.8 102.9 109.6 117.7 119.6 117.6 117.9 124.2 128.6 125 117 106.4 102.3 96.9 91.5 86.5 75.2 68.8 67 78.5 78.5 79.7 83.9 90.3 98.9 99.6 105.1 105.6 105.6 109 130.2 130.2 122.9 123.5 118.2 107.9 105.9 91.4 76.7 74.9 74.3 69.3 67.2 69.8 70.9 71 67 69.1 78.2 71.5 70.3
337.4 318.2 308.8 297.9 291.2 276.8 258.9 256.7 246.7 240.5 225.6 218.4 211.9 204.2 198 196.1 193.8 189.3 182.4 172.1 178.3 178.2 175.7 177.1 166.5 159.5 155.8 149.9 146.3 141.6 137.2 137.2 139.9 139.6 138.7 146.6 154 177.1 193.4 220.8 227.5 237.4 236.8 227.4 211.7 200.1 184.8 162.6 151.1 129.1 113.1 102.1 83.6 66.2 58.6 54.7 52.4 48.1 45.7 44.4 49.3 48 39.4 35.1 35.3 36.7 39.6 48.6 49.2 49.6 46.4 36.5 35.5 33.9 36 29.4 18.9 15.8 10.5 8.2 7 8 10.3 24.8 36.1 44.6 52.4 59.5 65.8 71.7 73.8 78.1 81.1 84 85.9 89.7 94.9 97.1 99.7 102.7 106 108.5 108.8 108.3 108.2 103.3 99.2 97.5 96.9 96.8 97.1 97.8 99.5 103.4 104.7 106.6 110 112.7 114 114.8 116 116.4 119.1 118.7 110.4 102.7 94.8 85.9 80.7 75.4 69.3 64.7 60.9 60.9 60.9 60.9 60.9 60.9 68.8 60.9 60.9 63.5 70.2 70.9 76.7 82 89.1 88.7 91.2 93.5 97.5 102.8 112.1 114.8 113.4 113.4 118.9 118.9 117.6 110.8 105.3 101.4 95.1 91.2 85.8 75.7 69.1 66 78.2 78.4 80.6 81.3 85.4 91.8 96.1 101 102.7 103.5 111.1 126 127.7 117.2 110.4 105.4 101.4 97.1 85.4 73.1 75.8 72.4 67 62.9 64.7 66.6 68.1 61 63.4 71.4 65.2 61.4
329.9 315.3 302.8 291.9 285 274.9 260.8 257.3 251 245.6 229.5 220.9 215 206 198.5 196.7 197.7 191.3 188.2 177.4 172.1 177.9 177.3 173.5 169.9 165.1 160.7 155.7 150.1 143.7 141.4 137.2 140.2 140.1 141.4 148.1 162.3 176.7 203.6 219.8 223.6 230.7 225.8 215 201 192.9 179.1 159.4 143.9 127.1 114.8 102.9 82.7 67.4 57.9 53.2 50.9 47.7 45.7 46.4 48.7 51.1 41.2 36.2 32.6 34.1 35.7 42 45.6 47.3 49.3 43.8 33.5 30 27.5 17.2 10.1 7.7 11.2 13.3 12.1 15.8 8.7 22.9 31.5 39.8 48.5 57.6 62.2 67.4 70.8 76.6 78.9 81.3 83.1 86.4 89.9 94 98.5 100.4 102.4 104.8 104.6 104 100.9 99.5 96.9 96.4 96.1 95.9 96.9 98 99.9 105.8 106.5 107.7 110.5 112.5 113.8 115.3 120.7 122.7 127 125.1 110.3 98.1 89 85 80 78.2 72.8 67.1 60.9 60.9 60.9 60.9 60.9 60.9 60.9 60.9 63.1 65.4 66.5 67.7 71.7 75.2 84.4 85.8 89.8 91.5 92.5 97.1 100.4 106.4 109.5 108.8 109.8 113.1 107.7 106.4 104.8 102.4 94.8 90.5 85.1 75.5 68.8 64.6 66.9 74.1 79.4 79.6 82.2 91.2 93.2 96.8 100 102.1 110.6 124.1 123.1 115.2 104.8 97.7 95.4 90.3 81.2 68 73.5 69.4 64.2 59.2 61.5 63.2 62 58.9 55 60.1 63.5 57
322.8 307.5 298.6 287.3 278.9 269.7 259.3 256.3 249.6 242.7 234.6 224.8 222.6 209.3 201.8 196 194.3 193.4 189.9 182.8 172.1 174.5 175.7 174 170.1 169 164.3 162.1 153.2 147.3 142.2 137.2 139.3 142.1 142.5 150.2 161.4 174.8 201.4 211.9 213.9 214.2 214.5 202 188.5 181.3 166.9 157.3 145.4 128.6 114.3 95.2 83.3 68.9 57.1 50.8 49.4 47.8 45.8 48.6 47.8 49.9 41.2 34.2 31.5 32 32.9 34 40.3 44.7 49.1 43.5 29.6 22.1 14.7 12.1 9 10.7 12.5 14 13.8 20.6 15 12.8 28.4 36.6 44.3 52.7 58.7 64 68.2 71.5 75.9 78.6 81.3 83.7 88.5 91.8 96.9 98.2 99.9 101.4 101.6 99.3 97.2 95.3 94.6 95.4 98.7 98.6 98.6 99.9 101.5 109.6 108.3 110.2 111.6 113.3 116.2 122.9 132.9 135 131.3 130.5 107.5 95.3 91.1 88.2 88.2 86.4 76.5 68.5 60.9 60.9 60.9 60.9 60.9 60.9 60.9 64.6 60.9 65.5 65.7 67 68.1 72.5 75.4 81.7 90.3 90.7 91.2 93.6 96.7 98.8 101.4 101.3 101.6 104 101.5 100.6 97.8 99.4 96.5 94.4 85.5 78.1 70.2 64.9 64 69.4 77.7 75.3 77.8 92.5 90.6 93.8 98.9 100 106.3 114.7 115.4 112.8 98 93.3 85.9 83.7 76 62 65 61.8 58.4 53.6 58 56.8 54.9 50.3 47.6 51.9 57.7 53.8
314.8 302.5 292.6 281.3 271.8 262.3 255.6 250.2 245.7 240.7 235.4 228.1 229.6 212.1 203.1 196.8 193.6 194.8 190.6 184.2 173.8 172.1 174.6 175.1 171.9 172.3 165.5 168.1 156.9 149.6 143.8 139.6 137.2 140.1 142.1 151.2 161.3 177 194.1 200.5 201.1 198 195 185.2 182.2 173.3 160.4 150.5 139.8 122.9 107.7 94.9 84.7 69.9 56 48.4 47.3 48.8 44.6 47.5 46.8 45.4 39.3 36.4 31.3 30.7 30.3 29.6 33.2 35.3 37.2 27.5 29.3 24.7 18.2 15.4 12.4 11.2 8.8 13.2 13.9 18.3 16.9 9.4 26.2 33 41.4 47.6 55.7 61.2 65.3 68.8 72.3 76.6 79.5 81.8 84.2 89.2 93.5 96.3 97 98.1 97.5 96.1 95 94.5 96.4 97.4 98.9 99.9 101.5 102.5 104.5 107.5 110.2 115.7 116 121.7 129.3 136.3 137.4 136.6 132 124 114.6 107.6 103.6 99.9 95.2 91.4 78.8 72 67.1 60.9 60.9 60.9 60.9 60.9 60.9 60.9 60.9 65.6 66.9 67.6 68 69.3 73.6 76.7 88 89.6 88.5 91.1 90.9 92.5 93.5 92.7 94.9 97.2 95.5 94.4 95.2 97.3 100.4 98 85.4 79.7 70.8 66.6 62.4 65 69.7 72.7 74.9 87.5 88.8 89.4 94.5 100.3 103.5 112.7 109.3 102.5 91.4 83 80 75.8 66.9 57.1 55 53.7 50.2 48.5 51.4 50.2 48 46.8 44 44.3 46.5 52.7
306 295.4 284.2 275.1 265.4 256.1 248.4 244.5 239.6 234.3 230.3 225.9 225.1 212.8 202.1 199.8 194.1 193.8 193 188.6 180.7 172.1 174.9 174.1 173.7 172 172.2 172 161.4 152 144.4 141.2 138.6 137.2 143.2 147.5 160.6 174.7 188.9 193 188.6 187.6 184.5 179.3 170.4 163.8 156.7 146.3 132.5 117.1 104.4 93.4 83.7 70.3 58.8 47.2 43.9 46.5 45.7 47.4 47 45.7 43.4 41.2 35.4 31 29.9 31.1 28.3 30.7 32.4 31.9 36.7 34.2 23.5 21.3 16.8 14.3 12.6 11 14.3 17.5 15 9 25.1 30.4 37 43.5 53.4 58.8 62.5 66.8 70.4 73.8 77.6 81.3 83.2 87.1 91.4 94.1 94.6 95.2 94.8 94.3 95.6 97 99.3 100.7 100.7 102.2 107 107.8 108.7 112 116.8 122.9 133.9 137.8 142.2 148.2 153.5 146.5 145 142.4 124.5 119.3 108.9 99.4 93.1 87.1 81.6 75.6 71.1 63 60.9 60.9 60.9 60.9 60.9 60.9 60.9 60.9 66.3 68 68.8 71.2 71 73.3 77.1 81.2 83.1 84.5 82.9 83.2 87.2 87.5 88.6 89.4 90.7 89 91.3 98.4 99.3 100.5 87.5 81.1 72.6 66.7 62.3 62.4 64 69.5 71.8 79.4 85.7 87.3 94.8 96.3 96.6 104.8 107.3 96.3 85.7 76.1 71.7 68.7 60.9 52.8 51 49.1 48.5 46 46.6 45.8 45.5 45.6 43.9 41.4 42 47.4
296.7 284.5 274.7 266.9 257.1 248.4 242.2 238.4 233.6 227.3 223.7 222.3 218.4 212.6 202.3 200.1 196.4 197.4 198 192.8 185.4 178.6 176.5 175.2 173.5 172.6 173.6 177.1 165.8 153.9 146.4 142.1 140.5 137.2 140.7 147.2 157.2 175.4 179.3 182.4 181.6 177.7 174.5 168.2 163.1 157.1 147.8 138.2 127.2 115.4 102.7 89.8 79 66.7 58.6 51.1 43.9 43.9 45.7 47.9 51.3 52.8 51.4 46.3 37.9 32.1 29.6 30.8 29.2 30.6 33.2 35.4 42 40 22.5 20.6 19.1 19.8 15.3 13.7 16.8 17.5 17.5 14.7 18.6 29.1 33.7 40 48.1 55.2 60.1 63.9 68.2 71.6 75.9 78.5 82.1 85.1 89.7 91.9 92.7 92.6 93.6 95.9 98.3 102.5 103.2 104.8 104.1 107.3 113.9 115.9 118.3 121.2 126.8 141.4 146.1 153.1 159.6 167.6 172.6 166.4 155.9 145.7 127 117.9 105.2 98.7 93.1 90.5 83.9 79.3 69.9 64.7 65.2 60.9 60.9 60.9 60.9 60.9 60.9 60.9 65.6 68.8 72.6 74.5 72.9 73 74.6 77.5 79 79.2 78.1 79.2 81 81.9 82 82.4 87.2 84.2 84.6 90.2 96.7 100.1 88.6 78.5 71.6 64.6 62.4 58 60.5 67.9 67.5 71 84.1 85.3 89.8 90.4 91 93.6 92.1 89.4 81.8 71.4 65.1 60.8 56 50.7 49.8 48.6 46.5 44.2 44 44 44.2 44.2 43 41.2 39.3 40.3
285.5 275.1 266.9 257.4 248.4 241.3 235.8 231.8 226.1 221.3 218.5 217.7 212.8 206.9 199 198.3 198.9 200.4 204.2 197 189.2 181.3 176.7 176 175.2 171.8 171.9 180.6 169.5 156.6 146.2 143.5 140.5 138.3 137.2 146 154.6 164 169.5 170 169.1 166 164.5 157.8 153.5 148.6 142.3 133.1 123.7 111.2 97.1 90.1 74.4 66.6 60.5 53.1 44.4 43.9 48.2 50.4 55.2 58.7 53.9 48.9 40.4 36.2 30.4 32.7 30.6 29.5 33.2 34.2 40.9 44.8 26.6 20.1 21.7 23.4 17.1 14.7 15 17.3 20.9 17.8 10 26.9 31 37.9 45.3 51.7 56.4 60.9 66.5 68.8 73.3 76.8 80.8 85.1 88.3 91.8 91 92.5 95.3 97.9 103 107.3 108.1 109.6 116.2 120.8 126 130.6 131.9 144.2 143.5 153.9 161.2 165.3 179.5 193.6 192.6 179.8 162.7 147.7 134.2 117.2 105.7 95.4 90.2 86.6 82.7 78.8 72.3 68 65.6 65.6 60.9 60.9 60.9 60.9 60.9 63.1 67.8 69.8 74.5 77.7 74.4 73.4 73.8 74.5 74.5 76.2 75.3 74.6 76.2 76.6 76.6 76.6 77.6 78.3 78.5 82.8 88.6 89.1 76.1 65.8 60.9 60 60.1 53.2 55.4 56.9 61.9 68.2 82.7 83.5 86.5 84 81.8 85.9 84.2 84.4 76.6 67.5 61 55.2 51.7 49.1 48.9 47.5 45.1 42.9 42.2 42.8 43 43.2 42.6 41 37.2 38.4
274.5 265.4 256.5 248.1 240.4 234.7 229.2 224.2 219.9 216 213.4 211.3 206.2 202.1 197.2 196 199.6 203.3 208.9 199.9 193 183.2 177.9 173.8 171 168.6 167.4 170.8 167.3 156 145.1 140.1 138.7 139.4 137.2 137.2 149 155.5 159.8 160 159.5 158.7 154 149.7 146.2 142.1 135.8 127.4 116.7 104.8 92.8 86.3 77.9 68.4 60.3 54.5 48.7 43.9 48.5 52.5 59.2 60.8 58.7 48.7 44 39.2 34.3 31.6 30.8 29.9 31.7 32.7 36.3 45.7 31.1 20.9 17.5 18.8 13.9 16.2 15.7 20.8 19.7 17.4 9.7 24.5 29.5 35.5 43.1 48.7 55.4 58.2 63.7 68.1 72.7 76.6 80 83.6 87.1 91.3 91.8 93.8 97.2 101.5 109.1 112.3 115.7 122.5 132.2 140.9 151.9 154.9 158.7 167.4 164 164.3 173.7 190.3 208.2 213.2 206.2 194.4 165.3 153.8 145.3 121 112.3 98.7 94.3 90.7 87.6 80.6 73.7 68.1 66.6 66.4 65.4 60.9 60.9 60.9 60.9 66.4 70.1 71.4 75.1 76.1 74.9 74.5 72.8 71.4 71.8 72.7 71.5 71.9 73.8 74.1 73.9 74.1 71.7 72.7 71.4 75.2 77.3 74 64.1 57.1 54.9 53.5 52 49.9 51.1 52.3 60.7 64.2 76.1 80.8 83.7 77.7 74.9 74.8 73.2 73.3 66 60.9 56.9 53 50.7 48.6 48.2 46.5 43.6 41.6 41 41.8 43.1 44.8 42.9 39.7 37.7 33.9
265.8 256.3 247.5 241 233.7 227.3 220.5 216.7 213.9 210.7 207.9 205.5 201 199.8 195.3 194.8 198 208.5 209.4 197.7 189.4 180.7 178.3 169.1 165.6 163.6 163.2 161.9 159.6 151.6 139.5 134.4 133.1 133.3 139.6 137.9 142.6 148.8 150.6 150.5 148.7 147.8 145 142.7 139.3 135.5 129.5 122.8 113.8 102.8 93.9 84.2 76.5 68.7 59.9 56.9 51.4 43.9 49 54.3 55.1 53.5 53.8 49.2 45.1 42.9 36 31.6 32.1 30.9 30.6 31.4 33 34.7 35.5 25.6 16.2 16.7 19.4 16.9 16.4 22.6 20.2 21.7 12.6 23.6 28.3 34.3 41.9 46.3 53.1 57.9 61.1 66.6 71.6 75.1 78.8 83.3 84.6 87.7 91.4 94.6 102 108.6 117 118.9 125.7 134.6 144.6 160.5 177.2 174.7 180.6 188.6 185.7 192.1 196.8 209.9 219.2 220.8 210.3 197 182.4 163.2 149.6 125.7 116.6 105.2 99 94.1 89.2 79.7 74.6 69.5 66.6 67.9 66.1 60.9 60.9 60.9 60.9 67 70 72.1 74.8 78 76.3 75 72.9 70.2 70.1 69.1 69 69.7 72.2 71.9 70 70.9 69.7 69.6 66.2 68.2 68.5 64.3 56.7 53.8 51.5 49.7 47.2 44.9 47.6 51.8 57.1 60.7 66.4 73.1 77.3 72.7 71.2 67.5 66.4 61.6 57.4 52.2 49.3 48.9 48.8 46.9 46.4 45.2 44.5 42.5 40 40.7 42.9 42.7 41.4 38.4 34.2 33.9
255 245.9 238.7 232.7 225.8 219.4 213.2 209.3 206.3 203.6 202 200.2 196.8 194.8 193.6 191.9 197.4 204.5 206.1 191.3 182.3 177.5 176.4 167.3 159.5 157.9 157.6 157.3 151.4 142.4 135.7 130.8 128.5 129.6 131.4 136.9 139.2 140.3 143.5 143 141.8 140.9 139.4 137.3 133.1 129.8 126.2 118.3 107.8 101.7 93.6 83.8 74.8 67.4 62.5 57.9 52.6 43.9 50.5 54.3 53.7 53.5 52.6 50.1 45.8 44.7 40.6 35.6 30.9 31.2 31.6 31.6 33.6 35.6 38.2 28.3 16.2 21.4 18 17.4 18.1 19.5 20.9 22.1 15.2 22.4 26.2 30.5 37.3 41.3 48.8 55.2 58.7 65.2 69.9 73.7 77.4 80.8 82.7 85.7 91.4 96.2 107.3 115.2 123.2 127.5 138.5 149.5 161.4 177.1 196 195.5 198.6 198.3 204.6 204.8 219.4 224.1 223.6 222.7 211.9 197.3 185.4 167.4 149.4 128.6 121.3 111 104.6 95.5 91.1 82.3 76.6 71.6 67.3 69.2 67.5 64.3 60.9 60.9 61.3 68.1 68.6 71.5 76 79 79.2 75.2 72.9 68.8 68.9 66.9 67 67.4 70.4 68.3 65.2 69 66.7 65.8 63 61.7 61.8 57.8 54.5 52.7 50.2 47.4 44.7 43.6 44.2 51.3 50.5 56.5 61.1 67.5 72.8 71.8 69.2 64.6 59.2 55.8 52.5 48.4 45.9 46 47.5 45.2 43.8 43.7 43.8 42.9 40.1 40.5 41.8 41.6 39.4 37.4 33.9 33.9
246.2 239.1 230 224.4 218.4 212.4 207.3 203.5 199.5 197.8 196.4 194 190.9 190.1 190.8 188.9 191.8 195 193.3 188.6 181.9 174.3 166.9 162.7 155.2 151.7 149.8 148.5 145.6 136.7 132.4 128.9 124.8 123.7 127.8 128 131.7 133.5 135.1 137.3 135.5 134.7 133.8 131.1 128.2 123.8 119.7 113.6 104.6 97.3 90.9 83.1 75.9 68.1 62.9 60.3 55.1 46.8 50.9 54.3 55.1 54 53 50.7 49.3 49.2 45.9 38.8 32.5 35.4 36.8 33.1 34.3 38.7 38.7 30.7 16.5 20.7 19.3 18.3 20.5 21.7 22.2 23.4 16.1 22 24.1 28.5 34.3 39.4 43.7 49.9 56.3 62.3 66.6 71.5 75.5 77.1 82.3 86.6 92.5 97.4 110.9 120.8 130.1 137 147.7 160.4 177.5 189.4 208.4 213 218.9 215.1 215.7 216 224.4 223.4 221.5 217.5 207.5 195.2 176.1 164.3 151.6 133.2 120.6 110.3 105.2 95.7 91.9 88.4 77.6 71.5 68.4 68.8 67.5 65.5 64.3 60.9 65.5 69.7 68.6 71.7 75.6 79.3 79.9 77.2 74.5 68.4 62.4 63.4 64.2 65.2 67.4 65.2 62.2 60.4 59.9 59.3 58.8 55.9 55.7 51.1 52 52.7 49 46.1 43.4 41.9 42.6 45.3 45.7 49.6 56.1 59.5 65.5 72.3 69.1 65.2 59 54.2 50.1 47.2 44.4 42.7 46.5 44.5 41.4 42.3 44 43.2 39.8 39.7 43.7 40.1 38.8 37.7 33.9 33.9
237.9 231 223.8 218.7 212.4 206.5 202 198.1 194.5 191 189.3 189.4 188.3 186.4 185.2 185.3 187.1 189.1 185.1 182 175 168.8 161.3 156.7 149.6 143.9 141.7 139.5 134 128.6 125.8 123.4 122 119.9 119 121.7 122.5 127.4 129 130.9 129.9 129.4 127 123.4 120.9 118.1 113.3 107.3 98.1 92.8 86 81 72 66.5 64.2 63.4 54.6 47.7 54 55.9 57.5 55.8 54.4 53.9 52.6 51.5 45.6 39 33.9 33.7 41.8 36.9 32.9 42 44.8 33.6 20.5 15.9 20.4 21.5 22.3 23 27.2 27.5 19.5 10.8 20.1 26.9 32.6 37.4 42.4 47.7 55 60.2 65.2 69.6 72.6 75.7 80.6 85.2 93 100.7 114.6 127.9 140.5 143.1 152.6 169 188.8 202.7 215.6 223.1 225.9 222.7 220.3 219.6 217.5 213.3 213.2 205.7 203 188.8 175 162.8 147.8 131.2 117.7 110.4 104.2 98.6 93.2 87.3 75.1 70.3 68.5 68 71.4 66.2 67.3 60.9 63.7 69.9 69.8 69.5 76 79.3 80.4 78.9 75.1 69.9 62.6 60 61.3 63.4 62.5 61.9 58.9 54.6 53.2 54.7 53.7 51.6 46.2 45.7 47.5 50.6 47 44.3 42.6 40.9 41 40.7 41.7 43.6 51.7 54.1 59.8 70.7 67.6 65.7 57 52.5 48.1 44.3 40.5 38.9 44.2 44.5 38.6 39.1 44.9 42.4 39.5 38 41.3 39.2 38.1 38.2 35.7 33.9
230.1 223.3 218.5 212.7 206.4 200.9 196.8 193.6 189 184.8 183.6 184.8 183.1 180.9 181.5 181.1 182.1 181.5 179.2 174.2 169.1 162.7 156 149.7 144 137.1 132.6 130.3 126.1 124.7 122.8 121.1 119.7 117.6 118.9 119.9 120.3 121.8 123.4 124.7 123.6 122 119.1 117.1 115.4 111.3 106.9 100.7 94.2 87.8 81.2 73.3 68.9 65.9 63.8 62.4 55.1 49.7 54 57.6 57.3 56.4 55.8 54.7 53.4 50.6 47.3 38.3 37.2 35.1 44.2 42.1 34.1 37.1 43.5 40.1 25.3 18.2 20.6 23.6 23.3 24.4 27.9 25.5 25.7 12 19.5 24.9 29.4 37.1 39.8 47.1 52.1 57.7 62.8 66.5 67.1 73.3 78.3 83.6 92.1 103.3 116.3 131 145.7 151.5 157.4 174.3 192.6 208.8 216.3 223.1 223.1 219.7 217.9 213.1 207.6 204.3 198.1 191.8 189.8 180.8 166.9 156 145.3 130.6 115.3 109.7 103.6 95.6 88.3 81.3 72.4 69.2 68.2 67 67.1 66.8 67.7 64.7 61.4 72.5 70.5 70.2 73.5 76.6 76.9 80.3 75.9 68.6 62.5 59.5 58.2 58.8 58 56 56 53 49.6 48.3 50 45.3 43.3 43.2 43.2 44.8 43.9 42.9 41.9 40.4 39.9 39.7 39.4 41.3 47.5 52.9 56.4 64.8 64.4 59 55.6 51.5 47.8 43.6 38.6 38.6 43 43.3 38.6 38.6 45.9 41.9 39.8 38.6 37.7 38.7 33.9 37.6 37.8 38.3
222.1 217.5 212.1 207.1 201.5 197.1 192.3 188.7 183.2 180.8 180.2 178.9 178.4 176.4 175.7 174.4 173.6 173.1 170.2 165.2 160.4 155.7 148.4 142.6 136 131.7 130.9 124.7 123.8 122.3 121.1 118.3 116 115.4 114.1 113.6 115.4 115 116.6 118 116.4 114.5 112 109.5 107.3 104.8 101.5 95.9 90.6 84.4 78.6 69.7 67 65.1 63.9 61.5 56.6 51.4 54.1 57.9 59.3 55.8 55.6 54.1 52.2 49.2 47.1 37.7 36.4 34.1 38.1 45.5 35.7 32.6 39.1 37.7 29.6 21.1 16.3 22.2 24.3 26.5 26.5 28.5 24.1 13.5 18.3 24.8 28.7 34.5 37.6 44.4 49.4 55 60.6 61.4 66 71.1 75.9 81.1 91.4 100.4 113.5 131.3 146.5 155.3 160.9 173.3 191.3 202.6 206.5 215.1 217.7 212.3 208.3 205.3 200 194.8 189.6 185 183 173.6 161.4 152.2 142.6 130.7 118.3 112.1 103 92.5 88.1 80.3 71.5 67.5 67.6 67 66.6 66.6 66.8 64.9 62.8 73.2 71.9 70.1 70.5 72.1 74.3 82.1 74.6 64.2 59.7 59.3 57.3 56.1 55.4 53.9 55.6 51.5 47.8 45.6 45.2 43.3 42.6 41.9 41.3 41.9 41.7 41 40.9 40 40.3 38.6 37.4 39.9 48.3 51.8 53.8 58.1 58.4 56.9 57.8 51.8 48.5 43.9 38.7 38.6 38.6 41.9 38.6 38.6 43.5 42 40.1 38.8 37 36.7 33.9 33.9 34.2 36.7
215.5 211.8 207.4 202.3 196.9 192.6 187.9 183.5 179.4 177.4 176.2 173.4 174.7 171.6 170 170.5 167.4 168.1 163.9 158.3 153.2 148.2 142.9 137.5 131.9 126.9 126.6 125.7 121.5 120.3 118.6 115.4 112.5 111.6 109.6 110.6 109.8 110.2 110.9 111.6 109.4 106.6 103.5 101.7 101.1 99.9 94.7 90.7 85.4 78.2 72.5 69 66.5 64.6 63.3 60.8 57.8 53.6 54.1 58.2 55.1 54.7 53.8 52.1 47.9 46.6 41.1 37 36.8 32.5 32.8 39.5 38 30.6 38.7 36.2 32.1 21.5 19.9 21.6 24.4 31.7 28.4 25.6 24.1 17.8 14.2 23.6 27.1 32.2 36.2 41 45.5 51.5 56.7 58.1 63.6 68.7 73.4 78.9 87.2 98.6 113.1 129.9 146.4 154 157.5 172 183.5 190.3 195.6 202.9 205.6 201.6 197.1 193.5 191.7 184.9 180.1 178.2 173.5 167.2 157.1 150.1 139.7 126.4 120.7 112.3 105.3 97.2 88.2 78.1 73.2 65.5 65 64.4 65.2 66.9 65.6 63.7 61.1 63.9 69.5 68.5 67.8 68.3 70.7 72.9 67.6 60.5 59.9 59.5 58.5 56.6 53.7 52.5 48.9 48.3 45.6 45.5 43.7 43.1 41.9 42.2 41.2 40.3 40.2 40 39.8 39.6 38.6 38.4 38.3 35.2 44.4 51.5 54.4 55.1 54.4 59.5 58.7 52.8 48.3 44.6 41.5 38.6 38.6 41.5 38.6 38.6 38.6 38.6 40.3 38.5 38 33.9 33.9 33.9 33.9 33.9
209.3 206 201.3 196.7 192.3 187.5 183.5 178.5 174.6 172.2 171.4 168.7 170.2 168.4 167 165.1 160.9 160.5 157.7 152 147.6 141.8 137.5 134.1 131.4 127.7 124.7 123.6 119.9 117.1 115.2 113.9 110.9 109.7 106.7 106 106.5 106.2 106.4 106.1 103.2 100.5 98.4 97.4 93.5 90.6 88.5 85.1 80.4 75.3 72 67.8 66.1 64.2 61.8 60.5 58.1 55.3 54.4 58.8 54.8 53.3 51.1 48.6 46.3 46.6 39.2 34 33.5 30 31.1 28.7 30.4 25.9 30.2 33.4 32.8 23.9 21.5 21.3 25.6 29.3 27.7 25.9 23 19.2 14.4 20.9 25.7 31.6 34.7 39.3 43.8 50 53.6 57 61.9 67.2 72.1 76.8 84.7 94.1 111.9 128.2 144.6 151.3 155.6 167.4 174.5 179.8 185 187.1 191.1 190 185.6 181.7 180.8 176.6 171.6 169.4 163.5 159.1 151 143.3 137 127.2 118.9 108.9 104.9 98.1 85.8 78.4 69.5 65.4 62 61.4 60.9 62.1 64.7 62.1 59.8 56.4 60.3 62 63.6 65.4 66.3 63.9 62.3 59.8 59.2 60.6 60.7 58.1 56.2 53.1 50.1 46.7 45.6 45.4 43 43.1 42.3 42.7 41.7 41.4 40.5 39.5 39.3 39.2 38.4 38.3 37.7 35.4 41.5 49.9 53.8 53.3 53 53 54.9 52.8 50.5 44.9 42.2 38.6 38.6 38.6 38.6 38.6 38.6 38.6 40.3 39.4 38.7 37.8 33.9 33.9 33.9 33.9
204.1 200.1 195.7 191.8 187.2 183.4 179.1 176.4 172.6 169.1 166.6 164.7 164.6 165.8 164.8 160.3 157.2 153.4 150.2 146.9 143.2 139.3 137.6 132.2 129.9 125.9 121.7 117.7 115.3 111 113.6 111.2 109.2 107.5 105.4 104.3 103.8 102.7 103.2 101 100.5 97.6 94.8 91.5 88.5 84.9 82.7 80 77 74.2 71.9 67 65.3 64.9 60 59.9 56.9 56.4 54.3 57.2 55.1 53.3 51.3 47.3 45.4 41.7 37.8 31.1 29.5 30.1 27.3 24.5 24.6 19.7 18.6 22.7 30.2 23 19.1 22.9 28.2 28.8 28.9 27.1 24.9 20.4 15.4 18.8 22.9 29.1 31 36.8 42.3 48.7 52.2 54.5 59.9 64.2 68.4 73.6 81.8 90.2 106.3 121.7 136.5 146.5 152.4 159.9 166.7 168.9 172.3 174.1 176.1 176.6 172.5 170.2 169.2 165.9 163.2 160.3 157.4 149.9 145.1 142 135.6 127.7 118 106.9 103.6 94.2 84.5 73.3 67.4 64.2 62.6 58.9 56.9 56.8 59.7 61.1 57.5 54 53.6 57.1 59 60.4 63.7 61.1 59.6 58.8 58.6 59.4 61.8 61.4 59.2 56 51.5 48 45.2 44 44.3 44 42.9 43.2 42.5 41.9 41 40.2 39.8 40.2 38.9 38 38.3 36.2 38.6 49 53.3 53 53 53.4 55.2 53.1 50.9 46.4 42.5 38.6 38.6 38.6 38.6 38.6 38.6 38.6 41.9 40.8 39.2 33.9 33.9 35.6 33.9 33.9
196.2 193.4 190.2 185.1 181.4 179.7 176.4 172.4 168 163.2 162.3 163.4 161.1 161.5 158.7 156.9 153.8 149.6 147 145.5 140.3 139.1 134.1 130.3 126.9 123.6 119.9 116.8 113.5 111.7 106.5 109.6 108.3 105.7 103.6 101.8 101.7 100.5 99.6 99.4 96.2 94.4 91.1 86.9 83.7 80.4 79.1 76.1 73.6 70.8 67.5 64.1 62.1 59.6 57.9 58.2 56.6 54.9 53.5 56.1 55.9 53.8 52.4 48.2 46.7 41.2 36.5 31.3 28.9 28 25.3 27.7 24.4 21.1 18.6 18.6 18.6 22.1 22.9 23.7 27.6 29.2 30.9 31 24.6 21.4 15.4 17.2 22.8 27.2 32.5 34.9 39.8 45.7 49.8 52.3 56.7 61 64.7 71.5 78.8 86.8 96.9 112.9 127.4 138.2 144.1 149.3 156.1 158.3 161.5 162.9 162.1 163.4 161.2 160 159.2 156.3 153.1 152.1 150.2 145.2 139.8 135.8 129.4 121.9 114.7 103 98.3 90.2 79.2 70.7 64.6 62.9 61.3 56.5 52.4 51.9 51.7 52 50.6 48.9 49 51.1 54.1 57 57.9 57.7 58.4 57.7 58.4 59.3 61.4 63.7 63.2 58.4 54.2 50.9 48.6 45.9 44.5 45.2 44.1 44.5 43.5 43.5 42.2 41.3 41.3 41 39.7 39.4 39 36.4 39.9 45.1 52.6 52.9 53 53 55.1 53.6 51.4 47.1 41.2 38.6 41.1 38.6 38.6 38.6 38.6 38.6 38.6 41 38.9 36.9 33.9 38.6 33.9 33.9
